passes_logs/2026/01/01/T1/T1__20260101_000757_NOAA_21_JPSS-2_rec.log

#Pass ID: 20260101_000757_NOAA 21 (JPSS-2)
#Satellite: NOAA 21 (JPSS-2)
#Configuration: NOAA 21
#almurnet v.1.7.20251203
#Start time: 2026-01-01 00:07:57

#Version: 2.0.20230620
#Station: T1
#Location: 37.570604 lon 55.790049 lat
#TLE: 1 54234U 22150A   25365.42224288  .00000199  00000+0  11529-3 0  9990
#TLE: 2 54234  98.7483 301.4995 0001320 356.2106   3.9060 14.19530300162743

#Time	Az	El	Level	Level2	SNR	BER	BlckErr	Temp	State	Recorded	gain1	gain2
2026-01-01 00:07:57.15	13.50	4.97	-52.5	-65.6	3.8	1.49e+00	0	36	0	0	75	17350
2026-01-01 00:07:58.15	13.48	5.04	-52.5	-65.6	3.8	1.49e+00	0	36	104	0	77	15424
2026-01-01 00:07:59.15	13.46	5.11	-52.5	-65.6	3.8	1.49e+00	0	36	104	0	77	15422
2026-01-01 00:08:00.16	13.44	5.18	-52.5	-65.6	3.8	1.49e+00	0	36	104	0	77	15444
2026-01-01 00:08:01.16	13.42	5.25	-52.5	-65.6	3.8	1.49e+00	0	36	104	0	77	15451
2026-01-01 00:08:02.16	13.40	5.32	-52.5	-65.6	3.8	1.49e+00	0	36	104	0	77	15404
2026-01-01 00:08:03.17	13.38	5.39	-52.5	-65.5	3.8	1.49e+00	0	36	104	0	77	15399
2026-01-01 00:08:04.17	13.36	5.47	-52.5	-65.5	3.8	1.49e+00	0	36	104	0	77	15390
2026-01-01 00:08:05.18	13.34	5.54	-52.5	-65.5	3.8	1.49e+00	0	36	104	0	77	15362
2026-01-01 00:08:06.18	13.32	5.61	-52.5	-65.6	3.8	1.49e+00	0	37	104	0	77	15479
2026-01-01 00:08:07.18	13.30	5.68	-52.5	-65.6	3.8	1.49e+00	0	36	104	0	77	15436
2026-01-01 00:08:08.19	13.28	5.76	-52.5	-65.6	3.8	1.49e+00	0	37	104	0	77	15462
2026-01-01 00:08:09.19	13.26	5.83	-52.5	-65.6	3.8	1.49e+00	0	37	104	0	77	15467
2026-01-01 00:08:10.20	13.23	5.90	-52.6	-65.7	3.8	1.49e+00	0	37	104	0	77	15601
2026-01-01 00:08:11.20	13.21	5.97	-52.6	-65.7	3.8	1.49e+00	0	37	104	0	77	15585
2026-01-01 00:08:12.21	13.19	6.05	-52.6	-65.7	3.8	1.49e+00	0	37	104	0	77	15582
2026-01-01 00:08:13.21	13.17	6.12	-52.6	-65.6	3.8	1.49e+00	0	37	104	0	77	15501
2026-01-01 00:08:14.21	13.15	6.20	-52.5	-65.6	3.8	1.49e+00	0	37	104	0	77	15526
2026-01-01 00:08:15.22	13.13	6.27	-52.5	-65.6	3.8	1.49e+00	0	37	104	0	77	15439
2026-01-01 00:08:16.22	13.10	6.34	-52.6	-65.6	3.8	1.49e+00	0	37	104	0	77	15483
2026-01-01 00:08:17.22	13.08	6.42	-52.6	-65.6	3.8	1.49e+00	0	37	104	0	77	15486
2026-01-01 00:08:18.23	13.06	6.49	-52.6	-65.6	3.8	1.49e+00	0	37	104	0	77	15489
2026-01-01 00:08:19.23	13.04	6.57	-52.6	-65.6	3.8	1.49e+00	0	37	104	0	77	15489
2026-01-01 00:08:20.23	13.01	6.64	-52.6	-65.6	3.8	1.49e+00	0	37	104	0	77	15526
2026-01-01 00:08:21.24	12.99	6.72	-52.6	-65.6	3.8	1.49e+00	0	37	104	0	77	15530
2026-01-01 00:08:22.24	12.97	6.79	-52.6	-65.6	3.8	1.49e+00	0	37	104	0	77	15512
2026-01-01 00:08:23.25	12.94	6.87	-52.5	-65.6	3.8	1.49e+00	0	37	104	0	77	15484
2026-01-01 00:08:24.25	12.92	6.95	-52.5	-65.5	3.8	1.49e+00	0	37	104	0	77	15382
2026-01-01 00:08:25.25	12.90	7.02	-52.6	-65.6	3.8	1.49e+00	0	37	104	0	77	15475
2026-01-01 00:08:26.26	12.87	7.10	-52.5	-65.6	3.8	1.49e+00	0	37	104	0	77	15504
2026-01-01 00:08:27.26	12.85	7.17	-52.5	-65.5	3.8	1.49e+00	0	37	104	0	77	15357
2026-01-01 00:08:28.31	12.82	7.26	-52.6	-65.6	3.8	1.49e+00	0	37	104	0	77	15487
2026-01-01 00:08:29.21	12.80	7.32	-52.5	-65.6	3.8	1.49e+00	0	37	104	0	77	15432
2026-01-01 00:08:30.35	12.78	7.41	-52.5	-65.6	3.8	1.49e+00	0	38	104	0	77	15497
2026-01-01 00:08:31.27	12.75	7.48	-52.5	-65.6	3.8	1.49e+00	0	37	104	0	77	15422
2026-01-01 00:08:32.45	12.72	7.57	-52.5	-65.6	3.8	1.49e+00	0	38	104	0	77	15415
2026-01-01 00:08:33.35	12.70	7.64	-52.5	-65.6	3.8	1.49e+00	0	38	104	0	77	15457
2026-01-01 00:08:34.58	12.67	7.74	-52.5	-65.5	3.8	1.49e+00	0	37	104	0	77	15379
2026-01-01 00:08:35.43	12.65	7.81	-52.5	-65.6	3.8	1.49e+00	0	37	104	0	77	15443
2026-01-01 00:08:36.72	12.62	7.91	-52.5	-65.6	3.8	1.49e+00	0	37	104	0	77	15456
2026-01-01 00:08:37.44	12.60	7.96	-52.6	-65.6	3.8	1.49e+00	0	37	104	0	77	15489
2026-01-01 00:08:38.73	12.57	8.07	-52.6	-65.6	3.8	1.49e+00	0	38	104	0	77	15457
2026-01-01 00:08:39.45	12.55	8.12	-52.6	-65.6	3.8	1.49e+00	0	37	104	0	77	15532
2026-01-01 00:08:40.74	12.51	8.23	-52.5	-65.6	3.8	1.49e+00	0	38	104	0	77	15420
2026-01-01 00:08:41.45	12.50	8.28	-52.6	-65.6	3.8	1.49e+00	0	38	104	0	77	15428
2026-01-01 00:08:42.74	12.46	8.39	-52.5	-65.6	3.8	1.49e+00	0	38	104	0	77	15438
2026-01-01 00:08:43.46	12.44	8.44	-52.5	-65.6	3.8	1.49e+00	0	38	104	0	77	15487
2026-01-01 00:08:44.79	12.41	8.55	-52.5	-65.5	3.8	1.49e+00	0	38	104	0	77	15398
2026-01-01 00:08:45.50	12.39	8.61	-52.5	-65.6	3.8	1.49e+00	0	38	104	0	77	15412
2026-01-01 00:08:46.86	12.35	8.72	-52.5	-65.5	3.8	1.49e+00	0	38	104	0	77	15379
2026-01-01 00:08:47.57	12.33	8.78	-52.5	-65.5	3.8	1.49e+00	0	38	104	0	77	15355
2026-01-01 00:08:48.86	12.30	8.88	-52.6	-65.6	3.8	1.49e+00	0	38	104	0	77	15482
2026-01-01 00:08:49.58	12.28	8.94	-52.6	-65.6	3.8	1.49e+00	0	38	104	0	77	15527
2026-01-01 00:08:50.87	12.24	9.05	-52.5	-65.6	3.8	1.49e+00	0	38	104	0	77	15459
2026-01-01 00:08:51.59	12.22	9.10	-52.6	-65.6	3.8	1.49e+00	0	38	104	0	77	15520
2026-01-01 00:08:52.88	12.19	9.21	-52.6	-65.6	3.8	1.49e+00	0	38	104	0	77	15541
2026-01-01 00:08:53.59	12.17	9.27	-52.5	-65.6	3.8	1.49e+00	0	38	104	0	77	15413
2026-01-01 00:08:54.88	12.13	9.38	-52.5	-65.6	3.8	1.49e+00	0	38	104	0	77	15407
2026-01-01 00:08:55.60	12.11	9.44	-52.5	-65.6	3.8	1.49e+00	0	38	104	0	77	15435
2026-01-01 00:08:56.89	12.07	9.54	-52.5	-65.6	3.8	1.49e+00	0	38	104	0	77	15415
2026-01-01 00:08:57.61	12.05	9.61	-52.5	-65.6	3.8	1.49e+00	0	38	104	0	77	15458
2026-01-01 00:08:58.90	12.02	9.71	-52.5	-65.5	3.8	1.49e+00	0	38	104	0	77	15350
2026-01-01 00:08:59.62	12.00	9.77	-52.5	-65.6	3.8	1.49e+00	0	38	104	0	77	15408
2026-01-01 00:09:00.90	11.96	9.88	-52.5	-65.6	3.8	1.49e+00	0	38	104	0	77	15471
2026-01-01 00:09:01.62	11.94	9.94	-52.5	-65.6	3.8	1.49e+00	0	38	104	0	77	15496
2026-01-01 00:09:02.91	11.90	10.05	-52.5	-65.5	3.8	1.49e+00	0	38	104	0	77	15394
2026-01-01 00:09:03.63	11.88	10.12	-52.6	-65.6	3.8	1.49e+00	0	38	104	0	77	15437
2026-01-01 00:09:04.92	11.84	10.23	-52.5	-65.5	3.8	1.49e+00	0	38	104	0	77	15332
2026-01-01 00:09:05.63	11.82	10.29	-52.5	-65.6	3.8	1.49e+00	0	38	104	0	77	15434
2026-01-01 00:09:06.92	11.78	10.40	-52.5	-65.5	3.8	1.49e+00	0	38	104	0	76	16246
2026-01-01 00:09:07.64	11.75	10.46	-52.5	-65.5	3.8	1.49e+00	0	38	104	0	76	16228
2026-01-01 00:09:08.93	11.71	10.57	-52.5	-65.6	3.8	1.49e+00	0	38	104	0	76	16380
2026-01-01 00:09:09.65	11.69	10.64	-52.6	-65.6	3.8	1.49e+00	0	38	104	0	76	16381
2026-01-01 00:09:10.94	11.65	10.75	-52.5	-65.5	3.8	1.49e+00	0	38	104	0	76	16314
2026-01-01 00:09:11.65	11.63	10.81	-52.5	-65.6	3.8	1.49e+00	0	38	104	0	76	16374
2026-01-01 00:09:12.94	11.59	10.93	-52.5	-65.6	3.8	1.49e+00	0	38	104	0	76	16321
2026-01-01 00:09:13.66	11.57	10.99	-52.5	-65.6	3.8	1.49e+00	0	38	104	0	76	16322
2026-01-01 00:09:14.95	11.52	11.10	-52.5	-65.6	3.8	1.49e+00	0	38	104	0	76	16401
2026-01-01 00:09:15.67	11.50	11.17	-52.5	-65.6	3.8	1.49e+00	0	38	104	0	76	16365
2026-01-01 00:09:16.96	11.46	11.28	-52.5	-65.5	3.8	1.49e+00	0	38	104	0	76	16281
2026-01-01 00:09:17.68	11.43	11.35	-52.5	-65.6	3.8	1.49e+00	0	38	104	0	76	16323
2026-01-01 00:09:18.97	11.39	11.46	-52.5	-65.5	3.8	1.49e+00	0	38	104	0	76	16194
2026-01-01 00:09:19.68	11.37	11.53	-52.5	-65.5	3.8	1.49e+00	0	38	104	0	76	16285
2026-01-01 00:09:20.98	11.32	11.65	-52.6	-65.6	3.8	1.49e+00	0	38	104	0	76	16432
2026-01-01 00:09:21.69	11.30	11.71	-52.6	-65.6	3.8	1.49e+00	0	38	104	0	76	16477
2026-01-01 00:09:22.98	11.26	11.83	-52.5	-65.5	3.8	1.49e+00	0	38	104	0	76	16285
2026-01-01 00:09:23.70	11.23	11.90	-52.5	-65.6	3.8	1.49e+00	0	38	104	0	76	16381
2026-01-01 00:09:24.99	11.19	12.01	-52.5	-65.6	3.8	1.49e+00	0	38	104	0	76	16400
2026-01-01 00:09:25.70	11.16	12.08	-52.5	-65.5	3.8	1.49e+00	0	38	104	0	76	16230
2026-01-01 00:09:26.99	11.12	12.20	-52.5	-65.6	3.8	1.49e+00	0	39	104	0	76	16319
2026-01-01 00:09:27.71	11.09	12.27	-52.5	-65.6	3.8	1.49e+00	0	38	104	0	76	16325
2026-01-01 00:09:29.00	11.05	12.39	-52.5	-65.5	3.8	1.49e+00	0	38	104	0	76	16299
2026-01-01 00:09:29.72	11.02	12.46	-52.5	-65.6	3.8	1.49e+00	0	39	104	0	76	16342
2026-01-01 00:09:31.01	10.97	12.58	-52.5	-65.5	3.8	1.49e+00	0	39	104	0	76	16280
2026-01-01 00:09:31.73	10.95	12.64	-52.5	-65.5	3.8	1.49e+00	0	38	104	0	76	16190
2026-01-01 00:09:33.02	10.90	12.77	-52.5	-65.5	3.8	1.49e+00	0	38	104	0	76	16307
2026-01-01 00:09:33.73	10.87	12.83	-52.5	-65.5	3.8	1.49e+00	0	38	104	0	76	16228
2026-01-01 00:09:35.02	10.83	12.96	-52.5	-65.5	3.8	1.49e+00	0	38	104	0	76	16292
2026-01-01 00:09:35.74	10.80	13.03	-52.5	-65.5	3.8	1.49e+00	0	39	104	0	76	16264
2026-01-01 00:09:37.03	10.75	13.15	-52.5	-65.5	3.8	1.49e+00	0	39	104	0	76	16308
2026-01-01 00:09:37.74	10.72	13.22	-52.5	-65.5	3.8	1.49e+00	0	38	104	0	76	16295
2026-01-01 00:09:39.03	10.67	13.35	-52.6	-65.6	3.8	1.49e+00	0	39	104	0	76	16440
2026-01-01 00:09:39.75	10.65	13.42	-52.6	-65.6	3.8	1.49e+00	0	39	104	0	76	16447
2026-01-01 00:09:41.04	10.60	13.54	-52.5	-65.6	3.8	1.49e+00	0	39	104	0	76	16366
2026-01-01 00:09:41.76	10.57	13.61	-52.5	-65.5	3.8	1.49e+00	0	39	104	0	76	16309
2026-01-01 00:09:43.05	10.52	13.74	-52.5	-65.6	3.8	1.49e+00	0	38	104	0	76	16332
2026-01-01 00:09:43.77	10.49	13.81	-52.5	-65.6	3.8	1.49e+00	0	39	104	0	76	16320
2026-01-01 00:09:45.06	10.44	13.94	-52.5	-65.5	3.8	1.49e+00	0	38	104	0	76	16307
2026-01-01 00:09:45.77	10.41	14.01	-52.5	-65.5	3.8	1.49e+00	0	39	104	0	76	16293
2026-01-01 00:09:47.06	10.36	14.14	-52.5	-65.6	3.8	1.49e+00	0	39	104	0	76	16358
2026-01-01 00:09:47.78	10.33	14.21	-52.5	-65.6	3.8	1.49e+00	0	39	104	0	76	16367
2026-01-01 00:09:49.07	10.27	14.34	-52.5	-65.6	3.8	1.49e+00	0	39	104	0	76	16372
2026-01-01 00:09:49.78	10.25	14.41	-52.5	-65.6	3.8	1.49e+00	0	39	104	0	76	16320
2026-01-01 00:09:51.08	10.19	14.55	-52.5	-65.6	3.8	1.49e+00	0	39	104	0	76	16320
2026-01-01 00:09:51.79	10.16	14.62	-52.5	-65.5	3.8	1.49e+00	0	39	104	0	76	16285
2026-01-01 00:09:53.08	10.11	14.75	-52.5	-65.6	3.8	1.49e+00	0	39	104	0	76	16325
2026-01-01 00:09:53.80	10.08	14.83	-52.5	-65.5	3.8	1.49e+00	0	39	104	0	76	16297
2026-01-01 00:09:55.09	10.02	14.96	-52.5	-65.5	3.8	1.49e+00	0	39	104	0	76	16268
2026-01-01 00:09:55.81	9.99	15.03	-52.5	-65.6	3.8	1.49e+00	0	39	104	0	76	16389
2026-01-01 00:09:57.10	9.93	15.17	-52.5	-65.6	3.8	1.49e+00	0	39	104	0	76	16321
2026-01-01 00:09:57.81	9.90	15.24	-52.5	-65.5	3.8	1.49e+00	0	39	104	0	76	16266
2026-01-01 00:09:59.10	9.84	15.38	-52.6	-65.6	3.8	1.49e+00	0	39	104	0	76	16378
2026-01-01 00:09:59.82	9.81	15.45	-52.6	-65.6	3.8	1.49e+00	0	39	104	0	76	16365
2026-01-01 00:10:01.10	9.75	15.59	-52.5	-65.6	3.8	1.49e+00	0	39	104	0	76	16377
2026-01-01 00:10:01.82	9.72	15.67	-52.6	-65.7	3.8	1.49e+00	0	39	104	0	76	16554
2026-01-01 00:10:03.11	9.66	15.81	-52.6	-65.6	3.8	1.49e+00	0	38	104	0	76	16360
2026-01-01 00:10:03.83	9.63	15.88	-52.6	-65.6	3.8	1.49e+00	0	39	104	0	76	16383
2026-01-01 00:10:05.12	9.57	16.02	-52.5	-65.6	3.8	1.49e+00	0	39	104	0	76	16319
2026-01-01 00:10:05.84	9.54	16.10	-52.5	-65.5	3.8	1.49e+00	0	39	104	0	76	16257
2026-01-01 00:10:07.13	9.48	16.24	-52.5	-65.6	3.8	1.49e+00	0	39	104	0	76	16379
2026-01-01 00:10:07.84	9.44	16.32	-52.6	-65.6	3.8	1.49e+00	0	39	104	0	76	16350
2026-01-01 00:10:09.13	9.38	16.46	-52.6	-65.6	3.8	1.49e+00	0	39	104	0	76	16455
2026-01-01 00:10:09.85	9.34	16.54	-52.5	-65.6	3.8	1.49e+00	0	39	104	0	76	16397
2026-01-01 00:10:11.14	9.28	16.68	-52.5	-65.5	3.8	1.49e+00	0	39	104	0	76	16273
2026-01-01 00:10:11.85	9.25	16.76	-52.5	-65.5	3.8	1.49e+00	0	39	104	0	76	16227
2026-01-01 00:10:13.14	9.18	16.90	-52.5	-65.5	3.8	1.49e+00	0	39	104	0	76	16244
2026-01-01 00:10:13.86	9.15	16.99	-52.5	-65.5	3.8	1.49e+00	0	39	104	0	76	16294
2026-01-01 00:10:15.15	9.08	17.13	-52.5	-65.6	3.8	1.49e+00	0	39	104	0	76	16346
2026-01-01 00:10:15.86	9.05	17.21	-52.5	-65.6	3.8	1.49e+00	0	39	104	0	76	16356
2026-01-01 00:10:17.15	8.98	17.36	-52.5	-65.5	3.8	1.49e+00	0	39	104	0	76	16267
2026-01-01 00:10:17.87	8.94	17.44	-52.6	-65.6	3.8	1.49e+00	0	39	104	0	76	16412
2026-01-01 00:10:19.16	8.88	17.59	-52.5	-65.6	3.8	1.49e+00	0	39	104	0	76	16409
2026-01-01 00:10:19.88	8.84	17.67	-52.5	-65.6	3.8	1.49e+00	0	39	104	0	76	16327
2026-01-01 00:10:21.17	8.77	17.82	-52.5	-65.5	3.8	1.49e+00	0	39	104	0	76	16277
2026-01-01 00:10:21.89	8.73	17.90	-52.5	-65.5	3.8	1.49e+00	0	39	104	0	76	16265
2026-01-01 00:10:23.18	8.66	18.05	-52.5	-65.5	3.8	1.49e+00	0	39	104	0	76	16219
2026-01-01 00:10:23.90	8.62	18.14	-52.4	-65.5	3.8	1.49e+00	0	39	104	0	76	16164
2026-01-01 00:10:25.18	8.55	18.29	-52.5	-65.5	3.8	1.49e+00	0	39	104	0	76	16248
2026-01-01 00:10:25.90	8.51	18.37	-52.5	-65.5	3.8	1.49e+00	0	39	104	0	76	16304
2026-01-01 00:10:27.19	8.44	18.53	-52.5	-65.5	3.8	1.49e+00	0	39	104	0	76	16287
2026-01-01 00:10:27.91	8.40	18.61	-52.5	-65.6	3.8	1.49e+00	0	39	104	0	76	16369
2026-01-01 00:10:29.19	8.33	18.77	-52.5	-65.5	3.8	1.49e+00	0	39	104	0	76	16313
2026-01-01 00:10:29.91	8.29	18.85	-52.5	-65.5	3.8	1.49e+00	0	39	104	0	76	16299
2026-01-01 00:10:31.20	8.21	19.01	-52.5	-65.5	3.8	1.49e+00	0	39	104	0	76	16293
2026-01-01 00:10:31.92	8.17	19.10	-52.5	-65.5	3.8	1.49e+00	0	39	104	0	76	16235
2026-01-01 00:10:33.21	8.10	19.26	-52.5	-65.5	3.8	1.49e+00	0	39	104	0	76	16269
2026-01-01 00:10:33.92	8.06	19.34	-52.5	-65.6	3.8	1.49e+00	0	39	104	0	76	16342
2026-01-01 00:10:35.21	7.98	19.50	-52.5	-65.5	3.8	1.49e+00	0	39	104	0	76	16295
2026-01-01 00:10:35.93	7.94	19.59	-52.5	-65.5	3.8	1.49e+00	0	39	104	0	76	16257
2026-01-01 00:10:37.22	7.86	19.75	-52.5	-65.5	3.8	1.49e+00	0	39	104	0	76	16202
2026-01-01 00:10:37.94	7.81	19.84	-52.5	-65.5	3.8	1.49e+00	0	39	104	0	76	16257
2026-01-01 00:10:39.23	7.74	20.00	-52.5	-65.5	3.8	1.49e+00	0	39	104	0	76	16261
2026-01-01 00:10:39.94	7.69	20.09	-52.5	-65.5	3.8	1.49e+00	0	39	104	0	76	16307
2026-01-01 00:10:41.23	7.61	20.26	-52.5	-65.6	3.8	1.49e+00	0	39	104	0	76	16316
2026-01-01 00:10:41.95	7.56	20.35	-52.6	-65.6	3.8	1.49e+00	0	39	104	0	76	16408
2026-01-01 00:10:43.24	7.48	20.52	-52.5	-65.6	3.8	1.49e+00	0	39	104	0	76	16368
2026-01-01 00:10:43.95	7.44	20.61	-52.6	-65.6	3.8	1.49e+00	0	39	104	0	76	16436
2026-01-01 00:10:45.25	7.35	20.78	-52.5	-65.6	3.8	1.49e+00	0	39	104	0	76	16318
2026-01-01 00:10:45.96	7.31	20.87	-52.5	-65.5	3.8	1.49e+00	0	39	104	0	76	16256
2026-01-01 00:10:47.25	7.22	21.04	-52.5	-65.5	3.8	1.49e+00	0	39	104	0	76	16212
2026-01-01 00:10:47.97	7.17	21.13	-52.5	-65.5	3.8	1.49e+00	0	39	104	0	76	16273
2026-01-01 00:10:49.26	7.09	21.30	-52.4	-65.5	3.8	1.49e+00	0	39	104	0	76	16198
2026-01-01 00:10:50.21	7.02	21.43	-52.4	-65.5	3.8	1.49e+00	0	39	104	0	76	16245
2026-01-01 00:10:51.21	6.95	21.56	-52.5	-65.6	3.8	1.49e+00	0	39	104	0	76	16347
2026-01-01 00:10:52.22	6.88	21.70	-52.5	-65.6	3.8	1.49e+00	0	39	104	0	76	16338
2026-01-01 00:10:53.22	6.81	21.83	-52.5	-65.6	3.8	1.49e+00	0	39	104	0	76	16348
2026-01-01 00:10:54.22	6.74	21.97	-52.5	-65.6	3.8	1.49e+00	0	39	104	0	76	16316
2026-01-01 00:10:55.23	6.67	22.10	-52.5	-65.6	3.8	1.49e+00	0	39	104	0	76	16349
2026-01-01 00:10:56.23	6.60	22.24	-52.5	-65.5	3.8	1.49e+00	0	39	104	0	76	16255
2026-01-01 00:10:57.24	6.53	22.38	-52.4	-65.5	3.8	1.49e+00	0	39	104	0	76	16170
2026-01-01 00:10:58.24	6.45	22.52	-52.5	-65.5	3.8	1.49e+00	0	39	104	0	76	16242
2026-01-01 00:10:59.25	6.38	22.66	-52.4	-65.5	3.8	1.49e+00	0	39	104	0	76	16230
2026-01-01 00:11:00.25	6.30	22.80	-52.4	-65.5	3.8	1.49e+00	0	39	104	0	76	16163
2026-01-01 00:11:01.25	6.23	22.94	-52.5	-65.5	3.8	1.49e+00	0	39	104	0	76	16281
2026-01-01 00:11:02.26	6.15	23.08	-52.5	-65.5	3.8	1.49e+00	0	39	104	0	76	16274
2026-01-01 00:11:03.49	6.06	23.25	-52.4	-65.5	3.8	1.49e+00	0	39	104	0	76	16217
2026-01-01 00:11:04.38	5.99	23.38	-52.5	-65.5	3.8	1.49e+00	0	39	104	0	76	16233
2026-01-01 00:11:05.69	5.89	23.57	-52.4	-65.5	3.8	1.49e+00	0	39	104	0	76	16193
2026-01-01 00:11:06.41	5.83	23.67	-52.4	-65.5	3.8	1.49e+00	0	39	104	0	76	16206
2026-01-01 00:11:07.70	5.73	23.86	-52.4	-65.5	3.8	1.49e+00	0	39	104	0	76	16189
2026-01-01 00:11:08.42	5.67	23.97	-52.4	-65.5	3.8	1.49e+00	0	39	104	0	76	16250
2026-01-01 00:11:09.71	5.56	24.15	-52.4	-65.4	3.8	1.49e+00	0	39	104	0	76	16122
2026-01-01 00:11:10.43	5.50	24.26	-52.4	-65.5	3.8	1.49e+00	0	39	104	0	76	16182
2026-01-01 00:11:11.72	5.40	24.45	-52.4	-65.5	3.8	1.49e+00	0	39	104	0	76	16155
2026-01-01 00:11:12.44	5.34	24.56	-52.4	-65.5	3.8	1.49e+00	0	39	104	0	76	16133
2026-01-01 00:11:13.73	5.23	24.75	-52.4	-65.5	3.8	1.49e+00	0	39	104	0	76	16175
2026-01-01 00:11:14.44	5.17	24.86	-52.4	-65.4	3.8	1.49e+00	0	39	104	0	76	16115
2026-01-01 00:11:15.74	5.05	25.05	-52.4	-65.4	3.8	1.49e+00	0	39	104	0	76	16104
2026-01-01 00:11:16.45	4.99	25.16	-52.5	-65.5	3.8	1.49e+00	0	39	104	0	76	16178
2026-01-01 00:11:17.84	4.87	25.37	-52.4	-65.5	3.8	1.49e+00	0	39	104	0	76	16203
2026-01-01 00:11:18.55	4.81	25.48	-52.4	-65.5	3.8	1.49e+00	0	39	104	0	76	16183
2026-01-01 00:11:19.91	4.68	25.69	-52.4	-65.5	3.8	1.49e+00	0	39	104	0	76	16163
2026-01-01 00:11:20.62	4.62	25.80	-52.4	-65.5	3.8	1.49e+00	0	39	104	0	76	16236
2026-01-01 00:11:21.92	4.50	26.01	-52.4	-65.4	3.8	1.49e+00	0	39	104	0	76	16085
2026-01-01 00:11:22.63	4.43	26.12	-52.4	-65.4	3.8	1.49e+00	0	39	104	0	76	16113
2026-01-01 00:11:23.92	4.31	26.32	-52.4	-65.4	3.8	1.49e+00	0	39	104	0	76	16127
2026-01-01 00:11:24.64	4.25	26.44	-52.4	-65.4	3.8	1.49e+00	0	39	104	0	76	16096
2026-01-01 00:11:25.93	4.12	26.64	-52.4	-65.5	3.8	1.49e+00	0	39	104	0	76	16189
2026-01-01 00:11:26.65	4.05	26.76	-52.5	-65.6	3.8	1.49e+00	0	39	104	0	76	16315
2026-01-01 00:11:27.94	3.93	26.96	-52.4	-65.5	3.8	1.49e+00	0	39	104	0	76	16236
2026-01-01 00:11:28.66	3.85	27.08	-52.4	-65.5	3.8	1.49e+00	0	39	104	0	76	16213
2026-01-01 00:11:29.95	3.73	27.29	-52.5	-65.5	3.8	1.49e+00	0	39	104	0	76	16233
2026-01-01 00:11:30.67	3.65	27.41	-52.5	-65.5	3.8	1.49e+00	0	39	104	0	76	16244
2026-01-01 00:11:31.96	3.52	27.62	-52.5	-65.5	3.8	1.49e+00	0	39	104	0	76	16243
2026-01-01 00:11:32.68	3.45	27.74	-52.4	-65.5	3.8	1.49e+00	0	39	104	0	76	16154
2026-01-01 00:11:33.97	3.31	27.96	-52.4	-65.5	3.8	1.49e+00	0	39	104	0	76	16182
2026-01-01 00:11:34.69	3.24	28.08	-52.4	-65.5	3.8	1.49e+00	0	39	104	0	76	16181
2026-01-01 00:11:35.98	3.10	28.29	-52.4	-65.5	3.8	1.49e+00	0	39	104	0	76	16244
2026-01-01 00:11:36.70	3.02	28.41	-52.5	-65.5	3.8	1.49e+00	0	39	104	0	76	16243
2026-01-01 00:11:37.99	2.88	28.63	-52.5	-65.5	3.8	1.49e+00	0	39	104	0	76	16214
2026-01-01 00:11:38.70	2.80	28.76	-52.4	-65.5	3.8	1.49e+00	0	39	104	0	76	16148
2026-01-01 00:11:40.00	2.66	28.98	-52.4	-65.4	3.8	1.49e+00	0	39	104	0	76	16088
2026-01-01 00:11:40.71	2.58	29.10	-52.4	-65.5	3.8	1.49e+00	0	39	104	0	76	16157
2026-01-01 00:11:42.00	2.43	29.33	-52.4	-65.4	3.8	1.49e+00	0	39	104	0	76	16117
2026-01-01 00:11:42.72	2.35	29.45	-52.4	-65.5	3.8	1.49e+00	0	39	104	0	76	16185
2026-01-01 00:11:44.01	2.20	29.68	-52.5	-65.5	3.8	1.49e+00	0	39	104	0	76	16301
2026-01-01 00:11:44.73	2.11	29.81	-52.5	-65.5	3.8	1.49e+00	0	39	104	0	76	16177
2026-01-01 00:11:46.02	1.96	30.04	-52.5	-65.5	3.8	1.49e+00	0	39	104	0	76	16290
2026-01-01 00:11:46.74	1.87	30.16	-52.5	-65.5	3.8	1.49e+00	0	39	104	0	76	16214
2026-01-01 00:11:48.03	1.71	30.40	-52.4	-65.4	3.8	1.49e+00	0	39	104	0	76	16126
2026-01-01 00:11:48.75	1.63	30.53	-52.5	-65.6	3.8	1.49e+00	0	39	104	0	76	16375
2026-01-01 00:11:50.04	1.46	30.76	-52.5	-65.6	3.8	1.49e+00	0	39	104	0	76	16379
2026-01-01 00:11:50.76	1.37	30.89	-52.5	-65.6	3.8	1.49e+00	0	39	104	0	76	16377
2026-01-01 00:11:52.05	1.21	31.13	-52.6	-65.6	3.8	1.49e+00	0	39	104	0	76	16393
2026-01-01 00:11:52.77	1.12	31.26	-52.5	-65.5	3.8	1.49e+00	0	39	104	0	76	16306
2026-01-01 00:11:54.06	0.95	31.50	-52.5	-65.5	3.8	1.49e+00	0	39	104	0	76	16303
2026-01-01 00:11:54.78	0.85	31.64	-52.5	-65.6	3.8	1.49e+00	0	39	104	0	76	16338
2026-01-01 00:11:56.07	0.68	31.88	-52.5	-65.5	3.8	1.49e+00	0	39	104	0	76	16282
2026-01-01 00:11:56.79	0.58	32.01	-52.5	-65.5	3.8	1.49e+00	0	39	104	0	76	16265
2026-01-01 00:11:58.08	0.40	32.26	-52.5	-65.5	3.8	1.49e+00	0	39	104	0	76	16298
2026-01-01 00:11:58.79	0.31	32.39	-52.4	-65.5	3.8	1.49e+00	0	39	104	0	76	16243
2026-01-01 00:12:00.08	0.12	32.64	-52.4	-65.5	3.8	1.49e+00	0	39	104	0	76	16177
2026-01-01 00:12:00.80	0.02	32.78	-52.5	-65.5	3.8	1.49e+00	0	39	104	0	76	16308
2026-01-01 00:12:02.09	359.84	33.03	-52.5	-65.5	3.8	1.49e+00	0	39	104	0	76	16310
2026-01-01 00:12:02.81	359.73	33.17	-52.5	-65.6	3.8	1.49e+00	0	39	104	0	76	16353
2026-01-01 00:12:04.10	359.54	33.42	-52.5	-65.5	3.8	1.49e+00	0	39	104	0	76	16301
2026-01-01 00:12:04.82	359.43	33.56	-52.5	-65.6	3.8	1.49e+00	0	39	104	0	76	16357
2026-01-01 00:12:06.11	359.24	33.82	-52.5	-65.5	3.8	1.49e+00	0	39	104	0	76	16259
2026-01-01 00:12:06.83	359.13	33.96	-52.5	-65.5	3.8	1.49e+00	0	39	104	0	76	16213
2026-01-01 00:12:08.12	358.93	34.22	-52.5	-65.5	3.8	1.49e+00	0	39	104	0	76	16229
2026-01-01 00:12:08.83	358.82	34.36	-52.5	-65.6	3.8	1.49e+00	0	39	104	0	76	16337
2026-01-01 00:12:10.13	358.61	34.63	-52.5	-65.5	3.8	1.49e+00	0	39	104	0	76	16262
2026-01-01 00:12:10.84	358.49	34.77	-52.4	-65.5	3.8	1.49e+00	0	39	104	0	76	16206
2026-01-01 00:12:12.13	358.28	35.04	-52.4	-65.5	3.8	1.49e+00	0	39	104	0	76	16222
2026-01-01 00:12:12.85	358.16	35.18	-52.4	-65.5	3.8	1.49e+00	0	39	104	0	76	16159
2026-01-01 00:12:14.14	357.95	35.45	-52.4	-65.5	3.8	1.49e+00	0	39	104	0	76	16172
2026-01-01 00:12:14.86	357.83	35.60	-52.5	-65.5	3.8	1.49e+00	0	39	104	0	76	16297
2026-01-01 00:12:16.15	357.60	35.87	-52.5	-65.6	3.8	1.49e+00	0	39	104	0	76	16369
2026-01-01 00:12:16.86	357.48	36.02	-52.5	-65.6	3.8	1.49e+00	0	39	104	0	76	16315
2026-01-01 00:12:18.16	357.25	36.29	-52.5	-65.5	3.8	1.49e+00	0	39	104	0	76	16259
2026-01-01 00:12:18.88	357.12	36.44	-52.5	-65.5	3.8	1.49e+00	0	39	104	0	76	16297
2026-01-01 00:12:20.17	356.89	36.72	-52.5	-65.6	3.8	1.49e+00	0	39	104	0	76	16435
2026-01-01 00:12:20.88	356.76	36.87	-52.4	-65.5	3.8	1.49e+00	0	39	104	0	76	16293
2026-01-01 00:12:22.18	356.52	37.15	-52.4	-65.5	3.8	1.49e+00	0	39	104	0	76	16208
2026-01-01 00:12:22.89	356.38	37.30	-52.5	-65.5	3.8	1.49e+00	0	39	104	0	76	16234
2026-01-01 00:12:24.18	356.14	37.58	-52.4	-65.5	3.8	1.49e+00	0	39	104	0	76	16139
2026-01-01 00:12:24.90	356.00	37.74	-52.5	-65.5	3.8	1.49e+00	0	39	104	0	76	16297
2026-01-01 00:12:26.19	355.74	38.02	-52.4	-65.5	3.8	1.49e+00	0	39	104	0	76	16185
2026-01-01 00:12:26.91	355.60	38.18	-52.5	-65.5	3.8	1.49e+00	0	39	104	0	76	16275
2026-01-01 00:12:28.20	355.34	38.47	-52.4	-65.5	3.8	1.49e+00	0	39	104	0	76	16196
2026-01-01 00:12:28.92	355.19	38.63	-52.5	-65.5	3.8	1.49e+00	0	39	104	0	76	16219
2026-01-01 00:12:30.21	354.92	38.92	-52.4	-65.5	3.8	1.49e+00	0	39	104	0	76	16215
2026-01-01 00:12:30.92	354.77	39.08	-52.4	-65.5	3.8	1.49e+00	0	39	104	0	76	16197
2026-01-01 00:12:32.21	354.50	39.37	-52.4	-65.5	3.8	1.49e+00	0	39	104	0	76	16131
2026-01-01 00:12:32.93	354.34	39.53	-52.4	-65.4	3.8	1.49e+00	0	39	104	0	76	16115
2026-01-01 00:12:34.22	354.06	39.82	-52.4	-65.4	3.8	1.49e+00	0	39	104	0	76	16097
2026-01-01 00:12:34.94	353.90	39.99	-52.4	-65.5	3.8	1.49e+00	0	39	104	0	76	16169
2026-01-01 00:12:36.23	353.60	40.29	-52.4	-65.5	3.8	1.49e+00	0	39	104	0	76	16210
2026-01-01 00:12:36.95	353.44	40.45	-52.4	-65.4	3.8	1.49e+00	0	39	104	0	76	16114
2026-01-01 00:12:38.24	353.14	40.75	-52.4	-65.5	3.8	1.49e+00	0	39	104	0	76	16172
2026-01-01 00:12:38.96	352.97	40.92	-52.5	-65.5	3.8	1.49e+00	0	39	104	0	76	16283
2026-01-01 00:12:40.25	352.66	41.22	-52.5	-65.5	3.8	1.49e+00	0	39	104	0	76	16264
2026-01-01 00:12:40.97	352.48	41.39	-52.5	-65.5	3.8	1.49e+00	0	39	104	0	76	16258
2026-01-01 00:12:42.26	352.16	41.69	-52.5	-65.5	3.8	1.49e+00	0	39	104	0	76	16278
2026-01-01 00:12:42.98	351.98	41.86	-52.5	-65.5	3.8	1.49e+00	0	39	104	0	76	16292
2026-01-01 00:12:44.27	351.65	42.17	-52.5	-65.6	3.8	1.49e+00	0	39	104	0	76	16408
2026-01-01 00:12:45.10	351.44	42.36	-52.5	-65.6	3.8	1.49e+00	0	39	104	0	76	16324
2026-01-01 00:12:46.24	351.14	42.64	-52.5	-65.5	3.8	1.49e+00	0	39	104	0	76	16202
2026-01-01 00:12:47.10	350.91	42.84	-52.4	-65.5	3.8	1.49e+00	0	39	104	0	76	16206
2026-01-01 00:12:48.25	350.60	43.12	-52.4	-65.5	3.8	1.49e+00	0	39	104	0	76	16208
2026-01-01 00:12:49.11	350.36	43.33	-52.4	-65.5	3.8	1.49e+00	0	39	104	0	76	16132
2026-01-01 00:12:50.26	350.04	43.61	-52.4	-65.5	3.8	1.49e+00	0	39	104	0	76	16166
2026-01-01 00:12:51.51	349.69	43.91	-52.4	-65.5	3.8	1.49e+00	0	39	104	0	76	16174
2026-01-01 00:12:52.36	349.44	44.12	-52.4	-65.5	3.8	1.49e+00	0	39	104	0	76	16222
2026-01-01 00:12:53.51	349.10	44.40	-52.5	-65.5	3.8	1.49e+00	0	39	104	0	76	16235
2026-01-01 00:12:54.37	348.85	44.61	-52.4	-65.5	3.8	1.49e+00	0	39	104	0	76	16248
2026-01-01 00:12:55.52	348.50	44.89	-52.4	-65.4	3.8	1.49e+00	0	39	104	0	76	16090
2026-01-01 00:12:56.38	348.23	45.10	-52.4	-65.5	3.8	1.49e+00	0	39	104	0	76	16143
2026-01-01 00:12:57.52	347.88	45.38	-52.4	-65.5	3.8	1.49e+00	0	39	104	0	76	16143
2026-01-01 00:12:58.38	347.61	45.60	-52.4	-65.5	3.8	1.49e+00	0	39	104	0	76	16143
2026-01-01 00:12:59.59	347.22	45.90	-52.5	-65.5	3.8	1.49e+00	0	39	104	0	76	16248
2026-01-01 00:13:00.46	346.93	46.11	-52.5	-65.5	3.8	1.49e+00	0	39	104	0	76	16251
2026-01-01 00:13:01.67	346.53	46.42	-52.4	-65.5	3.8	1.49e+00	0	39	104	0	76	16228
2026-01-01 00:13:02.53	346.23	46.63	-52.4	-65.5	3.8	1.49e+00	0	39	104	0	76	16178
2026-01-01 00:13:03.74	345.82	46.93	-52.4	-65.5	3.8	1.49e+00	0	39	104	0	76	16233
2026-01-01 00:13:04.60	345.52	47.15	-52.4	-65.5	3.8	1.49e+00	0	39	104	0	76	16207
2026-01-01 00:13:05.75	345.11	47.44	-52.4	-65.5	3.8	1.49e+00	0	39	104	0	76	16142
2026-01-01 00:13:06.61	344.79	47.65	-52.4	-65.4	3.8	1.49e+00	0	39	104	0	76	16109
2026-01-01 00:13:07.76	344.37	47.94	-52.4	-65.5	3.8	1.49e+00	0	39	104	0	76	16153
2026-01-01 00:13:08.62	344.05	48.16	-52.4	-65.5	3.8	1.49e+00	0	39	104	0	76	16187
2026-01-01 00:13:09.77	343.61	48.45	-52.4	-65.5	3.8	1.49e+00	0	39	104	0	76	16175
2026-01-01 00:13:10.63	343.28	48.66	-52.4	-65.5	3.8	1.49e+00	0	39	104	0	76	16251
2026-01-01 00:13:11.77	342.83	48.95	-52.4	-65.4	3.8	1.49e+00	0	39	104	0	76	16123
2026-01-01 00:13:12.63	342.49	49.16	-52.4	-65.5	3.8	1.49e+00	0	39	104	0	76	16140
2026-01-01 00:13:13.78	342.02	49.45	-52.4	-65.4	3.8	1.49e+00	0	39	104	0	76	16073
2026-01-01 00:13:14.64	341.66	49.67	-52.4	-65.4	3.8	1.49e+00	0	39	104	0	76	16069
2026-01-01 00:13:15.79	341.18	49.96	-52.4	-65.4	3.8	1.49e+00	0	39	104	0	76	16109
2026-01-01 00:13:16.65	340.81	50.17	-52.4	-65.4	3.8	1.49e+00	0	39	104	0	76	16056
2026-01-01 00:13:17.80	340.31	50.46	-52.4	-65.5	3.8	1.49e+00	0	39	104	0	76	16259
2026-01-01 00:13:18.66	339.93	50.68	-52.4	-65.5	3.8	1.49e+00	0	39	104	0	76	16140
2026-01-01 00:13:19.81	339.42	50.96	-52.4	-65.4	3.8	1.49e+00	0	39	104	0	76	16085
2026-01-01 00:13:20.67	339.02	51.18	-52.4	-65.5	3.8	1.49e+00	0	39	104	0	76	16165
2026-01-01 00:13:21.82	338.49	51.46	-52.4	-65.5	3.8	1.49e+00	0	39	104	0	76	16150
2026-01-01 00:13:22.68	338.08	51.67	-52.4	-65.4	3.8	1.49e+00	0	39	104	0	76	16080
2026-01-01 00:13:23.82	337.53	51.96	-52.4	-65.5	3.8	1.49e+00	0	39	104	0	76	16208
2026-01-01 00:13:24.68	337.11	52.17	-52.4	-65.4	3.8	1.49e+00	0	39	104	0	76	16086
2026-01-01 00:13:25.83	336.54	52.45	-52.4	-65.4	3.8	1.49e+00	0	39	104	0	76	16094
2026-01-01 00:13:26.69	336.11	52.66	-52.4	-65.5	3.8	1.49e+00	0	39	104	0	76	16132
2026-01-01 00:13:27.84	335.52	52.94	-52.4	-65.4	3.8	1.49e+00	0	39	104	0	76	16028
2026-01-01 00:13:28.70	335.07	53.14	-52.4	-65.4	3.8	1.49e+00	0	39	104	0	76	16115
2026-01-01 00:13:29.85	334.46	53.42	-52.4	-65.5	3.8	1.49e+00	0	39	104	0	76	16140
2026-01-01 00:13:30.71	333.99	53.62	-52.4	-65.4	3.8	1.49e+00	0	39	104	0	76	16072
2026-01-01 00:13:31.85	333.37	53.89	-52.4	-65.4	3.8	1.49e+00	0	39	104	0	76	16119
2026-01-01 00:13:32.71	332.89	54.10	-52.4	-65.5	3.8	1.49e+00	0	39	104	0	76	16204
2026-01-01 00:13:33.86	332.23	54.37	-52.4	-65.4	3.8	1.49e+00	0	39	104	0	76	16053
2026-01-01 00:13:34.72	331.74	54.57	-52.4	-65.5	3.8	1.49e+00	0	39	104	0	76	16203
2026-01-01 00:13:35.87	331.06	54.83	-52.4	-65.5	3.8	1.49e+00	0	39	104	0	76	16188
2026-01-01 00:13:36.73	330.55	55.03	-52.4	-65.4	3.8	1.49e+00	0	39	104	0	76	16077
2026-01-01 00:13:37.88	329.85	55.28	-52.4	-65.5	3.8	1.49e+00	0	39	104	0	76	16130
2026-01-01 00:13:38.74	329.32	55.48	-52.4	-65.5	3.8	1.49e+00	0	39	104	0	76	16190
2026-01-01 00:13:39.89	328.60	55.73	-52.4	-65.5	3.8	1.49e+00	0	39	104	0	76	16177
2026-01-01 00:13:40.75	328.06	55.92	-52.4	-65.5	3.8	1.49e+00	0	39	104	0	76	16154
2026-01-01 00:13:41.90	327.31	56.17	-52.5	-65.5	3.8	1.49e+00	0	39	104	0	76	16258
2026-01-01 00:13:42.76	326.75	56.35	-52.5	-65.5	3.8	1.49e+00	0	39	104	0	76	16239
2026-01-01 00:13:43.90	325.99	56.59	-52.4	-65.5	3.8	1.49e+00	0	39	104	0	76	16174
2026-01-01 00:13:44.76	325.41	56.77	-52.4	-65.5	3.8	1.49e+00	0	39	104	0	76	16265
2026-01-01 00:13:45.91	324.62	57.00	-52.4	-65.5	3.8	1.49e+00	0	39	104	0	76	16170
2026-01-01 00:13:46.78	324.01	57.18	-52.4	-65.5	3.8	1.49e+00	0	39	104	0	76	16230
2026-01-01 00:13:47.92	323.21	57.40	-52.4	-65.5	3.8	1.49e+00	0	39	104	0	76	16248
2026-01-01 00:13:48.78	322.59	57.57	-52.5	-65.5	3.8	1.49e+00	0	39	104	0	76	16244
2026-01-01 00:13:49.93	321.75	57.78	-52.4	-65.5	3.8	1.49e+00	0	39	104	0	76	16175
2026-01-01 00:13:50.79	321.12	57.94	-52.5	-65.5	3.8	1.49e+00	0	39	104	0	76	16231
2026-01-01 00:13:51.94	320.26	58.15	-52.5	-65.5	3.8	1.49e+00	0	39	104	0	76	16264
2026-01-01 00:13:52.80	319.61	58.31	-52.4	-65.4	3.8	1.49e+00	0	39	104	0	76	16113
2026-01-01 00:13:53.94	318.73	58.50	-52.4	-65.5	3.8	1.49e+00	0	39	104	0	76	16168
2026-01-01 00:13:54.81	318.05	58.65	-52.5	-65.5	3.8	1.49e+00	0	39	104	0	76	16202
2026-01-01 00:13:55.95	317.15	58.84	-52.5	-65.5	3.8	1.49e+00	0	39	104	0	76	16250
2026-01-01 00:13:56.81	316.47	58.98	-52.5	-65.5	3.8	1.49e+00	0	39	104	0	76	16191
2026-01-01 00:13:57.96	315.54	59.15	-52.5	-65.5	3.8	1.49e+00	0	39	104	0	76	16158
2026-01-01 00:13:58.82	314.83	59.28	-52.5	-65.5	3.8	1.49e+00	0	39	104	0	76	16312
2026-01-01 00:13:59.97	313.88	59.45	-52.5	-65.6	3.8	1.49e+00	0	39	104	0	76	16342
2026-01-01 00:14:00.83	313.16	59.57	-52.5	-65.6	3.8	1.49e+00	0	39	104	0	76	16319
2026-01-01 00:14:01.98	312.19	59.73	-52.5	-65.5	3.8	1.49e+00	0	39	104	0	76	16270
2026-01-01 00:14:02.84	311.46	59.84	-52.5	-65.5	3.8	1.49e+00	0	39	104	0	76	16293
2026-01-01 00:14:03.99	310.46	59.98	-52.5	-65.5	3.8	1.49e+00	0	39	104	0	76	16286
2026-01-01 00:14:04.85	309.72	60.08	-52.5	-65.5	3.8	1.49e+00	0	39	104	0	76	16227
2026-01-01 00:14:05.99	308.71	60.21	-52.5	-65.5	3.8	1.49e+00	0	39	104	0	76	16261
2026-01-01 00:14:06.85	307.95	60.30	-52.5	-65.5	3.8	1.49e+00	0	39	104	0	76	16272
2026-01-01 00:14:08.00	306.92	60.41	-52.5	-65.5	3.8	1.49e+00	0	39	104	0	76	16229
2026-01-01 00:14:08.86	306.15	60.50	-52.5	-65.5	3.8	1.49e+00	0	39	104	0	76	16261
2026-01-01 00:14:10.01	305.11	60.60	-52.5	-65.5	3.8	1.49e+00	0	39	104	0	76	16290
2026-01-01 00:14:10.87	304.32	60.67	-52.4	-65.5	3.8	1.49e+00	0	39	104	0	76	16154
2026-01-01 00:14:12.01	303.27	60.75	-52.5	-65.5	3.8	1.49e+00	0	39	104	0	76	16300
2026-01-01 00:14:12.88	302.47	60.81	-52.5	-65.5	3.8	1.49e+00	0	39	104	0	76	16273
2026-01-01 00:14:14.02	301.41	60.88	-52.5	-65.5	3.8	1.49e+00	0	39	104	0	76	16248
2026-01-01 00:14:14.88	300.61	60.93	-52.5	-65.5	3.8	1.49e+00	0	39	104	0	76	16199
2026-01-01 00:14:16.03	299.53	60.98	-52.4	-65.5	3.8	1.49e+00	0	39	104	0	76	16218
2026-01-01 00:14:16.89	298.72	61.02	-52.5	-65.5	3.8	1.49e+00	0	39	104	0	76	16183
2026-01-01 00:14:18.04	297.64	61.06	-52.5	-65.5	3.8	1.49e+00	0	39	104	0	76	16258
2026-01-01 00:14:18.90	296.82	61.08	-52.5	-65.5	3.8	1.49e+00	0	39	104	0	76	16284
2026-01-01 00:14:20.05	295.73	61.11	-52.5	-65.5	3.8	1.49e+00	0	39	104	0	76	16226
2026-01-01 00:14:20.91	294.92	61.12	-52.5	-65.6	3.8	1.49e+00	0	39	104	0	76	16320
2026-01-01 00:14:22.06	293.83	61.13	-52.5	-65.6	3.8	1.49e+00	0	39	104	0	76	16315
2026-01-01 00:14:22.92	293.01	61.13	-52.5	-65.5	3.8	1.49e+00	0	39	104	0	76	16308
2026-01-01 00:14:24.06	291.93	61.12	-52.4	-65.5	3.8	1.49e+00	0	39	104	0	76	16203
2026-01-01 00:14:24.92	291.11	61.11	-52.5	-65.5	3.8	1.49e+00	0	39	104	0	76	16312
2026-01-01 00:14:26.07	290.02	61.09	-52.5	-65.5	3.8	1.49e+00	0	39	104	0	76	16189
2026-01-01 00:14:26.93	289.21	61.06	-52.5	-65.5	3.8	1.49e+00	0	39	104	0	76	16234
2026-01-01 00:14:28.08	288.12	61.02	-52.5	-65.5	3.8	1.49e+00	0	39	104	0	76	16231
2026-01-01 00:14:28.94	287.31	60.99	-52.5	-65.5	3.8	1.49e+00	0	39	104	0	76	16263
2026-01-01 00:14:30.08	286.24	60.93	-52.5	-65.5	3.8	1.49e+00	0	39	104	0	76	16252
2026-01-01 00:14:30.94	285.44	60.89	-52.5	-65.5	3.8	1.49e+00	0	39	104	0	76	16253
2026-01-01 00:14:32.09	284.37	60.81	-52.5	-65.5	3.8	1.49e+00	0	39	104	0	76	16222
2026-01-01 00:14:32.95	283.57	60.76	-52.5	-65.5	3.8	1.49e+00	0	39	104	0	76	16249
2026-01-01 00:14:34.09	282.53	60.67	-52.4	-65.5	3.8	1.49e+00	0	39	104	0	76	16178
2026-01-01 00:14:34.96	281.73	60.60	-52.4	-65.5	3.8	1.49e+00	0	39	104	0	76	16215
2026-01-01 00:14:36.10	280.69	60.50	-52.4	-65.5	3.8	1.49e+00	0	39	104	0	76	16203
2026-01-01 00:14:36.96	279.92	60.42	-52.4	-65.5	3.8	1.49e+00	0	39	104	0	76	16180
2026-01-01 00:14:38.11	278.89	60.31	-52.4	-65.5	3.8	1.49e+00	0	39	104	0	76	16207
2026-01-01 00:14:38.97	278.13	60.22	-52.4	-65.5	3.8	1.49e+00	0	39	104	0	76	16218
2026-01-01 00:14:40.11	277.12	60.09	-52.5	-65.5	3.8	1.49e+00	0	39	104	0	76	16262
2026-01-01 00:14:40.98	276.37	59.99	-52.5	-65.5	3.8	1.49e+00	0	39	104	0	76	16255
2026-01-01 00:14:42.12	275.38	59.85	-52.5	-65.5	3.8	1.49e+00	0	39	104	0	76	16213
2026-01-01 00:14:42.98	274.64	59.73	-52.4	-65.5	3.8	1.49e+00	0	39	104	0	76	16238
2026-01-01 00:14:44.13	273.67	59.58	-52.5	-65.6	3.8	1.49e+00	0	39	104	0	76	16336
2026-01-01 00:14:44.99	272.95	59.46	-52.5	-65.6	3.8	1.49e+00	0	39	104	0	76	16362
2026-01-01 00:14:46.14	272.00	59.29	-52.5	-65.5	3.8	1.49e+00	0	39	104	0	76	16299
2026-01-01 00:14:47.00	271.29	59.16	-52.5	-65.5	3.8	1.49e+00	0	39	104	0	76	16290
2026-01-01 00:14:48.14	270.37	58.99	-52.5	-65.5	3.8	1.49e+00	0	39	104	0	76	16256
2026-01-01 00:14:49.00	269.68	58.85	-52.5	-65.5	3.8	1.49e+00	0	39	104	0	76	16260
2026-01-01 00:14:50.15	268.77	58.66	-52.5	-65.5	3.8	1.49e+00	0	39	104	0	76	16275
2026-01-01 00:14:51.01	268.10	58.52	-52.5	-65.5	3.8	1.49e+00	0	39	104	0	76	16202
2026-01-01 00:14:52.16	267.21	58.32	-52.4	-65.5	3.8	1.49e+00	0	39	104	0	76	16186
2026-01-01 00:14:53.02	266.56	58.16	-52.6	-65.7	3.8	1.49e+00	0	39	104	0	76	16513
2026-01-01 00:14:54.16	265.70	57.96	-52.5	-65.5	3.8	1.49e+00	0	39	104	0	76	16279
2026-01-01 00:14:55.02	265.07	57.80	-52.6	-65.6	3.8	1.49e+00	0	39	104	0	76	16422
2026-01-01 00:14:56.16	264.24	57.58	-52.5	-65.6	3.8	1.49e+00	0	39	104	0	76	16416
2026-01-01 00:14:57.03	263.61	57.41	-52.5	-65.5	3.8	1.49e+00	0	39	104	0	76	16203
2026-01-01 00:14:58.17	262.80	57.19	-52.5	-65.5	3.8	1.49e+00	0	39	104	0	76	16254
2026-01-01 00:14:59.03	262.20	57.01	-52.5	-65.5	3.8	1.49e+00	0	39	104	0	76	16234
2026-01-01 00:15:00.18	261.41	56.78	-52.5	-65.5	3.8	1.49e+00	0	39	104	0	76	16264
2026-01-01 00:15:01.04	260.83	56.60	-52.5	-65.5	3.8	1.49e+00	0	39	104	0	76	16280
2026-01-01 00:15:02.19	260.06	56.36	-52.5	-65.5	3.8	1.49e+00	0	39	104	0	76	16284
2026-01-01 00:15:03.05	259.49	56.18	-52.5	-65.6	3.8	1.49e+00	0	39	104	0	76	16326
2026-01-01 00:15:04.20	258.75	55.93	-52.5	-65.5	3.8	1.49e+00	0	39	104	0	76	16261
2026-01-01 00:15:05.06	258.20	55.74	-52.5	-65.5	3.8	1.49e+00	0	39	104	0	76	16291
2026-01-01 00:15:06.20	257.48	55.49	-52.5	-65.5	3.8	1.49e+00	0	39	104	0	76	16248
2026-01-01 00:15:07.06	256.95	55.29	-52.4	-65.5	3.8	1.49e+00	0	39	104	0	76	16240
2026-01-01 00:15:08.21	256.25	55.03	-52.5	-65.5	3.8	1.49e+00	0	39	104	0	76	16222
2026-01-01 00:15:09.07	255.74	54.84	-52.4	-65.5	3.8	1.49e+00	0	39	104	0	76	16212
2026-01-01 00:15:10.22	255.06	54.57	-52.4	-65.5	3.8	1.49e+00	0	39	104	0	76	16201
2026-01-01 00:15:11.08	254.57	54.37	-52.4	-65.5	3.8	1.49e+00	0	39	104	0	76	16177
2026-01-01 00:15:12.23	253.91	54.10	-52.5	-65.5	3.8	1.49e+00	0	39	104	0	76	16239
2026-01-01 00:15:13.09	253.43	53.90	-52.5	-65.6	3.8	1.49e+00	0	39	104	0	76	16322
2026-01-01 00:15:14.24	252.79	53.63	-52.5	-65.5	3.8	1.49e+00	0	39	104	0	76	16271
2026-01-01 00:15:15.10	252.33	53.42	-52.5	-65.5	3.8	1.49e+00	0	39	104	0	76	16285
2026-01-01 00:15:16.24	251.72	53.15	-52.5	-65.5	3.8	1.49e+00	0	39	104	0	76	16263
2026-01-01 00:15:17.11	251.26	52.94	-52.5	-65.6	3.8	1.49e+00	0	39	104	0	76	16323
2026-01-01 00:15:18.25	250.68	52.66	-52.5	-65.5	3.8	1.49e+00	0	39	104	0	76	16210
2026-01-01 00:15:19.11	250.24	52.45	-52.5	-65.5	3.8	1.49e+00	0	39	104	0	76	16288
2026-01-01 00:15:20.26	249.67	52.17	-52.5	-65.6	3.8	1.49e+00	0	39	104	0	76	16410
2026-01-01 00:15:21.11	249.25	51.96	-52.5	-65.5	3.8	1.49e+00	0	39	104	0	76	16302
2026-01-01 00:15:22.26	248.70	51.68	-52.5	-65.5	3.8	1.49e+00	0	39	104	0	76	16302
2026-01-01 00:15:23.22	248.24	51.44	-52.5	-65.5	3.8	1.49e+00	0	39	104	0	76	16268
2026-01-01 00:15:24.22	247.77	51.19	-52.5	-65.5	3.8	1.49e+00	0	39	104	0	76	16273
2026-01-01 00:15:25.23	247.31	50.94	-52.5	-65.6	3.8	1.49e+00	0	39	104	0	76	16447
2026-01-01 00:15:26.23	246.86	50.69	-52.5	-65.6	3.8	1.49e+00	0	39	104	0	76	16333
2026-01-01 00:15:27.23	246.42	50.44	-52.5	-65.6	3.8	1.49e+00	0	39	104	0	76	16327
2026-01-01 00:15:28.24	245.98	50.18	-52.5	-65.6	3.8	1.49e+00	0	39	104	0	76	16365
2026-01-01 00:15:29.24	245.55	49.93	-52.6	-65.6	3.8	1.49e+00	0	39	104	0	76	16372
2026-01-01 00:15:30.25	245.12	49.68	-52.5	-65.5	3.8	1.49e+00	0	39	104	0	76	16293
2026-01-01 00:15:31.25	244.71	49.42	-52.5	-65.6	3.8	1.49e+00	0	39	104	0	76	16351
2026-01-01 00:15:32.25	244.30	49.17	-52.5	-65.6	3.8	1.49e+00	0	39	104	0	76	16327
2026-01-01 00:15:33.26	243.89	48.92	-52.5	-65.6	3.8	1.49e+00	0	39	104	0	76	16382
2026-01-01 00:15:34.26	243.50	48.67	-52.5	-65.6	3.8	1.49e+00	0	39	104	0	76	16355
2026-01-01 00:15:35.26	243.11	48.41	-52.5	-65.6	3.8	1.49e+00	0	39	104	0	76	16319
2026-01-01 00:15:36.33	242.70	48.14	-52.5	-65.5	3.8	1.49e+00	0	39	104	0	76	16272
2026-01-01 00:15:37.21	242.37	47.92	-52.5	-65.5	3.8	1.49e+00	0	39	104	0	76	16269
2026-01-01 00:15:38.35	241.95	47.63	-52.5	-65.5	3.8	1.49e+00	0	39	104	0	76	16290
2026-01-01 00:15:39.31	241.60	47.39	-52.5	-65.5	3.8	1.49e+00	0	39	104	0	76	16273
2026-01-01 00:15:40.49	241.18	47.10	-52.5	-65.6	3.8	1.49e+00	0	39	104	0	76	16353
2026-01-01 00:15:41.38	240.87	46.87	-52.5	-65.5	3.8	1.49e+00	0	39	104	0	76	16213
2026-01-01 00:15:42.58	240.45	46.57	-52.5	-65.5	3.8	1.49e+00	0	39	104	0	76	16285
2026-01-01 00:15:43.46	240.16	46.35	-52.5	-65.6	3.8	1.49e+00	0	39	104	0	76	16373
2026-01-01 00:15:44.78	239.72	46.02	-52.5	-65.5	3.8	1.49e+00	0	39	104	0	76	16312
2026-01-01 00:15:45.49	239.48	45.84	-52.5	-65.5	3.8	1.49e+00	0	39	104	0	76	16270
2026-01-01 00:15:46.78	239.07	45.52	-52.5	-65.5	3.8	1.49e+00	0	39	104	0	76	16313
2026-01-01 00:15:47.50	238.84	45.34	-52.5	-65.5	3.8	1.49e+00	0	39	104	0	76	16225
2026-01-01 00:15:48.79	238.43	45.02	-52.5	-65.5	3.8	1.49e+00	0	39	104	0	76	16290
2026-01-01 00:15:49.51	238.21	44.85	-52.5	-65.6	3.8	1.49e+00	0	39	104	0	76	16328
2026-01-01 00:15:50.80	237.82	44.53	-52.5	-65.5	3.8	1.49e+00	0	39	104	0	76	16276
2026-01-01 00:15:51.52	237.61	44.35	-52.5	-65.5	3.8	1.49e+00	0	39	104	0	76	16251
2026-01-01 00:15:52.81	237.23	44.03	-52.5	-65.6	3.8	1.49e+00	0	39	104	0	76	16333
2026-01-01 00:15:53.52	237.02	43.86	-52.5	-65.5	3.8	1.49e+00	0	39	104	0	76	16278
2026-01-01 00:15:54.82	236.65	43.54	-52.5	-65.6	3.8	1.49e+00	0	39	104	0	76	16396
2026-01-01 00:15:55.53	236.45	43.37	-52.5	-65.5	3.8	1.49e+00	0	39	104	0	76	16308
2026-01-01 00:15:56.89	236.08	43.04	-52.5	-65.6	3.8	1.49e+00	0	39	104	0	76	16369
2026-01-01 00:15:57.61	235.88	42.87	-52.5	-65.5	3.8	1.49e+00	0	39	104	0	76	16276
2026-01-01 00:15:58.90	235.54	42.56	-52.5	-65.5	3.8	1.49e+00	0	39	104	0	76	16313
2026-01-01 00:15:59.61	235.35	42.39	-52.5	-65.5	3.8	1.49e+00	0	39	104	0	76	16288
2026-01-01 00:16:00.90	235.01	42.08	-52.5	-65.5	3.8	1.49e+00	0	39	104	0	76	16304
2026-01-01 00:16:01.62	234.83	41.91	-52.5	-65.5	3.8	1.49e+00	0	39	104	0	76	16256
2026-01-01 00:16:02.91	234.50	41.60	-52.5	-65.5	3.8	1.49e+00	0	39	104	0	76	16220
2026-01-01 00:16:03.63	234.33	41.43	-52.5	-65.6	3.8	1.49e+00	0	39	104	0	76	16342
2026-01-01 00:16:04.92	234.01	41.13	-52.5	-65.5	3.8	1.49e+00	0	39	104	0	76	16292
2026-01-01 00:16:05.63	233.84	40.96	-52.5	-65.6	3.8	1.49e+00	0	39	104	0	76	16397
2026-01-01 00:16:06.93	233.53	40.66	-52.5	-65.6	3.8	1.49e+00	0	39	104	0	76	16321
2026-01-01 00:16:07.64	233.36	40.49	-52.5	-65.6	3.8	1.49e+00	0	39	104	0	76	16374
2026-01-01 00:16:08.93	233.07	40.19	-52.5	-65.6	3.8	1.49e+00	0	39	104	0	76	16372
2026-01-01 00:16:09.65	232.90	40.03	-52.5	-65.5	3.8	1.49e+00	0	39	104	0	76	16224
2026-01-01 00:16:10.94	232.61	39.73	-52.5	-65.5	3.8	1.49e+00	0	39	104	0	76	16276
2026-01-01 00:16:11.65	232.45	39.57	-52.5	-65.5	3.8	1.49e+00	0	39	104	0	76	16247
2026-01-01 00:16:12.94	232.17	39.27	-52.6	-65.6	3.8	1.49e+00	0	39	104	0	76	16493
2026-01-01 00:16:13.66	232.02	39.11	-52.6	-65.6	3.8	1.49e+00	0	39	104	0	76	16456
2026-01-01 00:16:14.95	231.75	38.82	-52.6	-65.6	3.8	1.49e+00	0	39	104	0	76	16415
2026-01-01 00:16:15.66	231.60	38.66	-52.6	-65.7	3.8	1.49e+00	0	39	104	0	76	16510
2026-01-01 00:16:16.95	231.33	38.37	-52.5	-65.5	3.8	1.49e+00	0	39	104	0	76	16307
2026-01-01 00:16:17.67	231.18	38.21	-52.5	-65.6	3.8	1.49e+00	0	39	104	0	76	16342
2026-01-01 00:16:18.96	230.93	37.93	-52.5	-65.5	3.8	1.49e+00	0	39	104	0	76	16253
2026-01-01 00:16:19.68	230.78	37.77	-52.5	-65.6	3.8	1.49e+00	0	39	104	0	76	16366
2026-01-01 00:16:20.97	230.53	37.48	-52.5	-65.6	3.8	1.49e+00	0	39	104	0	76	16375
2026-01-01 00:16:21.69	230.39	37.33	-52.5	-65.6	3.8	1.49e+00	0	39	104	0	76	16350
2026-01-01 00:16:22.98	230.15	37.05	-52.5	-65.6	3.8	1.49e+00	0	39	104	0	76	16427
2026-01-01 00:16:23.70	230.01	36.89	-52.6	-65.6	3.8	1.49e+00	0	39	104	0	76	16465
2026-01-01 00:16:24.99	229.78	36.61	-52.6	-65.6	3.8	1.49e+00	0	39	104	0	76	16411
2026-01-01 00:16:25.71	229.64	36.46	-52.5	-65.6	3.8	1.49e+00	0	39	104	0	76	16346
2026-01-01 00:16:27.00	229.41	36.19	-52.5	-65.6	3.8	1.49e+00	0	39	104	0	76	16331
2026-01-01 00:16:27.71	229.29	36.04	-52.5	-65.6	3.8	1.49e+00	0	39	104	0	76	16379
2026-01-01 00:16:29.01	229.06	35.76	-52.5	-65.6	3.8	1.49e+00	0	39	104	0	76	16353
2026-01-01 00:16:29.71	228.94	35.61	-52.5	-65.5	3.8	1.49e+00	0	39	104	0	76	16271
2026-01-01 00:16:31.00	228.72	35.35	-52.6	-65.6	3.8	1.49e+00	0	39	104	0	76	16442
2026-01-01 00:16:31.72	228.60	35.20	-52.6	-65.6	3.8	1.49e+00	0	39	104	0	76	16415
2026-01-01 00:16:33.01	228.38	34.93	-52.5	-65.5	3.8	1.49e+00	0	39	104	0	76	16285
2026-01-01 00:16:33.72	228.26	34.78	-52.5	-65.6	3.8	1.49e+00	0	39	104	0	76	16389
2026-01-01 00:16:35.02	228.05	34.52	-52.5	-65.6	3.8	1.49e+00	0	39	104	0	76	16344
2026-01-01 00:16:35.73	227.94	34.37	-52.5	-65.6	3.8	1.49e+00	0	39	104	0	76	16357
2026-01-01 00:16:37.02	227.74	34.11	-52.5	-65.6	3.8	1.49e+00	0	39	104	0	76	16321
2026-01-01 00:16:37.74	227.62	33.97	-52.5	-65.6	3.8	1.49e+00	0	39	104	0	76	16349
2026-01-01 00:16:39.03	227.43	33.71	-52.5	-65.5	3.8	1.49e+00	0	39	104	0	76	16313
2026-01-01 00:16:39.75	227.32	33.57	-52.5	-65.6	3.8	1.49e+00	0	39	104	0	76	16375
2026-01-01 00:16:41.04	227.12	33.31	-52.5	-65.6	3.8	1.49e+00	0	39	104	0	76	16324
2026-01-01 00:16:41.76	227.01	33.17	-52.5	-65.5	3.8	1.49e+00	0	39	104	0	76	16289
2026-01-01 00:16:43.05	226.83	32.92	-52.5	-65.5	3.8	1.49e+00	0	39	104	0	76	16248
2026-01-01 00:16:43.77	226.72	32.78	-52.5	-65.5	3.8	1.49e+00	0	39	104	0	76	16264
2026-01-01 00:16:45.06	226.54	32.53	-52.5	-65.6	3.8	1.49e+00	0	39	104	0	76	16399
2026-01-01 00:16:45.77	226.44	32.39	-52.5	-65.6	3.8	1.49e+00	0	39	104	0	76	16398
2026-01-01 00:16:47.07	226.25	32.14	-52.5	-65.6	3.8	1.49e+00	0	39	104	0	76	16372
2026-01-01 00:16:47.78	226.16	32.01	-52.5	-65.6	3.8	1.49e+00	0	39	104	0	76	16358
2026-01-01 00:16:49.08	225.98	31.76	-52.5	-65.6	3.8	1.49e+00	0	39	104	0	76	16315
2026-01-01 00:16:49.79	225.88	31.63	-52.5	-65.6	3.8	1.49e+00	0	39	104	0	76	16342
2026-01-01 00:16:51.08	225.71	31.38	-52.5	-65.5	3.8	1.49e+00	0	39	104	0	76	16311
2026-01-01 00:16:51.80	225.62	31.25	-52.5	-65.6	3.8	1.49e+00	0	39	104	0	76	16366
2026-01-01 00:16:53.09	225.45	31.01	-52.5	-65.6	3.8	1.49e+00	0	39	104	0	76	16319
2026-01-01 00:16:53.81	225.36	30.88	-52.5	-65.6	3.8	1.49e+00	0	39	104	0	76	16379
2026-01-01 00:16:55.10	225.19	30.64	-52.5	-65.5	3.8	1.49e+00	0	39	104	0	76	16292
2026-01-01 00:16:55.82	225.10	30.51	-52.5	-65.5	3.8	1.49e+00	0	39	104	0	76	16301
2026-01-01 00:16:57.11	224.94	30.28	-52.5	-65.6	3.8	1.49e+00	0	39	104	0	76	16330
2026-01-01 00:16:57.83	224.85	30.15	-52.5	-65.6	3.8	1.49e+00	0	39	104	0	76	16392
2026-01-01 00:16:59.12	224.70	29.91	-52.6	-65.7	3.8	1.49e+00	0	39	104	0	76	16506
2026-01-01 00:16:59.84	224.61	29.79	-52.6	-65.6	3.8	1.49e+00	0	39	104	0	76	16467
2026-01-01 00:17:01.13	224.46	29.56	-52.6	-65.7	3.8	1.49e+00	0	39	104	0	76	16510
2026-01-01 00:17:01.85	224.37	29.43	-52.6	-65.6	3.8	1.49e+00	0	39	104	0	76	16503
2026-01-01 00:17:03.14	224.22	29.20	-52.5	-65.6	3.8	1.49e+00	0	39	104	0	76	16373
2026-01-01 00:17:03.85	224.14	29.08	-52.6	-65.6	3.8	1.49e+00	0	39	104	0	76	16442
2026-01-01 00:17:05.15	223.99	28.85	-52.5	-65.6	3.8	1.49e+00	0	39	104	0	76	16397
2026-01-01 00:17:05.86	223.91	28.73	-52.5	-65.6	3.8	1.49e+00	0	39	104	0	76	16324
2026-01-01 00:17:07.16	223.77	28.51	-52.6	-65.6	3.8	1.49e+00	0	39	104	0	76	16429
2026-01-01 00:17:07.87	223.69	28.39	-52.5	-65.6	3.8	1.49e+00	0	39	104	0	76	16388
2026-01-01 00:17:09.16	223.55	28.17	-52.5	-65.5	3.8	1.49e+00	0	39	104	0	76	16289
2026-01-01 00:17:09.88	223.47	28.04	-52.5	-65.5	3.8	1.49e+00	0	39	104	0	76	16284
2026-01-01 00:17:11.17	223.34	27.83	-52.5	-65.6	3.8	1.49e+00	0	39	104	0	76	16353
2026-01-01 00:17:11.89	223.26	27.71	-52.5	-65.6	3.8	1.49e+00	0	39	104	0	76	16342
2026-01-01 00:17:13.18	223.13	27.49	-52.5	-65.6	3.8	1.49e+00	0	39	104	0	76	16412
2026-01-01 00:17:13.90	223.05	27.37	-52.5	-65.6	3.8	1.49e+00	0	39	104	0	76	16346
2026-01-01 00:17:15.19	222.92	27.16	-52.5	-65.6	3.8	1.49e+00	0	39	104	0	76	16336
2026-01-01 00:17:15.91	222.85	27.04	-52.5	-65.6	3.8	1.49e+00	0	39	104	0	76	16347
2026-01-01 00:17:17.20	222.72	26.83	-52.5	-65.6	3.8	1.49e+00	0	39	104	0	76	16332
2026-01-01 00:17:17.92	222.65	26.72	-52.5	-65.5	3.8	1.49e+00	0	39	104	0	76	16313
2026-01-01 00:17:19.21	222.52	26.51	-52.6	-65.6	3.8	1.49e+00	0	39	104	0	76	16454
2026-01-01 00:17:19.93	222.45	26.39	-52.6	-65.7	3.8	1.49e+00	0	39	104	0	76	16512
2026-01-01 00:17:21.22	222.33	26.19	-52.7	-65.7	3.8	1.49e+00	0	39	104	0	76	16589
2026-01-01 00:17:21.94	222.26	26.07	-52.6	-65.6	3.8	1.49e+00	0	39	104	0	76	16372
2026-01-01 00:17:23.23	222.14	25.87	-52.6	-65.6	3.8	1.49e+00	0	39	104	0	76	16414
2026-01-01 00:17:23.94	222.08	25.76	-52.6	-65.6	3.8	1.49e+00	0	39	104	0	76	16383
2026-01-01 00:17:25.24	221.96	25.56	-52.5	-65.6	3.8	1.49e+00	0	39	104	0	76	16411
2026-01-01 00:17:25.95	221.89	25.45	-52.5	-65.6	3.8	1.49e+00	0	39	104	0	76	16372
2026-01-01 00:17:27.24	221.78	25.25	-52.6	-65.6	3.8	1.49e+00	0	39	104	0	76	16400
2026-01-01 00:17:27.96	221.71	25.14	-52.6	-65.6	3.8	1.49e+00	0	39	104	0	76	16423
2026-01-01 00:17:29.25	221.60	24.94	-52.5	-65.6	3.8	1.49e+00	0	39	104	0	76	16371
2026-01-01 00:17:30.18	221.52	24.80	-52.6	-65.6	3.8	1.49e+00	0	39	104	0	76	16393
2026-01-01 00:17:31.18	221.43	24.65	-52.5	-65.6	3.8	1.49e+00	0	39	104	0	76	16399
2026-01-01 00:17:32.19	221.34	24.50	-52.5	-65.6	3.8	1.49e+00	0	39	104	0	76	16357
2026-01-01 00:17:33.19	221.26	24.35	-52.5	-65.6	3.8	1.49e+00	0	39	104	0	76	16372
2026-01-01 00:17:34.19	221.18	24.20	-52.5	-65.6	3.8	1.49e+00	0	39	104	0	76	16321
2026-01-01 00:17:35.20	221.09	24.05	-52.5	-65.6	3.8	1.49e+00	0	39	104	0	76	16322
2026-01-01 00:17:36.20	221.01	23.90	-52.5	-65.6	3.8	1.49e+00	0	39	104	0	76	16320
2026-01-01 00:17:37.20	220.93	23.76	-52.5	-65.5	3.8	1.49e+00	0	39	104	0	76	16300
2026-01-01 00:17:38.21	220.85	23.61	-52.5	-65.5	3.8	1.49e+00	0	39	104	0	76	16287
2026-01-01 00:17:39.21	220.77	23.46	-52.5	-65.5	3.8	1.49e+00	0	39	104	0	76	16286
2026-01-01 00:17:40.22	220.69	23.32	-52.5	-65.6	3.8	1.49e+00	0	39	104	0	76	16368
2026-01-01 00:17:41.22	220.61	23.18	-52.5	-65.6	3.8	1.49e+00	0	39	104	0	76	16315
2026-01-01 00:17:42.23	220.53	23.03	-52.5	-65.6	3.8	1.49e+00	0	39	104	0	76	16431
2026-01-01 00:17:43.23	220.45	22.89	-52.5	-65.6	3.8	1.49e+00	0	39	104	0	76	16370
2026-01-01 00:17:44.24	220.38	22.75	-52.5	-65.6	3.8	1.49e+00	0	39	104	0	76	16318
2026-01-01 00:17:45.24	220.30	22.61	-52.5	-65.5	3.8	1.49e+00	0	39	104	0	76	16310
2026-01-01 00:17:46.24	220.22	22.47	-52.5	-65.6	3.8	1.49e+00	0	39	104	0	76	16324
2026-01-01 00:17:47.25	220.15	22.33	-52.5	-65.5	3.8	1.49e+00	0	39	104	0	76	16293
2026-01-01 00:17:48.25	220.08	22.19	-52.5	-65.6	3.8	1.49e+00	0	39	104	0	76	16327
2026-01-01 00:17:49.26	220.00	22.05	-52.5	-65.5	3.8	1.49e+00	0	39	104	0	76	16313
2026-01-01 00:17:50.26	219.93	21.91	-52.5	-65.5	3.8	1.49e+00	0	39	104	0	76	16292
2026-01-01 00:17:51.30	219.86	21.77	-52.5	-65.6	3.8	1.49e+00	0	39	104	0	76	16379
2026-01-01 00:17:52.31	219.79	21.63	-52.5	-65.5	3.8	1.49e+00	0	39	104	0	76	16259
2026-01-01 00:17:53.36	219.71	21.49	-52.5	-65.6	3.8	1.49e+00	0	39	104	0	76	16378
2026-01-01 00:17:54.24	219.65	21.37	-52.5	-65.6	3.8	1.49e+00	0	39	104	0	76	16338
2026-01-01 00:17:55.39	219.57	21.22	-52.5	-65.6	3.8	1.49e+00	0	39	104	0	76	16336
2026-01-01 00:17:56.33	219.51	21.10	-52.5	-65.6	3.8	1.49e+00	0	39	104	0	76	16328
2026-01-01 00:17:57.51	219.43	20.94	-52.5	-65.5	3.8	1.49e+00	0	39	104	0	76	16235
2026-01-01 00:17:58.40	219.37	20.82	-52.5	-65.5	3.8	1.49e+00	0	39	104	0	76	16259
2026-01-01 00:17:59.61	219.29	20.66	-52.5	-65.6	3.8	1.49e+00	0	39	104	0	76	16347
2026-01-01 00:18:00.47	219.23	20.55	-52.5	-65.5	3.8	1.49e+00	0	39	104	0	76	16286
2026-01-01 00:18:01.62	219.16	20.40	-52.5	-65.5	3.8	1.49e+00	0	39	104	0	76	16278
2026-01-01 00:18:02.48	219.10	20.29	-52.5	-65.5	3.8	1.49e+00	0	39	104	0	76	16273
2026-01-01 00:18:03.63	219.03	20.15	-52.5	-65.5	3.8	1.49e+00	0	39	104	0	76	16279
2026-01-01 00:18:04.49	218.97	20.04	-52.6	-65.6	3.8	1.49e+00	0	39	104	0	76	16475
2026-01-01 00:18:05.64	218.90	19.89	-52.6	-65.7	3.8	1.49e+00	0	39	104	0	76	16505
2026-01-01 00:18:06.50	218.85	19.78	-52.6	-65.6	3.8	1.49e+00	0	39	104	0	76	16464
2026-01-01 00:18:07.65	218.77	19.64	-52.6	-65.6	3.8	1.49e+00	0	39	104	0	76	16402
2026-01-01 00:18:08.51	218.72	19.53	-52.6	-65.6	3.8	1.49e+00	0	39	104	0	76	16485
2026-01-01 00:18:09.66	218.65	19.39	-52.6	-65.6	3.8	1.49e+00	0	39	104	0	76	16474
2026-01-01 00:18:10.52	218.60	19.28	-52.6	-65.7	3.8	1.49e+00	0	39	104	0	76	16544
2026-01-01 00:18:11.73	218.53	19.13	-52.6	-65.7	3.8	1.49e+00	0	39	104	0	76	16516
2026-01-01 00:18:12.59	218.48	19.02	-52.6	-65.7	3.8	1.49e+00	0	39	104	0	76	16527
2026-01-01 00:18:13.74	218.41	18.88	-52.6	-65.7	3.8	1.49e+00	0	39	104	0	76	16547
2026-01-01 00:18:14.60	218.36	18.78	-52.6	-65.7	3.8	1.49e+00	0	39	104	0	76	16570
2026-01-01 00:18:15.75	218.29	18.64	-52.6	-65.7	3.8	1.49e+00	0	39	104	0	76	16536
2026-01-01 00:18:16.61	218.24	18.54	-52.7	-65.7	3.8	1.49e+00	0	39	104	0	76	16519
2026-01-01 00:18:17.76	218.18	18.40	-52.6	-65.7	3.8	1.49e+00	0	39	104	0	76	16515
2026-01-01 00:18:18.62	218.13	18.30	-52.6	-65.7	3.8	1.49e+00	0	39	104	0	76	16625
2026-01-01 00:18:19.76	218.06	18.16	-52.6	-65.7	3.8	1.49e+00	0	39	104	0	76	16530
2026-01-01 00:18:20.62	218.02	18.06	-52.6	-65.7	3.8	1.49e+00	0	39	104	0	76	16558
2026-01-01 00:18:21.77	217.95	17.92	-52.6	-65.7	3.8	1.49e+00	0	39	104	0	76	16509
2026-01-01 00:18:22.63	217.91	17.82	-52.6	-65.6	3.8	1.49e+00	0	39	104	0	76	16471
2026-01-01 00:18:23.78	217.84	17.69	-52.6	-65.7	3.8	1.49e+00	0	39	104	0	76	16558
2026-01-01 00:18:24.64	217.80	17.59	-52.6	-65.7	3.8	1.49e+00	0	39	104	0	76	16549
2026-01-01 00:18:25.79	217.74	17.45	-52.6	-65.7	3.8	1.49e+00	0	39	104	0	76	16530
2026-01-01 00:18:26.65	217.69	17.36	-52.6	-65.7	3.8	1.49e+00	0	39	104	0	76	16563
2026-01-01 00:18:27.80	217.63	17.22	-52.6	-65.6	3.8	1.49e+00	0	39	104	0	76	16454
2026-01-01 00:18:28.66	217.59	17.13	-52.6	-65.7	3.8	1.49e+00	0	39	104	0	76	16528
2026-01-01 00:18:29.81	217.53	16.99	-52.6	-65.7	3.8	1.49e+00	0	39	104	0	76	16520
2026-01-01 00:18:30.67	217.48	16.90	-52.6	-65.6	3.8	1.49e+00	0	39	104	0	76	16448
2026-01-01 00:18:31.82	217.43	16.77	-52.4	-65.5	3.8	1.49e+00	0	39	104	0	76	16175
2026-01-01 00:18:32.68	217.38	16.67	-52.4	-65.5	3.8	1.49e+00	0	39	104	0	76	16255
2026-01-01 00:18:33.83	217.32	16.54	-52.4	-65.5	3.8	1.49e+00	0	39	104	0	76	16140
2026-01-01 00:18:34.69	217.28	16.45	-52.5	-65.5	3.8	1.49e+00	0	39	104	0	76	16243
2026-01-01 00:18:35.84	217.22	16.32	-52.5	-65.5	3.8	1.49e+00	0	39	104	0	76	16247
2026-01-01 00:18:36.70	217.18	16.23	-52.4	-65.5	3.8	1.49e+00	0	39	104	0	76	16273
2026-01-01 00:18:37.84	217.13	16.10	-52.5	-65.5	3.8	1.49e+00	0	39	104	0	76	16238
2026-01-01 00:18:38.71	217.09	16.01	-52.4	-65.5	3.8	1.49e+00	0	39	104	0	76	16159
2026-01-01 00:18:39.85	217.03	15.88	-52.4	-65.5	3.8	1.49e+00	0	39	104	0	76	16183
2026-01-01 00:18:40.71	216.99	15.79	-52.4	-65.5	3.8	1.49e+00	0	39	104	0	76	16135
2026-01-01 00:18:41.86	216.94	15.66	-52.4	-65.5	3.8	1.49e+00	0	39	104	0	76	16188
2026-01-01 00:18:42.72	216.90	15.57	-52.4	-65.5	3.8	1.49e+00	0	39	104	0	76	16132
2026-01-01 00:18:43.87	216.84	15.45	-52.4	-65.5	3.8	1.49e+00	0	39	104	0	76	16184
2026-01-01 00:18:44.73	216.80	15.36	-52.4	-65.5	3.8	1.49e+00	0	39	104	0	76	16216
2026-01-01 00:18:45.88	216.75	15.24	-52.4	-65.5	3.8	1.49e+00	0	39	104	0	76	16141
2026-01-01 00:18:46.74	216.71	15.14	-52.4	-65.5	3.8	1.49e+00	0	39	104	0	76	16199
2026-01-01 00:18:47.89	216.66	15.02	-52.4	-65.4	3.8	1.49e+00	0	39	104	0	76	16124
2026-01-01 00:18:48.75	216.62	14.93	-52.4	-65.5	3.8	1.49e+00	0	39	104	0	76	16167
2026-01-01 00:18:49.89	216.57	14.81	-52.4	-65.5	3.8	1.49e+00	0	39	104	0	76	16189
2026-01-01 00:18:50.76	216.53	14.72	-52.4	-65.5	3.8	1.49e+00	0	39	104	0	76	16180
2026-01-01 00:18:51.90	216.48	14.61	-52.4	-65.5	3.8	1.49e+00	0	39	104	0	76	16138
2026-01-01 00:18:52.76	216.45	14.52	-52.4	-65.4	3.8	1.49e+00	0	39	104	0	76	16093
2026-01-01 00:18:53.91	216.40	14.40	-52.4	-65.5	3.8	1.49e+00	0	39	104	0	76	16204
2026-01-01 00:18:54.77	216.36	14.31	-52.4	-65.4	3.8	1.49e+00	0	39	104	0	76	16108
2026-01-01 00:18:55.92	216.31	14.20	-52.4	-65.5	3.8	1.49e+00	0	39	104	0	76	16162
2026-01-01 00:18:56.78	216.28	14.11	-52.4	-65.5	3.8	1.49e+00	0	39	104	0	76	16158
2026-01-01 00:18:57.93	216.23	13.99	-52.4	-65.5	3.8	1.49e+00	0	39	104	0	76	16224
2026-01-01 00:18:58.79	216.19	13.91	-52.4	-65.5	3.8	1.49e+00	0	39	104	0	76	16147
2026-01-01 00:18:59.94	216.14	13.79	-52.4	-65.5	3.8	1.49e+00	0	39	104	0	76	16162
2026-01-01 00:19:00.80	216.11	13.70	-52.4	-65.5	3.8	1.49e+00	0	39	104	0	76	16129
2026-01-01 00:19:01.95	216.06	13.59	-52.4	-65.4	3.8	1.49e+00	0	39	104	0	76	16127
2026-01-01 00:19:02.81	216.03	13.51	-52.4	-65.4	3.8	1.49e+00	0	39	104	0	76	16126
2026-01-01 00:19:03.95	215.98	13.39	-52.4	-65.4	3.8	1.49e+00	0	39	104	0	76	16083
2026-01-01 00:19:04.81	215.95	13.31	-52.4	-65.4	3.8	1.49e+00	0	39	104	0	76	16118
2026-01-01 00:19:05.96	215.90	13.20	-52.4	-65.4	3.8	1.49e+00	0	39	104	0	76	16086
2026-01-01 00:19:06.82	215.87	13.11	-52.4	-65.4	3.8	1.49e+00	0	39	104	0	76	16115
2026-01-01 00:19:07.97	215.82	13.00	-52.4	-65.4	3.8	1.49e+00	0	39	104	0	76	16016
2026-01-01 00:19:08.83	215.79	12.92	-52.3	-65.4	3.8	1.49e+00	0	39	104	0	76	16057
2026-01-01 00:19:09.98	215.75	12.81	-52.4	-65.4	3.8	1.49e+00	0	39	104	0	76	16050
2026-01-01 00:19:10.84	215.71	12.72	-52.4	-65.4	3.8	1.49e+00	0	39	104	0	76	16066
2026-01-01 00:19:11.99	215.67	12.61	-52.4	-65.4	3.8	1.49e+00	0	39	104	0	76	16114
2026-01-01 00:19:12.85	215.64	12.53	-52.4	-65.4	3.8	1.49e+00	0	39	104	0	76	16074
2026-01-01 00:19:14.00	215.60	12.42	-52.4	-65.4	3.8	1.49e+00	0	39	104	0	76	16073
2026-01-01 00:19:14.86	215.56	12.34	-52.4	-65.4	3.8	1.49e+00	0	39	104	0	76	16093
2026-01-01 00:19:16.00	215.52	12.23	-52.4	-65.4	3.8	1.49e+00	0	39	104	0	76	16122
2026-01-01 00:19:16.87	215.49	12.15	-52.4	-65.4	3.8	1.49e+00	0	39	104	0	76	16074
2026-01-01 00:19:18.01	215.45	12.05	-52.4	-65.4	3.8	1.49e+00	0	39	104	0	76	16116
2026-01-01 00:19:18.87	215.42	11.97	-52.4	-65.4	3.8	1.49e+00	0	39	104	0	76	16107
2026-01-01 00:19:20.02	215.38	11.86	-52.4	-65.5	3.8	1.49e+00	0	39	104	0	76	16163
2026-01-01 00:19:20.88	215.35	11.78	-52.4	-65.5	3.8	1.49e+00	0	39	104	0	76	16159
2026-01-01 00:19:22.03	215.31	11.67	-52.4	-65.4	3.8	1.49e+00	0	39	104	0	76	16092
2026-01-01 00:19:22.89	215.28	11.60	-52.4	-65.4	3.8	1.49e+00	0	39	104	0	76	16061
2026-01-01 00:19:24.04	215.24	11.49	-52.4	-65.4	3.8	1.49e+00	0	39	104	0	76	16091
2026-01-01 00:19:24.90	215.21	11.41	-52.4	-65.4	3.8	1.49e+00	0	39	104	0	76	16073
2026-01-01 00:19:26.05	215.17	11.31	-52.4	-65.4	3.8	1.49e+00	0	39	104	0	76	16107
2026-01-01 00:19:26.91	215.14	11.23	-52.4	-65.4	3.8	1.49e+00	0	39	104	0	76	16069
2026-01-01 00:19:28.05	215.10	11.13	-52.3	-65.4	3.8	1.49e+00	0	39	104	0	76	16058
2026-01-01 00:19:28.91	215.07	11.05	-52.4	-65.4	3.8	1.49e+00	0	39	104	0	76	16091
2026-01-01 00:19:30.06	215.03	10.95	-52.4	-65.4	3.8	1.49e+00	0	39	104	0	76	16122
2026-01-01 00:19:30.92	215.00	10.87	-52.4	-65.4	3.8	1.49e+00	0	39	104	0	76	16077
2026-01-01 00:19:32.07	214.96	10.77	-52.4	-65.4	3.8	1.49e+00	0	39	104	0	76	16090
2026-01-01 00:19:32.93	214.94	10.69	-52.4	-65.4	3.8	1.49e+00	0	39	104	0	76	16123
2026-01-01 00:19:34.08	214.90	10.59	-52.4	-65.4	3.8	1.49e+00	0	39	104	0	76	16082
2026-01-01 00:19:34.94	214.87	10.52	-52.4	-65.4	3.8	1.49e+00	0	39	104	0	76	16078
2026-01-01 00:19:36.09	214.83	10.41	-52.4	-65.4	3.8	1.49e+00	0	39	104	0	76	16021
2026-01-01 00:19:36.95	214.81	10.34	-52.4	-65.4	3.8	1.49e+00	0	39	104	0	76	16081
2026-01-01 00:19:38.10	214.77	10.24	-52.4	-65.4	3.8	1.49e+00	0	39	104	0	76	16025
2026-01-01 00:19:38.96	214.74	10.16	-52.4	-65.4	3.8	1.49e+00	0	39	104	0	76	16074
2026-01-01 00:19:40.10	214.71	10.07	-52.3	-65.4	3.8	1.49e+00	0	39	104	0	76	16014
2026-01-01 00:19:40.96	214.68	9.99	-52.3	-65.4	3.8	1.49e+00	0	39	104	0	76	15979
2026-01-01 00:19:42.11	214.64	9.89	-52.3	-65.4	3.8	1.49e+00	0	39	104	0	76	16033
2026-01-01 00:19:42.97	214.62	9.82	-52.4	-65.4	3.8	1.49e+00	0	39	104	0	76	16074
2026-01-01 00:19:44.12	214.58	9.72	-52.4	-65.4	3.8	1.49e+00	0	39	104	0	76	16044
2026-01-01 00:19:44.98	214.56	9.65	-52.4	-65.4	3.8	1.49e+00	0	39	104	0	76	16077
2026-01-01 00:19:46.13	214.52	9.55	-52.3	-65.4	3.8	1.49e+00	0	39	104	0	76	16036
2026-01-01 00:19:46.99	214.50	9.48	-52.4	-65.4	3.8	1.49e+00	0	39	104	0	76	16122
2026-01-01 00:19:48.14	214.46	9.38	-52.4	-65.4	3.8	1.49e+00	0	39	104	0	76	16059
2026-01-01 00:19:49.00	214.44	9.31	-52.4	-65.4	3.8	1.49e+00	0	39	104	0	76	16047
2026-01-01 00:19:50.15	214.40	9.21	-52.4	-65.4	3.8	1.49e+00	0	39	104	0	76	16115
2026-01-01 00:19:51.01	214.38	9.14	-52.4	-65.4	3.8	1.49e+00	0	39	104	0	76	16076
2026-01-01 00:19:52.16	214.34	9.05	-52.4	-65.4	3.8	1.49e+00	0	39	104	0	76	16038
2026-01-01 00:19:53.02	214.32	8.98	-52.4	-65.4	3.8	1.49e+00	0	39	104	0	76	16070
2026-01-01 00:19:54.17	214.29	8.88	-52.4	-65.4	3.8	1.49e+00	0	39	104	0	76	16108
2026-01-01 00:19:55.03	214.26	8.81	-52.4	-65.4	3.8	1.49e+00	0	39	104	0	76	16106
2026-01-01 00:19:56.17	214.23	8.72	-52.3	-65.4	3.8	1.49e+00	0	39	104	0	76	16037
2026-01-01 00:19:57.04	214.20	8.65	-52.4	-65.4	3.8	1.49e+00	0	39	104	0	76	15974
2026-01-01 00:19:58.18	214.17	8.55	-52.4	-65.4	3.8	1.49e+00	0	39	104	0	76	16083
2026-01-01 00:19:59.04	214.15	8.48	-52.3	-65.4	3.8	1.49e+00	0	39	104	0	76	15995
2026-01-01 00:20:00.19	214.12	8.39	-52.3	-65.4	3.8	1.49e+00	0	39	104	0	76	15986
2026-01-01 00:20:01.05	214.09	8.32	-52.3	-65.4	3.8	1.49e+00	0	39	104	0	76	16031
2026-01-01 00:20:02.20	214.06	8.23	-52.4	-65.5	3.8	1.49e+00	0	39	104	0	76	16162
2026-01-01 00:20:03.06	214.04	8.16	-52.4	-65.4	3.8	1.49e+00	0	39	104	0	76	16088
2026-01-01 00:20:04.21	214.01	8.07	-52.4	-65.4	3.8	1.49e+00	0	39	104	0	76	16119
2026-01-01 00:20:05.07	213.98	8.00	-52.4	-65.5	3.8	1.49e+00	0	39	104	0	76	16195
2026-01-01 00:20:06.22	213.95	7.91	-52.5	-65.5	3.8	1.49e+00	0	39	104	0	76	16288
2026-01-01 00:20:07.08	213.93	7.84	-52.4	-65.4	3.8	1.49e+00	0	39	104	0	76	16096
2026-01-01 00:20:08.23	213.90	7.75	-52.4	-65.5	3.8	1.49e+00	0	39	104	0	76	16175
2026-01-01 00:20:09.09	213.88	7.68	-52.4	-65.5	3.8	1.49e+00	0	39	104	0	76	16128
2026-01-01 00:20:10.24	213.85	7.59	-52.4	-65.4	3.8	1.49e+00	0	39	104	0	76	16074
2026-01-01 00:20:11.10	213.83	7.52	-52.4	-65.4	3.8	1.49e+00	0	39	104	0	76	16070
2026-01-01 00:20:12.25	213.80	7.43	-52.4	-65.4	3.8	1.49e+00	0	39	104	0	76	16099
2026-01-01 00:20:13.11	213.77	7.37	-52.4	-65.5	3.8	1.49e+00	0	39	104	0	76	16161
2026-01-01 00:20:14.26	213.74	7.28	-52.4	-65.4	3.8	1.49e+00	0	39	104	0	76	16114
2026-01-01 00:20:15.48	213.71	7.18	-52.4	-65.4	3.8	1.49e+00	0	39	104	0	76	16080
2026-01-01 00:20:16.34	213.69	7.12	-52.4	-65.5	3.8	1.49e+00	0	39	104	0	76	16129
2026-01-01 00:20:17.49	213.66	7.03	-52.4	-65.4	3.8	1.49e+00	0	39	104	0	76	16038
2026-01-01 00:20:18.35	213.64	6.96	-52.4	-65.4	3.8	1.49e+00	0	39	104	0	76	16022
2026-01-01 00:20:19.50	213.61	6.88	-52.4	-65.4	3.8	1.49e+00	0	39	104	0	76	16069
2026-01-01 00:20:20.36	213.59	6.81	-52.4	-65.4	3.8	1.49e+00	0	39	104	0	76	15999
2026-01-01 00:20:21.51	213.56	6.72	-52.4	-65.4	3.8	1.49e+00	0	39	104	0	76	16103
2026-01-01 00:20:22.37	213.54	6.66	-52.4	-65.4	3.8	1.49e+00	0	39	104	0	76	16033
