passes_logs/2026/01/01/T1/T1__20260101_112937_FENGYUN_3D_rec.log

#Pass ID: 20260101_112937_FENGYUN 3D
#Satellite: FENGYUN 3D
#Configuration: FENGYUN 3D
#almurnet v.1.7.20251203
#Start time: 2026-01-01 11:29:38

#Version: 2.0.20230620
#Station: T1
#Location: 37.570604 lon 55.790049 lat
#TLE: 1 43010U 17072A   25365.48527867  .00000101  00000+0  69745-4 0  9999
#TLE: 2 43010  98.9911 332.0787 0001837 134.4748 225.6578 14.19689788421190

#Time	Az	El	Level	Level2	SNR	BER	BlckErr	Temp	State	Recorded	gain1	gain2
2026-01-01 11:29:38.65	146.00	5.06	-51.6	-64.0	3.8	8.48e-01	0	37	0	0	74	15329
2026-01-01 11:29:39.64	145.98	5.13	-51.5	-63.9	3.8	8.46e-01	0	37	104	0	75	14335
2026-01-01 11:29:40.64	145.96	5.20	-51.5	-64.0	3.8	8.47e-01	0	38	104	0	75	14389
2026-01-01 11:29:41.64	145.94	5.27	-51.5	-63.9	3.8	8.46e-01	0	38	104	0	75	14339
2026-01-01 11:29:42.64	145.91	5.34	-51.5	-63.9	3.8	8.46e-01	0	38	104	0	75	14370
2026-01-01 11:29:43.64	145.89	5.41	-51.6	-64.0	3.8	8.47e-01	0	38	104	0	75	14464
2026-01-01 11:29:44.65	145.87	5.49	-51.6	-64.0	3.8	8.46e-01	0	38	104	0	75	14464
2026-01-01 11:29:45.65	145.84	5.56	-51.6	-64.0	3.8	8.47e-01	0	38	104	0	75	14459
2026-01-01 11:29:46.65	145.82	5.63	-51.5	-64.0	3.8	8.47e-01	0	38	104	0	75	14403
2026-01-01 11:29:47.65	145.80	5.70	-51.6	-64.0	3.8	8.47e-01	0	38	104	0	75	14462
2026-01-01 11:29:48.65	145.77	5.78	-51.6	-64.0	3.8	8.48e-01	0	38	104	0	75	14444
2026-01-01 11:29:49.65	145.75	5.85	-51.6	-64.0	3.8	8.47e-01	0	38	104	0	75	14409
2026-01-01 11:29:50.65	145.73	5.92	-51.6	-63.9	3.8	8.46e-01	0	38	104	0	75	14351
2026-01-01 11:29:51.66	145.70	6.00	-51.5	-63.9	3.8	8.46e-01	0	38	104	0	75	14309
2026-01-01 11:29:52.66	145.68	6.07	-51.5	-63.9	3.8	8.47e-01	0	38	104	0	75	14352
2026-01-01 11:29:53.66	145.65	6.15	-51.6	-63.9	3.8	8.47e-01	0	38	104	0	75	14362
2026-01-01 11:29:54.66	145.63	6.22	-51.7	-64.0	3.8	8.48e-01	0	38	104	0	75	14464
2026-01-01 11:29:55.66	145.60	6.30	-51.7	-64.0	3.8	8.47e-01	0	38	104	0	75	14448
2026-01-01 11:29:56.66	145.58	6.37	-51.7	-64.0	3.8	8.46e-01	0	38	104	0	75	14418
2026-01-01 11:29:57.66	145.55	6.44	-51.7	-63.9	3.8	8.46e-01	0	38	104	0	75	14360
2026-01-01 11:29:58.67	145.53	6.52	-51.7	-64.0	3.8	8.46e-01	0	38	104	0	75	14424
2026-01-01 11:29:59.67	145.50	6.60	-51.7	-63.9	3.8	8.46e-01	0	38	104	0	75	14369
2026-01-01 11:30:00.68	145.48	6.67	-51.7	-63.9	3.8	8.47e-01	0	38	104	0	75	14356
2026-01-01 11:30:01.68	145.45	6.75	-51.7	-63.9	3.8	8.47e-01	0	38	104	0	75	14309
2026-01-01 11:30:02.68	145.43	6.82	-51.7	-63.9	3.8	8.48e-01	0	39	104	0	75	14340
2026-01-01 11:30:03.68	145.40	6.90	-51.7	-63.9	3.8	8.48e-01	0	38	104	0	75	14339
2026-01-01 11:30:04.68	145.38	6.98	-51.7	-63.9	3.8	8.46e-01	0	39	104	0	75	14349
2026-01-01 11:30:05.68	145.35	7.05	-51.8	-64.0	3.8	8.47e-01	0	38	104	0	75	14425
2026-01-01 11:30:06.68	145.33	7.13	-51.8	-63.9	3.8	8.47e-01	0	38	104	0	75	14358
2026-01-01 11:30:07.68	145.30	7.21	-51.8	-63.9	3.8	8.47e-01	0	38	104	0	75	14363
2026-01-01 11:30:08.68	145.27	7.28	-51.8	-63.9	3.8	8.47e-01	0	39	104	0	75	14329
2026-01-01 11:30:09.68	145.25	7.36	-51.8	-64.0	3.8	8.46e-01	0	39	104	0	75	14409
2026-01-01 11:30:10.68	145.22	7.44	-51.8	-63.9	3.8	8.47e-01	0	38	104	0	75	14293
2026-01-01 11:30:11.68	145.19	7.52	-51.8	-63.9	3.8	8.47e-01	0	39	104	0	75	14276
2026-01-01 11:30:12.67	145.17	7.59	-51.9	-63.9	3.8	8.46e-01	0	39	104	0	75	14361
2026-01-01 11:30:13.68	145.14	7.67	-51.8	-63.9	3.8	8.47e-01	0	39	104	0	75	14325
2026-01-01 11:30:14.68	145.11	7.75	-51.8	-63.9	3.8	8.46e-01	0	39	104	0	75	14282
2026-01-01 11:30:15.68	145.08	7.83	-51.8	-63.9	3.8	8.47e-01	0	39	104	0	75	14322
2026-01-01 11:30:16.68	145.06	7.91	-51.8	-63.9	3.8	8.47e-01	0	39	104	0	75	14321
2026-01-01 11:30:17.68	145.03	7.99	-51.8	-63.9	3.8	8.47e-01	0	39	104	0	75	14292
2026-01-01 11:30:18.67	145.00	8.07	-51.8	-63.9	3.8	8.47e-01	0	39	104	0	75	14297
2026-01-01 11:30:19.67	144.97	8.15	-51.9	-64.0	3.8	8.47e-01	0	39	104	0	75	14446
2026-01-01 11:30:20.67	144.94	8.23	-51.9	-64.0	3.8	8.46e-01	0	39	104	0	75	14504
2026-01-01 11:30:21.66	144.92	8.31	-51.9	-64.0	3.8	8.47e-01	0	39	104	0	75	14398
2026-01-01 11:30:22.67	144.89	8.39	-51.8	-63.9	3.8	8.48e-01	0	39	104	0	75	14330
2026-01-01 11:30:23.67	144.86	8.47	-51.8	-64.0	3.8	8.47e-01	0	39	104	0	75	14398
2026-01-01 11:30:24.67	144.83	8.55	-51.8	-63.9	3.8	8.46e-01	0	39	104	0	75	14342
2026-01-01 11:30:25.67	144.80	8.63	-51.8	-63.9	3.8	8.47e-01	0	39	104	0	75	14323
2026-01-01 11:30:26.67	144.77	8.71	-51.8	-63.9	3.8	8.47e-01	0	39	104	0	75	14283
2026-01-01 11:30:27.67	144.74	8.80	-51.8	-63.9	3.8	8.47e-01	0	39	104	0	75	14304
2026-01-01 11:30:28.67	144.71	8.88	-51.7	-63.9	3.8	8.47e-01	0	39	104	0	75	14275
2026-01-01 11:30:29.68	144.68	8.96	-51.8	-63.9	3.8	8.48e-01	0	39	104	0	75	14298
2026-01-01 11:30:30.68	144.65	9.04	-51.8	-63.9	3.8	8.46e-01	0	39	104	0	75	14252
2026-01-01 11:30:31.68	144.62	9.13	-51.8	-64.0	3.8	8.46e-01	0	39	104	0	75	14397
2026-01-01 11:30:32.68	144.59	9.21	-51.8	-63.9	3.8	8.48e-01	0	39	104	0	75	14336
2026-01-01 11:30:33.68	144.56	9.29	-51.8	-63.9	3.8	8.48e-01	0	39	104	0	75	14323
2026-01-01 11:30:34.67	144.53	9.38	-51.8	-64.0	3.8	8.47e-01	0	39	104	0	75	14434
2026-01-01 11:30:35.67	144.50	9.46	-51.8	-63.9	3.8	8.46e-01	0	39	104	0	75	14357
2026-01-01 11:30:36.67	144.47	9.55	-51.8	-63.9	3.8	8.47e-01	0	39	104	0	75	14339
2026-01-01 11:30:37.68	144.44	9.63	-51.8	-63.9	3.8	8.46e-01	0	39	104	0	75	14321
2026-01-01 11:30:38.69	144.40	9.72	-51.8	-63.9	3.8	8.46e-01	0	39	104	0	75	14373
2026-01-01 11:30:39.69	144.37	9.80	-51.8	-63.9	3.8	8.47e-01	0	39	104	0	75	14371
2026-01-01 11:30:40.69	144.34	9.89	-51.8	-63.9	3.8	8.47e-01	0	39	104	0	75	14263
2026-01-01 11:30:41.70	144.31	9.97	-51.8	-63.9	3.8	8.47e-01	0	39	104	0	75	14293
2026-01-01 11:30:42.70	144.27	10.06	-51.8	-63.9	3.8	8.46e-01	0	39	104	0	75	14367
2026-01-01 11:30:43.70	144.24	10.15	-51.8	-64.0	3.8	8.48e-01	0	39	104	0	75	14407
2026-01-01 11:30:44.70	144.21	10.23	-51.8	-63.9	3.8	8.47e-01	0	39	104	0	75	14329
2026-01-01 11:30:45.70	144.18	10.32	-51.8	-63.9	3.8	8.48e-01	0	39	104	0	75	14330
2026-01-01 11:30:46.70	144.14	10.41	-51.8	-63.9	3.8	8.47e-01	0	39	104	0	75	14330
2026-01-01 11:30:47.70	144.11	10.49	-51.8	-63.9	3.8	8.46e-01	0	40	104	0	75	14306
2026-01-01 11:30:48.70	144.08	10.58	-51.8	-63.9	3.8	8.47e-01	0	39	104	0	75	14341
2026-01-01 11:30:49.70	144.04	10.67	-51.8	-63.9	3.8	8.48e-01	0	40	104	0	75	14299
2026-01-01 11:30:50.71	144.01	10.76	-51.8	-63.9	3.8	8.47e-01	0	40	104	0	75	14243
2026-01-01 11:30:51.71	143.97	10.85	-51.8	-63.9	3.8	8.46e-01	0	39	104	0	75	14227
2026-01-01 11:30:52.71	143.94	10.94	-51.9	-64.0	3.8	8.47e-01	0	39	104	0	75	14386
2026-01-01 11:30:53.71	143.90	11.03	-51.9	-64.0	3.8	8.46e-01	0	39	104	0	75	14418
2026-01-01 11:30:54.71	143.87	11.12	-51.9	-63.9	3.8	8.45e-01	0	39	104	0	75	14368
2026-01-01 11:30:55.71	143.83	11.21	-51.9	-63.9	3.8	8.45e-01	0	39	104	0	75	14313
2026-01-01 11:30:56.70	143.80	11.30	-51.9	-63.9	3.8	8.47e-01	0	40	104	0	75	14323
2026-01-01 11:30:57.70	143.76	11.39	-51.9	-63.9	3.8	8.47e-01	0	39	104	0	75	14360
2026-01-01 11:30:58.70	143.73	11.48	-51.9	-63.9	3.8	8.48e-01	0	40	104	0	75	14362
2026-01-01 11:30:59.70	143.69	11.57	-51.8	-63.9	3.8	8.46e-01	0	40	104	0	75	14283
2026-01-01 11:31:00.70	143.65	11.66	-51.9	-63.9	3.8	8.47e-01	0	40	104	0	75	14299
2026-01-01 11:31:01.70	143.62	11.75	-51.8	-63.9	3.8	8.48e-01	0	40	104	0	75	14248
2026-01-01 11:31:02.70	143.58	11.84	-51.9	-64.0	3.8	8.48e-01	0	39	104	0	75	14383
2026-01-01 11:31:03.70	143.54	11.94	-51.9	-63.9	3.8	8.47e-01	0	40	104	0	75	14362
2026-01-01 11:31:04.70	143.51	12.03	-51.9	-64.0	3.8	8.47e-01	0	39	104	0	75	14382
2026-01-01 11:31:05.69	143.47	12.12	-51.9	-63.9	3.8	8.47e-01	0	39	104	0	75	14332
2026-01-01 11:31:06.69	143.43	12.22	-51.9	-63.9	3.8	8.46e-01	0	40	104	0	75	14308
2026-01-01 11:31:07.69	143.39	12.31	-51.9	-63.9	3.8	8.46e-01	0	40	104	0	75	14300
2026-01-01 11:31:08.68	143.35	12.40	-51.9	-63.9	3.8	8.47e-01	0	39	104	0	75	14334
2026-01-01 11:31:09.68	143.32	12.50	-51.9	-63.9	3.8	8.47e-01	0	40	104	0	75	14296
2026-01-01 11:31:10.69	143.28	12.59	-51.9	-64.0	3.8	8.48e-01	0	39	104	0	75	14378
2026-01-01 11:31:11.69	143.24	12.69	-51.9	-64.0	3.8	8.47e-01	0	40	104	0	75	14396
2026-01-01 11:31:12.69	143.20	12.79	-51.9	-63.9	3.8	8.47e-01	0	40	104	0	75	14346
2026-01-01 11:31:13.69	143.16	12.88	-51.9	-63.9	3.8	8.48e-01	0	40	104	0	75	14276
2026-01-01 11:31:14.69	143.12	12.98	-51.9	-63.9	3.8	8.47e-01	0	40	104	0	75	14273
2026-01-01 11:31:15.69	143.08	13.07	-51.9	-63.9	3.8	8.46e-01	0	40	104	0	75	14335
2026-01-01 11:31:16.70	143.04	13.17	-51.9	-63.9	3.8	8.48e-01	0	40	104	0	75	14291
2026-01-01 11:31:17.69	143.00	13.27	-51.8	-63.9	3.8	8.47e-01	0	40	104	0	75	14276
2026-01-01 11:31:18.70	142.95	13.37	-51.9	-64.0	3.8	8.46e-01	0	40	104	0	75	14380
2026-01-01 11:31:19.70	142.91	13.47	-51.9	-63.9	3.8	8.47e-01	0	40	104	0	75	14327
2026-01-01 11:31:20.70	142.87	13.57	-51.9	-63.9	3.8	8.47e-01	0	40	104	0	75	14275
2026-01-01 11:31:21.69	142.83	13.66	-51.9	-63.9	3.8	8.48e-01	0	40	104	0	75	14276
2026-01-01 11:31:22.69	142.79	13.76	-51.9	-63.9	3.8	8.47e-01	0	40	104	0	75	14252
2026-01-01 11:31:23.69	142.74	13.86	-51.9	-63.9	3.8	8.48e-01	0	40	104	0	75	14281
2026-01-01 11:31:24.69	142.70	13.96	-51.9	-63.9	3.8	8.46e-01	0	40	104	0	75	14301
2026-01-01 11:31:25.69	142.66	14.06	-51.9	-63.9	3.8	8.46e-01	0	40	104	0	75	14324
2026-01-01 11:31:26.69	142.61	14.17	-51.9	-63.9	3.8	8.47e-01	0	40	104	0	75	14329
2026-01-01 11:31:27.69	142.57	14.27	-51.9	-63.9	3.8	8.48e-01	0	40	104	0	75	14294
2026-01-01 11:31:28.69	142.53	14.37	-51.9	-63.9	3.8	8.47e-01	0	40	104	0	75	14352
2026-01-01 11:31:29.70	142.48	14.47	-51.9	-63.9	3.8	8.47e-01	0	40	104	0	75	14310
2026-01-01 11:31:30.70	142.44	14.58	-51.9	-63.9	3.8	8.47e-01	0	40	104	0	75	14311
2026-01-01 11:31:31.70	142.39	14.68	-51.9	-63.9	3.8	8.47e-01	0	40	104	0	75	14303
2026-01-01 11:31:32.70	142.35	14.78	-51.8	-63.9	3.8	8.48e-01	0	40	104	0	75	14280
2026-01-01 11:31:33.70	142.30	14.89	-51.9	-63.9	3.8	8.48e-01	0	40	104	0	75	14233
2026-01-01 11:31:34.70	142.25	14.99	-51.8	-63.9	3.8	8.47e-01	0	40	104	0	75	14226
2026-01-01 11:31:35.70	142.21	15.10	-51.8	-63.9	3.8	8.47e-01	0	40	104	0	75	14267
2026-01-01 11:31:36.69	142.16	15.20	-51.8	-63.9	3.8	8.49e-01	0	40	104	0	75	14311
2026-01-01 11:31:37.69	142.11	15.31	-51.8	-63.9	3.8	8.46e-01	0	40	104	0	75	14314
2026-01-01 11:31:38.70	142.06	15.41	-51.8	-63.9	3.8	8.48e-01	0	40	104	0	75	14306
2026-01-01 11:31:39.70	142.02	15.52	-51.8	-63.9	3.8	8.47e-01	0	40	104	0	75	14279
2026-01-01 11:31:40.70	141.97	15.63	-51.8	-63.9	3.8	8.46e-01	0	40	104	0	75	14248
2026-01-01 11:31:41.71	141.92	15.73	-51.8	-63.9	3.8	8.47e-01	0	40	104	0	75	14319
2026-01-01 11:31:42.71	141.87	15.84	-51.8	-63.9	3.8	8.46e-01	0	40	104	0	75	14272
2026-01-01 11:31:43.70	141.82	15.95	-51.8	-63.9	3.8	8.48e-01	0	40	104	0	75	14263
2026-01-01 11:31:44.71	141.77	16.06	-51.8	-63.9	3.8	8.47e-01	0	40	104	0	75	14330
2026-01-01 11:31:45.71	141.72	16.17	-51.9	-63.9	3.8	8.47e-01	0	40	104	0	75	14317
2026-01-01 11:31:46.71	141.67	16.28	-51.9	-63.9	3.8	8.47e-01	0	40	104	0	75	14332
2026-01-01 11:31:47.72	141.62	16.39	-51.8	-63.9	3.8	8.47e-01	0	40	104	0	75	14313
2026-01-01 11:31:48.72	141.57	16.50	-51.8	-63.9	3.8	8.46e-01	0	40	104	0	75	14278
2026-01-01 11:31:49.72	141.52	16.61	-51.8	-63.9	3.8	8.47e-01	0	40	104	0	75	14220
2026-01-01 11:31:50.72	141.46	16.72	-51.8	-63.8	3.8	8.47e-01	0	40	104	0	75	14209
2026-01-01 11:31:51.72	141.41	16.84	-51.8	-63.9	3.8	8.47e-01	0	40	104	0	75	14222
2026-01-01 11:31:52.72	141.36	16.95	-51.8	-63.9	3.8	8.47e-01	0	40	104	0	75	14236
2026-01-01 11:31:53.72	141.30	17.06	-51.8	-63.9	3.8	8.47e-01	0	40	104	0	75	14217
2026-01-01 11:31:54.72	141.25	17.18	-51.9	-64.0	3.8	8.48e-01	0	40	104	0	75	14398
2026-01-01 11:31:55.72	141.20	17.29	-51.9	-64.0	3.8	8.48e-01	0	40	104	0	75	14435
2026-01-01 11:31:56.72	141.14	17.41	-51.9	-63.9	3.8	8.47e-01	0	40	104	0	75	14335
2026-01-01 11:31:57.71	141.09	17.52	-51.9	-63.9	3.8	8.47e-01	0	40	104	0	75	14305
2026-01-01 11:31:58.71	141.03	17.64	-51.9	-63.9	3.8	8.48e-01	0	40	104	0	75	14261
2026-01-01 11:31:59.72	140.97	17.75	-51.9	-63.9	3.8	8.47e-01	0	40	104	0	75	14262
2026-01-01 11:32:00.72	140.92	17.87	-51.9	-63.9	3.8	8.47e-01	0	40	104	0	75	14347
2026-01-01 11:32:01.72	140.86	17.99	-51.8	-63.9	3.8	8.48e-01	0	40	104	0	75	14265
2026-01-01 11:32:02.73	140.80	18.11	-51.8	-63.9	3.8	8.47e-01	0	40	104	0	75	14255
2026-01-01 11:32:03.73	140.74	18.23	-51.8	-63.9	3.8	8.46e-01	0	40	104	0	75	14240
2026-01-01 11:32:04.73	140.69	18.34	-51.9	-63.9	3.8	8.47e-01	0	40	104	0	75	14307
2026-01-01 11:32:05.74	140.63	18.46	-51.9	-63.9	3.8	8.47e-01	0	40	104	0	75	14332
2026-01-01 11:32:06.73	140.57	18.58	-51.9	-64.0	3.8	8.46e-01	0	40	104	0	75	14400
2026-01-01 11:32:07.73	140.51	18.70	-51.9	-63.9	3.8	8.47e-01	0	40	104	0	75	14301
2026-01-01 11:32:08.74	140.45	18.83	-51.9	-63.9	3.8	8.47e-01	0	40	104	0	75	14317
2026-01-01 11:32:09.74	140.39	18.95	-51.8	-63.9	3.8	8.46e-01	0	40	104	0	75	14300
2026-01-01 11:32:10.74	140.32	19.07	-51.8	-63.9	3.8	8.47e-01	0	40	104	0	75	14255
2026-01-01 11:32:11.75	140.26	19.19	-51.8	-63.9	3.8	8.47e-01	0	40	104	0	75	14305
2026-01-01 11:32:12.75	140.20	19.32	-51.9	-64.0	3.8	8.48e-01	0	40	104	0	75	14410
2026-01-01 11:32:13.75	140.14	19.44	-51.8	-63.9	3.8	8.47e-01	0	40	104	0	75	14340
2026-01-01 11:32:14.75	140.07	19.57	-51.8	-63.9	3.8	8.47e-01	0	40	104	0	75	14311
2026-01-01 11:32:15.74	140.01	19.69	-51.8	-63.9	3.8	8.48e-01	0	40	104	0	75	14284
2026-01-01 11:32:16.74	139.95	19.82	-51.8	-63.9	3.8	8.47e-01	0	40	104	0	75	14257
2026-01-01 11:32:17.73	139.88	19.94	-51.8	-63.9	3.8	8.46e-01	0	40	104	0	75	14281
2026-01-01 11:32:18.73	139.82	20.07	-51.8	-63.8	3.8	8.47e-01	0	40	104	0	75	14174
2026-01-01 11:32:19.73	139.75	20.20	-51.8	-63.9	3.8	8.47e-01	0	40	104	0	75	14211
2026-01-01 11:32:20.73	139.68	20.33	-51.8	-63.8	3.8	8.47e-01	0	40	104	0	75	14206
2026-01-01 11:32:21.73	139.62	20.45	-51.8	-63.8	3.8	8.46e-01	0	40	104	0	75	14193
2026-01-01 11:32:22.73	139.55	20.58	-51.8	-63.9	3.8	8.47e-01	0	40	104	0	75	14272
2026-01-01 11:32:23.72	139.48	20.71	-51.8	-63.9	3.8	8.47e-01	0	40	104	0	75	14230
2026-01-01 11:32:24.72	139.41	20.84	-51.8	-63.8	3.8	8.47e-01	0	40	104	0	75	14185
2026-01-01 11:32:25.72	139.34	20.97	-51.8	-63.9	3.8	8.47e-01	0	40	104	0	75	14267
2026-01-01 11:32:26.73	139.27	21.11	-51.8	-63.9	3.8	8.48e-01	0	40	104	0	75	14289
2026-01-01 11:32:27.73	139.20	21.24	-51.8	-63.9	3.8	8.47e-01	0	40	104	0	75	14216
2026-01-01 11:32:28.73	139.13	21.37	-51.8	-63.9	3.8	8.47e-01	0	40	104	0	75	14251
2026-01-01 11:32:29.74	139.05	21.51	-51.8	-63.8	3.8	8.47e-01	0	40	104	0	75	14189
2026-01-01 11:32:30.74	138.98	21.64	-51.8	-63.8	3.8	8.47e-01	0	40	104	0	75	14203
2026-01-01 11:32:31.74	138.91	21.78	-51.8	-63.8	3.8	8.47e-01	0	40	104	0	75	14171
2026-01-01 11:32:32.74	138.83	21.91	-51.7	-63.8	3.8	8.46e-01	0	40	104	0	75	14184
2026-01-01 11:32:33.74	138.76	22.05	-51.8	-63.9	3.8	8.48e-01	0	40	104	0	75	14259
2026-01-01 11:32:34.74	138.68	22.19	-51.8	-63.9	3.8	8.47e-01	0	40	104	0	75	14222
2026-01-01 11:32:35.75	138.60	22.33	-51.8	-63.9	3.8	8.47e-01	0	40	104	0	75	14229
2026-01-01 11:32:36.74	138.53	22.47	-51.8	-63.9	3.8	8.47e-01	0	40	104	0	75	14263
2026-01-01 11:32:37.75	138.45	22.61	-51.7	-63.9	3.8	8.47e-01	0	40	104	0	75	14269
2026-01-01 11:32:38.75	138.37	22.75	-51.8	-63.9	3.8	8.46e-01	0	40	104	0	75	14307
2026-01-01 11:32:39.76	138.29	22.89	-51.8	-63.9	3.8	8.47e-01	0	40	104	0	75	14296
2026-01-01 11:32:40.76	138.21	23.03	-51.7	-63.9	3.8	8.46e-01	0	40	104	0	75	14233
2026-01-01 11:32:41.77	138.13	23.17	-51.7	-63.9	3.8	8.47e-01	0	40	104	0	75	14267
2026-01-01 11:32:42.77	138.05	23.32	-51.8	-63.9	3.8	8.48e-01	0	40	104	0	75	14313
2026-01-01 11:32:43.77	137.97	23.46	-51.8	-63.9	3.8	8.46e-01	0	40	104	0	75	14295
2026-01-01 11:32:44.77	137.88	23.61	-51.7	-63.8	3.8	8.47e-01	0	40	104	0	75	14193
2026-01-01 11:32:45.77	137.80	23.75	-51.8	-63.9	3.8	8.47e-01	0	40	104	0	75	14307
2026-01-01 11:32:46.77	137.71	23.90	-51.8	-64.0	3.8	8.46e-01	0	40	104	0	75	14387
2026-01-01 11:32:47.78	137.63	24.04	-51.8	-63.9	3.8	8.47e-01	0	40	104	0	75	14325
2026-01-01 11:32:48.78	137.54	24.19	-51.8	-63.9	3.8	8.47e-01	0	40	104	0	75	14239
2026-01-01 11:32:49.78	137.45	24.34	-51.8	-63.9	3.8	8.47e-01	0	40	104	0	75	14242
2026-01-01 11:32:50.79	137.37	24.49	-51.8	-63.9	3.8	8.47e-01	0	40	104	0	75	14286
2026-01-01 11:32:51.79	137.28	24.64	-51.8	-63.8	3.8	8.46e-01	0	40	104	0	75	14150
2026-01-01 11:32:52.79	137.19	24.79	-51.8	-63.9	3.8	8.47e-01	0	40	104	0	75	14245
2026-01-01 11:32:53.79	137.10	24.94	-51.8	-63.9	3.8	8.45e-01	0	40	104	0	75	14214
2026-01-01 11:32:54.79	137.00	25.09	-51.8	-63.9	3.8	8.47e-01	0	40	104	0	75	14215
2026-01-01 11:32:55.80	136.91	25.25	-51.8	-63.9	3.8	8.46e-01	0	40	104	0	75	14273
2026-01-01 11:32:56.79	136.82	25.40	-51.8	-63.9	3.8	8.47e-01	0	40	104	0	75	14353
2026-01-01 11:32:57.79	136.72	25.56	-51.8	-63.9	3.8	8.46e-01	0	40	104	0	75	14318
2026-01-01 11:32:58.80	136.63	25.71	-51.8	-63.9	3.8	8.46e-01	0	40	104	0	75	14262
2026-01-01 11:32:59.80	136.53	25.87	-51.8	-63.9	3.8	8.47e-01	0	40	104	0	75	14250
2026-01-01 11:33:00.80	136.44	26.03	-51.8	-63.8	3.8	8.47e-01	0	40	104	0	75	14185
2026-01-01 11:33:01.80	136.34	26.18	-51.8	-63.8	3.8	8.46e-01	0	40	104	0	75	14200
2026-01-01 11:33:02.80	136.24	26.34	-51.8	-63.8	3.8	8.47e-01	0	40	104	0	75	14162
2026-01-01 11:33:03.81	136.14	26.50	-51.8	-63.8	3.8	8.46e-01	0	40	104	0	75	14201
2026-01-01 11:33:04.81	136.04	26.66	-51.8	-63.9	3.8	8.47e-01	0	40	104	0	75	14243
2026-01-01 11:33:05.81	135.93	26.83	-51.8	-63.9	3.8	8.46e-01	0	40	104	0	75	14231
2026-01-01 11:33:06.81	135.83	26.99	-51.8	-63.9	3.8	8.46e-01	0	40	104	0	75	14216
2026-01-01 11:33:07.81	135.72	27.15	-51.9	-63.9	3.8	8.46e-01	0	40	104	0	75	14291
2026-01-01 11:33:08.81	135.62	27.31	-51.8	-63.9	3.8	8.47e-01	0	40	104	0	75	14228
2026-01-01 11:33:09.81	135.51	27.48	-51.9	-63.9	3.8	8.48e-01	0	40	104	0	75	14252
2026-01-01 11:33:10.81	135.40	27.65	-51.8	-63.9	3.8	8.48e-01	0	40	104	0	75	14221
2026-01-01 11:33:11.82	135.29	27.81	-51.8	-63.9	3.8	8.47e-01	0	40	104	0	75	14267
2026-01-01 11:33:12.82	135.18	27.98	-51.8	-63.8	3.8	8.46e-01	0	40	104	0	75	14188
2026-01-01 11:33:13.82	135.07	28.15	-51.8	-63.8	3.8	8.47e-01	0	40	104	0	75	14155
2026-01-01 11:33:14.81	134.96	28.32	-51.7	-63.9	3.8	8.48e-01	0	40	104	0	75	14250
2026-01-01 11:33:15.81	134.85	28.49	-51.8	-63.9	3.8	8.46e-01	0	40	104	0	75	14278
2026-01-01 11:33:16.81	134.73	28.66	-51.8	-63.9	3.8	8.47e-01	0	40	104	0	75	14268
2026-01-01 11:33:17.81	134.62	28.83	-51.7	-63.9	3.8	8.46e-01	0	40	104	0	75	14238
2026-01-01 11:33:18.81	134.50	29.00	-51.7	-63.9	3.8	8.48e-01	0	40	104	0	75	14231
2026-01-01 11:33:19.81	134.38	29.18	-51.7	-63.8	3.8	8.47e-01	0	40	104	0	75	14208
2026-01-01 11:33:20.80	134.26	29.35	-51.7	-63.9	3.8	8.46e-01	0	40	104	0	75	14269
2026-01-01 11:33:21.80	134.14	29.52	-51.7	-63.9	3.8	8.46e-01	0	40	104	0	75	14284
2026-01-01 11:33:22.80	134.02	29.70	-51.7	-63.9	3.8	8.47e-01	0	40	104	0	75	14288
2026-01-01 11:33:23.80	133.89	29.88	-51.7	-63.9	3.8	8.48e-01	0	40	104	0	75	14296
2026-01-01 11:33:24.80	133.77	30.06	-51.7	-63.9	3.8	8.47e-01	0	40	104	0	75	14341
2026-01-01 11:33:25.80	133.64	30.24	-51.6	-63.9	3.8	8.47e-01	0	40	104	0	75	14230
2026-01-01 11:33:26.81	133.51	30.42	-51.6	-63.9	3.8	8.46e-01	0	40	104	0	75	14250
2026-01-01 11:33:27.80	133.38	30.60	-51.6	-63.9	3.8	8.47e-01	0	40	104	0	75	14247
2026-01-01 11:33:28.81	133.25	30.78	-51.6	-63.9	3.8	8.48e-01	0	40	104	0	75	14234
2026-01-01 11:33:29.81	133.12	30.97	-51.6	-63.9	3.8	8.46e-01	0	40	104	0	75	14247
2026-01-01 11:33:30.81	132.98	31.15	-51.6	-63.9	3.8	8.46e-01	0	40	104	0	75	14273
2026-01-01 11:33:31.81	132.84	31.34	-51.6	-63.9	3.8	8.47e-01	0	40	104	0	75	14251
2026-01-01 11:33:32.81	132.71	31.52	-51.6	-63.8	3.8	8.47e-01	0	40	104	0	75	14197
2026-01-01 11:33:33.80	132.57	31.71	-51.6	-63.9	3.8	8.47e-01	0	40	104	0	75	14263
2026-01-01 11:33:34.81	132.43	31.90	-51.5	-63.9	3.8	8.47e-01	0	40	104	0	75	14229
2026-01-01 11:33:35.80	132.28	32.08	-51.6	-63.8	3.8	8.48e-01	0	40	104	0	75	14185
2026-01-01 11:33:36.80	132.14	32.28	-51.6	-63.9	3.8	8.47e-01	0	40	104	0	75	14212
2026-01-01 11:33:37.80	131.99	32.47	-51.5	-63.8	3.8	8.46e-01	0	40	104	0	75	14167
2026-01-01 11:33:38.79	131.85	32.66	-51.5	-63.8	3.8	8.46e-01	0	40	104	0	75	14185
2026-01-01 11:33:39.79	131.70	32.85	-51.5	-63.9	3.8	8.47e-01	0	40	104	0	75	14233
2026-01-01 11:33:40.79	131.55	33.04	-51.5	-63.8	3.8	8.48e-01	0	40	104	0	75	14174
2026-01-01 11:33:41.78	131.39	33.24	-51.5	-63.8	3.8	8.47e-01	0	40	104	0	75	14167
2026-01-01 11:33:42.78	131.24	33.43	-51.5	-63.8	3.8	8.46e-01	0	40	104	0	75	14091
2026-01-01 11:33:43.78	131.08	33.63	-51.5	-63.8	3.8	8.47e-01	0	40	104	0	75	14098
2026-01-01 11:33:44.78	130.92	33.83	-51.5	-63.8	3.8	8.47e-01	0	40	104	0	75	14147
2026-01-01 11:33:45.78	130.76	34.03	-51.5	-63.9	3.8	8.46e-01	0	40	104	0	75	14270
2026-01-01 11:33:46.78	130.60	34.23	-51.5	-63.9	3.8	8.46e-01	0	40	104	0	75	14316
2026-01-01 11:33:47.78	130.43	34.43	-51.5	-63.9	3.8	8.46e-01	0	40	104	0	75	14300
2026-01-01 11:33:48.78	130.27	34.63	-51.5	-63.9	3.8	8.48e-01	0	40	104	0	75	14263
2026-01-01 11:33:49.77	130.10	34.83	-51.5	-63.9	3.8	8.47e-01	0	40	104	0	75	14248
2026-01-01 11:33:50.77	129.93	35.04	-51.5	-63.9	3.8	8.47e-01	0	40	104	0	75	14270
2026-01-01 11:33:51.77	129.75	35.25	-51.5	-63.9	3.8	8.46e-01	0	40	104	0	75	14237
2026-01-01 11:33:52.77	129.58	35.45	-51.6	-63.9	3.8	8.47e-01	0	40	104	0	75	14214
2026-01-01 11:33:53.77	129.40	35.66	-51.6	-63.8	3.8	8.47e-01	0	40	104	0	75	14194
2026-01-01 11:33:54.76	129.22	35.87	-51.6	-63.9	3.8	8.47e-01	0	40	104	0	75	14235
2026-01-01 11:33:55.76	129.04	36.08	-51.6	-63.9	3.8	8.47e-01	0	40	104	0	75	14361
2026-01-01 11:33:56.76	128.85	36.29	-51.6	-63.9	3.8	8.49e-01	0	40	104	0	75	14280
2026-01-01 11:33:57.76	128.67	36.50	-51.6	-63.9	3.8	8.47e-01	0	40	104	0	75	14279
2026-01-01 11:33:58.76	128.48	36.71	-51.6	-63.9	3.8	8.46e-01	0	40	104	0	75	14255
2026-01-01 11:33:59.76	128.28	36.92	-51.6	-63.8	3.8	8.47e-01	0	40	104	0	75	14196
2026-01-01 11:34:00.74	128.09	37.14	-51.6	-63.9	3.8	8.47e-01	0	40	104	0	75	14253
2026-01-01 11:34:01.74	127.89	37.35	-51.6	-63.9	3.8	8.47e-01	0	40	104	0	75	14230
2026-01-01 11:34:02.74	127.69	37.57	-51.6	-63.8	3.8	8.46e-01	0	40	104	0	75	14200
2026-01-01 11:34:03.73	127.49	37.78	-51.6	-63.8	3.8	8.47e-01	0	40	104	0	75	14158
2026-01-01 11:34:04.74	127.28	38.00	-51.6	-63.8	3.8	8.47e-01	0	40	104	0	75	14186
2026-01-01 11:34:05.74	127.07	38.22	-51.6	-63.8	3.8	8.48e-01	0	40	104	0	75	14171
2026-01-01 11:34:06.74	126.86	38.44	-51.6	-63.8	3.8	8.47e-01	0	40	104	0	75	14166
2026-01-01 11:34:07.75	126.65	38.67	-51.6	-63.8	3.8	8.48e-01	0	40	104	0	75	14143
2026-01-01 11:34:08.75	126.43	38.89	-51.6	-63.8	3.8	8.46e-01	0	40	104	0	75	14160
2026-01-01 11:34:09.75	126.21	39.12	-51.6	-63.8	3.8	8.47e-01	0	40	104	0	75	14189
2026-01-01 11:34:10.75	125.98	39.34	-51.7	-63.9	3.8	8.47e-01	0	40	104	0	75	14264
2026-01-01 11:34:11.75	125.76	39.57	-51.7	-63.9	3.8	8.47e-01	0	40	104	0	75	14299
2026-01-01 11:34:12.76	125.52	39.79	-51.8	-64.0	3.8	8.47e-01	0	40	104	0	75	14451
2026-01-01 11:34:13.76	125.29	40.02	-51.7	-63.9	3.8	8.47e-01	0	40	104	0	75	14373
2026-01-01 11:34:14.76	125.05	40.25	-51.7	-63.9	3.8	8.46e-01	0	40	104	0	75	14315
2026-01-01 11:34:15.76	124.81	40.48	-51.8	-63.9	3.8	8.47e-01	0	40	104	0	75	14316
2026-01-01 11:34:16.75	124.57	40.71	-51.8	-63.9	3.8	8.47e-01	0	40	104	0	75	14268
2026-01-01 11:34:17.76	124.32	40.94	-51.8	-63.9	3.8	8.46e-01	0	40	104	0	75	14260
2026-01-01 11:34:18.76	124.07	41.17	-51.8	-63.9	3.8	8.47e-01	0	40	104	0	75	14253
2026-01-01 11:34:19.76	123.82	41.41	-51.8	-63.9	3.8	8.47e-01	0	40	104	0	75	14264
2026-01-01 11:34:20.76	123.56	41.64	-51.7	-63.8	3.8	8.46e-01	0	40	104	0	75	14197
2026-01-01 11:34:21.76	123.30	41.87	-51.8	-63.9	3.8	8.47e-01	0	40	104	0	75	14244
2026-01-01 11:34:22.76	123.03	42.11	-51.7	-63.9	3.8	8.48e-01	0	40	104	0	75	14248
2026-01-01 11:34:23.76	122.76	42.35	-51.8	-64.0	3.8	8.47e-01	0	40	104	0	75	14442
2026-01-01 11:34:24.77	122.49	42.58	-51.8	-63.9	3.8	8.46e-01	0	40	104	0	75	14286
2026-01-01 11:34:25.77	122.21	42.82	-51.8	-64.0	3.8	8.47e-01	0	40	104	0	75	14400
2026-01-01 11:34:26.77	121.93	43.06	-51.8	-63.9	3.8	8.45e-01	0	40	104	0	75	14368
2026-01-01 11:34:27.78	121.64	43.30	-51.8	-63.9	3.8	8.47e-01	0	40	104	0	75	14346
2026-01-01 11:34:28.78	121.35	43.54	-51.8	-63.9	3.8	8.47e-01	0	40	104	0	75	14316
2026-01-01 11:34:29.78	121.05	43.78	-51.8	-63.9	3.8	8.47e-01	0	40	104	0	75	14231
2026-01-01 11:34:30.79	120.75	44.03	-51.9	-63.9	3.8	8.47e-01	0	40	104	0	75	14372
2026-01-01 11:34:31.79	120.44	44.27	-51.8	-63.9	3.8	8.47e-01	0	40	104	0	75	14307
2026-01-01 11:34:32.79	120.13	44.51	-51.8	-63.9	3.8	8.46e-01	0	40	104	0	75	14327
2026-01-01 11:34:33.79	119.82	44.75	-51.8	-63.8	3.8	8.47e-01	0	40	104	0	75	14205
2026-01-01 11:34:34.79	119.50	45.00	-51.7	-63.8	3.8	8.47e-01	0	40	104	0	75	14202
2026-01-01 11:34:35.80	119.17	45.24	-51.7	-63.8	3.8	8.48e-01	0	40	104	0	75	14202
2026-01-01 11:34:36.80	118.85	45.49	-51.7	-63.9	3.8	8.46e-01	0	40	104	0	75	14215
2026-01-01 11:34:37.80	118.51	45.73	-51.8	-63.9	3.8	8.47e-01	0	40	104	0	75	14258
2026-01-01 11:34:38.80	118.17	45.98	-51.8	-63.9	3.8	8.49e-01	0	40	104	0	75	14251
2026-01-01 11:34:39.80	117.83	46.22	-51.8	-63.8	3.8	8.47e-01	0	40	104	0	75	14181
2026-01-01 11:34:40.81	117.47	46.47	-51.8	-63.9	3.8	8.47e-01	0	40	104	0	75	14259
2026-01-01 11:34:41.80	117.12	46.71	-51.8	-63.9	3.8	8.47e-01	0	40	104	0	75	14262
2026-01-01 11:34:42.80	116.76	46.96	-51.7	-63.9	3.8	8.47e-01	0	40	104	0	75	14268
2026-01-01 11:34:43.80	116.39	47.20	-51.8	-63.9	3.8	8.47e-01	0	40	104	0	75	14299
2026-01-01 11:34:44.81	116.02	47.45	-51.9	-63.9	3.8	8.48e-01	0	40	104	0	75	14339
2026-01-01 11:34:45.81	115.64	47.70	-51.7	-64.0	3.8	8.47e-01	0	40	104	0	75	14447
2026-01-01 11:34:46.82	115.25	47.95	-51.9	-64.0	3.8	8.47e-01	0	40	104	0	75	14442
2026-01-01 11:34:47.82	114.86	48.20	-51.8	-64.0	3.8	8.47e-01	0	40	104	0	75	14523
2026-01-01 11:34:48.82	114.46	48.44	-51.6	-64.1	3.8	8.48e-01	0	40	104	0	74	15407
2026-01-01 11:34:49.82	114.06	48.69	-51.6	-64.0	3.8	8.47e-01	0	40	104	0	74	15340
2026-01-01 11:34:50.83	113.64	48.94	-51.7	-64.0	3.8	8.47e-01	0	40	104	0	74	15335
2026-01-01 11:34:51.83	113.23	49.18	-51.7	-64.0	3.8	8.46e-01	0	40	104	0	74	15314
2026-01-01 11:34:52.83	112.80	49.43	-51.7	-64.0	3.8	8.47e-01	0	40	104	0	74	15316
2026-01-01 11:34:53.84	112.37	49.68	-51.7	-64.0	3.8	8.46e-01	0	40	104	0	74	15357
2026-01-01 11:34:54.83	111.93	49.92	-51.7	-64.0	3.8	8.47e-01	0	40	104	0	74	15277
2026-01-01 11:34:55.84	111.48	50.16	-51.7	-64.0	3.8	8.46e-01	0	40	104	0	74	15270
2026-01-01 11:34:56.84	111.03	50.41	-51.7	-64.0	3.8	8.48e-01	0	40	104	0	74	15255
2026-01-01 11:34:57.84	110.57	50.65	-51.7	-63.9	3.8	8.47e-01	0	40	104	0	74	15219
2026-01-01 11:34:58.84	110.11	50.89	-51.7	-64.0	3.8	8.46e-01	0	40	104	0	74	15328
2026-01-01 11:34:59.84	109.63	51.13	-51.7	-64.0	3.8	8.48e-01	0	40	104	0	74	15253
2026-01-01 11:35:00.83	109.15	51.37	-51.7	-64.0	3.8	8.47e-01	0	40	104	0	74	15311
2026-01-01 11:35:01.83	108.66	51.61	-51.7	-64.0	3.8	8.47e-01	0	40	104	0	74	15395
2026-01-01 11:35:02.83	108.16	51.85	-51.7	-64.0	3.8	8.48e-01	0	40	104	0	74	15343
2026-01-01 11:35:03.83	107.66	52.09	-51.6	-64.0	3.8	8.47e-01	0	40	104	0	74	15316
2026-01-01 11:35:04.83	107.14	52.32	-51.5	-64.1	3.8	8.46e-01	0	40	104	0	74	15420
2026-01-01 11:35:05.83	106.62	52.56	-51.9	-64.1	3.8	8.47e-01	0	40	104	0	74	15439
2026-01-01 11:35:06.83	106.09	52.79	-51.9	-64.0	3.8	8.47e-01	0	40	104	0	74	15304
2026-01-01 11:35:07.83	105.55	53.02	-51.9	-63.9	3.8	8.46e-01	0	40	104	0	74	15210
2026-01-01 11:35:08.83	105.00	53.25	-51.9	-63.9	3.8	8.46e-01	0	40	104	0	74	15223
2026-01-01 11:35:09.82	104.45	53.48	-51.9	-63.9	3.8	8.47e-01	0	40	104	0	74	15156
2026-01-01 11:35:10.82	103.89	53.71	-51.9	-64.0	3.8	8.48e-01	0	40	104	0	74	15253
2026-01-01 11:35:11.83	103.31	53.93	-52.0	-64.0	3.8	8.46e-01	0	40	104	0	74	15333
2026-01-01 11:35:12.83	102.72	54.16	-51.9	-64.0	3.8	8.46e-01	0	40	104	0	74	15267
2026-01-01 11:35:13.83	102.13	54.38	-51.9	-63.9	3.8	8.48e-01	0	40	104	0	74	15151
2026-01-01 11:35:14.83	101.53	54.60	-51.9	-63.9	3.8	8.46e-01	0	40	104	0	74	15165
2026-01-01 11:35:15.83	100.92	54.81	-51.9	-63.9	3.8	8.46e-01	0	40	104	0	74	15084
2026-01-01 11:35:16.83	100.29	55.03	-51.8	-63.8	3.8	8.47e-01	0	40	104	0	74	15047
2026-01-01 11:35:17.84	99.66	55.24	-51.8	-63.8	3.8	8.48e-01	0	40	104	0	74	14998
2026-01-01 11:35:18.83	99.03	55.45	-51.8	-63.9	3.8	8.47e-01	0	40	104	0	74	15175
2026-01-01 11:35:19.84	98.37	55.66	-51.8	-63.9	3.8	8.47e-01	0	40	104	0	74	15139
2026-01-01 11:35:20.84	97.71	55.86	-51.8	-63.9	3.8	8.48e-01	0	40	104	0	74	15067
2026-01-01 11:35:21.83	97.05	56.06	-51.8	-63.9	3.8	8.47e-01	0	40	104	0	74	15191
2026-01-01 11:35:22.83	96.37	56.25	-51.8	-63.9	3.8	8.47e-01	0	40	104	0	74	15213
2026-01-01 11:35:23.83	95.68	56.45	-51.8	-63.9	3.8	8.47e-01	0	40	104	0	74	15209
2026-01-01 11:35:24.83	94.99	56.64	-51.8	-63.9	3.8	8.46e-01	0	40	104	0	74	15182
2026-01-01 11:35:25.83	94.28	56.82	-51.8	-63.9	3.8	8.45e-01	0	40	104	0	74	15081
2026-01-01 11:35:26.83	93.56	57.01	-51.8	-64.0	3.8	8.46e-01	0	40	104	0	74	15241
2026-01-01 11:35:27.82	92.85	57.18	-51.8	-63.9	3.8	8.48e-01	0	40	104	0	74	15180
2026-01-01 11:35:28.82	92.11	57.36	-51.8	-63.9	3.8	8.46e-01	0	40	104	0	74	15123
2026-01-01 11:35:29.82	91.37	57.53	-51.8	-64.0	3.8	8.47e-01	0	40	104	0	74	15237
2026-01-01 11:35:30.83	90.61	57.70	-51.8	-63.9	3.8	8.45e-01	0	40	104	0	74	15186
2026-01-01 11:35:31.83	89.84	57.86	-51.7	-63.9	3.8	8.46e-01	0	40	104	0	74	15096
2026-01-01 11:35:32.83	89.07	58.02	-51.7	-63.9	3.8	8.46e-01	0	40	104	0	74	15158
2026-01-01 11:35:33.83	88.29	58.18	-51.8	-63.9	3.8	8.47e-01	0	40	104	0	74	15131
2026-01-01 11:35:34.83	87.50	58.32	-51.7	-63.8	3.8	8.47e-01	0	40	104	0	74	15036
2026-01-01 11:35:35.83	86.70	58.47	-51.7	-63.9	3.8	8.47e-01	0	40	104	0	74	15089
2026-01-01 11:35:36.84	85.88	58.61	-51.7	-63.9	3.8	8.47e-01	0	40	104	0	74	15059
2026-01-01 11:35:37.84	85.07	58.74	-51.8	-63.9	3.8	8.47e-01	0	40	104	0	74	15203
2026-01-01 11:35:38.84	84.24	58.87	-51.8	-63.9	3.8	8.47e-01	0	40	104	0	74	15219
2026-01-01 11:35:39.84	83.41	59.00	-51.8	-64.0	3.8	8.47e-01	0	40	104	0	74	15249
2026-01-01 11:35:40.84	82.57	59.12	-51.8	-63.9	3.8	8.48e-01	0	40	104	0	74	15133
2026-01-01 11:35:41.85	81.71	59.23	-51.7	-63.9	3.8	8.47e-01	0	40	104	0	74	15153
2026-01-01 11:35:42.85	80.86	59.34	-51.7	-63.9	3.8	8.48e-01	0	40	104	0	74	15152
2026-01-01 11:35:43.85	80.00	59.44	-51.7	-63.9	3.8	8.46e-01	0	40	104	0	74	15112
2026-01-01 11:35:44.86	79.12	59.54	-51.7	-63.9	3.8	8.48e-01	0	40	104	0	74	15153
2026-01-01 11:35:45.86	78.25	59.63	-51.7	-63.9	3.8	8.46e-01	0	40	104	0	74	15138
2026-01-01 11:35:46.86	77.37	59.71	-51.7	-63.9	3.8	8.47e-01	0	40	104	0	74	15127
2026-01-01 11:35:47.86	76.48	59.79	-51.7	-63.9	3.8	8.45e-01	0	40	104	0	74	15200
2026-01-01 11:35:48.86	75.59	59.86	-51.7	-63.9	3.8	8.48e-01	0	40	104	0	74	15122
2026-01-01 11:35:49.86	74.69	59.92	-51.7	-63.9	3.8	8.48e-01	0	40	104	0	74	15168
2026-01-01 11:35:50.87	73.78	59.98	-51.7	-63.9	3.8	8.47e-01	0	40	104	0	74	15138
2026-01-01 11:35:51.87	72.88	60.04	-51.7	-63.9	3.8	8.47e-01	0	40	104	0	74	15150
2026-01-01 11:35:52.87	71.97	60.08	-51.7	-63.9	3.8	8.47e-01	0	40	104	0	74	15166
2026-01-01 11:35:53.88	71.05	60.12	-51.7	-63.9	3.8	8.47e-01	0	40	104	0	74	15138
2026-01-01 11:35:54.88	70.14	60.16	-51.8	-63.9	3.8	8.46e-01	0	40	104	0	74	15202
2026-01-01 11:35:55.88	69.22	60.18	-51.8	-64.0	3.8	8.46e-01	0	40	104	0	74	15263
2026-01-01 11:35:56.88	68.31	60.20	-51.8	-63.9	3.8	8.47e-01	0	40	104	0	74	15209
2026-01-01 11:35:57.88	67.39	60.22	-51.8	-63.9	3.8	8.47e-01	0	40	104	0	74	15181
2026-01-01 11:35:58.88	66.47	60.22	-51.8	-63.9	3.8	8.47e-01	0	40	104	0	74	15199
2026-01-01 11:35:59.89	65.54	60.22	-51.8	-63.9	3.8	8.47e-01	0	40	104	0	74	15216
2026-01-01 11:36:00.89	64.62	60.22	-51.8	-63.9	3.8	8.47e-01	0	40	104	0	74	15203
2026-01-01 11:36:01.89	63.71	60.21	-51.8	-64.0	3.8	8.47e-01	0	40	104	0	74	15238
2026-01-01 11:36:02.89	62.79	60.19	-51.8	-64.0	3.8	8.46e-01	0	40	104	0	74	15261
2026-01-01 11:36:03.90	61.87	60.16	-51.7	-63.9	3.8	8.47e-01	0	40	104	0	74	15166
2026-01-01 11:36:04.90	60.95	60.13	-51.7	-63.9	3.8	8.47e-01	0	40	104	0	74	15182
2026-01-01 11:36:05.90	60.04	60.09	-51.7	-63.9	3.8	8.47e-01	0	40	104	0	74	15165
2026-01-01 11:36:06.90	59.13	60.04	-51.7	-63.9	3.8	8.47e-01	0	40	104	0	74	15165
2026-01-01 11:36:07.89	58.24	59.99	-51.7	-63.9	3.8	8.46e-01	0	40	104	0	74	15203
2026-01-01 11:36:08.90	57.33	59.93	-51.7	-63.9	3.8	8.47e-01	0	40	104	0	74	15215
2026-01-01 11:36:09.90	56.43	59.87	-51.7	-63.9	3.8	8.47e-01	0	40	104	0	74	15198
2026-01-01 11:36:10.90	55.54	59.80	-51.7	-63.9	3.8	8.48e-01	0	40	104	0	74	15126
2026-01-01 11:36:11.90	54.66	59.72	-51.7	-63.9	3.8	8.48e-01	0	40	104	0	74	15175
2026-01-01 11:36:12.90	53.78	59.64	-51.7	-63.9	3.8	8.46e-01	0	40	104	0	74	15175
2026-01-01 11:36:13.91	52.89	59.55	-51.7	-63.9	3.8	8.47e-01	0	40	104	0	74	15180
2026-01-01 11:36:14.91	52.03	59.45	-51.7	-63.9	3.8	8.46e-01	0	40	104	0	74	15166
2026-01-01 11:36:15.91	51.16	59.35	-51.7	-63.9	3.8	8.45e-01	0	40	104	0	74	15066
2026-01-01 11:36:16.92	50.30	59.24	-51.7	-63.9	3.8	8.47e-01	0	40	104	0	74	15118
2026-01-01 11:36:17.92	49.45	59.13	-51.7	-63.9	3.8	8.47e-01	0	40	104	0	74	15082
2026-01-01 11:36:18.92	48.61	59.01	-51.7	-63.9	3.8	8.47e-01	0	40	104	0	74	15105
2026-01-01 11:36:19.92	47.78	58.89	-51.7	-63.9	3.8	8.47e-01	0	40	104	0	74	15123
2026-01-01 11:36:20.92	46.96	58.76	-51.7	-63.9	3.8	8.47e-01	0	40	104	0	74	15180
2026-01-01 11:36:21.92	46.14	58.63	-51.7	-63.9	3.8	8.46e-01	0	40	104	0	74	15208
2026-01-01 11:36:22.91	45.34	58.49	-51.7	-63.9	3.8	8.47e-01	0	40	104	0	74	15206
2026-01-01 11:36:23.92	44.53	58.34	-51.8	-64.0	3.8	8.46e-01	0	40	104	0	74	15261
2026-01-01 11:36:24.92	43.74	58.20	-51.7	-63.9	3.8	8.47e-01	0	40	104	0	74	15211
2026-01-01 11:36:25.92	42.96	58.04	-51.7	-63.9	3.8	8.48e-01	0	40	104	0	74	15168
2026-01-01 11:36:26.93	42.18	57.88	-51.7	-63.9	3.8	8.46e-01	0	40	104	0	74	15138
2026-01-01 11:36:27.93	41.42	57.72	-51.7	-63.9	3.8	8.47e-01	0	40	104	0	74	15180
2026-01-01 11:36:28.93	40.66	57.56	-51.7	-63.9	3.8	8.47e-01	0	40	104	0	74	15078
2026-01-01 11:36:29.94	39.91	57.38	-51.7	-63.9	3.8	8.47e-01	0	40	104	0	74	15098
2026-01-01 11:36:30.94	39.18	57.21	-51.7	-63.9	3.8	8.46e-01	0	40	104	0	74	15158
2026-01-01 11:36:31.94	38.45	57.03	-51.7	-63.9	3.8	8.46e-01	0	40	104	0	74	15119
2026-01-01 11:36:32.94	37.73	56.85	-51.7	-63.9	3.8	8.47e-01	0	40	104	0	74	15204
2026-01-01 11:36:33.95	37.02	56.66	-51.7	-64.0	3.8	8.48e-01	0	40	104	0	74	15236
2026-01-01 11:36:34.95	36.32	56.47	-51.8	-64.0	3.8	8.47e-01	0	40	104	0	74	15264
2026-01-01 11:36:35.95	35.64	56.28	-51.7	-63.9	3.8	8.46e-01	0	40	104	0	74	15189
2026-01-01 11:36:36.95	34.96	56.08	-51.7	-64.0	3.8	8.46e-01	0	40	104	0	74	15235
2026-01-01 11:36:37.96	34.28	55.88	-51.7	-63.9	3.8	8.47e-01	0	40	104	0	74	15163
2026-01-01 11:36:38.96	33.63	55.68	-51.7	-64.0	3.8	8.48e-01	0	40	104	0	74	15272
2026-01-01 11:36:39.95	32.98	55.47	-51.7	-63.9	3.8	8.48e-01	0	40	104	0	74	15153
2026-01-01 11:36:40.96	32.34	55.26	-51.7	-63.9	3.8	8.48e-01	0	40	104	0	74	15176
2026-01-01 11:36:41.96	31.71	55.05	-51.7	-63.9	3.8	8.47e-01	0	40	104	0	74	15097
2026-01-01 11:36:42.97	31.08	54.84	-51.7	-63.9	3.8	8.47e-01	0	40	104	0	74	15173
2026-01-01 11:36:43.96	30.48	54.63	-51.8	-64.0	3.8	8.46e-01	0	40	104	0	74	15292
2026-01-01 11:36:44.97	29.87	54.40	-51.8	-63.9	3.8	8.47e-01	0	40	104	0	74	15218
2026-01-01 11:36:45.97	29.28	54.18	-51.8	-64.0	3.8	8.47e-01	0	40	104	0	74	15239
2026-01-01 11:36:46.97	28.69	53.96	-51.7	-63.9	3.8	8.47e-01	0	40	104	0	74	15223
2026-01-01 11:36:47.97	28.12	53.74	-51.8	-63.9	3.8	8.47e-01	0	40	104	0	74	15221
2026-01-01 11:36:48.97	27.55	53.51	-51.7	-63.9	3.8	8.47e-01	0	40	104	0	74	15159
2026-01-01 11:36:49.96	27.00	53.29	-51.8	-63.9	3.8	8.46e-01	0	40	104	0	74	15200
2026-01-01 11:36:50.96	26.46	53.06	-51.7	-63.9	3.8	8.47e-01	0	40	104	0	74	15118
2026-01-01 11:36:51.96	25.92	52.83	-51.7	-63.9	3.8	8.47e-01	0	40	104	0	74	15117
2026-01-01 11:36:52.96	25.39	52.59	-51.7	-63.9	3.8	8.47e-01	0	40	104	0	74	15167
2026-01-01 11:36:53.96	24.86	52.36	-51.7	-63.9	3.8	8.46e-01	0	40	104	0	74	15119
2026-01-01 11:36:54.96	24.35	52.12	-51.7	-63.9	3.8	8.46e-01	0	40	104	0	74	15135
2026-01-01 11:36:55.96	23.84	51.89	-51.7	-63.9	3.8	8.46e-01	0	40	104	0	74	15064
2026-01-01 11:36:56.97	23.34	51.65	-51.7	-63.9	3.8	8.46e-01	0	40	104	0	74	15066
2026-01-01 11:36:57.97	22.85	51.41	-51.8	-63.9	3.8	8.47e-01	0	40	104	0	74	15127
2026-01-01 11:36:58.97	22.37	51.17	-51.7	-63.9	3.8	8.47e-01	0	40	104	0	74	15144
2026-01-01 11:36:59.98	21.89	50.93	-51.7	-63.9	3.8	8.46e-01	0	40	104	0	74	15140
2026-01-01 11:37:00.98	21.42	50.68	-51.8	-63.9	3.8	8.47e-01	0	40	104	0	74	15144
2026-01-01 11:37:01.98	20.96	50.44	-51.7	-63.9	3.8	8.47e-01	0	40	104	0	74	15095
2026-01-01 11:37:02.98	20.51	50.20	-51.7	-63.9	3.8	8.48e-01	0	40	104	0	74	15140
2026-01-01 11:37:03.98	20.07	49.96	-51.7	-63.9	3.8	8.47e-01	0	40	104	0	74	15177
2026-01-01 11:37:04.98	19.63	49.71	-51.7	-63.9	3.8	8.47e-01	0	40	104	0	74	15103
2026-01-01 11:37:05.99	19.20	49.47	-51.7	-63.9	3.8	8.47e-01	0	40	104	0	74	15192
2026-01-01 11:37:06.99	18.77	49.22	-51.7	-63.9	3.8	8.47e-01	0	40	104	0	74	15183
2026-01-01 11:37:07.99	18.36	48.98	-51.7	-63.9	3.8	8.46e-01	0	40	104	0	74	15141
2026-01-01 11:37:08.99	17.95	48.73	-51.7	-63.9	3.8	8.46e-01	0	40	104	0	74	15178
2026-01-01 11:37:09.99	17.54	48.49	-51.7	-63.9	3.8	8.46e-01	0	40	104	0	74	15065
2026-01-01 11:37:11.00	17.14	48.24	-51.7	-63.9	3.8	8.48e-01	0	40	104	0	74	15199
2026-01-01 11:37:12.00	16.75	47.99	-51.7	-63.9	3.8	8.47e-01	0	40	104	0	74	15174
2026-01-01 11:37:13.01	16.36	47.74	-51.8	-64.0	3.8	8.47e-01	0	40	104	0	74	15262
2026-01-01 11:37:14.01	15.98	47.50	-51.8	-64.0	3.8	8.47e-01	0	40	104	0	74	15281
2026-01-01 11:37:15.01	15.61	47.25	-51.7	-63.9	3.8	8.45e-01	0	40	104	0	74	15192
2026-01-01 11:37:16.01	15.25	47.01	-51.7	-64.0	3.8	8.46e-01	0	40	104	0	74	15229
2026-01-01 11:37:17.02	14.88	46.76	-51.8	-64.0	3.8	8.46e-01	0	40	104	0	74	15269
2026-01-01 11:37:18.02	14.53	46.51	-51.7	-64.0	3.8	8.47e-01	0	40	104	0	74	15278
2026-01-01 11:37:19.01	14.18	46.27	-51.7	-64.0	3.8	8.47e-01	0	40	104	0	74	15256
2026-01-01 11:37:20.01	13.84	46.03	-51.7	-63.9	3.8	8.47e-01	0	40	104	0	74	15204
2026-01-01 11:37:21.02	13.49	45.78	-51.7	-63.9	3.8	8.47e-01	0	40	104	0	74	15188
2026-01-01 11:37:22.02	13.16	45.54	-51.8	-64.0	3.8	8.47e-01	0	40	104	0	74	15248
2026-01-01 11:37:23.02	12.83	45.29	-51.8	-64.0	3.8	8.46e-01	0	40	104	0	74	15347
2026-01-01 11:37:24.02	12.51	45.05	-51.8	-64.0	3.8	8.47e-01	0	40	104	0	74	15322
2026-01-01 11:37:25.02	12.19	44.81	-51.8	-64.0	3.8	8.46e-01	0	40	104	0	74	15354
2026-01-01 11:37:26.02	11.88	44.57	-51.8	-64.0	3.8	8.46e-01	0	40	104	0	74	15306
2026-01-01 11:37:27.02	11.57	44.33	-51.8	-63.9	3.8	8.47e-01	0	40	104	0	74	15204
2026-01-01 11:37:28.02	11.26	44.09	-51.8	-64.0	3.8	8.47e-01	0	40	104	0	74	15349
2026-01-01 11:37:29.02	10.97	43.84	-51.8	-64.0	3.8	8.47e-01	0	40	104	0	74	15276
2026-01-01 11:37:30.02	10.67	43.61	-51.8	-64.0	3.8	8.47e-01	0	40	104	0	74	15324
2026-01-01 11:37:31.02	10.38	43.37	-51.8	-64.0	3.8	8.46e-01	0	40	104	0	74	15327
2026-01-01 11:37:32.03	10.09	43.13	-51.7	-64.0	3.8	8.47e-01	0	40	104	0	74	15238
2026-01-01 11:37:33.03	9.81	42.89	-51.7	-64.0	3.8	8.48e-01	0	40	104	0	74	15238
2026-01-01 11:37:34.03	9.53	42.65	-51.7	-63.9	3.8	8.46e-01	0	40	104	0	74	15223
2026-01-01 11:37:35.04	9.26	42.41	-51.7	-63.9	3.8	8.47e-01	0	40	104	0	74	15199
2026-01-01 11:37:36.04	8.99	42.18	-51.7	-64.0	3.8	8.47e-01	0	40	104	0	74	15230
2026-01-01 11:37:37.05	8.72	41.94	-51.8	-64.1	3.8	8.45e-01	0	40	104	0	74	15457
2026-01-01 11:37:38.05	8.46	41.71	-51.8	-64.0	3.8	8.47e-01	0	40	104	0	74	15377
2026-01-01 11:37:39.05	8.20	41.47	-51.8	-64.1	3.8	8.47e-01	0	40	104	0	74	15435
2026-01-01 11:37:40.06	7.94	41.24	-51.8	-64.0	3.8	8.47e-01	0	40	104	0	74	15317
2026-01-01 11:37:41.06	7.69	41.01	-51.8	-64.0	3.8	8.47e-01	0	40	104	0	74	15266
2026-01-01 11:37:42.06	7.45	40.78	-51.7	-64.0	3.8	8.46e-01	0	40	104	0	74	15253
2026-01-01 11:37:43.07	7.20	40.55	-51.8	-64.0	3.8	8.48e-01	0	40	104	0	74	15278
2026-01-01 11:37:44.07	6.96	40.32	-51.7	-63.9	3.8	8.48e-01	0	40	104	0	74	15218
2026-01-01 11:37:45.08	6.72	40.09	-51.7	-64.0	3.8	8.47e-01	0	40	104	0	74	15254
2026-01-01 11:37:46.08	6.49	39.86	-51.8	-64.0	3.8	8.47e-01	0	40	104	0	74	15310
2026-01-01 11:37:47.08	6.26	39.64	-51.8	-64.0	3.8	8.47e-01	0	40	104	0	74	15394
2026-01-01 11:37:48.09	6.03	39.41	-51.7	-64.0	3.8	8.47e-01	0	40	104	0	74	15287
2026-01-01 11:37:49.09	5.81	39.18	-51.7	-64.0	3.8	8.47e-01	0	40	104	0	74	15256
2026-01-01 11:37:50.10	5.58	38.96	-51.8	-64.0	3.8	8.47e-01	0	40	104	0	74	15311
2026-01-01 11:37:51.10	5.37	38.74	-51.7	-64.0	3.8	8.46e-01	0	40	104	0	74	15274
2026-01-01 11:37:52.10	5.15	38.52	-51.7	-63.9	3.8	8.47e-01	0	40	104	0	74	15225
2026-01-01 11:37:53.10	4.94	38.30	-51.7	-64.0	3.8	8.46e-01	0	40	104	0	74	15257
2026-01-01 11:37:54.10	4.73	38.08	-51.7	-64.0	3.8	8.45e-01	0	40	104	0	74	15235
2026-01-01 11:37:55.11	4.53	37.86	-51.7	-64.0	3.8	8.46e-01	0	40	104	0	74	15242
2026-01-01 11:37:56.11	4.32	37.64	-51.7	-64.0	3.8	8.47e-01	0	40	104	0	74	15261
2026-01-01 11:37:57.11	4.12	37.42	-51.7	-63.9	3.8	8.47e-01	0	40	104	0	74	15211
2026-01-01 11:37:58.11	3.93	37.21	-51.7	-63.9	3.8	8.47e-01	0	40	104	0	74	15181
2026-01-01 11:37:59.11	3.73	37.00	-51.7	-64.0	3.8	8.46e-01	0	40	104	0	74	15259
2026-01-01 11:38:00.11	3.54	36.78	-51.8	-63.9	3.8	8.46e-01	0	40	104	0	74	15210
2026-01-01 11:38:01.10	3.35	36.57	-51.7	-63.9	3.8	8.47e-01	0	40	104	0	74	15196
2026-01-01 11:38:02.10	3.16	36.36	-51.8	-64.0	3.8	8.48e-01	0	40	104	0	74	15350
2026-01-01 11:38:03.09	2.98	36.15	-51.8	-64.0	3.8	8.47e-01	0	40	104	0	74	15283
2026-01-01 11:38:04.09	2.80	35.94	-51.8	-64.0	3.8	8.47e-01	0	40	104	0	74	15298
2026-01-01 11:38:05.09	2.62	35.74	-51.8	-64.0	3.8	8.46e-01	0	40	104	0	74	15284
2026-01-01 11:38:06.08	2.44	35.53	-51.8	-64.0	3.8	8.47e-01	0	40	104	0	74	15274
2026-01-01 11:38:07.08	2.27	35.33	-51.8	-63.9	3.8	8.47e-01	0	40	104	0	74	15202
2026-01-01 11:38:08.08	2.09	35.12	-51.8	-64.0	3.8	8.47e-01	0	40	104	0	74	15286
2026-01-01 11:38:09.08	1.92	34.92	-51.7	-63.9	3.8	8.48e-01	0	40	104	0	74	15192
2026-01-01 11:38:10.08	1.76	34.71	-51.7	-63.9	3.8	8.47e-01	0	40	104	0	74	15196
2026-01-01 11:38:11.08	1.59	34.51	-51.8	-64.0	3.8	8.47e-01	0	40	104	0	74	15239
2026-01-01 11:38:12.07	1.43	34.31	-51.8	-63.9	3.8	8.48e-01	0	40	104	0	74	15208
2026-01-01 11:38:13.07	1.26	34.11	-51.7	-63.9	3.8	8.46e-01	0	40	104	0	74	15149
2026-01-01 11:38:14.07	1.10	33.92	-51.8	-63.9	3.8	8.47e-01	0	40	104	0	74	15217
2026-01-01 11:38:15.07	0.94	33.72	-51.7	-63.9	3.8	8.47e-01	0	40	104	0	74	15151
2026-01-01 11:38:16.07	0.79	33.52	-51.8	-64.0	3.8	8.47e-01	0	40	104	0	74	15339
2026-01-01 11:38:17.08	0.63	33.32	-51.8	-64.0	3.8	8.48e-01	0	40	104	0	74	15244
2026-01-01 11:38:18.08	0.48	33.13	-51.8	-64.0	3.8	8.47e-01	0	40	104	0	74	15270
2026-01-01 11:38:19.08	0.33	32.94	-51.8	-63.9	3.8	8.47e-01	0	40	104	0	74	15179
2026-01-01 11:38:20.08	0.18	32.74	-51.8	-64.0	3.8	8.46e-01	0	40	104	0	74	15238
2026-01-01 11:38:21.08	0.03	32.55	-51.8	-64.0	3.8	8.47e-01	0	40	104	0	74	15279
2026-01-01 11:38:22.08	359.89	32.36	-51.8	-64.0	3.8	8.47e-01	0	40	104	0	74	15255
2026-01-01 11:38:23.08	359.74	32.17	-51.6	-64.0	3.8	8.47e-01	0	40	104	0	74	15290
2026-01-01 11:38:24.08	359.60	31.98	-51.6	-64.0	3.8	8.46e-01	0	40	104	0	74	15284
2026-01-01 11:38:25.09	359.46	31.79	-51.7	-63.9	3.8	8.46e-01	0	40	104	0	74	15204
2026-01-01 11:38:26.09	359.32	31.61	-51.6	-63.9	3.8	8.46e-01	0	40	104	0	74	15214
2026-01-01 11:38:27.10	359.18	31.42	-51.7	-64.0	3.8	8.47e-01	0	40	104	0	74	15358
2026-01-01 11:38:28.10	359.05	31.23	-51.7	-64.0	3.8	8.47e-01	0	40	104	0	74	15337
2026-01-01 11:38:29.10	358.91	31.05	-51.7	-64.0	3.8	8.48e-01	0	40	104	0	74	15283
2026-01-01 11:38:30.10	358.78	30.87	-51.7	-63.9	3.8	8.47e-01	0	40	104	0	74	15198
2026-01-01 11:38:31.09	358.65	30.69	-51.7	-64.0	3.8	8.48e-01	0	40	104	0	74	15242
2026-01-01 11:38:32.09	358.52	30.51	-51.7	-64.0	3.8	8.47e-01	0	40	104	0	74	15315
2026-01-01 11:38:33.09	358.39	30.33	-51.7	-64.0	3.8	8.47e-01	0	40	104	0	74	15276
2026-01-01 11:38:34.09	358.27	30.15	-51.7	-64.0	3.8	8.47e-01	0	40	104	0	74	15295
2026-01-01 11:38:35.09	358.14	29.97	-51.7	-64.0	3.8	8.47e-01	0	40	104	0	74	15239
2026-01-01 11:38:36.09	358.02	29.79	-51.8	-64.0	3.8	8.47e-01	0	40	104	0	74	15264
2026-01-01 11:38:37.09	357.89	29.62	-51.8	-64.0	3.8	8.46e-01	0	40	104	0	74	15230
2026-01-01 11:38:38.10	357.77	29.44	-51.8	-64.0	3.8	8.47e-01	0	40	104	0	74	15317
2026-01-01 11:38:39.10	357.65	29.27	-51.8	-64.0	3.8	8.47e-01	0	40	104	0	74	15338
2026-01-01 11:38:40.10	357.53	29.09	-51.9	-64.0	3.8	8.46e-01	0	40	104	0	74	15312
2026-01-01 11:38:41.11	357.42	28.92	-52.1	-64.1	3.8	8.46e-01	0	40	104	0	74	15433
2026-01-01 11:38:42.11	357.30	28.75	-52.0	-64.1	3.8	8.48e-01	0	40	104	0	74	15451
2026-01-01 11:38:43.11	357.19	28.58	-51.9	-64.0	3.8	8.46e-01	0	40	104	0	74	15381
2026-01-01 11:38:44.12	357.07	28.41	-51.8	-64.0	3.8	8.46e-01	0	40	104	0	74	15361
2026-01-01 11:38:45.12	356.96	28.24	-52.0	-64.0	3.8	8.47e-01	0	40	104	0	74	15399
2026-01-01 11:38:46.13	356.85	28.07	-51.9	-64.0	3.8	8.47e-01	0	40	104	0	74	15252
2026-01-01 11:38:47.13	356.74	27.90	-51.9	-64.0	3.8	8.47e-01	0	40	104	0	74	15336
2026-01-01 11:38:48.14	356.63	27.74	-51.9	-64.0	3.8	8.47e-01	0	40	104	0	74	15322
2026-01-01 11:38:49.14	356.52	27.57	-51.6	-64.0	3.8	8.47e-01	0	40	104	0	74	15346
2026-01-01 11:38:50.14	356.42	27.41	-51.8	-64.0	3.8	8.47e-01	0	40	104	0	74	15287
2026-01-01 11:38:51.14	356.31	27.24	-51.9	-64.0	3.8	8.47e-01	0	40	104	0	74	15349
2026-01-01 11:38:52.15	356.21	27.08	-51.7	-63.9	3.8	8.49e-01	0	40	104	0	74	15225
2026-01-01 11:38:53.15	356.10	26.92	-51.9	-64.0	3.8	8.46e-01	0	40	104	0	74	15392
2026-01-01 11:38:54.15	356.00	26.76	-51.6	-64.0	3.8	8.46e-01	0	40	104	0	74	15309
2026-01-01 11:38:55.15	355.90	26.60	-51.6	-64.0	3.8	8.46e-01	0	40	104	0	74	15247
2026-01-01 11:38:56.16	355.80	26.44	-51.6	-63.9	3.8	8.47e-01	0	40	104	0	74	15131
2026-01-01 11:38:57.16	355.70	26.28	-51.3	-63.8	3.8	8.47e-01	0	40	104	0	74	14977
2026-01-01 11:38:58.16	355.61	26.12	-51.4	-62.1	3.9	8.37e-01	0	40	104	0	74	12264
2026-01-01 11:38:59.16	355.51	25.96	-50.9	-62.3	3.8	8.46e-01	0	40	104	0	73	13344
2026-01-01 11:39:00.16	355.41	25.81	-50.2	-58.9	4.6	8.26e-01	0	40	0	0	72	9526
2026-01-01 11:39:01.16	355.32	25.65	-39.5	-41.4	21.1	0.00e+00	0	40	0	5242880	50	4500
2026-01-01 11:39:02.16	355.23	25.50	-50.5	-61.3	4.0	7.51e-01	0	40	104	7340032	71	13271
2026-01-01 11:39:03.16	355.13	25.35	-40.6	-42.5	19.8	0.00e+00	0	40	0	9437184	53	4339
2026-01-01 11:39:04.16	355.04	25.19	-41.3	-43.2	19.2	0.00e+00	0	40	0	14680064	53	4662
2026-01-01 11:39:05.16	354.95	25.04	-39.4	-41.2	21.2	0.00e+00	0	40	0	20971520	50	4407
2026-01-01 11:39:06.16	354.86	24.89	-39.1	-40.8	21.5	0.00e+00	0	40	0	26214400	50	4242
2026-01-01 11:39:07.16	354.77	24.74	-39.0	-40.8	21.6	0.00e+00	0	40	0	32505856	50	4218
2026-01-01 11:39:08.15	354.68	24.59	-38.8	-40.5	21.8	0.00e+00	0	40	0	37748736	49	4325
2026-01-01 11:39:09.15	354.60	24.45	-38.6	-40.3	22.0	0.00e+00	0	40	0	42991616	49	4231
2026-01-01 11:39:10.16	354.51	24.30	-38.7	-40.5	21.9	0.00e+00	0	40	0	49283072	49	4298
2026-01-01 11:39:11.15	354.42	24.15	-38.6	-40.4	21.9	0.00e+00	0	40	0	54525952	49	4251
2026-01-01 11:39:12.15	354.34	24.00	-38.6	-40.4	21.9	0.00e+00	0	40	0	59768832	49	4245
2026-01-01 11:39:13.15	354.26	23.86	-38.6	-40.3	21.9	0.00e+00	0	40	0	66060288	49	4238
2026-01-01 11:39:14.14	354.17	23.72	-38.6	-40.3	22.0	0.00e+00	0	40	0	71303168	49	4224
2026-01-01 11:39:15.14	354.09	23.57	-38.7	-40.4	21.9	0.00e+00	0	40	0	76546048	49	4279
2026-01-01 11:39:16.14	354.01	23.43	-38.6	-40.3	22.0	0.00e+00	0	40	0	82837504	49	4228
2026-01-01 11:39:17.14	353.93	23.29	-38.7	-40.4	22.0	0.00e+00	0	40	0	88080384	49	4247
2026-01-01 11:39:18.14	353.85	23.14	-38.7	-40.3	21.9	0.00e+00	0	40	0	93323264	49	4241
2026-01-01 11:39:19.14	353.77	23.00	-38.7	-40.4	21.9	0.00e+00	0	40	0	99614720	49	4255
2026-01-01 11:39:20.14	353.69	22.86	-38.7	-40.4	21.9	0.00e+00	0	40	0	104857600	49	4265
2026-01-01 11:39:21.14	353.61	22.72	-38.6	-40.3	22.0	0.00e+00	0	40	0	110100480	49	4221
2026-01-01 11:39:22.14	353.54	22.58	-38.7	-40.4	21.9	0.00e+00	0	40	0	116391936	49	4250
2026-01-01 11:39:23.14	353.46	22.45	-38.6	-40.3	21.9	0.00e+00	0	40	0	121634816	49	4235
2026-01-01 11:39:24.14	353.38	22.31	-38.7	-40.4	21.9	0.00e+00	0	40	0	127926272	49	4262
2026-01-01 11:39:25.15	353.31	22.17	-38.7	-40.4	21.8	0.00e+00	0	40	0	133169152	49	4289
2026-01-01 11:39:26.14	353.23	22.03	-38.9	-40.6	21.7	0.00e+00	0	40	0	138412032	49	4377
2026-01-01 11:39:27.14	353.16	21.90	-38.9	-40.6	21.7	0.00e+00	0	40	0	144703488	49	4384
2026-01-01 11:39:28.13	353.09	21.77	-39.0	-40.8	21.6	0.00e+00	0	40	0	149946368	49	4445
2026-01-01 11:39:29.13	353.02	21.63	-39.1	-40.9	21.5	0.00e+00	0	40	0	155189248	49	4496
2026-01-01 11:39:30.13	352.94	21.50	-39.1	-40.9	21.5	0.00e+00	0	40	0	161480704	49	4518
2026-01-01 11:39:31.13	352.87	21.37	-39.2	-40.9	21.4	0.00e+00	0	40	0	166723584	49	4545
2026-01-01 11:39:32.13	352.80	21.23	-39.2	-41.0	21.3	0.00e+00	0	40	0	171966464	49	4561
2026-01-01 11:39:33.13	352.73	21.10	-39.2	-41.0	21.3	0.00e+00	0	40	0	178257920	49	4550
2026-01-01 11:39:34.13	352.66	20.97	-39.2	-41.0	21.4	0.00e+00	0	40	0	183500800	49	4550
2026-01-01 11:39:35.13	352.60	20.84	-39.2	-40.9	21.4	0.00e+00	0	40	0	189792256	49	4542
2026-01-01 11:39:36.13	352.53	20.71	-39.1	-40.9	21.3	0.00e+00	0	40	0	195035136	49	4534
2026-01-01 11:39:37.14	352.46	20.58	-39.2	-41.0	21.4	0.00e+00	0	40	0	200278016	49	4561
2026-01-01 11:39:38.13	352.39	20.45	-39.3	-41.1	21.3	0.00e+00	0	40	0	206569472	49	4602
2026-01-01 11:39:39.13	352.33	20.32	-39.1	-40.9	21.4	0.00e+00	0	40	0	211812352	49	4522
2026-01-01 11:39:40.13	352.26	20.20	-39.1	-40.9	21.5	0.00e+00	0	40	0	217055232	49	4498
2026-01-01 11:39:41.13	352.20	20.07	-39.0	-40.8	21.5	0.00e+00	0	40	0	223346688	49	4475
2026-01-01 11:39:42.13	352.13	19.94	-39.1	-40.9	21.4	0.00e+00	0	40	0	228589568	49	4499
2026-01-01 11:39:43.13	352.07	19.82	-39.0	-40.8	21.5	0.00e+00	0	40	0	233832448	49	4459
2026-01-01 11:39:44.13	352.01	19.69	-39.0	-40.7	21.5	0.00e+00	0	40	0	240123904	49	4431
2026-01-01 11:39:45.13	351.94	19.57	-39.0	-40.7	21.5	0.00e+00	0	40	0	245366784	49	4438
2026-01-01 11:39:46.13	351.88	19.45	-39.0	-40.8	21.5	0.00e+00	0	40	0	251658240	49	4443
2026-01-01 11:39:47.12	351.82	19.32	-39.0	-40.7	21.5	0.00e+00	0	40	0	256901120	49	4430
2026-01-01 11:39:48.12	351.76	19.20	-39.1	-40.8	21.5	0.00e+00	0	40	0	262144000	49	4479
2026-01-01 11:39:49.12	351.70	19.08	-39.1	-40.9	21.4	0.00e+00	0	40	0	268435456	49	4502
2026-01-01 11:39:50.12	351.64	18.96	-39.1	-40.9	21.4	0.00e+00	0	40	0	273678336	49	4504
2026-01-01 11:39:51.12	351.58	18.84	-39.2	-40.9	21.3	0.00e+00	0	40	0	278921216	49	4541
2026-01-01 11:39:52.12	351.52	18.72	-39.3	-41.1	21.2	0.00e+00	0	40	0	285212672	49	4626
2026-01-01 11:39:53.12	351.46	18.60	-39.4	-41.2	21.1	0.00e+00	0	40	0	290455552	49	4682
2026-01-01 11:39:54.12	351.40	18.48	-39.4	-41.2	21.1	0.00e+00	0	40	0	295698432	49	4672
2026-01-01 11:39:55.13	351.34	18.36	-39.5	-41.3	21.0	0.00e+00	0	40	0	301989888	49	4709
2026-01-01 11:39:56.12	351.29	18.24	-39.6	-41.4	21.0	0.00e+00	0	40	0	307232768	49	4775
2026-01-01 11:39:57.12	351.23	18.12	-39.7	-41.5	20.8	0.00e+00	0	40	0	313524224	49	4834
2026-01-01 11:39:58.12	351.17	18.01	-39.8	-41.6	20.8	0.00e+00	0	40	0	318767104	50	4599
2026-01-01 11:39:59.12	351.12	17.89	-39.8	-41.6	20.7	0.00e+00	0	40	0	324009984	50	4644
2026-01-01 11:40:00.12	351.06	17.77	-39.9	-41.8	20.6	0.00e+00	0	40	0	330301440	50	4709
2026-01-01 11:40:01.12	351.01	17.66	-39.9	-41.7	20.6	0.00e+00	0	40	0	335544320	50	4687
2026-01-01 11:40:02.12	350.95	17.54	-39.9	-41.8	20.6	0.00e+00	0	40	0	340787200	50	4710
2026-01-01 11:40:03.12	350.90	17.43	-40.0	-41.9	20.4	0.00e+00	0	40	0	347078656	50	4762
2026-01-01 11:40:04.12	350.85	17.32	-40.1	-41.9	20.4	0.00e+00	0	40	0	352321536	50	4807
2026-01-01 11:40:05.12	350.79	17.20	-40.1	-41.9	20.4	0.00e+00	0	40	0	357564416	50	4799
2026-01-01 11:40:06.12	350.74	17.09	-40.1	-41.9	20.4	0.00e+00	0	40	0	363855872	50	4803
2026-01-01 11:40:07.11	350.69	16.98	-40.1	-42.0	20.4	0.00e+00	0	40	0	369098752	50	4818
2026-01-01 11:40:08.12	350.64	16.86	-40.2	-42.0	20.3	0.00e+00	0	40	0	375390208	51	4597
2026-01-01 11:40:09.12	350.59	16.75	-40.2	-42.0	20.3	0.00e+00	0	40	0	380633088	51	4590
2026-01-01 11:40:10.12	350.53	16.64	-40.3	-42.2	20.1	0.00e+00	0	40	0	385875968	51	4669
2026-01-01 11:40:11.11	350.48	16.53	-40.3	-42.2	20.1	0.00e+00	0	40	0	392167424	51	4673
2026-01-01 11:40:12.11	350.43	16.42	-40.3	-42.1	20.2	0.00e+00	0	40	0	397410304	51	4634
2026-01-01 11:40:13.11	350.38	16.31	-40.2	-42.1	20.2	0.00e+00	0	40	0	402653184	51	4632
2026-01-01 11:40:14.11	350.33	16.20	-40.2	-42.1	20.2	0.00e+00	0	40	0	408944640	51	4632
2026-01-01 11:40:15.11	350.29	16.09	-40.3	-42.2	20.1	0.00e+00	0	40	0	414187520	51	4667
2026-01-01 11:40:16.11	350.24	15.99	-40.3	-42.2	20.1	0.00e+00	0	40	0	419430400	51	4691
2026-01-01 11:40:17.11	350.19	15.88	-40.4	-42.2	20.1	0.00e+00	0	40	0	425721856	51	4705
2026-01-01 11:40:18.11	350.14	15.77	-40.3	-42.2	20.1	0.00e+00	0	40	0	430964736	51	4681
2026-01-01 11:40:19.11	350.09	15.66	-40.4	-42.3	20.0	0.00e+00	0	40	0	437256192	51	4713
2026-01-01 11:40:20.11	350.05	15.56	-40.5	-42.3	20.0	0.00e+00	0	40	0	442499072	51	4758
2026-01-01 11:40:21.12	350.00	15.45	-40.4	-42.3	20.0	0.00e+00	0	40	0	447741952	51	4744
2026-01-01 11:40:22.12	349.95	15.35	-40.5	-42.4	19.9	0.00e+00	0	40	0	454033408	51	4787
2026-01-01 11:40:23.12	349.91	15.24	-40.5	-42.4	19.9	0.00e+00	0	40	0	459276288	51	4786
2026-01-01 11:40:24.12	349.86	15.14	-40.5	-42.5	19.8	0.00e+00	0	40	0	464519168	51	4819
2026-01-01 11:40:25.12	349.81	15.03	-40.6	-42.5	19.8	0.00e+00	0	40	0	470810624	51	4853
2026-01-01 11:40:26.12	349.77	14.93	-40.6	-42.5	19.8	0.00e+00	0	40	0	476053504	51	4830
2026-01-01 11:40:27.11	349.73	14.83	-40.6	-42.6	19.8	0.00e+00	0	40	0	481296384	51	4883
2026-01-01 11:40:28.11	349.68	14.72	-40.6	-42.6	19.7	0.00e+00	0	40	0	487587840	51	4888
2026-01-01 11:40:29.12	349.64	14.62	-40.5	-42.5	19.7	0.00e+00	0	40	0	492830720	52	4552
2026-01-01 11:40:30.12	349.59	14.52	-40.6	-42.6	19.7	0.00e+00	0	40	0	499122176	52	4613
2026-01-01 11:40:31.12	349.55	14.42	-40.5	-42.5	19.7	0.00e+00	0	40	0	504365056	52	4561
2026-01-01 11:40:32.13	349.51	14.31	-40.5	-42.5	19.7	0.00e+00	0	40	0	509607936	52	4589
2026-01-01 11:40:33.12	349.46	14.21	-40.7	-42.7	19.5	0.00e+00	0	40	0	515899392	52	4654
2026-01-01 11:40:34.12	349.42	14.11	-40.5	-42.5	19.7	0.00e+00	0	40	0	521142272	52	4577
2026-01-01 11:40:35.12	349.38	14.01	-40.6	-42.5	19.7	0.00e+00	0	40	0	526385152	52	4581
2026-01-01 11:40:36.13	349.34	13.91	-40.5	-42.5	19.6	0.00e+00	0	40	0	532676608	52	4578
2026-01-01 11:40:37.13	349.29	13.81	-40.6	-42.6	19.6	0.00e+00	0	40	0	537919488	52	4631
2026-01-01 11:40:38.13	349.25	13.71	-40.8	-42.7	19.5	0.00e+00	0	40	0	543162368	52	4700
2026-01-01 11:40:39.13	349.21	13.61	-40.8	-42.7	19.5	0.00e+00	0	40	0	549453824	52	4688
2026-01-01 11:40:40.14	349.17	13.52	-40.7	-42.6	19.6	0.00e+00	0	40	0	554696704	52	4639
2026-01-01 11:40:41.14	349.13	13.42	-40.8	-42.8	19.4	0.00e+00	0	40	0	560988160	52	4712
2026-01-01 11:40:42.14	349.09	13.32	-40.8	-42.7	19.5	0.00e+00	0	40	0	566231040	52	4684
2026-01-01 11:40:43.15	349.05	13.22	-40.8	-42.7	19.5	0.00e+00	0	40	0	571473920	52	4694
2026-01-01 11:40:44.15	349.01	13.13	-40.8	-42.7	19.4	0.00e+00	0	40	0	577765376	52	4687
2026-01-01 11:40:45.15	348.97	13.03	-40.8	-42.7	19.4	0.00e+00	0	40	0	583008256	52	4686
2026-01-01 11:40:46.15	348.93	12.93	-40.8	-42.7	19.4	0.00e+00	0	40	0	589299712	52	4693
2026-01-01 11:40:47.15	348.89	12.84	-40.8	-42.7	19.4	0.00e+00	0	40	0	594542592	52	4687
2026-01-01 11:40:48.16	348.86	12.74	-40.9	-42.9	19.3	0.00e+00	0	40	0	599785472	52	4775
2026-01-01 11:40:49.16	348.82	12.65	-40.8	-42.8	19.3	0.00e+00	0	40	0	606076928	52	4750
2026-01-01 11:40:50.16	348.78	12.55	-40.8	-42.9	19.3	0.00e+00	0	40	0	611319808	52	4764
2026-01-01 11:40:51.16	348.74	12.46	-40.8	-42.9	19.3	0.00e+00	0	40	0	616562688	52	4798
2026-01-01 11:40:52.17	348.70	12.36	-40.8	-42.9	19.2	0.00e+00	0	40	0	622854144	52	4794
2026-01-01 11:40:53.17	348.67	12.27	-40.8	-43.0	19.2	0.00e+00	0	40	0	628097024	52	4824
2026-01-01 11:40:54.17	348.63	12.18	-40.7	-42.9	19.2	0.00e+00	0	40	0	634388480	52	4810
2026-01-01 11:40:55.17	348.59	12.08	-40.7	-42.9	19.2	0.00e+00	0	40	0	639631360	52	4800
2026-01-01 11:40:56.17	348.56	11.99	-40.7	-43.0	19.1	0.00e+00	0	40	0	644874240	52	4847
2026-01-01 11:40:57.18	348.52	11.90	-40.7	-43.1	19.1	0.00e+00	0	40	0	651165696	52	4871
2026-01-01 11:40:58.17	348.49	11.81	-40.7	-43.0	19.1	0.00e+00	0	40	0	656408576	52	4845
2026-01-01 11:40:59.17	348.45	11.72	-40.7	-43.1	19.1	0.00e+00	0	40	0	661651456	52	4876
2026-01-01 11:41:00.17	348.42	11.63	-40.8	-43.2	19.0	0.00e+00	0	40	0	667942912	52	4938
2026-01-01 11:41:01.17	348.38	11.54	-40.9	-43.2	19.0	0.00e+00	0	40	0	673185792	52	4966
2026-01-01 11:41:02.18	348.35	11.44	-41.0	-43.1	19.1	0.00e+00	0	40	0	678428672	52	4923
2026-01-01 11:41:03.18	348.31	11.35	-41.0	-43.1	19.1	0.00e+00	0	40	0	684720128	52	4893
2026-01-01 11:41:04.18	348.28	11.26	-40.9	-43.0	19.1	0.00e+00	0	40	0	689963008	52	4852
2026-01-01 11:41:05.18	348.24	11.17	-41.0	-43.1	19.1	0.00e+00	0	40	0	696254464	52	4897
2026-01-01 11:41:06.18	348.21	11.09	-41.0	-43.0	19.1	0.00e+00	0	40	0	701497344	52	4860
2026-01-01 11:41:07.18	348.18	11.00	-41.0	-43.1	19.0	0.00e+00	0	40	0	706740224	52	4918
2026-01-01 11:41:08.18	348.14	10.91	-41.0	-43.1	19.0	0.00e+00	0	40	0	713031680	52	4914
2026-01-01 11:41:09.18	348.11	10.82	-41.0	-43.1	19.0	0.00e+00	0	40	0	718274560	52	4871
2026-01-01 11:41:10.19	348.08	10.73	-41.0	-43.1	19.0	0.00e+00	0	40	0	723517440	52	4888
2026-01-01 11:41:11.19	348.04	10.64	-41.0	-43.1	19.0	0.00e+00	0	40	0	729808896	52	4907
2026-01-01 11:41:12.19	348.01	10.56	-41.1	-43.2	18.9	0.00e+00	0	40	0	735051776	52	4980
2026-01-01 11:41:13.19	347.98	10.47	-41.1	-43.2	18.9	0.00e+00	0	40	0	740294656	53	4695
2026-01-01 11:41:14.19	347.95	10.38	-41.2	-43.3	18.8	0.00e+00	0	40	0	746586112	53	4728
2026-01-01 11:41:15.18	347.91	10.30	-41.1	-43.2	18.9	0.00e+00	0	40	0	751828992	53	4685
2026-01-01 11:41:16.19	347.88	10.21	-41.1	-43.2	18.8	0.00e+00	0	40	0	758120448	53	4692
2026-01-01 11:41:17.19	347.85	10.12	-41.1	-43.2	18.8	0.00e+00	0	40	0	763363328	53	4705
2026-01-01 11:41:18.19	347.82	10.04	-41.1	-43.3	18.8	0.00e+00	0	40	0	768606208	53	4741
2026-01-01 11:41:19.19	347.79	9.95	-41.1	-43.4	18.7	0.00e+00	0	40	0	774897664	53	4761
2026-01-01 11:41:20.19	347.76	9.87	-41.3	-43.5	18.6	0.00e+00	0	40	0	780140544	53	4824
2026-01-01 11:41:21.19	347.73	9.78	-41.3	-43.5	18.6	0.00e+00	0	40	0	785383424	53	4819
2026-01-01 11:41:22.19	347.70	9.70	-41.3	-43.5	18.6	0.00e+00	0	40	0	791674880	53	4827
2026-01-01 11:41:23.19	347.67	9.61	-41.3	-43.4	18.6	0.00e+00	0	40	0	796917760	53	4808
2026-01-01 11:41:24.19	347.64	9.53	-41.3	-43.4	18.6	0.00e+00	0	40	0	802160640	53	4814
2026-01-01 11:41:25.19	347.61	9.45	-41.4	-43.5	18.5	0.00e+00	0	40	0	808452096	53	4864
2026-01-01 11:41:26.20	347.58	9.36	-41.4	-43.6	18.5	0.00e+00	0	40	0	813694976	53	4885
2026-01-01 11:41:27.20	347.55	9.28	-41.5	-43.6	18.5	0.00e+00	0	40	0	819986432	53	4900
2026-01-01 11:41:28.20	347.52	9.20	-41.5	-43.6	18.5	0.00e+00	0	40	0	825229312	53	4884
2026-01-01 11:41:29.20	347.49	9.11	-41.7	-43.8	18.2	0.00e+00	0	40	0	831520768	54	4752
2026-01-01 11:41:30.20	347.46	9.03	-41.8	-43.9	18.2	0.00e+00	0	40	0	836763648	54	4764
2026-01-01 11:41:31.21	347.43	8.95	-48.5	-61.8	3.8	5.79e-01	0	40	104	840957952	67	17741
2026-01-01 11:41:32.21	347.40	8.87	-49.8	-63.8	3.8	8.46e-01	0	40	104	840957952	71	17704
2026-01-01 11:41:33.20	347.37	8.79	-49.5	-63.8	3.8	8.46e-01	0	40	104	840957952	71	17831
2026-01-01 11:41:34.21	347.35	8.71	-51.6	-63.8	3.8	8.47e-01	0	40	104	840957952	73	15923
2026-01-01 11:41:35.21	347.32	8.62	-50.0	-64.0	3.8	8.46e-01	0	40	104	840957952	72	17107
2026-01-01 11:41:36.21	347.29	8.54	-51.5	-63.9	3.8	8.48e-01	0	40	104	840957952	73	16114
2026-01-01 11:41:37.22	347.26	8.46	-51.2	-64.0	3.8	8.47e-01	0	40	104	840957952	74	15363
2026-01-01 11:41:38.22	347.24	8.38	-51.6	-64.0	3.8	8.46e-01	0	40	104	840957952	74	15401
2026-01-01 11:41:39.22	347.21	8.30	-51.4	-64.1	3.8	8.46e-01	0	40	104	840957952	74	15484
2026-01-01 11:41:40.23	347.18	8.22	-51.7	-64.1	3.8	8.47e-01	0	40	104	840957952	74	15488
2026-01-01 11:41:41.23	347.15	8.14	-52.0	-64.2	3.8	8.47e-01	0	40	104	840957952	74	15664
2026-01-01 11:41:42.23	347.13	8.06	-51.6	-64.1	3.8	8.46e-01	0	40	104	840957952	74	15548
2026-01-01 11:41:43.24	347.10	7.98	-51.9	-64.1	3.8	8.47e-01	0	40	104	840957952	74	15563
2026-01-01 11:41:44.24	347.07	7.90	-52.0	-64.2	3.8	8.47e-01	0	40	104	840957952	74	15593
