passes_logs/2026/01/01/T1/T1__20260101_035546_FENGYUN_3G_rec.log

#Pass ID: 20260101_035546_FENGYUN 3G
#Satellite: FENGYUN 3G
#Configuration: FENGYUN 3G
#almurnet v.1.7.20251203
#Start time: 2026-01-01 03:55:46

#Version: 2.0.20230620
#Station: T1
#Location: 37.570604 lon 55.790049 lat
#TLE: 1 56232U 23055A   25365.50856095  .00043589  00000+0  69982-3 0  9997
#TLE: 2 56232  49.9923 130.6499 0004081 319.7782  40.2882 15.52545779153944

#Time	Az	El	Level	Level2	SNR	BER	BlckErr	Temp	State	Recorded	gain1	gain2
2026-01-01 03:55:46.98	228.22	5.07	-51.1	-69.9	3.8	8.48e-01	0	36	0	0	72	34001
2026-01-01 03:55:47.98	228.12	5.15	-51.1	-69.9	3.8	8.37e-01	0	36	104	0	74	30301
2026-01-01 03:55:48.98	228.02	5.22	-51.1	-69.9	3.8	8.47e-01	0	36	104	0	74	30283
2026-01-01 03:55:49.99	227.91	5.29	-51.1	-69.9	3.8	8.48e-01	0	36	104	0	74	30237
2026-01-01 03:55:50.99	227.81	5.37	-51.1	-69.9	3.8	8.48e-01	0	36	104	0	74	30294
2026-01-01 03:55:52.00	227.70	5.44	-51.1	-69.9	3.8	8.47e-01	0	36	104	0	74	30286
2026-01-01 03:55:53.00	227.60	5.52	-51.1	-69.9	3.8	8.46e-01	0	36	104	0	74	30222
2026-01-01 03:55:54.00	227.49	5.59	-51.1	-70.0	3.8	8.46e-01	0	36	104	0	74	30426
2026-01-01 03:55:55.01	227.38	5.67	-51.1	-70.0	3.8	8.47e-01	0	36	104	0	74	30495
2026-01-01 03:55:56.01	227.28	5.74	-51.1	-69.9	3.8	8.47e-01	0	37	104	0	74	30310
2026-01-01 03:55:57.02	227.17	5.82	-51.1	-69.9	3.8	8.47e-01	0	36	104	0	74	30375
2026-01-01 03:55:58.02	227.06	5.89	-51.1	-69.9	3.8	8.47e-01	0	36	104	0	74	30317
2026-01-01 03:55:59.03	226.95	5.97	-51.1	-69.9	3.8	8.48e-01	0	37	104	0	74	30271
2026-01-01 03:56:00.03	226.83	6.05	-51.1	-69.9	3.8	8.48e-01	0	37	104	0	74	30340
2026-01-01 03:56:01.03	226.72	6.12	-51.1	-69.9	3.8	8.47e-01	0	37	104	0	74	30172
2026-01-01 03:56:02.04	226.61	6.20	-51.1	-69.9	3.8	8.47e-01	0	37	104	0	74	30241
2026-01-01 03:56:03.04	226.50	6.28	-51.1	-69.9	3.8	8.48e-01	0	37	104	0	74	30299
2026-01-01 03:56:04.05	226.38	6.36	-51.0	-69.9	3.8	8.48e-01	0	37	104	0	74	30205
2026-01-01 03:56:05.05	226.26	6.43	-51.0	-69.9	3.8	8.46e-01	0	37	104	0	74	30121
2026-01-01 03:56:06.06	226.15	6.51	-51.1	-69.9	3.8	8.47e-01	0	37	104	0	74	30303
2026-01-01 03:56:07.06	226.03	6.59	-51.1	-69.9	3.8	8.47e-01	0	37	104	0	74	30122
2026-01-01 03:56:08.07	225.91	6.67	-51.1	-69.9	3.8	8.46e-01	0	37	104	0	74	30217
2026-01-01 03:56:09.07	225.79	6.75	-51.1	-69.9	3.8	8.46e-01	0	37	104	0	74	30217
2026-01-01 03:56:10.07	225.67	6.83	-51.1	-69.9	3.8	8.46e-01	0	37	104	0	74	30166
2026-01-01 03:56:11.08	225.55	6.91	-51.0	-69.9	3.8	8.46e-01	0	37	104	0	74	30048
2026-01-01 03:56:12.08	225.43	6.98	-51.1	-69.9	3.8	8.47e-01	0	37	104	0	74	30193
2026-01-01 03:56:13.09	225.30	7.06	-51.0	-69.9	3.8	8.47e-01	0	37	104	0	74	30197
2026-01-01 03:56:14.09	225.18	7.14	-51.0	-69.9	3.8	8.47e-01	0	37	104	0	74	30095
2026-01-01 03:56:15.10	225.06	7.23	-51.0	-69.8	3.8	8.46e-01	0	37	104	0	74	30006
2026-01-01 03:56:16.10	224.93	7.31	-51.0	-69.9	3.8	8.48e-01	0	37	104	0	74	30126
2026-01-01 03:56:17.11	224.80	7.39	-51.1	-69.9	3.8	8.48e-01	0	37	104	0	74	30167
2026-01-01 03:56:18.11	224.68	7.47	-51.0	-69.9	3.8	8.46e-01	0	37	104	0	74	30071
2026-01-01 03:56:19.11	224.55	7.55	-51.0	-69.9	3.8	8.47e-01	0	37	104	0	74	30123
2026-01-01 03:56:20.12	224.42	7.63	-51.0	-69.9	3.8	8.47e-01	0	37	104	0	74	30100
2026-01-01 03:56:21.12	224.29	7.71	-51.0	-69.8	3.8	8.47e-01	0	37	104	0	74	29901
2026-01-01 03:56:22.13	224.15	7.80	-51.0	-69.8	3.8	8.47e-01	0	37	104	0	74	30003
2026-01-01 03:56:23.13	224.02	7.88	-51.0	-69.8	3.8	8.47e-01	0	37	104	0	74	29957
2026-01-01 03:56:24.13	223.89	7.96	-51.0	-69.9	3.8	8.47e-01	0	38	104	0	74	30099
2026-01-01 03:56:25.14	223.75	8.05	-51.0	-69.9	3.8	8.46e-01	0	38	104	0	74	30168
2026-01-01 03:56:26.14	223.62	8.13	-51.0	-69.8	3.8	8.46e-01	0	37	104	0	74	29976
2026-01-01 03:56:27.15	223.48	8.21	-51.0	-69.8	3.8	8.46e-01	0	37	104	0	74	29997
2026-01-01 03:56:28.15	223.34	8.30	-51.0	-69.8	3.8	8.48e-01	0	38	104	0	74	29954
2026-01-01 03:56:29.16	223.20	8.38	-51.0	-69.9	3.8	8.48e-01	0	37	104	0	74	30149
2026-01-01 03:56:30.16	223.06	8.47	-51.1	-69.9	3.8	8.47e-01	0	37	104	0	74	30210
2026-01-01 03:56:31.17	222.92	8.55	-51.0	-69.9	3.8	8.48e-01	0	38	104	0	74	30153
2026-01-01 03:56:32.17	222.77	8.64	-51.0	-69.9	3.8	8.46e-01	0	38	104	0	74	30202
2026-01-01 03:56:33.17	222.63	8.72	-51.0	-69.9	3.8	8.46e-01	0	38	104	0	74	30147
2026-01-01 03:56:34.18	222.48	8.81	-51.0	-69.9	3.8	8.48e-01	0	38	104	0	74	30128
2026-01-01 03:56:35.18	222.34	8.90	-51.0	-69.9	3.8	8.47e-01	0	38	104	0	74	30250
2026-01-01 03:56:36.19	222.19	8.98	-51.0	-69.9	3.8	8.47e-01	0	38	104	0	74	30078
2026-01-01 03:56:37.19	222.04	9.07	-51.0	-69.9	3.8	8.47e-01	0	38	104	0	74	30193
2026-01-01 03:56:38.20	221.89	9.16	-51.0	-69.9	3.8	8.47e-01	0	38	104	0	74	30059
2026-01-01 03:56:39.20	221.74	9.24	-51.0	-69.9	3.8	8.47e-01	0	38	104	0	74	30132
2026-01-01 03:56:40.21	221.59	9.33	-51.0	-69.9	3.8	8.49e-01	0	38	104	0	74	30062
2026-01-01 03:56:41.21	221.43	9.42	-51.0	-69.9	3.8	8.48e-01	0	38	104	0	74	30070
2026-01-01 03:56:42.21	221.28	9.51	-51.0	-69.9	3.8	8.48e-01	0	38	104	0	74	30152
2026-01-01 03:56:43.22	221.12	9.60	-51.0	-69.9	3.8	8.46e-01	0	38	104	0	74	30162
2026-01-01 03:56:44.22	220.97	9.69	-51.0	-69.9	3.8	8.48e-01	0	38	104	0	74	30102
2026-01-01 03:56:45.22	220.81	9.78	-51.0	-69.9	3.8	8.47e-01	0	38	104	0	74	30227
2026-01-01 03:56:46.23	220.65	9.87	-51.0	-69.9	3.8	8.47e-01	0	38	104	0	74	30255
2026-01-01 03:56:47.24	220.48	9.96	-51.0	-69.9	3.8	8.47e-01	0	38	104	0	74	30252
2026-01-01 03:56:48.24	220.32	10.05	-51.0	-69.8	3.8	8.48e-01	0	38	104	0	74	29979
2026-01-01 03:56:49.24	220.16	10.14	-51.0	-69.9	3.8	8.48e-01	0	38	104	0	74	30121
2026-01-01 03:56:50.25	219.99	10.23	-51.0	-69.8	3.8	8.46e-01	0	38	104	0	74	29985
2026-01-01 03:56:51.25	219.82	10.32	-51.0	-69.8	3.8	8.47e-01	0	38	104	0	74	30003
2026-01-01 03:56:52.26	219.65	10.41	-51.0	-69.9	3.8	8.47e-01	0	38	104	0	74	30131
2026-01-01 03:56:53.26	219.49	10.50	-51.0	-69.9	3.8	8.47e-01	0	38	104	0	74	30032
2026-01-01 03:56:54.26	219.31	10.60	-51.0	-69.8	3.8	8.47e-01	0	38	104	0	74	29928
2026-01-01 03:56:55.27	219.14	10.69	-51.0	-69.8	3.8	8.47e-01	0	38	104	0	74	30002
2026-01-01 03:56:56.27	218.97	10.78	-51.0	-69.8	3.8	8.47e-01	0	38	104	0	74	29951
2026-01-01 03:56:57.28	218.79	10.88	-51.0	-69.9	3.8	8.47e-01	0	38	104	0	74	30039
2026-01-01 03:56:58.28	218.61	10.97	-51.0	-69.8	3.8	8.47e-01	0	38	104	0	74	29975
2026-01-01 03:56:59.29	218.43	11.06	-51.0	-69.9	3.8	8.47e-01	0	38	104	0	74	30044
2026-01-01 03:57:00.29	218.25	11.16	-51.0	-69.9	3.8	8.45e-01	0	38	104	0	74	30111
2026-01-01 03:57:01.30	218.07	11.25	-51.0	-69.9	3.8	8.47e-01	0	38	104	0	74	30076
2026-01-01 03:57:02.30	217.89	11.35	-51.0	-69.8	3.8	8.47e-01	0	38	104	0	74	29893
2026-01-01 03:57:03.30	217.70	11.44	-51.0	-69.8	3.8	8.47e-01	0	38	104	0	73	31748
2026-01-01 03:57:04.31	217.52	11.54	-51.0	-69.8	3.8	8.47e-01	0	38	104	0	73	31679
2026-01-01 03:57:05.31	217.33	11.63	-51.0	-69.8	3.8	8.47e-01	0	38	104	0	73	31686
2026-01-01 03:57:06.32	217.14	11.73	-50.9	-69.8	3.8	8.46e-01	0	38	104	0	73	31633
2026-01-01 03:57:07.32	216.95	11.83	-51.0	-69.8	3.8	8.46e-01	0	38	104	0	73	31633
2026-01-01 03:57:08.33	216.75	11.92	-50.9	-69.8	3.8	8.46e-01	0	38	104	0	73	31617
2026-01-01 03:57:09.33	216.56	12.02	-50.9	-69.8	3.8	8.47e-01	0	38	104	0	73	31492
2026-01-01 03:57:10.33	216.36	12.12	-51.0	-69.8	3.8	8.47e-01	0	38	104	0	73	31642
2026-01-01 03:57:11.34	216.16	12.22	-50.9	-69.8	3.8	8.47e-01	0	38	104	0	73	31600
2026-01-01 03:57:12.34	215.96	12.31	-50.9	-69.8	3.8	8.47e-01	0	38	104	0	73	31569
2026-01-01 03:57:13.35	215.76	12.41	-50.9	-69.8	3.8	8.47e-01	0	38	104	0	73	31503
2026-01-01 03:57:14.35	215.56	12.51	-50.9	-69.8	3.8	8.47e-01	0	38	104	0	73	31527
2026-01-01 03:57:15.36	215.35	12.61	-50.9	-69.8	3.8	8.47e-01	0	38	104	0	73	31539
2026-01-01 03:57:16.36	215.15	12.71	-50.9	-69.8	3.8	8.47e-01	0	38	104	0	73	31510
2026-01-01 03:57:17.37	214.93	12.81	-50.9	-69.8	3.8	8.47e-01	0	38	104	0	73	31460
2026-01-01 03:57:18.37	214.72	12.91	-50.9	-69.7	3.8	8.47e-01	0	38	104	0	73	31410
2026-01-01 03:57:19.37	214.51	13.01	-50.9	-69.8	3.8	8.47e-01	0	38	104	0	73	31462
2026-01-01 03:57:20.38	214.30	13.11	-50.9	-69.8	3.8	8.46e-01	0	38	104	0	73	31493
2026-01-01 03:57:21.38	214.08	13.21	-50.9	-69.7	3.8	8.46e-01	0	38	104	0	73	31415
2026-01-01 03:57:22.39	213.86	13.31	-50.9	-69.7	3.8	8.47e-01	0	38	104	0	73	31342
2026-01-01 03:57:23.39	213.64	13.41	-50.9	-69.7	3.8	8.47e-01	0	38	104	0	73	31278
2026-01-01 03:57:24.39	213.42	13.51	-50.8	-69.7	3.8	8.47e-01	0	38	104	0	73	31293
2026-01-01 03:57:25.40	213.19	13.62	-50.9	-69.7	3.8	8.48e-01	0	38	104	0	73	31241
2026-01-01 03:57:26.40	212.97	13.72	-50.8	-69.7	3.8	8.46e-01	0	38	104	0	73	31160
2026-01-01 03:57:27.41	212.74	13.82	-50.8	-69.7	3.8	8.46e-01	0	38	104	0	73	31259
2026-01-01 03:57:28.41	212.51	13.92	-50.9	-69.7	3.8	8.47e-01	0	38	104	0	73	31286
2026-01-01 03:57:29.42	212.28	14.03	-50.8	-69.7	3.8	8.47e-01	0	38	104	0	73	31131
2026-01-01 03:57:30.42	212.04	14.13	-50.8	-69.6	3.8	8.47e-01	0	38	104	0	73	31080
2026-01-01 03:57:31.42	211.81	14.23	-50.8	-69.7	3.8	8.47e-01	0	38	104	0	73	31255
2026-01-01 03:57:32.43	211.57	14.34	-50.8	-69.7	3.8	8.47e-01	0	38	104	0	73	31101
2026-01-01 03:57:33.43	211.33	14.44	-50.8	-69.7	3.8	8.48e-01	0	38	104	0	73	31155
2026-01-01 03:57:34.44	211.08	14.54	-50.8	-69.6	3.8	8.48e-01	0	38	104	0	73	31053
2026-01-01 03:57:35.44	210.84	14.65	-50.8	-69.7	3.8	8.46e-01	0	38	104	0	73	31189
2026-01-01 03:57:36.44	210.59	14.75	-50.8	-69.7	3.8	8.46e-01	0	39	104	0	73	31172
2026-01-01 03:57:37.45	210.34	14.86	-50.8	-69.6	3.8	8.46e-01	0	38	104	0	73	31084
2026-01-01 03:57:38.45	210.09	14.96	-50.8	-69.7	3.8	8.47e-01	0	38	104	0	73	31227
2026-01-01 03:57:39.45	209.83	15.07	-50.8	-69.7	3.8	8.46e-01	0	38	104	0	73	31104
2026-01-01 03:57:40.46	209.58	15.17	-50.8	-69.6	3.8	8.46e-01	0	38	104	0	73	30971
2026-01-01 03:57:41.46	209.32	15.28	-50.8	-69.7	3.8	8.46e-01	0	38	104	0	73	31130
2026-01-01 03:57:42.47	209.06	15.38	-50.8	-69.6	3.8	8.47e-01	0	38	104	0	73	31010
2026-01-01 03:57:43.47	208.79	15.49	-50.8	-69.6	3.8	8.47e-01	0	38	104	0	73	30927
2026-01-01 03:57:44.48	208.53	15.59	-50.8	-69.6	3.8	8.47e-01	0	38	104	0	73	30941
2026-01-01 03:57:45.48	208.26	15.70	-50.8	-69.6	3.8	8.47e-01	0	38	104	0	73	31040
2026-01-01 03:57:46.49	207.99	15.81	-50.8	-69.7	3.8	8.47e-01	0	38	104	0	73	31117
2026-01-01 03:57:47.49	207.71	15.91	-50.8	-69.6	3.8	8.47e-01	0	39	104	0	73	30970
2026-01-01 03:57:48.49	207.44	16.02	-50.8	-69.7	3.8	8.47e-01	0	38	104	0	73	31115
2026-01-01 03:57:49.50	207.16	16.13	-50.8	-69.7	3.8	8.48e-01	0	38	104	0	73	31150
2026-01-01 03:57:50.50	206.88	16.23	-50.8	-69.7	3.8	8.48e-01	0	38	104	0	73	31162
2026-01-01 03:57:51.52	206.59	16.34	-50.8	-69.7	3.8	8.48e-01	0	39	104	0	73	31308
2026-01-01 03:57:52.56	206.30	16.45	-50.8	-69.7	3.8	8.46e-01	0	38	104	0	73	31182
2026-01-01 03:57:53.57	206.01	16.56	-50.8	-69.6	3.8	8.46e-01	0	39	104	0	73	31076
2026-01-01 03:57:54.58	205.71	16.67	-50.8	-69.7	3.8	8.47e-01	0	38	104	0	73	31240
2026-01-01 03:57:55.58	205.42	16.77	-50.8	-69.7	3.8	8.47e-01	0	39	104	0	73	31236
2026-01-01 03:57:56.59	205.12	16.88	-50.8	-69.7	3.8	8.46e-01	0	38	104	0	73	31195
2026-01-01 03:57:57.59	204.83	16.99	-50.8	-69.7	3.8	8.46e-01	0	38	104	0	73	31149
2026-01-01 03:57:58.60	204.52	17.09	-50.8	-69.7	3.8	8.47e-01	0	38	104	0	73	31123
2026-01-01 03:57:59.60	204.22	17.20	-50.9	-69.7	3.8	8.47e-01	0	38	104	0	73	31240
2026-01-01 03:58:00.61	203.91	17.31	-50.9	-69.7	3.8	8.47e-01	0	39	104	0	73	31132
2026-01-01 03:58:01.61	203.60	17.41	-50.9	-69.7	3.8	8.47e-01	0	38	104	0	73	31355
2026-01-01 03:58:02.62	203.29	17.52	-50.8	-69.7	3.8	8.48e-01	0	39	104	0	73	31203
2026-01-01 03:58:03.62	202.98	17.63	-50.9	-69.7	3.8	8.48e-01	0	39	104	0	73	31308
2026-01-01 03:58:04.62	202.66	17.73	-50.9	-69.7	3.8	8.46e-01	0	38	104	0	73	31290
2026-01-01 03:58:05.63	202.34	17.84	-50.9	-69.7	3.8	8.47e-01	0	39	104	0	73	31321
2026-01-01 03:58:06.63	202.02	17.95	-50.8	-69.7	3.8	8.47e-01	0	39	104	0	73	31306
2026-01-01 03:58:07.64	201.69	18.05	-50.9	-69.7	3.8	8.47e-01	0	39	104	0	73	31282
2026-01-01 03:58:08.64	201.36	18.16	-50.8	-69.7	3.8	8.47e-01	0	39	104	0	73	31213
2026-01-01 03:58:09.64	201.03	18.26	-50.8	-69.7	3.8	8.47e-01	0	38	104	0	73	31163
2026-01-01 03:58:10.65	200.69	18.37	-50.8	-69.6	3.8	8.46e-01	0	39	104	0	73	31074
2026-01-01 03:58:11.66	200.35	18.48	-50.8	-69.7	3.8	8.47e-01	0	39	104	0	73	31217
2026-01-01 03:58:12.66	200.02	18.58	-50.8	-69.7	3.8	8.46e-01	0	39	104	0	73	31170
2026-01-01 03:58:13.66	199.67	18.68	-50.8	-69.6	3.8	8.46e-01	0	38	104	0	73	31084
2026-01-01 03:58:14.67	199.33	18.79	-50.8	-69.7	3.8	8.47e-01	0	38	104	0	73	31099
2026-01-01 03:58:15.67	198.98	18.89	-50.8	-69.7	3.8	8.47e-01	0	38	104	0	73	31094
2026-01-01 03:58:16.68	198.62	19.00	-50.8	-69.6	3.8	8.47e-01	0	38	104	0	73	30984
2026-01-01 03:58:17.68	198.27	19.10	-50.8	-69.6	3.8	8.47e-01	0	38	104	0	73	30974
2026-01-01 03:58:18.69	197.91	19.20	-50.8	-69.6	3.8	8.48e-01	0	38	104	0	73	31069
2026-01-01 03:58:19.69	197.55	19.31	-50.8	-69.6	3.8	8.48e-01	0	39	104	0	73	31065
2026-01-01 03:58:20.70	197.19	19.41	-50.8	-69.7	3.8	8.46e-01	0	39	104	0	73	31092
2026-01-01 03:58:21.70	196.82	19.51	-50.8	-69.6	3.8	8.46e-01	0	39	104	0	73	31051
2026-01-01 03:58:22.70	196.45	19.61	-50.8	-69.6	3.8	8.46e-01	0	38	104	0	73	31026
2026-01-01 03:58:23.71	196.08	19.71	-50.8	-69.6	3.8	8.47e-01	0	39	104	0	73	31013
2026-01-01 03:58:24.71	195.71	19.81	-50.8	-69.7	3.8	8.46e-01	0	39	104	0	73	31149
2026-01-01 03:58:25.71	195.33	19.91	-50.8	-69.6	3.8	8.46e-01	0	38	104	0	73	31064
2026-01-01 03:58:26.72	194.94	20.01	-50.8	-69.6	3.8	8.47e-01	0	38	104	0	73	31063
2026-01-01 03:58:27.72	194.56	20.11	-50.8	-69.7	3.8	8.48e-01	0	39	104	0	73	31140
2026-01-01 03:58:28.73	194.17	20.21	-50.8	-69.7	3.8	8.48e-01	0	39	104	0	73	31110
2026-01-01 03:58:29.73	193.78	20.31	-50.8	-69.6	3.8	8.48e-01	0	39	104	0	73	31045
2026-01-01 03:58:30.73	193.39	20.40	-50.8	-69.6	3.8	8.47e-01	0	39	104	0	73	31079
2026-01-01 03:58:31.74	192.99	20.50	-50.8	-69.7	3.8	8.47e-01	0	39	104	0	73	31099
2026-01-01 03:58:32.74	192.60	20.59	-50.8	-69.6	3.8	8.47e-01	0	39	104	0	73	30999
2026-01-01 03:58:33.74	192.20	20.69	-50.8	-69.6	3.8	8.46e-01	0	39	104	0	73	31034
2026-01-01 03:58:34.75	191.79	20.78	-50.8	-69.6	3.8	8.46e-01	0	39	104	0	73	31005
2026-01-01 03:58:35.75	191.38	20.87	-50.8	-69.6	3.8	8.46e-01	0	39	104	0	73	31022
2026-01-01 03:58:36.76	190.97	20.97	-50.8	-69.7	3.8	8.47e-01	0	39	104	0	73	31134
2026-01-01 03:58:37.76	190.56	21.06	-50.8	-69.7	3.8	8.47e-01	0	39	104	0	73	31148
2026-01-01 03:58:38.77	190.14	21.15	-50.8	-69.6	3.8	8.47e-01	0	39	104	0	73	31071
2026-01-01 03:58:39.77	189.72	21.24	-50.8	-69.6	3.8	8.47e-01	0	39	104	0	73	30958
2026-01-01 03:58:40.78	189.30	21.33	-50.8	-69.7	3.8	8.46e-01	0	38	104	0	73	31152
2026-01-01 03:58:41.78	188.87	21.41	-50.8	-69.7	3.8	8.46e-01	0	39	104	0	73	31120
2026-01-01 03:58:42.78	188.45	21.50	-50.8	-69.6	3.8	8.47e-01	0	38	104	0	73	31015
2026-01-01 03:58:43.79	188.01	21.58	-50.8	-69.6	3.8	8.47e-01	0	38	104	0	73	30905
2026-01-01 03:58:44.79	187.58	21.67	-50.8	-69.6	3.8	8.48e-01	0	39	104	0	73	31026
2026-01-01 03:58:45.80	187.14	21.75	-50.8	-69.6	3.8	8.48e-01	0	38	104	0	73	31011
2026-01-01 03:58:46.80	186.70	21.83	-50.8	-69.6	3.8	8.48e-01	0	39	104	0	73	30955
2026-01-01 03:58:47.81	186.26	21.91	-50.8	-69.6	3.8	8.46e-01	0	38	104	0	73	30862
2026-01-01 03:58:48.81	185.82	21.99	-50.8	-69.6	3.8	8.46e-01	0	39	104	0	73	30903
2026-01-01 03:58:49.82	185.37	22.07	-50.8	-69.6	3.8	8.46e-01	0	39	104	0	73	30914
2026-01-01 03:58:50.82	184.92	22.15	-50.7	-69.6	3.8	8.47e-01	0	39	104	0	73	30897
2026-01-01 03:58:51.82	184.47	22.22	-50.8	-69.6	3.8	8.47e-01	0	39	104	0	73	30842
2026-01-01 03:58:52.83	184.01	22.29	-50.8	-69.7	3.8	8.46e-01	0	39	104	0	73	31262
2026-01-01 03:58:53.83	183.55	22.37	-50.8	-69.6	3.8	8.46e-01	0	39	104	0	73	30939
2026-01-01 03:58:54.83	183.10	22.44	-50.8	-69.6	3.8	8.46e-01	0	39	104	0	73	31071
2026-01-01 03:58:55.84	182.63	22.51	-50.8	-69.6	3.8	8.47e-01	0	39	104	0	73	31082
2026-01-01 03:58:56.84	182.17	22.58	-50.8	-69.6	3.8	8.47e-01	0	39	104	0	73	31062
2026-01-01 03:58:57.85	181.70	22.64	-50.8	-69.7	3.8	8.46e-01	0	39	104	0	73	31096
2026-01-01 03:58:58.85	181.23	22.71	-50.8	-69.6	3.8	8.46e-01	0	39	104	0	73	30966
2026-01-01 03:58:59.86	180.76	22.77	-50.8	-69.6	3.8	8.46e-01	0	39	104	0	73	31007
2026-01-01 03:59:00.86	180.28	22.83	-50.8	-69.7	3.8	8.47e-01	0	39	104	0	73	31117
2026-01-01 03:59:01.86	179.81	22.89	-50.8	-69.6	3.8	8.47e-01	0	39	104	0	73	31065
2026-01-01 03:59:02.87	179.33	22.95	-50.8	-69.6	3.8	8.48e-01	0	39	104	0	73	30963
2026-01-01 03:59:03.87	178.85	23.01	-50.8	-69.6	3.8	8.47e-01	0	39	104	0	73	31020
2026-01-01 03:59:04.88	178.36	23.06	-50.8	-69.6	3.8	8.47e-01	0	39	104	0	73	30947
2026-01-01 03:59:05.88	177.88	23.12	-50.8	-69.6	3.8	8.48e-01	0	39	104	0	73	31065
2026-01-01 03:59:06.88	177.40	23.17	-50.8	-69.7	3.8	8.47e-01	0	38	104	0	73	31096
2026-01-01 03:59:07.89	176.91	23.22	-50.8	-69.7	3.8	8.47e-01	0	39	104	0	73	31136
2026-01-01 03:59:08.89	176.42	23.27	-50.8	-69.6	3.8	8.48e-01	0	39	104	0	73	31046
2026-01-01 03:59:09.90	175.92	23.31	-50.8	-69.7	3.8	8.47e-01	0	39	104	0	73	31105
2026-01-01 03:59:10.90	175.43	23.36	-50.8	-69.6	3.8	8.47e-01	0	39	104	0	73	30999
2026-01-01 03:59:11.91	174.93	23.40	-50.8	-69.6	3.8	8.47e-01	0	39	104	0	73	30980
2026-01-01 03:59:12.91	174.44	23.44	-50.8	-69.7	3.8	8.47e-01	0	39	104	0	73	31094
2026-01-01 03:59:13.91	173.94	23.48	-50.8	-69.6	3.8	8.47e-01	0	38	104	0	73	31065
2026-01-01 03:59:14.92	173.44	23.51	-50.8	-69.7	3.8	8.47e-01	0	39	104	0	73	31264
2026-01-01 03:59:15.92	172.94	23.55	-50.8	-69.6	3.8	8.46e-01	0	39	104	0	73	31076
2026-01-01 03:59:16.93	172.44	23.58	-50.8	-69.6	3.8	8.48e-01	0	39	104	0	73	30998
2026-01-01 03:59:17.93	171.94	23.61	-50.8	-69.7	3.8	8.48e-01	0	38	104	0	73	31093
2026-01-01 03:59:18.94	171.43	23.64	-50.8	-69.6	3.8	8.48e-01	0	39	104	0	73	30995
2026-01-01 03:59:19.94	170.93	23.67	-50.8	-69.6	3.8	8.47e-01	0	39	104	0	73	30993
2026-01-01 03:59:20.95	170.42	23.69	-50.8	-69.7	3.8	8.47e-01	0	39	104	0	73	31090
2026-01-01 03:59:21.95	169.91	23.71	-50.8	-69.7	3.8	8.46e-01	0	39	104	0	73	31106
2026-01-01 03:59:22.95	169.41	23.73	-50.8	-69.6	3.8	8.47e-01	0	39	104	0	73	31039
2026-01-01 03:59:23.96	168.90	23.75	-50.8	-69.6	3.8	8.47e-01	0	39	104	0	73	31003
2026-01-01 03:59:24.96	168.39	23.77	-50.8	-69.7	3.8	8.46e-01	0	39	104	0	73	31230
2026-01-01 03:59:25.97	167.88	23.78	-50.8	-69.7	3.8	8.47e-01	0	39	104	0	73	31197
2026-01-01 03:59:26.97	167.37	23.79	-50.8	-69.7	3.8	8.46e-01	0	39	104	0	73	31116
2026-01-01 03:59:27.97	166.86	23.80	-50.8	-69.6	3.8	8.46e-01	0	39	104	0	73	30976
2026-01-01 03:59:28.98	166.35	23.81	-50.8	-69.7	3.8	8.48e-01	0	39	104	0	73	31288
2026-01-01 03:59:29.98	165.84	23.82	-50.8	-69.6	3.8	8.48e-01	0	39	104	0	73	31006
2026-01-01 03:59:30.99	165.32	23.82	-50.8	-69.7	3.8	8.48e-01	0	39	104	0	73	31150
2026-01-01 03:59:31.99	164.81	23.82	-50.8	-69.7	3.8	8.47e-01	0	39	104	0	73	31110
2026-01-01 03:59:33.00	164.30	23.82	-50.8	-69.6	3.8	8.47e-01	0	39	104	0	73	31074
2026-01-01 03:59:34.00	163.79	23.82	-50.8	-69.6	3.8	8.47e-01	0	39	104	0	73	30944
2026-01-01 03:59:35.01	163.28	23.81	-50.8	-69.6	3.8	8.46e-01	0	39	104	0	73	30931
2026-01-01 03:59:36.01	162.77	23.80	-50.8	-69.6	3.8	8.47e-01	0	39	104	0	73	30975
2026-01-01 03:59:37.01	162.26	23.79	-50.8	-69.6	3.8	8.47e-01	0	39	104	0	73	30985
2026-01-01 03:59:38.02	161.75	23.78	-50.8	-69.6	3.8	8.48e-01	0	39	104	0	73	31072
2026-01-01 03:59:39.02	161.24	23.77	-50.8	-69.6	3.8	8.47e-01	0	39	104	0	73	30918
2026-01-01 03:59:40.02	160.73	23.75	-50.8	-69.6	3.8	8.47e-01	0	39	104	0	73	31070
2026-01-01 03:59:41.03	160.22	23.73	-50.8	-69.6	3.8	8.47e-01	0	39	104	0	73	30968
2026-01-01 03:59:42.03	159.71	23.71	-50.8	-69.6	3.8	8.46e-01	0	39	104	0	73	30819
2026-01-01 03:59:43.03	159.21	23.69	-50.8	-69.5	3.8	8.47e-01	0	39	104	0	73	30672
2026-01-01 03:59:44.04	158.70	23.67	-50.8	-69.6	3.8	8.47e-01	0	39	104	0	73	30770
2026-01-01 03:59:45.04	158.20	23.64	-50.8	-69.7	3.8	8.48e-01	0	39	104	0	73	31114
2026-01-01 03:59:46.04	157.70	23.61	-50.8	-69.6	3.8	8.46e-01	0	39	104	0	73	30987
2026-01-01 03:59:47.05	157.19	23.58	-50.8	-69.5	3.8	8.46e-01	0	39	104	0	73	30473
2026-01-01 03:59:48.05	156.69	23.55	-50.8	-69.5	3.8	8.46e-01	0	39	104	0	73	30487
2026-01-01 03:59:49.06	156.19	23.51	-50.8	-69.5	3.8	8.48e-01	0	39	104	0	73	30598
2026-01-01 03:59:50.06	155.69	23.48	-50.7	-69.5	3.8	8.48e-01	0	39	104	0	73	30631
2026-01-01 03:59:51.07	155.19	23.44	-50.8	-69.6	3.8	8.47e-01	0	39	104	0	73	30935
2026-01-01 03:59:52.07	154.70	23.40	-50.7	-69.6	3.8	8.48e-01	0	39	104	0	73	30795
2026-01-01 03:59:53.08	154.20	23.36	-50.7	-69.5	3.8	8.48e-01	0	39	104	0	73	30683
2026-01-01 03:59:54.08	153.71	23.31	-50.7	-69.6	3.8	8.47e-01	0	39	104	0	73	30808
2026-01-01 03:59:55.08	153.22	23.27	-50.7	-69.5	3.8	8.47e-01	0	39	104	0	73	30701
2026-01-01 03:59:56.09	152.73	23.22	-50.7	-69.6	3.8	8.47e-01	0	39	104	0	73	30748
2026-01-01 03:59:57.09	152.24	23.17	-50.7	-69.5	3.8	8.47e-01	0	39	104	0	73	30634
2026-01-01 03:59:58.10	151.75	23.12	-50.7	-69.5	3.8	8.46e-01	0	39	104	0	73	30451
2026-01-01 03:59:59.10	151.27	23.06	-50.7	-69.5	3.8	8.47e-01	0	39	104	0	73	30622
2026-01-01 04:00:00.11	150.79	23.01	-50.7	-69.5	3.8	8.47e-01	0	39	104	0	73	30725
2026-01-01 04:00:01.11	150.31	22.95	-50.7	-69.5	3.8	8.48e-01	0	39	104	0	73	30665
2026-01-01 04:00:02.12	149.83	22.89	-50.7	-69.5	3.8	8.48e-01	0	39	104	0	73	30576
2026-01-01 04:00:03.12	149.36	22.83	-50.7	-69.5	3.8	8.48e-01	0	39	104	0	73	30728
2026-01-01 04:00:04.12	148.89	22.77	-50.7	-69.5	3.8	8.46e-01	0	39	104	0	73	30638
2026-01-01 04:00:05.13	148.41	22.71	-50.7	-69.5	3.8	8.48e-01	0	39	104	0	73	30599
2026-01-01 04:00:06.13	147.94	22.64	-50.6	-69.5	3.8	8.48e-01	0	39	104	0	73	30561
2026-01-01 04:00:07.14	147.48	22.57	-50.6	-69.5	3.8	8.46e-01	0	39	104	0	73	30533
2026-01-01 04:00:08.14	147.01	22.51	-50.6	-69.5	3.8	8.47e-01	0	39	104	0	73	30583
2026-01-01 04:00:09.15	146.55	22.44	-50.6	-69.5	3.8	8.47e-01	0	39	104	0	73	30476
2026-01-01 04:00:10.15	146.09	22.37	-50.6	-69.5	3.8	8.46e-01	0	39	104	0	73	30515
2026-01-01 04:00:11.15	145.64	22.29	-50.6	-69.5	3.8	8.46e-01	0	39	104	0	73	30400
2026-01-01 04:00:12.16	145.18	22.22	-50.6	-69.5	3.8	8.48e-01	0	39	104	0	73	30381
2026-01-01 04:00:13.16	144.73	22.15	-50.6	-69.5	3.8	8.48e-01	0	39	104	0	73	30480
2026-01-01 04:00:14.17	144.28	22.07	-50.6	-69.4	3.8	8.48e-01	0	39	104	0	73	30316
2026-01-01 04:00:15.17	143.84	21.99	-50.6	-69.4	3.8	8.47e-01	0	39	104	0	73	30268
2026-01-01 04:00:16.17	143.39	21.91	-50.7	-69.5	3.8	8.47e-01	0	39	104	0	73	30697
2026-01-01 04:00:17.18	142.95	21.83	-50.7	-69.6	3.8	8.47e-01	0	39	104	0	73	30791
2026-01-01 04:00:18.19	142.51	21.75	-50.7	-69.6	3.8	8.47e-01	0	39	104	0	73	30808
2026-01-01 04:00:19.19	142.08	21.67	-50.7	-69.5	3.8	8.47e-01	0	39	104	0	73	30680
2026-01-01 04:00:20.19	141.64	21.58	-50.7	-69.6	3.8	8.46e-01	0	39	104	0	73	30933
2026-01-01 04:00:21.20	141.21	21.50	-50.7	-69.6	3.8	8.47e-01	0	39	104	0	73	30821
2026-01-01 04:00:22.20	140.79	21.41	-50.7	-69.6	3.8	8.47e-01	0	39	104	0	73	30800
2026-01-01 04:00:23.21	140.36	21.33	-50.7	-69.6	3.8	8.47e-01	0	39	104	0	73	30907
2026-01-01 04:00:24.21	139.94	21.24	-50.6	-69.5	3.8	8.46e-01	0	39	104	0	73	30384
2026-01-01 04:00:25.21	139.52	21.15	-50.6	-69.4	3.8	8.46e-01	0	39	104	0	73	30291
2026-01-01 04:00:26.22	139.11	21.06	-50.6	-69.4	3.8	8.47e-01	0	39	104	0	73	30247
2026-01-01 04:00:27.22	138.70	20.97	-50.6	-69.5	3.8	8.46e-01	0	39	104	0	73	30419
2026-01-01 04:00:28.23	138.28	20.88	-50.6	-69.4	3.8	8.48e-01	0	39	104	0	73	30336
2026-01-01 04:00:29.23	137.88	20.78	-50.6	-69.5	3.8	8.48e-01	0	39	104	0	73	30449
2026-01-01 04:00:30.23	137.48	20.69	-50.6	-69.4	3.8	8.46e-01	0	39	104	0	73	30293
2026-01-01 04:00:31.24	137.07	20.60	-50.6	-69.4	3.8	8.47e-01	0	39	104	0	73	30288
2026-01-01 04:00:32.24	136.68	20.50	-50.6	-69.4	3.8	8.47e-01	0	39	104	0	73	30320
2026-01-01 04:00:33.25	136.28	20.41	-50.6	-69.5	3.8	8.47e-01	0	39	104	0	73	30391
2026-01-01 04:00:34.25	135.89	20.31	-50.6	-69.5	3.8	8.47e-01	0	39	104	0	73	30395
2026-01-01 04:00:35.26	135.50	20.21	-50.6	-69.4	3.8	8.47e-01	0	39	104	0	73	30370
2026-01-01 04:00:36.26	135.11	20.12	-50.6	-69.5	3.8	8.47e-01	0	39	104	0	73	30462
2026-01-01 04:00:37.26	134.73	20.02	-50.6	-69.5	3.8	8.47e-01	0	39	104	0	73	30395
2026-01-01 04:00:38.27	134.35	19.92	-50.6	-69.5	3.8	8.47e-01	0	39	104	0	73	30585
2026-01-01 04:00:39.27	133.97	19.82	-50.6	-69.4	3.8	8.45e-01	0	39	104	0	73	30374
2026-01-01 04:00:40.28	133.60	19.72	-50.6	-69.5	3.8	8.48e-01	0	39	104	0	73	30426
2026-01-01 04:00:41.28	133.23	19.62	-50.6	-69.4	3.8	8.46e-01	0	39	104	0	73	30287
2026-01-01 04:00:42.29	132.86	19.52	-50.6	-69.4	3.8	8.46e-01	0	39	104	0	73	30190
2026-01-01 04:00:43.29	132.49	19.42	-50.5	-69.4	3.8	8.48e-01	0	39	104	0	73	30254
2026-01-01 04:00:44.29	132.13	19.31	-50.5	-69.4	3.8	8.49e-01	0	39	104	0	73	30199
2026-01-01 04:00:45.30	131.77	19.21	-50.5	-69.4	3.8	8.49e-01	0	39	104	0	73	30048
2026-01-01 04:00:46.30	131.42	19.11	-50.5	-69.3	3.8	8.48e-01	0	39	104	0	73	29939
2026-01-01 04:00:47.31	131.06	19.01	-50.5	-69.3	3.8	8.47e-01	0	39	104	0	73	30020
2026-01-01 04:00:48.31	130.71	18.90	-50.5	-69.4	3.8	8.47e-01	0	39	104	0	73	30125
2026-01-01 04:00:49.32	130.36	18.80	-50.5	-69.3	3.8	8.47e-01	0	39	104	0	73	30026
2026-01-01 04:00:50.32	130.02	18.69	-50.5	-69.3	3.8	8.47e-01	0	39	104	0	73	29970
2026-01-01 04:00:51.33	129.68	18.59	-50.5	-69.3	3.8	8.47e-01	0	39	104	0	73	29896
2026-01-01 04:00:52.33	129.34	18.49	-50.5	-69.3	3.8	8.47e-01	0	39	104	0	72	31486
2026-01-01 04:00:53.34	129.00	18.38	-50.5	-69.2	3.8	8.46e-01	0	39	104	0	72	31301
2026-01-01 04:00:54.34	128.67	18.28	-50.5	-69.2	3.8	8.46e-01	0	39	104	0	72	31322
2026-01-01 04:00:55.34	128.34	18.17	-50.5	-69.2	3.8	8.47e-01	0	39	104	0	72	31443
2026-01-01 04:00:56.35	128.01	18.06	-50.5	-69.2	3.8	8.45e-01	0	39	104	0	72	31308
2026-01-01 04:00:57.35	127.69	17.96	-50.4	-69.2	3.8	8.46e-01	0	39	104	0	72	31158
2026-01-01 04:00:58.35	127.36	17.85	-50.5	-69.2	3.8	8.46e-01	0	39	104	0	72	31428
2026-01-01 04:00:59.36	127.04	17.75	-50.5	-69.3	3.8	8.47e-01	0	39	104	0	72	31517
2026-01-01 04:01:00.36	126.73	17.64	-50.4	-69.2	3.8	8.46e-01	0	39	104	0	72	31429
2026-01-01 04:01:01.37	126.41	17.53	-50.4	-69.2	3.8	8.46e-01	0	39	104	0	72	31406
2026-01-01 04:01:02.37	126.10	17.43	-50.4	-69.3	3.8	8.46e-01	0	39	104	0	72	31497
2026-01-01 04:01:03.38	125.79	17.32	-50.4	-69.3	3.8	8.47e-01	0	39	104	0	72	31456
2026-01-01 04:01:04.38	125.49	17.22	-50.4	-69.2	3.8	8.47e-01	0	39	104	0	72	31437
2026-01-01 04:01:05.38	125.19	17.11	-50.4	-69.2	3.8	8.47e-01	0	39	104	0	72	31308
2026-01-01 04:01:06.39	124.88	17.00	-50.4	-69.2	3.8	8.47e-01	0	39	104	0	72	31415
2026-01-01 04:01:07.39	124.59	16.90	-50.4	-69.2	3.8	8.47e-01	0	39	104	0	72	31236
2026-01-01 04:01:08.40	124.29	16.79	-50.4	-69.2	3.8	8.47e-01	0	39	104	0	72	31184
2026-01-01 04:01:09.40	124.00	16.68	-50.4	-69.2	3.8	8.47e-01	0	39	104	0	72	31373
2026-01-01 04:01:10.40	123.71	16.58	-50.3	-69.2	3.8	8.47e-01	0	39	104	0	72	31132
2026-01-01 04:01:11.41	123.42	16.47	-50.3	-69.1	3.8	8.48e-01	0	39	104	0	72	31070
2026-01-01 04:01:12.41	123.14	16.36	-50.3	-69.2	3.8	8.46e-01	0	39	104	0	72	31152
2026-01-01 04:01:13.42	122.86	16.26	-50.3	-69.2	3.8	8.47e-01	0	39	104	0	72	31158
2026-01-01 04:01:14.42	122.58	16.15	-50.3	-69.2	3.8	8.47e-01	0	39	104	0	72	31145
2026-01-01 04:01:15.43	122.30	16.05	-50.3	-69.2	3.8	8.48e-01	0	39	104	0	72	31241
2026-01-01 04:01:16.43	122.02	15.94	-50.3	-69.2	3.8	8.46e-01	0	39	104	0	72	31115
2026-01-01 04:01:17.44	121.75	15.83	-50.3	-69.2	3.8	8.46e-01	0	39	104	0	72	31175
2026-01-01 04:01:18.44	121.48	15.73	-50.3	-69.2	3.8	8.47e-01	0	39	104	0	72	31149
2026-01-01 04:01:19.45	121.21	15.62	-50.3	-69.1	3.8	8.47e-01	0	39	104	0	72	31003
2026-01-01 04:01:20.45	120.95	15.52	-50.3	-69.1	3.8	8.47e-01	0	39	104	0	72	30936
2026-01-01 04:01:21.46	120.68	15.41	-50.3	-69.1	3.8	8.47e-01	0	39	104	0	72	31057
2026-01-01 04:01:22.46	120.42	15.31	-50.3	-69.1	3.8	8.46e-01	0	39	104	0	72	31019
2026-01-01 04:01:23.46	120.17	15.20	-50.3	-69.1	3.8	8.46e-01	0	39	104	0	72	30945
2026-01-01 04:01:24.47	119.91	15.10	-50.3	-69.1	3.8	8.47e-01	0	39	104	0	72	30846
2026-01-01 04:01:25.47	119.66	14.99	-50.3	-69.1	3.8	8.47e-01	0	39	104	0	72	30923
2026-01-01 04:01:26.48	119.41	14.89	-50.3	-69.1	3.8	8.46e-01	0	39	104	0	72	30986
2026-01-01 04:01:27.48	119.16	14.78	-50.2	-69.1	3.8	8.46e-01	0	39	104	0	72	30750
2026-01-01 04:01:28.49	118.91	14.68	-50.2	-69.1	3.8	8.47e-01	0	39	104	0	72	30788
2026-01-01 04:01:29.54	118.65	14.57	-50.2	-69.1	3.8	8.47e-01	0	39	104	0	72	30880
2026-01-01 04:01:30.43	118.44	14.48	-50.2	-69.1	3.8	8.47e-01	0	39	104	0	72	30813
2026-01-01 04:01:31.48	118.19	14.37	-50.2	-69.1	3.8	8.46e-01	0	39	104	0	72	30824
2026-01-01 04:01:32.34	117.98	14.28	-50.2	-69.1	3.8	8.47e-01	0	39	104	0	72	30779
2026-01-01 04:01:33.49	117.71	14.16	-50.2	-69.1	3.8	8.47e-01	0	39	104	0	72	30797
2026-01-01 04:01:34.35	117.51	14.08	-50.2	-69.1	3.8	8.48e-01	0	39	104	0	72	30831
2026-01-01 04:01:35.50	117.25	13.96	-50.2	-69.1	3.8	8.47e-01	0	39	104	0	72	30881
2026-01-01 04:01:36.36	117.05	13.87	-50.2	-69.1	3.8	8.47e-01	0	39	104	0	72	30869
2026-01-01 04:01:37.51	116.79	13.75	-50.2	-69.1	3.8	8.47e-01	0	39	104	0	72	30803
2026-01-01 04:01:38.37	116.60	13.67	-50.2	-69.1	3.8	8.46e-01	0	39	104	0	72	30760
2026-01-01 04:01:39.52	116.34	13.55	-50.2	-69.1	3.8	8.46e-01	0	39	104	0	72	30835
2026-01-01 04:01:40.38	116.15	13.47	-50.2	-69.0	3.8	8.47e-01	0	39	104	0	72	30720
2026-01-01 04:01:41.53	115.90	13.35	-50.2	-69.0	3.8	8.48e-01	0	39	104	0	72	30712
2026-01-01 04:01:42.39	115.71	13.26	-50.2	-69.0	3.8	8.48e-01	0	39	104	0	72	30618
2026-01-01 04:01:43.53	115.47	13.15	-50.2	-69.0	3.8	8.46e-01	0	39	104	0	72	30624
2026-01-01 04:01:44.46	115.27	13.06	-50.2	-69.0	3.8	8.46e-01	0	39	104	0	72	30683
2026-01-01 04:01:45.46	115.06	12.96	-50.2	-69.0	3.8	8.48e-01	0	39	104	0	72	30603
2026-01-01 04:01:46.46	114.85	12.86	-50.2	-69.0	3.8	8.48e-01	0	39	104	0	72	30646
2026-01-01 04:01:47.47	114.64	12.76	-50.2	-69.0	3.8	8.47e-01	0	39	104	0	72	30590
2026-01-01 04:01:48.47	114.43	12.66	-50.2	-69.0	3.8	8.45e-01	0	39	104	0	72	30697
2026-01-01 04:01:49.48	114.22	12.56	-50.2	-69.0	3.8	8.45e-01	0	39	104	0	72	30577
2026-01-01 04:01:50.48	114.02	12.46	-50.1	-69.0	3.8	8.46e-01	0	39	104	0	72	30629
2026-01-01 04:01:51.49	113.82	12.36	-50.2	-69.0	3.8	8.46e-01	0	39	104	0	72	30718
2026-01-01 04:01:52.49	113.62	12.27	-50.2	-69.1	3.8	8.46e-01	0	39	104	0	72	30746
2026-01-01 04:01:53.49	113.42	12.17	-50.2	-69.0	3.8	8.47e-01	0	39	104	0	72	30704
2026-01-01 04:01:54.50	113.23	12.07	-50.2	-69.0	3.8	8.46e-01	0	39	104	0	72	30710
2026-01-01 04:01:55.50	113.03	11.98	-50.2	-69.0	3.8	8.46e-01	0	39	104	0	72	30616
2026-01-01 04:01:56.54	112.83	11.88	-50.2	-69.1	3.8	8.47e-01	0	39	104	0	72	30812
2026-01-01 04:01:57.57	112.64	11.78	-50.2	-69.1	3.8	8.46e-01	0	39	104	0	72	30827
2026-01-01 04:01:58.60	112.44	11.68	-50.2	-69.1	3.8	8.46e-01	0	39	104	0	72	30959
2026-01-01 04:01:59.60	112.26	11.58	-50.2	-69.1	3.8	8.46e-01	0	39	104	0	72	30896
2026-01-01 04:02:00.61	112.07	11.49	-50.2	-69.1	3.8	8.47e-01	0	39	104	0	72	30868
2026-01-01 04:02:01.61	111.89	11.39	-50.2	-69.1	3.8	8.48e-01	0	39	104	0	72	30965
2026-01-01 04:02:02.62	111.70	11.30	-50.2	-69.1	3.8	8.48e-01	0	39	104	0	72	30780
2026-01-01 04:02:03.62	111.52	11.20	-50.2	-69.1	3.8	8.47e-01	0	39	104	0	72	30908
2026-01-01 04:02:04.62	111.34	11.11	-50.3	-69.2	3.8	8.47e-01	0	39	104	0	72	31100
2026-01-01 04:02:05.63	111.16	11.02	-50.3	-69.1	3.8	8.47e-01	0	39	104	0	72	30954
2026-01-01 04:02:06.63	110.99	10.92	-50.3	-69.2	3.8	8.47e-01	0	39	104	0	72	31087
2026-01-01 04:02:07.64	110.81	10.83	-50.3	-69.2	3.8	8.46e-01	0	39	104	0	72	31147
2026-01-01 04:02:08.64	110.64	10.74	-50.4	-69.2	3.8	8.46e-01	0	39	104	0	72	31149
2026-01-01 04:02:09.65	110.46	10.65	-50.4	-69.2	3.8	8.47e-01	0	39	104	0	72	31307
2026-01-01 04:02:10.65	110.29	10.55	-50.5	-69.3	3.8	8.46e-01	0	39	104	0	72	31642
2026-01-01 04:02:11.65	110.13	10.46	-50.4	-69.3	3.8	8.47e-01	0	39	104	0	72	31571
2026-01-01 04:02:12.66	109.96	10.37	-50.5	-69.3	3.8	8.47e-01	0	39	104	0	72	31764
2026-01-01 04:02:13.66	109.79	10.28	-50.5	-69.4	3.8	8.47e-01	0	39	104	0	72	31828
2026-01-01 04:02:14.67	109.62	10.19	-50.5	-69.3	3.8	8.49e-01	0	39	104	0	72	31807
2026-01-01 04:02:15.67	109.46	10.10	-50.6	-69.4	3.8	8.49e-01	0	39	104	0	72	32014
2026-01-01 04:02:16.68	109.30	10.01	-50.6	-69.4	3.8	8.47e-01	0	39	104	0	72	32172
2026-01-01 04:02:17.68	109.14	9.92	-50.6	-69.5	3.8	8.48e-01	0	39	104	0	72	32264
2026-01-01 04:02:18.69	108.98	9.83	-50.6	-69.5	3.8	8.48e-01	0	39	104	0	72	32292
2026-01-01 04:02:19.69	108.82	9.74	-50.6	-69.5	3.8	8.47e-01	0	39	104	0	72	32321
2026-01-01 04:02:20.69	108.66	9.65	-50.7	-69.5	3.8	8.47e-01	0	39	104	0	72	32314
2026-01-01 04:02:21.70	108.51	9.56	-50.6	-69.5	3.8	8.47e-01	0	39	104	0	72	32388
2026-01-01 04:02:22.70	108.35	9.47	-50.7	-69.5	3.8	8.46e-01	0	39	104	0	72	32277
2026-01-01 04:02:23.71	108.20	9.39	-50.7	-69.5	3.8	8.46e-01	0	39	104	0	72	32465
2026-01-01 04:02:24.71	108.05	9.30	-50.7	-69.5	3.8	8.46e-01	0	39	104	0	72	32482
2026-01-01 04:02:25.72	107.90	9.21	-50.7	-69.6	3.8	8.48e-01	0	39	104	0	72	32562
2026-01-01 04:02:26.72	107.75	9.12	-50.7	-69.6	3.8	8.47e-01	0	39	104	0	72	32716
2026-01-01 04:02:27.73	107.60	9.04	-50.7	-69.6	3.8	8.47e-01	0	39	104	0	72	32618
2026-01-01 04:02:28.73	107.45	8.95	-50.7	-69.6	3.8	8.47e-01	0	39	104	0	72	32643
2026-01-01 04:02:29.73	107.31	8.86	-50.7	-69.6	3.8	8.48e-01	0	39	104	0	72	32581
2026-01-01 04:02:30.74	107.16	8.78	-50.8	-69.6	3.8	8.46e-01	0	39	104	0	72	32915
2026-01-01 04:02:31.74	107.02	8.69	-50.8	-69.6	3.8	8.46e-01	0	39	104	0	72	32808
2026-01-01 04:02:32.75	106.87	8.61	-50.8	-69.6	3.8	8.47e-01	0	39	104	0	72	32813
2026-01-01 04:02:33.75	106.73	8.52	-50.8	-69.6	3.8	8.48e-01	0	39	104	0	72	32852
2026-01-01 04:02:34.76	106.59	8.44	-50.8	-69.7	3.8	8.48e-01	0	39	104	0	72	32993
2026-01-01 04:02:35.76	106.45	8.35	-50.8	-69.7	3.8	8.46e-01	0	39	104	0	72	33003
2026-01-01 04:02:36.77	106.32	8.27	-50.8	-69.7	3.8	8.48e-01	0	39	104	0	72	33085
2026-01-01 04:02:37.77	106.18	8.19	-50.9	-69.7	3.8	8.48e-01	0	39	104	0	72	33251
2026-01-01 04:02:38.78	106.04	8.10	-50.9	-69.7	3.8	8.47e-01	0	39	104	0	72	33250
2026-01-01 04:02:39.78	105.91	8.02	-50.9	-69.8	3.8	8.48e-01	0	39	104	0	72	33465
2026-01-01 04:02:40.78	105.78	7.94	-51.0	-69.8	3.8	8.48e-01	0	39	104	0	72	33466
2026-01-01 04:02:41.79	105.64	7.85	-51.0	-69.8	3.8	8.48e-01	0	39	104	0	72	33677
2026-01-01 04:02:42.79	105.51	7.77	-51.0	-69.8	3.8	8.48e-01	0	39	104	0	72	33551
2026-01-01 04:02:43.80	105.38	7.69	-51.0	-69.9	3.8	8.46e-01	0	39	104	0	72	33700
2026-01-01 04:02:44.80	105.25	7.61	-51.1	-69.9	3.8	8.46e-01	0	39	104	0	72	33941
2026-01-01 04:02:45.81	105.12	7.53	-51.1	-69.9	3.8	8.45e-01	0	39	104	0	72	33859
2026-01-01 04:02:46.81	105.00	7.45	-51.1	-70.0	3.8	8.47e-01	0	39	104	0	72	34114
2026-01-01 04:02:47.81	104.87	7.37	-51.2	-70.3	3.8	8.47e-01	0	39	104	0	73	33401
2026-01-01 04:02:48.82	104.74	7.28	-51.3	-70.1	3.8	8.46e-01	0	39	104	0	73	32681
2026-01-01 04:02:49.82	104.62	7.20	-51.3	-70.1	3.8	8.47e-01	0	39	104	0	73	32775
2026-01-01 04:02:50.82	104.50	7.12	-51.3	-70.1	3.8	8.47e-01	0	39	104	0	73	32892
2026-01-01 04:02:51.83	104.37	7.04	-51.4	-70.2	3.8	8.47e-01	0	39	104	0	73	32999
2026-01-01 04:02:52.83	104.25	6.97	-51.4	-70.2	3.8	8.48e-01	0	39	104	0	73	33085
2026-01-01 04:02:53.84	104.13	6.89	-51.4	-70.3	3.8	8.48e-01	0	39	104	0	73	33318
2026-01-01 04:02:54.84	104.01	6.81	-51.4	-70.2	3.8	8.47e-01	0	39	104	0	73	33303
2026-01-01 04:02:55.84	103.89	6.73	-51.4	-70.3	3.8	8.47e-01	0	39	104	0	73	33496
2026-01-01 04:02:56.85	103.77	6.65	-51.5	-70.3	3.8	8.46e-01	0	39	104	0	73	33606
2026-01-01 04:02:57.85	103.66	6.57	-51.5	-70.4	3.8	8.46e-01	0	39	104	0	73	33736
2026-01-01 04:02:58.85	103.54	6.50	-51.5	-70.4	3.8	8.47e-01	0	39	104	0	73	33720
2026-01-01 04:02:59.86	103.43	6.42	-51.6	-70.4	3.8	8.47e-01	0	39	104	0	73	33827
2026-01-01 04:03:00.87	103.31	6.34	-51.6	-70.4	3.8	8.47e-01	0	39	104	0	73	34073
2026-01-01 04:03:01.87	103.20	6.26	-51.6	-70.4	3.8	8.46e-01	0	39	104	0	73	33873
2026-01-01 04:03:02.87	103.09	6.19	-51.6	-70.4	3.8	8.46e-01	0	39	104	0	73	33968
2026-01-01 04:03:03.88	102.97	6.11	-51.6	-70.4	3.8	8.46e-01	0	39	104	0	73	33814
2026-01-01 04:03:04.88	102.86	6.03	-51.6	-70.5	3.8	8.47e-01	0	39	104	0	73	34109
2026-01-01 04:03:05.89	102.75	5.96	-51.6	-70.5	3.8	8.46e-01	0	39	104	0	73	34101
2026-01-01 04:03:06.89	102.64	5.88	-51.6	-70.5	3.8	8.46e-01	0	39	104	0	73	34225
2026-01-01 04:03:07.90	102.53	5.81	-51.6	-70.5	3.8	8.46e-01	0	39	104	0	73	34295
2026-01-01 04:03:08.90	102.43	5.73	-51.7	-70.5	3.8	8.47e-01	0	39	104	0	73	34250
2026-01-01 04:03:09.90	102.32	5.66	-51.7	-70.6	3.8	8.47e-01	0	39	104	0	74	32611
2026-01-01 04:03:10.91	102.21	5.58	-51.7	-70.5	3.8	8.46e-01	0	39	104	0	74	32506
2026-01-01 04:03:11.91	102.11	5.51	-51.8	-70.6	3.8	8.47e-01	0	39	104	0	74	32604
2026-01-01 04:03:12.92	102.00	5.43	-51.7	-70.6	3.8	8.48e-01	0	39	104	0	74	32721
2026-01-01 04:03:13.92	101.90	5.36	-51.7	-70.6	3.8	8.48e-01	0	39	104	0	74	32712
2026-01-01 04:03:14.93	101.79	5.29	-51.7	-70.6	3.8	8.46e-01	0	39	104	0	74	32693
2026-01-01 04:03:15.93	101.69	5.21	-51.7	-70.6	3.8	8.48e-01	0	39	104	0	74	32583
2026-01-01 04:03:16.93	101.59	5.14	-51.7	-70.6	3.8	8.48e-01	0	39	104	0	74	32577
2026-01-01 04:03:17.94	101.49	5.07	-51.7	-70.6	3.8	8.47e-01	0	39	104	0	74	32617
2026-01-01 04:03:18.94	101.39	4.99	-51.8	-70.6	3.8	8.47e-01	0	39	104	0	74	32810
2026-01-01 04:03:19.95	101.29	4.92	-51.8	-70.6	3.8	8.47e-01	0	39	104	0	74	32808

#Closed at: 2026-01-01 04:03:20
#Recorded file [0 MB]: D:/Data/31040_260101_065546.dat