passes_logs/2026/01/01/T1/T1__20260101_093722_AQUA_rec.log

#Pass ID: 20260101_093722_AQUA
#Satellite: AQUA
#Configuration: AQUA
#almurnet v.1.7.20251203
#Start time: 2026-01-01 09:37:22

#Version: 2.0.20230620
#Station: T1
#Location: 37.570604 lon 55.790049 lat
#TLE: 1 27424U 02022A   25364.96158943  .00001951  00000+0  40088-3 0  9998
#TLE: 2 27424  98.4061 326.1389 0001917  95.3187 305.7939 14.61780362258696

#Time	Az	El	Level	Level2	SNR	BER	BlckErr	Temp	State	Recorded	gain1	gain2
2026-01-01 09:37:22.89	89.96	5.02	-54.3	-74.6	3.8	7.46e-01	0	40	0	0	79	39022
2026-01-01 09:37:23.88	89.84	5.07	-54.3	-74.6	3.8	7.46e-01	0	40	104	0	79	38970
2026-01-01 09:37:24.89	89.71	5.13	-54.2	-74.6	3.8	7.44e-01	0	40	104	0	79	38847
2026-01-01 09:37:25.89	89.59	5.18	-54.2	-74.6	3.8	7.46e-01	0	41	104	0	79	38859
2026-01-01 09:37:26.89	89.46	5.23	-54.2	-74.6	3.8	7.49e-01	0	40	104	0	79	38811
2026-01-01 09:37:27.90	89.33	5.28	-54.3	-74.6	3.8	7.48e-01	0	41	104	0	79	38983
2026-01-01 09:37:28.90	89.20	5.33	-54.3	-74.6	3.8	7.44e-01	0	41	104	0	79	39127
2026-01-01 09:37:29.91	89.08	5.39	-54.3	-74.6	3.8	7.47e-01	0	41	104	0	79	38960
2026-01-01 09:37:30.91	88.95	5.44	-54.2	-74.6	3.8	7.45e-01	0	41	104	0	79	39004
2026-01-01 09:37:31.92	88.82	5.49	-54.2	-74.6	3.8	7.44e-01	0	41	104	0	79	38804
2026-01-01 09:37:32.92	88.69	5.54	-54.2	-74.6	3.8	7.46e-01	0	41	104	0	79	38703
2026-01-01 09:37:33.92	88.56	5.59	-54.2	-74.6	3.8	7.47e-01	0	41	104	0	79	38847
2026-01-01 09:37:34.93	88.43	5.64	-54.3	-74.6	3.8	7.44e-01	0	41	104	0	79	38917
2026-01-01 09:37:35.93	88.30	5.70	-54.3	-74.6	3.8	7.46e-01	0	41	104	0	79	39026
2026-01-01 09:37:36.94	88.16	5.75	-54.3	-74.6	3.8	7.43e-01	0	41	104	0	79	39034
2026-01-01 09:37:37.94	88.03	5.80	-54.3	-74.7	3.8	7.45e-01	0	41	104	0	79	39231
2026-01-01 09:37:38.94	87.90	5.85	-54.2	-74.6	3.8	7.47e-01	0	41	104	0	79	39019
2026-01-01 09:37:39.95	87.77	5.90	-54.3	-74.6	3.8	7.45e-01	0	41	104	0	79	39034
2026-01-01 09:37:40.95	87.63	5.96	-54.2	-74.6	3.8	7.47e-01	0	41	104	0	79	38740
2026-01-01 09:37:41.96	87.50	6.01	-54.2	-74.6	3.8	7.48e-01	0	41	104	0	79	38882
2026-01-01 09:37:42.96	87.36	6.06	-54.2	-74.6	3.8	7.41e-01	0	41	104	0	79	39019
2026-01-01 09:37:43.97	87.23	6.11	-54.2	-74.6	3.8	7.46e-01	0	41	104	0	79	38918
2026-01-01 09:37:44.97	87.09	6.16	-54.2	-74.6	3.8	7.47e-01	0	41	104	0	79	38866
2026-01-01 09:37:45.97	86.96	6.21	-54.2	-74.6	3.8	7.45e-01	0	41	104	0	79	39005
2026-01-01 09:37:46.98	86.82	6.27	-54.2	-74.6	3.8	7.43e-01	0	41	104	0	79	38829
2026-01-01 09:37:47.98	86.68	6.32	-54.2	-74.6	3.8	7.47e-01	0	42	104	0	79	38851
2026-01-01 09:37:48.98	86.54	6.37	-54.2	-74.6	3.8	7.47e-01	0	41	104	0	79	38810
2026-01-01 09:37:49.99	86.40	6.42	-54.3	-74.6	3.8	7.46e-01	0	41	104	0	79	39053
2026-01-01 09:37:50.99	86.27	6.47	-54.3	-74.6	3.8	7.44e-01	0	42	104	0	79	38929
2026-01-01 09:37:52.00	86.12	6.52	-54.2	-74.6	3.8	7.47e-01	0	42	104	0	79	38948
2026-01-01 09:37:53.00	85.99	6.57	-54.2	-74.6	3.8	7.47e-01	0	42	104	0	79	38777
2026-01-01 09:37:54.01	85.84	6.63	-54.2	-74.6	3.8	7.44e-01	0	42	104	0	79	38887
2026-01-01 09:37:55.01	85.70	6.68	-54.2	-74.6	3.8	7.43e-01	0	42	104	0	79	38989
2026-01-01 09:37:56.02	85.56	6.73	-54.2	-74.6	3.8	7.48e-01	0	42	104	0	79	38868
2026-01-01 09:37:57.02	85.42	6.78	-54.2	-74.6	3.8	7.45e-01	0	42	104	0	79	38829
2026-01-01 09:37:58.02	85.28	6.83	-54.2	-74.6	3.8	7.50e-01	0	42	104	0	79	38884
2026-01-01 09:37:59.03	85.13	6.88	-54.3	-74.6	3.8	7.43e-01	0	42	104	0	79	38853
2026-01-01 09:38:00.03	84.99	6.93	-54.2	-74.6	3.8	7.49e-01	0	42	104	0	79	38933
2026-01-01 09:38:01.04	84.84	6.98	-54.3	-74.6	3.8	7.44e-01	0	42	104	0	79	39096
2026-01-01 09:38:02.04	84.70	7.04	-54.2	-74.6	3.8	7.44e-01	0	42	104	0	79	38857
2026-01-01 09:38:03.05	84.55	7.09	-54.3	-74.6	3.8	7.44e-01	0	42	104	0	79	39048
2026-01-01 09:38:04.05	84.41	7.14	-54.3	-74.6	3.8	7.45e-01	0	42	104	0	79	39029
2026-01-01 09:38:05.06	84.26	7.19	-54.3	-74.6	3.8	7.46e-01	0	42	104	0	79	39100
2026-01-01 09:38:06.06	84.11	7.24	-54.2	-74.6	3.8	7.48e-01	0	42	104	0	79	38852
2026-01-01 09:38:07.06	83.96	7.29	-54.3	-74.6	3.8	7.44e-01	0	42	104	0	79	39014
2026-01-01 09:38:08.07	83.81	7.34	-54.2	-74.6	3.8	7.46e-01	0	42	104	0	79	38835
2026-01-01 09:38:09.07	83.66	7.39	-54.2	-74.6	3.8	7.47e-01	0	42	104	0	79	38971
2026-01-01 09:38:10.07	83.52	7.44	-54.2	-74.6	3.8	7.42e-01	0	42	104	0	79	38912
2026-01-01 09:38:11.08	83.36	7.49	-54.2	-74.6	3.8	7.45e-01	0	42	104	0	79	38753
2026-01-01 09:38:12.08	83.21	7.54	-54.2	-74.6	3.8	7.42e-01	0	42	104	0	79	38958
2026-01-01 09:38:13.09	83.06	7.59	-54.3	-74.6	3.8	7.49e-01	0	42	104	0	79	38979
2026-01-01 09:38:14.09	82.91	7.64	-54.2	-74.6	3.8	7.45e-01	0	42	104	0	79	38915
2026-01-01 09:38:15.10	82.76	7.69	-54.3	-74.6	3.8	7.49e-01	0	42	104	0	79	39046
2026-01-01 09:38:16.10	82.60	7.74	-54.2	-74.6	3.8	7.46e-01	0	42	104	0	79	38957
2026-01-01 09:38:17.11	82.45	7.80	-54.2	-74.6	3.8	7.43e-01	0	42	104	0	79	38963
2026-01-01 09:38:18.11	82.30	7.85	-54.2	-74.6	3.8	7.47e-01	0	42	104	0	79	38918
2026-01-01 09:38:19.11	82.14	7.89	-54.2	-74.6	3.8	7.46e-01	0	42	104	0	79	38857
2026-01-01 09:38:20.12	81.98	7.95	-54.2	-74.6	3.8	7.46e-01	0	42	104	0	79	38851
2026-01-01 09:38:21.12	81.83	7.99	-54.2	-74.6	3.8	7.49e-01	0	42	104	0	79	38839
2026-01-01 09:38:22.13	81.67	8.04	-54.2	-74.6	3.8	7.47e-01	0	42	104	0	79	38809
2026-01-01 09:38:23.13	81.51	8.09	-54.2	-74.6	3.8	7.46e-01	0	42	104	0	79	38913
2026-01-01 09:38:24.13	81.36	8.14	-54.3	-74.7	3.8	7.43e-01	0	42	104	0	79	39152
2026-01-01 09:38:25.14	81.20	8.19	-54.3	-74.6	3.8	7.49e-01	0	42	104	0	79	39047
2026-01-01 09:38:26.14	81.04	8.24	-54.3	-74.6	3.8	7.47e-01	0	42	104	0	79	38995
2026-01-01 09:38:27.15	80.88	8.29	-54.3	-74.6	3.8	7.46e-01	0	42	104	0	79	39124
2026-01-01 09:38:28.15	80.72	8.34	-54.3	-74.7	3.8	7.44e-01	0	42	104	0	79	39138
2026-01-01 09:38:29.16	80.56	8.39	-54.3	-74.7	3.8	7.47e-01	0	43	104	0	79	39240
2026-01-01 09:38:30.16	80.40	8.44	-54.3	-74.6	3.8	7.49e-01	0	42	104	0	79	38887
2026-01-01 09:38:31.16	80.24	8.49	-54.2	-74.6	3.8	7.44e-01	0	42	104	0	79	38909
2026-01-01 09:38:32.17	80.07	8.54	-54.3	-74.6	3.8	7.44e-01	0	42	104	0	79	38903
2026-01-01 09:38:33.17	79.91	8.59	-54.2	-74.6	3.8	7.45e-01	0	43	104	0	79	38911
2026-01-01 09:38:34.18	79.74	8.64	-54.2	-74.6	3.8	7.46e-01	0	43	104	0	79	38850
2026-01-01 09:38:35.58	79.51	8.70	-54.3	-74.6	3.8	7.50e-01	0	42	104	0	79	39108
2026-01-01 09:38:36.33	79.39	8.74	-54.3	-74.6	3.8	7.44e-01	0	42	104	0	79	39098
2026-01-01 09:38:37.62	79.18	8.80	-54.2	-74.6	3.8	7.46e-01	0	42	104	0	79	39048
2026-01-01 09:38:38.34	79.06	8.84	-54.3	-74.6	3.8	7.46e-01	0	42	104	0	79	39064
2026-01-01 09:38:39.63	78.84	8.90	-54.2	-74.6	3.8	7.46e-01	0	42	104	0	79	38901
2026-01-01 09:38:40.34	78.73	8.93	-54.3	-74.6	3.8	7.44e-01	0	42	104	0	79	38997
2026-01-01 09:38:41.64	78.51	8.99	-54.2	-74.6	3.8	7.47e-01	0	42	104	0	79	38844
2026-01-01 09:38:42.35	78.39	9.03	-54.2	-74.6	3.8	7.44e-01	0	42	104	0	79	38941
2026-01-01 09:38:43.68	78.16	9.09	-54.2	-74.6	3.8	7.44e-01	0	43	104	0	79	38891
2026-01-01 09:38:44.39	78.04	9.12	-54.3	-74.7	3.8	7.43e-01	0	43	104	0	79	39149
2026-01-01 09:38:45.76	77.81	9.19	-54.3	-74.7	3.8	7.46e-01	0	43	104	0	79	39205
2026-01-01 09:38:46.48	77.69	9.22	-54.3	-74.6	3.8	7.48e-01	0	43	104	0	79	39131
2026-01-01 09:38:47.83	77.46	9.29	-54.3	-74.6	3.8	7.47e-01	0	43	104	0	79	39086
2026-01-01 09:38:48.55	77.33	9.32	-54.3	-74.7	3.8	7.48e-01	0	43	104	0	79	39220
2026-01-01 09:38:49.91	77.10	9.38	-54.3	-74.6	3.8	7.46e-01	0	43	104	0	79	39122
2026-01-01 09:38:50.63	76.97	9.42	-54.3	-74.6	3.8	7.47e-01	0	43	104	0	79	38974
2026-01-01 09:38:51.92	76.75	9.48	-54.2	-74.6	3.8	7.45e-01	0	43	104	0	79	38854
2026-01-01 09:38:52.63	76.62	9.51	-54.3	-74.6	3.8	7.47e-01	0	43	104	0	79	39112
2026-01-01 09:38:53.92	76.40	9.57	-54.3	-74.6	3.8	7.46e-01	0	43	104	0	79	38901
2026-01-01 09:38:54.64	76.27	9.60	-54.3	-74.6	3.8	7.46e-01	0	43	104	0	79	38990
2026-01-01 09:38:55.93	76.05	9.66	-54.3	-74.6	3.8	7.44e-01	0	43	104	0	79	39019
2026-01-01 09:38:56.65	75.92	9.69	-54.3	-74.6	3.8	7.50e-01	0	43	104	0	79	39103
2026-01-01 09:38:57.94	75.69	9.75	-54.3	-74.7	3.8	7.45e-01	0	43	104	0	79	39246
2026-01-01 09:38:58.66	75.56	9.78	-54.3	-74.6	3.8	7.44e-01	0	43	104	0	79	39093
2026-01-01 09:38:59.95	75.33	9.84	-54.3	-74.6	3.8	7.45e-01	0	43	104	0	79	39106
2026-01-01 09:39:00.66	75.20	9.88	-54.3	-74.6	3.8	7.50e-01	0	43	104	0	79	39069
2026-01-01 09:39:01.96	74.97	9.93	-54.3	-74.6	3.8	7.43e-01	0	43	104	0	79	39056
2026-01-01 09:39:02.67	74.84	9.97	-54.3	-74.6	3.8	7.50e-01	0	43	104	0	79	38850
2026-01-01 09:39:03.96	74.61	10.02	-54.3	-74.6	3.8	7.48e-01	0	43	104	0	79	39083
2026-01-01 09:39:04.68	74.48	10.05	-54.3	-74.6	3.8	7.46e-01	0	43	104	0	79	39085
2026-01-01 09:39:05.97	74.24	10.11	-54.3	-74.7	3.8	7.45e-01	0	43	104	0	79	39293
2026-01-01 09:39:06.69	74.11	10.14	-54.3	-74.6	3.8	7.48e-01	0	43	104	0	79	39095
2026-01-01 09:39:07.98	73.87	10.20	-54.3	-74.6	3.8	7.46e-01	0	43	104	0	79	39106
2026-01-01 09:39:08.70	73.74	10.23	-54.3	-74.6	3.8	7.47e-01	0	43	104	0	79	38972
2026-01-01 09:39:09.99	73.50	10.29	-54.3	-74.6	3.8	7.44e-01	0	43	104	0	79	38925
2026-01-01 09:39:10.71	73.37	10.32	-54.3	-74.6	3.8	7.42e-01	0	43	104	0	79	38933
2026-01-01 09:39:12.00	73.13	10.37	-54.3	-74.7	3.8	7.47e-01	0	43	104	0	79	39155
2026-01-01 09:39:12.72	73.00	10.40	-54.3	-74.6	3.8	7.44e-01	0	43	104	0	79	39031
2026-01-01 09:39:14.01	72.75	10.46	-54.3	-74.7	3.8	7.46e-01	0	43	104	0	79	39248
2026-01-01 09:39:14.73	72.62	10.49	-54.3	-74.6	3.8	7.47e-01	0	43	104	0	79	38910
2026-01-01 09:39:16.02	72.38	10.54	-54.3	-74.6	3.8	7.45e-01	0	43	104	0	79	38998
2026-01-01 09:39:16.73	72.24	10.57	-54.3	-74.6	3.8	7.45e-01	0	43	104	0	79	38942
2026-01-01 09:39:18.02	72.00	10.63	-54.3	-74.6	3.8	7.46e-01	0	43	104	0	79	39064
2026-01-01 09:39:18.74	71.86	10.66	-54.3	-74.6	3.8	7.45e-01	0	43	104	0	79	38973
2026-01-01 09:39:20.03	71.62	10.71	-54.3	-74.6	3.8	7.48e-01	0	43	104	0	79	38977
2026-01-01 09:39:20.75	71.48	10.74	-54.2	-74.6	3.8	7.47e-01	0	43	104	0	79	38933
2026-01-01 09:39:22.04	71.23	10.79	-54.2	-74.6	3.8	7.50e-01	0	43	104	0	79	38852
2026-01-01 09:39:22.76	71.09	10.82	-54.3	-74.6	3.8	7.48e-01	0	43	104	0	79	39047
2026-01-01 09:39:24.05	70.84	10.88	-54.3	-74.6	3.8	7.43e-01	0	43	104	0	79	38950
2026-01-01 09:39:24.77	70.70	10.91	-54.2	-74.6	3.8	7.45e-01	0	43	104	0	79	38939
2026-01-01 09:39:26.06	70.45	10.96	-54.3	-74.6	3.8	7.46e-01	0	43	104	0	79	39028
2026-01-01 09:39:26.78	70.31	10.99	-54.2	-74.6	3.8	7.47e-01	0	43	104	0	79	38924
2026-01-01 09:39:28.07	70.06	11.04	-54.3	-74.7	3.8	7.44e-01	0	43	104	0	79	39280
2026-01-01 09:39:28.79	69.92	11.07	-54.3	-74.7	3.8	7.45e-01	0	43	104	0	79	39285
2026-01-01 09:39:30.08	69.67	11.12	-54.3	-74.6	3.8	7.46e-01	0	43	104	0	79	39074
2026-01-01 09:39:30.79	69.53	11.14	-54.3	-74.6	3.8	7.47e-01	0	43	104	0	79	39102
2026-01-01 09:39:32.09	69.27	11.19	-54.3	-74.6	3.8	7.47e-01	0	43	104	0	79	39097
2026-01-01 09:39:32.81	69.13	11.22	-54.3	-74.6	3.8	7.48e-01	0	43	104	0	79	39000
2026-01-01 09:39:34.09	68.87	11.27	-54.3	-74.6	3.8	7.46e-01	0	43	104	0	79	38968
2026-01-01 09:39:34.81	68.73	11.30	-54.3	-74.6	3.8	7.48e-01	0	43	104	0	79	38924
2026-01-01 09:39:36.10	68.47	11.35	-54.3	-74.6	3.8	7.48e-01	0	43	104	0	79	39037
2026-01-01 09:39:36.82	68.33	11.37	-54.3	-74.6	3.8	7.48e-01	0	43	104	0	79	38925
2026-01-01 09:39:38.11	68.07	11.42	-54.2	-74.6	3.8	7.48e-01	0	43	104	0	79	38904
2026-01-01 09:39:38.83	67.92	11.45	-54.3	-74.6	3.8	7.44e-01	0	43	104	0	79	38945
2026-01-01 09:39:40.12	67.66	11.50	-54.3	-74.6	3.8	7.46e-01	0	43	104	0	79	38980
2026-01-01 09:39:40.84	67.52	11.52	-54.3	-74.6	3.8	7.48e-01	0	43	104	0	79	39103
2026-01-01 09:39:42.13	67.26	11.57	-54.3	-74.6	3.8	7.45e-01	0	43	104	0	79	39116
2026-01-01 09:39:42.85	67.11	11.60	-54.3	-74.7	3.8	7.47e-01	0	43	104	0	79	39235
2026-01-01 09:39:44.14	66.85	11.64	-54.3	-74.6	3.8	7.48e-01	0	43	104	0	79	39127
2026-01-01 09:39:44.86	66.70	11.67	-54.3	-74.7	3.8	7.47e-01	0	43	104	0	79	39197
2026-01-01 09:39:46.15	66.43	11.71	-54.3	-74.6	3.8	7.42e-01	0	43	104	0	79	39104
2026-01-01 09:39:46.87	66.29	11.74	-54.3	-74.6	3.8	7.49e-01	0	43	104	0	79	38934
2026-01-01 09:39:48.15	66.02	11.78	-54.3	-74.6	3.8	7.43e-01	0	43	104	0	79	39116
2026-01-01 09:39:48.87	65.87	11.81	-54.3	-74.7	3.8	7.43e-01	0	43	104	0	79	39220
2026-01-01 09:39:50.16	65.61	11.85	-54.3	-74.6	3.8	7.47e-01	0	43	104	0	79	38967
2026-01-01 09:39:50.88	65.46	11.87	-54.3	-74.6	3.8	7.47e-01	0	43	104	0	79	38905
2026-01-01 09:39:52.17	65.19	11.92	-54.3	-74.6	3.8	7.46e-01	0	43	104	0	79	38995
2026-01-01 09:39:52.88	65.04	11.94	-54.3	-74.6	3.8	7.48e-01	0	43	104	0	79	39047
2026-01-01 09:39:54.17	64.77	11.98	-54.3	-74.6	3.8	7.44e-01	0	43	104	0	79	38845
2026-01-01 09:39:55.24	64.54	12.02	-54.3	-74.6	3.8	7.46e-01	0	43	104	0	79	38957
2026-01-01 09:39:56.42	64.30	12.05	-54.3	-74.6	3.8	7.47e-01	0	43	104	0	79	38978
2026-01-01 09:39:57.45	64.08	12.09	-54.3	-74.6	3.8	7.48e-01	0	43	104	0	79	39029
2026-01-01 09:39:58.45	63.87	12.12	-54.3	-74.6	3.8	7.45e-01	0	43	104	0	79	38952
2026-01-01 09:39:59.45	63.65	12.15	-54.3	-74.7	3.8	7.47e-01	0	43	104	0	79	39207
2026-01-01 09:40:00.45	63.44	12.18	-54.3	-74.6	3.8	7.47e-01	0	43	104	0	79	39120
2026-01-01 09:40:01.46	63.23	12.21	-54.3	-74.7	3.8	7.45e-01	0	43	104	0	79	39156
2026-01-01 09:40:02.47	63.01	12.24	-54.3	-74.6	3.8	7.44e-01	0	43	104	0	79	38904
2026-01-01 09:40:03.47	62.80	12.27	-54.3	-74.7	3.8	7.45e-01	0	43	104	0	79	39237
2026-01-01 09:40:04.47	62.58	12.30	-54.3	-74.7	3.8	7.46e-01	0	43	104	0	79	39336
2026-01-01 09:40:05.48	62.37	12.33	-54.3	-74.7	3.8	7.47e-01	0	43	104	0	79	39168
2026-01-01 09:40:06.48	62.15	12.36	-54.3	-74.7	3.8	7.46e-01	0	43	104	0	79	39173
2026-01-01 09:40:07.48	61.93	12.39	-54.3	-74.7	3.8	7.42e-01	0	43	104	0	79	39235
2026-01-01 09:40:08.49	61.72	12.42	-54.3	-74.6	3.8	7.48e-01	0	43	104	0	79	39124
2026-01-01 09:40:09.50	61.50	12.44	-54.3	-74.7	3.8	7.47e-01	0	43	104	0	79	39227
2026-01-01 09:40:10.54	61.27	12.47	-54.3	-74.7	3.8	7.46e-01	0	43	104	0	79	39220
2026-01-01 09:40:11.57	61.05	12.50	-54.3	-74.7	3.8	7.48e-01	0	43	104	0	79	39236
2026-01-01 09:40:12.60	60.82	12.53	-54.3	-74.7	3.8	7.46e-01	0	43	104	0	79	39392
2026-01-01 09:40:13.63	60.60	12.55	-54.3	-74.7	3.8	7.43e-01	0	43	104	0	79	39186
2026-01-01 09:40:14.63	60.38	12.58	-54.3	-74.7	3.8	7.44e-01	0	43	104	0	79	39245
2026-01-01 09:40:15.63	60.16	12.61	-54.3	-74.7	3.8	7.48e-01	0	43	104	0	79	39194
2026-01-01 09:40:16.64	59.94	12.63	-54.3	-74.6	3.8	7.42e-01	0	43	104	0	79	39106
2026-01-01 09:40:17.64	59.72	12.66	-54.3	-74.6	3.8	7.44e-01	0	43	104	0	79	38889
2026-01-01 09:40:18.64	59.50	12.68	-54.3	-74.7	3.8	7.44e-01	0	43	104	0	79	39156
2026-01-01 09:40:19.65	59.27	12.71	-54.3	-74.7	3.8	7.41e-01	0	43	104	0	79	39337
2026-01-01 09:40:20.65	59.05	12.73	-54.3	-74.6	3.8	7.46e-01	0	43	104	0	79	39123
2026-01-01 09:40:21.66	58.83	12.75	-54.3	-74.6	3.8	7.45e-01	0	43	104	0	79	39003
2026-01-01 09:40:22.66	58.61	12.78	-54.3	-74.6	3.8	7.44e-01	0	43	104	0	79	39124
2026-01-01 09:40:23.67	58.38	12.80	-54.3	-74.6	3.8	7.46e-01	0	43	104	0	79	39127
2026-01-01 09:40:24.67	58.16	12.82	-54.3	-74.6	3.8	7.46e-01	0	43	104	0	79	39118
2026-01-01 09:40:25.67	57.94	12.84	-54.3	-74.7	3.8	7.44e-01	0	43	104	0	79	39295
2026-01-01 09:40:26.68	57.71	12.86	-54.3	-74.6	3.8	7.46e-01	0	43	104	0	79	39112
2026-01-01 09:40:27.68	57.49	12.89	-54.3	-74.7	3.8	7.47e-01	0	43	104	0	79	39302
2026-01-01 09:40:28.69	57.26	12.91	-54.3	-74.7	3.8	7.43e-01	0	43	104	0	79	39200
2026-01-01 09:40:29.69	57.04	12.93	-54.3	-74.6	3.8	7.44e-01	0	43	104	0	79	39130
2026-01-01 09:40:30.69	56.81	12.95	-54.3	-74.6	3.8	7.43e-01	0	43	104	0	79	38982
2026-01-01 09:40:31.70	56.58	12.97	-54.3	-74.7	3.8	7.46e-01	0	43	104	0	79	39202
2026-01-01 09:40:32.70	56.36	12.99	-54.3	-74.6	3.8	7.45e-01	0	43	104	0	79	38969
2026-01-01 09:40:33.71	56.13	13.00	-54.3	-74.6	3.8	7.46e-01	0	43	104	0	79	38970
2026-01-01 09:40:34.71	55.90	13.02	-54.3	-74.6	3.8	7.42e-01	0	43	104	0	79	38927
2026-01-01 09:40:35.72	55.68	13.04	-54.3	-74.6	3.8	7.45e-01	0	43	104	0	79	39032
2026-01-01 09:40:36.72	55.45	13.06	-54.3	-74.6	3.8	7.47e-01	0	43	104	0	79	38948
2026-01-01 09:40:37.73	55.22	13.08	-54.3	-74.6	3.8	7.47e-01	0	43	104	0	79	39010
2026-01-01 09:40:38.73	54.99	13.09	-54.4	-74.7	3.8	7.46e-01	0	43	104	0	79	39375
2026-01-01 09:40:39.73	54.76	13.11	-54.3	-74.6	3.8	7.48e-01	0	43	104	0	79	39131
2026-01-01 09:40:40.73	54.54	13.12	-54.3	-74.7	3.8	7.44e-01	0	43	104	0	79	39277
2026-01-01 09:40:41.74	54.31	13.14	-54.3	-74.7	3.8	7.47e-01	0	43	104	0	79	39283
2026-01-01 09:40:42.74	54.08	13.16	-54.3	-74.7	3.8	7.45e-01	0	43	104	0	79	39213
2026-01-01 09:40:43.75	53.85	13.17	-54.3	-74.7	3.8	7.45e-01	0	43	104	0	79	39193
2026-01-01 09:40:44.75	53.62	13.18	-54.3	-74.7	3.8	7.47e-01	0	43	104	0	79	39179
2026-01-01 09:40:45.75	53.39	13.20	-54.3	-74.6	3.8	7.50e-01	0	43	104	0	79	38980
2026-01-01 09:40:46.76	53.16	13.21	-54.3	-74.6	3.8	7.45e-01	0	43	104	0	79	38950
2026-01-01 09:40:47.76	52.93	13.22	-54.3	-74.6	3.8	7.42e-01	0	43	104	0	79	39021
2026-01-01 09:40:48.76	52.70	13.24	-54.3	-74.6	3.8	7.44e-01	0	43	104	0	79	39022
2026-01-01 09:40:49.76	52.47	13.25	-54.3	-74.6	3.8	7.44e-01	0	43	104	0	79	39049
2026-01-01 09:40:50.77	52.24	13.26	-54.3	-74.6	3.8	7.46e-01	0	43	104	0	79	39016
2026-01-01 09:40:51.77	52.01	13.27	-54.3	-74.6	3.8	7.46e-01	0	43	104	0	79	39031
2026-01-01 09:40:52.78	51.77	13.28	-54.3	-74.6	3.8	7.44e-01	0	43	104	0	79	38968
2026-01-01 09:40:53.78	51.54	13.29	-54.3	-74.6	3.8	7.44e-01	0	44	104	0	79	39056
2026-01-01 09:40:54.79	51.31	13.30	-54.3	-74.6	3.8	7.47e-01	0	43	104	0	79	38999
2026-01-01 09:40:55.79	51.08	13.31	-54.3	-74.6	3.8	7.47e-01	0	43	104	0	79	38949
2026-01-01 09:40:56.80	50.85	13.32	-54.3	-74.6	3.8	7.47e-01	0	43	104	0	79	39038
2026-01-01 09:40:57.80	50.61	13.33	-54.2	-74.6	3.8	7.47e-01	0	43	104	0	79	38895
2026-01-01 09:40:58.80	50.38	13.34	-54.3	-74.7	3.8	7.47e-01	0	43	104	0	79	39268
2026-01-01 09:40:59.81	50.15	13.35	-54.3	-74.6	3.8	7.44e-01	0	43	104	0	79	39129
2026-01-01 09:41:00.81	49.92	13.36	-54.3	-74.6	3.8	7.45e-01	0	43	104	0	79	39106
2026-01-01 09:41:01.82	49.68	13.36	-54.3	-74.6	3.8	7.46e-01	0	43	104	0	79	39132
2026-01-01 09:41:02.82	49.45	13.37	-54.3	-74.6	3.8	7.49e-01	0	43	104	0	79	38986
2026-01-01 09:41:03.82	49.22	13.37	-54.3	-74.6	3.8	7.46e-01	0	43	104	0	79	39112
2026-01-01 09:41:04.83	48.99	13.38	-54.3	-74.6	3.8	7.47e-01	0	43	104	0	79	38966
2026-01-01 09:41:05.83	48.75	13.39	-54.3	-74.7	3.8	7.45e-01	0	43	104	0	79	39147
2026-01-01 09:41:06.84	48.52	13.39	-54.3	-74.6	3.8	7.48e-01	0	43	104	0	79	39067
2026-01-01 09:41:07.84	48.29	13.39	-54.2	-74.6	3.8	7.46e-01	0	43	104	0	79	38897
2026-01-01 09:41:08.84	48.05	13.40	-54.3	-74.6	3.8	7.46e-01	0	43	104	0	79	38966
2026-01-01 09:41:09.84	47.82	13.40	-54.3	-74.6	3.8	7.45e-01	0	43	104	0	79	39012
2026-01-01 09:41:10.85	47.59	13.41	-54.3	-74.7	3.8	7.45e-01	0	43	104	0	79	39197
2026-01-01 09:41:11.85	47.35	13.41	-54.3	-74.7	3.8	7.44e-01	0	43	104	0	79	39337
2026-01-01 09:41:12.86	47.12	13.41	-54.3	-74.6	3.8	7.43e-01	0	43	104	0	79	39115
2026-01-01 09:41:13.86	46.89	13.41	-54.3	-74.6	3.8	7.47e-01	0	43	104	0	79	39105
2026-01-01 09:41:14.87	46.65	13.41	-54.3	-74.7	3.8	7.45e-01	0	43	104	0	79	39168
2026-01-01 09:41:15.87	46.42	13.41	-54.3	-74.7	3.8	7.46e-01	0	43	104	0	79	39255
2026-01-01 09:41:16.87	46.19	13.41	-54.3	-74.6	3.8	7.45e-01	0	43	104	0	79	39048
2026-01-01 09:41:17.88	45.95	13.41	-54.3	-74.6	3.8	7.42e-01	0	43	104	0	79	39128
2026-01-01 09:41:18.88	45.72	13.41	-54.3	-74.6	3.8	7.45e-01	0	43	104	0	79	39025
2026-01-01 09:41:19.88	45.49	13.41	-54.3	-74.6	3.8	7.48e-01	0	43	104	0	79	38938
2026-01-01 09:41:20.89	45.25	13.41	-54.3	-74.6	3.8	7.44e-01	0	43	104	0	79	39054
2026-01-01 09:41:21.89	45.02	13.41	-54.3	-74.6	3.8	7.43e-01	0	43	104	0	79	38972
2026-01-01 09:41:22.90	44.78	13.41	-54.3	-74.7	3.8	7.47e-01	0	43	104	0	79	39203
2026-01-01 09:41:23.90	44.55	13.40	-54.3	-74.7	3.8	7.47e-01	0	43	104	0	79	39137
2026-01-01 09:41:24.91	44.32	13.40	-54.3	-74.7	3.8	7.46e-01	0	43	104	0	79	39195
2026-01-01 09:41:25.91	44.09	13.40	-54.3	-74.6	3.8	7.45e-01	0	43	104	0	79	39080
2026-01-01 09:41:26.92	43.85	13.39	-54.3	-74.6	3.8	7.51e-01	0	43	104	0	79	38969
2026-01-01 09:41:27.92	43.62	13.39	-54.3	-74.6	3.8	7.47e-01	0	43	104	0	79	39100
2026-01-01 09:41:28.92	43.39	13.38	-54.3	-74.6	3.8	7.47e-01	0	43	104	0	79	38990
2026-01-01 09:41:29.93	43.15	13.38	-54.3	-74.6	3.8	7.47e-01	0	43	104	0	79	38927
2026-01-01 09:41:30.93	42.92	13.37	-54.3	-74.6	3.8	7.44e-01	0	43	104	0	79	38903
2026-01-01 09:41:31.94	42.69	13.37	-54.3	-74.7	3.8	7.46e-01	0	43	104	0	79	39181
2026-01-01 09:41:32.94	42.45	13.36	-54.3	-74.6	3.8	7.46e-01	0	43	104	0	79	39018
2026-01-01 09:41:33.94	42.22	13.35	-54.3	-74.7	3.8	7.47e-01	0	43	104	0	79	39206
2026-01-01 09:41:34.95	41.99	13.35	-54.3	-74.6	3.8	7.49e-01	0	44	104	0	79	39093
2026-01-01 09:41:35.96	41.76	13.34	-54.3	-74.6	3.8	7.48e-01	0	43	104	0	79	38954
2026-01-01 09:41:36.96	41.52	13.33	-54.2	-74.6	3.8	7.48e-01	0	43	104	0	79	38907
2026-01-01 09:41:37.96	41.29	13.32	-54.3	-74.6	3.8	7.46e-01	0	43	104	0	79	39041
2026-01-01 09:41:38.97	41.06	13.31	-54.3	-74.7	3.8	7.50e-01	0	43	104	0	79	39202
2026-01-01 09:41:39.97	40.83	13.30	-54.3	-74.7	3.8	7.48e-01	0	43	104	0	79	39144
2026-01-01 09:41:40.98	40.60	13.29	-54.3	-74.6	3.8	7.49e-01	0	43	104	0	79	39081
2026-01-01 09:41:41.98	40.37	13.28	-54.3	-74.7	3.8	7.47e-01	0	43	104	0	79	39165
2026-01-01 09:41:42.98	40.14	13.27	-54.3	-74.6	3.8	7.46e-01	0	43	104	0	79	39037
2026-01-01 09:41:43.99	39.90	13.26	-54.2	-74.6	3.8	7.48e-01	0	44	104	0	79	38841
2026-01-01 09:41:44.99	39.67	13.25	-54.2	-74.6	3.8	7.47e-01	0	43	104	0	79	38896
2026-01-01 09:41:46.00	39.44	13.23	-54.3	-74.6	3.8	7.47e-01	0	43	104	0	79	39062
2026-01-01 09:41:47.00	39.21	13.22	-54.3	-74.6	3.8	7.46e-01	0	43	104	0	79	38990
2026-01-01 09:41:48.01	38.98	13.21	-54.3	-74.6	3.8	7.45e-01	0	44	104	0	79	39105
2026-01-01 09:41:49.01	38.75	13.19	-54.3	-74.6	3.8	7.48e-01	0	44	104	0	79	39000
2026-01-01 09:41:50.02	38.52	13.18	-54.3	-74.6	3.8	7.47e-01	0	43	104	0	79	39023
2026-01-01 09:41:51.02	38.29	13.17	-54.2	-74.6	3.8	7.47e-01	0	44	104	0	79	39074
2026-01-01 09:41:52.02	38.07	13.15	-54.3	-74.6	3.8	7.46e-01	0	44	104	0	79	39094
2026-01-01 09:41:53.03	37.84	13.13	-54.3	-74.7	3.8	7.48e-01	0	43	104	0	79	39222
2026-01-01 09:41:54.03	37.61	13.12	-54.3	-74.7	3.8	7.49e-01	0	43	104	0	79	39144
2026-01-01 09:41:55.04	37.38	13.10	-54.3	-74.6	3.8	7.46e-01	0	44	104	0	79	38943
2026-01-01 09:41:56.04	37.15	13.09	-54.3	-74.6	3.8	7.45e-01	0	44	104	0	79	39077
2026-01-01 09:41:57.05	36.92	13.07	-54.3	-74.7	3.8	7.46e-01	0	44	104	0	79	39256
2026-01-01 09:41:58.05	36.70	13.05	-54.3	-74.7	3.8	7.47e-01	0	43	104	0	79	39196
2026-01-01 09:41:59.06	36.47	13.03	-54.3	-74.6	3.8	7.48e-01	0	43	104	0	79	39067
2026-01-01 09:42:00.06	36.24	13.02	-54.3	-74.7	3.8	7.43e-01	0	43	104	0	79	39356
2026-01-01 09:42:01.06	36.02	13.00	-54.3	-74.7	3.8	7.45e-01	0	43	104	0	79	39149
2026-01-01 09:42:02.07	35.79	12.98	-54.3	-74.6	3.8	7.50e-01	0	43	104	0	79	39096
2026-01-01 09:42:03.07	35.56	12.96	-54.3	-74.7	3.8	7.46e-01	0	43	104	0	79	39173
2026-01-01 09:42:04.08	35.34	12.94	-54.3	-74.7	3.8	7.46e-01	0	43	104	0	79	39216
2026-01-01 09:42:05.08	35.11	12.92	-54.3	-74.6	3.8	7.44e-01	0	43	104	0	79	38852
2026-01-01 09:42:06.09	34.89	12.90	-54.3	-74.6	3.8	7.45e-01	0	43	104	0	79	38995
2026-01-01 09:42:07.09	34.66	12.88	-54.2	-74.6	3.8	7.45e-01	0	44	104	0	79	38917
2026-01-01 09:42:08.09	34.44	12.86	-54.3	-74.7	3.8	7.48e-01	0	43	104	0	79	39486
2026-01-01 09:42:09.10	34.21	12.84	-54.3	-74.6	3.8	7.49e-01	0	43	104	0	79	39094
2026-01-01 09:42:10.10	33.99	12.81	-54.3	-74.6	3.8	7.47e-01	0	43	104	0	79	39027
2026-01-01 09:42:11.11	33.77	12.79	-54.3	-74.6	3.8	7.48e-01	0	43	104	0	79	39080
2026-01-01 09:42:12.11	33.55	12.77	-54.3	-74.7	3.8	7.46e-01	0	43	104	0	79	39186
2026-01-01 09:42:13.12	33.32	12.75	-54.3	-74.6	3.8	7.44e-01	0	43	104	0	79	39063
2026-01-01 09:42:14.12	33.10	12.72	-54.3	-74.6	3.8	7.46e-01	0	43	104	0	79	38965
2026-01-01 09:42:15.12	32.88	12.70	-54.3	-74.6	3.8	7.44e-01	0	43	104	0	79	38947
2026-01-01 09:42:16.13	32.66	12.67	-54.3	-74.6	3.8	7.42e-01	0	43	104	0	79	39092
2026-01-01 09:42:17.13	32.44	12.65	-54.2	-74.6	3.8	7.45e-01	0	44	104	0	79	38951
2026-01-01 09:42:18.13	32.22	12.62	-54.3	-74.6	3.8	7.46e-01	0	43	104	0	79	38936
2026-01-01 09:42:19.14	32.00	12.60	-54.3	-74.6	3.8	7.49e-01	0	43	104	0	79	39024
2026-01-01 09:42:20.14	31.78	12.57	-54.3	-74.7	3.8	7.46e-01	0	44	104	0	79	39155
2026-01-01 09:42:21.15	31.56	12.55	-54.3	-74.7	3.8	7.45e-01	0	44	104	0	79	39232
2026-01-01 09:42:22.15	31.34	12.52	-54.3	-74.7	3.8	7.46e-01	0	43	104	0	79	39144
2026-01-01 09:42:23.16	31.12	12.49	-54.3	-74.7	3.8	7.47e-01	0	43	104	0	79	39182
2026-01-01 09:42:24.16	30.90	12.47	-54.3	-74.6	3.8	7.47e-01	0	44	104	0	79	39014
2026-01-01 09:42:25.16	30.69	12.44	-54.2	-74.6	3.8	7.48e-01	0	44	104	0	79	38985
2026-01-01 09:42:26.17	30.47	12.41	-54.2	-74.6	3.8	7.42e-01	0	43	104	0	79	39079
2026-01-01 09:42:27.17	30.25	12.38	-54.2	-74.6	3.8	7.46e-01	0	43	104	0	79	38907
2026-01-01 09:42:28.17	30.04	12.35	-54.2	-74.5	3.8	7.47e-01	0	44	104	0	79	38644
2026-01-01 09:42:29.18	29.82	12.33	-54.2	-74.6	3.8	7.45e-01	0	43	104	0	79	38794
2026-01-01 09:42:30.18	29.61	12.30	-54.2	-74.6	3.8	7.46e-01	0	43	104	0	79	38905
2026-01-01 09:42:31.19	29.39	12.27	-54.3	-74.7	3.8	7.48e-01	0	43	104	0	79	39318
2026-01-01 09:42:32.21	29.17	12.24	-54.3	-74.7	3.8	7.47e-01	0	43	104	0	79	39190
2026-01-01 09:42:33.26	28.95	12.20	-54.3	-74.6	3.8	7.45e-01	0	44	104	0	79	38990
2026-01-01 09:42:34.14	28.76	12.18	-54.3	-74.6	3.8	7.49e-01	0	44	104	0	79	39043
2026-01-01 09:42:35.29	28.52	12.14	-54.2	-74.6	3.8	7.47e-01	0	43	104	0	79	38880
2026-01-01 09:42:36.20	28.33	12.11	-54.3	-74.6	3.8	7.46e-01	0	44	104	0	79	38925
2026-01-01 09:42:37.34	28.09	12.08	-54.3	-74.7	3.8	7.49e-01	0	44	104	0	79	39180
2026-01-01 09:42:38.20	27.91	12.05	-54.2	-74.6	3.8	7.44e-01	0	44	104	0	79	38991
2026-01-01 09:42:39.35	27.67	12.01	-54.2	-74.6	3.8	7.48e-01	0	44	104	0	79	39020
2026-01-01 09:42:40.21	27.49	11.99	-54.2	-74.6	3.8	7.44e-01	0	43	104	0	79	38874
2026-01-01 09:42:41.36	27.25	11.95	-54.2	-74.6	3.8	7.45e-01	0	43	104	0	79	38729
2026-01-01 09:42:42.22	27.07	11.92	-54.3	-74.7	3.8	7.47e-01	0	44	104	0	79	39202
2026-01-01 09:42:43.36	26.83	11.88	-54.2	-74.6	3.8	7.45e-01	0	44	104	0	79	38864
2026-01-01 09:42:44.22	26.65	11.85	-54.2	-74.6	3.8	7.48e-01	0	44	104	0	79	38847
2026-01-01 09:42:45.44	26.40	11.81	-54.2	-74.6	3.8	7.47e-01	0	44	104	0	79	38942
2026-01-01 09:42:46.30	26.22	11.78	-54.2	-74.6	3.8	7.50e-01	0	43	104	0	79	38963
2026-01-01 09:42:47.46	25.98	11.74	-54.2	-74.6	3.8	7.47e-01	0	43	104	0	79	38974
2026-01-01 09:42:48.32	25.81	11.71	-54.2	-74.6	3.8	7.45e-01	0	44	104	0	79	38971
2026-01-01 09:42:49.55	25.56	11.67	-54.2	-74.6	3.8	7.42e-01	0	44	104	0	79	38841
2026-01-01 09:42:50.41	25.38	11.64	-54.2	-74.6	3.8	7.45e-01	0	44	104	0	79	38868
2026-01-01 09:42:51.59	25.14	11.60	-54.2	-74.6	3.8	7.46e-01	0	43	104	0	79	38896
2026-01-01 09:42:52.45	24.97	11.57	-54.2	-74.6	3.8	7.45e-01	0	43	104	0	79	38913
2026-01-01 09:42:53.63	24.73	11.52	-54.3	-74.6	3.8	7.46e-01	0	44	104	0	79	39007
2026-01-01 09:42:54.49	24.55	11.49	-54.2	-74.7	3.8	7.45e-01	0	44	104	0	79	39140
2026-01-01 09:42:55.67	24.32	11.45	-54.2	-74.6	3.8	7.47e-01	0	44	104	0	79	38956
2026-01-01 09:42:56.53	24.14	11.42	-54.3	-74.6	3.8	7.49e-01	0	44	104	0	79	39067
2026-01-01 09:42:57.71	23.91	11.37	-54.3	-74.6	3.8	7.45e-01	0	44	104	0	79	38845
2026-01-01 09:42:58.57	23.74	11.34	-54.2	-74.6	3.8	7.46e-01	0	44	104	0	79	38856
2026-01-01 09:42:59.75	23.50	11.30	-54.2	-74.6	3.8	7.45e-01	0	43	104	0	79	38883
2026-01-01 09:43:00.61	23.33	11.27	-54.3	-74.6	3.8	7.46e-01	0	43	104	0	79	39035
2026-01-01 09:43:01.76	23.10	11.22	-54.3	-74.6	3.8	7.46e-01	0	44	104	0	79	39103
2026-01-01 09:43:02.62	22.93	11.19	-54.3	-74.6	3.8	7.45e-01	0	44	104	0	79	39063
2026-01-01 09:43:03.77	22.71	11.14	-54.2	-74.6	3.8	7.45e-01	0	43	104	0	79	38743
2026-01-01 09:43:04.63	22.54	11.11	-54.2	-74.6	3.8	7.46e-01	0	43	104	0	79	38689
2026-01-01 09:43:05.78	22.32	11.07	-54.2	-74.6	3.8	7.47e-01	0	44	104	0	79	38877
2026-01-01 09:43:06.64	22.15	11.03	-54.3	-74.6	3.8	7.46e-01	0	44	104	0	79	38842
2026-01-01 09:43:07.79	21.92	10.99	-54.2	-74.6	3.8	7.46e-01	0	44	104	0	79	38950
2026-01-01 09:43:08.65	21.76	10.95	-54.2	-74.6	3.8	7.45e-01	0	43	104	0	79	38841
2026-01-01 09:43:09.79	21.54	10.91	-54.3	-74.6	3.8	7.43e-01	0	44	104	0	79	39081
2026-01-01 09:43:10.66	21.37	10.87	-54.3	-74.7	3.8	7.46e-01	0	43	104	0	79	39146
2026-01-01 09:43:11.80	21.15	10.82	-54.3	-74.6	3.8	7.46e-01	0	44	104	0	79	39102
2026-01-01 09:43:12.66	20.99	10.79	-54.3	-74.7	3.8	7.42e-01	0	44	104	0	79	39195
2026-01-01 09:43:13.81	20.77	10.74	-54.2	-74.6	3.8	7.47e-01	0	44	104	0	79	38933
2026-01-01 09:43:14.67	20.60	10.71	-54.2	-74.6	3.8	7.42e-01	0	44	104	0	79	38952
2026-01-01 09:43:15.82	20.39	10.66	-54.2	-74.6	3.8	7.45e-01	0	43	104	0	79	38897
2026-01-01 09:43:16.68	20.22	10.62	-54.2	-74.6	3.8	7.45e-01	0	43	104	0	79	38992
2026-01-01 09:43:17.83	20.01	10.58	-54.2	-74.6	3.8	7.47e-01	0	43	104	0	79	38971
2026-01-01 09:43:18.69	19.84	10.54	-54.2	-74.6	3.8	7.45e-01	0	44	104	0	79	38832
2026-01-01 09:43:19.83	19.63	10.49	-54.2	-74.6	3.8	7.44e-01	0	44	104	0	79	38710
2026-01-01 09:43:20.70	19.47	10.45	-54.3	-74.6	3.8	7.44e-01	0	44	104	0	79	38971
2026-01-01 09:43:21.84	19.26	10.41	-54.3	-74.6	3.8	7.48e-01	0	44	104	0	79	38888
2026-01-01 09:43:22.70	19.10	10.37	-54.3	-74.6	3.8	7.45e-01	0	44	104	0	79	39036
2026-01-01 09:43:23.85	18.88	10.32	-54.3	-74.6	3.8	7.45e-01	0	43	104	0	79	38989
2026-01-01 09:43:24.71	18.73	10.28	-54.2	-74.6	3.8	7.47e-01	0	44	104	0	79	38906
2026-01-01 09:43:25.86	18.52	10.23	-54.2	-74.6	3.8	7.48e-01	0	43	104	0	79	38979
2026-01-01 09:43:26.72	18.36	10.20	-54.2	-74.6	3.8	7.45e-01	0	44	104	0	79	38979
2026-01-01 09:43:27.87	18.15	10.14	-54.2	-74.6	3.8	7.48e-01	0	44	104	0	79	38976
2026-01-01 09:43:28.73	17.99	10.11	-54.2	-74.6	3.8	7.45e-01	0	43	104	0	79	38690
2026-01-01 09:43:29.88	17.78	10.06	-54.2	-74.5	3.8	7.46e-01	0	44	104	0	79	38621
2026-01-01 09:43:30.74	17.63	10.02	-54.2	-74.5	3.8	7.45e-01	0	44	104	0	79	38660
2026-01-01 09:43:31.88	17.42	9.97	-54.3	-74.7	3.8	7.46e-01	0	44	104	0	79	39179
2026-01-01 09:43:32.74	17.27	9.93	-54.3	-74.7	3.8	7.44e-01	0	44	104	0	79	39211
2026-01-01 09:43:33.89	17.06	9.88	-54.3	-74.7	3.8	7.46e-01	0	44	104	0	79	39260
2026-01-01 09:43:34.75	16.91	9.84	-54.3	-74.6	3.8	7.47e-01	0	44	104	0	79	38981
2026-01-01 09:43:35.90	16.71	9.79	-54.3	-74.7	3.8	7.46e-01	0	44	104	0	79	39258
2026-01-01 09:43:36.76	16.55	9.75	-54.3	-74.6	3.8	7.47e-01	0	44	104	0	79	38955
2026-01-01 09:43:37.91	16.35	9.70	-54.3	-74.6	3.8	7.46e-01	0	44	104	0	79	39028
2026-01-01 09:43:38.77	16.20	9.66	-54.3	-74.6	3.8	7.47e-01	0	44	104	0	79	38970
2026-01-01 09:43:39.92	16.00	9.60	-54.3	-74.6	3.8	7.44e-01	0	43	104	0	79	38902
2026-01-01 09:43:40.78	15.85	9.57	-54.2	-74.6	3.8	7.49e-01	0	44	104	0	79	38988
2026-01-01 09:43:41.92	15.65	9.51	-54.2	-74.6	3.8	7.44e-01	0	44	104	0	79	38775
2026-01-01 09:43:42.78	15.50	9.47	-54.3	-74.6	3.8	7.46e-01	0	44	104	0	79	39125
2026-01-01 09:43:43.93	15.30	9.42	-54.3	-74.7	3.8	7.44e-01	0	44	104	0	79	39136
2026-01-01 09:43:44.79	15.15	9.38	-54.3	-74.6	3.8	7.46e-01	0	44	104	0	79	39002
2026-01-01 09:43:45.94	14.96	9.33	-54.3	-74.7	3.8	7.44e-01	0	44	104	0	79	39223
2026-01-01 09:43:46.80	14.81	9.29	-54.3	-74.6	3.8	7.48e-01	0	44	104	0	79	39078
2026-01-01 09:43:47.95	14.61	9.23	-54.3	-74.6	3.8	7.46e-01	0	44	104	0	79	38988
2026-01-01 09:43:48.81	14.47	9.19	-54.2	-74.6	3.8	7.46e-01	0	44	104	0	79	38860
2026-01-01 09:43:49.96	14.27	9.14	-54.2	-74.6	3.8	7.46e-01	0	44	104	0	79	38773
2026-01-01 09:43:50.82	14.13	9.10	-54.3	-74.6	3.8	7.48e-01	0	44	104	0	79	39029
2026-01-01 09:43:51.97	13.94	9.04	-54.2	-74.6	3.8	7.48e-01	0	44	104	0	79	38921
2026-01-01 09:43:52.83	13.79	9.00	-54.2	-74.6	3.8	7.46e-01	0	43	104	0	79	38905
2026-01-01 09:43:53.98	13.60	8.95	-54.3	-74.7	3.8	7.46e-01	0	43	104	0	79	39167
2026-01-01 09:43:54.84	13.46	8.91	-54.3	-74.6	3.8	7.44e-01	0	44	104	0	79	38942
2026-01-01 09:43:55.98	13.27	8.85	-54.2	-74.6	3.8	7.51e-01	0	44	104	0	79	38929
2026-01-01 09:43:56.85	13.12	8.81	-54.3	-74.6	3.8	7.46e-01	0	44	104	0	79	39105
2026-01-01 09:43:57.99	12.94	8.76	-54.3	-74.6	3.8	7.45e-01	0	44	104	0	79	39021
2026-01-01 09:43:58.85	12.80	8.72	-54.2	-74.6	3.8	7.43e-01	0	44	104	0	79	38903
2026-01-01 09:44:00.00	12.61	8.66	-54.2	-74.6	3.8	7.45e-01	0	44	104	0	79	38878
2026-01-01 09:44:00.86	12.47	8.62	-54.3	-74.6	3.8	7.45e-01	0	43	104	0	79	39079
2026-01-01 09:44:02.01	12.28	8.56	-54.2	-74.6	3.8	7.44e-01	0	44	104	0	79	38910
2026-01-01 09:44:02.87	12.14	8.52	-54.2	-74.6	3.8	7.43e-01	0	44	104	0	79	38955
2026-01-01 09:44:04.02	11.96	8.47	-54.3	-74.6	3.8	7.48e-01	0	44	104	0	79	39025
2026-01-01 09:44:04.88	11.82	8.42	-54.2	-74.6	3.8	7.50e-01	0	44	104	0	79	38970
2026-01-01 09:44:06.03	11.64	8.37	-54.2	-74.6	3.8	7.50e-01	0	43	104	0	79	38914
2026-01-01 09:44:06.89	11.50	8.33	-54.2	-74.6	3.8	7.45e-01	0	43	104	0	79	38828
2026-01-01 09:44:08.04	11.32	8.27	-54.3	-74.6	3.8	7.45e-01	0	44	104	0	79	39126
2026-01-01 09:44:08.90	11.18	8.23	-54.2	-74.6	3.8	7.44e-01	0	44	104	0	79	39005
2026-01-01 09:44:10.04	11.01	8.17	-54.3	-74.6	3.8	7.46e-01	0	43	104	0	79	39018
2026-01-01 09:44:10.90	10.87	8.13	-54.2	-74.6	3.8	7.44e-01	0	44	104	0	79	38974
2026-01-01 09:44:12.05	10.69	8.07	-54.2	-74.6	3.8	7.46e-01	0	44	104	0	79	38920
2026-01-01 09:44:12.91	10.56	8.03	-54.2	-74.6	3.8	7.43e-01	0	44	104	0	79	39091
2026-01-01 09:44:14.06	10.38	7.97	-54.2	-74.6	3.8	7.43e-01	0	44	104	0	79	38970
2026-01-01 09:44:14.92	10.25	7.93	-54.2	-74.6	3.8	7.42e-01	0	43	104	0	79	38879
2026-01-01 09:44:16.07	10.07	7.87	-54.2	-74.6	3.8	7.46e-01	0	44	104	0	79	38926
2026-01-01 09:44:16.93	9.94	7.83	-54.2	-74.6	3.8	7.46e-01	0	44	104	0	79	39041
2026-01-01 09:44:18.07	9.77	7.77	-54.3	-74.6	3.8	7.47e-01	0	43	104	0	79	39058
2026-01-01 09:44:18.94	9.63	7.73	-54.2	-74.6	3.8	7.47e-01	0	43	104	0	79	38960
2026-01-01 09:44:20.08	9.46	7.67	-54.2	-74.6	3.8	7.46e-01	0	43	104	0	79	38950
2026-01-01 09:44:20.94	9.33	7.63	-54.2	-74.6	3.8	7.47e-01	0	44	104	0	79	38890
2026-01-01 09:44:22.09	9.16	7.57	-54.2	-74.6	3.8	7.45e-01	0	44	104	0	79	38936
2026-01-01 09:44:22.95	9.03	7.53	-54.2	-74.6	3.8	7.48e-01	0	44	104	0	79	38850
2026-01-01 09:44:24.10	8.86	7.47	-54.2	-74.6	3.8	7.47e-01	0	43	104	0	79	38704
2026-01-01 09:44:24.96	8.73	7.43	-54.2	-74.6	3.8	7.47e-01	0	44	104	0	79	38876
2026-01-01 09:44:26.10	8.56	7.37	-54.3	-74.7	3.8	7.45e-01	0	44	104	0	79	39146
2026-01-01 09:44:26.97	8.44	7.33	-54.2	-74.6	3.8	7.46e-01	0	43	104	0	79	38964
2026-01-01 09:44:28.12	8.27	7.27	-54.2	-74.6	3.8	7.50e-01	0	44	104	0	79	38827
2026-01-01 09:44:28.97	8.14	7.23	-54.2	-74.6	3.8	7.49e-01	0	44	104	0	79	38905
2026-01-01 09:44:30.12	7.97	7.17	-54.2	-74.6	3.8	7.47e-01	0	43	104	0	79	38833
2026-01-01 09:44:30.98	7.85	7.12	-54.2	-74.6	3.8	7.47e-01	0	44	104	0	79	38958
2026-01-01 09:44:32.13	7.68	7.07	-54.3	-74.6	3.8	7.48e-01	0	43	104	0	79	39129
2026-01-01 09:44:32.99	7.56	7.02	-54.2	-74.6	3.8	7.42e-01	0	44	104	0	79	38818
2026-01-01 09:44:34.14	7.40	6.96	-54.2	-74.6	3.8	7.49e-01	0	44	104	0	79	38728
2026-01-01 09:44:35.00	7.27	6.92	-54.2	-74.6	3.8	7.43e-01	0	43	104	0	79	38883
2026-01-01 09:44:36.15	7.11	6.86	-54.2	-74.6	3.8	7.46e-01	0	43	104	0	79	39013
2026-01-01 09:44:37.01	6.99	6.82	-54.3	-74.6	3.8	7.46e-01	0	44	104	0	79	39090
2026-01-01 09:44:38.16	6.83	6.76	-54.3	-74.7	3.8	7.46e-01	0	44	104	0	79	39138
2026-01-01 09:44:39.02	6.70	6.72	-54.2	-74.6	3.8	7.42e-01	0	43	104	0	79	38955
2026-01-01 09:44:40.17	6.54	6.66	-54.2	-74.6	3.8	7.46e-01	0	43	104	0	79	38984
2026-01-01 09:44:41.03	6.42	6.61	-54.2	-74.6	3.8	7.49e-01	0	43	104	0	79	39039
2026-01-01 09:44:42.17	6.27	6.56	-54.2	-74.6	3.8	7.47e-01	0	44	104	0	79	38770
2026-01-01 09:44:43.04	6.15	6.51	-54.2	-74.5	3.8	7.49e-01	0	44	104	0	79	38664
2026-01-01 09:44:44.18	5.99	6.45	-54.2	-74.6	3.8	7.46e-01	0	44	104	0	79	38839
2026-01-01 09:44:45.49	5.81	6.39	-54.2	-74.6	3.8	7.49e-01	0	44	104	0	79	38978
2026-01-01 09:44:46.37	5.69	6.34	-54.2	-74.6	3.8	7.49e-01	0	44	104	0	79	38875
2026-01-01 09:44:47.51	5.53	6.28	-54.2	-74.6	3.8	7.44e-01	0	44	104	0	79	38770
2026-01-01 09:44:48.37	5.42	6.24	-54.2	-74.6	3.8	7.44e-01	0	44	104	0	79	38743
2026-01-01 09:44:49.52	5.26	6.18	-54.2	-74.6	3.8	7.44e-01	0	44	104	0	79	38829
2026-01-01 09:44:50.38	5.15	6.14	-54.2	-74.6	3.8	7.44e-01	0	44	104	0	79	38716
2026-01-01 09:44:51.53	4.99	6.08	-54.2	-74.6	3.8	7.43e-01	0	44	104	0	79	38963
2026-01-01 09:44:52.39	4.88	6.03	-54.2	-74.6	3.8	7.43e-01	0	43	104	0	79	38977
2026-01-01 09:44:53.54	4.73	5.97	-54.2	-74.6	3.8	7.45e-01	0	44	104	0	79	38985
2026-01-01 09:44:54.40	4.61	5.93	-54.2	-74.6	3.8	7.43e-01	0	43	104	0	79	38970
2026-01-01 09:44:55.55	4.46	5.87	-54.2	-74.6	3.8	7.49e-01	0	43	104	0	79	39011
2026-01-01 09:44:56.41	4.35	5.83	-54.2	-74.6	3.8	7.45e-01	0	43	104	0	79	38804
2026-01-01 09:44:57.59	4.19	5.77	-54.2	-74.6	3.8	7.44e-01	0	43	104	0	79	38899
2026-01-01 09:44:58.45	4.08	5.72	-54.2	-74.6	3.8	7.46e-01	0	43	104	0	79	38785
2026-01-01 09:44:59.61	3.93	5.66	-54.2	-74.6	3.8	7.45e-01	0	43	104	0	79	38840
2026-01-01 09:45:00.48	3.82	5.62	-54.2	-74.6	3.8	7.45e-01	0	44	104	0	79	38984
2026-01-01 09:45:01.67	3.67	5.55	-54.2	-74.6	3.8	7.45e-01	0	44	104	0	79	38887
2026-01-01 09:45:02.53	3.56	5.51	-54.2	-74.6	3.8	7.46e-01	0	43	104	0	79	38815
2026-01-01 09:45:03.71	3.40	5.45	-54.2	-74.6	3.8	7.46e-01	0	44	104	0	79	38694
2026-01-01 09:45:04.57	3.30	5.41	-54.2	-74.6	3.8	7.45e-01	0	43	104	0	79	38792
2026-01-01 09:45:05.75	3.15	5.34	-54.3	-74.6	3.8	7.45e-01	0	43	104	0	79	39049
2026-01-01 09:45:06.61	3.04	5.30	-54.3	-74.6	3.8	7.45e-01	0	43	104	0	79	39026
2026-01-01 09:45:07.76	2.89	5.24	-54.3	-74.6	3.8	7.48e-01	0	43	104	0	79	39068
2026-01-01 09:45:08.62	2.79	5.20	-54.2	-74.6	3.8	7.45e-01	0	44	104	0	79	38859
2026-01-01 09:45:09.77	2.64	5.14	-54.2	-74.6	3.8	7.45e-01	0	43	104	0	79	38907
2026-01-01 09:45:10.63	2.54	5.09	-54.2	-74.6	3.8	7.50e-01	0	43	104	0	79	38768
2026-01-01 09:45:11.78	2.39	5.03	-54.2	-74.6	3.8	7.45e-01	0	44	104	0	79	38830
2026-01-01 09:45:12.64	2.29	4.99	-54.2	-74.6	3.8	7.46e-01	0	44	104	0	79	38885

#Closed at: 2026-01-01 09:45:13
#Recorded file [0 MB]: D:/Data/31040_260101_123722.dat