passes_logs/2026/01/01/T1/T1__20260101_223832_SUOMI_NPP_rec.log

#Pass ID: 20260101_223832_SUOMI NPP
#Satellite: SUOMI NPP
#Configuration: NPP
#almurnet v.1.7.20251203
#Start time: 2026-01-01 22:38:33

#Version: 2.0.20230620
#Station: T1
#Location: 37.570604 lon 55.790049 lat
#TLE: 1 37849U 11061A   26001.07732418  .00000182  00000+0  10735-3 0  9990
#TLE: 2 37849  98.7795 303.2470 0002580  87.2016 272.9455 14.19520779734739

#Time	Az	El	Level	Level2	SNR	BER	BlckErr	Temp	State	Recorded	gain1	gain2
2026-01-01 22:38:33.93	25.44	5.12	-49.7	-65.2	3.8	1.49e+00	0	41	0	0	71	20962
2026-01-01 22:38:34.93	25.51	5.18	-49.6	-65.3	3.8	1.49e+00	0	41	104	0	69	23602
2026-01-01 22:38:35.93	25.57	5.25	-49.6	-65.3	3.8	1.49e+00	0	41	104	0	69	23626
2026-01-01 22:38:36.94	25.64	5.31	-49.6	-65.2	3.8	1.49e+00	0	41	104	0	69	23542
2026-01-01 22:38:37.94	25.71	5.38	-49.6	-65.2	3.8	1.49e+00	0	41	104	0	69	23496
2026-01-01 22:38:38.95	25.78	5.44	-49.6	-65.2	3.8	1.49e+00	0	41	104	0	69	23534
2026-01-01 22:38:39.95	25.84	5.51	-49.6	-65.2	3.8	1.49e+00	0	41	104	0	69	23434
2026-01-01 22:38:40.95	25.91	5.57	-49.6	-65.2	3.8	1.49e+00	0	41	104	0	69	23421
2026-01-01 22:38:41.96	25.98	5.64	-49.6	-65.2	3.8	1.49e+00	0	41	104	0	69	23452
2026-01-01 22:38:42.96	26.05	5.71	-49.6	-65.2	3.8	1.49e+00	0	41	104	0	69	23442
2026-01-01 22:38:43.97	26.12	5.77	-49.6	-65.2	3.8	1.49e+00	0	41	104	0	69	23394
2026-01-01 22:38:44.97	26.19	5.84	-49.6	-65.2	3.8	1.49e+00	0	41	104	0	69	23344
2026-01-01 22:38:45.98	26.26	5.90	-49.6	-65.2	3.8	1.49e+00	0	41	104	0	69	23469
2026-01-01 22:38:46.98	26.33	5.97	-49.6	-65.2	3.8	1.49e+00	0	42	104	0	69	23337
2026-01-01 22:38:47.99	26.40	6.04	-49.6	-65.1	3.8	1.49e+00	0	42	104	0	69	23286
2026-01-01 22:38:48.99	26.47	6.10	-49.6	-65.1	3.8	1.49e+00	0	41	104	0	69	23154
2026-01-01 22:38:49.99	26.54	6.17	-49.6	-65.1	3.8	1.49e+00	0	41	104	0	69	23053
2026-01-01 22:38:51.27	26.63	6.25	-49.6	-65.0	3.8	1.49e+00	0	42	104	0	69	22937
2026-01-01 22:38:52.02	26.68	6.30	-49.6	-65.0	3.8	1.49e+00	0	42	104	0	69	22884
2026-01-01 22:38:53.31	26.77	6.39	-49.6	-64.9	3.8	1.49e+00	0	41	104	0	69	22647
2026-01-01 22:38:54.03	26.82	6.44	-49.6	-64.9	3.8	1.49e+00	0	42	104	0	69	22690
2026-01-01 22:38:55.32	26.92	6.53	-49.6	-64.9	3.8	1.49e+00	0	42	104	0	69	22565
2026-01-01 22:38:56.04	26.97	6.57	-49.6	-64.9	3.8	1.49e+00	0	42	104	0	69	22612
2026-01-01 22:38:57.33	27.06	6.66	-49.6	-64.9	3.8	1.49e+00	0	42	104	0	69	22660
2026-01-01 22:38:58.05	27.12	6.71	-49.6	-65.0	3.8	1.49e+00	0	42	104	0	69	22863
2026-01-01 22:38:59.34	27.21	6.80	-49.6	-65.1	3.8	1.49e+00	0	42	104	0	69	23057
2026-01-01 22:39:00.05	27.26	6.85	-49.6	-65.1	3.8	1.49e+00	0	42	104	0	69	23187
2026-01-01 22:39:01.41	27.36	6.94	-49.6	-65.1	3.8	1.49e+00	0	42	104	0	69	23171
2026-01-01 22:39:02.13	27.42	6.99	-49.6	-65.1	3.8	1.49e+00	0	42	104	0	69	23242
2026-01-01 22:39:03.50	27.52	7.08	-49.6	-64.9	3.8	1.49e+00	0	42	104	0	69	22660
2026-01-01 22:39:04.21	27.57	7.13	-49.6	-64.8	3.8	1.49e+00	0	42	104	0	69	22272
2026-01-01 22:39:05.51	27.67	7.22	-49.6	-64.5	3.8	1.49e+00	0	42	104	0	69	21738
2026-01-01 22:39:06.22	27.72	7.27	-49.6	-64.4	3.8	1.49e+00	0	42	104	0	69	21474
2026-01-01 22:39:07.64	27.83	7.36	-49.6	-64.3	3.8	1.49e+00	0	42	104	0	69	21119
2026-01-01 22:39:08.36	27.89	7.41	-49.6	-64.3	3.8	1.49e+00	0	42	104	0	69	21218
2026-01-01 22:39:09.71	27.99	7.51	-49.6	-64.4	3.8	1.49e+00	0	42	104	0	69	21271
2026-01-01 22:39:10.43	28.04	7.56	-49.6	-64.4	3.8	1.49e+00	0	42	104	0	69	21500
2026-01-01 22:39:11.79	28.15	7.65	-49.6	-64.5	3.8	1.49e+00	0	42	104	0	69	21558
2026-01-01 22:39:12.50	28.21	7.70	-49.6	-64.5	3.8	1.49e+00	0	42	104	0	69	21566
2026-01-01 22:39:13.79	28.31	7.79	-49.6	-64.4	3.8	1.49e+00	0	42	104	0	69	21314
2026-01-01 22:39:14.51	28.36	7.84	-49.6	-64.2	3.8	1.49e+00	0	42	104	0	69	20904
2026-01-01 22:39:15.80	28.46	7.93	-49.6	-63.9	3.8	1.49e+00	0	42	104	0	69	20223
2026-01-01 22:39:16.52	28.52	7.98	-49.5	-63.6	3.8	1.49e+00	0	42	104	0	69	19561
2026-01-01 22:39:17.81	28.62	8.07	-49.5	-63.2	3.8	1.49e+00	0	42	104	0	69	18707
2026-01-01 22:39:18.53	28.68	8.12	-49.5	-63.0	3.9	1.49e+00	0	42	104	0	69	18233
2026-01-01 22:39:19.82	28.78	8.21	-49.5	-62.8	3.8	1.49e+00	0	42	104	0	69	17806
2026-01-01 22:39:20.53	28.84	8.27	-49.5	-62.7	4.0	1.47e+00	0	42	104	0	69	17533
2026-01-01 22:39:21.83	28.95	8.36	-49.5	-62.7	4.0	1.48e+00	0	42	104	0	69	17604
2026-01-01 22:39:22.54	29.00	8.41	-49.5	-63.0	3.8	1.48e+00	0	42	104	0	69	18209
2026-01-01 22:39:23.83	29.11	8.50	-49.5	-63.2	3.8	1.49e+00	0	42	104	0	69	18584
2026-01-01 22:39:24.55	29.17	8.55	-49.5	-63.1	3.8	1.49e+00	0	43	104	0	69	18498
2026-01-01 22:39:25.84	29.28	8.64	-49.5	-63.1	3.8	1.49e+00	0	42	104	0	69	18465
2026-01-01 22:39:26.56	29.34	8.70	-49.5	-62.9	3.8	1.49e+00	0	43	104	0	69	17985
2026-01-01 22:39:27.85	29.44	8.79	-49.5	-62.1	3.9	1.47e+00	0	42	104	0	69	16493
2026-01-01 22:39:28.57	29.50	8.84	-49.4	-61.6	4.2	1.44e+00	0	42	0	0	69	15448
2026-01-01 22:39:29.86	29.61	8.93	-49.3	-60.2	4.7	1.18e+00	0	43	0	1048576	69	13237
2026-01-01 22:39:30.58	29.67	8.99	-49.2	-59.4	5.2	8.14e-01	0	43	0	3145728	69	12010
2026-01-01 22:39:31.87	29.78	9.08	-49.2	-59.4	5.2	5.17e-01	0	43	0	5242880	69	12060
2026-01-01 22:39:32.59	29.84	9.13	-49.5	-61.9	4.2	8.86e-01	0	42	0	6291456	69	16076
2026-01-01 22:39:33.87	29.95	9.22	-48.8	-57.1	6.8	6.39e-01	0	42	0	6291456	69	9214
2026-01-01 22:39:34.59	30.01	9.28	-49.6	-64.7	3.8	1.32e-01	0	42	104	7340032	69	22217
2026-01-01 22:39:35.88	30.13	9.37	-48.6	-56.1	7.7	1.48e+00	0	43	0	7340032	69	8211
2026-01-01 22:39:36.77	30.20	9.44	-48.8	-57.1	7.0	4.43e-02	0	42	0	8388608	68	9744
2026-01-01 22:39:37.91	30.30	9.52	-48.7	-56.5	7.5	1.34e-01	0	42	0	10485760	68	9099
2026-01-01 22:39:39.01	30.40	9.60	-48.9	-57.0	7.0	1.06e-01	0	43	0	12582912	68	9657
2026-01-01 22:39:39.87	30.48	9.67	-48.8	-56.5	7.4	1.07e-01	0	43	0	14680064	68	9170
2026-01-01 22:39:41.38	30.61	9.78	-48.2	-54.7	9.3	5.27e-02	0	43	0	16777216	68	7376
2026-01-01 22:39:42.10	30.67	9.83	-47.2	-52.2	11.7	1.34e-02	0	43	0	18874368	66	6229
2026-01-01 22:39:43.63	30.81	9.94	-49.4	-62.1	3.9	1.49e+00	0	43	104	19922944	70	15509
2026-01-01 22:39:44.34	30.88	10.00	-48.9	-57.4	6.6	4.76e-01	0	43	0	19922944	69	9606
2026-01-01 22:39:45.73	31.00	10.10	-47.0	-51.8	12.2	2.29e-04	0	43	0	23068672	65	6279
2026-01-01 22:39:46.45	31.07	10.16	-46.9	-51.6	12.3	2.18e-04	0	43	0	24117248	65	6189
2026-01-01 22:39:47.83	31.19	10.26	-46.4	-50.6	13.3	1.51e-04	0	43	0	26214400	64	5836
2026-01-01 22:39:48.55	31.26	10.31	-46.0	-49.8	14.2	4.50e-06	0	43	0	28311552	63	5654
2026-01-01 22:39:49.93	31.39	10.42	-45.5	-49.0	15.0	0.00e+00	0	43	0	30408704	62	5453
2026-01-01 22:39:50.90	31.48	10.49	-45.7	-49.4	14.7	0.00e+00	0	43	0	32505856	62	5666
2026-01-01 22:39:51.91	31.57	10.57	-45.7	-49.4	14.6	0.00e+00	0	43	0	34603008	62	5710
2026-01-01 22:39:52.91	31.67	10.64	-45.8	-49.5	14.5	0.00e+00	0	43	0	36700160	62	5740
2026-01-01 22:39:53.91	31.76	10.72	-45.8	-49.5	14.4	7.00e-07	0	43	0	37748736	62	5788
2026-01-01 22:39:54.91	31.86	10.80	-45.6	-49.3	14.7	1.50e-06	0	43	0	39845888	62	5647
2026-01-01 22:39:55.91	31.95	10.87	-45.3	-48.8	15.2	0.00e+00	0	43	0	41943040	62	5337
2026-01-01 22:39:56.92	32.05	10.95	-45.5	-49.1	15.0	0.00e+00	0	43	0	44040192	62	5517
2026-01-01 22:39:57.94	32.15	11.03	-45.3	-48.8	15.3	0.00e+00	0	43	0	46137344	62	5289
2026-01-01 22:39:58.96	32.24	11.11	-45.2	-48.6	15.4	0.00e+00	0	43	0	47185920	62	5175
2026-01-01 22:39:59.98	32.34	11.19	-45.2	-48.6	15.5	0.00e+00	0	43	0	49283072	62	5160
2026-01-01 22:40:00.98	32.44	11.26	-45.3	-48.7	15.4	0.00e+00	0	43	0	51380224	62	5239
2026-01-01 22:40:02.06	32.55	11.35	-45.4	-48.8	15.2	0.00e+00	0	43	0	53477376	62	5328
2026-01-01 22:40:02.92	32.63	11.42	-45.4	-48.9	15.1	0.00e+00	0	43	0	54525952	62	5364
2026-01-01 22:40:04.06	32.75	11.50	-45.3	-48.7	15.4	0.00e+00	0	43	0	57671680	62	5266
2026-01-01 22:40:04.92	32.83	11.57	-45.3	-48.8	15.2	0.00e+00	0	43	0	58720256	62	5327
2026-01-01 22:40:06.07	32.95	11.66	-45.0	-48.2	15.7	0.00e+00	0	43	0	60817408	62	4980
2026-01-01 22:40:06.93	33.03	11.73	-44.8	-47.8	16.2	0.00e+00	0	43	0	62914560	61	5040
2026-01-01 22:40:08.08	33.15	11.82	-44.9	-48.0	16.0	0.00e+00	0	43	0	65011712	61	5156
2026-01-01 22:40:08.94	33.24	11.89	-44.9	-48.0	16.1	0.00e+00	0	43	0	66060288	61	5127
2026-01-01 22:40:10.08	33.36	11.98	-44.8	-47.8	16.2	0.00e+00	0	43	0	68157440	61	5029
2026-01-01 22:40:10.94	33.44	12.05	-44.6	-47.6	16.4	0.00e+00	0	43	0	70254592	61	4888
2026-01-01 22:40:12.08	33.56	12.14	-44.6	-47.6	16.4	0.00e+00	0	43	0	72351744	61	4871
2026-01-01 22:40:12.94	33.65	12.20	-44.5	-47.4	16.7	0.00e+00	0	43	0	73400320	60	5075
2026-01-01 22:40:14.09	33.77	12.30	-44.4	-47.4	16.6	0.00e+00	0	43	0	75497472	60	5078
2026-01-01 22:40:15.02	33.87	12.37	-44.1	-47.0	17.0	0.00e+00	0	43	0	77594624	60	4835
2026-01-01 22:40:16.20	33.99	12.47	-44.3	-47.2	16.8	0.00e+00	0	43	0	79691776	60	4958
2026-01-01 22:40:17.10	34.09	12.54	-44.5	-47.4	16.6	0.00e+00	0	43	0	81788928	60	5094
2026-01-01 22:40:18.11	34.20	12.62	-44.7	-47.6	16.5	0.00e+00	0	43	0	83886080	60	5210
2026-01-01 22:40:19.11	34.31	12.70	-44.5	-47.4	16.7	0.00e+00	0	43	0	84934656	60	5054
2026-01-01 22:40:20.11	34.41	12.78	-44.5	-47.3	16.8	0.00e+00	0	43	0	87031808	60	4997
2026-01-01 22:40:21.12	34.52	12.86	-44.5	-47.3	16.8	0.00e+00	0	43	0	89128960	60	5001
2026-01-01 22:40:22.12	34.63	12.94	-44.5	-47.4	16.6	0.00e+00	0	43	0	91226112	60	5082
2026-01-01 22:40:23.12	34.74	13.03	-44.4	-47.3	16.8	0.00e+00	0	43	0	93323264	60	5004
2026-01-01 22:40:24.13	34.85	13.11	-44.3	-47.3	16.7	0.00e+00	0	43	0	94371840	60	5010
2026-01-01 22:40:25.13	34.96	13.19	-44.4	-47.4	16.6	0.00e+00	0	43	0	96468992	60	5097
2026-01-01 22:40:26.14	35.08	13.27	-44.5	-47.5	16.5	0.00e+00	0	43	0	98566144	60	5132
2026-01-01 22:40:27.14	35.19	13.35	-44.6	-47.7	16.4	0.00e+00	0	43	0	100663296	60	5235
2026-01-01 22:40:28.14	35.30	13.44	-44.5	-47.5	16.5	0.00e+00	0	43	0	102760448	60	5152
2026-01-01 22:40:29.15	35.42	13.52	-44.3	-47.3	16.8	0.00e+00	0	43	0	103809024	60	5008
2026-01-01 22:40:30.16	35.53	13.60	-44.6	-47.6	16.5	0.00e+00	0	43	0	105906176	60	5202
2026-01-01 22:40:31.17	35.65	13.69	-44.4	-47.3	16.7	0.00e+00	0	43	0	108003328	60	5039
2026-01-01 22:40:32.17	35.76	13.77	-44.3	-47.3	16.8	0.00e+00	0	43	0	110100480	60	5008
2026-01-01 22:40:33.17	35.88	13.85	-44.4	-47.4	16.6	0.00e+00	0	43	0	112197632	60	5097
2026-01-01 22:40:34.18	36.00	13.94	-44.2	-47.2	16.8	0.00e+00	0	43	0	113246208	60	4968
2026-01-01 22:40:35.18	36.11	14.02	-44.1	-47.0	17.0	0.00e+00	0	43	0	115343360	60	4863
2026-01-01 22:40:36.18	36.23	14.11	-44.3	-47.2	16.8	0.00e+00	0	43	0	117440512	60	4976
2026-01-01 22:40:37.18	36.35	14.19	-44.4	-47.4	16.7	0.00e+00	0	43	0	119537664	60	5065
2026-01-01 22:40:38.18	36.47	14.27	-44.6	-47.5	16.6	0.00e+00	0	43	0	120586240	60	5145
2026-01-01 22:40:39.19	36.59	14.36	-44.5	-47.4	16.7	0.00e+00	0	43	0	122683392	60	5061
2026-01-01 22:40:40.19	36.71	14.44	-44.6	-47.4	16.7	0.00e+00	0	43	0	124780544	60	5079
2026-01-01 22:40:41.19	36.83	14.53	-44.6	-47.4	16.7	0.00e+00	0	43	0	126877696	60	5085
2026-01-01 22:40:42.19	36.95	14.61	-44.7	-47.7	16.4	0.00e+00	0	43	0	128974848	60	5221
2026-01-01 22:40:43.19	37.07	14.70	-44.9	-47.8	16.3	0.00e+00	0	43	0	131072000	60	5326
2026-01-01 22:40:44.20	37.20	14.78	-44.6	-47.6	16.6	0.00e+00	0	43	0	132120576	60	5165
2026-01-01 22:40:45.25	37.33	14.87	-44.7	-47.6	16.5	0.00e+00	0	43	0	134217728	60	5180
2026-01-01 22:40:46.18	37.44	14.95	-44.7	-47.7	16.4	0.00e+00	0	43	0	136314880	60	5254
2026-01-01 22:40:47.18	37.57	15.04	-44.8	-47.8	16.3	0.00e+00	0	43	0	138412032	60	5310
2026-01-01 22:40:48.19	37.70	15.13	-44.8	-48.0	16.1	0.00e+00	0	43	0	139460608	60	5407
2026-01-01 22:40:49.19	37.82	15.21	-44.8	-47.9	16.2	0.00e+00	0	43	0	141557760	60	5388
2026-01-01 22:40:50.19	37.95	15.30	-44.7	-47.7	16.4	0.00e+00	0	43	0	143654912	60	5242
2026-01-01 22:40:51.19	38.08	15.39	-44.7	-47.7	16.4	0.00e+00	0	43	0	145752064	60	5264
2026-01-01 22:40:52.20	38.21	15.47	-44.6	-47.6	16.5	0.00e+00	0	43	0	147849216	60	5175
2026-01-01 22:40:53.20	38.34	15.56	-44.5	-47.4	16.7	0.00e+00	0	43	0	148897792	60	5092
2026-01-01 22:40:54.20	38.47	15.65	-44.5	-47.5	16.6	0.00e+00	0	43	0	150994944	60	5108
2026-01-01 22:40:55.64	38.65	15.77	-44.3	-47.1	17.0	0.00e+00	0	43	0	154140672	60	4897
2026-01-01 22:40:56.35	38.75	15.84	-44.1	-46.9	17.2	0.00e+00	0	43	0	155189248	60	4769
2026-01-01 22:40:57.65	38.92	15.95	-44.1	-46.9	17.2	0.00e+00	0	43	0	157286400	60	4767
2026-01-01 22:40:58.36	39.01	16.01	-44.2	-47.0	17.1	0.00e+00	0	43	0	159383552	60	4854
2026-01-01 22:40:59.65	39.19	16.13	-44.0	-46.7	17.4	0.00e+00	0	43	0	161480704	60	4665
2026-01-01 22:41:00.37	39.28	16.19	-44.0	-46.7	17.3	0.00e+00	0	43	0	162529280	59	4960
2026-01-01 22:41:01.66	39.46	16.30	-44.0	-46.7	17.4	0.00e+00	0	43	0	165675008	59	4939
2026-01-01 22:41:02.37	39.56	16.37	-43.9	-46.5	17.5	0.00e+00	0	43	0	166723584	59	4846
2026-01-01 22:41:03.74	39.74	16.49	-43.9	-46.5	17.6	0.00e+00	0	43	0	168820736	59	4830
2026-01-01 22:41:04.46	39.84	16.55	-44.0	-46.6	17.5	0.00e+00	0	43	0	170917888	59	4899
2026-01-01 22:41:05.84	40.03	16.67	-43.9	-46.5	17.5	0.00e+00	0	43	0	173015040	59	4847
2026-01-01 22:41:06.81	40.17	16.76	-43.9	-46.5	17.6	0.00e+00	0	43	0	175112192	59	4824
2026-01-01 22:41:07.81	40.31	16.85	-43.9	-46.5	17.6	0.00e+00	0	43	0	177209344	59	4826
2026-01-01 22:41:08.82	40.45	16.94	-43.9	-46.6	17.5	0.00e+00	0	43	0	178257920	59	4874
2026-01-01 22:41:09.82	40.60	17.03	-43.9	-46.6	17.5	0.00e+00	0	43	0	180355072	59	4882
2026-01-01 22:41:10.82	40.74	17.12	-43.8	-46.4	17.6	0.00e+00	0	43	0	182452224	59	4802
2026-01-01 22:41:11.82	40.88	17.21	-43.8	-46.4	17.7	0.00e+00	0	43	0	184549376	59	4797
2026-01-01 22:41:12.84	41.03	17.30	-44.0	-46.6	17.5	0.00e+00	0	43	0	186646528	59	4907
2026-01-01 22:41:13.87	41.18	17.40	-43.9	-46.5	17.6	0.00e+00	0	43	0	187695104	59	4828
2026-01-01 22:41:14.87	41.33	17.49	-43.9	-46.5	17.6	0.00e+00	0	43	0	189792256	59	4849
2026-01-01 22:41:15.88	41.47	17.58	-43.8	-46.3	17.7	0.00e+00	0	43	0	191889408	59	4742
2026-01-01 22:41:16.98	41.64	17.68	-43.8	-46.4	17.7	0.00e+00	0	43	0	193986560	59	4792
2026-01-01 22:41:17.84	41.77	17.76	-43.6	-46.1	18.0	0.00e+00	0	43	0	195035136	59	4617
2026-01-01 22:41:19.19	41.97	17.88	-43.6	-46.2	17.9	0.00e+00	0	43	0	198180864	59	4652
2026-01-01 22:41:19.90	42.08	17.95	-43.7	-46.2	17.8	0.00e+00	0	43	0	199229440	59	4685
2026-01-01 22:41:21.19	42.27	18.06	-43.6	-46.1	17.9	0.00e+00	0	43	0	201326592	59	4645
2026-01-01 22:41:21.91	42.38	18.13	-43.6	-46.1	17.9	0.00e+00	0	43	0	203423744	59	4621
2026-01-01 22:41:23.20	42.58	18.25	-43.7	-46.2	17.9	0.00e+00	0	43	0	205520896	58	4946
2026-01-01 22:41:24.01	42.70	18.32	-43.6	-46.1	17.9	0.00e+00	0	43	0	206569472	58	4878
2026-01-01 22:41:25.16	42.88	18.43	-43.6	-46.1	18.0	0.00e+00	0	43	0	209715200	58	4873
2026-01-01 22:41:26.21	43.05	18.53	-43.7	-46.1	18.0	0.00e+00	0	43	0	210763776	58	4925
2026-01-01 22:41:27.30	43.22	18.63	-43.5	-46.0	18.0	0.00e+00	0	43	0	212860928	58	4842
2026-01-01 22:41:28.31	43.38	18.72	-43.5	-46.0	18.0	0.00e+00	0	43	0	214958080	58	4819
2026-01-01 22:41:29.50	43.57	18.83	-43.3	-45.7	18.3	0.00e+00	0	43	0	217055232	58	4680
2026-01-01 22:41:30.41	43.71	18.92	-43.3	-45.8	18.2	0.00e+00	0	43	0	219152384	58	4719
2026-01-01 22:41:31.42	43.88	19.01	-43.3	-45.8	18.3	0.00e+00	0	43	0	221249536	58	4720
2026-01-01 22:41:32.43	44.04	19.10	-43.3	-45.8	18.3	0.00e+00	0	43	0	222298112	58	4713
2026-01-01 22:41:33.43	44.20	19.20	-43.2	-45.6	18.4	0.00e+00	0	43	0	224395264	58	4622
2026-01-01 22:41:34.43	44.37	19.29	-43.1	-45.5	18.5	0.00e+00	0	43	0	226492416	58	4577
2026-01-01 22:41:35.75	44.59	19.41	-43.0	-45.4	18.6	0.00e+00	0	44	0	228589568	58	4533
2026-01-01 22:41:36.50	44.71	19.48	-42.9	-45.3	18.7	0.00e+00	0	43	0	230686720	57	4717
2026-01-01 22:41:37.79	44.93	19.61	-42.9	-45.2	18.8	0.00e+00	0	43	0	232783872	57	4694
2026-01-01 22:41:38.51	45.05	19.67	-42.8	-45.1	18.9	0.00e+00	0	43	0	233832448	57	4616
2026-01-01 22:41:39.79	45.27	19.79	-42.8	-45.1	18.8	0.00e+00	0	43	0	236978176	57	4637
2026-01-01 22:41:40.51	45.39	19.86	-42.7	-45.0	18.9	0.00e+00	0	43	0	238026752	57	4572
2026-01-01 22:41:41.80	45.61	19.98	-42.9	-45.2	18.7	0.00e+00	0	43	0	240123904	57	4698
2026-01-01 22:41:42.52	45.73	20.05	-42.9	-45.2	18.7	0.00e+00	0	43	0	242221056	57	4704
2026-01-01 22:41:43.81	45.96	20.17	-43.0	-45.4	18.7	0.00e+00	0	43	0	244318208	57	4765
2026-01-01 22:41:44.52	46.08	20.24	-42.8	-45.1	18.9	0.00e+00	0	43	0	245366784	57	4615
2026-01-01 22:41:45.81	46.31	20.36	-42.9	-45.3	18.7	0.00e+00	0	43	0	247463936	57	4716
2026-01-01 22:41:46.53	46.44	20.43	-43.0	-45.4	18.6	0.00e+00	0	43	0	249561088	57	4761
2026-01-01 22:41:47.81	46.66	20.55	-42.9	-45.3	18.7	0.00e+00	0	43	0	251658240	57	4707
2026-01-01 22:41:48.53	46.79	20.62	-43.0	-45.4	18.7	0.00e+00	0	43	0	252706816	57	4760
2026-01-01 22:41:49.82	47.02	20.74	-43.0	-45.3	18.7	0.00e+00	0	43	0	255852544	57	4737
2026-01-01 22:41:50.53	47.15	20.81	-43.2	-45.6	18.4	0.00e+00	0	43	0	256901120	57	4901
2026-01-01 22:41:51.82	47.39	20.93	-42.9	-45.2	18.8	0.00e+00	0	43	0	258998272	57	4705
2026-01-01 22:41:52.54	47.52	21.00	-43.1	-45.5	18.5	0.00e+00	0	43	0	261095424	57	4830
2026-01-01 22:41:53.83	47.76	21.13	-43.1	-45.4	18.6	0.00e+00	0	43	0	263192576	57	4795
2026-01-01 22:41:54.55	47.89	21.20	-43.2	-45.6	18.5	0.00e+00	0	43	0	264241152	57	4897
2026-01-01 22:41:55.87	48.14	21.32	-43.1	-45.5	18.5	0.00e+00	0	43	0	266338304	57	4858
2026-01-01 22:41:56.85	48.32	21.42	-43.1	-45.5	18.5	0.00e+00	0	43	0	268435456	57	4851
2026-01-01 22:41:58.17	48.57	21.54	-43.4	-45.8	18.3	0.00e+00	0	43	0	271581184	57	5017
2026-01-01 22:41:58.89	48.71	21.61	-43.3	-45.8	18.3	0.00e+00	0	43	0	272629760	57	5002
2026-01-01 22:42:00.18	48.96	21.73	-43.3	-45.8	18.3	0.00e+00	0	43	0	274726912	57	5004
2026-01-01 22:42:00.89	49.09	21.80	-43.4	-45.9	18.2	0.00e+00	0	43	0	275775488	57	5053
2026-01-01 22:42:02.18	49.34	21.93	-43.5	-46.0	18.1	0.00e+00	0	43	0	278921216	57	5120
2026-01-01 22:42:02.90	49.48	22.00	-43.4	-45.9	18.2	0.00e+00	0	43	0	279969792	57	5047
2026-01-01 22:42:04.19	49.74	22.12	-43.6	-46.1	17.9	0.00e+00	0	43	0	282066944	57	5210
2026-01-01 22:42:04.90	49.88	22.19	-43.6	-46.0	18.0	0.00e+00	0	44	0	284164096	57	5149
2026-01-01 22:42:06.21	50.14	22.31	-43.6	-46.1	18.0	0.00e+00	0	43	0	286261248	58	4923
2026-01-01 22:42:06.92	50.28	22.38	-43.7	-46.2	17.9	0.00e+00	0	43	0	287309824	58	4929
2026-01-01 22:42:08.21	50.54	22.51	-43.3	-45.7	18.4	0.00e+00	0	43	0	290455552	58	4669
2026-01-01 22:42:08.93	50.69	22.57	-43.4	-45.8	18.3	0.00e+00	0	43	0	291504128	58	4732
2026-01-01 22:42:10.22	50.95	22.70	-43.2	-45.7	18.4	0.00e+00	0	43	0	293601280	58	4653
2026-01-01 22:42:10.98	51.10	22.77	-43.1	-45.5	18.6	0.00e+00	0	43	0	294649856	58	4561
2026-01-01 22:42:12.27	51.37	22.90	-42.9	-45.3	18.7	0.00e+00	0	43	0	297795584	57	4726
2026-01-01 22:42:12.99	51.52	22.96	-43.0	-45.3	18.7	0.00e+00	0	43	0	298844160	57	4740
2026-01-01 22:42:14.27	51.79	23.09	-43.0	-45.3	18.7	0.00e+00	0	44	0	300941312	57	4748
2026-01-01 22:42:14.99	51.94	23.16	-43.1	-45.4	18.6	0.00e+00	0	43	0	303038464	57	4806
2026-01-01 22:42:16.28	52.21	23.28	-43.0	-45.4	18.6	0.00e+00	0	43	0	305135616	57	4775
2026-01-01 22:42:17.19	52.40	23.37	-43.1	-45.5	18.5	0.00e+00	0	43	0	307232768	57	4870
2026-01-01 22:42:18.52	52.69	23.50	-43.1	-45.5	18.5	0.00e+00	0	43	0	309329920	57	4865
2026-01-01 22:42:19.27	52.85	23.57	-43.1	-45.5	18.5	0.00e+00	0	43	0	310378496	57	4849
2026-01-01 22:42:20.56	53.13	23.69	-43.2	-45.5	18.5	0.00e+00	0	43	0	313524224	57	4866
2026-01-01 22:42:21.27	53.28	23.76	-43.3	-45.7	18.4	0.00e+00	0	43	0	314572800	57	4942
2026-01-01 22:42:22.57	53.57	23.88	-43.0	-45.3	18.7	0.00e+00	0	44	0	316669952	57	4741
2026-01-01 22:42:23.28	53.73	23.95	-42.9	-45.3	18.7	0.00e+00	0	44	0	317718528	57	4728
2026-01-01 22:42:24.57	54.01	24.07	-42.9	-45.2	18.8	0.00e+00	0	43	0	320864256	57	4705
2026-01-01 22:42:25.29	54.17	24.14	-42.7	-45.1	18.9	0.00e+00	0	43	0	321912832	57	4603
2026-01-01 22:42:26.58	54.46	24.27	-42.7	-45.0	19.0	0.00e+00	0	43	0	324009984	57	4577
2026-01-01 22:42:27.29	54.62	24.33	-42.7	-45.0	19.0	0.00e+00	0	43	0	326107136	57	4590
2026-01-01 22:42:28.58	54.92	24.46	-42.7	-45.0	19.0	0.00e+00	0	43	0	328204288	57	4589
2026-01-01 22:42:29.29	55.08	24.52	-42.9	-45.3	18.8	0.00e+00	0	44	0	329252864	57	4718
2026-01-01 22:42:30.78	55.42	24.67	-42.9	-45.3	18.8	0.00e+00	0	43	0	332398592	57	4710
2026-01-01 22:42:31.49	55.59	24.73	-43.0	-45.4	18.7	0.00e+00	0	43	0	333447168	57	4767
2026-01-01 22:42:32.88	55.91	24.86	-43.3	-45.7	18.4	0.00e+00	0	44	0	336592896	57	4931
2026-01-01 22:42:33.86	56.14	24.96	-43.4	-45.8	18.2	0.00e+00	0	43	0	337641472	57	5001
2026-01-01 22:42:34.87	56.38	25.05	-43.6	-46.1	18.1	0.00e+00	0	43	0	339738624	57	5173
2026-01-01 22:42:35.87	56.62	25.15	-43.7	-46.2	17.9	0.00e+00	0	44	0	341835776	58	4969
2026-01-01 22:42:36.87	56.86	25.24	-43.7	-46.2	18.0	0.00e+00	0	43	0	343932928	58	4960
2026-01-01 22:42:37.87	57.10	25.33	-43.6	-46.1	18.0	0.00e+00	0	43	0	346030080	58	4886
2026-01-01 22:42:38.88	57.34	25.43	-43.4	-45.8	18.3	0.00e+00	0	43	0	347078656	58	4753
2026-01-01 22:42:39.88	57.58	25.52	-43.5	-45.9	18.2	0.00e+00	0	43	0	349175808	58	4788
2026-01-01 22:42:40.88	57.83	25.62	-43.4	-45.8	18.3	0.00e+00	0	44	0	351272960	58	4749
2026-01-01 22:42:41.96	58.09	25.72	-43.4	-45.9	18.2	0.00e+00	0	43	0	353370112	58	4776
2026-01-01 22:42:42.85	58.31	25.80	-43.4	-45.9	18.3	0.00e+00	0	43	0	354418688	58	4766
2026-01-01 22:42:44.00	58.60	25.90	-43.4	-45.8	18.3	0.00e+00	0	43	0	357564416	58	4753
2026-01-01 22:42:44.86	58.82	25.98	-43.3	-45.8	18.3	0.00e+00	0	43	0	358612992	58	4716
2026-01-01 22:42:46.01	59.11	26.09	-43.4	-45.9	18.2	0.00e+00	0	43	0	360710144	58	4797
2026-01-01 22:42:46.86	59.32	26.17	-43.4	-45.8	18.3	0.00e+00	0	43	0	362807296	58	4739
2026-01-01 22:42:48.31	59.69	26.30	-43.3	-45.8	18.3	0.00e+00	0	43	0	364904448	58	4708
2026-01-01 22:42:49.03	59.88	26.37	-43.4	-45.9	18.3	0.00e+00	0	43	0	365953024	58	4765
2026-01-01 22:42:50.32	60.21	26.48	-43.4	-45.8	18.3	0.00e+00	0	43	0	369098752	58	4722
2026-01-01 22:42:51.05	60.40	26.55	-43.2	-45.6	18.5	0.00e+00	0	43	0	370147328	58	4604
2026-01-01 22:42:52.33	60.73	26.66	-42.8	-45.1	18.9	0.00e+00	0	43	0	372244480	57	4633
2026-01-01 22:42:53.10	60.93	26.73	-42.7	-45.0	19.0	0.00e+00	0	43	0	374341632	57	4595
2026-01-01 22:42:54.38	61.27	26.85	-43.0	-45.3	18.8	0.00e+00	0	43	0	376438784	57	4745
2026-01-01 22:42:55.18	61.48	26.92	-42.9	-45.3	18.8	0.00e+00	0	43	0	377487360	57	4715
2026-01-01 22:42:56.35	61.80	27.02	-43.2	-45.6	18.5	0.00e+00	0	43	0	380633088	57	4883
2026-01-01 22:42:57.21	62.03	27.10	-43.4	-45.8	18.3	0.00e+00	0	43	0	381681664	57	5019
2026-01-01 22:42:58.36	62.34	27.20	-43.4	-45.8	18.3	0.00e+00	0	44	0	383778816	57	5024
2026-01-01 22:42:59.22	62.57	27.28	-43.5	-46.0	18.2	0.00e+00	0	43	0	385875968	57	5105
2026-01-01 22:43:00.36	62.88	27.38	-43.6	-46.0	18.1	0.00e+00	0	43	0	387973120	58	4845
2026-01-01 22:43:01.22	63.12	27.45	-43.6	-46.0	18.1	0.00e+00	0	43	0	389021696	58	4855
2026-01-01 22:43:02.38	63.44	27.55	-43.6	-46.0	18.1	0.00e+00	0	43	0	391118848	58	4844
2026-01-01 22:43:03.24	63.67	27.62	-43.7	-46.1	18.0	0.00e+00	0	43	0	393216000	58	4926
2026-01-01 22:43:04.39	64.00	27.72	-43.3	-45.6	18.5	0.00e+00	0	43	0	395313152	58	4651
2026-01-01 22:43:05.25	64.24	27.80	-43.4	-45.8	18.3	0.00e+00	0	43	0	397410304	58	4732
2026-01-01 22:43:06.39	64.56	27.89	-43.3	-45.6	18.5	0.00e+00	0	43	0	399507456	58	4634
2026-01-01 22:43:07.30	64.81	27.97	-43.5	-45.9	18.3	0.00e+00	0	43	0	400556032	58	4770
2026-01-01 22:43:08.52	65.16	28.07	-43.4	-45.7	18.4	0.00e+00	0	43	0	402653184	58	4700
2026-01-01 22:43:09.38	65.41	28.14	-43.2	-45.6	18.5	0.00e+00	0	43	0	404750336	58	4625
2026-01-01 22:43:10.69	65.79	28.25	-43.5	-45.9	18.2	0.00e+00	0	43	0	406847488	58	4812
2026-01-01 22:43:11.41	65.99	28.31	-43.6	-46.1	18.1	0.00e+00	0	43	0	408944640	58	4886
2026-01-01 22:43:12.70	66.37	28.41	-43.7	-46.2	18.0	0.00e+00	0	44	0	411041792	58	4961
2026-01-01 22:43:13.41	66.58	28.47	-44.0	-46.6	17.6	0.00e+00	0	44	0	412090368	58	5189
2026-01-01 22:43:14.70	66.95	28.58	-44.4	-47.1	17.1	0.00e+00	0	43	0	414187520	59	5197
2026-01-01 22:43:15.48	67.19	28.64	-44.6	-47.3	16.9	0.00e+00	0	44	0	416284672	59	5304
2026-01-01 22:43:16.77	67.57	28.74	-44.3	-47.0	17.3	0.00e+00	0	43	0	418381824	60	4824
2026-01-01 22:43:17.57	67.81	28.80	-44.1	-46.7	17.6	0.00e+00	0	44	0	420478976	60	4679
2026-01-01 22:43:18.72	68.15	28.89	-44.1	-46.6	17.6	0.00e+00	0	43	0	422576128	59	4911
2026-01-01 22:43:19.82	68.48	28.98	-44.1	-46.7	17.5	0.00e+00	0	44	0	424673280	59	4944
2026-01-01 22:43:20.85	68.79	29.06	-44.4	-47.1	17.2	0.00e+00	0	43	0	425721856	59	5171
2026-01-01 22:43:21.85	69.10	29.13	-44.7	-47.5	16.9	0.00e+00	0	43	0	427819008	60	5103
2026-01-01 22:43:23.06	69.47	29.22	-44.6	-47.3	17.0	0.00e+00	0	44	0	429916160	60	5016
2026-01-01 22:43:23.96	69.74	29.29	-44.8	-47.6	16.6	0.00e+00	0	43	0	432013312	60	5218
2026-01-01 22:43:25.14	70.11	29.38	-44.5	-47.2	17.1	0.00e+00	0	43	0	434110464	60	4955
2026-01-01 22:43:26.04	70.39	29.44	-44.5	-47.2	17.0	0.00e+00	0	43	0	436207616	60	4970
2026-01-01 22:43:27.35	70.80	29.54	-44.6	-47.3	17.0	0.00e+00	0	43	0	438304768	60	5039
2026-01-01 22:43:28.07	71.02	29.59	-44.7	-47.4	16.9	0.00e+00	0	43	0	439353344	60	5097
2026-01-01 22:43:29.36	71.43	29.68	-45.2	-48.1	16.2	0.00e+00	0	43	0	442499072	61	5209
2026-01-01 22:43:30.08	71.65	29.73	-45.2	-48.2	16.2	0.00e+00	0	43	0	443547648	61	5230
2026-01-01 22:43:31.37	72.06	29.82	-45.6	-48.7	15.6	0.00e+00	0	43	0	445644800	61	5588
2026-01-01 22:43:32.09	72.29	29.87	-45.9	-49.2	15.2	0.00e+00	0	43	0	447741952	62	5560
2026-01-01 22:43:33.73	72.82	29.98	-46.3	-49.9	14.5	7.00e-07	0	43	0	449839104	63	5662
2026-01-01 22:43:34.30	73.00	30.02	-46.5	-50.2	14.2	7.00e-07	0	43	0	450887680	63	5902
2026-01-01 22:43:35.88	73.51	30.12	-46.1	-49.6	14.8	1.50e-06	0	43	0	454033408	63	5473
2026-01-01 22:43:36.67	73.77	30.17	-46.1	-49.5	14.9	0.00e+00	0	44	0	456130560	63	5413
2026-01-01 22:43:37.82	74.14	30.25	-45.7	-48.9	15.4	0.00e+00	0	44	0	458227712	63	5059
2026-01-01 22:43:38.68	74.42	30.30	-45.6	-48.8	15.6	0.00e+00	0	43	0	459276288	63	4995
2026-01-01 22:43:39.82	74.80	30.37	-46.0	-49.4	15.1	0.00e+00	0	43	0	461373440	63	5360
2026-01-01 22:43:40.68	75.08	30.43	-46.2	-49.7	14.7	0.00e+00	0	43	0	463470592	63	5565
2026-01-01 22:43:41.83	75.46	30.50	-46.2	-49.6	14.8	0.00e+00	0	43	0	465567744	63	5499
2026-01-01 22:43:42.69	75.75	30.55	-46.3	-49.8	14.7	0.00e+00	0	43	0	466616320	63	5623
2026-01-01 22:43:43.95	76.17	30.62	-46.1	-49.6	14.8	0.00e+00	0	44	0	469762048	63	5477
2026-01-01 22:43:44.69	76.42	30.66	-46.1	-49.6	14.7	0.00e+00	0	43	0	470810624	63	5528
2026-01-01 22:43:45.98	76.85	30.74	-45.7	-49.0	15.4	0.00e+00	0	44	0	472907776	63	5141
2026-01-01 22:43:46.70	77.09	30.78	-45.4	-48.4	16.0	0.00e+00	0	43	0	475004928	62	5075
2026-01-01 22:43:47.99	77.53	30.85	-45.0	-47.8	16.5	0.00e+00	0	43	0	477102080	62	4748
2026-01-01 22:43:48.70	77.77	30.89	-45.0	-47.9	16.4	0.00e+00	0	44	0	478150656	61	5069
2026-01-01 22:43:50.00	78.21	30.95	-45.5	-48.7	15.7	0.00e+00	0	43	0	481296384	61	5546
2026-01-01 22:43:50.71	78.45	30.99	-46.0	-49.4	15.0	0.00e+00	0	43	0	482344960	62	5689
2026-01-01 22:43:52.00	78.89	31.06	-46.1	-49.7	14.7	0.00e+00	0	43	0	484442112	63	5573
2026-01-01 22:43:52.71	79.14	31.09	-45.9	-49.3	15.0	0.00e+00	0	43	0	485490688	63	5337
2026-01-01 22:43:54.00	79.58	31.15	-45.5	-48.6	15.8	0.00e+00	0	43	0	488636416	63	4884
2026-01-01 22:43:54.72	79.83	31.19	-45.3	-48.3	16.0	0.00e+00	0	44	0	489684992	62	5038
2026-01-01 22:43:56.08	80.30	31.25	-45.3	-48.4	16.0	0.00e+00	0	43	0	491782144	62	5055
2026-01-01 22:43:57.08	80.65	31.30	-44.9	-47.9	16.5	0.00e+00	0	44	0	493879296	61	5051
2026-01-01 22:43:58.40	81.11	31.36	-44.6	-47.5	16.9	0.00e+00	0	44	0	497025024	61	4828
2026-01-01 22:43:59.12	81.36	31.39	-44.5	-47.3	17.0	0.00e+00	0	44	0	498073600	60	5020
2026-01-01 22:44:00.76	81.94	31.46	-44.2	-46.9	17.4	0.00e+00	0	43	0	501219328	60	4766
2026-01-01 22:44:01.33	82.14	31.48	-44.4	-47.2	17.2	0.00e+00	0	43	0	502267904	60	4933
2026-01-01 22:44:02.92	82.70	31.54	-45.2	-48.4	16.0	0.00e+00	0	43	0	505413632	61	5379
2026-01-01 22:44:03.50	82.90	31.56	-45.2	-48.5	15.9	0.00e+00	0	43	0	506462208	61	5430
2026-01-01 22:44:05.10	83.47	31.62	-45.4	-48.6	15.7	0.00e+00	0	43	0	509607936	61	5500
2026-01-01 22:44:05.75	83.70	31.64	-45.3	-48.6	15.8	0.00e+00	0	43	0	510656512	61	5483
2026-01-01 22:44:07.19	84.22	31.69	-44.9	-47.9	16.3	0.00e+00	0	44	0	512753664	61	5097
2026-01-01 22:44:07.98	84.50	31.72	-44.8	-47.9	16.5	0.00e+00	0	44	0	514850816	61	5043
2026-01-01 22:44:09.13	84.91	31.76	-44.3	-47.1	17.2	0.00e+00	0	44	0	516947968	60	4874
2026-01-01 22:44:09.99	85.22	31.78	-44.1	-46.8	17.5	0.00e+00	0	43	0	517996544	60	4734
2026-01-01 22:44:11.13	85.63	31.82	-44.1	-46.9	17.4	0.00e+00	0	44	0	520093696	60	4772
2026-01-01 22:44:11.99	85.94	31.84	-44.2	-46.9	17.4	0.00e+00	0	44	0	522190848	60	4807
2026-01-01 22:44:13.14	86.35	31.87	-44.5	-47.3	17.0	0.00e+00	0	43	0	524288000	60	5040
2026-01-01 22:44:14.00	86.66	31.89	-44.7	-47.7	16.7	0.00e+00	0	43	0	525336576	60	5228
2026-01-01 22:44:15.19	87.09	31.92	-44.9	-48.0	16.3	0.00e+00	0	43	0	528482304	60	5444
2026-01-01 22:44:16.05	87.40	31.94	-45.1	-48.3	16.1	0.00e+00	0	44	0	529530880	61	5286
2026-01-01 22:44:17.29	87.85	31.97	-45.0	-48.1	16.3	0.00e+00	0	44	0	531628032	61	5161
2026-01-01 22:44:18.15	88.17	31.99	-44.5	-47.4	16.7	0.00e+00	0	44	0	533725184	61	4813
2026-01-01 22:44:19.29	88.58	32.01	-44.5	-47.3	17.0	0.00e+00	0	44	0	535822336	60	4995
2026-01-01 22:44:20.15	88.89	32.03	-44.4	-47.2	17.1	0.00e+00	0	43	0	536870912	60	4968
2026-01-01 22:44:21.30	89.31	32.05	-44.5	-47.4	17.0	0.00e+00	0	44	0	540016640	60	5046
2026-01-01 22:44:22.16	89.63	32.06	-44.5	-47.3	17.0	0.00e+00	0	43	0	541065216	60	5035
2026-01-01 22:44:23.50	90.12	32.08	-44.6	-47.5	16.8	0.00e+00	0	44	0	543162368	60	5105
2026-01-01 22:44:24.21	90.38	32.09	-44.5	-47.3	17.0	0.00e+00	0	43	0	545259520	60	5005
2026-01-01 22:44:25.50	90.85	32.10	-44.6	-47.3	17.0	0.00e+00	0	44	0	547356672	60	5034
2026-01-01 22:44:26.22	91.11	32.11	-44.4	-47.1	17.2	0.00e+00	0	44	0	548405248	60	4889
2026-01-01 22:44:27.77	91.68	32.13	-44.6	-47.5	16.8	0.00e+00	0	43	0	551550976	60	5117
2026-01-01 22:44:28.48	91.94	32.13	-44.8	-47.7	16.6	0.00e+00	0	44	0	552599552	60	5274
2026-01-01 22:44:29.77	92.41	32.14	-44.7	-47.6	16.7	0.00e+00	0	44	0	555745280	60	5163
2026-01-01 22:44:30.49	92.68	32.14	-44.7	-47.5	16.8	0.00e+00	0	43	0	556793856	60	5127
2026-01-01 22:44:31.78	93.15	32.15	-44.4	-47.2	17.2	0.00e+00	0	44	0	558891008	60	4943
2026-01-01 22:44:32.50	93.41	32.15	-44.4	-47.1	17.3	0.00e+00	0	44	0	560988160	60	4882
2026-01-01 22:44:33.78	93.88	32.15	-44.6	-47.4	16.9	0.00e+00	0	43	0	563085312	60	5079
2026-01-01 22:44:34.53	94.16	32.15	-45.0	-48.0	16.4	0.00e+00	0	44	0	564133888	60	5450
2026-01-01 22:44:35.82	94.63	32.15	-45.3	-48.4	16.0	0.00e+00	0	44	0	566231040	61	5358
2026-01-01 22:44:36.58	94.91	32.15	-45.1	-48.1	16.3	0.00e+00	0	44	0	568328192	61	5179
2026-01-01 22:44:37.87	95.39	32.14	-44.2	-46.8	17.4	0.00e+00	0	44	0	570425344	60	4758
2026-01-01 22:44:38.63	95.67	32.14	-43.8	-46.3	17.9	0.00e+00	0	44	0	572522496	59	4743
2026-01-01 22:44:39.92	96.14	32.13	-43.6	-46.0	18.2	0.00e+00	0	44	0	574619648	59	4569
2026-01-01 22:44:40.72	96.43	32.13	-43.7	-46.2	18.0	0.00e+00	0	43	0	575668224	59	4669
2026-01-01 22:44:42.19	96.97	32.11	-44.1	-46.7	17.5	0.00e+00	0	43	0	578813952	59	4982
2026-01-01 22:44:42.90	97.23	32.10	-44.5	-47.2	17.0	0.00e+00	0	43	0	579862528	59	5263
2026-01-01 22:44:44.20	97.71	32.09	-44.2	-46.9	17.3	0.00e+00	0	44	0	581959680	59	5042
2026-01-01 22:44:44.91	97.97	32.08	-44.2	-46.8	17.3	0.00e+00	0	43	0	584056832	59	5025
2026-01-01 22:44:46.20	98.44	32.06	-44.4	-47.2	17.1	0.00e+00	0	44	0	586153984	59	5219
2026-01-01 22:44:46.92	98.70	32.05	-44.3	-47.0	17.2	0.00e+00	0	43	0	587202560	59	5113
2026-01-01 22:44:48.54	99.29	32.02	-44.2	-46.9	17.3	0.00e+00	0	43	0	590348288	59	5062
2026-01-01 22:44:49.12	99.50	32.01	-44.1	-46.7	17.5	0.00e+00	0	44	0	591396864	59	4933
2026-01-01 22:44:50.69	100.07	31.98	-43.9	-46.4	17.8	0.00e+00	0	44	0	594542592	59	4802
2026-01-01 22:44:51.34	100.31	31.97	-43.9	-46.4	17.8	0.00e+00	0	43	0	595591168	59	4783
2026-01-01 22:44:52.77	100.83	31.93	-44.4	-47.1	17.1	0.00e+00	0	44	0	598736896	59	5205
2026-01-01 22:44:53.49	101.09	31.92	-44.8	-47.7	16.6	0.00e+00	0	43	0	599785472	60	5272
2026-01-01 22:44:54.78	101.56	31.88	-45.2	-48.4	16.0	0.00e+00	0	44	0	601882624	61	5345
2026-01-01 22:44:55.50	101.82	31.86	-45.3	-48.4	15.9	0.00e+00	0	44	0	603979776	61	5361
2026-01-01 22:44:56.78	102.28	31.83	-45.4	-48.5	15.8	0.00e+00	0	44	0	606076928	61	5438
2026-01-01 22:44:57.50	102.54	31.81	-45.5	-48.6	15.8	0.00e+00	0	44	0	607125504	61	5471
2026-01-01 22:44:58.79	103.00	31.77	-45.5	-48.7	15.6	0.00e+00	0	43	0	610271232	61	5560
2026-01-01 22:44:59.51	103.26	31.75	-45.5	-48.6	15.7	0.00e+00	0	44	0	611319808	62	5196
2026-01-01 22:45:00.80	103.72	31.71	-45.2	-48.2	16.0	0.00e+00	0	44	0	613416960	62	4949
2026-01-01 22:45:01.52	103.98	31.68	-44.8	-47.6	16.6	0.00e+00	0	43	0	614465536	61	4923
2026-01-01 22:45:02.80	104.44	31.64	-44.8	-47.7	16.7	0.00e+00	0	44	0	617611264	61	4937
2026-01-01 22:45:03.58	104.71	31.61	-45.1	-48.1	16.2	0.00e+00	0	43	0	618659840	61	5166
2026-01-01 22:45:04.87	105.17	31.56	-45.4	-48.6	15.7	0.00e+00	0	44	0	620756992	61	5523
2026-01-01 22:45:05.69	105.46	31.53	-45.9	-49.3	15.0	0.00e+00	0	44	0	622854144	62	5647
2026-01-01 22:45:06.83	105.86	31.49	-45.4	-48.5	15.8	0.00e+00	0	44	0	624951296	62	5141
2026-01-01 22:45:07.69	106.17	31.45	-44.9	-47.8	16.5	0.00e+00	0	43	0	625999872	61	4996
2026-01-01 22:45:08.83	106.57	31.40	-44.4	-47.1	17.1	0.00e+00	0	44	0	629145600	60	4916
2026-01-01 22:45:10.00	106.98	31.35	-44.6	-47.3	17.0	0.00e+00	0	44	0	631242752	60	5032
2026-01-01 22:45:11.03	107.34	31.31	-44.7	-47.5	16.8	0.00e+00	0	44	0	632291328	60	5151
2026-01-01 22:45:12.03	107.69	31.26	-44.7	-47.5	16.8	0.00e+00	0	44	0	634388480	60	5148
2026-01-01 22:45:13.24	108.11	31.21	-44.3	-46.9	17.4	0.00e+00	0	43	0	636485632	60	4790
2026-01-01 22:45:14.12	108.41	31.16	-44.0	-46.5	17.7	0.00e+00	0	44	0	638582784	60	4587
2026-01-01 22:45:15.26	108.81	31.11	-44.1	-46.7	17.5	0.00e+00	0	44	0	640679936	59	4957
2026-01-01 22:45:16.20	109.13	31.06	-44.4	-47.0	17.1	0.00e+00	0	44	0	642777088	59	5150
2026-01-01 22:45:17.20	109.47	31.01	-44.3	-47.0	17.2	0.00e+00	0	44	0	643825664	59	5133
2026-01-01 22:45:18.20	109.82	30.96	-44.7	-47.5	16.8	0.00e+00	0	44	0	645922816	60	5109
2026-01-01 22:45:19.21	110.16	30.91	-44.4	-47.2	17.1	0.00e+00	0	44	0	648019968	60	4931
2026-01-01 22:45:20.21	110.50	30.85	-44.1	-46.7	17.5	0.00e+00	0	44	0	650117120	60	4684
2026-01-01 22:45:21.21	110.84	30.80	-43.9	-46.4	17.8	0.00e+00	0	43	0	652214272	59	4772
2026-01-01 22:45:22.22	111.18	30.74	-43.9	-46.5	17.7	0.00e+00	0	44	0	653262848	59	4848
2026-01-01 22:45:23.22	111.52	30.69	-44.1	-46.7	17.5	0.00e+00	0	44	0	655360000	59	4969
2026-01-01 22:45:24.22	111.85	30.63	-44.3	-47.0	17.1	0.00e+00	0	44	0	657457152	59	5139
2026-01-01 22:45:25.22	112.19	30.57	-44.4	-47.2	17.0	0.00e+00	0	44	0	659554304	59	5264
2026-01-01 22:45:26.22	112.52	30.51	-44.3	-47.0	17.2	0.00e+00	0	44	0	661651456	59	5153
2026-01-01 22:45:27.22	112.85	30.45	-44.2	-46.9	17.3	0.00e+00	0	44	0	662700032	59	5048
2026-01-01 22:45:28.29	113.21	30.38	-44.1	-46.7	17.5	0.00e+00	0	44	0	664797184	59	4960
2026-01-01 22:45:29.21	113.51	30.33	-44.4	-47.1	17.2	0.00e+00	0	44	0	666894336	59	5188
2026-01-01 22:45:30.40	113.90	30.25	-44.6	-47.5	16.8	0.00e+00	0	44	0	668991488	60	5131
2026-01-01 22:45:31.31	114.20	30.19	-44.9	-48.0	16.4	0.00e+00	0	43	0	671088640	60	5415
2026-01-01 22:45:32.33	114.53	30.13	-44.9	-47.8	16.4	0.00e+00	0	43	0	672137216	60	5339
2026-01-01 22:45:33.33	114.86	30.06	-44.5	-47.3	16.9	0.00e+00	0	43	0	674234368	60	5025
2026-01-01 22:45:34.33	115.18	29.99	-44.0	-46.6	17.5	0.00e+00	0	44	0	676331520	60	4650
2026-01-01 22:45:35.34	115.50	29.93	-43.8	-46.4	17.8	0.00e+00	0	43	0	678428672	59	4780
2026-01-01 22:45:36.34	115.82	29.86	-44.0	-46.6	17.6	0.00e+00	0	44	0	680525824	59	4904
2026-01-01 22:45:37.34	116.14	29.79	-44.2	-46.9	17.3	0.00e+00	0	43	0	681574400	59	5078
2026-01-01 22:45:38.34	116.46	29.72	-44.5	-47.2	17.0	0.00e+00	0	44	0	683671552	59	5264
2026-01-01 22:45:39.35	116.78	29.65	-44.4	-47.2	17.0	0.00e+00	0	44	0	685768704	59	5242
2026-01-01 22:45:40.35	117.10	29.58	-44.5	-47.3	17.0	0.00e+00	0	44	0	687865856	59	5299
2026-01-01 22:45:41.37	117.42	29.50	-44.2	-46.8	17.3	0.00e+00	0	43	0	689963008	59	5036
2026-01-01 22:45:42.42	117.74	29.43	-44.4	-47.0	17.1	0.00e+00	0	44	0	692060160	59	5149
2026-01-01 22:45:43.34	118.03	29.36	-44.5	-47.3	17.0	0.00e+00	0	44	0	693108736	59	5280
2026-01-01 22:45:44.50	118.39	29.27	-44.9	-47.8	16.5	0.00e+00	0	44	0	695205888	60	5281
2026-01-01 22:45:45.43	118.68	29.20	-45.0	-47.9	16.4	0.00e+00	0	43	0	697303040	60	5364
2026-01-01 22:45:46.43	118.98	29.13	-45.1	-48.1	16.2	0.00e+00	0	44	0	699400192	61	5188
2026-01-01 22:45:47.44	119.29	29.05	-45.0	-48.0	16.3	0.00e+00	0	44	0	701497344	61	5156
2026-01-01 22:45:48.44	119.59	28.97	-44.8	-47.8	16.4	0.00e+00	0	43	0	702545920	61	5000
2026-01-01 22:45:49.74	119.99	28.87	-44.5	-47.4	16.9	0.00e+00	0	44	0	705691648	61	4768
2026-01-01 22:45:50.49	120.21	28.81	-44.5	-47.2	17.1	0.00e+00	0	44	0	706740224	60	4964
2026-01-01 22:45:52.09	120.69	28.69	-45.0	-47.9	16.4	0.00e+00	0	44	0	709885952	60	5363
2026-01-01 22:45:52.67	120.86	28.64	-45.3	-48.3	16.0	0.00e+00	0	44	0	710934528	61	5326
2026-01-01 22:45:54.47	121.40	28.50	-45.9	-49.2	15.2	0.00e+00	0	44	0	714080256	62	5589
2026-01-01 22:45:55.04	121.56	28.45	-46.0	-49.4	15.0	0.00e+00	0	44	0	715128832	62	5664
2026-01-01 22:45:56.62	122.03	28.32	-45.4	-48.6	15.8	0.00e+00	0	43	0	718274560	62	5168
2026-01-01 22:45:57.22	122.20	28.27	-45.5	-48.7	15.6	0.00e+00	0	44	0	719323136	62	5231
2026-01-01 22:45:58.80	122.66	28.14	-45.0	-47.9	16.4	0.00e+00	0	44	0	722468864	62	4802
2026-01-01 22:45:59.37	122.82	28.09	-44.9	-47.8	16.5	0.00e+00	0	44	0	723517440	61	4988
2026-01-01 22:46:00.98	123.28	27.96	-44.9	-47.7	16.6	0.00e+00	0	44	0	726663168	61	4965
2026-01-01 22:46:01.76	123.50	27.89	-44.9	-47.8	16.5	0.00e+00	0	44	0	727711744	61	5008
2026-01-01 22:46:03.04	123.86	27.78	-45.0	-47.9	16.3	0.00e+00	0	44	0	729808896	61	5097
2026-01-01 22:46:03.76	124.07	27.72	-45.4	-48.5	15.8	0.00e+00	0	44	0	731906048	61	5429
2026-01-01 22:46:05.05	124.43	27.61	-45.8	-49.0	15.3	0.00e+00	0	44	0	734003200	62	5422
2026-01-01 22:46:05.77	124.63	27.55	-45.9	-49.1	15.2	7.00e-07	0	44	0	735051776	62	5526
2026-01-01 22:46:07.05	124.98	27.44	-46.7	-50.4	14.0	0.00e+00	0	44	0	738197504	63	6030
2026-01-01 22:46:07.77	125.18	27.37	-46.7	-50.6	13.6	6.80e-06	0	44	0	739246080	64	5803
2026-01-01 22:46:09.06	125.53	27.26	-46.7	-50.6	13.7	9.10e-06	0	44	0	741343232	64	5799
2026-01-01 22:46:10.17	125.84	27.16	-45.9	-49.3	15.0	7.00e-07	0	44	0	743440384	63	5305
2026-01-01 22:46:11.35	126.16	27.06	-45.6	-48.8	15.5	0.00e+00	0	44	0	745537536	63	5018
2026-01-01 22:46:12.40	126.44	26.96	-45.4	-48.5	15.8	0.00e+00	0	44	0	747634688	62	5145
2026-01-01 22:46:13.26	126.67	26.89	-45.8	-49.2	15.2	0.00e+00	0	44	0	749731840	62	5532
2026-01-01 22:46:14.41	126.97	26.78	-46.5	-50.4	13.9	0.00e+00	0	44	0	751828992	64	5663
2026-01-01 22:46:15.27	127.20	26.71	-46.7	-50.6	13.6	6.10e-06	0	44	0	752877568	64	5820
2026-01-01 22:46:16.41	127.50	26.60	-46.7	-50.7	13.6	1.22e-05	0	44	0	754974720	64	5899
2026-01-01 22:46:17.27	127.73	26.53	-46.0	-49.5	14.8	5.30e-06	0	44	0	757071872	64	5108
2026-01-01 22:46:18.42	128.02	26.42	-45.6	-48.8	15.5	0.00e+00	0	43	0	759169024	62	5311
2026-01-01 22:46:19.28	128.25	26.34	-45.4	-48.5	15.8	0.00e+00	0	44	0	760217600	62	5149
2026-01-01 22:46:20.42	128.54	26.24	-45.3	-48.4	15.9	0.00e+00	0	44	0	762314752	62	5092
2026-01-01 22:46:21.28	128.76	26.16	-45.7	-49.0	15.3	0.00e+00	0	44	0	764411904	62	5442
2026-01-01 22:46:22.57	129.09	26.04	-46.2	-49.9	14.4	7.00e-07	0	44	0	766509056	63	5677
2026-01-01 22:46:23.29	129.27	25.97	-46.3	-50.1	14.1	2.20e-06	0	44	0	768606208	63	5842
2026-01-01 22:46:24.57	129.59	25.85	-46.0	-49.5	14.9	1.50e-06	0	44	0	770703360	63	5407
2026-01-01 22:46:25.29	129.77	25.79	-45.7	-49.1	15.2	0.00e+00	0	44	0	771751936	63	5185
2026-01-01 22:46:26.58	130.09	25.67	-45.9	-49.3	15.0	0.00e+00	0	44	0	773849088	63	5287
2026-01-01 22:46:27.29	130.27	25.60	-46.1	-49.5	14.8	0.00e+00	0	44	0	775946240	63	5429
2026-01-01 22:46:28.58	130.58	25.48	-46.6	-50.5	13.8	7.00e-07	0	44	0	778043392	64	5754
2026-01-01 22:46:29.29	130.76	25.41	-46.9	-50.9	13.3	1.22e-05	0	44	0	779091968	64	6038
2026-01-01 22:46:30.54	131.06	25.29	-47.1	-51.4	12.8	5.95e-05	0	44	0	782237696	65	6004
2026-01-01 22:46:31.39	131.26	25.21	-46.9	-50.9	13.3	5.87e-05	0	44	0	783286272	65	5695
2026-01-01 22:46:32.54	131.54	25.10	-46.2	-49.7	14.5	7.00e-07	0	44	0	785383424	64	5271
2026-01-01 22:46:33.40	131.75	25.02	-45.7	-49.0	15.3	0.00e+00	0	44	0	787480576	63	5104
2026-01-01 22:46:34.54	132.02	24.92	-45.5	-48.5	15.8	0.00e+00	0	44	0	789577728	62	5156
2026-01-01 22:46:35.40	132.22	24.83	-45.9	-49.3	15.0	0.00e+00	0	44	0	790626304	62	5634
2026-01-01 22:46:36.55	132.49	24.72	-46.3	-49.8	14.5	0.00e+00	0	44	0	792723456	63	5654
2026-01-01 22:46:37.41	132.69	24.64	-46.5	-50.3	14.1	1.50e-06	0	44	0	794820608	63	5933
2026-01-01 22:46:38.55	132.95	24.53	-46.1	-49.6	14.7	7.00e-07	0	44	0	796917760	63	5528
2026-01-01 22:46:39.41	133.15	24.45	-45.3	-48.3	16.0	7.00e-07	0	44	0	799014912	62	5013
2026-01-01 22:46:40.55	133.41	24.34	-44.7	-47.5	16.7	0.00e+00	0	44	0	801112064	61	4861
2026-01-01 22:46:41.41	133.61	24.26	-44.5	-47.3	16.9	0.00e+00	0	44	0	802160640	61	4751
2026-01-01 22:46:42.56	133.86	24.15	-44.9	-47.8	16.6	0.00e+00	0	44	0	804257792	61	4992
2026-01-01 22:46:43.42	134.06	24.07	-45.2	-48.2	16.1	0.00e+00	0	44	0	806354944	61	5262
2026-01-01 22:46:44.56	134.31	23.96	-45.7	-49.0	15.4	0.00e+00	0	44	0	808452096	61	5725
2026-01-01 22:46:45.42	134.50	23.87	-45.8	-49.1	15.2	0.00e+00	0	44	0	809500672	62	5523
2026-01-01 22:46:46.57	134.76	23.76	-45.7	-49.0	15.3	0.00e+00	0	44	0	811597824	62	5442
2026-01-01 22:46:47.68	135.00	23.66	-45.2	-48.2	16.1	0.00e+00	0	44	0	813694976	62	4936
2026-01-01 22:46:48.72	135.23	23.56	-44.7	-47.5	16.7	0.00e+00	0	44	0	815792128	61	4841
2026-01-01 22:46:49.71	135.44	23.46	-44.7	-47.5	16.7	0.00e+00	0	44	0	817889280	61	4858
2026-01-01 22:46:50.72	135.66	23.36	-45.0	-48.0	16.3	0.00e+00	0	44	0	819986432	61	5117
2026-01-01 22:46:51.72	135.87	23.27	-45.6	-48.8	15.5	0.00e+00	0	44	0	822083584	61	5638
2026-01-01 22:46:52.72	136.08	23.17	-46.1	-49.7	14.6	7.00e-07	0	44	0	823132160	62	5863
2026-01-01 22:46:53.73	136.30	23.07	-46.6	-50.4	13.9	0.00e+00	0	44	0	825229312	63	6015
2026-01-01 22:46:54.73	136.51	22.97	-46.5	-50.3	14.0	4.50e-06	0	43	0	827326464	63	5930
2026-01-01 22:46:55.73	136.72	22.88	-46.0	-49.4	14.8	7.00e-07	0	44	0	829423616	63	5397
2026-01-01 22:46:56.74	136.93	22.78	-45.4	-48.6	15.6	0.00e+00	0	44	0	830472192	62	5161
2026-01-01 22:46:57.74	137.13	22.68	-45.0	-47.9	16.3	0.00e+00	0	44	0	832569344	62	4809
2026-01-01 22:46:58.75	137.34	22.58	-44.6	-47.4	16.8	0.00e+00	0	44	0	834666496	61	4802
2026-01-01 22:46:59.81	137.55	22.48	-44.5	-47.3	16.8	0.00e+00	0	44	0	836763648	61	4754
2026-01-01 22:47:00.69	137.73	22.40	-44.5	-47.3	16.9	0.00e+00	0	43	0	838860800	60	4992
2026-01-01 22:47:01.83	137.96	22.29	-44.4	-47.2	17.0	0.00e+00	0	44	0	840957952	60	4951
2026-01-01 22:47:02.70	138.14	22.20	-43.9	-46.5	17.6	0.00e+00	0	44	0	842006528	59	4856
2026-01-01 22:47:03.84	138.36	22.09	-43.5	-46.0	18.0	0.00e+00	0	44	0	844103680	59	4586
2026-01-01 22:47:04.70	138.53	22.01	-43.1	-45.5	18.5	0.00e+00	0	44	0	846200832	58	4580
2026-01-01 22:47:05.85	138.76	21.90	-42.7	-45.0	19.0	0.00e+00	0	44	0	848297984	57	4559
2026-01-01 22:47:06.70	138.92	21.81	-42.8	-45.1	18.9	0.00e+00	0	43	0	849346560	57	4646
2026-01-01 22:47:07.85	139.15	21.70	-43.1	-45.5	18.6	0.00e+00	0	43	0	851443712	57	4826
2026-01-01 22:47:09.01	139.37	21.59	-43.7	-46.3	17.8	0.00e+00	0	44	0	853540864	58	4988
2026-01-01 22:47:10.13	139.58	21.48	-44.3	-47.0	17.2	0.00e+00	0	44	0	855638016	59	5121
2026-01-01 22:47:10.98	139.75	21.40	-44.8	-47.6	16.6	0.00e+00	0	44	0	857735168	60	5209
2026-01-01 22:47:12.50	140.03	21.25	-45.2	-48.3	16.0	0.00e+00	0	44	0	860880896	61	5285
2026-01-01 22:47:13.21	140.17	21.19	-45.1	-48.2	16.0	0.00e+00	0	44	0	861929472	61	5239
2026-01-01 22:47:14.50	140.41	21.06	-44.7	-47.5	16.7	0.00e+00	0	44	0	864026624	61	4865
2026-01-01 22:47:15.22	140.54	20.99	-44.5	-47.4	16.8	0.00e+00	0	44	0	866123776	61	4761
2026-01-01 22:47:16.51	140.78	20.87	-44.3	-47.1	17.1	0.00e+00	0	44	0	868220928	60	4885
2026-01-01 22:47:17.34	140.93	20.79	-44.1	-46.8	17.4	0.00e+00	0	44	0	869269504	60	4733
2026-01-01 22:47:18.48	141.14	20.68	-44.0	-46.6	17.5	0.00e+00	0	44	0	871366656	59	4916
2026-01-01 22:47:19.34	141.29	20.60	-43.9	-46.5	17.6	0.00e+00	0	44	0	873463808	59	4862
2026-01-01 22:47:20.49	141.50	20.49	-43.8	-46.4	17.7	0.00e+00	0	44	0	875560960	59	4793
2026-01-01 22:47:21.35	141.65	20.40	-43.9	-46.6	17.5	0.00e+00	0	44	0	877658112	59	4879
2026-01-01 22:47:22.49	141.85	20.30	-43.7	-46.3	17.8	0.00e+00	0	43	0	879755264	59	4715
2026-01-01 22:47:23.35	142.00	20.21	-43.6	-46.2	17.9	0.00e+00	0	43	0	880803840	59	4666
2026-01-01 22:47:24.50	142.21	20.10	-43.7	-46.3	17.8	0.00e+00	0	44	0	882900992	59	4715
2026-01-01 22:47:25.36	142.36	20.02	-43.7	-46.2	17.9	0.00e+00	0	44	0	884998144	59	4684
2026-01-01 22:47:26.51	142.56	19.91	-43.6	-46.1	17.9	0.00e+00	0	43	0	887095296	59	4617
2026-01-01 22:47:27.37	142.70	19.83	-43.5	-46.0	18.0	0.00e+00	0	44	0	888143872	59	4567
2026-01-01 22:47:28.51	142.90	19.72	-43.5	-46.0	18.0	0.00e+00	0	44	0	890241024	59	4590
2026-01-01 22:47:29.37	143.04	19.64	-43.5	-46.0	18.1	0.00e+00	0	43	0	892338176	58	4843
2026-01-01 22:47:30.51	143.24	19.53	-43.4	-45.9	18.1	0.00e+00	0	44	0	894435328	58	4800
2026-01-01 22:47:31.37	143.38	19.45	-43.4	-45.9	18.2	0.00e+00	0	44	0	895483904	58	4762
2026-01-01 22:47:32.52	143.57	19.34	-43.5	-46.0	18.0	0.00e+00	0	44	0	897581056	58	4849
2026-01-01 22:47:33.38	143.72	19.26	-43.5	-46.1	18.0	0.00e+00	0	44	0	899678208	58	4875
2026-01-01 22:47:34.52	143.90	19.15	-43.7	-46.4	17.7	0.00e+00	0	44	0	901775360	58	5045
2026-01-01 22:47:35.67	144.09	19.04	-43.7	-46.4	17.6	0.00e+00	0	44	0	903872512	58	5091
2026-01-01 22:47:36.53	144.23	18.96	-43.8	-46.5	17.6	0.00e+00	0	44	0	905969664	58	5132
2026-01-01 22:47:37.67	144.42	18.86	-43.7	-46.4	17.7	0.00e+00	0	44	0	908066816	58	5089
2026-01-01 22:47:38.53	144.56	18.78	-43.5	-46.1	17.9	0.00e+00	0	43	0	909115392	58	4905
2026-01-01 22:47:39.67	144.74	18.67	-43.2	-45.8	18.2	0.00e+00	0	44	0	911212544	58	4716
2026-01-01 22:47:40.54	144.88	18.59	-43.0	-45.5	18.5	0.00e+00	0	43	0	913309696	58	4583
2026-01-01 22:47:41.70	145.06	18.48	-42.6	-44.9	19.0	0.00e+00	0	43	0	915406848	57	4541
2026-01-01 22:47:42.56	145.19	18.40	-42.6	-45.0	18.9	0.00e+00	0	44	0	916455424	57	4547
2026-01-01 22:47:43.70	145.37	18.29	-42.7	-45.0	18.9	0.00e+00	0	44	0	919601152	57	4594
2026-01-01 22:47:44.56	145.51	18.21	-42.7	-45.0	18.9	0.00e+00	0	43	0	920649728	57	4581
2026-01-01 22:47:45.70	145.68	18.11	-43.0	-45.4	18.6	0.00e+00	0	44	0	922746880	57	4774
2026-01-01 22:47:46.56	145.81	18.03	-43.0	-45.4	18.5	0.00e+00	0	44	0	924844032	57	4805
2026-01-01 22:47:47.71	145.99	17.92	-43.1	-45.5	18.4	0.00e+00	0	44	0	926941184	57	4854
2026-01-01 22:47:48.57	146.12	17.84	-43.3	-45.7	18.3	0.00e+00	0	44	0	927989760	57	4965
2026-01-01 22:47:49.71	146.29	17.74	-43.2	-45.7	18.3	0.00e+00	0	43	0	930086912	57	4954
2026-01-01 22:47:50.57	146.42	17.66	-43.4	-45.9	18.1	0.00e+00	0	44	0	932184064	57	5052
2026-01-01 22:47:51.72	146.59	17.55	-43.4	-45.9	18.0	0.00e+00	0	44	0	934281216	57	5097
2026-01-01 22:47:52.58	146.72	17.47	-43.3	-45.7	18.3	0.00e+00	0	44	0	935329792	57	4967
2026-01-01 22:47:53.73	146.89	17.37	-43.5	-46.0	17.9	0.00e+00	0	44	0	937426944	57	5142
2026-01-01 22:47:54.59	147.01	17.29	-43.6	-46.1	17.9	0.00e+00	0	43	0	939524096	57	5195
2026-01-01 22:47:55.75	147.18	17.18	-43.8	-46.4	17.6	0.00e+00	0	44	0	941621248	58	5063
2026-01-01 22:47:56.61	147.31	17.11	-44.0	-46.6	17.5	0.00e+00	0	44	0	943718400	58	5181
2026-01-01 22:47:57.75	147.47	17.00	-44.1	-46.8	17.2	0.00e+00	0	44	0	945815552	58	5319
2026-01-01 22:47:59.04	147.65	16.89	-44.4	-47.2	16.8	0.00e+00	0	44	0	947912704	59	5276
2026-01-01 22:47:59.76	147.76	16.82	-44.6	-47.5	16.6	0.00e+00	0	44	0	948961280	59	5424
2026-01-01 22:48:01.05	147.94	16.70	-44.8	-47.9	16.2	0.00e+00	0	44	0	952107008	60	5394
2026-01-01 22:48:01.76	148.04	16.64	-44.9	-48.0	16.1	0.00e+00	0	44	0	953155584	60	5418
2026-01-01 22:48:03.05	148.22	16.52	-44.7	-47.7	16.4	0.00e+00	0	44	0	955252736	60	5253
2026-01-01 22:48:03.77	148.32	16.46	-44.8	-47.9	16.2	0.00e+00	0	44	0	956301312	60	5392
2026-01-01 22:48:05.06	148.49	16.34	-45.0	-48.1	16.1	0.00e+00	0	44	0	959447040	60	5483
2026-01-01 22:48:05.78	148.59	16.28	-44.8	-47.8	16.3	0.00e+00	0	44	0	960495616	60	5338
2026-01-01 22:48:07.06	148.77	16.17	-44.9	-47.9	16.3	0.00e+00	0	44	0	962592768	60	5358
2026-01-01 22:48:07.78	148.87	16.10	-44.9	-47.9	16.3	0.00e+00	0	43	0	964689920	60	5362
2026-01-01 22:48:09.07	149.04	15.99	-44.7	-47.6	16.5	0.00e+00	0	43	0	966787072	60	5179
2026-01-01 22:48:09.78	149.13	15.92	-44.6	-47.4	16.7	0.00e+00	0	44	0	967835648	60	5060
2026-01-01 22:48:11.07	149.31	15.81	-44.1	-46.8	17.3	0.00e+00	0	44	0	969932800	60	4711
2026-01-01 22:48:11.79	149.40	15.75	-44.3	-47.0	17.1	0.00e+00	0	44	0	972029952	60	4842
2026-01-01 22:48:13.08	149.57	15.63	-44.3	-47.0	17.0	0.00e+00	0	43	0	974127104	60	4869
2026-01-01 22:48:14.02	149.69	15.55	-44.3	-47.1	17.0	0.00e+00	0	44	0	976224256	60	4895
2026-01-01 22:48:15.34	149.87	15.43	-44.5	-47.6	16.6	0.00e+00	0	43	0	978321408	60	5162
2026-01-01 22:48:16.05	149.96	15.37	-44.6	-47.6	16.5	0.00e+00	0	44	0	979369984	60	5197
2026-01-01 22:48:17.71	150.17	15.23	-44.6	-47.6	16.5	0.00e+00	0	44	0	982515712	60	5200
2026-01-01 22:48:18.28	150.24	15.18	-44.7	-47.7	16.5	0.00e+00	0	43	0	983564288	60	5238
2026-01-01 22:48:20.11	150.47	15.02	-45.0	-48.0	16.1	0.00e+00	0	44	0	987758592	60	5446
2026-01-01 22:48:20.68	150.55	14.97	-44.9	-47.9	16.2	0.00e+00	0	44	0	988807168	60	5367
2026-01-01 22:48:22.69	150.80	14.79	-44.6	-47.4	16.7	0.00e+00	0	44	0	991952896	60	5078
2026-01-01 22:48:23.71	150.92	14.71	-44.4	-47.2	16.9	0.00e+00	0	44	0	994050048	60	4935
2026-01-01 22:48:24.71	151.05	14.62	-44.3	-47.0	17.0	0.00e+00	0	43	0	996147200	60	4865
2026-01-01 22:48:25.71	151.17	14.53	-44.1	-46.8	17.2	0.00e+00	0	44	0	998244352	60	4748
2026-01-01 22:48:26.74	151.29	14.45	-43.9	-46.6	17.4	0.00e+00	0	44	0	999292928	59	4909
2026-01-01 22:48:27.74	151.41	14.36	-44.0	-46.7	17.3	0.00e+00	0	43	0	1001390080	59	4930
2026-01-01 22:48:28.74	151.54	14.28	-43.7	-46.4	17.6	0.00e+00	0	43	0	1003487232	59	4771
2026-01-01 22:48:29.74	151.65	14.19	-43.9	-46.6	17.4	0.00e+00	0	44	0	1005584384	59	4873
2026-01-01 22:48:30.74	151.77	14.11	-44.0	-46.8	17.2	0.00e+00	0	44	0	1007681536	59	5000
2026-01-01 22:48:31.74	151.89	14.02	-44.2	-47.0	17.0	0.00e+00	0	44	0	1008730112	59	5115
2026-01-01 22:48:32.75	152.01	13.94	-44.4	-47.3	16.7	0.00e+00	0	44	0	1010827264	59	5292
2026-01-01 22:48:33.75	152.13	13.85	-44.4	-47.3	16.7	0.00e+00	0	44	0	1012924416	59	5295
2026-01-01 22:48:34.75	152.24	13.77	-44.5	-47.4	16.6	0.00e+00	0	44	0	1015021568	59	5363
2026-01-01 22:48:35.76	152.36	13.68	-44.6	-47.5	16.5	0.00e+00	0	44	0	1017118720	59	5438
2026-01-01 22:48:36.76	152.48	13.60	-44.6	-47.5	16.4	0.00e+00	0	44	0	1018167296	59	5458
2026-01-01 22:48:37.76	152.59	13.51	-44.4	-47.4	16.7	0.00e+00	0	44	0	1020264448	60	5062
2026-01-01 22:48:38.77	152.71	13.43	-44.3	-47.3	16.8	0.00e+00	0	44	0	1022361600	60	5003
2026-01-01 22:48:39.77	152.82	13.35	-44.3	-47.2	16.8	0.00e+00	0	44	0	1024458752	60	4962
2026-01-01 22:48:40.77	152.93	13.26	-44.1	-47.0	17.0	0.00e+00	0	44	0	1026555904	60	4827
2026-01-01 22:48:41.77	153.04	13.18	-44.0	-46.9	17.1	0.00e+00	0	44	0	1027604480	60	4777
2026-01-01 22:48:42.78	153.16	13.10	-43.9	-46.7	17.2	0.00e+00	0	44	0	1029701632	59	4940
2026-01-01 22:48:43.78	153.27	13.02	-44.0	-46.7	17.2	0.00e+00	0	43	0	1031798784	59	4976
2026-01-01 22:48:44.78	153.38	12.93	-44.0	-46.8	17.1	0.00e+00	0	44	0	1033895936	59	5005
2026-01-01 22:48:45.78	153.49	12.85	-44.0	-46.8	17.2	0.00e+00	0	44	0	1034944512	59	4994
2026-01-01 22:48:46.79	153.60	12.77	-44.1	-46.8	17.1	0.00e+00	0	44	0	1037041664	59	5040
2026-01-01 22:48:47.79	153.71	12.69	-44.2	-47.1	16.9	0.00e+00	0	43	0	1039138816	59	5162
2026-01-01 22:48:48.79	153.81	12.60	-44.3	-47.2	16.8	0.00e+00	0	44	0	1041235968	59	5219
2026-01-01 22:48:49.79	153.92	12.52	-44.4	-47.3	16.6	0.00e+00	0	44	0	1043333120	59	5308
2026-01-01 22:48:50.80	154.03	12.44	-44.5	-47.4	16.5	0.00e+00	0	44	0	1044381696	59	5377
2026-01-01 22:48:51.80	154.14	12.36	-44.7	-47.8	16.3	0.00e+00	0	43	0	1046478848	60	5288
2026-01-01 22:48:52.80	154.24	12.28	-44.8	-48.0	16.1	0.00e+00	0	44	0	1048576000	60	5407
2026-01-01 22:48:53.81	154.35	12.20	-44.7	-47.8	16.3	0.00e+00	0	44	0	1050673152	60	5289
2026-01-01 22:48:54.81	154.45	12.12	-44.7	-47.8	16.2	0.00e+00	0	44	0	1052770304	60	5307
2026-01-01 22:48:55.81	154.56	12.04	-44.6	-47.7	16.3	0.00e+00	0	44	0	1053818880	60	5240
2026-01-01 22:48:56.81	154.66	11.96	-44.5	-47.6	16.4	0.00e+00	0	44	0	1055916032	60	5210
2026-01-01 22:48:57.82	154.76	11.88	-44.5	-47.6	16.4	0.00e+00	0	44	0	1058013184	60	5205
2026-01-01 22:48:58.82	154.86	11.80	-44.5	-47.6	16.4	0.00e+00	0	44	0	1060110336	60	5165
2026-01-01 22:48:59.90	154.97	11.71	-44.6	-47.7	16.4	0.00e+00	0	44	0	1062207488	60	5222
2026-01-01 22:49:00.78	155.06	11.64	-44.5	-47.6	16.4	0.00e+00	0	44	0	1063256064	60	5168
2026-01-01 22:49:01.92	155.18	11.55	-44.5	-47.5	16.5	0.00e+00	0	44	0	1065353216	60	5135
2026-01-01 22:49:02.78	155.26	11.48	-44.4	-47.3	16.7	0.00e+00	0	44	0	1067450368	60	4993
2026-01-01 22:49:03.93	155.38	11.39	-44.5	-47.4	16.6	0.00e+00	0	44	0	1069547520	60	5047
2026-01-01 22:49:04.89	155.47	11.32	-44.5	-47.4	16.6	0.00e+00	0	44	0	1071644672	60	5061
2026-01-01 22:49:05.89	155.57	11.24	-44.7	-47.6	16.3	0.00e+00	0	44	0	1072693248	60	5214
2026-01-01 22:49:06.89	155.67	11.16	-44.6	-47.6	16.4	0.00e+00	0	44	0	1074790400	60	5204
2026-01-01 22:49:07.89	155.77	11.08	-44.7	-47.8	16.2	0.00e+00	0	44	0	1076887552	60	5293
2026-01-01 22:49:08.90	155.87	11.00	-44.7	-47.7	16.3	0.00e+00	0	44	0	1078984704	60	5245
2026-01-01 22:49:09.90	155.96	10.92	-44.7	-47.7	16.3	0.00e+00	0	44	0	1081081856	60	5254
2026-01-01 22:49:10.90	156.06	10.85	-44.6	-47.5	16.4	0.00e+00	0	44	0	1082130432	60	5156
2026-01-01 22:49:11.91	156.16	10.77	-44.7	-47.7	16.3	0.00e+00	0	44	0	1084227584	60	5226
2026-01-01 22:49:12.91	156.25	10.69	-44.6	-47.6	16.3	0.00e+00	0	44	0	1086324736	60	5218
2026-01-01 22:49:13.91	156.35	10.61	-44.6	-47.6	16.3	0.00e+00	0	44	0	1088421888	60	5211
2026-01-01 22:49:14.91	156.44	10.54	-44.5	-47.5	16.4	0.00e+00	0	44	0	1090519040	60	5149
2026-01-01 22:49:15.91	156.53	10.46	-44.5	-47.5	16.4	0.00e+00	0	44	0	1091567616	60	5123
2026-01-01 22:49:16.92	156.63	10.38	-44.5	-47.4	16.6	0.00e+00	0	44	0	1093664768	60	5091
2026-01-01 22:49:17.92	156.72	10.31	-44.5	-47.4	16.5	0.00e+00	0	44	0	1095761920	60	5089
2026-01-01 22:49:18.92	156.81	10.23	-44.5	-47.4	16.5	2.43e-03	0	44	0	1097859072	60	5055
2026-01-01 22:49:20.12	156.92	10.14	-44.4	-47.2	16.6	0.00e+00	0	44	0	1099956224	60	4981
2026-01-01 22:49:21.01	157.00	10.07	-44.4	-47.3	16.6	0.00e+00	0	44	0	1101004800	60	5005
2026-01-01 22:49:22.16	157.11	9.99	-44.3	-47.2	16.7	0.00e+00	0	43	0	1104150528	60	4950
2026-01-01 22:49:23.02	157.19	9.92	-44.4	-47.2	16.6	0.00e+00	0	44	0	1105199104	60	4964
2026-01-01 22:49:24.16	157.29	9.83	-44.2	-47.1	16.8	0.00e+00	0	44	0	1107296256	60	4888
2026-01-01 22:49:25.02	157.37	9.77	-44.3	-47.2	16.7	0.00e+00	0	44	0	1109393408	60	4930
2026-01-01 22:49:26.17	157.47	9.68	-44.3	-47.1	16.8	0.00e+00	0	44	0	1111490560	60	4902
2026-01-01 22:49:27.03	157.55	9.62	-44.3	-47.2	16.7	0.00e+00	0	44	0	1112539136	60	4928
2026-01-01 22:49:28.17	157.65	9.53	-44.1	-46.9	17.0	0.00e+00	0	44	0	1114636288	60	4786
2026-01-01 22:49:29.03	157.72	9.47	-44.2	-47.1	16.8	0.00e+00	0	44	0	1116733440	60	4883
2026-01-01 22:49:30.17	157.82	9.39	-44.2	-47.1	16.8	0.00e+00	0	44	0	1118830592	60	4882
2026-01-01 22:49:31.03	157.90	9.32	-44.2	-47.0	16.8	0.00e+00	0	44	0	1119879168	60	4848
2026-01-01 22:49:32.18	157.99	9.24	-44.3	-47.2	16.7	0.00e+00	0	44	0	1121976320	60	4946
2026-01-01 22:49:33.04	158.07	9.17	-44.4	-47.3	16.5	0.00e+00	0	44	0	1124073472	60	5035
2026-01-01 22:49:34.27	158.17	9.08	-44.6	-47.6	16.3	0.00e+00	0	44	0	1126170624	60	5194
2026-01-01 22:49:35.12	158.25	9.02	-44.7	-47.7	16.2	0.00e+00	0	44	0	1128267776	60	5247
2026-01-01 22:49:36.27	158.34	8.94	-49.8	-62.0	4.2	1.07e+00	0	44	104	1129316352	70	15293
2026-01-01 22:49:37.13	158.42	8.87	-49.8	-65.1	3.8	1.49e+00	0	44	104	1129316352	70	21844
2026-01-01 22:49:38.39	158.52	8.78	-50.1	-65.6	3.8	1.49e+00	0	44	104	1129316352	70	23165
2026-01-01 22:49:39.11	158.58	8.73	-50.1	-65.6	3.8	1.49e+00	0	44	104	1129316352	71	21935
2026-01-01 22:49:40.61	158.71	8.62	-50.3	-65.7	3.8	1.49e+00	0	44	104	1129316352	71	22127
2026-01-01 22:49:41.32	158.77	8.57	-49.8	-65.8	3.8	1.49e+00	0	44	104	1129316352	71	22332
2026-01-01 22:49:42.68	158.88	8.47	-50.6	-65.8	3.8	1.49e+00	0	44	104	1129316352	71	22346
2026-01-01 22:49:43.40	158.94	8.42	-50.5	-65.9	3.8	1.49e+00	0	44	104	1129316352	71	22563
2026-01-01 22:49:44.75	159.05	8.32	-50.6	-65.9	3.8	1.49e+00	0	44	104	1129316352	71	22553
2026-01-01 22:49:45.47	159.10	8.27	-50.6	-65.8	3.8	1.49e+00	0	44	104	1129316352	71	22499
2026-01-01 22:49:46.83	159.21	8.17	-50.7	-65.9	3.8	1.49e+00	0	44	104	1129316352	72	21284
2026-01-01 22:49:47.54	159.27	8.12	-50.7	-65.9	3.8	1.49e+00	0	44	104	1129316352	72	21310
2026-01-01 22:49:48.83	159.37	8.03	-50.6	-65.9	3.8	1.49e+00	0	44	104	1129316352	72	21382
2026-01-01 22:49:49.55	159.43	7.98	-50.7	-65.9	3.8	1.49e+00	0	44	104	1129316352	72	21384
2026-01-01 22:49:50.84	159.53	7.89	-50.7	-65.9	3.8	1.49e+00	0	44	104	1129316352	72	21399
2026-01-01 22:49:51.56	159.59	7.83	-50.4	-65.9	3.8	1.49e+00	0	44	104	1129316352	72	21387
2026-01-01 22:49:52.85	159.69	7.74	-50.5	-65.9	3.8	1.49e+00	0	44	104	1129316352	72	21386
2026-01-01 22:49:53.57	159.75	7.69	-50.7	-65.9	3.8	1.49e+00	0	44	104	1129316352	72	21450
2026-01-01 22:49:54.86	159.85	7.60	-50.7	-65.9	3.8	1.49e+00	0	44	104	1129316352	72	21453
2026-01-01 22:49:55.57	159.90	7.55	-50.5	-65.9	3.8	1.49e+00	0	44	104	1129316352	72	21457
2026-01-01 22:49:56.87	160.00	7.46	-50.7	-65.9	3.8	1.49e+00	0	44	104	1129316352	72	21392
2026-01-01 22:49:57.59	160.06	7.41	-50.8	-65.9	3.8	1.49e+00	0	44	104	1129316352	72	21405
2026-01-01 22:49:58.88	160.16	7.32	-50.2	-65.9	3.8	1.49e+00	0	44	104	1129316352	72	21357
2026-01-01 22:49:59.59	160.21	7.27	-50.4	-65.9	3.8	1.49e+00	0	44	104	1129316352	72	21348
2026-01-01 22:50:00.89	160.31	7.18	-50.4	-65.9	3.8	1.49e+00	0	44	104	1129316352	72	21271
2026-01-01 22:50:01.60	160.36	7.13	-50.4	-65.8	3.8	1.49e+00	0	44	104	1129316352	72	21212
2026-01-01 22:50:02.89	160.46	7.04	-50.4	-65.8	3.8	1.49e+00	0	44	104	1129316352	72	21181
2026-01-01 22:50:03.61	160.51	6.99	-50.4	-65.9	3.8	1.49e+00	0	44	104	1129316352	72	21285
2026-01-01 22:50:04.90	160.61	6.90	-50.4	-65.9	3.8	1.49e+00	0	44	104	1129316352	72	21280
2026-01-01 22:50:05.62	160.66	6.85	-50.4	-65.8	3.8	1.49e+00	0	44	104	1129316352	72	21231
2026-01-01 22:50:06.91	160.76	6.77	-50.4	-65.8	3.8	1.49e+00	0	44	104	1129316352	72	21219
2026-01-01 22:50:07.63	160.81	6.72	-50.4	-65.8	3.8	1.49e+00	0	44	104	1129316352	72	21187
2026-01-01 22:50:08.92	160.90	6.63	-50.4	-65.8	3.8	1.49e+00	0	44	104	1129316352	72	21201
2026-01-01 22:50:09.63	160.95	6.58	-50.4	-65.9	3.8	1.49e+00	0	44	104	1129316352	72	21284
2026-01-01 22:50:10.92	161.05	6.49	-50.4	-65.8	3.8	1.49e+00	0	44	104	1129316352	72	21145
2026-01-01 22:50:11.75	161.11	6.44	-50.4	-65.8	3.8	1.49e+00	0	44	104	1129316352	72	21138
2026-01-01 22:50:12.90	161.19	6.36	-50.4	-65.8	3.8	1.49e+00	0	44	104	1129316352	72	21199
2026-01-01 22:50:13.76	161.25	6.30	-50.4	-65.8	3.8	1.49e+00	0	44	104	1129316352	72	21130
2026-01-01 22:50:14.91	161.33	6.22	-50.4	-65.8	3.8	1.49e+00	0	44	104	1129316352	72	21194
2026-01-01 22:50:15.77	161.39	6.16	-50.4	-65.8	3.8	1.49e+00	0	43	104	1129316352	72	21199
2026-01-01 22:50:16.92	161.47	6.09	-50.4	-65.8	3.8	1.49e+00	0	44	104	1129316352	72	21149
2026-01-01 22:50:17.78	161.53	6.03	-50.4	-65.8	3.8	1.49e+00	0	44	104	1129316352	72	21102
2026-01-01 22:50:18.93	161.61	5.95	-50.4	-65.8	3.8	1.49e+00	0	44	104	1129316352	72	21219
2026-01-01 22:50:19.79	161.67	5.89	-50.4	-65.8	3.8	1.49e+00	0	44	104	1129316352	72	21178
2026-01-01 22:50:20.93	161.75	5.82	-50.4	-65.8	3.8	1.49e+00	0	44	104	1129316352	72	21232
2026-01-01 22:50:21.80	161.81	5.76	-50.3	-65.8	3.8	1.49e+00	0	44	104	1129316352	72	21192
