passes_logs/2026/01/01/T1/T1__20260101_234908_NOAA_21_JPSS-2_rec.log

#Pass ID: 20260101_234908_NOAA 21 (JPSS-2)
#Satellite: NOAA 21 (JPSS-2)
#Configuration: NOAA 21
#almurnet v.1.7.20251203
#Start time: 2026-01-01 23:49:10

#Version: 2.0.20230620
#Station: T1
#Location: 37.570604 lon 55.790049 lat
#TLE: 1 54234U 22150A   26001.26806856  .00000185  00000+0  10843-3 0  9990
#TLE: 2 54234  98.7484 302.3349 0001277 353.3887   6.7272 14.19530660162860

#Time	Az	El	Level	Level2	SNR	BER	BlckErr	Temp	State	Recorded	gain1	gain2
2026-01-01 23:49:10.16	15.44	5.15	-50.0	-63.3	3.8	1.49e+00	0	37	0	0	70	17744
2026-01-01 23:49:11.15	15.44	5.22	-50.0	-63.2	3.8	1.49e+00	0	37	104	0	71	16657
2026-01-01 23:49:12.16	15.43	5.29	-50.0	-63.2	3.8	1.49e+00	0	37	104	0	71	16654
2026-01-01 23:49:13.16	15.43	5.36	-50.0	-63.3	3.8	1.49e+00	0	37	104	0	71	16695
2026-01-01 23:49:14.17	15.43	5.44	-50.0	-63.2	3.8	1.49e+00	0	37	104	0	71	16623
2026-01-01 23:49:15.17	15.42	5.51	-50.0	-63.2	3.8	1.49e+00	0	37	104	0	71	16678
2026-01-01 23:49:16.29	15.42	5.59	-50.0	-63.2	3.8	1.49e+00	0	37	104	0	71	16655
2026-01-01 23:49:17.19	15.41	5.65	-50.0	-63.2	3.8	1.49e+00	0	37	104	0	71	16628
2026-01-01 23:49:18.38	15.41	5.74	-50.0	-63.3	3.8	1.49e+00	0	37	104	0	71	16748
2026-01-01 23:49:19.25	15.41	5.81	-50.0	-63.3	3.8	1.49e+00	0	37	104	0	71	16726
2026-01-01 23:49:20.61	15.40	5.90	-50.0	-63.2	3.8	1.49e+00	0	37	104	0	71	16640
2026-01-01 23:49:21.32	15.40	5.96	-50.0	-63.3	3.8	1.49e+00	0	37	104	0	71	16740
2026-01-01 23:49:22.82	15.39	6.07	-50.0	-63.3	3.8	1.49e+00	0	37	104	0	71	16724
2026-01-01 23:49:23.54	15.39	6.12	-50.0	-63.2	3.8	1.49e+00	0	37	104	0	71	16686
2026-01-01 23:49:24.89	15.39	6.22	-50.0	-63.2	3.8	1.49e+00	0	37	104	0	71	16643
2026-01-01 23:49:25.61	15.38	6.28	-50.0	-63.2	3.8	1.49e+00	0	37	104	0	71	16692
2026-01-01 23:49:26.90	15.38	6.37	-50.0	-63.3	3.8	1.49e+00	0	37	104	0	71	16749
2026-01-01 23:49:27.62	15.37	6.43	-50.0	-63.2	3.8	1.49e+00	0	38	104	0	71	16684
2026-01-01 23:49:28.91	15.37	6.52	-50.0	-63.3	3.8	1.49e+00	0	37	104	0	71	16739
2026-01-01 23:49:29.63	15.37	6.58	-50.0	-63.2	3.8	1.49e+00	0	37	104	0	71	16685
2026-01-01 23:49:30.92	15.36	6.67	-50.0	-63.3	3.8	1.49e+00	0	37	104	0	71	16706
2026-01-01 23:49:31.63	15.36	6.73	-50.0	-63.3	3.8	1.49e+00	0	38	104	0	71	16732
2026-01-01 23:49:32.93	15.35	6.83	-50.0	-63.3	3.8	1.49e+00	0	38	104	0	71	16719
2026-01-01 23:49:33.64	15.35	6.88	-50.0	-63.2	3.8	1.49e+00	0	38	104	0	71	16694
2026-01-01 23:49:34.93	15.34	6.98	-50.0	-63.3	3.8	1.49e+00	0	38	104	0	71	16720
2026-01-01 23:49:35.65	15.34	7.04	-50.0	-63.3	3.8	1.49e+00	0	38	104	0	71	16723
2026-01-01 23:49:36.94	15.33	7.13	-50.0	-63.3	3.8	1.49e+00	0	38	104	0	71	16706
2026-01-01 23:49:37.66	15.33	7.19	-50.0	-63.3	3.8	1.49e+00	0	38	104	0	71	16703
2026-01-01 23:49:38.95	15.33	7.29	-50.0	-63.3	3.8	1.49e+00	0	38	104	0	71	16730
2026-01-01 23:49:39.67	15.32	7.35	-50.0	-63.3	3.8	1.49e+00	0	38	104	0	71	16708
2026-01-01 23:49:40.96	15.32	7.45	-50.0	-63.3	3.8	1.49e+00	0	38	104	0	71	16700
2026-01-01 23:49:41.67	15.31	7.50	-50.0	-63.3	3.8	1.49e+00	0	38	104	0	71	16728
2026-01-01 23:49:42.97	15.31	7.60	-50.0	-63.3	3.8	1.49e+00	0	38	104	0	71	16709
2026-01-01 23:49:43.68	15.30	7.66	-50.0	-63.3	3.8	1.49e+00	0	38	104	0	71	16736
2026-01-01 23:49:44.97	15.30	7.76	-50.0	-63.3	3.8	1.49e+00	0	38	104	0	71	16728
2026-01-01 23:49:45.69	15.29	7.82	-50.0	-63.2	3.8	1.49e+00	0	38	104	0	71	16673
2026-01-01 23:49:46.98	15.29	7.92	-50.0	-63.3	3.8	1.49e+00	0	38	104	0	71	16719
2026-01-01 23:49:47.70	15.28	7.98	-50.0	-63.3	3.8	1.49e+00	0	38	104	0	71	16738
2026-01-01 23:49:48.99	15.28	8.08	-50.0	-63.3	3.8	1.49e+00	0	38	104	0	71	16739
2026-01-01 23:49:49.71	15.27	8.14	-50.0	-63.3	3.8	1.49e+00	0	38	104	0	71	16735
2026-01-01 23:49:51.00	15.27	8.24	-50.0	-63.3	3.8	1.49e+00	0	38	104	0	71	16769
2026-01-01 23:49:51.72	15.26	8.30	-50.0	-63.3	3.8	1.49e+00	0	38	104	0	71	16724
2026-01-01 23:49:53.01	15.26	8.41	-50.0	-63.3	3.8	1.49e+00	0	38	104	0	71	16761
2026-01-01 23:49:53.72	15.25	8.46	-50.0	-63.3	3.8	1.49e+00	0	38	104	0	71	16729
2026-01-01 23:49:55.02	15.24	8.57	-50.0	-63.3	3.8	1.49e+00	0	38	104	0	71	16733
2026-01-01 23:49:55.73	15.24	8.63	-50.0	-63.3	3.8	1.49e+00	0	38	104	0	71	16739
2026-01-01 23:49:57.02	15.23	8.73	-50.0	-63.2	3.8	1.49e+00	0	38	104	0	71	16690
2026-01-01 23:49:57.76	15.23	8.79	-50.0	-63.3	3.8	1.49e+00	0	38	104	0	71	16752
2026-01-01 23:49:59.05	15.22	8.90	-50.0	-63.3	3.8	1.49e+00	0	38	104	0	71	16724
2026-01-01 23:49:59.76	15.22	8.96	-50.0	-63.2	3.8	1.49e+00	0	38	104	0	71	16674
2026-01-01 23:50:01.06	15.21	9.07	-50.0	-63.3	3.8	1.49e+00	0	38	104	0	71	16743
2026-01-01 23:50:01.77	15.21	9.13	-50.0	-63.3	3.8	1.49e+00	0	38	104	0	71	16736
2026-01-01 23:50:03.06	15.20	9.23	-50.0	-63.2	3.8	1.49e+00	0	38	104	0	71	16685
2026-01-01 23:50:03.78	15.20	9.29	-50.0	-63.3	3.8	1.49e+00	0	38	104	0	71	16732
2026-01-01 23:50:05.07	15.19	9.40	-50.0	-63.3	3.8	1.49e+00	0	38	104	0	71	16739
2026-01-01 23:50:05.79	15.18	9.46	-50.0	-63.3	3.8	1.49e+00	0	39	104	0	71	16745
2026-01-01 23:50:07.08	15.18	9.57	-50.0	-63.3	3.8	1.49e+00	0	38	104	0	71	16797
2026-01-01 23:50:07.80	15.17	9.63	-50.0	-63.3	3.8	1.49e+00	0	38	104	0	71	16726
2026-01-01 23:50:09.09	15.16	9.74	-50.0	-63.3	3.8	1.49e+00	0	38	104	0	71	16760
2026-01-01 23:50:09.81	15.16	9.81	-50.0	-63.2	3.8	1.49e+00	0	38	104	0	71	16694
2026-01-01 23:50:11.10	15.15	9.92	-50.0	-63.3	3.8	1.49e+00	0	38	104	0	71	16725
2026-01-01 23:50:11.81	15.15	9.98	-50.0	-63.3	3.8	1.49e+00	0	38	104	0	71	16744
2026-01-01 23:50:13.11	15.14	10.09	-50.0	-63.3	3.8	1.49e+00	0	38	104	0	71	16753
2026-01-01 23:50:13.82	15.13	10.15	-50.0	-63.2	3.8	1.49e+00	0	38	104	0	71	16648
2026-01-01 23:50:15.12	15.12	10.27	-50.0	-63.3	3.8	1.49e+00	0	39	104	0	71	16754
2026-01-01 23:50:15.83	15.12	10.33	-50.0	-63.3	3.8	1.49e+00	0	38	104	0	71	16708
2026-01-01 23:50:17.12	15.11	10.44	-50.0	-63.3	3.8	1.49e+00	0	38	104	0	71	16759
2026-01-01 23:50:17.84	15.11	10.50	-50.0	-63.3	3.8	1.49e+00	0	39	104	0	71	16746
2026-01-01 23:50:19.13	15.10	10.62	-50.0	-63.3	3.8	1.49e+00	0	39	104	0	71	16763
2026-01-01 23:50:19.85	15.09	10.68	-50.0	-63.3	3.8	1.49e+00	0	39	104	0	71	16714
2026-01-01 23:50:21.14	15.08	10.80	-50.0	-63.3	3.8	1.49e+00	0	39	104	0	71	16753
2026-01-01 23:50:21.86	15.08	10.86	-50.0	-63.3	3.8	1.49e+00	0	39	104	0	71	16727
2026-01-01 23:50:23.14	15.07	10.98	-50.0	-63.3	3.8	1.49e+00	0	38	104	0	71	16741
2026-01-01 23:50:23.86	15.06	11.04	-50.0	-63.3	3.8	1.49e+00	0	39	104	0	71	16750
2026-01-01 23:50:25.15	15.05	11.16	-50.0	-63.3	3.8	1.49e+00	0	39	104	0	71	16767
2026-01-01 23:50:25.87	15.05	11.22	-50.0	-63.3	3.8	1.49e+00	0	39	104	0	71	16771
2026-01-01 23:50:27.16	15.04	11.34	-50.0	-63.3	3.8	1.49e+00	0	38	104	0	71	16780
2026-01-01 23:50:27.88	15.03	11.41	-50.0	-63.3	3.8	1.49e+00	0	39	104	0	71	16738
2026-01-01 23:50:29.17	15.02	11.52	-50.0	-63.3	3.8	1.49e+00	0	39	104	0	71	16750
2026-01-01 23:50:29.89	15.02	11.59	-50.0	-63.3	3.8	1.49e+00	0	39	104	0	71	16779
2026-01-01 23:50:31.18	15.01	11.71	-50.0	-63.3	3.8	1.49e+00	0	39	104	0	71	16729
2026-01-01 23:50:31.96	15.00	11.78	-50.0	-63.3	3.8	1.49e+00	0	39	104	0	71	16713
2026-01-01 23:50:33.25	14.99	11.90	-50.0	-63.3	3.8	1.49e+00	0	39	104	0	71	16705
2026-01-01 23:50:34.02	14.99	11.97	-50.0	-63.3	3.8	1.49e+00	0	39	104	0	71	16775
2026-01-01 23:50:35.31	14.98	12.10	-50.0	-63.2	3.8	1.49e+00	0	39	104	0	71	16691
2026-01-01 23:50:36.02	14.97	12.16	-50.0	-63.3	3.8	1.49e+00	0	39	104	0	71	16740
2026-01-01 23:50:37.32	14.96	12.29	-50.0	-63.3	3.8	1.49e+00	0	39	104	0	71	16731
2026-01-01 23:50:38.03	14.95	12.35	-50.0	-63.3	3.8	1.49e+00	0	39	104	0	71	16766
2026-01-01 23:50:39.32	14.94	12.48	-50.0	-63.3	3.8	1.49e+00	0	39	104	0	71	16771
2026-01-01 23:50:40.04	14.94	12.54	-50.0	-63.3	3.8	1.49e+00	0	39	104	0	71	16697
2026-01-01 23:50:41.33	14.93	12.67	-50.0	-63.3	3.8	1.49e+00	0	39	104	0	71	16753
2026-01-01 23:50:42.05	14.92	12.74	-50.0	-63.3	3.8	1.49e+00	0	39	104	0	71	16779
2026-01-01 23:50:43.34	14.91	12.86	-50.0	-63.3	3.8	1.49e+00	0	39	104	0	71	16776
2026-01-01 23:50:44.06	14.90	12.93	-50.0	-63.3	3.8	1.49e+00	0	39	104	0	71	16751
2026-01-01 23:50:45.35	14.89	13.06	-50.0	-63.3	3.8	1.49e+00	0	39	104	0	71	16785
2026-01-01 23:50:46.07	14.89	13.13	-50.0	-63.3	3.8	1.49e+00	0	39	104	0	71	16725
2026-01-01 23:50:47.36	14.87	13.26	-50.0	-63.3	3.8	1.49e+00	0	39	104	0	71	16749
2026-01-01 23:50:48.07	14.87	13.33	-50.0	-63.3	3.8	1.49e+00	0	39	104	0	71	16746
2026-01-01 23:50:49.37	14.86	13.46	-50.0	-63.3	3.8	1.49e+00	0	39	104	0	71	16781
2026-01-01 23:50:50.08	14.85	13.53	-50.0	-63.3	3.8	1.49e+00	0	39	104	0	71	16770
2026-01-01 23:50:51.38	14.84	13.66	-50.0	-63.3	3.8	1.49e+00	0	39	104	0	71	16788
2026-01-01 23:50:52.09	14.83	13.73	-50.0	-63.3	3.8	1.49e+00	0	39	104	0	71	16762
2026-01-01 23:50:53.38	14.82	13.86	-50.0	-63.3	3.8	1.49e+00	0	39	104	0	71	16791
2026-01-01 23:50:54.10	14.81	13.93	-50.0	-63.3	3.8	1.49e+00	0	39	104	0	71	16756
2026-01-01 23:50:55.39	14.80	14.06	-50.0	-63.3	3.8	1.49e+00	0	39	104	0	71	16797
2026-01-01 23:50:56.11	14.79	14.14	-50.0	-63.3	3.8	1.49e+00	0	39	104	0	71	16751
2026-01-01 23:50:57.40	14.78	14.27	-50.0	-63.3	3.8	1.49e+00	0	39	104	0	71	16737
2026-01-01 23:50:58.12	14.77	14.34	-50.0	-63.3	3.8	1.49e+00	0	39	104	0	71	16753
2026-01-01 23:50:59.41	14.76	14.48	-50.0	-63.3	3.8	1.49e+00	0	39	104	0	71	16738
2026-01-01 23:51:00.12	14.75	14.55	-50.0	-63.3	3.8	1.49e+00	0	39	104	0	71	16702
2026-01-01 23:51:01.41	14.74	14.68	-50.0	-63.3	3.8	1.49e+00	0	39	104	0	71	16727
2026-01-01 23:51:02.18	14.73	14.77	-50.0	-63.3	3.8	1.49e+00	0	39	104	0	71	16839
2026-01-01 23:51:03.47	14.72	14.90	-50.0	-63.3	3.8	1.49e+00	0	39	104	0	71	16786
2026-01-01 23:51:04.25	14.71	14.98	-50.0	-63.3	3.8	1.49e+00	0	39	104	0	71	16748
2026-01-01 23:51:05.41	14.70	15.11	-50.1	-63.3	3.8	1.49e+00	0	39	104	0	71	16784
2026-01-01 23:51:06.46	14.68	15.22	-50.0	-63.3	3.8	1.49e+00	0	39	104	0	71	16791
2026-01-01 23:51:07.50	14.67	15.33	-50.0	-63.3	3.8	1.49e+00	0	39	104	0	71	16797
2026-01-01 23:51:08.49	14.66	15.44	-50.0	-63.3	3.8	1.49e+00	0	39	104	0	71	16820
2026-01-01 23:51:09.50	14.65	15.55	-50.0	-63.3	3.8	1.49e+00	0	39	104	0	71	16793
2026-01-01 23:51:10.50	14.64	15.66	-50.0	-63.3	3.8	1.49e+00	0	39	104	0	71	16742
2026-01-01 23:51:11.51	14.63	15.77	-50.0	-63.3	3.8	1.49e+00	0	39	104	0	71	16794
2026-01-01 23:51:12.51	14.62	15.88	-50.0	-63.3	3.8	1.49e+00	0	39	104	0	71	16799
2026-01-01 23:51:13.51	14.61	15.99	-50.0	-63.3	3.8	1.49e+00	0	39	104	0	71	16768
2026-01-01 23:51:14.52	14.59	16.10	-50.0	-63.3	3.8	1.49e+00	0	39	104	0	71	16769
2026-01-01 23:51:15.52	14.58	16.21	-50.1	-63.3	3.8	1.49e+00	0	39	104	0	71	16764
2026-01-01 23:51:16.59	14.57	16.33	-50.0	-63.3	3.8	1.49e+00	0	39	104	0	71	16825
2026-01-01 23:51:17.48	14.56	16.43	-50.0	-63.3	3.8	1.49e+00	0	39	104	0	71	16782
2026-01-01 23:51:18.62	14.54	16.56	-50.0	-63.3	3.8	1.49e+00	0	39	104	0	71	16844
2026-01-01 23:51:19.49	14.53	16.65	-50.0	-63.3	3.8	1.49e+00	0	39	104	0	71	16776
2026-01-01 23:51:20.63	14.52	16.78	-50.0	-63.3	3.8	1.49e+00	0	39	104	0	71	16814
2026-01-01 23:51:21.49	14.51	16.88	-50.0	-63.3	3.8	1.49e+00	0	39	104	0	71	16787
2026-01-01 23:51:22.64	14.49	17.01	-50.0	-63.3	3.8	1.49e+00	0	39	104	0	71	16824
2026-01-01 23:51:23.50	14.48	17.11	-50.0	-63.3	3.8	1.49e+00	0	39	104	0	71	16790
2026-01-01 23:51:24.65	14.47	17.25	-50.0	-63.3	3.8	1.49e+00	0	39	104	0	71	16785
2026-01-01 23:51:25.51	14.46	17.35	-50.0	-63.3	3.8	1.49e+00	0	39	104	0	71	16813
2026-01-01 23:51:26.66	14.44	17.48	-50.0	-63.3	3.8	1.49e+00	0	39	104	0	71	16738
2026-01-01 23:51:27.52	14.43	17.58	-50.0	-63.3	3.8	1.49e+00	0	39	104	0	71	16822
2026-01-01 23:51:28.70	14.41	17.72	-50.0	-63.3	3.8	1.49e+00	0	39	104	0	71	16804
2026-01-01 23:51:29.56	14.40	17.82	-50.0	-63.3	3.8	1.49e+00	0	39	104	0	71	16758
2026-01-01 23:51:30.77	14.39	17.97	-50.0	-63.3	3.8	1.49e+00	0	39	104	0	71	16796
2026-01-01 23:51:31.63	14.37	18.07	-50.0	-63.3	3.8	1.49e+00	0	39	104	0	71	16792
2026-01-01 23:51:32.78	14.36	18.21	-50.0	-63.3	3.8	1.49e+00	0	39	104	0	71	16792
2026-01-01 23:51:33.64	14.35	18.32	-50.0	-63.3	3.8	1.49e+00	0	39	104	0	71	16817
2026-01-01 23:51:34.79	14.33	18.46	-50.0	-63.3	3.8	1.49e+00	0	39	104	0	71	16794
2026-01-01 23:51:35.65	14.32	18.56	-50.0	-63.3	3.8	1.49e+00	0	39	104	0	71	16809
2026-01-01 23:51:36.80	14.30	18.70	-50.0	-63.3	3.8	1.49e+00	0	39	104	0	71	16752
2026-01-01 23:51:37.66	14.29	18.81	-50.0	-63.3	3.8	1.49e+00	0	39	104	0	71	16780
2026-01-01 23:51:38.80	14.27	18.95	-50.0	-63.3	3.8	1.49e+00	0	39	104	0	71	16761
2026-01-01 23:51:39.67	14.26	19.06	-50.0	-63.3	3.8	1.49e+00	0	39	104	0	71	16805
2026-01-01 23:51:40.81	14.24	19.20	-50.0	-63.3	3.8	1.49e+00	0	39	104	0	71	16758
2026-01-01 23:51:41.67	14.23	19.31	-50.0	-63.3	3.8	1.49e+00	0	39	104	0	71	16769
2026-01-01 23:51:42.82	14.21	19.46	-50.1	-63.3	3.8	1.49e+00	0	39	104	0	71	16788
2026-01-01 23:51:43.68	14.19	19.57	-50.1	-63.3	3.8	1.49e+00	0	39	104	0	71	16817
2026-01-01 23:51:44.83	14.18	19.71	-50.1	-63.3	3.8	1.49e+00	0	39	104	0	71	16824
2026-01-01 23:51:45.69	14.16	19.82	-50.1	-63.3	3.8	1.49e+00	0	39	104	0	71	16776
2026-01-01 23:51:46.84	14.14	19.97	-50.1	-63.3	3.8	1.49e+00	0	39	104	0	71	16785
2026-01-01 23:51:47.70	14.13	20.08	-50.0	-63.3	3.8	1.49e+00	0	39	104	0	71	16716
2026-01-01 23:51:48.85	14.11	20.23	-50.0	-63.3	3.8	1.49e+00	0	39	104	0	71	16786
2026-01-01 23:51:49.71	14.10	20.35	-50.0	-63.3	3.8	1.49e+00	0	39	104	0	71	16851
2026-01-01 23:51:50.86	14.08	20.50	-50.0	-63.3	3.8	1.49e+00	0	39	104	0	71	16843
2026-01-01 23:51:51.72	14.06	20.61	-50.0	-63.3	3.8	1.49e+00	0	39	104	0	71	16813
2026-01-01 23:51:52.87	14.04	20.77	-50.0	-63.3	3.8	1.49e+00	0	39	104	0	71	16812
2026-01-01 23:51:53.72	14.03	20.88	-50.0	-63.3	3.8	1.49e+00	0	39	104	0	71	16832
2026-01-01 23:51:54.87	14.01	21.04	-50.0	-63.3	3.8	1.49e+00	0	39	104	0	71	16770
2026-01-01 23:51:55.73	13.99	21.15	-50.1	-63.3	3.8	1.49e+00	0	39	104	0	71	16848
2026-01-01 23:51:56.88	13.97	21.31	-50.0	-63.3	3.8	1.49e+00	0	39	104	0	71	16801
2026-01-01 23:51:57.74	13.96	21.43	-50.1	-63.3	3.8	1.49e+00	0	39	104	0	71	16765
2026-01-01 23:51:58.89	13.93	21.59	-50.1	-63.3	3.8	1.49e+00	0	39	104	0	71	16797
2026-01-01 23:51:59.75	13.92	21.71	-50.0	-63.3	3.8	1.49e+00	0	39	104	0	71	16797
2026-01-01 23:52:00.89	13.90	21.87	-50.0	-63.3	3.8	1.49e+00	0	39	104	0	71	16824
2026-01-01 23:52:01.76	13.88	21.99	-50.0	-63.3	3.8	1.49e+00	0	39	104	0	71	16779
2026-01-01 23:52:02.90	13.86	22.15	-50.0	-63.3	3.8	1.49e+00	0	39	104	0	71	16880
2026-01-01 23:52:03.76	13.84	22.27	-50.1	-63.3	3.8	1.49e+00	0	39	104	0	71	16818
2026-01-01 23:52:04.91	13.82	22.43	-50.1	-63.3	3.8	1.49e+00	0	39	104	0	71	16803
2026-01-01 23:52:05.77	13.80	22.56	-50.1	-63.3	3.8	1.49e+00	0	39	104	0	71	16871
2026-01-01 23:52:06.91	13.78	22.72	-50.1	-63.3	3.8	1.49e+00	0	39	104	0	71	16830
2026-01-01 23:52:07.77	13.76	22.85	-50.1	-63.3	3.8	1.49e+00	0	39	104	0	71	16875
2026-01-01 23:52:08.92	13.74	23.01	-50.0	-63.3	3.8	1.49e+00	0	39	104	0	71	16754
2026-01-01 23:52:09.78	13.72	23.14	-50.1	-63.3	3.8	1.49e+00	0	39	104	0	71	16827
2026-01-01 23:52:10.93	13.69	23.31	-50.1	-63.3	3.8	1.49e+00	0	39	104	0	71	16826
2026-01-01 23:52:11.79	13.68	23.44	-50.1	-63.3	3.8	1.49e+00	0	39	104	0	71	16843
2026-01-01 23:52:12.93	13.65	23.61	-50.1	-63.3	3.8	1.49e+00	0	39	104	0	71	16845
2026-01-01 23:52:13.80	13.63	23.74	-50.1	-63.3	3.8	1.49e+00	0	39	104	0	71	16802
2026-01-01 23:52:14.94	13.61	23.91	-50.1	-63.3	3.8	1.49e+00	0	39	104	0	71	16848
2026-01-01 23:52:15.81	13.59	24.04	-50.1	-63.3	3.8	1.49e+00	0	39	104	0	71	16840
2026-01-01 23:52:16.95	13.56	24.22	-50.1	-63.3	3.8	1.49e+00	0	39	104	0	71	16823
2026-01-01 23:52:17.81	13.54	24.35	-50.1	-63.3	3.8	1.49e+00	0	39	104	0	71	16787
2026-01-01 23:52:18.96	13.52	24.53	-50.1	-63.3	3.8	1.49e+00	0	39	104	0	71	16804
2026-01-01 23:52:19.82	13.50	24.66	-50.1	-63.3	3.8	1.49e+00	0	39	104	0	71	16840
2026-01-01 23:52:20.97	13.47	24.84	-50.1	-63.3	3.8	1.49e+00	0	39	104	0	71	16748
2026-01-01 23:52:21.83	13.45	24.98	-50.1	-63.3	3.8	1.49e+00	0	39	104	0	71	16808
2026-01-01 23:52:22.98	13.42	25.16	-50.1	-63.3	3.8	1.49e+00	0	39	104	0	71	16807
2026-01-01 23:52:23.84	13.40	25.29	-50.1	-63.3	3.8	1.49e+00	0	39	104	0	71	16815
2026-01-01 23:52:24.98	13.37	25.48	-50.1	-63.3	3.8	1.49e+00	0	39	104	0	71	16855
2026-01-01 23:52:25.84	13.35	25.62	-50.1	-63.3	3.8	1.49e+00	0	39	104	0	71	16818
2026-01-01 23:52:26.99	13.32	25.80	-50.1	-63.3	3.8	1.49e+00	0	39	104	0	71	16857
2026-01-01 23:52:27.85	13.30	25.94	-50.1	-63.3	3.8	1.49e+00	0	39	104	0	71	16839
2026-01-01 23:52:29.00	13.27	26.13	-50.1	-63.3	3.8	1.49e+00	0	39	104	0	71	16792
2026-01-01 23:52:29.86	13.25	26.27	-50.1	-63.3	3.8	1.49e+00	0	39	104	0	71	16835
2026-01-01 23:52:31.00	13.22	26.46	-50.1	-63.3	3.8	1.49e+00	0	39	104	0	71	16868
2026-01-01 23:52:31.87	13.19	26.61	-50.1	-63.3	3.8	1.49e+00	0	39	104	0	71	16832
2026-01-01 23:52:33.01	13.16	26.80	-50.1	-63.3	3.8	1.49e+00	0	39	104	0	71	16790
2026-01-01 23:52:33.87	13.14	26.95	-50.0	-63.3	3.8	1.49e+00	0	39	104	0	71	16777
2026-01-01 23:52:35.02	13.11	27.14	-50.1	-63.3	3.8	1.49e+00	0	39	104	0	71	16813
2026-01-01 23:52:35.88	13.08	27.29	-50.1	-63.4	3.8	1.49e+00	0	39	104	0	71	16893
2026-01-01 23:52:37.03	13.05	27.49	-50.1	-63.3	3.8	1.49e+00	0	39	104	0	71	16827
2026-01-01 23:52:37.89	13.02	27.64	-50.1	-63.3	3.8	1.49e+00	0	39	104	0	71	16821
2026-01-01 23:52:39.04	12.99	27.84	-50.1	-63.3	3.8	1.49e+00	0	39	104	0	71	16869
2026-01-01 23:52:39.90	12.96	27.99	-50.1	-63.3	3.8	1.49e+00	0	39	104	0	71	16870
2026-01-01 23:52:41.05	12.93	28.19	-50.1	-63.3	3.8	1.49e+00	0	39	104	0	71	16822
2026-01-01 23:52:41.91	12.90	28.35	-50.1	-63.3	3.8	1.49e+00	0	39	104	0	71	16792
2026-01-01 23:52:43.06	12.87	28.55	-50.1	-63.3	3.8	1.49e+00	0	39	104	0	71	16838
2026-01-01 23:52:43.92	12.84	28.71	-50.1	-63.4	3.8	1.49e+00	0	39	104	0	71	16904
2026-01-01 23:52:45.06	12.81	28.91	-50.1	-63.3	3.8	1.49e+00	0	39	104	0	71	16854
2026-01-01 23:52:45.92	12.78	29.07	-50.1	-63.3	3.8	1.49e+00	0	39	104	0	71	16850
2026-01-01 23:52:47.07	12.74	29.28	-50.1	-63.4	3.8	1.49e+00	0	39	104	0	71	16912
2026-01-01 23:52:47.93	12.71	29.44	-50.1	-63.3	3.8	1.49e+00	0	39	104	0	71	16858
2026-01-01 23:52:49.08	12.67	29.66	-50.1	-63.3	3.8	1.49e+00	0	39	104	0	71	16848
2026-01-01 23:52:49.94	12.65	29.82	-50.1	-63.3	3.8	1.49e+00	0	39	104	0	71	16857
2026-01-01 23:52:51.09	12.61	30.03	-50.1	-63.3	3.8	1.49e+00	0	39	104	0	71	16790
2026-01-01 23:52:51.95	12.58	30.20	-50.1	-63.3	3.8	1.49e+00	0	39	104	0	71	16847
2026-01-01 23:52:53.10	12.54	30.42	-50.1	-63.3	3.8	1.49e+00	0	39	104	0	71	16837
2026-01-01 23:52:53.96	12.51	30.58	-50.1	-63.3	3.8	1.49e+00	0	39	104	0	71	16830
2026-01-01 23:52:55.10	12.46	30.80	-50.1	-63.3	3.8	1.49e+00	0	39	104	0	71	16817
2026-01-01 23:52:55.97	12.43	30.97	-50.1	-63.3	3.8	1.49e+00	0	39	104	0	71	16839
2026-01-01 23:52:57.11	12.39	31.20	-50.1	-63.3	3.8	1.49e+00	0	39	104	0	71	16850
2026-01-01 23:52:57.97	12.36	31.37	-50.1	-63.3	3.8	1.49e+00	0	39	104	0	71	16782
2026-01-01 23:52:59.12	12.32	31.60	-50.1	-63.3	3.8	1.49e+00	0	39	104	0	71	16862
2026-01-01 23:52:59.98	12.28	31.77	-50.1	-63.4	3.8	1.49e+00	0	39	104	0	71	16927
2026-01-01 23:53:01.13	12.24	32.00	-50.1	-63.3	3.8	1.49e+00	0	39	104	0	71	16857
2026-01-01 23:53:01.99	12.20	32.18	-50.1	-63.3	3.8	1.49e+00	0	39	104	0	71	16874
2026-01-01 23:53:03.14	12.16	32.41	-50.1	-63.3	3.8	1.49e+00	0	39	104	0	71	16845
2026-01-01 23:53:04.00	12.12	32.59	-50.1	-63.4	3.8	1.49e+00	0	39	104	0	71	16892
2026-01-01 23:53:05.15	12.07	32.83	-50.1	-63.3	3.8	1.49e+00	0	39	104	0	71	16829
2026-01-01 23:53:06.01	12.04	33.01	-50.1	-63.3	3.8	1.49e+00	0	39	104	0	71	16869
2026-01-01 23:53:07.16	11.99	33.25	-50.1	-63.4	3.8	1.49e+00	0	39	104	0	71	16917
2026-01-01 23:53:08.02	11.95	33.43	-50.1	-63.3	3.8	1.49e+00	0	39	104	0	71	16815
2026-01-01 23:53:09.16	11.90	33.67	-50.1	-63.3	3.8	1.49e+00	0	39	104	0	71	16850
2026-01-01 23:53:10.02	11.87	33.86	-50.1	-63.3	3.8	1.49e+00	0	39	104	0	71	16807
2026-01-01 23:53:11.17	11.81	34.11	-50.1	-63.3	3.8	1.49e+00	0	39	104	0	71	16854
2026-01-01 23:53:12.03	11.77	34.29	-50.1	-63.3	3.8	1.49e+00	0	39	104	0	71	16874
2026-01-01 23:53:13.18	11.72	34.55	-50.1	-63.3	3.8	1.49e+00	0	39	104	0	71	16845
2026-01-01 23:53:14.04	11.68	34.74	-50.1	-63.3	3.8	1.49e+00	0	39	104	0	71	16812
2026-01-01 23:53:15.19	11.63	34.99	-50.1	-63.3	3.8	1.49e+00	0	39	104	0	71	16828
2026-01-01 23:53:16.05	11.59	35.18	-50.1	-63.4	3.8	1.49e+00	0	39	104	0	71	16889
2026-01-01 23:53:17.19	11.53	35.44	-50.1	-63.4	3.8	1.49e+00	0	39	104	0	71	16938
2026-01-01 23:53:18.05	11.49	35.64	-50.1	-63.3	3.8	1.49e+00	0	39	104	0	71	16847
2026-01-01 23:53:19.20	11.43	35.90	-50.1	-63.3	3.8	1.49e+00	0	39	104	0	71	16858
2026-01-01 23:53:20.06	11.38	36.10	-50.1	-63.3	3.8	1.49e+00	0	39	104	0	71	16820
2026-01-01 23:53:21.21	11.32	36.36	-50.1	-63.3	3.8	1.49e+00	0	39	104	0	71	16866
2026-01-01 23:53:22.07	11.28	36.56	-50.1	-63.3	3.8	1.49e+00	0	39	104	0	71	16855
2026-01-01 23:53:23.22	11.22	36.84	-50.1	-63.4	3.8	1.49e+00	0	39	104	0	71	16911
2026-01-01 23:53:24.08	11.17	37.04	-50.1	-63.3	3.8	1.49e+00	0	39	104	0	71	16819
2026-01-01 23:53:25.23	11.11	37.31	-50.1	-63.3	3.8	1.49e+00	0	39	104	0	71	16866
2026-01-01 23:53:26.09	11.06	37.52	-50.1	-63.3	3.8	1.49e+00	0	39	104	0	71	16833
2026-01-01 23:53:27.24	10.99	37.80	-50.1	-63.3	3.8	1.49e+00	0	39	104	0	71	16810
2026-01-01 23:53:28.10	10.94	38.01	-50.1	-63.3	3.8	1.49e+00	0	40	104	0	71	16849
2026-01-01 23:53:29.25	10.87	38.29	-50.1	-63.3	3.8	1.49e+00	0	39	104	0	71	16830
2026-01-01 23:53:30.27	10.81	38.54	-50.1	-63.3	3.8	1.49e+00	0	39	104	0	71	16809
2026-01-01 23:53:31.27	10.75	38.79	-50.1	-63.3	3.8	1.49e+00	0	39	104	0	71	16849
2026-01-01 23:53:32.48	10.68	39.10	-50.1	-63.3	3.8	1.49e+00	0	39	104	0	71	16856
2026-01-01 23:53:33.37	10.62	39.32	-50.1	-63.4	3.8	1.49e+00	0	39	104	0	71	16929
2026-01-01 23:53:34.68	10.54	39.66	-50.1	-63.3	3.8	1.49e+00	0	39	104	0	71	16825
2026-01-01 23:53:35.40	10.49	39.84	-50.1	-63.3	3.8	1.49e+00	0	39	104	0	71	16839
2026-01-01 23:53:36.91	10.39	40.23	-50.1	-63.3	3.8	1.49e+00	0	39	104	0	71	16865
2026-01-01 23:53:37.63	10.34	40.42	-50.1	-63.3	3.8	1.49e+00	0	39	104	0	71	16853
2026-01-01 23:53:38.92	10.25	40.76	-50.1	-63.3	3.8	1.49e+00	0	39	104	0	71	16873
2026-01-01 23:53:39.64	10.20	40.95	-50.1	-63.3	3.8	1.49e+00	0	39	104	0	71	16854
2026-01-01 23:53:40.93	10.11	41.30	-50.1	-63.4	3.8	1.49e+00	0	39	104	0	71	16893
2026-01-01 23:53:41.65	10.06	41.49	-50.1	-63.3	3.8	1.49e+00	0	39	104	0	71	16834
2026-01-01 23:53:42.94	9.96	41.84	-50.1	-63.3	3.8	1.49e+00	0	40	104	0	71	16885
2026-01-01 23:53:43.65	9.91	42.03	-50.1	-63.3	3.8	1.49e+00	0	39	104	0	71	16860
2026-01-01 23:53:44.94	9.81	42.39	-50.1	-63.3	3.8	1.49e+00	0	39	104	0	71	16870
2026-01-01 23:53:45.66	9.75	42.59	-50.1	-63.3	3.8	1.49e+00	0	40	104	0	71	16854
2026-01-01 23:53:46.95	9.65	42.95	-50.1	-63.4	3.8	1.49e+00	0	39	104	0	71	16897
2026-01-01 23:53:47.67	9.59	43.15	-50.1	-63.3	3.8	1.49e+00	0	40	104	0	71	16842
2026-01-01 23:53:48.96	9.48	43.51	-50.1	-63.3	3.8	1.49e+00	0	40	104	0	71	16874
2026-01-01 23:53:49.68	9.42	43.72	-50.1	-63.3	3.8	1.49e+00	0	39	104	0	71	16876
2026-01-01 23:53:50.97	9.31	44.09	-50.1	-63.3	3.8	1.49e+00	0	39	104	0	71	16831
2026-01-01 23:53:51.69	9.25	44.30	-50.1	-63.3	3.8	1.49e+00	0	39	104	0	71	16847
2026-01-01 23:53:52.98	9.13	44.67	-50.1	-63.3	3.8	1.49e+00	0	39	104	0	71	16880
2026-01-01 23:53:53.70	9.07	44.88	-50.1	-63.4	3.8	1.49e+00	0	39	104	0	71	16893
2026-01-01 23:53:54.99	8.95	45.26	-50.1	-63.3	3.8	1.49e+00	0	39	104	0	71	16866
2026-01-01 23:53:55.71	8.88	45.48	-50.1	-63.4	3.8	1.49e+00	0	39	104	0	71	16903
2026-01-01 23:53:57.00	8.76	45.87	-50.1	-63.3	3.8	1.49e+00	0	39	104	0	71	16849
2026-01-01 23:53:57.71	8.69	46.08	-50.1	-63.4	3.8	1.49e+00	0	39	104	0	71	16893
2026-01-01 23:53:59.00	8.56	46.47	-50.1	-63.3	3.8	1.49e+00	0	39	104	0	71	16856
2026-01-01 23:53:59.72	8.48	46.69	-50.1	-63.4	3.8	1.49e+00	0	40	104	0	71	16905
2026-01-01 23:54:01.01	8.35	47.09	-50.1	-63.3	3.8	1.49e+00	0	39	104	0	71	16864
2026-01-01 23:54:01.73	8.27	47.31	-50.1	-63.3	3.8	1.49e+00	0	39	104	0	71	16882
2026-01-01 23:54:03.02	8.13	47.72	-50.1	-63.3	3.8	1.49e+00	0	39	104	0	71	16852
2026-01-01 23:54:03.74	8.05	47.94	-50.1	-63.4	3.8	1.49e+00	0	40	104	0	71	16896
2026-01-01 23:54:05.03	7.91	48.35	-50.1	-63.3	3.8	1.49e+00	0	40	104	0	71	16846
2026-01-01 23:54:05.75	7.82	48.58	-50.1	-63.4	3.8	1.49e+00	0	40	104	0	71	16923
2026-01-01 23:54:07.04	7.67	49.00	-50.1	-63.4	3.8	1.49e+00	0	40	104	0	71	16898
2026-01-01 23:54:07.76	7.58	49.23	-50.1	-63.4	3.8	1.49e+00	0	39	104	0	71	16913
2026-01-01 23:54:09.05	7.42	49.65	-50.1	-63.4	3.8	1.49e+00	0	40	104	0	71	16929
2026-01-01 23:54:09.76	7.33	49.88	-50.1	-63.4	3.8	1.49e+00	0	39	104	0	71	16913
2026-01-01 23:54:11.06	7.17	50.31	-50.1	-63.4	3.8	1.49e+00	0	39	104	0	71	16891
2026-01-01 23:54:11.78	7.07	50.55	-50.1	-63.4	3.8	1.49e+00	0	39	104	0	71	16889
2026-01-01 23:54:13.06	6.90	50.98	-50.1	-63.3	3.8	1.49e+00	0	39	104	0	71	16850
2026-01-01 23:54:13.78	6.80	51.22	-50.1	-63.4	3.8	1.49e+00	0	39	104	0	71	16905
2026-01-01 23:54:15.07	6.62	51.66	-50.1	-63.4	3.8	1.49e+00	0	39	104	0	71	16937
2026-01-01 23:54:15.78	6.51	51.90	-50.1	-63.4	3.8	1.49e+00	0	39	104	0	71	16909
2026-01-01 23:54:17.08	6.32	52.35	-50.1	-63.4	3.8	1.49e+00	0	39	104	0	71	16896
2026-01-01 23:54:17.79	6.21	52.60	-50.1	-63.4	3.8	1.49e+00	0	39	104	0	71	16940
2026-01-01 23:54:19.08	6.01	53.05	-50.1	-63.3	3.8	1.49e+00	0	39	104	0	71	16859
2026-01-01 23:54:19.80	5.90	53.30	-50.1	-63.3	3.8	1.49e+00	0	39	104	0	71	16864
2026-01-01 23:54:21.09	5.68	53.76	-50.1	-63.3	3.8	1.49e+00	0	39	104	0	71	16856
2026-01-01 23:54:21.81	5.56	54.01	-50.1	-63.3	3.8	1.49e+00	0	39	104	0	71	16885
2026-01-01 23:54:23.10	5.34	54.47	-50.1	-63.3	3.8	1.49e+00	0	40	104	0	71	16827
2026-01-01 23:54:23.82	5.21	54.73	-50.1	-63.3	3.8	1.49e+00	0	39	104	0	71	16835
2026-01-01 23:54:25.11	4.98	55.20	-50.1	-63.3	3.8	1.49e+00	0	39	104	0	71	16836
2026-01-01 23:54:25.83	4.85	55.46	-50.1	-63.3	3.8	1.49e+00	0	39	104	0	71	16835
2026-01-01 23:54:27.12	4.60	55.93	-50.1	-63.3	3.8	1.49e+00	0	39	104	0	71	16860
2026-01-01 23:54:27.83	4.46	56.19	-50.1	-63.3	3.8	1.49e+00	0	39	104	0	71	16831
2026-01-01 23:54:29.13	4.20	56.68	-50.1	-63.3	3.8	1.49e+00	0	39	104	0	71	16863
2026-01-01 23:54:29.84	4.05	56.94	-50.1	-63.3	3.8	1.49e+00	0	39	104	0	71	16848
2026-01-01 23:54:31.13	3.77	57.42	-50.1	-63.3	3.8	1.49e+00	0	39	104	0	71	16875
2026-01-01 23:54:31.85	3.62	57.69	-50.1	-63.4	3.8	1.49e+00	0	39	104	0	71	16924
2026-01-01 23:54:33.14	3.33	58.18	-50.1	-63.3	3.8	1.49e+00	0	39	104	0	71	16851
2026-01-01 23:54:33.86	3.16	58.46	-50.1	-63.3	3.8	1.49e+00	0	39	104	0	71	16885
2026-01-01 23:54:35.15	2.85	58.95	-50.1	-63.3	3.8	1.49e+00	0	39	104	0	71	16827
2026-01-01 23:54:35.87	2.67	59.23	-50.1	-63.3	3.8	1.49e+00	0	39	104	0	71	16887
2026-01-01 23:54:37.16	2.34	59.73	-50.1	-63.3	3.8	1.49e+00	0	39	104	0	71	16843
2026-01-01 23:54:37.87	2.16	60.00	-50.1	-63.3	3.8	1.49e+00	0	39	104	0	71	16845
2026-01-01 23:54:39.16	1.81	60.51	-50.1	-63.3	3.8	1.49e+00	0	39	104	0	71	16855
2026-01-01 23:54:39.88	1.61	60.79	-50.1	-63.3	3.8	1.49e+00	0	39	104	0	71	16855
2026-01-01 23:54:41.17	1.24	61.30	-50.1	-63.3	3.8	1.49e+00	0	39	104	0	71	16852
2026-01-01 23:54:41.89	1.02	61.58	-50.1	-63.3	3.8	1.49e+00	0	40	104	0	71	16854
2026-01-01 23:54:43.18	0.63	62.10	-50.1	-63.3	3.8	1.49e+00	0	39	104	0	71	16875
2026-01-01 23:54:43.90	0.40	62.38	-50.1	-63.4	3.8	1.49e+00	0	39	104	0	71	16909
2026-01-01 23:54:45.19	359.98	62.90	-50.1	-63.4	3.8	1.49e+00	0	39	104	0	71	16904
2026-01-01 23:54:45.90	359.74	63.19	-50.1	-63.3	3.8	1.49e+00	0	39	104	0	71	16841
2026-01-01 23:54:47.20	359.28	63.71	-50.1	-63.3	3.8	1.49e+00	0	39	104	0	71	16784
2026-01-01 23:54:47.92	359.02	64.00	-50.1	-63.3	3.8	1.49e+00	0	40	104	0	71	16858
2026-01-01 23:54:49.21	358.53	64.53	-50.1	-63.3	3.8	1.49e+00	0	39	104	0	71	16866
2026-01-01 23:54:50.29	358.11	64.97	-50.1	-63.3	3.8	1.49e+00	0	39	104	0	71	16765
2026-01-01 23:54:51.47	357.62	65.45	-50.1	-63.3	3.8	1.49e+00	0	40	104	0	71	16792
2026-01-01 23:54:52.51	357.18	65.88	-50.1	-63.4	3.8	1.49e+00	0	39	104	0	71	16915
2026-01-01 23:54:53.51	356.73	66.29	-50.1	-63.3	3.8	1.49e+00	0	40	104	0	71	16821
2026-01-01 23:54:54.51	356.27	66.70	-50.1	-63.3	3.8	1.49e+00	0	40	104	0	71	16817
2026-01-01 23:54:55.51	355.79	67.11	-50.1	-63.3	3.8	1.49e+00	0	39	104	0	71	16881
2026-01-01 23:54:56.52	355.28	67.53	-50.1	-63.3	3.8	1.49e+00	0	39	104	0	71	16873
2026-01-01 23:54:57.52	354.76	67.94	-50.1	-63.3	3.8	1.49e+00	0	39	104	0	71	16870
2026-01-01 23:54:58.53	354.22	68.36	-50.1	-63.3	3.8	1.49e+00	0	39	104	0	71	16842
2026-01-01 23:54:59.53	353.65	68.77	-50.1	-63.3	3.8	1.49e+00	0	39	104	0	71	16812
2026-01-01 23:55:00.53	353.06	69.19	-50.1	-63.3	3.8	1.49e+00	0	39	104	0	71	16805
2026-01-01 23:55:01.54	352.44	69.60	-50.1	-63.3	3.8	1.49e+00	0	39	104	0	71	16814
2026-01-01 23:55:02.55	351.79	70.02	-50.1	-63.3	3.8	1.49e+00	0	39	104	0	71	16794
2026-01-01 23:55:03.55	351.12	70.43	-50.1	-63.3	3.8	1.49e+00	0	39	104	0	71	16761
2026-01-01 23:55:04.61	350.37	70.87	-50.1	-63.3	3.8	1.49e+00	0	39	104	0	71	16743
2026-01-01 23:55:05.47	349.73	71.22	-50.1	-63.3	3.8	1.49e+00	0	39	104	0	71	16709
2026-01-01 23:55:06.62	348.85	71.69	-50.1	-63.3	3.8	1.49e+00	0	39	104	0	71	16780
2026-01-01 23:55:07.48	348.15	72.04	-50.1	-63.3	3.8	1.49e+00	0	39	104	0	71	16781
2026-01-01 23:55:08.63	347.17	72.50	-50.1	-63.3	3.8	1.49e+00	0	40	104	0	71	16735
2026-01-01 23:55:09.49	346.40	72.85	-50.1	-63.3	3.8	1.49e+00	0	39	104	0	71	16743
2026-01-01 23:55:10.63	345.34	73.31	-50.1	-63.3	3.8	1.49e+00	0	39	104	0	71	16824
2026-01-01 23:55:11.50	344.48	73.65	-50.1	-63.4	3.8	1.49e+00	0	39	104	0	71	16951
2026-01-01 23:55:12.64	343.30	74.10	-50.1	-63.3	3.8	1.49e+00	0	39	104	0	71	16871
2026-01-01 23:55:13.50	342.36	74.43	-50.1	-63.4	3.8	1.49e+00	0	39	104	0	71	16914
2026-01-01 23:55:14.65	341.03	74.87	-50.1	-63.3	3.8	1.49e+00	0	39	104	0	71	16882
2026-01-01 23:55:15.51	339.99	75.20	-50.1	-63.3	3.8	1.49e+00	0	39	104	0	71	16770
2026-01-01 23:55:16.66	338.52	75.63	-50.1	-63.3	3.8	1.49e+00	0	39	104	0	71	16764
2026-01-01 23:55:17.52	337.36	75.94	-50.1	-63.2	3.8	1.49e+00	0	39	104	0	71	16663
2026-01-01 23:55:18.67	335.72	76.36	-50.1	-63.2	3.8	1.49e+00	0	39	104	0	71	16654
2026-01-01 23:55:19.53	334.42	76.66	-50.1	-63.3	3.8	1.49e+00	0	39	104	0	71	16799
2026-01-01 23:55:20.68	332.60	77.05	-50.1	-63.3	3.8	1.49e+00	0	40	104	0	71	16791
2026-01-01 23:55:21.54	331.16	77.34	-50.1	-63.3	3.8	1.49e+00	0	39	104	0	71	16792
2026-01-01 23:55:22.68	329.14	77.71	-50.1	-63.4	3.8	1.49e+00	0	39	104	0	71	16911
2026-01-01 23:55:23.55	327.52	77.98	-50.1	-63.3	3.8	1.49e+00	0	39	104	0	71	16851
2026-01-01 23:55:24.69	325.28	78.32	-50.1	-63.3	3.8	1.49e+00	0	39	104	0	71	16797
2026-01-01 23:55:25.55	323.50	78.57	-50.1	-63.3	3.8	1.49e+00	0	39	104	0	71	16738
2026-01-01 23:55:26.70	321.00	78.88	-50.1	-63.3	3.8	1.49e+00	0	39	104	0	71	16765
2026-01-01 23:55:27.56	319.04	79.09	-50.1	-63.3	3.8	1.49e+00	0	39	104	0	71	16820
2026-01-01 23:55:28.71	316.29	79.37	-50.1	-63.3	3.8	1.49e+00	0	40	104	0	71	16836
2026-01-01 23:55:29.57	314.14	79.55	-50.1	-63.3	3.8	1.49e+00	0	39	104	0	71	16884
2026-01-01 23:55:30.72	311.14	79.78	-50.1	-63.3	3.8	1.49e+00	0	39	104	0	71	16778
2026-01-01 23:55:31.58	308.82	79.93	-50.1	-63.3	3.8	1.49e+00	0	39	104	0	71	16734
2026-01-01 23:55:32.73	305.61	80.11	-50.1	-63.3	3.8	1.49e+00	0	39	104	0	71	16869
2026-01-01 23:55:33.59	303.14	80.22	-50.1	-63.3	3.8	1.49e+00	0	39	104	0	71	16833
2026-01-01 23:55:34.73	299.78	80.34	-50.1	-63.3	3.8	1.49e+00	0	39	104	0	71	16815
2026-01-01 23:55:35.60	297.16	80.41	-50.1	-63.3	3.8	1.49e+00	0	39	104	0	71	16850
2026-01-01 23:55:36.74	293.69	80.47	-50.1	-63.3	3.8	1.49e+00	0	39	104	0	71	16790
2026-01-01 23:55:37.60	291.05	80.49	-50.1	-63.3	3.8	1.49e+00	0	39	104	0	71	16853
2026-01-01 23:55:38.75	287.51	80.49	-50.1	-63.4	3.8	1.49e+00	0	39	104	0	71	16920
2026-01-01 23:55:39.61	284.87	80.46	-50.1	-63.3	3.8	1.49e+00	0	40	104	0	71	16885
2026-01-01 23:55:40.76	281.37	80.40	-50.1	-63.3	3.8	1.49e+00	0	40	104	0	71	16816
2026-01-01 23:55:41.62	278.79	80.32	-50.1	-63.3	3.8	1.49e+00	0	39	104	0	71	16873
2026-01-01 23:55:42.77	275.41	80.20	-50.1	-63.3	3.8	1.49e+00	0	39	104	0	71	16845
2026-01-01 23:55:43.63	272.95	80.09	-50.1	-63.4	3.8	1.49e+00	0	39	104	0	71	16898
2026-01-01 23:55:44.78	269.75	79.91	-50.1	-63.3	3.8	1.49e+00	0	39	104	0	71	16801
2026-01-01 23:55:45.64	267.44	79.75	-50.1	-63.3	3.8	1.49e+00	0	39	104	0	71	16862
2026-01-01 23:55:46.78	264.49	79.52	-50.1	-63.3	3.8	1.49e+00	0	39	104	0	71	16856
2026-01-01 23:55:47.64	262.35	79.33	-50.1	-63.3	3.8	1.49e+00	0	39	104	0	71	16882
2026-01-01 23:55:48.79	259.62	79.06	-50.1	-63.3	3.8	1.49e+00	0	39	104	0	71	16866
2026-01-01 23:55:49.65	257.67	78.84	-50.1	-63.3	3.8	1.49e+00	0	39	104	0	71	16852
2026-01-01 23:55:50.80	255.19	78.52	-50.1	-63.2	3.8	1.49e+00	0	39	104	0	71	16677
2026-01-01 23:55:51.66	253.42	78.28	-50.1	-63.2	3.8	1.49e+00	0	39	104	0	71	16676
2026-01-01 23:55:52.81	251.18	77.93	-50.1	-63.3	3.8	1.49e+00	0	39	104	0	71	16746
2026-01-01 23:55:53.67	249.58	77.66	-50.1	-63.3	3.8	1.49e+00	0	39	104	0	71	16768
2026-01-01 23:55:54.82	247.57	77.28	-50.1	-63.3	3.8	1.49e+00	0	39	104	0	71	16842
2026-01-01 23:55:55.68	246.14	77.00	-50.1	-63.3	3.8	1.49e+00	0	40	104	0	71	16849
2026-01-01 23:55:56.83	244.33	76.60	-50.1	-63.3	3.8	1.49e+00	0	39	104	0	71	16766
2026-01-01 23:55:57.68	243.06	76.30	-50.1	-63.3	3.8	1.49e+00	0	39	104	0	71	16751
2026-01-01 23:55:58.83	241.43	75.88	-50.1	-63.3	3.8	1.49e+00	0	40	104	0	71	16770
2026-01-01 23:55:59.69	240.28	75.57	-50.1	-63.2	3.8	1.49e+00	0	39	104	0	71	16685
2026-01-01 23:56:00.84	238.82	75.14	-50.1	-63.3	3.8	1.49e+00	0	39	104	0	71	16715
2026-01-01 23:56:01.70	237.78	74.81	-50.1	-63.3	3.8	1.49e+00	0	39	104	0	71	16847
2026-01-01 23:56:02.85	236.47	74.37	-50.1	-63.3	3.8	1.49e+00	0	40	104	0	71	16798
2026-01-01 23:56:03.71	235.53	74.03	-50.1	-63.3	3.8	1.49e+00	0	39	104	0	71	16806
2026-01-01 23:56:04.86	234.35	73.58	-50.1	-63.3	3.8	1.49e+00	0	39	104	0	71	16779
2026-01-01 23:56:05.72	233.51	73.24	-50.1	-63.3	3.8	1.49e+00	0	39	104	0	71	16814
2026-01-01 23:56:06.86	232.45	72.78	-50.1	-63.3	3.8	1.49e+00	0	39	104	0	71	16859
2026-01-01 23:56:07.72	231.68	72.43	-50.1	-63.3	3.8	1.49e+00	0	39	104	0	71	16864
2026-01-01 23:56:08.87	230.71	71.97	-50.1	-63.3	3.8	1.49e+00	0	39	104	0	71	16870
2026-01-01 23:56:09.73	230.02	71.62	-50.1	-63.3	3.8	1.49e+00	0	39	104	0	71	16833
2026-01-01 23:56:10.88	229.14	71.15	-50.1	-63.3	3.8	1.49e+00	0	39	104	0	71	16840
2026-01-01 23:56:11.74	228.51	70.79	-50.1	-63.3	3.8	1.49e+00	0	39	104	0	71	16796
2026-01-01 23:56:12.89	227.70	70.32	-50.1	-63.4	3.8	1.49e+00	0	40	104	0	71	16912
2026-01-01 23:56:13.75	227.13	69.97	-50.1	-63.3	3.8	1.49e+00	0	39	104	0	71	16883
2026-01-01 23:56:14.90	226.39	69.49	-50.1	-63.3	3.8	1.49e+00	0	39	104	0	71	16812
2026-01-01 23:56:15.76	225.87	69.13	-50.1	-63.3	3.8	1.49e+00	0	39	104	0	71	16833
2026-01-01 23:56:16.90	225.20	68.66	-50.1	-63.3	3.8	1.49e+00	0	39	104	0	71	16871
2026-01-01 23:56:17.76	224.72	68.31	-50.1	-63.3	3.8	1.49e+00	0	39	104	0	71	16820
2026-01-01 23:56:18.91	224.10	67.83	-50.1	-63.3	3.8	1.49e+00	0	39	104	0	71	16870
2026-01-01 23:56:19.77	223.65	67.47	-50.1	-63.3	3.8	1.49e+00	0	39	104	0	71	16780
2026-01-01 23:56:20.92	223.08	67.00	-50.1	-63.4	3.8	1.49e+00	0	39	104	0	71	16896
2026-01-01 23:56:21.78	222.67	66.64	-50.1	-63.3	3.8	1.49e+00	0	39	104	0	71	16839
2026-01-01 23:56:22.93	222.14	66.17	-50.1	-63.4	3.8	1.49e+00	0	39	104	0	71	16888
2026-01-01 23:56:23.79	221.76	65.81	-50.1	-63.3	3.8	1.49e+00	0	39	104	0	71	16823
2026-01-01 23:56:24.94	221.27	65.34	-50.1	-63.3	3.8	1.49e+00	0	39	104	0	71	16829
2026-01-01 23:56:25.80	220.92	64.99	-50.1	-63.3	3.8	1.49e+00	0	39	104	0	71	16829
2026-01-01 23:56:26.95	220.46	64.52	-50.1	-63.3	3.8	1.49e+00	0	39	104	0	71	16798
2026-01-01 23:56:27.81	220.14	64.17	-50.1	-63.3	3.8	1.49e+00	0	39	104	0	71	16811
2026-01-01 23:56:28.95	219.72	63.70	-50.1	-63.3	3.8	1.49e+00	0	39	104	0	71	16854
2026-01-01 23:56:29.81	219.41	63.36	-50.1	-63.4	3.8	1.49e+00	0	39	104	0	71	16893
2026-01-01 23:56:30.96	219.02	62.89	-50.1	-63.3	3.8	1.49e+00	0	39	104	0	71	16844
2026-01-01 23:56:31.82	218.73	62.55	-50.1	-63.3	3.8	1.49e+00	0	39	104	0	71	16878
2026-01-01 23:56:32.97	218.36	62.08	-50.1	-63.3	3.8	1.49e+00	0	39	104	0	71	16861
2026-01-01 23:56:33.83	218.10	61.74	-50.1	-63.3	3.8	1.49e+00	0	40	104	0	71	16878
2026-01-01 23:56:34.98	217.75	61.28	-50.1	-63.3	3.8	1.49e+00	0	39	104	0	71	16833
2026-01-01 23:56:35.84	217.50	60.94	-50.1	-63.3	3.8	1.49e+00	0	39	104	0	71	16855
2026-01-01 23:56:36.98	217.18	60.49	-50.1	-63.3	3.8	1.49e+00	0	39	104	0	71	16835
2026-01-01 23:56:37.85	216.95	60.15	-50.1	-63.4	3.8	1.49e+00	0	39	104	0	71	16903
2026-01-01 23:56:38.99	216.64	59.71	-50.1	-63.3	3.8	1.49e+00	0	39	104	0	71	16811
2026-01-01 23:56:39.85	216.42	59.37	-50.1	-63.3	3.8	1.49e+00	0	39	104	0	71	16835
2026-01-01 23:56:41.02	216.13	58.92	-50.1	-63.3	3.8	1.49e+00	0	39	104	0	71	16875
2026-01-01 23:56:41.88	215.92	58.59	-50.1	-63.3	3.8	1.49e+00	0	39	104	0	71	16806
2026-01-01 23:56:43.02	215.66	58.15	-50.1	-63.3	3.8	1.49e+00	0	39	104	0	71	16799
2026-01-01 23:56:43.89	215.46	57.82	-50.1	-63.3	3.8	1.49e+00	0	39	104	0	71	16822
2026-01-01 23:56:45.03	215.21	57.39	-50.1	-63.3	3.8	1.49e+00	0	39	104	0	71	16878
2026-01-01 23:56:45.89	215.02	57.07	-50.1	-63.3	3.8	1.49e+00	0	40	104	0	71	16867
2026-01-01 23:56:47.04	214.78	56.64	-50.1	-63.3	3.8	1.49e+00	0	40	104	0	71	16856
2026-01-01 23:56:47.90	214.61	56.32	-50.1	-63.3	3.8	1.49e+00	0	39	104	0	71	16809
2026-01-01 23:56:49.05	214.38	55.89	-50.1	-63.3	3.8	1.49e+00	0	39	104	0	71	16840
2026-01-01 23:56:49.91	214.21	55.58	-50.1	-63.3	3.8	1.49e+00	0	39	104	0	71	16875
2026-01-01 23:56:51.06	214.00	55.16	-50.1	-63.3	3.8	1.49e+00	0	39	104	0	71	16824
2026-01-01 23:56:51.92	213.84	54.84	-50.1	-63.4	3.8	1.49e+00	0	39	104	0	71	16894
2026-01-01 23:56:53.07	213.64	54.43	-50.1	-63.4	3.8	1.49e+00	0	39	104	0	71	16912
2026-01-01 23:56:53.93	213.49	54.12	-50.1	-63.3	3.8	1.49e+00	0	40	104	0	71	16877
2026-01-01 23:56:55.07	213.29	53.71	-50.1	-63.3	3.8	1.49e+00	0	39	104	0	71	16834
2026-01-01 23:56:55.93	213.15	53.41	-50.1	-63.3	3.8	1.49e+00	0	39	104	0	71	16824
2026-01-01 23:56:57.08	212.97	53.00	-50.1	-63.3	3.8	1.49e+00	0	39	104	0	71	16804
2026-01-01 23:56:57.94	212.83	52.70	-50.1	-63.3	3.8	1.49e+00	0	39	104	0	71	16874
2026-01-01 23:56:59.09	212.65	52.30	-50.1	-63.3	3.8	1.49e+00	0	39	104	0	71	16780
2026-01-01 23:56:59.95	212.53	52.00	-50.1	-63.4	3.8	1.49e+00	0	39	104	0	71	16913
2026-01-01 23:57:01.09	212.36	51.61	-50.1	-63.3	3.8	1.49e+00	0	39	104	0	71	16861
2026-01-01 23:57:02.00	212.23	51.30	-50.1	-63.3	3.8	1.49e+00	0	39	104	0	71	16883
2026-01-01 23:57:03.01	212.09	50.96	-50.1	-63.3	3.8	1.49e+00	0	39	104	0	71	16821
2026-01-01 23:57:04.01	211.95	50.62	-50.1	-63.3	3.8	1.49e+00	0	39	104	0	71	16824
2026-01-01 23:57:05.02	211.82	50.28	-50.1	-63.3	3.8	1.49e+00	0	39	104	0	71	16873
2026-01-01 23:57:06.02	211.69	49.95	-50.1	-63.3	3.8	1.49e+00	0	39	104	0	71	16855
2026-01-01 23:57:07.03	211.56	49.62	-50.1	-63.4	3.8	1.49e+00	0	39	104	0	71	16893
2026-01-01 23:57:08.03	211.43	49.29	-50.1	-63.3	3.8	1.49e+00	0	39	104	0	71	16885
2026-01-01 23:57:09.04	211.31	48.96	-50.1	-63.4	3.8	1.49e+00	0	39	104	0	71	16900
2026-01-01 23:57:10.04	211.19	48.64	-50.1	-63.3	3.8	1.49e+00	0	39	104	0	71	16840
2026-01-01 23:57:11.04	211.07	48.32	-50.1	-63.3	3.8	1.49e+00	0	39	104	0	71	16874
2026-01-01 23:57:12.05	210.96	48.00	-50.1	-63.3	3.8	1.49e+00	0	39	104	0	71	16858
2026-01-01 23:57:13.05	210.85	47.68	-50.1	-63.3	3.8	1.49e+00	0	39	104	0	71	16809
2026-01-01 23:57:14.06	210.74	47.36	-50.1	-63.3	3.8	1.49e+00	0	39	104	0	71	16859
2026-01-01 23:57:15.06	210.63	47.05	-50.1	-63.3	3.8	1.49e+00	0	39	104	0	71	16840
2026-01-01 23:57:16.06	210.52	46.74	-50.1	-63.4	3.8	1.49e+00	0	39	104	0	71	16904
2026-01-01 23:57:17.31	210.39	46.36	-50.1	-63.4	3.8	1.49e+00	0	39	104	0	71	16892
2026-01-01 23:57:18.16	210.31	46.10	-50.1	-63.3	3.8	1.49e+00	0	39	104	0	71	16863
2026-01-01 23:57:19.31	210.20	45.75	-50.1	-63.3	3.8	1.49e+00	0	40	104	0	71	16870
2026-01-01 23:57:20.17	210.11	45.49	-50.1	-63.3	3.8	1.49e+00	0	40	104	0	71	16859
2026-01-01 23:57:21.32	210.00	45.15	-50.1	-63.3	3.8	1.49e+00	0	39	104	0	71	16869
2026-01-01 23:57:22.34	209.91	44.84	-50.1	-63.3	3.8	1.49e+00	0	39	104	0	71	16840
2026-01-01 23:57:23.52	209.80	44.50	-50.1	-63.3	3.8	1.49e+00	0	39	104	0	71	16798
2026-01-01 23:57:24.40	209.72	44.24	-50.1	-63.3	3.8	1.49e+00	0	39	104	0	71	16858
2026-01-01 23:57:25.73	209.61	43.85	-50.1	-63.3	3.8	1.49e+00	0	39	104	0	71	16792
2026-01-01 23:57:26.45	209.54	43.65	-50.1	-63.3	3.8	1.49e+00	0	39	104	0	71	16843
2026-01-01 23:57:27.74	209.44	43.28	-50.1	-63.3	3.8	1.49e+00	0	39	104	0	71	16866
2026-01-01 23:57:28.46	209.38	43.07	-50.1	-63.3	3.8	1.49e+00	0	39	104	0	71	16877
2026-01-01 23:57:29.75	209.27	42.71	-50.1	-63.3	3.8	1.49e+00	0	39	104	0	71	16887
2026-01-01 23:57:30.47	209.21	42.51	-50.1	-63.3	3.8	1.49e+00	0	39	104	0	71	16811
2026-01-01 23:57:31.76	209.11	42.15	-50.1	-63.4	3.8	1.49e+00	0	39	104	0	71	16932
2026-01-01 23:57:32.48	209.06	41.95	-50.1	-63.3	3.8	1.49e+00	0	39	104	0	71	16862
2026-01-01 23:57:33.77	208.96	41.60	-50.1	-63.3	3.8	1.49e+00	0	40	104	0	71	16854
2026-01-01 23:57:34.48	208.91	41.41	-50.1	-63.3	3.8	1.49e+00	0	39	104	0	71	16833
2026-01-01 23:57:35.78	208.81	41.06	-50.1	-63.3	3.8	1.49e+00	0	40	104	0	71	16851
2026-01-01 23:57:36.50	208.76	40.87	-50.1	-63.4	3.8	1.49e+00	0	39	104	0	71	16892
2026-01-01 23:57:37.78	208.67	40.53	-50.1	-63.3	3.8	1.49e+00	0	39	104	0	71	16868
2026-01-01 23:57:38.50	208.62	40.34	-50.1	-63.3	3.8	1.49e+00	0	39	104	0	71	16876
2026-01-01 23:57:39.79	208.53	40.00	-50.1	-63.3	3.8	1.49e+00	0	39	104	0	71	16832
2026-01-01 23:57:40.51	208.48	39.81	-50.1	-63.3	3.8	1.49e+00	0	39	104	0	71	16873
2026-01-01 23:57:41.80	208.40	39.48	-50.1	-63.3	3.8	1.49e+00	0	40	104	0	71	16834
2026-01-01 23:57:42.52	208.35	39.29	-50.1	-63.3	3.8	1.49e+00	0	39	104	0	71	16832
2026-01-01 23:57:43.81	208.27	38.97	-50.1	-63.3	3.8	1.49e+00	0	40	104	0	71	16825
2026-01-01 23:57:44.53	208.23	38.79	-50.1	-63.3	3.8	1.49e+00	0	40	104	0	71	16829
2026-01-01 23:57:45.82	208.15	38.46	-50.1	-63.3	3.8	1.49e+00	0	40	104	0	71	16835
2026-01-01 23:57:46.54	208.10	38.28	-50.1	-63.3	3.8	1.49e+00	0	40	104	0	71	16876
2026-01-01 23:57:47.83	208.03	37.96	-50.1	-63.3	3.8	1.49e+00	0	39	104	0	71	16858
2026-01-01 23:57:48.55	207.98	37.79	-50.1	-63.3	3.8	1.49e+00	0	39	104	0	71	16821
2026-01-01 23:57:49.84	207.91	37.47	-50.1	-63.3	3.8	1.49e+00	0	40	104	0	71	16857
2026-01-01 23:57:50.56	207.87	37.30	-50.1	-63.3	3.8	1.49e+00	0	39	104	0	71	16877
2026-01-01 23:57:51.91	207.79	36.98	-50.1	-63.3	3.8	1.49e+00	0	39	104	0	71	16875
2026-01-01 23:57:52.63	207.75	36.80	-50.1	-63.3	3.8	1.49e+00	0	39	104	0	71	16856
2026-01-01 23:57:53.92	207.68	36.50	-50.1	-63.3	3.8	1.49e+00	0	39	104	0	71	16882
2026-01-01 23:57:54.63	207.64	36.33	-50.1	-63.3	3.8	1.49e+00	0	39	104	0	71	16843
2026-01-01 23:57:55.93	207.58	36.03	-50.1	-63.4	3.8	1.49e+00	0	39	104	0	71	16891
2026-01-01 23:57:56.64	207.54	35.86	-50.1	-63.3	3.8	1.49e+00	0	39	104	0	71	16793
2026-01-01 23:57:57.93	207.47	35.57	-50.1	-63.3	3.8	1.49e+00	0	39	104	0	71	16877
2026-01-01 23:57:58.65	207.44	35.40	-50.1	-63.3	3.8	1.49e+00	0	39	104	0	71	16875
2026-01-01 23:57:59.94	207.37	35.11	-50.1	-63.4	3.8	1.49e+00	0	40	104	0	71	16891
2026-01-01 23:58:00.66	207.34	34.95	-50.1	-63.3	3.8	1.49e+00	0	39	104	0	71	16877
2026-01-01 23:58:01.95	207.27	34.66	-50.1	-63.3	3.8	1.49e+00	0	39	104	0	71	16861
2026-01-01 23:58:02.67	207.24	34.50	-50.1	-63.3	3.8	1.49e+00	0	39	104	0	71	16856
2026-01-01 23:58:03.96	207.18	34.22	-50.1	-63.3	3.8	1.49e+00	0	40	104	0	71	16827
2026-01-01 23:58:04.67	207.15	34.06	-50.1	-63.3	3.8	1.49e+00	0	39	104	0	71	16817
2026-01-01 23:58:05.96	207.09	33.78	-50.1	-63.3	3.8	1.49e+00	0	40	104	0	71	16808
2026-01-01 23:58:06.68	207.06	33.63	-50.1	-63.4	3.8	1.49e+00	0	39	104	0	71	16888
2026-01-01 23:58:07.97	207.00	33.35	-50.1	-63.4	3.8	1.49e+00	0	39	104	0	71	16901
2026-01-01 23:58:08.69	206.97	33.20	-50.1	-63.3	3.8	1.49e+00	0	39	104	0	71	16783
2026-01-01 23:58:09.98	206.91	32.92	-50.1	-63.3	3.8	1.49e+00	0	39	104	0	71	16830
2026-01-01 23:58:10.70	206.88	32.77	-50.1	-63.3	3.8	1.49e+00	0	39	104	0	71	16863
2026-01-01 23:58:11.99	206.83	32.50	-50.1	-63.3	3.8	1.49e+00	0	39	104	0	71	16883
2026-01-01 23:58:12.71	206.80	32.35	-50.1	-63.3	3.8	1.49e+00	0	39	104	0	71	16864
2026-01-01 23:58:14.00	206.75	32.09	-50.1	-63.3	3.8	1.49e+00	0	39	104	0	71	16880
2026-01-01 23:58:14.72	206.72	31.94	-50.1	-63.3	3.8	1.49e+00	0	39	104	0	71	16867
2026-01-01 23:58:16.01	206.67	31.68	-50.1	-63.3	3.8	1.49e+00	0	39	104	0	71	16839
2026-01-01 23:58:16.72	206.64	31.54	-50.1	-63.3	3.8	1.49e+00	0	39	104	0	71	16848
2026-01-01 23:58:18.02	206.59	31.28	-50.1	-63.4	3.8	1.49e+00	0	39	104	0	71	16946
2026-01-01 23:58:18.74	206.56	31.13	-50.1	-63.4	3.8	1.49e+00	0	39	104	0	71	16889
2026-01-01 23:58:20.02	206.51	30.88	-50.1	-63.3	3.8	1.49e+00	0	39	104	0	71	16854
2026-01-01 23:58:20.74	206.49	30.74	-50.1	-63.3	3.8	1.49e+00	0	39	104	0	71	16855
2026-01-01 23:58:22.03	206.44	30.49	-50.1	-63.3	3.8	1.49e+00	0	39	104	0	71	16831
2026-01-01 23:58:22.75	206.41	30.35	-50.1	-63.3	3.8	1.49e+00	0	39	104	0	71	16878
2026-01-01 23:58:24.04	206.37	30.10	-50.1	-63.3	3.8	1.49e+00	0	40	104	0	71	16874
2026-01-01 23:58:24.76	206.34	29.96	-50.1	-63.3	3.8	1.49e+00	0	39	104	0	71	16823
2026-01-01 23:58:26.05	206.30	29.72	-50.1	-63.3	3.8	1.49e+00	0	39	104	0	71	16863
2026-01-01 23:58:26.77	206.27	29.58	-50.1	-63.3	3.8	1.49e+00	0	39	104	0	71	16868
2026-01-01 23:58:28.06	206.23	29.34	-50.1	-63.3	3.8	1.49e+00	0	40	104	0	71	16866
2026-01-01 23:58:28.77	206.20	29.21	-50.1	-63.4	3.8	1.49e+00	0	39	104	0	71	16932
2026-01-01 23:58:30.06	206.16	28.97	-50.1	-63.3	3.8	1.49e+00	0	39	104	0	71	16878
2026-01-01 23:58:30.78	206.14	28.84	-50.1	-63.3	3.8	1.49e+00	0	39	104	0	71	16868
2026-01-01 23:58:32.07	206.10	28.60	-50.1	-63.3	3.8	1.49e+00	0	39	104	0	71	16860
2026-01-01 23:58:32.79	206.07	28.47	-50.1	-63.3	3.8	1.49e+00	0	40	104	0	71	16851
2026-01-01 23:58:34.08	206.03	28.24	-50.1	-63.3	3.8	1.49e+00	0	39	104	0	71	16821
2026-01-01 23:58:34.80	206.01	28.11	-50.1	-63.3	3.8	1.49e+00	0	39	104	0	71	16857
2026-01-01 23:58:36.09	205.97	27.88	-50.1	-63.4	3.8	1.49e+00	0	39	104	0	71	16960
2026-01-01 23:58:36.80	205.95	27.76	-50.1	-63.3	3.8	1.49e+00	0	39	104	0	71	16869
2026-01-01 23:58:38.09	205.91	27.53	-50.1	-63.3	3.8	1.49e+00	0	39	104	0	71	16875
2026-01-01 23:58:38.81	205.89	27.41	-50.1	-63.3	3.8	1.49e+00	0	40	104	0	71	16807
2026-01-01 23:58:40.10	205.85	27.18	-50.1	-63.3	3.8	1.49e+00	0	39	104	0	71	16829
2026-01-01 23:58:40.82	205.83	27.06	-50.1	-63.4	3.8	1.49e+00	0	40	104	0	71	16898
2026-01-01 23:58:42.11	205.79	26.84	-50.1	-63.3	3.8	1.49e+00	0	39	104	0	71	16824
2026-01-01 23:58:42.83	205.77	26.72	-50.1	-63.3	3.8	1.49e+00	0	39	104	0	71	16803
2026-01-01 23:58:44.12	205.74	26.50	-50.1	-63.3	3.8	1.49e+00	0	40	104	0	71	16833
2026-01-01 23:58:44.84	205.72	26.38	-50.1	-63.3	3.8	1.49e+00	0	39	104	0	71	16851
2026-01-01 23:58:46.13	205.68	26.16	-50.1	-63.3	3.8	1.49e+00	0	39	104	0	71	16838
2026-01-01 23:58:46.84	205.66	26.04	-50.1	-63.3	3.8	1.49e+00	0	39	104	0	71	16826
2026-01-01 23:58:48.22	205.63	25.82	-50.1	-63.3	3.8	1.49e+00	0	39	104	0	71	16848
2026-01-01 23:58:48.93	205.61	25.70	-50.1	-63.3	3.8	1.49e+00	0	39	104	0	71	16849
2026-01-01 23:58:50.23	205.57	25.49	-50.1	-63.3	3.8	1.49e+00	0	39	104	0	71	16820
2026-01-01 23:58:50.94	205.56	25.37	-50.1	-63.3	3.8	1.49e+00	0	39	104	0	71	16836
2026-01-01 23:58:52.23	205.52	25.17	-50.1	-63.3	3.8	1.49e+00	0	39	104	0	71	16853
2026-01-01 23:58:52.95	205.51	25.05	-50.1	-63.4	3.8	1.49e+00	0	39	104	0	71	16889
2026-01-01 23:58:54.24	205.47	24.84	-50.1	-63.3	3.8	1.49e+00	0	39	104	0	71	16821
2026-01-01 23:58:54.96	205.46	24.73	-50.1	-63.3	3.8	1.49e+00	0	39	104	0	71	16851
2026-01-01 23:58:56.25	205.42	24.53	-50.1	-63.3	3.8	1.49e+00	0	39	104	0	71	16845
2026-01-01 23:58:56.97	205.41	24.42	-50.1	-63.3	3.8	1.49e+00	0	39	104	0	71	16865
2026-01-01 23:58:58.26	205.38	24.22	-50.1	-63.3	3.8	1.49e+00	0	39	104	0	71	16776
2026-01-01 23:58:58.98	205.36	24.11	-50.1	-63.3	3.8	1.49e+00	0	40	104	0	71	16879
2026-01-01 23:59:00.27	205.33	23.91	-50.1	-63.3	3.8	1.49e+00	0	39	104	0	71	16849
2026-01-01 23:59:00.99	205.31	23.80	-50.1	-63.3	3.8	1.49e+00	0	39	104	0	71	16842
2026-01-01 23:59:02.27	205.28	23.60	-50.1	-63.3	3.8	1.49e+00	0	39	104	0	71	16816
2026-01-01 23:59:02.99	205.27	23.49	-50.1	-63.3	3.8	1.49e+00	0	39	104	0	71	16862
2026-01-01 23:59:04.28	205.24	23.30	-50.1	-63.3	3.8	1.49e+00	0	40	104	0	71	16815
2026-01-01 23:59:05.30	205.22	23.15	-50.1	-63.3	3.8	1.49e+00	0	40	104	0	71	16858
2026-01-01 23:59:06.63	205.19	22.95	-50.1	-63.3	3.8	1.49e+00	0	39	104	0	71	16848
2026-01-01 23:59:07.34	205.17	22.85	-50.1	-63.3	3.8	1.49e+00	0	39	104	0	71	16848
2026-01-01 23:59:08.63	205.15	22.66	-50.1	-63.3	3.8	1.49e+00	0	39	104	0	71	16826
2026-01-01 23:59:09.35	205.13	22.56	-50.1	-63.3	3.8	1.49e+00	0	39	104	0	71	16841
2026-01-01 23:59:10.64	205.10	22.37	-50.1	-63.3	3.8	1.49e+00	0	39	104	0	71	16845
2026-01-01 23:59:11.36	205.09	22.27	-50.1	-63.3	3.8	1.49e+00	0	39	104	0	71	16866
2026-01-01 23:59:12.65	205.06	22.08	-50.1	-63.3	3.8	1.49e+00	0	39	104	0	71	16773
2026-01-01 23:59:13.37	205.05	21.98	-50.1	-63.3	3.8	1.49e+00	0	39	104	0	71	16830
2026-01-01 23:59:14.76	205.02	21.78	-50.1	-63.3	3.8	1.49e+00	0	40	104	0	71	16839
2026-01-01 23:59:15.47	205.01	21.68	-50.1	-63.3	3.8	1.49e+00	0	39	104	0	71	16846
2026-01-01 23:59:16.81	204.98	21.50	-50.1	-63.3	3.8	1.49e+00	0	39	104	0	71	16886
2026-01-01 23:59:17.53	204.97	21.40	-50.1	-63.3	3.8	1.49e+00	0	39	104	0	71	16847
2026-01-01 23:59:18.92	204.94	21.20	-50.1	-63.3	3.8	1.49e+00	0	39	104	0	71	16863
2026-01-01 23:59:19.63	204.93	21.11	-50.1	-63.3	3.8	1.49e+00	0	39	104	0	71	16807
2026-01-01 23:59:20.93	204.90	20.93	-50.1	-63.3	3.8	1.49e+00	0	39	104	0	71	16849
2026-01-01 23:59:21.64	204.89	20.83	-50.1	-63.4	3.8	1.49e+00	0	39	104	0	71	16890
2026-01-01 23:59:22.93	204.86	20.66	-50.1	-63.3	3.8	1.49e+00	0	39	104	0	71	16823
2026-01-01 23:59:23.65	204.85	20.56	-50.1	-63.4	3.8	1.49e+00	0	39	104	0	71	16893
2026-01-01 23:59:24.94	204.83	20.39	-50.1	-63.3	3.8	1.49e+00	0	39	104	0	71	16827
2026-01-01 23:59:25.66	204.82	20.29	-50.1	-63.3	3.8	1.49e+00	0	39	104	0	71	16854
2026-01-01 23:59:26.95	204.79	20.12	-50.1	-63.3	3.8	1.49e+00	0	39	104	0	71	16817
2026-01-01 23:59:27.67	204.78	20.03	-50.1	-63.3	3.8	1.49e+00	0	39	104	0	71	16778
2026-01-01 23:59:28.96	204.76	19.86	-50.1	-63.3	3.8	1.49e+00	0	39	104	0	71	16808
2026-01-01 23:59:29.67	204.75	19.77	-50.1	-63.3	3.8	1.49e+00	0	39	104	0	71	16843
2026-01-01 23:59:30.97	204.72	19.60	-50.1	-63.3	3.8	1.49e+00	0	39	104	0	71	16847
2026-01-01 23:59:31.68	204.71	19.51	-50.1	-63.3	3.8	1.49e+00	0	39	104	0	71	16794
2026-01-01 23:59:32.97	204.69	19.34	-50.1	-63.3	3.8	1.49e+00	0	39	104	0	71	16830
2026-01-01 23:59:33.69	204.68	19.25	-50.1	-63.3	3.8	1.49e+00	0	39	104	0	71	16787
2026-01-01 23:59:34.98	204.66	19.09	-50.1	-63.3	3.8	1.49e+00	0	39	104	0	71	16851
2026-01-01 23:59:35.70	204.65	19.00	-50.1	-63.3	3.8	1.49e+00	0	39	104	0	71	16788
2026-01-01 23:59:36.99	204.63	18.83	-50.1	-63.3	3.8	1.49e+00	0	39	104	0	71	16798
2026-01-01 23:59:37.71	204.61	18.74	-50.1	-63.3	3.8	1.49e+00	0	40	104	0	71	16821
2026-01-01 23:59:39.00	204.59	18.58	-50.1	-63.3	3.8	1.49e+00	0	39	104	0	71	16821
2026-01-01 23:59:39.72	204.58	18.49	-50.1	-63.3	3.8	1.49e+00	0	39	104	0	71	16823
2026-01-01 23:59:41.01	204.56	18.34	-50.1	-63.3	3.8	1.49e+00	0	39	104	0	71	16795
2026-01-01 23:59:41.73	204.55	18.25	-50.1	-63.3	3.8	1.49e+00	0	39	104	0	71	16850
2026-01-01 23:59:43.02	204.53	18.09	-50.1	-63.3	3.8	1.49e+00	0	39	104	0	71	16750
2026-01-01 23:59:43.73	204.52	18.00	-50.1	-63.3	3.8	1.49e+00	0	39	104	0	71	16868
2026-01-01 23:59:45.03	204.50	17.85	-50.1	-63.3	3.8	1.49e+00	0	39	104	0	71	16841
2026-01-01 23:59:45.74	204.49	17.76	-50.1	-63.3	3.8	1.49e+00	0	39	104	0	71	16848
2026-01-01 23:59:47.03	204.47	17.61	-50.1	-63.3	3.8	1.49e+00	0	39	104	0	71	16780
2026-01-01 23:59:47.75	204.46	17.52	-50.1	-63.3	3.8	1.49e+00	0	39	104	0	71	16831
2026-01-01 23:59:49.04	204.45	17.37	-50.1	-63.3	3.8	1.49e+00	0	39	104	0	71	16816
2026-01-01 23:59:49.76	204.44	17.28	-50.1	-63.3	3.8	1.49e+00	0	39	104	0	71	16848
2026-01-01 23:59:51.05	204.42	17.13	-50.1	-63.3	3.8	1.49e+00	0	39	104	0	71	16789
2026-01-01 23:59:51.77	204.41	17.05	-50.1	-63.3	3.8	1.49e+00	0	39	104	0	71	16816
2026-01-01 23:59:53.06	204.39	16.90	-50.1	-63.3	3.8	1.49e+00	0	39	104	0	71	16811
2026-01-01 23:59:53.78	204.38	16.82	-50.1	-63.3	3.8	1.49e+00	0	39	104	0	71	16829
2026-01-01 23:59:55.07	204.36	16.67	-50.1	-63.3	3.8	1.49e+00	0	40	104	0	71	16780
2026-01-01 23:59:55.78	204.35	16.59	-50.1	-63.3	3.8	1.49e+00	0	39	104	0	71	16782
2026-01-01 23:59:57.08	204.34	16.44	-50.1	-63.3	3.8	1.49e+00	0	39	104	0	71	16804
2026-01-01 23:59:57.79	204.33	16.36	-50.0	-63.3	3.8	1.49e+00	0	39	104	0	71	16799
2026-01-01 23:59:59.09	204.31	16.21	-50.0	-63.3	3.8	1.49e+00	0	39	104	0	71	16836
2026-01-01 23:59:59.80	204.30	16.13	-50.0	-63.3	3.8	1.49e+00	0	40	104	0	71	16795
2026-01-02 00:00:01.09	204.28	15.99	-50.0	-63.3	3.8	1.49e+00	0	39	104	0	71	16767
2026-01-02 00:00:01.81	204.28	15.91	-50.0	-63.3	3.8	1.49e+00	0	39	104	0	71	16795
2026-01-02 00:00:03.10	204.26	15.76	-50.1	-63.3	3.8	1.49e+00	0	39	104	0	71	16803
2026-01-02 00:00:03.82	204.25	15.69	-50.1	-63.3	3.8	1.49e+00	0	39	104	0	71	16754
2026-01-02 00:00:05.11	204.23	15.54	-50.1	-63.3	3.8	1.49e+00	0	39	104	0	71	16817
2026-01-02 00:00:05.82	204.23	15.47	-50.1	-63.3	3.8	1.49e+00	0	40	104	0	71	16760
2026-01-02 00:00:07.12	204.21	15.32	-50.1	-63.3	3.8	1.49e+00	0	39	104	0	71	16823
2026-01-02 00:00:07.83	204.20	15.25	-50.0	-63.3	3.8	1.49e+00	0	39	104	0	71	16778
2026-01-02 00:00:09.12	204.19	15.11	-50.1	-63.3	3.8	1.49e+00	0	39	104	0	71	16843
2026-01-02 00:00:09.84	204.18	15.03	-50.0	-63.3	3.8	1.49e+00	0	40	104	0	71	16764
2026-01-02 00:00:11.13	204.16	14.89	-50.0	-63.3	3.8	1.49e+00	0	39	104	0	71	16793
2026-01-02 00:00:11.85	204.15	14.82	-50.0	-63.3	3.8	1.49e+00	0	39	104	0	71	16789
2026-01-02 00:00:13.14	204.14	14.68	-50.0	-63.3	3.8	1.49e+00	0	39	104	0	71	16803
2026-01-02 00:00:13.86	204.13	14.60	-50.0	-63.3	3.8	1.49e+00	0	40	104	0	71	16804
2026-01-02 00:00:15.15	204.12	14.47	-50.1	-63.3	3.8	1.49e+00	0	40	104	0	71	16804
2026-01-02 00:00:15.87	204.11	14.39	-50.1	-63.3	3.8	1.49e+00	0	39	104	0	71	16784
2026-01-02 00:00:17.16	204.10	14.26	-50.0	-63.3	3.8	1.49e+00	0	40	104	0	71	16773
2026-01-02 00:00:17.87	204.09	14.19	-50.0	-63.3	3.8	1.49e+00	0	40	104	0	71	16874
2026-01-02 00:00:19.17	204.07	14.05	-50.0	-63.3	3.8	1.49e+00	0	39	104	0	71	16733
2026-01-02 00:00:19.88	204.07	13.98	-50.1	-63.3	3.8	1.49e+00	0	39	104	0	71	16849
2026-01-02 00:00:21.17	204.05	13.85	-50.1	-63.3	3.8	1.49e+00	0	39	104	0	71	16739
2026-01-02 00:00:21.89	204.04	13.77	-50.0	-63.3	3.8	1.49e+00	0	39	104	0	71	16760
2026-01-02 00:00:23.18	204.03	13.64	-50.0	-63.3	3.8	1.49e+00	0	39	104	0	71	16852
2026-01-02 00:00:23.90	204.02	13.57	-50.0	-63.3	3.8	1.49e+00	0	39	104	0	71	16828
2026-01-02 00:00:25.19	204.01	13.44	-50.0	-63.3	3.8	1.49e+00	0	39	104	0	71	16764
2026-01-02 00:00:25.91	204.00	13.37	-50.0	-63.3	3.8	1.49e+00	0	40	104	0	71	16821
2026-01-02 00:00:27.20	203.99	13.24	-50.0	-63.3	3.8	1.49e+00	0	39	104	0	71	16812
2026-01-02 00:00:27.92	203.98	13.17	-50.0	-63.3	3.8	1.49e+00	0	39	104	0	71	16828
2026-01-02 00:00:29.21	203.97	13.04	-50.0	-63.3	3.8	1.49e+00	0	40	104	0	71	16818
2026-01-02 00:00:29.93	203.96	12.97	-50.1	-63.3	3.8	1.49e+00	0	39	104	0	71	16758
2026-01-02 00:00:31.22	203.95	12.84	-50.0	-63.3	3.8	1.49e+00	0	40	104	0	71	16823
2026-01-02 00:00:31.93	203.94	12.77	-50.1	-63.3	3.8	1.49e+00	0	39	104	0	71	16788
2026-01-02 00:00:33.22	203.93	12.65	-50.1	-63.3	3.8	1.49e+00	0	39	104	0	71	16846
2026-01-02 00:00:33.94	203.92	12.58	-50.0	-63.3	3.8	1.49e+00	0	39	104	0	71	16810
2026-01-02 00:00:35.23	203.91	12.45	-50.0	-63.3	3.8	1.49e+00	0	39	104	0	71	16815
2026-01-02 00:00:35.95	203.90	12.38	-50.0	-63.3	3.8	1.49e+00	0	39	104	0	71	16762
2026-01-02 00:00:37.24	203.89	12.26	-50.0	-63.3	3.8	1.49e+00	0	39	104	0	71	16812
2026-01-02 00:00:37.96	203.89	12.19	-50.1	-63.3	3.8	1.49e+00	0	39	104	0	71	16792
2026-01-02 00:00:39.25	203.87	12.07	-50.1	-63.3	3.8	1.49e+00	0	39	104	0	71	16811
2026-01-02 00:00:39.97	203.87	12.00	-50.1	-63.3	3.8	1.49e+00	0	39	104	0	71	16783
2026-01-02 00:00:41.26	203.86	11.88	-50.1	-63.3	3.8	1.49e+00	0	39	104	0	71	16801
2026-01-02 00:00:41.98	203.85	11.81	-50.0	-63.3	3.8	1.49e+00	0	39	104	0	71	16878
2026-01-02 00:00:43.27	203.84	11.69	-50.1	-63.3	3.8	1.49e+00	0	39	104	0	71	16755
2026-01-02 00:00:43.99	203.83	11.62	-50.1	-63.3	3.8	1.49e+00	0	40	104	0	71	16809
2026-01-02 00:00:45.28	203.82	11.50	-50.1	-63.3	3.8	1.49e+00	0	40	104	0	71	16784
2026-01-02 00:00:46.22	203.81	11.41	-50.1	-63.3	3.8	1.49e+00	0	40	104	0	71	16813
2026-01-02 00:00:47.56	203.80	11.29	-50.0	-63.3	3.8	1.49e+00	0	40	104	0	71	16793
2026-01-02 00:00:48.31	203.80	11.22	-50.0	-63.3	3.8	1.49e+00	0	39	104	0	71	16759
2026-01-02 00:00:49.92	203.78	11.07	-50.0	-63.3	3.8	1.49e+00	0	39	104	0	71	16802
2026-01-02 00:00:50.49	203.78	11.02	-50.1	-63.3	3.8	1.49e+00	0	39	104	0	71	16822
2026-01-02 00:00:52.07	203.76	10.88	-50.1	-63.3	3.8	1.49e+00	0	39	104	0	71	16807
2026-01-02 00:00:52.64	203.76	10.83	-50.1	-63.3	3.8	1.49e+00	0	39	104	0	71	16758
2026-01-02 00:00:54.24	203.75	10.68	-50.0	-63.3	3.8	1.49e+00	0	39	104	0	71	16753
2026-01-02 00:00:54.81	203.74	10.63	-50.1	-63.3	3.8	1.49e+00	0	39	104	0	71	16780
2026-01-02 00:00:56.39	203.73	10.49	-50.1	-63.3	3.8	1.49e+00	0	39	104	0	71	16719
2026-01-02 00:00:56.98	203.72	10.44	-50.0	-63.3	3.8	1.49e+00	0	39	104	0	71	16805
2026-01-02 00:00:58.55	203.71	10.30	-50.0	-63.3	3.8	1.49e+00	0	40	104	0	71	16821
2026-01-02 00:00:59.14	203.71	10.25	-50.1	-63.3	3.8	1.49e+00	0	39	104	0	71	16791
2026-01-02 00:01:00.72	203.70	10.11	-50.0	-63.3	3.8	1.49e+00	0	39	104	0	71	16849
2026-01-02 00:01:01.30	203.69	10.06	-50.0	-63.3	3.8	1.49e+00	0	39	104	0	71	16770
2026-01-02 00:01:02.89	203.68	9.92	-50.0	-63.2	3.8	1.49e+00	0	39	104	0	71	16691
2026-01-02 00:01:03.46	203.67	9.87	-50.1	-63.3	3.8	1.49e+00	0	39	104	0	71	16753
2026-01-02 00:01:05.06	203.66	9.73	-50.0	-63.3	3.8	1.49e+00	0	40	104	0	71	16776
2026-01-02 00:01:05.63	203.66	9.68	-50.0	-63.3	3.8	1.49e+00	0	39	104	0	71	16806
2026-01-02 00:01:07.21	203.65	9.55	-50.0	-63.3	3.8	1.49e+00	0	39	104	0	71	16792
2026-01-02 00:01:07.81	203.64	9.50	-50.0	-63.3	3.8	1.49e+00	0	39	104	0	71	16764
2026-01-02 00:01:09.39	203.63	9.36	-50.0	-63.3	3.8	1.49e+00	0	39	104	0	71	16819
2026-01-02 00:01:10.06	203.63	9.30	-50.0	-63.3	3.8	1.49e+00	0	39	104	0	71	16828
2026-01-02 00:01:11.50	203.62	9.18	-50.0	-63.3	3.8	1.49e+00	0	40	104	0	71	16760
2026-01-02 00:01:12.29	203.61	9.11	-50.0	-63.3	3.8	1.49e+00	0	40	104	0	71	16777
2026-01-02 00:01:13.76	203.60	8.99	-50.0	-63.3	3.8	1.49e+00	0	39	104	0	71	16812
2026-01-02 00:01:14.48	203.60	8.93	-50.0	-63.3	3.8	1.49e+00	0	39	104	0	71	16758
2026-01-02 00:01:15.77	203.59	8.82	-50.0	-63.3	3.8	1.49e+00	0	39	104	0	71	16761
2026-01-02 00:01:16.49	203.58	8.76	-50.0	-63.3	3.8	1.49e+00	0	39	104	0	71	16801
2026-01-02 00:01:17.78	203.57	8.66	-50.0	-63.3	3.8	1.49e+00	0	39	104	0	71	16796
2026-01-02 00:01:18.50	203.57	8.60	-50.0	-63.3	3.8	1.49e+00	0	39	104	0	71	16803
2026-01-02 00:01:19.79	203.56	8.49	-50.0	-63.3	3.8	1.49e+00	0	39	104	0	71	16790
2026-01-02 00:01:20.51	203.56	8.43	-50.0	-63.3	3.8	1.49e+00	0	40	104	0	71	16770
2026-01-02 00:01:21.80	203.55	8.33	-50.0	-63.3	3.8	1.49e+00	0	39	104	0	71	16766
2026-01-02 00:01:22.52	203.54	8.27	-50.0	-63.3	3.8	1.49e+00	0	39	104	0	71	16783
2026-01-02 00:01:23.81	203.53	8.16	-50.0	-63.3	3.8	1.49e+00	0	39	104	0	71	16795
2026-01-02 00:01:24.52	203.53	8.11	-50.0	-63.3	3.8	1.49e+00	0	39	104	0	71	16774
2026-01-02 00:01:25.82	203.52	8.00	-50.0	-63.3	3.8	1.49e+00	0	39	104	0	71	16764
2026-01-02 00:01:26.53	203.52	7.94	-50.0	-63.3	3.8	1.49e+00	0	39	104	0	71	16779
2026-01-02 00:01:27.82	203.51	7.84	-50.0	-63.3	3.8	1.49e+00	0	39	104	0	71	16780
2026-01-02 00:01:28.54	203.51	7.78	-50.0	-63.3	3.8	1.49e+00	0	39	104	0	71	16742
2026-01-02 00:01:29.83	203.50	7.68	-50.0	-63.3	3.8	1.49e+00	0	39	104	0	71	16766
2026-01-02 00:01:30.55	203.49	7.62	-50.0	-63.3	3.8	1.49e+00	0	39	104	0	71	16792
2026-01-02 00:01:31.84	203.49	7.52	-50.0	-63.3	3.8	1.49e+00	0	39	104	0	71	16750
2026-01-02 00:01:32.56	203.48	7.46	-50.0	-63.3	3.8	1.49e+00	0	39	104	0	71	16761
2026-01-02 00:01:33.85	203.47	7.36	-50.0	-63.3	3.8	1.49e+00	0	39	104	0	71	16786
2026-01-02 00:01:34.57	203.47	7.31	-50.0	-63.3	3.8	1.49e+00	0	39	104	0	71	16702
2026-01-02 00:01:35.86	203.46	7.20	-50.0	-63.3	3.8	1.49e+00	0	39	104	0	71	16721
2026-01-02 00:01:36.57	203.46	7.15	-50.0	-63.3	3.8	1.49e+00	0	40	104	0	71	16818
2026-01-02 00:01:37.86	203.45	7.05	-50.0	-63.3	3.8	1.49e+00	0	39	104	0	71	16806
2026-01-02 00:01:38.58	203.45	6.99	-50.0	-63.3	3.8	1.49e+00	0	39	104	0	71	16789
