passes_logs/2026/01/01/T1/T1__20260101_031630_AQUA_rec.log

#Pass ID: 20260101_031630_AQUA
#Satellite: AQUA
#Configuration: AQUA
#almurnet v.1.7.20251203
#Start time: 2026-01-01 03:16:30

#Version: 2.0.20230620
#Station: T1
#Location: 37.570604 lon 55.790049 lat
#TLE: 1 27424U 02022A   25364.96158943  .00001951  00000+0  40088-3 0  9998
#TLE: 2 27424  98.4061 326.1389 0001917  95.3187 305.7939 14.61780362258696

#Time	Az	El	Level	Level2	SNR	BER	BlckErr	Temp	State	Recorded	gain1	gain2
2026-01-01 03:16:30.79	359.37	5.00	-53.1	-73.7	3.8	7.48e-01	0	38	0	0	76	41802
2026-01-01 03:16:31.78	359.26	5.05	-53.1	-73.7	3.8	7.45e-01	0	38	104	0	76	41773
2026-01-01 03:16:32.79	359.14	5.11	-53.0	-73.7	3.8	7.45e-01	0	38	104	0	76	41755
2026-01-01 03:16:33.79	359.03	5.16	-53.1	-73.7	3.8	7.47e-01	0	38	104	0	76	41739
2026-01-01 03:16:34.79	358.91	5.22	-53.1	-73.7	3.8	7.46e-01	0	38	104	0	76	41712
2026-01-01 03:16:35.80	358.79	5.27	-53.0	-73.7	3.8	7.46e-01	0	38	104	0	76	41770
2026-01-01 03:16:36.80	358.68	5.33	-53.1	-73.7	3.8	7.43e-01	0	38	104	0	76	41806
2026-01-01 03:16:37.81	358.56	5.38	-53.0	-73.7	3.8	7.47e-01	0	38	104	0	76	41739
2026-01-01 03:16:38.81	358.44	5.44	-53.1	-73.7	3.8	7.46e-01	0	38	104	0	76	41836
2026-01-01 03:16:39.82	358.32	5.50	-53.0	-73.7	3.8	7.50e-01	0	38	104	0	76	41739
2026-01-01 03:16:40.82	358.20	5.55	-53.1	-73.7	3.8	7.44e-01	0	38	104	0	76	41753
2026-01-01 03:16:41.82	358.08	5.61	-53.1	-73.8	3.8	7.45e-01	0	38	104	0	76	41978
2026-01-01 03:16:42.83	357.96	5.66	-53.1	-73.7	3.8	7.44e-01	0	39	104	0	76	41801
2026-01-01 03:16:43.83	357.84	5.72	-53.1	-73.7	3.8	7.47e-01	0	39	104	0	76	41768
2026-01-01 03:16:44.84	357.72	5.78	-53.1	-73.7	3.8	7.45e-01	0	39	104	0	76	41776
2026-01-01 03:16:45.84	357.59	5.83	-53.0	-73.7	3.8	7.43e-01	0	39	104	0	76	41548
2026-01-01 03:16:46.84	357.47	5.89	-53.0	-73.7	3.8	7.44e-01	0	39	104	0	76	41667
2026-01-01 03:16:47.85	357.35	5.94	-53.0	-73.7	3.8	7.45e-01	0	39	104	0	76	41634
2026-01-01 03:16:48.85	357.23	6.00	-53.0	-73.7	3.8	7.50e-01	0	39	104	0	76	41605
2026-01-01 03:16:49.86	357.10	6.05	-53.1	-73.7	3.8	7.45e-01	0	39	104	0	76	41857
2026-01-01 03:16:50.86	356.98	6.11	-53.1	-73.7	3.8	7.47e-01	0	39	104	0	76	41860
2026-01-01 03:16:51.87	356.85	6.17	-53.0	-73.7	3.8	7.48e-01	0	39	104	0	76	41814
2026-01-01 03:16:52.87	356.72	6.22	-53.0	-73.7	3.8	7.46e-01	0	39	104	0	76	41552
2026-01-01 03:16:53.87	356.60	6.28	-53.1	-73.7	3.8	7.43e-01	0	39	104	0	76	41794
2026-01-01 03:16:54.88	356.47	6.33	-53.0	-73.7	3.8	7.44e-01	0	39	104	0	76	41643
2026-01-01 03:16:55.88	356.34	6.39	-53.0	-73.7	3.8	7.49e-01	0	39	104	0	76	41761
2026-01-01 03:16:56.89	356.22	6.45	-53.0	-73.7	3.8	7.46e-01	0	39	104	0	76	41597
2026-01-01 03:16:57.89	356.09	6.50	-53.0	-73.7	3.8	7.47e-01	0	39	104	0	76	41658
2026-01-01 03:16:58.90	355.96	6.56	-53.0	-73.7	3.8	7.44e-01	0	39	104	0	76	41703
2026-01-01 03:16:59.90	355.83	6.61	-53.0	-73.7	3.8	7.44e-01	0	39	104	0	76	41626
2026-01-01 03:17:00.91	355.70	6.67	-53.1	-73.7	3.8	7.46e-01	0	39	104	0	76	41776
2026-01-01 03:17:01.91	355.57	6.73	-53.0	-73.7	3.8	7.45e-01	0	39	104	0	76	41672
2026-01-01 03:17:02.91	355.44	6.78	-53.0	-73.7	3.8	7.43e-01	0	39	104	0	76	41675
2026-01-01 03:17:03.92	355.30	6.84	-53.0	-73.7	3.8	7.43e-01	0	39	104	0	76	41571
2026-01-01 03:17:04.92	355.17	6.89	-53.1	-73.8	3.8	7.46e-01	0	39	104	0	76	41998
2026-01-01 03:17:05.93	355.04	6.95	-53.0	-73.7	3.8	7.45e-01	0	39	104	0	76	41807
2026-01-01 03:17:06.93	354.90	7.01	-53.0	-73.7	3.8	7.44e-01	0	39	104	0	76	41695
2026-01-01 03:17:07.93	354.77	7.06	-53.0	-73.7	3.8	7.45e-01	0	39	104	0	76	41651
2026-01-01 03:17:08.94	354.63	7.12	-53.0	-73.7	3.8	7.43e-01	0	39	104	0	76	41678
2026-01-01 03:17:09.94	354.50	7.17	-53.0	-73.7	3.8	7.48e-01	0	39	104	0	76	41688
2026-01-01 03:17:10.95	354.36	7.23	-53.0	-73.7	3.8	7.46e-01	0	40	104	0	76	41736
2026-01-01 03:17:11.95	354.23	7.29	-53.0	-73.7	3.8	7.45e-01	0	39	104	0	76	41665
2026-01-01 03:17:12.96	354.09	7.34	-53.0	-73.7	3.8	7.45e-01	0	40	104	0	76	41567
2026-01-01 03:17:13.96	353.95	7.40	-53.0	-73.7	3.8	7.45e-01	0	39	104	0	76	41558
2026-01-01 03:17:14.96	353.81	7.45	-53.1	-73.7	3.8	7.45e-01	0	40	104	0	76	41794
2026-01-01 03:17:15.97	353.67	7.51	-53.1	-73.7	3.8	7.42e-01	0	40	104	0	76	41767
2026-01-01 03:17:16.97	353.53	7.57	-53.1	-73.7	3.8	7.44e-01	0	40	104	0	76	41773
2026-01-01 03:17:17.98	353.39	7.62	-53.1	-73.7	3.8	7.46e-01	0	40	104	0	76	41622
2026-01-01 03:17:18.98	353.25	7.68	-53.0	-73.7	3.8	7.48e-01	0	39	104	0	76	41721
2026-01-01 03:17:19.98	353.11	7.73	-53.0	-73.7	3.8	7.49e-01	0	39	104	0	76	41787
2026-01-01 03:17:20.99	352.97	7.79	-53.0	-73.7	3.8	7.46e-01	0	40	104	0	76	41798
2026-01-01 03:17:22.00	352.83	7.85	-53.1	-73.7	3.8	7.48e-01	0	40	104	0	76	41759
2026-01-01 03:17:23.00	352.68	7.90	-53.0	-73.7	3.8	7.48e-01	0	40	104	0	76	41727
2026-01-01 03:17:24.00	352.54	7.96	-53.0	-73.7	3.8	7.43e-01	0	39	104	0	76	41738
2026-01-01 03:17:25.01	352.40	8.01	-53.0	-73.7	3.8	7.48e-01	0	40	104	0	76	41703
2026-01-01 03:17:26.01	352.25	8.07	-53.0	-73.7	3.8	7.48e-01	0	40	104	0	76	41721
2026-01-01 03:17:27.02	352.10	8.12	-53.0	-73.7	3.8	7.47e-01	0	39	104	0	76	41512
2026-01-01 03:17:28.02	351.96	8.18	-53.1	-73.7	3.8	7.46e-01	0	40	104	0	76	41764
2026-01-01 03:17:29.03	351.81	8.24	-53.0	-73.7	3.8	7.45e-01	0	40	104	0	76	41640
2026-01-01 03:17:30.03	351.66	8.29	-53.1	-73.8	3.8	7.45e-01	0	40	104	0	76	41994
2026-01-01 03:17:31.04	351.51	8.35	-53.1	-73.8	3.8	7.45e-01	0	40	104	0	76	41982
2026-01-01 03:17:32.04	351.37	8.40	-53.0	-73.7	3.8	7.46e-01	0	40	104	0	76	41753
2026-01-01 03:17:33.04	351.22	8.46	-53.0	-73.7	3.8	7.47e-01	0	40	104	0	76	41783
2026-01-01 03:17:34.05	351.07	8.51	-53.1	-73.7	3.8	7.48e-01	0	40	104	0	76	41807
2026-01-01 03:17:35.05	350.92	8.57	-53.1	-73.8	3.8	7.45e-01	0	40	104	0	76	42175
2026-01-01 03:17:36.06	350.76	8.62	-53.1	-73.8	3.8	7.47e-01	0	40	104	0	76	41948
2026-01-01 03:17:37.06	350.61	8.68	-53.1	-73.8	3.8	7.44e-01	0	40	104	0	76	42065
2026-01-01 03:17:38.06	350.46	8.73	-53.1	-73.8	3.8	7.45e-01	0	40	104	0	76	42066
2026-01-01 03:17:39.07	350.31	8.79	-53.0	-73.7	3.8	7.46e-01	0	40	104	0	76	41766
2026-01-01 03:17:40.08	350.15	8.85	-53.0	-73.7	3.8	7.47e-01	0	40	104	0	76	41808
2026-01-01 03:17:41.08	350.00	8.90	-53.1	-73.7	3.8	7.46e-01	0	40	104	0	76	41822
2026-01-01 03:17:42.08	349.84	8.96	-53.0	-73.7	3.8	7.45e-01	0	40	104	0	76	41653
2026-01-01 03:17:43.09	349.69	9.01	-53.1	-73.7	3.8	7.49e-01	0	40	104	0	76	41668
2026-01-01 03:17:44.09	349.53	9.07	-53.1	-73.7	3.8	7.50e-01	0	40	104	0	76	41812
2026-01-01 03:17:45.10	349.37	9.12	-53.0	-73.7	3.8	7.44e-01	0	40	104	0	76	41744
2026-01-01 03:17:46.10	349.22	9.18	-53.1	-73.7	3.8	7.47e-01	0	40	104	0	76	41783
2026-01-01 03:17:47.11	349.06	9.23	-53.0	-73.7	3.8	7.47e-01	0	40	104	0	76	41718
2026-01-01 03:17:48.11	348.90	9.28	-53.1	-73.7	3.8	7.46e-01	0	40	104	0	76	41894
2026-01-01 03:17:49.12	348.74	9.34	-53.1	-73.7	3.8	7.46e-01	0	40	104	0	76	41889
2026-01-01 03:17:50.12	348.58	9.39	-53.0	-73.7	3.8	7.44e-01	0	40	104	0	76	41686
2026-01-01 03:17:51.12	348.42	9.45	-53.1	-73.7	3.8	7.48e-01	0	40	104	0	76	41911
2026-01-01 03:17:52.13	348.25	9.50	-53.1	-73.7	3.8	7.46e-01	0	40	104	0	76	41792
2026-01-01 03:17:53.13	348.09	9.56	-53.0	-73.7	3.8	7.51e-01	0	40	104	0	76	41726
2026-01-01 03:17:54.14	347.93	9.61	-53.1	-73.7	3.8	7.45e-01	0	40	104	0	76	41878
2026-01-01 03:17:55.14	347.76	9.67	-53.1	-73.7	3.8	7.48e-01	0	40	104	0	76	41929
2026-01-01 03:17:56.15	347.60	9.72	-53.0	-73.7	3.8	7.47e-01	0	40	104	0	76	41864
2026-01-01 03:17:57.15	347.44	9.77	-53.0	-73.7	3.8	7.45e-01	0	40	104	0	76	41751
2026-01-01 03:17:58.16	347.27	9.83	-53.0	-73.7	3.8	7.46e-01	0	40	104	0	76	41682
2026-01-01 03:17:59.16	347.10	9.88	-53.0	-73.7	3.8	7.46e-01	0	40	104	0	76	41830
2026-01-01 03:18:00.16	346.94	9.94	-53.0	-73.7	3.8	7.47e-01	0	40	104	0	76	41573
2026-01-01 03:18:01.17	346.77	9.99	-53.0	-73.7	3.8	7.46e-01	0	40	104	0	76	41804
2026-01-01 03:18:02.17	346.60	10.04	-53.0	-73.7	3.8	7.44e-01	0	40	104	0	76	41621
2026-01-01 03:18:03.18	346.43	10.10	-53.0	-73.7	3.8	7.49e-01	0	40	104	0	76	41720
2026-01-01 03:18:04.18	346.26	10.15	-53.1	-73.7	3.8	7.47e-01	0	40	104	0	76	41835
2026-01-01 03:18:05.18	346.09	10.20	-53.0	-73.7	3.8	7.47e-01	0	40	104	0	76	41778
2026-01-01 03:18:06.19	345.92	10.26	-53.0	-73.7	3.8	7.48e-01	0	40	104	0	76	41912
2026-01-01 03:18:07.20	345.74	10.31	-53.0	-73.7	3.8	7.47e-01	0	40	104	0	76	41683
2026-01-01 03:18:08.20	345.57	10.36	-53.0	-73.7	3.8	7.43e-01	0	40	104	0	76	41792
2026-01-01 03:18:09.20	345.40	10.42	-53.0	-73.7	3.8	7.49e-01	0	40	104	0	76	41798
2026-01-01 03:18:10.21	345.22	10.47	-53.0	-73.7	3.8	7.46e-01	0	40	104	0	76	41627
2026-01-01 03:18:11.21	345.05	10.52	-53.0	-73.7	3.8	7.41e-01	0	40	104	0	76	41612
2026-01-01 03:18:12.22	344.87	10.57	-53.1	-73.7	3.8	7.43e-01	0	41	104	0	76	41813
2026-01-01 03:18:13.22	344.70	10.63	-53.1	-73.7	3.8	7.46e-01	0	40	104	0	76	41882
2026-01-01 03:18:14.23	344.52	10.68	-53.0	-73.7	3.8	7.46e-01	0	40	104	0	76	41788
2026-01-01 03:18:15.23	344.34	10.73	-53.0	-73.7	3.8	7.49e-01	0	40	104	0	76	41615
2026-01-01 03:18:16.24	344.16	10.78	-53.0	-73.7	3.8	7.47e-01	0	40	104	0	76	41635
2026-01-01 03:18:17.24	343.99	10.83	-53.0	-73.7	3.8	7.45e-01	0	40	104	0	76	41706
2026-01-01 03:18:18.24	343.81	10.89	-53.0	-73.7	3.8	7.47e-01	0	40	104	0	76	41647
2026-01-01 03:18:19.25	343.63	10.94	-53.0	-73.7	3.8	7.45e-01	0	40	104	0	76	41579
2026-01-01 03:18:20.25	343.45	10.99	-53.0	-73.7	3.8	7.45e-01	0	40	104	0	76	41710
2026-01-01 03:18:21.26	343.26	11.04	-53.0	-73.7	3.8	7.41e-01	0	40	104	0	76	41490
2026-01-01 03:18:22.26	343.08	11.09	-53.0	-73.7	3.8	7.46e-01	0	40	104	0	76	41620
2026-01-01 03:18:23.26	342.90	11.14	-53.0	-73.7	3.8	7.44e-01	0	40	104	0	76	41621
2026-01-01 03:18:24.27	342.71	11.19	-53.0	-73.7	3.8	7.45e-01	0	40	104	0	76	41490
2026-01-01 03:18:25.27	342.53	11.24	-53.0	-73.7	3.8	7.43e-01	0	40	104	0	76	41596
2026-01-01 03:18:26.28	342.34	11.30	-53.0	-73.7	3.8	7.45e-01	0	40	104	0	76	41611
2026-01-01 03:18:27.28	342.16	11.35	-53.0	-73.7	3.8	7.47e-01	0	40	104	0	76	41467
2026-01-01 03:18:28.29	341.97	11.40	-53.0	-73.7	3.8	7.47e-01	0	40	104	0	76	41524
2026-01-01 03:18:29.29	341.78	11.45	-53.0	-73.7	3.8	7.46e-01	0	40	104	0	76	41606
2026-01-01 03:18:30.29	341.60	11.50	-53.0	-73.7	3.8	7.45e-01	0	40	104	0	76	41586
2026-01-01 03:18:31.30	341.41	11.55	-53.0	-73.7	3.8	7.47e-01	0	40	104	0	76	41530
2026-01-01 03:18:32.30	341.22	11.60	-53.0	-73.7	3.8	7.47e-01	0	41	104	0	76	41534
2026-01-01 03:18:33.31	341.03	11.65	-53.0	-73.7	3.8	7.47e-01	0	40	104	0	76	41532
2026-01-01 03:18:34.31	340.84	11.69	-53.0	-73.7	3.8	7.43e-01	0	40	104	0	76	41696
2026-01-01 03:18:35.32	340.64	11.74	-53.0	-73.7	3.8	7.45e-01	0	40	104	0	76	41600
2026-01-01 03:18:36.32	340.45	11.79	-53.0	-73.7	3.8	7.47e-01	0	40	104	0	76	41600
2026-01-01 03:18:37.33	340.26	11.84	-53.0	-73.7	3.8	7.43e-01	0	41	104	0	76	41773
2026-01-01 03:18:38.33	340.07	11.89	-53.1	-73.7	3.8	7.48e-01	0	41	104	0	76	41742
2026-01-01 03:18:39.33	339.87	11.94	-53.0	-73.7	3.8	7.46e-01	0	40	104	0	76	41690
2026-01-01 03:18:40.34	339.68	11.99	-53.0	-73.7	3.8	7.48e-01	0	41	104	0	76	41628
2026-01-01 03:18:41.34	339.48	12.03	-53.0	-73.7	3.8	7.46e-01	0	40	104	0	76	41652
2026-01-01 03:18:42.34	339.29	12.08	-53.0	-73.7	3.8	7.45e-01	0	40	104	0	76	41717
2026-01-01 03:18:43.35	339.09	12.13	-53.0	-73.7	3.8	7.45e-01	0	40	104	0	76	41674
2026-01-01 03:18:44.35	338.89	12.18	-53.0	-73.7	3.8	7.48e-01	0	40	104	0	76	41565
2026-01-01 03:18:45.36	338.69	12.22	-53.0	-73.7	3.8	7.48e-01	0	41	104	0	76	41555
2026-01-01 03:18:46.36	338.49	12.27	-53.1	-73.7	3.8	7.46e-01	0	40	104	0	76	41785
2026-01-01 03:18:47.37	338.29	12.32	-53.1	-73.7	3.8	7.44e-01	0	41	104	0	76	41788
2026-01-01 03:18:48.37	338.09	12.36	-53.0	-73.7	3.8	7.46e-01	0	40	104	0	76	41771
2026-01-01 03:18:49.38	337.89	12.41	-53.1	-73.7	3.8	7.45e-01	0	40	104	0	76	41672
2026-01-01 03:18:50.38	337.69	12.45	-53.0	-73.7	3.8	7.47e-01	0	41	104	0	76	41643
2026-01-01 03:18:51.38	337.49	12.50	-53.0	-73.7	3.8	7.48e-01	0	40	104	0	76	41583
2026-01-01 03:18:52.39	337.28	12.55	-53.0	-73.7	3.8	7.49e-01	0	40	104	0	76	41562
2026-01-01 03:18:53.39	337.08	12.59	-53.0	-73.7	3.8	7.46e-01	0	40	104	0	76	41565
2026-01-01 03:18:54.40	336.87	12.64	-53.0	-73.7	3.8	7.44e-01	0	40	104	0	76	41606
2026-01-01 03:18:55.40	336.67	12.68	-53.0	-73.6	3.8	7.43e-01	0	40	104	0	76	41440
2026-01-01 03:18:56.40	336.46	12.72	-53.1	-73.7	3.8	7.48e-01	0	41	104	0	76	41703
2026-01-01 03:18:57.41	336.25	12.77	-53.0	-73.7	3.8	7.47e-01	0	40	104	0	76	41701
2026-01-01 03:18:58.41	336.05	12.81	-53.0	-73.7	3.8	7.45e-01	0	40	104	0	76	41641
2026-01-01 03:18:59.42	335.84	12.86	-53.1	-73.7	3.8	7.46e-01	0	40	104	0	76	41729
2026-01-01 03:19:00.42	335.63	12.90	-53.0	-73.7	3.8	7.44e-01	0	41	104	0	76	41530
2026-01-01 03:19:01.60	335.38	12.95	-53.0	-73.7	3.8	7.47e-01	0	41	104	0	76	41711
2026-01-01 03:19:02.49	335.20	12.99	-53.0	-73.7	3.8	7.47e-01	0	41	104	0	76	41529
2026-01-01 03:19:03.64	334.96	13.04	-53.0	-73.7	3.8	7.43e-01	0	40	104	0	76	41492
2026-01-01 03:19:04.50	334.77	13.07	-53.0	-73.7	3.8	7.47e-01	0	41	104	0	76	41598
2026-01-01 03:19:05.65	334.53	13.12	-53.0	-73.7	3.8	7.46e-01	0	41	104	0	76	41541
2026-01-01 03:19:06.51	334.35	13.16	-53.0	-73.6	3.8	7.48e-01	0	40	104	0	76	41441
2026-01-01 03:19:07.66	334.10	13.20	-53.0	-73.7	3.8	7.47e-01	0	41	104	0	76	41509
2026-01-01 03:19:08.52	333.92	13.24	-53.0	-73.7	3.8	7.50e-01	0	40	104	0	76	41588
2026-01-01 03:19:09.66	333.68	13.29	-53.0	-73.7	3.8	7.48e-01	0	41	104	0	76	41713
2026-01-01 03:19:10.53	333.49	13.32	-53.0	-73.7	3.8	7.48e-01	0	40	104	0	76	41728
2026-01-01 03:19:11.67	333.25	13.37	-53.0	-73.7	3.8	7.45e-01	0	41	104	0	76	41608
2026-01-01 03:19:12.53	333.06	13.40	-53.0	-73.7	3.8	7.46e-01	0	40	104	0	76	41571
2026-01-01 03:19:13.71	332.80	13.45	-53.0	-73.6	3.8	7.46e-01	0	41	104	0	76	41454
2026-01-01 03:19:14.57	332.62	13.48	-53.0	-73.7	3.8	7.45e-01	0	40	104	0	76	41478
2026-01-01 03:19:15.72	332.37	13.53	-53.1	-73.7	3.8	7.46e-01	0	41	104	0	76	41911
2026-01-01 03:19:16.59	332.18	13.56	-53.0	-73.7	3.8	7.47e-01	0	41	104	0	76	41756
2026-01-01 03:19:17.73	331.93	13.60	-53.0	-73.7	3.8	7.49e-01	0	41	104	0	76	41566
2026-01-01 03:19:18.59	331.74	13.64	-53.0	-73.6	3.8	7.44e-01	0	40	104	0	76	41443
2026-01-01 03:19:19.74	331.48	13.68	-53.0	-73.7	3.8	7.47e-01	0	40	104	0	76	41629
2026-01-01 03:19:20.60	331.29	13.71	-53.0	-73.7	3.8	7.46e-01	0	40	104	0	76	41611
2026-01-01 03:19:21.75	331.04	13.75	-53.0	-73.7	3.8	7.43e-01	0	40	104	0	76	41595
2026-01-01 03:19:22.61	330.85	13.78	-53.0	-73.7	3.8	7.47e-01	0	40	104	0	76	41538
2026-01-01 03:19:23.76	330.59	13.83	-53.0	-73.7	3.8	7.44e-01	0	40	104	0	76	41607
2026-01-01 03:19:24.62	330.40	13.86	-53.0	-73.6	3.8	7.45e-01	0	41	104	0	76	41380
2026-01-01 03:19:25.77	330.14	13.90	-53.0	-73.6	3.8	7.48e-01	0	40	104	0	76	41404
2026-01-01 03:19:26.63	329.95	13.93	-53.0	-73.6	3.8	7.44e-01	0	40	104	0	76	41382
2026-01-01 03:19:27.78	329.69	13.97	-53.0	-73.6	3.8	7.47e-01	0	41	104	0	76	41441
2026-01-01 03:19:28.64	329.50	14.00	-53.0	-73.7	3.8	7.46e-01	0	40	104	0	76	41479
2026-01-01 03:19:29.78	329.24	14.03	-53.0	-73.7	3.8	7.44e-01	0	41	104	0	76	41474
2026-01-01 03:19:30.65	329.04	14.06	-53.0	-73.7	3.8	7.49e-01	0	40	104	0	76	41643
2026-01-01 03:19:31.79	328.78	14.10	-53.0	-73.7	3.8	7.48e-01	0	41	104	0	76	41645
2026-01-01 03:19:32.65	328.59	14.13	-53.0	-73.7	3.8	7.48e-01	0	40	104	0	76	41576
2026-01-01 03:19:33.80	328.32	14.17	-53.0	-73.7	3.8	7.46e-01	0	40	104	0	76	41522
2026-01-01 03:19:34.67	328.13	14.20	-53.0	-73.7	3.8	7.46e-01	0	41	104	0	76	41494
2026-01-01 03:19:35.81	327.86	14.23	-53.0	-73.7	3.8	7.46e-01	0	41	104	0	76	41462
2026-01-01 03:19:36.67	327.67	14.26	-53.0	-73.7	3.8	7.45e-01	0	40	104	0	76	41513
2026-01-01 03:19:37.82	327.40	14.29	-53.0	-73.7	3.8	7.47e-01	0	41	104	0	76	41518
2026-01-01 03:19:38.68	327.20	14.32	-53.0	-73.7	3.8	7.46e-01	0	41	104	0	76	41539
2026-01-01 03:19:39.83	326.94	14.35	-53.0	-73.7	3.8	7.45e-01	0	40	104	0	76	41527
2026-01-01 03:19:40.69	326.74	14.38	-53.0	-73.7	3.8	7.48e-01	0	40	104	0	76	41481
2026-01-01 03:19:41.84	326.47	14.41	-53.0	-73.7	3.8	7.46e-01	0	41	104	0	76	41535
2026-01-01 03:19:42.70	326.27	14.44	-53.0	-73.6	3.8	7.44e-01	0	40	104	0	76	41346
2026-01-01 03:19:43.85	326.00	14.47	-53.0	-73.7	3.8	7.46e-01	0	41	104	0	76	41471
2026-01-01 03:19:44.71	325.80	14.50	-53.0	-73.7	3.8	7.47e-01	0	41	104	0	76	41740
2026-01-01 03:19:45.86	325.53	14.53	-53.0	-73.7	3.8	7.46e-01	0	40	104	0	76	41605
2026-01-01 03:19:46.72	325.33	14.55	-53.0	-73.7	3.8	7.48e-01	0	41	104	0	76	41470
2026-01-01 03:19:47.87	325.06	14.58	-53.0	-73.7	3.8	7.47e-01	0	41	104	0	76	41581
2026-01-01 03:19:48.73	324.85	14.60	-53.0	-73.7	3.8	7.44e-01	0	40	104	0	76	41492
2026-01-01 03:19:49.87	324.58	14.63	-53.0	-73.7	3.8	7.45e-01	0	40	104	0	76	41602
2026-01-01 03:19:50.73	324.38	14.66	-53.0	-73.7	3.8	7.49e-01	0	41	104	0	76	41636
2026-01-01 03:19:51.88	324.11	14.68	-53.0	-73.7	3.8	7.46e-01	0	41	104	0	76	41741
2026-01-01 03:19:52.75	323.90	14.71	-53.0	-73.7	3.8	7.46e-01	0	40	104	0	76	41557
2026-01-01 03:19:53.89	323.63	14.73	-53.0	-73.7	3.8	7.47e-01	0	41	104	0	76	41493
2026-01-01 03:19:54.75	323.42	14.75	-53.0	-73.7	3.8	7.46e-01	0	41	104	0	76	41491
2026-01-01 03:19:55.90	323.15	14.78	-53.0	-73.7	3.8	7.44e-01	0	41	104	0	76	41651
2026-01-01 03:19:56.76	322.94	14.80	-53.0	-73.7	3.8	7.42e-01	0	41	104	0	76	41694
2026-01-01 03:19:57.91	322.67	14.83	-53.0	-73.7	3.8	7.47e-01	0	41	104	0	76	41683
2026-01-01 03:19:58.77	322.46	14.84	-53.0	-73.7	3.8	7.43e-01	0	41	104	0	76	41560
2026-01-01 03:19:59.92	322.18	14.87	-53.0	-73.7	3.8	7.45e-01	0	41	104	0	76	41583
2026-01-01 03:20:00.78	321.98	14.89	-53.0	-73.7	3.8	7.48e-01	0	40	104	0	76	41550
2026-01-01 03:20:01.93	321.70	14.91	-53.0	-73.7	3.8	7.47e-01	0	40	104	0	76	41604
2026-01-01 03:20:02.79	321.49	14.93	-53.0	-73.7	3.8	7.48e-01	0	40	104	0	76	41757
2026-01-01 03:20:03.93	321.22	14.95	-53.0	-73.7	3.8	7.49e-01	0	40	104	0	76	41481
2026-01-01 03:20:04.80	321.00	14.97	-53.0	-73.7	3.8	7.44e-01	0	41	104	0	76	41597
2026-01-01 03:20:05.94	320.73	14.99	-53.0	-73.7	3.8	7.47e-01	0	41	104	0	76	41675
2026-01-01 03:20:06.80	320.52	15.00	-53.0	-73.6	3.8	7.44e-01	0	41	104	0	76	41437
2026-01-01 03:20:07.95	320.24	15.02	-53.0	-73.7	3.8	7.48e-01	0	41	104	0	76	41589
2026-01-01 03:20:08.81	320.03	15.04	-53.0	-73.6	3.8	7.47e-01	0	41	104	0	76	41441
2026-01-01 03:20:09.96	319.75	15.06	-53.0	-73.7	3.8	7.47e-01	0	40	104	0	76	41482
2026-01-01 03:20:10.82	319.54	15.07	-53.0	-73.6	3.8	7.48e-01	0	40	104	0	76	41323
2026-01-01 03:20:11.97	319.26	15.09	-53.0	-73.6	3.8	7.44e-01	0	41	104	0	76	41347
2026-01-01 03:20:12.83	319.05	15.10	-53.0	-73.6	3.8	7.48e-01	0	41	104	0	76	41406
2026-01-01 03:20:13.98	318.76	15.12	-53.0	-73.6	3.8	7.46e-01	0	40	104	0	76	41274
2026-01-01 03:20:14.84	318.55	15.13	-53.0	-73.6	3.8	7.45e-01	0	40	104	0	76	41453
2026-01-01 03:20:15.99	318.27	15.15	-53.0	-73.6	3.8	7.47e-01	0	41	104	0	76	41217
2026-01-01 03:20:16.85	318.06	15.16	-53.0	-73.6	3.8	7.46e-01	0	41	104	0	76	41445
2026-01-01 03:20:17.99	317.78	15.17	-53.1	-73.7	3.8	7.49e-01	0	41	104	0	76	41810
2026-01-01 03:20:18.85	317.57	15.18	-53.0	-73.7	3.8	7.47e-01	0	40	104	0	76	41503
2026-01-01 03:20:20.00	317.28	15.20	-53.0	-73.7	3.8	7.46e-01	0	40	104	0	76	41456
2026-01-01 03:20:20.86	317.07	15.21	-53.0	-73.7	3.8	7.45e-01	0	40	104	0	76	41489
2026-01-01 03:20:22.01	316.79	15.22	-53.0	-73.6	3.8	7.46e-01	0	40	104	0	76	41435
2026-01-01 03:20:22.87	316.57	15.23	-53.0	-73.7	3.8	7.48e-01	0	41	104	0	76	41602
2026-01-01 03:20:24.02	316.29	15.24	-53.0	-73.7	3.8	7.46e-01	0	41	104	0	76	41573
2026-01-01 03:20:24.88	316.08	15.25	-53.0	-73.7	3.8	7.43e-01	0	41	104	0	76	41495
2026-01-01 03:20:26.03	315.79	15.26	-53.0	-73.7	3.8	7.47e-01	0	41	104	0	76	41596
2026-01-01 03:20:26.89	315.58	15.27	-53.0	-73.7	3.8	7.45e-01	0	40	104	0	76	41709
2026-01-01 03:20:28.03	315.30	15.27	-53.0	-73.7	3.8	7.48e-01	0	40	104	0	76	41660
2026-01-01 03:20:28.90	315.08	15.28	-53.0	-73.7	3.8	7.46e-01	0	41	104	0	76	41551
2026-01-01 03:20:30.04	314.80	15.29	-53.1	-73.7	3.8	7.46e-01	0	40	104	0	76	41786
2026-01-01 03:20:30.90	314.58	15.29	-53.0	-73.7	3.8	7.44e-01	0	40	104	0	76	41625
2026-01-01 03:20:32.05	314.30	15.30	-53.0	-73.7	3.8	7.44e-01	0	41	104	0	76	41724
2026-01-01 03:20:32.91	314.08	15.30	-53.0	-73.7	3.8	7.47e-01	0	41	104	0	76	41618
2026-01-01 03:20:34.06	313.80	15.31	-53.0	-73.6	3.8	7.44e-01	0	40	104	0	76	41429
2026-01-01 03:20:34.92	313.58	15.31	-53.0	-73.7	3.8	7.48e-01	0	40	104	0	76	41517
2026-01-01 03:20:36.07	313.30	15.32	-53.0	-73.7	3.8	7.45e-01	0	40	104	0	76	41668
2026-01-01 03:20:36.93	313.08	15.32	-53.0	-73.7	3.8	7.46e-01	0	41	104	0	76	41607
2026-01-01 03:20:38.08	312.80	15.32	-53.0	-73.7	3.8	7.46e-01	0	41	104	0	76	41832
2026-01-01 03:20:38.94	312.58	15.33	-53.0	-73.7	3.8	7.47e-01	0	41	104	0	76	41527
2026-01-01 03:20:40.09	312.30	15.33	-53.0	-73.7	3.8	7.49e-01	0	41	104	0	76	41578
2026-01-01 03:20:40.95	312.08	15.33	-53.0	-73.7	3.8	7.47e-01	0	41	104	0	76	41636
2026-01-01 03:20:42.09	311.80	15.33	-53.0	-73.7	3.8	7.43e-01	0	41	104	0	76	41591
2026-01-01 03:20:42.95	311.58	15.33	-53.0	-73.7	3.8	7.49e-01	0	41	104	0	76	41604
2026-01-01 03:20:44.10	311.30	15.33	-53.0	-73.7	3.8	7.46e-01	0	40	104	0	76	41802
2026-01-01 03:20:44.96	311.08	15.33	-53.0	-73.7	3.8	7.46e-01	0	41	104	0	76	41616
2026-01-01 03:20:46.11	310.80	15.33	-53.1	-73.7	3.8	7.48e-01	0	40	104	0	76	41802
2026-01-01 03:20:46.97	310.58	15.32	-53.0	-73.7	3.8	7.43e-01	0	40	104	0	76	41682
2026-01-01 03:20:48.12	310.30	15.32	-53.0	-73.7	3.8	7.45e-01	0	40	104	0	76	41743
2026-01-01 03:20:48.98	310.08	15.32	-53.0	-73.7	3.8	7.46e-01	0	41	104	0	76	41493
2026-01-01 03:20:50.13	309.80	15.31	-53.0	-73.7	3.8	7.46e-01	0	40	104	0	76	41654
2026-01-01 03:20:50.99	309.58	15.31	-53.0	-73.7	3.8	7.47e-01	0	40	104	0	76	41646
2026-01-01 03:20:52.14	309.30	15.30	-53.0	-73.7	3.8	7.47e-01	0	40	104	0	76	41628
2026-01-01 03:20:53.00	309.08	15.30	-53.0	-73.7	3.8	7.50e-01	0	40	104	0	76	41577
2026-01-01 03:20:54.15	308.80	15.29	-53.0	-73.7	3.8	7.46e-01	0	40	104	0	76	41534
2026-01-01 03:20:55.01	308.58	15.29	-53.0	-73.7	3.8	7.48e-01	0	41	104	0	76	41635
2026-01-01 03:20:56.16	308.30	15.28	-53.0	-73.7	3.8	7.46e-01	0	41	104	0	76	41579
2026-01-01 03:20:57.02	308.08	15.27	-53.0	-73.7	3.8	7.47e-01	0	41	104	0	76	41673
2026-01-01 03:20:58.17	307.80	15.27	-53.0	-73.7	3.8	7.47e-01	0	41	104	0	76	41494
2026-01-01 03:20:59.03	307.58	15.26	-53.0	-73.6	3.8	7.43e-01	0	41	104	0	76	41444
2026-01-01 03:21:00.17	307.30	15.25	-53.0	-73.7	3.8	7.45e-01	0	41	104	0	76	41523
2026-01-01 03:21:01.04	307.09	15.24	-53.0	-73.7	3.8	7.45e-01	0	41	104	0	76	41514
2026-01-01 03:21:02.18	306.80	15.23	-53.0	-73.6	3.8	7.47e-01	0	40	104	0	76	41361
2026-01-01 03:21:03.04	306.59	15.22	-53.0	-73.7	3.8	7.46e-01	0	40	104	0	76	41517
2026-01-01 03:21:04.19	306.31	15.21	-53.0	-73.7	3.8	7.47e-01	0	40	104	0	76	41504
2026-01-01 03:21:05.06	306.09	15.20	-53.0	-73.7	3.8	7.47e-01	0	41	104	0	76	41617
2026-01-01 03:21:06.20	305.81	15.18	-53.0	-73.7	3.8	7.46e-01	0	40	104	0	76	41456
2026-01-01 03:21:07.06	305.60	15.17	-53.0	-73.6	3.8	7.45e-01	0	41	104	0	76	41424
2026-01-01 03:21:08.21	305.32	15.16	-53.0	-73.7	3.8	7.49e-01	0	41	104	0	76	41712
2026-01-01 03:21:09.07	305.10	15.15	-53.0	-73.7	3.8	7.49e-01	0	41	104	0	76	41655
2026-01-01 03:21:10.22	304.82	15.13	-53.0	-73.7	3.8	7.45e-01	0	41	104	0	76	41534
2026-01-01 03:21:11.08	304.61	15.12	-53.0	-73.7	3.8	7.46e-01	0	40	104	0	76	41579
2026-01-01 03:21:12.23	304.33	15.10	-53.0	-73.7	3.8	7.47e-01	0	40	104	0	76	41652
2026-01-01 03:21:13.09	304.12	15.09	-53.0	-73.7	3.8	7.43e-01	0	40	104	0	76	41547
2026-01-01 03:21:14.24	303.83	15.07	-53.0	-73.7	3.8	7.47e-01	0	41	104	0	76	41476
2026-01-01 03:21:15.10	303.62	15.06	-53.0	-73.6	3.8	7.48e-01	0	40	104	0	76	41432
2026-01-01 03:21:16.25	303.34	15.04	-53.0	-73.7	3.8	7.46e-01	0	41	104	0	76	41501
2026-01-01 03:21:17.11	303.13	15.02	-53.0	-73.7	3.8	7.45e-01	0	41	104	0	76	41515
2026-01-01 03:21:18.25	302.86	15.00	-53.0	-73.7	3.8	7.45e-01	0	40	104	0	76	41507
2026-01-01 03:21:19.11	302.65	14.99	-53.0	-73.7	3.8	7.44e-01	0	41	104	0	76	41545
2026-01-01 03:21:20.26	302.37	14.97	-53.0	-73.6	3.8	7.46e-01	0	40	104	0	76	41352
2026-01-01 03:21:21.12	302.16	14.95	-53.0	-73.7	3.8	7.45e-01	0	41	104	0	76	41464
2026-01-01 03:21:22.27	301.88	14.93	-53.0	-73.6	3.8	7.46e-01	0	41	104	0	76	41375
2026-01-01 03:21:23.13	301.67	14.91	-53.0	-73.7	3.8	7.47e-01	0	41	104	0	76	41502
2026-01-01 03:21:24.28	301.39	14.89	-53.0	-73.6	3.8	7.47e-01	0	40	104	0	76	41386
2026-01-01 03:21:25.14	301.19	14.87	-53.0	-73.6	3.8	7.48e-01	0	41	104	0	76	41437
2026-01-01 03:21:26.29	300.91	14.84	-53.0	-73.6	3.8	7.48e-01	0	40	104	0	76	41446
2026-01-01 03:21:27.15	300.70	14.83	-53.0	-73.6	3.8	7.45e-01	0	40	104	0	76	41414
2026-01-01 03:21:28.30	300.42	14.80	-53.0	-73.7	3.8	7.49e-01	0	41	104	0	76	41501
2026-01-01 03:21:29.16	300.22	14.78	-53.0	-73.6	3.8	7.47e-01	0	40	104	0	76	41385
2026-01-01 03:21:30.30	299.95	14.75	-53.0	-73.7	3.8	7.45e-01	0	41	104	0	76	41580
2026-01-01 03:21:31.17	299.74	14.73	-53.0	-73.6	3.8	7.45e-01	0	40	104	0	76	41449
2026-01-01 03:21:32.31	299.47	14.71	-53.0	-73.6	3.8	7.52e-01	0	40	104	0	76	41392
2026-01-01 03:21:33.17	299.26	14.68	-53.0	-73.6	3.8	7.44e-01	0	40	104	0	76	41385
2026-01-01 03:21:34.32	298.99	14.66	-53.0	-73.7	3.8	7.44e-01	0	40	104	0	76	41480
2026-01-01 03:21:35.18	298.78	14.63	-53.0	-73.7	3.8	7.46e-01	0	40	104	0	76	41467
2026-01-01 03:21:36.33	298.51	14.60	-53.0	-73.7	3.8	7.42e-01	0	41	104	0	76	41515
2026-01-01 03:21:37.19	298.31	14.58	-53.0	-73.7	3.8	7.45e-01	0	41	104	0	76	41510
2026-01-01 03:21:38.34	298.04	14.55	-53.0	-73.7	3.8	7.46e-01	0	41	104	0	76	41471
2026-01-01 03:21:39.20	297.83	14.53	-53.0	-73.6	3.8	7.43e-01	0	41	104	0	76	41273
2026-01-01 03:21:40.35	297.56	14.49	-53.0	-73.6	3.8	7.44e-01	0	41	104	0	76	41427
2026-01-01 03:21:41.21	297.36	14.47	-53.0	-73.6	3.8	7.46e-01	0	41	104	0	76	41435
2026-01-01 03:21:42.35	297.09	14.44	-53.0	-73.7	3.8	7.43e-01	0	41	104	0	76	41487
2026-01-01 03:21:43.22	296.89	14.41	-53.0	-73.6	3.8	7.42e-01	0	41	104	0	76	41311
2026-01-01 03:21:44.37	296.62	14.38	-53.0	-73.6	3.8	7.42e-01	0	40	104	0	76	41213
2026-01-01 03:21:45.23	296.42	14.35	-53.0	-73.7	3.8	7.44e-01	0	41	104	0	76	41504
2026-01-01 03:21:46.37	296.16	14.32	-53.0	-73.7	3.8	7.45e-01	0	41	104	0	76	41494
2026-01-01 03:21:47.24	295.96	14.29	-53.0	-73.7	3.8	7.43e-01	0	41	104	0	76	41509
2026-01-01 03:21:48.38	295.69	14.26	-53.0	-73.7	3.8	7.45e-01	0	40	104	0	76	41562
2026-01-01 03:21:49.24	295.49	14.23	-53.0	-73.7	3.8	7.46e-01	0	40	104	0	76	41469
2026-01-01 03:21:50.39	295.23	14.19	-53.0	-73.6	3.8	7.45e-01	0	40	104	0	76	41280
2026-01-01 03:21:51.25	295.03	14.17	-53.0	-73.7	3.8	7.46e-01	0	40	104	0	76	41584
2026-01-01 03:21:52.40	294.77	14.13	-53.0	-73.6	3.8	7.48e-01	0	41	104	0	76	41357
2026-01-01 03:21:53.26	294.57	14.10	-53.0	-73.7	3.8	7.47e-01	0	40	104	0	76	41483
2026-01-01 03:21:54.41	294.31	14.06	-53.0	-73.6	3.8	7.45e-01	0	41	104	0	76	41259
2026-01-01 03:21:55.27	294.11	14.03	-53.0	-73.6	3.8	7.44e-01	0	40	104	0	76	41359
2026-01-01 03:21:56.42	293.85	13.99	-52.9	-73.6	3.8	7.43e-01	0	41	104	0	76	41302
2026-01-01 03:21:57.28	293.66	13.96	-53.0	-73.7	3.8	7.45e-01	0	40	104	0	76	41489
2026-01-01 03:21:58.43	293.40	13.92	-53.0	-73.6	3.8	7.49e-01	0	41	104	0	76	41350
2026-01-01 03:21:59.43	293.17	13.89	-53.0	-73.7	3.8	7.42e-01	0	41	104	0	76	41486
2026-01-01 03:22:00.61	292.91	13.85	-53.0	-73.7	3.8	7.47e-01	0	41	104	0	76	41580
2026-01-01 03:22:01.50	292.71	13.82	-53.0	-73.7	3.8	7.44e-01	0	41	104	0	76	41652
2026-01-01 03:22:02.55	292.47	13.78	-53.0	-73.7	3.8	7.50e-01	0	41	104	0	76	41578
2026-01-01 03:22:03.44	292.28	13.75	-53.0	-73.7	3.8	7.46e-01	0	41	104	0	76	41607
2026-01-01 03:22:04.59	292.02	13.70	-53.0	-73.7	3.8	7.44e-01	0	40	104	0	76	41536
2026-01-01 03:22:05.45	291.83	13.67	-53.0	-73.7	3.8	7.50e-01	0	41	104	0	76	41567
2026-01-01 03:22:06.59	291.58	13.63	-53.0	-73.6	3.8	7.44e-01	0	41	104	0	76	41361
2026-01-01 03:22:07.46	291.39	13.59	-53.0	-73.7	3.8	7.44e-01	0	41	104	0	76	41579
2026-01-01 03:22:08.60	291.14	13.55	-53.0	-73.6	3.8	7.47e-01	0	41	104	0	76	41384
2026-01-01 03:22:09.46	290.95	13.52	-53.0	-73.6	3.8	7.45e-01	0	41	104	0	76	41408
2026-01-01 03:22:10.61	290.70	13.47	-53.0	-73.7	3.8	7.48e-01	0	41	104	0	76	41489
2026-01-01 03:22:11.47	290.51	13.44	-53.0	-73.6	3.8	7.45e-01	0	40	104	0	76	41375
2026-01-01 03:22:12.62	290.26	13.39	-53.0	-73.7	3.8	7.45e-01	0	40	104	0	76	41481
2026-01-01 03:22:13.48	290.07	13.36	-53.0	-73.7	3.8	7.47e-01	0	41	104	0	76	41510
2026-01-01 03:22:14.74	289.80	13.31	-53.0	-73.6	3.8	7.46e-01	0	41	104	0	76	41410
2026-01-01 03:22:15.47	289.64	13.28	-53.0	-73.6	3.8	7.45e-01	0	41	104	0	76	41427
2026-01-01 03:22:16.77	289.36	13.23	-53.0	-73.7	3.8	7.45e-01	0	40	104	0	76	41490
2026-01-01 03:22:17.48	289.21	13.20	-53.0	-73.7	3.8	7.47e-01	0	41	104	0	76	41573
2026-01-01 03:22:18.77	288.94	13.14	-53.0	-73.6	3.8	7.47e-01	0	40	104	0	76	41427
2026-01-01 03:22:19.49	288.78	13.11	-53.0	-73.6	3.8	7.45e-01	0	40	104	0	76	41366
2026-01-01 03:22:20.78	288.51	13.06	-53.0	-73.6	3.8	7.47e-01	0	40	104	0	76	41405
2026-01-01 03:22:21.50	288.36	13.03	-53.0	-73.7	3.8	7.46e-01	0	40	104	0	76	41478
2026-01-01 03:22:22.79	288.09	12.97	-53.0	-73.7	3.8	7.47e-01	0	40	104	0	76	41466
2026-01-01 03:22:23.51	287.93	12.94	-53.0	-73.7	3.8	7.45e-01	0	41	104	0	76	41495
2026-01-01 03:22:24.80	287.66	12.89	-53.0	-73.6	3.8	7.44e-01	0	41	104	0	76	41438
2026-01-01 03:22:25.52	287.51	12.86	-53.0	-73.7	3.8	7.45e-01	0	41	104	0	76	41593
2026-01-01 03:22:26.84	287.24	12.80	-53.0	-73.7	3.8	7.48e-01	0	40	104	0	76	41516
2026-01-01 03:22:27.56	287.09	12.77	-53.0	-73.7	3.8	7.48e-01	0	41	104	0	76	41479
2026-01-01 03:22:28.91	286.81	12.71	-53.0	-73.6	3.8	7.45e-01	0	41	104	0	76	41393
2026-01-01 03:22:29.63	286.66	12.68	-53.0	-73.7	3.8	7.44e-01	0	40	104	0	76	41472
2026-01-01 03:22:30.92	286.40	12.62	-53.0	-73.6	3.8	7.47e-01	0	41	104	0	76	41409
2026-01-01 03:22:31.64	286.25	12.59	-53.0	-73.6	3.8	7.47e-01	0	41	104	0	76	41396
2026-01-01 03:22:32.93	285.99	12.53	-53.0	-73.6	3.8	7.47e-01	0	40	104	0	76	41409
2026-01-01 03:22:33.65	285.84	12.50	-53.0	-73.7	3.8	7.44e-01	0	41	104	0	76	41504
2026-01-01 03:22:34.94	285.58	12.44	-53.0	-73.7	3.8	7.46e-01	0	41	104	0	76	41594
2026-01-01 03:22:35.65	285.43	12.40	-53.0	-73.7	3.8	7.43e-01	0	41	104	0	76	41609
2026-01-01 03:22:36.95	285.17	12.34	-53.0	-73.7	3.8	7.49e-01	0	41	104	0	76	41594
2026-01-01 03:22:37.66	285.03	12.31	-53.0	-73.7	3.8	7.46e-01	0	41	104	0	76	41559
2026-01-01 03:22:38.95	284.77	12.25	-53.1	-73.7	3.8	7.46e-01	0	41	104	0	76	41722
2026-01-01 03:22:39.67	284.63	12.22	-53.0	-73.7	3.8	7.42e-01	0	40	104	0	76	41658
2026-01-01 03:22:40.96	284.37	12.16	-53.0	-73.7	3.8	7.50e-01	0	41	104	0	76	41603
2026-01-01 03:22:41.68	284.23	12.12	-53.0	-73.7	3.8	7.47e-01	0	40	104	0	76	41501
2026-01-01 03:22:42.97	283.98	12.06	-53.0	-73.7	3.8	7.47e-01	0	40	104	0	76	41457
2026-01-01 03:22:43.69	283.83	12.03	-53.0	-73.7	3.8	7.45e-01	0	40	104	0	76	41613
2026-01-01 03:22:44.98	283.58	11.97	-53.0	-73.6	3.8	7.44e-01	0	40	104	0	76	41443
2026-01-01 03:22:45.70	283.44	11.93	-53.0	-73.7	3.8	7.46e-01	0	41	104	0	76	41650
2026-01-01 03:22:46.99	283.19	11.87	-53.0	-73.7	3.8	7.45e-01	0	40	104	0	76	41547
2026-01-01 03:22:47.71	283.05	11.83	-53.0	-73.7	3.8	7.46e-01	0	41	104	0	76	41561
2026-01-01 03:22:49.00	282.80	11.77	-53.0	-73.7	3.8	7.44e-01	0	41	104	0	76	41567
2026-01-01 03:22:49.72	282.66	11.74	-53.0	-73.7	3.8	7.44e-01	0	41	104	0	76	41579
2026-01-01 03:22:51.01	282.42	11.67	-53.0	-73.6	3.8	7.41e-01	0	41	104	0	76	41441
2026-01-01 03:22:51.72	282.28	11.64	-53.0	-73.6	3.8	7.44e-01	0	41	104	0	76	41366
2026-01-01 03:22:53.02	282.03	11.57	-53.0	-73.6	3.8	7.46e-01	0	41	104	0	76	41439
2026-01-01 03:22:53.73	281.90	11.54	-53.0	-73.6	3.8	7.48e-01	0	40	104	0	76	41255
2026-01-01 03:22:55.02	281.66	11.47	-53.0	-73.7	3.8	7.46e-01	0	40	104	0	76	41555
2026-01-01 03:22:55.74	281.52	11.44	-53.0	-73.7	3.8	7.49e-01	0	40	104	0	76	41543
2026-01-01 03:22:57.03	281.28	11.37	-53.0	-73.6	3.8	7.48e-01	0	40	104	0	76	41357
2026-01-01 03:22:57.75	281.14	11.34	-53.0	-73.7	3.8	7.45e-01	0	41	104	0	76	41532
2026-01-01 03:22:59.04	280.90	11.27	-53.0	-73.7	3.8	7.46e-01	0	41	104	0	76	41598
2026-01-01 03:22:59.76	280.77	11.24	-53.0	-73.7	3.8	7.47e-01	0	41	104	0	76	41580
2026-01-01 03:23:01.05	280.53	11.17	-53.0	-73.7	3.8	7.43e-01	0	41	104	0	76	41633
2026-01-01 03:23:01.77	280.40	11.13	-53.1	-73.7	3.8	7.44e-01	0	41	104	0	76	41574
2026-01-01 03:23:03.06	280.16	11.07	-53.0	-73.7	3.8	7.46e-01	0	41	104	0	76	41503
2026-01-01 03:23:03.77	280.03	11.03	-53.0	-73.6	3.8	7.45e-01	0	40	104	0	76	41210
2026-01-01 03:23:05.07	279.80	10.96	-53.0	-73.7	3.8	7.44e-01	0	41	104	0	76	41482
2026-01-01 03:23:05.78	279.67	10.93	-53.0	-73.6	3.8	7.48e-01	0	41	104	0	76	41378
2026-01-01 03:23:07.08	279.43	10.86	-53.0	-73.6	3.8	7.48e-01	0	40	104	0	76	41203
2026-01-01 03:23:07.79	279.31	10.82	-53.0	-73.7	3.8	7.46e-01	0	41	104	0	76	41472
2026-01-01 03:23:09.08	279.07	10.76	-53.0	-73.7	3.8	7.45e-01	0	41	104	0	76	41491
2026-01-01 03:23:09.80	278.95	10.72	-53.0	-73.6	3.8	7.48e-01	0	40	104	0	76	41292
2026-01-01 03:23:11.09	278.72	10.65	-53.0	-73.6	3.8	7.45e-01	0	40	104	0	76	41210
2026-01-01 03:23:11.81	278.59	10.62	-53.0	-73.6	3.8	7.46e-01	0	41	104	0	76	41280
2026-01-01 03:23:13.10	278.36	10.55	-53.0	-73.6	3.8	7.45e-01	0	40	104	0	76	41448
2026-01-01 03:23:13.82	278.23	10.51	-53.0	-73.6	3.8	7.45e-01	0	41	104	0	76	41308
2026-01-01 03:23:15.11	278.01	10.44	-53.0	-73.6	3.8	7.45e-01	0	41	104	0	76	41379
2026-01-01 03:23:15.83	277.88	10.40	-53.0	-73.6	3.8	7.48e-01	0	41	104	0	76	41365
2026-01-01 03:23:17.12	277.66	10.34	-53.0	-73.6	3.8	7.44e-01	0	40	104	0	76	41347
2026-01-01 03:23:17.84	277.54	10.30	-53.0	-73.6	3.8	7.46e-01	0	41	104	0	76	41166
2026-01-01 03:23:19.13	277.31	10.23	-52.9	-73.6	3.8	7.46e-01	0	40	104	0	76	41261
2026-01-01 03:23:19.85	277.19	10.19	-53.0	-73.7	3.8	7.46e-01	0	41	104	0	76	41532
2026-01-01 03:23:21.14	276.97	10.12	-53.0	-73.6	3.8	7.45e-01	0	40	104	0	76	41407
2026-01-01 03:23:21.86	276.85	10.08	-53.0	-73.6	3.8	7.45e-01	0	40	104	0	76	41338
2026-01-01 03:23:23.15	276.63	10.01	-53.0	-73.6	3.8	7.46e-01	0	40	104	0	76	41392
2026-01-01 03:23:23.86	276.51	9.98	-53.0	-73.6	3.8	7.45e-01	0	41	104	0	76	41395
2026-01-01 03:23:25.16	276.29	9.91	-53.0	-73.6	3.8	7.44e-01	0	40	104	0	76	41415
2026-01-01 03:23:25.87	276.17	9.87	-53.0	-73.7	3.8	7.44e-01	0	40	104	0	76	41591
2026-01-01 03:23:27.16	275.96	9.80	-53.0	-73.6	3.8	7.46e-01	0	40	104	0	76	41371
2026-01-01 03:23:27.88	275.84	9.76	-53.0	-73.6	3.8	7.47e-01	0	40	104	0	76	41392
2026-01-01 03:23:29.17	275.62	9.69	-53.0	-73.7	3.8	7.48e-01	0	41	104	0	76	41509
2026-01-01 03:23:29.89	275.50	9.65	-53.0	-73.6	3.8	7.46e-01	0	41	104	0	76	41406
2026-01-01 03:23:31.18	275.29	9.58	-53.0	-73.6	3.8	7.47e-01	0	40	104	0	76	41380
2026-01-01 03:23:31.90	275.17	9.54	-53.0	-73.6	3.8	7.48e-01	0	40	104	0	76	41343
2026-01-01 03:23:33.19	274.96	9.47	-53.0	-73.6	3.8	7.46e-01	0	40	104	0	76	41230
2026-01-01 03:23:33.91	274.85	9.43	-53.0	-73.6	3.8	7.44e-01	0	40	104	0	76	41305
2026-01-01 03:23:35.20	274.64	9.36	-53.0	-73.7	3.8	7.50e-01	0	40	104	0	76	41591
2026-01-01 03:23:35.92	274.52	9.32	-53.0	-73.6	3.8	7.45e-01	0	40	104	0	76	41374
2026-01-01 03:23:37.21	274.32	9.25	-53.0	-73.6	3.8	7.49e-01	0	40	104	0	76	41300
2026-01-01 03:23:37.92	274.20	9.21	-53.0	-73.7	3.8	7.48e-01	0	40	104	0	76	41588
2026-01-01 03:23:39.21	274.00	9.14	-53.0	-73.7	3.8	7.46e-01	0	40	104	0	76	41552
2026-01-01 03:23:39.93	273.88	9.10	-53.0	-73.6	3.8	7.46e-01	0	40	104	0	76	41403
2026-01-01 03:23:41.22	273.68	9.03	-52.9	-73.6	3.8	7.47e-01	0	40	104	0	76	41257
2026-01-01 03:23:41.94	273.57	8.99	-53.0	-73.6	3.8	7.43e-01	0	40	104	0	76	41366
2026-01-01 03:23:43.23	273.37	8.92	-53.0	-73.6	3.8	7.46e-01	0	40	104	0	76	41427
2026-01-01 03:23:43.95	273.26	8.88	-53.0	-73.7	3.8	7.45e-01	0	40	104	0	76	41470
2026-01-01 03:23:45.24	273.06	8.81	-52.9	-73.6	3.8	7.44e-01	0	41	104	0	76	41298
2026-01-01 03:23:45.96	272.94	8.77	-53.0	-73.6	3.8	7.43e-01	0	40	104	0	76	41352
2026-01-01 03:23:47.25	272.75	8.70	-53.0	-73.7	3.8	7.50e-01	0	40	104	0	76	41664
2026-01-01 03:23:47.97	272.64	8.66	-53.0	-73.7	3.8	7.48e-01	0	41	104	0	76	41550
2026-01-01 03:23:49.26	272.44	8.59	-53.0	-73.7	3.8	7.47e-01	0	40	104	0	76	41548
2026-01-01 03:23:49.97	272.33	8.55	-53.0	-73.7	3.8	7.47e-01	0	40	104	0	76	41536
2026-01-01 03:23:51.26	272.14	8.48	-53.0	-73.6	3.8	7.47e-01	0	40	104	0	76	41393
2026-01-01 03:23:51.98	272.03	8.44	-53.0	-73.6	3.8	7.46e-01	0	41	104	0	76	41419
2026-01-01 03:23:53.27	271.84	8.37	-53.0	-73.7	3.8	7.47e-01	0	40	104	0	76	41490
2026-01-01 03:23:53.99	271.73	8.33	-53.0	-73.6	3.8	7.49e-01	0	40	104	0	76	41336
2026-01-01 03:23:55.28	271.54	8.26	-53.0	-73.6	3.8	7.45e-01	0	40	104	0	76	41339
2026-01-01 03:23:56.00	271.43	8.22	-53.0	-73.6	3.8	7.48e-01	0	40	104	0	76	41410
2026-01-01 03:23:57.29	271.24	8.14	-53.0	-73.6	3.8	7.43e-01	0	40	104	0	76	41296
2026-01-01 03:23:58.01	271.13	8.10	-53.0	-73.6	3.8	7.47e-01	0	40	104	0	76	41423
2026-01-01 03:23:59.30	270.95	8.03	-52.9	-73.6	3.8	7.48e-01	0	41	104	0	76	41228
2026-01-01 03:24:00.02	270.84	7.99	-53.0	-73.7	3.8	7.47e-01	0	41	104	0	76	41457
2026-01-01 03:24:01.31	270.65	7.92	-53.0	-73.7	3.8	7.45e-01	0	40	104	0	76	41595
2026-01-01 03:24:02.02	270.55	7.88	-53.0	-73.7	3.8	7.46e-01	0	40	104	0	76	41568
2026-01-01 03:24:03.31	270.37	7.81	-53.0	-73.6	3.8	7.46e-01	0	40	104	0	76	41352
2026-01-01 03:24:04.03	270.26	7.77	-53.0	-73.7	3.8	7.46e-01	0	41	104	0	76	41465
2026-01-01 03:24:05.32	270.08	7.70	-53.0	-73.6	3.8	7.49e-01	0	40	104	0	76	41423
2026-01-01 03:24:06.04	269.98	7.66	-52.9	-73.6	3.8	7.49e-01	0	41	104	0	76	41300
2026-01-01 03:24:07.33	269.80	7.58	-53.0	-73.6	3.8	7.48e-01	0	40	104	0	76	41317
2026-01-01 03:24:08.05	269.69	7.54	-53.0	-73.6	3.8	7.46e-01	0	41	104	0	76	41387
2026-01-01 03:24:09.34	269.51	7.47	-53.0	-73.6	3.8	7.49e-01	0	41	104	0	76	41321
2026-01-01 03:24:10.06	269.41	7.43	-53.0	-73.6	3.8	7.45e-01	0	40	104	0	76	41352
2026-01-01 03:24:11.35	269.23	7.36	-53.0	-73.7	3.8	7.49e-01	0	41	104	0	76	41476
2026-01-01 03:24:12.07	269.13	7.32	-53.0	-73.7	3.8	7.45e-01	0	41	104	0	76	41459
2026-01-01 03:24:13.36	268.96	7.25	-53.0	-73.7	3.8	7.42e-01	0	41	104	0	76	41498
2026-01-01 03:24:14.08	268.86	7.21	-53.0	-73.7	3.8	7.45e-01	0	40	104	0	76	41709
2026-01-01 03:24:15.37	268.68	7.13	-53.0	-73.7	3.8	7.44e-01	0	40	104	0	76	41545
2026-01-01 03:24:16.08	268.59	7.09	-53.0	-73.7	3.8	7.46e-01	0	40	104	0	76	41473
2026-01-01 03:24:17.38	268.41	7.02	-53.0	-73.7	3.8	7.48e-01	0	40	104	0	76	41732
2026-01-01 03:24:18.09	268.31	6.98	-53.0	-73.7	3.8	7.46e-01	0	41	104	0	76	41650
2026-01-01 03:24:19.39	268.14	6.91	-53.0	-73.6	3.8	7.46e-01	0	40	104	0	76	41409
2026-01-01 03:24:20.10	268.04	6.87	-53.0	-73.7	3.8	7.46e-01	0	40	104	0	76	41733
2026-01-01 03:24:21.39	267.87	6.80	-53.0	-73.7	3.8	7.46e-01	0	40	104	0	76	41535
2026-01-01 03:24:22.11	267.78	6.76	-53.1	-73.7	3.8	7.43e-01	0	40	104	0	76	41699
2026-01-01 03:24:23.40	267.61	6.68	-53.0	-73.7	3.8	7.49e-01	0	40	104	0	76	41477
2026-01-01 03:24:24.12	267.51	6.64	-53.0	-73.7	3.8	7.49e-01	0	40	104	0	76	41516
2026-01-01 03:24:25.41	267.34	6.57	-53.0	-73.7	3.8	7.46e-01	0	40	104	0	76	41611
2026-01-01 03:24:26.13	267.25	6.53	-53.0	-73.7	3.8	7.48e-01	0	41	104	0	76	41633
2026-01-01 03:24:27.42	267.08	6.46	-53.0	-73.7	3.8	7.45e-01	0	40	104	0	76	41527
2026-01-01 03:24:28.14	266.99	6.42	-53.0	-73.7	3.8	7.46e-01	0	40	104	0	76	41743
2026-01-01 03:24:29.43	266.82	6.35	-53.0	-73.7	3.8	7.45e-01	0	40	104	0	76	41524
2026-01-01 03:24:30.15	266.73	6.31	-53.0	-73.7	3.8	7.44e-01	0	41	104	0	76	41716
2026-01-01 03:24:31.44	266.57	6.24	-53.0	-73.7	3.8	7.49e-01	0	40	104	0	76	41568
2026-01-01 03:24:32.16	266.48	6.19	-53.0	-73.7	3.8	7.45e-01	0	40	104	0	76	41587
2026-01-01 03:24:33.45	266.31	6.12	-53.0	-73.7	3.8	7.47e-01	0	40	104	0	76	41525
2026-01-01 03:24:34.26	266.21	6.08	-53.0	-73.6	3.8	7.47e-01	0	40	104	0	76	41422
2026-01-01 03:24:35.41	266.07	6.01	-53.0	-73.7	3.8	7.46e-01	0	40	104	0	76	41465
2026-01-01 03:24:36.27	265.96	5.97	-53.0	-73.6	3.8	7.45e-01	0	40	104	0	76	41405
2026-01-01 03:24:37.42	265.82	5.90	-53.0	-73.6	3.8	7.43e-01	0	40	104	0	76	41393
2026-01-01 03:24:38.28	265.71	5.85	-53.0	-73.7	3.8	7.49e-01	0	40	104	0	76	41464
2026-01-01 03:24:39.42	265.57	5.79	-53.0	-73.6	3.8	7.43e-01	0	40	104	0	76	41413
2026-01-01 03:24:40.28	265.46	5.74	-53.0	-73.7	3.8	7.47e-01	0	40	104	0	76	41626
2026-01-01 03:24:41.43	265.32	5.68	-53.0	-73.7	3.8	7.45e-01	0	40	104	0	76	41648
2026-01-01 03:24:42.29	265.22	5.63	-53.0	-73.7	3.8	7.46e-01	0	40	104	0	76	41611
2026-01-01 03:24:43.44	265.08	5.57	-53.0	-73.7	3.8	7.51e-01	0	40	104	0	76	41630
2026-01-01 03:24:44.30	264.98	5.52	-53.0	-73.7	3.8	7.45e-01	0	40	104	0	76	41647
2026-01-01 03:24:45.45	264.84	5.45	-53.0	-73.7	3.8	7.46e-01	0	40	104	0	76	41499
2026-01-01 03:24:46.37	264.73	5.40	-53.0	-73.7	3.8	7.48e-01	0	40	104	0	76	41697
2026-01-01 03:24:47.38	264.61	5.35	-53.0	-73.6	3.8	7.42e-01	0	40	104	0	76	41424
2026-01-01 03:24:48.38	264.49	5.29	-53.0	-73.6	3.8	7.45e-01	0	40	104	0	76	41413
2026-01-01 03:24:49.38	264.37	5.23	-53.0	-73.6	3.8	7.46e-01	0	40	104	0	76	41441
2026-01-01 03:24:50.39	264.25	5.18	-53.0	-73.6	3.8	7.42e-01	0	40	104	0	76	41448
2026-01-01 03:24:51.39	264.14	5.12	-53.0	-73.7	3.8	7.49e-01	0	40	104	0	76	41602
2026-01-01 03:24:52.40	264.02	5.07	-53.0	-73.6	3.8	7.44e-01	0	40	104	0	76	41404
2026-01-01 03:24:53.40	263.90	5.01	-53.0	-73.7	3.8	7.45e-01	0	40	104	0	76	41577
2026-01-01 03:24:54.40	263.79	4.96	-53.0	-73.7	3.8	7.43e-01	0	40	104	0	76	41504

#Closed at: 2026-01-01 03:24:55
#Recorded file [0 MB]: D:/Data/31040_260101_061630.dat