passes_logs/2026/01/01/T1/T1__20260101_104915_NOAA_20_JPSS-1_rec.log

#Pass ID: 20260101_104915_NOAA 20 (JPSS-1)
#Satellite: NOAA 20 (JPSS-1)
#Configuration: NOAA 20
#almurnet v.1.7.20251203
#Start time: 2026-01-01 10:49:16

#Version: 2.0.20230620
#Station: T1
#Location: 37.570604 lon 55.790049 lat
#TLE: 1 43013U 17073A   25365.45761817  .00000173  00000+0  10307-3 0  9993
#TLE: 2 43013  98.7620 301.5517 0001951  60.3814 299.7557 14.19531661420675

#Time	Az	El	Level	Level2	SNR	BER	BlckErr	Temp	State	Recorded	gain1	gain2
2026-01-01 10:49:16.14	188.86	5.03	-52.7	-67.8	3.8	1.49e+00	0	41	0	0	76	21127
2026-01-01 10:49:17.14	188.91	5.09	-52.6	-67.8	3.8	1.49e+00	0	41	104	0	77	19889
2026-01-01 10:49:18.15	188.96	5.16	-52.7	-67.8	3.8	1.49e+00	0	41	104	0	77	19982
2026-01-01 10:49:19.15	189.02	5.23	-52.6	-67.8	3.8	1.49e+00	0	41	104	0	77	19852
2026-01-01 10:49:20.16	189.07	5.30	-52.6	-67.8	3.8	1.49e+00	0	41	104	0	77	19867
2026-01-01 10:49:21.16	189.12	5.37	-52.6	-67.7	3.8	1.49e+00	0	41	104	0	77	19786
2026-01-01 10:49:22.17	189.17	5.44	-52.7	-67.8	3.8	1.49e+00	0	41	104	0	77	19956
2026-01-01 10:49:23.17	189.23	5.51	-52.7	-67.9	3.8	1.49e+00	0	41	104	0	77	20077
2026-01-01 10:49:24.17	189.28	5.58	-52.6	-67.8	3.8	1.49e+00	0	41	104	0	77	19934
2026-01-01 10:49:25.18	189.33	5.64	-52.6	-67.7	3.8	1.49e+00	0	41	104	0	77	19819
2026-01-01 10:49:26.18	189.39	5.71	-52.6	-67.7	3.8	1.49e+00	0	41	104	0	77	19811
2026-01-01 10:49:27.19	189.44	5.78	-52.6	-67.7	3.8	1.49e+00	0	41	104	0	77	19803
2026-01-01 10:49:28.19	189.50	5.85	-52.7	-67.8	3.8	1.49e+00	0	41	104	0	77	19918
2026-01-01 10:49:29.19	189.55	5.92	-52.6	-67.8	3.8	1.49e+00	0	41	104	0	77	19912
2026-01-01 10:49:30.20	189.60	5.99	-52.6	-67.7	3.8	1.49e+00	0	41	104	0	77	19765
2026-01-01 10:49:31.20	189.66	6.06	-52.6	-67.7	3.8	1.49e+00	0	42	104	0	77	19744
2026-01-01 10:49:32.20	189.71	6.13	-52.6	-67.7	3.8	1.49e+00	0	42	104	0	77	19777
2026-01-01 10:49:33.21	189.77	6.21	-52.6	-67.7	3.8	1.49e+00	0	41	104	0	77	19735
2026-01-01 10:49:34.21	189.83	6.28	-52.7	-67.8	3.8	1.49e+00	0	41	104	0	77	19902
2026-01-01 10:49:35.22	189.88	6.35	-52.6	-67.8	3.8	1.49e+00	0	42	104	0	77	19888
2026-01-01 10:49:36.22	189.94	6.42	-52.6	-67.8	3.8	1.49e+00	0	42	104	0	77	19908
2026-01-01 10:49:37.23	189.99	6.49	-52.6	-67.8	3.8	1.49e+00	0	42	104	0	77	19880
2026-01-01 10:49:38.47	190.06	6.58	-52.7	-67.8	3.8	1.49e+00	0	42	104	0	77	19886
2026-01-01 10:49:39.39	190.12	6.65	-52.6	-67.8	3.8	1.49e+00	0	42	104	0	77	19896
2026-01-01 10:49:40.56	190.18	6.73	-52.7	-67.8	3.8	1.49e+00	0	42	104	0	77	19851
2026-01-01 10:49:41.46	190.24	6.79	-52.6	-67.7	3.8	1.49e+00	0	42	104	0	77	19794
2026-01-01 10:49:42.65	190.30	6.88	-52.7	-67.8	3.8	1.49e+00	0	42	104	0	77	19920
2026-01-01 10:49:43.51	190.35	6.94	-52.6	-67.8	3.8	1.49e+00	0	42	104	0	77	19901
2026-01-01 10:49:44.66	190.42	7.02	-52.6	-67.8	3.8	1.49e+00	0	42	104	0	77	19860
2026-01-01 10:49:45.52	190.47	7.09	-52.6	-67.8	3.8	1.49e+00	0	42	104	0	77	19889
2026-01-01 10:49:46.66	190.54	7.17	-52.7	-67.8	3.8	1.49e+00	0	42	104	0	77	19863
2026-01-01 10:49:47.53	190.59	7.23	-52.6	-67.8	3.8	1.49e+00	0	42	104	0	77	19875
2026-01-01 10:49:48.67	190.66	7.32	-52.6	-67.8	3.8	1.49e+00	0	42	104	0	77	19900
2026-01-01 10:49:49.53	190.71	7.38	-52.6	-67.8	3.8	1.49e+00	0	42	104	0	77	19923
2026-01-01 10:49:50.68	190.78	7.47	-52.6	-67.8	3.8	1.49e+00	0	42	104	0	77	19955
2026-01-01 10:49:51.54	190.83	7.53	-52.6	-67.7	3.8	1.49e+00	0	42	104	0	77	19841
2026-01-01 10:49:52.69	190.90	7.61	-52.6	-67.8	3.8	1.49e+00	0	42	104	0	77	19879
2026-01-01 10:49:53.55	190.95	7.68	-52.7	-67.8	3.8	1.49e+00	0	42	104	0	77	19980
2026-01-01 10:49:54.76	191.02	7.77	-52.7	-67.8	3.8	1.49e+00	0	42	104	0	77	19912
2026-01-01 10:49:55.62	191.08	7.83	-52.7	-67.8	3.8	1.49e+00	0	42	104	0	77	19903
2026-01-01 10:49:56.77	191.15	7.92	-52.6	-67.8	3.8	1.49e+00	0	42	104	0	77	19910
2026-01-01 10:49:57.63	191.20	7.98	-52.6	-67.8	3.8	1.49e+00	0	42	104	0	77	19870
2026-01-01 10:49:58.78	191.27	8.07	-52.6	-67.7	3.8	1.49e+00	0	42	104	0	77	19788
2026-01-01 10:49:59.64	191.33	8.13	-52.6	-67.8	3.8	1.49e+00	0	42	104	0	77	19882
2026-01-01 10:50:00.79	191.40	8.22	-52.6	-67.7	3.8	1.49e+00	0	42	104	0	77	19813
2026-01-01 10:50:01.65	191.45	8.28	-52.6	-67.8	3.8	1.49e+00	0	42	104	0	77	19851
2026-01-01 10:50:02.80	191.53	8.37	-52.6	-67.8	3.8	1.49e+00	0	43	104	0	77	19891
2026-01-01 10:50:03.66	191.58	8.44	-52.6	-67.7	3.8	1.49e+00	0	42	104	0	77	19783
2026-01-01 10:50:04.81	191.65	8.53	-52.7	-67.8	3.8	1.49e+00	0	43	104	0	77	19940
2026-01-01 10:50:05.67	191.71	8.59	-52.7	-67.8	3.8	1.49e+00	0	42	104	0	77	19907
2026-01-01 10:50:06.81	191.78	8.68	-52.7	-67.8	3.8	1.49e+00	0	42	104	0	77	19937
2026-01-01 10:50:07.67	191.84	8.74	-52.6	-67.8	3.8	1.49e+00	0	42	104	0	77	19846
2026-01-01 10:50:08.82	191.92	8.83	-52.6	-67.8	3.8	1.49e+00	0	42	104	0	77	19870
2026-01-01 10:50:09.68	191.97	8.90	-52.7	-67.8	3.8	1.49e+00	0	42	104	0	77	19943
2026-01-01 10:50:10.83	192.05	8.99	-52.6	-67.8	3.8	1.49e+00	0	43	104	0	77	19884
2026-01-01 10:50:11.69	192.10	9.06	-52.6	-67.7	3.8	1.49e+00	0	42	104	0	77	19773
2026-01-01 10:50:12.84	192.18	9.15	-52.6	-67.8	3.8	1.49e+00	0	42	104	0	77	19907
2026-01-01 10:50:13.70	192.24	9.21	-52.6	-67.7	3.8	1.49e+00	0	43	104	0	77	19793
2026-01-01 10:50:14.85	192.32	9.30	-52.6	-67.8	3.8	1.49e+00	0	43	104	0	77	19842
2026-01-01 10:50:15.71	192.38	9.37	-52.6	-67.8	3.8	1.49e+00	0	43	104	0	77	19849
2026-01-01 10:50:16.85	192.45	9.46	-52.6	-67.7	3.8	1.49e+00	0	43	104	0	77	19762
2026-01-01 10:50:17.72	192.51	9.53	-52.7	-67.8	3.8	1.49e+00	0	43	104	0	77	20013
2026-01-01 10:50:18.86	192.59	9.62	-52.7	-67.8	3.8	1.49e+00	0	43	104	0	77	19875
2026-01-01 10:50:19.72	192.65	9.69	-52.7	-67.8	3.8	1.49e+00	0	43	104	0	77	19892
2026-01-01 10:50:20.87	192.73	9.78	-52.6	-67.7	3.8	1.49e+00	0	43	104	0	77	19823
2026-01-01 10:50:21.73	192.79	9.85	-52.6	-67.8	3.8	1.49e+00	0	43	104	0	77	19894
2026-01-01 10:50:22.88	192.87	9.94	-52.6	-67.7	3.8	1.49e+00	0	43	104	0	77	19754
2026-01-01 10:50:23.74	192.93	10.01	-52.7	-67.8	3.8	1.49e+00	0	43	104	0	77	19891
2026-01-01 10:50:24.89	193.01	10.10	-52.6	-67.7	3.8	1.49e+00	0	43	104	0	77	19832
2026-01-01 10:50:25.75	193.08	10.17	-52.6	-67.8	3.8	1.49e+00	0	43	104	0	77	19858
2026-01-01 10:50:26.90	193.16	10.27	-52.6	-67.8	3.8	1.49e+00	0	43	104	0	77	19879
2026-01-01 10:50:27.76	193.22	10.34	-52.6	-67.7	3.8	1.49e+00	0	43	104	0	77	19803
2026-01-01 10:50:28.91	193.30	10.43	-52.6	-67.7	3.8	1.49e+00	0	43	104	0	77	19762
2026-01-01 10:50:29.77	193.37	10.50	-52.6	-67.8	3.8	1.49e+00	0	43	104	0	77	19852
2026-01-01 10:50:30.91	193.45	10.59	-52.6	-67.8	3.8	1.49e+00	0	43	104	0	77	19844
2026-01-01 10:50:31.77	193.51	10.66	-52.6	-67.7	3.8	1.49e+00	0	43	104	0	77	19838
2026-01-01 10:50:32.92	193.60	10.76	-52.6	-67.7	3.8	1.49e+00	0	43	104	0	77	19749
2026-01-01 10:50:33.78	193.66	10.83	-52.6	-67.7	3.8	1.49e+00	0	43	104	0	77	19837
2026-01-01 10:50:34.93	193.75	10.93	-52.6	-67.7	3.8	1.49e+00	0	43	104	0	77	19831
2026-01-01 10:50:35.79	193.81	11.00	-52.7	-67.8	3.8	1.49e+00	0	43	104	0	77	19898
2026-01-01 10:50:36.94	193.90	11.09	-52.6	-67.8	3.8	1.49e+00	0	43	104	0	77	19850
2026-01-01 10:50:37.80	193.97	11.17	-52.6	-67.7	3.8	1.49e+00	0	43	104	0	77	19782
2026-01-01 10:50:38.95	194.06	11.26	-52.6	-67.7	3.8	1.49e+00	0	43	104	0	77	19770
2026-01-01 10:50:39.81	194.12	11.33	-52.6	-67.8	3.8	1.49e+00	0	43	104	0	77	19855
2026-01-01 10:50:40.95	194.21	11.43	-52.7	-67.8	3.8	1.49e+00	0	43	104	0	77	19962
2026-01-01 10:50:41.82	194.28	11.50	-52.6	-67.8	3.8	1.49e+00	0	43	104	0	77	19885
2026-01-01 10:50:42.96	194.37	11.60	-52.6	-67.8	3.8	1.49e+00	0	43	104	0	77	19876
2026-01-01 10:50:43.82	194.44	11.67	-52.7	-67.8	3.8	1.49e+00	0	43	104	0	77	19965
2026-01-01 10:50:44.97	194.53	11.77	-52.6	-67.7	3.8	1.49e+00	0	43	104	0	77	19822
2026-01-01 10:50:45.83	194.60	11.85	-52.7	-67.8	3.8	1.49e+00	0	43	104	0	77	20003
2026-01-01 10:50:46.98	194.69	11.94	-52.7	-67.8	3.8	1.49e+00	0	43	104	0	77	20003
2026-01-01 10:50:47.84	194.76	12.02	-52.6	-67.8	3.8	1.49e+00	0	43	104	0	77	19930
2026-01-01 10:50:48.99	194.85	12.12	-52.7	-67.8	3.8	1.49e+00	0	43	104	0	77	19997
2026-01-01 10:50:49.85	194.92	12.19	-52.6	-67.8	3.8	1.49e+00	0	43	104	0	77	19891
2026-01-01 10:50:51.00	195.01	12.29	-52.6	-67.7	3.8	1.49e+00	0	43	104	0	77	19827
2026-01-01 10:50:51.86	195.09	12.37	-52.6	-67.7	3.8	1.49e+00	0	43	104	0	77	19812
2026-01-01 10:50:53.01	195.18	12.47	-52.7	-67.8	3.8	1.49e+00	0	43	104	0	77	19969
2026-01-01 10:50:53.87	195.25	12.54	-52.7	-67.8	3.8	1.49e+00	0	43	104	0	77	20019
2026-01-01 10:50:55.02	195.35	12.65	-52.7	-67.8	3.8	1.49e+00	0	43	104	0	77	19916
2026-01-01 10:50:55.88	195.42	12.72	-52.6	-67.8	3.8	1.49e+00	0	43	104	0	77	19943
2026-01-01 10:50:57.02	195.52	12.82	-52.7	-67.8	3.8	1.49e+00	0	43	104	0	77	19848
2026-01-01 10:50:57.89	195.59	12.90	-52.6	-67.8	3.8	1.49e+00	0	43	104	0	77	19868
2026-01-01 10:50:59.03	195.69	13.00	-52.6	-67.8	3.8	1.49e+00	0	43	104	0	77	19874
2026-01-01 10:50:59.89	195.76	13.08	-52.6	-67.8	3.8	1.49e+00	0	43	104	0	77	19907
2026-01-01 10:51:01.04	195.86	13.18	-52.6	-67.8	3.8	1.49e+00	0	43	104	0	77	19896
2026-01-01 10:51:01.90	195.94	13.26	-52.6	-67.8	3.8	1.49e+00	0	43	104	0	77	19843
2026-01-01 10:51:03.05	196.04	13.36	-52.6	-67.7	3.8	1.49e+00	0	43	104	0	77	19824
2026-01-01 10:51:03.91	196.12	13.44	-52.6	-67.7	3.8	1.49e+00	0	43	104	0	77	19832
2026-01-01 10:51:05.06	196.22	13.54	-52.6	-67.7	3.8	1.49e+00	0	43	104	0	77	19772
2026-01-01 10:51:05.92	196.30	13.62	-52.7	-67.8	3.8	1.49e+00	0	43	104	0	77	20003
2026-01-01 10:51:07.07	196.40	13.73	-52.7	-67.8	3.8	1.49e+00	0	43	104	0	77	19966
2026-01-01 10:51:07.93	196.48	13.81	-52.7	-67.8	3.8	1.49e+00	0	43	104	0	77	19914
2026-01-01 10:51:09.08	196.58	13.91	-52.6	-67.8	3.8	1.49e+00	0	43	104	0	77	19858
2026-01-01 10:51:09.94	196.66	13.99	-52.7	-67.8	3.8	1.49e+00	0	43	104	0	77	19941
2026-01-01 10:51:11.08	196.77	14.10	-52.6	-67.8	3.8	1.49e+00	0	43	104	0	77	19848
2026-01-01 10:51:11.94	196.85	14.18	-52.6	-67.8	3.8	1.49e+00	0	43	104	0	77	19877
2026-01-01 10:51:13.09	196.95	14.28	-52.6	-67.7	3.8	1.49e+00	0	43	104	0	77	19830
2026-01-01 10:51:13.95	197.03	14.36	-52.6	-67.7	3.8	1.49e+00	0	43	104	0	77	19820
2026-01-01 10:51:15.10	197.14	14.47	-52.6	-67.8	3.8	1.49e+00	0	43	104	0	77	19842
2026-01-01 10:51:15.96	197.22	14.55	-52.6	-67.7	3.8	1.49e+00	0	43	104	0	77	19791
2026-01-01 10:51:17.11	197.33	14.66	-52.6	-67.7	3.8	1.49e+00	0	43	104	0	77	19817
2026-01-01 10:51:17.97	197.42	14.74	-52.6	-67.7	3.8	1.49e+00	0	43	104	0	77	19737
2026-01-01 10:51:19.12	197.53	14.85	-52.7	-67.8	3.8	1.49e+00	0	43	104	0	77	19922
2026-01-01 10:51:19.98	197.61	14.93	-52.6	-67.8	3.8	1.49e+00	0	43	104	0	77	19969
2026-01-01 10:51:21.13	197.72	15.04	-52.7	-67.8	3.8	1.49e+00	0	43	104	0	77	19977
2026-01-01 10:51:21.98	197.81	15.12	-52.6	-67.8	3.8	1.49e+00	0	43	104	0	77	19887
2026-01-01 10:51:23.13	197.92	15.23	-52.6	-67.8	3.8	1.49e+00	0	43	104	0	77	19858
2026-01-01 10:51:23.99	198.01	15.32	-52.6	-67.8	3.8	1.49e+00	0	43	104	0	77	19870
2026-01-01 10:51:25.14	198.12	15.43	-52.7	-67.8	3.8	1.49e+00	0	43	104	0	77	19899
2026-01-01 10:51:26.00	198.21	15.51	-52.6	-67.8	3.8	1.49e+00	0	43	104	0	77	19842
2026-01-01 10:51:27.15	198.33	15.62	-52.7	-67.8	3.8	1.49e+00	0	43	104	0	77	19977
2026-01-01 10:51:28.01	198.42	15.71	-52.6	-67.8	3.8	1.49e+00	0	43	104	0	77	19856
2026-01-01 10:51:29.16	198.53	15.82	-52.6	-67.7	3.8	1.49e+00	0	43	104	0	77	19791
2026-01-01 10:51:30.02	198.62	15.90	-52.7	-67.8	3.8	1.49e+00	0	43	104	0	77	20042
2026-01-01 10:51:31.17	198.74	16.02	-52.7	-67.8	3.8	1.49e+00	0	43	104	0	77	20028
2026-01-01 10:51:32.02	198.83	16.10	-52.7	-67.8	3.8	1.49e+00	0	43	104	0	77	19923
2026-01-01 10:51:33.17	198.95	16.22	-52.7	-67.8	3.8	1.49e+00	0	43	104	0	77	19965
2026-01-01 10:51:34.03	199.05	16.30	-52.7	-67.8	3.8	1.49e+00	0	43	104	0	77	19859
2026-01-01 10:51:35.18	199.17	16.42	-52.7	-67.8	3.8	1.49e+00	0	43	104	0	77	19861
2026-01-01 10:51:36.04	199.26	16.50	-52.7	-67.8	3.8	1.49e+00	0	43	104	0	77	19952
2026-01-01 10:51:37.19	199.39	16.62	-52.6	-67.8	3.8	1.49e+00	0	43	104	0	77	19877
2026-01-01 10:51:38.05	199.48	16.70	-52.7	-67.8	3.8	1.49e+00	0	43	104	0	77	19916
2026-01-01 10:51:39.20	199.61	16.82	-52.7	-67.8	3.8	1.49e+00	0	43	104	0	77	19975
2026-01-01 10:51:40.06	199.70	16.91	-52.7	-67.8	3.8	1.49e+00	0	43	104	0	77	19945
2026-01-01 10:51:41.21	199.83	17.02	-52.7	-67.8	3.8	1.49e+00	0	43	104	0	77	19936
2026-01-01 10:51:42.07	199.93	17.11	-52.7	-67.8	3.8	1.49e+00	0	43	104	0	77	19898
2026-01-01 10:51:43.22	200.05	17.23	-52.7	-67.8	3.8	1.49e+00	0	43	104	0	77	20004
2026-01-01 10:51:44.08	200.15	17.32	-52.7	-67.8	3.8	1.49e+00	0	43	104	0	77	19989
2026-01-01 10:51:45.23	200.28	17.44	-52.7	-67.8	3.8	1.49e+00	0	43	104	0	77	19904
2026-01-01 10:51:46.09	200.38	17.52	-52.7	-67.8	3.8	1.49e+00	0	43	104	0	77	19981
2026-01-01 10:51:47.23	200.51	17.64	-52.6	-67.8	3.8	1.49e+00	0	43	104	0	77	19915
2026-01-01 10:51:48.16	200.62	17.74	-52.7	-67.8	3.8	1.49e+00	0	43	104	0	77	19909
2026-01-01 10:51:49.16	200.74	17.84	-52.6	-67.8	3.8	1.49e+00	0	44	104	0	77	19886
2026-01-01 10:51:50.17	200.86	17.95	-52.7	-67.8	3.8	1.49e+00	0	43	104	0	77	19977
2026-01-01 10:51:51.17	200.98	18.05	-52.7	-67.8	3.8	1.49e+00	0	43	104	0	77	19961
2026-01-01 10:51:52.18	201.10	18.16	-52.7	-67.9	3.8	1.49e+00	0	43	104	0	77	20110
2026-01-01 10:51:53.18	201.22	18.27	-52.7	-67.9	3.8	1.49e+00	0	43	104	0	77	20167
2026-01-01 10:51:54.18	201.34	18.37	-52.7	-67.9	3.8	1.49e+00	0	43	104	0	77	20120
2026-01-01 10:51:55.19	201.46	18.48	-52.7	-67.9	3.8	1.49e+00	0	43	104	0	77	20077
2026-01-01 10:51:56.19	201.59	18.59	-52.7	-67.8	3.8	1.49e+00	0	43	104	0	77	19976
2026-01-01 10:51:57.19	201.71	18.69	-52.7	-67.8	3.8	1.49e+00	0	43	104	0	77	19872
2026-01-01 10:51:58.20	201.84	18.80	-52.6	-67.8	3.8	1.49e+00	0	43	104	0	77	19912
2026-01-01 10:51:59.20	201.96	18.91	-52.6	-67.7	3.8	1.49e+00	0	43	104	0	77	19819
2026-01-01 10:52:00.21	202.09	19.02	-52.6	-67.7	3.8	1.49e+00	0	43	104	0	77	19767
2026-01-01 10:52:01.21	202.22	19.13	-52.6	-67.7	3.8	1.49e+00	0	43	104	0	77	19769
2026-01-01 10:52:02.22	202.35	19.24	-52.6	-67.8	3.8	1.49e+00	0	43	104	0	77	19852
2026-01-01 10:52:03.22	202.48	19.34	-52.7	-67.8	3.8	1.49e+00	0	43	104	0	77	19955
2026-01-01 10:52:04.23	202.61	19.45	-52.7	-67.9	3.8	1.49e+00	0	43	104	0	77	20086
2026-01-01 10:52:05.41	202.76	19.58	-52.6	-67.8	3.8	1.49e+00	0	43	104	0	77	19874
2026-01-01 10:52:06.32	202.88	19.68	-52.6	-67.7	3.8	1.49e+00	0	43	104	0	77	19833
2026-01-01 10:52:07.50	203.04	19.81	-52.7	-67.8	3.8	1.49e+00	0	43	104	0	77	19979
2026-01-01 10:52:08.37	203.16	19.91	-52.7	-67.8	3.8	1.49e+00	0	43	104	0	77	19887
2026-01-01 10:52:09.73	203.34	20.06	-52.6	-67.8	3.8	1.49e+00	0	43	104	0	77	19915
2026-01-01 10:52:10.44	203.44	20.14	-52.7	-67.8	3.8	1.49e+00	0	43	104	0	77	19926
2026-01-01 10:52:11.94	203.64	20.31	-52.7	-67.8	3.8	1.49e+00	0	43	104	0	77	19931
2026-01-01 10:52:12.66	203.74	20.39	-52.7	-67.8	3.8	1.49e+00	0	43	104	0	77	19978
2026-01-01 10:52:13.95	203.92	20.54	-52.7	-67.8	3.8	1.49e+00	0	43	104	0	77	19986
2026-01-01 10:52:14.67	204.02	20.62	-52.7	-67.8	3.8	1.49e+00	0	43	104	0	77	19961
2026-01-01 10:52:15.96	204.20	20.76	-52.7	-67.8	3.8	1.49e+00	0	43	104	0	77	20058
2026-01-01 10:52:16.68	204.30	20.84	-52.7	-67.8	3.8	1.49e+00	0	43	104	0	77	19945
2026-01-01 10:52:17.97	204.49	20.99	-52.7	-67.8	3.8	1.49e+00	0	43	104	0	77	19994
2026-01-01 10:52:18.68	204.59	21.07	-52.7	-67.8	3.8	1.49e+00	0	43	104	0	77	19901
2026-01-01 10:52:19.98	204.78	21.22	-52.7	-67.8	3.8	1.49e+00	0	43	104	0	77	19980
2026-01-01 10:52:20.71	204.89	21.31	-52.7	-67.8	3.8	1.49e+00	0	43	104	0	77	20025
2026-01-01 10:52:22.00	205.08	21.45	-52.7	-67.8	3.8	1.49e+00	0	43	104	0	77	19878
2026-01-01 10:52:22.72	205.18	21.54	-52.7	-67.8	3.8	1.49e+00	0	43	104	0	77	19919
2026-01-01 10:52:24.01	205.38	21.69	-52.7	-67.8	3.8	1.49e+00	0	43	104	0	77	19924
2026-01-01 10:52:24.72	205.48	21.77	-52.7	-67.8	3.8	1.49e+00	0	43	104	0	77	19935
2026-01-01 10:52:26.02	205.68	21.92	-52.6	-67.8	3.8	1.49e+00	0	43	104	0	77	19889
2026-01-01 10:52:26.73	205.79	22.00	-52.6	-67.8	3.8	1.49e+00	0	43	104	0	77	19842
2026-01-01 10:52:28.02	205.99	22.16	-52.6	-67.8	3.8	1.49e+00	0	43	104	0	77	19850
2026-01-01 10:52:28.74	206.10	22.24	-52.7	-67.8	3.8	1.49e+00	0	43	104	0	77	19978
2026-01-01 10:52:30.03	206.30	22.39	-52.7	-67.8	3.8	1.49e+00	0	43	104	0	77	20041
2026-01-01 10:52:30.75	206.41	22.48	-52.7	-67.8	3.8	1.49e+00	0	43	104	0	77	19978
2026-01-01 10:52:32.04	206.62	22.63	-52.7	-67.9	3.8	1.49e+00	0	43	104	0	77	20120
2026-01-01 10:52:32.75	206.73	22.72	-52.7	-67.8	3.8	1.49e+00	0	43	104	0	77	19959
2026-01-01 10:52:34.05	206.94	22.87	-52.7	-67.8	3.8	1.49e+00	0	43	104	0	77	19922
2026-01-01 10:52:34.76	207.06	22.96	-52.7	-67.8	3.8	1.49e+00	0	43	104	0	77	19953
2026-01-01 10:52:36.06	207.27	23.11	-52.7	-67.8	3.8	1.49e+00	0	43	104	0	77	20029
2026-01-01 10:52:36.77	207.39	23.20	-52.7	-67.8	3.8	1.49e+00	0	43	104	0	77	19945
2026-01-01 10:52:38.06	207.60	23.35	-52.6	-67.8	3.8	1.49e+00	0	43	104	0	77	19887
2026-01-01 10:52:38.78	207.72	23.44	-52.7	-67.8	3.8	1.49e+00	0	43	104	0	77	19888
2026-01-01 10:52:40.07	207.94	23.60	-52.7	-67.8	3.8	1.49e+00	0	43	104	0	77	19964
2026-01-01 10:52:40.79	208.06	23.68	-52.7	-67.7	3.8	1.49e+00	0	43	104	0	77	19809
2026-01-01 10:52:42.08	208.28	23.84	-52.7	-67.8	3.8	1.49e+00	0	43	104	0	77	20000
2026-01-01 10:52:42.80	208.40	23.93	-52.7	-67.8	3.8	1.49e+00	0	43	104	0	77	19931
2026-01-01 10:52:44.09	208.63	24.09	-52.6	-67.7	3.8	1.49e+00	0	43	104	0	77	19772
2026-01-01 10:52:44.81	208.75	24.18	-52.7	-67.8	3.8	1.49e+00	0	43	104	0	77	19963
2026-01-01 10:52:46.10	208.98	24.34	-52.7	-67.8	3.8	1.49e+00	0	43	104	0	77	19899
2026-01-01 10:52:46.82	209.11	24.42	-52.7	-67.8	3.8	1.49e+00	0	44	104	0	77	19861
2026-01-01 10:52:48.11	209.34	24.58	-52.7	-67.8	3.8	1.49e+00	0	43	104	0	77	19923
2026-01-01 10:52:48.82	209.47	24.67	-52.7	-67.8	3.8	1.49e+00	0	43	104	0	77	19882
2026-01-01 10:52:50.12	209.70	24.83	-52.6	-67.8	3.8	1.49e+00	0	43	104	0	77	19941
2026-01-01 10:52:50.85	209.84	24.92	-52.7	-67.8	3.8	1.49e+00	0	43	104	0	77	20037
2026-01-01 10:52:52.14	210.08	25.09	-52.7	-67.8	3.8	1.49e+00	0	43	104	0	77	20049
2026-01-01 10:52:52.86	210.21	25.18	-52.7	-67.8	3.8	1.49e+00	0	43	104	0	77	19970
2026-01-01 10:52:54.15	210.45	25.34	-52.7	-67.8	3.8	1.49e+00	0	43	104	0	77	19969
2026-01-01 10:52:54.86	210.59	25.43	-52.7	-67.8	3.8	1.49e+00	0	43	104	0	77	20015
2026-01-01 10:52:56.16	210.83	25.59	-52.7	-67.8	3.8	1.49e+00	0	43	104	0	77	19970
2026-01-01 10:52:56.87	210.97	25.68	-52.7	-67.8	3.8	1.49e+00	0	43	104	0	77	20033
2026-01-01 10:52:58.17	211.22	25.85	-52.7	-67.8	3.8	1.49e+00	0	43	104	0	77	19938
2026-01-01 10:52:58.88	211.36	25.94	-52.7	-67.8	3.8	1.49e+00	0	43	104	0	77	19886
2026-01-01 10:53:00.17	211.61	26.10	-52.7	-67.8	3.8	1.49e+00	0	43	104	0	77	19948
2026-01-01 10:53:00.89	211.76	26.19	-52.7	-67.8	3.8	1.49e+00	0	43	104	0	77	19931
2026-01-01 10:53:02.18	212.01	26.36	-52.7	-67.8	3.8	1.49e+00	0	43	104	0	77	19850
2026-01-01 10:53:02.90	212.16	26.45	-52.7	-67.8	3.8	1.49e+00	0	43	104	0	77	19864
2026-01-01 10:53:04.19	212.42	26.61	-52.6	-67.8	3.8	1.49e+00	0	43	104	0	77	19886
2026-01-01 10:53:04.91	212.57	26.71	-52.6	-67.8	3.8	1.49e+00	0	43	104	0	77	19906
2026-01-01 10:53:06.20	212.83	26.87	-52.7	-67.8	3.8	1.49e+00	0	43	104	0	77	19987
2026-01-01 10:53:06.91	212.98	26.96	-52.7	-67.8	3.8	1.49e+00	0	43	104	0	77	20048
2026-01-01 10:53:08.20	213.25	27.13	-52.7	-67.8	3.8	1.49e+00	0	43	104	0	77	19940
2026-01-01 10:53:08.92	213.40	27.22	-52.7	-67.8	3.8	1.49e+00	0	43	104	0	77	20023
2026-01-01 10:53:10.21	213.68	27.39	-52.7	-67.9	3.8	1.49e+00	0	43	104	0	77	20098
2026-01-01 10:53:10.93	213.83	27.48	-52.7	-67.8	3.8	1.49e+00	0	44	104	0	77	19972
2026-01-01 10:53:12.22	214.11	27.65	-52.7	-67.8	3.8	1.49e+00	0	43	104	0	77	19933
2026-01-01 10:53:12.94	214.27	27.74	-52.7	-67.8	3.8	1.49e+00	0	44	104	0	77	19999
2026-01-01 10:53:14.23	214.55	27.91	-52.7	-67.8	3.8	1.49e+00	0	43	104	0	77	20004
2026-01-01 10:53:14.94	214.71	28.00	-52.7	-67.8	3.8	1.49e+00	0	43	104	0	77	19906
2026-01-01 10:53:16.23	215.00	28.17	-52.7	-67.8	3.8	1.49e+00	0	43	104	0	77	19959
2026-01-01 10:53:17.03	215.18	28.28	-52.6	-67.7	3.8	1.49e+00	0	43	104	0	77	19816
2026-01-01 10:53:18.18	215.44	28.43	-52.7	-67.8	3.8	1.49e+00	0	43	104	0	77	19941
2026-01-01 10:53:19.04	215.63	28.54	-52.7	-67.8	3.8	1.49e+00	0	43	104	0	77	20052
2026-01-01 10:53:20.18	215.90	28.69	-52.7	-67.9	3.8	1.49e+00	0	43	104	0	77	20074
2026-01-01 10:53:21.04	216.10	28.80	-52.7	-67.8	3.8	1.49e+00	0	43	104	0	77	20070
2026-01-01 10:53:22.19	216.36	28.95	-52.7	-67.8	3.8	1.49e+00	0	43	104	0	77	20061
2026-01-01 10:53:23.05	216.57	29.07	-52.7	-67.8	3.8	1.49e+00	0	43	104	0	77	20021
2026-01-01 10:53:24.20	216.84	29.22	-52.7	-67.8	3.8	1.49e+00	0	43	104	0	77	19993
2026-01-01 10:53:25.06	217.05	29.33	-52.7	-67.8	3.8	1.49e+00	0	43	104	0	77	20035
2026-01-01 10:53:26.21	217.33	29.48	-52.7	-67.8	3.8	1.49e+00	0	43	104	0	77	19993
2026-01-01 10:53:27.07	217.54	29.60	-52.7	-67.8	3.8	1.49e+00	0	43	104	0	77	19977
2026-01-01 10:53:28.22	217.82	29.75	-52.7	-67.8	3.8	1.49e+00	0	43	104	0	77	20004
2026-01-01 10:53:29.08	218.03	29.86	-52.7	-67.8	3.8	1.49e+00	0	43	104	0	77	19976
2026-01-01 10:53:30.23	218.32	30.01	-52.8	-68.0	3.8	1.49e+00	0	43	104	0	77	20318
2026-01-01 10:53:31.09	218.53	30.13	-52.8	-67.9	3.8	1.49e+00	0	43	104	0	77	20235
2026-01-01 10:53:32.24	218.83	30.28	-52.9	-68.0	3.8	1.49e+00	0	43	104	0	77	20356
2026-01-01 10:53:33.27	219.09	30.41	-52.8	-67.9	3.8	1.49e+00	0	43	104	0	77	20199
2026-01-01 10:53:34.45	219.39	30.57	-52.8	-67.9	3.8	1.49e+00	0	43	104	0	77	20248
2026-01-01 10:53:35.32	219.62	30.68	-52.8	-67.9	3.8	1.49e+00	0	43	104	0	77	20219
2026-01-01 10:53:36.70	219.98	30.87	-52.8	-67.9	3.8	1.49e+00	0	43	104	0	77	20238
2026-01-01 10:53:37.41	220.17	30.96	-52.8	-67.9	3.8	1.49e+00	0	43	104	0	77	20172
2026-01-01 10:53:38.93	220.58	31.16	-52.8	-67.9	3.8	1.49e+00	0	43	104	0	77	20193
2026-01-01 10:53:39.65	220.77	31.25	-52.8	-67.9	3.8	1.49e+00	0	43	104	0	77	20220
2026-01-01 10:53:40.94	221.12	31.42	-52.7	-67.8	3.8	1.49e+00	0	43	104	0	77	20003
2026-01-01 10:53:41.66	221.32	31.52	-52.8	-68.0	3.8	1.49e+00	0	43	104	0	77	20334
2026-01-01 10:53:42.95	221.68	31.69	-52.8	-67.9	3.8	1.49e+00	0	43	104	0	77	20255
2026-01-01 10:53:43.67	221.88	31.78	-52.8	-68.0	3.8	1.49e+00	0	43	104	0	77	20330
2026-01-01 10:53:44.96	222.24	31.95	-52.8	-67.9	3.8	1.49e+00	0	43	104	0	77	20218
2026-01-01 10:53:45.67	222.44	32.04	-52.8	-67.9	3.8	1.49e+00	0	43	104	0	77	20180
2026-01-01 10:53:46.97	222.81	32.21	-52.8	-67.9	3.8	1.49e+00	0	43	104	0	77	20273
2026-01-01 10:53:47.68	223.02	32.31	-52.8	-67.9	3.8	1.49e+00	0	43	104	0	77	20200
2026-01-01 10:53:48.97	223.39	32.47	-52.8	-67.9	3.8	1.49e+00	0	43	104	0	77	20258
2026-01-01 10:53:49.69	223.60	32.57	-52.8	-67.9	3.8	1.49e+00	0	43	104	0	77	20150
2026-01-01 10:53:50.98	223.98	32.73	-52.8	-67.9	3.8	1.49e+00	0	43	104	0	77	20160
2026-01-01 10:53:51.70	224.19	32.83	-52.8	-67.9	3.8	1.49e+00	0	43	104	0	77	20147
2026-01-01 10:53:52.99	224.58	32.99	-52.8	-68.0	3.8	1.49e+00	0	43	104	0	77	20309
2026-01-01 10:53:53.70	224.79	33.08	-52.8	-67.9	3.8	1.49e+00	0	44	104	0	77	20101
2026-01-01 10:53:55.00	225.19	33.25	-52.8	-67.9	3.8	1.49e+00	0	43	104	0	77	20180
2026-01-01 10:53:55.72	225.41	33.34	-52.7	-67.9	3.8	1.49e+00	0	43	104	0	77	20116
2026-01-01 10:53:57.00	225.80	33.51	-52.8	-67.9	3.8	1.49e+00	0	43	104	0	77	20137
2026-01-01 10:53:57.72	226.03	33.60	-52.7	-67.9	3.8	1.49e+00	0	43	104	0	77	20103
2026-01-01 10:53:59.01	226.43	33.76	-52.8	-67.9	3.8	1.49e+00	0	43	104	0	77	20170
2026-01-01 10:53:59.73	226.66	33.85	-52.7	-67.9	3.8	1.49e+00	0	43	104	0	77	20154
2026-01-01 10:54:01.02	227.07	34.02	-52.7	-67.9	3.8	1.49e+00	0	43	104	0	77	20079
2026-01-01 10:54:01.74	227.30	34.11	-52.7	-67.8	3.8	1.49e+00	0	43	104	0	77	20050
2026-01-01 10:54:03.03	227.72	34.27	-52.8	-67.9	3.8	1.49e+00	0	43	104	0	77	20131
2026-01-01 10:54:03.75	227.95	34.36	-52.7	-67.9	3.8	1.49e+00	0	43	104	0	77	20153
2026-01-01 10:54:05.04	228.37	34.52	-52.7	-67.8	3.8	1.49e+00	0	43	104	0	77	20055
2026-01-01 10:54:05.75	228.61	34.61	-52.7	-67.9	3.8	1.49e+00	0	43	104	0	77	20095
2026-01-01 10:54:07.05	229.04	34.77	-52.8	-67.9	3.8	1.49e+00	0	43	104	0	77	20284
2026-01-01 10:54:07.76	229.28	34.85	-52.8	-67.9	3.8	1.49e+00	0	43	104	0	77	20269
2026-01-01 10:54:09.05	229.71	35.01	-52.8	-67.9	3.8	1.49e+00	0	43	104	0	77	20188
2026-01-01 10:54:09.77	229.96	35.10	-52.8	-67.9	3.8	1.49e+00	0	43	104	0	77	20157
2026-01-01 10:54:11.06	230.40	35.25	-52.7	-67.9	3.8	1.49e+00	0	43	104	0	77	20146
2026-01-01 10:54:11.78	230.65	35.34	-52.8	-67.9	3.8	1.49e+00	0	43	104	0	77	20107
2026-01-01 10:54:13.07	231.10	35.49	-52.7	-67.9	3.8	1.49e+00	0	43	104	0	77	20084
2026-01-01 10:54:13.79	231.35	35.58	-52.7	-67.8	3.8	1.49e+00	0	43	104	0	77	20042
2026-01-01 10:54:15.08	231.81	35.73	-52.7	-67.8	3.8	1.49e+00	0	43	104	0	77	20012
2026-01-01 10:54:15.80	232.06	35.81	-52.7	-67.8	3.8	1.49e+00	0	43	104	0	77	20031
2026-01-01 10:54:17.09	232.52	35.96	-52.8	-68.0	3.8	1.49e+00	0	43	104	0	77	20318
2026-01-01 10:54:17.80	232.78	36.04	-52.8	-67.9	3.8	1.49e+00	0	43	104	0	77	20264
2026-01-01 10:54:19.10	233.25	36.19	-52.8	-67.9	3.8	1.49e+00	0	43	104	0	77	20189
2026-01-01 10:54:19.81	233.51	36.27	-52.8	-68.0	3.8	1.49e+00	0	43	104	0	77	20327
2026-01-01 10:54:21.10	233.98	36.42	-52.8	-67.9	3.8	1.49e+00	0	43	104	0	77	20169
2026-01-01 10:54:21.82	234.25	36.50	-52.8	-67.9	3.8	1.49e+00	0	43	104	0	77	20209
2026-01-01 10:54:23.11	234.73	36.64	-52.8	-67.9	3.8	1.49e+00	0	43	104	0	77	20190
2026-01-01 10:54:23.83	235.00	36.72	-52.8	-67.9	3.8	1.49e+00	0	43	104	0	77	20226
2026-01-01 10:54:25.12	235.49	36.86	-52.7	-67.9	3.8	1.49e+00	0	43	104	0	77	20074
2026-01-01 10:54:25.84	235.76	36.94	-52.7	-67.8	3.8	1.49e+00	0	43	104	0	77	20028
2026-01-01 10:54:27.13	236.26	37.08	-52.7	-67.8	3.8	1.49e+00	0	43	104	0	77	20059
2026-01-01 10:54:27.85	236.54	37.15	-52.7	-67.8	3.8	1.49e+00	0	43	104	0	77	20040
2026-01-01 10:54:29.14	237.04	37.29	-52.7	-67.8	3.8	1.49e+00	0	43	104	0	77	19915
2026-01-01 10:54:29.86	237.32	37.36	-52.7	-67.9	3.8	1.49e+00	0	43	104	0	77	20125
2026-01-01 10:54:31.15	237.82	37.49	-52.7	-67.9	3.8	1.49e+00	0	43	104	0	77	20117
2026-01-01 10:54:31.87	238.11	37.57	-52.8	-67.9	3.8	1.49e+00	0	43	104	0	77	20179
2026-01-01 10:54:33.16	238.62	37.69	-52.8	-67.8	3.8	1.49e+00	0	43	104	0	77	20053
2026-01-01 10:54:33.88	238.91	37.77	-52.8	-67.9	3.8	1.49e+00	0	43	104	0	77	20169
2026-01-01 10:54:35.17	239.43	37.89	-52.7	-67.8	3.8	1.49e+00	0	43	104	0	77	20059
2026-01-01 10:54:35.88	239.71	37.96	-52.8	-67.9	3.8	1.49e+00	0	43	104	0	77	20200
2026-01-01 10:54:37.17	240.24	38.08	-52.7	-67.9	3.8	1.49e+00	0	43	104	0	77	20143
2026-01-01 10:54:37.89	240.53	38.15	-52.7	-67.9	3.8	1.49e+00	0	43	104	0	77	20126
2026-01-01 10:54:39.18	241.07	38.27	-52.8	-67.9	3.8	1.49e+00	0	43	104	0	77	20113
2026-01-01 10:54:39.90	241.36	38.33	-52.8	-67.9	3.8	1.49e+00	0	43	104	0	77	20259
2026-01-01 10:54:41.19	241.90	38.45	-52.7	-67.9	3.8	1.49e+00	0	43	104	0	77	20160
2026-01-01 10:54:41.91	242.20	38.51	-52.8	-67.9	3.8	1.49e+00	0	43	104	0	77	20143
2026-01-01 10:54:43.20	242.74	38.62	-52.8	-67.9	3.8	1.49e+00	0	43	104	0	77	20201
2026-01-01 10:54:43.92	243.05	38.68	-52.7	-67.9	3.8	1.49e+00	0	43	104	0	77	20074
2026-01-01 10:54:45.21	243.60	38.79	-52.8	-67.9	3.8	1.49e+00	0	43	104	0	77	20140
2026-01-01 10:54:45.92	243.90	38.85	-52.8	-67.9	3.8	1.49e+00	0	43	104	0	77	20214
2026-01-01 10:54:47.22	244.46	38.95	-52.7	-67.9	3.8	1.49e+00	0	43	104	0	77	20075
2026-01-01 10:54:47.93	244.76	39.01	-52.7	-67.9	3.8	1.49e+00	0	43	104	0	77	20129
2026-01-01 10:54:49.22	245.32	39.11	-52.7	-67.9	3.8	1.49e+00	0	43	104	0	77	20096
2026-01-01 10:54:49.94	245.64	39.16	-52.7	-67.9	3.8	1.49e+00	0	43	104	0	77	20104
2026-01-01 10:54:51.23	246.20	39.25	-52.7	-67.8	3.8	1.49e+00	0	43	104	0	77	20011
2026-01-01 10:54:51.95	246.52	39.31	-52.7	-67.8	3.8	1.49e+00	0	43	104	0	77	19947
2026-01-01 10:54:53.24	247.09	39.40	-52.7	-67.8	3.8	1.49e+00	0	43	104	0	77	20070
2026-01-01 10:54:54.08	247.46	39.45	-52.7	-67.8	3.8	1.49e+00	0	43	104	0	77	19953
2026-01-01 10:54:55.23	247.97	39.53	-52.7	-67.8	3.8	1.49e+00	0	43	104	0	77	20015
2026-01-01 10:54:56.32	248.46	39.60	-52.7	-67.8	3.8	1.49e+00	0	43	104	0	77	19954
2026-01-01 10:54:57.35	248.92	39.66	-52.7	-67.8	3.8	1.49e+00	0	43	104	0	77	19985
2026-01-01 10:54:58.51	249.44	39.73	-52.8	-67.9	3.8	1.49e+00	0	43	104	0	77	20142
2026-01-01 10:54:59.42	249.85	39.79	-52.7	-67.9	3.8	1.49e+00	0	43	104	0	77	20194
2026-01-01 10:55:00.62	250.40	39.86	-52.8	-67.9	3.8	1.49e+00	0	43	104	0	77	20212
2026-01-01 10:55:01.49	250.79	39.90	-52.7	-67.8	3.8	1.49e+00	0	43	104	0	77	20064
2026-01-01 10:55:02.64	251.32	39.96	-52.7	-67.9	3.8	1.49e+00	0	43	104	0	77	20088
2026-01-01 10:55:03.50	251.71	40.01	-52.7	-67.8	3.8	1.49e+00	0	43	104	0	77	20041
2026-01-01 10:55:04.65	252.24	40.06	-52.7	-67.8	3.8	1.49e+00	0	43	104	0	77	19986
2026-01-01 10:55:05.51	252.64	40.10	-52.7	-67.8	3.8	1.49e+00	0	43	104	0	77	20029
2026-01-01 10:55:06.66	253.17	40.15	-52.7	-67.8	3.8	1.49e+00	0	43	104	0	77	19999
2026-01-01 10:55:07.52	253.57	40.19	-52.7	-67.8	3.8	1.49e+00	0	43	104	0	77	19932
2026-01-01 10:55:08.67	254.10	40.24	-52.7	-67.8	3.8	1.49e+00	0	43	104	0	77	19942
2026-01-01 10:55:09.53	254.50	40.27	-52.8	-67.9	3.8	1.49e+00	0	43	104	0	77	20177
2026-01-01 10:55:10.68	255.04	40.31	-52.7	-67.8	3.8	1.49e+00	0	43	104	0	77	20057
2026-01-01 10:55:11.54	255.44	40.34	-52.7	-67.8	3.8	1.49e+00	0	43	104	0	77	20012
2026-01-01 10:55:12.75	256.01	40.38	-52.7	-67.8	3.8	1.49e+00	0	43	104	0	77	19995
2026-01-01 10:55:13.61	256.41	40.41	-52.7	-67.9	3.8	1.49e+00	0	43	104	0	77	20073
2026-01-01 10:55:14.76	256.95	40.44	-52.7	-67.9	3.8	1.49e+00	0	43	104	0	77	20201
2026-01-01 10:55:15.62	257.36	40.46	-52.7	-67.9	3.8	1.49e+00	0	43	104	0	77	20163
2026-01-01 10:55:16.76	257.90	40.49	-52.7	-67.8	3.8	1.49e+00	0	43	104	0	77	20011
2026-01-01 10:55:17.63	258.31	40.51	-52.7	-67.8	3.8	1.49e+00	0	43	104	0	77	19990
2026-01-01 10:55:18.77	258.85	40.53	-52.7	-67.9	3.8	1.49e+00	0	43	104	0	77	20166
2026-01-01 10:55:19.63	259.26	40.55	-52.7	-67.8	3.8	1.49e+00	0	43	104	0	77	19973
2026-01-01 10:55:20.78	259.80	40.56	-52.7	-67.9	3.8	1.49e+00	0	43	104	0	77	20120
2026-01-01 10:55:21.64	260.21	40.57	-52.7	-67.8	3.8	1.49e+00	0	43	104	0	77	19987
2026-01-01 10:55:22.79	260.76	40.59	-52.7	-67.8	3.8	1.49e+00	0	43	104	0	77	19968
2026-01-01 10:55:23.65	261.16	40.59	-52.7	-67.9	3.8	1.49e+00	0	43	104	0	77	20124
2026-01-01 10:55:24.80	261.71	40.60	-52.7	-67.8	3.8	1.49e+00	0	43	104	0	77	20042
2026-01-01 10:55:25.66	262.12	40.61	-52.8	-67.9	3.8	1.49e+00	0	43	104	0	77	20236
2026-01-01 10:55:26.81	262.67	40.61	-52.8	-67.9	3.8	1.49e+00	0	43	104	0	77	20161
2026-01-01 10:55:27.67	263.08	40.61	-52.8	-67.9	3.8	1.49e+00	0	43	104	0	77	20252
2026-01-01 10:55:28.82	263.62	40.61	-52.8	-67.9	3.8	1.49e+00	0	43	104	0	77	20213
2026-01-01 10:55:29.68	264.03	40.60	-52.7	-67.9	3.8	1.49e+00	0	43	104	0	77	20136
2026-01-01 10:55:30.82	264.57	40.59	-52.7	-67.9	3.8	1.49e+00	0	43	104	0	77	20135
2026-01-01 10:55:31.69	264.99	40.59	-52.7	-67.9	3.8	1.49e+00	0	43	104	0	77	20082
2026-01-01 10:55:32.83	265.53	40.57	-52.8	-67.9	3.8	1.49e+00	0	43	104	0	77	20185
2026-01-01 10:55:33.69	265.94	40.56	-52.8	-67.9	3.8	1.49e+00	0	43	104	0	77	20201
2026-01-01 10:55:34.84	266.48	40.55	-52.8	-67.9	3.8	1.49e+00	0	43	104	0	77	20107
2026-01-01 10:55:35.70	266.89	40.53	-52.7	-67.9	3.8	1.49e+00	0	43	104	0	77	20074
2026-01-01 10:55:36.85	267.43	40.51	-52.7	-67.8	3.8	1.49e+00	0	43	104	0	77	20047
2026-01-01 10:55:37.71	267.84	40.49	-52.7	-67.8	3.8	1.49e+00	0	43	104	0	77	20049
2026-01-01 10:55:38.86	268.38	40.46	-52.9	-68.0	3.8	1.49e+00	0	43	104	0	77	20367
2026-01-01 10:55:39.72	268.79	40.44	-52.8	-67.9	3.8	1.49e+00	0	43	104	0	77	20252
2026-01-01 10:55:40.87	269.33	40.41	-52.8	-67.9	3.8	1.49e+00	0	43	104	0	77	20190
2026-01-01 10:55:41.73	269.73	40.38	-52.8	-67.9	3.8	1.49e+00	0	43	104	0	77	20116
2026-01-01 10:55:42.88	270.27	40.34	-52.8	-67.9	3.8	1.49e+00	0	43	104	0	77	20212
2026-01-01 10:55:43.74	270.67	40.31	-52.8	-67.9	3.8	1.49e+00	0	43	104	0	77	20125
2026-01-01 10:55:44.89	271.21	40.27	-52.8	-68.0	3.8	1.49e+00	0	43	104	0	77	20324
2026-01-01 10:55:45.75	271.61	40.24	-52.8	-67.9	3.8	1.49e+00	0	43	104	0	77	20222
2026-01-01 10:55:46.90	272.14	40.19	-52.8	-67.9	3.8	1.49e+00	0	43	104	0	77	20107
2026-01-01 10:55:47.76	272.54	40.16	-52.8	-68.0	3.8	1.49e+00	0	43	104	0	77	20314
2026-01-01 10:55:48.90	273.07	40.11	-52.8	-67.9	3.8	1.49e+00	0	43	104	0	77	20166
2026-01-01 10:55:49.77	273.47	40.07	-52.8	-67.9	3.8	1.49e+00	0	43	104	0	77	20125
2026-01-01 10:55:50.91	273.99	40.01	-52.8	-67.9	3.8	1.49e+00	0	43	104	0	77	20242
2026-01-01 10:55:51.77	274.38	39.97	-52.8	-67.9	3.8	1.49e+00	0	43	104	0	77	20141
2026-01-01 10:55:52.92	274.91	39.91	-52.8	-67.9	3.8	1.49e+00	0	43	104	0	77	20201
2026-01-01 10:55:53.78	275.30	39.86	-52.8	-67.9	3.8	1.49e+00	0	43	104	0	77	20209
2026-01-01 10:55:54.93	275.82	39.79	-52.8	-67.9	3.8	1.49e+00	0	43	104	0	77	20254
2026-01-01 10:55:55.79	276.21	39.74	-52.7	-67.9	3.8	1.49e+00	0	43	104	0	77	20187
2026-01-01 10:55:56.94	276.73	39.68	-52.7	-67.8	3.8	1.49e+00	0	43	104	0	77	20053
2026-01-01 10:55:57.80	277.11	39.62	-52.7	-67.9	3.8	1.49e+00	0	43	104	0	77	20079
2026-01-01 10:55:58.95	277.63	39.55	-52.7	-67.9	3.8	1.49e+00	0	43	104	0	77	20089
2026-01-01 10:55:59.81	278.01	39.49	-52.7	-67.9	3.8	1.49e+00	0	43	104	0	77	20099
2026-01-01 10:56:00.96	278.52	39.42	-52.7	-67.8	3.8	1.49e+00	0	43	104	0	77	20047
2026-01-01 10:56:01.82	278.90	39.36	-52.7	-67.8	3.8	1.49e+00	0	43	104	0	77	20028
2026-01-01 10:56:02.97	279.40	39.28	-52.8	-68.0	3.8	1.49e+00	0	43	104	0	77	20329
2026-01-01 10:56:03.83	279.78	39.21	-52.8	-67.9	3.8	1.49e+00	0	43	104	0	77	20149
2026-01-01 10:56:04.97	280.27	39.13	-52.8	-67.9	3.8	1.49e+00	0	43	104	0	77	20182
2026-01-01 10:56:05.83	280.65	39.06	-52.7	-67.9	3.8	1.49e+00	0	43	104	0	77	20137
2026-01-01 10:56:06.98	281.14	38.98	-52.7	-67.8	3.8	1.49e+00	0	43	104	0	77	20061
2026-01-01 10:56:07.84	281.51	38.91	-52.8	-67.9	3.8	1.49e+00	0	43	104	0	77	20130
2026-01-01 10:56:08.99	282.00	38.81	-52.7	-67.8	3.8	1.49e+00	0	43	104	0	77	20070
2026-01-01 10:56:09.85	282.37	38.74	-52.7	-67.9	3.8	1.49e+00	0	43	104	0	77	20120
2026-01-01 10:56:11.00	282.86	38.65	-52.7	-67.8	3.8	1.49e+00	0	43	104	0	77	20043
2026-01-01 10:56:11.86	283.22	38.57	-52.8	-67.9	3.8	1.49e+00	0	43	104	0	77	20190
2026-01-01 10:56:13.01	283.70	38.48	-52.8	-67.9	3.8	1.49e+00	0	43	104	0	77	20215
2026-01-01 10:56:13.87	284.06	38.40	-52.8	-67.9	3.8	1.49e+00	0	43	104	0	77	20136
2026-01-01 10:56:15.02	284.53	38.30	-52.8	-67.9	3.8	1.49e+00	0	43	104	0	77	20280
2026-01-01 10:56:15.87	284.88	38.22	-52.8	-67.9	3.8	1.49e+00	0	43	104	0	77	20193
2026-01-01 10:56:17.02	285.35	38.11	-52.7	-67.8	3.8	1.49e+00	0	43	104	0	77	20057
2026-01-01 10:56:17.89	285.71	38.03	-52.7	-67.9	3.8	1.49e+00	0	43	104	0	77	20090
2026-01-01 10:56:19.03	286.17	37.92	-52.7	-67.8	3.8	1.49e+00	0	43	104	0	77	19958
2026-01-01 10:56:19.89	286.51	37.84	-52.7	-67.8	3.8	1.49e+00	0	43	104	0	77	19977
2026-01-01 10:56:21.04	286.97	37.73	-52.7	-67.8	3.8	1.49e+00	0	43	104	0	77	20027
2026-01-01 10:56:21.90	287.32	37.64	-52.8	-67.9	3.8	1.49e+00	0	43	104	0	77	20127
2026-01-01 10:56:23.05	287.77	37.53	-52.8	-67.9	3.8	1.49e+00	0	43	104	0	77	20139
2026-01-01 10:56:23.91	288.11	37.44	-52.7	-67.9	3.8	1.49e+00	0	43	104	0	77	20090
2026-01-01 10:56:25.06	288.56	37.32	-52.8	-67.9	3.8	1.49e+00	0	43	104	0	77	20169
2026-01-01 10:56:25.92	288.89	37.24	-52.8	-68.0	3.8	1.49e+00	0	43	104	0	77	20315
2026-01-01 10:56:27.07	289.33	37.12	-52.8	-67.9	3.8	1.49e+00	0	43	104	0	77	20124
2026-01-01 10:56:27.93	289.66	37.02	-52.7	-67.9	3.8	1.49e+00	0	43	104	0	77	20184
2026-01-01 10:56:29.08	290.10	36.90	-52.8	-67.9	3.8	1.49e+00	0	43	104	0	77	20200
2026-01-01 10:56:29.94	290.43	36.81	-52.7	-67.8	3.8	1.49e+00	0	43	104	0	77	20026
2026-01-01 10:56:31.08	290.85	36.69	-52.7	-67.9	3.8	1.49e+00	0	43	104	0	77	20120
2026-01-01 10:56:31.94	291.18	36.59	-52.7	-67.9	3.8	1.49e+00	0	43	104	0	77	20122
2026-01-01 10:56:33.09	291.60	36.46	-52.8	-67.9	3.8	1.49e+00	0	43	104	0	77	20152
2026-01-01 10:56:33.95	291.92	36.37	-52.8	-67.9	3.8	1.49e+00	0	43	104	0	77	20176
2026-01-01 10:56:35.10	292.34	36.24	-52.8	-67.9	3.8	1.49e+00	0	43	104	0	77	20200
2026-01-01 10:56:35.96	292.65	36.14	-52.8	-67.9	3.8	1.49e+00	0	43	104	0	77	20238
2026-01-01 10:56:37.11	293.06	36.01	-52.8	-67.9	3.8	1.49e+00	0	43	104	0	77	20114
2026-01-01 10:56:37.97	293.37	35.91	-52.7	-67.9	3.8	1.49e+00	0	43	104	0	77	20120
2026-01-01 10:56:39.11	293.78	35.78	-52.7	-67.8	3.8	1.49e+00	0	43	104	0	77	20046
2026-01-01 10:56:39.97	294.08	35.68	-52.7	-67.8	3.8	1.49e+00	0	43	104	0	77	19986
2026-01-01 10:56:41.12	294.48	35.54	-52.7	-67.8	3.8	1.49e+00	0	43	104	0	77	20025
2026-01-01 10:56:41.98	294.78	35.44	-52.8	-67.9	3.8	1.49e+00	0	43	104	0	77	20246
2026-01-01 10:56:43.13	295.18	35.31	-52.8	-67.9	3.8	1.49e+00	0	43	104	0	77	20158
2026-01-01 10:56:43.99	295.48	35.20	-52.8	-67.9	3.8	1.49e+00	0	43	104	0	77	20223
2026-01-01 10:56:45.14	295.87	35.07	-52.7	-67.9	3.8	1.49e+00	0	43	104	0	77	20088
2026-01-01 10:56:46.00	296.16	34.96	-52.8	-67.9	3.8	1.49e+00	0	43	104	0	77	20216
2026-01-01 10:56:47.15	296.54	34.82	-52.7	-67.9	3.8	1.49e+00	0	43	104	0	77	20177
2026-01-01 10:56:48.01	296.83	34.72	-52.7	-67.8	3.8	1.49e+00	0	43	104	0	77	20036
2026-01-01 10:56:49.15	297.21	34.58	-52.7	-67.8	3.8	1.49e+00	0	43	104	0	77	20063
2026-01-01 10:56:50.02	297.49	34.47	-52.7	-67.8	3.8	1.49e+00	0	43	104	0	77	20028
2026-01-01 10:56:51.16	297.86	34.33	-52.8	-67.9	3.8	1.49e+00	0	43	104	0	77	20211
2026-01-01 10:56:52.02	298.14	34.22	-52.8	-67.9	3.8	1.49e+00	0	43	104	0	77	20303
2026-01-01 10:56:53.17	298.51	34.08	-52.7	-67.9	3.8	1.49e+00	0	43	104	0	77	20124
2026-01-01 10:56:54.03	298.78	33.97	-52.7	-67.9	3.8	1.49e+00	0	43	104	0	77	20099
2026-01-01 10:56:55.18	299.15	33.83	-52.7	-67.9	3.8	1.49e+00	0	43	104	0	77	20158
2026-01-01 10:56:56.04	299.42	33.72	-52.7	-67.9	3.8	1.49e+00	0	43	104	0	77	20121
2026-01-01 10:56:57.19	299.77	33.57	-52.8	-67.9	3.8	1.49e+00	0	43	104	0	77	20129
2026-01-01 10:56:58.05	300.04	33.46	-52.8	-67.9	3.8	1.49e+00	0	43	104	0	77	20196
2026-01-01 10:56:59.19	300.39	33.32	-52.8	-67.9	3.8	1.49e+00	0	43	104	0	77	20202
2026-01-01 10:57:00.05	300.65	33.21	-52.7	-67.9	3.8	1.49e+00	0	43	104	0	77	20209
2026-01-01 10:57:01.20	301.00	33.06	-52.8	-67.9	3.8	1.49e+00	0	43	104	0	77	20148
2026-01-01 10:57:02.06	301.26	32.95	-52.7	-67.8	3.8	1.49e+00	0	43	104	0	77	20056
2026-01-01 10:57:03.21	301.60	32.81	-52.7	-67.9	3.8	1.49e+00	0	43	104	0	77	20134
2026-01-01 10:57:04.07	301.85	32.70	-52.8	-67.9	3.8	1.49e+00	0	43	104	0	77	20202
2026-01-01 10:57:05.22	302.19	32.55	-52.8	-67.9	3.8	1.49e+00	0	43	104	0	77	20211
2026-01-01 10:57:06.08	302.44	32.44	-52.7	-67.9	3.8	1.49e+00	0	43	104	0	77	20114
2026-01-01 10:57:07.23	302.77	32.29	-52.7	-67.8	3.8	1.49e+00	0	43	104	0	77	20061
2026-01-01 10:57:08.09	303.01	32.18	-52.7	-67.9	3.8	1.49e+00	0	43	104	0	77	20194
2026-01-01 10:57:09.24	303.34	32.03	-52.7	-67.8	3.8	1.49e+00	0	43	104	0	77	20048
2026-01-01 10:57:10.47	303.68	31.87	-52.7	-67.8	3.8	1.49e+00	0	43	104	0	77	20066
2026-01-01 10:57:11.50	303.97	31.73	-52.7	-67.8	3.8	1.49e+00	0	43	104	0	77	20003
2026-01-01 10:57:12.50	304.24	31.60	-52.7	-67.9	3.8	1.49e+00	0	43	104	0	77	20123
2026-01-01 10:57:13.51	304.52	31.47	-52.7	-67.9	3.8	1.49e+00	0	43	104	0	77	20153
2026-01-01 10:57:14.51	304.79	31.34	-52.7	-67.9	3.8	1.49e+00	0	43	104	0	77	20088
2026-01-01 10:57:15.52	305.06	31.21	-52.7	-67.9	3.8	1.49e+00	0	43	104	0	77	20162
2026-01-01 10:57:16.52	305.33	31.08	-52.7	-67.8	3.8	1.49e+00	0	43	104	0	77	20071
2026-01-01 10:57:17.53	305.60	30.95	-52.7	-67.9	3.8	1.49e+00	0	43	104	0	77	20091
2026-01-01 10:57:18.53	305.86	30.81	-52.7	-67.8	3.8	1.49e+00	0	43	104	0	77	19983
2026-01-01 10:57:19.53	306.12	30.68	-52.7	-67.8	3.8	1.49e+00	0	43	104	0	77	20007
2026-01-01 10:57:20.54	306.38	30.55	-52.8	-67.9	3.8	1.49e+00	0	43	104	0	77	20128
2026-01-01 10:57:21.54	306.64	30.42	-52.7	-67.9	3.8	1.49e+00	0	43	104	0	77	20155
2026-01-01 10:57:22.55	306.90	30.29	-52.7	-67.8	3.8	1.49e+00	0	43	104	0	77	20027
2026-01-01 10:57:23.58	307.16	30.15	-52.7	-67.8	3.8	1.49e+00	0	43	104	0	77	20011
2026-01-01 10:57:24.61	307.42	30.02	-52.7	-67.9	3.8	1.49e+00	0	43	104	0	77	20094
2026-01-01 10:57:25.62	307.67	29.89	-52.7	-67.8	3.8	1.49e+00	0	43	104	0	77	20036
2026-01-01 10:57:26.62	307.91	29.76	-52.7	-67.8	3.8	1.49e+00	0	43	104	0	77	20060
2026-01-01 10:57:27.63	308.16	29.62	-52.7	-67.9	3.8	1.49e+00	0	43	104	0	77	20073
2026-01-01 10:57:28.63	308.40	29.49	-52.7	-67.8	3.8	1.49e+00	0	43	104	0	77	20043
2026-01-01 10:57:29.63	308.64	29.36	-52.8	-67.9	3.8	1.49e+00	0	43	104	0	77	20129
2026-01-01 10:57:30.64	308.89	29.23	-52.7	-67.9	3.8	1.49e+00	0	43	104	0	77	20188
2026-01-01 10:57:31.64	309.12	29.10	-52.7	-67.8	3.8	1.49e+00	0	43	104	0	77	20034
2026-01-01 10:57:32.65	309.36	28.97	-52.7	-67.8	3.8	1.49e+00	0	43	104	0	77	20045
2026-01-01 10:57:33.65	309.59	28.84	-52.7	-67.8	3.8	1.49e+00	0	43	104	0	77	19986
2026-01-01 10:57:34.65	309.82	28.71	-52.7	-67.8	3.8	1.49e+00	0	43	104	0	77	20018
2026-01-01 10:57:35.66	310.06	28.58	-52.7	-67.8	3.8	1.49e+00	0	43	104	0	77	20022
2026-01-01 10:57:36.66	310.28	28.45	-52.7	-67.8	3.8	1.49e+00	0	43	104	0	77	20057
2026-01-01 10:57:37.66	310.51	28.32	-52.7	-67.9	3.8	1.49e+00	0	43	104	0	77	20092
2026-01-01 10:57:38.67	310.73	28.18	-52.7	-67.8	3.8	1.49e+00	0	43	104	0	77	20024
2026-01-01 10:57:39.67	310.96	28.06	-52.7	-67.8	3.8	1.49e+00	0	43	104	0	77	20049
2026-01-01 10:57:40.68	311.18	27.92	-52.7	-67.9	3.8	1.49e+00	0	43	104	0	77	20166
2026-01-01 10:57:41.68	311.40	27.80	-52.8	-67.9	3.8	1.49e+00	0	43	104	0	77	20188
2026-01-01 10:57:42.69	311.62	27.66	-52.7	-67.9	3.8	1.49e+00	0	43	104	0	77	20076
2026-01-01 10:57:43.69	311.83	27.54	-52.7	-67.8	3.8	1.49e+00	0	43	104	0	77	20057
2026-01-01 10:57:44.69	312.05	27.41	-52.7	-67.8	3.8	1.49e+00	0	43	104	0	77	20063
2026-01-01 10:57:45.70	312.26	27.28	-52.7	-67.8	3.8	1.49e+00	0	43	104	0	77	19986
2026-01-01 10:57:46.70	312.47	27.15	-52.7	-67.8	3.8	1.49e+00	0	43	104	0	77	20024
2026-01-01 10:57:47.71	312.68	27.02	-52.7	-67.9	3.8	1.49e+00	0	43	104	0	77	20095
2026-01-01 10:57:48.71	312.89	26.89	-52.7	-67.8	3.8	1.49e+00	0	43	104	0	77	19991
2026-01-01 10:57:49.71	313.09	26.76	-52.7	-67.9	3.8	1.49e+00	0	43	104	0	77	20074
2026-01-01 10:57:50.72	313.30	26.64	-52.7	-67.8	3.8	1.49e+00	0	43	104	0	77	20035
2026-01-01 10:57:51.72	313.50	26.51	-52.7	-67.9	3.8	1.49e+00	0	43	104	0	77	20099
2026-01-01 10:57:52.73	313.70	26.38	-52.7	-67.8	3.8	1.49e+00	0	43	104	0	77	19945
2026-01-01 10:57:53.73	313.90	26.25	-52.7	-67.9	3.8	1.49e+00	0	43	104	0	77	20121
2026-01-01 10:57:54.73	314.10	26.13	-52.7	-67.7	3.8	1.49e+00	0	43	104	0	77	19806
2026-01-01 10:57:55.74	314.30	26.00	-52.6	-67.8	3.8	1.49e+00	0	43	104	0	77	19860
2026-01-01 10:57:56.75	314.49	25.87	-52.7	-67.8	3.8	1.49e+00	0	43	104	0	77	19993
2026-01-01 10:57:57.75	314.69	25.75	-52.7	-67.8	3.8	1.49e+00	0	43	104	0	77	19985
2026-01-01 10:57:58.75	314.88	25.62	-52.7	-67.8	3.8	1.49e+00	0	43	104	0	77	19971
2026-01-01 10:57:59.76	315.07	25.50	-52.7	-67.8	3.8	1.49e+00	0	43	104	0	77	19973
2026-01-01 10:58:00.76	315.26	25.37	-52.7	-67.8	3.8	1.49e+00	0	43	104	0	77	20003
2026-01-01 10:58:01.77	315.44	25.25	-52.7	-67.8	3.8	1.49e+00	0	43	104	0	77	20049
2026-01-01 10:58:02.77	315.63	25.12	-52.7	-67.8	3.8	1.49e+00	0	43	104	0	77	19985
2026-01-01 10:58:03.77	315.81	25.00	-52.7	-67.8	3.8	1.49e+00	0	43	104	0	77	20010
2026-01-01 10:58:04.78	316.00	24.87	-52.7	-67.9	3.8	1.49e+00	0	43	104	0	77	20084
2026-01-01 10:58:05.78	316.18	24.75	-52.7	-67.9	3.8	1.49e+00	0	43	104	0	77	20142
2026-01-01 10:58:06.79	316.36	24.62	-52.7	-67.8	3.8	1.49e+00	0	43	104	0	77	20048
2026-01-01 10:58:07.79	316.54	24.50	-52.7	-67.8	3.8	1.49e+00	0	43	104	0	77	20022
2026-01-01 10:58:08.80	316.72	24.38	-52.8	-67.9	3.8	1.49e+00	0	43	104	0	77	20162
2026-01-01 10:58:09.80	316.89	24.26	-52.8	-67.9	3.8	1.49e+00	0	43	104	0	77	20157
2026-01-01 10:58:10.81	317.07	24.13	-52.7	-67.9	3.8	1.49e+00	0	43	104	0	77	20091
2026-01-01 10:58:11.81	317.24	24.01	-52.7	-67.9	3.8	1.49e+00	0	43	104	0	77	20139
2026-01-01 10:58:12.81	317.42	23.89	-52.7	-67.9	3.8	1.49e+00	0	43	104	0	77	20104
2026-01-01 10:58:13.82	317.59	23.77	-52.7	-67.8	3.8	1.49e+00	0	43	104	0	77	20001
2026-01-01 10:58:14.82	317.76	23.65	-52.7	-67.9	3.8	1.49e+00	0	43	104	0	77	20120
2026-01-01 10:58:15.83	317.93	23.52	-52.7	-67.9	3.8	1.49e+00	0	43	104	0	77	20078
2026-01-01 10:58:16.83	318.09	23.40	-52.7	-67.9	3.8	1.49e+00	0	42	104	0	77	20081
2026-01-01 10:58:17.84	318.26	23.28	-52.7	-67.8	3.8	1.49e+00	0	42	104	0	77	20044
2026-01-01 10:58:18.84	318.42	23.16	-52.7	-67.8	3.8	1.49e+00	0	43	104	0	77	20013
2026-01-01 10:58:19.85	318.59	23.04	-52.8	-67.9	3.8	1.49e+00	0	43	104	0	77	20182
2026-01-01 10:58:20.85	318.75	22.93	-52.8	-67.9	3.8	1.49e+00	0	43	104	0	77	20211
2026-01-01 10:58:21.85	318.91	22.81	-52.8	-67.9	3.8	1.49e+00	0	43	104	0	77	20286
2026-01-01 10:58:22.86	319.07	22.69	-52.8	-67.9	3.8	1.49e+00	0	43	104	0	77	20197
2026-01-01 10:58:23.86	319.23	22.57	-52.8	-67.9	3.8	1.49e+00	0	43	104	0	77	20097
2026-01-01 10:58:24.87	319.39	22.45	-52.7	-67.9	3.8	1.49e+00	0	42	104	0	77	20172
2026-01-01 10:58:25.87	319.54	22.33	-52.8	-67.9	3.8	1.49e+00	0	42	104	0	77	20140
2026-01-01 10:58:26.88	319.70	22.22	-52.8	-67.9	3.8	1.49e+00	0	43	104	0	77	20114
2026-01-01 10:58:27.88	319.85	22.10	-52.8	-67.9	3.8	1.49e+00	0	43	104	0	77	20116
2026-01-01 10:58:28.89	320.01	21.98	-52.8	-67.9	3.8	1.49e+00	0	43	104	0	77	20216
2026-01-01 10:58:29.89	320.16	21.87	-52.8	-67.9	3.8	1.49e+00	0	43	104	0	77	20209
2026-01-01 10:58:30.89	320.31	21.75	-52.8	-68.0	3.8	1.49e+00	0	43	104	0	77	20327
2026-01-01 10:58:31.90	320.46	21.64	-52.8	-67.9	3.8	1.49e+00	0	43	104	0	77	20125
2026-01-01 10:58:32.90	320.61	21.52	-52.8	-67.9	3.8	1.49e+00	0	43	104	0	77	20187
2026-01-01 10:58:33.91	320.76	21.40	-52.8	-67.9	3.8	1.49e+00	0	43	104	0	77	20204
2026-01-01 10:58:34.91	320.90	21.29	-52.8	-67.9	3.8	1.49e+00	0	43	104	0	77	20179
2026-01-01 10:58:35.92	321.05	21.18	-52.7	-67.9	3.8	1.49e+00	0	43	104	0	77	20176
2026-01-01 10:58:36.92	321.19	21.06	-52.8	-67.9	3.8	1.49e+00	0	43	104	0	77	20227
2026-01-01 10:58:37.92	321.34	20.95	-52.7	-67.8	3.8	1.49e+00	0	43	104	0	77	20029
2026-01-01 10:58:38.93	321.48	20.84	-52.7	-67.8	3.8	1.49e+00	0	43	104	0	77	20053
2026-01-01 10:58:39.93	321.62	20.72	-52.7	-67.8	3.8	1.49e+00	0	43	104	0	77	20067
2026-01-01 10:58:40.94	321.76	20.61	-52.7	-67.9	3.8	1.49e+00	0	43	104	0	77	20096
2026-01-01 10:58:41.94	321.90	20.50	-52.8	-67.9	3.8	1.49e+00	0	42	104	0	77	20198
2026-01-01 10:58:42.94	322.04	20.39	-52.8	-67.9	3.8	1.49e+00	0	43	104	0	77	20106
2026-01-01 10:58:43.95	322.18	20.27	-52.7	-67.9	3.8	1.49e+00	0	42	104	0	77	20148
2026-01-01 10:58:44.95	322.31	20.16	-52.8	-67.9	3.8	1.49e+00	0	43	104	0	77	20104
2026-01-01 10:58:45.96	322.45	20.05	-52.7	-67.8	3.8	1.49e+00	0	43	104	0	77	20046
2026-01-01 10:58:46.96	322.58	19.94	-52.7	-67.9	3.8	1.49e+00	0	43	104	0	77	20089
2026-01-01 10:58:47.96	322.72	19.83	-52.8	-67.9	3.8	1.49e+00	0	43	104	0	77	20096
2026-01-01 10:58:48.97	322.85	19.72	-52.7	-67.9	3.8	1.49e+00	0	43	104	0	77	20108
2026-01-01 10:58:49.97	322.98	19.61	-52.7	-67.9	3.8	1.49e+00	0	43	104	0	77	20120
2026-01-01 10:58:50.97	323.11	19.50	-52.7	-67.8	3.8	1.49e+00	0	43	104	0	77	20031
2026-01-01 10:58:51.97	323.24	19.40	-52.8	-67.9	3.8	1.49e+00	0	43	104	0	77	20229
2026-01-01 10:58:52.98	323.37	19.29	-52.8	-67.9	3.8	1.49e+00	0	43	104	0	77	20190
2026-01-01 10:58:53.98	323.50	19.18	-52.7	-67.9	3.8	1.49e+00	0	43	104	0	77	20128
2026-01-01 10:58:54.98	323.63	19.07	-52.8	-67.9	3.8	1.49e+00	0	42	104	0	77	20161
2026-01-01 10:58:55.99	323.75	18.96	-52.8	-67.9	3.8	1.49e+00	0	43	104	0	77	20225
2026-01-01 10:58:56.99	323.88	18.86	-52.7	-67.9	3.8	1.49e+00	0	43	104	0	77	20140
2026-01-01 10:58:57.99	324.00	18.75	-52.7	-67.9	3.8	1.49e+00	0	43	104	0	77	20156
2026-01-01 10:58:59.00	324.13	18.64	-52.7	-67.9	3.8	1.49e+00	0	43	104	0	77	20087
2026-01-01 10:59:00.00	324.25	18.54	-52.7	-67.8	3.8	1.49e+00	0	43	104	0	77	20025
2026-01-01 10:59:01.01	324.37	18.43	-52.7	-67.8	3.8	1.49e+00	0	42	104	0	77	20036
2026-01-01 10:59:02.01	324.49	18.33	-52.8	-67.9	3.8	1.49e+00	0	43	104	0	77	20192
2026-01-01 10:59:03.01	324.61	18.22	-52.8	-67.9	3.8	1.49e+00	0	43	104	0	77	20133
2026-01-01 10:59:04.02	324.73	18.12	-52.7	-67.9	3.8	1.49e+00	0	43	104	0	77	20145
2026-01-01 10:59:05.02	324.85	18.01	-52.7	-67.9	3.8	1.49e+00	0	43	104	0	77	20143
2026-01-01 10:59:06.03	324.97	17.91	-52.8	-67.9	3.8	1.49e+00	0	43	104	0	77	20140
2026-01-01 10:59:07.03	325.09	17.81	-52.8	-67.9	3.8	1.49e+00	0	43	104	0	77	20174
2026-01-01 10:59:08.03	325.21	17.70	-52.7	-67.8	3.8	1.49e+00	0	43	104	0	77	20030
2026-01-01 10:59:09.04	325.32	17.60	-52.8	-67.8	3.8	1.49e+00	0	42	104	0	77	20050
2026-01-01 10:59:10.04	325.44	17.50	-52.7	-67.9	3.8	1.49e+00	0	43	104	0	77	20136
2026-01-01 10:59:11.05	325.55	17.39	-52.7	-67.8	3.8	1.49e+00	0	43	104	0	77	20058
2026-01-01 10:59:12.05	325.67	17.29	-52.8	-67.9	3.8	1.49e+00	0	43	104	0	77	20148
2026-01-01 10:59:13.06	325.78	17.19	-52.8	-67.9	3.8	1.49e+00	0	43	104	0	77	20191
2026-01-01 10:59:14.06	325.89	17.09	-52.7	-67.9	3.8	1.49e+00	0	43	104	0	77	20091
2026-01-01 10:59:15.07	326.00	16.99	-52.7	-67.9	3.8	1.49e+00	0	43	104	0	77	20220
2026-01-01 10:59:16.07	326.11	16.89	-52.7	-67.9	3.8	1.49e+00	0	43	104	0	77	20104
2026-01-01 10:59:17.07	326.22	16.79	-52.8	-67.9	3.8	1.49e+00	0	43	104	0	77	20171
2026-01-01 10:59:18.08	326.33	16.69	-52.7	-67.8	3.8	1.49e+00	0	43	104	0	77	20067
2026-01-01 10:59:19.08	326.44	16.59	-52.7	-67.9	3.8	1.49e+00	0	43	104	0	77	20103
2026-01-01 10:59:20.08	326.55	16.49	-52.7	-67.8	3.8	1.49e+00	0	43	104	0	77	20060
2026-01-01 10:59:21.09	326.66	16.39	-52.8	-67.9	3.8	1.49e+00	0	42	104	0	77	20157
2026-01-01 10:59:22.09	326.76	16.29	-52.8	-67.9	3.8	1.49e+00	0	42	104	0	77	20232
2026-01-01 10:59:23.10	326.87	16.19	-52.8	-67.9	3.8	1.49e+00	0	42	104	0	77	20185
2026-01-01 10:59:24.10	326.98	16.09	-52.8	-67.9	3.8	1.49e+00	0	42	104	0	77	20162
2026-01-01 10:59:25.11	327.08	15.99	-52.8	-67.9	3.8	1.49e+00	0	43	104	0	77	20151
2026-01-01 10:59:26.11	327.18	15.90	-52.7	-67.9	3.8	1.49e+00	0	43	104	0	77	20131
2026-01-01 10:59:27.12	327.29	15.80	-52.7	-67.9	3.8	1.49e+00	0	42	104	0	77	20091
2026-01-01 10:59:28.12	327.39	15.70	-52.8	-67.9	3.8	1.49e+00	0	42	104	0	77	20180
2026-01-01 10:59:29.13	327.49	15.60	-52.8	-67.9	3.8	1.49e+00	0	43	104	0	77	20172
2026-01-01 10:59:30.13	327.59	15.51	-52.8	-67.9	3.8	1.49e+00	0	43	104	0	77	20278
2026-01-01 10:59:31.13	327.69	15.41	-52.7	-67.9	3.8	1.49e+00	0	43	104	0	77	20257
2026-01-01 10:59:32.14	327.80	15.32	-52.8	-67.9	3.8	1.49e+00	0	42	104	0	77	20137
2026-01-01 10:59:33.14	327.89	15.22	-52.7	-67.9	3.8	1.49e+00	0	42	104	0	77	20090
2026-01-01 10:59:34.15	327.99	15.12	-52.7	-67.9	3.8	1.49e+00	0	43	104	0	77	20112
2026-01-01 10:59:35.15	328.09	15.03	-52.7	-67.8	3.8	1.49e+00	0	42	104	0	77	19999
2026-01-01 10:59:36.16	328.19	14.93	-52.7	-67.9	3.8	1.49e+00	0	42	104	0	77	20080
2026-01-01 10:59:37.16	328.29	14.84	-52.7	-67.8	3.8	1.49e+00	0	42	104	0	77	20026
2026-01-01 10:59:38.16	328.38	14.75	-52.7	-67.8	3.8	1.49e+00	0	42	104	0	77	20012
2026-01-01 10:59:39.17	328.48	14.65	-52.7	-67.8	3.8	1.49e+00	0	43	104	0	77	20003
2026-01-01 10:59:40.17	328.58	14.56	-52.8	-67.8	3.8	1.49e+00	0	42	104	0	77	20065
2026-01-01 10:59:41.18	328.67	14.47	-52.7	-67.9	3.8	1.49e+00	0	43	104	0	77	20099
2026-01-01 10:59:42.18	328.77	14.37	-52.7	-67.9	3.8	1.49e+00	0	42	104	0	77	20084
2026-01-01 10:59:43.19	328.86	14.28	-52.7	-67.8	3.8	1.49e+00	0	43	104	0	77	20070
2026-01-01 10:59:44.19	328.95	14.19	-52.7	-67.8	3.8	1.49e+00	0	42	104	0	77	20056
2026-01-01 10:59:45.19	329.04	14.10	-52.7	-67.9	3.8	1.49e+00	0	43	104	0	77	20108
2026-01-01 10:59:46.20	329.14	14.00	-52.7	-67.8	3.8	1.49e+00	0	43	104	0	77	19995
2026-01-01 10:59:47.20	329.23	13.91	-52.7	-67.8	3.8	1.49e+00	0	43	104	0	77	20051
2026-01-01 10:59:48.21	329.32	13.82	-52.7	-67.8	3.8	1.49e+00	0	43	104	0	77	19989
2026-01-01 10:59:49.21	329.41	13.73	-52.7	-67.8	3.8	1.49e+00	0	42	104	0	77	20018
2026-01-01 10:59:50.22	329.50	13.64	-52.7	-67.9	3.8	1.49e+00	0	42	104	0	77	20074
2026-01-01 10:59:51.22	329.59	13.55	-52.7	-67.9	3.8	1.49e+00	0	42	104	0	77	20153
2026-01-01 10:59:52.22	329.68	13.46	-52.7	-67.8	3.8	1.49e+00	0	42	104	0	77	20066
2026-01-01 10:59:53.23	329.77	13.37	-52.8	-67.9	3.8	1.49e+00	0	42	104	0	77	20081
2026-01-01 10:59:54.23	329.86	13.28	-52.8	-67.9	3.8	1.49e+00	0	43	104	0	77	20194
2026-01-01 10:59:55.24	329.94	13.19	-52.7	-67.9	3.8	1.49e+00	0	42	104	0	77	20179
2026-01-01 10:59:56.24	330.03	13.10	-52.7	-67.9	3.8	1.49e+00	0	43	104	0	77	20148
2026-01-01 10:59:57.42	330.13	13.00	-52.7	-67.9	3.8	1.49e+00	0	43	104	0	77	20096
2026-01-01 10:59:58.35	330.21	12.92	-52.7	-67.8	3.8	1.49e+00	0	43	104	0	77	20067
2026-01-01 10:59:59.53	330.31	12.81	-52.7	-67.9	3.8	1.49e+00	0	42	104	0	77	20156
2026-01-01 11:00:00.42	330.39	12.73	-52.8	-67.9	3.8	1.49e+00	0	42	104	0	77	20134
2026-01-01 11:00:01.72	330.50	12.62	-52.8	-67.9	3.8	1.49e+00	0	42	104	0	77	20232
2026-01-01 11:00:02.44	330.56	12.56	-52.8	-67.9	3.8	1.49e+00	0	42	104	0	77	20157
2026-01-01 11:00:03.73	330.66	12.45	-52.8	-67.9	3.8	1.49e+00	0	43	104	0	77	20293
2026-01-01 11:00:04.45	330.72	12.38	-52.8	-67.9	3.8	1.49e+00	0	42	104	0	77	20183
2026-01-01 11:00:05.74	330.83	12.27	-52.8	-67.9	3.8	1.49e+00	0	42	104	0	77	20219
2026-01-01 11:00:06.46	330.89	12.21	-52.8	-67.9	3.8	1.49e+00	0	42	104	0	77	20117
2026-01-01 11:00:07.75	330.99	12.10	-52.7	-67.9	3.8	1.49e+00	0	42	104	0	77	20110
2026-01-01 11:00:08.46	331.05	12.04	-52.7	-67.9	3.8	1.49e+00	0	42	104	0	77	20120
2026-01-01 11:00:09.76	331.15	11.93	-52.7	-67.9	3.8	1.49e+00	0	43	104	0	77	20157
2026-01-01 11:00:10.47	331.21	11.87	-52.7	-67.9	3.8	1.49e+00	0	42	104	0	77	20144
2026-01-01 11:00:11.80	331.32	11.76	-52.7	-67.9	3.8	1.49e+00	0	42	104	0	77	20082
2026-01-01 11:00:12.51	331.37	11.70	-52.7	-67.8	3.8	1.49e+00	0	42	104	0	77	20047
2026-01-01 11:00:13.87	331.48	11.58	-52.8	-67.9	3.8	1.49e+00	0	42	104	0	77	20153
2026-01-01 11:00:14.59	331.54	11.52	-52.8	-67.9	3.8	1.49e+00	0	42	104	0	77	20149
2026-01-01 11:00:15.94	331.64	11.41	-52.7	-67.8	3.8	1.49e+00	0	42	104	0	77	20028
2026-01-01 11:00:16.66	331.70	11.35	-52.7	-67.9	3.8	1.49e+00	0	42	104	0	77	20104
2026-01-01 11:00:17.95	331.80	11.24	-52.8	-67.9	3.8	1.49e+00	0	42	104	0	77	20086
2026-01-01 11:00:18.67	331.85	11.18	-52.8	-67.9	3.8	1.49e+00	0	42	104	0	77	20122
2026-01-01 11:00:19.96	331.95	11.08	-52.7	-67.8	3.8	1.49e+00	0	42	104	0	77	20059
2026-01-01 11:00:20.68	332.00	11.02	-52.7	-67.8	3.8	1.49e+00	0	42	104	0	77	20046
2026-01-01 11:00:21.97	332.10	10.91	-52.8	-67.9	3.8	1.49e+00	0	42	104	0	77	20279
2026-01-01 11:00:22.69	332.15	10.85	-52.8	-67.9	3.8	1.49e+00	0	42	104	0	77	20200
2026-01-01 11:00:23.97	332.25	10.75	-52.8	-67.9	3.8	1.49e+00	0	42	104	0	77	20227
2026-01-01 11:00:24.70	332.30	10.69	-52.8	-67.8	3.8	1.49e+00	0	42	104	0	77	20014
2026-01-01 11:00:25.99	332.40	10.58	-52.8	-67.9	3.8	1.49e+00	0	42	104	0	77	20207
2026-01-01 11:00:26.72	332.45	10.52	-52.7	-67.9	3.8	1.49e+00	0	42	104	0	77	20075
2026-01-01 11:00:28.01	332.55	10.42	-52.7	-67.8	3.8	1.49e+00	0	42	104	0	77	20067
2026-01-01 11:00:28.72	332.60	10.36	-52.7	-67.9	3.8	1.49e+00	0	42	104	0	77	20072
2026-01-01 11:00:30.00	332.69	10.26	-52.7	-67.8	3.8	1.49e+00	0	42	104	0	77	20035
2026-01-01 11:00:30.72	332.74	10.20	-52.7	-67.8	3.8	1.49e+00	0	43	104	0	77	20036
2026-01-01 11:00:32.00	332.83	10.10	-52.8	-67.9	3.8	1.49e+00	0	42	104	0	77	20263
2026-01-01 11:00:32.75	332.89	10.04	-52.8	-67.9	3.8	1.49e+00	0	42	104	0	77	20202
2026-01-01 11:00:34.03	332.98	9.94	-52.8	-67.9	3.8	1.49e+00	0	42	104	0	77	20134
2026-01-01 11:00:34.74	333.03	9.88	-52.7	-67.9	3.8	1.49e+00	0	42	104	0	77	20131
2026-01-01 11:00:36.03	333.12	9.78	-52.8	-67.9	3.8	1.49e+00	0	42	104	0	77	20202
2026-01-01 11:00:36.74	333.17	9.72	-52.8	-67.9	3.8	1.49e+00	0	43	104	0	77	20244
2026-01-01 11:00:38.02	333.26	9.62	-52.7	-67.9	3.8	1.49e+00	0	42	104	0	77	20162
2026-01-01 11:00:38.75	333.31	9.57	-52.7	-67.9	3.8	1.49e+00	0	42	104	0	77	20172
2026-01-01 11:00:40.04	333.39	9.46	-52.8	-67.9	3.8	1.49e+00	0	42	104	0	77	20236
2026-01-01 11:00:40.76	333.44	9.41	-52.8	-68.0	3.8	1.49e+00	0	43	104	0	77	20446
2026-01-01 11:00:42.05	333.53	9.31	-52.9	-68.0	3.8	1.49e+00	0	43	104	0	77	20475
2026-01-01 11:00:42.78	333.58	9.25	-52.8	-68.0	3.8	1.49e+00	0	42	104	0	77	20429
2026-01-01 11:00:44.07	333.67	9.15	-53.0	-68.1	3.8	1.49e+00	0	42	104	0	77	20586
2026-01-01 11:00:44.78	333.72	9.10	-52.9	-68.1	3.8	1.49e+00	0	43	104	0	77	20664
2026-01-01 11:00:46.07	333.80	9.00	-53.0	-68.1	3.8	1.49e+00	0	42	104	0	77	20567
2026-01-01 11:00:46.79	333.85	8.94	-52.9	-68.1	3.8	1.49e+00	0	42	104	0	77	20585
2026-01-01 11:00:48.08	333.93	8.84	-52.7	-68.0	3.8	1.49e+00	0	42	104	0	77	20537
2026-01-01 11:00:48.79	333.98	8.79	-52.8	-68.1	3.8	1.49e+00	0	42	104	0	77	20582
2026-01-01 11:00:50.08	334.06	8.69	-52.9	-68.1	3.8	1.49e+00	0	42	104	0	77	20581
2026-01-01 11:00:50.81	334.11	8.64	-52.8	-68.1	3.8	1.49e+00	0	42	104	0	77	20553
2026-01-01 11:00:52.10	334.20	8.54	-52.9	-68.1	3.8	1.49e+00	0	42	104	0	77	20657
2026-01-01 11:00:52.81	334.24	8.49	-52.9	-68.1	3.8	1.49e+00	0	42	104	0	77	20691
2026-01-01 11:00:54.10	334.32	8.39	-52.9	-68.1	3.8	1.49e+00	0	43	104	0	77	20582
2026-01-01 11:00:54.82	334.37	8.33	-52.9	-68.1	3.8	1.49e+00	0	42	104	0	77	20614
2026-01-01 11:00:56.11	334.45	8.24	-52.9	-68.0	3.8	1.49e+00	0	42	104	0	77	20523
2026-01-01 11:00:56.82	334.50	8.18	-52.9	-68.1	3.8	1.49e+00	0	42	104	0	77	20631
2026-01-01 11:00:58.11	334.58	8.09	-52.9	-68.1	3.8	1.49e+00	0	42	104	0	77	20611
2026-01-01 11:00:58.82	334.62	8.04	-52.9	-68.1	3.8	1.49e+00	0	42	104	0	77	20613
2026-01-01 11:01:00.11	334.70	7.94	-52.8	-68.0	3.8	1.49e+00	0	42	104	0	77	20513
2026-01-01 11:01:00.83	334.75	7.89	-52.8	-68.0	3.8	1.49e+00	0	42	104	0	77	20425
2026-01-01 11:01:02.11	334.83	7.79	-52.8	-68.0	3.8	1.49e+00	0	42	104	0	77	20404
2026-01-01 11:01:02.83	334.87	7.74	-52.8	-68.0	3.8	1.49e+00	0	42	104	0	77	20378
2026-01-01 11:01:04.12	334.95	7.65	-52.8	-68.0	3.8	1.49e+00	0	42	104	0	77	20487
2026-01-01 11:01:04.83	334.99	7.59	-52.8	-68.0	3.8	1.49e+00	0	42	104	0	77	20453
2026-01-01 11:01:06.12	335.07	7.50	-52.8	-68.1	3.8	1.49e+00	0	42	104	0	77	20554
2026-01-01 11:01:06.84	335.11	7.45	-52.9	-68.0	3.8	1.49e+00	0	42	104	0	77	20496
2026-01-01 11:01:08.12	335.19	7.35	-52.8	-68.0	3.8	1.49e+00	0	42	104	0	77	20454
2026-01-01 11:01:08.84	335.23	7.30	-52.8	-68.0	3.8	1.49e+00	0	42	104	0	77	20419
2026-01-01 11:01:10.13	335.31	7.21	-52.8	-68.0	3.8	1.49e+00	0	43	104	0	77	20429
2026-01-01 11:01:10.85	335.35	7.16	-52.8	-68.0	3.8	1.49e+00	0	42	104	0	77	20450
2026-01-01 11:01:12.13	335.43	7.07	-52.8	-68.0	3.8	1.49e+00	0	42	104	0	77	20439
2026-01-01 11:01:12.85	335.47	7.01	-52.8	-68.0	3.8	1.49e+00	0	42	104	0	77	20426
2026-01-01 11:01:14.14	335.54	6.92	-52.8	-67.9	3.8	1.49e+00	0	42	104	0	77	20248
2026-01-01 11:01:14.85	335.59	6.87	-52.8	-68.0	3.8	1.49e+00	0	42	104	0	77	20311
2026-01-01 11:01:16.14	335.66	6.78	-52.8	-68.1	3.8	1.49e+00	0	42	104	0	77	20545
2026-01-01 11:01:16.86	335.70	6.73	-52.8	-68.0	3.8	1.49e+00	0	42	104	0	77	20530
2026-01-01 11:01:18.15	335.78	6.64	-52.8	-68.0	3.8	1.49e+00	0	42	104	0	77	20359
2026-01-01 11:01:18.86	335.82	6.59	-52.8	-68.0	3.8	1.49e+00	0	42	104	0	77	20421
2026-01-01 11:01:20.15	335.89	6.50	-52.8	-68.0	3.8	1.49e+00	0	42	104	0	77	20338
2026-01-01 11:01:20.87	335.93	6.45	-52.8	-68.0	3.8	1.49e+00	0	42	104	0	77	20384
2026-01-01 11:01:22.15	336.00	6.36	-52.8	-68.0	3.8	1.49e+00	0	42	104	0	77	20401
2026-01-01 11:01:22.87	336.04	6.31	-52.8	-68.0	3.8	1.49e+00	0	42	104	0	77	20322
2026-01-01 11:01:24.16	336.11	6.22	-52.8	-67.9	3.8	1.49e+00	0	42	104	0	77	20280
2026-01-01 11:01:24.87	336.15	6.17	-52.8	-68.0	3.8	1.49e+00	0	42	104	0	77	20450
2026-01-01 11:01:26.16	336.23	6.08	-52.8	-68.1	3.8	1.49e+00	0	42	104	0	77	20563
2026-01-01 11:01:26.88	336.26	6.03	-52.8	-68.0	3.8	1.49e+00	0	42	104	0	77	20449
2026-01-01 11:01:28.16	336.33	5.94	-52.8	-68.0	3.8	1.49e+00	0	42	104	0	77	20347
2026-01-01 11:01:28.88	336.37	5.89	-52.8	-68.0	3.8	1.49e+00	0	42	104	0	77	20517
2026-01-01 11:01:30.17	336.44	5.80	-52.8	-68.0	3.8	1.49e+00	0	42	104	0	77	20390
2026-01-01 11:01:30.89	336.48	5.75	-52.8	-68.0	3.8	1.49e+00	0	42	104	0	77	20424
2026-01-01 11:01:32.16	336.55	5.66	-52.8	-68.0	3.8	1.49e+00	0	42	104	0	77	20440
2026-01-01 11:01:32.89	336.59	5.61	-52.8	-68.0	3.8	1.49e+00	0	42	104	0	77	20369
2026-01-01 11:01:34.18	336.66	5.53	-52.8	-67.9	3.8	1.49e+00	0	42	104	0	77	20229
2026-01-01 11:01:34.90	336.70	5.48	-52.8	-68.0	3.8	1.49e+00	0	42	104	0	77	20331
2026-01-01 11:01:36.18	336.77	5.39	-52.8	-68.0	3.8	1.49e+00	0	42	104	0	77	20333
2026-01-01 11:01:36.90	336.80	5.34	-52.8	-68.0	3.8	1.49e+00	0	42	104	0	77	20438
