passes_logs/2026/01/01/T1/T1__20260101_013858_FENGYUN_3D_rec.log

#Pass ID: 20260101_013858_FENGYUN 3D
#Satellite: FENGYUN 3D
#Configuration: FENGYUN 3D
#almurnet v.1.7.20251203
#Start time: 2026-01-01 01:38:59

#Version: 2.0.20230620
#Station: T1
#Location: 37.570604 lon 55.790049 lat
#TLE: 1 43010U 17072A   25365.48527867  .00000101  00000+0  69745-4 0  9999
#TLE: 2 43010  98.9911 332.0787 0001837 134.4748 225.6578 14.19689788421190

#Time	Az	El	Level	Level2	SNR	BER	BlckErr	Temp	State	Recorded	gain1	gain2
2026-01-01 01:38:59.90	17.41	5.11	-51.3	-63.5	3.8	8.47e-01	0	40	0	0	73	15279
2026-01-01 01:39:00.90	17.42	5.18	-51.3	-63.6	3.8	8.46e-01	0	41	104	0	74	14545
2026-01-01 01:39:01.90	17.43	5.25	-51.3	-63.5	3.8	8.46e-01	0	41	104	0	74	14487
2026-01-01 01:39:02.91	17.44	5.32	-51.3	-63.5	3.8	8.46e-01	0	41	104	0	74	14468
2026-01-01 01:39:03.91	17.45	5.40	-51.3	-63.5	3.8	8.49e-01	0	41	104	0	74	14462
2026-01-01 01:39:04.91	17.46	5.47	-51.3	-63.5	3.8	8.47e-01	0	41	104	0	74	14447
2026-01-01 01:39:05.92	17.47	5.54	-51.3	-63.5	3.8	8.47e-01	0	41	104	0	74	14457
2026-01-01 01:39:06.92	17.48	5.61	-51.3	-63.5	3.8	8.45e-01	0	41	104	0	74	14462
2026-01-01 01:39:07.92	17.49	5.69	-51.3	-63.5	3.8	8.47e-01	0	41	104	0	74	14400
2026-01-01 01:39:08.93	17.50	5.76	-51.3	-63.5	3.8	8.47e-01	0	41	104	0	74	14417
2026-01-01 01:39:09.93	17.51	5.83	-51.2	-63.4	3.8	8.47e-01	0	41	104	0	74	14373
2026-01-01 01:39:10.94	17.52	5.91	-51.3	-63.5	3.8	8.47e-01	0	41	104	0	74	14393
2026-01-01 01:39:11.94	17.53	5.98	-51.2	-63.5	3.8	8.46e-01	0	41	104	0	74	14434
2026-01-01 01:39:12.94	17.54	6.06	-51.2	-63.5	3.8	8.47e-01	0	41	104	0	74	14405
2026-01-01 01:39:13.95	17.54	6.13	-51.3	-63.5	3.8	8.47e-01	0	41	104	0	74	14458
2026-01-01 01:39:14.95	17.55	6.20	-51.2	-63.5	3.8	8.47e-01	0	41	104	0	74	14443
2026-01-01 01:39:15.96	17.56	6.28	-51.3	-63.5	3.8	8.47e-01	0	41	104	0	74	14418
2026-01-01 01:39:16.96	17.57	6.35	-51.2	-63.5	3.8	8.47e-01	0	41	104	0	74	14440
2026-01-01 01:39:17.97	17.58	6.43	-51.2	-63.5	3.8	8.46e-01	0	41	104	0	74	14413
2026-01-01 01:39:18.97	17.59	6.51	-51.2	-63.4	3.8	8.47e-01	0	41	104	0	74	14373
2026-01-01 01:39:19.98	17.60	6.58	-51.2	-63.4	3.8	8.47e-01	0	41	104	0	74	14373
2026-01-01 01:39:20.98	17.61	6.66	-51.2	-63.4	3.8	8.46e-01	0	41	104	0	74	14357
2026-01-01 01:39:21.98	17.62	6.73	-51.2	-63.5	3.8	8.45e-01	0	41	104	0	74	14389
2026-01-01 01:39:22.99	17.63	6.81	-51.3	-63.5	3.8	8.47e-01	0	41	104	0	74	14528
2026-01-01 01:39:23.99	17.64	6.89	-51.3	-63.5	3.8	8.47e-01	0	41	104	0	74	14444
2026-01-01 01:39:24.99	17.65	6.96	-51.3	-63.5	3.8	8.48e-01	0	41	104	0	74	14489
2026-01-01 01:39:26.00	17.66	7.04	-51.3	-63.5	3.8	8.47e-01	0	41	104	0	74	14419
2026-01-01 01:39:27.00	17.67	7.12	-51.3	-63.5	3.8	8.47e-01	0	42	104	0	74	14491
2026-01-01 01:39:28.00	17.68	7.19	-51.3	-63.5	3.8	8.46e-01	0	42	104	0	74	14490
2026-01-01 01:39:29.01	17.69	7.27	-51.3	-63.5	3.8	8.47e-01	0	41	104	0	74	14457
2026-01-01 01:39:30.01	17.70	7.35	-51.2	-63.5	3.8	8.48e-01	0	42	104	0	74	14406
2026-01-01 01:39:31.01	17.71	7.43	-51.2	-63.5	3.8	8.47e-01	0	42	104	0	74	14414
2026-01-01 01:39:32.02	17.72	7.51	-51.2	-63.5	3.8	8.47e-01	0	41	104	0	74	14417
2026-01-01 01:39:33.02	17.73	7.58	-51.2	-63.5	3.8	8.47e-01	0	42	104	0	74	14435
2026-01-01 01:39:34.02	17.74	7.66	-51.2	-63.5	3.8	8.47e-01	0	42	104	0	74	14429
2026-01-01 01:39:35.03	17.75	7.74	-51.2	-63.4	3.8	8.49e-01	0	42	104	0	74	14307
2026-01-01 01:39:36.03	17.76	7.82	-51.3	-63.5	3.8	8.47e-01	0	42	104	0	74	14396
2026-01-01 01:39:37.04	17.77	7.90	-51.2	-63.4	3.8	8.47e-01	0	42	104	0	74	14355
2026-01-01 01:39:38.04	17.78	7.98	-51.2	-63.4	3.8	8.47e-01	0	42	104	0	74	14366
2026-01-01 01:39:39.05	17.79	8.06	-51.3	-63.5	3.8	8.48e-01	0	42	104	0	74	14503
2026-01-01 01:39:40.05	17.80	8.14	-51.2	-63.4	3.8	8.47e-01	0	42	104	0	74	14353
2026-01-01 01:39:41.05	17.81	8.22	-51.2	-63.5	3.8	8.48e-01	0	42	104	0	74	14387
2026-01-01 01:39:42.06	17.82	8.30	-51.2	-63.4	3.8	8.47e-01	0	42	104	0	74	14349
2026-01-01 01:39:43.06	17.83	8.38	-51.2	-63.5	3.8	8.47e-01	0	42	104	0	74	14390
2026-01-01 01:39:44.06	17.84	8.47	-51.2	-63.4	3.8	8.47e-01	0	42	104	0	74	14357
2026-01-01 01:39:45.07	17.85	8.55	-51.3	-63.5	3.8	8.45e-01	0	42	104	0	74	14396
2026-01-01 01:39:46.07	17.86	8.63	-51.2	-63.4	3.8	8.48e-01	0	42	104	0	74	14360
2026-01-01 01:39:47.07	17.87	8.71	-51.2	-63.5	3.8	8.46e-01	0	42	104	0	74	14437
2026-01-01 01:39:48.08	17.88	8.79	-51.2	-63.5	3.8	8.47e-01	0	42	104	0	74	14456
2026-01-01 01:39:49.08	17.89	8.88	-51.2	-63.4	3.8	8.46e-01	0	42	104	0	74	14367
2026-01-01 01:39:50.08	17.90	8.96	-51.2	-63.4	3.8	8.48e-01	0	42	104	0	74	14330
2026-01-01 01:39:51.09	17.92	9.04	-51.2	-63.4	3.8	8.48e-01	0	42	104	0	74	14334
2026-01-01 01:39:52.09	17.93	9.13	-51.2	-63.5	3.8	8.46e-01	0	42	104	0	74	14397
2026-01-01 01:39:53.10	17.94	9.21	-51.2	-63.4	3.8	8.46e-01	0	42	104	0	74	14350
2026-01-01 01:39:54.10	17.95	9.29	-51.2	-63.5	3.8	8.47e-01	0	42	104	0	74	14376
2026-01-01 01:39:55.10	17.96	9.38	-51.2	-63.5	3.8	8.47e-01	0	42	104	0	74	14389
2026-01-01 01:39:56.11	17.97	9.46	-51.2	-63.5	3.8	8.46e-01	0	42	104	0	74	14426
2026-01-01 01:39:57.12	17.98	9.55	-51.2	-63.5	3.8	8.47e-01	0	42	104	0	74	14465
2026-01-01 01:39:58.12	17.99	9.63	-51.2	-63.4	3.8	8.46e-01	0	42	104	0	74	14319
2026-01-01 01:39:59.12	18.00	9.72	-51.2	-63.4	3.8	8.47e-01	0	42	104	0	74	14313
2026-01-01 01:40:00.13	18.01	9.81	-51.2	-63.5	3.8	8.47e-01	0	42	104	0	74	14404
2026-01-01 01:40:01.13	18.02	9.89	-51.2	-63.4	3.8	8.46e-01	0	42	104	0	74	14351
2026-01-01 01:40:02.14	18.03	9.98	-51.2	-63.4	3.8	8.47e-01	0	42	104	0	74	14313
2026-01-01 01:40:03.14	18.05	10.07	-51.2	-63.4	3.8	8.48e-01	0	42	104	0	74	14324
2026-01-01 01:40:04.14	18.06	10.15	-51.2	-63.5	3.8	8.48e-01	0	42	104	0	74	14446
2026-01-01 01:40:05.15	18.07	10.24	-51.2	-63.5	3.8	8.46e-01	0	42	104	0	74	14451
2026-01-01 01:40:06.15	18.08	10.33	-51.3	-63.5	3.8	8.47e-01	0	42	104	0	74	14413
2026-01-01 01:40:07.16	18.09	10.42	-51.2	-63.5	3.8	8.47e-01	0	42	104	0	74	14422
2026-01-01 01:40:08.16	18.10	10.50	-51.2	-63.4	3.8	8.47e-01	0	42	104	0	74	14341
2026-01-01 01:40:09.17	18.11	10.59	-51.2	-63.4	3.8	8.47e-01	0	42	104	0	74	14359
2026-01-01 01:40:10.17	18.12	10.68	-51.2	-63.4	3.8	8.47e-01	0	42	104	0	74	14300
2026-01-01 01:40:11.17	18.14	10.77	-51.2	-63.5	3.8	8.47e-01	0	42	104	0	74	14387
2026-01-01 01:40:12.18	18.15	10.86	-51.2	-63.5	3.8	8.48e-01	0	43	104	0	74	14393
2026-01-01 01:40:13.18	18.16	10.95	-51.2	-63.4	3.8	8.47e-01	0	43	104	0	74	14373
2026-01-01 01:40:14.19	18.17	11.04	-51.2	-63.5	3.8	8.47e-01	0	42	104	0	74	14390
2026-01-01 01:40:15.19	18.18	11.13	-51.2	-63.5	3.8	8.48e-01	0	42	104	0	74	14399
2026-01-01 01:40:16.20	18.19	11.22	-51.2	-63.4	3.8	8.47e-01	0	42	104	0	74	14294
2026-01-01 01:40:17.20	18.21	11.31	-51.2	-63.4	3.8	8.48e-01	0	43	104	0	74	14324
2026-01-01 01:40:18.21	18.22	11.41	-51.2	-63.4	3.8	8.47e-01	0	43	104	0	74	14359
2026-01-01 01:40:19.21	18.23	11.50	-51.2	-63.4	3.8	8.47e-01	0	42	104	0	74	14320
2026-01-01 01:40:20.21	18.24	11.59	-51.2	-63.4	3.8	8.46e-01	0	43	104	0	74	14338
2026-01-01 01:40:21.22	18.25	11.68	-51.2	-63.4	3.8	8.48e-01	0	43	104	0	74	14368
2026-01-01 01:40:22.22	18.26	11.78	-51.2	-63.4	3.8	8.46e-01	0	42	104	0	74	14370
2026-01-01 01:40:23.23	18.28	11.87	-51.2	-63.4	3.8	8.48e-01	0	43	104	0	74	14359
2026-01-01 01:40:24.23	18.29	11.96	-51.2	-63.4	3.8	8.46e-01	0	43	104	0	74	14275
2026-01-01 01:40:25.24	18.30	12.06	-51.2	-63.4	3.8	8.47e-01	0	42	104	0	74	14327
2026-01-01 01:40:26.24	18.31	12.15	-51.2	-63.4	3.8	8.47e-01	0	43	104	0	74	14320
2026-01-01 01:40:27.25	18.32	12.25	-51.2	-63.4	3.8	8.48e-01	0	43	104	0	74	14341
2026-01-01 01:40:28.25	18.34	12.34	-51.2	-63.4	3.8	8.46e-01	0	42	104	0	74	14269
2026-01-01 01:40:29.25	18.35	12.44	-51.2	-63.4	3.8	8.47e-01	0	43	104	0	74	14345
2026-01-01 01:40:30.26	18.36	12.54	-51.2	-63.4	3.8	8.47e-01	0	43	104	0	74	14247
2026-01-01 01:40:31.26	18.37	12.63	-51.2	-63.4	3.8	8.48e-01	0	42	104	0	74	14363
2026-01-01 01:40:32.27	18.39	12.73	-51.2	-63.4	3.8	8.46e-01	0	43	104	0	74	14320
2026-01-01 01:40:33.27	18.40	12.83	-51.2	-63.4	3.8	8.47e-01	0	43	104	0	74	14281
2026-01-01 01:40:34.28	18.41	12.92	-51.2	-63.4	3.8	8.47e-01	0	43	104	0	74	14294
2026-01-01 01:40:35.28	18.42	13.02	-51.2	-63.5	3.8	8.46e-01	0	43	104	0	74	14378
2026-01-01 01:40:36.29	18.44	13.12	-51.2	-63.4	3.8	8.47e-01	0	43	104	0	74	14318
2026-01-01 01:40:37.29	18.45	13.22	-51.2	-63.4	3.8	8.46e-01	0	43	104	0	74	14252
2026-01-01 01:40:38.29	18.46	13.32	-51.2	-63.4	3.8	8.47e-01	0	43	104	0	74	14303
2026-01-01 01:40:39.30	18.47	13.42	-51.2	-63.4	3.8	8.46e-01	0	43	104	0	74	14279
2026-01-01 01:40:40.30	18.49	13.52	-51.2	-63.4	3.8	8.46e-01	0	43	104	0	74	14260
2026-01-01 01:40:41.31	18.50	13.62	-51.2	-63.4	3.8	8.47e-01	0	43	104	0	74	14256
2026-01-01 01:40:42.31	18.51	13.72	-51.2	-63.4	3.8	8.46e-01	0	43	104	0	74	14304
2026-01-01 01:40:43.32	18.53	13.82	-51.2	-63.4	3.8	8.48e-01	0	43	104	0	74	14290
2026-01-01 01:40:44.32	18.54	13.92	-51.2	-63.4	3.8	8.46e-01	0	43	104	0	74	14327
2026-01-01 01:40:45.33	18.55	14.02	-51.2	-63.4	3.8	8.47e-01	0	43	104	0	74	14322
2026-01-01 01:40:46.33	18.57	14.13	-51.2	-63.4	3.8	8.46e-01	0	43	104	0	74	14357
2026-01-01 01:40:47.33	18.58	14.23	-51.2	-63.4	3.8	8.47e-01	0	43	104	0	74	14322
2026-01-01 01:40:48.34	18.59	14.33	-51.2	-63.4	3.8	8.47e-01	0	43	104	0	74	14277
2026-01-01 01:40:49.34	18.61	14.44	-51.2	-63.4	3.8	8.47e-01	0	43	104	0	74	14299
2026-01-01 01:40:50.35	18.62	14.54	-51.2	-63.4	3.8	8.48e-01	0	43	104	0	74	14355
2026-01-01 01:40:51.35	18.63	14.65	-51.2	-63.4	3.8	8.46e-01	0	43	104	0	74	14343
2026-01-01 01:40:52.35	18.65	14.75	-51.2	-63.4	3.8	8.46e-01	0	43	104	0	74	14366
2026-01-01 01:40:53.36	18.66	14.86	-51.2	-63.5	3.8	8.47e-01	0	43	104	0	74	14386
2026-01-01 01:40:54.40	18.67	14.97	-51.2	-63.5	3.8	8.46e-01	0	43	104	0	74	14398
2026-01-01 01:40:55.43	18.69	15.08	-51.2	-63.4	3.8	8.47e-01	0	43	104	0	74	14332
2026-01-01 01:40:56.46	18.70	15.19	-51.2	-63.4	3.8	8.46e-01	0	43	104	0	74	14335
2026-01-01 01:40:57.49	18.72	15.30	-51.2	-63.4	3.8	8.47e-01	0	43	104	0	74	14300
2026-01-01 01:40:58.53	18.73	15.41	-51.2	-63.4	3.8	8.46e-01	0	43	104	0	74	14332
2026-01-01 01:40:59.56	18.75	15.52	-51.2	-63.4	3.8	8.47e-01	0	43	104	0	74	14261
2026-01-01 01:41:00.59	18.76	15.63	-51.2	-63.4	3.8	8.46e-01	0	43	104	0	74	14296
2026-01-01 01:41:01.62	18.78	15.74	-51.2	-63.4	3.8	8.47e-01	0	43	104	0	74	14242
2026-01-01 01:41:02.62	18.79	15.85	-51.2	-63.4	3.8	8.47e-01	0	43	104	0	74	14330
2026-01-01 01:41:03.63	18.80	15.97	-51.2	-63.4	3.8	8.48e-01	0	43	104	0	74	14338
2026-01-01 01:41:04.63	18.82	16.08	-51.2	-63.4	3.8	8.47e-01	0	43	104	0	74	14316
2026-01-01 01:41:05.64	18.83	16.19	-51.2	-63.4	3.8	8.47e-01	0	43	104	0	74	14336
2026-01-01 01:41:06.64	18.85	16.30	-51.2	-63.4	3.8	8.47e-01	0	43	104	0	74	14303
2026-01-01 01:41:07.64	18.86	16.41	-51.2	-63.4	3.8	8.48e-01	0	43	104	0	74	14295
2026-01-01 01:41:08.65	18.88	16.53	-51.2	-63.4	3.8	8.46e-01	0	43	104	0	74	14309
2026-01-01 01:41:09.65	18.89	16.64	-51.2	-63.4	3.8	8.48e-01	0	43	104	0	74	14238
2026-01-01 01:41:10.66	18.91	16.75	-51.2	-63.4	3.8	8.46e-01	0	43	104	0	74	14292
2026-01-01 01:41:11.66	18.92	16.87	-51.2	-63.4	3.8	8.47e-01	0	43	104	0	74	14292
2026-01-01 01:41:12.67	18.94	16.98	-51.2	-63.4	3.8	8.47e-01	0	43	104	0	74	14332
2026-01-01 01:41:13.67	18.95	17.10	-51.2	-63.4	3.8	8.47e-01	0	43	104	0	74	14311
2026-01-01 01:41:14.67	18.97	17.22	-51.2	-63.4	3.8	8.46e-01	0	43	104	0	74	14294
2026-01-01 01:41:15.68	18.98	17.33	-51.2	-63.5	3.8	8.46e-01	0	43	104	0	74	14375
2026-01-01 01:41:16.68	19.00	17.45	-51.2	-63.5	3.8	8.47e-01	0	43	104	0	74	14381
2026-01-01 01:41:17.69	19.01	17.57	-51.2	-63.4	3.8	8.48e-01	0	43	104	0	74	14364
2026-01-01 01:41:18.69	19.03	17.69	-51.2	-63.4	3.8	8.48e-01	0	43	104	0	74	14348
2026-01-01 01:41:19.69	19.05	17.81	-51.2	-63.4	3.8	8.47e-01	0	43	104	0	74	14226
2026-01-01 01:41:20.70	19.06	17.93	-51.2	-63.4	3.8	8.47e-01	0	43	104	0	74	14282
2026-01-01 01:41:21.70	19.08	18.05	-51.2	-63.4	3.8	8.47e-01	0	43	104	0	74	14283
2026-01-01 01:41:22.70	19.09	18.17	-51.2	-63.4	3.8	8.47e-01	0	43	104	0	74	14304
2026-01-01 01:41:23.71	19.11	18.29	-51.2	-63.4	3.8	8.47e-01	0	43	104	0	74	14295
2026-01-01 01:41:24.71	19.13	18.41	-51.2	-63.4	3.8	8.47e-01	0	43	104	0	74	14320
2026-01-01 01:41:25.72	19.14	18.53	-51.2	-63.4	3.8	8.48e-01	0	43	104	0	74	14331
2026-01-01 01:41:26.72	19.16	18.66	-51.2	-63.4	3.8	8.48e-01	0	43	104	0	74	14366
2026-01-01 01:41:27.73	19.18	18.78	-51.2	-63.5	3.8	8.47e-01	0	43	104	0	74	14389
2026-01-01 01:41:28.73	19.19	18.91	-51.2	-63.4	3.8	8.47e-01	0	43	104	0	74	14346
2026-01-01 01:41:29.74	19.21	19.03	-51.2	-63.4	3.8	8.47e-01	0	43	104	0	74	14314
2026-01-01 01:41:30.74	19.23	19.16	-51.2	-63.4	3.8	8.45e-01	0	43	104	0	74	14341
2026-01-01 01:41:31.74	19.24	19.28	-51.2	-63.4	3.8	8.47e-01	0	43	104	0	74	14299
2026-01-01 01:41:32.75	19.26	19.41	-51.2	-63.5	3.8	8.47e-01	0	43	104	0	74	14422
2026-01-01 01:41:33.75	19.28	19.54	-51.2	-63.4	3.8	8.46e-01	0	43	104	0	74	14301
2026-01-01 01:41:34.76	19.29	19.67	-51.2	-63.4	3.8	8.47e-01	0	43	104	0	74	14278
2026-01-01 01:41:35.76	19.31	19.80	-51.2	-63.4	3.8	8.46e-01	0	43	104	0	74	14318
2026-01-01 01:41:36.77	19.33	19.93	-51.2	-63.4	3.8	8.46e-01	0	43	104	0	74	14286
2026-01-01 01:41:37.77	19.35	20.06	-51.2	-63.4	3.8	8.47e-01	0	43	104	0	74	14291
2026-01-01 01:41:38.78	19.36	20.19	-51.2	-63.4	3.8	8.47e-01	0	43	104	0	74	14289
2026-01-01 01:41:39.78	19.38	20.32	-51.2	-63.4	3.8	8.47e-01	0	43	104	0	74	14260
2026-01-01 01:41:40.78	19.40	20.45	-51.2	-63.4	3.8	8.47e-01	0	43	104	0	74	14249
2026-01-01 01:41:41.79	19.42	20.59	-51.2	-63.4	3.8	8.48e-01	0	43	104	0	74	14358
2026-01-01 01:41:42.79	19.44	20.72	-51.2	-63.4	3.8	8.47e-01	0	43	104	0	74	14295
2026-01-01 01:41:43.80	19.46	20.86	-51.2	-63.4	3.8	8.47e-01	0	43	104	0	74	14256
2026-01-01 01:41:44.80	19.47	20.99	-51.2	-63.4	3.8	8.46e-01	0	43	104	0	74	14243
2026-01-01 01:41:45.81	19.49	21.13	-51.2	-63.4	3.8	8.47e-01	0	43	104	0	74	14271
2026-01-01 01:41:46.81	19.51	21.27	-51.2	-63.4	3.8	8.47e-01	0	43	104	0	74	14252
2026-01-01 01:41:47.82	19.53	21.41	-51.2	-63.4	3.8	8.47e-01	0	43	104	0	74	14303
2026-01-01 01:41:48.82	19.55	21.54	-51.2	-63.4	3.8	8.46e-01	0	43	104	0	74	14264
2026-01-01 01:41:49.82	19.57	21.68	-51.2	-63.4	3.8	8.47e-01	0	43	104	0	74	14247
2026-01-01 01:41:50.83	19.59	21.82	-51.2	-63.4	3.8	8.46e-01	0	43	104	0	74	14270
2026-01-01 01:41:51.83	19.61	21.96	-51.2	-63.4	3.8	8.47e-01	0	43	104	0	74	14308
2026-01-01 01:41:52.84	19.63	22.11	-51.2	-63.4	3.8	8.47e-01	0	43	104	0	74	14306
2026-01-01 01:41:53.84	19.65	22.25	-51.2	-63.4	3.8	8.46e-01	0	43	104	0	74	14296
2026-01-01 01:41:54.85	19.67	22.39	-51.2	-63.4	3.8	8.46e-01	0	43	104	0	74	14264
2026-01-01 01:41:55.85	19.69	22.54	-51.2	-63.4	3.8	8.46e-01	0	43	104	0	74	14332
2026-01-01 01:41:56.86	19.71	22.68	-51.2	-63.4	3.8	8.47e-01	0	43	104	0	74	14329
2026-01-01 01:41:57.86	19.73	22.83	-51.2	-63.4	3.8	8.47e-01	0	43	104	0	74	14311
2026-01-01 01:41:58.86	19.75	22.97	-51.2	-63.4	3.8	8.47e-01	0	43	104	0	74	14272
2026-01-01 01:41:59.87	19.77	23.12	-51.2	-63.4	3.8	8.47e-01	0	43	104	0	74	14292
2026-01-01 01:42:00.87	19.79	23.27	-51.2	-63.4	3.8	8.46e-01	0	43	104	0	74	14310
2026-01-01 01:42:01.88	19.81	23.42	-51.2	-63.4	3.8	8.46e-01	0	43	104	0	74	14360
2026-01-01 01:42:02.88	19.83	23.57	-51.2	-63.4	3.8	8.48e-01	0	43	104	0	74	14341
2026-01-01 01:42:03.89	19.85	23.72	-51.2	-63.4	3.8	8.47e-01	0	43	104	0	74	14249
2026-01-01 01:42:04.89	19.87	23.87	-51.2	-63.4	3.8	8.47e-01	0	43	104	0	74	14294
2026-01-01 01:42:05.90	19.89	24.02	-51.2	-63.4	3.8	8.48e-01	0	43	104	0	74	14265
2026-01-01 01:42:06.90	19.92	24.18	-51.2	-63.4	3.8	8.47e-01	0	43	104	0	74	14254
2026-01-01 01:42:07.90	19.94	24.33	-51.2	-63.4	3.8	8.47e-01	0	43	104	0	74	14312
2026-01-01 01:42:08.91	19.96	24.49	-51.2	-63.4	3.8	8.47e-01	0	43	104	0	74	14236
2026-01-01 01:42:09.91	19.98	24.64	-51.2	-63.4	3.8	8.47e-01	0	43	104	0	74	14271
2026-01-01 01:42:10.92	20.00	24.80	-51.2	-63.4	3.8	8.45e-01	0	43	104	0	74	14233
2026-01-01 01:42:11.92	20.03	24.96	-51.2	-63.4	3.8	8.47e-01	0	43	104	0	74	14291
2026-01-01 01:42:12.92	20.05	25.12	-51.2	-63.4	3.8	8.46e-01	0	43	104	0	74	14282
2026-01-01 01:42:13.93	20.07	25.28	-51.2	-63.4	3.8	8.48e-01	0	43	104	0	74	14319
2026-01-01 01:42:14.93	20.10	25.44	-51.2	-63.4	3.8	8.47e-01	0	43	104	0	74	14294
2026-01-01 01:42:15.93	20.12	25.60	-51.1	-63.4	3.8	8.47e-01	0	43	104	0	74	14233
2026-01-01 01:42:16.94	20.14	25.76	-51.2	-63.4	3.8	8.47e-01	0	43	104	0	74	14237
2026-01-01 01:42:17.94	20.17	25.93	-51.1	-63.4	3.8	8.47e-01	0	43	104	0	74	14247
2026-01-01 01:42:18.95	20.19	26.09	-51.2	-63.4	3.8	8.46e-01	0	43	104	0	74	14258
2026-01-01 01:42:19.95	20.21	26.26	-51.2	-63.4	3.8	8.47e-01	0	43	104	0	74	14237
2026-01-01 01:42:20.96	20.24	26.43	-51.2	-63.4	3.8	8.47e-01	0	43	104	0	74	14239
2026-01-01 01:42:21.96	20.26	26.59	-51.2	-63.4	3.8	8.47e-01	0	43	104	0	74	14226
2026-01-01 01:42:22.96	20.29	26.76	-51.1	-63.4	3.8	8.47e-01	0	44	104	0	74	14225
2026-01-01 01:42:23.97	20.31	26.93	-51.2	-63.3	3.8	8.47e-01	0	43	104	0	74	14204
2026-01-01 01:42:24.97	20.34	27.11	-51.1	-63.3	3.8	8.48e-01	0	43	104	0	74	14181
2026-01-01 01:42:25.98	20.36	27.28	-51.1	-63.4	3.8	8.46e-01	0	43	104	0	74	14231
2026-01-01 01:42:26.98	20.39	27.45	-51.2	-63.4	3.8	8.47e-01	0	43	104	0	74	14251
2026-01-01 01:42:27.99	20.42	27.63	-51.1	-63.4	3.8	8.47e-01	0	43	104	0	74	14252
2026-01-01 01:42:28.99	20.44	27.80	-51.2	-63.4	3.8	8.46e-01	0	43	104	0	74	14294
2026-01-01 01:42:29.99	20.47	27.98	-51.2	-63.4	3.8	8.47e-01	0	43	104	0	74	14238
2026-01-01 01:42:30.99	20.50	28.16	-51.2	-63.4	3.8	8.47e-01	0	44	104	0	74	14249
2026-01-01 01:42:32.00	20.52	28.34	-51.1	-63.4	3.8	8.47e-01	0	43	104	0	74	14253
2026-01-01 01:42:33.00	20.55	28.52	-51.2	-63.4	3.8	8.46e-01	0	43	104	0	74	14302
2026-01-01 01:42:34.01	20.58	28.70	-51.1	-63.4	3.8	8.47e-01	0	43	104	0	74	14219
2026-01-01 01:42:35.01	20.61	28.88	-51.2	-63.4	3.8	8.47e-01	0	43	104	0	74	14225
2026-01-01 01:42:36.02	20.63	29.07	-51.1	-63.4	3.8	8.47e-01	0	43	104	0	74	14237
2026-01-01 01:42:37.02	20.66	29.25	-51.2	-63.4	3.8	8.47e-01	0	43	104	0	74	14239
2026-01-01 01:42:38.02	20.69	29.44	-51.1	-63.4	3.8	8.47e-01	0	43	104	0	74	14254
2026-01-01 01:42:39.03	20.72	29.62	-51.2	-63.4	3.8	8.47e-01	0	43	104	0	74	14242
2026-01-01 01:42:40.03	20.75	29.81	-51.2	-63.4	3.8	8.47e-01	0	43	104	0	74	14237
2026-01-01 01:42:41.03	20.78	30.00	-51.2	-63.4	3.8	8.47e-01	0	43	104	0	74	14294
2026-01-01 01:42:42.04	20.81	30.19	-51.1	-63.4	3.8	8.46e-01	0	43	104	0	74	14216
2026-01-01 01:42:43.04	20.84	30.39	-51.2	-63.4	3.8	8.47e-01	0	43	104	0	74	14239
2026-01-01 01:42:44.05	20.87	30.58	-51.1	-63.3	3.8	8.47e-01	0	43	104	0	74	14201
2026-01-01 01:42:45.05	20.90	30.78	-51.1	-63.4	3.8	8.47e-01	0	43	104	0	74	14213
2026-01-01 01:42:46.06	20.93	30.97	-51.2	-63.3	3.8	8.46e-01	0	43	104	0	74	14193
2026-01-01 01:42:47.06	20.96	31.17	-51.1	-63.4	3.8	8.47e-01	0	43	104	0	74	14230
2026-01-01 01:42:48.07	20.99	31.37	-51.2	-63.3	3.8	8.46e-01	0	43	104	0	74	14196
2026-01-01 01:42:49.07	21.03	31.57	-51.2	-63.3	3.8	8.48e-01	0	43	104	0	74	14203
2026-01-01 01:42:50.08	21.06	31.77	-51.2	-63.4	3.8	8.47e-01	0	43	104	0	74	14249
2026-01-01 01:42:51.08	21.09	31.98	-51.2	-63.4	3.8	8.46e-01	0	43	104	0	74	14210
2026-01-01 01:42:52.08	21.13	32.18	-51.2	-63.4	3.8	8.48e-01	0	43	104	0	74	14232
2026-01-01 01:42:53.09	21.16	32.39	-51.2	-63.4	3.8	8.47e-01	0	43	104	0	74	14244
2026-01-01 01:42:54.09	21.19	32.60	-51.2	-63.4	3.8	8.48e-01	0	43	104	0	74	14241
2026-01-01 01:42:55.10	21.23	32.81	-51.2	-63.4	3.8	8.47e-01	0	43	104	0	74	14223
2026-01-01 01:42:56.10	21.26	33.02	-51.1	-63.3	3.8	8.47e-01	0	43	104	0	74	14206
2026-01-01 01:42:57.11	21.30	33.23	-51.1	-63.3	3.8	8.47e-01	0	43	104	0	74	14180
2026-01-01 01:42:58.11	21.33	33.44	-51.2	-63.4	3.8	8.47e-01	0	43	104	0	74	14247
2026-01-01 01:42:59.11	21.37	33.66	-51.2	-63.4	3.8	8.46e-01	0	43	104	0	74	14312
2026-01-01 01:43:00.12	21.41	33.87	-51.2	-63.4	3.8	8.47e-01	0	44	104	0	74	14360
2026-01-01 01:43:01.12	21.44	34.09	-51.2	-63.4	3.8	8.47e-01	0	43	104	0	74	14271
2026-01-01 01:43:02.13	21.48	34.31	-51.2	-63.4	3.8	8.48e-01	0	43	104	0	74	14277
2026-01-01 01:43:03.13	21.52	34.53	-51.2	-63.4	3.8	8.49e-01	0	43	104	0	74	14262
2026-01-01 01:43:04.13	21.56	34.75	-51.2	-63.4	3.8	8.47e-01	0	43	104	0	74	14255
2026-01-01 01:43:05.14	21.59	34.98	-51.2	-63.4	3.8	8.48e-01	0	43	104	0	74	14245
2026-01-01 01:43:06.14	21.63	35.21	-51.2	-63.4	3.8	8.46e-01	0	44	104	0	74	14252
2026-01-01 01:43:07.15	21.67	35.43	-51.2	-63.4	3.8	8.47e-01	0	44	104	0	74	14332
2026-01-01 01:43:08.15	21.71	35.66	-51.2	-63.4	3.8	8.47e-01	0	43	104	0	74	14242
2026-01-01 01:43:09.16	21.75	35.90	-51.2	-63.4	3.8	8.47e-01	0	43	104	0	74	14346
2026-01-01 01:43:10.16	21.80	36.13	-51.2	-63.4	3.8	8.46e-01	0	43	104	0	74	14342
2026-01-01 01:43:11.17	21.84	36.36	-51.2	-63.4	3.8	8.46e-01	0	43	104	0	74	14283
2026-01-01 01:43:12.17	21.88	36.60	-51.2	-63.4	3.8	8.46e-01	0	43	104	0	74	14291
2026-01-01 01:43:13.17	21.92	36.83	-51.2	-63.4	3.8	8.46e-01	0	43	104	0	74	14251
2026-01-01 01:43:14.18	21.97	37.08	-51.2	-63.4	3.8	8.46e-01	0	43	104	0	74	14305
2026-01-01 01:43:15.18	22.01	37.32	-51.2	-63.4	3.8	8.47e-01	0	44	104	0	74	14268
2026-01-01 01:43:16.18	22.05	37.56	-51.2	-63.4	3.8	8.46e-01	0	43	104	0	74	14333
2026-01-01 01:43:17.19	22.10	37.80	-51.2	-63.4	3.8	8.46e-01	0	43	104	0	74	14329
2026-01-01 01:43:18.19	22.15	38.05	-51.2	-63.4	3.8	8.46e-01	0	43	104	0	74	14299
2026-01-01 01:43:19.20	22.19	38.30	-51.2	-63.4	3.8	8.47e-01	0	43	104	0	74	14276
2026-01-01 01:43:20.20	22.24	38.55	-51.2	-63.3	3.8	8.47e-01	0	43	104	0	74	14209
2026-01-01 01:43:21.21	22.29	38.80	-51.2	-63.4	3.8	8.48e-01	0	43	104	0	74	14258
2026-01-01 01:43:22.21	22.34	39.05	-51.2	-63.4	3.8	8.46e-01	0	44	104	0	74	14263
2026-01-01 01:43:23.21	22.39	39.31	-51.2	-63.4	3.8	8.47e-01	0	43	104	0	74	14326
2026-01-01 01:43:24.22	22.44	39.57	-51.2	-63.4	3.8	8.47e-01	0	43	104	0	74	14225
2026-01-01 01:43:25.22	22.49	39.83	-51.2	-63.4	3.8	8.47e-01	0	44	104	0	74	14221
2026-01-01 01:43:26.23	22.54	40.09	-51.2	-63.4	3.8	8.47e-01	0	43	104	0	74	14213
2026-01-01 01:43:27.23	22.59	40.35	-51.2	-63.4	3.8	8.46e-01	0	43	104	0	74	14294
2026-01-01 01:43:28.24	22.64	40.62	-51.2	-63.4	3.8	8.46e-01	0	44	104	0	74	14270
2026-01-01 01:43:29.24	22.70	40.89	-51.2	-63.4	3.8	8.46e-01	0	44	104	0	74	14260
2026-01-01 01:43:30.25	22.75	41.16	-51.2	-63.4	3.8	8.46e-01	0	43	104	0	74	14295
2026-01-01 01:43:31.25	22.81	41.43	-51.2	-63.4	3.8	8.47e-01	0	43	104	0	74	14269
2026-01-01 01:43:32.25	22.86	41.70	-51.2	-63.4	3.8	8.47e-01	0	43	104	0	74	14215
2026-01-01 01:43:33.26	22.92	41.98	-51.2	-63.4	3.8	8.48e-01	0	43	104	0	74	14252
2026-01-01 01:43:34.26	22.98	42.25	-51.2	-63.4	3.8	8.47e-01	0	43	104	0	74	14314
2026-01-01 01:43:35.27	23.04	42.53	-51.2	-63.4	3.8	8.48e-01	0	43	104	0	74	14239
2026-01-01 01:43:36.27	23.10	42.81	-51.2	-63.4	3.8	8.46e-01	0	43	104	0	74	14253
2026-01-01 01:43:37.27	23.16	43.10	-51.2	-63.4	3.8	8.46e-01	0	43	104	0	74	14295
2026-01-01 01:43:38.28	23.22	43.38	-51.2	-63.4	3.8	8.46e-01	0	44	104	0	74	14263
2026-01-01 01:43:39.28	23.29	43.67	-51.2	-63.4	3.8	8.48e-01	0	43	104	0	74	14278
2026-01-01 01:43:40.29	23.35	43.96	-51.2	-63.4	3.8	8.47e-01	0	43	104	0	74	14313
2026-01-01 01:43:41.29	23.42	44.25	-51.2	-63.4	3.8	8.45e-01	0	43	104	0	74	14298
2026-01-01 01:43:42.30	23.48	44.55	-51.2	-63.4	3.8	8.47e-01	0	43	104	0	74	14266
2026-01-01 01:43:43.30	23.55	44.85	-51.2	-63.4	3.8	8.47e-01	0	43	104	0	74	14294
2026-01-01 01:43:44.30	23.62	45.14	-51.2	-63.4	3.8	8.47e-01	0	43	104	0	74	14284
2026-01-01 01:43:45.31	23.69	45.45	-51.2	-63.4	3.8	8.47e-01	0	43	104	0	74	14269
2026-01-01 01:43:46.31	23.76	45.75	-51.2	-63.4	3.8	8.47e-01	0	43	104	0	74	14263
2026-01-01 01:43:47.31	23.83	46.05	-51.2	-63.4	3.8	8.47e-01	0	43	104	0	74	14292
2026-01-01 01:43:48.32	23.91	46.36	-51.2	-63.3	3.8	8.46e-01	0	44	104	0	74	14209
2026-01-01 01:43:49.32	23.99	46.67	-51.1	-63.3	3.8	8.45e-01	0	43	104	0	74	14203
2026-01-01 01:43:50.33	24.06	46.99	-51.2	-63.4	3.8	8.46e-01	0	44	104	0	74	14233
2026-01-01 01:43:51.33	24.14	47.30	-51.2	-63.4	3.8	8.47e-01	0	44	104	0	74	14250
2026-01-01 01:43:52.34	24.22	47.62	-51.2	-63.4	3.8	8.48e-01	0	44	104	0	74	14309
2026-01-01 01:43:53.34	24.30	47.94	-51.2	-63.4	3.8	8.47e-01	0	43	104	0	74	14309
2026-01-01 01:43:54.35	24.39	48.26	-51.2	-63.4	3.8	8.47e-01	0	43	104	0	74	14332
2026-01-01 01:43:55.35	24.47	48.58	-51.2	-63.4	3.8	8.46e-01	0	43	104	0	74	14304
2026-01-01 01:43:56.35	24.56	48.91	-51.2	-63.4	3.8	8.46e-01	0	43	104	0	74	14234
2026-01-01 01:43:57.36	24.65	49.24	-51.2	-63.4	3.8	8.47e-01	0	43	104	0	74	14238
2026-01-01 01:43:58.38	24.74	49.57	-51.2	-63.3	3.8	8.48e-01	0	43	104	0	74	14200
2026-01-01 01:43:59.40	24.83	49.91	-51.2	-63.4	3.8	8.46e-01	0	43	104	0	74	14276
2026-01-01 01:44:00.45	24.93	50.26	-51.2	-63.4	3.8	8.48e-01	0	44	104	0	74	14244
2026-01-01 01:44:01.36	25.02	50.57	-51.2	-63.4	3.8	8.47e-01	0	43	104	0	74	14254
2026-01-01 01:44:02.51	25.13	50.96	-51.2	-63.4	3.8	8.48e-01	0	43	104	0	74	14236
2026-01-01 01:44:03.42	25.22	51.27	-51.2	-63.4	3.8	8.48e-01	0	43	104	0	74	14244
2026-01-01 01:44:04.60	25.34	51.68	-51.2	-63.4	3.8	8.46e-01	0	44	104	0	74	14259
2026-01-01 01:44:05.49	25.44	51.99	-51.2	-63.4	3.8	8.47e-01	0	43	104	0	74	14242
2026-01-01 01:44:06.63	25.56	52.39	-51.2	-63.4	3.8	8.46e-01	0	43	104	0	74	14260
2026-01-01 01:44:07.49	25.66	52.69	-51.2	-63.4	3.8	8.47e-01	0	43	104	0	74	14300
2026-01-01 01:44:08.64	25.79	53.10	-51.2	-63.4	3.8	8.47e-01	0	44	104	0	74	14279
2026-01-01 01:44:09.50	25.88	53.41	-51.2	-63.4	3.8	8.46e-01	0	44	104	0	74	14299
2026-01-01 01:44:10.65	26.02	53.82	-51.2	-63.4	3.8	8.47e-01	0	44	104	0	74	14257
2026-01-01 01:44:11.51	26.13	54.13	-51.2	-63.4	3.8	8.47e-01	0	43	104	0	74	14214
2026-01-01 01:44:12.66	26.27	54.55	-51.1	-63.3	3.8	8.48e-01	0	44	104	0	74	14187
2026-01-01 01:44:13.52	26.38	54.86	-51.1	-63.4	3.8	8.47e-01	0	44	104	0	74	14213
2026-01-01 01:44:14.67	26.53	55.29	-51.2	-63.4	3.8	8.47e-01	0	44	104	0	74	14322
2026-01-01 01:44:15.53	26.64	55.61	-51.2	-63.3	3.8	8.47e-01	0	44	104	0	74	14206
2026-01-01 01:44:16.72	26.81	56.05	-51.2	-63.4	3.8	8.47e-01	0	43	104	0	74	14259
2026-01-01 01:44:17.58	26.93	56.38	-51.2	-63.4	3.8	8.47e-01	0	44	104	0	74	14256
2026-01-01 01:44:18.73	27.10	56.81	-51.2	-63.4	3.8	8.46e-01	0	43	104	0	74	14245
2026-01-01 01:44:19.59	27.22	57.14	-51.2	-63.4	3.8	8.49e-01	0	44	104	0	74	14253
2026-01-01 01:44:20.73	27.40	57.58	-51.2	-63.4	3.8	8.46e-01	0	43	104	0	74	14275
2026-01-01 01:44:21.60	27.54	57.92	-51.2	-63.4	3.8	8.46e-01	0	44	104	0	74	14292
2026-01-01 01:44:22.74	27.72	58.36	-51.2	-63.4	3.8	8.48e-01	0	43	104	0	74	14243
2026-01-01 01:44:23.60	27.86	58.70	-51.1	-63.4	3.8	8.47e-01	0	44	104	0	74	14274
2026-01-01 01:44:24.75	28.06	59.15	-51.2	-63.3	3.8	8.47e-01	0	44	104	0	74	14161
2026-01-01 01:44:25.61	28.21	59.49	-51.1	-63.3	3.8	8.47e-01	0	43	104	0	74	14194
2026-01-01 01:44:26.76	28.42	59.95	-51.2	-63.3	3.8	8.46e-01	0	44	104	0	74	14202
2026-01-01 01:44:27.62	28.58	60.29	-51.2	-63.3	3.8	8.48e-01	0	44	104	0	74	14177
2026-01-01 01:44:28.76	28.81	60.75	-51.1	-63.3	3.8	8.47e-01	0	43	104	0	74	14141
2026-01-01 01:44:29.62	28.98	61.10	-51.2	-63.4	3.8	8.46e-01	0	43	104	0	74	14219
2026-01-01 01:44:30.77	29.22	61.57	-51.1	-63.4	3.8	8.48e-01	0	44	104	0	74	14243
2026-01-01 01:44:31.63	29.40	61.92	-51.2	-63.4	3.8	8.47e-01	0	43	104	0	74	14297
2026-01-01 01:44:32.80	29.66	62.40	-51.2	-63.4	3.8	8.47e-01	0	44	104	0	74	14244
2026-01-01 01:44:33.66	29.85	62.76	-51.2	-63.4	3.8	8.46e-01	0	44	104	0	74	14302
2026-01-01 01:44:34.80	30.12	63.23	-51.2	-63.4	3.8	8.47e-01	0	44	104	0	74	14257
2026-01-01 01:44:35.67	30.34	63.59	-51.2	-63.4	3.8	8.47e-01	0	43	104	0	74	14295
2026-01-01 01:44:36.82	30.63	64.08	-51.2	-63.4	3.8	8.46e-01	0	44	104	0	74	14274
2026-01-01 01:44:37.68	30.85	64.44	-51.1	-63.4	3.8	8.47e-01	0	44	104	0	74	14232
2026-01-01 01:44:38.82	31.16	64.92	-51.2	-63.4	3.8	8.45e-01	0	43	104	0	74	14258
2026-01-01 01:44:39.69	31.41	65.29	-51.2	-63.4	3.8	8.47e-01	0	44	104	0	74	14233
2026-01-01 01:44:40.83	31.75	65.78	-51.2	-63.4	3.8	8.47e-01	0	43	104	0	74	14276
2026-01-01 01:44:41.69	32.01	66.15	-51.2	-63.4	3.8	8.47e-01	0	43	104	0	74	14364
2026-01-01 01:44:42.84	32.37	66.65	-51.2	-63.4	3.8	8.47e-01	0	43	104	0	74	14279
2026-01-01 01:44:43.70	32.66	67.02	-51.2	-63.4	3.8	8.46e-01	0	43	104	0	74	14310
2026-01-01 01:44:44.85	33.06	67.52	-51.2	-63.4	3.8	8.48e-01	0	43	104	0	74	14347
2026-01-01 01:44:45.71	33.36	67.89	-51.2	-63.5	3.8	8.47e-01	0	43	104	0	74	14395
2026-01-01 01:44:46.86	33.80	68.40	-51.2	-63.4	3.8	8.47e-01	0	44	104	0	74	14294
2026-01-01 01:44:47.72	34.13	68.77	-51.2	-63.4	3.8	8.47e-01	0	44	104	0	74	14309
2026-01-01 01:44:48.87	34.60	69.28	-51.2	-63.4	3.8	8.47e-01	0	43	104	0	74	14351
2026-01-01 01:44:49.73	34.97	69.66	-51.2	-63.4	3.8	8.47e-01	0	44	104	0	74	14322
2026-01-01 01:44:50.88	35.49	70.17	-51.2	-63.4	3.8	8.47e-01	0	43	104	0	74	14325
2026-01-01 01:44:51.74	35.90	70.55	-51.2	-63.4	3.8	8.47e-01	0	43	104	0	74	14320
2026-01-01 01:44:52.89	36.47	71.06	-51.2	-63.4	3.8	8.47e-01	0	44	104	0	74	14326
2026-01-01 01:44:53.75	36.91	71.44	-51.2	-63.4	3.8	8.46e-01	0	43	104	0	74	14277
2026-01-01 01:44:54.90	37.54	71.95	-51.2	-63.4	3.8	8.48e-01	0	44	104	0	74	14346
2026-01-01 01:44:55.75	38.03	72.33	-51.2	-63.4	3.8	8.47e-01	0	43	104	0	74	14318
2026-01-01 01:44:56.90	38.73	72.84	-51.2	-63.4	3.8	8.46e-01	0	43	104	0	74	14363
2026-01-01 01:44:57.76	39.28	73.22	-51.3	-63.5	3.8	8.47e-01	0	44	104	0	74	14434
2026-01-01 01:44:58.91	40.06	73.73	-51.2	-63.4	3.8	8.47e-01	0	44	104	0	74	14308
2026-01-01 01:44:59.77	40.68	74.11	-51.2	-63.4	3.8	8.46e-01	0	44	104	0	74	14301
2026-01-01 01:45:00.92	41.55	74.62	-51.2	-63.4	3.8	8.47e-01	0	43	104	0	74	14330
2026-01-01 01:45:01.78	42.25	75.00	-51.2	-63.4	3.8	8.46e-01	0	43	104	0	74	14291
2026-01-01 01:45:02.93	43.24	75.51	-51.2	-63.4	3.8	8.47e-01	0	44	104	0	74	14324
2026-01-01 01:45:03.79	44.02	75.89	-51.2	-63.4	3.8	8.47e-01	0	44	104	0	74	14296
2026-01-01 01:45:04.93	45.13	76.38	-51.2	-63.4	3.8	8.47e-01	0	43	104	0	74	14304
2026-01-01 01:45:05.80	46.04	76.76	-51.2	-63.4	3.8	8.47e-01	0	43	104	0	74	14302
2026-01-01 01:45:06.94	47.31	77.25	-51.2	-63.4	3.8	8.46e-01	0	43	104	0	74	14347
2026-01-01 01:45:07.80	48.34	77.62	-51.2	-63.4	3.8	8.46e-01	0	43	104	0	74	14360
2026-01-01 01:45:08.95	49.81	78.10	-51.2	-63.4	3.8	8.47e-01	0	44	104	0	74	14291
2026-01-01 01:45:09.81	50.99	78.46	-51.2	-63.4	3.8	8.47e-01	0	44	104	0	74	14238
2026-01-01 01:45:10.96	52.70	78.93	-51.2	-63.4	3.8	8.47e-01	0	44	104	0	74	14339
2026-01-01 01:45:11.82	54.07	79.28	-51.2	-63.4	3.8	8.47e-01	0	44	104	0	74	14320
2026-01-01 01:45:12.97	56.05	79.73	-51.2	-63.5	3.8	8.46e-01	0	43	104	0	74	14401
2026-01-01 01:45:13.83	57.65	80.07	-51.2	-63.4	3.8	8.48e-01	0	44	104	0	74	14343
2026-01-01 01:45:14.97	59.95	80.49	-51.2	-63.4	3.8	8.47e-01	0	43	104	0	74	14258
2026-01-01 01:45:15.84	61.85	80.81	-51.2	-63.4	3.8	8.48e-01	0	44	104	0	74	14308
2026-01-01 01:45:16.98	64.54	81.21	-51.2	-63.4	3.8	8.47e-01	0	44	104	0	74	14330
2026-01-01 01:45:17.84	66.74	81.50	-51.2	-63.4	3.8	8.47e-01	0	43	104	0	74	14291
2026-01-01 01:45:18.99	69.91	81.86	-51.2	-63.4	3.8	8.47e-01	0	44	104	0	74	14286
2026-01-01 01:45:19.85	72.48	82.12	-51.2	-63.4	3.8	8.48e-01	0	44	104	0	74	14289
2026-01-01 01:45:21.00	76.17	82.44	-51.2	-63.4	3.8	8.46e-01	0	44	104	0	74	14305
2026-01-01 01:45:21.86	79.14	82.65	-51.2	-63.4	3.8	8.48e-01	0	44	104	0	74	14248
2026-01-01 01:45:23.01	83.37	82.91	-51.2	-63.5	3.8	8.47e-01	0	44	104	0	74	14390
2026-01-01 01:45:23.87	86.72	83.07	-51.3	-63.5	3.8	8.47e-01	0	44	104	0	74	14486
2026-01-01 01:45:25.02	91.44	83.25	-51.2	-63.5	3.8	8.48e-01	0	44	104	0	74	14428
2026-01-01 01:45:25.88	95.13	83.36	-51.2	-63.4	3.8	8.47e-01	0	44	104	0	74	14370
2026-01-01 01:45:27.03	100.21	83.46	-51.2	-63.5	3.8	8.47e-01	0	44	104	0	74	14374
2026-01-01 01:45:27.89	104.09	83.49	-51.2	-63.4	3.8	8.47e-01	0	44	104	0	74	14373
2026-01-01 01:45:29.03	109.26	83.50	-51.2	-63.4	3.8	8.47e-01	0	44	104	0	74	14364
2026-01-01 01:45:29.89	113.15	83.47	-51.2	-63.4	3.8	8.47e-01	0	43	104	0	74	14357
2026-01-01 01:45:31.04	118.25	83.38	-51.2	-63.4	3.8	8.47e-01	0	43	104	0	74	14356
2026-01-01 01:45:31.90	121.96	83.28	-51.2	-63.5	3.8	8.48e-01	0	43	104	0	74	14394
2026-01-01 01:45:33.05	126.73	83.11	-51.2	-63.5	3.8	8.46e-01	0	43	104	0	74	14418
2026-01-01 01:45:33.91	130.12	82.95	-51.2	-63.5	3.8	8.47e-01	0	44	104	0	74	14392
2026-01-01 01:45:35.06	134.40	82.70	-51.2	-63.3	3.8	8.47e-01	0	43	104	0	74	14202
2026-01-01 01:45:35.92	137.40	82.49	-51.2	-63.4	3.8	8.46e-01	0	43	104	0	74	14279
2026-01-01 01:45:37.07	141.14	82.17	-51.2	-63.5	3.8	8.46e-01	0	43	104	0	74	14378
2026-01-01 01:45:37.93	143.75	81.92	-51.2	-63.4	3.8	8.47e-01	0	43	104	0	74	14312
2026-01-01 01:45:39.08	146.97	81.56	-51.2	-63.4	3.8	8.46e-01	0	43	104	0	74	14314
2026-01-01 01:45:39.94	149.20	81.27	-51.2	-63.4	3.8	8.48e-01	0	43	104	0	74	14308
2026-01-01 01:45:41.08	151.94	80.88	-51.3	-63.5	3.8	8.46e-01	0	43	104	0	74	14430
2026-01-01 01:45:41.95	153.86	80.56	-51.2	-63.4	3.8	8.46e-01	0	44	104	0	74	14338
2026-01-01 01:45:43.09	156.19	80.13	-51.2	-63.4	3.8	8.47e-01	0	43	104	0	74	14356
2026-01-01 01:45:43.95	157.82	79.80	-51.2	-63.4	3.8	8.48e-01	0	43	104	0	74	14352
2026-01-01 01:45:45.10	159.83	79.35	-51.2	-63.5	3.8	8.47e-01	0	44	104	0	74	14406
2026-01-01 01:45:45.96	161.23	79.00	-51.2	-63.4	3.8	8.46e-01	0	43	104	0	74	14358
2026-01-01 01:45:47.11	162.96	78.53	-51.2	-63.5	3.8	8.46e-01	0	44	104	0	74	14407
2026-01-01 01:45:47.97	164.16	78.17	-51.3	-63.5	3.8	8.47e-01	0	44	104	0	74	14400
2026-01-01 01:45:49.12	165.65	77.69	-51.2	-63.5	3.8	8.47e-01	0	43	104	0	74	14420
2026-01-01 01:45:49.98	166.69	77.32	-51.2	-63.5	3.8	8.46e-01	0	44	104	0	74	14382
2026-01-01 01:45:51.13	167.99	76.83	-51.3	-63.4	3.8	8.48e-01	0	44	104	0	74	14362
2026-01-01 01:45:51.99	168.89	76.46	-51.2	-63.5	3.8	8.47e-01	0	44	104	0	74	14387
2026-01-01 01:45:53.14	170.03	75.96	-51.2	-63.4	3.8	8.47e-01	0	44	104	0	74	14345
2026-01-01 01:45:54.00	170.82	75.58	-51.2	-63.4	3.8	8.47e-01	0	43	104	0	74	14313
2026-01-01 01:45:55.15	171.82	75.07	-51.2	-63.4	3.8	8.47e-01	0	43	104	0	74	14284
2026-01-01 01:45:56.00	172.52	74.70	-51.3	-63.5	3.8	8.48e-01	0	43	104	0	74	14433
2026-01-01 01:45:57.15	173.40	74.19	-51.3	-63.5	3.8	8.47e-01	0	43	104	0	74	14437
2026-01-01 01:45:58.02	174.03	73.80	-51.2	-63.5	3.8	8.47e-01	0	43	104	0	74	14402
2026-01-01 01:45:59.16	174.81	73.29	-51.3	-63.5	3.8	8.48e-01	0	44	104	0	74	14419
2026-01-01 01:46:00.02	175.37	72.91	-51.3	-63.5	3.8	8.47e-01	0	44	104	0	74	14433
2026-01-01 01:46:01.17	176.08	72.40	-51.3	-63.5	3.8	8.48e-01	0	44	104	0	74	14422
2026-01-01 01:46:02.03	176.58	72.01	-51.3	-63.5	3.8	8.47e-01	0	43	104	0	74	14412
2026-01-01 01:46:03.18	177.21	71.50	-51.2	-63.5	3.8	8.47e-01	0	43	104	0	74	14409
2026-01-01 01:46:04.04	177.66	71.12	-51.3	-63.5	3.8	8.46e-01	0	44	104	0	74	14451
2026-01-01 01:46:05.18	178.23	70.61	-51.3	-63.5	3.8	8.48e-01	0	44	104	0	74	14466
2026-01-01 01:46:06.05	178.65	70.23	-51.2	-63.4	3.8	8.46e-01	0	44	104	0	74	14361
2026-01-01 01:46:07.19	179.16	69.72	-51.3	-63.4	3.8	8.47e-01	0	44	104	0	74	14323
2026-01-01 01:46:08.05	179.53	69.34	-51.3	-63.5	3.8	8.47e-01	0	44	104	0	74	14423
2026-01-01 01:46:09.20	180.01	68.83	-51.2	-63.4	3.8	8.46e-01	0	43	104	0	74	14357
2026-01-01 01:46:10.06	180.35	68.46	-51.3	-63.5	3.8	8.47e-01	0	44	104	0	74	14388
2026-01-01 01:46:11.21	180.79	67.95	-51.3	-63.5	3.8	8.47e-01	0	43	104	0	74	14391
2026-01-01 01:46:12.07	181.10	67.57	-51.3	-63.5	3.8	8.47e-01	0	43	104	0	74	14390
2026-01-01 01:46:13.22	181.50	67.07	-51.3	-63.5	3.8	8.46e-01	0	44	104	0	74	14413
2026-01-01 01:46:14.08	181.78	66.70	-51.3	-63.5	3.8	8.47e-01	0	44	104	0	74	14434
2026-01-01 01:46:15.23	182.15	66.20	-51.3	-63.4	3.8	8.47e-01	0	44	104	0	74	14353
2026-01-01 01:46:16.09	182.42	65.83	-51.2	-63.5	3.8	8.47e-01	0	44	104	0	74	14387
2026-01-01 01:46:17.23	182.75	65.34	-51.3	-63.4	3.8	8.46e-01	0	44	104	0	74	14363
2026-01-01 01:46:18.10	183.00	64.97	-51.3	-63.5	3.8	8.47e-01	0	44	104	0	74	14410
2026-01-01 01:46:19.24	183.31	64.49	-51.3	-63.5	3.8	8.47e-01	0	44	104	0	74	14493
2026-01-01 01:46:20.10	183.54	64.12	-51.3	-63.5	3.8	8.48e-01	0	44	104	0	74	14393
2026-01-01 01:46:21.25	183.84	63.64	-51.3	-63.5	3.8	8.46e-01	0	43	104	0	74	14406
2026-01-01 01:46:22.11	184.05	63.28	-51.3	-63.5	3.8	8.48e-01	0	44	104	0	74	14405
2026-01-01 01:46:23.26	184.32	62.79	-51.2	-63.4	3.8	8.47e-01	0	44	104	0	74	14347
2026-01-01 01:46:24.12	184.52	62.44	-51.2	-63.5	3.8	8.47e-01	0	43	104	0	74	14394
2026-01-01 01:46:25.27	184.77	61.96	-51.3	-63.5	3.8	8.47e-01	0	44	104	0	74	14414
2026-01-01 01:46:26.13	184.96	61.61	-51.3	-63.5	3.8	8.47e-01	0	43	104	0	74	14429
2026-01-01 01:46:27.28	185.20	61.14	-51.3	-63.5	3.8	8.48e-01	0	44	104	0	74	14404
2026-01-01 01:46:28.14	185.37	60.79	-51.3	-63.5	3.8	8.48e-01	0	43	104	0	74	14409
2026-01-01 01:46:29.27	185.59	60.33	-51.2	-63.5	3.8	8.47e-01	0	44	104	0	74	14400
2026-01-01 01:46:30.13	185.75	59.99	-51.3	-63.5	3.8	8.46e-01	0	44	104	0	74	14390
2026-01-01 01:46:31.28	185.96	59.53	-51.2	-63.4	3.8	8.47e-01	0	44	104	0	74	14326
2026-01-01 01:46:32.14	186.12	59.18	-51.2	-63.4	3.8	8.47e-01	0	44	104	0	74	14345
2026-01-01 01:46:33.29	186.32	58.73	-51.2	-63.5	3.8	8.47e-01	0	43	104	0	74	14374
2026-01-01 01:46:34.15	186.46	58.39	-51.3	-63.5	3.8	8.47e-01	0	44	104	0	74	14451
2026-01-01 01:46:35.29	186.65	57.95	-51.3	-63.5	3.8	8.45e-01	0	44	104	0	74	14431
2026-01-01 01:46:36.15	186.78	57.61	-51.3	-63.5	3.8	8.47e-01	0	44	104	0	74	14444
2026-01-01 01:46:37.30	186.96	57.17	-51.3	-63.5	3.8	8.47e-01	0	44	104	0	74	14395
2026-01-01 01:46:38.16	187.09	56.84	-51.3	-63.5	3.8	8.46e-01	0	43	104	0	74	14426
2026-01-01 01:46:39.31	187.26	56.40	-51.3	-63.5	3.8	8.48e-01	0	44	104	0	74	14418
2026-01-01 01:46:40.17	187.38	56.07	-51.2	-63.5	3.8	8.47e-01	0	44	104	0	74	14375
2026-01-01 01:46:41.32	187.54	55.64	-51.3	-63.6	3.8	8.46e-01	0	44	104	0	74	14558
2026-01-01 01:46:42.18	187.65	55.32	-51.3	-63.5	3.8	8.47e-01	0	44	104	0	74	14534
2026-01-01 01:46:43.33	187.80	54.89	-51.3	-63.6	3.8	8.47e-01	0	44	104	0	74	14548
2026-01-01 01:46:44.19	187.91	54.58	-51.3	-63.5	3.8	8.47e-01	0	44	104	0	74	14519
2026-01-01 01:46:45.34	188.06	54.16	-51.3	-63.5	3.8	8.47e-01	0	44	104	0	74	14532
2026-01-01 01:46:46.20	188.16	53.84	-51.3	-63.5	3.8	8.47e-01	0	44	104	0	74	14471
2026-01-01 01:46:47.35	188.30	53.43	-51.3	-63.6	3.8	8.47e-01	0	44	104	0	74	14578
2026-01-01 01:46:48.21	188.40	53.12	-51.3	-63.5	3.8	8.46e-01	0	44	104	0	74	14496
2026-01-01 01:46:49.36	188.53	52.71	-51.3	-63.6	3.8	8.46e-01	0	44	104	0	74	14553
2026-01-01 01:46:50.28	188.63	52.38	-51.3	-63.6	3.8	8.46e-01	0	43	104	0	74	14560
2026-01-01 01:46:51.29	188.74	52.03	-51.3	-63.6	3.8	8.48e-01	0	43	104	0	74	14589
2026-01-01 01:46:52.29	188.84	51.68	-51.4	-63.6	3.8	8.47e-01	0	44	104	0	74	14557
2026-01-01 01:46:53.29	188.95	51.33	-51.3	-63.6	3.8	8.46e-01	0	44	104	0	74	14551
2026-01-01 01:46:54.30	189.05	50.99	-51.3	-63.5	3.8	8.46e-01	0	43	104	0	74	14534
2026-01-01 01:46:55.30	189.15	50.64	-51.4	-63.6	3.8	8.48e-01	0	43	104	0	74	14602
2026-01-01 01:46:56.30	189.25	50.30	-51.3	-63.5	3.8	8.47e-01	0	43	104	0	74	14518
2026-01-01 01:46:57.31	189.34	49.96	-51.3	-63.6	3.8	8.48e-01	0	44	104	0	74	14547
2026-01-01 01:46:58.31	189.43	49.63	-51.3	-63.5	3.8	8.47e-01	0	43	104	0	74	14532
2026-01-01 01:46:59.32	189.52	49.29	-51.4	-63.6	3.8	8.47e-01	0	44	104	0	74	14580
2026-01-01 01:47:00.32	189.61	48.96	-51.4	-63.6	3.8	8.46e-01	0	43	104	0	74	14583
2026-01-01 01:47:01.32	189.70	48.64	-51.3	-63.6	3.8	8.47e-01	0	43	104	0	74	14559
2026-01-01 01:47:02.33	189.79	48.31	-51.4	-63.6	3.8	8.47e-01	0	44	104	0	74	14587
2026-01-01 01:47:03.33	189.87	47.99	-51.3	-63.6	3.8	8.47e-01	0	44	104	0	74	14599
2026-01-01 01:47:04.45	189.96	47.63	-51.4	-63.6	3.8	8.46e-01	0	43	104	0	74	14553
2026-01-01 01:47:05.34	190.03	47.34	-51.4	-63.6	3.8	8.47e-01	0	43	104	0	74	14544
2026-01-01 01:47:06.66	190.14	46.93	-51.4	-63.6	3.8	8.46e-01	0	43	104	0	74	14653
2026-01-01 01:47:07.38	190.19	46.70	-51.4	-63.6	3.8	8.47e-01	0	44	104	0	74	14625
2026-01-01 01:47:08.88	190.31	46.24	-51.4	-63.6	3.8	8.47e-01	0	44	104	0	74	14618
2026-01-01 01:47:09.59	190.36	46.02	-51.4	-63.6	3.8	8.47e-01	0	43	104	0	74	14619
2026-01-01 01:47:10.88	190.45	45.62	-51.4	-63.6	3.8	8.48e-01	0	44	104	0	74	14604
2026-01-01 01:47:11.60	190.50	45.41	-51.4	-63.6	3.8	8.47e-01	0	44	104	0	74	14599
2026-01-01 01:47:12.89	190.59	45.02	-51.4	-63.6	3.8	8.45e-01	0	43	104	0	74	14599
2026-01-01 01:47:13.61	190.64	44.80	-51.3	-63.6	3.8	8.45e-01	0	44	104	0	74	14561
2026-01-01 01:47:14.90	190.73	44.42	-51.3	-63.6	3.8	8.47e-01	0	44	104	0	74	14566
2026-01-01 01:47:15.62	190.78	44.21	-51.3	-63.5	3.8	8.47e-01	0	44	104	0	74	14527
2026-01-01 01:47:16.91	190.86	43.83	-51.4	-63.6	3.8	8.47e-01	0	44	104	0	74	14586
2026-01-01 01:47:17.63	190.91	43.62	-51.4	-63.6	3.8	8.47e-01	0	43	104	0	74	14562
2026-01-01 01:47:18.92	190.99	43.25	-51.3	-63.5	3.8	8.47e-01	0	44	104	0	74	14535
2026-01-01 01:47:19.64	191.03	43.04	-51.4	-63.6	3.8	8.47e-01	0	44	104	0	74	14574
2026-01-01 01:47:20.93	191.11	42.68	-51.4	-63.6	3.8	8.48e-01	0	44	104	0	74	14553
2026-01-01 01:47:21.64	191.15	42.48	-51.3	-63.5	3.8	8.47e-01	0	44	104	0	74	14474
2026-01-01 01:47:22.94	191.23	42.11	-51.3	-63.6	3.8	8.47e-01	0	44	104	0	74	14562
2026-01-01 01:47:23.65	191.27	41.92	-51.4	-63.6	3.8	8.46e-01	0	44	104	0	74	14563
2026-01-01 01:47:24.94	191.34	41.56	-51.3	-63.5	3.8	8.47e-01	0	44	104	0	74	14473
2026-01-01 01:47:25.66	191.38	41.37	-51.3	-63.5	3.8	8.47e-01	0	44	104	0	74	14512
2026-01-01 01:47:26.95	191.45	41.02	-51.4	-63.5	3.8	8.47e-01	0	43	104	0	74	14498
2026-01-01 01:47:27.67	191.49	40.82	-51.3	-63.5	3.8	8.46e-01	0	44	104	0	74	14495
2026-01-01 01:47:28.96	191.56	40.48	-51.3	-63.5	3.8	8.48e-01	0	44	104	0	74	14508
2026-01-01 01:47:29.68	191.60	40.29	-51.3	-63.5	3.8	8.47e-01	0	43	104	0	74	14503
2026-01-01 01:47:30.97	191.67	39.95	-51.3	-63.5	3.8	8.47e-01	0	44	104	0	74	14474
2026-01-01 01:47:31.69	191.70	39.76	-51.4	-63.5	3.8	8.47e-01	0	44	104	0	74	14515
2026-01-01 01:47:32.98	191.77	39.42	-51.3	-63.5	3.8	8.48e-01	0	44	104	0	74	14495
2026-01-01 01:47:33.70	191.80	39.24	-51.4	-63.6	3.8	8.47e-01	0	44	104	0	74	14672
2026-01-01 01:47:34.99	191.87	38.91	-51.4	-63.6	3.8	8.46e-01	0	44	104	0	74	14675
2026-01-01 01:47:35.71	191.90	38.72	-51.4	-63.6	3.8	8.47e-01	0	44	104	0	74	14636
2026-01-01 01:47:37.00	191.96	38.40	-51.4	-63.6	3.8	8.46e-01	0	44	104	0	74	14567
2026-01-01 01:47:37.72	192.00	38.22	-51.4	-63.5	3.8	8.46e-01	0	44	104	0	74	14503
2026-01-01 01:47:39.01	192.06	37.90	-51.4	-63.6	3.8	8.47e-01	0	44	104	0	74	14570
2026-01-01 01:47:39.73	192.09	37.72	-51.4	-63.6	3.8	8.47e-01	0	44	104	0	74	14609
2026-01-01 01:47:41.02	192.15	37.41	-51.4	-63.6	3.8	8.45e-01	0	44	104	0	74	14553
2026-01-01 01:47:41.73	192.18	37.23	-51.4	-63.6	3.8	8.46e-01	0	44	104	0	74	14542
2026-01-01 01:47:43.02	192.23	36.92	-51.4	-63.6	3.8	8.46e-01	0	44	104	0	74	14552
2026-01-01 01:47:43.74	192.26	36.75	-51.4	-63.5	3.8	8.46e-01	0	44	104	0	74	14531
2026-01-01 01:47:45.03	192.32	36.44	-51.3	-63.5	3.8	8.46e-01	0	44	104	0	74	14511
2026-01-01 01:47:45.75	192.35	36.27	-51.4	-63.6	3.8	8.48e-01	0	44	104	0	74	14559
2026-01-01 01:47:47.04	192.40	35.97	-51.4	-63.6	3.8	8.47e-01	0	43	104	0	74	14548
2026-01-01 01:47:47.76	192.43	35.80	-51.3	-63.5	3.8	8.46e-01	0	44	104	0	74	14499
2026-01-01 01:47:49.05	192.48	35.51	-51.3	-63.5	3.8	8.48e-01	0	44	104	0	74	14492
2026-01-01 01:47:49.77	192.51	35.34	-51.3	-63.5	3.8	8.47e-01	0	44	104	0	74	14487
2026-01-01 01:47:51.06	192.56	35.05	-51.4	-63.6	3.8	8.46e-01	0	44	104	0	74	14564
2026-01-01 01:47:51.78	192.59	34.88	-51.3	-63.6	3.8	8.47e-01	0	44	104	0	74	14551
2026-01-01 01:47:53.07	192.64	34.59	-51.4	-63.6	3.8	8.46e-01	0	44	104	0	74	14548
2026-01-01 01:47:53.79	192.67	34.43	-51.4	-63.5	3.8	8.47e-01	0	44	104	0	74	14515
2026-01-01 01:47:55.08	192.71	34.15	-51.3	-63.6	3.8	8.47e-01	0	44	104	0	74	14541
2026-01-01 01:47:55.80	192.74	33.99	-51.3	-63.5	3.8	8.46e-01	0	44	104	0	74	14498
2026-01-01 01:47:57.09	192.79	33.71	-51.3	-63.6	3.8	8.46e-01	0	44	104	0	74	14542
2026-01-01 01:47:57.80	192.81	33.56	-51.3	-63.6	3.8	8.47e-01	0	43	104	0	74	14565
2026-01-01 01:47:59.10	192.86	33.28	-51.3	-63.5	3.8	8.46e-01	0	44	104	0	74	14479
2026-01-01 01:47:59.81	192.88	33.12	-51.4	-63.5	3.8	8.46e-01	0	44	104	0	74	14520
2026-01-01 01:48:01.10	192.93	32.85	-51.4	-63.5	3.8	8.46e-01	0	44	104	0	74	14527
2026-01-01 01:48:01.82	192.95	32.70	-51.4	-63.6	3.8	8.48e-01	0	43	104	0	74	14547
2026-01-01 01:48:03.11	193.00	32.43	-51.4	-63.5	3.8	8.47e-01	0	44	104	0	74	14538
2026-01-01 01:48:03.83	193.02	32.28	-51.3	-63.5	3.8	8.47e-01	0	44	104	0	74	14520
2026-01-01 01:48:05.12	193.06	32.01	-51.3	-63.5	3.8	8.48e-01	0	44	104	0	74	14519
2026-01-01 01:48:05.84	193.09	31.87	-51.3	-63.5	3.8	8.47e-01	0	44	104	0	74	14521
2026-01-01 01:48:07.13	193.13	31.60	-51.3	-63.5	3.8	8.47e-01	0	44	104	0	74	14516
2026-01-01 01:48:07.85	193.15	31.46	-51.3	-63.6	3.8	8.46e-01	0	44	104	0	74	14617
2026-01-01 01:48:09.14	193.19	31.20	-51.3	-63.5	3.8	8.48e-01	0	44	104	0	74	14483
2026-01-01 01:48:09.85	193.21	31.06	-51.3	-63.6	3.8	8.46e-01	0	44	104	0	74	14544
2026-01-01 01:48:11.15	193.25	30.80	-51.3	-63.5	3.8	8.46e-01	0	43	104	0	74	14510
2026-01-01 01:48:11.86	193.28	30.66	-51.3	-63.5	3.8	8.46e-01	0	44	104	0	74	14536
2026-01-01 01:48:13.15	193.31	30.41	-51.3	-63.5	3.8	8.46e-01	0	44	104	0	74	14536
2026-01-01 01:48:13.87	193.34	30.27	-51.3	-63.5	3.8	8.46e-01	0	44	104	0	74	14538
2026-01-01 01:48:15.16	193.37	30.02	-51.3	-63.5	3.8	8.47e-01	0	44	104	0	74	14507
2026-01-01 01:48:15.88	193.40	29.88	-51.3	-63.5	3.8	8.48e-01	0	44	104	0	74	14496
2026-01-01 01:48:17.17	193.43	29.64	-51.3	-63.5	3.8	8.48e-01	0	43	104	0	74	14477
2026-01-01 01:48:17.89	193.45	29.50	-51.3	-63.6	3.8	8.48e-01	0	44	104	0	74	14551
2026-01-01 01:48:19.18	193.49	29.26	-51.4	-63.6	3.8	8.47e-01	0	44	104	0	74	14587
2026-01-01 01:48:19.90	193.51	29.13	-51.3	-63.5	3.8	8.47e-01	0	44	104	0	74	14534
2026-01-01 01:48:21.19	193.55	28.89	-51.4	-63.6	3.8	8.46e-01	0	44	104	0	74	14599
2026-01-01 01:48:21.90	193.57	28.76	-51.4	-63.5	3.8	8.46e-01	0	44	104	0	74	14525
2026-01-01 01:48:23.20	193.60	28.52	-51.3	-63.6	3.8	8.48e-01	0	43	104	0	74	14578
2026-01-01 01:48:23.91	193.62	28.39	-51.3	-63.6	3.8	8.48e-01	0	44	104	0	74	14552
2026-01-01 01:48:25.20	193.65	28.16	-51.4	-63.6	3.8	8.47e-01	0	44	104	0	74	14548
2026-01-01 01:48:25.92	193.67	28.03	-51.3	-63.6	3.8	8.47e-01	0	44	104	0	74	14591
2026-01-01 01:48:27.21	193.71	27.80	-51.4	-63.6	3.8	8.47e-01	0	43	104	0	74	14574
2026-01-01 01:48:27.93	193.73	27.67	-51.4	-63.5	3.8	8.47e-01	0	44	104	0	74	14532
2026-01-01 01:48:29.22	193.76	27.45	-51.3	-63.5	3.8	8.48e-01	0	44	104	0	74	14525
2026-01-01 01:48:29.94	193.78	27.32	-51.3	-63.5	3.8	8.46e-01	0	44	104	0	74	14497
2026-01-01 01:48:31.23	193.81	27.10	-51.3	-63.5	3.8	8.47e-01	0	44	104	0	74	14491
2026-01-01 01:48:31.95	193.83	26.97	-51.4	-63.6	3.8	8.47e-01	0	44	104	0	74	14616
2026-01-01 01:48:33.24	193.86	26.75	-51.4	-63.5	3.8	8.47e-01	0	44	104	0	74	14518
2026-01-01 01:48:33.96	193.88	26.63	-51.4	-63.5	3.8	8.47e-01	0	43	104	0	74	14513
2026-01-01 01:48:35.25	193.91	26.41	-51.3	-63.6	3.8	8.47e-01	0	44	104	0	74	14567
2026-01-01 01:48:35.96	193.93	26.29	-51.3	-63.5	3.8	8.47e-01	0	44	104	0	74	14495
2026-01-01 01:48:37.26	193.96	26.07	-51.3	-63.5	3.8	8.48e-01	0	44	104	0	74	14511
2026-01-01 01:48:37.97	193.97	25.96	-51.3	-63.5	3.8	8.48e-01	0	44	104	0	74	14429
2026-01-01 01:48:39.26	194.00	25.74	-51.3	-63.5	3.8	8.46e-01	0	44	104	0	74	14497
2026-01-01 01:48:39.98	194.02	25.62	-51.3	-63.5	3.8	8.48e-01	0	44	104	0	74	14493
2026-01-01 01:48:41.27	194.05	25.41	-51.3	-63.5	3.8	8.47e-01	0	44	104	0	74	14465
2026-01-01 01:48:41.99	194.07	25.30	-51.3	-63.5	3.8	8.48e-01	0	44	104	0	74	14432
2026-01-01 01:48:43.28	194.09	25.09	-51.3	-63.5	3.8	8.47e-01	0	44	104	0	74	14510
2026-01-01 01:48:44.00	194.11	24.98	-51.3	-63.5	3.8	8.48e-01	0	44	104	0	74	14502
2026-01-01 01:48:45.29	194.14	24.77	-51.3	-63.5	3.8	8.47e-01	0	44	104	0	74	14449
2026-01-01 01:48:46.01	194.15	24.66	-51.3	-63.5	3.8	8.46e-01	0	43	104	0	74	14525
2026-01-01 01:48:47.30	194.18	24.45	-51.3	-63.5	3.8	8.47e-01	0	44	104	0	74	14427
2026-01-01 01:48:48.02	194.20	24.34	-51.3	-63.5	3.8	8.48e-01	0	44	104	0	74	14451
2026-01-01 01:48:49.31	194.23	24.14	-51.3	-63.5	3.8	8.47e-01	0	44	104	0	74	14461
2026-01-01 01:48:50.03	194.24	24.03	-51.3	-63.5	3.8	8.46e-01	0	44	104	0	74	14492
2026-01-01 01:48:51.32	194.27	23.83	-51.3	-63.5	3.8	8.47e-01	0	44	104	0	74	14519
2026-01-01 01:48:52.04	194.28	23.72	-51.3	-63.5	3.8	8.47e-01	0	44	104	0	74	14527
2026-01-01 01:48:53.33	194.31	23.53	-51.3	-63.5	3.8	8.47e-01	0	44	104	0	74	14529
2026-01-01 01:48:54.04	194.32	23.42	-51.3	-63.5	3.8	8.48e-01	0	43	104	0	74	14496
2026-01-01 01:48:55.34	194.35	23.22	-51.3	-63.5	3.8	8.47e-01	0	44	104	0	74	14478
2026-01-01 01:48:56.29	194.37	23.08	-51.3	-63.5	3.8	8.48e-01	0	44	104	0	74	14469
2026-01-01 01:48:57.30	194.39	22.93	-51.3	-63.5	3.8	8.46e-01	0	44	104	0	74	14444
2026-01-01 01:48:58.30	194.41	22.79	-51.3	-63.5	3.8	8.47e-01	0	43	104	0	74	14490
2026-01-01 01:48:59.31	194.43	22.64	-51.3	-63.5	3.8	8.46e-01	0	44	104	0	74	14445
2026-01-01 01:49:00.31	194.45	22.49	-51.3	-63.5	3.8	8.47e-01	0	44	104	0	74	14470
2026-01-01 01:49:01.31	194.47	22.35	-51.3	-63.5	3.8	8.46e-01	0	44	104	0	74	14403
2026-01-01 01:49:02.32	194.49	22.20	-51.3	-63.6	3.8	8.46e-01	0	44	104	0	74	14550
2026-01-01 01:49:03.32	194.51	22.06	-51.3	-63.5	3.8	8.46e-01	0	44	104	0	74	14508
2026-01-01 01:49:04.33	194.53	21.92	-51.3	-63.5	3.8	8.46e-01	0	44	104	0	74	14449
2026-01-01 01:49:05.33	194.55	21.77	-51.3	-63.5	3.8	8.47e-01	0	44	104	0	74	14446
2026-01-01 01:49:06.33	194.56	21.63	-51.3	-63.5	3.8	8.46e-01	0	44	104	0	74	14489
2026-01-01 01:49:07.33	194.58	21.49	-51.3	-63.5	3.8	8.48e-01	0	44	104	0	74	14413
2026-01-01 01:49:08.51	194.60	21.33	-51.3	-63.5	3.8	8.46e-01	0	44	104	0	74	14472
2026-01-01 01:49:09.40	194.62	21.21	-51.3	-63.5	3.8	8.48e-01	0	44	104	0	74	14475
2026-01-01 01:49:10.71	194.64	21.03	-51.3	-63.5	3.8	8.46e-01	0	44	104	0	74	14411
2026-01-01 01:49:11.43	194.66	20.93	-51.3	-63.5	3.8	8.47e-01	0	44	104	0	74	14452
2026-01-01 01:49:12.72	194.68	20.75	-51.3	-63.5	3.8	8.46e-01	0	44	104	0	74	14475
2026-01-01 01:49:13.44	194.69	20.65	-51.3	-63.5	3.8	8.47e-01	0	44	104	0	74	14499
2026-01-01 01:49:14.72	194.71	20.48	-51.3	-63.5	3.8	8.47e-01	0	44	104	0	74	14526
2026-01-01 01:49:15.44	194.73	20.39	-51.3	-63.5	3.8	8.46e-01	0	44	104	0	74	14485
2026-01-01 01:49:16.73	194.75	20.21	-51.3	-63.5	3.8	8.47e-01	0	44	104	0	74	14493
2026-01-01 01:49:17.45	194.76	20.12	-51.3	-63.5	3.8	8.47e-01	0	44	104	0	74	14483
2026-01-01 01:49:18.74	194.78	19.95	-51.3	-63.5	3.8	8.45e-01	0	44	104	0	74	14508
2026-01-01 01:49:19.46	194.80	19.86	-51.3	-63.5	3.8	8.47e-01	0	44	104	0	74	14490
2026-01-01 01:49:20.78	194.82	19.68	-51.3	-63.5	3.8	8.46e-01	0	44	104	0	74	14459
2026-01-01 01:49:21.50	194.83	19.59	-51.3	-63.5	3.8	8.47e-01	0	44	104	0	74	14488
2026-01-01 01:49:22.85	194.85	19.42	-51.3	-63.5	3.8	8.48e-01	0	44	104	0	74	14446
2026-01-01 01:49:23.57	194.86	19.32	-51.3	-63.5	3.8	8.47e-01	0	44	104	0	74	14454
2026-01-01 01:49:24.86	194.89	19.16	-51.3	-63.5	3.8	8.47e-01	0	44	104	0	74	14516
2026-01-01 01:49:25.58	194.90	19.07	-51.3	-63.5	3.8	8.47e-01	0	44	104	0	74	14498
2026-01-01 01:49:26.87	194.92	18.90	-51.3	-63.5	3.8	8.46e-01	0	44	104	0	74	14476
2026-01-01 01:49:27.59	194.93	18.81	-51.3	-63.5	3.8	8.47e-01	0	44	104	0	74	14502
2026-01-01 01:49:28.88	194.95	18.65	-51.3	-63.5	3.8	8.47e-01	0	44	104	0	74	14467
2026-01-01 01:49:29.60	194.96	18.56	-51.3	-63.5	3.8	8.46e-01	0	44	104	0	74	14443
2026-01-01 01:49:30.88	194.98	18.41	-51.3	-63.5	3.8	8.46e-01	0	44	104	0	74	14421
2026-01-01 01:49:31.60	194.99	18.32	-51.3	-63.5	3.8	8.47e-01	0	44	104	0	74	14455
2026-01-01 01:49:32.89	195.01	18.16	-51.3	-63.5	3.8	8.46e-01	0	44	104	0	74	14475
2026-01-01 01:49:33.61	195.02	18.07	-51.3	-63.5	3.8	8.48e-01	0	44	104	0	74	14452
2026-01-01 01:49:34.90	195.04	17.91	-51.3	-63.5	3.8	8.47e-01	0	44	104	0	74	14449
2026-01-01 01:49:35.62	195.05	17.83	-51.3	-63.5	3.8	8.47e-01	0	44	104	0	74	14518
2026-01-01 01:49:36.91	195.07	17.67	-51.3	-63.6	3.8	8.46e-01	0	43	104	0	74	14569
2026-01-01 01:49:37.62	195.08	17.59	-51.4	-63.5	3.8	8.46e-01	0	44	104	0	74	14526
2026-01-01 01:49:38.91	195.10	17.43	-51.3	-63.6	3.8	8.48e-01	0	44	104	0	74	14568
2026-01-01 01:49:39.63	195.11	17.35	-51.3	-63.6	3.8	8.46e-01	0	44	104	0	74	14561
2026-01-01 01:49:40.92	195.13	17.20	-51.3	-63.6	3.8	8.48e-01	0	44	104	0	74	14559
2026-01-01 01:49:41.64	195.14	17.11	-51.3	-63.6	3.8	8.48e-01	0	44	104	0	74	14544
2026-01-01 01:49:42.93	195.16	16.96	-51.3	-63.5	3.8	8.47e-01	0	44	104	0	74	14486
2026-01-01 01:49:43.65	195.17	16.88	-51.3	-63.5	3.8	8.47e-01	0	44	104	0	74	14515
2026-01-01 01:49:44.94	195.19	16.73	-51.3	-63.5	3.8	8.47e-01	0	44	104	0	74	14521
2026-01-01 01:49:45.66	195.20	16.65	-51.3	-63.5	3.8	8.47e-01	0	44	104	0	74	14495
2026-01-01 01:49:46.95	195.22	16.50	-51.3	-63.5	3.8	8.47e-01	0	44	104	0	74	14493
2026-01-01 01:49:47.67	195.23	16.42	-51.4	-63.5	3.8	8.47e-01	0	44	104	0	74	14512
2026-01-01 01:49:48.96	195.25	16.27	-51.3	-63.5	3.8	8.47e-01	0	44	104	0	74	14516
2026-01-01 01:49:49.68	195.26	16.19	-51.3	-63.5	3.8	8.47e-01	0	44	104	0	74	14499
2026-01-01 01:49:50.97	195.28	16.05	-51.3	-63.6	3.8	8.46e-01	0	44	104	0	74	14594
2026-01-01 01:49:51.68	195.29	15.97	-51.4	-63.6	3.8	8.47e-01	0	44	104	0	74	14559
2026-01-01 01:49:52.98	195.30	15.82	-51.3	-63.6	3.8	8.46e-01	0	44	104	0	74	14575
2026-01-01 01:49:53.69	195.31	15.74	-51.3	-63.5	3.8	8.48e-01	0	44	104	0	74	14467
2026-01-01 01:49:54.98	195.33	15.60	-51.3	-63.5	3.8	8.47e-01	0	44	104	0	74	14491
2026-01-01 01:49:55.70	195.34	15.52	-51.3	-63.5	3.8	8.47e-01	0	44	104	0	74	14513
2026-01-01 01:49:56.99	195.36	15.38	-51.3	-63.5	3.8	8.47e-01	0	44	104	0	74	14452
2026-01-01 01:49:57.71	195.37	15.30	-51.3	-63.5	3.8	8.47e-01	0	44	104	0	74	14537
2026-01-01 01:49:59.00	195.38	15.16	-51.3	-63.5	3.8	8.48e-01	0	44	104	0	74	14456
2026-01-01 01:49:59.72	195.39	15.08	-51.3	-63.5	3.8	8.46e-01	0	44	104	0	74	14461
2026-01-01 01:50:01.01	195.41	14.95	-51.3	-63.5	3.8	8.46e-01	0	44	104	0	74	14502
2026-01-01 01:50:01.73	195.42	14.87	-51.3	-63.5	3.8	8.47e-01	0	44	104	0	74	14491
2026-01-01 01:50:03.02	195.44	14.73	-51.3	-63.5	3.8	8.47e-01	0	44	104	0	74	14437
2026-01-01 01:50:03.74	195.45	14.66	-51.3	-63.5	3.8	8.49e-01	0	44	104	0	74	14479
2026-01-01 01:50:05.03	195.46	14.52	-51.3	-63.5	3.8	8.47e-01	0	44	104	0	74	14424
2026-01-01 01:50:05.75	195.47	14.44	-51.3	-63.5	3.8	8.47e-01	0	44	104	0	74	14423
2026-01-01 01:50:07.03	195.49	14.31	-51.3	-63.5	3.8	8.46e-01	0	44	104	0	74	14522
2026-01-01 01:50:07.75	195.50	14.24	-51.3	-63.5	3.8	8.47e-01	0	44	104	0	74	14505
2026-01-01 01:50:09.04	195.51	14.10	-51.3	-63.5	3.8	8.46e-01	0	44	104	0	74	14451
2026-01-01 01:50:09.76	195.52	14.03	-51.3	-63.5	3.8	8.48e-01	0	44	104	0	74	14389
2026-01-01 01:50:11.05	195.54	13.89	-51.3	-63.5	3.8	8.46e-01	0	44	104	0	74	14512
2026-01-01 01:50:11.77	195.55	13.82	-51.3	-63.5	3.8	8.47e-01	0	44	104	0	74	14422
2026-01-01 01:50:13.06	195.56	13.69	-51.3	-63.5	3.8	8.46e-01	0	44	104	0	74	14408
2026-01-01 01:50:13.78	195.57	13.62	-51.3	-63.5	3.8	8.47e-01	0	44	104	0	74	14423
2026-01-01 01:50:15.07	195.59	13.49	-51.3	-63.5	3.8	8.47e-01	0	44	104	0	74	14479
2026-01-01 01:50:15.79	195.59	13.41	-51.3	-63.5	3.8	8.47e-01	0	44	104	0	74	14437
2026-01-01 01:50:17.08	195.61	13.28	-51.3	-63.5	3.8	8.47e-01	0	44	104	0	74	14492
2026-01-01 01:50:17.80	195.62	13.21	-51.3	-63.5	3.8	8.47e-01	0	44	104	0	74	14469
2026-01-01 01:50:19.08	195.63	13.09	-51.3	-63.5	3.8	8.46e-01	0	44	104	0	74	14409
2026-01-01 01:50:19.80	195.64	13.01	-51.3	-63.5	3.8	8.47e-01	0	44	104	0	74	14410
2026-01-01 01:50:21.09	195.66	12.89	-51.3	-63.5	3.8	8.46e-01	0	44	104	0	74	14474
2026-01-01 01:50:21.81	195.67	12.82	-51.3	-63.5	3.8	8.47e-01	0	44	104	0	74	14451
2026-01-01 01:50:23.10	195.68	12.69	-51.3	-63.5	3.8	8.47e-01	0	44	104	0	74	14410
2026-01-01 01:50:23.82	195.69	12.62	-51.3	-63.5	3.8	8.47e-01	0	44	104	0	74	14402
2026-01-01 01:50:25.11	195.70	12.49	-51.3	-63.5	3.8	8.47e-01	0	44	104	0	74	14431
2026-01-01 01:50:25.83	195.71	12.43	-51.3	-63.5	3.8	8.47e-01	0	44	104	0	74	14419
2026-01-01 01:50:27.12	195.73	12.30	-51.3	-63.4	3.8	8.45e-01	0	44	104	0	74	14365
2026-01-01 01:50:27.83	195.73	12.23	-51.3	-63.5	3.8	8.47e-01	0	44	104	0	74	14385
2026-01-01 01:50:29.13	195.75	12.11	-51.3	-63.5	3.8	8.46e-01	0	44	104	0	74	14390
2026-01-01 01:50:29.84	195.76	12.04	-51.3	-63.5	3.8	8.47e-01	0	44	104	0	74	14448
2026-01-01 01:50:31.13	195.77	11.92	-51.3	-63.5	3.8	8.46e-01	0	44	104	0	74	14434
2026-01-01 01:50:31.85	195.78	11.85	-51.3	-63.5	3.8	8.47e-01	0	44	104	0	74	14425
2026-01-01 01:50:33.14	195.79	11.73	-51.3	-63.5	3.8	8.47e-01	0	44	104	0	74	14407
2026-01-01 01:50:33.86	195.80	11.66	-51.3	-63.5	3.8	8.45e-01	0	44	104	0	74	14425
2026-01-01 01:50:35.15	195.82	11.54	-51.3	-63.5	3.8	8.47e-01	0	44	104	0	74	14439
2026-01-01 01:50:35.87	195.82	11.48	-51.3	-63.4	3.8	8.47e-01	0	44	104	0	74	14369
2026-01-01 01:50:37.16	195.84	11.36	-51.3	-63.5	3.8	8.47e-01	0	44	104	0	74	14454
2026-01-01 01:50:37.87	195.85	11.29	-51.3	-63.5	3.8	8.46e-01	0	44	104	0	74	14488
2026-01-01 01:50:39.16	195.86	11.17	-51.2	-63.5	3.8	8.47e-01	0	44	104	0	74	14403
2026-01-01 01:50:39.88	195.87	11.11	-51.2	-63.5	3.8	8.47e-01	0	44	104	0	74	14398
2026-01-01 01:50:41.17	195.88	10.99	-51.2	-63.4	3.8	8.47e-01	0	44	104	0	74	14353
2026-01-01 01:50:41.89	195.89	10.92	-51.2	-63.5	3.8	8.47e-01	0	44	104	0	74	14385
2026-01-01 01:50:43.18	195.90	10.81	-51.3	-63.5	3.8	8.48e-01	0	44	104	0	74	14390
2026-01-01 01:50:43.90	195.91	10.74	-51.3	-63.5	3.8	8.47e-01	0	44	104	0	74	14408
2026-01-01 01:50:45.19	195.92	10.63	-51.3	-63.5	3.8	8.47e-01	0	43	104	0	74	14385
2026-01-01 01:50:45.90	195.93	10.56	-51.3	-63.5	3.8	8.46e-01	0	44	104	0	74	14382
2026-01-01 01:50:47.20	195.94	10.45	-51.2	-63.4	3.8	8.47e-01	0	44	104	0	74	14372
2026-01-01 01:50:47.92	195.95	10.38	-51.2	-63.5	3.8	8.48e-01	0	44	104	0	74	14396
2026-01-01 01:50:49.21	195.96	10.27	-51.3	-63.5	3.8	8.46e-01	0	44	104	0	74	14409
2026-01-01 01:50:49.92	195.97	10.21	-51.2	-63.4	3.8	8.47e-01	0	44	104	0	74	14298
2026-01-01 01:50:51.21	195.98	10.09	-51.3	-63.5	3.8	8.48e-01	0	44	104	0	74	14457
2026-01-01 01:50:51.93	195.99	10.03	-51.3	-63.5	3.8	8.46e-01	0	44	104	0	74	14413
2026-01-01 01:50:53.22	196.01	9.92	-51.2	-63.4	3.8	8.47e-01	0	44	104	0	74	14371
2026-01-01 01:50:53.94	196.01	9.85	-51.2	-63.4	3.8	8.46e-01	0	44	104	0	74	14368
2026-01-01 01:50:55.23	196.03	9.74	-51.2	-63.5	3.8	8.48e-01	0	44	104	0	74	14384
2026-01-01 01:50:55.95	196.03	9.68	-51.2	-63.4	3.8	8.48e-01	0	44	104	0	74	14370
2026-01-01 01:50:57.24	196.05	9.57	-51.2	-63.4	3.8	8.47e-01	0	44	104	0	74	14366
2026-01-01 01:50:57.96	196.05	9.51	-51.3	-63.5	3.8	8.47e-01	0	44	104	0	74	14409
2026-01-01 01:50:59.25	196.06	9.40	-51.2	-63.4	3.8	8.47e-01	0	44	104	0	74	14373
2026-01-01 01:50:59.97	196.07	9.34	-51.2	-63.4	3.8	8.47e-01	0	44	104	0	74	14308
2026-01-01 01:51:01.26	196.08	9.23	-51.2	-63.4	3.8	8.47e-01	0	44	104	0	74	14364
2026-01-01 01:51:01.98	196.09	9.16	-51.3	-63.5	3.8	8.47e-01	0	44	104	0	74	14430
2026-01-01 01:51:03.27	196.10	9.06	-51.3	-63.4	3.8	8.47e-01	0	44	104	0	74	14359
2026-01-01 01:51:03.98	196.11	9.00	-51.2	-63.5	3.8	8.46e-01	0	44	104	0	74	14377
2026-01-01 01:51:05.27	196.12	8.89	-51.3	-63.5	3.8	8.46e-01	0	44	104	0	74	14425
2026-01-01 01:51:05.99	196.13	8.83	-51.3	-63.5	3.8	8.47e-01	0	44	104	0	74	14439
2026-01-01 01:51:07.28	196.14	8.72	-51.2	-63.5	3.8	8.46e-01	0	44	104	0	74	14421
2026-01-01 01:51:08.00	196.15	8.66	-51.2	-63.4	3.8	8.47e-01	0	44	104	0	74	14354
2026-01-01 01:51:09.29	196.16	8.55	-51.3	-63.5	3.8	8.46e-01	0	44	104	0	74	14444
2026-01-01 01:51:10.01	196.17	8.50	-51.2	-63.5	3.8	8.49e-01	0	44	104	0	74	14384
2026-01-01 01:51:11.30	196.18	8.39	-51.2	-63.4	3.8	8.47e-01	0	44	104	0	74	14351
2026-01-01 01:51:12.02	196.19	8.33	-51.2	-63.5	3.8	8.48e-01	0	44	104	0	74	14399
2026-01-01 01:51:13.31	196.20	8.23	-51.2	-63.4	3.8	8.46e-01	0	44	104	0	74	14337
2026-01-01 01:51:14.02	196.21	8.17	-51.2	-63.4	3.8	8.46e-01	0	44	104	0	74	14351
2026-01-01 01:51:15.31	196.22	8.06	-51.2	-63.5	3.8	8.47e-01	0	44	104	0	74	14380
2026-01-01 01:51:16.03	196.22	8.01	-51.3	-63.5	3.8	8.47e-01	0	44	104	0	74	14421
2026-01-01 01:51:17.32	196.24	7.90	-51.2	-63.5	3.8	8.47e-01	0	44	104	0	74	14407
2026-01-01 01:51:18.04	196.24	7.84	-51.2	-63.4	3.8	8.47e-01	0	44	104	0	74	14371
2026-01-01 01:51:19.33	196.25	7.74	-51.2	-63.5	3.8	8.45e-01	0	44	104	0	74	14424
2026-01-01 01:51:20.05	196.26	7.68	-51.2	-63.5	3.8	8.47e-01	0	44	104	0	74	14393
2026-01-01 01:51:21.34	196.27	7.58	-51.3	-63.5	3.8	8.47e-01	0	44	104	0	74	14501
2026-01-01 01:51:22.10	196.28	7.52	-51.3	-63.5	3.8	8.46e-01	0	44	104	0	74	14442
2026-01-01 01:51:23.40	196.29	7.42	-51.2	-63.4	3.8	8.46e-01	0	44	104	0	74	14348
2026-01-01 01:51:24.15	196.30	7.36	-51.2	-63.4	3.8	8.47e-01	0	44	104	0	74	14331
