passes_logs/2026/01/01/T1/T1__20260101_032628_FENGYUN_3E_rec.log

#Pass ID: 20260101_032628_FENGYUN 3E
#Satellite: FENGYUN 3E
#Configuration: FENGYUN 3E
#almurnet v.1.7.20251203
#Start time: 2026-01-01 03:26:28

#Version: 2.0.20230620
#Station: T1
#Location: 37.570604 lon 55.790049 lat
#TLE: 1 49008U 21062A   25365.55977344  .00000403  00000+0  21051-3 0  9995
#TLE: 2 49008  98.7483   5.8586 0001311 170.0615 190.0588 14.19883886232790

#Time	Az	El	Level	Level2	SNR	BER	BlckErr	Temp	State	Recorded	gain1	gain2
2026-01-01 03:26:28.67	20.08	4.99	-51.7	-62.6	3.8	8.46e-01	0	39	0	0	72	13694
2026-01-01 03:26:29.67	20.11	5.06	-51.7	-62.6	3.8	8.48e-01	0	39	104	0	74	12192
2026-01-01 03:26:30.67	20.14	5.13	-51.7	-62.7	3.8	8.46e-01	0	39	104	0	74	12264
2026-01-01 03:26:31.68	20.17	5.20	-51.7	-62.6	3.8	8.48e-01	0	39	104	0	74	12207
2026-01-01 03:26:32.68	20.21	5.27	-51.7	-62.7	3.8	8.47e-01	0	39	104	0	74	12237
2026-01-01 03:26:33.69	20.24	5.34	-51.7	-62.6	3.8	8.47e-01	0	39	104	0	74	12150
2026-01-01 03:26:34.69	20.27	5.41	-51.7	-62.7	3.8	8.47e-01	0	39	104	0	74	12308
2026-01-01 03:26:35.69	20.31	5.49	-51.7	-62.7	3.8	8.47e-01	0	39	104	0	74	12261
2026-01-01 03:26:36.70	20.34	5.56	-51.7	-62.6	3.8	8.48e-01	0	39	104	0	74	12210
2026-01-01 03:26:37.70	20.37	5.63	-51.8	-62.6	3.8	8.47e-01	0	39	104	0	74	12213
2026-01-01 03:26:38.71	20.41	5.70	-51.8	-62.7	3.8	8.47e-01	0	39	104	0	74	12313
2026-01-01 03:26:39.71	20.44	5.77	-51.8	-62.7	3.8	8.46e-01	0	39	104	0	74	12275
2026-01-01 03:26:40.72	20.48	5.84	-51.7	-62.7	3.8	8.47e-01	0	39	104	0	74	12253
2026-01-01 03:26:41.72	20.51	5.91	-51.7	-62.7	3.8	8.47e-01	0	39	104	0	74	12272
2026-01-01 03:26:42.73	20.55	5.99	-51.8	-62.6	3.8	8.47e-01	0	39	104	0	74	12178
2026-01-01 03:26:43.73	20.58	6.06	-51.7	-62.7	3.8	8.46e-01	0	39	104	0	74	12237
2026-01-01 03:26:44.73	20.62	6.13	-51.8	-62.7	3.8	8.46e-01	0	40	104	0	74	12294
2026-01-01 03:26:45.74	20.65	6.20	-51.7	-62.7	3.8	8.48e-01	0	40	104	0	74	12294
2026-01-01 03:26:46.74	20.69	6.28	-51.7	-62.7	3.8	8.46e-01	0	40	104	0	74	12343
2026-01-01 03:26:47.74	20.72	6.35	-51.7	-62.7	3.8	8.46e-01	0	39	104	0	74	12305
2026-01-01 03:26:48.75	20.76	6.42	-51.7	-62.6	3.8	8.47e-01	0	40	104	0	74	12185
2026-01-01 03:26:49.75	20.79	6.50	-51.8	-62.8	3.8	8.48e-01	0	39	104	0	74	12392
2026-01-01 03:26:50.75	20.83	6.57	-51.8	-62.7	3.8	8.46e-01	0	40	104	0	74	12287
2026-01-01 03:26:51.76	20.87	6.64	-51.8	-62.7	3.8	8.46e-01	0	40	104	0	74	12278
2026-01-01 03:26:52.76	20.90	6.72	-51.7	-62.7	3.8	8.46e-01	0	40	104	0	74	12253
2026-01-01 03:26:53.77	20.94	6.79	-51.8	-62.7	3.8	8.46e-01	0	40	104	0	74	12354
2026-01-01 03:26:54.77	20.97	6.87	-51.8	-62.7	3.8	8.48e-01	0	40	104	0	74	12369
2026-01-01 03:26:55.78	21.01	6.94	-51.7	-62.7	3.8	8.47e-01	0	40	104	0	74	12266
2026-01-01 03:26:56.78	21.05	7.02	-51.7	-62.7	3.8	8.47e-01	0	40	104	0	74	12248
2026-01-01 03:26:57.78	21.08	7.09	-51.7	-62.7	3.8	8.47e-01	0	40	104	0	74	12259
2026-01-01 03:26:58.79	21.12	7.17	-51.8	-62.7	3.8	8.47e-01	0	40	104	0	74	12276
2026-01-01 03:26:59.79	21.16	7.24	-51.7	-62.7	3.8	8.47e-01	0	40	104	0	74	12292
2026-01-01 03:27:00.79	21.20	7.32	-51.7	-62.6	3.8	8.47e-01	0	40	104	0	74	12201
2026-01-01 03:27:01.80	21.23	7.40	-51.7	-62.7	3.8	8.47e-01	0	40	104	0	74	12259
2026-01-01 03:27:02.80	21.27	7.47	-51.7	-62.6	3.8	8.47e-01	0	40	104	0	74	12180
2026-01-01 03:27:03.81	21.31	7.55	-51.8	-62.7	3.8	8.47e-01	0	40	104	0	74	12282
2026-01-01 03:27:04.81	21.35	7.63	-51.8	-62.7	3.8	8.48e-01	0	40	104	0	74	12270
2026-01-01 03:27:05.82	21.39	7.70	-51.7	-62.7	3.8	8.48e-01	0	40	104	0	74	12252
2026-01-01 03:27:06.82	21.43	7.78	-51.8	-62.7	3.8	8.47e-01	0	40	104	0	74	12285
2026-01-01 03:27:07.83	21.46	7.86	-51.7	-62.6	3.8	8.47e-01	0	40	104	0	74	12197
2026-01-01 03:27:08.83	21.50	7.93	-51.7	-62.6	3.8	8.47e-01	0	40	104	0	74	12226
2026-01-01 03:27:09.83	21.54	8.01	-51.7	-62.6	3.8	8.47e-01	0	40	104	0	74	12227
2026-01-01 03:27:10.84	21.58	8.09	-51.7	-62.6	3.8	8.47e-01	0	40	104	0	74	12206
2026-01-01 03:27:11.84	21.62	8.17	-51.7	-62.6	3.8	8.48e-01	0	40	104	0	74	12227
2026-01-01 03:27:12.85	21.66	8.25	-51.7	-62.6	3.8	8.47e-01	0	40	104	0	74	12186
2026-01-01 03:27:13.85	21.70	8.33	-51.7	-62.6	3.8	8.46e-01	0	40	104	0	74	12186
2026-01-01 03:27:14.85	21.74	8.41	-51.7	-62.7	3.8	8.47e-01	0	40	104	0	74	12244
2026-01-01 03:27:15.86	21.78	8.49	-51.7	-62.6	3.8	8.47e-01	0	40	104	0	74	12134
2026-01-01 03:27:16.86	21.82	8.56	-51.7	-62.6	3.8	8.48e-01	0	40	104	0	74	12130
2026-01-01 03:27:17.87	21.86	8.64	-51.7	-62.6	3.8	8.47e-01	0	40	104	0	74	12222
2026-01-01 03:27:18.87	21.90	8.72	-51.7	-62.6	3.8	8.46e-01	0	40	104	0	74	12191
2026-01-01 03:27:19.88	21.94	8.81	-51.7	-62.6	3.8	8.46e-01	0	40	104	0	74	12197
2026-01-01 03:27:20.88	21.99	8.89	-51.7	-62.7	3.8	8.47e-01	0	40	104	0	74	12305
2026-01-01 03:27:21.88	22.03	8.97	-51.7	-62.7	3.8	8.47e-01	0	40	104	0	74	12252
2026-01-01 03:27:22.89	22.07	9.05	-51.7	-62.6	3.8	8.46e-01	0	40	104	0	74	12185
2026-01-01 03:27:23.89	22.11	9.13	-51.7	-62.6	3.8	8.46e-01	0	40	104	0	74	12177
2026-01-01 03:27:24.90	22.15	9.21	-51.7	-62.7	3.8	8.46e-01	0	40	104	0	74	12353
2026-01-01 03:27:25.90	22.20	9.29	-51.7	-62.7	3.8	8.46e-01	0	40	104	0	74	12284
2026-01-01 03:27:26.90	22.24	9.37	-51.7	-62.7	3.8	8.47e-01	0	40	104	0	74	12250
2026-01-01 03:27:27.91	22.28	9.46	-51.7	-62.7	3.8	8.46e-01	0	40	104	0	74	12244
2026-01-01 03:27:28.91	22.32	9.54	-51.7	-62.6	3.8	8.46e-01	0	40	104	0	74	12191
2026-01-01 03:27:29.92	22.37	9.62	-51.7	-62.6	3.8	8.48e-01	0	40	104	0	74	12223
2026-01-01 03:27:30.92	22.41	9.70	-51.7	-62.6	3.8	8.48e-01	0	40	104	0	74	12183
2026-01-01 03:27:31.93	22.45	9.79	-51.7	-62.6	3.8	8.47e-01	0	40	104	0	74	12190
2026-01-01 03:27:32.93	22.50	9.87	-51.7	-62.5	3.8	8.46e-01	0	40	104	0	74	12090
2026-01-01 03:27:33.93	22.54	9.96	-51.7	-62.6	3.8	8.48e-01	0	40	104	0	74	12161
2026-01-01 03:27:34.94	22.59	10.04	-51.7	-62.6	3.8	8.48e-01	0	40	104	0	74	12203
2026-01-01 03:27:35.94	22.63	10.12	-51.7	-62.6	3.8	8.47e-01	0	40	104	0	74	12183
2026-01-01 03:27:36.95	22.68	10.21	-51.7	-62.6	3.8	8.46e-01	0	40	104	0	74	12155
2026-01-01 03:27:37.95	22.72	10.29	-51.7	-62.7	3.8	8.46e-01	0	40	104	0	74	12246
2026-01-01 03:27:38.95	22.76	10.38	-51.7	-62.6	3.8	8.48e-01	0	40	104	0	74	12150
2026-01-01 03:27:39.96	22.81	10.46	-51.7	-62.6	3.8	8.47e-01	0	40	104	0	74	12233
2026-01-01 03:27:40.96	22.86	10.55	-51.7	-62.6	3.8	8.46e-01	0	40	104	0	74	12190
2026-01-01 03:27:41.97	22.90	10.64	-51.7	-62.6	3.8	8.47e-01	0	40	104	0	74	12115
2026-01-01 03:27:42.97	22.95	10.72	-51.7	-62.6	3.8	8.46e-01	0	40	104	0	74	12165
2026-01-01 03:27:43.98	23.00	10.81	-51.7	-62.6	3.8	8.46e-01	0	40	104	0	74	12115
2026-01-01 03:27:44.98	23.04	10.90	-51.7	-62.6	3.8	8.47e-01	0	40	104	0	74	12229
2026-01-01 03:27:45.98	23.09	10.98	-51.7	-62.6	3.8	8.46e-01	0	41	104	0	74	12168
2026-01-01 03:27:46.99	23.14	11.07	-51.7	-62.6	3.8	8.46e-01	0	41	104	0	74	12170
2026-01-01 03:27:47.99	23.18	11.16	-51.7	-62.6	3.8	8.46e-01	0	41	104	0	74	12146
2026-01-01 03:27:49.00	23.23	11.25	-51.7	-62.7	3.8	8.46e-01	0	40	104	0	74	12247
2026-01-01 03:27:50.00	23.28	11.34	-51.7	-62.6	3.8	8.46e-01	0	41	104	0	74	12207
2026-01-01 03:27:51.01	23.33	11.43	-51.7	-62.7	3.8	8.47e-01	0	40	104	0	74	12278
2026-01-01 03:27:52.01	23.38	11.52	-51.7	-62.6	3.8	8.46e-01	0	41	104	0	74	12156
2026-01-01 03:27:53.02	23.42	11.61	-51.7	-62.6	3.8	8.47e-01	0	41	104	0	74	12233
2026-01-01 03:27:54.02	23.47	11.69	-51.7	-62.6	3.8	8.46e-01	0	41	104	0	74	12145
2026-01-01 03:27:55.02	23.52	11.78	-51.7	-62.6	3.8	8.47e-01	0	41	104	0	74	12172
2026-01-01 03:27:56.03	23.57	11.88	-51.7	-62.6	3.8	8.47e-01	0	40	104	0	74	12187
2026-01-01 03:27:57.03	23.62	11.97	-51.7	-62.6	3.8	8.47e-01	0	41	104	0	74	12172
2026-01-01 03:27:58.04	23.67	12.06	-51.7	-62.6	3.8	8.46e-01	0	41	104	0	74	12101
2026-01-01 03:27:59.04	23.72	12.15	-51.7	-62.6	3.8	8.47e-01	0	41	104	0	74	12165
2026-01-01 03:28:00.04	23.77	12.24	-51.7	-62.6	3.8	8.47e-01	0	40	104	0	74	12137
2026-01-01 03:28:01.05	23.82	12.33	-51.7	-62.6	3.8	8.47e-01	0	40	104	0	74	12161
2026-01-01 03:28:02.05	23.88	12.42	-51.7	-62.6	3.8	8.47e-01	0	41	104	0	74	12203
2026-01-01 03:28:03.06	23.93	12.52	-51.7	-62.6	3.8	8.45e-01	0	40	104	0	74	12149
2026-01-01 03:28:04.06	23.98	12.61	-51.7	-62.6	3.8	8.47e-01	0	41	104	0	74	12221
2026-01-01 03:28:05.07	24.03	12.70	-51.7	-62.6	3.8	8.46e-01	0	41	104	0	74	12192
2026-01-01 03:28:06.07	24.08	12.80	-51.7	-62.6	3.8	8.46e-01	0	41	104	0	74	12195
2026-01-01 03:28:07.08	24.14	12.89	-51.7	-62.6	3.8	8.48e-01	0	40	104	0	74	12233
2026-01-01 03:28:08.08	24.19	12.99	-51.7	-62.6	3.8	8.45e-01	0	41	104	0	74	12213
2026-01-01 03:28:09.08	24.24	13.08	-51.7	-62.6	3.8	8.47e-01	0	40	104	0	74	12108
2026-01-01 03:28:10.09	24.30	13.18	-51.7	-62.7	3.8	8.46e-01	0	41	104	0	74	12237
2026-01-01 03:28:11.09	24.35	13.27	-51.7	-62.6	3.8	8.46e-01	0	41	104	0	74	12203
2026-01-01 03:28:12.10	24.41	13.37	-51.7	-62.6	3.8	8.48e-01	0	41	104	0	74	12217
2026-01-01 03:28:13.10	24.46	13.46	-51.7	-62.6	3.8	8.47e-01	0	41	104	0	74	12193
2026-01-01 03:28:14.11	24.52	13.56	-51.7	-62.6	3.8	8.47e-01	0	41	104	0	74	12172
2026-01-01 03:28:15.11	24.57	13.66	-51.7	-62.6	3.8	8.47e-01	0	41	104	0	74	12148
2026-01-01 03:28:16.11	24.63	13.75	-51.7	-62.6	3.8	8.47e-01	0	41	104	0	74	12122
2026-01-01 03:28:17.12	24.68	13.85	-51.7	-62.6	3.8	8.47e-01	0	40	104	0	74	12178
2026-01-01 03:28:18.12	24.74	13.95	-51.7	-62.6	3.8	8.47e-01	0	41	104	0	74	12132
2026-01-01 03:28:19.13	24.80	14.05	-51.7	-62.6	3.8	8.46e-01	0	41	104	0	74	12138
2026-01-01 03:28:20.13	24.85	14.15	-51.7	-62.6	3.8	8.48e-01	0	41	104	0	74	12161
2026-01-01 03:28:21.13	24.91	14.25	-51.7	-62.7	3.8	8.47e-01	0	41	104	0	74	12267
2026-01-01 03:28:22.14	24.97	14.35	-51.7	-62.6	3.8	8.47e-01	0	41	104	0	74	12185
2026-01-01 03:28:23.14	25.03	14.45	-51.7	-62.6	3.8	8.46e-01	0	41	104	0	74	12202
2026-01-01 03:28:24.14	25.09	14.55	-51.7	-62.6	3.8	8.48e-01	0	41	104	0	74	12200
2026-01-01 03:28:25.15	25.14	14.65	-51.7	-62.6	3.8	8.45e-01	0	41	104	0	74	12172
2026-01-01 03:28:26.15	25.20	14.75	-51.7	-62.6	3.8	8.47e-01	0	41	104	0	74	12193
2026-01-01 03:28:27.16	25.26	14.85	-51.7	-62.6	3.8	8.47e-01	0	41	104	0	74	12155
2026-01-01 03:28:28.16	25.32	14.95	-51.7	-62.6	3.8	8.47e-01	0	41	104	0	74	12171
2026-01-01 03:28:29.16	25.38	15.05	-51.7	-62.6	3.8	8.46e-01	0	41	104	0	74	12190
2026-01-01 03:28:30.17	25.44	15.16	-51.7	-62.6	3.8	8.48e-01	0	41	104	0	74	12225
2026-01-01 03:28:31.17	25.51	15.26	-51.7	-62.6	3.8	8.46e-01	0	41	104	0	74	12168
2026-01-01 03:28:32.18	25.57	15.36	-51.7	-62.5	3.8	8.47e-01	0	41	104	0	74	12081
2026-01-01 03:28:33.18	25.63	15.47	-51.7	-62.6	3.8	8.46e-01	0	41	104	0	74	12123
2026-01-01 03:28:34.18	25.69	15.57	-51.7	-62.6	3.8	8.48e-01	0	41	104	0	74	12199
2026-01-01 03:28:35.19	25.75	15.68	-51.7	-62.6	3.8	8.47e-01	0	41	104	0	74	12128
2026-01-01 03:28:36.19	25.82	15.78	-51.7	-62.6	3.8	8.47e-01	0	41	104	0	74	12128
2026-01-01 03:28:37.20	25.88	15.89	-51.7	-62.6	3.8	8.46e-01	0	40	104	0	74	12194
2026-01-01 03:28:38.20	25.95	15.99	-51.7	-62.6	3.8	8.46e-01	0	41	104	0	74	12209
2026-01-01 03:28:39.21	26.01	16.10	-51.6	-62.5	3.8	8.48e-01	0	41	104	0	74	12066
2026-01-01 03:28:40.21	26.08	16.21	-51.6	-62.6	3.8	8.47e-01	0	41	104	0	74	12132
2026-01-01 03:28:41.22	26.14	16.31	-51.7	-62.6	3.8	8.47e-01	0	41	104	0	74	12129
2026-01-01 03:28:42.22	26.21	16.42	-51.7	-62.6	3.8	8.48e-01	0	41	104	0	74	12118
2026-01-01 03:28:43.22	26.27	16.53	-51.6	-62.6	3.8	8.46e-01	0	41	104	0	74	12173
2026-01-01 03:28:44.23	26.34	16.64	-51.7	-62.6	3.8	8.47e-01	0	41	104	0	74	12186
2026-01-01 03:28:45.23	26.41	16.75	-51.7	-62.6	3.8	8.47e-01	0	41	104	0	74	12196
2026-01-01 03:28:46.24	26.47	16.86	-51.6	-62.6	3.8	8.48e-01	0	41	104	0	74	12119
2026-01-01 03:28:47.24	26.54	16.97	-51.7	-62.6	3.8	8.46e-01	0	41	104	0	74	12138
2026-01-01 03:28:48.25	26.61	17.08	-51.7	-62.5	3.8	8.48e-01	0	41	104	0	74	12052
2026-01-01 03:28:49.25	26.68	17.19	-51.6	-62.5	3.8	8.46e-01	0	41	104	0	74	12043
2026-01-01 03:28:50.26	26.75	17.30	-51.6	-62.5	3.8	8.46e-01	0	41	104	0	74	12083
2026-01-01 03:28:51.26	26.82	17.41	-51.7	-62.5	3.8	8.48e-01	0	41	104	0	74	12044
2026-01-01 03:28:52.26	26.89	17.53	-51.7	-62.6	3.8	8.47e-01	0	41	104	0	74	12157
2026-01-01 03:28:53.27	26.96	17.64	-51.6	-62.6	3.8	8.48e-01	0	41	104	0	74	12134
2026-01-01 03:28:54.27	27.03	17.75	-51.6	-62.6	3.8	8.47e-01	0	41	104	0	74	12113
2026-01-01 03:28:55.28	27.10	17.87	-51.6	-62.5	3.8	8.47e-01	0	41	104	0	74	12035
2026-01-01 03:28:56.28	27.18	17.98	-51.6	-62.7	3.8	8.47e-01	0	41	104	0	74	12243
2026-01-01 03:28:57.29	27.25	18.10	-51.6	-62.5	3.8	8.47e-01	0	41	104	0	74	12093
2026-01-01 03:28:58.29	27.32	18.21	-51.6	-62.6	3.8	8.47e-01	0	41	104	0	74	12113
2026-01-01 03:28:59.30	27.40	18.33	-51.6	-62.5	3.8	8.47e-01	0	41	104	0	74	12049
2026-01-01 03:29:00.30	27.47	18.44	-51.6	-62.6	3.8	8.46e-01	0	41	104	0	74	12104
2026-01-01 03:29:01.30	27.55	18.56	-51.6	-62.6	3.8	8.46e-01	0	41	104	0	74	12098
2026-01-01 03:29:02.31	27.62	18.68	-51.6	-62.6	3.8	8.46e-01	0	41	104	0	74	12175
2026-01-01 03:29:03.31	27.70	18.80	-51.6	-62.6	3.8	8.46e-01	0	41	104	0	74	12118
2026-01-01 03:29:04.32	27.78	18.92	-51.6	-62.6	3.8	8.47e-01	0	41	104	0	74	12099
2026-01-01 03:29:05.32	27.85	19.03	-51.6	-62.5	3.8	8.47e-01	0	41	104	0	74	11985
2026-01-01 03:29:06.32	27.93	19.15	-51.7	-62.6	3.8	8.47e-01	0	41	104	0	74	12159
2026-01-01 03:29:07.33	28.01	19.27	-51.6	-62.5	3.8	8.46e-01	0	41	104	0	74	12081
2026-01-01 03:29:08.33	28.09	19.39	-51.6	-62.5	3.8	8.47e-01	0	41	104	0	74	12057
2026-01-01 03:29:09.34	28.17	19.52	-51.6	-62.6	3.8	8.47e-01	0	41	104	0	74	12127
2026-01-01 03:29:10.34	28.25	19.64	-51.6	-62.6	3.8	8.48e-01	0	41	104	0	74	12130
2026-01-01 03:29:11.35	28.33	19.76	-51.6	-62.5	3.8	8.47e-01	0	41	104	0	74	12041
2026-01-01 03:29:12.35	28.41	19.88	-51.6	-62.5	3.8	8.48e-01	0	41	104	0	74	12069
2026-01-01 03:29:13.35	28.49	20.01	-51.6	-62.5	3.8	8.47e-01	0	41	104	0	74	12069
2026-01-01 03:29:14.36	28.58	20.13	-51.6	-62.5	3.8	8.46e-01	0	41	104	0	74	11998
2026-01-01 03:29:15.36	28.66	20.25	-51.7	-62.6	3.8	8.47e-01	0	41	104	0	74	12171
2026-01-01 03:29:16.37	28.74	20.38	-51.7	-62.6	3.8	8.47e-01	0	41	104	0	74	12125
2026-01-01 03:29:17.37	28.83	20.50	-51.7	-62.6	3.8	8.47e-01	0	41	104	0	74	12111
2026-01-01 03:29:18.37	28.91	20.63	-51.7	-62.6	3.8	8.46e-01	0	41	104	0	74	12186
2026-01-01 03:29:19.38	29.00	20.76	-51.7	-62.6	3.8	8.46e-01	0	41	104	0	74	12112
2026-01-01 03:29:20.38	29.09	20.89	-51.7	-62.5	3.8	8.47e-01	0	41	104	0	74	12084
2026-01-01 03:29:21.39	29.17	21.01	-51.6	-62.5	3.8	8.47e-01	0	41	104	0	74	12082
2026-01-01 03:29:22.39	29.26	21.14	-51.6	-62.5	3.8	8.46e-01	0	41	104	0	74	12025
2026-01-01 03:29:23.40	29.35	21.27	-51.6	-62.5	3.8	8.47e-01	0	41	104	0	74	12083
2026-01-01 03:29:24.40	29.44	21.40	-51.6	-62.6	3.8	8.47e-01	0	41	104	0	74	12157
2026-01-01 03:29:25.40	29.53	21.53	-51.6	-62.6	3.8	8.47e-01	0	41	104	0	74	12109
2026-01-01 03:29:26.41	29.62	21.66	-51.6	-62.5	3.8	8.46e-01	0	41	104	0	74	12044
2026-01-01 03:29:27.41	29.71	21.79	-51.6	-62.6	3.8	8.46e-01	0	41	104	0	74	12142
2026-01-01 03:29:28.41	29.81	21.93	-51.6	-62.5	3.8	8.47e-01	0	41	104	0	74	12022
2026-01-01 03:29:29.42	29.90	22.06	-51.6	-62.5	3.8	8.47e-01	0	41	104	0	74	12048
2026-01-01 03:29:30.42	29.99	22.19	-51.6	-62.5	3.8	8.47e-01	0	41	104	0	74	12056
2026-01-01 03:29:31.43	30.09	22.33	-51.6	-62.5	3.8	8.48e-01	0	41	104	0	74	12074
2026-01-01 03:29:32.43	30.18	22.46	-51.7	-62.6	3.8	8.47e-01	0	41	104	0	74	12146
2026-01-01 03:29:33.44	30.28	22.60	-51.7	-62.6	3.8	8.48e-01	0	41	104	0	74	12121
2026-01-01 03:29:34.44	30.38	22.73	-51.6	-62.5	3.8	8.47e-01	0	41	104	0	74	12081
2026-01-01 03:29:35.59	30.49	22.89	-51.6	-62.6	3.8	8.47e-01	0	41	104	0	74	12125
2026-01-01 03:29:36.48	30.58	23.01	-51.6	-62.6	3.8	8.48e-01	0	41	104	0	74	12202
2026-01-01 03:29:37.63	30.69	23.17	-51.6	-62.6	3.8	8.46e-01	0	41	104	0	74	12161
2026-01-01 03:29:38.49	30.78	23.29	-51.6	-62.6	3.8	8.47e-01	0	41	104	0	74	12153
2026-01-01 03:29:39.63	30.89	23.45	-51.6	-62.6	3.8	8.48e-01	0	41	104	0	74	12202
2026-01-01 03:29:40.50	30.98	23.57	-51.6	-62.6	3.8	8.47e-01	0	41	104	0	74	12098
2026-01-01 03:29:41.64	31.10	23.73	-51.6	-62.5	3.8	8.46e-01	0	41	104	0	74	12076
2026-01-01 03:29:42.50	31.19	23.85	-51.6	-62.6	3.8	8.48e-01	0	41	104	0	74	12170
2026-01-01 03:29:43.65	31.31	24.01	-51.7	-62.6	3.8	8.46e-01	0	41	104	0	74	12102
2026-01-01 03:29:44.51	31.40	24.13	-51.7	-62.6	3.8	8.47e-01	0	41	104	0	74	12122
2026-01-01 03:29:45.66	31.52	24.30	-51.7	-62.6	3.8	8.47e-01	0	41	104	0	74	12115
2026-01-01 03:29:46.52	31.61	24.42	-51.7	-62.6	3.8	8.47e-01	0	41	104	0	74	12178
2026-01-01 03:29:47.70	31.74	24.59	-51.6	-62.5	3.8	8.47e-01	0	41	104	0	74	12063
2026-01-01 03:29:48.56	31.84	24.72	-51.7	-62.6	3.8	8.48e-01	0	41	104	0	74	12126
2026-01-01 03:29:49.77	31.97	24.89	-51.7	-62.5	3.8	8.47e-01	0	41	104	0	74	12033
2026-01-01 03:29:50.64	32.07	25.02	-51.7	-62.6	3.8	8.47e-01	0	41	104	0	74	12162
2026-01-01 03:29:51.78	32.19	25.19	-51.6	-62.5	3.8	8.45e-01	0	41	104	0	74	12024
2026-01-01 03:29:52.64	32.29	25.32	-51.7	-62.6	3.8	8.48e-01	0	41	104	0	74	12156
2026-01-01 03:29:53.79	32.42	25.49	-51.7	-62.6	3.8	8.47e-01	0	41	104	0	74	12194
2026-01-01 03:29:54.65	32.52	25.62	-51.7	-62.6	3.8	8.46e-01	0	41	104	0	74	12103
2026-01-01 03:29:55.80	32.66	25.79	-51.7	-62.6	3.8	8.47e-01	0	41	104	0	74	12123
2026-01-01 03:29:56.66	32.76	25.92	-51.7	-62.6	3.8	8.48e-01	0	41	104	0	74	12143
2026-01-01 03:29:57.81	32.89	26.09	-51.7	-62.7	3.8	8.48e-01	0	41	104	0	74	12251
2026-01-01 03:29:58.67	33.00	26.22	-51.7	-62.6	3.8	8.46e-01	0	41	104	0	74	12105
2026-01-01 03:29:59.81	33.13	26.40	-51.7	-62.6	3.8	8.47e-01	0	41	104	0	74	12164
2026-01-01 03:30:00.67	33.24	26.53	-51.7	-62.6	3.8	8.46e-01	0	41	104	0	74	12187
2026-01-01 03:30:01.82	33.38	26.71	-51.6	-62.6	3.8	8.46e-01	0	41	104	0	74	12112
2026-01-01 03:30:02.68	33.49	26.84	-51.7	-62.6	3.8	8.47e-01	0	41	104	0	74	12203
2026-01-01 03:30:03.83	33.63	27.02	-51.6	-62.6	3.8	8.48e-01	0	41	104	0	74	12105
2026-01-01 03:30:04.69	33.74	27.16	-51.6	-62.6	3.8	8.47e-01	0	41	104	0	74	12138
2026-01-01 03:30:05.84	33.89	27.34	-51.7	-62.5	3.8	8.48e-01	0	41	104	0	74	12082
2026-01-01 03:30:06.70	34.00	27.47	-51.6	-62.6	3.8	8.45e-01	0	41	104	0	74	12189
2026-01-01 03:30:07.85	34.15	27.66	-51.6	-62.5	3.8	8.46e-01	0	41	104	0	74	12055
2026-01-01 03:30:08.71	34.26	27.80	-51.7	-62.5	3.8	8.46e-01	0	41	104	0	74	12068
2026-01-01 03:30:09.86	34.42	27.98	-51.7	-62.7	3.8	8.47e-01	0	41	104	0	74	12270
2026-01-01 03:30:10.72	34.53	28.12	-51.7	-62.6	3.8	8.47e-01	0	41	104	0	74	12112
2026-01-01 03:30:11.86	34.69	28.30	-51.7	-62.6	3.8	8.46e-01	0	41	104	0	74	12123
2026-01-01 03:30:12.72	34.80	28.45	-51.7	-62.6	3.8	8.47e-01	0	41	104	0	74	12163
2026-01-01 03:30:13.87	34.96	28.63	-51.7	-62.6	3.8	8.47e-01	0	41	104	0	74	12149
2026-01-01 03:30:14.73	35.08	28.78	-51.6	-62.5	3.8	8.45e-01	0	41	104	0	74	12080
2026-01-01 03:30:15.88	35.25	28.97	-51.7	-62.6	3.8	8.46e-01	0	41	104	0	74	12121
2026-01-01 03:30:16.74	35.37	29.11	-51.6	-62.5	3.8	8.47e-01	0	41	104	0	74	12091
2026-01-01 03:30:17.89	35.54	29.30	-51.6	-62.6	3.8	8.46e-01	0	41	104	0	74	12120
2026-01-01 03:30:18.75	35.66	29.45	-51.6	-62.6	3.8	8.47e-01	0	41	104	0	74	12118
2026-01-01 03:30:19.90	35.83	29.64	-51.6	-62.5	3.8	8.47e-01	0	41	104	0	74	12060
2026-01-01 03:30:20.76	35.96	29.79	-51.6	-62.5	3.8	8.46e-01	0	41	104	0	74	12090
2026-01-01 03:30:21.91	36.13	29.98	-51.6	-62.5	3.8	8.47e-01	0	41	104	0	74	12093
2026-01-01 03:30:22.77	36.26	30.13	-51.7	-62.6	3.8	8.47e-01	0	41	104	0	74	12132
2026-01-01 03:30:23.92	36.44	30.33	-51.6	-62.6	3.8	8.47e-01	0	41	104	0	74	12098
2026-01-01 03:30:24.78	36.57	30.48	-51.7	-62.6	3.8	8.48e-01	0	41	104	0	74	12107
2026-01-01 03:30:25.92	36.75	30.67	-51.7	-62.6	3.8	8.47e-01	0	41	104	0	74	12125
2026-01-01 03:30:26.79	36.89	30.83	-51.6	-62.6	3.8	8.47e-01	0	41	104	0	74	12220
2026-01-01 03:30:27.93	37.07	31.03	-51.6	-62.6	3.8	8.47e-01	0	41	104	0	74	12193
2026-01-01 03:30:28.79	37.21	31.18	-51.7	-62.6	3.8	8.47e-01	0	41	104	0	74	12164
2026-01-01 03:30:29.94	37.39	31.38	-51.7	-62.6	3.8	8.47e-01	0	41	104	0	74	12138
2026-01-01 03:30:30.80	37.54	31.54	-51.6	-62.5	3.8	8.47e-01	0	41	104	0	74	12062
2026-01-01 03:30:31.95	37.73	31.74	-51.7	-62.6	3.8	8.48e-01	0	41	104	0	74	12216
2026-01-01 03:30:32.81	37.87	31.90	-51.7	-62.6	3.8	8.47e-01	0	41	104	0	74	12178
2026-01-01 03:30:33.96	38.07	32.10	-51.6	-62.5	3.8	8.47e-01	0	41	104	0	74	12054
2026-01-01 03:30:34.82	38.22	32.26	-51.6	-62.6	3.8	8.47e-01	0	41	104	0	74	12106
2026-01-01 03:30:35.97	38.42	32.47	-51.6	-62.7	3.8	8.46e-01	0	41	104	0	74	12242
2026-01-01 03:30:36.83	38.57	32.63	-51.7	-62.6	3.8	8.46e-01	0	41	104	0	74	12183
2026-01-01 03:30:37.98	38.78	32.84	-51.7	-62.6	3.8	8.47e-01	0	41	104	0	74	12140
2026-01-01 03:30:38.84	38.93	33.00	-51.7	-62.7	3.8	8.47e-01	0	41	104	0	74	12242
2026-01-01 03:30:39.99	39.14	33.21	-51.7	-62.6	3.8	8.46e-01	0	41	104	0	74	12165
2026-01-01 03:30:40.85	39.30	33.37	-51.7	-62.7	3.8	8.47e-01	0	41	104	0	74	12247
2026-01-01 03:30:42.00	39.51	33.59	-51.7	-62.6	3.8	8.47e-01	0	41	104	0	74	12107
2026-01-01 03:30:42.86	39.67	33.75	-51.7	-62.6	3.8	8.45e-01	0	41	104	0	74	12159
2026-01-01 03:30:44.00	39.89	33.96	-51.7	-62.6	3.8	8.48e-01	0	41	104	0	74	12132
2026-01-01 03:30:44.87	40.06	34.13	-51.6	-62.6	3.8	8.47e-01	0	41	104	0	74	12144
2026-01-01 03:30:46.01	40.28	34.34	-51.7	-62.6	3.8	8.47e-01	0	41	104	0	74	12174
2026-01-01 03:30:46.87	40.45	34.51	-51.6	-62.5	3.8	8.47e-01	0	41	104	0	74	12040
2026-01-01 03:30:48.02	40.68	34.73	-51.7	-62.5	3.8	8.46e-01	0	41	104	0	74	12032
2026-01-01 03:30:48.88	40.86	34.90	-51.6	-62.6	3.8	8.46e-01	0	41	104	0	74	12166
2026-01-01 03:30:50.03	41.09	35.12	-51.6	-62.6	3.8	8.47e-01	0	41	104	0	74	12114
2026-01-01 03:30:50.89	41.27	35.29	-51.7	-62.6	3.8	8.47e-01	0	41	104	0	74	12160
2026-01-01 03:30:52.04	41.51	35.51	-51.6	-62.6	3.8	8.47e-01	0	41	104	0	74	12167
2026-01-01 03:30:52.90	41.69	35.68	-51.7	-62.6	3.8	8.47e-01	0	41	104	0	74	12161
2026-01-01 03:30:54.05	41.94	35.91	-51.7	-62.6	3.8	8.46e-01	0	41	104	0	74	12129
2026-01-01 03:30:54.91	42.12	36.08	-51.7	-62.6	3.8	8.47e-01	0	41	104	0	74	12159
2026-01-01 03:30:56.06	42.38	36.31	-51.6	-62.6	3.8	8.46e-01	0	41	104	0	74	12139
2026-01-01 03:30:56.92	42.57	36.48	-51.7	-62.6	3.8	8.46e-01	0	41	104	0	74	12191
2026-01-01 03:30:58.06	42.82	36.71	-51.7	-62.6	3.8	8.47e-01	0	41	104	0	74	12161
2026-01-01 03:30:58.93	43.02	36.88	-51.7	-62.6	3.8	8.47e-01	0	41	104	0	74	12113
2026-01-01 03:31:00.07	43.28	37.11	-51.7	-62.6	3.8	8.47e-01	0	41	104	0	74	12101
2026-01-01 03:31:00.93	43.48	37.28	-51.6	-62.6	3.8	8.47e-01	0	41	104	0	74	12175
2026-01-01 03:31:02.08	43.76	37.52	-51.7	-62.6	3.8	8.47e-01	0	41	104	0	74	12124
2026-01-01 03:31:02.94	43.96	37.69	-51.7	-62.6	3.8	8.47e-01	0	41	104	0	74	12096
2026-01-01 03:31:04.09	44.24	37.93	-51.7	-62.6	3.8	8.47e-01	0	41	104	0	74	12207
2026-01-01 03:31:04.95	44.45	38.10	-51.7	-62.6	3.8	8.47e-01	0	41	104	0	74	12114
2026-01-01 03:31:06.10	44.74	38.34	-51.7	-62.7	3.8	8.47e-01	0	41	104	0	74	12253
2026-01-01 03:31:06.96	44.95	38.52	-51.7	-62.6	3.8	8.46e-01	0	41	104	0	74	12209
2026-01-01 03:31:08.11	45.24	38.76	-51.7	-62.6	3.8	8.46e-01	0	41	104	0	74	12140
2026-01-01 03:31:08.97	45.47	38.94	-51.7	-62.6	3.8	8.46e-01	0	41	104	0	74	12113
2026-01-01 03:31:10.12	45.77	39.18	-51.6	-62.6	3.8	8.48e-01	0	41	104	0	74	12121
2026-01-01 03:31:10.98	45.99	39.36	-51.7	-62.5	3.8	8.46e-01	0	41	104	0	74	12083
2026-01-01 03:31:12.13	46.30	39.60	-51.6	-62.5	3.8	8.47e-01	0	41	104	0	74	12022
2026-01-01 03:31:12.99	46.53	39.78	-51.7	-62.6	3.8	8.47e-01	0	41	104	0	74	12214
2026-01-01 03:31:14.13	46.85	40.02	-51.7	-62.5	3.8	8.47e-01	0	41	104	0	74	12044
2026-01-01 03:31:15.00	47.09	40.20	-51.7	-62.6	3.8	8.47e-01	0	41	104	0	74	12135
2026-01-01 03:31:16.14	47.41	40.45	-51.7	-62.5	3.8	8.47e-01	0	41	104	0	74	12082
2026-01-01 03:31:17.00	47.65	40.63	-51.7	-62.6	3.8	8.46e-01	0	41	104	0	74	12199
2026-01-01 03:31:18.15	47.99	40.87	-51.6	-62.6	3.8	8.46e-01	0	41	104	0	74	12102
2026-01-01 03:31:19.01	48.24	41.06	-51.7	-62.7	3.8	8.47e-01	0	41	104	0	74	12248
2026-01-01 03:31:20.16	48.58	41.30	-51.7	-62.5	3.8	8.45e-01	0	41	104	0	74	12082
2026-01-01 03:31:21.02	48.84	41.49	-51.7	-62.5	3.8	8.47e-01	0	41	104	0	74	12088
2026-01-01 03:31:22.17	49.19	41.73	-51.6	-62.6	3.8	8.47e-01	0	41	104	0	74	12104
2026-01-01 03:31:23.03	49.46	41.92	-51.6	-62.6	3.8	8.46e-01	0	41	104	0	74	12168
2026-01-01 03:31:24.17	49.81	42.17	-51.6	-62.5	3.8	8.47e-01	0	41	104	0	74	12048
2026-01-01 03:31:25.04	50.09	42.35	-51.6	-62.6	3.8	8.47e-01	0	41	104	0	74	12134
2026-01-01 03:31:26.19	50.46	42.60	-51.6	-62.5	3.8	8.47e-01	0	41	104	0	74	12067
2026-01-01 03:31:27.05	50.74	42.79	-51.7	-62.6	3.8	8.47e-01	0	41	104	0	74	12192
2026-01-01 03:31:28.19	51.11	43.03	-51.7	-62.6	3.8	8.46e-01	0	41	104	0	74	12183
2026-01-01 03:31:29.05	51.40	43.22	-51.7	-62.6	3.8	8.48e-01	0	41	104	0	74	12120
2026-01-01 03:31:30.20	51.79	43.47	-51.6	-62.5	3.8	8.48e-01	0	41	104	0	74	12064
2026-01-01 03:31:31.06	52.09	43.66	-51.7	-62.5	3.8	8.48e-01	0	41	104	0	74	12060
2026-01-01 03:31:32.21	52.49	43.91	-51.7	-62.6	3.8	8.46e-01	0	41	104	0	74	12164
2026-01-01 03:31:33.07	52.79	44.09	-51.7	-62.6	3.8	8.47e-01	0	41	104	0	74	12214
2026-01-01 03:31:34.22	53.20	44.34	-51.6	-62.6	3.8	8.47e-01	0	41	104	0	74	12126
2026-01-01 03:31:35.08	53.51	44.53	-51.6	-62.5	3.8	8.46e-01	0	41	104	0	74	12064
2026-01-01 03:31:36.23	53.94	44.78	-51.7	-62.6	3.8	8.47e-01	0	41	104	0	74	12125
2026-01-01 03:31:37.09	54.26	44.97	-51.6	-62.6	3.8	8.47e-01	0	41	104	0	74	12119
2026-01-01 03:31:38.24	54.69	45.22	-51.7	-62.6	3.8	8.45e-01	0	41	104	0	74	12207
2026-01-01 03:31:39.10	55.02	45.40	-51.7	-62.6	3.8	8.47e-01	0	41	104	0	74	12181
2026-01-01 03:31:40.25	55.47	45.65	-51.7	-62.6	3.8	8.47e-01	0	41	104	0	74	12156
2026-01-01 03:31:41.11	55.81	45.84	-51.7	-62.6	3.8	8.46e-01	0	41	104	0	74	12133
2026-01-01 03:31:42.26	56.27	46.09	-51.7	-62.6	3.8	8.47e-01	0	41	104	0	74	12115
2026-01-01 03:31:43.12	56.61	46.27	-51.7	-62.6	3.8	8.47e-01	0	41	104	0	74	12138
2026-01-01 03:31:44.26	57.08	46.52	-51.7	-62.5	3.8	8.47e-01	0	41	104	0	74	12057
2026-01-01 03:31:45.13	57.44	46.71	-51.6	-62.5	3.8	8.46e-01	0	41	104	0	74	12065
2026-01-01 03:31:46.27	57.92	46.95	-51.7	-62.5	3.8	8.47e-01	0	41	104	0	74	12004
2026-01-01 03:31:47.13	58.29	47.14	-51.6	-62.5	3.8	8.46e-01	0	41	104	0	74	12051
2026-01-01 03:31:48.28	58.79	47.38	-51.6	-62.5	3.8	8.46e-01	0	41	104	0	74	12081
2026-01-01 03:31:49.14	59.17	47.56	-51.7	-62.6	3.8	8.46e-01	0	41	104	0	74	12096
2026-01-01 03:31:50.29	59.68	47.81	-51.6	-62.6	3.8	8.47e-01	0	41	104	0	74	12200
2026-01-01 03:31:51.15	60.07	47.99	-51.7	-62.6	3.8	8.46e-01	0	41	104	0	74	12223
2026-01-01 03:31:52.30	60.59	48.23	-51.7	-62.6	3.8	8.48e-01	0	41	104	0	74	12122
2026-01-01 03:31:53.16	60.99	48.41	-51.7	-62.7	3.8	8.47e-01	0	41	104	0	74	12264
2026-01-01 03:31:54.31	61.53	48.65	-51.7	-62.6	3.8	8.46e-01	0	41	104	0	74	12158
2026-01-01 03:31:55.17	61.94	48.83	-51.7	-62.6	3.8	8.47e-01	0	41	104	0	74	12194
2026-01-01 03:31:56.32	62.50	49.07	-51.7	-62.6	3.8	8.46e-01	0	41	104	0	74	12104
2026-01-01 03:31:57.18	62.92	49.24	-51.7	-62.6	3.8	8.46e-01	0	41	104	0	74	12178
2026-01-01 03:31:58.32	63.48	49.47	-51.7	-62.6	3.8	8.46e-01	0	41	104	0	74	12098
2026-01-01 03:31:59.19	63.92	49.65	-51.7	-62.6	3.8	8.46e-01	0	41	104	0	74	12130
2026-01-01 03:32:00.34	64.50	49.88	-51.7	-62.5	3.8	8.47e-01	0	41	104	0	74	12082
2026-01-01 03:32:01.20	64.95	50.05	-51.7	-62.6	3.8	8.46e-01	0	41	104	0	74	12179
2026-01-01 03:32:02.34	65.54	50.28	-51.7	-62.6	3.8	8.46e-01	0	41	104	0	74	12180
2026-01-01 03:32:03.21	66.00	50.45	-51.7	-62.5	3.8	8.47e-01	0	41	104	0	74	12050
2026-01-01 03:32:04.35	66.61	50.67	-51.7	-62.6	3.8	8.46e-01	0	41	104	0	74	12179
2026-01-01 03:32:05.21	67.08	50.83	-51.7	-62.6	3.8	8.46e-01	0	41	104	0	74	12191
2026-01-01 03:32:06.36	67.71	51.05	-51.7	-62.6	3.8	8.46e-01	0	41	104	0	74	12150
2026-01-01 03:32:07.22	68.19	51.22	-51.7	-62.6	3.8	8.47e-01	0	41	104	0	74	12128
2026-01-01 03:32:08.37	68.84	51.43	-51.7	-62.6	3.8	8.47e-01	0	41	104	0	74	12230
2026-01-01 03:32:09.23	69.33	51.59	-51.7	-62.5	3.8	8.47e-01	0	41	104	0	74	12079
2026-01-01 03:32:10.38	70.00	51.80	-51.7	-62.6	3.8	8.47e-01	0	41	104	0	74	12122
2026-01-01 03:32:11.24	70.50	51.95	-51.7	-62.5	3.8	8.46e-01	0	41	104	0	74	12074
2026-01-01 03:32:12.39	71.18	52.16	-51.7	-62.6	3.8	8.47e-01	0	41	104	0	74	12138
2026-01-01 03:32:13.25	71.70	52.31	-51.7	-62.6	3.8	8.45e-01	0	41	104	0	74	12180
2026-01-01 03:32:14.39	72.39	52.50	-51.7	-62.5	3.8	8.46e-01	0	41	104	0	74	12075
2026-01-01 03:32:15.26	72.92	52.65	-51.7	-62.6	3.8	8.47e-01	0	41	104	0	74	12131
2026-01-01 03:32:16.40	73.63	52.84	-51.7	-62.5	3.8	8.47e-01	0	41	104	0	74	12089
2026-01-01 03:32:17.26	74.17	52.98	-51.7	-62.6	3.8	8.47e-01	0	41	104	0	74	12124
2026-01-01 03:32:18.41	74.90	53.17	-51.7	-62.6	3.8	8.46e-01	0	41	104	0	74	12115
2026-01-01 03:32:19.27	75.45	53.30	-51.7	-62.6	3.8	8.48e-01	0	41	104	0	74	12198
2026-01-01 03:32:20.42	76.20	53.48	-51.7	-62.7	3.8	8.45e-01	0	41	104	0	74	12236
2026-01-01 03:32:21.28	76.76	53.61	-51.7	-62.5	3.8	8.46e-01	0	41	104	0	74	12089
2026-01-01 03:32:22.43	77.52	53.78	-51.7	-62.6	3.8	8.46e-01	0	41	104	0	74	12112
2026-01-01 03:32:23.29	78.10	53.91	-51.6	-62.6	3.8	8.47e-01	0	41	104	0	74	12121
2026-01-01 03:32:24.44	78.87	54.07	-51.7	-62.6	3.8	8.48e-01	0	41	104	0	74	12174
2026-01-01 03:32:25.30	79.46	54.19	-51.7	-62.6	3.8	8.47e-01	0	41	104	0	74	12166
2026-01-01 03:32:26.45	80.25	54.34	-51.7	-62.6	3.8	8.46e-01	0	41	104	0	74	12103
2026-01-01 03:32:27.47	80.96	54.47	-51.7	-62.5	3.8	8.47e-01	0	41	104	0	74	12064
2026-01-01 03:32:28.65	81.79	54.62	-51.7	-62.6	3.8	8.48e-01	0	41	104	0	74	12226
2026-01-01 03:32:29.51	82.40	54.73	-51.7	-62.6	3.8	8.47e-01	0	41	104	0	74	12168
2026-01-01 03:32:30.66	83.22	54.86	-51.7	-62.6	3.8	8.48e-01	0	41	104	0	74	12173
2026-01-01 03:32:31.52	83.84	54.96	-51.7	-62.6	3.8	8.47e-01	0	41	104	0	74	12185
2026-01-01 03:32:32.67	84.67	55.08	-51.7	-62.5	3.8	8.47e-01	0	41	104	0	74	12033
2026-01-01 03:32:33.53	85.30	55.17	-51.7	-62.6	3.8	8.46e-01	0	41	104	0	74	12158
2026-01-01 03:32:34.68	86.15	55.29	-51.7	-62.7	3.8	8.47e-01	0	41	104	0	74	12245
2026-01-01 03:32:35.54	86.79	55.37	-51.7	-62.6	3.8	8.48e-01	0	41	104	0	74	12203
2026-01-01 03:32:36.68	87.64	55.48	-51.7	-62.6	3.8	8.47e-01	0	41	104	0	74	12104
2026-01-01 03:32:37.54	88.29	55.55	-51.6	-62.5	3.8	8.48e-01	0	41	104	0	74	12008
2026-01-01 03:32:38.69	89.16	55.65	-51.7	-62.6	3.8	8.47e-01	0	41	104	0	74	12189
2026-01-01 03:32:39.55	89.81	55.71	-51.7	-62.5	3.8	8.48e-01	0	41	104	0	74	12050
2026-01-01 03:32:40.76	90.74	55.80	-51.6	-62.5	3.8	8.47e-01	0	41	104	0	74	12083
2026-01-01 03:32:41.62	91.40	55.86	-51.6	-62.6	3.8	8.45e-01	0	41	104	0	74	12205
2026-01-01 03:32:42.77	92.29	55.93	-51.6	-62.5	3.8	8.46e-01	0	41	104	0	74	12077
2026-01-01 03:32:43.63	92.95	55.98	-51.7	-62.6	3.8	8.47e-01	0	41	104	0	74	12173
2026-01-01 03:32:44.78	93.85	56.04	-51.7	-62.6	3.8	8.47e-01	0	41	104	0	74	12158
2026-01-01 03:32:45.64	94.52	56.08	-51.7	-62.5	3.8	8.47e-01	0	41	104	0	74	12071
2026-01-01 03:32:46.79	95.42	56.13	-51.7	-62.6	3.8	8.47e-01	0	41	104	0	74	12178
2026-01-01 03:32:47.65	96.10	56.16	-51.7	-62.6	3.8	8.47e-01	0	41	104	0	74	12154
2026-01-01 03:32:48.80	97.01	56.20	-51.7	-62.5	3.8	8.46e-01	0	41	104	0	74	12046
2026-01-01 03:32:49.66	97.69	56.22	-51.7	-62.6	3.8	8.46e-01	0	41	104	0	74	12143
2026-01-01 03:32:50.81	98.60	56.24	-51.7	-62.6	3.8	8.48e-01	0	41	104	0	74	12099
2026-01-01 03:32:51.67	99.28	56.26	-51.7	-62.6	3.8	8.47e-01	0	41	104	0	74	12146
2026-01-01 03:32:52.81	100.18	56.27	-51.7	-62.6	3.8	8.46e-01	0	41	104	0	74	12108
2026-01-01 03:32:53.68	100.87	56.27	-51.6	-62.5	3.8	8.44e-01	0	41	104	0	74	12014
2026-01-01 03:32:54.82	101.78	56.27	-51.6	-62.6	3.8	8.47e-01	0	41	104	0	74	12118
2026-01-01 03:32:55.68	102.46	56.27	-51.7	-62.6	3.8	8.45e-01	0	41	104	0	74	12141
2026-01-01 03:32:56.83	103.37	56.26	-51.6	-62.5	3.8	8.46e-01	0	41	104	0	74	12034
2026-01-01 03:32:57.69	104.05	56.24	-51.6	-62.6	3.8	8.47e-01	0	41	104	0	74	12103
2026-01-01 03:32:58.84	104.96	56.22	-51.7	-62.6	3.8	8.46e-01	0	41	104	0	74	12130
2026-01-01 03:32:59.70	105.64	56.20	-51.7	-62.6	3.8	8.47e-01	0	41	104	0	74	12176
2026-01-01 03:33:00.85	106.55	56.16	-51.7	-62.6	3.8	8.46e-01	0	41	104	0	74	12182
2026-01-01 03:33:01.71	107.23	56.13	-51.7	-62.5	3.8	8.47e-01	0	41	104	0	74	12049
2026-01-01 03:33:02.86	108.13	56.08	-51.7	-62.5	3.8	8.46e-01	0	41	104	0	74	12024
2026-01-01 03:33:03.71	108.80	56.04	-51.7	-62.5	3.8	8.47e-01	0	41	104	0	74	11979
2026-01-01 03:33:04.86	109.69	55.98	-51.6	-62.6	3.8	8.46e-01	0	41	104	0	74	12110
2026-01-01 03:33:05.72	110.36	55.93	-51.6	-62.5	3.8	8.47e-01	0	41	104	0	74	12085
2026-01-01 03:33:06.87	111.25	55.86	-51.7	-62.6	3.8	8.47e-01	0	41	104	0	74	12163
2026-01-01 03:33:07.73	111.91	55.81	-51.7	-62.6	3.8	8.48e-01	0	41	104	0	74	12120
2026-01-01 03:33:08.88	112.79	55.72	-51.7	-62.6	3.8	8.47e-01	0	41	104	0	74	12155
2026-01-01 03:33:09.74	113.45	55.66	-51.6	-62.5	3.8	8.46e-01	0	41	104	0	74	12063
2026-01-01 03:33:10.89	114.32	55.56	-51.7	-62.6	3.8	8.47e-01	0	41	104	0	74	12100
2026-01-01 03:33:11.75	114.97	55.49	-51.7	-62.6	3.8	8.46e-01	0	41	104	0	74	12184
2026-01-01 03:33:12.89	115.82	55.39	-51.6	-62.5	3.8	8.47e-01	0	41	104	0	74	12076
2026-01-01 03:33:13.76	116.47	55.30	-51.7	-62.6	3.8	8.48e-01	0	41	104	0	74	12212
2026-01-01 03:33:14.90	117.31	55.19	-51.7	-62.5	3.8	8.47e-01	0	41	104	0	74	12076
2026-01-01 03:33:15.77	117.95	55.10	-51.7	-62.5	3.8	8.47e-01	0	41	104	0	74	12088
2026-01-01 03:33:16.91	118.78	54.97	-51.6	-62.5	3.8	8.47e-01	0	41	104	0	74	12049
2026-01-01 03:33:17.77	119.40	54.88	-51.6	-62.6	3.8	8.46e-01	0	41	104	0	74	12142
2026-01-01 03:33:18.92	120.22	54.74	-51.7	-62.5	3.8	8.47e-01	0	41	104	0	74	12039
2026-01-01 03:33:19.78	120.83	54.64	-51.7	-62.6	3.8	8.47e-01	0	41	104	0	74	12112
2026-01-01 03:33:20.93	121.64	54.49	-51.7	-62.6	3.8	8.47e-01	0	41	104	0	74	12123
2026-01-01 03:33:21.79	122.24	54.38	-51.7	-62.6	3.8	8.48e-01	0	41	104	0	74	12111
2026-01-01 03:33:22.94	123.04	54.23	-51.7	-62.7	3.8	8.49e-01	0	41	104	0	74	12244
2026-01-01 03:33:23.80	123.63	54.11	-51.7	-62.6	3.8	8.47e-01	0	41	104	0	74	12115
2026-01-01 03:33:24.95	124.41	53.95	-51.7	-62.6	3.8	8.46e-01	0	41	104	0	74	12161
2026-01-01 03:33:25.81	124.99	53.83	-51.7	-62.6	3.8	8.48e-01	0	41	104	0	74	12179
2026-01-01 03:33:26.95	125.75	53.66	-51.7	-62.5	3.8	8.49e-01	0	41	104	0	74	12091
2026-01-01 03:33:27.81	126.31	53.53	-51.7	-62.6	3.8	8.46e-01	0	41	104	0	74	12122
2026-01-01 03:33:28.96	127.06	53.35	-51.7	-62.5	3.8	8.47e-01	0	41	104	0	74	12075
2026-01-01 03:33:29.82	127.62	53.22	-51.7	-62.6	3.8	8.47e-01	0	41	104	0	74	12130
2026-01-01 03:33:30.97	128.35	53.03	-51.7	-62.6	3.8	8.47e-01	0	41	104	0	74	12188
2026-01-01 03:33:31.83	128.90	52.89	-51.7	-62.6	3.8	8.47e-01	0	41	104	0	74	12109
2026-01-01 03:33:32.98	129.61	52.70	-51.7	-62.6	3.8	8.47e-01	0	41	104	0	74	12157
2026-01-01 03:33:33.84	130.14	52.56	-51.7	-62.5	3.8	8.47e-01	0	41	104	0	74	12044
2026-01-01 03:33:34.98	130.84	52.36	-51.7	-62.6	3.8	8.47e-01	0	41	104	0	74	12165
2026-01-01 03:33:35.84	131.36	52.21	-51.7	-62.6	3.8	8.47e-01	0	41	104	0	74	12154
2026-01-01 03:33:36.99	132.04	52.01	-51.7	-62.6	3.8	8.47e-01	0	41	104	0	74	12163
2026-01-01 03:33:37.85	132.55	51.85	-51.7	-62.6	3.8	8.47e-01	0	41	104	0	74	12141
2026-01-01 03:33:39.00	133.22	51.64	-51.6	-62.6	3.8	8.47e-01	0	41	104	0	74	12120
2026-01-01 03:33:39.86	133.71	51.48	-51.7	-62.6	3.8	8.47e-01	0	41	104	0	74	12155
2026-01-01 03:33:41.01	134.37	51.27	-51.7	-62.6	3.8	8.46e-01	0	41	104	0	74	12127
2026-01-01 03:33:41.87	134.85	51.11	-51.7	-62.6	3.8	8.46e-01	0	41	104	0	74	12178
2026-01-01 03:33:43.02	135.48	50.89	-51.7	-62.5	3.8	8.47e-01	0	41	104	0	74	12059
2026-01-01 03:33:43.88	135.95	50.72	-51.7	-62.6	3.8	8.46e-01	0	41	104	0	74	12143
2026-01-01 03:33:45.03	136.58	50.50	-51.7	-62.6	3.8	8.47e-01	0	41	104	0	74	12102
2026-01-01 03:33:45.89	137.03	50.33	-51.7	-62.6	3.8	8.46e-01	0	41	104	0	74	12207
2026-01-01 03:33:47.03	137.63	50.10	-51.7	-62.7	3.8	8.46e-01	0	41	104	0	74	12270
2026-01-01 03:33:47.89	138.08	49.93	-51.7	-62.6	3.8	8.46e-01	0	41	104	0	74	12146
2026-01-01 03:33:49.04	138.67	49.70	-51.7	-62.7	3.8	8.46e-01	0	41	104	0	74	12287
2026-01-01 03:33:49.90	139.10	49.53	-51.7	-62.6	3.8	8.48e-01	0	41	104	0	74	12174
2026-01-01 03:33:51.05	139.68	49.29	-51.7	-62.6	3.8	8.47e-01	0	41	104	0	74	12138
2026-01-01 03:33:51.91	140.10	49.12	-51.7	-62.6	3.8	8.46e-01	0	41	104	0	74	12185
2026-01-01 03:33:53.06	140.66	48.88	-51.7	-62.6	3.8	8.49e-01	0	41	104	0	74	12110
2026-01-01 03:33:53.92	141.07	48.70	-51.7	-62.6	3.8	8.47e-01	0	41	104	0	74	12101
2026-01-01 03:33:55.07	141.62	48.46	-51.7	-62.6	3.8	8.46e-01	0	41	104	0	74	12217
2026-01-01 03:33:55.93	142.02	48.28	-51.7	-62.6	3.8	8.47e-01	0	41	104	0	74	12167
2026-01-01 03:33:57.08	142.55	48.04	-51.7	-62.6	3.8	8.46e-01	0	41	104	0	74	12148
2026-01-01 03:33:57.94	142.94	47.85	-51.7	-62.6	3.8	8.48e-01	0	41	104	0	74	12105
2026-01-01 03:33:59.08	143.45	47.61	-51.7	-62.5	3.8	8.47e-01	0	41	104	0	74	12055
2026-01-01 03:33:59.94	143.83	47.43	-51.7	-62.6	3.8	8.47e-01	0	41	104	0	74	12141
2026-01-01 03:34:01.07	144.32	47.19	-51.7	-62.6	3.8	8.48e-01	0	41	104	0	74	12160
2026-01-01 03:34:01.93	144.69	47.00	-51.6	-62.6	3.8	8.47e-01	0	41	104	0	74	12145
2026-01-01 03:34:03.08	145.18	46.75	-51.6	-62.6	3.8	8.46e-01	0	41	104	0	74	12129
2026-01-01 03:34:03.94	145.54	46.57	-51.7	-62.6	3.8	8.47e-01	0	41	104	0	74	12226
2026-01-01 03:34:05.09	146.02	46.32	-51.6	-62.6	3.8	8.47e-01	0	41	104	0	74	12150
2026-01-01 03:34:05.95	146.37	46.13	-51.7	-62.6	3.8	8.47e-01	0	41	104	0	74	12146
2026-01-01 03:34:07.09	146.82	45.89	-51.7	-62.6	3.8	8.46e-01	0	41	104	0	74	12199
2026-01-01 03:34:07.95	147.16	45.70	-51.6	-62.7	3.8	8.47e-01	0	41	104	0	74	12248
2026-01-01 03:34:09.10	147.61	45.45	-51.6	-62.6	3.8	8.48e-01	0	41	104	0	74	12139
2026-01-01 03:34:09.96	147.95	45.26	-51.6	-62.5	3.8	8.47e-01	0	41	104	0	74	12045
2026-01-01 03:34:11.11	148.38	45.01	-51.6	-62.6	3.8	8.47e-01	0	41	104	0	74	12149
2026-01-01 03:34:11.97	148.71	44.82	-51.6	-62.5	3.8	8.47e-01	0	41	104	0	74	12040
2026-01-01 03:34:13.12	149.13	44.57	-51.6	-62.6	3.8	8.47e-01	0	41	104	0	74	12130
2026-01-01 03:34:13.98	149.45	44.38	-51.7	-62.6	3.8	8.46e-01	0	41	104	0	74	12187
2026-01-01 03:34:15.13	149.86	44.13	-51.7	-62.5	3.8	8.47e-01	0	41	104	0	74	12066
2026-01-01 03:34:15.99	150.17	43.94	-51.7	-62.6	3.8	8.47e-01	0	41	104	0	74	12111
2026-01-01 03:34:17.13	150.57	43.69	-51.6	-62.5	3.8	8.48e-01	0	41	104	0	74	12093
2026-01-01 03:34:17.99	150.86	43.51	-51.7	-62.6	3.8	8.47e-01	0	41	104	0	74	12100
2026-01-01 03:34:19.14	151.26	43.25	-51.6	-62.5	3.8	8.47e-01	0	41	104	0	74	12088
2026-01-01 03:34:20.00	151.55	43.07	-51.7	-62.6	3.8	8.47e-01	0	41	104	0	74	12139
2026-01-01 03:34:21.15	151.93	42.82	-51.7	-62.5	3.8	8.47e-01	0	41	104	0	74	12090
2026-01-01 03:34:22.01	152.21	42.63	-51.7	-62.6	3.8	8.46e-01	0	41	104	0	74	12234
2026-01-01 03:34:23.16	152.58	42.38	-51.7	-62.6	3.8	8.46e-01	0	41	104	0	74	12114
2026-01-01 03:34:24.02	152.86	42.19	-51.6	-62.6	3.8	8.48e-01	0	41	104	0	74	12204
2026-01-01 03:34:25.17	153.22	41.94	-51.7	-62.6	3.8	8.47e-01	0	41	104	0	74	12212
2026-01-01 03:34:26.03	153.49	41.76	-51.7	-62.6	3.8	8.47e-01	0	41	104	0	74	12166
2026-01-01 03:34:27.18	153.84	41.51	-51.7	-62.6	3.8	8.46e-01	0	41	104	0	74	12202
2026-01-01 03:34:28.04	154.10	41.32	-51.7	-62.6	3.8	8.47e-01	0	41	104	0	74	12156
2026-01-01 03:34:29.19	154.44	41.07	-51.7	-62.6	3.8	8.47e-01	0	41	104	0	74	12117
2026-01-01 03:34:30.05	154.70	40.89	-51.7	-62.6	3.8	8.47e-01	0	41	104	0	74	12149
2026-01-01 03:34:31.19	155.03	40.65	-51.7	-62.6	3.8	8.46e-01	0	41	104	0	74	12154
2026-01-01 03:34:32.05	155.28	40.46	-51.6	-62.5	3.8	8.47e-01	0	41	104	0	74	12085
2026-01-01 03:34:33.20	155.60	40.22	-51.6	-62.5	3.8	8.47e-01	0	41	104	0	74	12038
2026-01-01 03:34:34.06	155.84	40.03	-51.7	-62.6	3.8	8.46e-01	0	41	104	0	74	12165
2026-01-01 03:34:35.21	156.16	39.79	-51.7	-62.6	3.8	8.46e-01	0	41	104	0	74	12139
2026-01-01 03:34:36.07	156.40	39.61	-51.7	-62.6	3.8	8.47e-01	0	41	104	0	74	12133
2026-01-01 03:34:37.22	156.71	39.36	-51.6	-62.5	3.8	8.46e-01	0	41	104	0	74	12052
2026-01-01 03:34:38.08	156.93	39.18	-51.6	-62.6	3.8	8.47e-01	0	41	104	0	74	12199
2026-01-01 03:34:39.23	157.24	38.94	-51.7	-62.6	3.8	8.47e-01	0	41	104	0	74	12157
2026-01-01 03:34:40.09	157.46	38.76	-51.6	-62.6	3.8	8.46e-01	0	41	104	0	74	12140
2026-01-01 03:34:41.24	157.75	38.52	-51.7	-62.6	3.8	8.48e-01	0	41	104	0	74	12155
2026-01-01 03:34:42.10	157.97	38.34	-51.7	-62.6	3.8	8.46e-01	0	41	104	0	74	12187
2026-01-01 03:34:43.25	158.26	38.10	-51.7	-62.6	3.8	8.48e-01	0	41	104	0	74	12110
2026-01-01 03:34:44.11	158.47	37.93	-51.7	-62.6	3.8	8.48e-01	0	41	104	0	74	12130
2026-01-01 03:34:45.26	158.75	37.69	-51.6	-62.6	3.8	8.47e-01	0	41	104	0	74	12097
2026-01-01 03:34:46.12	158.96	37.51	-51.6	-62.6	3.8	8.46e-01	0	41	104	0	74	12214
2026-01-01 03:34:47.26	159.23	37.28	-51.6	-62.6	3.8	8.47e-01	0	41	104	0	74	12152
2026-01-01 03:34:48.13	159.43	37.10	-51.6	-62.5	3.8	8.47e-01	0	41	104	0	74	12069
2026-01-01 03:34:49.27	159.69	36.87	-51.7	-62.6	3.8	8.47e-01	0	41	104	0	74	12164
2026-01-01 03:34:50.13	159.89	36.70	-51.7	-62.6	3.8	8.47e-01	0	41	104	0	74	12225
2026-01-01 03:34:51.28	160.15	36.46	-51.6	-62.6	3.8	8.47e-01	0	41	104	0	74	12166
2026-01-01 03:34:52.14	160.34	36.29	-51.7	-62.6	3.8	8.47e-01	0	41	104	0	74	12151
2026-01-01 03:34:53.29	160.60	36.06	-51.7	-62.6	3.8	8.46e-01	0	41	104	0	74	12208
2026-01-01 03:34:54.15	160.78	35.89	-51.6	-62.6	3.8	8.46e-01	0	41	104	0	74	12150
2026-01-01 03:34:55.30	161.03	35.66	-51.6	-62.6	3.8	8.46e-01	0	41	104	0	74	12144
2026-01-01 03:34:56.16	161.21	35.49	-51.6	-62.6	3.8	8.46e-01	0	41	104	0	74	12165
2026-01-01 03:34:57.31	161.46	35.27	-51.7	-62.5	3.8	8.46e-01	0	41	104	0	74	12064
2026-01-01 03:34:58.17	161.63	35.10	-51.6	-62.6	3.8	8.47e-01	0	41	104	0	74	12155
2026-01-01 03:34:59.32	161.87	34.87	-51.6	-62.6	3.8	8.48e-01	0	41	104	0	74	12130
2026-01-01 03:35:00.18	162.05	34.70	-51.6	-62.6	3.8	8.47e-01	0	41	104	0	74	12140
2026-01-01 03:35:01.32	162.27	34.48	-51.7	-62.6	3.8	8.47e-01	0	41	104	0	74	12095
2026-01-01 03:35:02.19	162.45	34.32	-51.6	-62.6	3.8	8.47e-01	0	41	104	0	74	12122
2026-01-01 03:35:03.34	162.67	34.10	-51.6	-62.5	3.8	8.48e-01	0	41	104	0	74	12079
2026-01-01 03:35:04.20	162.84	33.93	-51.6	-62.6	3.8	8.46e-01	0	41	104	0	74	12161
2026-01-01 03:35:05.34	163.06	33.71	-51.6	-62.5	3.8	8.47e-01	0	41	104	0	74	12094
2026-01-01 03:35:06.21	163.22	33.55	-51.6	-62.5	3.8	8.47e-01	0	41	104	0	74	12093
2026-01-01 03:35:07.35	163.43	33.33	-51.6	-62.5	3.8	8.47e-01	0	41	104	0	74	12012
2026-01-01 03:35:08.21	163.59	33.17	-51.6	-62.5	3.8	8.47e-01	0	41	104	0	74	12066
2026-01-01 03:35:09.36	163.80	32.96	-51.7	-62.6	3.8	8.46e-01	0	41	104	0	74	12187
2026-01-01 03:35:10.22	163.96	32.80	-51.6	-62.6	3.8	8.47e-01	0	41	104	0	74	12136
2026-01-01 03:35:11.37	164.17	32.58	-51.6	-62.6	3.8	8.47e-01	0	41	104	0	74	12109
2026-01-01 03:35:12.23	164.32	32.43	-51.6	-62.6	3.8	8.47e-01	0	41	104	0	74	12135
2026-01-01 03:35:13.38	164.52	32.22	-51.6	-62.5	3.8	8.48e-01	0	41	104	0	74	12016
2026-01-01 03:35:14.24	164.67	32.06	-51.6	-62.5	3.8	8.47e-01	0	41	104	0	74	12090
2026-01-01 03:35:15.39	164.86	31.85	-51.6	-62.6	3.8	8.47e-01	0	41	104	0	74	12110
2026-01-01 03:35:16.25	165.01	31.69	-51.6	-62.5	3.8	8.48e-01	0	41	104	0	74	12026
2026-01-01 03:35:17.40	165.20	31.49	-51.6	-62.6	3.8	8.46e-01	0	41	104	0	74	12100
2026-01-01 03:35:18.26	165.35	31.33	-51.6	-62.5	3.8	8.47e-01	0	41	104	0	74	12005
2026-01-01 03:35:19.41	165.53	31.13	-51.6	-62.5	3.8	8.46e-01	0	41	104	0	74	12059
2026-01-01 03:35:20.27	165.67	30.97	-51.6	-62.5	3.8	8.46e-01	0	41	104	0	74	12039
2026-01-01 03:35:21.42	165.86	30.77	-51.6	-62.6	3.8	8.47e-01	0	41	104	0	74	12138
2026-01-01 03:35:22.28	165.99	30.62	-51.6	-62.5	3.8	8.48e-01	0	41	104	0	74	12079
2026-01-01 03:35:23.42	166.17	30.42	-51.6	-62.5	3.8	8.47e-01	0	41	104	0	74	12053
2026-01-01 03:35:24.29	166.31	30.27	-51.6	-62.5	3.8	8.46e-01	0	41	104	0	74	12002
2026-01-01 03:35:25.43	166.48	30.07	-51.6	-62.5	3.8	8.47e-01	0	41	104	0	74	12063
2026-01-01 03:35:26.29	166.61	29.92	-51.6	-62.5	3.8	8.46e-01	0	41	104	0	74	12082
2026-01-01 03:35:27.44	166.79	29.72	-51.6	-62.5	3.8	8.47e-01	0	41	104	0	74	11965
2026-01-01 03:35:28.30	166.92	29.58	-51.6	-62.6	3.8	8.46e-01	0	41	104	0	74	12107
2026-01-01 03:35:29.45	167.08	29.38	-51.6	-62.6	3.8	8.47e-01	0	41	104	0	74	12176
2026-01-01 03:35:30.49	167.24	29.21	-51.6	-62.5	3.8	8.47e-01	0	41	104	0	74	12090
2026-01-01 03:35:31.48	167.38	29.04	-51.6	-62.6	3.8	8.47e-01	0	41	104	0	74	12095
2026-01-01 03:35:32.49	167.52	28.87	-51.6	-62.5	3.8	8.47e-01	0	41	104	0	74	12039
2026-01-01 03:35:33.49	167.67	28.70	-51.6	-62.6	3.8	8.47e-01	0	41	104	0	74	12113
2026-01-01 03:35:34.49	167.81	28.54	-51.6	-62.6	3.8	8.46e-01	0	41	104	0	74	12127
2026-01-01 03:35:35.50	167.95	28.37	-51.6	-62.5	3.8	8.47e-01	0	41	104	0	74	12093
2026-01-01 03:35:36.50	168.08	28.21	-51.6	-62.6	3.8	8.47e-01	0	41	104	0	74	12123
2026-01-01 03:35:37.51	168.22	28.04	-51.6	-62.5	3.8	8.46e-01	0	41	104	0	74	12054
2026-01-01 03:35:38.51	168.35	27.88	-51.6	-62.6	3.8	8.47e-01	0	41	104	0	74	12103
2026-01-01 03:35:39.52	168.49	27.71	-51.6	-62.6	3.8	8.46e-01	0	40	104	0	74	12119
2026-01-01 03:35:40.52	168.62	27.55	-51.6	-62.6	3.8	8.47e-01	0	41	104	0	74	12133
2026-01-01 03:35:41.57	168.76	27.38	-51.6	-62.6	3.8	8.46e-01	0	41	104	0	74	12129
2026-01-01 03:35:42.47	168.87	27.24	-51.7	-62.6	3.8	8.47e-01	0	41	104	0	74	12182
2026-01-01 03:35:43.66	169.03	27.05	-51.6	-62.5	3.8	8.46e-01	0	41	104	0	74	12077
2026-01-01 03:35:44.52	169.13	26.92	-51.6	-62.5	3.8	8.47e-01	0	41	104	0	74	12089
2026-01-01 03:35:45.67	169.28	26.74	-51.6	-62.5	3.8	8.46e-01	0	41	104	0	74	12087
2026-01-01 03:35:46.53	169.39	26.60	-51.6	-62.5	3.8	8.46e-01	0	41	104	0	74	12052
2026-01-01 03:35:47.68	169.53	26.42	-51.6	-62.5	3.8	8.47e-01	0	41	104	0	74	12054
2026-01-01 03:35:48.54	169.63	26.29	-51.6	-62.5	3.8	8.46e-01	0	41	104	0	74	12035
2026-01-01 03:35:49.69	169.77	26.11	-51.6	-62.5	3.8	8.47e-01	0	41	104	0	74	12018
2026-01-01 03:35:50.55	169.87	25.98	-51.6	-62.6	3.8	8.47e-01	0	41	104	0	74	12100
2026-01-01 03:35:51.70	170.01	25.80	-51.6	-62.5	3.8	8.46e-01	0	41	104	0	74	12068
2026-01-01 03:35:52.56	170.11	25.67	-51.6	-62.5	3.8	8.47e-01	0	41	104	0	74	12002
2026-01-01 03:35:53.72	170.25	25.50	-51.6	-62.5	3.8	8.46e-01	0	41	104	0	74	12094
2026-01-01 03:35:54.59	170.35	25.37	-51.6	-62.5	3.8	8.47e-01	0	41	104	0	74	12046
2026-01-01 03:35:55.80	170.49	25.19	-51.6	-62.5	3.8	8.46e-01	0	41	104	0	74	12033
2026-01-01 03:35:56.66	170.58	25.06	-51.6	-62.5	3.8	8.46e-01	0	41	104	0	74	11995
2026-01-01 03:35:57.81	170.71	24.89	-51.6	-62.5	3.8	8.47e-01	0	41	104	0	74	12054
2026-01-01 03:35:58.66	170.81	24.76	-51.6	-62.5	3.8	8.46e-01	0	41	104	0	74	12048
2026-01-01 03:35:59.81	170.93	24.59	-51.6	-62.5	3.8	8.47e-01	0	41	104	0	74	12072
2026-01-01 03:36:00.66	171.03	24.47	-51.6	-62.5	3.8	8.47e-01	0	41	104	0	74	11980
2026-01-01 03:36:01.81	171.15	24.30	-51.6	-62.5	3.8	8.47e-01	0	41	104	0	74	12033
2026-01-01 03:36:02.67	171.24	24.18	-51.6	-62.5	3.8	8.46e-01	0	41	104	0	74	12034
2026-01-01 03:36:03.82	171.36	24.01	-51.6	-62.5	3.8	8.48e-01	0	41	104	0	74	12040
2026-01-01 03:36:04.68	171.45	23.89	-51.6	-62.5	3.8	8.47e-01	0	40	104	0	74	12037
2026-01-01 03:36:05.83	171.58	23.73	-51.6	-62.5	3.8	8.47e-01	0	41	104	0	74	11996
2026-01-01 03:36:06.69	171.66	23.60	-51.6	-62.6	3.8	8.48e-01	0	41	104	0	74	12108
2026-01-01 03:36:07.83	171.78	23.44	-51.6	-62.5	3.8	8.47e-01	0	41	104	0	74	12090
2026-01-01 03:36:08.70	171.87	23.32	-51.6	-62.5	3.8	8.48e-01	0	41	104	0	74	12039
2026-01-01 03:36:09.84	171.98	23.16	-51.6	-62.5	3.8	8.47e-01	0	41	104	0	74	12061
2026-01-01 03:36:10.70	172.07	23.04	-51.6	-62.6	3.8	8.46e-01	0	41	104	0	74	12210
2026-01-01 03:36:11.85	172.18	22.88	-51.6	-62.6	3.8	8.48e-01	0	41	104	0	74	12102
2026-01-01 03:36:12.71	172.27	22.76	-51.6	-62.6	3.8	8.47e-01	0	41	104	0	74	12097
2026-01-01 03:36:13.86	172.38	22.61	-51.6	-62.5	3.8	8.47e-01	0	41	104	0	74	12084
2026-01-01 03:36:14.72	172.46	22.49	-51.6	-62.5	3.8	8.47e-01	0	41	104	0	74	12088
2026-01-01 03:36:15.87	172.57	22.33	-51.6	-62.5	3.8	8.48e-01	0	40	104	0	74	12052
2026-01-01 03:36:16.73	172.66	22.22	-51.6	-62.5	3.8	8.47e-01	0	41	104	0	74	12037
2026-01-01 03:36:17.88	172.76	22.06	-51.6	-62.5	3.8	8.47e-01	0	41	104	0	74	12068
2026-01-01 03:36:18.74	172.84	21.95	-51.6	-62.6	3.8	8.47e-01	0	41	104	0	74	12099
2026-01-01 03:36:19.89	172.95	21.79	-51.6	-62.5	3.8	8.46e-01	0	41	104	0	74	12070
2026-01-01 03:36:20.75	173.03	21.68	-51.6	-62.6	3.8	8.46e-01	0	41	104	0	74	12122
2026-01-01 03:36:21.90	173.13	21.53	-51.6	-62.6	3.8	8.46e-01	0	41	104	0	74	12164
2026-01-01 03:36:22.76	173.21	21.42	-51.6	-62.6	3.8	8.47e-01	0	41	104	0	74	12146
2026-01-01 03:36:23.91	173.32	21.27	-51.6	-62.5	3.8	8.47e-01	0	41	104	0	74	12059
2026-01-01 03:36:24.77	173.39	21.15	-51.6	-62.5	3.8	8.47e-01	0	41	104	0	74	12060
2026-01-01 03:36:25.91	173.49	21.01	-51.6	-62.5	3.8	8.47e-01	0	41	104	0	74	11992
2026-01-01 03:36:26.78	173.57	20.89	-51.6	-62.5	3.8	8.48e-01	0	41	104	0	74	12031
2026-01-01 03:36:27.92	173.67	20.75	-51.6	-62.5	3.8	8.48e-01	0	41	104	0	74	12026
2026-01-01 03:36:28.78	173.74	20.64	-51.6	-62.5	3.8	8.47e-01	0	40	104	0	74	12045
2026-01-01 03:36:29.93	173.84	20.49	-51.6	-62.4	3.8	8.46e-01	0	41	104	0	74	11938
2026-01-01 03:36:30.79	173.91	20.38	-51.6	-62.5	3.8	8.48e-01	0	41	104	0	74	12085
2026-01-01 03:36:31.94	174.01	20.24	-51.6	-62.6	3.8	8.47e-01	0	41	104	0	74	12110
2026-01-01 03:36:32.80	174.08	20.13	-51.6	-62.5	3.8	8.47e-01	0	41	104	0	74	12036
2026-01-01 03:36:33.95	174.18	19.99	-51.6	-62.5	3.8	8.46e-01	0	41	104	0	74	12082
2026-01-01 03:36:34.81	174.25	19.88	-51.6	-62.5	3.8	8.46e-01	0	41	104	0	74	12076
2026-01-01 03:36:35.96	174.34	19.74	-51.6	-62.5	3.8	8.47e-01	0	41	104	0	74	12025
2026-01-01 03:36:36.82	174.41	19.63	-51.6	-62.5	3.8	8.47e-01	0	41	104	0	74	12054
2026-01-01 03:36:37.96	174.50	19.49	-51.6	-62.6	3.8	8.46e-01	0	41	104	0	74	12119
2026-01-01 03:36:38.83	174.57	19.39	-51.6	-62.5	3.8	8.47e-01	0	41	104	0	74	12046
2026-01-01 03:36:39.97	174.66	19.25	-51.6	-62.5	3.8	8.46e-01	0	41	104	0	74	12094
2026-01-01 03:36:40.83	174.73	19.14	-51.6	-62.5	3.8	8.47e-01	0	40	104	0	74	12032
2026-01-01 03:36:41.98	174.82	19.00	-51.6	-62.5	3.8	8.47e-01	0	41	104	0	74	12090
2026-01-01 03:36:42.84	174.88	18.90	-51.6	-62.5	3.8	8.47e-01	0	41	104	0	74	11991
2026-01-01 03:36:43.99	174.97	18.76	-51.6	-62.5	3.8	8.46e-01	0	41	104	0	74	11987
2026-01-01 03:36:44.85	175.04	18.66	-51.6	-62.5	3.8	8.46e-01	0	41	104	0	74	12089
2026-01-01 03:36:46.00	175.12	18.53	-51.6	-62.5	3.8	8.47e-01	0	41	104	0	74	12035
2026-01-01 03:36:46.86	175.19	18.42	-51.6	-62.5	3.8	8.47e-01	0	41	104	0	74	12064
2026-01-01 03:36:48.01	175.27	18.29	-51.6	-62.5	3.8	8.46e-01	0	41	104	0	74	12071
2026-01-01 03:36:48.87	175.34	18.19	-51.6	-62.5	3.8	8.46e-01	0	41	104	0	74	11993
2026-01-01 03:36:50.02	175.42	18.06	-51.6	-62.5	3.8	8.46e-01	0	40	104	0	74	12011
2026-01-01 03:36:50.88	175.48	17.96	-51.6	-62.5	3.8	8.48e-01	0	40	104	0	74	12071
2026-01-01 03:36:52.03	175.57	17.82	-51.6	-62.5	3.8	8.47e-01	0	41	104	0	74	11973
2026-01-01 03:36:52.89	175.63	17.73	-51.6	-62.5	3.8	8.46e-01	0	41	104	0	73	12774
2026-01-01 03:36:54.04	175.71	17.59	-51.6	-62.5	3.8	8.47e-01	0	41	104	0	73	12802
2026-01-01 03:36:54.90	175.77	17.50	-51.6	-62.6	3.8	8.48e-01	0	41	104	0	73	12814
2026-01-01 03:36:56.04	175.85	17.37	-51.6	-62.5	3.8	8.46e-01	0	41	104	0	73	12747
2026-01-01 03:36:56.91	175.91	17.27	-51.6	-62.5	3.8	8.47e-01	0	40	104	0	73	12727
2026-01-01 03:36:58.05	175.99	17.14	-51.6	-62.5	3.8	8.47e-01	0	41	104	0	73	12678
2026-01-01 03:36:58.91	176.05	17.04	-51.6	-62.5	3.8	8.47e-01	0	40	104	0	73	12764
2026-01-01 03:37:00.06	176.13	16.92	-51.6	-62.5	3.8	8.48e-01	0	41	104	0	73	12794
2026-01-01 03:37:00.92	176.19	16.82	-51.6	-62.5	3.8	8.47e-01	0	41	104	0	73	12696
2026-01-01 03:37:02.07	176.26	16.69	-51.6	-62.5	3.8	8.46e-01	0	41	104	0	73	12802
2026-01-01 03:37:02.93	176.32	16.60	-51.6	-62.5	3.8	8.47e-01	0	41	104	0	73	12775
2026-01-01 03:37:04.08	176.40	16.47	-51.6	-62.5	3.8	8.45e-01	0	41	104	0	73	12730
2026-01-01 03:37:04.94	176.45	16.38	-51.6	-62.5	3.8	8.47e-01	0	41	104	0	73	12770
2026-01-01 03:37:06.09	176.53	16.26	-51.6	-62.5	3.8	8.47e-01	0	41	104	0	73	12798
2026-01-01 03:37:06.95	176.59	16.16	-51.6	-62.5	3.8	8.47e-01	0	41	104	0	73	12723
2026-01-01 03:37:08.10	176.66	16.04	-51.6	-62.5	3.8	8.48e-01	0	41	104	0	73	12689
2026-01-01 03:37:08.96	176.71	15.95	-51.6	-62.6	3.8	8.45e-01	0	41	104	0	73	12836
2026-01-01 03:37:10.10	176.79	15.83	-51.6	-62.5	3.8	8.48e-01	0	41	104	0	73	12759
2026-01-01 03:37:10.96	176.84	15.73	-51.6	-62.5	3.8	8.46e-01	0	41	104	0	73	12753
2026-01-01 03:37:12.11	176.91	15.61	-51.6	-62.5	3.8	8.46e-01	0	41	104	0	73	12738
2026-01-01 03:37:12.97	176.97	15.52	-51.6	-62.5	3.8	8.46e-01	0	41	104	0	73	12682
2026-01-01 03:37:14.12	177.04	15.40	-51.6	-62.5	3.8	8.48e-01	0	41	104	0	73	12708
2026-01-01 03:37:14.98	177.09	15.31	-51.6	-62.5	3.8	8.47e-01	0	41	104	0	73	12750
2026-01-01 03:37:16.13	177.16	15.19	-51.6	-62.5	3.8	8.47e-01	0	41	104	0	73	12675
2026-01-01 03:37:16.99	177.21	15.10	-51.5	-62.4	3.8	8.46e-01	0	41	104	0	73	12607
2026-01-01 03:37:18.14	177.28	14.98	-51.5	-62.4	3.8	8.47e-01	0	41	104	0	73	12648
2026-01-01 03:37:19.00	177.33	14.89	-51.5	-62.5	3.8	8.47e-01	0	41	104	0	73	12675
2026-01-01 03:37:20.15	177.40	14.78	-51.5	-62.4	3.8	8.46e-01	0	41	104	0	73	12629
2026-01-01 03:37:21.01	177.45	14.69	-51.5	-62.4	3.8	8.46e-01	0	41	104	0	73	12564
2026-01-01 03:37:22.16	177.52	14.57	-51.5	-62.5	3.8	8.47e-01	0	41	104	0	73	12697
2026-01-01 03:37:23.02	177.57	14.49	-51.5	-62.4	3.8	8.46e-01	0	41	104	0	73	12654
2026-01-01 03:37:24.17	177.64	14.37	-51.5	-62.5	3.8	8.46e-01	0	41	104	0	73	12701
2026-01-01 03:37:25.03	177.69	14.28	-51.6	-62.5	3.8	8.48e-01	0	41	104	0	73	12689
2026-01-01 03:37:26.18	177.75	14.17	-51.5	-62.4	3.8	8.46e-01	0	40	104	0	73	12664
2026-01-01 03:37:27.04	177.80	14.08	-51.5	-62.5	3.8	8.46e-01	0	40	104	0	73	12759
2026-01-01 03:37:28.19	177.87	13.97	-51.6	-62.4	3.8	8.47e-01	0	41	104	0	73	12649
2026-01-01 03:37:29.05	177.92	13.88	-51.5	-62.4	3.8	8.47e-01	0	41	104	0	73	12647
2026-01-01 03:37:30.19	177.98	13.77	-51.5	-62.4	3.8	8.46e-01	0	41	104	0	73	12648
2026-01-01 03:37:31.05	178.03	13.69	-51.6	-62.5	3.8	8.47e-01	0	41	104	0	73	12667
2026-01-01 03:37:32.20	178.09	13.57	-51.6	-62.5	3.8	8.46e-01	0	41	104	0	73	12783
2026-01-01 03:37:33.06	178.14	13.49	-51.6	-62.5	3.8	8.46e-01	0	41	104	0	73	12691
2026-01-01 03:37:34.21	178.20	13.38	-51.6	-62.5	3.8	8.46e-01	0	41	104	0	73	12732
2026-01-01 03:37:35.07	178.25	13.29	-51.6	-62.5	3.8	8.47e-01	0	40	104	0	73	12706
2026-01-01 03:37:36.22	178.31	13.18	-51.6	-62.5	3.8	8.48e-01	0	41	104	0	73	12716
2026-01-01 03:37:37.08	178.36	13.10	-51.6	-62.5	3.8	8.47e-01	0	40	104	0	73	12797
2026-01-01 03:37:38.23	178.42	12.99	-51.6	-62.5	3.8	8.47e-01	0	41	104	0	73	12710
2026-01-01 03:37:39.09	178.46	12.91	-51.6	-62.6	3.8	8.47e-01	0	41	104	0	73	12852
2026-01-01 03:37:40.24	178.52	12.80	-51.6	-62.5	3.8	8.48e-01	0	41	104	0	73	12776
2026-01-01 03:37:41.10	178.57	12.72	-51.6	-62.5	3.8	8.46e-01	0	41	104	0	73	12714
2026-01-01 03:37:42.24	178.63	12.61	-51.6	-62.5	3.8	8.46e-01	0	41	104	0	73	12770
2026-01-01 03:37:43.11	178.67	12.53	-51.6	-62.5	3.8	8.47e-01	0	41	104	0	73	12750
2026-01-01 03:37:44.25	178.73	12.42	-51.6	-62.6	3.8	8.47e-01	0	41	104	0	73	12829
2026-01-01 03:37:45.11	178.77	12.34	-51.6	-62.6	3.8	8.47e-01	0	41	104	0	73	12825
2026-01-01 03:37:46.26	178.83	12.24	-51.6	-62.5	3.8	8.46e-01	0	41	104	0	73	12699
2026-01-01 03:37:47.12	178.87	12.16	-51.6	-62.6	3.8	8.46e-01	0	41	104	0	73	12833
2026-01-01 03:37:48.27	178.93	12.05	-51.6	-62.6	3.8	8.46e-01	0	41	104	0	73	12833
2026-01-01 03:37:49.13	178.98	11.97	-51.6	-62.5	3.8	8.47e-01	0	41	104	0	73	12805
2026-01-01 03:37:50.28	179.03	11.87	-51.6	-62.5	3.8	8.46e-01	0	41	104	0	73	12769
2026-01-01 03:37:51.14	179.07	11.79	-51.6	-62.5	3.8	8.48e-01	0	41	104	0	73	12785
2026-01-01 03:37:52.29	179.13	11.68	-51.6	-62.5	3.8	8.46e-01	0	41	104	0	73	12786
2026-01-01 03:37:53.15	179.17	11.61	-51.7	-62.6	3.8	8.46e-01	0	41	104	0	73	12898
2026-01-01 03:37:54.30	179.23	11.50	-51.7	-62.6	3.8	8.46e-01	0	41	104	0	73	12908
2026-01-01 03:37:55.16	179.27	11.43	-51.7	-62.6	3.8	8.47e-01	0	41	104	0	73	12870
2026-01-01 03:37:56.30	179.32	11.32	-51.7	-62.6	3.8	8.48e-01	0	40	104	0	73	12873
2026-01-01 03:37:57.17	179.36	11.25	-51.7	-62.6	3.8	8.48e-01	0	41	104	0	73	12919
2026-01-01 03:37:58.31	179.42	11.14	-51.7	-62.6	3.8	8.47e-01	0	41	104	0	73	12854
2026-01-01 03:37:59.17	179.46	11.07	-51.7	-62.5	3.8	8.48e-01	0	41	104	0	73	12793
2026-01-01 03:38:00.32	179.51	10.97	-51.6	-62.6	3.8	8.47e-01	0	41	104	0	73	12844
2026-01-01 03:38:01.18	179.55	10.89	-51.6	-62.6	3.8	8.47e-01	0	41	104	0	73	12825
2026-01-01 03:38:02.33	179.61	10.79	-51.7	-62.6	3.8	8.46e-01	0	41	104	0	73	12930
2026-01-01 03:38:03.19	179.65	10.71	-51.7	-62.6	3.8	8.47e-01	0	41	104	0	73	12821
2026-01-01 03:38:04.34	179.70	10.61	-51.6	-62.6	3.8	8.46e-01	0	40	104	0	73	12912
2026-01-01 03:38:05.20	179.74	10.54	-51.7	-62.6	3.8	8.45e-01	0	41	104	0	73	12857
2026-01-01 03:38:06.35	179.79	10.44	-51.6	-62.6	3.8	8.48e-01	0	41	104	0	73	12819
2026-01-01 03:38:07.21	179.83	10.37	-51.6	-62.5	3.8	8.46e-01	0	41	104	0	73	12805
2026-01-01 03:38:08.35	179.88	10.27	-51.6	-62.5	3.8	8.47e-01	0	41	104	0	73	12757
2026-01-01 03:38:09.22	179.92	10.19	-51.7	-62.5	3.8	8.46e-01	0	41	104	0	73	12789
2026-01-01 03:38:10.36	179.97	10.10	-51.6	-62.6	3.8	8.46e-01	0	41	104	0	73	12823
2026-01-01 03:38:11.22	180.00	10.02	-51.6	-62.5	3.8	8.48e-01	0	41	104	0	73	12751
2026-01-01 03:38:12.37	180.05	9.92	-51.6	-62.6	3.8	8.48e-01	0	41	104	0	73	12827
2026-01-01 03:38:13.23	180.09	9.85	-51.6	-62.5	3.8	8.48e-01	0	41	104	0	73	12759
2026-01-01 03:38:14.38	180.14	9.76	-51.6	-62.5	3.8	8.47e-01	0	41	104	0	73	12796
2026-01-01 03:38:15.24	180.18	9.68	-51.6	-62.5	3.8	8.47e-01	0	41	104	0	73	12799
2026-01-01 03:38:16.39	180.23	9.59	-51.6	-62.5	3.8	8.47e-01	0	41	104	0	73	12745
2026-01-01 03:38:17.25	180.26	9.51	-51.6	-62.6	3.8	8.46e-01	0	41	104	0	73	12856
2026-01-01 03:38:18.39	180.31	9.42	-51.6	-62.6	3.8	8.47e-01	0	41	104	0	73	12822
2026-01-01 03:38:19.26	180.35	9.35	-51.6	-62.6	3.8	8.47e-01	0	41	104	0	73	12884
2026-01-01 03:38:20.40	180.40	9.25	-51.6	-62.5	3.8	8.47e-01	0	40	104	0	73	12739
2026-01-01 03:38:21.26	180.43	9.18	-51.6	-62.5	3.8	8.46e-01	0	41	104	0	73	12738
2026-01-01 03:38:22.41	180.48	9.09	-51.6	-62.5	3.8	8.47e-01	0	41	104	0	73	12735
2026-01-01 03:38:23.27	180.52	9.02	-51.6	-62.5	3.8	8.47e-01	0	41	104	0	73	12807
2026-01-01 03:38:24.42	180.56	8.92	-51.6	-62.6	3.8	8.47e-01	0	41	104	0	73	12858
2026-01-01 03:38:25.28	180.60	8.85	-51.6	-62.5	3.8	8.47e-01	0	41	104	0	73	12791
2026-01-01 03:38:26.43	180.64	8.76	-51.6	-62.5	3.8	8.46e-01	0	41	104	0	73	12766
2026-01-01 03:38:27.29	180.68	8.69	-51.6	-62.6	3.8	8.46e-01	0	41	104	0	73	12863
2026-01-01 03:38:28.44	180.73	8.60	-51.6	-62.6	3.8	8.46e-01	0	41	104	0	73	12826
2026-01-01 03:38:29.30	180.76	8.53	-51.6	-62.5	3.8	8.48e-01	0	41	104	0	73	12686
2026-01-01 03:38:30.45	180.81	8.44	-51.7	-62.6	3.8	8.47e-01	0	41	104	0	73	12827
2026-01-01 03:38:31.31	180.84	8.37	-51.6	-62.6	3.8	8.47e-01	0	41	104	0	73	12855
2026-01-01 03:38:32.45	180.88	8.28	-51.6	-62.6	3.8	8.46e-01	0	41	104	0	73	12847
2026-01-01 03:38:33.43	180.92	8.20	-51.6	-62.6	3.8	8.46e-01	0	41	104	0	73	12829
2026-01-01 03:38:34.43	180.96	8.12	-51.6	-62.6	3.8	8.48e-01	0	41	104	0	73	12817
2026-01-01 03:38:35.43	181.00	8.04	-51.6	-62.6	3.8	8.46e-01	0	41	104	0	73	12913
2026-01-01 03:38:36.44	181.04	7.96	-51.6	-62.5	3.8	8.47e-01	0	41	104	0	73	12751
2026-01-01 03:38:37.44	181.08	7.88	-51.6	-62.6	3.8	8.48e-01	0	41	104	0	73	12895
2026-01-01 03:38:38.45	181.12	7.81	-51.6	-62.6	3.8	8.46e-01	0	40	104	0	73	12844
2026-01-01 03:38:39.45	181.15	7.73	-51.6	-62.6	3.8	8.47e-01	0	41	104	0	73	12852
2026-01-01 03:38:40.46	181.19	7.65	-51.6	-62.5	3.8	8.46e-01	0	41	104	0	73	12790
2026-01-01 03:38:41.46	181.23	7.57	-51.6	-62.5	3.8	8.47e-01	0	41	104	0	73	12791
2026-01-01 03:38:42.47	181.27	7.49	-51.6	-62.6	3.8	8.47e-01	0	41	104	0	73	12825
2026-01-01 03:38:43.52	181.31	7.41	-51.6	-62.5	3.8	8.46e-01	0	41	104	0	73	12774
2026-01-01 03:38:44.39	181.34	7.35	-51.7	-62.5	3.8	8.47e-01	0	41	104	0	73	12787
2026-01-01 03:38:45.54	181.38	7.26	-51.7	-62.6	3.8	8.48e-01	0	41	104	0	73	12875
2026-01-01 03:38:46.48	181.42	7.19	-51.7	-62.6	3.8	8.48e-01	0	41	104	0	73	12874
2026-01-01 03:38:47.66	181.46	7.10	-51.7	-62.6	3.8	8.47e-01	0	41	104	0	73	12855
2026-01-01 03:38:48.52	181.49	7.03	-51.7	-62.6	3.8	8.48e-01	0	41	104	0	73	12842
2026-01-01 03:38:49.67	181.53	6.94	-51.7	-62.5	3.8	8.47e-01	0	41	104	0	73	12765
2026-01-01 03:38:50.53	181.56	6.88	-51.7	-62.6	3.8	8.47e-01	0	41	104	0	73	12866
2026-01-01 03:38:51.68	181.60	6.79	-51.6	-62.5	3.8	8.47e-01	0	41	104	0	73	12772
2026-01-01 03:38:52.54	181.63	6.73	-51.6	-62.6	3.8	8.47e-01	0	41	104	0	73	12890
