passes_logs/2026/01/01/T1/T1__20260101_005829_NOAA_20_JPSS-1_rec.log

#Pass ID: 20260101_005829_NOAA 20 (JPSS-1)
#Satellite: NOAA 20 (JPSS-1)
#Configuration: NOAA 20
#almurnet v.1.7.20251203
#Start time: 2026-01-01 00:58:29

#Version: 2.0.20230620
#Station: T1
#Location: 37.570604 lon 55.790049 lat
#TLE: 1 43013U 17073A   25365.45761817  .00000173  00000+0  10307-3 0  9993
#TLE: 2 43013  98.7620 301.5517 0001951  60.3814 299.7557 14.19531661420675

#Time	Az	El	Level	Level2	SNR	BER	BlckErr	Temp	State	Recorded	gain1	gain2
2026-01-01 00:58:29.28	8.73	4.96	-51.6	-66.8	3.8	1.49e+00	0	39	0	0	73	22276
2026-01-01 00:58:30.28	8.67	5.02	-51.6	-66.8	3.8	1.49e+00	0	39	104	0	75	19879
2026-01-01 00:58:31.29	8.61	5.09	-51.6	-66.8	3.8	1.49e+00	0	39	104	0	75	19873
2026-01-01 00:58:32.29	8.55	5.15	-51.6	-66.8	3.8	1.49e+00	0	39	104	0	75	19909
2026-01-01 00:58:33.52	8.47	5.23	-51.6	-66.8	3.8	1.49e+00	0	39	104	0	75	20010
2026-01-01 00:58:34.41	8.41	5.29	-51.6	-66.8	3.8	1.49e+00	0	39	104	0	75	19973
2026-01-01 00:58:35.60	8.34	5.37	-51.6	-66.8	3.8	1.49e+00	0	39	104	0	75	19870
2026-01-01 00:58:36.48	8.28	5.43	-51.6	-66.7	3.8	1.49e+00	0	39	104	0	75	19832
2026-01-01 00:58:37.63	8.21	5.50	-51.6	-66.8	3.8	1.49e+00	0	40	104	0	75	19870
2026-01-01 00:58:38.49	8.15	5.56	-51.6	-66.7	3.8	1.49e+00	0	40	104	0	75	19841
2026-01-01 00:58:39.64	8.08	5.64	-51.6	-66.8	3.8	1.49e+00	0	40	104	0	75	20053
2026-01-01 00:58:40.50	8.02	5.69	-51.6	-66.8	3.8	1.49e+00	0	40	104	0	75	19952
2026-01-01 00:58:41.65	7.95	5.77	-51.6	-66.8	3.8	1.49e+00	0	40	104	0	75	20001
2026-01-01 00:58:42.51	7.89	5.83	-51.6	-66.8	3.8	1.49e+00	0	40	104	0	75	19944
2026-01-01 00:58:43.66	7.82	5.90	-51.6	-66.7	3.8	1.49e+00	0	40	104	0	75	19841
2026-01-01 00:58:44.51	7.76	5.96	-51.6	-66.8	3.8	1.49e+00	0	40	104	0	75	19880
2026-01-01 00:58:45.66	7.68	6.04	-51.6	-66.8	3.8	1.49e+00	0	40	104	0	75	19892
2026-01-01 00:58:46.52	7.62	6.09	-51.6	-66.8	3.8	1.49e+00	0	40	104	0	75	19938
2026-01-01 00:58:47.73	7.54	6.17	-51.6	-66.7	3.8	1.49e+00	0	40	104	0	75	19822
2026-01-01 00:58:48.60	7.48	6.23	-51.6	-66.8	3.8	1.49e+00	0	40	104	0	75	19974
2026-01-01 00:58:49.74	7.41	6.31	-51.6	-66.8	3.8	1.49e+00	0	40	104	0	75	20038
2026-01-01 00:58:50.60	7.35	6.37	-51.6	-66.7	3.8	1.49e+00	0	40	104	0	75	19835
2026-01-01 00:58:51.75	7.27	6.45	-51.6	-66.8	3.8	1.49e+00	0	40	104	0	75	19886
2026-01-01 00:58:52.61	7.21	6.50	-51.6	-66.8	3.8	1.49e+00	0	40	104	0	75	19949
2026-01-01 00:58:53.76	7.13	6.58	-51.6	-66.8	3.8	1.49e+00	0	40	104	0	75	19862
2026-01-01 00:58:54.62	7.07	6.64	-51.6	-66.7	3.8	1.49e+00	0	40	104	0	75	19815
2026-01-01 00:58:55.77	6.99	6.72	-51.6	-66.7	3.8	1.49e+00	0	40	104	0	75	19828
2026-01-01 00:58:56.63	6.93	6.78	-51.6	-66.8	3.8	1.49e+00	0	40	104	0	75	19891
2026-01-01 00:58:57.77	6.85	6.86	-51.6	-66.8	3.8	1.49e+00	0	40	104	0	75	19941
2026-01-01 00:58:58.63	6.79	6.91	-51.6	-66.8	3.8	1.49e+00	0	40	104	0	75	19849
2026-01-01 00:58:59.78	6.71	6.99	-51.6	-66.7	3.8	1.49e+00	0	41	104	0	75	19816
2026-01-01 00:59:00.64	6.64	7.05	-51.6	-66.7	3.8	1.49e+00	0	40	104	0	75	19760
2026-01-01 00:59:01.79	6.56	7.13	-51.6	-66.8	3.8	1.49e+00	0	40	104	0	75	19862
2026-01-01 00:59:02.65	6.50	7.19	-51.6	-66.8	3.8	1.49e+00	0	41	104	0	75	19924
2026-01-01 00:59:03.80	6.42	7.27	-51.6	-66.8	3.8	1.49e+00	0	41	104	0	75	19966
2026-01-01 00:59:04.66	6.35	7.33	-51.6	-66.8	3.8	1.49e+00	0	41	104	0	75	19936
2026-01-01 00:59:05.81	6.27	7.41	-51.6	-66.8	3.8	1.49e+00	0	41	104	0	75	19870
2026-01-01 00:59:06.67	6.20	7.47	-51.6	-66.8	3.8	1.49e+00	0	41	104	0	75	19960
2026-01-01 00:59:07.82	6.12	7.55	-51.6	-66.7	3.8	1.49e+00	0	41	104	0	75	19815
2026-01-01 00:59:08.68	6.05	7.61	-51.6	-66.7	3.8	1.49e+00	0	41	104	0	75	19790
2026-01-01 00:59:09.82	5.97	7.69	-51.6	-66.8	3.8	1.49e+00	0	41	104	0	75	19929
2026-01-01 00:59:10.68	5.90	7.75	-51.6	-66.8	3.8	1.49e+00	0	41	104	0	75	19974
2026-01-01 00:59:11.83	5.82	7.83	-51.6	-66.8	3.8	1.49e+00	0	41	104	0	75	19971
2026-01-01 00:59:12.69	5.75	7.89	-51.6	-66.8	3.8	1.49e+00	0	41	104	0	75	19918
2026-01-01 00:59:13.84	5.66	7.98	-51.6	-66.8	3.8	1.49e+00	0	41	104	0	75	19998
2026-01-01 00:59:14.70	5.60	8.04	-51.6	-66.8	3.8	1.49e+00	0	41	104	0	75	19954
2026-01-01 00:59:15.85	5.51	8.12	-51.6	-66.8	3.8	1.49e+00	0	41	104	0	75	19853
2026-01-01 00:59:16.71	5.44	8.18	-51.6	-66.8	3.8	1.49e+00	0	41	104	0	75	19912
2026-01-01 00:59:17.86	5.35	8.26	-51.6	-66.8	3.8	1.49e+00	0	41	104	0	75	19886
2026-01-01 00:59:18.72	5.28	8.32	-51.5	-66.8	3.8	1.49e+00	0	41	104	0	74	21083
2026-01-01 00:59:19.87	5.19	8.41	-51.5	-66.8	3.8	1.49e+00	0	41	104	0	74	21063
2026-01-01 00:59:20.73	5.12	8.47	-51.4	-66.8	3.8	1.49e+00	0	41	104	0	74	21082
2026-01-01 00:59:21.87	5.03	8.55	-51.4	-66.7	3.8	1.49e+00	0	41	104	0	74	21013
2026-01-01 00:59:22.74	4.96	8.61	-51.6	-66.7	3.8	1.49e+00	0	41	104	0	74	20976
2026-01-01 00:59:23.88	4.87	8.69	-51.6	-66.8	3.8	1.49e+00	0	41	104	0	74	21057
2026-01-01 00:59:24.74	4.80	8.76	-51.6	-66.8	3.8	1.49e+00	0	41	104	0	74	21051
2026-01-01 00:59:25.89	4.71	8.84	-51.6	-66.8	3.8	1.49e+00	0	41	104	0	74	21230
2026-01-01 00:59:26.75	4.64	8.90	-51.6	-66.8	3.8	1.49e+00	0	41	104	0	74	21132
2026-01-01 00:59:27.90	4.54	8.99	-51.6	-66.8	3.8	1.49e+00	0	41	104	0	74	21018
2026-01-01 00:59:28.76	4.47	9.05	-51.6	-66.8	3.8	1.49e+00	0	41	104	0	74	21096
2026-01-01 00:59:29.91	4.38	9.13	-51.6	-66.8	3.8	1.49e+00	0	41	104	0	74	21243
2026-01-01 00:59:30.77	4.30	9.20	-51.6	-66.8	3.8	1.49e+00	0	41	104	0	74	21047
2026-01-01 00:59:31.92	4.21	9.28	-51.6	-66.8	3.8	1.49e+00	0	41	104	0	74	21126
2026-01-01 00:59:32.78	4.13	9.34	-51.6	-66.8	3.8	1.49e+00	0	41	104	0	74	21139
2026-01-01 00:59:33.93	4.04	9.43	-51.6	-66.7	3.8	1.49e+00	0	41	104	0	74	20998
2026-01-01 00:59:34.79	3.96	9.49	-51.6	-66.8	3.8	1.49e+00	0	41	104	0	74	21160
2026-01-01 00:59:35.94	3.86	9.58	-51.6	-66.8	3.8	1.49e+00	0	41	104	0	74	21088
2026-01-01 00:59:36.80	3.79	9.64	-51.6	-66.7	3.8	1.49e+00	0	41	104	0	74	21014
2026-01-01 00:59:37.95	3.69	9.73	-51.6	-66.8	3.8	1.49e+00	0	41	104	0	74	21046
2026-01-01 00:59:38.81	3.62	9.79	-51.6	-66.8	3.8	1.49e+00	0	41	104	0	74	21106
2026-01-01 00:59:39.95	3.52	9.88	-51.6	-66.8	3.8	1.49e+00	0	41	104	0	74	21099
2026-01-01 00:59:40.81	3.44	9.94	-51.6	-66.8	3.8	1.49e+00	0	41	104	0	74	21131
2026-01-01 00:59:41.96	3.34	10.03	-51.6	-66.8	3.8	1.49e+00	0	41	104	0	74	21168
2026-01-01 00:59:42.82	3.26	10.09	-51.6	-66.8	3.8	1.49e+00	0	41	104	0	74	21092
2026-01-01 00:59:43.97	3.16	10.18	-51.6	-66.8	3.8	1.49e+00	0	41	104	0	74	21092
2026-01-01 00:59:44.82	3.08	10.24	-51.6	-66.8	3.8	1.49e+00	0	41	104	0	74	21189
2026-01-01 00:59:45.97	2.98	10.33	-51.6	-66.8	3.8	1.49e+00	0	41	104	0	74	21079
2026-01-01 00:59:46.83	2.90	10.40	-51.6	-66.8	3.8	1.49e+00	0	41	104	0	74	21069
2026-01-01 00:59:47.98	2.79	10.48	-51.7	-66.8	3.8	1.49e+00	0	41	104	0	74	21211
2026-01-01 00:59:48.84	2.71	10.55	-51.6	-66.7	3.8	1.49e+00	0	41	104	0	74	21017
2026-01-01 00:59:49.99	2.61	10.64	-51.6	-66.8	3.8	1.49e+00	0	41	104	0	74	21053
2026-01-01 00:59:50.85	2.53	10.70	-51.6	-66.8	3.8	1.49e+00	0	41	104	0	74	21031
2026-01-01 00:59:52.00	2.42	10.79	-51.6	-66.8	3.8	1.49e+00	0	41	104	0	74	21050
2026-01-01 00:59:52.86	2.34	10.86	-51.6	-66.8	3.8	1.49e+00	0	41	104	0	74	21160
2026-01-01 00:59:54.00	2.23	10.94	-51.6	-66.8	3.8	1.49e+00	0	42	104	0	74	21081
2026-01-01 00:59:54.86	2.15	11.01	-51.6	-66.8	3.8	1.49e+00	0	42	104	0	74	21121
2026-01-01 00:59:56.01	2.04	11.10	-51.6	-66.7	3.8	1.49e+00	0	42	104	0	74	21004
2026-01-01 00:59:56.87	1.95	11.17	-51.6	-66.8	3.8	1.49e+00	0	42	104	0	74	21040
2026-01-01 00:59:58.02	1.84	11.26	-51.6	-66.8	3.8	1.49e+00	0	42	104	0	74	21121
2026-01-01 00:59:58.88	1.76	11.32	-51.6	-66.7	3.8	1.49e+00	0	42	104	0	74	20985
2026-01-01 01:00:00.03	1.65	11.41	-51.6	-66.7	3.8	1.49e+00	0	42	104	0	74	20952
2026-01-01 01:00:00.89	1.56	11.48	-51.6	-66.7	3.8	1.49e+00	0	41	104	0	74	20995
2026-01-01 01:00:02.04	1.45	11.57	-51.6	-66.7	3.8	1.49e+00	0	41	104	0	74	20999
2026-01-01 01:00:02.90	1.36	11.64	-51.6	-66.8	3.8	1.49e+00	0	41	104	0	74	21193
2026-01-01 01:00:04.05	1.25	11.73	-51.6	-66.8	3.8	1.49e+00	0	42	104	0	74	21185
2026-01-01 01:00:04.91	1.16	11.80	-51.6	-66.8	3.8	1.49e+00	0	41	104	0	74	21139
2026-01-01 01:00:06.05	1.05	11.89	-51.6	-66.8	3.8	1.49e+00	0	42	104	0	74	21136
2026-01-01 01:00:06.91	0.96	11.95	-51.6	-66.8	3.8	1.49e+00	0	42	104	0	74	21124
2026-01-01 01:00:08.06	0.84	12.04	-51.6	-66.8	3.8	1.49e+00	0	42	104	0	74	21108
2026-01-01 01:00:08.92	0.75	12.11	-51.6	-66.8	3.8	1.49e+00	0	42	104	0	74	21097
2026-01-01 01:00:10.07	0.63	12.20	-51.6	-66.8	3.8	1.49e+00	0	42	104	0	74	21249
2026-01-01 01:00:10.93	0.54	12.27	-51.6	-66.8	3.8	1.49e+00	0	42	104	0	74	21071
2026-01-01 01:00:12.08	0.42	12.37	-51.6	-66.8	3.8	1.49e+00	0	42	104	0	74	21093
2026-01-01 01:00:12.94	0.33	12.43	-51.6	-66.8	3.8	1.49e+00	0	42	104	0	74	21145
2026-01-01 01:00:14.09	0.21	12.53	-51.6	-66.8	3.8	1.49e+00	0	42	104	0	74	21096
2026-01-01 01:00:14.95	0.12	12.60	-51.6	-66.8	3.8	1.49e+00	0	42	104	0	74	21089
2026-01-01 01:00:16.10	360.00	12.69	-51.6	-66.8	3.8	1.49e+00	0	42	104	0	74	21146
2026-01-01 01:00:16.96	359.90	12.76	-51.6	-66.8	3.8	1.49e+00	0	42	104	0	74	21144
2026-01-01 01:00:18.10	359.78	12.85	-51.6	-66.8	3.8	1.49e+00	0	42	104	0	74	21128
2026-01-01 01:00:18.97	359.69	12.92	-51.6	-66.8	3.8	1.49e+00	0	42	104	0	74	21069
2026-01-01 01:00:20.12	359.56	13.01	-51.6	-66.8	3.8	1.49e+00	0	42	104	0	74	21033
2026-01-01 01:00:20.97	359.47	13.08	-51.6	-66.8	3.8	1.49e+00	0	42	104	0	74	21114
2026-01-01 01:00:22.12	359.34	13.18	-51.6	-66.8	3.8	1.49e+00	0	42	104	0	74	21081
2026-01-01 01:00:22.98	359.24	13.25	-51.6	-66.8	3.8	1.49e+00	0	42	104	0	74	21058
2026-01-01 01:00:24.13	359.11	13.34	-51.6	-66.8	3.8	1.49e+00	0	42	104	0	74	21042
2026-01-01 01:00:24.99	359.02	13.41	-51.6	-66.8	3.8	1.49e+00	0	42	104	0	74	21090
2026-01-01 01:00:26.14	358.89	13.51	-51.6	-66.7	3.8	1.49e+00	0	42	104	0	74	21004
2026-01-01 01:00:27.00	358.79	13.58	-51.6	-66.8	3.8	1.49e+00	0	42	104	0	74	21072
2026-01-01 01:00:28.14	358.66	13.67	-51.6	-66.8	3.8	1.49e+00	0	42	104	0	74	21054
2026-01-01 01:00:29.01	358.56	13.75	-51.6	-66.8	3.8	1.49e+00	0	42	104	0	74	21031
2026-01-01 01:00:30.15	358.42	13.84	-51.6	-66.8	3.8	1.49e+00	0	42	104	0	74	21035
2026-01-01 01:00:31.01	358.32	13.91	-51.6	-66.8	3.8	1.49e+00	0	42	104	0	74	21055
2026-01-01 01:00:32.16	358.19	14.01	-51.6	-66.8	3.8	1.49e+00	0	42	104	0	74	21143
2026-01-01 01:00:33.02	358.09	14.08	-51.6	-66.8	3.8	1.49e+00	0	42	104	0	74	21135
2026-01-01 01:00:34.17	357.95	14.18	-51.6	-66.8	3.8	1.49e+00	0	42	104	0	74	21033
2026-01-01 01:00:35.03	357.85	14.25	-51.6	-66.8	3.8	1.49e+00	0	42	104	0	74	21135
2026-01-01 01:00:36.18	357.71	14.34	-51.6	-66.7	3.8	1.49e+00	0	42	104	0	74	20976
2026-01-01 01:00:37.04	357.61	14.42	-51.6	-66.8	3.8	1.49e+00	0	42	104	0	74	21085
2026-01-01 01:00:38.19	357.47	14.51	-51.6	-66.7	3.8	1.49e+00	0	42	104	0	74	21006
2026-01-01 01:00:39.05	357.36	14.59	-51.6	-66.7	3.8	1.49e+00	0	42	104	0	74	20944
2026-01-01 01:00:40.20	357.22	14.68	-51.6	-66.8	3.8	1.49e+00	0	42	104	0	74	21121
2026-01-01 01:00:41.06	357.11	14.76	-51.6	-66.7	3.8	1.49e+00	0	42	104	0	74	20973
2026-01-01 01:00:42.21	356.97	14.85	-51.6	-66.8	3.8	1.49e+00	0	42	104	0	74	21050
2026-01-01 01:00:43.07	356.86	14.93	-51.6	-66.8	3.8	1.49e+00	0	42	104	0	74	21021
2026-01-01 01:00:44.22	356.72	15.02	-51.6	-66.8	3.8	1.49e+00	0	42	104	0	74	21019
2026-01-01 01:00:45.08	356.61	15.10	-51.6	-66.8	3.8	1.49e+00	0	42	104	0	74	21091
2026-01-01 01:00:46.22	356.46	15.20	-51.6	-66.8	3.8	1.49e+00	0	42	104	0	74	21044
2026-01-01 01:00:47.08	356.35	15.27	-51.7	-66.8	3.8	1.49e+00	0	42	104	0	74	21181
2026-01-01 01:00:48.23	356.20	15.37	-51.6	-66.8	3.8	1.49e+00	0	42	104	0	74	21192
2026-01-01 01:00:49.09	356.09	15.44	-51.7	-66.8	3.8	1.49e+00	0	42	104	0	74	21151
2026-01-01 01:00:50.24	355.94	15.54	-51.7	-66.9	3.8	1.49e+00	0	42	104	0	74	21274
2026-01-01 01:00:51.10	355.83	15.62	-51.7	-66.9	3.8	1.49e+00	0	42	104	0	74	21348
2026-01-01 01:00:52.25	355.68	15.72	-51.7	-66.9	3.8	1.49e+00	0	42	104	0	74	21274
2026-01-01 01:00:53.11	355.56	15.79	-51.7	-66.8	3.8	1.49e+00	0	42	104	0	74	21220
2026-01-01 01:00:54.26	355.41	15.89	-51.7	-66.8	3.8	1.49e+00	0	42	104	0	74	21244
2026-01-01 01:00:55.12	355.29	15.96	-51.7	-66.8	3.8	1.49e+00	0	42	104	0	74	21181
2026-01-01 01:00:56.27	355.14	16.06	-51.7	-66.8	3.8	1.49e+00	0	42	104	0	74	21121
2026-01-01 01:00:57.13	355.02	16.14	-51.7	-66.9	3.8	1.49e+00	0	42	104	0	74	21273
2026-01-01 01:00:58.27	354.87	16.24	-51.7	-66.8	3.8	1.49e+00	0	42	104	0	74	21202
2026-01-01 01:00:59.13	354.75	16.31	-51.7	-66.9	3.8	1.49e+00	0	42	104	0	74	21295
2026-01-01 01:01:00.28	354.59	16.42	-51.6	-66.8	3.8	1.49e+00	0	42	104	0	74	21148
2026-01-01 01:01:01.14	354.47	16.49	-51.6	-66.8	3.8	1.49e+00	0	42	104	0	74	21169
2026-01-01 01:01:02.29	354.31	16.59	-51.7	-66.9	3.8	1.49e+00	0	42	104	0	74	21440
2026-01-01 01:01:03.15	354.19	16.67	-51.7	-66.9	3.8	1.49e+00	0	42	104	0	74	21370
2026-01-01 01:01:04.30	354.02	16.77	-51.7	-66.9	3.8	1.49e+00	0	42	104	0	74	21482
2026-01-01 01:01:05.46	353.86	16.87	-51.7	-66.9	3.8	1.49e+00	0	42	104	0	74	21318
2026-01-01 01:01:06.32	353.73	16.95	-51.7	-66.9	3.8	1.49e+00	0	42	104	0	74	21293
2026-01-01 01:01:07.47	353.57	17.05	-51.7	-66.8	3.8	1.49e+00	0	42	104	0	74	21136
2026-01-01 01:01:08.33	353.44	17.13	-51.6	-66.9	3.8	1.49e+00	0	42	104	0	74	21284
2026-01-01 01:01:09.48	353.27	17.23	-51.6	-66.8	3.8	1.49e+00	0	42	104	0	74	21168
2026-01-01 01:01:10.34	353.15	17.31	-51.6	-66.8	3.8	1.49e+00	0	42	104	0	74	21157
2026-01-01 01:01:11.49	352.98	17.41	-51.6	-66.8	3.8	1.49e+00	0	42	104	0	74	21133
2026-01-01 01:01:12.35	352.85	17.48	-51.7	-66.9	3.8	1.49e+00	0	42	104	0	74	21285
2026-01-01 01:01:13.59	352.66	17.60	-51.7	-66.8	3.8	1.49e+00	0	42	104	0	74	21193
2026-01-01 01:01:14.45	352.53	17.67	-51.7	-66.9	3.8	1.49e+00	0	42	104	0	74	21343
2026-01-01 01:01:15.66	352.35	17.78	-51.6	-66.8	3.8	1.49e+00	0	42	104	0	74	21205
2026-01-01 01:01:16.52	352.22	17.86	-51.6	-66.8	3.8	1.49e+00	0	42	104	0	74	21239
2026-01-01 01:01:17.71	352.03	17.97	-51.7	-66.8	3.8	1.49e+00	0	42	104	0	74	21132
2026-01-01 01:01:18.57	351.90	18.04	-51.7	-66.8	3.8	1.49e+00	0	42	104	0	74	21179
2026-01-01 01:01:19.72	351.72	18.15	-51.6	-66.8	3.8	1.49e+00	0	42	104	0	74	21138
2026-01-01 01:01:20.58	351.59	18.22	-51.6	-66.8	3.8	1.49e+00	0	42	104	0	74	21112
2026-01-01 01:01:21.73	351.40	18.33	-51.7	-66.8	3.8	1.49e+00	0	42	104	0	74	21242
2026-01-01 01:01:22.59	351.27	18.41	-51.7	-66.9	3.8	1.49e+00	0	42	104	0	74	21270
2026-01-01 01:01:23.74	351.08	18.51	-51.7	-66.8	3.8	1.49e+00	0	42	104	0	74	21185
2026-01-01 01:01:24.60	350.95	18.59	-51.6	-66.8	3.8	1.49e+00	0	42	104	0	74	21187
2026-01-01 01:01:25.74	350.76	18.69	-51.7	-66.8	3.8	1.49e+00	0	42	104	0	74	21232
2026-01-01 01:01:26.61	350.62	18.77	-51.7	-66.9	3.8	1.49e+00	0	42	104	0	74	21264
2026-01-01 01:01:27.75	350.43	18.87	-51.7	-66.9	3.8	1.49e+00	0	42	104	0	74	21300
2026-01-01 01:01:28.61	350.29	18.95	-51.7	-66.9	3.8	1.49e+00	0	42	104	0	74	21268
2026-01-01 01:01:29.76	350.10	19.06	-51.7	-66.9	3.8	1.49e+00	0	42	104	0	74	21444
2026-01-01 01:01:30.62	349.96	19.14	-51.7	-66.9	3.8	1.49e+00	0	42	104	0	74	21391
2026-01-01 01:01:31.77	349.77	19.24	-51.7	-66.9	3.8	1.49e+00	0	42	104	0	74	21344
2026-01-01 01:01:32.63	349.62	19.32	-51.8	-66.9	3.8	1.49e+00	0	42	104	0	74	21415
2026-01-01 01:01:33.78	349.43	19.43	-51.8	-66.9	3.8	1.49e+00	0	42	104	0	74	21371
2026-01-01 01:01:34.64	349.28	19.50	-51.7	-66.9	3.8	1.49e+00	0	42	104	0	74	21467
2026-01-01 01:01:35.79	349.08	19.61	-51.8	-66.9	3.8	1.49e+00	0	42	104	0	74	21457
2026-01-01 01:01:36.65	348.93	19.69	-51.7	-66.9	3.8	1.49e+00	0	42	104	0	74	21333
2026-01-01 01:01:37.79	348.73	19.79	-51.7	-66.9	3.8	1.49e+00	0	42	104	0	74	21392
2026-01-01 01:01:38.66	348.58	19.87	-51.8	-66.9	3.8	1.49e+00	0	42	104	0	74	21453
2026-01-01 01:01:39.80	348.38	19.98	-51.8	-66.9	3.8	1.49e+00	0	42	104	0	74	21424
2026-01-01 01:01:40.66	348.23	20.06	-51.8	-66.9	3.8	1.49e+00	0	42	104	0	74	21419
2026-01-01 01:01:41.81	348.02	20.16	-51.8	-66.9	3.8	1.49e+00	0	42	104	0	74	21417
2026-01-01 01:01:42.67	347.87	20.24	-51.8	-66.9	3.8	1.49e+00	0	42	104	0	74	21438
2026-01-01 01:01:43.82	347.66	20.35	-51.8	-67.0	3.8	1.49e+00	0	42	104	0	74	21582
2026-01-01 01:01:44.68	347.51	20.43	-51.8	-66.9	3.8	1.49e+00	0	42	104	0	74	21441
2026-01-01 01:01:45.83	347.30	20.53	-51.7	-66.9	3.8	1.49e+00	0	42	104	0	74	21388
2026-01-01 01:01:46.69	347.14	20.61	-51.7	-66.8	3.8	1.49e+00	0	42	104	0	74	21165
2026-01-01 01:01:47.84	346.93	20.72	-51.7	-66.8	3.8	1.49e+00	0	42	104	0	74	21183
2026-01-01 01:01:48.70	346.77	20.80	-51.7	-66.8	3.8	1.49e+00	0	42	104	0	74	21232
2026-01-01 01:01:49.85	346.55	20.90	-51.7	-66.9	3.8	1.49e+00	0	42	104	0	74	21273
2026-01-01 01:01:50.71	346.39	20.98	-51.6	-66.8	3.8	1.49e+00	0	42	104	0	74	21190
2026-01-01 01:01:51.85	346.17	21.09	-51.7	-66.8	3.8	1.49e+00	0	42	104	0	74	21154
2026-01-01 01:01:52.71	346.01	21.17	-51.6	-66.8	3.8	1.49e+00	0	42	104	0	74	21056
2026-01-01 01:01:53.86	345.79	21.27	-51.6	-66.8	3.8	1.49e+00	0	42	104	0	74	21230
2026-01-01 01:01:54.72	345.62	21.35	-51.6	-66.8	3.8	1.49e+00	0	42	104	0	74	21110
2026-01-01 01:01:55.87	345.40	21.46	-51.6	-66.7	3.8	1.49e+00	0	42	104	0	74	21006
2026-01-01 01:01:56.73	345.23	21.54	-51.6	-66.8	3.8	1.49e+00	0	42	104	0	74	21111
2026-01-01 01:01:57.88	345.00	21.64	-51.6	-66.8	3.8	1.49e+00	0	42	104	0	74	21063
2026-01-01 01:01:58.74	344.83	21.72	-51.6	-66.8	3.8	1.49e+00	0	42	104	0	74	21110
2026-01-01 01:01:59.89	344.60	21.83	-51.6	-66.8	3.8	1.49e+00	0	42	104	0	74	21043
2026-01-01 01:02:00.75	344.43	21.91	-51.6	-66.7	3.8	1.49e+00	0	42	104	0	74	21009
2026-01-01 01:02:01.90	344.20	22.01	-51.6	-66.7	3.8	1.49e+00	0	42	104	0	74	20998
2026-01-01 01:02:02.76	344.03	22.09	-51.6	-66.8	3.8	1.49e+00	0	42	104	0	74	21073
2026-01-01 01:02:03.90	343.79	22.20	-51.6	-66.8	3.8	1.49e+00	0	42	104	0	74	21136
2026-01-01 01:02:04.76	343.62	22.28	-51.6	-66.8	3.8	1.49e+00	0	42	104	0	74	21097
2026-01-01 01:02:05.91	343.38	22.38	-51.6	-66.8	3.8	1.49e+00	0	42	104	0	74	21153
2026-01-01 01:02:06.77	343.20	22.46	-51.6	-66.8	3.8	1.49e+00	0	42	104	0	74	21089
2026-01-01 01:02:07.92	342.96	22.57	-51.6	-66.7	3.8	1.49e+00	0	42	104	0	74	21003
2026-01-01 01:02:08.78	342.78	22.64	-51.6	-66.8	3.8	1.49e+00	0	42	104	0	74	21053
2026-01-01 01:02:09.93	342.54	22.75	-51.6	-66.7	3.8	1.49e+00	0	42	104	0	74	21017
2026-01-01 01:02:10.79	342.36	22.83	-51.6	-66.8	3.8	1.49e+00	0	42	104	0	74	21056
2026-01-01 01:02:11.94	342.11	22.93	-51.6	-66.7	3.8	1.49e+00	0	42	104	0	74	20967
2026-01-01 01:02:12.80	341.92	23.01	-51.6	-66.7	3.8	1.49e+00	0	42	104	0	74	21011
2026-01-01 01:02:13.94	341.68	23.11	-51.6	-66.8	3.8	1.49e+00	0	42	104	0	74	21039
2026-01-01 01:02:14.81	341.49	23.19	-51.6	-66.7	3.8	1.49e+00	0	42	104	0	74	20996
2026-01-01 01:02:15.95	341.24	23.30	-51.5	-66.7	3.8	1.49e+00	0	42	104	0	74	20894
2026-01-01 01:02:16.81	341.05	23.38	-51.6	-66.8	3.8	1.49e+00	0	42	104	0	74	21020
2026-01-01 01:02:17.96	340.79	23.48	-51.5	-66.7	3.8	1.49e+00	0	42	104	0	74	20955
2026-01-01 01:02:18.82	340.60	23.56	-51.5	-66.7	3.8	1.49e+00	0	42	104	0	74	20952
2026-01-01 01:02:19.97	340.34	23.66	-51.5	-66.7	3.8	1.49e+00	0	42	104	0	74	20941
2026-01-01 01:02:20.83	340.15	23.74	-51.5	-66.7	3.8	1.49e+00	0	42	104	0	74	20863
2026-01-01 01:02:21.98	339.89	23.84	-51.6	-66.8	3.8	1.49e+00	0	42	104	0	74	21122
2026-01-01 01:02:22.84	339.69	23.92	-51.5	-66.7	3.8	1.49e+00	0	42	104	0	74	20946
2026-01-01 01:02:23.99	339.43	24.02	-51.5	-66.7	3.8	1.49e+00	0	42	104	0	74	20933
2026-01-01 01:02:24.85	339.23	24.10	-51.5	-66.7	3.8	1.49e+00	0	42	104	0	74	20842
2026-01-01 01:02:25.99	338.97	24.20	-51.6	-66.8	3.8	1.49e+00	0	42	104	0	74	21116
2026-01-01 01:02:26.85	338.77	24.28	-51.5	-66.7	3.8	1.49e+00	0	42	104	0	74	20899
2026-01-01 01:02:28.00	338.50	24.38	-51.5	-66.7	3.8	1.49e+00	0	42	104	0	74	20815
2026-01-01 01:02:28.86	338.29	24.45	-51.5	-66.7	3.8	1.49e+00	0	42	104	0	74	20851
2026-01-01 01:02:30.01	338.02	24.56	-51.5	-66.6	3.8	1.49e+00	0	42	104	0	74	20723
2026-01-01 01:02:30.87	337.81	24.63	-51.6	-66.7	3.8	1.49e+00	0	42	104	0	74	20987
2026-01-01 01:02:32.02	337.54	24.73	-51.6	-66.7	3.8	1.49e+00	0	42	104	0	74	21009
2026-01-01 01:02:32.88	337.33	24.81	-51.6	-66.7	3.8	1.49e+00	0	42	104	0	74	20978
2026-01-01 01:02:34.03	337.05	24.91	-51.5	-66.7	3.8	1.49e+00	0	42	104	0	74	20943
2026-01-01 01:02:34.89	336.84	24.98	-51.5	-66.7	3.8	1.49e+00	0	42	104	0	74	20965
2026-01-01 01:02:36.04	336.56	25.08	-51.5	-66.7	3.8	1.49e+00	0	42	104	0	74	20873
2026-01-01 01:02:36.90	336.34	25.16	-51.5	-66.7	3.8	1.49e+00	0	42	104	0	74	20945
2026-01-01 01:02:38.05	336.06	25.25	-51.5	-66.7	3.8	1.49e+00	0	42	104	0	74	20866
2026-01-01 01:02:38.91	335.84	25.33	-51.5	-66.7	3.8	1.49e+00	0	42	104	0	74	20931
2026-01-01 01:02:40.05	335.56	25.43	-51.5	-66.7	3.8	1.49e+00	0	42	104	0	74	20888
2026-01-01 01:02:40.91	335.34	25.50	-51.5	-66.7	3.8	1.49e+00	0	42	104	0	74	20906
2026-01-01 01:02:42.06	335.05	25.60	-51.5	-66.7	3.8	1.49e+00	0	42	104	0	74	20880
2026-01-01 01:02:42.92	334.83	25.67	-51.5	-66.7	3.8	1.49e+00	0	43	104	0	74	20919
2026-01-01 01:02:44.07	334.53	25.76	-51.5	-66.7	3.8	1.49e+00	0	42	104	0	74	20870
2026-01-01 01:02:44.93	334.31	25.84	-51.5	-66.7	3.8	1.49e+00	0	42	104	0	74	20870
2026-01-01 01:02:46.08	334.01	25.93	-51.5	-66.7	3.8	1.49e+00	0	42	104	0	74	20944
2026-01-01 01:02:46.94	333.79	26.00	-51.5	-66.7	3.8	1.49e+00	0	42	104	0	74	20823
2026-01-01 01:02:48.09	333.49	26.10	-51.5	-66.7	3.8	1.49e+00	0	42	104	0	74	20866
2026-01-01 01:02:48.95	333.26	26.17	-51.5	-66.7	3.8	1.49e+00	0	42	104	0	74	20819
2026-01-01 01:02:50.10	332.95	26.26	-51.5	-66.7	3.8	1.49e+00	0	42	104	0	74	20847
2026-01-01 01:02:50.96	332.73	26.33	-51.5	-66.7	3.8	1.49e+00	0	42	104	0	74	20844
2026-01-01 01:02:52.10	332.42	26.42	-51.6	-66.7	3.8	1.49e+00	0	42	104	0	74	20945
2026-01-01 01:02:52.96	332.19	26.49	-51.5	-66.7	3.8	1.49e+00	0	42	104	0	74	20917
2026-01-01 01:02:54.11	331.88	26.58	-51.5	-66.7	3.8	1.49e+00	0	42	104	0	74	20777
2026-01-01 01:02:54.97	331.64	26.65	-51.5	-66.7	3.8	1.49e+00	0	42	104	0	74	20833
2026-01-01 01:02:56.12	331.33	26.74	-51.5	-66.7	3.8	1.49e+00	0	42	104	0	74	20875
2026-01-01 01:02:56.98	331.09	26.81	-51.5	-66.7	3.8	1.49e+00	0	42	104	0	74	20831
2026-01-01 01:02:58.13	330.77	26.90	-51.5	-66.7	3.8	1.49e+00	0	42	104	0	74	20861
2026-01-01 01:02:58.99	330.54	26.97	-51.5	-66.7	3.8	1.49e+00	0	42	104	0	74	20862
2026-01-01 01:03:00.14	330.22	27.05	-51.5	-66.7	3.8	1.49e+00	0	42	104	0	74	20822
2026-01-01 01:03:00.99	329.98	27.12	-51.5	-66.7	3.8	1.49e+00	0	42	104	0	74	20873
2026-01-01 01:03:02.14	329.65	27.21	-51.5	-66.7	3.8	1.49e+00	0	42	104	0	74	20844
2026-01-01 01:03:03.00	329.41	27.27	-51.5	-66.7	3.8	1.49e+00	0	42	104	0	74	20990
2026-01-01 01:03:04.15	329.08	27.36	-51.5	-66.7	3.8	1.49e+00	0	42	104	0	74	20913
2026-01-01 01:03:05.01	328.84	27.42	-51.5	-66.7	3.8	1.49e+00	0	42	104	0	74	20800
2026-01-01 01:03:06.16	328.51	27.50	-51.6	-66.8	3.8	1.49e+00	0	42	104	0	74	21050
2026-01-01 01:03:07.02	328.26	27.57	-51.6	-66.7	3.8	1.49e+00	0	42	104	0	74	20962
2026-01-01 01:03:08.17	327.93	27.65	-51.5	-66.7	3.8	1.49e+00	0	42	104	0	74	20907
2026-01-01 01:03:09.03	327.68	27.71	-51.5	-66.7	3.8	1.49e+00	0	42	104	0	74	20904
2026-01-01 01:03:10.18	327.34	27.79	-51.5	-66.7	3.8	1.49e+00	0	42	104	0	74	20928
2026-01-01 01:03:11.04	327.09	27.85	-51.6	-66.7	3.8	1.49e+00	0	42	104	0	74	20976
2026-01-01 01:03:12.19	326.75	27.93	-51.5	-66.7	3.8	1.49e+00	0	42	104	0	74	20979
2026-01-01 01:03:13.05	326.49	27.99	-51.5	-66.7	3.8	1.49e+00	0	42	104	0	74	20995
2026-01-01 01:03:14.19	326.15	28.07	-51.5	-66.7	3.8	1.49e+00	0	42	104	0	74	20959
2026-01-01 01:03:15.06	325.89	28.13	-51.5	-66.7	3.8	1.49e+00	0	42	104	0	74	20895
2026-01-01 01:03:16.20	325.55	28.20	-51.5	-66.7	3.8	1.49e+00	0	42	104	0	74	20929
2026-01-01 01:03:17.06	325.29	28.26	-51.5	-66.7	3.8	1.49e+00	0	42	104	0	74	20921
2026-01-01 01:03:18.21	324.95	28.33	-51.6	-66.7	3.8	1.49e+00	0	42	104	0	74	20967
2026-01-01 01:03:19.07	324.68	28.39	-51.5	-66.7	3.8	1.49e+00	0	42	104	0	74	20918
2026-01-01 01:03:20.22	324.33	28.46	-51.6	-66.7	3.8	1.49e+00	0	42	104	0	74	20988
2026-01-01 01:03:21.08	324.07	28.52	-51.5	-66.8	3.8	1.49e+00	0	42	104	0	74	21031
2026-01-01 01:03:22.23	323.72	28.59	-51.6	-66.7	3.8	1.49e+00	0	42	104	0	74	20904
2026-01-01 01:03:23.09	323.45	28.64	-51.6	-66.8	3.8	1.49e+00	0	42	104	0	74	21029
2026-01-01 01:03:24.24	323.09	28.71	-51.5	-66.7	3.8	1.49e+00	0	42	104	0	74	20893
2026-01-01 01:03:25.10	322.83	28.76	-51.5	-66.7	3.8	1.49e+00	0	42	104	0	74	20919
2026-01-01 01:03:26.24	322.47	28.83	-51.5	-66.7	3.8	1.49e+00	0	42	104	0	74	20985
2026-01-01 01:03:27.11	322.20	28.88	-51.5	-66.7	3.8	1.49e+00	0	42	104	0	74	20970
2026-01-01 01:03:28.25	321.84	28.95	-51.5	-66.7	3.8	1.49e+00	0	42	104	0	74	20902
2026-01-01 01:03:29.11	321.57	28.99	-51.5	-66.7	3.8	1.49e+00	0	42	104	0	74	20876
2026-01-01 01:03:30.26	321.20	29.06	-51.6	-66.8	3.8	1.49e+00	0	42	104	0	74	21051
2026-01-01 01:03:31.12	320.93	29.11	-51.5	-66.7	3.8	1.49e+00	0	42	104	0	74	20918
2026-01-01 01:03:32.27	320.56	29.17	-51.6	-66.7	3.8	1.49e+00	0	42	104	0	74	20993
2026-01-01 01:03:33.13	320.29	29.21	-51.5	-66.7	3.8	1.49e+00	0	42	104	0	74	20945
2026-01-01 01:03:34.28	319.92	29.27	-51.5	-66.7	3.8	1.49e+00	0	43	104	0	74	20982
2026-01-01 01:03:35.14	319.64	29.32	-51.5	-66.7	3.8	1.49e+00	0	42	104	0	74	20952
2026-01-01 01:03:36.29	319.27	29.37	-51.5	-66.7	3.8	1.49e+00	0	43	104	0	74	20926
2026-01-01 01:03:37.15	318.99	29.42	-51.5	-66.7	3.8	1.49e+00	0	42	104	0	74	20880
2026-01-01 01:03:38.30	318.62	29.47	-51.5	-66.7	3.8	1.49e+00	0	42	104	0	74	20823
2026-01-01 01:03:39.16	318.34	29.51	-51.5	-66.7	3.8	1.49e+00	0	43	104	0	74	20896
2026-01-01 01:03:40.31	317.96	29.57	-51.6	-66.7	3.8	1.49e+00	0	42	104	0	74	20948
2026-01-01 01:03:41.21	317.66	29.61	-51.5	-66.7	3.8	1.49e+00	0	43	104	0	74	20979
2026-01-01 01:03:42.22	317.33	29.65	-51.5	-66.7	3.8	1.49e+00	0	42	104	0	74	20790
2026-01-01 01:03:43.22	317.00	29.69	-51.5	-66.7	3.8	1.49e+00	0	42	104	0	74	20983
2026-01-01 01:03:44.23	316.67	29.74	-51.5	-66.7	3.8	1.49e+00	0	42	104	0	74	20917
2026-01-01 01:03:45.23	316.34	29.78	-51.5	-66.8	3.8	1.49e+00	0	42	104	0	74	21028
2026-01-01 01:03:46.24	316.00	29.82	-51.5	-66.7	3.8	1.49e+00	0	42	104	0	74	20866
2026-01-01 01:03:47.24	315.67	29.86	-51.5	-66.7	3.8	1.49e+00	0	42	104	0	74	20879
2026-01-01 01:03:48.25	315.33	29.90	-51.5	-66.8	3.8	1.49e+00	0	43	104	0	74	21022
2026-01-01 01:03:49.25	314.99	29.93	-51.5	-66.7	3.8	1.49e+00	0	43	104	0	74	20858
2026-01-01 01:03:50.26	314.65	29.97	-51.5	-66.7	3.8	1.49e+00	0	42	104	0	74	20837
2026-01-01 01:03:51.26	314.32	30.01	-51.5	-66.7	3.8	1.49e+00	0	42	104	0	74	20871
2026-01-01 01:03:52.26	313.98	30.04	-51.5	-66.7	3.8	1.49e+00	0	42	104	0	74	20854
2026-01-01 01:03:53.27	313.64	30.07	-51.5	-66.7	3.8	1.49e+00	0	42	104	0	74	20817
2026-01-01 01:03:54.27	313.30	30.11	-51.5	-66.7	3.8	1.49e+00	0	42	104	0	74	20834
2026-01-01 01:03:55.28	312.96	30.14	-51.5	-66.7	3.8	1.49e+00	0	42	104	0	74	20854
2026-01-01 01:03:56.28	312.62	30.17	-51.5	-66.7	3.8	1.49e+00	0	42	104	0	74	20897
2026-01-01 01:03:57.29	312.27	30.19	-51.5	-66.7	3.8	1.49e+00	0	42	104	0	74	20863
2026-01-01 01:03:58.29	311.93	30.22	-51.5	-66.7	3.8	1.49e+00	0	42	104	0	74	21002
2026-01-01 01:03:59.30	311.59	30.25	-51.5	-66.7	3.8	1.49e+00	0	42	104	0	74	20894
2026-01-01 01:04:00.30	311.24	30.27	-51.5	-66.7	3.8	1.49e+00	0	43	104	0	74	20922
2026-01-01 01:04:01.30	310.90	30.30	-51.5	-66.8	3.8	1.49e+00	0	42	104	0	74	21033
2026-01-01 01:04:02.31	310.55	30.32	-51.5	-66.7	3.8	1.49e+00	0	43	104	0	74	20891
2026-01-01 01:04:03.31	310.21	30.34	-51.5	-66.7	3.8	1.49e+00	0	42	104	0	74	20928
2026-01-01 01:04:04.36	309.85	30.36	-51.6	-66.8	3.8	1.49e+00	0	42	104	0	74	21067
2026-01-01 01:04:05.27	309.54	30.38	-51.6	-66.7	3.8	1.49e+00	0	42	104	0	74	21002
2026-01-01 01:04:06.27	309.19	30.40	-51.6	-66.8	3.8	1.49e+00	0	42	104	0	74	21018
2026-01-01 01:04:07.28	308.84	30.42	-51.6	-66.8	3.8	1.49e+00	0	42	104	0	74	21065
2026-01-01 01:04:08.28	308.49	30.43	-51.6	-66.8	3.8	1.49e+00	0	42	104	0	74	21118
2026-01-01 01:04:09.29	308.15	30.45	-51.6	-66.8	3.8	1.49e+00	0	42	104	0	74	21140
2026-01-01 01:04:10.29	307.80	30.46	-51.6	-66.7	3.8	1.49e+00	0	42	104	0	74	20942
2026-01-01 01:04:11.30	307.45	30.47	-51.6	-66.8	3.8	1.49e+00	0	42	104	0	74	21021
2026-01-01 01:04:12.30	307.10	30.49	-51.6	-66.8	3.8	1.49e+00	0	42	104	0	74	21057
2026-01-01 01:04:13.30	306.75	30.50	-51.6	-66.8	3.8	1.49e+00	0	42	104	0	74	21019
2026-01-01 01:04:14.31	306.40	30.50	-51.5	-66.8	3.8	1.49e+00	0	42	104	0	74	21021
2026-01-01 01:04:15.31	306.05	30.51	-51.5	-66.7	3.8	1.49e+00	0	42	104	0	74	20945
2026-01-01 01:04:16.35	305.69	30.52	-51.6	-66.7	3.8	1.49e+00	0	42	104	0	74	20951
2026-01-01 01:04:17.43	305.32	30.53	-51.5	-66.7	3.8	1.49e+00	0	42	104	0	74	20970
2026-01-01 01:04:18.32	305.01	30.53	-51.5	-66.7	3.8	1.49e+00	0	42	104	0	74	20941
2026-01-01 01:04:19.51	304.59	30.53	-51.5	-66.7	3.8	1.49e+00	0	42	104	0	74	20928
2026-01-01 01:04:20.39	304.29	30.53	-51.5	-66.7	3.8	1.49e+00	0	42	104	0	74	20930
2026-01-01 01:04:21.70	303.83	30.53	-51.5	-66.7	3.8	1.49e+00	0	42	104	0	74	20987
2026-01-01 01:04:22.41	303.58	30.53	-51.6	-66.7	3.8	1.49e+00	0	42	104	0	74	20982
2026-01-01 01:04:23.71	303.13	30.53	-51.5	-66.7	3.8	1.49e+00	0	42	104	0	74	20989
2026-01-01 01:04:24.42	302.88	30.53	-51.5	-66.7	3.8	1.49e+00	0	42	104	0	74	20970
2026-01-01 01:04:25.71	302.43	30.52	-51.5	-66.7	3.8	1.49e+00	0	43	104	0	74	20999
2026-01-01 01:04:26.43	302.18	30.52	-51.5	-66.7	3.8	1.49e+00	0	42	104	0	74	20907
2026-01-01 01:04:27.72	301.73	30.51	-51.5	-66.7	3.8	1.49e+00	0	43	104	0	74	20950
2026-01-01 01:04:28.44	301.48	30.50	-51.5	-66.8	3.8	1.49e+00	0	43	104	0	74	21018
2026-01-01 01:04:29.73	301.03	30.49	-51.6	-66.7	3.8	1.49e+00	0	42	104	0	74	20888
2026-01-01 01:04:30.45	300.78	30.48	-51.5	-66.7	3.8	1.49e+00	0	42	104	0	74	20905
2026-01-01 01:04:31.80	300.31	30.47	-51.6	-66.7	3.8	1.49e+00	0	42	104	0	74	20981
2026-01-01 01:04:32.52	300.06	30.46	-51.6	-66.8	3.8	1.49e+00	0	42	104	0	74	21036
2026-01-01 01:04:33.87	299.60	30.44	-51.6	-66.8	3.8	1.49e+00	0	42	104	0	74	21150
2026-01-01 01:04:34.59	299.35	30.43	-51.6	-66.7	3.8	1.49e+00	0	42	104	0	74	20983
2026-01-01 01:04:35.88	298.90	30.41	-51.6	-66.8	3.8	1.49e+00	0	42	104	0	74	21036
2026-01-01 01:04:36.60	298.65	30.40	-51.6	-66.7	3.8	1.49e+00	0	42	104	0	74	20998
2026-01-01 01:04:37.89	298.21	30.37	-51.6	-66.8	3.8	1.49e+00	0	42	104	0	74	21051
2026-01-01 01:04:38.61	297.96	30.36	-51.6	-66.7	3.8	1.49e+00	0	42	104	0	74	20967
2026-01-01 01:04:39.90	297.51	30.33	-51.5	-66.7	3.8	1.49e+00	0	42	104	0	74	20925
2026-01-01 01:04:40.62	297.26	30.31	-51.5	-66.7	3.8	1.49e+00	0	42	104	0	74	20919
2026-01-01 01:04:41.91	296.82	30.28	-51.5	-66.7	3.8	1.49e+00	0	42	104	0	74	20983
2026-01-01 01:04:42.62	296.58	30.27	-51.6	-66.8	3.8	1.49e+00	0	42	104	0	74	21019
2026-01-01 01:04:43.91	296.14	30.23	-51.6	-66.7	3.8	1.49e+00	0	43	104	0	74	20961
2026-01-01 01:04:44.63	295.89	30.21	-51.6	-66.8	3.8	1.49e+00	0	42	104	0	74	21096
2026-01-01 01:04:45.93	295.45	30.18	-51.6	-66.8	3.8	1.49e+00	0	42	104	0	74	21040
2026-01-01 01:04:46.64	295.20	30.16	-51.6	-66.8	3.8	1.49e+00	0	43	104	0	74	21026
2026-01-01 01:04:47.93	294.77	30.12	-51.6	-66.7	3.8	1.49e+00	0	43	104	0	74	20964
2026-01-01 01:04:48.65	294.52	30.09	-51.6	-66.8	3.8	1.49e+00	0	42	104	0	74	21020
2026-01-01 01:04:49.94	294.08	30.05	-51.6	-66.8	3.8	1.49e+00	0	42	104	0	74	21111
2026-01-01 01:04:50.66	293.84	30.03	-51.6	-66.7	3.8	1.49e+00	0	42	104	0	74	20914
2026-01-01 01:04:51.95	293.41	29.98	-51.6	-66.7	3.8	1.49e+00	0	42	104	0	74	21001
2026-01-01 01:04:52.67	293.16	29.96	-51.6	-66.8	3.8	1.49e+00	0	42	104	0	74	21067
2026-01-01 01:04:53.96	292.73	29.91	-51.5	-66.7	3.8	1.49e+00	0	42	104	0	74	20927
2026-01-01 01:04:54.68	292.49	29.88	-51.5	-66.7	3.8	1.49e+00	0	43	104	0	74	20900
2026-01-01 01:04:55.97	292.06	29.83	-51.6	-66.8	3.8	1.49e+00	0	43	104	0	74	21019
2026-01-01 01:04:56.69	291.82	29.81	-51.6	-66.7	3.8	1.49e+00	0	42	104	0	74	21011
2026-01-01 01:04:57.98	291.39	29.75	-51.5	-66.7	3.8	1.49e+00	0	43	104	0	74	20987
2026-01-01 01:04:58.69	291.15	29.72	-51.5	-66.7	3.8	1.49e+00	0	42	104	0	74	20972
2026-01-01 01:04:59.98	290.72	29.67	-51.5	-66.8	3.8	1.49e+00	0	43	104	0	74	21075
2026-01-01 01:05:00.70	290.49	29.64	-51.6	-66.8	3.8	1.49e+00	0	43	104	0	74	21046
2026-01-01 01:05:01.99	290.06	29.58	-51.5	-66.7	3.8	1.49e+00	0	42	104	0	74	20991
2026-01-01 01:05:02.71	289.83	29.55	-51.5	-66.7	3.8	1.49e+00	0	42	104	0	74	20917
2026-01-01 01:05:04.00	289.40	29.49	-51.5	-66.7	3.8	1.49e+00	0	42	104	0	74	20955
2026-01-01 01:05:04.72	289.17	29.45	-51.5	-66.7	3.8	1.49e+00	0	43	104	0	74	20854
2026-01-01 01:05:06.01	288.75	29.39	-51.5	-66.7	3.8	1.49e+00	0	43	104	0	74	20798
2026-01-01 01:05:06.73	288.52	29.35	-51.5	-66.7	3.8	1.49e+00	0	43	104	0	74	20906
2026-01-01 01:05:08.02	288.10	29.29	-51.5	-66.7	3.8	1.49e+00	0	43	104	0	74	20927
2026-01-01 01:05:08.74	287.87	29.25	-51.5	-66.7	3.8	1.49e+00	0	43	104	0	74	21002
2026-01-01 01:05:10.03	287.45	29.18	-51.6	-66.7	3.8	1.49e+00	0	42	104	0	74	21000
2026-01-01 01:05:10.74	287.22	29.14	-51.6	-66.8	3.8	1.49e+00	0	42	104	0	74	21023
2026-01-01 01:05:12.04	286.81	29.07	-51.5	-66.7	3.8	1.49e+00	0	42	104	0	74	20895
2026-01-01 01:05:12.75	286.58	29.03	-51.5	-66.7	3.8	1.49e+00	0	42	104	0	74	20965
2026-01-01 01:05:14.04	286.17	28.96	-51.5	-66.7	3.8	1.49e+00	0	43	104	0	74	20915
2026-01-01 01:05:14.76	285.95	28.92	-51.6	-66.7	3.8	1.49e+00	0	43	104	0	74	21000
2026-01-01 01:05:16.05	285.54	28.85	-51.5	-66.7	3.8	1.49e+00	0	43	104	0	74	20949
2026-01-01 01:05:16.77	285.32	28.80	-51.5	-66.7	3.8	1.49e+00	0	43	104	0	74	20912
2026-01-01 01:05:18.06	284.91	28.73	-51.5	-66.7	3.8	1.49e+00	0	43	104	0	74	20996
2026-01-01 01:05:18.78	284.69	28.68	-51.6	-66.8	3.8	1.49e+00	0	42	104	0	74	21051
2026-01-01 01:05:20.07	284.29	28.60	-51.5	-66.7	3.8	1.49e+00	0	43	104	0	74	20979
2026-01-01 01:05:20.79	284.07	28.56	-51.5	-66.7	3.8	1.49e+00	0	43	104	0	74	20825
2026-01-01 01:05:22.08	283.67	28.48	-51.6	-66.7	3.8	1.49e+00	0	42	104	0	74	20991
2026-01-01 01:05:22.79	283.45	28.43	-51.5	-66.7	3.8	1.49e+00	0	43	104	0	74	20931
2026-01-01 01:05:24.09	283.05	28.35	-51.6	-66.7	3.8	1.49e+00	0	43	104	0	74	21011
2026-01-01 01:05:24.80	282.84	28.30	-51.6	-66.8	3.8	1.49e+00	0	43	104	0	74	21035
2026-01-01 01:05:26.09	282.45	28.22	-51.5	-66.7	3.8	1.49e+00	0	42	104	0	74	20994
2026-01-01 01:05:26.81	282.23	28.17	-51.5	-66.7	3.8	1.49e+00	0	43	104	0	74	20980
2026-01-01 01:05:28.10	281.84	28.09	-51.6	-66.7	3.8	1.49e+00	0	42	104	0	74	21017
2026-01-01 01:05:28.82	281.63	28.04	-51.5	-66.7	3.8	1.49e+00	0	43	104	0	74	20963
2026-01-01 01:05:30.11	281.24	27.95	-51.6	-66.7	3.8	1.49e+00	0	43	104	0	74	20996
2026-01-01 01:05:30.83	281.03	27.90	-51.6	-66.7	3.8	1.49e+00	0	43	104	0	74	20969
2026-01-01 01:05:32.12	280.65	27.81	-51.5	-66.7	3.8	1.49e+00	0	43	104	0	74	20992
2026-01-01 01:05:32.84	280.44	27.76	-51.6	-66.7	3.8	1.49e+00	0	43	104	0	74	20978
2026-01-01 01:05:34.13	280.06	27.66	-51.5	-66.7	3.8	1.49e+00	0	43	104	0	74	20866
2026-01-01 01:05:34.85	279.85	27.61	-51.6	-66.8	3.8	1.49e+00	0	43	104	0	74	21060
2026-01-01 01:05:36.14	279.48	27.52	-51.6	-66.8	3.8	1.49e+00	0	43	104	0	74	21048
2026-01-01 01:05:36.86	279.27	27.47	-51.6	-66.7	3.8	1.49e+00	0	42	104	0	74	20970
2026-01-01 01:05:38.15	278.90	27.37	-51.6	-66.8	3.8	1.49e+00	0	43	104	0	74	21077
2026-01-01 01:05:38.87	278.69	27.32	-51.6	-66.8	3.8	1.49e+00	0	43	104	0	74	21040
2026-01-01 01:05:40.16	278.33	27.22	-51.6	-66.8	3.8	1.49e+00	0	43	104	0	74	21080
2026-01-01 01:05:40.88	278.12	27.17	-51.6	-66.7	3.8	1.49e+00	0	43	104	0	74	21012
2026-01-01 01:05:42.17	277.76	27.07	-51.5	-66.7	3.8	1.49e+00	0	43	104	0	74	20927
2026-01-01 01:05:42.88	277.56	27.01	-51.5	-66.7	3.8	1.49e+00	0	43	104	0	74	20962
2026-01-01 01:05:44.17	277.20	26.91	-51.5	-66.7	3.8	1.49e+00	0	43	104	0	74	20988
2026-01-01 01:05:44.89	277.00	26.86	-51.5	-66.8	3.8	1.49e+00	0	43	104	0	74	21032
2026-01-01 01:05:46.18	276.64	26.76	-51.6	-66.7	3.8	1.49e+00	0	42	104	0	74	21004
2026-01-01 01:05:46.90	276.45	26.70	-51.5	-66.7	3.8	1.49e+00	0	43	104	0	74	20986
2026-01-01 01:05:48.19	276.09	26.60	-51.5	-66.7	3.8	1.49e+00	0	42	104	0	74	20905
2026-01-01 01:05:48.91	275.90	26.54	-51.5	-66.7	3.8	1.49e+00	0	43	104	0	74	20939
2026-01-01 01:05:50.20	275.55	26.44	-51.6	-66.8	3.8	1.49e+00	0	43	104	0	74	21118
2026-01-01 01:05:50.91	275.36	26.38	-51.6	-66.8	3.8	1.49e+00	0	43	104	0	74	21019
2026-01-01 01:05:52.21	275.01	26.28	-51.6	-66.8	3.8	1.49e+00	0	42	104	0	74	21081
2026-01-01 01:05:52.92	274.82	26.22	-51.6	-66.8	3.8	1.49e+00	0	43	104	0	74	21132
2026-01-01 01:05:54.22	274.47	26.11	-51.6	-66.8	3.8	1.49e+00	0	43	104	0	74	21086
2026-01-01 01:05:54.93	274.29	26.05	-51.6	-66.8	3.8	1.49e+00	0	43	104	0	74	21054
2026-01-01 01:05:56.22	273.95	25.95	-51.6	-66.8	3.8	1.49e+00	0	43	104	0	74	21119
2026-01-01 01:05:56.94	273.76	25.89	-51.6	-66.8	3.8	1.49e+00	0	43	104	0	74	21034
2026-01-01 01:05:58.23	273.42	25.78	-51.6	-66.8	3.8	1.49e+00	0	43	104	0	74	21038
2026-01-01 01:05:58.95	273.24	25.72	-51.6	-66.8	3.8	1.49e+00	0	43	104	0	74	21083
2026-01-01 01:06:00.24	272.91	25.61	-51.6	-66.8	3.8	1.49e+00	0	43	104	0	74	21052
2026-01-01 01:06:00.96	272.72	25.55	-51.6	-66.8	3.8	1.49e+00	0	42	104	0	74	21018
2026-01-01 01:06:02.25	272.39	25.44	-51.6	-66.7	3.8	1.49e+00	0	43	104	0	74	21001
2026-01-01 01:06:02.96	272.21	25.38	-51.6	-66.8	3.8	1.49e+00	0	43	104	0	74	21036
2026-01-01 01:06:04.26	271.89	25.27	-51.6	-66.8	3.8	1.49e+00	0	43	104	0	74	21059
2026-01-01 01:06:04.97	271.71	25.20	-51.6	-66.7	3.8	1.49e+00	0	43	104	0	74	20969
2026-01-01 01:06:06.27	271.39	25.09	-51.6	-66.8	3.8	1.49e+00	0	43	104	0	74	21086
2026-01-01 01:06:06.98	271.21	25.03	-51.6	-66.8	3.8	1.49e+00	0	43	104	0	74	21056
2026-01-01 01:06:08.27	270.89	24.92	-51.6	-66.8	3.8	1.49e+00	0	43	104	0	74	21103
2026-01-01 01:06:08.99	270.72	24.86	-51.6	-66.8	3.8	1.49e+00	0	43	104	0	74	21025
2026-01-01 01:06:10.28	270.40	24.74	-51.6	-66.8	3.8	1.49e+00	0	43	104	0	74	21163
2026-01-01 01:06:11.00	270.23	24.68	-51.6	-66.8	3.8	1.49e+00	0	42	104	0	74	21076
2026-01-01 01:06:12.29	269.92	24.57	-51.6	-66.8	3.8	1.49e+00	0	42	104	0	74	21033
2026-01-01 01:06:13.01	269.75	24.50	-51.6	-66.7	3.8	1.49e+00	0	42	104	0	74	20996
2026-01-01 01:06:14.30	269.44	24.39	-51.6	-66.8	3.8	1.49e+00	0	43	104	0	74	21071
2026-01-01 01:06:15.01	269.27	24.32	-51.6	-66.7	3.8	1.49e+00	0	43	104	0	74	20995
2026-01-01 01:06:16.31	268.96	24.21	-51.6	-66.8	3.8	1.49e+00	0	43	104	0	74	21031
2026-01-01 01:06:17.02	268.80	24.15	-51.6	-66.8	3.8	1.49e+00	0	43	104	0	74	21106
2026-01-01 01:06:18.31	268.50	24.03	-51.6	-66.7	3.8	1.49e+00	0	43	104	0	74	21003
2026-01-01 01:06:19.03	268.33	23.97	-51.6	-66.8	3.8	1.49e+00	0	42	104	0	74	21055
2026-01-01 01:06:20.32	268.04	23.85	-51.6	-66.8	3.8	1.49e+00	0	43	104	0	74	21035
2026-01-01 01:06:21.04	267.87	23.78	-51.6	-66.8	3.8	1.49e+00	0	43	104	0	74	21135
2026-01-01 01:06:22.33	267.58	23.67	-51.6	-66.8	3.8	1.49e+00	0	43	104	0	74	21107
2026-01-01 01:06:23.05	267.42	23.60	-51.6	-66.8	3.8	1.49e+00	0	42	104	0	74	21104
2026-01-01 01:06:24.34	267.13	23.49	-51.6	-66.8	3.8	1.49e+00	0	42	104	0	74	21141
2026-01-01 01:06:25.11	266.95	23.42	-51.6	-66.8	3.8	1.49e+00	0	43	104	0	74	21217
2026-01-01 01:06:26.40	266.67	23.30	-51.6	-66.8	3.8	1.49e+00	0	42	104	0	74	21163
2026-01-01 01:06:27.19	266.49	23.23	-51.6	-66.8	3.8	1.49e+00	0	43	104	0	74	21062
2026-01-01 01:06:28.34	266.24	23.12	-51.6	-66.8	3.8	1.49e+00	0	43	104	0	74	21060
2026-01-01 01:06:29.39	266.01	23.03	-51.6	-66.7	3.8	1.49e+00	0	43	104	0	74	20998
2026-01-01 01:06:30.45	265.78	22.93	-51.6	-66.8	3.8	1.49e+00	0	43	104	0	74	21036
2026-01-01 01:06:31.48	265.56	22.84	-51.6	-66.8	3.8	1.49e+00	0	43	104	0	74	21063
2026-01-01 01:06:32.48	265.35	22.74	-51.6	-66.7	3.8	1.49e+00	0	43	104	0	74	20988
2026-01-01 01:06:33.49	265.13	22.65	-51.5	-66.7	3.8	1.49e+00	0	43	104	0	74	21002
2026-01-01 01:06:34.49	264.92	22.56	-51.6	-66.8	3.8	1.49e+00	0	42	104	0	74	21019
2026-01-01 01:06:35.49	264.71	22.47	-51.5	-66.7	3.8	1.49e+00	0	43	104	0	74	20892
2026-01-01 01:06:36.50	264.50	22.37	-51.6	-66.7	3.8	1.49e+00	0	43	104	0	74	20992
2026-01-01 01:06:37.50	264.29	22.28	-51.6	-66.7	3.8	1.49e+00	0	43	104	0	74	21011
2026-01-01 01:06:38.51	264.08	22.19	-51.6	-66.8	3.8	1.49e+00	0	43	104	0	74	21106
2026-01-01 01:06:39.51	263.88	22.10	-51.6	-66.8	3.8	1.49e+00	0	43	104	0	74	21168
2026-01-01 01:06:40.52	263.67	22.00	-51.6	-66.8	3.8	1.49e+00	0	43	104	0	74	21104
2026-01-01 01:06:41.52	263.47	21.91	-51.6	-66.8	3.8	1.49e+00	0	43	104	0	74	21076
2026-01-01 01:06:42.52	263.27	21.82	-51.6	-66.8	3.8	1.49e+00	0	43	104	0	74	21084
2026-01-01 01:06:43.58	263.06	21.72	-51.6	-66.8	3.8	1.49e+00	0	43	104	0	74	21096
2026-01-01 01:06:44.48	262.88	21.64	-51.6	-66.8	3.8	1.49e+00	0	42	104	0	74	21070
2026-01-01 01:06:45.50	262.68	21.54	-51.6	-66.8	3.8	1.49e+00	0	43	104	0	74	21057
2026-01-01 01:06:46.51	262.48	21.45	-51.6	-66.8	3.8	1.49e+00	0	43	104	0	74	21111
2026-01-01 01:06:47.51	262.28	21.36	-51.6	-66.8	3.8	1.49e+00	0	42	104	0	74	21064
2026-01-01 01:06:48.51	262.09	21.26	-51.6	-66.8	3.8	1.49e+00	0	43	104	0	74	21161
2026-01-01 01:06:49.52	261.89	21.17	-51.6	-66.8	3.8	1.49e+00	0	43	104	0	74	21198
2026-01-01 01:06:50.52	261.70	21.08	-51.6	-66.7	3.8	1.49e+00	0	43	104	0	74	21000
2026-01-01 01:06:51.53	261.51	20.98	-51.6	-66.8	3.8	1.49e+00	0	43	104	0	74	21090
2026-01-01 01:06:52.53	261.32	20.89	-51.6	-66.7	3.8	1.49e+00	0	43	104	0	74	20961
2026-01-01 01:06:53.53	261.13	20.80	-51.6	-66.8	3.8	1.49e+00	0	42	104	0	74	21073
2026-01-01 01:06:54.54	260.94	20.71	-51.6	-66.8	3.8	1.49e+00	0	43	104	0	74	21073
2026-01-01 01:06:55.54	260.75	20.61	-51.6	-66.8	3.8	1.49e+00	0	43	104	0	74	21148
2026-01-01 01:06:56.58	260.56	20.52	-51.6	-66.7	3.8	1.49e+00	0	43	104	0	74	21007
2026-01-01 01:06:57.61	260.37	20.42	-51.6	-66.8	3.8	1.49e+00	0	42	104	0	74	21088
2026-01-01 01:06:58.65	260.18	20.33	-51.6	-66.7	3.8	1.49e+00	0	43	104	0	74	20972
2026-01-01 01:06:59.64	260.00	20.23	-51.6	-66.8	3.8	1.49e+00	0	42	104	0	74	21133
2026-01-01 01:07:00.65	259.82	20.14	-51.6	-66.8	3.8	1.49e+00	0	42	104	0	74	21072
2026-01-01 01:07:01.65	259.64	20.05	-51.6	-66.8	3.8	1.49e+00	0	43	104	0	74	21195
2026-01-01 01:07:02.66	259.46	19.96	-51.6	-66.8	3.8	1.49e+00	0	43	104	0	74	21078
2026-01-01 01:07:03.66	259.28	19.86	-51.6	-66.7	3.8	1.49e+00	0	43	104	0	74	20995
2026-01-01 01:07:04.67	259.10	19.77	-51.6	-66.8	3.8	1.49e+00	0	43	104	0	74	21082
2026-01-01 01:07:05.67	258.93	19.68	-51.6	-66.8	3.8	1.49e+00	0	43	104	0	74	21082
2026-01-01 01:07:06.67	258.76	19.59	-51.6	-66.8	3.8	1.49e+00	0	43	104	0	74	21197
2026-01-01 01:07:07.68	258.58	19.49	-51.6	-66.8	3.8	1.49e+00	0	43	104	0	74	21105
2026-01-01 01:07:08.68	258.41	19.40	-51.6	-66.7	3.8	1.49e+00	0	43	104	0	74	21005
2026-01-01 01:07:09.69	258.24	19.31	-51.6	-66.8	3.8	1.49e+00	0	43	104	0	74	21230
2026-01-01 01:07:10.69	258.07	19.22	-51.6	-66.8	3.8	1.49e+00	0	43	104	0	74	21167
2026-01-01 01:07:11.69	257.90	19.13	-51.6	-66.8	3.8	1.49e+00	0	43	104	0	74	21109
2026-01-01 01:07:12.70	257.73	19.03	-51.6	-66.8	3.8	1.49e+00	0	43	104	0	74	21077
2026-01-01 01:07:13.70	257.56	18.94	-51.6	-66.8	3.8	1.49e+00	0	42	104	0	74	21040
2026-01-01 01:07:14.71	257.39	18.85	-51.6	-66.7	3.8	1.49e+00	0	42	104	0	74	20987
2026-01-01 01:07:15.71	257.23	18.76	-51.6	-66.8	3.8	1.49e+00	0	43	104	0	74	21108
2026-01-01 01:07:16.72	257.06	18.67	-51.6	-66.8	3.8	1.49e+00	0	43	104	0	74	21078
2026-01-01 01:07:17.72	256.90	18.57	-51.6	-66.8	3.8	1.49e+00	0	43	104	0	74	21069
2026-01-01 01:07:18.72	256.74	18.48	-51.6	-66.7	3.8	1.49e+00	0	43	104	0	74	20998
2026-01-01 01:07:19.73	256.58	18.39	-51.6	-66.8	3.8	1.49e+00	0	43	104	0	74	21138
2026-01-01 01:07:20.73	256.42	18.30	-51.6	-66.8	3.8	1.49e+00	0	43	104	0	74	21043
2026-01-01 01:07:21.74	256.26	18.21	-51.6	-66.8	3.8	1.49e+00	0	43	104	0	74	21114
2026-01-01 01:07:22.74	256.10	18.12	-51.6	-66.8	3.8	1.49e+00	0	43	104	0	74	21121
2026-01-01 01:07:23.74	255.94	18.03	-51.6	-66.8	3.8	1.49e+00	0	43	104	0	74	21110
2026-01-01 01:07:24.75	255.78	17.94	-51.6	-66.7	3.8	1.49e+00	0	43	104	0	74	21012
2026-01-01 01:07:25.76	255.63	17.84	-51.6	-66.8	3.8	1.49e+00	0	43	104	0	74	21046
2026-01-01 01:07:26.76	255.47	17.75	-51.6	-66.7	3.8	1.49e+00	0	43	104	0	74	20887
2026-01-01 01:07:27.76	255.32	17.66	-51.6	-66.8	3.8	1.49e+00	0	42	104	0	74	21044
2026-01-01 01:07:28.77	255.17	17.57	-51.6	-66.8	3.8	1.49e+00	0	43	104	0	74	21101
2026-01-01 01:07:29.77	255.01	17.48	-51.6	-66.8	3.8	1.49e+00	0	43	104	0	74	21031
2026-01-01 01:07:30.78	254.86	17.39	-51.6	-66.7	3.8	1.49e+00	0	43	104	0	74	20996
2026-01-01 01:07:31.78	254.71	17.30	-51.6	-66.8	3.8	1.49e+00	0	43	104	0	74	21138
2026-01-01 01:07:32.78	254.56	17.21	-51.6	-66.8	3.8	1.49e+00	0	43	104	0	74	21062
2026-01-01 01:07:33.79	254.42	17.12	-51.6	-66.7	3.8	1.49e+00	0	43	104	0	74	21010
2026-01-01 01:07:34.79	254.27	17.03	-51.6	-66.8	3.8	1.49e+00	0	43	104	0	74	21056
2026-01-01 01:07:35.80	254.12	16.94	-51.6	-66.7	3.8	1.49e+00	0	43	104	0	74	20954
2026-01-01 01:07:36.80	253.98	16.86	-51.6	-66.8	3.8	1.49e+00	0	43	104	0	74	21127
2026-01-01 01:07:37.81	253.83	16.77	-51.6	-66.8	3.8	1.49e+00	0	43	104	0	74	21035
2026-01-01 01:07:38.81	253.69	16.68	-51.6	-66.8	3.8	1.49e+00	0	43	104	0	74	21110
2026-01-01 01:07:39.81	253.54	16.59	-51.6	-66.8	3.8	1.49e+00	0	43	104	0	74	21187
2026-01-01 01:07:40.82	253.40	16.50	-51.6	-66.8	3.8	1.49e+00	0	43	104	0	74	21018
2026-01-01 01:07:41.82	253.26	16.41	-51.6	-66.8	3.8	1.49e+00	0	43	104	0	74	21115
2026-01-01 01:07:42.82	253.12	16.32	-51.6	-66.8	3.8	1.49e+00	0	43	104	0	74	21044
2026-01-01 01:07:43.83	252.98	16.23	-51.6	-66.8	3.8	1.49e+00	0	43	104	0	74	21076
2026-01-01 01:07:44.83	252.84	16.15	-51.6	-66.7	3.8	1.49e+00	0	43	104	0	74	20994
2026-01-01 01:07:45.84	252.70	16.06	-51.6	-66.8	3.8	1.49e+00	0	43	104	0	74	21064
2026-01-01 01:07:46.84	252.57	15.97	-51.6	-66.7	3.8	1.49e+00	0	43	104	0	74	20919
2026-01-01 01:07:47.85	252.43	15.88	-51.6	-66.7	3.8	1.49e+00	0	43	104	0	74	20981
2026-01-01 01:07:48.85	252.29	15.80	-51.6	-66.8	3.8	1.49e+00	0	43	104	0	74	21044
2026-01-01 01:07:49.86	252.16	15.71	-51.6	-66.8	3.8	1.49e+00	0	42	104	0	74	21101
2026-01-01 01:07:50.86	252.02	15.62	-51.6	-66.8	3.8	1.49e+00	0	43	104	0	74	21079
2026-01-01 01:07:51.86	251.89	15.53	-51.6	-66.8	3.8	1.49e+00	0	43	104	0	74	21087
2026-01-01 01:07:52.87	251.76	15.45	-51.6	-66.7	3.8	1.49e+00	0	43	104	0	74	20992
2026-01-01 01:07:53.87	251.63	15.36	-51.6	-66.8	3.8	1.49e+00	0	43	104	0	74	21048
2026-01-01 01:07:54.88	251.50	15.27	-51.6	-66.8	3.8	1.49e+00	0	43	104	0	74	21060
2026-01-01 01:07:55.88	251.37	15.19	-51.6	-66.7	3.8	1.49e+00	0	43	104	0	74	20983
2026-01-01 01:07:56.88	251.24	15.10	-51.5	-66.7	3.8	1.49e+00	0	43	104	0	74	21006
2026-01-01 01:07:57.89	251.11	15.01	-51.6	-66.7	3.8	1.49e+00	0	43	104	0	74	20938
2026-01-01 01:07:58.90	250.98	14.93	-51.5	-66.7	3.8	1.49e+00	0	43	104	0	74	20994
2026-01-01 01:07:59.90	250.85	14.84	-51.6	-66.7	3.8	1.49e+00	0	43	104	0	74	20970
2026-01-01 01:08:00.90	250.73	14.76	-51.5	-66.7	3.8	1.49e+00	0	43	104	0	74	20909
2026-01-01 01:08:01.91	250.60	14.67	-51.5	-66.7	3.8	1.49e+00	0	42	104	0	74	20877
2026-01-01 01:08:02.91	250.48	14.59	-51.6	-66.8	3.8	1.49e+00	0	43	104	0	74	21055
2026-01-01 01:08:03.92	250.35	14.50	-51.6	-66.7	3.8	1.49e+00	0	43	104	0	74	20957
2026-01-01 01:08:04.92	250.23	14.41	-51.5	-66.7	3.8	1.49e+00	0	43	104	0	74	20948
2026-01-01 01:08:05.92	250.11	14.33	-51.6	-66.8	3.8	1.49e+00	0	43	104	0	74	21094
2026-01-01 01:08:06.93	249.98	14.24	-51.5	-66.7	3.8	1.49e+00	0	43	104	0	74	20957
2026-01-01 01:08:07.93	249.86	14.16	-51.6	-66.7	3.8	1.49e+00	0	43	104	0	74	21011
2026-01-01 01:08:08.94	249.74	14.08	-51.5	-66.7	3.8	1.49e+00	0	43	104	0	74	20944
2026-01-01 01:08:09.94	249.62	13.99	-51.5	-66.7	3.8	1.49e+00	0	43	104	0	74	20977
2026-01-01 01:08:10.95	249.50	13.91	-51.6	-66.7	3.8	1.49e+00	0	43	104	0	74	20971
2026-01-01 01:08:11.95	249.38	13.82	-51.6	-66.7	3.8	1.49e+00	0	43	104	0	74	20983
2026-01-01 01:08:12.95	249.27	13.74	-51.5	-66.7	3.8	1.49e+00	0	43	104	0	74	20963
2026-01-01 01:08:13.96	249.15	13.66	-51.6	-66.8	3.8	1.49e+00	0	43	104	0	74	21037
2026-01-01 01:08:14.96	249.03	13.57	-51.5	-66.7	3.8	1.49e+00	0	43	104	0	74	20936
2026-01-01 01:08:15.97	248.92	13.49	-51.6	-66.8	3.8	1.49e+00	0	43	104	0	74	21044
2026-01-01 01:08:16.97	248.80	13.41	-51.6	-66.7	3.8	1.49e+00	0	43	104	0	74	20976
2026-01-01 01:08:17.97	248.69	13.32	-51.5	-66.7	3.8	1.49e+00	0	43	104	0	74	20969
2026-01-01 01:08:18.98	248.57	13.24	-51.5	-66.7	3.8	1.49e+00	0	43	104	0	74	21010
2026-01-01 01:08:19.99	248.46	13.16	-51.5	-66.8	3.8	1.49e+00	0	43	104	0	74	21041
2026-01-01 01:08:20.99	248.35	13.08	-51.5	-66.7	3.8	1.49e+00	0	43	104	0	74	20841
2026-01-01 01:08:21.99	248.23	12.99	-51.6	-66.7	3.8	1.49e+00	0	43	104	0	74	20944
2026-01-01 01:08:23.00	248.12	12.91	-51.6	-66.7	3.8	1.49e+00	0	43	104	0	74	20934
2026-01-01 01:08:24.00	248.01	12.83	-51.5	-66.7	3.8	1.49e+00	0	43	104	0	74	20941
2026-01-01 01:08:25.00	247.90	12.75	-51.6	-66.7	3.8	1.49e+00	0	43	104	0	74	20996
2026-01-01 01:08:26.01	247.79	12.67	-51.5	-66.7	3.8	1.49e+00	0	43	104	0	74	20939
2026-01-01 01:08:27.01	247.68	12.59	-51.5	-66.7	3.8	1.49e+00	0	43	104	0	74	20995
2026-01-01 01:08:28.02	247.58	12.50	-51.6	-66.7	3.8	1.49e+00	0	43	104	0	74	20966
2026-01-01 01:08:29.02	247.47	12.42	-51.5	-66.7	3.8	1.49e+00	0	43	104	0	74	20956
2026-01-01 01:08:30.02	247.36	12.34	-51.5	-66.7	3.8	1.49e+00	0	43	104	0	74	20967
2026-01-01 01:08:31.03	247.25	12.26	-51.5	-66.7	3.8	1.49e+00	0	43	104	0	74	20950
2026-01-01 01:08:32.04	247.15	12.18	-51.6	-66.7	3.8	1.49e+00	0	43	104	0	74	20997
2026-01-01 01:08:33.04	247.04	12.10	-51.5	-66.7	3.8	1.49e+00	0	43	104	0	74	20908
2026-01-01 01:08:34.04	246.94	12.02	-51.5	-66.7	3.8	1.49e+00	0	43	104	0	74	20900
2026-01-01 01:08:35.05	246.83	11.94	-51.5	-66.7	3.8	1.49e+00	0	43	104	0	74	20879
2026-01-01 01:08:36.05	246.73	11.86	-51.5	-66.7	3.8	1.49e+00	0	43	104	0	74	20892
2026-01-01 01:08:37.06	246.63	11.78	-51.6	-66.7	3.8	1.49e+00	0	43	104	0	74	20926
2026-01-01 01:08:38.06	246.53	11.70	-51.5	-66.7	3.8	1.49e+00	0	42	104	0	74	20952
2026-01-01 01:08:39.06	246.42	11.62	-51.5	-66.7	3.8	1.49e+00	0	42	104	0	74	20978
2026-01-01 01:08:40.07	246.32	11.54	-51.6	-66.7	3.8	1.49e+00	0	43	104	0	74	20972
2026-01-01 01:08:41.07	246.22	11.46	-51.6	-66.8	3.8	1.49e+00	0	43	104	0	74	21047
2026-01-01 01:08:42.08	246.12	11.38	-51.6	-66.7	3.8	1.49e+00	0	42	104	0	74	20962
2026-01-01 01:08:43.08	246.02	11.31	-51.5	-66.7	3.8	1.49e+00	0	43	104	0	74	20886
2026-01-01 01:08:44.09	245.92	11.23	-51.5	-66.7	3.8	1.49e+00	0	43	104	0	74	20989
2026-01-01 01:08:45.09	245.82	11.15	-51.5	-66.7	3.8	1.49e+00	0	43	104	0	74	20937
2026-01-01 01:08:46.09	245.73	11.07	-51.6	-66.7	3.8	1.49e+00	0	43	104	0	74	20967
2026-01-01 01:08:47.10	245.63	10.99	-51.5	-66.8	3.8	1.49e+00	0	43	104	0	74	21033
2026-01-01 01:08:48.10	245.53	10.92	-51.5	-66.7	3.8	1.49e+00	0	43	104	0	74	20902
2026-01-01 01:08:49.11	245.44	10.84	-51.6	-66.7	3.8	1.49e+00	0	43	104	0	74	20966
2026-01-01 01:08:50.11	245.34	10.76	-51.5	-66.7	3.8	1.49e+00	0	43	104	0	74	20899
2026-01-01 01:08:51.12	245.24	10.68	-51.5	-66.8	3.8	1.49e+00	0	43	104	0	74	21027
2026-01-01 01:08:52.12	245.15	10.61	-51.5	-66.7	3.8	1.49e+00	0	43	104	0	74	20896
2026-01-01 01:08:53.12	245.06	10.53	-51.5	-66.7	3.8	1.49e+00	0	43	104	0	74	20910
2026-01-01 01:08:54.13	244.96	10.45	-51.6	-66.8	3.8	1.49e+00	0	43	104	0	74	21123
2026-01-01 01:08:55.13	244.87	10.37	-51.6	-66.8	3.8	1.49e+00	0	42	104	0	74	21100
2026-01-01 01:08:56.14	244.78	10.30	-51.6	-66.8	3.8	1.49e+00	0	43	104	0	74	21028
2026-01-01 01:08:57.14	244.68	10.22	-51.6	-66.8	3.8	1.49e+00	0	43	104	0	74	21052
2026-01-01 01:08:58.14	244.59	10.15	-51.6	-66.8	3.8	1.49e+00	0	43	104	0	74	21159
2026-01-01 01:08:59.15	244.50	10.07	-51.6	-66.8	3.8	1.49e+00	0	43	104	0	74	21070
2026-01-01 01:09:00.15	244.41	9.99	-51.6	-66.7	3.8	1.49e+00	0	43	104	0	74	20983
2026-01-01 01:09:01.16	244.32	9.92	-51.6	-66.8	3.8	1.49e+00	0	43	104	0	74	21048
2026-01-01 01:09:02.16	244.23	9.84	-51.6	-66.8	3.8	1.49e+00	0	43	104	0	74	21041
2026-01-01 01:09:03.16	244.14	9.77	-51.6	-66.7	3.8	1.49e+00	0	43	104	0	74	20984
2026-01-01 01:09:04.17	244.05	9.69	-51.6	-66.8	3.8	1.49e+00	0	43	104	0	74	21046
2026-01-01 01:09:05.18	243.96	9.62	-51.6	-66.7	3.8	1.49e+00	0	43	104	0	74	20975
2026-01-01 01:09:06.18	243.87	9.54	-51.6	-66.8	3.8	1.49e+00	0	43	104	0	74	21074
2026-01-01 01:09:07.18	243.79	9.47	-51.6	-66.8	3.8	1.49e+00	0	43	104	0	74	21093
2026-01-01 01:09:08.19	243.70	9.39	-51.6	-66.8	3.8	1.49e+00	0	43	104	0	74	21029
2026-01-01 01:09:09.19	243.61	9.32	-51.6	-66.7	3.8	1.49e+00	0	43	104	0	74	20920
2026-01-01 01:09:10.19	243.53	9.24	-51.6	-66.8	3.8	1.49e+00	0	43	104	0	74	21157
2026-01-01 01:09:11.20	243.44	9.17	-51.6	-66.8	3.8	1.49e+00	0	42	104	0	74	21083
2026-01-01 01:09:12.20	243.36	9.10	-51.6	-66.7	3.8	1.49e+00	0	43	104	0	74	20964
2026-01-01 01:09:13.20	243.27	9.02	-51.6	-66.8	3.8	1.49e+00	0	43	104	0	74	21061
2026-01-01 01:09:14.21	243.19	8.95	-51.6	-66.8	3.8	1.49e+00	0	43	104	0	74	21047
2026-01-01 01:09:15.21	243.10	8.88	-51.6	-66.7	3.8	1.49e+00	0	43	104	0	74	20999
2026-01-01 01:09:16.22	243.02	8.80	-51.6	-66.8	3.8	1.49e+00	0	43	104	0	74	21055
2026-01-01 01:09:17.22	242.94	8.73	-51.6	-66.8	3.8	1.49e+00	0	43	104	0	74	21087
2026-01-01 01:09:18.23	242.85	8.66	-51.6	-66.8	3.8	1.49e+00	0	43	104	0	74	21167
2026-01-01 01:09:19.23	242.77	8.58	-51.6	-66.8	3.8	1.49e+00	0	43	104	0	74	21024
2026-01-01 01:09:20.24	242.69	8.51	-51.6	-66.8	3.8	1.49e+00	0	43	104	0	74	21070
2026-01-01 01:09:21.24	242.61	8.44	-51.6	-66.8	3.8	1.49e+00	0	43	104	0	74	21066
2026-01-01 01:09:22.24	242.53	8.37	-51.6	-66.7	3.8	1.49e+00	0	43	104	0	74	20973
2026-01-01 01:09:23.25	242.45	8.29	-51.6	-66.8	3.8	1.49e+00	0	43	104	0	74	21054
2026-01-01 01:09:24.25	242.37	8.22	-51.6	-66.7	3.8	1.49e+00	0	43	104	0	74	20985
2026-01-01 01:09:25.26	242.29	8.15	-51.6	-66.7	3.8	1.49e+00	0	43	104	0	74	20986
2026-01-01 01:09:26.26	242.21	8.08	-51.6	-66.7	3.8	1.49e+00	0	43	104	0	74	20963
2026-01-01 01:09:27.26	242.13	8.01	-51.6	-66.8	3.8	1.49e+00	0	43	104	0	74	21089
2026-01-01 01:09:28.27	242.05	7.93	-51.6	-66.7	3.8	1.49e+00	0	43	104	0	74	20983
2026-01-01 01:09:29.27	241.97	7.86	-51.5	-66.7	3.8	1.49e+00	0	43	104	0	74	20873
2026-01-01 01:09:30.28	241.89	7.79	-51.5	-66.7	3.8	1.49e+00	0	43	104	0	74	20982
2026-01-01 01:09:31.28	241.82	7.72	-51.6	-66.7	3.8	1.49e+00	0	43	104	0	74	21003
2026-01-01 01:09:32.29	241.74	7.65	-51.6	-66.8	3.8	1.49e+00	0	43	104	0	74	21039
2026-01-01 01:09:33.29	241.66	7.58	-51.6	-66.8	3.8	1.49e+00	0	43	104	0	74	21116
2026-01-01 01:09:34.29	241.59	7.51	-51.6	-66.7	3.8	1.49e+00	0	43	104	0	74	20998
2026-01-01 01:09:35.30	241.51	7.44	-51.6	-66.8	3.8	1.49e+00	0	43	104	0	74	21052
2026-01-01 01:09:36.30	241.43	7.37	-51.6	-66.8	3.8	1.49e+00	0	43	104	0	74	21069
2026-01-01 01:09:37.31	241.36	7.30	-51.6	-66.8	3.8	1.49e+00	0	43	104	0	74	21082
2026-01-01 01:09:38.31	241.28	7.23	-51.6	-66.7	3.8	1.49e+00	0	43	104	0	74	21015
2026-01-01 01:09:39.57	241.19	7.14	-51.6	-66.8	3.8	1.49e+00	0	43	104	0	74	21019
2026-01-01 01:09:40.34	241.13	7.09	-51.6	-66.7	3.8	1.49e+00	0	43	104	0	74	20960
2026-01-01 01:09:41.93	241.02	6.98	-51.6	-66.7	3.8	1.49e+00	0	43	104	0	74	20990
2026-01-01 01:09:42.50	240.98	6.94	-51.6	-66.8	3.8	1.49e+00	0	43	104	0	74	21046
2026-01-01 01:09:44.08	240.86	6.83	-51.6	-66.7	3.8	1.49e+00	0	43	104	0	74	20991
2026-01-01 01:09:44.67	240.82	6.79	-51.6	-66.7	3.8	1.49e+00	0	43	104	0	74	20995
2026-01-01 01:09:46.25	240.71	6.68	-51.6	-66.8	3.8	1.49e+00	0	43	104	0	74	21066
2026-01-01 01:09:46.84	240.66	6.64	-51.6	-66.7	3.8	1.49e+00	0	43	104	0	74	20937
2026-01-01 01:09:48.42	240.55	6.53	-51.6	-66.7	3.8	1.49e+00	0	43	104	0	74	21008
2026-01-01 01:09:49.01	240.51	6.49	-51.6	-66.8	3.8	1.49e+00	0	43	104	0	74	21167
2026-01-01 01:09:50.59	240.40	6.38	-51.6	-66.8	3.8	1.49e+00	0	43	104	0	74	21025
2026-01-01 01:09:51.19	240.36	6.34	-51.6	-66.7	3.8	1.49e+00	0	43	104	0	74	20922
2026-01-01 01:09:52.77	240.25	6.24	-51.5	-66.7	3.8	1.49e+00	0	43	104	0	74	20930
2026-01-01 01:09:53.34	240.21	6.20	-51.6	-66.7	3.8	1.49e+00	0	43	104	0	74	20945
2026-01-01 01:09:54.96	240.10	6.09	-51.6	-66.7	3.8	1.49e+00	0	43	104	0	74	20957
2026-01-01 01:09:55.54	240.06	6.05	-51.5	-66.7	3.8	1.49e+00	0	43	104	0	74	20983
2026-01-01 01:09:57.12	239.95	5.94	-51.6	-66.8	3.8	1.49e+00	0	43	104	0	74	21050
2026-01-01 01:09:57.69	239.91	5.90	-51.6	-66.8	3.8	1.49e+00	0	43	104	0	74	21027
2026-01-01 01:09:59.27	239.80	5.80	-51.6	-66.8	3.8	1.49e+00	0	43	104	0	74	21018
2026-01-01 01:09:59.86	239.77	5.76	-51.6	-66.7	3.8	1.49e+00	0	43	104	0	74	20960
2026-01-01 01:10:01.44	239.66	5.65	-51.6	-66.8	3.8	1.49e+00	0	43	104	0	74	21069
2026-01-01 01:10:02.01	239.62	5.62	-51.6	-66.7	3.8	1.49e+00	0	43	104	0	74	21017
2026-01-01 01:10:03.59	239.52	5.51	-51.6	-66.7	3.8	1.49e+00	0	43	104	0	74	20967
2026-01-01 01:10:04.17	239.48	5.47	-51.6	-66.8	3.8	1.49e+00	0	43	104	0	74	21038
2026-01-01 01:10:05.75	239.38	5.37	-51.5	-66.7	3.8	1.49e+00	0	43	104	0	74	20945
2026-01-01 01:10:06.33	239.34	5.33	-51.6	-66.7	3.8	1.49e+00	0	43	104	0	74	20960
2026-01-01 01:10:08.01	239.23	5.22	-51.5	-66.7	3.8	1.49e+00	0	43	104	0	74	20960
2026-01-01 01:10:08.58	239.19	5.18	-51.5	-66.7	3.8	1.49e+00	0	43	104	0	74	20915
2026-01-01 01:10:10.17	239.09	5.08	-51.5	-66.7	3.8	1.49e+00	0	43	104	0	74	20859
2026-01-01 01:10:10.75	239.05	5.04	-51.5	-66.7	3.8	1.49e+00	0	43	104	0	74	20905
2026-01-01 01:10:12.33	238.95	4.94	-51.6	-66.7	3.8	1.49e+00	0	43	104	0	74	21002

#Closed at: 2026-01-01 01:10:12
#Recorded file [0 MB]: D:/Data/31040_260101_035829.dat