passes_logs/2026/01/01/T1/T1__20260101_125025_AQUA_rec.log

#Pass ID: 20260101_125025_AQUA
#Satellite: AQUA
#Configuration: AQUA
#almurnet v.1.7.20251203
#Start time: 2026-01-01 12:50:25

#Version: 2.0.20230620
#Station: T1
#Location: 37.570604 lon 55.790049 lat
#TLE: 1 27424U 02022A   25365.92641128  .00002078  00000+0  42628-3 0  9990
#TLE: 2 27424  98.4058 327.1196 0001962  94.7781 340.6230 14.61783896258835

#Time	Az	El	Level	Level2	SNR	BER	BlckErr	Temp	State	Recorded	gain1	gain2
2026-01-01 12:50:25.28	202.49	5.01	-52.5	-73.9	3.8	7.48e-01	0	39	0	0	76	42881
2026-01-01 12:50:26.27	202.57	5.08	-52.4	-73.9	3.8	7.46e-01	0	39	104	0	75	45432
2026-01-01 12:50:27.28	202.65	5.14	-52.4	-73.9	3.8	7.46e-01	0	39	104	0	75	45205
2026-01-01 12:50:28.28	202.74	5.21	-52.4	-73.9	3.8	7.45e-01	0	39	104	0	75	45005
2026-01-01 12:50:29.29	202.82	5.28	-52.4	-73.9	3.8	7.46e-01	0	39	104	0	75	45102
2026-01-01 12:50:30.29	202.91	5.34	-52.4	-73.8	3.8	7.45e-01	0	39	104	0	75	44830
2026-01-01 12:50:31.30	202.99	5.41	-52.4	-73.9	3.8	7.45e-01	0	39	104	0	75	44955
2026-01-01 12:50:32.30	203.08	5.48	-52.4	-73.8	3.8	7.42e-01	0	39	104	0	75	44817
2026-01-01 12:50:33.30	203.17	5.54	-52.4	-73.9	3.8	7.46e-01	0	39	104	0	75	45263
2026-01-01 12:50:34.31	203.25	5.61	-52.4	-73.9	3.8	7.43e-01	0	39	104	0	75	45352
2026-01-01 12:50:35.31	203.34	5.68	-52.4	-73.9	3.8	7.46e-01	0	39	104	0	75	45404
2026-01-01 12:50:36.31	203.43	5.75	-52.3	-73.7	3.8	7.46e-01	0	39	104	0	75	44411
2026-01-01 12:50:37.32	203.52	5.82	-52.3	-73.6	3.8	7.46e-01	0	39	104	0	75	43704
2026-01-01 12:50:38.32	203.60	5.88	-52.3	-73.4	3.8	7.42e-01	0	39	104	0	75	42470
2026-01-01 12:50:39.32	203.69	5.95	-52.4	-73.2	3.8	7.46e-01	0	39	104	0	75	41884
2026-01-01 12:50:40.33	203.78	6.02	-52.3	-73.0	3.8	7.45e-01	0	39	104	0	75	40642
2026-01-01 12:50:41.33	203.87	6.09	-52.4	-72.8	3.8	7.47e-01	0	39	104	0	75	39725
2026-01-01 12:50:42.33	203.96	6.16	-52.3	-72.3	3.8	7.44e-01	0	39	104	0	75	37640
2026-01-01 12:50:43.34	204.05	6.23	-52.3	-71.7	3.9	7.42e-01	0	39	104	0	75	35172
2026-01-01 12:50:44.34	204.14	6.30	-52.3	-70.8	4.1	7.35e-01	0	40	104	0	75	31704
2026-01-01 12:50:45.34	204.24	6.36	-52.3	-70.8	3.9	7.44e-01	0	40	104	0	75	31674
2026-01-01 12:50:46.35	204.33	6.43	-52.3	-70.5	3.9	7.40e-01	0	39	104	0	75	30404
2026-01-01 12:50:47.35	204.42	6.50	-52.3	-71.0	3.8	7.40e-01	0	40	104	0	75	32491
2026-01-01 12:50:48.36	204.51	6.57	-52.3	-71.0	4.1	7.39e-01	0	40	104	0	75	32536
2026-01-01 12:50:49.36	204.61	6.64	-52.3	-71.8	3.9	7.42e-01	0	40	104	0	75	35409
2026-01-01 12:50:50.36	204.70	6.71	-52.3	-72.4	3.8	7.41e-01	0	40	104	0	75	38042
2026-01-01 12:50:51.37	204.80	6.78	-52.4	-72.9	3.8	7.46e-01	0	40	104	0	75	40304
2026-01-01 12:50:52.37	204.89	6.85	-52.4	-73.2	3.8	7.45e-01	0	40	104	0	75	41748
2026-01-01 12:50:53.37	204.99	6.92	-52.4	-73.4	3.8	7.43e-01	0	40	104	0	75	42781
2026-01-01 12:50:54.38	205.08	6.99	-52.3	-73.5	3.8	7.42e-01	0	40	104	0	75	43200
2026-01-01 12:50:55.38	205.18	7.06	-52.3	-73.5	3.8	7.46e-01	0	40	104	0	75	43031
2026-01-01 12:50:56.38	205.27	7.13	-52.3	-73.5	3.8	7.44e-01	0	40	104	0	75	43125
2026-01-01 12:50:57.38	205.37	7.20	-52.4	-73.6	3.8	7.47e-01	0	40	104	0	75	43746
2026-01-01 12:50:58.39	205.47	7.28	-52.3	-73.4	3.8	7.44e-01	0	40	104	0	75	42447
2026-01-01 12:50:59.39	205.57	7.35	-52.3	-71.5	3.9	7.45e-01	0	40	104	0	75	34221
2026-01-01 12:51:00.40	205.67	7.42	-52.2	-67.8	5.3	7.01e-01	0	40	0	0	75	22468
2026-01-01 12:51:01.40	205.77	7.49	-52.0	-65.0	7.6	6.54e-01	0	40	0	1572864	75	16147
2026-01-01 12:51:02.40	205.87	7.56	-51.8	-62.7	9.9	6.28e-01	0	40	0	3670016	75	12512
2026-01-01 12:51:03.41	205.97	7.63	-51.6	-61.4	11.4	6.17e-01	0	40	0	5242880	75	10661
2026-01-01 12:51:04.41	206.07	7.71	-51.5	-60.7	12.0	6.14e-01	0	40	0	7340032	75	9944
2026-01-01 12:51:05.41	206.17	7.78	-51.6	-61.1	11.6	6.12e-01	0	40	0	8912896	75	10407
2026-01-01 12:51:06.42	206.27	7.85	-51.8	-62.8	9.9	6.27e-01	0	40	0	11010048	75	12629
2026-01-01 12:51:07.42	206.37	7.92	-52.1	-66.2	6.6	6.72e-01	0	40	0	12582912	75	18573
2026-01-01 12:51:08.42	206.48	8.00	-52.2	-68.1	5.1	7.08e-01	0	40	0	13631488	75	23129
2026-01-01 12:51:09.43	206.58	8.07	-51.8	-62.8	9.7	6.27e-01	0	40	0	15204352	75	12549
2026-01-01 12:51:10.43	206.68	8.14	-51.0	-58.4	14.4	6.09e-01	0	40	0	16777216	74	8004
2026-01-01 12:51:11.44	206.79	8.21	-50.0	-55.5	17.3	6.07e-01	0	40	0	18874368	72	6431
2026-01-01 12:51:12.44	206.89	8.29	-49.1	-53.6	19.3	6.06e-01	0	40	0	20447232	70	5795
2026-01-01 12:51:13.45	207.00	8.36	-48.5	-52.4	20.4	6.04e-01	0	40	0	22544384	69	5383
2026-01-01 12:51:14.45	207.11	8.44	-48.0	-51.7	21.1	6.07e-01	0	40	0	24641536	68	5246
2026-01-01 12:51:15.45	207.21	8.51	-47.9	-51.5	21.2	6.05e-01	0	40	0	26214400	67	5443
2026-01-01 12:51:16.46	207.32	8.58	-48.1	-51.8	21.0	6.07e-01	0	40	0	28311552	67	5654
2026-01-01 12:51:17.46	207.43	8.66	-48.4	-52.5	20.4	6.05e-01	0	40	0	29884416	67	6076
2026-01-01 12:51:18.46	207.54	8.73	-49.1	-53.6	19.4	6.08e-01	0	40	0	31981568	68	6495
2026-01-01 12:51:19.47	207.65	8.81	-49.8	-54.9	18.1	6.08e-01	0	40	0	33554432	70	6754
2026-01-01 12:51:20.47	207.76	8.88	-50.4	-56.5	16.5	6.06e-01	0	40	0	35651584	71	7659
2026-01-01 12:51:21.47	207.87	8.95	-51.0	-58.2	14.7	6.06e-01	0	40	0	37748736	72	8769
2026-01-01 12:51:22.47	207.98	9.03	-50.5	-56.8	15.6	6.06e-01	0	40	0	39321600	73	7113
2026-01-01 12:51:23.47	208.09	9.10	-50.0	-55.5	17.7	6.08e-01	0	40	0	41418752	70	7212
2026-01-01 12:51:24.47	208.20	9.18	-51.2	-59.0	14.0	6.09e-01	0	40	0	42991616	73	9075
2026-01-01 12:51:25.47	208.31	9.25	-51.6	-60.4	11.8	6.16e-01	0	40	0	45088768	75	9562
2026-01-01 12:51:26.47	208.43	9.33	-51.0	-57.9	15.6	6.07e-01	0	40	0	47185920	72	8482
2026-01-01 12:51:27.46	208.54	9.40	-51.6	-60.7	11.7	6.16e-01	0	41	0	48758784	74	10455
2026-01-01 12:51:28.46	208.65	9.48	-49.3	-53.8	19.2	6.07e-01	0	40	0	50855936	70	5928
2026-01-01 12:51:29.45	208.77	9.55	-49.4	-53.9	19.3	6.07e-01	0	40	0	52428800	70	6020
2026-01-01 12:51:30.45	208.88	9.63	-49.1	-53.6	19.5	6.08e-01	0	41	0	54525952	70	5802
2026-01-01 12:51:31.46	209.00	9.71	-49.0	-53.3	19.7	6.07e-01	0	41	0	56098816	69	5985
2026-01-01 12:51:32.45	209.11	9.78	-48.5	-52.5	20.4	6.05e-01	0	41	0	58195968	69	5419
2026-01-01 12:51:33.45	209.23	9.86	-48.2	-51.9	21.0	6.07e-01	0	41	0	60293120	68	5359
2026-01-01 12:51:34.45	209.35	9.94	-48.1	-51.6	21.3	6.07e-01	0	40	0	61865984	68	5202
2026-01-01 12:51:35.45	209.47	10.01	-47.9	-51.3	21.5	6.08e-01	0	41	0	63963136	67	5310
2026-01-01 12:51:36.45	209.59	10.09	-47.9	-51.4	21.5	6.06e-01	0	41	0	65536000	67	5360
2026-01-01 12:51:37.45	209.71	10.17	-47.8	-51.2	21.7	6.06e-01	0	40	0	67633152	67	5237
2026-01-01 12:51:38.45	209.83	10.24	-47.9	-51.2	21.7	6.09e-01	0	41	0	69206016	67	5227
2026-01-01 12:51:39.45	209.95	10.32	-47.8	-51.0	21.9	6.07e-01	0	41	0	71303168	67	5112
2026-01-01 12:51:40.45	210.07	10.40	-47.7	-50.9	22.0	6.08e-01	0	41	0	73400320	67	5049
2026-01-01 12:51:41.45	210.19	10.48	-47.8	-50.9	22.0	6.06e-01	0	41	0	74973184	67	5099
2026-01-01 12:51:42.45	210.32	10.55	-47.8	-50.9	21.9	6.10e-01	0	40	0	77070336	67	5098
2026-01-01 12:51:43.45	210.44	10.63	-47.9	-51.1	21.8	6.08e-01	0	41	0	78643200	67	5173
2026-01-01 12:51:44.45	210.57	10.71	-47.8	-50.9	22.0	6.09e-01	0	41	0	80740352	67	5099
2026-01-01 12:51:45.44	210.69	10.79	-47.9	-51.0	21.9	6.07e-01	0	41	0	82313216	67	5128
2026-01-01 12:51:46.44	210.82	10.87	-47.9	-51.1	21.9	6.09e-01	0	40	0	84410368	67	5182
2026-01-01 12:51:47.44	210.94	10.95	-47.8	-51.0	21.9	6.06e-01	0	41	0	86507520	67	5102
2026-01-01 12:51:48.43	211.07	11.02	-47.7	-50.7	22.2	6.09e-01	0	41	0	88080384	67	4968
2026-01-01 12:51:49.44	211.20	11.10	-47.7	-50.8	22.1	6.09e-01	0	41	0	90177536	67	5026
2026-01-01 12:51:50.44	211.33	11.18	-47.7	-50.8	22.0	6.06e-01	0	41	0	91750400	67	5041
2026-01-01 12:51:51.43	211.46	11.26	-47.8	-50.9	22.1	6.07e-01	0	41	0	93847552	67	5054
2026-01-01 12:51:52.43	211.59	11.34	-47.7	-50.8	22.1	6.06e-01	0	41	0	95944704	67	5032
2026-01-01 12:51:53.43	211.72	11.42	-47.7	-50.8	22.2	6.06e-01	0	41	0	97517568	67	4986
2026-01-01 12:51:54.42	211.85	11.50	-47.7	-50.7	22.1	6.07e-01	0	41	0	99090432	67	4980
2026-01-01 12:51:55.42	211.98	11.58	-47.6	-50.6	22.3	6.04e-01	0	41	0	101187584	67	4908
2026-01-01 12:51:56.42	212.11	11.66	-47.5	-50.6	22.4	6.07e-01	0	41	0	103284736	67	4877
2026-01-01 12:51:57.42	212.25	11.74	-47.5	-50.5	22.4	6.08e-01	0	41	0	104857600	67	4849
2026-01-01 12:51:58.42	212.38	11.82	-47.5	-50.5	22.4	6.06e-01	0	41	0	106954752	66	5128
2026-01-01 12:51:59.42	212.52	11.90	-47.5	-50.6	22.5	6.06e-01	0	41	0	108527616	66	5173
2026-01-01 12:52:00.41	212.65	11.98	-47.4	-50.5	22.5	6.05e-01	0	41	0	110624768	66	5137
2026-01-01 12:52:01.41	212.79	12.06	-47.4	-50.6	22.5	6.07e-01	0	41	0	112721920	66	5162
2026-01-01 12:52:02.41	212.93	12.14	-47.4	-50.6	22.4	6.06e-01	0	41	0	114294784	66	5161
2026-01-01 12:52:03.41	213.07	12.23	-47.4	-50.5	22.5	6.07e-01	0	41	0	116391936	66	5152
2026-01-01 12:52:04.41	213.21	12.31	-47.5	-50.6	22.5	6.07e-01	0	41	0	117964800	66	5169
2026-01-01 12:52:05.41	213.35	12.39	-47.6	-50.6	22.4	6.06e-01	0	41	0	120061952	66	5214
2026-01-01 12:52:06.41	213.49	12.47	-47.5	-50.6	22.5	6.08e-01	0	41	0	121634816	66	5174
2026-01-01 12:52:07.41	213.63	12.55	-47.6	-50.6	22.4	6.08e-01	0	41	0	123731968	66	5193
2026-01-01 12:52:08.41	213.77	12.63	-47.6	-50.6	22.4	6.10e-01	0	41	0	125829120	66	5177
2026-01-01 12:52:09.41	213.92	12.72	-47.6	-50.6	22.4	6.02e-01	0	41	0	127401984	66	5190
2026-01-01 12:52:10.42	214.06	12.80	-47.5	-50.5	22.6	6.07e-01	0	41	0	129499136	66	5108
2026-01-01 12:52:11.42	214.21	12.88	-47.4	-50.4	22.7	6.06e-01	0	41	0	131072000	66	5062
2026-01-01 12:52:12.41	214.36	12.96	-47.4	-50.4	22.7	6.05e-01	0	41	0	133169152	66	5066
2026-01-01 12:52:13.42	214.50	13.05	-47.5	-50.5	22.5	6.08e-01	0	41	0	134742016	66	5117
2026-01-01 12:52:14.41	214.65	13.13	-47.5	-50.5	22.5	6.08e-01	0	41	0	136839168	66	5135
2026-01-01 12:52:15.41	214.80	13.21	-47.6	-50.6	22.5	6.06e-01	0	41	0	138936320	66	5163
2026-01-01 12:52:16.41	214.95	13.30	-47.4	-50.3	22.7	6.06e-01	0	41	0	140509184	66	5039
2026-01-01 12:52:17.40	215.10	13.38	-47.4	-50.4	22.7	6.05e-01	0	41	0	142606336	66	5053
2026-01-01 12:52:18.40	215.25	13.46	-47.4	-50.3	22.7	6.08e-01	0	41	0	144179200	66	5033
2026-01-01 12:52:19.40	215.40	13.55	-47.4	-50.3	22.7	6.06e-01	0	41	0	146276352	66	5019
2026-01-01 12:52:20.39	215.55	13.63	-47.4	-50.4	22.7	6.08e-01	0	41	0	147849216	66	5051
2026-01-01 12:52:21.39	215.71	13.71	-47.4	-50.3	22.7	6.08e-01	0	41	0	149946368	66	5039
2026-01-01 12:52:22.39	215.86	13.80	-47.4	-50.4	22.7	6.03e-01	0	41	0	152043520	66	5084
2026-01-01 12:52:23.39	216.02	13.88	-47.4	-50.5	22.7	6.07e-01	0	41	0	153616384	66	5106
2026-01-01 12:52:24.39	216.18	13.97	-47.3	-50.4	22.8	6.08e-01	0	41	0	155713536	66	5057
2026-01-01 12:52:25.39	216.33	14.05	-47.3	-50.3	22.8	6.07e-01	0	41	0	157286400	66	5009
2026-01-01 12:52:26.39	216.49	14.14	-47.3	-50.3	22.8	6.07e-01	0	41	0	159383552	66	5025
2026-01-01 12:52:27.38	216.65	14.22	-47.3	-50.3	22.8	6.05e-01	0	41	0	161480704	66	4996
2026-01-01 12:52:28.38	216.81	14.31	-47.4	-50.3	22.8	6.05e-01	0	41	0	163053568	66	5026
2026-01-01 12:52:29.38	216.97	14.39	-47.4	-50.3	22.8	6.07e-01	0	41	0	165150720	66	5027
2026-01-01 12:52:30.37	217.14	14.48	-47.4	-50.3	22.8	6.05e-01	0	41	0	166723584	66	5018
2026-01-01 12:52:31.38	217.30	14.56	-47.5	-50.3	22.8	6.07e-01	0	41	0	168820736	66	5027
2026-01-01 12:52:32.37	217.46	14.65	-47.5	-50.4	22.9	6.08e-01	0	41	0	170393600	66	5062
2026-01-01 12:52:33.37	217.63	14.73	-47.5	-50.4	22.9	6.07e-01	0	41	0	172490752	66	5047
2026-01-01 12:52:34.37	217.80	14.82	-47.5	-50.4	22.8	6.09e-01	0	41	0	174063616	66	5091
2026-01-01 12:52:35.37	217.96	14.90	-47.4	-50.3	23.0	6.06e-01	0	41	0	176160768	66	5003
2026-01-01 12:52:36.37	218.13	14.99	-47.3	-50.2	23.1	6.07e-01	0	41	0	178257920	66	4955
2026-01-01 12:52:37.38	218.30	15.08	-47.4	-50.3	22.9	6.06e-01	0	41	0	179830784	66	4998
2026-01-01 12:52:38.37	218.47	15.16	-47.3	-50.2	23.0	6.08e-01	0	41	0	181927936	66	4943
2026-01-01 12:52:39.37	218.64	15.25	-47.3	-50.1	23.0	6.08e-01	0	41	0	183500800	66	4913
2026-01-01 12:52:40.36	218.82	15.33	-47.4	-50.2	23.0	6.07e-01	0	41	0	185597952	66	4964
2026-01-01 12:52:41.36	218.99	15.42	-47.5	-50.4	22.9	6.09e-01	0	41	0	187170816	66	5064
2026-01-01 12:52:42.36	219.16	15.51	-47.5	-50.4	22.9	6.07e-01	0	41	0	189267968	66	5068
2026-01-01 12:52:43.36	219.34	15.59	-47.5	-50.5	22.8	6.06e-01	0	41	0	191365120	66	5123
2026-01-01 12:52:44.36	219.52	15.68	-47.4	-50.3	23.0	6.08e-01	0	41	0	192937984	66	4988
2026-01-01 12:52:45.36	219.70	15.77	-47.3	-50.2	23.1	6.06e-01	0	41	0	195035136	66	4953
2026-01-01 12:52:46.36	219.87	15.85	-47.3	-50.2	23.1	6.08e-01	0	41	0	196608000	66	4941
2026-01-01 12:52:47.36	220.05	15.94	-47.4	-50.3	23.0	6.09e-01	0	41	0	198705152	66	4989
2026-01-01 12:52:48.35	220.23	16.03	-47.3	-50.1	23.2	6.06e-01	0	41	0	200278016	66	4881
2026-01-01 12:52:49.35	220.42	16.12	-47.3	-50.1	23.1	6.07e-01	0	41	0	202375168	66	4872
2026-01-01 12:52:50.35	220.60	16.20	-47.2	-50.0	23.3	6.06e-01	0	41	0	204472320	66	4856
2026-01-01 12:52:51.35	220.78	16.29	-47.2	-50.0	23.3	6.08e-01	0	41	0	206045184	66	4862
2026-01-01 12:52:52.34	220.97	16.38	-47.3	-50.1	23.2	6.06e-01	0	41	0	208142336	66	4902
2026-01-01 12:52:53.34	221.15	16.46	-47.4	-50.2	23.1	6.06e-01	0	41	0	209715200	66	4941
2026-01-01 12:52:54.34	221.34	16.55	-47.2	-50.0	23.3	6.07e-01	0	41	0	211812352	66	4840
2026-01-01 12:52:55.33	221.53	16.64	-47.3	-50.1	23.2	6.06e-01	0	41	0	213385216	66	4908
2026-01-01 12:52:56.33	221.72	16.73	-47.3	-50.1	23.2	6.06e-01	0	41	0	215482368	66	4906
2026-01-01 12:52:57.33	221.91	16.81	-47.3	-50.1	23.1	6.07e-01	0	41	0	217579520	66	4900
2026-01-01 12:52:58.34	222.11	16.90	-47.4	-50.2	23.2	6.06e-01	0	41	0	219152384	66	4938
2026-01-01 12:52:59.33	222.30	16.99	-47.3	-50.1	23.2	6.08e-01	0	41	0	221249536	66	4898
2026-01-01 12:53:00.33	222.49	17.08	-47.3	-50.1	23.2	6.06e-01	0	41	0	222822400	66	4912
2026-01-01 12:53:01.33	222.69	17.17	-47.3	-50.1	23.2	6.10e-01	0	41	0	224919552	66	4891
2026-01-01 12:53:02.33	222.89	17.26	-47.3	-50.1	23.3	6.06e-01	0	41	0	226492416	66	4876
2026-01-01 12:53:03.33	223.08	17.34	-47.2	-50.0	23.4	6.05e-01	0	41	0	228589568	66	4819
2026-01-01 12:53:04.32	223.28	17.43	-47.1	-49.9	23.3	6.08e-01	0	41	0	230162432	66	4800
2026-01-01 12:53:05.32	223.48	17.52	-47.2	-50.0	23.3	6.08e-01	0	41	0	232259584	66	4847
2026-01-01 12:53:06.32	223.69	17.61	-47.2	-50.0	23.2	6.08e-01	0	41	0	234356736	66	4848
2026-01-01 12:53:07.32	223.89	17.70	-47.3	-50.1	23.3	6.09e-01	0	41	0	235929600	66	4881
2026-01-01 12:53:08.31	224.09	17.78	-47.4	-50.2	23.2	6.07e-01	0	41	0	238026752	66	4946
2026-01-01 12:53:09.31	224.30	17.87	-47.4	-50.2	23.2	6.06e-01	0	41	0	239599616	66	4943
2026-01-01 12:53:10.31	224.50	17.96	-47.4	-50.3	23.1	6.08e-01	0	41	0	241696768	66	4984
2026-01-01 12:53:11.30	224.71	18.05	-47.3	-50.1	23.2	6.06e-01	0	41	0	243793920	66	4898
2026-01-01 12:53:12.30	224.92	18.13	-47.2	-49.9	23.4	6.06e-01	0	41	0	245366784	66	4784
2026-01-01 12:53:13.29	225.13	18.22	-47.2	-50.0	23.3	6.05e-01	0	41	0	247463936	66	4836
2026-01-01 12:53:14.29	225.34	18.31	-47.3	-50.1	23.3	6.08e-01	0	41	0	249036800	66	4881
2026-01-01 12:53:15.29	225.55	18.40	-47.4	-50.1	23.3	6.07e-01	0	41	0	251133952	66	4891
2026-01-01 12:53:16.29	225.77	18.49	-47.3	-50.0	23.3	6.06e-01	0	41	0	252706816	66	4856
2026-01-01 12:53:17.29	225.98	18.58	-47.4	-50.1	23.2	6.08e-01	0	41	0	254803968	66	4918
2026-01-01 12:53:18.29	226.20	18.66	-47.3	-50.1	23.2	6.09e-01	0	41	0	256901120	66	4897
2026-01-01 12:53:19.28	226.42	18.75	-47.4	-50.2	23.2	6.08e-01	0	41	0	258473984	66	4928
2026-01-01 12:53:20.28	226.64	18.84	-47.3	-50.0	23.3	6.06e-01	0	41	0	260571136	66	4867
2026-01-01 12:53:21.29	226.86	18.93	-47.3	-50.0	23.3	6.07e-01	0	41	0	262144000	66	4869
2026-01-01 12:53:22.29	227.08	19.02	-47.2	-50.0	23.3	6.04e-01	0	41	0	264241152	66	4837
2026-01-01 12:53:23.28	227.30	19.10	-47.2	-50.0	23.4	6.08e-01	0	41	0	265814016	66	4836
2026-01-01 12:53:24.28	227.53	19.19	-47.3	-50.0	23.3	6.06e-01	0	41	0	267911168	66	4866
2026-01-01 12:53:25.28	227.76	19.28	-47.2	-50.0	23.3	6.05e-01	0	41	0	270008320	66	4847
2026-01-01 12:53:26.28	227.98	19.37	-47.2	-50.0	23.3	6.06e-01	0	41	0	271581184	66	4855
2026-01-01 12:53:27.28	228.21	19.45	-47.3	-50.1	23.3	6.06e-01	0	41	0	273678336	66	4884
2026-01-01 12:53:28.29	228.45	19.54	-47.4	-50.2	23.1	6.06e-01	0	41	0	275251200	66	4943
2026-01-01 12:53:29.28	228.67	19.63	-47.4	-50.2	23.2	6.07e-01	0	41	0	277348352	66	4949
2026-01-01 12:53:30.29	228.91	19.72	-47.5	-50.2	23.1	6.07e-01	0	41	0	278921216	66	4974
2026-01-01 12:53:31.29	229.15	19.80	-47.3	-50.0	23.4	6.07e-01	0	41	0	281018368	66	4823
2026-01-01 12:53:32.29	229.38	19.89	-47.3	-50.0	23.4	6.08e-01	0	41	0	283115520	66	4827
2026-01-01 12:53:33.28	229.62	19.98	-47.3	-50.1	23.3	6.05e-01	0	41	0	284688384	66	4886
2026-01-01 12:53:34.28	229.85	20.06	-47.3	-50.1	23.2	6.08e-01	0	41	0	286785536	66	4896
2026-01-01 12:53:35.28	230.09	20.15	-47.4	-50.1	23.2	6.06e-01	0	41	0	288358400	66	4918
2026-01-01 12:53:36.27	230.33	20.24	-47.3	-50.1	23.2	6.07e-01	0	41	0	290455552	66	4902
2026-01-01 12:53:37.27	230.58	20.32	-47.4	-50.2	23.2	6.05e-01	0	41	0	292028416	66	4937
2026-01-01 12:53:38.27	230.82	20.41	-47.5	-50.2	23.1	6.05e-01	0	42	0	294125568	66	4960
2026-01-01 12:53:39.27	231.07	20.49	-47.6	-50.3	23.1	6.09e-01	0	41	0	295698432	66	5031
2026-01-01 12:53:40.27	231.31	20.58	-47.6	-50.4	23.0	6.06e-01	0	41	0	297795584	66	5062
2026-01-01 12:53:41.26	231.56	20.66	-47.7	-50.5	22.8	6.07e-01	0	41	0	299892736	66	5113
2026-01-01 12:53:42.26	231.81	20.75	-47.5	-50.3	23.0	6.05e-01	0	41	0	301465600	66	5000
2026-01-01 12:53:43.26	232.06	20.83	-47.4	-50.1	23.2	6.07e-01	0	41	0	303562752	66	4923
2026-01-01 12:53:44.26	232.31	20.92	-47.5	-50.2	23.1	6.06e-01	0	41	0	305135616	66	4958
2026-01-01 12:53:45.26	232.57	21.00	-47.5	-50.2	23.2	6.08e-01	0	41	0	307232768	66	4940
2026-01-01 12:53:46.26	232.82	21.09	-47.5	-50.2	23.3	6.08e-01	0	41	0	308805632	66	4940
2026-01-01 12:53:47.26	233.08	21.17	-47.5	-50.3	23.1	6.07e-01	0	42	0	310902784	66	5008
2026-01-01 12:53:48.26	233.34	21.26	-47.5	-50.4	23.1	6.08e-01	0	41	0	312999936	66	5046
2026-01-01 12:53:49.26	233.60	21.34	-47.5	-50.4	23.0	6.08e-01	0	41	0	314572800	66	5082
2026-01-01 12:53:50.26	233.86	21.42	-47.6	-50.5	22.9	6.06e-01	0	41	0	316669952	66	5116
2026-01-01 12:53:51.25	234.12	21.51	-47.5	-50.4	23.0	6.08e-01	0	41	0	318242816	66	5051
2026-01-01 12:53:52.25	234.39	21.59	-47.6	-50.5	23.0	6.09e-01	0	42	0	320339968	66	5119
2026-01-01 12:53:53.25	234.65	21.67	-47.4	-50.2	23.2	6.04e-01	0	41	0	322437120	66	4956
2026-01-01 12:53:54.24	234.92	21.75	-47.3	-50.1	23.3	6.08e-01	0	41	0	324009984	66	4892
2026-01-01 12:53:55.24	235.18	21.83	-47.4	-50.3	23.1	6.07e-01	0	41	0	326107136	66	4995
2026-01-01 12:53:56.23	235.45	21.92	-47.5	-50.3	23.1	6.08e-01	0	41	0	327680000	66	5031
2026-01-01 12:53:57.23	235.72	22.00	-47.4	-50.2	23.2	6.07e-01	0	41	0	329777152	66	4938
2026-01-01 12:53:58.23	236.00	22.08	-47.5	-50.3	23.0	6.06e-01	0	41	0	331350016	66	5024
2026-01-01 12:53:59.23	236.27	22.16	-47.5	-50.3	23.1	6.07e-01	0	41	0	333447168	66	4990
2026-01-01 12:54:00.22	236.54	22.24	-47.4	-50.2	23.2	6.05e-01	0	41	0	335020032	66	4948
2026-01-01 12:54:01.22	236.82	22.32	-47.4	-50.2	23.1	6.07e-01	0	41	0	337117184	66	4968
2026-01-01 12:54:02.22	237.10	22.40	-47.5	-50.3	23.1	6.08e-01	0	41	0	339214336	66	5015
2026-01-01 12:54:03.22	237.38	22.48	-47.5	-50.4	23.0	6.07e-01	0	41	0	340787200	66	5068
2026-01-01 12:54:04.22	237.66	22.55	-47.5	-50.4	23.0	6.07e-01	0	42	0	342884352	66	5069
2026-01-01 12:54:05.22	237.95	22.63	-47.6	-50.6	22.8	6.07e-01	0	41	0	344457216	66	5196
2026-01-01 12:54:06.22	238.23	22.71	-47.7	-50.7	22.6	6.05e-01	0	41	0	346554368	66	5275
2026-01-01 12:54:07.22	238.52	22.79	-47.6	-50.5	22.9	6.07e-01	0	41	0	348127232	66	5134
2026-01-01 12:54:08.21	238.80	22.86	-47.7	-50.6	22.9	6.06e-01	0	42	0	350224384	66	5165
2026-01-01 12:54:09.22	239.09	22.94	-47.7	-50.6	22.9	6.03e-01	0	42	0	352321536	66	5175
2026-01-01 12:54:10.21	239.38	23.02	-47.6	-50.4	23.0	6.05e-01	0	41	0	353894400	66	5086
2026-01-01 12:54:11.21	239.67	23.09	-47.5	-50.4	23.1	6.07e-01	0	42	0	355991552	66	5058
2026-01-01 12:54:12.21	239.97	23.17	-47.5	-50.4	23.0	6.07e-01	0	41	0	357564416	66	5059
2026-01-01 12:54:13.21	240.26	23.24	-47.7	-50.5	22.9	6.08e-01	0	41	0	359661568	66	5159
2026-01-01 12:54:14.21	240.56	23.31	-47.5	-50.4	23.0	6.06e-01	0	42	0	361234432	66	5064
2026-01-01 12:54:15.20	240.85	23.39	-47.5	-50.4	23.0	6.07e-01	0	41	0	363331584	66	5066
2026-01-01 12:54:16.20	241.15	23.46	-47.4	-50.2	23.1	6.06e-01	0	41	0	365428736	66	4979
2026-01-01 12:54:17.20	241.45	23.53	-47.6	-50.4	23.1	6.08e-01	0	42	0	367001600	66	5049
2026-01-01 12:54:18.20	241.75	23.60	-47.7	-50.5	22.9	6.08e-01	0	41	0	369098752	66	5126
2026-01-01 12:54:19.20	242.06	23.67	-47.7	-50.5	22.9	6.08e-01	0	41	0	370671616	66	5148
2026-01-01 12:54:20.19	242.36	23.74	-47.6	-50.4	23.1	6.06e-01	0	41	0	372768768	66	5055
2026-01-01 12:54:21.19	242.67	23.81	-47.5	-50.2	23.2	6.05e-01	0	41	0	374341632	66	4978
2026-01-01 12:54:22.19	242.97	23.88	-47.6	-50.4	23.0	6.07e-01	0	41	0	376438784	66	5068
2026-01-01 12:54:23.19	243.28	23.95	-47.6	-50.4	23.1	6.08e-01	0	42	0	378535936	66	5063
2026-01-01 12:54:24.19	243.59	24.02	-47.6	-50.5	23.0	6.08e-01	0	41	0	380108800	66	5103
2026-01-01 12:54:25.20	243.91	24.09	-47.7	-50.5	22.9	6.07e-01	0	42	0	382205952	66	5126
2026-01-01 12:54:26.19	244.22	24.15	-47.7	-50.5	22.9	6.08e-01	0	42	0	383778816	66	5138
2026-01-01 12:54:27.19	244.53	24.22	-47.7	-50.5	23.0	6.05e-01	0	41	0	385875968	66	5103
2026-01-01 12:54:28.19	244.85	24.29	-47.8	-50.6	22.8	6.06e-01	0	42	0	387973120	66	5205
2026-01-01 12:54:29.19	245.16	24.35	-47.8	-50.6	22.8	6.07e-01	0	41	0	389545984	66	5187
2026-01-01 12:54:30.18	245.48	24.41	-47.8	-50.6	22.9	6.07e-01	0	41	0	391643136	66	5197
2026-01-01 12:54:31.18	245.80	24.48	-47.8	-50.7	22.8	6.09e-01	0	41	0	393216000	66	5224
2026-01-01 12:54:32.18	246.12	24.54	-47.6	-50.5	22.8	6.08e-01	0	41	0	395313152	66	5144
2026-01-01 12:54:33.17	246.44	24.60	-47.5	-50.4	23.0	6.06e-01	0	42	0	396886016	66	5081
2026-01-01 12:54:34.17	246.76	24.66	-47.6	-50.6	22.9	6.06e-01	0	41	0	398983168	66	5164
2026-01-01 12:54:35.17	247.09	24.72	-47.5	-50.5	23.0	6.07e-01	0	41	0	400556032	66	5115
2026-01-01 12:54:36.17	247.41	24.78	-47.6	-50.5	23.0	6.05e-01	0	41	0	402653184	66	5107
2026-01-01 12:54:37.16	247.74	24.84	-47.5	-50.5	23.0	6.06e-01	0	41	0	404750336	66	5110
2026-01-01 12:54:38.16	248.07	24.90	-47.5	-50.5	22.9	6.06e-01	0	42	0	406323200	66	5153
2026-01-01 12:54:39.16	248.40	24.95	-47.4	-50.4	23.0	6.07e-01	0	41	0	408420352	66	5043
2026-01-01 12:54:40.15	248.72	25.01	-47.6	-50.5	23.0	6.07e-01	0	41	0	409993216	66	5122
2026-01-01 12:54:41.15	249.06	25.06	-47.7	-50.7	22.7	6.06e-01	0	42	0	412090368	66	5228
2026-01-01 12:54:42.15	249.39	25.12	-47.5	-50.4	23.0	6.08e-01	0	41	0	413663232	66	5060
2026-01-01 12:54:43.15	249.72	25.17	-47.5	-50.4	23.0	6.05e-01	0	41	0	415760384	66	5069
2026-01-01 12:54:44.15	250.06	25.22	-47.6	-50.4	22.9	6.06e-01	0	41	0	417857536	66	5090
2026-01-01 12:54:45.15	250.40	25.28	-47.4	-50.2	23.1	6.08e-01	0	41	0	419430400	66	4956
2026-01-01 12:54:46.15	250.73	25.33	-47.4	-50.3	23.1	6.08e-01	0	41	0	421527552	66	4990
2026-01-01 12:54:47.15	251.07	25.38	-47.5	-50.5	23.0	6.07e-01	0	41	0	423100416	66	5134
2026-01-01 12:54:48.15	251.41	25.43	-47.4	-50.4	23.0	6.07e-01	0	41	0	425197568	66	5054
2026-01-01 12:54:49.15	251.75	25.48	-47.6	-50.5	22.9	6.06e-01	0	42	0	426770432	66	5122
2026-01-01 12:54:50.14	252.09	25.52	-47.7	-50.6	22.8	6.05e-01	0	41	0	428867584	66	5172
2026-01-01 12:54:51.14	252.44	25.57	-47.8	-50.7	22.7	6.07e-01	0	42	0	430964736	66	5228
2026-01-01 12:54:52.14	252.78	25.61	-47.6	-50.6	22.8	6.07e-01	0	42	0	432537600	66	5163
2026-01-01 12:54:53.14	253.12	25.66	-47.4	-50.4	23.0	6.11e-01	0	42	0	434634752	66	5051
2026-01-01 12:54:54.13	253.47	25.70	-47.2	-50.2	23.2	6.06e-01	0	42	0	436207616	66	4939
2026-01-01 12:54:55.13	253.81	25.74	-47.4	-50.3	23.1	6.05e-01	0	42	0	438304768	66	4999
2026-01-01 12:54:56.13	254.16	25.78	-47.5	-50.4	23.0	6.08e-01	0	41	0	439877632	66	5052
2026-01-01 12:54:57.13	254.51	25.83	-47.5	-50.3	23.0	6.06e-01	0	41	0	441974784	66	5022
2026-01-01 12:54:58.13	254.86	25.86	-47.5	-50.3	23.0	6.07e-01	0	42	0	444071936	66	5030
2026-01-01 12:54:59.13	255.21	25.90	-47.4	-50.2	23.1	6.06e-01	0	42	0	445644800	66	4973
2026-01-01 12:55:00.12	255.56	25.94	-47.3	-50.2	23.2	6.08e-01	0	42	0	447741952	66	4930
2026-01-01 12:55:01.12	255.91	25.98	-47.4	-50.3	23.1	6.07e-01	0	41	0	449314816	66	4994
2026-01-01 12:55:02.12	256.27	26.01	-47.4	-50.3	23.1	6.06e-01	0	41	0	451411968	66	4987
2026-01-01 12:55:03.12	256.62	26.05	-47.4	-50.2	23.2	6.07e-01	0	42	0	452984832	66	4965
2026-01-01 12:55:04.12	256.97	26.08	-47.4	-50.3	23.0	6.05e-01	0	41	0	455081984	66	4990
2026-01-01 12:55:05.12	257.33	26.11	-47.3	-50.1	23.1	6.09e-01	0	42	0	456654848	66	4919
2026-01-01 12:55:06.11	257.68	26.14	-47.3	-50.1	23.2	6.08e-01	0	41	0	458752000	66	4890
2026-01-01 12:55:07.11	258.04	26.17	-47.3	-50.1	23.2	6.08e-01	0	42	0	460849152	66	4919
2026-01-01 12:55:08.11	258.40	26.20	-47.5	-50.4	23.0	6.06e-01	0	41	0	462422016	66	5074
2026-01-01 12:55:09.11	258.76	26.23	-47.3	-50.2	23.2	6.06e-01	0	42	0	464519168	66	4948
2026-01-01 12:55:10.11	259.11	26.25	-47.3	-50.2	23.2	6.05e-01	0	41	0	466092032	66	4959
2026-01-01 12:55:11.11	259.47	26.28	-47.3	-50.2	23.2	6.08e-01	0	42	0	468189184	66	4933
2026-01-01 12:55:12.11	259.83	26.30	-47.3	-50.1	23.2	6.08e-01	0	42	0	470286336	66	4923
2026-01-01 12:55:13.10	260.19	26.33	-47.3	-50.1	23.2	6.08e-01	0	42	0	471859200	66	4900
2026-01-01 12:55:14.10	260.55	26.35	-47.3	-50.1	23.3	6.06e-01	0	42	0	473956352	66	4911
2026-01-01 12:55:15.10	260.91	26.37	-47.2	-49.9	23.5	6.06e-01	0	42	0	475529216	66	4768
2026-01-01 12:55:16.10	261.28	26.39	-47.4	-50.1	23.2	6.04e-01	0	41	0	477626368	66	4921
2026-01-01 12:55:17.10	261.64	26.41	-47.5	-50.3	23.1	6.07e-01	0	41	0	479199232	66	5020
2026-01-01 12:55:18.10	262.00	26.43	-47.5	-50.4	23.0	6.07e-01	0	42	0	481296384	66	5051
2026-01-01 12:55:19.10	262.36	26.44	-47.5	-50.4	23.0	6.07e-01	0	41	0	483393536	66	5065
2026-01-01 12:55:20.10	262.73	26.46	-47.6	-50.5	22.9	6.07e-01	0	42	0	484966400	66	5121
2026-01-01 12:55:21.10	263.09	26.47	-47.2	-50.1	23.3	6.06e-01	0	42	0	487063552	66	4871
2026-01-01 12:55:22.10	263.45	26.48	-47.1	-49.9	23.4	6.09e-01	0	42	0	488636416	66	4772
2026-01-01 12:55:23.10	263.82	26.49	-47.1	-49.9	23.4	6.06e-01	0	42	0	490733568	66	4808
2026-01-01 12:55:24.09	264.18	26.50	-47.2	-50.0	23.3	6.06e-01	0	42	0	492306432	66	4843
2026-01-01 12:55:25.09	264.55	26.51	-47.3	-50.1	23.3	6.07e-01	0	42	0	494403584	66	4874
2026-01-01 12:55:26.09	264.91	26.52	-47.3	-50.0	23.4	6.08e-01	0	42	0	496500736	66	4833
2026-01-01 12:55:27.09	265.28	26.53	-47.3	-50.0	23.3	6.06e-01	0	42	0	498073600	66	4854
2026-01-01 12:55:28.09	265.64	26.53	-47.2	-50.0	23.3	6.07e-01	0	42	0	500170752	66	4850
2026-01-01 12:55:29.09	266.01	26.54	-47.2	-50.0	23.3	6.05e-01	0	42	0	501743616	66	4842
2026-01-01 12:55:30.10	266.38	26.54	-47.1	-49.8	23.5	6.07e-01	0	42	0	503840768	66	4759
2026-01-01 12:55:31.10	266.74	26.54	-47.3	-50.1	23.3	6.08e-01	0	41	0	505413632	66	4881
2026-01-01 12:55:32.10	267.11	26.55	-47.5	-50.3	23.1	6.07e-01	0	42	0	507510784	66	5006
2026-01-01 12:55:33.10	267.47	26.54	-47.6	-50.4	23.0	6.07e-01	0	42	0	509607936	66	5085
2026-01-01 12:55:34.10	267.84	26.54	-47.4	-50.2	23.3	6.05e-01	0	41	0	511180800	66	4940
2026-01-01 12:55:35.11	268.21	26.54	-47.1	-49.8	23.6	6.05e-01	0	42	0	513277952	66	4712
2026-01-01 12:55:36.10	268.57	26.54	-47.1	-49.7	23.6	6.07e-01	0	42	0	514850816	66	4705
2026-01-01 12:55:37.10	268.93	26.53	-47.2	-49.9	23.5	6.06e-01	0	41	0	516947968	66	4790
2026-01-01 12:55:38.10	269.30	26.53	-47.2	-50.0	23.3	6.06e-01	0	42	0	518520832	66	4866
2026-01-01 12:55:39.10	269.66	26.52	-47.1	-49.9	23.4	6.05e-01	0	42	0	520617984	66	4793
2026-01-01 12:55:40.10	270.03	26.51	-47.2	-50.1	23.3	6.07e-01	0	41	0	522715136	66	4882
2026-01-01 12:55:41.10	270.39	26.50	-46.9	-49.6	23.6	6.09e-01	0	42	0	524288000	65	4912
2026-01-01 12:55:42.09	270.75	26.49	-47.0	-49.7	23.6	6.07e-01	0	42	0	526385152	65	4963
2026-01-01 12:55:43.09	271.12	26.48	-47.1	-49.8	23.5	6.08e-01	0	42	0	527958016	65	5007
2026-01-01 12:55:44.09	271.48	26.46	-47.3	-49.9	23.4	6.08e-01	0	42	0	530055168	65	5094
2026-01-01 12:55:45.09	271.85	26.45	-47.1	-49.7	23.6	6.07e-01	0	42	0	532152320	65	4950
2026-01-01 12:55:46.10	272.21	26.43	-47.1	-49.7	23.6	6.06e-01	0	42	0	533725184	65	4974
2026-01-01 12:55:47.09	272.57	26.42	-47.2	-49.9	23.4	6.07e-01	0	42	0	535822336	65	5061
2026-01-01 12:55:48.09	272.93	26.40	-47.0	-49.8	23.5	6.06e-01	0	42	0	537395200	65	5014
2026-01-01 12:55:49.09	273.30	26.38	-47.1	-49.9	23.4	6.08e-01	0	42	0	539492352	65	5081
2026-01-01 12:55:50.09	273.66	26.36	-47.1	-49.8	23.4	6.07e-01	0	42	0	541065216	65	5013
2026-01-01 12:55:51.09	274.02	26.34	-46.9	-49.6	23.6	6.06e-01	0	41	0	543162368	65	4900
2026-01-01 12:55:52.09	274.38	26.31	-47.0	-49.6	23.6	6.05e-01	0	42	0	545259520	65	4899
2026-01-01 12:55:53.09	274.74	26.29	-47.1	-49.8	23.5	6.05e-01	0	42	0	546832384	65	4984
2026-01-01 12:55:54.09	275.10	26.27	-47.0	-49.7	23.6	6.05e-01	0	42	0	548929536	65	4928
2026-01-01 12:55:55.09	275.46	26.24	-47.0	-49.7	23.6	6.07e-01	0	42	0	550502400	65	4951
2026-01-01 12:55:56.09	275.81	26.21	-47.0	-49.7	23.6	6.05e-01	0	42	0	552599552	65	4940
2026-01-01 12:55:57.09	276.17	26.18	-47.0	-49.7	23.6	6.06e-01	0	42	0	554172416	65	4931
2026-01-01 12:55:58.09	276.53	26.15	-47.0	-49.7	23.5	6.08e-01	0	42	0	556269568	65	4952
2026-01-01 12:55:59.09	276.88	26.12	-47.1	-49.7	23.6	6.07e-01	0	42	0	558366720	65	4974
2026-01-01 12:56:00.08	277.23	26.09	-47.0	-49.6	23.6	6.09e-01	0	42	0	559939584	65	4913
2026-01-01 12:56:01.08	277.59	26.06	-46.9	-49.6	23.6	6.07e-01	0	42	0	562036736	65	4917
2026-01-01 12:56:02.08	277.94	26.03	-46.9	-49.6	23.6	6.04e-01	0	42	0	563609600	65	4907
2026-01-01 12:56:03.08	278.30	25.99	-46.9	-49.7	23.5	6.06e-01	0	42	0	565706752	65	4940
2026-01-01 12:56:04.08	278.65	25.96	-47.0	-49.7	23.5	6.05e-01	0	42	0	567279616	65	4972
2026-01-01 12:56:05.08	279.00	25.92	-47.0	-49.7	23.4	6.08e-01	0	42	0	569376768	65	4983
2026-01-01 12:56:06.08	279.35	25.88	-47.1	-49.8	23.5	6.06e-01	0	42	0	571473920	65	5003
2026-01-01 12:56:07.09	279.70	25.84	-47.0	-49.7	23.5	6.06e-01	0	42	0	573046784	65	4960
2026-01-01 12:56:08.08	280.05	25.80	-46.9	-49.5	23.8	6.06e-01	0	42	0	575143936	65	4846
2026-01-01 12:56:09.08	280.39	25.76	-47.0	-49.7	23.6	6.05e-01	0	42	0	576716800	65	4936
2026-01-01 12:56:10.08	280.74	25.72	-47.1	-49.8	23.4	6.07e-01	0	42	0	578813952	65	5033
2026-01-01 12:56:11.08	281.09	25.68	-47.0	-49.6	23.6	6.06e-01	0	42	0	580911104	65	4915
2026-01-01 12:56:12.08	281.43	25.63	-47.0	-49.6	23.7	6.08e-01	0	42	0	582483968	65	4891
2026-01-01 12:56:13.08	281.78	25.59	-46.9	-49.6	23.7	6.06e-01	0	41	0	584056832	65	4872
2026-01-01 12:56:14.08	282.12	25.54	-46.9	-49.5	23.7	6.06e-01	0	42	0	586153984	65	4839
2026-01-01 12:56:15.08	282.46	25.50	-46.9	-49.5	23.7	6.05e-01	0	42	0	588251136	65	4858
2026-01-01 12:56:16.08	282.80	25.45	-47.0	-49.6	23.6	6.08e-01	0	42	0	589824000	65	4922
2026-01-01 12:56:17.07	283.14	25.40	-47.1	-49.8	23.5	6.07e-01	0	42	0	591921152	65	5017
2026-01-01 12:56:18.07	283.48	25.35	-47.2	-49.9	23.5	6.05e-01	0	42	0	593494016	65	5044
2026-01-01 12:56:19.07	283.81	25.30	-47.0	-49.7	23.5	6.07e-01	0	41	0	595591168	65	4939
2026-01-01 12:56:20.06	284.15	25.25	-47.0	-49.6	23.7	6.04e-01	0	42	0	597688320	65	4884
2026-01-01 12:56:21.06	284.48	25.20	-47.0	-49.6	23.6	6.06e-01	0	42	0	599261184	65	4899
2026-01-01 12:56:22.07	284.82	25.14	-46.9	-49.4	23.8	6.06e-01	0	42	0	601358336	65	4802
2026-01-01 12:56:23.07	285.15	25.09	-46.9	-49.5	23.7	6.08e-01	0	42	0	602931200	65	4861
2026-01-01 12:56:24.06	285.48	25.04	-47.1	-49.8	23.4	6.07e-01	0	42	0	605028352	65	5011
2026-01-01 12:56:25.06	285.81	24.98	-47.1	-49.8	23.5	6.05e-01	0	42	0	606601216	65	4988
2026-01-01 12:56:26.06	286.14	24.92	-46.9	-49.5	23.7	6.05e-01	0	42	0	608698368	65	4854
2026-01-01 12:56:27.06	286.47	24.87	-46.9	-49.5	23.7	6.08e-01	0	42	0	610795520	65	4857
2026-01-01 12:56:28.06	286.79	24.81	-46.8	-49.5	23.7	6.05e-01	0	42	0	612368384	65	4846
2026-01-01 12:56:29.06	287.12	24.75	-46.8	-49.5	23.7	6.07e-01	0	42	0	614465536	65	4829
2026-01-01 12:56:30.06	287.44	24.69	-46.8	-49.4	23.7	6.04e-01	0	42	0	616038400	65	4793
2026-01-01 12:56:31.06	287.77	24.63	-46.9	-49.5	23.7	6.07e-01	0	42	0	618135552	65	4866
2026-01-01 12:56:32.06	288.09	24.57	-47.0	-49.7	23.5	6.05e-01	0	42	0	619708416	65	4982
2026-01-01 12:56:33.06	288.41	24.51	-46.9	-49.6	23.6	6.07e-01	0	42	0	621805568	65	4910
2026-01-01 12:56:34.06	288.73	24.44	-46.9	-49.6	23.6	6.08e-01	0	42	0	623902720	65	4901
2026-01-01 12:56:35.06	289.05	24.38	-46.9	-49.6	23.6	6.05e-01	0	42	0	625475584	65	4904
2026-01-01 12:56:36.06	289.36	24.32	-46.9	-49.6	23.6	6.06e-01	0	42	0	627572736	65	4903
2026-01-01 12:56:37.06	289.68	24.25	-46.9	-49.6	23.7	6.07e-01	0	42	0	629145600	65	4885
2026-01-01 12:56:38.06	289.99	24.19	-46.8	-49.4	23.8	6.08e-01	0	42	0	631242752	65	4800
2026-01-01 12:56:39.06	290.30	24.12	-47.0	-49.6	23.6	6.08e-01	0	42	0	632815616	65	4921
2026-01-01 12:56:40.05	290.61	24.06	-46.8	-49.5	23.6	6.03e-01	0	42	0	634912768	65	4869
2026-01-01 12:56:41.05	290.92	23.99	-46.8	-49.5	23.7	6.06e-01	0	42	0	637009920	65	4855
2026-01-01 12:56:42.05	291.23	23.92	-46.9	-49.6	23.6	6.08e-01	0	42	0	638582784	65	4886
2026-01-01 12:56:43.05	291.54	23.85	-46.8	-49.6	23.6	6.05e-01	0	41	0	640679936	65	4873
2026-01-01 12:56:44.04	291.84	23.78	-46.7	-49.4	23.7	6.06e-01	0	42	0	642252800	65	4812
2026-01-01 12:56:45.04	292.14	23.71	-46.8	-49.5	23.6	6.05e-01	0	42	0	644349952	65	4845
2026-01-01 12:56:46.04	292.45	23.64	-46.7	-49.3	23.8	6.07e-01	0	42	0	646447104	65	4759
2026-01-01 12:56:47.04	292.75	23.57	-46.8	-49.4	23.7	6.07e-01	0	42	0	648019968	65	4802
2026-01-01 12:56:48.04	293.05	23.50	-46.9	-49.6	23.6	6.07e-01	0	42	0	650117120	65	4885
2026-01-01 12:56:49.04	293.35	23.43	-46.9	-49.6	23.5	6.06e-01	0	42	0	651689984	65	4910
2026-01-01 12:56:50.03	293.64	23.36	-46.9	-49.6	23.5	6.07e-01	0	42	0	653787136	65	4893
2026-01-01 12:56:51.03	293.93	23.28	-46.9	-49.5	23.7	6.06e-01	0	42	0	655360000	65	4852
2026-01-01 12:56:52.03	294.23	23.21	-46.9	-49.5	23.6	6.06e-01	0	42	0	657457152	65	4835
2026-01-01 12:56:53.03	294.52	23.14	-46.9	-49.5	23.6	6.06e-01	0	42	0	659554304	65	4865
2026-01-01 12:56:54.03	294.81	23.06	-46.7	-49.4	23.8	6.07e-01	0	42	0	661127168	65	4775
2026-01-01 12:56:55.02	295.10	22.99	-46.8	-49.4	23.8	6.06e-01	0	42	0	663224320	65	4785
2026-01-01 12:56:56.02	295.39	22.91	-46.7	-49.4	23.8	6.04e-01	0	42	0	664797184	65	4767
2026-01-01 12:56:57.02	295.68	22.83	-46.8	-49.4	23.7	6.06e-01	0	42	0	666894336	65	4798
2026-01-01 12:56:58.02	295.96	22.76	-46.9	-49.5	23.6	6.06e-01	0	41	0	668467200	65	4868
2026-01-01 12:56:59.01	296.24	22.68	-46.9	-49.5	23.6	6.05e-01	0	42	0	670564352	65	4869
2026-01-01 12:57:00.01	296.53	22.60	-46.8	-49.5	23.7	6.07e-01	0	41	0	672137216	65	4826
2026-01-01 12:57:01.01	296.81	22.53	-46.9	-49.6	23.6	6.05e-01	0	42	0	674234368	65	4886
2026-01-01 12:57:02.01	297.09	22.45	-46.7	-49.4	23.7	6.07e-01	0	42	0	676331520	65	4773
2026-01-01 12:57:03.01	297.36	22.37	-46.6	-49.2	23.9	6.06e-01	0	42	0	677904384	65	4699
2026-01-01 12:57:04.01	297.64	22.29	-46.6	-49.3	23.8	6.06e-01	0	42	0	680001536	65	4736
2026-01-01 12:57:05.01	297.92	22.21	-46.7	-49.5	23.7	6.08e-01	0	42	0	681574400	65	4820
2026-01-01 12:57:06.00	298.19	22.13	-46.6	-49.3	23.8	6.05e-01	0	42	0	683671552	65	4740
2026-01-01 12:57:07.00	298.46	22.05	-46.7	-49.3	23.8	6.09e-01	0	42	0	685244416	65	4750
2026-01-01 12:57:08.00	298.73	21.97	-46.8	-49.5	23.7	6.04e-01	0	42	0	687341568	65	4827
2026-01-01 12:57:08.99	299.00	21.89	-46.9	-49.6	23.5	6.09e-01	0	42	0	689438720	65	4913
2026-01-01 12:57:09.99	299.27	21.81	-46.8	-49.4	23.7	6.07e-01	0	42	0	691011584	65	4807
2026-01-01 12:57:10.99	299.53	21.73	-46.6	-49.2	23.8	6.07e-01	0	42	0	693108736	65	4694
2026-01-01 12:57:11.98	299.80	21.65	-46.6	-49.2	23.9	6.08e-01	0	42	0	694681600	65	4679
2026-01-01 12:57:12.98	300.06	21.57	-46.7	-49.3	23.8	6.07e-01	0	41	0	696778752	65	4736
2026-01-01 12:57:13.98	300.32	21.48	-46.6	-49.3	23.8	6.05e-01	0	42	0	698351616	65	4734
2026-01-01 12:57:14.98	300.58	21.40	-46.8	-49.5	23.7	6.09e-01	0	42	0	700448768	65	4826
2026-01-01 12:57:15.98	300.84	21.32	-46.8	-49.5	23.6	6.05e-01	0	42	0	702545920	65	4868
2026-01-01 12:57:16.98	301.10	21.23	-46.7	-49.4	23.7	6.07e-01	0	42	0	704118784	65	4768
2026-01-01 12:57:17.98	301.36	21.15	-46.7	-49.3	23.8	6.07e-01	0	42	0	706215936	65	4744
2026-01-01 12:57:18.97	301.61	21.07	-46.6	-49.3	23.8	6.07e-01	0	42	0	707788800	65	4719
2026-01-01 12:57:19.98	301.87	20.98	-46.6	-49.2	23.9	6.07e-01	0	42	0	709885952	65	4679
2026-01-01 12:57:20.98	302.12	20.90	-46.6	-49.2	23.8	6.05e-01	0	42	0	711458816	65	4704
2026-01-01 12:57:21.97	302.37	20.82	-46.6	-49.3	23.7	6.09e-01	0	42	0	713555968	65	4745
2026-01-01 12:57:22.97	302.62	20.73	-46.6	-49.3	23.8	6.09e-01	0	42	0	715128832	65	4721
2026-01-01 12:57:23.97	302.86	20.65	-46.6	-49.3	23.8	6.06e-01	0	42	0	717225984	65	4710
2026-01-01 12:57:24.97	303.11	20.56	-46.7	-49.3	23.7	6.06e-01	0	42	0	719323136	65	4747
2026-01-01 12:57:25.97	303.36	20.48	-46.7	-49.3	23.8	6.07e-01	0	42	0	720896000	65	4741
2026-01-01 12:57:26.97	303.60	20.39	-46.7	-49.4	23.7	6.07e-01	0	42	0	722993152	65	4781
2026-01-01 12:57:27.96	303.84	20.31	-46.8	-49.5	23.7	6.08e-01	0	42	0	724566016	65	4830
2026-01-01 12:57:28.96	304.08	20.22	-46.6	-49.2	23.8	6.04e-01	0	42	0	726663168	65	4669
2026-01-01 12:57:29.96	304.32	20.13	-46.5	-49.1	24.0	6.09e-01	0	42	0	728760320	65	4629
2026-01-01 12:57:30.96	304.56	20.05	-46.4	-49.0	24.0	6.08e-01	0	42	0	730333184	64	4847
2026-01-01 12:57:31.95	304.79	19.96	-46.5	-49.1	24.0	6.06e-01	0	42	0	732430336	64	4887
2026-01-01 12:57:32.95	305.03	19.88	-46.5	-49.2	23.8	6.05e-01	0	42	0	734003200	64	4943
2026-01-01 12:57:33.96	305.27	19.79	-46.5	-49.2	23.8	6.07e-01	0	42	0	736100352	64	4952
2026-01-01 12:57:34.96	305.50	19.70	-46.6	-49.2	23.8	6.08e-01	0	42	0	737673216	64	4968
2026-01-01 12:57:35.96	305.73	19.62	-46.6	-49.2	23.9	6.07e-01	0	42	0	739770368	64	4946
2026-01-01 12:57:36.96	305.96	19.53	-46.6	-49.2	23.8	6.08e-01	0	42	0	741867520	64	4976
2026-01-01 12:57:37.95	306.19	19.44	-46.5	-49.1	23.9	6.06e-01	0	42	0	743440384	64	4924
2026-01-01 12:57:38.95	306.41	19.36	-46.6	-49.2	23.9	6.08e-01	0	42	0	745537536	64	4927
2026-01-01 12:57:39.95	306.64	19.27	-46.7	-49.2	23.8	6.05e-01	0	42	0	747110400	64	4981
2026-01-01 12:57:40.95	306.86	19.18	-46.7	-49.3	23.8	6.09e-01	0	42	0	749207552	64	4989
2026-01-01 12:57:41.95	307.09	19.10	-46.6	-49.1	23.9	6.07e-01	0	42	0	750780416	64	4916
2026-01-01 12:57:42.95	307.31	19.01	-46.6	-49.1	23.9	6.07e-01	0	42	0	752877568	64	4921
2026-01-01 12:57:43.95	307.53	18.92	-46.5	-49.1	23.9	6.07e-01	0	42	0	754974720	64	4903
2026-01-01 12:57:44.95	307.75	18.83	-46.4	-49.0	23.9	6.07e-01	0	42	0	756547584	64	4864
2026-01-01 12:57:45.95	307.97	18.75	-46.4	-49.0	23.9	6.07e-01	0	42	0	758644736	64	4855
2026-01-01 12:57:46.95	308.18	18.66	-46.6	-49.2	23.9	6.07e-01	0	42	0	760217600	64	4944
2026-01-01 12:57:47.95	308.40	18.57	-46.6	-49.3	23.7	6.04e-01	0	42	0	762314752	64	5006
2026-01-01 12:57:48.94	308.61	18.49	-46.5	-49.2	23.8	6.07e-01	0	42	0	763887616	64	4983
2026-01-01 12:57:49.94	308.83	18.40	-46.4	-49.2	23.9	6.06e-01	0	42	0	765984768	64	4938
2026-01-01 12:57:50.94	309.04	18.31	-46.4	-49.3	23.7	6.08e-01	0	42	0	768081920	64	5001
2026-01-01 12:57:51.94	309.25	18.22	-46.2	-49.2	23.8	6.05e-01	0	42	0	769654784	64	4969
2026-01-01 12:57:52.94	309.46	18.14	-46.2	-49.1	23.9	6.07e-01	0	41	0	771751936	64	4908
2026-01-01 12:57:53.93	309.66	18.05	-46.1	-49.0	24.0	6.08e-01	0	42	0	773324800	64	4837
2026-01-01 12:57:54.93	309.87	17.96	-46.1	-49.0	24.0	6.08e-01	0	42	0	775421952	64	4846
2026-01-01 12:57:55.93	310.07	17.87	-46.2	-49.0	24.0	6.05e-01	0	42	0	776994816	64	4828
2026-01-01 12:57:56.93	310.28	17.79	-46.3	-49.1	24.0	6.06e-01	0	42	0	779091968	64	4876
2026-01-01 12:57:57.93	310.48	17.70	-46.3	-49.0	24.0	6.08e-01	0	42	0	781189120	64	4835
2026-01-01 12:57:58.93	310.68	17.61	-46.4	-49.1	24.0	6.05e-01	0	42	0	782761984	64	4871
2026-01-01 12:57:59.93	310.88	17.52	-46.5	-49.1	23.9	6.05e-01	0	42	0	784859136	64	4923
2026-01-01 12:58:00.92	311.08	17.44	-46.4	-49.2	23.8	6.04e-01	0	42	0	786432000	64	4941
2026-01-01 12:58:01.92	311.28	17.35	-46.5	-49.2	23.8	6.06e-01	0	42	0	788529152	64	4959
2026-01-01 12:58:02.92	311.48	17.26	-46.5	-49.2	23.7	6.10e-01	0	42	0	790102016	64	4980
2026-01-01 12:58:03.91	311.67	17.18	-46.4	-49.0	24.0	6.07e-01	0	42	0	792199168	64	4867
2026-01-01 12:58:04.92	311.87	17.09	-46.3	-49.0	24.0	6.05e-01	0	42	0	793772032	64	4844
2026-01-01 12:58:05.91	312.06	17.00	-46.3	-49.0	23.9	6.07e-01	0	42	0	795869184	64	4868
2026-01-01 12:58:06.91	312.25	16.91	-46.3	-49.0	23.9	6.06e-01	0	42	0	797966336	64	4858
2026-01-01 12:58:07.91	312.44	16.83	-46.3	-49.1	23.8	6.07e-01	0	42	0	799539200	64	4913
2026-01-01 12:58:08.92	312.63	16.74	-46.3	-49.2	23.7	6.07e-01	0	42	0	801636352	64	4981
2026-01-01 12:58:09.92	312.82	16.65	-46.3	-49.2	23.8	6.06e-01	0	42	0	803209216	64	4942
2026-01-01 12:58:10.92	313.01	16.57	-46.3	-49.2	23.8	6.06e-01	0	42	0	805306368	64	4939
2026-01-01 12:58:11.91	313.20	16.48	-46.3	-49.1	23.9	6.05e-01	0	42	0	807403520	64	4926
2026-01-01 12:58:12.91	313.38	16.39	-46.4	-49.2	23.8	6.09e-01	0	42	0	808976384	64	4929
2026-01-01 12:58:13.92	313.57	16.31	-46.4	-49.1	23.8	6.05e-01	0	42	0	811073536	64	4915
2026-01-01 12:58:14.91	313.75	16.22	-46.3	-49.0	23.9	6.06e-01	0	42	0	812646400	64	4845
2026-01-01 12:58:15.91	313.93	16.13	-46.4	-49.1	23.9	6.05e-01	0	42	0	814743552	64	4894
2026-01-01 12:58:16.91	314.11	16.05	-46.4	-49.1	23.9	6.06e-01	0	42	0	816316416	64	4915
2026-01-01 12:58:17.90	314.29	15.96	-46.5	-49.1	23.9	6.08e-01	0	42	0	818413568	64	4903
2026-01-01 12:58:18.91	314.47	15.87	-46.5	-49.2	23.9	6.09e-01	0	42	0	820510720	64	4939
2026-01-01 12:58:19.90	314.65	15.79	-46.6	-49.3	23.7	6.06e-01	0	42	0	822083584	64	4986
2026-01-01 12:58:20.90	314.83	15.70	-46.6	-49.2	23.8	6.05e-01	0	42	0	824180736	64	4967
2026-01-01 12:58:21.90	315.00	15.62	-46.6	-49.2	23.8	6.06e-01	0	42	0	825753600	64	4969
2026-01-01 12:58:22.90	315.18	15.53	-46.6	-49.3	23.7	6.06e-01	0	42	0	827850752	64	5028
2026-01-01 12:58:23.90	315.35	15.44	-46.6	-49.3	23.7	6.08e-01	0	42	0	829423616	64	5025
2026-01-01 12:58:24.90	315.52	15.36	-46.6	-49.3	23.7	6.04e-01	0	42	0	831520768	64	5027
2026-01-01 12:58:25.90	315.69	15.27	-46.6	-49.3	23.7	6.05e-01	0	42	0	833617920	64	5036
2026-01-01 12:58:26.90	315.86	15.19	-46.5	-49.3	23.7	6.08e-01	0	42	0	835190784	64	5006
2026-01-01 12:58:27.90	316.03	15.10	-46.3	-49.2	23.8	6.04e-01	0	42	0	837287936	64	4946
2026-01-01 12:58:28.90	316.20	15.02	-46.4	-49.3	23.7	6.06e-01	0	42	0	838860800	64	5011
2026-01-01 12:58:29.89	316.37	14.93	-46.3	-49.3	23.8	6.06e-01	0	42	0	840957952	64	4992
2026-01-01 12:58:30.89	316.54	14.85	-46.4	-49.2	23.8	6.09e-01	0	42	0	842530816	64	4982
2026-01-01 12:58:31.89	316.70	14.76	-46.3	-49.2	23.8	6.07e-01	0	42	0	844627968	64	4974
2026-01-01 12:58:32.89	316.87	14.68	-46.3	-49.2	23.9	6.06e-01	0	42	0	846725120	64	4941
2026-01-01 12:58:33.89	317.03	14.59	-46.4	-49.3	23.7	6.07e-01	0	42	0	848297984	64	4994
2026-01-01 12:58:34.89	317.19	14.51	-46.5	-49.3	23.7	6.04e-01	0	42	0	850395136	64	5022
2026-01-01 12:58:35.89	317.35	14.42	-46.5	-49.3	23.7	6.01e-01	0	42	0	851968000	64	5017
2026-01-01 12:58:36.89	317.51	14.34	-46.5	-49.2	23.7	6.04e-01	0	42	0	854065152	64	4983
2026-01-01 12:58:37.89	317.67	14.26	-46.5	-49.2	23.7	6.03e-01	0	42	0	856162304	64	4982
2026-01-01 12:58:38.89	317.83	14.17	-46.4	-49.2	23.7	6.02e-01	0	42	0	857735168	64	4968
2026-01-01 12:58:39.89	317.99	14.09	-46.3	-49.3	23.7	6.04e-01	0	42	0	859832320	64	4987
2026-01-01 12:58:40.89	318.15	14.00	-46.4	-49.4	23.6	6.02e-01	0	42	0	861405184	64	5069
2026-01-01 12:58:41.88	318.30	13.92	-46.4	-49.4	23.5	6.02e-01	0	42	0	863502336	64	5078
2026-01-01 12:58:42.88	318.46	13.84	-46.2	-49.4	23.6	6.01e-01	0	42	0	865075200	64	5044
2026-01-01 12:58:43.89	318.61	13.75	-46.3	-49.5	23.5	6.04e-01	0	42	0	867172352	64	5104
2026-01-01 12:58:44.88	318.77	13.67	-46.4	-49.5	23.5	6.05e-01	0	42	0	869269504	64	5138
2026-01-01 12:58:45.89	318.92	13.59	-46.3	-49.4	23.6	6.04e-01	0	42	0	870842368	64	5092
2026-01-01 12:58:46.89	319.07	13.50	-46.3	-49.4	23.6	6.03e-01	0	42	0	872939520	64	5072
2026-01-01 12:58:47.89	319.22	13.42	-46.4	-49.4	23.6	6.04e-01	0	42	0	874512384	64	5062
2026-01-01 12:58:48.89	319.37	13.34	-46.4	-49.4	23.6	6.02e-01	0	42	0	876609536	64	5042
2026-01-01 12:58:49.89	319.52	13.26	-46.5	-49.5	23.5	6.04e-01	0	42	0	878182400	64	5116
2026-01-01 12:58:50.89	319.67	13.17	-46.5	-49.5	23.4	6.04e-01	0	42	0	880279552	64	5156
2026-01-01 12:58:51.89	319.82	13.09	-46.6	-49.6	23.4	6.03e-01	0	42	0	882376704	64	5160
2026-01-01 12:58:52.88	319.96	13.01	-46.6	-49.6	23.4	6.03e-01	0	42	0	883949568	64	5186
2026-01-01 12:58:53.88	320.11	12.93	-46.7	-49.7	23.3	6.02e-01	0	42	0	886046720	64	5235
2026-01-01 12:58:54.88	320.25	12.85	-46.6	-49.6	23.3	6.04e-01	0	42	0	887619584	64	5201
2026-01-01 12:58:55.88	320.40	12.76	-46.7	-49.6	23.3	6.04e-01	0	42	0	889716736	64	5197
2026-01-01 12:58:56.88	320.54	12.68	-46.7	-49.7	23.3	6.01e-01	0	42	0	891289600	64	5226
2026-01-01 12:58:57.88	320.68	12.60	-46.8	-49.7	23.2	6.03e-01	0	42	0	893386752	64	5278
2026-01-01 12:58:58.87	320.82	12.52	-46.8	-49.7	23.3	6.02e-01	0	42	0	894959616	64	5234
2026-01-01 12:58:59.87	320.96	12.44	-46.9	-49.7	23.2	6.02e-01	0	42	0	897056768	64	5273
2026-01-01 12:59:00.87	321.10	12.36	-46.9	-49.6	23.3	6.01e-01	0	42	0	899153920	64	5217
2026-01-01 12:59:01.87	321.24	12.28	-46.9	-49.6	23.3	6.03e-01	0	42	0	900726784	64	5205
2026-01-01 12:59:02.86	321.38	12.20	-46.9	-49.6	23.3	6.02e-01	0	42	0	902823936	64	5209
2026-01-01 12:59:03.86	321.52	12.12	-47.0	-49.7	23.2	5.99e-01	0	42	0	904396800	64	5244
2026-01-01 12:59:04.86	321.65	12.04	-46.9	-49.7	23.2	6.04e-01	0	42	0	906493952	64	5245
2026-01-01 12:59:05.85	321.79	11.96	-46.9	-49.7	23.3	6.04e-01	0	42	0	908066816	64	5220
2026-01-01 12:59:06.85	321.92	11.88	-46.9	-49.6	23.3	6.01e-01	0	42	0	910163968	64	5191
2026-01-01 12:59:07.85	322.06	11.80	-46.9	-49.6	23.3	6.01e-01	0	42	0	912261120	64	5189
2026-01-01 12:59:08.85	322.19	11.72	-46.9	-49.7	23.2	6.03e-01	0	42	0	913833984	64	5226
2026-01-01 12:59:09.84	322.32	11.64	-46.9	-49.7	23.2	6.00e-01	0	42	0	915931136	64	5244
2026-01-01 12:59:10.84	322.45	11.56	-46.7	-49.7	23.2	5.99e-01	0	42	0	917504000	64	5251
2026-01-01 12:59:11.85	322.59	11.48	-46.5	-49.8	23.1	6.03e-01	0	42	0	919601152	64	5306
2026-01-01 12:59:12.84	322.72	11.40	-46.4	-49.8	23.1	6.03e-01	0	42	0	921174016	64	5313
2026-01-01 12:59:13.84	322.85	11.33	-46.3	-49.8	23.0	6.01e-01	0	41	0	923271168	64	5315
2026-01-01 12:59:14.84	322.98	11.25	-46.1	-49.9	23.0	6.04e-01	0	42	0	925368320	64	5356
2026-01-01 12:59:15.84	323.10	11.17	-45.9	-49.9	22.9	6.01e-01	0	42	0	926941184	63	5691
2026-01-01 12:59:16.84	323.23	11.09	-45.8	-50.0	22.9	6.04e-01	0	42	0	929038336	63	5742
2026-01-01 12:59:17.84	323.36	11.01	-46.0	-50.2	22.7	6.02e-01	0	42	0	930611200	63	5861
2026-01-01 12:59:18.84	323.49	10.93	-46.0	-50.1	22.8	6.05e-01	0	42	0	932708352	63	5815
2026-01-01 12:59:19.84	323.61	10.86	-46.2	-50.2	22.7	6.03e-01	0	42	0	934805504	63	5899
2026-01-01 12:59:20.84	323.74	10.78	-46.3	-50.3	22.6	6.03e-01	0	42	0	936378368	63	5932
2026-01-01 12:59:21.84	323.86	10.70	-46.3	-50.2	22.7	6.03e-01	0	42	0	938475520	63	5892
2026-01-01 12:59:22.84	323.98	10.62	-43.9	-50.3	22.3	6.04e-01	0	42	0	940048384	63	5960
2026-01-01 12:59:23.84	324.11	10.55	-46.3	-50.2	22.6	6.03e-01	0	42	0	942145536	63	5892
2026-01-01 12:59:24.84	324.23	10.47	-46.2	-50.4	22.6	6.02e-01	0	42	0	943718400	63	5997
2026-01-01 12:59:25.84	324.35	10.39	-46.0	-50.2	22.6	6.03e-01	0	42	0	945815552	62	6270
2026-01-01 12:59:26.85	324.47	10.32	-45.9	-50.2	22.4	6.04e-01	0	42	0	947912704	62	6267
2026-01-01 12:59:27.84	324.59	10.24	-45.6	-50.2	22.4	6.01e-01	0	42	0	949485568	61	6607
2026-01-01 12:59:28.84	324.71	10.16	-45.8	-50.4	22.4	6.02e-01	0	42	0	951582720	62	6393
2026-01-01 12:59:29.84	324.83	10.09	-46.0	-50.3	22.5	6.03e-01	0	42	0	953155584	62	6339
2026-01-01 12:59:30.84	324.95	10.01	-46.3	-50.4	22.4	6.02e-01	0	42	0	955252736	63	5996
2026-01-01 12:59:31.84	325.07	9.93	-45.8	-50.3	22.4	6.01e-01	0	42	0	956825600	63	5960
2026-01-01 12:59:32.84	325.18	9.86	-46.5	-50.4	18.9	6.04e-01	0	42	0	958922752	63	6030
2026-01-01 12:59:33.84	325.30	9.78	-46.6	-50.4	22.4	6.04e-01	0	42	0	961019904	63	6053
2026-01-01 12:59:34.84	325.42	9.71	-45.8	-50.3	22.1	6.02e-01	0	42	0	962592768	64	5649
2026-01-01 12:59:35.84	325.53	9.63	-46.5	-50.4	22.4	6.00e-01	0	42	0	964689920	63	6002
2026-01-01 12:59:36.84	325.65	9.56	-46.7	-50.3	22.4	6.03e-01	0	42	0	966262784	64	5639
2026-01-01 12:59:37.83	325.76	9.48	-46.5	-50.3	22.4	6.01e-01	0	42	0	968359936	64	5647
2026-01-01 12:59:38.83	325.87	9.41	-46.8	-50.4	22.3	6.02e-01	0	42	0	969932800	64	5657
2026-01-01 12:59:39.83	325.99	9.33	-46.9	-50.5	22.3	6.01e-01	0	42	0	972029952	64	5731
2026-01-01 12:59:40.83	326.10	9.26	-47.0	-50.5	22.3	6.01e-01	0	42	0	973602816	64	5750
2026-01-01 12:59:41.82	326.21	9.19	-47.2	-50.6	22.0	6.04e-01	0	42	0	975699968	65	5493
2026-01-01 12:59:42.82	326.32	9.11	-47.2	-50.6	22.2	6.02e-01	0	42	0	977797120	65	5487
2026-01-01 12:59:43.82	326.43	9.04	-47.3	-50.5	22.3	6.04e-01	0	42	0	979369984	65	5425
2026-01-01 12:59:44.82	326.54	8.96	-47.8	-61.5	12.6	6.12e-01	0	42	0	981467136	68	16268
2026-01-01 12:59:45.82	326.65	8.89	-45.0	-72.2	3.9	7.53e-01	0	42	104	981467136	67	58651
2026-01-01 12:59:46.83	326.76	8.82	-53.1	-73.8	3.8	7.46e-01	0	42	104	981467136	77	39657
2026-01-01 12:59:47.83	326.87	8.74	-50.3	-73.4	3.9	7.53e-01	0	42	104	981467136	73	47812
2026-01-01 12:59:48.83	326.97	8.67	-53.4	-74.7	3.8	7.41e-01	0	42	104	981467136	77	44103
2026-01-01 12:59:49.84	327.08	8.60	-48.7	-73.8	3.9	7.49e-01	0	42	104	981467136	74	47504
2026-01-01 12:59:50.84	327.19	8.52	-52.8	-74.7	3.8	7.46e-01	0	42	104	981467136	77	44111
2026-01-01 12:59:51.84	327.29	8.45	-54.3	-74.7	3.8	7.44e-01	0	42	104	981467136	79	39412
2026-01-01 12:59:52.85	327.40	8.38	-53.7	-74.7	3.8	7.45e-01	0	42	104	981467136	77	44307
2026-01-01 12:59:53.85	327.51	8.31	-54.1	-74.7	3.8	7.47e-01	0	42	104	981467136	79	39490
2026-01-01 12:59:54.85	327.61	8.23	-52.4	-73.2	3.9	7.50e-01	0	42	104	981467136	73	46724
2026-01-01 12:59:55.85	327.71	8.16	-53.6	-74.9	3.6	7.42e-01	0	42	104	981467136	77	44976
2026-01-01 12:59:56.86	327.82	8.09	-54.2	-74.9	3.8	7.45e-01	0	42	104	981467136	78	42563
2026-01-01 12:59:57.86	327.92	8.02	-53.7	-74.8	3.8	7.45e-01	0	42	104	981467136	78	42060
2026-01-01 12:59:58.87	328.02	7.95	-54.1	-74.8	3.8	7.45e-01	0	42	104	981467136	79	39862
2026-01-01 12:59:59.87	328.13	7.87	-51.5	-74.2	3.8	7.45e-01	0	42	104	981467136	77	41489
2026-01-01 13:00:00.87	328.23	7.80	-53.3	-74.6	3.8	7.47e-01	0	42	104	981467136	78	41154
2026-01-01 13:00:01.87	328.33	7.73	-54.0	-74.8	3.8	7.45e-01	0	42	104	981467136	79	39807
2026-01-01 13:00:02.87	328.43	7.66	-54.1	-74.8	3.8	7.47e-01	0	42	104	981467136	78	42146
2026-01-01 13:00:03.87	328.53	7.59	-54.0	-74.8	3.8	7.45e-01	0	42	104	981467136	78	42171
2026-01-01 13:00:04.87	328.63	7.52	-52.6	-74.7	4.2	7.41e-01	0	42	104	981467136	77	44396
2026-01-01 13:00:05.88	328.73	7.45	-53.9	-74.7	3.8	7.45e-01	0	42	104	981467136	78	41880
2026-01-01 13:00:06.88	328.82	7.38	-53.3	-74.7	3.8	7.45e-01	0	42	104	981467136	78	41555
2026-01-01 13:00:07.88	328.92	7.31	-53.8	-74.7	3.8	7.48e-01	0	42	104	981467136	78	41555
2026-01-01 13:00:08.89	329.02	7.24	-53.8	-74.9	3.8	7.47e-01	0	42	104	981467136	78	42597
2026-01-01 13:00:09.89	329.12	7.17	-53.8	-74.8	3.8	7.46e-01	0	42	104	981467136	78	42282
2026-01-01 13:00:10.89	329.21	7.10	-51.9	-74.3	3.9	7.45e-01	0	42	104	981467136	77	42140
2026-01-01 13:00:11.90	329.31	7.03	-53.4	-74.4	3.8	7.45e-01	0	42	104	981467136	77	42437
2026-01-01 13:00:12.90	329.40	6.96	-53.9	-74.0	3.8	7.44e-01	0	42	104	981467136	76	43260
2026-01-01 13:00:13.91	329.50	6.89	-53.8	-74.7	3.8	7.45e-01	0	42	104	981467136	78	41909
2026-01-01 13:00:14.91	329.59	6.82	-52.5	-75.2	3.7	7.36e-01	0	42	104	981467136	78	44355
2026-01-01 13:00:15.91	329.69	6.75	-53.8	-74.7	3.9	7.44e-01	0	42	104	981467136	78	41547
2026-01-01 13:00:16.92	329.78	6.68	-53.9	-74.7	3.8	7.47e-01	0	42	104	981467136	78	41594
2026-01-01 13:00:17.92	329.87	6.61	-53.7	-74.8	3.7	7.40e-01	0	42	104	981467136	78	42052
2026-01-01 13:00:18.93	329.97	6.54	-53.8	-74.7	3.8	7.44e-01	0	42	104	981467136	78	41680
2026-01-01 13:00:19.93	330.06	6.47	-53.8	-74.7	3.8	7.48e-01	0	42	104	981467136	78	41703
2026-01-01 13:00:20.93	330.15	6.41	-53.8	-74.8	3.8	7.47e-01	0	42	104	981467136	78	41952
2026-01-01 13:00:21.94	330.24	6.34	-54.4	-75.0	3.8	7.43e-01	0	42	104	981467136	78	43041
2026-01-01 13:00:22.94	330.33	6.27	-50.9	-74.7	3.8	7.48e-01	0	42	104	981467136	78	41704
2026-01-01 13:00:23.95	330.43	6.20	-53.7	-74.7	3.8	7.46e-01	0	42	104	981467136	78	41823
2026-01-01 13:00:24.95	330.52	6.13	-53.4	-74.7	3.8	7.43e-01	0	42	104	981467136	78	41711
2026-01-01 13:00:25.95	330.60	6.07	-50.9	-74.7	3.8	7.44e-01	0	42	104	981467136	78	41563
2026-01-01 13:00:26.96	330.69	6.00	-52.4	-74.3	3.8	7.46e-01	0	42	104	981467136	77	42334
2026-01-01 13:00:27.96	330.78	5.93	-53.8	-74.7	3.9	7.46e-01	0	42	104	981467136	78	41714
2026-01-01 13:00:28.97	330.87	5.86	-53.9	-74.9	3.6	7.42e-01	0	42	104	981467136	78	42834
2026-01-01 13:00:29.97	330.96	5.80	-53.8	-74.2	3.8	7.43e-01	0	42	104	981467136	77	41858
2026-01-01 13:00:30.98	331.05	5.73	-53.8	-74.7	3.8	7.44e-01	0	42	104	981467136	78	41638
2026-01-01 13:00:31.98	331.13	5.66	-53.4	-74.7	3.9	7.46e-01	0	42	104	981467136	78	41615
2026-01-01 13:00:32.98	331.22	5.59	-53.8	-74.7	3.8	7.49e-01	0	42	104	981467136	78	41856
2026-01-01 13:00:33.99	331.31	5.53	-53.9	-74.7	3.8	7.48e-01	0	42	104	981467136	78	41768
2026-01-01 13:00:34.99	331.39	5.46	-53.8	-74.7	3.8	7.44e-01	0	42	104	981467136	78	41719
2026-01-01 13:00:36.00	331.48	5.39	-53.8	-74.7	3.8	7.46e-01	0	42	104	981467136	78	41507
2026-01-01 13:00:37.00	331.56	5.33	-53.8	-74.7	3.8	7.47e-01	0	42	104	981467136	78	41519
2026-01-01 13:00:38.00	331.65	5.26	-53.8	-74.7	3.8	7.47e-01	0	42	104	981467136	78	41598
2026-01-01 13:00:39.01	331.73	5.20	-53.7	-74.7	3.8	7.45e-01	0	42	104	981467136	78	41680
2026-01-01 13:00:40.01	331.82	5.13	-53.8	-74.7	3.8	7.49e-01	0	42	104	981467136	78	41711
2026-01-01 13:00:41.02	331.90	5.07	-53.8	-74.7	3.9	7.44e-01	0	42	104	981467136	78	41712
2026-01-01 13:00:42.02	331.98	5.00	-53.8	-74.7	3.8	7.46e-01	0	42	104	981467136	78	41743

#Closed at: 2026-01-01 13:00:43
#Recorded file [981 MB]: D:/Data/31040_260101_155025.dat