passes_logs/2026/01/01/T1/T1__20260101_081949_NOAA_21_JPSS-2_rec.log

#Pass ID: 20260101_081949_NOAA 21 (JPSS-2)
#Satellite: NOAA 21 (JPSS-2)
#Configuration: NOAA 21
#almurnet v.1.7.20251203
#Start time: 2026-01-01 08:19:50

#Version: 2.0.20230620
#Station: T1
#Location: 37.570604 lon 55.790049 lat
#TLE: 1 54234U 22150A   25365.42224288  .00000199  00000+0  11529-3 0  9990
#TLE: 2 54234  98.7483 301.4995 0001320 356.2106   3.9060 14.19530300162743

#Time	Az	El	Level	Level2	SNR	BER	BlckErr	Temp	State	Recorded	gain1	gain2
2026-01-01 08:19:50.72	109.62	5.06	-51.4	-64.4	3.8	1.49e+00	0	38	0	0	73	16889
2026-01-01 08:19:51.72	109.54	5.12	-51.4	-64.4	3.8	1.49e+00	0	38	104	0	74	16047
2026-01-01 08:19:52.72	109.46	5.19	-51.4	-64.4	3.8	1.49e+00	0	38	104	0	74	15975
2026-01-01 08:19:53.73	109.38	5.25	-51.4	-64.4	3.8	1.49e+00	0	38	104	0	74	16007
2026-01-01 08:19:54.73	109.30	5.31	-51.4	-64.4	3.8	1.49e+00	0	38	104	0	74	16055
2026-01-01 08:19:55.74	109.21	5.37	-51.4	-64.3	3.8	1.49e+00	0	38	104	0	74	15889
2026-01-01 08:19:56.74	109.13	5.43	-51.4	-64.4	3.8	1.49e+00	0	38	104	0	74	16002
2026-01-01 08:19:57.74	109.05	5.49	-51.4	-64.4	3.8	1.49e+00	0	38	104	0	74	15978
2026-01-01 08:19:58.75	108.96	5.56	-51.4	-64.4	3.8	1.49e+00	0	38	104	0	74	15985
2026-01-01 08:19:59.75	108.88	5.62	-51.4	-64.4	3.8	1.49e+00	0	38	104	0	74	15975
2026-01-01 08:20:00.76	108.80	5.68	-51.4	-64.4	3.8	1.49e+00	0	38	104	0	74	16051
2026-01-01 08:20:01.76	108.71	5.74	-51.4	-64.4	3.8	1.49e+00	0	38	104	0	74	16051
2026-01-01 08:20:02.76	108.63	5.81	-51.4	-64.4	3.8	1.49e+00	0	38	104	0	74	16068
2026-01-01 08:20:03.77	108.54	5.87	-51.4	-64.4	3.8	1.49e+00	0	38	104	0	74	16015
2026-01-01 08:20:04.77	108.46	5.93	-51.4	-64.4	3.8	1.49e+00	0	38	104	0	74	16015
2026-01-01 08:20:05.78	108.37	5.99	-51.4	-64.4	3.8	1.49e+00	0	38	104	0	74	15996
2026-01-01 08:20:06.78	108.29	6.06	-51.4	-64.4	3.8	1.49e+00	0	38	104	0	74	16040
2026-01-01 08:20:07.79	108.20	6.12	-51.4	-64.4	3.8	1.49e+00	0	38	104	0	74	15985
2026-01-01 08:20:08.79	108.11	6.18	-51.4	-64.4	3.8	1.49e+00	0	38	104	0	74	16012
2026-01-01 08:20:09.79	108.02	6.24	-51.4	-64.4	3.8	1.49e+00	0	38	104	0	74	16028
2026-01-01 08:20:10.80	107.94	6.31	-51.4	-64.4	3.8	1.49e+00	0	38	104	0	74	16015
2026-01-01 08:20:11.80	107.85	6.37	-51.4	-64.4	3.8	1.49e+00	0	39	104	0	74	16046
2026-01-01 08:20:12.80	107.76	6.43	-51.4	-64.4	3.8	1.49e+00	0	38	104	0	74	16058
2026-01-01 08:20:13.81	107.67	6.50	-51.4	-64.4	3.8	1.49e+00	0	38	104	0	74	15972
2026-01-01 08:20:14.81	107.58	6.56	-51.4	-64.4	3.8	1.49e+00	0	39	104	0	74	16005
2026-01-01 08:20:15.82	107.49	6.62	-51.4	-64.4	3.8	1.49e+00	0	39	104	0	74	15988
2026-01-01 08:20:16.82	107.40	6.69	-51.4	-64.4	3.8	1.49e+00	0	39	104	0	74	15962
2026-01-01 08:20:17.83	107.31	6.75	-51.4	-64.4	3.8	1.49e+00	0	39	104	0	74	16015
2026-01-01 08:20:18.83	107.22	6.82	-51.4	-64.4	3.8	1.49e+00	0	39	104	0	74	15989
2026-01-01 08:20:19.83	107.13	6.88	-51.4	-64.4	3.8	1.49e+00	0	39	104	0	74	15972
2026-01-01 08:20:20.84	107.04	6.94	-51.4	-64.4	3.8	1.49e+00	0	39	104	0	74	15993
2026-01-01 08:20:21.84	106.95	7.01	-51.4	-64.4	3.8	1.49e+00	0	39	104	0	74	15964
2026-01-01 08:20:22.85	106.85	7.07	-51.4	-64.4	3.8	1.49e+00	0	39	104	0	74	15964
2026-01-01 08:20:23.85	106.76	7.14	-51.4	-64.4	3.8	1.49e+00	0	39	104	0	74	15958
2026-01-01 08:20:24.85	106.67	7.20	-51.4	-64.4	3.8	1.49e+00	0	39	104	0	74	15964
2026-01-01 08:20:25.86	106.57	7.27	-51.4	-64.4	3.8	1.49e+00	0	39	104	0	74	16005
2026-01-01 08:20:26.86	106.48	7.33	-51.4	-64.4	3.8	1.49e+00	0	39	104	0	74	16081
2026-01-01 08:20:27.86	106.38	7.39	-51.4	-64.3	3.8	1.49e+00	0	39	104	0	74	15931
2026-01-01 08:20:28.87	106.29	7.46	-51.4	-64.4	3.8	1.49e+00	0	39	104	0	74	15952
2026-01-01 08:20:29.87	106.19	7.52	-51.4	-64.4	3.8	1.49e+00	0	39	104	0	74	15972
2026-01-01 08:20:30.87	106.10	7.59	-51.4	-64.4	3.8	1.49e+00	0	39	104	0	74	15965
2026-01-01 08:20:31.88	106.00	7.65	-51.4	-64.3	3.8	1.49e+00	0	39	104	0	74	15918
2026-01-01 08:20:32.88	105.90	7.72	-51.4	-64.4	3.8	1.49e+00	0	39	104	0	74	15975
2026-01-01 08:20:33.89	105.81	7.78	-51.4	-64.4	3.8	1.49e+00	0	39	104	0	74	15974
2026-01-01 08:20:34.89	105.71	7.85	-51.4	-64.4	3.8	1.49e+00	0	39	104	0	74	15959
2026-01-01 08:20:35.90	105.61	7.91	-51.4	-64.4	3.8	1.49e+00	0	39	104	0	74	15966
2026-01-01 08:20:36.90	105.51	7.98	-51.4	-64.4	3.8	1.49e+00	0	39	104	0	74	16004
2026-01-01 08:20:37.90	105.41	8.04	-51.4	-64.3	3.8	1.49e+00	0	39	104	0	74	15934
2026-01-01 08:20:38.91	105.31	8.11	-51.4	-64.4	3.8	1.49e+00	0	39	104	0	74	16008
2026-01-01 08:20:39.91	105.21	8.18	-51.4	-64.4	3.8	1.49e+00	0	39	104	0	74	16003
2026-01-01 08:20:40.92	105.11	8.24	-51.4	-64.4	3.8	1.49e+00	0	39	104	0	74	16001
2026-01-01 08:20:41.92	105.01	8.31	-51.4	-64.4	3.8	1.49e+00	0	39	104	0	74	16017
2026-01-01 08:20:42.92	104.91	8.37	-51.4	-64.4	3.8	1.49e+00	0	39	104	0	74	16040
2026-01-01 08:20:43.93	104.81	8.44	-51.4	-64.4	3.8	1.49e+00	0	39	104	0	74	16049
2026-01-01 08:20:44.93	104.71	8.51	-51.4	-64.4	3.8	1.49e+00	0	39	104	0	74	15964
2026-01-01 08:20:45.94	104.60	8.57	-51.4	-64.4	3.8	1.49e+00	0	39	104	0	74	16039
2026-01-01 08:20:46.94	104.50	8.64	-51.4	-64.3	3.8	1.49e+00	0	39	104	0	74	15929
2026-01-01 08:20:47.95	104.40	8.71	-51.4	-64.4	3.8	1.49e+00	0	39	104	0	74	16027
2026-01-01 08:20:48.95	104.29	8.77	-51.4	-64.4	3.8	1.49e+00	0	39	104	0	74	16021
2026-01-01 08:20:49.95	104.19	8.84	-51.4	-64.4	3.8	1.49e+00	0	39	104	0	74	15982
2026-01-01 08:20:50.96	104.08	8.90	-51.4	-64.4	3.8	1.49e+00	0	39	104	0	74	16027
2026-01-01 08:20:51.96	103.98	8.97	-51.4	-64.4	3.8	1.49e+00	0	39	104	0	74	16041
2026-01-01 08:20:52.97	103.87	9.04	-51.4	-64.4	3.8	1.49e+00	0	39	104	0	74	16030
2026-01-01 08:20:53.97	103.76	9.11	-51.4	-64.4	3.8	1.49e+00	0	39	104	0	74	16012
2026-01-01 08:20:54.98	103.66	9.17	-51.4	-64.4	3.8	1.49e+00	0	39	104	0	74	16026
2026-01-01 08:20:55.98	103.55	9.24	-51.4	-64.4	3.8	1.49e+00	0	39	104	0	74	15989
2026-01-01 08:20:56.99	103.44	9.31	-51.4	-64.4	3.8	1.49e+00	0	40	104	0	74	16045
2026-01-01 08:20:57.99	103.33	9.37	-51.4	-64.4	3.8	1.49e+00	0	39	104	0	74	16020
2026-01-01 08:20:58.99	103.22	9.44	-51.4	-64.4	3.8	1.49e+00	0	40	104	0	74	16021
2026-01-01 08:21:00.00	103.11	9.51	-51.4	-64.4	3.8	1.49e+00	0	40	104	0	74	15974
2026-01-01 08:21:01.00	103.00	9.58	-51.4	-64.4	3.8	1.49e+00	0	40	104	0	74	16030
2026-01-01 08:21:02.01	102.89	9.64	-51.4	-64.4	3.8	1.49e+00	0	40	104	0	74	16002
2026-01-01 08:21:03.01	102.78	9.71	-51.4	-64.4	3.8	1.49e+00	0	40	104	0	74	16055
2026-01-01 08:21:04.01	102.67	9.78	-51.4	-64.4	3.8	1.49e+00	0	40	104	0	74	16085
2026-01-01 08:21:05.02	102.56	9.85	-51.5	-64.4	3.8	1.49e+00	0	40	104	0	74	16121
2026-01-01 08:21:06.02	102.44	9.91	-51.4	-64.4	3.8	1.49e+00	0	40	104	0	74	15991
2026-01-01 08:21:07.02	102.33	9.98	-51.4	-64.4	3.8	1.49e+00	0	40	104	0	74	15961
2026-01-01 08:21:08.03	102.22	10.05	-51.4	-64.4	3.8	1.49e+00	0	40	104	0	74	15965
2026-01-01 08:21:09.03	102.10	10.12	-51.4	-64.4	3.8	1.49e+00	0	40	104	0	74	15945
2026-01-01 08:21:10.04	101.99	10.19	-51.4	-64.4	3.8	1.49e+00	0	40	104	0	74	15969
2026-01-01 08:21:11.04	101.87	10.25	-51.4	-64.4	3.8	1.49e+00	0	40	104	0	74	15972
2026-01-01 08:21:12.05	101.75	10.32	-51.4	-64.4	3.8	1.49e+00	0	40	104	0	74	15952
2026-01-01 08:21:13.05	101.64	10.39	-51.4	-64.3	3.8	1.49e+00	0	40	104	0	74	15940
2026-01-01 08:21:14.05	101.52	10.46	-51.4	-64.4	3.8	1.49e+00	0	40	104	0	74	16018
2026-01-01 08:21:15.06	101.40	10.53	-51.4	-64.4	3.8	1.49e+00	0	40	104	0	74	16076
2026-01-01 08:21:16.06	101.28	10.60	-51.4	-64.4	3.8	1.49e+00	0	40	104	0	74	16013
2026-01-01 08:21:17.07	101.16	10.67	-51.4	-64.4	3.8	1.49e+00	0	40	104	0	74	15983
2026-01-01 08:21:18.07	101.05	10.73	-51.4	-64.4	3.8	1.49e+00	0	40	104	0	74	15973
2026-01-01 08:21:19.08	100.92	10.80	-51.4	-64.4	3.8	1.49e+00	0	40	104	0	74	15968
2026-01-01 08:21:20.08	100.80	10.87	-51.4	-64.3	3.8	1.49e+00	0	40	104	0	74	15917
2026-01-01 08:21:21.09	100.68	10.94	-51.4	-64.3	3.8	1.49e+00	0	40	104	0	74	15907
2026-01-01 08:21:22.09	100.56	11.01	-51.4	-64.3	3.8	1.49e+00	0	40	104	0	74	15920
2026-01-01 08:21:23.09	100.44	11.08	-51.4	-64.3	3.8	1.49e+00	0	40	104	0	74	15930
2026-01-01 08:21:24.10	100.32	11.15	-51.4	-64.4	3.8	1.49e+00	0	40	104	0	74	15981
2026-01-01 08:21:25.10	100.19	11.22	-51.4	-64.3	3.8	1.49e+00	0	40	104	0	74	15896
2026-01-01 08:21:26.11	100.07	11.29	-51.4	-64.4	3.8	1.49e+00	0	40	104	0	74	15953
2026-01-01 08:21:27.11	99.94	11.36	-51.4	-64.4	3.8	1.49e+00	0	40	104	0	74	15949
2026-01-01 08:21:28.12	99.82	11.43	-51.4	-64.4	3.8	1.49e+00	0	40	104	0	74	16005
2026-01-01 08:21:29.12	99.69	11.50	-51.4	-64.3	3.8	1.49e+00	0	40	104	0	74	15919
2026-01-01 08:21:30.12	99.56	11.57	-51.4	-64.4	3.8	1.49e+00	0	40	104	0	74	15956
2026-01-01 08:21:31.13	99.44	11.64	-51.4	-64.4	3.8	1.49e+00	0	40	104	0	74	15982
2026-01-01 08:21:32.13	99.31	11.70	-51.4	-64.4	3.8	1.49e+00	0	40	104	0	74	16063
2026-01-01 08:21:33.14	99.18	11.77	-51.4	-64.3	3.8	1.49e+00	0	40	104	0	74	15916
2026-01-01 08:21:34.14	99.05	11.84	-51.4	-64.3	3.8	1.49e+00	0	40	104	0	74	15922
2026-01-01 08:21:35.14	98.92	11.91	-51.4	-64.3	3.8	1.49e+00	0	40	104	0	74	15938
2026-01-01 08:21:36.15	98.79	11.98	-51.4	-64.4	3.8	1.49e+00	0	40	104	0	74	15944
2026-01-01 08:21:37.15	98.66	12.05	-51.4	-64.3	3.8	1.49e+00	0	40	104	0	74	15870
2026-01-01 08:21:38.16	98.53	12.12	-51.3	-64.3	3.8	1.49e+00	0	40	104	0	74	15932
2026-01-01 08:21:39.16	98.40	12.19	-51.4	-64.3	3.8	1.49e+00	0	40	104	0	74	15933
2026-01-01 08:21:40.17	98.26	12.26	-51.4	-64.4	3.8	1.49e+00	0	40	104	0	74	16021
2026-01-01 08:21:41.17	98.13	12.33	-51.4	-64.3	3.8	1.49e+00	0	40	104	0	74	15872
2026-01-01 08:21:42.18	98.00	12.41	-51.3	-64.3	3.8	1.49e+00	0	40	104	0	74	15881
2026-01-01 08:21:43.18	97.86	12.48	-51.4	-64.3	3.8	1.49e+00	0	40	104	0	74	15922
2026-01-01 08:21:44.18	97.73	12.55	-51.4	-64.3	3.8	1.49e+00	0	40	104	0	74	15914
2026-01-01 08:21:45.19	97.59	12.62	-51.4	-64.3	3.8	1.49e+00	0	40	104	0	74	15925
2026-01-01 08:21:46.19	97.45	12.69	-51.4	-64.3	3.8	1.49e+00	0	40	104	0	74	15892
2026-01-01 08:21:47.20	97.31	12.76	-51.4	-64.4	3.8	1.49e+00	0	40	104	0	74	15979
2026-01-01 08:21:48.20	97.18	12.83	-51.4	-64.3	3.8	1.49e+00	0	40	104	0	74	15941
2026-01-01 08:21:49.21	97.04	12.90	-51.4	-64.3	3.8	1.49e+00	0	40	104	0	74	15927
2026-01-01 08:21:50.21	96.90	12.97	-51.4	-64.4	3.8	1.49e+00	0	40	104	0	74	15948
2026-01-01 08:21:51.22	96.76	13.04	-51.4	-64.4	3.8	1.49e+00	0	40	104	0	74	16009
2026-01-01 08:21:52.22	96.62	13.11	-51.4	-64.4	3.8	1.49e+00	0	40	104	0	74	16065
2026-01-01 08:21:53.22	96.48	13.18	-51.4	-64.4	3.8	1.49e+00	0	40	104	0	74	16030
2026-01-01 08:21:54.23	96.33	13.25	-51.4	-64.4	3.8	1.49e+00	0	40	104	0	74	15990
2026-01-01 08:21:55.23	96.19	13.32	-51.4	-64.4	3.8	1.49e+00	0	40	104	0	74	16045
2026-01-01 08:21:56.23	96.05	13.39	-51.4	-64.4	3.8	1.49e+00	0	40	104	0	74	16013
2026-01-01 08:21:57.24	95.90	13.46	-51.4	-64.4	3.8	1.49e+00	0	40	104	0	74	16004
2026-01-01 08:21:58.24	95.76	13.53	-51.4	-64.4	3.8	1.49e+00	0	40	104	0	74	16026
2026-01-01 08:21:59.25	95.61	13.60	-51.4	-64.4	3.8	1.49e+00	0	40	104	0	74	16035
2026-01-01 08:22:00.25	95.47	13.68	-51.4	-64.4	3.8	1.49e+00	0	40	104	0	74	15994
2026-01-01 08:22:01.26	95.32	13.75	-51.4	-64.4	3.8	1.49e+00	0	40	104	0	74	15964
2026-01-01 08:22:02.26	95.17	13.82	-51.4	-64.4	3.8	1.49e+00	0	40	104	0	74	16039
2026-01-01 08:22:03.27	95.02	13.89	-51.4	-64.4	3.8	1.49e+00	0	40	104	0	74	16062
2026-01-01 08:22:04.27	94.87	13.96	-51.4	-64.4	3.8	1.49e+00	0	40	104	0	74	16050
2026-01-01 08:22:05.27	94.72	14.03	-51.4	-64.4	3.8	1.49e+00	0	40	104	0	74	16007
2026-01-01 08:22:06.28	94.57	14.10	-51.4	-64.4	3.8	1.49e+00	0	40	104	0	74	16005
2026-01-01 08:22:07.28	94.42	14.17	-51.4	-64.4	3.8	1.49e+00	0	40	104	0	74	15988
2026-01-01 08:22:08.29	94.27	14.24	-51.4	-64.4	3.8	1.49e+00	0	40	104	0	74	16051
2026-01-01 08:22:09.29	94.12	14.31	-51.4	-64.4	3.8	1.49e+00	0	40	104	0	74	16014
2026-01-01 08:22:10.29	93.96	14.38	-51.4	-64.4	3.8	1.49e+00	0	40	104	0	74	15977
2026-01-01 08:22:11.30	93.81	14.46	-51.4	-64.4	3.8	1.49e+00	0	40	104	0	74	15993
2026-01-01 08:22:12.30	93.65	14.53	-51.4	-64.4	3.8	1.49e+00	0	40	104	0	74	16023
2026-01-01 08:22:13.31	93.50	14.60	-51.4	-64.4	3.8	1.49e+00	0	40	104	0	74	15996
2026-01-01 08:22:14.31	93.34	14.67	-51.4	-64.4	3.8	1.49e+00	0	41	104	0	74	16034
2026-01-01 08:22:15.32	93.18	14.74	-51.4	-64.4	3.8	1.49e+00	0	41	104	0	74	16035
2026-01-01 08:22:16.32	93.02	14.81	-51.4	-64.4	3.8	1.49e+00	0	40	104	0	74	15980
2026-01-01 08:22:17.32	92.87	14.88	-51.4	-64.4	3.8	1.49e+00	0	40	104	0	74	16016
2026-01-01 08:22:18.33	92.71	14.95	-51.4	-64.4	3.8	1.49e+00	0	40	104	0	74	16032
2026-01-01 08:22:19.33	92.55	15.02	-51.4	-64.4	3.8	1.49e+00	0	41	104	0	74	15979
2026-01-01 08:22:20.34	92.38	15.09	-51.4	-64.4	3.8	1.49e+00	0	41	104	0	74	16051
2026-01-01 08:22:21.34	92.22	15.16	-51.4	-64.3	3.8	1.49e+00	0	41	104	0	74	15941
2026-01-01 08:22:22.35	92.06	15.24	-51.4	-64.4	3.8	1.49e+00	0	41	104	0	74	16036
2026-01-01 08:22:23.35	91.90	15.31	-51.4	-64.4	3.8	1.49e+00	0	41	104	0	74	16013
2026-01-01 08:22:24.36	91.73	15.38	-51.4	-64.4	3.8	1.49e+00	0	40	104	0	74	15949
2026-01-01 08:22:25.36	91.57	15.45	-51.4	-64.4	3.8	1.49e+00	0	40	104	0	74	15974
2026-01-01 08:22:26.37	91.40	15.52	-51.4	-64.4	3.8	1.49e+00	0	41	104	0	74	16062
2026-01-01 08:22:27.37	91.23	15.59	-51.4	-64.4	3.8	1.49e+00	0	41	104	0	74	16013
2026-01-01 08:22:28.37	91.07	15.66	-51.4	-64.4	3.8	1.49e+00	0	41	104	0	74	15990
2026-01-01 08:22:29.38	90.90	15.73	-51.4	-64.4	3.8	1.49e+00	0	41	104	0	74	16100
2026-01-01 08:22:30.38	90.73	15.80	-51.4	-64.4	3.8	1.49e+00	0	41	104	0	74	16034
2026-01-01 08:22:31.39	90.56	15.87	-51.4	-64.4	3.8	1.49e+00	0	41	104	0	74	16052
2026-01-01 08:22:32.39	90.39	15.94	-51.4	-64.4	3.8	1.49e+00	0	40	104	0	74	16059
2026-01-01 08:22:33.40	90.21	16.01	-51.4	-64.4	3.8	1.49e+00	0	41	104	0	74	16025
2026-01-01 08:22:34.40	90.04	16.08	-51.4	-64.4	3.8	1.49e+00	0	41	104	0	74	16031
2026-01-01 08:22:35.41	89.87	16.15	-51.4	-64.4	3.8	1.49e+00	0	41	104	0	74	16020
2026-01-01 08:22:36.41	89.70	16.22	-51.5	-64.4	3.8	1.49e+00	0	41	104	0	74	16099
2026-01-01 08:22:37.41	89.52	16.29	-51.4	-64.4	3.8	1.49e+00	0	41	104	0	74	16073
2026-01-01 08:22:38.42	89.34	16.36	-51.4	-64.4	3.8	1.49e+00	0	41	104	0	74	16051
2026-01-01 08:22:39.42	89.17	16.43	-51.4	-64.4	3.8	1.49e+00	0	41	104	0	74	15995
2026-01-01 08:22:40.43	88.99	16.50	-51.4	-64.4	3.8	1.49e+00	0	41	104	0	74	16071
2026-01-01 08:22:41.43	88.81	16.57	-51.5	-64.4	3.8	1.49e+00	0	41	104	0	74	16056
2026-01-01 08:22:42.43	88.63	16.64	-51.4	-64.4	3.8	1.49e+00	0	40	104	0	74	16055
2026-01-01 08:22:43.44	88.45	16.71	-51.4	-64.4	3.8	1.49e+00	0	41	104	0	74	16031
2026-01-01 08:22:44.44	88.27	16.78	-51.4	-64.4	3.8	1.49e+00	0	41	104	0	74	15982
2026-01-01 08:22:45.45	88.09	16.85	-51.4	-64.4	3.8	1.49e+00	0	41	104	0	74	15960
2026-01-01 08:22:46.45	87.91	16.92	-51.5	-64.4	3.8	1.49e+00	0	40	104	0	74	16054
2026-01-01 08:22:47.45	87.73	16.99	-51.4	-64.4	3.8	1.49e+00	0	41	104	0	74	16085
2026-01-01 08:22:48.46	87.54	17.06	-51.4	-64.4	3.8	1.49e+00	0	41	104	0	74	16040
2026-01-01 08:22:49.46	87.36	17.13	-51.4	-64.4	3.8	1.49e+00	0	41	104	0	74	16005
2026-01-01 08:22:50.47	87.17	17.20	-51.4	-64.4	3.8	1.49e+00	0	41	104	0	74	16026
2026-01-01 08:22:51.47	86.99	17.26	-51.4	-64.4	3.8	1.49e+00	0	41	104	0	74	16095
2026-01-01 08:22:52.48	86.80	17.33	-51.4	-64.4	3.8	1.49e+00	0	41	104	0	74	16101
2026-01-01 08:22:53.48	86.61	17.40	-51.4	-64.4	3.8	1.49e+00	0	41	104	0	74	16021
2026-01-01 08:22:54.49	86.42	17.47	-51.4	-64.4	3.8	1.49e+00	0	41	104	0	74	16046
2026-01-01 08:22:55.49	86.23	17.54	-51.5	-64.5	3.8	1.49e+00	0	41	104	0	74	16156
2026-01-01 08:22:56.49	86.04	17.61	-51.5	-64.4	3.8	1.49e+00	0	41	104	0	74	16091
2026-01-01 08:22:57.50	85.85	17.67	-51.4	-64.4	3.8	1.49e+00	0	41	104	0	74	16059
2026-01-01 08:22:58.50	85.66	17.74	-51.4	-64.4	3.8	1.49e+00	0	41	104	0	74	16080
2026-01-01 08:22:59.51	85.46	17.81	-51.5	-64.4	3.8	1.49e+00	0	40	104	0	74	16108
2026-01-01 08:23:00.51	85.27	17.88	-51.4	-64.4	3.8	1.49e+00	0	41	104	0	74	16047
2026-01-01 08:23:01.52	85.07	17.95	-51.4	-64.4	3.8	1.49e+00	0	41	104	0	74	16022
2026-01-01 08:23:02.52	84.88	18.01	-51.4	-64.4	3.8	1.49e+00	0	41	104	0	74	16044
2026-01-01 08:23:03.53	84.68	18.08	-51.4	-64.4	3.8	1.49e+00	0	41	104	0	74	16050
2026-01-01 08:23:04.53	84.48	18.15	-51.4	-64.4	3.8	1.49e+00	0	41	104	0	74	15994
2026-01-01 08:23:05.53	84.28	18.21	-51.4	-64.4	3.8	1.49e+00	0	41	104	0	74	16022
2026-01-01 08:23:06.54	84.08	18.28	-51.4	-64.4	3.8	1.49e+00	0	41	104	0	74	16090
2026-01-01 08:23:07.54	83.88	18.35	-51.4	-64.4	3.8	1.49e+00	0	41	104	0	74	16062
2026-01-01 08:23:08.54	83.68	18.41	-51.4	-64.4	3.8	1.49e+00	0	41	104	0	74	16062
2026-01-01 08:23:09.55	83.48	18.48	-51.4	-64.4	3.8	1.49e+00	0	41	104	0	74	16015
2026-01-01 08:23:10.55	83.28	18.54	-51.4	-64.4	3.8	1.49e+00	0	41	104	0	74	16029
2026-01-01 08:23:11.56	83.07	18.61	-51.4	-64.4	3.8	1.49e+00	0	40	104	0	74	16025
2026-01-01 08:23:12.56	82.87	18.67	-51.4	-64.4	3.8	1.49e+00	0	41	104	0	74	16055
2026-01-01 08:23:13.56	82.66	18.74	-51.4	-64.4	3.8	1.49e+00	0	41	104	0	74	16019
2026-01-01 08:23:14.57	82.45	18.80	-51.4	-64.4	3.8	1.49e+00	0	41	104	0	74	16011
2026-01-01 08:23:15.58	82.24	18.87	-51.4	-64.4	3.8	1.49e+00	0	41	104	0	74	16050
2026-01-01 08:23:16.58	82.04	18.93	-51.4	-64.4	3.8	1.49e+00	0	41	104	0	74	16014
2026-01-01 08:23:17.58	81.83	19.00	-51.4	-64.4	3.8	1.49e+00	0	41	104	0	74	15991
2026-01-01 08:23:18.58	81.62	19.06	-51.4	-64.4	3.8	1.49e+00	0	41	104	0	74	15989
2026-01-01 08:23:19.59	81.41	19.13	-51.4	-64.4	3.8	1.49e+00	0	41	104	0	74	16054
2026-01-01 08:23:20.59	81.20	19.19	-51.4	-64.4	3.8	1.49e+00	0	41	104	0	74	16053
2026-01-01 08:23:21.59	80.98	19.25	-51.4	-64.4	3.8	1.49e+00	0	41	104	0	74	16013
2026-01-01 08:23:22.60	80.77	19.32	-51.4	-64.4	3.8	1.49e+00	0	41	104	0	74	16046
2026-01-01 08:23:23.60	80.55	19.38	-51.4	-64.4	3.8	1.49e+00	0	41	104	0	74	16077
2026-01-01 08:23:24.61	80.34	19.44	-51.4	-64.4	3.8	1.49e+00	0	41	104	0	74	16060
2026-01-01 08:23:25.61	80.12	19.50	-51.4	-64.4	3.8	1.49e+00	0	41	104	0	74	16048
2026-01-01 08:23:26.61	79.91	19.56	-51.4	-64.4	3.8	1.49e+00	0	41	104	0	74	16038
2026-01-01 08:23:27.62	79.69	19.63	-51.4	-64.4	3.8	1.49e+00	0	41	104	0	74	16000
2026-01-01 08:23:28.62	79.47	19.69	-51.4	-64.4	3.8	1.49e+00	0	41	104	0	74	16010
2026-01-01 08:23:29.63	79.25	19.75	-51.4	-64.4	3.8	1.49e+00	0	41	104	0	74	16001
2026-01-01 08:23:30.63	79.03	19.81	-51.4	-64.4	3.8	1.49e+00	0	41	104	0	74	16046
2026-01-01 08:23:31.63	78.81	19.87	-51.4	-64.4	3.8	1.49e+00	0	41	104	0	74	16065
2026-01-01 08:23:32.64	78.58	19.93	-51.4	-64.4	3.8	1.49e+00	0	41	104	0	74	16048
2026-01-01 08:23:33.64	78.36	19.99	-51.4	-64.4	3.8	1.49e+00	0	41	104	0	74	15998
2026-01-01 08:23:34.65	78.13	20.05	-51.4	-64.4	3.8	1.49e+00	0	41	104	0	74	15999
2026-01-01 08:23:35.65	77.91	20.11	-51.4	-64.4	3.8	1.49e+00	0	41	104	0	74	16020
2026-01-01 08:23:36.66	77.68	20.17	-51.4	-64.4	3.8	1.49e+00	0	41	104	0	74	16002
2026-01-01 08:23:37.66	77.46	20.23	-51.4	-64.4	3.8	1.49e+00	0	41	104	0	74	15968
2026-01-01 08:23:38.67	77.23	20.29	-51.4	-64.4	3.8	1.49e+00	0	41	104	0	74	16001
2026-01-01 08:23:39.67	77.00	20.34	-51.4	-64.4	3.8	1.49e+00	0	41	104	0	74	15959
2026-01-01 08:23:40.67	76.77	20.40	-51.4	-64.4	3.8	1.49e+00	0	41	104	0	74	16076
2026-01-01 08:23:41.68	76.54	20.46	-51.4	-64.4	3.8	1.49e+00	0	41	104	0	74	16045
2026-01-01 08:23:42.68	76.31	20.51	-51.4	-64.4	3.8	1.49e+00	0	41	104	0	74	16026
2026-01-01 08:23:43.69	76.07	20.57	-51.4	-64.3	3.8	1.49e+00	0	41	104	0	74	15933
2026-01-01 08:23:44.69	75.84	20.63	-51.4	-64.4	3.8	1.49e+00	0	41	104	0	74	16056
2026-01-01 08:23:45.70	75.61	20.68	-51.4	-64.4	3.8	1.49e+00	0	41	104	0	74	16021
2026-01-01 08:23:46.70	75.37	20.74	-51.4	-64.4	3.8	1.49e+00	0	41	104	0	74	16016
2026-01-01 08:23:47.70	75.14	20.79	-51.4	-64.4	3.8	1.49e+00	0	41	104	0	74	16084
2026-01-01 08:23:48.71	74.90	20.85	-51.4	-64.4	3.8	1.49e+00	0	41	104	0	74	16043
2026-01-01 08:23:49.71	74.66	20.90	-51.4	-64.4	3.8	1.49e+00	0	41	104	0	74	16049
2026-01-01 08:23:50.71	74.43	20.96	-51.4	-64.4	3.8	1.49e+00	0	41	104	0	74	15970
2026-01-01 08:23:51.72	74.19	21.01	-51.4	-64.4	3.8	1.49e+00	0	41	104	0	74	16081
2026-01-01 08:23:52.72	73.95	21.06	-51.4	-64.5	3.8	1.49e+00	0	41	104	0	74	16128
2026-01-01 08:23:53.73	73.71	21.12	-51.4	-64.4	3.8	1.49e+00	0	41	104	0	74	16038
2026-01-01 08:23:54.73	73.47	21.17	-51.5	-64.4	3.8	1.49e+00	0	41	104	0	74	16085
2026-01-01 08:23:55.73	73.23	21.22	-51.4	-64.4	3.8	1.49e+00	0	41	104	0	74	16070
2026-01-01 08:23:56.74	72.98	21.27	-51.4	-64.4	3.8	1.49e+00	0	41	104	0	74	16040
2026-01-01 08:23:57.74	72.74	21.32	-51.4	-64.4	3.8	1.49e+00	0	41	104	0	74	16055
2026-01-01 08:23:58.75	72.49	21.37	-51.4	-64.4	3.8	1.49e+00	0	41	104	0	74	15993
2026-01-01 08:23:59.75	72.25	21.42	-51.4	-64.4	3.8	1.49e+00	0	41	104	0	74	16014
2026-01-01 08:24:00.76	72.00	21.47	-51.4	-64.4	3.8	1.49e+00	0	41	104	0	74	16028
2026-01-01 08:24:01.76	71.75	21.52	-51.4	-64.4	3.8	1.49e+00	0	41	104	0	74	16087
2026-01-01 08:24:02.77	71.50	21.57	-51.4	-64.4	3.8	1.49e+00	0	41	104	0	74	16035
2026-01-01 08:24:03.77	71.26	21.62	-51.4	-64.4	3.8	1.49e+00	0	41	104	0	74	15980
2026-01-01 08:24:04.77	71.01	21.66	-51.4	-64.4	3.8	1.49e+00	0	41	104	0	74	15984
2026-01-01 08:24:05.78	70.76	21.71	-51.4	-64.3	3.8	1.49e+00	0	41	104	0	74	15940
2026-01-01 08:24:06.78	70.51	21.76	-51.4	-64.4	3.8	1.49e+00	0	41	104	0	74	15979
2026-01-01 08:24:07.79	70.25	21.80	-51.5	-64.4	3.8	1.49e+00	0	41	104	0	74	16072
2026-01-01 08:24:08.79	70.00	21.85	-51.4	-64.4	3.8	1.49e+00	0	41	104	0	74	16032
2026-01-01 08:24:09.80	69.75	21.89	-51.4	-64.4	3.8	1.49e+00	0	41	104	0	74	16071
2026-01-01 08:24:10.80	69.50	21.94	-51.4	-64.4	3.8	1.49e+00	0	41	104	0	74	16002
2026-01-01 08:24:11.81	69.24	21.98	-51.4	-64.4	3.8	1.49e+00	0	41	104	0	74	16099
2026-01-01 08:24:12.81	68.99	22.03	-51.4	-64.4	3.8	1.49e+00	0	41	104	0	74	15974
2026-01-01 08:24:13.81	68.73	22.07	-51.4	-64.4	3.8	1.49e+00	0	41	104	0	74	15965
2026-01-01 08:24:14.82	68.47	22.11	-51.4	-64.4	3.8	1.49e+00	0	41	104	0	74	16029
2026-01-01 08:24:15.82	68.22	22.15	-51.4	-64.4	3.8	1.49e+00	0	41	104	0	74	15962
2026-01-01 08:24:16.83	67.96	22.19	-51.4	-64.4	3.8	1.49e+00	0	41	104	0	74	15955
2026-01-01 08:24:17.83	67.70	22.23	-51.4	-64.3	3.8	1.49e+00	0	41	104	0	74	15918
2026-01-01 08:24:18.84	67.44	22.27	-51.4	-64.3	3.8	1.49e+00	0	41	104	0	74	15909
2026-01-01 08:24:19.84	67.18	22.31	-51.4	-64.4	3.8	1.49e+00	0	41	104	0	74	15948
2026-01-01 08:24:20.85	66.92	22.35	-51.4	-64.4	3.8	1.49e+00	0	41	104	0	74	15953
2026-01-01 08:24:21.85	66.66	22.39	-51.4	-64.4	3.8	1.49e+00	0	41	104	0	74	15952
2026-01-01 08:24:22.85	66.40	22.43	-51.4	-64.4	3.8	1.49e+00	0	41	104	0	74	15976
2026-01-01 08:24:23.86	66.13	22.47	-51.4	-64.4	3.8	1.49e+00	0	41	104	0	74	15980
2026-01-01 08:24:24.86	65.87	22.50	-51.4	-64.3	3.8	1.49e+00	0	41	104	0	74	15899
2026-01-01 08:24:25.87	65.60	22.54	-51.4	-64.4	3.8	1.49e+00	0	41	104	0	74	15993
2026-01-01 08:24:26.87	65.34	22.57	-51.4	-64.4	3.8	1.49e+00	0	41	104	0	74	15991
2026-01-01 08:24:27.88	65.08	22.61	-51.4	-64.4	3.8	1.49e+00	0	41	104	0	74	16011
2026-01-01 08:24:28.88	64.81	22.64	-51.4	-64.3	3.8	1.49e+00	0	41	104	0	74	15919
2026-01-01 08:24:29.88	64.55	22.68	-51.4	-64.4	3.8	1.49e+00	0	41	104	0	74	15945
2026-01-01 08:24:30.89	64.28	22.71	-51.4	-64.4	3.8	1.49e+00	0	41	104	0	74	15950
2026-01-01 08:24:31.89	64.01	22.74	-51.4	-64.4	3.8	1.49e+00	0	41	104	0	74	15978
2026-01-01 08:24:32.90	63.74	22.77	-51.4	-64.4	3.8	1.49e+00	0	41	104	0	74	15986
2026-01-01 08:24:33.90	63.47	22.81	-51.4	-64.4	3.8	1.49e+00	0	41	104	0	74	15998
2026-01-01 08:24:34.91	63.20	22.84	-51.4	-64.3	3.8	1.49e+00	0	41	104	0	74	15892
2026-01-01 08:24:35.91	62.94	22.87	-51.4	-64.4	3.8	1.49e+00	0	41	104	0	74	15988
2026-01-01 08:24:36.92	62.66	22.90	-51.4	-64.3	3.8	1.49e+00	0	41	104	0	74	15938
2026-01-01 08:24:37.92	62.39	22.92	-51.4	-64.4	3.8	1.49e+00	0	41	104	0	74	15948
2026-01-01 08:24:38.92	62.12	22.95	-51.4	-64.3	3.8	1.49e+00	0	41	104	0	74	15927
2026-01-01 08:24:39.93	61.85	22.98	-51.4	-64.4	3.8	1.49e+00	0	41	104	0	74	15965
2026-01-01 08:24:40.93	61.58	23.01	-51.4	-64.4	3.8	1.49e+00	0	41	104	0	74	15968
2026-01-01 08:24:41.94	61.31	23.03	-51.4	-64.4	3.8	1.49e+00	0	41	104	0	74	15972
2026-01-01 08:24:42.94	61.04	23.06	-51.4	-64.3	3.8	1.49e+00	0	41	104	0	74	15867
2026-01-01 08:24:43.94	60.76	23.08	-51.4	-64.3	3.8	1.49e+00	0	41	104	0	74	15923
2026-01-01 08:24:44.95	60.49	23.11	-51.4	-64.4	3.8	1.49e+00	0	41	104	0	74	15972
2026-01-01 08:24:45.95	60.21	23.13	-51.4	-64.3	3.8	1.49e+00	0	41	104	0	74	15919
2026-01-01 08:24:46.96	59.94	23.15	-51.4	-64.3	3.8	1.49e+00	0	41	104	0	74	15847
2026-01-01 08:24:47.96	59.67	23.17	-51.4	-64.3	3.8	1.49e+00	0	41	104	0	74	15886
2026-01-01 08:24:48.96	59.39	23.19	-51.4	-64.3	3.8	1.49e+00	0	41	104	0	74	15922
2026-01-01 08:24:49.97	59.11	23.21	-51.4	-64.4	3.8	1.49e+00	0	41	104	0	74	15961
2026-01-01 08:24:50.97	58.84	23.23	-51.4	-64.4	3.8	1.49e+00	0	41	104	0	74	15973
2026-01-01 08:24:51.98	58.56	23.25	-51.4	-64.4	3.8	1.49e+00	0	41	104	0	74	15954
2026-01-01 08:24:52.98	58.29	23.27	-51.4	-64.4	3.8	1.49e+00	0	41	104	0	74	15945
2026-01-01 08:24:53.98	58.01	23.29	-51.4	-64.4	3.8	1.49e+00	0	41	104	0	74	15961
2026-01-01 08:24:54.99	57.73	23.31	-51.4	-64.3	3.8	1.49e+00	0	41	104	0	74	15939
2026-01-01 08:24:55.99	57.45	23.32	-51.4	-64.3	3.8	1.49e+00	0	41	104	0	74	15922
2026-01-01 08:24:57.00	57.18	23.34	-51.4	-64.4	3.8	1.49e+00	0	41	104	0	74	15994
2026-01-01 08:24:58.00	56.90	23.35	-51.4	-64.4	3.8	1.49e+00	0	41	104	0	74	16009
2026-01-01 08:24:59.01	56.62	23.37	-51.4	-64.4	3.8	1.49e+00	0	41	104	0	74	15969
2026-01-01 08:25:00.01	56.34	23.38	-51.4	-64.3	3.8	1.49e+00	0	41	104	0	74	15890
2026-01-01 08:25:01.01	56.06	23.39	-51.4	-64.4	3.8	1.49e+00	0	41	104	0	74	15998
2026-01-01 08:25:02.02	55.78	23.40	-51.4	-64.4	3.8	1.49e+00	0	41	104	0	74	15961
2026-01-01 08:25:03.02	55.50	23.42	-51.4	-64.4	3.8	1.49e+00	0	41	104	0	74	16021
2026-01-01 08:25:04.03	55.22	23.43	-51.4	-64.3	3.8	1.49e+00	0	41	104	0	74	15934
2026-01-01 08:25:05.03	54.95	23.44	-51.4	-64.4	3.8	1.49e+00	0	41	104	0	74	15957
2026-01-01 08:25:06.03	54.67	23.44	-51.4	-64.4	3.8	1.49e+00	0	41	104	0	74	15991
2026-01-01 08:25:07.04	54.39	23.45	-51.4	-64.4	3.8	1.49e+00	0	41	104	0	74	16009
2026-01-01 08:25:08.04	54.11	23.46	-51.4	-64.3	3.8	1.49e+00	0	41	104	0	74	15920
2026-01-01 08:25:09.05	53.83	23.47	-51.4	-64.4	3.8	1.49e+00	0	41	104	0	74	15976
2026-01-01 08:25:10.05	53.55	23.47	-51.4	-64.4	3.8	1.49e+00	0	41	104	0	74	15957
2026-01-01 08:25:11.06	53.26	23.48	-51.4	-64.4	3.8	1.49e+00	0	41	104	0	74	15996
2026-01-01 08:25:12.06	52.98	23.48	-51.4	-64.4	3.8	1.49e+00	0	41	104	0	74	16013
2026-01-01 08:25:13.06	52.71	23.49	-51.4	-64.4	3.8	1.49e+00	0	41	104	0	74	15977
2026-01-01 08:25:14.07	52.42	23.49	-51.4	-64.3	3.8	1.49e+00	0	41	104	0	74	15923
2026-01-01 08:25:15.07	52.14	23.49	-51.4	-64.4	3.8	1.49e+00	0	41	104	0	74	15992
2026-01-01 08:25:16.08	51.86	23.49	-51.4	-64.4	3.8	1.49e+00	0	41	104	0	74	15978
2026-01-01 08:25:17.08	51.58	23.49	-51.4	-64.4	3.8	1.49e+00	0	41	104	0	74	15945
2026-01-01 08:25:18.09	51.30	23.49	-51.4	-64.4	3.8	1.49e+00	0	41	104	0	74	15966
2026-01-01 08:25:19.09	51.02	23.49	-51.4	-64.4	3.8	1.49e+00	0	41	104	0	74	15969
2026-01-01 08:25:20.09	50.74	23.49	-51.4	-64.4	3.8	1.49e+00	0	41	104	0	74	15950
2026-01-01 08:25:21.10	50.46	23.49	-51.4	-64.3	3.8	1.49e+00	0	41	104	0	74	15934
2026-01-01 08:25:22.10	50.18	23.49	-51.4	-64.4	3.8	1.49e+00	0	41	104	0	74	15960
2026-01-01 08:25:23.11	49.90	23.48	-51.4	-64.4	3.8	1.49e+00	0	41	104	0	74	15982
2026-01-01 08:25:24.11	49.62	23.48	-51.4	-64.4	3.8	1.49e+00	0	41	104	0	74	15977
2026-01-01 08:25:25.12	49.34	23.47	-51.4	-64.4	3.8	1.49e+00	0	41	104	0	74	15965
2026-01-01 08:25:26.12	49.06	23.47	-51.4	-64.4	3.8	1.49e+00	0	41	104	0	74	15969
2026-01-01 08:25:27.13	48.78	23.46	-51.4	-64.4	3.8	1.49e+00	0	41	104	0	74	15960
2026-01-01 08:25:28.13	48.50	23.45	-51.4	-64.3	3.8	1.49e+00	0	41	104	0	74	15872
2026-01-01 08:25:29.13	48.22	23.45	-51.4	-64.3	3.8	1.49e+00	0	41	104	0	74	15916
2026-01-01 08:25:30.14	47.94	23.44	-51.4	-64.3	3.8	1.49e+00	0	41	104	0	74	15893
2026-01-01 08:25:31.14	47.66	23.43	-51.4	-64.3	3.8	1.49e+00	0	41	104	0	74	15935
2026-01-01 08:25:32.15	47.38	23.42	-51.4	-64.4	3.8	1.49e+00	0	41	104	0	74	15992
2026-01-01 08:25:33.15	47.10	23.41	-51.4	-64.3	3.8	1.49e+00	0	41	104	0	74	15941
2026-01-01 08:25:34.16	46.82	23.40	-51.4	-64.4	3.8	1.49e+00	0	41	104	0	74	15990
2026-01-01 08:25:35.16	46.54	23.38	-51.4	-64.4	3.8	1.49e+00	0	41	104	0	74	15945
2026-01-01 08:25:36.17	46.26	23.37	-51.4	-64.4	3.8	1.49e+00	0	41	104	0	74	16020
2026-01-01 08:25:37.17	45.99	23.36	-51.4	-64.4	3.8	1.49e+00	0	41	104	0	74	15965
2026-01-01 08:25:38.17	45.71	23.34	-51.4	-64.4	3.8	1.49e+00	0	41	104	0	74	15966
2026-01-01 08:25:39.18	45.43	23.33	-51.4	-64.4	3.8	1.49e+00	0	41	104	0	74	16023
2026-01-01 08:25:40.18	45.15	23.31	-51.4	-64.4	3.8	1.49e+00	0	41	104	0	74	16009
2026-01-01 08:25:41.19	44.88	23.29	-51.4	-64.4	3.8	1.49e+00	0	41	104	0	74	15955
2026-01-01 08:25:42.19	44.60	23.28	-51.4	-64.4	3.8	1.49e+00	0	41	104	0	74	15958
2026-01-01 08:25:43.20	44.32	23.26	-51.4	-64.4	3.8	1.49e+00	0	41	104	0	74	15968
2026-01-01 08:25:44.20	44.05	23.24	-51.4	-64.4	3.8	1.49e+00	0	41	104	0	74	15959
2026-01-01 08:25:45.20	43.77	23.22	-51.4	-64.4	3.8	1.49e+00	0	41	104	0	74	16007
2026-01-01 08:25:46.21	43.50	23.20	-51.4	-64.4	3.8	1.49e+00	0	41	104	0	74	15959
2026-01-01 08:25:47.21	43.22	23.18	-51.4	-64.4	3.8	1.49e+00	0	41	104	0	74	16014
2026-01-01 08:25:48.21	42.95	23.16	-51.4	-64.4	3.8	1.49e+00	0	41	104	0	74	15986
2026-01-01 08:25:49.22	42.67	23.13	-51.4	-64.3	3.8	1.49e+00	0	41	104	0	74	15920
2026-01-01 08:25:50.22	42.40	23.11	-51.4	-64.4	3.8	1.49e+00	0	41	104	0	74	15997
2026-01-01 08:25:51.23	42.13	23.09	-51.4	-64.4	3.8	1.49e+00	0	41	104	0	74	15952
2026-01-01 08:25:52.23	41.85	23.06	-51.4	-64.4	3.8	1.49e+00	0	41	104	0	74	16001
2026-01-01 08:25:53.24	41.58	23.04	-51.5	-64.4	3.8	1.49e+00	0	41	104	0	74	16113
2026-01-01 08:25:54.24	41.31	23.01	-51.5	-64.4	3.8	1.49e+00	0	41	104	0	74	16105
2026-01-01 08:25:55.25	41.04	22.99	-51.4	-64.4	3.8	1.49e+00	0	41	104	0	74	16016
2026-01-01 08:25:56.25	40.77	22.96	-51.4	-64.4	3.8	1.49e+00	0	41	104	0	74	15977
2026-01-01 08:25:57.25	40.50	22.93	-51.4	-64.4	3.8	1.49e+00	0	41	104	0	74	16006
2026-01-01 08:25:58.26	40.22	22.90	-51.4	-64.4	3.8	1.49e+00	0	41	104	0	74	15951
2026-01-01 08:25:59.26	39.96	22.87	-51.4	-64.4	3.8	1.49e+00	0	41	104	0	74	16059
2026-01-01 08:26:00.27	39.69	22.84	-51.4	-64.4	3.8	1.49e+00	0	41	104	0	74	15999
2026-01-01 08:26:01.27	39.42	22.81	-51.4	-64.4	3.8	1.49e+00	0	41	104	0	74	15950
2026-01-01 08:26:02.27	39.15	22.78	-51.5	-64.4	3.8	1.49e+00	0	41	104	0	74	16080
2026-01-01 08:26:03.28	38.88	22.75	-51.5	-64.5	3.8	1.49e+00	0	41	104	0	74	16138
2026-01-01 08:26:04.28	38.62	22.72	-51.4	-64.4	3.8	1.49e+00	0	41	104	0	74	16090
2026-01-01 08:26:05.28	38.35	22.69	-51.4	-64.4	3.8	1.49e+00	0	41	104	0	74	16084
2026-01-01 08:26:06.29	38.08	22.65	-51.4	-64.4	3.8	1.49e+00	0	41	104	0	74	16028
2026-01-01 08:26:07.29	37.82	22.62	-51.5	-64.4	3.8	1.49e+00	0	41	104	0	74	16118
2026-01-01 08:26:08.30	37.55	22.59	-51.4	-64.4	3.8	1.49e+00	0	41	104	0	74	16055
2026-01-01 08:26:09.30	37.29	22.55	-51.4	-64.4	3.8	1.49e+00	0	41	104	0	74	16093
2026-01-01 08:26:10.31	37.03	22.51	-51.5	-64.4	3.8	1.49e+00	0	41	104	0	74	16117
2026-01-01 08:26:11.31	36.76	22.48	-51.4	-64.4	3.8	1.49e+00	0	41	104	0	74	16067
2026-01-01 08:26:12.32	36.50	22.44	-51.4	-64.4	3.8	1.49e+00	0	41	104	0	74	16088
2026-01-01 08:26:13.32	36.24	22.40	-51.4	-64.4	3.8	1.49e+00	0	41	104	0	74	15970
2026-01-01 08:26:14.32	35.98	22.37	-51.4	-64.4	3.8	1.49e+00	0	41	104	0	74	16064
2026-01-01 08:26:15.33	35.72	22.33	-51.4	-64.4	3.8	1.49e+00	0	41	104	0	74	16085
2026-01-01 08:26:16.33	35.46	22.29	-51.4	-64.4	3.8	1.49e+00	0	41	104	0	74	16043
2026-01-01 08:26:17.34	35.20	22.25	-51.4	-64.4	3.8	1.49e+00	0	41	104	0	74	16013
2026-01-01 08:26:18.34	34.94	22.21	-51.4	-64.4	3.8	1.49e+00	0	41	104	0	74	16055
2026-01-01 08:26:19.35	34.68	22.17	-51.4	-64.4	3.8	1.49e+00	0	41	104	0	74	16050
2026-01-01 08:26:20.35	34.43	22.12	-51.4	-64.4	3.8	1.49e+00	0	41	104	0	74	16091
2026-01-01 08:26:21.35	34.17	22.08	-51.5	-64.4	3.8	1.49e+00	0	41	104	0	74	16114
2026-01-01 08:26:22.36	33.92	22.04	-51.4	-64.4	3.8	1.49e+00	0	41	104	0	74	16066
2026-01-01 08:26:23.36	33.66	22.00	-51.5	-64.4	3.8	1.49e+00	0	41	104	0	74	16058
2026-01-01 08:26:24.37	33.41	21.95	-51.4	-64.4	3.8	1.49e+00	0	41	104	0	74	15998
2026-01-01 08:26:25.37	33.15	21.91	-51.4	-64.4	3.8	1.49e+00	0	41	104	0	74	16046
2026-01-01 08:26:26.37	32.90	21.86	-51.4	-64.4	3.8	1.49e+00	0	41	104	0	74	16083
2026-01-01 08:26:27.38	32.65	21.82	-51.4	-64.4	3.8	1.49e+00	0	41	104	0	74	16107
2026-01-01 08:26:28.38	32.40	21.77	-51.4	-64.4	3.8	1.49e+00	0	41	104	0	74	16091
2026-01-01 08:26:29.39	32.15	21.73	-51.4	-64.4	3.8	1.49e+00	0	41	104	0	74	16075
2026-01-01 08:26:30.39	31.90	21.68	-51.4	-64.4	3.8	1.49e+00	0	41	104	0	74	16080
2026-01-01 08:26:31.40	31.65	21.63	-51.5	-64.5	3.8	1.49e+00	0	41	104	0	74	16142
2026-01-01 08:26:32.40	31.40	21.58	-51.5	-64.5	3.8	1.49e+00	0	41	104	0	74	16168
2026-01-01 08:26:33.40	31.16	21.54	-51.5	-64.4	3.8	1.49e+00	0	41	104	0	74	16125
2026-01-01 08:26:34.41	30.91	21.49	-51.5	-64.4	3.8	1.49e+00	0	41	104	0	74	16108
2026-01-01 08:26:35.41	30.66	21.44	-51.5	-64.5	3.8	1.49e+00	0	41	104	0	74	16190
2026-01-01 08:26:36.42	30.42	21.39	-51.5	-64.5	3.8	1.49e+00	0	41	104	0	74	16128
2026-01-01 08:26:37.42	30.18	21.34	-51.5	-64.5	3.8	1.49e+00	0	41	104	0	74	16162
2026-01-01 08:26:38.42	29.93	21.29	-51.5	-64.4	3.8	1.49e+00	0	41	104	0	74	16100
2026-01-01 08:26:39.43	29.69	21.24	-51.4	-64.4	3.8	1.49e+00	0	41	104	0	74	16069
2026-01-01 08:26:40.43	29.45	21.19	-51.5	-64.5	3.8	1.49e+00	0	41	104	0	74	16152
2026-01-01 08:26:41.44	29.21	21.13	-51.5	-64.5	3.8	1.49e+00	0	41	104	0	74	16129
2026-01-01 08:26:42.44	28.97	21.08	-51.5	-64.4	3.8	1.49e+00	0	41	104	0	74	16121
2026-01-01 08:26:43.45	28.73	21.03	-51.5	-64.4	3.8	1.49e+00	0	41	104	0	74	16110
2026-01-01 08:26:44.45	28.49	20.98	-51.5	-64.4	3.8	1.49e+00	0	41	104	0	74	16115
2026-01-01 08:26:45.45	28.25	20.92	-51.5	-64.4	3.8	1.49e+00	0	41	104	0	74	16103
2026-01-01 08:26:46.46	28.02	20.87	-51.5	-64.5	3.8	1.49e+00	0	41	104	0	74	16128
2026-01-01 08:26:47.46	27.78	20.82	-51.5	-64.5	3.8	1.49e+00	0	41	104	0	74	16154
2026-01-01 08:26:48.47	27.54	20.76	-51.5	-64.5	3.8	1.49e+00	0	41	104	0	74	16151
2026-01-01 08:26:49.47	27.31	20.71	-51.5	-64.5	3.8	1.49e+00	0	41	104	0	74	16190
2026-01-01 08:26:50.47	27.08	20.65	-51.5	-64.5	3.8	1.49e+00	0	41	104	0	74	16208
2026-01-01 08:26:51.48	26.85	20.59	-51.5	-64.5	3.8	1.49e+00	0	41	104	0	74	16143
2026-01-01 08:26:52.49	26.61	20.54	-51.5	-64.5	3.8	1.49e+00	0	41	104	0	74	16137
2026-01-01 08:26:53.49	26.38	20.48	-51.5	-64.5	3.8	1.49e+00	0	41	104	0	74	16161
2026-01-01 08:26:54.49	26.15	20.42	-51.5	-64.5	3.8	1.49e+00	0	41	104	0	74	16151
2026-01-01 08:26:55.50	25.92	20.37	-51.5	-64.5	3.8	1.49e+00	0	41	104	0	74	16171
2026-01-01 08:26:56.50	25.70	20.31	-51.5	-64.5	3.8	1.49e+00	0	41	104	0	74	16190
2026-01-01 08:26:57.51	25.47	20.25	-51.5	-64.5	3.8	1.49e+00	0	41	104	0	74	16181
2026-01-01 08:26:58.51	25.24	20.19	-51.5	-64.5	3.8	1.49e+00	0	41	104	0	74	16135
2026-01-01 08:26:59.51	25.02	20.13	-51.5	-64.4	3.8	1.49e+00	0	41	104	0	74	16121
2026-01-01 08:27:00.52	24.79	20.08	-51.5	-64.5	3.8	1.49e+00	0	41	104	0	74	16186
2026-01-01 08:27:01.52	24.57	20.02	-51.5	-64.5	3.8	1.49e+00	0	41	104	0	74	16148
2026-01-01 08:27:02.52	24.35	19.96	-51.5	-64.4	3.8	1.49e+00	0	41	104	0	74	16116
2026-01-01 08:27:03.53	24.13	19.90	-51.5	-64.5	3.8	1.49e+00	0	41	104	0	74	16165
2026-01-01 08:27:04.53	23.91	19.84	-51.5	-64.5	3.8	1.49e+00	0	41	104	0	74	16214
2026-01-01 08:27:05.54	23.68	19.78	-51.5	-64.5	3.8	1.49e+00	0	41	104	0	74	16157
2026-01-01 08:27:06.54	23.47	19.72	-51.5	-64.4	3.8	1.49e+00	0	41	104	0	74	16123
2026-01-01 08:27:07.55	23.25	19.65	-51.5	-64.5	3.8	1.49e+00	0	41	104	0	74	16196
2026-01-01 08:27:08.55	23.03	19.59	-51.5	-64.5	3.8	1.49e+00	0	41	104	0	74	16135
2026-01-01 08:27:09.55	22.81	19.53	-51.5	-64.5	3.8	1.49e+00	0	41	104	0	74	16182
2026-01-01 08:27:10.56	22.60	19.47	-51.5	-64.5	3.8	1.49e+00	0	41	104	0	74	16188
2026-01-01 08:27:11.56	22.38	19.41	-51.5	-64.5	3.8	1.49e+00	0	41	104	0	74	16172
2026-01-01 08:27:12.57	22.17	19.34	-51.5	-64.4	3.8	1.49e+00	0	41	104	0	74	16121
2026-01-01 08:27:13.57	21.96	19.28	-51.5	-64.4	3.8	1.49e+00	0	41	104	0	74	16105
2026-01-01 08:27:14.57	21.74	19.22	-51.5	-64.5	3.8	1.49e+00	0	42	104	0	74	16136
2026-01-01 08:27:15.58	21.53	19.16	-51.5	-64.5	3.8	1.49e+00	0	41	104	0	74	16170
2026-01-01 08:27:16.58	21.32	19.09	-51.5	-64.5	3.8	1.49e+00	0	41	104	0	74	16143
2026-01-01 08:27:17.59	21.11	19.03	-51.5	-64.5	3.8	1.49e+00	0	41	104	0	74	16157
2026-01-01 08:27:18.59	20.90	18.96	-51.5	-64.4	3.8	1.49e+00	0	41	104	0	74	16109
2026-01-01 08:27:19.60	20.70	18.90	-51.5	-64.4	3.8	1.49e+00	0	41	104	0	74	16090
2026-01-01 08:27:20.60	20.49	18.84	-51.5	-64.5	3.8	1.49e+00	0	41	104	0	74	16133
2026-01-01 08:27:21.61	20.28	18.77	-51.5	-64.4	3.8	1.49e+00	0	41	104	0	74	16088
2026-01-01 08:27:22.61	20.08	18.71	-51.5	-64.4	3.8	1.49e+00	0	41	104	0	74	16097
2026-01-01 08:27:23.61	19.88	18.64	-51.5	-64.4	3.8	1.49e+00	0	41	104	0	74	16075
2026-01-01 08:27:24.62	19.67	18.58	-51.5	-64.5	3.8	1.49e+00	0	41	104	0	74	16162
2026-01-01 08:27:25.62	19.47	18.51	-51.5	-64.5	3.8	1.49e+00	0	41	104	0	74	16167
2026-01-01 08:27:26.62	19.27	18.45	-51.5	-64.5	3.8	1.49e+00	0	41	104	0	74	16143
2026-01-01 08:27:27.63	19.07	18.38	-51.4	-64.4	3.8	1.49e+00	0	41	104	0	74	16072
2026-01-01 08:27:28.63	18.87	18.31	-51.5	-64.4	3.8	1.49e+00	0	41	104	0	74	16075
2026-01-01 08:27:29.64	18.67	18.25	-51.5	-64.4	3.8	1.49e+00	0	41	104	0	74	16057
2026-01-01 08:27:30.64	18.47	18.18	-51.4	-64.4	3.8	1.49e+00	0	41	104	0	74	16009
2026-01-01 08:27:31.65	18.27	18.11	-51.5	-64.5	3.8	1.49e+00	0	41	104	0	74	16151
2026-01-01 08:27:32.65	18.08	18.05	-51.5	-64.5	3.8	1.49e+00	0	41	104	0	74	16230
2026-01-01 08:27:33.66	17.88	17.98	-51.5	-64.4	3.8	1.49e+00	0	41	104	0	74	16062
2026-01-01 08:27:34.66	17.69	17.91	-51.5	-64.4	3.8	1.49e+00	0	41	104	0	74	16104
2026-01-01 08:27:35.66	17.49	17.85	-51.5	-64.5	3.8	1.49e+00	0	41	104	0	74	16150
2026-01-01 08:27:36.67	17.30	17.78	-51.5	-64.4	3.8	1.49e+00	0	41	104	0	74	16124
2026-01-01 08:27:37.67	17.11	17.71	-51.5	-64.4	3.8	1.49e+00	0	41	104	0	74	16116
2026-01-01 08:27:38.68	16.92	17.64	-51.5	-64.5	3.8	1.49e+00	0	41	104	0	74	16179
2026-01-01 08:27:39.68	16.73	17.58	-51.5	-64.5	3.8	1.49e+00	0	41	104	0	74	16156
2026-01-01 08:27:40.69	16.54	17.51	-51.5	-64.5	3.8	1.49e+00	0	41	104	0	74	16192
2026-01-01 08:27:41.69	16.35	17.44	-51.5	-64.5	3.8	1.49e+00	0	41	104	0	74	16162
2026-01-01 08:27:42.69	16.16	17.37	-51.5	-64.5	3.8	1.49e+00	0	41	104	0	74	16134
2026-01-01 08:27:43.70	15.98	17.30	-51.5	-64.5	3.8	1.49e+00	0	41	104	0	74	16180
2026-01-01 08:27:44.70	15.79	17.24	-51.5	-64.5	3.8	1.49e+00	0	41	104	0	74	16157
2026-01-01 08:27:45.71	15.61	17.17	-51.5	-64.5	3.8	1.49e+00	0	41	104	0	74	16205
2026-01-01 08:27:46.71	15.42	17.10	-51.5	-64.5	3.8	1.49e+00	0	41	104	0	74	16155
2026-01-01 08:27:47.71	15.24	17.03	-51.5	-64.4	3.8	1.49e+00	0	41	104	0	74	16086
2026-01-01 08:27:48.72	15.06	16.96	-51.5	-64.5	3.8	1.49e+00	0	41	104	0	74	16240
2026-01-01 08:27:49.72	14.88	16.89	-51.5	-64.5	3.8	1.49e+00	0	41	104	0	74	16203
2026-01-01 08:27:50.73	14.69	16.82	-51.4	-64.4	3.8	1.49e+00	0	41	104	0	74	16076
2026-01-01 08:27:51.73	14.51	16.75	-51.5	-64.5	3.8	1.49e+00	0	41	104	0	74	16171
2026-01-01 08:27:52.74	14.33	16.68	-51.5	-64.5	3.8	1.49e+00	0	41	104	0	74	16158
2026-01-01 08:27:53.74	14.16	16.62	-51.5	-64.5	3.8	1.49e+00	0	41	104	0	74	16138
2026-01-01 08:27:54.75	13.98	16.55	-51.5	-64.4	3.8	1.49e+00	0	41	104	0	74	16104
2026-01-01 08:27:55.75	13.80	16.48	-51.5	-64.5	3.8	1.49e+00	0	41	104	0	74	16137
2026-01-01 08:27:56.75	13.63	16.41	-51.5	-64.5	3.8	1.49e+00	0	41	104	0	74	16150
2026-01-01 08:27:57.76	13.45	16.34	-51.5	-64.4	3.8	1.49e+00	0	41	104	0	74	16122
2026-01-01 08:27:58.76	13.28	16.27	-51.5	-64.5	3.8	1.49e+00	0	41	104	0	74	16149
2026-01-01 08:27:59.77	13.11	16.20	-51.5	-64.4	3.8	1.49e+00	0	41	104	0	74	16086
2026-01-01 08:28:00.77	12.93	16.13	-51.5	-64.5	3.8	1.49e+00	0	41	104	0	74	16129
2026-01-01 08:28:01.77	12.76	16.06	-51.5	-64.5	3.8	1.49e+00	0	41	104	0	74	16189
2026-01-01 08:28:02.78	12.59	15.99	-51.5	-64.5	3.8	1.49e+00	0	41	104	0	74	16159
2026-01-01 08:28:03.78	12.42	15.92	-51.5	-64.5	3.8	1.49e+00	0	41	104	0	74	16147
2026-01-01 08:28:04.79	12.25	15.85	-51.5	-64.4	3.8	1.49e+00	0	41	104	0	74	16114
2026-01-01 08:28:05.79	12.08	15.78	-51.5	-64.5	3.8	1.49e+00	0	41	104	0	74	16129
2026-01-01 08:28:06.79	11.92	15.71	-51.5	-64.5	3.8	1.49e+00	0	41	104	0	74	16156
2026-01-01 08:28:07.80	11.75	15.64	-51.5	-64.5	3.8	1.49e+00	0	41	104	0	74	16190
2026-01-01 08:28:08.80	11.58	15.57	-51.5	-64.5	3.8	1.49e+00	0	41	104	0	74	16155
2026-01-01 08:28:09.81	11.42	15.50	-51.5	-64.5	3.8	1.49e+00	0	41	104	0	74	16160
2026-01-01 08:28:10.81	11.26	15.43	-51.5	-64.4	3.8	1.49e+00	0	41	104	0	74	16110
2026-01-01 08:28:11.82	11.09	15.36	-51.5	-64.5	3.8	1.49e+00	0	41	104	0	74	16151
2026-01-01 08:28:12.82	10.93	15.29	-51.5	-64.5	3.8	1.49e+00	0	41	104	0	74	16194
2026-01-01 08:28:13.83	10.77	15.21	-51.5	-64.4	3.8	1.49e+00	0	41	104	0	74	16127
2026-01-01 08:28:14.83	10.61	15.14	-51.5	-64.4	3.8	1.49e+00	0	41	104	0	74	16115
2026-01-01 08:28:15.83	10.45	15.07	-51.5	-64.5	3.8	1.49e+00	0	41	104	0	74	16136
2026-01-01 08:28:16.84	10.29	15.00	-51.5	-64.4	3.8	1.49e+00	0	41	104	0	74	16118
2026-01-01 08:28:17.84	10.13	14.93	-51.5	-64.5	3.8	1.49e+00	0	41	104	0	74	16194
2026-01-01 08:28:18.85	9.97	14.86	-51.5	-64.5	3.8	1.49e+00	0	41	104	0	74	16170
2026-01-01 08:28:19.85	9.81	14.79	-51.5	-64.4	3.8	1.49e+00	0	41	104	0	74	16127
2026-01-01 08:28:20.85	9.66	14.72	-51.5	-64.5	3.8	1.49e+00	0	41	104	0	74	16138
2026-01-01 08:28:21.86	9.50	14.65	-51.5	-64.4	3.8	1.49e+00	0	41	104	0	74	16106
2026-01-01 08:28:22.86	9.34	14.58	-51.5	-64.4	3.8	1.49e+00	0	41	104	0	74	16099
2026-01-01 08:28:23.87	9.19	14.51	-51.5	-64.5	3.8	1.49e+00	0	41	104	0	74	16135
2026-01-01 08:28:24.87	9.04	14.44	-51.5	-64.4	3.8	1.49e+00	0	41	104	0	74	16101
2026-01-01 08:28:25.88	8.88	14.37	-51.5	-64.4	3.8	1.49e+00	0	41	104	0	74	16066
2026-01-01 08:28:26.88	8.73	14.30	-51.5	-64.5	3.8	1.49e+00	0	41	104	0	74	16131
2026-01-01 08:28:27.88	8.58	14.23	-51.5	-64.5	3.8	1.49e+00	0	41	104	0	74	16164
2026-01-01 08:28:28.89	8.43	14.16	-51.5	-64.5	3.8	1.49e+00	0	41	104	0	74	16212
2026-01-01 08:28:29.89	8.28	14.09	-51.5	-64.5	3.8	1.49e+00	0	41	104	0	74	16130
2026-01-01 08:28:30.90	8.13	14.01	-51.5	-64.5	3.8	1.49e+00	0	41	104	0	74	16163
2026-01-01 08:28:31.90	7.98	13.94	-51.5	-64.4	3.8	1.49e+00	0	41	104	0	74	16098
2026-01-01 08:28:32.90	7.84	13.87	-51.5	-64.5	3.8	1.49e+00	0	41	104	0	74	16136
2026-01-01 08:28:33.91	7.69	13.80	-51.5	-64.4	3.8	1.49e+00	0	41	104	0	74	16059
2026-01-01 08:28:34.91	7.54	13.73	-51.5	-64.4	3.8	1.49e+00	0	41	104	0	74	16115
2026-01-01 08:28:35.92	7.40	13.66	-51.5	-64.4	3.8	1.49e+00	0	42	104	0	74	16079
2026-01-01 08:28:36.92	7.25	13.59	-51.5	-64.4	3.8	1.49e+00	0	41	104	0	74	16083
2026-01-01 08:28:37.92	7.11	13.52	-51.5	-64.4	3.8	1.49e+00	0	41	104	0	74	16123
2026-01-01 08:28:38.93	6.96	13.45	-51.5	-64.4	3.8	1.49e+00	0	41	104	0	74	16105
2026-01-01 08:28:39.93	6.82	13.38	-51.5	-64.4	3.8	1.49e+00	0	41	104	0	74	16096
2026-01-01 08:28:40.94	6.68	13.31	-51.5	-64.4	3.8	1.49e+00	0	41	104	0	74	16075
2026-01-01 08:28:41.94	6.54	13.24	-51.5	-64.4	3.8	1.49e+00	0	41	104	0	74	16075
2026-01-01 08:28:42.94	6.40	13.17	-51.5	-64.4	3.8	1.49e+00	0	41	104	0	74	16085
2026-01-01 08:28:43.95	6.26	13.10	-51.4	-64.4	3.8	1.49e+00	0	41	104	0	74	16103
2026-01-01 08:28:44.95	6.12	13.03	-51.5	-64.4	3.8	1.49e+00	0	41	104	0	74	16118
2026-01-01 08:28:45.96	5.98	12.96	-51.5	-64.4	3.8	1.49e+00	0	41	104	0	74	16100
2026-01-01 08:28:46.96	5.84	12.89	-51.5	-64.4	3.8	1.49e+00	0	41	104	0	74	16079
2026-01-01 08:28:47.96	5.70	12.82	-51.5	-64.5	3.8	1.49e+00	0	41	104	0	74	16164
2026-01-01 08:28:48.97	5.57	12.75	-51.5	-64.5	3.8	1.49e+00	0	41	104	0	74	16141
2026-01-01 08:28:49.97	5.43	12.68	-51.4	-64.4	3.8	1.49e+00	0	41	104	0	74	16061
2026-01-01 08:28:50.98	5.30	12.61	-51.5	-64.4	3.8	1.49e+00	0	41	104	0	74	16079
2026-01-01 08:28:51.98	5.16	12.54	-51.4	-64.4	3.8	1.49e+00	0	41	104	0	74	16025
2026-01-01 08:28:52.99	5.03	12.47	-51.5	-64.4	3.8	1.49e+00	0	41	104	0	74	16111
2026-01-01 08:28:53.99	4.89	12.40	-51.4	-64.4	3.8	1.49e+00	0	42	104	0	74	16036
2026-01-01 08:28:55.00	4.76	12.33	-51.5	-64.4	3.8	1.49e+00	0	41	104	0	74	16075
2026-01-01 08:28:56.00	4.63	12.26	-51.5	-64.4	3.8	1.49e+00	0	41	104	0	74	16123
2026-01-01 08:28:57.00	4.50	12.19	-51.4	-64.4	3.8	1.49e+00	0	41	104	0	74	16048
2026-01-01 08:28:58.01	4.37	12.12	-51.5	-64.5	3.8	1.49e+00	0	42	104	0	74	16138
2026-01-01 08:28:59.01	4.24	12.05	-51.5	-64.5	3.8	1.49e+00	0	41	104	0	74	16134
2026-01-01 08:29:00.02	4.11	11.98	-51.5	-64.5	3.8	1.49e+00	0	41	104	0	74	16185
2026-01-01 08:29:01.02	3.98	11.91	-51.5	-64.5	3.8	1.49e+00	0	41	104	0	74	16152
2026-01-01 08:29:02.03	3.85	11.84	-51.5	-64.4	3.8	1.49e+00	0	41	104	0	74	16112
2026-01-01 08:29:03.03	3.72	11.77	-51.5	-64.5	3.8	1.49e+00	0	41	104	0	74	16146
2026-01-01 08:29:04.04	3.60	11.70	-51.5	-64.4	3.8	1.49e+00	0	41	104	0	74	16092
2026-01-01 08:29:05.04	3.47	11.63	-51.5	-64.4	3.8	1.49e+00	0	41	104	0	74	16121
2026-01-01 08:29:06.05	3.34	11.56	-51.5	-64.4	3.8	1.49e+00	0	41	104	0	74	16102
2026-01-01 08:29:07.05	3.22	11.49	-51.5	-64.5	3.8	1.49e+00	0	41	104	0	74	16157
2026-01-01 08:29:08.06	3.09	11.42	-51.4	-64.4	3.8	1.49e+00	0	41	104	0	74	16051
2026-01-01 08:29:09.06	2.97	11.36	-51.5	-64.4	3.8	1.49e+00	0	41	104	0	74	16127
2026-01-01 08:29:10.06	2.85	11.29	-51.5	-64.5	3.8	1.49e+00	0	41	104	0	74	16128
2026-01-01 08:29:11.07	2.72	11.22	-51.5	-64.4	3.8	1.49e+00	0	41	104	0	74	16108
2026-01-01 08:29:12.07	2.60	11.15	-51.5	-64.5	3.8	1.49e+00	0	41	104	0	74	16148
2026-01-01 08:29:13.07	2.48	11.08	-51.5	-64.4	3.8	1.49e+00	0	41	104	0	74	16095
2026-01-01 08:29:14.08	2.36	11.01	-51.5	-64.4	3.8	1.49e+00	0	41	104	0	74	16126
2026-01-01 08:29:15.08	2.24	10.94	-51.5	-64.4	3.8	1.49e+00	0	42	104	0	74	16100
2026-01-01 08:29:16.09	2.12	10.87	-51.5	-64.4	3.8	1.49e+00	0	42	104	0	74	16055
2026-01-01 08:29:17.09	2.00	10.80	-51.5	-64.4	3.8	1.49e+00	0	41	104	0	74	16107
2026-01-01 08:29:18.10	1.88	10.74	-51.5	-64.4	3.8	1.49e+00	0	41	104	0	74	16046
2026-01-01 08:29:19.10	1.76	10.67	-51.4	-64.4	3.8	1.49e+00	0	41	104	0	74	16064
2026-01-01 08:29:20.11	1.65	10.60	-51.4	-64.4	3.8	1.49e+00	0	41	104	0	74	16032
2026-01-01 08:29:21.11	1.53	10.53	-51.5	-64.5	3.8	1.49e+00	0	42	104	0	74	16140
2026-01-01 08:29:22.11	1.41	10.46	-51.5	-64.4	3.8	1.49e+00	0	41	104	0	74	16091
2026-01-01 08:29:23.12	1.30	10.39	-51.4	-64.4	3.8	1.49e+00	0	41	104	0	74	16018
2026-01-01 08:29:24.12	1.18	10.33	-51.5	-64.4	3.8	1.49e+00	0	41	104	0	74	16059
2026-01-01 08:29:25.13	1.07	10.26	-51.5	-64.4	3.8	1.49e+00	0	41	104	0	74	16127
2026-01-01 08:29:26.13	0.95	10.19	-51.5	-64.5	3.8	1.49e+00	0	42	104	0	74	16151
2026-01-01 08:29:27.14	0.84	10.12	-51.5	-64.4	3.8	1.49e+00	0	42	104	0	74	16088
2026-01-01 08:29:28.14	0.73	10.06	-51.5	-64.4	3.8	1.49e+00	0	41	104	0	74	16104
2026-01-01 08:29:29.15	0.61	9.99	-51.4	-64.5	3.8	1.49e+00	0	42	104	0	74	16129
2026-01-01 08:29:30.15	0.50	9.92	-51.5	-64.4	3.8	1.49e+00	0	41	104	0	74	16091
2026-01-01 08:29:31.16	0.39	9.85	-51.4	-64.4	3.8	1.49e+00	0	42	104	0	74	16109
2026-01-01 08:29:32.16	0.28	9.78	-51.4	-64.4	3.8	1.49e+00	0	42	104	0	74	16086
2026-01-01 08:29:33.16	0.17	9.72	-51.5	-64.5	3.8	1.49e+00	0	42	104	0	74	16145
2026-01-01 08:29:34.17	0.06	9.65	-51.5	-64.5	3.8	1.49e+00	0	42	104	0	74	16160
2026-01-01 08:29:35.17	359.95	9.58	-51.4	-64.4	3.8	1.49e+00	0	42	104	0	74	16090
2026-01-01 08:29:36.18	359.84	9.52	-51.5	-64.5	3.8	1.49e+00	0	42	104	0	74	16181
2026-01-01 08:29:37.18	359.73	9.45	-51.5	-64.5	3.8	1.49e+00	0	41	104	0	74	16130
2026-01-01 08:29:38.19	359.62	9.38	-51.5	-64.5	3.8	1.49e+00	0	42	104	0	74	16158
2026-01-01 08:29:39.19	359.52	9.31	-51.5	-64.4	3.8	1.49e+00	0	42	104	0	74	16055
2026-01-01 08:29:40.19	359.41	9.25	-51.5	-64.4	3.8	1.49e+00	0	42	104	0	74	16095
2026-01-01 08:29:41.20	359.30	9.18	-51.5	-64.4	3.8	1.49e+00	0	42	104	0	74	16074
2026-01-01 08:29:42.20	359.20	9.11	-51.5	-64.5	3.8	1.49e+00	0	42	104	0	74	16209
2026-01-01 08:29:43.21	359.09	9.05	-51.5	-64.5	3.8	1.49e+00	0	41	104	0	74	16149
2026-01-01 08:29:44.21	358.99	8.98	-51.5	-64.4	3.8	1.49e+00	0	41	104	0	74	16116
2026-01-01 08:29:45.22	358.88	8.91	-51.5	-64.4	3.8	1.49e+00	0	41	104	0	74	16069
2026-01-01 08:29:46.22	358.78	8.85	-51.5	-64.4	3.8	1.49e+00	0	42	104	0	74	16024
2026-01-01 08:29:47.23	358.68	8.78	-51.5	-64.5	3.8	1.49e+00	0	42	104	0	74	16160
2026-01-01 08:29:48.23	358.57	8.72	-51.5	-64.4	3.8	1.49e+00	0	42	104	0	74	15984
2026-01-01 08:29:49.24	358.47	8.65	-51.5	-64.4	3.8	1.49e+00	0	42	104	0	74	16126
2026-01-01 08:29:50.24	358.37	8.58	-51.5	-64.4	3.8	1.49e+00	0	42	104	0	74	16097
2026-01-01 08:29:51.24	358.27	8.52	-51.4	-64.4	3.8	1.49e+00	0	42	104	0	74	16083
2026-01-01 08:29:52.25	358.17	8.45	-51.5	-64.4	3.8	1.49e+00	0	42	104	0	74	16114
2026-01-01 08:29:53.25	358.07	8.39	-51.4	-64.4	3.8	1.49e+00	0	42	104	0	74	16072
2026-01-01 08:29:54.26	357.97	8.32	-51.4	-64.4	3.8	1.49e+00	0	42	104	0	74	16082
2026-01-01 08:29:55.26	357.87	8.26	-51.5	-64.4	3.8	1.49e+00	0	42	104	0	74	16064
2026-01-01 08:29:56.27	357.77	8.19	-51.5	-64.5	3.8	1.49e+00	0	42	104	0	74	16143
2026-01-01 08:29:57.27	357.67	8.12	-51.4	-64.4	3.8	1.49e+00	0	42	104	0	74	16060
2026-01-01 08:29:58.28	357.57	8.06	-51.5	-64.4	3.8	1.49e+00	0	42	104	0	74	16106
2026-01-01 08:29:59.28	357.47	7.99	-51.4	-64.4	3.8	1.49e+00	0	42	104	0	74	16090
2026-01-01 08:30:00.28	357.38	7.93	-51.5	-64.4	3.8	1.49e+00	0	42	104	0	74	16112
2026-01-01 08:30:01.29	357.28	7.86	-51.4	-64.4	3.8	1.49e+00	0	42	104	0	74	16065
2026-01-01 08:30:02.29	357.18	7.80	-51.4	-64.4	3.8	1.49e+00	0	42	104	0	74	16042
2026-01-01 08:30:03.30	357.09	7.73	-51.4	-64.4	3.8	1.49e+00	0	42	104	0	74	16071
2026-01-01 08:30:04.30	356.99	7.67	-51.4	-64.4	3.8	1.49e+00	0	42	104	0	74	16037
2026-01-01 08:30:05.31	356.90	7.60	-51.5	-64.4	3.8	1.49e+00	0	42	104	0	74	16081
2026-01-01 08:30:06.31	356.80	7.54	-51.4	-64.4	3.8	1.49e+00	0	42	104	0	74	16051
2026-01-01 08:30:07.32	356.71	7.47	-51.4	-64.4	3.8	1.49e+00	0	42	104	0	74	16102
2026-01-01 08:30:08.32	356.61	7.41	-51.4	-64.4	3.8	1.49e+00	0	42	104	0	74	16086
2026-01-01 08:30:09.32	356.52	7.35	-51.4	-64.4	3.8	1.49e+00	0	42	104	0	74	16050
2026-01-01 08:30:10.33	356.43	7.28	-51.4	-64.4	3.8	1.49e+00	0	41	104	0	74	16009
2026-01-01 08:30:11.33	356.34	7.22	-51.4	-64.4	3.8	1.49e+00	0	42	104	0	74	16039
2026-01-01 08:30:12.34	356.24	7.15	-51.4	-64.4	3.8	1.49e+00	0	41	104	0	74	16024
2026-01-01 08:30:13.34	356.15	7.09	-51.4	-64.4	3.8	1.49e+00	0	42	104	0	74	16030
2026-01-01 08:30:14.35	356.06	7.03	-51.4	-64.4	3.8	1.49e+00	0	42	104	0	74	16004
2026-01-01 08:30:15.35	355.97	6.96	-51.5	-64.4	3.8	1.49e+00	0	42	104	0	74	16065
2026-01-01 08:30:16.35	355.88	6.90	-51.4	-64.4	3.8	1.49e+00	0	41	104	0	74	16099
2026-01-01 08:30:17.36	355.79	6.83	-51.4	-64.4	3.8	1.49e+00	0	42	104	0	74	16028
2026-01-01 08:30:18.36	355.70	6.77	-51.4	-64.4	3.8	1.49e+00	0	41	104	0	74	16055
2026-01-01 08:30:19.36	355.61	6.71	-51.4	-64.4	3.8	1.49e+00	0	42	104	0	74	16020
2026-01-01 08:30:20.37	355.52	6.64	-51.4	-64.4	3.8	1.49e+00	0	42	104	0	74	16026
2026-01-01 08:30:21.37	355.43	6.58	-51.4	-64.4	3.8	1.49e+00	0	42	104	0	74	16024
2026-01-01 08:30:22.37	355.35	6.52	-51.4	-64.4	3.8	1.49e+00	0	42	104	0	74	16036
2026-01-01 08:30:23.38	355.26	6.46	-51.4	-64.4	3.8	1.49e+00	0	42	104	0	74	16002
2026-01-01 08:30:24.38	355.17	6.39	-51.4	-64.4	3.8	1.49e+00	0	42	104	0	74	16081
2026-01-01 08:30:25.39	355.08	6.33	-51.4	-64.4	3.8	1.49e+00	0	42	104	0	74	16014
2026-01-01 08:30:26.39	355.00	6.27	-51.4	-64.4	3.8	1.49e+00	0	42	104	0	74	16013
2026-01-01 08:30:27.40	354.91	6.20	-51.5	-64.5	3.8	1.49e+00	0	42	104	0	74	16136
2026-01-01 08:30:28.40	354.83	6.14	-51.5	-64.4	3.8	1.49e+00	0	42	104	0	74	16102
2026-01-01 08:30:29.41	354.74	6.08	-51.5	-64.4	3.8	1.49e+00	0	42	104	0	74	16090
2026-01-01 08:30:30.41	354.66	6.02	-51.5	-64.5	3.8	1.49e+00	0	42	104	0	74	16128
2026-01-01 08:30:31.41	354.57	5.95	-51.5	-64.5	3.8	1.49e+00	0	41	104	0	74	16156
2026-01-01 08:30:32.42	354.49	5.89	-51.5	-64.5	3.8	1.49e+00	0	42	104	0	74	16202
2026-01-01 08:30:33.42	354.41	5.83	-51.4	-64.4	3.8	1.49e+00	0	42	104	0	74	16089
2026-01-01 08:30:34.43	354.32	5.77	-51.5	-64.4	3.8	1.49e+00	0	42	104	0	74	16088
2026-01-01 08:30:35.43	354.24	5.71	-51.5	-64.5	3.8	1.49e+00	0	42	104	0	74	16131
2026-01-01 08:30:36.44	354.16	5.64	-51.5	-64.5	3.8	1.49e+00	0	42	104	0	74	16129
2026-01-01 08:30:37.44	354.07	5.58	-51.5	-64.4	3.8	1.49e+00	0	42	104	0	74	16122
2026-01-01 08:30:38.45	353.99	5.52	-51.5	-64.4	3.8	1.49e+00	0	42	104	0	74	16064
2026-01-01 08:30:39.45	353.91	5.46	-51.5	-64.4	3.8	1.49e+00	0	42	104	0	74	16079
2026-01-01 08:30:40.46	353.83	5.40	-51.5	-64.5	3.8	1.49e+00	0	42	104	0	74	16137
2026-01-01 08:30:41.46	353.75	5.33	-51.4	-64.4	3.8	1.49e+00	0	42	104	0	74	16042
2026-01-01 08:30:42.46	353.67	5.27	-51.5	-64.4	3.8	1.49e+00	0	42	104	0	74	16104
2026-01-01 08:30:43.47	353.59	5.21	-51.5	-64.4	3.8	1.49e+00	0	42	104	0	74	16089
2026-01-01 08:30:44.47	353.51	5.15	-51.5	-64.4	3.8	1.49e+00	0	42	104	0	74	16056
2026-01-01 08:30:45.48	353.43	5.09	-51.5	-64.4	3.8	1.49e+00	0	42	104	0	74	16094
2026-01-01 08:30:46.48	353.35	5.03	-51.5	-64.5	3.8	1.49e+00	0	42	104	0	74	16146
2026-01-01 08:30:47.49	353.27	4.97	-51.4	-64.4	3.8	1.49e+00	0	42	104	0	74	16048

#Closed at: 2026-01-01 08:30:48
#Recorded file [0 MB]: D:/Data/31040_260101_111950.dat