passes_logs/2026/01/01/T1/T1__20260101_220913_NOAA_21_JPSS-2_rec.log

#Pass ID: 20260101_220913_NOAA 21 (JPSS-2)
#Satellite: NOAA 21 (JPSS-2)
#Configuration: NOAA 21
#almurnet v.1.7.20251203
#Start time: 2026-01-01 22:09:14

#Version: 2.0.20230620
#Station: T1
#Location: 37.570604 lon 55.790049 lat
#TLE: 1 54234U 22150A   26001.26806856  .00000185  00000+0  10843-3 0  9990
#TLE: 2 54234  98.7484 302.3349 0001277 353.3887   6.7272 14.19530660162860

#Time	Az	El	Level	Level2	SNR	BER	BlckErr	Temp	State	Recorded	gain1	gain2
2026-01-01 22:09:14.80	29.87	5.05	-49.9	-63.2	3.8	1.49e+00	0	43	0	0	70	17552
2026-01-01 22:09:15.79	29.95	5.11	-49.9	-63.2	3.8	1.49e+00	0	43	104	0	70	17494
2026-01-01 22:09:16.80	30.04	5.17	-49.9	-63.1	3.8	1.49e+00	0	43	104	0	70	17416
2026-01-01 22:09:17.80	30.13	5.23	-49.9	-63.2	3.8	1.49e+00	0	43	104	0	70	17569
2026-01-01 22:09:18.81	30.22	5.28	-49.9	-63.2	3.8	1.49e+00	0	43	104	0	70	17487
2026-01-01 22:09:19.81	30.31	5.34	-49.9	-63.2	3.8	1.49e+00	0	43	104	0	70	17537
2026-01-01 22:09:20.82	30.40	5.40	-49.9	-63.1	3.8	1.49e+00	0	43	104	0	70	17457
2026-01-01 22:09:21.82	30.49	5.46	-49.9	-63.2	3.8	1.49e+00	0	43	104	0	70	17482
2026-01-01 22:09:22.82	30.58	5.52	-49.8	-63.1	3.8	1.49e+00	0	43	104	0	70	17459
2026-01-01 22:09:23.83	30.68	5.58	-49.8	-63.1	3.8	1.49e+00	0	43	104	0	70	17456
2026-01-01 22:09:24.83	30.77	5.64	-49.8	-63.1	3.8	1.49e+00	0	44	104	0	70	17410
2026-01-01 22:09:25.84	30.86	5.69	-49.8	-63.2	3.8	1.49e+00	0	43	104	0	70	17515
2026-01-01 22:09:26.84	30.95	5.75	-49.8	-63.1	3.8	1.49e+00	0	43	104	0	70	17402
2026-01-01 22:09:27.85	31.04	5.81	-49.8	-63.1	3.8	1.49e+00	0	43	104	0	70	17452
2026-01-01 22:09:28.85	31.14	5.87	-49.8	-63.1	3.8	1.49e+00	0	43	104	0	70	17429
2026-01-01 22:09:29.86	31.23	5.93	-49.8	-63.1	3.8	1.49e+00	0	43	104	0	70	17436
2026-01-01 22:09:30.86	31.32	5.99	-49.8	-63.1	3.8	1.49e+00	0	43	104	0	70	17388
2026-01-01 22:09:31.86	31.42	6.05	-49.8	-63.2	3.8	1.49e+00	0	43	104	0	70	17497
2026-01-01 22:09:32.87	31.51	6.11	-49.8	-63.2	3.8	1.49e+00	0	43	104	0	70	17505
2026-01-01 22:09:33.87	31.61	6.17	-49.8	-63.1	3.8	1.49e+00	0	43	104	0	70	17450
2026-01-01 22:09:34.88	31.70	6.23	-49.8	-63.1	3.8	1.49e+00	0	43	104	0	70	17427
2026-01-01 22:09:35.88	31.80	6.29	-49.8	-63.1	3.8	1.49e+00	0	43	104	0	70	17340
2026-01-01 22:09:36.88	31.89	6.35	-49.8	-63.1	3.8	1.49e+00	0	43	104	0	70	17341
2026-01-01 22:09:37.89	31.99	6.41	-49.8	-63.0	3.8	1.49e+00	0	43	104	0	70	17244
2026-01-01 22:09:38.89	32.09	6.47	-49.8	-63.0	3.8	1.49e+00	0	43	104	0	70	17151
2026-01-01 22:09:39.90	32.19	6.53	-49.8	-63.0	3.8	1.49e+00	0	43	104	0	70	17141
2026-01-01 22:09:40.90	32.28	6.59	-49.8	-62.9	3.8	1.49e+00	0	43	104	0	70	16970
2026-01-01 22:09:41.91	32.38	6.65	-49.8	-62.9	3.8	1.49e+00	0	43	104	0	70	16942
2026-01-01 22:09:42.91	32.48	6.71	-49.8	-62.8	3.8	1.49e+00	0	43	104	0	70	16855
2026-01-01 22:09:43.91	32.58	6.77	-49.8	-62.9	3.8	1.49e+00	0	43	104	0	70	16928
2026-01-01 22:09:44.92	32.68	6.83	-49.8	-62.9	3.8	1.49e+00	0	43	104	0	70	16908
2026-01-01 22:09:45.92	32.78	6.89	-49.8	-62.9	3.8	1.49e+00	0	43	104	0	70	16901
2026-01-01 22:09:46.93	32.88	6.95	-49.8	-62.8	3.8	1.49e+00	0	43	104	0	70	16810
2026-01-01 22:09:47.93	32.98	7.01	-49.8	-62.8	3.8	1.49e+00	0	43	104	0	70	16879
2026-01-01 22:09:48.94	33.08	7.07	-49.8	-62.9	3.8	1.49e+00	0	43	104	0	70	16946
2026-01-01 22:09:49.94	33.18	7.13	-49.8	-62.9	3.8	1.49e+00	0	43	104	0	70	16906
2026-01-01 22:09:50.95	33.28	7.19	-49.8	-62.9	3.8	1.49e+00	0	43	104	0	70	16988
2026-01-01 22:09:51.95	33.38	7.25	-49.8	-62.9	3.8	1.49e+00	0	43	104	0	70	17052
2026-01-01 22:09:52.95	33.48	7.31	-49.8	-63.0	3.8	1.49e+00	0	43	104	0	70	17230
2026-01-01 22:09:53.96	33.59	7.37	-49.8	-63.1	3.8	1.49e+00	0	43	104	0	70	17295
2026-01-01 22:09:54.96	33.69	7.43	-49.8	-63.1	3.8	1.49e+00	0	44	104	0	70	17397
2026-01-01 22:09:55.97	33.79	7.49	-49.8	-63.1	3.8	1.49e+00	0	43	104	0	70	17410
2026-01-01 22:09:56.97	33.90	7.55	-49.8	-63.0	3.8	1.49e+00	0	43	104	0	70	17128
2026-01-01 22:09:57.97	34.00	7.61	-49.8	-62.7	3.8	1.49e+00	0	43	104	0	70	16632
2026-01-01 22:09:58.98	34.11	7.68	-49.8	-62.4	3.8	1.49e+00	0	43	104	0	70	16060
2026-01-01 22:09:59.98	34.21	7.74	-49.7	-62.2	3.8	1.49e+00	0	43	104	0	70	15627
2026-01-01 22:10:00.99	34.32	7.80	-49.7	-62.0	3.8	1.49e+00	0	43	104	0	70	15267
2026-01-01 22:10:01.99	34.42	7.86	-49.7	-61.9	3.8	1.49e+00	0	43	104	0	70	15066
2026-01-01 22:10:02.99	34.53	7.92	-49.7	-61.9	3.8	1.49e+00	0	43	104	0	70	15055
2026-01-01 22:10:04.00	34.64	7.98	-49.7	-62.0	3.8	1.49e+00	0	43	104	0	70	15278
2026-01-01 22:10:05.00	34.74	8.04	-49.7	-62.1	3.8	1.49e+00	0	43	104	0	70	15540
2026-01-01 22:10:06.01	34.85	8.11	-49.7	-62.2	3.8	1.49e+00	0	43	104	0	70	15760
2026-01-01 22:10:07.01	34.96	8.17	-49.7	-62.4	3.8	1.49e+00	0	43	104	0	70	15946
2026-01-01 22:10:08.02	35.07	8.23	-49.7	-62.3	3.8	1.49e+00	0	43	104	0	70	15809
2026-01-01 22:10:09.02	35.18	8.29	-49.7	-62.2	3.8	1.49e+00	0	43	104	0	70	15705
2026-01-01 22:10:10.02	35.29	8.35	-49.7	-62.1	3.8	1.49e+00	0	43	104	0	70	15485
2026-01-01 22:10:11.03	35.40	8.42	-49.7	-62.0	3.8	1.49e+00	0	43	104	0	70	15329
2026-01-01 22:10:12.03	35.51	8.48	-49.7	-62.0	3.8	1.49e+00	0	43	104	0	70	15292
2026-01-01 22:10:13.04	35.62	8.54	-49.7	-62.0	3.8	1.49e+00	0	43	104	0	70	15359
2026-01-01 22:10:14.04	35.73	8.60	-49.7	-62.1	3.8	1.49e+00	0	44	104	0	70	15530
2026-01-01 22:10:15.05	35.84	8.66	-49.7	-62.3	3.8	1.49e+00	0	43	104	0	70	15785
2026-01-01 22:10:16.16	35.97	8.73	-49.8	-62.3	3.8	1.49e+00	0	44	104	0	70	15910
2026-01-01 22:10:17.04	36.07	8.79	-49.7	-62.3	3.8	1.49e+00	0	43	104	0	70	15807
2026-01-01 22:10:18.19	36.20	8.86	-49.7	-61.8	3.8	1.49e+00	0	43	104	0	70	14972
2026-01-01 22:10:19.05	36.29	8.91	-49.6	-61.1	3.8	1.49e+00	0	43	104	0	70	13803
2026-01-01 22:10:20.20	36.42	8.98	-49.4	-59.6	3.9	1.46e+00	0	43	104	0	70	11615
2026-01-01 22:10:21.06	36.52	9.04	-49.1	-57.4	5.1	9.21e-01	0	44	0	0	70	9002
2026-01-01 22:10:22.20	36.65	9.11	-49.2	-59.6	3.9	1.12e+00	0	44	104	0	70	11619
2026-01-01 22:10:23.06	36.75	9.16	-49.5	-62.2	3.8	1.49e+00	0	44	104	0	70	15648
2026-01-01 22:10:24.21	36.88	9.24	-46.7	-51.0	10.8	7.24e-03	0	43	0	0	64	6063
2026-01-01 22:10:25.07	36.98	9.29	-48.4	-55.5	6.2	2.84e-01	0	43	0	0	67	8648
2026-01-01 22:10:26.21	37.12	9.36	-44.1	-46.8	15.0	1.50e-06	0	44	0	0	60	4727
2026-01-01 22:10:27.07	37.22	9.41	-44.1	-46.7	15.0	0.00e+00	0	43	0	0	60	4704
2026-01-01 22:10:28.22	37.35	9.49	-43.4	-45.8	15.9	0.00e+00	0	43	0	0	58	4748
2026-01-01 22:10:29.08	37.45	9.54	-43.3	-45.6	16.1	0.00e+00	0	44	0	0	58	4646
2026-01-01 22:10:30.31	37.60	9.62	-43.1	-45.5	16.2	0.00e+00	0	43	0	0	58	4546
2026-01-01 22:10:31.17	37.70	9.67	-42.7	-45.0	16.6	0.00e+00	0	44	0	0	57	4574
2026-01-01 22:10:32.38	37.85	9.75	-42.6	-44.8	16.8	0.00e+00	0	44	0	0	57	4483
2026-01-01 22:10:33.24	37.95	9.80	-42.5	-44.8	16.8	0.00e+00	0	44	0	0	57	4469
2026-01-01 22:10:34.38	38.09	9.87	-42.5	-44.8	16.8	0.00e+00	0	43	0	0	57	4467
2026-01-01 22:10:35.24	38.19	9.93	-42.6	-44.9	16.7	0.00e+00	0	44	0	0	57	4495
2026-01-01 22:10:36.39	38.33	10.00	-42.4	-44.7	16.9	0.00e+00	0	44	0	0	56	4682
2026-01-01 22:10:37.30	38.44	10.06	-42.3	-44.6	17.0	0.00e+00	0	44	0	0	56	4614
2026-01-01 22:10:38.47	38.59	10.13	-42.3	-44.5	17.0	0.00e+00	0	44	0	0	56	4589
2026-01-01 22:10:39.33	38.69	10.19	-42.3	-44.5	17.0	0.00e+00	0	44	0	0	56	4584
2026-01-01 22:10:40.69	38.86	10.27	-42.3	-44.5	17.1	0.00e+00	0	44	0	0	56	4568
2026-01-01 22:10:41.40	38.95	10.32	-42.3	-44.5	17.1	0.00e+00	0	44	0	0	56	4595
2026-01-01 22:10:42.69	39.11	10.40	-42.2	-44.3	17.3	0.00e+00	0	43	0	0	56	4484
2026-01-01 22:10:43.41	39.20	10.45	-42.2	-44.3	17.3	0.00e+00	0	43	0	0	56	4487
2026-01-01 22:10:44.70	39.36	10.53	-42.3	-44.4	17.4	0.00e+00	0	43	0	0	56	4534
2026-01-01 22:10:45.42	39.45	10.57	-42.3	-44.4	17.4	0.00e+00	0	43	0	0	56	4528
2026-01-01 22:10:46.71	39.62	10.66	-42.2	-44.2	17.6	0.00e+00	0	44	0	0	56	4420
2026-01-01 22:10:47.42	39.71	10.70	-42.2	-44.2	17.6	0.00e+00	0	43	0	0	56	4418
2026-01-01 22:10:48.71	39.87	10.78	-42.2	-44.3	17.5	0.00e+00	0	43	0	0	56	4460
2026-01-01 22:10:49.43	39.96	10.83	-42.2	-44.2	17.5	0.00e+00	0	43	0	0	56	4429
2026-01-01 22:10:50.72	40.13	10.91	-42.3	-44.4	17.4	0.00e+00	0	43	0	0	56	4501
2026-01-01 22:10:51.44	40.22	10.96	-42.3	-44.3	17.4	0.00e+00	0	44	0	0	56	4480
2026-01-01 22:10:52.73	40.39	11.04	-42.2	-44.2	17.5	0.00e+00	0	44	0	0	56	4424
2026-01-01 22:10:53.45	40.48	11.09	-42.2	-44.3	17.4	0.00e+00	0	43	0	0	56	4456
2026-01-01 22:10:54.74	40.65	11.17	-42.1	-44.1	17.5	0.00e+00	0	43	0	0	56	4391
2026-01-01 22:10:55.45	40.75	11.22	-42.1	-44.1	17.6	0.00e+00	0	44	0	0	56	4373
2026-01-01 22:10:56.74	40.92	11.30	-42.1	-44.1	17.5	0.00e+00	0	43	0	0	56	4390
2026-01-01 22:10:57.46	41.01	11.34	-42.2	-44.2	17.5	0.00e+00	0	43	0	0	56	4417
2026-01-01 22:10:58.75	41.19	11.43	-42.1	-44.1	17.6	0.00e+00	0	43	0	0	56	4356
2026-01-01 22:10:59.47	41.28	11.47	-42.1	-44.1	17.6	0.00e+00	0	43	0	0	56	4390
2026-01-01 22:11:00.75	41.45	11.56	-42.1	-44.1	17.6	0.00e+00	0	43	0	0	56	4387
2026-01-01 22:11:01.56	41.56	11.61	-42.2	-44.2	17.6	0.00e+00	0	43	0	0	56	4413
2026-01-01 22:11:02.71	41.72	11.68	-42.3	-44.4	17.5	0.00e+00	0	43	0	0	56	4503
2026-01-01 22:11:03.78	41.87	11.75	-42.3	-44.4	17.5	0.00e+00	0	44	0	0	56	4500
2026-01-01 22:11:04.81	42.01	11.82	-42.4	-44.5	17.4	0.00e+00	0	43	0	0	56	4560
2026-01-01 22:11:05.99	42.17	11.89	-42.3	-44.4	17.5	0.00e+00	0	44	0	0	56	4507
2026-01-01 22:11:06.84	42.29	11.95	-42.4	-44.4	17.4	0.00e+00	0	43	0	0	56	4537
2026-01-01 22:11:08.18	42.47	12.03	-42.4	-44.4	17.4	0.00e+00	0	43	0	0	56	4537
2026-01-01 22:11:08.90	42.57	12.08	-42.4	-44.5	17.3	0.00e+00	0	43	0	0	56	4565
2026-01-01 22:11:10.43	42.79	12.18	-42.3	-44.4	17.5	0.00e+00	0	43	0	0	56	4494
2026-01-01 22:11:11.14	42.89	12.22	-42.3	-44.3	17.5	0.00e+00	0	43	0	0	56	4476
2026-01-01 22:11:12.43	43.07	12.31	-42.1	-44.1	17.7	0.00e+00	0	43	0	0	56	4370
2026-01-01 22:11:13.15	43.17	12.35	-42.0	-44.0	17.8	0.00e+00	0	43	0	0	56	4322
2026-01-01 22:11:14.44	43.36	12.44	-42.0	-44.0	17.8	0.00e+00	0	44	0	0	56	4325
2026-01-01 22:11:15.16	43.46	12.48	-42.1	-44.1	17.8	0.00e+00	0	44	0	0	56	4352
2026-01-01 22:11:16.45	43.64	12.57	-42.1	-44.1	17.7	0.00e+00	0	43	0	0	56	4373
2026-01-01 22:11:17.16	43.75	12.61	-42.0	-44.0	17.8	0.00e+00	0	44	0	0	56	4304
2026-01-01 22:11:18.45	43.93	12.70	-41.8	-43.8	17.9	0.00e+00	0	43	0	0	55	4449
2026-01-01 22:11:19.17	44.04	12.74	-41.7	-43.7	18.0	0.00e+00	0	43	0	0	55	4395
2026-01-01 22:11:20.46	44.23	12.83	-41.8	-43.7	17.9	0.00e+00	0	44	0	0	55	4416
2026-01-01 22:11:21.18	44.33	12.87	-41.8	-43.8	17.9	0.00e+00	0	44	0	0	55	4453
2026-01-01 22:11:22.46	44.52	12.96	-41.8	-43.7	17.9	0.00e+00	0	44	0	0	55	4433
2026-01-01 22:11:23.18	44.63	13.00	-41.7	-43.7	17.9	0.00e+00	0	43	0	0	55	4398
2026-01-01 22:11:24.53	44.83	13.09	-41.7	-43.7	17.9	0.00e+00	0	43	0	0	55	4411
2026-01-01 22:11:25.25	44.94	13.14	-41.7	-43.7	17.9	0.00e+00	0	43	0	0	55	4407
2026-01-01 22:11:26.54	45.13	13.22	-41.6	-43.6	18.0	0.00e+00	0	43	0	0	55	4353
2026-01-01 22:11:27.59	45.29	13.29	-41.6	-43.6	18.0	0.00e+00	0	43	0	0	55	4353
2026-01-01 22:11:28.49	45.43	13.35	-41.6	-43.6	18.0	0.00e+00	0	43	0	0	55	4351
2026-01-01 22:11:29.50	45.58	13.41	-41.6	-43.6	18.0	0.00e+00	0	44	0	0	55	4350
2026-01-01 22:11:30.50	45.73	13.48	-41.6	-43.5	18.1	0.00e+00	0	43	0	0	55	4318
2026-01-01 22:11:31.50	45.89	13.54	-41.6	-43.6	18.1	0.00e+00	0	43	0	0	55	4346
2026-01-01 22:11:32.54	46.05	13.61	-41.6	-43.5	18.1	0.00e+00	0	44	0	0	55	4309
2026-01-01 22:11:33.54	46.20	13.67	-41.6	-43.6	18.1	0.00e+00	0	43	0	0	55	4349
2026-01-01 22:11:34.55	46.36	13.74	-41.6	-43.5	18.1	0.00e+00	0	44	0	0	55	4337
2026-01-01 22:11:35.55	46.51	13.80	-41.6	-43.6	18.0	0.00e+00	0	43	0	0	55	4341
2026-01-01 22:11:36.55	46.67	13.87	-41.6	-43.5	18.1	0.00e+00	0	43	0	0	55	4333
2026-01-01 22:11:37.55	46.83	13.93	-41.7	-43.6	18.1	0.00e+00	0	43	0	0	55	4360
2026-01-01 22:11:38.56	46.99	14.00	-41.5	-43.5	18.2	0.00e+00	0	43	0	0	55	4292
2026-01-01 22:11:39.56	47.15	14.06	-41.5	-43.4	18.2	0.00e+00	0	44	0	0	55	4274
2026-01-01 22:11:40.56	47.31	14.12	-41.6	-43.5	18.2	0.00e+00	0	43	0	0	55	4299
2026-01-01 22:11:41.56	47.47	14.19	-41.5	-43.3	18.3	0.00e+00	0	43	0	0	54	4485
2026-01-01 22:11:42.57	47.63	14.25	-41.5	-43.4	18.2	0.00e+00	0	43	0	0	54	4514
2026-01-01 22:11:43.57	47.79	14.32	-41.5	-43.4	18.3	0.00e+00	0	44	0	0	54	4516
2026-01-01 22:11:44.59	47.96	14.38	-41.6	-43.5	18.2	0.00e+00	0	44	0	0	54	4553
2026-01-01 22:11:45.60	48.12	14.45	-41.6	-43.5	18.2	0.00e+00	0	44	0	0	54	4572
2026-01-01 22:11:46.60	48.28	14.51	-41.8	-43.7	18.0	0.00e+00	0	43	0	0	54	4672
2026-01-01 22:11:47.60	48.45	14.58	-41.7	-43.6	18.1	0.00e+00	0	44	0	0	54	4603
2026-01-01 22:11:48.60	48.61	14.64	-41.6	-43.5	18.1	0.00e+00	0	43	0	0	54	4586
2026-01-01 22:11:49.60	48.78	14.70	-41.7	-43.6	18.1	0.00e+00	0	44	0	0	54	4617
2026-01-01 22:11:50.61	48.95	14.77	-41.7	-43.7	18.0	0.00e+00	0	43	0	0	54	4659
2026-01-01 22:11:51.61	49.11	14.83	-41.6	-43.6	18.1	0.00e+00	0	44	0	0	54	4599
2026-01-01 22:11:52.61	49.28	14.90	-41.6	-43.5	18.1	0.00e+00	0	44	0	0	54	4586
2026-01-01 22:11:53.62	49.45	14.96	-41.6	-43.5	18.2	0.00e+00	0	43	0	0	54	4552
2026-01-01 22:11:54.62	49.62	15.03	-41.6	-43.5	18.2	0.00e+00	0	44	0	0	54	4552
2026-01-01 22:11:56.02	49.86	15.11	-41.6	-43.5	18.2	0.00e+00	0	43	0	0	54	4585
2026-01-01 22:11:56.74	49.98	15.16	-41.7	-43.6	18.2	0.00e+00	0	44	0	0	54	4609
2026-01-01 22:11:58.02	50.20	15.24	-41.6	-43.5	18.3	0.00e+00	0	44	0	0	54	4549
2026-01-01 22:11:58.74	50.32	15.29	-41.5	-43.4	18.3	0.00e+00	0	44	0	0	54	4537
2026-01-01 22:12:00.03	50.55	15.37	-41.5	-43.4	18.3	0.00e+00	0	44	0	0	54	4541
2026-01-01 22:12:00.75	50.67	15.41	-41.6	-43.5	18.2	0.00e+00	0	44	0	0	54	4554
2026-01-01 22:12:02.04	50.90	15.50	-41.5	-43.3	18.4	0.00e+00	0	44	0	0	54	4487
2026-01-01 22:12:02.75	51.02	15.54	-41.4	-43.3	18.4	0.00e+00	0	44	0	0	54	4468
2026-01-01 22:12:04.17	51.27	15.63	-41.4	-43.3	18.4	0.00e+00	0	43	0	0	54	4477
2026-01-01 22:12:04.89	51.40	15.68	-41.5	-43.4	18.4	0.00e+00	0	43	0	0	54	4498
2026-01-01 22:12:06.29	51.65	15.76	-41.5	-43.4	18.3	0.00e+00	0	43	0	0	54	4512
2026-01-01 22:12:07.26	51.82	15.83	-41.6	-43.5	18.2	0.00e+00	0	44	0	0	54	4571
2026-01-01 22:12:08.56	52.05	15.91	-41.6	-43.6	18.2	0.00e+00	0	43	0	0	54	4602
2026-01-01 22:12:09.28	52.18	15.95	-41.7	-43.7	18.1	0.00e+00	0	44	0	0	54	4658
2026-01-01 22:12:10.57	52.41	16.03	-41.8	-43.7	18.0	0.00e+00	0	43	0	0	54	4695
2026-01-01 22:12:11.29	52.54	16.08	-41.7	-43.7	18.1	0.00e+00	0	43	0	0	54	4661
2026-01-01 22:12:12.58	52.78	16.16	-41.7	-43.6	18.1	0.00e+00	0	43	0	0	54	4644
2026-01-01 22:12:13.29	52.91	16.20	-41.5	-43.5	18.3	0.00e+00	0	44	0	0	54	4553
2026-01-01 22:12:14.58	53.14	16.28	-41.5	-43.5	18.3	0.00e+00	0	43	0	0	54	4549
2026-01-01 22:12:15.30	53.28	16.33	-41.5	-43.4	18.3	0.00e+00	0	44	0	0	54	4536
2026-01-01 22:12:16.59	53.52	16.41	-41.5	-43.4	18.4	0.00e+00	0	44	0	0	54	4520
2026-01-01 22:12:17.31	53.65	16.45	-41.6	-43.5	18.3	0.00e+00	0	44	0	0	54	4560
2026-01-01 22:12:18.60	53.89	16.53	-41.5	-43.4	18.4	0.00e+00	0	43	0	0	54	4507
2026-01-01 22:12:19.32	54.02	16.57	-41.5	-43.4	18.3	0.00e+00	0	44	0	0	54	4537
2026-01-01 22:12:20.76	54.30	16.66	-41.4	-43.3	18.5	0.00e+00	0	44	0	0	54	4455
2026-01-01 22:12:21.75	54.48	16.72	-41.5	-43.3	18.5	0.00e+00	0	44	0	0	54	4491
2026-01-01 22:12:22.75	54.67	16.78	-41.3	-43.2	18.6	0.00e+00	0	43	0	0	54	4404
2026-01-01 22:12:23.75	54.86	16.84	-41.4	-43.3	18.4	0.00e+00	0	44	0	0	54	4450
2026-01-01 22:12:24.75	55.05	16.90	-41.4	-43.3	18.4	0.00e+00	0	44	0	0	54	4452
2026-01-01 22:12:25.75	55.25	16.96	-41.5	-43.4	18.3	0.00e+00	0	44	0	0	54	4496
2026-01-01 22:12:26.76	55.44	17.03	-41.5	-43.5	18.3	0.00e+00	0	44	0	0	54	4546
2026-01-01 22:12:27.76	55.63	17.09	-41.5	-43.4	18.3	0.00e+00	0	44	0	0	54	4539
2026-01-01 22:12:28.76	55.83	17.15	-41.6	-43.5	18.3	0.00e+00	0	44	0	0	54	4556
2026-01-01 22:12:29.86	56.04	17.21	-41.5	-43.4	18.3	0.00e+00	0	43	0	0	54	4530
2026-01-01 22:12:30.72	56.21	17.26	-41.4	-43.3	18.4	0.00e+00	0	44	0	0	54	4477
2026-01-01 22:12:32.10	56.48	17.35	-41.5	-43.4	18.4	0.00e+00	0	43	0	0	54	4497
2026-01-01 22:12:32.82	56.62	17.39	-41.4	-43.2	18.5	0.00e+00	0	43	0	0	54	4441
2026-01-01 22:12:34.33	56.92	17.48	-41.2	-43.1	18.7	0.00e+00	0	43	0	0	54	4349
2026-01-01 22:12:35.05	57.07	17.52	-41.3	-43.2	18.6	0.00e+00	0	43	0	0	54	4397
2026-01-01 22:12:36.42	57.34	17.60	-41.3	-43.1	18.6	0.00e+00	0	44	0	0	54	4382
2026-01-01 22:12:37.14	57.48	17.64	-41.2	-43.0	18.7	0.00e+00	0	44	0	0	54	4339
2026-01-01 22:12:38.43	57.74	17.72	-41.2	-43.1	18.6	0.00e+00	0	43	0	0	54	4349
2026-01-01 22:12:39.14	57.89	17.76	-41.2	-43.1	18.6	0.00e+00	0	44	0	0	54	4342
2026-01-01 22:12:40.56	58.18	17.84	-41.3	-43.1	18.5	0.00e+00	0	43	0	0	54	4390
2026-01-01 22:12:41.27	58.32	17.88	-41.3	-43.2	18.5	0.00e+00	0	43	0	0	54	4402
2026-01-01 22:12:42.65	58.60	17.96	-41.3	-43.1	18.6	0.00e+00	0	44	0	0	54	4371
2026-01-01 22:12:43.36	58.75	18.00	-41.3	-43.1	18.6	0.00e+00	0	44	0	0	54	4383
2026-01-01 22:12:44.65	59.01	18.07	-41.3	-43.2	18.6	0.00e+00	0	44	0	0	54	4402
2026-01-01 22:12:45.37	59.16	18.12	-41.3	-43.2	18.7	0.00e+00	0	44	0	0	54	4395
2026-01-01 22:12:46.66	59.43	18.19	-41.3	-43.2	18.6	0.00e+00	0	44	0	0	54	4394
2026-01-01 22:12:47.37	59.58	18.23	-41.4	-43.3	18.5	0.00e+00	0	44	0	0	54	4458
2026-01-01 22:12:48.67	59.85	18.30	-41.4	-43.2	18.6	0.00e+00	0	43	0	0	54	4434
2026-01-01 22:12:49.38	60.00	18.34	-41.3	-43.1	18.7	0.00e+00	0	44	0	0	54	4390
2026-01-01 22:12:50.67	60.27	18.41	-41.1	-42.9	18.8	0.00e+00	0	44	0	0	54	4265
2026-01-01 22:12:51.39	60.42	18.45	-41.1	-42.9	18.8	0.00e+00	0	44	0	0	54	4262
2026-01-01 22:12:52.67	60.70	18.52	-41.1	-43.0	18.8	0.00e+00	0	44	0	0	54	4297
2026-01-01 22:12:53.39	60.85	18.56	-41.1	-42.9	18.8	0.00e+00	0	43	0	0	54	4267
2026-01-01 22:12:54.68	61.12	18.63	-41.2	-43.0	18.7	0.00e+00	0	43	0	0	54	4322
2026-01-01 22:12:55.39	61.28	18.67	-41.3	-43.1	18.6	0.00e+00	0	44	0	0	54	4375
2026-01-01 22:12:56.76	61.57	18.75	-41.1	-42.9	18.8	0.00e+00	0	44	0	0	54	4280
2026-01-01 22:12:57.75	61.79	18.80	-41.0	-42.9	18.9	0.00e+00	0	44	0	0	54	4254
2026-01-01 22:12:59.07	62.07	18.87	-40.9	-42.8	19.0	0.00e+00	0	44	0	0	53	4442
2026-01-01 22:12:59.85	62.24	18.91	-40.9	-42.7	19.1	0.00e+00	0	44	0	0	53	4405
2026-01-01 22:13:01.46	62.59	18.99	-40.8	-42.6	19.1	0.00e+00	0	43	0	0	53	4382
2026-01-01 22:13:02.05	62.72	19.03	-40.8	-42.6	19.1	0.00e+00	0	43	0	0	53	4371
2026-01-01 22:13:03.62	63.07	19.11	-40.9	-42.7	19.0	0.00e+00	0	43	0	0	53	4420
2026-01-01 22:13:04.22	63.20	19.14	-41.0	-42.8	18.9	0.00e+00	0	43	0	0	53	4452
2026-01-01 22:13:05.80	63.55	19.22	-40.9	-42.7	19.0	0.00e+00	0	44	0	0	53	4441
2026-01-01 22:13:06.39	63.68	19.25	-40.9	-42.7	19.0	0.00e+00	0	43	0	0	53	4419
2026-01-01 22:13:07.96	64.03	19.33	-40.9	-42.8	19.0	0.00e+00	0	44	0	0	53	4442
2026-01-01 22:13:08.55	64.17	19.36	-40.9	-42.7	19.0	0.00e+00	0	44	0	0	53	4410
2026-01-01 22:13:10.13	64.52	19.44	-40.9	-42.7	19.1	0.00e+00	0	44	0	0	53	4396
2026-01-01 22:13:10.73	64.66	19.47	-40.8	-42.6	19.2	0.00e+00	0	44	0	0	53	4352
2026-01-01 22:13:12.31	65.02	19.55	-40.8	-42.5	19.2	0.00e+00	0	43	0	0	53	4332
2026-01-01 22:13:12.90	65.15	19.57	-40.8	-42.5	19.2	0.00e+00	0	43	0	0	53	4336
2026-01-01 22:13:14.47	65.51	19.65	-40.8	-42.5	19.2	0.00e+00	0	44	0	0	53	4335
2026-01-01 22:13:15.06	65.64	19.68	-40.8	-42.6	19.2	0.00e+00	0	44	0	0	53	4344
2026-01-01 22:13:16.83	66.05	19.76	-40.7	-42.5	19.3	0.00e+00	0	44	0	0	53	4295
2026-01-01 22:13:17.40	66.18	19.79	-40.6	-42.4	19.4	0.00e+00	0	43	0	0	53	4254
2026-01-01 22:13:18.98	66.55	19.86	-40.6	-42.3	19.4	0.00e+00	0	44	0	0	53	4239
2026-01-01 22:13:19.61	66.69	19.89	-40.6	-42.3	19.4	0.00e+00	0	44	0	0	53	4221
2026-01-01 22:13:21.07	67.03	19.96	-40.5	-42.2	19.5	0.00e+00	0	44	0	0	53	4181
2026-01-01 22:13:21.79	67.20	19.99	-40.6	-42.3	19.4	0.00e+00	0	44	0	0	53	4219
2026-01-01 22:13:23.28	67.55	20.06	-40.7	-42.4	19.3	0.00e+00	0	44	0	0	53	4283
2026-01-01 22:13:24.25	67.78	20.10	-40.7	-42.5	19.2	0.00e+00	0	44	0	0	53	4332
2026-01-01 22:13:25.57	68.09	20.16	-40.7	-42.5	19.2	0.00e+00	0	43	0	0	53	4322
2026-01-01 22:13:26.29	68.26	20.19	-40.7	-42.5	19.2	0.00e+00	0	44	0	0	53	4300
2026-01-01 22:13:27.58	68.57	20.25	-40.8	-42.6	19.2	0.00e+00	0	44	0	0	53	4343
2026-01-01 22:13:28.30	68.74	20.28	-40.6	-42.3	19.4	0.00e+00	0	43	0	0	53	4241
2026-01-01 22:13:29.59	69.04	20.34	-40.4	-42.2	19.5	0.00e+00	0	43	0	0	52	4403
2026-01-01 22:13:30.31	69.22	20.37	-40.3	-42.1	19.6	0.00e+00	0	44	0	0	52	4343
2026-01-01 22:13:31.60	69.53	20.42	-40.4	-42.2	19.6	0.00e+00	0	44	0	0	52	4401
2026-01-01 22:13:32.32	69.70	20.45	-40.5	-42.3	19.4	0.00e+00	0	43	0	0	52	4463
2026-01-01 22:13:33.60	70.01	20.50	-40.6	-42.3	19.4	0.00e+00	0	44	0	0	52	4485
2026-01-01 22:13:34.32	70.18	20.53	-40.6	-42.4	19.3	0.00e+00	0	44	0	0	52	4523
2026-01-01 22:13:35.61	70.50	20.58	-40.7	-42.4	19.3	0.00e+00	0	43	0	0	52	4543
2026-01-01 22:13:36.32	70.67	20.61	-40.6	-42.4	19.3	0.00e+00	0	44	0	0	52	4523
2026-01-01 22:13:37.61	70.98	20.66	-40.5	-42.3	19.5	0.00e+00	0	44	0	0	52	4444
2026-01-01 22:13:38.36	71.17	20.69	-40.4	-42.2	19.6	0.00e+00	0	44	0	0	52	4402
2026-01-01 22:13:39.65	71.48	20.74	-40.4	-42.2	19.6	0.00e+00	0	43	0	0	52	4394
2026-01-01 22:13:40.37	71.66	20.77	-40.5	-42.3	19.5	0.00e+00	0	44	0	0	52	4443
2026-01-01 22:13:41.65	71.97	20.82	-40.4	-42.1	19.5	0.00e+00	0	44	0	0	52	4386
2026-01-01 22:13:42.50	72.18	20.85	-40.5	-42.2	19.5	0.00e+00	0	44	0	0	52	4419
2026-01-01 22:13:43.64	72.46	20.89	-40.5	-42.3	19.4	0.00e+00	0	44	0	0	52	4453
2026-01-01 22:13:44.71	72.73	20.93	-40.6	-42.4	19.4	0.00e+00	0	43	0	0	52	4498
2026-01-01 22:13:45.75	72.99	20.96	-40.6	-42.4	19.3	0.00e+00	0	44	0	0	52	4527
2026-01-01 22:13:46.94	73.29	21.00	-40.6	-42.4	19.4	0.00e+00	0	44	0	0	52	4524
2026-01-01 22:13:47.82	73.50	21.03	-40.6	-42.3	19.4	0.00e+00	0	43	0	0	52	4477
2026-01-01 22:13:49.14	73.84	21.08	-40.6	-42.3	19.4	0.00e+00	0	44	0	0	52	4487
2026-01-01 22:13:50.27	74.12	21.12	-40.6	-42.4	19.2	0.00e+00	0	44	0	0	52	4520
2026-01-01 22:13:51.13	74.34	21.14	-40.8	-42.6	19.2	0.00e+00	0	44	0	0	52	4599
2026-01-01 22:13:52.27	74.62	21.18	-40.8	-42.6	19.1	0.00e+00	0	44	0	0	52	4620
2026-01-01 22:13:53.13	74.84	21.21	-40.8	-42.6	19.1	0.00e+00	0	44	0	0	52	4641
2026-01-01 22:13:54.35	75.15	21.25	-40.8	-42.6	19.2	0.00e+00	0	44	0	0	52	4625
2026-01-01 22:13:55.21	75.37	21.27	-40.7	-42.5	19.3	0.00e+00	0	43	0	0	52	4581
2026-01-01 22:13:56.35	75.66	21.31	-40.6	-42.3	19.4	0.00e+00	0	44	0	0	52	4484
2026-01-01 22:13:57.21	75.88	21.33	-40.6	-42.4	19.4	0.00e+00	0	43	0	0	52	4497
2026-01-01 22:13:58.36	76.17	21.36	-40.6	-42.4	19.4	0.00e+00	0	43	0	0	52	4516
2026-01-01 22:13:59.22	76.39	21.39	-40.7	-42.5	19.3	0.00e+00	0	44	0	0	52	4582
2026-01-01 22:14:00.36	76.68	21.42	-40.8	-42.6	19.2	0.00e+00	0	43	0	0	52	4603
2026-01-01 22:14:01.23	76.90	21.44	-40.8	-42.6	19.2	0.00e+00	0	44	0	0	52	4613
2026-01-01 22:14:02.37	77.20	21.47	-40.8	-42.6	19.2	0.00e+00	0	44	0	0	52	4618
2026-01-01 22:14:03.23	77.42	21.50	-40.7	-42.4	19.3	0.00e+00	0	44	0	0	52	4535
2026-01-01 22:14:04.38	77.71	21.53	-40.6	-42.4	19.4	0.00e+00	0	44	0	0	52	4514
2026-01-01 22:14:05.24	77.94	21.55	-40.7	-42.4	19.4	0.00e+00	0	43	0	0	52	4537
2026-01-01 22:14:06.39	78.23	21.58	-40.5	-42.3	19.5	0.00e+00	0	44	0	0	52	4457
2026-01-01 22:14:07.25	78.46	21.60	-40.5	-42.2	19.5	0.00e+00	0	44	0	0	52	4426
2026-01-01 22:14:08.39	78.75	21.62	-40.5	-42.2	19.5	0.00e+00	0	44	0	0	52	4439
2026-01-01 22:14:09.25	78.98	21.64	-40.6	-42.3	19.4	0.00e+00	0	43	0	0	52	4483
2026-01-01 22:14:10.40	79.27	21.67	-40.5	-42.2	19.5	0.00e+00	0	43	0	0	52	4430
2026-01-01 22:14:11.26	79.50	21.69	-40.5	-42.3	19.5	0.00e+00	0	43	0	0	52	4444
2026-01-01 22:14:12.40	79.80	21.71	-40.4	-42.1	19.6	0.00e+00	0	43	0	0	52	4387
2026-01-01 22:14:13.26	80.02	21.73	-40.5	-42.3	19.5	0.00e+00	0	43	0	0	52	4447
2026-01-01 22:14:14.63	80.38	21.76	-40.7	-42.4	19.3	0.00e+00	0	44	0	0	52	4538
2026-01-01 22:14:15.35	80.57	21.77	-40.7	-42.5	19.2	0.00e+00	0	44	0	0	52	4580
2026-01-01 22:14:16.64	80.91	21.79	-40.7	-42.5	19.2	0.00e+00	0	44	0	0	52	4590
2026-01-01 22:14:17.36	81.09	21.81	-40.6	-42.3	19.4	0.00e+00	0	43	0	0	52	4487
2026-01-01 22:14:18.65	81.43	21.83	-40.5	-42.3	19.4	0.00e+00	0	43	0	0	52	4446
2026-01-01 22:14:19.37	81.62	21.84	-40.4	-42.2	19.5	0.00e+00	0	43	0	0	52	4401
2026-01-01 22:14:20.66	81.96	21.86	-40.3	-42.1	19.6	0.00e+00	0	43	0	0	52	4364
2026-01-01 22:14:21.37	82.15	21.87	-40.3	-42.0	19.6	0.00e+00	0	43	0	0	52	4337
2026-01-01 22:14:22.67	82.49	21.89	-40.3	-42.1	19.6	0.00e+00	0	43	0	0	52	4354
2026-01-01 22:14:23.38	82.68	21.90	-40.3	-42.1	19.6	0.00e+00	0	44	0	0	52	4357
2026-01-01 22:14:24.67	83.02	21.92	-40.3	-42.1	19.6	0.00e+00	0	43	0	0	52	4362
2026-01-01 22:14:25.39	83.21	21.93	-40.4	-42.2	19.6	0.00e+00	0	43	0	0	52	4394
2026-01-01 22:14:26.67	83.55	21.95	-40.4	-42.2	19.5	0.00e+00	0	44	0	0	52	4425
2026-01-01 22:14:27.39	83.74	21.95	-40.5	-42.3	19.4	0.00e+00	0	44	0	0	52	4472
2026-01-01 22:14:28.68	84.09	21.97	-40.3	-42.1	19.6	0.00e+00	0	43	0	0	52	4381
2026-01-01 22:14:29.40	84.28	21.98	-40.4	-42.2	19.5	0.00e+00	0	44	0	0	52	4401
2026-01-01 22:14:30.86	84.66	21.99	-40.5	-42.3	19.4	0.00e+00	0	44	0	0	52	4475
2026-01-01 22:14:31.58	84.86	22.00	-40.5	-42.2	19.5	0.00e+00	0	44	0	0	52	4438
2026-01-01 22:14:32.87	85.20	22.01	-40.3	-42.1	19.6	0.00e+00	0	44	0	0	52	4373
2026-01-01 22:14:33.58	85.39	22.02	-40.3	-42.0	19.7	0.00e+00	0	43	0	0	52	4328
2026-01-01 22:14:34.87	85.73	22.03	-40.2	-41.9	19.7	0.00e+00	0	44	0	0	52	4291
2026-01-01 22:14:35.59	85.92	22.03	-40.1	-41.8	19.8	0.00e+00	0	44	0	0	52	4237
2026-01-01 22:14:36.88	86.27	22.04	-40.3	-42.1	19.6	0.00e+00	0	44	0	0	52	4363
2026-01-01 22:14:37.59	86.46	22.04	-40.4	-42.2	19.5	0.00e+00	0	44	0	0	52	4410
2026-01-01 22:14:38.88	86.80	22.05	-40.5	-42.3	19.4	0.00e+00	0	44	0	0	52	4479
2026-01-01 22:14:39.60	86.99	22.05	-40.5	-42.3	19.4	0.00e+00	0	43	0	0	52	4482
2026-01-01 22:14:41.25	87.43	22.06	-40.5	-42.2	19.4	0.00e+00	0	43	0	0	52	4438
2026-01-01 22:14:41.83	87.59	22.06	-40.5	-42.2	19.4	0.00e+00	0	43	0	0	52	4429
2026-01-01 22:14:43.63	88.07	22.06	-40.5	-42.3	19.4	0.00e+00	0	43	0	0	52	4466
2026-01-01 22:14:44.20	88.22	22.06	-40.6	-42.4	19.3	0.00e+00	0	43	0	0	52	4500
2026-01-01 22:14:46.25	88.77	22.07	-40.6	-42.3	19.4	0.00e+00	0	43	0	0	52	4482
2026-01-01 22:14:46.82	88.92	22.07	-40.5	-42.3	19.5	0.00e+00	0	43	0	0	52	4477
2026-01-01 22:14:48.54	89.38	22.06	-40.4	-42.2	19.6	0.00e+00	0	44	0	0	52	4402
2026-01-01 22:14:49.33	89.59	22.06	-40.4	-42.1	19.5	0.00e+00	0	43	0	0	52	4381
2026-01-01 22:14:50.48	89.90	22.06	-40.3	-42.1	19.6	0.00e+00	0	44	0	0	52	4349
2026-01-01 22:14:51.34	90.13	22.06	-40.4	-42.2	19.5	0.00e+00	0	43	0	0	52	4392
2026-01-01 22:14:52.48	90.43	22.05	-40.5	-42.3	19.4	0.00e+00	0	43	0	0	52	4456
2026-01-01 22:14:53.34	90.66	22.05	-40.5	-42.2	19.4	0.00e+00	0	43	0	0	52	4427
2026-01-01 22:14:54.49	90.97	22.04	-40.4	-42.1	19.6	0.00e+00	0	43	0	0	52	4385
2026-01-01 22:14:55.35	91.20	22.04	-40.4	-42.1	19.5	0.00e+00	0	43	0	0	52	4390
2026-01-01 22:14:56.50	91.51	22.03	-40.3	-42.0	19.6	0.00e+00	0	44	0	0	52	4326
2026-01-01 22:14:57.35	91.73	22.03	-40.2	-41.9	19.6	0.00e+00	0	43	0	0	52	4287
2026-01-01 22:14:58.50	92.04	22.02	-40.2	-41.9	19.6	0.00e+00	0	44	0	0	52	4290
2026-01-01 22:14:59.36	92.27	22.01	-40.2	-42.0	19.6	0.00e+00	0	43	0	0	52	4302
2026-01-01 22:15:00.50	92.57	22.00	-40.3	-42.1	19.6	0.00e+00	0	44	0	0	52	4353
2026-01-01 22:15:01.60	92.87	21.99	-40.4	-42.1	19.6	0.00e+00	0	44	0	0	52	4369
2026-01-01 22:15:02.46	93.10	21.98	-40.4	-42.2	19.6	0.00e+00	0	43	0	0	52	4397
2026-01-01 22:15:03.61	93.40	21.97	-40.5	-42.2	19.5	0.00e+00	0	44	0	0	52	4433
2026-01-01 22:15:04.47	93.63	21.96	-40.5	-42.3	19.4	0.00e+00	0	43	0	0	52	4450
2026-01-01 22:15:05.61	93.93	21.95	-40.4	-42.2	19.5	0.00e+00	0	44	0	0	52	4394
2026-01-01 22:15:06.48	94.16	21.94	-40.3	-42.1	19.5	0.00e+00	0	43	0	0	52	4355
2026-01-01 22:15:07.62	94.46	21.92	-40.2	-41.9	19.7	0.00e+00	0	43	0	0	52	4267
2026-01-01 22:15:08.48	94.69	21.91	-40.2	-41.9	19.7	0.00e+00	0	44	0	0	52	4256
2026-01-01 22:15:09.62	94.99	21.89	-40.2	-41.9	19.8	0.00e+00	0	44	0	0	52	4252
2026-01-01 22:15:10.48	95.22	21.88	-40.2	-42.0	19.7	0.00e+00	0	43	0	0	52	4301
2026-01-01 22:15:11.63	95.53	21.86	-40.4	-42.1	19.5	0.00e+00	0	44	0	0	52	4382
2026-01-01 22:15:12.49	95.75	21.85	-40.4	-42.2	19.5	0.00e+00	0	44	0	0	52	4400
2026-01-01 22:15:13.64	96.06	21.83	-40.5	-42.3	19.3	0.00e+00	0	43	0	0	52	4460
2026-01-01 22:15:14.49	96.28	21.82	-40.5	-42.2	19.4	0.00e+00	0	44	0	0	52	4433
2026-01-01 22:15:15.64	96.58	21.79	-40.4	-42.1	19.5	0.00e+00	0	43	0	0	52	4389
2026-01-01 22:15:16.50	96.81	21.78	-40.3	-42.1	19.6	0.00e+00	0	43	0	0	52	4343
2026-01-01 22:15:17.65	97.11	21.76	-40.3	-42.1	19.6	0.00e+00	0	43	0	0	52	4356
2026-01-01 22:15:18.51	97.34	21.74	-40.4	-42.2	19.5	0.00e+00	0	43	0	0	52	4418
2026-01-01 22:15:19.70	97.65	21.72	-40.5	-42.2	19.4	0.00e+00	0	44	0	0	52	4441
2026-01-01 22:15:20.56	97.87	21.70	-40.4	-42.2	19.5	0.00e+00	0	43	0	0	52	4418
2026-01-01 22:15:21.71	98.17	21.67	-40.4	-42.1	19.5	0.00e+00	0	43	0	0	52	4391
2026-01-01 22:15:22.57	98.40	21.65	-40.4	-42.1	19.6	0.00e+00	0	43	0	0	52	4375
2026-01-01 22:15:23.71	98.69	21.63	-40.4	-42.1	19.5	0.00e+00	0	43	0	0	52	4382
2026-01-01 22:15:24.57	98.92	21.61	-40.4	-42.1	19.6	0.00e+00	0	43	0	0	52	4375
2026-01-01 22:15:25.94	99.27	21.58	-40.4	-42.2	19.5	0.00e+00	0	43	0	0	52	4408
2026-01-01 22:15:27.07	99.57	21.55	-40.5	-42.2	19.5	0.00e+00	0	44	0	0	52	4435
2026-01-01 22:15:28.25	99.87	21.52	-40.4	-42.2	19.5	0.00e+00	0	43	0	0	52	4394
2026-01-01 22:15:29.11	100.09	21.50	-40.5	-42.2	19.4	0.00e+00	0	43	0	0	52	4439
2026-01-01 22:15:30.25	100.39	21.47	-40.3	-42.1	19.6	0.00e+00	0	44	0	0	52	4356
2026-01-01 22:15:31.11	100.61	21.44	-40.3	-42.1	19.6	0.00e+00	0	43	0	0	52	4342
2026-01-01 22:15:32.26	100.90	21.41	-40.5	-42.2	19.4	0.00e+00	0	43	0	0	52	4422
2026-01-01 22:15:33.12	101.12	21.39	-40.5	-42.3	19.3	0.00e+00	0	43	0	0	52	4459
2026-01-01 22:15:34.27	101.42	21.36	-40.4	-42.2	19.4	0.00e+00	0	43	0	0	52	4400
2026-01-01 22:15:35.13	101.64	21.33	-40.4	-42.1	19.5	0.00e+00	0	44	0	0	52	4364
2026-01-01 22:15:36.27	101.93	21.30	-40.4	-42.1	19.5	0.00e+00	0	43	0	0	52	4371
2026-01-01 22:15:37.13	102.15	21.27	-40.3	-42.1	19.5	0.00e+00	0	43	0	0	52	4348
2026-01-01 22:15:38.28	102.44	21.24	-40.2	-41.9	19.6	0.00e+00	0	44	0	0	52	4286
2026-01-01 22:15:39.14	102.66	21.21	-40.1	-41.8	19.7	0.00e+00	0	44	0	0	52	4225
2026-01-01 22:15:40.28	102.95	21.17	-40.1	-41.9	19.7	0.00e+00	0	43	0	0	52	4249
2026-01-01 22:15:41.14	103.16	21.15	-40.3	-42.0	19.6	0.00e+00	0	44	0	0	52	4321
2026-01-01 22:15:42.29	103.45	21.11	-40.3	-42.1	19.6	0.00e+00	0	44	0	0	52	4358
2026-01-01 22:15:43.28	103.70	21.07	-40.4	-42.1	19.5	0.00e+00	0	43	0	0	52	4367
2026-01-01 22:15:44.47	104.00	21.03	-40.3	-42.1	19.6	0.00e+00	0	43	0	0	52	4345
2026-01-01 22:15:45.33	104.22	21.00	-40.5	-42.2	19.5	0.00e+00	0	43	0	0	52	4421
2026-01-01 22:15:46.70	104.56	20.96	-40.5	-42.2	19.4	0.00e+00	0	43	0	0	52	4420
2026-01-01 22:15:47.42	104.74	20.93	-40.5	-42.2	19.4	0.00e+00	0	43	0	0	52	4431
2026-01-01 22:15:48.71	105.06	20.89	-40.4	-42.1	19.5	0.00e+00	0	44	0	0	52	4371
2026-01-01 22:15:49.43	105.24	20.86	-40.3	-42.0	19.6	0.00e+00	0	44	0	0	52	4337
2026-01-01 22:15:50.72	105.56	20.81	-40.2	-41.9	19.7	0.00e+00	0	44	0	0	52	4277
2026-01-01 22:15:51.43	105.73	20.79	-40.2	-41.9	19.7	0.00e+00	0	44	0	0	52	4272
2026-01-01 22:15:52.72	106.05	20.74	-40.2	-41.9	19.7	0.00e+00	0	43	0	0	52	4266
2026-01-01 22:15:53.43	106.23	20.71	-40.2	-41.9	19.6	0.00e+00	0	44	0	0	52	4289
2026-01-01 22:15:54.72	106.54	20.66	-40.4	-42.1	19.5	0.00e+00	0	44	0	0	52	4378
2026-01-01 22:15:55.66	106.77	20.62	-40.5	-42.2	19.4	0.00e+00	0	43	0	0	52	4423
2026-01-01 22:15:56.66	107.02	20.58	-40.4	-42.2	19.4	0.00e+00	0	43	0	0	52	4406
2026-01-01 22:15:57.67	107.26	20.54	-40.5	-42.2	19.4	0.00e+00	0	44	0	0	52	4431
2026-01-01 22:15:58.67	107.50	20.50	-40.4	-42.2	19.4	0.00e+00	0	43	0	0	52	4412
2026-01-01 22:15:59.67	107.75	20.46	-40.5	-42.2	19.4	0.00e+00	0	43	0	0	52	4428
2026-01-01 22:16:00.68	107.99	20.42	-40.5	-42.2	19.3	0.00e+00	0	43	0	0	52	4438
2026-01-01 22:16:01.68	108.23	20.38	-40.4	-42.2	19.4	0.00e+00	0	43	0	0	52	4393
2026-01-01 22:16:02.76	108.49	20.33	-40.4	-42.2	19.3	0.00e+00	0	43	0	0	52	4420
2026-01-01 22:16:03.66	108.71	20.29	-40.4	-42.2	19.3	0.00e+00	0	43	0	0	52	4426
2026-01-01 22:16:04.90	109.00	20.24	-40.4	-42.2	19.4	0.00e+00	0	43	0	0	52	4418
2026-01-01 22:16:05.75	109.21	20.20	-40.5	-42.3	19.4	0.00e+00	0	43	0	0	52	4442
2026-01-01 22:16:07.03	109.51	20.14	-40.5	-42.2	19.3	0.00e+00	0	43	0	0	52	4435
2026-01-01 22:16:07.74	109.68	20.11	-40.6	-42.3	19.3	0.00e+00	0	43	0	0	52	4479
2026-01-01 22:16:09.03	109.98	20.06	-40.4	-42.2	19.4	0.00e+00	0	43	0	0	52	4404
2026-01-01 22:16:09.75	110.15	20.02	-40.4	-42.2	19.4	0.00e+00	0	43	0	0	52	4406
2026-01-01 22:16:11.04	110.45	19.96	-40.5	-42.3	19.3	0.00e+00	0	43	0	0	52	4465
2026-01-01 22:16:11.77	110.63	19.93	-40.5	-42.3	19.2	0.00e+00	0	44	0	0	52	4469
2026-01-01 22:16:13.06	110.93	19.87	-40.6	-42.4	19.3	0.00e+00	0	43	0	0	52	4495
2026-01-01 22:16:13.89	111.12	19.83	-40.5	-42.3	19.3	0.00e+00	0	44	0	0	52	4460
2026-01-01 22:16:15.03	111.38	19.78	-40.7	-42.5	19.2	0.00e+00	0	43	0	0	52	4559
2026-01-01 22:16:16.10	111.63	19.73	-40.7	-42.5	19.2	0.00e+00	0	44	0	0	52	4585
2026-01-01 22:16:17.14	111.87	19.68	-40.8	-42.6	19.1	0.00e+00	0	43	0	0	52	4611
2026-01-01 22:16:18.14	112.10	19.63	-40.8	-42.7	19.0	0.00e+00	0	44	0	0	52	4652
2026-01-01 22:16:19.14	112.33	19.58	-40.9	-42.8	19.0	0.00e+00	0	43	0	0	52	4709
2026-01-01 22:16:20.14	112.56	19.53	-40.9	-42.7	19.1	0.00e+00	0	43	0	0	52	4669
2026-01-01 22:16:21.15	112.79	19.48	-40.9	-42.7	19.0	0.00e+00	0	43	0	0	52	4680
2026-01-01 22:16:22.45	113.08	19.41	-40.8	-42.6	19.1	0.00e+00	0	44	0	0	52	4618
2026-01-01 22:16:23.17	113.25	19.38	-40.8	-42.6	19.0	0.00e+00	0	43	0	0	52	4609
2026-01-01 22:16:24.46	113.54	19.31	-40.7	-42.6	19.0	0.00e+00	0	44	0	0	52	4599
2026-01-01 22:16:25.17	113.70	19.28	-40.7	-42.5	19.1	0.00e+00	0	44	0	0	52	4557
2026-01-01 22:16:26.46	113.98	19.21	-40.5	-42.2	19.4	0.00e+00	0	43	0	0	52	4432
2026-01-01 22:16:27.18	114.14	19.17	-40.4	-42.1	19.5	0.00e+00	0	44	0	0	52	4382
2026-01-01 22:16:28.47	114.43	19.11	-40.3	-42.1	19.6	0.00e+00	0	43	0	0	52	4345
2026-01-01 22:16:29.18	114.59	19.07	-40.4	-42.1	19.6	0.00e+00	0	43	0	0	52	4356
2026-01-01 22:16:30.57	114.90	19.00	-40.5	-42.2	19.5	0.00e+00	0	43	0	0	52	4439
2026-01-01 22:16:31.29	115.05	18.96	-40.5	-42.3	19.4	0.00e+00	0	43	0	0	52	4460
2026-01-01 22:16:32.58	115.34	18.89	-40.7	-42.4	19.2	0.00e+00	0	43	0	0	52	4529
2026-01-01 22:16:33.30	115.49	18.85	-40.7	-42.5	19.2	0.00e+00	0	44	0	0	52	4561
2026-01-01 22:16:34.78	115.82	18.77	-40.8	-42.6	19.0	0.00e+00	0	43	0	0	52	4635
2026-01-01 22:16:35.50	115.97	18.73	-40.8	-42.6	19.0	0.00e+00	0	43	0	0	52	4642
2026-01-01 22:16:36.79	116.25	18.66	-40.8	-42.6	19.0	0.00e+00	0	43	0	0	52	4644
2026-01-01 22:16:37.87	116.48	18.60	-40.8	-42.6	19.0	0.00e+00	0	43	0	0	52	4621
2026-01-01 22:16:38.73	116.67	18.56	-40.7	-42.5	19.1	0.00e+00	0	43	0	0	52	4576
2026-01-01 22:16:39.88	116.92	18.49	-40.7	-42.5	19.2	0.00e+00	0	43	0	0	52	4570
2026-01-01 22:16:40.74	117.10	18.45	-40.7	-42.5	19.1	0.00e+00	0	43	0	0	52	4595
2026-01-01 22:16:41.88	117.34	18.38	-40.7	-42.5	19.1	0.00e+00	0	43	0	0	52	4581
2026-01-01 22:16:42.75	117.52	18.33	-40.8	-42.6	19.1	0.00e+00	0	43	0	0	52	4602
2026-01-01 22:16:43.89	117.76	18.27	-40.8	-42.6	19.1	0.00e+00	0	43	0	0	52	4600
2026-01-01 22:16:44.75	117.95	18.22	-40.8	-42.6	19.1	0.00e+00	0	43	0	0	52	4618
2026-01-01 22:16:45.90	118.19	18.16	-40.8	-42.6	19.0	0.00e+00	0	44	0	0	52	4645
2026-01-01 22:16:46.76	118.37	18.11	-40.9	-42.7	19.0	0.00e+00	0	44	0	0	52	4668
2026-01-01 22:16:47.90	118.60	18.04	-41.0	-42.8	18.9	0.00e+00	0	43	0	0	52	4721
2026-01-01 22:16:48.76	118.78	17.99	-41.0	-42.9	18.8	0.00e+00	0	43	0	0	52	4772
2026-01-01 22:16:49.90	119.02	17.93	-41.1	-42.9	18.7	0.00e+00	0	43	0	0	52	4797
2026-01-01 22:16:50.76	119.19	17.88	-41.1	-42.9	18.7	0.00e+00	0	43	0	0	52	4805
2026-01-01 22:16:51.91	119.43	17.81	-41.1	-42.9	18.7	0.00e+00	0	43	0	0	52	4806
2026-01-01 22:16:52.77	119.60	17.76	-41.0	-42.8	18.8	0.00e+00	0	43	0	0	52	4754
2026-01-01 22:16:53.93	119.84	17.69	-41.0	-42.8	18.8	0.00e+00	0	43	0	0	52	4746
2026-01-01 22:16:54.79	120.01	17.64	-40.9	-42.7	18.9	0.00e+00	0	43	0	0	52	4703
2026-01-01 22:16:55.94	120.24	17.57	-40.9	-42.7	18.9	0.00e+00	0	43	0	0	52	4659
2026-01-01 22:16:56.80	120.42	17.52	-41.0	-42.8	18.8	0.00e+00	0	44	0	0	52	4725
2026-01-01 22:16:58.10	120.68	17.44	-41.1	-42.9	18.6	0.00e+00	0	43	0	0	53	4534
2026-01-01 22:16:58.82	120.82	17.40	-41.0	-42.8	18.7	0.00e+00	0	43	0	0	53	4473
2026-01-01 22:17:00.32	121.12	17.31	-41.1	-42.9	18.7	0.00e+00	0	44	0	0	53	4516
2026-01-01 22:17:01.03	121.26	17.27	-41.3	-43.1	18.5	0.00e+00	0	43	0	0	53	4633
2026-01-01 22:17:02.32	121.51	17.19	-41.1	-42.9	18.7	0.00e+00	0	43	0	0	53	4521
2026-01-01 22:17:03.04	121.65	17.15	-41.0	-42.8	18.7	0.00e+00	0	44	0	0	53	4476
2026-01-01 22:17:04.48	121.93	17.06	-41.0	-42.8	18.8	0.00e+00	0	43	0	0	53	4479
2026-01-01 22:17:05.47	122.13	17.00	-40.9	-42.7	18.9	0.00e+00	0	43	0	0	53	4441
2026-01-01 22:17:06.47	122.32	16.94	-40.9	-42.7	18.9	0.00e+00	0	43	0	0	53	4417
2026-01-01 22:17:07.48	122.51	16.88	-40.8	-42.6	18.9	0.00e+00	0	44	0	0	53	4378
2026-01-01 22:17:08.48	122.71	16.82	-40.9	-42.7	18.9	0.00e+00	0	43	0	0	53	4420
2026-01-01 22:17:09.48	122.90	16.76	-40.9	-42.7	18.8	0.00e+00	0	44	0	0	53	4434
2026-01-01 22:17:10.49	123.09	16.69	-41.0	-42.8	18.8	0.00e+00	0	43	0	0	53	4461
2026-01-01 22:17:11.49	123.28	16.63	-41.1	-42.9	18.6	0.00e+00	0	43	0	0	53	4525
2026-01-01 22:17:12.55	123.48	16.57	-41.1	-43.0	18.6	0.00e+00	0	43	0	0	53	4556
2026-01-01 22:17:13.45	123.65	16.51	-41.1	-42.9	18.6	0.00e+00	0	43	0	0	53	4522
2026-01-01 22:17:14.59	123.86	16.44	-41.1	-42.9	18.6	0.00e+00	0	44	0	0	53	4543
2026-01-01 22:17:15.45	124.02	16.39	-41.1	-43.0	18.6	0.00e+00	0	43	0	0	53	4573
2026-01-01 22:17:16.84	124.28	16.30	-41.0	-42.8	18.8	0.00e+00	0	44	0	0	53	4473
2026-01-01 22:17:17.55	124.41	16.26	-41.0	-42.8	18.7	0.00e+00	0	43	0	0	53	4493
2026-01-01 22:17:19.03	124.69	16.16	-40.9	-42.7	18.8	0.00e+00	0	43	0	0	53	4439
2026-01-01 22:17:19.75	124.82	16.12	-41.0	-42.8	18.7	0.00e+00	0	43	0	0	53	4492
2026-01-01 22:17:21.04	125.05	16.04	-41.0	-42.8	18.8	0.00e+00	0	43	0	0	53	4490
2026-01-01 22:17:21.75	125.18	15.99	-41.0	-42.8	18.6	0.00e+00	0	43	0	0	53	4485
2026-01-01 22:17:23.04	125.42	15.91	-41.0	-42.8	18.7	0.00e+00	0	44	0	0	53	4488
2026-01-01 22:17:23.76	125.55	15.87	-41.1	-42.9	18.6	0.00e+00	0	43	0	0	53	4544
2026-01-01 22:17:25.28	125.82	15.77	-41.1	-43.0	18.6	0.00e+00	0	43	0	0	53	4572
2026-01-01 22:17:25.99	125.95	15.73	-41.2	-43.0	18.6	0.00e+00	0	44	0	0	53	4596
2026-01-01 22:17:27.36	126.19	15.64	-41.1	-43.0	18.6	0.00e+00	0	43	0	0	53	4572
2026-01-01 22:17:28.08	126.32	15.59	-41.2	-43.0	18.6	0.00e+00	0	43	0	0	53	4586
2026-01-01 22:17:29.37	126.55	15.51	-41.0	-42.8	18.8	0.00e+00	0	43	0	0	53	4487
2026-01-01 22:17:30.08	126.67	15.47	-41.1	-42.9	18.7	0.00e+00	0	44	0	0	53	4523
2026-01-01 22:17:31.55	126.93	15.37	-41.1	-42.9	18.7	0.00e+00	0	43	0	0	53	4544
2026-01-01 22:17:32.27	127.05	15.33	-41.1	-42.9	18.7	0.00e+00	0	43	0	0	53	4539
2026-01-01 22:17:33.56	127.28	15.24	-41.1	-42.9	18.7	0.00e+00	0	43	0	0	53	4513
2026-01-01 22:17:34.27	127.40	15.20	-41.1	-42.9	18.7	0.00e+00	0	44	0	0	53	4534
2026-01-01 22:17:35.56	127.62	15.11	-41.0	-42.8	18.8	0.00e+00	0	43	0	0	53	4464
2026-01-01 22:17:36.28	127.75	15.07	-41.0	-42.8	18.8	0.00e+00	0	44	0	0	53	4460
2026-01-01 22:17:37.57	127.97	14.99	-41.0	-42.8	18.8	0.00e+00	0	43	0	0	53	4450
2026-01-01 22:17:38.29	128.09	14.94	-40.9	-42.7	18.8	0.00e+00	0	43	0	0	53	4438
2026-01-01 22:17:39.58	128.31	14.86	-41.0	-42.8	18.8	0.00e+00	0	44	0	0	53	4476
2026-01-01 22:17:40.29	128.43	14.81	-41.0	-42.8	18.7	0.00e+00	0	43	0	0	53	4488
2026-01-01 22:17:41.58	128.64	14.73	-41.1	-42.9	18.7	0.00e+00	0	44	0	0	53	4515
2026-01-01 22:17:42.30	128.76	14.68	-41.1	-42.9	18.6	0.00e+00	0	43	0	0	53	4537
2026-01-01 22:17:43.59	128.98	14.60	-41.2	-43.0	18.5	0.00e+00	0	43	0	0	53	4588
2026-01-01 22:17:44.31	129.10	14.55	-41.3	-43.1	18.5	0.00e+00	0	43	0	0	53	4632
2026-01-01 22:17:45.60	129.31	14.47	-41.3	-43.2	18.4	0.00e+00	0	43	0	0	53	4692
2026-01-01 22:17:46.31	129.43	14.42	-41.4	-43.3	18.4	0.00e+00	0	43	0	0	53	4711
2026-01-01 22:17:47.60	129.64	14.34	-41.4	-43.3	18.3	0.00e+00	0	43	0	0	53	4745
2026-01-01 22:17:48.68	129.81	14.27	-41.6	-43.5	18.1	0.00e+00	0	43	0	0	53	4828
2026-01-01 22:17:49.84	130.00	14.19	-41.5	-43.5	18.1	0.00e+00	0	43	0	0	53	4815
2026-01-01 22:17:50.70	130.14	14.14	-41.5	-43.4	18.1	0.00e+00	0	43	0	0	53	4804
2026-01-01 22:17:51.84	130.32	14.06	-41.6	-43.5	18.0	0.00e+00	0	43	0	0	53	4853
2026-01-01 22:17:52.93	130.50	13.99	-41.6	-43.6	18.0	0.00e+00	0	44	0	0	53	4886
2026-01-01 22:17:53.96	130.66	13.92	-41.6	-43.5	18.1	0.00e+00	0	43	0	0	54	4583
2026-01-01 22:17:54.96	130.82	13.86	-41.7	-43.6	17.9	0.00e+00	0	44	0	0	54	4638
2026-01-01 22:17:56.17	131.01	13.78	-41.7	-43.7	17.8	0.00e+00	0	43	0	0	54	4679
2026-01-01 22:17:57.03	131.14	13.72	-41.8	-43.7	17.8	0.00e+00	0	43	0	0	54	4704
2026-01-01 22:17:58.18	131.32	13.65	-41.8	-43.8	17.7	0.00e+00	0	43	0	0	54	4727
2026-01-01 22:17:59.04	131.46	13.59	-41.8	-43.9	17.6	0.00e+00	0	44	0	0	54	4772
2026-01-01 22:18:00.18	131.63	13.52	-41.8	-43.9	17.7	0.00e+00	0	44	0	0	54	4773
2026-01-01 22:18:01.21	131.79	13.45	-41.8	-43.8	17.7	0.00e+00	0	44	0	0	54	4757
2026-01-01 22:18:02.21	131.95	13.39	-41.8	-43.8	17.8	0.00e+00	0	43	0	0	54	4717
2026-01-01 22:18:03.21	132.10	13.32	-41.9	-43.9	17.7	0.00e+00	0	44	0	0	54	4782
2026-01-01 22:18:04.22	132.25	13.26	-41.8	-43.8	17.8	0.00e+00	0	43	0	0	54	4732
2026-01-01 22:18:05.22	132.40	13.19	-41.6	-43.6	18.0	0.00e+00	0	43	0	0	54	4614
2026-01-01 22:18:06.22	132.56	13.13	-41.6	-43.5	18.1	0.00e+00	0	43	0	0	54	4577
2026-01-01 22:18:07.23	132.71	13.06	-41.5	-43.4	18.2	0.00e+00	0	43	0	0	54	4534
2026-01-01 22:18:08.23	132.86	12.99	-41.5	-43.5	18.1	0.00e+00	0	44	0	0	54	4552
2026-01-01 22:18:09.23	133.01	12.93	-41.6	-43.5	18.1	0.00e+00	0	43	0	0	54	4563
2026-01-01 22:18:10.24	133.16	12.86	-41.6	-43.5	18.0	0.00e+00	0	43	0	0	54	4591
2026-01-01 22:18:11.26	133.31	12.80	-41.7	-43.6	18.0	0.00e+00	0	43	0	0	54	4626
2026-01-01 22:18:12.29	133.46	12.73	-41.8	-43.7	17.9	0.00e+00	0	43	0	0	54	4692
2026-01-01 22:18:13.29	133.61	12.66	-41.9	-43.8	17.7	0.00e+00	0	44	0	0	54	4750
2026-01-01 22:18:14.36	133.76	12.59	-41.9	-43.9	17.7	0.00e+00	0	43	0	0	54	4783
2026-01-01 22:18:15.22	133.89	12.54	-42.0	-44.0	17.6	0.00e+00	0	44	0	0	54	4832
2026-01-01 22:18:16.60	134.09	12.45	-42.0	-44.1	17.5	0.00e+00	0	44	0	0	54	4877
2026-01-01 22:18:17.32	134.19	12.40	-42.1	-44.1	17.5	0.00e+00	0	43	0	0	54	4887
2026-01-01 22:18:18.85	134.41	12.30	-42.2	-44.2	17.3	0.00e+00	0	43	0	0	55	4693
2026-01-01 22:18:19.80	134.54	12.24	-42.2	-44.2	17.4	0.00e+00	0	43	0	0	55	4675
2026-01-01 22:18:20.80	134.69	12.17	-42.2	-44.2	17.3	0.00e+00	0	43	0	0	55	4687
2026-01-01 22:18:21.81	134.83	12.11	-42.1	-44.1	17.4	0.00e+00	0	43	0	0	55	4638
2026-01-01 22:18:22.81	134.97	12.04	-42.1	-44.1	17.4	0.00e+00	0	43	0	0	55	4639
2026-01-01 22:18:23.81	135.11	11.98	-42.1	-44.1	17.4	0.00e+00	0	43	0	0	55	4640
2026-01-01 22:18:24.82	135.25	11.91	-42.1	-44.1	17.4	0.00e+00	0	43	0	0	55	4642
2026-01-01 22:18:25.82	135.39	11.85	-42.1	-44.1	17.4	0.00e+00	0	44	0	0	55	4645
2026-01-01 22:18:26.82	135.53	11.78	-42.1	-44.1	17.4	0.00e+00	0	43	0	0	55	4637
2026-01-01 22:18:27.87	135.67	11.71	-42.0	-44.0	17.4	0.00e+00	0	44	0	0	55	4589
2026-01-01 22:18:28.78	135.80	11.65	-41.9	-44.0	17.5	0.00e+00	0	44	0	0	55	4548
2026-01-01 22:18:29.78	135.93	11.59	-42.1	-44.1	17.4	0.00e+00	0	44	0	0	55	4624
2026-01-01 22:18:30.79	136.07	11.52	-42.2	-44.2	17.2	0.00e+00	0	43	0	0	55	4704
2026-01-01 22:18:31.79	136.20	11.46	-42.3	-44.4	17.2	0.00e+00	0	44	0	0	55	4764
2026-01-01 22:18:32.79	136.34	11.39	-42.3	-44.4	17.1	0.00e+00	0	44	0	0	55	4792
2026-01-01 22:18:33.80	136.47	11.33	-42.3	-44.4	17.1	0.00e+00	0	43	0	0	55	4809
2026-01-01 22:18:34.80	136.61	11.26	-42.4	-44.5	17.1	0.00e+00	0	43	0	0	55	4833
2026-01-01 22:18:35.80	136.74	11.20	-42.5	-44.6	17.0	0.00e+00	0	44	0	0	55	4874
2026-01-01 22:18:36.81	136.88	11.13	-42.4	-44.5	17.1	0.00e+00	0	43	0	0	55	4817
2026-01-01 22:18:37.81	137.01	11.07	-42.3	-44.3	17.2	0.00e+00	0	44	0	0	55	4740
2026-01-01 22:18:38.86	137.14	11.00	-42.3	-44.3	17.2	0.00e+00	0	44	0	0	55	4759
2026-01-01 22:18:39.77	137.26	10.94	-42.3	-44.4	17.1	0.00e+00	0	43	0	0	55	4778
2026-01-01 22:18:40.77	137.39	10.88	-42.4	-44.5	17.0	0.00e+00	0	44	0	0	55	4849
2026-01-01 22:18:41.77	137.52	10.81	-42.4	-44.5	17.0	0.00e+00	0	43	0	0	55	4849
2026-01-01 22:18:43.03	137.69	10.73	-42.4	-44.5	17.0	0.00e+00	0	43	0	0	55	4844
2026-01-01 22:18:43.77	137.78	10.68	-42.5	-44.6	16.9	0.00e+00	0	43	0	0	55	4905
2026-01-01 22:18:45.06	137.95	10.60	-42.6	-44.7	16.8	0.00e+00	0	43	0	0	55	4963
2026-01-01 22:18:45.77	138.04	10.55	-42.4	-44.5	17.0	0.00e+00	0	43	0	0	55	4825
2026-01-01 22:18:47.06	138.20	10.47	-42.3	-44.4	17.1	0.00e+00	0	44	0	0	55	4778
2026-01-01 22:18:47.78	138.29	10.43	-42.3	-44.4	17.1	0.00e+00	0	43	0	0	55	4779
2026-01-01 22:18:49.08	138.45	10.34	-42.3	-44.4	17.0	0.00e+00	0	44	0	0	55	4784
2026-01-01 22:18:49.80	138.55	10.30	-42.3	-44.4	17.0	0.00e+00	0	44	0	0	55	4796
2026-01-01 22:18:51.15	138.71	10.21	-42.3	-44.3	17.1	0.00e+00	0	44	0	0	55	4754
2026-01-01 22:18:51.87	138.80	10.16	-42.3	-44.4	17.0	0.00e+00	0	43	0	0	55	4780
2026-01-01 22:18:53.16	138.96	10.08	-42.3	-44.4	17.0	0.00e+00	0	44	0	0	55	4805
2026-01-01 22:18:54.21	139.09	10.01	-42.4	-44.5	16.9	0.00e+00	0	43	0	0	55	4838
2026-01-01 22:18:55.13	139.20	9.95	-42.4	-44.5	16.9	0.00e+00	0	43	0	0	55	4868
2026-01-01 22:18:56.13	139.33	9.89	-42.3	-44.5	16.9	0.00e+00	0	44	0	0	55	4825
2026-01-01 22:18:57.14	139.45	9.83	-42.3	-44.4	17.1	0.00e+00	0	43	0	0	55	4764
2026-01-01 22:18:58.14	139.57	9.76	-42.4	-44.5	16.9	0.00e+00	0	43	0	0	55	4855
2026-01-01 22:18:59.18	139.70	9.70	-42.4	-44.5	16.9	0.00e+00	0	43	0	0	55	4852
2026-01-01 22:19:00.21	139.82	9.63	-42.4	-44.5	16.8	0.00e+00	0	43	0	0	55	4861
2026-01-01 22:19:01.21	139.94	9.57	-42.4	-44.6	16.8	0.00e+00	0	44	0	0	55	4876
2026-01-01 22:19:02.26	140.06	9.50	-42.5	-44.6	16.8	0.00e+00	0	43	0	0	55	4906
2026-01-01 22:19:03.18	140.17	9.44	-42.5	-44.7	16.7	0.00e+00	0	43	0	0	55	4927
2026-01-01 22:19:04.30	140.30	9.37	-42.5	-44.7	16.7	0.00e+00	0	44	0	0	55	4974
2026-01-01 22:19:05.21	140.41	9.31	-42.5	-44.7	16.6	0.00e+00	0	44	0	0	55	4974
2026-01-01 22:19:06.39	140.55	9.24	-42.6	-44.8	16.6	0.00e+00	0	44	0	0	55	4997
2026-01-01 22:19:07.25	140.65	9.18	-42.5	-44.7	16.7	0.00e+00	0	44	0	0	55	4977
2026-01-01 22:19:08.39	140.78	9.11	-42.5	-44.7	16.7	0.00e+00	0	44	0	0	55	4978
2026-01-01 22:19:09.25	140.88	9.06	-42.5	-44.7	16.7	0.00e+00	0	43	0	0	55	4956
2026-01-01 22:19:10.40	141.01	8.98	-42.7	-44.9	16.5	0.00e+00	0	43	0	0	55	5070
2026-01-01 22:19:11.26	141.11	8.93	-49.8	-60.7	4.0	1.49e+00	0	44	104	0	70	13201
2026-01-01 22:19:12.41	141.24	8.86	-50.3	-63.3	3.8	1.49e+00	0	44	104	0	71	16820
2026-01-01 22:19:13.27	141.34	8.80	-50.3	-63.4	3.8	1.49e+00	0	44	104	0	71	16931
2026-01-01 22:19:14.42	141.47	8.73	-50.4	-63.4	3.8	1.49e+00	0	43	104	0	71	17021
2026-01-01 22:19:15.28	141.57	8.68	-50.3	-63.5	3.8	1.49e+00	0	44	104	0	71	17195
2026-01-01 22:19:16.43	141.69	8.60	-50.1	-63.5	3.8	1.49e+00	0	44	104	0	71	17224
2026-01-01 22:19:17.29	141.79	8.55	-50.4	-63.5	3.8	1.49e+00	0	44	104	0	71	17235
2026-01-01 22:19:18.50	141.93	8.47	-50.6	-63.6	3.8	1.49e+00	0	44	104	0	71	17372
2026-01-01 22:19:19.36	142.02	8.42	-50.5	-63.6	3.8	1.49e+00	0	43	104	0	71	17405
2026-01-01 22:19:20.59	142.16	8.34	-50.6	-63.6	3.8	1.49e+00	0	44	104	0	71	17399
2026-01-01 22:19:21.45	142.25	8.29	-50.5	-63.6	3.8	1.49e+00	0	44	104	0	71	17405
2026-01-01 22:19:22.66	142.38	8.22	-50.4	-63.6	3.8	1.49e+00	0	44	104	0	71	17480
2026-01-01 22:19:23.52	142.48	8.16	-50.5	-63.6	3.8	1.49e+00	0	43	104	0	71	17478
2026-01-01 22:19:24.67	142.60	8.09	-50.6	-63.7	3.8	1.49e+00	0	43	104	0	72	16520
2026-01-01 22:19:25.53	142.69	8.04	-50.5	-63.7	3.8	1.49e+00	0	44	104	0	72	16529
2026-01-01 22:19:26.68	142.82	7.97	-50.6	-63.7	3.8	1.49e+00	0	44	104	0	72	16525
2026-01-01 22:19:27.54	142.91	7.91	-50.4	-63.6	3.8	1.49e+00	0	44	104	0	72	16486
2026-01-01 22:19:28.69	143.03	7.84	-50.6	-63.7	3.8	1.49e+00	0	44	104	0	72	16519
2026-01-01 22:19:29.55	143.12	7.79	-50.3	-63.7	3.8	1.49e+00	0	44	104	0	72	16588
2026-01-01 22:19:30.69	143.24	7.72	-50.4	-63.7	3.8	1.49e+00	0	43	104	0	72	16519
2026-01-01 22:19:31.56	143.33	7.66	-50.4	-63.6	3.8	1.49e+00	0	43	104	0	72	16424
2026-01-01 22:19:32.70	143.45	7.59	-50.3	-63.6	3.8	1.49e+00	0	44	104	0	72	16414
2026-01-01 22:19:33.56	143.54	7.54	-50.4	-63.6	3.8	1.49e+00	0	44	104	0	72	16466
2026-01-01 22:19:34.71	143.66	7.47	-50.4	-63.6	3.8	1.49e+00	0	43	104	0	72	16404
2026-01-01 22:19:35.58	143.75	7.42	-50.4	-63.6	3.8	1.49e+00	0	44	104	0	72	16429
2026-01-01 22:19:36.72	143.87	7.35	-50.4	-63.6	3.8	1.49e+00	0	44	104	0	72	16364
2026-01-01 22:19:37.58	143.96	7.29	-50.4	-63.6	3.8	1.49e+00	0	44	104	0	72	16451
2026-01-01 22:19:38.73	144.08	7.22	-50.3	-63.6	3.8	1.49e+00	0	44	104	0	72	16402
2026-01-01 22:19:39.59	144.16	7.17	-50.3	-63.6	3.8	1.49e+00	0	43	104	0	72	16388
2026-01-01 22:19:40.74	144.28	7.10	-50.3	-63.6	3.8	1.49e+00	0	43	104	0	72	16420
2026-01-01 22:19:41.60	144.37	7.05	-50.3	-63.6	3.8	1.49e+00	0	43	104	0	72	16389
2026-01-01 22:19:42.75	144.48	6.98	-50.3	-63.6	3.8	1.49e+00	0	44	104	0	72	16359
2026-01-01 22:19:43.61	144.57	6.92	-50.3	-63.6	3.8	1.49e+00	0	44	104	0	72	16328
2026-01-01 22:19:44.76	144.69	6.86	-50.3	-63.6	3.8	1.49e+00	0	44	104	0	72	16368
2026-01-01 22:19:45.62	144.77	6.80	-50.3	-63.6	3.8	1.49e+00	0	44	104	0	72	16368
2026-01-01 22:19:46.77	144.88	6.73	-50.3	-63.6	3.8	1.49e+00	0	44	104	0	72	16397
2026-01-01 22:19:47.63	144.97	6.68	-50.3	-63.6	3.8	1.49e+00	0	44	104	0	72	16358
2026-01-01 22:19:48.77	145.08	6.61	-50.3	-63.5	3.8	1.49e+00	0	44	104	0	72	16286
2026-01-01 22:19:49.63	145.17	6.56	-50.3	-63.6	3.8	1.49e+00	0	43	104	0	72	16364
2026-01-01 22:19:50.78	145.28	6.49	-50.3	-63.6	3.8	1.49e+00	0	43	104	0	72	16333
2026-01-01 22:19:51.64	145.36	6.44	-50.3	-63.6	3.8	1.49e+00	0	44	104	0	72	16382
2026-01-01 22:19:52.79	145.47	6.37	-50.3	-63.6	3.8	1.49e+00	0	44	104	0	72	16361
2026-01-01 22:19:53.65	145.55	6.32	-50.3	-63.6	3.8	1.49e+00	0	44	104	0	72	16375
2026-01-01 22:19:54.80	145.67	6.25	-50.3	-63.6	3.8	1.49e+00	0	43	104	0	72	16385
2026-01-01 22:19:55.66	145.75	6.20	-50.3	-63.6	3.8	1.49e+00	0	44	104	0	72	16364
2026-01-01 22:19:56.81	145.86	6.13	-50.3	-63.6	3.8	1.49e+00	0	44	104	0	72	16413
2026-01-01 22:19:57.67	145.94	6.08	-50.3	-63.6	3.8	1.49e+00	0	44	104	0	72	16356
2026-01-01 22:19:58.81	146.05	6.01	-50.3	-63.6	3.8	1.49e+00	0	44	104	0	72	16359
2026-01-01 22:19:59.68	146.13	5.96	-50.3	-63.6	3.8	1.49e+00	0	43	104	0	72	16383
2026-01-01 22:20:00.82	146.23	5.89	-50.3	-63.6	3.8	1.49e+00	0	44	104	0	72	16327
2026-01-01 22:20:01.69	146.32	5.84	-50.3	-63.6	3.8	1.49e+00	0	44	104	0	72	16379
2026-01-01 22:20:02.83	146.42	5.77	-50.3	-63.6	3.8	1.49e+00	0	44	104	0	72	16377
2026-01-01 22:20:03.69	146.50	5.72	-50.3	-63.6	3.8	1.49e+00	0	43	104	0	72	16354
2026-01-01 22:20:04.84	146.61	5.65	-50.3	-63.6	3.8	1.49e+00	0	44	104	0	72	16375
2026-01-01 22:20:05.70	146.69	5.60	-50.3	-63.6	3.8	1.49e+00	0	44	104	0	72	16363
2026-01-01 22:20:06.85	146.79	5.53	-50.3	-63.6	3.8	1.49e+00	0	44	104	0	72	16355
2026-01-01 22:20:07.71	146.87	5.48	-50.3	-63.5	3.8	1.49e+00	0	44	104	0	72	16302
2026-01-01 22:20:08.86	146.97	5.41	-50.3	-63.6	3.8	1.49e+00	0	44	104	0	72	16378
2026-01-01 22:20:09.72	147.05	5.36	-50.3	-63.6	3.8	1.49e+00	0	44	104	0	72	16398
2026-01-01 22:20:10.87	147.16	5.29	-50.3	-63.6	3.8	1.49e+00	0	44	104	0	72	16372
2026-01-01 22:20:11.73	147.23	5.24	-50.3	-63.6	3.8	1.49e+00	0	44	104	0	72	16347
2026-01-01 22:20:12.88	147.34	5.17	-50.3	-63.6	3.8	1.49e+00	0	44	104	0	72	16334
2026-01-01 22:20:13.74	147.41	5.12	-50.3	-63.6	3.8	1.49e+00	0	44	104	0	72	16346
2026-01-01 22:20:14.89	147.51	5.06	-50.3	-63.5	3.8	1.49e+00	0	44	104	0	72	16308
2026-01-01 22:20:15.74	147.59	5.01	-50.3	-63.6	3.8	1.49e+00	0	44	104	0	72	16345
2026-01-01 22:20:16.89	147.69	4.94	-50.3	-63.6	3.8	1.49e+00	0	44	104	0	72	16344

#Closed at: 2026-01-01 22:20:17
#Recorded file [0 MB]: D:/Data/31040_260102_010914.dat