passes_logs/2026/01/01/T1/T1__20260101_121137_SUOMI_NPP_rec.log

#Pass ID: 20260101_121137_SUOMI NPP
#Satellite: SUOMI NPP
#Configuration: NPP
#almurnet v.1.7.20251203
#Start time: 2026-01-01 12:11:39

#Version: 2.0.20230620
#Station: T1
#Location: 37.570604 lon 55.790049 lat
#TLE: 1 37849U 11061A   25364.87906317  .00000195  00000+0  11345-3 0  9992
#TLE: 2 37849  98.7794 302.0592 0002571  89.2401 270.9069 14.19520347734561

#Time	Az	El	Level	Level2	SNR	BER	BlckErr	Temp	State	Recorded	gain1	gain2
2026-01-01 12:11:39.73	236.93	5.10	-51.2	-66.6	3.8	1.49e+00	0	36	0	0	73	21932
2026-01-01 12:11:40.73	237.05	5.14	-51.2	-66.6	3.8	1.49e+00	0	36	104	0	74	20691
2026-01-01 12:11:41.74	237.17	5.19	-51.2	-66.6	3.8	1.49e+00	0	36	104	0	74	20660
2026-01-01 12:11:42.74	237.29	5.23	-51.2	-66.6	3.8	1.49e+00	0	36	104	0	74	20560
2026-01-01 12:11:43.74	237.42	5.27	-51.2	-66.6	3.8	1.49e+00	0	36	104	0	74	20640
2026-01-01 12:11:44.75	237.54	5.32	-51.2	-66.6	3.8	1.49e+00	0	36	104	0	74	20684
2026-01-01 12:11:45.75	237.66	5.36	-51.2	-66.6	3.8	1.49e+00	0	37	104	0	74	20554
2026-01-01 12:11:46.75	237.78	5.41	-51.2	-66.5	3.8	1.49e+00	0	37	104	0	74	20473
2026-01-01 12:11:47.76	237.91	5.45	-51.2	-66.7	3.8	1.49e+00	0	36	104	0	74	20853
2026-01-01 12:11:48.76	238.03	5.49	-51.2	-66.6	3.8	1.49e+00	0	36	104	0	74	20666
2026-01-01 12:11:49.77	238.16	5.54	-51.2	-66.6	3.8	1.49e+00	0	36	104	0	74	20637
2026-01-01 12:11:50.77	238.28	5.58	-51.2	-66.6	3.8	1.49e+00	0	37	104	0	74	20565
2026-01-01 12:11:51.78	238.41	5.63	-51.2	-66.6	3.8	1.49e+00	0	37	104	0	74	20554
2026-01-01 12:11:52.78	238.53	5.67	-51.2	-66.6	3.8	1.49e+00	0	37	104	0	74	20620
2026-01-01 12:11:53.78	238.66	5.71	-51.2	-66.6	3.8	1.49e+00	0	37	104	0	74	20609
2026-01-01 12:11:54.79	238.79	5.76	-51.2	-66.6	3.8	1.49e+00	0	37	104	0	74	20647
2026-01-01 12:11:55.79	238.91	5.80	-51.2	-66.6	3.8	1.49e+00	0	37	104	0	74	20643
2026-01-01 12:11:56.80	239.04	5.85	-51.2	-66.6	3.8	1.49e+00	0	37	104	0	74	20700
2026-01-01 12:11:57.80	239.17	5.89	-51.2	-66.6	3.8	1.49e+00	0	37	104	0	74	20670
2026-01-01 12:11:58.80	239.29	5.93	-51.2	-66.6	3.8	1.49e+00	0	37	104	0	74	20602
2026-01-01 12:11:59.81	239.42	5.98	-51.2	-66.6	3.8	1.49e+00	0	37	104	0	74	20596
2026-01-01 12:12:00.81	239.55	6.02	-51.2	-66.6	3.8	1.49e+00	0	37	104	0	74	20541
2026-01-01 12:12:01.81	239.68	6.06	-51.2	-66.6	3.8	1.49e+00	0	37	104	0	74	20604
2026-01-01 12:12:02.82	239.81	6.11	-51.2	-66.6	3.8	1.49e+00	0	37	104	0	74	20623
2026-01-01 12:12:03.82	239.94	6.15	-51.2	-66.6	3.8	1.49e+00	0	37	104	0	74	20692
2026-01-01 12:12:04.83	240.07	6.19	-51.2	-66.6	3.8	1.49e+00	0	37	104	0	74	20705
2026-01-01 12:12:05.83	240.20	6.24	-51.2	-66.6	3.8	1.49e+00	0	37	104	0	74	20596
2026-01-01 12:12:06.84	240.33	6.28	-51.2	-66.6	3.8	1.49e+00	0	37	104	0	74	20635
2026-01-01 12:12:07.84	240.46	6.32	-51.2	-66.6	3.8	1.49e+00	0	37	104	0	74	20605
2026-01-01 12:12:08.84	240.59	6.37	-51.2	-66.6	3.8	1.49e+00	0	37	104	0	74	20618
2026-01-01 12:12:09.85	240.72	6.41	-51.2	-66.6	3.8	1.49e+00	0	37	104	0	74	20609
2026-01-01 12:12:10.85	240.86	6.45	-51.2	-66.6	3.8	1.49e+00	0	37	104	0	74	20727
2026-01-01 12:12:11.86	240.99	6.50	-51.2	-66.6	3.8	1.49e+00	0	37	104	0	74	20552
2026-01-01 12:12:12.86	241.12	6.54	-51.2	-66.6	3.8	1.49e+00	0	37	104	0	74	20589
2026-01-01 12:12:13.86	241.25	6.58	-51.3	-66.7	3.8	1.49e+00	0	37	104	0	74	20857
2026-01-01 12:12:14.86	241.39	6.62	-51.2	-66.6	3.8	1.49e+00	0	37	104	0	74	20760
2026-01-01 12:12:15.87	241.52	6.67	-51.3	-66.7	3.8	1.49e+00	0	37	104	0	74	20780
2026-01-01 12:12:16.87	241.66	6.71	-51.3	-66.6	3.8	1.49e+00	0	37	104	0	74	20754
2026-01-01 12:12:17.87	241.79	6.75	-51.2	-66.6	3.8	1.49e+00	0	37	104	0	74	20699
2026-01-01 12:12:18.88	241.93	6.79	-51.3	-66.6	3.8	1.49e+00	0	37	104	0	74	20666
2026-01-01 12:12:19.88	242.06	6.84	-51.3	-66.6	3.8	1.49e+00	0	37	104	0	74	20620
2026-01-01 12:12:20.89	242.20	6.88	-51.2	-66.5	3.8	1.49e+00	0	38	104	0	74	20483
2026-01-01 12:12:21.89	242.34	6.92	-51.2	-66.5	3.8	1.49e+00	0	38	104	0	74	20525
2026-01-01 12:12:22.90	242.47	6.96	-51.3	-66.6	3.8	1.49e+00	0	38	104	0	74	20669
2026-01-01 12:12:23.90	242.61	7.01	-51.3	-66.6	3.8	1.49e+00	0	37	104	0	74	20646
2026-01-01 12:12:24.91	242.75	7.05	-51.2	-66.6	3.8	1.49e+00	0	37	104	0	74	20647
2026-01-01 12:12:25.91	242.89	7.09	-51.2	-66.6	3.8	1.49e+00	0	38	104	0	74	20698
2026-01-01 12:12:26.91	243.02	7.13	-51.3	-66.6	3.8	1.49e+00	0	38	104	0	74	20659
2026-01-01 12:12:27.92	243.16	7.17	-51.2	-66.6	3.8	1.49e+00	0	38	104	0	74	20652
2026-01-01 12:12:28.92	243.30	7.22	-51.3	-66.6	3.8	1.49e+00	0	38	104	0	74	20680
2026-01-01 12:12:29.93	243.44	7.26	-51.3	-66.6	3.8	1.49e+00	0	38	104	0	74	20772
2026-01-01 12:12:30.93	243.58	7.30	-51.3	-66.6	3.8	1.49e+00	0	38	104	0	74	20743
2026-01-01 12:12:31.94	243.72	7.34	-51.2	-66.6	3.8	1.49e+00	0	38	104	0	74	20680
2026-01-01 12:12:32.94	243.86	7.38	-51.2	-66.5	3.8	1.49e+00	0	38	104	0	74	20489
2026-01-01 12:12:33.94	244.00	7.42	-51.2	-66.5	3.8	1.49e+00	0	38	104	0	74	20356
2026-01-01 12:12:34.95	244.14	7.47	-51.2	-66.5	3.8	1.49e+00	0	38	104	0	74	20325
2026-01-01 12:12:35.95	244.29	7.51	-51.2	-66.4	3.8	1.49e+00	0	38	104	0	74	20205
2026-01-01 12:12:36.96	244.43	7.55	-51.2	-66.4	3.8	1.49e+00	0	38	104	0	74	20239
2026-01-01 12:12:37.96	244.57	7.59	-51.3	-66.5	3.8	1.49e+00	0	38	104	0	74	20503
2026-01-01 12:12:38.96	244.71	7.63	-51.2	-66.5	3.8	1.49e+00	0	38	104	0	74	20456
2026-01-01 12:12:39.97	244.86	7.67	-51.3	-66.5	3.8	1.49e+00	0	38	104	0	74	20412
2026-01-01 12:12:40.97	245.00	7.71	-51.2	-66.5	3.8	1.49e+00	0	38	104	0	74	20340
2026-01-01 12:12:41.98	245.15	7.75	-51.2	-66.4	3.8	1.49e+00	0	37	104	0	74	20179
2026-01-01 12:12:42.98	245.29	7.79	-51.2	-66.4	3.8	1.49e+00	0	38	104	0	74	20207
2026-01-01 12:12:43.98	245.43	7.83	-51.2	-66.5	3.8	1.49e+00	0	38	104	0	74	20430
2026-01-01 12:12:44.99	245.58	7.87	-51.2	-66.6	3.8	1.49e+00	0	38	104	0	74	20621
2026-01-01 12:12:45.99	245.73	7.91	-51.2	-66.6	3.8	1.49e+00	0	38	104	0	74	20595
2026-01-01 12:12:47.00	245.87	7.95	-51.2	-66.6	3.8	1.49e+00	0	38	104	0	74	20637
2026-01-01 12:12:48.00	246.02	7.99	-51.2	-66.6	3.8	1.49e+00	0	38	104	0	74	20585
2026-01-01 12:12:49.01	246.17	8.04	-51.3	-66.6	3.8	1.49e+00	0	38	104	0	74	20772
2026-01-01 12:12:50.01	246.31	8.07	-51.3	-66.6	3.8	1.49e+00	0	38	104	0	74	20610
2026-01-01 12:12:51.01	246.46	8.11	-51.3	-66.6	3.8	1.49e+00	0	38	104	0	74	20616
2026-01-01 12:12:52.02	246.61	8.15	-51.3	-66.6	3.8	1.49e+00	0	38	104	0	74	20767
2026-01-01 12:12:53.02	246.76	8.19	-51.2	-66.6	3.8	1.49e+00	0	38	104	0	74	20627
2026-01-01 12:12:54.02	246.91	8.23	-51.2	-66.5	3.8	1.49e+00	0	38	104	0	74	20428
2026-01-01 12:12:55.03	247.06	8.27	-51.2	-66.5	3.8	1.49e+00	0	38	104	0	74	20421
2026-01-01 12:12:56.03	247.20	8.31	-51.3	-66.6	3.8	1.49e+00	0	38	104	0	74	20741
2026-01-01 12:12:57.04	247.36	8.35	-51.2	-66.2	3.8	1.49e+00	0	38	104	0	74	19644
2026-01-01 12:12:58.04	247.51	8.39	-51.2	-64.8	3.8	1.49e+00	0	38	104	0	74	16874
2026-01-01 12:12:59.04	247.66	8.43	-50.9	-62.7	4.3	1.45e+00	0	38	0	0	73	13919
2026-01-01 12:13:00.05	247.81	8.47	-50.8	-61.0	5.0	9.05e-01	0	38	0	1048576	73	11426
2026-01-01 12:13:01.05	247.96	8.51	-50.7	-60.4	5.3	6.19e-01	0	38	0	3145728	73	10759
2026-01-01 12:13:02.06	248.11	8.55	-50.8	-61.1	4.9	6.26e-01	0	38	0	5242880	73	11674
2026-01-01 12:13:03.06	248.26	8.59	-51.0	-62.8	4.2	9.85e-01	0	38	0	6291456	73	14060
2026-01-01 12:13:04.06	248.42	8.62	-51.0	-63.1	4.1	1.42e+00	0	38	0	6291456	73	14613
2026-01-01 12:13:05.07	248.57	8.66	-50.6	-59.8	5.7	6.54e-01	0	38	0	8388608	73	9970
2026-01-01 12:13:06.07	248.72	8.70	-49.7	-56.0	9.2	8.09e-02	0	38	0	10485760	71	7238
2026-01-01 12:13:07.08	248.88	8.74	-48.6	-53.3	12.0	3.26e-03	0	38	0	11534336	69	5962
2026-01-01 12:13:08.08	249.03	8.78	-47.5	-51.3	13.9	7.60e-06	0	38	0	13631488	67	5333
2026-01-01 12:13:09.08	249.18	8.81	-46.9	-50.3	14.9	7.00e-07	0	38	0	15728640	65	5309
2026-01-01 12:13:10.09	249.34	8.85	-46.7	-50.0	15.2	0.00e+00	0	38	0	17825792	65	5124
2026-01-01 12:13:11.09	249.50	8.89	-46.9	-50.4	14.8	0.00e+00	0	38	0	19922944	65	5380
2026-01-01 12:13:12.10	249.65	8.93	-47.6	-51.4	13.9	0.00e+00	0	38	0	20971520	65	6027
2026-01-01 12:13:13.10	249.81	8.97	-48.3	-52.7	12.6	2.59e-05	0	38	0	23068672	67	6268
2026-01-01 12:13:14.10	249.96	9.00	-49.3	-54.8	10.6	5.33e-04	0	38	0	25165824	69	7056
2026-01-01 12:13:15.11	250.12	9.04	-50.0	-56.9	8.4	2.49e-02	0	38	0	27262976	70	8493
2026-01-01 12:13:16.11	250.28	9.08	-49.8	-56.0	9.2	3.01e-02	0	38	0	29360128	70	7676
2026-01-01 12:13:17.11	250.44	9.11	-49.6	-55.4	9.9	1.25e-02	0	38	0	30408704	70	7148
2026-01-01 12:13:18.11	250.59	9.15	-49.5	-55.4	9.8	7.90e-03	0	38	0	32505856	70	7160
2026-01-01 12:13:19.11	250.75	9.19	-49.1	-54.3	11.0	3.16e-03	0	38	0	34603008	70	6321
2026-01-01 12:13:20.11	250.91	9.22	-48.6	-53.3	12.1	7.86e-04	0	38	0	36700160	69	5950
2026-01-01 12:13:21.12	251.07	9.26	-48.7	-53.4	11.9	3.95e-04	0	38	0	37748736	69	6051
2026-01-01 12:13:22.12	251.23	9.30	-48.5	-53.1	12.3	1.59e-04	0	38	0	39845888	69	5814
2026-01-01 12:13:23.12	251.39	9.33	-48.2	-52.4	13.0	1.01e-04	0	38	0	41943040	68	5687
2026-01-01 12:13:24.12	251.55	9.37	-47.8	-51.7	13.5	1.44e-05	0	38	0	44040192	67	5592
2026-01-01 12:13:25.12	251.71	9.40	-47.8	-51.9	13.4	1.22e-05	0	38	0	46137344	67	5659
2026-01-01 12:13:26.12	251.87	9.44	-47.7	-51.5	13.7	3.80e-06	0	38	0	47185920	67	5455
2026-01-01 12:13:27.12	252.03	9.47	-47.9	-51.8	13.5	8.30e-06	0	38	0	49283072	67	5652
2026-01-01 12:13:28.12	252.19	9.51	-47.8	-51.9	13.4	1.06e-05	0	38	0	51380224	67	5676
2026-01-01 12:13:29.12	252.35	9.54	-47.5	-51.3	14.0	7.00e-07	0	38	0	53477376	66	5629
2026-01-01 12:13:30.13	252.52	9.58	-47.3	-51.0	14.3	1.50e-06	0	38	0	55574528	66	5457
2026-01-01 12:13:31.13	252.68	9.61	-47.3	-51.1	14.2	1.50e-06	0	38	0	56623104	66	5506
2026-01-01 12:13:32.13	252.84	9.65	-47.5	-51.3	14.0	3.80e-06	0	38	0	58720256	66	5632
2026-01-01 12:13:33.13	253.01	9.68	-47.6	-51.4	13.9	3.80e-06	0	38	0	60817408	66	5664
2026-01-01 12:13:34.13	253.17	9.72	-47.6	-51.3	14.0	3.00e-06	0	38	0	62914560	66	5652
2026-01-01 12:13:35.13	253.33	9.75	-47.5	-51.2	14.1	1.50e-06	0	38	0	65011712	66	5548
2026-01-01 12:13:36.13	253.50	9.78	-47.7	-51.5	13.9	0.00e+00	0	38	0	66060288	66	5736
2026-01-01 12:13:37.13	253.66	9.82	-47.7	-51.5	13.8	1.50e-06	0	38	0	68157440	66	5744
2026-01-01 12:13:38.13	253.83	9.85	-47.8	-51.6	13.8	7.60e-06	0	38	0	70254592	66	5816
2026-01-01 12:13:39.14	253.99	9.89	-47.8	-51.7	13.6	1.14e-05	0	38	0	72351744	66	5896
2026-01-01 12:13:40.14	254.16	9.92	-47.6	-51.5	13.9	6.10e-06	0	38	0	74448896	66	5724
2026-01-01 12:13:41.14	254.33	9.95	-47.6	-51.4	13.8	4.50e-06	0	38	0	75497472	66	5714
2026-01-01 12:13:42.14	254.49	9.99	-47.6	-51.6	13.8	3.80e-06	0	38	0	77594624	66	5813
2026-01-01 12:13:43.14	254.66	10.02	-47.6	-51.6	13.7	3.80e-06	0	38	0	79691776	66	5849
2026-01-01 12:13:44.14	254.83	10.05	-47.6	-51.6	13.7	1.50e-06	0	38	0	81788928	66	5845
2026-01-01 12:13:45.15	255.00	10.08	-47.4	-51.4	13.9	3.80e-06	0	38	0	82837504	66	5657
2026-01-01 12:13:46.15	255.16	10.12	-47.4	-51.2	14.1	1.50e-06	0	38	0	84934656	66	5562
2026-01-01 12:13:47.15	255.33	10.15	-47.4	-51.3	14.1	3.80e-06	0	38	0	87031808	66	5600
2026-01-01 12:13:48.15	255.50	10.18	-47.4	-51.1	14.1	7.00e-07	0	38	0	89128960	66	5528
2026-01-01 12:13:49.15	255.67	10.21	-47.4	-51.2	14.1	2.20e-06	0	38	0	91226112	66	5555
2026-01-01 12:13:50.15	255.84	10.24	-47.4	-51.2	14.1	7.00e-07	0	38	0	92274688	66	5551
2026-01-01 12:13:51.15	256.01	10.27	-47.2	-50.8	14.5	7.00e-07	0	38	0	94371840	66	5340
2026-01-01 12:13:52.15	256.18	10.31	-47.2	-50.9	14.5	0.00e+00	0	38	0	96468992	66	5362
2026-01-01 12:13:53.15	256.35	10.34	-47.2	-50.8	14.5	1.50e-06	0	38	0	98566144	66	5312
2026-01-01 12:13:54.16	256.52	10.37	-47.2	-50.8	14.5	7.00e-07	0	38	0	100663296	66	5305
2026-01-01 12:13:55.16	256.69	10.40	-47.3	-50.9	14.4	0.00e+00	0	38	0	101711872	66	5398
2026-01-01 12:13:56.16	256.86	10.43	-47.2	-50.9	14.5	0.00e+00	0	39	0	103809024	66	5371
2026-01-01 12:13:57.16	257.04	10.46	-47.2	-50.8	14.5	7.00e-07	0	38	0	105906176	66	5321
2026-01-01 12:13:58.16	257.21	10.49	-47.2	-50.7	14.7	7.00e-07	0	38	0	108003328	66	5261
2026-01-01 12:13:59.16	257.38	10.52	-47.4	-51.0	14.4	1.50e-06	0	38	0	110100480	66	5420
2026-01-01 12:14:00.16	257.55	10.55	-47.3	-50.8	14.6	0.00e+00	0	38	0	111149056	66	5284
2026-01-01 12:14:01.16	257.73	10.58	-47.3	-50.8	14.5	7.00e-07	0	38	0	113246208	66	5320
2026-01-01 12:14:02.16	257.90	10.61	-47.1	-50.6	14.7	0.00e+00	0	38	0	115343360	66	5160
2026-01-01 12:14:03.17	258.08	10.64	-47.0	-50.4	14.9	0.00e+00	0	38	0	117440512	66	5079
2026-01-01 12:14:04.17	258.25	10.67	-46.9	-50.3	15.0	7.00e-07	0	38	0	118489088	65	5294
2026-01-01 12:14:05.17	258.43	10.69	-46.8	-50.0	15.2	0.00e+00	0	38	0	120586240	65	5158
2026-01-01 12:14:06.17	258.60	10.72	-46.6	-49.9	15.4	0.00e+00	0	38	0	122683392	65	5080
2026-01-01 12:14:07.17	258.78	10.75	-46.6	-50.0	15.3	0.00e+00	0	38	0	124780544	65	5104
2026-01-01 12:14:08.17	258.95	10.78	-46.8	-50.2	15.2	0.00e+00	0	38	0	126877696	65	5239
2026-01-01 12:14:09.17	259.13	10.81	-46.8	-50.2	15.1	7.00e-07	0	39	0	127926272	65	5248
2026-01-01 12:14:10.16	259.30	10.83	-46.8	-50.2	15.1	0.00e+00	0	39	0	130023424	65	5264
2026-01-01 12:14:11.16	259.48	10.86	-47.0	-50.5	14.8	0.00e+00	0	38	0	132120576	65	5454
2026-01-01 12:14:12.17	259.66	10.89	-47.1	-50.7	14.7	0.00e+00	0	38	0	134217728	65	5533
2026-01-01 12:14:13.17	259.83	10.92	-47.1	-50.6	14.7	0.00e+00	0	38	0	136314880	65	5512
2026-01-01 12:14:14.17	260.01	10.94	-47.1	-50.6	14.8	0.00e+00	0	38	0	137363456	65	5477
2026-01-01 12:14:15.17	260.19	10.97	-47.1	-50.7	14.7	0.00e+00	0	39	0	139460608	65	5531
2026-01-01 12:14:16.18	260.37	11.00	-47.1	-50.5	14.8	7.00e-07	0	38	0	141557760	65	5454
2026-01-01 12:14:17.18	260.55	11.02	-47.1	-50.5	14.9	0.00e+00	0	38	0	143654912	65	5419
2026-01-01 12:14:18.18	260.73	11.05	-47.2	-50.7	14.8	0.00e+00	0	38	0	145752064	65	5547
2026-01-01 12:14:19.18	260.90	11.07	-47.2	-50.7	14.6	0.00e+00	0	38	0	146800640	65	5576
2026-01-01 12:14:20.18	261.08	11.10	-47.1	-50.5	14.9	0.00e+00	0	38	0	148897792	65	5462
2026-01-01 12:14:21.18	261.26	11.13	-47.0	-50.3	15.1	7.00e-07	0	38	0	150994944	65	5311
2026-01-01 12:14:22.18	261.44	11.15	-47.1	-50.4	14.9	0.00e+00	0	38	0	153092096	65	5390
2026-01-01 12:14:23.18	261.62	11.18	-47.0	-50.2	15.2	0.00e+00	0	38	0	154140672	65	5275
2026-01-01 12:14:24.18	261.80	11.20	-46.9	-50.2	15.1	0.00e+00	0	38	0	156237824	65	5254
2026-01-01 12:14:25.19	261.99	11.22	-46.8	-50.0	15.3	0.00e+00	0	38	0	158334976	65	5148
2026-01-01 12:14:26.19	262.17	11.25	-46.7	-49.9	15.5	0.00e+00	0	39	0	160432128	65	5064
2026-01-01 12:14:27.19	262.35	11.27	-46.7	-49.9	15.6	0.00e+00	0	38	0	162529280	65	5044
2026-01-01 12:14:28.19	262.53	11.30	-46.7	-49.8	15.6	0.00e+00	0	38	0	163577856	65	5035
2026-01-01 12:14:29.18	262.71	11.32	-46.7	-49.9	15.5	0.00e+00	0	39	0	165675008	65	5067
2026-01-01 12:14:30.18	262.89	11.34	-46.7	-50.0	15.5	0.00e+00	0	39	0	167772160	65	5103
2026-01-01 12:14:31.19	263.08	11.37	-47.0	-50.4	15.0	0.00e+00	0	38	0	169869312	65	5390
2026-01-01 12:14:32.18	263.26	11.39	-47.0	-50.4	15.0	0.00e+00	0	38	0	171966464	65	5379
2026-01-01 12:14:33.18	263.44	11.41	-47.2	-50.6	14.8	0.00e+00	0	38	0	173015040	65	5511
2026-01-01 12:14:34.18	263.62	11.43	-47.2	-50.7	14.7	0.00e+00	0	39	0	175112192	65	5542
2026-01-01 12:14:35.18	263.81	11.45	-47.4	-51.0	14.4	1.50e-06	0	39	0	177209344	65	5731
2026-01-01 12:14:36.18	263.99	11.48	-47.4	-50.9	14.5	0.00e+00	0	38	0	179306496	65	5680
2026-01-01 12:14:37.18	264.17	11.50	-47.1	-50.4	14.9	7.00e-07	0	38	0	180355072	65	5390
2026-01-01 12:14:38.18	264.36	11.52	-47.1	-50.4	15.0	0.00e+00	0	38	0	182452224	65	5369
2026-01-01 12:14:39.18	264.54	11.54	-46.9	-50.1	15.3	0.00e+00	0	38	0	184549376	65	5199
2026-01-01 12:14:40.18	264.73	11.56	-46.7	-49.8	15.6	0.00e+00	0	39	0	186646528	65	5040
2026-01-01 12:14:41.18	264.91	11.58	-46.7	-49.8	15.7	0.00e+00	0	38	0	188743680	65	4984
2026-01-01 12:14:42.18	265.10	11.60	-46.7	-49.8	15.6	0.00e+00	0	39	0	189792256	65	5023
2026-01-01 12:14:43.18	265.28	11.62	-47.2	-50.6	15.1	0.00e+00	0	38	0	191889408	65	5476
2026-01-01 12:14:44.18	265.47	11.64	-47.1	-50.5	15.0	0.00e+00	0	39	0	193986560	65	5410
2026-01-01 12:14:45.18	265.66	11.66	-47.0	-50.4	15.0	0.00e+00	0	39	0	196083712	65	5356
2026-01-01 12:14:46.18	265.84	11.68	-46.9	-50.2	15.1	0.00e+00	0	38	0	198180864	65	5256
2026-01-01 12:14:47.18	266.03	11.70	-46.7	-49.9	15.4	0.00e+00	0	38	0	199229440	65	5051
2026-01-01 12:14:48.18	266.22	11.72	-46.4	-49.5	15.9	0.00e+00	0	38	0	201326592	64	5104
2026-01-01 12:14:49.19	266.40	11.74	-46.2	-49.2	16.1	0.00e+00	0	39	0	203423744	64	4970
2026-01-01 12:14:50.19	266.59	11.76	-46.1	-49.1	16.2	0.00e+00	0	38	0	205520896	64	4890
2026-01-01 12:14:51.19	266.78	11.77	-46.2	-49.1	16.2	0.00e+00	0	38	0	207618048	64	4925
2026-01-01 12:14:52.19	266.97	11.79	-46.3	-49.3	16.0	0.00e+00	0	39	0	208666624	64	5017
2026-01-01 12:14:53.19	267.15	11.81	-46.6	-49.9	15.5	0.00e+00	0	38	0	210763776	64	5345
2026-01-01 12:14:54.19	267.34	11.83	-46.9	-50.3	15.1	0.00e+00	0	38	0	212860928	64	5647
2026-01-01 12:14:55.19	267.53	11.84	-47.0	-50.5	14.9	7.00e-07	0	39	0	214958080	64	5758
2026-01-01 12:14:56.19	267.72	11.86	-47.1	-50.5	14.9	0.00e+00	0	39	0	217055232	64	5746
2026-01-01 12:14:57.19	267.91	11.88	-46.9	-50.1	15.2	0.00e+00	0	38	0	218103808	64	5514
2026-01-01 12:14:58.20	268.10	11.89	-46.8	-50.1	15.3	0.00e+00	0	38	0	220200960	64	5487
2026-01-01 12:14:59.20	268.29	11.91	-46.7	-49.9	15.4	0.00e+00	0	38	0	222298112	64	5378
2026-01-01 12:15:00.20	268.48	11.92	-46.9	-50.2	15.2	0.00e+00	0	39	0	224395264	64	5559
2026-01-01 12:15:01.20	268.67	11.94	-47.2	-50.6	14.8	0.00e+00	0	39	0	225443840	65	5506
2026-01-01 12:15:02.20	268.86	11.95	-47.7	-51.4	14.0	1.50e-06	0	38	0	227540992	66	5676
2026-01-01 12:15:03.20	269.05	11.97	-48.0	-51.8	13.6	3.80e-06	0	39	0	229638144	66	5970
2026-01-01 12:15:04.20	269.24	11.98	-48.1	-52.1	13.3	1.06e-05	0	38	0	231735296	66	6135
2026-01-01 12:15:05.20	269.43	12.00	-48.1	-52.1	13.3	3.05e-05	0	38	0	233832448	67	5793
2026-01-01 12:15:06.20	269.62	12.01	-47.9	-51.7	13.7	3.80e-06	0	39	0	234881024	67	5570
2026-01-01 12:15:07.20	269.81	12.02	-47.7	-51.3	14.0	1.50e-06	0	38	0	236978176	67	5339
2026-01-01 12:15:08.20	270.00	12.04	-47.4	-50.9	14.5	0.00e+00	0	39	0	239075328	66	5368
2026-01-01 12:15:09.20	270.19	12.05	-47.4	-50.9	14.5	0.00e+00	0	39	0	241172480	66	5348
2026-01-01 12:15:10.20	270.38	12.06	-47.3	-50.6	14.8	0.00e+00	0	39	0	243269632	66	5209
2026-01-01 12:15:11.19	270.57	12.08	-47.3	-50.7	14.8	0.00e+00	0	39	0	244318208	66	5254
2026-01-01 12:15:12.19	270.76	12.09	-47.5	-51.0	14.5	0.00e+00	0	38	0	246415360	66	5457
2026-01-01 12:15:13.19	270.95	12.10	-47.7	-51.4	14.1	1.50e-06	0	39	0	248512512	66	5657
2026-01-01 12:15:14.19	271.14	12.11	-47.9	-51.6	13.8	3.80e-06	0	39	0	250609664	66	5855
2026-01-01 12:15:15.19	271.33	12.12	-47.9	-51.7	13.8	4.50e-06	0	39	0	252706816	66	5902
2026-01-01 12:15:16.19	271.53	12.13	-47.8	-51.6	13.9	3.00e-06	0	39	0	253755392	66	5805
2026-01-01 12:15:17.19	271.72	12.14	-47.5	-51.1	14.4	2.20e-06	0	39	0	255852544	66	5471
2026-01-01 12:15:18.20	271.91	12.16	-47.7	-51.4	14.2	7.00e-07	0	39	0	257949696	66	5662
2026-01-01 12:15:19.20	272.10	12.17	-47.7	-51.4	14.1	1.50e-06	0	38	0	260046848	66	5683
2026-01-01 12:15:20.20	272.30	12.18	-47.9	-51.7	13.8	2.20e-06	0	39	0	261095424	66	5876
2026-01-01 12:15:21.20	272.49	12.19	-48.0	-51.9	13.5	4.50e-06	0	39	0	263192576	66	6025
2026-01-01 12:15:22.20	272.68	12.19	-48.2	-52.3	13.1	1.90e-05	0	39	0	265289728	67	5983
2026-01-01 12:15:23.21	272.88	12.20	-48.3	-52.5	13.0	3.43e-05	0	39	0	267386880	67	6081
2026-01-01 12:15:24.21	273.07	12.21	-48.2	-52.3	13.1	3.96e-05	0	39	0	269484032	67	5929
2026-01-01 12:15:25.21	273.26	12.22	-48.1	-52.1	13.3	2.74e-05	0	39	0	270532608	67	5828
2026-01-01 12:15:26.22	273.46	12.23	-47.9	-51.7	13.8	1.14e-05	0	39	0	272629760	67	5542
2026-01-01 12:15:27.22	273.65	12.24	-47.6	-51.2	14.3	2.20e-06	0	38	0	274726912	67	5259
2026-01-01 12:15:28.22	273.84	12.24	-47.4	-50.8	14.6	0.00e+00	0	39	0	276824064	66	5340
2026-01-01 12:15:29.22	274.04	12.25	-47.2	-50.6	14.9	7.00e-07	0	39	0	278921216	66	5181
2026-01-01 12:15:30.23	274.23	12.26	-47.2	-50.6	14.8	0.00e+00	0	39	0	279969792	66	5199
2026-01-01 12:15:31.23	274.43	12.27	-47.2	-50.5	14.9	0.00e+00	0	38	0	282066944	66	5154
2026-01-01 12:15:32.23	274.62	12.27	-47.3	-50.7	14.8	0.00e+00	0	39	0	284164096	66	5268
2026-01-01 12:15:33.23	274.81	12.28	-47.4	-50.9	14.6	7.00e-07	0	39	0	286261248	66	5341
2026-01-01 12:15:34.23	275.01	12.28	-47.3	-50.8	14.7	0.00e+00	0	39	0	287309824	66	5288
2026-01-01 12:15:35.23	275.20	12.29	-47.2	-50.5	14.9	0.00e+00	0	38	0	289406976	66	5153
2026-01-01 12:15:36.23	275.39	12.30	-46.9	-50.3	15.1	0.00e+00	0	39	0	291504128	65	5292
2026-01-01 12:15:37.23	275.59	12.30	-46.8	-50.0	15.4	0.00e+00	0	38	0	293601280	65	5158
2026-01-01 12:15:38.23	275.78	12.31	-46.7	-49.9	15.6	0.00e+00	0	39	0	295698432	65	5057
2026-01-01 12:15:39.23	275.98	12.31	-46.5	-49.6	15.8	0.00e+00	0	39	0	296747008	65	4875
2026-01-01 12:15:40.24	276.17	12.31	-46.4	-49.5	15.9	0.00e+00	0	39	0	298844160	64	5115
2026-01-01 12:15:41.23	276.36	12.32	-46.5	-49.5	15.9	0.00e+00	0	39	0	300941312	64	5111
2026-01-01 12:15:42.24	276.56	12.32	-46.5	-49.5	16.0	0.00e+00	0	39	0	303038464	64	5130
2026-01-01 12:15:43.24	276.76	12.32	-46.4	-49.4	15.9	0.00e+00	0	39	0	305135616	64	5088
2026-01-01 12:15:44.24	276.95	12.33	-46.4	-49.5	15.9	0.00e+00	0	39	0	306184192	64	5124
2026-01-01 12:15:45.24	277.14	12.33	-46.3	-49.3	16.1	0.00e+00	0	38	0	308281344	64	5005
2026-01-01 12:15:46.24	277.34	12.33	-46.2	-49.3	16.2	0.00e+00	0	39	0	310378496	64	4986
2026-01-01 12:15:47.24	277.53	12.33	-46.2	-49.2	16.2	0.00e+00	0	39	0	312475648	64	4968
2026-01-01 12:15:48.24	277.73	12.34	-46.4	-49.4	16.0	0.00e+00	0	39	0	314572800	64	5089
2026-01-01 12:15:49.24	277.92	12.34	-46.4	-49.4	16.0	0.00e+00	0	38	0	315621376	64	5073
2026-01-01 12:15:50.24	278.12	12.34	-46.6	-49.7	15.7	0.00e+00	0	38	0	317718528	64	5234
2026-01-01 12:15:51.24	278.31	12.34	-46.6	-49.7	15.7	0.00e+00	0	39	0	319815680	64	5258
2026-01-01 12:15:52.24	278.50	12.34	-46.6	-49.7	15.7	0.00e+00	0	39	0	321912832	64	5231
2026-01-01 12:15:53.24	278.70	12.34	-46.6	-49.8	15.6	0.00e+00	0	39	0	324009984	64	5291
2026-01-01 12:15:54.24	278.89	12.34	-46.5	-49.6	15.8	0.00e+00	0	39	0	325058560	64	5204
2026-01-01 12:15:55.24	279.09	12.34	-46.4	-49.4	15.9	0.00e+00	0	39	0	327155712	64	5096
2026-01-01 12:15:56.24	279.28	12.34	-46.4	-49.4	16.0	0.00e+00	0	39	0	329252864	64	5077
2026-01-01 12:15:57.24	279.48	12.34	-46.3	-49.4	16.0	0.00e+00	0	39	0	331350016	64	5065
2026-01-01 12:15:58.25	279.67	12.34	-46.3	-49.4	16.0	0.00e+00	0	39	0	332398592	64	5049
2026-01-01 12:15:59.24	279.86	12.34	-46.5	-49.6	15.9	0.00e+00	0	39	0	334495744	64	5172
2026-01-01 12:16:00.25	280.06	12.33	-46.4	-49.5	15.9	0.00e+00	0	39	0	336592896	64	5126
2026-01-01 12:16:01.25	280.26	12.33	-46.5	-49.5	15.8	0.00e+00	0	39	0	338690048	64	5158
2026-01-01 12:16:02.26	280.45	12.33	-46.4	-49.4	15.9	0.00e+00	0	39	0	340787200	64	5073
2026-01-01 12:16:03.26	280.65	12.33	-46.5	-49.5	15.9	0.00e+00	0	39	0	341835776	64	5134
2026-01-01 12:16:04.26	280.84	12.32	-46.4	-49.4	16.0	0.00e+00	0	39	0	343932928	64	5066
2026-01-01 12:16:05.26	281.03	12.32	-46.3	-49.3	16.1	0.00e+00	0	39	0	346030080	64	5012
2026-01-01 12:16:06.27	281.23	12.32	-46.4	-49.4	16.0	0.00e+00	0	39	0	348127232	64	5053
2026-01-01 12:16:07.27	281.42	12.31	-46.4	-49.4	16.0	0.00e+00	0	39	0	350224384	64	5100
2026-01-01 12:16:08.27	281.62	12.31	-46.5	-49.6	15.8	0.00e+00	0	39	0	351272960	64	5174
2026-01-01 12:16:09.26	281.81	12.30	-46.6	-49.6	15.7	0.00e+00	0	39	0	353370112	64	5214
2026-01-01 12:16:10.26	282.00	12.30	-46.5	-49.6	15.8	0.00e+00	0	39	0	355467264	64	5162
2026-01-01 12:16:11.26	282.20	12.29	-46.5	-49.5	15.9	0.00e+00	0	39	0	357564416	64	5123
2026-01-01 12:16:12.27	282.39	12.29	-46.5	-49.4	16.0	0.00e+00	0	39	0	359661568	64	5085
2026-01-01 12:16:13.27	282.59	12.28	-46.4	-49.4	16.0	0.00e+00	0	39	0	360710144	64	5052
2026-01-01 12:16:14.27	282.78	12.28	-46.3	-49.2	16.2	0.00e+00	0	39	0	362807296	64	4951
2026-01-01 12:16:15.27	282.97	12.27	-46.3	-49.3	16.1	0.00e+00	0	39	0	364904448	64	5000
2026-01-01 12:16:16.27	283.17	12.26	-46.6	-49.6	15.8	0.00e+00	0	39	0	367001600	64	5184
2026-01-01 12:16:17.27	283.36	12.26	-46.5	-49.5	15.9	0.00e+00	0	39	0	368050176	64	5157
2026-01-01 12:16:18.27	283.55	12.25	-46.7	-49.7	15.8	0.00e+00	0	39	0	370147328	64	5252
2026-01-01 12:16:19.27	283.75	12.24	-46.7	-49.8	15.6	0.00e+00	0	39	0	372244480	64	5333
2026-01-01 12:16:20.27	283.94	12.23	-46.6	-49.6	15.8	0.00e+00	0	39	0	374341632	64	5196
2026-01-01 12:16:21.27	284.13	12.23	-46.4	-49.4	16.0	0.00e+00	0	39	0	376438784	64	5070
2026-01-01 12:16:22.27	284.33	12.22	-46.2	-49.2	16.2	0.00e+00	0	39	0	377487360	64	4951
2026-01-01 12:16:23.27	284.52	12.21	-46.0	-49.0	16.4	0.00e+00	0	39	0	379584512	64	4816
2026-01-01 12:16:24.27	284.71	12.20	-46.0	-48.8	16.6	0.00e+00	0	39	0	381681664	63	5036
2026-01-01 12:16:25.28	284.91	12.19	-45.8	-48.6	16.8	0.00e+00	0	39	0	383778816	63	4921
2026-01-01 12:16:26.27	285.10	12.18	-45.8	-48.6	16.9	0.00e+00	0	39	0	385875968	63	4887
2026-01-01 12:16:27.27	285.29	12.17	-45.9	-48.7	16.8	0.00e+00	0	39	0	386924544	63	4967
2026-01-01 12:16:28.28	285.48	12.16	-46.0	-48.8	16.6	0.00e+00	0	39	0	389021696	63	5024
2026-01-01 12:16:29.28	285.67	12.15	-46.1	-49.0	16.5	0.00e+00	0	39	0	391118848	63	5121
2026-01-01 12:16:30.27	285.86	12.14	-46.1	-48.9	16.6	0.00e+00	0	39	0	393216000	63	5078
2026-01-01 12:16:31.27	286.05	12.13	-46.0	-48.9	16.5	0.00e+00	0	39	0	395313152	63	5063
2026-01-01 12:16:32.27	286.25	12.12	-45.9	-48.7	16.7	0.00e+00	0	39	0	396361728	63	4976
2026-01-01 12:16:33.28	286.44	12.11	-45.9	-48.7	16.7	0.00e+00	0	39	0	398458880	63	4979
2026-01-01 12:16:34.28	286.63	12.10	-45.8	-48.6	16.8	0.00e+00	0	38	0	400556032	63	4903
2026-01-01 12:16:35.28	286.82	12.08	-46.0	-48.8	16.7	0.00e+00	0	39	0	402653184	63	4990
2026-01-01 12:16:36.28	287.01	12.07	-45.9	-48.7	16.7	0.00e+00	0	39	0	404750336	63	4969
2026-01-01 12:16:37.29	287.21	12.06	-46.1	-48.9	16.6	0.00e+00	0	39	0	405798912	63	5085
2026-01-01 12:16:38.29	287.40	12.05	-46.3	-49.1	16.4	0.00e+00	0	38	0	407896064	63	5213
2026-01-01 12:16:39.29	287.59	12.03	-46.3	-49.2	16.3	0.00e+00	0	39	0	409993216	63	5223
2026-01-01 12:16:40.29	287.78	12.02	-46.3	-49.2	16.2	0.00e+00	0	39	0	412090368	63	5260
2026-01-01 12:16:41.29	287.97	12.00	-46.2	-49.1	16.3	0.00e+00	0	39	0	413138944	63	5200
2026-01-01 12:16:42.30	288.16	11.99	-46.1	-49.0	16.4	0.00e+00	0	39	0	415236096	63	5124
2026-01-01 12:16:43.30	288.35	11.98	-46.1	-48.9	16.6	0.00e+00	0	39	0	417333248	63	5059
2026-01-01 12:16:44.30	288.54	11.96	-45.9	-48.7	16.8	0.00e+00	0	39	0	419430400	63	4946
2026-01-01 12:16:45.30	288.73	11.95	-45.9	-48.6	16.9	0.00e+00	0	39	0	421527552	63	4892
2026-01-01 12:16:46.30	288.92	11.93	-45.8	-48.6	16.9	0.00e+00	0	39	0	422576128	63	4877
2026-01-01 12:16:47.30	289.10	11.92	-46.0	-48.8	16.7	0.00e+00	0	39	0	424673280	63	4989
2026-01-01 12:16:48.30	289.29	11.90	-46.1	-49.0	16.5	0.00e+00	0	39	0	426770432	63	5102
2026-01-01 12:16:49.30	289.48	11.89	-46.2	-49.0	16.4	0.00e+00	0	39	0	428867584	63	5151
2026-01-01 12:16:50.30	289.67	11.87	-46.3	-49.2	16.3	0.00e+00	0	39	0	430964736	63	5243
2026-01-01 12:16:51.30	289.86	11.85	-46.1	-49.0	16.4	0.00e+00	0	39	0	432013312	63	5145
2026-01-01 12:16:52.30	290.05	11.84	-46.3	-49.2	16.2	0.00e+00	0	39	0	434110464	63	5260
2026-01-01 12:16:53.30	290.23	11.82	-46.2	-49.0	16.4	0.00e+00	0	39	0	436207616	63	5158
2026-01-01 12:16:54.30	290.42	11.80	-46.1	-49.0	16.5	0.00e+00	0	39	0	438304768	63	5106
2026-01-01 12:16:55.30	290.61	11.78	-46.1	-48.9	16.7	0.00e+00	0	39	0	440401920	63	5050
2026-01-01 12:16:56.30	290.80	11.77	-46.1	-48.9	16.6	0.00e+00	0	39	0	441450496	63	5048
2026-01-01 12:16:57.30	290.98	11.75	-45.9	-48.7	16.8	0.00e+00	0	39	0	443547648	63	4948
2026-01-01 12:16:58.30	291.17	11.73	-46.1	-48.9	16.6	0.00e+00	0	39	0	445644800	63	5044
2026-01-01 12:16:59.29	291.35	11.71	-46.1	-48.9	16.5	0.00e+00	0	39	0	447741952	63	5079
2026-01-01 12:17:00.30	291.54	11.69	-46.2	-49.0	16.4	0.00e+00	0	39	0	448790528	63	5139
2026-01-01 12:17:01.30	291.73	11.67	-46.2	-49.0	16.4	0.00e+00	0	39	0	450887680	63	5137
2026-01-01 12:17:02.30	291.91	11.65	-46.3	-49.1	16.3	0.00e+00	0	39	0	452984832	63	5213
2026-01-01 12:17:03.30	292.10	11.64	-46.3	-49.2	16.2	0.00e+00	0	39	0	455081984	63	5241
2026-01-01 12:17:04.30	292.28	11.62	-46.3	-49.2	16.2	0.00e+00	0	38	0	457179136	63	5261
2026-01-01 12:17:05.30	292.47	11.60	-46.3	-49.2	16.2	0.00e+00	0	39	0	458227712	63	5251
2026-01-01 12:17:06.30	292.65	11.58	-46.2	-49.0	16.4	0.00e+00	0	39	0	460324864	63	5139
2026-01-01 12:17:07.31	292.84	11.55	-46.2	-49.1	16.3	0.00e+00	0	39	0	462422016	63	5191
2026-01-01 12:17:08.31	293.02	11.53	-46.3	-49.1	16.3	0.00e+00	0	39	0	464519168	63	5211
2026-01-01 12:17:09.30	293.21	11.51	-46.3	-49.2	16.2	0.00e+00	0	38	0	466616320	63	5234
2026-01-01 12:17:10.31	293.39	11.49	-46.5	-49.4	16.0	0.00e+00	0	39	0	467664896	63	5394
2026-01-01 12:17:11.30	293.57	11.47	-46.5	-49.6	15.9	0.00e+00	0	39	0	469762048	63	5471
2026-01-01 12:17:12.30	293.76	11.45	-46.6	-49.7	15.7	0.00e+00	0	39	0	471859200	63	5562
2026-01-01 12:17:13.30	293.94	11.43	-46.6	-49.7	15.7	0.00e+00	0	39	0	473956352	64	5222
2026-01-01 12:17:14.30	294.12	11.40	-46.6	-49.7	15.7	0.00e+00	0	39	0	475004928	64	5226
2026-01-01 12:17:15.30	294.30	11.38	-46.4	-49.4	15.9	0.00e+00	0	39	0	477102080	64	5093
2026-01-01 12:17:16.30	294.49	11.36	-46.3	-49.2	16.1	0.00e+00	0	39	0	479199232	64	4951
2026-01-01 12:17:17.29	294.67	11.34	-46.1	-49.0	16.4	0.00e+00	0	39	0	481296384	64	4827
2026-01-01 12:17:18.29	294.85	11.31	-46.0	-48.8	16.5	0.00e+00	0	39	0	483393536	63	5025
2026-01-01 12:17:19.28	295.03	11.29	-46.1	-48.9	16.5	0.00e+00	0	39	0	484442112	63	5064
2026-01-01 12:17:20.28	295.21	11.27	-46.1	-48.9	16.5	0.00e+00	0	39	0	486539264	63	5082
2026-01-01 12:17:21.28	295.39	11.24	-46.1	-49.0	16.4	0.00e+00	0	39	0	488636416	63	5121
2026-01-01 12:17:22.27	295.57	11.22	-46.2	-49.1	16.4	0.00e+00	0	39	0	490733568	63	5169
2026-01-01 12:17:23.26	295.74	11.19	-46.0	-48.9	16.5	0.00e+00	0	39	0	491782144	63	5058
2026-01-01 12:17:24.26	295.92	11.17	-46.1	-49.0	16.4	0.00e+00	0	39	0	493879296	63	5136
2026-01-01 12:17:25.26	296.10	11.15	-46.0	-48.8	16.6	0.00e+00	0	39	0	495976448	63	4992
2026-01-01 12:17:26.26	296.28	11.12	-45.8	-48.6	16.8	0.00e+00	0	39	0	498073600	63	4895
2026-01-01 12:17:27.26	296.46	11.10	-45.9	-48.6	16.8	0.00e+00	0	39	0	500170752	63	4912
2026-01-01 12:17:28.26	296.64	11.07	-45.8	-48.5	16.9	0.00e+00	0	39	0	501219328	63	4844
2026-01-01 12:17:29.26	296.82	11.04	-45.8	-48.5	16.9	0.00e+00	0	39	0	503316480	63	4859
2026-01-01 12:17:30.26	297.00	11.02	-46.0	-48.8	16.6	0.00e+00	0	39	0	505413632	63	5009
2026-01-01 12:17:31.26	297.17	10.99	-46.0	-48.8	16.6	0.00e+00	0	39	0	507510784	63	5029
2026-01-01 12:17:32.26	297.35	10.97	-46.2	-49.1	16.4	0.00e+00	0	39	0	509607936	63	5177
2026-01-01 12:17:33.26	297.53	10.94	-46.3	-49.2	16.3	0.00e+00	0	39	0	510656512	63	5236
2026-01-01 12:17:34.26	297.70	10.91	-46.4	-49.4	16.1	0.00e+00	0	39	0	512753664	63	5357
2026-01-01 12:17:35.26	297.88	10.89	-46.4	-49.3	16.1	0.00e+00	0	39	0	514850816	63	5325
2026-01-01 12:17:36.25	298.05	10.86	-46.4	-49.3	16.1	0.00e+00	0	39	0	516947968	63	5332
2026-01-01 12:17:37.26	298.23	10.83	-46.3	-49.2	16.2	0.00e+00	0	39	0	519045120	63	5268
2026-01-01 12:17:38.25	298.41	10.80	-46.2	-49.2	16.3	0.00e+00	0	39	0	520093696	63	5220
2026-01-01 12:17:39.25	298.58	10.78	-46.2	-49.1	16.3	0.00e+00	0	39	0	522190848	63	5193
2026-01-01 12:17:40.25	298.76	10.75	-46.0	-48.7	16.6	0.00e+00	0	39	0	524288000	63	4980
2026-01-01 12:17:41.25	298.93	10.72	-46.0	-48.9	16.6	0.00e+00	0	39	0	526385152	63	5052
2026-01-01 12:17:42.24	299.10	10.69	-46.0	-48.8	16.6	0.00e+00	0	39	0	527433728	63	5032
2026-01-01 12:17:43.24	299.28	10.66	-46.0	-48.8	16.5	0.00e+00	0	39	0	529530880	63	5036
2026-01-01 12:17:44.24	299.45	10.64	-46.1	-49.0	16.4	0.00e+00	0	39	0	531628032	63	5104
2026-01-01 12:17:45.23	299.62	10.61	-46.1	-49.0	16.3	0.00e+00	0	39	0	533725184	63	5152
2026-01-01 12:17:46.23	299.79	10.58	-46.2	-49.1	16.3	0.00e+00	0	39	0	535822336	63	5182
2026-01-01 12:17:47.22	299.96	10.55	-46.1	-48.9	16.4	0.00e+00	0	39	0	536870912	63	5088
2026-01-01 12:17:48.22	300.14	10.52	-46.2	-49.0	16.3	0.00e+00	0	39	0	538968064	63	5156
2026-01-01 12:17:49.22	300.31	10.49	-46.2	-49.1	16.3	0.00e+00	0	39	0	541065216	63	5186
2026-01-01 12:17:50.21	300.48	10.46	-46.1	-49.0	16.4	0.00e+00	0	39	0	543162368	63	5102
2026-01-01 12:17:51.20	300.65	10.43	-46.0	-48.8	16.6	0.00e+00	0	39	0	544210944	63	5006
2026-01-01 12:17:52.20	300.82	10.40	-45.9	-48.7	16.6	0.00e+00	0	39	0	546308096	63	4963
2026-01-01 12:17:53.21	300.99	10.37	-46.0	-48.8	16.6	0.00e+00	0	39	0	548405248	63	5024
2026-01-01 12:17:54.21	301.16	10.34	-46.0	-48.8	16.5	0.00e+00	0	39	0	550502400	63	4992
2026-01-01 12:17:55.20	301.33	10.31	-46.1	-48.9	16.4	0.00e+00	0	39	0	552599552	63	5082
2026-01-01 12:17:56.20	301.50	10.28	-46.2	-49.1	16.3	0.00e+00	0	39	0	553648128	63	5174
2026-01-01 12:17:57.20	301.67	10.25	-46.2	-49.2	16.1	0.00e+00	0	39	0	555745280	63	5230
2026-01-01 12:17:58.20	301.83	10.21	-46.2	-49.1	16.3	0.00e+00	0	39	0	557842432	63	5200
2026-01-01 12:17:59.20	302.00	10.18	-46.3	-49.3	16.1	0.00e+00	0	39	0	559939584	63	5280
2026-01-01 12:18:00.20	302.17	10.15	-46.4	-49.4	16.0	0.00e+00	0	39	0	562036736	63	5360
2026-01-01 12:18:01.20	302.34	10.12	-46.3	-49.3	16.1	0.00e+00	0	39	0	563085312	63	5328
2026-01-01 12:18:02.19	302.50	10.09	-46.4	-49.4	15.9	0.00e+00	0	39	0	565182464	63	5400
2026-01-01 12:18:03.19	302.67	10.05	-46.4	-49.5	15.9	0.00e+00	0	39	0	567279616	63	5417
2026-01-01 12:18:04.19	302.84	10.02	-46.5	-49.6	15.8	0.00e+00	0	39	0	569376768	63	5474
2026-01-01 12:18:05.19	303.00	9.99	-46.4	-49.5	15.9	0.00e+00	0	39	0	570425344	63	5428
2026-01-01 12:18:06.19	303.17	9.96	-46.5	-49.7	15.7	0.00e+00	0	39	0	572522496	63	5552
2026-01-01 12:18:07.19	303.33	9.92	-46.6	-49.9	15.4	0.00e+00	0	39	0	574619648	64	5358
2026-01-01 12:18:08.18	303.50	9.89	-46.9	-50.2	15.1	0.00e+00	0	39	0	576716800	64	5553
2026-01-01 12:18:09.18	303.66	9.86	-46.9	-50.3	15.0	0.00e+00	0	39	0	578813952	64	5644
2026-01-01 12:18:10.18	303.83	9.83	-47.1	-50.6	14.8	0.00e+00	0	39	0	579862528	64	5806
2026-01-01 12:18:11.17	303.99	9.79	-47.2	-50.7	14.7	0.00e+00	0	39	0	581959680	65	5564
2026-01-01 12:18:12.17	304.15	9.76	-47.3	-50.9	14.4	0.00e+00	0	39	0	584056832	65	5719
2026-01-01 12:18:13.17	304.32	9.72	-47.3	-50.9	14.4	0.00e+00	0	39	0	586153984	65	5716
2026-01-01 12:18:14.16	304.48	9.69	-47.5	-51.1	14.2	2.20e-06	0	39	0	588251136	65	5839
2026-01-01 12:18:15.16	304.64	9.66	-47.5	-51.1	14.2	1.50e-06	0	39	0	589299712	65	5808
2026-01-01 12:18:16.15	304.80	9.62	-47.6	-51.2	14.1	7.00e-07	0	39	0	591396864	65	5889
2026-01-01 12:18:17.15	304.96	9.59	-47.5	-51.2	14.1	2.20e-06	0	39	0	593494016	65	5920
2026-01-01 12:18:18.14	305.12	9.55	-47.5	-51.2	14.1	1.50e-06	0	39	0	595591168	65	5879
2026-01-01 12:18:19.15	305.28	9.52	-47.6	-51.3	14.1	2.20e-06	0	39	0	596639744	65	5972
2026-01-01 12:18:20.14	305.44	9.48	-47.4	-51.0	14.4	0.00e+00	0	39	0	598736896	65	5742
2026-01-01 12:18:21.14	305.60	9.45	-47.4	-51.1	14.3	7.00e-07	0	39	0	600834048	65	5801
2026-01-01 12:18:22.14	305.76	9.41	-47.3	-51.0	14.3	0.00e+00	0	39	0	602931200	65	5785
2026-01-01 12:18:23.14	305.92	9.38	-47.3	-50.9	14.4	0.00e+00	0	39	0	605028352	65	5712
2026-01-01 12:18:24.13	306.08	9.34	-47.3	-51.0	14.3	0.00e+00	0	39	0	606076928	65	5736
2026-01-01 12:18:25.13	306.24	9.31	-47.3	-51.0	14.3	1.50e-06	0	39	0	608174080	65	5744
2026-01-01 12:18:26.12	306.39	9.27	-47.4	-51.2	14.1	1.50e-06	0	39	0	610271232	65	5870
2026-01-01 12:18:27.12	306.55	9.24	-47.6	-51.3	13.9	7.00e-07	0	39	0	612368384	65	5979
2026-01-01 12:18:28.12	306.71	9.20	-47.7	-51.4	13.9	3.80e-06	0	39	0	614465536	66	5712
2026-01-01 12:18:29.12	306.87	9.16	-47.8	-51.7	13.6	1.14e-05	0	39	0	615514112	66	5917
2026-01-01 12:18:30.12	307.02	9.13	-47.9	-51.9	13.3	1.14e-05	0	39	0	617611264	66	6041
2026-01-01 12:18:31.12	307.18	9.09	-47.9	-52.0	13.2	2.82e-05	0	39	0	619708416	66	6126
2026-01-01 12:18:32.12	307.34	9.06	-47.9	-52.1	13.2	2.59e-05	0	39	0	621805568	66	6159
2026-01-01 12:18:33.12	307.49	9.02	-48.0	-52.2	13.1	2.97e-05	0	39	0	622854144	66	6206
2026-01-01 12:18:34.12	307.65	8.98	-50.8	-66.6	3.8	1.28e+00	0	38	104	624951296	72	23190
2026-01-01 12:18:35.12	307.80	8.95	-51.7	-66.9	3.8	1.49e+00	0	39	104	624951296	74	21342
2026-01-01 12:18:36.11	307.96	8.91	-52.0	-67.0	3.8	1.49e+00	0	39	104	624951296	74	21724
2026-01-01 12:18:37.12	308.11	8.87	-51.9	-67.1	3.8	1.49e+00	0	39	104	624951296	74	21979
2026-01-01 12:18:38.12	308.26	8.83	-52.0	-67.2	3.8	1.49e+00	0	39	104	624951296	74	22126
2026-01-01 12:18:39.12	308.42	8.80	-52.1	-67.3	3.8	1.49e+00	0	39	104	624951296	74	22271
2026-01-01 12:18:40.11	308.57	8.76	-52.1	-67.3	3.8	1.49e+00	0	39	104	624951296	75	21036
2026-01-01 12:18:41.12	308.72	8.72	-52.0	-67.3	3.8	1.49e+00	0	39	104	624951296	75	21026
2026-01-01 12:18:42.12	308.88	8.68	-52.2	-67.3	3.8	1.49e+00	0	39	104	624951296	75	21127
2026-01-01 12:18:43.12	309.03	8.65	-52.1	-67.3	3.8	1.49e+00	0	39	104	624951296	75	21078
2026-01-01 12:18:44.12	309.18	8.61	-52.1	-67.3	3.8	1.49e+00	0	39	104	624951296	75	21191
2026-01-01 12:18:45.12	309.33	8.57	-52.2	-67.3	3.8	1.49e+00	0	39	104	624951296	75	21221
2026-01-01 12:18:46.12	309.48	8.53	-52.3	-67.3	3.8	1.49e+00	0	39	104	624951296	75	21125
2026-01-01 12:18:47.11	309.63	8.49	-52.2	-67.4	3.8	1.49e+00	0	39	104	624951296	75	21432
2026-01-01 12:18:48.12	309.78	8.45	-52.4	-67.4	3.8	1.49e+00	0	39	104	624951296	75	21340
2026-01-01 12:18:49.12	309.93	8.42	-52.2	-67.4	3.8	1.49e+00	0	39	104	624951296	75	21297
2026-01-01 12:18:50.12	310.08	8.38	-52.3	-67.3	3.8	1.49e+00	0	39	104	624951296	75	21260
2026-01-01 12:18:51.12	310.23	8.34	-52.2	-67.3	3.8	1.49e+00	0	39	104	624951296	75	21214
2026-01-01 12:18:52.12	310.38	8.30	-52.2	-67.3	3.8	1.49e+00	0	39	104	624951296	75	21174
2026-01-01 12:18:53.12	310.53	8.26	-52.1	-67.3	3.8	1.49e+00	0	39	104	624951296	75	21107
2026-01-01 12:18:54.13	310.67	8.22	-52.1	-67.2	3.8	1.49e+00	0	39	104	624951296	75	20955
2026-01-01 12:18:55.13	310.82	8.18	-52.1	-67.3	3.8	1.49e+00	0	39	104	624951296	75	21228
2026-01-01 12:18:56.13	310.97	8.14	-52.0	-67.3	3.8	1.49e+00	0	39	104	624951296	75	21041
2026-01-01 12:18:57.13	311.11	8.10	-52.0	-67.3	3.8	1.49e+00	0	39	104	624951296	75	21058
2026-01-01 12:18:58.14	311.26	8.06	-52.0	-67.2	3.8	1.49e+00	0	39	104	624951296	75	20972
2026-01-01 12:18:59.14	311.41	8.02	-52.0	-67.2	3.8	1.49e+00	0	39	104	624951296	75	21015
2026-01-01 12:19:00.14	311.55	7.99	-52.0	-67.2	3.8	1.49e+00	0	39	104	624951296	75	20850
2026-01-01 12:19:01.15	311.70	7.94	-52.0	-67.2	3.8	1.49e+00	0	39	104	624951296	75	20957
2026-01-01 12:19:02.15	311.84	7.91	-52.0	-67.2	3.8	1.49e+00	0	39	104	624951296	75	20984
2026-01-01 12:19:03.14	311.99	7.87	-52.0	-67.2	3.8	1.49e+00	0	39	104	624951296	75	20939
2026-01-01 12:19:04.13	312.13	7.83	-52.1	-67.3	3.8	1.49e+00	0	39	104	624951296	75	21082
2026-01-01 12:19:05.13	312.27	7.79	-52.1	-67.3	3.8	1.49e+00	0	39	104	624951296	75	21095
2026-01-01 12:19:06.14	312.42	7.75	-52.0	-67.2	3.8	1.49e+00	0	39	104	624951296	75	20990
2026-01-01 12:19:07.14	312.56	7.71	-52.0	-67.2	3.8	1.49e+00	0	39	104	624951296	75	20971
2026-01-01 12:19:08.14	312.70	7.66	-52.0	-67.2	3.8	1.49e+00	0	39	104	624951296	75	20961
2026-01-01 12:19:09.14	312.84	7.62	-52.0	-67.2	3.8	1.49e+00	0	39	104	624951296	75	20927
2026-01-01 12:19:10.14	312.99	7.58	-52.0	-67.2	3.8	1.49e+00	0	39	104	624951296	75	20893
2026-01-01 12:19:11.14	313.13	7.54	-52.0	-67.2	3.8	1.49e+00	0	39	104	624951296	75	20860
2026-01-01 12:19:12.13	313.27	7.50	-52.0	-67.2	3.8	1.49e+00	0	39	104	624951296	75	20851
2026-01-01 12:19:13.12	313.40	7.46	-52.0	-67.2	3.8	1.49e+00	0	39	104	624951296	75	20958
2026-01-01 12:19:14.12	313.54	7.42	-52.0	-67.2	3.8	1.49e+00	0	39	104	624951296	75	21006
2026-01-01 12:19:15.12	313.68	7.38	-52.0	-67.2	3.8	1.49e+00	0	39	104	624951296	75	20924
2026-01-01 12:19:16.11	313.82	7.34	-52.0	-67.2	3.8	1.49e+00	0	39	104	624951296	75	20944
2026-01-01 12:19:17.11	313.96	7.30	-52.0	-67.2	3.8	1.49e+00	0	39	104	624951296	75	20919
2026-01-01 12:19:18.11	314.10	7.26	-52.0	-67.2	3.8	1.49e+00	0	39	104	624951296	75	20955
2026-01-01 12:19:19.11	314.24	7.22	-52.0	-67.2	3.8	1.49e+00	0	39	104	624951296	75	20917
2026-01-01 12:19:20.12	314.38	7.18	-52.0	-67.2	3.8	1.49e+00	0	39	104	624951296	75	20935
2026-01-01 12:19:21.12	314.51	7.13	-52.0	-67.2	3.8	1.49e+00	0	39	104	624951296	75	20906
2026-01-01 12:19:22.11	314.65	7.09	-52.0	-67.2	3.8	1.49e+00	0	39	104	624951296	75	20978
2026-01-01 12:19:23.11	314.79	7.05	-52.0	-67.2	3.8	1.49e+00	0	39	104	624951296	75	21007
2026-01-01 12:19:24.11	314.92	7.01	-52.0	-67.2	3.8	1.49e+00	0	39	104	624951296	75	20960
2026-01-01 12:19:25.11	315.06	6.97	-52.1	-67.3	3.8	1.49e+00	0	39	104	624951296	75	21060
2026-01-01 12:19:26.11	315.19	6.93	-52.0	-67.3	3.8	1.49e+00	0	39	104	624951296	75	21024
2026-01-01 12:19:27.11	315.33	6.89	-52.0	-67.2	3.8	1.49e+00	0	39	104	624951296	75	20897
2026-01-01 12:19:28.10	315.46	6.84	-52.0	-67.2	3.8	1.49e+00	0	39	104	624951296	75	20997
2026-01-01 12:19:29.10	315.60	6.80	-52.0	-67.2	3.8	1.49e+00	0	39	104	624951296	75	20862
2026-01-01 12:19:30.10	315.73	6.76	-52.0	-67.2	3.8	1.49e+00	0	39	104	624951296	75	20923
2026-01-01 12:19:31.10	315.86	6.72	-52.0	-67.3	3.8	1.49e+00	0	39	104	624951296	75	21019
2026-01-01 12:19:32.10	316.00	6.68	-52.0	-67.2	3.8	1.49e+00	0	39	104	624951296	75	20957
2026-01-01 12:19:33.09	316.13	6.63	-52.0	-67.2	3.8	1.49e+00	0	39	104	624951296	75	20923
2026-01-01 12:19:34.09	316.26	6.59	-51.9	-67.2	3.8	1.49e+00	0	39	104	624951296	75	20840
2026-01-01 12:19:35.08	316.39	6.55	-52.0	-67.2	3.8	1.49e+00	0	39	104	624951296	75	21015
2026-01-01 12:19:36.08	316.52	6.51	-52.0	-67.2	3.8	1.49e+00	0	39	104	624951296	75	20902
2026-01-01 12:19:37.08	316.65	6.47	-52.0	-67.2	3.8	1.49e+00	0	39	104	624951296	75	20890
2026-01-01 12:19:38.08	316.78	6.42	-52.0	-67.3	3.8	1.49e+00	0	39	104	624951296	75	21108
2026-01-01 12:19:39.09	316.92	6.38	-52.0	-67.2	3.8	1.49e+00	0	39	104	624951296	75	20956
2026-01-01 12:19:40.09	317.05	6.34	-52.0	-67.2	3.8	1.49e+00	0	39	104	624951296	75	20859
2026-01-01 12:19:41.09	317.18	6.30	-52.0	-67.3	3.8	1.49e+00	0	39	104	624951296	75	21089
2026-01-01 12:19:42.09	317.31	6.25	-52.1	-67.3	3.8	1.49e+00	0	39	104	624951296	75	21073
2026-01-01 12:19:43.09	317.44	6.21	-52.0	-67.3	3.8	1.49e+00	0	39	104	624951296	75	21067
2026-01-01 12:19:44.09	317.56	6.17	-52.0	-67.2	3.8	1.49e+00	0	39	104	624951296	75	20996
2026-01-01 12:19:45.08	317.69	6.13	-52.0	-67.2	3.8	1.49e+00	0	39	104	624951296	75	20981
2026-01-01 12:19:46.08	317.82	6.08	-52.0	-67.2	3.8	1.49e+00	0	39	104	624951296	75	20882
2026-01-01 12:19:47.09	317.95	6.04	-52.0	-67.2	3.8	1.49e+00	0	39	104	624951296	75	20864
2026-01-01 12:19:48.09	318.08	6.00	-51.9	-67.2	3.8	1.49e+00	0	39	104	624951296	75	20943
2026-01-01 12:19:49.09	318.20	5.95	-51.9	-67.3	3.8	1.49e+00	0	39	104	624951296	75	21183
2026-01-01 12:19:50.10	318.33	5.91	-52.1	-67.3	3.8	1.49e+00	0	39	104	624951296	75	21247
2026-01-01 12:19:51.10	318.46	5.87	-52.2	-67.3	3.8	1.49e+00	0	39	104	624951296	75	21185
2026-01-01 12:19:52.10	318.58	5.82	-52.2	-67.3	3.8	1.49e+00	0	39	104	624951296	75	21120
2026-01-01 12:19:53.10	318.71	5.78	-52.3	-67.4	3.8	1.49e+00	0	39	104	624951296	75	21284
2026-01-01 12:19:54.10	318.83	5.74	-52.3	-67.3	3.8	1.49e+00	0	39	104	624951296	75	21188
2026-01-01 12:19:55.11	318.96	5.69	-52.4	-67.3	3.8	1.49e+00	0	39	104	624951296	75	21256
2026-01-01 12:19:56.11	319.08	5.65	-52.3	-67.3	3.8	1.49e+00	0	39	104	624951296	75	21151
2026-01-01 12:19:57.11	319.21	5.61	-52.2	-67.3	3.8	1.49e+00	0	39	104	624951296	75	21155
2026-01-01 12:19:58.12	319.33	5.56	-52.1	-67.3	3.8	1.49e+00	0	39	104	624951296	75	21174
2026-01-01 12:19:59.12	319.46	5.52	-52.1	-67.3	3.8	1.49e+00	0	39	104	624951296	75	21195
2026-01-01 12:20:00.12	319.58	5.48	-52.0	-67.3	3.8	1.49e+00	0	39	104	624951296	75	21145
2026-01-01 12:20:01.12	319.70	5.43	-52.0	-67.3	3.8	1.49e+00	0	39	104	624951296	75	21232
2026-01-01 12:20:02.12	319.82	5.39	-51.9	-67.3	3.8	1.49e+00	0	39	104	624951296	75	21053
2026-01-01 12:20:03.12	319.95	5.35	-52.0	-67.3	3.8	1.49e+00	0	39	104	624951296	75	21207
2026-01-01 12:20:04.13	320.07	5.30	-51.8	-67.2	3.8	1.49e+00	0	39	104	624951296	75	20943
2026-01-01 12:20:05.13	320.19	5.26	-51.9	-67.3	3.8	1.49e+00	0	39	104	624951296	75	21029
2026-01-01 12:20:06.12	320.31	5.22	-51.9	-67.3	3.8	1.49e+00	0	39	104	624951296	75	21034
2026-01-01 12:20:07.12	320.43	5.17	-51.9	-67.2	3.8	1.49e+00	0	39	104	624951296	75	21006
2026-01-01 12:20:08.12	320.55	5.13	-51.9	-67.3	3.8	1.49e+00	0	39	104	624951296	75	21083
2026-01-01 12:20:09.12	320.67	5.09	-51.8	-67.3	3.8	1.49e+00	0	39	104	624951296	75	21122
2026-01-01 12:20:10.12	320.79	5.04	-51.7	-67.3	3.8	1.49e+00	0	39	104	624951296	75	21221
2026-01-01 12:20:11.11	320.91	5.00	-52.0	-67.3	3.8	1.49e+00	0	39	104	624951296	75	21183

#Closed at: 2026-01-01 12:20:12
#Recorded file [624 MB]: D:/Data/31040_260101_151139.dat