passes_logs/2026/01/18/T1/T1__20260118_030202_FENGYUN_3E_rec.log

#Pass ID: 20260118_030202_FENGYUN 3E
#Satellite: FENGYUN 3E
#Configuration: FENGYUN 3E
#almurnet v.1.7.20251203
#Start time: 2026-01-18 03:02:02

#Version: 2.0.20230620
#Station: T1
#Location: 37.570604 lon 55.790049 lat
#TLE: 1 49008U 21062A   26017.26067429  .00000278  00000+0  15192-3 0  9991
#TLE: 2 49008  98.7484  22.3628 0002125 132.6872 227.4483 14.19886454235162

#Time	Az	El	Level	Level2	SNR	BER	BlckErr	Temp	State	Recorded	gain1	gain2
2026-01-18 03:02:02.69	23.51	4.98	-48.2	-59.2	3.8	8.47e-01	0	38	0	0	67	12260
2026-01-18 03:02:03.68	23.56	5.04	-48.2	-59.1	3.8	8.47e-01	0	38	104	0	66	12921
2026-01-18 03:02:04.67	23.62	5.11	-48.2	-59.2	3.8	8.48e-01	0	38	104	0	66	13045
2026-01-18 03:02:05.66	23.67	5.17	-48.2	-59.2	3.8	8.47e-01	0	39	104	0	66	12963
2026-01-18 03:02:06.66	23.73	5.24	-48.2	-59.1	3.8	8.48e-01	0	39	104	0	66	12851
2026-01-18 03:02:07.65	23.79	5.31	-48.2	-59.0	3.8	8.47e-01	0	39	104	0	66	12772
2026-01-18 03:02:08.64	23.84	5.37	-48.2	-59.0	3.8	8.47e-01	0	39	104	0	66	12705
2026-01-18 03:02:09.64	23.90	5.44	-48.2	-58.9	3.8	8.47e-01	0	39	104	0	66	12619
2026-01-18 03:02:10.63	23.95	5.51	-48.2	-58.9	3.8	8.46e-01	0	39	104	0	66	12555
2026-01-18 03:02:11.62	24.01	5.57	-48.2	-58.9	3.8	8.46e-01	0	39	104	0	66	12582
2026-01-18 03:02:12.62	24.07	5.64	-48.2	-58.8	3.8	8.47e-01	0	39	104	0	66	12430
2026-01-18 03:02:13.61	24.13	5.71	-48.2	-58.8	3.8	8.48e-01	0	39	104	0	66	12425
2026-01-18 03:02:14.60	24.18	5.77	-48.2	-58.8	3.8	8.46e-01	0	39	104	0	66	12481
2026-01-18 03:02:15.60	24.24	5.84	-48.2	-58.8	3.8	8.46e-01	0	39	104	0	66	12382
2026-01-18 03:02:16.59	24.30	5.91	-48.2	-58.9	3.8	8.47e-01	0	39	104	0	66	12535
2026-01-18 03:02:17.59	24.36	5.98	-48.2	-58.9	3.8	8.46e-01	0	39	104	0	66	12609
2026-01-18 03:02:18.58	24.42	6.05	-48.2	-58.9	3.8	8.47e-01	0	39	104	0	66	12627
2026-01-18 03:02:19.57	24.48	6.11	-48.2	-59.0	3.8	8.48e-01	0	39	104	0	66	12725
2026-01-18 03:02:20.57	24.54	6.18	-48.2	-59.0	3.8	8.47e-01	0	39	104	0	66	12757
2026-01-18 03:02:21.56	24.59	6.25	-48.2	-59.0	3.8	8.46e-01	0	39	104	0	66	12716
2026-01-18 03:02:22.55	24.65	6.32	-48.2	-59.0	3.8	8.47e-01	0	39	104	0	66	12733
2026-01-18 03:02:23.55	24.71	6.39	-48.2	-59.0	3.8	8.47e-01	0	39	104	0	66	12689
2026-01-18 03:02:24.54	24.77	6.46	-48.2	-59.0	3.8	8.47e-01	0	39	104	0	66	12693
2026-01-18 03:02:25.54	24.83	6.53	-48.2	-58.9	3.8	8.47e-01	0	39	104	0	66	12627
2026-01-18 03:02:26.53	24.90	6.60	-48.2	-58.8	3.8	8.47e-01	0	39	104	0	66	12501
2026-01-18 03:02:27.52	24.96	6.66	-48.2	-58.8	3.8	8.46e-01	0	39	104	0	66	12428
2026-01-18 03:02:28.52	25.02	6.73	-48.2	-58.7	3.8	8.47e-01	0	40	104	0	66	12354
2026-01-18 03:02:29.51	25.08	6.80	-48.2	-58.7	3.8	8.47e-01	0	40	104	0	66	12301
2026-01-18 03:02:30.50	25.14	6.87	-48.2	-58.8	3.8	8.47e-01	0	40	104	0	66	12502
2026-01-18 03:02:31.50	25.20	6.94	-48.2	-58.9	3.8	8.47e-01	0	39	104	0	66	12523
2026-01-18 03:02:32.49	25.27	7.01	-48.2	-58.9	3.8	8.46e-01	0	40	104	0	66	12635
2026-01-18 03:02:33.48	25.33	7.08	-48.2	-59.1	3.8	8.46e-01	0	40	104	0	66	12837
2026-01-18 03:02:34.48	25.39	7.16	-48.2	-59.1	3.8	8.46e-01	0	40	104	0	66	12840
2026-01-18 03:02:35.47	25.45	7.23	-48.2	-59.0	3.8	8.48e-01	0	40	104	0	66	12752
2026-01-18 03:02:36.46	25.52	7.30	-48.2	-58.9	3.8	8.47e-01	0	40	104	0	66	12523
2026-01-18 03:02:37.46	25.58	7.37	-48.2	-58.5	3.8	8.47e-01	0	40	104	0	66	12090
2026-01-18 03:02:38.45	25.64	7.44	-48.1	-58.4	3.8	8.47e-01	0	40	104	0	66	11844
2026-01-18 03:02:39.44	25.71	7.51	-48.1	-58.1	3.8	8.46e-01	0	40	104	0	66	11528
2026-01-18 03:02:40.44	25.77	7.58	-48.1	-58.0	3.8	8.45e-01	0	40	104	0	66	11351
2026-01-18 03:02:41.43	25.84	7.65	-48.1	-57.9	3.8	8.47e-01	0	40	104	0	66	11174
2026-01-18 03:02:42.42	25.90	7.73	-48.1	-57.9	3.8	8.46e-01	0	40	104	0	66	11212
2026-01-18 03:02:43.42	25.97	7.80	-48.0	-57.7	3.8	8.46e-01	0	40	104	0	66	10948
2026-01-18 03:02:44.41	26.04	7.87	-48.1	-57.8	3.8	8.47e-01	0	40	104	0	66	11116
2026-01-18 03:02:45.40	26.10	7.94	-48.0	-57.7	3.8	8.46e-01	0	40	104	0	66	10979
2026-01-18 03:02:46.40	26.17	8.02	-48.0	-57.7	3.8	8.47e-01	0	40	104	0	66	10909
2026-01-18 03:02:47.39	26.23	8.09	-48.0	-57.6	3.8	8.47e-01	0	40	104	0	66	10865
2026-01-18 03:02:48.38	26.30	8.16	-48.0	-57.4	3.8	8.46e-01	0	40	104	0	66	10644
2026-01-18 03:02:49.38	26.37	8.24	-48.0	-57.1	3.8	8.47e-01	0	40	104	0	66	10289
2026-01-18 03:02:50.37	26.44	8.31	-47.9	-56.8	3.9	8.45e-01	0	40	104	0	66	9893
2026-01-18 03:02:51.36	26.50	8.38	-47.8	-56.4	3.9	8.43e-01	0	40	104	0	66	9422
2026-01-18 03:02:52.36	26.57	8.46	-47.7	-55.4	4.3	8.38e-01	0	40	0	0	66	8414
2026-01-18 03:02:53.35	26.64	8.53	-47.4	-54.3	4.7	8.23e-01	0	40	0	0	65	7838
2026-01-18 03:02:54.34	26.71	8.60	-47.0	-52.8	5.5	7.26e-01	0	40	0	0	64	6967
2026-01-18 03:02:55.34	26.78	8.68	-46.5	-51.1	6.9	2.28e-01	0	40	0	6291456	63	6108
2026-01-18 03:02:56.33	26.85	8.75	-45.8	-49.5	8.5	7.38e-02	0	40	0	13631488	62	5373
2026-01-18 03:02:57.32	26.92	8.83	-44.9	-47.9	10.1	9.32e-03	0	40	0	19922944	60	5026
2026-01-18 03:02:58.32	26.99	8.90	-43.9	-46.2	11.9	1.12e-03	0	41	0	27262976	58	4625
2026-01-18 03:02:59.31	27.06	8.98	-43.2	-45.2	12.9	6.06e-05	0	40	0	34603008	57	4387
2026-01-18 03:03:00.31	27.13	9.05	-42.3	-44.1	14.0	9.10e-06	0	40	0	41943040	55	4293
2026-01-18 03:03:01.30	27.20	9.13	-42.5	-44.4	13.8	0.00e+00	0	40	0	49283072	54	4718
2026-01-18 03:03:02.30	27.28	9.20	-46.1	-49.8	8.1	4.17e-01	0	41	0	55574528	63	5251
2026-01-18 03:03:03.29	27.35	9.28	-40.5	-41.8	16.5	0.00e+00	0	40	0	62914560	50	4417
2026-01-18 03:03:04.29	27.42	9.36	-42.9	-44.8	13.5	3.84e-04	0	40	0	70254592	56	4400
2026-01-18 03:03:05.28	27.49	9.43	-37.7	-38.8	19.2	0.00e+00	0	40	0	77594624	46	3932
2026-01-18 03:03:06.28	27.57	9.51	-37.7	-38.7	19.3	0.00e+00	0	41	0	84934656	46	3904
2026-01-18 03:03:07.29	27.64	9.59	-37.7	-38.8	19.3	0.00e+00	0	40	0	91226112	46	3922
2026-01-18 03:03:08.28	27.71	9.66	-37.6	-38.6	19.3	0.00e+00	0	40	0	98566144	45	4069
2026-01-18 03:03:09.34	27.79	9.75	-37.7	-38.7	19.3	0.00e+00	0	40	0	106954752	45	4136
2026-01-18 03:03:10.25	27.86	9.82	-37.5	-38.5	19.4	0.00e+00	0	40	0	113246208	45	4037
2026-01-18 03:03:11.39	27.95	9.91	-37.6	-38.6	19.4	0.00e+00	0	41	0	121634816	45	4066
2026-01-18 03:03:12.24	28.01	9.97	-37.3	-38.3	19.7	0.00e+00	0	40	0	127926272	45	3932
2026-01-18 03:03:13.59	28.12	10.08	-37.1	-38.1	19.8	0.00e+00	0	41	0	137363456	45	3868
2026-01-18 03:03:14.30	28.17	10.13	-37.2	-38.2	19.8	0.00e+00	0	41	0	142606336	44	4124
2026-01-18 03:03:15.58	28.27	10.24	-37.2	-38.2	19.8	0.00e+00	0	40	0	152043520	44	4141
2026-01-18 03:03:16.30	28.32	10.29	-37.2	-38.2	19.8	0.00e+00	0	41	0	157286400	44	4123
2026-01-18 03:03:17.84	28.44	10.41	-37.1	-38.2	19.9	0.00e+00	0	41	0	167772160	44	4100
2026-01-18 03:03:18.55	28.50	10.47	-37.2	-38.2	19.8	0.00e+00	0	41	0	173015040	44	4129
2026-01-18 03:03:19.83	28.60	10.57	-37.1	-38.1	19.9	0.00e+00	0	41	0	182452224	44	4098
2026-01-18 03:03:20.55	28.66	10.63	-37.0	-38.0	20.0	0.00e+00	0	41	0	187695104	44	4047
2026-01-18 03:03:21.83	28.76	10.73	-37.1	-38.1	19.9	0.00e+00	0	41	0	197132288	44	4061
2026-01-18 03:03:22.56	28.82	10.79	-37.2	-38.2	19.8	0.00e+00	0	41	0	202375168	44	4135
2026-01-18 03:03:23.84	28.92	10.89	-37.0	-38.1	19.7	0.00e+00	0	41	0	211812352	44	4056
2026-01-18 03:03:24.55	28.98	10.95	-37.0	-38.1	20.0	0.00e+00	0	41	0	217055232	44	4054
2026-01-18 03:03:25.83	29.08	11.06	-37.1	-38.1	19.9	0.00e+00	0	41	0	225443840	44	4076
2026-01-18 03:03:26.60	29.14	11.12	-37.0	-38.0	20.1	0.00e+00	0	41	0	231735296	44	4021
2026-01-18 03:03:27.88	29.25	11.22	-36.9	-37.9	20.1	0.00e+00	0	41	0	240123904	44	3992
2026-01-18 03:03:28.61	29.31	11.28	-36.9	-37.9	20.2	0.00e+00	0	41	0	245366784	44	3978
2026-01-18 03:03:30.22	29.44	11.41	-36.8	-37.8	20.2	0.00e+00	0	41	0	256901120	44	3952
2026-01-18 03:03:30.79	29.49	11.46	-36.8	-37.8	20.3	0.00e+00	0	41	0	261095424	44	3918
2026-01-18 03:03:32.49	29.63	11.60	-36.9	-37.9	20.1	0.00e+00	0	41	0	273678336	44	4001
2026-01-18 03:03:33.06	29.68	11.65	-36.9	-37.9	20.2	0.00e+00	0	41	0	277872640	44	3969
2026-01-18 03:03:34.80	29.83	11.79	-36.8	-37.8	20.3	0.00e+00	0	41	0	290455552	44	3915
2026-01-18 03:03:35.37	29.88	11.84	-36.9	-37.8	20.2	0.00e+00	0	41	0	294649856	44	3950
2026-01-18 03:03:37.07	30.03	11.98	-36.8	-37.8	20.3	0.00e+00	0	41	0	307232768	44	3918
2026-01-18 03:03:37.64	30.08	12.03	-36.9	-37.8	20.2	0.00e+00	0	41	0	311427072	44	3958
2026-01-18 03:03:39.34	30.22	12.17	-36.9	-37.8	20.2	0.00e+00	0	41	0	322961408	44	3950
2026-01-18 03:03:39.91	30.27	12.22	-36.8	-37.7	20.3	0.00e+00	0	41	0	327155712	44	3911
2026-01-18 03:03:41.62	30.42	12.37	-36.7	-37.7	20.4	0.00e+00	0	41	0	339738624	44	3891
2026-01-18 03:03:42.35	30.49	12.43	-36.8	-37.7	20.3	0.00e+00	0	41	0	344981504	44	3903
2026-01-18 03:03:43.63	30.60	12.54	-36.7	-37.6	20.4	0.00e+00	0	41	0	354418688	44	3855
2026-01-18 03:03:44.35	30.67	12.60	-36.8	-37.7	20.3	0.00e+00	0	41	0	359661568	44	3912
2026-01-18 03:03:45.63	30.78	12.71	-36.3	-37.3	20.5	0.00e+00	0	41	0	368050176	43	3933
2026-01-18 03:03:46.56	30.87	12.79	-36.4	-37.3	20.5	0.00e+00	0	41	0	375390208	43	3955
2026-01-18 03:03:47.56	30.96	12.87	-36.5	-37.4	20.4	0.00e+00	0	41	0	382730240	43	4002
2026-01-18 03:03:48.55	31.05	12.96	-36.1	-37.1	20.8	0.00e+00	0	41	0	390070272	43	3842
2026-01-18 03:03:49.55	31.14	13.05	-36.2	-37.2	20.7	0.00e+00	0	41	0	397410304	43	3886
2026-01-18 03:03:50.55	31.24	13.13	-36.3	-37.3	20.6	0.00e+00	0	41	0	404750336	43	3915
2026-01-18 03:03:51.54	31.33	13.22	-36.2	-37.2	20.6	0.00e+00	0	41	0	411041792	43	3895
2026-01-18 03:03:52.54	31.42	13.31	-36.2	-37.2	20.6	0.00e+00	0	41	0	418381824	43	3895
2026-01-18 03:03:53.53	31.52	13.39	-36.1	-37.1	20.7	0.00e+00	0	41	0	425721856	43	3845
2026-01-18 03:03:54.53	31.61	13.48	-36.1	-37.1	20.7	0.00e+00	0	41	0	433061888	43	3849
2026-01-18 03:03:55.55	31.71	13.57	-36.1	-37.1	20.8	0.00e+00	0	41	0	440401920	42	4062
2026-01-18 03:03:56.55	31.81	13.66	-36.1	-37.1	20.8	0.00e+00	0	41	0	447741952	42	4064
2026-01-18 03:03:57.55	31.90	13.75	-36.1	-37.1	20.9	0.00e+00	0	41	0	455081984	42	4059
2026-01-18 03:03:58.54	32.00	13.84	-36.2	-37.2	20.8	0.00e+00	0	41	0	462422016	42	4100
2026-01-18 03:03:59.54	32.10	13.93	-36.1	-37.0	20.9	0.00e+00	0	41	0	468713472	42	4046
2026-01-18 03:04:00.53	32.19	14.01	-36.1	-37.1	20.9	0.00e+00	0	41	0	476053504	42	4075
2026-01-18 03:04:01.52	32.29	14.10	-36.1	-37.0	20.9	0.00e+00	0	41	0	483393536	42	4036
2026-01-18 03:04:02.52	32.39	14.19	-36.0	-37.0	21.0	0.00e+00	0	41	0	490733568	42	4012
2026-01-18 03:04:03.51	32.49	14.28	-36.1	-37.0	20.9	0.00e+00	0	41	0	498073600	42	4036
2026-01-18 03:04:04.51	32.59	14.37	-36.0	-37.0	20.9	0.00e+00	0	41	0	505413632	42	4014
2026-01-18 03:04:05.50	32.69	14.46	-36.1	-37.0	20.9	0.00e+00	0	41	0	511705088	42	4029
2026-01-18 03:04:06.49	32.79	14.55	-36.1	-37.0	20.8	0.00e+00	0	41	0	519045120	42	4025
2026-01-18 03:04:07.49	32.89	14.64	-36.2	-37.1	20.7	0.00e+00	0	41	0	526385152	42	4080
2026-01-18 03:04:08.48	33.00	14.73	-36.1	-37.0	20.8	0.00e+00	0	41	0	533725184	42	4039
2026-01-18 03:04:09.48	33.10	14.83	-36.1	-37.0	20.8	0.00e+00	0	41	0	541065216	42	4046
2026-01-18 03:04:10.47	33.20	14.92	-36.0	-37.0	20.9	0.00e+00	0	41	0	548405248	42	4011
2026-01-18 03:04:11.46	33.31	15.01	-36.0	-37.0	21.0	0.00e+00	0	41	0	554696704	42	4025
2026-01-18 03:04:12.46	33.41	15.10	-35.9	-36.8	21.1	0.00e+00	0	41	0	562036736	42	3940
2026-01-18 03:04:13.45	33.52	15.19	-35.9	-36.9	21.1	0.00e+00	0	41	0	569376768	42	3966
2026-01-18 03:04:14.45	33.62	15.29	-35.9	-36.8	21.1	0.00e+00	0	41	0	576716800	42	3935
2026-01-18 03:04:15.45	33.73	15.38	-35.8	-36.7	21.2	0.00e+00	0	41	0	584056832	42	3896
2026-01-18 03:04:16.44	33.84	15.47	-35.8	-36.7	21.2	0.00e+00	0	41	0	591396864	42	3898
2026-01-18 03:04:17.43	33.95	15.56	-35.8	-36.7	21.2	0.00e+00	0	41	0	597688320	42	3891
2026-01-18 03:04:18.43	34.06	15.66	-35.7	-36.6	21.3	0.00e+00	0	41	0	605028352	42	3845
2026-01-18 03:04:19.42	34.16	15.75	-35.7	-36.6	21.3	0.00e+00	0	41	0	612368384	42	3850
2026-01-18 03:04:20.42	34.27	15.85	-35.7	-36.6	21.3	0.00e+00	0	41	0	619708416	42	3850
2026-01-18 03:04:21.42	34.39	15.94	-35.7	-36.6	21.3	0.00e+00	0	41	0	627048448	42	3857
2026-01-18 03:04:22.41	34.50	16.04	-35.7	-36.6	21.3	0.00e+00	0	41	0	634388480	42	3851
2026-01-18 03:04:23.41	34.61	16.13	-35.5	-36.4	21.4	0.00e+00	0	41	0	641728512	41	3995
2026-01-18 03:04:24.40	34.72	16.23	-35.6	-36.5	21.3	0.00e+00	0	41	0	649068544	41	4041
2026-01-18 03:04:25.40	34.84	16.32	-35.7	-36.6	21.3	0.00e+00	0	42	0	655360000	41	4067
2026-01-18 03:04:26.40	34.95	16.42	-35.6	-36.5	21.3	0.00e+00	0	41	0	662700032	41	4036
2026-01-18 03:04:27.39	35.07	16.51	-35.5	-36.4	21.4	0.00e+00	0	41	0	670040064	41	3998
2026-01-18 03:04:28.38	35.18	16.61	-35.5	-36.4	21.4	0.00e+00	0	41	0	677380096	41	3963
2026-01-18 03:04:29.46	35.31	16.72	-35.2	-36.1	21.7	0.00e+00	0	41	0	684720128	41	3844
2026-01-18 03:04:30.31	35.41	16.80	-35.3	-36.2	21.6	0.00e+00	0	41	0	691011584	41	3871
2026-01-18 03:04:31.67	35.57	16.93	-35.2	-36.0	21.7	0.00e+00	0	41	0	700448768	41	3821
2026-01-18 03:04:32.38	35.65	17.00	-35.2	-36.1	21.6	0.00e+00	0	41	0	705691648	41	3833
2026-01-18 03:04:33.66	35.81	17.13	-35.0	-35.9	21.8	0.00e+00	0	41	0	715128832	40	3981
2026-01-18 03:04:34.37	35.89	17.20	-34.9	-35.7	22.0	0.00e+00	0	41	0	720371712	40	3907
2026-01-18 03:04:35.65	36.05	17.32	-34.9	-35.7	22.1	0.00e+00	0	41	0	729808896	40	3897
2026-01-18 03:04:36.37	36.14	17.39	-34.9	-35.7	22.1	0.00e+00	0	41	0	735051776	40	3909
2026-01-18 03:04:37.64	36.29	17.52	-35.0	-35.8	22.1	0.00e+00	0	41	0	744488960	40	3953
2026-01-18 03:04:38.35	36.38	17.59	-35.0	-35.9	22.1	0.00e+00	0	41	0	749731840	40	3966
2026-01-18 03:04:39.63	36.54	17.72	-35.0	-35.9	22.0	0.00e+00	0	41	0	758120448	40	3988
2026-01-18 03:04:40.34	36.63	17.79	-35.0	-35.9	22.0	0.00e+00	0	41	0	763363328	40	3967
2026-01-18 03:04:41.62	36.79	17.92	-35.1	-36.0	21.9	0.00e+00	0	41	0	772800512	40	4009
2026-01-18 03:04:42.34	36.88	17.99	-35.0	-35.9	21.9	0.00e+00	0	42	0	778043392	40	3989
2026-01-18 03:04:43.64	37.05	18.12	-35.1	-36.0	21.9	0.00e+00	0	41	0	787480576	40	4026
2026-01-18 03:04:44.35	37.14	18.20	-35.2	-36.1	21.7	0.00e+00	0	42	0	792723456	40	4079
2026-01-18 03:04:45.63	37.30	18.33	-35.2	-36.1	21.8	0.00e+00	0	41	0	801112064	40	4057
2026-01-18 03:04:46.34	37.40	18.40	-35.1	-36.0	21.9	0.00e+00	0	41	0	806354944	40	4022
2026-01-18 03:04:47.74	37.58	18.54	-35.2	-36.1	21.8	0.00e+00	0	41	0	816840704	40	4061
2026-01-18 03:04:48.45	37.67	18.61	-35.1	-36.0	21.8	0.00e+00	0	41	0	822083584	40	4023
2026-01-18 03:04:49.73	37.85	18.75	-35.2	-36.1	21.6	0.00e+00	0	41	0	831520768	40	4093
2026-01-18 03:04:50.44	37.94	18.82	-35.0	-35.9	21.8	0.00e+00	0	41	0	836763648	40	3986
2026-01-18 03:04:51.72	38.11	18.95	-34.9	-35.8	22.0	0.00e+00	0	41	0	845152256	40	3930
2026-01-18 03:04:52.43	38.21	19.03	-34.9	-35.8	21.9	0.00e+00	0	41	0	850395136	40	3944
2026-01-18 03:04:53.71	38.38	19.16	-34.9	-35.8	21.9	0.00e+00	0	41	0	859832320	40	3921
2026-01-18 03:04:54.43	38.48	19.23	-34.9	-35.8	22.0	0.00e+00	0	41	0	865075200	40	3924
2026-01-18 03:04:55.71	38.66	19.37	-34.7	-35.6	22.2	0.00e+00	0	41	0	874512384	40	3827
2026-01-18 03:04:56.44	38.76	19.44	-34.7	-35.5	22.3	0.00e+00	0	42	0	879755264	40	3809
2026-01-18 03:04:57.72	38.94	19.58	-34.6	-35.5	22.4	0.00e+00	0	41	0	889192448	40	3782
2026-01-18 03:04:58.43	39.04	19.65	-34.6	-35.5	22.4	0.00e+00	0	41	0	894435328	39	4022
2026-01-18 03:04:59.71	39.22	19.79	-34.6	-35.4	22.5	0.00e+00	0	41	0	903872512	39	3981
2026-01-18 03:05:00.61	39.35	19.88	-34.5	-35.4	22.5	0.00e+00	0	41	0	910163968	39	3972
2026-01-18 03:05:02.02	39.56	20.03	-34.4	-35.2	22.6	0.00e+00	0	41	0	919601152	39	3908
2026-01-18 03:05:02.73	39.66	20.11	-34.4	-35.2	22.7	0.00e+00	0	41	0	924844032	39	3909
2026-01-18 03:05:04.01	39.85	20.25	-34.3	-35.2	22.7	0.00e+00	0	41	0	934281216	39	3874
2026-01-18 03:05:04.72	39.95	20.32	-34.4	-35.3	22.7	0.00e+00	0	42	0	939524096	39	3918
2026-01-18 03:05:06.00	40.14	20.46	-34.5	-35.3	22.7	0.00e+00	0	41	0	948961280	39	3932
2026-01-18 03:05:06.71	40.25	20.54	-34.4	-35.3	22.7	0.00e+00	0	42	0	954204160	39	3917
2026-01-18 03:05:07.99	40.44	20.68	-34.5	-35.3	22.6	0.00e+00	0	41	0	963641344	39	3940
2026-01-18 03:05:08.72	40.55	20.75	-34.5	-35.3	22.6	0.00e+00	0	41	0	968884224	39	3958
2026-01-18 03:05:10.00	40.74	20.89	-34.6	-35.5	22.5	0.00e+00	0	41	0	977272832	39	4023
2026-01-18 03:05:10.72	40.85	20.97	-34.6	-35.4	22.6	0.00e+00	0	41	0	982515712	39	3991
2026-01-18 03:05:12.00	41.05	21.11	-34.8	-35.6	22.4	0.00e+00	0	41	0	991952896	39	4095
2026-01-18 03:05:12.73	41.17	21.19	-34.7	-35.5	22.5	0.00e+00	0	41	0	997195776	39	4035
2026-01-18 03:05:14.04	41.37	21.34	-34.6	-35.4	22.6	0.00e+00	0	42	0	1006632960	39	3985
2026-01-18 03:05:14.75	41.48	21.41	-34.6	-35.4	22.6	0.00e+00	0	41	0	1011875840	39	3992
2026-01-18 03:05:16.03	41.69	21.55	-34.6	-35.4	22.6	0.00e+00	0	41	0	1021313024	39	3989
2026-01-18 03:05:16.76	41.80	21.64	-34.5	-35.4	22.6	0.00e+00	0	41	0	1026555904	39	3972
2026-01-18 03:05:18.04	42.01	21.78	-34.5	-35.4	22.7	0.00e+00	0	41	0	1035993088	39	3966
2026-01-18 03:05:18.75	42.12	21.86	-34.6	-35.5	22.5	0.00e+00	0	42	0	1041235968	39	4022
2026-01-18 03:05:20.02	42.33	22.00	-34.5	-35.3	22.7	0.00e+00	0	42	0	1049624576	39	3947
2026-01-18 03:05:20.73	42.45	22.08	-34.6	-35.4	22.6	0.00e+00	0	41	0	1054867456	39	4002
2026-01-18 03:05:22.01	42.66	22.22	-34.5	-35.4	22.6	0.00e+00	0	41	0	1064304640	39	3981
2026-01-18 03:05:22.72	42.78	22.30	-34.4	-35.3	22.7	0.00e+00	0	41	0	1069547520	39	3932
2026-01-18 03:05:24.00	42.99	22.44	-34.4	-35.2	22.7	0.00e+00	0	41	0	1078984704	39	3912
2026-01-18 03:05:24.75	43.12	22.53	-34.4	-35.2	22.8	0.00e+00	0	41	0	1084227584	39	3896
2026-01-18 03:05:26.02	43.34	22.67	-34.3	-35.1	22.9	0.00e+00	0	41	0	1093664768	39	3844
2026-01-18 03:05:26.73	43.46	22.75	-34.2	-35.0	23.0	0.00e+00	0	42	0	1097859072	39	3818
2026-01-18 03:05:28.01	43.68	22.90	-34.1	-34.9	23.1	0.00e+00	0	41	0	1107296256	39	3769
2026-01-18 03:05:28.73	43.81	22.98	-34.1	-34.9	23.0	0.00e+00	0	41	0	1112539136	39	3774
2026-01-18 03:05:30.00	44.03	23.12	-34.1	-34.9	23.1	0.00e+00	0	41	0	1121976320	38	3974
2026-01-18 03:05:30.73	44.16	23.21	-34.1	-34.9	23.1	0.00e+00	0	41	0	1127219200	38	4001
2026-01-18 03:05:32.06	44.39	23.36	-34.1	-34.9	23.1	0.00e+00	0	41	0	1136656384	38	3983
2026-01-18 03:05:32.77	44.52	23.44	-34.1	-34.9	23.1	0.00e+00	0	41	0	1141899264	38	3982
2026-01-18 03:05:34.11	44.76	23.59	-34.0	-34.8	23.2	0.00e+00	0	42	0	1151336448	38	3956
2026-01-18 03:05:34.82	44.89	23.67	-34.0	-34.8	23.2	0.00e+00	0	41	0	1156579328	38	3943
2026-01-18 03:05:36.11	45.13	23.82	-33.9	-34.7	23.3	0.00e+00	0	41	0	1166016512	38	3905
2026-01-18 03:05:37.16	45.32	23.94	-33.8	-34.6	23.4	0.00e+00	0	41	0	1173356544	38	3849
2026-01-18 03:05:38.36	45.55	24.08	-33.8	-34.6	23.4	0.00e+00	0	42	0	1182793728	38	3847
2026-01-18 03:05:39.22	45.71	24.18	-33.9	-34.7	23.3	0.00e+00	0	42	0	1188036608	38	3884
2026-01-18 03:05:40.35	45.92	24.31	-34.0	-34.8	23.2	0.00e+00	0	41	0	1196425216	38	3947
2026-01-18 03:05:41.20	46.08	24.41	-33.9	-34.7	23.3	0.00e+00	0	41	0	1202716672	38	3879
2026-01-18 03:05:42.34	46.30	24.55	-33.9	-34.8	23.2	0.00e+00	0	41	0	1211105280	38	3915
2026-01-18 03:05:43.19	46.46	24.65	-34.0	-34.8	23.2	0.00e+00	0	42	0	1217396736	38	3943
2026-01-18 03:05:44.33	46.69	24.78	-34.0	-34.9	23.1	0.00e+00	0	41	0	1225785344	38	3961
2026-01-18 03:05:45.18	46.85	24.88	-34.0	-34.8	23.2	0.00e+00	0	41	0	1231028224	38	3949
2026-01-18 03:05:46.35	47.08	25.02	-33.9	-34.8	23.2	0.00e+00	0	42	0	1240465408	38	3924
2026-01-18 03:05:47.20	47.25	25.12	-34.0	-34.8	23.2	0.00e+00	0	41	0	1246756864	38	3938
2026-01-18 03:05:48.42	47.50	25.26	-34.1	-34.9	23.1	0.00e+00	0	41	0	1255145472	38	3992
2026-01-18 03:05:49.27	47.67	25.36	-33.9	-34.7	23.3	0.00e+00	0	41	0	1261436928	38	3909
2026-01-18 03:05:50.41	47.90	25.49	-33.9	-34.8	23.2	0.00e+00	0	41	0	1269825536	38	3920
2026-01-18 03:05:51.26	48.07	25.59	-34.0	-34.8	23.2	0.00e+00	0	41	0	1275068416	38	3950
2026-01-18 03:05:52.51	48.33	25.74	-34.0	-34.8	23.2	0.00e+00	0	41	0	1284505600	38	3930
2026-01-18 03:05:53.36	48.51	25.84	-34.0	-34.9	23.2	0.00e+00	0	41	0	1290797056	38	3969
2026-01-18 03:05:54.58	48.76	25.99	-34.0	-34.8	23.2	0.00e+00	0	41	0	1299185664	38	3941
2026-01-18 03:05:55.43	48.94	26.09	-34.0	-34.8	23.2	0.00e+00	0	41	0	1305477120	38	3951
2026-01-18 03:05:56.63	49.20	26.23	-33.9	-34.7	23.3	0.00e+00	0	42	0	1313865728	38	3894
2026-01-18 03:05:57.48	49.38	26.33	-33.9	-34.7	23.3	0.00e+00	0	41	0	1320157184	38	3883
2026-01-18 03:05:58.68	49.64	26.47	-33.8	-34.6	23.4	0.00e+00	0	42	0	1328545792	38	3852
2026-01-18 03:05:59.54	49.83	26.58	-33.8	-34.6	23.4	0.00e+00	0	42	0	1334837248	38	3849
2026-01-18 03:06:00.67	50.07	26.71	-33.7	-34.6	23.4	0.00e+00	0	41	0	1343225856	38	3829
2026-01-18 03:06:01.52	50.26	26.81	-33.7	-34.5	23.5	0.00e+00	0	41	0	1349517312	38	3805
2026-01-18 03:06:02.66	50.51	26.95	-33.7	-34.5	23.5	0.00e+00	0	42	0	1357905920	38	3792
2026-01-18 03:06:03.52	50.71	27.05	-33.7	-34.5	23.5	0.00e+00	0	41	0	1364197376	38	3803
2026-01-18 03:06:04.65	50.96	27.19	-33.7	-34.5	23.5	0.00e+00	0	42	0	1372585984	38	3809
2026-01-18 03:06:05.63	51.19	27.30	-33.7	-34.5	23.5	0.00e+00	0	41	0	1378877440	38	3796
2026-01-18 03:06:06.63	51.41	27.42	-33.7	-34.5	23.5	0.00e+00	0	42	0	1386217472	38	3806
2026-01-18 03:06:07.62	51.64	27.54	-33.7	-34.5	23.4	0.00e+00	0	42	0	1393557504	38	3818
2026-01-18 03:06:08.85	51.93	27.69	-33.7	-34.5	23.5	0.00e+00	0	42	0	1402994688	37	4014
2026-01-18 03:06:09.74	52.14	27.80	-33.6	-34.4	23.5	0.00e+00	0	41	0	1408237568	37	3992
2026-01-18 03:06:10.88	52.41	27.93	-33.6	-34.4	23.5	0.00e+00	0	42	0	1416626176	37	3983
2026-01-18 03:06:11.79	52.62	28.04	-33.7	-34.5	23.4	0.00e+00	0	42	0	1423966208	37	4044
2026-01-18 03:06:12.96	52.90	28.18	-33.7	-34.5	23.5	0.00e+00	0	41	0	1432354816	37	4017
2026-01-18 03:06:13.81	53.11	28.28	-33.7	-34.5	23.5	0.00e+00	0	42	0	1438646272	37	4026
2026-01-18 03:06:14.95	53.39	28.42	-33.6	-34.4	23.6	0.00e+00	0	42	0	1447034880	37	3981
2026-01-18 03:06:15.81	53.60	28.52	-33.6	-34.4	23.6	0.00e+00	0	42	0	1452277760	37	3974
2026-01-18 03:06:16.94	53.88	28.66	-33.5	-34.3	23.7	0.00e+00	0	42	0	1460666368	37	3926
2026-01-18 03:06:17.80	54.09	28.76	-33.5	-34.3	23.6	0.00e+00	0	41	0	1466957824	37	3954
2026-01-18 03:06:18.94	54.38	28.90	-33.6	-34.4	23.6	0.00e+00	0	41	0	1475346432	37	3988
2026-01-18 03:06:19.79	54.59	29.00	-33.6	-34.4	23.6	0.00e+00	0	42	0	1481637888	37	3990
2026-01-18 03:06:20.92	54.88	29.14	-33.6	-34.4	23.6	0.00e+00	0	41	0	1490026496	37	3980
2026-01-18 03:06:21.78	55.10	29.24	-33.5	-34.3	23.7	0.00e+00	0	42	0	1495269376	37	3934
2026-01-18 03:06:22.91	55.39	29.37	-33.5	-34.3	23.6	0.00e+00	0	42	0	1503657984	37	3956
2026-01-18 03:06:23.77	55.61	29.48	-33.7	-34.5	23.5	0.00e+00	0	42	0	1509949440	37	4026
2026-01-18 03:06:24.90	55.91	29.61	-33.7	-34.5	23.5	0.00e+00	0	42	0	1518338048	37	4023
2026-01-18 03:06:25.76	56.14	29.71	-33.7	-34.5	23.5	0.00e+00	0	41	0	1524629504	37	4041
2026-01-18 03:06:27.00	56.47	29.86	-33.7	-34.5	23.5	0.00e+00	0	41	0	1534066688	37	4051
2026-01-18 03:06:27.85	56.69	29.96	-33.6	-34.4	23.5	0.00e+00	0	41	0	1539309568	37	4000
2026-01-18 03:06:29.07	57.02	30.11	-33.6	-34.5	23.5	0.00e+00	0	42	0	1548746752	37	4006
2026-01-18 03:06:29.92	57.25	30.21	-33.6	-34.4	23.6	0.00e+00	0	42	0	1555038208	37	3993
2026-01-18 03:06:31.11	57.58	30.35	-33.5	-34.3	23.6	0.00e+00	0	42	0	1563426816	37	3952
2026-01-18 03:06:31.96	57.81	30.45	-33.4	-34.2	23.7	0.00e+00	0	41	0	1569718272	37	3909
2026-01-18 03:06:33.10	58.13	30.58	-33.5	-34.3	23.7	0.00e+00	0	41	0	1578106880	37	3921
2026-01-18 03:06:33.95	58.37	30.68	-33.5	-34.3	23.7	0.00e+00	0	41	0	1583349760	37	3937
2026-01-18 03:06:35.09	58.69	30.81	-33.7	-34.5	23.5	0.00e+00	0	42	0	1591738368	37	4031
2026-01-18 03:06:36.00	58.95	30.92	-33.7	-34.5	23.5	0.00e+00	0	41	0	1599078400	37	4039
2026-01-18 03:06:37.00	59.23	31.04	-33.5	-34.3	23.6	0.00e+00	0	41	0	1605369856	37	3954
2026-01-18 03:06:37.99	59.52	31.15	-33.5	-34.3	23.7	0.00e+00	0	42	0	1612709888	37	3923
2026-01-18 03:06:38.99	59.81	31.27	-33.3	-34.1	23.8	0.00e+00	0	42	0	1620049920	37	3868
2026-01-18 03:06:39.98	60.10	31.38	-33.4	-34.2	23.8	0.00e+00	0	41	0	1627389952	37	3887
2026-01-18 03:06:40.97	60.39	31.50	-33.5	-34.3	23.7	0.00e+00	0	42	0	1634729984	37	3936
2026-01-18 03:06:41.97	60.68	31.61	-33.5	-34.3	23.7	0.00e+00	0	42	0	1641021440	37	3930
2026-01-18 03:06:42.96	60.98	31.72	-33.4	-34.2	23.7	0.00e+00	0	41	0	1648361472	37	3908
2026-01-18 03:06:43.96	61.28	31.84	-33.5	-34.3	23.7	0.00e+00	0	42	0	1655701504	37	3928
2026-01-18 03:06:44.96	61.58	31.95	-33.5	-34.4	23.6	0.00e+00	0	41	0	1663041536	37	3965
2026-01-18 03:06:45.95	61.88	32.06	-33.5	-34.3	23.7	0.00e+00	0	41	0	1670381568	37	3919
2026-01-18 03:06:46.95	62.19	32.18	-33.6	-34.4	23.6	0.00e+00	0	42	0	1677721600	37	3979
2026-01-18 03:06:47.97	62.50	32.29	-33.5	-34.3	23.7	0.00e+00	0	42	0	1685061632	37	3955
2026-01-18 03:06:48.97	62.81	32.40	-33.6	-34.4	23.6	0.00e+00	0	41	0	1692401664	37	3969
2026-01-18 03:06:49.96	63.12	32.51	-33.7	-34.5	23.5	0.00e+00	0	41	0	1699741696	37	4037
2026-01-18 03:06:50.96	63.44	32.62	-33.8	-34.6	23.5	0.00e+00	0	42	0	1706033152	37	4060
2026-01-18 03:06:52.06	63.79	32.75	-33.7	-34.5	23.5	0.00e+00	0	42	0	1714421760	37	4015
2026-01-18 03:06:52.94	64.07	32.84	-33.6	-34.4	23.6	0.00e+00	0	41	0	1720713216	37	3988
2026-01-18 03:06:54.07	64.43	32.97	-33.6	-34.4	23.6	0.00e+00	0	41	0	1729101824	37	3981
2026-01-18 03:06:54.99	64.73	33.07	-33.5	-34.3	23.7	0.00e+00	0	42	0	1735393280	37	3948
2026-01-18 03:06:56.16	65.11	33.19	-33.5	-34.3	23.7	0.00e+00	0	41	0	1743781888	37	3956
2026-01-18 03:06:57.01	65.39	33.28	-33.4	-34.2	23.8	0.00e+00	0	42	0	1750073344	37	3878
2026-01-18 03:06:58.15	65.77	33.40	-33.3	-34.1	23.8	0.00e+00	0	42	0	1758461952	37	3856
2026-01-18 03:06:59.00	66.05	33.49	-33.4	-34.2	23.8	0.00e+00	0	41	0	1764753408	37	3872
2026-01-18 03:07:00.14	66.43	33.61	-33.3	-34.1	23.9	0.00e+00	0	41	0	1772093440	37	3845
2026-01-18 03:07:00.99	66.72	33.70	-33.4	-34.2	23.8	0.00e+00	0	42	0	1779433472	37	3871
2026-01-18 03:07:02.13	67.10	33.82	-33.5	-34.4	23.6	0.00e+00	0	41	0	1786773504	37	3961
2026-01-18 03:07:02.98	67.39	33.91	-33.6	-34.4	23.6	0.00e+00	0	42	0	1793064960	37	3982
2026-01-18 03:07:04.12	67.78	34.03	-33.7	-34.5	23.5	0.00e+00	0	42	0	1801453568	37	4048
2026-01-18 03:07:04.97	68.08	34.11	-33.6	-34.5	23.5	0.00e+00	0	41	0	1807745024	37	4009
2026-01-18 03:07:06.11	68.47	34.23	-33.5	-34.3	23.7	0.00e+00	0	42	0	1816133632	37	3922
2026-01-18 03:07:06.96	68.77	34.31	-33.4	-34.2	23.8	0.00e+00	0	42	0	1822425088	37	3905
2026-01-18 03:07:08.11	69.17	34.43	-33.3	-34.1	23.9	0.00e+00	0	42	0	1830813696	37	3835
2026-01-18 03:07:08.97	69.48	34.51	-33.4	-34.2	23.8	0.00e+00	0	42	0	1836056576	37	3896
2026-01-18 03:07:10.10	69.88	34.62	-33.5	-34.3	23.7	0.00e+00	0	42	0	1844445184	37	3933
2026-01-18 03:07:10.96	70.19	34.70	-33.4	-34.2	23.7	0.00e+00	0	42	0	1850736640	37	3911
2026-01-18 03:07:12.09	70.59	34.81	-33.5	-34.3	23.7	0.00e+00	0	42	0	1859125248	37	3919
2026-01-18 03:07:12.99	70.92	34.90	-33.5	-34.3	23.7	0.00e+00	0	42	0	1865416704	37	3946
2026-01-18 03:07:14.08	71.31	35.00	-33.6	-34.4	23.6	0.00e+00	0	42	0	1872756736	37	3971
2026-01-18 03:07:14.93	71.63	35.08	-33.6	-34.4	23.5	0.00e+00	0	42	0	1879048192	37	3999
2026-01-18 03:07:16.07	72.04	35.18	-33.7	-34.5	23.5	0.00e+00	0	42	0	1887436800	37	4036
2026-01-18 03:07:16.92	72.36	35.26	-33.6	-34.4	23.3	0.00e+00	0	42	0	1893728256	37	3965
2026-01-18 03:07:18.06	72.78	35.36	-33.6	-34.4	23.6	0.00e+00	0	42	0	1902116864	37	3986
2026-01-18 03:07:18.92	73.11	35.44	-33.5	-34.3	23.7	0.00e+00	0	42	0	1908408320	37	3930
2026-01-18 03:07:20.05	73.53	35.54	-33.4	-34.3	23.7	0.00e+00	0	42	0	1916796928	37	3914
2026-01-18 03:07:20.90	73.85	35.61	-33.5	-34.3	23.7	0.00e+00	0	42	0	1923088384	37	3944
2026-01-18 03:07:22.04	74.28	35.71	-33.5	-34.3	23.7	0.00e+00	0	42	0	1930428416	37	3952
2026-01-18 03:07:22.89	74.61	35.78	-33.6	-34.4	23.6	0.00e+00	0	42	0	1936719872	37	3992
2026-01-18 03:07:24.08	75.07	35.88	-33.5	-34.3	23.7	0.00e+00	0	42	0	1945108480	37	3951
2026-01-18 03:07:24.93	75.39	35.95	-33.4	-34.2	23.7	0.00e+00	0	42	0	1951399936	37	3908
2026-01-18 03:07:26.06	75.83	36.04	-33.4	-34.2	23.8	0.00e+00	0	42	0	1959788544	37	3889
2026-01-18 03:07:26.92	76.17	36.10	-33.5	-34.3	23.7	0.00e+00	0	41	0	1966080000	37	3947
2026-01-18 03:07:28.06	76.61	36.19	-33.4	-34.2	23.7	0.00e+00	0	42	0	1974468608	37	3901
2026-01-18 03:07:28.92	76.95	36.26	-33.5	-34.4	23.6	0.00e+00	0	42	0	1980760064	37	3959
2026-01-18 03:07:30.06	77.40	36.35	-33.2	-34.0	24.0	0.00e+00	0	42	0	1989148672	37	3791
2026-01-18 03:07:30.91	77.74	36.41	-33.2	-34.0	24.0	0.00e+00	0	42	0	1994391552	37	3786
2026-01-18 03:07:32.05	78.19	36.49	-33.2	-34.0	24.0	0.00e+00	0	42	0	2002780160	37	3794
2026-01-18 03:07:32.90	78.54	36.55	-33.2	-34.0	24.0	0.00e+00	0	42	0	2009071616	37	3804
2026-01-18 03:07:34.03	78.99	36.63	-33.4	-34.2	23.8	0.00e+00	0	42	0	2017460224	37	3879
2026-01-18 03:07:34.89	79.34	36.69	-33.4	-34.3	23.7	0.00e+00	0	41	0	2023751680	37	3917
2026-01-18 03:07:36.02	79.80	36.76	-33.6	-34.5	23.5	0.00e+00	0	42	0	2032140288	37	4009
2026-01-18 03:07:36.88	80.15	36.82	-33.8	-34.6	23.4	0.00e+00	0	42	0	2037383168	37	4096
2026-01-18 03:07:38.01	80.61	36.89	-33.7	-34.5	23.5	0.00e+00	0	42	0	2045771776	37	4051
2026-01-18 03:07:38.87	80.96	36.95	-33.7	-34.5	23.5	0.00e+00	0	42	0	2052063232	37	4036
2026-01-18 03:07:40.00	81.43	37.02	-33.7	-34.5	23.5	0.00e+00	0	42	0	2060451840	37	4027
2026-01-18 03:07:40.86	81.78	37.07	-33.6	-34.4	23.7	0.00e+00	0	42	0	2066743296	37	3976
2026-01-18 03:07:42.09	82.29	37.14	-33.7	-34.6	23.4	0.00e+00	0	42	0	2075131904	37	4060
2026-01-18 03:07:42.94	82.65	37.19	-33.7	-34.6	23.4	0.00e+00	0	42	0	2081423360	37	4052
2026-01-18 03:07:44.08	83.12	37.25	-33.8	-34.7	23.4	0.00e+00	0	41	0	2089811968	37	4105
2026-01-18 03:07:44.93	83.48	37.29	-33.8	-34.6	23.4	0.00e+00	0	42	0	2096103424	37	4079
2026-01-18 03:07:46.07	83.96	37.35	-33.6	-34.4	23.5	0.00e+00	0	42	0	2104492032	37	3970
2026-01-18 03:07:46.92	84.32	37.40	-33.6	-34.4	23.7	0.00e+00	0	42	0	2110783488	37	3975
2026-01-18 03:07:48.06	84.80	37.45	-33.3	-34.1	23.8	0.00e+00	0	42	0	2119172096	37	3849
2026-01-18 03:07:48.92	85.16	37.49	-33.3	-34.1	23.9	0.00e+00	0	42	0	2124414976	37	3842
2026-01-18 03:07:50.05	85.65	37.54	-33.3	-34.1	23.8	0.00e+00	0	42	0	2132803584	37	3847
2026-01-18 03:07:50.91	86.01	37.58	-33.2	-34.0	23.9	0.00e+00	0	42	0	2139095040	37	3822
2026-01-18 03:07:52.04	86.50	37.63	-33.4	-34.2	23.8	0.00e+00	0	42	0	2147483648	37	3883
2026-01-18 03:07:52.90	86.86	37.66	-33.4	-34.2	23.8	0.00e+00	0	42	0	2153775104	37	3905
2026-01-18 03:07:54.04	87.36	37.70	-33.5	-34.3	23.7	0.00e+00	0	42	0	2162163712	37	3930
2026-01-18 03:07:54.89	87.72	37.73	-33.3	-34.2	23.8	0.00e+00	0	42	0	2168455168	37	3875
2026-01-18 03:07:56.03	88.21	37.77	-33.2	-34.0	23.9	0.00e+00	0	42	0	2175795200	37	3806
2026-01-18 03:07:56.88	88.58	37.80	-33.2	-34.0	23.9	0.00e+00	0	42	0	2182086656	37	3817
2026-01-18 03:07:58.02	89.08	37.84	-33.0	-33.8	24.1	0.00e+00	0	42	0	2190475264	36	3929
2026-01-18 03:07:58.87	89.45	37.86	-33.0	-33.8	24.1	0.00e+00	0	42	0	2196766720	36	3929
2026-01-18 03:08:00.01	89.94	37.89	-33.1	-33.9	24.0	0.00e+00	0	42	0	2205155328	36	4001
2026-01-18 03:08:00.86	90.31	37.92	-33.2	-34.0	23.9	0.00e+00	0	42	0	2211446784	36	4038
2026-01-18 03:08:02.08	90.84	37.95	-33.3	-34.1	23.9	0.00e+00	0	42	0	2219835392	36	4052
2026-01-18 03:08:02.93	91.22	37.96	-33.3	-34.1	23.8	0.00e+00	0	42	0	2226126848	36	4089
2026-01-18 03:08:04.07	91.72	37.99	-33.2	-34.0	24.0	0.00e+00	0	42	0	2234515456	36	4018
2026-01-18 03:08:04.92	92.09	38.00	-33.2	-34.0	24.0	0.00e+00	0	42	0	2240806912	36	4040
2026-01-18 03:08:06.06	92.59	38.02	-33.4	-34.2	23.7	0.00e+00	0	42	0	2248146944	36	4138
2026-01-18 03:08:06.91	92.96	38.03	-33.4	-34.2	23.8	0.00e+00	0	42	0	2254438400	36	4140
2026-01-18 03:08:08.05	93.46	38.05	-33.4	-34.2	23.7	0.00e+00	0	42	0	2262827008	36	4128
2026-01-18 03:08:08.90	93.84	38.06	-33.5	-34.3	23.7	0.00e+00	0	42	0	2269118464	36	4171
2026-01-18 03:08:10.03	94.33	38.07	-33.4	-34.2	23.7	0.00e+00	0	42	0	2277507072	36	4117
2026-01-18 03:08:10.89	94.71	38.08	-33.4	-34.2	23.7	0.00e+00	0	42	0	2282749952	36	4120
2026-01-18 03:08:12.02	95.21	38.08	-33.4	-34.2	23.7	0.00e+00	0	42	0	2291138560	36	4139
2026-01-18 03:08:12.88	95.59	38.09	-33.4	-34.2	23.8	0.00e+00	0	42	0	2297430016	36	4131
2026-01-18 03:08:14.03	96.10	38.09	-33.5	-34.3	23.7	0.00e+00	0	41	0	2305818624	36	4159
2026-01-18 03:08:14.88	96.47	38.09	-33.3	-34.1	23.9	0.00e+00	0	42	0	2312110080	36	4082
2026-01-18 03:08:16.02	96.98	38.08	-33.4	-34.2	23.8	0.00e+00	0	42	0	2320498688	36	4116
2026-01-18 03:08:16.87	97.35	38.08	-33.3	-34.1	23.9	0.00e+00	0	42	0	2326790144	36	4071
2026-01-18 03:08:18.11	97.90	38.07	-33.2	-34.0	23.9	0.00e+00	0	42	0	2335178752	36	4044
2026-01-18 03:08:18.96	98.27	38.07	-33.4	-34.2	23.8	0.00e+00	0	42	0	2341470208	36	4121
2026-01-18 03:08:20.10	98.77	38.06	-33.3	-34.1	23.8	0.00e+00	0	42	0	2349858816	36	4096
2026-01-18 03:08:20.95	99.15	38.05	-33.5	-34.3	23.7	0.00e+00	0	42	0	2356150272	36	4181
2026-01-18 03:08:22.08	99.64	38.03	-33.6	-34.4	23.6	0.00e+00	0	42	0	2364538880	36	4234
2026-01-18 03:08:22.95	100.03	38.02	-33.5	-34.4	23.7	0.00e+00	0	42	0	2370830336	36	4195
2026-01-18 03:08:24.09	100.53	38.00	-33.3	-34.1	23.9	0.00e+00	0	42	0	2379218944	36	4070
2026-01-18 03:08:24.94	100.90	37.98	-33.3	-34.1	23.8	0.00e+00	0	42	0	2385510400	36	4087
2026-01-18 03:08:26.08	101.40	37.96	-33.4	-34.2	23.8	0.00e+00	0	42	0	2392850432	36	4118
2026-01-18 03:08:26.94	101.78	37.94	-33.5	-34.3	23.6	0.00e+00	0	42	0	2399141888	36	4185
2026-01-18 03:08:28.07	102.27	37.91	-33.7	-34.6	23.4	0.00e+00	0	42	0	2407530496	37	4057
2026-01-18 03:08:28.92	102.64	37.89	-33.9	-34.7	23.3	0.00e+00	0	42	0	2413821952	37	4137
2026-01-18 03:08:30.06	103.14	37.86	-33.8	-34.6	23.4	0.00e+00	0	42	0	2422210560	37	4092
2026-01-18 03:08:30.92	103.51	37.83	-33.7	-34.6	23.5	0.00e+00	0	42	0	2428502016	37	4066
2026-01-18 03:08:32.05	104.00	37.80	-33.6	-34.4	23.6	0.00e+00	0	42	0	2435842048	37	3979
2026-01-18 03:08:32.91	104.37	37.77	-33.6	-34.4	23.6	0.00e+00	0	42	0	2442133504	37	3977
2026-01-18 03:08:34.04	104.86	37.73	-33.5	-34.3	23.7	0.00e+00	0	42	0	2450522112	37	3928
2026-01-18 03:08:34.89	105.23	37.70	-33.5	-34.3	23.6	0.00e+00	0	42	0	2456813568	37	3944
2026-01-18 03:08:36.11	105.75	37.65	-33.6	-34.5	23.6	0.00e+00	0	42	0	2465202176	37	4006
2026-01-18 03:08:36.96	106.12	37.62	-33.6	-34.5	23.6	0.00e+00	0	42	0	2471493632	37	4017
2026-01-18 03:08:38.10	106.61	37.57	-33.8	-34.7	23.4	0.00e+00	0	42	0	2479882240	37	4106
2026-01-18 03:08:38.95	106.97	37.53	-33.8	-34.6	23.4	0.00e+00	0	42	0	2486173696	37	4090
2026-01-18 03:08:40.09	107.46	37.48	-33.8	-34.7	23.4	0.00e+00	0	42	0	2494562304	37	4102
2026-01-18 03:08:40.94	107.82	37.44	-33.6	-34.4	23.6	0.00e+00	0	42	0	2499805184	37	3984
2026-01-18 03:08:42.07	108.30	37.39	-33.6	-34.4	23.6	0.00e+00	0	42	0	2508193792	37	3989
2026-01-18 03:08:43.04	108.71	37.34	-33.6	-34.5	23.6	0.00e+00	0	42	0	2515533824	37	4014
2026-01-18 03:08:44.03	109.12	37.29	-33.7	-34.5	23.6	0.00e+00	0	42	0	2522873856	37	4029
2026-01-18 03:08:45.02	109.54	37.23	-33.7	-34.5	23.5	0.00e+00	0	42	0	2530213888	37	4023
2026-01-18 03:08:46.02	109.96	37.18	-33.7	-34.5	23.4	0.00e+00	0	42	0	2536505344	37	4037
2026-01-18 03:08:47.01	110.37	37.12	-33.6	-34.4	23.6	0.00e+00	0	42	0	2543845376	37	3989
2026-01-18 03:08:48.01	110.78	37.06	-33.7	-34.5	23.5	0.00e+00	0	42	0	2551185408	37	4013
2026-01-18 03:08:49.01	111.20	37.00	-33.7	-34.5	23.5	0.00e+00	0	42	0	2558525440	37	4010
2026-01-18 03:08:50.00	111.61	36.94	-33.5	-34.3	23.7	0.00e+00	0	42	0	2565865472	37	3916
2026-01-18 03:08:51.00	112.02	36.88	-33.3	-34.1	23.9	0.00e+00	0	42	0	2573205504	37	3836
2026-01-18 03:08:51.99	112.42	36.82	-33.4	-34.2	23.8	0.00e+00	0	42	0	2580545536	37	3891
2026-01-18 03:08:52.98	112.83	36.75	-33.4	-34.2	23.8	0.00e+00	0	42	0	2586836992	37	3909
2026-01-18 03:08:53.98	113.23	36.68	-33.4	-34.2	23.7	0.00e+00	0	42	0	2594177024	37	3897
2026-01-18 03:08:54.97	113.63	36.62	-33.4	-34.2	23.8	0.00e+00	0	42	0	2601517056	37	3872
2026-01-18 03:08:55.97	114.04	36.54	-33.5	-34.3	23.7	0.00e+00	0	42	0	2608857088	37	3941
2026-01-18 03:08:56.96	114.43	36.47	-33.7	-34.5	23.5	0.00e+00	0	42	0	2616197120	37	4050
2026-01-18 03:08:57.96	114.83	36.40	-33.8	-34.7	23.4	0.00e+00	0	42	0	2623537152	37	4101
2026-01-18 03:08:58.95	115.23	36.33	-33.8	-34.6	23.5	0.00e+00	0	42	0	2630877184	37	4086
2026-01-18 03:08:59.94	115.62	36.25	-33.7	-34.5	23.6	0.00e+00	0	42	0	2637168640	37	4023
2026-01-18 03:09:00.94	116.01	36.18	-33.9	-34.7	23.4	0.00e+00	0	42	0	2644508672	37	4116
2026-01-18 03:09:01.93	116.40	36.10	-33.8	-34.6	23.5	0.00e+00	0	42	0	2651848704	37	4064
2026-01-18 03:09:02.93	116.79	36.02	-33.9	-34.7	23.4	0.00e+00	0	42	0	2659188736	37	4123
2026-01-18 03:09:03.93	117.18	35.94	-33.8	-34.6	23.4	0.00e+00	0	42	0	2666528768	37	4069
2026-01-18 03:09:04.92	117.56	35.86	-33.7	-34.6	23.5	0.00e+00	0	42	0	2673868800	37	4066
2026-01-18 03:09:05.94	117.96	35.77	-33.7	-34.5	23.6	0.00e+00	0	42	0	2680160256	37	4016
2026-01-18 03:09:06.96	118.35	35.69	-33.8	-34.6	23.4	0.00e+00	0	42	0	2688548864	37	4067
2026-01-18 03:09:07.96	118.73	35.60	-33.8	-34.6	23.4	0.00e+00	0	42	0	2695888896	37	4088
2026-01-18 03:09:08.95	119.10	35.51	-33.7	-34.5	23.5	0.00e+00	0	42	0	2702180352	37	4046
2026-01-18 03:09:09.95	119.48	35.43	-33.6	-34.4	23.6	0.00e+00	0	42	0	2709520384	37	3980
2026-01-18 03:09:10.95	119.86	35.34	-33.6	-34.4	23.6	0.00e+00	0	42	0	2716860416	37	3994
2026-01-18 03:09:11.94	120.22	35.25	-33.7	-34.5	22.9	0.00e+00	0	42	0	2724200448	37	4011
2026-01-18 03:09:12.94	120.60	35.16	-33.7	-34.5	23.5	0.00e+00	0	42	0	2731540480	37	4030
2026-01-18 03:09:13.93	120.96	35.07	-33.7	-34.5	23.5	0.00e+00	0	42	0	2738880512	37	4021
2026-01-18 03:09:14.92	121.32	34.97	-33.7	-34.6	23.5	0.00e+00	0	42	0	2745171968	37	4052
2026-01-18 03:09:15.92	121.69	34.88	-33.7	-34.5	23.5	0.00e+00	0	42	0	2752512000	37	4048
2026-01-18 03:09:16.91	122.05	34.78	-33.7	-34.5	23.5	0.00e+00	0	42	0	2759852032	37	4016
2026-01-18 03:09:17.91	122.41	34.69	-33.7	-34.5	23.6	0.00e+00	0	42	0	2767192064	37	4020
2026-01-18 03:09:18.90	122.76	34.59	-33.8	-34.6	23.4	0.00e+00	0	42	0	2774532096	37	4083
2026-01-18 03:09:19.90	123.12	34.49	-33.8	-34.7	23.4	0.00e+00	0	42	0	2781872128	37	4100
2026-01-18 03:09:20.90	123.47	34.40	-33.8	-34.6	23.4	0.00e+00	0	42	0	2789212160	37	4076
2026-01-18 03:09:21.94	123.84	34.29	-33.6	-34.5	23.6	0.00e+00	0	42	0	2796552192	37	4009
2026-01-18 03:09:22.92	124.18	34.19	-33.6	-34.4	23.4	0.00e+00	0	42	0	2802843648	37	4000
2026-01-18 03:09:23.96	124.54	34.09	-33.6	-34.4	23.6	0.00e+00	0	42	0	2811232256	37	3985
2026-01-18 03:09:24.92	124.88	33.99	-33.6	-34.4	23.6	0.00e+00	0	42	0	2817523712	37	3991
2026-01-18 03:09:25.98	125.24	33.88	-33.5	-34.3	23.6	0.00e+00	0	42	0	2824863744	37	3934
2026-01-18 03:09:26.86	125.54	33.79	-33.5	-34.3	23.7	0.00e+00	0	42	0	2832203776	37	3926
2026-01-18 03:09:28.15	125.98	33.65	-33.6	-34.4	23.5	0.00e+00	0	42	0	2841640960	37	3974
2026-01-18 03:09:29.28	126.36	33.53	-33.7	-34.5	23.5	0.00e+00	0	42	0	2848980992	37	4022
2026-01-18 03:09:30.42	126.74	33.41	-33.6	-34.4	23.5	0.00e+00	0	42	0	2857369600	37	3993
2026-01-18 03:09:31.43	127.08	33.31	-33.6	-34.5	23.5	0.00e+00	0	42	0	2864709632	37	4011
2026-01-18 03:09:32.42	127.40	33.20	-33.7	-34.6	23.4	0.00e+00	0	42	0	2872049664	37	4057
2026-01-18 03:09:33.42	127.73	33.09	-33.8	-34.6	23.1	0.00e+00	0	42	0	2879389696	37	4088
2026-01-18 03:09:34.42	128.05	32.98	-34.0	-34.8	23.3	0.00e+00	0	42	0	2886729728	37	4167
2026-01-18 03:09:35.41	128.37	32.87	-33.9	-34.8	23.2	0.00e+00	0	42	0	2894069760	37	4152
2026-01-18 03:09:36.41	128.70	32.76	-33.9	-34.7	23.2	0.00e+00	0	42	0	2900361216	37	4144
2026-01-18 03:09:37.40	129.01	32.65	-34.0	-34.9	23.2	0.00e+00	0	42	0	2907701248	37	4199
2026-01-18 03:09:38.39	129.33	32.54	-34.0	-34.8	23.2	0.00e+00	0	42	0	2915041280	37	4162
2026-01-18 03:09:39.39	129.64	32.43	-33.6	-34.4	23.5	0.00e+00	0	42	0	2922381312	37	3991
2026-01-18 03:09:40.38	129.95	32.32	-33.5	-34.3	23.6	0.00e+00	0	42	0	2929721344	37	3946
2026-01-18 03:09:41.38	130.26	32.21	-33.5	-34.3	23.6	0.00e+00	0	42	0	2937061376	37	3947
2026-01-18 03:09:42.37	130.57	32.09	-33.6	-34.4	23.6	0.00e+00	0	42	0	2943352832	37	3972
2026-01-18 03:09:43.37	130.87	31.98	-33.7	-34.5	23.4	0.00e+00	0	42	0	2950692864	37	4039
2026-01-18 03:09:44.36	131.17	31.87	-33.6	-34.4	23.5	0.00e+00	0	42	0	2958032896	37	3993
2026-01-18 03:09:45.36	131.48	31.75	-33.6	-34.5	23.5	0.00e+00	0	42	0	2965372928	37	4006
2026-01-18 03:09:46.35	131.77	31.64	-33.7	-34.5	23.4	0.00e+00	0	42	0	2972712960	37	4042
2026-01-18 03:09:47.35	132.07	31.52	-33.8	-34.7	23.3	0.00e+00	0	42	0	2980052992	37	4106
2026-01-18 03:09:48.34	132.36	31.41	-34.0	-34.8	23.2	0.00e+00	0	42	0	2987393024	37	4164
2026-01-18 03:09:49.34	132.66	31.29	-34.1	-35.0	23.1	0.00e+00	0	42	0	2993684480	37	4246
2026-01-18 03:09:50.33	132.95	31.18	-34.2	-35.0	23.0	0.00e+00	0	42	0	3001024512	37	4264
2026-01-18 03:09:51.33	133.24	31.06	-34.1	-35.0	23.0	0.00e+00	0	42	0	3008364544	37	4258
2026-01-18 03:09:52.32	133.52	30.94	-34.3	-35.1	22.9	0.00e+00	0	42	0	3015704576	38	4083
2026-01-18 03:09:53.32	133.81	30.83	-34.0	-34.8	23.2	0.00e+00	0	42	0	3023044608	38	3949
2026-01-18 03:09:54.31	134.09	30.71	-33.7	-34.5	23.3	0.00e+00	0	42	0	3030384640	38	3807
2026-01-18 03:09:55.31	134.37	30.59	-33.8	-34.6	23.4	0.00e+00	0	42	0	3037724672	38	3853
2026-01-18 03:09:56.30	134.65	30.48	-33.6	-34.4	23.5	0.00e+00	0	42	0	3044016128	38	3771
2026-01-18 03:09:57.30	134.92	30.36	-33.7	-34.5	23.5	0.00e+00	0	42	0	3051356160	38	3799
2026-01-18 03:09:58.29	135.20	30.24	-33.8	-34.6	23.4	0.00e+00	0	42	0	3058696192	38	3847
2026-01-18 03:09:59.29	135.47	30.12	-33.9	-34.7	23.3	0.00e+00	0	42	0	3066036224	38	3885
2026-01-18 03:10:00.28	135.74	30.00	-34.0	-34.8	23.2	0.00e+00	0	42	0	3073376256	38	3936
2026-01-18 03:10:01.28	136.01	29.88	-34.2	-35.0	23.0	0.00e+00	0	42	0	3080716288	38	4045
2026-01-18 03:10:02.35	136.30	29.76	-34.1	-35.0	23.0	0.00e+00	0	42	0	3088056320	38	4020
2026-01-18 03:10:03.23	136.53	29.65	-34.3	-35.1	22.9	0.00e+00	0	42	0	3094347776	38	4092
2026-01-18 03:10:04.54	136.88	29.49	-34.0	-34.8	23.2	0.00e+00	0	42	0	3103784960	38	3958
2026-01-18 03:10:05.25	137.06	29.41	-34.0	-34.8	22.9	0.00e+00	0	42	0	3109027840	38	3955
2026-01-18 03:10:06.72	137.44	29.23	-34.1	-34.9	23.1	0.00e+00	0	42	0	3119513600	38	3991
2026-01-18 03:10:07.43	137.63	29.15	-34.1	-34.9	23.1	0.00e+00	0	42	0	3124756480	38	3989
2026-01-18 03:10:08.77	137.97	28.98	-34.1	-34.9	23.0	0.00e+00	0	42	0	3134193664	38	4002
2026-01-18 03:10:09.75	138.22	28.87	-34.0	-34.8	23.2	0.00e+00	0	42	0	3141533696	38	3933
2026-01-18 03:10:10.75	138.47	28.75	-33.8	-34.6	23.3	0.00e+00	0	42	0	3148873728	38	3837
2026-01-18 03:10:11.74	138.72	28.63	-33.9	-34.7	23.3	0.00e+00	0	42	0	3156213760	38	3895
2026-01-18 03:10:12.74	138.97	28.51	-34.0	-34.8	23.2	0.00e+00	0	42	0	3163553792	38	3927
2026-01-18 03:10:13.73	139.21	28.39	-33.9	-34.7	23.3	0.00e+00	0	42	0	3169845248	38	3912
2026-01-18 03:10:14.73	139.45	28.27	-34.0	-34.8	23.2	0.00e+00	0	42	0	3177185280	38	3949
2026-01-18 03:10:15.72	139.69	28.15	-34.0	-34.9	23.2	0.00e+00	0	42	0	3184525312	38	3960
2026-01-18 03:10:16.72	139.94	28.03	-34.0	-34.9	23.1	0.00e+00	0	42	0	3191865344	38	3959
2026-01-18 03:10:17.78	140.19	27.90	-34.2	-35.0	23.0	0.00e+00	0	42	0	3199205376	38	4032
2026-01-18 03:10:18.69	140.40	27.79	-34.0	-34.9	23.1	0.00e+00	0	42	0	3206545408	38	3963
2026-01-18 03:10:19.84	140.68	27.65	-34.0	-34.8	23.2	0.00e+00	0	42	0	3214934016	38	3953
2026-01-18 03:10:20.73	140.88	27.54	-34.0	-34.9	23.0	0.00e+00	0	42	0	3220176896	38	3972
2026-01-18 03:10:21.87	141.15	27.40	-34.0	-34.8	23.2	0.00e+00	0	42	0	3228565504	38	3949
2026-01-18 03:10:22.72	141.34	27.30	-33.9	-34.8	23.2	0.00e+00	0	42	0	3234856960	38	3918
2026-01-18 03:10:23.86	141.60	27.16	-34.0	-34.8	23.2	0.00e+00	0	42	0	3243245568	38	3928
2026-01-18 03:10:24.71	141.80	27.06	-34.0	-34.9	23.1	0.00e+00	0	42	0	3249537024	38	3962
2026-01-18 03:10:25.85	142.05	26.92	-33.8	-34.7	23.3	0.00e+00	0	42	0	3257925632	38	3882
2026-01-18 03:10:26.70	142.24	26.82	-33.8	-34.6	23.2	0.00e+00	0	42	0	3264217088	38	3850
2026-01-18 03:10:27.83	142.50	26.69	-33.8	-34.6	23.2	0.00e+00	0	42	0	3271557120	38	3862
2026-01-18 03:10:28.69	142.68	26.58	-33.9	-34.7	23.3	0.00e+00	0	42	0	3277848576	38	3883
2026-01-18 03:10:29.82	142.93	26.45	-34.0	-34.8	23.2	0.00e+00	0	42	0	3286237184	38	3923
2026-01-18 03:10:30.67	143.12	26.34	-33.9	-34.7	23.3	0.00e+00	0	42	0	3292528640	38	3908
2026-01-18 03:10:31.83	143.37	26.20	-34.0	-34.8	23.1	0.00e+00	0	42	0	3300917248	38	3928
2026-01-18 03:10:32.68	143.55	26.10	-34.0	-34.9	23.1	0.00e+00	0	42	0	3307208704	38	3960
2026-01-18 03:10:33.82	143.79	25.97	-34.0	-34.9	23.1	0.00e+00	0	42	0	3315597312	38	3963
2026-01-18 03:10:34.67	143.97	25.86	-34.0	-34.8	23.1	0.00e+00	0	42	0	3320840192	38	3958
2026-01-18 03:10:36.00	144.25	25.71	-34.0	-34.8	23.1	0.00e+00	0	42	0	3331325952	38	3954
2026-01-18 03:10:36.71	144.40	25.62	-34.0	-34.9	23.1	0.00e+00	0	42	0	3336568832	38	3964
2026-01-18 03:10:38.21	144.70	25.44	-34.0	-34.9	23.1	0.00e+00	0	42	0	3347054592	38	3963
2026-01-18 03:10:38.92	144.85	25.36	-34.0	-34.9	23.1	0.00e+00	0	42	0	3352297472	38	3959
2026-01-18 03:10:40.28	145.13	25.20	-34.0	-34.8	23.1	0.00e+00	0	42	0	3361734656	38	3952
2026-01-18 03:10:40.99	145.27	25.11	-34.0	-34.9	23.1	0.00e+00	0	42	0	3366977536	38	3964
2026-01-18 03:10:42.27	145.52	24.96	-34.1	-35.0	23.0	0.00e+00	0	42	0	3376414720	38	4022
2026-01-18 03:10:43.01	145.67	24.87	-34.1	-35.0	23.0	0.00e+00	0	42	0	3381657600	38	4019
2026-01-18 03:10:44.38	145.94	24.71	-34.2	-35.0	22.9	0.00e+00	0	42	0	3391094784	38	4037
2026-01-18 03:10:45.09	146.08	24.63	-34.2	-35.1	22.9	0.00e+00	0	42	0	3396337664	38	4076
2026-01-18 03:10:46.47	146.35	24.47	-34.2	-35.0	22.9	0.00e+00	0	42	0	3406823424	38	4039
2026-01-18 03:10:47.17	146.48	24.38	-34.2	-35.0	23.0	0.00e+00	0	42	0	3411017728	38	4038
2026-01-18 03:10:48.47	146.73	24.23	-34.1	-34.9	23.0	0.00e+00	0	42	0	3420454912	38	3993
2026-01-18 03:10:49.18	146.86	24.15	-34.1	-34.9	23.0	0.00e+00	0	42	0	3425697792	38	3995
2026-01-18 03:10:50.55	147.12	23.99	-33.9	-34.8	23.1	0.00e+00	0	42	0	3436183552	38	3923
2026-01-18 03:10:51.26	147.25	23.90	-34.0	-34.8	23.1	0.00e+00	0	42	0	3441426432	38	3938
2026-01-18 03:10:52.54	147.49	23.76	-34.1	-34.9	23.1	0.00e+00	0	42	0	3450863616	38	3992
2026-01-18 03:10:53.27	147.63	23.67	-34.0	-34.9	23.1	0.00e+00	0	42	0	3455057920	38	3970
2026-01-18 03:10:54.55	147.86	23.52	-34.2	-35.1	22.9	0.00e+00	0	42	0	3464495104	38	4079
2026-01-18 03:10:55.26	147.99	23.44	-34.3	-35.1	22.9	0.00e+00	0	42	0	3469737984	38	4088
2026-01-18 03:10:56.54	148.22	23.29	-34.4	-35.3	22.7	0.00e+00	0	42	0	3479175168	38	4164
2026-01-18 03:10:57.25	148.35	23.21	-34.6	-35.4	22.4	0.00e+00	0	42	0	3484418048	38	4239
2026-01-18 03:10:58.53	148.57	23.06	-34.5	-35.4	22.5	0.00e+00	0	42	0	3493855232	38	4228
2026-01-18 03:10:59.24	148.70	22.98	-34.6	-35.5	22.5	0.00e+00	0	42	0	3498049536	38	4280
2026-01-18 03:11:00.51	148.92	22.84	-34.7	-35.6	22.4	0.00e+00	0	42	0	3507486720	38	4319
2026-01-18 03:11:01.24	149.05	22.75	-34.8	-35.7	22.3	0.00e+00	0	42	0	3513778176	39	4136
2026-01-18 03:11:02.52	149.27	22.61	-34.7	-35.6	22.4	0.00e+00	0	42	0	3522166784	39	4053
2026-01-18 03:11:03.23	149.39	22.53	-34.6	-35.5	22.6	0.00e+00	0	42	0	3527409664	39	4010
2026-01-18 03:11:04.51	149.61	22.38	-34.4	-35.3	22.7	0.00e+00	0	42	0	3536846848	39	3928
2026-01-18 03:11:05.22	149.73	22.30	-34.5	-35.3	22.6	0.00e+00	0	42	0	3542089728	39	3950
2026-01-18 03:11:06.50	149.94	22.16	-34.4	-35.3	22.7	0.00e+00	0	42	0	3551526912	39	3933
2026-01-18 03:11:07.21	150.06	22.08	-34.3	-35.1	22.8	0.00e+00	0	42	0	3556769792	39	3849
2026-01-18 03:11:08.49	150.27	21.93	-34.2	-35.0	22.9	0.00e+00	0	42	0	3565158400	39	3818
2026-01-18 03:11:09.22	150.39	21.85	-34.3	-35.1	22.8	0.00e+00	0	42	0	3570401280	39	3855
2026-01-18 03:11:10.55	150.61	21.70	-34.3	-35.1	22.8	0.00e+00	0	42	0	3580887040	39	3867
2026-01-18 03:11:11.26	150.72	21.62	-34.3	-35.1	22.8	0.00e+00	0	42	0	3585081344	39	3857
2026-01-18 03:11:12.53	150.93	21.48	-34.5	-35.3	22.6	0.00e+00	0	42	0	3594518528	39	3951
2026-01-18 03:11:13.24	151.04	21.40	-34.4	-35.3	22.6	0.00e+00	0	42	0	3599761408	39	3931
2026-01-18 03:11:14.67	151.27	21.24	-34.6	-35.4	22.5	0.00e+00	0	42	0	3610247168	39	3991
2026-01-18 03:11:15.38	151.38	21.16	-34.6	-35.5	22.5	0.00e+00	0	42	0	3615490048	39	4022
2026-01-18 03:11:16.66	151.58	21.02	-34.7	-35.6	22.4	0.00e+00	0	42	0	3624927232	39	4064
2026-01-18 03:11:17.71	151.74	20.91	-34.8	-35.7	22.3	0.00e+00	0	42	0	3632267264	39	4108
2026-01-18 03:11:18.58	151.87	20.81	-34.7	-35.6	22.3	0.00e+00	0	42	0	3638558720	39	4084
2026-01-18 03:11:19.72	152.05	20.69	-34.8	-35.7	22.3	0.00e+00	0	42	0	3646947328	39	4116
2026-01-18 03:11:20.57	152.18	20.59	-35.0	-35.9	22.1	0.00e+00	0	42	0	3652190208	39	4197
2026-01-18 03:11:21.71	152.35	20.47	-34.8	-35.6	22.3	0.00e+00	0	42	0	3660578816	39	4098
2026-01-18 03:11:22.56	152.48	20.38	-34.8	-35.7	22.3	0.00e+00	0	42	0	3666870272	39	4126
2026-01-18 03:11:23.70	152.65	20.25	-34.9	-35.8	22.3	0.00e+00	0	42	0	3675258880	39	4151
2026-01-18 03:11:24.55	152.77	20.16	-34.7	-35.5	22.5	0.00e+00	0	42	0	3681550336	39	4030
2026-01-18 03:11:25.69	152.94	20.04	-34.6	-35.4	22.5	0.00e+00	0	42	0	3689938944	39	4004
2026-01-18 03:11:26.54	153.06	19.95	-34.5	-35.4	22.5	0.00e+00	0	42	0	3696230400	39	3982
2026-01-18 03:11:27.68	153.23	19.82	-34.5	-35.4	22.3	0.00e+00	0	42	0	3703570432	39	3959
2026-01-18 03:11:28.53	153.35	19.73	-34.5	-35.4	22.6	0.00e+00	0	42	0	3709861888	39	3966
2026-01-18 03:11:29.67	153.51	19.61	-34.7	-35.5	22.4	0.00e+00	0	42	0	3718250496	39	4039
2026-01-18 03:11:30.52	153.63	19.52	-34.7	-35.6	22.4	0.00e+00	0	42	0	3724541952	39	4069
2026-01-18 03:11:31.65	153.79	19.40	-34.8	-35.7	22.3	0.00e+00	0	42	0	3732930560	39	4115
2026-01-18 03:11:32.82	153.96	19.28	-34.8	-35.6	22.3	0.00e+00	0	42	0	3741319168	39	4087
2026-01-18 03:11:33.85	154.10	19.17	-34.9	-35.8	22.2	0.00e+00	0	42	0	3748659200	39	4173
2026-01-18 03:11:34.84	154.23	19.06	-35.0	-35.9	22.1	0.00e+00	0	42	0	3755999232	39	4215
2026-01-18 03:11:35.84	154.37	18.96	-35.1	-36.0	21.8	0.00e+00	0	42	0	3762290688	39	4263
2026-01-18 03:11:36.83	154.51	18.86	-35.1	-36.0	22.0	0.00e+00	0	42	0	3769630720	39	4245
2026-01-18 03:11:37.83	154.64	18.75	-35.1	-36.0	21.9	0.00e+00	0	42	0	3776970752	39	4286
2026-01-18 03:11:38.82	154.77	18.65	-35.2	-36.0	22.0	0.00e+00	0	42	0	3784310784	39	4286
2026-01-18 03:11:39.81	154.91	18.55	-35.2	-36.1	21.9	0.00e+00	0	42	0	3791650816	39	4305
2026-01-18 03:11:40.81	155.04	18.44	-35.2	-36.1	21.9	0.00e+00	0	42	0	3798990848	39	4326
2026-01-18 03:11:41.80	155.17	18.34	-35.1	-36.0	21.9	0.00e+00	0	42	0	3806330880	40	4038
2026-01-18 03:11:42.80	155.30	18.24	-35.0	-35.9	21.9	0.00e+00	0	42	0	3813670912	40	3996
2026-01-18 03:11:43.85	155.44	18.13	-35.1	-36.0	21.9	0.00e+00	0	42	0	3821010944	40	4017
2026-01-18 03:11:44.75	155.55	18.04	-35.2	-36.1	21.8	0.00e+00	0	42	0	3827302400	40	4063
2026-01-18 03:11:46.00	155.71	17.91	-35.2	-36.1	21.8	0.00e+00	0	42	0	3836739584	40	4072
2026-01-18 03:11:46.86	155.82	17.82	-35.3	-36.2	21.7	0.00e+00	0	42	0	3841982464	40	4129
2026-01-18 03:11:47.99	155.96	17.71	-35.2	-36.1	21.8	0.00e+00	0	42	0	3850371072	40	4076
2026-01-18 03:11:48.85	156.07	17.62	-35.2	-36.1	21.8	0.00e+00	0	42	0	3856662528	40	4082
2026-01-18 03:11:49.98	156.21	17.51	-35.2	-36.1	21.8	0.00e+00	0	42	0	3865051136	40	4077
2026-01-18 03:11:50.84	156.32	17.42	-35.2	-36.1	21.7	0.00e+00	0	42	0	3871342592	40	4092
2026-01-18 03:11:51.97	156.46	17.31	-35.2	-36.1	21.7	0.00e+00	0	42	0	3879731200	40	4087
2026-01-18 03:11:52.83	156.56	17.22	-35.2	-36.1	21.8	0.00e+00	0	42	0	3884974080	40	4075
2026-01-18 03:11:53.96	156.70	17.11	-35.4	-36.3	21.6	0.00e+00	0	42	0	3893362688	40	4147
2026-01-18 03:11:54.82	156.81	17.02	-35.2	-36.1	21.8	0.00e+00	0	42	0	3899654144	40	4069
2026-01-18 03:11:55.95	156.94	16.91	-35.3	-36.2	20.8	0.00e+00	0	42	0	3908042752	40	4141
2026-01-18 03:11:56.80	157.04	16.83	-35.3	-36.2	21.7	0.00e+00	0	42	0	3914334208	40	4119
2026-01-18 03:11:57.94	157.18	16.71	-35.3	-36.2	21.7	0.00e+00	0	42	0	3922722816	40	4117
2026-01-18 03:11:58.80	157.28	16.63	-35.3	-36.2	21.7	0.00e+00	0	42	0	3929014272	40	4113
2026-01-18 03:11:59.93	157.41	16.52	-35.4	-36.3	21.5	0.00e+00	0	42	0	3936354304	40	4183
2026-01-18 03:12:00.79	157.51	16.44	-35.4	-36.3	21.6	0.00e+00	0	42	0	3942645760	40	4175
2026-01-18 03:12:02.08	157.66	16.31	-35.5	-36.4	21.5	0.00e+00	0	42	0	3952082944	40	4204
2026-01-18 03:12:02.79	157.74	16.24	-35.6	-36.5	21.4	0.00e+00	0	42	0	3957325824	40	4251
2026-01-18 03:12:04.07	157.89	16.12	-35.6	-36.5	21.4	0.00e+00	0	42	0	3966763008	40	4282
2026-01-18 03:12:04.78	157.97	16.05	-35.5	-36.4	21.5	0.00e+00	0	42	0	3972005888	40	4231
2026-01-18 03:12:06.06	158.11	15.92	-35.5	-36.5	21.4	0.00e+00	0	42	0	3981443072	40	4246
2026-01-18 03:12:06.78	158.19	15.86	-35.6	-36.6	21.3	0.00e+00	0	42	0	3985637376	40	4292
2026-01-18 03:12:08.05	158.33	15.73	-35.6	-36.5	21.3	0.00e+00	0	42	0	3995074560	40	4268
2026-01-18 03:12:08.78	158.42	15.66	-35.6	-36.6	21.3	0.00e+00	0	42	0	4000317440	40	4293
2026-01-18 03:12:10.06	158.56	15.54	-35.7	-36.6	21.3	0.00e+00	0	42	0	4009754624	40	4311
2026-01-18 03:12:10.77	158.63	15.47	-35.7	-36.6	21.2	0.00e+00	0	42	0	4014997504	40	4339
2026-01-18 03:12:12.05	158.77	15.35	-35.6	-36.5	21.3	0.00e+00	0	42	0	4024434688	41	4025
2026-01-18 03:12:12.76	158.85	15.29	-35.7	-36.6	21.2	0.00e+00	0	42	0	4029677568	41	4073
2026-01-18 03:12:14.04	158.99	15.17	-35.8	-36.7	21.2	0.00e+00	0	42	0	4038066176	41	4120
2026-01-18 03:12:14.75	159.06	15.10	-35.7	-36.6	21.3	0.00e+00	0	42	0	4044357632	41	4077
2026-01-18 03:12:16.03	159.20	14.98	-35.8	-36.7	21.2	0.00e+00	0	42	0	4052746240	41	4123
2026-01-18 03:12:16.74	159.27	14.91	-35.7	-36.6	21.3	0.00e+00	0	42	0	4057989120	41	4072
2026-01-18 03:12:18.02	159.41	14.79	-35.7	-36.7	21.2	0.00e+00	0	42	0	4067426304	41	4105
2026-01-18 03:12:18.74	159.48	14.73	-35.7	-36.7	21.2	0.00e+00	0	42	0	4072669184	41	4107
2026-01-18 03:12:20.02	159.61	14.61	-35.9	-36.8	21.1	0.00e+00	0	42	0	4082106368	41	4164
2026-01-18 03:12:20.74	159.69	14.54	-35.9	-36.8	21.0	0.00e+00	0	42	0	4087349248	41	4181
2026-01-18 03:12:22.03	159.82	14.42	-36.0	-36.9	20.9	0.00e+00	0	42	0	4095737856	41	4232
2026-01-18 03:12:22.74	159.89	14.36	-36.0	-36.9	20.9	0.00e+00	0	42	0	4100980736	41	4228
2026-01-18 03:12:24.02	160.02	14.24	-36.1	-37.0	20.8	0.00e+00	0	42	0	4110417920	41	4276
2026-01-18 03:12:24.75	160.10	14.18	-36.2	-37.2	18.3	0.00e+00	0	42	0	4115660800	41	4364
2026-01-18 03:12:26.02	160.22	14.06	-36.3	-37.3	20.6	0.00e+00	0	42	0	4125097984	42	4166
2026-01-18 03:12:26.77	160.30	13.99	-36.2	-37.2	20.7	0.00e+00	0	42	0	4130340864	42	4107
2026-01-18 03:12:28.05	160.42	13.88	-36.3	-37.2	20.6	0.00e+00	0	42	0	4139778048	42	4139
2026-01-18 03:12:28.76	160.49	13.81	-36.5	-37.4	20.4	0.00e+00	0	42	0	4145020928	42	4240
2026-01-18 03:12:30.05	160.62	13.70	-36.6	-37.6	20.3	0.00e+00	0	42	0	4154458112	42	4332
2026-01-18 03:12:30.76	160.69	13.63	-36.6	-37.6	20.4	0.00e+00	0	42	0	4159700992	42	4294
2026-01-18 03:12:32.12	160.82	13.51	-36.7	-37.7	20.2	0.00e+00	0	42	0	4169138176	42	4346
2026-01-18 03:12:32.83	160.89	13.45	-36.6	-37.6	20.3	0.00e+00	0	42	0	4174381056	42	4307
2026-01-18 03:12:34.11	161.01	13.33	-36.7	-37.7	20.2	0.00e+00	0	42	0	4183818240	42	4365
2026-01-18 03:12:34.84	161.08	13.27	-36.7	-37.6	20.2	0.00e+00	0	42	0	4189061120	42	4339
2026-01-18 03:12:36.23	161.21	13.15	-36.7	-37.7	20.2	0.00e+00	0	42	0	4198498304	42	4377
2026-01-18 03:12:36.94	161.28	13.08	-36.8	-37.8	19.9	0.00e+00	0	42	0	4203741184	43	4151
2026-01-18 03:12:38.22	161.39	12.97	-36.8	-37.8	20.1	0.00e+00	0	42	0	4213178368	43	4175
2026-01-18 03:12:38.93	161.46	12.91	-36.8	-37.8	20.1	0.00e+00	0	42	0	4218421248	43	4169
2026-01-18 03:12:40.21	161.58	12.80	-36.7	-37.6	20.2	0.00e+00	0	42	0	4227858432	43	4097
2026-01-18 03:12:40.92	161.64	12.74	-36.6	-37.6	20.3	0.00e+00	0	42	0	4233101312	43	4066
2026-01-18 03:12:42.20	161.76	12.63	-36.7	-37.6	20.2	0.00e+00	0	42	0	4241489920	43	4098
2026-01-18 03:12:42.91	161.82	12.56	-36.6	-37.6	20.2	0.00e+00	0	42	0	4246732800	43	4069
2026-01-18 03:12:44.19	161.94	12.45	-36.6	-37.6	20.2	0.00e+00	0	42	0	4256169984	43	4086
2026-01-18 03:12:44.99	162.01	12.38	-36.6	-37.6	20.3	0.00e+00	0	42	0	4262461440	43	4058
2026-01-18 03:12:46.13	162.11	12.29	-36.5	-37.5	20.3	0.00e+00	0	42	0	4269801472	43	4030
2026-01-18 03:12:46.98	162.19	12.21	-36.6	-37.6	20.2	0.00e+00	0	42	0	4276092928	43	4076
2026-01-18 03:12:48.11	162.29	12.12	-36.5	-37.5	20.3	0.00e+00	0	42	0	4284481536	43	4011
2026-01-18 03:12:48.97	162.36	12.04	-36.5	-37.4	20.4	0.00e+00	0	42	0	4290772992	43	3997
2026-01-18 03:12:50.10	162.46	11.95	-36.5	-37.5	20.3	0.00e+00	0	42	0	4299161600	43	4008
2026-01-18 03:12:50.96	162.53	11.88	-36.5	-37.5	20.4	0.00e+00	0	42	0	4305453056	43	4005
2026-01-18 03:12:52.10	162.63	11.78	-36.5	-37.5	20.3	0.00e+00	0	42	0	4313841664	43	4045
2026-01-18 03:12:52.95	162.70	11.71	-36.5	-37.5	20.3	0.00e+00	0	42	0	4320133120	43	4036
2026-01-18 03:12:54.13	162.80	11.61	-36.6	-37.5	20.3	0.00e+00	0	42	0	4327473152	43	4050
2026-01-18 03:12:54.99	162.88	11.54	-36.7	-37.7	20.1	0.00e+00	0	42	0	4333764608	43	4120
2026-01-18 03:12:56.12	162.97	11.44	-36.5	-37.5	20.2	0.00e+00	0	42	0	4342153216	43	4047
2026-01-18 03:12:56.97	163.04	11.37	-36.7	-37.7	20.1	0.00e+00	0	42	0	4348444672	43	4109
2026-01-18 03:12:58.11	163.14	11.28	-36.7	-37.7	20.1	0.00e+00	0	42	0	4356833280	43	4126
2026-01-18 03:12:58.96	163.21	11.21	-36.7	-37.7	20.2	0.00e+00	0	42	0	4363124736	43	4104
2026-01-18 03:13:00.10	163.30	11.11	-36.6	-37.6	20.2	0.00e+00	0	42	0	4371513344	43	4093
2026-01-18 03:13:00.95	163.37	11.04	-36.8	-37.8	20.0	0.00e+00	0	42	0	4377804800	43	4174
2026-01-18 03:13:02.09	163.47	10.95	-36.9	-38.0	19.8	0.00e+00	0	42	0	4385144832	43	4254
2026-01-18 03:13:03.10	163.55	10.87	-37.1	-38.1	19.6	0.00e+00	0	42	0	4392484864	43	4323
2026-01-18 03:13:04.27	163.64	10.77	-37.0	-38.1	19.7	0.00e+00	0	42	0	4400873472	43	4308
2026-01-18 03:13:05.12	163.71	10.70	-36.9	-37.9	19.8	0.00e+00	0	42	0	4407164928	43	4242
2026-01-18 03:13:06.46	163.82	10.59	-37.0	-38.0	19.8	0.00e+00	0	42	0	4416602112	43	4267
2026-01-18 03:13:07.17	163.87	10.54	-37.0	-38.1	19.7	0.00e+00	0	42	0	4421844992	43	4295
2026-01-18 03:13:08.45	163.97	10.43	-37.0	-38.0	19.8	0.00e+00	0	42	0	4431282176	43	4263
2026-01-18 03:13:09.17	164.03	10.38	-37.0	-38.0	19.7	0.00e+00	0	42	0	4436525056	43	4265
2026-01-18 03:13:10.71	164.15	10.25	-37.2	-38.3	19.5	0.00e+00	0	42	0	4448059392	43	4397
2026-01-18 03:13:11.67	164.22	10.18	-37.3	-38.3	19.6	0.00e+00	0	42	0	4454350848	44	4167
2026-01-18 03:13:12.98	164.32	10.07	-37.3	-38.4	19.5	0.00e+00	0	42	0	4463788032	44	4210
2026-01-18 03:13:13.69	164.38	10.01	-37.4	-38.4	7.9	0.00e+00	0	42	0	4469030912	44	4242
2026-01-18 03:13:14.97	164.48	9.91	-37.3	-38.3	19.6	0.00e+00	0	42	0	4478468096	44	4186
2026-01-18 03:13:15.69	164.53	9.86	-37.5	-38.6	19.3	0.00e+00	0	42	0	4483710976	44	4299
2026-01-18 03:13:16.97	164.63	9.76	-37.2	-38.3	19.6	0.00e+00	0	42	0	4493148160	44	4146
2026-01-18 03:13:17.68	164.68	9.70	-37.1	-38.2	19.7	0.00e+00	0	42	0	4498391040	44	4123
2026-01-18 03:13:18.96	164.78	9.60	-37.3	-38.4	19.5	0.00e+00	0	42	0	4506779648	44	4231
2026-01-18 03:13:19.68	164.83	9.54	-37.3	-38.4	19.4	0.00e+00	0	42	0	4512022528	44	4237
2026-01-18 03:13:20.96	164.92	9.44	-37.3	-38.4	19.5	0.00e+00	0	42	0	4521459712	44	4220
2026-01-18 03:13:21.69	164.98	9.39	-37.3	-38.5	19.4	0.00e+00	0	42	0	4526702592	44	4245
2026-01-18 03:13:22.96	165.07	9.29	-37.2	-38.4	19.5	0.00e+00	0	42	0	4536139776	44	4207
2026-01-18 03:13:23.69	165.12	9.23	-37.1	-38.3	19.5	0.00e+00	0	42	0	4541382656	44	4166
2026-01-18 03:13:24.97	165.22	9.13	-37.3	-38.5	19.4	0.00e+00	0	42	0	4550819840	44	4248
2026-01-18 03:13:25.68	165.27	9.08	-37.5	-38.7	19.2	0.00e+00	0	42	0	4556062720	44	4368
2026-01-18 03:13:27.22	165.38	8.96	-47.8	-56.7	3.9	8.38e-01	0	42	104	4564451328	65	10354
2026-01-18 03:13:27.93	165.43	8.90	-48.2	-58.7	3.8	8.46e-01	0	42	104	4564451328	65	13012
2026-01-18 03:13:29.21	165.52	8.81	-48.6	-59.6	3.8	8.46e-01	0	42	104	4564451328	66	13650
2026-01-18 03:13:29.93	165.57	8.75	-48.8	-59.7	3.8	8.46e-01	0	42	104	4564451328	67	13075
2026-01-18 03:13:31.21	165.66	8.65	-49.0	-59.9	3.8	8.48e-01	0	42	104	4564451328	67	13272
2026-01-18 03:13:31.94	165.71	8.60	-49.2	-59.9	3.8	8.47e-01	0	42	104	4564451328	67	13281
2026-01-18 03:13:33.21	165.80	8.50	-49.1	-60.0	3.8	8.47e-01	0	42	104	4564451328	67	13451
2026-01-18 03:13:33.92	165.85	8.45	-49.0	-60.0	3.8	8.47e-01	0	42	104	4564451328	67	13459
2026-01-18 03:13:35.20	165.94	8.35	-49.2	-60.1	3.8	8.46e-01	0	42	104	4564451328	68	12937
