passes_logs/2026/01/18/T1/T1__20260118_022051_NOAA_20_JPSS-1_rec.log

#Pass ID: 20260118_022051_NOAA 20 (JPSS-1)
#Satellite: NOAA 20 (JPSS-1)
#Configuration: NOAA 20
#almurnet v.1.7.20251203
#Start time: 2026-01-18 02:20:52

#Version: 2.0.20230620
#Station: T1
#Location: 37.570604 lon 55.790049 lat
#TLE: 1 43013U 17073A   26017.30359522  .00000067  00000+0  52526-4 0  9990
#TLE: 2 43013  98.7639 318.2187 0001419  36.2087 323.9184 14.19536557423067

#Time	Az	El	Level	Level2	SNR	BER	BlckErr	Temp	State	Recorded	gain1	gain2
2026-01-18 02:20:52.46	0.58	5.03	-48.9	-65.3	3.8	1.49e+00	0	36	0	0	69	23810
2026-01-18 02:20:53.46	0.46	5.07	-45.7	-65.0	3.8	1.49e+00	0	36	104	0	62	34256
2026-01-18 02:20:54.45	0.34	5.11	-45.8	-65.0	3.8	1.49e+00	0	37	104	0	62	34273
2026-01-18 02:20:55.45	0.22	5.16	-45.7	-65.0	3.8	1.49e+00	0	36	104	0	62	34388
2026-01-18 02:20:56.45	0.10	5.20	-45.7	-65.0	3.8	1.49e+00	0	36	104	0	62	34365
2026-01-18 02:20:57.44	359.98	5.24	-45.5	-65.0	3.8	1.49e+00	0	37	104	0	62	34282
2026-01-18 02:20:58.44	359.86	5.29	-45.7	-65.0	3.8	1.49e+00	0	37	104	0	62	34262
2026-01-18 02:20:59.44	359.74	5.33	-45.6	-65.0	3.8	1.49e+00	0	37	104	0	62	34171
2026-01-18 02:21:00.43	359.62	5.38	-45.6	-64.9	3.8	1.49e+00	0	37	104	0	62	33988
2026-01-18 02:21:01.43	359.50	5.42	-45.6	-64.9	3.8	1.49e+00	0	37	104	0	62	33794
2026-01-18 02:21:02.43	359.38	5.46	-45.5	-64.9	3.8	1.49e+00	0	37	104	0	62	33808
2026-01-18 02:21:03.43	359.26	5.51	-45.5	-64.8	3.8	1.49e+00	0	37	104	0	62	33636
2026-01-18 02:21:04.42	359.14	5.55	-45.4	-64.8	3.8	1.49e+00	0	37	104	0	62	33508
2026-01-18 02:21:05.42	359.01	5.59	-45.5	-64.8	3.8	1.49e+00	0	37	104	0	62	33530
2026-01-18 02:21:06.42	358.89	5.64	-45.5	-64.8	3.8	1.49e+00	0	37	104	0	62	33606
2026-01-18 02:21:07.42	358.77	5.68	-45.4	-64.8	3.8	1.49e+00	0	37	104	0	62	33495
2026-01-18 02:21:08.41	358.64	5.72	-45.4	-64.8	3.8	1.49e+00	0	37	104	0	62	33382
2026-01-18 02:21:09.41	358.52	5.77	-45.4	-64.8	3.8	1.49e+00	0	37	104	0	62	33537
2026-01-18 02:21:10.40	358.39	5.81	-45.4	-64.8	3.8	1.49e+00	0	37	104	0	62	33395
2026-01-18 02:21:11.40	358.27	5.85	-45.4	-64.8	3.8	1.49e+00	0	37	104	0	62	33367
2026-01-18 02:21:12.40	358.14	5.89	-45.4	-64.8	3.8	1.49e+00	0	37	104	0	62	33369
2026-01-18 02:21:13.39	358.02	5.94	-45.4	-64.7	3.8	1.49e+00	0	37	104	0	62	33159
2026-01-18 02:21:14.39	357.89	5.98	-45.4	-64.8	3.8	1.49e+00	0	37	104	0	62	33317
2026-01-18 02:21:15.39	357.76	6.02	-45.4	-64.7	3.8	1.49e+00	0	37	104	0	62	33308
2026-01-18 02:21:16.38	357.64	6.07	-45.4	-64.7	3.8	1.49e+00	0	38	104	0	62	33263
2026-01-18 02:21:17.38	357.51	6.11	-45.4	-64.7	3.8	1.49e+00	0	37	104	0	62	33196
2026-01-18 02:21:18.38	357.38	6.15	-45.3	-64.7	3.8	1.49e+00	0	37	104	0	62	33255
2026-01-18 02:21:19.37	357.26	6.19	-45.3	-64.7	3.8	1.49e+00	0	37	104	0	62	33217
2026-01-18 02:21:20.37	357.13	6.24	-45.4	-64.7	3.8	1.49e+00	0	37	104	0	62	33166
2026-01-18 02:21:21.36	357.00	6.28	-45.3	-64.7	3.8	1.49e+00	0	37	104	0	62	33124
2026-01-18 02:21:22.36	356.87	6.32	-45.3	-64.7	3.8	1.49e+00	0	38	104	0	62	33208
2026-01-18 02:21:23.36	356.74	6.36	-45.4	-64.7	3.8	1.49e+00	0	37	104	0	62	33149
2026-01-18 02:21:24.35	356.61	6.40	-45.4	-64.7	3.8	1.49e+00	0	37	104	0	62	33062
2026-01-18 02:21:25.35	356.48	6.45	-45.4	-64.7	3.8	1.49e+00	0	37	104	0	62	33072
2026-01-18 02:21:26.35	356.35	6.49	-45.4	-64.7	3.8	1.49e+00	0	38	104	0	62	33132
2026-01-18 02:21:27.34	356.22	6.53	-45.4	-64.7	3.8	1.49e+00	0	38	104	0	62	33152
2026-01-18 02:21:28.34	356.09	6.57	-45.3	-64.7	3.8	1.49e+00	0	38	104	0	62	33147
2026-01-18 02:21:29.34	355.95	6.61	-45.3	-64.7	3.8	1.49e+00	0	37	104	0	62	33116
2026-01-18 02:21:30.33	355.82	6.66	-45.3	-64.7	3.8	1.49e+00	0	38	104	0	62	33040
2026-01-18 02:21:31.33	355.69	6.70	-45.3	-64.6	3.8	1.49e+00	0	38	104	0	62	32896
2026-01-18 02:21:32.33	355.56	6.74	-45.3	-64.7	3.8	1.49e+00	0	38	104	0	62	32929
2026-01-18 02:21:33.33	355.42	6.78	-45.3	-64.6	3.8	1.49e+00	0	38	104	0	62	32893
2026-01-18 02:21:34.32	355.29	6.82	-45.3	-64.7	3.8	1.49e+00	0	38	104	0	62	33060
2026-01-18 02:21:35.32	355.15	6.86	-45.3	-64.7	3.8	1.49e+00	0	38	104	0	62	33020
2026-01-18 02:21:36.32	355.02	6.91	-45.3	-64.7	3.8	1.49e+00	0	38	104	0	62	33012
2026-01-18 02:21:37.31	354.88	6.95	-45.3	-64.7	3.8	1.49e+00	0	38	104	0	62	33009
2026-01-18 02:21:38.31	354.75	6.99	-45.3	-64.7	3.8	1.49e+00	0	38	104	0	62	33063
2026-01-18 02:21:39.31	354.61	7.03	-45.3	-64.7	3.8	1.49e+00	0	38	104	0	62	32991
2026-01-18 02:21:40.30	354.48	7.07	-45.3	-64.6	3.8	1.49e+00	0	38	104	0	62	32920
2026-01-18 02:21:41.30	354.34	7.11	-45.3	-64.7	3.8	1.49e+00	0	38	104	0	62	33041
2026-01-18 02:21:42.30	354.20	7.15	-45.3	-64.6	3.8	1.49e+00	0	38	104	0	62	32925
2026-01-18 02:21:43.30	354.07	7.19	-45.3	-64.7	3.8	1.49e+00	0	38	104	0	62	32985
2026-01-18 02:21:44.29	353.93	7.23	-45.3	-64.7	3.8	1.49e+00	0	38	104	0	62	32971
2026-01-18 02:21:45.29	353.79	7.27	-45.3	-64.7	3.8	1.49e+00	0	38	104	0	62	32976
2026-01-18 02:21:46.29	353.65	7.31	-45.3	-64.7	3.8	1.49e+00	0	38	104	0	62	33121
2026-01-18 02:21:47.29	353.51	7.35	-45.3	-64.7	3.8	1.49e+00	0	38	104	0	62	33022
2026-01-18 02:21:48.28	353.37	7.39	-45.3	-64.7	3.8	1.49e+00	0	38	104	0	62	32961
2026-01-18 02:21:49.28	353.23	7.43	-45.3	-64.6	3.8	1.49e+00	0	38	104	0	62	32879
2026-01-18 02:21:50.28	353.09	7.47	-45.3	-64.6	3.8	1.49e+00	0	38	104	0	62	32919
2026-01-18 02:21:51.28	352.95	7.51	-45.3	-64.7	3.8	1.49e+00	0	38	104	0	62	32989
2026-01-18 02:21:52.27	352.81	7.55	-45.3	-64.7	3.8	1.49e+00	0	38	104	0	62	33027
2026-01-18 02:21:53.27	352.67	7.59	-45.3	-64.6	3.8	1.49e+00	0	38	104	0	62	32785
2026-01-18 02:21:54.27	352.53	7.63	-45.3	-64.6	3.8	1.49e+00	0	38	104	0	62	32889
2026-01-18 02:21:55.26	352.39	7.67	-45.3	-64.6	3.8	1.49e+00	0	38	104	0	62	32837
2026-01-18 02:21:56.26	352.24	7.71	-45.2	-64.6	3.8	1.49e+00	0	38	104	0	62	32887
2026-01-18 02:21:57.26	352.10	7.75	-45.2	-64.6	3.8	1.49e+00	0	38	104	0	62	32833
2026-01-18 02:21:58.26	351.96	7.79	-45.2	-64.6	3.8	1.49e+00	0	38	104	0	62	32711
2026-01-18 02:21:59.25	351.81	7.83	-45.2	-64.5	3.8	1.49e+00	0	38	104	0	62	32459
2026-01-18 02:22:00.25	351.67	7.87	-45.2	-64.5	3.8	1.49e+00	0	38	104	0	62	32230
2026-01-18 02:22:01.24	351.53	7.91	-45.2	-64.3	3.8	1.49e+00	0	38	104	0	62	31753
2026-01-18 02:22:02.24	351.38	7.95	-45.2	-64.3	3.8	1.49e+00	0	38	104	0	62	31553
2026-01-18 02:22:03.24	351.23	7.98	-45.1	-64.2	3.8	1.49e+00	0	38	104	0	62	31251
2026-01-18 02:22:04.23	351.09	8.02	-45.1	-64.2	3.8	1.49e+00	0	38	104	0	62	31263
2026-01-18 02:22:05.23	350.94	8.06	-45.1	-64.3	3.8	1.49e+00	0	38	104	0	62	31557
2026-01-18 02:22:06.23	350.80	8.10	-45.0	-64.3	3.8	1.49e+00	0	38	104	0	62	31754
2026-01-18 02:22:07.22	350.65	8.14	-45.0	-64.3	3.8	1.49e+00	0	38	104	0	62	31729
2026-01-18 02:22:08.22	350.50	8.18	-44.9	-64.3	3.8	1.49e+00	0	38	104	0	61	33546
2026-01-18 02:22:09.21	350.36	8.21	-44.9	-64.2	3.8	1.49e+00	0	38	104	0	61	33125
2026-01-18 02:22:10.21	350.21	8.25	-44.9	-64.1	3.8	1.49e+00	0	38	104	0	61	32750
2026-01-18 02:22:11.20	350.06	8.29	-44.8	-64.0	3.8	1.49e+00	0	38	104	0	61	32353
2026-01-18 02:22:12.20	349.91	8.33	-44.8	-64.0	3.8	1.49e+00	0	38	104	0	61	32378
2026-01-18 02:22:13.19	349.76	8.36	-44.7	-64.1	3.8	1.49e+00	0	39	104	0	61	32561
2026-01-18 02:22:14.19	349.61	8.40	-44.7	-64.0	3.8	1.49e+00	0	38	104	0	61	32466
2026-01-18 02:22:15.19	349.46	8.44	-44.7	-63.9	3.8	1.49e+00	0	38	104	0	61	31949
2026-01-18 02:22:16.18	349.31	8.47	-44.7	-63.5	3.8	1.49e+00	0	38	104	0	61	30471
2026-01-18 02:22:17.18	349.16	8.51	-44.6	-62.9	3.8	1.49e+00	0	38	104	0	61	28673
2026-01-18 02:22:18.18	349.01	8.55	-44.6	-62.5	3.8	1.49e+00	0	38	104	0	61	27089
2026-01-18 02:22:19.17	348.86	8.58	-44.5	-62.1	3.8	1.49e+00	0	38	104	0	61	26073
2026-01-18 02:22:20.17	348.71	8.62	-44.5	-61.8	3.8	1.49e+00	0	38	104	0	61	25120
2026-01-18 02:22:21.16	348.56	8.66	-44.5	-61.4	4.0	1.48e+00	0	38	104	0	61	23888
2026-01-18 02:22:22.16	348.40	8.69	-44.4	-61.0	3.9	1.48e+00	0	38	104	0	60	24332
2026-01-18 02:22:23.16	348.25	8.73	-44.4	-60.4	4.2	1.46e+00	0	39	0	0	60	22758
2026-01-18 02:22:24.15	348.10	8.77	-44.3	-59.9	4.3	1.37e+00	0	39	0	0	60	21326
2026-01-18 02:22:25.15	347.94	8.80	-44.3	-59.2	4.6	1.05e+00	0	39	0	1048576	60	19662
2026-01-18 02:22:26.15	347.79	8.84	-44.3	-58.0	5.2	7.52e-01	0	39	0	3145728	60	17161
2026-01-18 02:22:27.14	347.63	8.87	-44.1	-56.1	6.5	3.88e-01	0	39	0	5242880	60	13795
2026-01-18 02:22:28.14	347.48	8.91	-44.1	-53.6	8.8	1.21e-01	0	38	0	7340032	59	10994
2026-01-18 02:22:29.13	347.32	8.94	-43.6	-51.1	11.4	3.25e-03	0	39	0	8388608	59	8245
2026-01-18 02:22:30.13	347.17	8.98	-42.9	-49.0	13.6	8.69e-05	0	38	0	10485760	57	7208
2026-01-18 02:22:31.12	347.01	9.01	-42.3	-47.3	15.3	1.50e-06	0	39	0	12582912	56	6327
2026-01-18 02:22:32.12	346.86	9.05	-42.5	-47.6	15.1	0.00e+00	0	38	0	14680064	56	6530
2026-01-18 02:22:33.12	346.70	9.08	-44.5	-53.6	8.6	2.46e-02	0	39	0	16777216	59	10998
2026-01-18 02:22:34.13	346.54	9.12	-42.4	-48.1	14.5	2.20e-06	0	38	0	17825792	56	6939
2026-01-18 02:22:35.13	346.38	9.15	-43.6	-51.2	11.3	5.72e-05	0	39	0	19922944	58	8801
2026-01-18 02:22:36.13	346.22	9.18	-41.0	-44.9	17.4	0.00e+00	0	39	0	22020096	54	5383
2026-01-18 02:22:37.13	346.06	9.22	-41.1	-45.0	17.3	0.00e+00	0	38	0	24117248	54	5458
2026-01-18 02:22:38.13	345.90	9.25	-41.1	-45.0	17.3	0.00e+00	0	39	0	26214400	54	5463
2026-01-18 02:22:39.13	345.74	9.29	-41.2	-45.2	17.2	0.00e+00	0	39	0	27262976	54	5550
2026-01-18 02:22:40.13	345.58	9.32	-41.0	-45.1	17.3	0.00e+00	0	39	0	29360128	54	5472
2026-01-18 02:22:41.13	345.42	9.35	-41.1	-45.2	17.2	0.00e+00	0	39	0	31457280	54	5554
2026-01-18 02:22:42.13	345.26	9.39	-41.1	-45.3	17.1	0.00e+00	0	39	0	33554432	54	5615
2026-01-18 02:22:43.14	345.10	9.42	-41.3	-45.4	16.9	0.00e+00	0	39	0	34603008	54	5711
2026-01-18 02:22:44.14	344.94	9.45	-41.3	-45.2	17.2	0.00e+00	0	39	0	36700160	54	5531
2026-01-18 02:22:45.14	344.78	9.48	-41.4	-45.3	17.1	0.00e+00	0	39	0	38797312	54	5594
2026-01-18 02:22:46.14	344.61	9.52	-41.4	-45.2	17.2	0.00e+00	0	39	0	40894464	54	5567
2026-01-18 02:22:47.14	344.45	9.55	-41.3	-45.1	17.3	0.00e+00	0	39	0	42991616	54	5500
2026-01-18 02:22:48.14	344.29	9.58	-41.2	-45.1	17.3	0.00e+00	0	39	0	44040192	54	5497
2026-01-18 02:22:49.14	344.12	9.61	-41.1	-45.2	17.2	0.00e+00	0	39	0	46137344	54	5539
2026-01-18 02:22:50.14	343.96	9.65	-41.1	-45.3	17.1	0.00e+00	0	39	0	48234496	54	5621
2026-01-18 02:22:51.14	343.80	9.68	-41.2	-45.4	17.0	0.00e+00	0	39	0	50331648	54	5707
2026-01-18 02:22:52.15	343.63	9.71	-41.3	-45.6	16.8	0.00e+00	0	39	0	52428800	54	5795
2026-01-18 02:22:53.14	343.47	9.74	-41.4	-45.5	16.9	0.00e+00	0	39	0	53477376	54	5746
2026-01-18 02:22:54.14	343.30	9.77	-41.5	-45.5	16.8	0.00e+00	0	39	0	55574528	54	5784
2026-01-18 02:22:55.14	343.14	9.80	-41.6	-45.5	16.9	0.00e+00	0	39	0	57671680	54	5738
2026-01-18 02:22:56.14	342.97	9.83	-41.6	-45.4	16.9	0.00e+00	0	39	0	59768832	54	5717
2026-01-18 02:22:57.15	342.80	9.86	-41.5	-45.1	17.2	0.00e+00	0	39	0	60817408	54	5528
2026-01-18 02:22:58.15	342.64	9.89	-41.5	-45.1	17.3	0.00e+00	0	39	0	62914560	54	5477
2026-01-18 02:22:59.15	342.47	9.92	-41.4	-44.9	17.4	0.00e+00	0	39	0	65011712	54	5386
2026-01-18 02:23:00.15	342.30	9.95	-41.6	-45.1	17.2	0.00e+00	0	39	0	67108864	54	5471
2026-01-18 02:23:01.15	342.13	9.98	-41.5	-45.0	17.3	0.00e+00	0	39	0	69206016	54	5428
2026-01-18 02:23:02.15	341.97	10.01	-41.6	-45.1	17.2	0.00e+00	0	39	0	70254592	54	5481
2026-01-18 02:23:03.15	341.80	10.04	-41.8	-45.1	17.2	0.00e+00	0	39	0	72351744	54	5494
2026-01-18 02:23:04.15	341.63	10.07	-41.7	-44.9	17.3	0.00e+00	0	39	0	74448896	54	5401
2026-01-18 02:23:05.15	341.46	10.10	-41.7	-45.0	17.2	0.00e+00	0	39	0	76546048	54	5411
2026-01-18 02:23:06.15	341.29	10.13	-41.7	-44.8	17.4	0.00e+00	0	39	0	78643200	54	5314
2026-01-18 02:23:07.16	341.12	10.16	-41.7	-44.7	17.5	0.00e+00	0	39	0	79691776	54	5249
2026-01-18 02:23:08.16	340.95	10.18	-41.7	-44.7	17.6	0.00e+00	0	39	0	81788928	54	5222
2026-01-18 02:23:09.16	340.78	10.21	-41.8	-44.8	17.4	0.00e+00	0	39	0	83886080	54	5290
2026-01-18 02:23:10.16	340.61	10.24	-41.8	-44.8	17.4	0.00e+00	0	39	0	85983232	54	5289
2026-01-18 02:23:11.16	340.44	10.27	-41.9	-44.8	17.3	0.00e+00	0	39	0	88080384	54	5323
2026-01-18 02:23:12.16	340.26	10.29	-41.8	-44.8	17.4	0.00e+00	0	39	0	89128960	54	5319
2026-01-18 02:23:13.17	340.09	10.32	-42.0	-44.9	17.3	0.00e+00	0	39	0	91226112	54	5363
2026-01-18 02:23:14.17	339.92	10.35	-41.9	-44.8	17.3	0.00e+00	0	39	0	93323264	54	5315
2026-01-18 02:23:15.17	339.75	10.37	-41.9	-44.8	17.4	0.00e+00	0	39	0	95420416	54	5293
2026-01-18 02:23:16.18	339.57	10.40	-41.9	-44.7	17.4	0.00e+00	0	39	0	97517568	54	5256
2026-01-18 02:23:17.17	339.40	10.43	-41.9	-44.7	17.4	0.00e+00	0	39	0	98566144	54	5238
2026-01-18 02:23:18.17	339.23	10.45	-41.8	-44.7	17.4	0.00e+00	0	39	0	100663296	54	5272
2026-01-18 02:23:19.18	339.05	10.48	-41.8	-44.8	17.4	0.00e+00	0	39	0	102760448	54	5280
2026-01-18 02:23:20.18	338.88	10.51	-41.8	-44.9	17.3	0.00e+00	0	39	0	104857600	54	5368
2026-01-18 02:23:21.18	338.70	10.53	-41.9	-45.1	17.1	0.00e+00	0	39	0	105906176	54	5469
2026-01-18 02:23:22.18	338.53	10.56	-41.9	-45.1	17.1	0.00e+00	0	39	0	108003328	54	5490
2026-01-18 02:23:23.18	338.35	10.58	-41.9	-45.0	17.2	0.00e+00	0	39	0	110100480	54	5419
2026-01-18 02:23:24.18	338.18	10.60	-41.8	-44.8	17.4	0.00e+00	0	39	0	112197632	54	5305
2026-01-18 02:23:25.18	338.00	10.63	-41.9	-44.8	17.3	0.00e+00	0	39	0	114294784	54	5335
2026-01-18 02:23:26.18	337.83	10.65	-41.8	-44.8	17.3	0.00e+00	0	39	0	115343360	54	5328
2026-01-18 02:23:27.18	337.65	10.68	-41.8	-44.8	17.4	0.00e+00	0	39	0	117440512	54	5314
2026-01-18 02:23:28.18	337.48	10.70	-41.8	-44.8	17.3	0.00e+00	0	39	0	119537664	54	5334
2026-01-18 02:23:29.18	337.30	10.72	-41.7	-44.8	17.4	0.00e+00	0	39	0	121634816	54	5303
2026-01-18 02:23:30.19	337.12	10.75	-41.7	-44.8	17.4	0.00e+00	0	39	0	123731968	54	5305
2026-01-18 02:23:31.19	336.94	10.77	-41.8	-45.0	17.1	0.00e+00	0	39	0	124780544	54	5457
2026-01-18 02:23:32.18	336.77	10.79	-41.8	-45.0	17.2	0.00e+00	0	39	0	126877696	54	5441
2026-01-18 02:23:33.19	336.59	10.82	-41.9	-45.1	17.1	0.00e+00	0	39	0	128974848	54	5498
2026-01-18 02:23:34.19	336.41	10.84	-41.9	-45.0	17.1	0.00e+00	0	39	0	131072000	54	5448
2026-01-18 02:23:35.19	336.23	10.86	-41.9	-45.0	17.1	0.00e+00	0	39	0	133169152	54	5464
2026-01-18 02:23:36.20	336.05	10.88	-41.8	-44.9	17.2	0.00e+00	0	39	0	134217728	54	5397
2026-01-18 02:23:37.19	335.87	10.90	-41.9	-44.9	17.2	0.00e+00	0	39	0	136314880	54	5391
2026-01-18 02:23:38.20	335.69	10.92	-41.9	-44.9	17.3	0.00e+00	0	39	0	138412032	54	5380
2026-01-18 02:23:39.20	335.51	10.95	-41.8	-44.7	17.4	0.00e+00	0	39	0	140509184	54	5268
2026-01-18 02:23:40.20	335.33	10.97	-42.0	-44.9	17.3	0.00e+00	0	39	0	141557760	54	5362
2026-01-18 02:23:41.20	335.15	10.99	-42.2	-45.0	17.1	0.00e+00	0	39	0	143654912	54	5438
2026-01-18 02:23:42.20	334.97	11.01	-42.3	-45.1	17.0	0.00e+00	0	39	0	145752064	55	5213
2026-01-18 02:23:43.20	334.79	11.03	-42.4	-45.3	16.9	0.00e+00	0	39	0	147849216	55	5286
2026-01-18 02:23:44.20	334.61	11.05	-42.4	-45.4	16.8	0.00e+00	0	39	0	149946368	55	5363
2026-01-18 02:23:45.20	334.43	11.07	-42.5	-45.5	16.7	0.00e+00	0	39	0	150994944	55	5422
2026-01-18 02:23:46.20	334.25	11.08	-42.4	-45.3	16.8	0.00e+00	0	39	0	153092096	55	5324
2026-01-18 02:23:47.20	334.07	11.10	-42.4	-45.3	16.8	0.00e+00	0	39	0	155189248	55	5339
2026-01-18 02:23:48.20	333.89	11.12	-42.4	-45.3	16.8	0.00e+00	0	39	0	157286400	55	5333
2026-01-18 02:23:49.21	333.70	11.14	-42.4	-45.3	16.9	0.00e+00	0	39	0	159383552	55	5318
2026-01-18 02:23:50.21	333.52	11.16	-42.5	-45.4	16.8	0.00e+00	0	39	0	160432128	55	5390
2026-01-18 02:23:51.21	333.34	11.18	-42.5	-45.4	16.7	0.00e+00	0	39	0	162529280	55	5396
2026-01-18 02:23:52.21	333.16	11.19	-42.6	-45.5	16.6	0.00e+00	0	39	0	164626432	55	5461
2026-01-18 02:23:53.21	332.97	11.21	-42.9	-46.0	16.4	0.00e+00	0	39	0	166723584	56	5410
2026-01-18 02:23:54.22	332.79	11.23	-42.8	-45.9	16.4	0.00e+00	0	39	0	168820736	56	5397
2026-01-18 02:23:55.22	332.61	11.25	-42.9	-46.0	16.3	0.00e+00	0	39	0	169869312	56	5450
2026-01-18 02:23:56.22	332.42	11.26	-42.9	-46.0	16.3	0.00e+00	0	39	0	171966464	56	5444
2026-01-18 02:23:57.23	332.24	11.28	-42.8	-45.9	16.4	0.00e+00	0	39	0	174063616	56	5375
2026-01-18 02:23:58.23	332.05	11.29	-42.7	-45.8	16.6	0.00e+00	0	39	0	176160768	56	5309
2026-01-18 02:23:59.23	331.87	11.31	-42.7	-45.7	16.7	0.00e+00	0	39	0	178257920	56	5238
2026-01-18 02:24:00.23	331.68	11.32	-42.6	-45.6	16.8	0.00e+00	0	39	0	179306496	56	5172
2026-01-18 02:24:01.23	331.50	11.34	-42.6	-45.6	16.7	0.00e+00	0	39	0	181403648	56	5190
2026-01-18 02:24:02.22	331.32	11.35	-42.5	-45.4	17.0	0.00e+00	0	39	0	183500800	56	5088
2026-01-18 02:24:03.23	331.13	11.37	-42.6	-45.5	16.9	0.00e+00	0	39	0	185597952	56	5144
2026-01-18 02:24:04.23	330.95	11.38	-42.6	-45.4	16.9	0.00e+00	0	39	0	186646528	56	5080
2026-01-18 02:24:05.22	330.76	11.40	-42.6	-45.5	16.9	0.00e+00	0	39	0	188743680	56	5132
2026-01-18 02:24:06.23	330.57	11.41	-42.5	-45.4	17.0	0.00e+00	0	39	0	190840832	56	5046
2026-01-18 02:24:07.23	330.39	11.42	-42.5	-45.4	17.0	0.00e+00	0	39	0	192937984	56	5059
2026-01-18 02:24:08.23	330.20	11.44	-42.6	-45.5	16.9	0.00e+00	0	39	0	195035136	56	5131
2026-01-18 02:24:09.24	330.02	11.45	-42.5	-45.3	17.0	0.00e+00	0	39	0	196083712	56	5039
2026-01-18 02:24:10.24	329.83	11.46	-42.4	-45.2	17.1	0.00e+00	0	39	0	198180864	56	4970
2026-01-18 02:24:11.23	329.65	11.47	-42.3	-45.1	17.2	0.00e+00	0	39	0	200278016	56	4891
2026-01-18 02:24:12.24	329.46	11.49	-42.4	-45.2	17.2	0.00e+00	0	39	0	202375168	56	4950
2026-01-18 02:24:13.24	329.27	11.50	-42.2	-44.9	17.4	0.00e+00	0	39	0	204472320	56	4806
2026-01-18 02:24:14.24	329.08	11.51	-42.2	-44.9	17.5	0.00e+00	0	39	0	205520896	56	4779
2026-01-18 02:24:15.24	328.90	11.52	-42.2	-44.9	17.5	0.00e+00	0	39	0	207618048	56	4784
2026-01-18 02:24:16.25	328.71	11.53	-42.3	-45.1	17.2	0.00e+00	0	39	0	209715200	56	4874
2026-01-18 02:24:17.25	328.52	11.54	-42.3	-45.1	17.3	0.00e+00	0	39	0	211812352	56	4900
2026-01-18 02:24:18.25	328.33	11.55	-42.3	-45.1	17.2	0.00e+00	0	39	0	212860928	56	4915
2026-01-18 02:24:19.26	328.14	11.56	-42.3	-45.0	17.3	0.00e+00	0	39	0	214958080	56	4869
2026-01-18 02:24:20.26	327.96	11.57	-42.3	-45.1	17.3	0.00e+00	0	39	0	217055232	56	4887
2026-01-18 02:24:21.26	327.77	11.58	-42.3	-45.2	17.2	0.00e+00	0	39	0	219152384	56	4938
2026-01-18 02:24:22.26	327.58	11.59	-42.4	-45.3	17.1	0.00e+00	0	39	0	221249536	56	5004
2026-01-18 02:24:23.26	327.39	11.60	-42.4	-45.3	17.1	0.00e+00	0	39	0	222298112	56	5001
2026-01-18 02:24:24.27	327.20	11.61	-42.5	-45.4	17.0	0.00e+00	0	39	0	224395264	56	5067
2026-01-18 02:24:25.27	327.02	11.62	-42.2	-45.1	17.3	0.00e+00	0	39	0	226492416	56	4910
2026-01-18 02:24:26.27	326.83	11.62	-42.1	-45.1	17.3	0.00e+00	0	39	0	228589568	56	4894
2026-01-18 02:24:27.27	326.64	11.63	-42.0	-45.0	17.3	0.00e+00	0	39	0	230686720	56	4861
2026-01-18 02:24:28.27	326.45	11.64	-41.8	-44.8	17.4	0.00e+00	0	39	0	231735296	55	5007
2026-01-18 02:24:29.27	326.26	11.65	-41.7	-44.7	17.4	0.00e+00	0	39	0	233832448	55	4973
2026-01-18 02:24:30.27	326.07	11.65	-41.7	-44.8	17.4	0.00e+00	0	39	0	235929600	55	5011
2026-01-18 02:24:31.28	325.88	11.66	-41.7	-44.9	17.3	0.00e+00	0	39	0	238026752	55	5048
2026-01-18 02:24:32.27	325.70	11.66	-41.7	-44.7	17.5	0.00e+00	0	39	0	240123904	55	4966
2026-01-18 02:24:33.28	325.50	11.67	-41.7	-44.8	17.4	0.00e+00	0	39	0	241172480	55	5022
2026-01-18 02:24:34.28	325.32	11.68	-41.7	-44.7	17.4	0.00e+00	0	39	0	243269632	55	4965
2026-01-18 02:24:35.28	325.13	11.68	-41.6	-44.6	17.6	0.00e+00	0	39	0	245366784	55	4886
2026-01-18 02:24:36.28	324.94	11.69	-41.6	-44.6	17.6	0.00e+00	0	39	0	247463936	55	4872
2026-01-18 02:24:37.29	324.75	11.69	-41.7	-44.6	17.6	0.00e+00	0	39	0	249561088	55	4896
2026-01-18 02:24:38.28	324.56	11.69	-41.5	-44.4	17.8	0.00e+00	0	39	0	250609664	55	4811
2026-01-18 02:24:39.29	324.37	11.70	-41.5	-44.4	17.8	0.00e+00	0	39	0	252706816	55	4811
2026-01-18 02:24:40.29	324.18	11.70	-41.5	-44.4	17.8	0.00e+00	0	39	0	254803968	54	5060
2026-01-18 02:24:41.29	323.99	11.70	-41.4	-44.2	18.0	0.00e+00	0	39	0	256901120	54	4968
2026-01-18 02:24:42.29	323.80	11.71	-41.4	-44.2	18.0	0.00e+00	0	39	0	258998272	54	4967
2026-01-18 02:24:43.30	323.61	11.71	-41.4	-44.3	18.0	0.00e+00	0	39	0	260046848	54	4997
2026-01-18 02:24:44.30	323.42	11.71	-41.4	-44.2	18.0	0.00e+00	0	39	0	262144000	54	4949
2026-01-18 02:24:45.30	323.23	11.71	-41.6	-44.3	17.9	0.00e+00	0	39	0	264241152	54	5000
2026-01-18 02:24:46.31	323.04	11.72	-41.7	-44.4	17.8	0.00e+00	0	39	0	266338304	54	5048
2026-01-18 02:24:47.31	322.85	11.72	-41.7	-44.3	17.9	0.00e+00	0	39	0	267386880	54	4992
2026-01-18 02:24:48.31	322.66	11.72	-41.7	-44.3	17.9	0.00e+00	0	39	0	269484032	54	5019
2026-01-18 02:24:49.31	322.47	11.72	-41.8	-44.4	17.8	0.00e+00	0	39	0	271581184	54	5069
2026-01-18 02:24:50.32	322.28	11.72	-41.8	-44.4	17.8	0.00e+00	0	39	0	273678336	54	5080
2026-01-18 02:24:51.31	322.09	11.72	-41.8	-44.5	17.7	0.00e+00	0	39	0	275775488	54	5135
2026-01-18 02:24:52.32	321.90	11.72	-41.7	-44.4	17.8	0.00e+00	0	39	0	276824064	54	5061
2026-01-18 02:24:53.32	321.71	11.72	-41.6	-44.3	17.9	0.00e+00	0	39	0	278921216	54	5032
2026-01-18 02:24:54.32	321.52	11.72	-41.5	-44.3	17.9	0.00e+00	0	39	0	281018368	54	5002
2026-01-18 02:24:55.32	321.33	11.72	-41.6	-44.3	17.9	0.00e+00	0	39	0	283115520	54	5008
2026-01-18 02:24:56.32	321.14	11.72	-41.5	-44.2	18.0	0.00e+00	0	39	0	285212672	54	4964
2026-01-18 02:24:57.32	320.95	11.72	-41.6	-44.4	17.8	0.00e+00	0	39	0	286261248	54	5047
2026-01-18 02:24:58.33	320.76	11.71	-41.7	-44.4	17.8	0.00e+00	0	39	0	288358400	54	5064
2026-01-18 02:24:59.33	320.57	11.71	-41.6	-44.4	17.9	0.00e+00	0	39	0	290455552	54	5042
2026-01-18 02:25:00.33	320.38	11.71	-41.6	-44.4	17.8	0.00e+00	0	39	0	292552704	54	5058
2026-01-18 02:25:01.33	320.19	11.71	-41.7	-44.5	17.7	0.00e+00	0	39	0	294649856	54	5152
2026-01-18 02:25:02.33	320.00	11.70	-41.7	-44.6	17.7	0.00e+00	0	39	0	295698432	54	5162
2026-01-18 02:25:03.33	319.81	11.70	-41.7	-44.5	17.7	0.00e+00	0	39	0	297795584	54	5131
2026-01-18 02:25:04.33	319.62	11.70	-41.6	-44.4	17.8	0.00e+00	0	39	0	299892736	54	5073
2026-01-18 02:25:05.33	319.43	11.69	-41.6	-44.4	17.8	0.00e+00	0	39	0	301989888	54	5062
2026-01-18 02:25:06.33	319.24	11.69	-41.6	-44.4	17.8	0.00e+00	0	39	0	304087040	54	5064
2026-01-18 02:25:07.34	319.05	11.68	-41.7	-44.4	17.8	0.00e+00	0	39	0	305135616	54	5075
2026-01-18 02:25:08.34	318.86	11.68	-41.7	-44.4	17.8	0.00e+00	0	39	0	307232768	54	5054
2026-01-18 02:25:09.34	318.68	11.67	-41.6	-44.2	18.0	0.00e+00	0	39	0	309329920	54	4964
2026-01-18 02:25:10.33	318.49	11.67	-41.7	-44.2	18.0	0.00e+00	0	39	0	311427072	54	4964
2026-01-18 02:25:11.33	318.30	11.66	-41.6	-44.2	18.0	0.00e+00	0	39	0	312475648	54	4946
2026-01-18 02:25:12.33	318.11	11.66	-41.7	-44.2	17.9	0.00e+00	0	39	0	314572800	54	4983
2026-01-18 02:25:13.33	317.92	11.65	-41.8	-44.4	17.8	0.00e+00	0	39	0	316669952	54	5058
2026-01-18 02:25:14.32	317.73	11.64	-41.9	-44.5	17.7	0.00e+00	0	39	0	318767104	54	5141
2026-01-18 02:25:15.32	317.55	11.64	-42.0	-44.7	17.5	0.00e+00	0	39	0	320864256	54	5242
2026-01-18 02:25:16.33	317.36	11.63	-42.2	-44.9	17.2	0.00e+00	0	39	0	321912832	55	5080
2026-01-18 02:25:17.33	317.17	11.62	-42.3	-45.1	17.1	0.00e+00	0	39	0	324009984	55	5176
2026-01-18 02:25:18.32	316.98	11.61	-42.4	-45.2	17.0	0.00e+00	0	39	0	326107136	55	5231
2026-01-18 02:25:19.33	316.79	11.60	-42.5	-45.4	16.8	0.00e+00	0	39	0	328204288	55	5359
2026-01-18 02:25:20.32	316.60	11.60	-42.5	-45.4	16.8	0.00e+00	0	39	0	330301440	55	5366
2026-01-18 02:25:21.32	316.42	11.59	-42.5	-45.5	16.7	0.00e+00	0	39	0	331350016	55	5430
2026-01-18 02:25:22.33	316.23	11.58	-42.6	-45.5	16.7	0.00e+00	0	39	0	333447168	55	5461
2026-01-18 02:25:23.33	316.04	11.57	-42.8	-45.8	16.6	0.00e+00	0	39	0	335544320	56	5308
2026-01-18 02:25:24.33	315.85	11.56	-42.8	-45.7	16.7	0.00e+00	0	39	0	337641472	56	5235
2026-01-18 02:25:25.33	315.66	11.55	-42.8	-45.7	16.7	0.00e+00	0	39	0	338690048	56	5229
2026-01-18 02:25:26.33	315.48	11.54	-42.8	-45.7	16.6	0.00e+00	0	39	0	340787200	56	5246
2026-01-18 02:25:27.33	315.29	11.53	-42.8	-45.7	16.6	0.00e+00	0	39	0	342884352	56	5247
2026-01-18 02:25:28.33	315.10	11.52	-42.9	-45.8	16.6	0.00e+00	0	39	0	344981504	56	5324
2026-01-18 02:25:29.33	314.92	11.51	-42.9	-45.8	16.6	0.00e+00	0	39	0	347078656	56	5328
2026-01-18 02:25:30.34	314.73	11.49	-42.9	-45.8	16.6	0.00e+00	0	39	0	348127232	56	5309
2026-01-18 02:25:31.34	314.54	11.48	-42.8	-45.8	16.6	0.00e+00	0	39	0	350224384	56	5293
2026-01-18 02:25:32.34	314.35	11.47	-42.8	-45.8	16.6	0.00e+00	0	39	0	352321536	56	5288
2026-01-18 02:25:33.34	314.17	11.46	-42.9	-45.8	16.5	0.00e+00	0	39	0	354418688	56	5322
2026-01-18 02:25:34.35	313.98	11.44	-42.8	-45.7	16.7	0.00e+00	0	39	0	356515840	56	5239
2026-01-18 02:25:35.35	313.79	11.43	-42.8	-45.7	16.6	0.00e+00	0	39	0	357564416	56	5272
2026-01-18 02:25:36.35	313.61	11.42	-42.7	-45.7	16.7	0.00e+00	0	39	0	359661568	56	5241
2026-01-18 02:25:37.35	313.42	11.41	-42.7	-45.7	16.7	0.00e+00	0	39	0	361758720	56	5242
2026-01-18 02:25:38.35	313.24	11.39	-42.7	-45.6	16.7	0.00e+00	0	39	0	363855872	56	5206
2026-01-18 02:25:39.35	313.05	11.38	-42.8	-45.7	16.7	0.00e+00	0	39	0	365953024	56	5231
2026-01-18 02:25:40.35	312.87	11.36	-42.8	-45.7	16.6	0.00e+00	0	39	0	367001600	56	5264
2026-01-18 02:25:41.35	312.68	11.35	-42.9	-45.8	16.5	0.00e+00	0	39	0	369098752	56	5305
2026-01-18 02:25:42.35	312.50	11.33	-42.9	-45.9	16.5	0.00e+00	0	39	0	371195904	56	5367
2026-01-18 02:25:43.35	312.31	11.32	-43.1	-46.1	16.2	0.00e+00	0	39	0	373293056	56	5513
2026-01-18 02:25:44.36	312.12	11.30	-43.0	-46.1	16.2	0.00e+00	0	39	0	374341632	56	5516
2026-01-18 02:25:45.35	311.94	11.29	-43.0	-46.1	16.2	0.00e+00	0	39	0	376438784	56	5521
2026-01-18 02:25:46.36	311.76	11.27	-43.1	-46.3	16.1	0.00e+00	0	39	0	378535936	56	5599
2026-01-18 02:25:47.35	311.57	11.25	-43.2	-46.3	16.0	0.00e+00	0	39	0	380633088	57	5321
2026-01-18 02:25:48.35	311.39	11.24	-43.1	-46.2	16.1	0.00e+00	0	39	0	382730240	57	5249
2026-01-18 02:25:49.36	311.21	11.22	-43.1	-46.3	16.1	0.00e+00	0	39	0	383778816	57	5282
2026-01-18 02:25:50.36	311.02	11.20	-43.0	-46.0	16.3	0.00e+00	0	39	0	385875968	57	5142
2026-01-18 02:25:51.36	310.84	11.19	-43.0	-46.0	16.3	0.00e+00	0	39	0	387973120	57	5124
2026-01-18 02:25:52.36	310.66	11.17	-42.8	-45.8	16.6	0.00e+00	0	39	0	390070272	57	5007
2026-01-18 02:25:53.36	310.47	11.15	-42.9	-45.8	16.5	0.00e+00	0	39	0	392167424	57	5012
2026-01-18 02:25:54.36	310.29	11.13	-42.8	-45.8	16.6	0.00e+00	0	39	0	393216000	57	4990
2026-01-18 02:25:55.36	310.11	11.11	-42.9	-45.9	16.4	0.00e+00	0	39	0	395313152	57	5079
2026-01-18 02:25:56.36	309.93	11.10	-42.9	-45.9	16.4	0.00e+00	0	39	0	397410304	57	5090
2026-01-18 02:25:57.37	309.74	11.08	-43.0	-46.0	16.4	0.00e+00	0	39	0	399507456	57	5133
2026-01-18 02:25:58.37	309.56	11.06	-43.0	-46.0	16.3	0.00e+00	0	39	0	401604608	57	5155
2026-01-18 02:25:59.37	309.38	11.04	-43.0	-46.1	16.2	0.00e+00	0	39	0	402653184	57	5190
2026-01-18 02:26:00.37	309.20	11.02	-43.1	-46.2	16.1	0.00e+00	0	39	0	404750336	57	5261
2026-01-18 02:26:01.37	309.02	11.00	-43.1	-46.3	16.1	0.00e+00	0	39	0	406847488	57	5287
2026-01-18 02:26:02.37	308.84	10.98	-43.2	-46.4	16.0	0.00e+00	0	39	0	408944640	57	5355
2026-01-18 02:26:03.38	308.66	10.96	-43.3	-46.4	16.0	0.00e+00	0	39	0	411041792	57	5385
2026-01-18 02:26:04.38	308.48	10.94	-43.3	-46.5	15.9	0.00e+00	0	39	0	412090368	57	5407
2026-01-18 02:26:05.38	308.30	10.92	-43.4	-46.6	15.8	0.00e+00	0	39	0	414187520	57	5490
2026-01-18 02:26:06.39	308.12	10.89	-43.2	-46.5	15.9	0.00e+00	0	39	0	416284672	57	5421
2026-01-18 02:26:07.39	307.94	10.87	-43.2	-46.5	15.9	0.00e+00	0	39	0	418381824	57	5435
2026-01-18 02:26:08.39	307.76	10.85	-43.3	-46.5	15.9	0.00e+00	0	39	0	419430400	57	5419
2026-01-18 02:26:09.40	307.58	10.83	-43.3	-46.5	15.8	0.00e+00	0	39	0	421527552	57	5422
2026-01-18 02:26:10.40	307.40	10.81	-43.3	-46.5	15.9	0.00e+00	0	39	0	423624704	57	5418
2026-01-18 02:26:11.40	307.22	10.78	-43.2	-46.3	16.1	0.00e+00	0	39	0	425721856	57	5300
2026-01-18 02:26:12.40	307.04	10.76	-43.2	-46.2	16.2	0.00e+00	0	39	0	427819008	57	5238
2026-01-18 02:26:13.40	306.87	10.74	-43.2	-46.2	16.1	0.00e+00	0	39	0	428867584	57	5247
2026-01-18 02:26:14.40	306.69	10.71	-43.1	-46.1	16.2	0.00e+00	0	39	0	430964736	57	5196
2026-01-18 02:26:15.40	306.51	10.69	-43.2	-46.1	16.2	0.00e+00	0	39	0	433061888	57	5216
2026-01-18 02:26:16.41	306.33	10.67	-43.2	-46.2	16.2	0.00e+00	0	39	0	435159040	57	5224
2026-01-18 02:26:17.40	306.16	10.64	-43.2	-46.3	16.1	0.00e+00	0	39	0	437256192	57	5288
2026-01-18 02:26:18.41	305.98	10.62	-43.3	-46.4	16.0	0.00e+00	0	39	0	438304768	57	5371
2026-01-18 02:26:19.40	305.81	10.59	-43.3	-46.4	15.9	0.00e+00	0	39	0	440401920	57	5393
2026-01-18 02:26:20.40	305.63	10.57	-43.4	-46.5	15.8	0.00e+00	0	39	0	442499072	57	5429
2026-01-18 02:26:21.40	305.46	10.54	-43.5	-46.6	15.8	0.00e+00	0	39	0	444596224	57	5477
2026-01-18 02:26:22.40	305.28	10.52	-43.5	-46.7	15.6	0.00e+00	0	39	0	445644800	57	5549
2026-01-18 02:26:23.41	305.11	10.49	-43.6	-46.7	15.6	0.00e+00	0	39	0	447741952	57	5583
2026-01-18 02:26:24.41	304.93	10.47	-43.5	-46.7	15.6	0.00e+00	0	39	0	449839104	57	5545
2026-01-18 02:26:25.41	304.76	10.44	-43.6	-46.7	15.6	0.00e+00	0	39	0	451936256	57	5584
2026-01-18 02:26:26.41	304.58	10.42	-43.6	-46.7	15.6	0.00e+00	0	39	0	454033408	57	5577
2026-01-18 02:26:27.41	304.41	10.39	-43.4	-46.5	15.8	0.00e+00	0	39	0	455081984	57	5440
2026-01-18 02:26:28.41	304.24	10.36	-43.1	-46.1	16.2	0.00e+00	0	39	0	457179136	57	5174
2026-01-18 02:26:29.41	304.06	10.34	-43.0	-46.0	16.3	0.00e+00	0	39	0	459276288	57	5113
2026-01-18 02:26:30.42	303.89	10.31	-43.1	-46.0	16.3	0.00e+00	0	39	0	461373440	57	5133
2026-01-18 02:26:31.42	303.72	10.28	-43.1	-46.1	16.3	0.00e+00	0	39	0	463470592	57	5172
2026-01-18 02:26:32.42	303.55	10.25	-43.1	-46.2	16.2	0.00e+00	0	39	0	464519168	57	5235
2026-01-18 02:26:33.42	303.38	10.23	-43.2	-46.2	16.1	0.00e+00	0	39	0	466616320	57	5266
2026-01-18 02:26:34.42	303.20	10.20	-43.3	-46.4	15.9	0.00e+00	0	39	0	468713472	57	5362
2026-01-18 02:26:35.43	303.03	10.17	-43.3	-46.5	15.9	0.00e+00	0	39	0	470810624	57	5422
2026-01-18 02:26:36.43	302.86	10.14	-43.4	-46.7	15.7	0.00e+00	0	39	0	472907776	57	5532
2026-01-18 02:26:37.43	302.69	10.11	-43.4	-46.6	15.7	0.00e+00	0	39	0	473956352	57	5523
2026-01-18 02:26:38.43	302.52	10.09	-43.4	-46.6	15.7	0.00e+00	0	39	0	476053504	57	5502
2026-01-18 02:26:39.43	302.35	10.06	-43.3	-46.6	15.7	0.00e+00	0	39	0	478150656	57	5469
2026-01-18 02:26:40.43	302.18	10.03	-43.3	-46.5	15.8	0.00e+00	0	39	0	480247808	57	5441
2026-01-18 02:26:41.43	302.01	10.00	-43.4	-46.5	15.8	0.00e+00	0	39	0	482344960	57	5421
2026-01-18 02:26:42.44	301.84	9.97	-43.2	-46.3	16.0	0.00e+00	0	39	0	483393536	57	5315
2026-01-18 02:26:43.44	301.68	9.94	-43.3	-46.3	15.9	0.00e+00	0	39	0	485490688	57	5335
2026-01-18 02:26:44.45	301.51	9.91	-43.2	-46.3	16.0	0.00e+00	0	39	0	487587840	57	5288
2026-01-18 02:26:45.45	301.34	9.88	-43.1	-46.1	16.2	0.00e+00	0	39	0	489684992	57	5162
2026-01-18 02:26:46.45	301.17	9.85	-43.0	-45.9	16.4	0.00e+00	0	39	0	491782144	57	5057
2026-01-18 02:26:47.45	301.01	9.82	-42.9	-45.7	16.5	0.00e+00	0	39	0	492830720	57	4980
2026-01-18 02:26:48.45	300.84	9.79	-42.9	-45.8	16.5	0.00e+00	0	39	0	494927872	57	5006
2026-01-18 02:26:49.46	300.67	9.76	-42.8	-45.7	16.6	0.00e+00	0	39	0	497025024	57	4960
2026-01-18 02:26:50.45	300.51	9.72	-42.9	-45.8	16.5	0.00e+00	0	39	0	499122176	57	4993
2026-01-18 02:26:51.46	300.34	9.69	-42.8	-45.7	16.6	0.00e+00	0	39	0	500170752	57	4956
2026-01-18 02:26:52.46	300.18	9.66	-42.9	-45.8	16.5	0.00e+00	0	39	0	502267904	57	4992
2026-01-18 02:26:53.46	300.01	9.63	-42.9	-45.7	16.5	0.00e+00	0	39	0	504365056	57	4971
2026-01-18 02:26:54.46	299.85	9.60	-43.0	-46.0	16.3	0.00e+00	0	39	0	506462208	57	5117
2026-01-18 02:26:55.46	299.68	9.57	-43.0	-45.9	16.3	0.00e+00	0	39	0	508559360	57	5091
2026-01-18 02:26:56.46	299.52	9.53	-43.1	-46.0	16.3	0.00e+00	0	39	0	509607936	57	5142
2026-01-18 02:26:57.46	299.36	9.50	-43.1	-46.0	16.2	0.00e+00	0	39	0	511705088	57	5149
2026-01-18 02:26:58.46	299.20	9.47	-43.1	-46.1	16.2	0.00e+00	0	39	0	513802240	57	5169
2026-01-18 02:26:59.46	299.03	9.44	-43.0	-45.9	16.4	0.00e+00	0	39	0	515899392	57	5068
2026-01-18 02:27:00.46	298.87	9.40	-43.0	-45.9	16.4	0.00e+00	0	39	0	517996544	57	5065
2026-01-18 02:27:01.47	298.71	9.37	-42.9	-45.9	16.4	0.00e+00	0	39	0	519045120	57	5044
2026-01-18 02:27:02.46	298.55	9.34	-42.8	-45.7	16.6	0.00e+00	0	39	0	521142272	57	4952
2026-01-18 02:27:03.46	298.39	9.30	-43.0	-45.9	16.4	0.00e+00	0	39	0	523239424	57	5067
2026-01-18 02:27:04.46	298.23	9.27	-43.0	-45.9	16.4	0.00e+00	0	39	0	525336576	57	5084
2026-01-18 02:27:05.47	298.07	9.24	-43.1	-46.1	16.2	0.00e+00	0	39	0	527433728	57	5171
2026-01-18 02:27:06.47	297.91	9.20	-43.1	-46.0	16.2	0.00e+00	0	39	0	528482304	57	5131
2026-01-18 02:27:07.47	297.75	9.17	-43.1	-46.0	16.2	0.00e+00	0	39	0	530579456	57	5149
2026-01-18 02:27:08.47	297.59	9.13	-43.0	-46.0	16.2	0.00e+00	0	39	0	532676608	57	5136
2026-01-18 02:27:09.47	297.43	9.10	-43.1	-46.1	16.1	0.00e+00	0	39	0	534773760	57	5207
2026-01-18 02:27:10.47	297.27	9.06	-43.1	-46.1	16.1	0.00e+00	0	39	0	536870912	57	5210
2026-01-18 02:27:11.47	297.11	9.03	-43.2	-46.2	16.1	0.00e+00	0	39	0	537919488	57	5253
2026-01-18 02:27:12.47	296.95	8.99	-43.2	-46.2	16.0	0.00e+00	0	39	0	540016640	57	5274
2026-01-18 02:27:13.47	296.80	8.96	-48.3	-63.5	3.8	7.31e-01	0	39	104	541065216	67	21691
2026-01-18 02:27:14.47	296.64	8.92	-48.6	-63.7	3.8	1.49e+00	0	39	104	541065216	67	22099
2026-01-18 02:27:15.46	296.49	8.89	-48.5	-63.9	3.8	1.49e+00	0	39	104	541065216	67	22547
2026-01-18 02:27:16.46	296.33	8.85	-48.7	-64.1	3.8	1.49e+00	0	39	104	541065216	68	21855
2026-01-18 02:27:17.46	296.18	8.82	-49.0	-64.2	3.8	1.49e+00	0	39	104	541065216	68	22049
2026-01-18 02:27:18.45	296.02	8.78	-49.0	-64.2	3.8	1.49e+00	0	39	104	541065216	68	22195
2026-01-18 02:27:19.45	295.87	8.75	-48.9	-64.2	3.8	1.49e+00	0	39	104	541065216	68	22238
2026-01-18 02:27:20.44	295.71	8.71	-48.9	-64.2	3.8	1.49e+00	0	39	104	541065216	68	22245
2026-01-18 02:27:21.44	295.56	8.67	-49.1	-64.3	3.8	1.49e+00	0	39	104	541065216	68	22349
2026-01-18 02:27:22.44	295.41	8.64	-48.9	-64.3	3.8	1.49e+00	0	39	104	541065216	68	22376
2026-01-18 02:27:23.43	295.25	8.60	-49.0	-64.3	3.8	1.49e+00	0	39	104	541065216	68	22380
2026-01-18 02:27:24.43	295.10	8.57	-49.1	-64.3	3.8	1.49e+00	0	39	104	541065216	68	22400
2026-01-18 02:27:25.43	294.95	8.53	-49.1	-64.3	3.8	1.49e+00	0	39	104	541065216	68	22416
2026-01-18 02:27:26.42	294.80	8.49	-49.0	-64.3	3.8	1.49e+00	0	39	104	541065216	68	22495
2026-01-18 02:27:27.42	294.65	8.46	-49.1	-64.3	3.8	1.49e+00	0	39	104	541065216	68	22505
2026-01-18 02:27:28.42	294.50	8.42	-49.1	-64.3	3.8	1.49e+00	0	39	104	541065216	68	22439
2026-01-18 02:27:29.41	294.35	8.38	-49.1	-64.3	3.8	1.49e+00	0	39	104	541065216	68	22465
2026-01-18 02:27:30.41	294.20	8.34	-49.0	-64.3	3.8	1.49e+00	0	39	104	541065216	68	22516
2026-01-18 02:27:31.40	294.05	8.31	-49.0	-64.3	3.8	1.49e+00	0	39	104	541065216	68	22375
2026-01-18 02:27:32.40	293.90	8.27	-48.9	-64.3	3.8	1.49e+00	0	39	104	541065216	68	22330
2026-01-18 02:27:33.40	293.75	8.23	-48.9	-64.3	3.8	1.49e+00	0	39	104	541065216	68	22354
2026-01-18 02:27:34.39	293.60	8.19	-48.7	-64.2	3.8	1.49e+00	0	39	104	541065216	68	22234
2026-01-18 02:27:35.39	293.45	8.15	-48.7	-64.2	3.8	1.49e+00	0	39	104	541065216	68	22151
2026-01-18 02:27:36.39	293.30	8.12	-48.7	-64.2	3.8	1.49e+00	0	39	104	541065216	68	22195
2026-01-18 02:27:37.39	293.16	8.08	-48.7	-64.2	3.8	1.49e+00	0	39	104	541065216	68	22198
2026-01-18 02:27:38.38	293.01	8.04	-48.7	-64.2	3.8	1.49e+00	0	39	104	541065216	68	22153
2026-01-18 02:27:39.38	292.86	8.00	-48.7	-64.2	3.8	1.49e+00	0	39	104	541065216	68	22150
2026-01-18 02:27:40.38	292.72	7.96	-48.7	-64.2	3.8	1.49e+00	0	39	104	541065216	68	22158
2026-01-18 02:27:41.37	292.57	7.92	-48.7	-64.2	3.8	1.49e+00	0	39	104	541065216	68	22151
2026-01-18 02:27:42.37	292.43	7.89	-48.7	-64.2	3.8	1.49e+00	0	39	104	541065216	68	22149
2026-01-18 02:27:43.37	292.28	7.85	-48.7	-64.2	3.8	1.49e+00	0	39	104	541065216	68	22079
2026-01-18 02:27:44.36	292.14	7.81	-48.7	-64.2	3.8	1.49e+00	0	39	104	541065216	68	22117
2026-01-18 02:27:45.36	291.99	7.77	-48.7	-64.2	3.8	1.49e+00	0	39	104	541065216	68	22097
2026-01-18 02:27:46.35	291.85	7.73	-48.7	-64.2	3.8	1.49e+00	0	39	104	541065216	68	22037
2026-01-18 02:27:47.35	291.71	7.69	-48.7	-64.2	3.8	1.49e+00	0	39	104	541065216	68	22125
2026-01-18 02:27:48.35	291.56	7.65	-48.7	-64.2	3.8	1.49e+00	0	39	104	541065216	68	22118
2026-01-18 02:27:49.34	291.42	7.61	-48.7	-64.2	3.8	1.49e+00	0	39	104	541065216	68	22093
2026-01-18 02:27:50.34	291.28	7.57	-48.7	-64.2	3.8	1.49e+00	0	39	104	541065216	68	22142
2026-01-18 02:27:51.34	291.14	7.53	-48.7	-64.1	3.8	1.49e+00	0	39	104	541065216	68	22001
2026-01-18 02:27:52.33	291.00	7.49	-48.7	-64.2	3.8	1.49e+00	0	39	104	541065216	68	22137
2026-01-18 02:27:53.33	290.85	7.45	-48.7	-64.2	3.8	1.49e+00	0	39	104	541065216	68	22012
2026-01-18 02:27:54.32	290.71	7.41	-48.7	-64.2	3.8	1.49e+00	0	39	104	541065216	68	22099
2026-01-18 02:27:55.32	290.57	7.37	-48.7	-64.2	3.8	1.49e+00	0	39	104	541065216	68	22106
2026-01-18 02:27:56.32	290.43	7.33	-48.7	-64.2	3.8	1.49e+00	0	39	104	541065216	68	22023
2026-01-18 02:27:57.31	290.29	7.29	-48.7	-64.2	3.8	1.49e+00	0	39	104	541065216	68	22170
2026-01-18 02:27:58.31	290.16	7.25	-48.7	-64.2	3.8	1.49e+00	0	39	104	541065216	68	22052
2026-01-18 02:27:59.31	290.02	7.21	-48.7	-64.2	3.8	1.49e+00	0	39	104	541065216	68	22070
2026-01-18 02:28:00.30	289.88	7.17	-48.7	-64.2	3.8	1.49e+00	0	39	104	541065216	68	22114
2026-01-18 02:28:01.30	289.74	7.13	-48.7	-64.2	3.8	1.49e+00	0	39	104	541065216	68	22050
2026-01-18 02:28:02.30	289.60	7.09	-48.7	-64.2	3.8	1.49e+00	0	39	104	541065216	68	22119
2026-01-18 02:28:03.29	289.47	7.05	-48.7	-64.2	3.8	1.49e+00	0	39	104	541065216	68	22068
2026-01-18 02:28:04.29	289.33	7.01	-48.7	-64.2	3.8	1.49e+00	0	39	104	541065216	68	22073
2026-01-18 02:28:05.28	289.19	6.96	-48.7	-64.2	3.8	1.49e+00	0	39	104	541065216	68	22083
2026-01-18 02:28:06.28	289.06	6.92	-48.7	-64.2	3.8	1.49e+00	0	39	104	541065216	68	22049
2026-01-18 02:28:07.28	288.92	6.88	-48.7	-64.2	3.8	1.49e+00	0	39	104	541065216	68	22042
2026-01-18 02:28:08.28	288.79	6.84	-48.7	-64.2	3.8	1.49e+00	0	39	104	541065216	68	22085
2026-01-18 02:28:09.27	288.65	6.80	-48.7	-64.2	3.8	1.49e+00	0	39	104	541065216	68	22049
2026-01-18 02:28:10.27	288.52	6.76	-48.7	-64.2	3.8	1.49e+00	0	39	104	541065216	68	22108
2026-01-18 02:28:11.26	288.38	6.72	-48.7	-64.2	3.8	1.49e+00	0	39	104	541065216	68	22081
2026-01-18 02:28:12.26	288.25	6.67	-48.7	-64.2	3.8	1.49e+00	0	39	104	541065216	68	22060
2026-01-18 02:28:13.25	288.12	6.63	-48.7	-64.2	3.8	1.49e+00	0	39	104	541065216	68	22088
2026-01-18 02:28:14.25	287.98	6.59	-48.7	-64.2	3.8	1.49e+00	0	39	104	541065216	68	22050
2026-01-18 02:28:15.25	287.85	6.55	-48.7	-64.2	3.8	1.49e+00	0	39	104	541065216	68	22018
2026-01-18 02:28:16.24	287.72	6.51	-48.7	-64.2	3.8	1.49e+00	0	39	104	541065216	68	22018
2026-01-18 02:28:17.24	287.59	6.46	-48.7	-64.1	3.8	1.49e+00	0	39	104	541065216	68	21978
2026-01-18 02:28:18.24	287.46	6.42	-48.7	-64.2	3.8	1.49e+00	0	39	104	541065216	68	22030
2026-01-18 02:28:19.23	287.33	6.38	-48.7	-64.2	3.8	1.49e+00	0	39	104	541065216	68	22053
2026-01-18 02:28:20.23	287.20	6.34	-48.7	-64.2	3.8	1.49e+00	0	39	104	541065216	68	22050
2026-01-18 02:28:21.22	287.07	6.30	-48.7	-64.2	3.8	1.49e+00	0	39	104	541065216	68	22070
2026-01-18 02:28:22.22	286.94	6.25	-48.7	-64.2	3.8	1.49e+00	0	39	104	541065216	68	22098
2026-01-18 02:28:23.21	286.81	6.21	-48.7	-64.2	3.8	1.49e+00	0	39	104	541065216	68	22047
2026-01-18 02:28:24.21	286.68	6.17	-48.7	-64.2	3.8	1.49e+00	0	39	104	541065216	68	22017
2026-01-18 02:28:25.21	286.55	6.13	-48.6	-64.1	3.8	1.49e+00	0	39	104	541065216	68	21970
2026-01-18 02:28:26.20	286.42	6.08	-48.7	-64.2	3.8	1.49e+00	0	39	104	541065216	68	22023
2026-01-18 02:28:27.20	286.29	6.04	-48.7	-64.2	3.8	1.49e+00	0	39	104	541065216	68	22050
2026-01-18 02:28:28.19	286.17	6.00	-48.6	-64.1	3.8	1.49e+00	0	39	104	541065216	68	21990
2026-01-18 02:28:29.19	286.04	5.96	-48.7	-64.1	3.8	1.49e+00	0	39	104	541065216	68	21962
2026-01-18 02:28:30.19	285.91	5.91	-48.6	-64.1	3.8	1.49e+00	0	39	104	541065216	68	22005
2026-01-18 02:28:31.18	285.79	5.87	-48.7	-64.1	3.8	1.49e+00	0	39	104	541065216	68	21977
2026-01-18 02:28:32.18	285.66	5.83	-48.7	-64.1	3.8	1.49e+00	0	39	104	541065216	68	21955
2026-01-18 02:28:33.17	285.54	5.78	-48.7	-64.1	3.8	1.49e+00	0	39	104	541065216	68	21940
2026-01-18 02:28:34.17	285.41	5.74	-48.6	-64.1	3.8	1.49e+00	0	39	104	541065216	68	21949
2026-01-18 02:28:35.17	285.29	5.70	-48.6	-64.1	3.8	1.49e+00	0	39	104	541065216	68	21904
2026-01-18 02:28:36.16	285.16	5.65	-48.6	-64.1	3.8	1.49e+00	0	39	104	541065216	68	21954
2026-01-18 02:28:37.16	285.04	5.61	-48.6	-64.2	3.8	1.49e+00	0	39	104	541065216	68	22035
2026-01-18 02:28:38.15	284.91	5.57	-48.6	-64.2	3.8	1.49e+00	0	39	104	541065216	68	22009
2026-01-18 02:28:39.15	284.79	5.52	-48.6	-64.2	3.8	1.49e+00	0	39	104	541065216	68	22008
2026-01-18 02:28:40.15	284.67	5.48	-48.7	-64.1	3.8	1.49e+00	0	39	104	541065216	68	21948
2026-01-18 02:28:41.15	284.54	5.44	-48.6	-64.2	3.8	1.49e+00	0	39	104	541065216	68	22029
2026-01-18 02:28:42.14	284.42	5.39	-48.6	-64.1	3.8	1.49e+00	0	39	104	541065216	68	21946
2026-01-18 02:28:43.13	284.30	5.35	-48.6	-64.1	3.8	1.49e+00	0	39	104	541065216	68	21965
2026-01-18 02:28:44.13	284.18	5.31	-48.6	-64.1	3.8	1.49e+00	0	39	104	541065216	68	21979
2026-01-18 02:28:45.12	284.06	5.26	-48.6	-64.2	3.8	1.49e+00	0	39	104	541065216	68	22014
2026-01-18 02:28:46.12	283.94	5.22	-48.6	-64.1	3.8	1.49e+00	0	39	104	541065216	68	21897
2026-01-18 02:28:47.12	283.82	5.18	-48.6	-64.1	3.8	1.49e+00	0	39	104	541065216	68	22000
2026-01-18 02:28:48.11	283.70	5.13	-48.6	-64.1	3.8	1.49e+00	0	39	104	541065216	68	21939
2026-01-18 02:28:49.11	283.58	5.09	-48.7	-64.1	3.8	1.49e+00	0	39	104	541065216	68	21976
2026-01-18 02:28:50.10	283.46	5.04	-48.6	-64.1	3.8	1.49e+00	0	39	104	541065216	68	21958
2026-01-18 02:28:51.10	283.34	5.00	-48.6	-64.2	3.8	1.49e+00	0	39	104	541065216	68	22047

#Closed at: 2026-01-18 02:28:52
#Recorded file [541 MB]: D:/Data/31040_260118_052052.dat