passes_logs/2026/01/18/T1/T1__20260118_224043_NOAA_20_JPSS-1_rec.log

#Pass ID: 20260118_224043_NOAA 20 (JPSS-1)
#Satellite: NOAA 20 (JPSS-1)
#Configuration: NOAA 20
#almurnet v.1.7.20251203
#Start time: 2026-01-18 22:40:43

#Version: 2.0.20230620
#Station: T1
#Location: 37.570604 lon 55.790049 lat
#TLE: 1 43013U 17073A   26017.93796159  .00000077  00000+0  57252-4 0  9992
#TLE: 2 43013  98.7639 318.8464 0001390  34.9771 325.1496 14.19536703423157

#Time	Az	El	Level	Level2	SNR	BER	BlckErr	Temp	State	Recorded	gain1	gain2
2026-01-18 22:40:43.77	24.29	5.05	-49.3	-64.8	3.8	1.49e+00	0	36	0	0	70	21086
2026-01-18 22:40:44.76	24.35	5.12	-49.2	-64.7	3.8	1.49e+00	0	36	104	0	70	20993
2026-01-18 22:40:45.75	24.41	5.18	-49.3	-64.7	3.8	1.49e+00	0	36	104	0	70	20967
2026-01-18 22:40:46.74	24.47	5.25	-49.3	-64.7	3.8	1.49e+00	0	36	104	0	70	20925
2026-01-18 22:40:47.74	24.53	5.31	-49.2	-64.7	3.8	1.49e+00	0	37	104	0	70	20915
2026-01-18 22:40:48.73	24.59	5.38	-49.2	-64.7	3.8	1.49e+00	0	37	104	0	70	20954
2026-01-18 22:40:49.72	24.65	5.44	-49.2	-64.7	3.8	1.49e+00	0	36	104	0	70	20995
2026-01-18 22:40:50.72	24.71	5.51	-49.3	-64.7	3.8	1.49e+00	0	36	104	0	70	20970
2026-01-18 22:40:51.71	24.77	5.58	-49.3	-64.7	3.8	1.49e+00	0	37	104	0	70	20872
2026-01-18 22:40:52.71	24.84	5.64	-49.2	-64.7	3.8	1.49e+00	0	37	104	0	70	20829
2026-01-18 22:40:53.70	24.90	5.71	-49.3	-64.7	3.8	1.49e+00	0	37	104	0	70	20801
2026-01-18 22:40:54.69	24.96	5.78	-49.2	-64.6	3.8	1.49e+00	0	37	104	0	70	20759
2026-01-18 22:40:55.69	25.02	5.84	-49.2	-64.7	3.8	1.49e+00	0	37	104	0	70	20804
2026-01-18 22:40:56.68	25.08	5.91	-49.2	-64.7	3.8	1.49e+00	0	37	104	0	70	20912
2026-01-18 22:40:57.67	25.15	5.98	-49.2	-64.7	3.8	1.49e+00	0	37	104	0	70	20814
2026-01-18 22:40:58.67	25.21	6.04	-49.3	-64.7	3.8	1.49e+00	0	37	104	0	70	20852
2026-01-18 22:40:59.66	25.27	6.11	-49.2	-64.7	3.8	1.49e+00	0	37	104	0	70	20872
2026-01-18 22:41:00.66	25.34	6.18	-49.2	-64.7	3.8	1.49e+00	0	37	104	0	70	20906
2026-01-18 22:41:01.65	25.40	6.25	-49.3	-64.7	3.8	1.49e+00	0	37	104	0	70	20950
2026-01-18 22:41:02.64	25.46	6.31	-49.2	-64.7	3.8	1.49e+00	0	37	104	0	70	20893
2026-01-18 22:41:03.64	25.53	6.38	-49.2	-64.7	3.8	1.49e+00	0	37	104	0	70	21015
2026-01-18 22:41:04.63	25.59	6.45	-49.2	-64.7	3.8	1.49e+00	0	37	104	0	70	20964
2026-01-18 22:41:05.62	25.66	6.52	-49.2	-64.7	3.8	1.49e+00	0	37	104	0	70	20970
2026-01-18 22:41:06.62	25.72	6.59	-49.2	-64.7	3.8	1.49e+00	0	37	104	0	70	20878
2026-01-18 22:41:07.61	25.79	6.65	-49.2	-64.7	3.8	1.49e+00	0	37	104	0	70	20826
2026-01-18 22:41:08.61	25.86	6.72	-49.2	-64.6	3.8	1.49e+00	0	37	104	0	70	20768
2026-01-18 22:41:09.60	25.92	6.79	-49.2	-64.6	3.8	1.49e+00	0	37	104	0	70	20722
2026-01-18 22:41:10.59	25.99	6.86	-49.2	-64.6	3.8	1.49e+00	0	37	104	0	70	20697
2026-01-18 22:41:11.58	26.05	6.93	-49.2	-64.6	3.8	1.49e+00	0	37	104	0	70	20726
2026-01-18 22:41:12.58	26.12	7.00	-49.2	-64.6	3.8	1.49e+00	0	38	104	0	70	20641
2026-01-18 22:41:13.57	26.19	7.07	-49.2	-64.6	3.8	1.49e+00	0	37	104	0	70	20752
2026-01-18 22:41:14.56	26.26	7.14	-49.2	-64.7	3.8	1.49e+00	0	37	104	0	70	20889
2026-01-18 22:41:15.56	26.32	7.21	-49.2	-64.7	3.8	1.49e+00	0	38	104	0	70	21006
2026-01-18 22:41:16.55	26.39	7.28	-49.2	-64.7	3.8	1.49e+00	0	38	104	0	70	20917
2026-01-18 22:41:17.54	26.46	7.35	-49.2	-64.7	3.8	1.49e+00	0	37	104	0	70	21017
2026-01-18 22:41:18.53	26.53	7.42	-49.2	-64.7	3.8	1.49e+00	0	38	104	0	70	20862
2026-01-18 22:41:19.53	26.60	7.49	-49.2	-64.6	3.8	1.49e+00	0	37	104	0	70	20759
2026-01-18 22:41:20.52	26.67	7.56	-49.2	-64.6	3.8	1.49e+00	0	38	104	0	70	20667
2026-01-18 22:41:21.51	26.74	7.63	-49.2	-64.6	3.8	1.49e+00	0	37	104	0	70	20559
2026-01-18 22:41:22.51	26.81	7.70	-49.2	-64.5	3.8	1.49e+00	0	37	104	0	70	20437
2026-01-18 22:41:23.50	26.88	7.77	-49.2	-64.4	3.8	1.49e+00	0	38	104	0	70	20302
2026-01-18 22:41:24.50	26.95	7.84	-49.2	-64.4	3.8	1.49e+00	0	38	104	0	70	20235
2026-01-18 22:41:25.49	27.02	7.91	-49.2	-64.4	3.8	1.49e+00	0	38	104	0	70	20168
2026-01-18 22:41:26.48	27.09	7.98	-49.2	-64.3	3.8	1.49e+00	0	37	104	0	70	20046
2026-01-18 22:41:27.47	27.16	8.05	-49.2	-64.3	3.8	1.49e+00	0	38	104	0	70	19990
2026-01-18 22:41:28.47	27.23	8.13	-49.2	-64.2	3.8	1.49e+00	0	38	104	0	70	19803
2026-01-18 22:41:29.46	27.31	8.20	-49.2	-64.1	3.8	1.49e+00	0	38	104	0	70	19551
2026-01-18 22:41:30.45	27.38	8.27	-49.2	-64.0	3.8	1.49e+00	0	38	104	0	70	19296
2026-01-18 22:41:31.45	27.45	8.34	-49.2	-63.9	3.8	1.49e+00	0	38	104	0	70	19006
2026-01-18 22:41:32.44	27.53	8.41	-49.2	-63.6	3.8	1.49e+00	0	38	104	0	70	18364
2026-01-18 22:41:33.43	27.60	8.49	-49.1	-63.1	3.8	1.49e+00	0	38	104	0	70	17463
2026-01-18 22:41:34.43	27.67	8.56	-49.1	-62.3	3.9	1.49e+00	0	38	104	0	70	15845
2026-01-18 22:41:35.42	27.75	8.63	-49.0	-61.0	4.2	1.44e+00	0	38	0	0	70	13579
2026-01-18 22:41:36.41	27.82	8.71	-48.8	-59.5	4.8	1.03e+00	0	38	0	1048576	69	12202
2026-01-18 22:41:37.41	27.90	8.78	-48.6	-57.9	5.8	5.87e-01	0	38	0	3145728	69	10103
2026-01-18 22:41:38.40	27.97	8.85	-48.3	-56.3	7.1	2.76e-01	0	38	0	4194304	68	8937
2026-01-18 22:41:39.39	28.05	8.93	-47.8	-54.6	8.7	5.88e-02	0	38	0	6291456	67	7722
2026-01-18 22:41:40.39	28.12	9.00	-47.4	-53.3	9.9	1.70e-02	0	38	0	8388608	66	7108
2026-01-18 22:41:41.38	28.20	9.07	-47.2	-52.8	10.5	5.45e-03	0	38	0	10485760	66	6698
2026-01-18 22:41:42.38	28.28	9.15	-47.7	-54.3	9.0	9.16e-03	0	38	0	12582912	66	7940
2026-01-18 22:41:43.37	28.36	9.22	-47.9	-54.9	8.2	2.59e-01	0	38	0	13631488	67	8026
2026-01-18 22:41:44.37	28.43	9.30	-47.4	-53.6	9.8	7.87e-04	0	38	0	15728640	65	7726
2026-01-18 22:41:45.36	28.51	9.37	-48.6	-57.7	5.5	9.58e-01	0	38	104	16777216	68	10487
2026-01-18 22:41:46.43	28.60	9.45	-44.2	-47.2	16.3	0.00e+00	0	38	0	17825792	60	4972
2026-01-18 22:41:47.32	28.67	9.52	-44.0	-47.0	16.6	0.00e+00	0	38	0	19922944	60	4835
2026-01-18 22:41:48.46	28.76	9.61	-43.8	-46.7	16.7	0.00e+00	0	38	0	22020096	59	4966
2026-01-18 22:41:49.31	28.82	9.67	-43.8	-46.7	16.8	0.00e+00	0	38	0	23068672	59	4938
2026-01-18 22:41:50.44	28.92	9.76	-43.9	-46.8	16.7	0.00e+00	0	38	0	25165824	59	4999
2026-01-18 22:41:51.30	28.99	9.82	-43.8	-46.6	16.9	0.00e+00	0	38	0	27262976	59	4917
2026-01-18 22:41:52.43	29.08	9.91	-43.6	-46.4	17.1	0.00e+00	0	38	0	29360128	59	4810
2026-01-18 22:41:53.28	29.15	9.98	-43.6	-46.4	17.1	0.00e+00	0	38	0	30408704	59	4804
2026-01-18 22:41:54.42	29.24	10.06	-43.5	-46.3	17.1	0.00e+00	0	38	0	32505856	59	4755
2026-01-18 22:41:55.27	29.31	10.13	-43.5	-46.3	17.3	0.00e+00	0	38	0	34603008	58	4985
2026-01-18 22:41:56.41	29.40	10.22	-43.5	-46.2	17.3	0.00e+00	0	38	0	36700160	58	4968
2026-01-18 22:41:57.26	29.48	10.28	-43.5	-46.2	17.3	0.00e+00	0	38	0	37748736	58	4957
2026-01-18 22:41:58.40	29.57	10.37	-43.5	-46.2	17.3	0.00e+00	0	38	0	40894464	58	4962
2026-01-18 22:41:59.25	29.64	10.44	-43.4	-46.1	17.3	0.00e+00	0	38	0	41943040	58	4923
2026-01-18 22:42:00.39	29.74	10.53	-43.4	-46.0	17.5	0.00e+00	0	38	0	44040192	58	4861
2026-01-18 22:42:01.24	29.81	10.59	-43.4	-46.1	17.5	0.00e+00	0	38	0	46137344	58	4874
2026-01-18 22:42:02.37	29.91	10.68	-43.3	-46.0	17.5	0.00e+00	0	38	0	48234496	58	4847
2026-01-18 22:42:03.22	29.98	10.75	-43.4	-46.1	17.4	0.00e+00	0	38	0	49283072	58	4885
2026-01-18 22:42:04.36	30.08	10.84	-43.4	-46.1	17.5	0.00e+00	0	38	0	51380224	58	4872
2026-01-18 22:42:05.22	30.15	10.91	-43.3	-46.0	17.6	0.00e+00	0	38	0	53477376	58	4842
2026-01-18 22:42:06.35	30.25	11.00	-43.4	-46.0	17.5	0.00e+00	0	38	0	55574528	58	4853
2026-01-18 22:42:07.30	30.33	11.07	-43.3	-46.0	17.6	0.00e+00	0	38	0	56623104	58	4820
2026-01-18 22:42:08.46	30.44	11.16	-43.4	-46.0	17.5	0.00e+00	0	38	0	59768832	58	4838
2026-01-18 22:42:09.35	30.52	11.23	-43.3	-45.9	17.7	0.00e+00	0	38	0	60817408	58	4798
2026-01-18 22:42:10.49	30.62	11.33	-43.2	-45.8	17.7	0.00e+00	0	38	0	62914560	58	4759
2026-01-18 22:42:11.34	30.69	11.39	-43.3	-45.9	17.6	0.00e+00	0	38	0	65011712	58	4787
2026-01-18 22:42:12.48	30.80	11.49	-43.3	-45.9	17.6	0.00e+00	0	39	0	67108864	58	4779
2026-01-18 22:42:13.33	30.87	11.55	-43.3	-45.9	17.6	0.00e+00	0	38	0	68157440	58	4783
2026-01-18 22:42:14.47	30.98	11.65	-43.1	-45.7	17.8	0.00e+00	0	38	0	70254592	58	4698
2026-01-18 22:42:15.32	31.05	11.72	-43.2	-45.9	17.7	0.00e+00	0	38	0	72351744	58	4762
2026-01-18 22:42:16.46	31.16	11.81	-43.2	-45.8	17.7	0.00e+00	0	38	0	74448896	58	4754
2026-01-18 22:42:17.31	31.24	11.88	-43.2	-45.9	17.7	0.00e+00	0	38	0	75497472	58	4771
2026-01-18 22:42:18.45	31.34	11.97	-43.2	-45.9	17.7	0.00e+00	0	38	0	77594624	58	4764
2026-01-18 22:42:19.30	31.42	12.04	-43.2	-45.8	17.8	0.00e+00	0	38	0	79691776	58	4707
2026-01-18 22:42:20.44	31.53	12.13	-43.1	-45.7	17.8	0.00e+00	0	38	0	81788928	58	4693
2026-01-18 22:42:21.29	31.61	12.20	-43.2	-45.8	17.8	0.00e+00	0	38	0	82837504	58	4717
2026-01-18 22:42:22.49	31.72	12.30	-43.1	-45.8	17.8	0.00e+00	0	38	0	85983232	58	4711
2026-01-18 22:42:23.34	31.80	12.37	-43.0	-45.6	18.0	0.00e+00	0	39	0	87031808	58	4619
2026-01-18 22:42:24.48	31.91	12.47	-43.0	-45.7	17.9	0.00e+00	0	38	0	89128960	58	4674
2026-01-18 22:42:25.33	31.99	12.54	-42.9	-45.6	18.0	0.00e+00	0	38	0	91226112	57	4878
2026-01-18 22:42:26.47	32.10	12.63	-43.0	-45.6	17.9	0.00e+00	0	38	0	93323264	57	4892
2026-01-18 22:42:27.32	32.19	12.71	-43.0	-45.6	18.0	0.00e+00	0	39	0	94371840	57	4893
2026-01-18 22:42:28.46	32.30	12.80	-42.9	-45.5	18.0	0.00e+00	0	38	0	96468992	57	4864
2026-01-18 22:42:29.31	32.38	12.87	-43.0	-45.7	17.9	0.00e+00	0	38	0	98566144	57	4943
2026-01-18 22:42:30.44	32.49	12.97	-43.0	-45.5	18.0	0.00e+00	0	38	0	100663296	57	4866
2026-01-18 22:42:31.30	32.58	13.04	-43.0	-45.6	18.0	0.00e+00	0	38	0	101711872	57	4887
2026-01-18 22:42:32.43	32.69	13.14	-43.0	-45.6	18.0	0.00e+00	0	38	0	103809024	57	4898
2026-01-18 22:42:33.28	32.78	13.21	-43.0	-45.5	18.1	0.00e+00	0	38	0	105906176	57	4865
2026-01-18 22:42:34.42	32.89	13.31	-43.1	-45.7	17.9	0.00e+00	0	38	0	108003328	57	4938
2026-01-18 22:42:35.28	32.98	13.38	-43.2	-45.7	17.9	0.00e+00	0	38	0	110100480	57	4978
2026-01-18 22:42:36.41	33.10	13.48	-42.9	-45.4	18.2	0.00e+00	0	38	0	111149056	57	4771
2026-01-18 22:42:37.27	33.19	13.55	-42.9	-45.4	18.2	0.00e+00	0	38	0	113246208	57	4767
2026-01-18 22:42:38.40	33.30	13.65	-42.7	-45.2	18.4	0.00e+00	0	39	0	115343360	57	4665
2026-01-18 22:42:39.26	33.39	13.72	-42.7	-45.2	18.4	0.00e+00	0	38	0	117440512	57	4666
2026-01-18 22:42:40.39	33.51	13.82	-42.7	-45.2	18.5	0.00e+00	0	38	0	119537664	57	4660
2026-01-18 22:42:41.24	33.60	13.89	-42.7	-45.1	18.4	0.00e+00	0	38	0	120586240	57	4649
2026-01-18 22:42:42.38	33.72	13.99	-42.7	-45.1	18.5	0.00e+00	0	39	0	122683392	57	4630
2026-01-18 22:42:43.23	33.81	14.07	-42.8	-45.3	18.4	0.00e+00	0	39	0	124780544	57	4718
2026-01-18 22:42:44.59	33.96	14.19	-42.9	-45.3	18.3	0.00e+00	0	38	0	126877696	57	4748
2026-01-18 22:42:45.30	34.03	14.25	-42.9	-45.4	18.2	0.00e+00	0	39	0	127926272	57	4768
2026-01-18 22:42:46.78	34.19	14.38	-43.0	-45.5	18.2	0.00e+00	0	38	0	131072000	57	4825
2026-01-18 22:42:47.49	34.27	14.44	-42.9	-45.4	18.3	0.00e+00	0	39	0	132120576	57	4774
2026-01-18 22:42:48.77	34.41	14.55	-43.0	-45.5	18.2	0.00e+00	0	39	0	135266304	57	4836
2026-01-18 22:42:49.48	34.49	14.62	-43.0	-45.5	18.1	0.00e+00	0	39	0	136314880	57	4844
2026-01-18 22:42:50.76	34.63	14.73	-43.1	-45.7	18.0	0.00e+00	0	39	0	138412032	57	4928
2026-01-18 22:42:51.47	34.71	14.79	-43.1	-45.7	17.9	0.00e+00	0	38	0	139460608	57	4949
2026-01-18 22:42:52.75	34.85	14.91	-43.1	-45.7	17.9	0.00e+00	0	39	0	142606336	57	4944
2026-01-18 22:42:53.48	34.94	14.97	-43.1	-45.8	17.9	0.00e+00	0	38	0	143654912	57	4986
2026-01-18 22:42:54.75	35.08	15.09	-43.2	-45.8	17.8	0.00e+00	0	39	0	145752064	57	5009
2026-01-18 22:42:55.47	35.16	15.15	-43.2	-45.8	17.8	0.00e+00	0	38	0	147849216	57	5036
2026-01-18 22:42:56.75	35.31	15.27	-43.3	-45.9	17.8	0.00e+00	0	38	0	149946368	57	5048
2026-01-18 22:42:57.47	35.39	15.33	-43.3	-45.9	17.8	0.00e+00	0	38	0	150994944	57	5081
2026-01-18 22:42:58.75	35.54	15.45	-43.4	-46.0	17.6	0.00e+00	0	39	0	153092096	57	5156
2026-01-18 22:42:59.62	35.64	15.53	-43.4	-46.1	17.6	0.00e+00	0	38	0	155189248	57	5201
2026-01-18 22:43:00.75	35.77	15.63	-43.5	-46.2	17.4	0.00e+00	0	39	0	157286400	57	5273
2026-01-18 22:43:01.60	35.87	15.71	-43.6	-46.3	17.4	0.00e+00	0	39	0	159383552	57	5306
2026-01-18 22:43:02.74	36.01	15.81	-43.8	-46.5	17.2	0.00e+00	0	39	0	161480704	58	5125
2026-01-18 22:43:03.60	36.11	15.89	-43.7	-46.5	17.3	0.00e+00	0	39	0	162529280	58	5102
2026-01-18 22:43:04.73	36.25	16.00	-43.8	-46.5	17.2	0.00e+00	0	39	0	164626432	58	5124
2026-01-18 22:43:05.58	36.35	16.08	-43.9	-46.6	17.1	0.00e+00	0	39	0	166723584	58	5187
2026-01-18 22:43:06.72	36.49	16.18	-43.9	-46.6	17.1	0.00e+00	0	39	0	168820736	58	5217
2026-01-18 22:43:07.58	36.60	16.26	-43.8	-46.5	17.2	0.00e+00	0	39	0	169869312	58	5141
2026-01-18 22:43:08.71	36.73	16.37	-43.9	-46.6	17.1	0.00e+00	0	39	0	171966464	58	5167
2026-01-18 22:43:09.56	36.84	16.45	-43.7	-46.4	17.3	0.00e+00	0	38	0	174063616	58	5053
2026-01-18 22:43:10.70	36.98	16.55	-43.6	-46.2	17.5	0.00e+00	0	39	0	176160768	58	4951
2026-01-18 22:43:11.58	37.09	16.64	-43.6	-46.2	17.5	0.00e+00	0	39	0	177209344	58	4963
2026-01-18 22:43:12.86	37.25	16.76	-43.5	-46.2	17.6	0.00e+00	0	39	0	180355072	58	4928
2026-01-18 22:43:13.57	37.34	16.82	-43.6	-46.2	17.5	0.00e+00	0	39	0	181403648	58	4982
2026-01-18 22:43:14.85	37.51	16.94	-43.6	-46.3	17.4	0.00e+00	0	39	0	183500800	58	4998
2026-01-18 22:43:15.56	37.60	17.01	-43.7	-46.4	17.4	0.00e+00	0	39	0	185597952	58	5050
2026-01-18 22:43:16.84	37.76	17.13	-43.8	-46.4	17.3	0.00e+00	0	39	0	187695104	58	5070
2026-01-18 22:43:17.57	37.86	17.20	-43.8	-46.5	17.3	0.00e+00	0	39	0	188743680	58	5104
2026-01-18 22:43:18.84	38.03	17.32	-43.9	-46.6	17.2	0.00e+00	0	38	0	190840832	58	5179
2026-01-18 22:43:19.56	38.12	17.39	-43.9	-46.6	17.2	0.00e+00	0	39	0	192937984	58	5178
2026-01-18 22:43:20.83	38.29	17.51	-43.9	-46.6	17.2	0.00e+00	0	39	0	195035136	58	5163
2026-01-18 22:43:21.69	38.40	17.60	-43.9	-46.6	17.2	0.00e+00	0	39	0	196083712	58	5180
2026-01-18 22:43:22.82	38.56	17.71	-44.0	-46.7	17.0	0.00e+00	0	39	0	199229440	58	5250
2026-01-18 22:43:23.67	38.67	17.79	-43.9	-46.6	17.2	0.00e+00	0	39	0	200278016	58	5164
2026-01-18 22:43:24.81	38.82	17.90	-43.8	-46.4	17.3	0.00e+00	0	39	0	202375168	58	5095
2026-01-18 22:43:25.66	38.94	17.98	-43.8	-46.4	17.3	0.00e+00	0	39	0	204472320	58	5097
2026-01-18 22:43:26.80	39.10	18.09	-43.8	-46.5	17.3	0.00e+00	0	39	0	206569472	58	5110
2026-01-18 22:43:27.65	39.22	18.17	-43.8	-46.5	17.3	0.00e+00	0	38	0	207618048	58	5137
2026-01-18 22:43:28.79	39.37	18.29	-43.9	-46.6	17.2	0.00e+00	0	39	0	209715200	58	5190
2026-01-18 22:43:29.64	39.49	18.37	-43.9	-46.6	17.2	0.00e+00	0	39	0	211812352	58	5203
2026-01-18 22:43:30.87	39.67	18.49	-43.9	-46.6	17.2	0.00e+00	0	39	0	213909504	58	5190
2026-01-18 22:43:31.73	39.79	18.58	-44.0	-46.7	17.1	0.00e+00	0	39	0	214958080	58	5240
2026-01-18 22:43:32.87	39.95	18.69	-43.8	-46.5	17.2	0.00e+00	0	39	0	217055232	58	5158
2026-01-18 22:43:33.72	40.07	18.77	-43.8	-46.4	17.3	0.00e+00	0	39	0	219152384	58	5090
2026-01-18 22:43:34.85	40.24	18.88	-43.7	-46.4	17.4	0.00e+00	0	39	0	221249536	58	5059
2026-01-18 22:43:35.70	40.36	18.97	-43.7	-46.3	17.5	0.00e+00	0	39	0	223346688	58	5016
2026-01-18 22:43:36.84	40.53	19.08	-43.6	-46.3	17.5	0.00e+00	0	39	0	225443840	58	5002
2026-01-18 22:43:37.69	40.65	19.17	-43.5	-46.1	17.7	0.00e+00	0	39	0	226492416	58	4893
2026-01-18 22:43:38.83	40.82	19.28	-43.5	-46.1	17.7	0.00e+00	0	39	0	228589568	58	4895
2026-01-18 22:43:39.68	40.95	19.37	-43.4	-46.0	17.7	0.00e+00	0	39	0	230686720	58	4843
2026-01-18 22:43:40.82	41.12	19.48	-43.4	-46.0	17.7	0.00e+00	0	39	0	232783872	58	4855
2026-01-18 22:43:41.67	41.25	19.57	-43.5	-46.0	17.7	0.00e+00	0	39	0	233832448	58	4860
2026-01-18 22:43:42.81	41.42	19.68	-43.4	-46.0	17.8	0.00e+00	0	39	0	235929600	58	4823
2026-01-18 22:43:43.66	41.55	19.77	-43.4	-46.0	17.8	0.00e+00	0	39	0	238026752	58	4828
2026-01-18 22:43:44.80	41.73	19.88	-43.4	-46.0	17.8	0.00e+00	0	39	0	240123904	58	4821
2026-01-18 22:43:45.70	41.87	19.97	-43.5	-46.0	17.8	0.00e+00	0	39	0	241172480	58	4862
2026-01-18 22:43:46.93	42.06	20.10	-43.4	-46.0	17.8	0.00e+00	0	39	0	244318208	58	4826
2026-01-18 22:43:47.78	42.19	20.19	-43.3	-45.9	17.9	0.00e+00	0	39	0	245366784	58	4778
2026-01-18 22:43:49.03	42.39	20.31	-43.3	-45.8	18.0	0.00e+00	0	39	0	247463936	58	4743
2026-01-18 22:43:49.88	42.53	20.40	-43.2	-45.7	18.0	0.00e+00	0	39	0	249561088	58	4679
2026-01-18 22:43:51.02	42.71	20.52	-43.2	-45.7	18.1	0.00e+00	0	39	0	251658240	58	4673
2026-01-18 22:43:51.87	42.85	20.61	-43.2	-45.7	18.0	0.00e+00	0	39	0	253755392	58	4700
2026-01-18 22:43:53.01	43.03	20.72	-43.2	-45.7	18.1	0.00e+00	0	39	0	254803968	58	4676
2026-01-18 22:43:53.86	43.17	20.81	-43.1	-45.6	18.1	0.00e+00	0	39	0	256901120	58	4645
2026-01-18 22:43:55.00	43.36	20.93	-43.1	-45.7	18.1	0.00e+00	0	39	0	258998272	58	4652
2026-01-18 22:43:55.86	43.50	21.02	-43.0	-45.6	18.2	0.00e+00	0	39	0	261095424	58	4599
2026-01-18 22:43:56.99	43.69	21.14	-43.2	-45.7	18.1	0.00e+00	0	39	0	263192576	58	4669
2026-01-18 22:43:57.85	43.83	21.23	-43.1	-45.6	18.2	0.00e+00	0	39	0	264241152	58	4613
2026-01-18 22:43:58.99	44.03	21.34	-43.0	-45.4	18.3	0.00e+00	0	39	0	266338304	57	4798
2026-01-18 22:43:59.84	44.17	21.43	-43.0	-45.4	18.4	0.00e+00	0	39	0	268435456	57	4779
2026-01-18 22:44:00.95	44.36	21.55	-42.8	-45.2	18.5	0.00e+00	0	39	0	270532608	57	4691
2026-01-18 22:44:01.81	44.51	21.64	-42.6	-45.0	18.7	0.00e+00	0	39	0	271581184	57	4566
2026-01-18 22:44:02.94	44.71	21.76	-42.5	-44.8	18.9	0.00e+00	0	39	0	273678336	57	4481
2026-01-18 22:44:03.80	44.86	21.85	-42.6	-44.9	18.8	0.00e+00	0	39	0	275775488	57	4539
2026-01-18 22:44:04.93	45.05	21.97	-42.4	-44.8	19.0	0.00e+00	0	39	0	277872640	56	4714
2026-01-18 22:44:05.79	45.21	22.06	-42.4	-44.8	19.0	0.00e+00	0	39	0	278921216	56	4707
2026-01-18 22:44:06.92	45.41	22.18	-42.4	-44.7	19.1	0.00e+00	0	39	0	281018368	56	4683
2026-01-18 22:44:07.79	45.56	22.27	-42.4	-44.7	19.0	0.00e+00	0	39	0	283115520	56	4705
2026-01-18 22:44:09.10	45.80	22.41	-42.4	-44.7	18.8	0.00e+00	0	39	0	285212672	56	4700
2026-01-18 22:44:09.81	45.93	22.48	-42.4	-44.7	19.0	0.00e+00	0	39	0	287309824	56	4699
2026-01-18 22:44:11.11	46.17	22.62	-42.3	-44.6	19.1	0.00e+00	0	39	0	289406976	56	4625
2026-01-18 22:44:11.82	46.30	22.70	-42.2	-44.5	19.2	0.00e+00	0	39	0	290455552	56	4586
2026-01-18 22:44:13.10	46.54	22.84	-42.1	-44.3	19.4	0.00e+00	0	39	0	292552704	56	4477
2026-01-18 22:44:13.82	46.67	22.91	-42.1	-44.3	19.4	0.00e+00	0	39	0	294649856	56	4482
2026-01-18 22:44:15.10	46.91	23.05	-41.6	-43.8	19.7	0.00e+00	0	39	0	296747008	55	4478
2026-01-18 22:44:15.90	47.06	23.13	-41.6	-43.8	19.8	0.00e+00	0	39	0	297795584	55	4468
2026-01-18 22:44:17.10	47.29	23.26	-41.7	-43.9	19.7	0.00e+00	0	39	0	300941312	55	4500
2026-01-18 22:44:17.95	47.45	23.35	-41.5	-43.7	19.8	0.00e+00	0	39	0	301989888	55	4405
2026-01-18 22:44:19.08	47.67	23.48	-41.6	-43.8	19.8	0.00e+00	0	39	0	304087040	55	4453
2026-01-18 22:44:19.94	47.84	23.57	-41.6	-43.8	19.8	0.00e+00	0	39	0	306184192	55	4462
2026-01-18 22:44:21.07	48.06	23.69	-41.5	-43.6	19.9	0.00e+00	0	39	0	308281344	54	4636
2026-01-18 22:44:21.93	48.23	23.78	-41.5	-43.7	19.9	0.00e+00	0	39	0	309329920	54	4670
2026-01-18 22:44:23.07	48.46	23.91	-41.2	-43.4	20.2	0.00e+00	0	39	0	311427072	54	4503
2026-01-18 22:44:24.19	48.68	24.03	-41.2	-43.3	20.3	0.00e+00	0	39	0	313524224	54	4462
2026-01-18 22:44:25.21	48.89	24.14	-41.2	-43.3	20.2	0.00e+00	0	39	0	315621376	54	4489
2026-01-18 22:44:26.38	49.12	24.26	-41.3	-43.4	20.2	0.00e+00	0	39	0	317718528	54	4528
2026-01-18 22:44:27.23	49.30	24.36	-41.3	-43.4	20.2	0.00e+00	0	39	0	319815680	54	4515
2026-01-18 22:44:28.59	49.58	24.50	-41.4	-43.6	20.0	0.00e+00	0	39	0	321912832	54	4607
2026-01-18 22:44:29.31	49.73	24.58	-41.6	-43.7	19.8	0.00e+00	0	39	0	322961408	54	4702
2026-01-18 22:44:30.59	49.99	24.72	-41.7	-43.9	19.7	0.00e+00	0	39	0	326107136	54	4804
2026-01-18 22:44:31.30	50.14	24.80	-41.8	-44.0	19.5	0.00e+00	0	39	0	327155712	54	4867
2026-01-18 22:44:32.84	50.47	24.96	-42.0	-44.2	19.4	0.00e+00	0	39	0	330301440	54	4970
2026-01-18 22:44:33.55	50.62	25.04	-41.9	-44.1	19.5	0.00e+00	0	39	0	331350016	54	4923
2026-01-18 22:44:34.85	50.90	25.18	-41.8	-44.0	19.6	0.00e+00	0	39	0	333447168	54	4858
2026-01-18 22:44:35.56	51.05	25.26	-41.8	-44.1	19.6	0.00e+00	0	39	0	335544320	54	4876
2026-01-18 22:44:36.85	51.33	25.40	-41.8	-44.0	19.6	0.00e+00	0	39	0	337641472	54	4844
2026-01-18 22:44:37.56	51.49	25.48	-41.8	-44.0	19.7	0.00e+00	0	39	0	338690048	54	4826
2026-01-18 22:44:38.85	51.77	25.62	-42.0	-44.2	19.4	0.00e+00	0	39	0	340787200	54	4955
2026-01-18 22:44:39.57	51.93	25.70	-42.1	-44.3	19.3	0.00e+00	0	39	0	342884352	54	5033
2026-01-18 22:44:40.84	52.22	25.83	-42.3	-44.6	19.0	0.00e+00	0	39	0	344981504	55	4909
2026-01-18 22:44:41.57	52.38	25.91	-42.4	-44.7	19.0	0.00e+00	0	39	0	346030080	55	4946
2026-01-18 22:44:42.85	52.67	26.05	-42.4	-44.8	18.9	0.00e+00	0	39	0	349175808	55	5012
2026-01-18 22:44:43.56	52.83	26.13	-42.4	-44.7	18.9	0.00e+00	0	39	0	350224384	55	4958
2026-01-18 22:44:44.84	53.13	26.27	-42.5	-44.9	18.8	0.00e+00	0	39	0	352321536	55	5046
2026-01-18 22:44:45.71	53.33	26.36	-42.6	-45.0	18.6	0.00e+00	0	39	0	354418688	55	5152
2026-01-18 22:44:46.84	53.59	26.49	-43.0	-45.4	18.4	0.00e+00	0	39	0	356515840	56	5097
2026-01-18 22:44:47.70	53.79	26.58	-43.1	-45.6	18.3	0.00e+00	0	39	0	357564416	56	5166
2026-01-18 22:44:48.84	54.06	26.70	-43.3	-45.8	18.0	0.00e+00	0	39	0	359661568	57	5035
2026-01-18 22:44:49.69	54.26	26.80	-43.4	-46.0	17.9	0.00e+00	0	39	0	361758720	57	5128
2026-01-18 22:44:50.82	54.53	26.92	-43.6	-46.2	17.8	0.00e+00	0	39	0	363855872	57	5224
2026-01-18 22:44:51.67	54.74	27.01	-43.6	-46.2	17.7	0.00e+00	0	39	0	364904448	57	5236
2026-01-18 22:44:52.81	55.02	27.13	-43.7	-46.4	17.5	0.00e+00	0	39	0	367001600	58	5042
2026-01-18 22:44:53.66	55.22	27.23	-43.8	-46.4	17.5	0.00e+00	0	39	0	369098752	58	5081
2026-01-18 22:44:54.88	55.52	27.36	-43.7	-46.3	17.5	0.00e+00	0	39	0	371195904	58	5029
2026-01-18 22:44:55.73	55.73	27.45	-43.9	-46.5	17.4	0.00e+00	0	39	0	373293056	58	5158
2026-01-18 22:44:56.92	56.03	27.58	-44.0	-46.7	17.2	0.00e+00	0	39	0	375390208	58	5275
2026-01-18 22:44:57.77	56.24	27.67	-44.3	-47.1	16.9	0.00e+00	0	39	0	376438784	59	5161
2026-01-18 22:44:58.90	56.53	27.79	-44.4	-47.3	16.7	0.00e+00	0	39	0	378535936	59	5301
2026-01-18 22:44:59.75	56.74	27.88	-44.5	-47.3	16.6	0.00e+00	0	39	0	380633088	59	5318
2026-01-18 22:45:00.89	57.04	28.00	-44.5	-47.3	16.6	0.00e+00	0	39	0	382730240	59	5311
2026-01-18 22:45:01.75	57.26	28.10	-44.4	-47.2	16.7	0.00e+00	0	39	0	383778816	59	5235
2026-01-18 22:45:03.06	57.60	28.24	-44.1	-46.9	17.0	0.00e+00	0	39	0	386924544	59	5063
2026-01-18 22:45:03.77	57.78	28.31	-44.1	-46.9	17.0	0.00e+00	0	39	0	387973120	59	5068
2026-01-18 22:45:05.05	58.12	28.45	-44.2	-47.0	17.0	0.00e+00	0	39	0	390070272	59	5108
2026-01-18 22:45:05.76	58.31	28.52	-44.3	-47.1	16.8	0.00e+00	0	39	0	392167424	59	5209
2026-01-18 22:45:07.04	58.65	28.66	-44.6	-47.6	16.3	0.00e+00	0	39	0	394264576	59	5492
2026-01-18 22:45:07.76	58.84	28.73	-44.9	-48.0	16.0	0.00e+00	0	39	0	395313152	60	5429
2026-01-18 22:45:09.04	59.18	28.87	-45.2	-48.5	15.5	0.00e+00	0	39	0	397410304	61	5417
2026-01-18 22:45:09.77	59.38	28.94	-45.4	-48.7	15.2	0.00e+00	0	39	0	399507456	61	5571
2026-01-18 22:45:11.05	59.73	29.08	-45.8	-49.3	14.7	0.00e+00	0	39	0	401604608	62	5647
2026-01-18 22:45:11.77	59.93	29.15	-45.8	-49.4	14.6	0.00e+00	0	39	0	402653184	62	5668
2026-01-18 22:45:13.05	60.28	29.29	-46.0	-49.6	14.4	1.50e-06	0	39	0	405798912	62	5810
2026-01-18 22:45:13.78	60.49	29.36	-46.0	-49.6	14.4	0.00e+00	0	39	0	406847488	62	5840
2026-01-18 22:45:15.06	60.85	29.50	-46.1	-49.9	14.1	1.50e-06	0	39	0	408944640	62	6010
2026-01-18 22:45:15.78	61.05	29.57	-46.1	-49.9	14.1	7.00e-07	0	39	0	411041792	62	6003
2026-01-18 22:45:17.12	61.43	29.71	-46.1	-50.0	14.0	7.00e-07	0	39	0	413138944	62	6062
2026-01-18 22:45:17.84	61.63	29.78	-46.0	-49.8	14.3	7.00e-07	0	39	0	414187520	62	5926
2026-01-18 22:45:19.11	62.00	29.91	-46.2	-49.9	14.1	7.00e-07	0	39	0	416284672	63	5700
2026-01-18 22:45:19.83	62.21	29.98	-46.1	-49.9	14.1	2.20e-06	0	39	0	418381824	63	5659
2026-01-18 22:45:21.25	62.62	30.13	-46.4	-50.2	13.8	5.30e-06	0	39	0	420478976	63	5902
2026-01-18 22:45:21.96	62.83	30.20	-46.5	-50.5	13.4	1.29e-05	0	39	0	422576128	63	6088
2026-01-18 22:45:23.24	63.21	30.33	-46.6	-50.8	13.1	2.21e-05	0	39	0	424673280	64	5942
2026-01-18 22:45:23.95	63.42	30.40	-46.6	-50.8	13.1	4.19e-05	0	39	0	425721856	64	5944
2026-01-18 22:45:25.23	63.80	30.52	-46.7	-50.9	12.9	3.81e-05	0	39	0	427819008	64	6051
2026-01-18 22:45:25.94	64.01	30.59	-46.6	-50.6	13.3	3.81e-05	0	39	0	429916160	64	5837
2026-01-18 22:45:27.21	64.40	30.72	-46.4	-50.4	13.5	1.37e-05	0	39	0	432013312	64	5696
2026-01-18 22:45:27.94	64.62	30.79	-46.3	-50.1	13.8	6.80e-06	0	39	0	433061888	64	5515
2026-01-18 22:45:29.22	65.01	30.91	-46.1	-49.8	14.1	1.50e-06	0	39	0	435159040	64	5295
2026-01-18 22:45:29.93	65.23	30.98	-46.0	-49.6	14.4	1.50e-06	0	39	0	437256192	63	5527
2026-01-18 22:45:31.20	65.62	31.10	-45.9	-49.4	14.6	0.00e+00	0	39	0	439353344	63	5396
2026-01-18 22:45:32.01	65.87	31.18	-45.8	-49.3	14.7	0.00e+00	0	39	0	440401920	63	5340
2026-01-18 22:45:33.15	66.23	31.29	-45.9	-49.5	14.5	7.00e-07	0	39	0	443547648	63	5418
2026-01-18 22:45:34.21	66.56	31.39	-45.8	-49.3	14.8	0.00e+00	0	39	0	444596224	63	5286
2026-01-18 22:45:35.25	66.89	31.48	-45.7	-49.0	15.0	0.00e+00	0	39	0	446693376	63	5144
2026-01-18 22:45:36.40	67.26	31.59	-45.4	-48.7	15.3	7.00e-07	0	39	0	448790528	62	5247
2026-01-18 22:45:37.25	67.53	31.67	-45.4	-48.6	15.3	0.00e+00	0	39	0	450887680	62	5201
2026-01-18 22:45:38.60	67.97	31.79	-44.9	-47.9	16.0	0.00e+00	0	39	0	452984832	61	5100
2026-01-18 22:45:39.31	68.20	31.86	-44.7	-47.7	16.3	0.00e+00	0	39	0	455081984	61	4936
2026-01-18 22:45:40.59	68.61	31.97	-44.4	-47.2	16.7	0.00e+00	0	39	0	457179136	60	4979
2026-01-18 22:45:41.31	68.85	32.04	-44.5	-47.4	16.6	0.00e+00	0	39	0	458227712	60	5052
2026-01-18 22:45:42.59	69.27	32.15	-44.4	-47.2	16.8	0.00e+00	0	39	0	460324864	60	4935
2026-01-18 22:45:43.32	69.51	32.21	-44.4	-47.3	16.7	0.00e+00	0	39	0	462422016	60	5016
2026-01-18 22:45:44.60	69.94	32.32	-44.5	-47.3	16.6	0.00e+00	0	39	0	464519168	60	5018
2026-01-18 22:45:45.33	70.18	32.39	-44.5	-47.4	16.6	0.00e+00	0	39	0	465567744	60	5053
2026-01-18 22:45:46.61	70.61	32.49	-44.5	-47.4	16.6	0.00e+00	0	39	0	468713472	60	5069
2026-01-18 22:45:47.49	70.91	32.57	-44.5	-47.4	16.6	0.00e+00	0	39	0	469762048	60	5049
2026-01-18 22:45:48.63	71.30	32.66	-44.4	-47.3	16.7	0.00e+00	0	39	0	471859200	60	5002
2026-01-18 22:45:49.48	71.59	32.73	-44.5	-47.3	16.7	0.00e+00	0	39	0	473956352	60	5018
2026-01-18 22:45:50.62	71.98	32.83	-44.3	-47.1	16.9	0.00e+00	0	39	0	476053504	60	4876
2026-01-18 22:45:51.48	72.28	32.90	-44.1	-46.9	17.1	0.00e+00	0	39	0	477102080	60	4766
2026-01-18 22:45:52.61	72.67	32.99	-44.0	-46.7	17.2	0.00e+00	0	39	0	479199232	60	4699
2026-01-18 22:45:53.81	73.09	33.08	-44.0	-46.7	17.2	0.00e+00	0	39	0	481296384	60	4702
2026-01-18 22:45:54.84	73.45	33.16	-44.1	-46.8	17.1	0.00e+00	0	39	0	483393536	60	4756
2026-01-18 22:45:55.84	73.81	33.24	-44.1	-46.8	17.2	0.00e+00	0	39	0	485490688	60	4744
2026-01-18 22:45:56.83	74.16	33.31	-44.1	-46.8	17.2	0.00e+00	0	39	0	487587840	60	4731
2026-01-18 22:45:57.82	74.51	33.39	-44.3	-47.2	16.8	0.00e+00	0	39	0	489684992	60	4944
2026-01-18 22:45:58.82	74.87	33.46	-44.5	-47.4	16.6	0.00e+00	0	39	0	491782144	60	5100
2026-01-18 22:45:59.82	75.23	33.53	-44.8	-47.8	16.2	0.00e+00	0	39	0	492830720	60	5305
2026-01-18 22:46:00.81	75.58	33.60	-44.9	-48.0	16.0	0.00e+00	0	39	0	494927872	60	5425
2026-01-18 22:46:01.80	75.94	33.67	-45.1	-48.3	15.8	0.00e+00	0	39	0	497025024	60	5617
2026-01-18 22:46:02.79	76.30	33.74	-45.3	-48.5	15.5	0.00e+00	0	39	0	499122176	61	5454
2026-01-18 22:46:03.79	76.67	33.81	-45.5	-48.9	15.1	0.00e+00	0	39	0	500170752	61	5690
2026-01-18 22:46:04.78	77.03	33.87	-45.7	-49.2	14.8	0.00e+00	0	39	0	502267904	62	5556
2026-01-18 22:46:05.78	77.40	33.94	-46.0	-49.6	14.5	2.20e-06	0	39	0	504365056	62	5803
2026-01-18 22:46:06.85	77.79	34.01	-46.1	-49.7	14.3	0.00e+00	0	39	0	506462208	62	5887
2026-01-18 22:46:07.73	78.12	34.07	-46.1	-49.8	14.2	7.00e-07	0	39	0	507510784	63	5618
2026-01-18 22:46:08.87	78.55	34.14	-46.0	-49.7	14.3	2.20e-06	0	39	0	509607936	63	5541
2026-01-18 22:46:09.72	78.86	34.19	-46.1	-49.8	14.2	0.00e+00	0	39	0	511705088	63	5648
2026-01-18 22:46:10.86	79.29	34.26	-45.9	-49.5	14.5	7.00e-07	0	39	0	513802240	63	5434
2026-01-18 22:46:11.71	79.61	34.31	-45.6	-48.9	15.1	0.00e+00	0	39	0	514850816	63	5098
2026-01-18 22:46:12.85	80.04	34.37	-45.4	-48.7	15.3	0.00e+00	0	39	0	517996544	62	5260
2026-01-18 22:46:13.70	80.36	34.42	-45.5	-48.9	15.2	0.00e+00	0	39	0	519045120	62	5349
2026-01-18 22:46:14.84	80.80	34.48	-45.5	-48.9	15.2	7.00e-07	0	39	0	521142272	62	5376
2026-01-18 22:46:15.69	81.12	34.53	-45.4	-48.8	15.2	0.00e+00	0	39	0	523239424	62	5326
2026-01-18 22:46:16.83	81.56	34.59	-45.2	-48.5	15.5	0.00e+00	0	39	0	525336576	62	5140
2026-01-18 22:46:17.69	81.89	34.63	-45.1	-48.4	15.6	0.00e+00	0	39	0	526385152	62	5081
2026-01-18 22:46:18.82	82.33	34.69	-44.9	-48.0	16.0	0.00e+00	0	39	0	528482304	61	5156
2026-01-18 22:46:19.67	82.65	34.73	-44.5	-47.6	16.4	0.00e+00	0	39	0	530579456	61	4889
2026-01-18 22:46:20.81	83.10	34.78	-44.3	-47.3	16.7	0.00e+00	0	39	0	532676608	60	5012
2026-01-18 22:46:21.67	83.43	34.82	-44.2	-47.2	16.8	0.00e+00	0	39	0	533725184	60	4944
2026-01-18 22:46:22.80	83.87	34.87	-44.1	-46.9	17.1	0.00e+00	0	39	0	535822336	60	4793
2026-01-18 22:46:23.65	84.20	34.91	-44.2	-47.2	16.8	0.00e+00	0	39	0	537919488	60	4936
2026-01-18 22:46:24.79	84.65	34.96	-44.6	-47.6	16.3	0.00e+00	0	39	0	540016640	60	5216
2026-01-18 22:46:25.64	84.99	34.99	-44.9	-48.0	16.0	0.00e+00	0	39	0	541065216	60	5438
2026-01-18 22:46:27.08	85.55	35.04	-44.9	-48.2	15.9	0.00e+00	0	39	0	544210944	60	5532
2026-01-18 22:46:27.79	85.83	35.07	-44.9	-48.2	15.9	0.00e+00	0	39	0	545259520	60	5543
2026-01-18 22:46:29.27	86.42	35.12	-44.8	-48.0	16.0	0.00e+00	0	39	0	548405248	60	5442
2026-01-18 22:46:29.98	86.70	35.15	-45.0	-48.2	15.8	0.00e+00	0	39	0	549453824	60	5559
2026-01-18 22:46:31.26	87.21	35.19	-45.2	-48.5	15.5	0.00e+00	0	39	0	551550976	60	5764
2026-01-18 22:46:31.98	87.50	35.21	-45.2	-48.6	15.4	0.00e+00	0	39	0	553648128	61	5485
2026-01-18 22:46:33.27	88.01	35.25	-45.3	-48.6	15.4	0.00e+00	0	39	0	555745280	61	5520
2026-01-18 22:46:34.00	88.30	35.27	-45.2	-48.5	15.5	0.00e+00	0	39	0	556793856	61	5446
2026-01-18 22:46:35.28	88.82	35.30	-45.0	-48.3	15.8	0.00e+00	0	39	0	559939584	61	5293
2026-01-18 22:46:35.99	89.10	35.32	-45.0	-48.2	15.8	0.00e+00	0	39	0	560988160	61	5264
2026-01-18 22:46:37.27	89.62	35.35	-45.2	-48.5	15.5	0.00e+00	0	39	0	563085312	61	5422
2026-01-18 22:46:37.98	89.90	35.36	-45.4	-48.7	15.3	0.00e+00	0	39	0	565182464	61	5592
2026-01-18 22:46:39.26	90.42	35.39	-45.8	-49.4	14.7	0.00e+00	0	39	0	567279616	62	5677
2026-01-18 22:46:39.97	90.70	35.40	-46.0	-49.6	14.4	0.00e+00	0	39	0	568328192	62	5801
2026-01-18 22:46:41.25	91.22	35.42	-45.9	-49.4	14.6	1.50e-06	0	39	0	570425344	62	5709
2026-01-18 22:46:41.96	91.51	35.44	-45.6	-49.1	14.9	0.00e+00	0	39	0	572522496	62	5467
2026-01-18 22:46:43.24	92.03	35.45	-45.3	-48.6	15.5	0.00e+00	0	39	0	574619648	62	5174
2026-01-18 22:46:44.11	92.38	35.46	-45.1	-48.3	15.7	0.00e+00	0	39	0	575668224	62	4993
2026-01-18 22:46:45.25	92.84	35.48	-44.9	-48.0	16.0	0.00e+00	0	39	0	577765376	61	5129
2026-01-18 22:46:46.10	93.18	35.48	-44.7	-47.7	16.3	0.00e+00	0	39	0	579862528	61	4951
2026-01-18 22:46:47.23	93.64	35.49	-44.5	-47.4	16.6	0.00e+00	0	39	0	581959680	61	4793
2026-01-18 22:46:48.09	93.99	35.50	-44.5	-47.4	16.6	0.00e+00	0	39	0	584056832	61	4805
2026-01-18 22:46:49.22	94.45	35.50	-44.7	-47.7	16.3	0.00e+00	0	39	0	586153984	61	4941
2026-01-18 22:46:50.08	94.80	35.50	-44.7	-47.7	16.3	0.00e+00	0	39	0	587202560	61	4947
2026-01-18 22:46:51.22	95.26	35.51	-44.6	-47.6	16.4	0.00e+00	0	39	0	589299712	61	4897
2026-01-18 22:46:52.07	95.61	35.51	-44.6	-47.6	16.5	0.00e+00	0	39	0	591396864	61	4872
2026-01-18 22:46:53.21	96.07	35.50	-44.2	-47.0	16.9	0.00e+00	0	39	0	593494016	60	4852
2026-01-18 22:46:54.06	96.42	35.50	-44.1	-46.8	17.2	0.00e+00	0	39	0	594542592	60	4750
2026-01-18 22:46:55.20	96.88	35.49	-44.0	-46.8	17.2	0.00e+00	0	39	0	596639744	60	4722
2026-01-18 22:46:56.05	97.22	35.49	-44.2	-47.0	17.0	0.00e+00	0	39	0	598736896	60	4847
2026-01-18 22:46:57.19	97.69	35.48	-44.8	-47.9	16.2	0.00e+00	0	39	0	600834048	60	5357
2026-01-18 22:46:58.04	98.03	35.47	-45.2	-48.4	15.6	0.00e+00	0	39	0	601882624	61	5381
2026-01-18 22:46:59.17	98.49	35.46	-45.2	-48.5	15.5	0.00e+00	0	39	0	603979776	61	5409
2026-01-18 22:47:00.03	98.84	35.45	-45.0	-48.2	15.8	0.00e+00	0	39	0	606076928	61	5230
2026-01-18 22:47:01.16	99.29	35.43	-44.4	-47.3	16.7	0.00e+00	0	39	0	608174080	60	4998
2026-01-18 22:47:02.01	99.64	35.42	-44.1	-46.8	17.2	0.00e+00	0	39	0	609222656	60	4748
2026-01-18 22:47:03.15	100.10	35.40	-43.9	-46.5	17.5	0.00e+00	0	39	0	611319808	59	4841
2026-01-18 22:47:04.00	100.44	35.38	-44.0	-46.7	17.3	0.00e+00	0	39	0	613416960	59	4930
2026-01-18 22:47:05.14	100.90	35.36	-44.5	-47.3	16.6	0.00e+00	0	40	0	615514112	59	5318
2026-01-18 22:47:05.99	101.24	35.34	-45.0	-48.1	15.9	0.00e+00	0	39	0	617611264	60	5517
2026-01-18 22:47:07.13	101.70	35.31	-45.5	-48.9	15.2	0.00e+00	0	40	0	619708416	61	5673
2026-01-18 22:47:07.99	102.05	35.29	-45.6	-49.1	14.8	0.00e+00	0	40	0	620756992	62	5515
2026-01-18 22:47:09.12	102.50	35.26	-46.0	-49.7	14.4	7.00e-07	0	39	0	622854144	62	5857
2026-01-18 22:47:10.01	102.85	35.23	-46.1	-49.9	14.2	0.00e+00	0	40	0	624951296	62	6015
2026-01-18 22:47:11.14	103.31	35.20	-46.5	-50.4	13.6	5.30e-06	0	39	0	627048448	63	6018
2026-01-18 22:47:11.99	103.64	35.17	-46.6	-50.7	13.2	2.13e-05	0	40	0	628097024	64	5905
2026-01-18 22:47:13.13	104.10	35.14	-46.5	-50.5	13.4	2.28e-05	0	39	0	630194176	64	5766
2026-01-18 22:47:13.99	104.44	35.11	-46.0	-49.6	14.3	6.80e-06	0	39	0	632291328	64	5185
2026-01-18 22:47:15.12	104.89	35.07	-45.4	-48.6	15.4	0.00e+00	0	39	0	634388480	62	5199
2026-01-18 22:47:15.98	105.23	35.03	-45.1	-48.2	15.8	0.00e+00	0	39	0	635437056	62	4959
2026-01-18 22:47:17.11	105.67	34.99	-45.1	-48.2	15.9	0.00e+00	0	39	0	637534208	62	4937
2026-01-18 22:47:17.97	106.01	34.96	-45.2	-48.4	15.7	0.00e+00	0	39	0	639631360	62	5042
2026-01-18 22:47:19.10	106.46	34.91	-45.1	-48.2	15.8	0.00e+00	0	39	0	641728512	62	4954
2026-01-18 22:47:19.95	106.79	34.87	-44.9	-48.0	16.1	0.00e+00	0	39	0	643825664	61	5105
2026-01-18 22:47:21.09	107.23	34.82	-44.7	-47.7	16.2	0.00e+00	0	39	0	645922816	61	4955
2026-01-18 22:47:21.94	107.56	34.78	-45.0	-48.0	16.1	0.00e+00	0	39	0	646971392	61	5149
2026-01-18 22:47:23.08	108.01	34.73	-45.4	-48.6	15.4	0.00e+00	0	39	0	649068544	61	5495
2026-01-18 22:47:24.36	108.50	34.67	-45.5	-48.8	15.2	0.00e+00	0	39	0	651165696	61	5648
2026-01-18 22:47:25.07	108.78	34.63	-45.7	-49.1	15.0	0.00e+00	0	39	0	653262848	62	5467
2026-01-18 22:47:26.35	109.27	34.57	-44.9	-47.9	16.1	0.00e+00	0	39	0	655360000	61	5094
2026-01-18 22:47:27.08	109.55	34.53	-44.6	-47.5	16.5	0.00e+00	0	39	0	656408576	61	4848
2026-01-18 22:47:28.36	110.04	34.46	-44.3	-47.2	16.8	0.00e+00	0	39	0	659554304	60	4930
2026-01-18 22:47:29.08	110.31	34.42	-44.4	-47.2	16.7	0.00e+00	0	40	0	660602880	60	4967
2026-01-18 22:47:30.36	110.80	34.35	-44.9	-47.9	16.1	0.00e+00	0	39	0	662700032	60	5379
2026-01-18 22:47:31.09	111.08	34.30	-45.0	-48.1	15.9	0.00e+00	0	39	0	663748608	60	5502
2026-01-18 22:47:32.59	111.64	34.21	-44.8	-47.7	16.3	0.00e+00	0	39	0	666894336	60	5272
2026-01-18 22:47:33.30	111.91	34.17	-44.5	-47.4	16.6	0.00e+00	0	39	0	667942912	60	5054
2026-01-18 22:47:34.67	112.42	34.09	-44.1	-46.8	17.2	0.00e+00	0	39	0	671088640	60	4735
2026-01-18 22:47:35.38	112.69	34.04	-43.9	-46.6	17.3	0.00e+00	0	40	0	672137216	59	4913
2026-01-18 22:47:36.72	113.18	33.96	-43.8	-46.5	17.4	0.00e+00	0	39	0	675282944	59	4839
2026-01-18 22:47:37.43	113.45	33.91	-43.9	-46.6	17.3	0.00e+00	0	39	0	676331520	59	4894
2026-01-18 22:47:38.72	113.92	33.82	-43.9	-46.6	17.4	0.00e+00	0	39	0	678428672	59	4892
2026-01-18 22:47:39.43	114.18	33.77	-43.9	-46.6	17.4	0.00e+00	0	39	0	679477248	59	4889
2026-01-18 22:47:40.71	114.65	33.69	-44.3	-47.1	16.9	0.00e+00	0	39	0	682622976	59	5168
2026-01-18 22:47:41.43	114.91	33.64	-44.4	-47.3	16.7	0.00e+00	0	39	0	683671552	59	5296
2026-01-18 22:47:42.71	115.37	33.54	-44.8	-47.8	16.2	0.00e+00	0	39	0	685768704	60	5324
2026-01-18 22:47:43.42	115.63	33.49	-44.9	-48.1	15.9	0.00e+00	0	39	0	687865856	60	5480
2026-01-18 22:47:44.70	116.09	33.40	-44.7	-47.7	16.3	0.00e+00	0	39	0	689963008	60	5262
2026-01-18 22:47:45.41	116.34	33.35	-44.5	-47.4	16.6	0.00e+00	0	39	0	691011584	60	5087
2026-01-18 22:47:46.69	116.80	33.25	-44.4	-47.3	16.6	0.00e+00	0	40	0	693108736	60	5040
2026-01-18 22:47:47.45	117.07	33.19	-44.6	-47.5	16.5	0.00e+00	0	39	0	695205888	60	5143
2026-01-18 22:47:48.71	117.51	33.09	-44.6	-47.6	16.4	0.00e+00	0	39	0	697303040	60	5173
2026-01-18 22:47:49.56	117.81	33.03	-44.6	-47.6	16.4	0.00e+00	0	40	0	699400192	60	5197
2026-01-18 22:47:50.70	118.21	32.94	-44.4	-47.2	16.8	0.00e+00	0	39	0	701497344	60	4954
2026-01-18 22:47:51.63	118.53	32.86	-44.1	-46.9	17.1	0.00e+00	0	39	0	702545920	60	4765
2026-01-18 22:47:52.63	118.88	32.78	-44.3	-47.1	17.0	0.00e+00	0	39	0	704643072	60	4879
2026-01-18 22:47:53.83	119.29	32.68	-44.7	-47.7	16.3	0.00e+00	0	39	0	706740224	60	5252
2026-01-18 22:47:54.70	119.59	32.61	-45.0	-48.1	15.9	0.00e+00	0	39	0	708837376	60	5523
2026-01-18 22:47:55.99	120.03	32.50	-45.0	-48.1	15.8	0.00e+00	0	40	0	710934528	60	5513
2026-01-18 22:47:56.71	120.27	32.44	-45.0	-48.1	15.9	0.00e+00	0	39	0	711983104	60	5485
2026-01-18 22:47:58.16	120.76	32.31	-44.8	-47.9	16.1	0.00e+00	0	39	0	715128832	60	5384
2026-01-18 22:47:59.14	121.09	32.23	-45.1	-48.3	15.7	0.00e+00	0	40	0	717225984	60	5630
2026-01-18 22:48:00.45	121.52	32.11	-45.8	-49.5	14.5	0.00e+00	0	39	0	719323136	62	5740
2026-01-18 22:48:01.16	121.76	32.05	-46.1	-50.1	13.9	1.50e-06	0	39	0	720371712	62	6134
2026-01-18 22:48:02.44	122.18	31.94	-46.1	-49.9	14.0	7.60e-06	0	39	0	723517440	63	5702
2026-01-18 22:48:03.15	122.41	31.87	-45.7	-49.2	14.8	0.00e+00	0	39	0	724566016	63	5268
2026-01-18 22:48:04.43	122.83	31.76	-45.2	-48.4	15.6	0.00e+00	0	39	0	726663168	62	5063
2026-01-18 22:48:05.15	123.06	31.69	-45.2	-48.3	15.7	0.00e+00	0	39	0	727711744	62	5017
2026-01-18 22:48:06.43	123.47	31.57	-45.3	-48.4	15.6	0.00e+00	0	39	0	730857472	62	5092
2026-01-18 22:48:07.16	123.70	31.50	-45.7	-49.2	14.9	0.00e+00	0	40	0	731906048	62	5550
2026-01-18 22:48:08.44	124.11	31.38	-46.0	-49.6	14.4	0.00e+00	0	40	0	734003200	62	5845
2026-01-18 22:48:09.15	124.34	31.32	-45.4	-48.7	15.2	7.00e-07	0	39	0	736100352	62	5272
2026-01-18 22:48:10.43	124.74	31.20	-44.4	-47.2	16.8	0.00e+00	0	39	0	738197504	60	4949
2026-01-18 22:48:11.14	124.96	31.13	-44.0	-46.7	17.3	0.00e+00	0	39	0	739246080	60	4652
2026-01-18 22:48:12.42	125.36	31.00	-44.2	-46.9	17.0	0.00e+00	0	40	0	741343232	59	5055
2026-01-18 22:48:13.16	125.59	30.93	-44.6	-47.5	16.4	0.00e+00	0	39	0	743440384	59	5447
2026-01-18 22:48:14.44	125.98	30.81	-45.3	-48.6	15.5	0.00e+00	0	39	0	745537536	61	5471
2026-01-18 22:48:15.16	126.20	30.74	-45.6	-48.9	15.1	0.00e+00	0	39	0	746586112	61	5714
2026-01-18 22:48:16.44	126.59	30.61	-45.2	-48.4	15.5	0.00e+00	0	39	0	749731840	61	5393
2026-01-18 22:48:17.15	126.80	30.54	-45.0	-48.1	15.9	0.00e+00	0	39	0	750780416	61	5214
2026-01-18 22:48:18.43	127.19	30.41	-44.9	-48.0	16.0	0.00e+00	0	39	0	752877568	61	5125
2026-01-18 22:48:19.20	127.42	30.34	-45.3	-48.5	15.5	0.00e+00	0	39	0	754974720	61	5445
2026-01-18 22:48:20.48	127.80	30.21	-46.2	-50.0	14.0	2.20e-06	0	39	0	757071872	62	6113
2026-01-18 22:48:21.20	128.01	30.14	-46.3	-50.2	13.8	5.30e-06	0	39	0	758120448	63	5891
2026-01-18 22:48:22.82	128.48	29.97	-45.1	-48.4	15.6	0.00e+00	0	39	0	761266176	62	5065
2026-01-18 22:48:23.39	128.65	29.91	-44.5	-47.5	16.4	0.00e+00	0	39	0	762314752	61	4862
2026-01-18 22:48:25.09	129.14	29.74	-44.1	-46.8	17.1	0.00e+00	0	40	0	765460480	60	4739
2026-01-18 22:48:25.66	129.30	29.68	-44.1	-46.8	17.1	0.00e+00	0	39	0	766509056	60	4752
2026-01-18 22:48:27.37	129.79	29.50	-45.1	-48.3	15.8	0.00e+00	0	39	0	769654784	60	5600
2026-01-18 22:48:27.93	129.95	29.45	-45.2	-48.5	15.5	0.00e+00	0	40	0	770703360	61	5442
2026-01-18 22:48:29.64	130.42	29.27	-44.6	-47.7	16.3	0.00e+00	0	40	0	773849088	61	4956
2026-01-18 22:48:30.31	130.61	29.20	-44.1	-47.0	16.9	0.00e+00	0	39	0	774897664	60	4836
2026-01-18 22:48:31.73	131.00	29.05	-44.0	-46.8	17.1	0.00e+00	0	40	0	778043392	59	5005
2026-01-18 22:48:32.51	131.22	28.97	-44.4	-47.3	16.6	0.00e+00	0	40	0	779091968	59	5317
2026-01-18 22:48:33.79	131.57	28.83	-45.4	-48.9	15.1	0.00e+00	0	40	0	782237696	61	5658
2026-01-18 22:48:34.50	131.76	28.76	-46.0	-49.8	14.2	0.00e+00	0	40	0	783286272	62	5960
2026-01-18 22:48:35.78	132.10	28.62	-46.0	-49.8	14.2	3.80e-06	0	39	0	785383424	63	5599
2026-01-18 22:48:36.60	132.32	28.53	-45.3	-48.6	15.3	0.00e+00	0	40	0	787480576	62	5203
2026-01-18 22:48:38.06	132.71	28.38	-44.2	-46.9	17.0	0.00e+00	0	40	0	789577728	60	4789
2026-01-18 22:48:38.78	132.90	28.30	-44.0	-46.7	17.2	0.00e+00	0	40	0	791674880	60	4675
2026-01-18 22:48:40.06	133.23	28.16	-44.3	-47.0	16.9	0.00e+00	0	39	0	793772032	59	5157
2026-01-18 22:48:40.81	133.43	28.08	-44.8	-47.8	16.2	0.00e+00	0	39	0	794820608	60	5333
2026-01-18 22:48:42.09	133.76	27.94	-45.2	-48.4	15.5	0.00e+00	0	40	0	796917760	61	5383
2026-01-18 22:48:42.80	133.94	27.87	-44.8	-47.9	16.0	0.00e+00	0	39	0	799014912	61	5074
2026-01-18 22:48:44.08	134.27	27.73	-44.0	-46.7	17.2	0.00e+00	0	39	0	801112064	60	4690
2026-01-18 22:48:44.81	134.45	27.65	-43.6	-46.2	17.6	0.00e+00	0	39	0	802160640	59	4691
2026-01-18 22:48:46.08	134.77	27.51	-43.3	-45.8	18.1	0.00e+00	0	39	0	805306368	58	4740
2026-01-18 22:48:46.81	134.95	27.43	-43.4	-45.9	17.9	0.00e+00	0	39	0	806354944	58	4805
2026-01-18 22:48:48.09	135.27	27.30	-44.3	-47.1	16.8	0.00e+00	0	40	0	808452096	59	5173
2026-01-18 22:48:48.80	135.45	27.22	-44.8	-47.8	16.2	0.00e+00	0	40	0	809500672	60	5310
2026-01-18 22:48:50.12	135.77	27.07	-44.6	-47.6	16.4	0.00e+00	0	39	0	812646400	60	5172
2026-01-18 22:48:50.84	135.95	27.00	-44.1	-46.9	17.1	0.00e+00	0	40	0	813694976	60	4766
2026-01-18 22:48:52.16	136.26	26.85	-43.0	-45.4	18.5	0.00e+00	0	40	0	815792128	58	4499
2026-01-18 22:48:52.87	136.43	26.77	-42.9	-45.2	18.6	0.00e+00	0	40	0	817889280	57	4694
2026-01-18 22:48:54.15	136.74	26.63	-42.9	-45.3	18.5	0.00e+00	0	39	0	819986432	57	4729
2026-01-18 22:48:54.86	136.91	26.56	-43.1	-45.6	18.2	0.00e+00	0	39	0	821035008	57	4883
2026-01-18 22:48:56.25	137.23	26.41	-43.8	-46.5	17.3	0.00e+00	0	40	0	824180736	58	5139
2026-01-18 22:48:56.96	137.40	26.33	-43.8	-46.5	17.4	0.00e+00	0	40	0	825229312	58	5134
2026-01-18 22:48:58.26	137.70	26.19	-43.6	-46.2	17.7	0.00e+00	0	39	0	827326464	58	4958
2026-01-18 22:48:58.97	137.86	26.11	-43.3	-45.9	18.0	0.00e+00	0	40	0	829423616	58	4772
2026-01-18 22:49:00.26	138.16	25.97	-42.9	-45.3	18.5	0.00e+00	0	40	0	831520768	57	4741
2026-01-18 22:49:00.97	138.32	25.89	-42.7	-45.0	18.7	0.00e+00	0	40	0	832569344	57	4597
2026-01-18 22:49:02.25	138.61	25.75	-42.3	-44.6	19.2	0.00e+00	0	40	0	834666496	56	4626
2026-01-18 22:49:02.96	138.77	25.67	-42.4	-44.7	19.1	0.00e+00	0	39	0	836763648	56	4682
2026-01-18 22:49:04.24	139.05	25.53	-42.6	-45.0	18.8	0.00e+00	0	40	0	838860800	56	4845
2026-01-18 22:49:04.95	139.21	25.45	-42.8	-45.2	18.6	0.00e+00	0	40	0	839909376	56	4970
2026-01-18 22:49:06.23	139.49	25.31	-42.7	-45.1	18.7	0.00e+00	0	40	0	843055104	56	4915
2026-01-18 22:49:06.94	139.65	25.23	-42.6	-45.0	18.8	0.00e+00	0	39	0	844103680	56	4823
2026-01-18 22:49:08.22	139.92	25.09	-41.8	-44.0	19.6	0.00e+00	0	39	0	846200832	55	4565
2026-01-18 22:49:09.03	140.10	25.00	-41.5	-43.7	19.9	0.00e+00	0	40	0	848297984	55	4407
2026-01-18 22:49:10.16	140.34	24.88	-41.6	-43.8	19.7	0.00e+00	0	40	0	850395136	55	4491
2026-01-18 22:49:11.01	140.52	24.79	-41.5	-43.7	19.9	0.00e+00	0	40	0	851443712	55	4395
2026-01-18 22:49:12.15	140.76	24.66	-41.6	-43.8	19.8	0.00e+00	0	40	0	853540864	54	4743
2026-01-18 22:49:13.26	140.99	24.54	-42.0	-44.2	19.4	0.00e+00	0	39	0	855638016	54	4967
2026-01-18 22:49:14.28	141.21	24.43	-42.1	-44.3	19.3	0.00e+00	0	40	0	857735168	54	5038
2026-01-18 22:49:15.44	141.44	24.30	-41.9	-44.2	19.4	0.00e+00	0	40	0	859832320	54	4945
2026-01-18 22:49:16.29	141.62	24.21	-41.6	-43.8	19.7	0.00e+00	0	40	0	861929472	54	4738
2026-01-18 22:49:17.43	141.85	24.09	-41.5	-43.6	19.9	0.00e+00	0	40	0	864026624	54	4641
2026-01-18 22:49:18.28	142.02	23.99	-41.2	-43.3	20.2	0.00e+00	0	40	0	865075200	54	4486
2026-01-18 22:49:19.42	142.25	23.87	-40.9	-43.0	20.4	0.00e+00	0	40	0	867172352	53	4592
2026-01-18 22:49:20.27	142.42	23.78	-40.9	-43.0	20.4	0.00e+00	0	40	0	869269504	53	4592
2026-01-18 22:49:21.40	142.65	23.65	-41.1	-43.3	20.3	0.00e+00	0	40	0	871366656	53	4710
2026-01-18 22:49:22.26	142.81	23.56	-41.3	-43.5	20.0	0.00e+00	0	40	0	872415232	53	4842
2026-01-18 22:49:23.39	143.04	23.44	-41.5	-43.7	19.8	0.00e+00	0	40	0	874512384	53	4967
2026-01-18 22:49:24.25	143.20	23.35	-41.6	-43.8	19.8	0.00e+00	0	40	0	876609536	53	5006
2026-01-18 22:49:25.38	143.42	23.22	-41.5	-43.6	19.9	0.00e+00	0	39	0	878706688	53	4926
2026-01-18 22:49:26.24	143.58	23.13	-41.3	-43.5	20.1	0.00e+00	0	40	0	879755264	53	4826
2026-01-18 22:49:27.50	143.82	22.99	-41.1	-43.2	20.2	0.00e+00	0	40	0	882900992	53	4700
2026-01-18 22:49:28.30	143.98	22.91	-41.1	-43.2	20.3	0.00e+00	0	40	0	883949568	53	4671
2026-01-18 22:49:29.44	144.19	22.79	-41.1	-43.2	20.3	0.00e+00	0	40	0	886046720	53	4655
2026-01-18 22:49:30.29	144.35	22.69	-41.2	-43.3	20.2	0.00e+00	0	40	0	888143872	53	4736
2026-01-18 22:49:31.43	144.56	22.57	-41.5	-43.7	19.8	0.00e+00	0	40	0	890241024	53	4956
2026-01-18 22:49:32.28	144.72	22.48	-41.7	-44.0	19.6	0.00e+00	0	39	0	891289600	54	4816
2026-01-18 22:49:33.63	144.96	22.34	-42.0	-44.3	19.3	0.00e+00	0	40	0	894435328	54	4986
2026-01-18 22:49:34.34	145.09	22.26	-42.1	-44.5	19.1	0.00e+00	0	40	0	895483904	54	5105
2026-01-18 22:49:35.62	145.32	22.12	-41.9	-44.2	19.4	0.00e+00	0	40	0	897581056	54	4946
2026-01-18 22:49:36.36	145.45	22.05	-41.8	-44.1	19.4	0.00e+00	0	40	0	899678208	54	4909
2026-01-18 22:49:37.63	145.68	21.91	-41.6	-43.9	19.6	0.00e+00	0	40	0	901775360	54	4780
2026-01-18 22:49:38.35	145.81	21.83	-41.4	-43.7	19.9	0.00e+00	0	40	0	902823936	54	4667
2026-01-18 22:49:39.63	146.03	21.70	-41.3	-43.5	20.0	0.00e+00	0	40	0	904921088	54	4563
2026-01-18 22:49:40.37	146.16	21.62	-41.2	-43.4	20.1	0.00e+00	0	40	0	907018240	54	4541
2026-01-18 22:49:41.65	146.38	21.48	-41.4	-43.6	19.8	0.00e+00	0	40	0	909115392	54	4644
2026-01-18 22:49:42.47	146.52	21.40	-41.6	-44.0	19.6	0.00e+00	0	39	0	910163968	54	4816
2026-01-18 22:49:43.61	146.72	21.28	-41.7	-44.0	19.5	0.00e+00	0	40	0	912261120	54	4851
2026-01-18 22:49:44.46	146.86	21.19	-41.8	-44.1	19.4	0.00e+00	0	40	0	914358272	54	4924
2026-01-18 22:49:45.60	147.05	21.07	-41.8	-44.0	19.5	0.00e+00	0	40	0	916455424	54	4869
2026-01-18 22:49:46.45	147.19	20.98	-41.6	-43.9	19.7	0.00e+00	0	39	0	918552576	54	4785
2026-01-18 22:49:47.59	147.38	20.86	-41.7	-43.9	19.6	0.00e+00	0	40	0	920649728	54	4802
2026-01-18 22:49:48.44	147.52	20.77	-41.6	-43.9	19.7	0.00e+00	0	40	0	921698304	54	4762
2026-01-18 22:49:49.58	147.71	20.65	-41.6	-43.8	19.7	0.00e+00	0	40	0	923795456	54	4749
2026-01-18 22:49:50.43	147.85	20.56	-41.8	-44.1	19.5	0.00e+00	0	40	0	925892608	54	4871
2026-01-18 22:49:51.57	148.03	20.45	-42.0	-44.2	19.3	0.00e+00	0	40	0	927989760	54	4973
2026-01-18 22:49:52.42	148.17	20.36	-42.2	-44.5	19.1	0.00e+00	0	40	0	929038336	54	5110
2026-01-18 22:49:53.56	148.35	20.24	-42.4	-44.8	18.8	0.00e+00	0	39	0	931135488	55	4988
2026-01-18 22:49:54.41	148.49	20.15	-42.3	-44.7	18.7	0.00e+00	0	40	0	933232640	55	4933
2026-01-18 22:49:55.55	148.67	20.04	-42.5	-44.9	18.7	0.00e+00	0	40	0	935329792	55	5042
2026-01-18 22:49:56.40	148.80	19.95	-42.2	-44.5	19.0	0.00e+00	0	40	0	936378368	55	4854
2026-01-18 22:49:57.54	148.98	19.83	-42.1	-44.4	19.2	0.00e+00	0	39	0	938475520	55	4794
2026-01-18 22:49:58.39	149.11	19.74	-42.1	-44.4	19.2	0.00e+00	0	40	0	940572672	55	4771
2026-01-18 22:49:59.53	149.29	19.63	-42.1	-44.3	19.2	0.00e+00	0	40	0	942669824	55	4741
2026-01-18 22:50:00.38	149.42	19.54	-42.1	-44.3	19.2	0.00e+00	0	40	0	943718400	55	4756
2026-01-18 22:50:01.52	149.59	19.43	-42.0	-44.3	19.2	0.00e+00	0	40	0	945815552	55	4748
2026-01-18 22:50:02.37	149.72	19.34	-42.3	-44.6	18.9	0.00e+00	0	40	0	947912704	55	4884
2026-01-18 22:50:03.51	149.89	19.22	-42.6	-45.0	18.5	0.00e+00	0	40	0	950009856	55	5153
2026-01-18 22:50:04.36	150.01	19.14	-43.0	-45.5	18.3	0.00e+00	0	40	0	952107008	56	5139
2026-01-18 22:50:05.50	150.18	19.02	-43.2	-45.8	18.0	0.00e+00	0	40	0	954204160	57	5001
2026-01-18 22:50:06.35	150.31	18.94	-43.4	-46.0	17.8	0.00e+00	0	40	0	955252736	57	5123
2026-01-18 22:50:07.48	150.47	18.82	-43.4	-45.9	17.8	0.00e+00	0	40	0	957349888	57	5095
2026-01-18 22:50:08.34	150.60	18.74	-43.3	-45.9	17.9	0.00e+00	0	40	0	959447040	57	5056
2026-01-18 22:50:09.47	150.76	18.63	-43.2	-45.7	18.0	0.00e+00	0	40	0	961544192	57	4955
2026-01-18 22:50:10.32	150.88	18.54	-43.1	-45.6	18.1	0.00e+00	0	40	0	962592768	57	4908
2026-01-18 22:50:11.46	151.05	18.43	-43.0	-45.4	18.3	0.00e+00	0	39	0	964689920	57	4801
2026-01-18 22:50:12.32	151.17	18.34	-43.0	-45.5	18.2	0.00e+00	0	40	0	966787072	57	4843
2026-01-18 22:50:13.45	151.33	18.23	-43.2	-45.7	18.0	0.00e+00	0	40	0	968884224	57	4980
2026-01-18 22:50:14.31	151.45	18.15	-43.5	-46.1	17.6	0.00e+00	0	40	0	969932800	57	5201
2026-01-18 22:50:15.45	151.60	18.03	-43.7	-46.4	17.3	0.00e+00	0	40	0	972029952	58	5099
2026-01-18 22:50:16.30	151.72	17.95	-43.9	-46.6	17.1	0.00e+00	0	40	0	974127104	58	5210
2026-01-18 22:50:17.44	151.88	17.84	-44.0	-46.8	16.6	0.00e+00	0	40	0	976224256	58	5302
2026-01-18 22:50:18.29	151.99	17.76	-44.0	-46.9	16.9	0.00e+00	0	40	0	977272832	58	5348
2026-01-18 22:50:19.43	152.15	17.64	-43.9	-46.7	17.0	0.00e+00	0	40	0	979369984	58	5241
2026-01-18 22:50:20.28	152.26	17.56	-43.9	-46.6	17.1	0.00e+00	0	40	0	981467136	58	5216
2026-01-18 22:50:21.49	152.42	17.44	-43.7	-46.4	17.3	0.00e+00	0	40	0	983564288	58	5084
2026-01-18 22:50:22.35	152.54	17.36	-43.6	-46.3	17.4	0.00e+00	0	40	0	985661440	58	5025
2026-01-18 22:50:23.48	152.69	17.25	-43.3	-45.8	17.9	0.00e+00	0	40	0	987758592	58	4751
2026-01-18 22:50:24.34	152.80	17.17	-43.0	-45.5	18.2	0.00e+00	0	40	0	988807168	58	4569
2026-01-18 22:50:25.47	152.95	17.06	-42.9	-45.4	18.3	0.00e+00	0	40	0	990904320	57	4797
2026-01-18 22:50:26.33	153.06	16.98	-43.0	-45.5	18.2	0.00e+00	0	40	0	993001472	57	4851
2026-01-18 22:50:27.46	153.21	16.87	-43.1	-45.7	18.0	0.00e+00	0	40	0	995098624	57	4941
2026-01-18 22:50:28.31	153.31	16.79	-43.2	-45.8	17.9	0.00e+00	0	40	0	996147200	57	4995
2026-01-18 22:50:29.45	153.46	16.68	-43.4	-46.1	17.6	0.00e+00	0	39	0	998244352	57	5176
2026-01-18 22:50:30.30	153.57	16.60	-43.5	-46.2	17.6	0.00e+00	0	40	0	1000341504	57	5223
2026-01-18 22:50:31.44	153.71	16.49	-43.6	-46.3	17.4	0.00e+00	0	40	0	1002438656	57	5297
2026-01-18 22:50:32.29	153.82	16.41	-43.6	-46.3	17.4	0.00e+00	0	39	0	1003487232	57	5310
2026-01-18 22:50:33.43	153.96	16.30	-43.6	-46.3	17.4	0.00e+00	0	40	0	1006632960	57	5300
2026-01-18 22:50:34.28	154.06	16.22	-43.6	-46.4	17.4	0.00e+00	0	39	0	1007681536	57	5341
2026-01-18 22:50:35.42	154.20	16.12	-43.5	-46.2	17.5	0.00e+00	0	40	0	1009778688	57	5219
2026-01-18 22:50:36.27	154.31	16.04	-43.3	-46.0	17.7	0.00e+00	0	40	0	1011875840	57	5118
2026-01-18 22:50:37.40	154.44	15.93	-43.3	-45.9	17.8	0.00e+00	0	40	0	1013972992	57	5070
2026-01-18 22:50:38.26	154.55	15.85	-43.1	-45.7	18.0	0.00e+00	0	40	0	1015021568	57	4940
2026-01-18 22:50:39.39	154.68	15.75	-43.0	-45.5	18.1	0.00e+00	0	40	0	1017118720	57	4859
2026-01-18 22:50:40.24	154.78	15.67	-43.0	-45.5	18.1	0.00e+00	0	40	0	1019215872	57	4867
2026-01-18 22:50:41.38	154.92	15.56	-42.9	-45.4	18.3	0.00e+00	0	40	0	1021313024	57	4780
2026-01-18 22:50:42.24	155.02	15.48	-43.0	-45.5	18.1	0.00e+00	0	40	0	1022361600	57	4867
2026-01-18 22:50:43.37	155.15	15.38	-43.0	-45.6	18.1	0.00e+00	0	40	0	1024458752	57	4875
2026-01-18 22:50:44.22	155.25	15.30	-43.1	-45.7	17.9	0.00e+00	0	39	0	1026555904	57	4970
2026-01-18 22:50:45.36	155.38	15.20	-43.3	-45.9	17.8	0.00e+00	0	40	0	1028653056	57	5073
2026-01-18 22:50:46.21	155.48	15.12	-43.2	-45.8	17.5	0.00e+00	0	40	0	1029701632	57	5024
2026-01-18 22:50:47.35	155.61	15.02	-43.3	-46.0	17.7	0.00e+00	0	40	0	1031798784	57	5104
2026-01-18 22:50:48.20	155.71	14.94	-43.5	-46.2	17.5	0.00e+00	0	40	0	1033895936	57	5243
2026-01-18 22:50:49.34	155.84	14.84	-43.5	-46.2	17.5	0.00e+00	0	40	0	1035993088	57	5228
2026-01-18 22:50:50.19	155.93	14.76	-43.6	-46.3	17.4	0.00e+00	0	40	0	1037041664	57	5318
2026-01-18 22:50:51.33	156.06	14.66	-43.4	-46.2	17.5	0.00e+00	0	40	0	1040187392	57	5225
2026-01-18 22:50:52.18	156.15	14.58	-43.5	-46.3	17.4	0.00e+00	0	40	0	1041235968	57	5284
2026-01-18 22:50:53.32	156.28	14.48	-43.4	-46.2	17.5	0.00e+00	0	40	0	1043333120	57	5231
2026-01-18 22:50:54.17	156.37	14.40	-43.5	-46.2	17.4	0.00e+00	0	40	0	1045430272	57	5253
2026-01-18 22:50:55.31	156.50	14.30	-43.4	-46.0	17.6	1.50e-06	0	39	0	1047527424	57	5156
2026-01-18 22:50:56.16	156.59	14.23	-43.3	-45.9	17.7	0.00e+00	0	40	0	1048576000	57	5091
2026-01-18 22:50:57.30	156.71	14.13	-43.1	-45.7	17.9	0.00e+00	0	40	0	1050673152	57	4951
2026-01-18 22:50:58.18	156.81	14.05	-43.2	-45.8	17.8	1.52e-05	0	40	0	1052770304	57	5014
2026-01-18 22:50:59.51	156.95	13.93	-43.3	-45.8	17.8	0.00e+00	0	39	0	1054867456	57	5031
2026-01-18 22:51:00.22	157.02	13.87	-43.2	-45.7	17.9	0.00e+00	0	40	0	1055916032	57	4965
2026-01-18 22:51:01.50	157.16	13.76	-43.2	-45.8	17.8	0.00e+00	0	40	0	1059061760	57	5001
2026-01-18 22:51:02.22	157.24	13.69	-43.3	-45.9	17.8	0.00e+00	0	39	0	1060110336	57	5050
2026-01-18 22:51:03.50	157.37	13.58	-43.5	-46.1	17.4	0.00e+00	0	40	0	1062207488	57	5202
2026-01-18 22:51:04.22	157.44	13.52	-43.4	-46.0	17.6	0.00e+00	0	40	0	1064304640	57	5154
2026-01-18 22:51:05.49	157.57	13.41	-43.6	-46.2	17.4	0.00e+00	0	40	0	1066401792	57	5257
2026-01-18 22:51:06.20	157.65	13.35	-43.6	-46.3	17.3	0.00e+00	0	40	0	1067450368	57	5292
2026-01-18 22:51:07.49	157.78	13.24	-43.7	-46.4	17.2	0.00e+00	0	40	0	1069547520	58	5094
2026-01-18 22:51:08.20	157.85	13.18	-43.7	-46.4	17.2	0.00e+00	0	40	0	1071644672	58	5072
2026-01-18 22:51:09.48	157.98	13.07	-43.9	-46.7	16.9	7.40e-03	0	40	0	1073741824	58	5251
2026-01-18 22:51:10.19	158.05	13.00	-43.9	-46.7	16.9	0.00e+00	0	40	0	1074790400	58	5242
2026-01-18 22:51:11.47	158.18	12.90	-43.9	-46.7	16.9	0.00e+00	0	40	0	1077936128	58	5231
2026-01-18 22:51:12.18	158.25	12.84	-43.8	-46.6	17.0	0.00e+00	0	40	0	1078984704	58	5178
2026-01-18 22:51:13.52	158.38	12.72	-43.7	-46.5	17.1	0.00e+00	0	40	0	1081081856	58	5111
2026-01-18 22:51:14.23	158.45	12.66	-43.8	-46.5	17.0	0.00e+00	0	40	0	1082130432	58	5153
2026-01-18 22:51:15.51	158.57	12.55	-43.7	-46.4	17.2	3.22e-03	0	40	0	1085276160	58	5065
2026-01-18 22:51:16.25	158.65	12.49	-43.8	-46.5	17.1	0.00e+00	0	40	0	1086324736	58	5117
2026-01-18 22:51:17.53	158.77	12.38	-43.8	-46.6	17.0	0.00e+00	0	40	0	1088421888	58	5183
2026-01-18 22:51:18.26	158.84	12.32	-43.8	-46.5	17.0	5.69e-03	0	40	0	1090519040	58	5158
2026-01-18 22:51:19.66	158.97	12.20	-43.6	-46.2	17.3	0.00e+00	0	40	0	1092616192	58	4983
2026-01-18 22:51:20.66	159.07	12.12	-43.5	-46.1	17.4	0.00e+00	0	40	0	1094713344	58	4920
2026-01-18 22:51:21.99	159.19	12.01	-43.6	-46.3	17.3	0.00e+00	0	40	0	1096810496	58	4987
2026-01-18 22:51:22.70	159.26	11.95	-43.6	-46.4	17.2	0.00e+00	0	40	0	1098907648	58	5051
2026-01-18 22:51:23.98	159.38	11.85	-43.6	-46.3	17.3	5.81e-04	0	40	0	1101004800	58	5009
2026-01-18 22:51:24.69	159.44	11.79	-43.6	-46.3	17.3	0.00e+00	0	40	0	1102053376	58	4993
2026-01-18 22:51:25.97	159.56	11.68	-43.6	-46.3	17.3	0.00e+00	0	40	0	1104150528	58	4993
2026-01-18 22:51:26.68	159.63	11.62	-43.6	-46.3	17.2	0.00e+00	0	40	0	1106247680	58	5038
2026-01-18 22:51:27.96	159.74	11.52	-43.6	-46.3	17.3	0.00e+00	0	40	0	1108344832	58	5022
2026-01-18 22:51:28.67	159.81	11.46	-43.7	-46.4	17.1	0.00e+00	0	40	0	1109393408	58	5082
2026-01-18 22:51:29.95	159.92	11.36	-43.7	-46.4	17.1	4.19e-05	0	40	0	1112539136	58	5090
2026-01-18 22:51:30.66	159.99	11.30	-43.8	-46.5	17.0	0.00e+00	0	40	0	1113587712	58	5149
2026-01-18 22:51:32.05	160.11	11.19	-43.9	-46.7	16.8	0.00e+00	0	40	0	1115684864	58	5274
2026-01-18 22:51:32.76	160.17	11.13	-43.8	-46.6	16.9	0.00e+00	0	40	0	1117782016	58	5206
2026-01-18 22:51:34.05	160.29	11.03	-43.9	-46.8	16.7	0.00e+00	0	40	0	1119879168	58	5314
2026-01-18 22:51:34.80	160.35	10.97	-44.0	-46.8	16.7	0.00e+00	0	40	0	1120927744	58	5340
2026-01-18 22:51:36.21	160.47	10.85	-44.0	-46.9	16.7	0.00e+00	0	40	0	1124073472	58	5362
2026-01-18 22:51:36.92	160.54	10.80	-43.9	-46.8	16.8	0.00e+00	0	40	0	1125122048	58	5284
2026-01-18 22:51:38.26	160.65	10.69	-44.1	-46.9	16.6	0.00e+00	0	40	0	1127219200	58	5396
2026-01-18 22:51:38.97	160.71	10.63	-44.1	-47.0	16.6	0.00e+00	0	40	0	1129316352	58	5423
2026-01-18 22:51:40.25	160.82	10.53	-44.2	-47.1	16.4	0.00e+00	0	40	0	1131413504	59	5186
2026-01-18 22:51:40.99	160.88	10.47	-44.4	-47.4	16.1	0.00e+00	0	40	0	1132462080	59	5381
2026-01-18 22:51:42.27	160.99	10.37	-44.4	-47.5	16.0	0.00e+00	0	40	0	1135607808	59	5420
2026-01-18 22:51:42.99	161.05	10.32	-44.3	-47.3	16.2	0.00e+00	0	40	0	1136656384	59	5326
2026-01-18 22:51:44.27	161.16	10.22	-44.2	-47.2	16.3	0.00e+00	0	40	0	1138753536	59	5239
2026-01-18 22:51:44.99	161.22	10.16	-44.2	-47.2	16.3	0.00e+00	0	40	0	1139802112	59	5241
2026-01-18 22:51:46.27	161.33	10.06	-44.3	-47.3	16.2	0.00e+00	0	40	0	1142947840	59	5313
2026-01-18 22:51:47.00	161.39	10.00	-44.3	-47.3	16.2	0.00e+00	0	40	0	1143996416	59	5300
2026-01-18 22:51:48.28	161.49	9.90	-44.3	-47.4	16.1	0.00e+00	0	40	0	1146093568	59	5364
2026-01-18 22:51:48.99	161.55	9.85	-44.4	-47.4	16.0	0.00e+00	0	40	0	1148190720	59	5388
2026-01-18 22:51:50.27	161.65	9.75	-44.4	-47.5	16.0	0.00e+00	0	40	0	1150287872	59	5414
2026-01-18 22:51:51.10	161.72	9.68	-44.4	-47.4	16.1	0.00e+00	0	40	0	1151336448	59	5386
2026-01-18 22:51:52.24	161.81	9.60	-44.4	-47.6	16.0	0.00e+00	0	40	0	1153433600	59	5475
2026-01-18 22:51:53.09	161.88	9.53	-44.6	-47.7	15.7	0.00e+00	0	40	0	1155530752	59	5587
2026-01-18 22:51:54.23	161.97	9.44	-44.5	-47.6	15.9	0.00e+00	0	40	0	1157627904	59	5511
2026-01-18 22:51:55.09	162.04	9.38	-44.7	-47.9	15.6	0.00e+00	0	40	0	1159725056	60	5391
2026-01-18 22:51:56.23	162.13	9.29	-44.5	-47.7	15.8	0.00e+00	0	40	0	1161822208	60	5253
2026-01-18 22:51:57.08	162.19	9.23	-44.5	-47.6	15.8	0.00e+00	0	40	0	1162870784	60	5216
2026-01-18 22:51:58.22	162.28	9.14	-44.7	-48.0	15.5	7.75e-03	0	40	0	1164967936	60	5442
2026-01-18 22:51:59.07	162.35	9.08	-44.8	-48.1	15.4	0.00e+00	0	40	0	1167065088	60	5487
2026-01-18 22:52:00.21	162.44	8.99	-44.8	-48.2	15.3	0.00e+00	0	40	0	1169162240	60	5552
2026-01-18 22:52:01.06	162.50	8.93	-49.3	-63.4	3.8	1.12e-02	0	40	104	1170210816	69	19005
2026-01-18 22:52:02.19	162.59	8.84	-49.6	-64.9	3.8	1.49e+00	0	40	104	1170210816	69	22723
2026-01-18 22:52:03.07	162.65	8.78	-49.8	-65.1	3.8	1.49e+00	0	40	104	1170210816	70	21846
2026-01-18 22:52:04.21	162.74	8.69	-49.7	-65.2	3.8	1.49e+00	0	40	104	1170210816	70	22086
2026-01-18 22:52:05.12	162.81	8.62	-50.0	-65.3	3.8	1.49e+00	0	40	104	1170210816	70	22332
2026-01-18 22:52:06.12	162.88	8.55	-50.1	-65.3	3.8	1.49e+00	0	40	104	1170210816	70	22455
2026-01-18 22:52:07.31	162.97	8.46	-49.8	-65.4	3.8	1.49e+00	0	40	104	1170210816	70	22671
2026-01-18 22:52:08.20	163.04	8.39	-50.2	-65.4	3.8	1.49e+00	0	40	104	1170210816	70	22649
2026-01-18 22:52:09.51	163.13	8.30	-50.2	-65.4	3.8	1.49e+00	0	40	104	1170210816	71	21454
2026-01-18 22:52:10.22	163.19	8.25	-50.2	-65.5	3.8	1.49e+00	0	40	104	1170210816	71	21560
2026-01-18 22:52:11.71	163.30	8.14	-50.3	-65.5	3.8	1.49e+00	0	40	104	1170210816	71	21575
2026-01-18 22:52:12.42	163.35	8.08	-50.3	-65.5	3.8	1.49e+00	0	40	104	1170210816	71	21573
2026-01-18 22:52:13.76	163.44	7.99	-50.3	-65.5	3.8	1.49e+00	0	40	104	1170210816	71	21583
2026-01-18 22:52:14.47	163.49	7.94	-50.2	-65.5	3.8	1.49e+00	0	40	104	1170210816	71	21671
2026-01-18 22:52:15.80	163.59	7.84	-50.3	-65.5	3.8	1.49e+00	0	40	104	1170210816	71	21567
2026-01-18 22:52:16.51	163.64	7.79	-50.2	-65.5	3.8	1.49e+00	0	40	104	1170210816	71	21636
2026-01-18 22:52:17.79	163.73	7.69	-49.9	-65.5	3.8	1.49e+00	0	40	104	1170210816	71	21644
2026-01-18 22:52:18.50	163.78	7.64	-50.1	-65.5	3.8	1.49e+00	0	40	104	1170210816	71	21636
2026-01-18 22:52:19.77	163.87	7.55	-50.3	-65.5	3.8	1.49e+00	0	40	104	1170210816	71	21687
2026-01-18 22:52:20.51	163.92	7.50	-50.3	-65.5	3.8	1.49e+00	0	40	104	1170210816	71	21650
2026-01-18 22:52:21.79	164.01	7.41	-50.0	-65.5	3.8	1.49e+00	0	40	104	1170210816	71	21609
