passes_logs/2026/01/18/T1/T1__20260118_124845_FENGYUN_3D_rec.log

#Pass ID: 20260118_124845_FENGYUN 3D
#Satellite: FENGYUN 3D
#Configuration: FENGYUN 3D
#almurnet v.1.7.20251203
#Start time: 2026-01-18 12:48:47

#Version: 2.0.20230620
#Station: T1
#Location: 37.570604 lon 55.790049 lat
#TLE: 1 43010U 17072A   26017.61121112  .00000213  00000+0  12257-3 0  9991
#TLE: 2 43010  98.9934 349.4672 0002374 103.9362 256.2078 14.19696413423628

#Time	Az	El	Level	Level2	SNR	BER	BlckErr	Temp	State	Recorded	gain1	gain2
2026-01-18 12:48:47.25	186.71	5.09	-48.7	-61.6	3.8	8.47e-01	0	36	104	0	68	16459
2026-01-18 12:48:48.24	186.76	5.16	-48.7	-61.6	3.8	8.47e-01	0	37	104	0	68	16398
2026-01-18 12:48:49.28	186.81	5.23	-48.7	-61.5	3.8	8.47e-01	0	36	104	0	68	16266
2026-01-18 12:48:50.27	186.86	5.30	-48.7	-61.5	3.8	8.48e-01	0	37	104	0	68	16163
2026-01-18 12:48:51.26	186.91	5.37	-48.7	-61.3	3.8	8.46e-01	0	36	104	0	68	15923
2026-01-18 12:48:52.26	186.96	5.44	-48.7	-61.2	3.8	8.47e-01	0	37	104	0	68	15667
2026-01-18 12:48:53.25	187.01	5.51	-48.7	-61.1	3.8	8.47e-01	0	37	104	0	68	15498
2026-01-18 12:48:54.24	187.06	5.57	-48.7	-61.2	3.8	8.46e-01	0	37	104	0	68	15754
2026-01-18 12:48:55.24	187.11	5.64	-48.7	-61.1	3.8	8.47e-01	0	37	104	0	68	15547
2026-01-18 12:48:56.23	187.16	5.71	-48.7	-61.3	3.8	8.47e-01	0	37	104	0	68	15852
2026-01-18 12:48:57.22	187.21	5.78	-48.7	-61.4	3.8	8.46e-01	0	37	104	0	68	16004
2026-01-18 12:48:58.21	187.26	5.85	-48.7	-61.4	3.8	8.47e-01	0	37	104	0	68	16004
2026-01-18 12:48:59.21	187.31	5.92	-48.7	-61.4	3.8	8.48e-01	0	37	104	0	68	16079
2026-01-18 12:49:00.20	187.36	5.99	-48.7	-61.4	3.8	8.48e-01	0	37	104	0	68	15988
2026-01-18 12:49:01.19	187.41	6.06	-48.7	-61.4	3.8	8.47e-01	0	37	104	0	68	16049
2026-01-18 12:49:02.19	187.46	6.13	-48.7	-61.4	3.8	8.47e-01	0	37	104	0	68	16010
2026-01-18 12:49:03.18	187.51	6.20	-48.7	-61.3	3.8	8.47e-01	0	37	104	0	68	15933
2026-01-18 12:49:04.17	187.56	6.27	-48.7	-61.3	3.8	8.46e-01	0	37	104	0	68	15829
2026-01-18 12:49:05.17	187.62	6.35	-48.7	-61.3	3.8	8.47e-01	0	37	104	0	68	15780
2026-01-18 12:49:06.16	187.67	6.42	-48.7	-61.3	3.8	8.47e-01	0	37	104	0	68	15910
2026-01-18 12:49:07.15	187.72	6.49	-48.7	-61.4	3.8	8.47e-01	0	37	104	0	68	16054
2026-01-18 12:49:08.15	187.77	6.56	-48.7	-61.5	3.8	8.47e-01	0	37	104	0	68	16169
2026-01-18 12:49:09.14	187.83	6.63	-48.7	-61.6	3.8	8.47e-01	0	37	104	0	68	16360
2026-01-18 12:49:10.13	187.88	6.70	-48.7	-61.6	3.8	8.47e-01	0	37	104	0	68	16350
2026-01-18 12:49:11.12	187.93	6.77	-48.7	-61.4	3.8	8.47e-01	0	37	104	0	68	16032
2026-01-18 12:49:12.12	187.99	6.85	-48.6	-60.7	3.8	8.47e-01	0	37	104	0	68	14728
2026-01-18 12:49:13.11	188.04	6.92	-48.5	-60.1	3.8	8.46e-01	0	37	104	0	68	13797
2026-01-18 12:49:14.10	188.09	6.99	-48.5	-59.3	3.8	8.46e-01	0	37	104	0	68	12578
2026-01-18 12:49:15.10	188.15	7.06	-48.4	-58.6	4.1	8.44e-01	0	38	0	0	68	11574
2026-01-18 12:49:16.09	188.20	7.14	-48.4	-58.4	4.1	8.38e-01	0	38	0	0	68	11325
2026-01-18 12:49:17.08	188.26	7.21	-48.4	-58.6	4.1	8.41e-01	0	38	0	0	68	11616
2026-01-18 12:49:18.07	188.31	7.28	-48.5	-59.8	3.8	8.45e-01	0	38	104	0	68	13265
2026-01-18 12:49:19.07	188.37	7.36	-48.7	-61.0	3.8	8.46e-01	0	38	104	0	68	15327
2026-01-18 12:49:20.06	188.43	7.43	-48.7	-61.7	3.8	8.48e-01	0	38	104	0	68	16610
2026-01-18 12:49:21.05	188.48	7.50	-48.5	-59.7	3.8	8.47e-01	0	38	104	0	68	13157
2026-01-18 12:49:22.05	188.54	7.58	-47.8	-55.9	4.9	8.09e-01	0	38	0	0	67	9067
2026-01-18 12:49:23.04	188.59	7.65	-46.8	-52.5	7.7	1.63e-01	0	38	0	4194304	65	6807
2026-01-18 12:49:24.03	188.65	7.73	-45.4	-49.4	11.0	5.63e-03	0	38	0	9437184	62	5665
2026-01-18 12:49:25.02	188.71	7.80	-44.5	-48.0	12.3	4.89e-04	0	38	0	15728640	61	5143
2026-01-18 12:49:26.02	188.77	7.88	-43.0	-45.8	14.6	1.02e-05	0	38	0	20971520	58	4733
2026-01-18 12:49:27.01	188.82	7.95	-41.6	-44.0	16.1	0.00e+00	0	38	0	26214400	55	4593
2026-01-18 12:49:28.00	188.88	8.02	-40.5	-42.8	17.3	0.00e+00	0	38	0	31457280	53	4471
2026-01-18 12:49:29.00	188.94	8.10	-40.1	-42.3	17.7	0.00e+00	0	38	0	37748736	52	4477
2026-01-18 12:49:29.99	189.00	8.18	-39.5	-41.6	18.4	0.00e+00	0	38	0	42991616	51	4386
2026-01-18 12:49:30.98	189.06	8.25	-39.5	-41.6	18.5	0.00e+00	0	38	0	48234496	51	4346
2026-01-18 12:49:31.98	189.12	8.33	-39.6	-41.7	18.4	0.00e+00	0	38	0	54525952	51	4418
2026-01-18 12:49:32.97	189.18	8.40	-39.8	-42.0	18.1	0.00e+00	0	38	0	59768832	51	4565
2026-01-18 12:49:33.96	189.24	8.48	-40.1	-42.2	17.9	0.00e+00	0	38	0	65011712	51	4702
2026-01-18 12:49:34.96	189.30	8.56	-40.9	-43.2	16.9	0.00e+00	0	38	0	71303168	52	4957
2026-01-18 12:49:35.95	189.36	8.63	-41.6	-44.1	16.0	0.00e+00	0	38	0	76546048	53	5197
2026-01-18 12:49:36.94	189.42	8.71	-42.4	-45.1	15.1	0.00e+00	0	38	0	81788928	55	5169
2026-01-18 12:49:37.94	189.48	8.79	-43.5	-46.6	13.8	1.10e-06	0	38	0	88080384	57	5467
2026-01-18 12:49:38.93	189.54	8.87	-44.6	-48.1	12.2	2.27e-04	0	38	0	93323264	59	5835
2026-01-18 12:49:39.92	189.60	8.94	-45.3	-49.4	10.9	1.75e-03	0	38	0	98566144	61	5996
2026-01-18 12:49:40.92	189.66	9.02	-46.0	-50.8	9.5	8.80e-03	0	38	0	104857600	62	6674
2026-01-18 12:49:41.91	189.73	9.10	-41.6	-44.0	16.1	2.20e-06	0	38	0	110100480	55	4591
2026-01-18 12:49:42.90	189.79	9.18	-47.6	-55.3	5.4	2.21e-02	0	38	0	115343360	65	9395
2026-01-18 12:49:43.90	189.85	9.26	-45.7	-49.7	10.7	3.04e-03	0	38	0	119537664	62	5911
2026-01-18 12:49:44.89	189.91	9.34	-41.4	-43.7	16.5	3.40e-06	0	38	0	125829120	54	4684
2026-01-18 12:49:45.89	189.98	9.41	-47.8	-55.6	5.2	3.64e-01	0	38	0	131072000	66	9252
2026-01-18 12:49:46.88	190.04	9.49	-41.7	-44.1	16.0	3.02e-03	0	38	0	134217728	55	4645
2026-01-18 12:49:47.87	190.11	9.57	-40.3	-42.5	17.7	0.00e+00	0	38	0	139460608	52	4555
2026-01-18 12:49:48.87	190.17	9.65	-39.4	-41.5	18.6	0.00e+00	0	38	0	144703488	50	4584
2026-01-18 12:49:49.88	190.24	9.73	-38.8	-40.8	19.2	0.00e+00	0	38	0	150994944	49	4488
2026-01-18 12:49:50.92	190.30	9.82	-38.6	-40.6	19.5	0.00e+00	0	38	0	156237824	49	4363
2026-01-18 12:49:51.93	190.37	9.90	-38.5	-40.5	19.6	0.00e+00	0	38	0	162529280	49	4318
2026-01-18 12:49:52.96	190.44	9.98	-38.6	-40.6	19.5	0.00e+00	0	38	0	167772160	49	4362
2026-01-18 12:49:53.98	190.51	10.07	-38.8	-40.8	19.3	0.00e+00	0	38	0	174063616	49	4446
2026-01-18 12:49:54.98	190.57	10.15	-38.6	-40.6	19.5	0.00e+00	0	38	0	179306496	49	4362
2026-01-18 12:49:55.98	190.64	10.23	-38.7	-40.7	19.4	0.00e+00	0	38	0	185597952	49	4409
2026-01-18 12:49:56.97	190.71	10.31	-38.8	-40.8	19.3	0.00e+00	0	38	0	190840832	49	4460
2026-01-18 12:49:57.97	190.78	10.39	-38.9	-40.9	19.2	0.00e+00	0	38	0	196083712	49	4541
2026-01-18 12:49:58.96	190.85	10.48	-38.6	-40.6	19.5	0.00e+00	0	38	0	202375168	49	4359
2026-01-18 12:49:59.95	190.91	10.56	-38.6	-40.6	19.5	0.00e+00	0	38	0	207618048	49	4364
2026-01-18 12:50:00.94	190.98	10.64	-38.6	-40.5	19.6	0.00e+00	0	38	0	212860928	49	4336
2026-01-18 12:50:01.94	191.05	10.72	-38.5	-40.4	19.7	0.00e+00	0	38	0	219152384	49	4289
2026-01-18 12:50:02.93	191.12	10.81	-38.5	-40.4	19.7	0.00e+00	0	38	0	224395264	48	4533
2026-01-18 12:50:03.93	191.19	10.89	-38.4	-40.4	19.7	0.00e+00	0	38	0	229638144	48	4518
2026-01-18 12:50:04.92	191.26	10.97	-38.5	-40.4	19.7	0.00e+00	0	38	0	235929600	48	4535
2026-01-18 12:50:05.92	191.33	11.06	-38.5	-40.5	19.6	0.00e+00	0	38	0	241172480	48	4577
2026-01-18 12:50:06.91	191.40	11.14	-38.5	-40.5	19.6	0.00e+00	0	38	0	246415360	48	4574
2026-01-18 12:50:07.91	191.48	11.23	-38.5	-40.4	19.7	0.00e+00	0	38	0	252706816	48	4544
2026-01-18 12:50:08.90	191.55	11.31	-38.6	-40.5	19.6	0.00e+00	0	38	0	257949696	48	4583
2026-01-18 12:50:09.90	191.62	11.39	-38.5	-40.4	19.7	0.00e+00	0	39	0	263192576	48	4521
2026-01-18 12:50:10.97	191.70	11.49	-38.3	-40.3	19.8	0.00e+00	0	38	0	269484032	48	4445
2026-01-18 12:50:11.84	191.76	11.56	-38.4	-40.3	19.8	0.00e+00	0	38	0	274726912	48	4484
2026-01-18 12:50:12.97	191.85	11.66	-38.4	-40.3	19.8	0.00e+00	0	39	0	281018368	48	4487
2026-01-18 12:50:13.83	191.91	11.73	-38.3	-40.2	19.9	0.00e+00	0	38	0	286261248	48	4424
2026-01-18 12:50:14.96	191.99	11.83	-38.3	-40.2	19.9	0.00e+00	0	39	0	292552704	48	4432
2026-01-18 12:50:15.81	192.06	11.90	-38.4	-40.3	19.9	0.00e+00	0	38	0	296747008	48	4463
2026-01-18 12:50:16.95	192.14	12.00	-38.4	-40.3	19.8	0.00e+00	0	38	0	303038464	48	4470
2026-01-18 12:50:17.80	192.21	12.08	-38.4	-40.4	19.8	0.00e+00	0	38	0	308281344	48	4496
2026-01-18 12:50:18.94	192.30	12.18	-38.3	-40.2	19.9	0.00e+00	0	38	0	314572800	48	4437
2026-01-18 12:50:19.79	192.36	12.25	-38.3	-40.2	19.9	0.00e+00	0	38	0	319815680	48	4438
2026-01-18 12:50:20.97	192.45	12.36	-38.4	-40.3	19.9	0.00e+00	0	38	0	326107136	48	4462
2026-01-18 12:50:21.83	192.52	12.43	-38.4	-40.3	19.9	0.00e+00	0	38	0	331350016	48	4457
2026-01-18 12:50:22.96	192.61	12.53	-38.5	-40.4	19.8	0.00e+00	0	38	0	336592896	48	4537
2026-01-18 12:50:23.81	192.68	12.61	-38.5	-40.4	19.8	0.00e+00	0	39	0	341835776	48	4523
2026-01-18 12:50:24.95	192.77	12.71	-38.3	-40.3	19.8	0.00e+00	0	38	0	348127232	48	4458
2026-01-18 12:50:25.80	192.83	12.79	-38.3	-40.2	20.0	0.00e+00	0	38	0	353370112	48	4414
2026-01-18 12:50:26.94	192.93	12.89	-38.3	-40.3	19.5	0.00e+00	0	39	0	359661568	48	4455
2026-01-18 12:50:27.79	192.99	12.97	-38.4	-40.3	19.8	0.00e+00	0	38	0	363855872	48	4488
2026-01-18 12:50:28.93	193.09	13.07	-38.2	-40.1	20.0	0.00e+00	0	38	0	371195904	48	4386
2026-01-18 12:50:29.78	193.16	13.15	-38.2	-40.1	19.9	0.00e+00	0	38	0	375390208	48	4379
2026-01-18 12:50:30.92	193.25	13.25	-38.0	-39.9	20.2	0.00e+00	0	38	0	381681664	48	4264
2026-01-18 12:50:31.77	193.32	13.33	-37.9	-39.8	20.0	0.00e+00	0	38	0	386924544	47	4484
2026-01-18 12:50:32.90	193.41	13.43	-37.9	-39.9	20.0	0.00e+00	0	38	0	393216000	47	4516
2026-01-18 12:50:33.76	193.48	13.51	-37.8	-39.7	20.1	0.00e+00	0	38	0	397410304	47	4440
2026-01-18 12:50:34.89	193.58	13.62	-37.7	-39.6	20.3	0.00e+00	0	39	0	404750336	47	4345
2026-01-18 12:50:35.74	193.65	13.69	-37.7	-39.6	20.3	0.00e+00	0	39	0	408944640	47	4367
2026-01-18 12:50:36.88	193.75	13.80	-37.7	-39.6	20.2	0.00e+00	0	39	0	415236096	47	4363
2026-01-18 12:50:37.74	193.82	13.88	-37.7	-39.6	20.2	0.00e+00	0	39	0	420478976	47	4361
2026-01-18 12:50:38.87	193.92	13.99	-37.6	-39.5	20.3	0.00e+00	0	39	0	426770432	47	4309
2026-01-18 12:50:39.76	194.00	14.07	-37.6	-39.5	20.4	0.00e+00	0	39	0	432013312	47	4308
2026-01-18 12:50:40.89	194.09	14.18	-37.7	-39.6	20.2	0.00e+00	0	39	0	438304768	47	4380
2026-01-18 12:50:41.75	194.17	14.26	-37.6	-39.5	20.4	0.00e+00	0	39	0	442499072	47	4305
2026-01-18 12:50:43.10	194.29	14.38	-37.6	-39.5	20.3	0.00e+00	0	39	0	450887680	47	4315
2026-01-18 12:50:43.81	194.35	14.45	-37.6	-39.5	20.4	0.00e+00	0	39	0	454033408	47	4310
2026-01-18 12:50:45.09	194.47	14.57	-37.5	-39.4	20.5	0.00e+00	0	39	0	461373440	46	4522
2026-01-18 12:50:45.80	194.53	14.64	-37.4	-39.3	20.5	0.00e+00	0	39	0	465567744	46	4463
2026-01-18 12:50:47.08	194.65	14.76	-37.4	-39.3	20.6	0.00e+00	0	39	0	472907776	46	4450
2026-01-18 12:50:47.81	194.71	14.83	-37.3	-39.2	20.7	0.00e+00	0	39	0	477102080	46	4401
2026-01-18 12:50:49.09	194.83	14.96	-37.2	-39.1	20.7	0.00e+00	0	39	0	484442112	46	4367
2026-01-18 12:50:49.82	194.90	15.03	-37.4	-39.2	20.6	0.00e+00	0	39	0	487587840	46	4441
2026-01-18 12:50:51.10	195.02	15.15	-37.4	-39.2	20.6	0.00e+00	0	39	0	494927872	46	4440
2026-01-18 12:50:51.82	195.08	15.22	-37.2	-39.1	20.7	0.00e+00	0	39	0	499122176	46	4378
2026-01-18 12:50:53.10	195.20	15.35	-37.3	-39.2	20.6	0.00e+00	0	39	0	506462208	46	4422
2026-01-18 12:50:54.08	195.30	15.44	-37.2	-39.1	20.8	0.00e+00	0	39	0	512753664	46	4356
2026-01-18 12:50:55.35	195.42	15.57	-37.3	-39.2	20.6	0.00e+00	0	39	0	519045120	46	4431
2026-01-18 12:50:56.13	195.49	15.65	-37.3	-39.1	20.7	0.00e+00	0	39	0	524288000	46	4384
2026-01-18 12:50:57.41	195.61	15.77	-37.2	-39.1	20.7	0.00e+00	0	39	0	530579456	46	4366
2026-01-18 12:50:58.16	195.69	15.85	-37.2	-39.1	20.7	0.00e+00	0	39	0	534773760	46	4366
2026-01-18 12:50:59.74	195.84	16.01	-37.1	-39.0	20.8	0.00e+00	0	39	0	544210944	46	4305
2026-01-18 12:51:00.37	195.90	16.07	-37.0	-38.8	21.0	0.00e+00	0	39	0	547356672	45	4475
2026-01-18 12:51:01.89	196.06	16.22	-37.0	-38.8	21.0	0.00e+00	0	39	0	555745280	45	4471
2026-01-18 12:51:02.60	196.13	16.30	-37.1	-38.9	20.9	0.00e+00	0	39	0	559939584	45	4536
2026-01-18 12:51:03.88	196.25	16.43	-37.0	-38.8	21.0	0.00e+00	0	38	0	567279616	45	4468
2026-01-18 12:51:04.61	196.33	16.50	-36.9	-38.8	21.0	0.00e+00	0	39	0	571473920	45	4454
2026-01-18 12:51:05.89	196.46	16.63	-37.0	-38.9	20.9	0.00e+00	0	39	0	578813952	45	4505
2026-01-18 12:51:06.60	196.53	16.70	-37.0	-38.9	20.9	0.00e+00	0	39	0	583008256	45	4508
2026-01-18 12:51:07.88	196.66	16.83	-36.9	-38.8	21.0	0.00e+00	0	39	0	590348288	45	4451
2026-01-18 12:51:08.59	196.74	16.91	-36.9	-38.7	21.0	0.00e+00	0	39	0	593494016	45	4439
2026-01-18 12:51:09.87	196.87	17.04	-36.9	-38.8	21.0	0.00e+00	0	39	0	600834048	45	4442
2026-01-18 12:51:10.59	196.95	17.12	-36.9	-38.8	21.0	0.00e+00	0	39	0	605028352	45	4450
2026-01-18 12:51:11.87	197.08	17.25	-36.6	-38.5	21.3	0.00e+00	0	38	0	612368384	45	4292
2026-01-18 12:51:12.58	197.16	17.32	-36.7	-38.5	21.2	0.00e+00	0	39	0	616562688	45	4337
2026-01-18 12:51:13.86	197.30	17.46	-36.7	-38.5	21.3	0.00e+00	0	38	0	622854144	45	4310
2026-01-18 12:51:14.57	197.37	17.53	-36.7	-38.6	21.2	0.00e+00	0	39	0	627048448	45	4343
2026-01-18 12:51:15.85	197.51	17.67	-36.6	-38.4	21.3	0.00e+00	0	39	0	634388480	45	4280
2026-01-18 12:51:16.67	197.60	17.75	-36.7	-38.5	21.3	0.00e+00	0	39	0	639631360	45	4301
2026-01-18 12:51:17.81	197.73	17.88	-36.7	-38.5	21.3	0.00e+00	0	39	0	645922816	44	4556
2026-01-18 12:51:18.66	197.82	17.97	-36.8	-38.6	21.2	0.00e+00	0	39	0	650117120	44	4617
2026-01-18 12:51:19.80	197.95	18.09	-36.8	-38.6	21.1	0.00e+00	0	39	0	656408576	44	4639
2026-01-18 12:51:20.65	198.05	18.18	-36.9	-38.7	21.1	0.00e+00	0	39	0	661651456	44	4694
2026-01-18 12:51:21.79	198.18	18.30	-36.7	-38.5	21.3	0.00e+00	0	39	0	667942912	44	4563
2026-01-18 12:51:22.64	198.27	18.39	-36.7	-38.5	21.3	0.00e+00	0	39	0	673185792	44	4572
2026-01-18 12:51:23.78	198.40	18.52	-36.7	-38.5	21.3	0.00e+00	0	39	0	679477248	44	4563
2026-01-18 12:51:24.63	198.50	18.61	-36.6	-38.4	21.4	0.00e+00	0	39	0	683671552	44	4518
2026-01-18 12:51:25.89	198.65	18.75	-36.5	-38.3	21.4	0.00e+00	0	39	0	691011584	44	4486
2026-01-18 12:51:26.71	198.75	18.84	-36.5	-38.3	21.5	0.00e+00	0	39	0	695205888	44	4457
2026-01-18 12:51:27.85	198.88	18.96	-36.4	-38.3	21.5	0.00e+00	0	39	0	702545920	44	4444
2026-01-18 12:51:28.70	198.98	19.06	-36.4	-38.2	21.5	0.00e+00	0	39	0	706740224	44	4427
2026-01-18 12:51:29.84	199.12	19.18	-36.3	-38.1	21.6	0.00e+00	0	39	0	713031680	44	4379
2026-01-18 12:51:30.69	199.22	19.28	-36.4	-38.2	21.5	0.00e+00	0	39	0	718274560	44	4420
2026-01-18 12:51:32.08	199.39	19.43	-36.4	-38.2	21.5	0.00e+00	0	39	0	725614592	44	4400
2026-01-18 12:51:32.79	199.48	19.51	-36.4	-38.2	21.6	0.00e+00	0	39	0	729808896	44	4396
2026-01-18 12:51:34.07	199.64	19.66	-36.4	-38.2	21.5	0.00e+00	0	39	0	737148928	44	4404
2026-01-18 12:51:34.81	199.73	19.74	-36.4	-38.3	21.5	0.00e+00	0	39	0	741343232	44	4443
2026-01-18 12:51:36.08	199.89	19.88	-36.6	-38.4	21.3	0.00e+00	0	39	0	748683264	44	4528
2026-01-18 12:51:36.81	199.98	19.97	-36.5	-38.3	21.4	0.00e+00	0	39	0	752877568	44	4451
2026-01-18 12:51:38.09	200.14	20.11	-36.5	-38.3	21.4	0.00e+00	0	39	0	760217600	44	4466
2026-01-18 12:51:38.80	200.23	20.19	-36.4	-38.2	21.5	0.00e+00	0	39	0	763363328	44	4430
2026-01-18 12:51:40.08	200.40	20.34	-36.5	-38.3	21.4	0.00e+00	0	39	0	770703360	44	4457
2026-01-18 12:51:40.79	200.49	20.42	-36.5	-38.3	21.4	0.00e+00	0	39	0	774897664	44	4448
2026-01-18 12:51:42.07	200.66	20.57	-36.3	-38.1	21.5	0.00e+00	0	39	0	782237696	44	4372
2026-01-18 12:51:42.79	200.75	20.65	-36.3	-38.1	21.5	0.00e+00	0	39	0	786432000	44	4391
2026-01-18 12:51:44.07	200.92	20.80	-36.3	-38.1	21.5	0.00e+00	0	39	0	792723456	44	4382
2026-01-18 12:51:44.78	201.02	20.89	-36.4	-38.2	21.5	0.00e+00	0	39	0	797966336	44	4422
2026-01-18 12:51:46.16	201.21	21.05	-36.5	-38.3	21.4	0.00e+00	0	39	0	805306368	44	4472
2026-01-18 12:51:46.87	201.30	21.13	-36.5	-38.3	21.4	0.00e+00	0	39	0	808452096	44	4462
2026-01-18 12:51:48.21	201.49	21.29	-36.6	-38.4	21.3	0.00e+00	0	39	0	816840704	44	4538
2026-01-18 12:51:48.92	201.58	21.37	-36.4	-38.2	21.5	0.00e+00	0	39	0	819986432	44	4399
2026-01-18 12:51:50.20	201.76	21.52	-36.3	-38.1	21.6	0.00e+00	0	39	0	827326464	44	4345
2026-01-18 12:51:51.28	201.91	21.65	-36.2	-38.0	21.7	0.00e+00	0	39	0	833617920	44	4297
2026-01-18 12:51:52.13	202.03	21.75	-36.3	-38.0	21.6	0.00e+00	0	39	0	838860800	44	4338
2026-01-18 12:51:53.27	202.19	21.89	-36.1	-37.9	21.8	0.00e+00	0	39	0	845152256	44	4245
2026-01-18 12:51:54.12	202.32	21.99	-36.0	-37.8	21.9	0.00e+00	0	39	0	849346560	44	4224
2026-01-18 12:51:55.26	202.48	22.13	-36.1	-37.9	21.8	0.00e+00	0	39	0	856686592	44	4259
2026-01-18 12:51:56.11	202.61	22.23	-35.9	-37.6	21.9	0.00e+00	0	39	0	860880896	43	4388
2026-01-18 12:51:57.39	202.79	22.39	-35.9	-37.6	21.9	0.00e+00	0	39	0	868220928	43	4379
2026-01-18 12:51:58.10	202.90	22.48	-36.0	-37.7	21.8	0.00e+00	0	39	0	872415232	43	4440
2026-01-18 12:51:59.38	203.09	22.63	-35.9	-37.7	21.8	0.00e+00	0	39	0	879755264	43	4408
2026-01-18 12:52:00.11	203.20	22.72	-35.9	-37.7	21.8	0.00e+00	0	39	0	883949568	43	4408
2026-01-18 12:52:01.64	203.43	22.91	-35.9	-37.7	21.8	0.00e+00	0	39	0	892338176	43	4404
2026-01-18 12:52:02.35	203.54	23.00	-35.8	-37.6	21.9	0.00e+00	0	39	0	896532480	43	4369
2026-01-18 12:52:03.62	203.73	23.15	-35.7	-37.5	22.0	0.00e+00	0	39	0	903872512	43	4313
2026-01-18 12:52:04.68	203.90	23.29	-35.6	-37.4	22.1	0.00e+00	0	39	0	909115392	43	4264
2026-01-18 12:52:05.82	204.08	23.43	-35.5	-37.2	22.2	0.00e+00	0	39	0	915406848	42	4436
2026-01-18 12:52:06.67	204.21	23.53	-35.4	-37.2	22.3	0.00e+00	0	39	0	920649728	42	4417
2026-01-18 12:52:07.81	204.39	23.68	-35.2	-36.9	22.5	0.00e+00	0	39	0	926941184	42	4287
2026-01-18 12:52:08.66	204.53	23.79	-35.2	-37.0	22.4	0.00e+00	0	39	0	931135488	42	4311
2026-01-18 12:52:09.80	204.71	23.93	-35.2	-36.9	22.5	0.00e+00	0	39	0	938475520	42	4284
2026-01-18 12:52:10.65	204.85	24.04	-35.3	-37.0	22.4	0.00e+00	0	39	0	942669824	42	4333
2026-01-18 12:52:11.79	205.04	24.18	-35.3	-37.0	22.4	0.00e+00	0	39	0	948961280	42	4326
2026-01-18 12:52:12.64	205.18	24.29	-35.3	-37.0	22.4	0.00e+00	0	39	0	954204160	42	4318
2026-01-18 12:52:13.78	205.37	24.44	-35.3	-37.0	22.4	0.00e+00	0	39	0	960495616	42	4340
2026-01-18 12:52:14.63	205.51	24.54	-35.2	-36.9	22.5	0.00e+00	0	39	0	965738496	42	4284
2026-01-18 12:52:15.76	205.70	24.69	-35.2	-36.9	22.5	0.00e+00	0	39	0	972029952	42	4273
2026-01-18 12:52:16.62	205.85	24.80	-35.3	-37.1	22.4	0.00e+00	0	39	0	976224256	42	4345
2026-01-18 12:52:17.93	206.08	24.97	-35.4	-37.1	22.3	0.00e+00	0	39	0	983564288	42	4384
2026-01-18 12:52:18.64	206.20	25.06	-35.3	-37.0	22.4	0.00e+00	0	39	0	987758592	42	4336
2026-01-18 12:52:19.92	206.42	25.23	-35.3	-37.0	22.5	0.00e+00	0	39	0	995098624	42	4314
2026-01-18 12:52:20.63	206.55	25.32	-35.2	-36.9	22.6	0.00e+00	0	39	0	999292928	42	4249
2026-01-18 12:52:21.91	206.78	25.49	-35.2	-37.0	22.5	0.00e+00	0	39	0	1006632960	42	4299
2026-01-18 12:52:22.68	206.91	25.59	-35.1	-36.8	22.6	0.00e+00	0	39	0	1010827264	42	4236
2026-01-18 12:52:23.97	207.15	25.76	-35.0	-36.7	22.7	0.00e+00	0	39	0	1018167296	41	4400
2026-01-18 12:52:24.68	207.28	25.85	-35.0	-36.7	22.7	0.00e+00	0	39	0	1022361600	41	4419
2026-01-18 12:52:25.96	207.51	26.02	-35.1	-36.8	22.6	0.00e+00	0	39	0	1028653056	41	4463
2026-01-18 12:52:26.67	207.64	26.12	-35.0	-36.7	22.7	0.00e+00	0	39	0	1032847360	41	4430
2026-01-18 12:52:27.95	207.88	26.29	-34.9	-36.6	22.7	0.00e+00	0	39	0	1040187392	41	4389
2026-01-18 12:52:28.66	208.02	26.38	-35.0	-36.7	22.7	0.00e+00	0	39	0	1044381696	41	4423
2026-01-18 12:52:29.94	208.26	26.55	-34.9	-36.6	22.8	0.00e+00	0	39	0	1051721728	41	4366
2026-01-18 12:52:30.68	208.40	26.65	-35.0	-36.7	22.4	0.00e+00	0	39	0	1055916032	41	4405
2026-01-18 12:52:31.96	208.65	26.82	-34.9	-36.7	22.7	0.00e+00	0	39	0	1062207488	41	4398
2026-01-18 12:52:32.70	208.79	26.92	-35.1	-36.8	22.6	0.00e+00	0	39	0	1066401792	41	4469
2026-01-18 12:52:34.06	209.06	27.11	-35.0	-36.7	22.6	0.00e+00	0	39	0	1074790400	41	4432
2026-01-18 12:52:34.77	209.20	27.20	-35.1	-36.8	22.6	0.00e+00	0	39	0	1077936128	41	4469
2026-01-18 12:52:36.05	209.45	27.38	-35.0	-36.7	22.7	0.00e+00	0	39	0	1085276160	41	4417
2026-01-18 12:52:36.75	209.59	27.47	-35.0	-36.8	22.6	0.00e+00	0	39	0	1089470464	41	4452
2026-01-18 12:52:38.16	209.88	27.66	-34.9	-36.6	22.7	0.00e+00	0	39	0	1097859072	41	4374
2026-01-18 12:52:38.87	210.03	27.76	-34.9	-36.6	22.7	0.00e+00	0	39	0	1102053376	41	4377
2026-01-18 12:52:40.15	210.29	27.93	-34.9	-36.6	22.7	0.00e+00	0	39	0	1108344832	41	4385
2026-01-18 12:52:40.87	210.44	28.03	-34.8	-36.5	22.8	0.00e+00	0	39	0	1112539136	41	4338
2026-01-18 12:52:42.26	210.73	28.22	-34.7	-36.4	22.9	0.00e+00	0	39	0	1120927744	41	4265
2026-01-18 12:52:42.97	210.88	28.32	-34.8	-36.5	22.8	0.00e+00	0	39	0	1125122048	41	4309
2026-01-18 12:52:44.25	211.16	28.50	-34.6	-36.3	23.0	0.00e+00	0	39	0	1131413504	41	4240
2026-01-18 12:52:44.98	211.31	28.60	-34.7	-36.4	22.9	0.00e+00	0	39	0	1135607808	41	4251
2026-01-18 12:52:46.26	211.59	28.78	-34.8	-36.5	22.8	0.00e+00	0	39	0	1142947840	41	4326
2026-01-18 12:52:46.98	211.75	28.88	-35.0	-36.7	22.6	0.00e+00	0	39	0	1147142144	41	4435
2026-01-18 12:52:48.26	212.03	29.05	-35.0	-36.7	22.6	0.00e+00	0	39	0	1154482176	41	4431
2026-01-18 12:52:49.01	212.20	29.16	-35.0	-36.7	22.6	0.00e+00	0	39	0	1158676480	41	4413
2026-01-18 12:52:50.30	212.49	29.34	-35.0	-36.7	22.6	0.00e+00	0	39	0	1166016512	41	4428
2026-01-18 12:52:51.02	212.65	29.44	-35.0	-36.7	22.6	0.00e+00	0	39	0	1170210816	41	4421
2026-01-18 12:52:52.30	212.95	29.62	-34.8	-36.6	22.8	0.00e+00	0	39	0	1177550848	41	4344
2026-01-18 12:52:53.03	213.12	29.72	-34.8	-36.5	22.8	0.00e+00	0	39	0	1181745152	41	4316
2026-01-18 12:52:54.30	213.41	29.90	-34.9	-36.6	22.8	0.00e+00	0	39	0	1188036608	41	4352
2026-01-18 12:52:55.08	213.59	30.01	-35.0	-36.7	22.6	0.00e+00	0	39	0	1193279488	41	4421
2026-01-18 12:52:56.67	213.97	30.23	-34.6	-36.3	23.0	0.00e+00	0	39	0	1201668096	41	4213
2026-01-18 12:52:57.25	214.11	30.31	-34.6	-36.3	23.0	0.00e+00	0	39	0	1204813824	41	4228
2026-01-18 12:52:59.03	214.54	30.56	-34.8	-36.5	22.9	0.00e+00	0	39	0	1215299584	41	4310
2026-01-18 12:52:59.60	214.68	30.64	-34.6	-36.3	23.0	0.00e+00	0	39	0	1218445312	41	4238
2026-01-18 12:53:01.74	215.21	30.95	-34.6	-36.3	23.0	0.00e+00	0	39	0	1229979648	41	4210
2026-01-18 12:53:02.17	215.32	31.01	-34.7	-36.4	22.9	0.00e+00	0	39	0	1232076800	41	4289
2026-01-18 12:53:04.30	215.86	31.31	-34.6	-36.3	23.0	0.00e+00	0	39	0	1244659712	41	4240
2026-01-18 12:53:04.73	215.97	31.37	-34.6	-36.3	23.0	0.00e+00	0	39	0	1246756864	41	4226
2026-01-18 12:53:06.86	216.52	31.67	-34.7	-36.5	22.9	0.00e+00	0	39	0	1259339776	41	4299
2026-01-18 12:53:07.29	216.63	31.73	-34.7	-36.4	22.9	0.00e+00	0	39	0	1261436928	41	4273
2026-01-18 12:53:09.42	217.19	32.03	-34.8	-36.5	22.9	0.00e+00	0	39	0	1272971264	41	4319
2026-01-18 12:53:09.85	217.30	32.09	-34.6	-36.3	23.0	0.00e+00	0	39	0	1276116992	41	4238
2026-01-18 12:53:11.98	217.88	32.40	-34.5	-36.2	23.1	0.00e+00	0	39	0	1287651328	41	4163
2026-01-18 12:53:12.40	217.99	32.46	-34.5	-36.2	23.1	0.00e+00	0	39	0	1289748480	40	4403
2026-01-18 12:53:14.53	218.58	32.76	-34.6	-36.4	23.0	0.00e+00	0	39	0	1302331392	40	4500
2026-01-18 12:53:14.96	218.70	32.82	-34.7	-36.4	22.9	0.00e+00	0	39	0	1304428544	40	4509
2026-01-18 12:53:17.09	219.30	33.12	-34.8	-36.5	22.8	0.00e+00	0	39	0	1317011456	40	4579
2026-01-18 12:53:17.52	219.42	33.18	-34.8	-36.5	22.8	0.00e+00	0	39	0	1319108608	40	4579
2026-01-18 12:53:19.65	220.04	33.48	-34.5	-36.2	23.1	0.00e+00	0	39	0	1330642944	40	4416
2026-01-18 12:53:20.08	220.16	33.54	-34.6	-36.3	23.0	0.00e+00	0	39	0	1333788672	40	4457
2026-01-18 12:53:22.20	220.79	33.84	-34.7	-36.4	22.9	0.00e+00	0	39	0	1345323008	40	4543
2026-01-18 12:53:22.63	220.92	33.90	-34.8	-36.5	22.8	0.00e+00	0	39	0	1347420160	40	4569
2026-01-18 12:53:24.76	221.56	34.20	-34.7	-36.5	22.8	0.00e+00	0	39	0	1360003072	40	4563
2026-01-18 12:53:25.20	221.69	34.26	-34.7	-36.5	22.8	0.00e+00	0	39	0	1362100224	40	4550
2026-01-18 12:53:27.34	222.35	34.56	-34.7	-36.4	22.9	0.00e+00	0	39	0	1374683136	40	4510
2026-01-18 12:53:27.76	222.48	34.62	-34.6	-36.3	23.0	0.00e+00	0	39	0	1376780288	40	4460
2026-01-18 12:53:29.89	223.15	34.91	-34.6	-36.3	23.0	0.00e+00	0	39	0	1388314624	40	4466
2026-01-18 12:53:30.32	223.28	34.97	-34.6	-36.3	23.0	0.00e+00	0	39	0	1390411776	40	4473
2026-01-18 12:53:32.45	223.97	35.27	-34.7	-36.4	22.8	0.00e+00	0	39	0	1402994688	40	4544
2026-01-18 12:53:32.88	224.11	35.33	-34.7	-36.5	22.8	0.00e+00	0	39	0	1405091840	40	4554
2026-01-18 12:53:35.01	224.81	35.62	-34.8	-36.6	22.8	0.00e+00	0	39	0	1417674752	40	4610
2026-01-18 12:53:35.43	224.95	35.68	-34.7	-36.4	22.9	0.00e+00	0	39	0	1419771904	40	4544
2026-01-18 12:53:37.57	225.66	35.97	-34.5	-36.2	23.1	0.00e+00	0	39	0	1431306240	40	4400
2026-01-18 12:53:37.99	225.80	36.02	-34.5	-36.2	23.1	0.00e+00	0	39	0	1434451968	40	4430
2026-01-18 12:53:40.12	226.53	36.31	-34.5	-36.2	23.1	0.00e+00	0	39	0	1445986304	40	4399
2026-01-18 12:53:40.55	226.68	36.37	-34.5	-36.2	23.1	0.00e+00	0	39	0	1448083456	40	4407
2026-01-18 12:53:42.68	227.42	36.65	-34.5	-36.3	23.1	0.00e+00	0	39	0	1460666368	40	4446
2026-01-18 12:53:43.11	227.58	36.71	-34.4	-36.1	23.2	0.00e+00	0	39	0	1462763520	40	4358
2026-01-18 12:53:45.24	228.33	36.99	-34.4	-36.1	23.2	0.00e+00	0	39	0	1475346432	40	4350
2026-01-18 12:53:45.68	228.49	37.04	-34.4	-36.1	23.2	0.00e+00	0	39	0	1477443584	40	4375
2026-01-18 12:53:47.81	229.27	37.32	-34.3	-36.0	23.3	0.00e+00	0	39	0	1488977920	40	4312
2026-01-18 12:53:48.26	229.43	37.38	-34.3	-36.0	23.3	0.00e+00	0	39	0	1492123648	40	4324
2026-01-18 12:53:50.39	230.22	37.65	-34.6	-36.4	22.9	0.00e+00	0	39	0	1503657984	40	4504
2026-01-18 12:53:50.81	230.38	37.70	-34.6	-36.3	23.0	0.00e+00	0	39	0	1505755136	40	4487
2026-01-18 12:53:53.04	231.22	37.98	-34.5	-36.2	23.1	0.00e+00	0	39	0	1518338048	40	4438
2026-01-18 12:53:53.47	231.39	38.03	-34.4	-36.1	23.1	0.00e+00	0	39	0	1521483776	40	4390
2026-01-18 12:53:55.59	232.20	38.29	-34.5	-36.2	23.1	0.00e+00	0	39	0	1533018112	40	4417
2026-01-18 12:53:56.02	232.37	38.34	-34.5	-36.3	23.0	0.00e+00	0	39	0	1536163840	40	4452
2026-01-18 12:53:58.15	233.21	38.60	-34.4	-36.2	23.1	0.00e+00	0	39	0	1547698176	40	4397
2026-01-18 12:53:58.58	233.38	38.65	-34.6	-36.3	23.0	0.00e+00	0	39	0	1549795328	40	4448
2026-01-18 12:54:00.71	234.23	38.90	-34.7	-36.4	22.9	0.00e+00	0	39	0	1562378240	40	4535
2026-01-18 12:54:01.14	234.41	38.95	-34.6	-36.3	23.0	0.00e+00	0	39	0	1564475392	40	4480
2026-01-18 12:54:03.27	235.27	39.19	-34.4	-36.1	23.2	0.00e+00	0	39	0	1576009728	40	4344
2026-01-18 12:54:03.70	235.45	39.24	-34.2	-35.9	23.3	0.00e+00	0	39	0	1579155456	40	4256
2026-01-18 12:54:05.89	236.36	39.48	-34.4	-36.1	23.2	0.00e+00	0	39	0	1590689792	40	4363
2026-01-18 12:54:06.31	236.53	39.53	-34.4	-36.1	23.1	0.00e+00	0	39	0	1593835520	40	4386
2026-01-18 12:54:08.45	237.44	39.76	-34.4	-36.1	23.2	0.00e+00	0	39	0	1605369856	40	4352
2026-01-18 12:54:08.87	237.62	39.80	-34.4	-36.1	23.2	0.00e+00	0	39	0	1608515584	40	4362
2026-01-18 12:54:11.01	238.53	40.02	-34.4	-36.1	23.2	0.00e+00	0	39	0	1620049920	40	4371
2026-01-18 12:54:11.43	238.72	40.07	-34.5	-36.2	23.1	0.00e+00	0	39	0	1622147072	40	4422
2026-01-18 12:54:13.63	239.67	40.29	-34.7	-36.4	22.9	0.00e+00	0	39	0	1634729984	40	4533
2026-01-18 12:54:14.05	239.86	40.33	-34.7	-36.4	22.9	0.00e+00	0	39	0	1636827136	40	4534
2026-01-18 12:54:16.18	240.80	40.53	-34.3	-36.0	23.2	0.00e+00	0	39	0	1649410048	40	4325
2026-01-18 12:54:16.62	241.00	40.57	-34.3	-36.0	23.3	0.00e+00	0	39	0	1651507200	40	4303
2026-01-18 12:54:18.76	241.96	40.77	-34.2	-35.9	23.4	0.00e+00	0	39	0	1663041536	40	4260
2026-01-18 12:54:19.18	242.15	40.80	-34.2	-35.9	23.3	0.00e+00	0	39	0	1666187264	40	4280
2026-01-18 12:54:21.31	243.12	40.99	-34.4	-36.1	23.1	0.00e+00	0	39	0	1677721600	40	4361
2026-01-18 12:54:21.74	243.31	41.03	-34.5	-36.2	23.1	0.00e+00	0	39	0	1679818752	40	4416
2026-01-18 12:54:23.92	244.32	41.21	-34.5	-36.3	23.0	0.00e+00	0	39	0	1692401664	40	4444
2026-01-18 12:54:24.35	244.52	41.24	-34.5	-36.2	23.0	0.00e+00	0	39	0	1694498816	40	4407
2026-01-18 12:54:26.48	245.52	41.40	-34.3	-36.0	23.2	0.00e+00	0	39	0	1707081728	40	4324
2026-01-18 12:54:26.90	245.71	41.44	-34.3	-36.0	23.2	0.00e+00	0	39	0	1709178880	40	4328
2026-01-18 12:54:29.04	246.72	41.59	-34.4	-36.1	23.2	0.00e+00	0	39	0	1721761792	40	4348
2026-01-18 12:54:29.47	246.93	41.62	-34.4	-36.1	23.1	0.00e+00	0	39	0	1723858944	40	4380
2026-01-18 12:54:31.60	247.95	41.76	-34.4	-36.2	23.1	0.00e+00	0	39	0	1735393280	40	4405
2026-01-18 12:54:32.39	248.33	41.81	-34.4	-36.2	23.1	0.00e+00	0	39	0	1740636160	40	4393
2026-01-18 12:54:33.60	248.91	41.89	-34.4	-36.1	23.2	0.00e+00	0	39	0	1746927616	40	4357
2026-01-18 12:54:34.45	249.32	41.94	-34.5	-36.2	23.1	0.00e+00	0	39	0	1752170496	40	4407
2026-01-18 12:54:35.59	249.88	42.01	-34.6	-36.3	23.0	0.00e+00	0	39	0	1758461952	40	4463
2026-01-18 12:54:36.44	250.29	42.05	-34.6	-36.3	23.0	0.00e+00	0	39	0	1762656256	40	4477
2026-01-18 12:54:37.58	250.85	42.11	-34.4	-36.1	23.2	0.00e+00	0	39	0	1768947712	40	4353
2026-01-18 12:54:38.43	251.27	42.16	-34.2	-35.9	23.3	0.00e+00	0	39	0	1774190592	40	4281
2026-01-18 12:54:39.57	251.83	42.21	-34.5	-36.2	23.0	0.00e+00	0	39	0	1780482048	40	4424
2026-01-18 12:54:40.42	252.25	42.25	-34.7	-36.4	22.9	0.00e+00	0	39	0	1785724928	40	4525
2026-01-18 12:54:41.56	252.81	42.30	-34.8	-36.6	22.8	0.00e+00	0	39	0	1792016384	40	4606
2026-01-18 12:54:42.41	253.23	42.34	-34.8	-36.6	22.8	0.00e+00	0	39	0	1796210688	40	4614
2026-01-18 12:54:43.55	253.80	42.38	-34.8	-36.5	22.9	0.00e+00	0	39	0	1802502144	40	4567
2026-01-18 12:54:44.40	254.22	42.41	-34.7	-36.4	22.9	0.00e+00	0	39	0	1807745024	40	4521
2026-01-18 12:54:45.54	254.79	42.45	-34.6	-36.3	23.0	0.00e+00	0	39	0	1814036480	40	4471
2026-01-18 12:54:46.39	255.22	42.48	-34.6	-36.3	23.0	0.00e+00	0	39	0	1819279360	40	4462
2026-01-18 12:54:47.53	255.79	42.52	-34.6	-36.3	23.0	0.00e+00	0	39	0	1825570816	40	4476
2026-01-18 12:54:48.38	256.22	42.54	-34.6	-36.3	23.0	0.00e+00	0	39	0	1829765120	40	4480
2026-01-18 12:54:49.52	256.79	42.57	-34.5	-36.2	23.1	0.00e+00	0	39	0	1836056576	40	4417
2026-01-18 12:54:50.37	257.22	42.59	-34.5	-36.2	23.0	0.00e+00	0	39	0	1841299456	40	4433
2026-01-18 12:54:51.51	257.80	42.61	-34.6	-36.3	23.0	0.00e+00	0	39	0	1847590912	40	4444
2026-01-18 12:54:52.36	258.23	42.63	-34.6	-36.3	22.9	0.00e+00	0	39	0	1852833792	40	4481
2026-01-18 12:54:53.50	258.80	42.65	-34.7	-36.4	22.9	0.00e+00	0	39	0	1859125248	40	4508
2026-01-18 12:54:54.36	259.24	42.66	-34.7	-36.4	22.9	0.00e+00	0	39	0	1863319552	40	4525
2026-01-18 12:54:55.49	259.81	42.67	-34.7	-36.4	22.9	0.00e+00	0	39	0	1870659584	40	4521
2026-01-18 12:54:56.34	260.24	42.68	-34.7	-36.4	22.9	0.00e+00	0	39	0	1874853888	40	4533
2026-01-18 12:54:57.48	260.82	42.68	-34.8	-36.5	22.9	0.00e+00	0	39	0	1881145344	40	4559
2026-01-18 12:54:58.33	261.25	42.69	-34.7	-36.4	23.0	0.00e+00	0	39	0	1886388224	40	4533
2026-01-18 12:54:59.47	261.83	42.69	-35.1	-36.8	22.6	0.00e+00	0	39	0	1892679680	40	4740
2026-01-18 12:55:00.32	262.26	42.69	-34.8	-36.5	22.8	0.00e+00	0	39	0	1896873984	40	4586
2026-01-18 12:55:01.46	262.84	42.68	-34.6	-36.3	23.0	0.00e+00	0	39	0	1903165440	40	4463
2026-01-18 12:55:02.31	263.27	42.68	-34.6	-36.3	23.0	0.00e+00	0	39	0	1908408320	40	4453
2026-01-18 12:55:03.44	263.85	42.67	-34.7	-36.4	22.9	0.00e+00	0	39	0	1914699776	40	4541
2026-01-18 12:55:04.30	264.28	42.66	-34.6	-36.3	22.9	0.00e+00	0	39	0	1919942656	40	4485
2026-01-18 12:55:05.50	264.89	42.64	-34.7	-36.4	22.9	0.00e+00	0	39	0	1926234112	40	4514
2026-01-18 12:55:06.35	265.32	42.63	-34.8	-36.5	22.7	0.00e+00	0	39	0	1931476992	40	4589
2026-01-18 12:55:07.48	265.89	42.61	-34.6	-36.4	22.9	0.00e+00	0	39	0	1937768448	40	4507
2026-01-18 12:55:08.34	266.33	42.59	-34.5	-36.2	23.0	0.00e+00	0	39	0	1941962752	40	4419
2026-01-18 12:55:09.63	266.98	42.56	-34.4	-36.1	23.1	0.00e+00	0	39	0	1949302784	40	4384
2026-01-18 12:55:10.34	267.33	42.54	-34.5	-36.2	23.0	0.00e+00	0	39	0	1953497088	40	4412
2026-01-18 12:55:11.62	267.98	42.51	-34.7	-36.5	22.8	0.00e+00	0	39	0	1960837120	40	4560
2026-01-18 12:55:12.35	268.34	42.48	-34.8	-36.5	22.8	0.00e+00	0	39	0	1965031424	40	4598
2026-01-18 12:55:13.63	268.98	42.44	-34.7	-36.5	22.8	0.00e+00	0	39	0	1972371456	40	4546
2026-01-18 12:55:14.36	269.35	42.41	-34.7	-36.4	22.9	0.00e+00	0	39	0	1976565760	40	4502
2026-01-18 12:55:15.64	269.98	42.37	-34.6	-36.3	23.0	0.00e+00	0	39	0	1983905792	40	4467
2026-01-18 12:55:16.38	270.35	42.34	-34.6	-36.3	23.0	0.00e+00	0	39	0	1988100096	40	4465
2026-01-18 12:55:17.66	270.99	42.28	-34.6	-36.3	23.0	0.00e+00	0	39	0	1994391552	40	4461
2026-01-18 12:55:18.40	271.35	42.25	-34.5	-36.2	23.1	0.00e+00	0	39	0	1998585856	40	4408
2026-01-18 12:55:19.67	271.98	42.19	-34.8	-36.4	23.5	0.00e+00	0	39	0	2005925888	40	4513
2026-01-18 12:55:20.40	272.34	42.15	-34.8	-36.5	23.5	0.00e+00	0	39	0	2010120192	40	4563
2026-01-18 12:55:21.68	272.96	42.09	-34.7	-36.4	23.5	0.00e+00	0	39	0	2017460224	40	4502
2026-01-18 12:55:22.41	273.32	42.05	-34.8	-36.5	23.5	0.00e+00	0	39	0	2021654528	40	4552
2026-01-18 12:55:23.69	273.94	41.98	-34.8	-36.4	23.5	0.00e+00	0	39	0	2028994560	40	4527
2026-01-18 12:55:24.67	274.42	41.92	-34.8	-36.4	23.5	0.00e+00	0	39	0	2034237440	40	4542
2026-01-18 12:55:25.96	275.04	41.84	-34.8	-36.4	23.5	0.00e+00	0	39	0	2041577472	40	4540
2026-01-18 12:55:26.67	275.38	41.80	-34.7	-36.4	23.5	0.00e+00	0	39	0	2045771776	40	4510
2026-01-18 12:55:27.95	276.00	41.71	-34.8	-36.4	23.5	0.00e+00	0	39	0	2053111808	40	4523
2026-01-18 12:55:28.68	276.34	41.66	-34.8	-36.4	23.5	0.00e+00	0	39	0	2057306112	40	4541
2026-01-18 12:55:29.96	276.95	41.58	-34.6	-36.3	23.6	0.00e+00	0	39	0	2063597568	40	4442
2026-01-18 12:55:30.67	277.29	41.52	-34.7	-36.3	23.6	0.00e+00	0	39	0	2067791872	40	4480
2026-01-18 12:55:31.94	277.89	41.43	-34.5	-36.2	23.7	0.00e+00	0	39	0	2075131904	40	4410
2026-01-18 12:55:32.65	278.22	41.38	-34.5	-36.1	23.8	0.00e+00	0	39	0	2079326208	40	4372
2026-01-18 12:55:33.93	278.82	41.28	-34.5	-36.1	23.8	0.00e+00	0	39	0	2086666240	40	4378
2026-01-18 12:55:34.66	279.15	41.22	-34.5	-36.2	23.7	0.00e+00	0	39	0	2090860544	40	4403
2026-01-18 12:55:35.94	279.75	41.12	-34.6	-36.3	23.6	0.00e+00	0	39	0	2097152000	40	4451
2026-01-18 12:55:36.68	280.09	41.06	-34.7	-36.3	23.6	0.00e+00	0	39	0	2102394880	40	4480
2026-01-18 12:55:37.96	280.67	40.95	-34.6	-36.2	23.7	0.00e+00	0	39	0	2108686336	40	4420
2026-01-18 12:55:38.68	281.00	40.89	-34.5	-36.1	23.7	0.00e+00	0	39	0	2112880640	40	4391
2026-01-18 12:55:39.96	281.58	40.77	-34.5	-36.1	23.8	0.00e+00	0	39	0	2120220672	40	4349
2026-01-18 12:55:40.72	281.92	40.71	-34.5	-36.1	23.8	0.00e+00	0	39	0	2124414976	40	4380
2026-01-18 12:55:42.23	282.59	40.57	-34.6	-36.2	23.7	0.00e+00	0	39	0	2132803584	40	4407
2026-01-18 12:55:42.94	282.91	40.50	-34.5	-36.1	23.7	0.00e+00	0	39	0	2136997888	40	4390
2026-01-18 12:55:44.29	283.51	40.37	-34.7	-36.4	23.6	0.00e+00	0	39	0	2144337920	40	4494
2026-01-18 12:55:45.25	283.93	40.28	-34.6	-36.2	23.7	0.00e+00	0	39	0	2149580800	40	4408
2026-01-18 12:55:46.56	284.50	40.15	-34.6	-36.3	23.6	0.00e+00	0	39	0	2156920832	40	4449
2026-01-18 12:55:47.28	284.81	40.08	-34.5	-36.2	23.7	0.00e+00	0	39	0	2161115136	40	4392
2026-01-18 12:55:48.55	285.36	39.95	-34.5	-36.1	23.8	0.00e+00	0	39	0	2168455168	40	4369
2026-01-18 12:55:49.26	285.66	39.88	-34.5	-36.1	23.8	0.00e+00	0	39	0	2172649472	40	4370
2026-01-18 12:55:50.54	286.20	39.74	-34.5	-36.1	23.8	0.00e+00	0	39	0	2179989504	40	4347
2026-01-18 12:55:51.26	286.51	39.66	-34.4	-36.0	23.8	0.00e+00	0	39	0	2184183808	40	4337
2026-01-18 12:55:52.53	287.04	39.53	-34.5	-36.1	23.8	0.00e+00	0	39	0	2191523840	40	4367
2026-01-18 12:55:53.26	287.35	39.45	-34.5	-36.1	23.8	0.00e+00	0	39	0	2194669568	40	4355
2026-01-18 12:55:54.54	287.87	39.31	-34.3	-35.9	24.0	0.00e+00	0	39	0	2202009600	40	4265
2026-01-18 12:55:55.25	288.17	39.23	-34.3	-35.9	23.9	0.00e+00	0	39	0	2206203904	40	4267
2026-01-18 12:55:56.53	288.69	39.08	-34.3	-36.0	23.9	0.00e+00	0	39	0	2213543936	40	4301
2026-01-18 12:55:57.24	288.98	39.00	-34.3	-36.0	23.9	0.00e+00	0	39	0	2217738240	40	4296
2026-01-18 12:55:58.52	289.49	38.86	-34.5	-36.1	23.8	0.00e+00	0	39	0	2224029696	40	4362
2026-01-18 12:55:59.24	289.78	38.77	-34.5	-36.1	23.7	0.00e+00	0	39	0	2228224000	40	4388
2026-01-18 12:56:00.74	290.38	38.60	-34.5	-36.2	23.7	0.00e+00	0	39	0	2237661184	40	4397
2026-01-18 12:56:01.45	290.66	38.51	-34.5	-36.1	23.8	0.00e+00	0	39	0	2240806912	40	4369
2026-01-18 12:56:02.73	291.16	38.36	-34.5	-36.2	23.7	0.00e+00	0	39	0	2248146944	40	4398
2026-01-18 12:56:03.46	291.44	38.27	-34.6	-36.3	23.6	0.00e+00	0	39	0	2252341248	40	4449
2026-01-18 12:56:04.73	291.93	38.12	-34.7	-36.3	23.6	0.00e+00	0	39	0	2259681280	40	4483
2026-01-18 12:56:05.46	292.21	38.03	-34.7	-36.3	23.6	0.00e+00	0	39	0	2263875584	40	4481
2026-01-18 12:56:06.74	292.69	37.87	-34.6	-36.2	23.7	0.00e+00	0	39	0	2271215616	40	4433
2026-01-18 12:56:07.47	292.97	37.78	-34.6	-36.2	23.7	0.00e+00	0	39	0	2274361344	40	4410
2026-01-18 12:56:08.74	293.44	37.62	-34.6	-36.3	23.7	0.00e+00	0	39	0	2281701376	40	4442
2026-01-18 12:56:09.47	293.71	37.53	-34.5	-36.1	23.6	0.00e+00	0	39	0	2285895680	40	4388
2026-01-18 12:56:10.75	294.18	37.36	-34.3	-36.0	23.9	0.00e+00	0	39	0	2293235712	40	4296
2026-01-18 12:56:11.48	294.45	37.27	-34.2	-35.8	24.1	0.00e+00	0	39	0	2297430016	40	4207
2026-01-18 12:56:12.76	294.91	37.10	-34.0	-35.6	24.2	0.00e+00	0	39	0	2304770048	40	4107
2026-01-18 12:56:13.47	295.17	37.01	-34.1	-35.7	24.1	0.00e+00	0	39	0	2308964352	40	4154
2026-01-18 12:56:14.74	295.62	36.85	-34.2	-35.8	24.0	0.00e+00	0	39	0	2316304384	40	4215
2026-01-18 12:56:15.47	295.88	36.75	-34.4	-36.0	23.9	0.00e+00	0	39	0	2319450112	40	4322
2026-01-18 12:56:16.75	296.33	36.58	-34.6	-36.2	23.7	0.00e+00	0	39	0	2326790144	40	4427
2026-01-18 12:56:17.65	296.64	36.46	-34.7	-36.3	23.6	0.00e+00	0	39	0	2332033024	40	4478
2026-01-18 12:56:19.07	297.13	36.28	-34.7	-36.3	23.5	0.00e+00	0	39	0	2340421632	40	4493
2026-01-18 12:56:19.78	297.37	36.18	-34.5	-36.1	23.7	0.00e+00	0	39	0	2344615936	40	4375
2026-01-18 12:56:21.06	297.81	36.01	-34.2	-35.8	24.0	0.00e+00	0	39	0	2350907392	40	4212
2026-01-18 12:56:21.77	298.05	35.91	-34.2	-35.8	24.0	0.00e+00	0	39	0	2355101696	40	4206
2026-01-18 12:56:23.05	298.47	35.74	-34.3	-35.9	24.0	0.00e+00	0	39	0	2362441728	40	4260
2026-01-18 12:56:23.78	298.72	35.64	-34.3	-35.9	24.0	0.00e+00	0	39	0	2366636032	40	4258
2026-01-18 12:56:25.06	299.14	35.47	-34.2	-35.8	24.0	0.00e+00	0	39	0	2373976064	40	4215
2026-01-18 12:56:25.78	299.37	35.37	-34.2	-35.8	24.0	0.00e+00	0	39	0	2378170368	40	4235
2026-01-18 12:56:27.06	299.78	35.20	-34.3	-35.9	24.0	0.00e+00	0	39	0	2385510400	40	4260
2026-01-18 12:56:27.77	300.01	35.10	-34.3	-35.9	23.9	0.00e+00	0	39	0	2389704704	40	4286
2026-01-18 12:56:29.05	300.42	34.92	-34.5	-36.1	23.8	0.00e+00	0	39	0	2395996160	40	4360
2026-01-18 12:56:29.77	300.64	34.82	-34.5	-36.1	23.7	0.00e+00	0	39	0	2400190464	40	4387
2026-01-18 12:56:31.04	301.04	34.65	-34.5	-36.2	23.7	0.00e+00	0	39	0	2407530496	40	4393
2026-01-18 12:56:31.75	301.26	34.55	-34.6	-36.3	23.6	0.00e+00	0	39	0	2411724800	40	4450
2026-01-18 12:56:33.14	301.69	34.36	-34.8	-36.5	23.5	0.00e+00	0	39	0	2419064832	40	4547
2026-01-18 12:56:33.85	301.90	34.26	-34.9	-36.5	23.4	0.00e+00	0	39	0	2423259136	40	4586
2026-01-18 12:56:35.13	302.29	34.08	-34.9	-36.6	23.3	0.00e+00	0	39	0	2430599168	40	4619
2026-01-18 12:56:35.86	302.51	33.98	-34.8	-36.5	23.4	0.00e+00	0	39	0	2434793472	40	4552
2026-01-18 12:56:37.25	302.92	33.78	-34.7	-36.3	23.5	0.00e+00	0	39	0	2442133504	40	4484
2026-01-18 12:56:37.96	303.13	33.68	-34.7	-36.3	23.6	0.00e+00	0	39	0	2446327808	40	4482
2026-01-18 12:56:39.24	303.50	33.50	-34.6	-36.3	23.6	0.00e+00	0	39	0	2453667840	40	4462
2026-01-18 12:56:39.96	303.71	33.40	-34.6	-36.3	23.6	0.00e+00	0	39	0	2457862144	40	4456
2026-01-18 12:56:41.24	304.08	33.22	-34.6	-36.3	23.6	0.00e+00	0	39	0	2465202176	40	4442
2026-01-18 12:56:41.97	304.28	33.12	-34.6	-36.2	23.6	0.00e+00	0	39	0	2469396480	40	4441
2026-01-18 12:56:43.24	304.64	32.94	-34.6	-36.2	23.7	0.00e+00	0	39	0	2476736512	40	4410
2026-01-18 12:56:43.97	304.84	32.84	-34.6	-36.3	23.6	0.00e+00	0	39	0	2479882240	40	4444
2026-01-18 12:56:45.25	305.20	32.66	-34.6	-36.2	23.6	0.00e+00	0	39	0	2487222272	40	4437
2026-01-18 12:56:45.97	305.40	32.56	-34.6	-36.2	23.6	0.00e+00	0	39	0	2491416576	40	4419
2026-01-18 12:56:47.25	305.74	32.38	-34.6	-36.3	23.6	0.00e+00	0	39	0	2498756608	40	4447
2026-01-18 12:56:47.98	305.94	32.27	-34.7	-36.3	23.5	0.00e+00	0	39	0	2502950912	40	4474
2026-01-18 12:56:49.26	306.28	32.09	-34.8	-36.4	23.5	0.00e+00	0	39	0	2510290944	40	4528
2026-01-18 12:56:49.98	306.47	31.99	-34.9	-36.5	23.4	0.00e+00	0	39	0	2514485248	40	4574
2026-01-18 12:56:51.26	306.81	31.81	-35.0	-36.6	23.3	0.00e+00	0	39	0	2520776704	40	4647
2026-01-18 12:56:51.97	307.00	31.71	-35.0	-36.6	23.3	0.00e+00	0	39	0	2524971008	40	4640
2026-01-18 12:56:53.25	307.33	31.53	-34.9	-36.5	23.4	0.00e+00	0	39	0	2532311040	40	4594
2026-01-18 12:56:53.96	307.51	31.43	-34.9	-36.6	23.4	0.00e+00	0	39	0	2536505344	40	4599
2026-01-18 12:56:55.24	307.83	31.25	-34.8	-36.5	23.4	0.00e+00	0	39	0	2543845376	40	4558
2026-01-18 12:56:55.96	308.02	31.15	-34.9	-36.6	23.4	0.00e+00	0	39	0	2548039680	40	4604
2026-01-18 12:56:57.24	308.33	30.97	-34.8	-36.4	23.5	0.00e+00	0	39	0	2555379712	40	4535
2026-01-18 12:56:57.95	308.51	30.87	-34.8	-36.4	23.5	0.00e+00	0	39	0	2558525440	40	4542
2026-01-18 12:56:59.23	308.83	30.69	-35.0	-36.6	23.3	0.00e+00	0	39	0	2565865472	40	4639
2026-01-18 12:56:59.96	309.00	30.59	-35.0	-36.7	23.2	0.00e+00	0	39	0	2570059776	40	4678
2026-01-18 12:57:01.23	309.31	30.41	-35.2	-36.9	22.9	0.00e+00	0	39	0	2577399808	41	4514
2026-01-18 12:57:01.97	309.49	30.31	-35.2	-36.9	23.1	0.00e+00	0	39	0	2581594112	41	4520
2026-01-18 12:57:03.26	309.79	30.13	-35.4	-37.1	22.9	0.00e+00	0	39	0	2588934144	41	4600
2026-01-18 12:57:03.98	309.96	30.03	-35.3	-37.0	23.0	0.00e+00	0	39	0	2593128448	41	4572
2026-01-18 12:57:05.26	310.26	29.85	-35.2	-36.9	23.1	0.00e+00	0	39	0	2600468480	41	4504
2026-01-18 12:57:05.98	310.43	29.75	-35.2	-36.9	23.0	0.00e+00	0	39	0	2604662784	41	4522
2026-01-18 12:57:07.26	310.72	29.57	-35.1	-36.7	23.2	0.00e+00	0	39	0	2610954240	41	4440
2026-01-18 12:57:07.99	310.89	29.47	-35.0	-36.6	23.3	0.00e+00	0	39	0	2615148544	41	4390
2026-01-18 12:57:09.27	311.18	29.29	-35.0	-36.6	23.3	0.00e+00	0	39	0	2622488576	41	4383
2026-01-18 12:57:10.07	311.35	29.18	-35.1	-36.7	23.2	0.00e+00	0	39	0	2626682880	41	4423
2026-01-18 12:57:11.51	311.67	28.98	-35.1	-36.8	23.2	0.00e+00	0	39	0	2635071488	41	4463
2026-01-18 12:57:12.22	311.83	28.88	-35.1	-36.8	23.1	0.00e+00	0	39	0	2639265792	41	4467
2026-01-18 12:57:13.50	312.11	28.71	-35.2	-36.9	23.1	0.00e+00	0	39	0	2646605824	41	4498
2026-01-18 12:57:14.21	312.26	28.61	-35.1	-36.8	23.1	0.00e+00	0	39	0	2650800128	41	4472
2026-01-18 12:57:15.49	312.54	28.44	-35.2	-36.8	23.1	0.00e+00	0	39	0	2658140160	41	4480
2026-01-18 12:57:16.20	312.69	28.34	-35.1	-36.8	23.2	0.00e+00	0	39	0	2661285888	41	4473
2026-01-18 12:57:17.48	312.96	28.16	-35.1	-36.8	23.1	0.00e+00	0	39	0	2668625920	41	4467
2026-01-18 12:57:18.18	313.10	28.07	-35.1	-36.8	23.1	0.00e+00	0	39	0	2672820224	41	4469
2026-01-18 12:57:19.48	313.37	27.89	-35.1	-36.8	23.1	0.00e+00	0	39	0	2680160256	41	4474
2026-01-18 12:57:20.19	313.52	27.79	-35.1	-36.7	23.2	0.00e+00	0	39	0	2684354560	41	4432
2026-01-18 12:57:21.53	313.79	27.61	-34.9	-36.6	23.3	0.00e+00	0	39	0	2691694592	41	4364
2026-01-18 12:57:22.24	313.93	27.52	-34.9	-36.6	23.3	0.00e+00	0	39	0	2695888896	41	4362
2026-01-18 12:57:23.57	314.20	27.34	-35.1	-36.8	23.2	0.00e+00	0	39	0	2703228928	41	4457
2026-01-18 12:57:24.28	314.34	27.24	-35.1	-36.8	23.2	0.00e+00	0	39	0	2707423232	41	4461
2026-01-18 12:57:25.64	314.61	27.06	-35.2	-36.9	23.1	0.00e+00	0	39	0	2714763264	41	4513
2026-01-18 12:57:26.35	314.75	26.96	-35.2	-37.0	23.0	0.00e+00	0	39	0	2718957568	41	4556
2026-01-18 12:57:27.63	314.99	26.79	-35.2	-36.9	23.0	0.00e+00	0	39	0	2726297600	41	4512
2026-01-18 12:57:28.68	315.19	26.65	-35.1	-36.8	23.1	0.00e+00	0	39	0	2731540480	41	4457
2026-01-18 12:57:29.84	315.41	26.50	-35.2	-36.8	23.1	0.00e+00	0	39	0	2737831936	41	4479
2026-01-18 12:57:30.69	315.57	26.39	-35.0	-36.7	23.2	0.00e+00	0	39	0	2743074816	41	4395
2026-01-18 12:57:31.83	315.79	26.24	-35.0	-36.6	23.2	0.00e+00	0	39	0	2749366272	41	4375
2026-01-18 12:57:32.68	315.95	26.12	-35.0	-36.7	23.2	0.00e+00	0	39	0	2754609152	41	4399
2026-01-18 12:57:33.82	316.16	25.98	-35.1	-36.7	23.2	0.00e+00	0	39	0	2760900608	41	4411
2026-01-18 12:57:34.67	316.31	25.86	-35.1	-36.8	23.1	0.00e+00	0	39	0	2766143488	41	4470
2026-01-18 12:57:35.81	316.52	25.71	-35.2	-36.9	23.0	0.00e+00	0	39	0	2771386368	41	4529
2026-01-18 12:57:36.66	316.67	25.60	-35.3	-37.0	23.0	0.00e+00	0	39	0	2776629248	41	4564
2026-01-18 12:57:37.88	316.89	25.45	-35.4	-37.1	22.8	0.00e+00	0	39	0	2783969280	41	4649
2026-01-18 12:57:38.73	317.04	25.33	-35.5	-37.2	22.7	0.00e+00	0	39	0	2788163584	41	4686
2026-01-18 12:57:39.87	317.24	25.19	-35.5	-37.2	22.7	0.00e+00	0	39	0	2794455040	41	4694
2026-01-18 12:57:40.72	317.38	25.08	-35.5	-37.2	22.8	0.00e+00	0	39	0	2799697920	41	4665
2026-01-18 12:57:41.86	317.58	24.93	-35.4	-37.1	22.8	0.00e+00	0	39	0	2805989376	41	4646
2026-01-18 12:57:42.71	317.73	24.82	-35.4	-37.1	22.8	0.00e+00	0	39	0	2810183680	41	4622
2026-01-18 12:57:43.85	317.92	24.68	-35.4	-37.1	22.8	0.00e+00	0	39	0	2817523712	41	4616
2026-01-18 12:57:44.79	318.08	24.56	-35.3	-37.0	22.9	0.00e+00	0	39	0	2822766592	41	4589
2026-01-18 12:57:45.96	318.27	24.41	-35.3	-37.0	22.9	0.00e+00	0	39	0	2829058048	41	4593
2026-01-18 12:57:46.85	318.42	24.30	-35.3	-37.0	22.9	0.00e+00	0	39	0	2834300928	41	4590
2026-01-18 12:57:47.99	318.61	24.15	-35.4	-37.1	22.8	0.00e+00	0	39	0	2840592384	41	4621
2026-01-18 12:57:48.84	318.75	24.04	-35.4	-37.1	22.8	0.00e+00	0	39	0	2844786688	41	4638
2026-01-18 12:57:49.97	318.93	23.90	-35.5	-37.2	22.8	0.00e+00	0	39	0	2852126720	41	4662
2026-01-18 12:57:50.83	319.07	23.79	-35.5	-37.2	22.7	0.00e+00	0	39	0	2856321024	41	4670
2026-01-18 12:57:51.96	319.25	23.65	-35.5	-37.1	22.8	0.00e+00	0	39	0	2862612480	41	4646
2026-01-18 12:57:52.81	319.38	23.55	-35.4	-37.1	22.8	0.00e+00	0	39	0	2867855360	41	4627
2026-01-18 12:57:53.95	319.56	23.41	-35.5	-37.2	22.8	0.00e+00	0	39	0	2874146816	41	4661
2026-01-18 12:57:54.80	319.69	23.30	-35.4	-37.1	22.8	0.00e+00	0	39	0	2878341120	41	4627
2026-01-18 12:57:55.94	319.87	23.16	-35.5	-37.2	22.2	0.00e+00	0	39	0	2885681152	41	4659
2026-01-18 12:57:56.79	320.00	23.06	-35.6	-37.3	22.7	0.00e+00	0	39	0	2889875456	41	4710
2026-01-18 12:57:57.99	320.18	22.91	-35.5	-37.3	22.7	0.00e+00	0	39	0	2896166912	41	4706
2026-01-18 12:57:58.84	320.31	22.81	-35.6	-37.3	22.6	0.00e+00	0	39	0	2901409792	41	4737
2026-01-18 12:57:59.98	320.48	22.67	-35.7	-37.5	22.5	0.00e+00	0	40	0	2907701248	42	4549
2026-01-18 12:58:00.83	320.61	22.56	-35.7	-37.4	22.5	0.00e+00	0	39	0	2912944128	42	4534
2026-01-18 12:58:01.97	320.77	22.43	-35.8	-37.5	22.4	0.00e+00	0	39	0	2919235584	42	4595
2026-01-18 12:58:02.82	320.90	22.32	-35.9	-37.6	22.4	0.00e+00	0	39	0	2924478464	42	4612
2026-01-18 12:58:03.96	321.06	22.19	-35.9	-37.6	22.3	0.00e+00	0	40	0	2929721344	42	4644
2026-01-18 12:58:04.81	321.19	22.08	-35.9	-37.6	22.4	0.00e+00	0	39	0	2934964224	42	4625
2026-01-18 12:58:05.95	321.35	21.95	-36.0	-37.7	22.3	0.00e+00	0	39	0	2941255680	42	4662
2026-01-18 12:58:06.80	321.47	21.85	-36.1	-37.8	22.2	0.00e+00	0	39	0	2946498560	42	4712
2026-01-18 12:58:07.94	321.63	21.71	-36.1	-37.8	22.2	0.00e+00	0	39	0	2952790016	42	4714
2026-01-18 12:58:08.79	321.75	21.61	-36.1	-37.8	22.2	0.00e+00	0	39	0	2956984320	42	4740
2026-01-18 12:58:09.93	321.91	21.48	-35.9	-37.7	22.3	0.00e+00	0	39	0	2964324352	42	4654
2026-01-18 12:58:10.78	322.03	21.38	-36.0	-37.7	22.3	0.00e+00	0	39	0	2968518656	42	4683
2026-01-18 12:58:11.92	322.18	21.24	-36.0	-37.8	22.3	0.00e+00	0	39	0	2974810112	42	4706
2026-01-18 12:58:12.77	322.30	21.15	-36.1	-37.8	22.2	0.00e+00	0	39	0	2980052992	42	4730
2026-01-18 12:58:13.91	322.45	21.01	-36.2	-37.9	22.1	0.00e+00	0	39	0	2986344448	42	4778
2026-01-18 12:58:14.76	322.57	20.91	-36.3	-38.0	22.0	0.00e+00	0	39	0	2990538752	43	4588
2026-01-18 12:58:16.12	322.75	20.76	-36.3	-38.0	21.7	0.00e+00	0	39	0	2998927360	43	4565
2026-01-18 12:58:16.83	322.84	20.68	-36.3	-38.0	22.0	0.00e+00	0	39	0	3003121664	43	4581
2026-01-18 12:58:18.10	323.01	20.53	-36.3	-38.0	22.0	0.00e+00	0	39	0	3009413120	43	4598
2026-01-18 12:58:18.83	323.10	20.45	-36.3	-38.0	22.0	0.00e+00	0	39	0	3013607424	43	4569
2026-01-18 12:58:20.11	323.27	20.30	-36.3	-38.0	22.0	0.00e+00	0	39	0	3020947456	43	4578
2026-01-18 12:58:20.85	323.36	20.22	-36.3	-38.0	22.0	0.00e+00	0	39	0	3025141760	43	4579
2026-01-18 12:58:22.12	323.52	20.07	-36.3	-38.0	22.0	0.00e+00	0	39	0	3032481792	43	4598
2026-01-18 12:58:22.85	323.62	19.99	-36.4	-38.1	21.9	0.00e+00	0	39	0	3036676096	43	4640
2026-01-18 12:58:24.13	323.78	19.85	-36.4	-38.1	21.9	0.00e+00	0	39	0	3044016128	43	4644
2026-01-18 12:58:24.86	323.87	19.76	-36.4	-38.2	21.8	0.00e+00	0	39	0	3048210432	43	4661
2026-01-18 12:58:26.13	324.03	19.62	-36.5	-38.2	21.8	0.00e+00	0	39	0	3054501888	43	4696
2026-01-18 12:58:26.84	324.11	19.54	-36.5	-38.3	21.7	0.00e+00	0	39	0	3058696192	43	4734
2026-01-18 12:58:28.12	324.27	19.40	-36.6	-38.4	21.6	0.00e+00	0	39	0	3066036224	43	4807
2026-01-18 12:58:28.86	324.36	19.32	-36.9	-38.6	21.6	0.00e+00	0	39	0	3070230528	44	4649
2026-01-18 12:58:30.14	324.51	19.18	-37.0	-38.8	21.5	0.00e+00	0	39	0	3077570560	44	4715
2026-01-18 12:58:30.87	324.60	19.10	-37.0	-38.8	21.4	0.00e+00	0	40	0	3081764864	44	4755
2026-01-18 12:58:32.16	324.75	18.96	-37.0	-38.8	21.4	0.00e+00	0	39	0	3089104896	44	4744
2026-01-18 12:58:32.88	324.84	18.88	-37.1	-38.9	21.3	0.00e+00	0	39	0	3093299200	44	4775
2026-01-18 12:58:34.15	324.99	18.74	-37.2	-38.9	21.3	0.00e+00	0	39	0	3099590656	45	4544
2026-01-18 12:58:35.23	325.11	18.62	-37.1	-38.9	21.4	0.00e+00	0	39	0	3105882112	45	4501
2026-01-18 12:58:36.08	325.21	18.53	-37.0	-38.7	21.5	0.00e+00	0	39	0	3111124992	45	4440
2026-01-18 12:58:37.22	325.34	18.41	-37.0	-38.8	21.4	0.00e+00	0	39	0	3117416448	45	4446
2026-01-18 12:58:38.07	325.44	18.32	-37.1	-38.9	21.3	0.00e+00	0	39	0	3121610752	45	4502
2026-01-18 12:58:39.21	325.57	18.20	-36.9	-38.7	21.5	0.00e+00	0	39	0	3128950784	45	4417
2026-01-18 12:58:40.06	325.66	18.11	-36.9	-38.7	21.5	0.00e+00	0	39	0	3133145088	45	4408
2026-01-18 12:58:41.20	325.79	17.99	-37.0	-38.8	21.4	0.00e+00	0	39	0	3139436544	45	4443
2026-01-18 12:58:42.05	325.88	17.90	-36.9	-38.7	21.5	0.00e+00	0	39	0	3144679424	45	4414
2026-01-18 12:58:43.19	326.01	17.78	-36.9	-38.7	21.5	0.00e+00	0	39	0	3150970880	45	4408
2026-01-18 12:58:44.04	326.10	17.69	-36.9	-38.7	21.4	0.00e+00	0	39	0	3156213760	45	4430
2026-01-18 12:58:45.18	326.22	17.57	-36.9	-38.7	21.4	0.00e+00	0	39	0	3162505216	45	4409
2026-01-18 12:58:46.14	326.33	17.47	-36.9	-38.7	21.4	0.00e+00	0	39	0	3167748096	45	4424
2026-01-18 12:58:47.14	326.44	17.36	-37.0	-38.8	21.4	0.00e+00	0	39	0	3172990976	45	4445
2026-01-18 12:58:48.34	326.56	17.24	-37.0	-38.8	21.3	0.00e+00	0	39	0	3180331008	45	4488
2026-01-18 12:58:49.22	326.66	17.15	-37.0	-38.8	21.4	0.00e+00	0	39	0	3184525312	45	4466
2026-01-18 12:58:50.36	326.78	17.03	-37.0	-38.8	21.4	0.00e+00	0	40	0	3190816768	45	4452
2026-01-18 12:58:51.21	326.86	16.94	-37.0	-38.8	21.4	0.00e+00	0	39	0	3196059648	45	4458
2026-01-18 12:58:52.35	326.98	16.83	-37.1	-38.8	21.3	0.00e+00	0	39	0	3202351104	45	4492
2026-01-18 12:58:53.20	327.07	16.74	-37.2	-39.0	21.2	0.00e+00	0	39	0	3207593984	45	4577
2026-01-18 12:58:54.34	327.19	16.63	-37.4	-39.2	21.0	0.00e+00	0	39	0	3213885440	45	4663
2026-01-18 12:58:55.19	327.27	16.54	-37.4	-39.2	21.0	0.00e+00	0	40	0	3218079744	45	4661
2026-01-18 12:58:56.32	327.39	16.43	-37.3	-39.2	21.0	0.00e+00	0	39	0	3225419776	45	4652
2026-01-18 12:58:57.18	327.47	16.34	-37.4	-39.2	21.0	0.00e+00	0	39	0	3229614080	45	4678
2026-01-18 12:58:58.32	327.59	16.22	-37.4	-39.2	20.9	0.00e+00	0	39	0	3235905536	45	4700
2026-01-18 12:58:59.17	327.67	16.14	-37.5	-39.3	20.8	0.00e+00	0	40	0	3241148416	45	4759
2026-01-18 12:59:00.31	327.78	16.03	-37.5	-39.4	20.8	0.00e+00	0	40	0	3247439872	45	4769
2026-01-18 12:59:01.16	327.87	15.94	-37.5	-39.4	20.8	0.00e+00	0	40	0	3251634176	45	4769
2026-01-18 12:59:02.30	327.98	15.83	-37.6	-39.5	20.7	0.00e+00	0	39	0	3257925632	45	4819
2026-01-18 12:59:03.15	328.06	15.75	-37.7	-39.6	20.6	0.00e+00	0	39	0	3263168512	46	4618
2026-01-18 12:59:04.29	328.17	15.63	-37.8	-39.6	20.6	0.00e+00	0	39	0	3269459968	46	4640
2026-01-18 12:59:05.14	328.25	15.55	-37.8	-39.7	20.6	0.00e+00	0	39	0	3274702848	46	4659
2026-01-18 12:59:06.28	328.36	15.44	-37.7	-39.6	20.6	0.00e+00	0	40	0	3280994304	46	4615
2026-01-18 12:59:07.13	328.44	15.36	-37.8	-39.7	20.5	0.00e+00	0	40	0	3285188608	46	4666
2026-01-18 12:59:08.27	328.54	15.25	-37.8	-39.6	20.6	0.00e+00	0	39	0	3291480064	46	4637
2026-01-18 12:59:09.12	328.62	15.16	-37.8	-39.7	20.5	0.00e+00	0	39	0	3296722944	46	4653
2026-01-18 12:59:10.26	328.73	15.05	-37.9	-39.7	20.5	0.00e+00	0	39	0	3303014400	46	4667
2026-01-18 12:59:11.11	328.81	14.97	-38.0	-39.8	20.4	0.00e+00	0	39	0	3308257280	46	4745
2026-01-18 12:59:12.24	328.91	14.87	-37.9	-39.7	20.5	0.00e+00	0	39	0	3314548736	46	4685
2026-01-18 12:59:13.10	328.99	14.78	-37.9	-39.7	20.5	0.00e+00	0	40	0	3318743040	46	4683
2026-01-18 12:59:14.58	329.12	14.64	-38.1	-39.9	20.3	0.00e+00	0	40	0	3327131648	46	4782
2026-01-18 12:59:15.29	329.19	14.58	-38.0	-39.9	20.3	0.00e+00	0	39	0	3331325952	46	4763
2026-01-18 12:59:16.57	329.30	14.45	-37.9	-39.8	20.4	0.00e+00	0	39	0	3338665984	46	4709
2026-01-18 12:59:17.30	329.36	14.39	-38.0	-39.9	20.3	0.00e+00	0	39	0	3342860288	46	4767
2026-01-18 12:59:18.57	329.48	14.27	-38.1	-40.0	20.2	0.00e+00	0	39	0	3350200320	46	4830
2026-01-18 12:59:19.28	329.54	14.20	-38.1	-39.9	20.3	0.00e+00	0	39	0	3354394624	46	4773
2026-01-18 12:59:20.57	329.65	14.08	-38.1	-39.9	20.3	0.00e+00	0	39	0	3360686080	46	4786
2026-01-18 12:59:21.29	329.71	14.01	-38.1	-39.9	20.3	0.00e+00	0	40	0	3364880384	46	4791
2026-01-18 12:59:22.57	329.82	13.90	-38.0	-39.8	20.3	0.00e+00	0	39	0	3372220416	46	4751
2026-01-18 12:59:23.31	329.89	13.83	-38.2	-40.0	20.2	0.00e+00	0	39	0	3376414720	47	4570
2026-01-18 12:59:24.59	329.99	13.71	-38.3	-40.1	20.1	0.00e+00	0	40	0	3383754752	47	4627
2026-01-18 12:59:25.50	330.07	13.63	-38.3	-40.1	20.1	0.00e+00	0	40	0	3388997632	47	4641
2026-01-18 12:59:26.53	330.16	13.53	-38.1	-40.0	20.2	0.00e+00	0	39	0	3395289088	47	4561
2026-01-18 12:59:27.52	330.24	13.44	-38.3	-40.2	20.0	0.00e+00	0	39	0	3400531968	47	4652
2026-01-18 12:59:28.52	330.32	13.35	-38.1	-40.0	20.2	0.00e+00	0	39	0	3405774848	47	4547
2026-01-18 12:59:29.51	330.40	13.26	-38.3	-40.2	20.0	0.00e+00	0	39	0	3411017728	47	4653
2026-01-18 12:59:30.50	330.49	13.17	-38.2	-40.1	20.1	0.00e+00	0	39	0	3417309184	47	4613
2026-01-18 12:59:31.50	330.57	13.08	-38.3	-40.2	20.0	0.00e+00	0	39	0	3422552064	47	4683
2026-01-18 12:59:32.49	330.65	12.99	-38.1	-40.0	20.2	0.00e+00	0	40	0	3427794944	47	4575
2026-01-18 12:59:33.49	330.73	12.91	-38.3	-40.2	20.0	0.00e+00	0	39	0	3434086400	47	4654
2026-01-18 12:59:34.48	330.81	12.82	-38.3	-40.2	20.0	0.00e+00	0	39	0	3439329280	47	4684
2026-01-18 12:59:35.47	330.89	12.73	-38.4	-40.3	19.9	0.00e+00	0	40	0	3445620736	47	4757
2026-01-18 12:59:36.47	330.97	12.64	-38.4	-40.3	19.9	0.00e+00	0	39	0	3450863616	47	4738
2026-01-18 12:59:37.46	331.04	12.55	-38.5	-40.4	19.8	0.00e+00	0	39	0	3456106496	47	4775
2026-01-18 12:59:38.46	331.12	12.47	-38.4	-40.3	19.9	0.00e+00	0	39	0	3461349376	47	4719
2026-01-18 12:59:39.45	331.20	12.38	-38.6	-40.5	19.7	0.00e+00	0	40	0	3467640832	47	4843
2026-01-18 12:59:40.45	331.28	12.29	-38.4	-40.3	19.9	0.00e+00	0	40	0	3472883712	47	4723
2026-01-18 12:59:41.44	331.35	12.21	-38.6	-40.4	19.8	0.00e+00	0	40	0	3478126592	47	4803
2026-01-18 12:59:42.44	331.43	12.12	-38.5	-40.3	19.8	0.00e+00	0	40	0	3484418048	47	4747
2026-01-18 12:59:43.43	331.50	12.03	-38.5	-40.4	19.8	0.00e+00	0	40	0	3489660928	47	4780
2026-01-18 12:59:44.43	331.58	11.95	-38.5	-40.4	19.8	0.00e+00	0	40	0	3495952384	47	4788
2026-01-18 12:59:45.42	331.65	11.86	-38.6	-40.5	19.7	0.00e+00	0	40	0	3501195264	47	4819
2026-01-18 12:59:46.42	331.73	11.78	-38.5	-40.4	19.7	0.00e+00	0	39	0	3506438144	47	4809
2026-01-18 12:59:47.41	331.80	11.69	-38.6	-40.5	19.7	0.00e+00	0	40	0	3511681024	47	4830
2026-01-18 12:59:48.41	331.88	11.61	-38.6	-40.5	19.7	0.00e+00	0	39	0	3517972480	47	4823
2026-01-18 12:59:49.40	331.95	11.52	-38.7	-40.6	19.6	0.00e+00	0	39	0	3523215360	47	4882
2026-01-18 12:59:50.41	332.02	11.44	-38.6	-40.5	19.7	0.00e+00	0	39	0	3528458240	47	4857
2026-01-18 12:59:51.41	332.10	11.35	-38.8	-40.7	19.6	0.00e+00	0	40	0	3534749696	48	4693
2026-01-18 12:59:52.47	332.17	11.26	-38.8	-40.7	19.7	0.00e+00	0	39	0	3539992576	48	4702
2026-01-18 12:59:53.34	332.24	11.19	-39.1	-41.0	19.4	0.00e+00	0	39	0	3545235456	48	4849
2026-01-18 12:59:54.68	332.33	11.08	-39.0	-40.9	19.5	0.00e+00	0	40	0	3553624064	49	4522
2026-01-18 12:59:55.39	332.38	11.02	-38.9	-40.8	19.6	0.00e+00	0	39	0	3556769792	49	4457
2026-01-18 12:59:56.68	332.48	10.91	-39.0	-41.0	19.4	0.00e+00	0	39	0	3564109824	49	4563
2026-01-18 12:59:57.40	332.53	10.85	-39.0	-40.9	19.5	0.00e+00	0	39	0	3568304128	49	4517
2026-01-18 12:59:58.68	332.62	10.75	-39.0	-41.0	19.4	0.00e+00	0	39	0	3575644160	49	4562
2026-01-18 12:59:59.39	332.67	10.69	-39.1	-41.1	19.3	0.00e+00	0	39	0	3579838464	49	4602
2026-01-18 13:00:00.67	332.75	10.58	-39.2	-41.1	19.2	0.00e+00	0	39	0	3587178496	49	4633
2026-01-18 13:00:01.38	332.80	10.52	-39.4	-41.4	19.0	0.00e+00	0	40	0	3590324224	49	4798
2026-01-18 13:00:02.66	332.89	10.42	-39.1	-41.0	19.3	0.00e+00	0	39	0	3597664256	49	4576
2026-01-18 13:00:03.37	332.94	10.36	-39.0	-40.9	19.4	0.00e+00	0	40	0	3601858560	49	4529
2026-01-18 13:00:04.65	333.03	10.26	-39.0	-40.9	19.4	0.00e+00	0	40	0	3609198592	49	4541
2026-01-18 13:00:05.37	333.08	10.20	-39.0	-40.9	19.4	0.00e+00	0	40	0	3613392896	49	4538
2026-01-18 13:00:06.65	333.16	10.09	-38.9	-40.9	19.5	0.00e+00	0	39	0	3620732928	49	4497
2026-01-18 13:00:07.38	333.21	10.04	-39.0	-40.9	19.4	0.00e+00	0	40	0	3624927232	49	4537
2026-01-18 13:00:08.66	333.30	9.93	-39.0	-40.9	19.4	0.00e+00	0	39	0	3631218688	49	4514
2026-01-18 13:00:09.37	333.34	9.88	-39.0	-40.9	19.4	0.00e+00	0	39	0	3635412992	49	4521
2026-01-18 13:00:10.76	333.43	9.77	-39.1	-41.1	19.2	0.00e+00	0	40	0	3643801600	49	4631
2026-01-18 13:00:11.47	333.48	9.71	-39.1	-41.0	19.3	0.00e+00	0	40	0	3646947328	49	4591
2026-01-18 13:00:12.76	333.57	9.61	-39.0	-40.9	19.4	0.00e+00	0	40	0	3654287360	49	4514
2026-01-18 13:00:13.47	333.61	9.55	-39.0	-40.9	19.4	0.00e+00	0	40	0	3658481664	49	4510
2026-01-18 13:00:14.75	333.69	9.45	-39.2	-41.1	19.1	0.00e+00	0	40	0	3665821696	49	4647
2026-01-18 13:00:15.48	333.74	9.39	-39.1	-41.1	19.2	0.00e+00	0	40	0	3670016000	49	4608
2026-01-18 13:00:16.76	333.82	9.29	-39.4	-41.4	19.0	0.00e+00	0	40	0	3677356032	49	4767
2026-01-18 13:00:17.50	333.87	9.23	-39.2	-41.1	19.1	0.00e+00	0	40	0	3681550336	49	4642
2026-01-18 13:00:18.78	333.95	9.13	-39.3	-41.2	19.1	0.00e+00	0	40	0	3688890368	49	4675
2026-01-18 13:00:19.50	334.00	9.08	-39.5	-41.5	18.8	0.00e+00	0	40	0	3693084672	49	4835
2026-01-18 13:00:20.78	334.08	8.98	-43.8	-46.9	14.0	0.00e+00	0	39	0	3700424704	58	5346
2026-01-18 13:00:21.49	334.12	8.92	-49.0	-61.6	3.8	8.46e-01	0	40	104	3700424704	68	16357
2026-01-18 13:00:22.77	334.20	8.82	-49.4	-61.8	3.8	8.46e-01	0	39	104	3700424704	69	15796
2026-01-18 13:00:23.49	334.25	8.77	-49.4	-62.0	3.8	8.47e-01	0	40	104	3700424704	70	15399
2026-01-18 13:00:24.77	334.32	8.67	-49.6	-62.2	3.8	8.48e-01	0	40	104	3700424704	69	16534
2026-01-18 13:00:25.48	334.37	8.62	-49.3	-62.2	3.8	8.47e-01	0	39	104	3700424704	69	16601
2026-01-18 13:00:26.76	334.45	8.52	-49.5	-62.3	3.8	8.46e-01	0	40	104	3700424704	70	15821
2026-01-18 13:00:27.47	334.49	8.46	-49.7	-62.3	3.8	8.47e-01	0	40	104	3700424704	70	15845
2026-01-18 13:00:28.76	334.57	8.37	-49.8	-62.4	3.8	8.46e-01	0	40	104	3700424704	70	15972
2026-01-18 13:00:29.47	334.61	8.31	-49.3	-62.4	3.8	8.47e-01	0	39	104	3700424704	69	16906
2026-01-18 13:00:30.75	334.69	8.22	-50.0	-62.4	3.8	8.47e-01	0	39	104	3700424704	70	16037
2026-01-18 13:00:31.46	334.73	8.16	-50.0	-62.4	3.8	8.47e-01	0	40	104	3700424704	70	16010
2026-01-18 13:00:32.83	334.81	8.06	-49.9	-62.4	3.8	8.47e-01	0	40	104	3700424704	71	15079
2026-01-18 13:00:33.54	334.85	8.01	-49.8	-62.4	3.8	8.47e-01	0	40	104	3700424704	71	15086
2026-01-18 13:00:34.82	334.93	7.91	-50.1	-62.4	3.8	8.46e-01	0	40	104	3700424704	71	15123
