passes_logs/2026/01/18/T1/T1__20260118_083045_SUOMI_NPP_rec.log

#Pass ID: 20260118_083045_SUOMI NPP
#Satellite: SUOMI NPP
#Configuration: NPP
#almurnet v.1.7.20251203
#Start time: 2026-01-18 08:30:46

#Version: 2.0.20230620
#Station: T1
#Location: 37.570604 lon 55.790049 lat
#TLE: 1 37849U 11061A   26017.57099531  .00000072  00000+0  54974-4 0  9996
#TLE: 2 37849  98.7814 319.5974 0002398  59.1749 300.9663 14.19525865737072

#Time	Az	El	Level	Level2	SNR	BER	BlckErr	Temp	State	Recorded	gain1	gain2
2026-01-18 08:30:46.10	113.08	5.01	-48.1	-63.3	3.8	1.49e+00	0	38	0	0	68	20068
2026-01-18 08:30:47.09	113.01	5.08	-48.1	-63.3	3.8	1.49e+00	0	38	104	0	68	19984
2026-01-18 08:30:48.09	112.93	5.14	-48.1	-63.3	3.8	1.49e+00	0	39	104	0	68	20026
2026-01-18 08:30:49.09	112.86	5.20	-48.1	-63.4	3.8	1.49e+00	0	38	104	0	68	20112
2026-01-18 08:30:50.08	112.78	5.26	-48.1	-63.3	3.8	1.49e+00	0	38	104	0	68	20013
2026-01-18 08:30:51.08	112.71	5.33	-48.1	-63.3	3.8	1.49e+00	0	38	104	0	68	20053
2026-01-18 08:30:52.08	112.63	5.39	-48.1	-63.3	3.8	1.49e+00	0	39	104	0	68	20001
2026-01-18 08:30:53.08	112.55	5.45	-48.1	-63.3	3.8	1.49e+00	0	38	104	0	68	20032
2026-01-18 08:30:54.07	112.47	5.52	-48.1	-63.3	3.8	1.49e+00	0	39	104	0	68	19996
2026-01-18 08:30:55.07	112.40	5.58	-48.1	-63.3	3.8	1.49e+00	0	39	104	0	68	19972
2026-01-18 08:30:56.06	112.32	5.64	-48.1	-63.3	3.8	1.49e+00	0	39	104	0	68	19894
2026-01-18 08:30:57.06	112.24	5.70	-48.1	-63.2	3.8	1.49e+00	0	39	104	0	68	19828
2026-01-18 08:30:58.06	112.16	5.77	-48.1	-63.1	3.8	1.49e+00	0	39	104	0	68	19546
2026-01-18 08:30:59.06	112.08	5.83	-48.1	-63.1	3.8	1.49e+00	0	39	104	0	68	19515
2026-01-18 08:31:00.06	112.00	5.90	-48.1	-63.0	3.8	1.49e+00	0	39	104	0	68	19300
2026-01-18 08:31:01.06	111.92	5.96	-48.1	-63.0	3.8	1.49e+00	0	39	104	0	68	19369
2026-01-18 08:31:02.05	111.84	6.02	-48.1	-63.1	3.8	1.49e+00	0	39	104	0	68	19398
2026-01-18 08:31:03.05	111.76	6.09	-48.1	-63.1	3.8	1.49e+00	0	39	104	0	68	19512
2026-01-18 08:31:04.04	111.68	6.15	-48.1	-63.2	3.8	1.49e+00	0	39	104	0	68	19677
2026-01-18 08:31:05.04	111.60	6.21	-48.1	-63.3	3.8	1.49e+00	0	39	104	0	68	19843
2026-01-18 08:31:06.04	111.52	6.28	-48.1	-63.3	3.8	1.49e+00	0	39	104	0	68	19868
2026-01-18 08:31:07.04	111.43	6.34	-48.1	-63.3	3.8	1.49e+00	0	39	104	0	68	19896
2026-01-18 08:31:08.03	111.35	6.41	-48.1	-63.2	3.8	1.49e+00	0	39	104	0	68	19785
2026-01-18 08:31:09.03	111.27	6.47	-48.1	-63.2	3.8	1.49e+00	0	39	104	0	68	19626
2026-01-18 08:31:10.03	111.19	6.54	-48.1	-63.1	3.8	1.49e+00	0	39	104	0	68	19555
2026-01-18 08:31:11.02	111.10	6.60	-48.1	-63.1	3.8	1.49e+00	0	39	104	0	68	19458
2026-01-18 08:31:12.03	111.02	6.67	-48.1	-63.0	3.8	1.49e+00	0	39	104	0	68	19356
2026-01-18 08:31:13.03	110.93	6.73	-48.1	-63.0	3.8	1.49e+00	0	39	104	0	68	19274
2026-01-18 08:31:14.02	110.85	6.80	-48.1	-63.0	3.8	1.49e+00	0	39	104	0	68	19278
2026-01-18 08:31:15.02	110.76	6.86	-48.0	-63.0	3.8	1.49e+00	0	39	104	0	68	19270
2026-01-18 08:31:16.02	110.68	6.93	-48.1	-63.0	3.8	1.49e+00	0	39	104	0	68	19302
2026-01-18 08:31:17.01	110.59	6.99	-48.1	-62.9	3.8	1.49e+00	0	39	104	0	68	19152
2026-01-18 08:31:18.01	110.51	7.06	-48.1	-62.9	3.8	1.49e+00	0	39	104	0	68	19129
2026-01-18 08:31:19.00	110.42	7.12	-48.0	-62.9	3.8	1.49e+00	0	39	104	0	68	19041
2026-01-18 08:31:20.00	110.33	7.19	-48.1	-62.9	3.8	1.49e+00	0	39	104	0	68	19063
2026-01-18 08:31:21.00	110.24	7.26	-48.1	-62.9	3.8	1.49e+00	0	39	104	0	68	19149
2026-01-18 08:31:22.00	110.16	7.32	-48.1	-63.0	3.8	1.49e+00	0	40	104	0	68	19245
2026-01-18 08:31:22.99	110.07	7.39	-48.0	-63.0	3.8	1.49e+00	0	39	104	0	68	19184
2026-01-18 08:31:23.99	109.98	7.45	-48.1	-62.9	3.8	1.49e+00	0	40	104	0	68	19091
2026-01-18 08:31:24.99	109.89	7.52	-48.1	-62.8	3.8	1.49e+00	0	39	104	0	68	18926
2026-01-18 08:31:25.99	109.80	7.59	-48.0	-62.7	3.8	1.49e+00	0	40	104	0	68	18572
2026-01-18 08:31:26.98	109.71	7.65	-48.0	-62.4	3.8	1.49e+00	0	40	104	0	68	17985
2026-01-18 08:31:27.98	109.62	7.72	-48.0	-62.2	3.8	1.49e+00	0	40	104	0	68	17579
2026-01-18 08:31:28.98	109.53	7.79	-48.0	-62.3	3.8	1.49e+00	0	39	104	0	68	17714
2026-01-18 08:31:29.97	109.44	7.85	-48.0	-62.7	3.8	1.49e+00	0	40	104	0	68	18665
2026-01-18 08:31:30.97	109.35	7.92	-48.1	-62.7	3.8	1.49e+00	0	40	104	0	68	18671
2026-01-18 08:31:31.96	109.25	7.99	-47.8	-61.0	3.8	1.49e+00	0	40	104	0	67	16274
2026-01-18 08:31:32.97	109.16	8.05	-47.5	-58.2	4.7	1.23e+00	0	40	0	0	67	11727
2026-01-18 08:31:33.96	109.07	8.12	-47.2	-55.6	6.2	4.91e-01	0	40	0	2097152	66	9256
2026-01-18 08:31:34.96	108.98	8.19	-46.6	-53.3	8.4	1.42e-01	0	40	0	4194304	65	7538
2026-01-18 08:31:35.96	108.88	8.26	-45.9	-51.1	10.8	6.65e-03	0	40	0	5242880	63	6553
2026-01-18 08:31:36.96	108.79	8.32	-44.9	-49.1	12.8	4.32e-04	0	40	0	7340032	61	5806
2026-01-18 08:31:37.95	108.69	8.39	-44.1	-47.7	14.2	6.80e-06	0	40	0	9437184	60	5275
2026-01-18 08:31:38.95	108.60	8.46	-43.6	-46.9	15.1	7.00e-07	0	40	0	11534336	59	5085
2026-01-18 08:31:39.95	108.50	8.53	-43.5	-46.7	15.3	7.00e-07	0	40	0	13631488	58	5256
2026-01-18 08:31:40.95	108.40	8.59	-43.9	-47.3	14.7	0.00e+00	0	40	0	14680064	58	5614
2026-01-18 08:31:41.95	108.31	8.66	-44.3	-48.0	14.1	7.00e-07	0	40	0	16777216	59	5726
2026-01-18 08:31:42.94	108.21	8.73	-44.7	-48.6	13.4	9.10e-06	0	40	0	18874368	59	6198
2026-01-18 08:31:43.94	108.11	8.80	-45.2	-49.6	12.3	9.46e-05	0	40	0	20971520	60	6567
2026-01-18 08:31:44.94	108.01	8.87	-45.7	-50.7	11.3	4.81e-04	0	40	0	22020096	61	6988
2026-01-18 08:31:45.94	107.92	8.94	-46.3	-52.2	9.7	2.78e-03	0	40	0	24117248	63	7373
2026-01-18 08:31:46.94	107.82	9.00	-46.9	-54.2	7.6	5.95e-02	0	40	0	26214400	64	8857
2026-01-18 08:31:47.94	107.72	9.07	-44.2	-47.9	14.2	1.01e-02	0	40	0	28311552	60	5367
2026-01-18 08:31:48.94	107.62	9.14	-44.9	-49.2	12.9	8.30e-06	0	40	0	30408704	60	6204
2026-01-18 08:31:49.93	107.52	9.21	-47.9	-61.3	3.8	8.66e-01	0	40	104	31457280	66	17852
2026-01-18 08:31:50.94	107.41	9.28	-45.0	-49.2	12.9	6.80e-01	0	40	0	31457280	62	5570
2026-01-18 08:31:51.93	107.31	9.35	-47.1	-55.7	6.5	7.41e-04	0	40	0	32505856	64	10460
2026-01-18 08:31:52.93	107.21	9.42	-44.6	-48.6	13.5	1.15e-01	0	40	0	34603008	61	5501
2026-01-18 08:31:53.93	107.11	9.49	-44.5	-48.3	13.9	2.20e-06	0	40	0	36700160	60	5601
2026-01-18 08:31:54.93	107.01	9.56	-44.4	-48.2	13.9	0.00e+00	0	40	0	38797312	60	5567
2026-01-18 08:31:55.93	106.90	9.63	-44.1	-47.6	14.5	3.00e-06	0	40	0	40894464	60	5174
2026-01-18 08:31:56.92	106.80	9.70	-44.2	-47.7	14.5	0.00e+00	0	40	0	41943040	59	5569
2026-01-18 08:31:57.92	106.69	9.77	-44.3	-47.9	14.2	7.00e-07	0	40	0	44040192	59	5702
2026-01-18 08:31:58.92	106.59	9.84	-44.5	-48.4	13.8	3.80e-06	0	40	0	46137344	59	6004
2026-01-18 08:31:59.92	106.48	9.91	-44.3	-48.0	14.1	1.50e-06	0	40	0	48234496	59	5771
2026-01-18 08:32:00.91	106.38	9.98	-44.1	-47.6	14.6	0.00e+00	0	40	0	50331648	59	5497
2026-01-18 08:32:01.91	106.27	10.05	-43.7	-46.9	15.3	0.00e+00	0	40	0	51380224	59	5076
2026-01-18 08:32:02.91	106.16	10.12	-43.7	-47.0	15.2	0.00e+00	0	40	0	53477376	59	5113
2026-01-18 08:32:03.90	106.06	10.19	-43.7	-47.0	15.2	0.00e+00	0	40	0	55574528	59	5108
2026-01-18 08:32:04.90	105.95	10.26	-44.0	-47.4	14.8	0.00e+00	0	40	0	57671680	59	5369
2026-01-18 08:32:05.90	105.84	10.33	-44.3	-47.8	14.4	0.00e+00	0	40	0	58720256	59	5643
2026-01-18 08:32:06.89	105.73	10.40	-44.5	-48.1	14.1	7.00e-07	0	40	0	60817408	59	5847
2026-01-18 08:32:07.89	105.62	10.47	-44.2	-47.7	14.5	7.00e-07	0	40	0	62914560	59	5545
2026-01-18 08:32:08.89	105.51	10.54	-44.0	-47.4	14.8	0.00e+00	0	40	0	65011712	59	5378
2026-01-18 08:32:09.89	105.40	10.61	-43.6	-46.7	15.5	0.00e+00	0	40	0	67108864	59	4950
2026-01-18 08:32:10.89	105.29	10.68	-43.6	-46.8	15.4	0.00e+00	0	40	0	68157440	59	4992
2026-01-18 08:32:11.89	105.18	10.75	-43.6	-46.8	15.4	0.00e+00	0	40	0	70254592	59	5010
2026-01-18 08:32:12.89	105.06	10.83	-43.6	-46.8	15.4	0.00e+00	0	40	0	72351744	59	5023
2026-01-18 08:32:13.88	104.95	10.90	-43.7	-47.0	15.3	0.00e+00	0	40	0	74448896	59	5106
2026-01-18 08:32:14.88	104.84	10.97	-43.7	-46.9	15.3	0.00e+00	0	40	0	75497472	59	5080
2026-01-18 08:32:15.88	104.72	11.04	-43.5	-46.7	15.5	0.00e+00	0	40	0	77594624	59	4930
2026-01-18 08:32:16.88	104.61	11.11	-43.5	-46.5	15.8	0.00e+00	0	40	0	79691776	58	5131
2026-01-18 08:32:17.88	104.49	11.18	-43.3	-46.2	16.0	0.00e+00	0	40	0	81788928	58	4972
2026-01-18 08:32:18.88	104.38	11.26	-43.2	-46.2	16.1	0.00e+00	0	40	0	83886080	58	4929
2026-01-18 08:32:19.87	104.26	11.33	-43.4	-46.4	15.9	0.00e+00	0	40	0	84934656	58	5048
2026-01-18 08:32:20.87	104.14	11.40	-43.5	-46.5	15.8	0.00e+00	0	40	0	87031808	58	5152
2026-01-18 08:32:21.87	104.03	11.47	-43.4	-46.4	15.9	0.00e+00	0	40	0	89128960	58	5071
2026-01-18 08:32:22.86	103.91	11.54	-43.3	-46.3	16.0	0.00e+00	0	40	0	91226112	58	4997
2026-01-18 08:32:23.86	103.79	11.62	-43.0	-45.9	16.4	0.00e+00	0	40	0	93323264	57	5072
2026-01-18 08:32:24.86	103.67	11.69	-42.8	-45.6	16.7	0.00e+00	0	40	0	94371840	57	4876
2026-01-18 08:32:25.86	103.55	11.76	-42.7	-45.5	16.8	0.00e+00	0	40	0	96468992	57	4818
2026-01-18 08:32:26.86	103.43	11.84	-42.9	-45.7	16.6	0.00e+00	0	40	0	98566144	57	4947
2026-01-18 08:32:27.86	103.31	11.91	-43.1	-46.0	16.3	0.00e+00	0	40	0	100663296	57	5117
2026-01-18 08:32:28.86	103.18	11.98	-43.0	-45.9	16.4	0.00e+00	0	40	0	102760448	57	5042
2026-01-18 08:32:29.86	103.06	12.05	-42.8	-45.6	16.7	0.00e+00	0	40	0	103809024	57	4881
2026-01-18 08:32:30.86	102.94	12.13	-42.7	-45.5	16.8	0.00e+00	0	40	0	105906176	57	4830
2026-01-18 08:32:31.86	102.81	12.20	-42.4	-45.1	17.2	0.00e+00	0	40	0	108003328	56	4878
2026-01-18 08:32:32.86	102.69	12.27	-42.5	-45.1	17.1	0.00e+00	0	40	0	110100480	56	4907
2026-01-18 08:32:33.86	102.56	12.35	-42.6	-45.3	16.9	0.00e+00	0	40	0	111149056	56	5031
2026-01-18 08:32:34.86	102.44	12.42	-42.7	-45.5	16.8	0.00e+00	0	41	0	113246208	56	5126
2026-01-18 08:32:35.87	102.31	12.50	-42.9	-45.6	16.7	0.00e+00	0	41	0	115343360	56	5212
2026-01-18 08:32:36.87	102.18	12.57	-42.6	-45.3	16.9	0.00e+00	0	40	0	117440512	56	5029
2026-01-18 08:32:37.87	102.06	12.64	-42.5	-45.2	17.2	0.00e+00	0	40	0	119537664	56	4934
2026-01-18 08:32:38.88	101.93	12.72	-42.5	-45.1	17.2	0.00e+00	0	41	0	120586240	56	4890
2026-01-18 08:32:39.88	101.80	12.79	-42.2	-44.7	17.6	0.00e+00	0	40	0	122683392	56	4677
2026-01-18 08:32:40.88	101.67	12.87	-42.4	-45.0	17.2	0.00e+00	0	40	0	124780544	56	4867
2026-01-18 08:32:41.88	101.54	12.94	-42.6	-45.3	17.0	0.00e+00	0	40	0	126877696	56	5007
2026-01-18 08:32:42.89	101.40	13.01	-42.6	-45.3	17.0	0.00e+00	0	41	0	128974848	56	5028
2026-01-18 08:32:43.89	101.27	13.09	-42.6	-45.3	17.0	0.00e+00	0	40	0	130023424	56	5018
2026-01-18 08:32:44.89	101.14	13.16	-42.5	-45.1	17.2	0.00e+00	0	40	0	132120576	56	4902
2026-01-18 08:32:45.89	101.01	13.24	-42.2	-44.8	17.5	0.00e+00	0	40	0	134217728	56	4729
2026-01-18 08:32:46.89	100.87	13.31	-42.1	-44.5	17.7	0.00e+00	0	40	0	136314880	56	4597
2026-01-18 08:32:47.88	100.74	13.39	-42.0	-44.5	17.7	0.00e+00	0	40	0	137363456	56	4590
2026-01-18 08:32:48.89	100.60	13.46	-42.2	-44.8	17.5	0.00e+00	0	40	0	139460608	56	4743
2026-01-18 08:32:49.89	100.47	13.54	-42.6	-45.3	17.1	0.00e+00	0	40	0	141557760	56	5009
2026-01-18 08:32:50.89	100.33	13.61	-42.7	-45.5	16.8	0.00e+00	0	40	0	143654912	56	5132
2026-01-18 08:32:51.89	100.19	13.69	-42.8	-45.6	16.8	0.00e+00	0	40	0	145752064	56	5197
2026-01-18 08:32:52.89	100.05	13.76	-42.4	-45.0	17.3	0.00e+00	0	40	0	146800640	56	4850
2026-01-18 08:32:53.90	99.91	13.84	-42.1	-44.6	17.7	0.00e+00	0	40	0	148897792	56	4600
2026-01-18 08:32:54.90	99.78	13.91	-41.7	-44.2	17.9	0.00e+00	0	40	0	150994944	55	4669
2026-01-18 08:32:55.90	99.64	13.99	-41.7	-44.2	17.9	0.00e+00	0	41	0	153092096	55	4684
2026-01-18 08:32:56.90	99.49	14.06	-42.2	-44.9	17.3	0.00e+00	0	40	0	155189248	55	5070
2026-01-18 08:32:57.90	99.35	14.14	-42.4	-45.2	17.0	0.00e+00	0	40	0	156237824	55	5238
2026-01-18 08:32:58.90	99.21	14.21	-42.2	-44.9	17.3	0.00e+00	0	40	0	158334976	55	5086
2026-01-18 08:32:59.90	99.07	14.29	-42.1	-44.7	17.5	0.00e+00	0	40	0	160432128	55	4946
2026-01-18 08:33:00.90	98.92	14.36	-42.0	-44.5	17.7	0.00e+00	0	41	0	162529280	55	4864
2026-01-18 08:33:01.91	98.78	14.44	-42.1	-44.6	17.6	0.00e+00	0	40	0	164626432	55	4922
2026-01-18 08:33:02.91	98.63	14.51	-42.3	-44.9	17.3	0.00e+00	0	40	0	165675008	55	5076
2026-01-18 08:33:03.91	98.49	14.59	-42.5	-45.3	16.9	0.00e+00	0	40	0	167772160	55	5304
2026-01-18 08:33:04.90	98.34	14.66	-42.9	-45.7	16.7	0.00e+00	0	40	0	169869312	56	5278
2026-01-18 08:33:05.91	98.19	14.74	-42.9	-45.8	16.6	0.00e+00	0	40	0	171966464	56	5308
2026-01-18 08:33:06.91	98.04	14.82	-42.7	-45.5	16.9	0.00e+00	0	41	0	174063616	56	5105
2026-01-18 08:33:07.91	97.89	14.89	-42.8	-45.5	16.9	0.00e+00	0	40	0	175112192	56	5130
2026-01-18 08:33:08.91	97.74	14.97	-42.9	-45.6	16.8	0.00e+00	0	40	0	177209344	56	5203
2026-01-18 08:33:09.91	97.59	15.04	-43.0	-45.9	16.5	0.00e+00	0	40	0	179306496	56	5349
2026-01-18 08:33:10.91	97.44	15.12	-43.2	-46.2	16.2	0.00e+00	0	40	0	181403648	57	5227
2026-01-18 08:33:11.91	97.29	15.20	-43.1	-46.0	16.4	0.00e+00	0	41	0	182452224	57	5126
2026-01-18 08:33:12.91	97.14	15.27	-43.0	-45.8	16.6	0.00e+00	0	40	0	184549376	57	5005
2026-01-18 08:33:13.91	96.98	15.35	-42.8	-45.6	16.8	0.00e+00	0	41	0	186646528	57	4878
2026-01-18 08:33:14.91	96.83	15.42	-42.9	-45.6	16.8	0.00e+00	0	40	0	188743680	57	4914
2026-01-18 08:33:15.92	96.67	15.50	-42.7	-45.4	17.0	0.00e+00	0	40	0	190840832	57	4798
2026-01-18 08:33:16.92	96.52	15.58	-42.7	-45.5	16.9	0.00e+00	0	41	0	191889408	57	4819
2026-01-18 08:33:17.92	96.36	15.65	-42.8	-45.6	16.8	0.00e+00	0	41	0	193986560	57	4885
2026-01-18 08:33:18.92	96.20	15.73	-42.9	-45.7	16.7	0.00e+00	0	40	0	196083712	57	4969
2026-01-18 08:33:19.92	96.04	15.80	-43.1	-45.9	16.5	0.00e+00	0	41	0	198180864	57	5084
2026-01-18 08:33:20.92	95.88	15.88	-43.2	-46.1	16.3	0.00e+00	0	41	0	200278016	57	5216
2026-01-18 08:33:21.93	95.72	15.96	-43.3	-46.2	16.3	0.00e+00	0	41	0	201326592	57	5241
2026-01-18 08:33:22.93	95.56	16.03	-43.3	-46.2	16.2	0.00e+00	0	40	0	203423744	57	5255
2026-01-18 08:33:23.93	95.40	16.11	-43.2	-46.1	16.3	0.00e+00	0	40	0	205520896	57	5200
2026-01-18 08:33:24.94	95.23	16.19	-43.5	-46.5	15.9	0.00e+00	0	40	0	207618048	57	5452
2026-01-18 08:33:25.93	95.07	16.26	-43.1	-46.0	16.4	0.00e+00	0	41	0	209715200	57	5155
2026-01-18 08:33:26.94	94.91	16.34	-43.1	-46.0	16.5	0.00e+00	0	40	0	210763776	57	5108
2026-01-18 08:33:27.94	94.74	16.41	-43.1	-45.9	16.5	0.00e+00	0	40	0	212860928	57	5082
2026-01-18 08:33:28.94	94.57	16.49	-43.0	-45.8	16.6	0.00e+00	0	40	0	214958080	57	5030
2026-01-18 08:33:29.94	94.41	16.57	-42.9	-45.8	16.7	0.00e+00	0	41	0	217055232	57	4989
2026-01-18 08:33:30.94	94.24	16.64	-42.7	-45.4	17.0	0.00e+00	0	40	0	218103808	57	4806
2026-01-18 08:33:31.94	94.07	16.72	-42.6	-45.2	17.2	0.00e+00	0	40	0	220200960	57	4704
2026-01-18 08:33:32.94	93.90	16.80	-42.4	-45.0	17.4	0.00e+00	0	40	0	222298112	56	4831
2026-01-18 08:33:33.94	93.73	16.87	-42.4	-45.0	17.4	0.00e+00	0	41	0	224395264	56	4860
2026-01-18 08:33:34.94	93.56	16.95	-42.7	-45.4	17.1	0.00e+00	0	40	0	226492416	56	5066
2026-01-18 08:33:35.94	93.39	17.02	-42.9	-45.7	16.7	0.00e+00	0	41	0	227540992	56	5278
2026-01-18 08:33:36.94	93.21	17.10	-43.0	-45.8	16.6	0.00e+00	0	41	0	229638144	56	5316
2026-01-18 08:33:37.95	93.04	17.18	-42.6	-45.3	17.2	0.00e+00	0	40	0	231735296	56	4985
2026-01-18 08:33:38.95	92.86	17.25	-42.5	-45.1	17.3	0.00e+00	0	40	0	233832448	56	4894
2026-01-18 08:33:39.96	92.69	17.33	-42.5	-45.1	17.3	0.00e+00	0	40	0	235929600	56	4924
2026-01-18 08:33:40.95	92.51	17.40	-42.4	-45.0	17.4	0.00e+00	0	40	0	236978176	56	4851
2026-01-18 08:33:41.96	92.33	17.48	-42.6	-45.3	17.2	0.00e+00	0	40	0	239075328	56	5010
2026-01-18 08:33:42.96	92.15	17.56	-42.8	-45.5	16.9	0.00e+00	0	40	0	241172480	56	5151
2026-01-18 08:33:43.95	91.98	17.63	-42.9	-45.8	16.7	0.00e+00	0	40	0	243269632	56	5301
2026-01-18 08:33:44.96	91.79	17.71	-42.7	-45.4	17.0	0.00e+00	0	41	0	245366784	56	5096
2026-01-18 08:33:45.96	91.61	17.78	-42.6	-45.2	17.2	0.00e+00	0	40	0	246415360	56	4982
2026-01-18 08:33:46.95	91.43	17.86	-42.6	-45.2	17.2	0.00e+00	0	40	0	248512512	56	4970
2026-01-18 08:33:47.96	91.25	17.93	-42.8	-45.5	16.9	0.00e+00	0	40	0	250609664	56	5159
2026-01-18 08:33:48.96	91.06	18.01	-42.9	-45.7	16.8	0.00e+00	0	40	0	252706816	56	5223
2026-01-18 08:33:49.96	90.88	18.08	-42.9	-45.8	16.7	0.00e+00	0	40	0	254803968	56	5297
2026-01-18 08:33:50.96	90.69	18.16	-43.0	-45.9	16.6	0.00e+00	0	41	0	255852544	56	5376
2026-01-18 08:33:51.96	90.51	18.23	-42.9	-45.8	16.7	0.00e+00	0	40	0	257949696	56	5307
2026-01-18 08:33:52.96	90.32	18.31	-42.7	-45.4	17.0	0.00e+00	0	41	0	260046848	56	5094
2026-01-18 08:33:53.96	90.13	18.38	-42.5	-45.2	17.3	0.00e+00	0	41	0	262144000	56	4938
2026-01-18 08:33:54.96	89.94	18.46	-42.6	-45.4	17.0	0.00e+00	0	40	0	263192576	56	5079
2026-01-18 08:33:55.96	89.75	18.53	-42.4	-45.1	17.4	0.00e+00	0	40	0	265289728	56	4874
2026-01-18 08:33:56.96	89.56	18.61	-42.7	-45.5	17.0	0.00e+00	0	40	0	267386880	56	5103
2026-01-18 08:33:57.97	89.37	18.68	-42.4	-45.0	17.4	0.00e+00	0	41	0	269484032	56	4863
2026-01-18 08:33:58.96	89.17	18.76	-42.1	-44.6	17.8	0.00e+00	0	40	0	271581184	56	4638
2026-01-18 08:33:59.96	88.98	18.83	-41.8	-44.3	18.0	0.00e+00	0	40	0	272629760	55	4752
2026-01-18 08:34:00.97	88.78	18.91	-41.9	-44.4	17.8	0.00e+00	0	40	0	274726912	55	4788
2026-01-18 08:34:01.97	88.59	18.98	-42.0	-44.6	17.7	0.00e+00	0	40	0	276824064	55	4892
2026-01-18 08:34:02.97	88.39	19.05	-41.8	-44.3	18.0	0.00e+00	0	40	0	278921216	55	4744
2026-01-18 08:34:03.97	88.19	19.13	-41.9	-44.5	17.7	0.00e+00	0	41	0	281018368	55	4870
2026-01-18 08:34:04.96	87.99	19.20	-42.0	-44.7	17.7	0.00e+00	0	40	0	282066944	55	4940
2026-01-18 08:34:05.96	87.79	19.27	-41.9	-44.5	17.8	0.00e+00	0	40	0	284164096	55	4824
2026-01-18 08:34:06.97	87.59	19.35	-41.7	-44.2	18.1	0.00e+00	0	41	0	286261248	55	4697
2026-01-18 08:34:07.96	87.39	19.42	-41.4	-43.9	18.4	0.00e+00	0	41	0	288358400	54	4785
2026-01-18 08:34:08.96	87.19	19.49	-41.2	-43.6	18.6	0.00e+00	0	41	0	290455552	54	4649
2026-01-18 08:34:09.96	86.98	19.57	-41.1	-43.5	18.8	0.00e+00	0	40	0	291504128	54	4563
2026-01-18 08:34:10.96	86.78	19.64	-41.1	-43.5	18.7	0.00e+00	0	40	0	293601280	53	4852
2026-01-18 08:34:11.97	86.57	19.71	-41.0	-43.5	18.8	0.00e+00	0	40	0	295698432	53	4828
2026-01-18 08:34:12.97	86.37	19.78	-40.9	-43.2	19.0	0.00e+00	0	40	0	297795584	53	4705
2026-01-18 08:34:13.97	86.16	19.86	-40.8	-43.1	19.1	0.00e+00	0	40	0	298844160	53	4624
2026-01-18 08:34:14.97	85.95	19.93	-40.9	-43.3	18.9	0.00e+00	0	40	0	300941312	53	4714
2026-01-18 08:34:15.97	85.74	20.00	-41.1	-43.5	18.7	0.00e+00	0	41	0	303038464	53	4843
2026-01-18 08:34:16.97	85.53	20.07	-41.3	-43.8	18.5	0.00e+00	0	41	0	305135616	53	4993
2026-01-18 08:34:17.96	85.32	20.14	-41.1	-43.5	18.7	0.00e+00	0	41	0	307232768	53	4854
2026-01-18 08:34:18.97	85.10	20.21	-41.1	-43.5	18.7	0.00e+00	0	40	0	308281344	53	4837
2026-01-18 08:34:19.97	84.89	20.28	-40.9	-43.3	18.9	0.00e+00	0	40	0	310378496	53	4733
2026-01-18 08:34:20.97	84.68	20.35	-41.0	-43.4	18.8	0.00e+00	0	41	0	312475648	53	4763
2026-01-18 08:34:21.97	84.46	20.43	-40.9	-43.3	19.0	0.00e+00	0	40	0	314572800	53	4710
2026-01-18 08:34:22.96	84.24	20.49	-40.9	-43.2	19.0	0.00e+00	0	40	0	316669952	53	4690
2026-01-18 08:34:23.97	84.03	20.57	-40.7	-43.0	19.2	0.00e+00	0	41	0	317718528	53	4572
2026-01-18 08:34:24.97	83.81	20.63	-40.6	-42.9	19.2	0.00e+00	0	40	0	319815680	53	4528
2026-01-18 08:34:25.97	83.59	20.70	-40.8	-43.1	19.1	0.00e+00	0	41	0	321912832	53	4636
2026-01-18 08:34:26.98	83.36	20.77	-40.7	-43.0	19.2	0.00e+00	0	40	0	324009984	53	4598
2026-01-18 08:34:27.98	83.14	20.84	-40.8	-43.1	19.1	0.00e+00	0	41	0	325058560	53	4617
2026-01-18 08:34:28.98	82.92	20.91	-40.7	-42.9	19.3	0.00e+00	0	40	0	327155712	53	4532
2026-01-18 08:34:29.98	82.70	20.98	-40.7	-43.0	19.2	0.00e+00	0	41	0	329252864	53	4576
2026-01-18 08:34:30.98	82.47	21.05	-40.8	-43.2	19.1	0.00e+00	0	41	0	331350016	53	4652
2026-01-18 08:34:31.98	82.25	21.12	-40.8	-43.2	19.1	0.00e+00	0	41	0	333447168	53	4657
2026-01-18 08:34:32.98	82.02	21.18	-40.6	-43.0	19.2	0.00e+00	0	40	0	334495744	53	4555
2026-01-18 08:34:33.98	81.79	21.25	-40.6	-42.9	19.3	0.00e+00	0	41	0	336592896	53	4506
2026-01-18 08:34:34.98	81.56	21.32	-40.5	-42.9	19.3	0.00e+00	0	41	0	338690048	52	4761
2026-01-18 08:34:35.98	81.33	21.38	-40.7	-43.0	19.2	0.00e+00	0	41	0	340787200	52	4870
2026-01-18 08:34:36.98	81.10	21.45	-40.7	-43.1	19.2	0.00e+00	0	41	0	342884352	52	4888
2026-01-18 08:34:37.98	80.87	21.52	-40.5	-42.7	19.4	0.00e+00	0	40	0	343932928	52	4700
2026-01-18 08:34:38.98	80.64	21.58	-40.4	-42.6	19.5	0.00e+00	0	40	0	346030080	52	4642
2026-01-18 08:34:39.98	80.40	21.65	-40.3	-42.6	19.4	0.00e+00	0	40	0	348127232	52	4630
2026-01-18 08:34:40.98	80.17	21.71	-40.3	-42.6	19.5	0.00e+00	0	41	0	350224384	52	4606
2026-01-18 08:34:41.98	79.93	21.78	-40.3	-42.6	19.4	0.00e+00	0	41	0	352321536	52	4615
2026-01-18 08:34:42.98	79.70	21.84	-40.2	-42.5	19.5	0.00e+00	0	41	0	353370112	52	4576
2026-01-18 08:34:43.98	79.46	21.91	-40.1	-42.4	19.7	0.00e+00	0	40	0	355467264	52	4507
2026-01-18 08:34:44.98	79.22	21.97	-40.1	-42.4	19.6	0.00e+00	0	41	0	357564416	52	4537
2026-01-18 08:34:45.98	78.98	22.03	-40.3	-42.6	19.4	0.00e+00	0	40	0	359661568	52	4618
2026-01-18 08:34:46.98	78.74	22.10	-40.3	-42.6	19.4	0.00e+00	0	40	0	360710144	52	4638
2026-01-18 08:34:47.98	78.50	22.16	-40.1	-42.4	19.7	0.00e+00	0	40	0	362807296	52	4497
2026-01-18 08:34:48.98	78.26	22.22	-40.1	-42.3	19.8	0.00e+00	0	40	0	364904448	51	4725
2026-01-18 08:34:49.98	78.01	22.28	-40.1	-42.4	19.7	0.00e+00	0	40	0	367001600	51	4771
2026-01-18 08:34:50.98	77.77	22.34	-40.2	-42.5	19.6	0.00e+00	0	40	0	369098752	51	4855
2026-01-18 08:34:51.98	77.52	22.40	-40.1	-42.3	19.7	0.00e+00	0	41	0	370147328	51	4747
2026-01-18 08:34:52.98	77.28	22.46	-40.2	-42.5	19.6	0.00e+00	0	41	0	372244480	51	4836
2026-01-18 08:34:53.98	77.03	22.52	-40.2	-42.4	19.7	0.00e+00	0	40	0	374341632	51	4798
2026-01-18 08:34:54.98	76.78	22.58	-40.0	-42.2	19.8	0.00e+00	0	40	0	376438784	51	4701
2026-01-18 08:34:55.98	76.53	22.64	-40.2	-42.4	19.7	0.00e+00	0	40	0	378535936	51	4805
2026-01-18 08:34:56.99	76.28	22.70	-40.3	-42.6	19.6	0.00e+00	0	41	0	379584512	51	4889
2026-01-18 08:34:57.99	76.03	22.76	-40.4	-42.7	19.4	0.00e+00	0	40	0	381681664	51	4979
2026-01-18 08:34:58.99	75.78	22.82	-40.5	-42.8	19.3	0.00e+00	0	41	0	383778816	51	5021
2026-01-18 08:34:59.99	75.52	22.88	-40.6	-43.0	19.2	0.00e+00	0	41	0	385875968	52	4826
2026-01-18 08:35:01.00	75.27	22.93	-40.6	-43.0	19.1	0.00e+00	0	40	0	386924544	52	4853
2026-01-18 08:35:02.00	75.01	22.99	-40.7	-43.0	19.1	0.00e+00	0	40	0	389021696	52	4869
2026-01-18 08:35:03.00	74.76	23.04	-40.5	-42.8	19.3	0.00e+00	0	41	0	391118848	52	4742
2026-01-18 08:35:04.00	74.50	23.10	-40.6	-43.0	19.2	0.00e+00	0	40	0	393216000	52	4836
2026-01-18 08:35:05.00	74.24	23.16	-40.6	-42.9	19.2	0.00e+00	0	40	0	395313152	52	4801
2026-01-18 08:35:06.00	73.98	23.21	-40.4	-42.7	19.4	0.00e+00	0	40	0	396361728	52	4692
2026-01-18 08:35:07.00	73.73	23.26	-40.5	-42.8	19.3	0.00e+00	0	41	0	398458880	52	4722
2026-01-18 08:35:08.00	73.46	23.32	-40.4	-42.7	19.4	0.00e+00	0	40	0	400556032	52	4653
2026-01-18 08:35:09.00	73.20	23.37	-40.2	-42.5	19.6	0.00e+00	0	41	0	402653184	52	4547
2026-01-18 08:35:10.00	72.94	23.42	-40.3	-42.5	19.5	0.00e+00	0	40	0	404750336	52	4595
2026-01-18 08:35:11.00	72.68	23.47	-40.2	-42.4	19.6	0.00e+00	0	40	0	405798912	52	4543
2026-01-18 08:35:12.01	72.41	23.52	-40.0	-42.3	19.8	0.00e+00	0	40	0	407896064	52	4447
2026-01-18 08:35:13.01	72.15	23.58	-40.1	-42.3	19.9	0.00e+00	0	40	0	409993216	51	4716
2026-01-18 08:35:14.01	71.88	23.63	-40.1	-42.4	19.8	0.00e+00	0	40	0	412090368	51	4777
2026-01-18 08:35:15.01	71.62	23.67	-40.5	-42.8	19.4	0.00e+00	0	40	0	414187520	51	5007
2026-01-18 08:35:16.01	71.35	23.72	-40.1	-42.3	19.8	0.00e+00	0	40	0	415236096	51	4750
2026-01-18 08:35:17.01	71.08	23.77	-39.9	-42.1	20.0	0.00e+00	0	40	0	417333248	51	4625
2026-01-18 08:35:18.01	70.81	23.82	-39.8	-41.9	20.2	0.00e+00	0	41	0	419430400	51	4511
2026-01-18 08:35:19.02	70.54	23.87	-39.7	-41.8	20.3	0.00e+00	0	40	0	421527552	51	4485
2026-01-18 08:35:20.02	70.27	23.91	-39.9	-42.1	20.0	0.00e+00	0	41	0	423624704	51	4636
2026-01-18 08:35:21.02	70.00	23.96	-40.1	-42.3	19.9	0.00e+00	0	41	0	424673280	51	4708
2026-01-18 08:35:22.02	69.73	24.00	-40.1	-42.3	19.9	0.00e+00	0	41	0	426770432	51	4713
2026-01-18 08:35:23.02	69.45	24.05	-40.3	-42.5	19.7	0.00e+00	0	40	0	428867584	51	4862
2026-01-18 08:35:24.02	69.18	24.09	-40.6	-42.9	19.2	0.00e+00	0	41	0	430964736	52	4814
2026-01-18 08:35:25.02	68.91	24.14	-40.7	-43.1	19.1	0.00e+00	0	41	0	432013312	52	4876
2026-01-18 08:35:26.02	68.63	24.18	-41.0	-43.4	18.8	0.00e+00	0	41	0	434110464	52	5047
2026-01-18 08:35:27.02	68.35	24.22	-41.1	-43.5	18.7	0.00e+00	0	40	0	436207616	53	4836
2026-01-18 08:35:28.02	68.08	24.26	-41.7	-44.3	17.9	0.00e+00	0	40	0	438304768	54	5023
2026-01-18 08:35:29.02	67.80	24.30	-42.2	-45.0	17.4	0.00e+00	0	41	0	440401920	54	5408
2026-01-18 08:35:30.02	67.52	24.34	-42.5	-45.3	17.0	0.00e+00	0	40	0	441450496	55	5323
2026-01-18 08:35:31.02	67.24	24.38	-42.5	-45.4	16.9	0.00e+00	0	40	0	443547648	55	5388
2026-01-18 08:35:32.02	66.96	24.42	-42.5	-45.4	16.9	0.00e+00	0	40	0	445644800	55	5345
2026-01-18 08:35:33.02	66.68	24.46	-42.3	-45.1	17.1	0.00e+00	0	40	0	447741952	55	5217
2026-01-18 08:35:34.03	66.40	24.50	-42.0	-44.8	17.5	0.00e+00	0	40	0	449839104	55	4984
2026-01-18 08:35:35.03	66.12	24.53	-41.8	-44.5	17.7	0.00e+00	0	40	0	450887680	55	4848
2026-01-18 08:35:36.03	65.84	24.57	-41.5	-44.1	18.2	0.00e+00	0	40	0	452984832	54	4872
2026-01-18 08:35:37.03	65.55	24.60	-41.5	-44.1	18.1	0.00e+00	0	41	0	455081984	54	4895
2026-01-18 08:35:38.03	65.27	24.64	-41.6	-44.2	18.0	0.00e+00	0	41	0	457179136	54	4976
2026-01-18 08:35:39.03	64.99	24.67	-41.6	-44.2	18.0	0.00e+00	0	41	0	459276288	54	4972
2026-01-18 08:35:40.03	64.70	24.71	-41.6	-44.3	17.9	0.00e+00	0	40	0	460324864	54	4984
2026-01-18 08:35:41.04	64.42	24.74	-41.5	-44.1	18.1	0.00e+00	0	40	0	462422016	54	4885
2026-01-18 08:35:42.04	64.13	24.77	-41.5	-44.1	18.1	0.00e+00	0	40	0	464519168	54	4906
2026-01-18 08:35:43.04	63.84	24.80	-41.7	-44.3	17.9	0.00e+00	0	40	0	466616320	54	5018
2026-01-18 08:35:44.04	63.56	24.83	-41.7	-44.3	17.9	0.00e+00	0	41	0	467664896	54	5026
2026-01-18 08:35:45.05	63.27	24.86	-41.6	-44.2	18.0	0.00e+00	0	40	0	469762048	54	4976
2026-01-18 08:35:46.05	62.98	24.89	-41.4	-44.0	18.1	0.00e+00	0	41	0	471859200	54	4851
2026-01-18 08:35:47.05	62.69	24.92	-41.8	-44.5	17.7	0.00e+00	0	40	0	473956352	54	5126
2026-01-18 08:35:48.05	62.40	24.94	-42.2	-45.1	17.2	0.00e+00	0	40	0	476053504	55	5164
2026-01-18 08:35:49.04	62.11	24.97	-42.4	-45.3	17.0	0.00e+00	0	40	0	477102080	55	5306
2026-01-18 08:35:50.04	61.82	25.00	-42.2	-45.0	17.3	0.00e+00	0	40	0	479199232	55	5136
2026-01-18 08:35:51.04	61.53	25.02	-42.1	-44.9	17.3	0.00e+00	0	40	0	481296384	55	5068
2026-01-18 08:35:52.04	61.24	25.04	-42.2	-45.1	17.1	0.00e+00	0	40	0	483393536	55	5198
2026-01-18 08:35:53.04	60.95	25.07	-42.2	-45.1	17.1	0.00e+00	0	40	0	485490688	55	5171
2026-01-18 08:35:54.04	60.66	25.09	-42.2	-45.0	17.2	0.00e+00	0	40	0	486539264	55	5145
2026-01-18 08:35:55.04	60.37	25.11	-42.0	-44.8	17.5	0.00e+00	0	40	0	488636416	55	5005
2026-01-18 08:35:56.05	60.07	25.13	-41.7	-44.5	17.8	0.00e+00	0	40	0	490733568	55	4816
2026-01-18 08:35:57.05	59.78	25.15	-41.7	-44.4	17.9	0.00e+00	0	41	0	492830720	55	4781
2026-01-18 08:35:58.05	59.49	25.17	-41.7	-44.5	17.8	0.00e+00	0	40	0	494927872	55	4820
2026-01-18 08:35:59.05	59.19	25.19	-41.8	-44.6	17.7	0.00e+00	0	40	0	495976448	55	4894
2026-01-18 08:36:00.05	58.90	25.21	-41.9	-44.6	17.5	0.00e+00	0	40	0	498073600	55	4926
2026-01-18 08:36:01.05	58.61	25.23	-42.2	-45.0	17.2	0.00e+00	0	40	0	500170752	55	5155
2026-01-18 08:36:02.05	58.31	25.24	-42.2	-45.1	17.2	0.00e+00	0	41	0	502267904	55	5168
2026-01-18 08:36:03.06	58.01	25.26	-42.3	-45.1	17.1	0.00e+00	0	40	0	504365056	55	5212
2026-01-18 08:36:04.06	57.72	25.27	-42.4	-45.2	17.1	0.00e+00	0	40	0	505413632	55	5279
2026-01-18 08:36:05.06	57.42	25.28	-42.3	-45.1	17.1	0.00e+00	0	40	0	507510784	55	5208
2026-01-18 08:36:06.06	57.13	25.30	-42.2	-45.0	17.3	0.00e+00	0	40	0	509607936	55	5118
2026-01-18 08:36:07.06	56.83	25.31	-42.0	-44.7	17.5	0.00e+00	0	40	0	511705088	55	4967
2026-01-18 08:36:08.06	56.54	25.32	-41.8	-44.5	17.7	0.00e+00	0	40	0	512753664	55	4851
2026-01-18 08:36:09.07	56.24	25.33	-41.4	-44.0	18.2	0.00e+00	0	40	0	514850816	54	4828
2026-01-18 08:36:10.07	55.94	25.34	-41.2	-43.7	18.5	0.00e+00	0	40	0	516947968	54	4655
2026-01-18 08:36:11.07	55.65	25.35	-41.2	-43.7	18.5	0.00e+00	0	40	0	519045120	54	4686
2026-01-18 08:36:12.07	55.35	25.36	-41.3	-43.9	18.3	0.00e+00	0	40	0	521142272	54	4763
2026-01-18 08:36:13.08	55.05	25.36	-41.5	-44.1	18.1	0.00e+00	0	40	0	522190848	54	4918
2026-01-18 08:36:14.08	54.75	25.37	-42.0	-44.8	17.4	0.00e+00	0	40	0	524288000	54	5307
2026-01-18 08:36:15.08	54.46	25.37	-42.3	-45.2	17.0	0.00e+00	0	40	0	526385152	55	5276
2026-01-18 08:36:16.08	54.16	25.38	-42.4	-45.4	16.8	0.00e+00	0	40	0	528482304	55	5388
2026-01-18 08:36:17.07	53.86	25.38	-42.1	-45.1	17.1	0.00e+00	0	40	0	530579456	55	5182
2026-01-18 08:36:18.08	53.56	25.38	-42.3	-45.2	17.0	0.00e+00	0	40	0	531628032	55	5271
2026-01-18 08:36:19.08	53.27	25.39	-42.2	-45.1	17.1	0.00e+00	0	41	0	533725184	55	5207
2026-01-18 08:36:20.08	52.97	25.39	-42.1	-45.0	17.2	0.00e+00	0	40	0	535822336	55	5149
2026-01-18 08:36:21.08	52.67	25.39	-41.9	-44.6	17.6	0.00e+00	0	41	0	537919488	55	4924
2026-01-18 08:36:22.08	52.38	25.39	-41.8	-44.5	17.7	0.00e+00	0	40	0	540016640	55	4849
2026-01-18 08:36:23.08	52.08	25.39	-41.6	-44.2	17.9	0.00e+00	0	40	0	541065216	55	4695
2026-01-18 08:36:24.08	51.78	25.38	-41.3	-43.9	18.3	0.00e+00	0	40	0	543162368	54	4773
2026-01-18 08:36:25.08	51.48	25.38	-41.2	-43.7	18.5	0.00e+00	0	40	0	545259520	54	4681
2026-01-18 08:36:26.08	51.19	25.38	-41.1	-43.6	18.6	0.00e+00	0	40	0	547356672	53	4889
2026-01-18 08:36:27.08	50.89	25.37	-40.7	-43.1	19.0	0.00e+00	0	40	0	548405248	53	4624
2026-01-18 08:36:28.09	50.59	25.36	-40.7	-43.0	19.1	0.00e+00	0	40	0	550502400	53	4590
2026-01-18 08:36:29.09	50.29	25.36	-40.9	-43.3	18.9	0.00e+00	0	40	0	552599552	53	4720
2026-01-18 08:36:30.09	50.00	25.35	-40.8	-43.1	19.0	0.00e+00	0	40	0	554696704	53	4651
2026-01-18 08:36:31.09	49.70	25.34	-40.8	-43.2	18.9	0.00e+00	0	40	0	556793856	53	4698
2026-01-18 08:36:32.09	49.40	25.33	-40.8	-43.2	19.0	0.00e+00	0	40	0	557842432	53	4656
2026-01-18 08:36:33.09	49.11	25.32	-40.9	-43.3	19.0	0.00e+00	0	40	0	559939584	53	4714
2026-01-18 08:36:34.09	48.81	25.31	-40.2	-42.5	19.6	0.00e+00	0	40	0	562036736	52	4561
2026-01-18 08:36:35.09	48.52	25.30	-40.0	-42.2	19.7	0.00e+00	0	40	0	564133888	52	4429
2026-01-18 08:36:36.09	48.22	25.29	-40.0	-42.2	20.0	0.00e+00	0	40	0	566231040	51	4662
2026-01-18 08:36:37.10	47.92	25.28	-40.2	-42.4	19.7	0.00e+00	0	40	0	567279616	51	4797
2026-01-18 08:36:38.10	47.63	25.26	-39.9	-42.1	20.1	0.00e+00	0	41	0	569376768	51	4602
2026-01-18 08:36:39.10	47.33	25.25	-40.0	-42.1	20.1	0.00e+00	0	40	0	571473920	51	4647
2026-01-18 08:36:40.10	47.04	25.23	-40.1	-42.3	19.9	0.00e+00	0	40	0	573571072	51	4752
2026-01-18 08:36:41.11	46.74	25.21	-39.7	-41.8	20.3	0.00e+00	0	40	0	575668224	51	4490
2026-01-18 08:36:42.10	46.45	25.20	-39.8	-41.9	20.2	0.00e+00	0	40	0	576716800	51	4507
2026-01-18 08:36:43.11	46.16	25.18	-39.8	-42.0	20.2	0.00e+00	0	40	0	578813952	51	4546
2026-01-18 08:36:44.11	45.86	25.16	-39.9	-42.0	20.2	0.00e+00	0	41	0	580911104	51	4579
2026-01-18 08:36:45.11	45.57	25.14	-40.2	-42.4	19.9	0.00e+00	0	40	0	583008256	51	4789
2026-01-18 08:36:46.11	45.28	25.12	-40.1	-42.2	20.0	0.00e+00	0	40	0	585105408	51	4704
2026-01-18 08:36:47.12	44.98	25.10	-40.2	-42.4	19.8	0.00e+00	0	40	0	586153984	51	4801
2026-01-18 08:36:48.11	44.70	25.08	-40.5	-42.8	19.5	0.00e+00	0	40	0	588251136	51	4986
2026-01-18 08:36:49.11	44.40	25.05	-40.4	-42.6	19.6	0.00e+00	0	40	0	590348288	52	4621
2026-01-18 08:36:50.12	44.11	25.03	-40.4	-42.7	19.5	0.00e+00	0	40	0	592445440	52	4659
2026-01-18 08:36:51.11	43.82	25.00	-40.3	-42.5	19.7	0.00e+00	0	40	0	593494016	52	4584
2026-01-18 08:36:52.12	43.53	24.98	-40.2	-42.4	19.8	0.00e+00	0	40	0	595591168	52	4503
2026-01-18 08:36:53.12	43.24	24.95	-40.2	-42.4	19.8	0.00e+00	0	40	0	597688320	52	4522
2026-01-18 08:36:54.11	42.96	24.93	-40.5	-42.8	19.5	0.00e+00	0	40	0	599785472	52	4708
2026-01-18 08:36:55.11	42.67	24.90	-40.8	-43.1	19.2	0.00e+00	0	40	0	601882624	52	4897
2026-01-18 08:36:56.12	42.38	24.87	-40.8	-43.1	19.1	0.00e+00	0	41	0	602931200	52	4921
2026-01-18 08:36:57.11	42.09	24.84	-40.6	-42.9	19.4	0.00e+00	0	40	0	605028352	52	4785
2026-01-18 08:36:58.12	41.81	24.81	-40.5	-42.7	19.5	0.00e+00	0	40	0	607125504	52	4656
2026-01-18 08:36:59.12	41.52	24.78	-40.9	-43.2	19.0	0.00e+00	0	40	0	609222656	52	4974
2026-01-18 08:37:00.11	41.24	24.75	-41.3	-43.7	18.6	0.00e+00	0	41	0	611319808	53	4942
2026-01-18 08:37:01.12	40.95	24.72	-41.9	-44.5	17.9	0.00e+00	0	40	0	612368384	54	5104
2026-01-18 08:37:02.12	40.66	24.68	-41.8	-44.3	18.0	0.00e+00	0	41	0	614465536	54	5035
2026-01-18 08:37:03.12	40.38	24.65	-41.4	-43.8	18.5	0.00e+00	0	40	0	616562688	54	4753
2026-01-18 08:37:04.12	40.10	24.62	-41.0	-43.3	18.9	0.00e+00	0	40	0	618659840	53	4749
2026-01-18 08:37:05.12	39.82	24.58	-40.9	-43.3	19.0	0.00e+00	0	40	0	619708416	53	4718
2026-01-18 08:37:06.12	39.53	24.55	-41.0	-43.3	18.8	0.00e+00	0	40	0	621805568	53	4756
2026-01-18 08:37:07.12	39.25	24.51	-41.5	-44.0	18.4	0.00e+00	0	40	0	623902720	53	5108
2026-01-18 08:37:08.13	38.97	24.47	-41.6	-44.2	18.2	0.00e+00	0	40	0	625999872	53	5235
2026-01-18 08:37:09.12	38.69	24.44	-42.1	-44.8	17.6	0.00e+00	0	40	0	628097024	55	4989
2026-01-18 08:37:10.13	38.41	24.40	-42.1	-44.8	17.6	0.00e+00	0	41	0	629145600	55	5007
2026-01-18 08:37:11.13	38.13	24.36	-42.0	-44.6	17.7	0.00e+00	0	40	0	631242752	55	4917
2026-01-18 08:37:12.13	37.86	24.32	-42.0	-44.7	17.6	0.00e+00	0	41	0	633339904	55	4942
2026-01-18 08:37:13.13	37.58	24.28	-42.1	-44.8	17.6	0.00e+00	0	41	0	635437056	55	5007
2026-01-18 08:37:14.13	37.30	24.24	-42.1	-44.8	17.5	0.00e+00	0	41	0	637534208	55	5019
2026-01-18 08:37:15.13	37.03	24.19	-42.2	-44.9	17.4	0.00e+00	0	40	0	638582784	55	5100
2026-01-18 08:37:16.13	36.75	24.15	-42.3	-45.2	17.2	0.00e+00	0	40	0	640679936	55	5235
2026-01-18 08:37:17.13	36.48	24.11	-42.5	-45.4	17.0	0.00e+00	0	40	0	642777088	55	5383
2026-01-18 08:37:18.14	36.20	24.07	-42.5	-45.4	16.9	0.00e+00	0	40	0	644874240	55	5386
2026-01-18 08:37:19.14	35.93	24.02	-42.3	-45.1	17.2	0.00e+00	0	40	0	646971392	55	5185
2026-01-18 08:37:20.14	35.66	23.98	-42.2	-45.0	17.4	0.00e+00	0	40	0	648019968	55	5102
2026-01-18 08:37:21.14	35.39	23.93	-41.9	-44.5	17.8	0.00e+00	0	40	0	650117120	55	4867
2026-01-18 08:37:22.14	35.12	23.88	-41.8	-44.5	17.8	0.00e+00	0	40	0	652214272	55	4855
2026-01-18 08:37:23.14	34.85	23.84	-41.8	-44.5	17.7	0.00e+00	0	40	0	654311424	55	4869
2026-01-18 08:37:24.14	34.58	23.79	-42.0	-44.7	17.6	0.00e+00	0	41	0	655360000	55	4971
2026-01-18 08:37:25.14	34.31	23.74	-42.1	-45.0	17.4	0.00e+00	0	41	0	657457152	55	5106
2026-01-18 08:37:26.15	34.04	23.69	-42.3	-45.2	17.1	0.00e+00	0	40	0	659554304	55	5270
2026-01-18 08:37:27.14	33.78	23.64	-42.5	-45.4	16.9	0.00e+00	0	40	0	661651456	55	5374
2026-01-18 08:37:28.15	33.51	23.59	-42.2	-45.1	17.2	0.00e+00	0	41	0	663748608	55	5169
2026-01-18 08:37:29.15	33.25	23.54	-42.0	-44.7	17.5	0.00e+00	0	41	0	664797184	55	4976
2026-01-18 08:37:30.15	32.99	23.49	-42.0	-44.7	17.6	0.00e+00	0	40	0	666894336	55	4958
2026-01-18 08:37:31.14	32.73	23.44	-41.7	-44.4	17.9	0.00e+00	0	41	0	668991488	55	4764
2026-01-18 08:37:32.15	32.46	23.39	-41.6	-44.3	17.9	0.00e+00	0	40	0	671088640	55	4734
2026-01-18 08:37:33.14	32.20	23.34	-42.0	-44.9	17.4	0.00e+00	0	40	0	673185792	55	5044
2026-01-18 08:37:34.14	31.94	23.29	-41.6	-44.3	18.0	0.00e+00	0	40	0	674234368	55	4718
2026-01-18 08:37:35.15	31.68	23.23	-41.7	-44.4	17.9	0.00e+00	0	41	0	676331520	55	4785
2026-01-18 08:37:36.15	31.42	23.18	-41.8	-44.5	17.7	0.00e+00	0	41	0	678428672	55	4857
2026-01-18 08:37:37.15	31.17	23.12	-42.2	-45.2	17.1	0.00e+00	0	41	0	680525824	55	5232
2026-01-18 08:37:38.15	30.91	23.07	-42.7	-45.8	16.6	0.00e+00	0	40	0	681574400	55	5612
2026-01-18 08:37:39.15	30.66	23.01	-42.9	-46.0	16.5	0.00e+00	0	40	0	683671552	56	5405
2026-01-18 08:37:40.15	30.40	22.96	-42.5	-45.4	17.0	0.00e+00	0	41	0	685768704	56	5065
2026-01-18 08:37:41.15	30.15	22.90	-42.3	-45.1	17.3	0.00e+00	0	40	0	687865856	56	4872
2026-01-18 08:37:42.15	29.90	22.84	-41.6	-44.2	18.0	0.00e+00	0	41	0	689963008	55	4698
2026-01-18 08:37:43.15	29.64	22.79	-41.4	-43.9	18.3	0.00e+00	0	40	0	692060160	54	4799
2026-01-18 08:37:44.15	29.39	22.73	-41.5	-44.1	18.2	0.00e+00	0	40	0	693108736	54	4904
2026-01-18 08:37:45.15	29.14	22.67	-41.7	-44.5	17.8	0.00e+00	0	40	0	695205888	54	5111
2026-01-18 08:37:46.15	28.90	22.61	-42.0	-44.7	17.4	0.00e+00	0	40	0	697303040	54	5279
2026-01-18 08:37:47.16	28.65	22.55	-42.2	-45.1	17.2	0.00e+00	0	40	0	699400192	55	5195
2026-01-18 08:37:48.16	28.40	22.49	-42.3	-45.3	16.9	0.00e+00	0	40	0	700448768	55	5321
2026-01-18 08:37:49.16	28.15	22.43	-42.3	-45.3	17.0	0.00e+00	0	40	0	702545920	55	5300
2026-01-18 08:37:50.16	27.91	22.37	-42.4	-45.4	16.9	0.00e+00	0	41	0	704643072	55	5360
2026-01-18 08:37:51.16	27.66	22.31	-42.1	-45.0	17.2	0.00e+00	0	41	0	706740224	55	5131
2026-01-18 08:37:52.16	27.42	22.25	-41.9	-44.6	17.6	0.00e+00	0	40	0	708837376	55	4922
2026-01-18 08:37:53.16	27.18	22.19	-41.3	-43.9	18.3	0.00e+00	0	40	0	709885952	54	4805
2026-01-18 08:37:54.17	26.94	22.12	-41.1	-43.6	18.7	0.00e+00	0	40	0	711983104	54	4609
2026-01-18 08:37:55.17	26.70	22.06	-41.1	-43.6	18.6	0.00e+00	0	41	0	714080256	54	4640
2026-01-18 08:37:56.17	26.46	22.00	-40.8	-43.3	18.9	0.00e+00	0	40	0	716177408	53	4723
2026-01-18 08:37:57.17	26.22	21.94	-40.7	-43.2	18.9	0.00e+00	0	40	0	718274560	53	4703
2026-01-18 08:37:58.17	25.98	21.87	-41.3	-44.0	18.1	0.00e+00	0	41	0	719323136	53	5159
2026-01-18 08:37:59.18	25.74	21.81	-41.6	-44.4	17.8	0.00e+00	0	40	0	721420288	53	5399
2026-01-18 08:38:00.18	25.51	21.74	-41.8	-44.8	17.4	0.00e+00	0	40	0	723517440	54	5301
2026-01-18 08:38:01.18	25.28	21.68	-41.9	-44.9	17.3	0.00e+00	0	40	0	725614592	54	5389
2026-01-18 08:38:02.19	25.04	21.61	-41.8	-44.8	17.6	0.00e+00	0	40	0	726663168	54	5321
2026-01-18 08:38:03.18	24.81	21.55	-41.5	-44.4	17.8	0.00e+00	0	40	0	728760320	54	5047
2026-01-18 08:38:04.18	24.58	21.48	-41.4	-44.1	18.1	0.00e+00	0	41	0	730857472	54	4915
2026-01-18 08:38:05.19	24.35	21.42	-40.9	-43.5	18.7	0.00e+00	0	41	0	732954624	53	4829
2026-01-18 08:38:06.19	24.12	21.35	-40.5	-43.0	19.0	0.00e+00	0	41	0	735051776	53	4595
2026-01-18 08:38:07.18	23.89	21.28	-40.2	-42.6	19.5	0.00e+00	0	40	0	736100352	52	4622
2026-01-18 08:38:08.18	23.67	21.22	-40.1	-42.5	19.7	0.00e+00	0	41	0	738197504	51	4819
2026-01-18 08:38:09.18	23.44	21.15	-40.2	-42.6	19.6	0.00e+00	0	40	0	740294656	51	4877
2026-01-18 08:38:10.18	23.21	21.08	-40.4	-42.8	19.4	0.00e+00	0	41	0	742391808	51	5024
2026-01-18 08:38:11.19	22.99	21.01	-40.6	-43.0	19.2	0.00e+00	0	40	0	744488960	51	5152
2026-01-18 08:38:12.18	22.77	20.95	-40.8	-43.3	18.9	0.00e+00	0	41	0	745537536	52	4992
2026-01-18 08:38:13.19	22.54	20.88	-40.7	-43.2	19.0	0.00e+00	0	40	0	747634688	52	4962
2026-01-18 08:38:14.19	22.32	20.81	-40.9	-43.4	18.8	0.00e+00	0	40	0	749731840	52	5061
2026-01-18 08:38:15.18	22.10	20.74	-40.8	-43.2	18.9	0.00e+00	0	41	0	751828992	52	4972
2026-01-18 08:38:16.19	21.88	20.67	-40.8	-43.3	18.9	0.00e+00	0	40	0	753926144	52	5033
2026-01-18 08:38:17.19	21.67	20.60	-40.8	-43.3	18.9	0.00e+00	0	40	0	754974720	52	4997
2026-01-18 08:38:18.18	21.45	20.53	-40.9	-43.4	18.7	0.00e+00	0	41	0	757071872	52	5073
2026-01-18 08:38:19.19	21.23	20.46	-40.7	-43.2	18.9	0.00e+00	0	40	0	759169024	52	4983
2026-01-18 08:38:20.19	21.02	20.39	-40.8	-43.3	18.9	0.00e+00	0	41	0	761266176	52	5009
2026-01-18 08:38:21.19	20.80	20.32	-40.7	-43.2	18.9	0.00e+00	0	40	0	762314752	52	4981
2026-01-18 08:38:22.19	20.59	20.25	-40.7	-43.2	18.9	0.00e+00	0	40	0	764411904	52	4971
2026-01-18 08:38:23.19	20.38	20.18	-40.8	-43.4	18.8	0.00e+00	0	41	0	766509056	52	5064
2026-01-18 08:38:24.19	20.17	20.11	-40.9	-43.6	18.6	0.00e+00	0	40	0	768606208	52	5179
2026-01-18 08:38:25.19	19.96	20.04	-41.0	-43.6	18.6	0.00e+00	0	41	0	770703360	52	5197
2026-01-18 08:38:26.19	19.75	19.97	-40.9	-43.6	18.6	0.00e+00	0	41	0	771751936	52	5178
2026-01-18 08:38:27.19	19.54	19.90	-40.7	-43.3	18.9	0.00e+00	0	40	0	773849088	52	5017
2026-01-18 08:38:28.20	19.33	19.82	-40.9	-43.5	18.7	0.00e+00	0	40	0	775946240	52	5121
2026-01-18 08:38:29.20	19.13	19.75	-41.1	-43.7	18.4	0.00e+00	0	40	0	778043392	53	4979
2026-01-18 08:38:30.20	18.92	19.68	-41.3	-44.0	17.9	0.00e+00	0	40	0	780140544	53	5121
2026-01-18 08:38:31.20	18.72	19.61	-41.4	-44.1	18.2	0.00e+00	0	41	0	781189120	53	5167
2026-01-18 08:38:32.20	18.51	19.53	-41.2	-43.8	18.4	0.00e+00	0	40	0	783286272	53	5003
2026-01-18 08:38:33.20	18.31	19.46	-41.1	-43.6	18.6	0.00e+00	0	40	0	785383424	53	4905
2026-01-18 08:38:34.19	18.11	19.39	-40.8	-43.2	18.9	0.00e+00	0	40	0	787480576	53	4697
2026-01-18 08:38:35.20	17.91	19.32	-40.8	-43.2	19.0	0.00e+00	0	40	0	789577728	53	4697
2026-01-18 08:38:36.19	17.71	19.24	-40.6	-43.1	19.1	0.00e+00	0	40	0	790626304	53	4613
2026-01-18 08:38:37.20	17.51	19.17	-40.7	-43.1	19.0	0.00e+00	0	40	0	792723456	53	4643
2026-01-18 08:38:38.20	17.31	19.10	-41.0	-43.6	18.5	0.00e+00	0	40	0	794820608	53	4925
2026-01-18 08:38:39.20	17.12	19.02	-41.0	-43.6	18.5	0.00e+00	0	40	0	796917760	53	4917
2026-01-18 08:38:40.21	16.92	18.95	-40.9	-43.5	18.7	0.00e+00	0	40	0	799014912	53	4849
2026-01-18 08:38:41.21	16.73	18.87	-40.8	-43.3	18.9	0.00e+00	0	40	0	800063488	53	4707
2026-01-18 08:38:42.21	16.53	18.80	-40.5	-42.9	19.2	0.00e+00	0	41	0	802160640	52	4776
2026-01-18 08:38:43.21	16.34	18.73	-40.4	-42.7	19.4	0.00e+00	0	40	0	804257792	52	4659
2026-01-18 08:38:44.21	16.15	18.65	-40.2	-42.4	19.7	0.00e+00	0	40	0	806354944	52	4545
2026-01-18 08:38:45.21	15.96	18.58	-40.2	-42.4	19.7	0.00e+00	0	41	0	807403520	52	4520
2026-01-18 08:38:46.21	15.77	18.50	-40.1	-42.3	19.8	0.00e+00	0	40	0	809500672	52	4478
2026-01-18 08:38:47.21	15.58	18.43	-40.0	-42.2	19.8	0.00e+00	0	40	0	811597824	52	4434
2026-01-18 08:38:48.21	15.39	18.36	-40.1	-42.3	19.8	0.00e+00	0	40	0	813694976	51	4733
2026-01-18 08:38:49.21	15.21	18.28	-40.2	-42.5	19.7	0.00e+00	0	40	0	815792128	51	4816
2026-01-18 08:38:50.22	15.02	18.21	-40.2	-42.5	19.7	0.00e+00	0	40	0	816840704	51	4827
2026-01-18 08:38:51.22	14.83	18.13	-40.4	-42.7	19.5	0.00e+00	0	40	0	818937856	51	4970
2026-01-18 08:38:52.22	14.65	18.06	-40.6	-43.0	19.2	0.00e+00	0	41	0	821035008	52	4853
2026-01-18 08:38:53.22	14.47	17.98	-40.7	-43.1	19.1	0.00e+00	0	40	0	823132160	52	4900
2026-01-18 08:38:54.22	14.28	17.91	-40.8	-43.3	18.9	0.00e+00	0	40	0	825229312	52	4996
2026-01-18 08:38:55.22	14.10	17.83	-40.7	-43.2	19.0	0.00e+00	0	40	0	826277888	52	4971
2026-01-18 08:38:56.22	13.92	17.76	-40.3	-42.7	19.4	0.00e+00	0	40	0	828375040	52	4687
2026-01-18 08:38:57.22	13.74	17.68	-40.2	-42.6	19.6	0.00e+00	0	40	0	830472192	52	4618
2026-01-18 08:38:58.22	13.56	17.60	-40.0	-42.4	19.8	0.00e+00	0	40	0	832569344	51	4768
2026-01-18 08:38:59.23	13.38	17.53	-40.0	-42.4	19.8	0.00e+00	0	40	0	834666496	51	4799
2026-01-18 08:39:00.23	13.21	17.45	-40.2	-42.6	19.7	0.00e+00	0	40	0	835715072	51	4881
2026-01-18 08:39:01.24	13.03	17.38	-40.2	-42.6	19.6	0.00e+00	0	40	0	837812224	51	4923
2026-01-18 08:39:02.24	12.85	17.30	-40.4	-42.9	19.3	0.00e+00	0	40	0	839909376	51	5053
2026-01-18 08:39:03.24	12.68	17.23	-40.5	-43.1	19.2	0.00e+00	0	41	0	842006528	51	5163
2026-01-18 08:39:04.24	12.51	17.15	-40.5	-43.1	19.1	0.00e+00	0	40	0	843055104	52	4890
2026-01-18 08:39:05.24	12.34	17.08	-40.5	-43.1	19.0	0.00e+00	0	40	0	845152256	52	4918
2026-01-18 08:39:06.25	12.16	17.00	-40.6	-43.3	18.9	0.00e+00	0	40	0	847249408	52	5028
2026-01-18 08:39:07.25	11.99	16.92	-40.5	-43.2	19.0	0.00e+00	0	41	0	849346560	52	4978
2026-01-18 08:39:08.25	11.82	16.85	-40.5	-43.2	19.0	0.00e+00	0	40	0	851443712	52	4945
2026-01-18 08:39:09.25	11.65	16.77	-40.5	-43.2	19.0	0.00e+00	0	40	0	852492288	52	4929
2026-01-18 08:39:10.25	11.49	16.70	-40.4	-43.0	19.1	0.00e+00	0	40	0	854589440	52	4854
2026-01-18 08:39:11.25	11.32	16.62	-40.2	-42.7	19.5	0.00e+00	0	40	0	856686592	52	4657
2026-01-18 08:39:12.25	11.15	16.54	-40.1	-42.6	19.6	0.00e+00	0	40	0	858783744	51	4872
2026-01-18 08:39:13.25	10.99	16.47	-40.1	-42.5	19.7	0.00e+00	0	40	0	860880896	51	4824
2026-01-18 08:39:14.26	10.82	16.39	-40.0	-42.3	19.8	0.00e+00	0	40	0	861929472	51	4752
2026-01-18 08:39:15.26	10.66	16.32	-40.3	-42.7	19.5	0.00e+00	0	40	0	864026624	51	4970
2026-01-18 08:39:16.26	10.49	16.24	-40.5	-43.0	19.2	0.00e+00	0	40	0	866123776	51	5129
2026-01-18 08:39:17.26	10.33	16.17	-40.6	-43.2	18.9	0.00e+00	0	40	0	868220928	52	4976
2026-01-18 08:39:18.27	10.17	16.09	-40.8	-43.5	18.7	0.00e+00	0	40	0	870318080	52	5154
2026-01-18 08:39:19.27	10.01	16.01	-41.0	-43.8	18.4	0.00e+00	0	40	0	871366656	52	5323
2026-01-18 08:39:20.27	9.85	15.94	-41.1	-44.0	18.3	0.00e+00	0	40	0	873463808	53	5105
2026-01-18 08:39:21.27	9.69	15.86	-41.1	-43.9	18.3	0.00e+00	0	40	0	875560960	53	5081
2026-01-18 08:39:22.28	9.53	15.78	-41.1	-43.8	18.4	0.00e+00	0	40	0	877658112	53	5007
2026-01-18 08:39:23.28	9.38	15.71	-40.9	-43.5	18.7	0.00e+00	0	40	0	879755264	53	4866
2026-01-18 08:39:24.28	9.22	15.63	-40.8	-43.4	18.8	0.00e+00	0	41	0	880803840	53	4777
2026-01-18 08:39:25.28	9.06	15.56	-40.9	-43.4	18.7	0.00e+00	0	40	0	882900992	53	4795
2026-01-18 08:39:26.28	8.91	15.48	-40.8	-43.4	18.8	0.00e+00	0	40	0	884998144	53	4785
2026-01-18 08:39:27.28	8.76	15.41	-40.6	-43.1	19.0	0.00e+00	0	40	0	887095296	53	4642
2026-01-18 08:39:28.28	8.60	15.33	-40.5	-43.1	19.1	0.00e+00	0	40	0	888143872	52	4899
2026-01-18 08:39:29.28	8.45	15.26	-40.8	-43.5	18.7	0.00e+00	0	40	0	890241024	52	5104
2026-01-18 08:39:30.29	8.30	15.18	-40.7	-43.3	18.9	0.00e+00	0	40	0	892338176	52	4999
2026-01-18 08:39:31.28	8.15	15.10	-40.8	-43.4	18.8	0.00e+00	0	40	0	894435328	52	5071
2026-01-18 08:39:32.29	8.00	15.03	-40.9	-43.5	18.7	0.00e+00	0	40	0	896532480	52	5147
2026-01-18 08:39:33.29	7.85	14.95	-41.1	-43.8	18.5	0.00e+00	0	40	0	897581056	53	5006
2026-01-18 08:39:34.29	7.70	14.88	-41.3	-44.0	18.2	0.00e+00	0	40	0	899678208	53	5150
2026-01-18 08:39:35.29	7.55	14.80	-41.6	-44.5	17.8	0.00e+00	0	40	0	901775360	53	5419
2026-01-18 08:39:36.29	7.41	14.73	-41.9	-45.0	17.3	0.00e+00	0	40	0	903872512	54	5414
2026-01-18 08:39:37.29	7.26	14.65	-41.9	-45.0	17.3	0.00e+00	0	40	0	905969664	54	5435
2026-01-18 08:39:38.29	7.11	14.58	-41.9	-45.0	17.2	0.00e+00	0	40	0	907018240	54	5460
2026-01-18 08:39:39.29	6.97	14.50	-41.7	-44.8	17.5	0.00e+00	0	40	0	909115392	54	5296
2026-01-18 08:39:40.29	6.83	14.43	-41.6	-44.7	17.7	0.00e+00	0	40	0	911212544	54	5220
2026-01-18 08:39:41.29	6.68	14.35	-41.2	-44.0	18.2	0.00e+00	0	40	0	913309696	54	4863
2026-01-18 08:39:42.28	6.54	14.28	-41.0	-43.7	18.6	0.00e+00	0	40	0	914358272	54	4653
2026-01-18 08:39:43.29	6.40	14.20	-40.8	-43.4	18.8	0.00e+00	0	40	0	916455424	53	4782
2026-01-18 08:39:44.29	6.26	14.13	-40.6	-43.1	19.1	0.00e+00	0	40	0	918552576	52	4874
2026-01-18 08:39:45.29	6.12	14.05	-40.7	-43.2	18.9	0.00e+00	0	40	0	920649728	52	4978
2026-01-18 08:39:46.29	5.98	13.98	-40.7	-43.3	18.9	0.00e+00	0	41	0	922746880	52	4987
2026-01-18 08:39:47.28	5.84	13.90	-40.8	-43.5	18.7	0.00e+00	0	40	0	923795456	52	5118
2026-01-18 08:39:48.29	5.70	13.83	-41.0	-43.7	18.5	0.00e+00	0	40	0	925892608	52	5220
2026-01-18 08:39:49.29	5.56	13.75	-41.1	-43.8	18.4	0.00e+00	0	40	0	927989760	52	5312
2026-01-18 08:39:50.29	5.43	13.68	-41.1	-43.7	18.5	0.00e+00	0	40	0	930086912	53	4960
2026-01-18 08:39:51.29	5.29	13.60	-41.2	-43.8	18.4	0.00e+00	0	40	0	932184064	53	5011
2026-01-18 08:39:52.29	5.16	13.53	-41.2	-43.9	18.3	0.00e+00	0	40	0	933232640	53	5060
2026-01-18 08:39:53.30	5.02	13.45	-41.0	-43.6	18.6	0.00e+00	0	40	0	935329792	53	4880
2026-01-18 08:39:54.30	4.89	13.38	-41.2	-43.8	18.4	0.00e+00	0	40	0	937426944	53	4993
2026-01-18 08:39:55.30	4.76	13.31	-41.1	-43.7	18.5	0.00e+00	0	40	0	939524096	53	4963
2026-01-18 08:39:56.30	4.62	13.23	-41.1	-43.7	18.5	0.00e+00	0	40	0	941621248	53	4965
2026-01-18 08:39:57.30	4.49	13.16	-41.0	-43.6	18.5	0.00e+00	0	40	0	942669824	53	4920
2026-01-18 08:39:58.30	4.36	13.08	-41.1	-43.9	18.3	0.00e+00	0	40	0	944766976	53	5064
2026-01-18 08:39:59.30	4.23	13.01	-41.3	-44.1	18.1	0.00e+00	0	40	0	946864128	53	5199
2026-01-18 08:40:00.30	4.10	12.94	-41.1	-43.8	18.4	0.00e+00	0	40	0	948961280	53	4986
2026-01-18 08:40:01.31	3.97	12.86	-41.2	-43.9	18.3	0.00e+00	0	40	0	951058432	53	5067
2026-01-18 08:40:02.31	3.84	12.79	-41.2	-43.9	18.3	0.00e+00	0	40	0	952107008	53	5044
2026-01-18 08:40:03.31	3.71	12.71	-41.4	-44.0	18.2	0.00e+00	0	40	0	954204160	53	5109
2026-01-18 08:40:04.31	3.59	12.64	-41.4	-44.0	18.1	0.00e+00	0	40	0	956301312	53	5151
2026-01-18 08:40:05.31	3.46	12.57	-41.4	-44.0	18.2	0.00e+00	0	40	0	958398464	53	5148
2026-01-18 08:40:06.31	3.34	12.49	-41.4	-44.0	18.1	0.00e+00	0	40	0	959447040	53	5155
2026-01-18 08:40:07.32	3.21	12.42	-41.6	-44.2	18.0	0.00e+00	0	40	0	961544192	53	5263
2026-01-18 08:40:08.32	3.08	12.35	-41.9	-44.7	17.5	0.00e+00	0	40	0	963641344	54	5237
2026-01-18 08:40:09.32	2.96	12.27	-41.7	-44.5	17.7	0.00e+00	0	40	0	965738496	54	5148
2026-01-18 08:40:10.32	2.84	12.20	-42.1	-45.1	17.2	0.00e+00	0	40	0	967835648	54	5480
2026-01-18 08:40:11.32	2.71	12.13	-42.1	-45.1	17.2	0.00e+00	0	40	0	968884224	55	5164
2026-01-18 08:40:12.32	2.59	12.05	-42.1	-45.2	17.1	0.00e+00	0	40	0	970981376	55	5231
2026-01-18 08:40:13.32	2.47	11.98	-42.1	-45.2	17.0	0.00e+00	0	40	0	973078528	55	5227
2026-01-18 08:40:14.32	2.35	11.91	-42.0	-44.9	17.3	0.00e+00	0	40	0	975175680	55	5087
2026-01-18 08:40:15.33	2.23	11.84	-41.8	-44.7	17.5	0.00e+00	0	40	0	977272832	55	4959
2026-01-18 08:40:16.33	2.11	11.76	-41.8	-44.6	17.6	0.00e+00	0	40	0	978321408	55	4901
2026-01-18 08:40:17.32	1.99	11.69	-41.8	-44.6	17.6	0.00e+00	0	40	0	980418560	55	4909
2026-01-18 08:40:18.32	1.87	11.62	-41.7	-44.5	17.7	0.00e+00	0	40	0	982515712	55	4836
2026-01-18 08:40:19.32	1.76	11.55	-41.8	-44.6	17.6	0.00e+00	0	40	0	984612864	55	4915
2026-01-18 08:40:20.32	1.64	11.47	-41.8	-44.8	17.4	0.00e+00	0	40	0	986710016	55	5014
2026-01-18 08:40:21.33	1.52	11.40	-41.5	-44.6	17.6	0.00e+00	0	40	0	987758592	55	4886
2026-01-18 08:40:22.33	1.41	11.33	-41.5	-44.7	17.5	0.00e+00	0	40	0	989855744	54	5265
2026-01-18 08:40:23.32	1.29	11.26	-41.8	-45.1	17.1	0.00e+00	0	40	0	991952896	54	5523
2026-01-18 08:40:24.33	1.18	11.19	-42.1	-45.6	16.7	0.00e+00	0	40	0	994050048	54	5793
2026-01-18 08:40:25.33	1.06	11.12	-42.1	-45.5	16.8	0.00e+00	0	40	0	995098624	55	5425
2026-01-18 08:40:26.33	0.95	11.04	-42.5	-45.7	16.5	0.00e+00	0	40	0	997195776	55	5584
2026-01-18 08:40:27.33	0.84	10.97	-42.5	-45.7	16.6	0.00e+00	0	40	0	999292928	55	5546
2026-01-18 08:40:28.33	0.72	10.90	-42.6	-45.7	16.5	0.00e+00	0	40	0	1001390080	55	5589
2026-01-18 08:40:29.33	0.61	10.83	-42.5	-45.6	16.6	0.00e+00	0	40	0	1003487232	55	5506
2026-01-18 08:40:30.33	0.50	10.76	-42.4	-45.6	16.7	0.00e+00	0	40	0	1004535808	55	5472
2026-01-18 08:40:31.33	0.39	10.69	-42.1	-45.1	17.1	0.00e+00	0	41	0	1006632960	55	5206
2026-01-18 08:40:32.34	0.28	10.62	-41.9	-44.8	17.4	0.00e+00	0	40	0	1008730112	55	5010
2026-01-18 08:40:33.34	0.17	10.54	-42.0	-44.9	17.2	0.00e+00	0	40	0	1010827264	55	5092
2026-01-18 08:40:34.34	0.06	10.47	-41.8	-44.7	17.4	0.00e+00	0	40	0	1012924416	55	4962
2026-01-18 08:40:35.34	359.95	10.40	-41.6	-44.5	17.6	0.00e+00	0	40	0	1013972992	55	4862
2026-01-18 08:40:36.34	359.84	10.33	-41.5	-44.4	17.7	0.00e+00	0	40	0	1016070144	55	4793
2026-01-18 08:40:37.34	359.74	10.26	-41.5	-44.4	17.8	0.00e+00	0	40	0	1018167296	55	4768
2026-01-18 08:40:38.35	359.63	10.19	-41.6	-44.5	17.6	0.00e+00	0	40	0	1020264448	55	4868
2026-01-18 08:40:39.35	359.52	10.12	-41.8	-44.8	17.3	0.00e+00	0	40	0	1021313024	55	5023
2026-01-18 08:40:40.35	359.42	10.05	-42.0	-45.0	17.1	0.00e+00	0	40	0	1023410176	55	5156
2026-01-18 08:40:41.35	359.31	9.98	-42.2	-45.3	16.9	0.00e+00	0	40	0	1025507328	55	5295
2026-01-18 08:40:42.35	359.21	9.91	-42.3	-45.4	16.8	0.00e+00	0	40	0	1027604480	55	5362
2026-01-18 08:40:43.35	359.10	9.84	-42.6	-45.8	16.4	0.00e+00	0	40	0	1029701632	55	5656
2026-01-18 08:40:44.35	359.00	9.77	-43.0	-46.2	16.1	0.00e+00	0	40	0	1031798784	56	5577
2026-01-18 08:40:45.35	358.89	9.70	-43.3	-46.7	15.7	0.00e+00	0	40	0	1032847360	57	5592
2026-01-18 08:40:46.35	358.79	9.63	-43.4	-46.8	15.5	0.00e+00	0	40	0	1034944512	57	5650
2026-01-18 08:40:47.35	358.69	9.56	-43.5	-46.9	15.4	0.00e+00	0	41	0	1037041664	57	5703
2026-01-18 08:40:48.35	358.59	9.49	-43.7	-47.2	15.2	0.00e+00	0	40	0	1039138816	57	5920
2026-01-18 08:40:49.36	358.48	9.42	-43.6	-47.4	15.0	0.00e+00	0	40	0	1040187392	58	5706
2026-01-18 08:40:50.35	358.39	9.36	-43.6	-47.5	14.8	0.00e+00	0	40	0	1042284544	58	5788
2026-01-18 08:40:51.35	358.28	9.29	-43.6	-47.8	14.6	7.00e-07	0	40	0	1044381696	58	5984
2026-01-18 08:40:52.35	358.19	9.22	-43.4	-47.7	14.7	7.00e-07	0	40	0	1046478848	58	5876
2026-01-18 08:40:53.35	358.09	9.15	-43.0	-47.5	14.8	0.00e+00	0	41	0	1048576000	58	5760
2026-01-18 08:40:54.35	357.99	9.08	-43.0	-47.8	14.6	0.00e+00	0	40	0	1049624576	57	6293
2026-01-18 08:40:55.36	357.89	9.01	-42.8	-47.5	14.8	0.00e+00	0	40	0	1051721728	57	6106
2026-01-18 08:40:56.35	357.79	8.94	-47.2	-63.6	3.8	1.20e+00	0	40	104	1052770304	66	23170
2026-01-18 08:40:57.35	357.69	8.88	-47.8	-63.8	3.8	1.49e+00	0	40	104	1052770304	66	23734
2026-01-18 08:40:58.35	357.60	8.81	-48.0	-63.9	3.8	1.49e+00	0	40	104	1052770304	67	22609
2026-01-18 08:40:59.34	357.50	8.74	-48.3	-64.0	3.8	1.49e+00	0	40	104	1052770304	67	22797
2026-01-18 08:41:00.34	357.41	8.67	-48.5	-64.0	3.8	1.49e+00	0	40	104	1052770304	67	22979
2026-01-18 08:41:01.34	357.31	8.60	-48.6	-64.1	3.8	1.49e+00	0	40	104	1052770304	67	23118
2026-01-18 08:41:02.33	357.22	8.54	-48.9	-64.3	3.8	1.49e+00	0	40	104	1052770304	68	22336
2026-01-18 08:41:03.33	357.12	8.47	-49.0	-64.3	3.8	1.49e+00	0	40	104	1052770304	68	22445
2026-01-18 08:41:04.33	357.03	8.40	-48.5	-64.3	3.8	1.49e+00	0	40	104	1052770304	68	22351
2026-01-18 08:41:05.32	356.93	8.33	-48.8	-64.3	3.8	1.49e+00	0	40	104	1052770304	68	22490
2026-01-18 08:41:06.32	356.84	8.27	-49.2	-64.4	3.8	1.49e+00	0	40	104	1052770304	68	22592
2026-01-18 08:41:07.32	356.75	8.20	-48.8	-64.4	3.8	1.49e+00	0	40	104	1052770304	68	22560
2026-01-18 08:41:08.31	356.66	8.13	-48.7	-64.4	3.8	1.49e+00	0	40	104	1052770304	68	22536
2026-01-18 08:41:09.31	356.56	8.07	-49.1	-64.4	3.8	1.49e+00	0	41	104	1052770304	68	22641
2026-01-18 08:41:10.30	356.47	8.00	-49.2	-64.4	3.8	1.49e+00	0	40	104	1052770304	68	22613
2026-01-18 08:41:11.30	356.38	7.93	-49.0	-64.4	3.8	1.49e+00	0	40	104	1052770304	69	21388
2026-01-18 08:41:12.30	356.29	7.87	-49.1	-64.4	3.8	1.49e+00	0	40	104	1052770304	69	21414
2026-01-18 08:41:13.29	356.20	7.80	-48.8	-64.4	3.8	1.49e+00	0	40	104	1052770304	69	21446
2026-01-18 08:41:14.29	356.11	7.73	-49.1	-64.4	3.8	1.49e+00	0	40	104	1052770304	69	21318
2026-01-18 08:41:15.29	356.02	7.67	-49.1	-64.4	3.8	1.49e+00	0	40	104	1052770304	69	21318
2026-01-18 08:41:16.28	355.94	7.60	-49.2	-64.4	3.8	1.49e+00	0	40	104	1052770304	69	21376
2026-01-18 08:41:17.28	355.85	7.54	-49.2	-64.4	3.8	1.49e+00	0	40	104	1052770304	69	21471
2026-01-18 08:41:18.27	355.76	7.47	-49.2	-64.4	3.8	1.49e+00	0	40	104	1052770304	69	21313
2026-01-18 08:41:19.27	355.67	7.40	-49.2	-64.4	3.8	1.49e+00	0	40	104	1052770304	69	21280
2026-01-18 08:41:20.27	355.59	7.34	-49.1	-64.4	3.8	1.49e+00	0	40	104	1052770304	69	21345
2026-01-18 08:41:21.26	355.50	7.27	-49.2	-64.4	3.8	1.49e+00	0	40	104	1052770304	69	21337
2026-01-18 08:41:22.26	355.41	7.21	-49.1	-64.3	3.8	1.49e+00	0	40	104	1052770304	69	21248
2026-01-18 08:41:23.25	355.33	7.14	-49.1	-64.3	3.8	1.49e+00	0	40	104	1052770304	69	21215
2026-01-18 08:41:24.25	355.24	7.08	-49.0	-64.4	3.8	1.49e+00	0	40	104	1052770304	69	21282
2026-01-18 08:41:25.25	355.16	7.01	-48.8	-64.3	3.8	1.49e+00	0	40	104	1052770304	69	21194
2026-01-18 08:41:26.24	355.07	6.95	-48.8	-64.3	3.8	1.49e+00	0	40	104	1052770304	69	21150
2026-01-18 08:41:27.24	354.99	6.88	-48.8	-64.3	3.8	1.49e+00	0	40	104	1052770304	69	21204
2026-01-18 08:41:28.24	354.91	6.82	-48.8	-64.3	3.8	1.49e+00	0	40	104	1052770304	69	21175
2026-01-18 08:41:29.23	354.82	6.75	-48.8	-64.3	3.8	1.49e+00	0	40	104	1052770304	69	21139
2026-01-18 08:41:30.23	354.74	6.69	-48.8	-64.3	3.8	1.49e+00	0	40	104	1052770304	69	21136
2026-01-18 08:41:31.23	354.66	6.62	-48.8	-64.3	3.8	1.49e+00	0	40	104	1052770304	69	21155
2026-01-18 08:41:32.22	354.57	6.56	-48.8	-64.3	3.8	1.49e+00	0	40	104	1052770304	69	21098
2026-01-18 08:41:33.22	354.49	6.49	-48.8	-64.3	3.8	1.49e+00	0	40	104	1052770304	69	21056
2026-01-18 08:41:34.22	354.41	6.43	-48.8	-64.3	3.8	1.49e+00	0	40	104	1052770304	69	21102
2026-01-18 08:41:35.21	354.33	6.37	-48.8	-64.3	3.8	1.49e+00	0	40	104	1052770304	69	21123
2026-01-18 08:41:36.21	354.25	6.30	-48.8	-64.3	3.8	1.49e+00	0	40	104	1052770304	69	21076
2026-01-18 08:41:37.21	354.17	6.24	-48.8	-64.3	3.8	1.49e+00	0	40	104	1052770304	69	21047
2026-01-18 08:41:38.21	354.09	6.17	-48.8	-64.3	3.8	1.49e+00	0	40	104	1052770304	69	21076
2026-01-18 08:41:39.20	354.01	6.11	-48.8	-64.3	3.8	1.49e+00	0	40	104	1052770304	69	21048
2026-01-18 08:41:40.20	353.93	6.05	-48.8	-64.3	3.8	1.49e+00	0	40	104	1052770304	69	21119
2026-01-18 08:41:41.20	353.85	5.98	-48.8	-64.3	3.8	1.49e+00	0	41	104	1052770304	69	21086
2026-01-18 08:41:42.19	353.77	5.92	-48.8	-64.3	3.8	1.49e+00	0	40	104	1052770304	69	21092
2026-01-18 08:41:43.19	353.69	5.86	-48.8	-64.3	3.8	1.49e+00	0	40	104	1052770304	69	21038
2026-01-18 08:41:44.18	353.62	5.79	-48.8	-64.3	3.8	1.49e+00	0	40	104	1052770304	69	21031
2026-01-18 08:41:45.18	353.54	5.73	-48.8	-64.3	3.8	1.49e+00	0	40	104	1052770304	69	21081
2026-01-18 08:41:46.18	353.46	5.67	-48.8	-64.3	3.8	1.49e+00	0	40	104	1052770304	69	21035
2026-01-18 08:41:47.17	353.39	5.60	-48.8	-64.3	3.8	1.49e+00	0	40	104	1052770304	69	21117
2026-01-18 08:41:48.17	353.31	5.54	-48.8	-64.3	3.8	1.49e+00	0	40	104	1052770304	69	21066
2026-01-18 08:41:49.16	353.23	5.48	-48.8	-64.3	3.8	1.49e+00	0	40	104	1052770304	69	21061
2026-01-18 08:41:50.16	353.16	5.42	-48.8	-64.3	3.8	1.49e+00	0	40	104	1052770304	69	21087
2026-01-18 08:41:51.15	353.08	5.35	-48.8	-64.3	3.8	1.49e+00	0	40	104	1052770304	69	21067
2026-01-18 08:41:52.15	353.01	5.29	-48.8	-64.3	3.8	1.49e+00	0	40	104	1052770304	69	21064
2026-01-18 08:41:53.15	352.93	5.23	-48.8	-64.3	3.8	1.49e+00	0	40	104	1052770304	69	21059
2026-01-18 08:41:54.14	352.86	5.17	-48.8	-64.3	3.8	1.49e+00	0	40	104	1052770304	69	21061
2026-01-18 08:41:55.14	352.78	5.11	-48.8	-64.2	3.8	1.49e+00	0	40	104	1052770304	69	21013
2026-01-18 08:41:56.13	352.71	5.04	-48.8	-64.2	3.8	1.49e+00	0	40	104	1052770304	69	21015
2026-01-18 08:41:57.13	352.64	4.98	-48.8	-64.3	3.8	1.49e+00	0	40	104	1052770304	69	21026

#Closed at: 2026-01-18 08:41:58
#Recorded file [1052 MB]: D:/Data/31040_260118_113046.dat