passes_logs/2026/01/18/T1/T1__20260118_103024_NOAA_20_JPSS-1_rec.log

#Pass ID: 20260118_103024_NOAA 20 (JPSS-1)
#Satellite: NOAA 20 (JPSS-1)
#Configuration: NOAA 20
#almurnet v.1.7.20251203
#Start time: 2026-01-18 10:30:26

#Version: 2.0.20230620
#Station: T1
#Location: 37.570604 lon 55.790049 lat
#TLE: 1 43013U 17073A   26017.58553584  .00000066  00000+0  52288-4 0  9998
#TLE: 2 43013  98.7639 318.4977 0001406  35.6039 324.5231 14.19536575423107

#Time	Az	El	Level	Level2	SNR	BER	BlckErr	Temp	State	Recorded	gain1	gain2
2026-01-18 10:30:26.63	178.58	5.14	-48.9	-64.8	3.8	1.49e+00	0	41	0	0	69	22343
2026-01-18 10:30:27.62	178.61	5.21	-47.8	-64.2	3.8	1.49e+00	0	40	104	0	66	24850
2026-01-18 10:30:28.61	178.65	5.28	-47.7	-64.2	3.8	1.49e+00	0	40	104	0	66	24719
2026-01-18 10:30:29.61	178.68	5.35	-47.7	-64.1	3.8	1.49e+00	0	41	104	0	66	24479
2026-01-18 10:30:30.60	178.71	5.42	-47.8	-64.1	3.8	1.49e+00	0	41	104	0	66	24412
2026-01-18 10:30:31.59	178.75	5.49	-47.7	-64.0	3.8	1.49e+00	0	41	104	0	66	24408
2026-01-18 10:30:32.59	178.78	5.56	-47.7	-64.0	3.8	1.49e+00	0	41	104	0	66	24264
2026-01-18 10:30:33.58	178.82	5.63	-47.7	-64.0	3.8	1.49e+00	0	41	104	0	66	24313
2026-01-18 10:30:34.57	178.85	5.70	-47.7	-64.0	3.8	1.49e+00	0	41	104	0	66	24234
2026-01-18 10:30:35.57	178.89	5.77	-47.7	-64.1	3.8	1.49e+00	0	40	104	0	66	24477
2026-01-18 10:30:36.56	178.92	5.84	-47.7	-64.1	3.8	1.49e+00	0	41	104	0	66	24504
2026-01-18 10:30:37.55	178.96	5.92	-47.7	-64.2	3.8	1.49e+00	0	41	104	0	66	24757
2026-01-18 10:30:38.55	178.99	5.99	-47.7	-64.2	3.8	1.49e+00	0	41	104	0	66	24832
2026-01-18 10:30:39.54	179.03	6.06	-47.7	-64.2	3.8	1.49e+00	0	41	104	0	66	24840
2026-01-18 10:30:40.53	179.06	6.13	-47.7	-64.3	3.8	1.49e+00	0	41	104	0	66	25023
2026-01-18 10:30:41.53	179.10	6.21	-47.7	-64.2	3.8	1.49e+00	0	41	104	0	66	24883
2026-01-18 10:30:42.52	179.14	6.28	-47.8	-64.2	3.8	1.49e+00	0	41	104	0	66	24773
2026-01-18 10:30:43.51	179.17	6.35	-47.7	-64.2	3.8	1.49e+00	0	41	104	0	66	24774
2026-01-18 10:30:44.51	179.21	6.43	-47.7	-64.0	3.8	1.49e+00	0	41	104	0	66	24160
2026-01-18 10:30:45.50	179.24	6.50	-47.7	-63.7	3.8	1.49e+00	0	41	104	0	66	23581
2026-01-18 10:30:46.49	179.28	6.57	-47.7	-63.5	3.8	1.49e+00	0	41	104	0	66	22843
2026-01-18 10:30:47.49	179.32	6.65	-47.7	-63.1	3.8	1.49e+00	0	41	104	0	66	21932
2026-01-18 10:30:48.48	179.35	6.72	-47.7	-62.6	3.8	1.49e+00	0	41	104	0	66	20609
2026-01-18 10:30:49.48	179.39	6.80	-47.6	-62.6	3.8	1.49e+00	0	41	104	0	66	20647
2026-01-18 10:30:50.47	179.43	6.87	-47.7	-62.6	3.8	1.49e+00	0	41	104	0	66	20595
2026-01-18 10:30:51.46	179.47	6.94	-47.7	-62.7	3.8	1.49e+00	0	41	104	0	66	20842
2026-01-18 10:30:52.46	179.50	7.02	-47.7	-63.1	3.8	1.49e+00	0	41	104	0	66	21859
2026-01-18 10:30:53.45	179.54	7.09	-47.7	-63.5	3.8	1.49e+00	0	41	104	0	66	22959
2026-01-18 10:30:54.44	179.58	7.17	-47.6	-63.8	3.8	1.49e+00	0	41	104	0	66	23590
2026-01-18 10:30:55.44	179.62	7.25	-47.6	-62.9	3.8	1.49e+00	0	41	104	0	66	21344
2026-01-18 10:30:56.43	179.66	7.32	-47.5	-61.1	4.1	1.47e+00	0	41	104	0	66	17388
2026-01-18 10:30:57.42	179.70	7.40	-47.3	-58.7	5.0	1.07e+00	0	41	0	1048576	66	13190
2026-01-18 10:30:58.42	179.74	7.47	-47.0	-56.3	6.8	3.85e-01	0	42	0	2097152	66	9994
2026-01-18 10:30:59.41	179.77	7.55	-46.5	-54.2	8.8	1.18e-01	0	41	0	4194304	65	8342
2026-01-18 10:31:00.40	179.81	7.63	-46.0	-52.4	10.7	9.45e-03	0	41	0	6291456	64	7122
2026-01-18 10:31:01.40	179.85	7.70	-45.8	-51.4	11.8	1.14e-03	0	42	0	8388608	63	6745
2026-01-18 10:31:02.39	179.89	7.78	-45.1	-50.0	13.3	1.69e-04	0	42	0	10485760	62	6080
2026-01-18 10:31:03.38	179.93	7.86	-44.5	-48.7	14.5	7.00e-07	0	42	0	11534336	61	5573
2026-01-18 10:31:04.38	179.97	7.94	-44.2	-48.2	15.0	0.00e+00	0	42	0	13631488	60	5591
2026-01-18 10:31:05.37	180.01	8.01	-44.2	-48.1	15.2	0.00e+00	0	42	0	15728640	60	5466
2026-01-18 10:31:06.36	180.05	8.09	-44.0	-47.6	15.6	0.00e+00	0	42	0	17825792	59	5499
2026-01-18 10:31:07.36	180.09	8.17	-43.8	-47.4	15.8	0.00e+00	0	42	0	18874368	59	5381
2026-01-18 10:31:08.35	180.13	8.25	-44.0	-47.6	15.6	0.00e+00	0	42	0	20971520	59	5501
2026-01-18 10:31:09.34	180.18	8.33	-44.1	-47.7	15.5	0.00e+00	0	42	0	23068672	59	5582
2026-01-18 10:31:10.34	180.22	8.41	-44.6	-48.7	14.6	0.00e+00	0	42	0	25165824	59	6210
2026-01-18 10:31:11.33	180.26	8.48	-44.7	-49.0	14.2	7.00e-07	0	42	0	27262976	60	6130
2026-01-18 10:31:12.33	180.30	8.56	-45.2	-50.0	13.3	6.10e-06	0	42	0	28311552	60	6835
2026-01-18 10:31:13.32	180.34	8.64	-45.5	-50.8	12.4	5.11e-05	0	42	0	30408704	61	7120
2026-01-18 10:31:14.31	180.38	8.72	-46.1	-52.3	10.9	1.28e-03	0	42	0	32505856	62	7906
2026-01-18 10:31:15.31	180.43	8.80	-46.4	-53.4	9.7	7.07e-03	0	42	0	34603008	63	8516
2026-01-18 10:31:16.30	180.47	8.88	-46.7	-54.9	8.1	2.83e-02	0	42	0	35651584	64	9584
2026-01-18 10:31:17.29	180.51	8.96	-47.0	-56.5	6.6	1.08e-01	0	42	0	37748736	64	11456
2026-01-18 10:31:18.28	180.55	9.04	-47.2	-57.9	5.5	4.16e-01	0	42	0	39845888	65	12722
2026-01-18 10:31:19.28	180.60	9.13	-47.1	-57.2	6.0	4.70e-01	0	42	0	41943040	65	11726
2026-01-18 10:31:20.34	180.64	9.21	-46.5	-53.5	9.9	3.01e-03	0	42	0	44040192	63	8632
2026-01-18 10:31:21.25	180.68	9.29	-47.4	-62.3	3.8	8.27e-01	0	42	104	44040192	65	21209
2026-01-18 10:31:22.24	180.73	9.37	-47.4	-58.4	5.2	7.97e-01	0	42	0	44040192	65	13429
2026-01-18 10:31:23.43	180.78	9.47	-47.1	-56.1	7.0	1.28e-01	0	42	0	47185920	65	10402
2026-01-18 10:31:24.31	180.82	9.54	-47.0	-55.8	7.3	1.24e-01	0	42	0	48234496	65	9992
2026-01-18 10:31:25.62	180.88	9.65	-46.9	-54.8	8.2	9.54e-02	0	42	0	50331648	65	8871
2026-01-18 10:31:26.33	180.91	9.71	-47.0	-55.0	8.1	6.07e-02	0	42	0	52428800	65	9074
2026-01-18 10:31:27.62	180.97	9.82	-47.1	-54.9	8.4	6.67e-02	0	42	0	54525952	65	9034
2026-01-18 10:31:28.33	181.00	9.88	-47.0	-54.6	8.4	6.98e-02	0	42	0	55574528	65	8662
2026-01-18 10:31:29.61	181.06	9.99	-47.1	-54.3	8.6	5.04e-02	0	42	0	58720256	65	8411
2026-01-18 10:31:30.35	181.09	10.05	-47.1	-54.3	8.5	3.09e-02	0	42	0	59768832	65	8423
2026-01-18 10:31:31.63	181.15	10.16	-47.4	-54.8	8.2	5.01e-02	0	42	0	61865984	65	8951
2026-01-18 10:31:32.36	181.19	10.22	-47.0	-53.7	9.0	5.71e-02	0	42	0	63963136	65	7878
2026-01-18 10:31:33.64	181.25	10.33	-47.3	-54.1	9.0	2.10e-02	0	42	0	66060288	65	8254
2026-01-18 10:31:34.49	181.29	10.40	-47.2	-53.6	9.7	1.50e-02	0	42	0	67108864	65	7747
2026-01-18 10:31:35.62	181.34	10.50	-47.2	-53.6	9.2	1.65e-02	0	42	0	69206016	65	7808
2026-01-18 10:31:36.48	181.38	10.57	-47.3	-53.8	9.2	1.36e-02	0	42	0	71303168	65	7907
2026-01-18 10:31:37.61	181.44	10.67	-46.8	-52.2	11.0	3.73e-03	0	42	0	73400320	65	6642
2026-01-18 10:31:38.47	181.48	10.75	-47.0	-52.6	10.4	3.83e-03	0	42	0	74448896	65	6942
2026-01-18 10:31:39.61	181.53	10.84	-47.0	-52.8	10.2	6.18e-03	0	42	0	76546048	65	7105
2026-01-18 10:31:40.46	181.57	10.92	-47.2	-53.4	9.8	1.22e-02	0	42	0	78643200	65	7576
2026-01-18 10:31:41.60	181.63	11.02	-47.2	-53.3	9.7	1.26e-02	0	42	0	80740352	65	7493
2026-01-18 10:31:42.45	181.67	11.09	-46.9	-52.6	10.1	8.95e-03	0	42	0	82837504	65	6912
2026-01-18 10:31:43.59	181.73	11.19	-46.9	-52.6	10.2	6.05e-03	0	42	0	84934656	65	6949
2026-01-18 10:31:44.44	181.77	11.27	-46.3	-51.2	12.0	8.19e-04	0	42	0	85983232	64	6261
2026-01-18 10:31:45.57	181.83	11.37	-45.6	-49.7	13.7	3.50e-05	0	42	0	88080384	63	5537
2026-01-18 10:31:46.43	181.87	11.45	-45.1	-49.0	14.4	3.80e-06	0	42	0	90177536	62	5406
2026-01-18 10:31:47.56	181.93	11.55	-44.4	-47.8	15.6	0.00e+00	0	42	0	92274688	60	5311
2026-01-18 10:31:48.42	181.97	11.63	-43.8	-46.9	16.4	0.00e+00	0	42	0	93323264	59	5059
2026-01-18 10:31:49.56	182.03	11.73	-43.3	-46.2	17.1	0.00e+00	0	42	0	95420416	58	4951
2026-01-18 10:31:50.41	182.07	11.81	-43.2	-46.1	17.2	0.00e+00	0	42	0	97517568	58	4878
2026-01-18 10:31:51.55	182.13	11.91	-43.1	-45.9	17.4	0.00e+00	0	42	0	99614720	58	4809
2026-01-18 10:31:52.40	182.18	11.99	-43.0	-45.8	17.5	0.00e+00	0	42	0	100663296	58	4720
2026-01-18 10:31:53.53	182.24	12.09	-42.9	-45.7	17.6	0.00e+00	0	42	0	102760448	57	4952
2026-01-18 10:31:54.39	182.28	12.17	-42.9	-45.6	17.7	0.00e+00	0	42	0	104857600	57	4926
2026-01-18 10:31:55.52	182.34	12.27	-42.9	-45.6	17.7	0.00e+00	0	42	0	106954752	57	4880
2026-01-18 10:31:56.37	182.39	12.35	-43.0	-45.7	17.6	0.00e+00	0	42	0	108003328	57	4979
2026-01-18 10:31:57.51	182.45	12.46	-42.9	-45.5	17.8	0.00e+00	0	42	0	110100480	57	4870
2026-01-18 10:31:58.37	182.50	12.54	-42.8	-45.4	17.9	0.00e+00	0	42	0	112197632	57	4813
2026-01-18 10:31:59.50	182.56	12.64	-42.8	-45.5	17.8	0.00e+00	0	42	0	114294784	57	4842
2026-01-18 10:32:00.36	182.60	12.72	-42.9	-45.6	17.7	0.00e+00	0	42	0	116391936	57	4887
2026-01-18 10:32:01.62	182.67	12.84	-42.8	-45.5	17.8	0.00e+00	0	42	0	118489088	57	4823
2026-01-18 10:32:02.42	182.72	12.92	-42.7	-45.4	17.9	0.00e+00	0	42	0	119537664	57	4762
2026-01-18 10:32:03.56	182.78	13.03	-42.8	-45.5	17.8	0.00e+00	0	42	0	121634816	57	4823
2026-01-18 10:32:04.41	182.83	13.11	-42.9	-45.5	17.8	0.00e+00	0	42	0	123731968	57	4864
2026-01-18 10:32:05.55	182.89	13.22	-42.9	-45.5	17.8	0.00e+00	0	42	0	125829120	57	4855
2026-01-18 10:32:06.41	182.94	13.30	-42.8	-45.5	17.9	0.00e+00	0	42	0	126877696	57	4822
2026-01-18 10:32:07.54	183.01	13.41	-42.8	-45.4	17.9	0.00e+00	0	42	0	128974848	57	4812
2026-01-18 10:32:08.40	183.06	13.49	-42.8	-45.5	17.9	0.00e+00	0	42	0	131072000	57	4826
2026-01-18 10:32:09.53	183.12	13.60	-42.8	-45.5	17.9	0.00e+00	0	42	0	133169152	57	4822
2026-01-18 10:32:10.39	183.17	13.68	-42.7	-45.4	17.9	0.00e+00	0	42	0	135266304	57	4779
2026-01-18 10:32:11.52	183.24	13.80	-42.8	-45.4	17.9	0.00e+00	0	42	0	137363456	57	4800
2026-01-18 10:32:12.38	183.29	13.88	-42.7	-45.4	17.9	0.00e+00	0	42	0	138412032	57	4773
2026-01-18 10:32:13.51	183.36	13.99	-42.8	-45.5	17.8	0.00e+00	0	42	0	140509184	57	4841
2026-01-18 10:32:14.37	183.41	14.08	-42.7	-45.4	18.0	0.00e+00	0	42	0	142606336	57	4760
2026-01-18 10:32:15.51	183.48	14.19	-42.7	-45.3	18.0	0.00e+00	0	42	0	144703488	57	4736
2026-01-18 10:32:16.36	183.53	14.27	-42.7	-45.3	18.0	0.00e+00	0	42	0	145752064	57	4742
2026-01-18 10:32:17.61	183.60	14.40	-42.7	-45.4	18.0	0.00e+00	0	42	0	147849216	57	4776
2026-01-18 10:32:18.46	183.65	14.48	-42.7	-45.4	17.9	0.00e+00	0	42	0	149946368	57	4774
2026-01-18 10:32:19.59	183.72	14.60	-42.8	-45.4	17.9	0.00e+00	0	42	0	152043520	57	4813
2026-01-18 10:32:20.44	183.78	14.68	-42.7	-45.4	18.0	0.00e+00	0	42	0	154140672	57	4763
2026-01-18 10:32:21.58	183.85	14.80	-42.7	-45.4	17.9	0.00e+00	0	42	0	155189248	57	4789
2026-01-18 10:32:22.43	183.90	14.89	-42.7	-45.3	18.0	0.00e+00	0	42	0	157286400	57	4751
2026-01-18 10:32:23.57	183.97	15.00	-42.6	-45.2	18.1	0.00e+00	0	43	0	159383552	57	4695
2026-01-18 10:32:24.42	184.03	15.09	-42.6	-45.3	18.1	0.00e+00	0	42	0	161480704	57	4706
2026-01-18 10:32:25.56	184.10	15.21	-42.7	-45.3	18.0	0.00e+00	0	42	0	163577856	57	4735
2026-01-18 10:32:26.41	184.15	15.30	-42.8	-45.4	17.9	0.00e+00	0	42	0	164626432	57	4777
2026-01-18 10:32:27.55	184.23	15.41	-42.8	-45.4	17.9	0.00e+00	0	42	0	166723584	57	4807
2026-01-18 10:32:28.40	184.28	15.50	-42.7	-45.3	18.0	0.00e+00	0	43	0	168820736	57	4734
2026-01-18 10:32:29.54	184.36	15.62	-42.7	-45.2	18.1	0.00e+00	0	43	0	170917888	57	4700
2026-01-18 10:32:30.39	184.42	15.71	-42.7	-45.3	17.9	0.00e+00	0	42	0	171966464	57	4746
2026-01-18 10:32:31.53	184.49	15.83	-42.8	-45.4	17.9	0.00e+00	0	42	0	174063616	57	4787
2026-01-18 10:32:32.38	184.55	15.92	-42.7	-45.2	18.1	0.00e+00	0	43	0	176160768	57	4703
2026-01-18 10:32:33.51	184.62	16.04	-42.6	-45.2	18.1	0.00e+00	0	42	0	178257920	57	4659
2026-01-18 10:32:34.37	184.68	16.13	-42.6	-45.2	18.1	0.00e+00	0	42	0	179306496	57	4686
2026-01-18 10:32:35.50	184.76	16.26	-42.6	-45.2	18.0	0.00e+00	0	42	0	181403648	57	4666
2026-01-18 10:32:36.35	184.82	16.35	-42.6	-45.1	18.1	0.00e+00	0	42	0	183500800	57	4650
2026-01-18 10:32:37.49	184.90	16.47	-42.5	-45.1	18.2	0.00e+00	0	42	0	185597952	57	4616
2026-01-18 10:32:38.34	184.96	16.56	-42.5	-45.0	18.2	0.00e+00	0	42	0	187695104	57	4591
2026-01-18 10:32:39.48	185.04	16.69	-42.4	-45.0	18.3	0.00e+00	0	43	0	189792256	56	4834
2026-01-18 10:32:40.33	185.10	16.78	-42.5	-45.1	18.2	0.00e+00	0	43	0	190840832	56	4876
2026-01-18 10:32:41.47	185.18	16.91	-42.4	-44.9	18.3	0.00e+00	0	42	0	192937984	56	4809
2026-01-18 10:32:42.32	185.24	17.00	-42.3	-44.9	18.4	0.00e+00	0	43	0	195035136	56	4782
2026-01-18 10:32:43.46	185.32	17.13	-42.4	-44.9	18.3	0.00e+00	0	42	0	197132288	56	4803
2026-01-18 10:32:44.31	185.38	17.22	-42.3	-44.9	18.4	0.00e+00	0	43	0	198180864	56	4793
2026-01-18 10:32:45.45	185.47	17.35	-42.5	-45.1	18.2	0.00e+00	0	42	0	200278016	56	4898
2026-01-18 10:32:46.30	185.53	17.44	-42.4	-44.9	18.4	0.00e+00	0	42	0	202375168	56	4811
2026-01-18 10:32:47.44	185.62	17.57	-42.4	-45.0	18.3	0.00e+00	0	42	0	204472320	56	4826
2026-01-18 10:32:48.29	185.68	17.67	-42.4	-45.0	18.3	0.00e+00	0	42	0	205520896	56	4853
2026-01-18 10:32:49.43	185.76	17.80	-42.5	-45.1	18.2	0.00e+00	0	42	0	207618048	56	4918
2026-01-18 10:32:50.28	185.83	17.90	-42.5	-45.0	18.3	0.00e+00	0	42	0	209715200	56	4863
2026-01-18 10:32:51.53	185.93	18.04	-42.5	-45.0	18.3	0.00e+00	0	42	0	211812352	56	4860
2026-01-18 10:32:52.38	185.99	18.14	-42.5	-45.1	18.2	0.00e+00	0	42	0	213909504	56	4884
2026-01-18 10:32:53.51	186.08	18.27	-42.4	-44.9	18.4	0.00e+00	0	42	0	216006656	56	4803
2026-01-18 10:32:54.37	186.15	18.37	-42.4	-44.9	18.4	0.00e+00	0	42	0	217055232	56	4791
2026-01-18 10:32:55.50	186.23	18.50	-42.4	-44.9	18.4	0.00e+00	0	42	0	219152384	56	4781
2026-01-18 10:32:56.36	186.30	18.60	-42.3	-44.9	18.4	0.00e+00	0	42	0	221249536	56	4775
2026-01-18 10:32:57.50	186.39	18.74	-42.3	-44.8	18.5	0.00e+00	0	43	0	223346688	56	4720
2026-01-18 10:32:58.35	186.46	18.84	-42.2	-44.7	18.6	0.00e+00	0	43	0	224395264	56	4680
2026-01-18 10:32:59.49	186.56	18.97	-42.2	-44.7	18.6	0.00e+00	0	43	0	226492416	56	4663
2026-01-18 10:33:00.34	186.62	19.07	-42.2	-44.7	18.6	0.00e+00	0	42	0	228589568	56	4678
2026-01-18 10:33:01.47	186.72	19.21	-42.2	-44.7	18.6	0.00e+00	0	42	0	230686720	56	4657
2026-01-18 10:33:02.33	186.79	19.31	-42.2	-44.6	18.6	0.00e+00	0	43	0	231735296	56	4645
2026-01-18 10:33:03.47	186.88	19.45	-42.0	-44.4	18.8	0.00e+00	0	42	0	233832448	56	4537
2026-01-18 10:33:04.32	186.96	19.55	-41.8	-44.2	18.9	0.00e+00	0	42	0	235929600	55	4667
2026-01-18 10:33:05.46	187.05	19.69	-41.8	-44.1	19.0	0.00e+00	0	43	0	238026752	55	4648
2026-01-18 10:33:06.31	187.13	19.80	-41.7	-44.1	19.1	0.00e+00	0	42	0	240123904	55	4600
2026-01-18 10:33:07.44	187.22	19.93	-41.7	-44.0	19.1	0.00e+00	0	42	0	242221056	55	4589
2026-01-18 10:33:08.30	187.30	20.04	-41.6	-44.0	19.1	0.00e+00	0	43	0	243269632	55	4553
2026-01-18 10:33:09.43	187.40	20.18	-41.5	-43.8	19.2	0.00e+00	0	43	0	245366784	55	4486
2026-01-18 10:33:10.29	187.47	20.29	-41.5	-43.8	19.3	0.00e+00	0	43	0	247463936	54	4728
2026-01-18 10:33:11.42	187.57	20.43	-41.4	-43.7	19.3	0.00e+00	0	43	0	249561088	54	4692
2026-01-18 10:33:12.27	187.65	20.54	-41.3	-43.6	19.5	0.00e+00	0	43	0	250609664	54	4629
2026-01-18 10:33:13.62	187.77	20.71	-41.2	-43.5	19.5	0.00e+00	0	43	0	253755392	54	4579
2026-01-18 10:33:14.72	187.87	20.85	-41.2	-43.5	19.5	0.00e+00	0	43	0	255852544	54	4561
2026-01-18 10:33:15.57	187.95	20.96	-41.2	-43.5	19.6	0.00e+00	0	42	0	256901120	54	4562
2026-01-18 10:33:16.71	188.06	21.10	-41.1	-43.3	19.7	0.00e+00	0	43	0	258998272	54	4467
2026-01-18 10:33:17.57	188.14	21.21	-41.0	-43.3	19.7	0.00e+00	0	43	0	261095424	54	4464
2026-01-18 10:33:18.70	188.24	21.36	-41.1	-43.3	19.5	0.00e+00	0	43	0	263192576	54	4472
2026-01-18 10:33:19.55	188.32	21.47	-40.9	-43.1	19.9	0.00e+00	0	43	0	264241152	53	4634
2026-01-18 10:33:20.69	188.43	21.62	-40.9	-43.1	19.9	0.00e+00	0	42	0	266338304	53	4635
2026-01-18 10:33:21.61	188.52	21.74	-40.9	-43.1	19.9	0.00e+00	0	43	0	268435456	53	4620
2026-01-18 10:33:22.61	188.62	21.87	-41.0	-43.2	19.7	0.00e+00	0	43	0	270532608	53	4692
2026-01-18 10:33:23.60	188.72	22.00	-41.0	-43.2	19.8	0.00e+00	0	43	0	271581184	53	4674
2026-01-18 10:33:24.60	188.81	22.13	-41.0	-43.2	19.8	0.00e+00	0	43	0	273678336	53	4661
2026-01-18 10:33:25.59	188.91	22.27	-41.0	-43.2	19.8	0.00e+00	0	43	0	275775488	53	4670
2026-01-18 10:33:26.90	189.04	22.44	-41.0	-43.2	19.8	0.00e+00	0	43	0	277872640	53	4689
2026-01-18 10:33:27.64	189.12	22.54	-41.0	-43.2	19.8	0.00e+00	0	43	0	279969792	53	4667
2026-01-18 10:33:29.24	189.28	22.76	-41.0	-43.2	19.8	0.00e+00	0	43	0	283115520	53	4687
2026-01-18 10:33:29.81	189.34	22.84	-41.0	-43.3	19.7	0.00e+00	0	42	0	284164096	53	4710
2026-01-18 10:33:31.51	189.52	23.07	-41.0	-43.2	19.8	0.00e+00	0	42	0	287309824	53	4659
2026-01-18 10:33:32.08	189.58	23.15	-40.8	-43.0	20.0	0.00e+00	0	43	0	288358400	53	4582
2026-01-18 10:33:33.78	189.76	23.38	-40.8	-43.0	20.0	0.00e+00	0	43	0	291504128	53	4576
2026-01-18 10:33:34.35	189.82	23.46	-40.9	-43.0	19.9	0.00e+00	0	43	0	292552704	53	4584
2026-01-18 10:33:36.05	190.01	23.70	-40.6	-42.8	20.2	0.00e+00	0	43	0	295698432	53	4450
2026-01-18 10:33:36.75	190.08	23.80	-40.6	-42.7	20.2	0.00e+00	0	43	0	296747008	53	4420
2026-01-18 10:33:38.17	190.24	24.00	-40.5	-42.6	20.3	0.00e+00	0	43	0	298844160	53	4382
2026-01-18 10:33:38.88	190.32	24.10	-40.6	-42.7	20.3	0.00e+00	0	42	0	300941312	53	4409
2026-01-18 10:33:40.15	190.46	24.28	-40.5	-42.6	20.3	0.00e+00	0	43	0	303038464	53	4370
2026-01-18 10:33:41.02	190.56	24.41	-40.5	-42.6	20.4	0.00e+00	0	43	0	305135616	53	4378
2026-01-18 10:33:42.16	190.69	24.57	-40.5	-42.6	20.4	0.00e+00	0	43	0	307232768	52	4605
2026-01-18 10:33:43.01	190.79	24.70	-40.5	-42.6	20.4	0.00e+00	0	43	0	308281344	52	4622
2026-01-18 10:33:44.15	190.93	24.86	-40.5	-42.6	20.4	0.00e+00	0	43	0	310378496	52	4629
2026-01-18 10:33:45.00	191.03	24.99	-40.5	-42.6	20.4	0.00e+00	0	43	0	312475648	52	4627
2026-01-18 10:33:46.14	191.16	25.15	-40.6	-42.7	20.3	0.00e+00	0	43	0	314572800	52	4653
2026-01-18 10:33:46.99	191.26	25.28	-40.7	-42.8	20.2	0.00e+00	0	43	0	315621376	52	4714
2026-01-18 10:33:48.13	191.40	25.45	-40.8	-42.9	20.1	0.00e+00	0	43	0	317718528	52	4785
2026-01-18 10:33:49.34	191.55	25.63	-40.8	-42.9	20.1	0.00e+00	0	43	0	320864256	52	4800
2026-01-18 10:33:50.19	191.66	25.76	-40.8	-43.0	20.0	0.00e+00	0	43	0	321912832	52	4819
2026-01-18 10:33:51.33	191.80	25.93	-40.8	-42.9	20.0	0.00e+00	0	43	0	324009984	52	4814
2026-01-18 10:33:52.18	191.90	26.06	-40.8	-42.9	20.1	0.00e+00	0	43	0	326107136	52	4796
2026-01-18 10:33:53.32	192.05	26.23	-40.8	-42.9	20.1	0.00e+00	0	43	0	328204288	52	4814
2026-01-18 10:33:54.18	192.16	26.36	-40.8	-43.0	20.0	0.00e+00	0	43	0	329252864	52	4842
2026-01-18 10:33:55.32	192.31	26.54	-41.0	-43.2	19.9	0.00e+00	0	43	0	331350016	52	4929
2026-01-18 10:33:56.17	192.42	26.67	-41.0	-43.2	19.9	0.00e+00	0	43	0	333447168	52	4951
2026-01-18 10:33:57.31	192.57	26.84	-41.1	-43.2	19.8	0.00e+00	0	43	0	335544320	52	4983
2026-01-18 10:33:58.16	192.68	26.98	-41.1	-43.3	19.8	0.00e+00	0	43	0	336592896	52	4998
2026-01-18 10:33:59.47	192.86	27.18	-41.2	-43.4	19.7	0.00e+00	0	43	0	339738624	52	5047
2026-01-18 10:34:00.18	192.95	27.29	-41.2	-43.4	19.7	0.00e+00	0	43	0	340787200	53	4783
2026-01-18 10:34:01.46	193.13	27.50	-41.4	-43.6	19.5	0.00e+00	0	43	0	342884352	53	4875
2026-01-18 10:34:02.19	193.23	27.61	-41.4	-43.7	19.4	0.00e+00	0	43	0	343932928	53	4938
2026-01-18 10:34:03.47	193.41	27.82	-41.6	-43.9	19.2	0.00e+00	0	43	0	347078656	53	5060
2026-01-18 10:34:04.20	193.51	27.93	-41.8	-44.2	19.0	0.00e+00	0	43	0	348127232	54	4929
2026-01-18 10:34:05.48	193.70	28.14	-42.1	-44.5	18.6	0.00e+00	0	43	0	350224384	54	5128
2026-01-18 10:34:06.20	193.80	28.26	-42.3	-44.7	18.4	0.00e+00	0	43	0	352321536	55	4975
2026-01-18 10:34:07.48	193.99	28.46	-42.5	-45.0	18.1	0.00e+00	0	43	0	354418688	55	5152
2026-01-18 10:34:08.21	194.09	28.58	-42.9	-45.4	17.9	0.00e+00	0	43	0	355467264	56	5078
2026-01-18 10:34:09.48	194.28	28.79	-43.0	-45.5	17.8	0.00e+00	0	43	0	358612992	56	5159
2026-01-18 10:34:10.19	194.39	28.91	-43.1	-45.7	17.7	0.00e+00	0	43	0	359661568	56	5232
2026-01-18 10:34:11.47	194.58	29.12	-43.2	-45.7	17.6	0.00e+00	0	43	0	361758720	56	5274
2026-01-18 10:34:12.18	194.69	29.24	-43.2	-45.8	17.5	0.00e+00	0	43	0	362807296	57	5035
2026-01-18 10:34:13.54	194.90	29.46	-43.3	-45.9	17.4	0.00e+00	0	43	0	365953024	57	5086
2026-01-18 10:34:14.25	195.01	29.58	-43.4	-46.0	17.3	0.00e+00	0	43	0	367001600	57	5140
2026-01-18 10:34:15.53	195.21	29.80	-43.5	-46.2	17.2	0.00e+00	0	43	0	369098752	57	5226
2026-01-18 10:34:16.26	195.33	29.92	-43.6	-46.3	17.0	0.00e+00	0	43	0	371195904	57	5337
2026-01-18 10:34:17.54	195.53	30.14	-43.8	-46.5	16.9	0.00e+00	0	43	0	373293056	58	5151
2026-01-18 10:34:18.26	195.65	30.26	-43.8	-46.6	16.8	0.00e+00	0	43	0	374341632	58	5181
2026-01-18 10:34:19.54	195.86	30.48	-44.0	-46.9	16.5	0.00e+00	0	43	0	377487360	58	5351
2026-01-18 10:34:20.28	195.98	30.61	-44.1	-47.1	16.3	0.00e+00	0	43	0	378535936	58	5516
2026-01-18 10:34:21.77	196.23	30.87	-44.2	-47.2	16.2	0.00e+00	0	43	0	380633088	59	5230
2026-01-18 10:34:22.48	196.36	30.99	-44.2	-47.2	16.2	0.00e+00	0	43	0	382730240	59	5237
2026-01-18 10:34:23.76	196.57	31.22	-44.3	-47.3	16.1	0.00e+00	0	43	0	384827392	59	5296
2026-01-18 10:34:24.49	196.70	31.35	-44.3	-47.3	16.1	0.00e+00	0	43	0	385875968	59	5325
2026-01-18 10:34:25.77	196.93	31.57	-44.5	-47.7	15.7	0.00e+00	0	43	0	389021696	59	5540
2026-01-18 10:34:26.49	197.05	31.70	-44.5	-47.6	15.9	0.00e+00	0	43	0	390070272	59	5473
2026-01-18 10:34:27.77	197.28	31.93	-44.5	-47.5	15.8	0.00e+00	0	43	0	392167424	59	5449
2026-01-18 10:34:28.48	197.41	32.06	-44.5	-47.5	15.9	0.00e+00	0	43	0	394264576	59	5435
2026-01-18 10:34:29.76	197.65	32.28	-44.2	-47.2	16.2	0.00e+00	0	43	0	396361728	59	5236
2026-01-18 10:34:30.50	197.78	32.42	-44.1	-47.0	16.3	0.00e+00	0	43	0	397410304	59	5155
2026-01-18 10:34:31.78	198.02	32.65	-44.2	-47.1	16.3	0.00e+00	0	43	0	399507456	59	5183
2026-01-18 10:34:32.52	198.16	32.79	-44.2	-47.1	16.3	0.00e+00	0	43	0	401604608	59	5203
2026-01-18 10:34:33.80	198.41	33.02	-44.1	-47.0	16.4	0.00e+00	0	43	0	403701760	59	5132
2026-01-18 10:34:34.53	198.55	33.15	-44.1	-47.0	16.4	0.00e+00	0	43	0	404750336	59	5109
2026-01-18 10:34:35.81	198.80	33.39	-44.2	-47.2	16.3	0.00e+00	0	43	0	407896064	59	5225
2026-01-18 10:34:36.54	198.94	33.52	-44.4	-47.4	16.0	0.00e+00	0	43	0	408944640	59	5356
2026-01-18 10:34:37.82	199.20	33.76	-44.1	-47.0	16.4	0.00e+00	0	43	0	411041792	59	5115
2026-01-18 10:34:38.67	199.37	33.92	-44.1	-47.0	16.4	0.00e+00	0	43	0	413138944	59	5139
2026-01-18 10:34:39.81	199.60	34.13	-43.9	-46.7	16.8	0.00e+00	0	43	0	415236096	59	4945
2026-01-18 10:34:40.66	199.78	34.29	-43.7	-46.5	16.9	0.00e+00	0	43	0	416284672	59	4851
2026-01-18 10:34:41.80	200.02	34.51	-43.8	-46.6	17.0	0.00e+00	0	43	0	418381824	59	4873
2026-01-18 10:34:42.65	200.20	34.67	-43.7	-46.5	16.9	0.00e+00	0	43	0	420478976	59	4820
2026-01-18 10:34:43.79	200.44	34.89	-43.5	-46.2	17.3	0.00e+00	0	43	0	422576128	59	4678
2026-01-18 10:34:44.64	200.63	35.05	-43.4	-46.0	17.4	0.00e+00	0	43	0	423624704	58	4853
2026-01-18 10:34:45.78	200.88	35.27	-43.3	-45.8	17.6	0.00e+00	0	43	0	425721856	58	4754
2026-01-18 10:34:46.63	201.06	35.43	-43.3	-46.0	17.5	0.00e+00	0	43	0	427819008	58	4815
2026-01-18 10:34:47.77	201.32	35.65	-43.3	-45.9	17.6	0.00e+00	0	43	0	429916160	58	4780
2026-01-18 10:34:48.62	201.51	35.82	-43.3	-45.9	17.5	0.00e+00	0	43	0	430964736	58	4801
2026-01-18 10:34:49.76	201.77	36.04	-43.1	-45.6	17.8	0.00e+00	0	43	0	434110464	58	4645
2026-01-18 10:34:50.61	201.97	36.20	-43.1	-45.6	17.8	0.00e+00	0	43	0	435159040	58	4642
2026-01-18 10:34:51.75	202.24	36.43	-42.9	-45.4	18.0	0.00e+00	0	43	0	437256192	57	4799
2026-01-18 10:34:52.70	202.47	36.61	-42.8	-45.2	18.2	0.00e+00	0	43	0	439353344	57	4691
2026-01-18 10:34:53.87	202.75	36.84	-42.8	-45.3	18.2	0.00e+00	0	43	0	441450496	57	4725
2026-01-18 10:34:54.73	202.96	37.01	-42.7	-45.2	18.2	0.00e+00	0	43	0	442499072	57	4680
2026-01-18 10:34:56.05	203.28	37.28	-42.8	-45.2	18.2	0.00e+00	0	43	0	445644800	57	4683
2026-01-18 10:34:56.76	203.46	37.42	-42.5	-44.9	18.5	0.00e+00	0	43	0	446693376	57	4544
2026-01-18 10:34:58.26	203.84	37.72	-42.4	-44.7	18.7	0.00e+00	0	43	0	449839104	56	4689
2026-01-18 10:34:58.97	204.02	37.86	-42.4	-44.7	18.7	0.00e+00	0	43	0	450887680	56	4691
2026-01-18 10:35:00.25	204.35	38.12	-42.3	-44.6	18.8	0.00e+00	0	43	0	452984832	56	4628
2026-01-18 10:35:00.99	204.55	38.26	-42.3	-44.6	18.8	0.00e+00	0	43	0	455081984	56	4646
2026-01-18 10:35:02.26	204.89	38.52	-42.4	-44.8	18.7	0.00e+00	0	43	0	457179136	56	4706
2026-01-18 10:35:03.00	205.09	38.67	-42.3	-44.7	18.8	0.00e+00	0	43	0	458227712	56	4679
2026-01-18 10:35:04.28	205.43	38.93	-42.5	-44.9	18.6	0.00e+00	0	43	0	461373440	56	4760
2026-01-18 10:35:04.99	205.63	39.07	-42.5	-44.9	18.6	0.00e+00	0	43	0	462422016	56	4778
2026-01-18 10:35:06.27	205.99	39.34	-42.4	-44.8	18.7	0.00e+00	0	43	0	464519168	56	4712
2026-01-18 10:35:06.98	206.19	39.48	-42.4	-44.8	18.7	0.00e+00	0	43	0	465567744	56	4728
2026-01-18 10:35:08.26	206.56	39.74	-42.2	-44.6	18.9	0.00e+00	0	43	0	468713472	56	4613
2026-01-18 10:35:08.99	206.77	39.89	-42.2	-44.5	19.0	0.00e+00	0	43	0	469762048	56	4588
2026-01-18 10:35:10.27	207.14	40.16	-42.1	-44.4	19.0	0.00e+00	0	43	0	471859200	56	4535
2026-01-18 10:35:10.99	207.36	40.30	-42.0	-44.3	19.2	0.00e+00	0	43	0	473956352	56	4475
2026-01-18 10:35:12.28	207.75	40.57	-42.1	-44.4	19.1	0.00e+00	0	43	0	476053504	56	4502
2026-01-18 10:35:13.02	207.97	40.72	-42.1	-44.5	19.0	0.00e+00	0	43	0	477102080	56	4556
2026-01-18 10:35:14.30	208.37	40.99	-42.2	-44.5	19.0	0.00e+00	0	43	0	479199232	56	4593
2026-01-18 10:35:15.02	208.59	41.14	-42.3	-44.7	18.8	0.00e+00	0	43	0	481296384	56	4670
2026-01-18 10:35:16.30	209.00	41.40	-42.4	-44.8	18.7	0.00e+00	0	43	0	483393536	56	4735
2026-01-18 10:35:17.01	209.23	41.55	-42.5	-44.9	18.7	0.00e+00	0	43	0	484442112	56	4763
2026-01-18 10:35:18.29	209.64	41.82	-42.5	-44.9	18.6	0.00e+00	0	43	0	487587840	56	4760
2026-01-18 10:35:19.02	209.88	41.97	-42.4	-44.8	18.7	0.00e+00	0	43	0	488636416	56	4727
2026-01-18 10:35:20.29	210.31	42.23	-42.6	-45.0	18.5	0.00e+00	0	43	0	490733568	56	4853
2026-01-18 10:35:21.01	210.55	42.38	-42.5	-45.0	18.6	0.00e+00	0	43	0	491782144	56	4828
2026-01-18 10:35:22.28	210.98	42.65	-43.0	-45.5	18.1	0.00e+00	0	43	0	494927872	56	5139
2026-01-18 10:35:23.00	211.23	42.80	-43.0	-45.6	17.9	0.00e+00	0	43	0	495976448	56	5180
2026-01-18 10:35:24.28	211.68	43.06	-43.1	-45.7	17.9	0.00e+00	0	43	0	498073600	57	4949
2026-01-18 10:35:25.00	211.94	43.21	-43.0	-45.5	18.0	0.00e+00	0	43	0	500170752	57	4854
2026-01-18 10:35:26.28	212.40	43.48	-43.0	-45.5	18.0	0.00e+00	0	43	0	502267904	57	4836
2026-01-18 10:35:27.12	212.70	43.65	-42.9	-45.3	18.2	0.00e+00	0	43	0	503316480	57	4754
2026-01-18 10:35:28.25	213.12	43.89	-43.1	-45.5	18.1	0.00e+00	0	43	0	505413632	57	4864
2026-01-18 10:35:29.11	213.44	44.07	-43.2	-45.8	17.9	0.00e+00	0	43	0	507510784	57	4988
2026-01-18 10:35:30.24	213.87	44.30	-44.1	-46.9	16.8	0.00e+00	0	43	0	509607936	58	5347
2026-01-18 10:35:31.10	214.20	44.48	-44.3	-47.2	16.4	0.00e+00	0	43	0	510656512	59	5260
2026-01-18 10:35:32.23	214.64	44.71	-44.4	-47.4	16.2	0.00e+00	0	43	0	513802240	59	5382
2026-01-18 10:35:33.08	214.97	44.89	-44.2	-47.0	16.6	0.00e+00	0	43	0	514850816	59	5135
2026-01-18 10:35:34.22	215.43	45.12	-43.8	-46.6	17.1	0.00e+00	0	43	0	516947968	59	4874
2026-01-18 10:35:35.08	215.78	45.30	-43.8	-46.5	17.1	0.00e+00	0	43	0	519045120	59	4864
2026-01-18 10:35:36.22	216.24	45.54	-43.8	-46.5	17.2	0.00e+00	0	43	0	521142272	59	4839
2026-01-18 10:35:37.07	216.59	45.71	-43.9	-46.6	17.0	0.00e+00	0	43	0	522190848	59	4912
2026-01-18 10:35:38.30	217.11	45.96	-44.4	-47.3	16.4	0.00e+00	0	43	0	524288000	59	5318
2026-01-18 10:35:39.16	217.48	46.13	-44.8	-48.0	15.8	0.00e+00	0	43	0	526385152	60	5437
2026-01-18 10:35:40.29	217.96	46.36	-45.4	-48.8	14.9	0.00e+00	0	43	0	528482304	61	5630
2026-01-18 10:35:41.14	218.33	46.53	-45.5	-48.9	14.9	7.00e-07	0	43	0	529530880	61	5693
2026-01-18 10:35:42.41	218.90	46.79	-45.4	-48.8	15.0	0.00e+00	0	43	0	532676608	61	5611
2026-01-18 10:35:43.19	219.25	46.95	-45.1	-48.3	15.4	0.00e+00	0	43	0	533725184	61	5280
2026-01-18 10:35:44.46	219.82	47.20	-45.0	-48.2	15.6	0.00e+00	0	43	0	535822336	61	5244
2026-01-18 10:35:45.17	220.15	47.34	-45.1	-48.3	15.4	0.00e+00	0	43	0	537919488	61	5324
2026-01-18 10:35:46.45	220.74	47.59	-45.3	-48.6	15.1	0.00e+00	0	43	0	540016640	61	5489
2026-01-18 10:35:47.19	221.09	47.74	-45.3	-48.6	15.1	0.00e+00	0	43	0	541065216	61	5522
2026-01-18 10:35:48.72	221.82	48.03	-45.2	-48.4	15.3	0.00e+00	0	43	0	544210944	61	5374
2026-01-18 10:35:49.43	222.17	48.17	-45.1	-48.2	15.5	0.00e+00	0	43	0	545259520	61	5279
2026-01-18 10:35:50.71	222.79	48.42	-44.9	-48.0	15.8	0.00e+00	0	43	0	547356672	61	5137
2026-01-18 10:35:51.42	223.15	48.55	-44.8	-47.9	15.9	0.00e+00	0	43	0	549453824	61	5077
2026-01-18 10:35:52.71	223.80	48.79	-44.9	-48.1	15.6	0.00e+00	0	43	0	551550976	61	5192
2026-01-18 10:35:53.42	224.16	48.93	-45.0	-48.3	15.4	0.00e+00	0	43	0	552599552	61	5303
2026-01-18 10:35:54.70	224.82	49.17	-45.2	-48.6	15.2	0.00e+00	0	43	0	555745280	61	5482
2026-01-18 10:35:55.42	225.19	49.30	-45.0	-48.4	15.5	0.00e+00	0	43	0	556793856	61	5349
2026-01-18 10:35:56.70	225.87	49.53	-44.5	-47.7	16.1	0.00e+00	0	43	0	558891008	61	4930
2026-01-18 10:35:57.43	226.25	49.66	-44.2	-47.2	16.5	0.00e+00	0	43	0	559939584	60	4967
2026-01-18 10:35:58.71	226.95	49.89	-43.8	-46.6	17.1	0.00e+00	0	43	0	563085312	59	4883
2026-01-18 10:35:59.51	227.38	50.03	-43.6	-46.3	17.5	0.00e+00	0	43	0	564133888	59	4711
2026-01-18 10:36:00.65	228.01	50.23	-43.4	-46.0	17.7	0.00e+00	0	43	0	566231040	58	4837
2026-01-18 10:36:01.70	228.60	50.41	-43.9	-46.6	17.1	0.00e+00	0	43	0	568328192	58	5182
2026-01-18 10:36:02.81	229.23	50.60	-44.4	-47.3	16.4	0.00e+00	0	43	0	570425344	59	5308
2026-01-18 10:36:03.72	229.75	50.75	-44.2	-47.0	16.7	0.00e+00	0	43	0	572522496	59	5137
2026-01-18 10:36:04.93	230.45	50.95	-43.5	-46.0	17.7	0.00e+00	0	43	0	574619648	59	4588
2026-01-18 10:36:05.78	230.95	51.09	-42.9	-45.3	18.3	0.00e+00	0	43	0	575668224	57	4735
2026-01-18 10:36:06.92	231.62	51.27	-42.5	-44.9	18.8	0.00e+00	0	43	0	577765376	57	4510
2026-01-18 10:36:07.78	232.13	51.41	-42.3	-44.5	19.1	0.00e+00	0	43	0	579862528	56	4592
2026-01-18 10:36:09.14	232.96	51.62	-42.5	-44.9	18.9	0.00e+00	0	43	0	581959680	56	4761
2026-01-18 10:36:09.85	233.39	51.72	-42.9	-45.3	18.5	0.00e+00	0	43	0	584056832	56	5009
2026-01-18 10:36:11.13	234.18	51.91	-42.4	-44.8	18.9	0.00e+00	0	43	0	586153984	56	4720
2026-01-18 10:36:11.84	234.62	52.02	-41.6	-43.9	19.6	0.00e+00	0	43	0	587202560	55	4501
2026-01-18 10:36:13.12	235.43	52.20	-41.2	-43.3	20.2	0.00e+00	0	43	0	590348288	54	4462
2026-01-18 10:36:13.84	235.89	52.30	-41.1	-43.2	20.3	0.00e+00	0	43	0	591396864	54	4437
2026-01-18 10:36:15.12	236.71	52.47	-41.9	-44.1	19.4	0.00e+00	0	43	0	593494016	54	4915
2026-01-18 10:36:15.91	237.22	52.58	-42.7	-44.8	19.1	0.00e+00	0	43	0	595591168	55	5001
2026-01-18 10:36:17.11	238.00	52.73	-42.0	-44.3	19.3	0.00e+00	0	43	0	597688320	55	4711
2026-01-18 10:36:18.09	238.65	52.85	-41.5	-43.7	19.8	0.00e+00	0	43	0	598736896	55	4429
2026-01-18 10:36:19.26	239.42	53.00	-41.4	-43.6	20.0	0.00e+00	0	43	0	601882624	54	4607
2026-01-18 10:36:20.11	239.99	53.10	-41.2	-43.3	20.2	0.00e+00	0	43	0	602931200	54	4445
2026-01-18 10:36:21.25	240.76	53.23	-41.4	-43.6	19.9	0.00e+00	0	43	0	605028352	54	4617
2026-01-18 10:36:22.10	241.34	53.32	-41.5	-43.6	19.9	0.00e+00	0	43	0	607125504	54	4649
2026-01-18 10:36:23.24	242.12	53.44	-41.6	-43.8	19.8	0.00e+00	0	43	0	609222656	54	4711
2026-01-18 10:36:24.09	242.71	53.53	-41.6	-43.7	19.8	0.00e+00	0	43	0	610271232	54	4697
2026-01-18 10:36:25.57	243.74	53.67	-41.3	-43.5	20.1	0.00e+00	0	43	0	613416960	54	4548
2026-01-18 10:36:26.29	244.25	53.74	-41.4	-43.6	20.0	0.00e+00	0	43	0	614465536	54	4614
2026-01-18 10:36:27.57	245.15	53.85	-41.8	-44.1	19.5	0.00e+00	0	43	0	616562688	54	4885
2026-01-18 10:36:28.30	245.67	53.92	-42.0	-44.3	19.3	0.00e+00	0	43	0	618659840	54	5019
2026-01-18 10:36:29.59	246.59	54.02	-42.2	-44.5	19.1	0.00e+00	0	43	0	620756992	55	4859
2026-01-18 10:36:30.30	247.10	54.07	-42.3	-44.6	19.0	0.00e+00	0	43	0	621805568	55	4907
2026-01-18 10:36:31.58	248.02	54.17	-42.2	-44.5	19.1	0.00e+00	0	43	0	624951296	55	4850
2026-01-18 10:36:32.32	248.56	54.22	-42.1	-44.3	19.3	0.00e+00	0	43	0	625999872	55	4738
2026-01-18 10:36:33.60	249.49	54.30	-42.1	-44.3	19.3	0.00e+00	0	43	0	628097024	55	4735
2026-01-18 10:36:34.40	250.07	54.34	-42.2	-44.4	19.2	0.00e+00	0	43	0	630194176	55	4808
2026-01-18 10:36:35.54	250.91	54.41	-42.5	-44.8	18.8	0.00e+00	0	43	0	632291328	55	5022
2026-01-18 10:36:36.39	251.54	54.45	-42.4	-44.7	18.8	0.00e+00	0	43	0	633339904	55	4974
2026-01-18 10:36:37.53	252.38	54.50	-42.3	-44.7	18.9	0.00e+00	0	43	0	635437056	55	4938
2026-01-18 10:36:38.38	253.01	54.53	-42.3	-44.7	19.0	0.00e+00	0	43	0	637534208	55	4943
2026-01-18 10:36:39.52	253.85	54.57	-42.2	-44.5	19.1	0.00e+00	0	43	0	639631360	55	4853
2026-01-18 10:36:40.37	254.49	54.60	-42.2	-44.5	19.2	0.00e+00	0	43	0	640679936	55	4822
2026-01-18 10:36:41.51	255.34	54.63	-42.2	-44.5	19.1	0.00e+00	0	43	0	642777088	55	4857
2026-01-18 10:36:42.36	255.97	54.65	-42.3	-44.6	19.0	0.00e+00	0	43	0	644874240	55	4921
2026-01-18 10:36:43.53	256.85	54.67	-42.1	-44.3	19.3	0.00e+00	0	43	0	646971392	55	4757
2026-01-18 10:36:44.38	257.49	54.68	-42.1	-44.4	19.3	0.00e+00	0	43	0	648019968	55	4776
2026-01-18 10:36:45.52	258.34	54.69	-42.5	-44.8	18.8	0.00e+00	0	43	0	650117120	55	5022
2026-01-18 10:36:46.37	258.98	54.69	-42.7	-45.1	18.6	0.00e+00	0	43	0	652214272	55	5189
2026-01-18 10:36:47.65	259.94	54.68	-42.1	-44.5	19.1	0.00e+00	0	43	0	654311424	55	4827
2026-01-18 10:36:48.36	260.47	54.68	-41.9	-44.2	19.4	0.00e+00	0	43	0	656408576	55	4670
2026-01-18 10:36:49.83	261.57	54.66	-42.2	-44.5	19.2	0.00e+00	0	43	0	658505728	55	4840
2026-01-18 10:36:50.54	262.10	54.65	-42.3	-44.7	19.0	0.00e+00	0	43	0	660602880	55	4938
2026-01-18 10:36:51.82	263.06	54.62	-42.4	-44.7	18.9	0.00e+00	0	43	0	662700032	55	4973
2026-01-18 10:36:52.56	263.61	54.60	-42.5	-44.9	18.8	0.00e+00	0	43	0	663748608	55	5089
2026-01-18 10:36:53.84	264.56	54.55	-42.6	-44.9	18.9	0.00e+00	0	43	0	665845760	56	4802
2026-01-18 10:36:54.55	265.09	54.53	-42.4	-44.7	19.1	0.00e+00	0	43	0	667942912	56	4688
2026-01-18 10:36:55.82	266.03	54.47	-41.7	-43.9	19.7	0.00e+00	0	43	0	670040064	55	4530
2026-01-18 10:36:56.57	266.58	54.44	-41.4	-43.6	20.0	0.00e+00	0	43	0	671088640	55	4363
2026-01-18 10:36:57.84	267.51	54.37	-40.9	-43.0	20.6	0.00e+00	0	43	0	674234368	53	4568
2026-01-18 10:36:58.57	268.05	54.33	-40.8	-42.8	20.8	0.00e+00	0	43	0	675282944	53	4468
2026-01-18 10:36:59.85	268.98	54.26	-40.8	-42.8	20.7	0.00e+00	0	43	0	677380096	53	4487
2026-01-18 10:37:00.58	269.51	54.21	-40.9	-43.0	20.6	0.00e+00	0	43	0	678428672	53	4549
2026-01-18 10:37:01.85	270.43	54.12	-40.8	-42.9	20.7	0.00e+00	0	43	0	681574400	53	4496
2026-01-18 10:37:02.58	270.95	54.07	-40.6	-42.6	20.9	0.00e+00	0	43	0	682622976	53	4374
2026-01-18 10:37:03.86	271.87	53.97	-40.7	-42.7	20.8	0.00e+00	0	43	0	684720128	53	4435
2026-01-18 10:37:04.57	272.37	53.91	-40.9	-43.0	20.6	0.00e+00	0	43	0	686817280	53	4561
2026-01-18 10:37:05.84	273.27	53.80	-41.0	-43.0	20.6	0.00e+00	0	43	0	688914432	53	4595
2026-01-18 10:37:06.57	273.79	53.73	-41.0	-43.1	20.5	0.00e+00	0	43	0	689963008	53	4619
2026-01-18 10:37:07.85	274.68	53.61	-41.4	-43.6	20.1	0.00e+00	0	43	0	692060160	53	4875
2026-01-18 10:37:08.57	275.18	53.54	-41.7	-43.8	19.8	0.00e+00	0	43	0	694157312	53	5022
2026-01-18 10:37:09.85	276.06	53.41	-41.9	-44.1	19.6	0.00e+00	0	43	0	696254464	54	4892
2026-01-18 10:37:10.58	276.56	53.33	-41.8	-44.0	19.7	0.00e+00	0	43	0	697303040	54	4854
2026-01-18 10:37:11.85	277.42	53.19	-42.1	-44.3	19.4	0.00e+00	0	43	0	700448768	54	5031
2026-01-18 10:37:12.58	277.91	53.11	-42.0	-44.3	19.4	0.00e+00	0	43	0	701497344	54	4993
2026-01-18 10:37:13.86	278.77	52.96	-41.7	-43.9	19.8	0.00e+00	0	43	0	703594496	54	4785
2026-01-18 10:37:14.58	279.25	52.87	-41.7	-43.9	19.8	0.00e+00	0	43	0	705691648	54	4799
2026-01-18 10:37:15.86	280.09	52.71	-41.9	-44.1	19.6	0.00e+00	0	43	0	707788800	54	4891
2026-01-18 10:37:16.57	280.55	52.62	-42.1	-44.3	19.4	0.00e+00	0	43	0	708837376	54	5037
2026-01-18 10:37:17.85	281.38	52.45	-42.0	-44.2	19.5	0.00e+00	0	43	0	710934528	54	4953
2026-01-18 10:37:18.61	281.87	52.35	-42.0	-44.2	19.5	0.00e+00	0	43	0	713031680	54	4979
2026-01-18 10:37:20.19	282.87	52.13	-41.8	-44.0	19.7	0.00e+00	0	43	0	716177408	54	4851
2026-01-18 10:37:21.07	283.42	52.00	-41.7	-43.9	19.8	0.00e+00	0	43	0	717225984	54	4793
2026-01-18 10:37:22.62	284.38	51.77	-42.0	-44.2	19.5	0.00e+00	0	43	0	720371712	54	4964
2026-01-18 10:37:23.72	285.05	51.61	-42.5	-44.8	19.0	0.00e+00	0	43	0	722468864	55	5016
2026-01-18 10:37:24.57	285.56	51.48	-42.6	-45.0	18.8	0.00e+00	0	43	0	723517440	55	5106
2026-01-18 10:37:25.70	286.24	51.30	-42.5	-44.8	18.9	0.00e+00	0	43	0	725614592	55	5026
2026-01-18 10:37:26.56	286.75	51.17	-42.3	-44.6	19.2	0.00e+00	0	43	0	727711744	55	4896
2026-01-18 10:37:27.70	287.41	50.98	-42.9	-45.3	18.7	0.00e+00	0	43	0	729808896	56	4995
2026-01-18 10:37:28.55	287.91	50.84	-43.2	-45.7	18.3	0.00e+00	0	43	0	730857472	57	4951
2026-01-18 10:37:29.69	288.56	50.65	-43.4	-45.9	18.1	0.00e+00	0	43	0	734003200	57	5069
2026-01-18 10:37:30.54	289.04	50.51	-43.6	-46.2	17.8	0.00e+00	0	43	0	735051776	57	5220
2026-01-18 10:37:31.67	289.68	50.32	-44.3	-47.1	17.0	0.00e+00	0	43	0	737148928	59	5166
2026-01-18 10:37:32.62	290.20	50.16	-45.0	-48.1	16.0	0.00e+00	0	43	0	739246080	60	5492
2026-01-18 10:37:33.61	290.75	49.98	-45.4	-48.6	15.5	0.00e+00	0	43	0	740294656	61	5515
2026-01-18 10:37:34.61	291.29	49.81	-45.8	-49.2	14.9	0.00e+00	0	43	0	742391808	62	5581
2026-01-18 10:37:35.83	291.94	49.59	-45.9	-49.4	14.7	7.00e-07	0	43	0	745537536	62	5687
2026-01-18 10:37:36.72	292.41	49.43	-45.8	-49.2	14.9	0.00e+00	0	43	0	746586112	62	5567
2026-01-18 10:37:38.03	293.10	49.19	-45.8	-49.3	14.8	0.00e+00	0	43	0	748683264	62	5610
2026-01-18 10:37:38.74	293.46	49.06	-46.2	-50.0	14.2	1.50e-06	0	43	0	750780416	63	5744
2026-01-18 10:37:40.23	294.22	48.78	-47.1	-51.8	12.1	5.87e-05	0	43	0	752877568	65	6324
2026-01-18 10:37:40.93	294.57	48.65	-46.9	-51.4	12.6	2.08e-04	0	43	0	754974720	65	6006
2026-01-18 10:37:42.23	295.22	48.40	-46.5	-50.5	13.4	1.75e-05	0	43	0	757071872	65	5451
2026-01-18 10:37:42.94	295.57	48.27	-46.3	-50.1	13.9	4.50e-06	0	43	0	758120448	64	5497
2026-01-18 10:37:44.22	296.18	48.02	-46.1	-49.8	14.2	1.50e-06	0	43	0	760217600	64	5319
2026-01-18 10:37:44.95	296.53	47.88	-46.6	-50.6	13.4	7.00e-07	0	43	0	762314752	64	5833
2026-01-18 10:37:46.22	297.13	47.63	-47.4	-52.2	11.7	1.52e-04	0	43	0	764411904	65	6592
2026-01-18 10:37:46.93	297.46	47.49	-47.0	-51.5	12.3	4.56e-04	0	43	0	765460480	65	6103
2026-01-18 10:37:48.21	298.05	47.24	-45.3	-48.6	15.4	0.00e+00	0	43	0	768606208	62	5176
2026-01-18 10:37:48.95	298.39	47.10	-44.7	-47.7	16.4	0.00e+00	0	43	0	769654784	61	4951
2026-01-18 10:37:50.23	298.97	46.84	-44.8	-47.8	16.3	0.00e+00	0	43	0	771751936	61	5026
2026-01-18 10:37:51.08	299.34	46.67	-45.5	-48.8	15.2	0.00e+00	0	43	0	773849088	61	5648
2026-01-18 10:37:52.52	299.97	46.38	-45.2	-48.4	15.7	0.00e+00	0	43	0	775946240	62	5051
2026-01-18 10:37:53.23	300.28	46.24	-44.2	-47.0	17.0	0.00e+00	0	43	0	778043392	60	4863
2026-01-18 10:37:54.71	300.91	45.94	-43.5	-46.1	17.9	0.00e+00	0	43	0	780140544	59	4608
2026-01-18 10:37:55.43	301.21	45.80	-43.5	-46.1	17.9	0.00e+00	0	43	0	781189120	58	4892
2026-01-18 10:37:56.71	301.74	45.53	-43.7	-46.3	17.7	0.00e+00	0	43	0	784334848	58	5021
2026-01-18 10:37:57.77	302.17	45.32	-44.2	-47.0	17.0	0.00e+00	0	43	0	786432000	59	5137
2026-01-18 10:37:58.64	302.52	45.14	-44.8	-47.8	16.3	0.00e+00	0	43	0	787480576	60	5311
2026-01-18 10:37:59.77	302.97	44.91	-44.9	-47.9	16.2	0.00e+00	0	43	0	789577728	60	5390
2026-01-18 10:38:00.63	303.31	44.73	-44.6	-47.6	16.5	0.00e+00	0	43	0	791674880	60	5172
2026-01-18 10:38:01.77	303.75	44.50	-44.1	-46.8	17.3	0.00e+00	0	43	0	793772032	60	4740
2026-01-18 10:38:02.62	304.07	44.32	-43.8	-46.4	17.5	0.00e+00	0	43	0	794820608	59	4812
2026-01-18 10:38:03.76	304.50	44.09	-43.8	-46.5	17.6	0.00e+00	0	43	0	796917760	59	4835
2026-01-18 10:38:04.61	304.82	43.91	-44.2	-47.0	17.1	0.00e+00	0	43	0	799014912	59	5142
2026-01-18 10:38:05.75	305.24	43.68	-44.9	-48.1	16.0	0.00e+00	0	43	0	801112064	60	5474
2026-01-18 10:38:06.60	305.55	43.50	-45.5	-48.9	15.2	0.00e+00	0	43	0	803209216	61	5678
2026-01-18 10:38:07.74	305.96	43.26	-45.1	-48.3	15.7	0.00e+00	0	43	0	805306368	61	5337
2026-01-18 10:38:08.59	306.26	43.09	-44.9	-48.0	16.1	0.00e+00	0	43	0	806354944	61	5122
2026-01-18 10:38:09.73	306.66	42.85	-44.3	-47.2	16.9	0.00e+00	0	43	0	808452096	60	4958
2026-01-18 10:38:10.58	306.95	42.68	-43.9	-46.7	17.3	0.00e+00	0	43	0	810549248	59	4930
2026-01-18 10:38:11.71	307.34	42.44	-44.2	-46.9	17.2	0.00e+00	0	43	0	812646400	59	5078
2026-01-18 10:38:12.57	307.63	42.26	-45.0	-48.2	16.0	0.00e+00	0	43	0	813694976	60	5530
2026-01-18 10:38:13.70	308.00	42.03	-46.6	-50.8	13.3	3.00e-06	0	43	0	815792128	63	6280
2026-01-18 10:38:14.56	308.28	41.85	-47.1	-52.0	12.0	1.05e-04	0	43	0	817889280	64	6846
2026-01-18 10:38:15.70	308.65	41.62	-46.6	-51.2	12.9	1.40e-04	0	43	0	819986432	64	6223
2026-01-18 10:38:16.55	308.93	41.44	-45.9	-49.7	14.3	4.50e-06	0	43	0	821035008	63	5585
2026-01-18 10:38:17.69	309.29	41.21	-45.5	-49.0	15.1	0.00e+00	0	43	0	823132160	63	5120
2026-01-18 10:38:18.54	309.55	41.03	-45.4	-48.8	15.3	0.00e+00	0	43	0	825229312	62	5310
2026-01-18 10:38:19.68	309.90	40.80	-46.0	-49.8	14.4	0.00e+00	0	43	0	827326464	62	5933
2026-01-18 10:38:20.64	310.20	40.60	-46.7	-51.1	12.9	5.30e-06	0	43	0	829423616	64	6175
2026-01-18 10:38:21.63	310.49	40.40	-47.5	-52.9	11.1	3.33e-04	0	43	0	830472192	65	7124
2026-01-18 10:38:22.85	310.86	40.15	-46.7	-51.1	12.8	4.91e-04	0	43	0	833617920	65	5831
2026-01-18 10:38:23.73	311.11	39.97	-45.5	-48.9	15.1	4.50e-06	0	43	0	834666496	63	5066
2026-01-18 10:38:24.87	311.44	39.73	-44.6	-47.4	16.6	0.00e+00	0	43	0	836763648	61	4810
2026-01-18 10:38:25.77	311.70	39.55	-44.3	-47.1	17.1	0.00e+00	0	43	0	838860800	60	4883
2026-01-18 10:38:26.87	312.01	39.33	-44.8	-47.8	16.4	0.00e+00	0	43	0	840957952	60	5301
2026-01-18 10:38:27.79	312.27	39.14	-46.1	-49.8	14.3	0.00e+00	0	43	0	842006528	62	5975
2026-01-18 10:38:28.98	312.59	38.90	-47.9	-54.1	9.8	1.38e-03	0	43	0	844103680	66	7780
2026-01-18 10:38:29.83	312.82	38.73	-47.9	-54.2	9.6	2.61e-02	0	43	0	846200832	67	7388
2026-01-18 10:38:30.97	313.13	38.50	-46.4	-50.6	13.3	1.63e-04	0	43	0	848297984	64	5796
2026-01-18 10:38:31.82	313.35	38.33	-45.4	-48.7	15.3	2.20e-06	0	43	0	850395136	62	5274
2026-01-18 10:38:32.96	313.65	38.10	-44.6	-47.7	16.4	0.00e+00	0	43	0	852492288	61	4936
2026-01-18 10:38:33.81	313.87	37.93	-44.3	-47.2	17.0	0.00e+00	0	43	0	853540864	60	4935
2026-01-18 10:38:34.94	314.16	37.71	-44.7	-47.7	16.4	0.00e+00	0	43	0	855638016	60	5270
2026-01-18 10:38:35.80	314.38	37.53	-45.4	-48.8	15.4	0.00e+00	0	43	0	857735168	61	5597
2026-01-18 10:38:36.94	314.66	37.31	-46.7	-50.9	13.1	7.00e-07	0	43	0	859832320	64	6018
2026-01-18 10:38:37.79	314.87	37.14	-47.1	-51.8	12.2	9.23e-05	0	43	0	860880896	64	6679
2026-01-18 10:38:38.93	315.15	36.92	-46.6	-50.8	13.2	5.34e-05	0	43	0	862978048	64	5951
2026-01-18 10:38:39.78	315.36	36.75	-45.8	-49.3	14.8	7.00e-07	0	43	0	865075200	63	5294
2026-01-18 10:38:41.02	315.65	36.51	-44.6	-47.4	16.7	0.00e+00	0	43	0	867172352	61	4802
2026-01-18 10:38:41.88	315.85	36.34	-44.1	-46.8	17.3	0.00e+00	0	43	0	869269504	60	4728
2026-01-18 10:38:43.08	316.13	36.11	-43.8	-46.4	17.7	0.00e+00	0	43	0	871366656	59	4768
2026-01-18 10:38:43.93	316.33	35.94	-43.8	-46.3	17.7	0.00e+00	0	43	0	872415232	59	4759
2026-01-18 10:38:45.13	316.60	35.71	-44.6	-47.5	16.6	0.00e+00	0	43	0	874512384	59	5454
2026-01-18 10:38:45.98	316.79	35.55	-45.5	-48.9	15.2	0.00e+00	0	43	0	876609536	61	5667
2026-01-18 10:38:47.12	317.04	35.33	-46.3	-50.2	13.9	0.00e+00	0	43	0	878706688	63	5892
2026-01-18 10:38:47.97	317.23	35.17	-46.1	-49.8	14.3	7.00e-07	0	43	0	879755264	63	5615
2026-01-18 10:38:49.11	317.47	34.95	-45.3	-48.6	15.5	0.00e+00	0	43	0	882900992	62	5189
2026-01-18 10:38:49.96	317.66	34.79	-44.8	-47.9	16.2	0.00e+00	0	43	0	883949568	61	5045
2026-01-18 10:38:51.10	317.90	34.58	-44.5	-47.5	16.6	0.00e+00	0	43	0	886046720	60	5115
2026-01-18 10:38:51.95	318.07	34.42	-44.2	-47.2	16.9	0.00e+00	0	43	0	888143872	60	4965
2026-01-18 10:38:53.09	318.31	34.21	-44.1	-47.1	17.0	0.00e+00	0	43	0	890241024	60	4871
2026-01-18 10:38:53.94	318.48	34.05	-44.4	-47.7	16.4	0.00e+00	0	43	0	891289600	60	5227
2026-01-18 10:38:55.08	318.72	33.84	-44.8	-48.3	15.8	0.00e+00	0	43	0	893386752	60	5648
2026-01-18 10:38:55.93	318.89	33.68	-45.1	-48.8	15.4	0.00e+00	0	43	0	895483904	60	5964
2026-01-18 10:38:57.07	319.11	33.47	-45.4	-49.4	14.7	0.00e+00	0	43	0	897581056	61	6060
2026-01-18 10:38:58.21	319.33	33.26	-45.5	-49.6	14.5	7.00e-07	0	43	0	899678208	61	6157
2026-01-18 10:38:59.23	319.53	33.07	-45.2	-49.0	15.1	7.00e-07	0	43	0	901775360	61	5737
2026-01-18 10:39:00.23	319.72	32.89	-44.8	-48.2	15.8	0.00e+00	0	43	0	902823936	61	5269
2026-01-18 10:39:01.23	319.91	32.71	-44.6	-47.9	16.2	0.00e+00	0	43	0	904921088	61	5063
2026-01-18 10:39:02.46	320.14	32.49	-44.4	-47.5	16.6	0.00e+00	0	43	0	907018240	60	5108
2026-01-18 10:39:03.34	320.30	32.33	-44.5	-47.6	16.5	0.00e+00	0	43	0	909115392	60	5181
2026-01-18 10:39:04.48	320.51	32.13	-44.4	-47.3	16.8	0.00e+00	0	43	0	911212544	60	4988
2026-01-18 10:39:05.33	320.66	31.98	-44.5	-47.4	16.7	0.00e+00	0	43	0	912261120	60	5055
2026-01-18 10:39:06.47	320.87	31.78	-44.7	-47.7	16.3	0.00e+00	0	43	0	915406848	60	5243
2026-01-18 10:39:07.32	321.02	31.63	-45.0	-48.2	15.9	0.00e+00	0	43	0	916455424	60	5542
2026-01-18 10:39:08.46	321.22	31.43	-45.5	-49.0	15.1	0.00e+00	0	43	0	918552576	61	5740
2026-01-18 10:39:09.31	321.36	31.28	-45.9	-49.6	14.4	0.00e+00	0	43	0	920649728	62	5849
2026-01-18 10:39:10.45	321.56	31.08	-46.2	-50.3	13.8	4.50e-06	0	43	0	922746880	63	5972
2026-01-18 10:39:11.30	321.70	30.93	-46.2	-50.5	13.6	6.10e-06	0	43	0	923795456	63	6074
2026-01-18 10:39:12.44	321.90	30.74	-46.2	-50.5	13.5	7.60e-06	0	43	0	925892608	63	6119
2026-01-18 10:39:13.29	322.04	30.59	-46.1	-50.5	13.5	1.29e-05	0	43	0	927989760	63	6090
2026-01-18 10:39:14.43	322.22	30.40	-45.5	-49.4	14.6	7.00e-07	0	43	0	930086912	63	5386
2026-01-18 10:39:15.29	322.36	30.25	-45.3	-49.0	15.0	0.00e+00	0	43	0	931135488	62	5445
2026-01-18 10:39:16.42	322.55	30.06	-44.7	-48.1	15.9	0.00e+00	0	43	0	933232640	61	5206
2026-01-18 10:39:17.27	322.68	29.91	-44.4	-47.6	16.4	0.00e+00	0	43	0	935329792	60	5192
2026-01-18 10:39:18.41	322.86	29.72	-44.5	-47.6	16.4	0.00e+00	0	43	0	937426944	60	5218
2026-01-18 10:39:19.29	323.00	29.58	-44.5	-47.6	16.4	0.00e+00	0	43	0	939524096	60	5217
2026-01-18 10:39:20.60	323.20	29.36	-44.8	-48.0	16.0	0.00e+00	0	43	0	941621248	60	5451
2026-01-18 10:39:21.32	323.31	29.24	-45.0	-48.3	15.8	0.00e+00	0	43	0	942669824	60	5605
2026-01-18 10:39:22.61	323.51	29.03	-45.1	-48.5	15.6	0.00e+00	0	43	0	944766976	60	5758
2026-01-18 10:39:23.32	323.61	28.91	-45.0	-48.3	15.7	0.00e+00	0	43	0	946864128	60	5654
2026-01-18 10:39:24.60	323.80	28.70	-44.9	-48.3	15.8	0.00e+00	0	43	0	948961280	60	5610
2026-01-18 10:39:25.31	323.91	28.59	-44.8	-48.1	16.0	0.00e+00	0	43	0	950009856	60	5477
2026-01-18 10:39:26.61	324.10	28.38	-44.3	-47.4	16.7	0.00e+00	0	43	0	953155584	60	5044
2026-01-18 10:39:27.32	324.20	28.26	-44.2	-47.3	16.7	0.00e+00	0	43	0	954204160	60	5038
2026-01-18 10:39:28.60	324.38	28.06	-44.1	-47.1	17.0	0.00e+00	0	43	0	956301312	60	4877
2026-01-18 10:39:29.47	324.50	27.92	-43.9	-46.8	17.1	0.00e+00	0	43	0	958398464	59	5034
2026-01-18 10:39:30.61	324.66	27.74	-43.7	-46.4	17.6	0.00e+00	0	43	0	960495616	59	4780
2026-01-18 10:39:31.65	324.81	27.58	-43.4	-46.0	17.9	0.00e+00	0	43	0	962592768	58	4860
2026-01-18 10:39:32.77	324.96	27.40	-43.5	-46.2	17.8	0.00e+00	0	43	0	964689920	58	4934
2026-01-18 10:39:33.68	325.09	27.26	-43.5	-46.1	17.8	0.00e+00	0	43	0	965738496	58	4920
2026-01-18 10:39:34.85	325.24	27.08	-43.6	-46.3	17.7	0.00e+00	0	43	0	967835648	58	4991
2026-01-18 10:39:35.74	325.36	26.94	-43.6	-46.3	17.7	0.00e+00	0	43	0	969932800	58	5004
2026-01-18 10:39:36.87	325.51	26.76	-43.6	-46.4	17.6	0.00e+00	0	43	0	972029952	58	5050
2026-01-18 10:39:37.72	325.62	26.63	-43.7	-46.6	17.4	0.00e+00	0	43	0	973078528	58	5197
2026-01-18 10:39:39.10	325.80	26.42	-44.1	-47.1	16.9	0.00e+00	0	43	0	976224256	58	5501
2026-01-18 10:39:39.81	325.89	26.32	-44.2	-47.3	16.7	0.00e+00	0	43	0	977272832	59	5293
2026-01-18 10:39:41.30	326.08	26.09	-44.4	-47.4	16.5	0.00e+00	0	43	0	980418560	59	5391
2026-01-18 10:39:42.01	326.17	25.98	-44.5	-47.6	16.4	0.00e+00	0	43	0	981467136	59	5478
2026-01-18 10:39:43.29	326.33	25.79	-44.3	-47.3	16.7	0.00e+00	0	43	0	983564288	59	5296
2026-01-18 10:39:44.00	326.41	25.69	-44.3	-47.2	16.7	0.00e+00	0	43	0	985661440	59	5277
2026-01-18 10:39:45.28	326.57	25.50	-44.1	-47.0	17.0	0.00e+00	0	43	0	987758592	59	5131
2026-01-18 10:39:46.00	326.66	25.39	-43.8	-46.6	17.3	0.00e+00	0	43	0	988807168	59	4896
2026-01-18 10:39:47.28	326.81	25.20	-43.9	-46.8	17.2	0.00e+00	0	43	0	991952896	59	5002
2026-01-18 10:39:47.99	326.90	25.10	-43.8	-46.6	17.4	0.00e+00	0	43	0	993001472	59	4883
2026-01-18 10:39:49.29	327.05	24.91	-43.5	-46.2	17.7	0.00e+00	0	43	0	995098624	59	4670
2026-01-18 10:39:50.00	327.13	24.81	-43.6	-46.3	17.7	0.00e+00	0	43	0	996147200	58	5004
2026-01-18 10:39:51.28	327.28	24.63	-43.4	-46.1	17.8	0.00e+00	0	43	0	999292928	58	4908
2026-01-18 10:39:51.99	327.36	24.52	-43.4	-46.1	17.8	0.00e+00	0	43	0	1000341504	58	4893
2026-01-18 10:39:53.27	327.51	24.34	-43.3	-46.1	17.8	0.00e+00	0	43	0	1002438656	58	4902
2026-01-18 10:39:54.21	327.61	24.21	-43.2	-46.1	17.9	0.00e+00	0	43	0	1004535808	58	4872
2026-01-18 10:39:55.21	327.73	24.07	-43.4	-46.2	17.8	0.00e+00	0	43	0	1006632960	58	4965
2026-01-18 10:39:56.20	327.83	23.93	-43.4	-46.3	17.7	0.00e+00	0	43	0	1007681536	58	4998
2026-01-18 10:39:57.20	327.94	23.79	-43.4	-46.4	17.6	0.00e+00	0	43	0	1009778688	58	5050
2026-01-18 10:39:58.19	328.05	23.65	-43.6	-46.5	17.4	0.00e+00	0	43	0	1011875840	58	5146
2026-01-18 10:39:59.19	328.16	23.51	-43.6	-46.5	17.4	0.00e+00	0	43	0	1013972992	58	5153
2026-01-18 10:40:00.18	328.27	23.37	-43.7	-46.5	17.4	0.00e+00	0	43	0	1016070144	58	5157
2026-01-18 10:40:01.18	328.37	23.24	-43.8	-46.6	17.3	0.00e+00	0	43	0	1017118720	58	5213
2026-01-18 10:40:02.19	328.48	23.10	-43.7	-46.5	17.5	0.00e+00	0	43	0	1019215872	58	5110
2026-01-18 10:40:03.18	328.58	22.96	-43.7	-46.4	17.5	0.00e+00	0	43	0	1021313024	58	5085
2026-01-18 10:40:04.18	328.69	22.83	-43.8	-46.4	17.5	0.00e+00	0	43	0	1023410176	58	5098
2026-01-18 10:40:05.17	328.79	22.70	-43.7	-46.3	17.6	0.00e+00	0	43	0	1024458752	58	5019
2026-01-18 10:40:06.16	328.89	22.56	-43.6	-46.2	17.8	0.00e+00	0	43	0	1026555904	58	4945
2026-01-18 10:40:07.16	328.99	22.43	-43.4	-46.0	18.0	0.00e+00	0	43	0	1028653056	58	4828
2026-01-18 10:40:08.15	329.09	22.30	-43.3	-45.9	18.0	0.00e+00	0	43	0	1030750208	58	4801
2026-01-18 10:40:09.15	329.19	22.17	-43.3	-45.9	18.0	0.00e+00	0	43	0	1032847360	58	4789
2026-01-18 10:40:10.14	329.29	22.04	-43.3	-45.9	18.1	0.00e+00	0	43	0	1033895936	58	4769
2026-01-18 10:40:11.14	329.38	21.90	-43.2	-45.8	18.1	0.00e+00	0	43	0	1035993088	58	4724
2026-01-18 10:40:12.13	329.48	21.77	-43.3	-45.9	18.1	0.00e+00	0	43	0	1038090240	58	4762
2026-01-18 10:40:13.51	329.61	21.60	-43.4	-46.0	17.9	0.00e+00	0	43	0	1040187392	58	4864
2026-01-18 10:40:14.22	329.68	21.50	-43.5	-46.1	17.8	0.00e+00	0	43	0	1042284544	58	4904
2026-01-18 10:40:15.50	329.80	21.34	-43.7	-46.4	17.5	0.00e+00	0	43	0	1044381696	58	5092
2026-01-18 10:40:16.21	329.87	21.25	-43.8	-46.6	17.4	0.00e+00	0	43	0	1045430272	58	5167
2026-01-18 10:40:17.49	329.99	21.09	-43.9	-46.8	17.1	0.00e+00	0	43	0	1048576000	58	5314
2026-01-18 10:40:18.20	330.05	21.00	-44.1	-47.0	17.0	0.00e+00	0	43	0	1049624576	58	5434
2026-01-18 10:40:19.48	330.17	20.83	-44.1	-47.1	16.8	0.00e+00	0	43	0	1051721728	58	5526
2026-01-18 10:40:20.21	330.24	20.74	-44.2	-47.4	16.6	0.00e+00	0	43	0	1052770304	59	5356
2026-01-18 10:40:21.49	330.35	20.58	-44.2	-47.4	16.5	0.00e+00	0	43	0	1055916032	59	5399
2026-01-18 10:40:22.20	330.41	20.49	-44.3	-47.5	16.4	0.00e+00	0	43	0	1056964608	59	5440
2026-01-18 10:40:23.48	330.53	20.33	-44.2	-47.5	16.4	0.00e+00	0	43	0	1059061760	59	5414
2026-01-18 10:40:24.20	330.59	20.25	-44.2	-47.5	16.5	0.00e+00	0	43	0	1061158912	59	5417
2026-01-18 10:40:25.48	330.70	20.09	-44.0	-47.1	16.8	0.00e+00	0	43	0	1063256064	59	5216
2026-01-18 10:40:26.20	330.77	20.00	-44.0	-47.0	16.9	0.00e+00	0	43	0	1064304640	59	5136
2026-01-18 10:40:27.48	330.88	19.84	-44.1	-47.0	16.9	0.00e+00	0	43	0	1066401792	59	5134
2026-01-18 10:40:28.18	330.94	19.76	-44.0	-46.9	17.0	0.00e+00	0	43	0	1068498944	59	5063
2026-01-18 10:40:29.48	331.05	19.60	-43.6	-46.3	17.6	0.00e+00	0	43	0	1070596096	59	4713
2026-01-18 10:40:30.19	331.11	19.52	-43.5	-46.1	17.8	0.00e+00	0	43	0	1071644672	58	4901
2026-01-18 10:40:31.47	331.21	19.36	-43.4	-46.0	17.9	0.00e+00	0	43	0	1074790400	58	4854
2026-01-18 10:40:32.29	331.28	19.27	-43.4	-46.0	17.9	0.00e+00	0	43	0	1075838976	58	4855
2026-01-18 10:40:33.43	331.38	19.13	-43.1	-45.7	18.2	0.00e+00	0	43	0	1077936128	58	4652
2026-01-18 10:40:34.28	331.44	19.03	-43.1	-45.6	18.3	0.00e+00	0	43	0	1080033280	58	4625
2026-01-18 10:40:35.42	331.54	18.90	-43.0	-45.5	18.3	0.00e+00	0	43	0	1082130432	58	4585
2026-01-18 10:40:36.27	331.61	18.80	-42.9	-45.4	18.5	0.00e+00	0	43	0	1083179008	57	4780
2026-01-18 10:40:37.41	331.70	18.66	-42.9	-45.4	18.5	0.00e+00	0	43	0	1085276160	57	4769
2026-01-18 10:40:38.26	331.76	18.56	-43.0	-45.5	18.3	0.00e+00	0	43	0	1087373312	57	4846
2026-01-18 10:40:39.40	331.85	18.43	-43.0	-45.5	18.3	0.00e+00	0	43	0	1089470464	57	4868
2026-01-18 10:40:40.25	331.92	18.33	-43.0	-45.5	18.3	0.00e+00	0	43	0	1090519040	57	4858
2026-01-18 10:40:41.38	332.01	18.20	-43.1	-45.7	18.1	0.00e+00	0	43	0	1092616192	57	4955
2026-01-18 10:40:42.24	332.08	18.11	-43.1	-45.8	18.0	0.00e+00	0	43	0	1094713344	57	4997
2026-01-18 10:40:43.38	332.16	17.98	-43.1	-45.8	18.0	0.00e+00	0	43	0	1096810496	57	5004
2026-01-18 10:40:44.23	332.23	17.88	-43.2	-46.0	17.8	0.00e+00	0	43	0	1097859072	57	5138
2026-01-18 10:40:45.36	332.31	17.75	-43.3	-46.1	17.7	0.00e+00	0	43	0	1099956224	57	5203
2026-01-18 10:40:46.21	332.38	17.66	-43.3	-46.1	17.7	0.00e+00	0	43	0	1102053376	57	5203
2026-01-18 10:40:47.35	332.46	17.53	-43.3	-46.2	17.6	0.00e+00	0	43	0	1104150528	57	5234
2026-01-18 10:40:48.20	332.52	17.44	-43.4	-46.3	17.4	0.00e+00	0	43	0	1105199104	57	5323
2026-01-18 10:40:49.34	332.61	17.31	-43.3	-46.2	17.5	0.00e+00	0	43	0	1108344832	57	5238
2026-01-18 10:40:50.19	332.67	17.21	-43.3	-46.1	17.6	0.00e+00	0	43	0	1109393408	57	5210
2026-01-18 10:40:51.33	332.75	17.09	-43.3	-46.1	17.7	0.00e+00	0	43	0	1111490560	57	5170
2026-01-18 10:40:52.18	332.81	17.00	-43.4	-46.1	17.6	0.00e+00	0	43	0	1113587712	57	5217
2026-01-18 10:40:53.32	332.90	16.87	-43.3	-46.1	17.7	0.00e+00	0	43	0	1115684864	57	5206
2026-01-18 10:40:54.17	332.96	16.78	-43.3	-46.1	17.7	0.00e+00	0	43	0	1116733440	57	5181
2026-01-18 10:40:55.31	333.04	16.66	-43.3	-46.0	17.8	0.00e+00	0	43	0	1118830592	57	5132
2026-01-18 10:40:56.17	333.10	16.56	-43.0	-45.6	18.1	0.00e+00	0	43	0	1120927744	57	4905
2026-01-18 10:40:57.30	333.18	16.44	-43.0	-45.6	18.1	0.00e+00	0	43	0	1123024896	57	4922
2026-01-18 10:40:58.16	333.24	16.35	-42.9	-45.5	18.2	0.00e+00	0	43	0	1124073472	57	4856
2026-01-18 10:40:59.32	333.31	16.23	-42.9	-45.5	18.2	0.00e+00	0	43	0	1126170624	57	4853
2026-01-18 10:41:00.18	333.37	16.14	-42.9	-45.5	18.2	0.00e+00	0	43	0	1128267776	57	4868
2026-01-18 10:41:01.31	333.45	16.02	-42.9	-45.5	18.3	0.00e+00	0	43	0	1130364928	57	4848
2026-01-18 10:41:02.17	333.51	15.93	-42.7	-45.3	18.4	0.00e+00	0	43	0	1131413504	57	4753
2026-01-18 10:41:03.43	333.59	15.79	-42.8	-45.5	18.3	0.00e+00	0	43	0	1134559232	57	4818
2026-01-18 10:41:04.25	333.65	15.71	-42.8	-45.5	18.3	0.00e+00	0	43	0	1135607808	57	4817
2026-01-18 10:41:05.38	333.72	15.59	-42.9	-45.5	18.2	0.00e+00	0	43	0	1137704960	57	4863
2026-01-18 10:41:06.24	333.78	15.50	-42.9	-45.5	18.3	0.00e+00	0	43	0	1139802112	57	4835
2026-01-18 10:41:07.52	333.86	15.37	-43.0	-45.6	18.2	0.00e+00	0	43	0	1141899264	57	4916
2026-01-18 10:41:08.23	333.91	15.30	-43.0	-45.7	18.1	0.00e+00	0	43	0	1142947840	57	4928
2026-01-18 10:41:09.50	333.99	15.17	-43.1	-45.8	18.0	0.00e+00	0	43	0	1146093568	57	4992
2026-01-18 10:41:10.21	334.03	15.09	-43.1	-45.7	18.0	0.00e+00	0	43	0	1147142144	57	4976
2026-01-18 10:41:11.50	334.12	14.96	-43.3	-45.9	17.8	0.00e+00	0	43	0	1149239296	57	5099
2026-01-18 10:41:12.22	334.16	14.89	-43.3	-46.0	17.8	0.00e+00	0	43	0	1150287872	57	5108
2026-01-18 10:41:13.50	334.24	14.76	-43.4	-46.1	17.7	0.00e+00	0	43	0	1153433600	57	5201
2026-01-18 10:41:14.22	334.29	14.69	-43.5	-46.2	17.5	0.00e+00	0	43	0	1154482176	57	5276
2026-01-18 10:41:15.83	334.39	14.53	-43.5	-46.3	17.5	0.00e+00	0	43	0	1157627904	57	5293
2026-01-18 10:41:16.42	334.42	14.47	-43.6	-46.4	17.3	0.00e+00	0	43	0	1158676480	57	5386
2026-01-18 10:41:17.98	334.52	14.32	-43.8	-46.6	17.2	0.00e+00	0	43	0	1161822208	58	5217
2026-01-18 10:41:18.63	334.56	14.25	-43.8	-46.7	17.1	0.00e+00	0	43	0	1162870784	58	5229
2026-01-18 10:41:20.05	334.64	14.11	-43.8	-46.7	17.1	0.00e+00	0	43	0	1164967936	58	5263
2026-01-18 10:41:20.76	334.69	14.04	-43.9	-46.8	17.0	0.00e+00	0	43	0	1167065088	58	5320
2026-01-18 10:41:22.04	334.76	13.92	-44.0	-46.9	16.9	0.00e+00	0	43	0	1169162240	58	5382
2026-01-18 10:41:22.76	334.80	13.85	-44.1	-47.2	16.7	0.00e+00	0	43	0	1170210816	58	5529
2026-01-18 10:41:24.04	334.88	13.72	-44.0	-47.0	16.8	0.00e+00	0	43	0	1173356544	59	5104
2026-01-18 10:41:24.75	334.92	13.66	-44.0	-47.0	16.8	0.00e+00	0	43	0	1174405120	59	5132
2026-01-18 10:41:26.03	334.99	13.53	-44.1	-47.0	16.7	0.00e+00	0	43	0	1176502272	59	5143
2026-01-18 10:41:26.76	335.04	13.46	-44.1	-47.0	16.8	0.00e+00	0	43	0	1177550848	59	5129
2026-01-18 10:41:28.04	335.11	13.34	-43.9	-46.8	17.0	0.00e+00	0	43	0	1180696576	59	5003
2026-01-18 10:41:28.77	335.15	13.27	-43.9	-46.8	17.0	0.00e+00	0	43	0	1181745152	59	4990
2026-01-18 10:41:30.26	335.24	13.13	-44.0	-46.8	16.9	0.00e+00	0	43	0	1184890880	59	5033
2026-01-18 10:41:30.98	335.28	13.06	-44.0	-46.8	17.0	0.00e+00	0	43	0	1185939456	59	5012
2026-01-18 10:41:32.25	335.35	12.94	-43.9	-46.7	17.1	0.00e+00	0	43	0	1188036608	59	4955
2026-01-18 10:41:32.99	335.39	12.88	-44.0	-46.8	16.9	0.00e+00	0	43	0	1190133760	59	5026
2026-01-18 10:41:34.27	335.46	12.76	-44.0	-46.8	16.9	0.00e+00	0	43	0	1192230912	59	5021
2026-01-18 10:41:34.98	335.50	12.69	-43.8	-46.6	17.2	0.00e+00	0	43	0	1193279488	59	4876
2026-01-18 10:41:36.26	335.57	12.57	-43.8	-46.6	17.2	0.00e+00	0	43	0	1195376640	59	4881
2026-01-18 10:41:36.97	335.61	12.51	-43.7	-46.5	17.3	0.00e+00	0	43	0	1197473792	59	4828
2026-01-18 10:41:38.25	335.68	12.39	-43.6	-46.4	17.4	0.00e+00	0	43	0	1199570944	59	4772
2026-01-18 10:41:38.97	335.72	12.32	-43.6	-46.4	17.4	0.00e+00	0	43	0	1200619520	59	4775
2026-01-18 10:41:40.25	335.78	12.21	-43.6	-46.4	17.3	0.00e+00	0	43	0	1203765248	59	4788
2026-01-18 10:41:40.98	335.82	12.14	-43.5	-46.4	17.4	0.00e+00	0	43	0	1204813824	59	4768
2026-01-18 10:41:42.26	335.89	12.02	-43.4	-46.3	17.4	0.00e+00	0	43	0	1206910976	58	5035
2026-01-18 10:41:43.19	335.94	11.94	-43.4	-46.4	17.3	0.00e+00	0	43	0	1209008128	58	5080
2026-01-18 10:41:44.50	336.01	11.82	-43.2	-46.2	17.6	0.00e+00	0	43	0	1211105280	58	4945
2026-01-18 10:41:45.21	336.04	11.76	-43.2	-46.2	17.4	0.00e+00	0	43	0	1212153856	58	4975
2026-01-18 10:41:46.84	336.13	11.61	-43.3	-46.4	17.4	0.00e+00	0	43	0	1215299584	58	5049
2026-01-18 10:41:47.41	336.16	11.56	-43.3	-46.3	17.4	0.00e+00	0	43	0	1216348160	58	5030
2026-01-18 10:41:49.12	336.24	11.41	-43.5	-46.6	17.1	0.00e+00	0	43	0	1219493888	58	5166
2026-01-18 10:41:49.73	336.28	11.36	-43.4	-46.5	17.2	0.00e+00	0	43	0	1221591040	58	5101
2026-01-18 10:41:51.29	336.35	11.22	-43.3	-46.4	17.3	0.00e+00	0	43	0	1223688192	58	5063
2026-01-18 10:41:52.00	336.39	11.16	-43.6	-46.7	17.0	0.00e+00	0	43	0	1225785344	58	5250
2026-01-18 10:41:53.29	336.45	11.05	-43.5	-46.6	17.1	0.00e+00	0	43	0	1227882496	58	5191
2026-01-18 10:41:54.00	336.49	10.98	-43.6	-46.8	16.9	0.00e+00	0	43	0	1228931072	58	5329
2026-01-18 10:41:55.28	336.55	10.87	-43.6	-46.9	16.8	0.00e+00	0	43	0	1231028224	58	5355
2026-01-18 10:41:56.01	336.59	10.81	-43.8	-47.2	16.5	0.00e+00	0	43	0	1233125376	58	5556
2026-01-18 10:41:57.29	336.65	10.70	-43.8	-47.2	16.5	0.00e+00	0	43	0	1235222528	58	5558
2026-01-18 10:41:58.01	336.68	10.64	-43.8	-47.2	16.5	0.00e+00	0	43	0	1236271104	58	5570
2026-01-18 10:41:59.29	336.75	10.53	-43.9	-47.3	16.4	0.00e+00	0	43	0	1239416832	58	5637
2026-01-18 10:42:00.02	336.78	10.47	-43.8	-47.2	16.5	0.00e+00	0	43	0	1240465408	58	5590
2026-01-18 10:42:01.30	336.84	10.36	-44.0	-47.4	16.3	0.00e+00	0	43	0	1242562560	58	5707
