passes_logs/2026/01/18/T1/T1__20260118_044219_FENGYUN_3E_rec.log

#Pass ID: 20260118_044219_FENGYUN 3E
#Satellite: FENGYUN 3E
#Configuration: FENGYUN 3E
#almurnet v.1.7.20251203
#Start time: 2026-01-18 04:42:19

#Version: 2.0.20230620
#Station: T1
#Location: 37.570604 lon 55.790049 lat
#TLE: 1 49008U 21062A   26017.26067429  .00000278  00000+0  15192-3 0  9991
#TLE: 2 49008  98.7484  22.3628 0002125 132.6872 227.4483 14.19886454235162

#Time	Az	El	Level	Level2	SNR	BER	BlckErr	Temp	State	Recorded	gain1	gain2
2026-01-18 04:42:19.72	11.75	5.03	-49.0	-60.5	3.8	8.47e-01	0	41	0	0	67	14230
2026-01-18 04:42:20.71	11.72	5.10	-46.2	-60.4	3.8	8.46e-01	0	40	104	0	61	19880
2026-01-18 04:42:21.70	11.68	5.17	-46.2	-60.3	3.8	8.47e-01	0	41	104	0	61	19744
2026-01-18 04:42:22.70	11.65	5.24	-46.2	-60.2	3.8	8.47e-01	0	41	104	0	61	19614
2026-01-18 04:42:23.69	11.61	5.31	-46.2	-60.3	3.8	8.47e-01	0	41	104	0	61	19729
2026-01-18 04:42:24.68	11.58	5.38	-46.2	-60.3	3.8	8.47e-01	0	41	104	0	61	19682
2026-01-18 04:42:25.68	11.54	5.45	-46.2	-60.2	3.8	8.46e-01	0	41	104	0	61	19497
2026-01-18 04:42:26.67	11.51	5.52	-46.2	-60.2	3.8	8.46e-01	0	41	104	0	61	19454
2026-01-18 04:42:27.66	11.47	5.59	-46.2	-60.2	3.8	8.48e-01	0	41	104	0	61	19551
2026-01-18 04:42:28.66	11.43	5.66	-46.2	-60.2	3.8	8.47e-01	0	41	104	0	61	19406
2026-01-18 04:42:29.65	11.40	5.73	-46.2	-60.2	3.8	8.47e-01	0	41	104	0	61	19420
2026-01-18 04:42:30.64	11.36	5.80	-46.2	-60.1	3.8	8.47e-01	0	41	104	0	61	19371
2026-01-18 04:42:31.64	11.32	5.87	-46.2	-60.2	3.8	8.47e-01	0	41	104	0	61	19503
2026-01-18 04:42:32.63	11.29	5.94	-46.2	-60.2	3.8	8.47e-01	0	41	104	0	61	19542
2026-01-18 04:42:33.63	11.25	6.01	-46.2	-60.2	3.8	8.47e-01	0	41	104	0	61	19551
2026-01-18 04:42:34.62	11.21	6.09	-46.2	-60.3	3.8	8.47e-01	0	41	104	0	61	19660
2026-01-18 04:42:35.61	11.17	6.16	-46.2	-60.2	3.8	8.48e-01	0	41	104	0	61	19593
2026-01-18 04:42:36.61	11.14	6.23	-46.2	-60.3	3.8	8.46e-01	0	41	104	0	61	19675
2026-01-18 04:42:37.60	11.10	6.30	-46.2	-60.2	3.8	8.47e-01	0	41	104	0	61	19513
2026-01-18 04:42:38.60	11.06	6.37	-46.2	-60.1	3.8	8.47e-01	0	41	104	0	61	19237
2026-01-18 04:42:39.59	11.02	6.45	-46.2	-59.8	3.8	8.46e-01	0	41	104	0	61	18663
2026-01-18 04:42:40.58	10.98	6.52	-46.2	-59.5	3.8	8.46e-01	0	41	104	0	61	17943
2026-01-18 04:42:41.58	10.94	6.59	-46.2	-59.2	3.8	8.47e-01	0	41	104	0	61	17379
2026-01-18 04:42:42.57	10.90	6.66	-46.1	-58.6	3.8	8.46e-01	0	41	104	0	61	16237
2026-01-18 04:42:43.56	10.86	6.74	-46.1	-58.2	3.8	8.46e-01	0	41	104	0	61	15526
2026-01-18 04:42:44.56	10.82	6.81	-46.1	-57.8	3.9	8.45e-01	0	41	104	0	61	14714
2026-01-18 04:42:45.55	10.78	6.88	-46.0	-57.2	4.1	8.41e-01	0	42	0	0	61	13826
2026-01-18 04:42:46.54	10.74	6.96	-46.0	-56.9	4.2	8.38e-01	0	41	0	0	61	13404
2026-01-18 04:42:47.54	10.70	7.03	-46.0	-56.8	4.2	8.38e-01	0	41	0	0	61	13250
2026-01-18 04:42:48.53	10.66	7.11	-46.0	-56.9	4.2	8.37e-01	0	42	0	0	61	13348
2026-01-18 04:42:49.52	10.62	7.18	-46.0	-57.1	4.1	8.40e-01	0	42	0	0	61	13698
2026-01-18 04:42:50.52	10.58	7.25	-46.1	-57.6	3.9	8.42e-01	0	42	104	0	61	14496
2026-01-18 04:42:51.51	10.54	7.33	-46.1	-58.2	3.8	8.43e-01	0	42	104	0	61	15481
2026-01-18 04:42:52.50	10.50	7.40	-46.1	-58.6	3.8	8.46e-01	0	42	104	0	61	16262
2026-01-18 04:42:53.50	10.46	7.48	-46.1	-59.2	3.8	8.48e-01	0	42	104	0	61	17359
2026-01-18 04:42:54.49	10.42	7.55	-46.2	-59.7	3.8	8.46e-01	0	42	104	0	61	18334
2026-01-18 04:42:55.48	10.37	7.63	-46.2	-60.1	3.8	8.47e-01	0	42	104	0	61	19217
2026-01-18 04:42:56.48	10.33	7.70	-46.2	-60.3	3.8	8.46e-01	0	42	104	0	61	19695
2026-01-18 04:42:57.47	10.29	7.78	-46.2	-60.1	3.8	8.47e-01	0	42	104	0	61	19379
2026-01-18 04:42:58.46	10.24	7.86	-46.2	-59.2	3.8	8.46e-01	0	42	104	0	61	17405
2026-01-18 04:42:59.46	10.20	7.93	-46.0	-57.3	4.1	8.44e-01	0	42	0	0	61	14041
2026-01-18 04:43:00.45	10.16	8.01	-45.8	-55.1	4.9	7.99e-01	0	42	0	0	61	10842
2026-01-18 04:43:01.44	10.11	8.09	-45.4	-52.7	6.5	3.33e-01	0	42	0	3145728	61	8268
2026-01-18 04:43:02.44	10.07	8.16	-44.8	-50.5	8.6	6.88e-02	0	42	0	10485760	60	6763
2026-01-18 04:43:03.43	10.03	8.24	-44.3	-48.7	10.5	6.64e-03	0	42	0	17825792	59	5800
2026-01-18 04:43:04.42	9.98	8.32	-43.5	-47.1	12.1	7.64e-04	0	42	0	24117248	57	5419
2026-01-18 04:43:05.41	9.94	8.39	-42.9	-45.9	13.3	5.03e-05	0	42	0	31457280	56	5024
2026-01-18 04:43:06.41	9.89	8.47	-42.1	-44.7	14.5	2.20e-06	0	42	0	38797312	55	4608
2026-01-18 04:43:07.40	9.85	8.55	-41.5	-43.8	15.3	0.00e+00	0	42	0	46137344	53	4701
2026-01-18 04:43:08.40	9.80	8.63	-41.1	-43.3	15.8	0.00e+00	0	42	0	53477376	53	4426
2026-01-18 04:43:09.39	9.76	8.71	-40.8	-42.8	16.4	0.00e+00	0	42	0	60817408	52	4411
2026-01-18 04:43:10.38	9.71	8.79	-40.7	-42.7	16.4	0.00e+00	0	42	0	67108864	52	4385
2026-01-18 04:43:11.37	9.66	8.86	-40.8	-42.8	16.5	0.00e+00	0	42	0	74448896	51	4655
2026-01-18 04:43:12.37	9.62	8.94	-40.9	-43.0	16.2	0.00e+00	0	42	0	81788928	51	4788
2026-01-18 04:43:13.36	9.57	9.02	-41.2	-43.4	15.7	0.00e+00	0	42	0	89128960	52	4740
2026-01-18 04:43:14.36	9.52	9.10	-41.7	-44.1	15.0	0.00e+00	0	42	0	96468992	52	5129
2026-01-18 04:43:15.35	9.48	9.18	-43.3	-46.7	12.5	2.17e-05	0	42	0	103809024	55	5793
2026-01-18 04:43:16.35	9.43	9.26	-43.8	-47.3	11.9	8.38e-03	0	42	0	110100480	58	5248
2026-01-18 04:43:17.34	9.38	9.34	-39.3	-40.9	18.2	0.00e+00	0	42	0	117440512	49	4203
2026-01-18 04:43:18.34	9.33	9.43	-38.2	-39.6	19.3	0.00e+00	0	42	0	124780544	46	4326
2026-01-18 04:43:19.33	9.28	9.51	-42.8	-45.9	13.2	7.23e-03	0	42	0	132120576	56	5008
2026-01-18 04:43:20.33	9.23	9.59	-38.3	-39.6	19.3	0.00e+00	0	42	0	139460608	47	4095
2026-01-18 04:43:21.32	9.18	9.67	-38.1	-39.5	19.5	0.00e+00	0	42	0	146800640	47	4019
2026-01-18 04:43:22.32	9.13	9.75	-38.1	-39.4	19.6	0.00e+00	0	42	0	153092096	46	4207
2026-01-18 04:43:23.36	9.08	9.84	-38.2	-39.6	19.4	0.00e+00	0	42	0	161480704	46	4297
2026-01-18 04:43:24.35	9.03	9.92	-38.1	-39.4	19.5	0.00e+00	0	42	0	167772160	46	4234
2026-01-18 04:43:25.35	8.98	10.00	-38.2	-39.5	19.5	0.00e+00	0	42	0	175112192	46	4259
2026-01-18 04:43:26.34	8.93	10.08	-38.2	-39.5	19.5	0.00e+00	0	42	0	182452224	46	4258
2026-01-18 04:43:27.34	8.88	10.17	-38.2	-39.5	19.5	0.00e+00	0	42	0	189792256	46	4266
2026-01-18 04:43:28.33	8.83	10.25	-38.3	-39.6	19.4	0.00e+00	0	42	0	197132288	46	4295
2026-01-18 04:43:29.33	8.78	10.33	-38.2	-39.5	19.5	0.00e+00	0	42	0	204472320	46	4268
2026-01-18 04:43:30.32	8.73	10.42	-38.4	-39.6	19.3	0.00e+00	0	42	0	211812352	46	4333
2026-01-18 04:43:31.32	8.67	10.50	-38.3	-39.6	19.3	0.00e+00	0	42	0	218103808	46	4327
2026-01-18 04:43:32.31	8.62	10.59	-38.3	-39.6	19.4	0.00e+00	0	42	0	225443840	46	4309
2026-01-18 04:43:33.31	8.57	10.67	-38.0	-39.2	19.8	0.00e+00	0	42	0	232783872	46	4114
2026-01-18 04:43:34.30	8.51	10.75	-37.9	-39.1	19.8	0.00e+00	0	42	0	240123904	46	4097
2026-01-18 04:43:35.30	8.46	10.84	-37.9	-39.1	19.9	0.00e+00	0	42	0	247463936	46	4054
2026-01-18 04:43:36.29	8.41	10.93	-38.0	-39.2	19.8	0.00e+00	0	42	0	254803968	46	4126
2026-01-18 04:43:37.29	8.35	11.01	-38.0	-39.2	19.8	0.00e+00	0	42	0	262144000	46	4105
2026-01-18 04:43:38.28	8.30	11.10	-37.8	-38.9	20.0	0.00e+00	0	42	0	269484032	46	3990
2026-01-18 04:43:39.34	8.24	11.19	-37.9	-39.1	19.9	0.00e+00	0	42	0	276824064	46	4058
2026-01-18 04:43:40.23	8.19	11.27	-37.9	-39.0	19.9	0.00e+00	0	42	0	283115520	46	4038
2026-01-18 04:43:41.36	8.13	11.36	-37.8	-39.0	20.0	0.00e+00	0	42	0	291504128	46	4010
2026-01-18 04:43:42.30	8.07	11.45	-37.9	-39.0	20.0	0.00e+00	0	42	0	297795584	46	4026
2026-01-18 04:43:43.46	8.01	11.55	-37.8	-39.0	20.0	0.00e+00	0	42	0	306184192	46	4008
2026-01-18 04:43:44.35	7.96	11.63	-37.7	-38.8	20.2	0.00e+00	0	42	0	312475648	46	3935
2026-01-18 04:43:45.48	7.89	11.73	-37.8	-38.9	20.1	0.00e+00	0	42	0	320864256	45	4229
2026-01-18 04:43:46.40	7.84	11.81	-37.6	-38.7	20.3	0.00e+00	0	43	0	327155712	45	4121
2026-01-18 04:43:47.40	7.78	11.90	-37.7	-38.8	20.2	0.00e+00	0	42	0	334495744	45	4155
2026-01-18 04:43:48.39	7.72	11.99	-37.5	-38.6	20.3	0.00e+00	0	42	0	341835776	45	4080
2026-01-18 04:43:49.39	7.66	12.07	-37.5	-38.6	20.4	0.00e+00	0	42	0	349175808	45	4059
2026-01-18 04:43:50.38	7.60	12.16	-37.6	-38.7	20.3	0.00e+00	0	42	0	356515840	45	4113
2026-01-18 04:43:51.38	7.54	12.25	-37.5	-38.6	20.4	0.00e+00	0	43	0	363855872	45	4060
2026-01-18 04:43:52.37	7.48	12.34	-37.6	-38.7	20.3	0.00e+00	0	43	0	371195904	45	4122
2026-01-18 04:43:53.37	7.42	12.43	-37.5	-38.6	20.4	0.00e+00	0	43	0	377487360	45	4081
2026-01-18 04:43:54.36	7.36	12.52	-37.5	-38.6	20.4	0.00e+00	0	43	0	384827392	45	4078
2026-01-18 04:43:55.36	7.30	12.62	-37.5	-38.6	20.4	0.00e+00	0	42	0	392167424	45	4065
2026-01-18 04:43:56.35	7.24	12.71	-37.5	-38.6	20.4	0.00e+00	0	42	0	399507456	45	4069
2026-01-18 04:43:57.35	7.18	12.80	-37.4	-38.5	20.5	0.00e+00	0	42	0	406847488	45	4014
2026-01-18 04:43:58.34	7.12	12.89	-37.4	-38.4	20.6	0.00e+00	0	42	0	414187520	45	3986
2026-01-18 04:43:59.34	7.05	12.98	-37.4	-38.5	20.5	0.00e+00	0	43	0	420478976	45	4019
2026-01-18 04:44:00.32	6.99	13.07	-37.3	-38.4	20.6	0.00e+00	0	42	0	427819008	45	3967
2026-01-18 04:44:01.29	6.93	13.16	-37.3	-38.4	20.6	0.00e+00	0	43	0	435159040	45	3968
2026-01-18 04:44:02.29	6.87	13.26	-37.3	-38.3	20.7	0.00e+00	0	42	0	442499072	45	3947
2026-01-18 04:44:03.29	6.80	13.35	-37.4	-38.4	20.5	0.00e+00	0	43	0	449839104	45	3997
2026-01-18 04:44:04.28	6.74	13.44	-37.2	-38.2	20.8	0.00e+00	0	42	0	457179136	45	3889
2026-01-18 04:44:05.28	6.67	13.54	-37.3	-38.3	20.7	0.00e+00	0	43	0	463470592	45	3943
2026-01-18 04:44:06.27	6.61	13.63	-37.2	-38.2	20.7	0.00e+00	0	42	0	470810624	45	3901
2026-01-18 04:44:07.26	6.54	13.73	-37.2	-38.2	20.8	0.00e+00	0	42	0	478150656	44	4133
2026-01-18 04:44:08.26	6.47	13.82	-37.2	-38.2	20.8	0.00e+00	0	43	0	485490688	44	4105
2026-01-18 04:44:09.25	6.41	13.92	-37.2	-38.2	20.7	0.00e+00	0	43	0	492830720	44	4135
2026-01-18 04:44:10.29	6.34	14.02	-37.2	-38.2	20.8	0.00e+00	0	43	0	500170752	44	4112
2026-01-18 04:44:11.34	6.26	14.12	-37.2	-38.2	20.8	0.00e+00	0	43	0	507510784	44	4121
2026-01-18 04:44:12.33	6.20	14.21	-37.1	-38.1	20.9	0.00e+00	0	43	0	514850816	44	4094
2026-01-18 04:44:13.32	6.13	14.31	-37.1	-38.0	20.9	0.00e+00	0	43	0	522190848	44	4046
2026-01-18 04:44:14.32	6.06	14.41	-37.1	-38.1	20.8	0.00e+00	0	43	0	528482304	44	4082
2026-01-18 04:44:15.31	5.99	14.50	-37.0	-38.0	21.0	0.00e+00	0	43	0	535822336	44	4018
2026-01-18 04:44:16.31	5.92	14.60	-37.1	-38.0	20.9	0.00e+00	0	43	0	543162368	44	4051
2026-01-18 04:44:17.30	5.85	14.70	-37.1	-38.1	20.9	0.00e+00	0	43	0	550502400	44	4066
2026-01-18 04:44:18.30	5.78	14.80	-37.1	-38.1	20.9	0.00e+00	0	43	0	557842432	44	4057
2026-01-18 04:44:19.29	5.70	14.90	-37.0	-38.0	21.0	0.00e+00	0	43	0	565182464	44	4030
2026-01-18 04:44:20.29	5.63	15.00	-37.1	-38.1	20.9	0.00e+00	0	42	0	572522496	44	4056
2026-01-18 04:44:21.28	5.56	15.10	-37.2	-38.2	20.8	0.00e+00	0	43	0	579862528	44	4099
2026-01-18 04:44:22.28	5.48	15.20	-36.7	-37.7	21.3	0.00e+00	0	42	0	586153984	44	3873
2026-01-18 04:44:23.27	5.41	15.30	-36.9	-37.9	21.1	0.00e+00	0	42	0	593494016	44	3961
2026-01-18 04:44:24.27	5.34	15.40	-36.8	-37.8	21.2	0.00e+00	0	42	0	600834048	44	3928
2026-01-18 04:44:25.26	5.26	15.50	-36.7	-37.7	21.3	0.00e+00	0	43	0	608174080	44	3876
2026-01-18 04:44:26.25	5.19	15.60	-36.7	-37.6	21.4	0.00e+00	0	43	0	615514112	44	3852
2026-01-18 04:44:27.25	5.11	15.70	-36.8	-37.7	21.3	0.00e+00	0	42	0	622854144	44	3889
2026-01-18 04:44:28.24	5.03	15.80	-36.6	-37.5	21.5	0.00e+00	0	43	0	629145600	44	3819
2026-01-18 04:44:29.24	4.96	15.91	-36.6	-37.6	21.4	0.00e+00	0	43	0	636485632	44	3836
2026-01-18 04:44:30.23	4.88	16.01	-36.6	-37.5	21.5	0.00e+00	0	43	0	643825664	44	3817
2026-01-18 04:44:31.40	4.79	16.13	-36.8	-37.7	21.3	0.00e+00	0	43	0	652214272	44	3908
2026-01-18 04:44:32.26	4.72	16.22	-36.4	-37.3	21.5	0.00e+00	0	43	0	658505728	43	3924
2026-01-18 04:44:33.59	4.61	16.36	-36.4	-37.4	21.5	0.00e+00	0	43	0	667942912	43	3965
2026-01-18 04:44:34.30	4.56	16.43	-36.3	-37.3	21.6	0.00e+00	0	43	0	673185792	43	3927
2026-01-18 04:44:35.57	4.45	16.57	-36.3	-37.3	21.5	0.00e+00	0	43	0	682622976	43	3923
2026-01-18 04:44:36.29	4.39	16.64	-36.4	-37.3	21.5	0.00e+00	0	43	0	687865856	43	3932
2026-01-18 04:44:37.57	4.29	16.78	-36.4	-37.3	21.5	0.00e+00	0	43	0	696254464	43	3935
2026-01-18 04:44:38.29	4.23	16.85	-36.2	-37.1	21.7	0.00e+00	0	43	0	702545920	43	3860
2026-01-18 04:44:39.57	4.12	16.99	-36.3	-37.3	21.5	0.00e+00	0	43	0	711983104	43	3919
2026-01-18 04:44:40.29	4.06	17.07	-36.2	-37.1	21.7	0.00e+00	0	43	0	716177408	43	3861
2026-01-18 04:44:41.56	3.95	17.21	-36.3	-37.2	21.6	0.00e+00	0	43	0	725614592	43	3911
2026-01-18 04:44:42.27	3.89	17.28	-36.3	-37.3	21.6	0.00e+00	0	43	0	730857472	43	3915
2026-01-18 04:44:43.55	3.78	17.42	-36.2	-37.2	21.7	0.00e+00	0	43	0	740294656	43	3871
2026-01-18 04:44:44.29	3.72	17.50	-36.3	-37.2	21.6	0.00e+00	0	43	0	745537536	43	3909
2026-01-18 04:44:45.57	3.61	17.64	-36.3	-37.2	21.6	0.00e+00	0	43	0	754974720	43	3907
2026-01-18 04:44:46.28	3.55	17.72	-36.3	-37.3	21.6	0.00e+00	0	43	0	760217600	43	3914
2026-01-18 04:44:47.57	3.43	17.86	-36.2	-37.1	21.7	0.00e+00	0	43	0	769654784	43	3855
2026-01-18 04:44:48.29	3.37	17.94	-36.2	-37.1	21.7	0.00e+00	0	43	0	773849088	43	3846
2026-01-18 04:44:49.56	3.25	18.08	-36.0	-37.0	21.9	0.00e+00	0	43	0	783286272	42	4014
2026-01-18 04:44:50.30	3.19	18.17	-36.1	-37.0	21.8	0.00e+00	0	43	0	788529152	42	4040
2026-01-18 04:44:51.63	3.06	18.32	-36.0	-37.0	21.9	0.00e+00	0	43	0	799014912	42	4005
2026-01-18 04:44:52.34	3.00	18.39	-35.9	-36.8	22.0	0.00e+00	0	43	0	803209216	42	3922
2026-01-18 04:44:53.62	2.88	18.54	-35.9	-36.8	22.1	0.00e+00	0	43	0	812646400	42	3924
2026-01-18 04:44:54.33	2.81	18.62	-35.9	-36.8	22.1	0.00e+00	0	42	0	817889280	42	3917
2026-01-18 04:44:55.75	2.68	18.78	-35.8	-36.7	22.1	0.00e+00	0	43	0	828375040	42	3908
2026-01-18 04:44:56.46	2.61	18.86	-35.9	-36.8	22.1	0.00e+00	0	43	0	833617920	42	3917
2026-01-18 04:44:57.74	2.49	19.01	-35.8	-36.7	22.1	0.00e+00	0	43	0	842006528	42	3904
2026-01-18 04:44:58.47	2.42	19.09	-35.6	-36.5	22.3	0.00e+00	0	43	0	847249408	42	3797
2026-01-18 04:44:59.75	2.29	19.24	-35.6	-36.5	22.3	0.00e+00	0	43	0	856686592	41	4016
2026-01-18 04:45:00.47	2.22	19.33	-35.5	-36.4	22.4	0.00e+00	0	43	0	861929472	41	3967
2026-01-18 04:45:01.76	2.09	19.48	-35.4	-36.3	22.5	0.00e+00	0	43	0	871366656	41	3934
2026-01-18 04:45:02.46	2.03	19.56	-35.4	-36.2	22.6	0.00e+00	0	43	0	876609536	41	3897
2026-01-18 04:45:03.74	1.90	19.71	-35.3	-36.2	22.6	0.00e+00	0	42	0	886046720	41	3883
2026-01-18 04:45:04.47	1.82	19.79	-35.0	-35.8	22.9	0.00e+00	0	43	0	891289600	40	3946
2026-01-18 04:45:05.75	1.69	19.95	-35.3	-36.1	22.6	0.00e+00	0	43	0	900726784	40	4089
2026-01-18 04:45:06.46	1.62	20.03	-35.3	-36.2	22.6	0.00e+00	0	43	0	904921088	40	4107
2026-01-18 04:45:07.74	1.49	20.18	-35.5	-36.4	22.4	0.00e+00	0	43	0	914358272	40	4197
2026-01-18 04:45:08.45	1.41	20.27	-35.4	-36.3	22.5	0.00e+00	0	43	0	919601152	40	4154
2026-01-18 04:45:09.73	1.28	20.42	-35.4	-36.2	22.5	0.00e+00	0	43	0	929038336	40	4132
2026-01-18 04:45:10.44	1.20	20.51	-35.3	-36.2	22.6	0.00e+00	0	42	0	934281216	40	4120
2026-01-18 04:45:11.72	1.06	20.66	-35.3	-36.2	22.6	0.00e+00	0	43	0	943718400	40	4120
2026-01-18 04:45:12.43	0.99	20.75	-35.3	-36.2	22.6	0.00e+00	0	42	0	948961280	40	4121
2026-01-18 04:45:13.71	0.85	20.90	-35.3	-36.1	22.6	0.00e+00	0	43	0	957349888	40	4095
2026-01-18 04:45:14.44	0.77	20.99	-35.2	-36.1	22.7	0.00e+00	0	43	0	962592768	40	4081
2026-01-18 04:45:15.72	0.63	21.15	-35.2	-36.1	22.7	0.00e+00	0	43	0	972029952	40	4083
2026-01-18 04:45:16.44	0.55	21.24	-35.3	-36.2	22.6	0.00e+00	0	43	0	977272832	40	4118
2026-01-18 04:45:17.72	0.40	21.40	-35.3	-36.2	22.6	0.00e+00	0	43	0	986710016	40	4117
2026-01-18 04:45:18.43	0.32	21.49	-35.3	-36.2	22.7	0.00e+00	0	43	0	991952896	40	4104
2026-01-18 04:45:19.71	0.17	21.65	-35.4	-36.3	22.6	0.00e+00	0	43	0	1001390080	40	4156
2026-01-18 04:45:20.42	0.09	21.74	-35.3	-36.2	22.7	0.00e+00	0	43	0	1006632960	40	4103
2026-01-18 04:45:21.70	359.94	21.90	-35.2	-36.1	22.7	0.00e+00	0	43	0	1015021568	40	4058
2026-01-18 04:45:22.41	359.86	21.99	-35.2	-36.1	22.7	0.00e+00	0	43	0	1020264448	40	4068
2026-01-18 04:45:23.69	359.71	22.15	-35.3	-36.1	22.7	0.00e+00	0	43	0	1029701632	40	4082
2026-01-18 04:45:24.40	359.62	22.24	-35.3	-36.1	22.7	0.00e+00	0	43	0	1034944512	40	4097
2026-01-18 04:45:25.68	359.47	22.41	-35.3	-36.2	22.7	0.00e+00	0	43	0	1044381696	40	4118
2026-01-18 04:45:26.51	359.37	22.51	-35.3	-36.2	22.6	0.00e+00	0	43	0	1049624576	40	4119
2026-01-18 04:45:27.64	359.23	22.66	-35.4	-36.2	22.6	0.00e+00	0	43	0	1058013184	40	4136
2026-01-18 04:45:28.50	359.12	22.77	-35.4	-36.2	22.6	0.00e+00	0	43	0	1064304640	40	4132
2026-01-18 04:45:29.64	358.98	22.92	-35.5	-36.3	22.5	0.00e+00	0	43	0	1072693248	40	4188
2026-01-18 04:45:30.49	358.87	23.03	-35.5	-36.3	22.5	0.00e+00	0	43	0	1078984704	40	4181
2026-01-18 04:45:31.63	358.73	23.18	-35.5	-36.4	22.4	0.00e+00	0	43	0	1087373312	40	4218
2026-01-18 04:45:32.48	358.62	23.29	-35.5	-36.4	22.5	0.00e+00	0	43	0	1093664768	40	4209
2026-01-18 04:45:33.62	358.47	23.44	-35.6	-36.4	22.4	0.00e+00	0	43	0	1101004800	40	4237
2026-01-18 04:45:34.84	358.32	23.60	-35.5	-36.4	22.5	0.00e+00	0	43	0	1110441984	40	4197
2026-01-18 04:45:35.69	358.20	23.72	-35.7	-36.6	22.3	0.00e+00	0	43	0	1116733440	40	4309
2026-01-18 04:45:36.83	358.05	23.87	-35.7	-36.5	22.3	0.00e+00	0	43	0	1125122048	41	4037
2026-01-18 04:45:37.68	357.94	23.98	-35.6	-36.5	22.4	0.00e+00	0	43	0	1131413504	41	4024
2026-01-18 04:45:38.82	357.79	24.14	-35.5	-36.4	22.5	0.00e+00	0	43	0	1138753536	41	3967
2026-01-18 04:45:39.68	357.67	24.25	-35.6	-36.4	22.4	0.00e+00	0	43	0	1145044992	41	4002
2026-01-18 04:45:40.81	357.51	24.41	-35.3	-36.2	22.7	0.00e+00	0	43	0	1153433600	41	3873
2026-01-18 04:45:41.67	357.39	24.52	-35.6	-36.4	22.4	0.00e+00	0	43	0	1159725056	41	4004
2026-01-18 04:45:42.90	357.22	24.69	-35.7	-36.5	22.4	0.00e+00	0	43	0	1168113664	41	4031
2026-01-18 04:45:43.76	357.10	24.81	-35.5	-36.4	22.5	0.00e+00	0	43	0	1174405120	41	3962
2026-01-18 04:45:44.97	356.93	24.98	-35.6	-36.4	22.5	0.00e+00	0	43	0	1183842304	41	3988
2026-01-18 04:45:45.82	356.81	25.10	-35.7	-36.5	22.4	0.00e+00	0	43	0	1190133760	41	4045
2026-01-18 04:45:46.96	356.64	25.26	-35.6	-36.5	22.4	0.00e+00	0	43	0	1197473792	41	4032
2026-01-18 04:45:47.81	356.52	25.37	-35.7	-36.6	22.3	0.00e+00	0	43	0	1203765248	41	4072
2026-01-18 04:45:48.95	356.35	25.53	-35.6	-36.5	22.4	0.00e+00	0	43	0	1212153856	41	4014
2026-01-18 04:45:49.80	356.22	25.65	-35.6	-36.5	22.4	0.00e+00	0	43	0	1218445312	41	4015
2026-01-18 04:45:50.94	356.05	25.81	-35.5	-36.3	22.6	0.00e+00	0	42	0	1226833920	41	3954
2026-01-18 04:45:51.79	355.92	25.94	-35.5	-36.4	22.5	0.00e+00	0	42	0	1233125376	41	3973
2026-01-18 04:45:52.93	355.75	26.10	-35.6	-36.5	22.4	0.00e+00	0	43	0	1241513984	41	4024
2026-01-18 04:45:53.78	355.61	26.22	-35.6	-36.4	22.4	0.00e+00	0	43	0	1246756864	41	3999
2026-01-18 04:45:54.92	355.44	26.38	-35.6	-36.4	22.5	0.00e+00	0	43	0	1255145472	41	3994
2026-01-18 04:45:55.77	355.30	26.50	-35.4	-36.2	22.6	0.00e+00	0	43	0	1261436928	41	3909
2026-01-18 04:45:56.91	355.12	26.67	-35.5	-36.4	22.5	0.00e+00	0	43	0	1269825536	40	4198
2026-01-18 04:45:57.77	354.98	26.79	-35.2	-36.1	22.8	0.00e+00	0	43	0	1276116992	40	4071
2026-01-18 04:45:58.90	354.80	26.96	-35.1	-35.9	22.9	0.00e+00	0	43	0	1283457024	40	3989
2026-01-18 04:45:59.76	354.66	27.08	-34.9	-35.8	23.1	0.00e+00	0	43	0	1289748480	40	3915
2026-01-18 04:46:00.98	354.46	27.26	-34.8	-35.7	23.2	0.00e+00	0	42	0	1299185664	40	3874
2026-01-18 04:46:01.84	354.31	27.39	-35.1	-35.9	23.0	0.00e+00	0	43	0	1305477120	39	4227
2026-01-18 04:46:02.98	354.12	27.56	-34.8	-35.6	23.3	0.00e+00	0	42	0	1313865728	39	4062
2026-01-18 04:46:03.83	353.98	27.68	-34.6	-35.4	23.5	0.00e+00	0	43	0	1320157184	39	3982
2026-01-18 04:46:04.97	353.78	27.85	-34.7	-35.5	23.4	0.00e+00	0	42	0	1327497216	39	4012
2026-01-18 04:46:05.82	353.64	27.98	-34.5	-35.3	23.5	0.00e+00	0	43	0	1333788672	39	3925
2026-01-18 04:46:06.96	353.44	28.15	-34.3	-35.1	23.7	0.00e+00	0	43	0	1342177280	39	3849
2026-01-18 04:46:07.81	353.29	28.28	-34.4	-35.2	23.6	0.00e+00	0	43	0	1348468736	38	4124
2026-01-18 04:46:08.95	353.08	28.45	-34.5	-35.3	23.5	0.00e+00	0	42	0	1356857344	38	4163
2026-01-18 04:46:09.80	352.93	28.58	-34.5	-35.3	23.6	0.00e+00	0	42	0	1363148800	38	4153
2026-01-18 04:46:10.94	352.72	28.75	-34.4	-35.2	23.6	0.00e+00	0	43	0	1370488832	38	4123
2026-01-18 04:46:11.79	352.57	28.88	-34.5	-35.3	23.5	0.00e+00	0	43	0	1376780288	38	4184
2026-01-18 04:46:12.93	352.36	29.06	-34.6	-35.4	23.5	0.00e+00	0	43	0	1385168896	39	3996
2026-01-18 04:46:13.78	352.20	29.19	-34.6	-35.4	23.5	0.00e+00	0	43	0	1391460352	39	3979
2026-01-18 04:46:14.92	351.98	29.36	-34.6	-35.4	23.4	0.00e+00	0	43	0	1399848960	39	3986
2026-01-18 04:46:15.77	351.82	29.49	-34.6	-35.4	23.4	0.00e+00	0	42	0	1406140416	39	3984
2026-01-18 04:46:16.91	351.60	29.67	-34.7	-35.6	23.3	0.00e+00	0	43	0	1413480448	39	4053
2026-01-18 04:46:17.76	351.44	29.80	-34.8	-35.6	23.2	0.00e+00	0	42	0	1419771904	39	4066
2026-01-18 04:46:18.98	351.20	29.99	-34.6	-35.5	23.4	0.00e+00	0	43	0	1429209088	39	4008
2026-01-18 04:46:19.83	351.03	30.12	-34.6	-35.4	23.4	0.00e+00	0	43	0	1435500544	39	3989
2026-01-18 04:46:20.97	350.80	30.30	-34.7	-35.5	23.3	0.00e+00	0	43	0	1443889152	39	4029
2026-01-18 04:46:21.82	350.63	30.43	-34.8	-35.6	23.3	0.00e+00	0	43	0	1449132032	39	4093
2026-01-18 04:46:22.96	350.40	30.61	-35.1	-36.0	22.9	0.00e+00	0	43	0	1457520640	39	4243
2026-01-18 04:46:23.81	350.22	30.75	-35.2	-36.0	23.0	0.00e+00	0	42	0	1463812096	39	4271
2026-01-18 04:46:24.95	349.98	30.93	-35.1	-35.9	23.1	0.00e+00	0	43	0	1472200704	39	4213
2026-01-18 04:46:25.80	349.80	31.06	-35.0	-35.9	23.1	0.00e+00	0	42	0	1478492160	39	4197
2026-01-18 04:46:26.94	349.56	31.25	-35.0	-35.8	23.1	0.00e+00	0	42	0	1486880768	39	4179
2026-01-18 04:46:27.79	349.38	31.38	-34.9	-35.7	23.2	0.00e+00	0	43	0	1492123648	39	4143
2026-01-18 04:46:28.93	349.13	31.56	-35.0	-35.8	23.1	0.00e+00	0	42	0	1500512256	39	4192
2026-01-18 04:46:29.78	348.95	31.70	-35.0	-35.8	23.1	0.00e+00	0	43	0	1506803712	39	4190
2026-01-18 04:46:30.92	348.70	31.88	-35.0	-35.8	23.1	0.00e+00	0	42	0	1515192320	39	4167
2026-01-18 04:46:31.77	348.51	32.02	-34.9	-35.8	23.1	0.00e+00	0	42	0	1521483776	39	4157
2026-01-18 04:46:32.91	348.25	32.20	-34.9	-35.7	23.2	0.00e+00	0	42	0	1529872384	39	4127
2026-01-18 04:46:33.76	348.05	32.34	-34.7	-35.5	23.3	0.00e+00	0	42	0	1535115264	39	4037
2026-01-18 04:46:34.90	347.79	32.53	-34.7	-35.5	23.4	0.00e+00	0	43	0	1543503872	39	4018
2026-01-18 04:46:35.75	347.59	32.67	-34.6	-35.4	23.4	0.00e+00	0	43	0	1549795328	39	3998
2026-01-18 04:46:36.89	347.33	32.85	-34.7	-35.6	23.3	0.00e+00	0	42	0	1558183936	39	4053
2026-01-18 04:46:37.74	347.13	32.99	-34.3	-35.2	23.7	0.00e+00	0	42	0	1564475392	39	3873
2026-01-18 04:46:38.87	346.85	33.17	-34.4	-35.2	23.6	0.00e+00	0	42	0	1572864000	39	3894
2026-01-18 04:46:39.73	346.65	33.32	-34.4	-35.3	23.6	0.00e+00	0	43	0	1579155456	39	3923
2026-01-18 04:46:40.86	346.37	33.50	-34.3	-35.1	23.7	0.00e+00	0	43	0	1586495488	39	3854
2026-01-18 04:46:41.72	346.16	33.64	-34.3	-35.1	23.7	0.00e+00	0	43	0	1592786944	39	3844
2026-01-18 04:46:42.85	345.88	33.83	-34.4	-35.2	23.7	0.00e+00	0	43	0	1601175552	39	3890
2026-01-18 04:46:43.70	345.66	33.97	-34.6	-35.4	23.4	0.00e+00	0	43	0	1607467008	38	4234
2026-01-18 04:46:44.84	345.37	34.16	-34.2	-35.0	23.8	0.00e+00	0	43	0	1615855616	38	4041
2026-01-18 04:46:45.70	345.15	34.30	-34.2	-35.0	23.8	0.00e+00	0	42	0	1622147072	38	4025
2026-01-18 04:46:46.83	344.86	34.49	-34.2	-35.0	23.8	0.00e+00	0	43	0	1630535680	38	4040
2026-01-18 04:46:47.69	344.63	34.63	-34.3	-35.1	23.7	0.00e+00	0	42	0	1635778560	38	4071
2026-01-18 04:46:49.00	344.28	34.85	-34.3	-35.1	23.8	0.00e+00	0	43	0	1645215744	38	4068
2026-01-18 04:46:49.71	344.09	34.97	-34.5	-35.3	23.6	0.00e+00	0	42	0	1650458624	38	4166
2026-01-18 04:46:50.99	343.74	35.18	-34.6	-35.4	23.5	0.00e+00	0	42	0	1659895808	38	4212
2026-01-18 04:46:51.71	343.55	35.30	-34.6	-35.4	23.5	0.00e+00	0	42	0	1665138688	38	4218
2026-01-18 04:46:52.99	343.19	35.51	-34.7	-35.5	23.4	0.00e+00	0	42	0	1674575872	39	4049
2026-01-18 04:46:53.70	342.99	35.63	-34.6	-35.4	23.5	0.00e+00	0	42	0	1679818752	39	3995
2026-01-18 04:46:54.98	342.63	35.85	-34.8	-35.7	23.3	0.00e+00	0	42	0	1689255936	39	4113
2026-01-18 04:46:55.71	342.42	35.97	-34.9	-35.7	23.2	0.00e+00	0	42	0	1694498816	39	4137
2026-01-18 04:46:56.98	342.06	36.18	-35.0	-35.8	23.1	0.00e+00	0	43	0	1702887424	39	4173
2026-01-18 04:46:57.69	341.85	36.30	-35.1	-35.9	23.1	0.00e+00	0	42	0	1708130304	39	4221
2026-01-18 04:46:59.05	341.45	36.53	-35.3	-36.1	22.9	0.00e+00	0	43	0	1718616064	39	4333
2026-01-18 04:46:59.76	341.24	36.64	-35.1	-36.0	23.0	0.00e+00	0	42	0	1722810368	39	4248
2026-01-18 04:47:01.10	340.83	36.87	-34.9	-35.8	23.2	0.00e+00	0	43	0	1733296128	39	4153
2026-01-18 04:47:01.81	340.62	36.99	-35.0	-35.8	23.1	0.00e+00	0	42	0	1737490432	39	4176
2026-01-18 04:47:03.12	340.22	37.21	-35.0	-35.8	23.2	0.00e+00	0	42	0	1746927616	39	4163
2026-01-18 04:47:03.83	339.99	37.32	-34.9	-35.8	23.2	0.00e+00	0	43	0	1753219072	39	4161
2026-01-18 04:47:05.12	339.59	37.54	-34.8	-35.7	23.3	0.00e+00	0	42	0	1762656256	39	4103
2026-01-18 04:47:05.83	339.36	37.66	-34.8	-35.6	23.3	0.00e+00	0	42	0	1766850560	39	4076
2026-01-18 04:47:07.15	338.94	37.88	-34.7	-35.5	23.4	0.00e+00	0	43	0	1776287744	39	4046
2026-01-18 04:47:07.86	338.71	37.99	-34.7	-35.5	23.4	0.00e+00	0	43	0	1781530624	39	4034
2026-01-18 04:47:09.14	338.29	38.21	-34.8	-35.6	23.3	0.00e+00	0	42	0	1790967808	39	4086
2026-01-18 04:47:10.19	337.94	38.38	-34.9	-35.8	23.2	0.00e+00	0	42	0	1798307840	39	4153
2026-01-18 04:47:11.34	337.56	38.57	-34.9	-35.7	23.2	0.00e+00	0	42	0	1806696448	39	4135
2026-01-18 04:47:12.35	337.22	38.74	-34.8	-35.6	22.9	0.00e+00	0	42	0	1814036480	39	4088
2026-01-18 04:47:13.35	336.87	38.90	-34.8	-35.6	23.3	0.00e+00	0	42	0	1821376512	39	4087
2026-01-18 04:47:14.34	336.53	39.06	-34.8	-35.6	23.3	0.00e+00	0	42	0	1828716544	39	4079
2026-01-18 04:47:15.34	336.18	39.23	-34.8	-35.7	23.2	0.00e+00	0	42	0	1836056576	39	4104
2026-01-18 04:47:16.33	335.83	39.39	-34.6	-35.5	23.4	0.00e+00	0	42	0	1843396608	39	4010
2026-01-18 04:47:17.33	335.48	39.55	-34.6	-35.5	23.4	0.00e+00	0	43	0	1850736640	39	4014
2026-01-18 04:47:18.32	335.12	39.71	-34.6	-35.4	23.5	0.00e+00	0	42	0	1857028096	39	3984
2026-01-18 04:47:19.32	334.76	39.88	-34.6	-35.4	23.5	0.00e+00	0	42	0	1864368128	39	3967
2026-01-18 04:47:20.31	334.39	40.03	-34.9	-35.7	23.3	0.00e+00	0	42	0	1871708160	39	4108
2026-01-18 04:47:21.31	334.02	40.20	-34.7	-35.5	23.4	0.00e+00	0	42	0	1879048192	39	4025
2026-01-18 04:47:22.30	333.65	40.35	-34.8	-35.6	23.3	0.00e+00	0	42	0	1886388224	39	4094
2026-01-18 04:47:23.29	333.28	40.51	-35.1	-35.9	23.0	0.00e+00	0	43	0	1893728256	39	4242
2026-01-18 04:47:24.34	332.88	40.68	-35.3	-36.2	22.7	0.00e+00	0	42	0	1901068288	40	4104
2026-01-18 04:47:25.33	332.49	40.83	-35.3	-36.1	22.8	0.00e+00	0	42	0	1908408320	40	4090
2026-01-18 04:47:26.32	332.11	40.99	-35.8	-36.7	22.3	0.00e+00	0	42	0	1915748352	41	4113
2026-01-18 04:47:27.41	331.68	41.16	-35.7	-36.7	22.3	0.00e+00	0	42	0	1923088384	41	4100
2026-01-18 04:47:28.27	331.34	41.29	-35.7	-36.6	22.4	0.00e+00	0	43	0	1929379840	41	4090
2026-01-18 04:47:29.58	330.81	41.49	-35.2	-36.1	22.1	0.00e+00	0	43	0	1938817024	41	3846
2026-01-18 04:47:30.29	330.52	41.60	-35.0	-35.8	23.0	0.00e+00	0	42	0	1944059904	40	3953
2026-01-18 04:47:31.57	330.00	41.80	-34.8	-35.7	23.2	0.00e+00	0	42	0	1952448512	40	3871
2026-01-18 04:47:32.28	329.71	41.91	-34.8	-35.6	23.3	0.00e+00	0	43	0	1957691392	40	3864
2026-01-18 04:47:33.55	329.18	42.10	-34.8	-35.6	23.2	0.00e+00	0	42	0	1967128576	40	3868
2026-01-18 04:47:34.27	328.87	42.20	-34.9	-35.8	23.1	0.00e+00	0	42	0	1972371456	40	3914
2026-01-18 04:47:35.54	328.33	42.39	-35.1	-35.9	23.0	0.00e+00	0	42	0	1981808640	40	3981
2026-01-18 04:47:36.27	328.02	42.50	-34.9	-35.8	23.2	0.00e+00	0	43	0	1987051520	40	3923
2026-01-18 04:47:37.55	327.46	42.69	-34.9	-35.8	23.1	0.00e+00	0	42	0	1996488704	40	3916
2026-01-18 04:47:38.26	327.15	42.79	-35.0	-35.9	23.0	0.00e+00	0	42	0	2000683008	40	3970
2026-01-18 04:47:39.54	326.59	42.97	-35.1	-35.9	23.0	0.00e+00	0	42	0	2010120192	40	3992
2026-01-18 04:47:40.25	326.27	43.07	-35.1	-36.0	23.0	0.00e+00	0	42	0	2015363072	40	4021
2026-01-18 04:47:41.53	325.70	43.25	-35.2	-36.1	22.9	0.00e+00	0	42	0	2024800256	40	4059
2026-01-18 04:47:42.25	325.37	43.35	-35.0	-35.9	23.0	0.00e+00	0	42	0	2030043136	40	3968
2026-01-18 04:47:43.53	324.79	43.52	-35.1	-36.0	23.0	0.00e+00	0	42	0	2039480320	40	4019
2026-01-18 04:47:44.24	324.46	43.62	-34.9	-35.7	23.2	0.00e+00	0	42	0	2044723200	40	3900
2026-01-18 04:47:45.52	323.87	43.79	-34.7	-35.5	23.4	0.00e+00	0	42	0	2053111808	40	3789
2026-01-18 04:47:46.24	323.53	43.89	-34.5	-35.3	23.6	0.00e+00	0	42	0	2059403264	39	3931
2026-01-18 04:47:47.51	322.93	44.05	-34.6	-35.5	23.4	0.00e+00	0	42	0	2067791872	39	4012
2026-01-18 04:47:48.31	322.55	44.16	-34.6	-35.5	23.4	0.00e+00	0	42	0	2074083328	39	4012
2026-01-18 04:47:49.45	322.00	44.30	-34.6	-35.4	23.5	0.00e+00	0	42	0	2082471936	39	3996
2026-01-18 04:47:50.30	321.59	44.41	-34.7	-35.5	23.4	0.00e+00	0	42	0	2087714816	39	4032
2026-01-18 04:47:51.44	321.04	44.55	-35.0	-35.8	23.2	0.00e+00	0	42	0	2096103424	39	4173
2026-01-18 04:47:52.29	320.62	44.65	-35.2	-36.1	22.9	0.00e+00	0	43	0	2102394880	39	4300
2026-01-18 04:47:53.43	320.05	44.79	-35.2	-36.0	22.9	0.00e+00	0	42	0	2110783488	40	4034
2026-01-18 04:47:54.28	319.63	44.89	-35.2	-36.0	22.9	0.00e+00	0	42	0	2117074944	40	4032
2026-01-18 04:47:55.42	319.06	45.02	-35.3	-36.2	22.8	0.00e+00	0	42	0	2125463552	40	4105
2026-01-18 04:47:56.27	318.63	45.11	-35.3	-36.1	22.8	0.00e+00	0	42	0	2131755008	40	4089
2026-01-18 04:47:57.41	318.05	45.24	-35.3	-36.1	22.8	0.00e+00	0	42	0	2140143616	40	4078
2026-01-18 04:47:58.26	317.61	45.33	-35.4	-36.2	22.7	0.00e+00	0	42	0	2145386496	40	4141
2026-01-18 04:47:59.40	317.02	45.45	-35.3	-36.1	22.8	0.00e+00	0	42	0	2153775104	40	4085
2026-01-18 04:48:00.25	316.58	45.54	-35.2	-36.0	22.9	0.00e+00	0	42	0	2160066560	40	4048
2026-01-18 04:48:01.45	315.95	45.66	-35.0	-35.9	23.1	0.00e+00	0	42	0	2168455168	40	3972
2026-01-18 04:48:02.31	315.50	45.75	-34.9	-35.7	23.1	0.00e+00	0	42	0	2174746624	40	3897
2026-01-18 04:48:03.45	314.89	45.86	-34.6	-35.4	23.4	0.00e+00	0	42	0	2183135232	40	3776
2026-01-18 04:48:04.30	314.44	45.94	-34.7	-35.5	23.3	0.00e+00	0	42	0	2189426688	40	3823
2026-01-18 04:48:05.44	313.82	46.04	-35.0	-35.9	23.1	0.00e+00	0	42	0	2197815296	40	3969
2026-01-18 04:48:06.29	313.37	46.12	-35.3	-36.2	22.8	0.00e+00	0	42	0	2204106752	40	4110
2026-01-18 04:48:07.43	312.75	46.22	-35.5	-36.4	22.6	0.00e+00	0	42	0	2211446784	41	3969
2026-01-18 04:48:08.28	312.28	46.29	-35.7	-36.5	22.5	0.00e+00	0	42	0	2217738240	41	4035
2026-01-18 04:48:09.41	311.66	46.38	-35.7	-36.5	22.5	0.00e+00	0	42	0	2226126848	41	4044
2026-01-18 04:48:10.27	311.19	46.45	-35.7	-36.5	22.4	0.00e+00	0	42	0	2232418304	41	4045
2026-01-18 04:48:11.41	310.56	46.53	-35.3	-36.1	22.8	0.00e+00	0	42	0	2240806912	41	3845
2026-01-18 04:48:12.26	310.08	46.59	-35.2	-36.1	22.9	0.00e+00	0	42	0	2247098368	41	3828
2026-01-18 04:48:13.39	309.45	46.67	-35.3	-36.2	22.7	0.00e+00	0	42	0	2254438400	41	3885
2026-01-18 04:48:14.25	308.97	46.73	-35.6	-36.4	22.5	0.00e+00	0	42	0	2260729856	41	4002
2026-01-18 04:48:15.38	308.33	46.80	-35.7	-36.6	22.4	0.00e+00	0	42	0	2269118464	41	4068
2026-01-18 04:48:16.24	307.84	46.85	-35.6	-36.5	22.5	0.00e+00	0	42	0	2275409920	41	4030
2026-01-18 04:48:17.37	307.20	46.92	-35.3	-36.2	22.8	0.00e+00	0	42	0	2283798528	41	3877
2026-01-18 04:48:18.22	306.71	46.97	-35.2	-36.1	22.9	0.00e+00	0	42	0	2290089984	41	3839
2026-01-18 04:48:19.36	306.06	47.03	-35.3	-36.1	22.8	0.00e+00	0	42	0	2298478592	41	3842
2026-01-18 04:48:20.21	305.57	47.07	-35.2	-36.1	22.9	0.00e+00	0	42	0	2304770048	41	3832
2026-01-18 04:48:21.38	304.90	47.12	-35.1	-35.9	22.9	0.00e+00	0	42	0	2312110080	40	3973
2026-01-18 04:48:22.24	304.40	47.16	-35.3	-36.2	22.8	0.00e+00	0	42	0	2318401536	40	4102
2026-01-18 04:48:23.37	303.74	47.20	-35.2	-36.1	22.9	0.00e+00	0	42	0	2326790144	40	4063
2026-01-18 04:48:24.22	303.25	47.23	-35.2	-36.0	22.9	0.00e+00	0	42	0	2333081600	40	4031
2026-01-18 04:48:25.36	302.59	47.27	-35.4	-36.2	22.7	0.00e+00	0	42	0	2341470208	40	4114
2026-01-18 04:48:26.25	302.07	47.30	-35.5	-36.3	22.6	0.00e+00	0	42	0	2347761664	40	4173
2026-01-18 04:48:27.38	301.41	47.33	-35.4	-36.2	22.7	0.00e+00	0	42	0	2356150272	40	4136
2026-01-18 04:48:28.24	300.90	47.35	-35.2	-36.0	22.9	0.00e+00	0	42	0	2362441728	40	4015
2026-01-18 04:48:29.63	300.09	47.37	-35.3	-36.1	22.8	0.00e+00	0	42	0	2371878912	40	4079
2026-01-18 04:48:30.34	299.67	47.39	-35.4	-36.2	22.7	0.00e+00	0	42	0	2377121792	40	4132
2026-01-18 04:48:31.62	298.92	47.40	-35.4	-36.3	22.6	0.00e+00	0	42	0	2386558976	40	4158
2026-01-18 04:48:32.33	298.50	47.41	-35.6	-36.4	22.5	0.00e+00	0	42	0	2391801856	40	4239
2026-01-18 04:48:33.62	297.74	47.42	-35.4	-36.2	22.7	0.00e+00	0	42	0	2401239040	40	4132
2026-01-18 04:48:34.36	297.30	47.42	-35.2	-36.0	22.9	0.00e+00	0	42	0	2406481920	40	4048
2026-01-18 04:48:35.64	296.55	47.42	-35.5	-36.3	22.6	0.00e+00	0	42	0	2415919104	40	4176
2026-01-18 04:48:36.36	296.13	47.42	-35.5	-36.4	22.6	0.00e+00	0	42	0	2421161984	40	4194
2026-01-18 04:48:37.64	295.37	47.41	-35.6	-36.5	22.5	0.00e+00	0	42	0	2429550592	40	4253
2026-01-18 04:48:38.37	294.94	47.40	-35.6	-36.4	22.5	0.00e+00	0	42	0	2435842048	40	4237
2026-01-18 04:48:39.65	294.19	47.38	-35.4	-36.3	22.7	0.00e+00	0	42	0	2444230656	40	4149
2026-01-18 04:48:40.39	293.76	47.37	-35.6	-36.4	22.5	0.00e+00	0	42	0	2449473536	40	4235
2026-01-18 04:48:41.66	293.01	47.35	-35.5	-36.4	22.6	0.00e+00	0	42	0	2458910720	41	3962
2026-01-18 04:48:42.55	292.49	47.32	-35.5	-36.3	22.6	0.00e+00	0	42	0	2465202176	41	3951
2026-01-18 04:48:43.68	291.83	47.29	-35.4	-36.3	22.6	0.00e+00	0	42	0	2473590784	41	3925
2026-01-18 04:48:44.73	291.21	47.26	-35.2	-36.1	22.9	0.00e+00	0	42	0	2480930816	41	3827
2026-01-18 04:48:45.67	290.67	47.23	-35.3	-36.1	22.9	0.00e+00	0	42	0	2488270848	41	3847
2026-01-18 04:48:46.92	289.94	47.18	-35.3	-36.1	22.8	0.00e+00	0	42	0	2496659456	41	3852
2026-01-18 04:48:47.79	289.44	47.15	-35.4	-36.2	22.7	0.00e+00	0	42	0	2502950912	41	3896
2026-01-18 04:48:49.12	288.67	47.09	-35.4	-36.2	22.7	0.00e+00	0	42	0	2513436672	41	3898
2026-01-18 04:48:49.83	288.26	47.06	-35.3	-36.2	22.8	0.00e+00	0	42	0	2517630976	41	3878
2026-01-18 04:48:51.10	287.53	46.99	-35.3	-36.1	22.8	0.00e+00	0	42	0	2527068160	41	3845
2026-01-18 04:48:51.82	287.12	46.95	-35.3	-36.1	22.9	0.00e+00	0	42	0	2532311040	41	3840
2026-01-18 04:48:53.09	286.39	46.88	-35.3	-36.1	22.8	0.00e+00	0	42	0	2541748224	41	3858
2026-01-18 04:48:53.80	285.99	46.84	-35.2	-36.1	22.9	0.00e+00	0	42	0	2546991104	41	3832
2026-01-18 04:48:55.08	285.26	46.76	-35.2	-36.1	22.9	0.00e+00	0	42	0	2555379712	41	3830
2026-01-18 04:48:55.89	284.81	46.71	-35.2	-36.0	22.8	0.00e+00	0	42	0	2561671168	41	3800
2026-01-18 04:48:57.03	284.17	46.63	-35.2	-36.0	23.0	0.00e+00	0	42	0	2570059776	41	3793
2026-01-18 04:48:57.88	283.69	46.57	-35.2	-36.0	22.9	0.00e+00	0	42	0	2576351232	41	3824
2026-01-18 04:48:59.02	283.06	46.48	-35.1	-35.9	23.0	0.00e+00	0	42	0	2584739840	40	3975
2026-01-18 04:48:59.87	282.59	46.42	-35.0	-35.8	23.1	0.00e+00	0	42	0	2591031296	40	3940
2026-01-18 04:49:01.01	281.96	46.33	-34.9	-35.7	23.2	0.00e+00	0	42	0	2598371328	40	3904
2026-01-18 04:49:01.86	281.49	46.26	-35.0	-35.9	23.1	0.00e+00	0	42	0	2604662784	40	3963
2026-01-18 04:49:03.00	280.87	46.16	-35.4	-36.2	22.7	0.00e+00	0	42	0	2613051392	40	4139
2026-01-18 04:49:03.86	280.40	46.09	-35.5	-36.3	22.6	0.00e+00	0	42	0	2619342848	40	4192
2026-01-18 04:49:04.99	279.79	45.98	-35.5	-36.4	22.6	0.00e+00	0	42	0	2627731456	40	4210
2026-01-18 04:49:05.85	279.33	45.90	-35.4	-36.3	22.7	0.00e+00	0	42	0	2632974336	40	4154
2026-01-18 04:49:06.99	278.72	45.79	-35.4	-36.2	22.8	0.00e+00	0	43	0	2641362944	40	4129
2026-01-18 04:49:07.84	278.27	45.71	-35.4	-36.2	22.8	0.00e+00	0	42	0	2647654400	40	4138
2026-01-18 04:49:08.98	277.67	45.60	-35.5	-36.3	22.6	0.00e+00	0	42	0	2656043008	40	4180
2026-01-18 04:49:09.83	277.23	45.51	-35.5	-36.4	22.6	0.00e+00	0	42	0	2662334464	40	4205
2026-01-18 04:49:10.97	276.64	45.39	-35.6	-36.4	22.6	0.00e+00	0	42	0	2670723072	40	4227
2026-01-18 04:49:11.82	276.20	45.30	-35.2	-36.1	22.9	0.00e+00	0	42	0	2677014528	40	4052
2026-01-18 04:49:12.96	275.61	45.17	-35.2	-36.0	22.9	0.00e+00	0	42	0	2685403136	40	4030
2026-01-18 04:49:13.81	275.18	45.08	-35.2	-36.1	22.9	0.00e+00	0	42	0	2691694592	40	4058
2026-01-18 04:49:14.95	274.60	44.95	-35.3	-36.1	22.8	0.00e+00	0	42	0	2699034624	40	4092
2026-01-18 04:49:15.80	274.18	44.85	-35.3	-36.1	22.8	0.00e+00	0	42	0	2705326080	40	4082
2026-01-18 04:49:16.94	273.61	44.71	-35.3	-36.1	22.9	0.00e+00	0	42	0	2713714688	40	4067
2026-01-18 04:49:17.79	273.19	44.61	-35.2	-36.0	23.0	0.00e+00	0	42	0	2720006144	40	4013
2026-01-18 04:49:18.99	272.60	44.46	-35.1	-35.9	23.0	0.00e+00	0	42	0	2728394752	40	3992
2026-01-18 04:49:19.84	272.19	44.36	-35.2	-36.0	22.9	0.00e+00	0	42	0	2734686208	40	4046
2026-01-18 04:49:20.98	271.64	44.21	-35.4	-36.2	22.8	0.00e+00	0	42	0	2743074816	40	4124
2026-01-18 04:49:21.83	271.23	44.11	-35.3	-36.2	22.7	0.00e+00	0	42	0	2749366272	40	4115
2026-01-18 04:49:22.97	270.69	43.96	-35.2	-36.0	22.9	0.00e+00	0	42	0	2757754880	40	4031
2026-01-18 04:49:23.82	270.28	43.85	-35.1	-35.9	23.0	0.00e+00	0	42	0	2762997760	40	3987
2026-01-18 04:49:24.96	269.75	43.69	-34.8	-35.6	23.3	0.00e+00	0	42	0	2771386368	40	3856
2026-01-18 04:49:25.81	269.36	43.58	-34.8	-35.6	23.3	0.00e+00	0	42	0	2777677824	40	3850
2026-01-18 04:49:26.95	268.83	43.42	-34.7	-35.5	23.4	0.00e+00	0	42	0	2786066432	40	3798
2026-01-18 04:49:27.80	268.45	43.31	-34.7	-35.5	23.4	0.00e+00	0	42	0	2792357888	39	4034
2026-01-18 04:49:28.93	267.93	43.15	-34.8	-35.6	23.3	0.00e+00	0	42	0	2800746496	39	4097
2026-01-18 04:49:29.79	267.55	43.03	-35.0	-35.8	23.2	0.00e+00	0	42	0	2805989376	39	4156
2026-01-18 04:49:30.92	267.05	42.87	-35.1	-35.9	23.1	0.00e+00	0	42	0	2814377984	39	4214
2026-01-18 04:49:31.78	266.67	42.74	-35.1	-35.9	23.1	0.00e+00	0	42	0	2820669440	39	4228
2026-01-18 04:49:32.91	266.18	42.58	-34.9	-35.7	23.2	0.00e+00	0	42	0	2829058048	39	4127
2026-01-18 04:49:33.77	265.80	42.45	-34.8	-35.6	23.3	0.00e+00	0	42	0	2835349504	39	4059
2026-01-18 04:49:34.98	265.29	42.27	-34.7	-35.5	23.4	0.00e+00	0	42	0	2843738112	39	4017
2026-01-18 04:49:35.83	264.93	42.15	-34.7	-35.5	23.4	0.00e+00	0	42	0	2850029568	39	4027
2026-01-18 04:49:36.97	264.45	41.98	-34.7	-35.5	23.4	0.00e+00	0	42	0	2858418176	39	4042
2026-01-18 04:49:37.82	264.09	41.85	-34.7	-35.5	23.4	0.00e+00	0	42	0	2864709632	39	4049
2026-01-18 04:49:39.09	263.57	41.65	-34.6	-35.4	23.5	0.00e+00	0	42	0	2873098240	39	3998
2026-01-18 04:49:39.82	263.27	41.54	-34.6	-35.4	23.5	0.00e+00	0	42	0	2879389696	39	3990
2026-01-18 04:49:41.09	262.76	41.35	-34.7	-35.6	23.4	0.00e+00	0	42	0	2887778304	39	4054
2026-01-18 04:49:41.81	262.47	41.23	-34.7	-35.6	23.4	0.00e+00	0	42	0	2893021184	39	4052
2026-01-18 04:49:43.08	261.96	41.03	-34.7	-35.5	23.4	0.00e+00	0	42	0	2902458368	39	4027
2026-01-18 04:49:43.84	261.67	40.92	-34.7	-35.5	23.4	0.00e+00	0	42	0	2907701248	39	4045
2026-01-18 04:49:45.12	261.17	40.71	-34.7	-35.5	23.4	0.00e+00	0	42	0	2917138432	39	4048
2026-01-18 04:49:45.84	260.89	40.60	-34.7	-35.6	23.4	0.00e+00	0	42	0	2922381312	39	4053
2026-01-18 04:49:47.12	260.40	40.39	-34.7	-35.5	23.4	0.00e+00	0	42	0	2931818496	39	4046
2026-01-18 04:49:47.97	260.08	40.26	-34.6	-35.5	23.4	0.00e+00	0	42	0	2938109952	39	4005
2026-01-18 04:49:49.11	259.65	40.07	-34.4	-35.2	23.6	0.00e+00	0	42	0	2946498560	39	3897
2026-01-18 04:49:49.96	259.34	39.94	-34.4	-35.2	23.7	0.00e+00	0	42	0	2951741440	39	3894
2026-01-18 04:49:51.10	258.92	39.75	-34.4	-35.2	23.7	0.00e+00	0	42	0	2960130048	39	3879
2026-01-18 04:49:52.20	258.52	39.57	-34.6	-35.4	23.5	0.00e+00	0	42	0	2968518656	39	3998
2026-01-18 04:49:53.23	258.15	39.41	-34.8	-35.6	23.3	0.00e+00	0	42	0	2975858688	39	4095
2026-01-18 04:49:54.22	257.80	39.24	-34.8	-35.6	23.3	0.00e+00	0	42	0	2983198720	39	4089
2026-01-18 04:49:55.42	257.38	39.05	-34.8	-35.6	23.3	0.00e+00	0	42	0	2991587328	39	4092
2026-01-18 04:49:56.30	257.08	38.90	-34.8	-35.6	23.3	0.00e+00	0	42	0	2997878784	39	4074
2026-01-18 04:49:57.61	256.63	38.68	-34.6	-35.4	23.5	0.00e+00	0	42	0	3007315968	39	3995
2026-01-18 04:49:58.32	256.39	38.57	-34.8	-35.6	23.4	0.00e+00	0	42	0	3012558848	39	4059
2026-01-18 04:49:59.60	255.96	38.35	-34.8	-35.6	23.4	0.00e+00	0	42	0	3021996032	39	4059
2026-01-18 04:50:00.34	255.71	38.23	-34.9	-35.7	23.2	0.00e+00	0	42	0	3027238912	39	4132
2026-01-18 04:50:01.62	255.29	38.02	-34.8	-35.6	23.3	0.00e+00	0	42	0	3036676096	39	4071
2026-01-18 04:50:02.33	255.06	37.90	-34.9	-35.7	23.2	0.00e+00	0	42	0	3040870400	39	4121
2026-01-18 04:50:03.61	254.64	37.69	-34.9	-35.7	23.2	0.00e+00	0	42	0	3050307584	39	4138
2026-01-18 04:50:04.32	254.42	37.57	-34.9	-35.8	23.2	0.00e+00	0	42	0	3055550464	39	4156
2026-01-18 04:50:05.60	254.01	37.35	-34.9	-35.7	23.2	0.00e+00	0	42	0	3064987648	39	4145
2026-01-18 04:50:06.33	253.78	37.23	-35.0	-35.8	23.2	0.00e+00	0	42	0	3070230528	39	4167
2026-01-18 04:50:07.61	253.39	37.02	-35.0	-35.9	23.0	0.00e+00	0	42	0	3079667712	39	4197
2026-01-18 04:50:08.32	253.17	36.90	-35.0	-35.8	23.1	0.00e+00	0	42	0	3084910592	39	4174
2026-01-18 04:50:09.60	252.78	36.68	-35.0	-35.9	23.1	0.00e+00	0	42	0	3093299200	39	4204
2026-01-18 04:50:10.57	252.49	36.52	-35.0	-35.8	23.1	0.00e+00	0	42	0	3100639232	39	4165
2026-01-18 04:50:11.57	252.19	36.35	-34.6	-35.4	23.5	0.00e+00	0	42	0	3107979264	39	3985
2026-01-18 04:50:12.56	251.90	36.19	-34.3	-35.1	23.8	0.00e+00	0	42	0	3115319296	39	3843
2026-01-18 04:50:13.56	251.61	36.02	-34.3	-35.1	23.7	0.00e+00	0	42	0	3122659328	39	3849
2026-01-18 04:50:14.55	251.32	35.85	-34.3	-35.1	23.8	0.00e+00	0	42	0	3129999360	39	3846
2026-01-18 04:50:15.55	251.04	35.68	-34.5	-35.3	23.6	0.00e+00	0	42	0	3136290816	39	3915
2026-01-18 04:50:16.54	250.76	35.52	-34.6	-35.4	23.5	0.00e+00	0	42	0	3143630848	39	3968
2026-01-18 04:50:17.54	250.48	35.35	-34.6	-35.4	23.4	0.00e+00	0	42	0	3150970880	39	4001
2026-01-18 04:50:18.53	250.21	35.18	-34.7	-35.5	23.4	0.00e+00	0	42	0	3158310912	39	4025
2026-01-18 04:50:19.53	249.93	35.02	-34.5	-35.3	23.6	0.00e+00	0	42	0	3165650944	39	3951
2026-01-18 04:50:20.52	249.67	34.85	-34.3	-35.1	23.7	0.00e+00	0	42	0	3172990976	39	3860
2026-01-18 04:50:21.52	249.40	34.68	-34.4	-35.2	23.7	0.00e+00	0	42	0	3180331008	39	3886
2026-01-18 04:50:22.51	249.14	34.52	-34.4	-35.2	23.7	0.00e+00	0	42	0	3187671040	39	3894
2026-01-18 04:50:23.51	248.87	34.35	-34.5	-35.4	23.5	0.00e+00	0	42	0	3193962496	39	3959
2026-01-18 04:50:24.50	248.62	34.19	-34.7	-35.5	23.4	0.00e+00	0	42	0	3201302528	39	4022
2026-01-18 04:50:25.49	248.36	34.02	-34.7	-35.5	23.4	0.00e+00	0	42	0	3208642560	39	4032
2026-01-18 04:50:26.49	248.11	33.86	-34.7	-35.5	23.4	0.00e+00	0	42	0	3215982592	39	4049
2026-01-18 04:50:27.49	247.86	33.69	-34.7	-35.5	23.4	0.00e+00	0	42	0	3223322624	39	4024
2026-01-18 04:50:28.48	247.61	33.53	-34.7	-35.5	23.4	0.00e+00	0	42	0	3229614080	39	4032
2026-01-18 04:50:29.48	247.36	33.36	-34.8	-35.6	23.3	0.00e+00	0	42	0	3236954112	39	4062
2026-01-18 04:50:30.47	247.12	33.20	-34.9	-35.7	23.3	0.00e+00	0	42	0	3244294144	39	4123
2026-01-18 04:50:31.47	246.88	33.03	-34.8	-35.6	23.3	0.00e+00	0	42	0	3251634176	39	4088
2026-01-18 04:50:32.46	246.64	32.87	-34.7	-35.5	23.4	0.00e+00	0	42	0	3258974208	39	4030
2026-01-18 04:50:33.46	246.40	32.71	-34.7	-35.5	23.4	0.00e+00	0	42	0	3266314240	39	4011
2026-01-18 04:50:34.45	246.17	32.55	-34.5	-35.3	23.6	0.00e+00	0	42	0	3272605696	39	3922
2026-01-18 04:50:35.44	245.94	32.38	-34.4	-35.2	23.7	0.00e+00	0	42	0	3279945728	39	3894
2026-01-18 04:50:36.53	245.69	32.21	-34.3	-35.1	23.8	0.00e+00	0	42	0	3288334336	39	3852
2026-01-18 04:50:37.40	245.49	32.06	-34.4	-35.2	23.7	0.00e+00	0	42	0	3294625792	39	3883
2026-01-18 04:50:38.54	245.24	31.88	-34.5	-35.3	23.3	0.00e+00	0	42	0	3303014400	39	3932
2026-01-18 04:50:39.39	245.05	31.74	-34.5	-35.4	23.5	0.00e+00	0	42	0	3308257280	39	3962
2026-01-18 04:50:40.53	244.80	31.56	-34.7	-35.5	23.5	0.00e+00	0	42	0	3316645888	39	4009
2026-01-18 04:50:41.38	244.61	31.42	-34.7	-35.5	23.4	0.00e+00	0	42	0	3322937344	39	4029
2026-01-18 04:50:42.52	244.36	31.24	-34.8	-35.6	23.3	0.00e+00	0	42	0	3331325952	39	4097
2026-01-18 04:50:43.37	244.18	31.10	-35.0	-35.8	23.1	0.00e+00	0	42	0	3337617408	39	4170
2026-01-18 04:50:44.51	243.94	30.92	-35.1	-36.0	23.0	0.00e+00	0	42	0	3346006016	39	4244
2026-01-18 04:50:45.36	243.76	30.78	-35.2	-36.0	23.0	0.00e+00	0	42	0	3352297472	39	4271
2026-01-18 04:50:46.50	243.52	30.60	-35.2	-36.1	22.9	0.00e+00	0	42	0	3359637504	39	4297
2026-01-18 04:50:47.35	243.35	30.47	-35.0	-35.9	23.1	0.00e+00	0	42	0	3366977536	39	4194
2026-01-18 04:50:48.49	243.11	30.29	-35.0	-35.8	23.0	0.00e+00	0	42	0	3374317568	39	4172
2026-01-18 04:50:49.34	242.94	30.15	-35.0	-35.8	23.1	0.00e+00	0	42	0	3380609024	39	4159
2026-01-18 04:50:50.48	242.71	29.98	-35.1	-35.9	23.0	0.00e+00	0	42	0	3388997632	39	4232
2026-01-18 04:50:51.33	242.55	29.84	-35.1	-35.9	23.0	0.00e+00	0	42	0	3395289088	39	4220
2026-01-18 04:50:52.47	242.32	29.66	-35.2	-36.0	23.0	0.00e+00	0	42	0	3403677696	39	4258
2026-01-18 04:50:53.32	242.16	29.53	-35.2	-36.1	22.8	0.00e+00	0	42	0	3409969152	40	4071
2026-01-18 04:50:54.46	241.94	29.36	-35.2	-36.1	22.9	0.00e+00	0	42	0	3417309184	40	4055
2026-01-18 04:50:55.31	241.78	29.22	-35.3	-36.2	22.8	0.00e+00	0	42	0	3423600640	40	4110
2026-01-18 04:50:56.45	241.56	29.05	-35.3	-36.1	22.7	0.00e+00	0	42	0	3431989248	40	4098
2026-01-18 04:50:57.30	241.40	28.92	-35.1	-35.9	23.0	0.00e+00	0	42	0	3438280704	40	3995
2026-01-18 04:50:58.44	241.19	28.74	-35.2	-36.0	22.9	0.00e+00	0	42	0	3446669312	40	4033
2026-01-18 04:50:59.29	241.04	28.61	-34.9	-35.7	23.1	0.00e+00	0	42	0	3451912192	40	3909
2026-01-18 04:51:00.43	240.83	28.44	-34.9	-35.7	23.1	0.00e+00	0	42	0	3460300800	40	3888
2026-01-18 04:51:01.28	240.68	28.31	-34.9	-35.7	23.2	0.00e+00	0	42	0	3466592256	40	3882
2026-01-18 04:51:02.41	240.47	28.14	-34.8	-35.7	23.2	0.00e+00	0	42	0	3474980864	40	3876
2026-01-18 04:51:03.26	240.32	28.01	-34.8	-35.6	23.2	0.00e+00	0	42	0	3481272320	40	3861
2026-01-18 04:51:04.42	240.12	27.84	-34.8	-35.6	23.2	0.00e+00	0	42	0	3489660928	40	3847
2026-01-18 04:51:05.27	239.97	27.71	-34.9	-35.7	23.1	0.00e+00	0	42	0	3495952384	40	3903
2026-01-18 04:51:06.41	239.78	27.54	-34.8	-35.6	23.3	0.00e+00	0	42	0	3504340992	40	3843
2026-01-18 04:51:07.26	239.63	27.41	-34.8	-35.6	23.2	0.00e+00	0	42	0	3510632448	40	3867
2026-01-18 04:51:08.40	239.44	27.25	-34.9	-35.7	23.2	0.00e+00	0	42	0	3517972480	40	3882
2026-01-18 04:51:09.25	239.30	27.12	-35.0	-35.8	23.1	0.00e+00	0	42	0	3524263936	40	3921
2026-01-18 04:51:10.56	239.08	26.93	-35.0	-35.9	23.0	0.00e+00	0	42	0	3533701120	40	3963
2026-01-18 04:51:11.27	238.97	26.82	-35.0	-35.8	23.0	0.00e+00	0	42	0	3538944000	40	3956
2026-01-18 04:51:12.76	238.73	26.61	-35.1	-35.9	23.0	0.00e+00	0	42	0	3549429760	40	3990
2026-01-18 04:51:13.47	238.61	26.50	-35.0	-35.9	23.0	0.00e+00	0	42	0	3554672640	40	3963
2026-01-18 04:51:14.75	238.41	26.32	-34.9	-35.7	23.2	0.00e+00	0	42	0	3564109824	40	3883
2026-01-18 04:51:15.46	238.30	26.21	-34.9	-35.7	23.1	0.00e+00	0	42	0	3569352704	40	3908
2026-01-18 04:51:16.74	238.10	26.03	-34.9	-35.7	23.2	0.00e+00	0	42	0	3578789888	40	3894
2026-01-18 04:51:17.46	237.99	25.93	-34.9	-35.7	23.1	0.00e+00	0	42	0	3584032768	40	3885
2026-01-18 04:51:18.74	237.79	25.75	-35.1	-35.9	23.0	0.00e+00	0	42	0	3592421376	40	3974
2026-01-18 04:51:19.45	237.68	25.64	-35.1	-35.9	22.9	0.00e+00	0	42	0	3598712832	40	3976
2026-01-18 04:51:20.73	237.49	25.46	-35.2	-36.1	22.8	0.00e+00	0	42	0	3607101440	40	4067
2026-01-18 04:51:21.46	237.38	25.36	-35.4	-36.2	22.7	0.00e+00	0	42	0	3612344320	40	4136
2026-01-18 04:51:22.73	237.19	25.18	-35.4	-36.3	22.6	0.00e+00	0	42	0	3621781504	40	4166
2026-01-18 04:51:23.59	237.07	25.06	-35.5	-36.3	22.6	0.00e+00	0	42	0	3628072960	40	4188
2026-01-18 04:51:25.02	236.86	24.86	-35.4	-36.2	22.7	0.00e+00	0	42	0	3638558720	40	4143
2026-01-18 04:51:25.73	236.76	24.76	-35.4	-36.2	22.6	0.00e+00	0	42	0	3643801600	40	4121
2026-01-18 04:51:27.24	236.54	24.55	-35.2	-36.1	22.8	0.00e+00	0	42	0	3654287360	40	4058
2026-01-18 04:51:27.95	236.44	24.46	-35.3	-36.1	22.8	0.00e+00	0	42	0	3659530240	40	4072
2026-01-18 04:51:29.23	236.27	24.28	-35.2	-36.1	22.8	0.00e+00	0	42	0	3668967424	40	4052
2026-01-18 04:51:29.94	236.17	24.18	-35.3	-36.1	22.7	0.00e+00	0	42	0	3673161728	40	4071
2026-01-18 04:51:31.22	235.99	24.01	-35.1	-35.9	23.0	0.00e+00	0	42	0	3682598912	40	3973
2026-01-18 04:51:31.93	235.90	23.91	-35.1	-36.0	22.9	0.00e+00	0	42	0	3687841792	40	4006
2026-01-18 04:51:33.21	235.72	23.74	-35.0	-35.8	23.0	0.00e+00	0	42	0	3697278976	40	3958
2026-01-18 04:51:33.92	235.63	23.65	-35.0	-35.8	23.0	0.00e+00	0	42	0	3702521856	40	3952
2026-01-18 04:51:35.20	235.46	23.48	-34.9	-35.7	23.0	0.00e+00	0	42	0	3711959040	40	3909
2026-01-18 04:51:35.91	235.37	23.38	-34.9	-35.7	23.1	0.00e+00	0	42	0	3717201920	40	3887
2026-01-18 04:51:37.18	235.20	23.21	-34.8	-35.6	23.2	0.00e+00	0	42	0	3725590528	40	3855
2026-01-18 04:51:37.89	235.11	23.12	-34.8	-35.7	23.1	0.00e+00	0	42	0	3730833408	40	3875
2026-01-18 04:51:39.18	234.95	22.95	-34.6	-35.4	23.3	0.00e+00	0	42	0	3740270592	40	3778
2026-01-18 04:51:39.88	234.86	22.86	-34.7	-35.6	23.2	0.00e+00	0	42	0	3745513472	40	3829
2026-01-18 04:51:41.18	234.69	22.69	-34.8	-35.6	23.2	0.00e+00	0	42	0	3754950656	40	3862
2026-01-18 04:51:41.89	234.61	22.59	-34.8	-35.7	23.2	0.00e+00	0	42	0	3760193536	40	3877
2026-01-18 04:51:43.17	234.45	22.43	-35.1	-35.9	23.0	0.00e+00	0	42	0	3769630720	40	3984
2026-01-18 04:51:44.16	234.33	22.30	-35.1	-36.0	22.9	0.00e+00	0	42	0	3776970752	40	4007
2026-01-18 04:51:45.46	234.17	22.13	-35.2	-36.0	22.8	0.00e+00	0	42	0	3786407936	40	4037
2026-01-18 04:51:46.20	234.08	22.04	-35.3	-36.1	22.7	0.00e+00	0	42	0	3791650816	40	4097
2026-01-18 04:51:47.48	233.93	21.87	-35.3	-36.1	22.7	0.00e+00	0	42	0	3800039424	40	4096
2026-01-18 04:51:48.19	233.84	21.78	-35.3	-36.2	22.7	0.00e+00	0	42	0	3805282304	40	4100
2026-01-18 04:51:49.48	233.69	21.62	-35.4	-36.3	22.6	0.00e+00	0	42	0	3814719488	40	4158
2026-01-18 04:51:50.19	233.61	21.53	-35.5	-36.4	22.5	0.00e+00	0	42	0	3819962368	40	4196
2026-01-18 04:51:51.47	233.46	21.37	-35.5	-36.4	22.5	0.00e+00	0	42	0	3829399552	40	4206
2026-01-18 04:51:52.19	233.38	21.28	-35.6	-36.5	22.4	0.00e+00	0	42	0	3834642432	40	4262
2026-01-18 04:51:53.47	233.24	21.12	-35.7	-36.6	22.3	0.00e+00	0	42	0	3844079616	40	4311
2026-01-18 04:51:54.19	233.15	21.03	-35.8	-36.6	22.3	0.00e+00	0	42	0	3848273920	41	4092
2026-01-18 04:51:55.47	233.01	20.87	-35.8	-36.7	22.2	0.00e+00	0	42	0	3857711104	41	4131
2026-01-18 04:51:56.18	232.93	20.79	-35.9	-36.8	22.1	0.00e+00	0	42	0	3862953984	41	4160
2026-01-18 04:51:57.63	232.77	20.61	-36.0	-36.8	22.1	0.00e+00	0	42	0	3873439744	41	4182
2026-01-18 04:51:58.61	232.67	20.49	-36.0	-36.9	22.0	0.00e+00	0	42	0	3880779776	41	4204
2026-01-18 04:51:59.92	232.53	20.33	-35.9	-36.8	22.1	0.00e+00	0	42	0	3890216960	41	4157
2026-01-18 04:52:00.68	232.45	20.24	-35.9	-36.7	22.2	0.00e+00	0	42	0	3895459840	41	4145
2026-01-18 04:52:01.96	232.31	20.08	-35.8	-36.7	22.2	0.00e+00	0	42	0	3904897024	41	4104
2026-01-18 04:52:02.72	232.23	19.99	-35.8	-36.6	22.3	0.00e+00	0	42	0	3910139904	41	4086
2026-01-18 04:52:03.99	232.10	19.84	-35.7	-36.5	22.3	0.00e+00	0	42	0	3919577088	41	4044
2026-01-18 04:52:04.70	232.03	19.76	-35.7	-36.5	22.3	0.00e+00	0	42	0	3924819968	41	4046
2026-01-18 04:52:05.98	231.89	19.60	-35.6	-36.4	22.5	0.00e+00	0	42	0	3934257152	41	3982
2026-01-18 04:52:06.71	231.82	19.52	-35.6	-36.4	22.4	0.00e+00	0	42	0	3939500032	41	3995
2026-01-18 04:52:07.99	231.69	19.37	-35.6	-36.4	22.5	0.00e+00	0	42	0	3947888640	41	3981
2026-01-18 04:52:08.70	231.62	19.28	-35.6	-36.4	22.4	0.00e+00	0	42	0	3953131520	41	3996
2026-01-18 04:52:10.01	231.49	19.13	-35.5	-36.3	22.5	0.00e+00	0	42	0	3963617280	41	3950
2026-01-18 04:52:10.72	231.42	19.05	-35.5	-36.4	22.5	0.00e+00	0	42	0	3967811584	41	3964
2026-01-18 04:52:12.00	231.29	18.90	-35.6	-36.5	22.4	0.00e+00	0	42	0	3977248768	41	4005
2026-01-18 04:52:12.72	231.23	18.82	-35.6	-36.5	22.4	0.00e+00	0	42	0	3982491648	41	4015
2026-01-18 04:52:14.00	231.10	18.67	-35.7	-36.5	22.3	0.00e+00	0	42	0	3991928832	41	4046
2026-01-18 04:52:14.71	231.03	18.59	-35.7	-36.6	22.3	0.00e+00	0	42	0	3997171712	41	4079
2026-01-18 04:52:16.00	230.91	18.44	-35.8	-36.6	22.2	0.00e+00	0	42	0	4006608896	41	4092
2026-01-18 04:52:16.72	230.84	18.36	-35.9	-36.7	22.1	0.00e+00	0	42	0	4011851776	41	4144
2026-01-18 04:52:18.00	230.72	18.22	-35.9	-36.8	22.1	0.00e+00	0	42	0	4020240384	41	4177
2026-01-18 04:52:18.71	230.66	18.14	-36.0	-36.9	22.0	0.00e+00	0	42	0	4025483264	41	4226
2026-01-18 04:52:20.00	230.54	17.99	-36.1	-37.0	21.9	0.00e+00	0	42	0	4034920448	41	4269
2026-01-18 04:52:20.71	230.48	17.91	-36.2	-37.1	21.8	0.00e+00	0	42	0	4040163328	41	4329
2026-01-18 04:52:21.99	230.36	17.77	-36.3	-37.1	21.7	0.00e+00	0	42	0	4049600512	41	4337
2026-01-18 04:52:22.70	230.30	17.69	-36.3	-37.2	21.7	0.00e+00	0	42	0	4054843392	42	4107
2026-01-18 04:52:23.98	230.18	17.55	-36.3	-37.2	21.7	0.00e+00	0	42	0	4064280576	42	4111
2026-01-18 04:52:24.69	230.12	17.47	-36.3	-37.2	21.7	0.00e+00	0	42	0	4068474880	42	4116
2026-01-18 04:52:25.97	230.01	17.33	-36.3	-37.2	21.7	0.00e+00	0	42	0	4077912064	42	4100
2026-01-18 04:52:26.68	229.94	17.25	-36.2	-37.0	21.9	0.00e+00	0	42	0	4083154944	42	4050
2026-01-18 04:52:28.05	229.83	17.10	-36.3	-37.2	21.8	0.00e+00	0	42	0	4093640704	42	4100
2026-01-18 04:52:28.76	229.77	17.03	-36.2	-37.0	21.8	0.00e+00	0	42	0	4098883584	42	4044
2026-01-18 04:52:30.12	229.65	16.88	-36.2	-37.1	21.8	0.00e+00	0	42	0	4108320768	42	4057
2026-01-18 04:52:30.83	229.59	16.80	-36.2	-37.1	21.8	0.00e+00	0	42	0	4113563648	42	4061
2026-01-18 04:52:32.11	229.48	16.67	-36.2	-37.1	21.8	0.00e+00	0	42	0	4123000832	42	4052
2026-01-18 04:52:32.82	229.42	16.59	-36.2	-37.1	21.8	0.00e+00	0	42	0	4127195136	42	4059
2026-01-18 04:52:34.10	229.32	16.46	-36.2	-37.1	21.8	0.00e+00	0	42	0	4136632320	42	4064
2026-01-18 04:52:34.83	229.26	16.38	-36.3	-37.2	21.7	0.00e+00	0	42	0	4141875200	42	4114
2026-01-18 04:52:36.11	229.15	16.24	-36.3	-37.2	21.7	0.00e+00	0	42	0	4151312384	42	4128
2026-01-18 04:52:36.82	229.09	16.17	-36.4	-37.3	21.7	0.00e+00	0	42	0	4156555264	42	4152
2026-01-18 04:52:38.10	228.99	16.03	-36.4	-37.3	21.6	0.00e+00	0	42	0	4165992448	42	4187
2026-01-18 04:52:38.88	228.93	15.95	-36.5	-37.4	21.5	0.00e+00	0	42	0	4171235328	42	4235
2026-01-18 04:52:40.08	228.83	15.83	-36.6	-37.5	21.3	0.00e+00	0	42	0	4179623936	42	4285
2026-01-18 04:52:41.08	228.76	15.72	-36.8	-37.7	21.2	0.00e+00	0	42	0	4186963968	42	4353
2026-01-18 04:52:42.25	228.66	15.60	-36.7	-37.6	21.3	0.00e+00	0	42	0	4195352576	43	4087
2026-01-18 04:52:43.13	228.60	15.51	-36.9	-37.8	21.1	0.00e+00	0	42	0	4201644032	43	4177
2026-01-18 04:52:44.27	228.51	15.40	-36.9	-37.8	21.0	0.00e+00	0	42	0	4210032640	43	4191
2026-01-18 04:52:45.18	228.44	15.30	-36.9	-37.8	21.1	0.00e+00	0	42	0	4217372672	43	4192
2026-01-18 04:52:46.35	228.35	15.19	-37.0	-37.9	21.0	0.00e+00	0	42	0	4225761280	43	4221
2026-01-18 04:52:47.24	228.28	15.10	-37.0	-37.9	21.0	0.00e+00	0	42	0	4232052736	43	4239
2026-01-18 04:52:48.37	228.20	14.98	-37.1	-38.0	20.9	0.00e+00	0	42	0	4240441344	43	4277
2026-01-18 04:52:49.29	228.13	14.89	-37.0	-37.9	21.0	0.00e+00	0	42	0	4246732800	43	4202
2026-01-18 04:52:50.45	228.05	14.77	-37.0	-38.0	20.9	0.00e+00	0	42	0	4255121408	43	4244
2026-01-18 04:52:51.34	227.98	14.68	-37.2	-38.1	20.8	0.00e+00	0	42	0	4261412864	43	4322
2026-01-18 04:52:52.47	227.90	14.57	-37.1	-38.1	20.7	0.00e+00	0	42	0	4269801472	43	4295
2026-01-18 04:52:53.33	227.84	14.49	-37.2	-38.2	20.7	0.00e+00	0	42	0	4276092928	43	4347
2026-01-18 04:52:54.67	227.74	14.36	-37.5	-38.4	20.6	0.00e+00	0	42	0	4285530112	44	4239
2026-01-18 04:52:55.38	227.69	14.29	-37.6	-38.5	20.6	0.00e+00	0	42	0	4290772992	44	4278
2026-01-18 04:52:56.66	227.60	14.16	-37.6	-38.6	20.5	0.00e+00	0	42	0	4300210176	44	4315
2026-01-18 04:52:57.38	227.55	14.09	-37.5	-38.5	20.6	0.00e+00	0	42	0	4305453056	44	4263
2026-01-18 04:52:58.66	227.46	13.97	-37.4	-38.4	20.7	0.00e+00	0	42	0	4313841664	44	4205
2026-01-18 04:52:59.40	227.41	13.89	-37.6	-38.5	20.6	0.00e+00	0	42	0	4320133120	44	4278
2026-01-18 04:53:00.68	227.32	13.77	-37.7	-38.6	20.5	0.00e+00	0	42	0	4328521728	44	4323
2026-01-18 04:53:01.47	227.27	13.69	-37.7	-38.7	20.4	0.00e+00	0	42	0	4334813184	44	4342
2026-01-18 04:53:02.65	227.19	13.58	-37.5	-38.5	20.5	0.00e+00	0	42	0	4343201792	44	4269
2026-01-18 04:53:03.51	227.13	13.50	-37.7	-38.7	20.3	0.00e+00	0	42	0	4349493248	45	4127
2026-01-18 04:53:04.64	227.05	13.39	-37.8	-38.8	20.3	0.00e+00	0	42	0	4356833280	45	4151
2026-01-18 04:53:05.50	227.00	13.31	-37.8	-38.8	20.2	0.00e+00	0	42	0	4363124736	45	4176
2026-01-18 04:53:06.63	226.92	13.20	-37.8	-38.8	20.3	0.00e+00	0	42	0	4371513344	45	4147
2026-01-18 04:53:07.49	226.87	13.12	-38.0	-39.0	20.1	0.00e+00	0	42	0	4377804800	45	4259
2026-01-18 04:53:08.63	226.79	13.02	-38.0	-39.0	20.1	0.00e+00	0	42	0	4386193408	45	4243
2026-01-18 04:53:09.48	226.74	12.94	-38.0	-39.0	20.1	0.00e+00	0	42	0	4392484864	45	4246
2026-01-18 04:53:10.62	226.66	12.83	-38.0	-39.0	20.1	0.00e+00	0	42	0	4400873472	45	4259
2026-01-18 04:53:11.81	226.59	12.72	-38.0	-39.0	20.0	0.00e+00	0	42	0	4409262080	45	4263
2026-01-18 04:53:12.84	226.52	12.62	-37.9	-38.9	20.1	0.00e+00	0	42	0	4416602112	45	4225
2026-01-18 04:53:13.83	226.46	12.53	-38.0	-38.9	20.1	0.00e+00	0	42	0	4423942144	45	4238
2026-01-18 04:53:14.83	226.40	12.44	-38.0	-39.0	20.0	0.00e+00	0	42	0	4431282176	45	4256
2026-01-18 04:53:15.82	226.34	12.35	-38.1	-39.1	19.9	0.00e+00	0	42	0	4438622208	45	4322
2026-01-18 04:53:16.82	226.27	12.26	-38.1	-39.1	19.8	0.00e+00	0	42	0	4444913664	45	4339
2026-01-18 04:53:17.81	226.21	12.17	-38.0	-39.0	20.0	0.00e+00	0	42	0	4452253696	45	4247
2026-01-18 04:53:18.80	226.15	12.08	-38.0	-39.0	20.0	0.00e+00	0	42	0	4459593728	45	4250
2026-01-18 04:53:19.80	226.09	11.99	-38.3	-39.3	19.8	0.00e+00	0	42	0	4466933760	45	4398
2026-01-18 04:53:20.79	226.03	11.90	-38.1	-39.1	19.9	0.00e+00	0	42	0	4474273792	46	4084
2026-01-18 04:53:21.78	225.97	11.81	-38.1	-39.0	20.0	0.00e+00	0	42	0	4480565248	46	4043
2026-01-18 04:53:22.83	225.91	11.72	-38.0	-38.9	20.0	0.00e+00	0	42	0	4488953856	46	3998
2026-01-18 04:53:23.79	225.85	11.63	-38.0	-39.0	20.0	0.00e+00	0	42	0	4495245312	46	4027
2026-01-18 04:53:24.84	225.79	11.54	-38.0	-39.0	20.0	0.00e+00	0	42	0	4502585344	46	4015
2026-01-18 04:53:25.75	225.74	11.46	-38.1	-39.1	19.9	0.00e+00	0	42	0	4509925376	46	4070
2026-01-18 04:53:26.79	225.68	11.37	-38.0	-39.0	20.0	0.00e+00	0	42	0	4517265408	46	4029
2026-01-18 04:53:27.73	225.63	11.28	-38.0	-38.9	20.0	0.00e+00	0	42	0	4523556864	46	3998
2026-01-18 04:53:28.73	225.57	11.20	-38.2	-39.2	19.7	0.00e+00	0	42	0	4530896896	46	4140
2026-01-18 04:53:29.72	225.51	11.11	-38.2	-39.2	19.8	0.00e+00	0	42	0	4538236928	46	4132
2026-01-18 04:53:30.72	225.46	11.02	-38.3	-39.3	19.7	0.00e+00	0	41	0	4545576960	46	4186
2026-01-18 04:53:31.72	225.40	10.94	-38.5	-39.5	19.5	0.00e+00	0	42	0	4552916992	46	4253
2026-01-18 04:53:32.71	225.34	10.85	-38.2	-39.2	19.7	0.00e+00	0	42	0	4560257024	46	4134
2026-01-18 04:53:33.71	225.29	10.76	-38.2	-39.2	19.8	0.00e+00	0	42	0	4567597056	46	4112
2026-01-18 04:53:34.71	225.23	10.68	-38.4	-39.3	19.6	0.00e+00	0	42	0	4574937088	46	4191
2026-01-18 04:53:35.70	225.18	10.59	-38.4	-39.4	19.6	0.00e+00	0	42	0	4581228544	46	4209
2026-01-18 04:53:36.74	225.12	10.51	-38.3	-39.3	19.7	0.00e+00	0	42	0	4588568576	46	4152
2026-01-18 04:53:37.75	225.07	10.42	-38.5	-39.5	19.4	0.00e+00	0	42	0	4595908608	46	4259
2026-01-18 04:53:38.74	225.01	10.34	-38.3	-39.3	19.6	0.00e+00	0	42	0	4603248640	46	4192
2026-01-18 04:53:39.74	224.96	10.25	-38.5	-39.5	19.4	0.00e+00	0	42	0	4610588672	46	4262
2026-01-18 04:53:40.73	224.91	10.17	-38.4	-39.5	19.4	0.00e+00	0	42	0	4617928704	46	4245
2026-01-18 04:53:41.72	224.86	10.08	-38.3	-39.3	19.5	0.00e+00	0	41	0	4625268736	46	4174
2026-01-18 04:53:42.72	224.80	10.00	-38.5	-39.5	19.3	0.00e+00	0	42	0	4632608768	46	4290
2026-01-18 04:53:43.92	224.74	9.90	-38.6	-39.6	19.3	0.00e+00	0	42	0	4640997376	46	4309
2026-01-18 04:53:44.80	224.69	9.83	-38.5	-39.5	19.3	0.00e+00	0	42	0	4647288832	46	4284
2026-01-18 04:53:46.11	224.63	9.72	-38.5	-39.6	19.3	0.00e+00	0	42	0	4656726016	46	4302
2026-01-18 04:53:46.82	224.59	9.66	-38.5	-39.5	19.4	0.00e+00	0	41	0	4661968896	46	4263
2026-01-18 04:53:48.11	224.53	9.55	-38.7	-39.7	19.1	0.00e+00	0	42	0	4671406080	46	4364
2026-01-18 04:53:48.83	224.49	9.49	-38.5	-39.6	19.3	0.00e+00	0	42	0	4676648960	46	4300
