passes_logs/2026/01/18/T1/T1__20260118_071412_NOAA_20_JPSS-1_rec.log

#Pass ID: 20260118_071412_NOAA 20 (JPSS-1)
#Satellite: NOAA 20 (JPSS-1)
#Configuration: NOAA 20
#almurnet v.1.7.20251203
#Start time: 2026-01-18 07:14:14

#Version: 2.0.20230620
#Station: T1
#Location: 37.570604 lon 55.790049 lat
#TLE: 1 43013U 17073A   26017.58553584  .00000066  00000+0  52288-4 0  9998
#TLE: 2 43013  98.7639 318.4977 0001406  35.6039 324.5231 14.19536575423107

#Time	Az	El	Level	Level2	SNR	BER	BlckErr	Temp	State	Recorded	gain1	gain2
2026-01-18 07:14:14.74	71.19	5.09	-48.9	-64.1	3.8	1.49e+00	0	40	0	0	69	20766
2026-01-18 07:14:15.73	71.07	5.13	-48.8	-64.1	3.8	1.49e+00	0	41	104	0	69	20579
2026-01-18 07:14:16.73	70.94	5.18	-48.8	-64.1	3.8	1.49e+00	0	41	104	0	69	20588
2026-01-18 07:14:17.72	70.82	5.22	-48.8	-64.0	3.8	1.49e+00	0	41	104	0	69	20477
2026-01-18 07:14:18.71	70.69	5.26	-48.8	-64.0	3.8	1.49e+00	0	41	104	0	69	20435
2026-01-18 07:14:19.71	70.56	5.30	-48.7	-64.0	3.8	1.49e+00	0	41	104	0	69	20500
2026-01-18 07:14:20.70	70.44	5.34	-48.7	-64.0	3.8	1.49e+00	0	41	104	0	69	20471
2026-01-18 07:14:21.69	70.31	5.38	-48.7	-64.0	3.8	1.49e+00	0	41	104	0	69	20333
2026-01-18 07:14:22.69	70.19	5.42	-48.7	-64.0	3.8	1.49e+00	0	41	104	0	69	20405
2026-01-18 07:14:23.68	70.06	5.46	-48.7	-64.0	3.8	1.49e+00	0	41	104	0	69	20433
2026-01-18 07:14:24.67	69.93	5.50	-48.7	-64.0	3.8	1.49e+00	0	41	104	0	69	20325
2026-01-18 07:14:25.67	69.80	5.54	-48.7	-63.9	3.8	1.49e+00	0	41	104	0	69	20283
2026-01-18 07:14:26.66	69.68	5.58	-48.7	-64.0	3.8	1.49e+00	0	41	104	0	69	20313
2026-01-18 07:14:27.65	69.55	5.62	-48.7	-63.9	3.8	1.49e+00	0	41	104	0	69	20241
2026-01-18 07:14:28.65	69.42	5.66	-48.7	-63.9	3.8	1.49e+00	0	41	104	0	69	20296
2026-01-18 07:14:29.64	69.29	5.70	-48.7	-63.9	3.8	1.49e+00	0	41	104	0	69	20250
2026-01-18 07:14:30.63	69.16	5.73	-48.7	-63.9	3.8	1.49e+00	0	41	104	0	69	20268
2026-01-18 07:14:31.63	69.03	5.77	-48.7	-63.9	3.8	1.49e+00	0	41	104	0	69	20239
2026-01-18 07:14:32.62	68.90	5.81	-48.6	-63.9	3.8	1.49e+00	0	41	104	0	69	20115
2026-01-18 07:14:33.61	68.77	5.85	-48.6	-63.8	3.8	1.49e+00	0	41	104	0	69	20071
2026-01-18 07:14:34.61	68.64	5.89	-48.6	-63.8	3.8	1.49e+00	0	41	104	0	69	20006
2026-01-18 07:14:35.60	68.51	5.93	-48.5	-63.8	3.8	1.49e+00	0	41	104	0	69	19874
2026-01-18 07:14:36.59	68.37	5.97	-48.5	-63.7	3.8	1.49e+00	0	41	104	0	69	19690
2026-01-18 07:14:37.59	68.24	6.01	-48.4	-63.6	3.8	1.49e+00	0	41	104	0	68	20692
2026-01-18 07:14:38.58	68.11	6.05	-48.4	-63.6	3.8	1.49e+00	0	41	104	0	68	20749
2026-01-18 07:14:39.58	67.98	6.09	-48.4	-63.6	3.8	1.49e+00	0	42	104	0	68	20691
2026-01-18 07:14:40.57	67.84	6.13	-48.4	-63.6	3.8	1.49e+00	0	41	104	0	68	20740
2026-01-18 07:14:41.56	67.71	6.16	-48.4	-63.6	3.8	1.49e+00	0	42	104	0	68	20731
2026-01-18 07:14:42.56	67.58	6.20	-48.4	-63.6	3.8	1.49e+00	0	41	104	0	68	20564
2026-01-18 07:14:43.55	67.44	6.24	-48.4	-63.6	3.8	1.49e+00	0	42	104	0	68	20649
2026-01-18 07:14:44.54	67.31	6.28	-48.3	-63.6	3.8	1.49e+00	0	42	104	0	68	20614
2026-01-18 07:14:45.54	67.17	6.32	-48.3	-63.6	3.8	1.49e+00	0	41	104	0	68	20715
2026-01-18 07:14:46.53	67.04	6.36	-48.3	-63.6	3.8	1.49e+00	0	42	104	0	68	20626
2026-01-18 07:14:47.52	66.90	6.39	-48.3	-63.6	3.8	1.49e+00	0	42	104	0	68	20609
2026-01-18 07:14:48.52	66.76	6.43	-48.3	-63.6	3.8	1.49e+00	0	42	104	0	68	20547
2026-01-18 07:14:49.51	66.63	6.47	-48.3	-63.6	3.8	1.49e+00	0	42	104	0	68	20564
2026-01-18 07:14:50.50	66.49	6.51	-48.3	-63.5	3.8	1.49e+00	0	42	104	0	68	20507
2026-01-18 07:14:51.50	66.35	6.54	-48.3	-63.5	3.8	1.49e+00	0	42	104	0	68	20535
2026-01-18 07:14:52.49	66.22	6.58	-48.3	-63.5	3.8	1.49e+00	0	42	104	0	68	20501
2026-01-18 07:14:53.48	66.08	6.62	-48.3	-63.5	3.8	1.49e+00	0	42	104	0	68	20504
2026-01-18 07:14:54.48	65.94	6.66	-48.3	-63.6	3.8	1.49e+00	0	42	104	0	68	20539
2026-01-18 07:14:55.47	65.80	6.69	-48.3	-63.5	3.8	1.49e+00	0	42	104	0	68	20463
2026-01-18 07:14:56.46	65.66	6.73	-48.3	-63.5	3.8	1.49e+00	0	42	104	0	68	20351
2026-01-18 07:14:57.46	65.52	6.77	-48.2	-63.5	3.8	1.49e+00	0	42	104	0	68	20407
2026-01-18 07:14:58.45	65.38	6.81	-48.2	-63.5	3.8	1.49e+00	0	42	104	0	68	20397
2026-01-18 07:14:59.44	65.25	6.84	-48.2	-63.4	3.8	1.49e+00	0	42	104	0	68	20292
2026-01-18 07:15:00.44	65.10	6.88	-48.2	-63.5	3.8	1.49e+00	0	42	104	0	68	20328
2026-01-18 07:15:01.43	64.96	6.92	-48.2	-63.4	3.8	1.49e+00	0	42	104	0	68	20181
2026-01-18 07:15:02.42	64.82	6.95	-48.2	-63.4	3.8	1.49e+00	0	42	104	0	68	20251
2026-01-18 07:15:03.42	64.68	6.99	-48.2	-63.4	3.8	1.49e+00	0	42	104	0	68	20223
2026-01-18 07:15:04.41	64.54	7.03	-48.2	-63.4	3.8	1.49e+00	0	42	104	0	68	20255
2026-01-18 07:15:05.40	64.40	7.06	-48.2	-63.4	3.8	1.49e+00	0	42	104	0	68	20264
2026-01-18 07:15:06.40	64.25	7.10	-48.2	-63.4	3.8	1.49e+00	0	42	104	0	68	20280
2026-01-18 07:15:07.39	64.11	7.13	-48.2	-63.4	3.8	1.49e+00	0	42	104	0	68	20192
2026-01-18 07:15:08.38	63.97	7.17	-48.2	-63.4	3.8	1.49e+00	0	42	104	0	68	20185
2026-01-18 07:15:09.38	63.82	7.21	-48.2	-63.4	3.8	1.49e+00	0	42	104	0	68	20173
2026-01-18 07:15:10.37	63.68	7.24	-48.1	-63.4	3.8	1.49e+00	0	42	104	0	68	20145
2026-01-18 07:15:11.36	63.54	7.28	-48.1	-63.3	3.8	1.49e+00	0	42	104	0	68	20070
2026-01-18 07:15:12.36	63.39	7.31	-48.1	-63.4	3.8	1.49e+00	0	42	104	0	68	20110
2026-01-18 07:15:13.35	63.25	7.35	-48.1	-63.3	3.8	1.49e+00	0	42	104	0	68	20025
2026-01-18 07:15:14.34	63.10	7.38	-48.1	-63.3	3.8	1.49e+00	0	42	104	0	68	20001
2026-01-18 07:15:15.33	62.96	7.42	-48.1	-63.3	3.8	1.49e+00	0	42	104	0	68	20044
2026-01-18 07:15:16.33	62.81	7.45	-48.1	-63.3	3.8	1.49e+00	0	42	104	0	68	19902
2026-01-18 07:15:17.32	62.66	7.49	-48.1	-63.3	3.8	1.49e+00	0	42	104	0	68	19925
2026-01-18 07:15:18.31	62.52	7.52	-48.1	-63.3	3.8	1.49e+00	0	42	104	0	68	19943
2026-01-18 07:15:19.31	62.37	7.56	-48.1	-63.3	3.8	1.49e+00	0	42	104	0	68	19954
2026-01-18 07:15:20.30	62.22	7.59	-48.2	-63.3	3.8	1.49e+00	0	42	104	0	68	19961
2026-01-18 07:15:21.29	62.08	7.62	-48.2	-63.3	3.8	1.49e+00	0	42	104	0	68	19957
2026-01-18 07:15:22.29	61.93	7.66	-48.2	-63.2	3.8	1.49e+00	0	42	104	0	68	19840
2026-01-18 07:15:23.28	61.78	7.69	-48.2	-63.3	3.8	1.49e+00	0	42	104	0	68	19906
2026-01-18 07:15:24.27	61.63	7.73	-48.3	-63.3	3.8	1.49e+00	0	42	104	0	68	19918
2026-01-18 07:15:25.27	61.48	7.76	-48.3	-63.3	3.8	1.49e+00	0	42	104	0	68	20054
2026-01-18 07:15:26.26	61.33	7.79	-48.3	-63.4	3.8	1.49e+00	0	43	104	0	68	20153
2026-01-18 07:15:27.25	61.18	7.83	-48.3	-63.4	3.8	1.49e+00	0	42	104	0	68	20265
2026-01-18 07:15:28.25	61.03	7.86	-48.3	-63.5	3.8	1.49e+00	0	42	104	0	68	20384
2026-01-18 07:15:29.24	60.88	7.89	-48.3	-63.5	3.8	1.49e+00	0	43	104	0	68	20501
2026-01-18 07:15:30.23	60.73	7.93	-48.3	-63.5	3.8	1.49e+00	0	42	104	0	68	20473
2026-01-18 07:15:31.22	60.58	7.96	-48.3	-63.5	3.8	1.49e+00	0	42	104	0	68	20381
2026-01-18 07:15:32.22	60.43	7.99	-48.3	-63.5	3.8	1.49e+00	0	42	104	0	68	20316
2026-01-18 07:15:33.21	60.28	8.02	-48.4	-63.4	3.8	1.49e+00	0	42	104	0	68	20213
2026-01-18 07:15:34.20	60.12	8.06	-48.3	-63.3	3.8	1.49e+00	0	42	104	0	68	19987
2026-01-18 07:15:35.20	59.97	8.09	-48.4	-63.4	3.8	1.49e+00	0	42	104	0	68	20102
2026-01-18 07:15:36.19	59.82	8.12	-48.4	-63.4	3.8	1.49e+00	0	42	104	0	68	20235
2026-01-18 07:15:37.18	59.66	8.15	-48.4	-63.5	3.8	1.49e+00	0	42	104	0	68	20488
2026-01-18 07:15:38.18	59.51	8.18	-48.5	-63.6	3.8	1.49e+00	0	42	104	0	68	20691
2026-01-18 07:15:39.17	59.36	8.22	-48.5	-63.7	3.8	1.49e+00	0	42	104	0	68	20840
2026-01-18 07:15:40.16	59.20	8.25	-48.5	-63.7	3.8	1.49e+00	0	42	104	0	68	20991
2026-01-18 07:15:41.16	59.05	8.28	-48.6	-63.7	3.8	1.49e+00	0	43	104	0	68	20887
2026-01-18 07:15:42.15	58.89	8.31	-48.6	-63.6	3.8	1.49e+00	0	42	104	0	68	20553
2026-01-18 07:15:43.14	58.74	8.34	-48.6	-63.4	3.8	1.49e+00	0	42	104	0	68	20150
2026-01-18 07:15:44.14	58.58	8.37	-48.6	-63.3	3.8	1.49e+00	0	43	104	0	68	19953
2026-01-18 07:15:45.13	58.42	8.40	-48.7	-63.4	3.8	1.49e+00	0	42	104	0	68	20203
2026-01-18 07:15:46.12	58.27	8.43	-48.7	-63.6	3.8	1.49e+00	0	43	104	0	68	20698
2026-01-18 07:15:47.12	58.11	8.46	-48.7	-63.8	3.8	1.49e+00	0	42	104	0	68	21256
2026-01-18 07:15:48.11	57.95	8.49	-48.8	-64.0	3.8	1.49e+00	0	42	104	0	68	21518
2026-01-18 07:15:49.10	57.80	8.52	-48.8	-64.0	3.8	1.49e+00	0	43	104	0	68	21616
2026-01-18 07:15:50.09	57.64	8.55	-48.8	-64.0	3.8	1.49e+00	0	43	104	0	68	21544
2026-01-18 07:15:51.09	57.48	8.58	-48.8	-63.6	3.8	1.49e+00	0	43	104	0	68	20719
2026-01-18 07:15:52.08	57.32	8.61	-48.8	-62.8	3.8	1.49e+00	0	42	104	0	68	18938
2026-01-18 07:15:53.07	57.17	8.64	-48.7	-62.2	3.8	1.49e+00	0	43	104	0	68	17496
2026-01-18 07:15:54.07	57.01	8.67	-48.8	-62.2	3.8	1.49e+00	0	43	104	0	68	17505
2026-01-18 07:15:55.06	56.85	8.70	-48.8	-63.2	3.8	1.49e+00	0	43	104	0	68	19720
2026-01-18 07:15:56.05	56.69	8.73	-48.9	-63.7	3.8	1.49e+00	0	43	104	0	68	20871
2026-01-18 07:15:57.05	56.53	8.76	-48.6	-60.1	4.3	1.45e+00	0	43	0	0	68	13775
2026-01-18 07:15:58.04	56.37	8.79	-48.0	-55.8	7.0	3.71e-01	0	43	0	1048576	68	8378
2026-01-18 07:15:59.03	56.21	8.81	-46.8	-52.3	10.4	2.62e-02	0	43	0	3145728	65	6711
2026-01-18 07:16:00.02	56.05	8.84	-45.8	-50.1	12.8	9.20e-04	0	43	0	5242880	63	5843
2026-01-18 07:16:01.02	55.88	8.87	-45.2	-48.9	14.1	3.00e-06	0	42	0	7340032	62	5383
2026-01-18 07:16:02.01	55.72	8.90	-44.9	-48.5	14.5	7.00e-07	0	43	0	8388608	61	5437
2026-01-18 07:16:03.00	55.56	8.92	-45.1	-48.8	14.2	0.00e+00	0	43	0	10485760	61	5639
2026-01-18 07:16:03.99	55.40	8.95	-45.9	-50.2	12.9	3.05e-05	0	43	0	12582912	62	6215
2026-01-18 07:16:04.99	55.24	8.98	-46.7	-52.1	10.8	9.80e-04	0	43	0	14680064	64	6886
2026-01-18 07:16:05.98	55.08	9.01	-47.6	-54.6	8.2	2.04e-02	0	43	0	15728640	65	8693
2026-01-18 07:16:06.98	54.91	9.03	-45.7	-49.8	13.3	3.24e-02	0	43	0	17825792	63	5643
2026-01-18 07:16:07.97	54.75	9.06	-45.8	-50.0	13.0	1.60e-05	0	43	0	19922944	63	5756
2026-01-18 07:16:08.96	54.59	9.09	-48.7	-60.6	4.2	2.83e-01	0	43	0	22020096	67	15551
2026-01-18 07:16:09.96	54.42	9.11	-45.7	-49.8	13.3	3.52e-01	0	43	0	23068672	63	5641
2026-01-18 07:16:10.95	54.26	9.14	-48.6	-60.1	4.3	3.20e-04	0	43	0	25165824	67	14697
2026-01-18 07:16:11.95	54.09	9.16	-46.4	-51.3	11.6	3.84e-02	0	43	0	26214400	64	6335
2026-01-18 07:16:12.99	53.92	9.19	-46.2	-50.9	12.0	6.28e-04	0	43	0	28311552	64	6045
2026-01-18 07:16:13.93	53.76	9.21	-46.2	-50.9	12.0	1.54e-04	0	43	0	30408704	64	6009
2026-01-18 07:16:14.92	53.60	9.24	-46.3	-51.0	11.8	2.94e-04	0	43	0	31457280	64	6129
2026-01-18 07:16:15.92	53.43	9.27	-46.0	-50.4	12.6	2.26e-04	0	43	0	33554432	64	5674
2026-01-18 07:16:16.91	53.27	9.29	-45.8	-49.9	13.2	5.64e-05	0	43	0	35651584	63	5708
2026-01-18 07:16:17.91	53.10	9.31	-45.5	-49.3	13.8	9.10e-06	0	43	0	37748736	62	5630
2026-01-18 07:16:18.90	52.93	9.34	-45.3	-49.0	14.1	1.50e-06	0	43	0	39845888	62	5423
2026-01-18 07:16:19.90	52.76	9.36	-45.1	-48.7	14.5	2.20e-06	0	43	0	40894464	62	5225
2026-01-18 07:16:20.89	52.60	9.39	-45.0	-48.6	14.5	7.00e-07	0	43	0	42991616	62	5191
2026-01-18 07:16:21.89	52.43	9.41	-44.6	-48.0	15.1	0.00e+00	0	43	0	45088768	61	5113
2026-01-18 07:16:22.88	52.26	9.43	-44.4	-47.6	15.6	0.00e+00	0	43	0	47185920	60	5162
2026-01-18 07:16:23.88	52.09	9.46	-44.4	-47.6	15.5	0.00e+00	0	42	0	48234496	60	5196
2026-01-18 07:16:24.95	51.91	9.48	-44.4	-47.6	15.6	0.00e+00	0	43	0	50331648	60	5161
2026-01-18 07:16:25.83	51.76	9.50	-44.4	-47.6	15.5	0.00e+00	0	43	0	52428800	60	5173
2026-01-18 07:16:26.97	51.57	9.53	-44.1	-47.2	16.0	0.00e+00	0	43	0	54525952	60	4949
2026-01-18 07:16:27.82	51.42	9.55	-44.2	-47.3	15.9	0.00e+00	0	43	0	55574528	60	5023
2026-01-18 07:16:28.96	51.23	9.57	-44.2	-47.4	15.8	0.00e+00	0	43	0	58720256	60	5063
2026-01-18 07:16:29.81	51.09	9.59	-44.4	-47.6	15.6	0.00e+00	0	43	0	59768832	60	5199
2026-01-18 07:16:30.95	50.89	9.62	-44.4	-47.7	15.5	0.00e+00	0	43	0	61865984	60	5225
2026-01-18 07:16:31.80	50.75	9.64	-44.4	-47.7	15.5	0.00e+00	0	43	0	63963136	60	5220
2026-01-18 07:16:32.93	50.55	9.66	-44.3	-47.5	15.6	0.00e+00	0	43	0	66060288	60	5138
2026-01-18 07:16:33.79	50.40	9.68	-44.3	-47.5	15.7	0.00e+00	0	43	0	67108864	60	5107
2026-01-18 07:16:34.92	50.21	9.70	-44.2	-47.4	15.8	0.00e+00	0	43	0	69206016	60	5053
2026-01-18 07:16:35.78	50.06	9.72	-44.3	-47.5	15.7	0.00e+00	0	43	0	71303168	60	5124
2026-01-18 07:16:36.92	49.87	9.74	-44.4	-47.6	15.6	0.00e+00	0	43	0	73400320	60	5185
2026-01-18 07:16:37.77	49.72	9.76	-44.4	-47.6	15.6	0.00e+00	0	43	0	74448896	60	5215
2026-01-18 07:16:39.00	49.51	9.79	-44.4	-47.6	15.7	0.00e+00	0	43	0	77594624	60	5167
2026-01-18 07:16:39.85	49.36	9.80	-44.3	-47.5	15.7	0.00e+00	0	43	0	78643200	60	5112
2026-01-18 07:16:41.15	49.13	9.83	-44.2	-47.3	15.9	0.00e+00	0	43	0	80740352	60	5037
2026-01-18 07:16:42.24	48.94	9.85	-44.3	-47.5	15.8	0.00e+00	0	43	0	82837504	60	5112
2026-01-18 07:16:43.41	48.74	9.87	-44.4	-47.6	15.6	0.00e+00	0	43	0	84934656	60	5186
2026-01-18 07:16:44.26	48.59	9.89	-44.3	-47.5	15.8	0.00e+00	0	43	0	87031808	60	5110
2026-01-18 07:16:45.40	48.39	9.91	-44.2	-47.4	15.8	0.00e+00	0	43	0	89128960	60	5069
2026-01-18 07:16:46.26	48.24	9.93	-44.3	-47.6	15.6	0.00e+00	0	43	0	90177536	60	5178
2026-01-18 07:16:47.40	48.04	9.95	-44.2	-47.4	15.8	0.00e+00	0	43	0	93323264	60	5065
2026-01-18 07:16:48.25	47.90	9.96	-44.2	-47.3	15.9	0.00e+00	0	43	0	94371840	60	5032
2026-01-18 07:16:49.39	47.70	9.98	-44.1	-47.3	16.0	0.00e+00	0	43	0	96468992	60	4990
2026-01-18 07:16:50.24	47.55	10.00	-44.1	-47.2	16.0	0.00e+00	0	43	0	98566144	60	4943
2026-01-18 07:16:51.38	47.35	10.02	-44.1	-47.1	16.2	0.00e+00	0	43	0	100663296	60	4890
2026-01-18 07:16:52.23	47.20	10.03	-44.0	-47.0	16.2	0.00e+00	0	43	0	101711872	60	4841
2026-01-18 07:16:53.51	46.97	10.05	-44.0	-46.9	16.4	0.00e+00	0	43	0	103809024	59	5065
2026-01-18 07:16:54.22	46.85	10.06	-44.0	-46.9	16.3	0.00e+00	0	43	0	105906176	59	5083
2026-01-18 07:16:55.50	46.62	10.08	-43.9	-46.8	16.4	0.00e+00	0	43	0	108003328	59	5019
2026-01-18 07:16:56.21	46.50	10.09	-44.0	-46.9	16.3	0.00e+00	0	43	0	109051904	59	5096
2026-01-18 07:16:57.49	46.27	10.11	-44.0	-47.0	16.2	0.00e+00	0	43	0	111149056	59	5124
2026-01-18 07:16:58.20	46.14	10.13	-44.0	-46.9	16.3	0.00e+00	0	43	0	113246208	59	5091
2026-01-18 07:16:59.48	45.92	10.15	-43.9	-46.9	16.4	0.00e+00	0	43	0	115343360	59	5045
2026-01-18 07:17:00.19	45.79	10.16	-44.0	-47.0	16.3	0.00e+00	0	43	0	116391936	59	5104
2026-01-18 07:17:01.47	45.56	10.17	-43.8	-46.7	16.5	0.00e+00	0	43	0	119537664	59	4979
2026-01-18 07:17:02.19	45.44	10.18	-43.9	-46.9	16.4	0.00e+00	0	43	0	120586240	59	5042
2026-01-18 07:17:03.47	45.21	10.20	-44.0	-47.0	16.2	0.00e+00	0	43	0	122683392	59	5126
2026-01-18 07:17:04.18	45.08	10.21	-44.1	-47.0	16.2	0.00e+00	0	43	0	123731968	59	5150
2026-01-18 07:17:05.46	44.85	10.23	-44.2	-47.2	16.0	0.00e+00	0	43	0	126877696	59	5256
2026-01-18 07:17:06.17	44.73	10.24	-44.0	-47.0	16.2	0.00e+00	0	43	0	127926272	59	5114
2026-01-18 07:17:07.55	44.48	10.26	-43.9	-46.8	16.4	0.00e+00	0	43	0	131072000	59	5011
2026-01-18 07:17:08.26	44.35	10.27	-43.9	-46.8	16.5	0.00e+00	0	43	0	132120576	59	4990
2026-01-18 07:17:09.53	44.13	10.28	-43.9	-46.8	16.5	0.00e+00	0	43	0	134217728	59	4998
2026-01-18 07:17:10.24	44.00	10.29	-43.9	-46.8	16.5	0.00e+00	0	43	0	135266304	59	5013
2026-01-18 07:17:11.65	43.75	10.31	-43.8	-46.6	16.6	0.00e+00	0	43	0	138412032	59	4917
2026-01-18 07:17:12.36	43.62	10.32	-43.7	-46.5	16.7	0.00e+00	0	43	0	139460608	59	4862
2026-01-18 07:17:13.64	43.39	10.33	-43.6	-46.4	16.9	0.00e+00	0	43	0	141557760	59	4793
2026-01-18 07:17:14.35	43.26	10.34	-43.6	-46.4	16.9	0.00e+00	0	43	0	143654912	59	4775
2026-01-18 07:17:15.76	43.01	10.35	-43.4	-46.2	17.1	0.00e+00	0	43	0	145752064	58	4945
2026-01-18 07:17:16.72	42.84	10.37	-43.4	-46.2	17.1	0.00e+00	0	43	0	147849216	58	4943
2026-01-18 07:17:18.03	42.60	10.38	-43.5	-46.3	17.0	0.00e+00	0	43	0	149946368	58	5013
2026-01-18 07:17:18.74	42.47	10.39	-43.5	-46.4	16.9	0.00e+00	0	43	0	150994944	58	5042
2026-01-18 07:17:20.02	42.24	10.40	-43.4	-46.3	17.0	0.00e+00	0	43	0	154140672	58	4990
2026-01-18 07:17:20.73	42.11	10.41	-43.5	-46.3	17.0	0.00e+00	0	43	0	155189248	58	5005
2026-01-18 07:17:22.01	41.88	10.42	-43.4	-46.2	17.1	0.00e+00	0	43	0	157286400	58	4929
2026-01-18 07:17:22.72	41.75	10.42	-43.4	-46.2	17.1	0.00e+00	0	43	0	159383552	58	4942
2026-01-18 07:17:24.00	41.52	10.43	-43.5	-46.3	17.0	0.00e+00	0	43	0	161480704	58	5001
2026-01-18 07:17:24.73	41.39	10.44	-43.5	-46.3	17.0	0.00e+00	0	43	0	162529280	58	5031
2026-01-18 07:17:26.04	41.15	10.45	-43.7	-46.5	16.7	0.00e+00	0	43	0	165675008	58	5155
2026-01-18 07:17:26.75	41.02	10.46	-43.5	-46.3	17.0	0.00e+00	0	43	0	166723584	58	5015
2026-01-18 07:17:28.03	40.79	10.47	-43.4	-46.2	17.1	0.00e+00	0	43	0	168820736	58	4943
2026-01-18 07:17:28.75	40.66	10.47	-43.4	-46.2	17.0	0.00e+00	0	43	0	169869312	58	4979
2026-01-18 07:17:30.03	40.43	10.48	-43.3	-46.2	17.1	0.00e+00	0	43	0	173015040	58	4932
2026-01-18 07:17:30.74	40.30	10.49	-43.4	-46.2	17.1	0.00e+00	0	43	0	174063616	58	4959
2026-01-18 07:17:32.02	40.07	10.49	-43.3	-46.2	17.1	0.00e+00	0	43	0	176160768	58	4930
2026-01-18 07:17:32.73	39.94	10.50	-43.3	-46.1	17.1	0.00e+00	0	43	0	178257920	58	4915
2026-01-18 07:17:34.01	39.71	10.51	-43.3	-46.2	17.1	0.00e+00	0	43	0	180355072	58	4932
2026-01-18 07:17:34.72	39.58	10.51	-43.4	-46.2	17.0	0.00e+00	0	43	0	181403648	58	4955
2026-01-18 07:17:36.00	39.35	10.52	-43.2	-46.0	17.2	0.00e+00	0	43	0	183500800	58	4860
2026-01-18 07:17:36.72	39.21	10.52	-43.2	-46.0	17.3	0.00e+00	0	43	0	185597952	58	4819
2026-01-18 07:17:38.00	38.98	10.53	-43.0	-45.9	17.3	0.00e+00	0	43	0	187695104	58	4779
2026-01-18 07:17:38.72	38.85	10.53	-43.1	-46.0	17.2	0.00e+00	0	43	0	188743680	58	4833
2026-01-18 07:17:39.99	38.62	10.54	-42.9	-45.7	17.5	0.00e+00	0	43	0	191889408	57	4969
2026-01-18 07:17:40.72	38.49	10.54	-43.0	-45.8	17.4	0.00e+00	0	43	0	192937984	57	4989
2026-01-18 07:17:42.00	38.25	10.54	-43.2	-45.9	17.3	0.00e+00	0	43	0	195035136	57	5099
2026-01-18 07:17:42.73	38.12	10.55	-43.1	-45.8	17.4	0.00e+00	0	43	0	196083712	57	5015
2026-01-18 07:17:44.05	37.88	10.55	-43.3	-46.0	17.2	0.00e+00	0	43	0	199229440	57	5152
2026-01-18 07:17:44.77	37.75	10.55	-43.4	-46.2	17.1	0.00e+00	0	43	0	200278016	57	5236
2026-01-18 07:17:46.04	37.52	10.56	-43.2	-46.0	17.3	0.00e+00	0	43	0	202375168	57	5117
2026-01-18 07:17:46.79	37.38	10.56	-43.1	-45.9	17.3	0.00e+00	0	43	0	204472320	57	5060
2026-01-18 07:17:48.07	37.15	10.56	-43.1	-45.8	17.3	0.00e+00	0	43	0	206569472	57	5038
2026-01-18 07:17:48.78	37.02	10.56	-43.0	-45.8	17.4	0.00e+00	0	43	0	207618048	57	5014
2026-01-18 07:17:50.27	36.75	10.56	-43.1	-46.0	17.2	0.00e+00	0	43	0	210763776	57	5112
2026-01-18 07:17:50.98	36.62	10.56	-43.1	-46.0	17.1	0.00e+00	0	43	0	211812352	57	5145
2026-01-18 07:17:52.26	36.38	10.57	-43.0	-45.9	17.2	0.00e+00	0	43	0	213909504	57	5077
2026-01-18 07:17:52.97	36.25	10.57	-43.0	-45.9	17.2	0.00e+00	0	43	0	216006656	57	5080
2026-01-18 07:17:54.25	36.02	10.57	-42.9	-45.8	17.3	0.00e+00	0	43	0	218103808	57	5013
2026-01-18 07:17:54.99	35.88	10.57	-42.8	-45.5	17.6	0.00e+00	0	43	0	219152384	57	4864
2026-01-18 07:17:56.27	35.65	10.57	-42.9	-45.6	17.5	0.00e+00	0	43	0	222298112	57	4893
2026-01-18 07:17:56.98	35.52	10.57	-42.9	-45.6	17.5	0.00e+00	0	43	0	223346688	57	4909
2026-01-18 07:17:58.26	35.29	10.57	-43.1	-45.8	17.3	0.00e+00	0	43	0	225443840	57	5035
2026-01-18 07:17:58.97	35.16	10.56	-43.2	-45.9	17.3	0.00e+00	0	43	0	226492416	57	5054
2026-01-18 07:18:00.25	34.93	10.56	-43.3	-46.0	17.1	0.00e+00	0	43	0	229638144	57	5156
2026-01-18 07:18:00.98	34.79	10.56	-43.4	-46.2	16.9	0.00e+00	0	43	0	230686720	57	5249
2026-01-18 07:18:02.26	34.56	10.56	-43.6	-46.4	16.8	0.00e+00	0	43	0	232783872	57	5348
2026-01-18 07:18:03.11	34.40	10.56	-43.6	-46.4	16.7	0.00e+00	0	43	0	234881024	57	5357
2026-01-18 07:18:04.25	34.20	10.55	-43.5	-46.4	16.7	0.00e+00	0	43	0	236978176	57	5364
2026-01-18 07:18:05.10	34.04	10.55	-43.6	-46.5	16.7	0.00e+00	0	43	0	238026752	57	5422
2026-01-18 07:18:06.24	33.83	10.55	-43.6	-46.5	16.6	0.00e+00	0	43	0	240123904	57	5419
2026-01-18 07:18:07.09	33.68	10.55	-43.6	-46.5	16.6	0.00e+00	0	43	0	242221056	57	5447
2026-01-18 07:18:08.23	33.47	10.54	-43.6	-46.6	16.6	0.00e+00	0	43	0	244318208	58	5161
2026-01-18 07:18:09.08	33.32	10.54	-43.6	-46.6	16.6	0.00e+00	0	43	0	246415360	58	5163
2026-01-18 07:18:10.22	33.11	10.53	-43.6	-46.6	16.5	0.00e+00	0	43	0	248512512	58	5197
2026-01-18 07:18:11.07	32.95	10.53	-43.7	-46.6	16.5	0.00e+00	0	43	0	249561088	58	5217
2026-01-18 07:18:12.21	32.75	10.52	-43.5	-46.5	16.6	0.00e+00	0	43	0	251658240	58	5125
2026-01-18 07:18:13.06	32.59	10.52	-43.5	-46.4	16.7	0.00e+00	0	43	0	253755392	58	5088
2026-01-18 07:18:14.20	32.38	10.51	-43.5	-46.5	16.6	0.00e+00	0	43	0	255852544	58	5145
2026-01-18 07:18:15.05	32.23	10.51	-43.4	-46.4	16.7	0.00e+00	0	43	0	256901120	58	5090
2026-01-18 07:18:16.19	32.02	10.50	-43.6	-46.6	16.5	0.00e+00	0	43	0	258998272	58	5174
2026-01-18 07:18:17.04	31.87	10.50	-43.7	-46.7	16.4	0.00e+00	0	43	0	261095424	58	5265
2026-01-18 07:18:18.18	31.66	10.49	-43.8	-46.9	16.2	0.00e+00	0	43	0	263192576	58	5364
2026-01-18 07:18:19.03	31.51	10.49	-43.9	-47.0	16.2	0.00e+00	0	43	0	264241152	58	5414
2026-01-18 07:18:20.17	31.30	10.48	-43.9	-47.0	16.1	0.00e+00	0	43	0	266338304	58	5433
2026-01-18 07:18:21.21	31.11	10.47	-43.9	-47.1	16.0	0.00e+00	0	43	0	268435456	58	5493
2026-01-18 07:18:22.33	30.91	10.46	-43.8	-46.9	16.2	0.00e+00	0	43	0	270532608	58	5375
2026-01-18 07:18:23.18	30.76	10.46	-43.8	-46.8	16.3	0.00e+00	0	43	0	272629760	58	5338
2026-01-18 07:18:24.32	30.55	10.45	-43.8	-46.7	16.4	0.00e+00	0	43	0	274726912	58	5263
2026-01-18 07:18:25.17	30.40	10.44	-43.8	-46.7	16.4	0.00e+00	0	43	0	275775488	58	5233
2026-01-18 07:18:26.31	30.19	10.43	-43.8	-46.7	16.3	0.00e+00	0	43	0	277872640	58	5271
2026-01-18 07:18:27.16	30.04	10.42	-43.7	-46.6	16.5	0.00e+00	0	43	0	279969792	58	5186
2026-01-18 07:18:28.69	29.76	10.41	-43.6	-46.6	16.4	0.00e+00	0	43	0	283115520	58	5175
2026-01-18 07:18:29.40	29.63	10.40	-43.7	-46.7	16.3	0.00e+00	0	43	0	284164096	58	5246
2026-01-18 07:18:30.69	29.40	10.39	-43.7	-46.8	16.3	0.00e+00	0	43	0	286261248	58	5281
2026-01-18 07:18:31.44	29.27	10.38	-43.8	-46.9	16.2	0.00e+00	0	43	0	287309824	58	5356
2026-01-18 07:18:32.72	29.04	10.37	-43.9	-47.0	16.1	0.00e+00	0	43	0	290455552	58	5415
2026-01-18 07:18:33.43	28.91	10.36	-43.9	-47.1	16.1	0.00e+00	0	43	0	291504128	58	5469
2026-01-18 07:18:34.71	28.68	10.35	-43.9	-47.0	16.1	0.00e+00	0	43	0	293601280	58	5414
2026-01-18 07:18:35.42	28.55	10.34	-43.9	-47.0	16.0	0.00e+00	0	43	0	295698432	58	5436
2026-01-18 07:18:36.70	28.32	10.32	-43.8	-46.9	16.2	0.00e+00	0	43	0	297795584	58	5343
2026-01-18 07:18:37.43	28.19	10.32	-43.7	-46.7	16.3	0.00e+00	0	43	0	298844160	58	5263
2026-01-18 07:18:38.70	27.96	10.30	-43.7	-46.7	16.3	0.00e+00	0	43	0	301989888	58	5254
2026-01-18 07:18:39.43	27.83	10.29	-43.7	-46.8	16.2	0.00e+00	0	43	0	303038464	58	5281
2026-01-18 07:18:40.71	27.60	10.28	-43.6	-46.6	16.4	0.00e+00	0	43	0	305135616	58	5170
2026-01-18 07:18:41.67	27.43	10.26	-43.6	-46.6	16.4	0.00e+00	0	43	0	307232768	58	5195
2026-01-18 07:18:42.97	27.20	10.25	-43.7	-46.7	16.2	0.00e+00	0	43	0	309329920	58	5266
2026-01-18 07:18:43.68	27.07	10.24	-43.7	-46.7	16.3	0.00e+00	0	43	0	310378496	58	5224
2026-01-18 07:18:44.96	26.84	10.22	-43.7	-46.8	16.2	0.00e+00	0	43	0	313524224	58	5297
2026-01-18 07:18:45.69	26.72	10.21	-43.8	-46.9	16.2	0.00e+00	0	43	0	314572800	58	5346
2026-01-18 07:18:46.97	26.49	10.19	-43.6	-46.8	16.2	0.00e+00	0	43	0	316669952	58	5291
2026-01-18 07:18:47.68	26.36	10.18	-43.6	-46.7	16.3	0.00e+00	0	43	0	318767104	58	5273
2026-01-18 07:18:48.97	26.13	10.16	-43.6	-46.9	16.1	0.00e+00	0	43	0	320864256	58	5346
2026-01-18 07:18:49.68	26.01	10.15	-43.5	-46.7	16.3	0.00e+00	0	43	0	321912832	58	5236
2026-01-18 07:18:50.96	25.78	10.13	-43.4	-46.7	16.3	0.00e+00	0	43	0	324009984	58	5222
2026-01-18 07:18:51.69	25.65	10.12	-43.5	-46.8	16.2	0.00e+00	0	43	0	326107136	58	5289
2026-01-18 07:18:52.96	25.43	10.10	-43.6	-46.8	16.2	0.00e+00	0	43	0	328204288	58	5293
2026-01-18 07:18:53.68	25.30	10.09	-43.7	-46.9	16.1	0.00e+00	0	43	0	329252864	58	5373
2026-01-18 07:18:55.06	25.06	10.07	-43.7	-46.9	16.1	0.00e+00	0	43	0	332398592	58	5366
2026-01-18 07:18:55.78	24.93	10.06	-43.7	-46.9	16.1	0.00e+00	0	43	0	333447168	58	5345
2026-01-18 07:18:57.05	24.71	10.04	-43.8	-46.9	16.0	0.00e+00	0	43	0	335544320	58	5398
2026-01-18 07:18:57.78	24.58	10.03	-43.8	-47.0	15.9	0.00e+00	0	43	0	337641472	58	5453
2026-01-18 07:18:59.06	24.35	10.00	-43.8	-47.0	15.9	0.00e+00	0	43	0	339738624	58	5440
2026-01-18 07:18:59.77	24.23	9.99	-43.7	-47.0	16.0	0.00e+00	0	43	0	340787200	58	5415
2026-01-18 07:19:01.22	23.98	9.97	-43.7	-46.9	16.1	0.00e+00	0	43	0	343932928	58	5363
2026-01-18 07:19:01.94	23.85	9.95	-43.7	-46.9	16.1	0.00e+00	0	43	0	344981504	58	5350
2026-01-18 07:19:03.22	23.63	9.93	-43.6	-46.6	16.3	0.00e+00	0	43	0	347078656	58	5201
2026-01-18 07:19:03.94	23.50	9.92	-43.6	-46.7	16.3	0.00e+00	0	43	0	349175808	58	5220
2026-01-18 07:19:05.22	23.28	9.89	-43.5	-46.4	16.5	0.00e+00	0	43	0	351272960	58	5097
2026-01-18 07:19:05.93	23.16	9.88	-43.5	-46.4	16.6	0.00e+00	0	43	0	352321536	58	5057
2026-01-18 07:19:07.21	22.93	9.86	-43.4	-46.3	16.6	0.00e+00	0	43	0	355467264	58	5033
2026-01-18 07:19:07.92	22.81	9.84	-43.5	-46.5	16.5	0.00e+00	0	43	0	356515840	58	5120
2026-01-18 07:19:09.20	22.59	9.82	-43.4	-46.5	16.5	0.00e+00	0	43	0	358612992	58	5144
2026-01-18 07:19:09.93	22.46	9.80	-43.4	-46.7	16.3	0.00e+00	0	43	0	359661568	58	5253
2026-01-18 07:19:11.20	22.24	9.78	-43.2	-46.6	16.3	0.00e+00	0	43	0	362807296	58	5203
2026-01-18 07:19:12.09	22.09	9.76	-43.2	-46.8	16.2	0.00e+00	0	43	0	363855872	58	5291
2026-01-18 07:19:13.54	21.84	9.73	-43.2	-46.8	16.2	0.00e+00	0	43	0	367001600	58	5286
2026-01-18 07:19:14.25	21.72	9.71	-43.2	-46.7	16.3	0.00e+00	0	43	0	368050176	58	5238
2026-01-18 07:19:15.75	21.46	9.68	-43.0	-46.5	16.5	0.00e+00	0	43	0	371195904	57	5406
2026-01-18 07:19:16.46	21.34	9.67	-43.0	-46.4	16.5	0.00e+00	0	43	0	372244480	57	5383
2026-01-18 07:19:17.74	21.12	9.64	-43.0	-46.4	16.5	0.00e+00	0	43	0	374341632	57	5387
2026-01-18 07:19:18.45	21.00	9.63	-42.9	-46.3	16.6	0.00e+00	0	43	0	376438784	57	5295
2026-01-18 07:19:19.74	20.78	9.60	-42.8	-46.3	16.6	0.00e+00	0	43	0	378535936	57	5305
2026-01-18 07:19:20.45	20.66	9.58	-42.8	-46.2	16.7	0.00e+00	0	43	0	379584512	57	5275
2026-01-18 07:19:21.73	20.44	9.55	-42.8	-46.2	16.7	0.00e+00	0	43	0	381681664	57	5274
2026-01-18 07:19:22.47	20.31	9.54	-43.0	-46.4	16.5	0.00e+00	0	43	0	383778816	57	5399
2026-01-18 07:19:23.75	20.10	9.51	-42.9	-46.4	16.5	0.00e+00	0	43	0	385875968	57	5346
2026-01-18 07:19:24.46	19.98	9.49	-42.9	-46.4	16.5	0.00e+00	0	43	0	386924544	57	5397
2026-01-18 07:19:25.74	19.76	9.46	-43.0	-46.3	16.6	0.00e+00	0	43	0	390070272	57	5320
2026-01-18 07:19:26.46	19.64	9.44	-43.2	-46.5	16.4	0.00e+00	0	43	0	391118848	57	5457
2026-01-18 07:19:27.74	19.42	9.41	-43.3	-46.5	16.4	0.00e+00	0	43	0	393216000	57	5454
2026-01-18 07:19:28.62	19.28	9.39	-43.2	-46.5	16.4	0.00e+00	0	43	0	395313152	57	5433
2026-01-18 07:19:30.05	19.04	9.36	-43.2	-46.5	16.4	0.00e+00	0	43	0	397410304	57	5428
2026-01-18 07:19:30.76	18.92	9.34	-43.2	-46.3	16.6	0.00e+00	0	43	0	399507456	57	5307
2026-01-18 07:19:32.24	18.67	9.31	-43.2	-46.4	16.5	0.00e+00	0	43	0	401604608	57	5374
2026-01-18 07:19:32.95	18.55	9.29	-43.3	-46.4	16.4	0.00e+00	0	43	0	403701760	57	5392
2026-01-18 07:19:34.28	18.33	9.25	-43.2	-46.2	16.6	0.00e+00	0	43	0	405798912	57	5275
2026-01-18 07:19:34.99	18.21	9.24	-43.1	-46.1	16.8	0.00e+00	0	43	0	406847488	57	5177
2026-01-18 07:19:36.27	18.00	9.20	-43.2	-46.1	16.8	0.00e+00	0	43	0	408944640	57	5182
2026-01-18 07:19:36.98	17.88	9.19	-43.2	-46.1	16.8	0.00e+00	0	43	0	411041792	57	5184
2026-01-18 07:19:38.26	17.67	9.15	-43.1	-46.0	16.9	0.00e+00	0	43	0	413138944	57	5129
2026-01-18 07:19:38.97	17.55	9.13	-42.9	-45.8	17.0	0.00e+00	0	43	0	414187520	57	5037
2026-01-18 07:19:40.25	17.34	9.10	-42.8	-45.7	17.1	0.00e+00	0	43	0	417333248	57	4983
2026-01-18 07:19:40.97	17.22	9.08	-42.9	-45.8	17.1	0.00e+00	0	43	0	418381824	57	5015
2026-01-18 07:19:42.25	17.01	9.05	-42.7	-45.7	17.1	0.00e+00	0	43	0	420478976	57	4944
2026-01-18 07:19:42.96	16.90	9.03	-42.6	-45.6	17.3	0.00e+00	0	43	0	421527552	57	4875
2026-01-18 07:19:44.24	16.69	8.99	-42.7	-45.9	17.0	0.00e+00	0	43	0	424673280	57	5047
2026-01-18 07:19:44.95	16.57	8.98	-47.6	-56.4	7.0	7.00e-07	0	43	0	425721856	65	10754
2026-01-18 07:19:46.23	16.36	8.94	-47.9	-64.2	3.8	1.49e+00	0	43	104	425721856	67	23516
2026-01-18 07:19:46.94	16.25	8.92	-48.6	-64.3	3.8	1.49e+00	0	43	104	425721856	67	23779
2026-01-18 07:19:48.22	16.04	8.88	-49.1	-64.6	3.8	1.49e+00	0	43	104	425721856	68	23113
2026-01-18 07:19:48.93	15.93	8.87	-48.6	-64.6	3.8	1.49e+00	0	43	104	425721856	69	21921
2026-01-18 07:19:50.20	15.72	8.83	-49.4	-64.7	3.8	1.49e+00	0	43	104	425721856	69	22093
2026-01-18 07:19:50.94	15.60	8.81	-49.5	-64.7	3.8	1.49e+00	0	43	104	425721856	69	22145
2026-01-18 07:19:52.22	15.40	8.77	-49.4	-64.8	3.8	1.49e+00	0	43	104	425721856	69	22285
2026-01-18 07:19:53.02	15.27	8.75	-49.3	-64.8	3.8	1.49e+00	0	43	104	425721856	69	22468
2026-01-18 07:19:54.16	15.09	8.72	-49.7	-64.9	3.8	1.49e+00	0	43	104	425721856	69	22552
2026-01-18 07:19:55.20	14.92	8.69	-49.5	-64.9	3.8	1.49e+00	0	43	104	425721856	69	22626
2026-01-18 07:19:56.37	14.73	8.65	-49.7	-64.9	3.8	1.49e+00	0	43	104	425721856	70	21290
2026-01-18 07:19:57.25	14.59	8.63	-49.4	-64.9	3.8	1.49e+00	0	43	104	425721856	70	21391
2026-01-18 07:19:58.56	14.38	8.59	-49.6	-64.9	3.8	1.49e+00	0	43	104	425721856	70	21449
2026-01-18 07:19:59.27	14.27	8.57	-49.7	-64.9	3.8	1.49e+00	0	43	104	425721856	70	21430
2026-01-18 07:20:00.77	14.03	8.52	-49.7	-65.0	3.8	1.49e+00	0	43	104	425721856	70	21556
2026-01-18 07:20:01.48	13.92	8.50	-49.7	-64.9	3.8	1.49e+00	0	43	104	425721856	70	21453
2026-01-18 07:20:02.82	13.71	8.46	-49.8	-64.9	3.8	1.49e+00	0	43	104	425721856	70	21346
2026-01-18 07:20:03.53	13.60	8.44	-49.8	-64.9	3.8	1.49e+00	0	43	104	425721856	70	21353
2026-01-18 07:20:04.87	13.39	8.40	-49.6	-64.9	3.8	1.49e+00	0	43	104	425721856	70	21375
2026-01-18 07:20:05.58	13.28	8.37	-49.7	-64.9	3.8	1.49e+00	0	43	104	425721856	70	21317
2026-01-18 07:20:06.86	13.08	8.33	-49.6	-64.9	3.8	1.49e+00	0	43	104	425721856	70	21282
2026-01-18 07:20:07.58	12.97	8.31	-49.7	-64.9	3.8	1.49e+00	0	43	104	425721856	70	21371
2026-01-18 07:20:08.86	12.77	8.27	-49.5	-64.9	3.8	1.49e+00	0	43	104	425721856	70	21291
2026-01-18 07:20:09.57	12.66	8.25	-49.4	-64.9	3.8	1.49e+00	0	43	104	425721856	70	21275
2026-01-18 07:20:10.86	12.46	8.21	-49.4	-64.8	3.8	1.49e+00	0	43	104	425721856	70	21186
2026-01-18 07:20:11.57	12.35	8.19	-49.3	-64.8	3.8	1.49e+00	0	43	104	425721856	70	21191
2026-01-18 07:20:12.85	12.15	8.15	-49.4	-64.8	3.8	1.49e+00	0	43	104	425721856	70	21210
2026-01-18 07:20:13.57	12.04	8.12	-49.4	-64.8	3.8	1.49e+00	0	43	104	425721856	70	21155
2026-01-18 07:20:14.85	11.84	8.08	-49.3	-64.8	3.8	1.49e+00	0	43	104	425721856	70	21079
2026-01-18 07:20:15.56	11.74	8.06	-49.3	-64.8	3.8	1.49e+00	0	43	104	425721856	70	21084
2026-01-18 07:20:16.84	11.54	8.02	-49.3	-64.8	3.8	1.49e+00	0	43	104	425721856	70	21058
2026-01-18 07:20:17.55	11.43	7.99	-49.3	-64.8	3.8	1.49e+00	0	43	104	425721856	70	21079
2026-01-18 07:20:18.82	11.24	7.95	-49.3	-64.8	3.8	1.49e+00	0	43	104	425721856	70	21139
2026-01-18 07:20:19.55	11.13	7.93	-49.3	-64.8	3.8	1.49e+00	0	43	104	425721856	70	21077
2026-01-18 07:20:20.83	10.93	7.88	-49.3	-64.8	3.8	1.49e+00	0	43	104	425721856	70	21124
2026-01-18 07:20:21.54	10.83	7.86	-49.3	-64.8	3.8	1.49e+00	0	43	104	425721856	70	21133
2026-01-18 07:20:22.81	10.64	7.82	-49.3	-64.8	3.8	1.49e+00	0	43	104	425721856	70	21126
2026-01-18 07:20:23.52	10.53	7.79	-49.3	-64.8	3.8	1.49e+00	0	43	104	425721856	70	21073
2026-01-18 07:20:24.80	10.34	7.75	-49.3	-64.8	3.8	1.49e+00	0	43	104	425721856	70	21102
2026-01-18 07:20:25.53	10.23	7.73	-49.3	-64.8	3.8	1.49e+00	0	43	104	425721856	70	21132
2026-01-18 07:20:26.80	10.04	7.68	-49.3	-64.8	3.8	1.49e+00	0	43	104	425721856	70	21198
2026-01-18 07:20:27.54	9.93	7.66	-49.3	-64.8	3.8	1.49e+00	0	43	104	425721856	70	21111
2026-01-18 07:20:28.82	9.74	7.61	-49.3	-64.7	3.8	1.49e+00	0	43	104	425721856	70	21016
2026-01-18 07:20:29.53	9.63	7.59	-49.3	-64.8	3.8	1.49e+00	0	43	104	425721856	70	21113
2026-01-18 07:20:30.81	9.44	7.55	-49.3	-64.8	3.8	1.49e+00	0	43	104	425721856	70	21096
2026-01-18 07:20:31.52	9.34	7.52	-49.3	-64.8	3.8	1.49e+00	0	43	104	425721856	70	21068
2026-01-18 07:20:32.81	9.15	7.48	-49.3	-64.8	3.8	1.49e+00	0	43	104	425721856	70	21180
2026-01-18 07:20:33.52	9.05	7.45	-49.3	-64.8	3.8	1.49e+00	0	43	104	425721856	70	21105
2026-01-18 07:20:34.80	8.86	7.41	-49.3	-64.8	3.8	1.49e+00	0	43	104	425721856	70	21127
2026-01-18 07:20:35.51	8.76	7.38	-49.3	-64.8	3.8	1.49e+00	0	43	104	425721856	70	21156
2026-01-18 07:20:36.78	8.57	7.34	-49.3	-64.8	3.8	1.49e+00	0	43	104	425721856	70	21138
2026-01-18 07:20:37.51	8.46	7.31	-49.1	-64.7	3.8	1.49e+00	0	43	104	425721856	69	22092
2026-01-18 07:20:38.78	8.28	7.27	-49.3	-64.8	3.8	1.49e+00	0	43	104	425721856	69	22373
2026-01-18 07:20:39.49	8.18	7.24	-49.3	-64.8	3.8	1.49e+00	0	43	104	425721856	69	22299
2026-01-18 07:20:40.77	7.99	7.19	-49.3	-64.8	3.8	1.49e+00	0	43	104	425721856	69	22265
2026-01-18 07:20:41.48	7.89	7.17	-49.3	-64.7	3.8	1.49e+00	0	43	104	425721856	69	22239
2026-01-18 07:20:42.76	7.71	7.12	-49.3	-64.8	3.8	1.49e+00	0	43	104	425721856	69	22336
2026-01-18 07:20:43.48	7.61	7.10	-49.3	-64.8	3.8	1.49e+00	0	43	104	425721856	69	22316
2026-01-18 07:20:44.76	7.42	7.05	-49.3	-64.8	3.8	1.49e+00	0	43	104	425721856	69	22300
2026-01-18 07:20:45.47	7.32	7.02	-49.3	-64.8	3.8	1.49e+00	0	43	104	425721856	69	22293
2026-01-18 07:20:46.75	7.14	6.98	-49.2	-64.8	3.8	1.49e+00	0	43	104	425721856	69	22343
2026-01-18 07:20:47.46	7.04	6.95	-49.2	-64.8	3.8	1.49e+00	0	43	104	425721856	69	22342
2026-01-18 07:20:48.73	6.86	6.91	-49.3	-64.8	3.8	1.49e+00	0	43	104	425721856	69	22308
2026-01-18 07:20:49.46	6.76	6.88	-49.3	-64.7	3.8	1.49e+00	0	43	104	425721856	69	22257
2026-01-18 07:20:50.74	6.58	6.83	-49.3	-64.8	3.8	1.49e+00	0	43	104	425721856	69	22280
2026-01-18 07:20:51.45	6.48	6.80	-49.3	-64.8	3.8	1.49e+00	0	43	104	425721856	69	22268
2026-01-18 07:20:52.74	6.30	6.76	-49.2	-64.8	3.8	1.49e+00	0	43	104	425721856	69	22329
2026-01-18 07:20:53.45	6.20	6.73	-49.3	-64.8	3.8	1.49e+00	0	43	104	425721856	69	22296
2026-01-18 07:20:54.72	6.02	6.68	-49.2	-64.8	3.8	1.49e+00	0	43	104	425721856	69	22331
2026-01-18 07:20:55.43	5.92	6.66	-49.2	-64.8	3.8	1.49e+00	0	43	104	425721856	69	22284
2026-01-18 07:20:56.71	5.75	6.61	-49.3	-64.8	3.8	1.49e+00	0	43	104	425721856	69	22266
2026-01-18 07:20:57.42	5.65	6.58	-49.3	-64.8	3.8	1.49e+00	0	43	104	425721856	69	22335
2026-01-18 07:20:58.70	5.47	6.53	-49.3	-64.8	3.8	1.49e+00	0	43	104	425721856	69	22292
2026-01-18 07:20:59.41	5.38	6.51	-49.3	-64.8	3.8	1.49e+00	0	43	104	425721856	69	22275
2026-01-18 07:21:00.69	5.20	6.46	-49.3	-64.8	3.8	1.49e+00	0	43	104	425721856	69	22316
2026-01-18 07:21:01.43	5.10	6.43	-49.3	-64.8	3.8	1.49e+00	0	43	104	425721856	69	22301
2026-01-18 07:21:02.70	4.93	6.38	-49.3	-64.8	3.8	1.49e+00	0	43	104	425721856	69	22291
2026-01-18 07:21:03.43	4.83	6.35	-49.3	-64.7	3.8	1.49e+00	0	43	104	425721856	69	22243
2026-01-18 07:21:04.71	4.65	6.30	-49.3	-64.8	3.8	1.49e+00	0	43	104	425721856	69	22317
2026-01-18 07:21:05.42	4.56	6.28	-49.3	-64.8	3.8	1.49e+00	0	43	104	425721856	69	22326
2026-01-18 07:21:06.69	4.39	6.23	-49.3	-64.8	3.8	1.49e+00	0	43	104	425721856	69	22304
2026-01-18 07:21:07.42	4.29	6.20	-49.3	-64.8	3.8	1.49e+00	0	43	104	425721856	69	22292
2026-01-18 07:21:08.69	4.12	6.15	-49.3	-64.7	3.8	1.49e+00	0	43	104	425721856	69	22221
2026-01-18 07:21:09.42	4.02	6.12	-49.3	-64.8	3.8	1.49e+00	0	43	104	425721856	69	22349
2026-01-18 07:21:10.70	3.85	6.07	-49.3	-64.8	3.8	1.49e+00	0	43	104	425721856	69	22278
2026-01-18 07:21:11.41	3.76	6.04	-49.3	-64.8	3.8	1.49e+00	0	43	104	425721856	69	22303
2026-01-18 07:21:12.68	3.59	5.99	-49.3	-64.8	3.8	1.49e+00	0	43	104	425721856	69	22310
2026-01-18 07:21:13.42	3.49	5.97	-49.3	-64.8	3.8	1.49e+00	0	43	104	425721856	69	22269
2026-01-18 07:21:14.70	3.32	5.92	-49.3	-64.8	3.8	1.49e+00	0	43	104	425721856	69	22268
2026-01-18 07:21:15.41	3.23	5.89	-49.3	-64.7	3.8	1.49e+00	0	43	104	425721856	69	22207
2026-01-18 07:21:16.69	3.06	5.84	-49.3	-64.7	3.8	1.49e+00	0	43	104	425721856	69	22242
2026-01-18 07:21:17.40	2.97	5.81	-49.3	-64.8	3.8	1.49e+00	0	43	104	425721856	69	22279
2026-01-18 07:21:18.67	2.80	5.76	-49.3	-64.7	3.8	1.49e+00	0	43	104	425721856	69	22237
2026-01-18 07:21:19.40	2.71	5.73	-49.3	-64.7	3.8	1.49e+00	0	43	104	425721856	69	22227
2026-01-18 07:21:20.68	2.54	5.68	-49.3	-64.7	3.8	1.49e+00	0	43	104	425721856	69	22155
2026-01-18 07:21:21.38	2.45	5.65	-49.2	-64.7	3.8	1.49e+00	0	43	104	425721856	69	22124
2026-01-18 07:21:22.68	2.28	5.60	-49.2	-64.7	3.8	1.49e+00	0	43	104	425721856	69	22051
2026-01-18 07:21:23.39	2.19	5.57	-49.2	-64.7	3.8	1.49e+00	0	43	104	425721856	69	22165
2026-01-18 07:21:24.66	2.03	5.52	-49.2	-64.7	3.8	1.49e+00	0	43	104	425721856	69	22045
2026-01-18 07:21:25.37	1.94	5.49	-49.2	-64.6	3.8	1.49e+00	0	43	104	425721856	69	21992
2026-01-18 07:21:26.65	1.78	5.44	-49.2	-64.6	3.8	1.49e+00	0	43	104	425721856	69	21979
2026-01-18 07:21:27.37	1.69	5.41	-49.2	-64.6	3.8	1.49e+00	0	43	104	425721856	69	21980
2026-01-18 07:21:28.65	1.52	5.36	-49.2	-64.6	3.8	1.49e+00	0	43	104	425721856	69	21980
2026-01-18 07:21:29.36	1.43	5.33	-49.2	-64.6	3.8	1.49e+00	0	43	104	425721856	69	21992
2026-01-18 07:21:30.64	1.27	5.28	-49.2	-64.6	3.8	1.49e+00	0	43	104	425721856	69	21955
2026-01-18 07:21:31.36	1.18	5.25	-49.2	-64.6	3.8	1.49e+00	0	43	104	425721856	69	21931
2026-01-18 07:21:32.64	1.02	5.20	-49.2	-64.6	3.8	1.49e+00	0	43	104	425721856	69	21929
2026-01-18 07:21:33.35	0.93	5.17	-49.2	-64.6	3.8	1.49e+00	0	43	104	425721856	69	21953
2026-01-18 07:21:34.64	0.77	5.12	-49.1	-64.7	3.8	1.49e+00	0	43	104	425721856	69	22038
2026-01-18 07:21:35.35	0.68	5.09	-49.2	-64.6	3.8	1.49e+00	0	43	104	425721856	69	21923
2026-01-18 07:21:36.62	0.53	5.04	-49.2	-64.6	3.8	1.49e+00	0	43	104	425721856	69	21967
2026-01-18 07:21:37.33	0.44	5.01	-49.2	-64.6	3.8	1.49e+00	0	43	104	425721856	69	21863
2026-01-18 07:21:38.61	0.28	4.96	-49.2	-64.6	3.8	1.49e+00	0	43	104	425721856	69	21950

#Closed at: 2026-01-18 07:21:39
#Recorded file [425 MB]: D:/Data/31040_260118_101414.dat