passes_logs/2026/01/18/T1/T1__20260118_024100_AQUA_rec.log

#Pass ID: 20260118_024100_AQUA
#Satellite: AQUA
#Configuration: AQUA
#almurnet v.1.7.20251203
#Start time: 2026-01-18 02:41:02

#Version: 2.0.20230620
#Station: T1
#Location: 37.570604 lon 55.790049 lat
#TLE: 1 27424U 02022A   26017.29152041  .00000842  00000+0  17841-3 0  9992
#TLE: 2 27424  98.4085 343.7574 0002011  75.4099  30.6811 14.61825797261228

#Time	Az	El	Level	Level2	SNR	BER	BlckErr	Temp	State	Recorded	gain1	gain2
2026-01-18 02:41:02.95	4.75	5.15	-48.4	-70.0	3.8	7.46e-01	0	36	0	0	68	43098
2026-01-18 02:41:03.94	4.68	5.21	-48.0	-69.4	3.8	7.44e-01	0	36	104	0	66	45278
2026-01-18 02:41:04.93	4.59	5.28	-48.0	-69.4	3.8	7.45e-01	0	37	104	0	66	45091
2026-01-18 02:41:05.93	4.51	5.35	-48.0	-69.4	3.8	7.44e-01	0	36	104	0	66	45405
2026-01-18 02:41:06.92	4.43	5.41	-48.0	-69.6	3.8	7.49e-01	0	36	104	0	66	46053
2026-01-18 02:41:07.91	4.35	5.48	-48.0	-69.5	3.8	7.42e-01	0	36	104	0	66	45859
2026-01-18 02:41:08.91	4.27	5.55	-48.0	-69.6	3.8	7.45e-01	0	36	104	0	66	46201
2026-01-18 02:41:09.90	4.19	5.61	-48.0	-69.6	3.8	7.45e-01	0	36	104	0	66	46455
2026-01-18 02:41:10.89	4.10	5.68	-48.0	-69.7	3.8	7.48e-01	0	37	104	0	66	46902
2026-01-18 02:41:11.89	4.02	5.75	-48.0	-69.7	3.8	7.46e-01	0	36	104	0	66	46901
2026-01-18 02:41:12.88	3.94	5.81	-48.0	-69.8	3.8	7.45e-01	0	36	104	0	66	47340
2026-01-18 02:41:13.87	3.85	5.88	-48.0	-69.8	3.8	7.45e-01	0	37	104	0	66	47458
2026-01-18 02:41:14.87	3.77	5.95	-48.0	-69.9	3.8	7.46e-01	0	37	104	0	66	47628
2026-01-18 02:41:15.86	3.68	6.02	-48.0	-69.9	3.8	7.46e-01	0	37	104	0	66	47704
2026-01-18 02:41:16.85	3.60	6.08	-48.0	-69.9	3.8	7.45e-01	0	37	104	0	66	47978
2026-01-18 02:41:17.85	3.51	6.15	-48.0	-69.9	3.8	7.47e-01	0	37	104	0	66	48016
2026-01-18 02:41:18.84	3.42	6.22	-48.0	-69.9	3.8	7.50e-01	0	37	104	0	66	47807
2026-01-18 02:41:19.83	3.34	6.29	-48.0	-69.8	3.8	7.44e-01	0	37	104	0	66	47452
2026-01-18 02:41:20.83	3.25	6.35	-48.0	-69.8	3.8	7.45e-01	0	37	104	0	66	47103
2026-01-18 02:41:21.82	3.16	6.42	-48.0	-69.7	3.8	7.47e-01	0	37	104	0	66	46598
2026-01-18 02:41:22.81	3.07	6.49	-48.0	-69.6	3.8	7.45e-01	0	37	104	0	66	46481
2026-01-18 02:41:23.80	2.98	6.56	-48.0	-69.6	3.8	7.47e-01	0	37	104	0	66	46084
2026-01-18 02:41:24.80	2.89	6.63	-48.0	-69.6	3.8	7.47e-01	0	37	104	0	66	46247
2026-01-18 02:41:25.79	2.80	6.70	-48.0	-69.7	3.8	7.47e-01	0	37	104	0	66	46760
2026-01-18 02:41:26.78	2.71	6.77	-48.0	-69.7	3.8	7.42e-01	0	37	104	0	66	46726
2026-01-18 02:41:27.78	2.62	6.84	-48.1	-69.6	3.8	7.49e-01	0	37	104	0	66	46474
2026-01-18 02:41:28.77	2.53	6.91	-48.0	-69.6	3.8	7.44e-01	0	37	104	0	66	46310
2026-01-18 02:41:29.77	2.44	6.97	-48.0	-69.5	3.8	7.45e-01	0	37	104	0	66	45971
2026-01-18 02:41:30.76	2.34	7.04	-48.0	-69.5	3.8	7.44e-01	0	37	104	0	66	45755
2026-01-18 02:41:31.75	2.25	7.11	-48.0	-69.5	3.8	7.49e-01	0	37	104	0	66	45540
2026-01-18 02:41:32.75	2.16	7.18	-48.1	-69.4	3.8	7.47e-01	0	37	104	0	66	45364
2026-01-18 02:41:33.74	2.06	7.25	-48.0	-69.5	3.8	7.44e-01	0	37	104	0	66	45666
2026-01-18 02:41:34.73	1.97	7.32	-48.1	-69.5	3.8	7.47e-01	0	37	104	0	66	45949
2026-01-18 02:41:35.73	1.87	7.39	-48.0	-69.4	3.8	7.45e-01	0	37	104	0	66	45357
2026-01-18 02:41:36.72	1.78	7.46	-48.0	-69.1	3.8	7.44e-01	0	37	104	0	66	43880
2026-01-18 02:41:37.71	1.68	7.54	-48.0	-68.6	3.8	7.42e-01	0	37	104	0	66	41370
2026-01-18 02:41:38.71	1.59	7.61	-48.0	-67.9	3.9	7.41e-01	0	37	104	0	66	37882
2026-01-18 02:41:39.70	1.49	7.68	-47.9	-66.6	4.2	7.32e-01	0	37	104	0	66	32637
2026-01-18 02:41:40.69	1.39	7.75	-47.9	-65.7	4.4	7.27e-01	0	37	104	0	66	29433
2026-01-18 02:41:41.69	1.29	7.82	-47.9	-65.9	3.9	7.40e-01	0	37	104	0	66	30240
2026-01-18 02:41:42.68	1.20	7.89	-47.9	-66.0	4.3	7.44e-01	0	37	104	0	66	30494
2026-01-18 02:41:43.67	1.10	7.96	-48.0	-65.9	4.4	7.27e-01	0	37	104	0	66	30261
2026-01-18 02:41:44.66	1.00	8.03	-48.0	-67.0	4.0	7.36e-01	0	37	104	0	66	34092
2026-01-18 02:41:45.66	0.90	8.11	-48.0	-68.1	3.9	7.44e-01	0	37	104	0	66	38764
2026-01-18 02:41:46.65	0.80	8.18	-48.0	-68.3	3.9	7.43e-01	0	37	104	0	66	39595
2026-01-18 02:41:47.65	0.69	8.25	-47.9	-67.0	3.9	7.42e-01	0	38	104	0	66	34280
2026-01-18 02:41:48.64	0.59	8.32	-47.9	-64.4	5.0	7.09e-01	0	37	0	0	66	25383
2026-01-18 02:41:49.63	0.49	8.39	-47.7	-61.3	7.4	6.52e-01	0	38	0	1048576	66	17690
2026-01-18 02:41:50.62	0.39	8.47	-47.4	-58.3	10.5	6.19e-01	0	38	0	3145728	66	12573
2026-01-18 02:41:51.62	0.28	8.54	-46.9	-55.2	13.6	6.05e-01	0	38	0	4718592	65	9311
2026-01-18 02:41:52.61	0.18	8.61	-46.3	-52.8	16.1	6.05e-01	0	38	0	6815744	64	7538
2026-01-18 02:41:53.60	0.07	8.68	-45.6	-50.8	18.2	6.04e-01	0	38	0	8388608	63	6332
2026-01-18 02:41:54.60	359.97	8.76	-44.8	-49.3	19.7	6.00e-01	0	38	0	10485760	61	5965
2026-01-18 02:41:55.59	359.86	8.83	-44.1	-48.1	20.9	6.01e-01	0	38	0	12058624	60	5479
2026-01-18 02:41:56.58	359.76	8.90	-43.9	-47.6	21.4	6.04e-01	0	38	0	14155776	59	5511
2026-01-18 02:41:57.58	359.65	8.98	-43.8	-47.5	21.6	6.03e-01	0	38	0	15728640	59	5412
2026-01-18 02:41:58.57	359.54	9.05	-44.4	-48.4	20.9	6.02e-01	0	38	0	17825792	59	6035
2026-01-18 02:41:59.56	359.43	9.13	-44.4	-48.2	20.8	6.04e-01	0	38	0	19922944	60	5581
2026-01-18 02:42:00.56	359.32	9.20	-44.1	-47.7	21.6	6.01e-01	0	38	0	21495808	59	5559
2026-01-18 02:42:01.55	359.21	9.27	-46.5	-53.0	16.7	6.04e-01	0	38	0	23592960	63	8101
2026-01-18 02:42:02.55	359.10	9.35	-44.0	-47.5	20.6	6.05e-01	0	38	0	25165824	59	5420
2026-01-18 02:42:03.54	358.99	9.42	-42.3	-45.2	23.7	6.04e-01	0	38	0	27262976	56	4936
2026-01-18 02:42:04.54	358.88	9.50	-42.4	-45.2	23.8	6.02e-01	0	38	0	28835840	56	4973
2026-01-18 02:42:05.53	358.77	9.57	-42.2	-45.0	24.0	6.03e-01	0	38	0	30932992	56	4816
2026-01-18 02:42:06.53	358.65	9.65	-42.1	-45.0	24.0	6.03e-01	0	37	0	32505856	56	4826
2026-01-18 02:42:07.52	358.54	9.72	-42.1	-44.9	24.1	6.03e-01	0	38	0	34603008	56	4803
2026-01-18 02:42:08.52	358.42	9.80	-42.3	-45.0	24.0	6.04e-01	0	38	0	36700160	56	4857
2026-01-18 02:42:09.51	358.31	9.87	-42.0	-44.8	24.2	6.02e-01	0	38	0	38273024	56	4750
2026-01-18 02:42:10.51	358.19	9.95	-41.9	-44.9	24.0	6.05e-01	0	38	0	40370176	55	5075
2026-01-18 02:42:11.50	358.08	10.03	-41.6	-44.8	24.2	6.03e-01	0	38	0	41943040	55	4991
2026-01-18 02:42:12.49	357.96	10.10	-41.6	-44.7	24.3	6.04e-01	0	38	0	44040192	55	4945
2026-01-18 02:42:13.49	357.84	10.18	-41.8	-44.8	24.1	6.03e-01	0	38	0	45613056	55	5034
2026-01-18 02:42:14.49	357.72	10.25	-41.6	-44.6	24.4	6.04e-01	0	38	0	47710208	55	4901
2026-01-18 02:42:15.48	357.61	10.33	-41.6	-44.5	24.4	6.03e-01	0	38	0	49283072	55	4864
2026-01-18 02:42:16.47	357.49	10.41	-41.5	-44.6	24.3	6.02e-01	0	38	0	51380224	55	4917
2026-01-18 02:42:17.47	357.36	10.48	-41.5	-44.5	24.5	6.01e-01	0	38	0	53477376	54	5134
2026-01-18 02:42:18.47	357.24	10.56	-41.5	-44.5	24.4	6.04e-01	0	38	0	55050240	54	5142
2026-01-18 02:42:19.46	357.12	10.64	-41.4	-44.5	24.5	6.04e-01	0	38	0	57147392	54	5118
2026-01-18 02:42:20.45	357.00	10.71	-41.4	-44.6	24.4	6.03e-01	0	38	0	58720256	54	5177
2026-01-18 02:42:21.45	356.88	10.79	-41.4	-44.5	24.5	6.04e-01	0	38	0	60817408	54	5110
2026-01-18 02:42:22.45	356.75	10.87	-41.4	-44.7	24.3	6.05e-01	0	38	0	62390272	54	5223
2026-01-18 02:42:23.44	356.63	10.95	-41.5	-44.6	24.4	6.04e-01	0	38	0	64487424	54	5200
2026-01-18 02:42:24.44	356.50	11.02	-41.4	-44.5	24.4	6.04e-01	0	38	0	66060288	54	5146
2026-01-18 02:42:25.44	356.37	11.10	-41.3	-44.5	24.4	6.02e-01	0	38	0	68157440	54	5157
2026-01-18 02:42:26.43	356.25	11.18	-41.3	-44.5	24.4	6.04e-01	0	38	0	70254592	54	5157
2026-01-18 02:42:27.42	356.12	11.26	-41.2	-44.3	24.6	6.03e-01	0	38	0	71827456	54	5038
2026-01-18 02:42:28.42	355.99	11.34	-41.2	-44.4	24.6	6.03e-01	0	38	0	73924608	54	5051
2026-01-18 02:42:29.42	355.86	11.42	-41.2	-44.5	24.5	6.05e-01	0	38	0	75497472	54	5103
2026-01-18 02:42:30.41	355.73	11.49	-41.2	-44.4	24.6	6.03e-01	0	38	0	77594624	54	5075
2026-01-18 02:42:31.40	355.60	11.57	-41.2	-44.5	24.5	6.04e-01	0	38	0	79167488	54	5112
2026-01-18 02:42:32.40	355.47	11.65	-41.2	-44.4	24.6	6.03e-01	0	38	0	81264640	54	5066
2026-01-18 02:42:33.41	355.33	11.73	-41.2	-44.4	24.5	6.03e-01	0	38	0	83361792	54	5056
2026-01-18 02:42:34.47	355.19	11.82	-41.2	-44.4	24.6	6.02e-01	0	38	0	84934656	54	5089
2026-01-18 02:42:35.32	355.08	11.88	-41.1	-44.3	24.7	6.03e-01	0	38	0	86507520	54	5006
2026-01-18 02:42:36.46	354.92	11.97	-41.2	-44.5	24.5	6.05e-01	0	38	0	89128960	54	5111
2026-01-18 02:42:37.31	354.81	12.04	-40.9	-44.1	24.8	6.04e-01	0	38	0	90701824	53	5212
2026-01-18 02:42:38.45	354.65	12.13	-40.9	-44.1	24.9	6.04e-01	0	38	0	92798976	53	5208
2026-01-18 02:42:39.31	354.53	12.20	-40.9	-44.1	24.9	6.03e-01	0	38	0	94371840	53	5215
2026-01-18 02:42:40.44	354.37	12.29	-40.8	-44.1	24.9	6.03e-01	0	38	0	96468992	53	5207
2026-01-18 02:42:41.29	354.26	12.36	-40.8	-44.1	24.9	6.03e-01	0	38	0	98041856	53	5181
2026-01-18 02:42:42.43	354.10	12.45	-40.7	-44.0	25.0	6.02e-01	0	38	0	100139008	53	5151
2026-01-18 02:42:43.28	353.98	12.52	-40.8	-44.1	24.9	6.02e-01	0	38	0	101711872	53	5215
2026-01-18 02:42:44.42	353.81	12.61	-40.7	-44.1	24.9	6.04e-01	0	38	0	103809024	53	5162
2026-01-18 02:42:45.27	353.69	12.68	-40.6	-44.0	25.0	6.02e-01	0	38	0	105381888	53	5101
2026-01-18 02:42:46.44	353.52	12.78	-40.8	-44.2	24.8	6.03e-01	0	38	0	107479040	53	5226
2026-01-18 02:42:47.30	353.40	12.85	-40.9	-44.3	24.8	6.05e-01	0	38	0	109051904	53	5314
2026-01-18 02:42:48.51	353.22	12.95	-41.0	-44.3	24.8	6.01e-01	0	38	0	111673344	53	5294
2026-01-18 02:42:49.37	353.10	13.02	-40.8	-44.1	24.9	6.03e-01	0	38	0	113246208	53	5192
2026-01-18 02:42:50.58	352.92	13.12	-40.8	-44.1	24.9	6.04e-01	0	38	0	115343360	53	5181
2026-01-18 02:42:51.44	352.79	13.19	-40.9	-44.0	25.0	6.04e-01	0	38	0	116916224	53	5146
2026-01-18 02:42:52.58	352.62	13.28	-41.1	-44.1	24.9	6.02e-01	0	38	0	119013376	53	5211
2026-01-18 02:42:53.43	352.49	13.35	-41.4	-44.2	24.8	6.06e-01	0	38	0	120586240	53	5239
2026-01-18 02:42:54.56	352.32	13.44	-41.5	-44.1	25.0	6.03e-01	0	38	0	122683392	53	5182
2026-01-18 02:42:55.42	352.19	13.51	-41.6	-44.1	24.7	6.06e-01	0	38	0	124256256	53	5205
2026-01-18 02:42:56.56	352.02	13.61	-41.5	-44.0	25.0	6.04e-01	0	38	0	126353408	53	5150
2026-01-18 02:42:57.41	351.88	13.68	-41.4	-44.0	25.0	6.01e-01	0	38	0	127926272	53	5129
2026-01-18 02:42:58.55	351.71	13.77	-41.5	-44.1	25.0	6.03e-01	0	38	0	130023424	53	5199
2026-01-18 02:42:59.40	351.57	13.84	-41.4	-44.1	25.0	6.04e-01	0	38	0	131596288	53	5163
2026-01-18 02:43:00.53	351.40	13.93	-41.3	-43.9	25.2	6.03e-01	0	38	0	134217728	53	5079
2026-01-18 02:43:01.39	351.26	14.01	-41.4	-44.0	25.0	6.04e-01	0	39	0	135790592	53	5142
2026-01-18 02:43:02.53	351.08	14.10	-41.4	-44.0	25.1	6.04e-01	0	38	0	137887744	53	5104
2026-01-18 02:43:03.38	350.95	14.17	-41.3	-43.8	25.2	6.03e-01	0	38	0	139460608	53	5020
2026-01-18 02:43:04.51	350.76	14.27	-41.3	-43.9	25.2	6.02e-01	0	38	0	141557760	53	5055
2026-01-18 02:43:05.36	350.63	14.34	-41.3	-43.9	25.2	6.02e-01	0	38	0	143130624	53	5082
2026-01-18 02:43:06.55	350.43	14.44	-41.2	-43.8	25.2	6.01e-01	0	38	0	145227776	53	5038
2026-01-18 02:43:07.40	350.29	14.51	-41.0	-43.7	25.3	6.04e-01	0	38	0	146800640	53	4965
2026-01-18 02:43:08.54	350.11	14.60	-41.0	-43.7	25.3	6.01e-01	0	38	0	148897792	53	4978
2026-01-18 02:43:09.39	349.96	14.67	-41.0	-43.8	25.3	6.02e-01	0	38	0	150470656	53	4991
2026-01-18 02:43:10.53	349.77	14.77	-41.2	-43.9	25.3	6.05e-01	0	38	0	152567808	53	5047
2026-01-18 02:43:11.38	349.63	14.84	-41.3	-43.9	25.1	6.02e-01	0	38	0	154140672	53	5084
2026-01-18 02:43:12.52	349.44	14.94	-41.4	-43.8	25.2	6.03e-01	0	38	0	156237824	53	5041
2026-01-18 02:43:13.37	349.29	15.01	-41.3	-43.7	25.3	6.02e-01	0	38	0	158334976	53	4974
2026-01-18 02:43:14.51	349.10	15.10	-41.3	-43.8	25.3	6.02e-01	0	38	0	160432128	53	4996
2026-01-18 02:43:15.36	348.95	15.18	-41.3	-43.8	25.3	6.03e-01	0	38	0	162004992	53	5033
2026-01-18 02:43:16.50	348.76	15.27	-41.2	-43.7	25.4	6.04e-01	0	38	0	164102144	53	4957
2026-01-18 02:43:17.35	348.61	15.34	-41.2	-43.7	25.4	6.02e-01	0	38	0	165675008	53	4938
2026-01-18 02:43:18.49	348.41	15.44	-41.2	-43.8	25.3	6.04e-01	0	38	0	167772160	53	4986
2026-01-18 02:43:19.34	348.26	15.51	-41.2	-43.8	25.4	6.03e-01	0	38	0	169345024	53	4991
2026-01-18 02:43:20.48	348.06	15.61	-41.0	-43.6	25.5	6.05e-01	0	38	0	171442176	53	4919
2026-01-18 02:43:21.33	347.91	15.68	-41.0	-43.7	25.4	6.03e-01	0	38	0	173015040	53	4935
2026-01-18 02:43:22.47	347.70	15.78	-41.0	-43.7	25.4	6.04e-01	0	38	0	175112192	53	4969
2026-01-18 02:43:23.32	347.55	15.85	-41.0	-43.7	25.4	6.01e-01	0	38	0	176685056	53	4955
2026-01-18 02:43:24.46	347.34	15.94	-41.1	-43.7	25.4	6.03e-01	0	38	0	178782208	53	4979
2026-01-18 02:43:25.31	347.19	16.02	-41.0	-43.7	25.5	6.04e-01	0	38	0	180355072	53	4942
2026-01-18 02:43:26.50	346.97	16.12	-41.0	-43.6	25.5	6.03e-01	0	39	0	182452224	53	4881
2026-01-18 02:43:27.35	346.81	16.19	-41.1	-43.7	25.4	6.02e-01	0	38	0	184025088	53	4971
2026-01-18 02:43:28.49	346.60	16.29	-41.1	-43.7	25.5	6.02e-01	0	38	0	186646528	53	4930
2026-01-18 02:43:29.34	346.44	16.36	-41.1	-43.7	25.4	6.01e-01	0	39	0	188219392	53	4938
2026-01-18 02:43:30.48	346.22	16.46	-41.0	-43.6	25.5	6.03e-01	0	38	0	190316544	53	4896
2026-01-18 02:43:31.33	346.06	16.53	-40.8	-43.5	25.6	6.05e-01	0	38	0	191889408	53	4869
2026-01-18 02:43:32.64	345.81	16.64	-40.7	-43.6	25.5	6.02e-01	0	38	0	193986560	53	4920
2026-01-18 02:43:33.35	345.67	16.70	-40.5	-43.6	25.5	6.01e-01	0	38	0	195559424	53	4888
2026-01-18 02:43:34.84	345.39	16.83	-40.5	-43.6	25.5	6.03e-01	0	38	0	198180864	53	4913
2026-01-18 02:43:35.55	345.25	16.89	-40.7	-43.6	25.4	6.04e-01	0	38	0	199753728	53	4926
2026-01-18 02:43:36.83	345.00	17.00	-40.8	-43.5	25.6	6.01e-01	0	38	0	201850880	53	4863
2026-01-18 02:43:37.56	344.85	17.06	-41.0	-43.6	25.5	6.05e-01	0	38	0	203423744	53	4904
2026-01-18 02:43:38.84	344.60	17.17	-41.1	-43.7	25.5	6.02e-01	0	38	0	206045184	53	4935
2026-01-18 02:43:39.59	344.45	17.23	-41.3	-43.8	25.4	6.01e-01	0	38	0	207093760	53	5004
2026-01-18 02:43:41.05	344.16	17.36	-41.4	-43.9	25.3	6.04e-01	0	39	0	209715200	53	5074
2026-01-18 02:43:41.75	344.02	17.41	-41.5	-44.0	25.1	6.04e-01	0	39	0	211288064	53	5159
2026-01-18 02:43:43.11	343.74	17.53	-41.2	-43.9	25.2	6.03e-01	0	38	0	213909504	53	5081
2026-01-18 02:43:43.82	343.59	17.59	-41.1	-43.8	25.2	6.04e-01	0	38	0	214958080	53	5015
2026-01-18 02:43:45.17	343.31	17.71	-41.0	-43.7	25.4	6.02e-01	0	39	0	217579520	53	4978
2026-01-18 02:43:46.14	343.11	17.79	-41.0	-43.6	25.5	6.05e-01	0	38	0	219676672	53	4916
2026-01-18 02:43:47.45	342.84	17.90	-41.1	-43.5	25.6	6.04e-01	0	38	0	221773824	53	4853
2026-01-18 02:43:48.20	342.68	17.96	-41.2	-43.6	25.5	6.03e-01	0	39	0	223346688	53	4920
2026-01-18 02:43:49.47	342.41	18.07	-41.2	-43.6	25.6	6.02e-01	0	38	0	225968128	53	4873
2026-01-18 02:43:50.25	342.25	18.14	-41.1	-43.5	25.6	6.05e-01	0	39	0	227016704	53	4861
2026-01-18 02:43:51.53	341.97	18.24	-41.1	-43.6	25.5	6.03e-01	0	39	0	229638144	53	4903
2026-01-18 02:43:52.27	341.81	18.31	-41.0	-43.6	25.6	6.03e-01	0	38	0	231211008	53	4907
2026-01-18 02:43:53.55	341.54	18.41	-41.0	-43.6	25.5	6.05e-01	0	39	0	233308160	53	4919
2026-01-18 02:43:54.26	341.38	18.47	-41.0	-43.6	25.6	6.04e-01	0	38	0	234881024	53	4880
2026-01-18 02:43:55.54	341.10	18.58	-41.2	-43.7	25.4	6.03e-01	0	39	0	236978176	53	4950
2026-01-18 02:43:56.26	340.94	18.64	-41.4	-43.8	25.3	6.03e-01	0	39	0	238551040	53	4997
2026-01-18 02:43:57.54	340.66	18.75	-41.4	-43.7	25.5	6.04e-01	0	38	0	240648192	53	4954
2026-01-18 02:43:58.26	340.50	18.81	-41.3	-43.6	25.4	6.05e-01	0	39	0	242221056	53	4919
2026-01-18 02:43:59.58	340.20	18.92	-41.3	-43.8	25.4	6.03e-01	0	39	0	244842496	53	4994
2026-01-18 02:44:00.32	340.03	18.98	-41.3	-43.9	25.3	6.02e-01	0	39	0	245891072	53	5059
2026-01-18 02:44:01.63	339.74	19.09	-41.2	-43.8	25.3	6.03e-01	0	39	0	248512512	53	5007
2026-01-18 02:44:02.34	339.57	19.15	-41.1	-43.7	25.4	6.03e-01	0	39	0	250085376	53	4976
2026-01-18 02:44:03.62	339.28	19.26	-41.0	-43.8	25.4	6.06e-01	0	39	0	252182528	53	4994
2026-01-18 02:44:04.68	339.03	19.35	-41.2	-43.8	25.3	6.01e-01	0	39	0	254279680	53	5037
2026-01-18 02:44:05.86	338.76	19.44	-41.3	-43.8	25.0	6.04e-01	0	39	0	256376832	53	5035
2026-01-18 02:44:06.71	338.56	19.51	-41.3	-43.8	25.4	6.03e-01	0	39	0	257949696	53	4994
2026-01-18 02:44:07.85	338.29	19.61	-41.3	-43.7	25.5	6.01e-01	0	38	0	260046848	53	4967
2026-01-18 02:44:08.71	338.09	19.68	-41.3	-43.8	25.3	6.03e-01	0	39	0	261619712	53	4993
2026-01-18 02:44:09.84	337.82	19.77	-41.1	-43.7	25.4	6.04e-01	0	39	0	263716864	53	4964
2026-01-18 02:44:10.70	337.61	19.84	-41.1	-43.8	25.3	6.04e-01	0	39	0	265289728	53	5020
2026-01-18 02:44:11.84	337.34	19.93	-40.8	-43.8	25.4	6.05e-01	0	39	0	267911168	53	5001
2026-01-18 02:44:12.69	337.13	20.00	-40.9	-43.9	25.3	6.04e-01	0	38	0	269484032	53	5082
2026-01-18 02:44:13.87	336.84	20.10	-40.9	-43.9	25.3	6.01e-01	0	39	0	271581184	53	5047
2026-01-18 02:44:14.72	336.63	20.17	-40.9	-43.7	25.4	6.03e-01	0	39	0	273154048	53	4975
2026-01-18 02:44:15.86	336.35	20.26	-41.1	-43.7	25.4	6.03e-01	0	39	0	275251200	53	4954
2026-01-18 02:44:16.71	336.14	20.33	-41.2	-43.8	25.4	6.04e-01	0	39	0	276824064	53	5021
2026-01-18 02:44:17.99	335.82	20.43	-41.2	-43.9	25.3	6.03e-01	0	39	0	279445504	53	5066
2026-01-18 02:44:18.72	335.64	20.49	-41.2	-44.0	25.2	6.03e-01	0	39	0	280494080	53	5110
2026-01-18 02:44:20.00	335.31	20.59	-41.1	-43.9	25.3	6.00e-01	0	38	0	283115520	53	5097
2026-01-18 02:44:20.71	335.13	20.65	-41.0	-43.9	25.3	6.02e-01	0	39	0	284164096	53	5053
2026-01-18 02:44:22.24	334.74	20.77	-41.2	-43.9	25.3	6.04e-01	0	39	0	287309824	53	5082
2026-01-18 02:44:22.95	334.56	20.82	-41.2	-43.9	25.3	6.05e-01	0	38	0	288358400	53	5058
2026-01-18 02:44:24.23	334.23	20.92	-41.3	-43.9	25.3	6.03e-01	0	39	0	290979840	53	5056
2026-01-18 02:44:24.94	334.04	20.98	-41.4	-43.9	25.3	6.02e-01	0	39	0	292028416	53	5070
2026-01-18 02:44:26.22	333.71	21.08	-41.5	-44.0	25.3	6.05e-01	0	39	0	294649856	53	5109
2026-01-18 02:44:26.93	333.52	21.13	-41.5	-43.9	25.3	6.02e-01	0	39	0	296222720	53	5095
2026-01-18 02:44:28.21	333.19	21.23	-41.5	-43.9	25.3	6.03e-01	0	39	0	298319872	53	5061
2026-01-18 02:44:28.94	332.99	21.29	-41.5	-43.9	25.3	6.02e-01	0	39	0	299892736	53	5076
2026-01-18 02:44:30.22	332.65	21.39	-41.5	-44.0	25.2	6.01e-01	0	39	0	301989888	53	5126
2026-01-18 02:44:30.93	332.46	21.44	-41.4	-44.0	25.2	6.02e-01	0	39	0	303562752	53	5145
2026-01-18 02:44:32.21	332.11	21.54	-41.2	-43.9	25.4	6.03e-01	0	39	0	306184192	53	5051
2026-01-18 02:44:32.94	331.92	21.59	-41.2	-43.9	25.3	6.04e-01	0	39	0	307232768	53	5057
2026-01-18 02:44:34.21	331.57	21.69	-41.3	-44.0	25.2	6.01e-01	0	39	0	309854208	53	5131
2026-01-18 02:44:34.93	331.37	21.74	-41.3	-44.0	25.2	6.05e-01	0	39	0	310902784	53	5128
2026-01-18 02:44:36.20	331.02	21.83	-41.4	-44.1	25.2	6.04e-01	0	39	0	313524224	53	5196
2026-01-18 02:44:36.91	330.83	21.89	-41.4	-44.1	25.1	6.01e-01	0	39	0	314572800	53	5168
2026-01-18 02:44:38.19	330.47	21.98	-41.5	-44.1	25.1	6.03e-01	0	39	0	317194240	53	5178
2026-01-18 02:44:38.91	330.27	22.03	-41.6	-44.1	25.0	6.03e-01	0	39	0	318242816	53	5215
2026-01-18 02:44:40.19	329.91	22.12	-41.5	-43.9	25.2	6.05e-01	0	39	0	320864256	53	5100
2026-01-18 02:44:40.89	329.71	22.17	-41.4	-43.9	25.4	6.03e-01	0	39	0	321912832	53	5054
2026-01-18 02:44:42.25	329.33	22.27	-41.6	-44.0	25.2	6.02e-01	0	39	0	324534272	53	5158
2026-01-18 02:44:42.96	329.13	22.32	-41.7	-44.2	25.0	6.03e-01	0	38	0	326107136	54	4947
2026-01-18 02:44:44.24	328.76	22.41	-41.7	-44.2	25.1	6.04e-01	0	39	0	328204288	54	4929
2026-01-18 02:44:44.97	328.55	22.46	-41.8	-44.2	25.1	6.02e-01	0	39	0	329777152	54	4954
2026-01-18 02:44:46.25	328.18	22.55	-41.7	-44.1	25.1	6.03e-01	0	39	0	332398592	54	4913
2026-01-18 02:44:46.96	327.97	22.60	-41.6	-44.1	25.1	6.03e-01	0	39	0	333447168	54	4886
2026-01-18 02:44:48.24	327.60	22.68	-41.4	-44.0	25.2	6.03e-01	0	39	0	336068608	54	4843
2026-01-18 02:44:48.95	327.39	22.73	-41.4	-44.1	25.1	6.03e-01	0	38	0	337117184	54	4890
2026-01-18 02:44:50.23	327.02	22.81	-41.3	-44.1	25.1	6.04e-01	0	39	0	339738624	54	4926
2026-01-18 02:44:50.94	326.81	22.86	-41.3	-44.1	25.1	6.04e-01	0	39	0	340787200	54	4898
2026-01-18 02:44:52.22	326.43	22.95	-41.4	-44.2	25.0	6.03e-01	0	39	0	343408640	54	4958
2026-01-18 02:44:52.93	326.21	22.99	-41.4	-44.2	25.0	6.03e-01	0	39	0	344981504	54	4962
2026-01-18 02:44:54.21	325.83	23.07	-41.4	-44.1	25.2	6.04e-01	0	39	0	347078656	54	4884
2026-01-18 02:44:54.92	325.62	23.12	-41.4	-44.0	25.3	6.01e-01	0	39	0	348651520	54	4833
2026-01-18 02:44:56.20	325.23	23.20	-41.5	-44.1	25.1	6.02e-01	0	39	0	350748672	54	4890
2026-01-18 02:44:57.18	324.93	23.26	-41.6	-44.2	25.0	6.04e-01	0	39	0	352845824	54	4959
2026-01-18 02:44:58.48	324.54	23.34	-41.6	-44.2	25.1	6.01e-01	0	39	0	354942976	54	4937
2026-01-18 02:44:59.19	324.32	23.38	-41.6	-44.1	25.1	6.04e-01	0	39	0	356515840	54	4906
2026-01-18 02:45:00.46	323.93	23.46	-41.5	-44.1	25.2	6.03e-01	0	39	0	359137280	54	4899
2026-01-18 02:45:01.27	323.68	23.51	-41.5	-44.2	25.1	6.02e-01	0	39	0	360185856	54	4931
2026-01-18 02:45:02.68	323.24	23.59	-41.4	-44.1	25.2	6.01e-01	0	39	0	362807296	54	4890
2026-01-18 02:45:03.39	323.02	23.63	-41.4	-44.1	25.1	6.03e-01	0	39	0	364380160	54	4924
2026-01-18 02:45:04.66	322.62	23.70	-41.6	-44.2	25.0	6.04e-01	0	39	0	367001600	54	4963
2026-01-18 02:45:05.38	322.40	23.74	-41.5	-44.1	25.1	6.02e-01	0	39	0	368050176	54	4916
2026-01-18 02:45:06.66	321.99	23.81	-41.5	-44.1	25.2	6.03e-01	0	39	0	370671616	54	4908
2026-01-18 02:45:07.37	321.77	23.85	-41.7	-44.4	25.0	6.02e-01	0	39	0	371720192	54	5043
2026-01-18 02:45:08.66	321.36	23.92	-41.4	-44.1	25.2	6.01e-01	0	39	0	374341632	54	4914
2026-01-18 02:45:09.45	321.11	23.96	-41.3	-44.1	25.2	6.03e-01	0	39	0	375914496	54	4916
2026-01-18 02:45:10.62	320.73	24.02	-41.2	-44.0	24.5	6.03e-01	0	39	0	378011648	54	4845
2026-01-18 02:45:11.70	320.39	24.08	-41.5	-44.3	24.9	6.06e-01	0	39	0	380108800	54	5037
2026-01-18 02:45:12.71	320.06	24.13	-41.5	-44.3	25.0	6.03e-01	0	39	0	381681664	54	5000
2026-01-18 02:45:13.86	319.69	24.19	-41.7	-44.3	24.9	6.04e-01	0	39	0	383778816	54	5039
2026-01-18 02:45:14.74	319.40	24.23	-41.7	-44.4	24.9	6.03e-01	0	39	0	385351680	54	5061
2026-01-18 02:45:15.88	319.03	24.28	-41.7	-44.3	25.0	6.03e-01	0	39	0	387973120	54	5039
2026-01-18 02:45:16.81	318.73	24.33	-41.6	-44.3	25.0	6.01e-01	0	39	0	389545984	54	4994
2026-01-18 02:45:17.81	318.40	24.37	-41.7	-44.4	24.9	6.06e-01	0	39	0	391643136	54	5091
2026-01-18 02:45:18.80	318.07	24.42	-41.7	-44.5	24.9	6.04e-01	0	39	0	393216000	54	5103
2026-01-18 02:45:19.80	317.75	24.46	-41.6	-44.4	24.9	6.05e-01	0	39	0	395313152	54	5046
2026-01-18 02:45:20.80	317.41	24.50	-41.5	-44.1	25.1	6.04e-01	0	39	0	396886016	54	4917
2026-01-18 02:45:21.79	317.09	24.55	-41.6	-44.2	25.1	6.04e-01	0	39	0	398983168	54	4952
2026-01-18 02:45:22.78	316.76	24.59	-41.7	-44.2	25.0	6.02e-01	0	39	0	400556032	54	4971
2026-01-18 02:45:23.78	316.42	24.63	-41.9	-44.4	24.9	6.05e-01	0	39	0	402653184	54	5051
2026-01-18 02:45:24.78	316.09	24.67	-41.7	-44.2	25.1	6.02e-01	0	39	0	404226048	54	4953
2026-01-18 02:45:25.77	315.76	24.70	-41.6	-44.1	25.1	6.01e-01	0	39	0	406323200	54	4881
2026-01-18 02:45:26.76	315.43	24.74	-41.7	-44.1	25.2	6.03e-01	0	39	0	408420352	54	4917
2026-01-18 02:45:27.84	315.06	24.78	-41.7	-44.1	25.1	6.03e-01	0	39	0	409993216	54	4909
2026-01-18 02:45:28.72	314.77	24.81	-41.8	-44.4	24.9	6.04e-01	0	39	0	412090368	54	5049
2026-01-18 02:45:29.86	314.38	24.85	-41.6	-44.2	25.1	6.05e-01	0	39	0	414187520	54	4940
2026-01-18 02:45:30.79	314.06	24.88	-41.8	-44.5	24.8	6.03e-01	0	39	0	415760384	54	5150
2026-01-18 02:45:31.96	313.67	24.92	-41.6	-44.4	24.9	6.00e-01	0	39	0	417857536	54	5061
2026-01-18 02:45:32.84	313.37	24.95	-41.6	-44.4	24.9	6.02e-01	0	39	0	419430400	54	5072
2026-01-18 02:45:33.98	312.98	24.98	-41.8	-44.6	24.7	6.02e-01	0	39	0	421527552	54	5182
2026-01-18 02:45:34.83	312.69	25.01	-41.8	-44.5	24.8	6.02e-01	0	39	0	423100416	54	5150
2026-01-18 02:45:35.97	312.30	25.04	-41.9	-44.6	24.8	6.05e-01	0	39	0	425197568	54	5193
2026-01-18 02:45:36.82	312.00	25.06	-41.9	-44.5	24.8	6.04e-01	0	39	0	427294720	54	5140
2026-01-18 02:45:37.96	311.61	25.09	-42.1	-44.6	24.7	6.04e-01	0	39	0	429391872	54	5203
2026-01-18 02:45:38.81	311.32	25.11	-42.1	-44.6	24.7	6.04e-01	0	39	0	430964736	55	4919
2026-01-18 02:45:39.95	310.93	25.14	-42.1	-44.7	24.7	6.03e-01	0	39	0	433061888	55	4927
2026-01-18 02:45:40.80	310.63	25.16	-42.2	-44.7	24.7	6.02e-01	0	39	0	434634752	55	4945
2026-01-18 02:45:41.94	310.24	25.19	-42.3	-44.8	24.1	6.03e-01	0	39	0	436731904	55	5038
2026-01-18 02:45:42.79	309.94	25.20	-41.8	-44.2	25.1	6.03e-01	0	39	0	438304768	55	4688
2026-01-18 02:45:43.93	309.55	25.23	-41.8	-44.3	24.9	6.04e-01	0	39	0	440401920	55	4724
2026-01-18 02:45:44.78	309.25	25.24	-41.8	-44.3	25.0	6.04e-01	0	39	0	441974784	55	4736
2026-01-18 02:45:45.92	308.85	25.26	-41.7	-44.1	25.2	6.04e-01	0	39	0	444071936	55	4632
2026-01-18 02:45:46.77	308.56	25.28	-42.0	-44.5	24.8	6.01e-01	0	39	0	445644800	55	4825
2026-01-18 02:45:48.09	308.10	25.30	-41.8	-44.2	25.1	6.04e-01	0	39	0	448266240	55	4686
2026-01-18 02:45:48.81	307.85	25.31	-41.9	-44.3	25.0	6.04e-01	0	39	0	449314816	55	4745
2026-01-18 02:45:50.09	307.40	25.32	-42.1	-44.5	24.8	6.02e-01	0	39	0	451936256	55	4869
2026-01-18 02:45:50.81	307.15	25.33	-41.9	-44.3	25.0	6.03e-01	0	39	0	453509120	55	4733
2026-01-18 02:45:52.09	306.70	25.35	-41.8	-44.2	25.1	6.00e-01	0	39	0	455606272	55	4652
2026-01-18 02:45:52.80	306.45	25.35	-42.0	-44.4	24.9	6.05e-01	0	39	0	457179136	55	4787
2026-01-18 02:45:54.08	306.00	25.36	-41.9	-44.3	25.1	6.05e-01	0	39	0	459276288	55	4718
2026-01-18 02:45:54.79	305.75	25.37	-42.2	-44.7	24.6	6.03e-01	0	39	0	460849152	55	4971
2026-01-18 02:45:56.07	305.30	25.38	-42.1	-44.6	24.8	6.03e-01	0	39	0	462946304	55	4884
2026-01-18 02:45:56.78	305.05	25.38	-41.9	-44.4	24.9	6.05e-01	0	39	0	464519168	55	4763
2026-01-18 02:45:58.06	304.60	25.39	-42.2	-44.7	24.6	6.05e-01	0	39	0	467140608	55	4965
2026-01-18 02:45:58.77	304.35	25.39	-41.9	-44.3	25.0	6.03e-01	0	39	0	468189184	55	4736
2026-01-18 02:46:00.05	303.90	25.39	-42.2	-44.7	24.7	6.03e-01	0	39	0	470810624	55	4931
2026-01-18 02:46:00.81	303.64	25.39	-41.9	-44.3	25.0	6.02e-01	0	39	0	471859200	55	4716
2026-01-18 02:46:02.15	303.17	25.39	-42.0	-44.4	24.8	6.01e-01	0	39	0	474480640	56	4536
2026-01-18 02:46:02.86	302.92	25.39	-42.5	-45.1	24.2	6.04e-01	0	39	0	476053504	55	5204
2026-01-18 02:46:04.22	302.44	25.38	-41.5	-43.8	25.5	6.04e-01	0	39	0	478674944	54	4713
2026-01-18 02:46:04.93	302.19	25.38	-43.1	-45.8	23.5	6.03e-01	0	39	0	479723520	57	5017
2026-01-18 02:46:06.27	301.72	25.37	-42.8	-45.5	24.0	6.01e-01	0	39	0	482344960	56	5103
2026-01-18 02:46:06.98	301.47	25.37	-42.0	-44.5	24.8	6.03e-01	0	39	0	483393536	56	4552
2026-01-18 02:46:08.26	301.02	25.36	-42.3	-44.9	24.5	5.99e-01	0	39	0	486014976	55	5066
2026-01-18 02:46:08.98	300.77	25.35	-42.0	-44.6	24.5	6.02e-01	0	39	0	487587840	55	4882
2026-01-18 02:46:10.26	300.32	25.34	-43.0	-45.8	23.7	6.02e-01	0	39	0	489684992	56	5321
2026-01-18 02:46:10.97	300.07	25.33	-40.9	-43.1	25.8	6.05e-01	0	39	0	491257856	53	4622
2026-01-18 02:46:12.25	299.62	25.32	-42.4	-45.0	24.0	6.05e-01	0	39	0	493355008	56	4831
2026-01-18 02:46:12.97	299.37	25.31	-41.7	-44.1	25.2	6.02e-01	0	39	0	494927872	54	4875
2026-01-18 02:46:14.25	298.92	25.29	-41.8	-44.3	24.9	6.06e-01	0	39	0	497025024	55	4758
2026-01-18 02:46:14.98	298.67	25.28	-41.9	-44.5	24.8	6.04e-01	0	39	0	498597888	55	4847
2026-01-18 02:46:16.26	298.22	25.26	-41.9	-44.4	24.8	6.03e-01	0	39	0	501219328	55	4781
2026-01-18 02:46:16.98	297.97	25.25	-41.7	-44.2	25.0	6.04e-01	0	39	0	502267904	54	4945
2026-01-18 02:46:18.26	297.53	25.22	-41.2	-43.5	25.6	6.04e-01	0	39	0	504889344	54	4566
2026-01-18 02:46:19.08	297.24	25.21	-43.1	-45.8	23.8	6.04e-01	0	39	0	506462208	56	5300
2026-01-18 02:46:20.52	296.74	25.18	-41.9	-44.4	24.9	6.03e-01	0	39	0	509083648	54	5047
2026-01-18 02:46:21.23	296.50	25.16	-42.7	-45.3	24.1	6.02e-01	0	39	0	510132224	56	4996
2026-01-18 02:46:22.72	295.98	25.12	-42.4	-45.0	24.5	6.03e-01	0	39	0	513277952	56	4826
2026-01-18 02:46:23.43	295.73	25.11	-42.6	-45.1	24.3	6.00e-01	0	39	0	514326528	56	4913
2026-01-18 02:46:24.71	295.29	25.07	-42.1	-44.5	24.8	6.02e-01	0	39	0	516947968	55	4842
2026-01-18 02:46:25.43	295.05	25.06	-42.6	-45.2	24.1	6.02e-01	0	39	0	517996544	55	5222
2026-01-18 02:46:26.71	294.61	25.02	-42.4	-45.0	24.4	6.01e-01	0	39	0	520617984	55	5144
2026-01-18 02:46:27.42	294.36	25.00	-42.5	-45.1	24.3	6.04e-01	0	39	0	521666560	56	4903
2026-01-18 02:46:28.70	293.92	24.96	-42.2	-44.7	24.7	6.03e-01	0	39	0	524288000	56	4668
2026-01-18 02:46:29.41	293.68	24.94	-42.3	-44.9	24.6	6.02e-01	0	39	0	525860864	56	4779
2026-01-18 02:46:30.69	293.25	24.90	-41.9	-44.3	25.0	6.02e-01	0	39	0	527958016	55	4735
2026-01-18 02:46:31.46	292.98	24.87	-42.6	-45.2	24.2	6.05e-01	0	39	0	529530880	55	5257
2026-01-18 02:46:32.74	292.55	24.83	-42.1	-44.5	24.8	6.03e-01	0	39	0	531628032	55	4839
2026-01-18 02:46:33.45	292.31	24.80	-42.9	-45.5	24.0	6.02e-01	0	39	0	533200896	56	5148
2026-01-18 02:46:34.73	291.88	24.76	-42.5	-45.1	24.4	6.03e-01	0	39	0	535822336	56	4900
2026-01-18 02:46:35.44	291.64	24.73	-42.5	-45.1	24.4	6.04e-01	0	39	0	536870912	56	4880
2026-01-18 02:46:36.72	291.21	24.68	-42.0	-44.5	25.0	6.03e-01	0	39	0	539492352	56	4552
2026-01-18 02:46:37.45	290.96	24.66	-42.0	-44.5	24.8	6.06e-01	0	39	0	540540928	55	4846
2026-01-18 02:46:38.73	290.53	24.60	-42.4	-44.9	24.4	6.03e-01	0	39	0	543162368	55	5097
2026-01-18 02:46:39.44	290.30	24.58	-42.3	-44.8	24.6	6.03e-01	0	39	0	544210944	55	4996
2026-01-18 02:46:40.77	289.85	24.52	-42.8	-45.4	24.0	6.05e-01	0	39	0	546832384	56	5064
2026-01-18 02:46:41.48	289.62	24.49	-42.2	-44.6	24.8	6.03e-01	0	39	0	548405248	56	4612
2026-01-18 02:46:42.76	289.20	24.43	-43.1	-45.7	23.9	6.02e-01	0	39	0	550502400	56	5262
2026-01-18 02:46:43.48	288.96	24.40	-42.3	-44.7	24.6	6.05e-01	0	39	0	552075264	56	4693
2026-01-18 02:46:44.76	288.54	24.34	-43.2	-45.9	23.7	6.06e-01	0	39	0	554696704	56	5365
2026-01-18 02:46:45.47	288.30	24.31	-42.6	-45.1	24.1	6.03e-01	0	39	0	555745280	57	4640
2026-01-18 02:46:46.76	287.88	24.25	-42.7	-45.3	24.2	6.00e-01	0	39	0	558366720	56	5024
2026-01-18 02:46:47.47	287.65	24.22	-42.4	-45.0	24.4	6.01e-01	0	39	0	559415296	56	4828
2026-01-18 02:46:48.75	287.24	24.15	-42.8	-45.5	24.0	6.04e-01	0	39	0	562036736	56	5137
2026-01-18 02:46:49.49	287.00	24.12	-42.7	-45.3	24.0	6.03e-01	0	39	0	563085312	56	5008
2026-01-18 02:46:50.77	286.58	24.05	-43.0	-45.6	23.9	6.05e-01	0	39	0	565706752	56	5196
2026-01-18 02:46:51.48	286.36	24.01	-43.1	-45.7	23.7	6.01e-01	0	39	0	567279616	57	4961
2026-01-18 02:46:52.76	285.95	23.95	-42.7	-45.1	24.3	6.04e-01	0	39	0	569376768	56	4906
2026-01-18 02:46:53.47	285.72	23.91	-43.6	-46.4	23.2	6.06e-01	0	39	0	570949632	57	5379
2026-01-18 02:46:54.75	285.31	23.84	-42.4	-44.8	24.6	6.03e-01	0	39	0	573046784	56	4710
2026-01-18 02:46:55.66	285.02	23.79	-43.2	-45.9	23.6	6.02e-01	0	39	0	575143936	57	5071
2026-01-18 02:46:56.96	284.61	23.72	-42.3	-44.6	24.7	6.04e-01	0	39	0	577241088	56	4650
2026-01-18 02:46:57.67	284.39	23.68	-43.2	-45.8	23.7	6.02e-01	0	39	0	578813952	56	5322
2026-01-18 02:46:58.95	283.99	23.60	-42.4	-44.8	24.4	6.04e-01	0	39	0	580911104	56	4708
2026-01-18 02:46:59.66	283.77	23.56	-42.2	-44.6	24.8	6.05e-01	0	39	0	582483968	56	4599
2026-01-18 02:47:00.94	283.37	23.49	-43.0	-45.6	23.7	6.02e-01	0	39	0	584581120	57	4903
2026-01-18 02:47:01.65	283.15	23.45	-42.5	-44.9	24.5	6.03e-01	0	39	0	586153984	56	4792
2026-01-18 02:47:02.93	282.75	23.37	-43.4	-46.1	23.3	6.05e-01	0	39	0	588251136	57	5204
2026-01-18 02:47:03.66	282.53	23.32	-42.9	-45.4	23.9	6.00e-01	0	39	0	589824000	57	4781
2026-01-18 02:47:04.94	282.14	23.25	-43.3	-45.9	23.6	6.04e-01	0	39	0	592445440	57	5099
2026-01-18 02:47:05.65	281.92	23.20	-43.3	-45.9	23.6	6.06e-01	0	39	0	593494016	57	5073
2026-01-18 02:47:07.12	281.48	23.11	-42.6	-45.0	24.4	6.02e-01	0	39	0	596115456	57	4593
2026-01-18 02:47:07.83	281.26	23.06	-42.7	-45.2	24.3	6.04e-01	0	39	0	597688320	57	4704
2026-01-18 02:47:09.12	280.88	22.98	-42.2	-44.6	24.8	6.03e-01	0	39	0	600309760	56	4638
2026-01-18 02:47:10.15	280.57	22.91	-42.9	-45.4	24.1	6.04e-01	0	39	0	601882624	56	5099
2026-01-18 02:47:11.46	280.18	22.83	-42.6	-45.1	24.3	6.06e-01	0	39	0	604504064	56	4882
2026-01-18 02:47:12.20	279.96	22.78	-42.6	-45.0	24.4	6.06e-01	0	39	0	606076928	56	4858
2026-01-18 02:47:13.48	279.58	22.69	-43.1	-45.7	23.8	6.02e-01	0	39	0	608174080	57	4972
2026-01-18 02:47:14.20	279.37	22.64	-42.6	-45.0	24.4	6.03e-01	0	39	0	609746944	57	4589
2026-01-18 02:47:15.48	279.00	22.56	-42.2	-44.6	24.8	6.06e-01	0	39	0	611844096	56	4627
2026-01-18 02:47:16.21	278.78	22.51	-42.6	-45.1	24.4	6.04e-01	0	39	0	613416960	56	4909
2026-01-18 02:47:17.49	278.41	22.42	-42.6	-45.2	24.3	6.06e-01	0	39	0	615514112	56	4936
2026-01-18 02:47:18.22	278.20	22.37	-42.4	-44.9	24.5	6.01e-01	0	39	0	617086976	56	4803
2026-01-18 02:47:19.49	277.84	22.28	-42.8	-45.4	24.1	6.03e-01	0	39	0	619708416	56	5083
2026-01-18 02:47:20.22	277.63	22.23	-42.6	-45.1	24.4	6.02e-01	0	39	0	620756992	56	4880
2026-01-18 02:47:21.53	277.26	22.13	-42.3	-44.8	24.6	6.04e-01	0	39	0	623378432	56	4723
2026-01-18 02:47:22.24	277.06	22.08	-42.4	-44.9	24.6	6.04e-01	0	39	0	624427008	56	4781
2026-01-18 02:47:23.59	276.68	21.98	-42.8	-45.3	24.2	6.05e-01	0	39	0	627048448	56	5034
2026-01-18 02:47:24.57	276.40	21.91	-42.6	-45.1	24.4	6.05e-01	0	39	0	629145600	56	4885
2026-01-18 02:47:25.56	276.13	21.84	-42.5	-45.0	24.5	6.05e-01	0	39	0	630718464	56	4851
2026-01-18 02:47:26.56	275.85	21.77	-42.7	-45.2	24.3	6.02e-01	0	39	0	632815616	56	4963
2026-01-18 02:47:27.55	275.58	21.69	-42.4	-44.9	24.5	6.03e-01	0	39	0	634912768	56	4782
2026-01-18 02:47:28.55	275.31	21.62	-42.4	-44.8	24.6	6.03e-01	0	39	0	636485632	56	4734
2026-01-18 02:47:29.54	275.04	21.54	-42.7	-45.2	24.3	6.01e-01	0	39	0	638582784	56	4957
2026-01-18 02:47:30.54	274.76	21.47	-42.5	-45.1	24.3	6.02e-01	0	39	0	640155648	56	4872
2026-01-18 02:47:31.53	274.50	21.39	-42.5	-44.9	24.5	6.02e-01	0	39	0	642252800	56	4791
2026-01-18 02:47:32.53	274.23	21.32	-42.6	-45.1	24.3	6.01e-01	0	39	0	643825664	56	4924
2026-01-18 02:47:33.53	273.96	21.24	-42.7	-45.3	24.1	6.02e-01	0	39	0	645922816	56	5027
2026-01-18 02:47:34.52	273.70	21.16	-42.5	-45.1	24.3	6.02e-01	0	39	0	647495680	56	4871
2026-01-18 02:47:35.52	273.44	21.08	-42.3	-44.8	24.6	6.04e-01	0	39	0	649592832	56	4750
2026-01-18 02:47:36.51	273.17	21.01	-42.2	-44.7	24.7	6.03e-01	0	39	0	651689984	56	4705
2026-01-18 02:47:37.51	272.91	20.93	-42.5	-45.0	24.4	6.05e-01	0	39	0	653262848	56	4865
2026-01-18 02:47:38.51	272.65	20.85	-42.5	-45.1	24.4	6.04e-01	0	39	0	655360000	56	4882
2026-01-18 02:47:39.50	272.40	20.77	-42.4	-44.9	24.4	6.06e-01	0	39	0	656932864	56	4785
2026-01-18 02:47:40.50	272.14	20.69	-42.4	-44.9	24.5	6.03e-01	0	39	0	659030016	56	4761
2026-01-18 02:47:41.49	271.89	20.62	-42.3	-44.8	24.6	6.03e-01	0	39	0	660602880	56	4718
2026-01-18 02:47:42.49	271.63	20.54	-42.4	-44.9	24.5	6.02e-01	0	39	0	662700032	56	4789
2026-01-18 02:47:43.48	271.38	20.46	-42.4	-44.9	24.5	6.02e-01	0	39	0	664272896	56	4810
2026-01-18 02:47:44.48	271.13	20.38	-42.3	-44.8	24.6	6.02e-01	0	39	0	666370048	56	4728
2026-01-18 02:47:45.48	270.88	20.30	-42.3	-44.8	24.6	6.02e-01	0	39	0	668467200	56	4736
2026-01-18 02:47:46.45	270.64	20.22	-42.4	-44.9	24.5	6.06e-01	0	39	0	670040064	56	4778
2026-01-18 02:47:47.45	270.39	20.14	-42.3	-44.8	24.6	6.04e-01	0	39	0	672137216	56	4754
2026-01-18 02:47:48.44	270.15	20.06	-42.5	-45.1	24.4	6.05e-01	0	39	0	673710080	56	4884
2026-01-18 02:47:49.44	269.90	19.97	-42.5	-45.0	24.4	6.03e-01	0	39	0	675807232	56	4843
2026-01-18 02:47:50.43	269.66	19.89	-42.4	-44.9	24.5	6.04e-01	0	39	0	677380096	56	4784
2026-01-18 02:47:51.43	269.42	19.81	-42.3	-44.8	24.6	6.02e-01	0	39	0	679477248	56	4732
2026-01-18 02:47:52.42	269.18	19.73	-42.3	-44.9	24.4	6.04e-01	0	39	0	681050112	56	4780
2026-01-18 02:47:53.42	268.94	19.65	-42.4	-45.0	24.4	6.01e-01	0	39	0	683147264	56	4834
2026-01-18 02:47:54.41	268.70	19.56	-42.5	-45.1	24.3	6.05e-01	0	39	0	685244416	56	4907
2026-01-18 02:47:55.41	268.47	19.48	-42.3	-44.9	24.5	6.02e-01	0	39	0	686817280	56	4762
2026-01-18 02:47:56.40	268.23	19.40	-42.3	-44.8	24.6	6.02e-01	0	39	0	688914432	56	4757
2026-01-18 02:47:57.40	268.00	19.32	-42.4	-44.9	24.5	6.02e-01	0	39	0	690487296	56	4801
2026-01-18 02:47:58.39	267.77	19.23	-42.4	-44.9	24.5	6.01e-01	0	39	0	692584448	56	4801
2026-01-18 02:47:59.39	267.54	19.15	-42.4	-45.0	24.4	6.05e-01	0	39	0	694681600	56	4834
2026-01-18 02:48:00.38	267.31	19.07	-42.3	-44.9	24.5	6.04e-01	0	39	0	696254464	56	4776
2026-01-18 02:48:01.43	267.07	18.98	-42.3	-44.9	24.5	6.02e-01	0	39	0	698351616	56	4770
2026-01-18 02:48:02.39	266.85	18.90	-42.3	-44.8	24.6	6.05e-01	0	39	0	699924480	56	4706
2026-01-18 02:48:03.46	266.61	18.81	-42.3	-44.8	24.6	6.00e-01	0	39	0	702021632	56	4714
2026-01-18 02:48:04.32	266.42	18.74	-42.2	-44.7	24.7	6.04e-01	0	39	0	703594496	56	4688
2026-01-18 02:48:05.66	266.12	18.62	-42.2	-44.7	24.7	6.02e-01	0	39	0	706215936	56	4669
2026-01-18 02:48:06.37	265.96	18.56	-42.3	-44.8	24.6	6.04e-01	0	39	0	707264512	56	4730
2026-01-18 02:48:07.65	265.68	18.46	-42.3	-44.8	24.6	6.02e-01	0	39	0	709885952	56	4751
2026-01-18 02:48:08.38	265.52	18.39	-42.4	-44.9	24.5	6.06e-01	0	39	0	711458816	56	4802
2026-01-18 02:48:09.66	265.24	18.28	-42.4	-44.8	24.3	6.03e-01	0	39	0	713555968	56	4735
2026-01-18 02:48:10.38	265.08	18.22	-42.2	-44.7	24.7	6.01e-01	0	39	0	715128832	56	4665
2026-01-18 02:48:11.66	264.81	18.12	-42.1	-44.5	24.8	6.03e-01	0	39	0	717225984	56	4565
2026-01-18 02:48:12.45	264.64	18.05	-42.2	-44.6	24.7	6.05e-01	0	39	0	718798848	56	4642
2026-01-18 02:48:13.64	264.39	17.95	-42.4	-45.0	24.3	6.05e-01	0	39	0	720896000	56	4823
2026-01-18 02:48:14.49	264.21	17.87	-42.4	-44.9	24.4	6.04e-01	0	39	0	722993152	56	4811
2026-01-18 02:48:15.63	263.97	17.78	-42.3	-44.8	24.5	6.03e-01	0	39	0	724566016	56	4730
2026-01-18 02:48:16.70	263.74	17.69	-42.2	-44.7	24.6	6.04e-01	0	39	0	726663168	56	4685
2026-01-18 02:48:17.56	263.57	17.61	-42.2	-44.8	24.6	6.00e-01	0	39	0	728236032	56	4710
2026-01-18 02:48:18.69	263.33	17.52	-42.2	-44.7	24.7	6.05e-01	0	39	0	730857472	56	4700
2026-01-18 02:48:19.55	263.16	17.44	-42.2	-44.8	24.5	6.02e-01	0	39	0	732430336	56	4729
2026-01-18 02:48:20.69	262.92	17.35	-42.3	-44.8	24.5	6.01e-01	0	39	0	734527488	56	4755
2026-01-18 02:48:21.54	262.75	17.27	-42.2	-44.7	24.7	6.03e-01	0	39	0	736100352	56	4690
2026-01-18 02:48:22.68	262.52	17.18	-42.1	-44.6	24.8	6.02e-01	0	39	0	738197504	56	4613
2026-01-18 02:48:23.53	262.35	17.10	-42.2	-44.7	24.7	6.02e-01	0	39	0	739770368	56	4659
2026-01-18 02:48:24.67	262.12	17.01	-42.2	-44.8	24.6	6.04e-01	0	39	0	741867520	56	4725
2026-01-18 02:48:25.52	261.96	16.93	-42.2	-44.8	24.6	6.04e-01	0	40	0	743440384	56	4739
2026-01-18 02:48:26.66	261.73	16.84	-42.2	-44.8	24.5	6.04e-01	0	39	0	745537536	56	4741
2026-01-18 02:48:27.57	261.55	16.76	-42.1	-44.7	24.7	6.01e-01	0	39	0	747110400	56	4666
2026-01-18 02:48:28.73	261.33	16.66	-42.1	-44.7	24.6	6.02e-01	0	39	0	749207552	56	4692
2026-01-18 02:48:29.59	261.16	16.58	-42.3	-44.9	24.5	6.05e-01	0	39	0	751304704	56	4789
2026-01-18 02:48:30.89	260.91	16.47	-42.2	-44.9	24.5	6.02e-01	0	39	0	753401856	56	4772
2026-01-18 02:48:31.60	260.78	16.41	-42.2	-44.8	24.5	6.04e-01	0	39	0	754974720	56	4718
2026-01-18 02:48:32.88	260.54	16.30	-42.0	-44.6	24.7	6.02e-01	0	39	0	757071872	56	4612
2026-01-18 02:48:33.60	260.40	16.24	-41.9	-44.4	24.8	6.02e-01	0	39	0	758644736	55	4807
2026-01-18 02:48:34.88	260.16	16.13	-42.2	-44.8	24.4	6.03e-01	0	39	0	760741888	55	5019
2026-01-18 02:48:35.61	260.02	16.07	-42.2	-44.8	24.5	6.03e-01	0	39	0	762314752	55	5017
2026-01-18 02:48:37.24	259.72	15.93	-42.2	-44.8	24.5	6.02e-01	0	39	0	765460480	55	5030
2026-01-18 02:48:37.81	259.62	15.88	-42.1	-44.8	24.0	6.04e-01	0	40	0	766509056	55	5002
2026-01-18 02:48:39.51	259.31	15.74	-42.0	-44.6	24.6	6.02e-01	0	39	0	769654784	55	4884
2026-01-18 02:48:40.08	259.21	15.69	-42.0	-44.6	24.6	6.02e-01	0	39	0	770703360	55	4907
2026-01-18 02:48:41.79	258.90	15.54	-42.2	-44.7	24.5	6.02e-01	0	39	0	773849088	55	4952
2026-01-18 02:48:42.36	258.80	15.50	-42.2	-44.8	24.5	6.03e-01	0	39	0	774897664	55	4995
2026-01-18 02:48:44.06	258.50	15.35	-42.2	-44.8	24.4	6.03e-01	0	39	0	778043392	55	4985
2026-01-18 02:48:44.79	258.37	15.29	-42.2	-44.7	24.5	6.05e-01	0	40	0	779616256	55	4956
2026-01-18 02:48:46.07	258.14	15.18	-42.2	-44.7	24.5	6.04e-01	0	39	0	781713408	55	4976
2026-01-18 02:48:46.78	258.02	15.12	-42.2	-44.7	24.5	6.02e-01	0	39	0	783286272	55	4976
2026-01-18 02:48:48.06	257.80	15.01	-42.3	-44.8	24.4	6.02e-01	0	39	0	785383424	55	4985
2026-01-18 02:48:49.07	257.63	14.93	-42.1	-44.6	24.6	6.01e-01	0	39	0	787480576	55	4920
2026-01-18 02:48:50.07	257.46	14.84	-42.2	-44.7	24.5	6.02e-01	0	40	0	789577728	55	4947
2026-01-18 02:48:51.06	257.29	14.76	-42.3	-44.9	24.3	6.02e-01	0	39	0	791150592	55	5087
2026-01-18 02:48:52.06	257.12	14.68	-42.3	-44.8	24.4	6.03e-01	0	39	0	793247744	55	5035
2026-01-18 02:48:53.05	256.95	14.59	-42.3	-44.9	24.3	6.03e-01	0	39	0	794820608	55	5088
2026-01-18 02:48:54.05	256.79	14.51	-42.3	-45.0	24.3	6.04e-01	0	39	0	796917760	55	5114
2026-01-18 02:48:55.04	256.62	14.42	-42.4	-45.0	24.2	6.02e-01	0	39	0	799014912	55	5137
2026-01-18 02:48:56.04	256.46	14.34	-42.4	-45.1	24.2	6.02e-01	0	39	0	800587776	55	5163
2026-01-18 02:48:57.04	256.30	14.26	-42.2	-44.8	24.4	6.03e-01	0	39	0	802684928	55	5009
2026-01-18 02:48:58.03	256.14	14.17	-42.2	-44.8	24.4	6.05e-01	0	39	0	804257792	55	5041
2026-01-18 02:48:59.03	255.97	14.09	-42.3	-44.9	24.3	6.04e-01	0	39	0	806354944	55	5055
2026-01-18 02:49:00.02	255.82	14.01	-42.4	-44.9	24.3	6.02e-01	0	39	0	807927808	55	5092
2026-01-18 02:49:01.02	255.66	13.92	-42.4	-44.9	24.2	6.02e-01	0	39	0	810024960	55	5089
2026-01-18 02:49:02.01	255.50	13.84	-42.5	-45.1	24.1	6.02e-01	0	40	0	811597824	55	5188
2026-01-18 02:49:03.01	255.34	13.76	-42.5	-45.1	24.1	6.06e-01	0	39	0	813694976	55	5177
2026-01-18 02:49:04.00	255.19	13.68	-42.5	-45.1	24.1	6.05e-01	0	39	0	815792128	55	5192
2026-01-18 02:49:05.00	255.03	13.59	-42.4	-45.0	24.2	6.06e-01	0	40	0	817364992	55	5141
2026-01-18 02:49:05.99	254.88	13.51	-42.3	-44.9	24.3	6.03e-01	0	39	0	819462144	55	5083
2026-01-18 02:49:06.99	254.73	13.43	-42.4	-45.0	24.2	6.03e-01	0	39	0	821035008	55	5135
2026-01-18 02:49:07.99	254.57	13.35	-42.4	-45.0	24.2	6.05e-01	0	39	0	823132160	55	5141
2026-01-18 02:49:08.98	254.42	13.26	-42.5	-45.1	24.1	6.05e-01	0	39	0	824705024	55	5209
2026-01-18 02:49:09.97	254.27	13.18	-42.4	-45.1	24.1	6.02e-01	0	39	0	826802176	55	5178
2026-01-18 02:49:10.97	254.12	13.10	-42.6	-45.2	23.9	6.05e-01	0	39	0	828375040	55	5267
2026-01-18 02:49:11.96	253.97	13.02	-42.4	-45.0	24.2	6.04e-01	0	39	0	830472192	55	5153
2026-01-18 02:49:12.96	253.83	12.94	-42.5	-45.1	24.1	6.03e-01	0	40	0	832569344	55	5178
2026-01-18 02:49:13.95	253.68	12.86	-42.5	-45.0	24.1	6.04e-01	0	39	0	834142208	55	5155
2026-01-18 02:49:14.95	253.53	12.77	-42.6	-45.2	24.0	6.03e-01	0	39	0	836239360	55	5244
2026-01-18 02:49:15.94	253.39	12.69	-42.4	-45.0	24.2	6.04e-01	0	40	0	837812224	55	5137
2026-01-18 02:49:16.93	253.25	12.61	-42.5	-45.1	24.0	6.03e-01	0	39	0	839909376	55	5199
2026-01-18 02:49:17.93	253.10	12.53	-42.6	-45.2	23.9	6.04e-01	0	39	0	841482240	55	5272
2026-01-18 02:49:18.92	252.96	12.45	-42.6	-45.2	24.0	6.02e-01	0	39	0	843579392	55	5228
2026-01-18 02:49:19.92	252.82	12.37	-42.7	-45.3	23.8	6.04e-01	0	39	0	845152256	55	5308
2026-01-18 02:49:20.92	252.68	12.29	-42.6	-45.2	24.0	6.03e-01	0	39	0	847249408	55	5233
2026-01-18 02:49:21.91	252.54	12.21	-42.6	-45.2	23.9	6.03e-01	0	39	0	849346560	55	5260
2026-01-18 02:49:22.90	252.40	12.13	-42.5	-45.1	24.0	6.03e-01	0	40	0	850919424	55	5191
2026-01-18 02:49:23.90	252.26	12.05	-42.6	-45.2	23.9	6.03e-01	0	39	0	853016576	55	5255
2026-01-18 02:49:24.89	252.12	11.97	-42.5	-45.2	23.9	6.01e-01	0	39	0	854589440	55	5241
2026-01-18 02:49:25.97	251.98	11.88	-42.9	-45.6	23.6	6.05e-01	0	39	0	856686592	56	5210
2026-01-18 02:49:26.82	251.86	11.82	-42.9	-45.6	23.7	6.04e-01	0	39	0	858259456	56	5206
2026-01-18 02:49:27.96	251.71	11.72	-43.0	-45.8	23.5	6.02e-01	0	40	0	860356608	56	5281
2026-01-18 02:49:28.81	251.59	11.66	-43.0	-45.8	23.4	6.05e-01	0	40	0	861929472	56	5290
2026-01-18 02:49:29.95	251.44	11.57	-42.8	-45.4	23.8	6.05e-01	0	40	0	864026624	56	5099
2026-01-18 02:49:30.80	251.33	11.50	-42.7	-45.3	23.9	6.02e-01	0	39	0	865599488	56	4990
2026-01-18 02:49:31.94	251.17	11.41	-42.7	-45.3	23.9	6.03e-01	0	39	0	867696640	56	5028
2026-01-18 02:49:32.79	251.06	11.34	-42.8	-45.4	23.8	6.05e-01	0	40	0	869793792	56	5068
2026-01-18 02:49:33.93	250.91	11.25	-42.8	-45.3	23.9	6.02e-01	0	40	0	871366656	56	5038
2026-01-18 02:49:34.78	250.80	11.18	-42.8	-45.4	23.8	6.03e-01	0	39	0	872939520	56	5073
2026-01-18 02:49:35.92	250.66	11.09	-42.9	-45.6	23.7	6.05e-01	0	39	0	875560960	56	5174
2026-01-18 02:49:36.77	250.55	11.03	-43.1	-45.9	23.4	6.06e-01	0	39	0	877133824	56	5351
2026-01-18 02:49:38.00	250.39	10.93	-43.1	-45.8	23.4	6.05e-01	0	39	0	879230976	57	5006
2026-01-18 02:49:38.85	250.28	10.86	-43.1	-45.9	23.4	6.05e-01	0	39	0	880803840	57	5052
2026-01-18 02:49:40.02	250.13	10.77	-43.0	-45.7	23.5	6.03e-01	0	39	0	882900992	57	4932
2026-01-18 02:49:40.87	250.03	10.70	-42.9	-45.6	23.6	6.04e-01	0	40	0	884473856	57	4876
2026-01-18 02:49:42.07	249.88	10.61	-42.9	-45.6	23.6	6.04e-01	0	40	0	887095296	57	4886
2026-01-18 02:49:42.93	249.77	10.54	-42.9	-45.6	23.6	6.03e-01	0	39	0	888668160	57	4896
2026-01-18 02:49:44.06	249.63	10.46	-42.7	-45.3	23.8	6.03e-01	0	40	0	890765312	57	4729
2026-01-18 02:49:44.91	249.53	10.39	-42.8	-45.4	23.8	6.04e-01	0	40	0	892338176	57	4781
2026-01-18 02:49:46.05	249.39	10.30	-42.8	-45.5	23.7	6.04e-01	0	39	0	894435328	57	4820
2026-01-18 02:49:46.91	249.28	10.24	-42.8	-45.5	23.7	6.05e-01	0	40	0	896008192	57	4844
2026-01-18 02:49:48.04	249.15	10.15	-42.9	-45.6	23.6	6.02e-01	0	40	0	898105344	57	4888
2026-01-18 02:49:48.90	249.04	10.08	-42.8	-45.5	23.6	6.02e-01	0	40	0	899678208	57	4862
2026-01-18 02:49:50.03	248.91	10.00	-43.0	-45.7	23.4	6.03e-01	0	40	0	901775360	57	4977
2026-01-18 02:49:50.89	248.81	9.93	-43.1	-45.9	23.3	6.02e-01	0	39	0	903348224	57	5042
2026-01-18 02:49:52.02	248.67	9.84	-42.8	-45.5	23.7	6.03e-01	0	39	0	905445376	57	4849
2026-01-18 02:49:52.88	248.57	9.78	-43.0	-45.8	23.4	6.02e-01	0	40	0	907018240	57	5005
2026-01-18 02:49:54.01	248.44	9.69	-43.0	-45.7	23.5	6.04e-01	0	39	0	909115392	57	4940
2026-01-18 02:49:54.87	248.34	9.63	-43.1	-45.8	23.4	6.05e-01	0	40	0	910688256	57	5001
2026-01-18 02:49:56.00	248.21	9.54	-43.2	-46.0	23.2	6.03e-01	0	40	0	912785408	57	5128
2026-01-18 02:49:56.86	248.11	9.48	-43.1	-45.9	23.3	6.04e-01	0	40	0	914882560	57	5049
2026-01-18 02:49:58.04	247.98	9.39	-43.0	-45.7	23.4	6.05e-01	0	39	0	916979712	57	4966
2026-01-18 02:49:58.89	247.88	9.32	-43.2	-46.0	23.2	6.05e-01	0	40	0	918552576	57	5125
2026-01-18 02:50:00.10	247.75	9.23	-43.1	-45.9	23.3	6.03e-01	0	40	0	920649728	57	5057
2026-01-18 02:50:00.95	247.65	9.17	-43.1	-45.8	23.3	6.04e-01	0	39	0	922222592	57	5035
2026-01-18 02:50:02.08	247.53	9.08	-43.1	-45.9	23.2	6.05e-01	0	39	0	924319744	57	5091
2026-01-18 02:50:02.94	247.43	9.02	-43.0	-45.9	23.3	6.05e-01	0	40	0	925892608	57	5042
2026-01-18 02:50:04.07	247.31	8.94	-50.0	-68.4	3.8	7.52e-01	0	39	104	927465472	70	32086
2026-01-18 02:50:04.92	247.21	8.87	-50.2	-70.6	3.8	7.47e-01	0	39	104	927465472	70	41030
2026-01-18 02:50:06.06	247.09	8.79	-50.1	-70.8	3.8	7.46e-01	0	40	104	927465472	71	39636
2026-01-18 02:50:06.91	247.00	8.73	-50.3	-70.8	3.8	7.50e-01	0	40	104	927465472	71	40047
2026-01-18 02:50:08.05	246.88	8.64	-50.1	-71.0	3.8	7.47e-01	0	40	104	927465472	71	40646
2026-01-18 02:50:08.90	246.79	8.58	-50.4	-71.0	3.8	7.42e-01	0	39	104	927465472	71	40709
2026-01-18 02:50:10.03	246.67	8.50	-50.7	-71.0	3.8	7.49e-01	0	40	104	927465472	72	38387
2026-01-18 02:50:10.88	246.58	8.43	-50.7	-71.0	3.8	7.45e-01	0	40	104	927465472	72	38505
2026-01-18 02:50:12.02	246.46	8.35	-50.8	-71.0	3.8	7.49e-01	0	40	104	927465472	72	38447
2026-01-18 02:50:12.87	246.37	8.29	-50.6	-71.0	3.8	7.48e-01	0	40	104	927465472	72	38683
2026-01-18 02:50:14.01	246.25	8.20	-50.7	-71.1	3.8	7.46e-01	0	39	104	927465472	72	38840
2026-01-18 02:50:14.86	246.16	8.14	-50.8	-71.1	3.8	7.46e-01	0	40	104	927465472	72	38803
2026-01-18 02:50:15.99	246.04	8.06	-50.7	-71.1	3.8	7.46e-01	0	40	104	927465472	72	38804
2026-01-18 02:50:16.84	245.96	8.00	-50.7	-71.1	3.8	7.48e-01	0	40	104	927465472	72	38873
2026-01-18 02:50:17.98	245.84	7.92	-50.6	-71.1	3.8	7.45e-01	0	40	104	927465472	72	38840
2026-01-18 02:50:18.83	245.76	7.85	-50.6	-71.1	3.8	7.48e-01	0	39	104	927465472	72	38808
2026-01-18 02:50:19.97	245.64	7.77	-50.3	-71.1	3.8	7.47e-01	0	40	104	927465472	72	38840
2026-01-18 02:50:20.82	245.56	7.71	-50.3	-71.1	3.8	7.45e-01	0	40	104	927465472	72	38699
2026-01-18 02:50:21.96	245.44	7.63	-50.1	-71.0	3.8	7.41e-01	0	40	104	927465472	72	38630
2026-01-18 02:50:22.81	245.36	7.57	-50.0	-71.1	3.8	7.46e-01	0	40	104	927465472	72	38750
2026-01-18 02:50:23.94	245.25	7.49	-50.1	-71.0	3.8	7.46e-01	0	39	104	927465472	72	38604
2026-01-18 02:50:24.79	245.16	7.43	-50.0	-71.0	3.8	7.49e-01	0	39	104	927465472	72	38544
2026-01-18 02:50:25.93	245.05	7.35	-49.8	-71.0	3.8	7.47e-01	0	40	104	927465472	71	40791
2026-01-18 02:50:26.78	244.97	7.28	-49.8	-71.0	3.8	7.43e-01	0	40	104	927465472	71	40824
2026-01-18 02:50:27.91	244.86	7.20	-49.8	-71.0	3.8	7.46e-01	0	40	104	927465472	71	40821
2026-01-18 02:50:28.77	244.78	7.14	-49.8	-71.0	3.8	7.46e-01	0	39	104	927465472	71	40830
2026-01-18 02:50:29.90	244.67	7.06	-49.8	-71.0	3.8	7.48e-01	0	40	104	927465472	71	40811
2026-01-18 02:50:30.75	244.59	7.00	-49.8	-71.0	3.8	7.45e-01	0	40	104	927465472	71	40728
2026-01-18 02:50:31.89	244.48	6.92	-49.8	-71.0	3.8	7.44e-01	0	40	104	927465472	71	40636
2026-01-18 02:50:32.74	244.40	6.86	-49.8	-71.0	3.8	7.45e-01	0	40	104	927465472	71	40707
2026-01-18 02:50:33.88	244.30	6.78	-49.8	-71.0	3.8	7.44e-01	0	39	104	927465472	71	40663
2026-01-18 02:50:34.73	244.22	6.72	-49.8	-71.0	3.8	7.49e-01	0	40	104	927465472	71	40670
2026-01-18 02:50:35.86	244.11	6.65	-49.8	-71.0	3.8	7.48e-01	0	39	104	927465472	71	40586
2026-01-18 02:50:36.71	244.04	6.59	-49.8	-71.0	3.8	7.46e-01	0	40	104	927465472	71	40596
2026-01-18 02:50:37.85	243.93	6.51	-49.7	-70.9	3.8	7.44e-01	0	40	104	927465472	71	40489
2026-01-18 02:50:38.70	243.85	6.45	-49.7	-70.9	3.8	7.45e-01	0	40	104	927465472	71	40482
2026-01-18 02:50:39.84	243.75	6.37	-49.7	-70.9	3.8	7.47e-01	0	40	104	927465472	71	40454
2026-01-18 02:50:40.69	243.67	6.31	-49.7	-70.9	3.8	7.47e-01	0	40	104	927465472	71	40437
2026-01-18 02:50:41.83	243.57	6.23	-49.8	-70.9	3.8	7.45e-01	0	40	104	927465472	71	40502
2026-01-18 02:50:42.68	243.50	6.17	-49.7	-70.9	3.8	7.46e-01	0	40	104	927465472	71	40361
2026-01-18 02:50:43.81	243.40	6.10	-49.7	-70.9	3.8	7.47e-01	0	40	104	927465472	71	40244
2026-01-18 02:50:44.66	243.32	6.04	-49.7	-70.9	3.8	7.46e-01	0	40	104	927465472	71	40286
2026-01-18 02:50:45.80	243.22	5.96	-49.7	-70.9	3.8	7.47e-01	0	40	104	927465472	71	40392
2026-01-18 02:50:46.65	243.15	5.90	-49.7	-70.9	3.8	7.47e-01	0	40	104	927465472	71	40327
2026-01-18 02:50:47.79	243.05	5.82	-49.7	-70.9	3.8	7.47e-01	0	40	104	927465472	71	40297
2026-01-18 02:50:48.64	242.98	5.77	-49.7	-70.9	3.8	7.47e-01	0	40	104	927465472	71	40320
2026-01-18 02:50:49.77	242.88	5.69	-49.7	-70.9	3.8	7.47e-01	0	40	104	927465472	71	40310
2026-01-18 02:50:50.63	242.81	5.63	-49.7	-70.9	3.8	7.48e-01	0	40	104	927465472	71	40314
2026-01-18 02:50:51.76	242.71	5.56	-49.7	-70.9	3.8	7.45e-01	0	40	104	927465472	71	40302
2026-01-18 02:50:52.61	242.64	5.50	-49.7	-70.9	3.8	7.46e-01	0	40	104	927465472	71	40310
2026-01-18 02:50:53.75	242.54	5.42	-49.7	-70.9	3.8	7.45e-01	0	40	104	927465472	71	40290
2026-01-18 02:50:54.60	242.47	5.36	-49.7	-70.9	3.8	7.48e-01	0	40	104	927465472	71	40370
2026-01-18 02:50:55.74	242.38	5.29	-49.7	-70.9	3.8	7.49e-01	0	40	104	927465472	71	40333
2026-01-18 02:50:56.59	242.31	5.23	-49.7	-70.9	3.8	7.42e-01	0	40	104	927465472	71	40313
2026-01-18 02:50:57.72	242.21	5.16	-49.7	-70.9	3.8	7.47e-01	0	40	104	927465472	71	40317
2026-01-18 02:50:58.58	242.14	5.10	-49.7	-70.9	3.8	7.42e-01	0	40	104	927465472	71	40393
2026-01-18 02:50:59.71	242.05	5.02	-49.7	-70.9	3.8	7.47e-01	0	40	104	927465472	71	40230
2026-01-18 02:51:00.56	241.98	4.97	-49.7	-70.9	3.8	7.45e-01	0	40	104	927465472	71	40344

#Closed at: 2026-01-18 02:51:01
#Recorded file [927 MB]: D:/Data/31040_260118_054102.dat