passes_logs/2026/01/18/T1/T1__20260118_003950_NOAA_20_JPSS-1_rec.log

#Pass ID: 20260118_003950_NOAA 20 (JPSS-1)
#Satellite: NOAA 20 (JPSS-1)
#Configuration: NOAA 20
#almurnet v.1.7.20251203
#Start time: 2026-01-18 00:39:52

#Version: 2.0.20230620
#Station: T1
#Location: 37.570604 lon 55.790049 lat
#TLE: 1 43013U 17073A   26017.30359522  .00000067  00000+0  52526-4 0  9990
#TLE: 2 43013  98.7639 318.2187 0001419  36.2087 323.9184 14.19536557423067

#Time	Az	El	Level	Level2	SNR	BER	BlckErr	Temp	State	Recorded	gain1	gain2
2026-01-18 00:39:52.07	10.38	5.14	-48.2	-65.0	3.9	1.49e+00	0	41	0	0	67	25844
2026-01-18 00:39:53.06	10.33	5.21	-48.1	-65.0	3.8	1.49e+00	0	41	104	0	67	25790
2026-01-18 00:39:54.05	10.28	5.27	-48.1	-65.0	3.8	1.49e+00	0	41	104	0	67	25677
2026-01-18 00:39:55.05	10.23	5.34	-48.1	-65.0	3.8	1.49e+00	0	41	104	0	67	25817
2026-01-18 00:39:56.04	10.19	5.41	-48.1	-65.0	3.8	1.49e+00	0	41	104	0	67	25647
2026-01-18 00:39:57.03	10.14	5.48	-48.1	-65.0	3.8	1.49e+00	0	41	104	0	67	25687
2026-01-18 00:39:58.03	10.09	5.55	-48.1	-65.0	3.8	1.49e+00	0	41	104	0	67	25615
2026-01-18 00:39:59.02	10.04	5.61	-48.1	-65.0	3.8	1.49e+00	0	41	104	0	67	25650
2026-01-18 00:40:00.01	9.99	5.68	-48.1	-65.0	3.8	1.49e+00	0	41	104	0	67	25669
2026-01-18 00:40:01.01	9.94	5.75	-48.1	-65.0	3.8	1.49e+00	0	41	104	0	67	25630
2026-01-18 00:40:02.00	9.90	5.82	-48.1	-65.0	3.8	1.49e+00	0	41	104	0	67	25666
2026-01-18 00:40:02.99	9.85	5.89	-48.1	-65.0	3.8	1.49e+00	0	41	104	0	67	25649
2026-01-18 00:40:03.98	9.80	5.96	-48.1	-65.0	3.8	1.49e+00	0	41	104	0	67	25625
2026-01-18 00:40:04.98	9.75	6.03	-48.1	-64.9	3.8	1.49e+00	0	41	104	0	67	25544
2026-01-18 00:40:05.97	9.70	6.10	-48.1	-65.0	3.8	1.49e+00	0	41	104	0	67	25687
2026-01-18 00:40:06.96	9.65	6.17	-48.1	-65.0	3.8	1.49e+00	0	41	104	0	67	25605
2026-01-18 00:40:07.96	9.60	6.24	-48.1	-65.0	3.8	1.49e+00	0	41	104	0	67	25572
2026-01-18 00:40:08.95	9.54	6.31	-48.1	-65.0	3.8	1.49e+00	0	41	104	0	67	25632
2026-01-18 00:40:09.94	9.49	6.38	-48.1	-64.9	3.8	1.49e+00	0	41	104	0	67	25544
2026-01-18 00:40:10.94	9.44	6.45	-48.1	-64.9	3.8	1.49e+00	0	41	104	0	67	25471
2026-01-18 00:40:11.93	9.39	6.52	-48.1	-64.9	3.8	1.49e+00	0	41	104	0	67	25371
2026-01-18 00:40:12.92	9.34	6.59	-48.1	-64.8	3.8	1.49e+00	0	41	104	0	67	25068
2026-01-18 00:40:13.92	9.29	6.66	-48.1	-64.7	3.8	1.49e+00	0	41	104	0	67	24721
2026-01-18 00:40:14.91	9.23	6.73	-48.1	-64.5	3.8	1.49e+00	0	41	104	0	67	24188
2026-01-18 00:40:15.90	9.18	6.80	-48.1	-64.2	3.8	1.49e+00	0	41	104	0	67	23482
2026-01-18 00:40:16.90	9.13	6.88	-48.1	-63.9	3.8	1.49e+00	0	42	104	0	67	22674
2026-01-18 00:40:17.89	9.07	6.95	-48.1	-63.6	3.8	1.49e+00	0	42	104	0	67	21774
2026-01-18 00:40:18.88	9.02	7.02	-48.1	-63.4	3.8	1.49e+00	0	42	104	0	67	21335
2026-01-18 00:40:19.88	8.97	7.09	-48.0	-63.1	3.8	1.49e+00	0	42	104	0	67	20558
2026-01-18 00:40:20.87	8.91	7.16	-48.1	-63.0	3.8	1.49e+00	0	42	104	0	67	20413
2026-01-18 00:40:21.86	8.86	7.24	-48.1	-63.0	3.8	1.49e+00	0	42	104	0	67	20365
2026-01-18 00:40:22.86	8.80	7.31	-48.1	-63.1	3.8	1.49e+00	0	42	104	0	67	20657
2026-01-18 00:40:23.85	8.75	7.38	-48.1	-63.3	3.8	1.49e+00	0	42	104	0	67	21206
2026-01-18 00:40:24.84	8.69	7.45	-48.1	-63.6	3.8	1.49e+00	0	42	104	0	67	21897
2026-01-18 00:40:25.83	8.64	7.53	-48.1	-63.9	3.8	1.49e+00	0	42	104	0	67	22607
2026-01-18 00:40:26.83	8.58	7.60	-48.1	-64.2	3.8	1.49e+00	0	42	104	0	67	23478
2026-01-18 00:40:27.82	8.53	7.67	-48.1	-64.5	3.8	1.49e+00	0	42	104	0	67	24174
2026-01-18 00:40:28.81	8.47	7.75	-48.1	-64.8	3.8	1.49e+00	0	42	104	0	67	25046
2026-01-18 00:40:29.81	8.41	7.82	-48.1	-64.9	3.8	1.49e+00	0	42	104	0	67	25499
2026-01-18 00:40:30.80	8.35	7.89	-48.1	-64.9	3.8	1.49e+00	0	42	104	0	67	25314
2026-01-18 00:40:31.79	8.30	7.97	-48.1	-64.1	3.8	1.49e+00	0	42	104	0	67	23184
2026-01-18 00:40:32.79	8.24	8.04	-48.0	-62.7	3.9	1.49e+00	0	42	104	0	67	19633
2026-01-18 00:40:33.78	8.18	8.12	-47.9	-60.6	4.5	1.37e+00	0	42	0	0	67	15419
2026-01-18 00:40:34.77	8.12	8.19	-47.7	-58.5	5.5	7.44e-01	0	42	0	2097152	67	12119
2026-01-18 00:40:35.77	8.06	8.27	-47.4	-56.5	7.2	3.02e-01	0	42	0	3145728	66	10236
2026-01-18 00:40:36.76	8.00	8.34	-47.1	-54.8	8.9	4.92e-02	0	42	0	5242880	66	8370
2026-01-18 00:40:37.75	7.95	8.42	-46.6	-53.2	10.4	1.05e-02	0	42	0	7340032	65	7421
2026-01-18 00:40:38.75	7.89	8.49	-46.2	-52.0	11.7	2.02e-03	0	42	0	9437184	64	6837
2026-01-18 00:40:39.74	7.83	8.57	-46.0	-51.2	12.6	1.44e-04	0	42	0	11534336	63	6622
2026-01-18 00:40:40.73	7.77	8.64	-45.7	-50.5	13.3	2.51e-05	0	42	0	12582912	63	6109
2026-01-18 00:40:41.73	7.70	8.72	-45.5	-50.1	13.8	8.30e-06	0	42	0	14680064	63	5835
2026-01-18 00:40:42.72	7.64	8.80	-45.4	-49.9	13.9	4.50e-06	0	42	0	16777216	62	6058
2026-01-18 00:40:43.72	7.58	8.87	-45.4	-49.9	13.9	3.00e-06	0	42	0	18874368	62	6051
2026-01-18 00:40:44.71	7.52	8.95	-45.5	-50.2	13.7	5.30e-06	0	42	0	19922944	62	6238
2026-01-18 00:40:45.70	7.46	9.03	-45.9	-51.0	12.9	1.83e-05	0	42	0	22020096	62	6807
2026-01-18 00:40:46.70	7.40	9.10	-45.9	-50.9	13.0	1.01e-04	0	42	0	24117248	62	6771
2026-01-18 00:40:47.69	7.33	9.18	-47.0	-54.6	9.2	1.05e-03	0	42	0	26214400	64	9255
2026-01-18 00:40:48.69	7.27	9.26	-45.2	-49.4	14.3	5.68e-02	0	42	0	28311552	62	5703
2026-01-18 00:40:49.68	7.21	9.34	-43.9	-47.0	16.8	0.00e+00	0	42	0	29360128	59	5156
2026-01-18 00:40:50.68	7.14	9.42	-46.4	-51.8	12.3	1.50e-06	0	42	0	31457280	63	7091
2026-01-18 00:40:51.76	7.07	9.50	-46.4	-52.1	11.6	4.14e-02	0	42	0	33554432	64	6938
2026-01-18 00:40:52.65	7.01	9.57	-46.1	-51.0	12.7	2.59e-04	0	42	0	35651584	64	6129
2026-01-18 00:40:53.79	6.94	9.66	-45.5	-49.6	14.3	3.00e-06	0	42	0	37748736	63	5507
2026-01-18 00:40:54.64	6.88	9.73	-45.1	-48.8	15.1	7.00e-07	0	42	0	38797312	62	5301
2026-01-18 00:40:56.00	6.79	9.84	-44.8	-48.3	15.5	0.00e+00	0	42	0	41943040	61	5311
2026-01-18 00:40:56.71	6.75	9.89	-45.0	-48.6	15.2	0.00e+00	0	42	0	42991616	61	5505
2026-01-18 00:40:57.99	6.66	10.00	-44.7	-48.1	15.8	7.00e-07	0	42	0	45088768	60	5516
2026-01-18 00:40:58.72	6.61	10.05	-44.7	-48.2	15.8	0.00e+00	0	42	0	46137344	60	5563
2026-01-18 00:41:00.00	6.52	10.16	-44.8	-48.4	15.5	0.00e+00	0	42	0	49283072	60	5674
2026-01-18 00:41:00.71	6.48	10.21	-44.8	-48.4	15.4	0.00e+00	0	42	0	50331648	60	5707
2026-01-18 00:41:01.99	6.39	10.32	-44.4	-47.8	16.1	0.00e+00	0	42	0	52428800	60	5339
2026-01-18 00:41:02.72	6.34	10.38	-44.3	-47.7	16.2	0.00e+00	0	42	0	54525952	60	5241
2026-01-18 00:41:04.00	6.25	10.48	-44.6	-48.1	15.7	0.00e+00	0	42	0	56623104	60	5527
2026-01-18 00:41:04.71	6.20	10.54	-44.6	-48.3	15.6	0.00e+00	0	42	0	57671680	60	5626
2026-01-18 00:41:05.99	6.11	10.64	-44.1	-47.5	16.3	0.00e+00	0	42	0	59768832	60	5152
2026-01-18 00:41:06.70	6.06	10.70	-44.2	-47.6	16.2	0.00e+00	0	42	0	61865984	60	5214
2026-01-18 00:41:08.01	5.97	10.81	-44.2	-47.7	16.2	0.00e+00	0	43	0	63963136	60	5234
2026-01-18 00:41:08.73	5.91	10.87	-44.2	-47.7	16.3	0.00e+00	0	42	0	65011712	60	5239
2026-01-18 00:41:10.01	5.82	10.98	-44.1	-47.4	16.5	0.00e+00	0	43	0	68157440	59	5397
2026-01-18 00:41:10.72	5.77	11.03	-44.1	-47.5	16.4	0.00e+00	0	42	0	69206016	59	5414
2026-01-18 00:41:12.14	5.67	11.15	-44.2	-47.5	16.4	0.00e+00	0	43	0	71303168	59	5431
2026-01-18 00:41:12.85	5.61	11.21	-44.1	-47.4	16.5	0.00e+00	0	42	0	73400320	59	5349
2026-01-18 00:41:14.13	5.52	11.32	-44.0	-47.2	16.7	0.00e+00	0	43	0	75497472	59	5272
2026-01-18 00:41:15.17	5.44	11.41	-44.0	-47.2	16.7	0.00e+00	0	43	0	77594624	59	5263
2026-01-18 00:41:16.43	5.35	11.51	-43.8	-46.9	16.9	0.00e+00	0	42	0	79691776	59	5100
2026-01-18 00:41:17.21	5.29	11.58	-43.8	-46.9	16.9	0.00e+00	0	43	0	80740352	59	5093
2026-01-18 00:41:18.49	5.19	11.69	-43.9	-47.0	16.8	0.00e+00	0	42	0	83886080	59	5155
2026-01-18 00:41:19.20	5.14	11.75	-43.8	-46.8	17.0	0.00e+00	0	43	0	84934656	59	5032
2026-01-18 00:41:20.86	5.01	11.89	-43.7	-46.8	17.1	0.00e+00	0	43	0	88080384	59	4992
2026-01-18 00:41:21.43	4.97	11.94	-43.6	-46.7	17.2	0.00e+00	0	43	0	89128960	59	4927
2026-01-18 00:41:23.13	4.84	12.08	-43.8	-46.8	17.0	0.00e+00	0	43	0	92274688	59	5040
2026-01-18 00:41:23.71	4.79	12.13	-43.7	-46.6	17.3	0.00e+00	0	43	0	93323264	59	4897
2026-01-18 00:41:25.28	4.67	12.27	-43.7	-46.6	17.2	0.00e+00	0	43	0	96468992	59	4912
2026-01-18 00:41:25.94	4.61	12.33	-43.6	-46.5	17.4	0.00e+00	0	43	0	97517568	59	4847
2026-01-18 00:41:27.36	4.50	12.45	-43.8	-46.7	17.1	0.00e+00	0	43	0	100663296	59	4981
2026-01-18 00:41:28.07	4.44	12.51	-43.7	-46.6	17.2	0.00e+00	0	43	0	101711872	59	4913
2026-01-18 00:41:29.35	4.34	12.62	-43.8	-46.6	17.3	0.00e+00	0	43	0	103809024	59	4909
2026-01-18 00:41:30.06	4.28	12.69	-43.6	-46.5	17.4	0.00e+00	0	43	0	104857600	59	4833
2026-01-18 00:41:31.64	4.15	12.82	-43.6	-46.5	17.4	0.00e+00	0	43	0	108003328	59	4829
2026-01-18 00:41:32.57	4.08	12.91	-43.6	-46.4	17.5	0.00e+00	0	43	0	110100480	59	4794
2026-01-18 00:41:33.56	3.99	12.99	-43.7	-46.5	17.4	0.00e+00	0	43	0	112197632	59	4845
2026-01-18 00:41:34.56	3.91	13.08	-43.7	-46.5	17.4	0.00e+00	0	43	0	113246208	59	4851
2026-01-18 00:41:35.55	3.83	13.17	-43.7	-46.6	17.3	0.00e+00	0	43	0	115343360	59	4875
2026-01-18 00:41:36.55	3.74	13.26	-43.6	-46.5	17.4	0.00e+00	0	43	0	117440512	59	4833
2026-01-18 00:41:37.54	3.66	13.35	-43.6	-46.5	17.4	0.00e+00	0	43	0	119537664	59	4820
2026-01-18 00:41:38.53	3.57	13.44	-43.7	-46.6	17.3	0.00e+00	0	43	0	121634816	59	4887
2026-01-18 00:41:39.53	3.49	13.53	-43.7	-46.5	17.4	0.00e+00	0	43	0	122683392	59	4843
2026-01-18 00:41:40.52	3.40	13.62	-43.7	-46.5	17.4	0.00e+00	0	43	0	124780544	59	4860
2026-01-18 00:41:41.52	3.31	13.71	-43.6	-46.5	17.4	0.00e+00	0	43	0	126877696	59	4843
2026-01-18 00:41:42.52	3.23	13.80	-43.6	-46.5	17.4	0.00e+00	0	43	0	128974848	59	4817
2026-01-18 00:41:43.51	3.14	13.89	-43.6	-46.5	17.5	0.00e+00	0	43	0	131072000	59	4825
2026-01-18 00:41:44.50	3.05	13.98	-43.5	-46.4	17.5	0.00e+00	0	43	0	132120576	59	4795
2026-01-18 00:41:45.50	2.96	14.07	-43.5	-46.4	17.5	0.00e+00	0	43	0	134217728	58	5064
2026-01-18 00:41:46.49	2.87	14.16	-43.6	-46.5	17.4	0.00e+00	0	43	0	136314880	58	5149
2026-01-18 00:41:47.49	2.78	14.26	-43.6	-46.6	17.4	0.00e+00	0	43	0	138412032	58	5164
2026-01-18 00:41:48.49	2.69	14.35	-43.5	-46.4	17.5	0.00e+00	0	43	0	139460608	58	5095
2026-01-18 00:41:49.48	2.60	14.44	-43.5	-46.4	17.5	0.00e+00	0	43	0	141557760	58	5065
2026-01-18 00:41:50.47	2.51	14.53	-43.5	-46.5	17.5	0.00e+00	0	43	0	143654912	58	5115
2026-01-18 00:41:51.49	2.41	14.63	-43.5	-46.5	17.5	0.00e+00	0	43	0	145752064	58	5111
2026-01-18 00:41:52.48	2.32	14.72	-43.6	-46.6	17.4	0.00e+00	0	43	0	147849216	58	5175
2026-01-18 00:41:53.55	2.22	14.82	-43.5	-46.5	17.5	0.00e+00	0	43	0	148897792	58	5107
2026-01-18 00:41:54.41	2.13	14.90	-43.5	-46.5	17.5	0.00e+00	0	43	0	150994944	58	5102
2026-01-18 00:41:55.54	2.03	15.01	-43.6	-46.6	17.4	0.00e+00	0	43	0	153092096	58	5160
2026-01-18 00:41:56.40	1.94	15.09	-43.6	-46.6	17.4	0.00e+00	0	43	0	155189248	58	5193
2026-01-18 00:41:57.53	1.83	15.20	-43.4	-46.3	17.6	0.00e+00	0	43	0	157286400	58	5027
2026-01-18 00:41:58.39	1.75	15.28	-43.7	-46.7	17.3	0.00e+00	0	43	0	158334976	58	5247
2026-01-18 00:41:59.52	1.64	15.39	-43.7	-46.6	17.4	0.00e+00	0	43	0	160432128	58	5205
2026-01-18 00:42:00.38	1.55	15.47	-43.6	-46.6	17.4	0.00e+00	0	43	0	162529280	58	5172
2026-01-18 00:42:01.51	1.44	15.58	-43.6	-46.6	17.4	0.00e+00	0	43	0	164626432	58	5187
2026-01-18 00:42:02.36	1.36	15.66	-43.7	-46.7	17.3	0.00e+00	0	43	0	165675008	58	5239
2026-01-18 00:42:03.50	1.24	15.77	-43.8	-46.8	17.3	0.00e+00	0	43	0	167772160	58	5291
2026-01-18 00:42:04.36	1.15	15.85	-43.9	-46.8	17.2	0.00e+00	0	43	0	169869312	58	5313
2026-01-18 00:42:05.50	1.04	15.97	-43.9	-46.8	17.2	0.00e+00	0	43	0	171966464	58	5314
2026-01-18 00:42:06.35	0.95	16.05	-43.8	-46.7	17.3	0.00e+00	0	43	0	173015040	58	5271
2026-01-18 00:42:07.48	0.83	16.16	-43.8	-46.7	17.3	0.00e+00	0	43	0	175112192	58	5270
2026-01-18 00:42:08.34	0.74	16.24	-43.8	-46.6	17.4	0.00e+00	0	43	0	177209344	58	5202
2026-01-18 00:42:09.47	0.63	16.36	-43.8	-46.7	17.3	0.00e+00	0	43	0	179306496	58	5238
2026-01-18 00:42:10.40	0.53	16.45	-43.9	-46.7	17.2	0.00e+00	0	43	0	181403648	58	5278
2026-01-18 00:42:11.40	0.42	16.55	-43.8	-46.6	17.4	0.00e+00	0	43	0	182452224	58	5198
2026-01-18 00:42:12.39	0.31	16.64	-43.9	-46.7	17.3	0.00e+00	0	43	0	184549376	58	5242
2026-01-18 00:42:13.39	0.21	16.74	-43.9	-46.7	17.3	0.00e+00	0	43	0	186646528	58	5273
2026-01-18 00:42:14.39	0.10	16.84	-43.9	-46.7	17.3	0.00e+00	0	43	0	188743680	58	5258
2026-01-18 00:42:15.38	359.99	16.94	-43.8	-46.6	17.4	0.00e+00	0	43	0	190840832	58	5202
2026-01-18 00:42:16.38	359.88	17.04	-43.8	-46.6	17.4	0.00e+00	0	43	0	191889408	58	5171
2026-01-18 00:42:17.37	359.77	17.14	-43.9	-46.6	17.4	0.00e+00	0	43	0	193986560	58	5210
2026-01-18 00:42:18.37	359.66	17.25	-43.8	-46.6	17.4	0.00e+00	0	43	0	196083712	58	5186
2026-01-18 00:42:19.36	359.55	17.35	-43.8	-46.6	17.4	0.00e+00	0	43	0	198180864	58	5189
2026-01-18 00:42:20.35	359.43	17.45	-43.8	-46.6	17.4	0.00e+00	0	43	0	199229440	58	5185
2026-01-18 00:42:21.35	359.32	17.55	-43.7	-46.5	17.5	0.00e+00	0	43	0	201326592	58	5114
2026-01-18 00:42:22.34	359.21	17.65	-43.8	-46.6	17.4	0.00e+00	0	43	0	203423744	58	5210
2026-01-18 00:42:23.34	359.09	17.75	-43.8	-46.7	17.4	0.00e+00	0	43	0	205520896	58	5219
2026-01-18 00:42:24.33	358.98	17.86	-43.8	-46.6	17.4	0.00e+00	0	43	0	207618048	58	5175
2026-01-18 00:42:25.33	358.86	17.96	-43.9	-46.7	17.3	0.00e+00	0	43	0	208666624	58	5247
2026-01-18 00:42:26.32	358.74	18.06	-43.8	-46.7	17.3	0.00e+00	0	43	0	210763776	58	5263
2026-01-18 00:42:27.32	358.62	18.17	-43.8	-46.7	17.3	0.00e+00	0	43	0	212860928	58	5251
2026-01-18 00:42:28.31	358.50	18.27	-43.8	-46.7	17.3	0.00e+00	0	43	0	214958080	58	5265
2026-01-18 00:42:29.31	358.38	18.37	-43.8	-46.7	17.4	0.00e+00	0	43	0	216006656	58	5242
2026-01-18 00:42:30.30	358.26	18.48	-43.8	-46.7	17.4	0.00e+00	0	43	0	218103808	58	5226
2026-01-18 00:42:31.30	358.14	18.58	-43.8	-46.6	17.4	0.00e+00	0	43	0	220200960	58	5213
2026-01-18 00:42:32.29	358.02	18.69	-43.7	-46.5	17.5	0.00e+00	0	43	0	222298112	58	5137
2026-01-18 00:42:33.29	357.90	18.79	-43.7	-46.5	17.6	0.00e+00	0	43	0	224395264	58	5110
2026-01-18 00:42:34.29	357.77	18.90	-43.7	-46.5	17.6	0.00e+00	0	43	0	225443840	58	5125
2026-01-18 00:42:35.28	357.65	19.01	-43.6	-46.2	17.8	0.00e+00	0	43	0	227540992	58	4970
2026-01-18 00:42:36.27	357.52	19.11	-43.6	-46.3	17.8	0.00e+00	0	43	0	229638144	58	4987
2026-01-18 00:42:37.27	357.39	19.22	-43.6	-46.4	17.7	0.00e+00	0	43	0	231735296	58	5043
2026-01-18 00:42:38.26	357.27	19.32	-43.7	-46.4	17.7	0.00e+00	0	43	0	232783872	58	5054
2026-01-18 00:42:39.26	357.14	19.43	-43.7	-46.4	17.7	0.00e+00	0	43	0	234881024	58	5056
2026-01-18 00:42:40.26	357.01	19.54	-43.8	-46.4	17.6	0.00e+00	0	43	0	236978176	58	5098
2026-01-18 00:42:41.25	356.88	19.65	-43.8	-46.5	17.6	0.00e+00	0	43	0	239075328	58	5125
2026-01-18 00:42:42.25	356.74	19.76	-43.9	-46.6	17.5	0.00e+00	0	43	0	241172480	58	5192
2026-01-18 00:42:43.43	356.59	19.89	-44.0	-46.7	17.4	0.00e+00	0	43	0	243269632	58	5222
2026-01-18 00:42:44.31	356.47	19.98	-44.0	-46.7	17.4	0.00e+00	0	43	0	244318208	58	5230
2026-01-18 00:42:45.45	356.31	20.11	-44.1	-46.8	17.3	0.00e+00	0	43	0	246415360	58	5309
2026-01-18 00:42:46.31	356.20	20.20	-44.0	-46.8	17.3	0.00e+00	0	43	0	248512512	58	5280
2026-01-18 00:42:47.44	356.04	20.33	-43.9	-46.6	17.5	0.00e+00	0	43	0	250609664	58	5176
2026-01-18 00:42:48.30	355.92	20.42	-43.9	-46.6	17.5	0.00e+00	0	43	0	251658240	58	5168
2026-01-18 00:42:49.44	355.76	20.55	-43.9	-46.5	17.6	0.00e+00	0	43	0	253755392	58	5144
2026-01-18 00:42:50.29	355.64	20.64	-43.9	-46.6	17.5	0.00e+00	0	43	0	255852544	58	5184
2026-01-18 00:42:51.43	355.48	20.77	-43.9	-46.6	17.5	0.00e+00	0	43	0	257949696	58	5184
2026-01-18 00:42:52.28	355.36	20.86	-44.0	-46.6	17.5	0.00e+00	0	43	0	260046848	58	5201
2026-01-18 00:42:53.41	355.20	20.99	-44.0	-46.6	17.5	0.00e+00	0	43	0	261095424	58	5198
2026-01-18 00:42:54.27	355.07	21.09	-44.0	-46.7	17.4	0.00e+00	0	43	0	263192576	58	5260
2026-01-18 00:42:55.41	354.91	21.22	-44.2	-46.9	17.2	0.00e+00	0	43	0	265289728	58	5358
2026-01-18 00:42:56.26	354.78	21.31	-44.1	-46.8	17.3	0.00e+00	0	43	0	267386880	58	5291
2026-01-18 00:42:57.40	354.61	21.44	-44.1	-46.8	17.3	0.00e+00	0	43	0	269484032	58	5319
2026-01-18 00:42:58.25	354.49	21.54	-44.1	-46.8	17.3	0.00e+00	0	43	0	270532608	59	5036
2026-01-18 00:42:59.39	354.32	21.67	-44.1	-46.8	17.4	0.00e+00	0	43	0	272629760	59	5018
2026-01-18 00:43:00.24	354.19	21.76	-44.1	-46.9	17.3	0.00e+00	0	43	0	274726912	59	5061
2026-01-18 00:43:01.58	353.98	21.92	-44.1	-46.8	17.3	0.00e+00	0	43	0	276824064	59	5016
2026-01-18 00:43:02.29	353.87	22.00	-44.0	-46.7	17.4	0.00e+00	0	43	0	277872640	59	4980
2026-01-18 00:43:03.57	353.68	22.15	-44.1	-46.9	17.3	0.00e+00	0	43	0	281018368	59	5075
2026-01-18 00:43:04.30	353.56	22.23	-44.1	-46.9	17.2	0.00e+00	0	43	0	282066944	59	5064
2026-01-18 00:43:05.58	353.36	22.38	-44.1	-46.9	17.2	0.00e+00	0	43	0	284164096	59	5074
2026-01-18 00:43:06.29	353.25	22.46	-44.2	-46.9	17.3	0.00e+00	0	43	0	286261248	59	5073
2026-01-18 00:43:07.57	353.04	22.61	-44.2	-46.9	17.2	0.00e+00	0	43	0	288358400	59	5092
2026-01-18 00:43:08.30	352.93	22.70	-44.2	-46.9	17.3	0.00e+00	0	43	0	289406976	59	5094
2026-01-18 00:43:09.58	352.72	22.85	-44.3	-47.0	17.1	0.00e+00	0	43	0	291504128	59	5153
2026-01-18 00:43:10.30	352.60	22.93	-44.2	-46.9	17.2	0.00e+00	0	43	0	293601280	59	5093
2026-01-18 00:43:11.58	352.39	23.08	-44.3	-47.1	17.1	0.00e+00	0	43	0	295698432	59	5176
2026-01-18 00:43:12.30	352.27	23.17	-44.2	-47.0	17.1	0.00e+00	0	43	0	296747008	59	5153
2026-01-18 00:43:13.58	352.06	23.32	-44.2	-47.0	17.1	0.00e+00	0	43	0	299892736	59	5152
2026-01-18 00:43:14.56	351.89	23.43	-44.2	-47.1	17.0	0.00e+00	0	43	0	300941312	59	5217
2026-01-18 00:43:15.55	351.72	23.55	-44.2	-47.2	17.0	0.00e+00	0	43	0	303038464	59	5249
2026-01-18 00:43:16.55	351.55	23.67	-44.3	-47.3	16.9	0.00e+00	0	43	0	305135616	59	5305
2026-01-18 00:43:17.54	351.38	23.79	-44.3	-47.3	16.9	0.00e+00	0	43	0	307232768	59	5334
2026-01-18 00:43:18.54	351.21	23.91	-44.4	-47.5	16.7	0.00e+00	0	43	0	308281344	59	5424
2026-01-18 00:43:19.54	351.03	24.03	-44.2	-47.1	17.1	0.00e+00	0	43	0	310378496	59	5211
2026-01-18 00:43:20.53	350.86	24.14	-44.1	-46.9	17.3	0.00e+00	0	43	0	312475648	59	5095
2026-01-18 00:43:21.53	350.68	24.26	-44.3	-47.2	17.0	0.00e+00	0	43	0	314572800	59	5239
2026-01-18 00:43:22.52	350.50	24.38	-44.3	-47.1	17.1	0.00e+00	0	43	0	316669952	59	5198
2026-01-18 00:43:23.55	350.32	24.51	-44.4	-47.2	17.0	0.00e+00	0	43	0	317718528	59	5243
2026-01-18 00:43:24.54	350.14	24.63	-44.5	-47.3	16.9	0.00e+00	0	43	0	319815680	59	5320
2026-01-18 00:43:25.54	349.95	24.75	-44.3	-47.1	17.1	0.00e+00	0	43	0	321912832	59	5170
2026-01-18 00:43:26.53	349.77	24.87	-44.3	-47.1	17.1	0.00e+00	0	43	0	324009984	59	5211
2026-01-18 00:43:27.53	349.58	24.99	-44.4	-47.2	17.0	0.00e+00	0	43	0	326107136	59	5267
2026-01-18 00:43:28.52	349.40	25.11	-44.2	-47.0	17.2	0.00e+00	0	43	0	327155712	59	5132
2026-01-18 00:43:29.52	349.21	25.23	-44.4	-47.3	17.0	0.00e+00	0	43	0	329252864	59	5282
2026-01-18 00:43:30.51	349.02	25.35	-44.4	-47.3	16.9	0.00e+00	0	43	0	331350016	59	5281
2026-01-18 00:43:31.51	348.82	25.48	-44.3	-47.1	17.1	0.00e+00	0	43	0	333447168	59	5189
2026-01-18 00:43:32.50	348.63	25.60	-44.3	-47.1	17.1	0.00e+00	0	43	0	334495744	59	5205
2026-01-18 00:43:33.49	348.44	25.72	-44.3	-47.1	17.1	0.00e+00	0	43	0	336592896	59	5218
2026-01-18 00:43:34.49	348.24	25.84	-44.4	-47.2	16.9	0.00e+00	0	43	0	338690048	59	5277
2026-01-18 00:43:35.48	348.05	25.97	-44.4	-47.2	17.0	0.00e+00	0	43	0	340787200	59	5241
2026-01-18 00:43:36.48	347.85	26.09	-44.4	-47.1	17.1	0.00e+00	0	43	0	342884352	59	5191
2026-01-18 00:43:37.47	347.65	26.21	-44.5	-47.3	16.9	0.00e+00	0	43	0	343932928	59	5314
2026-01-18 00:43:38.47	347.44	26.33	-44.5	-47.3	16.9	0.00e+00	0	43	0	346030080	59	5337
2026-01-18 00:43:39.47	347.24	26.46	-44.5	-47.4	16.8	0.00e+00	0	43	0	348127232	59	5344
2026-01-18 00:43:40.46	347.03	26.58	-44.6	-47.4	16.7	0.00e+00	0	43	0	350224384	59	5392
2026-01-18 00:43:41.45	346.83	26.70	-44.6	-47.6	16.6	0.00e+00	0	43	0	351272960	59	5465
2026-01-18 00:43:42.45	346.62	26.83	-44.7	-47.7	16.6	0.00e+00	0	43	0	353370112	60	5268
2026-01-18 00:43:43.45	346.41	26.95	-44.8	-48.0	16.3	0.00e+00	0	43	0	355467264	60	5422
2026-01-18 00:43:44.44	346.19	27.08	-44.8	-48.0	16.3	0.00e+00	0	43	0	357564416	60	5431
2026-01-18 00:43:45.44	345.98	27.20	-45.0	-48.3	16.0	0.00e+00	0	43	0	359661568	60	5633
2026-01-18 00:43:46.43	345.76	27.33	-45.1	-48.4	15.9	0.00e+00	0	43	0	360710144	60	5690
2026-01-18 00:43:47.43	345.55	27.45	-45.2	-48.4	15.9	0.00e+00	0	43	0	362807296	61	5364
2026-01-18 00:43:48.42	345.33	27.57	-45.4	-48.6	15.7	0.00e+00	0	43	0	364904448	61	5515
2026-01-18 00:43:49.42	345.11	27.70	-45.5	-48.8	15.5	0.00e+00	0	43	0	367001600	61	5620
2026-01-18 00:43:50.42	344.88	27.83	-45.7	-48.9	15.4	0.00e+00	0	43	0	368050176	61	5698
2026-01-18 00:43:51.41	344.66	27.95	-45.9	-49.2	15.1	7.00e-07	0	43	0	370147328	62	5561
2026-01-18 00:43:52.41	344.43	28.07	-45.8	-49.2	15.1	1.50e-06	0	43	0	372244480	62	5586
2026-01-18 00:43:53.40	344.21	28.20	-45.9	-49.5	14.8	0.00e+00	0	43	0	374341632	62	5776
2026-01-18 00:43:54.40	343.98	28.32	-45.8	-49.5	14.8	7.00e-07	0	43	0	376438784	62	5761
2026-01-18 00:43:55.44	343.73	28.46	-45.8	-49.6	14.7	0.00e+00	0	43	0	377487360	62	5806
2026-01-18 00:43:56.43	343.50	28.58	-45.7	-49.4	14.9	0.00e+00	0	43	0	379584512	62	5671
2026-01-18 00:43:57.43	343.26	28.71	-45.6	-49.3	15.1	0.00e+00	0	43	0	381681664	62	5597
2026-01-18 00:43:58.42	343.03	28.83	-45.7	-49.4	14.9	0.00e+00	0	43	0	383778816	62	5675
2026-01-18 00:43:59.41	342.79	28.95	-45.8	-49.4	15.0	0.00e+00	0	43	0	385875968	62	5667
2026-01-18 00:44:00.39	342.55	29.08	-45.9	-49.4	15.0	0.00e+00	0	43	0	386924544	62	5662
2026-01-18 00:44:01.38	342.31	29.20	-46.0	-49.5	14.9	0.00e+00	0	43	0	389021696	62	5726
2026-01-18 00:44:02.37	342.07	29.33	-46.0	-49.4	15.0	7.00e-07	0	43	0	391118848	62	5705
2026-01-18 00:44:03.36	341.82	29.45	-45.8	-49.3	15.0	0.00e+00	0	43	0	393216000	62	5615
2026-01-18 00:44:04.36	341.57	29.58	-45.8	-49.3	15.0	0.00e+00	0	43	0	394264576	62	5636
2026-01-18 00:44:05.35	341.32	29.70	-45.8	-49.4	14.9	0.00e+00	0	43	0	396361728	62	5703
2026-01-18 00:44:06.35	341.07	29.83	-45.6	-49.1	15.2	0.00e+00	0	43	0	398458880	62	5527
2026-01-18 00:44:07.34	340.82	29.95	-45.7	-49.1	15.2	0.00e+00	0	43	0	400556032	62	5522
2026-01-18 00:44:08.34	340.56	30.08	-45.6	-49.0	15.3	0.00e+00	0	43	0	402653184	62	5445
2026-01-18 00:44:09.33	340.30	30.20	-45.7	-49.1	15.2	0.00e+00	0	43	0	403701760	62	5501
2026-01-18 00:44:10.33	340.04	30.32	-45.8	-49.3	15.0	0.00e+00	0	43	0	405798912	62	5632
2026-01-18 00:44:11.32	339.78	30.45	-45.9	-49.5	14.9	0.00e+00	0	43	0	407896064	62	5741
2026-01-18 00:44:12.31	339.52	30.57	-46.0	-49.7	14.6	0.00e+00	0	43	0	409993216	62	5901
2026-01-18 00:44:13.31	339.25	30.70	-46.0	-49.8	14.5	0.00e+00	0	43	0	411041792	62	5961
2026-01-18 00:44:14.30	338.98	30.82	-46.0	-50.0	14.3	7.00e-07	0	43	0	413138944	62	6107
2026-01-18 00:44:15.30	338.71	30.94	-46.1	-50.4	13.9	3.00e-06	0	43	0	415236096	62	6410
2026-01-18 00:44:16.55	338.37	31.10	-46.1	-50.7	13.6	2.20e-06	0	43	0	417333248	62	6610
2026-01-18 00:44:17.40	338.13	31.20	-46.0	-50.6	13.8	3.00e-06	0	43	0	419430400	62	6496
2026-01-18 00:44:18.54	337.81	31.35	-46.1	-50.4	14.0	2.20e-06	0	43	0	421527552	62	6384
2026-01-18 00:44:19.39	337.57	31.45	-45.8	-49.7	14.6	3.00e-06	0	43	0	422576128	62	5911
2026-01-18 00:44:20.53	337.25	31.59	-46.0	-49.6	14.7	0.00e+00	0	43	0	424673280	62	5834
2026-01-18 00:44:21.38	337.01	31.69	-45.9	-49.5	14.9	0.00e+00	0	43	0	426770432	62	5738
2026-01-18 00:44:22.52	336.68	31.83	-45.8	-49.2	15.2	0.00e+00	0	43	0	428867584	62	5545
2026-01-18 00:44:23.37	336.43	31.94	-45.6	-49.0	15.3	0.00e+00	0	43	0	429916160	62	5414
2026-01-18 00:44:24.51	336.10	32.08	-45.5	-48.8	15.5	0.00e+00	0	43	0	432013312	62	5302
2026-01-18 00:44:25.37	335.85	32.18	-45.4	-48.7	15.6	0.00e+00	0	43	0	434110464	62	5226
2026-01-18 00:44:26.50	335.51	32.32	-45.4	-48.7	15.6	0.00e+00	0	43	0	436207616	62	5255
2026-01-18 00:44:27.36	335.26	32.42	-45.6	-49.0	15.4	0.00e+00	0	43	0	437256192	62	5415
2026-01-18 00:44:28.49	334.92	32.56	-45.5	-48.9	15.4	0.00e+00	0	43	0	440401920	62	5370
2026-01-18 00:44:29.34	334.66	32.66	-45.3	-48.8	15.6	0.00e+00	0	43	0	441450496	62	5281
2026-01-18 00:44:30.48	334.31	32.80	-45.2	-48.8	15.5	0.00e+00	0	43	0	443547648	62	5287
2026-01-18 00:44:31.33	334.05	32.90	-45.2	-48.8	15.5	0.00e+00	0	43	0	445644800	62	5306
2026-01-18 00:44:32.47	333.70	33.03	-45.3	-49.0	15.3	0.00e+00	0	43	0	447741952	62	5409
2026-01-18 00:44:33.32	333.43	33.13	-45.5	-49.2	15.2	0.00e+00	0	43	0	448790528	62	5551
2026-01-18 00:44:34.46	333.07	33.27	-45.7	-49.4	14.9	0.00e+00	0	43	0	450887680	62	5688
2026-01-18 00:44:35.31	332.80	33.37	-45.7	-49.3	15.1	0.00e+00	0	43	0	452984832	62	5620
2026-01-18 00:44:36.45	332.44	33.50	-45.7	-49.3	15.1	0.00e+00	0	43	0	455081984	62	5601
2026-01-18 00:44:37.31	332.16	33.60	-45.6	-49.1	15.2	0.00e+00	0	43	0	456130560	62	5498
2026-01-18 00:44:38.44	331.80	33.73	-45.7	-49.2	15.2	0.00e+00	0	43	0	458227712	62	5534
2026-01-18 00:44:39.29	331.52	33.83	-45.9	-49.4	14.9	7.00e-07	0	43	0	460324864	62	5685
2026-01-18 00:44:40.43	331.15	33.96	-46.1	-49.7	14.6	0.00e+00	0	43	0	462422016	63	5559
2026-01-18 00:44:41.28	330.87	34.05	-46.3	-50.1	14.1	7.00e-07	0	43	0	463470592	63	5850
2026-01-18 00:44:42.42	330.49	34.18	-46.3	-50.0	14.3	2.20e-06	0	43	0	465567744	63	5781
2026-01-18 00:44:43.27	330.20	34.28	-46.3	-50.0	14.4	0.00e+00	0	43	0	467664896	63	5737
2026-01-18 00:44:44.41	329.82	34.40	-46.2	-49.8	14.5	0.00e+00	0	43	0	469762048	63	5618
2026-01-18 00:44:45.26	329.53	34.50	-46.1	-49.8	14.6	2.20e-06	0	43	0	471859200	63	5614
2026-01-18 00:44:46.40	329.14	34.62	-46.2	-50.0	14.4	1.50e-06	0	43	0	473956352	63	5738
2026-01-18 00:44:47.25	328.85	34.71	-46.4	-50.4	14.0	7.00e-07	0	43	0	475004928	63	6031
2026-01-18 00:44:48.54	328.40	34.85	-46.6	-51.0	13.3	8.30e-06	0	43	0	477102080	63	6466
2026-01-18 00:44:49.26	328.15	34.93	-46.6	-51.1	13.2	1.75e-05	0	43	0	479199232	63	6540
2026-01-18 00:44:50.53	327.70	35.07	-46.7	-51.5	12.8	5.56e-05	0	43	0	481296384	64	6434
2026-01-18 00:44:51.24	327.45	35.14	-46.7	-51.3	13.0	4.50e-05	0	43	0	482344960	64	6305
2026-01-18 00:44:52.52	326.99	35.27	-46.7	-51.2	13.0	4.11e-05	0	43	0	485490688	64	6226
2026-01-18 00:44:53.23	326.74	35.35	-46.7	-51.0	13.2	2.21e-05	0	43	0	486539264	64	6118
2026-01-18 00:44:54.51	326.28	35.48	-46.5	-50.4	13.8	1.22e-05	0	43	0	488636416	64	5712
2026-01-18 00:44:55.23	326.02	35.55	-46.3	-50.1	14.1	3.80e-06	0	43	0	489684992	64	5498
2026-01-18 00:44:56.51	325.55	35.68	-46.3	-49.9	14.3	0.00e+00	0	43	0	492830720	64	5402
2026-01-18 00:44:57.29	325.26	35.76	-46.0	-49.6	14.6	7.00e-07	0	43	0	493879296	64	5186
2026-01-18 00:44:58.46	324.83	35.88	-45.9	-49.5	14.9	0.00e+00	0	43	0	495976448	63	5408
2026-01-18 00:44:59.32	324.51	35.96	-46.1	-49.8	14.5	0.00e+00	0	43	0	498073600	63	5653
2026-01-18 00:45:00.46	324.08	36.07	-45.9	-49.7	14.6	1.50e-06	0	43	0	500170752	63	5534
2026-01-18 00:45:01.31	323.76	36.15	-45.8	-49.6	14.8	7.00e-07	0	43	0	501219328	63	5471
2026-01-18 00:45:02.45	323.33	36.26	-45.7	-49.6	14.8	0.00e+00	0	43	0	503316480	63	5500
2026-01-18 00:45:03.30	323.01	36.34	-45.7	-49.6	14.7	0.00e+00	0	43	0	505413632	63	5496
2026-01-18 00:45:04.44	322.57	36.44	-45.7	-49.6	14.8	7.00e-07	0	43	0	507510784	63	5474
2026-01-18 00:45:05.29	322.24	36.52	-45.8	-49.7	14.6	0.00e+00	0	43	0	508559360	63	5560
2026-01-18 00:45:06.46	321.79	36.62	-45.7	-49.5	14.8	0.00e+00	0	43	0	510656512	63	5432
2026-01-18 00:45:07.31	321.46	36.70	-45.5	-49.0	15.3	0.00e+00	0	43	0	512753664	62	5462
2026-01-18 00:45:08.49	320.99	36.80	-45.3	-48.7	15.7	0.00e+00	0	43	0	514850816	62	5226
2026-01-18 00:45:09.34	320.66	36.87	-45.1	-48.3	16.0	0.00e+00	0	43	0	516947968	62	5012
2026-01-18 00:45:10.58	320.17	36.98	-45.0	-48.0	16.3	0.00e+00	0	43	0	519045120	61	5111
2026-01-18 00:45:11.43	319.83	37.05	-44.8	-47.8	16.5	0.00e+00	0	43	0	520093696	61	5010
2026-01-18 00:45:12.63	319.35	37.15	-44.6	-47.4	16.9	0.00e+00	0	43	0	522190848	61	4790
2026-01-18 00:45:13.48	319.01	37.22	-44.6	-47.5	16.9	0.00e+00	0	43	0	524288000	61	4838
2026-01-18 00:45:14.62	318.55	37.30	-44.4	-47.2	17.1	0.00e+00	0	43	0	526385152	60	4959
2026-01-18 00:45:15.47	318.20	37.37	-44.4	-47.1	17.2	0.00e+00	0	43	0	528482304	60	4896
2026-01-18 00:45:16.61	317.74	37.46	-44.4	-47.2	17.1	0.00e+00	0	43	0	530579456	60	4960
2026-01-18 00:45:17.47	317.38	37.52	-44.5	-47.2	17.1	0.00e+00	0	43	0	531628032	60	4965
2026-01-18 00:45:18.60	316.92	37.60	-44.3	-47.0	17.3	0.00e+00	0	43	0	533725184	60	4857
2026-01-18 00:45:19.46	316.56	37.66	-44.2	-46.9	17.4	0.00e+00	0	43	0	535822336	60	4789
2026-01-18 00:45:20.59	316.09	37.74	-44.0	-46.6	17.6	0.00e+00	0	43	0	537919488	60	4644
2026-01-18 00:45:21.45	315.73	37.80	-43.9	-46.5	17.7	0.00e+00	0	43	0	538968064	59	4815
2026-01-18 00:45:22.58	315.26	37.88	-43.7	-46.3	17.9	0.00e+00	0	43	0	541065216	59	4724
2026-01-18 00:45:23.44	314.90	37.93	-43.6	-46.2	18.0	0.00e+00	0	43	0	543162368	59	4679
2026-01-18 00:45:24.57	314.42	38.00	-43.5	-46.1	18.1	0.00e+00	0	43	0	545259520	59	4612
2026-01-18 00:45:25.43	314.05	38.06	-43.6	-46.1	18.0	0.00e+00	0	43	0	546308096	59	4638
2026-01-18 00:45:26.56	313.57	38.12	-43.7	-46.3	17.9	0.00e+00	0	43	0	548405248	59	4726
2026-01-18 00:45:27.41	313.21	38.17	-43.7	-46.3	17.9	0.00e+00	0	43	0	550502400	59	4750
2026-01-18 00:45:28.55	312.72	38.24	-43.7	-46.3	17.9	0.00e+00	0	43	0	552599552	59	4733
2026-01-18 00:45:29.40	312.36	38.28	-43.4	-45.9	18.3	0.00e+00	0	43	0	553648128	58	4768
2026-01-18 00:45:30.54	311.86	38.34	-43.3	-45.7	18.4	0.00e+00	0	43	0	556793856	58	4699
2026-01-18 00:45:31.39	311.50	38.39	-43.2	-45.7	18.5	0.00e+00	0	43	0	557842432	58	4689
2026-01-18 00:45:32.61	310.97	38.45	-43.1	-45.4	18.7	0.00e+00	0	43	0	559939584	58	4543
2026-01-18 00:45:33.46	310.59	38.49	-43.0	-45.4	18.8	0.00e+00	0	43	0	562036736	58	4499
2026-01-18 00:45:34.60	310.10	38.54	-42.9	-45.3	18.9	0.00e+00	0	43	0	564133888	57	4708
2026-01-18 00:45:35.45	309.72	38.58	-42.9	-45.3	18.9	0.00e+00	0	43	0	565182464	57	4706
2026-01-18 00:45:36.59	309.22	38.62	-43.1	-45.5	18.6	0.00e+00	0	43	0	567279616	57	4864
2026-01-18 00:45:37.45	308.84	38.66	-43.3	-45.7	18.5	0.00e+00	0	43	0	569376768	57	4960
2026-01-18 00:45:38.58	308.35	38.70	-43.1	-45.5	18.7	0.00e+00	0	43	0	571473920	57	4816
2026-01-18 00:45:39.44	307.96	38.73	-42.9	-45.2	18.9	0.00e+00	0	43	0	572522496	57	4688
2026-01-18 00:45:40.57	307.46	38.77	-42.9	-45.2	18.9	0.00e+00	0	43	0	574619648	57	4682
2026-01-18 00:45:41.42	307.09	38.80	-43.0	-45.4	18.7	0.00e+00	0	43	0	576716800	57	4806
2026-01-18 00:45:42.56	306.58	38.83	-42.9	-45.3	18.9	0.00e+00	0	43	0	578813952	57	4733
2026-01-18 00:45:43.41	306.20	38.86	-42.8	-45.2	19.0	0.00e+00	0	43	0	579862528	57	4666
2026-01-18 00:45:44.55	305.69	38.89	-42.5	-44.8	19.3	0.00e+00	0	43	0	583008256	56	4748
2026-01-18 00:45:45.40	305.31	38.91	-42.5	-44.8	19.4	0.00e+00	0	43	0	584056832	56	4723
2026-01-18 00:45:46.54	304.80	38.93	-42.4	-44.7	19.3	0.00e+00	0	43	0	586153984	56	4676
2026-01-18 00:45:47.39	304.41	38.95	-42.4	-44.7	19.4	0.00e+00	0	43	0	588251136	56	4674
2026-01-18 00:45:48.61	303.87	38.98	-42.5	-44.8	19.3	0.00e+00	0	43	0	590348288	56	4745
2026-01-18 00:45:49.46	303.48	38.99	-42.6	-44.9	19.2	0.00e+00	0	43	0	591396864	56	4807
2026-01-18 00:45:50.60	302.97	39.01	-42.7	-45.1	19.0	0.00e+00	0	43	0	593494016	56	4882
2026-01-18 00:45:51.45	302.59	39.02	-42.9	-45.3	18.8	0.00e+00	0	43	0	595591168	56	5014
2026-01-18 00:45:52.59	302.07	39.03	-42.8	-45.2	19.0	0.00e+00	0	43	0	597688320	56	4927
2026-01-18 00:45:53.50	301.66	39.04	-43.0	-45.3	18.8	0.00e+00	0	43	0	599785472	56	5010
2026-01-18 00:45:54.50	301.21	39.04	-43.2	-45.6	18.6	0.00e+00	0	43	0	600834048	57	4885
2026-01-18 00:45:55.49	300.76	39.05	-43.4	-45.8	18.3	0.00e+00	0	43	0	602931200	57	5027
2026-01-18 00:45:56.49	300.31	39.05	-43.5	-46.0	18.2	0.00e+00	0	43	0	605028352	57	5114
2026-01-18 00:45:57.49	299.86	39.05	-43.6	-46.1	18.1	0.00e+00	0	43	0	607125504	57	5172
2026-01-18 00:45:58.48	299.41	39.05	-43.7	-46.2	18.0	0.00e+00	0	43	0	608174080	57	5242
2026-01-18 00:45:59.48	298.96	39.05	-43.8	-46.4	17.8	0.00e+00	0	43	0	610271232	58	5048
2026-01-18 00:46:00.47	298.51	39.04	-43.8	-46.3	17.9	0.00e+00	0	43	0	612368384	58	5031
2026-01-18 00:46:01.46	298.06	39.03	-43.9	-46.6	17.7	0.00e+00	0	43	0	614465536	58	5161
2026-01-18 00:46:02.45	297.62	39.02	-44.2	-46.9	17.3	0.00e+00	0	43	0	616562688	59	5078
2026-01-18 00:46:03.45	297.17	39.01	-44.5	-47.3	17.0	0.00e+00	0	43	0	617611264	59	5318
2026-01-18 00:46:04.46	296.71	39.00	-44.5	-47.4	17.0	0.00e+00	0	43	0	619708416	59	5342
2026-01-18 00:46:05.48	296.25	38.98	-44.4	-47.1	17.1	0.00e+00	0	43	0	621805568	59	5212
2026-01-18 00:46:06.48	295.80	38.96	-44.2	-46.8	17.4	0.00e+00	0	43	0	623902720	59	5040
2026-01-18 00:46:07.54	295.32	38.94	-44.1	-46.8	17.4	0.00e+00	0	43	0	625999872	59	5008
2026-01-18 00:46:08.42	294.93	38.92	-44.3	-46.9	17.3	0.00e+00	0	43	0	627048448	59	5098
2026-01-18 00:46:09.56	294.42	38.90	-44.4	-47.1	17.1	0.00e+00	0	43	0	629145600	59	5199
2026-01-18 00:46:10.41	294.04	38.88	-44.6	-47.4	16.9	0.00e+00	0	43	0	631242752	59	5350
2026-01-18 00:46:11.55	293.53	38.84	-44.8	-47.6	16.7	0.00e+00	0	43	0	633339904	60	5195
2026-01-18 00:46:12.40	293.15	38.82	-44.8	-47.7	16.6	0.00e+00	0	43	0	634388480	60	5260
2026-01-18 00:46:13.54	292.64	38.78	-44.8	-47.7	16.6	0.00e+00	0	43	0	636485632	60	5271
2026-01-18 00:46:14.39	292.26	38.75	-45.0	-47.9	16.4	0.00e+00	0	43	0	638582784	60	5389
2026-01-18 00:46:15.53	291.76	38.71	-45.2	-48.2	16.1	0.00e+00	0	43	0	640679936	61	5263
2026-01-18 00:46:16.38	291.38	38.68	-45.3	-48.3	16.0	0.00e+00	0	43	0	641728512	61	5337
2026-01-18 00:46:17.52	290.88	38.64	-45.3	-48.3	16.1	0.00e+00	0	43	0	643825664	61	5324
2026-01-18 00:46:18.37	290.50	38.60	-45.3	-48.4	16.0	0.00e+00	0	43	0	645922816	61	5370
2026-01-18 00:46:19.51	290.00	38.55	-45.5	-48.7	15.6	0.00e+00	0	43	0	648019968	61	5566
2026-01-18 00:46:20.36	289.63	38.52	-45.5	-48.7	15.6	0.00e+00	0	43	0	650117120	61	5578
2026-01-18 00:46:21.58	289.10	38.46	-45.5	-48.6	15.7	0.00e+00	0	43	0	652214272	61	5508
2026-01-18 00:46:22.43	288.73	38.42	-45.6	-48.7	15.6	0.00e+00	0	43	0	653262848	61	5585
2026-01-18 00:46:23.62	288.21	38.36	-45.7	-48.9	15.5	0.00e+00	0	44	0	655360000	61	5667
2026-01-18 00:46:24.47	287.84	38.31	-46.0	-49.3	15.1	0.00e+00	0	43	0	657457152	62	5650
2026-01-18 00:46:25.69	287.32	38.25	-46.1	-49.6	14.8	0.00e+00	0	43	0	659554304	62	5835
2026-01-18 00:46:26.54	286.95	38.20	-46.4	-50.0	14.3	0.00e+00	0	43	0	661651456	63	5784
2026-01-18 00:46:27.68	286.46	38.14	-46.5	-50.2	14.2	1.50e-06	0	43	0	663748608	63	5872
2026-01-18 00:46:28.53	286.10	38.09	-46.7	-50.4	14.0	3.00e-06	0	43	0	664797184	63	6045
2026-01-18 00:46:29.67	285.61	38.02	-46.0	-49.4	15.0	0.00e+00	0	43	0	666894336	63	5355
2026-01-18 00:46:30.52	285.25	37.96	-45.9	-49.1	15.3	0.00e+00	0	43	0	668991488	63	5207
2026-01-18 00:46:31.66	284.77	37.89	-45.7	-48.9	15.4	0.00e+00	0	43	0	671088640	63	5094
2026-01-18 00:46:32.64	284.36	37.82	-45.6	-48.8	15.6	0.00e+00	0	43	0	673185792	63	5030
2026-01-18 00:46:33.79	283.88	37.75	-45.6	-48.8	15.5	0.00e+00	0	43	0	675282944	63	5022
2026-01-18 00:46:34.64	283.52	37.69	-45.5	-48.7	15.7	0.00e+00	0	43	0	676331520	62	5235
2026-01-18 00:46:36.02	282.95	37.59	-45.5	-48.6	15.7	0.00e+00	0	43	0	679477248	62	5218
2026-01-18 00:46:36.73	282.66	37.54	-45.7	-48.8	15.5	0.00e+00	0	43	0	680525824	62	5332
2026-01-18 00:46:38.01	282.13	37.44	-45.4	-48.5	15.8	0.00e+00	0	43	0	682622976	62	5155
2026-01-18 00:46:38.73	281.84	37.39	-45.2	-48.1	16.2	0.00e+00	0	43	0	683671552	62	4917
2026-01-18 00:46:40.22	281.23	37.27	-44.9	-47.8	16.5	0.00e+00	0	43	0	686817280	61	5029
2026-01-18 00:46:40.93	280.94	37.22	-44.7	-47.5	16.8	0.00e+00	0	43	0	687865856	61	4867
2026-01-18 00:46:42.21	280.43	37.11	-44.2	-46.9	17.4	0.00e+00	0	43	0	691011584	60	4761
2026-01-18 00:46:42.91	280.15	37.06	-44.0	-46.7	17.6	0.00e+00	0	43	0	692060160	60	4684
2026-01-18 00:46:44.21	279.63	36.95	-43.7	-46.2	18.0	0.00e+00	0	43	0	694157312	59	4695
2026-01-18 00:46:44.92	279.35	36.89	-43.7	-46.2	18.0	0.00e+00	0	43	0	696254464	59	4663
2026-01-18 00:46:46.20	278.84	36.78	-43.7	-46.2	18.0	0.00e+00	0	43	0	698351616	59	4667
2026-01-18 00:46:46.91	278.56	36.72	-43.7	-46.1	18.1	0.00e+00	0	43	0	699400192	59	4642
2026-01-18 00:46:48.19	278.06	36.60	-43.8	-46.3	17.9	0.00e+00	0	43	0	701497344	59	4729
2026-01-18 00:46:48.93	277.78	36.54	-43.8	-46.4	17.9	0.00e+00	0	43	0	703594496	59	4760
2026-01-18 00:46:50.21	277.28	36.42	-43.5	-45.9	18.3	0.00e+00	0	43	0	705691648	58	4805
2026-01-18 00:46:50.98	276.99	36.35	-43.2	-45.7	18.5	0.00e+00	0	43	0	706740224	58	4654
2026-01-18 00:46:52.26	276.50	36.23	-43.0	-45.4	18.8	0.00e+00	0	43	0	709885952	58	4517
2026-01-18 00:46:53.08	276.19	36.15	-43.0	-45.3	18.9	0.00e+00	0	43	0	710934528	57	4727
2026-01-18 00:46:54.50	275.65	36.02	-42.9	-45.3	18.9	0.00e+00	0	43	0	714080256	57	4707
2026-01-18 00:46:55.21	275.38	35.95	-43.2	-45.5	18.6	0.00e+00	0	43	0	715128832	57	4868
2026-01-18 00:46:56.49	274.91	35.82	-43.6	-46.1	18.1	0.00e+00	0	43	0	717225984	57	5199
2026-01-18 00:46:57.23	274.63	35.75	-43.9	-46.4	17.8	0.00e+00	0	43	0	719323136	58	5091
2026-01-18 00:46:58.75	274.07	35.60	-44.0	-46.6	17.6	0.00e+00	0	43	0	721420288	58	5200
2026-01-18 00:46:59.46	273.82	35.52	-43.9	-46.5	17.7	0.00e+00	0	43	0	722468864	58	5135
2026-01-18 00:47:00.74	273.35	35.39	-43.9	-46.5	17.8	0.00e+00	0	43	0	725614592	58	5102
2026-01-18 00:47:01.45	273.10	35.32	-43.9	-46.5	17.8	0.00e+00	0	43	0	726663168	58	5113
2026-01-18 00:47:02.73	272.64	35.19	-43.9	-46.4	17.8	0.00e+00	0	43	0	728760320	58	5073
2026-01-18 00:47:03.44	272.38	35.11	-44.0	-46.6	17.7	0.00e+00	0	43	0	730857472	58	5174
2026-01-18 00:47:04.72	271.93	34.97	-44.2	-46.8	17.4	0.00e+00	0	43	0	732954624	58	5310
2026-01-18 00:47:05.43	271.68	34.90	-44.3	-46.9	17.3	0.00e+00	0	43	0	734003200	59	5086
2026-01-18 00:47:06.70	271.24	34.76	-44.3	-46.9	17.4	0.00e+00	0	43	0	736100352	59	5100
2026-01-18 00:47:07.42	270.99	34.68	-44.4	-47.1	17.2	0.00e+00	0	43	0	738197504	59	5186
2026-01-18 00:47:08.70	270.55	34.54	-44.5	-47.3	17.0	0.00e+00	0	43	0	740294656	59	5281
2026-01-18 00:47:09.50	270.27	34.45	-44.6	-47.4	16.8	0.00e+00	0	43	0	741343232	59	5391
2026-01-18 00:47:10.64	269.89	34.33	-44.6	-47.4	16.9	0.00e+00	0	43	0	743440384	60	5060
2026-01-18 00:47:11.50	269.60	34.23	-44.4	-47.1	17.2	0.00e+00	0	43	0	745537536	60	4920
2026-01-18 00:47:12.63	269.22	34.10	-44.3	-47.0	17.3	0.00e+00	0	43	0	747634688	60	4826
2026-01-18 00:47:13.72	268.86	33.98	-44.3	-47.0	17.3	0.00e+00	0	43	0	749731840	60	4852
2026-01-18 00:47:14.58	268.57	33.88	-44.4	-47.1	17.2	0.00e+00	0	43	0	751828992	60	4918
2026-01-18 00:47:15.71	268.20	33.75	-44.6	-47.3	17.0	0.00e+00	0	43	0	753926144	60	5038
2026-01-18 00:47:16.82	267.84	33.62	-44.8	-47.6	16.8	0.00e+00	0	43	0	756023296	60	5192
2026-01-18 00:47:17.67	267.56	33.53	-45.1	-48.1	16.3	0.00e+00	0	44	0	757071872	60	5480
2026-01-18 00:47:18.81	267.20	33.39	-45.2	-48.2	16.2	0.00e+00	0	43	0	759169024	61	5249
2026-01-18 00:47:19.66	266.93	33.29	-45.2	-48.2	16.1	0.00e+00	0	43	0	761266176	61	5256
2026-01-18 00:47:20.80	266.57	33.16	-45.0	-47.9	16.4	0.00e+00	0	43	0	763363328	61	5073
2026-01-18 00:47:21.65	266.30	33.06	-45.0	-47.9	16.4	0.00e+00	0	43	0	764411904	61	5080
2026-01-18 00:47:22.79	265.95	32.92	-44.9	-47.8	16.6	0.00e+00	0	43	0	766509056	61	5026
2026-01-18 00:47:23.64	265.68	32.82	-45.0	-48.0	16.4	0.00e+00	0	43	0	768606208	61	5101
2026-01-18 00:47:24.78	265.33	32.68	-44.8	-47.7	16.6	0.00e+00	0	43	0	770703360	61	4976
2026-01-18 00:47:25.63	265.07	32.58	-45.2	-48.2	16.2	0.00e+00	0	43	0	771751936	61	5247
2026-01-18 00:47:26.77	264.73	32.45	-45.3	-48.3	15.9	0.00e+00	0	43	0	773849088	61	5338
2026-01-18 00:47:27.62	264.47	32.34	-45.5	-48.6	15.7	0.00e+00	0	43	0	775946240	61	5502
2026-01-18 00:47:28.98	264.07	32.18	-45.6	-48.9	15.4	0.00e+00	0	43	0	778043392	61	5679
2026-01-18 00:47:29.69	263.86	32.09	-45.7	-49.1	15.3	0.00e+00	0	43	0	780140544	62	5475
2026-01-18 00:47:30.97	263.48	31.93	-45.4	-48.7	15.6	0.00e+00	0	43	0	782237696	62	5274
2026-01-18 00:47:31.70	263.27	31.84	-45.4	-48.6	15.7	0.00e+00	0	43	0	783286272	62	5211
2026-01-18 00:47:33.23	262.83	31.66	-45.2	-48.4	15.9	0.00e+00	0	43	0	786432000	62	5076
2026-01-18 00:47:33.94	262.62	31.57	-45.4	-48.6	15.7	0.00e+00	0	43	0	787480576	62	5202
2026-01-18 00:47:35.28	262.24	31.40	-45.7	-49.0	15.4	0.00e+00	0	43	0	790626304	62	5433
2026-01-18 00:47:36.26	261.97	31.28	-45.8	-49.1	15.2	0.00e+00	0	44	0	791674880	62	5480
2026-01-18 00:47:37.26	261.69	31.16	-45.9	-49.3	15.1	0.00e+00	0	43	0	793772032	62	5629
2026-01-18 00:47:38.26	261.41	31.03	-45.9	-49.3	15.0	0.00e+00	0	43	0	795869184	62	5647
2026-01-18 00:47:39.25	261.14	30.91	-45.9	-49.4	15.0	0.00e+00	0	43	0	797966336	62	5676
2026-01-18 00:47:40.24	260.87	30.79	-45.7	-49.1	15.3	0.00e+00	0	43	0	799014912	62	5467
2026-01-18 00:47:41.24	260.60	30.66	-45.5	-48.8	15.6	0.00e+00	0	43	0	801112064	62	5303
2026-01-18 00:47:42.23	260.33	30.54	-45.4	-48.6	15.7	0.00e+00	0	43	0	803209216	62	5196
2026-01-18 00:47:43.23	260.07	30.41	-45.2	-48.3	16.0	0.00e+00	0	43	0	805306368	62	5039
2026-01-18 00:47:44.22	259.80	30.29	-45.1	-48.2	16.2	0.00e+00	0	44	0	807403520	62	4939
2026-01-18 00:47:45.22	259.54	30.16	-45.1	-48.2	16.1	0.00e+00	0	43	0	808452096	62	4955
2026-01-18 00:47:46.26	259.27	30.03	-45.1	-48.2	16.1	0.00e+00	0	43	0	810549248	62	4960
2026-01-18 00:47:47.24	259.02	29.91	-45.0	-48.1	16.2	0.00e+00	0	43	0	812646400	62	4888
2026-01-18 00:47:48.23	258.76	29.78	-44.9	-47.9	16.4	0.00e+00	0	43	0	814743552	61	5079
2026-01-18 00:47:49.32	258.48	29.65	-44.9	-47.9	16.3	0.00e+00	0	43	0	816840704	61	5052
2026-01-18 00:47:50.21	258.26	29.53	-44.9	-47.8	16.5	0.00e+00	0	43	0	817889280	61	5024
2026-01-18 00:47:51.34	257.98	29.39	-44.8	-47.7	16.6	0.00e+00	0	43	0	819986432	61	4931
2026-01-18 00:47:52.20	257.76	29.28	-44.6	-47.5	16.8	0.00e+00	0	44	0	822083584	61	4816
2026-01-18 00:47:53.34	257.48	29.14	-44.6	-47.5	16.8	0.00e+00	0	43	0	824180736	61	4822
2026-01-18 00:47:54.19	257.27	29.03	-44.4	-47.2	17.1	0.00e+00	0	43	0	825229312	60	4948
2026-01-18 00:47:55.33	257.00	28.89	-44.3	-47.0	17.3	0.00e+00	0	43	0	827326464	60	4832
2026-01-18 00:47:56.18	256.79	28.78	-44.3	-47.0	17.3	0.00e+00	0	43	0	829423616	60	4862
2026-01-18 00:47:57.32	256.52	28.64	-44.2	-47.0	17.3	0.00e+00	0	43	0	831520768	60	4827
2026-01-18 00:47:58.17	256.32	28.53	-44.2	-47.0	17.3	0.00e+00	0	43	0	833617920	60	4834
2026-01-18 00:47:59.31	256.05	28.39	-44.1	-46.9	17.4	0.00e+00	0	43	0	835715072	60	4773
2026-01-18 00:48:00.16	255.85	28.28	-44.0	-46.7	17.5	0.00e+00	0	43	0	836763648	60	4694
2026-01-18 00:48:01.30	255.59	28.14	-44.0	-46.7	17.6	0.00e+00	0	43	0	838860800	60	4664
2026-01-18 00:48:02.15	255.39	28.03	-43.9	-46.6	17.6	0.00e+00	0	43	0	840957952	59	4883
2026-01-18 00:48:03.37	255.12	27.87	-43.8	-46.4	17.9	0.00e+00	0	43	0	843055104	59	4766
2026-01-18 00:48:04.22	254.92	27.77	-43.7	-46.2	18.0	0.00e+00	0	43	0	844103680	59	4666
2026-01-18 00:48:05.36	254.67	27.62	-43.5	-46.0	18.1	0.00e+00	0	43	0	846200832	59	4579
2026-01-18 00:48:06.21	254.48	27.52	-43.6	-46.1	18.1	0.00e+00	0	43	0	848297984	59	4621
2026-01-18 00:48:07.35	254.23	27.37	-43.6	-46.1	18.1	0.00e+00	0	43	0	850395136	59	4614
2026-01-18 00:48:08.20	254.04	27.27	-43.7	-46.3	17.9	0.00e+00	0	43	0	851443712	59	4723
2026-01-18 00:48:09.34	253.79	27.12	-43.8	-46.4	17.8	0.00e+00	0	43	0	853540864	59	4795
2026-01-18 00:48:10.19	253.61	27.02	-43.8	-46.4	17.7	0.00e+00	0	43	0	855638016	59	4803
2026-01-18 00:48:11.33	253.37	26.87	-43.5	-46.1	18.1	0.00e+00	0	43	0	857735168	59	4621
2026-01-18 00:48:12.18	253.19	26.77	-43.5	-46.1	18.1	0.00e+00	0	43	0	859832320	58	4876
2026-01-18 00:48:13.32	252.95	26.63	-43.3	-45.8	18.4	0.00e+00	0	43	0	861929472	58	4734
2026-01-18 00:48:14.17	252.77	26.52	-43.2	-45.6	18.5	0.00e+00	0	43	0	862978048	58	4647
2026-01-18 00:48:15.31	252.53	26.38	-43.2	-45.6	18.6	0.00e+00	0	43	0	865075200	58	4604
2026-01-18 00:48:16.16	252.36	26.27	-43.2	-45.6	18.5	0.00e+00	0	43	0	867172352	58	4640
2026-01-18 00:48:17.30	252.13	26.13	-43.2	-45.6	18.5	0.00e+00	0	43	0	869269504	58	4644
2026-01-18 00:48:18.15	251.95	26.02	-43.2	-45.6	18.6	0.00e+00	0	43	0	870318080	58	4612
2026-01-18 00:48:19.29	251.73	25.88	-43.2	-45.6	18.5	0.00e+00	0	43	0	872415232	58	4622
2026-01-18 00:48:20.14	251.56	25.78	-43.3	-45.8	18.3	0.00e+00	0	43	0	874512384	58	4737
2026-01-18 00:48:21.29	251.33	25.64	-43.4	-45.8	18.3	0.00e+00	0	43	0	876609536	58	4754
2026-01-18 00:48:22.15	251.16	25.53	-43.3	-45.7	18.4	0.00e+00	0	43	0	877658112	58	4704
2026-01-18 00:48:23.28	250.94	25.39	-43.3	-45.7	18.4	0.00e+00	0	43	0	879755264	58	4702
2026-01-18 00:48:24.14	250.77	25.29	-43.2	-45.6	18.5	0.00e+00	0	43	0	881852416	58	4610
2026-01-18 00:48:25.27	250.56	25.15	-43.2	-45.6	18.5	0.00e+00	0	43	0	883949568	58	4624
2026-01-18 00:48:26.13	250.39	25.04	-43.2	-45.5	18.6	0.00e+00	0	43	0	886046720	58	4587
2026-01-18 00:48:27.47	250.14	24.88	-43.3	-45.7	18.4	0.00e+00	0	43	0	888143872	58	4670
2026-01-18 00:48:28.18	250.01	24.79	-43.3	-45.7	18.4	0.00e+00	0	43	0	889192448	58	4670
2026-01-18 00:48:29.46	249.77	24.63	-43.5	-46.0	18.2	0.00e+00	0	43	0	891289600	58	4841
2026-01-18 00:48:30.17	249.64	24.55	-43.7	-46.2	18.0	0.00e+00	0	43	0	893386752	58	4945
2026-01-18 00:48:31.74	249.35	24.36	-43.5	-45.9	18.2	0.00e+00	0	43	0	896532480	58	4809
2026-01-18 00:48:32.38	249.24	24.28	-43.4	-45.9	18.2	0.00e+00	0	43	0	897581056	58	4773
2026-01-18 00:48:33.80	248.98	24.11	-43.5	-46.0	18.2	0.00e+00	0	43	0	899678208	58	4815
2026-01-18 00:48:34.51	248.86	24.02	-43.5	-46.0	18.1	0.00e+00	0	43	0	901775360	58	4828
2026-01-18 00:48:35.79	248.63	23.87	-43.4	-45.9	18.2	0.00e+00	0	43	0	903872512	58	4800
2026-01-18 00:48:36.50	248.51	23.78	-43.4	-45.9	18.2	0.00e+00	0	43	0	904921088	58	4779
2026-01-18 00:48:37.78	248.28	23.63	-43.4	-45.9	18.2	0.00e+00	0	43	0	907018240	58	4795
2026-01-18 00:48:38.49	248.16	23.55	-43.4	-45.9	18.2	0.00e+00	0	43	0	909115392	58	4765
2026-01-18 00:48:39.79	247.94	23.39	-43.3	-45.7	18.4	0.00e+00	0	43	0	911212544	58	4671
2026-01-18 00:48:40.50	247.82	23.31	-43.3	-45.8	18.4	0.00e+00	0	43	0	912261120	58	4710
2026-01-18 00:48:41.78	247.60	23.16	-43.4	-45.9	18.2	0.00e+00	0	43	0	914358272	58	4779
2026-01-18 00:48:42.49	247.48	23.07	-43.4	-45.8	18.3	0.00e+00	0	43	0	916455424	58	4752
2026-01-18 00:48:43.77	247.27	22.92	-43.6	-46.1	18.1	0.00e+00	0	43	0	918552576	58	4883
2026-01-18 00:48:44.57	247.14	22.83	-43.5	-46.0	18.1	0.00e+00	0	43	0	919601152	58	4865
2026-01-18 00:48:46.01	246.90	22.66	-43.7	-46.2	18.0	0.00e+00	0	43	0	922746880	58	4941
2026-01-18 00:48:46.72	246.79	22.57	-43.8	-46.4	17.8	0.00e+00	0	43	0	923795456	58	5046
2026-01-18 00:48:48.00	246.58	22.42	-43.7	-46.2	17.9	0.00e+00	0	43	0	926941184	58	4947
2026-01-18 00:48:48.71	246.47	22.34	-43.7	-46.3	17.8	0.00e+00	0	43	0	927989760	58	4991
2026-01-18 00:48:50.23	246.23	22.16	-43.7	-46.3	17.8	0.00e+00	0	43	0	931135488	58	5024
2026-01-18 00:48:50.94	246.12	22.08	-43.6	-46.1	18.0	0.00e+00	0	43	0	932184064	58	4919
2026-01-18 00:48:52.22	245.92	21.93	-43.8	-46.3	17.8	0.00e+00	0	43	0	934281216	58	5033
2026-01-18 00:48:53.28	245.76	21.81	-43.8	-46.3	17.8	0.00e+00	0	43	0	936378368	58	5018
2026-01-18 00:48:54.15	245.62	21.71	-44.0	-46.6	17.5	0.00e+00	0	43	0	938475520	58	5208
2026-01-18 00:48:55.29	245.45	21.58	-44.1	-46.8	17.4	0.00e+00	0	43	0	940572672	58	5287
2026-01-18 00:48:56.14	245.32	21.48	-44.2	-46.9	17.3	0.00e+00	0	43	0	941621248	59	5075
2026-01-18 00:48:57.29	245.15	21.35	-44.1	-46.8	17.3	0.00e+00	0	43	0	943718400	59	5023
2026-01-18 00:48:58.15	245.02	21.25	-44.3	-47.0	17.2	0.00e+00	0	43	0	945815552	59	5134
2026-01-18 00:48:59.29	244.85	21.13	-44.3	-47.0	17.1	0.00e+00	0	43	0	947912704	59	5139
2026-01-18 00:49:00.14	244.73	21.03	-44.4	-47.2	17.0	0.00e+00	0	43	0	948961280	59	5246
2026-01-18 00:49:01.27	244.56	20.90	-44.5	-47.2	16.9	0.00e+00	0	43	0	951058432	59	5265
2026-01-18 00:49:02.16	244.43	20.80	-44.4	-47.1	17.1	0.00e+00	0	43	0	953155584	59	5176
2026-01-18 00:49:03.29	244.27	20.67	-44.5	-47.2	16.9	0.00e+00	0	43	0	955252736	59	5250
2026-01-18 00:49:04.15	244.15	20.58	-44.6	-47.3	16.9	0.00e+00	0	43	0	956301312	59	5329
2026-01-18 00:49:05.51	243.96	20.43	-44.3	-47.0	17.1	0.00e+00	0	43	0	959447040	59	5145
2026-01-18 00:49:06.22	243.86	20.35	-44.1	-46.7	17.4	0.00e+00	0	43	0	960495616	59	4982
2026-01-18 00:49:07.50	243.68	20.21	-44.2	-46.9	17.3	0.00e+00	0	43	0	962592768	59	5048
2026-01-18 00:49:08.21	243.58	20.13	-44.2	-46.9	17.3	0.00e+00	0	43	0	964689920	59	5063
2026-01-18 00:49:09.49	243.41	19.99	-44.2	-46.9	17.2	0.00e+00	0	43	0	966787072	59	5071
2026-01-18 00:49:10.23	243.31	19.90	-44.2	-46.9	17.2	0.00e+00	0	43	0	967835648	59	5077
2026-01-18 00:49:11.51	243.13	19.76	-44.4	-47.1	17.1	0.00e+00	0	43	0	970981376	59	5180
2026-01-18 00:49:12.25	243.04	19.68	-44.4	-47.1	17.1	0.00e+00	0	43	0	972029952	59	5212
2026-01-18 00:49:13.53	242.86	19.54	-44.4	-47.1	17.0	0.00e+00	0	43	0	974127104	59	5190
2026-01-18 00:49:14.24	242.77	19.47	-44.5	-47.2	16.9	0.00e+00	0	43	0	976224256	59	5246
2026-01-18 00:49:15.52	242.60	19.33	-44.6	-47.4	16.8	0.00e+00	0	43	0	978321408	59	5391
2026-01-18 00:49:16.24	242.51	19.25	-44.5	-47.3	16.9	0.00e+00	0	43	0	979369984	60	5032
2026-01-18 00:49:17.52	242.34	19.11	-44.6	-47.4	16.8	0.00e+00	0	43	0	981467136	60	5098
2026-01-18 00:49:18.25	242.25	19.03	-44.6	-47.4	16.8	0.00e+00	0	43	0	983564288	60	5060
2026-01-18 00:49:19.54	242.09	18.89	-44.7	-47.5	16.7	0.00e+00	0	43	0	985661440	60	5151
2026-01-18 00:49:20.25	242.00	18.82	-44.6	-47.5	16.6	0.00e+00	0	43	0	986710016	60	5145
2026-01-18 00:49:21.53	241.84	18.68	-44.7	-47.6	16.6	0.00e+00	0	43	0	989855744	60	5166
2026-01-18 00:49:22.24	241.75	18.61	-44.7	-47.6	16.6	0.00e+00	0	43	0	990904320	60	5205
2026-01-18 00:49:23.52	241.59	18.47	-44.6	-47.6	16.6	0.00e+00	0	43	0	993001472	60	5199
2026-01-18 00:49:24.23	241.50	18.40	-44.5	-47.4	16.8	0.00e+00	0	43	0	994050048	60	5074
2026-01-18 00:49:25.51	241.34	18.26	-44.4	-47.3	16.9	0.00e+00	0	43	0	997195776	60	4992
2026-01-18 00:49:26.22	241.26	18.19	-44.3	-47.2	17.0	0.00e+00	0	43	0	998244352	60	4933
2026-01-18 00:49:27.50	241.10	18.05	-44.2	-47.0	17.1	0.00e+00	0	43	0	1000341504	60	4856
2026-01-18 00:49:28.21	241.02	17.98	-44.2	-47.0	17.2	0.00e+00	0	43	0	1002438656	60	4852
2026-01-18 00:49:29.49	240.87	17.85	-44.2	-47.0	17.1	0.00e+00	0	43	0	1004535808	60	4854
2026-01-18 00:49:30.22	240.78	17.77	-44.3	-47.1	17.0	0.00e+00	0	43	0	1005584384	60	4911
2026-01-18 00:49:31.50	240.63	17.64	-44.3	-47.1	17.1	0.00e+00	0	43	0	1007681536	60	4876
2026-01-18 00:49:32.22	240.55	17.56	-44.3	-47.0	17.1	0.00e+00	0	43	0	1009778688	60	4858
2026-01-18 00:49:33.50	240.40	17.43	-44.4	-47.1	17.0	0.00e+00	0	43	0	1011875840	60	4925
2026-01-18 00:49:34.24	240.31	17.36	-44.5	-47.3	16.9	0.00e+00	0	43	0	1012924416	60	4989
2026-01-18 00:49:35.52	240.17	17.22	-44.5	-47.3	16.9	0.00e+00	0	43	0	1016070144	60	4992
2026-01-18 00:49:36.25	240.09	17.15	-44.5	-47.3	16.8	0.00e+00	0	43	0	1017118720	60	5024
2026-01-18 00:49:37.53	239.94	17.02	-44.5	-47.4	16.8	0.00e+00	0	44	0	1019215872	60	5042
2026-01-18 00:49:38.24	239.86	16.95	-44.4	-47.2	17.0	0.00e+00	0	43	0	1020264448	60	4929
2026-01-18 00:49:39.52	239.72	16.82	-44.4	-47.1	17.0	0.00e+00	0	43	0	1023410176	60	4916
2026-01-18 00:49:40.23	239.64	16.75	-44.4	-47.1	17.0	0.00e+00	0	43	0	1024458752	60	4913
2026-01-18 00:49:41.51	239.50	16.62	-44.3	-47.1	17.0	0.00e+00	0	43	0	1026555904	60	4874
2026-01-18 00:49:42.23	239.43	16.55	-44.3	-47.1	17.0	0.00e+00	0	43	0	1028653056	60	4893
2026-01-18 00:49:43.51	239.29	16.42	-44.3	-47.1	17.0	0.00e+00	0	43	0	1030750208	60	4898
2026-01-18 00:49:44.22	239.21	16.35	-44.3	-47.0	17.1	0.00e+00	0	43	0	1031798784	60	4860
2026-01-18 00:49:45.71	239.05	16.20	-44.3	-47.1	17.0	0.00e+00	0	43	0	1034944512	60	4894
2026-01-18 00:49:46.42	238.98	16.13	-44.4	-47.2	17.0	0.00e+00	0	43	0	1035993088	60	4933
2026-01-18 00:49:47.76	238.84	16.00	-44.5	-47.3	16.8	0.00e+00	0	43	0	1039138816	60	5016
2026-01-18 00:49:48.47	238.76	15.93	-44.5	-47.3	16.8	0.00e+00	0	43	0	1040187392	60	5033
2026-01-18 00:49:49.75	238.63	15.80	-44.4	-47.3	16.9	0.00e+00	0	43	0	1042284544	60	4998
2026-01-18 00:49:50.46	238.56	15.74	-44.5	-47.3	16.8	0.00e+00	0	44	0	1043333120	60	5035
2026-01-18 00:49:51.74	238.43	15.61	-44.6	-47.5	16.6	0.00e+00	0	43	0	1046478848	60	5132
2026-01-18 00:49:52.45	238.36	15.54	-44.6	-47.6	16.5	0.00e+00	0	43	0	1047527424	60	5172
2026-01-18 00:49:53.73	238.23	15.42	-44.7	-47.6	16.5	0.00e+00	0	43	0	1049624576	60	5218
2026-01-18 00:49:54.45	238.15	15.35	-44.7	-47.6	16.5	0.00e+00	0	43	0	1050673152	60	5188
2026-01-18 00:49:55.73	238.03	15.23	-44.8	-47.7	16.4	0.00e+00	0	43	0	1053818880	60	5252
2026-01-18 00:49:56.46	237.96	15.16	-44.8	-47.8	16.4	0.00e+00	0	43	0	1054867456	60	5283
2026-01-18 00:49:57.74	237.83	15.03	-44.5	-47.4	16.7	0.00e+00	0	43	0	1056964608	60	5071
2026-01-18 00:49:58.45	237.76	14.97	-44.7	-47.6	16.5	0.00e+00	0	43	0	1059061760	60	5163
2026-01-18 00:49:59.73	237.64	14.84	-44.6	-47.5	16.6	0.00e+00	0	43	0	1061158912	60	5157
2026-01-18 00:50:00.45	237.57	14.78	-44.6	-47.5	16.6	0.00e+00	0	43	0	1062207488	60	5126
2026-01-18 00:50:01.73	237.44	14.66	-44.5	-47.4	16.7	0.00e+00	0	43	0	1064304640	60	5078
2026-01-18 00:50:02.68	237.35	14.57	-44.4	-47.2	16.9	0.00e+00	0	43	0	1066401792	60	4963
2026-01-18 00:50:03.97	237.23	14.44	-44.4	-47.2	16.9	0.00e+00	0	43	0	1068498944	60	4976
2026-01-18 00:50:04.69	237.17	14.38	-44.2	-47.1	17.0	0.00e+00	0	43	0	1070596096	60	4881
2026-01-18 00:50:06.31	237.02	14.23	-44.3	-47.2	16.9	0.00e+00	0	43	0	1073741824	60	4942
2026-01-18 00:50:06.88	236.96	14.17	-44.3	-47.2	16.9	0.00e+00	0	43	0	1074790400	60	4945
2026-01-18 00:50:08.59	236.81	14.02	-44.6	-47.5	16.6	0.00e+00	0	43	0	1077936128	60	5143
2026-01-18 00:50:09.16	236.75	13.96	-44.6	-47.6	16.5	0.00e+00	0	43	0	1078984704	60	5181
2026-01-18 00:50:10.86	236.60	13.81	-44.7	-47.7	16.4	0.00e+00	0	43	0	1082130432	60	5228
2026-01-18 00:50:11.43	236.55	13.75	-44.7	-47.8	16.3	0.00e+00	0	43	0	1083179008	60	5289
2026-01-18 00:50:13.14	236.40	13.60	-44.8	-47.9	16.2	0.00e+00	0	43	0	1086324736	60	5348
2026-01-18 00:50:13.71	236.35	13.55	-44.8	-47.8	16.2	0.00e+00	0	43	0	1087373312	60	5335
2026-01-18 00:50:15.40	236.20	13.39	-44.8	-47.8	16.3	0.00e+00	0	43	0	1090519040	60	5307
2026-01-18 00:50:15.97	236.15	13.34	-44.8	-47.8	16.2	0.00e+00	0	43	0	1091567616	60	5340
2026-01-18 00:50:17.67	236.00	13.19	-44.8	-47.9	16.2	0.00e+00	0	43	0	1094713344	60	5349
2026-01-18 00:50:18.24	235.95	13.14	-44.8	-47.8	16.2	0.00e+00	0	43	0	1095761920	60	5335
2026-01-18 00:50:20.13	235.79	12.97	-45.0	-48.2	15.9	0.00e+00	0	43	0	1098907648	60	5570
2026-01-18 00:50:21.05	235.71	12.89	-44.9	-48.0	16.1	0.00e+00	0	43	0	1101004800	60	5411
2026-01-18 00:50:22.05	235.63	12.80	-44.8	-47.9	16.1	0.00e+00	0	43	0	1103101952	60	5383
2026-01-18 00:50:23.04	235.55	12.71	-45.0	-48.1	15.9	0.00e+00	0	43	0	1105199104	60	5525
2026-01-18 00:50:24.04	235.47	12.62	-45.0	-48.2	15.9	0.00e+00	0	43	0	1106247680	60	5551
2026-01-18 00:50:25.03	235.38	12.53	-45.0	-48.1	15.9	0.00e+00	0	43	0	1108344832	60	5503
2026-01-18 00:50:26.03	235.30	12.45	-45.1	-48.3	15.7	0.00e+00	0	43	0	1110441984	60	5653
2026-01-18 00:50:27.02	235.22	12.36	-45.1	-48.4	15.7	0.00e+00	0	43	0	1112539136	61	5344
2026-01-18 00:50:28.01	235.14	12.27	-45.2	-48.4	15.6	0.00e+00	0	43	0	1113587712	61	5391
2026-01-18 00:50:29.01	235.06	12.19	-45.2	-48.5	15.6	0.00e+00	0	43	0	1115684864	61	5442
2026-01-18 00:50:30.00	234.98	12.10	-45.2	-48.5	15.6	0.00e+00	0	43	0	1117782016	61	5421
2026-01-18 00:50:31.00	234.90	12.01	-45.1	-48.4	15.7	0.00e+00	0	43	0	1119879168	61	5355
2026-01-18 00:50:31.99	234.82	11.93	-45.1	-48.3	15.7	0.00e+00	0	43	0	1121976320	61	5320
2026-01-18 00:50:32.99	234.74	11.84	-45.1	-48.4	15.7	0.00e+00	0	43	0	1123024896	61	5344
2026-01-18 00:50:33.98	234.67	11.76	-45.0	-48.3	15.8	0.00e+00	0	43	0	1125122048	61	5281
2026-01-18 00:50:34.98	234.59	11.67	-45.1	-48.4	15.7	0.00e+00	0	43	0	1127219200	61	5342
2026-01-18 00:50:35.97	234.51	11.59	-45.0	-48.2	15.8	0.00e+00	0	43	0	1129316352	61	5248
2026-01-18 00:50:36.96	234.44	11.50	-44.9	-48.0	16.0	0.00e+00	0	43	0	1130364928	61	5130
2026-01-18 00:50:37.96	234.36	11.42	-45.0	-48.2	15.8	0.00e+00	0	43	0	1132462080	61	5246
2026-01-18 00:50:38.95	234.29	11.34	-45.0	-48.1	15.9	0.00e+00	0	43	0	1134559232	61	5188
2026-01-18 00:50:39.95	234.21	11.25	-45.1	-48.3	15.7	0.00e+00	0	43	0	1136656384	61	5285
2026-01-18 00:50:40.94	234.14	11.17	-45.0	-48.2	15.8	0.00e+00	0	43	0	1138753536	61	5262
2026-01-18 00:50:41.94	234.06	11.08	-45.0	-48.1	15.9	0.00e+00	0	43	0	1139802112	61	5210
2026-01-18 00:50:42.94	233.99	11.00	-45.2	-48.5	15.5	0.00e+00	0	43	0	1141899264	61	5427
2026-01-18 00:50:43.93	233.92	10.92	-45.3	-48.6	15.4	0.00e+00	0	43	0	1143996416	61	5490
2026-01-18 00:50:44.92	233.84	10.84	-45.4	-48.7	15.3	0.00e+00	0	43	0	1146093568	61	5568
2026-01-18 00:50:45.92	233.77	10.75	-45.4	-48.8	15.2	0.00e+00	0	43	0	1147142144	61	5634
2026-01-18 00:50:46.92	233.70	10.67	-45.4	-48.9	15.1	0.00e+00	0	43	0	1149239296	61	5657
2026-01-18 00:50:47.91	233.63	10.59	-45.6	-49.0	15.0	0.00e+00	0	43	0	1151336448	61	5781
2026-01-18 00:50:48.90	233.56	10.51	-45.6	-49.1	14.9	0.00e+00	0	43	0	1153433600	61	5794
2026-01-18 00:50:49.90	233.48	10.43	-45.7	-49.3	14.7	7.00e-07	0	43	0	1155530752	62	5629
2026-01-18 00:50:50.93	233.41	10.34	-45.6	-49.1	14.8	7.00e-07	0	43	0	1156579328	62	5519
2026-01-18 00:50:51.95	233.34	10.26	-45.6	-49.2	14.8	0.00e+00	0	43	0	1158676480	62	5562
2026-01-18 00:50:52.98	233.27	10.17	-45.7	-49.3	14.7	0.00e+00	0	43	0	1160773632	62	5630
2026-01-18 00:50:53.97	233.20	10.09	-45.7	-49.3	14.7	7.00e-07	0	43	0	1162870784	62	5642
2026-01-18 00:50:54.97	233.13	10.01	-45.8	-49.5	14.5	0.00e+00	0	43	0	1164967936	62	5756
2026-01-18 00:50:55.96	233.06	9.93	-45.8	-49.6	14.4	7.00e-07	0	43	0	1166016512	62	5808
2026-01-18 00:50:56.96	232.99	9.85	-45.7	-49.4	14.5	0.00e+00	0	43	0	1168113664	62	5694
2026-01-18 00:50:57.95	232.93	9.77	-45.6	-49.1	14.8	7.00e-07	0	43	0	1170210816	62	5514
2026-01-18 00:50:58.95	232.86	9.69	-45.6	-49.1	14.8	0.00e+00	0	43	0	1172307968	62	5521
2026-01-18 00:50:59.95	232.79	9.61	-45.5	-49.0	14.9	0.00e+00	0	43	0	1174405120	62	5456
2026-01-18 00:51:00.94	232.73	9.54	-45.5	-49.0	14.9	0.00e+00	0	43	0	1175453696	62	5439
2026-01-18 00:51:01.94	232.66	9.46	-45.5	-48.9	15.0	0.00e+00	0	43	0	1177550848	62	5391
2026-01-18 00:51:02.93	232.59	9.38	-45.4	-48.9	15.0	0.00e+00	0	43	0	1179648000	62	5352
2026-01-18 00:51:03.92	232.53	9.30	-45.6	-49.1	14.8	0.00e+00	0	43	0	1181745152	62	5485
2026-01-18 00:51:04.92	232.46	9.22	-45.5	-48.9	15.0	7.00e-07	0	44	0	1182793728	62	5391
2026-01-18 00:51:05.92	232.40	9.14	-45.6	-49.1	14.8	7.00e-07	0	43	0	1184890880	62	5501
2026-01-18 00:51:06.96	232.33	9.06	-45.7	-49.2	14.7	0.00e+00	0	43	0	1186988032	62	5575
2026-01-18 00:51:07.94	232.27	8.99	-49.6	-64.9	3.8	8.56e-02	0	43	104	1189085184	69	22685
2026-01-18 00:51:08.93	232.21	8.91	-50.1	-65.4	3.8	1.49e+00	0	43	104	1189085184	70	22722
2026-01-18 00:51:09.93	232.14	8.83	-50.1	-65.6	3.8	1.49e+00	0	43	104	1189085184	71	21913
2026-01-18 00:51:10.92	232.08	8.75	-50.1	-65.7	3.8	1.49e+00	0	43	104	1189085184	71	22103
2026-01-18 00:51:11.91	232.02	8.68	-50.5	-65.7	3.8	1.49e+00	0	43	104	1189085184	71	22261
2026-01-18 00:51:12.91	231.96	8.60	-50.6	-65.8	3.8	1.49e+00	0	43	104	1189085184	71	22415
2026-01-18 00:51:13.90	231.89	8.52	-50.4	-65.9	3.8	1.49e+00	0	44	104	1189085184	71	22540
2026-01-18 00:51:14.89	231.83	8.45	-50.6	-65.9	3.8	1.49e+00	0	43	104	1189085184	71	22676
2026-01-18 00:51:15.89	231.77	8.37	-50.6	-65.9	3.8	1.49e+00	0	43	104	1189085184	71	22631
2026-01-18 00:51:16.88	231.71	8.30	-50.5	-65.9	3.8	1.49e+00	0	43	104	1189085184	71	22652
2026-01-18 00:51:17.87	231.65	8.22	-50.6	-65.9	3.8	1.49e+00	0	43	104	1189085184	71	22766
2026-01-18 00:51:18.87	231.59	8.15	-50.5	-65.9	3.8	1.49e+00	0	44	104	1189085184	72	21398
2026-01-18 00:51:19.86	231.53	8.07	-50.6	-65.9	3.8	1.49e+00	0	44	104	1189085184	72	21278
2026-01-18 00:51:20.85	231.47	8.00	-50.6	-65.9	3.8	1.49e+00	0	44	104	1189085184	72	21389
2026-01-18 00:51:21.85	231.41	7.92	-50.5	-65.9	3.8	1.49e+00	0	44	104	1189085184	72	21480
2026-01-18 00:51:22.84	231.35	7.85	-50.6	-65.9	3.8	1.49e+00	0	43	104	1189085184	72	21453
2026-01-18 00:51:23.83	231.29	7.77	-50.6	-65.9	3.8	1.49e+00	0	43	104	1189085184	72	21423
2026-01-18 00:51:24.83	231.24	7.70	-50.6	-65.9	3.8	1.49e+00	0	43	104	1189085184	72	21444
2026-01-18 00:51:25.82	231.18	7.62	-50.6	-65.9	3.8	1.49e+00	0	43	104	1189085184	72	21407
2026-01-18 00:51:26.81	231.12	7.55	-50.5	-65.9	3.8	1.49e+00	0	44	104	1189085184	72	21308
2026-01-18 00:51:27.81	231.06	7.48	-50.4	-65.9	3.8	1.49e+00	0	43	104	1189085184	72	21317
