passes_logs/2026/01/18/T1/T1__20260118_001906_SUOMI_NPP_rec.log

#Pass ID: 20260118_001906_SUOMI NPP
#Satellite: SUOMI NPP
#Configuration: NPP
#almurnet v.1.7.20251203
#Start time: 2026-01-18 00:19:07

#Version: 2.0.20230620
#Station: T1
#Location: 37.570604 lon 55.790049 lat
#TLE: 1 37849U 11061A   26017.28905266  .00000074  00000+0  55894-4 0  9999
#TLE: 2 37849  98.7814 319.3179 0002408  59.7048 300.4366 14.19525847737038

#Time	Az	El	Level	Level2	SNR	BER	BlckErr	Temp	State	Recorded	gain1	gain2
2026-01-18 00:19:07.11	12.92	5.05	-48.5	-65.2	3.8	1.49e+00	0	40	0	0	69	23530
2026-01-18 00:19:08.10	12.89	5.12	-48.8	-65.0	3.8	1.49e+00	0	40	104	0	68	24358
2026-01-18 00:19:09.09	12.87	5.19	-48.7	-65.0	3.8	1.49e+00	0	40	104	0	68	24158
2026-01-18 00:19:10.08	12.84	5.26	-48.7	-65.0	3.8	1.49e+00	0	40	104	0	68	24225
2026-01-18 00:19:11.08	12.81	5.33	-48.7	-65.0	3.8	1.49e+00	0	40	104	0	68	24209
2026-01-18 00:19:12.07	12.79	5.40	-48.7	-65.0	3.8	1.49e+00	0	40	104	0	68	24249
2026-01-18 00:19:13.06	12.76	5.47	-48.7	-65.0	3.8	1.49e+00	0	40	104	0	68	24252
2026-01-18 00:19:14.06	12.74	5.55	-48.7	-65.0	3.8	1.49e+00	0	40	104	0	68	24224
2026-01-18 00:19:15.05	12.71	5.62	-48.7	-65.0	3.8	1.49e+00	0	40	104	0	68	24406
2026-01-18 00:19:16.04	12.68	5.69	-48.7	-65.1	3.8	1.49e+00	0	40	104	0	68	24444
2026-01-18 00:19:17.04	12.66	5.76	-48.7	-65.0	3.8	1.49e+00	0	41	104	0	68	24353
2026-01-18 00:19:18.03	12.63	5.83	-48.7	-65.0	3.8	1.49e+00	0	41	104	0	68	24358
2026-01-18 00:19:19.02	12.60	5.90	-48.7	-65.1	3.8	1.49e+00	0	41	104	0	68	24414
2026-01-18 00:19:20.02	12.58	5.98	-48.7	-65.0	3.8	1.49e+00	0	41	104	0	68	24339
2026-01-18 00:19:21.01	12.55	6.05	-48.7	-65.0	3.8	1.49e+00	0	41	104	0	68	24218
2026-01-18 00:19:22.00	12.52	6.12	-48.7	-64.9	3.8	1.49e+00	0	41	104	0	68	23970
2026-01-18 00:19:23.00	12.49	6.19	-48.7	-64.8	3.8	1.49e+00	0	41	104	0	68	23668
2026-01-18 00:19:23.99	12.47	6.27	-48.7	-64.6	3.8	1.49e+00	0	41	104	0	68	23234
2026-01-18 00:19:24.98	12.44	6.34	-48.7	-64.4	3.8	1.49e+00	0	41	104	0	68	22605
2026-01-18 00:19:25.97	12.41	6.41	-48.7	-64.2	3.8	1.49e+00	0	41	104	0	68	22024
2026-01-18 00:19:26.97	12.38	6.49	-48.7	-64.0	3.8	1.49e+00	0	41	104	0	68	21586
2026-01-18 00:19:27.96	12.35	6.56	-48.7	-63.8	3.8	1.49e+00	0	41	104	0	68	21030
2026-01-18 00:19:28.95	12.33	6.63	-48.6	-63.5	3.8	1.49e+00	0	41	104	0	68	20437
2026-01-18 00:19:29.95	12.30	6.71	-48.6	-63.4	3.8	1.49e+00	0	41	104	0	68	20074
2026-01-18 00:19:30.94	12.27	6.78	-48.6	-63.4	3.8	1.49e+00	0	41	104	0	68	20112
2026-01-18 00:19:31.93	12.24	6.86	-48.6	-63.3	3.8	1.49e+00	0	41	104	0	68	20054
2026-01-18 00:19:32.93	12.21	6.93	-48.6	-63.2	3.8	1.49e+00	0	41	104	0	68	19835
2026-01-18 00:19:33.92	12.18	7.01	-48.6	-63.5	3.8	1.49e+00	0	41	104	0	68	20397
2026-01-18 00:19:34.92	12.15	7.08	-48.7	-63.7	3.8	1.49e+00	0	41	104	0	68	20936
2026-01-18 00:19:35.91	12.12	7.16	-48.7	-64.0	3.8	1.49e+00	0	41	104	0	68	21637
2026-01-18 00:19:36.90	12.09	7.23	-48.7	-64.3	3.8	1.49e+00	0	42	104	0	68	22295
2026-01-18 00:19:37.90	12.06	7.31	-48.7	-64.6	3.8	1.49e+00	0	41	104	0	68	23063
2026-01-18 00:19:38.89	12.03	7.38	-48.7	-64.7	3.8	1.49e+00	0	41	104	0	68	23486
2026-01-18 00:19:39.88	12.00	7.46	-48.7	-64.9	3.8	1.49e+00	0	41	104	0	68	24022
2026-01-18 00:19:40.87	11.97	7.54	-48.7	-64.9	3.8	1.49e+00	0	41	104	0	68	23992
2026-01-18 00:19:41.87	11.94	7.61	-48.7	-64.8	3.8	1.49e+00	0	42	104	0	68	23635
2026-01-18 00:19:42.86	11.91	7.69	-48.7	-64.2	3.8	1.49e+00	0	41	104	0	68	22196
2026-01-18 00:19:43.85	11.88	7.77	-48.6	-63.3	3.8	1.49e+00	0	41	104	0	68	20010
2026-01-18 00:19:44.85	11.85	7.84	-48.5	-61.8	4.1	1.46e+00	0	41	0	0	68	16797
2026-01-18 00:19:45.84	11.81	7.92	-48.4	-60.0	4.7	1.18e+00	0	42	0	1048576	68	13689
2026-01-18 00:19:46.83	11.78	8.00	-48.2	-58.1	5.9	6.13e-01	0	42	0	2097152	68	10982
2026-01-18 00:19:47.82	11.75	8.08	-47.8	-56.5	7.1	2.01e-01	0	42	0	4194304	67	9614
2026-01-18 00:19:48.82	11.72	8.16	-47.4	-54.7	8.8	6.91e-02	0	42	0	6291456	66	8325
2026-01-18 00:19:49.81	11.69	8.23	-47.0	-53.4	10.2	1.57e-02	0	42	0	8388608	66	7151
2026-01-18 00:19:50.81	11.65	8.31	-46.7	-52.4	11.1	1.87e-03	0	42	0	9437184	65	6796
2026-01-18 00:19:51.80	11.62	8.39	-46.2	-51.4	12.2	3.87e-04	0	41	0	11534336	64	6354
2026-01-18 00:19:52.79	11.59	8.47	-45.9	-50.6	13.1	7.62e-05	0	42	0	13631488	63	6184
2026-01-18 00:19:53.79	11.56	8.55	-45.6	-50.0	13.7	1.44e-05	0	42	0	15728640	63	5758
2026-01-18 00:19:54.78	11.52	8.63	-45.4	-49.5	14.2	1.50e-06	0	42	0	17825792	62	5755
2026-01-18 00:19:55.77	11.49	8.71	-45.3	-49.3	14.4	7.00e-07	0	42	0	18874368	62	5618
2026-01-18 00:19:56.77	11.45	8.79	-45.1	-49.0	14.7	0.00e+00	0	42	0	20971520	62	5413
2026-01-18 00:19:57.76	11.42	8.87	-45.2	-49.3	14.4	7.00e-07	0	42	0	23068672	62	5609
2026-01-18 00:19:58.75	11.39	8.95	-45.3	-49.3	14.4	0.00e+00	0	42	0	25165824	62	5643
2026-01-18 00:19:59.75	11.35	9.03	-45.5	-49.6	14.1	1.50e-06	0	42	0	26214400	62	5852
2026-01-18 00:20:00.74	11.32	9.11	-45.9	-50.5	13.3	1.06e-05	0	42	0	28311552	62	6429
2026-01-18 00:20:01.73	11.28	9.19	-45.2	-49.3	14.5	2.97e-05	0	42	0	30408704	62	5613
2026-01-18 00:20:02.78	11.25	9.28	-46.9	-53.1	10.8	2.20e-06	0	42	0	32505856	64	7727
2026-01-18 00:20:03.74	11.21	9.36	-47.4	-54.6	9.1	2.63e-02	0	42	0	34603008	65	8703
2026-01-18 00:20:04.73	11.18	9.44	-43.5	-46.6	16.9	5.25e-02	0	42	0	35651584	59	4910
2026-01-18 00:20:05.82	11.14	9.53	-42.8	-45.7	17.8	0.00e+00	0	42	0	37748736	57	4976
2026-01-18 00:20:06.73	11.10	9.61	-42.7	-45.6	17.9	0.00e+00	0	42	0	39845888	57	4909
2026-01-18 00:20:07.73	11.07	9.69	-42.6	-45.5	18.1	0.00e+00	0	42	0	41943040	57	4819
2026-01-18 00:20:08.72	11.03	9.77	-42.6	-45.5	18.0	0.00e+00	0	42	0	44040192	57	4840
2026-01-18 00:20:09.72	11.00	9.86	-42.7	-45.6	17.9	0.00e+00	0	42	0	45088768	57	4914
2026-01-18 00:20:10.71	10.96	9.94	-42.5	-45.4	18.1	0.00e+00	0	42	0	47185920	57	4788
2026-01-18 00:20:11.71	10.92	10.03	-42.4	-45.4	18.2	0.00e+00	0	42	0	49283072	56	5050
2026-01-18 00:20:12.71	10.88	10.11	-42.4	-45.3	18.2	0.00e+00	0	42	0	51380224	56	5035
2026-01-18 00:20:13.70	10.85	10.20	-42.5	-45.3	18.2	0.00e+00	0	42	0	52428800	56	5040
2026-01-18 00:20:14.69	10.81	10.28	-42.4	-45.3	18.3	0.00e+00	0	42	0	54525952	56	4992
2026-01-18 00:20:15.69	10.77	10.37	-42.4	-45.3	18.2	0.00e+00	0	42	0	56623104	56	5010
2026-01-18 00:20:16.68	10.73	10.45	-42.4	-45.2	18.3	0.00e+00	0	42	0	58720256	56	4968
2026-01-18 00:20:17.76	10.69	10.54	-42.5	-45.2	18.3	0.00e+00	0	42	0	60817408	56	4969
2026-01-18 00:20:18.64	10.66	10.62	-42.2	-44.9	18.6	0.00e+00	0	42	0	61865984	56	4805
2026-01-18 00:20:19.78	10.61	10.72	-42.3	-45.0	18.5	0.00e+00	0	42	0	63963136	56	4861
2026-01-18 00:20:20.71	10.57	10.80	-42.3	-45.1	18.5	0.00e+00	0	42	0	66060288	56	4887
2026-01-18 00:20:21.71	10.54	10.89	-42.3	-45.0	18.5	0.00e+00	0	42	0	68157440	56	4851
2026-01-18 00:20:22.70	10.50	10.97	-42.2	-44.9	18.7	0.00e+00	0	42	0	69206016	56	4764
2026-01-18 00:20:23.70	10.46	11.06	-42.2	-44.9	18.6	0.00e+00	0	42	0	71303168	56	4770
2026-01-18 00:20:24.70	10.41	11.15	-42.1	-44.8	18.7	0.00e+00	0	42	0	73400320	56	4748
2026-01-18 00:20:26.00	10.36	11.27	-42.0	-44.7	18.7	0.00e+00	0	42	0	75497472	56	4680
2026-01-18 00:20:26.72	10.33	11.33	-42.1	-44.7	18.7	0.00e+00	0	42	0	77594624	56	4702
2026-01-18 00:20:27.99	10.28	11.44	-41.7	-44.3	19.0	0.00e+00	0	42	0	79691776	55	4719
2026-01-18 00:20:28.72	10.25	11.51	-41.9	-44.5	18.9	0.00e+00	0	42	0	80740352	55	4845
2026-01-18 00:20:30.00	10.19	11.62	-41.9	-44.4	18.9	0.00e+00	0	42	0	83886080	55	4809
2026-01-18 00:20:30.71	10.16	11.69	-41.8	-44.4	19.0	0.00e+00	0	42	0	84934656	55	4763
2026-01-18 00:20:31.99	10.11	11.80	-41.7	-44.3	19.0	0.00e+00	0	42	0	87031808	55	4719
2026-01-18 00:20:32.70	10.08	11.87	-41.7	-44.2	19.1	0.00e+00	0	42	0	88080384	55	4697
2026-01-18 00:20:34.01	10.02	11.99	-41.9	-44.5	18.8	0.00e+00	0	42	0	91226112	55	4830
2026-01-18 00:20:34.72	9.99	12.05	-41.7	-44.2	19.1	0.00e+00	0	42	0	92274688	55	4678
2026-01-18 00:20:36.07	9.93	12.18	-41.7	-44.3	19.1	0.00e+00	0	42	0	94371840	55	4714
2026-01-18 00:20:36.78	9.90	12.24	-41.8	-44.4	19.0	0.00e+00	0	42	0	96468992	55	4773
2026-01-18 00:20:38.12	9.84	12.37	-41.8	-44.3	19.1	0.00e+00	0	42	0	98566144	55	4725
2026-01-18 00:20:38.83	9.81	12.43	-41.8	-44.3	19.1	0.00e+00	0	42	0	99614720	55	4720
2026-01-18 00:20:40.11	9.75	12.55	-41.9	-44.5	18.9	0.00e+00	0	42	0	102760448	55	4821
2026-01-18 00:20:40.82	9.72	12.62	-41.9	-44.5	18.9	0.00e+00	0	42	0	103809024	55	4815
2026-01-18 00:20:42.23	9.66	12.75	-42.0	-44.5	18.9	0.00e+00	0	42	0	105906176	55	4842
2026-01-18 00:20:42.94	9.62	12.82	-41.9	-44.5	18.9	0.00e+00	0	42	0	108003328	55	4840
2026-01-18 00:20:44.25	9.56	12.94	-42.1	-44.6	18.8	0.00e+00	0	42	0	110100480	55	4888
2026-01-18 00:20:44.96	9.53	13.01	-42.0	-44.5	18.9	0.00e+00	0	42	0	111149056	55	4858
2026-01-18 00:20:46.24	9.47	13.13	-42.1	-44.6	18.7	0.00e+00	0	42	0	114294784	55	4921
2026-01-18 00:20:46.95	9.44	13.20	-42.2	-44.7	18.7	0.00e+00	0	42	0	115343360	55	4952
2026-01-18 00:20:48.23	9.38	13.32	-42.3	-44.9	18.5	0.00e+00	0	42	0	117440512	55	5068
2026-01-18 00:20:48.94	9.34	13.39	-42.1	-44.7	18.8	0.00e+00	0	42	0	118489088	55	4929
2026-01-18 00:20:50.22	9.28	13.52	-42.3	-44.9	18.6	0.00e+00	0	42	0	121634816	55	5088
2026-01-18 00:20:50.93	9.25	13.58	-42.1	-44.6	18.8	0.00e+00	0	42	0	122683392	55	4914
2026-01-18 00:20:52.22	9.18	13.71	-42.1	-44.6	18.8	0.00e+00	0	43	0	124780544	55	4915
2026-01-18 00:20:52.93	9.15	13.78	-42.3	-44.9	18.6	0.00e+00	0	42	0	126877696	55	5049
2026-01-18 00:20:54.21	9.08	13.91	-42.1	-44.6	18.8	0.00e+00	0	42	0	128974848	55	4895
2026-01-18 00:20:54.95	9.05	13.98	-42.0	-44.4	18.9	0.00e+00	0	42	0	130023424	55	4810
2026-01-18 00:20:56.22	8.98	14.10	-42.2	-44.8	18.7	0.00e+00	0	42	0	132120576	55	4986
2026-01-18 00:20:56.93	8.95	14.17	-42.1	-44.5	18.9	0.00e+00	0	42	0	134217728	55	4869
2026-01-18 00:20:58.22	8.88	14.30	-42.2	-44.7	18.8	0.00e+00	0	42	0	136314880	55	4970
2026-01-18 00:20:58.94	8.84	14.38	-42.0	-44.5	18.9	0.00e+00	0	42	0	137363456	55	4827
2026-01-18 00:21:00.22	8.78	14.50	-42.1	-44.6	18.8	0.00e+00	0	42	0	140509184	55	4891
2026-01-18 00:21:00.93	8.74	14.58	-42.1	-44.6	18.8	0.00e+00	0	42	0	141557760	55	4905
2026-01-18 00:21:02.24	8.67	14.71	-42.0	-44.5	18.9	0.00e+00	0	42	0	143654912	55	4835
2026-01-18 00:21:02.95	8.63	14.78	-42.0	-44.5	18.9	0.00e+00	0	43	0	144703488	55	4831
2026-01-18 00:21:04.23	8.57	14.91	-42.0	-44.4	19.0	0.00e+00	0	42	0	147849216	55	4810
2026-01-18 00:21:04.96	8.53	14.99	-41.9	-44.4	19.0	0.00e+00	0	42	0	148897792	55	4796
2026-01-18 00:21:06.23	8.46	15.12	-42.0	-44.5	19.0	0.00e+00	0	43	0	150994944	55	4841
2026-01-18 00:21:06.94	8.42	15.19	-42.0	-44.5	19.0	0.00e+00	0	42	0	153092096	55	4825
2026-01-18 00:21:08.22	8.35	15.32	-41.9	-44.3	19.1	0.00e+00	0	42	0	155189248	55	4740
2026-01-18 00:21:08.95	8.31	15.40	-41.9	-44.3	19.1	0.00e+00	0	42	0	156237824	55	4742
2026-01-18 00:21:10.23	8.24	15.53	-42.0	-44.5	19.0	0.00e+00	0	43	0	158334976	55	4819
2026-01-18 00:21:10.96	8.20	15.61	-41.8	-44.2	19.2	0.00e+00	0	42	0	160432128	55	4689
2026-01-18 00:21:12.23	8.12	15.74	-41.9	-44.3	19.2	0.00e+00	0	42	0	162529280	55	4727
2026-01-18 00:21:12.99	8.08	15.83	-42.0	-44.4	19.0	0.00e+00	0	42	0	163577856	55	4781
2026-01-18 00:21:14.27	8.01	15.96	-42.0	-44.4	19.1	0.00e+00	0	43	0	166723584	55	4782
2026-01-18 00:21:15.03	7.96	16.04	-41.9	-44.3	19.1	0.00e+00	0	42	0	167772160	55	4750
2026-01-18 00:21:16.30	7.89	16.18	-42.0	-44.4	19.0	0.00e+00	0	43	0	169869312	55	4809
2026-01-18 00:21:17.12	7.84	16.27	-42.0	-44.4	19.0	0.00e+00	0	42	0	171966464	55	4810
2026-01-18 00:21:18.26	7.77	16.39	-41.9	-44.2	19.2	0.00e+00	0	42	0	174063616	55	4700
2026-01-18 00:21:19.30	7.71	16.50	-41.9	-44.2	19.2	0.00e+00	0	42	0	176160768	55	4705
2026-01-18 00:21:20.44	7.64	16.63	-42.0	-44.4	19.1	0.00e+00	0	42	0	178257920	55	4772
2026-01-18 00:21:21.35	7.59	16.73	-42.1	-44.5	18.9	0.00e+00	0	42	0	179306496	55	4851
2026-01-18 00:21:22.35	7.52	16.84	-42.2	-44.6	18.9	0.00e+00	0	43	0	181403648	55	4904
2026-01-18 00:21:23.56	7.45	16.97	-42.1	-44.5	19.0	0.00e+00	0	42	0	183500800	55	4848
2026-01-18 00:21:24.42	7.40	17.07	-42.0	-44.3	19.1	0.00e+00	0	42	0	185597952	55	4742
2026-01-18 00:21:25.56	7.32	17.19	-42.1	-44.4	19.0	0.00e+00	0	43	0	187695104	55	4796
2026-01-18 00:21:26.41	7.27	17.29	-42.0	-44.3	19.1	0.00e+00	0	42	0	188743680	55	4745
2026-01-18 00:21:27.55	7.20	17.42	-42.0	-44.3	19.1	0.00e+00	0	43	0	190840832	55	4741
2026-01-18 00:21:28.40	7.14	17.51	-42.0	-44.3	19.1	0.00e+00	0	43	0	192937984	55	4739
2026-01-18 00:21:29.54	7.07	17.64	-42.0	-44.4	19.0	0.00e+00	0	42	0	195035136	55	4762
2026-01-18 00:21:30.39	7.01	17.74	-42.1	-44.4	19.1	0.00e+00	0	43	0	197132288	55	4801
2026-01-18 00:21:31.53	6.94	17.87	-42.1	-44.4	19.0	0.00e+00	0	42	0	199229440	55	4804
2026-01-18 00:21:32.38	6.88	17.97	-42.1	-44.4	19.1	0.00e+00	0	43	0	200278016	55	4768
2026-01-18 00:21:33.52	6.81	18.10	-42.0	-44.3	19.1	0.00e+00	0	43	0	202375168	55	4744
2026-01-18 00:21:34.37	6.75	18.20	-42.1	-44.4	19.0	0.00e+00	0	43	0	204472320	55	4811
2026-01-18 00:21:35.51	6.67	18.33	-42.2	-44.6	18.9	0.00e+00	0	43	0	206569472	55	4878
2026-01-18 00:21:36.36	6.61	18.43	-42.1	-44.4	19.1	0.00e+00	0	43	0	207618048	55	4790
2026-01-18 00:21:37.61	6.53	18.58	-42.1	-44.5	19.0	0.00e+00	0	43	0	209715200	55	4855
2026-01-18 00:21:38.46	6.47	18.68	-42.3	-44.7	18.9	0.00e+00	0	43	0	211812352	55	4934
2026-01-18 00:21:39.60	6.39	18.81	-42.0	-44.3	19.1	0.00e+00	0	43	0	213909504	55	4759
2026-01-18 00:21:40.45	6.33	18.91	-42.0	-44.4	19.1	0.00e+00	0	43	0	214958080	55	4762
2026-01-18 00:21:41.58	6.25	19.05	-42.1	-44.5	19.0	0.00e+00	0	42	0	218103808	55	4820
2026-01-18 00:21:42.43	6.19	19.15	-42.0	-44.3	19.1	0.00e+00	0	42	0	219152384	55	4756
2026-01-18 00:21:43.57	6.10	19.29	-42.1	-44.4	19.1	0.00e+00	0	43	0	221249536	55	4807
2026-01-18 00:21:44.42	6.04	19.39	-42.2	-44.5	19.0	0.00e+00	0	43	0	223346688	55	4854
2026-01-18 00:21:45.56	5.96	19.53	-41.9	-44.2	19.2	0.00e+00	0	43	0	225443840	55	4698
2026-01-18 00:21:46.41	5.89	19.63	-42.0	-44.4	19.1	0.00e+00	0	43	0	226492416	55	4789
2026-01-18 00:21:47.55	5.81	19.77	-42.0	-44.3	19.1	0.00e+00	0	42	0	228589568	55	4759
2026-01-18 00:21:48.40	5.74	19.88	-41.9	-44.3	19.2	0.00e+00	0	43	0	230686720	55	4743
2026-01-18 00:21:49.54	5.66	20.02	-41.9	-44.2	19.2	0.00e+00	0	43	0	232783872	55	4689
2026-01-18 00:21:50.39	5.59	20.12	-42.1	-44.5	19.0	0.00e+00	0	43	0	233832448	55	4846
2026-01-18 00:21:51.53	5.50	20.27	-42.0	-44.5	19.0	0.00e+00	0	42	0	235929600	55	4826
2026-01-18 00:21:52.38	5.44	20.37	-42.1	-44.6	19.0	0.00e+00	0	43	0	238026752	55	4879
2026-01-18 00:21:53.63	5.34	20.53	-42.1	-44.5	19.0	0.00e+00	0	42	0	240123904	55	4864
2026-01-18 00:21:54.48	5.27	20.64	-42.3	-44.8	18.7	0.00e+00	0	42	0	242221056	55	5022
2026-01-18 00:21:55.62	5.18	20.78	-42.2	-44.7	18.9	0.00e+00	0	43	0	244318208	55	4932
2026-01-18 00:21:56.47	5.11	20.89	-42.3	-44.8	18.8	0.00e+00	0	43	0	245366784	55	5039
2026-01-18 00:21:57.61	5.01	21.04	-42.5	-45.0	18.6	0.00e+00	0	43	0	247463936	55	5153
2026-01-18 00:21:58.46	4.94	21.15	-42.7	-45.3	18.5	0.00e+00	0	43	0	249561088	56	4990
2026-01-18 00:21:59.60	4.85	21.30	-42.8	-45.4	18.4	0.00e+00	0	43	0	251658240	56	5068
2026-01-18 00:22:00.45	4.78	21.41	-42.8	-45.4	18.4	0.00e+00	0	43	0	252706816	56	5044
2026-01-18 00:22:01.59	4.68	21.56	-42.9	-45.4	18.4	0.00e+00	0	43	0	254803968	56	5083
2026-01-18 00:22:02.60	4.60	21.69	-43.0	-45.5	18.3	0.00e+00	0	42	0	256901120	56	5139
2026-01-18 00:22:03.75	4.50	21.84	-43.0	-45.4	18.4	0.00e+00	0	43	0	258998272	56	5095
2026-01-18 00:22:04.61	4.42	21.96	-42.9	-45.3	18.4	0.00e+00	0	43	0	261095424	56	5041
2026-01-18 00:22:05.74	4.32	22.11	-42.9	-45.3	18.4	0.00e+00	0	43	0	263192576	56	5023
2026-01-18 00:22:06.69	4.24	22.24	-42.8	-45.2	18.6	0.00e+00	0	43	0	264241152	56	4969
2026-01-18 00:22:07.86	4.13	22.39	-42.6	-45.0	18.8	0.00e+00	0	43	0	267386880	56	4817
2026-01-18 00:22:08.71	4.06	22.51	-42.8	-45.2	18.6	0.00e+00	0	43	0	268435456	56	4946
2026-01-18 00:22:10.07	3.93	22.69	-42.7	-45.0	18.8	0.00e+00	0	43	0	271581184	56	4853
2026-01-18 00:22:10.78	3.87	22.79	-42.3	-44.6	19.1	0.00e+00	0	42	0	272629760	56	4645
2026-01-18 00:22:12.26	3.73	22.99	-42.7	-45.0	18.7	0.00e+00	0	43	0	274726912	56	4863
2026-01-18 00:22:12.97	3.66	23.09	-42.7	-45.1	18.7	0.00e+00	0	43	0	276824064	56	4871
2026-01-18 00:22:14.25	3.54	23.27	-42.8	-45.1	18.7	0.00e+00	0	43	0	278921216	56	4910
2026-01-18 00:22:14.96	3.47	23.37	-42.9	-45.3	18.5	0.00e+00	0	43	0	279969792	56	4992
2026-01-18 00:22:16.24	3.35	23.55	-43.1	-45.6	18.3	0.00e+00	0	43	0	282066944	57	4892
2026-01-18 00:22:16.96	3.28	23.65	-42.9	-45.3	18.5	0.00e+00	0	43	0	284164096	57	4738
2026-01-18 00:22:18.25	3.15	23.83	-43.0	-45.5	18.3	0.00e+00	0	43	0	286261248	57	4842
2026-01-18 00:22:18.96	3.08	23.93	-43.3	-45.9	18.0	0.00e+00	0	43	0	287309824	57	5047
2026-01-18 00:22:20.24	2.95	24.12	-43.3	-45.9	17.9	0.00e+00	0	43	0	290455552	57	5090
2026-01-18 00:22:21.07	2.87	24.24	-43.4	-46.0	17.8	0.00e+00	0	43	0	291504128	57	5159
2026-01-18 00:22:22.51	2.72	24.44	-43.8	-46.6	17.4	0.00e+00	0	43	0	294649856	58	5167
2026-01-18 00:22:23.22	2.65	24.55	-43.8	-46.6	17.4	0.00e+00	0	43	0	295698432	58	5170
2026-01-18 00:22:24.50	2.51	24.73	-44.0	-46.8	17.1	0.00e+00	0	43	0	297795584	58	5324
2026-01-18 00:22:25.21	2.44	24.84	-44.0	-46.7	17.2	0.00e+00	0	43	0	299892736	58	5275
2026-01-18 00:22:26.49	2.30	25.03	-43.7	-46.4	17.5	0.00e+00	0	43	0	301989888	59	4793
2026-01-18 00:22:27.20	2.23	25.13	-43.9	-46.6	17.4	0.00e+00	0	43	0	303038464	59	4909
2026-01-18 00:22:28.48	2.09	25.32	-43.8	-46.5	17.4	0.00e+00	0	43	0	305135616	59	4859
2026-01-18 00:22:29.21	2.01	25.43	-43.8	-46.5	17.5	0.00e+00	0	43	0	307232768	59	4824
2026-01-18 00:22:30.49	1.86	25.62	-43.8	-46.5	17.4	0.00e+00	0	43	0	309329920	59	4845
2026-01-18 00:22:31.28	1.78	25.74	-43.7	-46.3	17.6	0.00e+00	0	43	0	310378496	59	4732
2026-01-18 00:22:32.76	1.61	25.97	-43.6	-46.2	17.7	0.00e+00	0	43	0	313524224	58	4959
2026-01-18 00:22:33.47	1.53	26.08	-43.8	-46.5	17.5	0.00e+00	0	43	0	314572800	58	5115
2026-01-18 00:22:34.75	1.38	26.27	-43.7	-46.2	17.6	0.00e+00	0	43	0	317718528	58	4979
2026-01-18 00:22:35.49	1.29	26.39	-43.6	-46.1	17.8	0.00e+00	0	43	0	318767104	58	4920
2026-01-18 00:22:36.78	1.14	26.59	-43.8	-46.4	17.5	0.00e+00	0	43	0	320864256	58	5062
2026-01-18 00:22:37.52	1.05	26.70	-44.0	-46.7	17.4	0.00e+00	0	43	0	322961408	58	5229
2026-01-18 00:22:38.79	0.90	26.90	-44.0	-46.6	17.3	0.00e+00	0	43	0	325058560	59	4912
2026-01-18 00:22:39.51	0.81	27.01	-44.0	-46.7	17.3	0.00e+00	0	43	0	326107136	59	4947
2026-01-18 00:22:40.79	0.66	27.22	-44.3	-47.0	16.9	0.00e+00	0	43	0	328204288	59	5141
2026-01-18 00:22:41.56	0.56	27.34	-44.2	-47.0	17.0	0.00e+00	0	43	0	330301440	59	5120
2026-01-18 00:22:42.84	0.40	27.54	-44.2	-47.0	17.1	0.00e+00	0	43	0	332398592	59	5102
2026-01-18 00:22:43.56	0.31	27.66	-44.3	-47.0	17.0	0.00e+00	0	43	0	333447168	59	5121
2026-01-18 00:22:44.83	0.15	27.86	-44.2	-46.9	17.2	0.00e+00	0	43	0	336592896	59	5081
2026-01-18 00:22:45.54	0.05	27.98	-44.4	-47.1	16.9	0.00e+00	0	43	0	337641472	59	5210
2026-01-18 00:22:46.83	359.89	28.19	-44.5	-47.2	16.7	0.00e+00	0	43	0	339738624	59	5268
2026-01-18 00:22:47.54	359.79	28.30	-44.4	-47.1	16.9	0.00e+00	0	43	0	340787200	59	5195
2026-01-18 00:22:48.83	359.62	28.51	-44.4	-47.1	16.9	0.00e+00	0	43	0	343932928	59	5216
2026-01-18 00:22:49.54	359.52	28.63	-44.6	-47.4	16.7	0.00e+00	0	43	0	344981504	59	5366
2026-01-18 00:22:50.82	359.35	28.84	-44.7	-47.6	16.5	0.00e+00	0	43	0	347078656	60	5173
2026-01-18 00:22:51.55	359.25	28.97	-44.8	-47.7	16.4	0.00e+00	0	43	0	349175808	60	5261
2026-01-18 00:22:52.83	359.07	29.18	-45.1	-48.2	16.0	0.00e+00	0	43	0	351272960	61	5237
2026-01-18 00:22:53.55	358.97	29.30	-45.4	-48.8	15.4	0.00e+00	0	43	0	352321536	61	5614
2026-01-18 00:22:54.82	358.79	29.52	-45.5	-48.9	15.3	0.00e+00	0	43	0	355467264	61	5678
2026-01-18 00:22:55.54	358.69	29.64	-45.4	-48.7	15.5	0.00e+00	0	43	0	356515840	61	5554
2026-01-18 00:22:56.81	358.50	29.85	-45.3	-48.4	15.7	0.00e+00	0	43	0	358612992	61	5399
2026-01-18 00:22:57.53	358.40	29.98	-45.1	-48.2	16.0	0.00e+00	0	43	0	359661568	61	5268
2026-01-18 00:22:58.81	358.21	30.20	-45.0	-48.0	16.2	0.00e+00	0	43	0	362807296	61	5157
2026-01-18 00:22:59.62	358.08	30.34	-44.8	-47.8	16.3	0.00e+00	0	43	0	363855872	61	5003
2026-01-18 00:23:01.01	357.87	30.58	-44.3	-47.1	16.9	0.00e+00	0	43	0	367001600	60	4882
2026-01-18 00:23:01.72	357.76	30.71	-44.8	-47.7	16.4	0.00e+00	0	43	0	368050176	60	5252
2026-01-18 00:23:03.02	357.56	30.93	-44.5	-47.4	16.7	0.00e+00	0	43	0	370147328	60	5068
2026-01-18 00:23:03.73	357.45	31.06	-44.0	-46.7	17.4	0.00e+00	0	43	0	371195904	60	4657
2026-01-18 00:23:05.24	357.21	31.33	-44.2	-46.9	17.0	0.00e+00	0	43	0	374341632	59	5093
2026-01-18 00:23:05.95	357.09	31.45	-44.2	-46.9	17.2	0.00e+00	0	43	0	375390208	59	5052
2026-01-18 00:23:07.23	356.89	31.68	-44.0	-46.7	17.4	0.00e+00	0	43	0	378535936	59	4950
2026-01-18 00:23:08.31	356.71	31.88	-43.9	-46.5	17.5	0.00e+00	0	43	0	380633088	59	4869
2026-01-18 00:23:09.16	356.57	32.03	-43.4	-45.9	18.1	0.00e+00	0	43	0	381681664	58	4773
2026-01-18 00:23:10.30	356.37	32.24	-43.8	-46.3	17.7	0.00e+00	0	43	0	383778816	58	5032
2026-01-18 00:23:11.15	356.23	32.39	-44.0	-46.6	17.5	0.00e+00	0	43	0	385875968	58	5185
2026-01-18 00:23:12.30	356.03	32.61	-44.1	-46.8	17.3	0.00e+00	0	43	0	387973120	59	4998
2026-01-18 00:23:13.16	355.88	32.76	-44.4	-47.1	16.9	0.00e+00	0	43	0	389021696	59	5206
2026-01-18 00:23:14.30	355.68	32.98	-44.6	-47.5	16.6	0.00e+00	0	43	0	391118848	60	5135
2026-01-18 00:23:15.15	355.52	33.13	-44.9	-48.0	16.2	0.00e+00	0	43	0	393216000	60	5436
2026-01-18 00:23:16.29	355.32	33.35	-45.1	-48.3	15.9	0.00e+00	0	43	0	395313152	60	5636
2026-01-18 00:23:17.14	355.16	33.51	-45.0	-48.3	15.8	0.00e+00	0	43	0	396361728	61	5285
2026-01-18 00:23:18.28	354.95	33.72	-45.1	-48.4	15.8	0.00e+00	0	43	0	398458880	61	5356
2026-01-18 00:23:19.13	354.79	33.88	-45.1	-48.3	15.9	0.00e+00	0	43	0	400556032	61	5298
2026-01-18 00:23:20.27	354.58	34.10	-45.2	-48.5	15.7	0.00e+00	0	43	0	402653184	61	5441
2026-01-18 00:23:21.12	354.41	34.26	-45.1	-48.2	15.9	0.00e+00	0	43	0	404750336	61	5279
2026-01-18 00:23:22.57	354.13	34.54	-45.1	-48.2	16.1	0.00e+00	0	43	0	406847488	61	5226
2026-01-18 00:23:23.28	353.99	34.68	-45.6	-48.8	15.5	0.00e+00	0	43	0	407896064	61	5622
2026-01-18 00:23:24.57	353.73	34.92	-45.7	-49.0	15.2	0.00e+00	0	43	0	411041792	62	5448
2026-01-18 00:23:25.28	353.59	35.06	-45.3	-48.4	15.8	0.00e+00	0	43	0	412090368	62	5092
2026-01-18 00:23:26.56	353.33	35.31	-45.6	-49.0	15.2	0.00e+00	0	43	0	414187520	62	5418
2026-01-18 00:23:27.27	353.18	35.45	-45.5	-48.8	15.5	0.00e+00	0	43	0	416284672	62	5285
2026-01-18 00:23:28.55	352.91	35.70	-45.4	-48.6	15.7	0.00e+00	0	43	0	418381824	62	5168
2026-01-18 00:23:29.27	352.76	35.84	-45.4	-48.6	15.5	0.00e+00	0	43	0	419430400	62	5215
2026-01-18 00:23:30.55	352.48	36.10	-45.6	-49.0	15.3	0.00e+00	0	43	0	421527552	62	5437
2026-01-18 00:23:31.26	352.33	36.24	-46.3	-50.1	14.2	1.50e-06	0	43	0	423624704	63	5836
2026-01-18 00:23:32.54	352.05	36.50	-46.8	-51.1	13.2	1.37e-05	0	43	0	425721856	64	6188
2026-01-18 00:23:33.25	351.89	36.64	-46.7	-51.0	13.2	2.89e-05	0	43	0	426770432	64	6104
2026-01-18 00:23:34.53	351.60	36.89	-46.8	-51.4	12.7	6.25e-05	0	43	0	429916160	64	6382
2026-01-18 00:23:35.27	351.43	37.04	-46.8	-51.4	12.8	9.00e-05	0	43	0	430964736	64	6373
2026-01-18 00:23:36.55	351.14	37.30	-46.2	-50.2	13.9	5.30e-06	0	43	0	433061888	64	5567
2026-01-18 00:23:37.28	350.96	37.45	-45.9	-49.6	14.5	1.50e-06	0	43	0	434110464	63	5520
2026-01-18 00:23:38.55	350.66	37.71	-45.8	-49.5	14.8	7.00e-07	0	43	0	437256192	63	5434
2026-01-18 00:23:39.26	350.49	37.86	-45.4	-48.8	15.5	0.00e+00	0	43	0	438304768	62	5312
2026-01-18 00:23:40.54	350.18	38.12	-45.3	-48.6	15.6	0.00e+00	0	43	0	440401920	62	5195
2026-01-18 00:23:41.25	350.01	38.26	-45.6	-49.0	15.1	0.00e+00	0	43	0	441450496	62	5436
2026-01-18 00:23:42.69	349.65	38.56	-45.5	-48.7	15.6	0.00e+00	0	43	0	444596224	62	5238
2026-01-18 00:23:43.67	349.40	38.77	-45.7	-48.9	15.3	0.00e+00	0	43	0	446693376	62	5388
2026-01-18 00:23:44.98	349.06	39.04	-45.3	-48.3	15.9	0.00e+00	0	43	0	448790528	62	5035
2026-01-18 00:23:45.72	348.87	39.19	-45.7	-48.9	15.3	0.00e+00	0	43	0	450887680	62	5357
2026-01-18 00:23:47.00	348.53	39.46	-45.8	-49.1	15.2	0.00e+00	0	43	0	452984832	63	5192
2026-01-18 00:23:47.72	348.33	39.61	-46.0	-49.4	14.9	0.00e+00	0	43	0	454033408	63	5366
2026-01-18 00:23:49.01	347.98	39.88	-46.2	-49.9	14.5	7.00e-07	0	43	0	456130560	63	5691
2026-01-18 00:23:49.73	347.79	40.03	-46.3	-50.0	14.2	5.30e-06	0	43	0	458227712	64	5448
2026-01-18 00:23:51.02	347.43	40.31	-46.8	-50.8	13.3	1.29e-05	0	43	0	460324864	64	5991
2026-01-18 00:23:51.73	347.23	40.46	-47.3	-52.0	12.2	4.42e-05	0	43	0	461373440	65	6428
2026-01-18 00:23:53.01	346.86	40.73	-47.1	-51.5	12.7	4.19e-05	0	43	0	464519168	65	6068
2026-01-18 00:23:53.73	346.65	40.88	-47.2	-51.8	12.6	1.02e-04	0	43	0	465567744	65	6289
2026-01-18 00:23:55.01	346.27	41.16	-47.3	-52.1	12.1	1.69e-04	0	43	0	467664896	65	6566
2026-01-18 00:23:55.73	346.06	41.31	-47.7	-53.0	11.2	7.37e-04	0	43	0	468713472	66	6862
2026-01-18 00:23:57.16	345.63	41.62	-47.5	-52.6	11.7	4.13e-03	0	43	0	471859200	66	6509
2026-01-18 00:23:57.87	345.41	41.77	-47.7	-53.2	10.9	1.85e-03	0	43	0	472907776	66	7009
2026-01-18 00:23:59.22	344.99	42.06	-47.3	-51.9	12.3	6.74e-04	0	43	0	476053504	66	6053
2026-01-18 00:23:59.93	344.77	42.21	-46.9	-51.1	13.0	1.68e-04	0	43	0	477102080	65	5841
2026-01-18 00:24:01.27	344.34	42.50	-46.8	-50.8	13.4	5.26e-05	0	43	0	479199232	65	5649
2026-01-18 00:24:01.98	344.11	42.65	-46.8	-50.9	13.4	1.29e-05	0	43	0	481296384	65	5666
2026-01-18 00:24:03.27	343.68	42.93	-46.4	-50.2	13.9	1.67e-05	0	43	0	483393536	64	5580
2026-01-18 00:24:03.98	343.45	43.08	-45.9	-49.4	14.9	0.00e+00	0	43	0	484442112	63	5360
2026-01-18 00:24:05.26	343.01	43.36	-45.4	-48.6	15.7	0.00e+00	0	43	0	486539264	62	5198
2026-01-18 00:24:05.97	342.77	43.51	-45.0	-48.1	16.2	0.00e+00	0	43	0	488636416	61	5167
2026-01-18 00:24:07.25	342.33	43.79	-44.8	-47.9	16.3	0.00e+00	0	43	0	490733568	61	5083
2026-01-18 00:24:07.96	342.08	43.94	-45.0	-48.4	15.9	0.00e+00	0	43	0	491782144	61	5356
2026-01-18 00:24:09.24	341.62	44.22	-44.6	-47.8	16.5	0.00e+00	0	43	0	494927872	61	5014
2026-01-18 00:24:09.95	341.37	44.37	-44.9	-48.2	16.1	0.00e+00	0	43	0	495976448	61	5233
2026-01-18 00:24:11.23	340.90	44.65	-45.3	-48.6	15.8	0.00e+00	0	43	0	498073600	61	5492
2026-01-18 00:24:11.96	340.63	44.81	-45.4	-48.8	15.5	0.00e+00	0	43	0	499122176	61	5612
2026-01-18 00:24:13.23	340.15	45.08	-45.8	-49.1	15.1	0.00e+00	0	43	0	502267904	62	5528
2026-01-18 00:24:13.99	339.86	45.24	-45.7	-48.9	15.3	0.00e+00	0	43	0	503316480	62	5400
2026-01-18 00:24:15.27	339.36	45.52	-45.6	-48.8	15.5	0.00e+00	0	43	0	505413632	62	5316
2026-01-18 00:24:16.09	339.04	45.69	-45.3	-48.3	15.9	0.00e+00	0	43	0	507510784	62	5036
2026-01-18 00:24:17.53	338.47	46.00	-44.6	-47.4	16.8	0.00e+00	0	43	0	509607936	61	4795
2026-01-18 00:24:18.24	338.18	46.15	-44.4	-47.1	17.0	0.00e+00	0	43	0	511705088	60	4912
2026-01-18 00:24:19.52	337.65	46.43	-44.2	-46.9	17.3	0.00e+00	0	43	0	513802240	60	4764
2026-01-18 00:24:20.24	337.35	46.58	-44.3	-47.0	17.2	0.00e+00	0	43	0	514850816	60	4829
2026-01-18 00:24:21.79	336.70	46.91	-44.3	-47.0	17.2	0.00e+00	0	43	0	517996544	60	4842
2026-01-18 00:24:22.50	336.39	47.06	-44.5	-47.3	16.9	0.00e+00	0	43	0	519045120	60	5010
2026-01-18 00:24:23.86	335.80	47.35	-45.2	-48.3	15.9	0.00e+00	0	43	0	522190848	61	5303
2026-01-18 00:24:24.57	335.49	47.50	-45.5	-48.8	15.4	0.00e+00	0	43	0	523239424	62	5312
2026-01-18 00:24:25.85	334.92	47.76	-44.8	-47.6	16.5	0.00e+00	0	43	0	525336576	61	4922
2026-01-18 00:24:26.59	334.58	47.92	-44.0	-46.5	17.6	0.00e+00	0	43	0	527433728	59	4831
2026-01-18 00:24:27.87	333.99	48.18	-43.7	-46.1	17.9	0.00e+00	0	43	0	529530880	59	4627
2026-01-18 00:24:28.58	333.66	48.33	-44.0	-46.6	17.6	0.00e+00	0	43	0	530579456	59	4899
2026-01-18 00:24:29.86	333.06	48.59	-44.7	-47.5	16.7	0.00e+00	0	43	0	532676608	59	5452
2026-01-18 00:24:30.57	332.72	48.73	-44.8	-47.7	16.5	0.00e+00	0	43	0	534773760	60	5268
2026-01-18 00:24:31.85	332.10	48.99	-44.9	-48.0	16.3	0.00e+00	0	43	0	536870912	60	5404
2026-01-18 00:24:32.56	331.75	49.14	-44.8	-47.7	16.5	0.00e+00	0	43	0	537919488	60	5246
2026-01-18 00:24:33.84	331.11	49.39	-45.1	-48.3	16.0	0.00e+00	0	43	0	541065216	60	5600
2026-01-18 00:24:34.58	330.74	49.54	-45.4	-48.8	15.5	0.00e+00	0	43	0	542113792	61	5622
2026-01-18 00:24:35.86	330.08	49.79	-45.2	-48.5	15.9	0.00e+00	0	43	0	544210944	61	5411
2026-01-18 00:24:36.57	329.72	49.93	-45.2	-48.4	15.8	0.00e+00	0	43	0	545259520	61	5384
2026-01-18 00:24:37.84	329.05	50.17	-44.6	-47.5	16.7	0.00e+00	0	43	0	548405248	61	4861
2026-01-18 00:24:38.57	328.66	50.31	-43.7	-46.2	17.8	0.00e+00	0	43	0	549453824	59	4666
2026-01-18 00:24:39.85	327.98	50.56	-42.7	-44.9	19.0	0.00e+00	0	43	0	551550976	57	4545
2026-01-18 00:24:40.57	327.58	50.69	-42.6	-44.8	19.0	0.00e+00	0	43	0	553648128	57	4490
2026-01-18 00:24:41.86	326.87	50.93	-42.9	-45.2	18.8	0.00e+00	0	43	0	555745280	57	4687
2026-01-18 00:24:42.57	326.48	51.06	-42.9	-45.2	18.7	0.00e+00	0	43	0	556793856	57	4705
2026-01-18 00:24:43.85	325.75	51.30	-42.5	-44.8	19.1	0.00e+00	0	43	0	558891008	56	4711
2026-01-18 00:24:44.57	325.34	51.42	-42.4	-44.6	19.3	0.00e+00	0	43	0	560988160	56	4600
2026-01-18 00:24:45.85	324.60	51.65	-42.8	-45.1	18.8	0.00e+00	0	43	0	563085312	56	4924
2026-01-18 00:24:46.57	324.18	51.78	-43.2	-45.6	18.4	0.00e+00	0	43	0	564133888	57	4897
2026-01-18 00:24:47.85	323.42	52.00	-43.8	-46.3	17.8	0.00e+00	0	43	0	567279616	58	5021
2026-01-18 00:24:48.58	322.98	52.12	-44.0	-46.6	17.5	0.00e+00	0	43	0	568328192	58	5197
2026-01-18 00:24:49.86	322.20	52.33	-43.9	-46.5	17.7	0.00e+00	0	43	0	570425344	59	4818
2026-01-18 00:24:50.58	321.76	52.45	-43.9	-46.5	17.6	0.00e+00	0	43	0	571473920	59	4822
2026-01-18 00:24:51.86	320.97	52.66	-44.1	-46.8	17.3	0.00e+00	0	43	0	574619648	59	4998
2026-01-18 00:24:52.58	320.52	52.77	-43.8	-46.5	17.6	0.00e+00	0	43	0	575668224	59	4848
2026-01-18 00:24:53.86	319.70	52.97	-43.8	-46.4	17.7	0.00e+00	0	43	0	577765376	59	4784
2026-01-18 00:24:54.59	319.24	53.08	-44.0	-46.7	17.4	0.00e+00	0	43	0	579862528	59	4940
2026-01-18 00:24:55.87	318.41	53.27	-43.9	-46.6	17.5	0.00e+00	0	43	0	581959680	59	4910
2026-01-18 00:24:56.60	317.93	53.37	-43.6	-46.1	17.9	0.00e+00	0	43	0	583008256	59	4644
2026-01-18 00:24:57.87	317.09	53.55	-43.3	-45.7	18.3	0.00e+00	0	43	0	586153984	58	4702
2026-01-18 00:24:58.58	316.62	53.65	-43.1	-45.5	18.4	0.00e+00	0	43	0	587202560	57	4861
2026-01-18 00:24:59.88	315.74	53.83	-42.3	-44.5	19.4	0.00e+00	0	43	0	589299712	56	4555
2026-01-18 00:25:00.59	315.26	53.92	-42.0	-44.1	19.7	0.00e+00	0	43	0	590348288	56	4382
2026-01-18 00:25:01.87	314.38	54.08	-42.3	-44.5	19.2	0.00e+00	0	43	0	593494016	55	4836
2026-01-18 00:25:02.58	313.89	54.17	-42.9	-45.3	18.7	0.00e+00	0	43	0	594542592	56	5021
2026-01-18 00:25:03.86	313.00	54.32	-43.5	-46.1	17.9	0.00e+00	0	43	0	596639744	58	4890
2026-01-18 00:25:04.59	312.49	54.41	-43.5	-45.9	18.1	0.00e+00	0	43	0	598736896	58	4809
2026-01-18 00:25:05.87	311.58	54.55	-43.8	-46.4	17.8	0.00e+00	0	43	0	600834048	58	5058
2026-01-18 00:25:06.58	311.07	54.62	-43.7	-46.3	17.8	0.00e+00	0	43	0	601882624	58	5013
2026-01-18 00:25:07.86	310.15	54.76	-42.4	-44.6	19.3	0.00e+00	0	43	0	603979776	56	4638
2026-01-18 00:25:08.58	309.63	54.83	-42.1	-44.3	19.5	0.00e+00	0	43	0	606076928	56	4462
2026-01-18 00:25:09.86	308.69	54.95	-42.2	-44.4	19.3	0.00e+00	0	43	0	608174080	55	4772
2026-01-18 00:25:10.61	308.14	55.01	-42.3	-44.6	19.2	0.00e+00	0	43	0	609222656	55	4873
2026-01-18 00:25:11.89	307.20	55.12	-42.9	-45.3	18.7	0.00e+00	0	43	0	612368384	57	4730
2026-01-18 00:25:12.59	306.68	55.18	-43.0	-45.4	18.6	0.00e+00	0	43	0	613416960	57	4786
2026-01-18 00:25:13.88	305.71	55.27	-42.9	-45.2	18.8	0.00e+00	0	43	0	615514112	57	4703
2026-01-18 00:25:14.60	305.17	55.32	-42.3	-44.5	19.3	0.00e+00	0	43	0	616562688	56	4597
2026-01-18 00:25:15.88	304.21	55.41	-41.5	-43.6	20.0	0.00e+00	0	43	0	619708416	55	4344
2026-01-18 00:25:16.59	303.67	55.45	-41.2	-43.2	20.3	0.00e+00	0	43	0	620756992	54	4435
2026-01-18 00:25:17.87	302.69	55.52	-40.7	-42.8	20.7	0.00e+00	0	43	0	622854144	53	4450
2026-01-18 00:25:18.58	302.15	55.56	-40.7	-42.8	20.7	0.00e+00	0	43	0	624951296	53	4444
2026-01-18 00:25:19.86	301.17	55.62	-41.2	-43.3	20.3	0.00e+00	0	43	0	627048448	53	4716
2026-01-18 00:25:20.58	300.61	55.65	-41.9	-44.1	19.6	0.00e+00	0	43	0	628097024	54	4917
2026-01-18 00:25:21.85	299.63	55.69	-41.5	-43.7	20.0	0.00e+00	0	43	0	630194176	54	4671
2026-01-18 00:25:22.58	299.07	55.72	-41.0	-43.1	20.4	0.00e+00	0	43	0	632291328	54	4376
2026-01-18 00:25:23.86	298.08	55.75	-40.8	-42.8	20.6	0.00e+00	0	43	0	634388480	53	4486
2026-01-18 00:25:24.57	297.52	55.76	-40.3	-42.2	21.1	0.00e+00	0	43	0	635437056	52	4399
2026-01-18 00:25:25.85	296.53	55.78	-40.3	-42.2	21.2	0.00e+00	0	43	0	638582784	52	4413
2026-01-18 00:25:26.56	295.98	55.79	-40.5	-42.4	21.0	0.00e+00	0	43	0	639631360	52	4543
2026-01-18 00:25:27.84	294.98	55.80	-41.0	-43.0	20.5	0.00e+00	0	43	0	641728512	52	4856
2026-01-18 00:25:28.55	294.43	55.80	-40.9	-43.0	20.5	0.00e+00	0	43	0	642777088	52	4822
2026-01-18 00:25:29.83	293.43	55.79	-40.9	-42.9	20.5	0.00e+00	0	43	0	645922816	52	4793
2026-01-18 00:25:30.54	292.88	55.78	-40.6	-42.6	20.8	0.00e+00	0	43	0	646971392	52	4602
2026-01-18 00:25:31.82	291.88	55.76	-40.4	-42.3	21.0	0.00e+00	0	43	0	649068544	52	4485
2026-01-18 00:25:32.67	291.22	55.74	-40.8	-42.8	20.6	0.00e+00	0	43	0	651165696	52	4742
2026-01-18 00:25:34.11	290.11	55.71	-41.0	-43.0	20.5	0.00e+00	0	43	0	653262848	52	4864
2026-01-18 00:25:35.23	289.24	55.67	-40.8	-42.8	20.7	0.00e+00	0	43	0	655360000	53	4451
2026-01-18 00:25:36.08	288.59	55.64	-40.9	-42.9	20.6	0.00e+00	0	43	0	657457152	53	4500
2026-01-18 00:25:37.22	287.71	55.59	-40.7	-42.7	20.7	0.00e+00	0	43	0	659554304	53	4401
2026-01-18 00:25:38.07	287.06	55.54	-40.7	-42.7	20.7	0.00e+00	0	43	0	660602880	53	4421
2026-01-18 00:25:39.21	286.19	55.48	-41.4	-43.5	20.1	0.00e+00	0	43	0	662700032	53	4858
2026-01-18 00:25:40.06	285.54	55.43	-41.7	-43.9	19.7	0.00e+00	0	43	0	664797184	54	4807
2026-01-18 00:25:41.20	284.68	55.36	-41.5	-43.6	20.1	0.00e+00	0	43	0	666894336	54	4617
2026-01-18 00:25:42.05	284.04	55.30	-41.1	-43.1	20.5	0.00e+00	0	43	0	667942912	54	4371
2026-01-18 00:25:43.19	283.18	55.22	-40.8	-42.8	20.7	0.00e+00	0	43	0	671088640	53	4475
2026-01-18 00:25:44.13	282.48	55.15	-40.3	-42.3	21.2	0.00e+00	0	43	0	672137216	52	4455
2026-01-18 00:25:45.30	281.61	55.05	-40.0	-42.0	21.4	0.00e+00	0	43	0	674234368	51	4556
2026-01-18 00:25:46.20	280.95	54.97	-40.2	-42.2	21.1	0.00e+00	0	43	0	676331520	51	4683
2026-01-18 00:25:47.48	280.01	54.85	-40.6	-42.5	21.0	0.00e+00	0	43	0	678428672	51	4870
2026-01-18 00:25:48.19	279.50	54.78	-40.5	-42.5	21.0	0.00e+00	0	43	0	679477248	51	4822
2026-01-18 00:25:49.47	278.57	54.65	-40.4	-42.4	21.1	0.00e+00	0	43	0	682622976	51	4770
2026-01-18 00:25:50.18	278.07	54.58	-39.9	-41.8	21.5	0.00e+00	0	43	0	683671552	51	4490
2026-01-18 00:25:51.75	276.95	54.41	-39.7	-41.6	21.6	0.00e+00	0	43	0	686817280	51	4375
2026-01-18 00:25:52.39	276.50	54.33	-39.9	-41.8	21.5	0.00e+00	0	43	0	687865856	51	4464
2026-01-18 00:25:53.93	275.42	54.15	-40.0	-41.9	21.5	0.00e+00	0	43	0	691011584	51	4503
2026-01-18 00:25:54.64	274.93	54.06	-39.9	-41.8	21.6	0.00e+00	0	43	0	692060160	51	4454
2026-01-18 00:25:55.92	274.06	53.90	-40.9	-42.9	20.6	0.00e+00	0	43	0	694157312	52	4775
2026-01-18 00:25:56.65	273.56	53.80	-40.9	-42.9	20.6	0.00e+00	0	43	0	696254464	52	4785
2026-01-18 00:25:57.93	272.70	53.63	-40.9	-42.9	20.5	0.00e+00	0	43	0	698351616	53	4533
2026-01-18 00:25:58.64	272.22	53.53	-40.7	-42.7	20.8	0.00e+00	0	43	0	699400192	53	4423
2026-01-18 00:25:59.95	271.36	53.34	-40.8	-42.8	20.7	0.00e+00	0	43	0	702545920	53	4455
2026-01-18 00:26:00.66	270.90	53.24	-41.6	-43.7	19.8	0.00e+00	0	43	0	703594496	53	4966
2026-01-18 00:26:01.94	270.07	53.05	-42.2	-44.5	19.2	0.00e+00	0	43	0	705691648	55	4817
2026-01-18 00:26:02.66	269.61	52.94	-42.1	-44.3	19.4	0.00e+00	0	43	0	706740224	55	4751
2026-01-18 00:26:03.94	268.79	52.74	-42.5	-44.7	19.0	0.00e+00	0	43	0	709885952	55	4954
2026-01-18 00:26:04.67	268.34	52.62	-43.1	-45.5	18.5	0.00e+00	0	43	0	710934528	56	5122
2026-01-18 00:26:05.95	267.54	52.42	-42.9	-45.2	18.8	0.00e+00	0	43	0	713031680	57	4684
2026-01-18 00:26:06.66	267.11	52.30	-42.5	-44.7	19.1	0.00e+00	0	43	0	715128832	57	4438
2026-01-18 00:26:08.23	266.16	52.04	-43.4	-45.9	18.2	0.00e+00	0	43	0	717225984	57	5054
2026-01-18 00:26:08.86	265.78	51.93	-43.6	-46.1	17.9	0.00e+00	0	43	0	719323136	58	4906
2026-01-18 00:26:10.37	264.89	51.67	-44.0	-46.6	17.5	0.00e+00	0	43	0	721420288	58	5206
2026-01-18 00:26:11.08	264.48	51.54	-43.8	-46.4	17.7	0.00e+00	0	43	0	722468864	59	4791
2026-01-18 00:26:12.36	263.74	51.31	-43.4	-45.9	18.2	0.00e+00	0	43	0	725614592	58	4762
2026-01-18 00:26:13.07	263.33	51.18	-42.9	-45.2	18.8	0.00e+00	0	43	0	726663168	57	4669
2026-01-18 00:26:14.35	262.61	50.95	-43.3	-45.7	18.4	0.00e+00	0	43	0	728760320	57	4948
2026-01-18 00:26:15.07	262.21	50.82	-43.6	-46.0	18.0	0.00e+00	0	43	0	730857472	57	5158
2026-01-18 00:26:16.35	261.51	50.58	-43.6	-46.0	18.0	0.00e+00	0	43	0	732954624	58	4869
2026-01-18 00:26:17.06	261.13	50.44	-43.9	-46.5	17.6	0.00e+00	0	43	0	734003200	58	5104
2026-01-18 00:26:18.34	260.44	50.20	-43.3	-45.7	18.3	0.00e+00	0	43	0	736100352	58	4696
2026-01-18 00:26:19.06	260.06	50.06	-43.2	-45.7	18.3	0.00e+00	0	43	0	738197504	58	4674
2026-01-18 00:26:20.33	259.40	49.81	-42.8	-45.1	18.8	0.00e+00	0	43	0	740294656	57	4650
2026-01-18 00:26:21.09	259.01	49.66	-43.4	-45.9	18.2	0.00e+00	0	43	0	741343232	57	5053
2026-01-18 00:26:22.65	258.22	49.35	-43.3	-45.6	18.4	0.00e+00	0	43	0	744488960	57	4910
2026-01-18 00:26:23.27	257.91	49.23	-43.6	-46.1	18.2	0.00e+00	0	43	0	745537536	57	5170
2026-01-18 00:26:24.83	257.14	48.91	-43.8	-46.3	17.8	0.00e+00	0	43	0	748683264	58	5040
2026-01-18 00:26:25.54	256.79	48.77	-44.2	-46.8	17.3	0.00e+00	0	43	0	749731840	59	5033
2026-01-18 00:26:26.82	256.18	48.51	-44.7	-47.5	16.7	0.00e+00	0	43	0	752877568	60	5158
2026-01-18 00:26:27.53	255.85	48.36	-44.5	-47.3	16.9	0.00e+00	0	43	0	753926144	60	4997
2026-01-18 00:26:28.81	255.25	48.10	-44.2	-46.9	17.5	0.00e+00	0	43	0	756023296	60	4789
2026-01-18 00:26:29.52	254.92	47.95	-43.8	-46.4	17.9	0.00e+00	0	43	0	757071872	59	4761
2026-01-18 00:26:30.83	254.33	47.67	-44.1	-46.7	17.3	0.00e+00	0	43	0	760217600	59	4972
2026-01-18 00:26:31.54	254.01	47.53	-44.3	-47.0	16.9	0.00e+00	0	43	0	761266176	60	4842
2026-01-18 00:26:32.87	253.42	47.25	-46.3	-49.9	14.5	0.00e+00	0	43	0	763363328	63	5670
2026-01-18 00:26:33.58	253.11	47.10	-47.3	-51.7	12.5	1.37e-05	0	43	0	765460480	65	6261
2026-01-18 00:26:34.86	252.56	46.82	-48.7	-55.0	9.3	2.01e-02	0	43	0	767557632	68	7692
2026-01-18 00:26:35.58	252.26	46.67	-48.1	-53.2	11.2	2.01e-02	0	43	0	768606208	68	6220
2026-01-18 00:26:36.86	251.72	46.40	-47.0	-51.1	12.9	2.49e-04	0	43	0	771751936	66	5519
2026-01-18 00:26:37.58	251.42	46.24	-47.1	-51.3	12.8	1.46e-04	0	43	0	772800512	65	5981
2026-01-18 00:26:38.86	250.90	45.97	-47.2	-51.6	12.6	1.59e-04	0	43	0	774897664	65	6170
2026-01-18 00:26:39.58	250.61	45.82	-46.4	-50.2	14.0	1.50e-06	0	43	0	775946240	64	5543
2026-01-18 00:26:40.86	250.11	45.54	-45.6	-48.8	15.5	0.00e+00	0	43	0	779091968	63	5007
2026-01-18 00:26:41.57	249.83	45.39	-45.8	-49.1	15.3	7.00e-07	0	43	0	780140544	63	5186
2026-01-18 00:26:42.87	249.33	45.11	-45.0	-47.9	16.3	0.00e+00	0	43	0	782237696	62	4805
2026-01-18 00:26:43.66	249.03	44.94	-44.5	-47.2	16.9	0.00e+00	0	43	0	784334848	61	4695
2026-01-18 00:26:45.17	248.46	44.61	-43.8	-46.3	17.8	0.00e+00	0	43	0	786432000	59	4753
2026-01-18 00:26:45.88	248.20	44.45	-43.3	-45.7	18.3	0.00e+00	0	43	0	788529152	58	4667
2026-01-18 00:26:47.16	247.74	44.18	-43.2	-45.5	18.5	0.00e+00	0	43	0	790626304	58	4587
2026-01-18 00:26:47.87	247.48	44.02	-43.6	-46.1	17.9	0.00e+00	0	43	0	791674880	58	4897
2026-01-18 00:26:49.15	247.03	43.75	-44.8	-47.7	16.6	0.00e+00	0	43	0	793772032	60	5226
2026-01-18 00:26:49.88	246.78	43.59	-45.5	-48.6	15.7	0.00e+00	0	43	0	795869184	61	5527
2026-01-18 00:26:51.15	246.34	43.31	-45.5	-48.7	15.6	0.00e+00	0	43	0	797966336	62	5227
2026-01-18 00:26:51.86	246.10	43.16	-45.5	-48.6	15.7	0.00e+00	0	43	0	799014912	62	5165
2026-01-18 00:26:53.14	245.67	42.88	-45.4	-48.6	15.8	0.00e+00	0	43	0	802160640	62	5172
2026-01-18 00:26:53.87	245.43	42.72	-45.1	-48.1	16.2	0.00e+00	0	43	0	803209216	62	4917
2026-01-18 00:26:55.15	245.01	42.45	-46.2	-49.8	14.5	0.00e+00	0	43	0	805306368	63	5626
2026-01-18 00:26:55.86	244.78	42.29	-46.4	-50.1	14.0	2.20e-06	0	43	0	807403520	64	5498
2026-01-18 00:26:57.14	244.38	42.02	-46.1	-49.5	14.8	0.00e+00	0	43	0	809500672	63	5435
2026-01-18 00:26:57.85	244.15	41.86	-45.6	-48.7	15.5	0.00e+00	0	43	0	810549248	63	4974
2026-01-18 00:26:59.16	243.75	41.58	-45.9	-49.3	15.0	0.00e+00	0	43	0	812646400	63	5281
2026-01-18 00:26:59.87	243.53	41.43	-45.7	-48.9	15.4	0.00e+00	0	43	0	814743552	63	5082
2026-01-18 00:27:01.15	243.15	41.15	-45.2	-48.2	16.2	0.00e+00	0	43	0	816840704	62	4944
2026-01-18 00:27:02.19	242.84	40.93	-45.0	-48.0	16.2	0.00e+00	0	43	0	818937856	61	5134
2026-01-18 00:27:03.50	242.46	40.65	-45.9	-49.3	15.1	0.00e+00	0	43	0	821035008	62	5602
2026-01-18 00:27:04.21	242.25	40.50	-45.8	-49.1	15.2	0.00e+00	0	43	0	822083584	62	5498
2026-01-18 00:27:05.49	241.89	40.23	-46.1	-49.6	14.8	1.50e-06	0	43	0	825229312	63	5514
2026-01-18 00:27:06.22	241.69	40.07	-46.3	-50.0	14.4	0.00e+00	0	43	0	826277888	63	5743
2026-01-18 00:27:07.49	241.34	39.80	-46.0	-49.5	14.8	0.00e+00	0	43	0	828375040	63	5426
2026-01-18 00:27:08.21	241.14	39.65	-46.2	-49.8	14.6	0.00e+00	0	43	0	830472192	63	5607
2026-01-18 00:27:09.49	240.79	39.38	-46.0	-49.4	15.0	0.00e+00	0	43	0	832569344	63	5360
2026-01-18 00:27:10.20	240.61	39.23	-45.5	-48.7	15.5	0.00e+00	0	43	0	833617920	63	4973
2026-01-18 00:27:11.48	240.27	38.97	-45.0	-48.0	16.2	0.00e+00	0	43	0	835715072	61	5151
2026-01-18 00:27:12.19	240.09	38.82	-45.1	-48.1	16.1	0.00e+00	0	43	0	837812224	61	5173
2026-01-18 00:27:13.47	239.76	38.55	-45.2	-48.3	16.0	0.00e+00	0	43	0	839909376	61	5281
2026-01-18 00:27:14.18	239.58	38.40	-45.5	-48.7	15.6	0.00e+00	0	43	0	840957952	61	5546
2026-01-18 00:27:15.46	239.26	38.14	-44.9	-47.8	16.4	0.00e+00	0	43	0	844103680	61	5005
2026-01-18 00:27:16.18	239.08	37.99	-45.0	-48.0	16.4	0.00e+00	0	43	0	845152256	61	5117
2026-01-18 00:27:17.46	238.77	37.73	-45.1	-48.1	16.1	0.00e+00	0	43	0	847249408	61	5206
2026-01-18 00:27:18.19	238.60	37.58	-45.1	-48.1	16.1	0.00e+00	0	43	0	848297984	61	5200
2026-01-18 00:27:19.70	238.24	37.27	-46.2	-49.7	14.6	0.00e+00	0	43	0	851443712	62	5883
2026-01-18 00:27:20.41	238.07	37.12	-45.7	-48.9	15.4	0.00e+00	0	43	0	852492288	63	5070
2026-01-18 00:27:21.74	237.77	36.85	-45.9	-49.2	15.0	0.00e+00	0	43	0	855638016	63	5254
2026-01-18 00:27:22.45	237.61	36.71	-45.8	-49.1	15.2	0.00e+00	0	43	0	856686592	63	5193
2026-01-18 00:27:23.73	237.32	36.45	-46.6	-50.3	13.9	0.00e+00	0	43	0	858783744	63	5981
2026-01-18 00:27:24.47	237.16	36.30	-46.4	-50.1	14.1	1.50e-06	0	43	0	860880896	63	5815
2026-01-18 00:27:25.75	236.87	36.05	-46.1	-49.4	14.8	1.50e-06	0	43	0	862978048	63	5399
2026-01-18 00:27:26.46	236.72	35.91	-45.4	-48.5	15.8	0.00e+00	0	43	0	864026624	62	5135
2026-01-18 00:27:27.74	236.45	35.65	-45.1	-48.0	16.2	0.00e+00	0	43	0	866123776	61	5137
2026-01-18 00:27:28.45	236.30	35.51	-44.7	-47.5	16.6	0.00e+00	0	43	0	868220928	61	4870
2026-01-18 00:27:29.73	236.03	35.26	-45.0	-47.9	16.3	0.00e+00	0	43	0	870318080	61	5048
2026-01-18 00:27:30.45	235.88	35.12	-45.0	-48.0	16.2	0.00e+00	0	43	0	871366656	61	5120
2026-01-18 00:27:31.73	235.62	34.87	-45.4	-48.6	15.7	0.00e+00	0	43	0	874512384	61	5488
2026-01-18 00:27:32.48	235.47	34.72	-46.1	-49.7	14.7	0.00e+00	0	43	0	875560960	62	5862
2026-01-18 00:27:33.75	235.22	34.48	-46.5	-50.3	14.0	7.00e-07	0	43	0	877658112	63	5958
2026-01-18 00:27:34.50	235.07	34.33	-46.5	-50.5	13.7	7.00e-07	0	43	0	879755264	64	5724
2026-01-18 00:27:35.78	234.82	34.09	-45.7	-49.0	15.2	7.00e-07	0	43	0	881852416	63	5145
2026-01-18 00:27:36.50	234.69	33.95	-45.5	-48.7	15.6	0.00e+00	0	43	0	882900992	63	4938
2026-01-18 00:27:37.78	234.44	33.71	-44.7	-47.6	16.6	0.00e+00	0	43	0	884998144	61	4873
2026-01-18 00:27:38.59	234.29	33.55	-44.7	-47.6	16.6	0.00e+00	0	43	0	887095296	60	5168
2026-01-18 00:27:39.73	234.08	33.34	-44.6	-47.4	16.8	0.00e+00	0	43	0	889192448	60	5053
2026-01-18 00:27:40.58	233.93	33.18	-44.9	-47.9	16.4	0.00e+00	0	43	0	890241024	60	5346
2026-01-18 00:27:41.71	233.72	32.97	-45.0	-48.0	16.2	0.00e+00	0	43	0	893386752	60	5416
2026-01-18 00:27:42.57	233.57	32.81	-45.2	-48.3	16.0	0.00e+00	0	43	0	894435328	61	5320
2026-01-18 00:27:43.70	233.37	32.60	-45.1	-48.0	16.2	0.00e+00	0	43	0	896532480	61	5159
2026-01-18 00:27:44.56	233.22	32.44	-45.3	-48.4	15.8	0.00e+00	0	43	0	898629632	61	5376
2026-01-18 00:27:45.69	233.02	32.23	-45.4	-48.5	15.6	0.00e+00	0	43	0	900726784	61	5458
2026-01-18 00:27:46.55	232.88	32.07	-45.3	-48.5	15.7	0.00e+00	0	43	0	901775360	61	5430
2026-01-18 00:27:47.69	232.68	31.87	-45.6	-49.0	15.3	0.00e+00	0	43	0	903872512	62	5420
2026-01-18 00:27:48.54	232.54	31.71	-45.7	-49.1	15.2	0.00e+00	0	43	0	905969664	62	5477
2026-01-18 00:27:49.68	232.36	31.51	-45.8	-49.2	15.0	0.00e+00	0	43	0	908066816	62	5589
2026-01-18 00:27:50.53	232.22	31.35	-45.8	-49.3	15.0	0.00e+00	0	43	0	909115392	62	5648
2026-01-18 00:27:51.67	232.03	31.15	-46.2	-50.0	14.3	0.00e+00	0	43	0	911212544	63	5738
2026-01-18 00:27:52.60	231.88	30.98	-46.4	-50.2	14.1	7.00e-07	0	43	0	913309696	63	5915
2026-01-18 00:27:53.77	231.70	30.78	-46.6	-50.7	13.4	6.80e-06	0	43	0	915406848	64	5922
2026-01-18 00:27:54.62	231.57	30.63	-46.2	-50.1	14.1	1.06e-05	0	43	0	917504000	64	5515
2026-01-18 00:27:55.76	231.39	30.43	-46.3	-50.2	14.0	7.00e-07	0	43	0	919601152	64	5556
2026-01-18 00:27:56.61	231.26	30.28	-45.7	-49.1	15.1	0.00e+00	0	43	0	920649728	63	5208
2026-01-18 00:27:57.75	231.09	30.08	-44.9	-47.9	16.3	0.00e+00	0	43	0	922746880	61	5080
2026-01-18 00:27:58.60	230.96	29.93	-44.2	-46.9	17.2	0.00e+00	0	43	0	924844032	60	4806
2026-01-18 00:27:59.74	230.80	29.74	-43.8	-46.3	17.7	0.00e+00	0	43	0	926941184	59	4752
2026-01-18 00:28:00.59	230.67	29.59	-43.5	-46.0	17.9	0.00e+00	0	43	0	927989760	59	4592
2026-01-18 00:28:01.73	230.51	29.40	-43.6	-46.1	17.9	0.00e+00	0	43	0	930086912	58	4909
2026-01-18 00:28:02.58	230.39	29.25	-43.8	-46.3	17.7	0.00e+00	0	43	0	932184064	58	5038
2026-01-18 00:28:03.72	230.22	29.06	-44.0	-46.5	17.5	0.00e+00	0	43	0	934281216	58	5151
2026-01-18 00:28:04.57	230.11	28.92	-44.1	-46.8	17.3	0.00e+00	0	43	0	935329792	58	5303
2026-01-18 00:28:05.71	229.95	28.73	-44.2	-46.9	17.1	0.00e+00	0	43	0	937426944	59	5042
2026-01-18 00:28:06.56	229.83	28.59	-44.5	-47.3	16.7	0.00e+00	0	43	0	939524096	59	5328
2026-01-18 00:28:07.70	229.68	28.40	-44.7	-47.5	16.6	0.00e+00	0	43	0	941621248	60	5138
2026-01-18 00:28:08.55	229.56	28.26	-45.0	-48.0	16.2	0.00e+00	0	43	0	942669824	60	5431
2026-01-18 00:28:09.69	229.41	28.07	-45.0	-48.0	16.1	0.00e+00	0	43	0	945815552	61	5143
2026-01-18 00:28:10.54	229.30	27.93	-44.8	-47.7	16.4	0.00e+00	0	43	0	946864128	61	4980
2026-01-18 00:28:11.68	229.15	27.75	-44.6	-47.4	16.7	0.00e+00	0	43	0	948961280	61	4813
2026-01-18 00:28:12.64	229.03	27.59	-44.4	-47.2	16.9	0.00e+00	0	43	0	951058432	60	4950
2026-01-18 00:28:13.80	228.88	27.40	-44.0	-46.6	17.5	0.00e+00	0	43	0	953155584	60	4625
2026-01-18 00:28:14.65	228.77	27.27	-43.8	-46.3	17.7	0.00e+00	0	43	0	954204160	59	4742
2026-01-18 00:28:16.01	228.60	27.05	-43.6	-46.0	18.0	0.00e+00	0	43	0	957349888	58	4854
2026-01-18 00:28:16.72	228.52	26.94	-43.6	-46.0	18.0	0.00e+00	0	43	0	958398464	58	4861
2026-01-18 00:28:18.00	228.36	26.74	-43.7	-46.2	17.7	0.00e+00	0	43	0	960495616	58	4968
2026-01-18 00:28:18.72	228.27	26.62	-43.8	-46.3	17.7	0.00e+00	0	43	0	962592768	58	5010
2026-01-18 00:28:20.00	228.12	26.42	-43.7	-46.2	17.8	0.00e+00	0	43	0	964689920	58	4981
2026-01-18 00:28:20.74	228.03	26.31	-43.6	-46.1	18.0	0.00e+00	0	43	0	965738496	58	4889
2026-01-18 00:28:22.02	227.88	26.11	-43.6	-46.1	17.9	0.00e+00	0	43	0	968884224	58	4891
2026-01-18 00:28:22.75	227.80	26.00	-43.6	-46.1	17.9	0.00e+00	0	43	0	969932800	58	4913
2026-01-18 00:28:24.02	227.65	25.81	-43.6	-46.1	17.9	0.00e+00	0	43	0	972029952	58	4885
2026-01-18 00:28:24.75	227.57	25.69	-43.8	-46.3	17.7	0.00e+00	0	43	0	973078528	58	5008
2026-01-18 00:28:26.03	227.43	25.50	-44.1	-46.8	17.3	0.00e+00	0	43	0	976224256	58	5291
2026-01-18 00:28:26.74	227.35	25.39	-44.3	-47.0	17.1	0.00e+00	0	43	0	977272832	59	5128
2026-01-18 00:28:28.02	227.21	25.20	-44.5	-47.3	16.7	0.00e+00	0	43	0	979369984	59	5328
2026-01-18 00:28:28.74	227.13	25.09	-44.5	-47.2	16.8	0.00e+00	0	43	0	981467136	59	5270
2026-01-18 00:28:30.02	226.99	24.90	-44.2	-46.9	17.1	0.00e+00	0	43	0	983564288	59	5085
2026-01-18 00:28:30.76	226.91	24.79	-44.1	-46.8	17.2	0.00e+00	0	43	0	984612864	59	4985
2026-01-18 00:28:32.16	226.76	24.59	-43.8	-46.4	17.5	0.00e+00	0	43	0	987758592	59	4785
2026-01-18 00:28:33.16	226.65	24.44	-43.6	-46.0	17.9	0.00e+00	0	43	0	989855744	59	4593
2026-01-18 00:28:34.47	226.52	24.25	-43.6	-46.0	17.9	0.00e+00	0	43	0	991952896	59	4580
2026-01-18 00:28:35.18	226.45	24.15	-43.5	-46.0	17.9	0.00e+00	0	43	0	993001472	59	4566
2026-01-18 00:28:36.46	226.31	23.96	-43.5	-45.9	18.0	0.00e+00	0	43	0	995098624	59	4519
2026-01-18 00:28:37.17	226.24	23.86	-43.7	-46.1	17.8	0.00e+00	0	43	0	997195776	59	4639
2026-01-18 00:28:38.45	226.11	23.68	-43.6	-46.0	17.9	0.00e+00	0	43	0	999292928	59	4586
2026-01-18 00:28:39.16	226.04	23.58	-43.5	-45.9	18.0	0.00e+00	0	43	0	1000341504	59	4529
2026-01-18 00:28:40.44	225.92	23.40	-43.5	-45.9	18.0	0.00e+00	0	43	0	1002438656	58	4789
2026-01-18 00:28:41.15	225.85	23.30	-43.1	-45.5	18.4	0.00e+00	0	43	0	1004535808	58	4553
2026-01-18 00:28:42.43	225.73	23.12	-43.2	-45.5	18.4	0.00e+00	0	43	0	1006632960	58	4593
2026-01-18 00:28:43.14	225.66	23.02	-43.2	-45.6	18.3	0.00e+00	0	43	0	1007681536	58	4636
2026-01-18 00:28:44.56	225.52	22.82	-43.5	-46.0	18.0	0.00e+00	0	43	0	1010827264	58	4815
2026-01-18 00:28:45.27	225.46	22.72	-43.6	-46.1	17.8	0.00e+00	0	43	0	1011875840	58	4919
2026-01-18 00:28:46.55	225.34	22.55	-44.1	-46.7	17.3	0.00e+00	0	43	0	1013972992	58	5239
2026-01-18 00:28:47.28	225.27	22.45	-44.3	-47.0	16.9	0.00e+00	0	43	0	1016070144	59	5144
2026-01-18 00:28:48.65	225.15	22.26	-44.8	-47.8	16.3	0.00e+00	0	43	0	1018167296	60	5284
2026-01-18 00:28:49.36	225.08	22.17	-44.9	-47.8	16.3	0.00e+00	0	43	0	1019215872	60	5333
2026-01-18 00:28:50.64	224.97	21.99	-44.9	-47.9	16.2	0.00e+00	0	43	0	1022361600	60	5384
2026-01-18 00:28:51.69	224.87	21.85	-44.8	-47.7	16.4	0.00e+00	0	43	0	1024458752	60	5274
2026-01-18 00:28:52.86	224.77	21.70	-44.5	-47.4	16.7	0.00e+00	0	43	0	1026555904	60	5045
2026-01-18 00:28:53.87	224.68	21.56	-44.2	-47.0	17.1	0.00e+00	0	43	0	1028653056	60	4819
2026-01-18 00:28:54.87	224.60	21.43	-44.1	-46.7	17.3	0.00e+00	0	43	0	1029701632	60	4691
2026-01-18 00:28:55.86	224.51	21.30	-44.1	-46.7	17.3	0.00e+00	0	43	0	1031798784	59	4944
2026-01-18 00:28:56.86	224.43	21.17	-43.9	-46.5	17.4	0.00e+00	0	43	0	1033895936	59	4847
2026-01-18 00:28:57.86	224.34	21.04	-44.1	-46.7	17.3	0.00e+00	0	43	0	1035993088	59	4980
2026-01-18 00:28:58.85	224.26	20.91	-44.2	-46.8	17.1	0.00e+00	0	43	0	1037041664	59	5028
2026-01-18 00:28:59.85	224.18	20.78	-44.3	-47.1	16.9	0.00e+00	0	43	0	1039138816	59	5168
2026-01-18 00:29:00.84	224.10	20.66	-44.6	-47.4	16.7	0.00e+00	0	43	0	1041235968	59	5372
2026-01-18 00:29:01.84	224.02	20.53	-44.6	-47.4	16.7	0.00e+00	0	43	0	1043333120	60	5081
2026-01-18 00:29:02.84	223.94	20.40	-44.8	-47.6	16.4	0.00e+00	0	43	0	1045430272	60	5204
2026-01-18 00:29:03.83	223.86	20.28	-44.6	-47.4	16.7	0.00e+00	0	43	0	1046478848	60	5061
2026-01-18 00:29:04.84	223.78	20.15	-44.6	-47.4	16.6	0.00e+00	0	43	0	1048576000	60	5082
2026-01-18 00:29:05.87	223.70	20.02	-44.6	-47.4	16.7	0.00e+00	0	43	0	1050673152	60	5051
2026-01-18 00:29:06.86	223.62	19.90	-44.3	-47.1	16.9	0.00e+00	0	43	0	1052770304	60	4883
2026-01-18 00:29:07.86	223.54	19.77	-44.1	-46.8	17.2	0.00e+00	0	43	0	1054867456	60	4737
2026-01-18 00:29:08.85	223.47	19.65	-44.0	-46.5	17.4	0.00e+00	0	43	0	1055916032	59	4863
2026-01-18 00:29:09.85	223.39	19.53	-43.7	-46.3	17.6	0.00e+00	0	43	0	1058013184	59	4725
2026-01-18 00:29:10.84	223.32	19.41	-43.6	-46.1	17.8	0.00e+00	0	43	0	1060110336	59	4615
2026-01-18 00:29:11.83	223.24	19.29	-43.4	-45.8	18.0	0.00e+00	0	43	0	1062207488	58	4741
2026-01-18 00:29:12.83	223.17	19.16	-43.3	-45.8	18.1	0.00e+00	0	43	0	1063256064	58	4713
2026-01-18 00:29:13.82	223.10	19.04	-43.2	-45.6	18.3	0.00e+00	0	43	0	1065353216	58	4614
2026-01-18 00:29:14.82	223.02	18.92	-43.2	-45.7	18.2	0.00e+00	0	43	0	1067450368	58	4659
2026-01-18 00:29:15.81	222.95	18.81	-43.2	-45.6	18.2	0.00e+00	0	43	0	1069547520	58	4640
2026-01-18 00:29:16.81	222.88	18.69	-43.2	-45.6	18.2	0.00e+00	0	43	0	1071644672	58	4643
2026-01-18 00:29:17.80	222.81	18.57	-43.1	-45.5	18.3	0.00e+00	0	43	0	1072693248	58	4568
2026-01-18 00:29:18.79	222.74	18.45	-43.2	-45.6	18.2	0.00e+00	0	43	0	1074790400	58	4619
2026-01-18 00:29:19.79	222.67	18.33	-43.5	-45.9	17.9	0.00e+00	0	43	0	1076887552	58	4808
2026-01-18 00:29:20.79	222.60	18.22	-43.2	-45.7	18.2	0.00e+00	0	43	0	1078984704	58	4657
2026-01-18 00:29:21.84	222.53	18.09	-43.3	-45.8	18.0	0.00e+00	0	43	0	1081081856	58	4728
2026-01-18 00:29:22.76	222.47	17.99	-43.5	-46.0	17.9	0.00e+00	0	43	0	1082130432	58	4855
2026-01-18 00:29:23.89	222.39	17.86	-43.6	-46.2	17.7	0.00e+00	0	43	0	1084227584	58	4947
2026-01-18 00:29:24.76	222.33	17.76	-43.7	-46.3	17.5	0.00e+00	0	43	0	1086324736	58	5031
2026-01-18 00:29:25.90	222.26	17.62	-43.9	-46.6	17.4	0.00e+00	0	43	0	1088421888	58	5175
2026-01-18 00:29:26.75	222.20	17.53	-44.2	-46.9	17.1	0.00e+00	0	43	0	1089470464	58	5367
2026-01-18 00:29:28.11	222.11	17.37	-44.3	-47.1	16.9	0.00e+00	0	43	0	1092616192	59	5168
2026-01-18 00:29:28.82	222.06	17.29	-44.5	-47.3	16.7	0.00e+00	0	43	0	1093664768	59	5311
2026-01-18 00:29:30.10	221.98	17.15	-44.8	-47.7	16.4	0.00e+00	0	43	0	1095761920	60	5268
2026-01-18 00:29:30.83	221.94	17.07	-44.7	-47.7	16.4	0.00e+00	0	43	0	1097859072	60	5230
2026-01-18 00:29:32.11	221.85	16.92	-45.0	-48.1	16.0	0.00e+00	0	43	0	1099956224	60	5471
2026-01-18 00:29:32.83	221.81	16.84	-45.1	-48.1	15.9	0.00e+00	0	43	0	1101004800	60	5512
2026-01-18 00:29:34.11	221.73	16.70	-45.2	-48.3	15.7	0.00e+00	0	43	0	1104150528	60	5637
2026-01-18 00:29:34.82	221.68	16.62	-45.5	-48.7	15.3	0.00e+00	0	43	0	1105199104	61	5581
2026-01-18 00:29:36.10	221.61	16.48	-45.4	-48.7	15.3	0.00e+00	0	43	0	1107296256	61	5561
2026-01-18 00:29:37.03	221.55	16.38	-45.4	-48.6	15.4	0.00e+00	0	43	0	1109393408	61	5478
2026-01-18 00:29:38.03	221.49	16.27	-45.4	-48.6	15.4	0.00e+00	0	43	0	1110441984	61	5504
2026-01-18 00:29:39.02	221.43	16.16	-45.4	-48.6	15.4	0.00e+00	0	43	0	1112539136	61	5516
2026-01-18 00:29:40.01	221.37	16.06	-45.1	-48.3	15.7	0.00e+00	0	43	0	1114636288	61	5296
2026-01-18 00:29:41.01	221.31	15.95	-45.4	-48.6	15.4	0.00e+00	0	43	0	1116733440	61	5528
2026-01-18 00:29:42.01	221.25	15.84	-45.0	-48.1	15.9	0.00e+00	0	43	0	1118830592	61	5163
2026-01-18 00:29:43.00	221.19	15.74	-44.8	-47.8	16.2	0.00e+00	0	43	0	1119879168	61	5040
2026-01-18 00:29:44.00	221.14	15.63	-44.9	-48.0	16.0	0.00e+00	0	43	0	1121976320	61	5128
2026-01-18 00:29:44.99	221.08	15.53	-44.9	-47.8	16.1	0.00e+00	0	43	0	1124073472	61	5035
2026-01-18 00:29:45.99	221.02	15.42	-44.8	-47.8	16.2	0.00e+00	0	43	0	1126170624	61	5002
2026-01-18 00:29:46.99	220.96	15.32	-44.8	-47.7	16.2	0.00e+00	0	43	0	1127219200	61	4977
2026-01-18 00:29:47.98	220.91	15.21	-44.8	-47.8	16.2	0.00e+00	0	43	0	1129316352	61	5008
2026-01-18 00:29:48.97	220.85	15.11	-44.7	-47.7	16.3	0.00e+00	0	43	0	1131413504	61	4935
2026-01-18 00:29:49.97	220.80	15.00	-44.7	-47.6	16.4	0.00e+00	0	43	0	1133510656	61	4888
2026-01-18 00:29:50.96	220.74	14.90	-44.7	-47.7	16.3	0.00e+00	0	43	0	1135607808	61	4935
2026-01-18 00:29:51.96	220.69	14.80	-44.7	-47.7	16.3	0.00e+00	0	43	0	1136656384	60	5222
2026-01-18 00:29:52.95	220.63	14.70	-44.7	-47.7	16.3	0.00e+00	0	43	0	1138753536	60	5242
2026-01-18 00:29:53.95	220.58	14.60	-44.8	-47.9	16.1	0.00e+00	0	43	0	1140850688	60	5363
2026-01-18 00:29:54.94	220.53	14.49	-44.8	-47.8	16.3	0.00e+00	0	43	0	1142947840	60	5286
2026-01-18 00:29:55.93	220.47	14.39	-44.9	-48.0	16.0	0.00e+00	0	43	0	1143996416	60	5425
2026-01-18 00:29:56.93	220.42	14.29	-44.7	-47.7	16.3	0.00e+00	0	43	0	1146093568	60	5229
2026-01-18 00:29:57.92	220.37	14.19	-45.1	-48.2	15.8	0.00e+00	0	43	0	1148190720	60	5591
2026-01-18 00:29:58.92	220.32	14.09	-44.9	-48.0	15.9	0.00e+00	0	43	0	1150287872	60	5443
2026-01-18 00:29:59.96	220.26	13.99	-45.0	-48.2	15.7	0.00e+00	0	43	0	1152385024	60	5572
2026-01-18 00:30:00.94	220.21	13.89	-45.2	-48.4	15.6	0.00e+00	0	43	0	1153433600	60	5711
2026-01-18 00:30:02.01	220.16	13.79	-45.2	-48.4	15.5	0.00e+00	0	43	0	1155530752	61	5383
2026-01-18 00:30:02.87	220.12	13.70	-45.0	-48.1	15.8	0.00e+00	0	43	0	1157627904	61	5212
2026-01-18 00:30:04.00	220.06	13.59	-45.2	-48.4	15.5	0.00e+00	0	43	0	1159725056	61	5388
2026-01-18 00:30:04.85	220.02	13.51	-45.2	-48.5	15.4	0.00e+00	0	43	0	1160773632	61	5455
2026-01-18 00:30:05.99	219.96	13.40	-45.2	-48.5	15.5	0.00e+00	0	43	0	1162870784	61	5408
2026-01-18 00:30:06.84	219.92	13.31	-45.2	-48.5	15.5	7.00e-07	0	43	0	1164967936	61	5410
2026-01-18 00:30:07.98	219.86	13.20	-45.1	-48.3	15.6	0.00e+00	0	43	0	1167065088	61	5309
2026-01-18 00:30:08.84	219.82	13.12	-45.1	-48.4	15.5	0.00e+00	0	43	0	1169162240	61	5362
2026-01-18 00:30:09.97	219.77	13.01	-45.2	-48.5	15.5	0.00e+00	0	43	0	1171259392	61	5417
2026-01-18 00:30:10.83	219.72	12.93	-44.9	-48.1	15.8	7.00e-07	0	43	0	1172307968	61	5187
2026-01-18 00:30:11.97	219.67	12.82	-44.8	-47.9	16.0	0.00e+00	0	43	0	1174405120	61	5076
2026-01-18 00:30:12.82	219.63	12.74	-44.9	-48.0	16.0	0.00e+00	0	43	0	1176502272	61	5114
2026-01-18 00:30:13.99	219.58	12.63	-44.9	-48.0	15.9	0.00e+00	0	43	0	1178599424	61	5108
2026-01-18 00:30:14.84	219.54	12.55	-44.8	-47.9	16.1	0.00e+00	0	43	0	1179648000	61	5044
2026-01-18 00:30:15.98	219.48	12.44	-45.1	-48.3	15.6	0.00e+00	0	43	0	1181745152	61	5331
2026-01-18 00:30:16.83	219.44	12.36	-44.9	-48.1	15.8	0.00e+00	0	43	0	1183842304	61	5162
2026-01-18 00:30:17.97	219.39	12.26	-44.9	-48.1	15.8	0.00e+00	0	43	0	1185939456	61	5170
2026-01-18 00:30:18.82	219.35	12.18	-45.2	-48.5	15.4	0.00e+00	0	43	0	1186988032	61	5443
2026-01-18 00:30:19.96	219.30	12.07	-45.1	-48.4	15.5	0.00e+00	0	43	0	1189085184	61	5376
2026-01-18 00:30:20.81	219.26	11.99	-45.2	-48.4	15.5	0.00e+00	0	43	0	1191182336	61	5374
2026-01-18 00:30:21.94	219.21	11.89	-45.3	-48.6	15.3	0.00e+00	0	43	0	1193279488	61	5496
2026-01-18 00:30:22.80	219.18	11.81	-45.4	-48.9	15.0	0.00e+00	0	43	0	1195376640	61	5659
2026-01-18 00:30:23.93	219.13	11.71	-45.4	-48.8	15.1	0.00e+00	0	43	0	1197473792	61	5613
2026-01-18 00:30:24.78	219.09	11.63	-45.5	-48.9	14.9	0.00e+00	0	43	0	1198522368	61	5721
2026-01-18 00:30:25.92	219.04	11.53	-45.7	-49.3	14.6	7.00e-07	0	43	0	1200619520	61	5947
2026-01-18 00:30:26.77	219.00	11.45	-45.8	-49.5	14.4	0.00e+00	0	43	0	1202716672	62	5735
2026-01-18 00:30:27.91	218.95	11.35	-45.8	-49.4	14.5	1.50e-06	0	43	0	1204813824	62	5700
2026-01-18 00:30:28.76	218.92	11.27	-45.9	-49.7	14.2	0.00e+00	0	43	0	1205862400	62	5857
2026-01-18 00:30:29.92	218.87	11.17	-45.9	-49.7	14.2	1.50e-06	0	43	0	1207959552	62	5909
2026-01-18 00:30:30.77	218.83	11.09	-45.8	-49.6	14.3	2.20e-06	0	43	0	1210056704	62	5830
2026-01-18 00:30:31.95	218.78	10.99	-45.8	-49.6	14.3	7.00e-07	0	43	0	1212153856	62	5836
2026-01-18 00:30:32.81	218.75	10.91	-45.9	-49.7	14.2	0.00e+00	0	43	0	1213202432	62	5892
2026-01-18 00:30:33.94	218.70	10.81	-45.8	-49.6	14.3	1.50e-06	0	43	0	1215299584	62	5828
2026-01-18 00:30:34.80	218.67	10.74	-45.6	-49.3	14.6	0.00e+00	0	43	0	1217396736	62	5613
2026-01-18 00:30:36.11	218.61	10.62	-45.7	-49.4	14.4	7.00e-07	0	43	0	1219493888	62	5718
2026-01-18 00:30:37.23	218.57	10.52	-45.5	-49.2	14.7	7.00e-07	0	43	0	1221591040	62	5572
2026-01-18 00:30:38.08	218.53	10.45	-45.5	-49.2	14.6	0.00e+00	0	43	0	1223688192	62	5576
2026-01-18 00:30:39.22	218.49	10.35	-45.6	-49.3	14.5	0.00e+00	0	43	0	1225785344	62	5633
2026-01-18 00:30:40.07	218.45	10.28	-45.2	-48.8	15.0	0.00e+00	0	43	0	1226833920	62	5290
2026-01-18 00:30:41.21	218.41	10.18	-45.4	-49.0	14.8	0.00e+00	0	43	0	1228931072	62	5434
2026-01-18 00:30:42.06	218.38	10.11	-45.5	-49.1	14.7	7.00e-07	0	43	0	1231028224	62	5527
2026-01-18 00:30:43.20	218.33	10.01	-45.3	-48.9	15.0	0.00e+00	0	43	0	1233125376	62	5360
2026-01-18 00:30:44.05	218.30	9.94	-45.2	-48.7	15.1	0.00e+00	0	43	0	1234173952	62	5279
2026-01-18 00:30:45.19	218.26	9.84	-45.2	-48.7	15.1	0.00e+00	0	43	0	1237319680	62	5230
