passes_logs/2026/01/18/T1/T1__20260118_203133_FENGYUN_3G_rec.log

#Pass ID: 20260118_203133_FENGYUN 3G
#Satellite: FENGYUN 3G
#Configuration: FENGYUN 3G
#almurnet v.1.7.20251203
#Start time: 2026-01-18 20:31:34

#Version: 2.0.20230620
#Station: T1
#Location: 37.570604 lon 55.790049 lat
#TLE: 1 56232U 23055A   26017.62185216  .00029849  00000+0  46390-3 0  9996
#TLE: 2 56232  49.9938  42.4053 0004170  40.2836 319.8440 15.53630283156608

#Time	Az	El	Level	Level2	SNR	BER	BlckErr	Temp	State	Recorded	gain1	gain2
2026-01-18 20:31:34.76	224.23	5.30	-49.4	-68.5	3.8	8.47e-01	0	45	0	0	70	32188
2026-01-18 20:31:35.75	224.12	5.38	-49.4	-68.4	3.8	8.38e-01	0	45	104	0	70	32131
2026-01-18 20:31:36.74	224.01	5.45	-49.4	-68.4	3.8	8.44e-01	0	45	104	0	70	31916
2026-01-18 20:31:37.73	223.89	5.52	-49.4	-68.4	3.8	8.47e-01	0	44	104	0	70	32045
2026-01-18 20:31:38.73	223.78	5.59	-49.4	-68.4	3.8	8.47e-01	0	44	104	0	70	32035
2026-01-18 20:31:39.72	223.67	5.67	-49.4	-68.4	3.8	8.47e-01	0	45	104	0	70	32141
2026-01-18 20:31:40.71	223.55	5.74	-49.4	-68.5	3.8	8.48e-01	0	45	104	0	70	32181
2026-01-18 20:31:41.71	223.43	5.82	-49.4	-68.4	3.8	8.48e-01	0	45	104	0	70	32125
2026-01-18 20:31:42.70	223.32	5.89	-49.4	-68.4	3.8	8.47e-01	0	44	104	0	70	31993
2026-01-18 20:31:43.70	223.20	5.96	-49.4	-68.3	3.8	8.47e-01	0	45	104	0	70	31652
2026-01-18 20:31:44.69	223.08	6.04	-49.4	-68.4	3.8	8.47e-01	0	44	104	0	70	31816
2026-01-18 20:31:45.68	222.96	6.11	-49.4	-68.4	3.8	8.45e-01	0	44	104	0	70	31954
2026-01-18 20:31:46.67	222.84	6.19	-49.4	-68.4	3.8	8.47e-01	0	44	104	0	70	31924
2026-01-18 20:31:47.67	222.72	6.26	-49.4	-68.3	3.8	8.47e-01	0	44	104	0	70	31760
2026-01-18 20:31:48.66	222.60	6.34	-49.4	-68.3	3.8	8.48e-01	0	44	104	0	70	31680
2026-01-18 20:31:49.65	222.47	6.41	-49.4	-68.4	3.8	8.47e-01	0	44	104	0	70	31942
2026-01-18 20:31:50.65	222.35	6.49	-49.4	-68.4	3.8	8.47e-01	0	44	104	0	70	31814
2026-01-18 20:31:51.64	222.22	6.57	-49.4	-68.3	3.8	8.47e-01	0	44	104	0	70	31497
2026-01-18 20:31:52.63	222.10	6.64	-49.4	-68.2	3.8	8.47e-01	0	44	104	0	70	31326
2026-01-18 20:31:53.63	221.97	6.72	-49.4	-68.2	3.8	8.47e-01	0	44	104	0	70	31174
2026-01-18 20:31:54.62	221.84	6.80	-49.4	-68.1	3.8	8.47e-01	0	44	104	0	70	31018
2026-01-18 20:31:55.61	221.72	6.87	-49.4	-68.1	3.8	8.46e-01	0	44	104	0	70	30830
2026-01-18 20:31:56.61	221.59	6.95	-49.4	-67.9	3.8	8.47e-01	0	44	104	0	70	30140
2026-01-18 20:31:57.60	221.46	7.03	-49.4	-67.8	3.8	8.47e-01	0	44	104	0	70	29766
2026-01-18 20:31:58.60	221.32	7.11	-49.4	-68.0	3.8	8.48e-01	0	44	104	0	70	30455
2026-01-18 20:31:59.59	221.19	7.18	-49.4	-68.3	3.8	8.46e-01	0	44	104	0	70	31474
2026-01-18 20:32:00.58	221.06	7.26	-49.4	-68.4	3.8	8.46e-01	0	44	104	0	70	31987
2026-01-18 20:32:01.58	220.92	7.34	-49.4	-68.4	3.8	8.47e-01	0	44	104	0	70	31877
2026-01-18 20:32:02.57	220.79	7.42	-49.4	-68.3	3.8	8.47e-01	0	44	104	0	70	31483
2026-01-18 20:32:03.56	220.65	7.50	-49.4	-68.3	3.8	8.47e-01	0	44	104	0	70	31681
2026-01-18 20:32:04.55	220.51	7.58	-49.4	-68.4	3.8	8.47e-01	0	44	104	0	70	31991
2026-01-18 20:32:05.55	220.37	7.66	-49.4	-68.4	3.8	8.47e-01	0	44	104	0	70	32038
2026-01-18 20:32:06.54	220.23	7.74	-49.4	-68.1	3.8	8.47e-01	0	44	104	0	70	30962
2026-01-18 20:32:07.54	220.09	7.82	-49.4	-67.5	3.8	8.47e-01	0	44	104	0	70	28798
2026-01-18 20:32:08.53	219.95	7.90	-49.4	-67.0	3.8	8.47e-01	0	44	104	0	70	27360
2026-01-18 20:32:09.52	219.81	7.98	-49.4	-67.0	3.8	8.47e-01	0	44	104	0	70	27253
2026-01-18 20:32:10.52	219.66	8.06	-49.3	-67.3	3.8	8.47e-01	0	44	104	0	70	28074
2026-01-18 20:32:11.51	219.52	8.14	-49.4	-68.0	3.8	8.47e-01	0	44	104	0	70	30441
2026-01-18 20:32:12.50	219.37	8.22	-49.4	-68.3	3.8	8.47e-01	0	44	104	0	70	31608
2026-01-18 20:32:13.50	219.22	8.31	-49.4	-68.2	3.8	8.46e-01	0	44	104	0	70	31094
2026-01-18 20:32:14.49	219.07	8.39	-49.4	-67.5	3.8	8.46e-01	0	44	104	0	70	28830
2026-01-18 20:32:15.48	218.92	8.47	-49.3	-66.9	3.8	8.46e-01	0	44	104	0	70	26887
2026-01-18 20:32:16.48	218.77	8.55	-49.3	-66.5	3.8	8.46e-01	0	44	104	0	70	25638
2026-01-18 20:32:17.47	218.62	8.64	-49.3	-64.6	4.3	8.46e-01	0	44	0	0	70	20696
2026-01-18 20:32:18.47	218.47	8.72	-49.0	-60.9	6.2	7.77e-01	0	44	0	0	70	13504
2026-01-18 20:32:19.46	218.31	8.80	-48.6	-57.8	9.3	7.77e-01	0	44	0	0	69	9996
2026-01-18 20:32:20.45	218.16	8.89	-48.0	-55.3	11.9	9.77e-02	0	44	0	0	68	7936
2026-01-18 20:32:21.45	218.00	8.97	-47.5	-53.9	13.2	1.20e-03	0	44	0	0	67	7148
2026-01-18 20:32:22.44	217.84	9.05	-47.4	-53.6	13.8	1.20e-03	0	44	0	0	66	7358
2026-01-18 20:32:23.44	217.68	9.14	-48.0	-56.0	11.1	1.59e-04	0	44	0	0	66	9621
2026-01-18 20:32:24.43	217.52	9.22	-47.6	-54.3	12.6	2.98e-03	0	44	0	0	66	7971
2026-01-18 20:32:25.43	217.36	9.31	-46.0	-50.4	16.1	2.98e-03	0	44	0	0	64	5715
2026-01-18 20:32:26.42	217.19	9.39	-46.1	-50.5	17.6	1.60e-04	0	44	0	0	62	6484
2026-01-18 20:32:27.42	217.03	9.48	-48.4	-57.4	7.8	2.01e-01	0	44	0	0	68	10175
2026-01-18 20:32:28.41	216.86	9.57	-43.2	-46.0	21.2	2.01e-01	0	44	0	0	58	4856
2026-01-18 20:32:29.47	216.68	9.66	-42.1	-44.6	22.5	1.19e-01	0	44	0	0	56	4613
2026-01-18 20:32:30.36	216.53	9.74	-41.8	-44.2	22.7	0.00e+00	0	43	0	0	55	4705
2026-01-18 20:32:31.49	216.34	9.83	-41.3	-43.7	23.3	0.00e+00	0	43	0	0	54	4652
2026-01-18 20:32:32.34	216.19	9.91	-41.3	-43.7	23.3	0.00e+00	0	44	0	0	54	4660
2026-01-18 20:32:33.48	215.99	10.01	-41.0	-43.3	23.6	0.00e+00	0	44	0	0	54	4485
2026-01-18 20:32:34.33	215.84	10.08	-41.4	-43.8	23.2	0.00e+00	0	43	0	0	54	4726
2026-01-18 20:32:35.47	215.64	10.18	-40.9	-43.2	23.7	0.00e+00	0	43	0	0	53	4680
2026-01-18 20:32:36.33	215.49	10.26	-41.0	-43.3	23.6	0.00e+00	0	43	0	0	53	4733
2026-01-18 20:32:37.46	215.28	10.36	-40.6	-42.9	24.0	0.00e+00	0	43	0	0	53	4517
2026-01-18 20:32:38.32	215.13	10.44	-40.9	-43.2	23.7	0.00e+00	0	44	0	0	53	4673
2026-01-18 20:32:39.45	214.92	10.54	-41.0	-43.3	23.7	0.00e+00	0	43	0	0	53	4753
2026-01-18 20:32:40.31	214.76	10.61	-41.0	-43.3	23.7	0.00e+00	0	43	0	0	53	4745
2026-01-18 20:32:41.44	214.55	10.72	-41.0	-43.3	23.8	0.00e+00	0	43	0	0	53	4747
2026-01-18 20:32:42.30	214.39	10.79	-41.3	-43.7	23.3	0.00e+00	0	43	0	0	53	4948
2026-01-18 20:32:43.43	214.17	10.90	-41.0	-43.3	23.7	0.00e+00	0	43	0	0	53	4759
2026-01-18 20:32:44.29	214.01	10.97	-40.7	-43.0	23.9	0.00e+00	0	43	0	0	53	4564
2026-01-18 20:32:45.42	213.79	11.08	-40.7	-43.1	24.0	0.00e+00	0	43	0	0	53	4600
2026-01-18 20:32:46.29	213.62	11.16	-40.5	-42.8	24.2	0.00e+00	0	43	0	0	52	4741
2026-01-18 20:32:47.60	213.37	11.27	-40.2	-42.4	24.5	0.00e+00	0	44	0	0	52	4512
2026-01-18 20:32:48.31	213.23	11.34	-40.4	-42.6	24.3	0.00e+00	0	43	0	0	52	4630
2026-01-18 20:32:49.59	212.97	11.46	-40.5	-42.7	24.3	0.00e+00	0	43	0	0	52	4687
2026-01-18 20:32:50.33	212.82	11.53	-40.4	-42.6	24.4	0.00e+00	0	43	0	0	52	4636
2026-01-18 20:32:51.61	212.57	11.64	-40.1	-42.3	24.6	0.00e+00	0	43	0	0	52	4492
2026-01-18 20:32:52.34	212.42	11.71	-40.2	-42.5	24.4	0.00e+00	0	43	0	0	52	4553
2026-01-18 20:32:53.62	212.15	11.83	-40.2	-42.5	24.5	0.00e+00	0	43	0	0	52	4549
2026-01-18 20:32:54.36	212.00	11.90	-40.8	-43.1	24.0	0.00e+00	0	43	0	0	52	4882
2026-01-18 20:32:55.64	211.73	12.02	-40.3	-42.5	24.6	0.00e+00	0	43	0	0	52	4564
2026-01-18 20:32:56.36	211.58	12.09	-40.4	-42.6	24.3	0.00e+00	0	43	0	0	52	4646
2026-01-18 20:32:57.64	211.31	12.21	-40.5	-42.7	24.3	0.00e+00	0	43	0	0	52	4697
2026-01-18 20:32:58.37	211.15	12.28	-40.4	-42.6	24.4	0.00e+00	0	43	0	0	52	4613
2026-01-18 20:32:59.65	210.87	12.40	-40.4	-42.6	24.5	0.00e+00	0	43	0	0	51	4893
2026-01-18 20:33:00.50	210.69	12.48	-40.1	-42.3	24.7	0.00e+00	0	43	0	0	51	4742
2026-01-18 20:33:01.64	210.44	12.58	-39.7	-41.8	25.2	0.00e+00	0	43	0	0	51	4483
2026-01-18 20:33:02.49	210.25	12.66	-39.9	-42.0	25.0	0.00e+00	0	43	0	0	51	4582
2026-01-18 20:33:03.62	209.99	12.77	-39.8	-42.0	25.0	0.00e+00	0	43	0	0	51	4559
2026-01-18 20:33:04.48	209.80	12.85	-40.0	-42.1	24.8	0.00e+00	0	43	0	0	51	4635
2026-01-18 20:33:05.62	209.54	12.96	-40.2	-42.4	24.7	0.00e+00	0	43	0	0	51	4801
2026-01-18 20:33:06.47	209.34	13.04	-40.1	-42.3	24.7	0.00e+00	0	43	0	0	51	4734
2026-01-18 20:33:07.61	209.08	13.15	-40.0	-42.2	24.8	0.00e+00	0	43	0	0	51	4679
2026-01-18 20:33:08.46	208.88	13.24	-40.0	-42.1	24.9	0.00e+00	0	43	0	0	51	4645
2026-01-18 20:33:09.61	208.61	13.35	-40.2	-42.3	24.7	0.00e+00	0	43	0	0	51	4755
2026-01-18 20:33:10.46	208.41	13.43	-40.0	-42.1	24.9	0.00e+00	0	43	0	0	51	4643
2026-01-18 20:33:11.60	208.13	13.54	-39.8	-41.9	25.1	0.00e+00	0	43	0	0	51	4526
2026-01-18 20:33:12.45	207.93	13.62	-39.4	-41.5	25.4	0.00e+00	0	43	0	0	50	4596
2026-01-18 20:33:13.59	207.65	13.73	-39.2	-41.3	25.7	0.00e+00	0	43	0	0	50	4450
2026-01-18 20:33:14.44	207.44	13.81	-39.0	-41.0	25.9	0.00e+00	0	43	0	0	50	4340
2026-01-18 20:33:15.58	207.16	13.92	-39.3	-41.4	25.6	0.00e+00	0	43	0	0	50	4502
2026-01-18 20:33:16.43	206.95	14.01	-39.5	-41.6	25.5	0.00e+00	0	43	0	0	50	4616
2026-01-18 20:33:17.57	206.66	14.12	-39.3	-41.4	25.6	0.00e+00	0	43	0	0	50	4529
2026-01-18 20:33:18.42	206.44	14.20	-39.6	-41.7	25.3	0.00e+00	0	43	0	0	50	4665
2026-01-18 20:33:19.56	206.15	14.31	-39.7	-41.8	25.2	0.00e+00	0	43	0	0	50	4759
2026-01-18 20:33:20.41	205.93	14.40	-39.8	-42.0	25.1	0.00e+00	0	43	0	0	50	4821
2026-01-18 20:33:21.54	205.64	14.51	-39.6	-41.7	25.3	0.00e+00	0	43	0	0	50	4696
2026-01-18 20:33:22.40	205.41	14.59	-39.4	-41.5	25.6	0.00e+00	0	43	0	0	50	4546
2026-01-18 20:33:23.54	205.11	14.70	-39.2	-41.3	25.7	0.00e+00	0	43	0	0	50	4464
2026-01-18 20:33:24.39	204.88	14.79	-38.9	-40.9	25.8	0.00e+00	0	43	0	0	49	4538
2026-01-18 20:33:25.59	204.56	14.90	-38.8	-40.9	26.1	0.00e+00	0	43	0	0	49	4506
2026-01-18 20:33:26.44	204.32	14.99	-39.0	-41.0	25.9	0.00e+00	0	43	0	0	49	4590
2026-01-18 20:33:27.58	204.01	15.10	-38.7	-40.7	26.2	0.00e+00	0	43	0	0	49	4433
2026-01-18 20:33:28.43	203.78	15.18	-38.8	-40.8	26.1	0.00e+00	0	43	0	0	49	4468
2026-01-18 20:33:29.57	203.46	15.30	-39.1	-41.1	25.9	0.00e+00	0	43	0	0	49	4628
2026-01-18 20:33:30.42	203.22	15.38	-39.3	-41.4	25.6	0.00e+00	0	43	0	0	49	4781
2026-01-18 20:33:31.55	202.90	15.49	-39.2	-41.3	25.6	0.00e+00	0	43	0	0	49	4732
2026-01-18 20:33:32.41	202.65	15.57	-38.9	-41.0	25.9	0.00e+00	0	43	0	0	49	4558
2026-01-18 20:33:33.54	202.33	15.69	-39.0	-41.0	25.9	0.00e+00	0	43	0	0	49	4595
2026-01-18 20:33:34.39	202.08	15.77	-39.0	-41.0	25.9	0.00e+00	0	43	0	0	49	4598
2026-01-18 20:33:35.53	201.74	15.88	-38.8	-40.8	26.1	0.00e+00	0	43	0	0	49	4478
2026-01-18 20:33:36.38	201.49	15.96	-38.8	-40.8	26.1	0.00e+00	0	43	0	0	49	4475
2026-01-18 20:33:37.52	201.15	16.08	-38.3	-40.3	26.5	0.00e+00	0	43	0	0	48	4485
2026-01-18 20:33:38.38	200.89	16.16	-38.3	-40.4	26.5	0.00e+00	0	43	0	0	48	4501
2026-01-18 20:33:39.51	200.55	16.27	-38.3	-40.3	26.6	0.00e+00	0	43	0	0	48	4467
2026-01-18 20:33:40.37	200.29	16.36	-38.4	-40.4	26.5	0.00e+00	0	43	0	0	48	4523
2026-01-18 20:33:41.58	199.92	16.47	-38.4	-40.4	26.5	0.00e+00	0	43	0	0	48	4527
2026-01-18 20:33:42.44	199.65	16.56	-38.5	-40.5	26.5	0.00e+00	0	43	0	0	48	4574
2026-01-18 20:33:43.58	199.29	16.67	-38.6	-40.6	26.4	0.00e+00	0	43	0	0	48	4625
2026-01-18 20:33:44.43	199.02	16.75	-38.9	-41.0	26.0	0.00e+00	0	43	0	0	48	4839
2026-01-18 20:33:45.56	198.66	16.86	-38.9	-40.9	26.1	0.00e+00	0	43	0	0	48	4788
2026-01-18 20:33:46.42	198.39	16.94	-38.9	-40.9	26.1	0.00e+00	0	43	0	0	48	4795
2026-01-18 20:33:47.56	198.02	17.05	-39.0	-41.0	26.0	0.00e+00	0	43	0	0	48	4853
2026-01-18 20:33:48.41	197.74	17.14	-39.1	-41.1	26.0	0.00e+00	0	43	0	0	48	4926
2026-01-18 20:33:49.54	197.37	17.25	-38.6	-40.6	26.3	0.00e+00	0	43	0	0	48	4645
2026-01-18 20:33:50.39	197.09	17.33	-38.2	-40.2	26.7	0.00e+00	0	43	0	0	48	4408
2026-01-18 20:33:51.53	196.71	17.44	-38.1	-40.1	26.8	0.00e+00	0	43	0	0	48	4346
2026-01-18 20:33:52.39	196.42	17.52	-37.9	-39.8	26.9	0.00e+00	0	43	0	0	47	4493
2026-01-18 20:33:53.52	196.03	17.63	-37.9	-39.9	26.8	0.00e+00	0	43	0	0	47	4532
2026-01-18 20:33:54.37	195.74	17.71	-37.6	-39.6	26.9	0.00e+00	0	43	0	0	47	4373
2026-01-18 20:33:55.51	195.35	17.81	-37.8	-39.8	26.9	0.00e+00	0	43	0	0	46	4736
2026-01-18 20:33:56.36	195.05	17.89	-37.8	-39.8	27.0	0.00e+00	0	43	0	0	46	4719
2026-01-18 20:33:57.50	194.66	18.00	-37.7	-39.7	27.0	0.00e+00	0	43	0	0	46	4677
2026-01-18 20:33:58.35	194.36	18.08	-38.2	-40.2	26.6	0.00e+00	0	43	0	0	46	4953
2026-01-18 20:33:59.49	193.95	18.18	-38.6	-40.7	26.3	0.00e+00	0	43	0	0	47	4933
2026-01-18 20:34:00.34	193.65	18.26	-38.4	-40.5	26.4	0.00e+00	0	43	0	0	47	4829
2026-01-18 20:34:01.48	193.24	18.37	-38.5	-40.5	26.4	0.00e+00	0	43	0	0	47	4865
2026-01-18 20:34:02.33	192.93	18.44	-38.7	-40.8	26.3	0.00e+00	0	43	0	0	48	4726
2026-01-18 20:34:03.62	192.46	18.56	-38.4	-40.4	26.5	0.00e+00	0	43	0	0	48	4534
2026-01-18 20:34:04.33	192.19	18.62	-38.4	-40.4	26.5	0.00e+00	0	43	0	0	48	4503
2026-01-18 20:34:05.61	191.72	18.74	-38.1	-40.1	26.8	0.00e+00	0	43	0	0	47	4601
2026-01-18 20:34:06.33	191.45	18.80	-37.9	-39.9	26.9	0.00e+00	0	43	0	0	47	4528
2026-01-18 20:34:07.61	190.97	18.92	-37.9	-39.9	26.9	0.00e+00	0	43	0	0	47	4503
2026-01-18 20:34:08.35	190.69	18.98	-37.8	-39.8	27.0	0.00e+00	0	43	0	0	47	4460
2026-01-18 20:34:09.63	190.20	19.09	-37.8	-39.8	26.9	0.00e+00	0	43	0	0	47	4448
2026-01-18 20:34:10.44	189.89	19.16	-37.7	-39.7	27.0	0.00e+00	0	43	0	0	47	4417
2026-01-18 20:34:11.57	189.45	19.26	-37.5	-39.5	27.1	0.00e+00	0	43	0	0	46	4579
2026-01-18 20:34:12.43	189.11	19.33	-37.5	-39.5	27.1	0.00e+00	0	43	0	0	46	4573
2026-01-18 20:34:13.56	188.67	19.43	-37.4	-39.3	27.3	0.00e+00	0	43	0	0	46	4486
2026-01-18 20:34:14.42	188.33	19.50	-37.4	-39.3	27.3	0.00e+00	0	43	0	0	46	4484
2026-01-18 20:34:15.55	187.88	19.59	-37.3	-39.2	27.4	0.00e+00	0	43	0	0	46	4426
2026-01-18 20:34:16.41	187.54	19.66	-37.6	-39.5	27.2	0.00e+00	0	43	0	0	46	4591
2026-01-18 20:34:17.54	187.08	19.75	-37.8	-39.8	27.0	0.00e+00	0	43	0	0	46	4707
2026-01-18 20:34:18.40	186.73	19.82	-38.0	-40.0	26.8	0.00e+00	0	43	0	0	46	4840
2026-01-18 20:34:19.53	186.27	19.91	-38.3	-40.3	26.5	0.00e+00	0	43	0	0	47	4751
2026-01-18 20:34:20.38	185.92	19.97	-38.3	-40.4	26.5	0.00e+00	0	43	0	0	47	4775
2026-01-18 20:34:21.62	185.41	20.07	-38.3	-40.4	26.5	0.00e+00	0	43	0	0	47	4774
2026-01-18 20:34:22.47	185.06	20.13	-38.2	-40.2	26.6	0.00e+00	0	43	0	0	47	4701
2026-01-18 20:34:23.61	184.58	20.22	-38.2	-40.3	26.5	0.00e+00	0	43	0	0	47	4711
2026-01-18 20:34:24.46	184.22	20.28	-38.4	-40.4	26.4	0.00e+00	0	43	0	0	47	4801
2026-01-18 20:34:25.60	183.74	20.36	-38.1	-40.1	26.7	0.00e+00	0	43	0	0	47	4633
2026-01-18 20:34:26.45	183.38	20.43	-38.1	-40.1	26.7	0.00e+00	0	43	0	0	47	4625
2026-01-18 20:34:27.59	182.89	20.51	-38.0	-40.0	26.7	0.00e+00	0	43	0	0	47	4562
2026-01-18 20:34:28.44	182.53	20.56	-38.1	-40.1	26.8	0.00e+00	0	43	0	0	47	4601
2026-01-18 20:34:29.58	182.03	20.64	-37.7	-39.7	27.0	0.00e+00	0	43	0	0	47	4434
2026-01-18 20:34:30.43	181.66	20.70	-37.6	-39.6	27.0	0.00e+00	0	43	0	0	47	4363
2026-01-18 20:34:31.57	181.17	20.77	-37.6	-39.5	27.3	0.00e+00	0	43	0	0	47	4329
2026-01-18 20:34:32.42	180.79	20.83	-37.7	-39.7	27.1	0.00e+00	0	43	0	0	47	4406
2026-01-18 20:34:33.56	180.29	20.90	-38.0	-40.0	26.8	0.00e+00	0	43	0	0	47	4566
2026-01-18 20:34:34.41	179.91	20.95	-38.1	-40.1	26.7	0.00e+00	0	43	0	0	47	4635
2026-01-18 20:34:35.55	179.41	21.02	-38.1	-40.1	26.8	0.00e+00	0	43	0	0	47	4617
2026-01-18 20:34:36.40	179.03	21.07	-38.0	-40.0	26.8	0.00e+00	0	43	0	0	47	4574
2026-01-18 20:34:37.54	178.51	21.14	-37.9	-39.8	26.9	0.00e+00	0	43	0	0	47	4488
2026-01-18 20:34:38.39	178.13	21.18	-38.2	-40.3	26.6	0.00e+00	0	43	0	0	47	4707
2026-01-18 20:34:39.53	177.61	21.25	-37.9	-39.9	26.9	0.00e+00	0	43	0	0	47	4529
2026-01-18 20:34:40.38	177.23	21.29	-37.9	-39.9	26.9	0.00e+00	0	43	0	0	47	4497
2026-01-18 20:34:41.69	176.63	21.36	-38.0	-40.0	26.3	0.00e+00	0	43	0	0	47	4559
2026-01-18 20:34:42.41	176.30	21.39	-37.9	-39.9	26.8	0.00e+00	0	43	0	0	47	4527
2026-01-18 20:34:43.69	175.71	21.46	-38.0	-40.0	26.8	0.00e+00	0	43	0	0	47	4576
2026-01-18 20:34:44.40	175.38	21.49	-38.2	-40.2	26.7	0.00e+00	0	43	0	0	47	4686
2026-01-18 20:34:45.68	174.79	21.55	-38.5	-40.5	26.3	0.00e+00	0	43	0	0	47	4851
2026-01-18 20:34:46.45	174.43	21.58	-38.1	-40.1	26.7	0.00e+00	0	43	0	0	47	4644
2026-01-18 20:34:47.73	173.83	21.64	-37.9	-39.9	26.8	0.00e+00	0	43	0	0	47	4538
2026-01-18 20:34:48.50	173.47	21.67	-38.0	-40.0	26.8	0.00e+00	0	43	0	0	47	4549
2026-01-18 20:34:49.78	172.87	21.72	-37.7	-39.6	27.1	0.00e+00	0	43	0	0	47	4385
2026-01-18 20:34:50.56	172.50	21.74	-37.7	-39.7	26.7	0.00e+00	0	43	0	0	47	4418
2026-01-18 20:34:51.84	171.89	21.79	-37.5	-39.5	27.2	0.00e+00	0	43	0	0	47	4307
2026-01-18 20:34:52.58	171.54	21.81	-37.2	-39.2	27.4	0.00e+00	0	43	0	0	46	4412
2026-01-18 20:34:53.86	170.93	21.85	-37.3	-39.2	27.4	0.00e+00	0	43	0	0	46	4430
2026-01-18 20:34:54.68	170.54	21.88	-37.2	-39.1	27.5	0.00e+00	0	43	0	0	46	4365
2026-01-18 20:34:56.12	169.86	21.92	-37.2	-39.1	27.4	0.00e+00	0	43	0	0	46	4362
2026-01-18 20:34:56.83	169.52	21.94	-36.9	-38.8	27.8	0.00e+00	0	43	0	0	45	4461
2026-01-18 20:34:58.10	168.91	21.97	-36.4	-38.3	28.1	0.00e+00	0	43	0	0	44	4470
2026-01-18 20:34:58.81	168.57	21.98	-36.2	-38.1	28.2	0.00e+00	0	43	0	0	44	4370
2026-01-18 20:35:00.09	167.95	22.01	-36.2	-38.1	28.3	0.00e+00	0	43	0	0	44	4349
2026-01-18 20:35:00.81	167.60	22.02	-36.2	-38.1	28.2	0.00e+00	0	43	0	0	44	4362
2026-01-18 20:35:02.08	166.99	22.05	-36.3	-38.2	25.0	0.00e+00	0	43	0	0	44	4427
2026-01-18 20:35:02.86	166.61	22.06	-36.5	-38.4	28.0	0.00e+00	0	43	0	0	44	4526
2026-01-18 20:35:04.13	166.00	22.07	-37.0	-38.9	27.6	0.00e+00	0	43	0	0	44	4801
2026-01-18 20:35:04.97	165.59	22.08	-37.1	-39.0	27.1	0.00e+00	0	43	0	0	44	4834
2026-01-18 20:35:06.11	165.04	22.09	-37.1	-39.0	27.5	0.00e+00	0	43	0	0	45	4590
2026-01-18 20:35:06.96	164.63	22.10	-37.2	-39.1	27.4	0.00e+00	0	43	0	0	45	4629
2026-01-18 20:35:08.10	164.08	22.11	-37.3	-39.2	27.4	0.00e+00	0	43	0	0	45	4695
2026-01-18 20:35:08.95	163.66	22.11	-37.3	-39.2	27.4	0.00e+00	0	43	0	0	45	4704
2026-01-18 20:35:10.09	163.11	22.11	-37.4	-39.3	27.4	0.00e+00	0	43	0	0	45	4739
2026-01-18 20:35:10.94	162.70	22.11	-37.1	-39.0	27.5	0.00e+00	0	43	0	0	45	4597
2026-01-18 20:35:12.09	162.14	22.11	-36.8	-38.7	27.7	0.00e+00	0	43	0	0	45	4439
2026-01-18 20:35:12.95	161.72	22.11	-36.6	-38.5	27.9	0.00e+00	0	43	0	0	45	4326
2026-01-18 20:35:14.08	161.18	22.10	-36.7	-38.6	27.9	0.00e+00	0	43	0	0	45	4353
2026-01-18 20:35:14.93	160.76	22.09	-36.4	-38.3	28.1	0.00e+00	0	43	0	0	44	4481
2026-01-18 20:35:16.07	160.21	22.08	-36.7	-38.6	27.9	0.00e+00	0	43	0	0	44	4609
2026-01-18 20:35:16.92	159.80	22.07	-36.7	-38.6	27.7	0.00e+00	0	43	0	0	43	4886
2026-01-18 20:35:18.06	159.25	22.06	-37.1	-39.0	27.5	0.00e+00	0	43	0	0	44	4845
2026-01-18 20:35:18.91	158.84	22.04	-37.4	-39.3	27.3	0.00e+00	0	43	0	0	45	4752
2026-01-18 20:35:20.05	158.29	22.03	-37.4	-39.3	27.3	0.00e+00	0	43	0	0	45	4746
2026-01-18 20:35:20.91	157.87	22.01	-37.6	-39.6	27.1	0.00e+00	0	43	0	0	45	4893
2026-01-18 20:35:22.04	157.33	21.99	-37.5	-39.4	27.2	0.00e+00	0	43	0	0	45	4800
2026-01-18 20:35:22.90	156.92	21.97	-37.3	-39.2	27.4	0.00e+00	0	43	0	0	45	4690
2026-01-18 20:35:24.04	156.37	21.94	-36.8	-38.7	27.7	0.00e+00	0	43	0	0	45	4430
2026-01-18 20:35:24.89	155.97	21.92	-36.6	-38.5	27.9	0.00e+00	0	43	0	0	45	4311
2026-01-18 20:35:26.02	155.43	21.89	-36.4	-38.3	28.1	0.00e+00	0	43	0	0	44	4462
2026-01-18 20:35:26.88	155.02	21.86	-36.3	-38.1	28.2	0.00e+00	0	43	0	0	44	4389
2026-01-18 20:35:28.01	154.48	21.83	-36.3	-38.2	28.1	0.00e+00	0	43	0	0	44	4399
2026-01-18 20:35:28.87	154.07	21.80	-36.7	-38.6	27.9	0.00e+00	0	43	0	0	44	4608
2026-01-18 20:35:30.00	153.54	21.76	-36.8	-38.8	27.7	0.00e+00	0	43	0	0	44	4710
2026-01-18 20:35:30.85	153.14	21.73	-37.2	-39.1	27.4	0.00e+00	0	43	0	0	44	4914
2026-01-18 20:35:32.10	152.55	21.68	-37.2	-39.1	27.3	0.00e+00	0	43	0	0	45	4641
2026-01-18 20:35:32.95	152.15	21.65	-37.0	-38.9	27.5	0.00e+00	0	43	0	0	45	4511
2026-01-18 20:35:34.09	151.62	21.60	-36.4	-38.3	27.8	0.00e+00	0	43	0	0	44	4483
2026-01-18 20:35:34.94	151.22	21.56	-36.2	-38.1	28.2	0.00e+00	0	43	0	0	44	4371
2026-01-18 20:35:36.08	150.69	21.51	-36.5	-38.4	28.0	0.00e+00	0	43	0	0	44	4539
2026-01-18 20:35:36.93	150.30	21.47	-36.7	-38.6	27.8	0.00e+00	0	43	0	0	44	4633
2026-01-18 20:35:38.07	149.78	21.42	-37.1	-39.0	27.5	0.00e+00	0	43	0	0	45	4597
2026-01-18 20:35:39.00	149.35	21.37	-37.4	-39.3	27.3	0.00e+00	0	43	0	0	45	4744
2026-01-18 20:35:39.99	148.90	21.32	-37.5	-39.5	27.2	0.00e+00	0	43	0	0	45	4829
2026-01-18 20:35:40.99	148.44	21.27	-37.8	-39.7	27.0	0.00e+00	0	43	0	0	46	4703
2026-01-18 20:35:41.99	147.99	21.21	-37.6	-39.6	27.0	0.00e+00	0	43	0	0	46	4645
2026-01-18 20:35:42.98	147.54	21.16	-37.6	-39.5	27.1	0.00e+00	0	43	0	0	46	4595
2026-01-18 20:35:43.98	147.09	21.10	-37.2	-39.1	27.4	0.00e+00	0	43	0	0	46	4384
2026-01-18 20:35:44.97	146.65	21.05	-37.2	-39.2	27.4	0.00e+00	0	42	0	0	46	4405
2026-01-18 20:35:45.97	146.20	20.99	-37.1	-39.1	27.4	0.00e+00	0	43	0	0	46	4352
2026-01-18 20:35:46.96	145.76	20.93	-37.4	-39.4	27.2	0.00e+00	0	43	0	0	46	4497
2026-01-18 20:35:47.96	145.32	20.86	-37.7	-39.7	26.9	0.00e+00	0	43	0	0	46	4682
2026-01-18 20:35:48.95	144.89	20.80	-37.8	-39.9	26.8	0.00e+00	0	43	0	0	46	4775
2026-01-18 20:35:50.00	144.43	20.73	-37.6	-39.6	27.1	0.00e+00	0	43	0	0	46	4621
2026-01-18 20:35:50.96	144.01	20.67	-37.5	-39.5	27.2	0.00e+00	0	43	0	0	46	4559
2026-01-18 20:35:51.96	143.58	20.60	-37.4	-39.4	27.2	0.00e+00	0	43	0	0	46	4515
2026-01-18 20:35:52.95	143.15	20.53	-37.4	-39.3	27.2	0.00e+00	0	43	0	0	46	4485
2026-01-18 20:35:53.95	142.72	20.47	-37.5	-39.5	27.0	0.00e+00	0	43	0	0	46	4576
2026-01-18 20:35:54.94	142.30	20.40	-37.7	-39.6	27.0	0.00e+00	0	43	0	0	46	4641
2026-01-18 20:35:55.93	141.88	20.32	-37.6	-39.6	27.0	0.00e+00	0	43	0	0	46	4606
2026-01-18 20:35:56.93	141.46	20.25	-37.4	-39.4	27.2	0.00e+00	0	43	0	0	46	4516
2026-01-18 20:35:57.92	141.05	20.18	-37.5	-39.4	27.1	0.00e+00	0	43	0	0	46	4545
2026-01-18 20:35:58.92	140.63	20.10	-37.4	-39.4	27.1	0.00e+00	0	43	0	0	46	4524
2026-01-18 20:35:59.91	140.22	20.03	-37.6	-39.5	27.0	0.00e+00	0	43	0	0	46	4598
2026-01-18 20:36:00.91	139.81	19.95	-37.6	-39.5	27.0	0.00e+00	0	43	0	0	46	4585
2026-01-18 20:36:01.90	139.41	19.87	-37.5	-39.4	27.1	0.00e+00	0	43	0	0	46	4542
2026-01-18 20:36:02.90	139.00	19.79	-37.3	-39.3	27.2	0.00e+00	0	43	0	0	46	4459
2026-01-18 20:36:03.89	138.60	19.72	-37.6	-39.6	27.0	0.00e+00	0	43	0	0	46	4624
2026-01-18 20:36:04.93	138.19	19.63	-37.8	-39.8	26.9	0.00e+00	0	43	0	0	46	4726
2026-01-18 20:36:05.93	137.79	19.55	-38.0	-40.0	26.7	0.00e+00	0	43	0	0	46	4851
2026-01-18 20:36:06.92	137.40	19.47	-38.1	-40.1	26.7	0.00e+00	0	43	0	0	46	4878
2026-01-18 20:36:07.92	137.00	19.39	-38.1	-40.1	26.6	0.00e+00	0	43	0	0	46	4883
2026-01-18 20:36:08.91	136.62	19.30	-38.1	-40.1	26.6	0.00e+00	0	43	0	0	46	4891
2026-01-18 20:36:09.91	136.23	19.22	-37.9	-39.9	26.7	0.00e+00	0	43	0	0	46	4789
2026-01-18 20:36:10.90	135.85	19.13	-37.6	-39.5	27.0	0.00e+00	0	43	0	0	46	4584
2026-01-18 20:36:11.90	135.47	19.05	-37.4	-39.3	27.2	0.00e+00	0	43	0	0	46	4485
2026-01-18 20:36:12.89	135.09	18.96	-37.5	-39.5	27.1	0.00e+00	0	43	0	0	46	4550
2026-01-18 20:36:13.89	134.71	18.87	-37.7	-39.7	26.9	0.00e+00	0	43	0	0	46	4667
2026-01-18 20:36:14.88	134.34	18.79	-37.9	-39.9	26.7	0.00e+00	0	43	0	0	46	4797
2026-01-18 20:36:15.87	133.98	18.70	-38.2	-40.2	26.5	0.00e+00	0	43	0	0	47	4674
2026-01-18 20:36:16.87	133.61	18.61	-38.2	-40.3	26.3	0.00e+00	0	43	0	0	47	4721
2026-01-18 20:36:17.86	133.24	18.52	-38.3	-40.3	26.4	0.00e+00	0	43	0	0	47	4736
2026-01-18 20:36:18.86	132.88	18.43	-38.1	-40.1	26.5	0.00e+00	0	43	0	0	47	4641
2026-01-18 20:36:19.85	132.52	18.34	-37.8	-39.8	26.8	0.00e+00	0	43	0	0	47	4490
2026-01-18 20:36:20.85	132.16	18.25	-37.6	-39.6	27.0	0.00e+00	0	43	0	0	47	4362
2026-01-18 20:36:21.89	131.79	18.15	-37.7	-39.6	26.9	0.00e+00	0	43	0	0	47	4389
2026-01-18 20:36:22.84	131.46	18.06	-37.7	-39.7	26.9	0.00e+00	0	43	0	0	47	4403
2026-01-18 20:36:23.96	131.06	17.96	-37.8	-39.8	26.8	0.00e+00	0	43	0	0	47	4460
2026-01-18 20:36:24.81	130.77	17.88	-37.8	-39.8	26.7	0.00e+00	0	43	0	0	47	4487
2026-01-18 20:36:25.95	130.38	17.77	-38.2	-40.2	26.5	0.00e+00	0	43	0	0	47	4668
2026-01-18 20:36:26.80	130.08	17.69	-38.0	-40.0	26.6	0.00e+00	0	43	0	0	47	4596
2026-01-18 20:36:27.94	129.70	17.59	-38.0	-40.0	26.6	0.00e+00	0	43	0	0	47	4572
2026-01-18 20:36:28.80	129.41	17.50	-38.0	-40.0	26.6	0.00e+00	0	43	0	0	47	4593
2026-01-18 20:36:29.93	129.03	17.40	-38.0	-40.0	26.6	0.00e+00	0	43	0	0	47	4595
2026-01-18 20:36:30.79	128.74	17.32	-37.9	-39.9	26.7	0.00e+00	0	43	0	0	47	4541
2026-01-18 20:36:31.93	128.37	17.21	-38.1	-40.1	26.5	0.00e+00	0	43	0	0	47	4630
2026-01-18 20:36:32.78	128.09	17.12	-38.2	-40.2	26.4	0.00e+00	0	43	0	0	47	4701
2026-01-18 20:36:33.92	127.72	17.02	-38.2	-40.2	26.4	0.00e+00	0	43	0	0	47	4683
2026-01-18 20:36:34.77	127.45	16.93	-38.3	-40.4	26.3	0.00e+00	0	43	0	0	47	4762
2026-01-18 20:36:35.91	127.08	16.82	-38.4	-40.4	26.2	0.00e+00	0	43	0	0	47	4788
2026-01-18 20:36:36.76	126.81	16.74	-38.3	-40.3	26.3	0.00e+00	0	43	0	0	47	4750
2026-01-18 20:36:38.07	126.40	16.61	-38.3	-40.4	26.2	0.00e+00	0	43	0	0	47	4786
2026-01-18 20:36:38.78	126.18	16.54	-38.3	-40.4	26.3	0.00e+00	0	43	0	0	47	4770
2026-01-18 20:36:40.27	125.72	16.40	-38.7	-40.7	26.1	0.00e+00	0	43	0	0	48	4679
2026-01-18 20:36:40.98	125.51	16.33	-38.6	-40.7	26.1	0.00e+00	0	43	0	0	48	4660
2026-01-18 20:36:42.26	125.12	16.21	-38.6	-40.6	26.1	0.00e+00	0	43	0	0	48	4636
2026-01-18 20:36:42.97	124.90	16.14	-38.6	-40.6	26.1	0.00e+00	0	43	0	0	48	4647
2026-01-18 20:36:44.25	124.52	16.01	-38.4	-40.3	26.3	0.00e+00	0	43	0	0	48	4492
2026-01-18 20:36:44.96	124.31	15.94	-38.4	-40.4	26.3	0.00e+00	0	43	0	0	48	4512
2026-01-18 20:36:46.24	123.94	15.82	-38.6	-40.6	26.2	0.00e+00	0	43	0	0	48	4615
2026-01-18 20:36:46.95	123.73	15.75	-38.7	-40.8	26.0	0.00e+00	0	43	0	0	48	4711
2026-01-18 20:36:48.23	123.36	15.62	-38.9	-41.0	25.8	0.00e+00	0	43	0	0	48	4834
2026-01-18 20:36:49.02	123.14	15.54	-38.9	-41.0	25.8	0.00e+00	0	43	0	0	48	4843
2026-01-18 20:36:50.20	122.80	15.43	-39.0	-41.1	25.7	0.00e+00	0	43	0	0	48	4900
2026-01-18 20:36:51.06	122.56	15.34	-38.9	-40.9	25.8	0.00e+00	0	43	0	0	48	4806
2026-01-18 20:36:52.19	122.24	15.23	-39.0	-41.1	25.7	0.00e+00	0	43	0	0	48	4883
2026-01-18 20:36:53.05	122.01	15.15	-39.0	-41.1	25.7	0.00e+00	0	43	0	0	48	4895
2026-01-18 20:36:54.19	121.69	15.04	-39.3	-41.4	25.5	0.00e+00	0	43	0	0	49	4770
2026-01-18 20:36:55.29	121.39	14.93	-39.2	-41.3	25.5	0.00e+00	0	43	0	0	49	4742
2026-01-18 20:36:56.32	121.12	14.83	-39.2	-41.3	25.6	0.00e+00	0	43	0	0	49	4707
2026-01-18 20:36:57.49	120.80	14.71	-39.0	-41.1	25.6	0.00e+00	0	43	0	0	49	4637
2026-01-18 20:36:58.34	120.58	14.63	-39.0	-41.1	25.8	0.00e+00	0	43	0	0	49	4600
2026-01-18 20:36:59.70	120.22	14.50	-39.1	-41.1	25.5	0.00e+00	0	43	0	0	49	4649
2026-01-18 20:37:00.41	120.04	14.43	-39.1	-41.2	25.6	0.00e+00	0	43	0	0	49	4655
2026-01-18 20:37:01.69	119.71	14.30	-39.3	-41.4	25.4	0.00e+00	0	43	0	0	49	4801
2026-01-18 20:37:02.41	119.53	14.23	-39.5	-41.7	25.2	0.00e+00	0	43	0	0	49	4936
2026-01-18 20:37:03.69	119.20	14.11	-39.4	-41.5	25.3	0.00e+00	0	43	0	0	49	4865
2026-01-18 20:37:04.40	119.02	14.04	-39.4	-41.6	25.3	0.00e+00	0	43	0	0	49	4887
2026-01-18 20:37:05.68	118.70	13.92	-39.5	-41.6	25.2	0.00e+00	0	43	0	0	49	4921
2026-01-18 20:37:06.42	118.52	13.85	-39.6	-41.7	25.1	0.00e+00	0	43	0	0	49	4977
2026-01-18 20:37:07.70	118.21	13.72	-39.8	-42.0	24.9	0.00e+00	0	43	0	0	50	4851
2026-01-18 20:37:08.57	118.00	13.64	-39.8	-41.9	25.0	0.00e+00	0	43	0	0	50	4796
2026-01-18 20:37:09.71	117.72	13.53	-39.8	-42.0	24.9	0.00e+00	0	43	0	0	50	4827
2026-01-18 20:37:10.56	117.52	13.45	-39.9	-42.1	24.8	0.00e+00	0	43	0	0	50	4900
2026-01-18 20:37:11.70	117.25	13.34	-39.7	-41.9	25.0	0.00e+00	0	43	0	0	50	4761
2026-01-18 20:37:12.82	116.99	13.23	-39.7	-41.8	25.1	0.00e+00	0	43	0	0	50	4734
2026-01-18 20:37:13.67	116.79	13.15	-39.7	-41.8	25.0	0.00e+00	0	43	0	0	50	4735
2026-01-18 20:37:14.81	116.53	13.04	-39.6	-41.7	25.1	0.00e+00	0	43	0	0	50	4684
2026-01-18 20:37:15.66	116.33	12.96	-40.0	-42.2	24.7	0.00e+00	0	43	0	0	50	4965
2026-01-18 20:37:16.80	116.08	12.85	-40.0	-42.2	24.7	0.00e+00	0	43	0	0	50	4955
2026-01-18 20:37:17.65	115.89	12.77	-40.2	-42.4	24.6	0.00e+00	0	43	0	0	51	4792
2026-01-18 20:37:18.79	115.63	12.66	-40.3	-42.6	24.4	0.00e+00	0	43	0	0	51	4887
2026-01-18 20:37:19.64	115.44	12.58	-40.3	-42.5	24.4	0.00e+00	0	43	0	0	51	4859
2026-01-18 20:37:20.78	115.19	12.47	-40.5	-42.7	24.3	0.00e+00	0	43	0	0	51	4955
2026-01-18 20:37:21.63	115.01	12.39	-40.4	-42.7	24.2	0.00e+00	0	43	0	0	51	4942
2026-01-18 20:37:22.88	114.74	12.28	-40.5	-42.8	24.1	0.00e+00	0	43	0	0	52	4721
2026-01-18 20:37:23.73	114.56	12.20	-40.6	-42.9	24.0	0.00e+00	0	43	0	0	52	4781
2026-01-18 20:37:24.91	114.31	12.09	-40.5	-42.8	24.1	0.00e+00	0	43	0	0	52	4717
2026-01-18 20:37:25.77	114.13	12.01	-40.6	-42.9	24.0	0.00e+00	0	43	0	0	52	4794
2026-01-18 20:37:26.98	113.88	11.89	-40.5	-42.7	24.1	0.00e+00	0	43	0	0	52	4688
2026-01-18 20:37:27.83	113.70	11.81	-40.3	-42.5	24.3	0.00e+00	0	43	0	0	52	4585
2026-01-18 20:37:29.00	113.46	11.71	-40.4	-42.6	24.2	0.00e+00	0	43	0	0	52	4644
2026-01-18 20:37:29.85	113.29	11.63	-40.4	-42.7	24.2	0.00e+00	0	43	0	0	52	4654
2026-01-18 20:37:31.04	113.05	11.52	-40.5	-42.7	24.1	0.00e+00	0	43	0	0	52	4696
2026-01-18 20:37:31.89	112.88	11.44	-40.7	-43.0	23.9	0.00e+00	0	43	0	0	52	4837
2026-01-18 20:37:33.07	112.65	11.33	-40.7	-43.0	23.8	0.00e+00	0	43	0	0	52	4853
2026-01-18 20:37:33.93	112.48	11.25	-40.6	-42.9	23.8	0.00e+00	0	43	0	0	52	4812
2026-01-18 20:37:35.07	112.26	11.15	-40.6	-42.9	23.9	0.00e+00	0	43	0	0	52	4811
2026-01-18 20:37:35.92	112.10	11.07	-40.4	-42.7	24.1	0.00e+00	0	43	0	0	52	4691
2026-01-18 20:37:37.06	111.88	10.97	-40.4	-42.7	24.1	0.00e+00	0	43	0	0	52	4674
2026-01-18 20:37:37.91	111.72	10.89	-40.6	-42.9	23.9	0.00e+00	0	43	0	0	52	4794
2026-01-18 20:37:39.05	111.50	10.79	-40.7	-43.0	23.8	0.00e+00	0	43	0	0	52	4842
2026-01-18 20:37:39.90	111.35	10.71	-40.7	-43.0	23.8	0.00e+00	0	43	0	0	52	4852
2026-01-18 20:37:41.04	111.13	10.61	-40.9	-43.3	23.6	0.00e+00	0	43	0	0	52	5001
2026-01-18 20:37:41.89	110.98	10.54	-41.0	-43.4	23.5	0.00e+00	0	43	0	0	52	5069
2026-01-18 20:37:43.03	110.77	10.44	-41.1	-43.5	23.3	0.00e+00	0	43	0	0	53	4839
2026-01-18 20:37:43.88	110.62	10.36	-41.1	-43.5	23.4	0.00e+00	0	43	0	0	53	4834
2026-01-18 20:37:45.02	110.41	10.26	-41.1	-43.4	23.5	0.00e+00	0	43	0	0	53	4794
2026-01-18 20:37:45.87	110.26	10.18	-41.1	-43.5	23.3	0.00e+00	0	43	0	0	53	4840
2026-01-18 20:37:47.01	110.06	10.08	-41.2	-43.6	23.3	0.00e+00	0	43	0	0	53	4884
2026-01-18 20:37:47.86	109.92	10.01	-41.3	-43.7	23.1	0.00e+00	0	43	0	0	53	4974
2026-01-18 20:37:49.08	109.70	9.90	-41.5	-44.0	22.9	0.00e+00	0	43	0	0	53	5102
2026-01-18 20:37:49.93	109.56	9.83	-41.6	-44.0	22.9	0.00e+00	0	43	0	0	53	5151
2026-01-18 20:37:51.12	109.36	9.73	-41.4	-43.8	23.1	0.00e+00	0	43	0	0	53	5011
2026-01-18 20:37:51.98	109.21	9.65	-41.6	-44.1	22.7	0.00e+00	0	43	0	0	53	5172
2026-01-18 20:37:53.11	109.02	9.55	-41.3	-43.8	23.1	0.00e+00	0	43	0	0	53	4995
2026-01-18 20:37:53.96	108.88	9.48	-41.4	-43.8	23.0	0.00e+00	0	43	0	0	53	5023
2026-01-18 20:37:55.10	108.69	9.38	-41.5	-43.9	22.9	0.00e+00	0	43	0	0	53	5086
2026-01-18 20:37:55.95	108.55	9.31	-41.5	-43.9	23.0	0.00e+00	0	43	0	0	53	5068
2026-01-18 20:37:57.09	108.37	9.21	-41.4	-43.9	23.0	0.00e+00	0	43	0	0	53	5061
2026-01-18 20:37:58.00	108.22	9.14	-42.0	-44.6	22.3	0.00e+00	0	43	0	0	54	5180
2026-01-18 20:37:59.00	108.06	9.05	-41.7	-44.3	22.6	0.00e+00	0	43	0	0	54	4986
2026-01-18 20:37:59.99	107.91	8.97	-49.4	-63.2	5.8	0.00e+00	0	43	0	0	69	18586
2026-01-18 20:38:00.99	107.75	8.89	-49.8	-68.0	3.9	4.96e-01	0	43	104	0	70	30550
2026-01-18 20:38:01.98	107.59	8.80	-50.0	-68.7	3.8	4.96e-01	0	43	104	0	70	33071
2026-01-18 20:38:02.97	107.44	8.72	-50.0	-68.9	3.8	8.46e-01	0	43	104	0	70	33835
2026-01-18 20:38:03.96	107.29	8.64	-50.1	-68.9	3.8	8.46e-01	0	43	104	0	70	33983
2026-01-18 20:38:04.96	107.14	8.55	-50.1	-69.0	3.8	8.46e-01	0	43	104	0	70	34146
2026-01-18 20:38:05.95	106.99	8.47	-50.1	-69.1	3.8	8.47e-01	0	43	104	0	70	34502
2026-01-18 20:38:06.94	106.84	8.39	-49.9	-69.1	3.8	8.47e-01	0	43	104	0	71	32565
2026-01-18 20:38:07.94	106.69	8.31	-50.0	-69.1	3.8	8.47e-01	0	43	104	0	71	32768
2026-01-18 20:38:08.93	106.55	8.23	-49.9	-69.1	3.8	8.47e-01	0	43	104	0	71	32863
2026-01-18 20:38:09.92	106.40	8.15	-50.0	-69.2	3.8	8.48e-01	0	43	104	0	71	32977
2026-01-18 20:38:10.92	106.25	8.06	-50.1	-69.2	3.8	8.48e-01	0	43	104	0	71	33010
2026-01-18 20:38:11.91	106.11	7.98	-50.1	-69.2	3.8	8.47e-01	0	43	104	0	71	33037
2026-01-18 20:38:12.90	105.97	7.90	-50.1	-69.2	3.8	8.48e-01	0	43	104	0	71	33023
2026-01-18 20:38:13.90	105.83	7.82	-50.2	-69.2	3.8	8.48e-01	0	43	104	0	71	33099
2026-01-18 20:38:14.89	105.69	7.74	-50.1	-69.2	3.8	8.47e-01	0	43	104	0	71	33174
2026-01-18 20:38:15.88	105.55	7.66	-50.1	-69.2	3.8	8.46e-01	0	43	104	0	71	33113
2026-01-18 20:38:16.88	105.41	7.59	-50.0	-69.2	3.8	8.47e-01	0	43	104	0	71	33099
2026-01-18 20:38:17.87	105.28	7.51	-50.0	-69.2	3.8	8.47e-01	0	43	104	0	71	33159
2026-01-18 20:38:18.87	105.14	7.43	-50.0	-69.2	3.8	8.47e-01	0	43	104	0	71	33273
2026-01-18 20:38:19.86	105.01	7.35	-50.1	-69.2	3.8	8.46e-01	0	43	104	0	71	33062
2026-01-18 20:38:20.85	104.87	7.27	-50.2	-69.2	3.8	8.46e-01	0	43	104	0	71	33278
2026-01-18 20:38:21.84	104.74	7.19	-50.1	-69.2	3.8	8.48e-01	0	43	104	0	71	33071
2026-01-18 20:38:22.84	104.61	7.11	-50.1	-69.2	3.8	8.47e-01	0	43	104	0	71	33056
2026-01-18 20:38:23.83	104.48	7.04	-50.1	-69.2	3.8	8.47e-01	0	43	104	0	71	33053
2026-01-18 20:38:24.83	104.35	6.96	-50.1	-69.2	3.8	8.47e-01	0	43	104	0	71	32967
2026-01-18 20:38:25.82	104.22	6.88	-50.1	-69.2	3.8	8.47e-01	0	43	104	0	71	33055
2026-01-18 20:38:26.81	104.09	6.81	-50.1	-69.2	3.8	8.47e-01	0	43	104	0	71	33051
2026-01-18 20:38:27.80	103.97	6.73	-50.1	-69.1	3.8	8.48e-01	0	43	104	0	71	32880
2026-01-18 20:38:28.80	103.84	6.65	-50.1	-69.2	3.8	8.47e-01	0	43	104	0	71	33003
2026-01-18 20:38:29.79	103.71	6.58	-50.1	-69.2	3.8	8.47e-01	0	43	104	0	71	32999
2026-01-18 20:38:30.78	103.59	6.50	-50.1	-69.2	3.8	8.48e-01	0	43	104	0	71	33030
2026-01-18 20:38:31.78	103.47	6.43	-50.1	-69.2	3.8	8.46e-01	0	43	104	0	71	33018
2026-01-18 20:38:32.77	103.34	6.35	-50.1	-69.1	3.8	8.46e-01	0	43	104	0	71	32840
2026-01-18 20:38:33.77	103.22	6.27	-50.1	-69.2	3.8	8.46e-01	0	43	104	0	71	32970
2026-01-18 20:38:34.76	103.10	6.20	-50.1	-69.1	3.8	8.47e-01	0	43	104	0	71	32893
2026-01-18 20:38:35.75	102.98	6.13	-50.1	-69.1	3.8	8.47e-01	0	43	104	0	71	32865
2026-01-18 20:38:36.75	102.86	6.05	-50.1	-69.1	3.8	8.47e-01	0	43	104	0	71	32872
2026-01-18 20:38:37.74	102.75	5.98	-50.1	-69.1	3.8	8.48e-01	0	43	104	0	71	32862
2026-01-18 20:38:38.73	102.63	5.90	-50.1	-69.2	3.8	8.47e-01	0	43	104	0	71	32941
2026-01-18 20:38:39.73	102.51	5.83	-50.1	-69.2	3.8	8.47e-01	0	43	104	0	71	32945
2026-01-18 20:38:40.72	102.40	5.76	-50.1	-69.1	3.8	8.47e-01	0	43	104	0	71	32833
2026-01-18 20:38:41.72	102.28	5.68	-50.1	-69.1	3.8	8.46e-01	0	43	104	0	71	32847
2026-01-18 20:38:42.71	102.17	5.61	-50.1	-69.2	3.8	8.46e-01	0	43	104	0	71	32931
2026-01-18 20:38:43.70	102.06	5.54	-50.1	-69.2	3.8	8.46e-01	0	43	104	0	71	32944
2026-01-18 20:38:44.69	101.95	5.46	-50.1	-69.1	3.8	8.48e-01	0	43	104	0	71	32898
2026-01-18 20:38:45.69	101.83	5.39	-50.1	-69.1	3.8	8.48e-01	0	43	104	0	71	32905
2026-01-18 20:38:46.68	101.72	5.32	-50.1	-69.2	3.8	8.46e-01	0	43	104	0	71	32989
2026-01-18 20:38:47.68	101.61	5.25	-50.1	-69.1	3.8	8.47e-01	0	43	104	0	71	32897
2026-01-18 20:38:48.67	101.51	5.18	-50.1	-69.1	3.8	8.47e-01	0	43	104	0	71	32811
2026-01-18 20:38:49.66	101.40	5.10	-50.1	-69.2	3.8	8.46e-01	0	43	104	0	71	32965
2026-01-18 20:38:50.65	101.29	5.03	-50.1	-69.1	3.8	8.47e-01	0	43	104	0	71	32905
2026-01-18 20:38:51.65	101.18	4.96	-50.0	-69.2	3.8	8.47e-01	0	43	104	0	71	32929
2026-01-18 20:38:52.64	101.08	4.89	-50.1	-69.1	3.8	8.47e-01	0	43	104	0	71	32817
2026-01-18 20:38:53.64	100.97	4.82	-50.1	-69.1	3.8	8.47e-01	0	43	104	0	71	32784
2026-01-18 20:38:54.63	100.87	4.75	-50.0	-69.1	3.8	8.47e-01	0	43	104	0	71	32813

#Closed at: 2026-01-18 20:38:55
#Recorded file [0 MB]: D:/Data/31040_260118_233134.dat