passes_logs/2026/01/18/T1/T1__20260118_161543_FENGYUN_3E_rec.log

#Pass ID: 20260118_161543_FENGYUN 3E
#Satellite: FENGYUN 3E
#Configuration: FENGYUN 3E
#almurnet v.1.7.20251203
#Start time: 2026-01-18 16:15:42

#Version: 2.0.20230620
#Station: T1
#Location: 37.570604 lon 55.790049 lat
#TLE: 1 49008U 21062A   26017.61301378  .00000104  00000+0  69808-4 0  9996
#TLE: 2 49008  98.7484  22.7108 0002130 132.1860 227.9498 14.19886007235218

#Time	Az	El	Level	Level2	SNR	BER	BlckErr	Temp	State	Recorded	gain1	gain2
2026-01-18 16:15:42.86	230.47	4.97	-49.8	-60.5	3.8	8.47e-01	0	37	0	0	70	12039
2026-01-18 16:15:43.85	230.58	5.02	-49.8	-60.5	3.8	8.46e-01	0	37	104	0	70	11983
2026-01-18 16:15:44.85	230.70	5.07	-49.8	-60.6	3.8	8.47e-01	0	37	104	0	70	12097
2026-01-18 16:15:45.84	230.81	5.12	-49.8	-60.4	3.8	8.48e-01	0	37	104	0	70	11943
2026-01-18 16:15:46.83	230.92	5.17	-49.8	-60.5	3.8	8.46e-01	0	37	104	0	70	12005
2026-01-18 16:15:47.82	231.03	5.21	-49.8	-60.5	3.8	8.46e-01	0	37	104	0	70	12010
2026-01-18 16:15:48.82	231.15	5.26	-49.8	-60.5	3.8	8.46e-01	0	37	104	0	70	12008
2026-01-18 16:15:49.81	231.26	5.31	-49.8	-60.5	3.8	8.48e-01	0	37	104	0	70	12027
2026-01-18 16:15:50.80	231.38	5.36	-49.8	-60.4	3.8	8.46e-01	0	37	104	0	70	11919
2026-01-18 16:15:51.80	231.49	5.41	-49.8	-60.5	3.8	8.47e-01	0	37	104	0	70	11956
2026-01-18 16:15:52.79	231.61	5.45	-49.8	-60.5	3.8	8.47e-01	0	37	104	0	70	11997
2026-01-18 16:15:53.78	231.72	5.50	-49.8	-60.4	3.8	8.47e-01	0	37	104	0	70	11946
2026-01-18 16:15:54.78	231.84	5.55	-49.8	-60.4	3.8	8.47e-01	0	37	104	0	70	11922
2026-01-18 16:15:55.77	231.95	5.60	-49.8	-60.4	3.8	8.47e-01	0	37	104	0	70	11948
2026-01-18 16:15:56.76	232.07	5.65	-49.8	-60.5	3.8	8.47e-01	0	37	104	0	70	11977
2026-01-18 16:15:57.76	232.19	5.69	-49.8	-60.4	3.8	8.47e-01	0	38	104	0	70	11845
2026-01-18 16:15:58.75	232.30	5.74	-49.8	-60.4	3.8	8.46e-01	0	38	104	0	70	11864
2026-01-18 16:15:59.75	232.42	5.79	-49.8	-60.5	3.8	8.47e-01	0	38	104	0	70	11968
2026-01-18 16:16:00.74	232.54	5.84	-49.8	-60.4	3.8	8.47e-01	0	38	104	0	70	11949
2026-01-18 16:16:01.73	232.66	5.88	-49.8	-60.5	3.8	8.48e-01	0	38	104	0	70	11962
2026-01-18 16:16:02.73	232.78	5.93	-49.8	-60.4	3.8	8.47e-01	0	38	104	0	70	11950
2026-01-18 16:16:03.72	232.90	5.98	-49.8	-60.4	3.8	8.47e-01	0	38	104	0	70	11867
2026-01-18 16:16:04.71	233.02	6.03	-49.7	-60.4	3.8	8.47e-01	0	38	104	0	70	11910
2026-01-18 16:16:05.71	233.14	6.08	-49.8	-60.4	3.8	8.46e-01	0	38	104	0	70	11870
2026-01-18 16:16:06.70	233.26	6.12	-49.8	-60.4	3.8	8.48e-01	0	38	104	0	70	11908
2026-01-18 16:16:07.69	233.38	6.17	-49.8	-60.4	3.8	8.46e-01	0	38	104	0	70	11880
2026-01-18 16:16:08.69	233.50	6.22	-49.8	-60.4	3.8	8.48e-01	0	38	104	0	70	11924
2026-01-18 16:16:09.68	233.62	6.27	-49.7	-60.4	3.8	8.47e-01	0	38	104	0	70	11939
2026-01-18 16:16:10.67	233.74	6.31	-49.8	-60.3	3.8	8.45e-01	0	38	104	0	70	11772
2026-01-18 16:16:11.66	233.86	6.36	-49.7	-60.3	3.8	8.46e-01	0	38	104	0	70	11792
2026-01-18 16:16:12.66	233.99	6.41	-49.7	-60.3	3.8	8.46e-01	0	38	104	0	70	11733
2026-01-18 16:16:13.65	234.11	6.46	-49.7	-60.3	3.8	8.45e-01	0	38	104	0	70	11744
2026-01-18 16:16:14.65	234.23	6.50	-49.7	-60.2	3.8	8.46e-01	0	38	104	0	70	11651
2026-01-18 16:16:15.64	234.36	6.55	-49.8	-60.3	3.8	8.45e-01	0	38	104	0	70	11698
2026-01-18 16:16:16.63	234.48	6.60	-49.7	-60.4	3.8	8.47e-01	0	38	104	0	70	11906
2026-01-18 16:16:17.63	234.60	6.65	-49.8	-60.4	3.8	8.47e-01	0	38	104	0	70	11852
2026-01-18 16:16:18.62	234.73	6.69	-49.7	-60.3	3.8	8.46e-01	0	38	104	0	70	11737
2026-01-18 16:16:19.61	234.85	6.74	-49.8	-60.3	3.8	8.47e-01	0	38	104	0	70	11808
2026-01-18 16:16:20.61	234.98	6.79	-49.7	-60.4	3.8	8.45e-01	0	38	104	0	70	11895
2026-01-18 16:16:21.60	235.11	6.84	-49.8	-60.4	3.8	8.47e-01	0	38	104	0	70	11840
2026-01-18 16:16:22.59	235.23	6.88	-49.8	-60.4	3.8	8.46e-01	0	38	104	0	70	11826
2026-01-18 16:16:23.59	235.36	6.93	-49.7	-60.4	3.8	8.47e-01	0	38	104	0	70	11867
2026-01-18 16:16:24.58	235.49	6.98	-49.8	-60.3	3.8	8.47e-01	0	38	104	0	70	11803
2026-01-18 16:16:25.58	235.62	7.03	-49.7	-60.3	3.8	8.46e-01	0	38	104	0	70	11792
2026-01-18 16:16:26.57	235.74	7.07	-49.7	-60.3	3.8	8.47e-01	0	38	104	0	70	11740
2026-01-18 16:16:27.56	235.87	7.12	-49.7	-60.3	3.8	8.47e-01	0	38	104	0	70	11710
2026-01-18 16:16:28.56	236.00	7.17	-49.8	-60.3	3.8	8.47e-01	0	38	104	0	70	11733
2026-01-18 16:16:29.55	236.13	7.21	-49.8	-60.3	3.8	8.47e-01	0	38	104	0	70	11780
2026-01-18 16:16:30.54	236.26	7.26	-49.7	-60.3	3.8	8.46e-01	0	39	104	0	70	11769
2026-01-18 16:16:31.54	236.39	7.31	-49.7	-60.2	3.8	8.47e-01	0	39	104	0	70	11578
2026-01-18 16:16:32.53	236.52	7.36	-49.7	-59.9	3.8	8.46e-01	0	39	104	0	70	11282
2026-01-18 16:16:33.52	236.65	7.40	-49.7	-59.9	3.8	8.48e-01	0	39	104	0	70	11264
2026-01-18 16:16:34.52	236.78	7.45	-49.7	-59.9	3.8	8.48e-01	0	39	104	0	70	11261
2026-01-18 16:16:35.51	236.91	7.50	-49.7	-60.1	3.8	8.47e-01	0	39	104	0	70	11460
2026-01-18 16:16:36.50	237.05	7.54	-49.8	-60.3	3.8	8.46e-01	0	39	104	0	70	11695
2026-01-18 16:16:37.50	237.18	7.59	-49.8	-60.4	3.8	8.47e-01	0	38	104	0	70	11919
2026-01-18 16:16:38.49	237.31	7.64	-49.8	-60.4	3.8	8.47e-01	0	39	104	0	70	11886
2026-01-18 16:16:39.48	237.45	7.68	-49.8	-60.3	3.8	8.47e-01	0	39	104	0	70	11803
2026-01-18 16:16:40.47	237.58	7.73	-49.7	-60.3	3.8	8.47e-01	0	39	104	0	70	11695
2026-01-18 16:16:41.47	237.71	7.78	-49.7	-60.3	3.8	8.47e-01	0	38	104	0	70	11705
2026-01-18 16:16:42.46	237.85	7.82	-49.8	-60.2	3.8	8.47e-01	0	39	104	0	70	11609
2026-01-18 16:16:43.45	237.98	7.87	-49.7	-60.3	3.8	8.47e-01	0	39	104	0	70	11755
2026-01-18 16:16:44.45	238.12	7.92	-49.8	-60.4	3.8	8.47e-01	0	39	104	0	70	11875
2026-01-18 16:16:45.44	238.25	7.96	-49.8	-60.4	3.8	8.47e-01	0	39	104	0	70	11938
2026-01-18 16:16:46.43	238.39	8.01	-49.7	-60.4	3.8	8.47e-01	0	39	104	0	70	11901
2026-01-18 16:16:47.43	238.53	8.06	-49.7	-60.3	3.8	8.46e-01	0	39	104	0	70	11695
2026-01-18 16:16:48.42	238.66	8.10	-49.7	-60.2	3.8	8.47e-01	0	39	104	0	70	11650
2026-01-18 16:16:49.41	238.80	8.15	-49.8	-60.4	3.8	8.46e-01	0	39	104	0	70	11939
2026-01-18 16:16:50.41	238.94	8.19	-49.7	-60.4	3.8	8.47e-01	0	39	104	0	70	11849
2026-01-18 16:16:51.40	239.08	8.24	-49.7	-59.7	3.8	8.46e-01	0	39	104	0	70	11024
2026-01-18 16:16:52.39	239.22	8.29	-49.5	-58.5	3.8	8.46e-01	0	39	104	0	69	10122
2026-01-18 16:16:53.39	239.36	8.33	-49.4	-57.8	3.9	8.44e-01	0	39	104	0	69	9291
2026-01-18 16:16:54.38	239.50	8.38	-49.4	-57.6	4.0	8.42e-01	0	39	0	0	69	9146
2026-01-18 16:16:55.37	239.64	8.42	-49.6	-59.3	3.8	8.47e-01	0	39	104	0	69	11090
2026-01-18 16:16:56.37	239.78	8.47	-49.7	-59.9	3.8	8.47e-01	0	39	104	0	69	11885
2026-01-18 16:16:57.36	239.92	8.52	-48.9	-55.4	4.7	8.43e-01	0	39	104	0	68	7469
2026-01-18 16:16:58.35	240.06	8.56	-46.8	-50.2	8.8	5.34e-02	0	39	0	5242880	64	5204
2026-01-18 16:16:59.35	240.20	8.61	-44.8	-46.9	12.3	1.03e-03	0	39	0	11534336	60	4487
2026-01-18 16:17:00.34	240.34	8.65	-42.6	-44.1	15.2	3.40e-06	0	39	0	18874368	56	4066
2026-01-18 16:17:01.34	240.49	8.70	-41.3	-42.6	16.5	0.00e+00	0	39	0	26214400	53	4057
2026-01-18 16:17:02.33	240.63	8.74	-40.6	-41.8	17.4	0.00e+00	0	39	0	33554432	51	4171
2026-01-18 16:17:03.32	240.77	8.79	-40.7	-41.9	17.3	0.00e+00	0	39	0	40894464	51	4202
2026-01-18 16:17:04.31	240.92	8.83	-40.9	-42.1	17.0	0.00e+00	0	39	0	48234496	51	4326
2026-01-18 16:17:05.31	241.06	8.88	-41.8	-43.2	15.9	0.00e+00	0	39	0	54525952	53	4366
2026-01-18 16:17:06.30	241.21	8.92	-42.8	-44.4	14.8	0.00e+00	0	39	0	61865984	55	4457
2026-01-18 16:17:07.29	241.35	8.97	-44.2	-46.2	13.0	2.51e-05	0	39	0	69206016	57	4881
2026-01-18 16:17:08.29	241.50	9.01	-45.4	-47.8	11.4	8.59e-04	0	39	0	76546048	60	4978
2026-01-18 16:17:09.54	241.68	9.07	-46.6	-49.8	9.5	1.53e-03	0	39	0	85983232	62	5555
2026-01-18 16:17:10.42	241.81	9.11	-46.5	-49.5	9.5	4.97e-01	0	39	0	89128960	63	5043
2026-01-18 16:17:11.56	241.98	9.16	-42.0	-43.4	15.8	1.10e-06	0	39	0	96468992	54	4202
2026-01-18 16:17:12.41	242.11	9.20	-42.2	-43.6	15.6	0.00e+00	0	39	0	102760448	53	4580
2026-01-18 16:17:13.55	242.28	9.25	-44.3	-46.3	12.9	5.74e-03	0	39	0	111149056	59	4409
2026-01-18 16:17:14.40	242.40	9.29	-40.9	-42.2	17.1	0.00e+00	0	39	0	117440512	51	4357
2026-01-18 16:17:15.54	242.57	9.34	-40.3	-41.5	17.8	0.00e+00	0	39	0	125829120	51	4018
2026-01-18 16:17:16.39	242.70	9.38	-40.2	-41.3	18.0	0.00e+00	0	39	0	132120576	51	3929
2026-01-18 16:17:17.53	242.87	9.43	-40.1	-41.2	18.0	0.00e+00	0	39	0	140509184	51	3891
2026-01-18 16:17:18.38	243.00	9.46	-39.4	-40.5	18.7	0.00e+00	0	39	0	146800640	49	4030
2026-01-18 16:17:19.52	243.18	9.52	-39.5	-40.6	18.7	0.00e+00	0	39	0	155189248	49	4071
2026-01-18 16:17:20.37	243.30	9.55	-39.6	-40.7	18.5	0.00e+00	0	39	0	160432128	49	4119
2026-01-18 16:17:21.51	243.48	9.60	-39.7	-40.8	18.4	0.00e+00	0	39	0	168820736	49	4170
2026-01-18 16:17:22.36	243.61	9.64	-39.9	-41.0	18.3	0.00e+00	0	39	0	175112192	49	4250
2026-01-18 16:17:23.50	243.78	9.69	-39.7	-40.8	18.4	0.00e+00	0	39	0	183500800	49	4190
2026-01-18 16:17:24.35	243.91	9.73	-39.4	-40.4	18.8	0.00e+00	0	39	0	189792256	49	3995
2026-01-18 16:17:25.49	244.09	9.78	-39.0	-40.0	19.2	0.00e+00	0	39	0	197132288	48	4019
2026-01-18 16:17:26.34	244.22	9.81	-38.6	-39.6	19.3	0.00e+00	0	39	0	203423744	47	4088
2026-01-18 16:17:27.48	244.40	9.86	-38.9	-40.0	19.0	0.00e+00	0	39	0	211812352	47	4253
2026-01-18 16:17:28.33	244.53	9.90	-38.8	-39.9	19.1	0.00e+00	0	39	0	218103808	47	4208
2026-01-18 16:17:29.47	244.71	9.95	-39.3	-40.4	18.9	0.00e+00	0	39	0	226492416	48	4200
2026-01-18 16:17:30.39	244.85	9.99	-39.2	-40.2	19.0	0.00e+00	0	39	0	232783872	48	4145
2026-01-18 16:17:31.38	245.01	10.03	-38.8	-39.8	19.4	0.00e+00	0	39	0	240123904	48	3947
2026-01-18 16:17:32.38	245.16	10.07	-39.0	-40.0	19.2	0.00e+00	0	39	0	247463936	48	4038
2026-01-18 16:17:33.37	245.32	10.12	-38.4	-39.4	19.6	0.00e+00	0	39	0	254803968	47	3983
2026-01-18 16:17:34.37	245.48	10.16	-38.4	-39.4	19.6	0.00e+00	0	40	0	262144000	47	4002
2026-01-18 16:17:35.36	245.64	10.20	-39.1	-40.2	18.8	0.00e+00	0	39	0	268435456	47	4360
2026-01-18 16:17:36.36	245.80	10.24	-38.9	-39.9	19.1	0.00e+00	0	39	0	275775488	47	4230
2026-01-18 16:17:37.35	245.95	10.29	-39.7	-40.8	18.5	0.00e+00	0	39	0	283115520	48	4397
2026-01-18 16:17:38.35	246.11	10.33	-38.9	-39.9	19.3	0.00e+00	0	40	0	290455552	48	3980
2026-01-18 16:17:39.34	246.27	10.37	-38.6	-39.6	19.4	0.00e+00	0	39	0	297795584	47	4072
2026-01-18 16:17:40.34	246.43	10.41	-38.9	-39.9	19.1	1.10e-06	0	39	0	305135616	47	4214
2026-01-18 16:17:41.33	246.59	10.45	-38.6	-39.6	19.4	0.00e+00	0	39	0	312475648	47	4069
2026-01-18 16:17:42.33	246.76	10.49	-38.3	-39.3	19.7	0.00e+00	0	39	0	318767104	47	3918
2026-01-18 16:17:43.37	246.92	10.54	-38.3	-39.3	19.7	0.00e+00	0	39	0	327155712	47	3916
2026-01-18 16:17:44.38	247.09	10.58	-38.3	-39.3	19.7	0.00e+00	0	39	0	334495744	47	3940
2026-01-18 16:17:45.38	247.25	10.62	-38.1	-39.1	19.9	0.00e+00	0	39	0	340787200	47	3841
2026-01-18 16:17:46.37	247.41	10.66	-38.1	-39.1	19.8	0.00e+00	0	39	0	348127232	47	3857
2026-01-18 16:17:47.44	247.59	10.70	-38.3	-39.3	19.7	0.00e+00	0	39	0	356515840	47	3920
2026-01-18 16:17:48.29	247.73	10.74	-38.2	-39.2	19.8	0.00e+00	0	39	0	361758720	47	3881
2026-01-18 16:17:49.60	247.95	10.79	-38.2	-39.2	19.8	0.00e+00	0	40	0	372244480	46	4106
2026-01-18 16:17:50.31	248.06	10.82	-38.0	-39.0	19.9	0.00e+00	0	39	0	377487360	46	4040
2026-01-18 16:17:51.60	248.28	10.87	-38.2	-39.2	19.7	0.00e+00	0	40	0	386924544	46	4145
2026-01-18 16:17:52.32	248.40	10.90	-38.4	-39.4	19.6	0.00e+00	0	39	0	391118848	46	4216
2026-01-18 16:17:53.60	248.61	10.95	-38.2	-39.2	19.8	0.00e+00	0	39	0	400556032	46	4114
2026-01-18 16:17:54.36	248.74	10.98	-38.4	-39.4	19.6	0.00e+00	0	40	0	405798912	46	4240
2026-01-18 16:17:55.64	248.95	11.03	-38.4	-39.4	19.6	0.00e+00	0	40	0	415236096	46	4216
2026-01-18 16:17:56.35	249.07	11.06	-38.3	-39.3	19.7	0.00e+00	0	40	0	420478976	46	4177
2026-01-18 16:17:57.63	249.29	11.11	-38.1	-39.1	19.9	0.00e+00	0	40	0	429916160	46	4068
2026-01-18 16:17:58.46	249.43	11.15	-38.3	-39.3	19.7	0.00e+00	0	40	0	436207616	46	4178
2026-01-18 16:17:59.60	249.62	11.19	-38.3	-39.3	19.7	0.00e+00	0	40	0	444596224	46	4167
2026-01-18 16:18:00.46	249.77	11.22	-37.9	-38.9	20.1	0.00e+00	0	40	0	449839104	46	3965
2026-01-18 16:18:01.59	249.96	11.27	-38.1	-39.1	19.9	0.00e+00	0	40	0	458227712	46	4053
2026-01-18 16:18:02.44	250.10	11.30	-38.0	-39.0	20.0	0.00e+00	0	40	0	464519168	46	4017
2026-01-18 16:18:03.58	250.30	11.34	-38.0	-39.0	20.0	0.00e+00	0	40	0	472907776	46	4035
2026-01-18 16:18:04.43	250.44	11.38	-38.1	-39.1	19.9	0.00e+00	0	39	0	479199232	46	4058
2026-01-18 16:18:05.59	250.64	11.42	-38.0	-39.0	20.0	0.00e+00	0	39	0	487587840	46	4008
2026-01-18 16:18:06.44	250.79	11.45	-38.1	-39.0	20.0	0.00e+00	0	40	0	493879296	46	4045
2026-01-18 16:18:07.58	250.99	11.50	-37.9	-38.9	20.1	0.00e+00	0	40	0	501219328	46	3975
2026-01-18 16:18:08.43	251.13	11.53	-37.9	-38.9	20.1	0.00e+00	0	40	0	507510784	46	3975
2026-01-18 16:18:09.57	251.33	11.57	-37.7	-38.7	20.4	0.00e+00	0	40	0	515899392	46	3878
2026-01-18 16:18:10.43	251.48	11.60	-37.8	-38.8	20.3	0.00e+00	0	40	0	522190848	46	3917
2026-01-18 16:18:11.56	251.68	11.64	-37.6	-38.6	20.4	0.00e+00	0	40	0	530579456	45	4057
2026-01-18 16:18:12.42	251.83	11.68	-37.8	-38.8	20.3	0.00e+00	0	40	0	536870912	45	4157
2026-01-18 16:18:13.56	252.03	11.72	-37.9	-38.8	20.2	0.00e+00	0	40	0	545259520	45	4181
2026-01-18 16:18:14.41	252.18	11.75	-37.9	-38.9	20.1	0.00e+00	0	40	0	550502400	45	4209
2026-01-18 16:18:15.54	252.38	11.79	-37.6	-38.5	20.5	0.00e+00	0	40	0	558891008	45	4046
2026-01-18 16:18:16.40	252.53	11.82	-37.7	-38.7	20.4	0.00e+00	0	40	0	565182464	45	4106
2026-01-18 16:18:17.53	252.73	11.86	-37.7	-38.7	20.3	0.00e+00	0	40	0	573571072	45	4110
2026-01-18 16:18:18.38	252.88	11.89	-37.7	-38.7	20.3	0.00e+00	0	40	0	579862528	45	4107
2026-01-18 16:18:19.52	253.09	11.93	-37.8	-38.7	20.3	0.00e+00	0	39	0	588251136	45	4130
2026-01-18 16:18:20.37	253.24	11.96	-37.8	-38.7	20.3	0.00e+00	0	40	0	593494016	45	4136
2026-01-18 16:18:21.51	253.44	12.00	-37.8	-38.8	20.2	0.00e+00	0	40	0	601882624	45	4167
2026-01-18 16:18:22.36	253.59	12.03	-37.7	-38.7	20.3	0.00e+00	0	40	0	608174080	45	4111
2026-01-18 16:18:23.56	253.81	12.07	-37.7	-38.6	20.4	0.00e+00	0	40	0	616562688	45	4096
2026-01-18 16:18:24.41	253.96	12.10	-38.0	-39.0	20.1	0.00e+00	0	40	0	622854144	45	4264
2026-01-18 16:18:25.60	254.18	12.14	-37.9	-38.9	20.2	0.00e+00	0	40	0	632291328	45	4200
2026-01-18 16:18:26.45	254.33	12.17	-37.8	-38.8	20.2	0.00e+00	0	40	0	637534208	45	4169
2026-01-18 16:18:27.59	254.54	12.21	-37.8	-38.8	20.2	0.00e+00	0	40	0	645922816	45	4162
2026-01-18 16:18:28.88	254.77	12.26	-37.9	-38.9	20.1	0.00e+00	0	40	0	655360000	45	4224
2026-01-18 16:18:29.59	254.90	12.28	-37.9	-38.9	20.1	0.00e+00	0	40	0	660602880	45	4211
2026-01-18 16:18:30.87	255.13	12.32	-38.0	-39.0	20.0	0.00e+00	0	40	0	670040064	45	4271
2026-01-18 16:18:31.58	255.26	12.35	-37.8	-38.7	20.3	0.00e+00	0	40	0	675282944	45	4134
2026-01-18 16:18:32.86	255.50	12.39	-37.9	-38.9	20.1	0.00e+00	0	40	0	683671552	45	4218
2026-01-18 16:18:33.57	255.63	12.41	-37.9	-38.9	20.1	0.00e+00	0	40	0	688914432	45	4211
2026-01-18 16:18:34.99	255.89	12.46	-38.0	-39.0	20.0	0.00e+00	0	40	0	699400192	45	4258
2026-01-18 16:18:35.70	256.02	12.48	-38.3	-39.3	19.8	0.00e+00	0	40	0	704643072	45	4397
2026-01-18 16:18:36.98	256.26	12.52	-37.9	-38.9	20.2	0.00e+00	0	40	0	714080256	46	3964
2026-01-18 16:18:37.72	256.40	12.54	-37.8	-38.8	20.2	0.00e+00	0	40	0	719323136	46	3938
2026-01-18 16:18:39.00	256.63	12.58	-37.7	-38.7	20.3	0.00e+00	0	40	0	728760320	46	3894
2026-01-18 16:18:39.71	256.77	12.61	-37.6	-38.5	20.5	0.00e+00	0	40	0	734003200	46	3806
2026-01-18 16:18:40.99	257.00	12.64	-37.5	-38.4	20.6	0.00e+00	0	40	0	742391808	45	3994
2026-01-18 16:18:41.70	257.14	12.67	-37.6	-38.5	20.5	0.00e+00	0	40	0	747634688	45	4043
2026-01-18 16:18:42.97	257.37	12.71	-37.8	-38.7	20.3	0.00e+00	0	40	0	757071872	45	4138
2026-01-18 16:18:43.70	257.51	12.73	-37.7	-38.6	20.4	0.00e+00	0	40	0	762314752	45	4089
2026-01-18 16:18:44.98	257.75	12.77	-37.5	-38.5	20.5	0.00e+00	0	40	0	771751936	45	4012
2026-01-18 16:18:45.72	257.89	12.79	-37.7	-38.6	20.4	0.00e+00	0	40	0	776994816	45	4097
2026-01-18 16:18:47.00	258.13	12.83	-37.9	-38.9	20.1	0.00e+00	0	40	0	786432000	45	4213
2026-01-18 16:18:47.71	258.27	12.85	-37.8	-38.8	20.3	0.00e+00	0	40	0	791674880	45	4151
2026-01-18 16:18:48.98	258.51	12.88	-37.7	-38.6	20.4	0.00e+00	0	40	0	800063488	45	4087
2026-01-18 16:18:49.71	258.65	12.90	-37.8	-38.8	20.2	0.00e+00	0	40	0	805306368	45	4159
2026-01-18 16:18:50.99	258.89	12.94	-37.7	-38.6	20.4	0.00e+00	0	40	0	814743552	45	4079
2026-01-18 16:18:51.72	259.03	12.96	-37.9	-38.9	20.1	0.00e+00	0	40	0	819986432	45	4199
2026-01-18 16:18:52.99	259.27	13.00	-37.8	-38.8	20.2	0.00e+00	0	40	0	829423616	45	4171
2026-01-18 16:18:53.72	259.41	13.02	-37.6	-38.6	20.4	0.00e+00	0	40	0	834666496	45	4056
2026-01-18 16:18:55.00	259.66	13.05	-37.7	-38.7	20.3	0.00e+00	0	40	0	844103680	45	4121
2026-01-18 16:18:55.73	259.80	13.07	-37.6	-38.5	20.5	0.00e+00	0	40	0	849346560	45	4045
2026-01-18 16:18:57.01	260.04	13.11	-38.0	-39.0	20.1	0.00e+00	0	40	0	858783744	45	4247
2026-01-18 16:18:57.74	260.18	13.13	-37.9	-38.9	20.2	0.00e+00	0	40	0	864026624	45	4200
2026-01-18 16:18:59.19	260.46	13.16	-37.8	-38.8	20.2	0.00e+00	0	40	0	874512384	45	4189
2026-01-18 16:18:59.90	260.60	13.18	-37.7	-38.7	20.3	0.00e+00	0	40	0	879755264	45	4120
2026-01-18 16:19:01.21	260.85	13.22	-37.8	-38.8	20.2	0.00e+00	0	40	0	889192448	45	4165
2026-01-18 16:19:01.92	260.99	13.23	-37.8	-38.8	20.2	0.00e+00	0	40	0	893386752	45	4169
2026-01-18 16:19:03.27	261.25	13.27	-37.7	-38.7	20.3	0.00e+00	0	40	0	903872512	45	4126
2026-01-18 16:19:04.25	261.44	13.29	-37.9	-38.9	20.2	0.00e+00	0	40	0	911212544	45	4210
2026-01-18 16:19:05.24	261.64	13.32	-38.0	-39.0	20.0	0.00e+00	0	40	0	918552576	45	4245
2026-01-18 16:19:06.24	261.83	13.34	-37.6	-38.6	20.4	0.00e+00	0	40	0	924844032	45	4068
2026-01-18 16:19:07.23	262.03	13.36	-37.6	-38.6	20.4	0.00e+00	0	40	0	932184064	45	4064
2026-01-18 16:19:08.23	262.22	13.39	-37.6	-38.5	20.5	0.00e+00	0	40	0	939524096	45	4028
2026-01-18 16:19:09.22	262.42	13.41	-37.5	-38.4	20.6	0.00e+00	0	40	0	946864128	45	3985
2026-01-18 16:19:10.22	262.61	13.44	-37.8	-38.7	20.3	0.00e+00	0	40	0	954204160	45	4129
2026-01-18 16:19:11.21	262.81	13.46	-37.5	-38.4	20.6	0.00e+00	0	40	0	961544192	45	3993
2026-01-18 16:19:12.26	263.01	13.48	-37.5	-38.4	20.6	0.00e+00	0	40	0	968884224	45	4002
2026-01-18 16:19:13.22	263.20	13.50	-37.4	-38.3	20.7	0.00e+00	0	40	0	975175680	45	3947
2026-01-18 16:19:14.34	263.42	13.53	-37.1	-38.1	20.9	0.00e+00	0	40	0	983564288	45	3833
2026-01-18 16:19:15.19	263.59	13.55	-37.2	-38.2	20.8	0.00e+00	0	40	0	989855744	44	4116
2026-01-18 16:19:16.55	263.86	13.58	-37.1	-38.0	21.0	0.00e+00	0	40	0	999292928	44	4026
2026-01-18 16:19:17.26	264.00	13.59	-37.2	-38.1	20.9	0.00e+00	0	40	0	1004535808	44	4083
2026-01-18 16:19:18.53	264.26	13.62	-37.4	-38.4	20.6	0.00e+00	0	40	0	1013972992	44	4207
2026-01-18 16:19:19.27	264.40	13.63	-37.3	-38.3	20.7	0.00e+00	0	40	0	1019215872	44	4156
2026-01-18 16:19:20.55	264.66	13.66	-37.4	-38.3	20.6	0.00e+00	0	40	0	1028653056	44	4183
2026-01-18 16:19:21.26	264.80	13.67	-37.3	-38.3	20.7	0.00e+00	0	40	0	1033895936	44	4150
2026-01-18 16:19:22.54	265.06	13.70	-37.4	-38.3	20.7	0.00e+00	0	40	0	1042284544	44	4184
2026-01-18 16:19:23.28	265.20	13.71	-37.3	-38.2	20.8	0.00e+00	0	40	0	1047527424	44	4126
2026-01-18 16:19:24.56	265.46	13.74	-37.4	-38.3	20.7	0.00e+00	0	40	0	1056964608	44	4181
2026-01-18 16:19:25.44	265.64	13.75	-37.4	-38.3	20.7	0.00e+00	0	40	0	1064304640	44	4193
2026-01-18 16:19:26.58	265.87	13.77	-37.5	-38.5	20.5	0.00e+00	0	40	0	1071644672	44	4253
2026-01-18 16:19:27.59	266.07	13.79	-37.3	-38.2	20.8	0.00e+00	0	40	0	1078984704	44	4110
2026-01-18 16:19:28.74	266.30	13.81	-37.2	-38.1	20.8	0.00e+00	0	40	0	1087373312	44	4089
2026-01-18 16:19:29.61	266.48	13.83	-37.3	-38.2	20.8	0.00e+00	0	40	0	1093664768	44	4110
2026-01-18 16:19:30.75	266.71	13.85	-37.2	-38.1	20.8	0.00e+00	0	40	0	1102053376	44	4094
2026-01-18 16:19:31.60	266.88	13.86	-37.1	-38.0	20.9	0.00e+00	0	40	0	1108344832	44	4048
2026-01-18 16:19:32.74	267.11	13.88	-37.1	-38.0	21.0	0.00e+00	0	40	0	1116733440	44	4021
2026-01-18 16:19:33.59	267.28	13.89	-37.1	-38.0	21.0	0.00e+00	0	40	0	1121976320	44	4036
2026-01-18 16:19:34.73	267.51	13.91	-37.1	-38.0	20.9	0.00e+00	0	40	0	1130364928	44	4045
2026-01-18 16:19:35.58	267.68	13.92	-37.3	-38.2	20.8	0.00e+00	0	40	0	1136656384	44	4115
2026-01-18 16:19:37.05	267.98	13.95	-37.5	-38.4	20.6	0.00e+00	0	40	0	1147142144	44	4216
2026-01-18 16:19:37.76	268.13	13.96	-37.4	-38.3	20.7	0.00e+00	0	40	0	1152385024	44	4192
2026-01-18 16:19:39.24	268.43	13.98	-37.5	-38.5	20.5	0.00e+00	0	40	0	1163919360	44	4254
2026-01-18 16:19:39.95	268.57	13.99	-37.4	-38.3	20.7	0.00e+00	0	40	0	1168113664	44	4182
2026-01-18 16:19:41.23	268.83	14.01	-37.2	-38.1	20.9	0.00e+00	0	40	0	1177550848	44	4068
2026-01-18 16:19:41.94	268.98	14.01	-37.2	-38.1	20.9	0.00e+00	0	40	0	1182793728	44	4074
2026-01-18 16:19:43.22	269.24	14.03	-37.5	-38.4	20.6	0.00e+00	0	40	0	1192230912	44	4226
2026-01-18 16:19:43.93	269.38	14.04	-37.3	-38.3	20.7	0.00e+00	0	40	0	1197473792	44	4156
2026-01-18 16:19:45.22	269.65	14.06	-37.3	-38.2	20.8	0.00e+00	0	40	0	1206910976	44	4127
2026-01-18 16:19:45.93	269.79	14.07	-37.3	-38.2	20.8	0.00e+00	0	40	0	1211105280	44	4134
2026-01-18 16:19:47.21	270.06	14.08	-37.1	-38.0	21.0	0.00e+00	0	40	0	1220542464	44	4016
2026-01-18 16:19:47.92	270.20	14.09	-37.3	-38.2	20.8	0.00e+00	0	40	0	1225785344	44	4113
2026-01-18 16:19:49.20	270.46	14.10	-37.3	-38.2	20.8	0.00e+00	0	40	0	1235222528	44	4116
2026-01-18 16:19:49.93	270.61	14.11	-37.3	-38.2	20.8	0.00e+00	0	40	0	1240465408	44	4134
2026-01-18 16:19:51.20	270.87	14.12	-37.3	-38.3	20.7	0.00e+00	0	40	0	1249902592	44	4156
2026-01-18 16:19:51.91	271.02	14.13	-37.4	-38.4	20.6	0.00e+00	0	40	0	1255145472	44	4200
2026-01-18 16:19:53.19	271.28	14.14	-37.6	-38.5	20.5	0.00e+00	0	40	0	1264582656	44	4274
2026-01-18 16:19:53.92	271.43	14.15	-37.5	-38.5	20.5	0.00e+00	0	40	0	1268776960	44	4254
2026-01-18 16:19:55.20	271.70	14.16	-37.4	-38.4	20.6	0.00e+00	0	40	0	1278214144	44	4205
2026-01-18 16:19:55.91	271.84	14.17	-37.5	-38.4	20.5	0.00e+00	0	40	0	1283457024	44	4235
2026-01-18 16:19:57.19	272.11	14.18	-37.6	-38.5	20.5	0.00e+00	0	40	0	1292894208	44	4285
2026-01-18 16:19:57.90	272.25	14.18	-37.3	-38.2	20.7	0.00e+00	0	40	0	1298137088	44	4129
2026-01-18 16:19:59.18	272.52	14.19	-37.2	-38.1	20.9	0.00e+00	0	40	0	1307574272	44	4096
2026-01-18 16:19:59.89	272.67	14.20	-37.1	-38.0	21.0	0.00e+00	0	40	0	1311768576	44	4021
2026-01-18 16:20:01.17	272.93	14.21	-37.2	-38.1	20.9	0.00e+00	0	40	0	1321205760	44	4070
2026-01-18 16:20:01.89	273.08	14.21	-37.1	-38.0	21.0	0.00e+00	0	40	0	1326448640	44	4037
2026-01-18 16:20:03.17	273.34	14.22	-37.3	-38.2	20.8	0.00e+00	0	40	0	1335885824	44	4127
2026-01-18 16:20:03.88	273.49	14.23	-37.3	-38.2	20.8	0.00e+00	0	40	0	1341128704	44	4143
2026-01-18 16:20:05.16	273.76	14.23	-37.3	-38.2	20.8	0.00e+00	0	40	0	1350565888	44	4141
2026-01-18 16:20:05.87	273.90	14.24	-37.4	-38.3	20.7	0.00e+00	0	40	0	1355808768	44	4175
2026-01-18 16:20:07.15	274.17	14.24	-37.4	-38.3	20.7	0.00e+00	0	40	0	1365245952	44	4187
2026-01-18 16:20:07.98	274.34	14.25	-37.6	-38.6	20.5	0.00e+00	0	40	0	1370488832	44	4295
2026-01-18 16:20:09.12	274.58	14.25	-37.5	-38.4	20.6	0.00e+00	0	40	0	1378877440	44	4231
2026-01-18 16:20:09.98	274.75	14.25	-37.5	-38.4	20.6	0.00e+00	0	40	0	1385168896	44	4227
2026-01-18 16:20:11.12	274.99	14.26	-37.5	-38.5	20.5	0.00e+00	0	40	0	1393557504	44	4251
2026-01-18 16:20:11.97	275.17	14.26	-37.2	-38.1	20.9	0.00e+00	0	40	0	1399848960	44	4068
2026-01-18 16:20:13.11	275.40	14.26	-37.2	-38.2	20.8	0.00e+00	0	40	0	1408237568	44	4099
2026-01-18 16:20:13.96	275.58	14.27	-37.2	-38.2	20.8	0.00e+00	0	40	0	1413480448	44	4108
2026-01-18 16:20:15.09	275.81	14.27	-37.2	-38.2	20.8	0.00e+00	0	40	0	1421869056	44	4104
2026-01-18 16:20:15.95	275.99	14.27	-37.2	-38.1	20.9	0.00e+00	0	40	0	1428160512	44	4096
2026-01-18 16:20:17.10	276.23	14.27	-37.3	-38.3	20.7	0.00e+00	0	40	0	1436549120	44	4154
2026-01-18 16:20:17.95	276.41	14.27	-37.3	-38.2	20.8	0.00e+00	0	40	0	1442840576	44	4127
2026-01-18 16:20:19.09	276.64	14.27	-37.3	-38.3	20.7	0.00e+00	0	40	0	1451229184	44	4163
2026-01-18 16:20:19.94	276.82	14.27	-37.3	-38.3	20.7	0.00e+00	0	40	0	1456472064	44	4162
2026-01-18 16:20:21.08	277.06	14.27	-37.4	-38.3	20.7	0.00e+00	0	40	0	1464860672	44	4182
2026-01-18 16:20:21.93	277.23	14.27	-37.2	-38.2	20.8	0.00e+00	0	40	0	1471152128	44	4110
2026-01-18 16:20:23.07	277.47	14.27	-37.3	-38.3	20.7	0.00e+00	0	40	0	1479540736	44	4169
2026-01-18 16:20:24.06	277.67	14.27	-37.3	-38.3	20.7	0.00e+00	0	40	0	1486880768	44	4148
2026-01-18 16:20:25.06	277.88	14.27	-37.3	-38.2	20.8	0.00e+00	0	40	0	1494220800	44	4139
2026-01-18 16:20:26.05	278.09	14.27	-37.2	-38.1	20.9	0.00e+00	0	40	0	1501560832	44	4083
2026-01-18 16:20:27.05	278.29	14.27	-37.2	-38.2	20.8	0.00e+00	0	40	0	1508900864	44	4105
2026-01-18 16:20:28.04	278.50	14.27	-37.4	-38.3	20.7	0.00e+00	0	40	0	1516240896	44	4165
2026-01-18 16:20:29.04	278.71	14.26	-37.3	-38.2	20.7	0.00e+00	0	40	0	1522532352	44	4145
2026-01-18 16:20:30.41	278.99	14.26	-37.2	-38.2	20.8	0.00e+00	0	40	0	1533018112	44	4109
2026-01-18 16:20:31.15	279.14	14.26	-37.3	-38.3	20.8	0.00e+00	0	40	0	1538260992	44	4160
2026-01-18 16:20:32.75	279.48	14.25	-37.4	-38.3	20.7	0.00e+00	0	40	0	1549795328	44	4173
2026-01-18 16:20:33.32	279.59	14.25	-37.4	-38.4	20.7	0.00e+00	0	40	0	1553989632	44	4195
2026-01-18 16:20:35.23	279.99	14.24	-37.4	-38.3	20.7	0.00e+00	0	40	0	1567621120	44	4191
2026-01-18 16:20:35.79	280.10	14.24	-37.4	-38.4	20.6	0.00e+00	0	40	0	1571815424	44	4203
2026-01-18 16:20:37.50	280.46	14.23	-37.5	-38.4	20.6	0.00e+00	0	40	0	1584398336	44	4239
2026-01-18 16:20:38.07	280.58	14.22	-37.4	-38.3	20.7	0.00e+00	0	40	0	1587544064	44	4179
2026-01-18 16:20:39.77	280.93	14.21	-37.5	-38.5	20.5	0.00e+00	0	40	0	1600126976	44	4267
2026-01-18 16:20:40.34	281.05	14.21	-37.5	-38.4	20.6	0.00e+00	0	40	0	1604321280	44	4232
2026-01-18 16:20:42.03	281.39	14.20	-37.4	-38.4	20.6	0.00e+00	0	40	0	1616904192	44	4200
2026-01-18 16:20:42.60	281.51	14.19	-37.4	-38.4	20.6	0.00e+00	0	40	0	1621098496	44	4201
2026-01-18 16:20:44.46	281.90	14.18	-37.6	-38.5	20.5	0.00e+00	0	40	0	1633681408	44	4282
2026-01-18 16:20:45.03	282.01	14.17	-37.4	-38.3	20.7	0.00e+00	0	40	0	1637875712	44	4182
2026-01-18 16:20:46.74	282.36	14.16	-37.5	-38.4	20.6	0.00e+00	0	40	0	1650458624	44	4217
2026-01-18 16:20:47.42	282.50	14.15	-37.4	-38.3	20.7	0.00e+00	0	40	0	1655701504	44	4190
2026-01-18 16:20:48.84	282.80	14.14	-37.4	-38.4	20.6	0.00e+00	0	40	0	1665138688	44	4209
2026-01-18 16:20:49.55	282.94	14.13	-37.4	-38.3	20.7	0.00e+00	0	40	0	1671430144	44	4172
2026-01-18 16:20:50.83	283.21	14.12	-37.4	-38.3	20.6	0.00e+00	0	40	0	1679818752	44	4190
2026-01-18 16:20:51.65	283.37	14.11	-37.4	-38.3	20.7	0.00e+00	0	40	0	1686110208	44	4182
2026-01-18 16:20:53.10	283.67	14.10	-37.5	-38.4	20.6	0.00e+00	0	40	0	1696595968	44	4226
2026-01-18 16:20:53.81	283.82	14.09	-37.5	-38.5	20.5	0.00e+00	0	40	0	1701838848	44	4253
2026-01-18 16:20:55.09	284.08	14.07	-37.6	-38.5	20.5	0.00e+00	0	40	0	1710227456	44	4277
2026-01-18 16:20:55.80	284.22	14.06	-37.5	-38.4	20.6	0.00e+00	0	40	0	1716518912	44	4225
2026-01-18 16:20:57.08	284.48	14.05	-37.5	-38.4	20.6	0.00e+00	0	40	0	1724907520	44	4213
2026-01-18 16:20:57.81	284.63	14.04	-37.4	-38.4	20.6	0.00e+00	0	40	0	1730150400	44	4209
2026-01-18 16:20:59.08	284.89	14.02	-37.3	-38.2	20.8	0.00e+00	0	40	0	1739587584	44	4138
2026-01-18 16:20:59.81	285.04	14.01	-37.4	-38.4	20.6	0.00e+00	0	40	0	1744830464	44	4200
2026-01-18 16:21:01.09	285.30	14.00	-37.5	-38.4	20.6	0.00e+00	0	40	0	1754267648	44	4229
2026-01-18 16:21:01.81	285.45	13.99	-37.6	-38.5	20.5	0.00e+00	0	40	0	1759510528	44	4272
2026-01-18 16:21:03.09	285.71	13.97	-37.5	-38.4	20.6	0.00e+00	0	40	0	1768947712	44	4240
2026-01-18 16:21:03.80	285.85	13.96	-37.5	-38.4	20.6	0.00e+00	0	40	0	1774190592	44	4220
2026-01-18 16:21:05.10	286.12	13.94	-37.6	-38.5	20.5	0.00e+00	0	40	0	1783627776	44	4281
2026-01-18 16:21:05.81	286.26	13.93	-37.6	-38.5	20.5	0.00e+00	0	40	0	1787822080	44	4266
2026-01-18 16:21:07.09	286.52	13.91	-37.5	-38.4	20.5	0.00e+00	0	40	0	1797259264	44	4239
2026-01-18 16:21:08.15	286.73	13.89	-37.5	-38.4	20.6	0.00e+00	0	40	0	1805647872	44	4235
2026-01-18 16:21:09.33	286.97	13.87	-37.6	-38.6	20.4	0.00e+00	0	41	0	1814036480	44	4297
2026-01-18 16:21:10.33	287.17	13.86	-37.7	-38.6	20.4	0.00e+00	0	40	0	1820327936	44	4313
2026-01-18 16:21:11.32	287.37	13.84	-37.5	-38.5	20.5	0.00e+00	0	40	0	1827667968	44	4244
2026-01-18 16:21:12.52	287.62	13.82	-37.4	-38.3	20.7	0.00e+00	0	40	0	1837105152	44	4165
2026-01-18 16:21:13.38	287.79	13.80	-37.3	-38.2	20.8	0.00e+00	0	41	0	1842348032	44	4126
2026-01-18 16:21:14.51	288.02	13.78	-37.4	-38.4	20.6	0.00e+00	0	41	0	1850736640	44	4205
2026-01-18 16:21:15.37	288.19	13.77	-37.7	-38.6	20.4	0.00e+00	0	40	0	1857028096	44	4311
2026-01-18 16:21:16.50	288.41	13.75	-37.5	-38.5	20.5	0.00e+00	0	40	0	1865416704	44	4245
2026-01-18 16:21:17.36	288.59	13.73	-37.5	-38.5	20.5	0.00e+00	0	40	0	1871708160	44	4262
2026-01-18 16:21:18.49	288.81	13.71	-37.6	-38.5	20.5	0.00e+00	0	40	0	1880096768	44	4278
2026-01-18 16:21:19.35	288.98	13.69	-37.7	-38.7	20.3	0.00e+00	0	40	0	1886388224	45	4116
2026-01-18 16:21:20.49	289.21	13.67	-37.9	-38.8	20.1	0.00e+00	0	40	0	1893728256	45	4180
2026-01-18 16:21:21.34	289.38	13.65	-37.8	-38.8	20.2	0.00e+00	0	40	0	1900019712	45	4164
2026-01-18 16:21:22.47	289.60	13.63	-37.9	-38.9	20.0	0.00e+00	0	40	0	1908408320	45	4233
2026-01-18 16:21:23.33	289.78	13.61	-37.9	-38.9	20.1	0.00e+00	0	40	0	1914699776	45	4208
2026-01-18 16:21:24.47	290.00	13.59	-38.0	-39.0	20.0	0.00e+00	0	40	0	1923088384	45	4270
2026-01-18 16:21:25.32	290.17	13.57	-37.9	-38.8	20.1	0.00e+00	0	40	0	1929379840	45	4186
2026-01-18 16:21:26.46	290.40	13.55	-37.9	-38.9	20.1	0.00e+00	0	40	0	1937768448	45	4208
2026-01-18 16:21:27.31	290.56	13.53	-37.9	-38.8	20.1	0.00e+00	0	40	0	1943011328	45	4191
2026-01-18 16:21:28.65	290.83	13.50	-37.8	-38.8	20.2	0.00e+00	0	40	0	1953497088	45	4151
2026-01-18 16:21:29.36	290.97	13.48	-37.8	-38.7	20.3	0.00e+00	0	40	0	1958739968	45	4135
2026-01-18 16:21:30.64	291.22	13.46	-37.8	-38.7	20.2	0.00e+00	0	40	0	1968177152	45	4136
2026-01-18 16:21:31.36	291.36	13.44	-37.6	-38.5	20.4	0.00e+00	0	40	0	1972371456	45	4038
2026-01-18 16:21:32.63	291.61	13.41	-37.4	-38.4	20.5	0.00e+00	0	40	0	1981808640	45	3966
2026-01-18 16:21:33.34	291.75	13.39	-37.7	-38.6	20.3	0.00e+00	0	40	0	1987051520	45	4092
2026-01-18 16:21:34.62	292.00	13.36	-37.9	-38.8	20.2	0.00e+00	0	40	0	1996488704	45	4178
2026-01-18 16:21:35.35	292.14	13.35	-37.8	-38.7	20.2	0.00e+00	0	41	0	2001731584	45	4141
2026-01-18 16:21:36.63	292.39	13.31	-37.9	-38.9	20.1	0.00e+00	0	40	0	2010120192	45	4223
2026-01-18 16:21:37.34	292.53	13.30	-38.0	-39.0	20.0	0.00e+00	0	40	0	2015363072	45	4272
2026-01-18 16:21:38.62	292.77	13.27	-38.1	-39.1	19.9	0.00e+00	0	40	0	2024800256	45	4302
2026-01-18 16:21:39.33	292.91	13.25	-38.1	-39.1	19.9	0.00e+00	0	40	0	2030043136	45	4311
2026-01-18 16:21:40.61	293.16	13.22	-38.1	-39.1	19.8	0.00e+00	0	40	0	2039480320	45	4328
2026-01-18 16:21:41.65	293.36	13.19	-38.2	-39.2	19.8	0.00e+00	0	40	0	2046820352	46	4105
2026-01-18 16:21:42.94	293.61	13.16	-38.5	-39.5	19.5	0.00e+00	0	40	0	2056257536	46	4263
2026-01-18 16:21:43.69	293.75	13.14	-38.2	-39.2	19.8	0.00e+00	0	40	0	2061500416	46	4099
2026-01-18 16:21:44.96	294.00	13.10	-38.3	-39.3	19.7	0.00e+00	0	40	0	2070937600	46	4169
2026-01-18 16:21:45.68	294.13	13.08	-38.2	-39.2	19.8	0.00e+00	0	40	0	2076180480	46	4136
2026-01-18 16:21:46.96	294.38	13.05	-38.2	-39.2	19.8	0.00e+00	0	40	0	2085617664	46	4122
2026-01-18 16:21:47.68	294.52	13.03	-38.0	-39.0	20.0	0.00e+00	0	41	0	2090860544	46	4017
2026-01-18 16:21:48.96	294.76	12.99	-38.2	-39.2	19.8	0.00e+00	0	40	0	2099249152	46	4124
2026-01-18 16:21:49.69	294.90	12.97	-38.2	-39.2	19.8	0.00e+00	0	40	0	2104492032	46	4135
2026-01-18 16:21:50.97	295.14	12.94	-38.4	-39.5	19.6	0.00e+00	0	40	0	2113929216	46	4246
2026-01-18 16:21:51.69	295.28	12.92	-38.4	-39.4	19.6	0.00e+00	0	40	0	2119172096	46	4229
2026-01-18 16:21:52.97	295.52	12.88	-38.5	-39.5	19.5	0.00e+00	0	40	0	2128609280	46	4270
2026-01-18 16:21:53.70	295.66	12.86	-38.5	-39.6	19.3	0.00e+00	0	40	0	2133852160	46	4308
2026-01-18 16:21:55.04	295.91	12.82	-38.3	-39.3	19.6	0.00e+00	0	40	0	2143289344	46	4187
2026-01-18 16:21:55.75	296.05	12.80	-38.5	-39.5	19.4	0.00e+00	0	40	0	2148532224	46	4276
2026-01-18 16:21:57.03	296.29	12.76	-38.6	-39.7	19.3	0.00e+00	0	40	0	2157969408	46	4343
2026-01-18 16:21:57.74	296.42	12.74	-38.7	-39.7	19.3	0.00e+00	0	41	0	2163212288	46	4360
2026-01-18 16:21:59.14	296.68	12.70	-38.4	-39.4	19.5	0.00e+00	0	40	0	2173698048	46	4240
2026-01-18 16:21:59.86	296.81	12.68	-38.3	-39.3	19.6	0.00e+00	0	41	0	2178940928	46	4192
2026-01-18 16:22:01.20	297.06	12.64	-38.5	-39.5	19.5	0.00e+00	0	40	0	2188378112	46	4269
2026-01-18 16:22:01.91	297.20	12.61	-38.3	-39.3	19.6	0.00e+00	0	40	0	2193620992	46	4191
2026-01-18 16:22:03.19	297.43	12.57	-38.4	-39.4	19.6	0.00e+00	0	41	0	2202009600	46	4213
2026-01-18 16:22:03.92	297.57	12.55	-38.4	-39.5	19.5	0.00e+00	0	40	0	2207252480	46	4251
2026-01-18 16:22:05.20	297.80	12.51	-38.4	-39.4	19.5	0.00e+00	0	40	0	2216689664	46	4232
2026-01-18 16:22:05.91	297.93	12.49	-38.3	-39.3	19.7	0.00e+00	0	40	0	2221932544	46	4157
2026-01-18 16:22:07.19	298.17	12.45	-38.3	-39.3	19.7	0.00e+00	0	40	0	2231369728	46	4162
2026-01-18 16:22:07.95	298.31	12.42	-38.3	-39.3	19.7	0.00e+00	0	41	0	2236612608	46	4186
2026-01-18 16:22:09.23	298.54	12.38	-38.4	-39.4	19.5	0.00e+00	0	41	0	2246049792	46	4229
2026-01-18 16:22:09.95	298.68	12.36	-38.4	-39.4	19.5	0.00e+00	0	40	0	2251292672	46	4235
2026-01-18 16:22:11.23	298.91	12.32	-38.5	-39.5	19.5	0.00e+00	0	41	0	2260729856	46	4276
2026-01-18 16:22:11.94	299.04	12.29	-38.4	-39.4	19.6	0.00e+00	0	40	0	2264924160	46	4202
2026-01-18 16:22:13.22	299.27	12.25	-38.7	-39.7	19.3	0.00e+00	0	41	0	2274361344	46	4354
2026-01-18 16:22:13.96	299.40	12.23	-38.6	-39.7	19.3	0.00e+00	0	41	0	2280652800	46	4352
2026-01-18 16:22:15.24	299.63	12.18	-38.7	-39.7	19.2	0.00e+00	0	40	0	2289041408	46	4363
2026-01-18 16:22:15.96	299.76	12.16	-38.7	-39.8	19.2	0.00e+00	0	41	0	2294284288	46	4402
2026-01-18 16:22:17.24	299.99	12.11	-38.7	-39.7	19.2	0.00e+00	0	41	0	2303721472	47	4137
2026-01-18 16:22:17.95	300.12	12.09	-38.8	-39.8	19.1	0.00e+00	0	41	0	2308964352	47	4189
2026-01-18 16:22:19.23	300.35	12.05	-38.8	-39.8	19.1	0.00e+00	0	41	0	2318401536	47	4182
2026-01-18 16:22:19.94	300.48	12.02	-39.0	-40.0	18.9	0.00e+00	0	41	0	2323644416	47	4278
2026-01-18 16:22:21.22	300.71	11.98	-38.8	-39.8	19.1	0.00e+00	0	41	0	2332033024	47	4193
2026-01-18 16:22:21.93	300.83	11.95	-38.8	-39.9	19.1	0.00e+00	0	40	0	2337275904	47	4204
2026-01-18 16:22:23.21	301.06	11.91	-38.9	-40.0	19.0	0.00e+00	0	40	0	2346713088	47	4258
2026-01-18 16:22:23.94	301.19	11.88	-39.0	-40.1	18.9	0.00e+00	0	40	0	2351955968	47	4304
2026-01-18 16:22:25.22	301.41	11.84	-39.0	-40.0	18.9	0.00e+00	0	41	0	2361393152	47	4267
2026-01-18 16:22:25.94	301.54	11.81	-39.1	-40.2	18.8	0.00e+00	0	41	0	2366636032	47	4362
2026-01-18 16:22:27.22	301.77	11.76	-38.9	-40.0	19.0	0.00e+00	0	40	0	2376073216	47	4257
2026-01-18 16:22:27.93	301.89	11.74	-39.1	-40.1	18.8	0.00e+00	0	41	0	2381316096	47	4333
2026-01-18 16:22:29.21	302.11	11.69	-38.8	-39.9	19.1	0.00e+00	0	40	0	2390753280	47	4194
2026-01-18 16:22:29.93	302.24	11.67	-38.9	-39.9	19.0	0.00e+00	0	40	0	2394947584	47	4238
2026-01-18 16:22:31.21	302.46	11.62	-39.3	-40.3	18.6	0.00e+00	0	41	0	2404384768	47	4432
2026-01-18 16:22:31.93	302.59	11.59	-39.1	-40.2	18.7	0.00e+00	0	40	0	2409627648	47	4365
2026-01-18 16:22:33.20	302.81	11.54	-38.7	-39.8	19.2	0.00e+00	0	40	0	2419064832	47	4155
2026-01-18 16:22:34.17	302.97	11.51	-39.1	-40.1	18.8	0.00e+00	0	41	0	2426404864	47	4334
2026-01-18 16:22:35.17	303.15	11.47	-38.7	-39.7	19.3	0.00e+00	0	41	0	2433744896	47	4111
2026-01-18 16:22:36.16	303.32	11.43	-38.8	-39.8	19.1	0.00e+00	0	41	0	2440036352	47	4176
2026-01-18 16:22:37.16	303.49	11.40	-38.9	-40.0	18.9	0.00e+00	0	40	0	2447376384	47	4268
2026-01-18 16:22:38.15	303.66	11.36	-38.9	-40.0	19.0	0.00e+00	0	40	0	2454716416	47	4243
2026-01-18 16:22:39.15	303.83	11.32	-39.1	-40.1	18.8	0.00e+00	0	41	0	2462056448	47	4335
2026-01-18 16:22:40.14	304.00	11.28	-39.1	-40.1	18.8	0.00e+00	0	41	0	2469396480	47	4330
2026-01-18 16:22:41.15	304.17	11.24	-38.8	-39.9	19.1	0.00e+00	0	41	0	2476736512	47	4205
2026-01-18 16:22:42.14	304.33	11.21	-38.9	-39.9	19.0	0.00e+00	0	40	0	2484076544	47	4239
2026-01-18 16:22:43.22	304.52	11.16	-38.9	-40.0	19.0	0.00e+00	0	40	0	2491416576	47	4268
2026-01-18 16:22:44.10	304.66	11.13	-39.1	-40.2	18.8	0.00e+00	0	41	0	2497708032	47	4350
2026-01-18 16:22:45.41	304.88	11.08	-39.2	-40.3	18.9	0.00e+00	0	40	0	2507145216	48	4163
2026-01-18 16:22:46.12	305.00	11.05	-39.1	-40.1	19.1	0.00e+00	0	40	0	2512388096	48	4080
2026-01-18 16:22:47.40	305.22	11.00	-39.2	-40.2	18.9	0.00e+00	0	41	0	2521825280	48	4138
2026-01-18 16:22:48.14	305.34	10.97	-39.1	-40.2	19.0	0.00e+00	0	40	0	2527068160	48	4112
2026-01-18 16:22:49.42	305.55	10.92	-39.0	-40.0	19.1	0.00e+00	0	41	0	2536505344	48	4044
2026-01-18 16:22:50.15	305.67	10.89	-38.8	-39.8	19.4	0.00e+00	0	40	0	2541748224	48	3936
2026-01-18 16:22:51.42	305.88	10.84	-39.0	-40.0	19.1	0.00e+00	0	41	0	2550136832	48	4030
2026-01-18 16:22:52.13	306.00	10.81	-39.2	-40.3	18.9	0.00e+00	0	40	0	2555379712	48	4164
2026-01-18 16:22:53.41	306.21	10.76	-39.2	-40.2	18.9	0.00e+00	0	40	0	2564816896	48	4144
2026-01-18 16:22:54.15	306.33	10.73	-39.2	-40.2	18.9	0.00e+00	0	40	0	2570059776	48	4138
2026-01-18 16:22:55.81	306.60	10.66	-39.1	-40.1	19.0	0.00e+00	0	41	0	2582642688	48	4087
2026-01-18 16:22:56.38	306.70	10.64	-39.4	-40.5	18.6	0.00e+00	0	41	0	2585788416	48	4277
2026-01-18 16:22:58.08	306.97	10.57	-39.2	-40.3	18.9	0.00e+00	0	41	0	2598371328	48	4168
2026-01-18 16:22:58.75	307.08	10.54	-39.4	-40.4	18.7	0.00e+00	0	40	0	2603614208	48	4242
2026-01-18 16:23:00.17	307.31	10.48	-39.4	-40.4	18.7	0.00e+00	0	40	0	2614099968	48	4240
2026-01-18 16:23:00.88	307.42	10.45	-39.5	-40.6	18.5	0.00e+00	0	41	0	2618294272	48	4335
2026-01-18 16:23:02.16	307.63	10.40	-39.7	-40.8	18.3	0.00e+00	0	41	0	2627731456	48	4417
2026-01-18 16:23:02.89	307.75	10.37	-39.7	-40.8	18.3	0.00e+00	0	41	0	2632974336	48	4418
2026-01-18 16:23:04.17	307.95	10.32	-39.5	-40.6	18.5	0.00e+00	0	41	0	2642411520	49	4088
2026-01-18 16:23:04.88	308.06	10.29	-39.8	-40.9	18.2	0.00e+00	0	41	0	2647654400	49	4233
2026-01-18 16:23:06.16	308.27	10.23	-39.5	-40.6	18.5	0.00e+00	0	40	0	2657091584	49	4065
2026-01-18 16:23:06.87	308.38	10.21	-39.2	-40.3	18.8	0.00e+00	0	40	0	2662334464	49	3938
2026-01-18 16:23:08.20	308.59	10.15	-39.3	-40.4	18.7	0.00e+00	0	41	0	2671771648	49	3986
2026-01-18 16:23:08.91	308.70	10.12	-39.4	-40.5	18.6	0.00e+00	0	41	0	2677014528	49	4029
2026-01-18 16:23:10.19	308.90	10.06	-39.7	-40.8	18.3	0.00e+00	0	41	0	2685403136	49	4156
2026-01-18 16:23:11.25	309.07	10.02	-39.4	-40.4	18.7	0.00e+00	0	41	0	2693791744	49	3999
2026-01-18 16:23:12.11	309.20	9.98	-39.6	-40.7	18.4	0.00e+00	0	40	0	2700083200	49	4115
2026-01-18 16:23:13.25	309.38	9.93	-39.7	-40.8	18.3	0.00e+00	0	40	0	2708471808	49	4192
2026-01-18 16:23:14.11	309.51	9.90	-39.4	-40.5	18.6	0.00e+00	0	41	0	2714763264	49	4008
2026-01-18 16:23:15.24	309.69	9.85	-39.3	-40.3	18.7	0.00e+00	0	41	0	2723151872	49	3958
2026-01-18 16:23:16.10	309.82	9.81	-39.4	-40.5	18.6	0.00e+00	0	41	0	2728394752	49	4012
2026-01-18 16:23:17.23	309.99	9.76	-40.0	-41.1	18.0	0.00e+00	0	41	0	2736783360	49	4338
2026-01-18 16:23:18.08	310.12	9.73	-39.6	-40.7	18.3	0.00e+00	0	41	0	2743074816	49	4127
2026-01-18 16:23:19.22	310.30	9.68	-39.5	-40.6	18.5	0.00e+00	0	41	0	2751463424	49	4093
2026-01-18 16:23:20.07	310.43	9.64	-39.6	-40.7	18.3	0.00e+00	0	41	0	2757754880	49	4136
2026-01-18 16:23:21.21	310.60	9.59	-39.8	-40.9	18.2	0.00e+00	0	41	0	2766143488	49	4208
2026-01-18 16:23:22.06	310.73	9.55	-39.7	-40.9	18.2	0.00e+00	0	41	0	2771386368	49	4199
2026-01-18 16:23:23.56	310.95	9.49	-39.8	-40.9	18.2	0.00e+00	0	41	0	2782920704	49	4206
2026-01-18 16:23:24.27	311.06	9.46	-39.8	-40.9	18.1	0.00e+00	0	41	0	2788163584	49	4225
2026-01-18 16:23:25.75	311.28	9.39	-39.7	-40.8	18.3	0.00e+00	0	41	0	2798649344	49	4164
2026-01-18 16:23:26.46	311.39	9.36	-39.7	-40.8	18.3	0.00e+00	0	41	0	2803892224	49	4179
2026-01-18 16:23:27.81	311.59	9.30	-39.3	-40.4	18.6	0.00e+00	0	41	0	2813329408	49	3994
2026-01-18 16:23:28.52	311.70	9.27	-39.3	-40.4	18.7	0.00e+00	0	41	0	2818572288	48	4229
2026-01-18 16:23:29.80	311.89	9.21	-40.1	-41.3	17.8	0.00e+00	0	41	0	2828009472	49	4418
2026-01-18 16:23:30.52	311.99	9.18	-39.7	-40.8	18.3	0.00e+00	0	41	0	2833252352	49	4154
2026-01-18 16:23:31.80	312.18	9.12	-40.0	-41.1	17.9	0.00e+00	0	41	0	2842689536	49	4325
2026-01-18 16:23:32.52	312.29	9.09	-39.6	-40.8	18.3	0.00e+00	0	41	0	2846883840	49	4148
2026-01-18 16:23:33.80	312.47	9.03	-39.6	-40.7	18.4	0.00e+00	0	41	0	2856321024	49	4119
2026-01-18 16:23:34.51	312.58	9.00	-41.0	-42.3	16.9	0.00e+00	0	41	0	2861563904	51	4417
2026-01-18 16:23:35.79	312.76	8.94	-49.5	-60.6	3.8	8.47e-01	0	41	104	2863661056	68	13597
2026-01-18 16:23:36.50	312.87	8.91	-50.0	-60.8	3.8	8.46e-01	0	41	104	2863661056	69	13147
2026-01-18 16:23:37.78	313.05	8.86	-50.1	-60.9	3.8	8.47e-01	0	41	104	2863661056	69	13322
2026-01-18 16:23:38.49	313.16	8.82	-50.1	-61.1	3.8	8.47e-01	0	41	104	2863661056	69	13592
2026-01-18 16:23:39.76	313.34	8.77	-50.1	-61.1	3.8	8.47e-01	0	41	104	2863661056	70	12862
2026-01-18 16:23:40.47	313.44	8.73	-49.9	-61.1	3.8	8.46e-01	0	41	104	2863661056	70	12959
2026-01-18 16:23:41.75	313.62	8.68	-50.3	-61.2	3.8	8.47e-01	0	41	104	2863661056	70	13038
2026-01-18 16:23:42.47	313.73	8.64	-50.2	-61.1	3.8	8.46e-01	0	41	104	2863661056	70	12926
2026-01-18 16:23:43.75	313.91	8.59	-50.6	-61.2	3.8	8.46e-01	0	41	104	2863661056	70	13062
2026-01-18 16:23:44.46	314.01	8.55	-50.5	-61.2	3.8	8.46e-01	0	41	104	2863661056	70	12973
2026-01-18 16:23:45.74	314.19	8.49	-50.5	-61.2	3.8	8.47e-01	0	41	104	2863661056	70	13041
2026-01-18 16:23:46.45	314.29	8.46	-50.6	-61.2	3.8	8.47e-01	0	41	104	2863661056	70	13053
2026-01-18 16:23:47.73	314.47	8.40	-50.4	-61.3	3.8	8.47e-01	0	41	104	2863661056	70	13124
2026-01-18 16:23:48.45	314.57	8.37	-50.5	-61.1	3.8	8.46e-01	0	41	104	2863661056	70	12927
2026-01-18 16:23:49.73	314.75	8.31	-50.5	-61.2	3.8	8.47e-01	0	41	104	2863661056	70	13046
2026-01-18 16:23:50.44	314.85	8.28	-50.4	-61.2	3.8	8.48e-01	0	41	104	2863661056	70	13003
2026-01-18 16:23:51.72	315.03	8.22	-50.4	-61.2	3.8	8.46e-01	0	41	104	2863661056	70	13032
2026-01-18 16:23:52.43	315.12	8.19	-50.4	-61.2	3.8	8.46e-01	0	41	104	2863661056	70	13013
2026-01-18 16:23:53.70	315.30	8.13	-50.3	-61.2	3.8	8.47e-01	0	41	104	2863661056	70	13068
2026-01-18 16:23:54.41	315.40	8.10	-50.3	-61.1	3.8	8.48e-01	0	41	104	2863661056	70	12899
2026-01-18 16:23:55.69	315.57	8.04	-50.1	-61.1	3.8	8.46e-01	0	41	104	2863661056	70	12838
2026-01-18 16:23:56.40	315.67	8.01	-50.1	-61.1	3.8	8.48e-01	0	41	104	2863661056	70	12885
2026-01-18 16:23:57.71	315.85	7.95	-50.1	-61.1	3.8	8.47e-01	0	41	104	2863661056	70	12871
2026-01-18 16:23:58.42	315.94	7.91	-50.1	-61.1	3.8	8.46e-01	0	41	104	2863661056	70	12813
2026-01-18 16:23:59.69	316.12	7.85	-50.1	-61.1	3.8	8.47e-01	0	41	104	2863661056	70	12872
2026-01-18 16:24:00.40	316.21	7.82	-50.1	-61.1	3.8	8.47e-01	0	41	104	2863661056	70	12874
2026-01-18 16:24:01.68	316.38	7.76	-50.1	-61.1	3.8	8.47e-01	0	41	104	2863661056	70	12859
2026-01-18 16:24:02.41	316.48	7.73	-50.1	-61.1	3.8	8.47e-01	0	41	104	2863661056	70	12859
2026-01-18 16:24:03.68	316.65	7.67	-50.1	-61.1	3.8	8.46e-01	0	41	104	2863661056	70	12928
2026-01-18 16:24:04.39	316.75	7.64	-50.1	-61.1	3.8	8.47e-01	0	41	104	2863661056	70	12939
2026-01-18 16:24:05.67	316.92	7.58	-50.1	-61.1	3.8	8.47e-01	0	41	104	2863661056	70	12877
2026-01-18 16:24:06.38	317.01	7.54	-50.1	-61.1	3.8	8.48e-01	0	41	104	2863661056	70	12857
2026-01-18 16:24:07.66	317.18	7.48	-50.1	-61.1	3.8	8.46e-01	0	41	104	2863661056	70	12889
2026-01-18 16:24:08.37	317.27	7.45	-50.1	-61.1	3.8	8.47e-01	0	41	104	2863661056	70	12842
2026-01-18 16:24:09.64	317.44	7.39	-50.1	-61.1	3.8	8.46e-01	0	41	104	2863661056	70	12894
2026-01-18 16:24:10.35	317.53	7.36	-50.1	-61.1	3.8	8.46e-01	0	41	104	2863661056	70	12858
2026-01-18 16:24:11.63	317.70	7.30	-50.1	-61.1	3.8	8.46e-01	0	41	104	2863661056	70	12820
2026-01-18 16:24:12.37	317.80	7.26	-50.1	-61.1	3.8	8.47e-01	0	41	104	2863661056	70	12857
2026-01-18 16:24:13.65	317.96	7.20	-50.1	-61.1	3.8	8.46e-01	0	41	104	2863661056	70	12871
2026-01-18 16:24:14.36	318.05	7.17	-50.1	-61.0	3.8	8.47e-01	0	41	104	2863661056	70	12777
2026-01-18 16:24:15.63	318.22	7.11	-50.1	-61.0	3.8	8.47e-01	0	41	104	2863661056	70	12778
2026-01-18 16:24:16.36	318.31	7.08	-50.1	-61.0	3.8	8.48e-01	0	41	104	2863661056	70	12794
2026-01-18 16:24:17.64	318.48	7.01	-50.1	-61.1	3.8	8.49e-01	0	41	104	2863661056	70	12860
2026-01-18 16:24:18.36	318.57	6.98	-50.1	-61.0	3.8	8.48e-01	0	41	104	2863661056	70	12764
2026-01-18 16:24:19.64	318.73	6.92	-50.1	-61.0	3.8	8.47e-01	0	41	104	2863661056	70	12796
2026-01-18 16:24:20.35	318.82	6.89	-50.1	-61.1	3.8	8.46e-01	0	41	104	2863661056	70	12818
2026-01-18 16:24:21.64	318.98	6.83	-50.1	-61.0	3.8	8.47e-01	0	41	104	2863661056	70	12750
2026-01-18 16:24:22.35	319.07	6.79	-50.1	-61.0	3.8	8.48e-01	0	41	104	2863661056	70	12726
2026-01-18 16:24:23.62	319.23	6.73	-50.1	-61.0	3.8	8.48e-01	0	41	104	2863661056	70	12755
2026-01-18 16:24:24.33	319.32	6.70	-50.1	-61.1	3.8	8.46e-01	0	41	104	2863661056	70	12811
2026-01-18 16:24:25.61	319.48	6.64	-50.1	-61.1	3.8	8.46e-01	0	41	104	2863661056	70	12827
2026-01-18 16:24:26.34	319.57	6.60	-50.1	-61.0	3.8	8.48e-01	0	41	104	2863661056	70	12800
2026-01-18 16:24:27.62	319.73	6.54	-50.1	-61.0	3.8	8.47e-01	0	41	104	2863661056	70	12803
2026-01-18 16:24:28.33	319.82	6.51	-50.1	-61.1	3.8	8.46e-01	0	41	104	2863661056	70	12883
2026-01-18 16:24:29.60	319.98	6.45	-50.1	-61.0	3.8	8.48e-01	0	41	104	2863661056	70	12790
2026-01-18 16:24:30.33	320.07	6.42	-50.1	-61.1	3.8	8.48e-01	0	41	104	2863661056	70	12882
2026-01-18 16:24:31.60	320.22	6.36	-50.1	-61.0	3.8	8.46e-01	0	41	104	2863661056	70	12791
2026-01-18 16:24:32.33	320.31	6.32	-50.1	-61.1	3.8	8.48e-01	0	41	104	2863661056	70	12845
2026-01-18 16:24:33.61	320.47	6.26	-50.1	-61.0	3.8	8.46e-01	0	41	104	2863661056	70	12781
2026-01-18 16:24:34.31	320.55	6.23	-50.1	-61.0	3.8	8.46e-01	0	41	104	2863661056	70	12807
2026-01-18 16:24:35.59	320.71	6.17	-50.1	-61.1	3.8	8.46e-01	0	41	104	2863661056	70	12831
2026-01-18 16:24:36.30	320.79	6.13	-50.1	-61.1	3.8	8.46e-01	0	41	104	2863661056	70	12876
2026-01-18 16:24:37.58	320.95	6.07	-50.1	-61.0	3.8	8.46e-01	0	41	104	2863661056	70	12786
2026-01-18 16:24:38.29	321.03	6.04	-50.1	-61.0	3.8	8.46e-01	0	41	104	2863661056	70	12799
2026-01-18 16:24:39.56	321.18	5.98	-50.1	-61.0	3.8	8.48e-01	0	41	104	2863661056	70	12794
2026-01-18 16:24:40.27	321.27	5.94	-50.1	-61.1	3.8	8.47e-01	0	41	104	2863661056	70	12817
2026-01-18 16:24:41.55	321.42	5.88	-50.1	-61.0	3.8	8.47e-01	0	41	104	2863661056	70	12704
2026-01-18 16:24:42.27	321.51	5.85	-50.1	-61.1	3.8	8.46e-01	0	41	104	2863661056	70	12865
2026-01-18 16:24:43.55	321.66	5.79	-50.1	-61.1	3.8	8.47e-01	0	41	104	2863661056	70	12854
2026-01-18 16:24:44.26	321.74	5.75	-50.1	-61.0	3.8	8.46e-01	0	41	104	2863661056	70	12724
2026-01-18 16:24:45.54	321.89	5.69	-50.1	-61.1	3.8	8.46e-01	0	41	104	2863661056	70	12828
2026-01-18 16:24:46.26	321.98	5.66	-50.1	-61.1	3.8	8.47e-01	0	41	104	2863661056	70	12829
2026-01-18 16:24:47.54	322.12	5.60	-50.1	-61.1	3.8	8.46e-01	0	41	104	2863661056	70	12843
2026-01-18 16:24:48.26	322.21	5.56	-50.1	-61.0	3.8	8.47e-01	0	41	104	2863661056	70	12720
2026-01-18 16:24:49.54	322.36	5.50	-50.1	-61.0	3.8	8.46e-01	0	41	104	2863661056	70	12799
2026-01-18 16:24:50.25	322.44	5.47	-50.1	-61.1	3.8	8.47e-01	0	41	104	2863661056	70	12814
2026-01-18 16:24:51.53	322.59	5.41	-50.1	-61.0	3.8	8.46e-01	0	41	104	2863661056	70	12801
2026-01-18 16:24:52.24	322.67	5.37	-50.1	-61.0	3.8	8.46e-01	0	41	104	2863661056	70	12804
2026-01-18 16:24:53.51	322.81	5.31	-50.1	-61.1	3.8	8.46e-01	0	41	104	2863661056	70	12822
2026-01-18 16:24:54.24	322.90	5.28	-50.1	-61.0	3.8	8.47e-01	0	41	104	2863661056	70	12782
2026-01-18 16:24:55.52	323.04	5.22	-50.1	-61.1	3.8	8.47e-01	0	41	104	2863661056	70	12832
2026-01-18 16:24:56.24	323.12	5.18	-50.1	-61.1	3.8	8.47e-01	0	41	104	2863661056	70	12846
2026-01-18 16:24:57.52	323.27	5.12	-50.1	-61.1	3.8	8.47e-01	0	41	104	2863661056	70	12836
2026-01-18 16:24:58.24	323.35	5.09	-50.1	-61.0	3.8	8.47e-01	0	41	104	2863661056	70	12739
2026-01-18 16:24:59.52	323.49	5.03	-50.1	-61.0	3.8	8.46e-01	0	41	104	2863661056	70	12753
2026-01-18 16:25:00.24	323.57	4.99	-50.1	-61.0	3.8	8.47e-01	0	41	104	2863661056	70	12783

#Closed at: 2026-01-18 16:25:01
#Recorded file [2863 MB]: D:/Data/31040_260118_191542.dat