passes_logs/2026/01/18/T1/T1__20260118_094000_NOAA_21_JPSS-2_rec.log

#Pass ID: 20260118_094000_NOAA 21 (JPSS-2)
#Satellite: NOAA 21 (JPSS-2)
#Configuration: NOAA 21
#almurnet v.1.7.20251203
#Start time: 2026-01-18 09:40:01

#Version: 2.0.20230620
#Station: T1
#Location: 37.570604 lon 55.790049 lat
#TLE: 1 54234U 22150A   26017.62066529  .00000042  00000+0  40984-4 0  9994
#TLE: 2 54234  98.7502 318.4887 0000613 271.5460  88.5645 14.19535234165189

#Time	Az	El	Level	Level2	SNR	BER	BlckErr	Temp	State	Recorded	gain1	gain2
2026-01-18 09:40:01.83	152.10	5.13	-48.5	-61.3	3.8	1.49e+00	0	37	0	0	68	15828
2026-01-18 09:40:02.82	152.08	5.20	-48.5	-61.4	3.8	1.49e+00	0	37	104	0	69	15155
2026-01-18 09:40:03.81	152.07	5.27	-48.5	-61.5	3.8	1.49e+00	0	37	104	0	69	15267
2026-01-18 09:40:04.81	152.06	5.35	-48.5	-61.5	3.8	1.49e+00	0	38	104	0	69	15366
2026-01-18 09:40:05.80	152.05	5.42	-48.5	-61.6	3.8	1.49e+00	0	37	104	0	69	15417
2026-01-18 09:40:06.80	152.03	5.49	-48.5	-61.6	3.8	1.49e+00	0	37	104	0	69	15547
2026-01-18 09:40:07.79	152.02	5.56	-48.5	-61.6	3.8	1.49e+00	0	38	104	0	69	15493
2026-01-18 09:40:08.78	152.01	5.63	-48.5	-61.5	3.8	1.49e+00	0	38	104	0	69	15344
2026-01-18 09:40:09.78	151.99	5.71	-48.5	-61.3	3.8	1.49e+00	0	38	104	0	69	15020
2026-01-18 09:40:10.77	151.98	5.78	-48.5	-61.1	3.8	1.49e+00	0	38	104	0	68	15460
2026-01-18 09:40:11.76	151.97	5.85	-48.4	-60.9	3.8	1.49e+00	0	38	104	0	68	15085
2026-01-18 09:40:12.75	151.95	5.93	-48.4	-60.6	3.8	1.49e+00	0	38	104	0	68	14661
2026-01-18 09:40:13.75	151.94	6.00	-48.4	-60.3	3.8	1.49e+00	0	38	104	0	68	14195
2026-01-18 09:40:14.74	151.93	6.07	-48.4	-60.3	3.8	1.49e+00	0	38	104	0	68	14082
2026-01-18 09:40:15.73	151.91	6.15	-48.4	-60.1	3.8	1.49e+00	0	38	104	0	68	13824
2026-01-18 09:40:16.73	151.90	6.22	-48.4	-60.4	3.8	1.49e+00	0	38	104	0	68	14281
2026-01-18 09:40:17.72	151.89	6.30	-48.4	-60.4	3.8	1.49e+00	0	38	104	0	68	14353
2026-01-18 09:40:18.71	151.87	6.37	-48.4	-60.6	3.8	1.49e+00	0	38	104	0	68	14625
2026-01-18 09:40:19.71	151.86	6.45	-48.5	-61.0	3.8	1.49e+00	0	38	104	0	68	15400
2026-01-18 09:40:20.70	151.84	6.52	-48.5	-61.3	3.8	1.49e+00	0	38	104	0	68	15895
2026-01-18 09:40:21.69	151.83	6.60	-48.5	-61.6	3.8	1.49e+00	0	38	104	0	68	16341
2026-01-18 09:40:22.69	151.81	6.67	-48.5	-61.7	3.8	1.49e+00	0	38	104	0	68	16582
2026-01-18 09:40:23.68	151.80	6.75	-48.5	-61.7	3.8	1.49e+00	0	38	104	0	68	16504
2026-01-18 09:40:24.67	151.79	6.83	-48.5	-61.5	3.8	1.49e+00	0	38	104	0	68	16224
2026-01-18 09:40:25.67	151.77	6.90	-48.5	-61.3	3.8	1.49e+00	0	38	104	0	68	15768
2026-01-18 09:40:26.66	151.76	6.98	-48.4	-61.0	3.8	1.49e+00	0	38	104	0	68	15240
2026-01-18 09:40:27.65	151.74	7.06	-48.4	-60.6	3.8	1.49e+00	0	38	104	0	68	14543
2026-01-18 09:40:28.65	151.73	7.13	-48.3	-60.1	3.8	1.49e+00	0	38	104	0	68	13734
2026-01-18 09:40:29.64	151.71	7.21	-48.3	-59.1	4.0	1.49e+00	0	38	104	0	68	12276
2026-01-18 09:40:30.63	151.70	7.29	-48.1	-57.9	4.2	1.47e+00	0	39	104	0	68	10666
2026-01-18 09:40:31.63	151.68	7.36	-47.8	-57.1	4.0	1.23e+00	0	38	104	0	67	10381
2026-01-18 09:40:32.62	151.67	7.44	-47.4	-54.8	5.7	5.10e-01	0	39	0	0	66	8391
2026-01-18 09:40:33.61	151.65	7.52	-47.0	-53.3	6.9	2.04e-01	0	38	0	0	66	7089
2026-01-18 09:40:34.61	151.64	7.60	-46.4	-51.7	8.4	5.67e-02	0	39	0	0	64	6609
2026-01-18 09:40:35.60	151.62	7.68	-45.9	-50.4	9.9	1.20e-02	0	38	0	0	63	6020
2026-01-18 09:40:36.59	151.61	7.76	-45.3	-49.1	11.2	2.95e-03	0	39	0	0	62	5514
2026-01-18 09:40:37.59	151.59	7.84	-44.8	-48.3	12.1	3.89e-04	0	39	0	0	61	5280
2026-01-18 09:40:38.58	151.57	7.92	-44.1	-47.2	13.2	4.11e-05	0	39	0	0	60	4934
2026-01-18 09:40:39.57	151.56	7.99	-43.7	-46.6	13.8	5.30e-06	0	39	0	0	59	4873
2026-01-18 09:40:40.57	151.54	8.07	-43.2	-45.9	14.6	7.00e-07	0	39	0	0	58	4765
2026-01-18 09:40:41.56	151.53	8.15	-42.8	-45.4	15.0	0.00e+00	0	39	0	0	57	4771
2026-01-18 09:40:42.55	151.51	8.23	-42.6	-45.0	15.3	0.00e+00	0	39	0	0	57	4597
2026-01-18 09:40:43.55	151.49	8.32	-42.6	-45.1	15.3	0.00e+00	0	39	0	0	57	4628
2026-01-18 09:40:44.54	151.48	8.40	-42.4	-44.9	15.5	0.00e+00	0	39	0	0	56	4765
2026-01-18 09:40:45.53	151.46	8.48	-42.7	-45.2	15.2	0.00e+00	0	39	0	0	56	4974
2026-01-18 09:40:46.53	151.45	8.56	-43.0	-45.7	14.8	0.00e+00	0	39	0	0	56	5223
2026-01-18 09:40:47.52	151.43	8.64	-43.4	-46.1	14.2	7.00e-07	0	39	0	0	57	5213
2026-01-18 09:40:48.52	151.41	8.72	-43.9	-46.9	13.5	6.80e-06	0	39	0	0	58	5351
2026-01-18 09:40:49.51	151.40	8.81	-44.6	-47.9	12.4	1.02e-04	0	39	0	0	59	5720
2026-01-18 09:40:50.50	151.38	8.89	-45.2	-49.0	11.4	5.23e-04	0	39	0	0	60	6084
2026-01-18 09:40:51.49	151.36	8.97	-45.9	-50.2	10.1	4.03e-03	0	39	0	0	62	6268
2026-01-18 09:40:52.49	151.34	9.05	-45.6	-49.7	10.6	2.06e-02	0	39	0	0	63	5592
2026-01-18 09:40:53.48	151.33	9.14	-46.3	-51.3	9.2	2.26e-03	0	39	0	0	63	6661
2026-01-18 09:40:54.48	151.31	9.22	-45.9	-51.2	8.5	4.46e-01	0	39	0	0	64	6274
2026-01-18 09:40:55.47	151.29	9.30	-43.8	-46.6	13.7	1.82e-03	0	39	0	0	59	4904
2026-01-18 09:40:56.47	151.27	9.39	-44.3	-47.4	11.6	0.00e+00	0	39	0	0	59	5399
2026-01-18 09:40:57.46	151.26	9.47	-46.8	-53.1	4.5	1.48e+00	0	39	104	0	65	7294
2026-01-18 09:40:58.46	151.24	9.56	-41.2	-43.3	17.0	0.00e+00	0	39	0	0	54	4491
2026-01-18 09:40:59.45	151.22	9.64	-40.9	-42.9	17.4	0.00e+00	0	39	0	0	53	4536
2026-01-18 09:41:00.45	151.20	9.73	-40.6	-42.6	17.7	0.00e+00	0	39	0	0	53	4357
2026-01-18 09:41:01.44	151.18	9.81	-40.7	-42.7	17.6	0.00e+00	0	39	0	0	53	4432
2026-01-18 09:41:02.44	151.17	9.90	-40.5	-42.5	17.8	4.56e-03	0	39	0	0	52	4567
2026-01-18 09:41:03.46	151.15	9.99	-40.7	-42.7	17.6	0.00e+00	0	39	0	0	52	4666
2026-01-18 09:41:04.46	151.13	10.08	-40.4	-42.3	17.9	0.00e+00	0	39	0	0	52	4482
2026-01-18 09:41:05.45	151.11	10.16	-40.3	-42.2	18.1	5.11e-05	0	39	0	0	52	4427
2026-01-18 09:41:06.45	151.09	10.25	-40.0	-41.9	18.4	0.00e+00	0	39	0	0	52	4263
2026-01-18 09:41:07.44	151.07	10.34	-40.1	-42.0	18.2	0.00e+00	0	39	0	0	52	4307
2026-01-18 09:41:08.44	151.05	10.42	-40.2	-42.1	18.2	0.00e+00	0	39	0	0	52	4373
2026-01-18 09:41:09.43	151.03	10.51	-40.1	-42.0	18.3	0.00e+00	0	39	0	0	52	4294
2026-01-18 09:41:10.43	151.01	10.60	-40.0	-41.9	18.4	0.00e+00	0	39	0	0	52	4261
2026-01-18 09:41:11.42	150.99	10.69	-40.0	-41.9	18.3	0.00e+00	0	39	0	0	52	4283
2026-01-18 09:41:12.41	150.97	10.78	-40.1	-42.0	18.3	0.00e+00	0	39	0	0	52	4292
2026-01-18 09:41:13.41	150.95	10.87	-40.0	-41.9	18.4	0.00e+00	0	39	0	0	52	4261
2026-01-18 09:41:14.40	150.93	10.96	-40.1	-42.0	18.3	0.00e+00	0	39	0	0	52	4293
2026-01-18 09:41:15.39	150.91	11.05	-40.0	-41.8	18.5	0.00e+00	0	39	0	0	51	4489
2026-01-18 09:41:16.39	150.89	11.14	-39.9	-41.8	18.6	0.00e+00	0	39	0	0	51	4474
2026-01-18 09:41:17.39	150.87	11.23	-40.1	-42.0	18.4	0.00e+00	0	39	0	0	51	4551
2026-01-18 09:41:18.38	150.85	11.32	-39.9	-41.8	18.6	0.00e+00	0	39	0	0	51	4457
2026-01-18 09:41:19.38	150.83	11.41	-40.0	-41.8	18.5	0.00e+00	0	39	0	0	51	4483
2026-01-18 09:41:20.37	150.81	11.50	-39.8	-41.7	18.7	0.00e+00	0	40	0	0	51	4420
2026-01-18 09:41:21.36	150.79	11.59	-39.9	-41.7	18.6	0.00e+00	0	40	0	0	51	4435
2026-01-18 09:41:22.44	150.77	11.69	-39.7	-41.6	18.8	0.00e+00	0	39	0	0	51	4359
2026-01-18 09:41:23.32	150.75	11.78	-39.8	-41.7	18.7	0.00e+00	0	39	0	0	51	4412
2026-01-18 09:41:24.46	150.72	11.88	-39.8	-41.7	18.6	0.00e+00	0	40	0	0	51	4423
2026-01-18 09:41:25.31	150.71	11.96	-39.7	-41.5	18.8	0.00e+00	0	39	0	0	51	4338
2026-01-18 09:41:26.45	150.68	12.07	-39.8	-41.6	18.7	0.00e+00	0	40	0	0	51	4381
2026-01-18 09:41:27.30	150.66	12.15	-39.8	-41.7	18.7	0.00e+00	0	39	0	0	51	4410
2026-01-18 09:41:28.44	150.64	12.26	-39.7	-41.6	18.8	0.00e+00	0	39	0	0	51	4366
2026-01-18 09:41:29.29	150.62	12.34	-39.8	-41.7	18.7	0.00e+00	0	39	0	0	51	4417
2026-01-18 09:41:30.43	150.59	12.45	-39.7	-41.6	18.8	0.00e+00	0	39	0	0	51	4362
2026-01-18 09:41:31.28	150.57	12.53	-39.6	-41.5	18.9	0.00e+00	0	39	0	0	51	4298
2026-01-18 09:41:32.42	150.55	12.64	-39.7	-41.5	18.8	0.00e+00	0	40	0	0	51	4337
2026-01-18 09:41:33.27	150.53	12.72	-39.7	-41.5	18.9	0.00e+00	0	40	0	0	51	4309
2026-01-18 09:41:34.44	150.50	12.84	-39.5	-41.3	19.1	0.00e+00	0	40	0	0	50	4454
2026-01-18 09:41:35.30	150.48	12.92	-39.4	-41.2	19.1	0.00e+00	0	40	0	0	50	4427
2026-01-18 09:41:36.48	150.45	13.04	-39.4	-41.2	19.2	0.00e+00	0	40	0	0	50	4414
2026-01-18 09:41:37.34	150.43	13.12	-39.5	-41.3	19.1	0.00e+00	0	39	0	0	50	4471
2026-01-18 09:41:38.47	150.41	13.23	-39.4	-41.2	19.1	0.00e+00	0	40	0	0	50	4438
2026-01-18 09:41:39.33	150.38	13.32	-39.4	-41.2	19.1	0.00e+00	0	40	0	0	50	4422
2026-01-18 09:41:40.46	150.36	13.43	-39.4	-41.2	19.2	0.00e+00	0	40	0	0	50	4402
2026-01-18 09:41:41.31	150.34	13.52	-39.4	-41.2	19.2	0.00e+00	0	39	0	0	50	4410
2026-01-18 09:41:42.45	150.31	13.63	-39.4	-41.1	19.2	0.00e+00	0	39	0	0	50	4386
2026-01-18 09:41:43.30	150.29	13.72	-39.3	-41.1	19.2	0.00e+00	0	40	0	0	50	4379
2026-01-18 09:41:44.44	150.26	13.83	-39.3	-41.1	19.3	0.00e+00	0	40	0	0	50	4347
2026-01-18 09:41:45.29	150.24	13.92	-39.3	-41.1	19.3	0.00e+00	0	40	0	0	50	4373
2026-01-18 09:41:46.43	150.21	14.03	-39.3	-41.0	19.3	0.00e+00	0	40	0	0	50	4333
2026-01-18 09:41:47.28	150.19	14.12	-39.2	-41.0	19.4	0.00e+00	0	40	0	0	50	4302
2026-01-18 09:41:48.42	150.16	14.24	-39.3	-41.1	19.3	0.00e+00	0	40	0	0	50	4376
2026-01-18 09:41:49.27	150.14	14.33	-39.2	-41.0	19.4	0.00e+00	0	40	0	0	50	4307
2026-01-18 09:41:50.41	150.11	14.44	-39.2	-41.0	19.4	0.00e+00	0	40	0	0	50	4300
2026-01-18 09:41:51.26	150.08	14.53	-39.2	-41.0	19.4	0.00e+00	0	40	0	0	50	4297
2026-01-18 09:41:52.40	150.05	14.65	-39.2	-41.0	19.4	0.00e+00	0	40	0	0	50	4320
2026-01-18 09:41:53.25	150.03	14.74	-39.3	-41.1	19.3	0.00e+00	0	40	0	0	50	4343
2026-01-18 09:41:54.40	150.00	14.86	-39.2	-41.0	19.4	0.00e+00	0	39	0	0	50	4299
2026-01-18 09:41:55.26	149.98	14.95	-39.1	-40.9	19.4	0.00e+00	0	40	0	0	50	4276
2026-01-18 09:41:56.39	149.95	15.07	-39.2	-41.0	19.5	0.00e+00	0	40	0	0	50	4292
2026-01-18 09:41:57.25	149.92	15.17	-39.2	-41.0	19.5	0.00e+00	0	40	0	0	50	4299
2026-01-18 09:41:58.51	149.89	15.30	-39.2	-41.0	19.4	0.00e+00	0	40	0	0	50	4329
2026-01-18 09:41:59.28	149.87	15.38	-39.1	-40.9	19.5	0.00e+00	0	40	0	0	50	4277
2026-01-18 09:42:00.56	149.83	15.52	-39.2	-41.0	19.5	0.00e+00	0	40	0	0	50	4314
2026-01-18 09:42:01.27	149.81	15.60	-39.2	-41.0	19.4	0.00e+00	0	40	0	0	50	4325
2026-01-18 09:42:02.55	149.77	15.74	-39.2	-41.0	19.5	0.00e+00	0	40	0	0	50	4314
2026-01-18 09:42:03.28	149.75	15.82	-39.3	-41.0	19.4	0.00e+00	0	40	0	0	50	4336
2026-01-18 09:42:04.56	149.71	15.96	-39.3	-41.1	19.4	0.00e+00	0	39	0	0	50	4357
2026-01-18 09:42:05.27	149.69	16.04	-39.3	-41.1	19.4	0.00e+00	0	40	0	0	50	4347
2026-01-18 09:42:06.55	149.66	16.18	-39.2	-41.0	19.5	0.00e+00	0	40	0	0	50	4292
2026-01-18 09:42:07.26	149.64	16.26	-39.3	-41.0	19.4	0.00e+00	0	40	0	0	50	4336
2026-01-18 09:42:08.54	149.60	16.41	-39.3	-41.1	19.4	0.00e+00	0	40	0	0	50	4355
2026-01-18 09:42:09.25	149.58	16.49	-39.3	-41.0	19.5	0.00e+00	0	40	0	0	50	4322
2026-01-18 09:42:10.53	149.54	16.63	-39.3	-41.0	19.5	0.00e+00	0	40	0	0	50	4335
2026-01-18 09:42:11.24	149.51	16.71	-39.4	-41.1	19.4	0.00e+00	0	40	0	0	50	4386
2026-01-18 09:42:12.57	149.47	16.86	-39.4	-41.1	19.4	0.00e+00	0	40	0	0	50	4385
2026-01-18 09:42:13.28	149.45	16.95	-39.3	-41.1	19.4	0.00e+00	0	40	0	0	50	4366
2026-01-18 09:42:14.56	149.41	17.09	-39.4	-41.2	19.4	0.00e+00	0	40	0	0	50	4404
2026-01-18 09:42:15.28	149.39	17.18	-39.3	-41.1	19.4	0.00e+00	0	40	0	0	50	4363
2026-01-18 09:42:16.56	149.35	17.33	-39.3	-41.1	19.5	0.00e+00	0	40	0	0	50	4365
2026-01-18 09:42:17.27	149.32	17.41	-39.3	-41.1	19.4	0.00e+00	0	40	0	0	50	4376
2026-01-18 09:42:18.55	149.28	17.56	-39.4	-41.2	19.4	0.00e+00	0	40	0	0	50	4406
2026-01-18 09:42:19.26	149.26	17.64	-39.4	-41.2	19.4	0.00e+00	0	40	0	0	50	4426
2026-01-18 09:42:20.54	149.22	17.80	-39.3	-41.1	19.5	0.00e+00	0	40	0	0	50	4356
2026-01-18 09:42:21.28	149.19	17.88	-39.3	-41.1	19.5	0.00e+00	0	40	0	0	50	4355
2026-01-18 09:42:22.56	149.15	18.04	-39.3	-41.1	19.5	0.00e+00	0	40	0	0	50	4363
2026-01-18 09:42:23.29	149.12	18.12	-39.4	-41.1	19.4	0.00e+00	0	40	0	0	50	4379
2026-01-18 09:42:24.57	149.08	18.28	-39.3	-41.1	19.5	0.00e+00	0	40	0	0	50	4342
2026-01-18 09:42:25.31	149.05	18.37	-39.3	-41.0	19.5	0.00e+00	0	40	0	0	50	4327
2026-01-18 09:42:26.58	149.01	18.52	-39.2	-41.0	19.6	0.00e+00	0	40	0	0	50	4309
2026-01-18 09:42:27.29	148.98	18.61	-39.2	-41.0	19.5	0.00e+00	0	40	0	0	50	4310
2026-01-18 09:42:28.58	148.94	18.77	-39.3	-41.0	19.5	0.00e+00	0	40	0	0	50	4331
2026-01-18 09:42:29.30	148.91	18.86	-39.2	-41.0	19.5	0.00e+00	0	40	0	0	50	4315
2026-01-18 09:42:30.58	148.87	19.02	-39.2	-40.9	19.6	0.00e+00	0	40	0	0	50	4287
2026-01-18 09:42:31.30	148.84	19.11	-39.3	-41.0	19.5	0.00e+00	0	40	0	0	50	4311
2026-01-18 09:42:32.59	148.79	19.27	-39.2	-40.9	19.6	0.00e+00	0	40	0	0	50	4281
2026-01-18 09:42:33.31	148.76	19.36	-39.2	-41.0	19.5	0.00e+00	0	40	0	0	50	4307
2026-01-18 09:42:34.59	148.72	19.53	-39.2	-40.9	19.6	0.00e+00	0	40	0	0	50	4291
2026-01-18 09:42:35.30	148.69	19.62	-39.2	-40.9	19.6	0.00e+00	0	40	0	0	50	4263
2026-01-18 09:42:36.58	148.64	19.78	-39.0	-40.7	19.8	0.00e+00	0	40	0	0	50	4181
2026-01-18 09:42:37.66	148.60	19.92	-38.9	-40.6	19.8	0.00e+00	0	40	0	0	49	4390
2026-01-18 09:42:38.81	148.55	20.07	-38.8	-40.5	19.9	0.00e+00	0	40	0	0	49	4323
2026-01-18 09:42:39.66	148.52	20.18	-38.8	-40.5	19.9	0.00e+00	0	40	0	0	49	4303
2026-01-18 09:42:40.80	148.48	20.33	-38.8	-40.5	19.9	0.00e+00	0	40	0	0	49	4296
2026-01-18 09:42:41.65	148.44	20.44	-38.8	-40.5	19.9	0.00e+00	0	40	0	0	49	4308
2026-01-18 09:42:42.79	148.40	20.59	-38.7	-40.4	20.0	0.00e+00	0	40	0	0	49	4274
2026-01-18 09:42:43.64	148.36	20.71	-38.8	-40.5	19.9	0.00e+00	0	40	0	0	49	4329
2026-01-18 09:42:44.78	148.31	20.86	-38.7	-40.4	19.9	0.00e+00	0	40	0	0	49	4275
2026-01-18 09:42:45.63	148.28	20.97	-38.6	-40.2	20.1	0.00e+00	0	40	0	0	49	4186
2026-01-18 09:42:46.77	148.23	21.13	-38.5	-40.2	20.2	0.00e+00	0	40	0	0	49	4157
2026-01-18 09:42:47.62	148.19	21.24	-38.5	-40.2	20.1	0.00e+00	0	40	0	0	48	4415
2026-01-18 09:42:48.90	148.14	21.42	-38.4	-40.0	20.3	0.00e+00	0	40	0	0	48	4332
2026-01-18 09:42:49.61	148.11	21.52	-38.2	-39.9	20.4	0.00e+00	0	40	0	0	48	4262
2026-01-18 09:42:51.11	148.04	21.72	-38.2	-39.9	20.4	0.00e+00	0	40	0	0	48	4267
2026-01-18 09:42:51.82	148.01	21.82	-38.2	-39.9	20.4	0.00e+00	0	40	0	0	48	4273
2026-01-18 09:42:53.16	147.95	22.01	-38.1	-39.7	20.6	0.00e+00	0	40	0	0	48	4179
2026-01-18 09:42:53.87	147.92	22.11	-38.0	-39.7	20.6	0.00e+00	0	40	0	0	48	4166
2026-01-18 09:42:55.22	147.86	22.30	-38.1	-39.7	20.6	0.00e+00	0	40	0	0	48	4177
2026-01-18 09:42:55.93	147.83	22.40	-38.1	-39.8	20.6	0.00e+00	0	40	0	0	48	4204
2026-01-18 09:42:57.27	147.77	22.59	-37.9	-39.6	20.6	0.00e+00	0	40	0	0	47	4351
2026-01-18 09:42:57.98	147.73	22.70	-38.0	-39.7	20.5	0.00e+00	0	40	0	0	47	4396
2026-01-18 09:42:59.26	147.67	22.88	-37.9	-39.6	20.6	0.00e+00	0	40	0	0	47	4370
2026-01-18 09:42:59.99	147.64	22.99	-37.7	-39.4	20.7	0.00e+00	0	40	0	0	47	4268
2026-01-18 09:43:01.26	147.58	23.17	-37.6	-39.3	20.8	0.00e+00	0	40	0	0	47	4219
2026-01-18 09:43:01.98	147.54	23.28	-37.7	-39.3	20.8	0.00e+00	0	40	0	0	47	4236
2026-01-18 09:43:03.25	147.48	23.47	-37.6	-39.3	20.8	0.00e+00	0	40	0	0	47	4219
2026-01-18 09:43:03.96	147.44	23.57	-37.7	-39.4	20.8	0.00e+00	0	40	0	0	47	4246
2026-01-18 09:43:05.24	147.38	23.76	-37.7	-39.3	20.8	0.00e+00	0	40	0	0	47	4233
2026-01-18 09:43:05.95	147.34	23.87	-37.7	-39.4	20.8	0.00e+00	0	40	0	0	47	4250
2026-01-18 09:43:07.23	147.28	24.06	-37.6	-39.3	20.9	0.00e+00	0	40	0	0	47	4201
2026-01-18 09:43:07.94	147.24	24.17	-37.7	-39.3	20.8	0.00e+00	0	40	0	0	47	4231
2026-01-18 09:43:09.22	147.17	24.37	-37.7	-39.4	20.7	0.00e+00	0	40	0	0	47	4262
2026-01-18 09:43:09.95	147.14	24.48	-37.7	-39.4	20.7	0.00e+00	0	40	0	0	47	4263
2026-01-18 09:43:11.23	147.07	24.68	-37.8	-39.4	20.7	0.00e+00	0	40	0	0	47	4284
2026-01-18 09:43:11.97	147.03	24.79	-37.8	-39.5	20.7	0.00e+00	0	40	0	0	47	4296
2026-01-18 09:43:13.25	146.96	24.99	-38.0	-39.6	20.6	0.00e+00	0	40	0	0	47	4389
2026-01-18 09:43:13.96	146.92	25.11	-37.9	-39.6	20.7	0.00e+00	0	40	0	0	47	4357
2026-01-18 09:43:15.24	146.85	25.31	-38.1	-39.7	20.5	0.00e+00	0	40	0	0	47	4435
2026-01-18 09:43:15.95	146.81	25.42	-38.1	-39.8	20.5	0.00e+00	0	40	0	0	47	4462
2026-01-18 09:43:17.23	146.74	25.63	-38.3	-39.9	20.4	0.00e+00	0	40	0	0	47	4536
2026-01-18 09:43:17.95	146.69	25.74	-38.3	-40.0	20.3	0.00e+00	0	40	0	0	47	4583
2026-01-18 09:43:19.23	146.62	25.95	-38.2	-39.9	20.4	0.00e+00	0	40	0	0	47	4520
2026-01-18 09:43:19.94	146.58	26.07	-38.3	-40.0	20.3	0.00e+00	0	40	0	0	47	4563
2026-01-18 09:43:21.22	146.50	26.28	-38.4	-40.1	20.2	0.00e+00	0	40	0	0	47	4633
2026-01-18 09:43:21.93	146.46	26.39	-38.5	-40.2	20.2	0.00e+00	0	40	0	0	47	4656
2026-01-18 09:43:23.21	146.38	26.60	-38.4	-40.1	20.2	0.00e+00	0	40	0	0	47	4639
2026-01-18 09:43:24.00	146.33	26.74	-38.5	-40.2	20.1	0.00e+00	0	40	0	0	47	4702
2026-01-18 09:43:25.26	146.26	26.95	-38.6	-40.3	20.0	0.00e+00	0	40	0	0	47	4749
2026-01-18 09:43:25.97	146.21	27.07	-38.7	-40.4	20.1	0.00e+00	0	40	0	0	48	4528
2026-01-18 09:43:27.25	146.13	27.29	-38.8	-40.5	20.1	0.00e+00	0	40	0	0	48	4557
2026-01-18 09:43:28.09	146.08	27.43	-39.0	-40.7	19.9	0.00e+00	0	40	0	0	48	4671
2026-01-18 09:43:29.23	146.00	27.62	-39.0	-40.8	19.8	0.00e+00	0	40	0	0	48	4714
2026-01-18 09:43:30.08	145.95	27.77	-39.0	-40.7	19.9	0.00e+00	0	40	0	0	48	4686
2026-01-18 09:43:31.22	145.87	27.97	-39.1	-40.8	19.8	0.00e+00	0	40	0	0	48	4739
2026-01-18 09:43:32.07	145.82	28.12	-39.2	-40.9	19.8	0.00e+00	0	40	0	0	48	4783
2026-01-18 09:43:33.21	145.74	28.32	-39.2	-41.0	19.7	0.00e+00	0	40	0	0	49	4553
2026-01-18 09:43:34.06	145.68	28.47	-39.2	-40.9	19.7	0.00e+00	0	40	0	0	49	4530
2026-01-18 09:43:35.20	145.60	28.67	-39.3	-41.1	19.6	0.00e+00	0	40	0	0	49	4607
2026-01-18 09:43:36.05	145.54	28.83	-39.2	-41.0	19.7	0.00e+00	0	40	0	0	49	4547
2026-01-18 09:43:37.19	145.46	29.03	-39.2	-40.9	19.7	0.00e+00	0	40	0	0	49	4525
2026-01-18 09:43:38.04	145.40	29.19	-39.2	-40.9	19.7	0.00e+00	0	40	0	0	49	4530
2026-01-18 09:43:39.18	145.32	29.39	-39.2	-40.9	19.7	0.00e+00	0	40	0	0	49	4539
2026-01-18 09:43:40.03	145.26	29.55	-39.1	-40.8	19.8	0.00e+00	0	40	0	0	49	4484
2026-01-18 09:43:41.17	145.17	29.76	-39.0	-40.7	19.9	0.00e+00	0	40	0	0	49	4410
2026-01-18 09:43:42.02	145.11	29.92	-39.1	-40.8	19.8	0.00e+00	0	40	0	0	49	4474
2026-01-18 09:43:43.16	145.02	30.13	-38.9	-40.6	20.0	0.00e+00	0	40	0	0	49	4370
2026-01-18 09:43:44.01	144.96	30.29	-38.9	-40.6	20.0	0.00e+00	0	40	0	0	49	4388
2026-01-18 09:43:45.14	144.87	30.51	-38.9	-40.6	20.1	0.00e+00	0	40	0	0	49	4353
2026-01-18 09:43:46.19	144.79	30.71	-38.8	-40.5	20.1	0.00e+00	0	40	0	0	49	4327
2026-01-18 09:43:47.32	144.70	30.93	-38.8	-40.5	20.1	0.00e+00	0	40	0	0	49	4316
2026-01-18 09:43:48.24	144.62	31.10	-38.8	-40.5	20.1	0.00e+00	0	40	0	0	49	4325
2026-01-18 09:43:49.23	144.54	31.30	-38.8	-40.5	20.1	0.00e+00	0	40	0	0	49	4321
2026-01-18 09:43:50.23	144.46	31.49	-38.8	-40.5	20.1	0.00e+00	0	40	0	0	49	4326
2026-01-18 09:43:51.22	144.37	31.69	-38.9	-40.6	20.0	0.00e+00	0	40	0	0	49	4360
2026-01-18 09:43:52.22	144.29	31.89	-38.8	-40.5	20.1	0.00e+00	0	40	0	0	49	4315
2026-01-18 09:43:53.21	144.20	32.08	-39.0	-40.7	20.0	0.00e+00	0	40	0	0	49	4416
2026-01-18 09:43:54.20	144.12	32.28	-38.9	-40.6	20.0	0.00e+00	0	40	0	0	49	4381
2026-01-18 09:43:55.20	144.03	32.48	-39.1	-40.9	19.8	0.00e+00	0	40	0	0	49	4496
2026-01-18 09:43:56.19	143.94	32.68	-39.2	-40.9	19.7	0.00e+00	0	40	0	0	49	4545
2026-01-18 09:43:57.19	143.85	32.89	-39.3	-41.0	19.7	0.00e+00	0	40	0	0	49	4570
2026-01-18 09:43:58.18	143.76	33.09	-39.3	-41.0	19.6	0.00e+00	0	40	0	0	49	4596
2026-01-18 09:43:59.18	143.67	33.30	-39.3	-41.0	19.6	0.00e+00	0	40	0	0	49	4586
2026-01-18 09:44:00.17	143.57	33.51	-39.3	-41.1	19.6	0.00e+00	0	40	0	0	49	4615
2026-01-18 09:44:01.22	143.47	33.73	-39.4	-41.2	19.5	0.00e+00	0	40	0	0	49	4670
2026-01-18 09:44:02.12	143.39	33.92	-39.6	-41.3	19.3	0.00e+00	0	40	0	0	49	4745
2026-01-18 09:44:03.15	143.28	34.14	-39.6	-41.4	19.3	0.00e+00	0	40	0	0	49	4776
2026-01-18 09:44:04.33	143.17	34.39	-39.7	-41.5	19.2	0.00e+00	0	40	0	0	49	4826
2026-01-18 09:44:05.22	143.08	34.58	-39.8	-41.6	19.2	0.00e+00	0	40	0	0	50	4627
2026-01-18 09:44:06.53	142.94	34.87	-39.9	-41.7	19.1	0.00e+00	0	40	0	0	50	4683
2026-01-18 09:44:07.24	142.87	35.02	-40.0	-41.8	18.9	0.00e+00	0	40	0	0	50	4755
2026-01-18 09:44:08.72	142.71	35.35	-40.2	-42.0	18.8	0.00e+00	0	40	0	0	51	4577
2026-01-18 09:44:09.43	142.64	35.50	-40.3	-42.2	18.6	0.00e+00	0	40	0	0	51	4670
2026-01-18 09:44:10.77	142.49	35.80	-40.6	-42.6	18.3	0.00e+00	0	40	0	0	51	4871
2026-01-18 09:44:11.48	142.41	35.96	-40.7	-42.6	18.2	0.00e+00	0	40	0	0	52	4616
2026-01-18 09:44:12.82	142.27	36.26	-40.8	-42.8	18.0	0.00e+00	0	40	0	0	52	4735
2026-01-18 09:44:13.54	142.18	36.43	-40.9	-42.9	17.9	0.00e+00	0	40	0	0	52	4762
2026-01-18 09:44:14.82	142.04	36.72	-41.0	-43.0	17.8	0.00e+00	0	40	0	0	52	4836
2026-01-18 09:44:15.53	141.95	36.89	-41.1	-43.1	17.7	0.00e+00	0	40	0	0	52	4908
2026-01-18 09:44:16.81	141.80	37.18	-41.1	-43.1	17.7	0.00e+00	0	40	0	0	52	4913
2026-01-18 09:44:17.52	141.72	37.35	-41.1	-43.0	17.7	0.00e+00	0	40	0	0	52	4867
2026-01-18 09:44:18.81	141.56	37.65	-41.2	-43.2	17.5	0.00e+00	0	40	0	0	53	4693
2026-01-18 09:44:19.52	141.47	37.82	-41.0	-43.0	17.7	0.00e+00	0	40	0	0	53	4563
2026-01-18 09:44:20.80	141.31	38.12	-40.9	-42.9	17.9	0.00e+00	0	40	0	0	53	4500
2026-01-18 09:44:21.54	141.22	38.30	-40.9	-42.8	17.9	0.00e+00	0	41	0	0	53	4482
2026-01-18 09:44:22.82	141.05	38.61	-40.8	-42.7	18.0	0.00e+00	0	40	0	0	53	4432
2026-01-18 09:44:23.56	140.95	38.79	-40.9	-42.9	17.9	0.00e+00	0	40	0	0	53	4503
2026-01-18 09:44:24.84	140.78	39.10	-40.9	-42.9	17.9	0.00e+00	0	40	0	0	53	4515
2026-01-18 09:44:25.55	140.69	39.28	-40.9	-42.9	17.9	0.00e+00	0	40	0	0	53	4520
2026-01-18 09:44:26.83	140.51	39.59	-41.0	-43.0	17.7	0.00e+00	0	40	0	0	53	4586
2026-01-18 09:44:27.66	140.40	39.80	-40.9	-42.9	17.9	0.00e+00	0	40	0	0	53	4497
2026-01-18 09:44:29.10	140.19	40.16	-40.7	-42.7	18.1	0.00e+00	0	40	0	0	53	4393
2026-01-18 09:44:29.81	140.09	40.34	-40.6	-42.5	18.3	0.00e+00	0	40	0	0	53	4337
2026-01-18 09:44:31.33	139.86	40.72	-40.7	-42.6	18.3	0.00e+00	0	40	0	0	53	4347
2026-01-18 09:44:32.04	139.76	40.91	-40.3	-42.1	18.7	0.00e+00	0	40	0	0	52	4369
2026-01-18 09:44:33.32	139.56	41.24	-40.0	-41.8	19.0	0.00e+00	0	40	0	0	51	4471
2026-01-18 09:44:34.04	139.45	41.42	-40.1	-41.9	18.9	0.00e+00	0	40	0	0	51	4503
2026-01-18 09:44:35.32	139.25	41.76	-40.4	-42.3	18.5	0.00e+00	0	40	0	0	51	4741
2026-01-18 09:44:36.03	139.14	41.94	-40.4	-42.3	18.6	0.00e+00	0	41	0	0	51	4707
2026-01-18 09:44:37.31	138.93	42.28	-40.6	-42.5	18.2	0.00e+00	0	40	0	0	51	4854
2026-01-18 09:44:38.03	138.81	42.47	-40.8	-42.7	17.9	0.00e+00	0	40	0	0	52	4697
2026-01-18 09:44:39.31	138.59	42.81	-40.8	-42.8	17.7	0.00e+00	0	40	0	0	52	4737
2026-01-18 09:44:40.02	138.47	43.00	-40.9	-42.8	17.7	0.00e+00	0	40	0	0	52	4754
2026-01-18 09:44:41.30	138.25	43.35	-41.0	-43.0	17.7	0.00e+00	0	40	0	0	52	4827
2026-01-18 09:44:42.20	138.09	43.59	-41.1	-43.1	17.6	0.00e+00	0	40	0	0	52	4898
2026-01-18 09:44:43.57	137.84	43.97	-41.4	-43.4	17.4	0.00e+00	0	40	0	0	53	4786
2026-01-18 09:44:44.28	137.71	44.17	-41.3	-43.3	17.6	0.00e+00	0	40	0	0	53	4725
2026-01-18 09:44:45.56	137.47	44.52	-41.6	-43.6	17.3	0.00e+00	0	40	0	0	53	4905
2026-01-18 09:44:46.27	137.34	44.72	-41.7	-43.7	17.1	0.00e+00	0	40	0	0	54	4699
2026-01-18 09:44:47.55	137.09	45.08	-41.7	-43.8	17.1	0.00e+00	0	40	0	0	54	4722
2026-01-18 09:44:48.28	136.95	45.28	-41.7	-43.7	17.1	0.00e+00	0	40	0	0	54	4688
2026-01-18 09:44:49.56	136.69	45.65	-41.6	-43.6	17.1	0.00e+00	0	40	0	0	54	4633
2026-01-18 09:44:50.27	136.54	45.85	-41.5	-43.6	17.2	0.00e+00	0	40	0	0	54	4613
2026-01-18 09:44:51.54	136.28	46.21	-41.4	-43.5	17.3	0.00e+00	0	40	0	0	54	4548
2026-01-18 09:44:52.28	136.12	46.43	-41.2	-43.1	17.6	0.00e+00	0	40	0	0	54	4383
2026-01-18 09:44:53.56	135.84	46.80	-41.1	-43.1	17.7	0.00e+00	0	40	0	0	54	4348
2026-01-18 09:44:54.29	135.68	47.01	-41.2	-43.2	17.5	0.00e+00	0	40	0	0	54	4427
2026-01-18 09:44:55.57	135.39	47.39	-41.3	-43.3	17.5	0.00e+00	0	41	0	0	54	4459
2026-01-18 09:44:56.28	135.23	47.59	-41.3	-43.3	17.5	0.00e+00	0	41	0	0	54	4486
2026-01-18 09:44:57.56	134.93	47.97	-41.2	-43.2	17.6	0.00e+00	0	40	0	0	54	4437
2026-01-18 09:44:58.29	134.76	48.19	-40.9	-42.8	18.0	0.00e+00	0	40	0	0	53	4492
2026-01-18 09:44:59.57	134.45	48.57	-40.6	-42.4	18.3	0.00e+00	0	40	0	0	53	4282
2026-01-18 09:45:00.30	134.27	48.79	-40.6	-42.4	18.3	0.00e+00	0	40	0	0	53	4279
2026-01-18 09:45:01.58	133.94	49.18	-40.6	-42.5	18.3	0.00e+00	0	40	0	0	53	4296
2026-01-18 09:45:02.31	133.75	49.40	-40.6	-42.5	18.3	0.00e+00	0	40	0	0	53	4314
2026-01-18 09:45:03.59	133.42	49.79	-40.5	-42.4	18.4	0.00e+00	0	40	0	0	53	4279
2026-01-18 09:45:04.30	133.23	50.01	-40.5	-42.3	18.5	0.00e+00	0	41	0	0	52	4480
2026-01-18 09:45:05.58	132.88	50.40	-40.3	-42.2	18.6	0.00e+00	0	40	0	0	52	4401
2026-01-18 09:45:06.29	132.68	50.62	-40.1	-41.9	18.8	0.00e+00	0	40	0	0	52	4290
2026-01-18 09:45:07.57	132.31	51.02	-40.3	-42.1	18.7	0.00e+00	0	41	0	0	52	4366
2026-01-18 09:45:08.29	132.10	51.24	-40.3	-42.1	18.6	0.00e+00	0	40	0	0	52	4388
2026-01-18 09:45:09.56	131.72	51.64	-40.5	-42.3	18.4	0.00e+00	0	40	0	0	52	4491
2026-01-18 09:45:10.30	131.50	51.87	-40.3	-42.2	18.6	0.00e+00	0	40	0	0	52	4404
2026-01-18 09:45:11.58	131.10	52.28	-40.0	-41.8	18.9	0.00e+00	0	40	0	0	52	4239
2026-01-18 09:45:12.31	130.87	52.51	-40.0	-41.8	18.9	0.00e+00	0	40	0	0	51	4463
2026-01-18 09:45:13.62	130.45	52.92	-40.0	-41.7	18.9	0.00e+00	0	41	0	0	51	4430
2026-01-18 09:45:14.33	130.21	53.15	-39.8	-41.5	19.0	0.00e+00	0	40	0	0	51	4325
2026-01-18 09:45:15.61	129.78	53.56	-39.8	-41.6	18.9	0.00e+00	0	40	0	0	51	4361
2026-01-18 09:45:16.67	129.41	53.90	-40.1	-42.0	18.7	0.00e+00	0	41	0	0	51	4551
2026-01-18 09:45:17.84	128.99	54.28	-40.2	-42.0	18.7	0.00e+00	0	40	0	0	51	4590
2026-01-18 09:45:18.83	128.63	54.59	-39.9	-41.8	18.9	0.00e+00	0	40	0	0	51	4449
2026-01-18 09:45:19.83	128.25	54.92	-39.8	-41.6	19.0	0.00e+00	0	41	0	0	51	4385
2026-01-18 09:45:20.83	127.87	55.24	-39.6	-41.4	19.3	0.00e+00	0	40	0	0	51	4244
2026-01-18 09:45:21.82	127.48	55.56	-39.6	-41.3	19.4	0.00e+00	0	40	0	0	51	4239
2026-01-18 09:45:22.82	127.08	55.89	-39.5	-41.2	19.6	0.00e+00	0	41	0	0	50	4426
2026-01-18 09:45:23.82	126.67	56.21	-39.5	-41.3	19.6	0.00e+00	0	40	0	0	50	4460
2026-01-18 09:45:24.81	126.26	56.54	-39.4	-41.1	19.7	0.00e+00	0	41	0	0	50	4385
2026-01-18 09:45:25.80	125.83	56.86	-39.3	-41.0	19.8	0.00e+00	0	40	0	0	50	4306
2026-01-18 09:45:26.80	125.39	57.19	-39.2	-40.9	19.9	0.00e+00	0	40	0	0	50	4265
2026-01-18 09:45:27.80	124.94	57.52	-39.0	-40.7	20.1	0.00e+00	0	40	0	0	49	4397
2026-01-18 09:45:28.79	124.48	57.84	-38.9	-40.6	20.2	0.00e+00	0	40	0	0	49	4346
2026-01-18 09:45:29.80	124.00	58.17	-38.9	-40.6	20.1	0.00e+00	0	40	0	0	49	4376
2026-01-18 09:45:30.83	123.50	58.51	-39.0	-40.7	20.0	0.00e+00	0	41	0	0	49	4434
2026-01-18 09:45:31.86	122.99	58.84	-39.0	-40.7	20.1	0.00e+00	0	40	0	0	49	4409
2026-01-18 09:45:32.85	122.48	59.17	-39.0	-40.7	20.0	0.00e+00	0	40	0	0	49	4400
2026-01-18 09:45:33.85	121.96	59.49	-38.8	-40.5	20.1	0.00e+00	0	40	0	0	49	4332
2026-01-18 09:45:34.84	121.43	59.82	-38.6	-40.2	20.5	0.00e+00	0	40	0	0	49	4168
2026-01-18 09:45:35.84	120.88	60.14	-38.3	-40.0	20.6	0.00e+00	0	41	0	0	48	4300
2026-01-18 09:45:36.83	120.32	60.46	-38.2	-39.9	20.8	0.00e+00	0	40	0	0	48	4246
2026-01-18 09:45:37.83	119.74	60.79	-38.2	-39.8	20.8	0.00e+00	0	40	0	0	48	4215
2026-01-18 09:45:38.82	119.15	61.10	-38.0	-39.6	21.0	0.00e+00	0	40	0	0	48	4123
2026-01-18 09:45:39.82	118.54	61.43	-37.8	-39.4	20.9	0.00e+00	0	40	0	0	47	4273
2026-01-18 09:45:40.81	117.92	61.74	-37.9	-39.5	20.9	0.00e+00	0	41	0	0	47	4314
2026-01-18 09:45:41.81	117.28	62.06	-37.9	-39.5	20.9	0.00e+00	0	40	0	0	47	4330
2026-01-18 09:45:42.80	116.63	62.37	-37.7	-39.3	21.1	0.00e+00	0	40	0	0	47	4238
2026-01-18 09:45:43.80	115.95	62.69	-37.5	-39.1	21.1	0.00e+00	0	40	0	0	47	4127
2026-01-18 09:45:44.79	115.26	63.00	-37.6	-39.2	20.9	0.00e+00	0	41	0	0	46	4435
2026-01-18 09:45:45.78	114.56	63.31	-37.7	-39.3	21.1	0.00e+00	0	41	0	0	46	4463
2026-01-18 09:45:46.78	113.83	63.61	-37.6	-39.2	21.1	0.00e+00	0	40	0	0	46	4409
2026-01-18 09:45:47.84	113.03	63.94	-37.4	-39.0	21.3	0.00e+00	0	40	0	0	46	4311
2026-01-18 09:45:48.73	112.35	64.21	-37.4	-39.0	21.3	0.00e+00	0	40	0	0	46	4330
2026-01-18 09:45:50.01	111.33	64.59	-37.8	-39.4	21.0	0.00e+00	0	41	0	0	46	4499
2026-01-18 09:45:50.72	110.75	64.80	-37.5	-39.1	21.2	0.00e+00	0	41	0	0	46	4383
2026-01-18 09:45:52.22	109.50	65.24	-37.6	-39.2	21.1	0.00e+00	0	41	0	0	46	4408
2026-01-18 09:45:52.93	108.88	65.44	-37.5	-39.1	21.2	0.00e+00	0	41	0	0	46	4356
2026-01-18 09:45:54.28	107.69	65.82	-37.7	-39.3	21.1	0.00e+00	0	41	0	0	46	4486
2026-01-18 09:45:54.99	107.04	66.02	-38.0	-39.7	20.7	0.00e+00	0	41	0	0	46	4657
2026-01-18 09:45:56.26	105.86	66.37	-37.4	-39.0	21.3	0.00e+00	0	40	0	0	46	4324
2026-01-18 09:45:56.97	105.18	66.56	-37.3	-38.9	21.4	0.00e+00	0	40	0	0	46	4243
2026-01-18 09:45:58.25	103.93	66.90	-36.9	-38.5	21.8	0.00e+00	0	40	0	0	45	4300
2026-01-18 09:45:58.98	103.19	67.09	-36.7	-38.2	22.0	0.00e+00	0	41	0	0	45	4154
2026-01-18 09:46:00.26	101.88	67.41	-37.0	-38.6	21.7	0.00e+00	0	41	0	0	45	4357
2026-01-18 09:46:00.99	101.11	67.59	-37.3	-38.9	21.4	0.00e+00	0	40	0	0	45	4502
2026-01-18 09:46:02.27	99.72	67.90	-37.3	-38.9	21.2	0.00e+00	0	41	0	0	45	4512
2026-01-18 09:46:02.99	98.93	68.07	-37.2	-38.8	21.2	0.00e+00	0	40	0	0	45	4450
2026-01-18 09:46:04.27	97.48	68.35	-37.1	-38.6	21.4	0.00e+00	0	41	0	0	45	4391
2026-01-18 09:46:04.98	96.66	68.51	-37.1	-38.7	21.3	0.00e+00	0	40	0	0	45	4423
2026-01-18 09:46:06.26	95.15	68.78	-37.3	-39.0	21.2	0.00e+00	0	41	0	0	45	4551
2026-01-18 09:46:07.11	94.12	68.95	-37.6	-39.2	21.0	0.00e+00	0	40	0	0	45	4679
2026-01-18 09:46:08.25	92.71	69.17	-37.7	-39.3	21.0	0.00e+00	0	41	0	0	46	4478
2026-01-18 09:46:09.10	91.64	69.33	-37.6	-39.3	21.1	0.00e+00	0	40	0	0	46	4453
2026-01-18 09:46:10.24	90.18	69.53	-37.4	-38.9	21.3	0.00e+00	0	41	0	0	46	4281
2026-01-18 09:46:11.09	89.08	69.67	-37.4	-39.1	21.2	0.00e+00	0	40	0	0	46	4342
2026-01-18 09:46:12.65	87.00	69.91	-37.5	-39.1	21.2	0.00e+00	0	41	0	0	46	4386
2026-01-18 09:46:13.36	86.04	70.01	-37.5	-39.1	21.2	0.00e+00	0	41	0	0	46	4385
2026-01-18 09:46:14.64	84.28	70.18	-37.5	-39.1	21.1	0.00e+00	0	40	0	0	46	4376
2026-01-18 09:46:15.38	83.24	70.27	-37.4	-39.0	21.1	0.00e+00	0	41	0	0	46	4330
2026-01-18 09:46:16.65	81.45	70.41	-37.1	-38.6	21.5	0.00e+00	0	41	0	0	46	4129
2026-01-18 09:46:17.38	80.41	70.49	-37.0	-38.6	21.5	0.00e+00	0	41	0	0	45	4344
2026-01-18 09:46:18.65	78.58	70.60	-37.9	-39.5	20.9	0.00e+00	0	41	0	0	46	4587
2026-01-18 09:46:19.37	77.53	70.65	-38.2	-39.9	20.6	0.00e+00	0	41	0	0	47	4510
2026-01-18 09:46:20.64	75.66	70.74	-37.9	-39.5	20.6	0.00e+00	0	41	0	0	47	4310
2026-01-18 09:46:21.48	74.42	70.78	-37.5	-39.1	20.9	0.00e+00	0	41	0	0	47	4125
2026-01-18 09:46:22.62	72.73	70.83	-37.7	-39.3	21.0	0.00e+00	0	40	0	0	47	4211
2026-01-18 09:46:23.69	71.13	70.86	-37.9	-39.5	20.9	0.00e+00	0	41	0	0	47	4314
2026-01-18 09:46:24.70	69.62	70.87	-37.9	-39.6	20.7	0.00e+00	0	41	0	0	47	4359
2026-01-18 09:46:25.86	67.89	70.87	-38.1	-39.8	20.4	0.00e+00	0	41	0	0	47	4473
2026-01-18 09:46:26.74	66.57	70.86	-37.8	-39.5	20.8	0.00e+00	0	41	0	0	47	4296
2026-01-18 09:46:28.04	64.64	70.83	-37.4	-39.0	21.2	0.00e+00	0	41	0	0	46	4322
2026-01-18 09:46:28.75	63.58	70.80	-37.4	-39.0	21.2	0.00e+00	0	41	0	0	46	4332
2026-01-18 09:46:30.23	61.39	70.73	-38.5	-40.2	20.3	0.00e+00	0	41	0	0	47	4665
2026-01-18 09:46:30.94	60.35	70.68	-38.7	-40.4	20.2	0.00e+00	0	40	0	0	48	4519
2026-01-18 09:46:32.22	58.49	70.58	-38.3	-39.9	20.6	0.00e+00	0	41	0	0	48	4272
2026-01-18 09:46:33.30	56.93	70.49	-37.3	-38.9	21.4	0.00e+00	0	40	0	0	46	4247
2026-01-18 09:46:34.15	55.72	70.40	-37.2	-38.7	21.6	0.00e+00	0	41	0	0	46	4178
2026-01-18 09:46:35.29	54.11	70.27	-37.5	-39.1	21.3	0.00e+00	0	40	0	0	46	4348
2026-01-18 09:46:36.15	52.91	70.17	-37.4	-39.0	21.3	0.00e+00	0	41	0	0	46	4322
2026-01-18 09:46:37.30	51.33	70.02	-37.6	-39.2	21.2	0.00e+00	0	41	0	0	46	4397
2026-01-18 09:46:38.15	50.18	69.89	-37.4	-38.9	21.3	0.00e+00	0	41	0	0	46	4280
2026-01-18 09:46:39.29	48.66	69.72	-36.9	-38.5	21.5	0.00e+00	0	41	0	0	45	4306
2026-01-18 09:46:40.14	47.55	69.58	-36.9	-38.4	21.6	0.00e+00	0	41	0	0	45	4273
2026-01-18 09:46:41.28	46.08	69.38	-37.6	-39.2	21.0	0.00e+00	0	41	0	0	45	4687
2026-01-18 09:46:42.13	45.01	69.23	-38.1	-39.8	20.6	0.00e+00	0	41	0	0	46	4708
2026-01-18 09:46:43.47	43.35	68.97	-38.4	-40.1	20.1	0.00e+00	0	41	0	0	47	4603
2026-01-18 09:46:44.19	42.48	68.83	-38.1	-39.7	20.4	0.00e+00	0	41	0	0	47	4431
2026-01-18 09:46:45.47	40.96	68.56	-37.8	-39.4	20.8	0.00e+00	0	41	0	0	47	4283
2026-01-18 09:46:46.18	40.14	68.41	-37.4	-39.0	21.3	0.00e+00	0	41	0	0	46	4293
2026-01-18 09:46:47.75	38.36	68.05	-37.7	-39.2	21.2	0.00e+00	0	40	0	0	46	4439
2026-01-18 09:46:48.37	37.68	67.91	-38.1	-39.8	20.8	0.00e+00	0	40	0	0	46	4715
2026-01-18 09:46:49.93	36.00	67.54	-38.3	-40.0	20.4	0.00e+00	0	41	0	0	48	4296
2026-01-18 09:46:50.56	35.34	67.38	-37.6	-39.1	20.7	0.00e+00	0	41	0	0	47	4142
2026-01-18 09:46:52.09	33.77	66.99	-37.1	-38.7	21.3	0.00e+00	0	41	0	0	45	4396
2026-01-18 09:46:52.85	33.02	66.79	-37.6	-39.2	21.1	0.00e+00	0	41	0	0	45	4690
2026-01-18 09:46:54.13	31.78	66.45	-38.9	-40.6	20.2	0.00e+00	0	41	0	0	48	4649
2026-01-18 09:46:54.86	31.09	66.26	-38.9	-40.6	20.2	0.00e+00	0	41	0	0	48	4631
2026-01-18 09:46:56.13	29.92	65.91	-38.1	-39.7	20.7	0.00e+00	0	41	0	0	48	4190
2026-01-18 09:46:56.85	29.27	65.70	-37.9	-39.6	20.6	0.00e+00	0	41	0	0	47	4343
2026-01-18 09:46:58.13	28.15	65.34	-37.5	-39.1	21.1	0.00e+00	0	41	0	0	46	4349
2026-01-18 09:46:58.85	27.54	65.13	-37.3	-38.9	21.4	0.00e+00	0	41	0	0	46	4254
2026-01-18 09:47:00.13	26.48	64.76	-38.2	-39.8	20.7	0.00e+00	0	41	0	0	47	4486
2026-01-18 09:47:00.84	25.90	64.55	-38.9	-40.6	20.2	0.00e+00	0	41	0	0	48	4620
2026-01-18 09:47:02.15	24.87	64.16	-39.0	-40.7	19.9	0.00e+00	0	41	0	0	49	4404
2026-01-18 09:47:02.86	24.33	63.94	-38.4	-40.1	20.3	0.00e+00	0	41	0	0	48	4341
2026-01-18 09:47:04.14	23.37	63.55	-37.4	-39.0	21.3	0.00e+00	0	41	0	0	46	4315
2026-01-18 09:47:04.85	22.85	63.33	-37.5	-39.1	21.2	0.00e+00	0	41	0	0	46	4370
2026-01-18 09:47:06.26	21.85	62.90	-38.5	-40.1	20.4	0.00e+00	0	41	0	0	47	4642
2026-01-18 09:47:06.97	21.36	62.68	-39.2	-40.9	19.9	0.00e+00	0	41	0	0	48	4784
2026-01-18 09:47:08.27	20.49	62.27	-39.4	-41.2	19.6	0.00e+00	0	41	0	0	49	4689
2026-01-18 09:47:08.98	20.03	62.04	-39.0	-40.8	19.9	0.00e+00	0	41	0	0	49	4442
2026-01-18 09:47:10.26	19.21	61.64	-38.0	-39.6	20.8	0.00e+00	0	41	0	0	48	4129
2026-01-18 09:47:10.98	18.77	61.41	-37.9	-39.6	20.7	0.00e+00	0	41	0	0	47	4341
2026-01-18 09:47:12.26	17.99	61.00	-38.1	-39.7	20.8	0.00e+00	0	41	0	0	47	4394
2026-01-18 09:47:12.99	17.56	60.76	-38.3	-39.9	20.6	0.00e+00	0	41	0	0	47	4517
2026-01-18 09:47:14.27	16.83	60.35	-39.1	-40.8	20.0	0.00e+00	0	40	0	0	49	4466
2026-01-18 09:47:14.99	16.42	60.12	-39.3	-41.0	19.8	0.00e+00	0	41	0	0	49	4561
2026-01-18 09:47:16.27	15.72	59.70	-38.7	-40.4	20.3	0.00e+00	0	41	0	0	49	4257
2026-01-18 09:47:16.98	15.35	59.47	-38.6	-40.3	20.3	0.00e+00	0	41	0	0	49	4197
2026-01-18 09:47:18.26	14.68	59.05	-38.2	-39.7	20.8	0.00e+00	0	41	0	0	48	4191
2026-01-18 09:47:19.08	14.27	58.79	-37.9	-39.5	20.9	0.00e+00	0	41	0	0	47	4310
2026-01-18 09:47:20.52	13.56	58.32	-38.3	-40.0	20.6	0.00e+00	0	41	0	0	47	4548
2026-01-18 09:47:21.23	13.22	58.08	-38.9	-40.6	20.2	0.00e+00	0	41	0	0	48	4599
2026-01-18 09:47:22.51	12.62	57.67	-39.6	-41.3	19.4	0.00e+00	0	41	0	0	49	4747
2026-01-18 09:47:23.22	12.30	57.44	-39.3	-41.1	19.3	0.00e+00	0	41	0	0	49	4624
2026-01-18 09:47:24.50	11.73	57.02	-38.6	-40.2	20.0	0.00e+00	0	41	0	0	49	4191
2026-01-18 09:47:25.21	11.42	56.79	-38.4	-40.0	20.4	0.00e+00	0	41	0	0	48	4318
2026-01-18 09:47:26.49	10.87	56.37	-38.1	-39.7	20.7	0.00e+00	0	41	0	0	48	4193
2026-01-18 09:47:27.20	10.58	56.14	-38.5	-40.1	20.5	0.00e+00	0	41	0	0	48	4388
2026-01-18 09:47:28.48	10.06	55.72	-38.7	-40.4	20.4	0.00e+00	0	41	0	0	48	4501
2026-01-18 09:47:29.20	9.78	55.49	-39.1	-40.8	20.0	0.00e+00	0	41	0	0	48	4740
2026-01-18 09:47:30.48	9.28	55.08	-39.9	-41.7	19.2	0.00e+00	0	41	0	0	50	4695
2026-01-18 09:47:31.19	9.01	54.85	-40.6	-42.6	18.3	0.00e+00	0	40	0	0	52	4600
2026-01-18 09:47:32.49	8.53	54.43	-41.0	-43.0	17.7	0.00e+00	0	41	0	0	52	4856
2026-01-18 09:47:33.20	8.28	54.20	-40.8	-42.7	17.9	0.00e+00	0	41	0	0	52	4676
2026-01-18 09:47:34.56	7.80	53.77	-39.7	-41.5	19.0	0.00e+00	0	41	0	0	51	4316
2026-01-18 09:47:35.27	7.55	53.54	-39.5	-41.3	19.3	0.00e+00	0	41	0	0	51	4202
2026-01-18 09:47:36.55	7.12	53.13	-39.7	-41.4	19.4	0.00e+00	0	41	0	0	50	4536
2026-01-18 09:47:37.29	6.88	52.90	-40.2	-42.0	18.9	0.00e+00	0	41	0	0	50	4835
2026-01-18 09:47:38.57	6.46	52.49	-40.4	-42.2	18.8	0.00e+00	0	41	0	0	51	4687
2026-01-18 09:47:39.28	6.24	52.27	-40.2	-41.9	19.0	0.00e+00	0	41	0	0	51	4540
2026-01-18 09:47:40.56	5.84	51.87	-40.0	-41.8	19.1	0.00e+00	0	41	0	0	51	4456
2026-01-18 09:47:41.27	5.63	51.65	-40.2	-42.0	18.9	0.00e+00	0	41	0	0	51	4585
2026-01-18 09:47:42.55	5.25	51.25	-40.4	-42.2	18.7	0.00e+00	0	41	0	0	51	4681
2026-01-18 09:47:43.28	5.04	51.02	-40.3	-42.1	18.7	0.00e+00	0	41	0	0	51	4621
2026-01-18 09:47:44.56	4.68	50.62	-40.0	-41.8	18.9	0.00e+00	0	41	0	0	51	4468
2026-01-18 09:47:45.27	4.48	50.41	-40.0	-41.7	19.0	0.00e+00	0	41	0	0	51	4428
2026-01-18 09:47:46.55	4.13	50.01	-40.3	-42.1	18.7	0.00e+00	0	41	0	0	51	4623
2026-01-18 09:47:47.24	3.95	49.80	-40.7	-42.5	18.4	0.00e+00	0	41	0	0	51	4849
2026-01-18 09:47:48.67	3.57	49.37	-41.4	-43.4	17.5	0.00e+00	0	41	0	0	53	4807
2026-01-18 09:47:49.37	3.39	49.16	-41.9	-44.0	17.0	0.00e+00	0	41	0	0	54	4846
2026-01-18 09:47:50.66	3.07	48.77	-42.0	-44.2	16.7	0.00e+00	0	41	0	0	54	4939
2026-01-18 09:47:51.37	2.89	48.56	-42.0	-44.1	16.7	0.00e+00	0	41	0	0	54	4919
2026-01-18 09:47:52.65	2.59	48.18	-41.9	-44.0	16.8	0.00e+00	0	41	0	0	54	4829
2026-01-18 09:47:53.36	2.42	47.97	-41.8	-43.9	16.8	0.00e+00	0	41	0	0	54	4791
2026-01-18 09:47:54.64	2.12	47.59	-41.7	-43.8	16.9	0.00e+00	0	41	0	0	54	4737
2026-01-18 09:47:55.38	1.95	47.37	-41.5	-43.6	17.1	0.00e+00	0	41	0	0	54	4623
2026-01-18 09:47:56.66	1.67	47.00	-40.9	-42.8	17.8	0.00e+00	0	41	0	0	53	4475
2026-01-18 09:47:57.56	1.47	46.74	-40.6	-42.5	18.1	0.00e+00	0	41	0	0	53	4295
2026-01-18 09:47:58.66	1.23	46.42	-40.5	-42.3	18.3	0.00e+00	0	41	0	0	52	4492
2026-01-18 09:47:59.73	1.01	46.12	-40.4	-42.2	18.6	0.00e+00	0	41	0	0	52	4406
2026-01-18 09:48:00.78	0.79	45.82	-40.5	-42.3	18.5	0.00e+00	0	41	0	0	52	4469
2026-01-18 09:48:01.90	0.56	45.50	-40.9	-42.8	18.1	0.00e+00	0	41	0	0	52	4725
2026-01-18 09:48:02.83	0.38	45.24	-41.6	-43.7	17.3	0.00e+00	0	41	0	0	53	4935
2026-01-18 09:48:03.82	0.19	44.96	-42.1	-44.4	16.5	0.00e+00	0	41	0	0	54	5090
2026-01-18 09:48:04.82	360.00	44.68	-42.1	-44.5	16.3	0.00e+00	0	41	0	0	55	4821
2026-01-18 09:48:05.81	359.81	44.41	-42.0	-44.2	16.3	0.00e+00	0	41	0	0	55	4692
2026-01-18 09:48:06.81	359.62	44.13	-41.9	-44.0	16.2	0.00e+00	0	41	0	0	55	4594
2026-01-18 09:48:07.80	359.44	43.86	-41.9	-44.1	16.3	0.00e+00	0	41	0	0	55	4609
2026-01-18 09:48:08.80	359.27	43.59	-42.0	-44.2	16.3	0.00e+00	0	41	0	0	55	4671
2026-01-18 09:48:09.79	359.09	43.32	-41.9	-44.1	16.6	0.00e+00	0	41	0	0	55	4618
2026-01-18 09:48:10.78	358.92	43.06	-41.6	-43.7	17.2	0.00e+00	0	41	0	0	55	4411
2026-01-18 09:48:11.78	358.75	42.79	-41.2	-43.1	17.8	0.00e+00	0	41	0	0	54	4387
2026-01-18 09:48:12.77	358.59	42.53	-41.1	-43.1	17.9	0.00e+00	0	41	0	0	54	4353
2026-01-18 09:48:13.77	358.42	42.26	-41.1	-43.0	17.9	0.00e+00	0	41	0	0	54	4333
2026-01-18 09:48:14.76	358.26	42.00	-40.9	-42.9	18.0	0.00e+00	0	41	0	0	53	4521
2026-01-18 09:48:15.76	358.10	41.74	-40.7	-42.6	18.2	0.00e+00	0	41	0	0	53	4384
2026-01-18 09:48:16.75	357.95	41.48	-40.5	-42.4	18.4	0.00e+00	0	41	0	0	53	4273
2026-01-18 09:48:17.75	357.79	41.23	-40.8	-42.8	18.1	0.00e+00	0	41	0	0	53	4469
2026-01-18 09:48:18.74	357.64	40.97	-41.3	-43.3	17.6	0.00e+00	0	41	0	0	53	4734
2026-01-18 09:48:19.74	357.50	40.72	-41.5	-43.6	17.4	0.00e+00	0	41	0	0	53	4879
2026-01-18 09:48:20.73	357.35	40.47	-41.7	-43.8	17.2	0.00e+00	0	41	0	0	53	4990
2026-01-18 09:48:21.73	357.21	40.22	-41.7	-43.8	17.1	0.00e+00	0	41	0	0	54	4732
2026-01-18 09:48:22.72	357.07	39.97	-41.6	-43.8	17.0	0.00e+00	0	41	0	0	54	4707
2026-01-18 09:48:23.72	356.93	39.72	-41.5	-43.6	17.0	0.00e+00	0	41	0	0	54	4626
2026-01-18 09:48:24.71	356.79	39.48	-41.5	-43.6	17.0	0.00e+00	0	41	0	0	54	4623
2026-01-18 09:48:25.71	356.65	39.23	-41.5	-43.5	17.0	0.00e+00	0	41	0	0	54	4594
2026-01-18 09:48:26.70	356.52	38.99	-41.5	-43.5	17.0	0.00e+00	0	41	0	0	54	4584
2026-01-18 09:48:27.70	356.39	38.75	-41.4	-43.4	17.3	0.00e+00	0	41	0	0	54	4519
2026-01-18 09:48:28.75	356.25	38.50	-40.7	-42.7	18.1	0.00e+00	0	41	0	0	53	4401
2026-01-18 09:48:29.61	356.15	38.29	-40.6	-42.5	18.3	0.00e+00	0	41	0	0	53	4318
2026-01-18 09:48:30.96	355.98	37.97	-40.4	-42.4	18.5	0.00e+00	0	41	0	0	52	4498
2026-01-18 09:48:31.67	355.89	37.80	-40.3	-42.3	18.6	0.00e+00	0	41	0	0	52	4443
2026-01-18 09:48:32.98	355.73	37.50	-40.1	-42.0	18.8	0.00e+00	0	41	0	0	52	4328
2026-01-18 09:48:33.69	355.64	37.33	-40.1	-42.0	18.8	0.00e+00	0	41	0	0	52	4307
2026-01-18 09:48:34.97	355.49	37.03	-39.8	-41.7	19.1	0.00e+00	0	41	0	0	51	4417
2026-01-18 09:48:35.70	355.41	36.87	-39.7	-41.5	19.2	0.00e+00	0	41	0	0	51	4328
2026-01-18 09:48:36.98	355.26	36.57	-39.5	-41.3	19.4	0.00e+00	0	41	0	0	51	4223
2026-01-18 09:48:37.72	355.18	36.41	-39.6	-41.4	19.3	0.00e+00	0	41	0	0	51	4244
2026-01-18 09:48:38.99	355.04	36.12	-39.8	-41.6	19.2	0.00e+00	0	41	0	0	51	4359
2026-01-18 09:48:39.72	354.96	35.96	-39.9	-41.7	19.0	0.00e+00	0	41	0	0	51	4412
2026-01-18 09:48:41.00	354.82	35.67	-40.1	-41.9	19.0	0.00e+00	0	41	0	0	51	4514
2026-01-18 09:48:41.72	354.74	35.51	-40.3	-42.1	18.8	0.00e+00	0	41	0	0	51	4636
2026-01-18 09:48:43.00	354.61	35.23	-40.4	-42.3	18.6	0.00e+00	0	41	0	0	51	4706
2026-01-18 09:48:43.73	354.53	35.07	-40.5	-42.4	18.5	0.00e+00	0	41	0	0	51	4783
2026-01-18 09:48:45.12	354.39	34.77	-40.4	-42.3	18.6	0.00e+00	0	41	0	0	51	4739
2026-01-18 09:48:45.83	354.32	34.62	-40.5	-42.4	18.5	0.00e+00	0	41	0	0	51	4775
2026-01-18 09:48:47.11	354.19	34.34	-40.6	-42.5	18.4	0.00e+00	0	41	0	0	51	4841
2026-01-18 09:48:47.82	354.12	34.19	-40.4	-42.3	18.5	0.00e+00	0	41	0	0	51	4740
2026-01-18 09:48:49.23	353.98	33.90	-40.2	-42.1	18.7	0.00e+00	0	41	0	0	51	4617
2026-01-18 09:48:49.94	353.91	33.75	-40.1	-42.0	18.7	0.00e+00	0	41	0	0	51	4585
2026-01-18 09:48:51.28	353.79	33.47	-39.9	-41.8	18.9	0.00e+00	0	41	0	0	51	4453
2026-01-18 09:48:52.00	353.72	33.32	-39.9	-41.8	18.9	0.00e+00	0	41	0	0	51	4478
2026-01-18 09:48:53.27	353.60	33.06	-40.1	-42.0	18.8	0.00e+00	0	41	0	0	51	4548
2026-01-18 09:48:54.00	353.54	32.91	-40.0	-41.8	18.9	0.00e+00	0	41	0	0	51	4485
2026-01-18 09:48:55.28	353.42	32.65	-40.0	-41.8	18.9	0.00e+00	0	41	0	0	51	4484
2026-01-18 09:48:56.00	353.36	32.50	-40.1	-41.9	18.9	0.00e+00	0	41	0	0	51	4535
2026-01-18 09:48:57.29	353.25	32.24	-40.0	-41.9	18.9	0.00e+00	0	41	0	0	51	4509
2026-01-18 09:48:58.01	353.19	32.10	-40.1	-42.0	18.8	0.00e+00	0	41	0	0	51	4564
2026-01-18 09:48:59.29	353.08	31.85	-40.1	-42.0	18.8	0.00e+00	0	41	0	0	51	4568
2026-01-18 09:49:00.00	353.02	31.71	-40.2	-42.1	18.7	0.00e+00	0	41	0	0	51	4641
2026-01-18 09:49:01.28	352.91	31.46	-40.0	-41.9	18.9	0.00e+00	0	41	0	0	51	4515
2026-01-18 09:49:01.99	352.85	31.32	-40.0	-41.8	19.0	0.00e+00	0	41	0	0	51	4474
2026-01-18 09:49:03.27	352.75	31.07	-39.8	-41.6	19.1	0.00e+00	0	41	0	0	51	4382
2026-01-18 09:49:03.98	352.69	30.94	-39.7	-41.5	19.3	0.00e+00	0	41	0	0	51	4300
2026-01-18 09:49:05.26	352.59	30.69	-39.4	-41.1	19.6	0.00e+00	0	41	0	0	50	4359
2026-01-18 09:49:05.97	352.54	30.56	-39.3	-41.1	19.7	0.00e+00	0	41	0	0	50	4348
2026-01-18 09:49:07.25	352.44	30.32	-39.4	-41.2	19.5	0.00e+00	0	41	0	0	50	4399
2026-01-18 09:49:07.96	352.39	30.18	-39.2	-41.0	19.7	0.00e+00	0	41	0	0	50	4302
2026-01-18 09:49:09.25	352.29	29.94	-39.0	-40.7	19.9	0.00e+00	0	41	0	0	50	4158
2026-01-18 09:49:09.96	352.24	29.81	-38.6	-40.2	20.3	0.00e+00	0	41	0	0	49	4188
2026-01-18 09:49:11.24	352.14	29.58	-38.4	-40.1	20.5	0.00e+00	0	41	0	0	48	4345
2026-01-18 09:49:11.97	352.09	29.44	-38.5	-40.1	20.4	0.00e+00	0	41	0	0	48	4371
2026-01-18 09:49:13.25	352.00	29.21	-38.5	-40.1	20.4	0.00e+00	0	41	0	0	48	4373
2026-01-18 09:49:13.97	351.95	29.08	-38.4	-40.0	20.5	0.00e+00	0	41	0	0	48	4338
2026-01-18 09:49:15.25	351.86	28.85	-38.6	-40.2	20.4	0.00e+00	0	41	0	0	48	4435
2026-01-18 09:49:15.98	351.81	28.72	-38.5	-40.2	20.4	0.00e+00	0	41	0	0	48	4414
2026-01-18 09:49:17.26	351.72	28.50	-38.6	-40.3	20.4	0.00e+00	0	41	0	0	48	4457
2026-01-18 09:49:17.97	351.67	28.37	-38.7	-40.3	20.3	0.00e+00	0	41	0	0	48	4488
2026-01-18 09:49:19.25	351.59	28.15	-38.8	-40.5	20.2	0.00e+00	0	41	0	0	48	4581
2026-01-18 09:49:20.00	351.54	28.02	-38.8	-40.5	20.2	0.00e+00	0	41	0	0	48	4580
2026-01-18 09:49:21.28	351.46	27.80	-38.7	-40.4	20.3	0.00e+00	0	41	0	0	48	4518
2026-01-18 09:49:21.99	351.41	27.67	-38.8	-40.5	20.3	0.00e+00	0	41	0	0	48	4552
2026-01-18 09:49:23.27	351.33	27.45	-38.7	-40.4	20.3	0.00e+00	0	41	0	0	48	4502
2026-01-18 09:49:24.00	351.28	27.33	-38.7	-40.4	20.3	0.00e+00	0	41	0	0	48	4510
2026-01-18 09:49:25.28	351.20	27.11	-38.8	-40.6	20.2	0.00e+00	0	41	0	0	48	4601
2026-01-18 09:49:26.00	351.16	26.99	-38.7	-40.3	20.4	0.00e+00	0	41	0	0	48	4490
2026-01-18 09:49:27.28	351.08	26.78	-38.7	-40.3	20.3	0.00e+00	0	41	0	0	48	4487
2026-01-18 09:49:28.01	351.04	26.66	-38.6	-40.3	20.4	0.00e+00	0	41	0	0	48	4461
2026-01-18 09:49:29.29	350.96	26.45	-38.6	-40.3	20.4	0.00e+00	0	41	0	0	48	4454
2026-01-18 09:49:30.01	350.92	26.33	-38.5	-40.2	20.5	0.00e+00	0	41	0	0	48	4413
2026-01-18 09:49:31.29	350.84	26.12	-38.6	-40.2	20.4	0.00e+00	0	41	0	0	48	4434
2026-01-18 09:49:32.02	350.80	26.00	-38.6	-40.3	20.4	0.00e+00	0	41	0	0	48	4450
2026-01-18 09:49:33.30	350.73	25.80	-38.7	-40.4	20.3	0.00e+00	0	41	0	0	48	4517
2026-01-18 09:49:34.02	350.69	25.68	-38.8	-40.5	20.2	0.00e+00	0	41	0	0	48	4586
2026-01-18 09:49:35.30	350.62	25.48	-38.8	-40.6	20.1	0.00e+00	0	41	0	0	48	4610
2026-01-18 09:49:36.11	350.57	25.35	-38.9	-40.7	20.0	0.00e+00	0	41	0	0	48	4665
2026-01-18 09:49:37.53	350.50	25.13	-38.9	-40.7	20.0	0.00e+00	0	41	0	0	48	4657
2026-01-18 09:49:38.24	350.46	25.02	-39.1	-40.9	19.9	0.00e+00	0	41	0	0	48	4761
2026-01-18 09:49:39.72	350.38	24.79	-39.2	-41.0	19.7	0.00e+00	0	41	0	0	49	4552
2026-01-18 09:49:40.43	350.34	24.68	-39.2	-41.0	19.7	0.00e+00	0	41	0	0	49	4573
2026-01-18 09:49:41.72	350.27	24.48	-39.3	-41.1	19.7	0.00e+00	0	41	0	0	49	4608
2026-01-18 09:49:42.43	350.24	24.37	-39.3	-41.1	19.6	0.00e+00	0	41	0	0	49	4638
2026-01-18 09:49:43.71	350.17	24.18	-39.4	-41.3	19.4	0.00e+00	0	41	0	0	49	4713
2026-01-18 09:49:44.45	350.13	24.07	-39.5	-41.3	19.4	0.00e+00	0	41	0	0	49	4749
2026-01-18 09:49:45.73	350.07	23.88	-39.3	-41.2	19.4	0.00e+00	0	41	0	0	49	4692
2026-01-18 09:49:46.45	350.03	23.77	-39.4	-41.3	19.4	0.00e+00	0	41	0	0	49	4719
2026-01-18 09:49:47.73	349.97	23.58	-39.3	-41.2	19.4	0.00e+00	0	41	0	0	49	4699
2026-01-18 09:49:48.44	349.94	23.47	-39.3	-41.2	19.5	0.00e+00	0	41	0	0	49	4687
2026-01-18 09:49:49.72	349.88	23.29	-39.3	-41.2	19.5	0.00e+00	0	41	0	0	49	4652
2026-01-18 09:49:50.43	349.84	23.18	-39.2	-41.1	19.6	0.00e+00	0	41	0	0	49	4619
2026-01-18 09:49:51.71	349.78	23.00	-39.2	-41.0	19.6	0.00e+00	0	41	0	0	49	4568
2026-01-18 09:49:52.44	349.75	22.89	-39.1	-40.9	19.7	0.00e+00	0	41	0	0	49	4521
2026-01-18 09:49:53.72	349.69	22.71	-39.2	-41.0	19.6	0.00e+00	0	41	0	0	49	4546
2026-01-18 09:49:54.44	349.66	22.61	-39.1	-40.8	19.7	0.00e+00	0	41	0	0	49	4491
2026-01-18 09:49:55.72	349.60	22.42	-38.9	-40.7	19.9	0.00e+00	0	41	0	0	49	4394
2026-01-18 09:49:56.43	349.57	22.32	-38.9	-40.6	19.9	0.00e+00	0	41	0	0	49	4371
2026-01-18 09:49:57.71	349.51	22.14	-38.7	-40.4	20.0	0.00e+00	0	41	0	0	49	4283
2026-01-18 09:49:58.42	349.48	22.04	-38.6	-40.3	20.1	0.00e+00	0	41	0	0	49	4236
2026-01-18 09:49:59.75	349.42	21.86	-38.5	-40.2	20.2	0.00e+00	0	41	0	0	49	4185
2026-01-18 09:50:00.46	349.39	21.76	-38.5	-40.2	20.2	0.00e+00	0	41	0	0	49	4156
2026-01-18 09:50:01.82	349.33	21.58	-38.5	-40.2	20.2	0.00e+00	0	41	0	0	48	4423
2026-01-18 09:50:02.53	349.30	21.48	-38.6	-40.3	20.1	0.00e+00	0	41	0	0	48	4459
2026-01-18 09:50:03.82	349.25	21.30	-38.3	-40.0	20.4	0.00e+00	0	41	0	0	48	4325
2026-01-18 09:50:04.53	349.22	21.21	-38.2	-39.8	20.5	0.00e+00	0	41	0	0	48	4241
2026-01-18 09:50:05.81	349.17	21.03	-38.2	-39.9	20.5	0.00e+00	0	41	0	0	48	4253
2026-01-18 09:50:06.53	349.14	20.94	-38.2	-39.9	20.5	0.00e+00	0	41	0	0	48	4249
2026-01-18 09:50:07.81	349.09	20.77	-38.2	-39.9	20.5	0.00e+00	0	41	0	0	48	4243
2026-01-18 09:50:08.53	349.06	20.67	-38.2	-39.8	20.5	0.00e+00	0	41	0	0	48	4240
2026-01-18 09:50:09.81	349.01	20.50	-38.2	-39.8	20.6	0.00e+00	0	41	0	0	48	4233
2026-01-18 09:50:10.57	348.98	20.40	-38.2	-39.9	20.5	0.00e+00	0	41	0	0	48	4246
2026-01-18 09:50:11.85	348.93	20.24	-38.2	-39.8	20.6	0.00e+00	0	41	0	0	48	4226
2026-01-18 09:50:12.59	348.90	20.14	-38.2	-39.9	20.5	0.00e+00	0	41	0	0	48	4269
2026-01-18 09:50:13.87	348.85	19.98	-38.3	-40.0	20.5	0.00e+00	0	41	0	0	48	4293
2026-01-18 09:50:14.61	348.82	19.88	-38.3	-39.9	20.5	0.00e+00	0	41	0	0	48	4277
2026-01-18 09:50:16.21	348.76	19.68	-38.3	-39.9	20.5	0.00e+00	0	41	0	0	48	4289
2026-01-18 09:50:16.78	348.74	19.61	-38.3	-40.0	20.5	0.00e+00	0	41	0	0	48	4306
2026-01-18 09:50:18.69	348.67	19.36	-38.4	-40.1	20.4	0.00e+00	0	41	0	0	48	4375
2026-01-18 09:50:19.26	348.65	19.29	-38.3	-40.0	20.4	0.00e+00	0	41	0	0	48	4329
2026-01-18 09:50:20.96	348.59	19.08	-38.5	-40.3	20.3	0.00e+00	0	41	0	0	48	4445
2026-01-18 09:50:21.53	348.57	19.01	-38.5	-40.2	20.3	0.00e+00	0	41	0	0	48	4396
2026-01-18 09:50:23.24	348.51	18.80	-38.5	-40.2	20.3	0.00e+00	0	41	0	0	48	4434
2026-01-18 09:50:23.80	348.49	18.73	-38.5	-40.3	20.3	0.00e+00	0	41	0	0	48	4458
2026-01-18 09:50:25.51	348.43	18.52	-38.6	-40.4	20.2	0.00e+00	0	41	0	0	48	4498
2026-01-18 09:50:26.08	348.41	18.45	-38.7	-40.5	20.1	0.00e+00	0	41	0	0	48	4556
2026-01-18 09:50:27.78	348.36	18.25	-38.7	-40.5	20.1	0.00e+00	0	41	0	0	48	4578
2026-01-18 09:50:28.35	348.34	18.18	-38.7	-40.6	20.0	0.00e+00	0	41	0	0	48	4599
2026-01-18 09:50:30.04	348.28	17.98	-38.7	-40.6	20.0	0.00e+00	0	41	0	0	48	4624
2026-01-18 09:50:30.61	348.26	17.91	-38.8	-40.7	19.9	0.00e+00	0	41	0	0	48	4656
2026-01-18 09:50:32.54	348.20	17.68	-38.8	-40.7	19.8	0.00e+00	0	41	0	0	48	4688
2026-01-18 09:50:33.10	348.18	17.62	-38.9	-40.8	19.8	0.00e+00	0	41	0	0	48	4720
2026-01-18 09:50:34.81	348.13	17.42	-39.0	-40.9	19.7	0.00e+00	0	41	0	0	48	4778
2026-01-18 09:50:35.38	348.11	17.35	-39.1	-41.0	19.6	0.00e+00	0	41	0	0	48	4838
2026-01-18 09:50:37.12	348.06	17.15	-39.1	-40.9	19.6	0.00e+00	0	41	0	0	48	4808
2026-01-18 09:50:37.69	348.04	17.09	-39.1	-41.0	19.6	0.00e+00	0	41	0	0	48	4830
2026-01-18 09:50:39.67	347.98	16.86	-39.3	-41.1	19.5	0.00e+00	0	41	0	0	49	4633
2026-01-18 09:50:40.23	347.96	16.80	-39.4	-41.2	19.4	0.00e+00	0	41	0	0	49	4681
2026-01-18 09:50:41.94	347.91	16.60	-39.4	-41.3	19.3	0.00e+00	0	41	0	0	49	4715
2026-01-18 09:50:42.51	347.90	16.54	-39.5	-41.3	19.3	0.00e+00	0	41	0	0	49	4740
2026-01-18 09:50:44.21	347.85	16.35	-39.6	-41.5	19.1	0.00e+00	0	41	0	0	49	4847
2026-01-18 09:50:44.78	347.83	16.29	-39.6	-41.5	19.1	0.00e+00	0	41	0	0	49	4856
2026-01-18 09:50:46.49	347.78	16.10	-39.7	-41.6	19.0	0.00e+00	0	41	0	0	50	4648
2026-01-18 09:50:47.06	347.77	16.04	-39.7	-41.6	19.0	0.00e+00	0	41	0	0	50	4643
2026-01-18 09:50:48.95	347.71	15.83	-39.7	-41.7	18.9	0.00e+00	0	41	0	0	50	4662
2026-01-18 09:50:49.52	347.70	15.77	-39.7	-41.7	18.9	0.00e+00	0	41	0	0	50	4691
2026-01-18 09:50:51.23	347.65	15.58	-39.8	-41.8	18.8	0.00e+00	0	41	0	0	50	4740
2026-01-18 09:50:51.92	347.63	15.51	-39.8	-41.8	18.8	0.00e+00	0	41	0	0	50	4728
2026-01-18 09:50:53.34	347.59	15.35	-39.9	-41.9	18.7	0.00e+00	0	41	0	0	50	4788
2026-01-18 09:50:54.14	347.57	15.27	-39.8	-41.8	18.8	0.00e+00	0	41	0	0	50	4752
2026-01-18 09:50:55.60	347.53	15.11	-39.8	-41.8	18.8	0.00e+00	0	41	0	0	50	4744
2026-01-18 09:50:56.31	347.51	15.04	-39.9	-41.9	18.8	0.00e+00	0	41	0	0	50	4780
2026-01-18 09:50:57.59	347.48	14.90	-39.9	-41.9	18.7	0.00e+00	0	41	0	0	50	4775
2026-01-18 09:50:58.30	347.46	14.83	-39.9	-41.9	18.7	0.00e+00	0	41	0	0	50	4787
2026-01-18 09:50:59.58	347.43	14.70	-40.1	-42.1	18.6	0.00e+00	0	41	0	0	50	4872
2026-01-18 09:51:00.34	347.41	14.62	-40.0	-42.0	18.6	0.00e+00	0	41	0	0	50	4830
2026-01-18 09:51:01.62	347.38	14.49	-39.9	-41.9	18.7	0.00e+00	0	41	0	0	50	4788
2026-01-18 09:51:02.33	347.36	14.41	-40.0	-41.9	18.7	0.00e+00	0	41	0	0	50	4794
2026-01-18 09:51:03.61	347.33	14.28	-39.9	-41.9	18.6	0.00e+00	0	41	0	0	50	4806
2026-01-18 09:51:04.33	347.31	14.21	-39.9	-42.0	18.6	0.00e+00	0	41	0	0	50	4841
2026-01-18 09:51:05.61	347.28	14.08	-39.9	-42.0	18.6	0.00e+00	0	41	0	0	50	4815
2026-01-18 09:51:06.33	347.26	14.00	-39.9	-42.0	18.6	0.00e+00	0	41	0	0	50	4843
2026-01-18 09:51:07.60	347.23	13.88	-39.9	-42.0	18.6	0.00e+00	0	41	0	0	50	4822
2026-01-18 09:51:08.55	347.21	13.78	-39.8	-41.9	18.6	0.00e+00	0	41	0	0	50	4810
2026-01-18 09:51:09.55	347.19	13.68	-39.8	-41.9	18.6	0.00e+00	0	41	0	0	50	4811
2026-01-18 09:51:10.55	347.16	13.58	-39.8	-41.9	18.6	0.00e+00	0	41	0	0	50	4806
2026-01-18 09:51:11.54	347.14	13.48	-39.9	-42.0	18.6	0.00e+00	0	41	0	0	50	4819
2026-01-18 09:51:12.54	347.12	13.38	-39.8	-41.8	18.7	0.00e+00	0	41	0	0	50	4755
2026-01-18 09:51:13.53	347.09	13.29	-39.9	-41.9	18.6	0.00e+00	0	41	0	0	50	4794
2026-01-18 09:51:14.53	347.07	13.19	-39.8	-41.8	18.7	0.00e+00	0	41	0	0	50	4754
2026-01-18 09:51:15.52	347.05	13.09	-39.8	-41.8	18.7	0.00e+00	0	41	0	0	50	4730
2026-01-18 09:51:16.52	347.03	12.99	-39.9	-41.9	18.7	0.00e+00	0	41	0	0	50	4764
2026-01-18 09:51:17.51	347.00	12.90	-39.9	-41.9	18.7	0.00e+00	0	41	0	0	50	4764
2026-01-18 09:51:18.51	346.98	12.80	-39.9	-41.9	18.7	0.00e+00	0	41	0	0	50	4761
2026-01-18 09:51:19.50	346.96	12.71	-40.0	-41.9	18.6	0.00e+00	0	41	0	0	50	4802
2026-01-18 09:51:20.50	346.94	12.61	-39.9	-41.8	18.7	0.00e+00	0	41	0	0	50	4759
2026-01-18 09:51:21.49	346.92	12.52	-39.9	-41.8	18.7	0.00e+00	0	41	0	0	50	4748
2026-01-18 09:51:22.49	346.90	12.42	-39.9	-41.9	18.6	0.00e+00	0	41	0	0	50	4780
2026-01-18 09:51:23.48	346.87	12.33	-40.0	-42.0	18.6	0.00e+00	0	41	0	0	50	4830
2026-01-18 09:51:24.48	346.85	12.23	-39.8	-41.8	18.7	0.00e+00	0	41	0	0	50	4737
2026-01-18 09:51:25.47	346.83	12.14	-39.8	-41.8	18.7	0.00e+00	0	41	0	0	50	4717
2026-01-18 09:51:26.47	346.81	12.05	-39.6	-41.7	18.8	0.00e+00	0	41	0	0	50	4685
2026-01-18 09:51:27.46	346.79	11.95	-39.5	-41.7	18.8	0.00e+00	0	41	0	0	50	4655
2026-01-18 09:51:28.46	346.77	11.86	-39.6	-41.8	18.7	0.00e+00	0	41	0	0	50	4740
2026-01-18 09:51:29.45	346.75	11.77	-39.6	-41.8	18.7	0.00e+00	0	41	0	0	50	4718
2026-01-18 09:51:30.45	346.73	11.68	-39.5	-41.8	18.7	0.00e+00	0	41	0	0	50	4721
2026-01-18 09:51:31.44	346.71	11.59	-39.5	-41.8	18.7	0.00e+00	0	41	0	0	50	4718
2026-01-18 09:51:32.44	346.69	11.50	-39.6	-41.9	18.6	0.00e+00	0	41	0	0	50	4780
2026-01-18 09:51:33.43	346.67	11.40	-39.5	-41.8	18.6	0.00e+00	0	41	0	0	50	4756
2026-01-18 09:51:34.43	346.65	11.31	-39.5	-41.9	18.6	0.00e+00	0	41	0	0	50	4773
2026-01-18 09:51:35.42	346.63	11.22	-39.5	-41.9	18.6	0.00e+00	0	41	0	0	50	4783
2026-01-18 09:51:36.42	346.61	11.13	-39.6	-41.9	18.6	0.00e+00	0	41	0	0	50	4802
2026-01-18 09:51:37.41	346.60	11.05	-39.4	-41.7	18.7	0.00e+00	0	41	0	0	50	4691
2026-01-18 09:51:38.41	346.58	10.96	-39.5	-41.8	18.7	0.00e+00	0	41	0	0	50	4717
2026-01-18 09:51:39.40	346.56	10.87	-39.4	-41.8	18.7	0.00e+00	0	41	0	0	50	4715
2026-01-18 09:51:40.40	346.54	10.78	-39.5	-41.9	18.6	0.00e+00	0	41	0	0	50	4763
2026-01-18 09:51:41.40	346.52	10.69	-39.5	-41.9	18.6	0.00e+00	0	41	0	0	50	4766
2026-01-18 09:51:42.39	346.50	10.60	-39.5	-41.8	18.6	0.00e+00	0	41	0	0	50	4759
2026-01-18 09:51:43.39	346.48	10.51	-39.5	-41.9	18.5	0.00e+00	0	41	0	0	50	4801
2026-01-18 09:51:44.38	346.47	10.43	-39.6	-42.1	18.4	0.00e+00	0	41	0	0	50	4875
2026-01-18 09:51:45.38	346.45	10.34	-39.6	-42.0	18.5	0.00e+00	0	41	0	0	50	4840
2026-01-18 09:51:46.37	346.43	10.25	-39.5	-42.0	18.5	0.00e+00	0	41	0	0	50	4826
2026-01-18 09:51:47.37	346.41	10.17	-39.6	-42.1	18.4	0.00e+00	0	41	0	0	50	4879
2026-01-18 09:51:48.43	346.39	10.08	-39.6	-42.2	18.3	0.00e+00	0	41	0	0	50	4954
2026-01-18 09:51:49.34	346.38	10.00	-39.4	-41.9	18.5	0.00e+00	0	41	0	0	50	4811
2026-01-18 09:51:50.34	346.36	9.91	-39.5	-42.1	18.3	0.00e+00	0	41	0	0	50	4906
2026-01-18 09:51:51.33	346.34	9.83	-39.7	-42.3	18.1	0.00e+00	0	41	0	0	50	5038
2026-01-18 09:51:52.33	346.33	9.74	-39.5	-42.0	18.5	0.00e+00	0	41	0	0	50	4820
2026-01-18 09:51:53.32	346.31	9.66	-39.6	-42.1	18.3	0.00e+00	0	41	0	0	50	4909
2026-01-18 09:51:54.32	346.29	9.57	-39.7	-42.2	18.2	0.00e+00	0	41	0	0	50	4960
2026-01-18 09:51:55.31	346.28	9.49	-39.6	-42.1	18.4	0.00e+00	0	41	0	0	50	4878
2026-01-18 09:51:56.31	346.26	9.40	-39.7	-42.2	18.2	0.00e+00	0	41	0	0	50	4971
2026-01-18 09:51:57.30	346.24	9.32	-39.7	-42.3	18.2	0.00e+00	0	41	0	0	50	4990
2026-01-18 09:51:58.30	346.23	9.24	-39.7	-42.3	18.1	0.00e+00	0	41	0	0	50	5028
2026-01-18 09:51:59.29	346.21	9.16	-39.5	-42.2	18.3	0.00e+00	0	41	0	0	50	4929
2026-01-18 09:52:00.29	346.20	9.07	-39.7	-42.4	18.0	0.00e+00	0	41	0	0	50	5082
2026-01-18 09:52:01.28	346.18	8.99	-39.6	-42.3	18.1	0.00e+00	0	41	0	0	50	5041
2026-01-18 09:52:02.28	346.16	8.91	-45.6	-61.8	3.8	1.47e+00	0	41	104	0	62	23691
2026-01-18 09:52:03.27	346.15	8.83	-47.5	-62.0	3.8	1.49e+00	0	41	104	0	66	19374
2026-01-18 09:52:04.27	346.13	8.74	-48.9	-62.3	3.8	1.49e+00	0	41	104	0	68	17812
2026-01-18 09:52:05.31	346.12	8.66	-48.9	-62.4	3.8	1.49e+00	0	41	104	0	68	17972
2026-01-18 09:52:06.33	346.10	8.58	-48.4	-62.5	3.8	1.49e+00	0	41	104	0	68	18221
2026-01-18 09:52:07.36	346.08	8.49	-48.7	-62.6	3.8	1.49e+00	0	41	104	0	68	18357
2026-01-18 09:52:08.38	346.07	8.41	-49.3	-62.6	3.8	1.49e+00	0	41	104	0	69	17298
2026-01-18 09:52:09.41	346.05	8.33	-48.8	-62.6	3.8	1.49e+00	0	41	104	0	69	17399
2026-01-18 09:52:10.43	346.04	8.24	-48.9	-62.7	3.8	1.49e+00	0	41	104	0	69	17482
2026-01-18 09:52:11.46	346.02	8.16	-49.5	-62.7	3.8	1.49e+00	0	41	104	0	69	17507
2026-01-18 09:52:12.48	346.01	8.08	-49.5	-62.6	3.8	1.49e+00	0	41	104	0	69	17435
2026-01-18 09:52:13.51	345.99	8.00	-49.6	-62.7	3.8	1.49e+00	0	41	104	0	69	17506
2026-01-18 09:52:14.53	345.98	7.92	-49.5	-62.6	3.8	1.49e+00	0	41	104	0	69	17451
2026-01-18 09:52:15.53	345.96	7.84	-49.5	-62.6	3.8	1.49e+00	0	41	104	0	69	17456
2026-01-18 09:52:16.52	345.95	7.76	-49.6	-62.7	3.8	1.49e+00	0	41	104	0	69	17487
2026-01-18 09:52:17.51	345.93	7.68	-49.4	-62.7	3.8	1.49e+00	0	41	104	0	69	17544
2026-01-18 09:52:18.51	345.92	7.60	-49.3	-62.7	3.8	1.49e+00	0	41	104	0	69	17516
2026-01-18 09:52:19.50	345.91	7.53	-49.5	-62.6	3.8	1.49e+00	0	41	104	0	69	17466
2026-01-18 09:52:20.49	345.89	7.45	-49.5	-62.6	3.8	1.49e+00	0	41	104	0	69	17476
2026-01-18 09:52:21.49	345.88	7.37	-49.6	-62.7	3.8	1.49e+00	0	41	104	0	70	16523
2026-01-18 09:52:22.48	345.86	7.30	-49.7	-62.6	3.8	1.49e+00	0	41	104	0	70	16481
2026-01-18 09:52:23.47	345.85	7.22	-49.7	-62.7	3.8	1.49e+00	0	41	104	0	70	16535
2026-01-18 09:52:24.47	345.84	7.14	-49.6	-62.6	3.8	1.49e+00	0	41	104	0	70	16499
2026-01-18 09:52:25.46	345.82	7.07	-49.6	-62.6	3.8	1.49e+00	0	41	104	0	70	16492
2026-01-18 09:52:26.45	345.81	6.99	-49.6	-62.7	3.8	1.49e+00	0	41	104	0	70	16531
2026-01-18 09:52:27.45	345.80	6.91	-49.6	-62.6	3.8	1.49e+00	0	41	104	0	70	16438
2026-01-18 09:52:28.44	345.78	6.84	-49.6	-62.6	3.8	1.49e+00	0	41	104	0	70	16457
2026-01-18 09:52:29.43	345.77	6.76	-49.4	-62.6	3.8	1.49e+00	0	41	104	0	70	16497
2026-01-18 09:52:30.43	345.76	6.69	-49.4	-62.6	3.8	1.49e+00	0	41	104	0	70	16452
2026-01-18 09:52:31.44	345.74	6.61	-49.3	-62.6	3.8	1.49e+00	0	41	104	0	70	16372
2026-01-18 09:52:32.43	345.73	6.54	-49.3	-62.6	3.8	1.49e+00	0	42	104	0	70	16451
2026-01-18 09:52:33.42	345.72	6.46	-49.3	-62.5	3.8	1.49e+00	0	42	104	0	70	16306
2026-01-18 09:52:34.42	345.71	6.39	-49.3	-62.6	3.8	1.49e+00	0	41	104	0	70	16326
2026-01-18 09:52:35.41	345.69	6.31	-49.3	-62.5	3.8	1.49e+00	0	41	104	0	70	16298
2026-01-18 09:52:36.40	345.68	6.24	-49.3	-62.5	3.8	1.49e+00	0	42	104	0	70	16266
2026-01-18 09:52:37.40	345.67	6.17	-49.3	-62.6	3.8	1.49e+00	0	41	104	0	70	16336
2026-01-18 09:52:38.39	345.66	6.09	-49.3	-62.5	3.8	1.49e+00	0	41	104	0	70	16301
2026-01-18 09:52:39.38	345.64	6.02	-49.3	-62.5	3.8	1.49e+00	0	41	104	0	70	16219
2026-01-18 09:52:40.37	345.63	5.95	-49.3	-62.5	3.8	1.49e+00	0	41	104	0	70	16297
2026-01-18 09:52:41.37	345.62	5.87	-49.3	-62.5	3.8	1.49e+00	0	41	104	0	70	16268
2026-01-18 09:52:42.36	345.61	5.80	-49.3	-62.5	3.8	1.49e+00	0	41	104	0	70	16255
2026-01-18 09:52:43.35	345.60	5.73	-49.3	-62.5	3.8	1.49e+00	0	41	104	0	70	16240
2026-01-18 09:52:44.35	345.59	5.66	-49.2	-62.5	3.8	1.49e+00	0	41	104	0	70	16263
2026-01-18 09:52:45.34	345.57	5.59	-49.3	-62.5	3.8	1.49e+00	0	41	104	0	70	16265
2026-01-18 09:52:46.33	345.56	5.51	-49.3	-62.5	3.8	1.49e+00	0	41	104	0	70	16246
2026-01-18 09:52:47.33	345.55	5.44	-49.2	-62.5	3.8	1.49e+00	0	42	104	0	70	16242
