passes_logs/2026/01/18/T1/T1__20260118_121432_AQUA_rec.log

#Pass ID: 20260118_121432_AQUA
#Satellite: AQUA
#Configuration: AQUA
#almurnet v.1.7.20251203
#Start time: 2026-01-18 12:14:34

#Version: 2.0.20230620
#Station: T1
#Location: 37.570604 lon 55.790049 lat
#TLE: 1 27424U 02022A   26017.62394888  .00000781  00000+0  16630-3 0  9993
#TLE: 2 27424  98.4086 344.0954 0002010  75.0132 339.4723 14.61825944261279

#Time	Az	El	Level	Level2	SNR	BER	BlckErr	Temp	State	Recorded	gain1	gain2
2026-01-18 12:14:34.19	180.05	5.14	-49.1	-71.3	3.8	7.48e-01	0	37	0	0	69	47373
2026-01-18 12:14:35.18	180.09	5.21	-49.1	-71.2	3.8	7.47e-01	0	37	104	0	69	46661
2026-01-18 12:14:36.23	180.13	5.29	-49.2	-71.0	3.8	7.45e-01	0	37	104	0	69	45653
2026-01-18 12:14:37.19	180.17	5.36	-49.2	-70.8	3.8	7.45e-01	0	37	104	0	69	44914
2026-01-18 12:14:38.18	180.21	5.43	-49.2	-70.7	3.8	7.44e-01	0	37	104	0	69	43936
2026-01-18 12:14:39.17	180.25	5.51	-49.2	-70.5	3.8	7.46e-01	0	37	104	0	69	43309
2026-01-18 12:14:40.17	180.29	5.58	-49.2	-70.5	3.8	7.43e-01	0	37	104	0	69	42974
2026-01-18 12:14:41.16	180.33	5.66	-49.2	-70.4	3.8	7.47e-01	0	37	104	0	69	42855
2026-01-18 12:14:42.15	180.37	5.73	-49.2	-70.7	3.8	7.47e-01	0	37	104	0	69	44030
2026-01-18 12:14:43.14	180.41	5.81	-49.2	-70.9	3.8	7.45e-01	0	37	104	0	69	45050
2026-01-18 12:14:44.14	180.46	5.88	-49.2	-71.1	3.8	7.44e-01	0	37	104	0	69	46220
2026-01-18 12:14:45.13	180.50	5.96	-49.2	-71.3	3.8	7.49e-01	0	37	104	0	69	47084
2026-01-18 12:14:46.12	180.54	6.03	-49.2	-71.3	3.8	7.46e-01	0	38	104	0	69	47305
2026-01-18 12:14:47.12	180.58	6.11	-49.1	-71.2	3.8	7.47e-01	0	38	104	0	69	47012
2026-01-18 12:14:48.11	180.63	6.19	-49.1	-71.1	3.8	7.47e-01	0	38	104	0	69	46375
2026-01-18 12:14:49.10	180.67	6.26	-49.1	-70.9	3.8	7.44e-01	0	38	104	0	69	45233
2026-01-18 12:14:50.10	180.71	6.34	-49.1	-71.0	3.8	7.46e-01	0	38	104	0	69	45458
2026-01-18 12:14:51.09	180.76	6.42	-49.1	-71.0	3.8	7.44e-01	0	38	104	0	69	45457
2026-01-18 12:14:52.08	180.80	6.49	-49.1	-71.0	3.8	7.43e-01	0	38	104	0	69	45468
2026-01-18 12:14:53.07	180.84	6.57	-49.1	-70.7	3.8	7.47e-01	0	38	104	0	69	43974
2026-01-18 12:14:54.07	180.89	6.65	-49.1	-69.9	3.8	7.49e-01	0	38	104	0	69	40140
2026-01-18 12:14:55.06	180.93	6.73	-49.1	-68.5	4.0	7.36e-01	0	38	104	0	69	34364
2026-01-18 12:14:56.05	180.98	6.81	-49.1	-67.3	4.4	7.30e-01	0	38	104	0	69	29911
2026-01-18 12:14:57.05	181.02	6.88	-49.0	-66.0	4.9	7.15e-01	0	38	0	0	69	25654
2026-01-18 12:14:58.04	181.07	6.96	-49.0	-66.0	4.9	7.14e-01	0	38	104	0	69	25738
2026-01-18 12:14:59.03	181.11	7.04	-49.0	-65.8	5.0	7.13e-01	0	38	0	0	69	25126
2026-01-18 12:15:00.02	181.16	7.12	-49.0	-65.9	5.0	7.11e-01	0	38	0	0	69	25396
2026-01-18 12:15:01.02	181.20	7.20	-49.0	-68.2	4.1	7.37e-01	0	38	104	0	69	32985
2026-01-18 12:15:02.01	181.25	7.28	-49.1	-69.9	3.8	7.46e-01	0	38	104	0	69	40274
2026-01-18 12:15:03.00	181.30	7.36	-49.0	-67.9	4.2	7.33e-01	0	38	104	0	69	31843
2026-01-18 12:15:04.00	181.34	7.44	-48.9	-63.1	6.8	6.66e-01	0	38	0	0	69	18391
2026-01-18 12:15:04.99	181.39	7.52	-48.6	-59.7	10.3	6.23e-01	0	38	0	2097152	69	12433
2026-01-18 12:15:05.98	181.44	7.60	-48.0	-56.1	14.0	6.08e-01	0	38	0	3670016	68	8729
2026-01-18 12:15:06.98	181.48	7.68	-47.3	-54.1	16.1	6.07e-01	0	38	0	5767168	66	7734
2026-01-18 12:15:07.97	181.53	7.77	-46.7	-52.2	17.8	6.06e-01	0	38	0	7864320	65	6629
2026-01-18 12:15:08.96	181.58	7.85	-46.1	-50.8	19.4	6.08e-01	0	38	0	9437184	63	6288
2026-01-18 12:15:09.95	181.63	7.93	-45.6	-49.9	20.2	6.08e-01	0	38	0	11534336	63	5682
2026-01-18 12:15:10.95	181.68	8.01	-44.8	-48.6	21.5	6.08e-01	0	38	0	13107200	61	5507
2026-01-18 12:15:11.94	181.73	8.09	-44.7	-48.5	21.6	6.08e-01	0	38	0	15204352	61	5416
2026-01-18 12:15:12.93	181.77	8.18	-44.3	-47.9	22.2	6.07e-01	0	38	0	16777216	60	5346
2026-01-18 12:15:13.93	181.82	8.26	-44.5	-48.1	22.0	6.07e-01	0	38	0	18874368	60	5465
2026-01-18 12:15:14.92	181.87	8.34	-44.6	-48.2	21.9	6.08e-01	0	38	0	20447232	60	5544
2026-01-18 12:15:15.91	181.92	8.43	-44.9	-48.8	21.3	6.06e-01	0	38	0	22544384	60	5947
2026-01-18 12:15:16.90	181.97	8.51	-45.3	-49.5	20.7	6.06e-01	0	38	0	24641536	61	6082
2026-01-18 12:15:17.90	182.02	8.60	-46.1	-50.9	19.3	6.07e-01	0	38	0	26214400	62	6755
2026-01-18 12:15:18.89	182.08	8.68	-46.6	-52.0	18.3	6.06e-01	0	38	0	28311552	63	7243
2026-01-18 12:15:19.88	182.13	8.77	-47.1	-53.4	16.8	6.09e-01	0	38	0	29884416	64	8048
2026-01-18 12:15:20.88	182.18	8.85	-47.6	-55.0	15.2	6.06e-01	0	38	0	31981568	65	9158
2026-01-18 12:15:21.87	182.23	8.94	-48.1	-57.3	12.8	6.10e-01	0	38	0	33554432	66	11275
2026-01-18 12:15:22.86	182.28	9.02	-48.3	-58.9	11.1	6.20e-01	0	38	0	35651584	67	12800
2026-01-18 12:15:23.86	182.33	9.11	-46.3	-51.0	19.0	6.05e-01	0	38	0	37224448	64	6066
2026-01-18 12:15:24.98	182.39	9.21	-48.5	-60.8	9.2	6.35e-01	0	38	0	39321600	67	15890
2026-01-18 12:15:25.83	182.44	9.28	-48.4	-57.6	12.5	6.10e-01	0	38	0	41418752	67	10990
2026-01-18 12:15:26.97	182.50	9.38	-48.9	-57.2	13.1	6.09e-01	0	38	0	43515904	68	9847
2026-01-18 12:15:27.83	182.55	9.46	-48.8	-62.5	7.7	6.53e-01	0	39	0	45088768	68	18098
2026-01-18 12:15:28.96	182.61	9.56	-49.2	-57.6	12.4	6.13e-01	0	38	0	47185920	69	9784
2026-01-18 12:15:29.81	182.66	9.63	-49.3	-57.5	13.1	6.12e-01	0	38	0	48758784	69	9697
2026-01-18 12:15:30.95	182.72	9.73	-49.0	-56.8	13.8	6.10e-01	0	38	0	50855936	69	8927
2026-01-18 12:15:31.80	182.77	9.81	-48.9	-56.8	13.5	6.08e-01	0	39	0	52428800	69	8863
2026-01-18 12:15:32.94	182.83	9.91	-48.8	-56.4	13.5	6.10e-01	0	39	0	54525952	69	8537
2026-01-18 12:15:33.79	182.88	9.99	-48.9	-56.7	13.6	6.09e-01	0	39	0	56098816	69	8771
2026-01-18 12:15:34.94	182.94	10.09	-48.5	-55.3	15.0	6.07e-01	0	38	0	58195968	69	7500
2026-01-18 12:15:35.80	182.99	10.17	-48.3	-54.5	15.2	6.08e-01	0	39	0	59768832	68	7253
2026-01-18 12:15:37.00	183.06	10.28	-48.4	-54.9	15.4	6.07e-01	0	38	0	61865984	68	7629
2026-01-18 12:15:37.85	183.11	10.36	-48.1	-54.2	16.0	6.08e-01	0	38	0	63963136	68	6987
2026-01-18 12:15:38.99	183.17	10.46	-48.0	-54.4	15.6	6.08e-01	0	39	0	66060288	67	7586
2026-01-18 12:15:39.84	183.22	10.54	-48.0	-54.4	15.9	6.05e-01	0	39	0	67633152	67	7546
2026-01-18 12:15:40.98	183.29	10.65	-47.5	-53.0	17.1	6.08e-01	0	39	0	69730304	67	6458
2026-01-18 12:15:41.83	183.34	10.73	-47.1	-52.1	18.1	6.07e-01	0	39	0	71303168	66	6193
2026-01-18 12:15:42.97	183.41	10.83	-46.5	-50.9	19.2	6.05e-01	0	39	0	73400320	65	5711
2026-01-18 12:15:43.82	183.46	10.91	-46.1	-50.3	19.9	6.09e-01	0	39	0	74973184	64	5635
2026-01-18 12:15:44.96	183.53	11.02	-45.7	-49.5	20.7	6.07e-01	0	39	0	77070336	63	5438
2026-01-18 12:15:45.81	183.58	11.10	-45.4	-49.1	21.1	6.07e-01	0	39	0	78643200	62	5510
2026-01-18 12:15:46.95	183.65	11.21	-45.3	-49.0	21.3	6.06e-01	0	39	0	80740352	62	5432
2026-01-18 12:15:47.80	183.70	11.29	-45.3	-49.1	21.2	6.06e-01	0	39	0	82313216	62	5510
2026-01-18 12:15:48.94	183.77	11.40	-45.2	-48.8	20.5	6.08e-01	0	39	0	84410368	62	5310
2026-01-18 12:15:49.79	183.83	11.48	-45.5	-49.2	20.0	6.07e-01	0	39	0	85983232	62	5564
2026-01-18 12:15:50.92	183.90	11.59	-45.2	-48.6	21.6	6.06e-01	0	39	0	88080384	62	5193
2026-01-18 12:15:51.78	183.95	11.67	-44.6	-47.7	22.4	6.04e-01	0	39	0	89653248	61	4931
2026-01-18 12:15:52.98	184.03	11.79	-44.2	-47.1	23.0	6.07e-01	0	39	0	92274688	60	4906
2026-01-18 12:15:53.83	184.08	11.87	-44.3	-47.2	23.0	6.08e-01	0	39	0	93847552	60	4971
2026-01-18 12:15:55.03	184.16	11.99	-44.2	-47.2	22.7	6.06e-01	0	39	0	95944704	60	4976
2026-01-18 12:15:55.88	184.22	12.07	-44.3	-47.3	22.9	6.07e-01	0	39	0	97517568	60	5034
2026-01-18 12:15:57.08	184.29	12.19	-44.3	-47.3	22.9	6.07e-01	0	39	0	99614720	60	5035
2026-01-18 12:15:57.93	184.35	12.28	-44.1	-47.1	23.0	6.08e-01	0	39	0	101187584	60	4880
2026-01-18 12:15:59.13	184.43	12.40	-43.9	-46.8	23.4	6.08e-01	0	38	0	103809024	59	5021
2026-01-18 12:15:59.99	184.49	12.48	-43.7	-46.5	23.7	6.06e-01	0	39	0	105381888	59	4835
2026-01-18 12:16:01.12	184.56	12.60	-43.8	-46.6	23.6	6.07e-01	0	39	0	107479040	59	4888
2026-01-18 12:16:01.98	184.62	12.68	-43.7	-46.5	23.7	6.09e-01	0	39	0	109051904	59	4846
2026-01-18 12:16:03.11	184.70	12.80	-43.7	-46.5	23.7	6.06e-01	0	38	0	111149056	59	4854
2026-01-18 12:16:03.96	184.76	12.89	-43.7	-46.6	23.7	6.08e-01	0	39	0	112721920	59	4871
2026-01-18 12:16:05.10	184.84	13.00	-43.6	-46.4	23.9	6.07e-01	0	39	0	114819072	58	5065
2026-01-18 12:16:06.02	184.90	13.10	-43.6	-46.4	23.8	6.07e-01	0	39	0	116391936	58	5071
2026-01-18 12:16:07.01	184.97	13.20	-43.5	-46.3	23.9	6.06e-01	0	39	0	118489088	58	4999
2026-01-18 12:16:08.01	185.04	13.30	-43.6	-46.4	23.9	6.08e-01	0	39	0	120061952	58	5057
2026-01-18 12:16:09.00	185.11	13.41	-43.7	-46.5	23.7	6.07e-01	0	39	0	122159104	58	5137
2026-01-18 12:16:10.00	185.18	13.51	-43.6	-46.4	23.9	6.07e-01	0	39	0	123731968	58	5045
2026-01-18 12:16:10.99	185.25	13.61	-43.6	-46.3	23.9	6.07e-01	0	39	0	125829120	58	5007
2026-01-18 12:16:11.99	185.33	13.72	-43.6	-46.3	23.9	6.07e-01	0	39	0	127926272	58	5030
2026-01-18 12:16:12.99	185.40	13.83	-43.8	-46.6	23.6	6.07e-01	0	39	0	129499136	58	5200
2026-01-18 12:16:13.98	185.47	13.93	-43.6	-46.4	23.9	6.08e-01	0	39	0	131596288	58	5052
2026-01-18 12:16:14.97	185.55	14.04	-43.7	-46.4	23.9	6.08e-01	0	39	0	133169152	58	5059
2026-01-18 12:16:15.97	185.62	14.15	-43.5	-46.1	24.2	6.06e-01	0	39	0	135266304	58	4882
2026-01-18 12:16:17.01	185.70	14.26	-43.6	-46.3	24.0	6.07e-01	0	39	0	137363456	58	4988
2026-01-18 12:16:17.96	185.77	14.36	-43.5	-46.1	24.0	6.08e-01	0	39	0	138936320	58	4926
2026-01-18 12:16:18.95	185.85	14.47	-43.6	-46.2	24.1	6.07e-01	0	39	0	141033472	58	4930
2026-01-18 12:16:19.95	185.92	14.58	-43.5	-46.1	24.1	6.03e-01	0	39	0	142606336	58	4901
2026-01-18 12:16:20.94	186.00	14.69	-43.5	-46.1	24.2	6.07e-01	0	39	0	144703488	58	4883
2026-01-18 12:16:21.94	186.08	14.80	-43.6	-46.2	24.0	6.09e-01	0	39	0	146276352	58	4964
2026-01-18 12:16:22.93	186.16	14.91	-43.5	-46.1	24.1	6.06e-01	0	39	0	148373504	58	4926
2026-01-18 12:16:23.92	186.24	15.02	-43.4	-46.1	24.2	6.07e-01	0	39	0	149946368	58	4875
2026-01-18 12:16:24.91	186.32	15.13	-43.3	-46.0	24.2	6.07e-01	0	39	0	152043520	58	4840
2026-01-18 12:16:25.91	186.40	15.24	-43.4	-46.1	24.1	6.06e-01	0	39	0	153616384	58	4898
2026-01-18 12:16:26.91	186.48	15.35	-43.3	-46.0	24.2	6.07e-01	0	39	0	155713536	58	4848
2026-01-18 12:16:27.90	186.56	15.47	-43.4	-46.1	24.1	6.04e-01	0	39	0	157810688	58	4923
2026-01-18 12:16:28.93	186.64	15.58	-43.3	-46.0	24.2	6.06e-01	0	39	0	159383552	58	4861
2026-01-18 12:16:29.94	186.73	15.70	-43.5	-46.3	23.9	6.07e-01	0	39	0	161480704	58	5023
2026-01-18 12:16:30.95	186.81	15.82	-43.5	-46.3	24.0	6.08e-01	0	39	0	163053568	58	4996
2026-01-18 12:16:31.97	186.90	15.93	-43.3	-46.1	24.1	6.06e-01	0	39	0	165150720	58	4894
2026-01-18 12:16:32.99	186.99	16.05	-43.1	-45.9	24.4	6.08e-01	0	39	0	167247872	58	4786
2026-01-18 12:16:33.98	187.07	16.17	-43.3	-46.0	24.2	6.08e-01	0	39	0	168820736	58	4860
2026-01-18 12:16:34.98	187.16	16.29	-43.3	-46.0	24.3	6.08e-01	0	39	0	170917888	58	4840
2026-01-18 12:16:35.97	187.25	16.40	-43.2	-45.8	24.4	6.09e-01	0	39	0	172490752	58	4747
2026-01-18 12:16:36.97	187.33	16.52	-43.3	-45.9	24.4	6.09e-01	0	39	0	174587904	58	4802
2026-01-18 12:16:37.96	187.42	16.64	-43.3	-46.0	24.2	6.05e-01	0	39	0	176160768	58	4824
2026-01-18 12:16:38.96	187.51	16.76	-43.4	-46.0	24.2	6.06e-01	0	39	0	178257920	58	4855
2026-01-18 12:16:39.95	187.60	16.88	-43.3	-46.0	24.2	6.09e-01	0	39	0	180355072	58	4852
2026-01-18 12:16:40.95	187.69	17.00	-43.3	-46.0	24.3	6.05e-01	0	39	0	181927936	58	4846
2026-01-18 12:16:41.94	187.78	17.12	-43.2	-45.9	24.4	6.07e-01	0	39	0	184025088	58	4778
2026-01-18 12:16:42.94	187.87	17.24	-43.4	-46.0	24.2	6.06e-01	0	39	0	185597952	58	4833
2026-01-18 12:16:43.93	187.97	17.36	-43.2	-45.8	24.4	6.05e-01	0	39	0	187695104	58	4738
2026-01-18 12:16:44.93	188.06	17.49	-43.3	-45.9	24.3	6.06e-01	0	39	0	189267968	58	4793
2026-01-18 12:16:45.92	188.15	17.61	-43.1	-45.7	24.6	6.05e-01	0	39	0	191365120	58	4682
2026-01-18 12:16:46.92	188.25	17.73	-43.1	-45.7	24.5	6.08e-01	0	39	0	192937984	58	4675
2026-01-18 12:16:47.91	188.35	17.86	-43.1	-45.7	24.6	6.07e-01	0	39	0	195035136	58	4661
2026-01-18 12:16:48.91	188.44	17.98	-43.2	-45.8	24.4	6.06e-01	0	39	0	197132288	58	4750
2026-01-18 12:16:49.90	188.54	18.11	-43.2	-45.9	24.4	6.06e-01	0	39	0	198705152	58	4791
2026-01-18 12:16:50.98	188.65	18.25	-43.3	-46.0	24.3	6.08e-01	0	39	0	200802304	58	4846
2026-01-18 12:16:51.83	188.73	18.36	-43.2	-45.9	24.4	6.08e-01	0	39	0	202375168	58	4788
2026-01-18 12:16:52.97	188.85	18.50	-43.3	-45.9	24.4	6.08e-01	0	39	0	204472320	58	4801
2026-01-18 12:16:53.82	188.93	18.61	-43.2	-45.9	22.6	6.09e-01	0	39	0	206045184	58	4783
2026-01-18 12:16:54.96	189.05	18.76	-43.2	-45.8	24.5	6.07e-01	0	39	0	208142336	58	4733
2026-01-18 12:16:55.81	189.14	18.87	-43.2	-45.7	24.5	6.07e-01	0	39	0	209715200	58	4704
2026-01-18 12:16:56.95	189.26	19.02	-43.1	-45.7	24.5	6.06e-01	0	39	0	211812352	58	4684
2026-01-18 12:16:57.80	189.35	19.13	-43.2	-45.7	24.5	6.05e-01	0	39	0	213385216	58	4705
2026-01-18 12:16:58.94	189.47	19.28	-43.2	-45.8	24.5	6.06e-01	0	39	0	216006656	58	4725
2026-01-18 12:16:59.79	189.56	19.40	-43.3	-45.9	24.4	6.08e-01	0	39	0	217579520	58	4796
2026-01-18 12:17:00.93	189.68	19.55	-43.2	-45.9	24.4	6.06e-01	0	39	0	219676672	58	4770
2026-01-18 12:17:01.78	189.77	19.66	-43.3	-45.9	24.4	6.07e-01	0	39	0	221249536	58	4797
2026-01-18 12:17:03.03	189.91	19.83	-43.2	-45.8	24.5	6.08e-01	0	39	0	223346688	58	4722
2026-01-18 12:17:03.88	190.00	19.95	-43.2	-45.8	24.5	6.07e-01	0	39	0	224919552	58	4721
2026-01-18 12:17:05.01	190.13	20.10	-43.1	-45.7	24.6	6.08e-01	0	39	0	227016704	58	4661
2026-01-18 12:17:05.87	190.23	20.22	-43.1	-45.6	24.7	6.07e-01	0	39	0	228589568	58	4630
2026-01-18 12:17:07.13	190.37	20.40	-43.2	-45.7	24.6	6.07e-01	0	39	0	231211008	58	4684
2026-01-18 12:17:07.90	190.46	20.50	-43.2	-45.8	24.5	6.07e-01	0	39	0	232783872	58	4717
2026-01-18 12:17:09.19	190.61	20.68	-43.4	-45.9	24.4	6.05e-01	0	39	0	234881024	58	4812
2026-01-18 12:17:09.90	190.69	20.78	-43.4	-46.0	24.4	6.07e-01	0	39	0	236453888	58	4822
2026-01-18 12:17:11.17	190.84	20.96	-43.4	-46.0	24.3	6.08e-01	0	39	0	238551040	58	4835
2026-01-18 12:17:11.88	190.93	21.06	-43.4	-46.0	24.4	6.06e-01	0	39	0	240123904	58	4833
2026-01-18 12:17:13.16	191.08	21.25	-43.4	-46.0	24.4	6.06e-01	0	39	0	242221056	58	4835
2026-01-18 12:17:13.87	191.17	21.35	-43.3	-45.9	24.5	6.05e-01	0	39	0	243793920	58	4801
2026-01-18 12:17:15.15	191.33	21.53	-43.3	-45.9	24.5	6.07e-01	0	39	0	245891072	58	4781
2026-01-18 12:17:15.86	191.41	21.63	-43.2	-45.8	24.6	6.07e-01	0	39	0	247463936	58	4715
2026-01-18 12:17:17.14	191.57	21.82	-43.4	-46.0	24.4	6.09e-01	0	39	0	250085376	58	4823
2026-01-18 12:17:17.86	191.67	21.93	-43.5	-46.0	24.4	6.06e-01	0	39	0	251133952	58	4850
2026-01-18 12:17:19.13	191.83	22.11	-43.6	-46.1	24.3	6.06e-01	0	39	0	253755392	58	4888
2026-01-18 12:17:19.86	191.92	22.22	-43.5	-46.1	24.3	6.07e-01	0	39	0	254803968	58	4878
2026-01-18 12:17:21.14	192.09	22.41	-43.7	-46.2	24.2	6.07e-01	0	39	0	257425408	58	4939
2026-01-18 12:17:21.86	192.18	22.52	-43.6	-46.1	24.3	6.07e-01	0	39	0	258473984	58	4906
2026-01-18 12:17:23.24	192.37	22.73	-43.6	-46.1	24.3	6.08e-01	0	39	0	261095424	58	4875
2026-01-18 12:17:23.95	192.46	22.84	-43.6	-46.0	24.0	6.03e-01	0	39	0	262668288	58	4851
2026-01-18 12:17:25.23	192.64	23.03	-43.6	-46.1	24.3	6.07e-01	0	39	0	264765440	58	4906
2026-01-18 12:17:25.95	192.73	23.14	-43.7	-46.2	24.1	6.09e-01	0	39	0	266338304	58	4974
2026-01-18 12:17:27.23	192.91	23.34	-43.6	-46.1	24.3	6.09e-01	0	39	0	268959744	58	4893
2026-01-18 12:17:27.94	193.01	23.45	-43.6	-46.1	24.3	6.07e-01	0	39	0	270008320	58	4907
2026-01-18 12:17:29.22	193.19	23.65	-43.7	-46.2	24.3	6.08e-01	0	39	0	272629760	58	4942
2026-01-18 12:17:29.93	193.29	23.76	-43.7	-46.2	24.3	6.06e-01	0	39	0	273678336	58	4928
2026-01-18 12:17:31.21	193.48	23.96	-43.8	-46.3	24.1	6.06e-01	0	39	0	276299776	58	4991
2026-01-18 12:17:31.95	193.58	24.08	-43.8	-46.3	24.1	6.07e-01	0	39	0	277872640	58	5000
2026-01-18 12:17:33.23	193.77	24.28	-43.8	-46.3	24.1	6.09e-01	0	39	0	279969792	58	5017
2026-01-18 12:17:33.94	193.88	24.40	-43.7	-46.2	24.2	6.07e-01	0	39	0	281542656	58	4962
2026-01-18 12:17:35.22	194.07	24.60	-43.7	-46.3	24.2	6.06e-01	0	39	0	283639808	58	4993
2026-01-18 12:17:35.93	194.18	24.72	-43.7	-46.2	24.2	6.08e-01	0	39	0	285212672	58	4952
2026-01-18 12:17:37.21	194.37	24.92	-43.7	-46.2	24.2	6.09e-01	0	39	0	287309824	58	4963
2026-01-18 12:17:37.93	194.48	25.04	-43.7	-46.1	24.3	6.07e-01	0	39	0	288882688	58	4925
2026-01-18 12:17:39.22	194.69	25.25	-43.6	-46.0	24.4	6.06e-01	0	39	0	291504128	58	4867
2026-01-18 12:17:39.92	194.80	25.37	-43.6	-46.1	24.4	6.06e-01	0	39	0	292552704	58	4888
2026-01-18 12:17:41.25	195.01	25.59	-43.7	-46.2	24.2	6.06e-01	0	39	0	295174144	58	4956
2026-01-18 12:17:41.96	195.12	25.71	-43.7	-46.1	24.3	6.08e-01	0	39	0	296222720	58	4916
2026-01-18 12:17:43.24	195.33	25.92	-43.7	-46.2	24.3	6.07e-01	0	39	0	298844160	58	4934
2026-01-18 12:17:43.96	195.45	26.05	-43.5	-45.9	24.5	6.05e-01	0	39	0	299892736	58	4814
2026-01-18 12:17:45.24	195.66	26.26	-43.6	-46.0	24.4	6.06e-01	0	39	0	302514176	58	4841
2026-01-18 12:17:45.95	195.78	26.39	-43.6	-46.1	24.4	6.06e-01	0	39	0	304087040	58	4890
2026-01-18 12:17:47.22	196.00	26.60	-43.8	-46.3	24.2	6.07e-01	0	39	0	306184192	58	5006
2026-01-18 12:17:48.03	196.14	26.74	-43.8	-46.3	24.1	6.05e-01	0	39	0	307757056	58	5036
2026-01-18 12:17:49.17	196.34	26.94	-43.6	-46.0	24.4	6.05e-01	0	39	0	309854208	58	4865
2026-01-18 12:17:50.13	196.51	27.11	-43.2	-45.6	24.8	6.06e-01	0	39	0	311951360	58	4607
2026-01-18 12:17:51.13	196.69	27.28	-43.1	-45.4	24.9	6.05e-01	0	39	0	313524224	58	4539
2026-01-18 12:17:52.12	196.87	27.46	-43.3	-45.7	24.7	6.06e-01	0	39	0	315621376	58	4692
2026-01-18 12:17:53.12	197.05	27.64	-43.6	-46.1	24.4	6.07e-01	0	39	0	317194240	58	4879
2026-01-18 12:17:54.41	197.29	27.87	-43.4	-45.9	24.6	6.07e-01	0	39	0	319815680	58	4762
2026-01-18 12:17:55.17	197.43	28.00	-43.3	-45.7	24.7	6.07e-01	0	39	0	321388544	58	4682
2026-01-18 12:17:56.45	197.67	28.23	-43.3	-45.7	24.7	6.08e-01	0	39	0	323485696	58	4694
2026-01-18 12:17:57.21	197.81	28.37	-43.4	-45.8	24.6	6.08e-01	0	39	0	325058560	58	4759
2026-01-18 12:17:58.49	198.06	28.60	-43.5	-46.0	24.4	6.06e-01	0	39	0	327680000	58	4825
2026-01-18 12:17:59.23	198.21	28.74	-43.5	-45.9	24.5	6.06e-01	0	39	0	328728576	58	4780
2026-01-18 12:18:00.51	198.46	28.98	-43.1	-45.5	24.8	6.06e-01	0	39	0	331350016	58	4577
2026-01-18 12:18:01.24	198.61	29.11	-43.1	-45.4	24.9	6.06e-01	0	39	0	332398592	58	4544
2026-01-18 12:18:02.51	198.86	29.35	-43.3	-45.7	24.7	6.11e-01	0	39	0	335020032	58	4660
2026-01-18 12:18:03.23	199.01	29.48	-43.3	-45.7	24.7	6.05e-01	0	39	0	336592896	58	4678
2026-01-18 12:18:04.50	199.28	29.72	-43.3	-45.7	24.7	6.07e-01	0	39	0	338690048	58	4699
2026-01-18 12:18:05.21	199.42	29.85	-43.3	-45.7	24.7	6.09e-01	0	39	0	339738624	58	4693
2026-01-18 12:18:06.49	199.70	30.10	-43.4	-45.8	24.6	6.04e-01	0	39	0	342360064	58	4742
2026-01-18 12:18:07.20	199.85	30.23	-43.4	-45.9	24.6	6.07e-01	0	39	0	343932928	58	4761
2026-01-18 12:18:08.48	200.13	30.48	-43.5	-45.9	24.5	6.05e-01	0	39	0	346030080	58	4777
2026-01-18 12:18:09.19	200.28	30.62	-43.5	-45.9	24.5	6.05e-01	0	39	0	347602944	58	4805
2026-01-18 12:18:10.48	200.57	30.86	-43.4	-45.8	24.7	6.07e-01	0	39	0	349700096	58	4713
2026-01-18 12:18:11.19	200.73	31.00	-43.3	-45.7	24.7	6.08e-01	0	39	0	351272960	58	4689
2026-01-18 12:18:12.46	201.02	31.25	-43.3	-45.7	24.7	6.05e-01	0	39	0	353370112	58	4679
2026-01-18 12:18:13.19	201.19	31.39	-43.5	-45.9	24.5	6.06e-01	0	39	0	354942976	58	4788
2026-01-18 12:18:14.47	201.49	31.65	-43.6	-46.0	24.5	6.04e-01	0	39	0	357564416	58	4831
2026-01-18 12:18:15.18	201.66	31.79	-43.6	-46.0	24.4	6.08e-01	0	39	0	358612992	58	4848
2026-01-18 12:18:16.46	201.96	32.04	-43.7	-46.1	24.4	6.06e-01	0	39	0	361234432	58	4892
2026-01-18 12:18:17.17	202.14	32.18	-43.7	-46.1	24.3	6.06e-01	0	39	0	362283008	58	4919
2026-01-18 12:18:18.45	202.45	32.44	-43.7	-46.1	24.4	6.08e-01	0	39	0	364904448	58	4883
2026-01-18 12:18:19.18	202.63	32.59	-43.6	-46.0	24.4	6.06e-01	0	39	0	366477312	58	4847
2026-01-18 12:18:20.45	202.95	32.85	-43.7	-46.1	24.4	6.08e-01	0	39	0	368574464	58	4907
2026-01-18 12:18:21.16	203.13	32.99	-43.8	-46.3	24.2	6.07e-01	0	39	0	370147328	58	4997
2026-01-18 12:18:22.44	203.47	33.25	-43.9	-46.4	24.1	6.06e-01	0	39	0	372244480	58	5055
2026-01-18 12:18:23.17	203.66	33.40	-43.9	-46.4	24.1	6.06e-01	0	39	0	373817344	58	5084
2026-01-18 12:18:24.45	204.00	33.67	-43.9	-46.4	24.1	6.06e-01	0	39	0	375914496	58	5083
2026-01-18 12:18:25.16	204.19	33.81	-43.9	-46.5	24.1	6.05e-01	0	39	0	377487360	58	5109
2026-01-18 12:18:26.44	204.53	34.08	-44.0	-46.5	24.1	6.06e-01	0	39	0	379584512	58	5137
2026-01-18 12:18:27.15	204.73	34.23	-44.1	-46.7	23.9	6.07e-01	0	39	0	381157376	58	5248
2026-01-18 12:18:28.43	205.09	34.49	-44.1	-46.7	23.8	6.07e-01	0	39	0	383778816	59	4961
2026-01-18 12:18:29.14	205.29	34.64	-44.2	-46.8	23.7	6.06e-01	0	39	0	384827392	59	5008
2026-01-18 12:18:30.42	205.65	34.91	-44.3	-47.0	23.5	6.07e-01	0	39	0	387448832	59	5121
2026-01-18 12:18:31.13	205.86	35.06	-44.3	-46.9	23.6	6.04e-01	0	39	0	388497408	59	5097
2026-01-18 12:18:32.41	206.24	35.33	-44.5	-47.1	23.5	6.05e-01	0	39	0	391118848	59	5210
2026-01-18 12:18:33.12	206.45	35.48	-44.6	-47.3	23.3	6.04e-01	0	39	0	392167424	59	5305
2026-01-18 12:18:34.75	206.94	35.83	-44.4	-47.0	23.5	6.06e-01	0	39	0	395313152	59	5133
2026-01-18 12:18:35.32	207.12	35.95	-44.5	-47.1	23.4	6.05e-01	0	39	0	396361728	59	5212
2026-01-18 12:18:37.02	207.65	36.32	-44.6	-47.3	23.3	6.06e-01	0	39	0	399507456	59	5302
2026-01-18 12:18:37.59	207.83	36.44	-44.7	-47.3	23.3	6.08e-01	0	39	0	400556032	59	5323
2026-01-18 12:18:39.30	208.38	36.81	-44.4	-47.0	23.4	6.07e-01	0	39	0	403701760	60	4868
2026-01-18 12:18:39.86	208.56	36.93	-44.2	-46.9	23.6	6.05e-01	0	39	0	404750336	60	4784
2026-01-18 12:18:41.57	209.12	37.31	-44.2	-46.9	23.6	6.07e-01	0	39	0	408420352	60	4783
2026-01-18 12:18:42.14	209.32	37.43	-44.4	-47.1	23.4	6.09e-01	0	39	0	409468928	60	4906
2026-01-18 12:18:43.84	209.90	37.80	-44.4	-47.1	23.4	6.07e-01	0	39	0	412614656	60	4878
2026-01-18 12:18:44.41	210.09	37.93	-44.4	-47.1	23.3	6.05e-01	0	39	0	413663232	60	4917
2026-01-18 12:18:46.12	210.69	38.30	-44.2	-46.9	23.5	6.06e-01	0	39	0	416808960	60	4774
2026-01-18 12:18:46.69	210.90	38.43	-44.2	-46.9	23.6	6.05e-01	0	39	0	417857536	60	4779
2026-01-18 12:18:48.45	211.54	38.81	-44.3	-47.0	23.4	6.07e-01	0	39	0	421003264	60	4834
2026-01-18 12:18:49.02	211.75	38.94	-44.2	-46.7	23.7	6.05e-01	0	39	0	422051840	60	4692
2026-01-18 12:18:50.73	212.39	39.32	-44.5	-47.2	23.3	6.08e-01	0	39	0	425197568	60	4934
2026-01-18 12:18:51.30	212.61	39.44	-44.2	-46.9	23.6	6.07e-01	0	39	0	426246144	60	4766
2026-01-18 12:18:53.00	213.26	39.82	-44.1	-46.8	23.7	6.05e-01	0	39	0	429391872	60	4707
2026-01-18 12:18:53.57	213.49	39.94	-44.2	-46.9	23.5	6.08e-01	0	39	0	430964736	60	4810
2026-01-18 12:18:55.28	214.17	40.32	-44.1	-46.7	23.8	6.07e-01	0	39	0	434110464	59	4965
2026-01-18 12:18:55.85	214.40	40.44	-44.1	-46.7	23.8	6.06e-01	0	39	0	435159040	59	4956
2026-01-18 12:18:57.63	215.13	40.84	-44.1	-46.7	23.9	6.07e-01	0	39	0	438304768	59	4930
2026-01-18 12:18:58.20	215.37	40.96	-44.1	-46.7	23.9	6.06e-01	0	39	0	439353344	59	4928
2026-01-18 12:18:59.91	216.10	41.34	-43.5	-45.9	24.6	6.09e-01	0	39	0	442499072	58	4797
2026-01-18 12:19:00.48	216.34	41.46	-43.8	-46.2	24.3	6.07e-01	0	39	0	443547648	58	4978
2026-01-18 12:19:02.18	217.09	41.84	-43.6	-46.1	24.4	6.07e-01	0	39	0	446693376	58	4887
2026-01-18 12:19:02.75	217.34	41.96	-43.5	-45.9	24.6	6.03e-01	0	39	0	447741952	58	4763
2026-01-18 12:19:04.44	218.11	42.33	-43.3	-45.6	24.8	6.06e-01	0	39	0	450887680	58	4635
2026-01-18 12:19:05.01	218.37	42.45	-43.3	-45.6	24.8	6.07e-01	0	39	0	451936256	58	4643
2026-01-18 12:19:06.72	219.16	42.82	-43.3	-45.6	24.8	6.06e-01	0	39	0	455081984	58	4639
2026-01-18 12:19:07.28	219.43	42.94	-43.2	-45.5	24.9	6.07e-01	0	39	0	456654848	58	4584
2026-01-18 12:19:08.99	220.25	43.31	-42.9	-45.2	25.2	6.06e-01	0	39	0	459800576	57	4671
2026-01-18 12:19:09.56	220.53	43.43	-42.9	-45.3	25.1	6.07e-01	0	39	0	460849152	57	4706
2026-01-18 12:19:11.26	221.37	43.79	-42.9	-45.1	25.2	6.06e-01	0	39	0	463994880	57	4650
2026-01-18 12:19:11.83	221.66	43.91	-42.9	-45.2	25.2	6.07e-01	0	39	0	465043456	57	4677
2026-01-18 12:19:13.63	222.58	44.29	-42.7	-45.0	25.3	6.05e-01	0	39	0	468189184	57	4556
2026-01-18 12:19:14.54	223.05	44.48	-43.0	-45.3	25.1	6.05e-01	0	39	0	470286336	57	4724
2026-01-18 12:19:15.54	223.58	44.69	-43.0	-45.3	25.1	6.05e-01	0	39	0	471859200	57	4722
2026-01-18 12:19:16.53	224.10	44.89	-42.9	-45.2	25.2	6.05e-01	0	39	0	473956352	57	4698
2026-01-18 12:19:17.52	224.64	45.09	-42.8	-45.0	25.3	6.07e-01	0	39	0	475529216	57	4590
2026-01-18 12:19:18.55	225.20	45.30	-42.9	-45.2	25.2	6.06e-01	0	39	0	477626368	57	4659
2026-01-18 12:19:19.55	225.76	45.50	-43.0	-45.3	25.1	6.09e-01	0	39	0	479199232	57	4742
2026-01-18 12:19:20.54	226.31	45.69	-42.7	-45.0	25.4	6.06e-01	0	39	0	481296384	57	4551
2026-01-18 12:19:21.53	226.88	45.89	-42.8	-45.1	25.3	6.06e-01	0	39	0	483393536	57	4612
2026-01-18 12:19:22.53	227.45	46.08	-42.8	-45.2	25.2	6.05e-01	0	39	0	484966400	57	4680
2026-01-18 12:19:23.52	228.03	46.27	-42.8	-45.2	25.2	6.04e-01	0	39	0	487063552	57	4662
2026-01-18 12:19:24.52	228.62	46.46	-42.7	-45.1	25.2	6.07e-01	0	39	0	488636416	57	4624
2026-01-18 12:19:25.51	229.21	46.65	-42.6	-45.0	25.4	6.06e-01	0	39	0	490733568	57	4573
2026-01-18 12:19:26.51	229.81	46.83	-42.5	-44.9	25.5	6.07e-01	0	39	0	492306432	57	4495
2026-01-18 12:19:27.50	230.42	47.01	-42.9	-45.2	25.2	6.08e-01	0	39	0	494403584	57	4698
2026-01-18 12:19:28.50	231.04	47.19	-42.9	-45.2	25.2	6.07e-01	0	39	0	495976448	57	4692
2026-01-18 12:19:29.50	231.66	47.37	-43.0	-45.4	25.1	6.07e-01	0	39	0	498073600	57	4765
2026-01-18 12:19:30.49	232.29	47.54	-42.9	-45.1	25.3	6.06e-01	0	39	0	500170752	57	4646
2026-01-18 12:19:31.49	232.92	47.71	-43.0	-45.3	25.1	6.05e-01	0	39	0	501743616	57	4745
2026-01-18 12:19:32.48	233.56	47.87	-43.0	-45.3	25.1	6.06e-01	0	39	0	503840768	57	4720
2026-01-18 12:19:33.54	234.26	48.05	-43.1	-45.4	25.1	6.07e-01	0	39	0	505413632	57	4772
2026-01-18 12:19:34.40	234.82	48.19	-43.1	-45.5	25.0	6.05e-01	0	39	0	506986496	57	4818
2026-01-18 12:19:35.54	235.58	48.37	-43.2	-45.5	24.9	6.06e-01	0	39	0	509607936	57	4860
2026-01-18 12:19:36.39	236.16	48.50	-43.1	-45.5	24.9	6.06e-01	0	39	0	511180800	57	4844
2026-01-18 12:19:37.53	236.93	48.67	-43.0	-45.4	25.0	6.08e-01	0	39	0	513277952	57	4798
2026-01-18 12:19:38.38	237.52	48.80	-43.1	-45.6	24.9	6.07e-01	0	39	0	514850816	57	4877
2026-01-18 12:19:39.52	238.31	48.96	-43.1	-45.5	25.0	6.08e-01	0	39	0	516947968	57	4832
2026-01-18 12:19:40.37	238.90	49.08	-43.0	-45.4	25.0	6.05e-01	0	39	0	518520832	57	4768
2026-01-18 12:19:41.51	239.71	49.23	-43.2	-45.6	24.8	6.06e-01	0	39	0	520617984	57	4907
2026-01-18 12:19:42.36	240.31	49.34	-43.1	-45.4	25.0	6.06e-01	0	39	0	522190848	57	4789
2026-01-18 12:19:43.50	241.13	49.49	-43.3	-45.7	24.8	6.06e-01	0	39	0	524288000	57	4934
2026-01-18 12:19:44.35	241.74	49.59	-43.3	-45.7	24.8	6.06e-01	0	39	0	525860864	57	4946
2026-01-18 12:19:45.48	242.57	49.72	-43.4	-45.8	24.7	6.06e-01	0	39	0	527958016	57	5008
2026-01-18 12:19:46.34	243.20	49.82	-43.4	-45.8	24.6	6.06e-01	0	39	0	529530880	57	5010
2026-01-18 12:19:47.47	244.04	49.94	-43.8	-46.2	24.3	6.07e-01	0	39	0	531628032	58	4982
2026-01-18 12:19:48.33	244.68	50.03	-43.3	-45.6	24.8	6.07e-01	0	39	0	533200896	58	4648
2026-01-18 12:19:49.46	245.53	50.15	-43.8	-46.3	24.3	6.07e-01	0	39	0	535298048	58	4991
2026-01-18 12:19:50.31	246.17	50.23	-43.8	-46.3	24.3	6.06e-01	0	39	0	536870912	58	4985
2026-01-18 12:19:51.45	247.03	50.33	-43.4	-45.9	24.6	6.06e-01	0	39	0	538968064	58	4774
2026-01-18 12:19:52.30	247.68	50.40	-43.3	-45.6	24.8	6.06e-01	0	39	0	541065216	58	4650
2026-01-18 12:19:53.44	248.56	50.49	-43.7	-46.1	24.4	6.04e-01	0	39	0	543162368	58	4921
2026-01-18 12:19:54.29	249.22	50.55	-43.6	-46.0	24.5	6.07e-01	0	39	0	544735232	58	4853
2026-01-18 12:19:55.43	250.10	50.63	-43.6	-46.0	24.6	6.08e-01	0	39	0	546832384	58	4838
2026-01-18 12:19:56.29	250.77	50.69	-43.7	-46.2	24.4	6.07e-01	0	39	0	548405248	58	4940
2026-01-18 12:19:57.42	251.65	50.75	-43.6	-46.0	24.4	6.07e-01	0	39	0	550502400	58	4849
2026-01-18 12:19:58.28	252.33	50.80	-43.4	-45.8	24.7	6.03e-01	0	39	0	552075264	58	4732
2026-01-18 12:19:59.41	253.22	50.85	-43.6	-46.0	24.5	6.06e-01	0	39	0	554172416	58	4835
2026-01-18 12:20:00.26	253.89	50.89	-43.6	-46.1	24.5	6.06e-01	0	39	0	555745280	58	4874
2026-01-18 12:20:01.40	254.79	50.93	-43.7	-46.2	24.4	6.06e-01	0	39	0	557842432	58	4933
2026-01-18 12:20:02.26	255.48	50.96	-43.6	-46.0	24.5	6.06e-01	0	39	0	559415296	58	4841
2026-01-18 12:20:03.39	256.38	50.98	-43.5	-45.9	24.6	6.03e-01	0	39	0	561512448	58	4791
2026-01-18 12:20:04.25	257.06	51.00	-43.5	-45.9	24.6	6.08e-01	0	39	0	563085312	58	4787
2026-01-18 12:20:05.39	257.97	51.02	-43.6	-46.1	24.5	6.06e-01	0	39	0	565182464	58	4872
2026-01-18 12:20:06.24	258.65	51.02	-43.6	-46.0	24.5	6.04e-01	0	39	0	566755328	58	4841
2026-01-18 12:20:07.58	259.72	51.03	-43.7	-46.3	24.2	6.08e-01	0	39	0	569376768	58	5027
2026-01-18 12:20:08.29	260.28	51.02	-43.7	-46.3	24.1	6.06e-01	0	39	0	570949632	58	5037
2026-01-18 12:20:09.57	261.31	51.01	-43.6	-46.1	24.5	6.09e-01	0	39	0	573046784	58	4913
2026-01-18 12:20:10.28	261.87	51.00	-43.6	-46.1	24.5	6.08e-01	0	39	0	574619648	58	4873
2026-01-18 12:20:11.56	262.89	50.97	-44.0	-46.5	24.1	6.07e-01	0	39	0	576716800	58	5112
2026-01-18 12:20:12.27	263.45	50.96	-43.8	-46.3	24.3	6.07e-01	0	39	0	578289664	58	4989
2026-01-18 12:20:13.55	264.47	50.91	-43.9	-46.4	24.1	6.07e-01	0	39	0	580911104	58	5098
2026-01-18 12:20:14.29	265.05	50.89	-44.0	-46.4	24.2	6.05e-01	0	39	0	581959680	58	5084
2026-01-18 12:20:15.57	266.06	50.83	-43.8	-46.3	24.2	6.06e-01	0	39	0	584581120	58	5018
2026-01-18 12:20:16.46	266.76	50.79	-43.6	-46.1	24.4	6.07e-01	0	39	0	586153984	58	4898
2026-01-18 12:20:17.60	267.66	50.72	-43.9	-46.4	24.2	6.05e-01	0	39	0	588251136	58	5083
2026-01-18 12:20:18.45	268.32	50.67	-43.7	-46.1	24.5	6.08e-01	0	39	0	589824000	58	4883
2026-01-18 12:20:19.58	269.20	50.60	-43.9	-46.3	24.3	6.04e-01	0	39	0	591921152	58	5014
2026-01-18 12:20:20.44	269.87	50.54	-44.0	-46.5	24.1	6.07e-01	0	39	0	593494016	58	5156
2026-01-18 12:20:21.57	270.74	50.45	-43.8	-46.3	24.2	6.05e-01	0	39	0	595591168	58	5031
2026-01-18 12:20:22.43	271.39	50.38	-43.9	-46.4	24.2	6.08e-01	0	39	0	597164032	58	5085
2026-01-18 12:20:23.56	272.26	50.29	-44.0	-46.5	24.0	6.08e-01	0	39	0	599261184	58	5140
2026-01-18 12:20:24.42	272.91	50.21	-43.9	-46.3	24.3	6.06e-01	0	39	0	600834048	58	5028
2026-01-18 12:20:25.62	273.81	50.09	-43.8	-46.3	24.3	6.07e-01	0	39	0	603455488	58	4991
2026-01-18 12:20:26.47	274.44	50.01	-44.1	-46.5	24.1	6.06e-01	0	39	0	605028352	58	5153
2026-01-18 12:20:27.61	275.29	49.89	-44.1	-46.6	23.9	6.05e-01	0	39	0	607125504	59	4919
2026-01-18 12:20:28.46	275.92	49.79	-44.0	-46.4	24.1	6.08e-01	0	39	0	608698368	59	4806
2026-01-18 12:20:29.60	276.75	49.66	-44.0	-46.5	24.1	6.06e-01	0	39	0	610795520	59	4838
2026-01-18 12:20:30.45	277.37	49.56	-44.1	-46.6	24.0	6.07e-01	0	39	0	612368384	59	4909
2026-01-18 12:20:31.59	278.19	49.42	-44.3	-46.9	23.8	6.08e-01	0	39	0	614465536	59	5045
2026-01-18 12:20:32.44	278.80	49.31	-44.4	-47.0	23.6	6.07e-01	0	39	0	616038400	59	5135
2026-01-18 12:20:33.57	279.60	49.16	-43.8	-46.3	24.2	6.07e-01	0	39	0	618135552	59	4746
2026-01-18 12:20:34.59	280.31	49.02	-43.9	-46.4	24.2	6.08e-01	0	39	0	620232704	59	4789
2026-01-18 12:20:35.74	281.11	48.86	-44.2	-46.8	23.9	6.08e-01	0	39	0	622329856	59	4984
2026-01-18 12:20:36.62	281.72	48.73	-44.2	-46.6	23.9	6.07e-01	0	39	0	623902720	59	4925
2026-01-18 12:20:37.76	282.49	48.56	-43.8	-46.1	24.4	6.06e-01	0	39	0	625999872	59	4648
2026-01-18 12:20:38.61	283.07	48.43	-43.8	-46.2	24.3	6.07e-01	0	39	0	627572736	59	4701
2026-01-18 12:20:39.75	283.83	48.25	-44.2	-46.7	23.9	6.06e-01	0	39	0	629669888	59	4955
2026-01-18 12:20:40.60	284.39	48.12	-44.3	-46.8	23.8	6.07e-01	0	39	0	631242752	59	5029
2026-01-18 12:20:41.74	285.14	47.93	-43.9	-46.4	24.2	6.08e-01	0	39	0	633339904	59	4760
2026-01-18 12:20:42.59	285.69	47.79	-44.0	-46.4	24.2	6.07e-01	0	39	0	634912768	59	4788
2026-01-18 12:20:43.73	286.42	47.60	-44.2	-46.8	23.9	6.05e-01	0	39	0	637534208	59	4988
2026-01-18 12:20:44.85	287.12	47.41	-44.2	-46.8	23.9	6.07e-01	0	39	0	639107072	59	4997
2026-01-18 12:20:45.71	287.66	47.25	-44.1	-46.6	24.0	6.08e-01	0	39	0	640679936	59	4881
2026-01-18 12:20:47.19	288.58	46.99	-43.7	-46.1	24.5	6.07e-01	0	39	0	643825664	59	4640
2026-01-18 12:20:47.90	289.01	46.86	-44.0	-46.5	24.1	6.07e-01	0	39	0	644874240	59	4817
2026-01-18 12:20:49.18	289.78	46.63	-43.9	-46.4	24.2	6.09e-01	0	39	0	647495680	59	4761
2026-01-18 12:20:49.89	290.20	46.49	-43.8	-46.3	24.3	6.07e-01	0	39	0	648544256	59	4729
2026-01-18 12:20:51.17	290.95	46.25	-43.7	-46.2	24.4	6.07e-01	0	39	0	651165696	59	4673
2026-01-18 12:20:51.95	291.41	46.10	-43.8	-46.2	24.3	6.04e-01	0	39	0	652738560	59	4679
2026-01-18 12:20:53.14	292.09	45.87	-43.6	-46.0	24.6	6.07e-01	0	39	0	654835712	59	4582
2026-01-18 12:20:53.99	292.57	45.71	-43.8	-46.3	24.2	6.08e-01	0	39	0	656408576	59	4738
2026-01-18 12:20:55.13	293.21	45.48	-43.8	-46.3	24.3	6.05e-01	0	39	0	658505728	59	4711
2026-01-18 12:20:55.98	293.68	45.31	-43.5	-45.9	24.6	6.07e-01	0	39	0	660078592	59	4539
2026-01-18 12:20:57.11	294.30	45.09	-43.7	-46.2	24.4	6.08e-01	0	39	0	662175744	59	4666
2026-01-18 12:20:57.97	294.76	44.91	-43.8	-46.2	24.3	6.07e-01	0	39	0	663748608	59	4688
2026-01-18 12:20:59.11	295.37	44.68	-43.7	-46.1	24.4	6.05e-01	0	39	0	665845760	59	4641
2026-01-18 12:20:59.96	295.81	44.51	-43.6	-46.0	24.5	6.06e-01	0	39	0	667418624	59	4597
2026-01-18 12:21:01.09	296.40	44.27	-43.8	-46.3	24.3	6.07e-01	0	39	0	670040064	59	4751
2026-01-18 12:21:01.95	296.84	44.09	-43.6	-46.1	24.4	6.07e-01	0	39	0	671612928	59	4620
2026-01-18 12:21:03.08	297.41	43.86	-43.5	-46.0	24.6	6.06e-01	0	39	0	673710080	59	4561
2026-01-18 12:21:03.94	297.84	43.67	-43.7	-46.2	24.4	6.07e-01	0	39	0	675282944	59	4670
2026-01-18 12:21:05.08	298.40	43.43	-44.0	-46.6	24.0	6.08e-01	0	39	0	677380096	59	4890
2026-01-18 12:21:05.99	298.84	43.24	-43.7	-46.2	24.3	6.06e-01	0	39	0	678952960	59	4698
2026-01-18 12:21:06.99	299.32	43.03	-43.6	-46.2	24.4	6.06e-01	0	39	0	681050112	59	4665
2026-01-18 12:21:07.98	299.78	42.81	-43.8	-46.4	24.2	6.08e-01	0	39	0	682622976	59	4814
2026-01-18 12:21:08.97	300.25	42.60	-43.7	-46.3	24.2	6.07e-01	0	39	0	684720128	59	4749
2026-01-18 12:21:09.97	300.71	42.39	-43.6	-46.1	24.5	6.07e-01	0	39	0	686292992	59	4626
2026-01-18 12:21:10.96	301.15	42.17	-43.9	-46.5	24.2	6.06e-01	0	39	0	688390144	59	4825
2026-01-18 12:21:11.96	301.60	41.95	-44.1	-46.7	23.9	6.08e-01	0	39	0	689963008	59	4949
2026-01-18 12:21:12.96	302.04	41.74	-44.0	-46.5	24.0	6.07e-01	0	39	0	692060160	59	4862
2026-01-18 12:21:13.95	302.47	41.52	-43.9	-46.5	24.1	6.08e-01	0	39	0	694157312	59	4842
2026-01-18 12:21:14.94	302.90	41.30	-44.0	-46.6	24.0	6.07e-01	0	39	0	695730176	59	4911
2026-01-18 12:21:15.94	303.32	41.09	-44.1	-46.7	23.9	6.07e-01	0	39	0	697827328	59	4982
2026-01-18 12:21:16.93	303.74	40.87	-44.0	-46.7	23.9	6.08e-01	0	39	0	699400192	59	4938
2026-01-18 12:21:17.95	304.16	40.65	-44.0	-46.7	23.9	6.06e-01	0	39	0	701497344	59	4955
2026-01-18 12:21:18.94	304.56	40.43	-44.2	-46.9	23.7	6.08e-01	0	39	0	703070208	59	5075
2026-01-18 12:21:19.94	304.96	40.21	-44.4	-47.1	23.5	6.08e-01	0	39	0	705167360	59	5202
2026-01-18 12:21:20.93	305.36	39.99	-44.3	-47.0	23.6	6.07e-01	0	39	0	707264512	59	5150
2026-01-18 12:21:21.93	305.75	39.77	-44.2	-46.9	23.8	6.07e-01	0	39	0	708837376	59	5076
2026-01-18 12:21:22.92	306.13	39.55	-44.1	-46.9	23.8	6.06e-01	0	39	0	710934528	59	5053
2026-01-18 12:21:23.91	306.50	39.34	-44.1	-46.9	23.7	6.04e-01	0	39	0	712507392	59	5086
2026-01-18 12:21:24.91	306.88	39.12	-44.0	-46.8	23.8	6.06e-01	0	39	0	714604544	59	5012
2026-01-18 12:21:25.90	307.25	38.90	-44.0	-46.8	23.9	6.06e-01	0	39	0	716177408	59	5000
2026-01-18 12:21:26.89	307.61	38.68	-44.1	-46.8	23.8	6.09e-01	0	39	0	718274560	59	5006
2026-01-18 12:21:27.89	307.97	38.47	-43.9	-46.5	24.2	6.06e-01	0	39	0	719847424	59	4819
2026-01-18 12:21:28.88	308.32	38.25	-43.9	-46.5	24.2	6.04e-01	0	39	0	721944576	59	4846
2026-01-18 12:21:29.88	308.67	38.03	-43.9	-46.5	24.1	6.06e-01	0	39	0	724041728	59	4840
2026-01-18 12:21:30.88	309.02	37.81	-43.9	-46.4	24.2	6.06e-01	0	39	0	725614592	59	4783
2026-01-18 12:21:31.87	309.35	37.60	-44.1	-46.7	23.9	6.07e-01	0	39	0	727711744	59	4948
2026-01-18 12:21:32.93	309.71	37.37	-44.3	-46.9	23.7	6.07e-01	0	39	0	729284608	59	5066
2026-01-18 12:21:33.83	310.01	37.17	-43.8	-46.3	24.2	6.07e-01	0	39	0	731381760	59	4754
2026-01-18 12:21:35.08	310.42	36.90	-43.4	-45.9	24.6	6.06e-01	0	39	0	733478912	58	4791
2026-01-18 12:21:36.39	310.84	36.62	-43.4	-46.0	24.6	6.07e-01	0	39	0	736100352	58	4829
2026-01-18 12:21:37.25	311.11	36.44	-43.3	-45.9	24.7	6.06e-01	0	39	0	737673216	58	4779
2026-01-18 12:21:38.39	311.47	36.19	-43.4	-46.0	24.6	6.08e-01	0	39	0	739770368	58	4823
2026-01-18 12:21:39.24	311.73	36.01	-43.4	-45.9	24.7	6.08e-01	0	39	0	741343232	58	4775
2026-01-18 12:21:40.38	312.08	35.77	-43.3	-45.8	24.7	6.05e-01	0	39	0	743440384	58	4721
2026-01-18 12:21:41.23	312.34	35.59	-43.3	-45.8	24.8	6.08e-01	0	39	0	745013248	58	4720
2026-01-18 12:21:42.37	312.68	35.35	-43.1	-45.5	25.0	6.04e-01	0	39	0	747110400	58	4573
2026-01-18 12:21:43.22	312.93	35.17	-42.9	-45.3	25.2	6.08e-01	0	39	0	748683264	57	4751
2026-01-18 12:21:44.36	313.26	34.93	-42.9	-45.2	25.3	6.05e-01	0	39	0	750780416	57	4686
2026-01-18 12:21:45.21	313.50	34.75	-43.0	-45.3	25.2	6.06e-01	0	39	0	752353280	57	4738
2026-01-18 12:21:46.35	313.82	34.51	-42.8	-45.1	25.4	6.04e-01	0	39	0	754450432	57	4630
2026-01-18 12:21:47.20	314.06	34.34	-42.8	-45.1	25.4	6.07e-01	0	39	0	756023296	57	4627
2026-01-18 12:21:48.42	314.39	34.09	-42.8	-45.1	25.3	6.05e-01	0	39	0	758644736	57	4633
2026-01-18 12:21:49.27	314.62	33.91	-42.7	-45.0	25.4	6.05e-01	0	39	0	760217600	57	4583
2026-01-18 12:21:50.49	314.95	33.66	-42.8	-45.2	25.3	6.07e-01	0	39	0	762314752	57	4658
2026-01-18 12:21:51.34	315.17	33.49	-42.8	-45.2	25.3	6.04e-01	0	39	0	763887616	57	4671
2026-01-18 12:21:52.48	315.47	33.25	-42.7	-45.0	25.4	6.07e-01	0	39	0	765984768	57	4564
2026-01-18 12:21:53.33	315.69	33.08	-42.6	-44.9	25.4	6.07e-01	0	39	0	767557632	57	4532
2026-01-18 12:21:54.47	315.98	32.85	-42.7	-45.0	25.4	6.07e-01	0	39	0	770179072	57	4569
2026-01-18 12:21:55.36	316.20	32.67	-42.5	-44.8	25.6	6.06e-01	0	39	0	771751936	57	4493
2026-01-18 12:21:56.49	316.48	32.44	-42.5	-44.9	25.4	6.07e-01	0	39	0	773849088	57	4545
2026-01-18 12:21:57.39	316.70	32.27	-42.4	-44.8	25.6	6.06e-01	0	39	0	775421952	56	4731
2026-01-18 12:21:58.51	316.97	32.04	-42.2	-44.7	25.6	6.06e-01	0	39	0	777519104	56	4702
2026-01-18 12:21:59.37	317.18	31.87	-42.1	-44.7	25.7	6.05e-01	0	39	0	779091968	56	4663
2026-01-18 12:22:00.50	317.45	31.65	-41.9	-44.4	25.8	6.07e-01	0	39	0	781189120	55	4802
2026-01-18 12:22:01.35	317.64	31.48	-41.8	-44.4	25.9	6.04e-01	0	39	0	782761984	55	4783
2026-01-18 12:22:02.49	317.91	31.26	-41.8	-44.3	25.9	6.06e-01	0	39	0	784859136	55	4754
2026-01-18 12:22:03.34	318.10	31.10	-42.0	-44.5	25.8	6.07e-01	0	39	0	786432000	55	4815
2026-01-18 12:22:04.48	318.36	30.88	-42.1	-44.5	25.8	6.05e-01	0	39	0	788529152	55	4838
2026-01-18 12:22:05.33	318.55	30.71	-42.2	-44.6	25.7	6.08e-01	0	39	0	790102016	55	4890
2026-01-18 12:22:06.47	318.80	30.49	-42.5	-44.9	25.5	6.06e-01	0	39	0	792199168	55	5054
2026-01-18 12:22:07.32	318.98	30.33	-42.6	-44.9	25.4	6.08e-01	0	39	0	793772032	55	5097
2026-01-18 12:22:08.52	319.24	30.11	-42.8	-45.1	25.3	6.03e-01	0	39	0	796393472	56	4925
2026-01-18 12:22:09.37	319.42	29.95	-42.8	-45.2	25.2	6.06e-01	0	39	0	797966336	56	4974
2026-01-18 12:22:10.57	319.67	29.72	-43.0	-45.4	25.1	6.07e-01	0	39	0	800063488	56	5067
2026-01-18 12:22:11.42	319.84	29.56	-42.9	-45.4	25.1	6.06e-01	0	39	0	801636352	56	5049
2026-01-18 12:22:12.62	320.09	29.34	-42.9	-45.5	25.0	6.06e-01	0	39	0	803733504	56	5105
2026-01-18 12:22:13.47	320.26	29.18	-42.8	-45.3	25.2	6.07e-01	0	39	0	805306368	56	5011
2026-01-18 12:22:14.67	320.50	28.96	-42.6	-45.1	25.3	6.05e-01	0	39	0	807927808	56	4916
2026-01-18 12:22:15.53	320.67	28.80	-42.5	-45.0	25.4	6.06e-01	0	39	0	809500672	56	4853
2026-01-18 12:22:16.67	320.89	28.60	-42.3	-44.8	25.6	6.05e-01	0	39	0	811597824	56	4755
2026-01-18 12:22:17.52	321.05	28.44	-42.4	-45.0	25.4	6.07e-01	0	39	0	813170688	56	4842
2026-01-18 12:22:18.66	321.27	28.24	-42.4	-45.0	25.4	6.06e-01	0	39	0	815267840	56	4831
2026-01-18 12:22:19.51	321.43	28.09	-42.4	-45.0	25.4	6.05e-01	0	39	0	816840704	56	4835
2026-01-18 12:22:20.65	321.64	27.88	-42.5	-45.0	25.4	6.05e-01	0	39	0	818937856	56	4847
2026-01-18 12:22:21.50	321.80	27.73	-42.6	-45.1	25.3	6.07e-01	0	39	0	820510720	56	4925
2026-01-18 12:22:22.64	322.01	27.53	-42.8	-45.3	25.1	6.04e-01	0	39	0	822607872	56	5041
2026-01-18 12:22:23.49	322.16	27.38	-42.9	-45.5	25.0	6.08e-01	0	39	0	824180736	56	5118
2026-01-18 12:22:24.63	322.36	27.18	-43.0	-45.6	24.9	6.05e-01	0	39	0	826277888	56	5173
2026-01-18 12:22:25.48	322.51	27.04	-42.9	-45.5	25.0	6.06e-01	0	39	0	827850752	56	5159
2026-01-18 12:22:26.62	322.71	26.84	-42.8	-45.5	25.0	6.07e-01	0	39	0	829947904	56	5117
2026-01-18 12:22:27.75	322.90	26.65	-42.8	-45.6	24.9	6.08e-01	0	39	0	832045056	56	5188
2026-01-18 12:22:28.78	323.08	26.47	-42.8	-45.5	24.9	6.09e-01	0	39	0	834142208	56	5145
2026-01-18 12:22:29.95	323.28	26.27	-42.9	-45.5	24.9	6.06e-01	0	39	0	836239360	56	5156
2026-01-18 12:22:30.80	323.42	26.13	-43.0	-45.6	24.8	6.06e-01	0	39	0	837812224	56	5197
2026-01-18 12:22:32.14	323.64	25.90	-43.2	-45.8	24.8	6.07e-01	0	39	0	840433664	57	4986
2026-01-18 12:22:32.85	323.75	25.79	-43.3	-45.8	24.6	6.07e-01	0	39	0	842006528	57	5025
2026-01-18 12:22:34.13	323.96	25.57	-43.2	-45.7	24.8	6.07e-01	0	39	0	844103680	57	4979
2026-01-18 12:22:34.84	324.07	25.46	-43.2	-45.8	24.8	6.06e-01	0	39	0	845676544	57	4989
2026-01-18 12:22:36.12	324.27	25.25	-43.2	-45.8	24.7	6.07e-01	0	39	0	847773696	57	4997
2026-01-18 12:22:36.83	324.38	25.13	-43.2	-45.8	24.7	6.05e-01	0	39	0	849346560	57	5014
2026-01-18 12:22:38.11	324.58	24.92	-43.2	-45.8	24.7	6.07e-01	0	39	0	851443712	57	5026
2026-01-18 12:22:38.82	324.69	24.81	-43.2	-45.8	24.7	6.04e-01	0	39	0	853016576	57	5000
2026-01-18 12:22:40.10	324.88	24.60	-43.3	-45.8	24.7	6.07e-01	0	39	0	855638016	57	5031
2026-01-18 12:22:40.82	324.99	24.49	-43.3	-45.8	24.8	6.06e-01	0	39	0	856686592	57	4993
2026-01-18 12:22:42.09	325.18	24.29	-43.3	-45.8	24.8	6.08e-01	0	39	0	859308032	57	4990
2026-01-18 12:22:43.06	325.32	24.13	-43.3	-45.8	24.6	6.08e-01	0	39	0	860880896	57	5029
2026-01-18 12:22:44.35	325.50	23.93	-43.3	-45.8	24.7	6.07e-01	0	39	0	863502336	57	5028
2026-01-18 12:22:45.09	325.61	23.82	-43.2	-45.8	24.7	6.08e-01	0	39	0	864550912	57	5010
2026-01-18 12:22:46.37	325.79	23.62	-43.4	-46.0	24.5	6.05e-01	0	39	0	867172352	57	5113
2026-01-18 12:22:47.16	325.90	23.50	-43.4	-46.0	24.5	6.06e-01	0	39	0	868745216	57	5131
2026-01-18 12:22:48.68	326.11	23.26	-43.3	-45.9	24.6	6.06e-01	0	39	0	871366656	57	5099
2026-01-18 12:22:49.39	326.21	23.16	-43.2	-45.9	24.6	6.03e-01	0	39	0	872939520	57	5066
2026-01-18 12:22:50.67	326.38	22.96	-43.0	-45.8	24.7	6.08e-01	0	39	0	875560960	57	4996
2026-01-18 12:22:51.38	326.48	22.85	-42.9	-45.7	24.7	6.07e-01	0	39	0	876609536	57	4976
2026-01-18 12:22:52.85	326.67	22.63	-42.9	-45.8	24.7	6.05e-01	0	39	0	879230976	57	5019
2026-01-18 12:22:53.56	326.77	22.53	-42.9	-45.7	24.7	6.07e-01	0	39	0	880803840	57	4952
2026-01-18 12:22:54.84	326.93	22.34	-43.0	-45.8	24.7	6.08e-01	0	39	0	882900992	57	4996
2026-01-18 12:22:55.55	327.03	22.23	-43.0	-45.7	24.7	6.06e-01	0	39	0	884473856	57	4977
2026-01-18 12:22:56.83	327.19	22.05	-43.1	-45.7	24.7	6.08e-01	0	39	0	886571008	57	4971
2026-01-18 12:22:57.55	327.28	21.94	-43.2	-45.8	24.7	6.06e-01	0	39	0	888143872	57	5027
2026-01-18 12:22:58.83	327.44	21.76	-43.2	-45.7	24.8	6.07e-01	0	39	0	890765312	57	4947
2026-01-18 12:22:59.56	327.53	21.65	-43.3	-45.8	24.7	6.04e-01	0	39	0	891813888	57	5030
2026-01-18 12:23:00.84	327.69	21.47	-43.3	-45.8	24.7	6.06e-01	0	39	0	894435328	57	4986
2026-01-18 12:23:01.58	327.78	21.36	-43.2	-45.7	24.8	6.06e-01	0	39	0	895483904	57	4933
2026-01-18 12:23:03.08	327.96	21.15	-43.2	-45.6	24.8	6.06e-01	0	39	0	898629632	57	4925
2026-01-18 12:23:03.79	328.05	21.05	-43.1	-45.6	24.8	6.06e-01	0	39	0	899678208	57	4917
2026-01-18 12:23:05.14	328.21	20.86	-43.0	-45.5	24.8	6.07e-01	0	39	0	902299648	57	4852
2026-01-18 12:23:05.85	328.29	20.76	-42.9	-45.4	24.9	6.04e-01	0	39	0	903872512	57	4773
2026-01-18 12:23:07.19	328.44	20.57	-43.0	-45.5	24.9	6.07e-01	0	39	0	906493952	57	4846
2026-01-18 12:23:07.90	328.53	20.48	-43.0	-45.5	24.9	6.06e-01	0	39	0	907542528	57	4859
2026-01-18 12:23:09.24	328.68	20.29	-42.8	-45.4	25.0	6.07e-01	0	39	0	910163968	57	4776
2026-01-18 12:23:09.95	328.76	20.20	-42.8	-45.3	25.0	6.07e-01	0	39	0	911212544	57	4759
2026-01-18 12:23:11.26	328.90	20.02	-42.9	-45.4	25.0	6.05e-01	0	39	0	913833984	57	4790
2026-01-18 12:23:11.97	328.98	19.92	-42.9	-45.5	24.9	6.06e-01	0	39	0	914882560	57	4825
2026-01-18 12:23:13.24	329.12	19.75	-42.9	-45.5	24.9	6.04e-01	0	39	0	917504000	57	4846
2026-01-18 12:23:13.95	329.20	19.66	-42.9	-45.6	24.8	6.09e-01	0	39	0	919076864	57	4875
2026-01-18 12:23:15.23	329.34	19.49	-42.8	-45.5	24.9	6.08e-01	0	39	0	921174016	57	4853
2026-01-18 12:23:15.94	329.41	19.39	-42.8	-45.6	24.9	6.05e-01	0	39	0	922746880	57	4873
2026-01-18 12:23:17.22	329.55	19.22	-42.8	-45.5	24.8	6.07e-01	0	39	0	924844032	57	4856
2026-01-18 12:23:17.93	329.62	19.13	-42.7	-45.5	24.8	6.07e-01	0	39	0	926416896	57	4828
2026-01-18 12:23:19.21	329.76	18.97	-42.7	-45.5	24.8	6.05e-01	0	39	0	928514048	57	4838
2026-01-18 12:23:19.93	329.83	18.87	-42.8	-45.6	24.8	6.05e-01	0	39	0	930086912	57	4894
2026-01-18 12:23:21.21	329.96	18.71	-42.9	-45.5	24.9	6.06e-01	0	39	0	932708352	57	4857
2026-01-18 12:23:21.94	330.04	18.61	-42.8	-45.4	25.0	6.07e-01	0	39	0	933756928	57	4765
2026-01-18 12:23:23.22	330.17	18.45	-42.9	-45.4	24.9	6.06e-01	0	39	0	936378368	57	4807
2026-01-18 12:23:24.17	330.26	18.33	-42.9	-45.3	25.0	6.05e-01	0	39	0	937951232	57	4752
2026-01-18 12:23:25.46	330.39	18.17	-43.0	-45.4	25.0	6.07e-01	0	39	0	940572672	57	4783
2026-01-18 12:23:26.20	330.46	18.07	-43.0	-45.4	24.9	6.05e-01	0	39	0	941621248	57	4800
2026-01-18 12:23:27.48	330.58	17.91	-43.1	-45.5	24.8	6.06e-01	0	39	0	944242688	57	4868
2026-01-18 12:23:28.26	330.66	17.82	-43.0	-45.4	25.0	6.08e-01	0	39	0	945815552	57	4784
2026-01-18 12:23:29.54	330.78	17.66	-43.0	-45.4	25.0	6.06e-01	0	39	0	947912704	57	4786
2026-01-18 12:23:30.25	330.85	17.57	-43.0	-45.4	25.0	6.07e-01	0	39	0	949485568	57	4774
2026-01-18 12:23:31.53	330.97	17.42	-43.0	-45.4	24.9	6.05e-01	0	39	0	952107008	57	4793
2026-01-18 12:23:32.25	331.04	17.33	-42.9	-45.4	25.0	6.03e-01	0	39	0	953155584	57	4764
2026-01-18 12:23:33.53	331.15	17.17	-42.9	-45.4	24.9	6.07e-01	0	39	0	955777024	57	4792
2026-01-18 12:23:34.24	331.22	17.09	-42.8	-45.3	25.0	6.04e-01	0	39	0	956825600	57	4732
2026-01-18 12:23:35.52	331.34	16.93	-42.8	-45.3	25.0	6.07e-01	0	39	0	959447040	57	4742
2026-01-18 12:23:36.23	331.40	16.85	-42.7	-45.3	25.0	6.05e-01	0	39	0	960495616	57	4737
2026-01-18 12:23:37.51	331.52	16.70	-42.7	-45.3	25.0	6.05e-01	0	39	0	963117056	57	4725
2026-01-18 12:23:38.24	331.58	16.61	-42.7	-45.3	25.0	6.06e-01	0	39	0	964689920	57	4749
2026-01-18 12:23:39.51	331.69	16.46	-42.7	-45.3	25.0	6.07e-01	0	39	0	966787072	57	4743
2026-01-18 12:23:40.23	331.75	16.38	-42.8	-45.4	24.9	6.07e-01	0	39	0	968359936	57	4775
2026-01-18 12:23:41.51	331.87	16.23	-42.8	-45.4	24.9	6.06e-01	0	39	0	970457088	57	4801
2026-01-18 12:23:42.22	331.93	16.14	-42.8	-45.5	24.8	6.07e-01	0	39	0	972029952	57	4824
2026-01-18 12:23:43.49	332.04	16.00	-42.7	-45.3	25.1	6.07e-01	0	39	0	974127104	57	4709
2026-01-18 12:23:44.21	332.10	15.92	-42.9	-45.5	24.8	6.06e-01	0	39	0	975699968	57	4839
2026-01-18 12:23:45.48	332.20	15.77	-42.9	-45.4	24.9	6.07e-01	0	39	0	977797120	57	4784
2026-01-18 12:23:46.19	332.26	15.69	-42.9	-45.4	24.9	6.05e-01	0	39	0	979369984	57	4790
2026-01-18 12:23:47.47	332.37	15.54	-42.8	-45.4	24.9	6.06e-01	0	39	0	981991424	57	4781
2026-01-18 12:23:48.18	332.43	15.46	-42.9	-45.5	24.9	6.06e-01	0	39	0	983040000	57	4838
2026-01-18 12:23:49.46	332.53	15.32	-42.9	-45.4	24.9	6.08e-01	0	39	0	985661440	57	4813
2026-01-18 12:23:50.17	332.59	15.24	-42.9	-45.5	24.8	6.06e-01	0	39	0	986710016	57	4846
2026-01-18 12:23:51.45	332.69	15.10	-42.9	-45.5	24.7	6.07e-01	0	39	0	989331456	57	4861
2026-01-18 12:23:52.16	332.75	15.02	-42.9	-45.4	24.9	6.09e-01	0	39	0	990380032	57	4804
2026-01-18 12:23:53.44	332.85	14.88	-43.0	-45.5	24.7	6.05e-01	0	39	0	993001472	57	4866
2026-01-18 12:23:54.17	332.91	14.80	-42.9	-45.5	24.8	6.07e-01	0	39	0	994574336	57	4825
2026-01-18 12:23:55.45	333.01	14.66	-43.1	-45.7	24.6	6.07e-01	0	39	0	996671488	57	4938
2026-01-18 12:23:56.18	333.06	14.58	-43.1	-45.7	24.5	6.06e-01	0	39	0	998244352	57	4948
2026-01-18 12:23:57.45	333.16	14.44	-43.1	-45.8	24.5	6.07e-01	0	39	0	1000341504	57	4999
2026-01-18 12:23:58.18	333.22	14.37	-43.3	-45.9	24.4	6.06e-01	0	39	0	1001914368	57	5099
2026-01-18 12:23:59.46	333.31	14.23	-43.3	-45.9	24.3	6.07e-01	0	39	0	1004011520	57	5085
2026-01-18 12:24:00.17	333.37	14.15	-43.1	-45.7	24.7	6.07e-01	0	39	0	1005584384	57	4941
2026-01-18 12:24:01.75	333.48	13.98	-43.0	-45.6	24.7	6.06e-01	0	39	0	1008730112	57	4876
2026-01-18 12:24:02.38	333.53	13.92	-43.1	-45.6	24.7	6.06e-01	0	39	0	1009778688	57	4908
2026-01-18 12:24:03.92	333.64	13.76	-43.2	-45.7	24.5	6.02e-01	0	39	0	1012400128	57	4971
2026-01-18 12:24:04.63	333.69	13.68	-43.2	-45.8	24.6	6.04e-01	0	39	0	1013972992	57	4985
2026-01-18 12:24:05.91	333.79	13.55	-43.4	-45.9	24.5	6.03e-01	0	39	0	1016070144	57	5062
2026-01-18 12:24:06.64	333.84	13.47	-43.2	-45.7	24.5	6.02e-01	0	39	0	1017643008	57	4964
2026-01-18 12:24:07.92	333.93	13.34	-43.3	-45.8	24.5	6.01e-01	0	39	0	1020264448	57	5031
2026-01-18 12:24:08.63	333.98	13.27	-43.2	-45.8	24.5	6.05e-01	0	39	0	1021313024	57	5022
2026-01-18 12:24:09.91	334.07	13.14	-43.2	-45.8	24.5	6.01e-01	0	39	0	1023934464	57	5012
2026-01-18 12:24:10.62	334.12	13.06	-43.2	-45.8	24.5	6.02e-01	0	39	0	1024983040	57	5003
2026-01-18 12:24:11.90	334.21	12.94	-43.2	-45.8	24.4	5.99e-01	0	39	0	1027604480	57	5028
2026-01-18 12:24:12.63	334.26	12.86	-43.1	-45.7	24.6	6.02e-01	0	39	0	1029177344	57	4951
2026-01-18 12:24:13.91	334.35	12.73	-43.1	-45.7	24.5	5.99e-01	0	39	0	1031274496	57	4983
2026-01-18 12:24:14.62	334.39	12.66	-43.1	-45.8	24.5	6.01e-01	0	39	0	1032847360	57	4988
2026-01-18 12:24:16.14	334.50	12.51	-43.1	-45.8	24.5	6.03e-01	0	39	0	1035468800	57	4986
2026-01-18 12:24:16.85	334.54	12.44	-43.4	-46.1	24.2	6.00e-01	0	39	0	1037041664	57	5164
2026-01-18 12:24:18.13	334.63	12.31	-43.3	-45.9	24.4	6.00e-01	0	39	0	1039138816	57	5085
2026-01-18 12:24:19.20	334.70	12.21	-43.4	-45.9	24.3	6.01e-01	0	39	0	1041235968	57	5088
2026-01-18 12:24:20.05	334.76	12.12	-43.5	-46.1	24.2	6.00e-01	0	39	0	1042808832	57	5183
2026-01-18 12:24:21.19	334.83	12.01	-43.4	-46.0	24.3	6.04e-01	0	39	0	1044905984	57	5115
2026-01-18 12:24:22.04	334.88	11.93	-43.5	-46.0	24.3	6.01e-01	0	39	0	1046478848	57	5142
2026-01-18 12:24:23.18	334.96	11.82	-43.5	-46.0	24.2	6.02e-01	0	39	0	1048576000	57	5145
2026-01-18 12:24:24.03	335.01	11.74	-43.4	-45.9	24.4	6.02e-01	0	39	0	1050148864	57	5090
2026-01-18 12:24:25.17	335.08	11.63	-43.5	-46.1	24.2	6.01e-01	0	39	0	1052246016	57	5196
2026-01-18 12:24:26.02	335.14	11.55	-43.6	-46.1	24.1	6.03e-01	0	39	0	1053818880	57	5217
2026-01-18 12:24:27.16	335.21	11.44	-43.5	-46.1	24.2	6.00e-01	0	39	0	1055916032	57	5189
2026-01-18 12:24:28.01	335.26	11.36	-43.3	-45.9	24.4	6.01e-01	0	39	0	1057488896	57	5058
2026-01-18 12:24:29.15	335.33	11.25	-43.5	-46.2	24.1	6.04e-01	0	39	0	1060110336	57	5257
2026-01-18 12:24:30.00	335.38	11.17	-43.4	-46.1	24.2	6.03e-01	0	39	0	1061683200	57	5204
2026-01-18 12:24:31.14	335.45	11.07	-43.5	-46.3	24.0	6.04e-01	0	39	0	1063780352	57	5297
2026-01-18 12:24:31.99	335.51	10.99	-43.4	-46.2	24.0	6.01e-01	0	39	0	1065353216	57	5266
2026-01-18 12:24:33.13	335.57	10.88	-43.3	-46.1	24.1	6.00e-01	0	39	0	1067450368	57	5216
2026-01-18 12:24:33.98	335.62	10.80	-43.5	-46.4	23.9	6.01e-01	0	39	0	1069023232	57	5361
2026-01-18 12:24:35.12	335.69	10.70	-43.3	-46.3	24.0	6.02e-01	0	39	0	1071120384	57	5285
2026-01-18 12:24:35.97	335.74	10.62	-43.4	-46.3	24.0	6.01e-01	0	39	0	1072693248	57	5300
2026-01-18 12:24:37.11	335.81	10.51	-43.5	-46.5	23.8	5.99e-01	0	39	0	1074790400	57	5412
2026-01-18 12:24:37.96	335.86	10.44	-43.3	-46.2	24.0	6.01e-01	0	39	0	1076363264	57	5255
2026-01-18 12:24:39.10	335.93	10.33	-43.4	-46.3	23.9	6.01e-01	0	39	0	1078460416	57	5316
2026-01-18 12:24:40.01	335.98	10.25	-43.4	-46.4	23.9	6.02e-01	0	39	0	1080033280	57	5365
2026-01-18 12:24:41.01	336.03	10.16	-43.3	-46.4	23.9	5.99e-01	0	39	0	1082130432	57	5354
2026-01-18 12:24:42.00	336.09	10.07	-43.3	-46.4	23.8	6.03e-01	0	39	0	1084227584	57	5368
2026-01-18 12:24:43.00	336.15	9.98	-43.3	-46.5	23.7	6.03e-01	0	39	0	1085800448	57	5451
2026-01-18 12:24:43.99	336.20	9.90	-43.3	-46.5	23.7	6.04e-01	0	39	0	1087897600	57	5431
2026-01-18 12:24:44.99	336.26	9.81	-43.2	-46.5	23.7	6.04e-01	0	39	0	1089470464	57	5451
2026-01-18 12:24:45.98	336.31	9.72	-43.4	-46.8	23.4	5.99e-01	0	39	0	1091567616	57	5649
2026-01-18 12:24:46.98	336.37	9.63	-43.1	-46.4	23.8	6.01e-01	0	39	0	1093140480	57	5374
2026-01-18 12:24:47.97	336.42	9.54	-43.3	-46.6	23.6	6.03e-01	0	39	0	1095237632	57	5473
2026-01-18 12:24:48.97	336.48	9.46	-43.2	-46.5	23.7	6.03e-01	0	39	0	1096810496	57	5414
2026-01-18 12:24:49.96	336.53	9.37	-43.5	-46.9	23.4	6.02e-01	0	39	0	1098907648	57	5662
2026-01-18 12:24:50.96	336.59	9.28	-43.3	-46.5	23.6	6.04e-01	0	39	0	1101004800	57	5461
2026-01-18 12:24:51.95	336.64	9.20	-43.5	-46.8	23.5	6.01e-01	0	39	0	1102577664	57	5604
2026-01-18 12:24:52.94	336.69	9.11	-43.5	-46.7	23.5	6.03e-01	0	39	0	1104674816	57	5560
2026-01-18 12:24:53.94	336.74	9.03	-43.5	-46.8	23.5	6.00e-01	0	39	0	1106247680	57	5599
2026-01-18 12:24:54.93	336.80	8.94	-48.7	-64.2	8.3	6.56e-01	0	39	0	1108344832	67	23563
2026-01-18 12:24:55.92	336.85	8.86	-50.3	-71.0	3.8	7.45e-01	0	39	104	1108344832	72	38500
2026-01-18 12:24:56.92	336.90	8.77	-50.1	-71.6	3.8	7.43e-01	0	39	104	1108344832	72	41265
2026-01-18 12:24:57.91	336.95	8.69	-51.1	-71.7	3.8	7.42e-01	0	39	104	1108344832	72	41889
2026-01-18 12:24:58.90	337.00	8.61	-50.9	-71.9	3.9	7.46e-01	0	39	104	1108344832	72	42839
2026-01-18 12:24:59.90	337.05	8.52	-49.3	-71.8	3.7	7.47e-01	0	39	104	1108344832	70	47237
2026-01-18 12:25:00.89	337.10	8.44	-50.3	-72.0	3.8	7.45e-01	0	39	104	1108344832	72	43274
2026-01-18 12:25:01.88	337.15	8.36	-51.1	-72.1	3.8	7.46e-01	0	39	104	1108344832	72	43573
2026-01-18 12:25:02.88	337.20	8.27	-50.5	-72.1	3.8	7.46e-01	0	39	104	1108344832	72	43800
2026-01-18 12:25:03.87	337.25	8.19	-49.8	-72.2	3.8	7.47e-01	0	39	104	1108344832	71	46718
2026-01-18 12:25:04.87	337.30	8.11	-51.8	-72.2	3.8	7.47e-01	0	39	104	1108344832	74	39291
2026-01-18 12:25:05.86	337.35	8.03	-51.9	-72.2	3.8	7.44e-01	0	39	104	1108344832	74	39352
2026-01-18 12:25:06.85	337.40	7.95	-52.1	-72.2	3.8	7.45e-01	0	39	104	1108344832	74	39439
2026-01-18 12:25:07.85	337.45	7.87	-51.6	-72.2	3.8	7.48e-01	0	39	104	1108344832	74	39355
2026-01-18 12:25:08.84	337.50	7.79	-51.4	-72.2	3.8	7.46e-01	0	39	104	1108344832	74	39354
2026-01-18 12:25:09.83	337.55	7.70	-51.7	-72.2	3.8	7.47e-01	0	39	104	1108344832	74	39386
2026-01-18 12:25:10.82	337.59	7.62	-52.0	-72.2	3.8	7.44e-01	0	39	104	1108344832	75	37240
2026-01-18 12:25:11.82	337.64	7.54	-52.1	-72.2	3.8	7.47e-01	0	39	104	1108344832	75	37281
2026-01-18 12:25:12.81	337.69	7.46	-52.2	-72.2	3.8	7.44e-01	0	39	104	1108344832	75	37218
2026-01-18 12:25:13.80	337.74	7.39	-52.3	-72.2	3.8	7.47e-01	0	39	104	1108344832	75	37134
2026-01-18 12:25:14.80	337.78	7.31	-52.0	-72.2	3.8	7.45e-01	0	39	104	1108344832	75	37135
2026-01-18 12:25:15.79	337.83	7.23	-52.0	-72.2	3.8	7.48e-01	0	40	104	1108344832	75	37100
2026-01-18 12:25:16.78	337.88	7.15	-51.7	-72.2	3.8	7.48e-01	0	39	104	1108344832	75	37010
2026-01-18 12:25:17.78	337.92	7.07	-51.9	-72.2	3.8	7.43e-01	0	39	104	1108344832	75	37029
2026-01-18 12:25:18.77	337.97	6.99	-51.6	-72.2	3.8	7.45e-01	0	39	104	1108344832	74	39192
2026-01-18 12:25:19.76	338.01	6.91	-51.4	-72.1	3.8	7.43e-01	0	39	104	1108344832	74	39064
2026-01-18 12:25:20.76	338.06	6.84	-51.4	-72.1	3.8	7.45e-01	0	39	104	1108344832	74	39084
2026-01-18 12:25:21.75	338.10	6.76	-51.4	-72.1	3.8	7.48e-01	0	39	104	1108344832	74	39056
2026-01-18 12:25:22.74	338.15	6.68	-51.3	-72.1	3.8	7.46e-01	0	39	104	1108344832	74	38998
2026-01-18 12:25:23.74	338.19	6.60	-51.3	-72.1	3.8	7.47e-01	0	39	104	1108344832	74	38987
2026-01-18 12:25:24.73	338.24	6.53	-51.4	-72.1	3.8	7.48e-01	0	39	104	1108344832	74	39044
2026-01-18 12:25:25.72	338.28	6.45	-51.3	-72.1	3.8	7.45e-01	0	39	104	1108344832	74	38995
2026-01-18 12:25:26.72	338.33	6.37	-51.4	-72.1	3.8	7.44e-01	0	39	104	1108344832	74	39057
2026-01-18 12:25:27.71	338.37	6.30	-51.3	-72.1	3.8	7.47e-01	0	39	104	1108344832	74	38934
2026-01-18 12:25:28.71	338.41	6.22	-51.3	-72.1	3.8	7.47e-01	0	39	104	1108344832	74	38924
2026-01-18 12:25:29.70	338.46	6.15	-51.3	-72.1	3.8	7.46e-01	0	40	104	1108344832	74	38934
2026-01-18 12:25:30.69	338.50	6.07	-51.3	-72.1	3.8	7.44e-01	0	39	104	1108344832	74	38963
2026-01-18 12:25:31.69	338.54	6.00	-51.3	-72.1	3.8	7.49e-01	0	39	104	1108344832	74	38941
2026-01-18 12:25:32.68	338.59	5.92	-51.4	-72.1	3.8	7.46e-01	0	39	104	1108344832	74	38911
2026-01-18 12:25:33.67	338.63	5.85	-51.4	-72.1	3.8	7.45e-01	0	39	104	1108344832	74	38900
2026-01-18 12:25:34.66	338.67	5.77	-51.3	-72.1	3.8	7.44e-01	0	40	104	1108344832	74	39002
2026-01-18 12:25:35.66	338.71	5.70	-51.3	-72.1	3.8	7.47e-01	0	39	104	1108344832	74	38897
2026-01-18 12:25:36.65	338.75	5.63	-51.3	-72.1	3.8	7.48e-01	0	39	104	1108344832	74	38977
2026-01-18 12:25:37.65	338.80	5.55	-51.3	-72.1	3.8	7.45e-01	0	39	104	1108344832	74	38936
2026-01-18 12:25:38.64	338.84	5.48	-51.3	-72.1	3.8	7.46e-01	0	39	104	1108344832	74	38913
2026-01-18 12:25:39.63	338.88	5.40	-51.3	-72.1	3.8	7.46e-01	0	39	104	1108344832	74	38937
2026-01-18 12:25:40.63	338.92	5.33	-51.3	-72.1	3.8	7.47e-01	0	39	104	1108344832	74	38876
2026-01-18 12:25:41.62	338.96	5.26	-51.3	-72.1	3.8	7.44e-01	0	39	104	1108344832	74	38949
2026-01-18 12:25:42.61	339.00	5.19	-51.4	-72.1	3.8	7.48e-01	0	39	104	1108344832	74	38829
2026-01-18 12:25:43.61	339.04	5.11	-51.3	-72.1	3.8	7.48e-01	0	39	104	1108344832	74	38914
2026-01-18 12:25:44.60	339.08	5.04	-51.3	-72.1	3.8	7.43e-01	0	39	104	1108344832	74	38932
2026-01-18 12:25:45.59	339.12	4.97	-51.3	-72.1	3.8	7.42e-01	0	39	104	1108344832	74	38879

#Closed at: 2026-01-18 12:25:46
#Recorded file [1108 MB]: D:/Data/31040_260118_151434.dat