passes_logs/2026/01/18/T1/T1__20260118_143240_FENGYUN_3E_rec.log

#Pass ID: 20260118_143240_FENGYUN 3E
#Satellite: FENGYUN 3E
#Configuration: FENGYUN 3E
#almurnet v.1.7.20251203
#Start time: 2026-01-18 14:32:40

#Version: 2.0.20230620
#Station: T1
#Location: 37.570604 lon 55.790049 lat
#TLE: 1 49008U 21062A   26017.61301378  .00000104  00000+0  69808-4 0  9996
#TLE: 2 49008  98.7484  22.7108 0002130 132.1860 227.9498 14.19886007235218

#Time	Az	El	Level	Level2	SNR	BER	BlckErr	Temp	State	Recorded	gain1	gain2
2026-01-18 14:32:40.29	170.80	4.95	-50.0	-61.0	3.8	8.46e-01	0	41	0	0	70	12797
2026-01-18 14:32:41.28	170.82	5.02	-46.1	-60.6	3.8	8.46e-01	0	41	104	0	62	19283
2026-01-18 14:32:42.27	170.84	5.09	-46.4	-60.6	3.8	8.46e-01	0	41	104	0	62	19294
2026-01-18 14:32:43.26	170.86	5.16	-46.3	-60.5	3.8	8.48e-01	0	41	104	0	62	19054
2026-01-18 14:32:44.26	170.88	5.23	-46.3	-60.4	3.8	8.47e-01	0	41	104	0	62	18873
2026-01-18 14:32:45.25	170.90	5.30	-46.4	-60.4	3.8	8.46e-01	0	41	104	0	62	18764
2026-01-18 14:32:46.24	170.92	5.38	-46.1	-60.2	3.8	8.47e-01	0	41	104	0	62	18420
2026-01-18 14:32:47.24	170.94	5.45	-46.2	-60.2	3.8	8.46e-01	0	41	104	0	62	18405
2026-01-18 14:32:48.23	170.96	5.52	-46.2	-59.9	3.8	8.48e-01	0	41	104	0	62	17719
2026-01-18 14:32:49.22	170.98	5.59	-46.3	-59.8	3.8	8.46e-01	0	41	104	0	62	17551
2026-01-18 14:32:50.22	171.00	5.66	-46.4	-59.8	3.8	8.46e-01	0	41	104	0	62	17491
2026-01-18 14:32:51.21	171.02	5.74	-46.3	-59.6	3.8	8.47e-01	0	41	104	0	62	17230
2026-01-18 14:32:52.20	171.04	5.81	-46.3	-59.4	3.8	8.48e-01	0	41	104	0	62	16836
2026-01-18 14:32:53.19	171.07	5.88	-46.3	-59.3	3.8	8.45e-01	0	41	104	0	62	16511
2026-01-18 14:32:54.19	171.09	5.96	-46.0	-59.5	3.8	8.46e-01	0	42	104	0	62	16918
2026-01-18 14:32:55.18	171.11	6.03	-46.0	-59.1	3.8	8.48e-01	0	42	104	0	62	16264
2026-01-18 14:32:56.17	171.13	6.10	-46.1	-59.1	3.8	8.46e-01	0	41	104	0	62	16248
2026-01-18 14:32:57.17	171.15	6.18	-46.1	-59.1	3.8	8.46e-01	0	42	104	0	62	16293
2026-01-18 14:32:58.16	171.17	6.25	-46.2	-59.3	3.8	8.47e-01	0	41	104	0	62	16604
2026-01-18 14:32:59.15	171.19	6.32	-46.2	-59.2	3.8	8.48e-01	0	41	104	0	62	16489
2026-01-18 14:33:00.15	171.21	6.40	-46.1	-59.5	3.8	8.48e-01	0	42	104	0	62	16901
2026-01-18 14:33:01.14	171.24	6.47	-46.2	-59.6	3.8	8.47e-01	0	42	104	0	62	17280
2026-01-18 14:33:02.13	171.26	6.55	-46.2	-60.0	3.8	8.47e-01	0	42	104	0	62	17940
2026-01-18 14:33:03.13	171.28	6.62	-46.1	-60.2	3.8	8.47e-01	0	42	104	0	62	18475
2026-01-18 14:33:04.12	171.30	6.70	-46.2	-60.5	3.8	8.48e-01	0	42	104	0	62	18960
2026-01-18 14:33:05.11	171.32	6.77	-46.0	-60.5	3.8	8.48e-01	0	42	104	0	62	19067
2026-01-18 14:33:06.11	171.35	6.85	-46.2	-60.4	3.8	8.47e-01	0	42	104	0	62	18874
2026-01-18 14:33:07.10	171.37	6.93	-46.2	-60.2	3.8	8.47e-01	0	42	104	0	62	18394
2026-01-18 14:33:08.09	171.39	7.00	-46.2	-59.8	3.8	8.47e-01	0	42	104	0	62	17532
2026-01-18 14:33:09.08	171.41	7.08	-46.2	-59.3	3.8	8.46e-01	0	42	104	0	62	16666
2026-01-18 14:33:10.08	171.44	7.16	-46.2	-58.9	3.8	8.44e-01	0	42	104	0	62	15800
2026-01-18 14:33:11.07	171.46	7.23	-46.1	-58.2	3.8	8.46e-01	0	42	104	0	62	14561
2026-01-18 14:33:12.06	171.48	7.31	-46.1	-57.4	4.1	8.43e-01	0	42	0	0	62	13310
2026-01-18 14:33:13.06	171.51	7.39	-45.7	-56.4	4.4	8.32e-01	0	42	0	0	62	11922
2026-01-18 14:33:14.05	171.53	7.46	-45.7	-55.3	4.9	7.91e-01	0	42	0	0	62	10448
2026-01-18 14:33:15.04	171.55	7.54	-45.5	-54.0	5.7	7.19e-01	0	42	0	0	61	9501
2026-01-18 14:33:16.04	171.57	7.62	-45.2	-52.4	6.9	1.90e-01	0	42	0	6291456	61	7935
2026-01-18 14:33:17.03	171.60	7.70	-44.8	-50.9	8.4	5.24e-02	0	42	0	13631488	60	7066
2026-01-18 14:33:18.02	171.62	7.78	-44.3	-49.2	9.9	1.17e-02	0	42	0	20971520	59	6179
2026-01-18 14:33:19.02	171.65	7.86	-43.9	-48.2	11.0	2.49e-03	0	42	0	27262976	58	5848
2026-01-18 14:33:20.01	171.67	7.94	-43.2	-46.9	12.4	8.97e-04	0	42	0	34603008	57	5295
2026-01-18 14:33:21.00	171.69	8.01	-42.8	-46.1	13.2	1.83e-05	0	42	0	41943040	56	5119
2026-01-18 14:33:22.00	171.72	8.09	-42.1	-44.9	14.2	5.70e-06	0	42	0	49283072	55	4752
2026-01-18 14:33:22.99	171.74	8.17	-41.8	-44.6	14.5	2.40e-05	0	42	0	56623104	54	4846
2026-01-18 14:33:23.98	171.76	8.25	-41.4	-44.1	15.0	0.00e+00	0	42	0	63963136	53	4835
2026-01-18 14:33:24.98	171.79	8.33	-41.4	-44.2	14.9	0.00e+00	0	42	0	70254592	53	4881
2026-01-18 14:33:25.97	171.81	8.41	-41.6	-44.3	14.8	0.00e+00	0	42	0	77594624	53	4965
2026-01-18 14:33:26.96	171.84	8.49	-41.6	-44.3	14.8	0.00e+00	0	43	0	84934656	53	4959
2026-01-18 14:33:27.95	171.86	8.58	-41.9	-44.9	14.3	2.20e-06	0	43	0	92274688	53	5283
2026-01-18 14:33:28.95	171.89	8.66	-42.6	-46.0	13.1	1.02e-05	0	43	0	99614720	54	5696
2026-01-18 14:33:29.94	171.91	8.74	-43.0	-46.7	12.5	7.89e-05	0	42	0	106954752	55	5801
2026-01-18 14:33:30.93	171.94	8.82	-43.9	-48.4	10.9	8.81e-04	0	43	0	113246208	57	6304
2026-01-18 14:33:31.93	171.96	8.90	-44.5	-49.7	9.5	1.08e-02	0	42	0	120586240	58	6923
2026-01-18 14:33:32.92	171.99	8.99	-45.2	-51.6	7.6	5.59e-02	0	43	0	127926272	59	8119
2026-01-18 14:33:33.92	172.01	9.07	-45.5	-53.7	5.9	2.75e-01	0	43	0	135266304	60	9750
2026-01-18 14:33:34.91	172.04	9.15	-40.0	-42.1	17.0	0.00e+00	0	43	0	141557760	50	4578
2026-01-18 14:33:35.90	172.06	9.23	-41.5	-44.1	15.1	0.00e+00	0	43	0	148897792	52	5134
2026-01-18 14:33:36.90	172.09	9.32	-46.4	-58.5	3.8	8.46e-01	0	43	104	154140672	62	15066
2026-01-18 14:33:37.89	172.12	9.40	-44.9	-51.1	8.2	6.31e-01	0	43	104	154140672	60	7228
2026-01-18 14:33:38.89	172.14	9.49	-39.9	-41.7	17.3	1.10e-06	0	42	0	160432128	50	4388
2026-01-18 14:33:39.88	172.17	9.57	-40.0	-41.8	17.3	0.00e+00	0	43	0	166723584	49	4705
2026-01-18 14:33:40.87	172.20	9.65	-39.2	-40.9	18.2	0.00e+00	0	43	0	174063616	49	4211
2026-01-18 14:33:41.87	172.22	9.74	-39.4	-41.2	17.9	0.00e+00	0	43	0	181403648	49	4355
2026-01-18 14:33:42.86	172.25	9.82	-38.9	-40.6	18.4	0.00e+00	0	43	0	188743680	48	4324
2026-01-18 14:33:43.86	172.28	9.91	-39.1	-40.9	18.2	0.00e+00	0	43	0	196083712	48	4450
2026-01-18 14:33:44.93	172.30	10.00	-39.0	-40.7	18.3	0.00e+00	0	43	0	203423744	48	4390
2026-01-18 14:33:45.83	172.33	10.08	-38.6	-40.2	18.8	0.00e+00	0	43	0	209715200	48	4133
2026-01-18 14:33:46.87	172.36	10.17	-38.4	-40.1	18.6	0.00e+00	0	43	0	218103808	47	4323
2026-01-18 14:33:47.87	172.39	10.26	-38.2	-39.9	18.9	0.00e+00	0	43	0	225443840	46	4453
2026-01-18 14:33:48.86	172.41	10.34	-38.0	-39.7	19.0	0.00e+00	0	43	0	231735296	46	4367
2026-01-18 14:33:49.85	172.44	10.43	-37.7	-39.4	19.3	0.00e+00	0	43	0	239075328	46	4198
2026-01-18 14:33:50.85	172.47	10.52	-37.8	-39.5	19.2	0.00e+00	0	43	0	246415360	46	4249
2026-01-18 14:33:51.84	172.50	10.61	-37.8	-39.5	19.2	0.00e+00	0	43	0	253755392	45	4500
2026-01-18 14:33:52.84	172.52	10.70	-37.9	-39.5	19.2	0.00e+00	0	43	0	261095424	45	4521
2026-01-18 14:33:53.83	172.55	10.78	-37.8	-39.5	19.2	0.00e+00	0	43	0	268435456	45	4523
2026-01-18 14:33:54.82	172.58	10.87	-37.7	-39.4	19.3	0.00e+00	0	43	0	274726912	45	4467
2026-01-18 14:33:55.82	172.61	10.96	-37.5	-39.2	19.5	0.00e+00	0	43	0	282066944	45	4345
2026-01-18 14:33:56.81	172.64	11.05	-37.7	-39.3	19.4	0.00e+00	0	43	0	289406976	45	4418
2026-01-18 14:33:57.81	172.67	11.14	-37.7	-39.4	19.3	0.00e+00	0	43	0	296747008	45	4449
2026-01-18 14:33:58.80	172.70	11.23	-38.0	-39.7	19.1	0.00e+00	0	43	0	304087040	45	4626
2026-01-18 14:33:59.84	172.73	11.33	-37.8	-39.4	19.3	0.00e+00	0	43	0	311427072	45	4482
2026-01-18 14:34:00.87	172.76	11.42	-37.7	-39.3	19.4	0.00e+00	0	43	0	318767104	45	4432
2026-01-18 14:34:01.86	172.79	11.51	-37.6	-39.1	19.6	0.00e+00	0	43	0	326107136	45	4334
2026-01-18 14:34:02.86	172.82	11.60	-37.7	-39.2	19.4	0.00e+00	0	43	0	333447168	45	4361
2026-01-18 14:34:03.85	172.85	11.69	-37.8	-39.3	19.4	0.00e+00	0	43	0	340787200	45	4408
2026-01-18 14:34:04.85	172.88	11.79	-37.6	-39.1	19.6	0.00e+00	0	43	0	348127232	45	4305
2026-01-18 14:34:05.84	172.91	11.88	-37.6	-39.0	19.7	0.00e+00	0	43	0	354418688	45	4291
2026-01-18 14:34:06.84	172.94	11.97	-37.7	-39.1	19.6	0.00e+00	0	43	0	361758720	45	4323
2026-01-18 14:34:07.83	172.97	12.07	-37.4	-38.9	19.8	0.00e+00	0	43	0	369098752	45	4199
2026-01-18 14:34:08.83	173.00	12.16	-37.5	-38.9	19.8	0.00e+00	0	43	0	376438784	45	4236
2026-01-18 14:34:09.82	173.03	12.25	-37.8	-39.2	19.6	0.00e+00	0	43	0	383778816	45	4343
2026-01-18 14:34:10.82	173.06	12.35	-37.6	-39.0	19.7	0.00e+00	0	43	0	391118848	45	4259
2026-01-18 14:34:11.81	173.09	12.44	-37.3	-38.6	20.1	0.00e+00	0	43	0	397410304	45	4090
2026-01-18 14:34:12.80	173.12	12.54	-37.5	-38.8	19.9	0.00e+00	0	43	0	404750336	45	4190
2026-01-18 14:34:13.80	173.15	12.63	-37.5	-38.9	19.8	0.00e+00	0	43	0	412090368	45	4231
2026-01-18 14:34:14.79	173.19	12.73	-37.4	-38.7	20.0	0.00e+00	0	43	0	419430400	45	4124
2026-01-18 14:34:15.79	173.22	12.82	-37.4	-38.7	20.0	0.00e+00	0	43	0	426770432	45	4126
2026-01-18 14:34:16.83	173.25	12.93	-37.5	-38.9	19.9	0.00e+00	0	43	0	434110464	45	4211
2026-01-18 14:34:17.82	173.28	13.02	-37.3	-38.6	20.1	0.00e+00	0	43	0	441450496	45	4089
2026-01-18 14:34:18.88	173.32	13.13	-37.2	-38.5	20.2	0.00e+00	0	43	0	448790528	45	4027
2026-01-18 14:34:19.73	173.35	13.21	-37.1	-38.4	20.3	0.00e+00	0	43	0	455081984	45	3999
2026-01-18 14:34:20.87	173.39	13.32	-37.2	-38.6	20.2	0.00e+00	0	43	0	463470592	44	4297
2026-01-18 14:34:21.72	173.41	13.41	-37.2	-38.5	20.2	0.00e+00	0	43	0	469762048	44	4254
2026-01-18 14:34:22.86	173.45	13.52	-37.1	-38.4	20.3	0.00e+00	0	43	0	478150656	44	4205
2026-01-18 14:34:23.71	173.48	13.60	-36.8	-38.1	20.6	0.00e+00	0	43	0	483393536	44	4060
2026-01-18 14:34:24.85	173.52	13.72	-36.8	-38.1	20.5	0.00e+00	0	43	0	491782144	44	4095
2026-01-18 14:34:25.70	173.55	13.80	-36.8	-38.1	20.6	0.00e+00	0	43	0	498073600	44	4071
2026-01-18 14:34:26.84	173.59	13.92	-37.0	-38.3	20.4	0.00e+00	0	43	0	506462208	44	4159
2026-01-18 14:34:27.69	173.62	14.00	-36.9	-38.2	20.5	0.00e+00	0	43	0	512753664	44	4129
2026-01-18 14:34:28.83	173.66	14.12	-37.0	-38.3	20.3	0.00e+00	0	43	0	520093696	44	4177
2026-01-18 14:34:29.68	173.69	14.21	-36.8	-38.1	20.5	0.00e+00	0	43	0	526385152	44	4095
2026-01-18 14:34:30.91	173.73	14.33	-36.7	-38.0	20.7	0.00e+00	0	43	0	535822336	44	4020
2026-01-18 14:34:31.77	173.76	14.42	-36.8	-38.2	20.5	0.00e+00	0	43	0	542113792	44	4108
2026-01-18 14:34:32.90	173.80	14.54	-36.5	-37.8	20.7	0.00e+00	0	43	0	550502400	43	4172
2026-01-18 14:34:33.76	173.83	14.63	-36.4	-37.6	20.9	0.00e+00	0	43	0	556793856	43	4089
2026-01-18 14:34:34.89	173.87	14.75	-36.5	-37.8	20.8	0.00e+00	0	43	0	564133888	43	4146
2026-01-18 14:34:35.74	173.91	14.84	-36.6	-37.9	20.7	0.00e+00	0	43	0	570425344	43	4206
2026-01-18 14:34:37.07	173.95	14.98	-36.5	-37.8	20.7	0.00e+00	0	43	0	579862528	43	4176
2026-01-18 14:34:37.78	173.98	15.05	-36.6	-37.9	20.7	0.00e+00	0	43	0	585105408	43	4199
2026-01-18 14:34:39.06	174.03	15.19	-36.6	-37.9	20.6	0.00e+00	0	43	0	594542592	43	4223
2026-01-18 14:34:39.79	174.06	15.26	-36.7	-38.0	20.5	0.00e+00	0	43	0	599785472	43	4276
2026-01-18 14:34:41.07	174.10	15.40	-36.4	-37.7	20.7	0.00e+00	0	43	0	609222656	43	4135
2026-01-18 14:34:41.79	174.13	15.48	-36.4	-37.7	20.8	0.00e+00	0	43	0	614465536	43	4124
2026-01-18 14:34:43.07	174.18	15.62	-36.5	-37.8	20.7	0.00e+00	0	43	0	623902720	43	4177
2026-01-18 14:34:43.88	174.21	15.71	-36.4	-37.7	20.8	0.00e+00	0	43	0	629145600	43	4106
2026-01-18 14:34:45.01	174.25	15.83	-36.3	-37.6	20.9	0.00e+00	0	43	0	637534208	43	4062
2026-01-18 14:34:45.87	174.29	15.92	-36.4	-37.8	20.7	0.00e+00	0	43	0	643825664	43	4146
2026-01-18 14:34:47.00	174.33	16.05	-36.4	-37.7	20.8	0.00e+00	0	43	0	652214272	43	4137
2026-01-18 14:34:47.86	174.37	16.14	-36.5	-37.8	20.7	0.00e+00	0	43	0	658505728	43	4174
2026-01-18 14:34:48.99	174.41	16.27	-36.2	-37.6	20.9	0.00e+00	0	43	0	666894336	43	4060
2026-01-18 14:34:49.84	174.45	16.36	-36.4	-37.8	20.7	0.00e+00	0	43	0	672137216	43	4146
2026-01-18 14:34:50.99	174.49	16.49	-36.4	-37.7	20.7	0.00e+00	0	43	0	680525824	43	4142
2026-01-18 14:34:51.85	174.53	16.59	-36.4	-37.7	20.8	0.00e+00	0	43	0	686817280	43	4127
2026-01-18 14:34:52.98	174.57	16.72	-36.3	-37.7	20.8	0.00e+00	0	43	0	695205888	43	4101
2026-01-18 14:34:53.84	174.61	16.81	-36.2	-37.6	20.8	0.00e+00	0	43	0	701497344	43	4062
2026-01-18 14:34:54.97	174.66	16.94	-36.2	-37.5	20.9	0.00e+00	0	43	0	709885952	43	4035
2026-01-18 14:34:55.83	174.69	17.04	-36.2	-37.6	20.8	0.00e+00	0	43	0	715128832	43	4053
2026-01-18 14:34:56.96	174.74	17.17	-36.1	-37.4	21.0	0.00e+00	0	43	0	723517440	43	3991
2026-01-18 14:34:57.82	174.78	17.27	-36.3	-37.7	20.7	0.00e+00	0	43	0	729808896	42	4374
2026-01-18 14:34:58.95	174.82	17.40	-36.0	-37.4	21.0	0.00e+00	0	43	0	738197504	42	4222
2026-01-18 14:34:59.80	174.86	17.50	-36.2	-37.6	20.8	0.00e+00	0	43	0	744488960	42	4319
2026-01-18 14:35:00.94	174.91	17.63	-36.2	-37.6	20.8	0.00e+00	0	43	0	752877568	42	4315
2026-01-18 14:35:01.79	174.95	17.73	-36.0	-37.4	20.9	0.00e+00	0	43	0	759169024	42	4218
2026-01-18 14:35:02.93	175.00	17.87	-36.2	-37.7	20.7	0.00e+00	0	43	0	766509056	42	4347
2026-01-18 14:35:03.78	175.03	17.97	-36.2	-37.6	20.8	0.00e+00	0	43	0	772800512	42	4321
2026-01-18 14:35:04.92	175.09	18.11	-36.4	-37.8	20.6	0.00e+00	0	43	0	781189120	42	4434
2026-01-18 14:35:05.77	175.12	18.21	-36.3	-37.8	20.6	0.00e+00	0	43	0	787480576	42	4397
2026-01-18 14:35:07.00	175.18	18.36	-36.0	-37.5	20.8	0.00e+00	0	43	0	795869184	42	4244
2026-01-18 14:35:07.86	175.22	18.46	-36.1	-37.5	20.8	0.00e+00	0	43	0	802160640	42	4273
2026-01-18 14:35:09.04	175.27	18.61	-36.1	-37.6	20.6	0.00e+00	0	43	0	811597824	42	4301
2026-01-18 14:35:09.89	175.31	18.71	-36.0	-37.4	20.9	0.00e+00	0	43	0	816840704	42	4229
2026-01-18 14:35:11.03	175.36	18.85	-36.0	-37.4	20.9	0.00e+00	0	43	0	825229312	42	4233
2026-01-18 14:35:11.88	175.40	18.95	-35.9	-37.3	20.9	0.00e+00	0	43	0	831520768	42	4183
2026-01-18 14:35:13.02	175.46	19.10	-35.8	-37.3	21.0	0.00e+00	0	43	0	839909376	42	4150
2026-01-18 14:35:13.87	175.50	19.20	-35.9	-37.3	20.9	0.00e+00	0	43	0	846200832	42	4185
2026-01-18 14:35:15.01	175.55	19.35	-35.9	-37.3	20.9	0.00e+00	0	43	0	854589440	42	4191
2026-01-18 14:35:15.86	175.60	19.45	-35.8	-37.3	21.0	0.00e+00	0	43	0	859832320	42	4173
2026-01-18 14:35:17.00	175.65	19.60	-35.7	-37.1	21.1	0.00e+00	0	44	0	868220928	42	4090
2026-01-18 14:35:17.85	175.69	19.70	-35.7	-37.1	21.1	0.00e+00	0	43	0	874512384	42	4085
2026-01-18 14:35:18.99	175.75	19.85	-35.5	-37.0	21.2	0.00e+00	0	43	0	882900992	41	4249
2026-01-18 14:35:19.84	175.79	19.96	-35.7	-37.1	21.1	0.00e+00	0	43	0	889192448	41	4331
2026-01-18 14:35:20.98	175.85	20.11	-35.4	-36.8	21.3	0.00e+00	0	43	0	897581056	41	4172
2026-01-18 14:35:21.83	175.89	20.22	-35.4	-36.8	21.3	0.00e+00	0	43	0	902823936	41	4175
2026-01-18 14:35:22.96	175.95	20.37	-35.3	-36.7	21.4	0.00e+00	0	44	0	911212544	41	4138
2026-01-18 14:35:23.82	175.99	20.48	-35.2	-36.6	21.6	0.00e+00	0	43	0	917504000	41	4056
2026-01-18 14:35:24.95	176.05	20.63	-35.3	-36.7	21.4	0.00e+00	0	43	0	925892608	41	4113
2026-01-18 14:35:25.80	176.10	20.74	-35.3	-36.7	21.4	0.00e+00	0	44	0	932184064	41	4125
2026-01-18 14:35:27.09	176.17	20.91	-35.3	-36.7	21.4	0.00e+00	0	43	0	941621248	41	4137
2026-01-18 14:35:27.81	176.20	21.01	-35.4	-36.8	21.4	0.00e+00	0	43	0	946864128	41	4164
2026-01-18 14:35:29.09	176.27	21.18	-35.3	-36.7	21.4	0.00e+00	0	43	0	955252736	41	4112
2026-01-18 14:35:29.81	176.31	21.28	-35.3	-36.6	21.5	0.00e+00	0	43	0	960495616	41	4097
2026-01-18 14:35:31.09	176.38	21.45	-35.4	-36.8	21.4	0.00e+00	0	43	0	969932800	41	4160
2026-01-18 14:35:31.80	176.42	21.55	-35.2	-36.6	21.5	0.00e+00	0	43	0	975175680	41	4089
2026-01-18 14:35:33.10	176.49	21.73	-35.2	-36.7	21.5	0.00e+00	0	43	0	984612864	41	4106
2026-01-18 14:35:33.84	176.53	21.83	-35.1	-36.5	21.6	0.00e+00	0	43	0	989855744	41	4016
2026-01-18 14:35:35.12	176.61	22.01	-35.3	-36.8	21.4	0.00e+00	0	43	0	999292928	40	4405
2026-01-18 14:35:35.92	176.65	22.12	-35.2	-36.6	21.5	0.00e+00	0	43	0	1004535808	40	4303
2026-01-18 14:35:37.06	176.72	22.28	-35.3	-36.7	21.4	0.00e+00	0	43	0	1012924416	40	4376
2026-01-18 14:35:37.91	176.77	22.40	-35.3	-36.7	21.4	0.00e+00	0	43	0	1019215872	40	4369
2026-01-18 14:35:39.05	176.83	22.56	-35.2	-36.6	21.5	0.00e+00	0	43	0	1027604480	40	4320
2026-01-18 14:35:39.90	176.88	22.68	-35.3	-36.8	21.3	0.00e+00	0	43	0	1033895936	40	4412
2026-01-18 14:35:41.04	176.95	22.85	-35.4	-36.9	21.3	0.00e+00	0	43	0	1042284544	40	4454
2026-01-18 14:35:41.89	177.00	22.97	-35.5	-37.0	21.2	0.00e+00	0	43	0	1048576000	40	4527
2026-01-18 14:35:43.03	177.07	23.13	-35.4	-36.8	21.3	0.00e+00	0	43	0	1055916032	40	4438
2026-01-18 14:35:43.88	177.12	23.26	-35.3	-36.8	21.3	0.00e+00	0	43	0	1062207488	40	4397
2026-01-18 14:35:45.02	177.19	23.42	-35.3	-36.7	21.4	0.00e+00	0	43	0	1070596096	40	4374
2026-01-18 14:35:45.87	177.25	23.55	-35.3	-36.8	21.4	0.00e+00	0	43	0	1076887552	40	4396
2026-01-18 14:35:47.12	177.32	23.74	-35.5	-37.0	21.2	0.00e+00	0	43	0	1086324736	40	4503
2026-01-18 14:35:47.97	177.38	23.86	-35.5	-36.9	21.3	0.00e+00	0	43	0	1091567616	40	4479
2026-01-18 14:35:49.17	177.45	24.04	-35.5	-37.0	21.2	0.00e+00	0	44	0	1101004800	40	4514
2026-01-18 14:35:50.02	177.51	24.17	-35.2	-36.7	21.5	0.00e+00	0	43	0	1106247680	40	4341
2026-01-18 14:35:51.16	177.58	24.34	-35.2	-36.7	21.5	0.00e+00	0	44	0	1114636288	40	4362
2026-01-18 14:35:52.01	177.64	24.47	-35.2	-36.7	21.5	0.00e+00	0	44	0	1120927744	40	4349
2026-01-18 14:35:53.15	177.71	24.65	-35.2	-36.7	21.5	0.00e+00	0	43	0	1129316352	40	4355
2026-01-18 14:35:54.00	177.77	24.78	-35.1	-36.5	21.7	0.00e+00	0	44	0	1135607808	40	4253
2026-01-18 14:35:55.14	177.85	24.96	-35.1	-36.5	21.7	0.00e+00	0	44	0	1143996416	40	4271
2026-01-18 14:35:55.99	177.91	25.09	-35.0	-36.4	21.8	0.00e+00	0	44	0	1150287872	40	4198
2026-01-18 14:35:57.13	177.98	25.27	-34.9	-36.3	21.9	0.00e+00	0	44	0	1157627904	40	4156
2026-01-18 14:35:58.19	178.06	25.43	-34.9	-36.2	22.0	0.00e+00	0	43	0	1166016512	40	4125
2026-01-18 14:35:59.26	178.13	25.60	-35.0	-36.3	21.9	0.00e+00	0	43	0	1173356544	40	4163
2026-01-18 14:36:00.24	178.20	25.76	-34.7	-36.0	22.1	0.00e+00	0	44	0	1180696576	40	4035
2026-01-18 14:36:01.23	178.27	25.92	-34.9	-36.2	22.0	0.00e+00	0	44	0	1188036608	39	4361
2026-01-18 14:36:02.43	178.36	26.11	-34.5	-35.8	22.3	0.00e+00	0	44	0	1196425216	39	4172
2026-01-18 14:36:03.32	178.43	26.26	-34.6	-35.8	22.3	0.00e+00	0	43	0	1202716672	39	4188
2026-01-18 14:36:04.63	178.52	26.47	-34.5	-35.8	22.4	0.00e+00	0	43	0	1212153856	39	4156
2026-01-18 14:36:05.34	178.58	26.59	-34.5	-35.8	22.4	0.00e+00	0	44	0	1217396736	39	4147
2026-01-18 14:36:06.84	178.69	26.84	-34.4	-35.6	22.5	0.00e+00	0	43	0	1228931072	39	4094
2026-01-18 14:36:07.55	178.74	26.96	-34.5	-35.7	22.4	0.00e+00	0	43	0	1233125376	39	4142
2026-01-18 14:36:08.83	178.84	27.17	-34.5	-35.8	22.3	0.00e+00	0	43	0	1242562560	39	4153
2026-01-18 14:36:09.54	178.90	27.29	-34.5	-35.7	22.3	0.00e+00	0	43	0	1247805440	39	4142
2026-01-18 14:36:10.82	179.00	27.51	-34.4	-35.7	22.3	0.00e+00	0	43	0	1257242624	39	4110
2026-01-18 14:36:11.55	179.05	27.63	-34.3	-35.6	22.4	0.00e+00	0	43	0	1262485504	39	4061
2026-01-18 14:36:12.83	179.16	27.85	-34.5	-35.7	22.3	0.00e+00	0	43	0	1270874112	39	4145
2026-01-18 14:36:13.54	179.21	27.97	-34.4	-35.7	22.3	0.00e+00	0	43	0	1276116992	39	4140
2026-01-18 14:36:14.82	179.32	28.20	-34.5	-35.8	22.2	0.00e+00	0	43	0	1285554176	39	4156
2026-01-18 14:36:15.54	179.38	28.32	-34.5	-35.8	22.2	0.00e+00	0	44	0	1290797056	39	4156
2026-01-18 14:36:16.82	179.49	28.55	-34.5	-35.9	22.1	0.00e+00	0	43	0	1300234240	39	4208
2026-01-18 14:36:17.56	179.55	28.68	-34.7	-36.1	22.0	0.00e+00	0	43	0	1305477120	39	4294
2026-01-18 14:36:18.84	179.66	28.91	-34.6	-36.0	22.0	0.00e+00	0	44	0	1314914304	39	4279
2026-01-18 14:36:19.55	179.72	29.03	-34.6	-36.0	22.0	0.00e+00	0	44	0	1320157184	39	4263
2026-01-18 14:36:20.83	179.83	29.26	-34.6	-36.0	21.9	0.00e+00	0	43	0	1329594368	39	4273
2026-01-18 14:36:21.54	179.89	29.39	-34.5	-35.9	22.1	0.00e+00	0	43	0	1334837248	39	4226
2026-01-18 14:36:22.82	180.01	29.63	-34.5	-35.9	22.0	0.00e+00	0	44	0	1343225856	39	4236
2026-01-18 14:36:23.55	180.07	29.76	-34.6	-36.0	22.0	0.00e+00	0	43	0	1348468736	39	4250
2026-01-18 14:36:24.83	180.19	30.00	-34.4	-35.8	22.1	0.00e+00	0	44	0	1357905920	39	4154
2026-01-18 14:36:25.55	180.26	30.13	-34.6	-36.0	22.0	0.00e+00	0	43	0	1363148800	39	4252
2026-01-18 14:36:26.83	180.38	30.37	-34.4	-35.7	22.2	0.00e+00	0	44	0	1372585984	39	4137
2026-01-18 14:36:27.54	180.44	30.50	-34.5	-35.9	22.2	0.00e+00	0	44	0	1377828864	39	4196
2026-01-18 14:36:28.82	180.56	30.74	-34.6	-35.9	22.1	0.00e+00	0	43	0	1387266048	39	4237
2026-01-18 14:36:29.56	180.64	30.89	-34.6	-36.0	22.1	0.00e+00	0	43	0	1392508928	39	4245
2026-01-18 14:36:30.84	180.76	31.13	-34.6	-36.0	22.0	0.00e+00	0	43	0	1400897536	39	4250
2026-01-18 14:36:31.58	180.83	31.27	-34.7	-36.1	21.9	0.00e+00	0	43	0	1407188992	39	4321
2026-01-18 14:36:32.86	180.96	31.52	-34.8	-36.2	21.9	0.00e+00	0	44	0	1415577600	39	4356
2026-01-18 14:36:33.57	181.03	31.66	-34.7	-36.0	22.0	0.00e+00	0	44	0	1420820480	39	4274
2026-01-18 14:36:34.84	181.16	31.91	-34.8	-36.1	22.0	0.00e+00	0	44	0	1430257664	39	4310
2026-01-18 14:36:35.57	181.24	32.05	-34.6	-35.9	22.1	0.00e+00	0	43	0	1435500544	39	4216
2026-01-18 14:36:36.85	181.37	32.31	-34.5	-35.8	22.2	0.00e+00	0	43	0	1444937728	39	4154
2026-01-18 14:36:37.66	181.46	32.47	-34.4	-35.6	22.4	0.00e+00	0	44	0	1451229184	39	4096
2026-01-18 14:36:39.11	181.61	32.76	-34.3	-35.6	22.4	0.00e+00	0	44	0	1461714944	39	4069
2026-01-18 14:36:39.82	181.69	32.90	-34.3	-35.5	22.5	0.00e+00	0	44	0	1465909248	39	4026
2026-01-18 14:36:41.10	181.83	33.17	-34.4	-35.6	22.4	0.00e+00	0	43	0	1475346432	39	4071
2026-01-18 14:36:41.83	181.91	33.32	-34.3	-35.5	22.5	0.00e+00	0	44	0	1480589312	39	4014
2026-01-18 14:36:43.10	182.05	33.58	-34.2	-35.4	22.6	0.00e+00	0	44	0	1490026496	39	3980
2026-01-18 14:36:43.89	182.14	33.74	-34.4	-35.6	22.4	0.00e+00	0	44	0	1496317952	39	4084
2026-01-18 14:36:45.06	182.28	33.99	-34.4	-35.7	22.4	0.00e+00	0	43	0	1503657984	39	4109
2026-01-18 14:36:45.92	182.38	34.17	-34.4	-35.7	22.3	0.00e+00	0	43	0	1509949440	39	4119
2026-01-18 14:36:47.06	182.51	34.41	-34.5	-35.7	22.3	0.00e+00	0	44	0	1518338048	39	4134
2026-01-18 14:36:47.91	182.62	34.59	-34.6	-35.9	22.1	0.00e+00	0	43	0	1524629504	39	4217
2026-01-18 14:36:49.04	182.75	34.83	-34.6	-35.9	22.1	0.00e+00	0	43	0	1533018112	39	4230
2026-01-18 14:36:49.90	182.86	35.02	-34.6	-36.0	22.0	0.00e+00	0	44	0	1539309568	39	4246
2026-01-18 14:36:51.04	183.00	35.26	-34.6	-36.0	22.0	0.00e+00	0	43	0	1546649600	39	4254
2026-01-18 14:36:51.89	183.11	35.45	-34.5	-35.9	22.1	0.00e+00	0	44	0	1552941056	39	4205
2026-01-18 14:36:53.07	183.26	35.71	-34.6	-35.9	22.1	0.00e+00	0	44	0	1562378240	39	4239
2026-01-18 14:36:53.92	183.37	35.90	-34.6	-35.9	22.1	0.00e+00	0	43	0	1567621120	39	4210
2026-01-18 14:36:55.06	183.52	36.15	-34.4	-35.8	22.2	0.00e+00	0	43	0	1576009728	39	4149
2026-01-18 14:36:55.92	183.63	36.34	-34.5	-35.8	22.2	0.00e+00	0	43	0	1582301184	39	4172
2026-01-18 14:36:57.06	183.79	36.60	-34.5	-35.8	22.2	0.00e+00	0	44	0	1590689792	39	4163
2026-01-18 14:36:57.91	183.90	36.79	-34.5	-35.9	22.2	0.00e+00	0	44	0	1596981248	39	4207
2026-01-18 14:36:59.05	184.06	37.05	-34.6	-35.9	22.2	0.00e+00	0	44	0	1605369856	39	4241
2026-01-18 14:36:59.90	184.18	37.25	-34.6	-35.9	22.2	0.00e+00	0	44	0	1611661312	39	4226
2026-01-18 14:37:01.04	184.34	37.51	-34.6	-35.9	22.3	0.00e+00	0	43	0	1620049920	39	4201
2026-01-18 14:37:01.89	184.47	37.71	-34.6	-36.0	22.3	0.00e+00	0	44	0	1625292800	39	4245
2026-01-18 14:37:03.03	184.63	37.97	-34.7	-36.0	22.3	0.00e+00	0	44	0	1633681408	39	4265
2026-01-18 14:37:03.88	184.76	38.17	-34.7	-36.0	22.3	0.00e+00	0	43	0	1639972864	39	4259
2026-01-18 14:37:05.02	184.93	38.44	-34.8	-36.1	22.3	0.00e+00	0	43	0	1648361472	39	4310
2026-01-18 14:37:05.87	185.06	38.65	-34.7	-36.0	22.4	0.00e+00	0	44	0	1654652928	39	4258
2026-01-18 14:37:07.07	185.25	38.93	-34.7	-36.0	22.3	0.00e+00	0	44	0	1663041536	39	4273
2026-01-18 14:37:07.92	185.38	39.14	-34.7	-36.0	22.3	0.00e+00	0	44	0	1669332992	39	4264
2026-01-18 14:37:09.12	185.57	39.43	-35.0	-36.3	22.0	0.00e+00	0	44	0	1677721600	39	4433
2026-01-18 14:37:09.98	185.71	39.64	-34.8	-36.0	22.3	0.00e+00	0	44	0	1684013056	39	4287
2026-01-18 14:37:11.11	185.89	39.92	-35.0	-36.3	22.0	0.00e+00	0	44	0	1692401664	39	4420
2026-01-18 14:37:11.96	186.04	40.13	-35.0	-36.3	22.0	0.00e+00	0	44	0	1698693120	39	4425
2026-01-18 14:37:13.10	186.23	40.41	-34.8	-36.2	22.1	0.00e+00	0	44	0	1707081728	39	4351
2026-01-18 14:37:14.00	186.38	40.63	-34.8	-36.1	22.2	0.00e+00	0	43	0	1713373184	39	4326
2026-01-18 14:37:15.13	186.58	40.92	-34.7	-36.0	22.2	0.00e+00	0	43	0	1720713216	39	4280
2026-01-18 14:37:15.98	186.73	41.13	-34.7	-36.1	22.2	0.00e+00	0	44	0	1727004672	39	4292
2026-01-18 14:37:17.12	186.94	41.42	-34.8	-36.1	22.1	0.00e+00	0	44	0	1735393280	39	4318
2026-01-18 14:37:17.97	187.09	41.64	-34.8	-36.1	22.2	0.00e+00	0	44	0	1741684736	39	4299
2026-01-18 14:37:19.11	187.30	41.93	-34.7	-36.0	22.3	0.00e+00	0	44	0	1750073344	39	4247
2026-01-18 14:37:19.96	187.46	42.15	-34.7	-35.9	22.4	0.00e+00	0	44	0	1756364800	39	4232
2026-01-18 14:37:21.10	187.68	42.45	-34.9	-36.1	22.2	0.00e+00	0	44	0	1764753408	39	4337
2026-01-18 14:37:21.95	187.85	42.67	-34.8	-36.0	22.3	0.00e+00	0	44	0	1771044864	39	4286
2026-01-18 14:37:23.09	188.07	42.97	-34.9	-36.1	22.3	0.00e+00	0	44	0	1778384896	39	4318
2026-01-18 14:37:23.94	188.24	43.19	-35.2	-36.4	22.0	0.00e+00	0	44	0	1784676352	39	4482
2026-01-18 14:37:25.08	188.48	43.50	-35.4	-36.7	21.8	0.00e+00	0	44	0	1793064960	40	4387
2026-01-18 14:37:25.93	188.65	43.73	-35.5	-36.8	21.7	0.00e+00	0	44	0	1799356416	40	4428
2026-01-18 14:37:27.07	188.89	44.03	-35.5	-36.8	21.7	0.00e+00	0	43	0	1807745024	40	4418
2026-01-18 14:37:27.92	189.07	44.26	-35.2	-36.5	21.9	0.00e+00	0	44	0	1812987904	40	4264
2026-01-18 14:37:29.06	189.32	44.57	-35.4	-36.7	21.8	0.00e+00	0	44	0	1821376512	40	4349
2026-01-18 14:37:29.91	189.51	44.80	-35.2	-36.4	22.0	0.00e+00	0	44	0	1827667968	40	4235
2026-01-18 14:37:31.05	189.77	45.12	-35.2	-36.4	21.9	0.00e+00	0	43	0	1836056576	40	4239
2026-01-18 14:37:31.90	189.96	45.35	-35.0	-36.3	22.1	0.00e+00	0	44	0	1842348032	40	4148
2026-01-18 14:37:33.04	190.23	45.67	-35.3	-36.5	21.8	0.00e+00	0	44	0	1850736640	40	4276
2026-01-18 14:37:33.89	190.43	45.90	-35.8	-36.6	22.5	0.00e+00	0	44	0	1857028096	41	4080
2026-01-18 14:37:35.03	190.70	46.22	-36.1	-36.9	22.2	0.00e+00	0	44	0	1864368128	41	4231
2026-01-18 14:37:35.88	190.91	46.46	-36.0	-36.8	22.3	0.00e+00	0	43	0	1870659584	42	3936
2026-01-18 14:37:37.02	191.20	46.78	-36.0	-36.9	22.3	0.00e+00	0	44	0	1879048192	42	3979
2026-01-18 14:37:37.87	191.41	47.03	-36.1	-36.9	22.3	0.00e+00	0	44	0	1885339648	42	3988
2026-01-18 14:37:39.07	191.72	47.37	-36.1	-37.0	22.2	0.00e+00	0	44	0	1893728256	42	4014
2026-01-18 14:37:39.92	191.95	47.61	-36.1	-37.0	22.2	0.00e+00	0	44	0	1900019712	42	4027
2026-01-18 14:37:41.13	192.27	47.96	-36.8	-37.7	21.5	0.00e+00	0	44	0	1908408320	43	4103
2026-01-18 14:37:41.98	192.51	48.21	-36.6	-37.5	21.8	0.00e+00	0	44	0	1914699776	43	4011
2026-01-18 14:37:43.11	192.82	48.54	-36.7	-37.6	21.7	0.00e+00	0	44	0	1923088384	43	4064
2026-01-18 14:37:43.97	193.07	48.79	-36.9	-37.8	21.5	0.00e+00	0	44	0	1929379840	43	4166
2026-01-18 14:37:45.10	193.39	49.12	-36.9	-37.8	21.5	0.00e+00	0	44	0	1937768448	43	4185
2026-01-18 14:37:45.96	193.65	49.37	-37.8	-38.8	20.7	0.00e+00	0	44	0	1944059904	45	4150
2026-01-18 14:37:47.09	193.99	49.70	-37.2	-38.1	21.4	0.00e+00	0	43	0	1952448512	44	4062
2026-01-18 14:37:47.95	194.25	49.96	-37.1	-38.0	21.4	0.00e+00	0	44	0	1958739968	44	4024
2026-01-18 14:37:49.08	194.60	50.30	-36.7	-37.6	21.8	0.00e+00	0	44	0	1966080000	44	3831
2026-01-18 14:37:49.94	194.88	50.55	-36.4	-37.3	21.9	0.00e+00	0	44	0	1972371456	43	3937
2026-01-18 14:37:51.07	195.25	50.89	-36.6	-37.6	21.6	0.00e+00	0	44	0	1980760064	42	4297
2026-01-18 14:37:52.16	195.61	51.22	-36.4	-37.2	22.0	0.00e+00	0	44	0	1988100096	42	4132
2026-01-18 14:37:53.20	195.96	51.53	-36.5	-37.4	21.9	0.00e+00	0	44	0	1996488704	42	4216
2026-01-18 14:37:54.34	196.36	51.88	-36.9	-37.8	21.5	0.00e+00	0	44	0	2003828736	43	4160
2026-01-18 14:37:55.19	196.66	52.14	-36.8	-37.7	21.6	0.00e+00	0	44	0	2010120192	43	4105
2026-01-18 14:37:56.33	197.07	52.48	-37.3	-38.2	21.1	0.00e+00	0	44	0	2018508800	43	4372
2026-01-18 14:37:57.30	197.43	52.78	-36.6	-37.5	21.7	0.00e+00	0	44	0	2025848832	43	4018
2026-01-18 14:37:58.47	197.87	53.14	-36.8	-37.7	21.6	0.00e+00	0	44	0	2034237440	43	4101
2026-01-18 14:37:59.33	198.20	53.40	-36.8	-37.7	21.5	0.00e+00	0	44	0	2040528896	43	4131
2026-01-18 14:38:00.46	198.64	53.74	-36.9	-37.8	21.4	0.00e+00	0	44	0	2048917504	43	4179
2026-01-18 14:38:01.32	198.99	54.01	-36.7	-37.6	21.7	0.00e+00	0	44	0	2054160384	43	4053
2026-01-18 14:38:02.45	199.45	54.36	-36.7	-37.6	21.7	0.00e+00	0	44	0	2062548992	43	4052
2026-01-18 14:38:03.31	199.81	54.62	-36.7	-37.6	21.7	0.00e+00	0	44	0	2068840448	43	4058
2026-01-18 14:38:04.44	200.29	54.97	-36.6	-37.5	21.8	0.00e+00	0	44	0	2077229056	43	4012
2026-01-18 14:38:05.30	200.67	55.24	-36.6	-37.5	21.7	0.00e+00	0	44	0	2083520512	43	4032
2026-01-18 14:38:06.43	201.17	55.58	-36.6	-37.5	21.8	0.00e+00	0	44	0	2091909120	43	4007
2026-01-18 14:38:07.29	201.56	55.85	-35.4	-36.6	22.1	0.00e+00	0	44	0	2097152000	42	3861
2026-01-18 14:38:08.42	202.09	56.20	-36.9	-37.8	21.6	0.00e+00	0	44	0	2105540608	44	3921
2026-01-18 14:38:09.27	202.50	56.46	-37.0	-37.9	21.5	0.00e+00	0	44	0	2111832064	44	3993
2026-01-18 14:38:10.41	203.05	56.81	-36.9	-37.8	21.6	0.00e+00	0	44	0	2120220672	44	3924
2026-01-18 14:38:11.27	203.48	57.08	-36.8	-37.7	21.7	0.00e+00	0	44	0	2126512128	44	3874
2026-01-18 14:38:12.58	204.15	57.48	-36.6	-37.5	21.5	0.00e+00	0	44	0	2135949312	43	4019
2026-01-18 14:38:13.29	204.52	57.70	-36.3	-37.1	22.1	0.00e+00	0	43	0	2141192192	42	4084
2026-01-18 14:38:14.57	205.20	58.09	-36.2	-37.0	22.2	0.00e+00	0	44	0	2150629376	42	4048
2026-01-18 14:38:15.31	205.60	58.32	-36.1	-37.0	22.2	0.00e+00	0	44	0	2155872256	42	4024
2026-01-18 14:38:16.58	206.31	58.70	-36.3	-37.2	22.0	0.00e+00	0	43	0	2164260864	42	4125
2026-01-18 14:38:17.31	206.73	58.93	-36.0	-36.8	22.3	0.00e+00	0	44	0	2170552320	42	3946
2026-01-18 14:38:18.59	207.48	59.31	-36.3	-37.1	22.1	0.00e+00	0	44	0	2179989504	42	4098
2026-01-18 14:38:19.30	207.90	59.53	-36.4	-37.3	22.0	0.00e+00	0	44	0	2184183808	42	4172
2026-01-18 14:38:20.58	208.69	59.91	-36.3	-37.2	22.0	0.00e+00	0	44	0	2193620992	42	4131
2026-01-18 14:38:21.31	209.14	60.13	-36.2	-37.0	22.2	0.00e+00	0	44	0	2198863872	42	4040
2026-01-18 14:38:22.58	209.96	60.51	-36.3	-37.1	22.1	0.00e+00	0	44	0	2208301056	42	4095
2026-01-18 14:38:23.42	210.51	60.75	-36.4	-37.3	21.9	0.00e+00	0	44	0	2214592512	42	4180
2026-01-18 14:38:24.56	211.27	61.09	-36.2	-37.0	22.2	0.00e+00	0	44	0	2221932544	42	4051
2026-01-18 14:38:25.41	211.86	61.33	-35.9	-36.8	22.4	0.00e+00	0	44	0	2228224000	42	3930
2026-01-18 14:38:26.55	212.66	61.66	-35.9	-36.8	22.4	0.00e+00	0	44	0	2236612608	42	3922
2026-01-18 14:38:27.40	213.27	61.91	-35.8	-36.7	22.5	0.00e+00	0	44	0	2242904064	42	3889
2026-01-18 14:38:28.54	214.11	62.23	-35.9	-36.8	22.4	0.00e+00	0	44	0	2251292672	42	3918
2026-01-18 14:38:29.39	214.75	62.47	-35.9	-36.8	22.4	0.00e+00	0	44	0	2257584128	42	3931
2026-01-18 14:38:30.53	215.63	62.78	-36.0	-36.9	22.2	0.00e+00	0	44	0	2264924160	42	3986
2026-01-18 14:38:31.38	216.30	63.01	-35.9	-36.8	22.4	0.00e+00	0	44	0	2271215616	42	3926
2026-01-18 14:38:32.52	217.22	63.32	-35.9	-36.7	22.5	0.00e+00	0	44	0	2279604224	42	3886
2026-01-18 14:38:33.37	217.92	63.55	-35.9	-36.8	22.4	0.00e+00	0	44	0	2285895680	42	3916
2026-01-18 14:38:34.50	218.88	63.85	-35.6	-36.5	22.5	0.00e+00	0	44	0	2294284288	41	4019
2026-01-18 14:38:35.36	219.62	64.07	-35.4	-36.3	22.8	0.00e+00	0	44	0	2300575744	41	3920
2026-01-18 14:38:36.62	220.73	64.39	-35.3	-36.2	22.8	0.00e+00	0	44	0	2308964352	41	3880
2026-01-18 14:38:37.80	221.80	64.68	-35.6	-36.5	22.5	0.00e+00	0	44	0	2318401536	41	4007
2026-01-18 14:38:38.65	222.59	64.89	-35.3	-36.1	23.0	0.00e+00	0	44	0	2324692992	41	3833
2026-01-18 14:38:39.79	223.66	65.16	-35.3	-36.1	23.0	0.00e+00	0	44	0	2332033024	41	3856
2026-01-18 14:38:40.65	224.50	65.36	-35.2	-36.0	23.0	0.00e+00	0	44	0	2338324480	41	3816
2026-01-18 14:38:41.78	225.61	65.61	-35.2	-36.0	23.0	0.00e+00	0	44	0	2346713088	41	3819
2026-01-18 14:38:42.63	226.46	65.80	-35.3	-36.2	22.9	0.00e+00	0	44	0	2353004544	41	3888
2026-01-18 14:38:43.77	227.63	66.05	-35.2	-36.0	23.0	0.00e+00	0	44	0	2361393152	40	4045
2026-01-18 14:38:44.62	228.52	66.22	-35.2	-36.1	23.0	0.00e+00	0	44	0	2367684608	40	4058
2026-01-18 14:38:45.76	229.74	66.45	-35.4	-36.2	22.9	0.00e+00	0	44	0	2375024640	40	4139
2026-01-18 14:38:46.61	230.66	66.62	-35.6	-36.4	22.7	0.00e+00	0	44	0	2381316096	40	4237
2026-01-18 14:38:47.92	232.11	66.86	-35.5	-36.4	22.7	0.00e+00	0	44	0	2390753280	40	4196
2026-01-18 14:38:48.63	232.91	66.99	-35.4	-36.2	22.9	0.00e+00	0	44	0	2395996160	40	4133
2026-01-18 14:38:49.91	234.37	67.21	-35.3	-36.1	23.0	0.00e+00	0	44	0	2405433344	40	4069
2026-01-18 14:38:50.62	235.20	67.32	-35.4	-36.3	22.8	0.00e+00	0	43	0	2410676224	40	4151
2026-01-18 14:38:51.89	236.70	67.52	-35.4	-36.2	22.9	0.00e+00	0	44	0	2420113408	40	4131
2026-01-18 14:38:52.65	237.61	67.63	-35.5	-36.4	22.7	0.00e+00	0	44	0	2425356288	40	4204
2026-01-18 14:38:54.24	239.54	67.85	-35.1	-35.9	23.2	0.00e+00	0	44	0	2436890624	40	3973
2026-01-18 14:38:54.81	240.25	67.92	-35.1	-36.0	23.1	0.00e+00	0	43	0	2441084928	40	4005
2026-01-18 14:38:56.52	242.39	68.12	-35.0	-35.8	23.1	0.00e+00	0	44	0	2452619264	40	3953
2026-01-18 14:38:57.12	243.15	68.18	-35.3	-36.1	23.0	0.00e+00	0	44	0	2457862144	40	4067
2026-01-18 14:38:58.68	245.14	68.33	-34.9	-35.7	23.4	0.00e+00	0	43	0	2468347904	40	3885
2026-01-18 14:38:59.32	245.97	68.38	-35.0	-35.8	23.2	0.00e+00	0	44	0	2473590784	40	3926
2026-01-18 14:39:00.75	247.83	68.48	-35.1	-35.9	23.2	0.00e+00	0	44	0	2484076544	40	3977
2026-01-18 14:39:01.46	248.77	68.53	-35.0	-35.8	23.2	0.00e+00	0	44	0	2488270848	40	3940
2026-01-18 14:39:02.74	250.46	68.59	-35.0	-35.8	23.2	0.00e+00	0	44	0	2497708032	40	3952
2026-01-18 14:39:03.48	251.44	68.62	-34.9	-35.7	23.3	0.00e+00	0	44	0	2502950912	40	3901
2026-01-18 14:39:04.75	253.13	68.66	-34.9	-35.7	23.4	0.00e+00	0	43	0	2512388096	40	3880
2026-01-18 14:39:05.48	254.10	68.67	-35.0	-35.8	23.3	0.00e+00	0	43	0	2517630976	40	3923
2026-01-18 14:39:06.76	255.81	68.68	-34.8	-35.6	23.2	0.00e+00	0	44	0	2527068160	40	3835
2026-01-18 14:39:07.49	256.79	68.68	-34.8	-35.6	23.4	0.00e+00	0	44	0	2532311040	40	3865
2026-01-18 14:39:08.77	258.49	68.67	-35.0	-35.8	23.2	0.00e+00	0	44	0	2541748224	40	3958
2026-01-18 14:39:09.49	259.45	68.65	-35.1	-35.9	23.1	0.00e+00	0	43	0	2546991104	40	3994
2026-01-18 14:39:10.77	261.15	68.61	-34.7	-35.5	23.5	0.00e+00	0	43	0	2556428288	40	3809
2026-01-18 14:39:11.50	262.12	68.57	-34.6	-35.4	23.6	0.00e+00	0	44	0	2561671168	40	3751
2026-01-18 14:39:12.78	263.81	68.50	-34.8	-35.6	23.4	0.00e+00	0	44	0	2570059776	40	3853
2026-01-18 14:39:13.49	264.73	68.46	-35.1	-35.9	23.1	0.00e+00	0	44	0	2575302656	40	3980
2026-01-18 14:39:14.77	266.40	68.36	-35.0	-35.8	23.2	0.00e+00	0	44	0	2584739840	40	3942
2026-01-18 14:39:15.49	267.33	68.30	-34.8	-35.6	23.5	0.00e+00	0	44	0	2589982720	40	3826
2026-01-18 14:39:16.77	268.96	68.18	-34.6	-35.4	23.5	0.00e+00	0	43	0	2599419904	40	3766
2026-01-18 14:39:17.50	269.88	68.10	-34.8	-35.6	23.4	0.00e+00	0	44	0	2604662784	39	4073
2026-01-18 14:39:18.78	271.49	67.95	-34.9	-35.7	23.2	0.00e+00	0	44	0	2614099968	39	4144
2026-01-18 14:39:19.50	272.38	67.86	-35.1	-35.9	23.2	0.00e+00	0	44	0	2619342848	39	4235
2026-01-18 14:39:20.78	273.94	67.69	-35.0	-35.8	23.2	0.00e+00	0	44	0	2627731456	40	3948
2026-01-18 14:39:21.50	274.81	67.59	-35.2	-36.0	23.1	0.00e+00	0	44	0	2634022912	40	4037
2026-01-18 14:39:22.78	276.33	67.40	-35.1	-36.0	23.0	0.00e+00	0	44	0	2642411520	40	4010
2026-01-18 14:39:23.49	277.16	67.29	-35.0	-35.8	23.3	0.00e+00	0	44	0	2647654400	40	3937
2026-01-18 14:39:24.77	278.63	67.07	-35.2	-36.0	23.0	0.00e+00	0	44	0	2657091584	40	4049
2026-01-18 14:39:25.49	279.45	66.95	-35.0	-35.8	23.2	0.00e+00	0	43	0	2662334464	40	3953
2026-01-18 14:39:26.76	280.86	66.71	-35.2	-36.0	23.1	0.00e+00	0	44	0	2671771648	40	4020
2026-01-18 14:39:27.60	281.78	66.55	-35.3	-36.2	22.9	0.00e+00	0	44	0	2678063104	40	4102
2026-01-18 14:39:28.74	283.01	66.33	-35.0	-35.8	23.2	0.00e+00	0	44	0	2685403136	40	3938
2026-01-18 14:39:29.80	284.12	66.11	-35.1	-35.9	23.0	0.00e+00	0	44	0	2693791744	40	4001
2026-01-18 14:39:30.85	285.21	65.89	-35.2	-36.0	23.0	0.00e+00	0	44	0	2701131776	40	4011
2026-01-18 14:39:31.86	286.23	65.67	-35.4	-36.3	22.8	0.00e+00	0	44	0	2708471808	40	4157
2026-01-18 14:39:32.99	287.35	65.41	-35.4	-36.3	22.8	0.00e+00	0	44	0	2715811840	40	4160
2026-01-18 14:39:33.84	288.17	65.22	-35.4	-36.2	22.9	0.00e+00	0	44	0	2722103296	40	4117
2026-01-18 14:39:34.98	289.25	64.95	-35.6	-36.4	22.7	0.00e+00	0	44	0	2730491904	40	4241
2026-01-18 14:39:35.83	290.04	64.74	-35.9	-36.7	22.4	0.00e+00	0	44	0	2736783360	41	4136
2026-01-18 14:39:36.96	291.07	64.46	-35.8	-36.7	22.3	0.00e+00	0	43	0	2745171968	41	4099
2026-01-18 14:39:37.82	291.84	64.25	-35.7	-36.5	22.6	0.00e+00	0	44	0	2751463424	41	4028
2026-01-18 14:39:38.95	292.82	63.96	-35.5	-36.4	22.8	0.00e+00	0	44	0	2759852032	41	3972
2026-01-18 14:39:39.81	293.56	63.74	-35.7	-36.5	22.5	0.00e+00	0	43	0	2766143488	41	4045
2026-01-18 14:39:40.95	294.51	63.44	-36.0	-36.8	22.3	0.00e+00	0	44	0	2773483520	41	4177
2026-01-18 14:39:41.80	295.20	63.21	-36.0	-36.9	22.2	0.00e+00	0	43	0	2779774976	41	4197
2026-01-18 14:39:42.93	296.10	62.90	-35.9	-36.7	22.4	0.00e+00	0	44	0	2788163584	41	4139
2026-01-18 14:39:43.79	296.77	62.67	-35.9	-36.7	22.4	0.00e+00	0	44	0	2794455040	41	4139
2026-01-18 14:39:44.92	297.63	62.35	-35.9	-36.7	22.4	0.00e+00	0	44	0	2802843648	41	4121
2026-01-18 14:39:45.78	298.27	62.11	-35.9	-36.8	22.4	0.00e+00	0	44	0	2808086528	41	4165
2026-01-18 14:39:46.91	299.10	61.79	-36.1	-36.9	22.2	0.00e+00	0	44	0	2816475136	41	4228
2026-01-18 14:39:47.77	299.71	61.54	-36.3	-37.1	22.1	0.00e+00	0	44	0	2822766592	41	4324
2026-01-18 14:39:48.90	300.49	61.22	-36.6	-37.5	21.7	0.00e+00	0	44	0	2831155200	42	4261
2026-01-18 14:39:49.76	301.08	60.97	-36.8	-37.6	21.6	0.00e+00	0	43	0	2837446656	43	4096
2026-01-18 14:39:51.08	301.95	60.58	-36.6	-37.5	21.6	0.00e+00	0	44	0	2846883840	43	4024
2026-01-18 14:39:51.79	302.41	60.37	-36.5	-37.3	21.9	0.00e+00	0	43	0	2852126720	43	3948
2026-01-18 14:39:53.07	303.22	59.99	-36.6	-37.5	21.7	0.00e+00	0	43	0	2861563904	43	4007
2026-01-18 14:39:53.78	303.66	59.78	-36.6	-37.4	21.8	0.00e+00	0	44	0	2866806784	43	3996
2026-01-18 14:39:55.06	304.44	59.40	-36.7	-37.6	21.5	0.00e+00	0	44	0	2875195392	43	4062
2026-01-18 14:39:55.79	304.87	59.18	-36.7	-37.6	21.6	0.00e+00	0	44	0	2880438272	43	4066
2026-01-18 14:39:57.07	305.61	58.79	-36.6	-37.5	21.7	0.00e+00	0	44	0	2889875456	43	4016
2026-01-18 14:39:57.79	306.01	58.57	-36.7	-37.5	21.7	0.00e+00	0	44	0	2895118336	43	4051
2026-01-18 14:39:59.07	306.72	58.18	-36.9	-37.8	21.4	0.00e+00	0	44	0	2904555520	43	4154
2026-01-18 14:40:00.01	307.22	57.90	-36.7	-37.7	21.6	0.00e+00	0	43	0	2911895552	43	4104
2026-01-18 14:40:01.01	307.75	57.59	-36.7	-37.6	21.6	0.00e+00	0	44	0	2918187008	43	4064
2026-01-18 14:40:02.00	308.26	57.29	-36.4	-37.3	22.0	0.00e+00	0	44	0	2925527040	43	3917
2026-01-18 14:40:03.00	308.76	56.98	-36.4	-37.3	21.9	0.00e+00	0	44	0	2932867072	43	3915
2026-01-18 14:40:03.99	309.25	56.68	-36.4	-37.2	21.9	0.00e+00	0	44	0	2940207104	43	3898
2026-01-18 14:40:04.99	309.73	56.37	-36.4	-37.2	21.9	0.00e+00	0	44	0	2947547136	43	3904
2026-01-18 14:40:05.99	310.20	56.06	-36.5	-37.3	21.8	0.00e+00	0	44	0	2954887168	43	3953
2026-01-18 14:40:06.98	310.66	55.76	-36.5	-37.3	21.9	0.00e+00	0	44	0	2961178624	43	3949
2026-01-18 14:40:07.98	311.11	55.45	-36.5	-37.4	21.8	0.00e+00	0	44	0	2968518656	43	3985
2026-01-18 14:40:08.97	311.55	55.14	-36.6	-37.4	21.7	0.00e+00	0	44	0	2975858688	43	3995
2026-01-18 14:40:09.97	311.98	54.84	-36.7	-37.6	20.4	0.00e+00	0	43	0	2983198720	43	4053
2026-01-18 14:40:10.96	312.40	54.53	-36.7	-37.6	21.5	0.00e+00	0	44	0	2990538752	43	4056
2026-01-18 14:40:11.96	312.81	54.23	-36.8	-37.7	21.5	0.00e+00	0	43	0	2997878784	43	4135
2026-01-18 14:40:12.95	313.21	53.92	-36.8	-37.7	21.5	0.00e+00	0	44	0	3005218816	43	4116
2026-01-18 14:40:13.95	313.61	53.62	-36.8	-37.7	21.5	0.00e+00	0	43	0	3012558848	43	4129
2026-01-18 14:40:14.94	313.99	53.31	-36.8	-37.7	21.5	0.00e+00	0	44	0	3018850304	43	4112
2026-01-18 14:40:15.94	314.37	53.01	-36.6	-37.5	21.7	0.00e+00	0	44	0	3026190336	43	4041
2026-01-18 14:40:16.93	314.74	52.71	-36.6	-37.5	21.7	0.00e+00	0	44	0	3033530368	43	4033
2026-01-18 14:40:17.93	315.11	52.40	-36.7	-37.6	21.7	0.00e+00	0	44	0	3040870400	43	4055
2026-01-18 14:40:18.92	315.46	52.10	-36.5	-37.4	21.7	0.00e+00	0	44	0	3048210432	43	3993
2026-01-18 14:40:19.92	315.82	51.80	-36.6	-37.5	21.7	0.00e+00	0	44	0	3055550464	43	4021
2026-01-18 14:40:20.91	316.16	51.50	-36.5	-37.4	21.7	0.00e+00	0	44	0	3061841920	43	4002
2026-01-18 14:40:21.94	316.50	51.20	-36.5	-37.4	21.6	0.00e+00	0	44	0	3069181952	43	3990
2026-01-18 14:40:22.98	316.85	50.88	-36.7	-37.6	21.6	0.00e+00	0	44	0	3077570560	43	4086
2026-01-18 14:40:23.94	317.16	50.60	-36.8	-37.8	21.5	0.00e+00	0	44	0	3083862016	43	4149
2026-01-18 14:40:24.94	317.48	50.30	-36.9	-37.8	21.4	0.00e+00	0	44	0	3091202048	43	4161
2026-01-18 14:40:25.93	317.79	50.01	-36.9	-37.7	21.4	0.00e+00	0	44	0	3098542080	43	4144
2026-01-18 14:40:26.93	318.09	49.71	-36.6	-37.5	21.6	0.00e+00	0	44	0	3105882112	43	4030
2026-01-18 14:40:27.92	318.39	49.42	-36.5	-37.4	21.8	0.00e+00	0	43	0	3113222144	43	3978
2026-01-18 14:40:28.92	318.68	49.13	-36.3	-37.1	21.4	0.00e+00	0	44	0	3120562176	43	3853
2026-01-18 14:40:29.91	318.97	48.84	-36.2	-37.1	22.0	0.00e+00	0	44	0	3126853632	43	3828
2026-01-18 14:40:30.90	319.25	48.55	-36.4	-37.2	22.0	0.00e+00	0	44	0	3134193664	43	3897
2026-01-18 14:40:31.90	319.53	48.26	-36.2	-37.1	22.1	0.00e+00	0	44	0	3141533696	43	3830
2026-01-18 14:40:32.90	319.80	47.97	-36.3	-37.2	22.0	0.00e+00	0	44	0	3148873728	43	3882
2026-01-18 14:40:33.89	320.07	47.69	-36.3	-37.2	22.0	0.00e+00	0	44	0	3156213760	43	3873
2026-01-18 14:40:34.88	320.33	47.41	-36.2	-37.1	22.0	0.00e+00	0	43	0	3162505216	43	3843
2026-01-18 14:40:35.88	320.59	47.12	-36.2	-37.0	22.1	0.00e+00	0	44	0	3169845248	43	3816
2026-01-18 14:40:36.87	320.84	46.84	-36.0	-36.9	22.3	0.00e+00	0	44	0	3177185280	42	3959
2026-01-18 14:40:37.87	321.09	46.56	-35.9	-36.8	22.3	0.00e+00	0	44	0	3184525312	42	3923
2026-01-18 14:40:38.89	321.34	46.27	-35.6	-36.4	22.7	0.00e+00	0	44	0	3191865344	42	3752
2026-01-18 14:40:39.89	321.58	45.99	-35.5	-36.3	22.8	0.00e+00	0	44	0	3199205376	41	3938
2026-01-18 14:40:40.95	321.83	45.70	-35.5	-36.3	22.7	0.00e+00	0	43	0	3206545408	41	3957
2026-01-18 14:40:41.88	322.05	45.44	-35.4	-36.2	22.8	0.00e+00	0	44	0	3213885440	41	3908
2026-01-18 14:40:43.00	322.31	45.14	-35.3	-36.1	22.9	0.00e+00	0	44	0	3222274048	41	3844
2026-01-18 14:40:43.85	322.50	44.90	-35.3	-36.2	22.9	0.00e+00	0	44	0	3227516928	41	3878
2026-01-18 14:40:44.99	322.75	44.59	-35.2	-36.0	23.0	0.00e+00	0	44	0	3235905536	41	3806
2026-01-18 14:40:45.84	322.94	44.36	-35.3	-36.1	22.9	0.00e+00	0	44	0	3242196992	41	3861
2026-01-18 14:40:46.98	323.18	44.06	-35.4	-36.3	22.7	0.00e+00	0	44	0	3250585600	41	3936
2026-01-18 14:40:47.83	323.36	43.83	-35.4	-36.3	22.8	0.00e+00	0	44	0	3256877056	41	3919
2026-01-18 14:40:48.97	323.60	43.53	-35.5	-36.4	22.7	0.00e+00	0	44	0	3265265664	41	3979
2026-01-18 14:40:49.82	323.77	43.30	-35.5	-36.4	21.9	0.00e+00	0	44	0	3270508544	41	3973
2026-01-18 14:40:50.96	324.00	43.00	-35.5	-36.4	22.7	0.00e+00	0	44	0	3278897152	41	3964
2026-01-18 14:40:51.81	324.17	42.78	-35.4	-36.2	22.8	0.00e+00	0	44	0	3285188608	41	3913
2026-01-18 14:40:52.94	324.39	42.48	-35.2	-36.0	23.0	0.00e+00	0	44	0	3293577216	41	3814
2026-01-18 14:40:53.80	324.55	42.26	-35.1	-36.0	23.1	0.00e+00	0	44	0	3299868672	41	3793
2026-01-18 14:40:54.98	324.77	41.96	-35.2	-36.0	23.0	0.00e+00	0	44	0	3308257280	41	3824
2026-01-18 14:40:55.83	324.93	41.74	-35.2	-36.0	22.8	0.00e+00	0	44	0	3314548736	40	4026
2026-01-18 14:40:56.97	325.14	41.45	-35.2	-36.0	23.0	0.00e+00	0	44	0	3322937344	40	4039
2026-01-18 14:40:57.83	325.29	41.23	-35.2	-36.0	23.0	0.00e+00	0	44	0	3328180224	40	4020
2026-01-18 14:40:59.10	325.52	40.91	-35.1	-35.9	23.2	0.00e+00	0	44	0	3337617408	40	3966
2026-01-18 14:40:59.83	325.64	40.73	-35.1	-36.0	23.0	0.00e+00	0	44	0	3342860288	40	4005
2026-01-18 14:41:01.11	325.86	40.41	-35.1	-35.9	22.5	0.00e+00	0	44	0	3352297472	40	3982
2026-01-18 14:41:01.82	325.98	40.24	-35.0	-35.8	23.2	0.00e+00	0	44	0	3357540352	40	3951
2026-01-18 14:41:03.10	326.20	39.92	-35.0	-35.8	23.0	0.00e+00	0	44	0	3366977536	40	3926
2026-01-18 14:41:03.82	326.32	39.75	-35.0	-35.8	23.0	0.00e+00	0	44	0	3372220416	40	3947
2026-01-18 14:41:05.10	326.52	39.44	-34.7	-35.6	23.4	0.00e+00	0	44	0	3381657600	40	3838
2026-01-18 14:41:05.89	326.65	39.24	-34.7	-35.5	23.4	0.00e+00	0	44	0	3386900480	40	3812
2026-01-18 14:41:07.07	326.83	38.96	-34.8	-35.7	23.3	0.00e+00	0	44	0	3395289088	40	3877
2026-01-18 14:41:07.92	326.97	38.76	-34.8	-35.6	23.3	0.00e+00	0	44	0	3401580544	40	3866
2026-01-18 14:41:09.06	327.14	38.49	-34.8	-35.6	23.2	0.00e+00	0	44	0	3409969152	40	3867
2026-01-18 14:41:09.91	327.27	38.29	-35.0	-35.9	23.1	0.00e+00	0	44	0	3416260608	40	3966
2026-01-18 14:41:11.05	327.44	38.02	-35.1	-36.0	22.9	0.00e+00	0	44	0	3424649216	40	4006
2026-01-18 14:41:11.90	327.56	37.82	-35.2	-36.0	23.0	0.00e+00	0	44	0	3430940672	40	4046
2026-01-18 14:41:13.03	327.72	37.56	-35.3	-36.1	22.9	0.00e+00	0	44	0	3438280704	40	4082
2026-01-18 14:41:13.88	327.85	37.37	-35.4	-36.2	22.8	0.00e+00	0	44	0	3444572160	40	4127
2026-01-18 14:41:15.02	328.01	37.11	-35.4	-36.2	22.8	0.00e+00	0	44	0	3452960768	40	4137
2026-01-18 14:41:15.87	328.12	36.91	-35.3	-36.2	22.8	0.00e+00	0	44	0	3459252224	40	4121
2026-01-18 14:41:17.09	328.29	36.64	-35.3	-36.2	22.8	0.00e+00	0	44	0	3467640832	40	4100
2026-01-18 14:41:17.94	328.41	36.45	-35.2	-36.1	23.0	0.00e+00	0	44	0	3473932288	40	4054
2026-01-18 14:41:19.14	328.57	36.18	-35.0	-35.8	23.1	0.00e+00	0	44	0	3482320896	40	3949
2026-01-18 14:41:19.99	328.68	35.99	-35.0	-35.8	23.2	0.00e+00	0	44	0	3488612352	40	3952
2026-01-18 14:41:21.13	328.82	35.74	-34.8	-35.7	23.3	0.00e+00	0	44	0	3497000960	40	3887
2026-01-18 14:41:21.98	328.93	35.56	-34.7	-35.5	23.3	0.00e+00	0	44	0	3503292416	40	3810
2026-01-18 14:41:23.12	329.08	35.31	-34.6	-35.4	23.6	0.00e+00	0	44	0	3511681024	39	3976
2026-01-18 14:41:24.02	329.19	35.12	-34.6	-35.5	23.5	0.00e+00	0	44	0	3517972480	39	4007
2026-01-18 14:41:25.11	329.32	34.88	-34.6	-35.4	23.6	0.00e+00	0	44	0	3525312512	39	3969
2026-01-18 14:41:25.96	329.43	34.70	-34.5	-35.3	23.6	0.00e+00	0	44	0	3531603968	39	3937
2026-01-18 14:41:27.10	329.56	34.46	-34.6	-35.4	23.6	0.00e+00	0	44	0	3539992576	39	3978
2026-01-18 14:41:27.95	329.66	34.28	-34.6	-35.4	23.5	0.00e+00	0	44	0	3546284032	39	3985
2026-01-18 14:41:29.09	329.80	34.04	-34.8	-35.6	23.4	0.00e+00	0	44	0	3554672640	39	4065
2026-01-18 14:41:29.94	329.90	33.86	-34.8	-35.6	23.3	0.00e+00	0	44	0	3560964096	39	4097
2026-01-18 14:41:31.08	330.03	33.63	-34.8	-35.6	23.3	0.00e+00	0	44	0	3568304128	39	4080
2026-01-18 14:41:31.93	330.12	33.45	-34.8	-35.7	23.2	0.00e+00	0	44	0	3574595584	39	4107
2026-01-18 14:41:33.07	330.25	33.22	-34.8	-35.6	23.3	0.00e+00	0	44	0	3582984192	39	4074
2026-01-18 14:41:33.92	330.34	33.05	-34.8	-35.7	23.3	0.00e+00	0	44	0	3589275648	39	4106
2026-01-18 14:41:35.08	330.47	32.81	-34.8	-35.6	23.3	0.00e+00	0	44	0	3597664256	39	4088
2026-01-18 14:41:35.94	330.56	32.64	-34.8	-35.6	23.3	0.00e+00	0	44	0	3603955712	39	4087
2026-01-18 14:41:37.07	330.68	32.42	-34.9	-35.8	23.2	0.00e+00	0	44	0	3612344320	39	4151
2026-01-18 14:41:37.93	330.77	32.25	-34.8	-35.7	23.3	0.00e+00	0	44	0	3618635776	39	4111
2026-01-18 14:41:39.06	330.89	32.02	-34.8	-35.6	23.3	0.00e+00	0	44	0	3625975808	39	4088
2026-01-18 14:41:39.91	330.98	31.86	-34.8	-35.6	23.4	0.00e+00	0	44	0	3632267264	39	4073
2026-01-18 14:41:41.05	331.09	31.64	-34.8	-35.7	23.3	0.00e+00	0	44	0	3640655872	39	4108
2026-01-18 14:41:41.90	331.18	31.47	-34.9	-35.7	23.2	0.00e+00	0	44	0	3646947328	39	4126
2026-01-18 14:41:43.03	331.29	31.25	-34.9	-35.8	23.1	0.00e+00	0	44	0	3655335936	39	4149
2026-01-18 14:41:43.89	331.37	31.09	-34.9	-35.8	23.2	0.00e+00	0	44	0	3660578816	39	4150
2026-01-18 14:41:45.02	331.48	30.88	-35.0	-35.8	23.1	0.00e+00	0	44	0	3668967424	39	4179
2026-01-18 14:41:45.88	331.57	30.71	-35.0	-35.9	23.1	0.00e+00	0	44	0	3675258880	39	4212
2026-01-18 14:41:47.01	331.67	30.50	-35.2	-36.1	23.0	0.00e+00	0	44	0	3683647488	39	4296
2026-01-18 14:41:47.87	331.75	30.34	-35.0	-35.9	23.1	0.00e+00	0	44	0	3689938944	39	4194
2026-01-18 14:41:49.00	331.86	30.13	-35.0	-35.9	23.1	0.00e+00	0	44	0	3698327552	39	4216
2026-01-18 14:41:49.85	331.94	29.98	-35.2	-36.0	23.0	0.00e+00	0	44	0	3704619008	39	4279
2026-01-18 14:41:50.99	332.04	29.77	-35.2	-36.1	22.9	0.00e+00	0	44	0	3713007616	39	4296
2026-01-18 14:41:51.84	332.12	29.61	-35.2	-36.0	22.8	0.00e+00	0	44	0	3719299072	39	4266
2026-01-18 14:41:52.98	332.22	29.41	-35.2	-36.0	22.7	0.00e+00	0	44	0	3726639104	40	4045
2026-01-18 14:41:53.83	332.29	29.25	-35.2	-36.0	22.4	0.00e+00	0	44	0	3732930560	40	4049
2026-01-18 14:41:54.97	332.39	29.05	-35.2	-36.1	22.9	0.00e+00	0	44	0	3741319168	40	4063
2026-01-18 14:41:55.82	332.46	28.90	-35.3	-36.1	22.7	0.00e+00	0	44	0	3747610624	40	4096
2026-01-18 14:41:56.95	332.56	28.70	-35.5	-36.4	22.6	0.00e+00	0	44	0	3755999232	40	4202
2026-01-18 14:41:57.81	332.63	28.55	-35.4	-36.3	22.6	0.00e+00	0	44	0	3762290688	40	4182
2026-01-18 14:41:58.95	332.73	28.35	-35.3	-36.2	22.8	0.00e+00	0	44	0	3769630720	40	4116
2026-01-18 14:41:59.80	332.80	28.20	-35.3	-36.2	22.8	0.00e+00	0	44	0	3775922176	40	4139
2026-01-18 14:42:00.95	332.89	28.00	-35.4	-36.3	22.6	0.00e+00	0	44	0	3784310784	40	4172
2026-01-18 14:42:01.80	332.96	27.86	-35.4	-36.3	22.6	0.00e+00	0	44	0	3790602240	40	4184
2026-01-18 14:42:02.94	333.05	27.66	-35.4	-36.3	22.6	0.00e+00	0	44	0	3798990848	40	4191
2026-01-18 14:42:03.79	333.12	27.52	-35.5	-36.4	22.5	0.00e+00	0	44	0	3805282304	40	4231
2026-01-18 14:42:04.93	333.21	27.33	-35.5	-36.4	22.5	0.00e+00	0	44	0	3812622336	40	4225
2026-01-18 14:42:05.78	333.28	27.19	-35.5	-36.4	22.6	0.00e+00	0	44	0	3818913792	40	4218
2026-01-18 14:42:06.92	333.36	27.00	-35.4	-36.3	22.7	0.00e+00	0	44	0	3827302400	40	4163
2026-01-18 14:42:07.77	333.43	26.85	-35.4	-36.3	22.7	0.00e+00	0	44	0	3833593856	40	4154
2026-01-18 14:42:08.91	333.51	26.67	-35.3	-36.2	22.8	0.00e+00	0	44	0	3841982464	40	4106
2026-01-18 14:42:09.76	333.58	26.53	-35.4	-36.2	22.7	0.00e+00	0	44	0	3848273920	40	4144
2026-01-18 14:42:10.90	333.66	26.34	-35.1	-35.9	23.0	0.00e+00	0	44	0	3856662528	40	3996
2026-01-18 14:42:11.75	333.73	26.21	-35.2	-36.0	22.9	0.00e+00	0	44	0	3862953984	40	4051
2026-01-18 14:42:12.89	333.81	26.02	-35.2	-36.1	22.7	0.00e+00	0	44	0	3870294016	40	4058
2026-01-18 14:42:13.74	333.87	25.89	-35.1	-35.9	23.0	0.00e+00	0	44	0	3876585472	40	3993
2026-01-18 14:42:14.91	333.95	25.70	-35.3	-36.1	22.8	0.00e+00	0	44	0	3884974080	40	4091
2026-01-18 14:42:15.76	334.01	25.57	-35.3	-36.1	22.8	0.00e+00	0	44	0	3891265536	40	4083
2026-01-18 14:42:16.90	334.09	25.39	-35.3	-36.2	22.8	0.00e+00	0	44	0	3899654144	40	4110
2026-01-18 14:42:17.75	334.15	25.25	-35.4	-36.2	22.7	0.00e+00	0	44	0	3905945600	40	4140
2026-01-18 14:42:19.03	334.24	25.06	-35.2	-36.1	22.8	0.00e+00	0	44	0	3914334208	40	4066
2026-01-18 14:42:19.75	334.29	24.94	-35.2	-36.1	22.8	0.00e+00	0	44	0	3920625664	40	4064
2026-01-18 14:42:21.25	334.39	24.71	-35.3	-36.2	22.7	0.00e+00	0	44	0	3931111424	40	4113
2026-01-18 14:42:21.96	334.44	24.61	-35.4	-36.3	22.6	0.00e+00	0	44	0	3936354304	40	4164
2026-01-18 14:42:23.27	334.52	24.41	-35.5	-36.3	22.6	0.00e+00	0	44	0	3945791488	40	4185
2026-01-18 14:42:23.99	334.57	24.30	-35.4	-36.3	22.5	0.00e+00	0	44	0	3951034368	40	4178
2026-01-18 14:42:25.26	334.65	24.11	-35.5	-36.4	22.5	0.00e+00	0	43	0	3959422976	40	4208
2026-01-18 14:42:26.29	334.72	23.95	-35.4	-36.3	22.6	0.00e+00	0	44	0	3967811584	40	4147
2026-01-18 14:42:27.28	334.78	23.81	-35.4	-36.3	22.6	0.00e+00	0	44	0	3974103040	40	4186
2026-01-18 14:42:28.28	334.84	23.66	-35.5	-36.4	22.5	0.00e+00	0	44	0	3981443072	40	4215
2026-01-18 14:42:29.27	334.91	23.51	-35.6	-36.5	22.4	0.00e+00	0	44	0	3988783104	40	4279
2026-01-18 14:42:30.27	334.97	23.37	-35.7	-36.6	22.4	0.00e+00	0	44	0	3996123136	40	4293
2026-01-18 14:42:31.26	335.03	23.23	-35.7	-36.6	22.4	0.00e+00	0	44	0	4003463168	40	4299
2026-01-18 14:42:32.25	335.09	23.08	-35.6	-36.4	22.5	0.00e+00	0	44	0	4010803200	40	4230
2026-01-18 14:42:33.25	335.15	22.94	-35.6	-36.5	22.5	0.00e+00	0	43	0	4018143232	40	4244
2026-01-18 14:42:34.26	335.21	22.80	-35.6	-36.5	22.5	0.00e+00	0	44	0	4024434688	40	4252
2026-01-18 14:42:35.28	335.27	22.65	-35.5	-36.4	22.5	0.00e+00	0	44	0	4031774720	40	4224
2026-01-18 14:42:36.28	335.33	22.51	-35.6	-36.4	22.5	0.00e+00	0	44	0	4039114752	40	4236
2026-01-18 14:42:37.33	335.39	22.36	-35.6	-36.5	22.5	0.00e+00	0	44	0	4046454784	40	4247
2026-01-18 14:42:38.28	335.45	22.23	-35.6	-36.5	22.4	0.00e+00	0	43	0	4053794816	40	4253
2026-01-18 14:42:39.40	335.51	22.07	-35.5	-36.4	22.5	0.00e+00	0	43	0	4062183424	40	4218
2026-01-18 14:42:40.25	335.56	21.96	-35.4	-36.3	22.6	0.00e+00	0	44	0	4068474880	40	4177
2026-01-18 14:42:41.63	335.64	21.77	-35.5	-36.4	22.5	0.00e+00	0	44	0	4077912064	40	4215
2026-01-18 14:42:42.34	335.68	21.67	-35.5	-36.4	22.6	0.00e+00	0	44	0	4083154944	40	4201
2026-01-18 14:42:43.85	335.76	21.46	-35.4	-36.3	22.6	0.00e+00	0	44	0	4094689280	40	4164
2026-01-18 14:42:44.56	335.80	21.37	-35.5	-36.4	22.5	0.00e+00	0	44	0	4098883584	40	4204
2026-01-18 14:42:45.84	335.87	21.20	-35.5	-36.4	22.5	0.00e+00	0	44	0	4108320768	40	4226
2026-01-18 14:42:46.55	335.91	21.10	-35.6	-36.5	22.4	0.00e+00	0	44	0	4113563648	40	4264
2026-01-18 14:42:47.83	335.98	20.93	-35.5	-36.4	22.5	0.00e+00	0	44	0	4123000832	40	4219
2026-01-18 14:42:48.57	336.01	20.83	-35.6	-36.5	22.4	0.00e+00	0	44	0	4128243712	40	4259
2026-01-18 14:42:49.85	336.08	20.67	-35.7	-36.6	22.3	0.00e+00	0	44	0	4137680896	40	4308
2026-01-18 14:42:50.56	336.12	20.57	-35.8	-36.7	22.3	0.00e+00	0	44	0	4142923776	40	4345
2026-01-18 14:42:51.84	336.19	20.41	-35.7	-36.6	22.3	0.00e+00	0	44	0	4151312384	41	4076
2026-01-18 14:42:52.58	336.22	20.31	-35.6	-36.5	22.5	0.00e+00	0	44	0	4156555264	41	4014
2026-01-18 14:42:53.85	336.29	20.15	-35.7	-36.6	22.3	0.00e+00	0	44	0	4165992448	41	4083
2026-01-18 14:42:54.67	336.33	20.04	-35.8	-36.7	22.2	0.00e+00	0	44	0	4172283904	41	4139
2026-01-18 14:42:56.11	336.40	19.86	-35.8	-36.7	22.3	0.00e+00	0	44	0	4182769664	41	4109
2026-01-18 14:42:56.82	336.44	19.77	-35.9	-36.8	22.1	0.00e+00	0	44	0	4188012544	41	4163
2026-01-18 14:42:58.10	336.50	19.61	-35.9	-36.8	22.0	0.00e+00	0	44	0	4197449728	41	4163
2026-01-18 14:42:58.81	336.54	19.52	-35.9	-36.9	22.1	0.00e+00	0	44	0	4201644032	41	4209
2026-01-18 14:43:00.09	336.60	19.36	-36.0	-37.0	22.0	0.00e+00	0	44	0	4211081216	41	4261
2026-01-18 14:43:00.84	336.64	19.26	-36.1	-37.0	21.9	0.00e+00	0	44	0	4217372672	41	4285
2026-01-18 14:43:02.12	336.70	19.10	-36.1	-37.0	21.9	0.00e+00	0	44	0	4225761280	41	4285
2026-01-18 14:43:02.83	336.73	19.02	-36.1	-37.0	22.0	0.00e+00	0	44	0	4231004160	41	4281
2026-01-18 14:43:04.11	336.79	18.86	-36.3	-37.2	21.8	0.00e+00	0	44	0	4240441344	42	4142
2026-01-18 14:43:04.84	336.83	18.77	-36.4	-37.3	21.7	0.00e+00	0	44	0	4245684224	42	4188
2026-01-18 14:43:06.11	336.88	18.62	-36.4	-37.3	21.7	0.00e+00	0	44	0	4255121408	42	4167
2026-01-18 14:43:07.00	336.93	18.51	-36.5	-37.4	21.6	0.00e+00	0	44	0	4261412864	42	4216
2026-01-18 14:43:08.14	336.98	18.37	-36.4	-37.4	21.7	0.00e+00	0	44	0	4268752896	42	4195
2026-01-18 14:43:08.99	337.02	18.27	-36.4	-37.3	21.7	0.00e+00	0	44	0	4276092928	42	4180
2026-01-18 14:43:10.12	337.07	18.14	-36.5	-37.4	21.6	0.00e+00	0	44	0	4283432960	42	4225
2026-01-18 14:43:10.98	337.11	18.03	-36.5	-37.4	21.5	0.00e+00	0	44	0	4289724416	42	4236
2026-01-18 14:43:12.11	337.16	17.90	-36.5	-37.4	21.6	0.00e+00	0	44	0	4298113024	42	4208
2026-01-18 14:43:13.42	337.22	17.75	-36.5	-37.5	21.5	0.00e+00	0	44	0	4307550208	42	4251
2026-01-18 14:43:14.13	337.25	17.66	-36.5	-37.4	21.5	0.00e+00	0	44	0	4312793088	42	4233
2026-01-18 14:43:15.42	337.30	17.51	-36.4	-37.3	21.6	0.00e+00	0	44	0	4322230272	42	4167
2026-01-18 14:43:16.14	337.33	17.43	-36.6	-37.6	21.4	0.00e+00	0	44	0	4327473152	42	4302
2026-01-18 14:43:17.45	337.39	17.28	-36.7	-37.6	21.4	0.00e+00	0	44	0	4336910336	42	4330
2026-01-18 14:43:18.16	337.42	17.20	-36.5	-37.5	21.5	0.00e+00	0	44	0	4342153216	42	4244
2026-01-18 14:43:19.52	337.48	17.04	-36.5	-37.4	21.5	0.00e+00	0	44	0	4351590400	42	4239
2026-01-18 14:43:20.23	337.51	16.96	-36.8	-37.7	21.3	0.00e+00	0	44	0	4356833280	43	4116
2026-01-18 14:43:21.59	337.57	16.81	-36.5	-37.4	21.5	0.00e+00	0	44	0	4366270464	43	4002
2026-01-18 14:43:22.30	337.59	16.73	-36.6	-37.6	21.4	0.00e+00	0	44	0	4371513344	43	4056
2026-01-18 14:43:23.64	337.65	16.58	-36.5	-37.4	21.6	0.00e+00	0	44	0	4381999104	43	3970
2026-01-18 14:43:24.35	337.68	16.50	-36.6	-37.5	21.4	0.00e+00	0	44	0	4386193408	43	4044
2026-01-18 14:43:25.68	337.73	16.35	-36.7	-37.6	21.4	0.00e+00	0	44	0	4395630592	43	4061
2026-01-18 14:43:26.39	337.76	16.28	-36.8	-37.7	21.3	0.00e+00	0	44	0	4400873472	43	4100
2026-01-18 14:43:27.75	337.82	16.13	-36.7	-37.6	21.4	0.00e+00	0	44	0	4411359232	43	4080
2026-01-18 14:43:28.46	337.85	16.05	-36.9	-37.8	21.2	0.00e+00	0	44	0	4416602112	43	4156
2026-01-18 14:43:29.74	337.90	15.91	-36.9	-37.8	21.2	0.00e+00	0	44	0	4424990720	43	4176
2026-01-18 14:43:30.46	337.92	15.83	-36.8	-37.7	21.2	0.00e+00	0	44	0	4430233600	43	4139
2026-01-18 14:43:31.74	337.97	15.69	-36.8	-37.7	21.2	0.00e+00	0	44	0	4439670784	43	4138
2026-01-18 14:43:32.47	338.00	15.61	-36.8	-37.7	21.2	0.00e+00	0	44	0	4444913664	43	4133
2026-01-18 14:43:33.75	338.05	15.48	-36.7	-37.7	21.3	0.00e+00	0	44	0	4454350848	43	4109
2026-01-18 14:43:34.48	338.08	15.40	-36.8	-37.8	21.1	0.00e+00	0	44	0	4459593728	43	4178
2026-01-18 14:43:35.76	338.13	15.26	-37.0	-38.0	21.0	0.00e+00	0	44	0	4469030912	43	4243
2026-01-18 14:43:36.48	338.16	15.19	-37.0	-38.0	21.0	0.00e+00	0	44	0	4474273792	43	4255
2026-01-18 14:43:37.76	338.20	15.05	-37.1	-38.1	20.8	0.00e+00	0	44	0	4483710976	43	4315
2026-01-18 14:43:38.49	338.23	14.98	-36.9	-37.9	21.0	0.00e+00	0	44	0	4487905280	43	4236
2026-01-18 14:43:39.76	338.28	14.84	-37.1	-38.1	20.8	0.00e+00	0	44	0	4497342464	43	4339
2026-01-18 14:43:40.49	338.31	14.77	-37.1	-38.1	20.8	0.00e+00	0	44	0	4503633920	43	4330
2026-01-18 14:43:41.77	338.35	14.64	-37.1	-38.1	20.9	0.00e+00	0	44	0	4512022528	43	4298
2026-01-18 14:43:42.54	338.38	14.56	-37.2	-38.2	20.9	0.00e+00	0	44	0	4518313984	44	4114
2026-01-18 14:43:43.82	338.43	14.43	-37.3	-38.4	20.7	0.00e+00	0	44	0	4526702592	44	4200
2026-01-18 14:43:44.56	338.45	14.35	-37.4	-38.4	20.7	0.00e+00	0	44	0	4531945472	44	4237
2026-01-18 14:43:45.84	338.50	14.22	-37.3	-38.3	20.8	0.00e+00	0	43	0	4541382656	44	4173
2026-01-18 14:43:46.61	338.53	14.14	-37.5	-38.6	20.6	0.00e+00	0	44	0	4547674112	44	4305
2026-01-18 14:43:48.29	338.59	13.97	-37.5	-38.6	20.6	0.00e+00	0	44	0	4559208448	44	4296
2026-01-18 14:43:48.85	338.61	13.92	-37.6	-38.7	20.4	0.00e+00	0	44	0	4563402752	44	4348
2026-01-18 14:43:50.56	338.67	13.75	-37.5	-38.6	20.5	0.00e+00	0	44	0	4575985664	44	4320
2026-01-18 14:43:51.13	338.69	13.69	-37.6	-38.6	20.5	0.00e+00	0	44	0	4579131392	44	4337
2026-01-18 14:43:52.84	338.75	13.52	-37.6	-38.7	20.4	0.00e+00	0	44	0	4591714304	45	4111
2026-01-18 14:43:53.40	338.76	13.46	-37.5	-38.6	20.5	0.00e+00	0	44	0	4595908608	45	4072
2026-01-18 14:43:55.11	338.82	13.30	-37.8	-39.0	20.2	0.00e+00	0	44	0	4608491520	45	4251
2026-01-18 14:43:55.68	338.84	13.24	-37.6	-38.6	20.4	0.00e+00	0	44	0	4612685824	45	4097
2026-01-18 14:43:57.48	338.90	13.07	-37.6	-38.7	20.4	0.00e+00	0	44	0	4625268736	45	4104
2026-01-18 14:43:58.05	338.92	13.01	-37.6	-38.7	20.4	0.00e+00	0	44	0	4629463040	45	4120
2026-01-18 14:43:59.75	338.98	12.85	-37.7	-38.8	20.3	0.00e+00	0	44	0	4642045952	45	4169
2026-01-18 14:44:00.39	339.00	12.79	-37.8	-38.9	20.2	0.00e+00	0	44	0	4647288832	45	4208
2026-01-18 14:44:01.82	339.05	12.65	-37.7	-38.8	20.3	0.00e+00	0	44	0	4656726016	45	4162
2026-01-18 14:44:02.57	339.07	12.58	-37.8	-38.9	20.2	0.00e+00	0	44	0	4661968896	45	4194
2026-01-18 14:44:03.85	339.11	12.46	-37.9	-39.0	20.1	0.00e+00	0	44	0	4671406080	45	4248
2026-01-18 14:44:04.61	339.14	12.39	-37.9	-38.9	20.1	0.00e+00	0	44	0	4676648960	45	4229
2026-01-18 14:44:05.89	339.18	12.27	-38.0	-39.0	20.1	0.00e+00	0	44	0	4686086144	45	4265
2026-01-18 14:44:06.60	339.20	12.20	-37.8	-38.8	20.2	0.00e+00	0	44	0	4691329024	45	4191
2026-01-18 14:44:08.24	339.25	12.05	-38.2	-39.2	19.8	0.00e+00	0	44	0	4703911936	45	4387
