passes_logs/2026/01/18/T1/T1__20260118_015958_SUOMI_NPP_rec.log

#Pass ID: 20260118_015958_SUOMI NPP
#Satellite: SUOMI NPP
#Configuration: NPP
#almurnet v.1.7.20251203
#Start time: 2026-01-18 01:59:59

#Version: 2.0.20230620
#Station: T1
#Location: 37.570604 lon 55.790049 lat
#TLE: 1 37849U 11061A   26017.28905266  .00000074  00000+0  55894-4 0  9999
#TLE: 2 37849  98.7814 319.3179 0002408  59.7048 300.4366 14.19525847737038

#Time	Az	El	Level	Level2	SNR	BER	BlckErr	Temp	State	Recorded	gain1	gain2
2026-01-18 01:59:59.94	3.25	5.06	-49.3	-65.4	3.8	1.49e+00	0	37	0	0	70	22695
2026-01-18 02:00:00.93	3.15	5.12	-44.5	-65.2	3.8	1.49e+00	0	37	104	0	60	39204
2026-01-18 02:00:01.92	3.05	5.17	-44.5	-65.2	3.8	1.49e+00	0	37	104	0	60	39241
2026-01-18 02:00:02.92	2.94	5.22	-44.5	-65.2	3.8	1.49e+00	0	37	104	0	60	39175
2026-01-18 02:00:03.91	2.84	5.27	-44.5	-65.2	3.8	1.49e+00	0	37	104	0	60	39186
2026-01-18 02:00:04.91	2.73	5.32	-44.5	-65.2	3.8	1.49e+00	0	37	104	0	60	39265
2026-01-18 02:00:05.91	2.63	5.38	-44.5	-65.2	3.8	1.49e+00	0	37	104	0	60	39189
2026-01-18 02:00:06.91	2.52	5.43	-44.5	-65.2	3.8	1.49e+00	0	37	104	0	60	39255
2026-01-18 02:00:07.91	2.42	5.48	-44.5	-65.2	3.8	1.49e+00	0	37	104	0	60	39201
2026-01-18 02:00:08.90	2.31	5.53	-44.5	-65.2	3.8	1.49e+00	0	38	104	0	60	39212
2026-01-18 02:00:09.90	2.21	5.58	-44.5	-65.2	3.8	1.49e+00	0	37	104	0	60	39223
2026-01-18 02:00:10.90	2.10	5.64	-44.5	-65.2	3.8	1.49e+00	0	37	104	0	60	39209
2026-01-18 02:00:11.90	1.99	5.69	-44.5	-65.2	3.8	1.49e+00	0	37	104	0	60	39220
2026-01-18 02:00:12.90	1.88	5.74	-44.5	-65.2	3.8	1.49e+00	0	38	104	0	60	39170
2026-01-18 02:00:13.90	1.77	5.79	-44.5	-65.2	3.8	1.49e+00	0	38	104	0	60	39147
2026-01-18 02:00:14.90	1.66	5.84	-44.5	-65.1	3.8	1.49e+00	0	38	104	0	60	39068
2026-01-18 02:00:15.90	1.55	5.90	-44.5	-65.2	3.8	1.49e+00	0	38	104	0	60	39185
2026-01-18 02:00:16.89	1.45	5.95	-44.5	-65.2	3.8	1.49e+00	0	38	104	0	60	39252
2026-01-18 02:00:17.89	1.34	6.00	-44.5	-65.2	3.8	1.49e+00	0	38	104	0	60	39218
2026-01-18 02:00:18.88	1.23	6.05	-44.5	-65.2	3.8	1.49e+00	0	38	104	0	60	39329
2026-01-18 02:00:19.88	1.12	6.10	-44.5	-65.2	3.8	1.49e+00	0	38	104	0	60	39201
2026-01-18 02:00:20.88	1.00	6.16	-44.5	-65.1	3.8	1.49e+00	0	38	104	0	60	39091
2026-01-18 02:00:21.87	0.89	6.21	-44.5	-65.2	3.8	1.49e+00	0	38	104	0	60	39210
2026-01-18 02:00:22.87	0.78	6.26	-44.5	-65.2	3.8	1.49e+00	0	38	104	0	60	39139
2026-01-18 02:00:23.87	0.67	6.31	-44.5	-65.2	3.8	1.49e+00	0	38	104	0	60	39202
2026-01-18 02:00:24.87	0.56	6.37	-44.5	-65.1	3.8	1.49e+00	0	38	104	0	60	39118
2026-01-18 02:00:25.87	0.44	6.42	-44.5	-65.2	3.8	1.49e+00	0	38	104	0	60	39147
2026-01-18 02:00:26.87	0.33	6.47	-44.5	-65.1	3.8	1.49e+00	0	38	104	0	60	39028
2026-01-18 02:00:27.86	0.22	6.52	-44.6	-65.1	3.8	1.49e+00	0	38	104	0	60	39119
2026-01-18 02:00:28.86	0.10	6.57	-44.6	-65.1	3.8	1.49e+00	0	38	104	0	60	39008
2026-01-18 02:00:29.86	359.99	6.63	-44.6	-65.1	3.8	1.49e+00	0	38	104	0	60	39003
2026-01-18 02:00:30.85	359.87	6.68	-44.5	-65.1	3.8	1.49e+00	0	38	104	0	60	39016
2026-01-18 02:00:31.85	359.75	6.73	-44.5	-65.1	3.8	1.49e+00	0	38	104	0	60	38994
2026-01-18 02:00:32.85	359.64	6.78	-44.5	-65.1	3.8	1.49e+00	0	38	104	0	60	39015
2026-01-18 02:00:33.85	359.52	6.83	-44.5	-65.1	3.8	1.49e+00	0	38	104	0	60	39115
2026-01-18 02:00:34.85	359.40	6.89	-44.5	-65.2	3.8	1.49e+00	0	38	104	0	60	39140
2026-01-18 02:00:35.84	359.29	6.94	-44.6	-65.2	3.8	1.49e+00	0	38	104	0	60	39154
2026-01-18 02:00:36.84	359.17	6.99	-44.5	-65.1	3.8	1.49e+00	0	38	104	0	60	39076
2026-01-18 02:00:37.84	359.05	7.04	-44.6	-65.2	3.8	1.49e+00	0	38	104	0	60	39162
2026-01-18 02:00:38.82	358.93	7.09	-44.6	-65.2	3.8	1.49e+00	0	39	104	0	60	39248
2026-01-18 02:00:39.82	358.81	7.15	-44.6	-65.1	3.8	1.49e+00	0	38	104	0	60	39102
2026-01-18 02:00:40.82	358.69	7.20	-44.5	-65.2	3.8	1.49e+00	0	39	104	0	60	39185
2026-01-18 02:00:41.82	358.57	7.25	-44.5	-65.1	3.8	1.49e+00	0	39	104	0	60	39029
2026-01-18 02:00:42.81	358.45	7.30	-44.6	-65.2	3.8	1.49e+00	0	39	104	0	60	39166
2026-01-18 02:00:43.81	358.33	7.35	-44.6	-65.1	3.8	1.49e+00	0	39	104	0	60	39095
2026-01-18 02:00:44.81	358.21	7.41	-44.6	-65.2	3.8	1.49e+00	0	39	104	0	60	39167
2026-01-18 02:00:45.80	358.09	7.46	-44.5	-65.2	3.8	1.49e+00	0	38	104	0	60	39194
2026-01-18 02:00:46.80	357.97	7.51	-44.5	-65.2	3.8	1.49e+00	0	38	104	0	60	39275
2026-01-18 02:00:47.80	357.85	7.56	-44.6	-65.2	3.8	1.49e+00	0	38	104	0	60	39292
2026-01-18 02:00:48.80	357.72	7.61	-44.6	-65.2	3.8	1.49e+00	0	39	104	0	60	39359
2026-01-18 02:00:49.80	357.60	7.67	-44.6	-65.2	3.8	1.49e+00	0	39	104	0	60	39201
2026-01-18 02:00:50.80	357.47	7.72	-44.6	-65.2	3.8	1.49e+00	0	39	104	0	60	39207
2026-01-18 02:00:51.80	357.35	7.77	-44.6	-65.1	3.8	1.49e+00	0	39	104	0	60	39094
2026-01-18 02:00:52.80	357.22	7.82	-44.6	-65.1	3.8	1.49e+00	0	39	104	0	60	38909
2026-01-18 02:00:53.80	357.10	7.87	-44.6	-65.1	3.8	1.49e+00	0	39	104	0	60	38815
2026-01-18 02:00:54.80	356.97	7.93	-44.6	-65.1	3.8	1.49e+00	0	39	104	0	60	38690
2026-01-18 02:00:55.80	356.84	7.98	-44.6	-65.0	3.8	1.49e+00	0	39	104	0	60	38645
2026-01-18 02:00:56.80	356.72	8.03	-44.6	-65.1	3.8	1.49e+00	0	39	104	0	60	38748
2026-01-18 02:00:57.80	356.59	8.08	-44.6	-65.1	3.8	1.49e+00	0	39	104	0	60	38867
2026-01-18 02:00:58.79	356.46	8.13	-44.6	-65.0	3.8	1.49e+00	0	39	104	0	60	38685
2026-01-18 02:00:59.79	356.33	8.18	-44.6	-64.9	3.8	1.49e+00	0	39	104	0	60	38188
2026-01-18 02:01:00.79	356.21	8.24	-44.6	-64.7	3.8	1.49e+00	0	39	104	0	60	37273
2026-01-18 02:01:01.79	356.08	8.29	-44.6	-64.5	3.8	1.49e+00	0	39	104	0	60	36373
2026-01-18 02:01:02.79	355.95	8.34	-44.6	-64.3	3.8	1.49e+00	0	39	104	0	60	35666
2026-01-18 02:01:03.78	355.82	8.39	-44.6	-64.1	3.8	1.49e+00	0	39	104	0	60	34664
2026-01-18 02:01:04.78	355.69	8.44	-44.5	-64.0	3.8	1.49e+00	0	39	104	0	60	34228
2026-01-18 02:01:05.78	355.55	8.49	-44.6	-63.8	3.8	1.49e+00	0	39	104	0	60	33417
2026-01-18 02:01:06.78	355.42	8.54	-44.6	-63.6	3.8	1.49e+00	0	39	104	0	60	32676
2026-01-18 02:01:07.78	355.29	8.60	-44.6	-63.2	3.8	1.49e+00	0	39	104	0	60	31177
2026-01-18 02:01:08.78	355.16	8.65	-44.6	-62.4	4.0	1.48e+00	0	39	104	0	60	28627
2026-01-18 02:01:09.78	355.02	8.70	-44.5	-61.1	4.3	1.43e+00	0	39	0	0	60	24686
2026-01-18 02:01:10.77	354.89	8.75	-44.5	-59.5	5.0	7.69e-01	0	39	0	1048576	60	20352
2026-01-18 02:01:11.77	354.76	8.80	-44.3	-57.4	6.4	3.78e-01	0	39	0	3145728	60	16099
2026-01-18 02:01:12.76	354.62	8.85	-44.1	-55.4	8.3	1.15e-01	0	39	0	5242880	60	12714
2026-01-18 02:01:13.76	354.49	8.90	-44.2	-53.6	10.1	2.61e-02	0	39	0	6291456	59	10992
2026-01-18 02:01:14.76	354.35	8.95	-43.9	-52.1	11.6	1.58e-03	0	39	0	8388608	59	9201
2026-01-18 02:01:15.76	354.22	9.00	-43.7	-51.1	12.6	2.14e-04	0	39	0	10485760	59	8213
2026-01-18 02:01:16.76	354.08	9.06	-43.6	-50.9	12.8	3.50e-05	0	39	0	12582912	59	8074
2026-01-18 02:01:17.75	353.94	9.11	-44.5	-53.0	10.9	4.21e-04	0	39	0	14680064	59	10234
2026-01-18 02:01:18.75	353.81	9.16	-43.7	-50.3	13.4	5.43e-04	0	39	0	15728640	59	7528
2026-01-18 02:01:19.74	353.67	9.21	-45.4	-56.1	7.9	1.73e-04	0	39	0	17825792	61	12976
2026-01-18 02:01:20.74	353.53	9.26	-43.6	-49.1	14.6	1.57e-01	0	39	0	19922944	58	6934
2026-01-18 02:01:21.74	353.39	9.31	-43.9	-49.3	14.3	7.00e-07	0	39	0	22020096	59	6721
2026-01-18 02:01:22.74	353.25	9.36	-43.9	-49.4	14.3	0.00e+00	0	39	0	23068672	59	6779
2026-01-18 02:01:23.74	353.11	9.41	-43.9	-49.6	14.1	0.00e+00	0	39	0	25165824	59	6921
2026-01-18 02:01:24.73	352.97	9.46	-43.8	-49.3	14.4	1.50e-06	0	39	0	27262976	59	6656
2026-01-18 02:01:25.74	352.83	9.51	-43.8	-49.4	14.4	0.00e+00	0	39	0	29360128	59	6728
2026-01-18 02:01:26.74	352.69	9.56	-43.7	-49.3	14.4	7.00e-07	0	39	0	31457280	59	6704
2026-01-18 02:01:27.73	352.55	9.61	-43.7	-49.1	14.6	0.00e+00	0	39	0	32505856	59	6522
2026-01-18 02:01:28.73	352.40	9.66	-43.6	-48.6	15.1	0.00e+00	0	39	0	34603008	59	6137
2026-01-18 02:01:29.73	352.26	9.71	-43.7	-48.3	15.3	0.00e+00	0	39	0	36700160	59	5992
2026-01-18 02:01:30.72	352.12	9.76	-43.9	-48.6	15.1	0.00e+00	0	39	0	38797312	59	6147
2026-01-18 02:01:31.72	351.98	9.81	-44.1	-48.7	15.0	0.00e+00	0	39	0	40894464	59	6271
2026-01-18 02:01:32.72	351.83	9.86	-44.3	-49.0	14.8	0.00e+00	0	39	0	41943040	59	6422
2026-01-18 02:01:33.72	351.69	9.91	-44.5	-49.3	14.4	0.00e+00	0	39	0	44040192	60	6306
2026-01-18 02:01:34.71	351.54	9.96	-44.7	-49.7	14.1	1.50e-06	0	39	0	46137344	60	6581
2026-01-18 02:01:35.71	351.39	10.01	-45.0	-50.1	13.7	3.80e-06	0	39	0	48234496	60	6927
2026-01-18 02:01:36.70	351.25	10.06	-44.9	-49.9	13.9	3.80e-06	0	39	0	50331648	60	6793
2026-01-18 02:01:37.70	351.10	10.11	-44.7	-49.8	14.0	7.00e-07	0	39	0	51380224	60	6665
2026-01-18 02:01:38.70	350.95	10.16	-44.3	-49.4	14.5	2.20e-06	0	39	0	53477376	60	6371
2026-01-18 02:01:39.69	350.81	10.21	-44.0	-49.2	14.6	7.00e-07	0	39	0	55574528	60	6239
2026-01-18 02:01:40.69	350.66	10.26	-43.9	-49.1	14.7	7.00e-07	0	39	0	57671680	59	6528
2026-01-18 02:01:41.69	350.51	10.31	-43.8	-49.1	14.7	0.00e+00	0	39	0	58720256	59	6527
2026-01-18 02:01:42.69	350.36	10.36	-43.7	-49.2	14.6	0.00e+00	0	39	0	60817408	59	6581
2026-01-18 02:01:43.68	350.21	10.40	-43.8	-49.2	14.5	0.00e+00	0	39	0	62914560	59	6616
2026-01-18 02:01:44.68	350.06	10.45	-43.6	-49.0	14.7	0.00e+00	0	39	0	65011712	59	6447
2026-01-18 02:01:45.68	349.91	10.50	-43.8	-49.0	14.7	0.00e+00	0	39	0	67108864	59	6491
2026-01-18 02:01:46.68	349.76	10.55	-43.6	-48.5	15.2	7.00e-07	0	39	0	68157440	59	6096
2026-01-18 02:01:47.68	349.61	10.60	-43.7	-48.6	15.1	0.00e+00	0	39	0	70254592	59	6186
2026-01-18 02:01:48.67	349.45	10.65	-43.8	-48.4	15.4	0.00e+00	0	39	0	72351744	59	6035
2026-01-18 02:01:49.67	349.30	10.70	-44.0	-48.2	15.5	0.00e+00	0	39	0	74448896	59	5912
2026-01-18 02:01:50.67	349.15	10.74	-44.1	-48.2	15.5	0.00e+00	0	39	0	75497472	59	5921
2026-01-18 02:01:51.66	348.99	10.79	-44.0	-47.9	15.8	0.00e+00	0	39	0	77594624	59	5685
2026-01-18 02:01:52.67	348.84	10.84	-43.9	-47.8	15.9	0.00e+00	0	39	0	79691776	59	5642
2026-01-18 02:01:53.67	348.68	10.89	-43.8	-47.8	15.8	0.00e+00	0	40	0	81788928	59	5646
2026-01-18 02:01:54.67	348.53	10.94	-43.8	-47.9	15.8	0.00e+00	0	39	0	83886080	59	5715
2026-01-18 02:01:55.67	348.37	10.98	-43.8	-48.0	15.8	0.00e+00	0	39	0	84934656	59	5753
2026-01-18 02:01:56.66	348.21	11.03	-43.8	-48.2	15.6	0.00e+00	0	39	0	87031808	59	5862
2026-01-18 02:01:57.66	348.06	11.08	-43.6	-47.9	15.9	0.00e+00	0	39	0	89128960	59	5663
2026-01-18 02:01:58.66	347.90	11.13	-43.4	-47.7	16.0	0.00e+00	0	39	0	91226112	58	5861
2026-01-18 02:01:59.65	347.74	11.17	-43.3	-47.4	16.3	0.00e+00	0	39	0	93323264	58	5673
2026-01-18 02:02:00.65	347.58	11.22	-43.2	-47.2	16.5	0.00e+00	0	39	0	94371840	58	5531
2026-01-18 02:02:01.65	347.42	11.27	-43.0	-46.9	16.8	0.00e+00	0	39	0	96468992	58	5372
2026-01-18 02:02:02.64	347.26	11.31	-43.1	-46.9	16.8	0.00e+00	0	39	0	98566144	57	5680
2026-01-18 02:02:03.64	347.10	11.36	-43.0	-46.8	16.8	0.00e+00	0	39	0	100663296	57	5630
2026-01-18 02:02:04.64	346.94	11.41	-43.1	-46.9	16.7	0.00e+00	0	39	0	101711872	57	5683
2026-01-18 02:02:05.64	346.78	11.45	-43.3	-47.2	16.4	0.00e+00	0	39	0	103809024	57	5913
2026-01-18 02:02:06.63	346.62	11.50	-43.4	-47.4	16.3	0.00e+00	0	39	0	105906176	57	5999
2026-01-18 02:02:07.63	346.46	11.55	-43.4	-47.2	16.4	0.00e+00	0	39	0	108003328	57	5920
2026-01-18 02:02:08.63	346.29	11.59	-43.5	-47.3	16.4	0.00e+00	0	39	0	110100480	57	5968
2026-01-18 02:02:09.63	346.13	11.64	-43.5	-47.2	16.5	0.00e+00	0	39	0	111149056	57	5907
2026-01-18 02:02:10.63	345.96	11.69	-43.6	-47.2	16.5	0.00e+00	0	39	0	113246208	57	5860
2026-01-18 02:02:11.62	345.80	11.73	-43.6	-47.1	16.6	0.00e+00	0	39	0	115343360	58	5494
2026-01-18 02:02:12.62	345.64	11.78	-43.8	-47.1	16.7	0.00e+00	0	39	0	117440512	58	5487
2026-01-18 02:02:13.62	345.47	11.82	-43.8	-47.1	16.7	0.00e+00	0	39	0	118489088	58	5482
2026-01-18 02:02:14.61	345.31	11.87	-43.6	-46.9	16.8	0.00e+00	0	39	0	120586240	58	5374
2026-01-18 02:02:15.61	345.14	11.91	-43.8	-47.1	16.6	0.00e+00	0	39	0	122683392	58	5506
2026-01-18 02:02:16.61	344.97	11.96	-43.7	-47.1	16.6	0.00e+00	0	39	0	124780544	58	5500
2026-01-18 02:02:17.61	344.80	12.00	-43.6	-46.9	16.8	0.00e+00	0	39	0	126877696	58	5395
2026-01-18 02:02:18.60	344.64	12.05	-43.4	-46.7	16.9	0.00e+00	0	39	0	127926272	58	5263
2026-01-18 02:02:19.60	344.47	12.09	-43.2	-46.6	17.1	0.00e+00	0	39	0	130023424	58	5160
2026-01-18 02:02:20.60	344.30	12.13	-43.1	-46.3	17.3	0.00e+00	0	39	0	132120576	58	5033
2026-01-18 02:02:21.60	344.13	12.18	-43.0	-46.1	17.5	0.00e+00	0	39	0	134217728	57	5213
2026-01-18 02:02:22.60	343.96	12.22	-43.1	-46.3	17.3	0.00e+00	0	39	0	136314880	57	5291
2026-01-18 02:02:23.59	343.79	12.27	-43.0	-46.1	17.5	0.00e+00	0	39	0	137363456	57	5172
2026-01-18 02:02:24.58	343.62	12.31	-43.2	-46.2	17.4	0.00e+00	0	39	0	139460608	57	5268
2026-01-18 02:02:25.58	343.45	12.35	-43.4	-46.5	17.1	0.00e+00	0	39	0	141557760	57	5452
2026-01-18 02:02:26.58	343.27	12.40	-43.6	-46.8	16.8	0.00e+00	0	39	0	143654912	57	5648
2026-01-18 02:02:27.57	343.10	12.44	-43.7	-47.1	16.5	0.00e+00	0	40	0	144703488	58	5528
2026-01-18 02:02:28.57	342.93	12.48	-43.6	-47.0	16.7	0.00e+00	0	39	0	146800640	58	5413
2026-01-18 02:02:29.56	342.76	12.52	-43.6	-47.0	16.6	0.00e+00	0	39	0	148897792	58	5436
2026-01-18 02:02:30.56	342.58	12.57	-43.4	-46.7	16.9	0.00e+00	0	39	0	150994944	58	5266
2026-01-18 02:02:31.55	342.41	12.61	-43.3	-46.6	17.0	0.00e+00	0	39	0	153092096	58	5217
2026-01-18 02:02:32.56	342.23	12.65	-43.2	-46.4	17.2	0.00e+00	0	39	0	154140672	58	5088
2026-01-18 02:02:33.55	342.05	12.69	-43.1	-46.2	17.4	0.00e+00	0	39	0	156237824	58	4966
2026-01-18 02:02:34.55	341.88	12.73	-43.1	-46.2	17.5	0.00e+00	0	39	0	158334976	58	4940
2026-01-18 02:02:35.55	341.70	12.78	-43.1	-46.1	17.6	0.00e+00	0	39	0	160432128	58	4908
2026-01-18 02:02:36.55	341.52	12.82	-43.0	-46.0	17.6	0.00e+00	0	40	0	162529280	57	5123
2026-01-18 02:02:37.55	341.34	12.86	-42.8	-45.8	17.8	0.00e+00	0	39	0	163577856	57	5009
2026-01-18 02:02:38.55	341.17	12.90	-42.8	-45.8	17.8	0.00e+00	0	39	0	165675008	57	5011
2026-01-18 02:02:39.55	340.99	12.94	-42.4	-45.4	18.1	0.00e+00	0	40	0	167772160	56	5093
2026-01-18 02:02:40.54	340.81	12.98	-42.4	-45.4	18.2	0.00e+00	0	39	0	169869312	56	5067
2026-01-18 02:02:41.54	340.63	13.02	-42.6	-45.5	18.1	0.00e+00	0	39	0	170917888	56	5130
2026-01-18 02:02:42.53	340.45	13.06	-42.5	-45.4	18.2	0.00e+00	0	39	0	173015040	56	5056
2026-01-18 02:02:43.53	340.27	13.10	-42.7	-45.6	18.0	0.00e+00	0	39	0	175112192	56	5180
2026-01-18 02:02:44.53	340.09	13.14	-43.0	-46.0	17.6	0.00e+00	0	39	0	177209344	56	5434
2026-01-18 02:02:45.53	339.90	13.18	-43.3	-46.3	17.4	0.00e+00	0	39	0	179306496	57	5289
2026-01-18 02:02:46.52	339.72	13.22	-43.6	-46.7	17.0	0.00e+00	0	39	0	180355072	57	5557
2026-01-18 02:02:47.52	339.54	13.26	-43.7	-46.9	16.8	0.00e+00	0	40	0	182452224	58	5362
2026-01-18 02:02:48.51	339.36	13.30	-43.6	-46.8	16.9	0.00e+00	0	39	0	184549376	58	5302
2026-01-18 02:02:49.50	339.17	13.34	-43.4	-46.6	17.1	0.00e+00	0	39	0	186646528	58	5166
2026-01-18 02:02:50.50	338.99	13.37	-43.4	-46.6	17.1	0.00e+00	0	39	0	187695104	58	5195
2026-01-18 02:02:51.50	338.80	13.41	-43.0	-46.2	17.4	0.00e+00	0	39	0	189792256	58	4963
2026-01-18 02:02:52.49	338.62	13.45	-43.0	-46.2	17.5	0.00e+00	0	39	0	191889408	58	4944
2026-01-18 02:02:53.49	338.43	13.49	-43.3	-46.5	17.2	0.00e+00	0	39	0	193986560	58	5143
2026-01-18 02:02:54.49	338.25	13.52	-43.3	-46.4	17.3	0.00e+00	0	39	0	196083712	58	5086
2026-01-18 02:02:55.48	338.06	13.56	-43.4	-46.6	17.1	0.00e+00	0	40	0	197132288	58	5200
2026-01-18 02:02:56.48	337.88	13.60	-43.6	-46.9	16.8	0.00e+00	0	40	0	199229440	58	5375
2026-01-18 02:02:57.48	337.69	13.63	-43.7	-47.1	16.7	0.00e+00	0	39	0	201326592	58	5473
2026-01-18 02:02:58.47	337.50	13.67	-43.6	-46.9	16.8	0.00e+00	0	39	0	203423744	58	5381
2026-01-18 02:02:59.47	337.31	13.71	-43.6	-46.9	16.8	0.00e+00	0	40	0	204472320	58	5398
2026-01-18 02:03:00.47	337.12	13.74	-43.6	-46.8	16.9	0.00e+00	0	39	0	206569472	58	5331
2026-01-18 02:03:01.46	336.93	13.78	-43.6	-46.7	17.0	0.00e+00	0	39	0	208666624	58	5277
2026-01-18 02:03:02.46	336.74	13.81	-43.6	-46.8	17.0	0.00e+00	0	39	0	210763776	58	5280
2026-01-18 02:03:03.46	336.55	13.85	-43.5	-46.5	17.2	0.00e+00	0	39	0	212860928	58	5138
2026-01-18 02:03:04.46	336.36	13.88	-43.5	-46.3	17.4	0.00e+00	0	40	0	213909504	58	5038
2026-01-18 02:03:05.45	336.17	13.92	-43.5	-46.3	17.3	0.00e+00	0	39	0	216006656	58	5023
2026-01-18 02:03:06.45	335.98	13.95	-43.6	-46.4	17.3	0.00e+00	0	39	0	218103808	58	5083
2026-01-18 02:03:07.45	335.79	13.99	-43.5	-46.3	17.3	0.00e+00	0	39	0	220200960	58	5000
2026-01-18 02:03:08.45	335.59	14.02	-43.4	-46.2	17.5	0.00e+00	0	40	0	222298112	58	4951
2026-01-18 02:03:09.45	335.40	14.05	-43.3	-46.2	17.5	0.00e+00	0	40	0	223346688	58	4929
2026-01-18 02:03:10.44	335.21	14.09	-43.3	-46.1	17.6	0.00e+00	0	40	0	225443840	58	4873
2026-01-18 02:03:11.44	335.01	14.12	-43.2	-46.0	17.7	0.00e+00	0	39	0	227540992	58	4822
2026-01-18 02:03:12.43	334.82	14.15	-43.2	-46.0	17.7	0.00e+00	0	39	0	229638144	58	4832
2026-01-18 02:03:13.43	334.62	14.18	-43.2	-46.0	17.7	0.00e+00	0	39	0	230686720	58	4851
2026-01-18 02:03:14.43	334.43	14.22	-43.3	-46.1	17.6	0.00e+00	0	39	0	232783872	58	4898
2026-01-18 02:03:15.42	334.23	14.25	-43.5	-46.3	17.4	0.00e+00	0	39	0	234881024	58	5017
2026-01-18 02:03:16.42	334.04	14.28	-43.3	-46.1	17.6	0.00e+00	0	40	0	236978176	58	4908
2026-01-18 02:03:17.42	333.84	14.31	-43.3	-46.1	17.5	0.00e+00	0	40	0	239075328	58	4925
2026-01-18 02:03:18.42	333.64	14.34	-43.4	-46.2	17.5	0.00e+00	0	40	0	240123904	58	4966
2026-01-18 02:03:19.41	333.45	14.37	-43.3	-46.1	17.6	0.00e+00	0	39	0	242221056	58	4920
2026-01-18 02:03:20.40	333.25	14.40	-43.3	-46.2	17.5	0.00e+00	0	39	0	244318208	58	4957
2026-01-18 02:03:21.40	333.05	14.43	-43.4	-46.3	17.5	0.00e+00	0	40	0	246415360	58	4996
2026-01-18 02:03:22.40	332.85	14.46	-43.2	-46.1	17.6	0.00e+00	0	39	0	248512512	58	4883
2026-01-18 02:03:23.40	332.65	14.49	-43.4	-46.4	17.4	0.00e+00	0	39	0	249561088	58	5049
2026-01-18 02:03:24.39	332.45	14.52	-43.5	-46.4	17.4	0.00e+00	0	39	0	251658240	58	5060
2026-01-18 02:03:25.39	332.25	14.55	-43.3	-46.2	17.5	0.00e+00	0	39	0	253755392	58	4957
2026-01-18 02:03:26.39	332.05	14.58	-43.3	-46.2	17.6	0.00e+00	0	40	0	255852544	58	4937
2026-01-18 02:03:27.38	331.85	14.60	-43.0	-45.7	18.0	0.00e+00	0	40	0	256901120	58	4681
2026-01-18 02:03:28.38	331.65	14.63	-42.9	-45.5	18.2	0.00e+00	0	40	0	258998272	57	4821
2026-01-18 02:03:29.38	331.45	14.66	-42.7	-45.3	18.3	0.00e+00	0	39	0	261095424	57	4714
2026-01-18 02:03:30.38	331.25	14.69	-42.7	-45.2	18.4	0.00e+00	0	40	0	263192576	57	4685
2026-01-18 02:03:31.38	331.05	14.71	-42.5	-44.9	18.6	0.00e+00	0	40	0	265289728	57	4541
2026-01-18 02:03:32.37	330.84	14.74	-42.6	-45.1	18.5	0.00e+00	0	40	0	266338304	57	4624
2026-01-18 02:03:33.37	330.64	14.77	-42.9	-45.5	18.0	0.00e+00	0	39	0	268435456	57	4861
2026-01-18 02:03:34.37	330.44	14.79	-43.0	-45.7	18.0	0.00e+00	0	40	0	270532608	57	4931
2026-01-18 02:03:35.36	330.23	14.82	-43.1	-45.8	17.9	0.00e+00	0	39	0	272629760	57	5017
2026-01-18 02:03:36.36	330.03	14.84	-43.3	-46.0	17.7	0.00e+00	0	39	0	273678336	57	5134
2026-01-18 02:03:37.36	329.83	14.87	-43.4	-46.1	17.6	0.00e+00	0	40	0	275775488	57	5203
2026-01-18 02:03:38.35	329.62	14.89	-43.2	-45.8	17.9	0.00e+00	0	40	0	277872640	57	5032
2026-01-18 02:03:39.35	329.42	14.92	-43.0	-45.6	18.1	0.00e+00	0	40	0	279969792	57	4886
2026-01-18 02:03:40.34	329.21	14.94	-42.7	-45.3	18.4	0.00e+00	0	40	0	282066944	57	4706
2026-01-18 02:03:41.34	329.01	14.96	-42.8	-45.3	18.3	0.00e+00	0	40	0	283115520	57	4755
2026-01-18 02:03:42.34	328.80	14.99	-43.0	-45.5	18.1	0.00e+00	0	39	0	285212672	57	4869
2026-01-18 02:03:43.34	328.59	15.01	-43.3	-45.9	17.8	0.00e+00	0	39	0	287309824	57	5099
2026-01-18 02:03:44.34	328.39	15.03	-43.4	-46.2	17.5	0.00e+00	0	39	0	289406976	57	5243
2026-01-18 02:03:45.33	328.18	15.05	-43.6	-46.4	17.4	0.00e+00	0	40	0	290455552	57	5362
2026-01-18 02:03:46.33	327.97	15.07	-43.8	-46.8	17.0	0.00e+00	0	39	0	292552704	58	5317
2026-01-18 02:03:47.32	327.77	15.10	-43.7	-46.8	17.0	0.00e+00	0	39	0	294649856	58	5296
2026-01-18 02:03:48.32	327.56	15.12	-43.5	-46.6	17.2	0.00e+00	0	39	0	296747008	58	5184
2026-01-18 02:03:49.32	327.35	15.14	-43.4	-46.5	17.2	0.00e+00	0	39	0	298844160	58	5120
2026-01-18 02:03:50.31	327.14	15.16	-43.3	-46.3	17.5	0.00e+00	0	39	0	299892736	58	5005
2026-01-18 02:03:51.31	326.93	15.18	-43.2	-46.2	17.6	0.00e+00	0	39	0	301989888	58	4944
2026-01-18 02:03:52.31	326.72	15.20	-43.3	-46.2	17.5	0.00e+00	0	40	0	304087040	58	4939
2026-01-18 02:03:53.31	326.51	15.22	-43.5	-46.4	17.4	0.00e+00	0	40	0	306184192	58	5063
2026-01-18 02:03:54.30	326.31	15.23	-43.4	-46.3	17.4	0.00e+00	0	39	0	308281344	58	5027
2026-01-18 02:03:55.30	326.10	15.25	-43.6	-46.6	17.1	0.00e+00	0	40	0	309329920	58	5189
2026-01-18 02:03:56.30	325.89	15.27	-43.5	-46.5	17.2	0.00e+00	0	39	0	311427072	58	5140
2026-01-18 02:03:57.29	325.68	15.29	-43.6	-46.6	17.1	0.00e+00	0	40	0	313524224	58	5203
2026-01-18 02:03:58.29	325.47	15.31	-43.4	-46.5	17.2	0.00e+00	0	39	0	315621376	58	5108
2026-01-18 02:03:59.29	325.25	15.32	-43.4	-46.5	17.3	0.00e+00	0	40	0	317718528	58	5108
2026-01-18 02:04:00.29	325.04	15.34	-43.2	-46.2	17.5	0.00e+00	0	40	0	318767104	58	4955
2026-01-18 02:04:01.28	324.83	15.36	-43.2	-46.2	17.5	0.00e+00	0	39	0	320864256	58	4942
2026-01-18 02:04:02.28	324.62	15.37	-43.1	-45.9	17.8	0.00e+00	0	40	0	322961408	58	4794
2026-01-18 02:04:03.28	324.41	15.39	-43.2	-45.9	17.8	0.00e+00	0	40	0	325058560	58	4780
2026-01-18 02:04:04.28	324.20	15.40	-43.1	-45.8	17.9	0.00e+00	0	40	0	326107136	58	4731
2026-01-18 02:04:05.28	323.98	15.42	-43.1	-45.7	18.0	0.00e+00	0	40	0	328204288	58	4669
2026-01-18 02:04:06.28	323.77	15.43	-43.2	-45.7	18.0	0.00e+00	0	39	0	330301440	58	4697
2026-01-18 02:04:07.27	323.56	15.44	-43.3	-45.9	17.7	0.00e+00	0	39	0	332398592	58	4802
2026-01-18 02:04:08.27	323.35	15.46	-43.4	-46.0	17.7	0.00e+00	0	39	0	334495744	58	4864
2026-01-18 02:04:09.27	323.13	15.47	-43.5	-46.2	17.6	0.00e+00	0	39	0	335544320	58	4938
2026-01-18 02:04:10.27	322.92	15.48	-43.3	-46.0	17.6	0.00e+00	0	40	0	337641472	58	4866
2026-01-18 02:04:11.27	322.70	15.50	-43.3	-46.0	17.7	0.00e+00	0	39	0	339738624	58	4865
2026-01-18 02:04:12.27	322.49	15.51	-43.3	-46.1	17.6	0.00e+00	0	39	0	341835776	58	4886
2026-01-18 02:04:13.26	322.28	15.52	-43.2	-46.0	17.6	0.00e+00	0	39	0	342884352	58	4852
2026-01-18 02:04:14.26	322.06	15.53	-43.1	-45.9	17.8	0.00e+00	0	39	0	344981504	58	4761
2026-01-18 02:04:15.26	321.85	15.54	-43.0	-45.8	17.8	0.00e+00	0	40	0	347078656	58	4749
2026-01-18 02:04:16.26	321.63	15.55	-43.1	-46.0	17.7	0.00e+00	0	39	0	349175808	57	5127
2026-01-18 02:04:17.26	321.42	15.56	-43.2	-46.1	17.6	0.00e+00	0	39	0	351272960	57	5186
2026-01-18 02:04:18.26	321.20	15.57	-43.4	-46.2	17.5	0.00e+00	0	39	0	352321536	57	5265
2026-01-18 02:04:19.25	320.99	15.58	-43.6	-46.5	17.2	0.00e+00	0	39	0	354418688	57	5417
2026-01-18 02:04:20.25	320.78	15.59	-43.6	-46.5	17.2	0.00e+00	0	39	0	356515840	57	5450
2026-01-18 02:04:21.25	320.56	15.60	-43.7	-46.7	17.0	0.00e+00	0	39	0	358612992	58	5252
2026-01-18 02:04:22.24	320.35	15.60	-44.0	-47.0	16.7	0.00e+00	0	39	0	360710144	58	5459
2026-01-18 02:04:23.24	320.13	15.61	-44.0	-47.0	16.7	0.00e+00	0	40	0	361758720	58	5464
2026-01-18 02:04:24.24	319.91	15.62	-44.0	-47.1	16.7	0.00e+00	0	40	0	363855872	58	5479
2026-01-18 02:04:25.24	319.70	15.62	-43.8	-46.8	16.9	0.00e+00	0	40	0	365953024	58	5329
2026-01-18 02:04:26.24	319.48	15.63	-43.7	-46.6	17.1	0.00e+00	0	40	0	368050176	58	5202
2026-01-18 02:04:27.23	319.27	15.64	-43.6	-46.5	17.2	0.00e+00	0	39	0	369098752	58	5152
2026-01-18 02:04:28.23	319.05	15.64	-43.6	-46.5	17.2	0.00e+00	0	40	0	371195904	58	5152
2026-01-18 02:04:29.23	318.84	15.65	-43.5	-46.4	17.3	0.00e+00	0	39	0	373293056	58	5065
2026-01-18 02:04:30.23	318.62	15.65	-43.5	-46.4	17.3	0.00e+00	0	40	0	375390208	58	5076
2026-01-18 02:04:31.22	318.41	15.66	-43.7	-46.5	17.2	0.00e+00	0	40	0	377487360	58	5155
2026-01-18 02:04:32.22	318.19	15.66	-43.8	-46.7	17.1	0.00e+00	0	39	0	378535936	58	5253
2026-01-18 02:04:33.22	317.97	15.66	-43.7	-46.7	17.1	0.00e+00	0	39	0	380633088	58	5231
2026-01-18 02:04:34.22	317.76	15.67	-43.8	-46.8	17.0	0.00e+00	0	39	0	382730240	58	5312
2026-01-18 02:04:35.21	317.54	15.67	-43.5	-46.6	17.1	0.00e+00	0	40	0	384827392	58	5174
2026-01-18 02:04:36.21	317.33	15.67	-43.5	-46.5	17.2	0.00e+00	0	40	0	385875968	58	5113
2026-01-18 02:04:37.21	317.11	15.67	-43.5	-46.5	17.3	0.00e+00	0	40	0	387973120	58	5110
2026-01-18 02:04:38.20	316.89	15.67	-43.2	-46.1	17.6	0.00e+00	0	40	0	390070272	58	4900
2026-01-18 02:04:39.20	316.68	15.67	-43.2	-46.1	17.6	0.00e+00	0	40	0	392167424	58	4896
2026-01-18 02:04:40.20	316.46	15.67	-43.2	-46.0	17.7	0.00e+00	0	40	0	394264576	58	4839
2026-01-18 02:04:41.20	316.24	15.67	-43.3	-46.0	17.7	0.00e+00	0	40	0	395313152	58	4866
2026-01-18 02:04:42.20	316.03	15.67	-43.3	-46.0	17.6	0.00e+00	0	40	0	397410304	58	4862
2026-01-18 02:04:43.20	315.81	15.67	-43.4	-46.2	17.5	0.00e+00	0	40	0	399507456	58	4949
2026-01-18 02:04:44.20	315.59	15.67	-43.5	-46.3	17.4	0.00e+00	0	39	0	401604608	58	5009
2026-01-18 02:04:45.20	315.38	15.67	-43.5	-46.3	17.4	0.00e+00	0	40	0	403701760	58	5024
2026-01-18 02:04:46.20	315.16	15.67	-43.6	-46.5	17.2	0.00e+00	0	39	0	404750336	58	5128
2026-01-18 02:04:47.20	314.94	15.67	-43.7	-46.6	17.1	0.00e+00	0	40	0	406847488	58	5188
2026-01-18 02:04:48.20	314.73	15.66	-43.7	-46.6	17.1	0.00e+00	0	40	0	408944640	58	5207
2026-01-18 02:04:49.19	314.51	15.66	-43.6	-46.5	17.2	0.00e+00	0	40	0	411041792	58	5126
2026-01-18 02:04:50.19	314.30	15.66	-43.7	-46.5	17.3	0.00e+00	0	39	0	413138944	58	5153
2026-01-18 02:04:51.19	314.08	15.65	-43.4	-46.2	17.5	0.00e+00	0	39	0	414187520	58	4972
2026-01-18 02:04:52.19	313.86	15.65	-43.3	-46.0	17.6	0.00e+00	0	40	0	416284672	58	4856
2026-01-18 02:04:53.19	313.65	15.64	-43.2	-45.9	17.8	0.00e+00	0	40	0	418381824	58	4795
2026-01-18 02:04:54.19	313.43	15.64	-43.2	-45.9	17.7	0.00e+00	0	40	0	420478976	58	4805
2026-01-18 02:04:55.19	313.21	15.63	-43.1	-45.9	17.8	0.00e+00	0	40	0	421527552	58	4774
2026-01-18 02:04:56.18	313.00	15.63	-43.2	-46.0	17.7	0.00e+00	0	40	0	423624704	58	4818
2026-01-18 02:04:57.18	312.78	15.62	-43.3	-46.2	17.5	0.00e+00	0	39	0	425721856	58	4930
2026-01-18 02:04:58.18	312.57	15.61	-43.4	-46.2	17.4	0.00e+00	0	39	0	427819008	58	4954
2026-01-18 02:04:59.17	312.35	15.61	-43.6	-46.5	17.3	0.00e+00	0	40	0	429916160	58	5118
2026-01-18 02:05:00.17	312.14	15.60	-43.7	-46.7	17.1	0.00e+00	0	40	0	430964736	58	5244
2026-01-18 02:05:01.17	311.92	15.59	-43.8	-46.8	17.0	0.00e+00	0	40	0	433061888	58	5291
2026-01-18 02:05:02.16	311.71	15.58	-43.9	-46.9	16.8	0.00e+00	0	40	0	435159040	58	5379
2026-01-18 02:05:03.16	311.49	15.57	-44.1	-47.2	16.6	0.00e+00	0	40	0	437256192	59	5255
2026-01-18 02:05:04.16	311.28	15.56	-44.3	-47.5	16.3	0.00e+00	0	40	0	438304768	59	5410
2026-01-18 02:05:05.16	311.06	15.55	-44.5	-47.7	16.0	0.00e+00	0	39	0	440401920	59	5580
2026-01-18 02:05:06.15	310.85	15.54	-44.5	-47.8	16.0	0.00e+00	0	40	0	442499072	59	5639
2026-01-18 02:05:07.15	310.64	15.53	-44.6	-47.9	15.9	0.00e+00	0	40	0	444596224	59	5703
2026-01-18 02:05:08.15	310.42	15.52	-44.5	-47.8	16.0	0.00e+00	0	40	0	446693376	59	5608
2026-01-18 02:05:09.15	310.21	15.51	-44.5	-47.9	15.9	0.00e+00	0	40	0	447741952	59	5702
2026-01-18 02:05:10.15	309.99	15.50	-44.2	-47.4	16.4	0.00e+00	0	39	0	449839104	59	5368
2026-01-18 02:05:11.15	309.78	15.49	-44.1	-47.2	16.5	0.00e+00	0	39	0	451936256	59	5225
2026-01-18 02:05:12.15	309.56	15.47	-43.9	-47.0	16.7	0.00e+00	0	39	0	454033408	59	5134
2026-01-18 02:05:13.14	309.35	15.46	-43.8	-46.8	16.9	0.00e+00	0	39	0	456130560	59	5010
2026-01-18 02:05:14.14	309.14	15.45	-43.8	-46.8	16.9	0.00e+00	0	40	0	457179136	59	5013
2026-01-18 02:05:15.14	308.93	15.43	-43.8	-46.7	17.0	0.00e+00	0	39	0	459276288	59	4973
2026-01-18 02:05:16.14	308.71	15.42	-43.8	-46.7	17.0	0.00e+00	0	40	0	461373440	59	4982
2026-01-18 02:05:17.14	308.50	15.40	-43.5	-46.3	17.4	0.00e+00	0	39	0	463470592	59	4738
2026-01-18 02:05:18.13	308.29	15.39	-43.7	-46.5	17.2	0.00e+00	0	39	0	464519168	59	4857
2026-01-18 02:05:19.13	308.08	15.37	-43.8	-46.7	17.0	0.00e+00	0	39	0	466616320	59	4952
2026-01-18 02:05:20.13	307.86	15.36	-44.0	-46.9	16.8	0.00e+00	0	40	0	468713472	59	5070
2026-01-18 02:05:21.13	307.65	15.34	-43.9	-46.8	16.9	0.00e+00	0	40	0	470810624	59	5028
2026-01-18 02:05:22.13	307.44	15.33	-43.8	-46.7	17.0	0.00e+00	0	40	0	472907776	59	4957
2026-01-18 02:05:23.13	307.23	15.31	-43.7	-46.6	17.1	0.00e+00	0	40	0	473956352	59	4900
2026-01-18 02:05:24.13	307.02	15.29	-43.6	-46.4	17.3	0.00e+00	0	39	0	476053504	59	4763
2026-01-18 02:05:25.13	306.81	15.28	-43.5	-46.3	17.4	0.00e+00	0	40	0	478150656	58	5004
2026-01-18 02:05:26.13	306.59	15.26	-43.3	-45.9	17.8	0.00e+00	0	40	0	480247808	58	4801
2026-01-18 02:05:27.13	306.38	15.24	-43.2	-45.8	17.9	0.00e+00	0	39	0	481296384	58	4706
2026-01-18 02:05:28.14	306.17	15.22	-43.3	-45.9	17.8	0.00e+00	0	40	0	483393536	58	4766
2026-01-18 02:05:29.13	305.96	15.20	-43.4	-46.0	17.7	0.00e+00	0	40	0	485490688	58	4860
2026-01-18 02:05:30.13	305.75	15.18	-43.5	-46.3	17.4	0.00e+00	0	40	0	487587840	58	5003
2026-01-18 02:05:31.14	305.54	15.16	-43.6	-46.3	17.4	0.00e+00	0	40	0	489684992	58	5010
2026-01-18 02:05:32.14	305.33	15.14	-43.6	-46.4	17.4	0.00e+00	0	40	0	491782144	58	5042
2026-01-18 02:05:33.14	305.12	15.12	-43.5	-46.2	17.5	0.00e+00	0	39	0	492830720	58	4982
2026-01-18 02:05:34.15	304.91	15.10	-43.6	-46.4	17.3	0.00e+00	0	39	0	494927872	58	5063
2026-01-18 02:05:35.15	304.70	15.08	-43.5	-46.3	17.4	0.00e+00	0	39	0	497025024	58	5014
2026-01-18 02:05:36.15	304.50	15.06	-43.7	-46.5	17.3	0.00e+00	0	39	0	499122176	58	5107
2026-01-18 02:05:37.15	304.29	15.03	-43.7	-46.5	17.2	0.00e+00	0	39	0	500170752	58	5131
2026-01-18 02:05:38.15	304.08	15.01	-43.6	-46.4	17.3	0.00e+00	0	39	0	502267904	58	5077
2026-01-18 02:05:39.15	303.87	14.99	-43.7	-46.6	17.2	0.00e+00	0	40	0	504365056	58	5166
2026-01-18 02:05:40.15	303.67	14.97	-43.7	-46.6	17.2	0.00e+00	0	39	0	506462208	58	5168
2026-01-18 02:05:41.15	303.46	14.94	-43.7	-46.6	17.2	0.00e+00	0	40	0	508559360	58	5160
2026-01-18 02:05:42.16	303.25	14.92	-43.6	-46.4	17.3	0.00e+00	0	40	0	509607936	58	5084
2026-01-18 02:05:43.16	303.04	14.89	-43.7	-46.5	17.2	0.00e+00	0	40	0	511705088	58	5139
2026-01-18 02:05:44.16	302.84	14.87	-43.8	-46.6	17.1	0.00e+00	0	40	0	513802240	58	5197
2026-01-18 02:05:45.16	302.63	14.85	-44.1	-47.0	16.8	0.00e+00	0	39	0	515899392	58	5437
2026-01-18 02:05:46.16	302.43	14.82	-43.9	-46.7	17.0	0.00e+00	0	40	0	517996544	58	5278
2026-01-18 02:05:47.16	302.22	14.80	-43.8	-46.6	17.2	0.00e+00	0	40	0	519045120	58	5167
2026-01-18 02:05:48.17	302.02	14.77	-43.6	-46.3	17.4	0.00e+00	0	39	0	521142272	58	5028
2026-01-18 02:05:49.17	301.81	14.74	-43.2	-45.8	17.8	0.00e+00	0	39	0	523239424	58	4757
2026-01-18 02:05:50.17	301.61	14.72	-43.2	-45.8	17.8	0.00e+00	0	39	0	525336576	58	4738
2026-01-18 02:05:51.17	301.41	14.69	-43.2	-45.8	17.8	0.00e+00	0	39	0	527433728	58	4751
2026-01-18 02:05:52.17	301.20	14.66	-43.2	-45.8	17.9	0.00e+00	0	39	0	528482304	58	4720
2026-01-18 02:05:53.17	301.00	14.63	-43.2	-45.8	17.9	0.00e+00	0	40	0	530579456	58	4713
2026-01-18 02:05:54.17	300.80	14.61	-43.1	-45.6	18.1	0.00e+00	0	40	0	532676608	58	4644
2026-01-18 02:05:55.17	300.60	14.58	-43.2	-45.7	17.9	0.00e+00	0	40	0	534773760	58	4691
2026-01-18 02:05:56.17	300.40	14.55	-43.0	-45.5	18.2	0.00e+00	0	39	0	535822336	58	4575
2026-01-18 02:05:57.17	300.20	14.52	-43.1	-45.6	18.1	0.00e+00	0	39	0	537919488	58	4615
2026-01-18 02:05:58.17	300.00	14.49	-43.0	-45.5	18.2	0.00e+00	0	39	0	540016640	57	4818
2026-01-18 02:05:59.17	299.80	14.46	-43.2	-45.7	17.9	0.00e+00	0	40	0	542113792	57	4969
2026-01-18 02:06:00.18	299.59	14.43	-43.3	-45.9	17.8	0.00e+00	0	39	0	544210944	57	5049
2026-01-18 02:06:01.18	299.39	14.40	-43.6	-46.3	17.4	0.00e+00	0	40	0	545259520	57	5324
2026-01-18 02:06:02.18	299.20	14.37	-43.6	-46.4	17.3	0.00e+00	0	39	0	547356672	58	5056
2026-01-18 02:06:03.18	299.00	14.34	-43.9	-46.7	17.0	0.00e+00	0	39	0	549453824	58	5263
2026-01-18 02:06:04.19	298.80	14.31	-43.8	-46.5	17.2	0.00e+00	0	39	0	551550976	58	5149
2026-01-18 02:06:05.19	298.60	14.28	-43.9	-46.7	17.0	0.00e+00	0	39	0	553648128	58	5254
2026-01-18 02:06:06.19	298.40	14.25	-43.8	-46.6	17.1	0.00e+00	0	40	0	554696704	58	5206
2026-01-18 02:06:07.19	298.21	14.22	-43.9	-46.7	17.0	0.00e+00	0	39	0	556793856	58	5274
2026-01-18 02:06:08.19	298.01	14.18	-44.0	-46.9	16.8	0.00e+00	0	40	0	558891008	58	5346
2026-01-18 02:06:09.19	297.81	14.15	-43.9	-46.7	17.0	0.00e+00	0	39	0	560988160	58	5262
2026-01-18 02:06:10.19	297.62	14.12	-44.2	-47.1	16.7	0.00e+00	0	40	0	563085312	59	5207
2026-01-18 02:06:11.19	297.42	14.09	-44.0	-46.9	16.8	0.00e+00	0	40	0	564133888	59	5089
2026-01-18 02:06:12.20	297.23	14.05	-44.2	-47.1	16.6	0.00e+00	0	39	0	566231040	59	5209
2026-01-18 02:06:13.20	297.03	14.02	-44.3	-47.2	16.5	0.00e+00	0	39	0	568328192	59	5277
2026-01-18 02:06:14.20	296.84	13.98	-44.3	-47.2	16.5	0.00e+00	0	40	0	570425344	59	5258
2026-01-18 02:06:15.20	296.65	13.95	-44.3	-47.3	16.5	0.00e+00	0	39	0	572522496	59	5292
2026-01-18 02:06:16.20	296.45	13.92	-44.1	-47.0	16.8	0.00e+00	0	40	0	573571072	59	5122
2026-01-18 02:06:17.20	296.26	13.88	-44.0	-46.8	17.0	0.00e+00	0	39	0	575668224	59	5008
2026-01-18 02:06:18.21	296.07	13.85	-44.0	-46.8	16.9	0.00e+00	0	40	0	577765376	59	5009
2026-01-18 02:06:19.20	295.88	13.81	-43.9	-46.7	17.1	0.00e+00	0	39	0	579862528	59	4939
2026-01-18 02:06:20.21	295.68	13.78	-43.8	-46.7	17.1	0.00e+00	0	40	0	580911104	59	4943
2026-01-18 02:06:21.21	295.49	13.74	-43.8	-46.6	17.2	0.00e+00	0	40	0	583008256	59	4888
2026-01-18 02:06:22.21	295.30	13.70	-43.9	-46.8	17.0	0.00e+00	0	39	0	585105408	59	4984
2026-01-18 02:06:23.21	295.11	13.67	-43.8	-46.6	17.1	0.00e+00	0	39	0	587202560	59	4924
2026-01-18 02:06:24.21	294.92	13.63	-43.9	-46.7	17.1	0.00e+00	0	40	0	589299712	59	4934
2026-01-18 02:06:25.21	294.74	13.59	-43.9	-46.7	17.0	0.00e+00	0	39	0	590348288	59	4971
2026-01-18 02:06:26.21	294.55	13.56	-43.9	-46.7	17.1	0.00e+00	0	39	0	592445440	59	4930
2026-01-18 02:06:27.22	294.36	13.52	-43.8	-46.5	17.2	0.00e+00	0	40	0	594542592	59	4848
2026-01-18 02:06:28.22	294.17	13.48	-43.7	-46.4	17.3	0.00e+00	0	39	0	596639744	59	4797
2026-01-18 02:06:29.21	293.99	13.44	-43.5	-46.1	17.6	0.00e+00	0	39	0	598736896	58	4905
2026-01-18 02:06:30.21	293.80	13.41	-43.3	-46.0	17.7	0.00e+00	0	40	0	599785472	58	4818
2026-01-18 02:06:31.21	293.61	13.37	-43.2	-45.8	17.8	0.00e+00	0	40	0	601882624	58	4736
2026-01-18 02:06:32.22	293.43	13.33	-43.1	-45.7	18.0	0.00e+00	0	40	0	603979776	58	4666
2026-01-18 02:06:33.22	293.24	13.29	-43.3	-46.0	17.7	0.00e+00	0	40	0	606076928	58	4819
2026-01-18 02:06:34.21	293.06	13.25	-43.2	-45.8	17.9	0.00e+00	0	39	0	607125504	58	4716
2026-01-18 02:06:35.21	292.87	13.21	-43.3	-45.9	17.7	0.00e+00	0	39	0	609222656	58	4793
2026-01-18 02:06:36.21	292.69	13.17	-43.6	-46.3	17.4	0.00e+00	0	40	0	611319808	58	5018
2026-01-18 02:06:37.21	292.51	13.13	-43.6	-46.4	17.4	0.00e+00	0	40	0	613416960	58	5050
2026-01-18 02:06:38.21	292.33	13.09	-43.7	-46.5	17.2	0.00e+00	0	40	0	615514112	58	5138
2026-01-18 02:06:39.21	292.14	13.05	-43.9	-46.8	17.0	0.00e+00	0	39	0	616562688	58	5301
2026-01-18 02:06:40.21	291.96	13.01	-44.0	-46.9	16.9	0.00e+00	0	40	0	618659840	58	5352
2026-01-18 02:06:41.21	291.78	12.97	-44.2	-47.1	16.6	0.00e+00	0	39	0	620756992	59	5217
2026-01-18 02:06:42.21	291.60	12.93	-44.4	-47.5	16.2	0.00e+00	0	39	0	622854144	59	5444
2026-01-18 02:06:43.21	291.42	12.89	-44.6	-47.7	16.0	0.00e+00	0	39	0	624951296	59	5584
2026-01-18 02:06:44.21	291.24	12.85	-44.7	-47.9	15.9	0.00e+00	0	40	0	625999872	59	5682
2026-01-18 02:06:45.22	291.06	12.81	-44.6	-47.8	16.0	0.00e+00	0	40	0	628097024	60	5312
2026-01-18 02:06:46.22	290.88	12.77	-44.5	-47.7	16.1	0.00e+00	0	40	0	630194176	60	5263
2026-01-18 02:06:47.22	290.70	12.73	-44.6	-47.8	16.1	0.00e+00	0	40	0	632291328	60	5280
2026-01-18 02:06:48.22	290.53	12.68	-44.4	-47.5	16.3	0.00e+00	0	39	0	634388480	60	5114
2026-01-18 02:06:49.22	290.35	12.64	-44.3	-47.4	16.4	0.00e+00	0	39	0	635437056	60	5073
2026-01-18 02:06:50.22	290.17	12.60	-44.5	-47.6	16.2	0.00e+00	0	39	0	637534208	60	5218
2026-01-18 02:06:51.22	290.00	12.56	-44.4	-47.5	16.3	0.00e+00	0	40	0	639631360	60	5119
2026-01-18 02:06:52.23	289.82	12.51	-44.3	-47.4	16.4	0.00e+00	0	40	0	641728512	60	5089
2026-01-18 02:06:53.23	289.65	12.47	-44.4	-47.5	16.3	0.00e+00	0	39	0	642777088	60	5117
2026-01-18 02:06:54.23	289.47	12.43	-44.4	-47.5	16.3	0.00e+00	0	39	0	644874240	60	5134
2026-01-18 02:06:55.23	289.30	12.38	-44.4	-47.5	16.3	0.00e+00	0	40	0	646971392	60	5128
2026-01-18 02:06:56.23	289.13	12.34	-44.5	-47.6	16.2	0.00e+00	0	39	0	649068544	60	5212
2026-01-18 02:06:57.23	288.95	12.30	-44.4	-47.5	16.3	0.00e+00	0	40	0	651165696	60	5129
2026-01-18 02:06:58.24	288.78	12.25	-44.4	-47.5	16.3	0.00e+00	0	39	0	652214272	60	5155
2026-01-18 02:06:59.23	288.61	12.21	-44.5	-47.6	16.2	0.00e+00	0	39	0	654311424	60	5210
2026-01-18 02:07:00.24	288.44	12.17	-44.3	-47.4	16.4	0.00e+00	0	39	0	656408576	60	5050
2026-01-18 02:07:01.24	288.26	12.12	-44.4	-47.5	16.3	0.00e+00	0	40	0	658505728	60	5109
2026-01-18 02:07:02.24	288.09	12.08	-44.4	-47.5	16.3	0.00e+00	0	39	0	660602880	60	5159
2026-01-18 02:07:03.25	287.92	12.03	-44.4	-47.5	16.2	0.00e+00	0	39	0	661651456	60	5159
2026-01-18 02:07:04.25	287.75	11.99	-44.7	-47.9	15.9	0.00e+00	0	40	0	663748608	60	5392
2026-01-18 02:07:05.25	287.59	11.94	-44.7	-48.0	15.8	0.00e+00	0	39	0	665845760	60	5429
2026-01-18 02:07:06.25	287.42	11.90	-44.6	-47.8	16.1	0.00e+00	0	40	0	667942912	60	5299
2026-01-18 02:07:07.25	287.25	11.85	-44.5	-47.7	16.1	0.00e+00	0	40	0	670040064	60	5227
2026-01-18 02:07:08.25	287.08	11.81	-44.5	-47.6	16.1	0.00e+00	0	40	0	671088640	60	5209
2026-01-18 02:07:09.26	286.91	11.76	-44.3	-47.3	16.4	0.00e+00	0	39	0	673185792	60	5028
2026-01-18 02:07:10.26	286.75	11.71	-43.9	-46.7	16.9	0.00e+00	0	39	0	675282944	59	4983
2026-01-18 02:07:11.25	286.59	11.67	-43.7	-46.5	17.2	0.00e+00	0	39	0	677380096	59	4815
2026-01-18 02:07:12.26	286.42	11.62	-43.8	-46.7	17.0	0.00e+00	0	40	0	679477248	59	4941
2026-01-18 02:07:13.26	286.25	11.58	-44.0	-46.9	16.8	0.00e+00	0	39	0	680525824	59	5055
2026-01-18 02:07:14.26	286.09	11.53	-44.2	-47.2	16.4	0.00e+00	0	40	0	682622976	59	5224
2026-01-18 02:07:15.26	285.93	11.48	-44.4	-47.5	16.3	0.00e+00	0	39	0	684720128	59	5416
2026-01-18 02:07:16.27	285.76	11.44	-44.7	-47.9	15.9	0.00e+00	0	39	0	686817280	59	5668
2026-01-18 02:07:17.26	285.60	11.39	-44.7	-48.0	15.8	0.00e+00	0	39	0	687865856	60	5448
2026-01-18 02:07:18.26	285.44	11.34	-45.1	-48.7	15.2	0.00e+00	0	39	0	689963008	60	5875
2026-01-18 02:07:19.26	285.28	11.30	-45.5	-49.2	14.7	0.00e+00	0	39	0	692060160	61	5887
2026-01-18 02:07:20.26	285.12	11.25	-45.4	-49.1	14.7	0.00e+00	0	40	0	694157312	61	5854
2026-01-18 02:07:21.26	284.96	11.20	-45.4	-49.1	14.7	7.00e-07	0	39	0	696254464	61	5819
2026-01-18 02:07:22.27	284.80	11.15	-45.2	-48.8	15.3	0.00e+00	0	40	0	697303040	61	5599
2026-01-18 02:07:23.27	284.64	11.11	-44.9	-48.3	15.5	0.00e+00	0	39	0	699400192	61	5314
2026-01-18 02:07:24.27	284.48	11.06	-44.8	-48.0	15.8	0.00e+00	0	39	0	701497344	61	5112
2026-01-18 02:07:25.28	284.32	11.01	-44.8	-48.1	15.7	0.00e+00	0	39	0	703594496	61	5197
2026-01-18 02:07:26.28	284.16	10.96	-44.7	-47.9	15.8	0.00e+00	0	39	0	705691648	61	5099
2026-01-18 02:07:27.28	284.00	10.91	-44.4	-47.5	16.3	0.00e+00	0	40	0	706740224	60	5135
2026-01-18 02:07:28.28	283.85	10.87	-44.7	-48.0	15.8	0.00e+00	0	39	0	708837376	60	5427
2026-01-18 02:07:29.28	283.69	10.82	-44.9	-48.3	15.5	0.00e+00	0	39	0	710934528	60	5598
2026-01-18 02:07:30.29	283.53	10.77	-45.3	-48.9	14.8	0.00e+00	0	39	0	713031680	61	5689
2026-01-18 02:07:31.29	283.38	10.72	-45.7	-49.7	14.1	7.00e-07	0	40	0	714080256	62	5879
2026-01-18 02:07:32.29	283.22	10.67	-46.2	-50.4	13.5	1.50e-06	0	39	0	716177408	62	6369
2026-01-18 02:07:33.29	283.07	10.62	-46.4	-50.8	13.1	1.75e-05	0	39	0	718274560	63	6306
2026-01-18 02:07:34.29	282.92	10.58	-46.7	-51.4	12.4	6.94e-05	0	40	0	720371712	64	6355
2026-01-18 02:07:35.29	282.76	10.53	-46.5	-51.0	12.8	1.19e-04	0	40	0	722468864	64	6114
2026-01-18 02:07:36.29	282.61	10.48	-46.6	-51.1	12.7	4.95e-05	0	39	0	724566016	64	6143
2026-01-18 02:07:37.29	282.46	10.43	-46.3	-50.6	13.1	3.81e-05	0	39	0	725614592	64	5807
2026-01-18 02:07:38.29	282.31	10.38	-46.1	-50.3	13.4	8.30e-06	0	39	0	727711744	64	5645
2026-01-18 02:07:39.29	282.16	10.33	-46.0	-50.0	13.8	7.60e-06	0	39	0	729808896	63	5757
2026-01-18 02:07:40.29	282.01	10.28	-45.9	-50.0	13.8	7.00e-07	0	40	0	731906048	63	5756
2026-01-18 02:07:41.30	281.86	10.23	-46.0	-50.1	13.7	7.60e-06	0	39	0	732954624	63	5804
2026-01-18 02:07:42.30	281.71	10.18	-45.5	-49.4	14.2	3.80e-06	0	40	0	735051776	63	5396
2026-01-18 02:07:43.30	281.56	10.13	-45.6	-49.5	14.3	2.20e-06	0	40	0	737148928	63	5447
2026-01-18 02:07:44.30	281.41	10.08	-45.6	-49.4	14.4	3.00e-06	0	40	0	739246080	63	5361
2026-01-18 02:07:45.30	281.26	10.03	-45.6	-49.5	14.3	7.00e-07	0	40	0	741343232	63	5406
2026-01-18 02:07:46.30	281.11	9.98	-45.4	-49.1	14.7	0.00e+00	0	39	0	742391808	62	5486
2026-01-18 02:07:47.30	280.97	9.93	-45.3	-48.8	14.9	0.00e+00	0	39	0	744488960	62	5340
2026-01-18 02:07:48.30	280.82	9.88	-45.3	-48.8	15.0	7.00e-07	0	40	0	746586112	62	5285
2026-01-18 02:07:49.31	280.67	9.83	-45.2	-48.6	15.2	7.00e-07	0	39	0	748683264	62	5199
2026-01-18 02:07:50.31	280.53	9.78	-45.2	-48.8	15.0	0.00e+00	0	39	0	750780416	62	5286
2026-01-18 02:07:51.31	280.38	9.73	-45.0	-48.5	15.2	0.00e+00	0	39	0	751828992	62	5113
2026-01-18 02:07:52.31	280.24	9.68	-45.0	-48.5	15.2	0.00e+00	0	39	0	753926144	61	5440
2026-01-18 02:07:53.31	280.10	9.63	-44.9	-48.4	15.3	0.00e+00	0	39	0	756023296	61	5397
2026-01-18 02:07:54.31	279.95	9.58	-44.9	-48.4	15.3	0.00e+00	0	39	0	758120448	61	5368
2026-01-18 02:07:55.31	279.81	9.53	-44.8	-48.2	15.4	0.00e+00	0	39	0	759169024	61	5279
2026-01-18 02:07:56.31	279.67	9.48	-45.1	-48.6	15.1	0.00e+00	0	40	0	761266176	61	5482
2026-01-18 02:07:57.31	279.53	9.43	-45.1	-48.6	15.2	0.00e+00	0	39	0	763363328	61	5465
2026-01-18 02:07:58.32	279.38	9.38	-44.8	-48.0	15.7	0.00e+00	0	39	0	765460480	61	5143
2026-01-18 02:07:59.32	279.24	9.33	-44.7	-47.9	15.8	0.00e+00	0	39	0	767557632	61	5064
2026-01-18 02:08:00.32	279.10	9.28	-44.8	-48.1	15.6	0.00e+00	0	40	0	768606208	61	5168
2026-01-18 02:08:01.32	278.96	9.23	-44.7	-47.9	15.8	0.00e+00	0	39	0	770703360	61	5054
2026-01-18 02:08:02.32	278.82	9.18	-44.6	-47.8	15.9	0.00e+00	0	40	0	772800512	61	4995
2026-01-18 02:08:03.32	278.68	9.12	-44.4	-47.5	16.2	0.00e+00	0	39	0	774897664	60	5124
2026-01-18 02:08:04.33	278.54	9.07	-44.5	-47.6	16.1	0.00e+00	0	39	0	776994816	60	5175
2026-01-18 02:08:05.32	278.41	9.02	-44.4	-47.5	16.1	0.00e+00	0	39	0	778043392	60	5154
2026-01-18 02:08:06.32	278.27	8.97	-49.9	-64.9	3.8	5.30e-01	0	40	104	779091968	70	21450
2026-01-18 02:08:07.32	278.13	8.92	-50.1	-65.4	3.8	1.49e+00	0	40	104	779091968	70	22702
2026-01-18 02:08:08.31	278.00	8.87	-50.1	-65.5	3.8	1.49e+00	0	39	104	779091968	70	22950
2026-01-18 02:08:09.31	277.86	8.82	-50.2	-65.6	3.8	1.49e+00	0	40	104	779091968	71	21885
2026-01-18 02:08:10.31	277.73	8.77	-50.3	-65.7	3.8	1.49e+00	0	39	104	779091968	71	22050
2026-01-18 02:08:11.30	277.59	8.72	-50.4	-65.7	3.8	1.49e+00	0	40	104	779091968	71	22083
2026-01-18 02:08:12.30	277.46	8.66	-50.4	-65.7	3.8	1.49e+00	0	40	104	779091968	71	22249
2026-01-18 02:08:13.30	277.33	8.61	-50.4	-65.8	3.8	1.49e+00	0	39	104	779091968	71	22277
2026-01-18 02:08:14.29	277.19	8.56	-50.6	-65.8	3.8	1.49e+00	0	40	104	779091968	71	22377
2026-01-18 02:08:15.29	277.06	8.51	-50.5	-65.8	3.8	1.49e+00	0	40	104	779091968	71	22368
2026-01-18 02:08:16.29	276.93	8.46	-50.5	-65.8	3.8	1.49e+00	0	39	104	779091968	71	22344
2026-01-18 02:08:17.28	276.80	8.41	-50.5	-65.8	3.8	1.49e+00	0	39	104	779091968	71	22373
2026-01-18 02:08:18.28	276.67	8.36	-50.6	-65.8	3.8	1.49e+00	0	39	104	779091968	71	22493
2026-01-18 02:08:19.28	276.53	8.30	-50.5	-65.8	3.8	1.49e+00	0	39	104	779091968	71	22473
2026-01-18 02:08:20.28	276.40	8.25	-50.4	-65.8	3.8	1.49e+00	0	39	104	779091968	71	22433
2026-01-18 02:08:21.27	276.28	8.20	-50.5	-65.8	3.8	1.49e+00	0	39	104	779091968	71	22450
2026-01-18 02:08:22.27	276.15	8.15	-50.5	-65.8	3.8	1.49e+00	0	40	104	779091968	71	22391
2026-01-18 02:08:23.26	276.02	8.10	-50.5	-65.8	3.8	1.49e+00	0	39	104	779091968	71	22433
2026-01-18 02:08:24.26	275.89	8.05	-50.5	-65.8	3.8	1.49e+00	0	40	104	779091968	71	22321
2026-01-18 02:08:25.26	275.76	7.99	-50.4	-65.8	3.8	1.49e+00	0	39	104	779091968	71	22285
2026-01-18 02:08:26.25	275.63	7.94	-50.3	-65.8	3.8	1.49e+00	0	40	104	779091968	71	22313
2026-01-18 02:08:27.25	275.51	7.89	-50.2	-65.7	3.8	1.49e+00	0	39	104	779091968	71	22211
2026-01-18 02:08:28.25	275.38	7.84	-50.2	-65.7	3.8	1.49e+00	0	39	104	779091968	71	22167
2026-01-18 02:08:29.24	275.25	7.79	-50.2	-65.7	3.8	1.49e+00	0	39	104	779091968	71	22106
2026-01-18 02:08:30.24	275.13	7.73	-50.2	-65.7	3.8	1.49e+00	0	39	104	779091968	71	22159
2026-01-18 02:08:31.23	275.00	7.68	-50.2	-65.7	3.8	1.49e+00	0	39	104	779091968	71	22091
2026-01-18 02:08:32.23	274.88	7.63	-50.2	-65.7	3.8	1.49e+00	0	39	104	779091968	71	22208
2026-01-18 02:08:33.22	274.76	7.58	-50.1	-65.7	3.8	1.49e+00	0	40	104	779091968	71	22078
2026-01-18 02:08:34.22	274.63	7.53	-50.2	-65.7	3.8	1.49e+00	0	40	104	779091968	71	22136
2026-01-18 02:08:35.22	274.51	7.48	-50.2	-65.7	3.8	1.49e+00	0	40	104	779091968	71	22046
2026-01-18 02:08:36.21	274.39	7.42	-50.2	-65.7	3.8	1.49e+00	0	39	104	779091968	71	22059
2026-01-18 02:08:37.21	274.26	7.37	-50.2	-65.7	3.8	1.49e+00	0	40	104	779091968	71	22105
2026-01-18 02:08:38.20	274.14	7.32	-50.2	-65.7	3.8	1.49e+00	0	39	104	779091968	71	22143
2026-01-18 02:08:39.20	274.02	7.27	-50.2	-65.7	3.8	1.49e+00	0	40	104	779091968	71	22068
2026-01-18 02:08:40.19	273.90	7.22	-50.2	-65.7	3.8	1.49e+00	0	40	104	779091968	71	22034
2026-01-18 02:08:41.19	273.78	7.16	-50.2	-65.7	3.8	1.49e+00	0	40	104	779091968	71	22056
2026-01-18 02:08:42.18	273.66	7.11	-50.2	-65.6	3.8	1.49e+00	0	40	104	779091968	71	21976
2026-01-18 02:08:43.18	273.54	7.06	-50.2	-65.7	3.8	1.49e+00	0	40	104	779091968	71	22087
2026-01-18 02:08:44.17	273.42	7.01	-50.2	-65.7	3.8	1.49e+00	0	39	104	779091968	71	22054
2026-01-18 02:08:45.17	273.30	6.96	-50.2	-65.7	3.8	1.49e+00	0	39	104	779091968	71	22063
2026-01-18 02:08:46.17	273.18	6.90	-50.2	-65.6	3.8	1.49e+00	0	39	104	779091968	71	21963
2026-01-18 02:08:47.16	273.06	6.85	-50.2	-65.6	3.8	1.49e+00	0	40	104	779091968	71	21905
2026-01-18 02:08:48.16	272.95	6.80	-50.1	-65.7	3.8	1.49e+00	0	39	104	779091968	71	22075
2026-01-18 02:08:49.15	272.83	6.75	-50.1	-65.7	3.8	1.49e+00	0	39	104	779091968	71	22028
2026-01-18 02:08:50.15	272.71	6.70	-50.2	-65.6	3.8	1.49e+00	0	40	104	779091968	71	21997
2026-01-18 02:08:51.15	272.60	6.64	-50.2	-65.7	3.8	1.49e+00	0	40	104	779091968	71	22039
2026-01-18 02:08:52.14	272.48	6.59	-50.1	-65.6	3.8	1.49e+00	0	40	104	779091968	71	21966
2026-01-18 02:08:53.14	272.37	6.54	-50.1	-65.7	3.8	1.49e+00	0	40	104	779091968	71	22059
2026-01-18 02:08:54.13	272.25	6.49	-50.1	-65.7	3.8	1.49e+00	0	39	104	779091968	71	22017
2026-01-18 02:08:55.13	272.14	6.43	-50.1	-65.7	3.8	1.49e+00	0	39	104	779091968	71	22017
2026-01-18 02:08:56.13	272.02	6.38	-50.2	-65.6	3.8	1.49e+00	0	39	104	779091968	71	21987
2026-01-18 02:08:57.12	271.91	6.33	-50.1	-65.6	3.8	1.49e+00	0	40	104	779091968	71	21978
2026-01-18 02:08:58.12	271.79	6.28	-50.1	-65.6	3.8	1.49e+00	0	40	104	779091968	71	21988
2026-01-18 02:08:59.11	271.68	6.23	-50.1	-65.6	3.8	1.49e+00	0	39	104	779091968	71	21952
2026-01-18 02:09:00.10	271.57	6.17	-50.1	-65.6	3.8	1.49e+00	0	40	104	779091968	71	21985
2026-01-18 02:09:01.10	271.46	6.12	-50.1	-65.6	3.8	1.49e+00	0	40	104	779091968	71	21969
2026-01-18 02:09:02.10	271.35	6.07	-50.1	-65.6	3.8	1.49e+00	0	39	104	779091968	71	21992
2026-01-18 02:09:03.09	271.24	6.02	-50.1	-65.6	3.8	1.49e+00	0	39	104	779091968	71	21957
2026-01-18 02:09:04.09	271.12	5.97	-50.1	-65.6	3.8	1.49e+00	0	40	104	779091968	71	21948
2026-01-18 02:09:05.08	271.01	5.91	-50.1	-65.6	3.8	1.49e+00	0	40	104	779091968	71	21961
2026-01-18 02:09:06.07	270.90	5.86	-50.1	-65.6	3.8	1.49e+00	0	39	104	779091968	71	21952
2026-01-18 02:09:07.07	270.79	5.81	-50.1	-65.7	3.8	1.49e+00	0	39	104	779091968	71	22040
2026-01-18 02:09:08.06	270.69	5.76	-50.1	-65.6	3.8	1.49e+00	0	39	104	779091968	71	21973
2026-01-18 02:09:09.06	270.58	5.71	-50.1	-65.6	3.8	1.49e+00	0	40	104	779091968	71	21973
2026-01-18 02:09:10.06	270.47	5.65	-50.1	-65.6	3.8	1.49e+00	0	39	104	779091968	71	21920
2026-01-18 02:09:11.05	270.36	5.60	-50.1	-65.6	3.8	1.49e+00	0	39	104	779091968	71	21939
2026-01-18 02:09:12.05	270.25	5.55	-50.1	-65.6	3.8	1.49e+00	0	40	104	779091968	71	21959
2026-01-18 02:09:13.04	270.15	5.50	-50.1	-65.7	3.8	1.49e+00	0	39	104	779091968	71	22062
2026-01-18 02:09:14.04	270.04	5.45	-50.1	-65.6	3.8	1.49e+00	0	40	104	779091968	71	22004
2026-01-18 02:09:15.03	269.93	5.39	-50.1	-65.6	3.8	1.49e+00	0	39	104	779091968	71	21937
2026-01-18 02:09:16.03	269.83	5.34	-50.1	-65.6	3.8	1.49e+00	0	39	104	779091968	71	21992
2026-01-18 02:09:17.02	269.72	5.29	-50.1	-65.6	3.8	1.49e+00	0	39	104	779091968	71	21970
2026-01-18 02:09:18.02	269.61	5.24	-50.1	-65.6	3.8	1.49e+00	0	39	104	779091968	71	21915
2026-01-18 02:09:19.01	269.51	5.19	-50.1	-65.6	3.8	1.49e+00	0	40	104	779091968	71	21935
2026-01-18 02:09:20.01	269.41	5.13	-50.1	-65.6	3.8	1.49e+00	0	40	104	779091968	71	21960
2026-01-18 02:09:21.01	269.30	5.08	-50.1	-65.6	3.8	1.49e+00	0	40	104	779091968	71	21940
2026-01-18 02:09:22.00	269.20	5.03	-50.1	-65.6	3.8	1.49e+00	0	40	104	779091968	71	21904
2026-01-18 02:09:23.00	269.09	4.98	-50.1	-65.6	3.8	1.49e+00	0	39	104	779091968	71	21992

#Closed at: 2026-01-18 02:09:23
#Recorded file [779 MB]: D:/Data/31040_260118_045959.dat