passes_logs/2026/01/18/T1/T1__20260118_062314_FENGYUN_3E_rec.log

#Pass ID: 20260118_062314_FENGYUN 3E
#Satellite: FENGYUN 3E
#Configuration: FENGYUN 3E
#almurnet v.1.7.20251203
#Start time: 2026-01-18 06:23:13

#Version: 2.0.20230620
#Station: T1
#Location: 37.570604 lon 55.790049 lat
#TLE: 1 49008U 21062A   26017.61301378  .00000104  00000+0  69808-4 0  9996
#TLE: 2 49008  98.7484  22.7108 0002130 132.1860 227.9498 14.19886007235218

#Time	Az	El	Level	Level2	SNR	BER	BlckErr	Temp	State	Recorded	gain1	gain2
2026-01-18 06:23:13.82	2.17	4.96	-49.4	-61.0	3.8	8.47e-01	0	39	0	0	69	13489
2026-01-18 06:23:14.81	2.06	5.01	-46.7	-60.5	3.8	8.46e-01	0	39	104	0	64	17004
2026-01-18 06:23:15.81	1.95	5.06	-46.7	-60.5	3.8	8.47e-01	0	39	104	0	64	17050
2026-01-18 06:23:16.80	1.84	5.11	-46.7	-60.5	3.8	8.45e-01	0	39	104	0	64	17072
2026-01-18 06:23:17.79	1.73	5.16	-46.7	-60.5	3.8	8.47e-01	0	39	104	0	64	16972
2026-01-18 06:23:18.79	1.62	5.21	-46.7	-60.5	3.8	8.47e-01	0	39	104	0	64	17031
2026-01-18 06:23:19.78	1.51	5.25	-46.7	-60.5	3.8	8.47e-01	0	40	104	0	64	17080
2026-01-18 06:23:20.77	1.40	5.30	-46.7	-60.5	3.8	8.47e-01	0	40	104	0	64	17063
2026-01-18 06:23:21.77	1.29	5.35	-46.7	-60.5	3.8	8.46e-01	0	40	104	0	64	17060
2026-01-18 06:23:22.76	1.17	5.40	-46.7	-60.6	3.8	8.47e-01	0	40	104	0	64	17098
2026-01-18 06:23:23.75	1.06	5.45	-46.7	-60.5	3.8	8.47e-01	0	40	104	0	64	17058
2026-01-18 06:23:24.75	0.95	5.49	-46.7	-60.5	3.8	8.46e-01	0	40	104	0	64	17080
2026-01-18 06:23:25.74	0.83	5.54	-46.7	-60.5	3.8	8.48e-01	0	40	104	0	64	17044
2026-01-18 06:23:26.73	0.72	5.59	-46.7	-60.5	3.8	8.48e-01	0	40	104	0	64	17050
2026-01-18 06:23:27.73	0.61	5.64	-46.7	-60.5	3.8	8.45e-01	0	40	104	0	64	17061
2026-01-18 06:23:28.72	0.49	5.69	-46.7	-60.5	3.8	8.47e-01	0	40	104	0	64	17013
2026-01-18 06:23:29.71	0.38	5.73	-46.7	-60.6	3.8	8.47e-01	0	40	104	0	64	17119
2026-01-18 06:23:30.71	0.26	5.78	-46.7	-60.5	3.8	8.48e-01	0	40	104	0	64	16988
2026-01-18 06:23:31.70	0.14	5.83	-46.7	-60.5	3.8	8.48e-01	0	40	104	0	64	17055
2026-01-18 06:23:32.69	0.03	5.88	-46.7	-60.5	3.8	8.47e-01	0	40	104	0	64	17024
2026-01-18 06:23:33.69	359.91	5.93	-46.7	-60.6	3.8	8.46e-01	0	40	104	0	64	17133
2026-01-18 06:23:34.68	359.80	5.98	-46.7	-60.6	3.8	8.46e-01	0	40	104	0	64	17095
2026-01-18 06:23:35.67	359.68	6.02	-46.7	-60.6	3.8	8.47e-01	0	40	104	0	64	17164
2026-01-18 06:23:36.67	359.56	6.07	-46.7	-60.5	3.8	8.48e-01	0	40	104	0	64	17028
2026-01-18 06:23:37.66	359.44	6.12	-46.7	-60.6	3.8	8.47e-01	0	40	104	0	64	17106
2026-01-18 06:23:38.65	359.32	6.17	-46.8	-60.6	3.8	8.48e-01	0	40	104	0	64	17086
2026-01-18 06:23:39.65	359.20	6.21	-46.7	-60.5	3.8	8.46e-01	0	41	104	0	64	17076
2026-01-18 06:23:40.64	359.08	6.26	-46.7	-60.6	3.8	8.46e-01	0	40	104	0	64	17098
2026-01-18 06:23:41.63	358.97	6.31	-46.8	-60.6	3.8	8.47e-01	0	40	104	0	64	17098
2026-01-18 06:23:42.63	358.84	6.36	-46.7	-60.5	3.8	8.47e-01	0	40	104	0	64	16995
2026-01-18 06:23:43.62	358.72	6.41	-46.7	-60.5	3.8	8.46e-01	0	41	104	0	64	17018
2026-01-18 06:23:44.62	358.60	6.45	-46.7	-60.5	3.8	8.48e-01	0	41	104	0	64	17026
2026-01-18 06:23:45.61	358.48	6.50	-46.8	-60.5	3.8	8.47e-01	0	41	104	0	64	16969
2026-01-18 06:23:46.60	358.36	6.55	-46.8	-60.5	3.8	8.46e-01	0	41	104	0	64	17031
2026-01-18 06:23:47.60	358.24	6.60	-46.8	-60.5	3.8	8.48e-01	0	41	104	0	64	16995
2026-01-18 06:23:48.59	358.11	6.64	-46.8	-60.5	3.8	8.47e-01	0	41	104	0	64	17009
2026-01-18 06:23:49.59	357.99	6.69	-46.8	-60.5	3.8	8.46e-01	0	41	104	0	64	17023
2026-01-18 06:23:50.58	357.87	6.74	-46.7	-60.5	3.8	8.47e-01	0	41	104	0	64	16976
2026-01-18 06:23:51.57	357.74	6.79	-46.8	-60.5	3.8	8.46e-01	0	41	104	0	64	16956
2026-01-18 06:23:52.57	357.62	6.83	-46.7	-60.5	3.8	8.46e-01	0	41	104	0	64	17052
2026-01-18 06:23:53.56	357.49	6.88	-46.8	-60.5	3.8	8.47e-01	0	41	104	0	64	16991
2026-01-18 06:23:54.55	357.37	6.93	-46.8	-60.5	3.8	8.46e-01	0	41	104	0	64	17062
2026-01-18 06:23:55.55	357.24	6.98	-46.8	-60.5	3.8	8.47e-01	0	41	104	0	64	16973
2026-01-18 06:23:56.54	357.12	7.02	-46.8	-60.5	3.8	8.46e-01	0	41	104	0	64	16954
2026-01-18 06:23:57.53	356.99	7.07	-46.8	-60.5	3.8	8.47e-01	0	41	104	0	64	16955
2026-01-18 06:23:58.53	356.86	7.12	-46.8	-60.4	3.8	8.46e-01	0	41	104	0	64	16873
2026-01-18 06:23:59.52	356.74	7.16	-46.8	-60.5	3.8	8.46e-01	0	41	104	0	64	16978
2026-01-18 06:24:00.51	356.61	7.21	-46.8	-60.5	3.8	8.46e-01	0	41	104	0	64	17025
2026-01-18 06:24:01.51	356.48	7.26	-46.8	-60.5	3.8	8.47e-01	0	41	104	0	64	16910
2026-01-18 06:24:02.50	356.35	7.31	-46.8	-60.5	3.8	8.47e-01	0	41	104	0	64	16912
2026-01-18 06:24:03.49	356.22	7.35	-46.8	-60.5	3.8	8.46e-01	0	41	104	0	64	16905
2026-01-18 06:24:04.49	356.09	7.40	-46.7	-60.4	3.8	8.47e-01	0	41	104	0	64	16859
2026-01-18 06:24:05.48	355.96	7.45	-46.8	-60.4	3.8	8.47e-01	0	41	104	0	64	16827
2026-01-18 06:24:06.47	355.83	7.49	-46.8	-60.4	3.8	8.48e-01	0	41	104	0	64	16887
2026-01-18 06:24:07.47	355.70	7.54	-46.8	-60.5	3.8	8.47e-01	0	41	104	0	64	16931
2026-01-18 06:24:08.46	355.57	7.59	-46.8	-60.5	3.8	8.47e-01	0	41	104	0	64	16967
2026-01-18 06:24:09.45	355.44	7.63	-46.8	-60.5	3.8	8.47e-01	0	41	104	0	64	16911
2026-01-18 06:24:10.45	355.31	7.68	-46.8	-60.4	3.8	8.47e-01	0	41	104	0	64	16713
2026-01-18 06:24:11.44	355.18	7.73	-46.8	-60.3	3.8	8.46e-01	0	41	104	0	64	16670
2026-01-18 06:24:12.43	355.04	7.77	-46.8	-60.2	3.8	8.47e-01	0	41	104	0	64	16477
2026-01-18 06:24:13.43	354.91	7.82	-46.8	-60.1	3.8	8.47e-01	0	41	104	0	64	16314
2026-01-18 06:24:14.42	354.78	7.86	-46.8	-60.1	3.8	8.47e-01	0	41	104	0	64	16189
2026-01-18 06:24:15.41	354.64	7.91	-46.8	-60.1	3.8	8.48e-01	0	41	104	0	64	16187
2026-01-18 06:24:16.40	354.51	7.96	-46.8	-60.2	3.8	8.48e-01	0	41	104	0	64	16343
2026-01-18 06:24:17.40	354.37	8.00	-46.8	-60.3	3.8	8.47e-01	0	41	104	0	64	16527
2026-01-18 06:24:18.39	354.24	8.05	-46.8	-60.4	3.8	8.47e-01	0	41	104	0	64	16727
2026-01-18 06:24:19.39	354.10	8.10	-46.8	-60.4	3.8	8.47e-01	0	41	104	0	64	16846
2026-01-18 06:24:20.38	353.96	8.14	-46.8	-60.4	3.8	8.45e-01	0	41	104	0	64	16884
2026-01-18 06:24:21.37	353.83	8.19	-46.8	-60.5	3.8	8.47e-01	0	41	104	0	64	16924
2026-01-18 06:24:22.37	353.69	8.23	-46.8	-60.4	3.8	8.47e-01	0	41	104	0	64	16721
2026-01-18 06:24:23.36	353.55	8.28	-46.8	-60.1	3.8	8.47e-01	0	42	104	0	64	16146
2026-01-18 06:24:24.35	353.41	8.32	-46.7	-59.5	3.8	8.46e-01	0	41	104	0	64	15096
2026-01-18 06:24:25.34	353.28	8.37	-46.7	-59.1	3.8	8.45e-01	0	41	104	0	64	14378
2026-01-18 06:24:26.34	353.14	8.41	-46.7	-58.5	3.8	8.46e-01	0	41	104	0	64	13511
2026-01-18 06:24:27.33	353.00	8.46	-46.7	-58.2	3.8	8.45e-01	0	41	104	0	64	12975
2026-01-18 06:24:28.32	352.86	8.51	-46.6	-57.7	3.9	8.45e-01	0	41	104	0	64	12367
2026-01-18 06:24:29.32	352.72	8.55	-46.6	-57.1	4.2	8.39e-01	0	42	0	0	63	12173
2026-01-18 06:24:30.31	352.58	8.60	-46.6	-56.5	4.4	8.32e-01	0	42	0	0	63	11355
2026-01-18 06:24:31.30	352.43	8.64	-46.5	-55.8	4.6	8.19e-01	0	42	0	0	63	10434
2026-01-18 06:24:32.30	352.29	8.69	-46.4	-55.2	5.0	7.83e-01	0	41	0	0	63	9718
2026-01-18 06:24:33.29	352.15	8.73	-46.3	-54.4	5.4	7.43e-01	0	42	0	0	63	8884
2026-01-18 06:24:34.28	352.01	8.77	-46.0	-53.1	6.3	3.00e-01	0	42	0	4194304	62	8163
2026-01-18 06:24:35.28	351.86	8.82	-45.6	-51.3	8.0	1.06e-01	0	42	0	11534336	62	6640
2026-01-18 06:24:36.27	351.72	8.86	-44.9	-49.4	10.0	2.12e-02	0	42	0	18874368	60	5971
2026-01-18 06:24:37.26	351.58	8.91	-43.9	-47.2	12.2	4.91e-04	0	42	0	26214400	58	5210
2026-01-18 06:24:38.26	351.43	8.95	-42.8	-45.3	14.2	4.50e-06	0	42	0	33554432	56	4668
2026-01-18 06:24:39.25	351.29	9.00	-41.3	-43.3	16.0	0.00e+00	0	41	0	40894464	53	4404
2026-01-18 06:24:40.24	351.14	9.04	-40.5	-42.2	17.2	0.00e+00	0	42	0	47185920	51	4376
2026-01-18 06:24:41.30	350.99	9.09	-41.3	-43.2	16.2	0.00e+00	0	42	0	55574528	52	4624
2026-01-18 06:24:42.20	350.85	9.13	-43.6	-46.0	13.4	9.26e-05	0	42	0	61865984	57	4773
2026-01-18 06:24:43.42	350.67	9.18	-40.8	-42.5	16.9	0.00e+00	0	42	0	70254592	51	4500
2026-01-18 06:24:44.27	350.55	9.22	-43.4	-45.7	13.6	2.01e-03	0	42	0	76546048	57	4646
2026-01-18 06:24:45.41	350.38	9.27	-39.5	-41.0	18.3	0.00e+00	0	42	0	84934656	49	4273
2026-01-18 06:24:46.26	350.25	9.31	-39.4	-40.7	18.6	0.00e+00	0	42	0	91226112	49	4117
2026-01-18 06:24:47.60	350.05	9.37	-39.5	-40.8	18.5	0.00e+00	0	42	0	100663296	49	4168
2026-01-18 06:24:48.32	349.94	9.40	-39.5	-40.8	18.6	0.00e+00	0	42	0	105906176	49	4159
2026-01-18 06:24:49.60	349.75	9.45	-39.4	-40.8	18.6	0.00e+00	0	42	0	115343360	49	4146
2026-01-18 06:24:50.32	349.64	9.48	-39.2	-40.5	18.8	0.00e+00	0	42	0	120586240	49	4029
2026-01-18 06:24:51.60	349.45	9.54	-39.1	-40.3	19.0	0.00e+00	0	42	0	130023424	49	3953
2026-01-18 06:24:52.32	349.34	9.57	-39.0	-40.3	19.0	0.00e+00	0	42	0	134217728	48	4160
2026-01-18 06:24:53.59	349.15	9.62	-39.0	-40.2	19.1	0.00e+00	0	42	0	143654912	48	4139
2026-01-18 06:24:54.30	349.04	9.66	-39.0	-40.3	19.0	0.00e+00	0	42	0	148897792	48	4166
2026-01-18 06:24:55.59	348.84	9.71	-38.8	-40.2	19.1	0.00e+00	0	42	0	158334976	48	4118
2026-01-18 06:24:56.50	348.70	9.75	-38.8	-40.2	19.2	0.00e+00	0	42	0	164626432	48	4113
2026-01-18 06:24:57.50	348.55	9.79	-38.7	-40.1	19.2	0.00e+00	0	42	0	171966464	48	4092
2026-01-18 06:24:58.49	348.39	9.83	-38.7	-40.1	19.3	0.00e+00	0	42	0	179306496	48	4072
2026-01-18 06:24:59.49	348.24	9.88	-38.6	-40.1	19.2	0.00e+00	0	42	0	186646528	48	4079
2026-01-18 06:25:00.48	348.08	9.92	-38.8	-40.2	19.2	0.00e+00	0	42	0	193986560	48	4126
2026-01-18 06:25:01.48	347.93	9.96	-38.7	-40.1	19.3	0.00e+00	0	42	0	201326592	48	4059
2026-01-18 06:25:02.47	347.77	10.00	-38.7	-40.0	19.3	0.00e+00	0	42	0	208666624	48	4046
2026-01-18 06:25:03.47	347.61	10.04	-38.7	-40.0	19.4	0.00e+00	0	42	0	214958080	48	4031
2026-01-18 06:25:04.46	347.46	10.08	-38.8	-40.1	19.3	0.00e+00	0	42	0	222298112	48	4069
2026-01-18 06:25:05.46	347.30	10.13	-38.7	-40.0	19.3	0.00e+00	0	42	0	229638144	48	4028
2026-01-18 06:25:06.45	347.14	10.17	-38.8	-40.2	19.2	0.00e+00	0	42	0	236978176	48	4108
2026-01-18 06:25:07.45	346.99	10.21	-38.9	-40.3	19.1	0.00e+00	0	42	0	244318208	48	4178
2026-01-18 06:25:08.44	346.83	10.25	-38.8	-40.3	19.1	0.00e+00	0	42	0	251658240	48	4154
2026-01-18 06:25:09.44	346.67	10.29	-38.9	-40.3	19.0	0.00e+00	0	42	0	257949696	48	4185
2026-01-18 06:25:10.43	346.51	10.33	-38.8	-40.2	19.1	0.00e+00	0	42	0	265289728	48	4134
2026-01-18 06:25:11.42	346.35	10.37	-38.8	-40.2	19.2	0.00e+00	0	42	0	272629760	48	4131
2026-01-18 06:25:12.42	346.19	10.41	-38.9	-40.3	19.1	0.00e+00	0	42	0	279969792	48	4170
2026-01-18 06:25:13.42	346.03	10.45	-38.9	-40.3	19.1	0.00e+00	0	42	0	287309824	48	4169
2026-01-18 06:25:14.41	345.87	10.49	-38.8	-40.2	19.2	0.00e+00	0	42	0	294649856	48	4105
2026-01-18 06:25:15.41	345.70	10.53	-38.8	-40.2	19.1	0.00e+00	0	42	0	300941312	48	4144
2026-01-18 06:25:16.40	345.54	10.57	-38.7	-40.1	19.3	0.00e+00	0	42	0	308281344	48	4064
2026-01-18 06:25:17.39	345.38	10.61	-38.5	-39.9	19.2	0.00e+00	0	42	0	315621376	47	4239
2026-01-18 06:25:18.39	345.22	10.65	-38.6	-40.1	19.1	0.00e+00	0	42	0	322961408	47	4297
2026-01-18 06:25:19.38	345.06	10.69	-38.4	-39.8	19.3	0.00e+00	0	42	0	330301440	47	4186
2026-01-18 06:25:20.39	344.89	10.73	-38.6	-40.0	19.1	0.00e+00	0	42	0	337641472	47	4272
2026-01-18 06:25:21.39	344.72	10.77	-38.4	-39.8	19.3	0.00e+00	0	42	0	344981504	47	4154
2026-01-18 06:25:22.45	344.55	10.81	-38.5	-39.8	19.3	0.00e+00	0	42	0	352321536	47	4163
2026-01-18 06:25:23.38	344.39	10.84	-38.4	-39.7	19.4	0.00e+00	0	42	0	358612992	47	4135
2026-01-18 06:25:24.50	344.21	10.89	-38.3	-39.6	19.6	0.00e+00	0	42	0	367001600	47	4060
2026-01-18 06:25:25.35	344.07	10.92	-38.4	-39.6	19.5	0.00e+00	0	42	0	373293056	47	4065
2026-01-18 06:25:26.49	343.87	10.96	-38.4	-39.6	19.5	0.00e+00	0	42	0	381681664	47	4057
2026-01-18 06:25:27.34	343.73	11.00	-38.4	-39.6	19.5	0.00e+00	0	42	0	387973120	47	4058
2026-01-18 06:25:28.48	343.54	11.04	-38.3	-39.5	19.6	0.00e+00	0	42	0	396361728	47	4048
2026-01-18 06:25:29.33	343.40	11.07	-38.4	-39.6	19.5	0.00e+00	0	42	0	401604608	47	4091
2026-01-18 06:25:30.47	343.20	11.11	-38.4	-39.6	19.5	0.00e+00	0	42	0	409993216	47	4083
2026-01-18 06:25:31.33	343.06	11.14	-38.6	-39.8	19.3	0.00e+00	0	42	0	416284672	47	4175
2026-01-18 06:25:32.46	342.87	11.19	-38.7	-39.9	19.2	0.00e+00	0	42	0	424673280	47	4214
2026-01-18 06:25:33.32	342.72	11.22	-38.5	-39.7	19.4	0.00e+00	0	42	0	430964736	47	4140
2026-01-18 06:25:34.47	342.52	11.26	-38.6	-39.8	19.4	0.00e+00	0	42	0	439353344	47	4154
2026-01-18 06:25:35.32	342.38	11.29	-38.7	-39.9	19.3	0.00e+00	0	42	0	445644800	47	4215
2026-01-18 06:25:36.46	342.18	11.33	-38.7	-39.9	19.3	0.00e+00	0	42	0	452984832	47	4201
2026-01-18 06:25:37.31	342.03	11.36	-38.7	-39.9	19.2	0.00e+00	0	42	0	459276288	47	4234
2026-01-18 06:25:38.57	341.82	11.41	-38.7	-39.9	19.3	0.00e+00	0	42	0	468713472	47	4200
2026-01-18 06:25:39.37	341.68	11.44	-38.6	-39.8	19.3	0.00e+00	0	42	0	475004928	47	4170
2026-01-18 06:25:40.62	341.46	11.48	-38.4	-39.6	19.6	0.00e+00	0	42	0	483393536	47	4058
2026-01-18 06:25:41.47	341.31	11.51	-38.3	-39.5	19.7	0.00e+00	0	42	0	489684992	47	4010
2026-01-18 06:25:42.61	341.11	11.55	-38.3	-39.4	19.7	0.00e+00	0	42	0	498073600	47	3986
2026-01-18 06:25:43.46	340.97	11.58	-38.2	-39.3	19.8	0.00e+00	0	42	0	503316480	47	3943
2026-01-18 06:25:44.60	340.77	11.62	-38.1	-39.2	19.9	0.00e+00	0	42	0	511705088	47	3895
2026-01-18 06:25:45.45	340.62	11.65	-38.2	-39.2	19.9	0.00e+00	0	42	0	517996544	47	3907
2026-01-18 06:25:46.59	340.42	11.69	-38.2	-39.3	19.8	0.00e+00	0	42	0	526385152	47	3933
2026-01-18 06:25:47.53	340.25	11.72	-38.3	-39.4	19.7	0.00e+00	0	42	0	533725184	47	3987
2026-01-18 06:25:48.53	340.07	11.75	-38.3	-39.5	19.7	0.00e+00	0	42	0	541065216	47	4007
2026-01-18 06:25:49.52	339.90	11.79	-38.4	-39.6	19.5	0.00e+00	0	42	0	547356672	47	4067
2026-01-18 06:25:50.52	339.72	11.82	-38.3	-39.5	19.6	0.00e+00	0	42	0	554696704	47	4044
2026-01-18 06:25:51.51	339.54	11.85	-38.3	-39.5	19.6	0.00e+00	0	42	0	562036736	47	4042
2026-01-18 06:25:52.51	339.36	11.89	-38.5	-39.6	19.6	0.00e+00	0	42	0	569376768	47	4074
2026-01-18 06:25:53.50	339.19	11.92	-38.6	-39.7	19.5	0.00e+00	0	42	0	576716800	47	4125
2026-01-18 06:25:54.50	339.01	11.95	-38.6	-39.7	19.5	0.00e+00	0	42	0	584056832	47	4102
2026-01-18 06:25:55.49	338.83	11.98	-38.7	-39.8	19.4	0.00e+00	0	42	0	590348288	47	4152
2026-01-18 06:25:56.49	338.65	12.02	-38.6	-39.7	19.5	0.00e+00	0	42	0	597688320	47	4129
2026-01-18 06:25:57.48	338.47	12.05	-38.7	-39.8	19.3	0.00e+00	0	42	0	605028352	47	4191
2026-01-18 06:25:58.48	338.29	12.08	-38.5	-39.7	19.5	0.00e+00	0	42	0	612368384	47	4113
2026-01-18 06:25:59.47	338.11	12.11	-38.4	-39.6	19.6	0.00e+00	0	42	0	619708416	47	4054
2026-01-18 06:26:00.47	337.93	12.14	-38.4	-39.6	19.6	0.00e+00	0	42	0	627048448	47	4077
2026-01-18 06:26:01.46	337.75	12.17	-38.5	-39.7	19.5	0.00e+00	0	42	0	633339904	47	4105
2026-01-18 06:26:02.46	337.57	12.20	-38.5	-39.7	19.4	0.00e+00	0	42	0	640679936	47	4133
2026-01-18 06:26:03.46	337.38	12.23	-38.5	-39.7	19.5	0.00e+00	0	42	0	648019968	47	4123
2026-01-18 06:26:04.45	337.20	12.26	-38.4	-39.6	19.6	0.00e+00	0	42	0	655360000	47	4060
2026-01-18 06:26:05.45	337.02	12.29	-38.4	-39.5	19.7	0.00e+00	0	42	0	662700032	47	4036
2026-01-18 06:26:06.44	336.84	12.32	-38.4	-39.5	19.6	0.00e+00	0	42	0	670040064	47	4037
2026-01-18 06:26:07.44	336.65	12.35	-38.3	-39.4	19.8	0.00e+00	0	42	0	677380096	47	3984
2026-01-18 06:26:08.43	336.47	12.38	-38.3	-39.5	19.7	0.00e+00	0	42	0	684720128	47	4012
2026-01-18 06:26:09.42	336.28	12.41	-38.2	-39.3	19.8	0.00e+00	0	42	0	691011584	47	3953
2026-01-18 06:26:10.42	336.10	12.43	-38.2	-39.3	19.8	0.00e+00	0	42	0	698351616	47	3939
2026-01-18 06:26:11.41	335.91	12.46	-38.3	-39.3	19.9	0.00e+00	0	42	0	705691648	47	3939
2026-01-18 06:26:12.41	335.73	12.49	-38.1	-39.1	20.0	0.00e+00	0	42	0	713031680	47	3858
2026-01-18 06:26:13.40	335.54	12.52	-38.1	-39.1	20.1	0.00e+00	0	42	0	720371712	46	4059
2026-01-18 06:26:14.40	335.36	12.55	-37.9	-38.9	20.3	0.00e+00	0	42	0	727711744	46	3975
2026-01-18 06:26:15.39	335.17	12.57	-38.0	-39.0	20.2	0.00e+00	0	42	0	734003200	46	4020
2026-01-18 06:26:16.39	334.98	12.60	-37.8	-38.8	20.4	0.00e+00	0	42	0	741343232	46	3928
2026-01-18 06:26:17.38	334.80	12.63	-37.9	-38.9	20.3	0.00e+00	0	42	0	748683264	46	3963
2026-01-18 06:26:18.44	334.60	12.65	-37.9	-38.9	20.2	0.00e+00	0	42	0	756023296	46	3977
2026-01-18 06:26:19.34	334.43	12.68	-37.9	-38.9	20.3	0.00e+00	0	42	0	763363328	46	3963
2026-01-18 06:26:20.36	334.23	12.70	-38.0	-39.0	20.2	0.00e+00	0	42	0	770703360	46	4023
2026-01-18 06:26:21.36	334.05	12.73	-37.8	-38.8	20.4	0.00e+00	0	42	0	776994816	46	3922
2026-01-18 06:26:22.35	333.86	12.75	-37.9	-38.8	20.3	0.00e+00	0	42	0	784334848	46	3950
2026-01-18 06:26:23.35	333.67	12.78	-37.9	-38.8	20.3	0.00e+00	0	42	0	791674880	46	3953
2026-01-18 06:26:24.34	333.48	12.80	-38.0	-38.9	20.2	0.00e+00	0	42	0	799014912	46	3999
2026-01-18 06:26:25.34	333.29	12.83	-37.9	-38.9	20.3	0.00e+00	0	42	0	806354944	46	3983
2026-01-18 06:26:26.33	333.10	12.85	-38.1	-39.1	20.1	0.00e+00	0	42	0	813694976	46	4079
2026-01-18 06:26:27.32	332.91	12.88	-38.1	-39.1	20.0	0.00e+00	0	42	0	821035008	46	4089
2026-01-18 06:26:28.32	332.72	12.90	-38.3	-39.3	19.9	0.00e+00	0	42	0	827326464	46	4160
2026-01-18 06:26:29.31	332.53	12.92	-38.3	-39.3	19.9	0.00e+00	0	42	0	834666496	46	4184
2026-01-18 06:26:30.31	332.34	12.95	-38.4	-39.4	19.8	0.00e+00	0	42	0	842006528	46	4220
2026-01-18 06:26:31.30	332.14	12.97	-38.2	-39.3	19.9	0.00e+00	0	42	0	849346560	46	4149
2026-01-18 06:26:32.30	331.95	12.99	-38.3	-39.3	19.9	0.00e+00	0	42	0	856686592	46	4183
2026-01-18 06:26:33.35	331.75	13.01	-38.3	-39.3	19.9	0.00e+00	0	42	0	864026624	46	4177
2026-01-18 06:26:34.25	331.57	13.03	-38.3	-39.3	19.9	0.00e+00	0	42	0	870318080	46	4182
2026-01-18 06:26:35.28	331.38	13.05	-38.2	-39.1	20.1	0.00e+00	0	42	0	877658112	46	4087
2026-01-18 06:26:36.43	331.15	13.08	-38.2	-39.2	20.0	0.00e+00	0	42	0	886046720	46	4105
2026-01-18 06:26:37.30	330.98	13.10	-38.2	-39.2	20.0	0.00e+00	0	42	0	892338176	46	4113
2026-01-18 06:26:38.44	330.76	13.12	-37.9	-38.9	20.3	0.00e+00	0	42	0	900726784	46	3965
2026-01-18 06:26:39.29	330.60	13.14	-37.9	-38.9	20.3	0.00e+00	0	42	0	907018240	46	3960
2026-01-18 06:26:40.43	330.37	13.16	-37.8	-38.7	20.5	0.00e+00	0	42	0	915406848	46	3903
2026-01-18 06:26:41.28	330.21	13.18	-37.8	-38.7	20.4	0.00e+00	0	42	0	921698304	46	3913
2026-01-18 06:26:42.42	329.98	13.20	-37.7	-38.7	20.5	0.00e+00	0	42	0	929038336	46	3874
2026-01-18 06:26:43.27	329.82	13.22	-37.6	-38.6	20.6	0.00e+00	0	42	0	936378368	46	3826
2026-01-18 06:26:44.41	329.59	13.24	-37.7	-38.7	20.4	0.00e+00	0	42	0	943718400	46	3879
2026-01-18 06:26:45.27	329.42	13.25	-37.8	-38.7	20.4	0.00e+00	0	42	0	950009856	46	3913
2026-01-18 06:26:46.40	329.20	13.27	-37.9	-38.9	20.3	0.00e+00	0	42	0	958398464	46	3967
2026-01-18 06:26:47.25	329.03	13.29	-38.0	-38.9	19.5	0.00e+00	0	42	0	964689920	46	4003
2026-01-18 06:26:48.39	328.81	13.31	-37.9	-38.8	20.3	0.00e+00	0	42	0	973078528	46	3956
2026-01-18 06:26:49.24	328.64	13.32	-37.7	-38.7	20.5	0.00e+00	0	42	0	978321408	46	3894
2026-01-18 06:26:50.47	328.40	13.34	-37.8	-38.8	20.4	0.00e+00	0	42	0	987758592	46	3942
2026-01-18 06:26:51.33	328.23	13.36	-37.7	-38.7	20.4	0.00e+00	0	42	0	994050048	46	3891
2026-01-18 06:26:52.53	327.99	13.38	-37.9	-38.8	20.3	0.00e+00	0	42	0	1002438656	46	3952
2026-01-18 06:26:53.38	327.82	13.39	-37.8	-38.7	20.4	0.00e+00	0	42	0	1008730112	46	3905
2026-01-18 06:26:54.52	327.60	13.41	-37.7	-38.7	20.5	0.00e+00	0	42	0	1017118720	46	3880
2026-01-18 06:26:55.37	327.43	13.42	-37.7	-38.7	20.5	0.00e+00	0	42	0	1022361600	46	3882
2026-01-18 06:26:56.63	327.18	13.44	-37.7	-38.8	20.4	0.00e+00	0	42	0	1031798784	46	3914
2026-01-18 06:26:57.45	327.01	13.45	-37.7	-38.8	20.4	0.00e+00	0	42	0	1038090240	46	3926
2026-01-18 06:26:58.69	326.77	13.47	-37.7	-38.8	20.4	0.00e+00	0	42	0	1047527424	46	3923
2026-01-18 06:26:59.54	326.60	13.48	-37.8	-38.8	20.3	0.00e+00	0	42	0	1052770304	46	3957
2026-01-18 06:27:00.68	326.37	13.49	-37.7	-38.8	20.4	0.00e+00	0	42	0	1061158912	46	3923
2026-01-18 06:27:01.53	326.20	13.50	-37.8	-38.8	20.4	0.00e+00	0	42	0	1067450368	46	3945
2026-01-18 06:27:02.67	325.97	13.52	-37.9	-38.9	20.3	0.00e+00	0	42	0	1075838976	46	3976
2026-01-18 06:27:03.52	325.80	13.53	-37.9	-39.0	20.2	0.00e+00	0	42	0	1082130432	46	4006
2026-01-18 06:27:04.66	325.57	13.54	-38.1	-39.2	20.0	0.00e+00	0	42	0	1089470464	46	4104
2026-01-18 06:27:05.61	325.38	13.55	-38.1	-39.2	20.0	0.00e+00	0	42	0	1096810496	46	4111
2026-01-18 06:27:06.78	325.14	13.57	-38.0	-39.1	20.1	0.00e+00	0	42	0	1105199104	46	4073
2026-01-18 06:27:07.66	324.97	13.58	-38.0	-39.1	20.1	0.00e+00	0	42	0	1111490560	46	4081
2026-01-18 06:27:08.80	324.74	13.59	-37.9	-39.0	20.2	0.00e+00	0	42	0	1119879168	46	4036
2026-01-18 06:27:09.65	324.57	13.60	-38.0	-39.1	20.1	0.00e+00	0	42	0	1126170624	46	4057
2026-01-18 06:27:11.01	324.29	13.61	-37.9	-38.9	20.3	0.00e+00	0	42	0	1135607808	46	3974
2026-01-18 06:27:11.72	324.15	13.62	-37.9	-39.0	20.2	0.00e+00	0	42	0	1140850688	46	4007
2026-01-18 06:27:13.22	323.85	13.63	-37.9	-38.9	20.3	0.00e+00	0	42	0	1151336448	46	3997
2026-01-18 06:27:13.93	323.70	13.64	-38.0	-39.0	20.2	0.00e+00	0	42	0	1157627904	46	4009
2026-01-18 06:27:15.21	323.45	13.65	-37.9	-38.9	20.3	0.00e+00	0	42	0	1166016512	46	3962
2026-01-18 06:27:15.94	323.30	13.65	-37.8	-38.7	20.5	0.00e+00	0	42	0	1171259392	46	3893
2026-01-18 06:27:17.22	323.04	13.66	-37.9	-38.8	20.4	0.00e+00	0	42	0	1180696576	46	3945
2026-01-18 06:27:17.96	322.89	13.67	-37.7	-38.6	20.5	0.00e+00	0	42	0	1185939456	46	3861
2026-01-18 06:27:19.24	322.63	13.68	-37.6	-38.6	20.6	0.00e+00	0	42	0	1195376640	46	3842
2026-01-18 06:27:19.95	322.49	13.68	-37.7	-38.7	20.5	0.00e+00	0	42	0	1200619520	46	3874
2026-01-18 06:27:21.23	322.23	13.69	-37.8	-38.8	20.4	0.00e+00	0	42	0	1210056704	46	3917
2026-01-18 06:27:21.94	322.08	13.70	-37.8	-38.8	20.4	0.00e+00	0	42	0	1215299584	46	3936
2026-01-18 06:27:23.21	321.83	13.70	-37.8	-38.8	20.4	0.00e+00	0	42	0	1223688192	46	3938
2026-01-18 06:27:24.08	321.65	13.71	-37.8	-38.8	20.4	0.00e+00	0	42	0	1229979648	46	3928
2026-01-18 06:27:25.50	321.36	13.71	-37.9	-38.9	20.3	0.00e+00	0	42	0	1240465408	46	3984
2026-01-18 06:27:26.21	321.22	13.72	-37.9	-38.9	20.3	0.00e+00	0	42	0	1245708288	46	3982
2026-01-18 06:27:27.49	320.96	13.72	-37.8	-38.8	20.5	0.00e+00	0	42	0	1255145472	46	3919
2026-01-18 06:27:28.22	320.81	13.72	-37.8	-38.8	20.4	0.00e+00	0	43	0	1260388352	46	3923
2026-01-18 06:27:29.75	320.50	13.73	-37.7	-38.7	20.5	0.00e+00	0	42	0	1270874112	46	3900
2026-01-18 06:27:30.46	320.35	13.73	-37.8	-38.7	20.5	0.00e+00	0	42	0	1276116992	46	3903
2026-01-18 06:27:31.74	320.09	13.73	-37.8	-38.8	20.4	0.00e+00	0	42	0	1285554176	46	3935
2026-01-18 06:27:32.45	319.95	13.74	-37.8	-38.8	20.4	0.00e+00	0	42	0	1290797056	46	3922
2026-01-18 06:27:33.73	319.69	13.74	-37.8	-38.8	20.4	0.00e+00	0	42	0	1300234240	46	3945
2026-01-18 06:27:34.44	319.54	13.74	-37.8	-38.7	20.5	0.00e+00	0	42	0	1305477120	46	3909
2026-01-18 06:27:35.72	319.28	13.74	-37.9	-38.9	20.3	0.00e+00	0	43	0	1314914304	46	3974
2026-01-18 06:27:36.43	319.14	13.74	-37.9	-38.9	20.3	0.00e+00	0	42	0	1319108608	46	3976
2026-01-18 06:27:37.72	318.88	13.74	-37.9	-38.9	20.3	0.00e+00	0	42	0	1328545792	46	3969
2026-01-18 06:27:38.43	318.73	13.74	-38.1	-39.1	20.1	0.00e+00	0	42	0	1333788672	46	4067
2026-01-18 06:27:39.71	318.47	13.74	-38.1	-39.0	20.2	0.00e+00	0	42	0	1343225856	46	4039
2026-01-18 06:27:40.42	318.33	13.74	-38.0	-38.9	20.2	0.00e+00	0	42	0	1348468736	46	3999
2026-01-18 06:27:41.70	318.07	13.74	-38.0	-39.0	20.2	0.00e+00	0	42	0	1357905920	46	4010
2026-01-18 06:27:42.42	317.92	13.74	-38.0	-39.0	20.3	0.00e+00	0	42	0	1363148800	46	4011
2026-01-18 06:27:43.71	317.66	13.74	-37.8	-38.8	20.4	0.00e+00	0	42	0	1371537408	46	3932
2026-01-18 06:27:44.42	317.51	13.74	-37.9	-38.9	20.3	0.00e+00	0	42	0	1376780288	46	3969
2026-01-18 06:27:45.70	317.25	13.73	-37.9	-38.8	20.4	0.00e+00	0	43	0	1386217472	46	3942
2026-01-18 06:27:46.70	317.05	13.73	-37.9	-38.9	20.3	0.00e+00	0	42	0	1393557504	46	3967
2026-01-18 06:27:47.69	316.85	13.73	-37.8	-38.8	20.4	0.00e+00	0	42	0	1400897536	46	3933
2026-01-18 06:27:48.69	316.64	13.72	-37.6	-38.6	20.6	0.00e+00	0	42	0	1408237568	46	3848
2026-01-18 06:27:49.68	316.44	13.72	-37.7	-38.7	20.5	0.00e+00	0	42	0	1415577600	46	3889
2026-01-18 06:27:50.68	316.24	13.71	-37.7	-38.7	20.5	0.00e+00	0	42	0	1422917632	46	3905
2026-01-18 06:27:51.67	316.04	13.71	-37.6	-38.6	20.6	0.00e+00	0	42	0	1429209088	46	3850
2026-01-18 06:27:52.66	315.84	13.70	-37.8	-38.7	20.5	0.00e+00	0	42	0	1436549120	46	3906
2026-01-18 06:27:53.66	315.63	13.70	-37.6	-38.6	20.6	0.00e+00	0	42	0	1443889152	46	3844
2026-01-18 06:27:54.73	315.42	13.69	-37.7	-38.6	20.5	0.00e+00	0	42	0	1451229184	45	4083
2026-01-18 06:27:55.63	315.23	13.69	-37.7	-38.6	20.5	0.00e+00	0	42	0	1458569216	45	4079
2026-01-18 06:27:56.91	314.98	13.68	-37.6	-38.6	20.6	0.00e+00	0	43	0	1466957824	45	4072
2026-01-18 06:27:57.62	314.83	13.67	-37.7	-38.7	20.4	0.00e+00	0	42	0	1472200704	45	4129
2026-01-18 06:27:59.12	314.53	13.66	-37.8	-38.8	20.4	0.00e+00	0	42	0	1482686464	45	4147
2026-01-18 06:27:59.83	314.38	13.66	-37.7	-38.7	20.5	0.00e+00	0	42	0	1487929344	45	4117
2026-01-18 06:28:01.17	314.11	13.65	-37.8	-38.7	20.4	0.00e+00	0	42	0	1498415104	45	4145
2026-01-18 06:28:01.88	313.97	13.64	-37.8	-38.7	20.4	0.00e+00	0	42	0	1503657984	45	4130
2026-01-18 06:28:03.22	313.70	13.63	-37.9	-38.8	20.3	0.00e+00	0	42	0	1513095168	45	4182
2026-01-18 06:28:03.93	313.55	13.62	-37.8	-38.8	20.3	0.00e+00	0	42	0	1518338048	45	4178
2026-01-18 06:28:05.28	313.28	13.61	-37.7	-38.7	20.4	0.00e+00	0	42	0	1527775232	45	4124
2026-01-18 06:28:05.99	313.14	13.60	-37.8	-38.8	20.4	0.00e+00	0	43	0	1533018112	45	4166
2026-01-18 06:28:07.27	312.88	13.59	-37.7	-38.6	20.5	0.00e+00	0	42	0	1541406720	45	4095
2026-01-18 06:28:07.99	312.74	13.58	-37.6	-38.6	20.5	0.00e+00	0	43	0	1547698176	45	4070
2026-01-18 06:28:09.28	312.48	13.57	-37.9	-38.8	20.3	0.00e+00	0	42	0	1557135360	45	4184
2026-01-18 06:28:10.00	312.33	13.56	-38.0	-39.0	20.2	0.00e+00	0	43	0	1561329664	45	4268
2026-01-18 06:28:11.28	312.07	13.55	-37.9	-38.9	20.2	0.00e+00	0	42	0	1570766848	45	4235
2026-01-18 06:28:12.01	311.93	13.54	-37.9	-38.9	20.2	0.00e+00	0	42	0	1576009728	45	4232
2026-01-18 06:28:13.29	311.67	13.52	-38.0	-39.0	20.2	0.00e+00	0	42	0	1585446912	45	4258
2026-01-18 06:28:14.00	311.53	13.51	-38.0	-39.0	20.2	0.00e+00	0	42	0	1590689792	45	4252
2026-01-18 06:28:15.28	311.27	13.50	-38.1	-39.0	20.1	0.00e+00	0	42	0	1600126976	45	4286
2026-01-18 06:28:16.02	311.12	13.49	-38.1	-39.1	20.1	0.00e+00	0	42	0	1605369856	45	4303
2026-01-18 06:28:17.30	310.87	13.47	-38.0	-39.0	20.1	0.00e+00	0	42	0	1614807040	45	4257
2026-01-18 06:28:18.03	310.72	13.46	-38.0	-39.0	20.2	0.00e+00	0	42	0	1620049920	45	4260
2026-01-18 06:28:19.31	310.47	13.44	-38.0	-39.0	20.1	0.00e+00	0	43	0	1628438528	45	4272
2026-01-18 06:28:20.02	310.32	13.43	-38.2	-39.2	20.0	0.00e+00	0	42	0	1634729984	45	4354
2026-01-18 06:28:21.30	310.07	13.41	-38.1	-39.1	20.0	0.00e+00	0	42	0	1643118592	45	4330
2026-01-18 06:28:22.01	309.93	13.40	-38.2	-39.2	19.9	0.00e+00	0	42	0	1648361472	45	4377
2026-01-18 06:28:23.29	309.67	13.38	-38.2	-39.2	19.9	0.00e+00	0	43	0	1657798656	46	4131
2026-01-18 06:28:24.02	309.53	13.37	-38.2	-39.2	19.9	0.00e+00	0	42	0	1663041536	46	4134
2026-01-18 06:28:25.30	309.27	13.35	-38.2	-39.2	19.9	0.00e+00	0	42	0	1672478720	46	4136
2026-01-18 06:28:26.03	309.13	13.34	-38.3	-39.3	19.9	0.00e+00	0	42	0	1677721600	46	4147
2026-01-18 06:28:27.31	308.88	13.32	-38.2	-39.2	20.0	0.00e+00	0	42	0	1686110208	46	4111
2026-01-18 06:28:28.02	308.74	13.30	-38.2	-39.2	20.0	0.00e+00	0	42	0	1691353088	46	4109
2026-01-18 06:28:29.29	308.49	13.28	-38.2	-39.2	20.0	0.00e+00	0	42	0	1700790272	46	4113
2026-01-18 06:28:30.02	308.34	13.27	-38.1	-39.1	20.1	0.00e+00	0	43	0	1706033152	46	4082
2026-01-18 06:28:31.30	308.09	13.25	-38.2	-39.2	20.0	0.00e+00	0	42	0	1715470336	46	4109
2026-01-18 06:28:32.01	307.95	13.23	-38.3	-39.3	19.9	0.00e+00	0	42	0	1720713216	46	4165
2026-01-18 06:28:33.29	307.70	13.21	-38.2	-39.2	20.0	0.00e+00	0	42	0	1730150400	46	4123
2026-01-18 06:28:34.00	307.56	13.20	-38.3	-39.3	19.9	0.00e+00	0	42	0	1735393280	46	4172
2026-01-18 06:28:35.28	307.31	13.17	-38.3	-39.3	19.9	0.00e+00	0	43	0	1744830464	46	4168
2026-01-18 06:28:36.19	307.13	13.15	-38.2	-39.2	20.0	0.00e+00	0	43	0	1751121920	46	4117
2026-01-18 06:28:37.49	306.88	13.13	-38.2	-39.2	20.0	0.00e+00	0	42	0	1760559104	46	4136
2026-01-18 06:28:38.20	306.74	13.11	-38.3	-39.3	19.9	0.00e+00	0	42	0	1765801984	46	4146
2026-01-18 06:28:39.83	306.42	13.08	-38.2	-39.2	20.0	0.00e+00	0	42	0	1777336320	46	4100
2026-01-18 06:28:40.40	306.31	13.07	-38.3	-39.2	19.9	0.00e+00	0	42	0	1781530624	46	4145
2026-01-18 06:28:42.10	305.98	13.03	-38.2	-39.2	20.0	0.00e+00	0	42	0	1793064960	46	4099
2026-01-18 06:28:42.75	305.85	13.02	-38.2	-39.2	20.0	0.00e+00	0	43	0	1798307840	46	4117
2026-01-18 06:28:44.17	305.58	12.98	-38.2	-39.2	20.0	0.00e+00	0	42	0	1807745024	46	4119
2026-01-18 06:28:44.88	305.44	12.97	-38.2	-39.2	20.0	0.00e+00	0	42	0	1814036480	46	4127
2026-01-18 06:28:46.16	305.19	12.94	-38.2	-39.2	20.0	0.00e+00	0	42	0	1822425088	46	4112
2026-01-18 06:28:47.01	305.03	12.92	-38.2	-39.2	20.0	0.00e+00	0	42	0	1828716544	46	4113
2026-01-18 06:28:48.15	304.81	12.89	-38.3	-39.3	19.9	0.00e+00	0	42	0	1837105152	46	4165
2026-01-18 06:28:49.19	304.61	12.87	-38.3	-39.3	19.9	0.00e+00	0	42	0	1844445184	46	4155
2026-01-18 06:28:50.31	304.39	12.84	-38.3	-39.2	19.9	0.00e+00	0	42	0	1852833792	46	4143
2026-01-18 06:28:51.24	304.22	12.82	-38.3	-39.3	19.8	0.00e+00	0	42	0	1859125248	46	4186
2026-01-18 06:28:52.23	304.03	12.79	-38.4	-39.4	19.8	0.00e+00	0	42	0	1866465280	46	4202
2026-01-18 06:28:53.44	303.80	12.76	-38.4	-39.4	19.7	0.00e+00	0	42	0	1874853888	46	4213
2026-01-18 06:28:54.32	303.63	12.74	-38.2	-39.2	20.0	0.00e+00	0	42	0	1882193920	46	4099
2026-01-18 06:28:55.46	303.41	12.71	-38.2	-39.2	20.0	0.00e+00	0	42	0	1889533952	46	4110
2026-01-18 06:28:56.31	303.25	12.69	-38.2	-39.2	19.9	0.00e+00	0	43	0	1895825408	46	4114
2026-01-18 06:28:57.44	303.04	12.66	-38.1	-39.1	20.0	0.00e+00	0	42	0	1904214016	46	4085
2026-01-18 06:28:58.30	302.87	12.64	-38.1	-39.1	20.0	0.00e+00	0	42	0	1910505472	46	4087
2026-01-18 06:28:59.44	302.66	12.61	-38.0	-39.0	20.1	0.00e+00	0	42	0	1918894080	46	4031
2026-01-18 06:29:00.29	302.50	12.59	-38.1	-39.1	20.0	0.00e+00	0	42	0	1925185536	46	4085
2026-01-18 06:29:01.42	302.29	12.56	-38.3	-39.3	19.8	0.00e+00	0	43	0	1933574144	46	4155
2026-01-18 06:29:02.28	302.13	12.53	-38.2	-39.2	19.9	0.00e+00	0	43	0	1938817024	46	4135
2026-01-18 06:29:03.41	301.91	12.50	-38.3	-39.3	19.9	0.00e+00	0	42	0	1947205632	46	4149
2026-01-18 06:29:04.27	301.75	12.48	-38.4	-39.4	19.8	0.00e+00	0	42	0	1953497088	46	4195
2026-01-18 06:29:05.40	301.54	12.45	-38.4	-39.4	19.7	0.00e+00	0	42	0	1961885696	46	4229
2026-01-18 06:29:06.26	301.38	12.42	-38.6	-39.5	19.6	0.00e+00	0	43	0	1968177152	46	4291
2026-01-18 06:29:07.50	301.15	12.39	-38.5	-39.5	19.6	0.00e+00	0	42	0	1976565760	46	4263
2026-01-18 06:29:08.36	300.99	12.36	-38.5	-39.5	19.6	0.00e+00	0	42	0	1982857216	46	4272
2026-01-18 06:29:09.49	300.78	12.33	-38.6	-39.6	19.5	0.00e+00	0	42	0	1991245824	46	4326
2026-01-18 06:29:10.34	300.62	12.30	-38.7	-39.7	19.4	0.00e+00	0	42	0	1997537280	46	4362
2026-01-18 06:29:11.61	300.39	12.26	-38.6	-39.6	19.5	0.00e+00	0	42	0	2005925888	46	4338
2026-01-18 06:29:12.42	300.24	12.24	-38.5	-39.5	19.6	0.00e+00	0	43	0	2012217344	46	4286
2026-01-18 06:29:13.56	300.03	12.21	-38.6	-39.6	19.6	0.00e+00	0	43	0	2020605952	46	4305
2026-01-18 06:29:14.42	299.87	12.18	-38.6	-39.6	19.5	0.00e+00	0	42	0	2026897408	46	4318
2026-01-18 06:29:15.56	299.67	12.14	-38.7	-39.7	19.5	0.00e+00	0	43	0	2035286016	46	4358
2026-01-18 06:29:16.41	299.51	12.12	-38.8	-39.8	19.3	0.00e+00	0	43	0	2040528896	46	4423
2026-01-18 06:29:17.55	299.30	12.08	-38.7	-39.7	19.4	0.00e+00	0	42	0	2048917504	47	4131
2026-01-18 06:29:18.40	299.15	12.06	-38.5	-39.5	19.6	0.00e+00	0	42	0	2055208960	47	4036
2026-01-18 06:29:19.54	298.94	12.02	-38.6	-39.6	19.5	0.00e+00	0	43	0	2063597568	47	4063
2026-01-18 06:29:20.39	298.79	11.99	-38.4	-39.4	19.7	0.00e+00	0	43	0	2069889024	47	3969
2026-01-18 06:29:21.53	298.58	11.96	-38.3	-39.3	19.8	0.00e+00	0	43	0	2078277632	47	3941
2026-01-18 06:29:22.38	298.43	11.93	-38.4	-39.3	19.8	0.00e+00	0	43	0	2084569088	47	3949
2026-01-18 06:29:23.52	298.22	11.89	-38.3	-39.3	19.8	0.00e+00	0	43	0	2091909120	47	3944
2026-01-18 06:29:24.37	298.07	11.86	-38.3	-39.2	19.8	0.00e+00	0	42	0	2098200576	47	3912
2026-01-18 06:29:25.51	297.87	11.83	-38.4	-39.4	19.7	0.00e+00	0	42	0	2106589184	47	3962
2026-01-18 06:29:26.36	297.72	11.80	-38.4	-39.4	19.7	0.00e+00	0	42	0	2112880640	47	3984
2026-01-18 06:29:27.50	297.51	11.76	-38.5	-39.5	19.6	0.00e+00	0	42	0	2121269248	47	4021
2026-01-18 06:29:28.35	297.36	11.73	-38.6	-39.6	19.5	0.00e+00	0	42	0	2127560704	47	4058
2026-01-18 06:29:29.49	297.16	11.69	-38.6	-39.6	19.5	0.00e+00	0	42	0	2135949312	47	4082
2026-01-18 06:29:30.34	297.01	11.66	-38.6	-39.6	19.5	0.00e+00	0	42	0	2142240768	47	4080
2026-01-18 06:29:31.47	296.81	11.62	-38.6	-39.6	19.5	0.00e+00	0	42	0	2149580800	47	4073
2026-01-18 06:29:32.33	296.66	11.59	-38.6	-39.6	19.5	0.00e+00	0	43	0	2155872256	47	4085
2026-01-18 06:29:33.46	296.46	11.55	-38.6	-39.6	19.5	0.00e+00	0	43	0	2164260864	47	4081
2026-01-18 06:29:34.32	296.31	11.52	-38.6	-39.6	19.4	0.00e+00	0	42	0	2170552320	47	4092
2026-01-18 06:29:35.45	296.11	11.48	-38.7	-39.7	19.3	0.00e+00	0	42	0	2178940928	47	4116
2026-01-18 06:29:36.30	295.96	11.45	-38.7	-39.7	19.4	0.00e+00	0	43	0	2184183808	47	4114
2026-01-18 06:29:37.44	295.77	11.41	-38.7	-39.7	19.3	0.00e+00	0	42	0	2192572416	47	4113
2026-01-18 06:29:38.30	295.62	11.38	-38.7	-39.8	19.3	0.00e+00	0	43	0	2198863872	47	4154
2026-01-18 06:29:39.43	295.42	11.34	-38.8	-39.8	19.2	0.00e+00	0	43	0	2207252480	47	4181
2026-01-18 06:29:40.28	295.27	11.31	-38.7	-39.8	19.3	0.00e+00	0	42	0	2213543936	47	4151
2026-01-18 06:29:41.42	295.08	11.27	-38.7	-39.7	19.3	0.00e+00	0	43	0	2221932544	47	4119
2026-01-18 06:29:42.27	294.93	11.24	-38.7	-39.7	19.3	0.00e+00	0	43	0	2228224000	47	4133
2026-01-18 06:29:43.41	294.74	11.20	-38.7	-39.7	19.3	0.00e+00	0	42	0	2235564032	47	4144
2026-01-18 06:29:44.26	294.59	11.17	-38.6	-39.7	19.4	0.00e+00	0	43	0	2241855488	47	4102
2026-01-18 06:29:45.51	294.38	11.12	-38.6	-39.6	19.4	0.00e+00	0	43	0	2251292672	47	4094
2026-01-18 06:29:46.36	294.23	11.09	-38.5	-39.6	19.5	0.00e+00	0	43	0	2257584128	47	4053
2026-01-18 06:29:47.50	294.04	11.04	-38.4	-39.4	19.6	0.00e+00	0	42	0	2265972736	47	3975
2026-01-18 06:29:48.35	293.90	11.01	-38.4	-39.4	19.6	0.00e+00	0	43	0	2271215616	47	3978
2026-01-18 06:29:49.62	293.68	10.96	-38.4	-39.4	19.6	0.00e+00	0	43	0	2280652800	47	3998
2026-01-18 06:29:50.39	293.55	10.93	-38.5	-39.4	19.6	0.00e+00	0	43	0	2286944256	47	4002
2026-01-18 06:29:51.67	293.34	10.88	-38.5	-39.5	19.5	0.00e+00	0	43	0	2295332864	47	4026
2026-01-18 06:29:52.38	293.22	10.86	-38.7	-39.7	19.3	0.00e+00	0	43	0	2300575744	47	4131
2026-01-18 06:29:53.66	293.00	10.81	-38.7	-39.7	19.3	0.00e+00	0	43	0	2310012928	47	4129
2026-01-18 06:29:54.37	292.89	10.78	-38.8	-39.8	19.2	0.00e+00	0	42	0	2315255808	47	4156
2026-01-18 06:29:55.65	292.67	10.73	-38.7	-39.8	19.2	0.00e+00	0	42	0	2324692992	47	4149
2026-01-18 06:29:56.36	292.56	10.70	-38.6	-39.6	19.3	0.00e+00	0	43	0	2329935872	47	4094
2026-01-18 06:29:57.63	292.35	10.65	-38.7	-39.8	19.2	0.00e+00	0	43	0	2338324480	47	4148
2026-01-18 06:29:58.35	292.23	10.62	-38.8	-39.8	19.2	0.00e+00	0	43	0	2343567360	47	4167
2026-01-18 06:29:59.63	292.02	10.57	-38.8	-39.8	19.2	0.00e+00	0	42	0	2353004544	47	4179
2026-01-18 06:30:00.51	291.87	10.54	-38.9	-39.9	19.1	0.00e+00	0	43	0	2359296000	47	4210
2026-01-18 06:30:01.65	291.69	10.49	-38.8	-39.8	19.2	0.00e+00	0	43	0	2367684608	47	4184
2026-01-18 06:30:02.50	291.55	10.46	-38.9	-39.9	19.1	0.00e+00	0	43	0	2373976064	47	4233
2026-01-18 06:30:03.64	291.36	10.41	-38.9	-39.9	19.1	0.00e+00	0	43	0	2382364672	47	4220
2026-01-18 06:30:04.49	291.23	10.38	-39.0	-40.0	19.0	0.00e+00	0	43	0	2388656128	47	4271
2026-01-18 06:30:05.63	291.04	10.33	-39.0	-40.0	19.0	0.00e+00	0	42	0	2397044736	47	4278
2026-01-18 06:30:06.80	290.85	10.28	-39.0	-40.1	18.9	0.00e+00	0	43	0	2404384768	47	4299
2026-01-18 06:30:07.82	290.69	10.24	-38.9	-40.0	19.0	0.00e+00	0	43	0	2412773376	47	4265
2026-01-18 06:30:08.82	290.53	10.20	-38.9	-40.0	19.1	0.00e+00	0	42	0	2419064832	47	4244
2026-01-18 06:30:10.01	290.34	10.15	-38.9	-40.0	19.0	0.00e+00	0	43	0	2427453440	47	4258
2026-01-18 06:30:10.87	290.20	10.12	-38.8	-39.9	19.1	0.00e+00	0	43	0	2433744896	47	4200
2026-01-18 06:30:12.00	290.02	10.07	-38.8	-39.8	19.1	0.00e+00	0	43	0	2442133504	47	4193
2026-01-18 06:30:12.86	289.89	10.03	-38.9	-40.0	19.0	0.00e+00	0	43	0	2448424960	47	4260
2026-01-18 06:30:13.99	289.71	9.99	-38.9	-39.9	19.1	0.00e+00	0	43	0	2456813568	47	4211
2026-01-18 06:30:14.84	289.58	9.95	-38.9	-39.9	19.0	0.00e+00	0	43	0	2463105024	47	4221
2026-01-18 06:30:15.98	289.40	9.90	-39.0	-40.1	18.9	0.00e+00	0	43	0	2471493632	47	4292
2026-01-18 06:30:16.84	289.26	9.87	-38.9	-40.0	19.0	0.00e+00	0	42	0	2477785088	47	4256
2026-01-18 06:30:17.97	289.09	9.82	-38.9	-40.0	19.0	0.00e+00	0	43	0	2486173696	47	4262
2026-01-18 06:30:18.82	288.95	9.78	-39.1	-40.1	18.8	0.00e+00	0	43	0	2491416576	47	4336
2026-01-18 06:30:19.96	288.78	9.73	-39.0	-40.1	18.9	0.00e+00	0	43	0	2499805184	47	4313
2026-01-18 06:30:20.81	288.65	9.70	-39.0	-40.0	18.9	0.00e+00	0	43	0	2506096640	47	4281
2026-01-18 06:30:22.01	288.46	9.64	-38.8	-39.8	19.1	0.00e+00	0	42	0	2514485248	47	4186
2026-01-18 06:30:22.87	288.33	9.61	-38.9	-40.0	19.0	0.00e+00	0	43	0	2520776704	47	4261
2026-01-18 06:30:24.00	288.16	9.56	-38.9	-39.9	19.0	0.00e+00	0	43	0	2529165312	47	4220
2026-01-18 06:30:24.85	288.03	9.52	-38.9	-39.9	19.0	0.00e+00	0	43	0	2535456768	47	4232
2026-01-18 06:30:25.99	287.85	9.47	-39.0	-40.0	18.9	0.00e+00	0	43	0	2543845376	47	4291
2026-01-18 06:30:26.84	287.72	9.44	-38.9	-40.0	18.9	0.00e+00	0	43	0	2549088256	47	4255
2026-01-18 06:30:28.10	287.53	9.38	-39.0	-40.1	18.8	0.00e+00	0	43	0	2558525440	47	4319
2026-01-18 06:30:28.86	287.42	9.35	-39.1	-40.2	18.7	0.00e+00	0	42	0	2563768320	47	4361
2026-01-18 06:30:30.14	287.23	9.29	-39.1	-40.2	18.7	0.00e+00	0	42	0	2573205504	47	4343
2026-01-18 06:30:30.87	287.12	9.26	-38.9	-40.0	19.0	0.00e+00	0	43	0	2578448384	47	4248
2026-01-18 06:30:32.14	286.93	9.20	-38.9	-40.0	18.9	0.00e+00	0	43	0	2587885568	47	4259
2026-01-18 06:30:32.87	286.82	9.17	-39.1	-40.1	18.8	0.00e+00	0	43	0	2593128448	47	4331
2026-01-18 06:30:34.15	286.63	9.11	-39.1	-40.1	18.7	0.00e+00	0	42	0	2602565632	47	4340
2026-01-18 06:30:34.86	286.52	9.08	-39.0	-40.1	18.8	0.00e+00	0	42	0	2607808512	47	4317
2026-01-18 06:30:36.14	286.33	9.03	-39.1	-40.2	18.7	0.00e+00	0	42	0	2616197120	47	4383
2026-01-18 06:30:37.01	286.21	8.99	-49.1	-56.4	4.4	2.84e-02	0	43	0	2622488576	67	8952
2026-01-18 06:30:38.14	286.04	8.94	-50.1	-60.7	3.8	8.47e-01	0	42	104	2622488576	69	13043
2026-01-18 06:30:39.20	285.89	8.89	-50.2	-60.8	3.8	8.47e-01	0	42	104	2622488576	69	13232
2026-01-18 06:30:40.27	285.73	8.84	-50.3	-61.0	3.8	8.45e-01	0	43	104	2622488576	70	12748
2026-01-18 06:30:41.26	285.59	8.80	-50.3	-61.1	3.8	8.47e-01	0	42	104	2622488576	70	12852
2026-01-18 06:30:42.41	285.42	8.74	-50.3	-61.1	3.8	8.46e-01	0	43	104	2622488576	70	12883
2026-01-18 06:30:43.29	285.29	8.70	-50.4	-61.1	3.8	8.46e-01	0	42	104	2622488576	70	12915
2026-01-18 06:30:44.60	285.10	8.65	-50.5	-61.1	3.8	8.47e-01	0	43	104	2622488576	70	12947
2026-01-18 06:30:45.31	285.00	8.61	-50.5	-61.1	3.8	8.47e-01	0	43	104	2622488576	70	12929
2026-01-18 06:30:46.81	284.79	8.54	-50.5	-61.2	3.8	8.47e-01	0	43	104	2622488576	70	12981
2026-01-18 06:30:47.52	284.69	8.51	-50.5	-61.2	3.8	8.48e-01	0	43	104	2622488576	70	12971
2026-01-18 06:30:48.86	284.50	8.45	-50.5	-61.2	3.8	8.46e-01	0	43	104	2622488576	70	13022
2026-01-18 06:30:49.57	284.40	8.42	-50.5	-61.2	3.8	8.47e-01	0	43	104	2622488576	70	13043
2026-01-18 06:30:50.85	284.22	8.36	-50.4	-61.2	3.8	8.46e-01	0	43	104	2622488576	70	13068
2026-01-18 06:30:51.57	284.11	8.33	-50.5	-61.2	3.8	8.46e-01	0	42	104	2622488576	70	12989
2026-01-18 06:30:52.85	283.94	8.27	-50.4	-61.2	3.8	8.47e-01	0	43	104	2622488576	70	12964
2026-01-18 06:30:53.56	283.84	8.24	-50.5	-61.1	3.8	8.47e-01	0	43	104	2622488576	70	12876
2026-01-18 06:30:54.85	283.66	8.18	-50.4	-61.1	3.8	8.48e-01	0	43	104	2622488576	70	12910
2026-01-18 06:30:55.56	283.56	8.14	-50.3	-61.1	3.8	8.47e-01	0	42	104	2622488576	70	12874
2026-01-18 06:30:56.84	283.38	8.08	-50.2	-61.0	3.8	8.46e-01	0	43	104	2622488576	70	12805
2026-01-18 06:30:57.55	283.28	8.05	-50.2	-61.0	3.8	8.47e-01	0	43	104	2622488576	70	12772
2026-01-18 06:30:58.82	283.11	7.99	-50.0	-61.0	3.8	8.48e-01	0	43	104	2622488576	70	12757
2026-01-18 06:30:59.54	283.01	7.96	-50.0	-61.0	3.8	8.48e-01	0	42	104	2622488576	70	12714
2026-01-18 06:31:00.81	282.84	7.90	-50.0	-61.0	3.8	8.47e-01	0	43	104	2622488576	70	12714
2026-01-18 06:31:01.52	282.74	7.87	-50.0	-61.0	3.8	8.47e-01	0	43	104	2622488576	70	12685
2026-01-18 06:31:02.80	282.57	7.81	-50.0	-61.0	3.8	8.47e-01	0	43	104	2622488576	70	12704
2026-01-18 06:31:03.51	282.47	7.77	-50.0	-60.9	3.8	8.46e-01	0	43	104	2622488576	70	12661
2026-01-18 06:31:04.79	282.30	7.71	-50.0	-60.9	3.8	8.46e-01	0	43	104	2622488576	70	12653
2026-01-18 06:31:05.50	282.20	7.68	-50.0	-60.9	3.8	8.46e-01	0	43	104	2622488576	70	12654
2026-01-18 06:31:06.77	282.03	7.62	-50.0	-60.9	3.8	8.47e-01	0	43	104	2622488576	70	12628
2026-01-18 06:31:07.48	281.94	7.59	-50.0	-60.9	3.8	8.47e-01	0	43	104	2622488576	70	12614
2026-01-18 06:31:08.76	281.77	7.53	-50.0	-60.9	3.8	8.47e-01	0	42	104	2622488576	70	12599
2026-01-18 06:31:09.47	281.67	7.49	-50.0	-60.9	3.8	8.46e-01	0	43	104	2622488576	70	12618
2026-01-18 06:31:10.75	281.50	7.43	-50.0	-61.0	3.8	8.47e-01	0	43	104	2622488576	70	12677
2026-01-18 06:31:11.46	281.41	7.40	-50.0	-61.0	3.8	8.47e-01	0	42	104	2622488576	70	12696
2026-01-18 06:31:12.73	281.24	7.34	-50.0	-60.9	3.8	8.47e-01	0	43	104	2622488576	70	12543
2026-01-18 06:31:13.44	281.15	7.31	-49.9	-60.9	3.8	8.47e-01	0	43	104	2622488576	70	12623
2026-01-18 06:31:14.72	280.98	7.25	-50.0	-60.9	3.8	8.47e-01	0	42	104	2622488576	70	12539
2026-01-18 06:31:15.43	280.89	7.21	-49.9	-60.9	3.8	8.47e-01	0	43	104	2622488576	70	12587
2026-01-18 06:31:16.71	280.73	7.15	-49.9	-60.9	3.8	8.47e-01	0	43	104	2622488576	70	12527
2026-01-18 06:31:17.42	280.63	7.12	-49.9	-60.8	3.8	8.47e-01	0	42	104	2622488576	70	12508
2026-01-18 06:31:18.69	280.47	7.06	-49.9	-60.9	3.8	8.47e-01	0	43	104	2622488576	70	12576
2026-01-18 06:31:19.42	280.38	7.02	-49.9	-60.9	3.8	8.47e-01	0	43	104	2622488576	70	12655
2026-01-18 06:31:20.69	280.22	6.96	-49.9	-60.9	3.8	8.47e-01	0	43	104	2622488576	70	12542
2026-01-18 06:31:21.40	280.12	6.93	-49.9	-60.9	3.8	8.46e-01	0	43	104	2622488576	70	12583
2026-01-18 06:31:22.68	279.96	6.87	-49.9	-60.8	3.8	8.46e-01	0	43	104	2622488576	70	12489
2026-01-18 06:31:23.39	279.87	6.83	-49.9	-60.9	3.8	8.47e-01	0	43	104	2622488576	70	12582
2026-01-18 06:31:24.67	279.71	6.77	-49.9	-60.9	3.8	8.47e-01	0	43	104	2622488576	70	12547
2026-01-18 06:31:25.38	279.62	6.74	-49.9	-60.8	3.8	8.46e-01	0	43	104	2622488576	70	12492
2026-01-18 06:31:26.65	279.46	6.68	-49.9	-60.9	3.8	8.47e-01	0	43	104	2622488576	70	12552
2026-01-18 06:31:27.37	279.37	6.64	-49.9	-60.9	3.8	8.47e-01	0	43	104	2622488576	70	12524
2026-01-18 06:31:28.64	279.21	6.58	-49.9	-60.9	3.8	8.47e-01	0	43	104	2622488576	70	12550
2026-01-18 06:31:29.35	279.13	6.55	-49.9	-60.9	3.8	8.47e-01	0	43	104	2622488576	70	12555
2026-01-18 06:31:30.63	278.97	6.48	-49.9	-60.9	3.8	8.46e-01	0	42	104	2622488576	70	12634
2026-01-18 06:31:31.34	278.88	6.45	-49.9	-60.8	3.8	8.47e-01	0	43	104	2622488576	70	12462
2026-01-18 06:31:32.62	278.72	6.39	-49.9	-60.8	3.8	8.48e-01	0	43	104	2622488576	70	12514
2026-01-18 06:31:33.33	278.64	6.35	-49.9	-60.9	3.8	8.46e-01	0	42	104	2622488576	70	12545
2026-01-18 06:31:34.60	278.48	6.29	-49.9	-60.9	3.8	8.47e-01	0	43	104	2622488576	70	12574
2026-01-18 06:31:35.31	278.39	6.26	-49.9	-60.8	3.8	8.47e-01	0	43	104	2622488576	70	12488
2026-01-18 06:31:36.59	278.24	6.20	-49.9	-60.8	3.8	8.47e-01	0	43	104	2622488576	70	12483
2026-01-18 06:31:37.30	278.15	6.16	-49.9	-60.9	3.8	8.48e-01	0	43	104	2622488576	70	12540
2026-01-18 06:31:38.58	278.00	6.10	-49.9	-60.9	3.8	8.48e-01	0	43	104	2622488576	70	12525
2026-01-18 06:31:39.32	277.91	6.07	-49.9	-60.8	3.8	8.46e-01	0	43	104	2622488576	70	12507
2026-01-18 06:31:40.59	277.76	6.00	-49.9	-60.9	3.8	8.48e-01	0	43	104	2622488576	70	12527
2026-01-18 06:31:41.30	277.67	5.97	-49.9	-60.9	3.8	8.47e-01	0	43	104	2622488576	70	12578
2026-01-18 06:31:42.58	277.52	5.91	-49.9	-60.8	3.8	8.46e-01	0	43	104	2622488576	70	12448
2026-01-18 06:31:43.31	277.44	5.87	-49.9	-60.8	3.8	8.48e-01	0	43	104	2622488576	70	12471
2026-01-18 06:31:44.58	277.29	5.81	-49.9	-60.9	3.8	8.46e-01	0	43	104	2622488576	70	12589
2026-01-18 06:31:45.29	277.20	5.78	-49.9	-60.8	3.8	8.46e-01	0	43	104	2622488576	70	12452
2026-01-18 06:31:46.57	277.05	5.71	-49.9	-60.8	3.8	8.47e-01	0	43	104	2622488576	70	12472
2026-01-18 06:31:47.28	276.97	5.68	-49.9	-60.9	3.8	8.47e-01	0	43	104	2622488576	70	12532
2026-01-18 06:31:48.56	276.82	5.62	-49.9	-60.8	3.8	8.47e-01	0	43	104	2622488576	70	12512
2026-01-18 06:31:49.27	276.74	5.58	-49.9	-60.9	3.8	8.47e-01	0	43	104	2622488576	70	12560
2026-01-18 06:31:50.54	276.59	5.52	-49.9	-60.9	3.8	8.46e-01	0	43	104	2622488576	70	12564
2026-01-18 06:31:51.25	276.51	5.49	-49.9	-60.8	3.8	8.46e-01	0	43	104	2622488576	70	12465
2026-01-18 06:31:52.53	276.36	5.43	-49.9	-60.8	3.8	8.47e-01	0	43	104	2622488576	70	12515
2026-01-18 06:31:53.24	276.28	5.39	-49.9	-60.8	3.8	8.47e-01	0	43	104	2622488576	70	12511
2026-01-18 06:31:54.52	276.14	5.33	-49.9	-60.8	3.8	8.47e-01	0	43	104	2622488576	70	12472
2026-01-18 06:31:55.24	276.05	5.29	-49.9	-60.8	3.8	8.46e-01	0	43	104	2622488576	70	12457
2026-01-18 06:31:56.52	275.91	5.23	-49.9	-60.8	3.8	8.47e-01	0	43	104	2622488576	70	12449
2026-01-18 06:31:57.24	275.83	5.20	-49.9	-60.8	3.8	8.48e-01	0	43	104	2622488576	70	12461
2026-01-18 06:31:58.52	275.68	5.13	-49.9	-60.8	3.8	8.47e-01	0	43	104	2622488576	70	12511
2026-01-18 06:31:59.23	275.60	5.10	-49.9	-60.8	3.8	8.47e-01	0	43	104	2622488576	70	12488
2026-01-18 06:32:00.51	275.46	5.04	-49.9	-60.8	3.8	8.47e-01	0	43	104	2622488576	70	12407
2026-01-18 06:32:01.21	275.38	5.00	-49.9	-60.9	3.8	8.46e-01	0	43	104	2622488576	70	12525

#Closed at: 2026-01-18 06:32:02
#Recorded file [2622 MB]: D:/Data/31040_260118_092313.dat