passes_logs/2026/01/18/T1/T1__20260118_222017_SUOMI_NPP_rec.log

#Pass ID: 20260118_222017_SUOMI NPP
#Satellite: SUOMI NPP
#Configuration: NPP
#almurnet v.1.7.20251203
#Start time: 2026-01-18 22:20:19

#Version: 2.0.20230620
#Station: T1
#Location: 37.570604 lon 55.790049 lat
#TLE: 1 37849U 11061A   26017.92342359  .00000077  00000+0  57567-4 0  9990
#TLE: 2 37849  98.7814 319.9468 0002389  58.5705 301.5704 14.19525998737125

#Time	Az	El	Level	Level2	SNR	BER	BlckErr	Temp	State	Recorded	gain1	gain2
2026-01-18 22:20:19.92	28.83	5.12	-49.3	-64.7	3.8	1.49e+00	0	37	0	0	70	20987
2026-01-18 22:20:20.90	28.91	5.18	-49.2	-64.7	3.8	1.49e+00	0	37	104	0	69	22179
2026-01-18 22:20:21.90	28.99	5.24	-49.2	-64.7	3.8	1.49e+00	0	37	104	0	69	22152
2026-01-18 22:20:22.89	29.08	5.30	-49.2	-64.7	3.8	1.49e+00	0	37	104	0	69	22105
2026-01-18 22:20:23.89	29.16	5.36	-49.2	-64.7	3.8	1.49e+00	0	37	104	0	69	22174
2026-01-18 22:20:24.88	29.24	5.42	-49.2	-64.7	3.8	1.49e+00	0	37	104	0	69	22084
2026-01-18 22:20:25.87	29.33	5.48	-49.2	-64.7	3.8	1.49e+00	0	37	104	0	69	22145
2026-01-18 22:20:26.87	29.41	5.54	-49.2	-64.7	3.8	1.49e+00	0	37	104	0	69	22135
2026-01-18 22:20:27.86	29.50	5.60	-49.2	-64.7	3.8	1.49e+00	0	37	104	0	69	22073
2026-01-18 22:20:28.85	29.58	5.66	-49.2	-64.7	3.8	1.49e+00	0	37	104	0	69	22090
2026-01-18 22:20:29.85	29.67	5.72	-49.2	-64.7	3.8	1.49e+00	0	37	104	0	69	22042
2026-01-18 22:20:30.84	29.76	5.78	-49.2	-64.6	3.8	1.49e+00	0	37	104	0	69	21923
2026-01-18 22:20:31.83	29.84	5.84	-49.2	-64.6	3.8	1.49e+00	0	37	104	0	69	21905
2026-01-18 22:20:32.83	29.93	5.90	-49.2	-64.6	3.8	1.49e+00	0	37	104	0	69	21923
2026-01-18 22:20:33.82	30.02	5.96	-49.2	-64.6	3.8	1.49e+00	0	37	104	0	69	21941
2026-01-18 22:20:34.81	30.10	6.02	-49.2	-64.6	3.8	1.49e+00	0	37	104	0	69	21878
2026-01-18 22:20:35.81	30.19	6.08	-49.2	-64.6	3.8	1.49e+00	0	37	104	0	69	21870
2026-01-18 22:20:36.80	30.28	6.14	-49.2	-64.6	3.8	1.49e+00	0	37	104	0	69	21840
2026-01-18 22:20:37.79	30.37	6.20	-49.2	-64.6	3.8	1.49e+00	0	37	104	0	69	21893
2026-01-18 22:20:38.79	30.46	6.27	-49.2	-64.5	3.8	1.49e+00	0	37	104	0	69	21754
2026-01-18 22:20:39.78	30.55	6.33	-49.2	-64.6	3.8	1.49e+00	0	37	104	0	69	21927
2026-01-18 22:20:40.77	30.63	6.39	-49.2	-64.6	3.8	1.49e+00	0	37	104	0	69	21865
2026-01-18 22:20:41.77	30.72	6.45	-49.2	-64.6	3.8	1.49e+00	0	38	104	0	69	21867
2026-01-18 22:20:42.76	30.81	6.51	-49.2	-64.6	3.8	1.49e+00	0	38	104	0	69	21914
2026-01-18 22:20:43.75	30.90	6.57	-49.2	-64.6	3.8	1.49e+00	0	38	104	0	69	21914
2026-01-18 22:20:44.75	31.00	6.63	-49.2	-64.6	3.8	1.49e+00	0	38	104	0	69	21975
2026-01-18 22:20:45.74	31.09	6.69	-49.2	-64.6	3.8	1.49e+00	0	38	104	0	69	21921
2026-01-18 22:20:46.73	31.18	6.76	-49.2	-64.6	3.8	1.49e+00	0	38	104	0	69	21864
2026-01-18 22:20:47.73	31.27	6.82	-49.2	-64.6	3.8	1.49e+00	0	38	104	0	69	21890
2026-01-18 22:20:48.72	31.36	6.88	-49.2	-64.5	3.8	1.49e+00	0	38	104	0	69	21695
2026-01-18 22:20:49.71	31.46	6.94	-49.2	-64.5	3.8	1.49e+00	0	38	104	0	69	21714
2026-01-18 22:20:50.71	31.55	7.00	-49.2	-64.5	3.8	1.49e+00	0	38	104	0	69	21689
2026-01-18 22:20:51.70	31.64	7.07	-49.2	-64.5	3.8	1.49e+00	0	38	104	0	69	21668
2026-01-18 22:20:52.69	31.74	7.13	-49.2	-64.6	3.8	1.49e+00	0	38	104	0	69	21770
2026-01-18 22:20:53.69	31.83	7.19	-49.2	-64.6	3.8	1.49e+00	0	38	104	0	69	21783
2026-01-18 22:20:54.68	31.93	7.25	-49.2	-64.6	3.8	1.49e+00	0	38	104	0	69	21779
2026-01-18 22:20:55.68	32.02	7.32	-49.2	-64.5	3.8	1.49e+00	0	38	104	0	69	21712
2026-01-18 22:20:56.67	32.12	7.38	-49.2	-64.4	3.8	1.49e+00	0	38	104	0	69	21437
2026-01-18 22:20:57.66	32.21	7.44	-49.2	-64.4	3.8	1.49e+00	0	38	104	0	69	21305
2026-01-18 22:20:58.66	32.31	7.50	-49.2	-64.3	3.8	1.49e+00	0	38	104	0	69	21194
2026-01-18 22:20:59.65	32.40	7.57	-49.2	-64.3	3.8	1.49e+00	0	38	104	0	69	21097
2026-01-18 22:21:00.64	32.50	7.63	-49.2	-64.3	3.8	1.49e+00	0	38	104	0	69	21202
2026-01-18 22:21:01.64	32.60	7.69	-49.2	-64.5	3.8	1.49e+00	0	38	104	0	69	21531
2026-01-18 22:21:02.63	32.70	7.76	-49.2	-64.5	3.8	1.49e+00	0	38	104	0	69	21730
2026-01-18 22:21:03.62	32.79	7.82	-49.2	-64.6	3.8	1.49e+00	0	38	104	0	69	21951
2026-01-18 22:21:04.62	32.89	7.88	-49.2	-64.7	3.8	1.49e+00	0	38	104	0	69	22056
2026-01-18 22:21:05.61	32.99	7.95	-49.2	-64.7	3.8	1.49e+00	0	38	104	0	69	22090
2026-01-18 22:21:06.61	33.09	8.01	-49.2	-64.7	3.8	1.49e+00	0	38	104	0	69	22034
2026-01-18 22:21:07.60	33.19	8.07	-49.2	-64.6	3.8	1.49e+00	0	38	104	0	69	21993
2026-01-18 22:21:08.59	33.29	8.14	-49.2	-64.6	3.8	1.49e+00	0	38	104	0	69	21965
2026-01-18 22:21:09.59	33.39	8.20	-49.2	-64.6	3.8	1.49e+00	0	38	104	0	69	21798
2026-01-18 22:21:10.58	33.49	8.26	-49.2	-64.5	3.8	1.49e+00	0	38	104	0	69	21546
2026-01-18 22:21:11.57	33.60	8.33	-49.2	-64.3	3.8	1.49e+00	0	38	104	0	69	21233
2026-01-18 22:21:12.57	33.70	8.39	-49.2	-64.2	3.8	1.49e+00	0	38	104	0	69	20852
2026-01-18 22:21:13.56	33.80	8.46	-49.2	-64.1	3.8	1.49e+00	0	38	104	0	69	20613
2026-01-18 22:21:14.55	33.90	8.52	-49.2	-63.9	3.8	1.49e+00	0	38	104	0	69	20183
2026-01-18 22:21:15.55	34.01	8.58	-49.1	-63.6	3.8	1.49e+00	0	38	104	0	69	19540
2026-01-18 22:21:16.54	34.11	8.65	-49.1	-63.1	3.8	1.49e+00	0	38	104	0	69	18485
2026-01-18 22:21:17.54	34.21	8.71	-49.1	-62.1	3.9	1.49e+00	0	38	104	0	69	16454
2026-01-18 22:21:18.53	34.32	8.78	-48.9	-60.1	4.5	1.29e+00	0	38	0	0	69	13058
2026-01-18 22:21:19.52	34.42	8.84	-48.7	-58.2	5.5	6.43e-01	0	38	0	2097152	69	10515
2026-01-18 22:21:20.52	34.53	8.91	-48.3	-56.4	6.9	2.89e-01	0	38	0	4194304	68	9035
2026-01-18 22:21:21.51	34.64	8.97	-47.7	-54.4	8.7	8.61e-02	0	38	0	5242880	67	7602
2026-01-18 22:21:22.50	34.74	9.04	-47.7	-54.4	8.9	1.58e-02	0	38	0	7340032	66	8010
2026-01-18 22:21:23.50	34.85	9.10	-48.3	-57.0	6.5	8.18e-02	0	38	0	9437184	67	10273
2026-01-18 22:21:24.50	34.96	9.17	-48.0	-54.9	8.1	1.34e+00	0	38	0	10485760	68	7585
2026-01-18 22:21:25.49	35.06	9.23	-47.3	-52.8	10.6	6.05e-04	0	38	0	12582912	65	7093
2026-01-18 22:21:26.48	35.17	9.30	-46.8	-51.6	11.4	9.13e-02	0	39	0	14680064	65	6175
2026-01-18 22:21:27.48	35.28	9.36	-44.8	-48.0	15.4	0.00e+00	0	39	0	15728640	61	5141
2026-01-18 22:21:28.52	35.40	9.43	-44.7	-47.9	15.5	0.00e+00	0	39	0	17825792	61	5058
2026-01-18 22:21:29.50	35.50	9.50	-44.6	-47.8	15.6	0.00e+00	0	39	0	19922944	61	4992
2026-01-18 22:21:30.49	35.61	9.56	-44.4	-47.5	15.8	0.00e+00	0	39	0	22020096	60	5156
2026-01-18 22:21:31.49	35.72	9.63	-44.3	-47.3	16.1	0.00e+00	0	39	0	24117248	60	5025
2026-01-18 22:21:32.49	35.84	9.69	-44.3	-47.4	16.0	0.00e+00	0	39	0	25165824	60	5073
2026-01-18 22:21:33.48	35.95	9.76	-44.1	-47.2	16.2	0.00e+00	0	39	0	27262976	60	4936
2026-01-18 22:21:34.48	36.06	9.82	-44.1	-47.1	16.3	0.00e+00	0	38	0	29360128	60	4903
2026-01-18 22:21:35.48	36.17	9.89	-43.9	-46.8	16.6	0.00e+00	0	39	0	31457280	59	5010
2026-01-18 22:21:36.47	36.29	9.96	-43.9	-46.9	16.5	0.00e+00	0	39	0	32505856	59	5062
2026-01-18 22:21:37.47	36.40	10.02	-43.7	-46.6	16.8	0.00e+00	0	38	0	34603008	59	4879
2026-01-18 22:21:38.46	36.51	10.09	-43.6	-46.5	16.8	0.00e+00	0	39	0	36700160	59	4848
2026-01-18 22:21:39.46	36.63	10.16	-43.5	-46.4	16.9	0.00e+00	0	39	0	38797312	59	4803
2026-01-18 22:21:40.45	36.74	10.22	-43.5	-46.4	16.9	0.00e+00	0	39	0	40894464	59	4812
2026-01-18 22:21:41.45	36.86	10.29	-43.6	-46.5	16.9	0.00e+00	0	38	0	41943040	58	5141
2026-01-18 22:21:42.44	36.98	10.36	-43.4	-46.3	17.1	0.00e+00	0	39	0	44040192	58	4984
2026-01-18 22:21:43.44	37.09	10.42	-43.7	-46.5	16.9	0.00e+00	0	39	0	46137344	58	5152
2026-01-18 22:21:44.43	37.21	10.49	-43.6	-46.3	17.0	0.00e+00	0	39	0	48234496	58	5033
2026-01-18 22:21:45.43	37.33	10.56	-43.7	-46.5	17.0	0.00e+00	0	38	0	49283072	58	5113
2026-01-18 22:21:46.42	37.45	10.62	-43.7	-46.5	16.9	0.00e+00	0	39	0	51380224	58	5138
2026-01-18 22:21:47.41	37.56	10.69	-43.6	-46.4	17.0	0.00e+00	0	39	0	53477376	58	5065
2026-01-18 22:21:48.41	37.68	10.76	-43.7	-46.4	17.0	0.00e+00	0	39	0	55574528	58	5099
2026-01-18 22:21:49.40	37.80	10.82	-43.7	-46.5	17.0	0.00e+00	0	39	0	57671680	58	5112
2026-01-18 22:21:50.40	37.92	10.89	-43.7	-46.5	16.9	0.00e+00	0	39	0	58720256	58	5133
2026-01-18 22:21:51.39	38.04	10.96	-43.7	-46.5	16.9	0.00e+00	0	39	0	60817408	58	5136
2026-01-18 22:21:52.39	38.17	11.03	-43.5	-46.2	17.2	0.00e+00	0	39	0	62914560	58	4964
2026-01-18 22:21:53.38	38.29	11.09	-43.5	-46.3	17.1	0.00e+00	0	39	0	65011712	58	5014
2026-01-18 22:21:54.38	38.41	11.16	-43.6	-46.3	17.1	0.00e+00	0	39	0	66060288	58	5029
2026-01-18 22:21:55.37	38.53	11.23	-43.5	-46.2	17.2	0.00e+00	0	39	0	68157440	58	4944
2026-01-18 22:21:56.37	38.66	11.30	-43.5	-46.2	17.3	0.00e+00	0	39	0	70254592	58	4935
2026-01-18 22:21:57.36	38.78	11.36	-43.6	-46.3	17.2	0.00e+00	0	39	0	72351744	58	5017
2026-01-18 22:21:58.36	38.91	11.43	-43.5	-46.2	17.2	0.00e+00	0	39	0	74448896	58	4956
2026-01-18 22:21:59.36	39.03	11.50	-43.5	-46.2	17.2	0.00e+00	0	39	0	75497472	58	4953
2026-01-18 22:22:00.35	39.16	11.57	-43.5	-46.2	17.3	0.00e+00	0	39	0	77594624	58	4950
2026-01-18 22:22:01.34	39.28	11.64	-43.5	-46.2	17.3	0.00e+00	0	39	0	79691776	58	4948
2026-01-18 22:22:02.34	39.41	11.70	-43.6	-46.3	17.1	0.00e+00	0	39	0	81788928	58	5006
2026-01-18 22:22:03.34	39.54	11.77	-43.6	-46.2	17.2	0.00e+00	0	39	0	82837504	58	4982
2026-01-18 22:22:04.33	39.67	11.84	-43.5	-46.2	17.2	0.00e+00	0	39	0	84934656	58	4960
2026-01-18 22:22:05.33	39.79	11.91	-43.7	-46.4	17.0	0.00e+00	0	39	0	87031808	58	5091
2026-01-18 22:22:06.32	39.92	11.98	-43.7	-46.4	17.1	0.00e+00	0	39	0	89128960	58	5058
2026-01-18 22:22:07.32	40.05	12.05	-43.7	-46.4	17.1	0.00e+00	0	39	0	91226112	58	5091
2026-01-18 22:22:08.32	40.18	12.11	-43.7	-46.4	17.1	0.00e+00	0	39	0	92274688	58	5080
2026-01-18 22:22:09.31	40.32	12.18	-43.8	-46.5	16.9	0.00e+00	0	39	0	94371840	58	5151
2026-01-18 22:22:10.31	40.45	12.25	-43.6	-46.2	17.2	0.00e+00	0	39	0	96468992	58	4965
2026-01-18 22:22:11.31	40.58	12.32	-43.5	-46.2	17.3	0.00e+00	0	39	0	98566144	58	4939
2026-01-18 22:22:12.30	40.71	12.39	-43.5	-46.1	17.4	0.00e+00	0	39	0	99614720	58	4896
2026-01-18 22:22:13.33	40.85	12.46	-43.3	-45.9	17.5	0.00e+00	0	39	0	101711872	58	4781
2026-01-18 22:22:14.35	40.99	12.53	-43.3	-45.8	17.6	0.00e+00	0	39	0	103809024	58	4748
2026-01-18 22:22:15.35	41.12	12.60	-43.2	-45.8	17.7	0.00e+00	0	39	0	105906176	58	4709
2026-01-18 22:22:16.34	41.26	12.67	-43.0	-45.5	17.9	0.00e+00	0	39	0	108003328	58	4568
2026-01-18 22:22:17.34	41.39	12.74	-42.9	-45.3	18.1	0.00e+00	0	39	0	110100480	57	4756
2026-01-18 22:22:18.33	41.53	12.81	-42.9	-45.4	18.0	0.00e+00	0	39	0	111149056	57	4799
2026-01-18 22:22:19.33	41.67	12.88	-42.8	-45.2	18.2	0.00e+00	0	39	0	113246208	57	4697
2026-01-18 22:22:20.33	41.81	12.95	-42.8	-45.2	18.2	0.00e+00	0	39	0	115343360	57	4696
2026-01-18 22:22:21.32	41.94	13.02	-42.7	-45.2	18.2	0.00e+00	0	39	0	117440512	57	4670
2026-01-18 22:22:22.32	42.08	13.09	-42.8	-45.2	18.2	0.00e+00	0	39	0	118489088	57	4677
2026-01-18 22:22:23.31	42.22	13.15	-42.7	-45.1	18.3	0.00e+00	0	39	0	120586240	57	4625
2026-01-18 22:22:24.31	42.36	13.22	-42.9	-45.3	18.1	0.00e+00	0	39	0	122683392	57	4738
2026-01-18 22:22:25.31	42.50	13.29	-42.9	-45.4	18.0	0.00e+00	0	39	0	124780544	57	4761
2026-01-18 22:22:26.30	42.65	13.36	-42.8	-45.3	18.1	0.00e+00	0	39	0	126877696	57	4726
2026-01-18 22:22:27.29	42.79	13.43	-43.0	-45.5	17.9	0.00e+00	0	39	0	127926272	57	4846
2026-01-18 22:22:28.29	42.93	13.50	-43.1	-45.6	17.9	0.00e+00	0	39	0	130023424	57	4886
2026-01-18 22:22:29.28	43.07	13.57	-42.9	-45.4	18.0	0.00e+00	0	39	0	132120576	57	4790
2026-01-18 22:22:30.28	43.22	13.64	-43.0	-45.5	18.0	0.00e+00	0	39	0	134217728	57	4819
2026-01-18 22:22:31.27	43.36	13.71	-43.0	-45.5	17.9	0.00e+00	0	39	0	135266304	57	4865
2026-01-18 22:22:32.34	43.52	13.79	-43.0	-45.4	18.0	0.00e+00	0	39	0	137363456	57	4810
2026-01-18 22:22:33.23	43.65	13.85	-43.1	-45.7	17.8	0.00e+00	0	39	0	139460608	57	4938
2026-01-18 22:22:34.37	43.82	13.93	-43.1	-45.7	17.8	0.00e+00	0	39	0	141557760	57	4928
2026-01-18 22:22:35.30	43.95	13.99	-43.0	-45.5	17.9	0.00e+00	0	39	0	143654912	57	4858
2026-01-18 22:22:36.47	44.13	14.08	-43.2	-45.7	17.7	0.00e+00	0	39	0	145752064	57	4973
2026-01-18 22:22:37.32	44.26	14.13	-43.1	-45.7	17.8	0.00e+00	0	39	0	146800640	57	4955
2026-01-18 22:22:38.68	44.46	14.23	-43.2	-45.7	17.8	0.00e+00	0	39	0	149946368	57	4977
2026-01-18 22:22:39.39	44.57	14.28	-43.3	-45.9	17.5	0.00e+00	0	39	0	150994944	57	5097
2026-01-18 22:22:40.67	44.76	14.37	-43.4	-46.0	17.5	0.00e+00	0	39	0	153092096	57	5150
2026-01-18 22:22:41.41	44.88	14.42	-43.3	-45.9	17.5	0.00e+00	0	39	0	155189248	57	5092
2026-01-18 22:22:42.69	45.07	14.51	-43.2	-45.8	17.7	0.00e+00	0	39	0	157286400	57	4989
2026-01-18 22:22:43.42	45.18	14.56	-43.2	-45.8	17.7	0.00e+00	0	39	0	158334976	57	5010
2026-01-18 22:22:44.70	45.38	14.65	-43.1	-45.6	17.9	0.00e+00	0	39	0	160432128	57	4888
2026-01-18 22:22:45.50	45.51	14.71	-43.0	-45.5	17.9	0.00e+00	0	39	0	162529280	57	4863
2026-01-18 22:22:46.64	45.68	14.79	-42.9	-45.4	18.1	0.00e+00	0	39	0	164626432	57	4780
2026-01-18 22:22:47.71	45.85	14.87	-42.9	-45.3	18.2	0.00e+00	0	39	0	166723584	57	4741
2026-01-18 22:22:48.56	45.99	14.93	-42.6	-45.0	18.4	0.00e+00	0	39	0	167772160	57	4588
2026-01-18 22:22:49.70	46.17	15.01	-42.7	-45.1	18.3	0.00e+00	0	39	0	169869312	57	4629
2026-01-18 22:22:50.81	46.34	15.08	-42.8	-45.2	18.2	0.00e+00	0	39	0	171966464	57	4692
2026-01-18 22:22:51.83	46.51	15.16	-42.6	-45.1	18.4	0.00e+00	0	39	0	174063616	57	4600
2026-01-18 22:22:52.83	46.67	15.23	-42.7	-45.2	18.3	0.00e+00	0	39	0	176160768	57	4658
2026-01-18 22:22:53.82	46.83	15.30	-42.9	-45.4	18.0	0.00e+00	0	39	0	178257920	57	4793
2026-01-18 22:22:54.82	46.99	15.37	-42.6	-45.0	18.5	0.00e+00	0	39	0	180355072	57	4564
2026-01-18 22:22:55.81	47.15	15.44	-42.6	-44.9	18.5	0.00e+00	0	39	0	181403648	56	4808
2026-01-18 22:22:56.81	47.31	15.51	-42.7	-45.1	18.4	0.00e+00	0	39	0	183500800	56	4903
2026-01-18 22:22:57.80	47.48	15.58	-42.5	-44.8	18.6	0.00e+00	0	39	0	185597952	56	4758
2026-01-18 22:22:58.80	47.64	15.65	-42.5	-44.8	18.6	0.00e+00	0	39	0	187695104	56	4755
2026-01-18 22:22:59.79	47.81	15.72	-42.4	-44.8	18.6	0.00e+00	0	39	0	188743680	56	4730
2026-01-18 22:23:00.79	47.97	15.79	-42.5	-44.9	18.6	0.00e+00	0	39	0	190840832	56	4778
2026-01-18 22:23:01.78	48.14	15.86	-42.4	-44.8	18.6	0.00e+00	0	39	0	192937984	56	4721
2026-01-18 22:23:02.77	48.30	15.93	-42.4	-44.7	18.7	0.00e+00	0	39	0	195035136	56	4682
2026-01-18 22:23:03.79	48.48	16.00	-42.3	-44.7	18.8	0.00e+00	0	39	0	197132288	56	4658
2026-01-18 22:23:04.78	48.64	16.07	-42.4	-44.8	18.7	0.00e+00	0	39	0	198180864	56	4722
2026-01-18 22:23:05.84	48.82	16.14	-42.4	-44.8	18.7	0.00e+00	0	39	0	200278016	56	4735
2026-01-18 22:23:06.72	48.98	16.20	-42.5	-44.9	18.6	0.00e+00	0	39	0	202375168	56	4781
2026-01-18 22:23:07.86	49.17	16.28	-42.6	-45.0	18.5	0.00e+00	0	39	0	204472320	56	4850
2026-01-18 22:23:08.71	49.32	16.34	-42.7	-45.1	18.4	0.00e+00	0	39	0	205520896	56	4908
2026-01-18 22:23:09.85	49.52	16.42	-42.9	-45.4	18.1	0.00e+00	0	39	0	207618048	56	5066
2026-01-18 22:23:10.80	49.68	16.49	-42.9	-45.3	18.2	0.00e+00	0	39	0	209715200	56	5040
2026-01-18 22:23:11.99	49.89	16.57	-43.0	-45.4	18.1	0.00e+00	0	39	0	211812352	56	5086
2026-01-18 22:23:12.84	50.04	16.63	-42.9	-45.4	18.1	0.00e+00	0	39	0	213909504	56	5085
2026-01-18 22:23:13.98	50.24	16.71	-42.9	-45.4	18.1	0.00e+00	0	39	0	216006656	56	5077
2026-01-18 22:23:14.83	50.39	16.77	-42.8	-45.2	18.3	0.00e+00	0	39	0	217055232	56	4945
2026-01-18 22:23:15.97	50.60	16.85	-42.7	-45.2	18.4	0.00e+00	0	39	0	219152384	56	4930
2026-01-18 22:23:16.82	50.75	16.91	-42.7	-45.1	18.4	0.00e+00	0	39	0	221249536	56	4905
2026-01-18 22:23:17.96	50.95	16.99	-42.5	-44.8	18.7	0.00e+00	0	39	0	223346688	56	4742
2026-01-18 22:23:18.81	51.11	17.05	-42.7	-45.1	18.4	0.00e+00	0	39	0	224395264	56	4903
2026-01-18 22:23:19.95	51.31	17.13	-42.9	-45.4	18.2	0.00e+00	0	39	0	226492416	56	5055
2026-01-18 22:23:20.80	51.47	17.19	-42.8	-45.3	18.2	0.00e+00	0	39	0	228589568	56	4989
2026-01-18 22:23:21.94	51.68	17.27	-42.9	-45.3	18.2	0.00e+00	0	39	0	230686720	56	5037
2026-01-18 22:23:22.79	51.84	17.32	-43.0	-45.5	18.0	0.00e+00	0	39	0	232783872	56	5134
2026-01-18 22:23:23.99	52.06	17.41	-43.0	-45.5	18.1	0.00e+00	0	39	0	234881024	56	5104
2026-01-18 22:23:24.85	52.22	17.47	-43.0	-45.4	18.1	0.00e+00	0	39	0	235929600	56	5100
2026-01-18 22:23:25.98	52.43	17.54	-43.1	-45.6	18.0	0.00e+00	0	39	0	238026752	56	5173
2026-01-18 22:23:26.84	52.59	17.60	-42.8	-45.2	18.3	0.00e+00	0	39	0	240123904	56	4966
2026-01-18 22:23:27.97	52.80	17.68	-42.7	-45.2	18.3	0.00e+00	0	39	0	242221056	56	4942
2026-01-18 22:23:28.83	52.97	17.74	-42.8	-45.3	18.2	0.00e+00	0	39	0	243269632	56	4986
2026-01-18 22:23:29.96	53.18	17.82	-42.7	-45.2	18.3	0.00e+00	0	39	0	245366784	56	4940
2026-01-18 22:23:30.81	53.34	17.88	-42.9	-45.3	18.2	0.00e+00	0	39	0	247463936	56	5036
2026-01-18 22:23:31.95	53.56	17.95	-42.9	-45.4	18.1	0.00e+00	0	39	0	249561088	56	5064
2026-01-18 22:23:32.80	53.72	18.01	-42.9	-45.4	18.2	0.00e+00	0	39	0	250609664	56	5050
2026-01-18 22:23:33.94	53.94	18.09	-42.9	-45.4	18.1	0.00e+00	0	39	0	252706816	56	5080
2026-01-18 22:23:34.79	54.11	18.15	-42.9	-45.4	18.1	0.00e+00	0	39	0	254803968	56	5077
2026-01-18 22:23:35.93	54.33	18.22	-42.8	-45.2	18.3	0.00e+00	0	39	0	256901120	56	4981
2026-01-18 22:23:36.78	54.50	18.28	-42.8	-45.2	18.3	0.00e+00	0	39	0	258998272	56	4971
2026-01-18 22:23:37.92	54.72	18.36	-42.9	-45.3	18.2	0.00e+00	0	39	0	261095424	56	5006
2026-01-18 22:23:38.77	54.89	18.42	-43.1	-45.6	18.0	0.00e+00	0	39	0	262144000	56	5180
2026-01-18 22:23:39.98	55.13	18.50	-43.1	-45.6	17.9	0.00e+00	0	39	0	264241152	57	4910
2026-01-18 22:23:40.83	55.30	18.56	-43.2	-45.7	17.9	0.00e+00	0	39	0	266338304	57	4977
2026-01-18 22:23:41.99	55.53	18.63	-43.5	-46.1	17.5	0.00e+00	0	39	0	268435456	57	5214
2026-01-18 22:23:42.85	55.71	18.69	-43.3	-45.9	17.6	0.00e+00	0	39	0	269484032	57	5072
2026-01-18 22:23:44.04	55.95	18.77	-43.4	-46.0	17.6	0.00e+00	0	39	0	272629760	57	5106
2026-01-18 22:23:44.89	56.12	18.83	-43.2	-45.8	17.8	0.00e+00	0	39	0	273678336	57	5005
2026-01-18 22:23:46.09	56.36	18.91	-43.1	-45.6	18.0	0.00e+00	0	39	0	275775488	57	4890
2026-01-18 22:23:46.94	56.54	18.96	-43.2	-45.7	17.9	0.00e+00	0	39	0	277872640	57	4929
2026-01-18 22:23:48.08	56.77	19.04	-43.0	-45.5	18.0	0.00e+00	0	39	0	279969792	57	4857
2026-01-18 22:23:48.93	56.95	19.09	-43.2	-45.7	17.9	0.00e+00	0	39	0	281018368	57	4970
2026-01-18 22:23:50.07	57.18	19.17	-43.5	-46.1	17.6	0.00e+00	0	39	0	283115520	57	5173
2026-01-18 22:23:50.92	57.36	19.22	-43.6	-46.3	17.4	0.00e+00	0	39	0	285212672	57	5295
2026-01-18 22:23:52.06	57.60	19.30	-43.6	-46.2	17.4	0.00e+00	0	39	0	287309824	58	4974
2026-01-18 22:23:53.01	57.80	19.36	-43.7	-46.3	17.3	0.00e+00	0	39	0	289406976	58	5040
2026-01-18 22:23:54.00	58.01	19.42	-43.4	-46.0	17.6	0.00e+00	0	39	0	290455552	58	4833
2026-01-18 22:23:55.00	58.22	19.49	-43.2	-45.7	17.9	0.00e+00	0	39	0	292552704	58	4667
2026-01-18 22:23:55.99	58.43	19.55	-43.1	-45.6	18.0	0.00e+00	0	39	0	294649856	58	4607
2026-01-18 22:23:56.99	58.64	19.62	-43.2	-45.7	17.9	0.00e+00	0	39	0	296747008	58	4655
2026-01-18 22:23:57.99	58.86	19.68	-43.4	-46.0	17.6	0.00e+00	0	39	0	298844160	58	4825
2026-01-18 22:23:58.98	59.07	19.74	-43.8	-46.6	17.1	0.00e+00	0	39	0	299892736	58	5166
2026-01-18 22:23:59.98	59.29	19.81	-44.2	-47.0	16.6	0.00e+00	0	39	0	301989888	59	5152
2026-01-18 22:24:00.97	59.50	19.87	-44.0	-46.9	16.8	0.00e+00	0	39	0	304087040	59	5052
2026-01-18 22:24:01.97	59.72	19.93	-44.1	-47.0	16.7	0.00e+00	0	39	0	306184192	59	5110
2026-01-18 22:24:02.97	59.94	20.00	-43.8	-46.6	17.1	0.00e+00	0	39	0	307232768	59	4880
2026-01-18 22:24:03.96	60.15	20.06	-43.7	-46.4	17.3	0.00e+00	0	39	0	309329920	59	4781
2026-01-18 22:24:04.96	60.37	20.12	-43.6	-46.2	17.4	0.00e+00	0	39	0	311427072	59	4691
2026-01-18 22:24:05.95	60.59	20.18	-43.4	-46.0	17.6	0.00e+00	0	39	0	313524224	58	4831
2026-01-18 22:24:06.95	60.82	20.24	-43.6	-46.2	17.4	0.00e+00	0	39	0	315621376	58	4969
2026-01-18 22:24:07.94	61.04	20.30	-43.7	-46.3	17.3	0.00e+00	0	39	0	316669952	58	5034
2026-01-18 22:24:08.94	61.26	20.36	-43.7	-46.3	17.3	0.00e+00	0	39	0	318767104	58	5026
2026-01-18 22:24:09.93	61.48	20.43	-43.6	-46.3	17.3	0.00e+00	0	39	0	320864256	58	5018
2026-01-18 22:24:10.92	61.71	20.49	-43.6	-46.2	17.4	0.00e+00	0	39	0	322961408	58	4960
2026-01-18 22:24:11.92	61.93	20.55	-43.4	-46.0	17.6	0.00e+00	0	39	0	324009984	58	4847
2026-01-18 22:24:12.91	62.16	20.60	-43.5	-46.1	17.5	0.00e+00	0	39	0	326107136	58	4909
2026-01-18 22:24:13.91	62.39	20.66	-43.5	-46.1	17.5	0.00e+00	0	39	0	328204288	58	4909
2026-01-18 22:24:14.90	62.61	20.72	-43.8	-46.5	17.2	0.00e+00	0	39	0	330301440	58	5109
2026-01-18 22:24:15.96	62.86	20.79	-44.0	-46.7	17.0	0.00e+00	0	39	0	332398592	58	5259
2026-01-18 22:24:16.86	63.07	20.84	-44.0	-46.7	17.0	0.00e+00	0	39	0	333447168	58	5226
2026-01-18 22:24:17.98	63.32	20.90	-43.8	-46.5	17.2	0.00e+00	0	39	0	335544320	58	5132
2026-01-18 22:24:18.83	63.52	20.95	-43.6	-46.3	17.4	0.00e+00	0	39	0	337641472	58	5003
2026-01-18 22:24:19.97	63.79	21.02	-43.4	-45.9	17.7	0.00e+00	0	39	0	339738624	58	4784
2026-01-18 22:24:20.83	63.99	21.07	-42.9	-45.3	18.3	0.00e+00	0	39	0	340787200	57	4730
2026-01-18 22:24:21.96	64.26	21.13	-42.7	-45.0	18.5	0.00e+00	0	39	0	342884352	57	4592
2026-01-18 22:24:22.81	64.46	21.18	-42.6	-45.0	18.6	0.00e+00	0	39	0	344981504	57	4561
2026-01-18 22:24:23.95	64.73	21.25	-42.6	-45.0	18.5	0.00e+00	0	39	0	347078656	57	4594
2026-01-18 22:24:24.80	64.93	21.29	-42.7	-45.0	18.5	0.00e+00	0	39	0	348127232	57	4595
2026-01-18 22:24:25.94	65.20	21.36	-42.7	-45.0	18.5	0.00e+00	0	39	0	350224384	57	4596
2026-01-18 22:24:26.80	65.41	21.40	-42.9	-45.3	18.3	0.00e+00	0	39	0	352321536	57	4741
2026-01-18 22:24:27.96	65.69	21.47	-43.1	-45.6	18.0	0.00e+00	0	39	0	354418688	57	4892
2026-01-18 22:24:28.82	65.89	21.52	-43.4	-46.0	17.6	0.00e+00	0	39	0	356515840	57	5108
2026-01-18 22:24:30.02	66.18	21.58	-43.9	-46.6	17.0	0.00e+00	0	39	0	358612992	58	5214
2026-01-18 22:24:30.87	66.39	21.63	-44.1	-46.8	16.9	0.00e+00	0	39	0	359661568	58	5340
2026-01-18 22:24:32.07	66.68	21.69	-44.2	-47.0	16.7	0.00e+00	0	39	0	361758720	59	5129
2026-01-18 22:24:32.92	66.89	21.73	-44.0	-46.8	16.9	0.00e+00	0	39	0	363855872	59	5006
2026-01-18 22:24:34.06	67.17	21.79	-43.2	-45.7	17.9	0.00e+00	0	39	0	365953024	58	4687
2026-01-18 22:24:34.91	67.38	21.84	-43.1	-45.6	17.9	0.00e+00	0	39	0	367001600	58	4626
2026-01-18 22:24:36.05	67.66	21.90	-42.8	-45.2	18.4	0.00e+00	0	39	0	370147328	57	4671
2026-01-18 22:24:36.90	67.87	21.94	-42.9	-45.3	18.3	0.00e+00	0	39	0	371195904	57	4723
2026-01-18 22:24:38.04	68.15	22.00	-43.2	-45.7	17.9	0.00e+00	0	39	0	373293056	57	4962
2026-01-18 22:24:38.89	68.37	22.04	-43.4	-45.9	17.7	0.00e+00	0	39	0	375390208	57	5091
2026-01-18 22:24:40.03	68.65	22.10	-43.5	-46.1	17.5	0.00e+00	0	39	0	377487360	57	5189
2026-01-18 22:24:40.88	68.86	22.14	-43.4	-46.0	17.6	0.00e+00	0	39	0	378535936	57	5120
2026-01-18 22:24:42.01	69.15	22.20	-43.2	-45.8	17.9	0.00e+00	0	39	0	380633088	57	4996
2026-01-18 22:24:42.87	69.37	22.24	-43.4	-46.0	17.7	0.00e+00	0	39	0	382730240	57	5111
2026-01-18 22:24:44.00	69.65	22.29	-43.4	-45.9	17.7	0.00e+00	0	39	0	384827392	57	5090
2026-01-18 22:24:44.86	69.87	22.33	-43.3	-45.9	17.7	0.00e+00	0	39	0	385875968	57	5059
2026-01-18 22:24:46.03	70.17	22.39	-43.5	-46.1	17.6	0.00e+00	0	39	0	387973120	57	5174
2026-01-18 22:24:46.88	70.39	22.43	-43.4	-45.9	17.7	0.00e+00	0	39	0	390070272	57	5093
2026-01-18 22:24:48.10	70.70	22.48	-43.3	-45.9	17.7	0.00e+00	0	39	0	392167424	57	5074
2026-01-18 22:24:48.95	70.92	22.52	-42.9	-45.3	18.3	0.00e+00	0	39	0	394264576	57	4738
2026-01-18 22:24:50.09	71.21	22.57	-42.7	-45.1	18.4	0.00e+00	0	39	0	396361728	57	4641
2026-01-18 22:24:51.40	71.55	22.63	-43.0	-45.4	18.2	0.00e+00	0	39	0	398458880	57	4795
2026-01-18 22:24:52.27	71.78	22.67	-43.2	-45.8	17.9	0.00e+00	0	39	0	400556032	57	4985
2026-01-18 22:24:53.40	72.07	22.72	-43.7	-46.3	17.4	0.00e+00	0	39	0	402653184	57	5337
2026-01-18 22:24:54.25	72.29	22.76	-44.1	-46.9	16.8	0.00e+00	0	39	0	403701760	58	5364
2026-01-18 22:24:55.39	72.59	22.80	-44.1	-46.9	16.9	0.00e+00	0	39	0	405798912	59	5042
2026-01-18 22:24:56.25	72.82	22.84	-44.1	-46.8	16.9	0.00e+00	0	39	0	407896064	59	5016
2026-01-18 22:24:57.39	73.12	22.89	-43.8	-46.4	17.2	0.00e+00	0	39	0	409993216	59	4808
2026-01-18 22:24:58.24	73.34	22.92	-43.6	-46.2	17.4	0.00e+00	0	39	0	411041792	59	4695
2026-01-18 22:24:59.38	73.64	22.97	-43.3	-45.8	17.8	0.00e+00	0	39	0	413138944	58	4744
2026-01-18 22:25:00.23	73.87	23.00	-43.4	-45.9	17.7	0.00e+00	0	39	0	415236096	58	4794
2026-01-18 22:25:01.37	74.17	23.05	-43.4	-46.0	17.7	0.00e+00	0	39	0	417333248	58	4829
2026-01-18 22:25:02.22	74.40	23.08	-43.6	-46.3	17.4	0.00e+00	0	39	0	418381824	58	4989
2026-01-18 22:25:03.36	74.70	23.12	-43.7	-46.4	17.3	0.00e+00	0	39	0	420478976	58	5042
2026-01-18 22:25:04.22	74.93	23.15	-43.8	-46.5	17.2	0.00e+00	0	39	0	422576128	58	5136
2026-01-18 22:25:05.58	75.30	23.20	-44.0	-46.8	16.9	0.00e+00	0	39	0	424673280	58	5303
2026-01-18 22:25:06.29	75.49	23.23	-44.2	-47.0	16.7	0.00e+00	0	39	0	426770432	59	5113
2026-01-18 22:25:07.57	75.83	23.27	-44.1	-46.9	16.9	0.00e+00	0	39	0	428867584	59	5065
2026-01-18 22:25:08.29	76.03	23.30	-44.1	-46.9	16.8	0.00e+00	0	39	0	429916160	59	5080
2026-01-18 22:25:09.57	76.37	23.34	-44.3	-47.1	16.6	0.00e+00	0	39	0	433061888	59	5204
2026-01-18 22:25:10.28	76.57	23.37	-44.2	-47.1	16.7	0.00e+00	0	39	0	434110464	59	5177
2026-01-18 22:25:11.56	76.91	23.41	-44.5	-47.5	16.3	0.00e+00	0	39	0	436207616	59	5430
2026-01-18 22:25:12.29	77.11	23.43	-44.7	-47.8	15.9	0.00e+00	0	39	0	437256192	60	5311
2026-01-18 22:25:13.57	77.46	23.47	-44.8	-47.8	16.0	0.00e+00	0	39	0	440401920	60	5332
2026-01-18 22:25:14.28	77.66	23.50	-44.6	-47.6	16.2	0.00e+00	0	39	0	441450496	60	5210
2026-01-18 22:25:15.56	78.01	23.53	-44.3	-47.2	16.6	0.00e+00	0	39	0	443547648	60	4948
2026-01-18 22:25:16.28	78.20	23.56	-44.1	-46.9	16.8	0.00e+00	0	39	0	445644800	60	4793
2026-01-18 22:25:17.56	78.56	23.59	-43.7	-46.4	17.3	0.00e+00	0	39	0	447741952	59	4790
2026-01-18 22:25:18.27	78.75	23.61	-43.6	-46.3	17.5	0.00e+00	0	39	0	448790528	59	4708
2026-01-18 22:25:19.55	79.11	23.65	-43.4	-45.9	17.7	0.00e+00	0	39	0	450887680	58	4803
2026-01-18 22:25:20.26	79.30	23.67	-43.2	-45.7	18.0	0.00e+00	0	39	0	452984832	58	4671
2026-01-18 22:25:21.65	79.69	23.71	-42.8	-45.2	18.4	0.00e+00	0	39	0	455081984	57	4677
2026-01-18 22:25:22.65	79.97	23.73	-42.7	-45.1	18.5	0.00e+00	0	39	0	457179136	57	4625
2026-01-18 22:25:23.94	80.32	23.76	-42.7	-45.1	18.5	0.00e+00	0	39	0	459276288	57	4648
2026-01-18 22:25:24.66	80.53	23.78	-43.0	-45.4	18.2	0.00e+00	0	39	0	460324864	57	4804
2026-01-18 22:25:26.28	80.98	23.82	-43.9	-46.7	17.0	0.00e+00	0	39	0	463470592	58	5253
2026-01-18 22:25:26.85	81.14	23.83	-44.1	-47.0	16.8	0.00e+00	0	39	0	464519168	58	5430
2026-01-18 22:25:28.55	81.61	23.87	-44.0	-46.8	16.8	0.00e+00	0	39	0	467664896	59	5034
2026-01-18 22:25:29.12	81.77	23.88	-43.8	-46.6	17.1	0.00e+00	0	39	0	468713472	59	4876
2026-01-18 22:25:30.82	82.25	23.92	-43.1	-45.7	18.0	0.00e+00	0	39	0	472907776	58	4673
2026-01-18 22:25:31.39	82.41	23.93	-42.9	-45.4	18.2	0.00e+00	0	39	0	473956352	57	4789
2026-01-18 22:25:33.09	82.89	23.96	-43.3	-45.9	17.8	0.00e+00	0	39	0	477102080	57	5044
2026-01-18 22:25:33.74	83.07	23.97	-43.4	-46.1	17.6	0.00e+00	0	39	0	478150656	57	5174
2026-01-18 22:25:35.16	83.47	24.00	-43.5	-46.2	17.5	0.00e+00	0	39	0	480247808	57	5247
2026-01-18 22:25:35.87	83.68	24.01	-43.5	-46.1	17.5	0.00e+00	0	39	0	482344960	57	5195
2026-01-18 22:25:37.15	84.04	24.03	-43.2	-45.7	17.9	0.00e+00	0	39	0	484442112	57	4980
2026-01-18 22:25:37.86	84.24	24.04	-43.2	-45.8	17.9	0.00e+00	0	39	0	485490688	57	5013
2026-01-18 22:25:39.14	84.60	24.06	-43.3	-46.0	17.6	0.00e+00	0	39	0	487587840	57	5146
2026-01-18 22:25:39.85	84.80	24.07	-43.6	-46.3	17.4	0.00e+00	0	39	0	489684992	57	5326
2026-01-18 22:25:41.13	85.17	24.09	-43.6	-46.3	17.4	0.00e+00	0	39	0	491782144	57	5313
2026-01-18 22:25:41.84	85.37	24.10	-43.3	-45.9	17.8	0.00e+00	0	39	0	492830720	57	5055
2026-01-18 22:25:43.21	85.76	24.11	-42.8	-45.3	18.3	0.00e+00	0	39	0	495976448	57	4759
2026-01-18 22:25:43.93	85.96	24.12	-42.6	-45.0	18.6	0.00e+00	0	39	0	497025024	57	4564
2026-01-18 22:25:45.21	86.33	24.13	-42.3	-44.7	18.9	0.00e+00	0	39	0	499122176	56	4673
2026-01-18 22:25:45.92	86.53	24.14	-42.5	-44.9	18.7	0.00e+00	0	39	0	501219328	56	4796
2026-01-18 22:25:47.20	86.90	24.15	-46.6	-51.0	12.7	0.00e+00	0	39	0	503316480	64	6094
2026-01-18 22:25:47.92	87.10	24.16	-43.0	-45.5	18.2	0.00e+00	0	39	0	504365056	58	4562
2026-01-18 22:25:49.20	87.47	24.16	-43.2	-45.8	17.9	0.00e+00	0	39	0	506462208	58	4716
2026-01-18 22:25:49.91	87.67	24.17	-43.0	-45.6	18.1	0.00e+00	0	39	0	508559360	58	4610
2026-01-18 22:25:51.19	88.04	24.18	-43.0	-45.5	18.1	0.00e+00	0	39	0	510656512	57	4838
2026-01-18 22:25:51.90	88.24	24.18	-42.9	-45.4	18.2	0.00e+00	0	39	0	511705088	57	4791
2026-01-18 22:25:53.18	88.61	24.19	-42.7	-45.1	18.5	0.00e+00	0	39	0	513802240	57	4645
2026-01-18 22:25:53.91	88.82	24.19	-42.7	-45.2	18.4	0.00e+00	0	39	0	515899392	57	4657
2026-01-18 22:25:55.19	89.18	24.19	-42.5	-44.9	18.7	0.00e+00	0	39	0	517996544	56	4797
2026-01-18 22:25:55.99	89.41	24.19	-42.5	-44.9	18.7	0.00e+00	0	39	0	520093696	56	4794
2026-01-18 22:25:57.13	89.74	24.20	-42.5	-44.9	18.7	0.00e+00	0	39	0	522190848	56	4771
2026-01-18 22:25:58.21	90.05	24.20	-42.5	-44.9	18.7	0.00e+00	0	39	0	523239424	56	4795
2026-01-18 22:25:59.23	90.34	24.20	-42.7	-45.1	18.6	0.00e+00	0	39	0	525336576	56	4881
2026-01-18 22:26:00.23	90.63	24.20	-42.8	-45.2	18.4	0.00e+00	0	39	0	527433728	56	4957
2026-01-18 22:26:01.22	90.91	24.19	-42.9	-45.4	18.3	0.00e+00	0	39	0	529530880	56	5061
2026-01-18 22:26:02.22	91.20	24.19	-43.1	-45.6	18.1	0.00e+00	0	39	0	531628032	56	5193
2026-01-18 22:26:03.21	91.48	24.19	-42.8	-45.2	18.4	0.00e+00	0	39	0	532676608	56	4937
2026-01-18 22:26:04.21	91.76	24.18	-42.8	-45.2	18.5	0.00e+00	0	39	0	534773760	56	4938
2026-01-18 22:26:05.20	92.05	24.18	-42.3	-44.6	18.9	0.00e+00	0	39	0	536870912	56	4633
2026-01-18 22:26:06.20	92.33	24.17	-42.3	-44.6	18.9	0.00e+00	0	39	0	538968064	56	4636
2026-01-18 22:26:07.56	92.72	24.17	-42.3	-44.6	19.0	0.00e+00	0	39	0	541065216	56	4645
2026-01-18 22:26:08.27	92.93	24.16	-42.4	-44.7	18.9	0.00e+00	0	39	0	542113792	56	4687
2026-01-18 22:26:09.55	93.29	24.15	-42.6	-45.0	18.6	0.00e+00	0	39	0	545259520	56	4838
2026-01-18 22:26:10.26	93.49	24.15	-42.6	-45.0	18.6	0.00e+00	0	39	0	546308096	56	4841
2026-01-18 22:26:11.55	93.86	24.13	-42.7	-45.1	18.5	0.00e+00	0	39	0	548405248	56	4875
2026-01-18 22:26:12.27	94.07	24.13	-42.9	-45.4	18.3	0.00e+00	0	39	0	550502400	56	5043
2026-01-18 22:26:13.55	94.43	24.11	-43.1	-45.6	18.1	0.00e+00	0	39	0	552599552	56	5207
2026-01-18 22:26:14.27	94.64	24.10	-43.0	-45.4	18.2	0.00e+00	0	39	0	553648128	56	5064
2026-01-18 22:26:15.55	95.00	24.09	-43.0	-45.4	18.2	0.00e+00	0	39	0	555745280	56	5056
2026-01-18 22:26:16.26	95.21	24.08	-42.9	-45.3	18.3	0.00e+00	0	39	0	557842432	56	5004
2026-01-18 22:26:17.64	95.60	24.06	-42.8	-45.3	18.4	0.00e+00	0	39	0	559939584	56	4988
2026-01-18 22:26:18.35	95.80	24.05	-42.7	-45.1	18.5	0.00e+00	0	39	0	560988160	56	4894
2026-01-18 22:26:19.62	96.16	24.03	-42.5	-44.8	18.8	0.00e+00	0	39	0	564133888	56	4721
2026-01-18 22:26:20.65	96.45	24.02	-42.4	-44.6	18.9	0.00e+00	0	39	0	566231040	56	4644
2026-01-18 22:26:21.96	96.82	23.99	-42.1	-44.3	19.2	0.00e+00	0	39	0	568328192	56	4463
2026-01-18 22:26:22.67	97.02	23.98	-41.9	-44.1	19.2	0.00e+00	0	39	0	569376768	55	4621
2026-01-18 22:26:23.95	97.39	23.96	-41.9	-44.2	19.2	0.00e+00	0	39	0	571473920	55	4666
2026-01-18 22:26:24.66	97.59	23.95	-42.0	-44.3	19.1	0.00e+00	0	39	0	573571072	55	4725
2026-01-18 22:26:25.94	97.95	23.92	-42.3	-44.7	18.8	0.00e+00	0	39	0	575668224	55	4930
2026-01-18 22:26:26.65	98.15	23.91	-42.2	-44.6	18.8	0.00e+00	0	39	0	576716800	55	4880
2026-01-18 22:26:27.93	98.51	23.88	-42.1	-44.3	19.1	0.00e+00	0	39	0	579862528	55	4753
2026-01-18 22:26:28.66	98.71	23.86	-41.9	-44.2	19.2	0.00e+00	0	39	0	580911104	55	4664
2026-01-18 22:26:29.93	99.07	23.84	-41.6	-43.8	19.6	0.00e+00	0	39	0	583008256	55	4458
2026-01-18 22:26:30.65	99.27	23.82	-41.5	-43.7	19.6	0.00e+00	0	39	0	584056832	55	4420
2026-01-18 22:26:32.03	99.65	23.79	-41.7	-43.9	19.4	0.00e+00	0	39	0	587202560	55	4498
2026-01-18 22:26:32.74	99.85	23.77	-41.7	-44.0	19.4	0.00e+00	0	39	0	588251136	55	4554
2026-01-18 22:26:34.02	100.21	23.74	-41.8	-44.0	19.3	0.00e+00	0	39	0	591396864	55	4591
2026-01-18 22:26:34.73	100.41	23.72	-41.7	-43.9	19.4	0.00e+00	0	39	0	592445440	55	4521
2026-01-18 22:26:36.01	100.76	23.69	-41.4	-43.5	19.7	0.00e+00	0	39	0	594542592	54	4593
2026-01-18 22:26:36.72	100.96	23.67	-41.2	-43.3	20.0	0.00e+00	0	39	0	595591168	54	4461
2026-01-18 22:26:38.00	101.32	23.63	-41.1	-43.2	20.0	0.00e+00	0	39	0	598736896	54	4436
2026-01-18 22:26:38.71	101.51	23.61	-41.3	-43.4	19.9	0.00e+00	0	39	0	599785472	54	4528
2026-01-18 22:26:39.99	101.86	23.57	-41.5	-43.6	19.6	0.00e+00	0	39	0	601882624	54	4639
2026-01-18 22:26:40.73	102.07	23.55	-41.6	-43.8	19.5	0.00e+00	0	39	0	603979776	54	4742
2026-01-18 22:26:42.01	102.42	23.51	-41.9	-44.2	19.2	0.00e+00	0	39	0	606076928	54	4932
2026-01-18 22:26:42.74	102.62	23.49	-42.1	-44.3	19.1	0.00e+00	0	39	0	607125504	54	5035
2026-01-18 22:26:44.02	102.97	23.45	-42.2	-44.6	18.8	0.00e+00	0	39	0	609222656	55	4883
2026-01-18 22:26:44.75	103.17	23.43	-42.3	-44.6	18.8	0.00e+00	0	39	0	611319808	55	4903
2026-01-18 22:26:46.02	103.52	23.38	-41.9	-44.1	19.2	0.00e+00	0	39	0	613416960	55	4642
2026-01-18 22:26:46.76	103.72	23.36	-41.8	-44.0	19.3	0.00e+00	0	39	0	614465536	55	4593
2026-01-18 22:26:48.04	104.07	23.32	-41.4	-43.6	19.7	0.00e+00	0	39	0	617611264	54	4615
2026-01-18 22:26:48.75	104.26	23.29	-41.4	-43.6	19.7	0.00e+00	0	39	0	618659840	54	4615
2026-01-18 22:26:50.11	104.63	23.24	-41.5	-43.6	19.7	0.00e+00	0	39	0	620756992	54	4646
2026-01-18 22:26:50.82	104.82	23.22	-41.3	-43.4	19.9	0.00e+00	0	39	0	622854144	54	4527
2026-01-18 22:26:52.16	105.18	23.17	-41.1	-43.2	20.0	0.00e+00	0	39	0	624951296	54	4433
2026-01-18 22:26:52.87	105.37	23.14	-41.2	-43.3	19.9	0.00e+00	0	39	0	625999872	54	4460
2026-01-18 22:26:54.15	105.71	23.10	-40.8	-42.9	20.2	0.00e+00	0	39	0	628097024	53	4519
2026-01-18 22:26:54.88	105.91	23.07	-40.6	-42.7	20.5	0.00e+00	0	39	0	630194176	53	4404
2026-01-18 22:26:56.27	106.28	23.01	-40.4	-42.4	20.7	0.00e+00	0	39	0	632291328	52	4509
2026-01-18 22:26:56.98	106.47	22.99	-40.5	-42.5	20.7	0.00e+00	0	39	0	634388480	52	4564
2026-01-18 22:26:58.26	106.81	22.93	-40.4	-42.4	20.7	0.00e+00	0	39	0	636485632	52	4531
2026-01-18 22:26:58.97	107.00	22.91	-40.6	-42.7	20.5	0.00e+00	0	39	0	637534208	52	4657
2026-01-18 22:27:00.25	107.33	22.85	-41.3	-43.5	19.8	0.00e+00	0	39	0	639631360	53	4831
2026-01-18 22:27:00.96	107.52	22.82	-41.3	-43.5	19.8	0.00e+00	0	39	0	641728512	53	4829
2026-01-18 22:27:02.24	107.86	22.77	-41.4	-43.6	19.7	0.00e+00	0	39	0	643825664	53	4888
2026-01-18 22:27:02.95	108.04	22.74	-41.2	-43.3	19.9	0.00e+00	0	39	0	644874240	53	4758
2026-01-18 22:27:04.22	108.38	22.68	-41.0	-43.1	20.1	0.00e+00	0	39	0	648019968	53	4637
2026-01-18 22:27:04.94	108.56	22.65	-40.9	-43.0	20.2	0.00e+00	0	39	0	649068544	53	4581
2026-01-18 22:27:06.21	108.89	22.60	-40.5	-42.5	20.6	0.00e+00	0	39	0	651165696	53	4336
2026-01-18 22:27:07.02	109.10	22.56	-40.7	-42.7	20.5	0.00e+00	0	39	0	653262848	53	4423
2026-01-18 22:27:08.16	109.40	22.51	-41.2	-43.3	19.9	0.00e+00	0	39	0	655360000	53	4750
2026-01-18 22:27:09.01	109.62	22.47	-41.2	-43.3	19.9	0.00e+00	0	39	0	656408576	53	4754
2026-01-18 22:27:10.15	109.91	22.42	-41.5	-43.7	19.6	0.00e+00	0	39	0	658505728	53	4937
2026-01-18 22:27:11.00	110.13	22.38	-41.4	-43.6	19.7	0.00e+00	0	39	0	660602880	53	4877
2026-01-18 22:27:12.14	110.42	22.32	-41.4	-43.6	19.6	0.00e+00	0	39	0	662700032	53	4923
2026-01-18 22:27:12.99	110.64	22.28	-41.1	-43.3	19.9	0.00e+00	0	39	0	663748608	53	4726
2026-01-18 22:27:14.13	110.93	22.23	-41.1	-43.3	20.0	0.00e+00	0	39	0	665845760	53	4727
2026-01-18 22:27:15.33	111.23	22.17	-41.1	-43.2	20.0	0.00e+00	0	39	0	667942912	53	4679
2026-01-18 22:27:16.19	111.45	22.12	-41.3	-43.4	19.9	0.00e+00	0	39	0	670040064	53	4812
2026-01-18 22:27:17.32	111.73	22.07	-41.3	-43.5	19.7	0.00e+00	0	39	0	672137216	53	4856
2026-01-18 22:27:18.18	111.95	22.02	-41.5	-43.7	19.5	0.00e+00	0	39	0	673185792	53	4979
2026-01-18 22:27:19.31	112.23	21.97	-41.3	-43.5	19.7	0.00e+00	0	39	0	675282944	53	4848
2026-01-18 22:27:20.17	112.44	21.92	-41.2	-43.4	19.8	0.00e+00	0	39	0	677380096	53	4779
2026-01-18 22:27:21.30	112.72	21.86	-41.3	-43.5	19.8	0.00e+00	0	39	0	679477248	53	4835
2026-01-18 22:27:22.16	112.94	21.82	-41.1	-43.3	20.0	0.00e+00	0	39	0	681574400	53	4710
2026-01-18 22:27:23.37	113.23	21.76	-41.2	-43.3	19.9	0.00e+00	0	39	0	683671552	53	4754
2026-01-18 22:27:24.23	113.45	21.71	-41.1	-43.3	19.9	0.00e+00	0	39	0	684720128	53	4721
2026-01-18 22:27:25.36	113.72	21.65	-41.4	-43.6	19.7	0.00e+00	0	39	0	686817280	53	4898
2026-01-18 22:27:26.22	113.93	21.60	-41.5	-43.7	19.6	0.00e+00	0	39	0	688914432	53	4949
2026-01-18 22:27:27.35	114.21	21.54	-41.6	-43.8	19.4	0.00e+00	0	39	0	691011584	54	4747
2026-01-18 22:27:28.21	114.42	21.50	-41.8	-44.1	19.2	0.00e+00	0	39	0	692060160	54	4889
2026-01-18 22:27:29.34	114.69	21.43	-42.1	-44.4	18.9	0.00e+00	0	39	0	694157312	54	5098
2026-01-18 22:27:30.20	114.90	21.39	-42.6	-45.0	18.4	0.00e+00	0	39	0	696254464	55	5112
2026-01-18 22:27:31.33	115.17	21.32	-42.8	-45.2	18.4	0.00e+00	0	39	0	698351616	56	4951
2026-01-18 22:27:32.19	115.37	21.28	-42.8	-45.2	18.3	0.00e+00	0	39	0	700448768	56	4976
2026-01-18 22:27:33.32	115.64	21.21	-42.7	-45.1	18.4	0.00e+00	0	39	0	702545920	56	4910
2026-01-18 22:27:34.18	115.85	21.16	-42.3	-44.7	18.8	0.00e+00	0	39	0	703594496	56	4658
2026-01-18 22:27:35.31	116.11	21.10	-42.0	-44.3	19.2	0.00e+00	0	39	0	705691648	56	4455
2026-01-18 22:27:36.17	116.32	21.05	-41.7	-43.9	19.4	0.00e+00	0	39	0	707788800	55	4504
2026-01-18 22:27:37.30	116.58	20.98	-41.4	-43.5	19.7	0.00e+00	0	39	0	709885952	54	4592
2026-01-18 22:27:38.16	116.78	20.93	-41.5	-43.7	19.6	0.00e+00	0	39	0	710934528	54	4692
2026-01-18 22:27:39.30	117.05	20.87	-41.7	-43.9	19.4	0.00e+00	0	39	0	713031680	54	4768
2026-01-18 22:27:40.15	117.25	20.82	-41.7	-44.0	19.3	0.00e+00	0	39	0	715128832	54	4815
2026-01-18 22:27:41.41	117.54	20.74	-42.3	-44.7	18.7	0.00e+00	0	39	0	717225984	55	4934
2026-01-18 22:27:42.20	117.72	20.69	-42.5	-44.9	18.5	0.00e+00	0	39	0	718274560	55	5076
2026-01-18 22:27:43.38	117.99	20.62	-42.9	-45.4	18.2	0.00e+00	0	39	0	721420288	56	5043
2026-01-18 22:27:44.24	118.19	20.57	-42.9	-45.4	18.2	0.00e+00	0	39	0	722468864	57	4768
2026-01-18 22:27:45.52	118.48	20.49	-43.0	-45.5	18.1	0.00e+00	0	39	0	724566016	57	4850
2026-01-18 22:27:46.24	118.64	20.45	-42.9	-45.4	18.2	0.00e+00	0	39	0	726663168	57	4782
2026-01-18 22:27:47.52	118.93	20.37	-42.6	-45.0	18.5	0.00e+00	0	39	0	728760320	57	4584
2026-01-18 22:27:48.25	119.10	20.33	-42.2	-44.4	19.0	0.00e+00	0	39	0	729808896	56	4542
2026-01-18 22:27:49.53	119.38	20.25	-41.7	-43.9	19.3	0.00e+00	0	39	0	732954624	55	4520
2026-01-18 22:27:50.24	119.54	20.20	-41.5	-43.7	19.5	0.00e+00	0	39	0	734003200	55	4439
2026-01-18 22:27:51.52	119.83	20.12	-41.7	-43.9	19.4	0.00e+00	0	39	0	736100352	55	4520
2026-01-18 22:27:52.24	119.99	20.08	-41.8	-44.0	19.3	0.00e+00	0	39	0	737148928	55	4579
2026-01-18 22:27:53.52	120.27	20.00	-42.0	-44.3	19.0	0.00e+00	0	39	0	740294656	55	4726
2026-01-18 22:27:54.25	120.43	19.95	-42.3	-44.6	18.7	0.00e+00	0	39	0	741343232	55	4916
2026-01-18 22:27:55.53	120.71	19.87	-42.9	-45.3	18.2	0.00e+00	0	39	0	743440384	56	5028
2026-01-18 22:27:56.25	120.87	19.83	-42.9	-45.4	18.2	0.00e+00	0	39	0	745537536	56	5049
2026-01-18 22:27:57.53	121.15	19.74	-43.1	-45.5	18.0	0.00e+00	0	39	0	747634688	56	5159
2026-01-18 22:27:58.26	121.30	19.70	-43.0	-45.5	18.1	0.00e+00	0	39	0	748683264	56	5122
2026-01-18 22:27:59.54	121.58	19.61	-43.0	-45.5	18.0	0.00e+00	0	39	0	750780416	56	5146
2026-01-18 22:28:00.25	121.73	19.57	-42.9	-45.3	18.2	0.00e+00	0	39	0	752877568	56	5038
2026-01-18 22:28:01.54	122.01	19.49	-43.0	-45.5	18.1	0.00e+00	0	39	0	754974720	56	5105
2026-01-18 22:28:02.25	122.16	19.44	-43.0	-45.5	18.0	0.00e+00	0	39	0	756023296	56	5132
2026-01-18 22:28:03.53	122.43	19.36	-43.2	-45.7	17.9	0.00e+00	0	39	0	759169024	56	5246
2026-01-18 22:28:04.27	122.59	19.31	-43.3	-45.8	17.7	0.00e+00	0	39	0	760217600	57	5034
2026-01-18 22:28:05.64	122.87	19.22	-43.2	-45.7	17.8	0.00e+00	0	39	0	762314752	57	4963
2026-01-18 22:28:06.36	123.03	19.17	-43.3	-45.9	17.7	0.00e+00	0	39	0	764411904	57	5049
2026-01-18 22:28:07.64	123.29	19.09	-43.2	-45.8	17.8	0.00e+00	0	39	0	766509056	57	4991
2026-01-18 22:28:08.34	123.44	19.04	-43.2	-45.8	17.8	0.00e+00	0	39	0	767557632	57	4999
2026-01-18 22:28:09.76	123.73	18.94	-43.4	-46.0	17.5	0.00e+00	0	39	0	770703360	57	5145
2026-01-18 22:28:10.48	123.88	18.90	-43.6	-46.3	17.3	0.00e+00	0	39	0	771751936	57	5318
2026-01-18 22:28:11.75	124.14	18.81	-43.6	-46.4	17.2	0.00e+00	0	39	0	773849088	58	5089
2026-01-18 22:28:12.47	124.29	18.76	-43.7	-46.4	17.2	0.00e+00	0	39	0	774897664	58	5095
2026-01-18 22:28:13.74	124.54	18.68	-43.4	-45.9	17.6	0.00e+00	0	39	0	778043392	58	4805
2026-01-18 22:28:14.45	124.69	18.63	-42.6	-45.0	18.5	0.00e+00	0	39	0	779091968	57	4580
2026-01-18 22:28:15.73	124.94	18.54	-42.0	-44.3	19.2	0.00e+00	0	39	0	781189120	56	4459
2026-01-18 22:28:16.49	125.10	18.49	-42.0	-44.2	19.2	0.00e+00	0	39	0	783286272	56	4428
2026-01-18 22:28:17.77	125.35	18.41	-41.9	-44.2	19.1	0.00e+00	0	39	0	785383424	55	4664
2026-01-18 22:28:18.49	125.50	18.36	-42.1	-44.5	18.8	0.00e+00	0	39	0	786432000	55	4828
2026-01-18 22:28:19.77	125.75	18.27	-42.5	-44.9	18.4	0.00e+00	0	39	0	789577728	55	5058
2026-01-18 22:28:20.49	125.89	18.22	-42.9	-45.3	18.2	0.00e+00	0	39	0	790626304	56	5028
2026-01-18 22:28:21.76	126.14	18.13	-43.3	-45.9	17.7	0.00e+00	0	39	0	792723456	57	5067
2026-01-18 22:28:22.50	126.28	18.08	-43.2	-45.7	17.9	0.00e+00	0	39	0	793772032	57	4959
2026-01-18 22:28:23.78	126.53	18.00	-43.0	-45.5	18.0	0.00e+00	0	39	0	796917760	57	4842
2026-01-18 22:28:24.64	126.70	17.94	-42.8	-45.3	18.2	0.00e+00	0	39	0	797966336	57	4714
2026-01-18 22:28:26.07	126.97	17.84	-42.7	-45.0	18.4	0.00e+00	0	39	0	801112064	57	4596
2026-01-18 22:28:26.79	127.11	17.79	-42.8	-45.2	18.3	0.00e+00	0	39	0	802160640	57	4681
2026-01-18 22:28:28.07	127.36	17.70	-43.2	-45.8	17.8	0.00e+00	0	39	0	804257792	57	4993
2026-01-18 22:28:28.78	127.49	17.65	-43.6	-46.2	17.3	0.00e+00	0	39	0	806354944	57	5273
2026-01-18 22:28:30.06	127.73	17.56	-44.0	-46.8	16.8	0.00e+00	0	39	0	808452096	58	5315
2026-01-18 22:28:30.77	127.87	17.51	-44.1	-46.9	16.7	0.00e+00	0	39	0	809500672	58	5397
2026-01-18 22:28:32.05	128.11	17.42	-43.6	-46.3	17.3	0.00e+00	0	39	0	812646400	58	5017
2026-01-18 22:28:32.76	128.24	17.37	-43.4	-46.0	17.5	0.00e+00	0	39	0	813694976	58	4844
2026-01-18 22:28:34.04	128.48	17.28	-42.9	-45.3	18.1	0.00e+00	0	39	0	815792128	57	4757
2026-01-18 22:28:34.76	128.61	17.23	-42.7	-45.1	18.4	0.00e+00	0	39	0	816840704	57	4611
2026-01-18 22:28:36.04	128.85	17.14	-42.6	-44.9	18.5	0.00e+00	0	39	0	819986432	57	4538
2026-01-18 22:28:36.75	128.98	17.10	-42.6	-44.9	18.4	0.00e+00	0	39	0	821035008	56	4814
2026-01-18 22:28:38.03	129.21	17.01	-42.6	-45.0	18.5	0.00e+00	0	39	0	823132160	56	4827
2026-01-18 22:28:38.74	129.34	16.96	-42.7	-45.2	18.3	0.00e+00	0	39	0	825229312	56	4935
2026-01-18 22:28:40.02	129.57	16.87	-42.9	-45.4	18.1	0.00e+00	0	39	0	827326464	56	5089
2026-01-18 22:28:40.75	129.70	16.81	-42.9	-45.4	18.1	0.00e+00	0	39	0	828375040	56	5051
2026-01-18 22:28:42.27	129.97	16.71	-42.7	-45.1	18.3	0.00e+00	0	39	0	831520768	56	4917
2026-01-18 22:28:42.98	130.10	16.66	-42.5	-44.9	18.5	0.00e+00	0	39	0	832569344	56	4786
2026-01-18 22:28:44.26	130.33	16.57	-42.3	-44.7	18.8	0.00e+00	0	39	0	834666496	56	4654
2026-01-18 22:28:44.97	130.45	16.52	-42.2	-44.5	18.9	0.00e+00	0	39	0	836763648	56	4578
2026-01-18 22:28:46.24	130.67	16.43	-42.2	-44.6	18.8	0.00e+00	0	39	0	838860800	56	4600
2026-01-18 22:28:46.97	130.80	16.38	-42.6	-45.0	18.5	0.00e+00	0	39	0	839909376	56	4822
2026-01-18 22:28:48.25	131.02	16.29	-42.9	-45.4	18.1	0.00e+00	0	39	0	843055104	56	5067
2026-01-18 22:28:48.96	131.15	16.24	-43.0	-45.5	18.0	0.00e+00	0	39	0	844103680	56	5138
2026-01-18 22:28:50.24	131.37	16.14	-43.4	-46.1	17.4	0.00e+00	0	39	0	846200832	57	5170
2026-01-18 22:28:50.96	131.49	16.09	-43.4	-46.0	17.5	0.00e+00	0	39	0	847249408	57	5132
2026-01-18 22:28:52.23	131.71	16.00	-43.3	-45.9	17.6	0.00e+00	0	39	0	850395136	57	5056
2026-01-18 22:28:52.94	131.83	15.95	-43.1	-45.7	17.8	0.00e+00	0	39	0	851443712	57	4941
2026-01-18 22:28:54.22	132.05	15.86	-42.9	-45.4	18.1	0.00e+00	0	39	0	853540864	57	4783
2026-01-18 22:28:54.94	132.17	15.81	-42.8	-45.3	18.1	0.00e+00	0	39	0	854589440	57	4728
2026-01-18 22:28:56.22	132.38	15.72	-42.6	-45.1	18.3	0.00e+00	0	39	0	857735168	57	4601
2026-01-18 22:28:56.94	132.50	15.67	-42.6	-44.9	18.5	0.00e+00	0	39	0	858783744	57	4544
2026-01-18 22:28:58.22	132.72	15.58	-42.8	-45.3	18.2	0.00e+00	0	39	0	860880896	57	4730
2026-01-18 22:28:58.93	132.83	15.53	-42.9	-45.3	18.1	0.00e+00	0	39	0	862978048	57	4753
2026-01-18 22:29:00.22	133.05	15.44	-42.8	-45.3	18.1	0.00e+00	0	39	0	865075200	57	4750
2026-01-18 22:29:00.93	133.16	15.39	-42.7	-45.2	18.2	0.00e+00	0	39	0	866123776	57	4665
2026-01-18 22:29:02.22	133.37	15.29	-42.7	-45.1	18.3	0.00e+00	0	39	0	869269504	57	4645
2026-01-18 22:29:02.93	133.49	15.24	-42.6	-44.9	18.4	0.00e+00	0	39	0	870318080	57	4545
2026-01-18 22:29:04.21	133.70	15.15	-42.3	-44.6	18.7	0.00e+00	0	39	0	872415232	56	4646
2026-01-18 22:29:04.94	133.81	15.10	-42.3	-44.6	18.7	0.00e+00	0	39	0	873463808	56	4637
2026-01-18 22:29:06.22	134.02	15.01	-42.5	-44.8	18.6	0.00e+00	0	39	0	876609536	56	4747
2026-01-18 22:29:07.06	134.15	14.95	-42.6	-45.0	18.4	0.00e+00	0	39	0	877658112	56	4843
2026-01-18 22:29:08.19	134.33	14.87	-43.2	-45.7	17.7	0.00e+00	0	39	0	879755264	57	4942
2026-01-18 22:29:09.05	134.47	14.81	-43.6	-46.2	17.3	0.00e+00	0	39	0	881852416	57	5257
2026-01-18 22:29:10.18	134.65	14.73	-44.1	-46.9	16.7	0.00e+00	0	39	0	883949568	58	5382
2026-01-18 22:29:11.33	134.82	14.65	-44.4	-47.4	16.2	0.00e+00	0	39	0	886046720	59	5349
2026-01-18 22:29:12.19	134.96	14.59	-44.4	-47.5	16.1	0.00e+00	0	39	0	887095296	59	5403
2026-01-18 22:29:13.33	135.14	14.51	-44.2	-47.2	16.3	0.00e+00	0	39	0	889192448	59	5224
2026-01-18 22:29:14.18	135.27	14.45	-44.1	-47.0	16.6	0.00e+00	0	39	0	891289600	59	5119
2026-01-18 22:29:15.32	135.44	14.36	-43.7	-46.4	17.1	0.00e+00	0	39	0	893386752	59	4786
2026-01-18 22:29:16.17	135.57	14.30	-43.5	-46.1	17.3	0.00e+00	0	39	0	894435328	58	4912
2026-01-18 22:29:17.31	135.75	14.22	-43.3	-45.9	17.6	0.00e+00	0	39	0	896532480	58	4782
2026-01-18 22:29:18.16	135.87	14.16	-43.1	-45.6	17.8	0.00e+00	0	39	0	898629632	58	4651
2026-01-18 22:29:19.29	136.04	14.08	-42.8	-45.3	18.1	0.00e+00	0	39	0	900726784	57	4738
2026-01-18 22:29:20.15	136.17	14.02	-42.8	-45.3	18.1	0.00e+00	0	39	0	902823936	57	4707
2026-01-18 22:29:21.29	136.34	13.94	-42.6	-45.1	18.3	0.00e+00	0	39	0	904921088	57	4606
2026-01-18 22:29:22.14	136.47	13.88	-42.6	-45.0	18.4	0.00e+00	0	39	0	905969664	57	4562
2026-01-18 22:29:23.28	136.64	13.80	-42.4	-44.8	18.5	0.00e+00	0	39	0	908066816	56	4746
2026-01-18 22:29:24.13	136.76	13.74	-42.3	-44.7	18.7	0.00e+00	0	39	0	910163968	56	4663
2026-01-18 22:29:25.27	136.93	13.66	-42.3	-44.6	18.7	0.00e+00	0	39	0	912261120	56	4618
2026-01-18 22:29:26.12	137.06	13.60	-42.4	-44.8	18.6	0.00e+00	0	39	0	913309696	56	4718
2026-01-18 22:29:27.50	137.26	13.50	-42.3	-44.6	18.7	0.00e+00	0	39	0	916455424	56	4615
2026-01-18 22:29:28.21	137.36	13.45	-42.5	-44.8	18.5	0.00e+00	0	39	0	917504000	56	4752
2026-01-18 22:29:29.49	137.54	13.36	-42.5	-44.8	18.5	0.00e+00	0	39	0	919601152	56	4756
2026-01-18 22:29:30.20	137.64	13.31	-42.6	-45.0	18.4	0.00e+00	0	39	0	921698304	56	4822
2026-01-18 22:29:31.74	137.86	13.20	-42.8	-45.3	18.1	0.00e+00	0	39	0	923795456	56	4993
2026-01-18 22:29:32.72	138.00	13.13	-43.2	-45.7	17.7	0.00e+00	0	39	0	925892608	56	5274
2026-01-18 22:29:33.72	138.14	13.06	-43.5	-46.2	17.2	0.00e+00	0	39	0	927989760	57	5254
2026-01-18 22:29:34.71	138.28	12.99	-43.5	-46.2	17.2	0.00e+00	0	39	0	930086912	57	5261
2026-01-18 22:29:35.71	138.42	12.92	-43.3	-46.0	17.4	0.00e+00	0	39	0	931135488	57	5112
2026-01-18 22:29:36.70	138.56	12.85	-43.4	-46.1	17.4	0.00e+00	0	39	0	933232640	57	5167
2026-01-18 22:29:37.70	138.70	12.78	-43.6	-46.3	17.1	0.00e+00	0	39	0	935329792	57	5313
2026-01-18 22:29:38.69	138.83	12.71	-43.6	-46.3	17.1	0.00e+00	0	39	0	937426944	58	5035
2026-01-18 22:29:39.69	138.97	12.64	-43.6	-46.3	17.2	0.00e+00	0	39	0	938475520	58	4997
2026-01-18 22:29:40.74	139.11	12.57	-43.5	-46.2	17.3	0.00e+00	0	39	0	940572672	58	4942
2026-01-18 22:29:41.63	139.24	12.51	-43.3	-45.9	17.5	0.00e+00	0	39	0	942669824	58	4794
2026-01-18 22:29:42.77	139.39	12.43	-43.3	-45.9	17.5	0.00e+00	0	39	0	944766976	58	4763
2026-01-18 22:29:43.62	139.50	12.37	-43.2	-45.8	17.6	0.00e+00	0	39	0	946864128	58	4754
2026-01-18 22:29:44.76	139.66	12.29	-43.2	-45.7	17.6	0.00e+00	0	39	0	948961280	58	4703
2026-01-18 22:29:45.61	139.77	12.23	-43.3	-45.9	17.5	0.00e+00	0	39	0	950009856	58	4771
2026-01-18 22:29:47.08	139.97	12.13	-43.3	-45.9	17.5	0.00e+00	0	39	0	953155584	58	4784
2026-01-18 22:29:47.79	140.06	12.08	-43.4	-46.1	17.3	0.00e+00	0	39	0	954204160	58	4872
2026-01-18 22:29:49.27	140.25	11.98	-43.4	-46.0	17.3	0.00e+00	0	39	0	957349888	58	4862
2026-01-18 22:29:49.99	140.35	11.93	-43.2	-45.8	17.6	0.00e+00	0	39	0	958398464	58	4714
2026-01-18 22:29:51.27	140.51	11.84	-43.1	-45.7	17.7	0.00e+00	0	39	0	960495616	58	4653
2026-01-18 22:29:51.99	140.61	11.79	-43.2	-45.8	17.5	0.00e+00	0	39	0	961544192	58	4723
2026-01-18 22:29:53.27	140.77	11.70	-43.0	-45.6	17.7	0.00e+00	0	39	0	964689920	58	4650
2026-01-18 22:29:54.01	140.87	11.65	-43.2	-45.9	17.5	0.00e+00	0	39	0	965738496	57	5047
2026-01-18 22:29:55.28	141.03	11.56	-42.9	-45.5	17.8	0.00e+00	0	39	0	967835648	57	4839
2026-01-18 22:29:56.00	141.12	11.51	-42.9	-45.4	17.9	0.00e+00	0	39	0	969932800	57	4794
2026-01-18 22:29:57.28	141.28	11.42	-43.0	-45.5	17.8	0.00e+00	0	39	0	972029952	57	4848
2026-01-18 22:29:58.00	141.37	11.37	-43.2	-45.8	17.5	0.00e+00	0	39	0	973078528	57	5019
2026-01-18 22:29:59.28	141.54	11.28	-43.5	-46.1	17.2	0.00e+00	0	39	0	976224256	57	5213
2026-01-18 22:29:59.99	141.62	11.23	-43.4	-46.0	17.3	0.00e+00	0	39	0	977272832	57	5147
2026-01-18 22:30:01.27	141.78	11.15	-43.7	-46.5	16.9	0.00e+00	0	39	0	979369984	58	5127
2026-01-18 22:30:01.98	141.87	11.10	-43.7	-46.5	16.8	0.00e+00	0	39	0	980418560	58	5147
2026-01-18 22:30:03.26	142.03	11.01	-43.7	-46.5	16.9	0.00e+00	0	39	0	983564288	58	5129
2026-01-18 22:30:03.99	142.12	10.96	-44.2	-47.2	16.2	0.00e+00	0	39	0	984612864	59	5221
2026-01-18 22:30:05.27	142.27	10.87	-44.4	-47.4	16.0	0.00e+00	0	39	0	986710016	59	5368
2026-01-18 22:30:05.99	142.36	10.82	-44.4	-47.4	15.9	0.00e+00	0	39	0	988807168	59	5387
2026-01-18 22:30:07.27	142.52	10.74	-44.6	-47.8	15.7	0.00e+00	0	39	0	990904320	60	5295
2026-01-18 22:30:08.27	142.64	10.67	-44.7	-47.9	15.5	0.00e+00	0	39	0	993001472	60	5356
2026-01-18 22:30:09.26	142.76	10.60	-44.9	-48.3	15.2	0.00e+00	0	39	0	994050048	60	5609
2026-01-18 22:30:10.26	142.88	10.53	-44.8	-48.1	15.3	0.00e+00	0	39	0	996147200	60	5483
2026-01-18 22:30:11.25	142.99	10.47	-44.6	-47.8	15.6	0.00e+00	0	39	0	998244352	60	5313
2026-01-18 22:30:12.25	143.11	10.40	-44.5	-47.7	15.7	0.00e+00	0	39	0	1000341504	60	5248
2026-01-18 22:30:13.25	143.23	10.33	-44.6	-47.8	15.6	0.00e+00	0	39	0	1001390080	60	5317
2026-01-18 22:30:14.24	143.34	10.26	-44.3	-47.4	15.9	0.00e+00	0	39	0	1003487232	60	5100
2026-01-18 22:30:15.23	143.46	10.20	-44.4	-47.5	15.8	0.00e+00	0	39	0	1005584384	60	5149
2026-01-18 22:30:16.27	143.58	10.13	-44.0	-47.0	16.4	0.00e+00	0	39	0	1007681536	60	4821
2026-01-18 22:30:17.24	143.69	10.06	-43.8	-46.7	16.6	0.00e+00	0	39	0	1009778688	59	4949
2026-01-18 22:30:18.34	143.82	9.99	-43.7	-46.6	16.7	0.00e+00	0	39	0	1011875840	59	4879
2026-01-18 22:30:19.23	143.92	9.93	-43.8	-46.7	16.6	0.00e+00	0	39	0	1012924416	59	4932
2026-01-18 22:30:20.36	144.05	9.85	-43.7	-46.6	16.7	0.00e+00	0	39	0	1015021568	59	4881
2026-01-18 22:30:21.21	144.15	9.79	-43.8	-46.6	16.6	0.00e+00	0	39	0	1017118720	59	4915
2026-01-18 22:30:22.35	144.28	9.72	-43.9	-46.9	16.4	0.00e+00	0	39	0	1019215872	59	5053
2026-01-18 22:30:23.20	144.37	9.66	-43.9	-46.8	16.5	0.00e+00	0	39	0	1020264448	59	5022
2026-01-18 22:30:24.34	144.50	9.58	-43.4	-46.1	17.1	0.00e+00	0	39	0	1022361600	58	4901
2026-01-18 22:30:25.40	144.62	9.51	-43.6	-46.5	16.8	0.00e+00	0	39	0	1024458752	58	5105
2026-01-18 22:30:26.26	144.71	9.46	-43.6	-46.4	16.8	0.00e+00	0	39	0	1026555904	58	5086
2026-01-18 22:30:27.39	144.84	9.38	-43.5	-46.4	16.9	0.00e+00	0	39	0	1028653056	58	5046
2026-01-18 22:30:28.24	144.93	9.32	-43.5	-46.3	16.9	0.00e+00	0	39	0	1029701632	58	5020
2026-01-18 22:30:29.38	145.06	9.25	-43.4	-46.2	17.0	0.00e+00	0	39	0	1031798784	58	4967
2026-01-18 22:30:30.24	145.15	9.19	-43.5	-46.4	16.8	0.00e+00	0	39	0	1033895936	58	5042
2026-01-18 22:30:31.37	145.27	9.12	-43.5	-46.4	16.8	0.00e+00	0	39	0	1035993088	58	5075
2026-01-18 22:30:32.23	145.37	9.06	-43.3	-46.1	17.1	0.00e+00	0	39	0	1037041664	58	4876
2026-01-18 22:30:33.36	145.49	8.98	-43.7	-46.6	16.6	0.00e+00	0	39	0	1039138816	58	5201
2026-01-18 22:30:34.22	145.58	8.93	-49.4	-64.2	3.8	6.01e-01	0	39	104	1040187392	69	20826
2026-01-18 22:30:35.48	145.72	8.84	-49.5	-65.0	3.8	1.49e+00	0	39	104	1040187392	69	22936
2026-01-18 22:30:36.26	145.80	8.79	-49.9	-65.1	3.8	1.49e+00	0	39	104	1040187392	70	21892
2026-01-18 22:30:37.64	145.94	8.70	-50.0	-65.2	3.8	1.49e+00	0	39	104	1040187392	70	22069
2026-01-18 22:30:38.35	146.02	8.66	-50.0	-65.2	3.8	1.49e+00	0	39	104	1040187392	70	22239
2026-01-18 22:30:39.75	146.17	8.56	-50.0	-65.3	3.8	1.49e+00	0	39	104	1040187392	70	22339
2026-01-18 22:30:40.46	146.24	8.52	-49.8	-65.3	3.8	1.49e+00	0	39	104	1040187392	70	22504
2026-01-18 22:30:41.80	146.38	8.43	-50.0	-65.4	3.8	1.49e+00	0	39	104	1040187392	70	22531
2026-01-18 22:30:42.51	146.45	8.38	-50.2	-65.4	3.8	1.49e+00	0	39	104	1040187392	70	22590
2026-01-18 22:30:43.85	146.59	8.30	-50.0	-65.4	3.8	1.49e+00	0	39	104	1040187392	71	21379
2026-01-18 22:30:44.56	146.66	8.25	-50.2	-65.4	3.8	1.49e+00	0	39	104	1040187392	71	21384
2026-01-18 22:30:45.84	146.79	8.17	-49.9	-65.4	3.8	1.49e+00	0	39	104	1040187392	71	21470
2026-01-18 22:30:46.56	146.87	8.12	-50.1	-65.4	3.8	1.49e+00	0	39	104	1040187392	71	21450
2026-01-18 22:30:47.84	147.00	8.04	-50.3	-65.5	3.8	1.49e+00	0	39	104	1040187392	71	21573
2026-01-18 22:30:48.55	147.07	7.99	-50.3	-65.4	3.8	1.49e+00	0	39	104	1040187392	71	21502
2026-01-18 22:30:49.83	147.20	7.91	-50.1	-65.5	3.8	1.49e+00	0	39	104	1040187392	71	21570
2026-01-18 22:30:50.54	147.27	7.86	-50.2	-65.5	3.8	1.49e+00	0	39	104	1040187392	71	21573
2026-01-18 22:30:51.81	147.39	7.78	-50.1	-65.4	3.8	1.49e+00	0	39	104	1040187392	71	21459
2026-01-18 22:30:52.54	147.47	7.74	-50.1	-65.4	3.8	1.49e+00	0	39	104	1040187392	71	21455
2026-01-18 22:30:53.81	147.59	7.65	-49.9	-65.5	3.8	1.49e+00	0	39	104	1040187392	71	21555
2026-01-18 22:30:54.53	147.66	7.61	-49.9	-65.4	3.8	1.49e+00	0	39	104	1040187392	71	21456
2026-01-18 22:30:55.80	147.79	7.53	-49.9	-65.4	3.8	1.49e+00	0	39	104	1040187392	71	21372
2026-01-18 22:30:56.51	147.86	7.48	-49.9	-65.4	3.8	1.49e+00	0	39	104	1040187392	71	21456
2026-01-18 22:30:57.79	147.98	7.40	-49.9	-65.4	3.8	1.49e+00	0	39	104	1040187392	71	21359
2026-01-18 22:30:58.50	148.05	7.35	-49.9	-65.4	3.8	1.49e+00	0	39	104	1040187392	71	21448
2026-01-18 22:30:59.77	148.17	7.27	-49.9	-65.4	3.8	1.49e+00	0	39	104	1040187392	71	21365
2026-01-18 22:31:00.48	148.24	7.23	-49.9	-65.4	3.8	1.49e+00	0	39	104	1040187392	71	21387
2026-01-18 22:31:01.76	148.36	7.15	-49.9	-65.4	3.8	1.49e+00	0	39	104	1040187392	71	21415
2026-01-18 22:31:02.47	148.43	7.10	-49.9	-65.4	3.8	1.49e+00	0	39	104	1040187392	71	21483
2026-01-18 22:31:03.75	148.55	7.02	-49.9	-65.4	3.8	1.49e+00	0	39	104	1040187392	71	21377
2026-01-18 22:31:04.46	148.62	6.98	-49.9	-65.4	3.8	1.49e+00	0	39	104	1040187392	71	21384
2026-01-18 22:31:05.74	148.74	6.89	-49.9	-65.4	3.8	1.49e+00	0	39	104	1040187392	71	21330
2026-01-18 22:31:06.45	148.80	6.85	-49.9	-65.4	3.8	1.49e+00	0	39	104	1040187392	71	21317
2026-01-18 22:31:07.72	148.92	6.77	-49.9	-65.4	3.8	1.49e+00	0	39	104	1040187392	71	21335
2026-01-18 22:31:08.45	148.99	6.72	-49.9	-65.4	3.8	1.49e+00	0	39	104	1040187392	71	21316
2026-01-18 22:31:09.72	149.11	6.64	-49.9	-65.4	3.8	1.49e+00	0	39	104	1040187392	71	21313
2026-01-18 22:31:10.44	149.17	6.60	-49.9	-65.4	3.8	1.49e+00	0	39	104	1040187392	71	21293
2026-01-18 22:31:11.71	149.29	6.52	-49.9	-65.4	3.8	1.49e+00	0	39	104	1040187392	71	21319
2026-01-18 22:31:12.42	149.35	6.48	-49.9	-65.4	3.8	1.49e+00	0	39	104	1040187392	71	21329
2026-01-18 22:31:13.70	149.47	6.40	-49.9	-65.4	3.8	1.49e+00	0	39	104	1040187392	71	21317
2026-01-18 22:31:14.41	149.53	6.35	-49.9	-65.4	3.8	1.49e+00	0	39	104	1040187392	71	21261
2026-01-18 22:31:15.69	149.65	6.27	-49.9	-65.4	3.8	1.49e+00	0	39	104	1040187392	71	21310
2026-01-18 22:31:16.40	149.71	6.23	-49.9	-65.4	3.8	1.49e+00	0	39	104	1040187392	71	21373
2026-01-18 22:31:17.67	149.83	6.15	-49.9	-65.3	3.8	1.49e+00	0	39	104	1040187392	71	21194
2026-01-18 22:31:18.40	149.89	6.10	-49.9	-65.4	3.8	1.49e+00	0	39	104	1040187392	71	21277
2026-01-18 22:31:19.68	150.01	6.02	-49.9	-65.4	3.8	1.49e+00	0	39	104	1040187392	71	21285
2026-01-18 22:31:20.39	150.07	5.98	-49.9	-65.4	3.8	1.49e+00	0	39	104	1040187392	71	21306
2026-01-18 22:31:21.66	150.18	5.90	-49.9	-65.4	3.8	1.49e+00	0	40	104	1040187392	71	21283
2026-01-18 22:31:22.37	150.24	5.86	-49.9	-65.4	3.8	1.49e+00	0	39	104	1040187392	71	21362
2026-01-18 22:31:23.65	150.35	5.78	-49.9	-65.4	3.8	1.49e+00	0	39	104	1040187392	71	21282
2026-01-18 22:31:24.37	150.42	5.74	-49.9	-65.4	3.8	1.49e+00	0	39	104	1040187392	71	21283
2026-01-18 22:31:25.65	150.53	5.66	-49.9	-65.4	3.8	1.49e+00	0	39	104	1040187392	71	21273
2026-01-18 22:31:26.36	150.59	5.61	-49.9	-65.4	3.8	1.49e+00	0	39	104	1040187392	71	21271
2026-01-18 22:31:27.64	150.70	5.54	-49.9	-65.3	3.8	1.49e+00	0	39	104	1040187392	71	21218
2026-01-18 22:31:28.35	150.76	5.49	-49.9	-65.4	3.8	1.49e+00	0	39	104	1040187392	71	21341
2026-01-18 22:31:29.64	150.87	5.41	-49.9	-65.3	3.8	1.49e+00	0	39
