passes_logs/2026/01/18/T1/T1__20260118_233034_NOAA_21_JPSS-2_rec.log

#Pass ID: 20260118_233034_NOAA 21 (JPSS-2)
#Satellite: NOAA 21 (JPSS-2)
#Configuration: NOAA 21
#almurnet v.1.7.20251203
#Start time: 2026-01-18 23:30:36

#Version: 2.0.20230620
#Station: T1
#Location: 37.570604 lon 55.790049 lat
#TLE: 1 54234U 22150A   26017.90260625  .00000050  00000+0  44518-4 0  9994
#TLE: 2 54234  98.7502 318.7672 0000612 269.1755  90.9351 14.19535344165221

#Time	Az	El	Level	Level2	SNR	BER	BlckErr	Temp	State	Recorded	gain1	gain2
2026-01-18 23:30:36.17	17.55	5.11	-48.3	-62.5	3.8	1.49e+00	0	40	0	0	67	19178
2026-01-18 23:30:37.15	17.56	5.18	-48.3	-62.4	3.8	1.49e+00	0	40	104	0	67	18993
2026-01-18 23:30:38.15	17.58	5.25	-48.4	-62.3	3.8	1.49e+00	0	40	104	0	67	18921
2026-01-18 23:30:39.14	17.59	5.33	-48.3	-62.3	3.8	1.49e+00	0	40	104	0	67	18784
2026-01-18 23:30:40.14	17.60	5.40	-48.3	-62.3	3.8	1.49e+00	0	40	104	0	67	18802
2026-01-18 23:30:41.13	17.62	5.47	-48.4	-62.2	3.8	1.49e+00	0	40	104	0	67	18665
2026-01-18 23:30:42.12	17.63	5.54	-48.3	-62.2	3.8	1.49e+00	0	40	104	0	67	18620
2026-01-18 23:30:43.11	17.65	5.61	-48.3	-62.2	3.8	1.49e+00	0	40	104	0	67	18642
2026-01-18 23:30:44.11	17.66	5.68	-48.3	-62.2	3.8	1.49e+00	0	40	104	0	67	18694
2026-01-18 23:30:45.10	17.67	5.76	-48.3	-62.2	3.8	1.49e+00	0	40	104	0	67	18705
2026-01-18 23:30:46.09	17.69	5.83	-48.4	-62.2	3.8	1.49e+00	0	40	104	0	67	18718
2026-01-18 23:30:47.09	17.70	5.90	-48.3	-62.3	3.8	1.49e+00	0	40	104	0	67	18804
2026-01-18 23:30:48.08	17.72	5.97	-48.4	-62.3	3.8	1.49e+00	0	40	104	0	67	18923
2026-01-18 23:30:49.07	17.73	6.05	-48.4	-62.4	3.8	1.49e+00	0	40	104	0	67	19041
2026-01-18 23:30:50.06	17.74	6.12	-48.3	-62.4	3.8	1.49e+00	0	41	104	0	67	19016
2026-01-18 23:30:51.06	17.76	6.19	-48.4	-62.4	3.8	1.49e+00	0	41	104	0	67	19062
2026-01-18 23:30:52.05	17.77	6.27	-48.4	-62.4	3.8	1.49e+00	0	41	104	0	67	18972
2026-01-18 23:30:53.04	17.79	6.34	-48.4	-62.3	3.8	1.49e+00	0	41	104	0	67	18931
2026-01-18 23:30:54.04	17.80	6.41	-48.4	-62.3	3.8	1.49e+00	0	41	104	0	67	18844
2026-01-18 23:30:55.03	17.81	6.49	-48.4	-62.2	3.8	1.49e+00	0	41	104	0	67	18619
2026-01-18 23:30:56.02	17.83	6.56	-48.3	-62.1	3.8	1.49e+00	0	41	104	0	67	18402
2026-01-18 23:30:57.02	17.84	6.64	-48.3	-61.9	3.8	1.49e+00	0	41	104	0	67	18070
2026-01-18 23:30:58.01	17.86	6.71	-48.3	-61.7	3.8	1.49e+00	0	41	104	0	67	17607
2026-01-18 23:30:59.00	17.87	6.79	-48.3	-61.4	3.8	1.49e+00	0	41	104	0	67	17033
2026-01-18 23:30:59.99	17.89	6.86	-48.3	-61.2	3.8	1.49e+00	0	41	104	0	67	16689
2026-01-18 23:31:00.99	17.90	6.94	-48.2	-60.9	3.8	1.49e+00	0	41	104	0	67	16097
2026-01-18 23:31:01.98	17.92	7.01	-48.2	-60.6	3.8	1.49e+00	0	41	104	0	67	15481
2026-01-18 23:31:02.98	17.93	7.09	-48.2	-59.9	4.0	1.48e+00	0	41	104	0	67	14365
2026-01-18 23:31:03.97	17.95	7.17	-48.2	-59.6	4.0	1.48e+00	0	41	104	0	67	13840
2026-01-18 23:31:04.96	17.96	7.24	-48.1	-59.5	3.9	1.48e+00	0	41	104	0	67	13617
2026-01-18 23:31:05.95	17.98	7.32	-48.1	-59.5	3.9	1.47e+00	0	41	104	0	67	13609
2026-01-18 23:31:06.94	17.99	7.40	-48.1	-59.3	3.9	1.47e+00	0	41	104	0	67	13270
2026-01-18 23:31:07.94	18.01	7.47	-48.0	-58.6	4.3	1.46e+00	0	41	104	0	67	12251
2026-01-18 23:31:08.93	18.02	7.55	-48.0	-58.1	4.5	1.43e+00	0	41	104	0	67	11655
2026-01-18 23:31:09.92	18.04	7.63	-48.0	-57.9	4.5	1.28e+00	0	41	104	0	67	11302
2026-01-18 23:31:10.92	18.05	7.71	-47.9	-57.6	4.6	1.11e+00	0	41	104	0	67	11015
2026-01-18 23:31:11.91	18.07	7.79	-47.9	-57.9	4.0	1.02e+00	0	41	104	0	67	11409
2026-01-18 23:31:12.90	18.08	7.86	-47.8	-56.9	5.0	7.14e-01	0	41	0	0	67	10099
2026-01-18 23:31:13.90	18.10	7.94	-47.7	-56.2	5.4	5.58e-01	0	41	0	0	67	9384
2026-01-18 23:31:14.89	18.11	8.02	-47.6	-55.7	5.8	4.29e-01	0	41	0	0	67	8813
2026-01-18 23:31:15.88	18.13	8.10	-47.4	-54.9	6.3	3.06e-01	0	41	0	0	66	8531
2026-01-18 23:31:16.88	18.14	8.18	-47.3	-54.3	6.9	1.83e-01	0	41	0	0	66	7907
2026-01-18 23:31:17.87	18.16	8.26	-47.0	-53.4	7.7	1.04e-01	0	41	0	0	66	7190
2026-01-18 23:31:18.86	18.18	8.34	-46.8	-52.6	8.5	4.74e-02	0	41	0	0	65	6944
2026-01-18 23:31:19.86	18.19	8.42	-46.4	-51.7	9.5	2.25e-02	0	41	0	0	64	6581
2026-01-18 23:31:20.85	18.21	8.50	-46.1	-50.9	10.3	7.68e-03	0	41	0	0	64	6014
2026-01-18 23:31:21.84	18.22	8.58	-45.8	-50.3	11.0	2.43e-03	0	41	0	0	63	5945
2026-01-18 23:31:22.84	18.24	8.66	-45.5	-49.6	11.7	7.46e-04	0	41	0	0	63	5502
2026-01-18 23:31:23.83	18.26	8.74	-45.2	-49.1	12.2	2.46e-04	0	41	0	0	62	5518
2026-01-18 23:31:24.82	18.27	8.82	-45.0	-48.8	12.6	9.76e-05	0	41	0	0	62	5281
2026-01-18 23:31:25.82	18.29	8.91	-44.8	-48.3	13.0	7.32e-05	0	41	0	0	61	5332
2026-01-18 23:31:26.81	18.30	8.99	-44.7	-48.2	13.1	3.05e-05	0	41	0	0	61	5260
2026-01-18 23:31:27.80	18.32	9.07	-45.2	-49.1	12.2	1.27e-04	0	41	0	0	61	5797
2026-01-18 23:31:28.80	18.34	9.15	-46.1	-50.5	10.8	2.73e-04	0	42	0	0	62	6488
2026-01-18 23:31:29.79	18.35	9.23	-45.5	-49.7	11.7	6.33e-05	0	41	0	0	61	6235
2026-01-18 23:31:30.79	18.37	9.32	-47.3	-54.8	6.5	5.01e-02	0	42	0	0	65	8932
2026-01-18 23:31:31.78	18.39	9.40	-42.4	-44.7	16.5	2.24e-04	0	41	0	0	56	4687
2026-01-18 23:31:32.77	18.40	9.48	-41.7	-43.8	17.2	0.00e+00	0	41	0	0	55	4485
2026-01-18 23:31:33.77	18.42	9.57	-41.3	-43.4	17.7	0.00e+00	0	41	0	0	54	4512
2026-01-18 23:31:34.76	18.44	9.65	-41.0	-43.1	18.0	0.00e+00	0	42	0	0	54	4341
2026-01-18 23:31:35.76	18.45	9.74	-41.0	-43.0	18.0	0.00e+00	0	42	0	0	54	4312
2026-01-18 23:31:36.75	18.47	9.82	-40.9	-42.9	18.1	0.00e+00	0	42	0	0	53	4510
2026-01-18 23:31:37.78	18.49	9.91	-40.9	-42.9	18.1	0.00e+00	0	42	0	0	53	4517
2026-01-18 23:31:38.79	18.51	10.00	-40.9	-43.0	18.1	0.00e+00	0	42	0	0	53	4559
2026-01-18 23:31:39.79	18.52	10.08	-41.0	-43.0	18.0	0.00e+00	0	42	0	0	53	4585
2026-01-18 23:31:40.84	18.54	10.17	-41.0	-43.0	18.1	0.00e+00	0	42	0	0	53	4556
2026-01-18 23:31:41.70	18.56	10.25	-41.0	-43.0	18.1	0.00e+00	0	41	0	0	53	4561
2026-01-18 23:31:42.84	18.58	10.35	-41.0	-43.0	18.0	0.00e+00	0	42	0	0	53	4580
2026-01-18 23:31:43.80	18.59	10.43	-41.0	-43.0	18.0	0.00e+00	0	42	0	0	53	4573
2026-01-18 23:31:44.97	18.61	10.53	-40.9	-43.0	18.1	0.00e+00	0	42	0	0	53	4552
2026-01-18 23:31:45.82	18.63	10.61	-40.8	-42.8	18.2	0.00e+00	0	42	0	0	53	4464
2026-01-18 23:31:47.17	18.65	10.73	-40.9	-42.9	18.1	0.00e+00	0	42	0	0	53	4533
2026-01-18 23:31:47.88	18.67	10.79	-40.9	-42.8	18.2	0.00e+00	0	42	0	0	53	4490
2026-01-18 23:31:49.16	18.69	10.91	-40.8	-42.8	18.2	0.00e+00	0	42	0	0	53	4481
2026-01-18 23:31:49.88	18.70	10.97	-40.8	-42.8	18.3	0.00e+00	0	42	0	0	53	4469
2026-01-18 23:31:51.16	18.73	11.09	-41.0	-43.0	18.1	0.00e+00	0	42	0	0	53	4549
2026-01-18 23:31:51.89	18.74	11.15	-40.9	-42.9	18.2	0.00e+00	0	41	0	0	53	4495
2026-01-18 23:31:53.17	18.76	11.27	-40.8	-42.7	18.3	0.00e+00	0	42	0	0	53	4423
2026-01-18 23:31:53.88	18.78	11.33	-40.7	-42.7	18.4	0.00e+00	0	42	0	0	53	4397
2026-01-18 23:31:55.16	18.80	11.45	-40.7	-42.6	18.4	0.00e+00	0	42	0	0	53	4365
2026-01-18 23:31:55.87	18.81	11.51	-40.7	-42.6	18.5	0.00e+00	0	42	0	0	53	4357
2026-01-18 23:31:57.15	18.84	11.63	-40.6	-42.5	18.6	0.00e+00	0	42	0	0	53	4311
2026-01-18 23:31:58.11	18.85	11.72	-40.6	-42.5	18.6	0.00e+00	0	42	0	0	53	4298
2026-01-18 23:31:59.11	18.87	11.81	-40.6	-42.4	18.6	0.00e+00	0	42	0	0	53	4284
2026-01-18 23:32:00.10	18.89	11.90	-40.5	-42.4	18.6	0.00e+00	0	42	0	0	53	4267
2026-01-18 23:32:01.10	18.91	12.00	-40.5	-42.3	18.7	0.00e+00	0	42	0	0	52	4481
2026-01-18 23:32:02.09	18.93	12.09	-40.5	-42.4	18.7	0.00e+00	0	42	0	0	52	4513
2026-01-18 23:32:03.09	18.95	12.18	-40.4	-42.3	18.8	0.00e+00	0	42	0	0	52	4458
2026-01-18 23:32:04.08	18.97	12.28	-40.5	-42.4	18.6	0.00e+00	0	42	0	0	52	4534
2026-01-18 23:32:05.08	18.99	12.37	-40.4	-42.3	18.8	0.00e+00	0	42	0	0	52	4476
2026-01-18 23:32:06.07	19.01	12.46	-40.4	-42.3	18.8	0.00e+00	0	42	0	0	52	4479
2026-01-18 23:32:07.13	19.03	12.56	-40.5	-42.4	18.7	0.00e+00	0	42	0	0	52	4508
2026-01-18 23:32:08.04	19.05	12.65	-40.4	-42.3	18.8	0.00e+00	0	42	0	0	52	4477
2026-01-18 23:32:09.04	19.07	12.75	-40.4	-42.3	18.8	0.00e+00	0	42	0	0	52	4476
2026-01-18 23:32:10.03	19.09	12.84	-40.3	-42.1	18.9	0.00e+00	0	42	0	0	52	4386
2026-01-18 23:32:11.03	19.11	12.94	-40.3	-42.2	18.9	0.00e+00	0	42	0	0	52	4416
2026-01-18 23:32:12.02	19.13	13.04	-40.4	-42.3	18.8	0.00e+00	0	42	0	0	52	4460
2026-01-18 23:32:13.01	19.15	13.13	-40.3	-42.2	18.9	0.00e+00	0	42	0	0	52	4398
2026-01-18 23:32:14.01	19.17	13.23	-40.3	-42.2	18.9	0.00e+00	0	42	0	0	52	4414
2026-01-18 23:32:15.01	19.19	13.33	-40.2	-42.1	19.0	0.00e+00	0	42	0	0	52	4366
2026-01-18 23:32:16.00	19.21	13.43	-40.3	-42.2	18.9	0.00e+00	0	42	0	0	52	4404
2026-01-18 23:32:17.00	19.23	13.53	-40.3	-42.2	18.9	0.00e+00	0	42	0	0	52	4406
2026-01-18 23:32:17.99	19.25	13.62	-40.2	-42.1	19.0	0.00e+00	0	42	0	0	52	4383
2026-01-18 23:32:18.99	19.27	13.72	-40.2	-42.1	19.1	0.00e+00	0	42	0	0	52	4344
2026-01-18 23:32:19.98	19.29	13.82	-40.1	-42.1	19.1	0.00e+00	0	42	0	0	52	4343
2026-01-18 23:32:20.98	19.31	13.93	-40.1	-42.0	19.2	0.00e+00	0	42	0	0	52	4309
2026-01-18 23:32:21.97	19.33	14.03	-40.2	-42.1	19.0	0.00e+00	0	42	0	0	52	4382
2026-01-18 23:32:22.97	19.35	14.13	-40.2	-42.1	19.1	0.00e+00	0	42	0	0	52	4372
2026-01-18 23:32:23.96	19.38	14.23	-40.2	-42.1	19.0	0.00e+00	0	42	0	0	52	4369
2026-01-18 23:32:24.96	19.40	14.33	-40.0	-41.9	19.2	0.00e+00	0	42	0	0	52	4284
2026-01-18 23:32:25.95	19.42	14.43	-40.0	-42.0	19.2	0.00e+00	0	42	0	0	52	4295
2026-01-18 23:32:26.95	19.44	14.54	-40.0	-41.9	19.2	0.00e+00	0	42	0	0	52	4265
2026-01-18 23:32:27.94	19.46	14.64	-40.0	-42.0	19.1	0.00e+00	0	42	0	0	52	4310
2026-01-18 23:32:28.93	19.48	14.74	-40.1	-42.0	19.1	0.00e+00	0	42	0	0	52	4324
2026-01-18 23:32:29.93	19.51	14.85	-40.1	-42.0	19.1	0.00e+00	0	42	0	0	52	4325
2026-01-18 23:32:30.96	19.53	14.95	-40.0	-41.9	19.2	0.00e+00	0	42	0	0	52	4271
2026-01-18 23:32:31.95	19.55	15.06	-40.0	-41.9	19.2	0.00e+00	0	42	0	0	52	4262
2026-01-18 23:32:32.94	19.57	15.16	-40.1	-42.0	19.1	0.00e+00	0	42	0	0	52	4325
2026-01-18 23:32:33.94	19.60	15.27	-40.1	-42.0	19.1	0.00e+00	0	42	0	0	52	4319
2026-01-18 23:32:34.93	19.62	15.38	-40.0	-41.9	19.3	0.00e+00	0	42	0	0	52	4250
2026-01-18 23:32:35.93	19.64	15.48	-40.0	-41.9	19.3	0.00e+00	0	42	0	0	51	4529
2026-01-18 23:32:36.92	19.67	15.59	-40.0	-41.9	19.4	0.00e+00	0	42	0	0	51	4499
2026-01-18 23:32:37.91	19.69	15.70	-40.0	-41.8	19.4	0.00e+00	0	42	0	0	51	4481
2026-01-18 23:32:38.91	19.71	15.81	-40.0	-41.9	19.3	0.00e+00	0	42	0	0	51	4504
2026-01-18 23:32:39.90	19.74	15.91	-40.0	-41.8	19.4	0.00e+00	0	42	0	0	51	4485
2026-01-18 23:32:40.90	19.76	16.02	-39.9	-41.8	19.4	0.00e+00	0	42	0	0	51	4444
2026-01-18 23:32:41.90	19.78	16.13	-40.0	-41.8	19.4	0.00e+00	0	42	0	0	51	4489
2026-01-18 23:32:42.89	19.81	16.24	-39.9	-41.7	19.5	0.00e+00	0	42	0	0	51	4441
2026-01-18 23:32:43.89	19.83	16.36	-39.9	-41.7	19.5	0.00e+00	0	42	0	0	51	4433
2026-01-18 23:32:44.95	19.86	16.47	-40.0	-41.8	19.4	0.00e+00	0	42	0	0	51	4461
2026-01-18 23:32:45.85	19.88	16.58	-40.0	-41.8	19.5	0.00e+00	0	42	0	0	51	4455
2026-01-18 23:32:47.08	19.91	16.71	-39.9	-41.7	19.6	0.00e+00	0	42	0	0	51	4406
2026-01-18 23:32:47.93	19.93	16.81	-40.0	-41.7	19.5	0.00e+00	0	42	0	0	51	4441
2026-01-18 23:32:49.07	19.96	16.94	-39.9	-41.7	19.5	0.00e+00	0	42	0	0	51	4417
2026-01-18 23:32:49.93	19.98	17.04	-40.0	-41.7	19.5	0.00e+00	0	42	0	0	51	4430
2026-01-18 23:32:51.07	20.01	17.17	-39.9	-41.6	19.6	0.00e+00	0	42	0	0	51	4386
2026-01-18 23:32:51.92	20.03	17.27	-39.9	-41.7	19.5	0.00e+00	0	42	0	0	51	4415
2026-01-18 23:32:53.06	20.06	17.40	-40.0	-41.8	19.4	0.00e+00	0	42	0	0	51	4475
2026-01-18 23:32:53.91	20.08	17.50	-40.0	-41.8	19.5	0.00e+00	0	42	0	0	51	4463
2026-01-18 23:32:55.05	20.11	17.63	-40.0	-41.8	19.5	0.00e+00	0	42	0	0	51	4460
2026-01-18 23:32:55.90	20.13	17.73	-39.9	-41.7	19.5	0.00e+00	0	42	0	0	51	4428
2026-01-18 23:32:57.04	20.16	17.87	-40.1	-41.9	19.4	0.00e+00	0	42	0	0	51	4494
2026-01-18 23:32:57.89	20.19	17.97	-40.0	-41.8	19.5	0.00e+00	0	42	0	0	51	4473
2026-01-18 23:32:59.03	20.22	18.11	-40.0	-41.8	19.5	0.00e+00	0	42	0	0	51	4452
2026-01-18 23:32:59.89	20.24	18.21	-40.1	-41.9	19.4	0.00e+00	0	42	0	0	51	4509
2026-01-18 23:33:01.03	20.27	18.35	-40.1	-41.9	19.4	0.00e+00	0	42	0	0	51	4523
2026-01-18 23:33:01.88	20.29	18.45	-40.1	-41.9	19.4	0.00e+00	0	42	0	0	51	4528
2026-01-18 23:33:03.11	20.33	18.60	-40.0	-41.8	19.4	0.00e+00	0	42	0	0	51	4485
2026-01-18 23:33:03.96	20.35	18.70	-40.1	-41.9	19.4	0.00e+00	0	42	0	0	51	4515
2026-01-18 23:33:05.10	20.38	18.84	-40.1	-41.9	19.3	0.00e+00	0	42	0	0	51	4543
2026-01-18 23:33:05.96	20.41	18.95	-40.0	-41.8	19.4	0.00e+00	0	42	0	0	51	4491
2026-01-18 23:33:07.09	20.44	19.09	-40.0	-41.8	19.4	0.00e+00	0	42	0	0	51	4493
2026-01-18 23:33:08.02	20.47	19.21	-40.1	-41.9	19.4	0.00e+00	0	42	0	0	51	4524
2026-01-18 23:33:09.02	20.49	19.33	-40.1	-41.9	19.4	0.00e+00	0	43	0	0	51	4508
2026-01-18 23:33:10.01	20.52	19.46	-40.1	-42.0	19.3	0.00e+00	0	42	0	0	51	4546
2026-01-18 23:33:11.01	20.55	19.58	-40.1	-41.9	19.4	0.00e+00	0	42	0	0	51	4530
2026-01-18 23:33:12.00	20.58	19.71	-40.1	-41.9	19.4	0.00e+00	0	42	0	0	51	4519
2026-01-18 23:33:13.00	20.61	19.84	-40.1	-41.9	19.3	0.00e+00	0	42	0	0	51	4544
2026-01-18 23:33:13.99	20.64	19.97	-40.0	-41.8	19.4	0.00e+00	0	42	0	0	51	4478
2026-01-18 23:33:14.99	20.67	20.10	-40.0	-41.8	19.5	0.00e+00	0	42	0	0	51	4455
2026-01-18 23:33:15.98	20.70	20.22	-39.9	-41.7	19.6	0.00e+00	0	42	0	0	51	4394
2026-01-18 23:33:16.98	20.73	20.36	-39.9	-41.6	19.6	0.00e+00	0	42	0	0	51	4368
2026-01-18 23:33:17.97	20.76	20.49	-39.9	-41.7	19.6	0.00e+00	0	42	0	0	51	4398
2026-01-18 23:33:18.97	20.79	20.62	-39.8	-41.5	19.7	0.00e+00	0	42	0	0	51	4329
2026-01-18 23:33:19.96	20.82	20.75	-39.7	-41.4	19.8	0.00e+00	0	42	0	0	51	4276
2026-01-18 23:33:20.96	20.85	20.88	-39.6	-41.3	19.9	0.00e+00	0	42	0	0	51	4202
2026-01-18 23:33:21.95	20.88	21.02	-39.5	-41.2	19.9	0.00e+00	0	43	0	0	51	4173
2026-01-18 23:33:22.95	20.91	21.15	-39.5	-41.2	20.0	0.00e+00	0	42	0	0	50	4417
2026-01-18 23:33:23.94	20.94	21.28	-39.5	-41.2	20.0	0.00e+00	0	42	0	0	50	4417
2026-01-18 23:33:24.93	20.98	21.42	-39.4	-41.1	20.0	0.00e+00	0	42	0	0	50	4382
2026-01-18 23:33:25.93	21.01	21.56	-39.3	-41.0	20.1	0.00e+00	0	42	0	0	50	4335
2026-01-18 23:33:26.93	21.04	21.69	-39.2	-40.8	20.3	0.00e+00	0	42	0	0	50	4226
2026-01-18 23:33:27.92	21.07	21.83	-39.1	-40.8	20.3	0.00e+00	0	42	0	0	50	4222
2026-01-18 23:33:28.91	21.11	21.97	-39.1	-40.8	20.3	0.00e+00	0	42	0	0	50	4216
2026-01-18 23:33:29.91	21.14	22.11	-39.2	-40.9	20.3	0.00e+00	0	42	0	0	50	4251
2026-01-18 23:33:30.90	21.17	22.25	-39.1	-40.8	20.3	0.00e+00	0	42	0	0	50	4213
2026-01-18 23:33:31.93	21.21	22.40	-39.0	-40.7	20.4	0.00e+00	0	42	0	0	50	4165
2026-01-18 23:33:32.96	21.24	22.54	-39.0	-40.7	20.5	0.00e+00	0	42	0	0	50	4164
2026-01-18 23:33:33.95	21.28	22.68	-39.1	-40.7	20.4	0.00e+00	0	42	0	0	50	4188
2026-01-18 23:33:35.03	21.31	22.84	-38.9	-40.6	20.5	0.00e+00	0	42	0	0	49	4364
2026-01-18 23:33:35.88	21.34	22.96	-39.0	-40.7	20.5	0.00e+00	0	42	0	0	49	4405
2026-01-18 23:33:37.02	21.38	23.13	-39.0	-40.7	20.4	0.00e+00	0	43	0	0	49	4417
2026-01-18 23:33:37.87	21.42	23.25	-38.9	-40.6	20.5	0.00e+00	0	42	0	0	49	4373
2026-01-18 23:33:39.01	21.46	23.42	-38.9	-40.6	20.5	0.00e+00	0	42	0	0	49	4351
2026-01-18 23:33:39.86	21.49	23.55	-38.9	-40.6	20.6	0.00e+00	0	42	0	0	49	4342
2026-01-18 23:33:41.00	21.53	23.72	-38.8	-40.5	20.6	0.00e+00	0	42	0	0	49	4318
2026-01-18 23:33:41.85	21.56	23.84	-38.9	-40.6	20.6	0.00e+00	0	42	0	0	49	4369
2026-01-18 23:33:42.99	21.60	24.02	-39.0	-40.6	20.5	0.00e+00	0	42	0	0	49	4390
2026-01-18 23:33:43.84	21.63	24.15	-38.9	-40.6	20.6	0.00e+00	0	42	0	0	49	4377
2026-01-18 23:33:44.98	21.68	24.32	-38.9	-40.6	20.6	0.00e+00	0	43	0	0	49	4348
2026-01-18 23:33:45.83	21.71	24.45	-38.9	-40.5	20.7	0.00e+00	0	42	0	0	49	4334
2026-01-18 23:33:46.97	21.75	24.63	-39.0	-40.6	20.6	0.00e+00	0	42	0	0	49	4390
2026-01-18 23:33:47.82	21.79	24.76	-39.0	-40.7	20.5	0.00e+00	0	42	0	0	49	4412
2026-01-18 23:33:48.96	21.83	24.94	-39.1	-40.7	20.5	0.00e+00	0	42	0	0	49	4441
2026-01-18 23:33:49.81	21.86	25.07	-39.0	-40.7	20.5	0.00e+00	0	42	0	0	49	4422
2026-01-18 23:33:50.95	21.91	25.25	-39.1	-40.8	20.5	0.00e+00	0	42	0	0	49	4452
2026-01-18 23:33:51.81	21.94	25.39	-39.1	-40.8	20.5	0.00e+00	0	42	0	0	49	4463
2026-01-18 23:33:52.94	21.99	25.57	-39.2	-40.9	20.4	0.00e+00	0	42	0	0	49	4521
2026-01-18 23:33:53.79	22.02	25.70	-39.2	-40.9	20.3	0.00e+00	0	42	0	0	49	4542
2026-01-18 23:33:54.93	22.07	25.89	-39.5	-41.2	20.1	0.00e+00	0	42	0	0	49	4678
2026-01-18 23:33:55.78	22.11	26.03	-39.6	-41.3	20.0	0.00e+00	0	42	0	0	49	4750
2026-01-18 23:33:56.92	22.15	26.21	-39.6	-41.3	20.0	0.00e+00	0	42	0	0	49	4748
2026-01-18 23:33:57.77	22.19	26.35	-39.7	-41.4	19.9	0.00e+00	0	42	0	0	50	4543
2026-01-18 23:33:58.99	22.24	26.55	-39.8	-41.6	19.8	0.00e+00	0	42	0	0	50	4605
2026-01-18 23:33:59.84	22.28	26.70	-39.9	-41.7	19.6	0.00e+00	0	42	0	0	50	4679
2026-01-18 23:34:01.04	22.33	26.90	-40.1	-41.8	19.5	0.00e+00	0	42	0	0	50	4748
2026-01-18 23:34:01.90	22.37	27.04	-40.1	-41.8	19.6	0.00e+00	0	42	0	0	50	4740
2026-01-18 23:34:03.10	22.42	27.25	-40.2	-42.0	19.4	0.00e+00	0	42	0	0	51	4547
2026-01-18 23:34:03.95	22.46	27.39	-40.3	-42.0	19.3	0.00e+00	0	42	0	0	51	4596
2026-01-18 23:34:05.09	22.51	27.59	-40.3	-42.1	19.3	0.00e+00	0	42	0	0	51	4629
2026-01-18 23:34:05.94	22.55	27.73	-40.4	-42.2	19.2	0.00e+00	0	42	0	0	51	4659
2026-01-18 23:34:07.08	22.61	27.93	-40.4	-42.2	19.1	0.00e+00	0	42	0	0	51	4685
2026-01-18 23:34:07.93	22.65	28.08	-40.3	-42.1	19.2	0.00e+00	0	42	0	0	51	4634
2026-01-18 23:34:09.07	22.70	28.28	-40.3	-42.1	19.2	0.00e+00	0	42	0	0	51	4622
2026-01-18 23:34:10.06	22.75	28.46	-40.4	-42.2	19.2	0.00e+00	0	42	0	0	51	4657
2026-01-18 23:34:11.06	22.80	28.64	-40.1	-41.9	19.5	0.00e+00	0	42	0	0	51	4516
2026-01-18 23:34:12.05	22.84	28.82	-40.0	-41.8	19.6	0.00e+00	0	42	0	0	51	4450
2026-01-18 23:34:13.05	22.89	29.00	-39.9	-41.6	19.7	0.00e+00	0	42	0	0	51	4382
2026-01-18 23:34:14.04	22.94	29.18	-40.0	-41.7	19.6	0.00e+00	0	42	0	0	51	4415
2026-01-18 23:34:15.04	22.99	29.36	-39.9	-41.7	19.6	0.00e+00	0	42	0	0	51	4412
2026-01-18 23:34:16.03	23.04	29.54	-40.0	-41.7	19.6	0.00e+00	0	42	0	0	51	4436
2026-01-18 23:34:17.03	23.09	29.73	-39.9	-41.6	19.7	0.00e+00	0	43	0	0	51	4370
2026-01-18 23:34:18.02	23.15	29.91	-39.8	-41.5	19.8	0.00e+00	0	43	0	0	51	4326
2026-01-18 23:34:19.02	23.20	30.10	-39.8	-41.5	19.7	0.00e+00	0	43	0	0	51	4338
2026-01-18 23:34:20.01	23.25	30.29	-39.8	-41.6	19.7	0.00e+00	0	42	0	0	51	4352
2026-01-18 23:34:21.01	23.30	30.48	-39.8	-41.5	19.8	0.00e+00	0	43	0	0	51	4326
2026-01-18 23:34:22.00	23.36	30.67	-39.8	-41.6	19.7	0.00e+00	0	42	0	0	51	4352
2026-01-18 23:34:23.00	23.41	30.86	-39.9	-41.6	19.6	0.00e+00	0	42	0	0	51	4387
2026-01-18 23:34:23.99	23.47	31.05	-39.9	-41.6	19.7	0.00e+00	0	43	0	0	51	4358
2026-01-18 23:34:24.99	23.52	31.25	-39.9	-41.6	19.6	0.00e+00	0	42	0	0	51	4387
2026-01-18 23:34:25.98	23.58	31.44	-39.8	-41.5	19.7	0.00e+00	0	42	0	0	51	4330
2026-01-18 23:34:26.98	23.64	31.64	-39.8	-41.6	19.6	0.00e+00	0	42	0	0	51	4349
2026-01-18 23:34:27.97	23.69	31.84	-39.8	-41.6	19.6	0.00e+00	0	42	0	0	51	4342
2026-01-18 23:34:28.96	23.75	32.04	-39.8	-41.5	19.7	0.00e+00	0	42	0	0	51	4313
2026-01-18 23:34:29.96	23.81	32.24	-39.9	-41.7	19.5	0.00e+00	0	42	0	0	51	4414
2026-01-18 23:34:30.95	23.87	32.44	-39.9	-41.6	19.6	0.00e+00	0	42	0	0	51	4384
2026-01-18 23:34:31.95	23.93	32.65	-39.8	-41.6	19.7	0.00e+00	0	42	0	0	51	4360
2026-01-18 23:34:32.94	23.99	32.85	-39.8	-41.5	19.7	0.00e+00	0	42	0	0	51	4328
2026-01-18 23:34:33.94	24.06	33.06	-39.9	-41.7	19.6	0.00e+00	0	43	0	0	51	4416
2026-01-18 23:34:34.93	24.12	33.27	-39.9	-41.7	19.7	0.00e+00	0	43	0	0	51	4412
2026-01-18 23:34:35.93	24.18	33.48	-40.1	-41.9	19.5	0.00e+00	0	43	0	0	51	4528
2026-01-18 23:34:36.97	24.25	33.70	-40.2	-42.0	19.4	0.00e+00	0	43	0	0	51	4555
2026-01-18 23:34:37.93	24.31	33.90	-40.3	-42.1	19.4	0.00e+00	0	43	0	0	51	4626
2026-01-18 23:34:38.92	24.38	34.11	-40.4	-42.2	19.2	0.00e+00	0	42	0	0	51	4697
2026-01-18 23:34:39.92	24.44	34.33	-40.5	-42.3	19.2	0.00e+00	0	42	0	0	51	4733
2026-01-18 23:34:40.91	24.51	34.54	-40.7	-42.5	19.0	0.00e+00	0	42	0	0	51	4855
2026-01-18 23:34:41.91	24.58	34.76	-40.8	-42.6	18.8	0.00e+00	0	42	0	0	52	4647
2026-01-18 23:34:42.91	24.65	34.98	-40.8	-42.7	18.8	0.00e+00	0	43	0	0	52	4653
2026-01-18 23:34:43.90	24.72	35.20	-41.1	-43.0	18.5	0.00e+00	0	43	0	0	52	4819
2026-01-18 23:34:44.89	24.79	35.43	-41.2	-43.1	18.4	0.00e+00	0	43	0	0	53	4613
2026-01-18 23:34:45.89	24.86	35.65	-41.5	-43.4	18.1	0.00e+00	0	43	0	0	53	4793
2026-01-18 23:34:46.88	24.93	35.88	-41.6	-43.6	17.9	0.00e+00	0	43	0	0	53	4889
2026-01-18 23:34:47.88	25.01	36.10	-41.8	-43.9	17.7	0.00e+00	0	43	0	0	54	4768
2026-01-18 23:34:48.87	25.08	36.33	-42.0	-44.1	17.5	0.00e+00	0	43	0	0	54	4877
2026-01-18 23:34:49.87	25.16	36.56	-42.4	-44.5	17.1	0.00e+00	0	42	0	0	55	4864
2026-01-18 23:34:50.86	25.23	36.79	-42.6	-44.8	16.8	0.00e+00	0	42	0	0	55	4995
2026-01-18 23:34:51.86	25.31	37.03	-43.1	-45.4	16.4	0.00e+00	0	43	0	0	56	5077
2026-01-18 23:34:52.85	25.39	37.26	-43.2	-45.5	16.3	0.00e+00	0	42	0	0	57	4850
2026-01-18 23:34:53.85	25.47	37.50	-43.2	-45.5	16.3	0.00e+00	0	43	0	0	57	4830
2026-01-18 23:34:54.84	25.55	37.74	-43.2	-45.5	16.3	0.00e+00	0	43	0	0	57	4832
2026-01-18 23:34:55.84	25.63	37.98	-43.1	-45.4	16.4	0.00e+00	0	43	0	0	57	4774
2026-01-18 23:34:56.83	25.72	38.22	-42.6	-44.8	16.9	0.00e+00	0	42	0	0	57	4458
2026-01-18 23:34:57.83	25.80	38.46	-42.4	-44.5	17.1	0.00e+00	0	42	0	0	56	4595
2026-01-18 23:34:58.82	25.89	38.71	-42.3	-44.3	17.3	0.00e+00	0	43	0	0	56	4474
2026-01-18 23:34:59.82	25.98	38.95	-42.4	-44.4	17.2	0.00e+00	0	43	0	0	56	4536
2026-01-18 23:35:00.93	26.07	39.23	-42.4	-44.4	17.3	0.00e+00	0	42	0	0	56	4532
2026-01-18 23:35:01.79	26.15	39.45	-42.2	-44.3	17.5	0.00e+00	0	42	0	0	56	4464
2026-01-18 23:35:03.09	26.27	39.78	-42.3	-44.4	17.4	0.00e+00	0	42	0	0	56	4507
2026-01-18 23:35:03.80	26.34	39.96	-42.3	-44.3	17.5	0.00e+00	0	42	0	0	56	4470
2026-01-18 23:35:05.08	26.46	40.29	-42.4	-44.5	17.3	0.00e+00	0	42	0	0	56	4552
2026-01-18 23:35:05.79	26.53	40.47	-42.2	-44.2	17.5	0.00e+00	0	43	0	0	56	4422
2026-01-18 23:35:07.07	26.65	40.81	-42.2	-44.2	17.5	0.00e+00	0	43	0	0	56	4399
2026-01-18 23:35:07.78	26.72	40.99	-42.2	-44.2	17.5	0.00e+00	0	42	0	0	56	4431
2026-01-18 23:35:09.06	26.85	41.33	-42.3	-44.3	17.4	0.00e+00	0	43	0	0	56	4467
2026-01-18 23:35:09.77	26.92	41.52	-42.3	-44.3	17.4	0.00e+00	0	42	0	0	56	4461
2026-01-18 23:35:11.05	27.05	41.86	-42.5	-44.6	17.2	0.00e+00	0	43	0	0	56	4601
2026-01-18 23:35:11.76	27.13	42.05	-42.6	-44.7	17.1	0.00e+00	0	43	0	0	56	4665
2026-01-18 23:35:13.04	27.27	42.40	-42.6	-44.8	17.0	0.00e+00	0	43	0	0	56	4718
2026-01-18 23:35:13.77	27.34	42.60	-42.5	-44.6	17.2	0.00e+00	0	43	0	0	56	4620
2026-01-18 23:35:15.04	27.49	42.95	-42.4	-44.5	17.3	0.00e+00	0	42	0	0	56	4570
2026-01-18 23:35:15.75	27.57	43.15	-42.5	-44.5	17.3	0.00e+00	0	42	0	0	56	4591
2026-01-18 23:35:17.03	27.71	43.51	-42.1	-44.1	17.7	0.00e+00	0	42	0	0	56	4350
2026-01-18 23:35:17.75	27.80	43.71	-41.8	-43.7	17.8	0.00e+00	0	42	0	0	55	4434
2026-01-18 23:35:19.21	27.97	44.12	-41.8	-43.8	17.8	0.00e+00	0	42	0	0	55	4471
2026-01-18 23:35:19.93	28.06	44.33	-41.9	-43.9	17.8	0.00e+00	0	43	0	0	55	4504
2026-01-18 23:35:21.21	28.21	44.70	-41.9	-43.9	17.7	0.00e+00	0	42	0	0	55	4503
2026-01-18 23:35:21.92	28.30	44.90	-41.9	-43.9	17.7	0.00e+00	0	43	0	0	55	4513
2026-01-18 23:35:23.19	28.46	45.27	-41.8	-43.8	17.8	0.00e+00	0	42	0	0	55	4466
2026-01-18 23:35:23.92	28.56	45.49	-42.0	-43.9	17.7	0.00e+00	0	43	0	0	55	4538
2026-01-18 23:35:25.20	28.73	45.87	-41.8	-43.8	17.9	0.00e+00	0	43	0	0	55	4448
2026-01-18 23:35:25.92	28.82	46.08	-42.0	-43.9	17.7	0.00e+00	0	43	0	0	55	4536
2026-01-18 23:35:27.20	29.00	46.47	-41.8	-43.7	18.0	0.00e+00	0	43	0	0	55	4395
2026-01-18 23:35:27.94	29.10	46.69	-41.7	-43.6	18.0	0.00e+00	0	42	0	0	55	4384
2026-01-18 23:35:29.22	29.28	47.08	-41.7	-43.6	18.0	0.00e+00	0	43	0	0	55	4355
2026-01-18 23:35:29.99	29.39	47.31	-41.6	-43.5	18.0	0.00e+00	0	43	0	0	55	4324
2026-01-18 23:35:31.27	29.58	47.71	-41.5	-43.4	18.1	0.00e+00	0	43	0	0	54	4501
2026-01-18 23:35:31.98	29.69	47.93	-41.1	-43.0	18.5	0.00e+00	0	43	0	0	54	4309
2026-01-18 23:35:33.26	29.89	48.33	-41.0	-42.8	18.7	0.00e+00	0	42	0	0	53	4473
2026-01-18 23:35:33.99	30.00	48.56	-41.0	-42.8	18.6	0.00e+00	0	43	0	0	53	4484
2026-01-18 23:35:35.27	30.21	48.96	-40.8	-42.6	18.8	0.00e+00	0	43	0	0	53	4385
2026-01-18 23:35:35.98	30.32	49.19	-40.8	-42.6	18.8	0.00e+00	0	43	0	0	53	4368
2026-01-18 23:35:37.26	30.54	49.60	-40.8	-42.6	18.8	0.00e+00	0	42	0	0	53	4371
2026-01-18 23:35:37.97	30.66	49.83	-41.0	-42.9	18.5	0.00e+00	0	42	0	0	53	4538
2026-01-18 23:35:39.25	30.88	50.24	-41.2	-43.1	18.4	0.00e+00	0	42	0	0	53	4607
2026-01-18 23:35:39.96	31.00	50.47	-41.2	-43.1	18.4	0.00e+00	0	43	0	0	53	4603
2026-01-18 23:35:41.24	31.23	50.89	-41.7	-43.6	17.9	0.00e+00	0	43	0	0	53	4923
2026-01-18 23:35:42.30	31.43	51.24	-41.9	-44.0	17.7	0.00e+00	0	43	0	0	54	4816
2026-01-18 23:35:43.16	31.59	51.53	-42.0	-44.0	17.7	0.00e+00	0	42	0	0	54	4866
2026-01-18 23:35:44.30	31.82	51.91	-42.1	-44.2	17.5	0.00e+00	0	43	0	0	54	4943
2026-01-18 23:35:45.15	31.98	52.20	-42.1	-44.2	17.4	0.00e+00	0	42	0	0	55	4669
2026-01-18 23:35:46.29	32.21	52.58	-42.0	-44.0	17.6	0.00e+00	0	43	0	0	55	4581
2026-01-18 23:35:47.14	32.39	52.87	-41.8	-43.8	17.8	0.00e+00	0	43	0	0	55	4472
2026-01-18 23:35:48.28	32.63	53.26	-41.4	-43.3	18.2	0.00e+00	0	43	0	0	54	4488
2026-01-18 23:35:49.14	32.82	53.56	-41.0	-42.9	18.6	0.00e+00	0	43	0	0	54	4251
2026-01-18 23:35:50.27	33.07	53.95	-40.5	-42.4	19.1	0.00e+00	0	43	0	0	53	4257
2026-01-18 23:35:51.19	33.28	54.27	-40.5	-42.3	19.2	0.00e+00	0	43	0	0	53	4231
2026-01-18 23:35:52.36	33.55	54.68	-40.1	-41.8	19.7	0.00e+00	0	43	0	0	52	4233
2026-01-18 23:35:53.21	33.75	54.98	-39.9	-41.6	19.9	0.00e+00	0	42	0	0	51	4386
2026-01-18 23:35:54.57	34.09	55.47	-40.1	-41.9	19.7	0.00e+00	0	43	0	0	51	4504
2026-01-18 23:35:55.28	34.27	55.72	-40.1	-41.9	19.7	0.00e+00	0	42	0	0	51	4494
2026-01-18 23:35:56.59	34.60	56.19	-40.3	-42.1	19.5	0.00e+00	0	43	0	0	51	4602
2026-01-18 23:35:57.30	34.79	56.45	-40.2	-41.9	19.6	0.00e+00	0	42	0	0	51	4534
2026-01-18 23:35:58.58	35.14	56.91	-40.2	-42.0	19.6	0.00e+00	0	42	0	0	51	4570
2026-01-18 23:35:59.30	35.34	57.17	-40.2	-41.9	19.6	0.00e+00	0	42	0	0	51	4544
2026-01-18 23:36:00.58	35.71	57.64	-40.0	-41.8	19.8	0.00e+00	0	43	0	0	51	4461
2026-01-18 23:36:01.32	35.93	57.91	-39.9	-41.6	19.9	0.00e+00	0	42	0	0	51	4358
2026-01-18 23:36:02.60	36.31	58.38	-39.3	-40.9	20.5	0.00e+00	0	43	0	0	50	4279
2026-01-18 23:36:03.39	36.56	58.68	-39.1	-40.7	20.7	0.00e+00	0	42	0	0	50	4165
2026-01-18 23:36:04.58	36.94	59.12	-38.9	-40.5	20.9	0.00e+00	0	43	0	0	49	4316
2026-01-18 23:36:05.43	37.22	59.44	-39.0	-40.6	20.8	0.00e+00	0	43	0	0	49	4372
2026-01-18 23:36:06.57	37.61	59.86	-39.2	-40.8	20.6	0.00e+00	0	43	0	0	49	4457
2026-01-18 23:36:07.42	37.90	60.18	-39.1	-40.8	20.5	0.00e+00	0	43	0	0	49	4456
2026-01-18 23:36:08.56	38.31	60.61	-39.2	-40.9	20.4	0.00e+00	0	42	0	0	49	4494
2026-01-18 23:36:09.41	38.63	60.94	-39.3	-41.0	20.4	0.00e+00	0	42	0	0	49	4569
2026-01-18 23:36:10.54	39.06	61.36	-39.4	-41.1	20.3	0.00e+00	0	43	0	0	49	4622
2026-01-18 23:36:11.40	39.39	61.69	-39.2	-40.8	20.5	0.00e+00	0	43	0	0	49	4483
2026-01-18 23:36:12.53	39.85	62.12	-38.8	-40.4	20.8	0.00e+00	0	42	0	0	49	4265
2026-01-18 23:36:13.39	40.21	62.45	-38.7	-40.3	20.8	0.00e+00	0	43	0	0	49	4223
2026-01-18 23:36:14.52	40.70	62.89	-38.5	-40.1	20.9	0.00e+00	0	43	0	0	49	4134
2026-01-18 23:36:15.38	41.08	63.22	-38.6	-40.2	20.9	0.00e+00	0	42	0	0	49	4165
2026-01-18 23:36:16.52	41.60	63.66	-38.3	-39.8	21.2	0.00e+00	0	42	0	0	48	4239
2026-01-18 23:36:17.37	42.00	63.99	-38.1	-39.7	21.5	0.00e+00	0	43	0	0	48	4170
2026-01-18 23:36:18.50	42.56	64.42	-38.1	-39.7	21.5	0.00e+00	0	43	0	0	48	4157
2026-01-18 23:36:19.36	42.99	64.75	-38.1	-39.7	21.6	0.00e+00	0	43	0	0	48	4171
2026-01-18 23:36:20.49	43.58	65.19	-38.3	-39.9	21.4	0.00e+00	0	43	0	0	48	4274
2026-01-18 23:36:21.35	44.05	65.52	-38.5	-40.1	21.2	0.00e+00	0	42	0	0	48	4388
2026-01-18 23:36:22.49	44.69	65.96	-38.6	-40.2	21.1	0.00e+00	0	42	0	0	48	4434
2026-01-18 23:36:23.34	45.18	66.29	-38.4	-40.0	21.3	0.00e+00	0	43	0	0	48	4312
2026-01-18 23:36:24.48	45.87	66.73	-38.3	-39.8	21.3	0.00e+00	0	43	0	0	48	4242
2026-01-18 23:36:25.33	46.40	67.06	-38.4	-39.9	21.3	0.00e+00	0	43	0	0	48	4289
2026-01-18 23:36:26.47	47.14	67.50	-38.4	-40.0	21.3	0.00e+00	0	42	0	0	48	4294
2026-01-18 23:36:27.32	47.71	67.83	-38.3	-39.9	21.2	0.00e+00	0	43	0	0	48	4267
2026-01-18 23:36:28.46	48.51	68.26	-38.3	-39.9	21.2	0.00e+00	0	43	0	0	48	4272
2026-01-18 23:36:29.31	49.12	68.59	-38.3	-39.9	21.2	0.00e+00	0	43	0	0	48	4265
2026-01-18 23:36:30.45	49.98	69.02	-38.2	-39.7	21.3	0.00e+00	0	43	0	0	48	4186
2026-01-18 23:36:31.30	50.64	69.34	-38.3	-39.9	21.3	0.00e+00	0	43	0	0	48	4248
2026-01-18 23:36:32.50	51.62	69.79	-38.4	-40.0	21.2	0.00e+00	0	43	0	0	48	4303
2026-01-18 23:36:33.35	52.34	70.11	-38.4	-40.0	21.3	0.00e+00	0	43	0	0	48	4294
2026-01-18 23:36:34.49	53.34	70.53	-38.4	-40.0	21.0	0.00e+00	0	43	0	0	48	4303
2026-01-18 23:36:35.34	54.12	70.84	-38.3	-39.9	21.3	0.00e+00	0	42	0	0	48	4271
2026-01-18 23:36:36.47	55.20	71.25	-38.0	-39.5	21.5	0.00e+00	0	42	0	0	48	4093
2026-01-18 23:36:37.33	56.06	71.56	-37.9	-39.5	21.2	0.00e+00	0	43	0	0	47	4332
2026-01-18 23:36:38.46	57.23	71.97	-37.9	-39.5	21.4	0.00e+00	0	43	0	0	47	4313
2026-01-18 23:36:39.32	58.16	72.27	-38.1	-39.7	21.3	0.00e+00	0	43	0	0	47	4392
2026-01-18 23:36:40.46	59.44	72.66	-38.1	-39.7	21.2	0.00e+00	0	43	0	0	47	4433
2026-01-18 23:36:41.31	60.44	72.95	-38.1	-39.7	21.3	0.00e+00	0	42	0	0	47	4420
2026-01-18 23:36:42.45	61.83	73.33	-38.1	-39.7	21.3	0.00e+00	0	42	0	0	47	4405
2026-01-18 23:36:43.30	62.91	73.61	-38.4	-40.0	21.0	0.00e+00	0	43	0	0	47	4557
2026-01-18 23:36:44.44	64.43	73.98	-38.4	-40.0	21.1	0.00e+00	0	43	0	0	47	4561
2026-01-18 23:36:45.29	65.60	74.25	-38.3	-39.9	21.1	0.00e+00	0	43	0	0	47	4523
2026-01-18 23:36:46.43	67.24	74.59	-38.3	-39.9	21.1	0.00e+00	0	42	0	0	47	4508
2026-01-18 23:36:47.28	68.52	74.85	-38.3	-39.9	21.1	0.00e+00	0	43	0	0	47	4525
2026-01-18 23:36:48.42	70.30	75.17	-38.4	-40.0	21.0	0.00e+00	0	42	0	0	47	4573
2026-01-18 23:36:49.27	71.68	75.41	-38.2	-39.8	21.1	0.00e+00	0	43	0	0	47	4475
2026-01-18 23:36:50.41	73.60	75.71	-38.1	-39.7	21.2	0.00e+00	0	43	0	0	47	4428
2026-01-18 23:36:51.26	75.09	75.93	-38.0	-39.6	21.2	0.00e+00	0	43	0	0	47	4372
2026-01-18 23:36:52.40	77.16	76.20	-38.4	-40.0	20.7	0.00e+00	0	42	0	0	47	4594
2026-01-18 23:36:53.25	78.75	76.39	-38.6	-40.2	20.5	0.00e+00	0	43	0	0	47	4679
2026-01-18 23:36:54.39	80.97	76.64	-38.8	-40.5	20.4	0.00e+00	0	43	0	0	48	4572
2026-01-18 23:36:55.24	82.67	76.81	-39.1	-40.8	20.2	0.00e+00	0	43	0	0	48	4709
2026-01-18 23:36:56.60	85.49	77.05	-39.1	-40.8	20.2	0.00e+00	0	43	0	0	49	4483
2026-01-18 23:36:57.31	87.00	77.17	-39.0	-40.7	20.5	0.00e+00	0	43	0	0	49	4405
2026-01-18 23:36:58.59	89.80	77.35	-38.8	-40.5	20.8	0.00e+00	0	43	0	0	49	4292
2026-01-18 23:36:59.78	92.47	77.50	-38.5	-40.1	21.0	0.00e+00	0	43	0	0	49	4135
2026-01-18 23:37:00.63	94.41	77.59	-38.3	-39.9	21.2	0.00e+00	0	43	0	0	48	4272
2026-01-18 23:37:01.77	97.06	77.69	-38.1	-39.7	21.5	0.00e+00	0	42	0	0	48	4158
2026-01-18 23:37:02.62	99.06	77.74	-38.2	-39.8	21.3	0.00e+00	0	43	0	0	48	4201
2026-01-18 23:37:03.76	101.77	77.80	-38.5	-40.1	21.0	0.00e+00	0	43	0	0	48	4356
2026-01-18 23:37:04.61	103.80	77.82	-38.4	-40.1	21.1	0.00e+00	0	43	0	0	48	4352
2026-01-18 23:37:05.75	106.53	77.82	-38.7	-40.3	20.9	0.00e+00	0	43	0	0	48	4483
2026-01-18 23:37:06.60	108.56	77.81	-38.5	-40.2	21.1	0.00e+00	0	43	0	0	48	4392
2026-01-18 23:37:07.90	111.66	77.76	-38.2	-39.8	21.5	0.00e+00	0	43	0	0	48	4207
2026-01-18 23:37:08.61	113.33	77.72	-38.1	-39.6	21.6	0.00e+00	0	43	0	0	48	4136
2026-01-18 23:37:09.89	116.32	77.61	-37.9	-39.4	21.4	0.00e+00	0	43	0	0	47	4290
2026-01-18 23:37:10.62	118.00	77.54	-37.8	-39.3	21.4	0.00e+00	0	43	0	0	47	4241
2026-01-18 23:37:12.15	121.45	77.36	-38.1	-39.7	21.1	0.00e+00	0	43	0	0	47	4392
2026-01-18 23:37:12.86	123.01	77.26	-38.2	-39.8	20.8	0.00e+00	0	43	0	0	47	4491
2026-01-18 23:37:14.14	125.76	77.06	-38.8	-40.5	20.5	0.00e+00	0	43	0	0	48	4569
2026-01-18 23:37:15.20	127.97	76.87	-38.9	-40.5	20.7	0.00e+00	0	43	0	0	48	4589
2026-01-18 23:37:16.36	130.31	76.64	-38.8	-40.5	20.8	0.00e+00	0	43	0	0	48	4547
2026-01-18 23:37:17.22	131.99	76.46	-39.1	-40.7	20.6	0.00e+00	0	43	0	0	48	4689
2026-01-18 23:37:18.68	134.74	76.13	-38.4	-40.0	21.3	0.00e+00	0	43	0	0	48	4335
2026-01-18 23:37:19.40	136.04	75.95	-38.3	-39.8	21.4	0.00e+00	0	43	0	0	48	4230
2026-01-18 23:37:20.68	138.27	75.62	-38.7	-40.3	20.9	0.00e+00	0	43	0	0	48	4477
2026-01-18 23:37:21.40	139.48	75.43	-38.4	-40.0	21.2	0.00e+00	0	43	0	0	48	4308
2026-01-18 23:37:22.68	141.55	75.08	-38.6	-40.2	21.1	0.00e+00	0	43	0	0	48	4425
2026-01-18 23:37:23.42	142.70	74.86	-38.9	-40.6	20.7	0.00e+00	0	43	0	0	48	4621
2026-01-18 23:37:24.70	144.61	74.48	-38.9	-40.6	20.8	0.00e+00	0	43	0	0	48	4612
2026-01-18 23:37:25.52	145.78	74.23	-38.3	-39.8	21.4	0.00e+00	0	43	0	0	48	4236
2026-01-18 23:37:26.66	147.35	73.87	-38.6	-40.3	21.0	0.00e+00	0	43	0	0	48	4450
2026-01-18 23:37:27.51	148.47	73.59	-38.8	-40.4	20.8	0.00e+00	0	43	0	0	48	4544
2026-01-18 23:37:28.65	149.91	73.22	-38.8	-40.5	20.7	0.00e+00	0	43	0	0	48	4558
2026-01-18 23:37:29.50	150.94	72.93	-38.4	-40.0	21.1	0.00e+00	0	43	0	0	48	4328
2026-01-18 23:37:30.64	152.27	72.54	-38.2	-39.8	21.4	0.00e+00	0	43	0	0	48	4221
2026-01-18 23:37:31.49	153.22	72.25	-37.7	-39.3	21.5	0.00e+00	0	43	0	0	47	4208
2026-01-18 23:37:32.63	154.44	71.84	-37.9	-39.5	20.8	0.00e+00	0	43	0	0	47	4295
2026-01-18 23:37:33.87	155.71	71.40	-38.6	-40.2	20.6	0.00e+00	0	43	0	0	47	4704
2026-01-18 23:37:34.72	156.54	71.09	-38.8	-40.5	20.8	0.00e+00	0	43	0	0	48	4553
2026-01-18 23:37:35.86	157.61	70.67	-38.6	-40.2	21.1	0.00e+00	0	43	0	0	48	4398
2026-01-18 23:37:36.71	158.38	70.36	-38.4	-40.1	21.1	0.00e+00	0	43	0	0	48	4347
2026-01-18 23:37:37.84	159.36	69.94	-38.3	-39.9	21.3	0.00e+00	0	43	0	0	48	4247
2026-01-18 23:37:38.70	160.08	69.62	-37.8	-39.4	21.6	0.00e+00	0	43	0	0	47	4266
2026-01-18 23:37:39.83	160.98	69.19	-38.3	-39.9	21.2	0.00e+00	0	43	0	0	47	4525
2026-01-18 23:37:40.69	161.64	68.86	-38.8	-40.4	20.9	0.00e+00	0	43	0	0	48	4538
2026-01-18 23:37:41.90	162.54	68.40	-38.9	-40.5	20.8	0.00e+00	0	43	0	0	48	4592
2026-01-18 23:37:42.76	163.15	68.07	-38.8	-40.4	20.8	0.00e+00	0	43	0	0	48	4539
2026-01-18 23:37:43.89	163.93	67.64	-38.4	-40.0	21.0	0.00e+00	0	43	0	0	48	4295
2026-01-18 23:37:44.75	164.50	67.31	-38.3	-39.8	21.3	0.00e+00	0	43	0	0	48	4241
2026-01-18 23:37:45.88	165.22	66.87	-37.8	-39.4	21.6	0.00e+00	0	43	0	0	47	4247
2026-01-18 23:37:46.80	165.78	66.51	-38.2	-39.8	21.3	0.00e+00	0	43	0	0	47	4464
2026-01-18 23:37:47.97	166.47	66.06	-39.2	-40.8	20.4	0.00e+00	0	43	0	0	48	4745
2026-01-18 23:37:48.82	166.96	65.73	-39.6	-41.3	20.1	0.00e+00	0	43	0	0	49	4733
2026-01-18 23:37:49.96	167.59	65.29	-39.0	-40.6	20.6	0.00e+00	0	42	0	0	49	4388
2026-01-18 23:37:50.81	168.04	64.96	-38.5	-40.2	20.9	0.00e+00	0	43	0	0	49	4148
2026-01-18 23:37:51.95	168.62	64.52	-38.4	-40.0	21.1	0.00e+00	0	43	0	0	48	4332
2026-01-18 23:37:52.80	169.05	64.19	-37.9	-39.5	21.5	0.00e+00	0	43	0	0	47	4292
2026-01-18 23:37:53.94	169.60	63.75	-38.2	-39.8	21.2	0.00e+00	0	43	0	0	47	4467
2026-01-18 23:37:54.79	169.99	63.42	-39.2	-40.8	20.4	0.00e+00	0	43	0	0	49	4481
2026-01-18 23:37:55.93	170.51	62.98	-39.7	-41.4	19.5	0.00e+00	0	43	0	0	50	4537
2026-01-18 23:37:56.78	170.88	62.65	-39.5	-41.1	19.7	0.00e+00	0	43	0	0	50	4385
2026-01-18 23:37:57.92	171.36	62.21	-38.9	-40.5	20.2	0.00e+00	0	43	0	0	49	4330
2026-01-18 23:37:58.77	171.71	61.89	-38.4	-40.0	20.7	0.00e+00	0	43	0	0	48	4322
2026-01-18 23:37:59.91	172.16	61.45	-38.3	-39.9	21.1	0.00e+00	0	43	0	0	48	4285
2026-01-18 23:38:00.76	172.49	61.12	-38.2	-39.8	21.4	0.00e+00	0	43	0	0	48	4204
2026-01-18 23:38:01.90	172.92	60.69	-38.9	-40.5	20.9	0.00e+00	0	43	0	0	48	4549
2026-01-18 23:38:02.75	173.23	60.37	-39.6	-41.3	20.2	0.00e+00	0	43	0	0	49	4725
2026-01-18 23:38:03.88	173.63	59.94	-40.5	-42.4	19.2	0.00e+00	0	43	0	0	51	4764
2026-01-18 23:38:04.81	173.94	59.59	-40.4	-42.2	19.2	0.00e+00	0	43	0	0	52	4396
2026-01-18 23:38:05.97	174.33	59.16	-39.5	-41.1	19.9	0.00e+00	0	43	0	0	51	4141
2026-01-18 23:38:06.82	174.61	58.84	-39.3	-40.9	20.1	0.00e+00	0	43	0	0	50	4284
2026-01-18 23:38:07.96	174.96	58.41	-38.1	-39.7	21.3	0.00e+00	0	43	0	0	48	4147
2026-01-18 23:38:08.81	175.22	58.10	-38.2	-39.8	21.0	0.00e+00	0	43	0	0	47	4455
2026-01-18 23:38:09.95	175.56	57.68	-39.3	-41.0	20.3	0.00e+00	0	43	0	0	49	4560
2026-01-18 23:38:10.80	175.81	57.36	-40.2	-42.0	19.5	0.00e+00	0	43	0	0	51	4550
2026-01-18 23:38:11.94	176.13	56.95	-41.1	-43.0	18.5	0.00e+00	0	43	0	0	53	4582
2026-01-18 23:38:12.79	176.37	56.64	-41.7	-43.6	17.9	0.00e+00	0	43	0	0	53	4923
2026-01-18 23:38:13.93	176.67	56.22	-42.1	-44.1	17.1	0.00e+00	0	43	0	0	54	4924
2026-01-18 23:38:14.78	176.89	55.92	-41.7	-43.7	17.0	0.00e+00	0	43	0	0	54	4681
2026-01-18 23:38:15.92	177.19	55.51	-40.8	-42.8	18.1	0.00e+00	0	43	0	0	53	4443
2026-01-18 23:38:16.78	177.40	55.20	-40.2	-42.0	18.9	0.00e+00	0	43	0	0	52	4314
2026-01-18 23:38:17.98	177.69	54.78	-39.6	-41.2	20.0	0.00e+00	0	43	0	0	51	4190
2026-01-18 23:38:18.83	177.89	54.48	-39.5	-41.1	20.2	0.00e+00	0	43	0	0	50	4380
2026-01-18 23:38:19.97	178.15	54.07	-40.0	-41.8	19.7	0.00e+00	0	43	0	0	50	4706
2026-01-18 23:38:20.82	178.35	53.78	-40.3	-42.0	19.5	0.00e+00	0	43	0	0	51	4581
2026-01-18 23:38:21.96	178.60	53.38	-40.8	-42.6	19.0	0.00e+00	0	43	0	0	52	4604
2026-01-18 23:38:22.82	178.78	53.08	-41.1	-42.9	18.7	0.00e+00	0	43	0	0	52	4799
2026-01-18 23:38:23.95	179.02	52.70	-41.9	-43.9	17.8	0.00e+00	0	43	0	0	54	4769
2026-01-18 23:38:24.81	179.20	52.40	-42.0	-44.0	17.7	0.00e+00	0	43	0	0	54	4847
2026-01-18 23:38:25.95	179.42	52.02	-41.9	-43.9	17.6	0.00e+00	0	43	0	0	54	4802
2026-01-18 23:38:26.80	179.59	51.73	-41.7	-43.7	17.7	0.00e+00	0	43	0	0	54	4690
2026-01-18 23:38:27.94	179.81	51.35	-41.3	-43.2	18.3	0.00e+00	0	43	0	0	54	4396
2026-01-18 23:38:28.79	179.97	51.06	-41.0	-42.8	18.7	0.00e+00	0	43	0	0	54	4233
2026-01-18 23:38:29.93	180.18	50.69	-41.0	-42.8	18.7	0.00e+00	0	43	0	0	53	4490
2026-01-18 23:38:30.78	180.33	50.41	-41.0	-42.8	18.7	0.00e+00	0	43	0	0	53	4487
2026-01-18 23:38:31.92	180.53	50.03	-41.5	-43.4	18.2	0.00e+00	0	43	0	0	53	4781
2026-01-18 23:38:32.77	180.68	49.76	-42.0	-44.0	17.7	0.00e+00	0	43	0	0	54	4830
2026-01-18 23:38:33.91	180.87	49.39	-42.1	-44.1	17.5	0.00e+00	0	43	0	0	54	4882
2026-01-18 23:38:34.76	181.01	49.11	-41.9	-43.8	17.6	0.00e+00	0	43	0	0	54	4739
2026-01-18 23:38:35.90	181.20	48.75	-41.9	-43.8	17.6	0.00e+00	0	43	0	0	54	4748
2026-01-18 23:38:36.75	181.33	48.48	-41.8	-43.7	17.7	0.00e+00	0	43	0	0	54	4697
2026-01-18 23:38:38.00	181.53	48.09	-41.9	-43.8	17.7	0.00e+00	0	43	0	0	54	4739
2026-01-18 23:38:38.85	181.66	47.82	-41.9	-43.9	17.6	0.00e+00	0	43	0	0	54	4793
2026-01-18 23:38:39.99	181.83	47.47	-41.8	-43.7	17.8	0.00e+00	0	43	0	0	54	4685
2026-01-18 23:38:40.84	181.95	47.21	-41.4	-43.2	18.1	0.00e+00	0	43	0	0	54	4426
2026-01-18 23:38:41.98	182.12	46.86	-41.2	-43.1	18.3	0.00e+00	0	43	0	0	54	4350
2026-01-18 23:38:42.83	182.24	46.60	-41.2	-43.1	18.4	0.00e+00	0	43	0	0	54	4354
2026-01-18 23:38:43.97	182.39	46.25	-41.5	-43.4	18.1	0.00e+00	0	43	0	0	54	4512
2026-01-18 23:38:44.82	182.51	46.00	-42.0	-44.0	17.6	0.00e+00	0	43	0	0	54	4850
2026-01-18 23:38:45.96	182.66	45.66	-42.6	-44.8	16.9	0.00e+00	0	43	0	0	55	4995
2026-01-18 23:38:46.81	182.77	45.40	-43.2	-45.4	16.4	0.00e+00	0	43	0	0	56	5075
2026-01-18 23:38:47.95	182.92	45.07	-43.8	-46.2	15.5	0.00e+00	0	43	0	0	58	4954
2026-01-18 23:38:48.80	183.03	44.82	-44.1	-46.7	15.0	0.00e+00	0	43	0	0	58	5231
2026-01-18 23:38:49.94	183.17	44.49	-43.7	-46.1	15.8	0.00e+00	0	43	0	0	58	4873
2026-01-18 23:38:50.79	183.27	44.24	-43.3	-45.5	16.2	0.00e+00	0	43	0	0	58	4584
2026-01-18 23:38:51.93	183.41	43.92	-42.9	-45.0	16.8	0.00e+00	0	43	0	0	57	4567
2026-01-18 23:38:52.78	183.51	43.68	-42.6	-44.6	17.1	0.00e+00	0	43	0	0	57	4384
2026-01-18 23:38:54.02	183.66	43.32	-42.4	-44.4	17.4	0.00e+00	0	43	0	0	56	4520
2026-01-18 23:38:54.87	183.75	43.09	-42.7	-44.8	17.0	0.00e+00	0	43	0	0	56	4739
2026-01-18 23:38:56.00	183.88	42.77	-42.7	-44.8	17.0	0.00e+00	0	43	0	0	56	4723
2026-01-18 23:38:56.86	183.97	42.53	-42.3	-44.4	17.4	0.00e+00	0	43	0	0	56	4495
2026-01-18 23:38:58.00	184.10	42.22	-42.1	-44.1	17.4	0.00e+00	0	43	0	0	56	4386
2026-01-18 23:38:58.85	184.19	41.99	-42.0	-43.9	17.5	0.00e+00	0	43	0	0	56	4290
2026-01-18 23:38:59.99	184.31	41.68	-41.4	-43.3	17.8	0.00e+00	0	43	0	0	54	4478
2026-01-18 23:39:00.84	184.40	41.45	-41.4	-43.3	18.0	0.00e+00	0	43	0	0	54	4466
2026-01-18 23:39:01.98	184.51	41.15	-41.7	-43.6	17.8	0.00e+00	0	43	0	0	54	4614
2026-01-18 23:39:02.83	184.60	40.92	-42.1	-44.0	17.5	0.00e+00	0	43	0	0	54	4855
2026-01-18 23:39:03.97	184.71	40.62	-42.4	-44.4	17.2	0.00e+00	0	43	0	0	55	4784
2026-01-18 23:39:04.82	184.79	40.40	-42.5	-44.6	17.0	0.00e+00	0	43	0	0	55	4907
2026-01-18 23:39:05.96	184.90	40.10	-42.5	-44.6	17.1	0.00e+00	0	43	0	0	55	4879
2026-01-18 23:39:06.81	184.98	39.88	-42.5	-44.6	17.0	0.00e+00	0	43	0	0	55	4906
2026-01-18 23:39:07.99	185.09	39.58	-42.4	-44.5	17.0	0.00e+00	0	43	0	0	55	4830
2026-01-18 23:39:08.85	185.17	39.36	-42.2	-44.2	17.3	0.00e+00	0	43	0	0	55	4670
2026-01-18 23:39:10.05	185.27	39.06	-42.1	-44.0	17.5	0.00e+00	0	43	0	0	55	4596
2026-01-18 23:39:10.90	185.35	38.85	-41.9	-43.9	17.6	0.00e+00	0	43	0	0	55	4529
2026-01-18 23:39:12.10	185.45	38.55	-41.5	-43.4	18.1	0.00e+00	0	43	0	0	55	4276
2026-01-18 23:39:13.37	185.56	38.23	-41.1	-42.9	18.6	0.00e+00	0	43	0	0	54	4287
2026-01-18 23:39:14.09	185.62	38.06	-41.2	-43.1	18.5	0.00e+00	0	43	0	0	54	4360
2026-01-18 23:39:15.37	185.73	37.75	-41.4	-43.3	18.3	0.00e+00	0	43	0	0	54	4484
2026-01-18 23:39:16.10	185.79	37.57	-41.6	-43.5	18.1	0.00e+00	0	43	0	0	54	4572
2026-01-18 23:39:17.38	185.89	37.26	-41.7	-43.7	18.0	0.00e+00	0	43	0	0	54	4656
2026-01-18 23:39:18.09	185.95	37.09	-41.6	-43.5	18.1	0.00e+00	0	43	0	0	54	4576
2026-01-18 23:39:19.45	186.06	36.77	-41.0	-42.9	18.6	0.00e+00	0	43	0	0	54	4247
2026-01-18 23:39:20.16	186.11	36.60	-40.8	-42.7	18.7	0.00e+00	0	43	0	0	53	4400
2026-01-18 23:39:21.44	186.21	36.31	-40.9	-42.8	18.5	0.00e+00	0	43	0	0	53	4443
2026-01-18 23:39:22.15	186.26	36.14	-41.0	-42.9	18.3	0.00e+00	0	43	0	0	53	4506
2026-01-18 23:39:23.43	186.36	35.85	-41.0	-42.9	18.4	0.00e+00	0	43	0	0	53	4518
2026-01-18 23:39:24.14	186.41	35.68	-41.0	-42.9	18.3	0.00e+00	0	43	0	0	53	4502
2026-01-18 23:39:25.42	186.50	35.39	-41.0	-42.9	18.4	0.00e+00	0	43	0	0	53	4499
2026-01-18 23:39:26.15	186.55	35.23	-41.0	-42.9	18.3	0.00e+00	0	43	0	0	53	4539
2026-01-18 23:39:27.43	186.64	34.94	-41.0	-43.0	18.4	0.00e+00	0	43	0	0	53	4546
2026-01-18 23:39:28.14	186.69	34.78	-41.1	-43.0	18.4	0.00e+00	0	43	0	0	53	4591
2026-01-18 23:39:29.42	186.78	34.50	-41.2	-43.1	18.2	0.00e+00	0	43	0	0	53	4622
2026-01-18 23:39:30.13	186.83	34.35	-41.2	-43.2	18.2	0.00e+00	0	43	0	0	53	4661
2026-01-18 23:39:31.41	186.92	34.07	-41.2	-43.2	18.2	0.00e+00	0	43	0	0	53	4661
2026-01-18 23:39:32.29	186.97	33.88	-41.0	-42.9	18.4	0.00e+00	0	43	0	0	53	4531
2026-01-18 23:39:33.43	187.05	33.63	-41.0	-42.9	18.5	0.00e+00	0	43	0	0	53	4494
2026-01-18 23:39:34.28	187.10	33.45	-40.9	-42.7	18.7	0.00e+00	0	43	0	0	53	4410
2026-01-18 23:39:35.42	187.17	33.21	-40.7	-42.5	18.9	0.00e+00	0	43	0	0	53	4311
2026-01-18 23:39:36.27	187.23	33.03	-40.3	-42.1	19.3	0.00e+00	0	43	0	0	52	4351
2026-01-18 23:39:37.41	187.30	32.79	-40.0	-41.7	19.6	0.00e+00	0	43	0	0	52	4173
2026-01-18 23:39:38.26	187.35	32.62	-39.8	-41.5	19.8	0.00e+00	0	43	0	0	51	4325
2026-01-18 23:39:39.40	187.42	32.38	-39.7	-41.3	20.0	0.00e+00	0	43	0	0	51	4237
2026-01-18 23:39:40.25	187.47	32.21	-39.7	-41.3	20.0	0.00e+00	0	43	0	0	51	4224
2026-01-18 23:39:41.39	187.54	31.98	-39.7	-41.4	19.9	0.00e+00	0	43	0	0	51	4252
2026-01-18 23:39:42.24	187.59	31.80	-39.6	-41.2	20.1	0.00e+00	0	43	0	0	51	4177
2026-01-18 23:39:43.38	187.65	31.57	-39.6	-41.3	20.0	0.00e+00	0	43	0	0	51	4209
2026-01-18 23:39:44.23	187.70	31.40	-39.7	-41.4	19.9	0.00e+00	0	43	0	0	51	4288
2026-01-18 23:39:45.37	187.77	31.18	-39.8	-41.6	19.8	0.00e+00	0	43	0	0	51	4343
2026-01-18 23:39:46.27	187.82	31.00	-39.9	-41.6	19.8	0.00e+00	0	43	0	0	51	4356
2026-01-18 23:39:47.30	187.87	30.80	-39.9	-41.6	19.9	0.00e+00	0	42	0	0	51	4351
2026-01-18 23:39:48.29	187.93	30.61	-39.9	-41.6	19.8	0.00e+00	0	42	0	0	51	4373
2026-01-18 23:39:49.29	187.98	30.41	-39.8	-41.5	19.9	0.00e+00	0	43	0	0	51	4339
2026-01-18 23:39:50.55	188.05	30.17	-40.0	-41.7	19.7	0.00e+00	0	43	0	0	51	4414
2026-01-18 23:39:51.35	188.09	30.02	-40.1	-41.8	19.7	0.00e+00	0	43	0	0	51	4464
2026-01-18 23:39:52.49	188.15	29.81	-40.2	-41.9	19.5	0.00e+00	0	43	0	0	51	4543
2026-01-18 23:39:53.34	188.20	29.65	-40.3	-42.1	19.4	0.00e+00	0	43	0	0	51	4604
2026-01-18 23:39:54.48	188.25	29.43	-40.4	-42.2	19.3	0.00e+00	0	43	0	0	51	4687
2026-01-18 23:39:55.33	188.30	29.28	-40.4	-42.2	19.3	0.00e+00	0	43	0	0	51	4685
2026-01-18 23:39:56.47	188.35	29.07	-40.5	-42.3	19.2	0.00e+00	0	43	0	0	51	4750
2026-01-18 23:39:57.32	188.40	28.91	-40.7	-42.5	19.0	0.00e+00	0	43	0	0	51	4842
2026-01-18 23:39:58.46	188.45	28.70	-40.7	-42.6	18.8	0.00e+00	0	43	0	0	52	4606
2026-01-18 23:39:59.31	188.49	28.55	-40.8	-42.7	18.6	0.00e+00	0	43	0	0	52	4684
2026-01-18 23:40:00.45	188.55	28.34	-41.0	-43.0	18.4	0.00e+00	0	43	0	0	52	4815
2026-01-18 23:40:01.30	188.59	28.19	-41.0	-42.9	18.4	0.00e+00	0	43	0	0	52	4803
2026-01-18 23:40:02.58	188.65	27.96	-41.0	-42.9	18.4	0.00e+00	0	43	0	0	52	4771
2026-01-18 23:40:03.29	188.68	27.84	-41.1	-43.0	18.3	0.00e+00	0	43	0	0	52	4865
2026-01-18 23:40:04.77	188.75	27.58	-41.0	-42.9	18.4	0.00e+00	0	43	0	0	53	4518
2026-01-18 23:40:05.48	188.78	27.46	-40.9	-42.8	18.4	0.00e+00	0	43	0	0	53	4492
2026-01-18 23:40:06.76	188.84	27.24	-40.8	-42.6	18.6	0.00e+00	0	43	0	0	53	4387
2026-01-18 23:40:07.47	188.87	27.11	-40.7	-42.6	18.7	0.00e+00	0	43	0	0	53	4358
2026-01-18 23:40:08.75	188.93	26.90	-40.7	-42.5	18.7	0.00e+00	0	43	0	0	53	4314
2026-01-18 23:40:09.46	188.96	26.78	-40.5	-42.3	18.9	0.00e+00	0	43	0	0	52	4474
2026-01-18 23:40:10.74	189.01	26.56	-40.3	-42.1	19.1	0.00e+00	0	43	0	0	52	4346
2026-01-18 23:40:11.47	189.04	26.44	-40.1	-41.9	19.3	0.00e+00	0	43	0	0	52	4246
2026-01-18 23:40:12.75	189.10	26.22	-40.0	-41.7	19.5	0.00e+00	0	43	0	0	51	4432
2026-01-18 23:40:13.47	189.13	26.10	-39.9	-41.7	19.5	0.00e+00	0	43	0	0	51	4397
2026-01-18 23:40:14.75	189.18	25.89	-39.8	-41.5	19.7	0.00e+00	0	43	0	0	51	4321
2026-01-18 23:40:15.50	189.21	25.77	-39.7	-41.5	19.8	0.00e+00	0	43	0	0	51	4296
2026-01-18 23:40:16.77	189.26	25.57	-39.6	-41.3	19.8	0.00e+00	0	43	0	0	51	4237
2026-01-18 23:40:17.48	189.29	25.45	-39.5	-41.2	20.0	0.00e+00	0	43	0	0	51	4146
2026-01-18 23:40:18.76	189.34	25.25	-39.3	-41.0	20.1	0.00e+00	0	43	0	0	50	4295
2026-01-18 23:40:19.61	189.38	25.11	-39.3	-41.0	20.1	0.00e+00	0	43	0	0	50	4300
2026-01-18 23:40:20.75	189.42	24.93	-39.4	-41.1	20.0	0.00e+00	0	43	0	0	50	4341
2026-01-18 23:40:21.80	189.46	24.76	-39.2	-40.9	20.2	0.00e+00	0	43	0	0	50	4245
2026-01-18 23:40:22.93	189.51	24.59	-39.3	-40.9	20.1	0.00e+00	0	43	0	0	50	4270
2026-01-18 23:40:23.78	189.54	24.45	-39.3	-41.0	20.0	0.00e+00	0	43	0	0	50	4298
2026-01-18 23:40:25.16	189.59	24.24	-39.4	-41.1	19.9	0.00e+00	0	43	0	0	50	4374
2026-01-18 23:40:25.87	189.62	24.13	-39.5	-41.2	19.9	0.00e+00	0	43	0	0	50	4404
2026-01-18 23:40:27.36	189.67	23.90	-39.6	-41.3	19.8	0.00e+00	0	43	0	0	50	4485
2026-01-18 23:40:28.07	189.70	23.80	-39.7	-41.4	19.8	0.00e+00	0	43	0	0	50	4509
2026-01-18 23:40:29.35	189.75	23.60	-39.8	-41.5	19.7	0.00e+00	0	43	0	0	50	4586
2026-01-18 23:40:30.06	189.77	23.50	-39.8	-41.5	19.8	0.00e+00	0	43	0	0	50	4566
2026-01-18 23:40:31.33	189.82	23.31	-39.9	-41.6	19.8	0.00e+00	0	43	0	0	50	4618
2026-01-18 23:40:32.06	189.84	23.20	-39.8	-41.5	19.8	0.00e+00	0	43	0	0	50	4569
2026-01-18 23:40:33.34	189.89	23.01	-39.7	-41.4	19.9	0.00e+00	0	43	0	0	50	4544
2026-01-18 23:40:34.05	189.91	22.91	-39.7	-41.4	19.9	0.00e+00	0	43	0	0	50	4535
2026-01-18 23:40:35.33	189.96	22.72	-39.6	-41.3	20.1	0.00e+00	0	43	0	0	50	4459
2026-01-18 23:40:36.04	189.98	22.62	-39.6	-41.3	20.0	0.00e+00	0	43	0	0	50	4481
2026-01-18 23:40:37.31	190.02	22.43	-39.6	-41.3	20.1	0.00e+00	0	43	0	0	50	4448
2026-01-18 23:40:38.18	190.05	22.31	-39.4	-41.1	20.3	0.00e+00	0	43	0	0	50	4360
2026-01-18 23:40:39.32	190.09	22.14	-39.5	-41.1	20.2	0.00e+00	0	43	0	0	50	4391
2026-01-18 23:40:40.18	190.12	22.02	-39.4	-41.0	20.3	0.00e+00	0	43	0	0	50	4335
2026-01-18 23:40:41.31	190.16	21.86	-39.4	-41.0	20.3	0.00e+00	0	43	0	0	50	4331
2026-01-18 23:40:42.17	190.18	21.74	-39.4	-41.0	20.3	0.00e+00	0	43	0	0	50	4338
2026-01-18 23:40:43.31	190.22	21.58	-39.4	-41.1	20.2	0.00e+00	0	43	0	0	50	4363
2026-01-18 23:40:44.16	190.25	21.47	-39.5	-41.2	20.2	0.00e+00	0	43	0	0	50	4399
2026-01-18 23:40:45.31	190.29	21.31	-39.5	-41.2	20.1	0.00e+00	0	43	0	0	50	4410
2026-01-18 23:40:46.16	190.31	21.19	-39.5	-41.2	20.1	0.00e+00	0	43	0	0	50	4431
2026-01-18 23:40:47.30	190.35	21.03	-39.6	-41.4	20.0	0.00e+00	0	43	0	0	50	4498
2026-01-18 23:40:48.15	190.37	20.92	-39.7	-41.4	19.9	0.00e+00	0	43	0	0	50	4516
2026-01-18 23:40:49.42	190.41	20.75	-39.7	-41.4	19.9	0.00e+00	0	43	0	0	50	4539
2026-01-18 23:40:50.23	190.44	20.64	-39.7	-41.5	19.9	0.00e+00	0	43	0	0	50	4554
2026-01-18 23:40:51.38	190.47	20.49	-39.9	-41.7	19.7	0.00e+00	0	43	0	0	50	4667
2026-01-18 23:40:52.23	190.50	20.37	-39.9	-41.6	19.7	0.00e+00	0	43	0	0	50	4637
2026-01-18 23:40:53.36	190.53	20.22	-39.9	-41.7	19.7	0.00e+00	0	43	0	0	50	4663
2026-01-18 23:40:54.22	190.56	20.11	-39.9	-41.7	19.7	0.00e+00	0	43	0	0	50	4680
2026-01-18 23:40:55.54	190.60	19.94	-40.0	-41.8	19.6	0.00e+00	0	43	0	0	50	4720
2026-01-18 23:40:56.25	190.62	19.84	-40.2	-42.0	19.4	0.00e+00	0	43	0	0	50	4818
2026-01-18 23:40:57.72	190.66	19.65	-40.1	-41.8	19.5	0.00e+00	0	43	0	0	51	4487
2026-01-18 23:40:58.43	190.68	19.56	-40.0	-41.8	19.6	0.00e+00	0	43	0	0	51	4453
2026-01-18 23:40:59.71	190.72	19.40	-40.1	-41.9	19.5	0.00e+00	0	43	0	0	51	4510
2026-01-18 23:41:00.44	190.74	19.31	-40.1	-41.9	19.5	0.00e+00	0	43	0	0	51	4522
2026-01-18 23:41:01.72	190.77	19.14	-40.1	-41.9	19.5	0.00e+00	0	43	0	0	51	4511
2026-01-18 23:41:02.49	190.79	19.05	-40.0	-41.8	19.5	0.00e+00	0	43	0	0	51	4474
2026-01-18 23:41:03.77	190.83	18.89	-40.1	-41.9	19.5	0.00e+00	0	43	0	0	51	4506
2026-01-18 23:41:04.49	190.85	18.80	-40.0	-41.8	19.5	0.00e+00	0	43	0	0	51	4473
2026-01-18 23:41:05.77	190.88	18.64	-40.0	-41.8	19.5	0.00e+00	0	43	0	0	51	4482
2026-01-18 23:41:06.50	190.90	18.55	-40.0	-41.7	19.6	0.00e+00	0	43	0	0	51	4437
2026-01-18 23:41:07.77	190.94	18.39	-40.0	-41.7	19.6	0.00e+00	0	43	0	0	51	4440
2026-01-18 23:41:08.50	190.96	18.30	-40.0	-41.8	19.5	0.00e+00	0	43	0	0	51	4468
2026-01-18 23:41:09.78	190.99	18.15	-40.0	-41.8	19.5	0.00e+00	0	43	0	0	51	4453
2026-01-18 23:41:10.57	191.01	18.05	-40.1	-41.9	19.4	0.00e+00	0	43	0	0	51	4517
2026-01-18 23:41:11.85	191.05	17.90	-40.0	-41.8	19.5	0.00e+00	0	43	0	0	51	4484
2026-01-18 23:41:12.61	191.06	17.81	-40.0	-41.8	19.5	0.00e+00	0	43	0	0	51	4473
2026-01-18 23:41:14.20	191.11	17.62	-40.0	-41.8	19.5	0.00e+00	0	43	0	0	51	4446
2026-01-18 23:41:14.78	191.12	17.55	-40.1	-41.8	19.4	0.00e+00	0	43	0	0	51	4489
2026-01-18 23:41:16.52	191.16	17.34	-40.1	-41.9	19.4	0.00e+00	0	43	0	0	51	4516
2026-01-18 23:41:17.09	191.18	17.28	-40.1	-41.9	19.4	0.00e+00	0	43	0	0	51	4535
2026-01-18 23:41:18.79	191.22	17.08	-40.1	-41.9	19.4	0.00e+00	0	43	0	0	51	4516
2026-01-18 23:41:19.36	191.24	17.01	-40.1	-41.9	19.4	0.00e+00	0	43	0	0	51	4495
2026-01-18 23:41:21.07	191.28	16.81	-40.2	-42.0	19.2	0.00e+00	0	43	0	0	51	4590
2026-01-18 23:41:21.64	191.29	16.75	-40.2	-42.0	19.2	0.00e+00	0	43	0	0	51	4596
2026-01-18 23:41:23.42	191.33	16.55	-40.3	-42.1	19.2	0.00e+00	0	43	0	0	51	4611
2026-01-18 23:41:23.99	191.35	16.48	-40.2	-42.0	19.2	0.00e+00	0	43	0	0	51	4575
2026-01-18 23:41:25.70	191.39	16.29	-40.4	-42.3	19.0	0.00e+00	0	43	0	0	51	4707
2026-01-18 23:41:26.41	191.40	16.21	-40.4	-42.2	19.0	0.00e+00	0	43	0	0	51	4696
2026-01-18 23:41:27.69	191.43	16.06	-40.3	-42.2	19.1	0.00e+00	0	43	0	0	51	4660
2026-01-18 23:41:28.40	191.45	15.99	-40.4	-42.3	19.0	0.00e+00	0	43	0	0	51	4731
2026-01-18 23:41:29.71	191.48	15.84	-40.4	-42.3	19.0	0.00e+00	0	43	0	0	51	4729
2026-01-18 23:41:30.42	191.50	15.76	-40.4	-42.3	19.0	0.00e+00	0	43	0	0	51	4741
2026-01-18 23:41:31.75	191.53	15.62	-40.3	-42.1	19.1	0.00e+00	0	43	0	0	51	4647
2026-01-18 23:41:32.46	191.54	15.54	-40.5	-42.4	18.9	0.00e+00	0	43	0	0	51	4764
2026-01-18 23:41:33.74	191.57	15.40	-40.5	-42.4	18.9	0.00e+00	0	43	0	0	51	4778
2026-01-18 23:41:34.45	191.59	15.32	-40.6	-42.5	18.8	0.00e+00	0	43	0	0	51	4833
2026-01-18 23:41:35.73	191.62	15.18	-40.7	-42.6	18.7	0.00e+00	0	43	0	0	51	4884
2026-01-18 23:41:36.45	191.63	15.11	-40.5	-42.4	18.8	0.00e+00	0	43	0	0	51	4794
2026-01-18 23:41:37.73	191.66	14.97	-40.6	-42.5	18.7	0.00e+00	0	43	0	0	51	4837
2026-01-18 23:41:38.46	191.68	14.89	-40.6	-42.5	18.8	0.00e+00	0	43	0	0	51	4822
2026-01-18 23:41:39.74	191.71	14.76	-40.7	-42.6	18.7	0.00e+00	0	43	0	0	51	4896
2026-01-18 23:41:40.46	191.72	14.68	-40.5	-42.4	18.8	0.00e+00	0	43	0	0	51	4808
2026-01-18 23:41:41.74	191.75	14.55	-40.5	-42.5	18.7	0.00e+00	0	43	0	0	52	4546
2026-01-18 23:41:42.45	191.76	14.47	-40.6	-42.5	18.5	0.00e+00	0	43	0	0	52	4597
2026-01-18 23:41:43.73	191.79	14.34	-40.5	-42.4	18.8	0.00e+00	0	43	0	0	52	4501
2026-01-18 23:41:44.60	191.81	14.25	-40.5	-42.4	18.7	0.00e+00	0	43	0	0	52	4529
2026-01-18 23:41:45.74	191.83	14.13	-40.6	-42.5	18.7	0.00e+00	0	43	0	0	52	4563
2026-01-18 23:41:46.59	191.85	14.04	-40.5	-42.4	18.7	0.00e+00	0	43	0	0	52	4529
2026-01-18 23:41:47.73	191.87	13.93	-40.5	-42.4	18.7	0.00e+00	0	43	0	0	52	4543
2026-01-18 23:41:48.58	191.89	13.84	-40.6	-42.5	18.6	0.00e+00	0	43	0	0	52	4570
2026-01-18 23:41:49.72	191.91	13.72	-40.6	-42.5	18.7	0.00e+00	0	43	0	0	52	4566
2026-01-18 23:41:50.57	191.93	13.64	-40.6	-42.5	18.6	0.00e+00	0	43	0	0	52	4557
2026-01-18 23:41:51.71	191.95	13.52	-40.6	-42.5	18.6	0.00e+00	0	43	0	0	52	4568
2026-01-18 23:41:52.56	191.97	13.44	-40.6	-42.5	18.7	0.00e+00	0	43	0	0	52	4570
2026-01-18 23:41:53.70	191.99	13.32	-40.7	-42.6	18.5	0.00e+00	0	43	0	0	52	4623
2026-01-18 23:41:54.55	192.01	13.24	-40.5	-42.4	18.7	0.00e+00	0	43	0	0	52	4539
2026-01-18 23:41:55.69	192.03	13.13	-40.8	-42.7	18.5	0.00e+00	0	43	0	0	52	4661
2026-01-18 23:41:56.54	192.05	13.04	-40.5	-42.4	18.7	0.00e+00	0	43	0	0	52	4545
2026-01-18 23:41:57.68	192.07	12.93	-40.6	-42.5	18.6	0.00e+00	0	43	0	0	52	4578
2026-01-18 23:41:58.64	192.09	12.84	-40.6	-42.5	18.6	0.00e+00	0	43	0	0	52	4557
2026-01-18 23:41:59.79	192.11	12.72	-40.7	-42.7	18.5	0.00e+00	0	43	0	0	52	4653
2026-01-18 23:42:00.64	192.13	12.64	-40.6	-42.5	18.6	0.00e+00	0	43	0	0	52	4581
2026-01-18 23:42:02.00	192.16	12.51	-40.5	-42.5	18.6	0.00e+00	0	43	0	0	52	4546
2026-01-18 23:42:02.71	192.17	12.44	-40.6	-42.5	18.6	0.00e+00	0	43	0	0	52	4563
2026-01-18 23:42:04.19	192.20	12.30	-40.6	-42.6	18.6	0.00e+00	0	43	0	0	52	4603
2026-01-18 23:42:04.91	192.21	12.23	-40.6	-42.5	18.6	0.00e+00	0	43	0	0	52	4572
2026-01-18 23:42:06.25	192.24	12.10	-40.6	-42.5	18.6	0.00e+00	0	43	0	0	52	4558
2026-01-18 23:42:06.96	192.25	12.04	-40.6	-42.5	18.6	0.00e+00	0	43	0	0	52	4592
2026-01-18 23:42:08.24	192.27	11.92	-40.5	-42.4	18.7	0.00e+00	0	43	0	0	52	4535
2026-01-18 23:42:09.30	192.29	11.82	-40.7	-42.6	18.5	0.00e+00	0	43	0	0	52	4615
2026-01-18 23:42:10.16	192.31	11.74	-40.5	-42.4	18.7	0.00e+00	0	43	0	0	52	4527
2026-01-18 23:42:11.29	192.33	11.63	-40.5	-42.4	18.7	0.00e+00	0	43	0	0	52	4531
2026-01-18 23:42:12.15	192.34	11.55	-40.5	-42.4	18.7	0.00e+00	0	43	0	0	52	4510
2026-01-18 23:42:13.31	192.36	11.44	-40.6	-42.5	18.6	0.00e+00	0	43	0	0	52	4572
2026-01-18 23:42:14.17	192.38	11.36	-40.5	-42.4	18.6	0.00e+00	0	43	0	0	52	4532
2026-01-18 23:42:15.38	192.40	11.25	-40.6	-42.5	18.6	0.00e+00	0	43	0	0	52	4557
2026-01-18 23:42:16.24	192.42	11.18	-40.7	-42.6	18.5	0.00e+00	0	43	0	0	52	4633
2026-01-18 23:42:17.38	192.44	11.07	-40.7	-42.6	18.5	0.00e+00	0	43	0	0	52	4617
2026-01-18 23:42:18.23	192.45	10.99	-40.8	-42.7	18.3	0.00e+00	0	43	0	0	52	4680
2026-01-18 23:42:19.36	192.47	10.89	-40.7	-42.6	18.4	0.00e+00	0	43	0	0	52	4626
2026-01-18 23:42:20.22	192.48	10.81	-40.6	-42.5	18.6	0.00e+00	0	43	0	0	52	4559
2026-01-18 23:42:21.35	192.50	10.71	-40.5	-42.4	18.6	0.00e+00	0	43	0	0	52	4500
2026-01-18 23:42:22.21	192.52	10.64	-40.6	-42.5	18.6	0.00e+00	0	43	0	0	52	4562
2026-01-18 23:42:23.34	192.54	10.54	-40.6	-42.6	18.5	0.00e+00	0	43	0	0	52	4607
2026-01-18 23:42:24.20	192.55	10.46	-40.6	-42.5	18.5	0.00e+00	0	43	0	0	52	4588
2026-01-18 23:42:25.33	192.57	10.36	-40.7	-42.7	18.4	0.00e+00	0	43	0	0	52	4660
2026-01-18 23:42:26.41	192.59	10.26	-40.6	-42.5	18.5	0.00e+00	0	43	0	0	52	4598
2026-01-18 23:42:27.42	192.61	10.17	-40.7	-42.6	18.4	0.00e+00	0	43	0	0	52	4647
2026-01-18 23:42:28.42	192.62	10.09	-40.7	-42.6	18.4	0.00e+00	0	43	0	0	52	4644
2026-01-18 23:42:29.41	192.64	10.00	-40.7	-42.7	18.4	0.00e+00	0	43	0	0	52	4662
2026-01-18 23:42:30.41	192.66	9.91	-40.7	-42.6	18.4	0.00e+00	0	43	0	0	52	4646
2026-01-18 23:42:31.40	192.67	9.83	-40.8	-42.7	18.3	0.00e+00	0	43	0	0	52	4688
2026-01-18 23:42:32.40	192.69	9.74	-40.8	-42.8	18.3	0.00e+00	0	43	0	0	52	4716
2026-01-18 23:42:33.39	192.70	9.66	-40.7	-42.7	18.3	0.00e+00	0	43	0	0	52	4679
2026-01-18 23:42:34.39	192.72	9.57	-40.7	-42.6	18.4	0.00e+00	0	43	0	0	52	4633
2026-01-18 23:42:35.38	192.74	9.49	-40.9	-42.9	18.1	0.00e+00	0	43	0	0	52	4785
2026-01-18 23:42:36.37	192.75	9.40	-40.9	-42.9	18.1	0.00e+00	0	43	0	0	52	4794
2026-01-18 23:42:37.37	192.77	9.32	-41.0	-43.1	18.0	0.00e+00	0	43	0	0	53	4609
2026-01-18 23:42:38.36	192.78	9.23	-40.9	-42.9	18.2	0.00e+00	0	43	0	0	53	4496
2026-01-18 23:42:39.36	192.80	9.15	-41.2	-43.2	17.8	0.00e+00	0	43	0	0	53	4695
2026-01-18 23:42:40.41	192.82	9.06	-41.1	-43.1	17.8	0.00e+00	0	43	0	0	53	4649
2026-01-18 23:42:41.28	192.83	8.99	-41.1	-43.2	17.9	0.00e+00	0	43	0	0	53	4672
2026-01-18 23:42:42.59	192.85	8.88	-49.2	-62.1	3.8	1.49e+00	0	43	104	0	68	17383
2026-01-18 23:42:43.30	192.86	8.82	-49.4	-62.9	3.8	1.49e+00	0	43	104	0	69	18065
2026-01-18 23:42:44.80	192.88	8.70	-50.0	-63.2	3.8	1.49e+00	0	43	104	0	70	17525
2026-01-18 23:42:45.51	192.89	8.64	-50.0	-63.2	3.8	1.49e+00	0	43	104	0	70	17597
2026-01-18 23:42:46.85	192.91	8.53	-50.2	-63.3	3.8	1.49e+00	0	43	104	0	71	16695
2026-01-18 23:42:47.56	192.92	8.47	-50.1	-63.2	3.8	1.49e+00	0	43	104	0	71	16684
2026-01-18 23:42:48.84	192.94	8.36	-50.3	-63.3	3.8	1.49e+00	0	43	104	0	71	16848
2026-01-18 23:42:49.56	192.95	8.31	-50.3	-63.4	3.8	1.49e+00	0	43	104	0	71	16893
2026-01-18 23:42:50.84	192.97	8.20	-50.3	-63.3	3.8	1.49e+00	0	43	104	0	71	16883
2026-01-18 23:42:51.55	192.98	8.14	-50.3	-63.4	3.8	1.49e+00	0	43	104	0	71	16971
2026-01-18 23:42:52.83	193.00	8.04	-50.3	-63.4	3.8	1.49e+00	0	43	104	0	71	16892
2026-01-18 23:42:53.55	193.01	7.98	-50.4	-63.4	3.8	1.49e+00	0	43	104	0	71	16907
2026-01-18 23:42:54.83	193.03	7.88	-50.3	-63.3	3.8	1.49e+00	0	43	104	0	71	16860
2026-01-18 23:42:55.54	193.04	7.82	-50.4	-63.3	3.8	1.49e+00	0	43	104	0	71	16859
2026-01-18 23:42:56.83	193.06	7.72	-50.3	-63.3	3.8	1.49e+00	0	43	104	0	71	16834
2026-01-18 23:42:57.54	193.07	7.66	-50.3	-63.3	3.8	1.49e+00	0	43	104	0	71	16872
2026-01-18 23:42:58.82	193.09	7.56	-50.3	-63.3	3.8	1.49e+00	0	43	104	0	71	16791
2026-01-18 23:42:59.56	193.10	7.51	-50.3	-63.3	3.8	1.49e+00	0	43	104	0	71	16785
2026-01-18 23:43:00.84	193.12	7.40	-50.3	-63.3	3.8	1.49e+00	0	43	104	0	71	16809
2026-01-18 23:43:01.55	193.13	7.35	-50.3	-63.4	3.8	1.49e+00	0	43	104	0	71	16913
2026-01-18 23:43:02.82	193.15	7.25	-50.3	-63.3	3.8	1.49e+00	0	43	104	0	71	16838
2026-01-18 23:43:03.53	193.16	7.19	-50.2	-63.3	3.8	1.49e+00	0	43	104	0	71	16844
2026-01-18 23:43:04.81	193.17	7.09	-50.3	-63.3	3.8	1.49e+00	0	43	104	0	71	16793
2026-01-18 23:43:05.53	193.18	7.04	-50.1	-63.3	3.8	1.49e+00	0	43	104	0	71	16814
2026-01-18 23:43:06.81	193.20	6.94	-50.0	-63.3	3.8	1.49e+00	0	43	104	0	71	16811
2026-01-18 23:43:07.52	193.21	6.89	-50.0	-63.3	3.8	1.49e+00	0	43	104	0	71	16716
2026-01-18 23:43:08.81	193.23	6.79	-50.0	-63.3	3.8	1.49e+00	0	43	104	0	71	16724
2026-01-18 23:43:09.52	193.24	6.73	-50.0	-63.3	3.8	1.49e+00	0	43	104	0	71	16741
2026-01-18 23:43:10.80	193.26	6.63	-50.0	-63.3	3.8	1.49e+00	0	43	104	0	71	16753
2026-01-18 23:43:11.54	193.27	6.58	-50.0	-63.3	3.8	1.49e+00	0	43	104	0	71	16774
2026-01-18 23:43:12.82	193.28	6.48	-50.0	-63.3	3.8	1.49e+00	0	43	104	0	71	16725
2026-01-18 23:43:13.56	193.29	6.42	-50.0	-63.3	3.8	1.49e+00	0	43	104	0	71	16706
2026-01-18 23:43:14.83	193.31	6.33	-50.0	-63.2	3.8	1.49e+00	0	43	104	0	71	16693
2026-01-18 23:43:15.56	193.32	6.27	-50.0	-63.3	3.8	1.49e+00	0	43	104	0	71	16706
2026-01-18 23:43:16.83	193.34	6.18	-50.0	-63.3	3.8	1.49e+00	0	43	104	0	71	16712
2026-01-18 23:43:17.54	193.35	6.13	-50.0	-63.2	3.8	1.49e+00	0	43	104	0	71	16633
2026-01-18 23:43:18.82	193.36	6.03	-50.0	-63.3	3.8	1.49e+00	0	43	104	0	71	16708
2026-01-18 23:43:19.53	193.37	5.98	-50.0	-63.3	3.8	1.49e+00	0	43	104	0	71	16711
