passes_logs/2026/01/18/T1/T1__20260118_220726_FENGYUN_3G_rec.log

#Pass ID: 20260118_220726_FENGYUN 3G
#Satellite: FENGYUN 3G
#Configuration: FENGYUN 3G
#almurnet v.1.7.20251203
#Start time: 2026-01-18 22:07:27

#Version: 2.0.20230620
#Station: T1
#Location: 37.570604 lon 55.790049 lat
#TLE: 1 56232U 23055A   26017.94343179  .00026793  00000+0  41706-3 0  9996
#TLE: 2 56232  49.9938  40.7454 0004132  42.1181 318.0104 15.53646528156658

#Time	Az	El	Level	Level2	SNR	BER	BlckErr	Temp	State	Recorded	gain1	gain2
2026-01-18 22:07:27.57	250.54	5.26	-49.7	-68.5	3.8	8.47e-01	0	38	0	0	71	30547
2026-01-18 22:07:28.56	250.45	5.33	-49.6	-68.5	3.8	8.38e-01	0	38	104	0	71	30484
2026-01-18 22:07:29.55	250.37	5.41	-49.6	-68.4	3.8	8.47e-01	0	38	104	0	71	30256
2026-01-18 22:07:30.55	250.28	5.49	-49.6	-68.4	3.8	8.47e-01	0	38	104	0	71	30037
2026-01-18 22:07:31.54	250.20	5.56	-49.6	-68.3	3.8	8.47e-01	0	38	104	0	71	29995
2026-01-18 22:07:32.53	250.11	5.64	-49.7	-68.2	3.8	8.47e-01	0	38	104	0	71	29569
2026-01-18 22:07:33.52	250.02	5.72	-49.6	-68.2	3.8	8.46e-01	0	38	104	0	71	29648
2026-01-18 22:07:34.52	249.93	5.80	-49.6	-68.2	3.8	8.46e-01	0	38	104	0	71	29522
2026-01-18 22:07:35.51	249.84	5.87	-49.6	-68.1	3.8	8.48e-01	0	38	104	0	71	29171
2026-01-18 22:07:36.50	249.76	5.95	-49.6	-68.1	3.8	8.48e-01	0	38	104	0	71	29168
2026-01-18 22:07:37.50	249.66	6.03	-49.6	-68.2	3.8	8.48e-01	0	38	104	0	71	29424
2026-01-18 22:07:38.49	249.57	6.11	-49.6	-68.2	3.8	8.45e-01	0	38	104	0	71	29422
2026-01-18 22:07:39.48	249.48	6.19	-49.6	-68.2	3.8	8.47e-01	0	38	104	0	71	29390
2026-01-18 22:07:40.48	249.39	6.27	-49.6	-68.2	3.8	8.47e-01	0	38	104	0	71	29454
2026-01-18 22:07:41.47	249.30	6.35	-49.6	-68.2	3.8	8.46e-01	0	38	104	0	71	29391
2026-01-18 22:07:42.46	249.20	6.43	-49.6	-68.1	3.8	8.46e-01	0	38	104	0	71	29065
2026-01-18 22:07:43.46	249.11	6.51	-49.6	-68.0	3.8	8.46e-01	0	38	104	0	71	28871
2026-01-18 22:07:44.45	249.01	6.59	-49.6	-68.0	3.8	8.46e-01	0	38	104	0	71	28977
2026-01-18 22:07:45.44	248.92	6.68	-49.6	-68.2	3.8	8.47e-01	0	38	104	0	71	29564
2026-01-18 22:07:46.44	248.82	6.76	-49.6	-68.3	3.8	8.48e-01	0	38	104	0	71	29833
2026-01-18 22:07:47.43	248.72	6.84	-49.6	-68.4	3.8	8.48e-01	0	38	104	0	71	30130
2026-01-18 22:07:48.42	248.63	6.92	-49.6	-68.3	3.8	8.47e-01	0	38	104	0	71	29967
2026-01-18 22:07:49.42	248.53	7.01	-49.6	-68.2	3.8	8.48e-01	0	38	104	0	71	29633
2026-01-18 22:07:50.41	248.43	7.09	-49.6	-68.1	3.8	8.48e-01	0	38	104	0	71	29314
2026-01-18 22:07:51.41	248.32	7.17	-49.6	-68.1	3.8	8.47e-01	0	38	104	0	71	29346
2026-01-18 22:07:52.40	248.22	7.26	-49.6	-68.3	3.8	8.46e-01	0	38	104	0	71	29697
2026-01-18 22:07:53.39	248.12	7.34	-49.6	-68.3	3.8	8.46e-01	0	39	104	0	71	29814
2026-01-18 22:07:54.39	248.02	7.43	-49.6	-68.1	3.8	8.46e-01	0	38	104	0	71	29092
2026-01-18 22:07:55.38	247.91	7.51	-49.6	-67.6	3.8	8.47e-01	0	38	104	0	71	27543
2026-01-18 22:07:56.37	247.81	7.60	-49.6	-66.9	3.8	8.47e-01	0	38	104	0	71	25411
2026-01-18 22:07:57.37	247.70	7.68	-49.5	-66.4	3.8	8.47e-01	0	38	104	0	71	24045
2026-01-18 22:07:58.36	247.60	7.77	-49.6	-66.4	3.8	8.46e-01	0	39	104	0	71	24036
2026-01-18 22:07:59.35	247.49	7.86	-49.5	-66.6	3.8	8.46e-01	0	39	104	0	71	24505
2026-01-18 22:08:00.35	247.38	7.94	-49.6	-67.3	3.8	8.47e-01	0	39	104	0	71	26710
2026-01-18 22:08:01.34	247.27	8.03	-49.6	-68.0	3.8	8.45e-01	0	39	104	0	71	28784
2026-01-18 22:08:02.33	247.16	8.12	-49.6	-67.8	3.8	8.45e-01	0	39	104	0	71	28194
2026-01-18 22:08:03.32	247.05	8.21	-49.6	-66.7	3.8	8.48e-01	0	39	104	0	71	24959
2026-01-18 22:08:04.32	246.94	8.29	-49.5	-65.9	3.8	8.47e-01	0	39	104	0	71	22653
2026-01-18 22:08:05.31	246.82	8.38	-49.5	-65.4	3.9	8.47e-01	0	39	104	0	71	21474
2026-01-18 22:08:06.30	246.71	8.47	-49.5	-65.4	4.1	8.43e-01	0	39	0	0	71	21414
2026-01-18 22:08:07.30	246.59	8.56	-49.5	-64.6	4.3	8.42e-01	0	39	0	0	71	19523
2026-01-18 22:08:08.29	246.48	8.65	-49.3	-61.5	5.8	7.85e-01	0	39	0	0	70	14468
2026-01-18 22:08:09.28	246.36	8.74	-48.9	-58.2	8.8	7.85e-01	0	39	0	0	69	10419
2026-01-18 22:08:10.27	246.24	8.83	-48.2	-55.4	11.7	1.13e-01	0	39	0	0	68	8045
2026-01-18 22:08:11.27	246.12	8.93	-47.3	-52.9	14.2	1.02e-03	0	39	0	0	66	6776
2026-01-18 22:08:12.26	246.00	9.02	-46.8	-51.8	15.3	1.02e-03	0	39	0	0	65	6314
2026-01-18 22:08:13.25	245.88	9.11	-46.6	-51.3	15.9	0.00e+00	0	39	0	0	65	5943
2026-01-18 22:08:14.33	245.75	9.21	-45.4	-49.1	18.0	0.00e+00	0	39	0	0	62	5478
2026-01-18 22:08:15.21	245.64	9.29	-43.1	-45.9	21.5	0.00e+00	0	39	0	0	58	4770
2026-01-18 22:08:16.52	245.47	9.41	-47.2	-52.7	13.9	0.00e+00	0	39	0	0	66	6576
2026-01-18 22:08:17.24	245.38	9.48	-46.3	-50.6	16.3	2.21e-02	0	39	0	0	64	5829
2026-01-18 22:08:18.52	245.22	9.60	-44.4	-47.6	19.5	0.00e+00	0	39	0	0	60	5201
2026-01-18 22:08:19.24	245.13	9.67	-44.3	-47.5	19.9	0.00e+00	0	39	0	0	60	5116
2026-01-18 22:08:20.52	244.96	9.80	-43.9	-46.9	20.5	0.00e+00	0	39	0	0	59	5059
2026-01-18 22:08:21.23	244.87	9.86	-43.8	-46.7	20.6	0.00e+00	0	39	0	0	59	4954
2026-01-18 22:08:22.51	244.70	9.99	-43.6	-46.4	20.8	0.00e+00	0	39	0	0	59	4809
2026-01-18 22:08:23.24	244.60	10.06	-43.3	-46.1	21.0	0.00e+00	0	39	0	0	58	4897
2026-01-18 22:08:24.52	244.43	10.18	-43.1	-45.9	21.4	0.00e+00	0	39	0	0	58	4761
2026-01-18 22:08:25.24	244.33	10.25	-42.9	-45.5	21.9	0.00e+00	0	39	0	0	57	4867
2026-01-18 22:08:26.52	244.15	10.38	-43.2	-45.9	21.5	0.00e+00	0	39	0	0	57	5097
2026-01-18 22:08:27.23	244.05	10.45	-42.9	-45.6	21.7	0.00e+00	0	39	0	0	57	4890
2026-01-18 22:08:28.52	243.87	10.58	-42.7	-45.3	22.0	0.00e+00	0	39	0	0	57	4741
2026-01-18 22:08:29.24	243.77	10.65	-42.6	-45.1	22.3	0.00e+00	0	39	0	0	56	4926
2026-01-18 22:08:30.53	243.59	10.78	-41.9	-44.4	22.7	0.00e+00	0	39	0	0	55	4766
2026-01-18 22:08:31.24	243.49	10.85	-42.1	-44.6	22.6	0.00e+00	0	39	0	0	55	4907
2026-01-18 22:08:32.61	243.29	10.99	-41.7	-44.1	23.2	0.00e+00	0	39	0	0	54	4891
2026-01-18 22:08:33.32	243.18	11.06	-41.8	-44.2	23.0	0.00e+00	0	39	0	0	54	4969
2026-01-18 22:08:34.63	242.99	11.20	-41.3	-43.6	23.5	0.00e+00	0	39	0	0	54	4625
2026-01-18 22:08:35.34	242.88	11.27	-41.1	-43.4	23.7	0.00e+00	0	39	0	0	54	4539
2026-01-18 22:08:36.62	242.69	11.40	-40.7	-42.9	24.2	0.00e+00	0	39	0	0	53	4526
2026-01-18 22:08:37.66	242.53	11.51	-40.6	-42.8	24.3	0.00e+00	0	39	0	0	52	4741
2026-01-18 22:08:38.97	242.33	11.65	-40.7	-42.9	24.2	0.00e+00	0	39	0	0	52	4814
2026-01-18 22:08:39.68	242.22	11.72	-40.4	-42.6	24.4	0.00e+00	0	39	0	0	52	4646
2026-01-18 22:08:40.96	242.01	11.86	-40.2	-42.4	24.6	0.00e+00	0	39	0	0	52	4541
2026-01-18 22:08:41.69	241.90	11.94	-40.4	-42.6	24.5	0.00e+00	0	39	0	0	52	4629
2026-01-18 22:08:42.97	241.69	12.07	-40.2	-42.3	24.7	0.00e+00	0	39	0	0	52	4486
2026-01-18 22:08:43.69	241.58	12.15	-40.0	-42.2	24.9	0.00e+00	0	39	0	0	51	4657
2026-01-18 22:08:44.97	241.37	12.29	-40.0	-42.1	25.0	0.00e+00	0	39	0	0	51	4629
2026-01-18 22:08:45.70	241.25	12.37	-40.1	-42.2	24.9	0.00e+00	0	39	0	0	51	4693
2026-01-18 22:08:46.97	241.03	12.51	-39.8	-41.9	25.2	0.00e+00	0	39	0	0	51	4537
2026-01-18 22:08:47.70	240.91	12.59	-39.7	-41.8	25.2	0.00e+00	0	39	0	0	51	4489
2026-01-18 22:08:48.98	240.69	12.73	-39.7	-41.8	25.3	0.00e+00	0	39	0	0	51	4485
2026-01-18 22:08:49.70	240.57	12.81	-39.9	-42.1	25.0	0.00e+00	0	39	0	0	51	4607
2026-01-18 22:08:51.12	240.32	12.96	-39.9	-42.1	25.0	0.00e+00	0	39	0	0	51	4610
2026-01-18 22:08:51.84	240.20	13.04	-39.8	-41.9	25.2	0.00e+00	0	39	0	0	51	4530
2026-01-18 22:08:53.12	239.97	13.19	-40.0	-42.1	25.0	0.00e+00	0	39	0	0	51	4638
2026-01-18 22:08:53.83	239.84	13.27	-39.9	-42.0	25.0	0.00e+00	0	39	0	0	51	4597
2026-01-18 22:08:55.11	239.61	13.41	-39.9	-42.0	25.1	0.00e+00	0	39	0	0	51	4564
2026-01-18 22:08:56.20	239.41	13.54	-39.7	-41.8	25.3	0.00e+00	0	39	0	0	51	4489
2026-01-18 22:08:57.05	239.25	13.63	-39.7	-41.8	25.2	0.00e+00	0	39	0	0	51	4468
2026-01-18 22:08:58.19	239.04	13.76	-39.5	-41.6	25.4	0.00e+00	0	39	0	0	50	4602
2026-01-18 22:08:59.04	238.88	13.86	-39.6	-41.7	25.4	0.00e+00	0	39	0	0	50	4657
2026-01-18 22:09:00.18	238.66	13.99	-39.6	-41.7	25.4	0.00e+00	0	39	0	0	50	4670
2026-01-18 22:09:01.03	238.50	14.09	-39.7	-41.8	25.3	0.00e+00	0	39	0	0	50	4706
2026-01-18 22:09:02.17	238.28	14.23	-39.4	-41.5	25.6	0.00e+00	0	39	0	0	50	4552
2026-01-18 22:09:03.02	238.11	14.33	-39.5	-41.5	25.5	0.00e+00	0	39	0	0	50	4585
2026-01-18 22:09:04.16	237.89	14.46	-39.6	-41.8	25.4	0.00e+00	0	39	0	0	50	4706
2026-01-18 22:09:05.01	237.71	14.56	-39.8	-41.9	25.3	0.00e+00	0	39	0	0	50	4780
2026-01-18 22:09:06.15	237.48	14.70	-39.4	-41.5	25.6	0.00e+00	0	39	0	0	50	4556
2026-01-18 22:09:07.13	237.28	14.82	-39.3	-41.4	25.7	0.00e+00	0	39	0	0	50	4511
2026-01-18 22:09:08.12	237.08	14.94	-39.3	-41.3	25.7	0.00e+00	0	39	0	0	50	4485
2026-01-18 22:09:09.32	236.83	15.08	-39.0	-41.0	26.0	0.00e+00	0	39	0	0	50	4339
2026-01-18 22:09:10.22	236.64	15.19	-38.9	-41.0	26.0	0.00e+00	0	39	0	0	49	4561
2026-01-18 22:09:11.31	236.40	15.32	-38.9	-41.0	26.0	0.00e+00	0	39	0	0	49	4574
2026-01-18 22:09:12.16	236.22	15.43	-38.8	-40.8	26.2	0.00e+00	0	39	0	0	49	4466
2026-01-18 22:09:13.30	235.97	15.57	-38.7	-40.7	26.2	0.00e+00	0	39	0	0	49	4433
2026-01-18 22:09:14.15	235.78	15.67	-38.4	-40.5	26.5	0.00e+00	0	39	0	0	48	4546
2026-01-18 22:09:15.29	235.53	15.82	-38.7	-40.7	26.2	0.00e+00	0	39	0	0	48	4700
2026-01-18 22:09:16.14	235.34	15.92	-38.8	-40.9	26.1	0.00e+00	0	39	0	0	48	4778
2026-01-18 22:09:17.28	235.08	16.06	-38.7	-40.7	26.2	0.00e+00	0	39	0	0	48	4695
2026-01-18 22:09:18.13	234.88	16.17	-38.6	-40.6	26.3	0.00e+00	0	39	0	0	48	4634
2026-01-18 22:09:19.27	234.62	16.32	-38.5	-40.6	26.4	0.00e+00	0	39	0	0	48	4603
2026-01-18 22:09:20.12	234.42	16.42	-38.5	-40.5	26.5	0.00e+00	0	39	0	0	48	4560
2026-01-18 22:09:21.29	234.14	16.57	-38.5	-40.5	26.4	0.00e+00	0	39	0	0	48	4557
2026-01-18 22:09:22.14	233.94	16.68	-38.1	-40.0	26.8	0.00e+00	0	39	0	0	48	4340
2026-01-18 22:09:23.27	233.66	16.83	-38.1	-40.1	26.7	0.00e+00	0	39	0	0	48	4366
2026-01-18 22:09:24.13	233.45	16.94	-38.1	-40.0	26.8	0.00e+00	0	39	0	0	47	4596
2026-01-18 22:09:25.39	233.14	17.10	-38.2	-40.2	26.6	0.00e+00	0	39	0	0	47	4687
2026-01-18 22:09:26.18	232.94	17.21	-38.3	-40.3	26.5	0.00e+00	0	39	0	0	47	4715
2026-01-18 22:09:27.38	232.64	17.36	-38.3	-40.3	26.6	0.00e+00	0	39	0	0	47	4716
2026-01-18 22:09:28.23	232.42	17.47	-38.4	-40.4	26.5	0.00e+00	0	39	0	0	47	4777
2026-01-18 22:09:29.37	232.12	17.62	-38.3	-40.3	26.6	0.00e+00	0	39	0	0	47	4713
2026-01-18 22:09:30.25	231.89	17.74	-38.3	-40.3	26.6	0.00e+00	0	39	0	0	47	4732
2026-01-18 22:09:31.39	231.59	17.89	-38.3	-40.3	26.5	0.00e+00	0	39	0	0	47	4756
2026-01-18 22:09:32.31	231.34	18.02	-38.4	-40.4	26.4	0.00e+00	0	39	0	0	47	4785
2026-01-18 22:09:33.31	231.07	18.15	-38.3	-40.4	26.5	0.00e+00	0	39	0	0	47	4760
2026-01-18 22:09:34.30	230.80	18.28	-38.4	-40.4	26.4	0.00e+00	0	39	0	0	47	4807
2026-01-18 22:09:35.29	230.53	18.42	-38.2	-40.1	26.7	0.00e+00	0	39	0	0	47	4651
2026-01-18 22:09:36.29	230.25	18.55	-38.0	-40.0	26.8	0.00e+00	0	39	0	0	47	4571
2026-01-18 22:09:37.29	229.96	18.69	-38.0	-40.0	26.8	0.00e+00	0	39	0	0	47	4570
2026-01-18 22:09:38.28	229.68	18.82	-38.0	-40.0	26.8	0.00e+00	0	39	0	0	47	4547
2026-01-18 22:09:39.28	229.39	18.96	-37.6	-39.6	27.1	0.00e+00	0	39	0	0	47	4370
2026-01-18 22:09:40.27	229.10	19.09	-37.6	-39.6	27.1	0.00e+00	0	39	0	0	46	4629
2026-01-18 22:09:41.27	228.81	19.23	-37.8	-39.7	27.1	0.00e+00	0	39	0	0	46	4686
2026-01-18 22:09:42.27	228.51	19.37	-37.8	-39.8	27.0	0.00e+00	0	39	0	0	46	4738
2026-01-18 22:09:43.26	228.21	19.50	-37.9	-39.8	27.0	0.00e+00	0	39	0	0	46	4747
2026-01-18 22:09:44.26	227.90	19.64	-37.8	-39.7	27.0	0.00e+00	0	39	0	0	46	4703
2026-01-18 22:09:45.25	227.60	19.78	-37.8	-39.8	27.0	0.00e+00	0	39	0	0	46	4732
2026-01-18 22:09:46.24	227.29	19.92	-37.8	-39.7	27.0	0.00e+00	0	39	0	0	46	4688
2026-01-18 22:09:47.24	226.97	20.06	-37.6	-39.6	27.2	0.00e+00	0	39	0	0	46	4606
2026-01-18 22:09:48.24	226.65	20.20	-37.3	-39.3	27.4	0.00e+00	0	39	0	0	46	4458
2026-01-18 22:09:49.23	226.33	20.33	-37.0	-39.0	27.6	0.00e+00	0	39	0	0	46	4303
2026-01-18 22:09:50.43	225.94	20.50	-37.1	-39.0	27.6	0.00e+00	0	39	0	0	46	4335
2026-01-18 22:09:51.31	225.65	20.63	-37.2	-39.1	27.6	0.00e+00	0	39	0	0	46	4359
2026-01-18 22:09:52.62	225.21	20.81	-37.4	-39.3	27.4	0.00e+00	0	39	0	0	46	4466
2026-01-18 22:09:53.33	224.97	20.91	-37.7	-39.6	27.2	0.00e+00	0	39	0	0	46	4636
2026-01-18 22:09:54.61	224.54	21.09	-37.6	-39.5	27.3	0.00e+00	0	39	0	0	46	4584
2026-01-18 22:09:55.32	224.29	21.19	-37.7	-39.6	27.2	0.00e+00	0	39	0	0	46	4634
2026-01-18 22:09:56.60	223.84	21.37	-37.5	-39.5	27.2	0.00e+00	0	39	0	0	46	4552
2026-01-18 22:09:57.31	223.59	21.47	-37.2	-39.2	27.4	0.00e+00	0	39	0	0	46	4395
2026-01-18 22:09:58.59	223.14	21.65	-37.1	-39.0	27.6	0.00e+00	0	39	0	0	46	4338
2026-01-18 22:09:59.32	222.87	21.76	-36.9	-38.8	27.8	0.00e+00	0	39	0	0	45	4471
2026-01-18 22:10:00.60	222.41	21.94	-36.7	-38.6	27.9	0.00e+00	0	39	0	0	45	4341
2026-01-18 22:10:01.34	222.13	22.04	-36.7	-38.7	27.9	0.00e+00	0	39	0	0	45	4392
2026-01-18 22:10:02.62	221.66	22.22	-36.8	-38.7	27.9	0.00e+00	0	39	0	0	45	4417
2026-01-18 22:10:03.34	221.38	22.33	-36.8	-38.7	27.8	0.00e+00	0	39	0	0	45	4413
2026-01-18 22:10:04.65	220.88	22.51	-37.0	-39.0	27.7	0.00e+00	0	39	0	0	45	4550
2026-01-18 22:10:05.61	220.51	22.65	-37.2	-39.1	27.6	0.00e+00	0	39	0	0	45	4640
2026-01-18 22:10:06.93	220.00	22.83	-37.2	-39.1	27.5	0.00e+00	0	39	0	0	45	4618
2026-01-18 22:10:07.67	219.71	22.94	-37.1	-39.0	27.6	0.00e+00	0	39	0	0	45	4562
2026-01-18 22:10:08.95	219.20	23.12	-37.0	-38.9	27.7	0.00e+00	0	39	0	0	45	4509
2026-01-18 22:10:09.66	218.91	23.21	-36.9	-38.8	27.7	0.00e+00	0	39	0	0	45	4486
2026-01-18 22:10:10.94	218.39	23.39	-36.7	-38.6	28.0	0.00e+00	0	39	0	0	45	4361
2026-01-18 22:10:11.65	218.09	23.49	-36.6	-38.4	28.0	0.00e+00	0	39	0	0	45	4288
2026-01-18 22:10:12.93	217.56	23.67	-36.7	-38.6	28.0	0.00e+00	0	39	0	0	45	4344
2026-01-18 22:10:13.66	217.25	23.77	-36.9	-38.8	27.8	0.00e+00	0	39	0	0	45	4450
2026-01-18 22:10:14.94	216.71	23.95	-37.0	-38.9	27.7	0.00e+00	0	39	0	0	45	4524
2026-01-18 22:10:15.66	216.40	24.05	-36.7	-38.6	27.9	0.00e+00	0	39	0	0	45	4378
2026-01-18 22:10:17.03	215.81	24.23	-37.0	-38.9	27.7	0.00e+00	0	39	0	0	45	4498
2026-01-18 22:10:17.75	215.49	24.33	-37.0	-39.0	27.6	0.00e+00	0	39	0	0	45	4551
2026-01-18 22:10:19.02	214.93	24.51	-36.7	-38.6	28.0	0.00e+00	0	39	0	0	45	4367
2026-01-18 22:10:19.76	214.60	24.60	-36.9	-38.9	27.8	0.00e+00	0	39	0	0	45	4497
2026-01-18 22:10:21.04	214.02	24.78	-36.9	-38.8	27.8	0.00e+00	0	39	0	0	45	4491
2026-01-18 22:10:21.77	213.69	24.87	-37.0	-38.9	27.7	0.00e+00	0	39	0	0	45	4510
2026-01-18 22:10:23.05	213.10	25.04	-36.6	-38.5	28.0	0.00e+00	0	39	0	0	45	4321
2026-01-18 22:10:23.76	212.76	25.14	-36.4	-38.3	28.3	0.00e+00	0	39	0	0	44	4453
2026-01-18 22:10:25.03	212.17	25.30	-36.3	-38.2	28.3	0.00e+00	0	39	0	0	44	4417
2026-01-18 22:10:25.75	211.83	25.40	-36.5	-38.4	28.1	0.00e+00	0	39	0	0	44	4529
2026-01-18 22:10:27.02	211.22	25.56	-36.8	-38.7	27.9	0.00e+00	0	39	0	0	44	4663
2026-01-18 22:10:27.73	210.88	25.65	-36.5	-38.4	28.1	0.00e+00	0	39	0	0	44	4502
2026-01-18 22:10:29.01	210.25	25.81	-36.6	-38.5	27.9	0.00e+00	0	39	0	0	44	4549
2026-01-18 22:10:29.72	209.90	25.90	-36.5	-38.4	28.0	0.00e+00	0	39	0	0	44	4544
2026-01-18 22:10:31.05	209.24	26.06	-36.4	-38.3	28.2	0.00e+00	0	39	0	0	44	4448
2026-01-18 22:10:31.76	208.89	26.15	-36.3	-38.1	28.3	0.00e+00	0	39	0	0	44	4389
2026-01-18 22:10:33.04	208.24	26.30	-36.1	-38.0	28.5	0.00e+00	0	39	0	0	44	4303
2026-01-18 22:10:33.75	207.88	26.39	-36.2	-38.1	28.3	0.00e+00	0	39	0	0	44	4357
2026-01-18 22:10:35.03	207.22	26.54	-36.3	-38.2	28.3	0.00e+00	0	39	0	0	44	4424
2026-01-18 22:10:35.74	206.85	26.62	-36.5	-38.4	28.2	0.00e+00	0	39	0	0	44	4494
2026-01-18 22:10:37.27	206.05	26.80	-36.3	-38.2	28.3	0.00e+00	0	39	0	0	44	4411
2026-01-18 22:10:37.98	205.67	26.88	-36.1	-37.9	28.5	0.00e+00	0	39	0	0	44	4291
2026-01-18 22:10:39.28	204.98	27.02	-36.1	-38.0	28.4	0.00e+00	0	39	0	0	44	4324
2026-01-18 22:10:39.99	204.60	27.10	-35.8	-37.6	28.5	0.00e+00	0	39	0	0	43	4381
2026-01-18 22:10:41.26	203.91	27.23	-35.9	-37.8	28.4	0.00e+00	0	39	0	0	43	4445
2026-01-18 22:10:41.97	203.53	27.31	-36.1	-38.0	28.2	0.00e+00	0	39	0	0	43	4584
2026-01-18 22:10:43.25	202.82	27.44	-36.0	-37.9	28.4	0.00e+00	0	39	0	0	43	4520
2026-01-18 22:10:43.98	202.42	27.51	-35.9	-37.7	28.5	0.00e+00	0	39	0	0	43	4428
2026-01-18 22:10:45.26	201.71	27.64	-35.7	-37.5	28.7	0.00e+00	0	39	0	0	43	4333
2026-01-18 22:10:45.98	201.30	27.70	-35.8	-37.7	28.5	0.00e+00	0	39	0	0	43	4412
2026-01-18 22:10:47.26	200.58	27.82	-36.2	-38.1	28.2	0.00e+00	0	39	0	0	43	4605
2026-01-18 22:10:48.10	200.10	27.90	-36.1	-38.0	28.3	0.00e+00	0	39	0	0	43	4574
2026-01-18 22:10:49.24	199.45	28.00	-36.0	-37.9	28.4	0.00e+00	0	39	0	0	43	4514
2026-01-18 22:10:50.09	198.96	28.08	-35.8	-37.7	28.5	0.00e+00	0	39	0	0	43	4409
2026-01-18 22:10:51.23	198.30	28.17	-35.6	-37.5	28.7	0.00e+00	0	39	0	0	43	4311
2026-01-18 22:10:52.08	197.81	28.24	-35.6	-37.4	28.7	0.00e+00	0	39	0	0	43	4285
2026-01-18 22:10:53.22	197.14	28.33	-35.8	-37.6	28.1	0.00e+00	0	39	0	0	43	4385
2026-01-18 22:10:54.07	196.64	28.39	-35.9	-37.8	28.5	0.00e+00	0	39	0	0	43	4446
2026-01-18 22:10:55.21	195.96	28.48	-36.0	-37.8	28.4	0.00e+00	0	39	0	0	43	4484
2026-01-18 22:10:56.06	195.46	28.54	-35.8	-37.6	28.5	0.00e+00	0	39	0	0	43	4380
2026-01-18 22:10:57.27	194.73	28.62	-35.9	-37.8	28.5	0.00e+00	0	39	0	0	43	4448
2026-01-18 22:10:58.13	194.22	28.67	-35.8	-37.7	28.5	0.00e+00	0	39	0	0	43	4405
2026-01-18 22:10:59.27	193.53	28.74	-36.1	-37.9	28.3	0.00e+00	0	39	0	0	43	4530
2026-01-18 22:11:00.12	193.02	28.79	-36.2	-38.1	28.2	0.00e+00	0	39	0	0	43	4632
2026-01-18 22:11:01.26	192.32	28.85	-36.5	-38.4	28.0	0.00e+00	0	39	0	0	43	4773
2026-01-18 22:11:02.11	191.80	28.90	-36.6	-38.5	28.0	0.00e+00	0	39	0	0	43	4825
2026-01-18 22:11:03.25	191.10	28.95	-36.8	-38.7	28.0	0.00e+00	0	39	0	0	44	4655
2026-01-18 22:11:04.21	190.51	29.00	-36.6	-38.5	28.1	0.00e+00	0	39	0	0	44	4556
2026-01-18 22:11:05.36	189.81	29.05	-36.7	-38.6	28.1	0.00e+00	0	39	0	0	44	4640
2026-01-18 22:11:06.25	189.25	29.08	-36.8	-38.7	27.9	0.00e+00	0	39	0	0	44	4690
2026-01-18 22:11:07.38	188.55	29.12	-36.7	-38.6	28.0	0.00e+00	0	39	0	0	44	4614
2026-01-18 22:11:08.30	187.98	29.15	-36.3	-38.2	28.3	0.00e+00	0	39	0	0	44	4397
2026-01-18 22:11:09.47	187.25	29.18	-36.2	-38.1	28.4	0.00e+00	0	39	0	0	44	4358
2026-01-18 22:11:10.33	186.72	29.20	-36.1	-38.0	28.4	0.00e+00	0	39	0	0	44	4318
2026-01-18 22:11:11.46	186.01	29.23	-36.2	-38.0	28.4	0.00e+00	0	39	0	0	44	4338
2026-01-18 22:11:12.32	185.47	29.24	-36.5	-38.4	28.2	0.00e+00	0	39	0	0	44	4498
2026-01-18 22:11:13.45	184.76	29.26	-36.4	-38.3	28.2	0.00e+00	0	39	0	0	44	4471
2026-01-18 22:11:14.31	184.22	29.27	-36.6	-38.4	28.0	0.00e+00	0	39	0	0	44	4537
2026-01-18 22:11:15.44	183.51	29.28	-36.5	-38.4	28.1	0.00e+00	0	39	0	0	44	4534
2026-01-18 22:11:16.30	182.97	29.28	-36.4	-38.3	28.2	0.00e+00	0	39	0	0	44	4446
2026-01-18 22:11:17.44	182.26	29.29	-36.1	-38.0	28.4	0.00e+00	0	39	0	0	44	4314
2026-01-18 22:11:18.29	181.72	29.28	-36.2	-38.1	28.4	0.00e+00	0	39	0	0	44	4369
2026-01-18 22:11:19.43	181.01	29.28	-36.4	-38.3	28.2	0.00e+00	0	39	0	0	44	4461
2026-01-18 22:11:20.28	180.47	29.27	-36.5	-38.4	28.2	0.00e+00	0	39	0	0	44	4500
2026-01-18 22:11:21.47	179.73	29.25	-36.3	-38.2	28.3	0.00e+00	0	39	0	0	44	4424
2026-01-18 22:11:22.32	179.20	29.24	-36.4	-38.3	28.2	0.00e+00	0	39	0	0	44	4451
2026-01-18 22:11:23.46	178.48	29.22	-36.4	-38.3	28.3	0.00e+00	0	39	0	0	44	4450
2026-01-18 22:11:24.31	177.95	29.20	-36.5	-38.4	28.1	0.00e+00	0	39	0	0	44	4527
2026-01-18 22:11:25.45	177.24	29.17	-36.4	-38.3	28.2	0.00e+00	0	39	0	0	44	4449
2026-01-18 22:11:26.30	176.71	29.14	-36.3	-38.2	28.3	0.00e+00	0	39	0	0	44	4404
2026-01-18 22:11:27.44	176.00	29.11	-36.5	-38.4	28.2	0.00e+00	0	39	0	0	44	4522
2026-01-18 22:11:28.29	175.48	29.07	-36.5	-38.4	28.1	0.00e+00	0	39	0	0	44	4532
2026-01-18 22:11:29.43	174.77	29.03	-36.6	-38.5	28.0	0.00e+00	0	39	0	0	44	4590
2026-01-18 22:11:30.28	174.25	28.99	-36.4	-38.3	28.2	0.00e+00	0	39	0	0	44	4446
2026-01-18 22:11:31.41	173.55	28.94	-35.9	-37.8	28.5	0.00e+00	0	39	0	0	43	4443
2026-01-18 22:11:32.27	173.03	28.90	-35.6	-37.4	28.7	0.00e+00	0	39	0	0	43	4288
2026-01-18 22:11:33.41	172.33	28.84	-35.9	-37.8	28.4	0.00e+00	0	39	0	0	43	4482
2026-01-18 22:11:34.26	171.82	28.79	-35.9	-37.8	28.4	0.00e+00	0	39	0	0	43	4471
2026-01-18 22:11:35.40	171.13	28.72	-36.1	-38.0	28.2	0.00e+00	0	39	0	0	42	4861
2026-01-18 22:11:36.25	170.61	28.67	-36.4	-38.3	28.1	0.00e+00	0	39	0	0	43	4721
2026-01-18 22:11:37.39	169.93	28.60	-36.2	-38.0	28.2	0.00e+00	0	39	0	0	43	4594
2026-01-18 22:11:38.24	169.42	28.54	-36.1	-38.0	28.4	0.00e+00	0	39	0	0	43	4564
2026-01-18 22:11:39.38	168.74	28.46	-36.0	-37.9	28.4	0.00e+00	0	39	0	0	43	4495
2026-01-18 22:11:40.23	168.24	28.40	-36.0	-37.9	28.3	0.00e+00	0	39	0	0	43	4519
2026-01-18 22:11:41.51	167.49	28.30	-35.9	-37.8	28.5	0.00e+00	0	39	0	0	43	4448
2026-01-18 22:11:42.22	167.07	28.25	-35.9	-37.7	28.5	0.00e+00	0	39	0	0	43	4432
2026-01-18 22:11:43.50	166.33	28.14	-35.9	-37.8	28.4	0.00e+00	0	39	0	0	43	4466
2026-01-18 22:11:44.24	165.90	28.08	-35.8	-37.7	28.5	0.00e+00	0	39	0	0	43	4429
2026-01-18 22:11:45.75	165.03	27.95	-35.7	-37.6	28.5	0.00e+00	0	39	0	0	43	4367
2026-01-18 22:11:46.72	164.48	27.86	-35.6	-37.5	28.6	0.00e+00	0	39	0	0	43	4310
2026-01-18 22:11:48.03	163.74	27.74	-35.5	-37.4	28.7	0.00e+00	0	39	0	0	43	4254
2026-01-18 22:11:48.74	163.34	27.67	-35.5	-37.4	28.7	0.00e+00	0	39	0	0	43	4247
2026-01-18 22:11:50.02	162.62	27.55	-35.5	-37.4	28.7	0.00e+00	0	39	0	0	42	4512
2026-01-18 22:11:50.74	162.23	27.48	-35.4	-37.2	28.8	0.00e+00	0	39	0	0	42	4432
2026-01-18 22:11:52.03	161.52	27.35	-35.8	-37.6	28.5	0.00e+00	0	39	0	0	42	4647
2026-01-18 22:11:52.75	161.12	27.27	-36.0	-37.9	28.3	0.00e+00	0	39	0	0	42	4805
2026-01-18 22:11:54.03	160.43	27.14	-36.4	-38.3	28.0	0.00e+00	0	39	0	0	43	4752
2026-01-18 22:11:54.74	160.05	27.06	-36.5	-38.4	27.9	0.00e+00	0	39	0	0	43	4807
2026-01-18 22:11:56.02	159.36	26.92	-36.1	-38.0	28.2	0.00e+00	0	39	0	0	43	4592
2026-01-18 22:11:56.73	158.99	26.84	-35.7	-37.6	28.5	0.00e+00	0	39	0	0	43	4356
2026-01-18 22:11:58.13	158.25	26.68	-35.5	-37.4	28.7	0.00e+00	0	39	0	0	43	4250
2026-01-18 22:11:58.84	157.88	26.60	-35.5	-37.4	28.7	0.00e+00	0	39	0	0	42	4497
2026-01-18 22:12:00.12	157.22	26.45	-35.8	-37.7	28.5	0.00e+00	0	39	0	0	42	4690
2026-01-18 22:12:00.85	156.85	26.37	-36.0	-37.9	28.3	0.00e+00	0	39	0	0	42	4772
2026-01-18 22:12:02.24	156.14	26.20	-36.2	-38.1	27.9	0.00e+00	0	39	0	0	43	4627
2026-01-18 22:12:02.95	155.79	26.11	-36.5	-38.4	28.0	0.00e+00	0	39	0	0	43	4779
2026-01-18 22:12:04.23	155.15	25.96	-36.6	-38.5	27.9	0.00e+00	0	39	0	0	43	4839
2026-01-18 22:12:04.94	154.80	25.87	-36.7	-38.6	27.8	0.00e+00	0	39	0	0	43	4894
2026-01-18 22:12:06.22	154.17	25.71	-36.4	-38.3	28.0	0.00e+00	0	39	0	0	43	4746
2026-01-18 22:12:06.93	153.83	25.62	-36.3	-38.2	28.1	0.00e+00	0	39	0	0	43	4684
2026-01-18 22:12:08.21	153.21	25.45	-36.1	-38.0	28.3	0.00e+00	0	39	0	0	43	4562
2026-01-18 22:12:08.93	152.87	25.36	-36.2	-38.1	28.2	0.00e+00	0	39	0	0	43	4603
2026-01-18 22:12:10.21	152.26	25.19	-36.3	-38.3	28.0	0.00e+00	0	39	0	0	43	4706
2026-01-18 22:12:10.94	151.92	25.10	-36.4	-38.3	27.9	0.00e+00	0	39	0	0	43	4750
2026-01-18 22:12:12.21	151.34	24.93	-36.4	-38.3	28.0	0.00e+00	0	39	0	0	43	4757
2026-01-18 22:12:13.02	150.97	24.82	-36.3	-38.2	28.1	0.00e+00	0	39	0	0	43	4668
2026-01-18 22:12:14.16	150.45	24.67	-36.2	-38.1	28.2	0.00e+00	0	39	0	0	43	4647
2026-01-18 22:12:15.01	150.07	24.56	-36.1	-38.0	28.3	0.00e+00	0	39	0	0	43	4547
2026-01-18 22:12:16.15	149.56	24.40	-36.1	-38.0	28.3	0.00e+00	0	39	0	0	43	4557
2026-01-18 22:12:17.00	149.19	24.29	-36.1	-38.0	28.2	0.00e+00	0	39	0	0	43	4565
2026-01-18 22:12:18.14	148.69	24.13	-36.3	-38.2	27.8	0.00e+00	0	39	0	0	43	4703
2026-01-18 22:12:19.30	148.19	23.97	-36.9	-38.8	27.7	0.00e+00	0	39	0	0	44	4738
2026-01-18 22:12:20.33	147.75	23.83	-37.0	-39.0	27.6	0.00e+00	0	39	0	0	44	4821
2026-01-18 22:12:21.33	147.33	23.69	-37.0	-39.0	27.6	0.00e+00	0	39	0	0	44	4840
2026-01-18 22:12:22.32	146.92	23.56	-37.0	-39.0	27.6	0.00e+00	0	39	0	0	45	4547
2026-01-18 22:12:23.32	146.50	23.42	-36.6	-38.5	27.9	0.00e+00	0	39	0	0	45	4302
2026-01-18 22:12:24.31	146.10	23.28	-36.4	-38.3	28.1	0.00e+00	0	39	0	0	44	4470
2026-01-18 22:12:25.31	145.69	23.14	-36.6	-38.4	28.0	0.00e+00	0	39	0	0	44	4545
2026-01-18 22:12:26.31	145.29	23.00	-36.8	-38.7	27.8	0.00e+00	0	39	0	0	44	4690
2026-01-18 22:12:27.30	144.90	22.86	-37.0	-38.9	27.6	0.00e+00	0	39	0	0	44	4785
2026-01-18 22:12:28.30	144.51	22.72	-36.9	-38.8	27.6	0.00e+00	0	39	0	0	44	4748
2026-01-18 22:12:29.29	144.13	22.58	-36.9	-38.8	27.7	0.00e+00	0	39	0	0	44	4756
2026-01-18 22:12:30.29	143.74	22.44	-37.0	-39.0	27.6	0.00e+00	0	39	0	0	44	4817
2026-01-18 22:12:31.28	143.37	22.30	-36.9	-38.9	27.7	0.00e+00	0	39	0	0	44	4767
2026-01-18 22:12:32.33	142.97	22.15	-36.9	-38.8	27.7	0.00e+00	0	39	0	0	44	4741
2026-01-18 22:12:33.32	142.61	22.01	-36.9	-38.9	27.6	0.00e+00	0	39	0	0	44	4774
2026-01-18 22:12:34.32	142.24	21.87	-36.9	-38.9	27.7	0.00e+00	0	39	0	0	44	4766
2026-01-18 22:12:35.31	141.88	21.73	-37.0	-39.0	27.6	0.00e+00	0	39	0	0	44	4834
2026-01-18 22:12:36.43	141.48	21.57	-37.2	-39.2	27.4	0.00e+00	0	39	0	0	45	4672
2026-01-18 22:12:37.31	141.17	21.45	-37.4	-39.3	27.3	0.00e+00	0	39	0	0	45	4755
2026-01-18 22:12:38.62	140.71	21.26	-37.5	-39.4	27.2	0.00e+00	0	39	0	0	45	4807
2026-01-18 22:12:39.34	140.46	21.16	-37.5	-39.5	27.1	0.00e+00	0	39	0	0	45	4849
2026-01-18 22:12:40.82	139.95	20.95	-37.4	-39.4	27.3	0.00e+00	0	39	0	0	45	4760
2026-01-18 22:12:41.53	139.71	20.85	-37.3	-39.2	27.4	0.00e+00	0	39	0	0	45	4699
2026-01-18 22:12:42.81	139.28	20.67	-37.1	-39.1	27.5	0.00e+00	0	39	0	0	45	4606
2026-01-18 22:12:43.52	139.04	20.57	-37.3	-39.2	27.3	0.00e+00	0	39	0	0	45	4682
2026-01-18 22:12:44.79	138.63	20.39	-37.5	-39.4	27.2	0.00e+00	0	39	0	0	45	4809
2026-01-18 22:12:45.51	138.39	20.29	-37.3	-39.3	27.3	0.00e+00	0	39	0	0	45	4735
2026-01-18 22:12:46.79	137.98	20.11	-37.3	-39.3	27.1	0.00e+00	0	39	0	0	45	4735
2026-01-18 22:12:47.51	137.76	20.01	-37.4	-39.4	27.2	0.00e+00	0	39	0	0	45	4781
2026-01-18 22:12:48.79	137.35	19.84	-37.6	-39.6	27.1	0.00e+00	0	39	0	0	45	4873
2026-01-18 22:12:49.52	137.13	19.74	-37.7	-39.6	27.0	0.00e+00	0	39	0	0	46	4643
2026-01-18 22:12:50.79	136.74	19.56	-37.8	-39.8	26.9	0.00e+00	0	39	0	0	46	4743
2026-01-18 22:12:51.52	136.52	19.46	-37.9	-39.9	26.8	0.00e+00	0	39	0	0	46	4796
2026-01-18 22:12:52.80	136.13	19.28	-37.8	-39.8	26.9	0.00e+00	0	39	0	0	46	4731
2026-01-18 22:12:53.51	135.92	19.19	-37.9	-39.9	26.8	0.00e+00	0	39	0	0	46	4789
2026-01-18 22:12:54.79	135.55	19.01	-37.6	-39.6	27.1	0.00e+00	0	39	0	0	46	4628
2026-01-18 22:12:55.50	135.34	18.91	-37.6	-39.6	27.0	0.00e+00	0	39	0	0	46	4637
2026-01-18 22:12:56.78	134.97	18.74	-37.8	-39.8	26.9	0.00e+00	0	39	0	0	46	4753
2026-01-18 22:12:57.50	134.77	18.64	-37.9	-39.9	26.8	0.00e+00	0	39	0	0	46	4762
2026-01-18 22:12:58.78	134.41	18.47	-38.2	-40.2	26.5	0.00e+00	0	39	0	0	46	4955
2026-01-18 22:12:59.51	134.20	18.37	-38.0	-40.0	26.8	0.00e+00	0	39	0	0	46	4823
2026-01-18 22:13:00.80	133.85	18.20	-37.7	-39.7	26.9	0.00e+00	0	39	0	0	46	4685
2026-01-18 22:13:01.51	133.66	18.10	-38.0	-40.0	26.7	0.00e+00	0	39	0	0	46	4837
2026-01-18 22:13:02.79	133.31	17.93	-38.0	-40.0	26.7	0.00e+00	0	39	0	0	46	4845
2026-01-18 22:13:03.50	133.12	17.84	-38.3	-40.3	26.5	0.00e+00	0	39	0	0	47	4743
2026-01-18 22:13:04.78	132.79	17.67	-38.2	-40.2	26.6	0.00e+00	0	39	0	0	47	4673
2026-01-18 22:13:05.49	132.60	17.57	-38.1	-40.1	26.7	0.00e+00	0	39	0	0	47	4613
2026-01-18 22:13:06.77	132.27	17.40	-38.3	-40.4	26.5	0.00e+00	0	39	0	0	47	4786
2026-01-18 22:13:07.56	132.07	17.30	-38.2	-40.3	26.5	0.00e+00	0	39	0	0	47	4720
2026-01-18 22:13:08.76	131.77	17.14	-38.4	-40.5	26.3	0.00e+00	0	39	0	0	47	4817
2026-01-18 22:13:09.74	131.52	17.02	-38.5	-40.6	26.2	0.00e+00	0	39	0	0	47	4873
2026-01-18 22:13:10.73	131.28	16.89	-38.7	-40.7	26.2	0.00e+00	0	39	0	0	48	4681
2026-01-18 22:13:11.93	130.99	16.73	-38.8	-40.9	26.0	0.00e+00	0	39	0	0	48	4768
2026-01-18 22:13:12.81	130.78	16.62	-38.7	-40.8	26.1	0.00e+00	0	39	0	0	48	4720
2026-01-18 22:13:14.12	130.46	16.45	-38.4	-40.4	26.4	0.00e+00	0	39	0	0	48	4503
2026-01-18 22:13:14.83	130.30	16.36	-38.4	-40.4	26.4	0.00e+00	0	39	0	0	48	4522
2026-01-18 22:13:16.11	130.00	16.20	-38.4	-40.4	26.4	0.00e+00	0	39	0	0	48	4530
2026-01-18 22:13:16.83	129.83	16.11	-38.4	-40.5	26.4	0.00e+00	0	39	0	0	48	4556
2026-01-18 22:13:18.10	129.54	15.95	-38.6	-40.6	26.2	0.00e+00	0	39	0	0	48	4645
2026-01-18 22:13:18.81	129.38	15.86	-38.6	-40.6	26.3	0.00e+00	0	39	0	0	48	4644
2026-01-18 22:13:20.09	129.10	15.70	-38.7	-40.7	26.1	0.00e+00	0	39	0	0	48	4705
2026-01-18 22:13:20.87	128.93	15.61	-38.9	-41.0	25.9	0.00e+00	0	39	0	0	48	4828
2026-01-18 22:13:22.14	128.65	15.45	-39.2	-41.3	25.5	0.00e+00	0	39	0	0	49	4709
2026-01-18 22:13:22.85	128.49	15.36	-39.2	-41.3	25.7	0.00e+00	0	39	0	0	49	4743
2026-01-18 22:13:24.13	128.22	15.21	-39.5	-41.6	25.4	0.00e+00	0	39	0	0	49	4916
2026-01-18 22:13:24.84	128.07	15.12	-39.5	-41.7	25.3	0.00e+00	0	39	0	0	49	4934
2026-01-18 22:13:26.12	127.80	14.97	-39.3	-41.4	25.6	0.00e+00	0	39	0	0	49	4764
2026-01-18 22:13:26.83	127.65	14.88	-39.2	-41.3	25.6	0.00e+00	0	39	0	0	49	4731
2026-01-18 22:13:28.11	127.39	14.73	-39.1	-41.2	25.8	0.00e+00	0	39	0	0	49	4663
2026-01-18 22:13:28.84	127.24	14.64	-39.2	-41.3	25.6	0.00e+00	0	39	0	0	49	4731
2026-01-18 22:13:30.11	126.99	14.49	-39.4	-41.5	25.4	0.00e+00	0	39	0	0	49	4843
2026-01-18 22:13:30.83	126.84	14.40	-39.3	-41.3	25.6	0.00e+00	0	39	0	0	49	4758
2026-01-18 22:13:32.26	126.56	14.24	-39.6	-41.7	25.2	0.00e+00	0	39	0	0	49	4974
2026-01-18 22:13:32.97	126.42	14.15	-39.8	-41.9	25.1	0.00e+00	0	39	0	0	50	4798
2026-01-18 22:13:34.32	126.16	14.00	-39.8	-42.0	25.1	0.00e+00	0	39	0	0	50	4824
2026-01-18 22:13:35.03	126.03	13.91	-39.9	-42.1	24.9	0.00e+00	0	39	0	0	50	4910
2026-01-18 22:13:36.31	125.79	13.77	-39.6	-41.7	25.3	0.00e+00	0	39	0	0	50	4691
2026-01-18 22:13:37.03	125.65	13.68	-39.7	-41.9	25.1	0.00e+00	0	39	0	0	50	4778
2026-01-18 22:13:38.31	125.42	13.54	-39.6	-41.7	25.3	0.00e+00	0	39	0	0	50	4668
2026-01-18 22:13:39.02	125.29	13.46	-39.8	-41.9	25.1	0.00e+00	0	39	0	0	50	4786
2026-01-18 22:13:40.30	125.05	13.31	-39.8	-41.9	25.1	0.00e+00	0	39	0	0	50	4810
2026-01-18 22:13:41.01	124.93	13.23	-39.9	-42.1	24.9	0.00e+00	0	39	0	0	50	4897
2026-01-18 22:13:42.29	124.70	13.09	-40.1	-42.2	24.8	0.00e+00	0	39	0	0	50	4980
2026-01-18 22:13:43.02	124.57	13.01	-40.0	-42.2	24.8	0.00e+00	0	39	0	0	50	4967
2026-01-18 22:13:44.29	124.35	12.86	-40.0	-42.2	24.8	0.00e+00	0	39	0	0	50	4932
2026-01-18 22:13:45.00	124.23	12.79	-40.2	-42.4	24.6	0.00e+00	0	39	0	0	51	4783
2026-01-18 22:13:46.28	124.01	12.65	-40.2	-42.4	24.6	0.00e+00	0	39	0	0	51	4800
2026-01-18 22:13:47.00	123.89	12.57	-40.1	-42.3	24.7	0.00e+00	0	39	0	0	51	4716
2026-01-18 22:13:48.27	123.67	12.43	-40.3	-42.5	24.5	0.00e+00	0	39	0	0	51	4828
2026-01-18 22:13:48.98	123.56	12.35	-40.1	-42.3	24.7	0.00e+00	0	39	0	0	51	4741
2026-01-18 22:13:50.26	123.35	12.21	-40.3	-42.5	24.5	0.00e+00	0	39	0	0	51	4821
2026-01-18 22:13:50.99	123.23	12.14	-40.3	-42.6	24.4	0.00e+00	0	39	0	0	51	4878
2026-01-18 22:13:52.27	123.02	12.00	-40.6	-42.8	24.2	0.00e+00	0	39	0	0	51	5026
2026-01-18 22:13:52.98	122.91	11.92	-40.5	-42.8	24.2	0.00e+00	0	39	0	0	51	4991
2026-01-18 22:13:54.26	122.71	11.79	-40.7	-43.0	24.1	0.00e+00	0	39	0	0	51	5103
2026-01-18 22:13:54.97	122.59	11.71	-40.5	-42.7	24.2	0.00e+00	0	39	0	0	52	4700
2026-01-18 22:13:56.25	122.40	11.58	-40.5	-42.8	24.1	0.00e+00	0	39	0	0	52	4727
2026-01-18 22:13:56.99	122.28	11.50	-40.4	-42.7	24.2	0.00e+00	0	39	0	0	52	4669
2026-01-18 22:13:58.27	122.09	11.37	-40.7	-43.0	23.9	0.00e+00	0	39	0	0	52	4870
2026-01-18 22:13:58.98	121.98	11.30	-40.9	-43.2	23.7	0.00e+00	0	39	0	0	52	4957
2026-01-18 22:14:00.26	121.79	11.16	-40.9	-43.2	23.7	0.00e+00	0	39	0	0	52	4970
2026-01-18 22:14:00.97	121.68	11.09	-41.2	-43.6	23.4	0.00e+00	0	39	0	0	52	5161
2026-01-18 22:14:02.24	121.50	10.96	-41.3	-43.8	23.3	0.00e+00	0	39	0	0	53	4989
2026-01-18 22:14:02.96	121.39	10.89	-41.0	-43.4	23.6	0.00e+00	0	39	0	0	53	4772
2026-01-18 22:14:04.24	121.21	10.76	-41.0	-43.3	23.6	0.00e+00	0	39	0	0	53	4738
2026-01-18 22:14:05.09	121.09	10.67	-40.8	-43.2	23.8	0.00e+00	0	39	0	0	53	4652
2026-01-18 22:14:06.23	120.93	10.56	-40.7	-43.0	23.9	0.00e+00	0	39	0	0	53	4581
2026-01-18 22:14:07.08	120.81	10.48	-40.9	-43.3	23.6	0.00e+00	0	39	0	0	53	4721
2026-01-18 22:14:08.22	120.65	10.36	-40.9	-43.3	23.6	0.00e+00	0	39	0	0	53	4717
2026-01-18 22:14:09.07	120.53	10.28	-40.8	-43.2	23.7	0.00e+00	0	39	0	0	53	4665
2026-01-18 22:14:10.21	120.38	10.17	-41.4	-43.8	23.1	0.00e+00	0	39	0	0	53	5022
2026-01-18 22:14:11.06	120.27	10.08	-41.5	-43.9	23.1	0.00e+00	0	39	0	0	53	5056
2026-01-18 22:14:12.20	120.11	9.97	-41.7	-44.1	22.8	0.00e+00	0	39	0	0	53	5203
2026-01-18 22:14:13.05	120.00	9.89	-41.6	-44.2	22.8	0.00e+00	0	39	0	0	53	5224
2026-01-18 22:14:14.18	119.85	9.78	-41.7	-44.2	22.8	0.00e+00	0	39	0	0	54	4950
2026-01-18 22:14:15.03	119.74	9.70	-42.1	-44.6	22.4	0.00e+00	0	39	0	0	54	5197
2026-01-18 22:14:16.17	119.59	9.59	-42.1	-44.7	22.3	0.00e+00	0	39	0	0	54	5256
2026-01-18 22:14:17.10	119.48	9.51	-42.0	-44.6	22.4	0.00e+00	0	39	0	0	54	5173
2026-01-18 22:14:18.27	119.33	9.39	-41.9	-44.4	22.5	0.00e+00	0	39	0	0	54	5079
2026-01-18 22:14:19.12	119.22	9.31	-41.8	-44.3	22.6	0.00e+00	0	39	0	0	54	5036
2026-01-18 22:14:20.49	119.05	9.19	-41.8	-44.3	22.7	0.00e+00	0	39	0	0	54	5001
2026-01-18 22:14:21.21	118.96	9.12	-41.9	-44.4	22.5	0.00e+00	0	39	0	0	54	5081
2026-01-18 22:14:22.48	118.81	9.00	-42.0	-44.5	22.5	0.00e+00	0	39	0	0	54	5143
2026-01-18 22:14:23.19	118.72	8.94	-49.3	-66.0	3.3	0.00e+00	0	39	104	0	69	25624
2026-01-18 22:14:24.47	118.57	8.82	-50.0	-68.8	3.8	7.27e-01	0	39	104	0	70	33327
2026-01-18 22:14:25.18	118.48	8.75	-49.9	-68.8	3.8	7.27e-01	0	39	104	0	70	33588
2026-01-18 22:14:26.46	118.33	8.64	-50.1	-68.9	3.8	8.47e-01	0	39	104	0	70	33896
2026-01-18 22:14:27.17	118.25	8.57	-50.1	-69.0	3.8	8.47e-01	0	39	104	0	70	34238
2026-01-18 22:14:28.44	118.10	8.46	-50.1	-69.0	3.8	8.47e-01	0	39	104	0	71	32409
2026-01-18 22:14:29.15	118.02	8.40	-50.3	-69.0	3.8	8.48e-01	0	39	104	0	71	32536
2026-01-18 22:14:30.51	117.87	8.27	-50.2	-69.1	3.8	8.46e-01	0	39	104	0	71	32738
2026-01-18 22:14:31.22	117.79	8.21	-50.2	-69.1	3.8	8.46e-01	0	39	104	0	71	32702
2026-01-18 22:14:32.56	117.64	8.09	-50.1	-69.1	3.8	8.47e-01	0	39	104	0	71	32808
2026-01-18 22:14:33.27	117.56	8.03	-50.0	-69.1	3.8	8.47e-01	0	39	104	0	71	32844
2026-01-18 22:14:34.63	117.41	7.91	-50.1	-69.2	3.8	8.48e-01	0	39	104	0	71	32996
2026-01-18 22:14:35.34	117.33	7.85	-50.1	-69.2	3.8	8.48e-01	0	39	104	0	71	32976
2026-01-18 22:14:36.68	117.19	7.73	-50.2	-69.2	3.8	8.47e-01	0	39	104	0	71	32946
2026-01-18 22:14:37.38	117.11	7.67	-50.1	-69.2	3.8	8.47e-01	0	39	104	0	71	33021
2026-01-18 22:14:38.72	116.97	7.56	-50.0	-69.2	3.8	8.47e-01	0	39	104	0	71	33099
2026-01-18 22:14:39.43	116.90	7.49	-50.0	-69.2	3.8	8.46e-01	0	39	104	0	71	33087
2026-01-18 22:14:40.78	116.76	7.38	-49.9	-69.2	
