passes_logs/2026/01/18/T1/T1__20260118_115210_SUOMI_NPP_rec.log

#Pass ID: 20260118_115210_SUOMI NPP
#Satellite: SUOMI NPP
#Configuration: NPP
#almurnet v.1.7.20251203
#Start time: 2026-01-18 11:52:10

#Version: 2.0.20230620
#Station: T1
#Location: 37.570604 lon 55.790049 lat
#TLE: 1 37849U 11061A   26017.57099531  .00000072  00000+0  54974-4 0  9996
#TLE: 2 37849  98.7814 319.5974 0002398  59.1749 300.9663 14.19525865737072

#Time	Az	El	Level	Level2	SNR	BER	BlckErr	Temp	State	Recorded	gain1	gain2
2026-01-18 11:52:10.11	223.09	5.00	-49.8	-65.1	3.8	1.49e+00	0	38	0	0	71	20604
2026-01-18 11:52:11.10	223.19	5.05	-49.7	-65.0	3.8	1.49e+00	0	38	104	0	71	20529
2026-01-18 11:52:12.10	223.30	5.10	-49.7	-65.1	3.8	1.49e+00	0	38	104	0	71	20589
2026-01-18 11:52:13.09	223.40	5.15	-49.7	-65.0	3.8	1.49e+00	0	38	104	0	71	20470
2026-01-18 11:52:14.08	223.50	5.21	-49.7	-65.0	3.8	1.49e+00	0	38	104	0	71	20522
2026-01-18 11:52:15.08	223.61	5.26	-49.7	-65.1	3.8	1.49e+00	0	38	104	0	71	20566
2026-01-18 11:52:16.07	223.71	5.31	-49.7	-65.1	3.8	1.49e+00	0	38	104	0	71	20566
2026-01-18 11:52:17.06	223.82	5.36	-49.7	-65.0	3.8	1.49e+00	0	38	104	0	71	20467
2026-01-18 11:52:18.06	223.92	5.42	-49.7	-65.0	3.8	1.49e+00	0	38	104	0	71	20521
2026-01-18 11:52:19.05	224.03	5.47	-49.7	-65.1	3.8	1.49e+00	0	38	104	0	71	20561
2026-01-18 11:52:20.04	224.13	5.52	-49.7	-65.1	3.8	1.49e+00	0	38	104	0	71	20590
2026-01-18 11:52:21.04	224.24	5.57	-49.7	-65.0	3.8	1.49e+00	0	38	104	0	71	20530
2026-01-18 11:52:22.03	224.35	5.63	-49.7	-65.1	3.8	1.49e+00	0	38	104	0	71	20559
2026-01-18 11:52:23.02	224.45	5.68	-49.7	-65.1	3.8	1.49e+00	0	39	104	0	71	20543
2026-01-18 11:52:24.01	224.56	5.73	-49.7	-65.0	3.8	1.49e+00	0	39	104	0	71	20499
2026-01-18 11:52:25.01	224.67	5.79	-49.7	-65.0	3.8	1.49e+00	0	39	104	0	71	20509
2026-01-18 11:52:26.00	224.78	5.84	-49.7	-65.0	3.8	1.49e+00	0	39	104	0	71	20441
2026-01-18 11:52:27.00	224.89	5.89	-49.7	-65.0	3.8	1.49e+00	0	39	104	0	71	20467
2026-01-18 11:52:27.99	225.00	5.94	-49.7	-65.0	3.8	1.49e+00	0	39	104	0	71	20436
2026-01-18 11:52:28.98	225.10	6.00	-49.7	-65.0	3.8	1.49e+00	0	38	104	0	71	20391
2026-01-18 11:52:29.98	225.21	6.05	-49.7	-65.0	3.8	1.49e+00	0	39	104	0	71	20429
2026-01-18 11:52:30.97	225.32	6.10	-49.7	-65.0	3.8	1.49e+00	0	39	104	0	71	20341
2026-01-18 11:52:31.96	225.43	6.16	-49.7	-64.9	3.8	1.49e+00	0	39	104	0	71	20296
2026-01-18 11:52:32.96	225.55	6.21	-49.7	-65.0	3.8	1.49e+00	0	39	104	0	71	20380
2026-01-18 11:52:33.95	225.66	6.26	-49.7	-65.0	3.8	1.49e+00	0	39	104	0	71	20315
2026-01-18 11:52:34.94	225.77	6.31	-49.7	-65.0	3.8	1.49e+00	0	39	104	0	71	20351
2026-01-18 11:52:35.94	225.88	6.37	-49.7	-65.0	3.8	1.49e+00	0	39	104	0	71	20366
2026-01-18 11:52:36.93	225.99	6.42	-49.7	-64.9	3.8	1.49e+00	0	39	104	0	71	20209
2026-01-18 11:52:37.93	226.11	6.47	-49.7	-64.9	3.8	1.49e+00	0	39	104	0	71	20175
2026-01-18 11:52:38.92	226.22	6.53	-49.7	-64.9	3.8	1.49e+00	0	39	104	0	71	20190
2026-01-18 11:52:39.91	226.33	6.58	-49.7	-64.9	3.8	1.49e+00	0	39	104	0	71	20149
2026-01-18 11:52:40.90	226.45	6.63	-49.7	-64.9	3.8	1.49e+00	0	39	104	0	71	20234
2026-01-18 11:52:41.90	226.56	6.69	-49.7	-64.9	3.8	1.49e+00	0	39	104	0	71	20212
2026-01-18 11:52:42.89	226.68	6.74	-49.7	-64.9	3.8	1.49e+00	0	39	104	0	71	20219
2026-01-18 11:52:43.88	226.79	6.79	-49.7	-64.9	3.8	1.49e+00	0	39	104	0	71	20270
2026-01-18 11:52:44.88	226.91	6.85	-49.7	-65.0	3.8	1.49e+00	0	39	104	0	71	20304
2026-01-18 11:52:45.87	227.02	6.90	-49.7	-64.9	3.8	1.49e+00	0	39	104	0	71	20233
2026-01-18 11:52:46.86	227.14	6.95	-49.7	-64.9	3.8	1.49e+00	0	39	104	0	71	20088
2026-01-18 11:52:47.86	227.26	7.01	-49.7	-64.8	3.8	1.49e+00	0	39	104	0	71	19968
2026-01-18 11:52:48.85	227.38	7.06	-49.7	-64.8	3.8	1.49e+00	0	39	104	0	71	19892
2026-01-18 11:52:49.84	227.49	7.11	-49.7	-64.7	3.8	1.49e+00	0	39	104	0	71	19753
2026-01-18 11:52:50.84	227.61	7.16	-49.7	-64.8	3.8	1.49e+00	0	39	104	0	71	20034
2026-01-18 11:52:51.83	227.73	7.22	-49.7	-64.9	3.8	1.49e+00	0	40	104	0	71	20197
2026-01-18 11:52:52.82	227.85	7.27	-49.7	-65.0	3.8	1.49e+00	0	39	104	0	71	20346
2026-01-18 11:52:53.82	227.97	7.32	-49.7	-65.0	3.8	1.49e+00	0	39	104	0	71	20354
2026-01-18 11:52:54.81	228.09	7.38	-49.7	-65.0	3.8	1.49e+00	0	40	104	0	71	20476
2026-01-18 11:52:55.80	228.21	7.43	-49.7	-65.0	3.8	1.49e+00	0	39	104	0	71	20370
2026-01-18 11:52:56.79	228.33	7.48	-49.7	-64.9	3.8	1.49e+00	0	40	104	0	71	20191
2026-01-18 11:52:57.79	228.45	7.54	-49.7	-64.9	3.8	1.49e+00	0	40	104	0	71	20129
2026-01-18 11:52:58.78	228.57	7.59	-49.7	-64.9	3.8	1.49e+00	0	40	104	0	71	20176
2026-01-18 11:52:59.77	228.69	7.64	-49.7	-64.9	3.8	1.49e+00	0	40	104	0	71	20254
2026-01-18 11:53:00.77	228.82	7.70	-49.7	-65.0	3.8	1.49e+00	0	39	104	0	71	20357
2026-01-18 11:53:01.76	228.94	7.75	-49.7	-65.0	3.8	1.49e+00	0	40	104	0	71	20338
2026-01-18 11:53:02.75	229.06	7.80	-49.7	-65.0	3.8	1.49e+00	0	40	104	0	71	20373
2026-01-18 11:53:03.75	229.19	7.86	-49.7	-65.0	3.8	1.49e+00	0	40	104	0	71	20381
2026-01-18 11:53:04.74	229.31	7.91	-49.7	-64.9	3.8	1.49e+00	0	40	104	0	71	20152
2026-01-18 11:53:05.73	229.44	7.96	-49.7	-65.0	3.8	1.49e+00	0	40	104	0	71	20334
2026-01-18 11:53:06.73	229.56	8.02	-49.7	-64.9	3.8	1.49e+00	0	40	104	0	71	20297
2026-01-18 11:53:07.72	229.69	8.07	-49.6	-64.7	3.8	1.49e+00	0	40	104	0	71	19647
2026-01-18 11:53:08.72	229.81	8.12	-49.6	-64.0	3.8	1.49e+00	0	40	104	0	71	18237
2026-01-18 11:53:09.71	229.94	8.18	-49.6	-63.4	3.8	1.49e+00	0	40	104	0	71	16946
2026-01-18 11:53:10.70	230.07	8.23	-49.5	-63.0	3.8	1.49e+00	0	40	104	0	71	16216
2026-01-18 11:53:11.70	230.19	8.28	-49.6	-63.5	3.8	1.49e+00	0	40	104	0	71	17161
2026-01-18 11:53:12.69	230.32	8.34	-49.6	-64.7	3.8	1.49e+00	0	40	104	0	71	19620
2026-01-18 11:53:13.68	230.45	8.39	-49.6	-64.2	3.8	1.49e+00	0	40	104	0	71	18701
2026-01-18 11:53:14.68	230.58	8.44	-49.4	-60.8	4.4	1.49e+00	0	40	0	0	70	13326
2026-01-18 11:53:15.67	230.71	8.50	-48.7	-56.5	7.1	2.79e-01	0	40	0	1048576	69	8599
2026-01-18 11:53:16.66	230.84	8.55	-47.6	-53.2	10.2	2.05e-02	0	40	0	3145728	67	6585
2026-01-18 11:53:17.66	230.97	8.60	-46.6	-51.0	12.5	8.24e-04	0	40	0	5242880	65	5727
2026-01-18 11:53:18.65	231.10	8.66	-45.9	-49.6	14.0	2.36e-05	0	40	0	7340032	63	5526
2026-01-18 11:53:19.64	231.23	8.71	-45.4	-48.8	14.8	7.00e-07	0	40	0	8388608	62	5335
2026-01-18 11:53:20.64	231.36	8.76	-45.1	-48.5	15.2	0.00e+00	0	40	0	10485760	62	5107
2026-01-18 11:53:21.63	231.49	8.81	-45.2	-48.6	15.0	0.00e+00	0	40	0	12582912	62	5187
2026-01-18 11:53:22.62	231.62	8.87	-45.6	-49.1	14.6	0.00e+00	0	40	0	14680064	62	5505
2026-01-18 11:53:23.62	231.76	8.92	-46.3	-50.3	13.4	3.00e-06	0	40	0	16777216	63	5965
2026-01-18 11:53:24.61	231.89	8.97	-47.0	-51.7	11.8	1.27e-04	0	40	0	17825792	64	6628
2026-01-18 11:53:25.60	232.02	9.03	-47.6	-53.2	10.3	1.37e-03	0	40	0	19922944	65	7417
2026-01-18 11:53:26.60	232.16	9.08	-46.0	-49.8	13.6	8.65e-03	0	40	0	22020096	64	5306
2026-01-18 11:53:27.59	232.29	9.13	-48.1	-54.7	9.2	6.80e-06	0	40	0	24117248	66	8348
2026-01-18 11:53:28.59	232.43	9.19	-48.0	-54.0	9.3	1.45e+00	0	40	0	24117248	68	6824
2026-01-18 11:53:29.58	232.56	9.24	-46.0	-49.8	13.8	3.62e-03	0	40	0	25165824	63	5616
2026-01-18 11:53:30.58	232.70	9.29	-47.6	-53.3	10.6	9.10e-06	0	40	0	27262976	65	7470
2026-01-18 11:53:31.57	232.84	9.34	-46.9	-51.6	11.7	4.17e-01	0	40	0	29360128	66	5830
2026-01-18 11:53:32.56	232.97	9.40	-45.2	-48.5	15.2	0.00e+00	0	40	0	31457280	62	5144
2026-01-18 11:53:33.56	233.11	9.45	-44.7	-47.9	15.9	0.00e+00	0	40	0	32505856	61	5047
2026-01-18 11:53:34.55	233.25	9.50	-44.4	-47.4	16.3	0.00e+00	0	40	0	34603008	60	5085
2026-01-18 11:53:35.55	233.39	9.56	-44.0	-46.9	16.8	0.00e+00	0	40	0	36700160	60	4778
2026-01-18 11:53:36.54	233.53	9.61	-44.2	-47.1	16.6	0.00e+00	0	40	0	38797312	60	4890
2026-01-18 11:53:37.54	233.67	9.66	-44.1	-46.9	16.7	0.00e+00	0	40	0	40894464	60	4809
2026-01-18 11:53:38.54	233.81	9.71	-44.1	-46.9	16.7	0.00e+00	0	40	0	41943040	60	4812
2026-01-18 11:53:39.53	233.95	9.77	-44.1	-47.0	16.7	0.00e+00	0	40	0	44040192	60	4834
2026-01-18 11:53:40.53	234.09	9.82	-44.1	-46.9	16.7	0.00e+00	0	40	0	46137344	60	4792
2026-01-18 11:53:41.52	234.23	9.87	-44.0	-46.8	16.9	0.00e+00	0	40	0	48234496	60	4725
2026-01-18 11:53:42.52	234.38	9.92	-44.2	-47.1	16.6	0.00e+00	0	40	0	50331648	60	4898
2026-01-18 11:53:43.51	234.52	9.98	-44.1	-46.9	16.7	0.00e+00	0	40	0	51380224	60	4791
2026-01-18 11:53:44.51	234.66	10.03	-44.2	-47.1	16.6	0.00e+00	0	40	0	53477376	60	4889
2026-01-18 11:53:45.50	234.80	10.08	-44.2	-47.0	16.6	0.00e+00	0	40	0	55574528	60	4859
2026-01-18 11:53:46.50	234.95	10.13	-44.1	-46.9	16.7	0.00e+00	0	40	0	57671680	59	5099
2026-01-18 11:53:47.53	235.10	10.19	-44.4	-47.4	16.4	0.00e+00	0	40	0	58720256	59	5344
2026-01-18 11:53:48.56	235.25	10.24	-44.3	-47.2	16.5	0.00e+00	0	40	0	60817408	59	5239
2026-01-18 11:53:49.55	235.39	10.29	-44.4	-47.3	16.3	0.00e+00	0	40	0	62914560	59	5337
2026-01-18 11:53:50.55	235.54	10.35	-44.4	-47.3	16.4	0.00e+00	0	40	0	65011712	59	5296
2026-01-18 11:53:51.54	235.69	10.40	-44.5	-47.4	16.3	0.00e+00	0	40	0	67108864	59	5374
2026-01-18 11:53:52.54	235.84	10.45	-44.3	-47.2	16.4	0.00e+00	0	40	0	68157440	59	5271
2026-01-18 11:53:53.53	235.98	10.50	-44.3	-47.2	16.5	0.00e+00	0	40	0	70254592	59	5232
2026-01-18 11:53:54.53	236.13	10.56	-44.4	-47.3	16.4	0.00e+00	0	40	0	72351744	59	5306
2026-01-18 11:53:55.52	236.28	10.61	-44.2	-47.1	16.6	0.00e+00	0	40	0	74448896	59	5166
2026-01-18 11:53:56.51	236.43	10.66	-44.2	-47.0	16.6	0.00e+00	0	40	0	75497472	59	5150
2026-01-18 11:53:57.51	236.58	10.71	-44.1	-46.9	16.8	0.00e+00	0	40	0	77594624	59	5059
2026-01-18 11:53:58.50	236.73	10.76	-44.0	-46.7	16.9	0.00e+00	0	40	0	79691776	59	4962
2026-01-18 11:53:59.50	236.88	10.81	-43.7	-46.4	17.3	0.00e+00	0	40	0	81788928	59	4782
2026-01-18 11:54:00.49	237.03	10.87	-43.7	-46.4	17.3	0.00e+00	0	40	0	83886080	59	4795
2026-01-18 11:54:01.48	237.18	10.92	-43.6	-46.2	17.5	0.00e+00	0	40	0	84934656	59	4669
2026-01-18 11:54:02.48	237.33	10.97	-43.7	-46.4	17.3	0.00e+00	0	40	0	87031808	59	4767
2026-01-18 11:54:03.48	237.49	11.02	-43.6	-46.2	17.4	0.00e+00	0	40	0	89128960	59	4702
2026-01-18 11:54:04.47	237.64	11.07	-43.6	-46.3	17.4	0.00e+00	0	40	0	91226112	58	4986
2026-01-18 11:54:05.46	237.79	11.12	-43.6	-46.2	17.4	0.00e+00	0	40	0	92274688	58	4974
2026-01-18 11:54:06.46	237.95	11.17	-43.5	-46.2	17.5	0.00e+00	0	40	0	94371840	58	4932
2026-01-18 11:54:07.45	238.10	11.22	-43.5	-46.0	17.6	0.00e+00	0	40	0	96468992	58	4852
2026-01-18 11:54:08.45	238.26	11.27	-43.2	-45.7	17.9	0.00e+00	0	40	0	98566144	58	4669
2026-01-18 11:54:09.44	238.41	11.33	-43.1	-45.5	18.1	0.00e+00	0	40	0	100663296	58	4597
2026-01-18 11:54:10.43	238.57	11.38	-42.8	-45.1	18.4	0.00e+00	0	40	0	101711872	57	4648
2026-01-18 11:54:11.43	238.73	11.43	-42.7	-45.1	18.5	0.00e+00	0	40	0	103809024	57	4616
2026-01-18 11:54:12.42	238.89	11.48	-42.7	-45.0	18.6	0.00e+00	0	40	0	105906176	57	4569
2026-01-18 11:54:13.42	239.04	11.53	-42.7	-45.1	18.5	0.00e+00	0	40	0	108003328	57	4621
2026-01-18 11:54:14.41	239.20	11.58	-42.9	-45.3	18.4	0.00e+00	0	40	0	109051904	57	4717
2026-01-18 11:54:15.41	239.36	11.63	-43.0	-45.5	18.1	0.00e+00	0	40	0	111149056	57	4840
2026-01-18 11:54:16.40	239.52	11.68	-43.0	-45.5	18.1	0.00e+00	0	40	0	113246208	57	4850
2026-01-18 11:54:17.40	239.68	11.73	-43.2	-45.7	18.0	0.00e+00	0	40	0	115343360	57	4936
2026-01-18 11:54:18.39	239.84	11.78	-43.3	-45.8	17.9	0.00e+00	0	40	0	117440512	57	4997
2026-01-18 11:54:19.39	240.00	11.83	-43.3	-45.8	17.8	0.00e+00	0	40	0	118489088	57	4995
2026-01-18 11:54:20.39	240.17	11.88	-43.3	-45.8	17.8	0.00e+00	0	40	0	120586240	57	5011
2026-01-18 11:54:21.38	240.33	11.93	-43.1	-45.6	18.1	0.00e+00	0	40	0	122683392	57	4890
2026-01-18 11:54:22.46	240.51	11.98	-43.2	-45.7	18.0	0.00e+00	0	40	0	124780544	57	4927
2026-01-18 11:54:23.31	240.64	12.03	-43.1	-45.6	18.1	0.00e+00	0	40	0	125829120	57	4908
2026-01-18 11:54:24.45	240.83	12.08	-43.1	-45.5	18.1	0.00e+00	0	40	0	127926272	57	4866
2026-01-18 11:54:25.30	240.97	12.12	-43.2	-45.7	17.9	0.00e+00	0	40	0	130023424	57	4976
2026-01-18 11:54:26.44	241.16	12.18	-43.0	-45.5	18.1	0.00e+00	0	40	0	132120576	57	4851
2026-01-18 11:54:27.29	241.30	12.22	-43.1	-45.6	18.1	0.00e+00	0	40	0	134217728	57	4881
2026-01-18 11:54:28.43	241.49	12.28	-43.0	-45.4	18.2	0.00e+00	0	40	0	136314880	57	4796
2026-01-18 11:54:29.28	241.64	12.32	-43.1	-45.5	18.1	0.00e+00	0	40	0	137363456	57	4864
2026-01-18 11:54:30.42	241.83	12.38	-43.2	-45.7	18.0	0.00e+00	0	40	0	139460608	57	4943
2026-01-18 11:54:31.27	241.97	12.42	-43.1	-45.6	18.1	0.00e+00	0	40	0	141557760	57	4871
2026-01-18 11:54:32.41	242.16	12.47	-43.1	-45.6	18.1	0.00e+00	0	40	0	143654912	57	4877
2026-01-18 11:54:33.26	242.31	12.51	-43.0	-45.5	18.2	0.00e+00	0	40	0	144703488	57	4840
2026-01-18 11:54:34.47	242.51	12.57	-43.0	-45.5	18.1	0.00e+00	0	40	0	146800640	57	4841
2026-01-18 11:54:35.33	242.66	12.61	-43.2	-45.6	18.0	0.00e+00	0	40	0	148897792	57	4919
2026-01-18 11:54:36.46	242.85	12.67	-43.2	-45.7	17.9	0.00e+00	0	40	0	150994944	57	4974
2026-01-18 11:54:37.32	243.00	12.71	-43.3	-45.8	17.9	0.00e+00	0	40	0	152043520	57	5005
2026-01-18 11:54:38.45	243.20	12.76	-43.3	-45.8	17.9	0.00e+00	0	40	0	154140672	57	5001
2026-01-18 11:54:39.31	243.35	12.81	-43.2	-45.7	18.0	0.00e+00	0	40	0	156237824	57	4966
2026-01-18 11:54:40.44	243.54	12.86	-43.3	-45.8	17.9	0.00e+00	0	40	0	158334976	57	5036
2026-01-18 11:54:41.39	243.71	12.90	-43.2	-45.8	17.9	0.00e+00	0	40	0	160432128	57	4995
2026-01-18 11:54:42.39	243.88	12.95	-43.2	-45.7	18.0	0.00e+00	0	40	0	162529280	57	4951
2026-01-18 11:54:43.38	244.06	13.00	-43.1	-45.5	18.1	0.00e+00	0	40	0	163577856	57	4869
2026-01-18 11:54:44.38	244.23	13.04	-43.1	-45.6	18.1	0.00e+00	0	40	0	165675008	57	4895
2026-01-18 11:54:45.37	244.41	13.09	-43.1	-45.5	18.1	0.00e+00	0	40	0	167772160	57	4864
2026-01-18 11:54:46.37	244.58	13.14	-43.2	-45.7	18.0	0.00e+00	0	40	0	169869312	57	4928
2026-01-18 11:54:47.36	244.76	13.18	-43.3	-45.9	17.8	0.00e+00	0	40	0	170917888	57	5059
2026-01-18 11:54:48.36	244.94	13.23	-43.5	-46.0	17.7	0.00e+00	0	40	0	173015040	57	5149
2026-01-18 11:54:49.35	245.11	13.28	-43.6	-46.2	17.5	0.00e+00	0	40	0	175112192	57	5245
2026-01-18 11:54:50.35	245.29	13.32	-43.6	-46.2	17.5	0.00e+00	0	40	0	177209344	58	4965
2026-01-18 11:54:51.34	245.47	13.37	-43.7	-46.3	17.4	0.00e+00	0	40	0	179306496	58	5005
2026-01-18 11:54:52.34	245.65	13.41	-43.6	-46.1	17.5	0.00e+00	0	40	0	180355072	58	4912
2026-01-18 11:54:53.35	245.83	13.46	-43.6	-46.2	17.5	0.00e+00	0	40	0	182452224	58	4959
2026-01-18 11:54:54.38	246.02	13.51	-43.6	-46.2	17.5	0.00e+00	0	40	0	184549376	58	4964
2026-01-18 11:54:55.37	246.20	13.55	-43.6	-46.2	17.6	0.00e+00	0	40	0	186646528	58	4939
2026-01-18 11:54:56.43	246.39	13.60	-43.6	-46.1	17.7	0.00e+00	0	40	0	188743680	58	4905
2026-01-18 11:54:57.34	246.56	13.64	-43.7	-46.2	17.5	0.00e+00	0	40	0	189792256	58	4980
2026-01-18 11:54:58.48	246.76	13.69	-43.8	-46.5	17.3	0.00e+00	0	40	0	191889408	58	5140
2026-01-18 11:54:59.33	246.92	13.73	-43.8	-46.5	17.3	0.00e+00	0	40	0	193986560	58	5112
2026-01-18 11:55:00.47	247.13	13.78	-44.1	-46.8	16.9	0.00e+00	0	40	0	196083712	58	5326
2026-01-18 11:55:01.42	247.31	13.82	-44.0	-46.7	17.1	0.00e+00	0	40	0	198180864	58	5272
2026-01-18 11:55:02.41	247.49	13.86	-44.0	-46.7	17.1	0.00e+00	0	40	0	199229440	58	5240
2026-01-18 11:55:03.41	247.68	13.91	-44.1	-46.9	16.9	0.00e+00	0	40	0	201326592	58	5377
2026-01-18 11:55:04.40	247.86	13.95	-44.1	-46.9	16.9	0.00e+00	0	40	0	203423744	58	5353
2026-01-18 11:55:05.40	248.05	13.99	-43.7	-46.4	17.3	0.00e+00	0	40	0	205520896	58	5062
2026-01-18 11:55:06.39	248.23	14.04	-43.7	-46.4	17.4	0.00e+00	0	40	0	206569472	58	5069
2026-01-18 11:55:07.39	248.42	14.08	-43.7	-46.3	17.4	0.00e+00	0	40	0	208666624	58	5039
2026-01-18 11:55:08.38	248.61	14.12	-43.8	-46.5	17.3	0.00e+00	0	40	0	210763776	58	5113
2026-01-18 11:55:09.38	248.80	14.16	-43.7	-46.3	17.4	0.00e+00	0	40	0	212860928	58	5040
2026-01-18 11:55:10.38	248.99	14.21	-43.7	-46.3	17.5	0.00e+00	0	40	0	214958080	58	5008
2026-01-18 11:55:11.37	249.17	14.25	-43.8	-46.5	17.3	0.00e+00	0	40	0	216006656	58	5109
2026-01-18 11:55:12.37	249.36	14.29	-43.7	-46.4	17.4	0.00e+00	0	40	0	218103808	58	5062
2026-01-18 11:55:13.36	249.55	14.33	-43.8	-46.5	17.3	0.00e+00	0	40	0	220200960	58	5106
2026-01-18 11:55:14.43	249.76	14.37	-43.9	-46.7	17.2	0.00e+00	0	40	0	222298112	58	5220
2026-01-18 11:55:15.32	249.93	14.41	-44.2	-47.0	16.8	0.00e+00	0	40	0	223346688	58	5408
2026-01-18 11:55:16.46	250.15	14.46	-44.1	-46.8	16.9	0.00e+00	0	40	0	225443840	59	5040
2026-01-18 11:55:17.31	250.31	14.49	-44.3	-47.1	16.7	0.00e+00	0	40	0	227540992	59	5185
2026-01-18 11:55:18.45	250.53	14.54	-44.4	-47.2	16.7	0.00e+00	0	40	0	229638144	59	5236
2026-01-18 11:55:19.30	250.70	14.57	-44.2	-47.0	16.7	0.00e+00	0	40	0	231735296	59	5134
2026-01-18 11:55:20.44	250.92	14.62	-44.2	-47.0	16.8	0.00e+00	0	40	0	233832448	59	5145
2026-01-18 11:55:21.29	251.09	14.65	-44.1	-46.9	16.9	0.00e+00	0	40	0	234881024	59	5046
2026-01-18 11:55:22.43	251.31	14.70	-43.9	-46.7	17.1	0.00e+00	0	40	0	236978176	59	4929
2026-01-18 11:55:23.28	251.48	14.73	-44.1	-46.9	16.8	0.00e+00	0	40	0	239075328	59	5075
2026-01-18 11:55:24.42	251.70	14.77	-44.2	-47.0	16.8	0.00e+00	0	41	0	241172480	59	5143
2026-01-18 11:55:25.27	251.87	14.81	-44.2	-47.1	16.7	0.00e+00	0	40	0	242221056	59	5177
2026-01-18 11:55:26.41	252.09	14.85	-44.5	-47.4	16.4	0.00e+00	0	40	0	244318208	59	5351
2026-01-18 11:55:27.26	252.26	14.88	-44.5	-47.4	16.4	0.00e+00	0	40	0	246415360	59	5360
2026-01-18 11:55:28.40	252.49	14.93	-44.5	-47.4	16.4	0.00e+00	0	40	0	248512512	59	5364
2026-01-18 11:55:29.25	252.66	14.96	-44.6	-47.5	16.3	0.00e+00	0	40	0	249561088	59	5453
2026-01-18 11:55:30.39	252.89	15.00	-44.5	-47.4	16.4	0.00e+00	0	41	0	251658240	59	5370
2026-01-18 11:55:31.24	253.06	15.03	-44.7	-47.7	16.2	0.00e+00	0	40	0	253755392	59	5536
2026-01-18 11:55:32.38	253.28	15.07	-44.6	-47.6	16.2	0.00e+00	0	40	0	255852544	60	5207
2026-01-18 11:55:33.23	253.46	15.11	-44.6	-47.6	16.3	0.00e+00	0	41	0	256901120	60	5190
2026-01-18 11:55:34.58	253.73	15.15	-44.7	-47.7	16.2	0.00e+00	0	40	0	260046848	60	5267
2026-01-18 11:55:35.29	253.87	15.18	-44.9	-48.1	15.8	0.00e+00	0	40	0	261095424	60	5481
2026-01-18 11:55:36.57	254.13	15.23	-44.6	-47.6	16.3	0.00e+00	0	40	0	263192576	60	5204
2026-01-18 11:55:37.28	254.27	15.25	-44.6	-47.6	16.2	0.00e+00	0	40	0	265289728	60	5215
2026-01-18 11:55:38.56	254.53	15.30	-44.3	-47.2	16.6	0.00e+00	0	40	0	267386880	60	4974
2026-01-18 11:55:39.27	254.68	15.32	-44.3	-47.1	16.7	0.00e+00	0	40	0	268435456	60	4915
2026-01-18 11:55:40.55	254.94	15.36	-44.2	-47.1	16.7	0.00e+00	0	40	0	271581184	60	4890
2026-01-18 11:55:41.27	255.09	15.39	-44.2	-47.0	16.9	0.00e+00	0	41	0	272629760	60	4845
2026-01-18 11:55:42.55	255.35	15.43	-44.1	-47.0	16.9	0.00e+00	0	40	0	274726912	60	4816
2026-01-18 11:55:43.26	255.50	15.46	-44.4	-47.3	16.6	0.00e+00	0	40	0	275775488	60	5011
2026-01-18 11:55:44.54	255.76	15.50	-44.5	-47.5	16.4	0.00e+00	0	40	0	278921216	60	5103
2026-01-18 11:55:45.25	255.91	15.52	-44.4	-47.3	16.5	0.00e+00	0	40	0	279969792	60	5031
2026-01-18 11:55:46.53	256.17	15.56	-44.1	-47.0	16.9	0.00e+00	0	40	0	282066944	60	4822
2026-01-18 11:55:47.26	256.32	15.59	-44.2	-47.0	16.9	0.00e+00	0	40	0	283115520	60	4848
2026-01-18 11:55:48.65	256.61	15.63	-44.1	-46.9	16.9	0.00e+00	0	41	0	286261248	60	4795
2026-01-18 11:55:49.36	256.76	15.66	-44.1	-46.9	16.9	0.00e+00	0	40	0	287309824	60	4786
2026-01-18 11:55:50.63	257.03	15.70	-44.0	-46.8	17.1	0.00e+00	0	40	0	290455552	59	4986
2026-01-18 11:55:51.35	257.18	15.72	-44.0	-46.7	17.1	0.00e+00	0	40	0	291504128	59	4974
2026-01-18 11:55:52.75	257.47	15.76	-44.1	-46.8	17.0	0.00e+00	0	40	0	293601280	59	5026
2026-01-18 11:55:53.46	257.62	15.78	-43.9	-46.6	17.2	0.00e+00	0	41	0	295698432	59	4899
2026-01-18 11:55:54.74	257.89	15.82	-43.5	-46.0	17.7	0.00e+00	0	40	0	297795584	59	4589
2026-01-18 11:55:55.48	258.05	15.84	-43.4	-46.0	17.8	0.00e+00	0	40	0	298844160	58	4831
2026-01-18 11:55:56.76	258.32	15.88	-43.3	-45.9	17.9	0.00e+00	0	40	0	300941312	58	4768
2026-01-18 11:55:57.47	258.47	15.90	-43.3	-45.8	18.0	0.00e+00	0	40	0	303038464	58	4710
2026-01-18 11:55:58.75	258.74	15.94	-43.1	-45.6	18.1	0.00e+00	0	40	0	305135616	58	4611
2026-01-18 11:55:59.49	258.90	15.96	-43.2	-45.6	18.1	0.00e+00	0	40	0	306184192	58	4646
2026-01-18 11:56:00.77	259.17	16.00	-43.3	-45.8	17.9	0.00e+00	0	40	0	309329920	58	4730
2026-01-18 11:56:01.48	259.32	16.02	-43.1	-45.6	18.1	0.00e+00	0	40	0	310378496	58	4640
2026-01-18 11:56:02.76	259.59	16.05	-43.2	-45.7	18.0	0.00e+00	0	40	0	312475648	58	4662
2026-01-18 11:56:03.49	259.75	16.07	-42.9	-45.4	18.3	0.00e+00	0	40	0	314572800	57	4770
2026-01-18 11:56:04.77	260.02	16.10	-43.0	-45.5	18.2	0.00e+00	0	40	0	316669952	57	4836
2026-01-18 11:56:05.48	260.18	16.12	-43.0	-45.5	18.2	0.00e+00	0	40	0	317718528	57	4859
2026-01-18 11:56:06.76	260.45	16.16	-43.1	-45.6	18.1	0.00e+00	0	40	0	319815680	57	4898
2026-01-18 11:56:07.65	260.64	16.18	-43.4	-46.0	17.8	0.00e+00	0	40	0	321912832	57	5105
2026-01-18 11:56:09.10	260.96	16.22	-43.6	-46.3	17.5	0.00e+00	0	40	0	325058560	58	5003
2026-01-18 11:56:09.81	261.11	16.23	-43.6	-46.3	17.5	0.00e+00	0	40	0	326107136	58	5000
2026-01-18 11:56:11.29	261.43	16.27	-43.7	-46.4	17.4	0.00e+00	0	40	0	328204288	58	5056
2026-01-18 11:56:12.00	261.59	16.29	-43.8	-46.5	17.3	0.00e+00	0	40	0	330301440	58	5117
2026-01-18 11:56:13.28	261.86	16.32	-44.0	-46.7	17.1	0.00e+00	0	40	0	332398592	58	5251
2026-01-18 11:56:13.99	262.02	16.33	-43.9	-46.7	17.2	0.00e+00	0	41	0	333447168	58	5226
2026-01-18 11:56:15.27	262.30	16.36	-44.0	-46.7	17.1	0.00e+00	0	40	0	336592896	58	5248
2026-01-18 11:56:15.98	262.45	16.38	-44.1	-46.9	16.9	0.00e+00	0	40	0	337641472	58	5391
2026-01-18 11:56:17.26	262.73	16.41	-44.0	-46.8	17.0	0.00e+00	0	40	0	339738624	59	4995
2026-01-18 11:56:17.99	262.89	16.42	-43.8	-46.5	17.3	0.00e+00	0	40	0	340787200	59	4839
2026-01-18 11:56:19.27	263.17	16.45	-43.5	-46.1	17.7	0.00e+00	0	40	0	343932928	58	4881
2026-01-18 11:56:19.99	263.33	16.47	-43.3	-45.8	17.9	0.00e+00	0	40	0	344981504	58	4744
2026-01-18 11:56:21.28	263.61	16.49	-43.0	-45.4	18.3	0.00e+00	0	40	0	347078656	58	4536
2026-01-18 11:56:21.99	263.77	16.51	-42.9	-45.4	18.3	0.00e+00	0	40	0	349175808	57	4785
2026-01-18 11:56:23.27	264.05	16.53	-43.0	-45.4	18.3	0.00e+00	0	40	0	351272960	57	4806
2026-01-18 11:56:24.09	264.23	16.55	-43.3	-45.8	17.9	0.00e+00	0	41	0	352321536	57	5028
2026-01-18 11:56:25.23	264.49	16.57	-43.8	-46.4	17.3	0.00e+00	0	40	0	354418688	58	5097
2026-01-18 11:56:26.30	264.72	16.59	-44.0	-46.8	17.0	0.00e+00	0	40	0	356515840	58	5304
2026-01-18 11:56:27.33	264.95	16.61	-43.9	-46.7	17.2	0.00e+00	0	40	0	358612992	58	5222
2026-01-18 11:56:28.33	265.17	16.63	-43.9	-46.6	17.3	0.00e+00	0	40	0	360710144	58	5192
2026-01-18 11:56:29.32	265.39	16.65	-43.9	-46.6	17.2	0.00e+00	0	40	0	362807296	58	5211
2026-01-18 11:56:30.31	265.61	16.66	-43.7	-46.4	17.5	0.00e+00	0	40	0	363855872	58	5053
2026-01-18 11:56:31.31	265.84	16.68	-43.9	-46.6	17.2	0.00e+00	0	40	0	365953024	58	5175
2026-01-18 11:56:32.30	266.06	16.69	-44.1	-46.8	17.0	0.00e+00	0	40	0	368050176	58	5329
2026-01-18 11:56:33.30	266.28	16.71	-44.2	-47.0	16.8	0.00e+00	0	41	0	370147328	59	5141
2026-01-18 11:56:34.29	266.50	16.73	-44.0	-46.7	17.1	0.00e+00	0	41	0	372244480	59	4940
2026-01-18 11:56:35.28	266.72	16.74	-43.8	-46.4	17.3	0.00e+00	0	40	0	373293056	59	4813
2026-01-18 11:56:36.28	266.95	16.76	-43.5	-46.1	17.6	0.00e+00	0	41	0	375390208	59	4621
2026-01-18 11:56:37.27	267.17	16.77	-43.1	-45.5	18.2	0.00e+00	0	40	0	377487360	58	4564
2026-01-18 11:56:38.27	267.39	16.78	-42.8	-45.2	18.5	0.00e+00	0	40	0	379584512	57	4679
2026-01-18 11:56:39.26	267.61	16.80	-42.9	-45.4	18.3	0.00e+00	0	40	0	380633088	57	4771
2026-01-18 11:56:40.26	267.84	16.81	-43.1	-45.6	18.1	0.00e+00	0	40	0	382730240	57	4905
2026-01-18 11:56:41.25	268.06	16.82	-43.5	-46.1	17.7	0.00e+00	0	41	0	384827392	57	5180
2026-01-18 11:56:42.25	268.28	16.83	-43.7	-46.3	17.4	0.00e+00	0	40	0	386924544	58	5040
2026-01-18 11:56:43.24	268.51	16.85	-43.6	-46.2	17.6	0.00e+00	0	40	0	389021696	58	4977
2026-01-18 11:56:44.24	268.73	16.86	-43.2	-45.7	18.1	0.00e+00	0	40	0	390070272	58	4677
2026-01-18 11:56:45.55	269.03	16.87	-42.9	-45.3	18.4	0.00e+00	0	40	0	393216000	57	4746
2026-01-18 11:56:46.26	269.19	16.88	-43.0	-45.4	18.3	0.00e+00	0	40	0	394264576	57	4801
2026-01-18 11:56:47.54	269.48	16.89	-43.1	-45.6	18.2	0.00e+00	0	40	0	396361728	57	4882
2026-01-18 11:56:48.25	269.64	16.90	-43.2	-45.7	18.1	0.00e+00	0	40	0	398458880	57	4941
2026-01-18 11:56:49.53	269.93	16.91	-43.7	-46.4	17.5	0.00e+00	0	40	0	400556032	58	5066
2026-01-18 11:56:50.26	270.09	16.92	-44.0	-46.7	17.1	0.00e+00	0	40	0	401604608	58	5262
2026-01-18 11:56:51.54	270.38	16.93	-44.0	-46.8	17.1	0.00e+00	0	40	0	403701760	58	5288
2026-01-18 11:56:52.25	270.54	16.93	-44.0	-46.8	17.0	0.00e+00	0	40	0	405798912	58	5303
2026-01-18 11:56:53.53	270.83	16.94	-44.0	-46.7	17.1	0.00e+00	0	40	0	407896064	58	5274
2026-01-18 11:56:54.24	270.99	16.95	-44.0	-46.8	17.1	0.00e+00	0	40	0	408944640	58	5281
2026-01-18 11:56:55.51	271.28	16.96	-44.3	-47.2	16.6	0.00e+00	0	40	0	412090368	59	5236
2026-01-18 11:56:56.24	271.45	16.96	-44.5	-47.4	16.5	0.00e+00	0	40	0	413138944	59	5346
2026-01-18 11:56:57.52	271.74	16.97	-44.6	-47.6	16.3	0.00e+00	0	40	0	415236096	59	5477
2026-01-18 11:56:58.23	271.90	16.97	-44.7	-47.6	16.3	0.00e+00	0	40	0	416284672	60	5187
2026-01-18 11:56:59.51	272.19	16.98	-44.7	-47.6	16.3	0.00e+00	0	40	0	419430400	60	5189
2026-01-18 11:57:00.25	272.36	16.98	-44.6	-47.5	16.4	0.00e+00	0	40	0	420478976	60	5143
2026-01-18 11:57:01.53	272.65	16.99	-44.3	-47.1	16.7	0.00e+00	0	40	0	422576128	60	4915
2026-01-18 11:57:02.25	272.81	16.99	-44.3	-47.2	16.7	0.00e+00	0	40	0	424673280	60	4949
2026-01-18 11:57:03.54	273.10	17.00	-44.4	-47.4	16.5	0.00e+00	0	40	0	426770432	60	5061
2026-01-18 11:57:04.26	273.27	17.00	-44.4	-47.4	16.5	0.00e+00	0	40	0	427819008	60	5044
2026-01-18 11:57:05.54	273.56	17.00	-44.4	-47.3	16.5	0.00e+00	0	40	0	430964736	60	5039
2026-01-18 11:57:06.25	273.72	17.00	-44.3	-47.3	16.6	0.00e+00	0	40	0	432013312	60	5000
2026-01-18 11:57:07.53	274.01	17.00	-44.3	-47.1	16.8	0.00e+00	0	40	0	434110464	60	4897
2026-01-18 11:57:08.26	274.17	17.00	-44.0	-46.7	17.2	0.00e+00	0	40	0	435159040	60	4683
2026-01-18 11:57:09.54	274.47	17.01	-44.0	-46.6	17.1	0.00e+00	0	40	0	438304768	59	4921
2026-01-18 11:57:10.26	274.63	17.01	-44.0	-46.7	17.1	0.00e+00	0	40	0	439353344	59	4969
2026-01-18 11:57:11.54	274.92	17.01	-44.0	-46.8	17.0	0.00e+00	0	40	0	441450496	59	4997
2026-01-18 11:57:12.25	275.08	17.01	-44.2	-46.9	16.9	0.00e+00	0	40	0	442499072	59	5088
2026-01-18 11:57:13.53	275.37	17.00	-44.2	-47.0	16.8	0.00e+00	0	40	0	445644800	59	5146
2026-01-18 11:57:14.24	275.53	17.00	-44.0	-46.8	17.1	0.00e+00	0	40	0	446693376	59	4989
2026-01-18 11:57:15.52	275.82	17.00	-43.8	-46.4	17.4	0.00e+00	0	40	0	448790528	59	4785
2026-01-18 11:57:16.25	275.99	17.00	-43.7	-46.3	17.5	0.00e+00	0	40	0	450887680	59	4746
2026-01-18 11:57:17.53	276.28	17.00	-43.6	-46.1	17.7	0.00e+00	0	40	0	452984832	59	4632
2026-01-18 11:57:18.25	276.44	16.99	-43.6	-46.2	17.6	0.00e+00	0	40	0	454033408	59	4669
2026-01-18 11:57:19.53	276.73	16.99	-43.9	-46.5	17.3	0.00e+00	0	40	0	457179136	59	4867
2026-01-18 11:57:20.26	276.90	16.99	-43.8	-46.5	17.3	0.00e+00	0	40	0	458227712	59	4847
2026-01-18 11:57:21.54	277.19	16.98	-43.9	-46.5	17.3	0.00e+00	0	40	0	460324864	59	4866
2026-01-18 11:57:22.28	277.36	16.98	-43.7	-46.3	17.5	0.00e+00	0	40	0	461373440	59	4747
2026-01-18 11:57:23.56	277.65	16.97	-43.6	-46.2	17.6	0.00e+00	0	40	0	464519168	59	4689
2026-01-18 11:57:24.27	277.81	16.97	-43.4	-46.0	17.8	0.00e+00	0	40	0	465567744	58	4838
2026-01-18 11:57:25.54	278.10	16.96	-43.2	-45.7	18.1	0.00e+00	0	40	0	467664896	58	4665
2026-01-18 11:57:26.28	278.27	16.95	-43.2	-45.7	18.1	0.00e+00	0	40	0	469762048	58	4683
2026-01-18 11:57:27.56	278.55	16.94	-43.4	-46.0	17.8	0.00e+00	0	40	0	471859200	58	4837
2026-01-18 11:57:28.27	278.72	16.94	-43.5	-46.1	17.7	0.00e+00	0	41	0	472907776	58	4896
2026-01-18 11:57:29.55	279.00	16.93	-43.7	-46.3	17.5	0.00e+00	0	40	0	475004928	58	4995
2026-01-18 11:57:30.27	279.17	16.92	-43.7	-46.3	17.5	0.00e+00	0	40	0	477102080	58	5013
2026-01-18 11:57:31.62	279.47	16.91	-43.6	-46.1	17.7	0.00e+00	0	40	0	479199232	58	4914
2026-01-18 11:57:32.33	279.63	16.90	-43.6	-46.1	17.7	0.00e+00	0	40	0	480247808	58	4921
2026-01-18 11:57:33.61	279.92	16.89	-43.5	-46.1	17.7	0.00e+00	0	41	0	483393536	58	4890
2026-01-18 11:57:34.32	280.08	16.88	-43.6	-46.2	17.7	0.00e+00	0	40	0	484442112	58	4929
2026-01-18 11:57:35.74	280.40	16.87	-43.9	-46.6	17.3	0.00e+00	0	40	0	487587840	58	5170
2026-01-18 11:57:36.45	280.56	16.86	-43.9	-46.6	17.2	0.00e+00	0	40	0	488636416	58	5206
2026-01-18 11:57:37.73	280.85	16.85	-44.0	-46.8	17.0	0.00e+00	0	40	0	490733568	58	5292
2026-01-18 11:57:38.46	281.01	16.84	-44.0	-46.7	17.1	0.00e+00	0	40	0	491782144	58	5271
2026-01-18 11:57:39.74	281.30	16.82	-43.9	-46.6	17.2	0.00e+00	0	40	0	494927872	58	5170
2026-01-18 11:57:40.46	281.46	16.81	-43.8	-46.4	17.4	0.00e+00	0	40	0	495976448	58	5092
2026-01-18 11:57:41.74	281.75	16.80	-43.6	-46.2	17.6	0.00e+00	0	40	0	498073600	58	4946
2026-01-18 11:57:42.47	281.91	16.79	-43.7	-46.3	17.5	0.00e+00	0	40	0	500170752	58	5030
2026-01-18 11:57:43.75	282.20	16.77	-43.9	-46.5	17.3	0.00e+00	0	40	0	502267904	58	5150
2026-01-18 11:57:44.47	282.36	16.76	-44.1	-46.8	17.1	0.00e+00	0	40	0	503316480	58	5291
2026-01-18 11:57:45.75	282.65	16.74	-44.3	-47.0	16.8	0.00e+00	0	40	0	505413632	59	5157
2026-01-18 11:57:46.49	282.81	16.73	-44.4	-47.3	16.6	0.00e+00	0	40	0	507510784	59	5314
2026-01-18 11:57:47.77	283.10	16.71	-44.2	-46.9	16.9	0.00e+00	0	40	0	509607936	59	5089
2026-01-18 11:57:48.48	283.25	16.70	-44.2	-47.0	16.8	0.00e+00	0	40	0	510656512	59	5131
2026-01-18 11:57:49.76	283.54	16.68	-44.0	-46.8	17.1	0.00e+00	0	41	0	513802240	59	4985
2026-01-18 11:57:50.48	283.70	16.67	-43.8	-46.4	17.4	0.00e+00	0	41	0	514850816	59	4812
2026-01-18 11:57:51.76	283.98	16.64	-43.7	-46.4	17.5	0.00e+00	0	40	0	516947968	59	4768
2026-01-18 11:57:52.47	284.14	16.63	-43.6	-46.2	17.5	0.00e+00	0	40	0	517996544	58	4954
2026-01-18 11:57:53.75	284.42	16.61	-43.3	-45.9	17.9	0.00e+00	0	40	0	521142272	58	4772
2026-01-18 11:57:54.46	284.58	16.60	-43.3	-45.8	18.0	0.00e+00	0	40	0	522190848	58	4751
2026-01-18 11:57:55.74	284.86	16.57	-43.4	-45.9	17.9	0.00e+00	0	40	0	524288000	58	4780
2026-01-18 11:57:56.47	285.02	16.56	-43.3	-45.8	17.9	0.00e+00	0	40	0	526385152	58	4756
2026-01-18 11:57:57.75	285.31	16.53	-43.2	-45.7	18.1	0.00e+00	0	40	0	528482304	58	4672
2026-01-18 11:57:58.46	285.46	16.52	-43.3	-45.8	17.9	0.00e+00	0	40	0	529530880	58	4756
2026-01-18 11:57:59.74	285.74	16.49	-43.5	-46.1	17.8	0.00e+00	0	40	0	531628032	58	4871
2026-01-18 11:58:00.45	285.90	16.48	-43.6	-46.2	17.6	0.00e+00	0	40	0	533725184	58	4966
2026-01-18 11:58:01.72	286.18	16.45	-43.6	-46.2	17.6	0.00e+00	0	40	0	535822336	58	4981
2026-01-18 11:58:02.47	286.34	16.44	-43.6	-46.2	17.6	0.00e+00	0	40	0	536870912	58	4967
2026-01-18 11:58:03.74	286.62	16.41	-43.7	-46.3	17.6	0.00e+00	0	40	0	540016640	58	5001
2026-01-18 11:58:04.53	286.79	16.39	-43.8	-46.4	17.5	0.00e+00	0	40	0	541065216	58	5064
2026-01-18 11:58:05.75	287.06	16.37	-43.6	-46.2	17.6	0.00e+00	0	40	0	543162368	58	4981
2026-01-18 11:58:06.60	287.24	16.35	-43.6	-46.2	17.6	0.00e+00	0	40	0	545259520	58	4953
2026-01-18 11:58:07.74	287.49	16.32	-43.6	-46.2	17.7	0.00e+00	0	40	0	547356672	58	4930
2026-01-18 11:58:08.59	287.68	16.30	-43.4	-46.0	17.9	0.00e+00	0	40	0	548405248	58	4817
2026-01-18 11:58:09.73	287.92	16.27	-43.2	-45.7	18.1	0.00e+00	0	40	0	550502400	58	4665
2026-01-18 11:58:10.58	288.11	16.25	-43.1	-45.5	18.3	0.00e+00	0	40	0	552599552	58	4551
2026-01-18 11:58:11.72	288.35	16.22	-43.0	-45.4	18.4	0.00e+00	0	40	0	554696704	57	4769
2026-01-18 11:58:12.57	288.54	16.20	-42.9	-45.3	18.4	0.00e+00	0	40	0	555745280	57	4731
2026-01-18 11:58:13.71	288.78	16.17	-42.9	-45.3	18.5	0.00e+00	0	40	0	557842432	57	4723
2026-01-18 11:58:14.56	288.96	16.15	-43.1	-45.5	18.2	0.00e+00	0	40	0	559939584	57	4846
2026-01-18 11:58:15.70	289.21	16.12	-42.8	-45.2	18.5	0.00e+00	0	40	0	562036736	57	4688
2026-01-18 11:58:16.55	289.39	16.10	-42.9	-45.3	18.4	0.00e+00	0	41	0	563085312	57	4744
2026-01-18 11:58:17.69	289.63	16.07	-42.8	-45.2	18.6	0.00e+00	0	40	0	566231040	57	4655
2026-01-18 11:58:18.54	289.81	16.05	-42.8	-45.2	18.5	0.00e+00	0	40	0	567279616	57	4684
2026-01-18 11:58:19.68	290.06	16.02	-42.9	-45.3	18.5	0.00e+00	0	40	0	569376768	57	4721
2026-01-18 11:58:20.53	290.24	15.99	-43.0	-45.4	18.4	0.00e+00	0	40	0	571473920	57	4777
2026-01-18 11:58:21.67	290.48	15.96	-43.1	-45.6	18.2	0.00e+00	0	40	0	573571072	57	4896
2026-01-18 11:58:22.61	290.68	15.93	-43.3	-45.8	18.0	0.00e+00	0	40	0	574619648	57	5026
2026-01-18 11:58:23.78	290.93	15.90	-43.5	-46.0	17.8	0.00e+00	0	40	0	576716800	57	5120
2026-01-18 11:58:24.64	291.11	15.87	-43.6	-46.1	17.7	0.00e+00	0	40	0	578813952	57	5202
2026-01-18 11:58:25.98	291.39	15.84	-43.5	-46.0	17.8	0.00e+00	0	40	0	580911104	57	5152
2026-01-18 11:58:26.69	291.54	15.81	-43.3	-45.8	18.0	0.00e+00	0	40	0	583008256	57	4995
2026-01-18 11:58:27.97	291.81	15.78	-43.3	-45.8	18.0	0.00e+00	0	40	0	585105408	57	5001
2026-01-18 11:58:28.69	291.96	15.75	-43.2	-45.7	18.0	0.00e+00	0	40	0	586153984	57	4969
2026-01-18 11:58:30.22	292.28	15.71	-43.2	-45.7	18.1	0.00e+00	0	40	0	589299712	57	4945
2026-01-18 11:58:30.93	292.42	15.68	-43.2	-45.6	18.1	0.00e+00	0	40	0	590348288	57	4900
2026-01-18 11:58:32.21	292.69	15.64	-43.4	-46.0	17.8	0.00e+00	0	40	0	592445440	57	5115
2026-01-18 11:58:32.94	292.84	15.62	-43.5	-46.0	17.8	0.00e+00	0	40	0	594542592	57	5136
2026-01-18 11:58:34.22	293.11	15.58	-43.4	-45.9	17.9	0.00e+00	0	40	0	596639744	57	5076
2026-01-18 11:58:34.95	293.26	15.56	-43.2	-45.7	18.1	0.00e+00	0	40	0	597688320	57	4956
2026-01-18 11:58:36.23	293.52	15.51	-42.9	-45.3	18.4	0.00e+00	0	40	0	600834048	57	4754
2026-01-18 11:58:36.94	293.67	15.49	-42.9	-45.3	18.5	0.00e+00	0	40	0	601882624	57	4711
2026-01-18 11:58:38.23	293.93	15.45	-42.5	-44.9	18.8	0.00e+00	0	40	0	603979776	56	4762
2026-01-18 11:58:38.94	294.08	15.42	-42.4	-44.7	19.0	0.00e+00	0	40	0	606076928	56	4681
2026-01-18 11:58:40.22	294.34	15.38	-42.2	-44.4	19.2	0.00e+00	0	40	0	608174080	56	4524
2026-01-18 11:58:40.93	294.48	15.36	-42.2	-44.5	19.2	0.00e+00	0	40	0	609222656	56	4569
2026-01-18 11:58:42.21	294.74	15.31	-42.4	-44.7	19.0	0.00e+00	0	40	0	611319808	56	4664
2026-01-18 11:58:43.09	294.92	15.28	-42.5	-44.8	18.9	0.00e+00	0	41	0	613416960	56	4740
2026-01-18 11:58:44.51	295.21	15.23	-42.7	-45.0	18.7	0.00e+00	0	41	0	615514112	56	4856
2026-01-18 11:58:45.22	295.35	15.21	-42.7	-45.1	18.6	0.00e+00	0	40	0	617611264	56	4900
2026-01-18 11:58:46.50	295.61	15.16	-42.8	-45.2	18.5	0.00e+00	0	40	0	619708416	56	4959
2026-01-18 11:58:47.21	295.75	15.14	-42.9	-45.3	18.4	0.00e+00	0	40	0	620756992	56	4991
2026-01-18 11:58:48.76	296.06	15.08	-42.8	-45.1	18.6	0.00e+00	0	40	0	623902720	56	4926
2026-01-18 11:58:49.47	296.21	15.05	-42.8	-45.2	18.5	0.00e+00	0	40	0	624951296	56	4942
2026-01-18 11:58:50.74	296.46	15.01	-42.8	-45.2	18.5	0.00e+00	0	40	0	628097024	56	4938
2026-01-18 11:58:51.47	296.60	14.98	-43.0	-45.4	18.3	0.00e+00	0	40	0	629145600	56	5070
2026-01-18 11:58:52.75	296.86	14.93	-43.2	-45.7	18.1	0.00e+00	0	40	0	631242752	56	5230
2026-01-18 11:58:53.47	297.00	14.91	-43.3	-45.9	17.9	0.00e+00	0	40	0	633339904	57	5058
2026-01-18 11:58:54.75	297.25	14.86	-43.4	-45.9	17.8	0.00e+00	0	40	0	635437056	57	5065
2026-01-18 11:58:55.48	297.40	14.83	-43.1	-45.6	18.1	0.00e+00	0	40	0	636485632	57	4920
2026-01-18 11:58:56.76	297.65	14.78	-43.2	-45.6	18.1	0.00e+00	0	40	0	638582784	57	4926
2026-01-18 11:58:57.47	297.79	14.75	-43.1	-45.6	18.1	0.00e+00	0	40	0	640679936	57	4897
2026-01-18 11:58:58.75	298.04	14.70	-43.0	-45.5	18.2	0.00e+00	0	40	0	642777088	57	4817
2026-01-18 11:58:59.48	298.18	14.67	-43.0	-45.4	18.3	0.00e+00	0	40	0	643825664	57	4808
2026-01-18 11:59:00.76	298.43	14.62	-43.0	-45.4	18.3	0.00e+00	0	40	0	645922816	57	4804
2026-01-18 11:59:01.47	298.57	14.60	-42.9	-45.3	18.4	0.00e+00	0	40	0	648019968	57	4753
2026-01-18 11:59:02.75	298.81	14.55	-43.0	-45.4	18.2	0.00e+00	0	40	0	650117120	57	4810
2026-01-18 11:59:03.47	298.95	14.52	-42.8	-45.2	18.5	0.00e+00	0	40	0	651165696	57	4680
2026-01-18 11:59:04.75	299.20	14.46	-42.9	-45.3	18.4	0.00e+00	0	40	0	654311424	57	4706
2026-01-18 11:59:05.46	299.34	14.44	-42.8	-45.2	18.5	0.00e+00	0	40	0	655360000	57	4686
2026-01-18 11:59:06.74	299.58	14.38	-42.9	-45.3	18.4	0.00e+00	0	40	0	657457152	57	4727
2026-01-18 11:59:07.45	299.72	14.35	-42.9	-45.4	18.3	0.00e+00	0	40	0	658505728	57	4773
2026-01-18 11:59:08.77	299.97	14.30	-43.2	-45.7	18.1	0.00e+00	0	40	0	661651456	57	4944
2026-01-18 11:59:09.48	300.10	14.27	-43.2	-45.7	18.1	0.00e+00	0	40	0	662700032	57	4929
2026-01-18 11:59:10.82	300.36	14.22	-43.4	-46.0	17.7	0.00e+00	0	40	0	665845760	57	5117
2026-01-18 11:59:11.53	300.49	14.19	-43.3	-45.8	17.9	0.00e+00	0	40	0	666894336	57	4985
2026-01-18 11:59:12.81	300.73	14.13	-43.3	-45.8	17.9	0.00e+00	0	41	0	668991488	57	5028
2026-01-18 11:59:13.55	300.87	14.10	-43.4	-46.0	17.8	0.00e+00	0	40	0	670040064	57	5115
2026-01-18 11:59:14.83	301.11	14.05	-43.7	-46.3	17.5	0.00e+00	0	40	0	673185792	57	5293
2026-01-18 11:59:15.54	301.24	14.02	-43.9	-46.5	17.3	0.00e+00	0	40	0	674234368	58	5156
2026-01-18 11:59:16.82	301.48	13.96	-44.1	-46.9	16.9	0.00e+00	0	40	0	676331520	58	5367
2026-01-18 11:59:17.53	301.61	13.93	-44.3	-47.2	16.7	0.00e+00	0	40	0	678428672	59	5239
2026-01-18 11:59:18.81	301.85	13.88	-44.4	-47.3	16.5	0.00e+00	0	40	0	680525824	59	5306
2026-01-18 11:59:19.54	301.98	13.84	-44.6	-47.5	16.3	0.00e+00	0	40	0	681574400	59	5447
2026-01-18 11:59:20.81	302.22	13.79	-44.6	-47.5	16.3	0.00e+00	0	40	0	683671552	59	5443
2026-01-18 11:59:21.60	302.36	13.75	-44.4	-47.3	16.6	0.00e+00	0	40	0	685768704	59	5298
2026-01-18 11:59:23.07	302.63	13.69	-44.3	-47.1	16.7	0.00e+00	0	40	0	687865856	59	5214
2026-01-18 11:59:23.78	302.76	13.66	-44.2	-47.0	16.8	0.00e+00	0	40	0	689963008	59	5157
2026-01-18 11:59:25.23	303.02	13.59	-44.2	-47.1	16.7	0.00e+00	0	40	0	692060160	59	5164
2026-01-18 11:59:25.94	303.15	13.56	-44.1	-46.9	16.9	0.00e+00	0	40	0	694157312	59	5081
2026-01-18 11:59:27.29	303.39	13.50	-44.2	-47.1	16.7	0.00e+00	0	40	0	696254464	59	5185
2026-01-18 11:59:28.27	303.57	13.46	-44.3	-47.2	16.5	0.00e+00	0	40	0	698351616	59	5276
2026-01-18 11:59:29.27	303.75	13.41	-44.5	-47.5	16.4	0.00e+00	0	40	0	699400192	59	5413
2026-01-18 11:59:30.26	303.93	13.37	-44.7	-47.8	16.1	0.00e+00	0	40	0	701497344	60	5331
2026-01-18 11:59:31.25	304.10	13.32	-44.7	-47.8	16.1	0.00e+00	0	40	0	703594496	60	5335
2026-01-18 11:59:32.25	304.28	13.28	-44.9	-48.1	15.8	0.00e+00	0	40	0	705691648	60	5489
2026-01-18 11:59:33.24	304.46	13.23	-44.8	-47.8	16.0	0.00e+00	0	40	0	707788800	60	5337
2026-01-18 11:59:34.24	304.63	13.18	-44.5	-47.5	16.3	0.00e+00	0	40	0	708837376	60	5135
2026-01-18 11:59:35.27	304.81	13.14	-44.6	-47.6	16.3	0.00e+00	0	40	0	710934528	60	5184
2026-01-18 11:59:36.26	304.99	13.09	-44.4	-47.4	16.5	0.00e+00	0	40	0	713031680	60	5061
2026-01-18 11:59:37.33	305.18	13.04	-44.5	-47.4	16.4	0.00e+00	0	40	0	715128832	60	5078
2026-01-18 11:59:38.24	305.33	13.00	-44.4	-47.3	16.5	0.00e+00	0	40	0	717225984	60	5005
2026-01-18 11:59:39.28	305.52	12.95	-44.3	-47.1	16.7	0.00e+00	0	40	0	718274560	60	4906
2026-01-18 11:59:40.27	305.69	12.90	-44.3	-47.1	16.7	0.00e+00	0	40	0	720371712	60	4910
2026-01-18 11:59:41.27	305.86	12.86	-44.5	-47.5	16.4	0.00e+00	0	40	0	722468864	60	5114
2026-01-18 11:59:42.26	306.03	12.81	-44.8	-47.8	16.1	0.00e+00	0	40	0	724566016	60	5282
2026-01-18 11:59:43.26	306.20	12.76	-44.9	-48.0	15.8	0.00e+00	0	40	0	725614592	60	5424
2026-01-18 11:59:44.25	306.37	12.72	-45.1	-48.3	15.6	0.00e+00	0	40	0	727711744	60	5635
2026-01-18 11:59:45.25	306.54	12.67	-45.2	-48.4	15.4	7.00e-07	0	40	0	729808896	60	5722
2026-01-18 11:59:46.24	306.71	12.62	-45.2	-48.5	15.4	0.00e+00	0	40	0	731906048	61	5415
2026-01-18 11:59:47.24	306.88	12.57	-45.5	-49.0	14.8	0.00e+00	0	40	0	734003200	61	5776
2026-01-18 11:59:48.23	307.05	12.52	-45.6	-49.2	14.7	0.00e+00	0	40	0	735051776	61	5868
2026-01-18 11:59:49.24	307.22	12.48	-45.9	-49.6	14.2	1.50e-06	0	40	0	737148928	62	5852
2026-01-18 11:59:50.27	307.39	12.43	-45.9	-49.6	14.2	0.00e+00	0	40	0	739246080	62	5838
2026-01-18 11:59:51.30	307.56	12.38	-45.6	-49.0	14.8	0.00e+00	0	40	0	741343232	62	5436
2026-01-18 11:59:52.29	307.73	12.33	-45.5	-48.9	14.9	0.00e+00	0	40	0	743440384	62	5352
2026-01-18 11:59:53.36	307.91	12.28	-45.2	-48.4	15.4	0.00e+00	0	40	0	745537536	62	5069
2026-01-18 11:59:54.25	308.06	12.23	-44.8	-47.9	15.8	0.00e+00	0	40	0	746586112	61	5088
2026-01-18 11:59:55.39	308.24	12.18	-44.7	-47.8	16.0	0.00e+00	0	40	0	748683264	61	5027
2026-01-18 11:59:56.24	308.38	12.14	-44.5	-47.6	16.2	0.00e+00	0	40	0	750780416	61	4895
2026-01-18 11:59:57.59	308.61	12.07	-44.5	-47.5	16.3	0.00e+00	0	40	0	752877568	60	5140
2026-01-18 11:59:58.31	308.72	12.03	-44.5	-47.5	16.3	0.00e+00	0	40	0	753926144	60	5158
2026-01-18 11:59:59.78	308.96	11.96	-44.7	-47.8	16.0	0.00e+00	0	40	0	757071872	60	5329
2026-01-18 12:00:00.49	309.08	11.93	-44.6	-47.7	16.1	0.00e+00	0	40	0	758120448	60	5247
2026-01-18 12:00:01.77	309.29	11.86	-44.8	-48.1	15.7	0.00e+00	0	40	0	761266176	60	5515
2026-01-18 12:00:02.48	309.40	11.83	-44.6	-47.8	15.9	0.00e+00	0	40	0	762314752	60	5337
2026-01-18 12:00:03.76	309.61	11.76	-44.7	-47.8	16.0	0.00e+00	0	40	0	764411904	60	5335
2026-01-18 12:00:04.48	309.72	11.73	-44.8	-48.0	15.8	0.00e+00	0	41	0	765460480	60	5434
2026-01-18 12:00:05.76	309.93	11.66	-44.6	-47.7	16.1	0.00e+00	0	40	0	768606208	60	5241
2026-01-18 12:00:06.47	310.04	11.63	-44.5	-47.7	16.1	0.00e+00	0	40	0	769654784	60	5224
2026-01-18 12:00:07.75	310.24	11.56	-44.6	-47.8	16.0	0.00e+00	0	40	0	771751936	60	5282
2026-01-18 12:00:08.50	310.36	11.53	-44.6	-47.7	16.1	0.00e+00	0	40	0	773849088	60	5252
2026-01-18 12:00:09.78	310.56	11.46	-44.9	-48.2	15.6	0.00e+00	0	41	0	775946240	60	5555
2026-01-18 12:00:10.50	310.68	11.43	-45.0	-48.3	15.5	0.00e+00	0	40	0	776994816	60	5621
2026-01-18 12:00:11.78	310.88	11.36	-45.1	-48.4	15.3	0.00e+00	0	40	0	780140544	60	5710
2026-01-18 12:00:12.68	311.02	11.32	-45.1	-48.6	15.2	0.00e+00	0	41	0	781189120	61	5476
2026-01-18 12:00:14.10	311.24	11.24	-45.1	-48.6	15.2	0.00e+00	0	40	0	784334848	61	5468
2026-01-18 12:00:14.81	311.35	11.21	-45.2	-48.7	15.1	0.00e+00	0	41	0	785383424	61	5543
2026-01-18 12:00:16.10	311.55	11.14	-45.1	-48.5	15.3	0.00e+00	0	40	0	787480576	61	5463
2026-01-18 12:00:16.81	311.66	11.11	-45.2	-48.6	15.2	0.00e+00	0	40	0	788529152	61	5508
2026-01-18 12:00:18.12	311.86	11.04	-45.1	-48.4	15.3	0.00e+00	0	40	0	791674880	61	5390
2026-01-18 12:00:18.89	311.98	11.00	-45.1	-48.4	15.3	0.00e+00	0	41	0	792723456	61	5398
2026-01-18 12:00:20.17	312.17	10.93	-44.9	-48.1	15.7	0.00e+00	0	40	0	795869184	61	5218
2026-01-18 12:00:20.99	312.30	10.89	-44.6	-47.7	16.1	0.00e+00	0	40	0	796917760	61	4937
2026-01-18 12:00:22.13	312.47	10.83	-44.7	-47.9	15.9	0.00e+00	0	40	0	799014912	61	5056
2026-01-18 12:00:22.98	312.60	10.79	-44.5	-47.5	16.2	0.00e+00	0	40	0	801112064	61	4867
2026-01-18 12:00:24.12	312.77	10.73	-44.3	-47.3	16.4	0.00e+00	0	41	0	803209216	60	5029
2026-01-18 12:00:24.97	312.89	10.69	-44.3	-47.4	16.4	0.00e+00	0	40	0	804257792	60	5069
2026-01-18 12:00:26.11	313.06	10.63	-44.1	-47.1	16.7	0.00e+00	0	40	0	806354944	60	4876
2026-01-18 12:00:27.31	313.24	10.57	-44.2	-47.2	16.5	0.00e+00	0	41	0	808452096	60	4971
2026-01-18 12:00:28.33	313.39	10.51	-44.0	-46.9	16.8	0.00e+00	0	40	0	810549248	59	5047
2026-01-18 12:00:29.50	313.57	10.45	-43.9	-46.8	16.9	0.00e+00	0	40	0	812646400	59	5005
2026-01-18 12:00:30.35	313.69	10.41	-44.0	-46.9	16.8	0.00e+00	0	40	0	814743552	59	5043
2026-01-18 12:00:31.49	313.86	10.35	-44.1	-47.1	16.6	0.00e+00	0	40	0	816840704	59	5170
2026-01-18 12:00:32.34	313.98	10.31	-44.0	-46.9	16.8	0.00e+00	0	40	0	817889280	59	5050
2026-01-18 12:00:33.48	314.15	10.25	-44.1	-47.0	16.7	0.00e+00	0	40	0	819986432	59	5118
2026-01-18 12:00:34.33	314.27	10.20	-44.3	-47.2	16.4	0.00e+00	0	41	0	822083584	59	5265
2026-01-18 12:00:35.47	314.44	10.14	-44.1	-47.0	16.6	0.00e+00	0	40	0	824180736	59	5142
2026-01-18 12:00:36.32	314.56	10.10	-44.2	-47.1	16.6	0.00e+00	0	40	0	825229312	59	5160
2026-01-18 12:00:37.46	314.72	10.04	-44.1	-47.0	16.6	0.00e+00	0	40	0	827326464	59	5152
2026-01-18 12:00:38.31	314.84	10.00	-43.9	-46.7	16.9	0.00e+00	0	40	0	829423616	59	4972
2026-01-18 12:00:39.45	315.01	9.94	-43.9	-46.7	16.9	0.00e+00	0	40	0	831520768	59	4981
2026-01-18 12:00:40.30	315.13	9.89	-44.1	-46.9	16.7	0.00e+00	0	40	0	832569344	59	5086
2026-01-18 12:00:41.47	315.29	9.83	-43.9	-46.7	16.9	0.00e+00	0	40	0	835715072	59	4979
2026-01-18 12:00:42.32	315.41	9.79	-44.0	-46.8	16.9	0.00e+00	0	40	0	836763648	59	5002
2026-01-18 12:00:43.46	315.57	9.73	-43.9	-46.7	16.9	0.00e+00	0	40	0	838860800	59	4970
2026-01-18 12:00:44.31	315.69	9.68	-44.3	-47.2	16.4	0.00e+00	0	41	0	840957952	59	5275
2026-01-18 12:00:45.45	315.85	9.62	-44.1	-47.0	16.6	0.00e+00	0	40	0	843055104	59	5126
2026-01-18 12:00:46.30	315.97	9.58	-44.1	-47.0	16.6	0.00e+00	0	40	0	844103680	59	5136
2026-01-18 12:00:47.66	316.16	9.51	-44.3	-47.3	16.4	0.00e+00	0	40	0	847249408	59	5281
2026-01-18 12:00:48.37	316.26	9.47	-44.3	-47.3	16.4	0.00e+00	0	40	0	848297984	59	5294
2026-01-18 12:00:49.65	316.43	9.40	-44.3	-47.2	16.5	0.00e+00	0	40	0	850395136	59	5231
2026-01-18 12:00:50.36	316.53	9.36	-44.1	-47.0	16.6	0.00e+00	0	40	0	851443712	59	5134
2026-01-18 12:00:51.64	316.70	9.30	-44.0	-46.8	16.8	0.00e+00	0	40	0	854589440	59	5038
2026-01-18 12:00:52.42	316.81	9.26	-44.2	-47.0	16.6	7.00e-07	0	40	0	855638016	59	5147
2026-01-18 12:00:53.65	316.98	9.19	-43.9	-46.7	16.8	0.00e+00	0	40	0	857735168	59	4968
2026-01-18 12:00:54.51	317.09	9.15	-43.7	-46.4	17.2	0.00e+00	0	40	0	859832320	59	4802
2026-01-18 12:00:55.64	317.24	9.09	-43.8	-46.5	17.1	0.00e+00	0	40	0	861929472	59	4848
2026-01-18 12:00:56.50	317.36	9.04	-43.7	-46.5	17.1	0.00e+00	0	40	0	862978048	59	4821
2026-01-18 12:00:57.63	317.51	8.98	-45.0	-48.2	15.8	0.00e+00	0	40	0	866123776	60	5574
2026-01-18 12:00:58.48	317.62	8.94	-49.8	-65.1	3.8	7.33e-01	0	40	104	866123776	70	21954
2026-01-18 12:00:59.62	317.78	8.88	-49.6	-65.3	3.8	1.49e+00	0	40	104	866123776	70	22476
2026-01-18 12:01:00.47	317.89	8.83	-49.9	-65.5	3.8	1.49e+00	0	40	104	866123776	70	22790
2026-01-18 12:01:01.61	318.04	8.77	-50.2	-65.5	3.8	1.49e+00	0	40	104	866123776	71	21736
2026-01-18 12:01:02.46	318.15	8.73	-50.3	-65.6	3.8	1.49e+00	0	40	104	866123776	71	21868
2026-01-18 12:01:03.61	318.30	8.67	-50.2	-65.6	3.8	1.49e+00	0	40	104	866123776	71	22004
2026-01-18 12:01:04.46	318.41	8.62	-50.2	-65.7	3.8	1.49e+00	0	41	104	866123776	71	22060
2026-01-18 12:01:05.66	318.57	8.56	-50.0	-65.7	3.8	1.49e+00	0	40	104	866123776	71	22099
2026-01-18 12:01:06.51	318.68	8.51	-50.2	-65.7	3.8	1.49e+00	0	40	104	866123776	71	22156
2026-01-18 12:01:07.71	318.83	8.45	-50.4	-65.7	3.8	1.49e+00	0	40	104	866123776	71	22164
2026-01-18 12:01:08.56	318.94	8.40	-50.5	-65.7	3.8	1.49e+00	0	40	104	866123776	71	22134
2026-01-18 12:01:09.70	319.09	8.34	-50.5	-65.7	3.8	1.49e+00	0	40	104	866123776	71	22211
2026-01-18 12:01:10.55	319.20	8.30	-50.5	-65.7	3.8	1.49e+00	0	40	104	866123776	71	22169
2026-01-18 12:01:11.68	319.34	8.24	-50.5	-65.7	3.8	1.49e+00	0	40	104	866123776	71	22154
2026-01-18 12:01:12.54	319.45	8.19	-50.4	-65.7	3.8	1.49e+00	0	40	104	866123776	71	22193
2026-01-18 12:01:13.67	319.59	8.13	-50.4	-65.7	3.8	1.49e+00	0	40	104	866123776	71	22226
2026-01-18 12:01:14.53	319.70	8.09	-50.5	-65.7	3.8	1.49e+00	0	40	104	866123776	71	22195
2026-01-18 12:01:15.66	319.84	8.03	-50.4	-65.7	3.8	1.49e+00	0	40	104	866123776	71	22015
2026-01-18 12:01:16.51	319.95	7.98	-50.2	-65.7	3.8	1.49e+00	0	40	104	866123776	71	22009
2026-01-18 12:01:17.65	320.09	7.92	-50.1	-65.7	3.8	1.49e+00	0	40	104	866123776	71	22016
2026-01-18 12:01:18.50	320.20	7.88	-50.1	-65.6	3.8	1.49e+00	0	40	104	866123776	71	21939
2026-01-18 12:01:19.64	320.34	7.82	-50.1	-65.6	3.8	1.49e+00	0	40	104	866123776	71	21803
2026-01-18 12:01:20.49	320.44	7.77	-50.1	-65.6	3.8	1.49e+00	0	40	104	866123776	71	21821
2026-01-18 12:01:21.63	320.58	7.71	-50.1	-65.6	3.8	1.49e+00	0	40	104	866123776	71	21805
2026-01-18 12:01:22.48	320.69	7.67	-50.1	-65.6	3.8	1.49e+00	0	40	104	866123776	71	21840
2026-01-18 12:01:23.61	320.83	7.61	-50.1	-65.6	3.8	1.49e+00	0	40	104	866123776	71	21791
2026-01-18 12:01:24.46	320.93	7.56	-50.1	-65.6	3.8	1.49e+00	0	40	104	866123776	71	21796
2026-01-18 12:01:25.60	321.07	7.50	-50.1	-65.6	3.8	1.49e+00	0	40	104	866123776	71	21825
2026-01-18 12:01:26.45	321.17	7.46	-50.1	-65.6	3.8	1.49e+00	0	40	104	866123776	71	21862
2026-01-18 12:01:27.59	321.31	7.40	-50.1	-65.5	3.8	1.49e+00	0	40	104	866123776	71	21739
2026-01-18 12:01:28.44	321.41	7.35	-50.1	-65.6	3.8	1.49e+00	0	40	104	866123776	71	21877
2026-01-18 12:01:29.57	321.55	7.29	-50.1	-65.6	3.8	1.49e+00	0	40	104	866123776	71	21773
2026-01-18 12:01:30.42	321.65	7.25	-50.1	-65.6	3.8	1.49e+00	0	40	104	866123776	71	21800
2026-01-18 12:01:31.56	321.78	7.19	-50.1	-65.6	3.8	1.49e+00	0	40	104	866123776	71	21815
2026-01-18 12:01:32.41	321.88	7.14	-50.1	-65.6	3.8	1.49e+00	0	40	104	866123776	71	21774
2026-01-18 12:01:33.55	322.02	7.08	-50.1	-65.6	3.8	1.49e+00	0	40	104	866123776	71	21771
2026-01-18 12:01:34.40	322.12	7.04	-50.1	-65.5	3.8	1.49e+00	0	40	104	866123776	71	21732
2026-01-18 12:01:35.53	322.25	6.98	-50.1	-65.5	3.8	1.49e+00	0	40	104	866123776	71	21697
2026-01-18 12:01:36.38	322.35	6.93	-50.1	-65.5	3.8	1.49e+00	0	40	104	866123776	71	21741
2026-01-18 12:01:37.52	322.48	6.87	-50.1	-65.6	3.8	1.49e+00	0	40	104	866123776	71	21813
2026-01-18 12:01:38.37	322.58	6.83	-50.1	-65.5	3.8	1.49e+00	0	40	104	866123776	71	21753
2026-01-18 12:01:39.51	322.71	6.76	-50.1	-65.6	3.8	1.49e+00	0	40	104	866123776	71	21787
2026-01-18 12:01:40.36	322.81	6.72	-50.1	-65.5	3.8	1.49e+00	0	40	104	866123776	71	21749
2026-01-18 12:01:41.49	322.94	6.66	-50.1	-65.6	3.8	1.49e+00	0	40	104	866123776	71	21802
2026-01-18 12:01:42.34	323.04	6.62	-50.1	-65.5	3.8	1.49e+00	0	40	104	866123776	71	21747
2026-01-18 12:01:43.48	323.17	6.56	-50.1	-65.5	3.8	1.49e+00	0	40	104	866123776	71	21693
2026-01-18 12:01:44.33	323.26	6.51	-50.1	-65.6	3.8	1.49e+00	0	40	104	866123776	71	21783
2026-01-18 12:01:45.47	323.39	6.45	-50.1	-65.6	3.8	1.49e+00	0	40	104	866123776	71	21770
2026-01-18 12:01:46.32	323.49	6.41	-50.1	-65.5	3.8	1.49e+00	0	40	104	866123776	71	21699
2026-01-18 12:01:47.45	323.61	6.35	-50.1	-65.6	3.8	1.49e+00	0	40	104	866123776	71	21825
2026-01-18 12:01:48.30	323.71	6.30	-50.1	-65.5	3.8	1.49e+00	0	41	104	866123776	71	21731
2026-01-18 12:01:49.44	323.84	6.24	-50.1	-65.5	3.8	1.49e+00	0	40	104	866123776	71	21747
2026-01-18 12:01:50.29	323.93	6.20	-50.1	-65.5	3.8	1.49e+00	0	40	104	866123776	71	21691
2026-01-18 12:01:51.43	324.06	6.14	-50.1	-65.6	3.8	1.49e+00	0	41	104	866123776	71	21766
2026-01-18 12:01:52.28	324.15	6.09	-50.1	-65.6	3.8	1.49e+00	0	41	104	866123776	71	21768
2026-01-18 12:01:53.41	324.28	6.03	-50.1	-65.5	3.8	1.49e+00	0	40	104	866123776	71	21746
2026-01-18 12:01:54.27	324.37	5.99	-50.1	-65.5	3.8	1.49e+00	0	40	104	866123776	71	21732
2026-01-18 12:01:55.40	324.49	5.93	-50.1	-65.5	3.8	1.49e+00	0	40	104	866123776	71	21689
2026-01-18 12:01:56.25	324.59	5.88	-50.1	-65.6	3.8	1.49e+00	0	40	104	866123776	71	21781
2026-01-18 12:01:57.38	324.71	5.82	-50.1	-65.6	3.8	1.49e+00	0	40	104	866123776	71	21763
2026-01-18 12:01:58.24	324.80	5.78	-50.1	-65.6	3.8	1.49e+00	0	40	104	866123776	71	21775
2026-01-18 12:01:59.37	324.92	5.72	-50.1	-65.6	3.8	1.49e+00	0	40	104	866123776	71	21757
2026-01-18 12:02:00.22	325.01	5.67	-50.1	-65.6	3.8	1.49e+00	0	40	104	866123776	71	21875
2026-01-18 12:02:01.36	325.14	5.61	-50.1	-65.6	3.8	1.49e+00	0	40	104	866123776	71	21804
2026-01-18 12:02:02.21	325.23	5.57	-50.1	-65.6	3.8	1.49e+00	0	40	104	866123776	71	21782
2026-01-18 12:02:03.34	325.35	5.51	-50.1	-65.6	3.8	1.49e+00	0	40	104	866123776	71	21774
2026-01-18 12:02:04.19	325.44	5.47	-50.1	-65.5	3.8	1.49e+00	0	40	104	866123776	71	21689
2026-01-18 12:02:05.33	325.56	5.41	-50.1	-65.6	3.8	1.49e+00	0	40	104	866123776	71	21772
2026-01-18 12:02:06.18	325.65	5.36	-50.1	-65.5	3.8	1.49e+00	0	40	104	866123776	71	21749
2026-01-18 12:02:07.32	325.77	5.30	-50.1	-65.5	3.8	1.49e+00	0	40	104	866123776	71	21755
2026-01-18 12:02:08.17	325.86	5.26	-50.1	-65.5	3.8	1.49e+00	0	40	104	866123776	71	21749
2026-01-18 12:02:09.30	325.97	5.20	-50.1	-65.6	3.8	1.49e+00	0	40	104	866123776	71	21815
2026-01-18 12:02:10.15	326.06	5.15	-50.1	-65.5	3.8	1.49e+00	0	40	104	866123776	71	21732
2026-01-18 12:02:11.29	326.18	5.10	-50.1	-65.5	3.8	1.49e+00	0	40	104	866123776	71	21754
2026-01-18 12:02:12.14	326.27	5.05	-50.1	-65.6	3.8	1.49e+00	0	40	104	866123776	71	21767
2026-01-18 12:02:13.27	326.38	4.99	-50.1	-65.5	3.8	1.49e+00	0	40	104	866123776	71	21715

#Closed at: 2026-01-18 12:02:14
#Recorded file [866 MB]: D:/Data/31040_260118_145210.dat