passes_logs/2026/01/18/T1/T1__20260118_085044_NOAA_20_JPSS-1_rec.log

#Pass ID: 20260118_085044_NOAA 20 (JPSS-1)
#Satellite: NOAA 20 (JPSS-1)
#Configuration: NOAA 20
#almurnet v.1.7.20251203
#Start time: 2026-01-18 08:50:44

#Version: 2.0.20230620
#Station: T1
#Location: 37.570604 lon 55.790049 lat
#TLE: 1 43013U 17073A   26017.58553584  .00000066  00000+0  52288-4 0  9998
#TLE: 2 43013  98.7639 318.4977 0001406  35.6039 324.5231 14.19536575423107

#Time	Az	El	Level	Level2	SNR	BER	BlckErr	Temp	State	Recorded	gain1	gain2
2026-01-18 08:50:44.03	126.23	4.97	-48.4	-63.7	3.8	1.49e+00	0	37	0	0	68	20796
2026-01-18 08:50:45.02	126.18	5.04	-48.5	-63.7	3.8	1.49e+00	0	37	104	0	68	20786
2026-01-18 08:50:46.02	126.12	5.10	-48.4	-63.7	3.8	1.49e+00	0	37	104	0	68	20862
2026-01-18 08:50:47.01	126.07	5.17	-48.5	-63.6	3.8	1.49e+00	0	37	104	0	68	20715
2026-01-18 08:50:48.01	126.01	5.24	-48.5	-63.6	3.8	1.49e+00	0	37	104	0	68	20616
2026-01-18 08:50:49.00	125.96	5.30	-48.4	-63.6	3.8	1.49e+00	0	37	104	0	68	20701
2026-01-18 08:50:50.00	125.90	5.37	-48.5	-63.6	3.8	1.49e+00	0	37	104	0	68	20639
2026-01-18 08:50:50.99	125.84	5.44	-48.5	-63.5	3.8	1.49e+00	0	37	104	0	68	20531
2026-01-18 08:50:51.99	125.79	5.51	-48.4	-63.6	3.8	1.49e+00	0	37	104	0	68	20591
2026-01-18 08:50:52.98	125.73	5.57	-48.5	-63.6	3.8	1.49e+00	0	37	104	0	68	20571
2026-01-18 08:50:53.98	125.67	5.64	-48.4	-63.5	3.8	1.49e+00	0	37	104	0	68	20518
2026-01-18 08:50:54.98	125.61	5.71	-48.5	-63.6	3.8	1.49e+00	0	37	104	0	68	20592
2026-01-18 08:50:55.97	125.55	5.78	-48.5	-63.6	3.8	1.49e+00	0	38	104	0	68	20656
2026-01-18 08:50:56.97	125.50	5.85	-48.4	-63.6	3.8	1.49e+00	0	37	104	0	68	20690
2026-01-18 08:50:57.96	125.44	5.92	-48.5	-63.6	3.8	1.49e+00	0	38	104	0	68	20746
2026-01-18 08:50:58.96	125.38	5.98	-48.4	-63.6	3.8	1.49e+00	0	38	104	0	68	20755
2026-01-18 08:50:59.95	125.32	6.05	-48.4	-63.7	3.8	1.49e+00	0	38	104	0	68	20831
2026-01-18 08:51:00.95	125.26	6.12	-48.4	-63.6	3.8	1.49e+00	0	38	104	0	68	20744
2026-01-18 08:51:01.95	125.20	6.19	-48.4	-63.6	3.8	1.49e+00	0	38	104	0	68	20588
2026-01-18 08:51:02.94	125.14	6.26	-48.4	-63.6	3.8	1.49e+00	0	38	104	0	68	20648
2026-01-18 08:51:03.94	125.08	6.33	-48.4	-63.6	3.8	1.49e+00	0	38	104	0	68	20638
2026-01-18 08:51:04.94	125.02	6.40	-48.4	-63.6	3.8	1.49e+00	0	38	104	0	68	20626
2026-01-18 08:51:05.93	124.96	6.47	-48.4	-63.6	3.8	1.49e+00	0	38	104	0	68	20591
2026-01-18 08:51:06.93	124.89	6.54	-48.4	-63.6	3.8	1.49e+00	0	38	104	0	68	20624
2026-01-18 08:51:07.92	124.83	6.61	-48.4	-63.6	3.8	1.49e+00	0	38	104	0	68	20546
2026-01-18 08:51:08.92	124.77	6.68	-48.4	-63.5	3.8	1.49e+00	0	38	104	0	68	20526
2026-01-18 08:51:09.92	124.71	6.75	-48.4	-63.5	3.8	1.49e+00	0	38	104	0	68	20458
2026-01-18 08:51:10.91	124.65	6.82	-48.5	-63.5	3.8	1.49e+00	0	38	104	0	68	20505
2026-01-18 08:51:11.91	124.58	6.89	-48.4	-63.6	3.8	1.49e+00	0	38	104	0	68	20543
2026-01-18 08:51:12.90	124.52	6.96	-48.4	-63.6	3.8	1.49e+00	0	38	104	0	68	20561
2026-01-18 08:51:13.90	124.46	7.03	-48.5	-63.5	3.8	1.49e+00	0	38	104	0	68	20475
2026-01-18 08:51:14.90	124.39	7.10	-48.4	-63.4	3.8	1.49e+00	0	38	104	0	68	20271
2026-01-18 08:51:15.89	124.33	7.17	-48.4	-63.3	3.8	1.49e+00	0	38	104	0	68	19928
2026-01-18 08:51:16.89	124.26	7.25	-48.4	-63.0	3.8	1.49e+00	0	38	104	0	68	19375
2026-01-18 08:51:17.89	124.20	7.32	-48.4	-62.9	3.8	1.49e+00	0	38	104	0	68	18996
2026-01-18 08:51:18.88	124.13	7.39	-48.4	-62.8	3.8	1.49e+00	0	38	104	0	68	18870
2026-01-18 08:51:19.88	124.07	7.46	-48.4	-62.7	3.8	1.49e+00	0	38	104	0	68	18638
2026-01-18 08:51:20.87	124.00	7.53	-48.4	-62.7	3.8	1.49e+00	0	38	104	0	68	18527
2026-01-18 08:51:21.87	123.93	7.61	-48.3	-62.2	3.8	1.49e+00	0	38	104	0	68	17553
2026-01-18 08:51:22.87	123.87	7.68	-48.2	-60.9	4.0	1.49e+00	0	38	104	0	68	15196
2026-01-18 08:51:23.86	123.80	7.75	-48.1	-59.0	4.5	1.26e+00	0	39	0	0	68	12222
2026-01-18 08:51:24.86	123.73	7.82	-47.5	-56.2	6.1	5.52e-01	0	38	0	2097152	67	9325
2026-01-18 08:51:25.86	123.67	7.90	-47.0	-53.9	8.2	1.66e-01	0	38	0	4194304	66	7591
2026-01-18 08:51:26.85	123.60	7.97	-46.5	-52.2	9.9	3.23e-02	0	38	0	5242880	65	6635
2026-01-18 08:51:27.85	123.53	8.04	-45.8	-50.6	11.8	1.52e-03	0	39	0	7340032	63	6134
2026-01-18 08:51:28.85	123.46	8.12	-45.3	-49.5	12.9	1.14e-04	0	39	0	9437184	62	5750
2026-01-18 08:51:29.84	123.39	8.19	-44.9	-48.9	13.5	1.90e-05	0	39	0	11534336	61	5666
2026-01-18 08:51:30.83	123.32	8.26	-44.5	-48.3	14.1	0.00e+00	0	38	0	13631488	61	5293
2026-01-18 08:51:31.83	123.25	8.34	-44.4	-48.1	14.3	7.00e-07	0	39	0	14680064	60	5488
2026-01-18 08:51:32.82	123.18	8.41	-44.4	-48.1	14.4	2.20e-06	0	39	0	16777216	60	5478
2026-01-18 08:51:33.82	123.11	8.49	-44.4	-48.0	14.4	0.00e+00	0	39	0	18874368	60	5456
2026-01-18 08:51:34.82	123.04	8.56	-44.5	-48.3	14.2	2.20e-06	0	39	0	20971520	60	5595
2026-01-18 08:51:35.81	122.97	8.64	-44.7	-48.5	14.0	3.80e-06	0	39	0	22020096	60	5744
2026-01-18 08:51:36.81	122.90	8.71	-45.0	-49.0	13.4	4.50e-06	0	39	0	24117248	60	6104
2026-01-18 08:51:37.81	122.83	8.79	-45.5	-49.9	12.5	8.23e-05	0	39	0	26214400	61	6412
2026-01-18 08:51:38.80	122.75	8.86	-46.2	-51.3	11.1	6.63e-04	0	39	0	28311552	62	7052
2026-01-18 08:51:39.80	122.68	8.94	-46.7	-52.6	9.6	4.25e-03	0	39	0	30408704	63	7803
2026-01-18 08:51:40.79	122.61	9.01	-47.2	-54.7	7.5	3.03e-02	0	39	0	31457280	65	8808
2026-01-18 08:51:41.79	122.53	9.09	-46.4	-51.9	10.3	4.44e-02	0	39	0	33554432	64	6777
2026-01-18 08:51:42.79	122.46	9.17	-45.0	-49.0	13.4	1.38e-03	0	39	0	35651584	62	5453
2026-01-18 08:51:43.79	122.38	9.24	-48.1	-60.4	4.1	1.57e-03	0	39	0	37748736	66	16122
2026-01-18 08:51:44.79	122.31	9.32	-45.8	-50.5	11.5	8.17e-01	0	39	104	37748736	63	6116
2026-01-18 08:51:45.79	122.23	9.40	-46.5	-52.2	10.3	6.94e-05	0	39	0	38797312	63	7409
2026-01-18 08:51:46.79	122.16	9.47	-45.0	-49.0	13.6	1.78e-02	0	39	0	40894464	62	5406
2026-01-18 08:51:47.80	122.08	9.55	-44.9	-48.9	13.6	1.75e-05	0	39	0	42991616	61	5684
2026-01-18 08:51:48.80	122.00	9.63	-44.4	-48.0	14.5	1.50e-06	0	39	0	45088768	60	5456
2026-01-18 08:51:49.80	121.93	9.71	-44.0	-47.3	15.3	7.00e-07	0	39	0	46137344	59	5281
2026-01-18 08:51:50.80	121.85	9.78	-43.6	-46.7	15.9	0.00e+00	0	39	0	48234496	59	4949
2026-01-18 08:51:51.80	121.77	9.86	-43.7	-46.8	15.8	0.00e+00	0	39	0	50331648	59	4988
2026-01-18 08:51:52.80	121.69	9.94	-43.6	-46.7	15.8	0.00e+00	0	39	0	52428800	59	4962
2026-01-18 08:51:53.80	121.61	10.02	-43.6	-46.7	15.9	0.00e+00	0	39	0	53477376	59	4979
2026-01-18 08:51:54.80	121.53	10.10	-43.7	-46.8	15.8	0.00e+00	0	39	0	55574528	59	5037
2026-01-18 08:51:55.80	121.45	10.18	-43.6	-46.7	15.9	0.00e+00	0	39	0	57671680	59	4932
2026-01-18 08:51:56.80	121.37	10.25	-43.6	-46.7	16.0	0.00e+00	0	39	0	59768832	59	4927
2026-01-18 08:51:57.80	121.29	10.33	-43.5	-46.5	16.1	0.00e+00	0	39	0	61865984	58	5132
2026-01-18 08:51:58.80	121.21	10.41	-43.4	-46.3	16.3	0.00e+00	0	39	0	62914560	58	5038
2026-01-18 08:51:59.80	121.13	10.49	-43.4	-46.4	16.2	0.00e+00	0	39	0	65011712	58	5064
2026-01-18 08:52:00.80	121.05	10.57	-43.3	-46.2	16.4	0.00e+00	0	39	0	67108864	58	4974
2026-01-18 08:52:01.80	120.97	10.65	-43.5	-46.4	16.2	0.00e+00	0	39	0	69206016	58	5098
2026-01-18 08:52:02.80	120.88	10.73	-43.1	-45.9	16.7	0.00e+00	0	39	0	71303168	58	4810
2026-01-18 08:52:03.80	120.80	10.81	-43.1	-45.9	16.7	0.00e+00	0	39	0	72351744	57	5092
2026-01-18 08:52:04.80	120.72	10.89	-43.2	-46.1	16.6	0.00e+00	0	39	0	74448896	57	5174
2026-01-18 08:52:05.80	120.63	10.97	-43.2	-46.1	16.5	0.00e+00	0	39	0	76546048	57	5177
2026-01-18 08:52:06.80	120.55	11.06	-43.2	-46.1	16.6	0.00e+00	0	39	0	78643200	57	5183
2026-01-18 08:52:07.80	120.46	11.14	-43.1	-45.9	16.7	0.00e+00	0	39	0	80740352	57	5079
2026-01-18 08:52:08.80	120.37	11.22	-43.1	-45.9	16.7	0.00e+00	0	39	0	81788928	57	5091
2026-01-18 08:52:09.80	120.29	11.30	-43.1	-46.0	16.7	0.00e+00	0	39	0	83886080	57	5121
2026-01-18 08:52:10.80	120.20	11.38	-43.0	-45.8	16.9	0.00e+00	0	39	0	85983232	57	4998
2026-01-18 08:52:11.80	120.11	11.46	-43.0	-45.8	16.8	0.00e+00	0	39	0	88080384	57	5024
2026-01-18 08:52:12.80	120.03	11.55	-43.1	-45.9	16.8	0.00e+00	0	39	0	89128960	57	5066
2026-01-18 08:52:13.80	119.94	11.63	-43.3	-46.1	16.5	0.00e+00	0	39	0	91226112	57	5212
2026-01-18 08:52:14.80	119.85	11.71	-43.3	-46.2	16.5	0.00e+00	0	39	0	93323264	57	5256
2026-01-18 08:52:15.80	119.76	11.79	-43.3	-46.1	16.6	0.00e+00	0	39	0	95420416	57	5200
2026-01-18 08:52:16.81	119.67	11.88	-43.1	-45.9	16.8	0.00e+00	0	39	0	97517568	57	5090
2026-01-18 08:52:17.81	119.58	11.96	-43.1	-45.9	16.8	0.00e+00	0	39	0	98566144	57	5065
2026-01-18 08:52:18.81	119.49	12.05	-43.0	-45.8	16.9	0.00e+00	0	39	0	100663296	57	4984
2026-01-18 08:52:19.81	119.40	12.13	-43.0	-45.7	17.0	0.00e+00	0	39	0	102760448	57	4964
2026-01-18 08:52:20.81	119.30	12.21	-43.1	-45.9	16.9	0.00e+00	0	39	0	104857600	57	5053
2026-01-18 08:52:21.82	119.21	12.30	-43.1	-45.8	16.9	0.00e+00	0	39	0	106954752	57	5021
2026-01-18 08:52:22.82	119.12	12.38	-43.0	-45.7	17.0	0.00e+00	0	39	0	108003328	57	4972
2026-01-18 08:52:23.82	119.02	12.47	-43.0	-45.8	16.9	0.00e+00	0	39	0	110100480	57	5019
2026-01-18 08:52:24.81	118.93	12.55	-43.0	-45.8	16.9	0.00e+00	0	39	0	112197632	57	5030
2026-01-18 08:52:25.82	118.83	12.64	-42.9	-45.6	17.1	0.00e+00	0	39	0	114294784	57	4923
2026-01-18 08:52:26.82	118.74	12.72	-42.9	-45.6	17.1	0.00e+00	0	39	0	115343360	57	4925
2026-01-18 08:52:27.82	118.64	12.81	-42.7	-45.4	17.3	0.00e+00	0	39	0	117440512	57	4785
2026-01-18 08:52:28.82	118.55	12.89	-42.7	-45.3	17.5	0.00e+00	0	39	0	119537664	57	4718
2026-01-18 08:52:29.82	118.45	12.98	-42.7	-45.3	17.4	0.00e+00	0	39	0	121634816	57	4754
2026-01-18 08:52:30.82	118.35	13.07	-42.8	-45.5	17.3	0.00e+00	0	39	0	123731968	57	4827
2026-01-18 08:52:31.82	118.25	13.15	-42.9	-45.6	17.1	0.00e+00	0	39	0	124780544	57	4912
2026-01-18 08:52:32.82	118.16	13.24	-43.0	-45.7	17.1	0.00e+00	0	39	0	126877696	57	4960
2026-01-18 08:52:33.83	118.05	13.33	-43.0	-45.8	17.0	0.00e+00	0	39	0	128974848	57	4999
2026-01-18 08:52:34.83	117.95	13.41	-42.9	-45.5	17.2	0.00e+00	0	39	0	131072000	57	4869
2026-01-18 08:52:35.83	117.85	13.50	-42.6	-45.2	17.6	0.00e+00	0	39	0	133169152	57	4661
2026-01-18 08:52:36.83	117.75	13.59	-42.6	-45.2	17.5	0.00e+00	0	39	0	134217728	57	4704
2026-01-18 08:52:37.83	117.65	13.68	-42.5	-45.1	17.7	0.00e+00	0	39	0	136314880	57	4613
2026-01-18 08:52:38.83	117.55	13.76	-42.7	-45.3	17.5	0.00e+00	0	39	0	138412032	57	4734
2026-01-18 08:52:39.83	117.45	13.85	-42.8	-45.5	17.3	0.00e+00	0	39	0	140509184	57	4849
2026-01-18 08:52:40.83	117.34	13.94	-42.9	-45.6	17.2	0.00e+00	0	39	0	142606336	57	4912
2026-01-18 08:52:41.83	117.24	14.03	-43.0	-45.8	17.1	0.00e+00	0	39	0	143654912	57	4996
2026-01-18 08:52:42.83	117.13	14.12	-42.8	-45.4	17.4	0.00e+00	0	39	0	145752064	57	4804
2026-01-18 08:52:43.83	117.03	14.21	-42.5	-45.1	17.7	0.00e+00	0	39	0	147849216	57	4634
2026-01-18 08:52:44.84	116.92	14.30	-42.6	-45.1	17.7	0.00e+00	0	39	0	149946368	57	4633
2026-01-18 08:52:45.83	116.81	14.39	-42.5	-45.0	17.8	0.00e+00	0	39	0	152043520	57	4592
2026-01-18 08:52:46.84	116.71	14.48	-42.8	-45.4	17.4	0.00e+00	0	39	0	153092096	56	5092
2026-01-18 08:52:47.84	116.60	14.57	-42.9	-45.6	17.3	0.00e+00	0	39	0	155189248	56	5166
2026-01-18 08:52:48.84	116.49	14.66	-43.0	-45.8	17.1	0.00e+00	0	39	0	157286400	56	5287
2026-01-18 08:52:49.84	116.38	14.75	-43.0	-45.7	17.2	0.00e+00	0	39	0	159383552	56	5221
2026-01-18 08:52:50.84	116.27	14.84	-42.9	-45.5	17.3	0.00e+00	0	39	0	160432128	56	5149
2026-01-18 08:52:51.84	116.16	14.93	-42.8	-45.4	17.5	0.00e+00	0	39	0	162529280	56	5055
2026-01-18 08:52:52.84	116.05	15.02	-42.8	-45.4	17.4	0.00e+00	0	39	0	164626432	56	5070
2026-01-18 08:52:53.84	115.93	15.11	-42.9	-45.5	17.3	0.00e+00	0	39	0	166723584	56	5147
2026-01-18 08:52:54.84	115.82	15.20	-42.9	-45.5	17.3	0.00e+00	0	39	0	168820736	56	5158
2026-01-18 08:52:55.83	115.71	15.30	-43.0	-45.6	17.2	0.00e+00	0	39	0	169869312	56	5209
2026-01-18 08:52:56.83	115.59	15.39	-43.0	-45.7	17.2	0.00e+00	0	39	0	171966464	56	5260
2026-01-18 08:52:57.83	115.48	15.48	-43.0	-45.7	17.2	0.00e+00	0	39	0	174063616	56	5240
2026-01-18 08:52:58.84	115.36	15.57	-43.0	-45.7	17.3	0.00e+00	0	39	0	176160768	56	5236
2026-01-18 08:52:59.84	115.24	15.67	-43.1	-45.8	17.1	0.00e+00	0	39	0	178257920	56	5316
2026-01-18 08:53:00.84	115.13	15.76	-43.0	-45.7	17.2	0.00e+00	0	39	0	179306496	56	5229
2026-01-18 08:53:01.84	115.01	15.85	-43.0	-45.7	17.3	0.00e+00	0	39	0	181403648	56	5223
2026-01-18 08:53:02.84	114.89	15.95	-43.0	-45.7	17.2	0.00e+00	0	39	0	183500800	56	5277
2026-01-18 08:53:03.84	114.77	16.04	-43.0	-45.7	17.2	0.00e+00	0	39	0	185597952	56	5252
2026-01-18 08:53:04.84	114.65	16.13	-43.0	-45.7	17.2	0.00e+00	0	39	0	187695104	56	5240
2026-01-18 08:53:05.85	114.53	16.23	-42.9	-45.5	17.4	0.00e+00	0	39	0	188743680	56	5107
2026-01-18 08:53:06.85	114.40	16.32	-42.8	-45.4	17.5	0.00e+00	0	39	0	190840832	56	5053
2026-01-18 08:53:07.85	114.28	16.42	-42.8	-45.4	17.5	0.00e+00	0	39	0	192937984	56	5071
2026-01-18 08:53:08.85	114.16	16.51	-42.8	-45.4	17.5	0.00e+00	0	39	0	195035136	56	5083
2026-01-18 08:53:09.85	114.03	16.61	-42.9	-45.6	17.3	0.00e+00	0	39	0	196083712	56	5191
2026-01-18 08:53:10.85	113.91	16.70	-43.0	-45.7	17.2	0.00e+00	0	39	0	198180864	56	5246
2026-01-18 08:53:11.85	113.78	16.80	-43.0	-45.7	17.2	0.00e+00	0	39	0	200278016	56	5249
2026-01-18 08:53:12.85	113.66	16.90	-43.1	-45.8	17.1	0.00e+00	0	39	0	202375168	56	5310
2026-01-18 08:53:13.86	113.53	16.99	-43.0	-45.6	17.2	0.00e+00	0	39	0	204472320	56	5217
2026-01-18 08:53:14.86	113.40	17.09	-43.0	-45.7	17.2	0.00e+00	0	39	0	205520896	56	5240
2026-01-18 08:53:15.86	113.27	17.19	-42.9	-45.6	17.3	0.00e+00	0	39	0	207618048	56	5204
2026-01-18 08:53:16.86	113.14	17.28	-43.0	-45.7	17.2	0.00e+00	0	39	0	209715200	56	5255
2026-01-18 08:53:17.86	113.01	17.38	-43.0	-45.8	17.1	0.00e+00	0	39	0	211812352	56	5295
2026-01-18 08:53:18.86	112.88	17.48	-43.0	-45.7	17.2	0.00e+00	0	39	0	213909504	56	5258
2026-01-18 08:53:19.86	112.74	17.57	-43.1	-45.9	17.0	0.00e+00	0	39	0	214958080	56	5375
2026-01-18 08:53:20.86	112.61	17.67	-43.2	-45.9	17.0	0.00e+00	0	39	0	217055232	56	5400
2026-01-18 08:53:21.86	112.48	17.77	-43.2	-45.9	17.0	0.00e+00	0	39	0	219152384	56	5391
2026-01-18 08:53:22.86	112.34	17.87	-43.1	-45.8	17.2	0.00e+00	0	39	0	221249536	57	4998
2026-01-18 08:53:23.86	112.20	17.97	-42.9	-45.5	17.4	0.00e+00	0	39	0	223346688	57	4863
2026-01-18 08:53:24.86	112.07	18.06	-42.8	-45.4	17.5	0.00e+00	0	39	0	224395264	57	4796
2026-01-18 08:53:25.86	111.93	18.16	-42.9	-45.6	17.4	0.00e+00	0	40	0	226492416	57	4884
2026-01-18 08:53:26.86	111.79	18.26	-42.9	-45.6	17.4	0.00e+00	0	39	0	228589568	57	4872
2026-01-18 08:53:27.86	111.65	18.36	-42.8	-45.4	17.6	0.00e+00	0	39	0	230686720	57	4796
2026-01-18 08:53:28.86	111.51	18.46	-42.9	-45.5	17.5	0.00e+00	0	39	0	231735296	57	4839
2026-01-18 08:53:29.86	111.37	18.56	-42.8	-45.5	17.5	0.00e+00	0	39	0	233832448	57	4817
2026-01-18 08:53:30.86	111.22	18.66	-43.0	-45.7	17.3	0.00e+00	0	40	0	235929600	57	4937
2026-01-18 08:53:31.86	111.08	18.76	-43.0	-45.7	17.3	0.00e+00	0	39	0	238026752	57	4958
2026-01-18 08:53:32.86	110.94	18.86	-42.9	-45.6	17.3	0.00e+00	0	39	0	240123904	57	4906
2026-01-18 08:53:33.86	110.79	18.96	-42.7	-45.3	17.6	0.00e+00	0	39	0	241172480	57	4741
2026-01-18 08:53:34.86	110.64	19.06	-42.6	-45.1	17.8	0.00e+00	0	39	0	243269632	57	4651
2026-01-18 08:53:35.85	110.50	19.16	-42.6	-45.2	17.8	0.00e+00	0	39	0	245366784	57	4655
2026-01-18 08:53:36.86	110.35	19.26	-42.8	-45.4	17.6	0.00e+00	0	39	0	247463936	57	4786
2026-01-18 08:53:37.86	110.20	19.37	-42.8	-45.4	17.5	0.00e+00	0	39	0	249561088	57	4808
2026-01-18 08:53:38.86	110.05	19.47	-42.8	-45.4	17.6	0.00e+00	0	39	0	250609664	57	4785
2026-01-18 08:53:39.86	109.90	19.57	-42.6	-45.1	17.9	0.00e+00	0	39	0	252706816	57	4634
2026-01-18 08:53:40.86	109.74	19.67	-42.5	-45.0	18.0	0.00e+00	0	39	0	254803968	56	4835
2026-01-18 08:53:41.87	109.59	19.78	-42.5	-45.1	17.9	0.00e+00	0	39	0	256901120	56	4877
2026-01-18 08:53:42.87	109.43	19.88	-42.5	-45.1	17.9	0.00e+00	0	39	0	257949696	56	4908
2026-01-18 08:53:43.87	109.28	19.98	-42.6	-45.1	17.9	0.00e+00	0	39	0	260046848	56	4898
2026-01-18 08:53:44.87	109.12	20.08	-42.6	-45.2	17.9	0.00e+00	0	39	0	262144000	56	4930
2026-01-18 08:53:45.87	108.96	20.19	-42.5	-45.1	17.9	0.00e+00	0	39	0	264241152	56	4885
2026-01-18 08:53:46.87	108.80	20.29	-42.4	-44.9	18.1	0.00e+00	0	39	0	266338304	56	4794
2026-01-18 08:53:47.87	108.64	20.39	-42.3	-44.8	18.2	0.00e+00	0	39	0	267386880	56	4731
2026-01-18 08:53:48.87	108.48	20.50	-42.2	-44.7	18.3	0.00e+00	0	39	0	269484032	56	4675
2026-01-18 08:53:49.88	108.32	20.60	-42.2	-44.7	18.3	0.00e+00	0	39	0	271581184	56	4680
2026-01-18 08:53:50.88	108.16	20.71	-42.2	-44.7	18.3	0.00e+00	0	39	0	273678336	56	4682
2026-01-18 08:53:51.88	107.99	20.81	-42.3	-44.7	18.3	0.00e+00	0	39	0	275775488	56	4695
2026-01-18 08:53:52.88	107.83	20.91	-42.2	-44.6	18.4	0.00e+00	0	39	0	276824064	56	4640
2026-01-18 08:53:53.88	107.66	21.02	-42.1	-44.5	18.5	0.00e+00	0	39	0	278921216	56	4586
2026-01-18 08:53:54.88	107.49	21.12	-42.1	-44.5	18.5	0.00e+00	0	40	0	281018368	56	4597
2026-01-18 08:53:55.88	107.32	21.23	-42.1	-44.6	18.4	0.00e+00	0	40	0	283115520	56	4607
2026-01-18 08:53:56.88	107.15	21.33	-42.2	-44.7	18.3	0.00e+00	0	39	0	285212672	56	4670
2026-01-18 08:53:57.88	106.98	21.44	-42.3	-44.8	18.2	0.00e+00	0	39	0	286261248	56	4731
2026-01-18 08:53:58.88	106.81	21.54	-42.4	-44.9	18.1	0.00e+00	0	39	0	288358400	56	4804
2026-01-18 08:53:59.88	106.63	21.65	-42.4	-44.8	18.2	0.00e+00	0	39	0	290455552	56	4747
2026-01-18 08:54:00.88	106.46	21.75	-42.3	-44.8	18.3	0.00e+00	0	39	0	292552704	56	4723
2026-01-18 08:54:01.88	106.28	21.86	-42.5	-45.0	18.1	0.00e+00	0	39	0	294649856	56	4819
2026-01-18 08:54:02.89	106.10	21.97	-42.4	-44.9	18.2	0.00e+00	0	39	0	295698432	56	4763
2026-01-18 08:54:03.89	105.93	22.07	-42.5	-45.0	18.0	0.00e+00	0	40	0	297795584	56	4867
2026-01-18 08:54:04.89	105.75	22.18	-42.5	-45.0	18.0	0.00e+00	0	39	0	299892736	56	4856
2026-01-18 08:54:05.89	105.56	22.29	-42.6	-45.1	17.9	0.00e+00	0	39	0	301989888	56	4917
2026-01-18 08:54:06.89	105.38	22.39	-42.7	-45.2	17.9	0.00e+00	0	39	0	303038464	56	4952
2026-01-18 08:54:07.89	105.20	22.50	-42.7	-45.3	17.8	0.00e+00	0	39	0	305135616	56	5007
2026-01-18 08:54:08.89	105.01	22.61	-42.8	-45.3	17.7	0.00e+00	0	40	0	307232768	56	5037
2026-01-18 08:54:09.89	104.83	22.71	-42.8	-45.4	17.7	0.00e+00	0	39	0	309329920	56	5048
2026-01-18 08:54:10.89	104.64	22.82	-42.7	-45.3	17.8	0.00e+00	0	39	0	311427072	56	5004
2026-01-18 08:54:11.89	104.45	22.93	-43.0	-45.6	17.5	0.00e+00	0	39	0	312475648	56	5172
2026-01-18 08:54:12.89	104.26	23.03	-43.0	-45.6	17.5	0.00e+00	0	39	0	314572800	56	5170
2026-01-18 08:54:13.90	104.07	23.14	-43.0	-45.6	17.5	0.00e+00	0	40	0	316669952	56	5209
2026-01-18 08:54:14.89	103.88	23.25	-43.1	-45.7	17.4	0.00e+00	0	39	0	318767104	56	5240
2026-01-18 08:54:15.89	103.68	23.36	-43.1	-45.7	17.4	0.00e+00	0	39	0	320864256	56	5242
2026-01-18 08:54:16.89	103.49	23.46	-43.2	-45.9	17.2	0.00e+00	0	39	0	321912832	57	5081
2026-01-18 08:54:17.89	103.29	23.57	-43.2	-45.9	17.2	0.00e+00	0	39	0	324009984	57	5062
2026-01-18 08:54:18.90	103.09	23.68	-43.2	-45.9	17.2	0.00e+00	0	39	0	326107136	57	5084
2026-01-18 08:54:19.89	102.89	23.79	-42.9	-45.5	17.5	0.00e+00	0	39	0	328204288	57	4867
2026-01-18 08:54:20.89	102.69	23.90	-43.0	-45.6	17.5	0.00e+00	0	39	0	330301440	57	4904
2026-01-18 08:54:21.90	102.49	24.01	-43.1	-45.7	17.4	0.00e+00	0	39	0	331350016	57	4955
2026-01-18 08:54:22.90	102.28	24.11	-43.1	-45.7	17.4	0.00e+00	0	39	0	333447168	57	4959
2026-01-18 08:54:23.90	102.08	24.22	-43.1	-45.8	17.3	0.00e+00	0	39	0	335544320	57	4988
2026-01-18 08:54:24.90	101.87	24.33	-43.0	-45.6	17.5	0.00e+00	0	39	0	337641472	57	4882
2026-01-18 08:54:25.90	101.66	24.44	-42.9	-45.4	17.7	0.00e+00	0	39	0	338690048	57	4810
2026-01-18 08:54:26.90	101.45	24.55	-42.7	-45.3	17.8	0.00e+00	0	39	0	340787200	57	4733
2026-01-18 08:54:27.90	101.24	24.65	-42.9	-45.5	17.7	0.00e+00	0	39	0	342884352	57	4823
2026-01-18 08:54:28.90	101.03	24.76	-43.0	-45.6	17.5	0.00e+00	0	39	0	344981504	57	4909
2026-01-18 08:54:29.90	100.82	24.87	-43.0	-45.6	17.5	0.00e+00	0	39	0	347078656	57	4880
2026-01-18 08:54:30.90	100.60	24.98	-42.9	-45.4	17.7	0.00e+00	0	39	0	348127232	57	4802
2026-01-18 08:54:31.90	100.38	25.09	-42.8	-45.4	17.7	0.00e+00	0	39	0	350224384	57	4790
2026-01-18 08:54:32.90	100.17	25.20	-42.7	-45.3	17.8	0.00e+00	0	39	0	352321536	57	4725
2026-01-18 08:54:33.91	99.94	25.30	-42.8	-45.3	17.8	0.00e+00	0	39	0	354418688	57	4744
2026-01-18 08:54:34.90	99.73	25.41	-42.6	-45.1	18.0	0.00e+00	0	39	0	356515840	57	4639
2026-01-18 08:54:35.91	99.50	25.52	-42.5	-45.0	18.1	0.00e+00	0	39	0	357564416	57	4548
2026-01-18 08:54:36.90	99.28	25.63	-42.4	-44.9	18.2	0.00e+00	0	39	0	359661568	56	4793
2026-01-18 08:54:37.90	99.05	25.74	-42.5	-44.9	18.2	0.00e+00	0	39	0	361758720	56	4809
2026-01-18 08:54:38.90	98.82	25.84	-42.4	-44.9	18.2	0.00e+00	0	39	0	363855872	56	4784
2026-01-18 08:54:39.90	98.60	25.95	-42.5	-45.1	18.1	0.00e+00	0	39	0	364904448	56	4874
2026-01-18 08:54:40.90	98.36	26.06	-42.5	-45.1	18.1	0.00e+00	0	39	0	367001600	56	4872
2026-01-18 08:54:41.91	98.13	26.17	-42.5	-45.0	18.2	0.00e+00	0	40	0	369098752	56	4820
2026-01-18 08:54:42.91	97.90	26.28	-42.6	-45.1	18.0	0.00e+00	0	39	0	371195904	56	4921
2026-01-18 08:54:43.91	97.66	26.38	-42.6	-45.1	18.0	0.00e+00	0	39	0	373293056	56	4907
2026-01-18 08:54:44.91	97.42	26.49	-42.5	-45.0	18.1	0.00e+00	0	39	0	374341632	56	4834
2026-01-18 08:54:45.91	97.18	26.60	-42.5	-45.0	18.2	0.00e+00	0	39	0	376438784	56	4829
2026-01-18 08:54:46.92	96.94	26.71	-42.4	-44.9	18.2	0.00e+00	0	39	0	378535936	56	4794
2026-01-18 08:54:47.92	96.70	26.82	-42.4	-44.8	18.3	0.00e+00	0	39	0	380633088	56	4738
2026-01-18 08:54:48.93	96.45	26.92	-42.3	-44.8	18.3	0.00e+00	0	39	0	382730240	56	4712
2026-01-18 08:54:49.93	96.21	27.03	-42.5	-44.9	18.2	0.00e+00	0	39	0	383778816	56	4811
2026-01-18 08:54:50.92	95.96	27.14	-42.5	-45.0	18.1	0.00e+00	0	39	0	385875968	56	4851
2026-01-18 08:54:51.92	95.72	27.24	-42.6	-45.2	18.0	0.00e+00	0	39	0	387973120	56	4944
2026-01-18 08:54:52.92	95.47	27.35	-42.7	-45.3	17.9	0.00e+00	0	39	0	390070272	56	4991
2026-01-18 08:54:53.92	95.21	27.45	-42.6	-45.1	18.0	0.00e+00	0	39	0	392167424	56	4904
2026-01-18 08:54:54.92	94.96	27.56	-42.7	-45.2	17.6	0.00e+00	0	39	0	393216000	56	4982
2026-01-18 08:54:55.92	94.70	27.67	-42.6	-45.1	18.0	0.00e+00	0	39	0	395313152	56	4920
2026-01-18 08:54:56.92	94.45	27.77	-42.7	-45.2	17.9	0.00e+00	0	40	0	397410304	56	4953
2026-01-18 08:54:57.92	94.19	27.88	-42.7	-45.2	17.9	0.00e+00	0	39	0	399507456	56	4980
2026-01-18 08:54:58.92	93.93	27.98	-43.0	-45.6	17.6	0.00e+00	0	39	0	400556032	56	5183
2026-01-18 08:54:59.92	93.67	28.09	-43.1	-45.9	17.3	0.00e+00	0	39	0	402653184	57	5056
2026-01-18 08:55:00.92	93.40	28.19	-43.2	-46.0	17.2	0.00e+00	0	39	0	404750336	57	5128
2026-01-18 08:55:01.92	93.14	28.29	-43.3	-46.1	17.1	0.00e+00	0	39	0	406847488	57	5187
2026-01-18 08:55:02.93	92.87	28.40	-43.5	-46.3	16.9	0.00e+00	0	39	0	408944640	57	5309
2026-01-18 08:55:03.93	92.60	28.50	-43.7	-46.6	16.6	0.00e+00	0	40	0	411041792	58	5190
2026-01-18 08:55:04.93	92.33	28.61	-44.1	-47.1	16.1	0.00e+00	0	39	0	412090368	58	5486
2026-01-18 08:55:05.93	92.05	28.71	-44.2	-47.3	16.0	0.00e+00	0	39	0	414187520	59	5282
2026-01-18 08:55:06.93	91.78	28.81	-44.2	-47.3	15.9	0.00e+00	0	39	0	416284672	59	5312
2026-01-18 08:55:07.94	91.50	28.91	-44.4	-47.5	15.7	0.00e+00	0	40	0	418381824	59	5444
2026-01-18 08:55:08.94	91.22	29.02	-44.5	-47.7	15.6	0.00e+00	0	39	0	419430400	59	5533
2026-01-18 08:55:09.94	90.94	29.12	-44.6	-47.9	15.3	0.00e+00	0	39	0	421527552	59	5670
2026-01-18 08:55:10.94	90.66	29.22	-44.7	-48.1	15.2	0.00e+00	0	40	0	423624704	60	5490
2026-01-18 08:55:11.94	90.38	29.32	-44.7	-48.1	15.1	0.00e+00	0	39	0	425721856	60	5525
2026-01-18 08:55:12.94	90.09	29.42	-44.7	-48.0	15.2	0.00e+00	0	40	0	427819008	60	5457
2026-01-18 08:55:13.94	89.81	29.52	-44.8	-48.2	15.0	0.00e+00	0	39	0	428867584	60	5560
2026-01-18 08:55:14.94	89.52	29.62	-44.8	-48.2	15.0	0.00e+00	0	39	0	430964736	60	5578
2026-01-18 08:55:15.94	89.23	29.72	-44.7	-48.1	15.1	0.00e+00	0	39	0	433061888	60	5483
2026-01-18 08:55:16.95	88.93	29.82	-44.8	-48.1	15.1	0.00e+00	0	39	0	435159040	60	5523
2026-01-18 08:55:17.95	88.64	29.91	-45.0	-48.5	14.8	0.00e+00	0	39	0	437256192	60	5760
2026-01-18 08:55:18.95	88.34	30.01	-45.0	-48.5	14.7	0.00e+00	0	39	0	438304768	60	5761
2026-01-18 08:55:19.95	88.05	30.11	-45.1	-48.7	14.6	0.00e+00	0	40	0	440401920	60	5862
2026-01-18 08:55:20.95	87.75	30.20	-45.3	-49.2	14.1	7.00e-07	0	39	0	442499072	61	5899
2026-01-18 08:55:21.95	87.45	30.30	-45.5	-49.5	13.7	7.00e-07	0	39	0	444596224	61	6101
2026-01-18 08:55:22.95	87.14	30.39	-45.7	-50.0	13.2	1.22e-05	0	39	0	445644800	62	6106
2026-01-18 08:55:23.95	86.84	30.49	-45.8	-50.1	13.1	2.97e-05	0	40	0	447741952	62	6192
2026-01-18 08:55:24.95	86.53	30.58	-45.5	-49.5	13.7	2.44e-05	0	39	0	449839104	62	5787
2026-01-18 08:55:25.96	86.22	30.68	-45.2	-49.0	14.2	5.30e-06	0	40	0	451936256	62	5456
2026-01-18 08:55:26.96	85.91	30.77	-45.2	-49.0	14.3	0.00e+00	0	40	0	454033408	62	5422
2026-01-18 08:55:27.96	85.60	30.86	-44.9	-48.5	14.7	2.20e-06	0	39	0	455081984	61	5458
2026-01-18 08:55:28.96	85.28	30.95	-44.8	-48.4	14.9	0.00e+00	0	39	0	457179136	61	5373
2026-01-18 08:55:29.96	84.97	31.04	-44.8	-48.4	14.9	0.00e+00	0	40	0	459276288	61	5352
2026-01-18 08:55:30.96	84.65	31.13	-44.6	-48.0	15.3	0.00e+00	0	40	0	461373440	61	5124
2026-01-18 08:55:31.96	84.33	31.22	-44.6	-48.0	15.2	0.00e+00	0	40	0	463470592	61	5126
2026-01-18 08:55:32.96	84.01	31.31	-44.7	-48.2	15.1	0.00e+00	0	40	0	464519168	61	5234
2026-01-18 08:55:33.96	83.69	31.40	-44.7	-48.2	15.1	0.00e+00	0	39	0	466616320	61	5245
2026-01-18 08:55:34.96	83.37	31.48	-44.7	-48.2	15.1	0.00e+00	0	40	0	468713472	61	5219
2026-01-18 08:55:35.96	83.04	31.57	-44.6	-48.1	15.2	0.00e+00	0	40	0	470810624	61	5191
2026-01-18 08:55:36.96	82.71	31.65	-44.7	-48.2	15.1	0.00e+00	0	39	0	472907776	61	5260
2026-01-18 08:55:37.96	82.38	31.74	-44.6	-48.0	15.3	0.00e+00	0	39	0	473956352	61	5122
2026-01-18 08:55:38.97	82.05	31.82	-44.6	-48.0	15.3	0.00e+00	0	40	0	476053504	61	5128
2026-01-18 08:55:39.97	81.72	31.91	-44.5	-47.9	15.5	0.00e+00	0	39	0	478150656	60	5346
2026-01-18 08:55:40.97	81.38	31.99	-44.5	-47.8	15.5	0.00e+00	0	40	0	480247808	60	5328
2026-01-18 08:55:41.97	81.05	32.07	-44.5	-47.8	15.5	0.00e+00	0	40	0	481296384	60	5311
2026-01-18 08:55:42.97	80.71	32.15	-44.4	-47.7	15.6	0.00e+00	0	40	0	483393536	60	5245
2026-01-18 08:55:43.97	80.37	32.23	-44.4	-47.6	15.8	0.00e+00	0	40	0	485490688	60	5165
2026-01-18 08:55:44.97	80.03	32.31	-44.4	-47.6	15.7	0.00e+00	0	39	0	487587840	60	5209
2026-01-18 08:55:45.97	79.69	32.38	-44.4	-47.6	15.8	0.00e+00	0	39	0	489684992	60	5160
2026-01-18 08:55:46.98	79.34	32.46	-44.1	-47.2	16.2	0.00e+00	0	39	0	490733568	60	4940
2026-01-18 08:55:47.98	78.99	32.53	-44.1	-47.1	16.2	0.00e+00	0	39	0	492830720	60	4877
2026-01-18 08:55:48.98	78.65	32.61	-44.0	-46.9	16.4	0.00e+00	0	40	0	494927872	59	5047
2026-01-18 08:55:49.98	78.30	32.68	-44.0	-46.9	16.3	0.00e+00	0	39	0	497025024	59	5063
2026-01-18 08:55:50.98	77.95	32.75	-44.0	-46.9	16.4	0.00e+00	0	40	0	499122176	59	5047
2026-01-18 08:55:51.98	77.59	32.82	-43.8	-46.6	16.6	0.00e+00	0	40	0	500170752	59	4915
2026-01-18 08:55:52.98	77.24	32.89	-43.8	-46.7	16.6	0.00e+00	0	40	0	502267904	59	4947
2026-01-18 08:55:53.98	76.88	32.96	-44.0	-46.9	16.4	0.00e+00	0	40	0	504365056	59	5071
2026-01-18 08:55:54.98	76.53	33.03	-44.0	-46.9	16.3	0.00e+00	0	40	0	506462208	59	5085
2026-01-18 08:55:55.98	76.17	33.10	-43.7	-46.5	16.8	0.00e+00	0	40	0	508559360	59	4836
2026-01-18 08:55:56.98	75.81	33.16	-43.5	-46.2	17.0	0.00e+00	0	39	0	509607936	59	4684
2026-01-18 08:55:57.98	75.45	33.23	-43.3	-46.0	17.3	0.00e+00	0	40	0	511705088	58	4819
2026-01-18 08:55:58.99	75.08	33.29	-43.4	-46.1	17.2	0.00e+00	0	39	0	513802240	58	4885
2026-01-18 08:55:59.98	74.72	33.35	-43.4	-46.1	17.2	0.00e+00	0	40	0	515899392	58	4904
2026-01-18 08:56:00.99	74.35	33.42	-43.5	-46.2	17.1	0.00e+00	0	39	0	517996544	58	4977
2026-01-18 08:56:01.99	73.99	33.48	-43.6	-46.4	16.9	0.00e+00	0	39	0	519045120	58	5042
2026-01-18 08:56:02.99	73.62	33.53	-43.5	-46.3	17.1	0.00e+00	0	39	0	521142272	58	4999
2026-01-18 08:56:03.99	73.25	33.59	-43.6	-46.4	16.9	0.00e+00	0	39	0	523239424	58	5045
2026-01-18 08:56:04.99	72.88	33.65	-43.5	-46.3	17.0	0.00e+00	0	39	0	525336576	58	5006
2026-01-18 08:56:05.98	72.51	33.70	-43.5	-46.3	17.1	0.00e+00	0	39	0	526385152	58	4996
2026-01-18 08:56:06.98	72.14	33.75	-43.4	-46.1	17.2	0.00e+00	0	39	0	528482304	58	4890
2026-01-18 08:56:07.98	71.76	33.81	-43.2	-45.8	17.4	0.00e+00	0	39	0	530579456	58	4725
2026-01-18 08:56:08.98	71.39	33.86	-43.0	-45.6	17.7	0.00e+00	0	39	0	532676608	57	4871
2026-01-18 08:56:09.98	71.01	33.91	-42.9	-45.4	17.9	0.00e+00	0	39	0	534773760	57	4783
2026-01-18 08:56:10.99	70.63	33.96	-42.8	-45.3	18.0	0.00e+00	0	39	0	535822336	57	4715
2026-01-18 08:56:11.99	70.25	34.00	-42.6	-45.1	18.1	0.00e+00	0	40	0	537919488	57	4604
2026-01-18 08:56:12.99	69.87	34.05	-42.7	-45.1	18.1	0.00e+00	0	39	0	540016640	57	4632
2026-01-18 08:56:13.99	69.49	34.09	-42.7	-45.1	18.2	0.00e+00	0	39	0	542113792	57	4638
2026-01-18 08:56:14.98	69.11	34.13	-42.5	-45.0	18.2	0.00e+00	0	39	0	544210944	57	4565
2026-01-18 08:56:15.99	68.73	34.18	-42.6	-45.1	18.2	0.00e+00	0	39	0	545259520	57	4627
2026-01-18 08:56:16.99	68.34	34.22	-42.7	-45.2	18.1	0.00e+00	0	39	0	547356672	57	4680
2026-01-18 08:56:17.99	67.96	34.25	-42.7	-45.2	18.1	0.00e+00	0	39	0	549453824	57	4665
2026-01-18 08:56:18.99	67.57	34.29	-42.7	-45.2	18.0	0.00e+00	0	39	0	551550976	57	4694
2026-01-18 08:56:19.99	67.18	34.33	-42.6	-45.0	18.2	0.00e+00	0	39	0	552599552	57	4589
2026-01-18 08:56:20.99	66.80	34.36	-42.6	-45.1	18.2	0.00e+00	0	40	0	554696704	57	4608
2026-01-18 08:56:21.99	66.41	34.39	-42.8	-45.3	18.0	0.00e+00	0	39	0	556793856	57	4713
2026-01-18 08:56:23.00	66.02	34.43	-42.8	-45.4	17.8	0.00e+00	0	39	0	558891008	57	4783
2026-01-18 08:56:24.00	65.63	34.46	-43.0	-45.5	17.7	0.00e+00	0	39	0	560988160	57	4868
2026-01-18 08:56:25.00	65.24	34.48	-43.1	-45.8	17.5	0.00e+00	0	40	0	562036736	57	4985
2026-01-18 08:56:26.00	64.84	34.51	-43.1	-45.7	17.6	0.00e+00	0	40	0	564133888	57	4964
2026-01-18 08:56:27.00	64.45	34.54	-43.2	-45.8	17.4	0.00e+00	0	39	0	566231040	57	5010
2026-01-18 08:56:28.00	64.06	34.56	-43.0	-45.6	17.7	0.00e+00	0	39	0	568328192	57	4903
2026-01-18 08:56:29.00	63.67	34.58	-43.1	-45.7	17.6	0.00e+00	0	39	0	570425344	57	4955
2026-01-18 08:56:30.00	63.27	34.60	-43.1	-45.7	17.6	0.00e+00	0	39	0	571473920	57	4943
2026-01-18 08:56:31.00	62.88	34.62	-43.1	-45.7	17.5	0.00e+00	0	39	0	573571072	57	4963
2026-01-18 08:56:32.01	62.48	34.64	-43.0	-45.5	17.7	0.00e+00	0	40	0	575668224	57	4860
2026-01-18 08:56:33.01	62.09	34.66	-42.8	-45.3	18.0	0.00e+00	0	40	0	577765376	57	4725
2026-01-18 08:56:34.01	61.69	34.67	-42.9	-45.4	17.8	0.00e+00	0	39	0	579862528	57	4792
2026-01-18 08:56:35.01	61.30	34.68	-43.2	-45.8	17.5	0.00e+00	0	39	0	580911104	57	5031
2026-01-18 08:56:36.00	60.91	34.70	-43.2	-45.8	17.4	0.00e+00	0	39	0	583008256	57	5006
2026-01-18 08:56:37.01	60.51	34.71	-43.1	-45.7	17.5	0.00e+00	0	40	0	585105408	57	4967
2026-01-18 08:56:38.01	60.11	34.71	-43.3	-45.9	17.3	0.00e+00	0	39	0	587202560	57	5094
2026-01-18 08:56:39.01	59.71	34.72	-43.4	-46.1	17.1	0.00e+00	0	40	0	588251136	57	5180
2026-01-18 08:56:40.01	59.32	34.73	-43.2	-45.9	17.3	0.00e+00	0	39	0	590348288	57	5084
2026-01-18 08:56:41.01	58.92	34.73	-43.2	-45.8	17.4	0.00e+00	0	40	0	592445440	57	5029
2026-01-18 08:56:42.01	58.53	34.73	-42.8	-45.4	17.9	0.00e+00	0	39	0	594542592	57	4771
2026-01-18 08:56:43.02	58.12	34.73	-42.9	-45.4	17.8	0.00e+00	0	39	0	596639744	57	4806
2026-01-18 08:56:44.02	57.73	34.73	-43.0	-45.5	17.7	0.00e+00	0	40	0	597688320	57	4865
2026-01-18 08:56:45.02	57.33	34.73	-43.2	-45.9	17.4	0.00e+00	0	39	0	599785472	57	5065
2026-01-18 08:56:46.02	56.94	34.73	-43.4	-46.1	17.2	0.00e+00	0	40	0	601882624	57	5189
2026-01-18 08:56:47.02	56.54	34.72	-43.7	-46.5	16.7	0.00e+00	0	39	0	603979776	58	5134
2026-01-18 08:56:48.02	56.14	34.71	-43.8	-46.7	16.6	0.00e+00	0	39	0	606076928	58	5236
2026-01-18 08:56:49.02	55.75	34.70	-43.8	-46.6	16.7	0.00e+00	0	40	0	607125504	58	5196
2026-01-18 08:56:50.02	55.35	34.69	-43.6	-46.4	16.9	0.00e+00	0	40	0	609222656	58	5062
2026-01-18 08:56:51.02	54.96	34.68	-43.5	-46.2	17.1	0.00e+00	0	40	0	611319808	58	4944
2026-01-18 08:56:52.02	54.56	34.67	-43.7	-46.4	16.9	0.00e+00	0	40	0	613416960	58	5096
2026-01-18 08:56:53.02	54.17	34.65	-43.8	-46.7	16.6	0.00e+00	0	40	0	615514112	58	5219
2026-01-18 08:56:54.02	53.77	34.64	-43.8	-46.6	16.7	0.00e+00	0	39	0	616562688	58	5207
2026-01-18 08:56:55.02	53.38	34.62	-44.0	-46.9	16.4	0.00e+00	0	39	0	618659840	58	5353
2026-01-18 08:56:56.03	52.98	34.60	-44.1	-47.0	16.3	0.00e+00	0	40	0	620756992	58	5431
2026-01-18 08:56:57.02	52.59	34.58	-44.3	-47.4	15.9	0.00e+00	0	40	0	622854144	59	5384
2026-01-18 08:56:58.03	52.20	34.56	-44.4	-47.5	15.8	0.00e+00	0	39	0	624951296	59	5445
2026-01-18 08:56:59.03	51.80	34.53	-44.5	-47.6	15.7	0.00e+00	0	39	0	625999872	59	5511
2026-01-18 08:57:00.03	51.41	34.51	-44.4	-47.5	15.8	0.00e+00	0	39	0	628097024	59	5431
2026-01-18 08:57:01.03	51.02	34.48	-44.2	-47.3	15.9	0.00e+00	0	40	0	630194176	59	5322
2026-01-18 08:57:02.03	50.63	34.45	-44.2	-47.2	16.2	0.00e+00	0	40	0	632291328	59	5230
2026-01-18 08:57:03.03	50.24	34.42	-44.0	-47.0	16.3	0.00e+00	0	40	0	633339904	59	5121
2026-01-18 08:57:04.03	49.86	34.39	-44.0	-47.0	16.3	0.00e+00	0	39	0	635437056	59	5116
2026-01-18 08:57:05.03	49.47	34.36	-44.2	-47.1	16.1	0.00e+00	0	40	0	637534208	59	5216
2026-01-18 08:57:06.03	49.08	34.32	-44.5	-47.5	15.7	0.00e+00	0	40	0	639631360	59	5464
2026-01-18 08:57:07.03	48.69	34.29	-44.9	-48.2	15.2	0.00e+00	0	40	0	641728512	60	5548
2026-01-18 08:57:08.03	48.31	34.25	-44.8	-48.1	15.3	0.00e+00	0	40	0	642777088	60	5472
2026-01-18 08:57:09.03	47.93	34.21	-44.7	-47.9	15.5	0.00e+00	0	40	0	644874240	60	5392
2026-01-18 08:57:10.03	47.54	34.17	-44.6	-47.9	15.5	0.00e+00	0	39	0	646971392	60	5348
2026-01-18 08:57:11.03	47.16	34.13	-44.3	-47.4	15.9	0.00e+00	0	40	0	649068544	60	5093
2026-01-18 08:57:12.03	46.78	34.09	-44.3	-47.4	16.0	0.00e+00	0	40	0	651165696	60	5054
2026-01-18 08:57:13.03	46.40	34.04	-44.2	-47.2	16.1	0.00e+00	0	39	0	652214272	60	4980
2026-01-18 08:57:14.03	46.02	34.00	-44.2	-47.3	16.1	0.00e+00	0	39	0	654311424	60	4989
2026-01-18 08:57:15.03	45.64	33.95	-44.4	-47.5	15.9	0.00e+00	0	39	0	656408576	60	5108
2026-01-18 08:57:16.03	45.26	33.90	-44.4	-47.5	15.8	0.00e+00	0	40	0	658505728	60	5158
2026-01-18 08:57:17.03	44.89	33.85	-44.3	-47.4	15.9	0.00e+00	0	39	0	660602880	60	5074
2026-01-18 08:57:18.03	44.51	33.80	-44.4	-47.5	15.8	0.00e+00	0	39	0	661651456	60	5141
2026-01-18 08:57:19.03	44.14	33.75	-44.1	-47.1	16.3	0.00e+00	0	39	0	663748608	60	4888
2026-01-18 08:57:20.04	43.76	33.69	-43.9	-46.7	16.5	0.00e+00	0	40	0	665845760	59	4978
2026-01-18 08:57:21.04	43.39	33.64	-43.8	-46.6	16.7	0.00e+00	0	39	0	667942912	59	4897
2026-01-18 08:57:22.04	43.02	33.58	-43.9	-46.8	16.5	0.00e+00	0	39	0	668991488	59	4991
2026-01-18 08:57:23.04	42.66	33.53	-44.1	-47.0	16.3	0.00e+00	0	40	0	671088640	59	5157
2026-01-18 08:57:24.04	42.29	33.47	-44.1	-47.0	16.3	0.00e+00	0	40	0	673185792	59	5117
2026-01-18 08:57:25.04	41.92	33.41	-44.0	-46.9	16.4	0.00e+00	0	40	0	675282944	59	5062
2026-01-18 08:57:26.04	41.56	33.35	-44.0	-46.9	16.4	0.00e+00	0	40	0	677380096	59	5073
2026-01-18 08:57:27.04	41.20	33.28	-43.8	-46.6	16.7	0.00e+00	0	40	0	678428672	59	4921
2026-01-18 08:57:28.04	40.83	33.22	-43.7	-46.4	16.9	0.00e+00	0	40	0	680525824	59	4801
2026-01-18 08:57:29.04	40.47	33.16	-43.6	-46.3	17.0	0.00e+00	0	40	0	682622976	59	4729
2026-01-18 08:57:30.04	40.12	33.09	-43.6	-46.4	16.9	0.00e+00	0	40	0	684720128	59	4797
2026-01-18 08:57:31.04	39.76	33.02	-43.8	-46.6	16.7	0.00e+00	0	39	0	686817280	59	4890
2026-01-18 08:57:32.04	39.40	32.96	-44.0	-47.0	16.3	0.00e+00	0	39	0	687865856	59	5119
2026-01-18 08:57:33.04	39.05	32.89	-44.2	-47.2	16.1	0.00e+00	0	40	0	689963008	59	5264
2026-01-18 08:57:34.04	38.70	32.82	-44.4	-47.5	15.8	0.00e+00	0	40	0	692060160	59	5410
2026-01-18 08:57:35.05	38.34	32.75	-44.4	-47.5	15.8	7.00e-07	0	40	0	694157312	59	5448
2026-01-18 08:57:36.05	37.99	32.67	-44.5	-47.6	15.7	0.00e+00	0	40	0	695205888	59	5513
2026-01-18 08:57:37.05	37.64	32.60	-44.5	-47.7	15.6	0.00e+00	0	40	0	697303040	59	5566
2026-01-18 08:57:38.05	37.30	32.53	-44.5	-47.7	15.6	0.00e+00	0	39	0	699400192	59	5583
2026-01-18 08:57:39.05	36.95	32.45	-44.5	-47.6	15.7	0.00e+00	0	40	0	701497344	59	5500
2026-01-18 08:57:40.06	36.61	32.37	-44.5	-47.7	15.6	0.00e+00	0	39	0	703594496	59	5562
2026-01-18 08:57:41.05	36.27	32.30	-44.6	-47.9	15.4	0.00e+00	0	39	0	704643072	59	5658
2026-01-18 08:57:42.05	35.93	32.22	-44.6	-47.8	15.5	0.00e+00	0	40	0	706740224	59	5642
2026-01-18 08:57:43.06	35.59	32.14	-44.7	-48.0	15.4	0.00e+00	0	40	0	708837376	60	5409
2026-01-18 08:57:44.06	35.25	32.06	-44.7	-48.1	15.2	0.00e+00	0	40	0	710934528	60	5496
2026-01-18 08:57:45.06	34.92	31.98	-44.7	-48.0	15.4	0.00e+00	0	40	0	713031680	60	5409
2026-01-18 08:57:46.06	34.58	31.90	-44.6	-47.9	15.4	0.00e+00	0	39	0	714080256	60	5375
2026-01-18 08:57:47.06	34.25	31.82	-44.6	-47.8	15.5	0.00e+00	0	40	0	716177408	60	5320
2026-01-18 08:57:48.06	33.92	31.73	-44.8	-48.1	15.2	0.00e+00	0	40	0	718274560	60	5511
2026-01-18 08:57:49.06	33.59	31.65	-44.7	-48.0	15.3	0.00e+00	0	40	0	720371712	60	5422
2026-01-18 08:57:50.06	33.27	31.56	-44.7	-48.0	15.3	0.00e+00	0	39	0	722468864	60	5434
2026-01-18 08:57:51.06	32.94	31.48	-44.6	-47.9	15.5	0.00e+00	0	40	0	723517440	60	5356
2026-01-18 08:57:52.06	32.62	31.39	-44.6	-47.9	15.4	0.00e+00	0	39	0	725614592	60	5381
2026-01-18 08:57:53.06	32.30	31.30	-44.7	-48.1	15.2	0.00e+00	0	39	0	727711744	60	5481
2026-01-18 08:57:54.06	31.98	31.22	-44.7	-48.1	15.3	0.00e+00	0	39	0	729808896	60	5467
2026-01-18 08:57:55.06	31.66	31.13	-44.4	-47.6	15.8	0.00e+00	0	39	0	730857472	60	5179
2026-01-18 08:57:56.06	31.35	31.04	-44.3	-47.5	15.8	0.00e+00	0	39	0	732954624	60	5124
2026-01-18 08:57:57.06	31.03	30.95	-44.3	-47.5	15.9	0.00e+00	0	39	0	735051776	60	5115
2026-01-18 08:57:58.06	30.72	30.86	-44.3	-47.5	15.9	0.00e+00	0	39	0	737148928	60	5108
2026-01-18 08:57:59.06	30.41	30.77	-44.3	-47.4	16.0	0.00e+00	0	40	0	739246080	60	5064
2026-01-18 08:58:00.06	30.10	30.67	-44.3	-47.5	15.9	0.00e+00	0	39	0	740294656	60	5120
2026-01-18 08:58:01.06	29.80	30.58	-44.4	-47.6	15.7	0.00e+00	0	40	0	742391808	60	5173
2026-01-18 08:58:02.07	29.49	30.49	-44.3	-47.5	15.8	0.00e+00	0	39	0	744488960	60	5132
2026-01-18 08:58:03.07	29.18	30.39	-44.3	-47.5	15.8	0.00e+00	0	40	0	746586112	60	5146
2026-01-18 08:58:04.07	28.88	30.30	-44.2	-47.3	16.0	0.00e+00	0	39	0	748683264	60	5013
2026-01-18 08:58:05.07	28.58	30.20	-44.3	-47.5	15.9	0.00e+00	0	39	0	749731840	60	5131
2026-01-18 08:58:06.07	28.29	30.11	-44.2	-47.3	16.0	0.00e+00	0	39	0	751828992	60	5034
2026-01-18 08:58:07.07	27.99	30.01	-44.2	-47.3	16.0	0.00e+00	0	39	0	753926144	60	5021
2026-01-18 08:58:08.08	27.69	29.91	-44.1	-47.2	16.1	0.00e+00	0	39	0	756023296	60	4977
2026-01-18 08:58:09.08	27.40	29.81	-44.0	-47.2	16.1	0.00e+00	0	39	0	757071872	60	4951
2026-01-18 08:58:10.08	27.11	29.72	-44.0	-47.2	16.2	0.00e+00	0	39	0	759169024	60	4945
2026-01-18 08:58:11.08	26.82	29.62	-44.0	-47.1	16.2	0.00e+00	0	40	0	761266176	60	4908
2026-01-18 08:58:12.08	26.53	29.52	-44.0	-47.1	16.2	0.00e+00	0	40	0	763363328	60	4884
2026-01-18 08:58:13.08	26.25	29.42	-44.0	-47.0	16.3	0.00e+00	0	40	0	765460480	60	4863
2026-01-18 08:58:14.09	25.96	29.32	-43.9	-46.8	16.5	0.00e+00	0	40	0	767557632	59	5010
2026-01-18 08:58:15.09	25.68	29.22	-44.0	-47.0	16.3	0.00e+00	0	39	0	768606208	59	5106
2026-01-18 08:58:16.08	25.40	29.12	-44.0	-47.0	16.3	0.00e+00	0	39	0	770703360	59	5126
2026-01-18 08:58:17.09	25.12	29.02	-44.1	-47.1	16.2	0.00e+00	0	39	0	772800512	59	5160
2026-01-18 08:58:18.09	24.84	28.92	-43.9	-46.9	16.4	0.00e+00	0	39	0	774897664	59	5060
2026-01-18 08:58:19.09	24.57	28.82	-43.9	-46.9	16.4	0.00e+00	0	40	0	775946240	59	5047
2026-01-18 08:58:20.09	24.30	28.71	-43.9	-46.8	16.5	0.00e+00	0	39	0	778043392	59	5008
2026-01-18 08:58:21.09	24.03	28.61	-43.7	-46.6	16.7	0.00e+00	0	39	0	780140544	59	4899
2026-01-18 08:58:22.09	23.76	28.51	-43.7	-46.5	16.8	0.00e+00	0	39	0	782237696	59	4846
2026-01-18 08:58:23.09	23.49	28.40	-43.5	-46.3	17.0	0.00e+00	0	39	0	784334848	59	4727
2026-01-18 08:58:24.09	23.22	28.30	-43.3	-46.1	17.1	0.00e+00	0	39	0	785383424	58	4890
2026-01-18 08:58:25.09	22.96	28.20	-43.3	-46.0	17.2	0.00e+00	0	40	0	787480576	58	4850
2026-01-18 08:58:26.09	22.70	28.09	-43.2	-45.9	17.3	0.00e+00	0	39	0	789577728	58	4781
2026-01-18 08:58:27.09	22.43	27.99	-43.2	-45.8	17.4	0.00e+00	0	39	0	791674880	58	4758
2026-01-18 08:58:28.09	22.18	27.89	-42.9	-45.5	17.8	0.00e+00	0	39	0	793772032	57	4850
2026-01-18 08:58:29.10	21.92	27.78	-42.7	-45.2	18.0	0.00e+00	0	40	0	794820608	57	4696
2026-01-18 08:58:30.10	21.66	27.67	-42.7	-45.3	18.0	0.00e+00	0	39	0	796917760	57	4711
2026-01-18 08:58:31.10	21.41	27.57	-42.4	-44.9	18.3	0.00e+00	0	39	0	799014912	56	4808
2026-01-18 08:58:32.11	21.15	27.46	-42.4	-45.0	18.3	0.00e+00	0	39	0	801112064	56	4826
2026-01-18 08:58:33.11	20.90	27.36	-42.2	-44.7	18.6	0.00e+00	0	39	0	802160640	56	4653
2026-01-18 08:58:34.11	20.65	27.25	-42.0	-44.5	18.8	0.00e+00	0	39	0	804257792	56	4559
2026-01-18 08:58:35.11	20.40	27.15	-41.8	-44.2	18.8	0.00e+00	0	39	0	806354944	55	4683
2026-01-18 08:58:36.11	20.16	27.04	-41.8	-44.2	18.8	0.00e+00	0	40	0	808452096	55	4691
2026-01-18 08:58:37.11	19.92	26.93	-41.7	-44.2	18.9	0.00e+00	0	39	0	810549248	55	4659
2026-01-18 08:58:38.11	19.67	26.83	-41.7	-44.1	18.9	0.00e+00	0	39	0	811597824	55	4617
2026-01-18 08:58:39.11	19.43	26.72	-41.3	-43.7	19.3	0.00e+00	0	39	0	813694976	54	4684
2026-01-18 08:58:40.11	19.19	26.61	-41.3	-43.7	19.3	0.00e+00	0	39	0	815792128	54	4674
2026-01-18 08:58:41.11	18.96	26.51	-41.3	-43.6	19.4	0.00e+00	0	39	0	817889280	54	4619
2026-01-18 08:58:42.11	18.72	26.40	-41.4	-43.7	19.3	0.00e+00	0	39	0	819986432	54	4667
2026-01-18 08:58:43.11	18.49	26.29	-41.4	-43.7	19.3	0.00e+00	0	39	0	821035008	54	4703
2026-01-18 08:58:44.11	18.25	26.18	-41.6	-44.0	19.0	0.00e+00	0	40	0	823132160	54	4827
2026-01-18 08:58:45.11	18.02	26.08	-41.7	-44.0	19.0	0.00e+00	0	39	0	825229312	54	4865
2026-01-18 08:58:46.11	17.79	25.97	-41.5	-43.8	19.2	0.00e+00	0	39	0	827326464	54	4736
2026-01-18 08:58:47.12	17.56	25.86	-41.3	-43.5	19.4	0.00e+00	0	39	0	829423616	54	4598
2026-01-18 08:58:48.12	17.34	25.75	-41.2	-43.4	19.6	0.00e+00	0	39	0	830472192	54	4543
2026-01-18 08:58:49.12	17.11	25.65	-41.1	-43.3	19.7	0.00e+00	0	39	0	832569344	54	4472
2026-01-18 08:58:50.12	16.89	25.54	-41.0	-43.3	19.7	0.00e+00	0	39	0	834666496	54	4450
2026-01-18 08:58:51.12	16.67	25.43	-41.0	-43.3	19.7	0.00e+00	0	39	0	836763648	54	4462
2026-01-18 08:58:52.12	16.45	25.32	-41.1	-43.3	19.7	0.00e+00	0	39	0	837812224	54	4478
2026-01-18 08:58:53.12	16.23	25.22	-41.0	-43.3	19.7	0.00e+00	0	39	0	839909376	54	4444
2026-01-18 08:58:54.12	16.01	25.11	-40.9	-43.1	19.9	0.00e+00	0	39	0	842006528	53	4611
2026-01-18 08:58:55.12	15.80	25.00	-41.0	-43.2	19.7	0.00e+00	0	39	0	844103680	53	4690
2026-01-18 08:58:56.12	15.58	24.89	-41.0	-43.3	19.7	0.00e+00	0	39	0	846200832	53	4720
2026-01-18 08:58:57.12	15.37	24.78	-41.0	-43.3	19.6	0.00e+00	0	39	0	847249408	53	4744
2026-01-18 08:58:58.12	15.16	24.68	-41.1	-43.4	19.6	0.00e+00	0	39	0	849346560	53	4776
2026-01-18 08:58:59.12	14.95	24.57	-41.2	-43.4	19.5	0.00e+00	0	39	0	851443712	53	4805
2026-01-18 08:59:00.12	14.74	24.46	-41.1	-43.3	19.6	0.00e+00	0	39	0	853540864	53	4758
2026-01-18 08:59:01.12	14.53	24.35	-41.2	-43.5	19.5	0.00e+00	0	39	0	855638016	53	4852
2026-01-18 08:59:02.12	14.33	24.25	-41.4	-43.7	19.3	0.00e+00	0	39	0	856686592	53	4962
2026-01-18 08:59:03.12	14.13	24.14	-41.5	-43.9	19.1	0.00e+00	0	39	0	858783744	53	5057
2026-01-18 08:59:04.12	13.92	24.03	-41.6	-43.9	19.0	0.00e+00	0	39	0	860880896	53	5082
2026-01-18 08:59:05.12	13.72	23.92	-41.6	-43.9	19.0	0.00e+00	0	39	0	862978048	53	5098
2026-01-18 08:59:06.12	13.52	23.82	-41.6	-44.0	18.9	0.00e+00	0	39	0	865075200	53	5136
2026-01-18 08:59:07.12	13.32	23.71	-41.6	-44.0	19.0	0.00e+00	0	39	0	866123776	54	4838
2026-01-18 08:59:08.12	13.13	23.60	-41.6	-44.0	19.0	0.00e+00	0	39	0	868220928	54	4836
2026-01-18 08:59:09.12	12.93	23.49	-41.6	-44.0	18.9	0.00e+00	0	39	0	870318080	54	4865
2026-01-18 08:59:10.13	12.74	23.39	-41.8	-44.2	18.8	0.00e+00	0	39	0	872415232	54	4940
2026-01-18 08:59:11.13	12.54	23.28	-41.8	-44.2	18.8	0.00e+00	0	39	0	874512384	54	4942
2026-01-18 08:59:12.13	12.35	23.17	-42.0	-44.4	18.6	0.00e+00	0	39	0	875560960	54	5091
2026-01-18 08:59:13.13	12.16	23.07	-42.1	-44.5	18.3	0.00e+00	0	40	0	877658112	54	5108
2026-01-18 08:59:14.14	11.97	22.96	-42.0	-44.4	18.6	0.00e+00	0	39	0	879755264	54	5067
2026-01-18 08:59:15.14	11.78	22.85	-41.9	-44.3	18.7	0.00e+00	0	39	0	881852416	54	5017
2026-01-18 08:59:16.14	11.60	22.74	-42.0	-44.4	18.6	0.00e+00	0	40	0	882900992	54	5054
2026-01-18 08:59:17.14	11.41	22.64	-42.0	-44.4	18.6	0.00e+00	0	39	0	884998144	54	5058
2026-01-18 08:59:18.14	11.23	22.53	-41.9	-44.2	18.7	0.00e+00	0	39	0	887095296	54	4980
2026-01-18 08:59:19.14	11.05	22.43	-41.9	-44.3	18.7	0.00e+00	0	39	0	889192448	54	5021
2026-01-18 08:59:20.14	10.86	22.32	-41.9	-44.3	18.7	0.00e+00	0	39	0	891289600	54	5023
2026-01-18 08:59:21.15	10.68	22.21	-41.9	-44.3	18.6	0.00e+00	0	39	0	892338176	54	5039
2026-01-18 08:59:22.15	10.50	22.11	-41.9	-44.3	18.7	0.00e+00	0	39	0	894435328	54	5039
2026-01-18 08:59:23.15	10.33	22.00	-41.9	-44.5	18.5	0.00e+00	0	39	0	896532480	54	5107
2026-01-18 08:59:24.15	10.15	21.90	-41.9	-44.4	18.6	0.00e+00	0	39	0	898629632	54	5096
2026-01-18 08:59:25.15	9.98	21.79	-42.0	-44.6	18.4	0.00e+00	0	39	0	900726784	54	5166
2026-01-18 08:59:26.16	9.80	21.68	-42.1	-44.8	18.2	0.00e+00	0	39	0	901775360	54	5285
2026-01-18 08:59:27.16	9.63	21.58	-42.1	-44.7	18.2	0.00e+00	0	39	0	903872512	54	5251
2026-01-18 08:59:28.15	9.46	21.48	-42.0	-44.6	18.4	0.00e+00	0	39	0	905969664	54	5175
2026-01-18 08:59:29.15	9.29	21.37	-42.1	-44.7	18.3	0.00e+00	0	39	0	908066816	54	5224
2026-01-18 08:59:30.16	9.12	21.27	-42.2	-44.8	18.2	0.00e+00	0	39	0	910163968	55	5013
2026-01-18 08:59:31.15	8.95	21.16	-42.2	-44.8	18.2	0.00e+00	0	39	0	911212544	55	4994
2026-01-18 08:59:32.15	8.78	21.06	-42.3	-45.0	18.0	0.00e+00	0	39	0	913309696	55	5125
2026-01-18 08:59:33.16	8.62	20.95	-42.3	-45.1	17.9	0.00e+00	0	39	0	915406848	55	5174
2026-01-18 08:59:34.15	8.45	20.85	-42.3	-45.1	17.8	0.00e+00	0	39	0	917504000	55	5202
2026-01-18 08:59:35.15	8.29	20.75	-42.3	-45.1	17.9	0.00e+00	0	39	0	918552576	55	5162
2026-01-18 08:59:36.15	8.13	20.64	-42.3	-45.1	17.9	0.00e+00	0	39	0	920649728	55	5200
2026-01-18 08:59:37.15	7.97	20.54	-42.3	-45.1	17.9	0.00e+00	0	39	0	922746880	55	5181
2026-01-18 08:59:38.16	7.81	20.44	-42.4	-45.2	17.8	0.00e+00	0	39	0	924844032	55	5238
2026-01-18 08:59:39.16	7.65	20.33	-42.5	-45.2	17.8	0.00e+00	0	39	0	926941184	55	5278
2026-01-18 08:59:40.16	7.49	20.23	-42.6	-45.4	17.6	0.00e+00	0	39	0	927989760	55	5351
2026-01-18 08:59:41.16	7.33	20.13	-42.8	-45.6	17.5	0.00e+00	0	39	0	930086912	56	5204
2026-01-18 08:59:42.16	7.18	20.03	-42.8	-45.6	17.5	0.00e+00	0	39	0	932184064	56	5218
2026-01-18 08:59:43.16	7.02	19.92	-42.8	-45.8	17.4	0.00e+00	0	39	0	934281216	56	5285
2026-01-18 08:59:44.16	6.87	19.82	-42.8	-45.7	17.5	0.00e+00	0	39	0	936378368	56	5251
2026-01-18 08:59:45.16	6.72	19.72	-42.7	-45.6	17.5	0.00e+00	0	39	0	937426944	56	5190
2026-01-18 08:59:46.16	6.57	19.62	-42.6	-45.5	17.6	0.00e+00	0	39	0	939524096	56	5153
2026-01-18 08:59:47.17	6.41	19.52	-42.6	-45.5	17.7	0.00e+00	0	39	0	941621248	56	5105
2026-01-18 08:59:48.17	6.26	19.41	-42.7	-45.5	17.6	0.00e+00	0	39	0	943718400	56	5154
2026-01-18 08:59:49.17	6.12	19.31	-42.8	-45.5	17.6	0.00e+00	0	39	0	944766976	56	5130
2026-01-18 08:59:50.17	5.97	19.21	-42.7	-45.4	17.7	0.00e+00	0	39	0	946864128	56	5083
2026-01-18 08:59:51.17	5.82	19.11	-42.8	-45.4	17.8	0.00e+00	0	40	0	948961280	56	5083
2026-01-18 08:59:52.18	5.68	19.01	-42.8	-45.4	17.7	0.00e+00	0	39	0	951058432	56	5091
2026-01-18 08:59:53.18	5.53	18.91	-42.8	-45.6	17.6	0.00e+00	0	39	0	953155584	56	5175
2026-01-18 08:59:54.18	5.39	18.81	-42.9	-45.7	17.4	0.00e+00	0	39	0	955252736	56	5260
2026-01-18 08:59:55.18	5.24	18.71	-42.8	-45.7	17.5	0.00e+00	0	39	0	956301312	56	5243
2026-01-18 08:59:56.18	5.10	18.61	-43.0	-45.9	17.2	0.00e+00	0	39	0	958398464	56	5367
2026-01-18 08:59:57.18	4.96	18.51	-43.1	-46.1	17.1	0.00e+00	0	39	0	960495616	56	5467
2026-01-18 08:59:58.18	4.82	18.41	-43.1	-46.0	17.2	0.00e+00	0	39	0	962592768	56	5425
2026-01-18 08:59:59.18	4.68	18.32	-43.2	-46.1	17.0	0.00e+00	0	39	0	963641344	57	5180
2026-01-18 09:00:00.18	4.55	18.22	-43.2	-46.2	17.0	0.00e+00	0	39	0	965738496	57	5222
2026-01-18 09:00:01.18	4.41	18.12	-43.2	-46.1	17.0	0.00e+00	0	39	0	967835648	57	5177
2026-01-18 09:00:02.19	4.27	18.02	-43.1	-46.0	17.1	0.00e+00	0	39	0	969932800	57	5158
2026-01-18 09:00:03.19	4.14	17.92	-43.1	-46.0	17.1	0.00e+00	0	40	0	972029952	57	5120
2026-01-18 09:00:04.19	4.00	17.82	-43.0	-46.0	17.1	0.00e+00	0	40	0	973078528	57	5136
2026-01-18 09:00:05.19	3.87	17.73	-43.0	-46.1	17.0	0.00e+00	0	39	0	975175680	57	5178
2026-01-18 09:00:06.19	3.74	17.63	-43.0	-46.0	17.1	0.00e+00	0	40	0	977272832	57	5133
2026-01-18 09:00:07.19	3.61	17.53	-43.1	-46.1	17.0	0.00e+00	0	39	0	979369984	57	5166
2026-01-18 09:00:08.20	3.47	17.43	-43.1	-45.9	17.1	0.00e+00	0	39	0	981467136	57	5098
2026-01-18 09:00:09.20	3.34	17.34	-43.2	-46.1	17.0	0.00e+00	0	39	0	982515712	57	5162
2026-01-18 09:00:10.20	3.21	17.24	-43.2	-46.0	17.1	0.00e+00	0	39	0	984612864	57	5123
2026-01-18 09:00:11.20	3.09	17.15	-43.1	-45.9	17.2	0.00e+00	0	40	0	986710016	57	5083
2026-01-18 09:00:12.20	2.96	17.05	-43.2	-46.0	17.1	0.00e+00	0	39	0	988807168	57	5145
2026-01-18 09:00:13.19	2.83	16.96	-43.1	-46.0	17.1	0.00e+00	0	39	0	989855744	57	5123
2026-01-18 09:00:14.19	2.71	16.86	-43.0	-45.9	17.3	0.00e+00	0	39	0	991952896	57	5044
2026-01-18 09:00:15.19	2.58	16.76	-43.0	-46.0	17.2	0.00e+00	0	39	0	994050048	57	5104
2026-01-18 09:00:16.19	2.46	16.67	-43.0	-46.0	17.2	0.00e+00	0	39	0	996147200	57	5111
2026-01-18 09:00:17.20	2.33	16.57	-43.0	-45.9	17.2	0.00e+00	0	39	0	998244352	57	5077
2026-01-18 09:00:18.20	2.21	16.48	-43.1	-46.0	17.1	0.00e+00	0	40	0	999292928	57	5143
2026-01-18 09:00:19.20	2.09	16.39	-43.1	-46.0	17.1	0.00e+00	0	39	0	1001390080	57	5146
2026-01-18 09:00:20.20	1.97	16.29	-43.1	-45.9	17.2	0.00e+00	0	39	0	1003487232	57	5096
2026-01-18 09:00:21.20	1.85	16.20	-43.2	-46.1	17.0	0.00e+00	0	39	0	1005584384	57	5194
2026-01-18 09:00:22.20	1.73	16.10	-43.2	-46.1	17.0	0.00e+00	0	39	0	1007681536	57	5171
2026-01-18 09:00:23.20	1.61	16.01	-43.2	-46.1	17.0	0.00e+00	0	39	0	1008730112	57	5196
2026-01-18 09:00:24.20	1.49	15.92	-43.1	-46.1	17.0	0.00e+00	0	39	0	1010827264	57	5176
2026-01-18 09:00:25.20	1.38	15.83	-43.2	-46.2	16.9	0.00e+00	0	39	0	1012924416	57	5266
2026-01-18 09:00:26.21	1.26	15.73	-43.0	-46.1	17.0	0.00e+00	0	40	0	1015021568	57	5209
2026-01-18 09:00:27.21	1.14	15.64	-43.0	-46.1	17.0	0.00e+00	0	39	0	1017118720	57	5203
2026-01-18 09:00:28.21	1.03	15.55	-43.0	-46.2	16.9	0.00e+00	0	39	0	1018167296	57	5227
2026-01-18 09:00:29.21	0.91	15.46	-43.1	-46.2	16.8	0.00e+00	0	39	0	1020264448	57	5275
2026-01-18 09:00:30.21	0.80	15.36	-43.1	-46.2	16.9	0.00e+00	0	39	0	1022361600	57	5260
2026-01-18 09:00:31.21	0.69	15.27	-43.3	-46.3	16.8	0.00e+00	0	39	0	1024458752	57	5336
2026-01-18 09:00:32.20	0.58	15.18	-43.3	-46.3	16.8	0.00e+00	0	39	0	1025507328	57	5326
2026-01-18 09:00:33.21	0.47	15.09	-43.2	-46.2	16.9	0.00e+00	0	39	0	1027604480	57	5244
2026-01-18 09:00:34.21	0.36	15.00	-43.1	-46.1	17.0	0.00e+00	0	39	0	1029701632	57	5173
2026-01-18 09:00:35.21	0.25	14.91	-43.3	-46.3	16.8	0.00e+00	0	39	0	1031798784	57	5283
2026-01-18 09:00:36.21	0.14	14.82	-43.3	-46.2	16.9	0.00e+00	0	39	0	1033895936	57	5267
2026-01-18 09:00:37.21	0.03	14.73	-43.2	-46.2	16.9	0.00e+00	0	39	0	1034944512	57	5227
2026-01-18 09:00:38.22	359.92	14.64	-43.1	-46.1	16.9	0.00e+00	0	39	0	1037041664	57	5184
2026-01-18 09:00:39.22	359.81	14.55	-43.0	-46.0	17.1	0.00e+00	0	39	0	1039138816	57	5118
2026-01-18 09:00:40.22	359.71	14.46	-43.0	-45.9	17.1	0.00e+00	0	39	0	1041235968	57	5082
2026-01-18 09:00:41.21	359.60	14.37	-43.0	-45.9	17.1	0.00e+00	0	39	0	1043333120	57	5094
2026-01-18 09:00:42.22	359.49	14.28	-43.1	-46.0	17.1	0.00e+00	0	39	0	1044381696	57	5133
2026-01-18 09:00:43.22	359.39	14.19	-43.2	-46.0	17.1	0.00e+00	0	39	0	1046478848	57	5136
2026-01-18 09:00:44.22	359.29	14.10	-43.3	-46.2	16.9	0.00e+00	0	39	0	1048576000	57	5230
2026-01-18 09:00:45.22	359.18	14.01	-43.2	-46.1	16.9	0.00e+00	0	39	0	1050673152	57	5188
2026-01-18 09:00:46.22	359.08	13.93	-43.4	-46.3	16.8	0.00e+00	0	39	0	1051721728	57	5301
2026-01-18 09:00:47.22	358.98	13.84	-43.3	-46.2	16.8	0.00e+00	0	39	0	1053818880	57	5263
2026-01-18 09:00:48.22	358.88	13.75	-43.5	-46.5	16.6	0.00e+00	0	39	0	1055916032	57	5430
2026-01-18 09:00:49.22	358.78	13.66	-43.6	-46.7	16.3	0.00e+00	0	39	0	1058013184	57	5565
2026-01-18 09:00:50.22	358.68	13.58	-43.4	-46.6	16.5	0.00e+00	0	40	0	1060110336	57	5472
2026-01-18 09:00:51.23	358.58	13.49	-43.6	-46.8	16.2	0.00e+00	0	39	0	1061158912	57	5621
2026-01-18 09:00:52.22	358.48	13.40	-43.6	-46.9	16.2	0.00e+00	0	39	0	1063256064	57	5699
2026-01-18 09:00:53.23	358.38	13.32	-43.6	-46.9	16.2	0.00e+00	0	39	0	1065353216	57	5662
2026-01-18 09:00:54.23	358.28	13.23	-43.6	-46.9	16.1	0.00e+00	0	39	0	1067450368	57	5701
2026-01-18 09:00:55.23	358.18	13.14	-43.7	-46.9	16.1	0.00e+00	0	39	0	1069547520	57	5699
2026-01-18 09:00:56.24	358.09	13.06	-43.8	-47.0	16.0	0.00e+00	0	39	0	1070596096	58	5424
2026-01-18 09:00:57.24	357.99	12.97	-43.8	-47.1	16.0	0.00e+00	0	39	0	1072693248	58	5473
2026-01-18 09:00:58.25	357.89	12.89	-43.8	-47.0	16.1	0.00e+00	0	39	0	1074790400	58	5426
2026-01-18 09:00:59.25	357.80	12.80	-43.9	-47.1	16.0	0.00e+00	0	39	0	1076887552	58	5470
2026-01-18 09:01:00.25	357.70	12.72	-43.9	-47.1	15.9	0.00e+00	0	39	0	1078984704	58	5527
2026-01-18 09:01:01.25	357.61	12.63	-43.8	-47.0	16.1	0.00e+00	0	39	0	1080033280	58	5430
2026-01-18 09:01:02.25	357.52	12.55	-43.9	-47.1	16.0	0.00e+00	0	39	0	1082130432	58	5492
2026-01-18 09:01:03.25	357.42	12.46	-43.8	-47.1	15.9	0.00e+00	0	39	0	1084227584	58	5499
2026-01-18 09:01:04.25	357.33	12.38	-43.8	-47.1	15.9	0.00e+00	0	39	0	1086324736	58	5524
2026-01-18 09:01:05.26	357.24	12.29	-43.7	-47.2	15.8	0.00e+00	0	39	0	1088421888	58	5554
2026-01-18 09:01:06.26	357.15	12.21	-43.5	-47.1	15.9	0.00e+00	0	39	0	1089470464	58	5522
2026-01-18 09:01:07.26	357.06	12.13	-43.4	-47.2	15.9	0.00e+00	0	39	0	1091567616	58	5548
2026-01-18 09:01:08.26	356.97	12.04	-43.4	-47.1	15.9	0.00e+00	0	39	0	1093664768	58	5522
2026-01-18 09:01:09.26	356.88	11.96	-43.4	-47.2	15.9	0.00e+00	0	39	0	1095761920	58	5538
2026-01-18 09:01:10.26	356.79	11.88	-43.5	-47.3	15.7	0.00e+00	0	40	0	1096810496	58	5605
2026-01-18 09:01:11.26	356.70	11.79	-43.5	-47.2	15.8	0.00e+00	0	39	0	1098907648	58	5549
2026-01-18 09:01:12.27	356.61	11.71	-43.5	-47.1	15.9	0.00e+00	0	39	0	1101004800	58	5513
2026-01-18 09:01:13.27	356.53	11.63	-43.5	-47.2	15.9	0.00e+00	0	39	0	1103101952	58	5537
2026-01-18 09:01:14.27	356.44	11.55	-43.6	-47.2	15.8	0.00e+00	0	39	0	1105199104	58	5555
2026-01-18 09:01:15.27	356.35	11.47	-43.7	-47.3	15.7	0.00e+00	0	39	0	1106247680	58	5610
2026-01-18 09:01:16.27	356.27	11.38	-43.6	-47.2	15.8	0.00e+00	0	39	0	1108344832	58	5561
2026-01-18 09:01:17.27	356.18	11.30	-43.8	-47.3	15.7	0.00e+00	0	39	0	1110441984	58	5654
2026-01-18 09:01:18.27	356.10	11.22	-43.8	-47.5	15.6	0.00e+00	0	39	0	1112539136	58	5724
2026-01-18 09:01:19.27	356.01	11.14	-43.9	-47.6	15.4	0.00e+00	0	39	0	1114636288	58	5841
2026-01-18 09:01:20.28	355.93	11.06	-43.8	-47.7	15.2	0.00e+00	0	39	0	1115684864	58	5916
2026-01-18 09:01:21.27	355.85	10.98	-43.8	-47.8	15.2	0.00e+00	0	39	0	1117782016	58	5971
2026-01-18 09:01:22.27	355.76	10.90	-43.8	-47.9	15.1	0.00e+00	0	39	0	1119879168	58	6035
2026-01-18 09:01:23.28	355.68	10.82	-43.7	-47.9	15.1	0.00e+00	0	39	0	1121976320	58	5994
2026-01-18 09:01:24.28	355.60	10.74	-43.7	-48.1	14.9	0.00e+00	0	40	0	1124073472	58	6192
2026-01-18 09:01:25.28	355.52	10.66	-43.5	-48.1	14.9	0.00e+00	0	39	0	1125122048	58	6141
2026-01-18 09:01:26.28	355.44	10.58	-43.5	-48.0	15.0	0.00e+00	0	39	0	1127219200	58	6115
2026-01-18 09:01:27.28	355.36	10.50	-43.2	-48.0	15.0	0.00e+00	0	39	0	1129316352	58	6085
2026-01-18 09:01:28.28	355.28	10.42	-43.2	-48.0	15.0	0.00e+00	0	39	0	1131413504	58	6080
2026-01-18 09:01:29.29	355.20	10.34	-43.2	-47.9	15.1	0.00e+00	0	39	0	1133510656	58	6051
2026-01-18 09:01:30.28	355.12	10.26	-43.1	-47.9	15.1	0.00e+00	0	39	0	1134559232	58	6017
2026-01-18 09:01:31.29	355.04	10.18	-42.9	-47.8	15.1	0.00e+00	0	40	0	1136656384	57	6313
2026-01-18 09:01:32.29	354.96	10.11	-42.9	-47.8	15.2	0.00e+00	0	39	0	1138753536	57	6291
2026-01-18 09:01:33.29	354.88	10.03	-42.9	-47.8	15.1	0.00e+00	0	39	0	1140850688	57	6304
2026-01-18 09:01:34.29	354.80	9.95	-42.8	-48.0	15.0	0.00e+00	0	39	0	1142947840	57	6437
2026-01-18 09:01:35.29	354.73	9.87	-42.5	-47.8	15.1	0.00e+00	0	39	0	1143996416	56	6696
2026-01-18 09:01:36.29	354.65	9.79	-42.4	-48.1	14.9	0.00e+00	0	39	0	1146093568	56	6884
2026-01-18 09:01:37.30	354.57	9.72	-42.2	-48.0	14.9	7.00e-07	0	40	0	1148190720	56	6866
2026-01-18 09:01:38.29	354.50	9.64	-42.2	-48.2	14.8	0.00e+00	0	39	0	1150287872	56	6962
2026-01-18 09:01:39.30	354.42	9.56	-42.1	-48.2	14.6	0.00e+00	0	39	0	1151336448	56	7023
2026-01-18 09:01:40.30	354.35	9.48	-42.1	-48.3	14.6	0.00e+00	0	39	0	1153433600	56	7106
2026-01-18 09:01:41.30	354.27	9.41	-42.0	-48.4	14.5	0.00e+00	0	39	0	1155530752	56	7186
2026-01-18 09:01:42.30	354.20	9.33	-42.1	-48.4	14.5	1.50e-06	0	39	0	1157627904	56	7184
2026-01-18 09:01:43.30	354.13	9.26	-42.2	-48.6	14.3	7.00e-07	0	39	0	1159725056	56	7288
2026-01-18 09:01:44.30	354.05	9.18	-42.6	-48.6	14.3	7.00e-07	0	39	0	1160773632	56	7297
2026-01-18 09:01:45.30	353.98	9.10	-43.1	-48.6	14.3	7.00e-07	0	39	0	1162870784	56	7328
2026-01-18 09:01:46.30	353.91	9.03	-43.1	-48.7	14.2	1.50e-06	0	39	0	1164967936	57	6979
2026-01-18 09:01:47.30	353.84	8.95	-44.5	-64.0	3.8	7.18e-01	0	39	104	1166016512	60	34387
2026-01-18 09:01:48.29	353.76	8.88	-48.2	-64.3	3.8	1.49e+00	0	39	104	1166016512	67	23632
2026-01-18 09:01:49.29	353.69	8.80	-48.6	-64.5	3.8	1.49e+00	0	39	104	1166016512	68	22966
2026-01-18 09:01:50.29	353.62	8.73	-48.9	-64.6	3.8	1.49e+00	0	39	104	1166016512	68	23130
2026-01-18 09:01:51.28	353.55	8.65	-49.0	-64.6	3.8	1.49e+00	0	39	104	1166016512	68	23227
2026-01-18 09:01:52.28	353.48	8.58	-49.1	-64.6	3.8	1.49e+00	0	39	104	1166016512	69	21957
2026-01-18 09:01:53.28	353.41	8.50	-49.3	-64.6	3.8	1.49e+00	0	39	104	1166016512	69	22001
2026-01-18 09:01:54.27	353.34	8.43	-49.4	-64.7	3.8	1.49e+00	0	40	104	1166016512	69	22149
2026-01-18 09:01:55.27	353.28	8.36	-48.9	-64.7	3.8	1.49e+00	0	40	104	1166016512	69	22219
2026-01-18 09:01:56.27	353.21	8.28	-49.3	-64.7	3.8	1.49e+00	0	39	104	1166016512	69	22231
2026-01-18 09:01:57.27	353.14	8.21	-49.6	-64.8	3.8	1.49e+00	0	39	104	1166016512	69	22265
2026-01-18 09:01:58.26	353.07	8.14	-49.1	-64.8	3.8	1.49e+00	0	39	104	1166016512	69	22288
2026-01-18 09:01:59.26	353.00	8.06	-49.1	-64.8	3.8	1.49e+00	0	40	104	1166016512	69	22359
2026-01-18 09:02:00.26	352.94	7.99	-49.5	-64.8	3.8	1.49e+00	0	39	104	1166016512	69	22303
2026-01-18 09:02:01.25	352.87	7.92	-49.5	-64.8	3.8	1.49e+00	0	39	104	1166016512	69	22289
2026-01-18 09:02:02.25	352.80	7.85	-49.4	-64.8	3.8	1.49e+00	0	40	104	1166016512	69	22364
2026-01-18 09:02:03.25	352.74	7.77	-49.5	-64.8	3.8	1.49e+00	0	39	104	1166016512	69	22428
2026-01-18 09:02:04.24	352.67	7.70	-49.2	-64.8	3.8	1.49e+00	0	39	104	1166016512	69	22396
2026-01-18 09:02:05.24	352.61	7.63	-49.6	-64.8	3.8	1.49e+00	0	39	104	1166016512	69	22473
2026-01-18 09:02:06.23	352.54	7.56	-49.6	-64.8	3.8	1.49e+00	0	39	104	1166016512	69	22452
2026-01-18 09:02:07.23	352.48	7.49	-49.6	-64.8	3.8	1.49e+00	0	39	104	1166016512	69	22451
2026-01-18 09:02:08.23	352.41	7.41	-49.6	-64.8	3.8	1.49e+00	0	39	104	1166016512	69	22434
2026-01-18 09:02:09.22	352.35	7.34	-49.7	-64.8	3.8	1.49e+00	0	39	104	1166016512	69	22448
2026-01-18 09:02:10.22	352.29	7.27	-49.7	-64.8	3.8	1.49e+00	0	39	104	1166016512	69	22421
2026-01-18 09:02:11.22	352.22	7.20	-49.5	-64.8	3.8	1.49e+00	0	39	104	1166016512	69	22384
2026-01-18 09:02:12.21	352.16	7.13	-49.6	-64.8	3.8	1.49e+00	0	39	104	1166016512	69	22389
2026-01-18 09:02:13.21	352.10	7.06	-49.5	-64.8	3.8	1.49e+00	0	39	104	1166016512	69	22417
2026-01-18 09:02:14.21	352.04	6.99	-49.5	-64.8	3.8	1.49e+00	0	39	104	1166016512	69	22372
2026-01-18 09:02:15.20	351.97	6.92	-49.4	-64.8	3.8	1.49e+00	0	39	104	1166016512	69	22382
