passes_logs/2026/01/18/T1/T1__20260118_011738_FENGYUN_3D_rec.log

#Pass ID: 20260118_011738_FENGYUN 3D
#Satellite: FENGYUN 3D
#Configuration: FENGYUN 3D
#almurnet v.1.7.20251203
#Start time: 2026-01-18 01:17:38

#Version: 2.0.20230620
#Station: T1
#Location: 37.570604 lon 55.790049 lat
#TLE: 1 43010U 17072A   26017.25882587  .00000461  00000+0  23963-3 0  9992
#TLE: 2 43010  98.9934 349.1096 0002357 104.0487 256.0951 14.19697152423579

#Time	Az	El	Level	Level2	SNR	BER	BlckErr	Temp	State	Recorded	gain1	gain2
2026-01-18 01:17:38.67	20.22	5.04	-48.8	-61.9	3.8	8.47e-01	0	41	0	0	69	15979
2026-01-18 01:17:39.66	20.25	5.11	-48.7	-61.6	3.8	8.47e-01	0	41	104	0	67	17420
2026-01-18 01:17:40.66	20.28	5.18	-48.8	-61.8	3.8	8.48e-01	0	41	104	0	68	16708
2026-01-18 01:17:41.65	20.31	5.25	-48.8	-61.7	3.8	8.47e-01	0	42	104	0	68	16628
2026-01-18 01:17:42.65	20.34	5.32	-48.8	-61.7	3.8	8.48e-01	0	42	104	0	68	16570
2026-01-18 01:17:43.65	20.38	5.39	-48.8	-61.7	3.8	8.47e-01	0	42	104	0	68	16514
2026-01-18 01:17:44.65	20.41	5.46	-48.8	-61.7	3.8	8.47e-01	0	42	104	0	68	16559
2026-01-18 01:17:45.64	20.44	5.53	-48.8	-61.6	3.8	8.46e-01	0	42	104	0	68	16442
2026-01-18 01:17:46.63	20.47	5.60	-48.8	-61.6	3.8	8.46e-01	0	42	104	0	68	16465
2026-01-18 01:17:47.62	20.50	5.67	-48.8	-61.6	3.8	8.48e-01	0	42	104	0	68	16474
2026-01-18 01:17:48.62	20.53	5.74	-48.7	-61.7	3.8	8.47e-01	0	42	104	0	68	16591
2026-01-18 01:17:49.62	20.56	5.81	-48.8	-61.7	3.8	8.48e-01	0	42	104	0	68	16648
2026-01-18 01:17:50.61	20.60	5.89	-48.8	-61.8	3.8	8.47e-01	0	42	104	0	68	16748
2026-01-18 01:17:51.61	20.63	5.96	-48.8	-61.8	3.8	8.46e-01	0	42	104	0	68	16870
2026-01-18 01:17:52.61	20.66	6.03	-48.8	-61.8	3.8	8.47e-01	0	42	104	0	68	16886
2026-01-18 01:17:53.61	20.69	6.10	-48.8	-61.9	3.8	8.47e-01	0	42	104	0	68	16925
2026-01-18 01:17:54.60	20.72	6.17	-48.8	-61.9	3.8	8.47e-01	0	42	104	0	68	17056
2026-01-18 01:17:55.60	20.76	6.25	-48.8	-61.9	3.8	8.48e-01	0	42	104	0	68	17068
2026-01-18 01:17:56.60	20.79	6.32	-48.8	-61.9	3.8	8.46e-01	0	42	104	0	68	17008
2026-01-18 01:17:57.60	20.82	6.39	-48.8	-61.8	3.8	8.47e-01	0	42	104	0	68	16863
2026-01-18 01:17:58.60	20.86	6.47	-48.8	-61.8	3.8	8.48e-01	0	42	104	0	68	16743
2026-01-18 01:17:59.60	20.89	6.54	-48.8	-61.6	3.8	8.47e-01	0	42	104	0	68	16499
2026-01-18 01:18:00.60	20.92	6.61	-48.7	-61.4	3.8	8.47e-01	0	42	104	0	68	16022
2026-01-18 01:18:01.59	20.96	6.69	-48.7	-61.1	3.8	8.47e-01	0	42	104	0	68	15487
2026-01-18 01:18:02.58	20.99	6.76	-48.7	-60.7	3.8	8.46e-01	0	42	104	0	68	14831
2026-01-18 01:18:03.58	21.02	6.84	-48.6	-60.4	3.8	8.46e-01	0	42	104	0	68	14296
2026-01-18 01:18:04.58	21.06	6.91	-48.6	-60.0	3.8	8.45e-01	0	42	104	0	68	13722
2026-01-18 01:18:05.58	21.09	6.99	-48.6	-59.6	3.9	8.45e-01	0	43	104	0	68	12977
2026-01-18 01:18:06.58	21.12	7.06	-48.5	-59.3	4.0	8.44e-01	0	42	104	0	68	12556
2026-01-18 01:18:07.57	21.16	7.14	-48.5	-59.2	3.9	8.44e-01	0	42	104	0	68	12428
2026-01-18 01:18:08.57	21.19	7.21	-48.5	-58.6	4.1	8.41e-01	0	42	0	0	68	11589
2026-01-18 01:18:09.57	21.23	7.29	-48.4	-58.3	4.2	8.38e-01	0	42	0	0	68	11233
2026-01-18 01:18:10.57	21.26	7.36	-48.4	-58.1	4.3	8.37e-01	0	43	0	0	68	10967
2026-01-18 01:18:11.57	21.30	7.44	-48.4	-57.9	4.3	8.34e-01	0	43	0	0	68	10776
2026-01-18 01:18:12.57	21.33	7.52	-48.4	-57.9	4.3	8.33e-01	0	43	0	0	68	10707
2026-01-18 01:18:13.57	21.37	7.59	-48.4	-57.9	4.3	8.33e-01	0	43	0	0	68	10757
2026-01-18 01:18:14.57	21.40	7.67	-48.3	-57.8	4.3	8.32e-01	0	43	0	0	68	10629
2026-01-18 01:18:15.57	21.44	7.75	-48.3	-57.8	4.4	8.29e-01	0	43	0	0	68	10548
2026-01-18 01:18:16.57	21.48	7.82	-48.3	-57.7	4.4	8.30e-01	0	43	0	0	68	10447
2026-01-18 01:18:17.56	21.51	7.90	-48.3	-57.6	4.4	8.29e-01	0	43	0	0	68	10344
2026-01-18 01:18:18.56	21.55	7.98	-48.3	-57.6	4.4	8.28e-01	0	43	0	0	68	10353
2026-01-18 01:18:19.55	21.58	8.06	-48.3	-57.3	4.5	8.22e-01	0	43	0	0	68	10059
2026-01-18 01:18:20.55	21.62	8.13	-48.1	-56.8	4.8	7.99e-01	0	43	0	0	68	9391
2026-01-18 01:18:21.55	21.66	8.21	-48.1	-56.2	5.1	7.70e-01	0	43	0	0	68	8800
2026-01-18 01:18:22.54	21.69	8.29	-47.7	-55.3	5.6	7.30e-01	0	43	0	0	67	8374
2026-01-18 01:18:23.54	21.73	8.37	-47.5	-54.4	6.2	3.36e-01	0	43	0	5242880	67	7553
2026-01-18 01:18:24.53	21.77	8.45	-47.2	-53.3	7.1	2.08e-01	0	43	0	10485760	66	7111
2026-01-18 01:18:25.53	21.80	8.53	-46.7	-52.2	8.2	8.01e-02	0	43	0	16777216	65	6573
2026-01-18 01:18:26.53	21.84	8.61	-46.2	-51.0	9.4	3.43e-02	0	43	0	22020096	64	6101
2026-01-18 01:18:27.53	21.88	8.69	-45.8	-50.2	10.4	7.44e-03	0	43	0	27262976	63	5859
2026-01-18 01:18:28.53	21.92	8.77	-45.5	-49.4	11.1	2.79e-03	0	43	0	33554432	63	5401
2026-01-18 01:18:29.53	21.96	8.85	-44.9	-48.5	12.1	7.12e-04	0	43	0	38797312	61	5435
2026-01-18 01:18:30.53	21.99	8.93	-44.4	-47.8	12.9	8.92e-05	0	43	0	44040192	60	5292
2026-01-18 01:18:31.52	22.03	9.01	-44.2	-47.3	13.3	1.71e-05	0	43	0	50331648	60	5039
2026-01-18 01:18:32.52	22.07	9.09	-44.0	-47.1	13.6	1.48e-05	0	43	0	55574528	59	5179
2026-01-18 01:18:33.52	22.11	9.17	-45.7	-48.9	11.9	2.74e-05	0	43	0	60817408	61	5671
2026-01-18 01:18:34.52	22.15	9.25	-44.4	-47.5	13.0	1.72e-03	0	43	0	67108864	60	5147
2026-01-18 01:18:35.51	22.19	9.33	-46.5	-51.5	9.2	2.03e-03	0	43	0	72351744	63	6813
2026-01-18 01:18:36.51	22.23	9.42	-43.4	-46.2	14.3	3.31e-01	0	43	0	78643200	59	4656
2026-01-18 01:18:37.50	22.27	9.50	-40.0	-42.0	18.4	0.00e+00	0	43	0	83886080	51	4577
2026-01-18 01:18:38.50	22.31	9.58	-39.8	-41.8	18.7	0.00e+00	0	43	0	89128960	51	4464
2026-01-18 01:18:39.50	22.35	9.66	-39.6	-41.6	18.9	0.00e+00	0	43	0	94371840	51	4385
2026-01-18 01:18:40.49	22.39	9.75	-39.7	-41.7	18.9	0.00e+00	0	43	0	100663296	51	4395
2026-01-18 01:18:41.49	22.43	9.83	-39.5	-41.5	19.0	0.00e+00	0	43	0	105906176	51	4318
2026-01-18 01:18:42.49	22.47	9.91	-39.7	-41.7	18.8	0.00e+00	0	43	0	111149056	51	4407
2026-01-18 01:18:43.48	22.51	10.00	-39.8	-41.8	18.7	0.00e+00	0	43	0	117440512	51	4482
2026-01-18 01:18:44.48	22.55	10.08	-39.7	-41.7	18.9	0.00e+00	0	43	0	122683392	51	4397
2026-01-18 01:18:45.47	22.59	10.17	-39.3	-41.2	19.3	0.00e+00	0	43	0	128974848	50	4418
2026-01-18 01:18:46.47	22.63	10.25	-39.3	-41.2	19.3	0.00e+00	0	43	0	134217728	50	4431
2026-01-18 01:18:47.47	22.67	10.34	-39.3	-41.2	19.3	0.00e+00	0	43	0	139460608	50	4432
2026-01-18 01:18:48.47	22.72	10.42	-39.3	-41.2	19.3	0.00e+00	0	43	0	145752064	50	4403
2026-01-18 01:18:49.47	22.76	10.51	-39.2	-41.0	19.5	0.00e+00	0	43	0	150994944	50	4334
2026-01-18 01:18:50.47	22.80	10.59	-39.4	-41.3	19.3	0.00e+00	0	43	0	156237824	50	4445
2026-01-18 01:18:51.47	22.84	10.68	-39.2	-41.0	19.5	0.00e+00	0	43	0	162529280	50	4327
2026-01-18 01:18:52.46	22.89	10.77	-39.2	-41.1	19.4	0.00e+00	0	43	0	167772160	50	4354
2026-01-18 01:18:53.46	22.93	10.85	-39.2	-41.0	19.5	0.00e+00	0	43	0	173015040	50	4336
2026-01-18 01:18:54.46	22.97	10.94	-39.2	-41.1	19.4	0.00e+00	0	43	0	179306496	50	4365
2026-01-18 01:18:55.45	23.01	11.03	-39.2	-41.1	19.4	0.00e+00	0	43	0	184549376	50	4374
2026-01-18 01:18:56.45	23.06	11.12	-39.1	-41.0	19.6	0.00e+00	0	43	0	189792256	50	4296
2026-01-18 01:18:57.45	23.10	11.20	-39.2	-41.0	19.5	0.00e+00	0	43	0	196083712	50	4332
2026-01-18 01:18:58.44	23.15	11.29	-39.3	-41.2	19.4	0.00e+00	0	43	0	201326592	50	4410
2026-01-18 01:18:59.44	23.19	11.38	-39.3	-41.2	19.4	0.00e+00	0	43	0	206569472	50	4407
2026-01-18 01:19:00.44	23.24	11.47	-39.2	-41.1	19.5	0.00e+00	0	43	0	212860928	50	4368
2026-01-18 01:19:01.44	23.28	11.56	-39.3	-41.1	19.4	0.00e+00	0	43	0	218103808	50	4389
2026-01-18 01:19:02.44	23.33	11.65	-39.3	-41.2	19.4	0.00e+00	0	43	0	223346688	50	4399
2026-01-18 01:19:03.44	23.37	11.74	-39.1	-41.0	19.6	0.00e+00	0	43	0	229638144	50	4292
2026-01-18 01:19:04.44	23.42	11.83	-39.2	-41.0	19.5	0.00e+00	0	43	0	234881024	50	4338
2026-01-18 01:19:05.43	23.46	11.92	-39.1	-41.0	19.6	0.00e+00	0	43	0	241172480	50	4298
2026-01-18 01:19:06.43	23.51	12.01	-39.2	-41.0	19.5	0.00e+00	0	43	0	246415360	50	4330
2026-01-18 01:19:07.43	23.56	12.10	-39.2	-41.0	19.5	0.00e+00	0	43	0	251658240	50	4337
2026-01-18 01:19:08.43	23.60	12.19	-39.0	-40.9	19.7	0.00e+00	0	43	0	257949696	50	4268
2026-01-18 01:19:09.43	23.65	12.28	-39.1	-41.0	19.6	0.00e+00	0	43	0	263192576	50	4312
2026-01-18 01:19:10.42	23.70	12.38	-38.9	-40.8	19.7	0.00e+00	0	43	0	268435456	49	4469
2026-01-18 01:19:11.42	23.74	12.47	-39.1	-41.0	19.6	0.00e+00	0	44	0	274726912	49	4547
2026-01-18 01:19:12.42	23.79	12.56	-38.9	-40.8	19.8	0.00e+00	0	44	0	279969792	49	4458
2026-01-18 01:19:13.42	23.84	12.66	-38.9	-40.8	19.8	0.00e+00	0	43	0	285212672	49	4464
2026-01-18 01:19:14.41	23.89	12.75	-39.1	-40.9	19.7	0.00e+00	0	43	0	291504128	49	4540
2026-01-18 01:19:15.41	23.94	12.84	-38.9	-40.7	19.8	0.00e+00	0	43	0	296747008	49	4415
2026-01-18 01:19:16.41	23.99	12.94	-38.8	-40.6	19.9	0.00e+00	0	43	0	303038464	49	4367
2026-01-18 01:19:17.40	24.03	13.03	-38.7	-40.6	20.0	0.00e+00	0	44	0	308281344	49	4351
2026-01-18 01:19:18.40	24.08	13.13	-38.8	-40.6	19.9	0.00e+00	0	43	0	313524224	49	4378
2026-01-18 01:19:19.40	24.13	13.22	-38.6	-40.5	20.0	0.00e+00	0	44	0	318767104	49	4305
2026-01-18 01:19:20.40	24.18	13.32	-38.8	-40.6	19.9	0.00e+00	0	44	0	325058560	49	4377
2026-01-18 01:19:21.40	24.23	13.41	-38.5	-40.3	20.2	0.00e+00	0	43	0	330301440	49	4235
2026-01-18 01:19:22.40	24.29	13.51	-38.5	-40.3	20.2	0.00e+00	0	43	0	335544320	48	4482
2026-01-18 01:19:23.40	24.34	13.61	-38.5	-40.3	20.2	0.00e+00	0	43	0	341835776	48	4482
2026-01-18 01:19:24.40	24.39	13.70	-38.5	-40.3	20.2	0.00e+00	0	44	0	347078656	48	4476
2026-01-18 01:19:25.40	24.44	13.80	-38.5	-40.3	20.2	0.00e+00	0	43	0	353370112	48	4467
2026-01-18 01:19:26.39	24.49	13.90	-38.5	-40.4	20.2	0.00e+00	0	44	0	358612992	48	4508
2026-01-18 01:19:27.39	24.54	14.00	-38.6	-40.4	20.1	0.00e+00	0	44	0	363855872	48	4521
2026-01-18 01:19:28.39	24.60	14.10	-38.6	-40.4	20.1	0.00e+00	0	44	0	370147328	48	4539
2026-01-18 01:19:29.39	24.65	14.20	-38.6	-40.4	20.2	0.00e+00	0	44	0	375390208	48	4517
2026-01-18 01:19:30.39	24.70	14.30	-38.6	-40.5	20.1	0.00e+00	0	44	0	380633088	48	4560
2026-01-18 01:19:31.39	24.76	14.40	-38.6	-40.4	20.1	0.00e+00	0	44	0	386924544	48	4523
2026-01-18 01:19:32.39	24.81	14.50	-38.6	-40.4	20.2	0.00e+00	0	43	0	392167424	48	4524
2026-01-18 01:19:33.38	24.86	14.60	-38.6	-40.4	20.1	0.00e+00	0	43	0	397410304	48	4538
2026-01-18 01:19:34.38	24.92	14.70	-38.4	-40.2	20.3	0.00e+00	0	43	0	403701760	48	4439
2026-01-18 01:19:35.38	24.97	14.80	-38.5	-40.4	20.2	0.00e+00	0	43	0	408944640	48	4503
2026-01-18 01:19:36.38	25.03	14.90	-38.5	-40.3	20.2	0.00e+00	0	44	0	415236096	48	4490
2026-01-18 01:19:37.37	25.08	15.00	-38.5	-40.3	20.3	0.00e+00	0	43	0	420478976	48	4459
2026-01-18 01:19:38.36	25.14	15.10	-38.4	-40.2	20.4	0.00e+00	0	44	0	425721856	48	4416
2026-01-18 01:19:39.36	25.20	15.21	-38.2	-40.0	20.5	0.00e+00	0	44	0	432013312	48	4335
2026-01-18 01:19:40.35	25.25	15.31	-38.2	-39.9	20.6	0.00e+00	0	43	0	437256192	48	4283
2026-01-18 01:19:41.35	25.31	15.41	-38.1	-39.9	20.6	0.00e+00	0	43	0	442499072	48	4248
2026-01-18 01:19:42.35	25.37	15.52	-38.1	-39.8	20.7	0.00e+00	0	44	0	447741952	48	4232
2026-01-18 01:19:43.35	25.42	15.62	-38.0	-39.7	20.8	0.00e+00	0	44	0	454033408	48	4192
2026-01-18 01:19:44.34	25.48	15.73	-37.8	-39.6	20.8	0.00e+00	0	43	0	459276288	47	4342
2026-01-18 01:19:45.34	25.54	15.83	-37.7	-39.5	20.8	0.00e+00	0	43	0	465567744	47	4304
2026-01-18 01:19:46.34	25.60	15.94	-37.9	-39.7	20.6	0.00e+00	0	43	0	470810624	47	4408
2026-01-18 01:19:47.34	25.66	16.05	-37.7	-39.5	20.8	0.00e+00	0	44	0	476053504	47	4295
2026-01-18 01:19:48.34	25.72	16.15	-37.7	-39.5	20.8	0.00e+00	0	43	0	482344960	47	4293
2026-01-18 01:19:49.34	25.78	16.26	-37.7	-39.5	20.7	0.00e+00	0	43	0	487587840	47	4307
2026-01-18 01:19:50.33	25.84	16.37	-37.7	-39.6	20.7	0.00e+00	0	43	0	492830720	47	4343
2026-01-18 01:19:51.33	25.90	16.48	-37.6	-39.4	20.8	0.00e+00	0	44	0	499122176	47	4280
2026-01-18 01:19:52.32	25.96	16.58	-37.6	-39.4	20.8	0.00e+00	0	44	0	504365056	47	4288
2026-01-18 01:19:53.32	26.02	16.69	-37.6	-39.4	20.8	0.00e+00	0	44	0	510656512	47	4285
2026-01-18 01:19:54.32	26.08	16.80	-37.6	-39.5	20.8	0.00e+00	0	44	0	515899392	47	4296
2026-01-18 01:19:55.31	26.15	16.91	-37.6	-39.4	20.9	0.00e+00	0	44	0	521142272	47	4256
2026-01-18 01:19:56.31	26.21	17.02	-37.5	-39.3	21.0	0.00e+00	0	44	0	527433728	46	4456
2026-01-18 01:19:57.31	26.27	17.13	-37.6	-39.4	20.9	0.00e+00	0	43	0	532676608	46	4514
2026-01-18 01:19:58.31	26.34	17.25	-37.5	-39.3	20.9	0.00e+00	0	44	0	537919488	46	4479
2026-01-18 01:19:59.31	26.40	17.36	-37.5	-39.3	20.9	0.00e+00	0	44	0	544210944	46	4489
2026-01-18 01:20:00.30	26.47	17.47	-37.5	-39.3	20.9	0.00e+00	0	44	0	549453824	46	4488
2026-01-18 01:20:01.30	26.53	17.58	-37.4	-39.2	21.0	0.00e+00	0	43	0	554696704	46	4425
2026-01-18 01:20:02.29	26.60	17.70	-37.4	-39.2	21.1	0.00e+00	0	43	0	560988160	46	4417
2026-01-18 01:20:03.29	26.66	17.81	-37.4	-39.2	21.1	0.00e+00	0	44	0	566231040	46	4392
2026-01-18 01:20:04.29	26.73	17.92	-37.5	-39.3	21.0	0.00e+00	0	44	0	571473920	46	4453
2026-01-18 01:20:05.29	26.80	18.04	-37.4	-39.2	21.1	0.00e+00	0	43	0	577765376	46	4405
2026-01-18 01:20:06.29	26.86	18.16	-37.3	-39.1	21.2	0.00e+00	0	44	0	583008256	46	4373
2026-01-18 01:20:07.28	26.93	18.27	-37.4	-39.2	21.1	0.00e+00	0	44	0	588251136	46	4401
2026-01-18 01:20:08.29	27.00	18.39	-37.3	-39.1	21.2	0.00e+00	0	43	0	594542592	46	4352
2026-01-18 01:20:09.28	27.07	18.50	-37.4	-39.2	21.1	0.00e+00	0	43	0	599785472	46	4394
2026-01-18 01:20:10.28	27.14	18.62	-37.3	-39.1	21.1	0.00e+00	0	43	0	605028352	46	4380
2026-01-18 01:20:11.28	27.21	18.74	-37.3	-39.1	21.2	0.00e+00	0	44	0	611319808	46	4364
2026-01-18 01:20:12.27	27.28	18.86	-37.4	-39.2	21.1	0.00e+00	0	44	0	616562688	46	4404
2026-01-18 01:20:13.27	27.35	18.98	-37.5	-39.3	21.0	0.00e+00	0	44	0	622854144	46	4445
2026-01-18 01:20:14.27	27.42	19.10	-37.3	-39.1	21.2	0.00e+00	0	44	0	628097024	46	4372
2026-01-18 01:20:15.27	27.49	19.22	-37.3	-39.1	21.2	0.00e+00	0	43	0	633339904	46	4352
2026-01-18 01:20:16.26	27.57	19.34	-37.3	-39.1	21.2	0.00e+00	0	44	0	639631360	46	4346
2026-01-18 01:20:17.26	27.64	19.46	-37.3	-39.1	21.2	0.00e+00	0	44	0	644874240	46	4359
2026-01-18 01:20:18.25	27.71	19.58	-37.1	-38.8	21.4	0.00e+00	0	44	0	650117120	46	4233
2026-01-18 01:20:19.25	27.79	19.70	-36.9	-38.6	21.5	0.00e+00	0	44	0	655360000	45	4386
2026-01-18 01:20:20.25	27.86	19.83	-36.9	-38.6	21.6	0.00e+00	0	44	0	661651456	45	4357
2026-01-18 01:20:21.25	27.94	19.95	-36.9	-38.6	21.6	0.00e+00	0	44	0	666894336	45	4358
2026-01-18 01:20:22.25	28.01	20.07	-36.9	-38.6	21.6	0.00e+00	0	44	0	673185792	45	4359
2026-01-18 01:20:23.25	28.09	20.20	-36.9	-38.6	21.6	0.00e+00	0	44	0	678428672	45	4348
2026-01-18 01:20:24.25	28.17	20.33	-36.8	-38.5	21.7	0.00e+00	0	44	0	683671552	45	4320
2026-01-18 01:20:25.25	28.24	20.45	-36.9	-38.6	21.6	0.00e+00	0	44	0	689963008	45	4349
2026-01-18 01:20:26.25	28.32	20.58	-36.9	-38.6	21.6	0.00e+00	0	44	0	695205888	45	4368
2026-01-18 01:20:27.25	28.40	20.71	-36.9	-38.6	21.6	0.00e+00	0	44	0	700448768	45	4378
2026-01-18 01:20:28.25	28.48	20.83	-36.9	-38.7	21.5	0.00e+00	0	44	0	706740224	45	4399
2026-01-18 01:20:29.25	28.56	20.96	-36.9	-38.6	21.6	0.00e+00	0	44	0	711983104	45	4366
2026-01-18 01:20:30.24	28.64	21.09	-36.9	-38.6	21.6	0.00e+00	0	44	0	717225984	45	4365
2026-01-18 01:20:31.24	28.72	21.22	-36.8	-38.6	21.6	0.00e+00	0	43	0	723517440	45	4349
2026-01-18 01:20:32.24	28.81	21.35	-36.7	-38.4	21.7	0.00e+00	0	44	0	728760320	45	4280
2026-01-18 01:20:33.24	28.89	21.48	-36.6	-38.3	21.8	0.00e+00	0	44	0	735051776	45	4210
2026-01-18 01:20:34.24	28.97	21.61	-36.6	-38.3	21.8	0.00e+00	0	43	0	740294656	45	4228
2026-01-18 01:20:35.23	29.06	21.74	-36.5	-38.1	21.9	0.00e+00	0	43	0	745537536	44	4388
2026-01-18 01:20:36.23	29.14	21.88	-36.4	-38.0	22.0	0.00e+00	0	44	0	751828992	44	4339
2026-01-18 01:20:37.23	29.23	22.01	-36.4	-38.1	22.1	0.00e+00	0	44	0	757071872	44	4341
2026-01-18 01:20:38.23	29.31	22.14	-36.3	-37.9	22.1	0.00e+00	0	44	0	762314752	44	4285
2026-01-18 01:20:39.23	29.40	22.28	-36.3	-37.9	22.2	0.00e+00	0	44	0	768606208	44	4289
2026-01-18 01:20:40.23	29.49	22.41	-36.3	-38.0	22.2	0.00e+00	0	44	0	773849088	44	4292
2026-01-18 01:20:41.23	29.58	22.55	-36.3	-37.9	22.1	0.00e+00	0	44	0	779091968	44	4289
2026-01-18 01:20:42.23	29.67	22.69	-36.3	-38.0	22.1	0.00e+00	0	44	0	785383424	44	4327
2026-01-18 01:20:43.23	29.76	22.83	-36.3	-38.0	22.1	0.00e+00	0	44	0	790626304	44	4306
2026-01-18 01:20:44.22	29.85	22.96	-36.4	-38.1	22.1	0.00e+00	0	44	0	796917760	44	4342
2026-01-18 01:20:45.22	29.94	23.10	-36.4	-38.1	22.0	0.00e+00	0	44	0	802160640	44	4379
2026-01-18 01:20:46.22	30.03	23.24	-36.5	-38.2	22.0	0.00e+00	0	44	0	807403520	44	4395
2026-01-18 01:20:47.22	30.12	23.38	-36.6	-38.3	21.9	0.00e+00	0	43	0	813694976	44	4452
2026-01-18 01:20:48.22	30.22	23.52	-36.6	-38.3	21.9	0.00e+00	0	43	0	818937856	44	4449
2026-01-18 01:20:49.21	30.31	23.66	-36.7	-38.4	21.8	0.00e+00	0	44	0	824180736	44	4510
2026-01-18 01:20:50.21	30.41	23.80	-36.6	-38.3	21.9	0.00e+00	0	43	0	830472192	44	4462
2026-01-18 01:20:51.21	30.50	23.95	-36.4	-38.1	22.0	0.00e+00	0	43	0	835715072	44	4381
2026-01-18 01:20:52.21	30.60	24.09	-36.4	-38.1	22.1	0.00e+00	0	44	0	840957952	44	4369
2026-01-18 01:20:53.21	30.70	24.24	-36.5	-38.2	22.0	0.00e+00	0	43	0	847249408	44	4441
2026-01-18 01:20:54.21	30.80	24.38	-36.5	-38.2	22.0	0.00e+00	0	44	0	852492288	44	4412
2026-01-18 01:20:55.20	30.90	24.53	-36.4	-38.1	22.1	0.00e+00	0	44	0	857735168	44	4341
2026-01-18 01:20:56.20	31.00	24.67	-36.2	-37.9	22.2	0.00e+00	0	43	0	864026624	44	4282
2026-01-18 01:20:57.20	31.10	24.82	-36.3	-38.0	22.1	0.00e+00	0	43	0	869269504	44	4330
2026-01-18 01:20:58.19	31.20	24.97	-36.4	-38.1	22.1	0.00e+00	0	43	0	874512384	44	4364
2026-01-18 01:20:59.19	31.31	25.11	-36.1	-37.8	22.3	0.00e+00	0	43	0	880803840	44	4233
2026-01-18 01:21:00.20	31.41	25.27	-36.0	-37.7	22.4	0.00e+00	0	43	0	886046720	44	4171
2026-01-18 01:21:01.20	31.52	25.42	-36.1	-37.8	22.3	0.00e+00	0	43	0	891289600	44	4205
2026-01-18 01:21:02.19	31.62	25.57	-36.1	-37.8	22.3	0.00e+00	0	43	0	897581056	44	4217
2026-01-18 01:21:03.19	31.73	25.72	-35.7	-37.4	22.5	0.00e+00	0	44	0	902823936	43	4263
2026-01-18 01:21:04.19	31.84	25.87	-35.6	-37.3	22.6	0.00e+00	0	44	0	909115392	43	4200
2026-01-18 01:21:05.19	31.95	26.02	-35.6	-37.3	22.6	0.00e+00	0	43	0	914358272	43	4219
2026-01-18 01:21:06.19	32.06	26.18	-35.7	-37.4	22.6	0.00e+00	0	43	0	919601152	43	4245
2026-01-18 01:21:07.19	32.17	26.33	-35.7	-37.4	22.5	0.00e+00	0	43	0	925892608	43	4256
2026-01-18 01:21:08.19	32.28	26.49	-35.7	-37.3	22.6	0.00e+00	0	44	0	931135488	43	4222
2026-01-18 01:21:09.18	32.39	26.64	-35.7	-37.3	22.6	0.00e+00	0	43	0	936378368	43	4232
2026-01-18 01:21:10.18	32.51	26.80	-35.6	-37.3	22.6	0.00e+00	0	43	0	942669824	43	4211
2026-01-18 01:21:11.18	32.62	26.96	-35.5	-37.2	22.7	0.00e+00	0	43	0	947912704	43	4152
2026-01-18 01:21:12.18	32.74	27.12	-35.6	-37.3	22.6	0.00e+00	0	43	0	953155584	43	4207
2026-01-18 01:21:13.17	32.86	27.28	-35.6	-37.3	22.6	0.00e+00	0	44	0	959447040	43	4215
2026-01-18 01:21:14.16	32.98	27.44	-35.6	-37.2	22.6	0.00e+00	0	44	0	964689920	43	4168
2026-01-18 01:21:15.16	33.10	27.60	-35.6	-37.2	22.6	0.00e+00	0	44	0	970981376	43	4186
2026-01-18 01:21:16.16	33.22	27.76	-35.6	-37.2	22.6	0.00e+00	0	43	0	976224256	43	4189
2026-01-18 01:21:17.16	33.34	27.92	-35.6	-37.3	22.6	0.00e+00	0	44	0	981467136	43	4201
2026-01-18 01:21:18.16	33.46	28.09	-35.7	-37.3	22.5	0.00e+00	0	44	0	987758592	43	4234
2026-01-18 01:21:19.16	33.59	28.25	-35.7	-37.4	22.6	0.00e+00	0	43	0	993001472	43	4245
2026-01-18 01:21:20.15	33.72	28.42	-35.8	-37.5	22.5	0.00e+00	0	44	0	998244352	43	4292
2026-01-18 01:21:21.15	33.84	28.58	-35.7	-37.3	22.6	0.00e+00	0	44	0	1004535808	43	4238
2026-01-18 01:21:22.15	33.97	28.75	-35.5	-37.2	22.7	0.00e+00	0	43	0	1009778688	43	4146
2026-01-18 01:21:23.15	34.10	28.92	-35.4	-37.0	22.8	0.00e+00	0	44	0	1015021568	42	4314
2026-01-18 01:21:24.15	34.23	29.09	-35.3	-37.0	22.9	0.00e+00	0	43	0	1021313024	42	4298
2026-01-18 01:21:25.14	34.37	29.26	-35.3	-36.9	22.9	0.00e+00	0	44	0	1026555904	42	4270
2026-01-18 01:21:26.14	34.50	29.43	-35.4	-37.1	22.8	0.00e+00	0	44	0	1031798784	42	4346
2026-01-18 01:21:27.14	34.64	29.60	-35.5	-37.1	22.7	0.00e+00	0	44	0	1038090240	42	4379
2026-01-18 01:21:28.14	34.77	29.77	-35.6	-37.2	22.7	0.00e+00	0	43	0	1043333120	42	4414
2026-01-18 01:21:29.14	34.91	29.95	-35.7	-37.3	22.6	0.00e+00	0	43	0	1048576000	42	4482
2026-01-18 01:21:30.13	35.05	30.12	-35.7	-37.4	22.6	0.00e+00	0	43	0	1054867456	42	4511
2026-01-18 01:21:31.14	35.19	30.30	-35.7	-37.4	22.5	0.00e+00	0	43	0	1060110336	42	4514
2026-01-18 01:21:32.13	35.33	30.47	-35.8	-37.4	22.5	0.00e+00	0	43	0	1066401792	42	4533
2026-01-18 01:21:33.13	35.48	30.65	-35.8	-37.5	22.5	0.00e+00	0	43	0	1071644672	42	4546
2026-01-18 01:21:34.13	35.63	30.82	-35.9	-37.5	22.4	0.00e+00	0	43	0	1076887552	42	4596
2026-01-18 01:21:35.13	35.77	31.00	-35.7	-37.4	22.6	0.00e+00	0	43	0	1083179008	42	4506
2026-01-18 01:21:36.13	35.92	31.18	-35.7	-37.4	22.5	0.00e+00	0	43	0	1088421888	42	4531
2026-01-18 01:21:37.12	36.07	31.36	-35.7	-37.4	22.5	0.00e+00	0	43	0	1093664768	42	4518
2026-01-18 01:21:38.12	36.22	31.54	-35.3	-36.9	22.9	0.00e+00	0	43	0	1099956224	42	4285
2026-01-18 01:21:39.12	36.38	31.73	-35.1	-36.7	23.1	0.00e+00	0	43	0	1105199104	42	4169
2026-01-18 01:21:40.11	36.53	31.91	-35.0	-36.7	23.1	0.00e+00	0	43	0	1110441984	42	4153
2026-01-18 01:21:41.11	36.69	32.09	-35.1	-36.8	23.1	0.00e+00	0	43	0	1116733440	42	4195
2026-01-18 01:21:42.11	36.85	32.28	-35.3	-36.9	22.9	0.00e+00	0	43	0	1121976320	42	4278
2026-01-18 01:21:43.10	37.01	32.46	-35.4	-37.1	22.8	0.00e+00	0	43	0	1127219200	42	4345
2026-01-18 01:21:44.10	37.17	32.65	-35.5	-37.1	22.8	0.00e+00	0	43	0	1133510656	42	4381
2026-01-18 01:21:45.10	37.34	32.84	-35.5	-37.2	22.7	0.00e+00	0	43	0	1138753536	42	4395
2026-01-18 01:21:46.09	37.50	33.02	-35.6	-37.2	22.7	0.00e+00	0	43	0	1143996416	42	4424
2026-01-18 01:21:47.09	37.67	33.21	-35.6	-37.2	22.7	0.00e+00	0	43	0	1150287872	42	4420
2026-01-18 01:21:48.09	37.84	33.41	-35.4	-37.0	22.8	0.00e+00	0	44	0	1155530752	42	4339
2026-01-18 01:21:49.08	38.01	33.60	-35.2	-36.8	23.0	0.00e+00	0	44	0	1160773632	42	4229
2026-01-18 01:21:50.08	38.19	33.79	-35.1	-36.7	23.1	0.00e+00	0	43	0	1167065088	42	4182
2026-01-18 01:21:51.08	38.36	33.98	-35.1	-36.7	23.1	0.00e+00	0	43	0	1172307968	42	4181
2026-01-18 01:21:52.07	38.54	34.17	-35.0	-36.7	23.1	0.00e+00	0	43	0	1178599424	42	4160
2026-01-18 01:21:53.07	38.72	34.37	-35.0	-36.7	23.1	0.00e+00	0	43	0	1183842304	42	4155
2026-01-18 01:21:54.07	38.90	34.57	-35.0	-36.7	23.2	0.00e+00	0	43	0	1189085184	42	4149
2026-01-18 01:21:55.07	39.09	34.76	-35.1	-36.7	23.1	0.00e+00	0	43	0	1195376640	42	4162
2026-01-18 01:21:56.07	39.28	34.96	-35.1	-36.7	22.9	0.00e+00	0	43	0	1200619520	42	4192
2026-01-18 01:21:57.06	39.46	35.16	-35.1	-36.7	23.1	0.00e+00	0	44	0	1205862400	42	4187
2026-01-18 01:21:58.06	39.65	35.36	-35.2	-36.9	22.4	0.00e+00	0	43	0	1212153856	42	4273
2026-01-18 01:21:59.06	39.85	35.56	-35.2	-37.0	22.3	0.00e+00	0	44	0	1217396736	42	4306
2026-01-18 01:22:00.07	40.05	35.77	-35.2	-36.9	22.4	0.00e+00	0	43	0	1222639616	42	4274
2026-01-18 01:22:01.06	40.24	35.97	-35.2	-36.9	22.4	0.00e+00	0	43	0	1228931072	42	4271
2026-01-18 01:22:02.06	40.45	36.17	-35.1	-36.8	22.5	0.00e+00	0	44	0	1234173952	42	4222
2026-01-18 01:22:03.06	40.65	36.37	-35.1	-36.8	22.5	0.00e+00	0	43	0	1240465408	42	4216
2026-01-18 01:22:04.06	40.86	36.58	-35.0	-36.7	22.5	0.00e+00	0	43	0	1245708288	42	4191
2026-01-18 01:22:05.06	41.06	36.79	-34.9	-36.7	22.6	0.00e+00	0	43	0	1250951168	41	4396
2026-01-18 01:22:06.05	41.27	36.99	-34.8	-36.6	22.6	0.00e+00	0	43	0	1256194048	41	4345
2026-01-18 01:22:07.05	41.49	37.20	-34.9	-36.6	22.6	0.00e+00	0	43	0	1262485504	41	4372
2026-01-18 01:22:08.05	41.70	37.41	-35.0	-36.7	22.5	0.00e+00	0	43	0	1267728384	41	4437
2026-01-18 01:22:09.05	41.92	37.62	-35.2	-37.0	22.4	0.00e+00	0	44	0	1272971264	41	4556
2026-01-18 01:22:10.04	42.14	37.83	-35.3	-37.1	22.3	0.00e+00	0	44	0	1279262720	41	4609
2026-01-18 01:22:11.04	42.37	38.04	-35.2	-37.0	22.4	0.00e+00	0	43	0	1284505600	41	4565
2026-01-18 01:22:12.04	42.60	38.25	-35.1	-36.9	22.5	0.00e+00	0	43	0	1290797056	41	4509
2026-01-18 01:22:13.04	42.83	38.47	-35.0	-36.7	22.6	0.00e+00	0	43	0	1296039936	41	4411
2026-01-18 01:22:14.04	43.06	38.68	-34.9	-36.6	22.7	0.00e+00	0	43	0	1301282816	41	4378
2026-01-18 01:22:15.04	43.30	38.90	-34.9	-36.7	22.6	0.00e+00	0	43	0	1307574272	41	4405
2026-01-18 01:22:16.03	43.54	39.11	-35.0	-36.7	22.6	0.00e+00	0	43	0	1312817152	41	4419
2026-01-18 01:22:17.03	43.78	39.33	-34.9	-36.6	22.7	0.00e+00	0	43	0	1318060032	41	4378
2026-01-18 01:22:18.03	44.03	39.55	-35.0	-36.7	22.6	0.00e+00	0	43	0	1324351488	41	4405
2026-01-18 01:22:19.03	44.28	39.76	-35.0	-36.7	22.6	0.00e+00	0	43	0	1329594368	41	4435
2026-01-18 01:22:20.03	44.53	39.98	-34.9	-36.6	22.7	0.00e+00	0	43	0	1334837248	41	4376
2026-01-18 01:22:21.02	44.78	40.20	-34.9	-36.6	22.7	0.00e+00	0	43	0	1341128704	41	4378
2026-01-18 01:22:22.02	45.04	40.42	-35.0	-36.7	22.7	0.00e+00	0	43	0	1346371584	41	4406
2026-01-18 01:22:23.02	45.31	40.64	-35.0	-36.7	22.7	0.00e+00	0	43	0	1352663040	41	4418
2026-01-18 01:22:24.01	45.57	40.86	-34.9	-36.6	22.7	0.00e+00	0	43	0	1357905920	41	4391
2026-01-18 01:22:25.01	45.84	41.09	-35.0	-36.7	22.7	0.00e+00	0	43	0	1363148800	41	4410
2026-01-18 01:22:26.01	46.12	41.31	-35.2	-36.9	22.5	0.00e+00	0	43	0	1369440256	41	4515
2026-01-18 01:22:27.01	46.40	41.54	-35.3	-37.0	22.4	0.00e+00	0	44	0	1374683136	41	4571
2026-01-18 01:22:28.01	46.68	41.76	-35.3	-37.0	22.4	0.00e+00	0	43	0	1379926016	41	4586
2026-01-18 01:22:29.01	46.96	41.99	-35.2	-36.9	22.5	0.00e+00	0	43	0	1386217472	41	4512
2026-01-18 01:22:30.01	47.25	42.21	-35.3	-37.0	22.4	0.00e+00	0	43	0	1391460352	41	4556
2026-01-18 01:22:31.01	47.55	42.44	-35.4	-37.1	22.4	0.00e+00	0	44	0	1396703232	41	4615
2026-01-18 01:22:32.01	47.85	42.67	-35.6	-37.3	22.1	0.00e+00	0	44	0	1402994688	41	4756
2026-01-18 01:22:33.01	48.15	42.89	-35.6	-37.4	22.1	0.00e+00	0	43	0	1408237568	41	4761
2026-01-18 01:22:34.00	48.45	43.12	-35.4	-37.1	22.3	0.00e+00	0	43	0	1413480448	41	4625
2026-01-18 01:22:35.00	48.76	43.35	-35.3	-37.1	22.3	0.00e+00	0	43	0	1419771904	41	4601
2026-01-18 01:22:36.00	49.08	43.58	-35.2	-36.9	22.5	0.00e+00	0	43	0	1425014784	41	4537
2026-01-18 01:22:37.00	49.40	43.81	-35.1	-36.8	22.5	0.00e+00	0	43	0	1430257664	41	4474
2026-01-18 01:22:38.00	49.72	44.04	-35.3	-37.0	22.4	0.00e+00	0	43	0	1436549120	41	4551
2026-01-18 01:22:39.00	50.05	44.27	-35.4	-37.1	22.3	0.00e+00	0	43	0	1441792000	41	4633
2026-01-18 01:22:40.00	50.39	44.50	-35.5	-37.2	22.2	0.00e+00	0	43	0	1447034880	41	4681
2026-01-18 01:22:40.99	50.72	44.73	-35.4	-37.1	22.4	0.00e+00	0	43	0	1453326336	41	4614
2026-01-18 01:22:41.99	51.06	44.96	-35.4	-37.1	22.3	0.00e+00	0	43	0	1458569216	41	4616
2026-01-18 01:22:42.99	51.41	45.19	-35.5	-37.2	22.3	0.00e+00	0	43	0	1464860672	41	4686
2026-01-18 01:22:43.99	51.77	45.42	-35.4	-37.1	22.3	0.00e+00	0	43	0	1470103552	41	4647
2026-01-18 01:22:44.99	52.13	45.66	-35.3	-37.0	22.3	0.00e+00	0	43	0	1475346432	41	4591
2026-01-18 01:22:45.99	52.49	45.89	-35.3	-37.0	22.4	0.00e+00	0	43	0	1481637888	41	4581
2026-01-18 01:22:46.99	52.86	46.12	-35.5	-37.2	22.2	0.00e+00	0	43	0	1486880768	41	4701
2026-01-18 01:22:47.99	53.23	46.35	-35.7	-37.4	22.1	0.00e+00	0	43	0	1492123648	41	4773
2026-01-18 01:22:48.99	53.61	46.59	-35.8	-37.6	22.0	0.00e+00	0	43	0	1498415104	42	4621
2026-01-18 01:22:49.99	54.00	46.82	-36.0	-37.8	21.8	0.00e+00	0	44	0	1503657984	42	4723
2026-01-18 01:22:50.99	54.39	47.05	-36.0	-37.7	21.9	0.00e+00	0	43	0	1509949440	42	4704
2026-01-18 01:22:51.99	54.79	47.28	-35.8	-37.5	22.1	0.00e+00	0	43	0	1515192320	42	4574
2026-01-18 01:22:52.99	55.19	47.51	-35.6	-37.3	22.3	0.00e+00	0	43	0	1520435200	42	4446
2026-01-18 01:22:53.99	55.60	47.75	-35.5	-37.2	22.4	0.00e+00	0	43	0	1526726656	42	4397
2026-01-18 01:22:54.98	56.01	47.97	-35.7	-37.4	22.2	0.00e+00	0	43	0	1531969536	42	4522
2026-01-18 01:22:55.98	56.43	48.21	-35.9	-37.7	22.0	0.00e+00	0	43	0	1537212416	42	4664
2026-01-18 01:22:56.98	56.86	48.44	-36.1	-37.9	21.8	0.00e+00	0	43	0	1543503872	42	4788
2026-01-18 01:22:57.97	57.29	48.66	-36.1	-37.9	21.8	0.00e+00	0	43	0	1548746752	42	4773
2026-01-18 01:22:58.97	57.73	48.89	-35.8	-37.6	22.0	0.00e+00	0	43	0	1553989632	42	4601
2026-01-18 01:22:59.97	58.18	49.12	-35.4	-37.1	22.4	0.00e+00	0	43	0	1560281088	42	4370
2026-01-18 01:23:00.97	58.63	49.35	-35.5	-37.2	22.4	0.00e+00	0	43	0	1565523968	42	4417
2026-01-18 01:23:01.96	59.09	49.58	-35.5	-37.2	22.4	0.00e+00	0	43	0	1571815424	42	4414
2026-01-18 01:23:02.96	59.56	49.80	-35.6	-37.3	22.3	0.00e+00	0	43	0	1577058304	42	4445
2026-01-18 01:23:03.96	60.03	50.03	-35.7	-37.4	22.2	0.00e+00	0	43	0	1582301184	42	4540
2026-01-18 01:23:04.96	60.51	50.25	-35.9	-37.7	22.0	0.00e+00	0	43	0	1588592640	42	4678
2026-01-18 01:23:05.96	61.00	50.48	-36.0	-37.7	22.0	0.00e+00	0	43	0	1593835520	42	4666
2026-01-18 01:23:06.95	61.49	50.70	-35.8	-37.5	22.1	0.00e+00	0	43	0	1599078400	42	4594
2026-01-18 01:23:07.95	61.99	50.92	-35.7	-37.4	22.2	0.00e+00	0	43	0	1604321280	42	4526
2026-01-18 01:23:08.94	62.50	51.14	-35.7	-37.5	22.2	0.00e+00	0	43	0	1610612736	42	4549
2026-01-18 01:23:09.94	63.02	51.36	-35.6	-37.3	22.3	0.00e+00	0	43	0	1615855616	42	4491
2026-01-18 01:23:10.94	63.54	51.57	-35.6	-37.4	22.3	0.00e+00	0	43	0	1622147072	42	4495
2026-01-18 01:23:11.94	64.08	51.79	-35.7	-37.4	22.2	0.00e+00	0	43	0	1627389952	42	4533
2026-01-18 01:23:12.94	64.62	52.00	-36.0	-37.8	21.9	0.00e+00	0	43	0	1632632832	42	4717
2026-01-18 01:23:13.93	65.16	52.21	-36.1	-37.9	21.7	0.00e+00	0	43	0	1638924288	43	4538
2026-01-18 01:23:14.94	65.72	52.43	-36.0	-37.8	21.9	0.00e+00	0	43	0	1644167168	43	4455
2026-01-18 01:23:15.93	66.28	52.63	-36.2	-37.9	21.7	0.00e+00	0	43	0	1649410048	43	4522
2026-01-18 01:23:16.93	66.85	52.84	-36.1	-37.9	21.8	0.00e+00	0	43	0	1655701504	43	4517
2026-01-18 01:23:17.93	67.43	53.05	-36.0	-37.7	21.9	0.00e+00	0	43	0	1660944384	43	4413
2026-01-18 01:23:18.93	68.02	53.25	-36.1	-37.8	21.9	0.00e+00	0	43	0	1666187264	43	4468
2026-01-18 01:23:19.92	68.61	53.45	-36.1	-37.9	21.8	0.00e+00	0	43	0	1672478720	43	4494
2026-01-18 01:23:20.92	69.22	53.65	-36.2	-37.9	21.8	0.00e+00	0	43	0	1677721600	43	4525
2026-01-18 01:23:21.92	69.83	53.84	-36.0	-37.8	21.9	0.00e+00	0	43	0	1684013056	43	4455
2026-01-18 01:23:22.92	70.45	54.04	-36.2	-37.9	21.8	0.00e+00	0	43	0	1689255936	43	4520
2026-01-18 01:23:23.91	71.07	54.23	-36.5	-38.3	21.4	0.00e+00	0	43	0	1694498816	43	4736
2026-01-18 01:23:24.91	71.71	54.41	-36.8	-38.6	21.3	0.00e+00	0	43	0	1700790272	44	4648
2026-01-18 01:23:25.91	72.36	54.60	-36.5	-38.2	21.6	0.00e+00	0	43	0	1706033152	44	4430
2026-01-18 01:23:26.91	73.01	54.78	-36.3	-38.0	21.8	0.00e+00	0	43	0	1711276032	44	4323
2026-01-18 01:23:27.91	73.68	54.96	-36.3	-38.1	21.8	0.00e+00	0	43	0	1717567488	44	4352
2026-01-18 01:23:28.91	74.35	55.14	-36.4	-38.2	21.6	0.00e+00	0	43	0	1722810368	44	4413
2026-01-18 01:23:29.90	75.02	55.31	-36.6	-38.3	21.5	0.00e+00	0	44	0	1728053248	44	4493
2026-01-18 01:23:30.90	75.71	55.48	-36.6	-38.3	21.6	0.00e+00	0	43	0	1734344704	44	4483
2026-01-18 01:23:31.89	76.40	55.64	-36.5	-38.3	21.7	0.00e+00	0	43	0	1739587584	44	4447
2026-01-18 01:23:32.89	77.10	55.80	-36.4	-38.1	21.8	0.00e+00	0	43	0	1744830464	44	4383
2026-01-18 01:23:33.89	77.81	55.96	-36.2	-37.9	22.0	0.00e+00	0	43	0	1751121920	44	4273
2026-01-18 01:23:34.89	78.53	56.12	-36.3	-38.1	21.9	0.00e+00	0	43	0	1756364800	44	4348
2026-01-18 01:23:35.88	79.25	56.27	-36.6	-38.4	21.6	0.00e+00	0	43	0	1761607680	44	4532
2026-01-18 01:23:36.88	79.99	56.41	-36.6	-38.4	21.5	0.00e+00	0	43	0	1767899136	44	4525
2026-01-18 01:23:37.88	80.73	56.56	-36.7	-38.5	21.5	0.00e+00	0	43	0	1773142016	44	4556
2026-01-18 01:23:38.88	81.48	56.69	-36.4	-38.2	21.7	0.00e+00	0	43	0	1778384896	44	4425
2026-01-18 01:23:39.88	82.24	56.83	-36.1	-37.8	22.0	0.00e+00	0	43	0	1784676352	44	4236
2026-01-18 01:23:40.87	83.00	56.96	-36.0	-37.7	22.1	0.00e+00	0	43	0	1789919232	44	4165
2026-01-18 01:23:41.87	83.77	57.08	-35.8	-37.5	22.1	0.00e+00	0	43	0	1796210688	43	4334
2026-01-18 01:23:42.87	84.55	57.20	-35.8	-37.6	22.1	0.00e+00	0	43	0	1801453568	43	4344
2026-01-18 01:23:43.87	85.34	57.32	-35.7	-37.5	22.2	0.00e+00	0	43	0	1806696448	43	4300
2026-01-18 01:23:44.87	86.13	57.43	-35.9	-37.7	22.0	0.00e+00	0	43	0	1812987904	43	4405
2026-01-18 01:23:45.86	86.92	57.53	-35.9	-37.6	22.0	0.00e+00	0	43	0	1818230784	43	4391
2026-01-18 01:23:46.86	87.72	57.63	-35.8	-37.6	22.1	0.00e+00	0	43	0	1823473664	43	4347
2026-01-18 01:23:47.86	88.54	57.73	-36.0	-37.7	22.0	0.00e+00	0	43	0	1829765120	43	4424
2026-01-18 01:23:48.86	89.35	57.82	-36.1	-37.8	21.8	0.00e+00	0	43	0	1835008000	43	4481
2026-01-18 01:23:49.86	90.17	57.90	-36.3	-38.1	21.6	0.00e+00	0	43	0	1840250880	43	4608
2026-01-18 01:23:50.85	90.99	57.98	-36.1	-37.9	21.8	0.00e+00	0	43	0	1846542336	43	4506
2026-01-18 01:23:51.85	91.82	58.06	-36.2	-38.0	21.8	0.00e+00	0	43	0	1851785216	43	4577
2026-01-18 01:23:52.85	92.66	58.12	-36.1	-37.8	21.8	0.00e+00	0	43	0	1857028096	43	4493
2026-01-18 01:23:53.85	93.50	58.19	-35.9	-37.6	22.1	0.00e+00	0	43	0	1863319552	43	4368
2026-01-18 01:23:54.84	94.34	58.24	-36.0	-37.6	22.0	0.00e+00	0	43	0	1868562432	43	4390
2026-01-18 01:23:55.84	95.18	58.30	-35.8	-37.5	22.1	0.00e+00	0	43	0	1873805312	43	4316
2026-01-18 01:23:56.84	96.03	58.34	-35.8	-37.5	22.1	0.00e+00	0	43	0	1880096768	43	4324
2026-01-18 01:23:57.84	96.89	58.38	-35.7	-37.4	22.2	0.00e+00	0	43	0	1885339648	43	4279
2026-01-18 01:23:58.84	97.74	58.42	-35.6	-37.3	22.3	0.00e+00	0	43	0	1890582528	43	4214
2026-01-18 01:23:59.84	98.60	58.44	-35.7	-37.4	22.2	0.00e+00	0	43	0	1896873984	43	4257
2026-01-18 01:24:00.84	99.46	58.47	-35.9	-37.6	22.0	0.00e+00	0	43	0	1902116864	43	4368
2026-01-18 01:24:01.84	100.32	58.48	-36.0	-37.8	21.9	0.00e+00	0	43	0	1908408320	43	4455
2026-01-18 01:24:02.83	101.17	58.49	-36.0	-37.8	21.9	0.00e+00	0	43	0	1913651200	43	4461
2026-01-18 01:24:03.83	102.04	58.50	-35.9	-37.7	22.0	0.00e+00	0	43	0	1918894080	43	4402
2026-01-18 01:24:04.82	102.89	58.50	-36.1	-37.8	21.9	0.00e+00	0	43	0	1925185536	43	4490
2026-01-18 01:24:05.82	103.75	58.49	-36.0	-37.7	22.0	0.00e+00	0	43	0	1930428416	43	4435
2026-01-18 01:24:06.82	104.61	58.48	-35.9	-37.6	22.1	0.00e+00	0	43	0	1935671296	43	4381
2026-01-18 01:24:07.82	105.47	58.46	-35.7	-37.4	22.2	0.00e+00	0	43	0	1941962752	43	4275
2026-01-18 01:24:08.82	106.33	58.43	-35.5	-37.2	22.4	0.00e+00	0	43	0	1947205632	42	4405
2026-01-18 01:24:09.82	107.19	58.40	-35.5	-37.2	22.4	0.00e+00	0	43	0	1952448512	42	4429
2026-01-18 01:24:10.81	108.04	58.37	-35.8	-37.5	22.2	0.00e+00	0	43	0	1958739968	42	4564
2026-01-18 01:24:11.81	108.89	58.32	-35.8	-37.6	22.1	0.00e+00	0	43	0	1963982848	42	4617
2026-01-18 01:24:12.81	109.74	58.28	-35.9	-37.6	22.1	0.00e+00	0	43	0	1970274304	42	4628
2026-01-18 01:24:13.81	110.58	58.22	-35.9	-37.7	22.0	0.00e+00	0	43	0	1975517184	42	4672
2026-01-18 01:24:14.81	111.43	58.16	-35.9	-37.6	22.1	0.00e+00	0	43	0	1980760064	42	4623
2026-01-18 01:24:15.81	112.27	58.10	-35.9	-37.7	22.0	0.00e+00	0	43	0	1987051520	42	4676
2026-01-18 01:24:16.80	113.09	58.03	-36.3	-38.1	21.7	0.00e+00	0	43	0	1992294400	43	4623
2026-01-18 01:24:17.79	113.92	57.95	-36.4	-38.2	21.6	0.00e+00	0	43	0	1997537280	43	4665
2026-01-18 01:24:18.79	114.74	57.87	-36.1	-37.9	21.9	0.00e+00	0	43	0	2003828736	43	4498
2026-01-18 01:24:19.79	115.56	57.78	-36.0	-37.7	22.0	0.00e+00	0	43	0	2009071616	43	4428
2026-01-18 01:24:20.79	116.38	57.69	-35.9	-37.6	22.0	0.00e+00	0	43	0	2014314496	43	4390
2026-01-18 01:24:21.78	117.18	57.59	-36.1	-37.8	21.8	0.00e+00	0	43	0	2020605952	43	4484
2026-01-18 01:24:22.78	117.98	57.49	-36.1	-37.9	21.8	0.00e+00	0	43	0	2025848832	43	4506
2026-01-18 01:24:23.78	118.78	57.38	-36.3	-38.1	21.7	0.00e+00	0	43	0	2031091712	43	4609
2026-01-18 01:24:24.78	119.57	57.27	-36.1	-37.9	21.8	0.00e+00	0	43	0	2037383168	43	4495
2026-01-18 01:24:25.78	120.36	57.15	-36.2	-38.0	21.8	0.00e+00	0	43	0	2042626048	43	4563
2026-01-18 01:24:26.77	121.13	57.03	-36.1	-37.9	21.9	0.00e+00	0	43	0	2047868928	43	4497
2026-01-18 01:24:27.77	121.90	56.91	-36.3	-38.1	21.7	0.00e+00	0	43	0	2054160384	43	4600
2026-01-18 01:24:28.76	122.65	56.78	-36.4	-38.1	21.7	0.00e+00	0	43	0	2059403264	43	4648
2026-01-18 01:24:29.76	123.41	56.64	-36.2	-38.0	21.8	0.00e+00	0	43	0	2065694720	43	4554
2026-01-18 01:24:30.76	124.16	56.50	-36.3	-38.1	21.8	0.00e+00	0	43	0	2070937600	43	4605
2026-01-18 01:24:31.75	124.89	56.36	-36.4	-38.2	21.7	0.00e+00	0	43	0	2076180480	43	4652
2026-01-18 01:24:32.76	125.63	56.21	-36.5	-38.3	21.4	0.00e+00	0	43	0	2082471936	43	4752
2026-01-18 01:24:33.75	126.35	56.06	-36.9	-38.7	21.3	0.00e+00	0	43	0	2087714816	44	4679
2026-01-18 01:24:34.75	127.07	55.90	-36.5	-38.3	21.6	0.00e+00	0	43	0	2092957696	44	4454
2026-01-18 01:24:35.75	127.78	55.74	-36.5	-38.2	21.7	0.00e+00	0	43	0	2098200576	44	4427
2026-01-18 01:24:36.75	128.48	55.58	-36.6	-38.4	21.5	0.00e+00	0	43	0	2104492032	44	4523
2026-01-18 01:24:37.75	129.18	55.41	-36.8	-38.5	21.4	0.00e+00	0	43	0	2109734912	44	4597
2026-01-18 01:24:38.74	129.86	55.24	-36.7	-38.5	21.5	0.00e+00	0	43	0	2116026368	44	4547
2026-01-18 01:24:39.74	130.53	55.06	-36.5	-38.3	21.7	0.00e+00	0	43	0	2121269248	44	4448
2026-01-18 01:24:40.74	131.20	54.89	-36.5	-38.3	21.7	0.00e+00	0	43	0	2126512128	44	4456
2026-01-18 01:24:41.74	131.86	54.71	-36.4	-38.1	21.8	0.00e+00	0	43	0	2132803584	44	4375
2026-01-18 01:24:42.74	132.51	54.52	-36.4	-38.1	21.9	0.00e+00	0	43	0	2138046464	44	4368
2026-01-18 01:24:43.73	133.15	54.34	-36.3	-38.1	21.9	0.00e+00	0	43	0	2143289344	44	4344
2026-01-18 01:24:44.73	133.79	54.15	-36.4	-38.2	21.8	0.00e+00	0	43	0	2149580800	44	4405
2026-01-18 01:24:45.73	134.42	53.95	-36.8	-38.5	21.5	0.00e+00	0	43	0	2154823680	44	4593
2026-01-18 01:24:46.72	135.03	53.76	-36.8	-38.6	21.3	0.00e+00	0	43	0	2160066560	44	4619
2026-01-18 01:24:47.71	135.63	53.57	-36.9	-38.7	21.3	0.00e+00	0	43	0	2166358016	44	4679
2026-01-18 01:24:48.71	136.24	53.37	-36.4	-38.1	21.7	0.00e+00	0	43	0	2171600896	44	4368
2026-01-18 01:24:49.71	136.83	53.16	-36.4	-38.1	21.7	0.00e+00	0	43	0	2177892352	44	4386
2026-01-18 01:24:50.70	137.41	52.96	-36.4	-38.2	21.7	0.00e+00	0	43	0	2183135232	44	4421
2026-01-18 01:24:51.70	137.99	52.75	-36.5	-38.4	21.6	0.00e+00	0	43	0	2188378112	44	4508
2026-01-18 01:24:52.70	138.56	52.55	-36.6	-38.4	21.5	0.00e+00	0	43	0	2193620992	44	4529
2026-01-18 01:24:53.70	139.12	52.33	-36.5	-38.3	21.6	0.00e+00	0	43	0	2199912448	44	4467
2026-01-18 01:24:54.69	139.67	52.12	-36.2	-37.9	21.9	0.00e+00	0	43	0	2205155328	44	4281
2026-01-18 01:24:55.69	140.22	51.91	-36.2	-37.9	21.9	0.00e+00	0	43	0	2210398208	44	4284
2026-01-18 01:24:56.70	140.76	51.69	-36.3	-38.1	21.8	0.00e+00	0	43	0	2216689664	44	4361
2026-01-18 01:24:57.70	141.29	51.47	-36.3	-38.1	21.8	0.00e+00	0	43	0	2221932544	44	4372
2026-01-18 01:24:58.70	141.82	51.26	-36.2	-37.9	21.9	0.00e+00	0	43	0	2228224000	44	4269
2026-01-18 01:24:59.70	142.33	51.04	-35.7	-37.5	22.1	0.00e+00	0	43	0	2233466880	43	4292
2026-01-18 01:25:00.70	142.84	50.81	-35.7	-37.4	22.2	0.00e+00	0	43	0	2238709760	43	4257
2026-01-18 01:25:01.70	143.34	50.59	-35.7	-37.4	22.2	0.00e+00	0	43	0	2245001216	43	4275
2026-01-18 01:25:02.70	143.84	50.37	-35.8	-37.5	22.1	0.00e+00	0	43	0	2250244096	43	4335
2026-01-18 01:25:03.69	144.32	50.14	-35.9	-37.6	22.1	0.00e+00	0	43	0	2255486976	43	4371
2026-01-18 01:25:04.69	144.80	49.92	-35.7	-37.5	22.2	0.00e+00	0	43	0	2261778432	43	4303
2026-01-18 01:25:05.69	145.27	49.69	-35.6	-37.3	22.3	0.00e+00	0	43	0	2267021312	43	4232
2026-01-18 01:25:06.68	145.73	49.46	-35.6	-37.4	22.3	0.00e+00	0	43	0	2272264192	43	4244
2026-01-18 01:25:07.68	146.19	49.24	-35.6	-37.3	22.3	0.00e+00	0	43	0	2278555648	43	4217
2026-01-18 01:25:08.68	146.64	49.01	-35.6	-37.3	22.3	0.00e+00	0	43	0	2283798528	43	4212
2026-01-18 01:25:09.68	147.09	48.78	-35.4	-37.2	22.4	0.00e+00	0	43	0	2290089984	42	4397
2026-01-18 01:25:10.68	147.53	48.55	-35.6	-37.3	22.3	0.00e+00	0	43	0	2295332864	42	4476
2026-01-18 01:25:11.68	147.96	48.31	-35.7	-37.4	22.2	0.00e+00	0	43	0	2300575744	42	4525
2026-01-18 01:25:12.68	148.39	48.08	-35.7	-37.4	22.1	0.00e+00	0	43	0	2306867200	42	4535
2026-01-18 01:25:13.67	148.80	47.85	-35.7	-37.5	22.1	0.00e+00	0	43	0	2312110080	42	4551
2026-01-18 01:25:14.67	149.21	47.62	-35.3	-37.0	22.5	0.00e+00	0	43	0	2317352960	42	4318
2026-01-18 01:25:15.67	149.62	47.39	-35.3	-37.0	22.5	0.00e+00	0	43	0	2323644416	42	4306
2026-01-18 01:25:16.67	150.02	47.16	-35.2	-36.9	22.6	0.00e+00	0	43	0	2328887296	42	4265
2026-01-18 01:25:17.67	150.42	46.92	-35.2	-36.9	22.6	0.00e+00	0	43	0	2334130176	42	4270
2026-01-18 01:25:18.66	150.81	46.69	-35.2	-37.0	22.6	0.00e+00	0	43	0	2340421632	42	4300
2026-01-18 01:25:19.66	151.19	46.46	-35.3	-37.0	22.5	0.00e+00	0	43	0	2345664512	42	4303
2026-01-18 01:25:20.66	151.57	46.22	-35.5	-37.3	22.3	0.00e+00	0	43	0	2351955968	42	4447
2026-01-18 01:25:21.66	151.94	45.99	-35.6	-37.4	22.2	0.00e+00	0	43	0	2357198848	42	4497
2026-01-18 01:25:22.66	152.31	45.76	-35.6	-37.4	22.2	0.00e+00	0	43	0	2362441728	42	4507
2026-01-18 01:25:23.65	152.67	45.53	-35.5	-37.2	22.3	0.00e+00	0	43	0	2367684608	42	4428
2026-01-18 01:25:24.65	153.03	45.29	-35.4	-37.1	22.4	0.00e+00	0	43	0	2373976064	42	4366
2026-01-18 01:25:25.65	153.38	45.06	-35.4	-37.1	22.4	0.00e+00	0	43	0	2379218944	42	4379
2026-01-18 01:25:26.65	153.73	44.83	-35.4	-37.1	22.4	0.00e+00	0	43	0	2384461824	42	4373
2026-01-18 01:25:27.64	154.06	44.60	-35.4	-37.1	22.3	0.00e+00	0	43	0	2390753280	42	4377
2026-01-18 01:25:28.64	154.40	44.37	-35.4	-37.1	22.3	0.00e+00	0	43	0	2395996160	42	4378
2026-01-18 01:25:29.64	154.73	44.13	-35.5	-37.2	22.2	0.00e+00	0	43	0	2402287616	42	4429
2026-01-18 01:25:30.64	155.06	43.90	-35.3	-37.0	22.4	0.00e+00	0	43	0	2407530496	42	4319
2026-01-18 01:25:31.63	155.38	43.67	-35.3	-37.0	22.4	0.00e+00	0	43	0	2412773376	42	4315
2026-01-18 01:25:32.63	155.70	43.44	-35.4	-37.1	22.3	0.00e+00	0	43	0	2419064832	42	4380
2026-01-18 01:25:33.63	156.01	43.21	-35.6	-37.3	22.1	0.00e+00	0	43	0	2424307712	42	4466
2026-01-18 01:25:34.62	156.32	42.98	-35.4	-37.2	22.2	0.00e+00	0	43	0	2429550592	42	4395
2026-01-18 01:25:35.62	156.63	42.76	-35.4	-37.2	22.2	0.00e+00	0	43	0	2435842048	42	4406
2026-01-18 01:25:36.61	156.93	42.53	-35.6	-37.3	22.2	0.00e+00	0	43	0	2441084928	42	4458
2026-01-18 01:25:37.61	157.22	42.30	-35.4	-37.1	22.4	0.00e+00	0	43	0	2446327808	42	4349
2026-01-18 01:25:38.61	157.51	42.07	-35.2	-36.9	22.5	0.00e+00	0	43	0	2452619264	42	4272
2026-01-18 01:25:39.61	157.80	41.85	-35.2	-36.9	22.5	0.00e+00	0	43	0	2457862144	42	4291
2026-01-18 01:25:40.61	158.09	41.62	-35.3	-37.1	22.3	0.00e+00	0	43	0	2464153600	42	4347
2026-01-18 01:25:41.61	158.37	41.39	-35.3	-37.1	22.3	0.00e+00	0	43	0	2469396480	42	4368
2026-01-18 01:25:42.61	158.65	41.17	-35.4	-37.1	22.3	0.00e+00	0	43	0	2474639360	42	4369
2026-01-18 01:25:43.60	158.92	40.95	-35.3	-37.0	22.3	0.00e+00	0	43	0	2479882240	42	4332
2026-01-18 01:25:44.60	159.19	40.72	-35.3	-37.1	22.3	0.00e+00	0	43	0	2486173696	42	4341
2026-01-18 01:25:45.59	159.45	40.50	-35.1	-36.8	22.5	0.00e+00	0	43	0	2491416576	42	4229
2026-01-18 01:25:46.59	159.71	40.28	-35.0	-36.7	22.6	0.00e+00	0	43	0	2496659456	42	4187
2026-01-18 01:25:47.59	159.97	40.06	-35.0	-36.7	22.6	0.00e+00	0	43	0	2502950912	42	4183
2026-01-18 01:25:48.59	160.23	39.84	-34.9	-36.7	22.6	0.00e+00	0	43	0	2508193792	41	4392
2026-01-18 01:25:49.59	160.48	39.62	-35.0	-36.7	22.6	0.00e+00	0	43	0	2514485248	41	4413
2026-01-18 01:25:50.58	160.73	39.40	-35.0	-36.7	22.5	0.00e+00	0	43	0	2519728128	41	4434
2026-01-18 01:25:51.58	160.97	39.18	-35.1	-36.8	22.4	0.00e+00	0	43	0	2524971008	41	4493
2026-01-18 01:25:52.58	161.21	38.96	-35.0	-36.8	22.5	0.00e+00	0	43	0	2531262464	41	4459
2026-01-18 01:25:53.58	161.45	38.74	-35.1	-36.8	22.5	0.00e+00	0	43	0	2536505344	41	4486
2026-01-18 01:25:54.58	161.69	38.53	-35.1	-36.8	22.5	0.00e+00	0	43	0	2541748224	41	4463
2026-01-18 01:25:55.57	161.92	38.32	-35.0	-36.7	22.5	0.00e+00	0	43	0	2548039680	41	4439
2026-01-18 01:25:56.57	162.15	38.10	-34.9	-36.6	22.6	0.00e+00	0	43	0	2553282560	41	4380
2026-01-18 01:25:57.56	162.38	37.89	-34.9	-36.6	22.7	0.00e+00	0	43	0	2558525440	41	4357
2026-01-18 01:25:58.56	162.60	37.68	-34.8	-36.5	22.7	0.00e+00	0	43	0	2564816896	41	4318
2026-01-18 01:25:59.56	162.82	37.47	-34.8	-36.5	22.7	0.00e+00	0	43	0	2570059776	41	4323
2026-01-18 01:26:00.56	163.04	37.25	-34.7	-36.4	22.8	0.00e+00	0	43	0	2576351232	41	4278
2026-01-18 01:26:01.56	163.26	37.04	-34.7	-36.4	22.8	0.00e+00	0	43	0	2581594112	41	4249
2026-01-18 01:26:02.56	163.47	36.84	-34.8	-36.5	22.6	0.00e+00	0	43	0	2586836992	41	4340
2026-01-18 01:26:03.56	163.68	36.63	-34.9	-36.6	22.5	0.00e+00	0	43	0	2593128448	41	4388
2026-01-18 01:26:04.56	163.89	36.42	-35.0	-36.7	22.5	0.00e+00	0	43	0	2598371328	41	4433
2026-01-18 01:26:05.55	164.09	36.22	-35.1	-36.8	22.4	0.00e+00	0	43	0	2603614208	41	4476
2026-01-18 01:26:06.55	164.29	36.01	-35.0	-36.8	22.4	0.00e+00	0	43	0	2609905664	41	4466
2026-01-18 01:26:07.54	164.49	35.81	-35.2	-36.9	22.3	0.00e+00	0	43	0	2615148544	41	4523
2026-01-18 01:26:08.54	164.69	35.60	-35.1	-36.8	22.3	0.00e+00	0	43	0	2620391424	41	4485
2026-01-18 01:26:09.54	164.89	35.40	-35.1	-36.8	22.3	0.00e+00	0	43	0	2626682880	41	4477
2026-01-18 01:26:10.53	165.08	35.20	-35.1	-36.9	22.3	0.00e+00	0	43	0	2631925760	41	4506
2026-01-18 01:26:11.53	165.27	35.00	-35.1	-36.8	22.3	0.00e+00	0	43	0	2637168640	41	4485
2026-01-18 01:26:12.53	165.46	34.80	-35.1	-36.8	22.4	0.00e+00	0	43	0	2643460096	41	4472
2026-01-18 01:26:13.52	165.64	34.60	-35.0	-36.7	22.5	0.00e+00	0	43	0	2648702976	41	4420
2026-01-18 01:26:14.52	165.83	34.40	-34.9	-36.7	22.5	0.00e+00	0	43	0	2653945856	41	4404
2026-01-18 01:26:15.52	166.01	34.21	-34.9	-36.7	22.5	0.00e+00	0	43	0	2660237312	41	4408
2026-01-18 01:26:16.52	166.19	34.01	-34.8	-36.5	22.6	0.00e+00	0	43	0	2665480192	41	4325
2026-01-18 01:26:17.51	166.36	33.82	-34.8	-36.5	22.6	0.00e+00	0	43	0	2671771648	41	4313
2026-01-18 01:26:18.51	166.54	33.62	-34.8	-36.6	22.6	0.00e+00	0	43	0	2677014528	41	4341
2026-01-18 01:26:19.51	166.71	33.43	-34.8	-36.5	22.6	0.00e+00	0	43	0	2682257408	41	4322
2026-01-18 01:26:20.51	166.88	33.24	-34.9	-36.7	22.5	0.00e+00	0	43	0	2688548864	41	4392
2026-01-18 01:26:21.51	167.05	33.05	-34.9	-36.7	22.5	0.00e+00	0	43	0	2693791744	41	4392
2026-01-18 01:26:22.50	167.22	32.86	-35.0	-36.7	22.5	0.00e+00	0	43	0	2699034624	41	4420
2026-01-18 01:26:23.50	167.39	32.67	-35.1	-36.8	22.4	0.00e+00	0	43	0	2705326080	41	4470
2026-01-18 01:26:24.51	167.55	32.48	-35.0	-36.8	22.4	0.00e+00	0	43	0	2710568960	41	4450
2026-01-18 01:26:25.50	167.71	32.29	-35.1	-36.9	22.4	0.00e+00	0	43	0	2715811840	41	4499
2026-01-18 01:26:26.50	167.87	32.10	-35.2	-36.9	22.3	0.00e+00	0	43	0	2722103296	41	4545
2026-01-18 01:26:27.50	168.03	31.92	-35.2	-36.9	22.3	0.00e+00	0	43	0	2727346176	41	4525
2026-01-18 01:26:28.50	168.19	31.73	-35.2	-37.0	22.3	0.00e+00	0	43	0	2732589056	41	4550
2026-01-18 01:26:29.50	168.34	31.55	-35.1	-36.9	22.4	0.00e+00	0	43	0	2738880512	41	4505
2026-01-18 01:26:30.49	168.50	31.37	-35.2	-37.0	22.3	0.00e+00	0	43	0	2744123392	41	4547
2026-01-18 01:26:31.49	168.65	31.19	-35.2	-37.0	22.3	0.00e+00	0	43	0	2749366272	41	4553
2026-01-18 01:26:32.49	168.80	31.00	-35.2	-36.9	22.4	0.00e+00	0	43	0	2755657728	41	4520
2026-01-18 01:26:33.49	168.95	30.82	-35.2	-37.0	22.3	0.00e+00	0	43	0	2760900608	41	4555
2026-01-18 01:26:34.48	169.09	30.65	-35.2	-36.9	22.3	0.00e+00	0	43	0	2766143488	41	4544
2026-01-18 01:26:35.48	169.24	30.47	-35.3	-37.0	22.3	0.00e+00	0	43	0	2772434944	41	4582
2026-01-18 01:26:36.47	169.38	30.29	-35.3	-37.1	22.2	0.00e+00	0	43	0	2777677824	41	4613
2026-01-18 01:26:37.47	169.52	30.12	-35.2	-37.0	22.3	0.00e+00	0	43	0	2783969280	41	4554
2026-01-18 01:26:38.47	169.66	29.94	-35.3	-37.0	22.3	0.00e+00	0	43	0	2789212160	41	4579
2026-01-18 01:26:39.46	169.80	29.77	-35.3	-37.0	22.3	0.00e+00	0	43	0	2794455040	41	4587
2026-01-18 01:26:40.46	169.94	29.59	-35.3	-37.1	22.3	0.00e+00	0	43	0	2800746496	41	4606
2026-01-18 01:26:41.45	170.07	29.42	-35.3	-37.0	22.3	0.00e+00	0	43	0	2805989376	41	4579
2026-01-18 01:26:42.45	170.21	29.25	-35.3	-37.0	22.3	0.00e+00	0	43	0	2811232256	41	4587
2026-01-18 01:26:43.45	170.34	29.08	-35.3	-37.1	22.2	0.00e+00	0	43	0	2816475136	41	4623
2026-01-18 01:26:44.45	170.47	28.91	-35.4	-37.2	22.2	0.00e+00	0	43	0	2822766592	41	4660
2026-01-18 01:26:45.45	170.60	28.74	-35.4	-37.1	22.2	0.00e+00	0	42	0	2828009472	41	4641
2026-01-18 01:26:46.44	170.73	28.57	-35.5	-37.2	22.1	0.00e+00	0	43	0	2834300928	41	4702
2026-01-18 01:26:47.44	170.86	28.40	-35.5	-37.3	22.0	0.00e+00	0	43	0	2839543808	41	4738
2026-01-18 01:26:48.43	170.99	28.24	-35.5	-37.3	22.0	0.00e+00	0	43	0	2844786688	41	4749
2026-01-18 01:26:49.43	171.11	28.07	-35.5	-37.2	22.1	0.00e+00	0	43	0	2851078144	41	4695
2026-01-18 01:26:50.43	171.24	27.91	-35.4	-37.2	22.1	0.00e+00	0	43	0	2856321024	41	4659
2026-01-18 01:26:51.43	171.36	27.74	-35.5	-37.3	22.1	0.00e+00	0	43	0	2861563904	41	4711
2026-01-18 01:26:52.43	171.48	27.58	-35.4	-37.1	22.2	0.00e+00	0	43	0	2867855360	41	4631
2026-01-18 01:26:53.42	171.60	27.42	-35.2	-36.9	22.3	0.00e+00	0	43	0	2873098240	41	4521
2026-01-18 01:26:54.42	171.72	27.25	-35.2	-37.0	22.3	0.00e+00	0	43	0	2878341120	41	4554
2026-01-18 01:26:55.42	171.84	27.09	-35.2	-36.9	22.4	0.00e+00	0	43	0	2884632576	41	4512
2026-01-18 01:26:56.41	171.96	26.93	-35.1	-36.8	22.5	0.00e+00	0	43	0	2889875456	41	4446
2026-01-18 01:26:57.41	172.07	26.77	-35.1	-36.8	22.4	0.00e+00	0	43	0	2896166912	41	4448
2026-01-18 01:26:58.41	172.19	26.62	-35.1	-36.8	22.4	0.00e+00	0	43	0	2901409792	41	4482
2026-01-18 01:26:59.41	172.30	26.46	-35.1	-36.8	22.4	0.00e+00	0	43	0	2906652672	41	4490
2026-01-18 01:27:00.41	172.41	26.30	-35.2	-36.9	22.3	0.00e+00	0	43	0	2912944128	41	4524
2026-01-18 01:27:01.41	172.53	26.14	-35.4	-37.1	22.2	0.00e+00	0	43	0	2918187008	41	4613
2026-01-18 01:27:02.41	172.64	25.99	-35.4	-37.1	22.2	0.00e+00	0	43	0	2923429888	41	4629
2026-01-18 01:27:03.40	172.74	25.84	-35.4	-37.2	22.1	0.00e+00	0	42	0	2928672768	41	4658
2026-01-18 01:27:04.40	172.85	25.68	-35.5	-37.3	22.0	0.00e+00	0	43	0	2934964224	41	4726
2026-01-18 01:27:05.39	172.96	25.53	-35.6	-37.3	22.0	0.00e+00	0	43	0	2940207104	41	4747
2026-01-18 01:27:06.39	173.07	25.38	-35.6	-37.4	21.9	0.00e+00	0	43	0	2946498560	41	4791
2026-01-18 01:27:07.39	173.17	25.23	-35.7	-37.4	21.9	0.00e+00	0	43	0	2951741440	42	4535
2026-01-18 01:27:08.39	173.28	25.07	-35.7	-37.4	21.9	0.00e+00	0	43	0	2956984320	42	4529
2026-01-18 01:27:09.39	173.38	24.92	-35.7	-37.4	21.9	0.00e+00	0	43	0	2963275776	42	4528
2026-01-18 01:27:10.38	173.48	24.78	-35.7	-37.4	22.0	0.00e+00	0	43	0	2968518656	42	4536
2026-01-18 01:27:11.38	173.58	24.63	-35.7	-37.4	21.9	0.00e+00	0	43	0	2973761536	42	4540
2026-01-18 01:27:12.38	173.69	24.48	-35.6	-37.4	22.0	0.00e+00	0	43	0	2980052992	42	4519
2026-01-18 01:27:13.38	173.79	24.33	-35.7	-37.5	21.9	0.00e+00	0	42	0	2985295872	42	4550
2026-01-18 01:27:14.37	173.88	24.19	-35.7	-37.4	21.9	0.00e+00	0	43	0	2990538752	42	4542
2026-01-18 01:27:15.37	173.98	24.04	-35.7	-37.4	21.9	0.00e+00	0	42	0	2996830208	42	4539
2026-01-18 01:27:16.36	174.08	23.90	-35.7	-37.5	21.9	0.00e+00	0	43	0	3002073088	42	4547
2026-01-18 01:27:17.36	174.18	23.76	-35.7	-37.5	21.9	0.00e+00	0	43	0	3008364544	42	4566
2026-01-18 01:27:18.36	174.27	23.61	-35.8	-37.6	21.9	0.00e+00	0	43	0	3013607424	42	4603
2026-01-18 01:27:19.36	174.37	23.47	-35.7	-37.4	22.0	0.00e+00	0	43	0	3018850304	42	4530
2026-01-18 01:27:20.35	174.46	23.33	-35.8	-37.6	21.8	0.00e+00	0	43	0	3024093184	42	4607
2026-01-18 01:27:21.35	174.55	23.19	-35.7	-37.5	21.9	0.00e+00	0	43	0	3030384640	42	4563
2026-01-18 01:27:22.35	174.64	23.05	-35.8	-37.5	21.8	0.00e+00	0	43	0	3035627520	42	4579
2026-01-18 01:27:23.35	174.74	22.91	-35.8	-37.5	21.8	0.00e+00	0	43	0	3040870400	42	4587
2026-01-18 01:27:24.35	174.83	22.77	-35.9	-37.7	21.7	0.00e+00	0	43	0	3047161856	42	4655
2026-01-18 01:27:25.34	174.92	22.63	-35.9	-37.7	21.7	0.00e+00	0	43	0	3052404736	42	4686
2026-01-18 01:27:26.35	175.01	22.49	-36.0	-37.8	21.7	0.00e+00	0	43	0	3058696192	42	4720
2026-01-18 01:27:27.34	175.09	22.35	-36.1	-37.9	21.6	0.00e+00	0	43	0	3063939072	42	4780
2026-01-18 01:27:28.34	175.18	22.22	-36.2	-38.0	21.5	0.00e+00	0	43	0	3069181952	42	4827
2026-01-18 01:27:29.33	175.27	22.08	-36.3	-38.1	21.4	0.00e+00	0	43	0	3075473408	43	4613
2026-01-18 01:27:30.33	175.35	21.95	-36.3	-38.1	21.4	0.00e+00	0	42	0	3080716288	43	4607
2026-01-18 01:27:31.33	175.44	21.81	-36.3	-38.1	21.4	0.00e+00	0	43	0	3085959168	43	4622
2026-01-18 01:27:32.32	175.52	21.68	-36.2	-38.0	21.5	0.00e+00	0	43	0	3092250624	43	4565
2026-01-18 01:27:33.32	175.61	21.55	-36.3	-38.0	21.4	0.00e+00	0	43	0	3097493504	43	4592
2026-01-18 01:27:34.32	175.69	21.42	-36.2	-38.0	21.5	0.00e+00	0	43	0	3102736384	43	4579
2026-01-18 01:27:35.31	175.77	21.28	-36.3	-38.1	21.4	0.00e+00	0	43	0	3109027840	43	4639
2026-01-18 01:27:36.31	175.86	21.15	-36.4	-38.2	21.3	0.00e+00	0	42	0	3114270720	43	4658
2026-01-18 01:27:37.31	175.94	21.02	-36.4	-38.2	21.3	0.00e+00	0	43	0	3120562176	43	4674
2026-01-18 01:27:38.31	176.02	20.89	-36.5	-38.3	21.2	0.00e+00	0	43	0	3125805056	43	4735
2026-01-18 01:27:39.30	176.10	20.76	-36.6	-38.4	21.2	0.00e+00	0	43	0	3131047936	43	4767
2026-01-18 01:27:40.30	176.18	20.64	-36.5	-38.3	21.2	0.00e+00	0	43	0	3136290816	43	4736
2026-01-18 01:27:41.30	176.26	20.51	-36.6	-38.4	21.1	0.00e+00	0	43	0	3142582272	43	4777
2026-01-18 01:27:42.30	176.34	20.38	-36.7	-38.5	21.1	0.00e+00	0	43	0	3147825152	43	4831
2026-01-18 01:27:43.30	176.41	20.25	-36.6	-38.4	21.1	0.00e+00	0	43	0	3154116608	43	4796
2026-01-18 01:27:44.29	176.49	20.13	-36.8	-38.7	21.0	0.00e+00	0	43	0	3159359488	44	4664
2026-01-18 01:27:45.29	176.57	20.00	-36.9	-38.8	20.9	0.00e+00	0	42	0	3164602368	44	4715
2026-01-18 01:27:46.29	176.64	19.88	-37.0	-38.9	20.9	0.00e+00	0	43	0	3170893824	44	4786
2026-01-18 01:27:47.29	176.72	19.75	-37.1	-38.9	20.8	0.00e+00	0	43	0	3176136704	44	4814
2026-01-18 01:27:48.28	176.79	19.63	-37.1	-38.9	20.8	0.00e+00	0	42	0	3181379584	45	4544
2026-01-18 01:27:49.28	176.87	19.50	-37.1	-39.0	20.8	0.00e+00	0	43	0	3187671040	45	4559
2026-01-18 01:27:50.28	176.94	19.38	-37.2	-39.0	20.7	0.00e+00	0	42	0	3192913920	45	4598
2026-01-18 01:27:51.28	177.01	19.26	-37.2	-39.0	20.7	0.00e+00	0	42	0	3198156800	45	4589
2026-01-18 01:27:52.27	177.08	19.14	-37.2	-39.0	20.7	0.00e+00	0	43	0	3204448256	45	4580
2026-01-18 01:27:53.27	177.16	19.02	-37.1	-39.0	20.8	0.00e+00	0	43	0	3209691136	45	4552
2026-01-18 01:27:54.27	177.23	18.90	-37.1	-39.0	20.8	0.00e+00	0	42	0	3215982592	45	4572
2026-01-18 01:27:55.26	177.30	18.78	-37.1	-38.9	20.8	0.00e+00	0	43	0	3221225472	45	4543
2026-01-18 01:27:56.26	177.37	18.66	-37.1	-38.9	20.8	0.00e+00	0	43	0	3226468352	45	4538
2026-01-18 01:27:57.26	177.44	18.54	-37.0	-38.9	20.9	0.00e+00	0	43	0	3232759808	45	4503
2026-01-18 01:27:58.26	177.51	18.42	-37.1	-38.9	20.8	0.00e+00	0	42	0	3238002688	45	4514
2026-01-18 01:27:59.25	177.58	18.30	-37.1	-38.9	20.8	0.00e+00	0	43	0	3243245568	45	4545
2026-01-18 01:28:00.25	177.64	18.18	-37.2	-39.0	20.8	0.00e+00	0	42	0	3249537024	45	4564
2026-01-18 01:28:01.25	177.71	18.07	-37.0	-38.8	20.9	0.00e+00	0	43	0	3254779904	45	4492
2026-01-18 01:28:02.25	177.78	17.95	-37.0	-38.8	20.9	0.00e+00	0	43	0	3260022784	45	4469
2026-01-18 01:28:03.25	177.85	17.83	-37.1	-39.0	20.8	0.00e+00	0	42	0	3266314240	45	4550
2026-01-18 01:28:04.25	177.91	17.72	-37.1	-38.9	20.9	0.00e+00	0	43	0	3271557120	45	4510
2026-01-18 01:28:05.25	177.98	17.60	-37.1	-39.0	20.8	0.00e+00	0	43	0	3276800000	45	4555
2026-01-18 01:28:06.24	178.04	17.49	-37.1	-38.9	20.8	0.00e+00	0	43	0	3283091456	45	4543
2026-01-18 01:28:07.24	178.11	17.38	-37.1	-38.9	20.5	0.00e+00	0	43	0	3288334336	45	4543
2026-01-18 01:28:08.24	178.17	17.26	-37.4	-39.3	20.6	0.00e+00	0	43	0	3293577216	45	4706
2026-01-18 01:28:09.23	178.24	17.15	-37.5	-39.3	20.5	0.00e+00	0	42	0	3299868672	45	4740
2026-01-18 01:28:10.23	178.30	17.04	-37.5	-39.3	20.5	0.00e+00	0	42	0	3305111552	45	4759
2026-01-18 01:28:11.23	178.36	16.93	-37.5	-39.4	20.5	0.00e+00	0	42	0	3310354432	45	4760
2026-01-18 01:28:12.23	178.42	16.82	-37.6	-39.5	20.4	0.00e+00	0	42	0	3316645888	45	4829
2026-01-18 01:28:13.23	178.49	16.70	-37.6	-39.5	20.4	0.00e+00	0	42	0	3321888768	45	4836
2026-01-18 01:28:14.23	178.55	16.59	-37.6	-39.5	20.4	0.00e+00	0	42	0	3328180224	45	4852
2026-01-18 01:28:15.22	178.61	16.48	-37.6	-39.5	20.4	0.00e+00	0	43	0	3333423104	45	4831
2026-01-18 01:28:16.22	178.67	16.37	-37.8	-39.7	20.2	0.00e+00	0	43	0	3338665984	46	4663
2026-01-18 01:28:17.22	178.73	16.27	-37.8	-39.7	20.2	0.00e+00	0	42	0	3344957440	46	4698
2026-01-18 01:28:18.23	178.79	16.16	-37.9	-39.8	20.2	0.00e+00	0	42	0	3350200320	46	4721
2026-01-18 01:28:19.22	178.85	16.05	-37.8	-39.7	20.2	0.00e+00	0	43	0	3355443200	46	4694
2026-01-18 01:28:20.22	178.91	15.94	-37.8	-39.7	20.2	0.00e+00	0	43	0	3361734656	46	4701
2026-01-18 01:28:21.22	178.97	15.83	-38.0	-39.9	20.1	0.00e+00	0	42	0	3366977536	46	4797
2026-01-18 01:28:22.21	179.03	15.73	-37.9	-39.8	20.1	0.00e+00	0	43	0	3372220416	46	4748
2026-01-18 01:28:23.21	179.08	15.62	-38.0	-40.0	20.0	0.00e+00	0	42	0	3378511872	46	4831
2026-01-18 01:28:24.21	179.14	15.51	-38.0	-39.9	20.0	0.00e+00	0	43	0	3383754752	46	4801
2026-01-18 01:28:25.20	179.20	15.41	-37.9	-39.8	20.1	0.00e+00	0	42	0	3388997632	46	4746
2026-01-18 01:28:26.20	179.26	15.30	-38.0	-39.9	20.1	0.00e+00	0	43	0	3395289088	46	4786
2026-01-18 01:28:27.20	179.31	15.20	-37.9	-39.9	20.1	0.00e+00	0	42	0	3400531968	46	4763
2026-01-18 01:28:28.20	179.37	15.10	-38.0	-39.9	20.0	0.00e+00	0	42	0	3405774848	46	4813
2026-01-18 01:28:29.20	179.42	14.99	-37.9	-39.8	20.1	0.00e+00	0	42	0	3412066304	46	4757
2026-01-18 01:28:30.19	179.48	14.89	-37.9	-39.8	20.1	0.00e+00	0	43	0	3417309184	46	4757
2026-01-18 01:28:31.19	179.53	14.79	-38.1	-40.0	20.0	0.00e+00	0	42	0	3422552064	46	4859
2026-01-18 01:28:32.19	179.59	14.68	-37.9	-39.8	20.1	0.00e+00	0	42	0	3428843520	46	4753
2026-01-18 01:28:33.19	179.64	14.58	-38.0	-39.9	20.0	0.00e+00	0	42	0	3434086400	46	4811
2026-01-18 01:28:34.19	179.70	14.48	-37.9	-39.8	20.1	0.00e+00	0	43	0	3440377856	46	4732
2026-01-18 01:28:35.19	179.75	14.38	-38.0	-39.8	20.1	0.00e+00	0	43	0	3445620736	46	4757
2026-01-18 01:28:36.18	179.80	14.28	-38.1	-40.0	20.0	0.00e+00	0	43	0	3450863616	46	4815
2026-01-18 01:28:37.18	179.86	14.18	-38.1	-40.0	19.9	0.00e+00	0	42	0	3457155072	47	4588
2026-01-18 01:28:38.17	179.91	14.08	-38.2	-40.1	19.9	0.00e+00	0	42	0	3462397952	47	4629
2026-01-18 01:28:39.17	179.96	13.98	-38.2	-40.2	19.8	0.00e+00	0	43	0	3467640832	47	4661
2026-01-18 01:28:40.17	180.01	13.88	-38.2	-40.1	19.8	0.00e+00	0	43	0	3473932288	47	4640
2026-01-18 01:28:41.17	180.07	13.78	-38.2	-40.1	19.8	0.00e+00	0	43	0	3479175168	47	4637
2026-01-18 01:28:42.17	180.12	13.68	-38.2	-40.1	19.8	0.00e+00	0	42	0	3484418048	47	4632
2026-01-18 01:28:43.16	180.17	13.58	-38.2	-40.1	19.9	0.00e+00	0	42	0	3490709504	47	4626
2026-01-18 01:28:44.16	180.22	13.49	-38.4	-40.4	19.6	0.00e+00	0	42	0	3495952384	47	4771
2026-01-18 01:28:45.16	180.27	13.39	-38.4	-40.3	19.7	0.00e+00	0	42	0	3502243840	47	4749
2026-01-18 01:28:46.15	180.32	13.29	-38.3	-40.3	19.7	0.00e+00	0	42	0	3507486720	47	4715
2026-01-18 01:28:47.15	180.37	13.19	-38.4	-40.4	19.6	0.00e+00	0	43	0	3512729600	47	4772
2026-01-18 01:28:48.15	180.42	13.10	-38.4	-40.3	19.6	0.00e+00	0	42	0	3517972480	47	4753
2026-01-18 01:28:49.14	180.47	13.00	-38.3	-40.3	19.6	0.00e+00	0	43	0	3524263936	47	4737
2026-01-18 01:28:50.14	180.52	12.91	-38.4	-40.4	19.6	0.00e+00	0	43	0	3529506816	47	4764
2026-01-18 01:28:51.14	180.56	12.81	-38.5	-40.5	19.5	0.00e+00	0	43	0	3534749696	47	4849
2026-01-18 01:28:52.14	180.61	12.72	-38.5	-40.5	19.5	0.00e+00	0	42	0	3541041152	47	4817
2026-01-18 01:28:53.14	180.66	12.62	-38.5	-40.5	19.5	0.00e+00	0	43	0	3546284032	47	4832
2026-01-18 01:28:54.14	180.71	12.53	-38.6	-40.6	19.4	0.00e+00	0	42	0	3552575488	47	4887
2026-01-18 01:28:55.13	180.76	12.43	-38.5	-40.5	19.5	0.00e+00	0	43	0	3557818368	47	4816
2026-01-18 01:28:56.13	180.80	12.34	-38.7	-40.7	18.6	0.00e+00	0	42	0	3563061248	48	4662
2026-01-18 01:28:57.13	180.85	12.25	-38.9	-40.8	19.4	0.00e+00	0	42	0	3569352704	48	4750
2026-01-18 01:28:58.13	180.90	12.15	-38.9	-40.9	19.3	0.00e+00	0	42	0	3574595584	48	4806
2026-01-18 01:28:59.12	180.94	12.06	-39.0	-41.0	19.3	0.00e+00	0	42	0	3579838464	48	4821
2026-01-18 01:29:00.12	180.99	11.97	-39.0	-41.0	19.2	0.00e+00	0	43	0	3586129920	48	4839
2026-01-18 01:29:01.12	181.03	11.88	-39.1	-41.1	19.2	0.00e+00	0	43	0	3591372800	48	4892
2026-01-18 01:29:02.12	181.08	11.79	-39.0	-41.0	19.2	0.00e+00	0	43	0	3596615680	48	4824
2026-01-18 01:29:03.11	181.12	11.70	-38.8	-40.8	19.4	0.00e+00	0	43	0	3602907136	48	4738
2026-01-18 01:29:04.11	181.17	11.61	-38.9	-40.9	19.3	0.00e+00	0	42	0	3608150016	48	4771
