passes_logs/2026/01/18/T1/T1__20260118_100937_SUOMI_NPP_rec.log

#Pass ID: 20260118_100937_SUOMI NPP
#Satellite: SUOMI NPP
#Configuration: NPP
#almurnet v.1.7.20251203
#Start time: 2026-01-18 10:09:37

#Version: 2.0.20230620
#Station: T1
#Location: 37.570604 lon 55.790049 lat
#TLE: 1 37849U 11061A   26017.57099531  .00000072  00000+0  54974-4 0  9996
#TLE: 2 37849  98.7814 319.5974 0002398  59.1749 300.9663 14.19525865737072

#Time	Az	El	Level	Level2	SNR	BER	BlckErr	Temp	State	Recorded	gain1	gain2
2026-01-18 10:09:37.82	165.20	5.02	-49.2	-64.6	3.8	1.49e+00	0	39	0	0	70	20693
2026-01-18 10:09:38.81	165.21	5.09	-48.0	-64.0	3.8	1.49e+00	0	39	104	0	66	24294
2026-01-18 10:09:39.81	165.22	5.16	-48.0	-64.0	3.8	1.49e+00	0	39	104	0	66	24182
2026-01-18 10:09:40.80	165.23	5.24	-48.0	-63.9	3.8	1.49e+00	0	39	104	0	66	24119
2026-01-18 10:09:41.79	165.24	5.31	-48.0	-64.0	3.8	1.49e+00	0	40	104	0	66	24216
2026-01-18 10:09:42.79	165.25	5.38	-48.1	-64.0	3.8	1.49e+00	0	39	104	0	66	24140
2026-01-18 10:09:43.78	165.26	5.45	-48.1	-64.0	3.8	1.49e+00	0	40	104	0	66	24390
2026-01-18 10:09:44.77	165.27	5.52	-48.0	-64.0	3.8	1.49e+00	0	40	104	0	66	24404
2026-01-18 10:09:45.77	165.28	5.60	-48.0	-64.1	3.8	1.49e+00	0	40	104	0	66	24581
2026-01-18 10:09:46.76	165.29	5.67	-48.0	-64.1	3.8	1.49e+00	0	40	104	0	66	24618
2026-01-18 10:09:47.75	165.30	5.74	-48.0	-64.2	3.8	1.49e+00	0	40	104	0	66	24755
2026-01-18 10:09:48.75	165.31	5.82	-48.0	-64.1	3.8	1.49e+00	0	40	104	0	66	24672
2026-01-18 10:09:49.74	165.32	5.89	-48.0	-64.1	3.8	1.49e+00	0	40	104	0	66	24532
2026-01-18 10:09:50.73	165.33	5.96	-48.0	-64.0	3.8	1.49e+00	0	40	104	0	66	24245
2026-01-18 10:09:51.73	165.35	6.04	-48.0	-63.8	3.8	1.49e+00	0	40	104	0	66	23848
2026-01-18 10:09:52.72	165.36	6.11	-48.0	-63.7	3.8	1.49e+00	0	40	104	0	66	23403
2026-01-18 10:09:53.71	165.37	6.19	-48.0	-63.5	3.8	1.49e+00	0	40	104	0	66	22986
2026-01-18 10:09:54.71	165.38	6.26	-48.0	-63.4	3.8	1.49e+00	0	40	104	0	66	22756
2026-01-18 10:09:55.70	165.39	6.34	-47.9	-63.4	3.8	1.49e+00	0	40	104	0	66	22579
2026-01-18 10:09:56.70	165.40	6.41	-48.0	-63.3	3.8	1.49e+00	0	40	104	0	66	22473
2026-01-18 10:09:57.69	165.41	6.49	-48.0	-63.3	3.8	1.49e+00	0	40	104	0	66	22400
2026-01-18 10:09:58.68	165.42	6.56	-48.0	-63.5	3.8	1.49e+00	0	40	104	0	66	22839
2026-01-18 10:09:59.68	165.43	6.64	-48.0	-63.6	3.8	1.49e+00	0	40	104	0	66	23217
2026-01-18 10:10:00.67	165.45	6.71	-48.0	-63.8	3.8	1.49e+00	0	40	104	0	66	23689
2026-01-18 10:10:01.66	165.46	6.79	-48.1	-63.9	3.8	1.49e+00	0	40	104	0	66	24104
2026-01-18 10:10:02.66	165.47	6.87	-48.1	-64.0	3.8	1.49e+00	0	40	104	0	66	24357
2026-01-18 10:10:03.65	165.48	6.94	-47.9	-64.1	3.8	1.49e+00	0	40	104	0	66	24547
2026-01-18 10:10:04.64	165.49	7.02	-48.0	-64.1	3.8	1.49e+00	0	40	104	0	66	24652
2026-01-18 10:10:05.64	165.50	7.10	-48.1	-64.2	3.8	1.49e+00	0	40	104	0	66	24737
2026-01-18 10:10:06.63	165.51	7.17	-48.0	-64.1	3.8	1.49e+00	0	40	104	0	66	24633
2026-01-18 10:10:07.63	165.52	7.25	-48.0	-64.0	3.8	1.49e+00	0	40	104	0	66	24398
2026-01-18 10:10:08.62	165.54	7.33	-48.0	-63.8	3.8	1.49e+00	0	40	104	0	66	23833
2026-01-18 10:10:09.61	165.55	7.41	-48.0	-63.4	3.8	1.49e+00	0	40	104	0	66	22697
2026-01-18 10:10:10.61	165.56	7.49	-48.0	-62.8	3.8	1.49e+00	0	41	104	0	66	21218
2026-01-18 10:10:11.60	165.57	7.56	-47.9	-61.6	4.0	1.49e+00	0	41	104	0	66	18478
2026-01-18 10:10:12.59	165.58	7.64	-47.8	-60.3	4.3	1.44e+00	0	41	0	0	66	15795
2026-01-18 10:10:13.59	165.60	7.72	-47.6	-59.0	4.8	1.08e+00	0	41	0	1048576	66	13607
2026-01-18 10:10:14.58	165.61	7.80	-47.5	-57.6	5.5	5.36e-01	0	41	0	3145728	66	11609
2026-01-18 10:10:15.58	165.62	7.88	-47.3	-56.4	6.5	2.96e-01	0	41	0	5242880	66	10119
2026-01-18 10:10:16.57	165.63	7.96	-47.1	-55.6	7.2	1.83e-01	0	41	0	6291456	66	9250
2026-01-18 10:10:17.56	165.64	8.04	-46.8	-54.4	8.3	9.29e-02	0	41	0	8388608	65	8550
2026-01-18 10:10:18.56	165.66	8.12	-46.8	-53.9	8.8	3.41e-02	0	41	0	10485760	65	8081
2026-01-18 10:10:19.55	165.67	8.20	-46.7	-53.4	9.4	1.92e-02	0	41	0	12582912	65	7567
2026-01-18 10:10:20.54	165.68	8.28	-46.5	-52.9	9.9	1.38e-02	0	41	0	14680064	65	7145
2026-01-18 10:10:21.54	165.69	8.36	-46.5	-52.8	10.0	8.74e-03	0	41	0	15728640	64	7508
2026-01-18 10:10:22.53	165.70	8.45	-46.5	-52.8	10.0	6.96e-03	0	41	0	17825792	64	7484
2026-01-18 10:10:23.52	165.72	8.53	-46.4	-52.9	9.9	1.49e-02	0	41	0	19922944	64	7563
2026-01-18 10:10:24.52	165.73	8.61	-46.6	-53.4	9.4	1.43e-02	0	41	0	22020096	64	8028
2026-01-18 10:10:25.51	165.74	8.69	-46.8	-53.9	8.9	2.41e-02	0	41	0	23068672	64	8502
2026-01-18 10:10:26.50	165.75	8.77	-47.0	-54.7	8.1	4.88e-02	0	41	0	25165824	64	9282
2026-01-18 10:10:27.49	165.77	8.85	-47.1	-55.5	7.3	8.17e-02	0	41	0	27262976	64	10176
2026-01-18 10:10:28.49	165.78	8.94	-47.3	-56.6	6.3	1.75e-01	0	41	0	29360128	65	10958
2026-01-18 10:10:29.48	165.79	9.02	-47.6	-58.2	5.2	4.90e-01	0	41	0	31457280	65	13221
2026-01-18 10:10:30.47	165.80	9.10	-47.0	-55.6	6.9	7.63e-01	0	41	0	32505856	66	9251
2026-01-18 10:10:31.47	165.82	9.19	-45.7	-51.9	11.1	1.24e-03	0	41	0	34603008	63	7181
2026-01-18 10:10:32.46	165.83	9.27	-46.9	-55.9	7.3	4.59e-03	0	41	0	36700160	64	10713
2026-01-18 10:10:33.46	165.84	9.36	-48.1	-63.3	3.8	1.49e+00	0	41	104	36700160	66	22468
2026-01-18 10:10:34.46	165.86	9.44	-47.0	-57.0	5.8	1.47e+00	0	41	0	36700160	66	10782
2026-01-18 10:10:35.45	165.87	9.53	-45.5	-51.8	11.2	4.61e-03	0	41	0	37748736	62	7477
2026-01-18 10:10:36.44	165.88	9.61	-45.4	-51.4	11.5	1.03e-03	0	41	0	39845888	62	7193
2026-01-18 10:10:37.44	165.89	9.70	-45.1	-50.8	12.2	3.08e-04	0	41	0	41943040	62	6710
2026-01-18 10:10:38.46	165.91	9.79	-44.8	-49.8	13.2	9.38e-05	0	41	0	44040192	61	6313
2026-01-18 10:10:39.46	165.92	9.87	-44.7	-49.6	13.4	1.75e-05	0	41	0	46137344	61	6193
2026-01-18 10:10:40.45	165.94	9.96	-44.8	-49.7	12.5	1.22e-05	0	41	0	47185920	61	6251
2026-01-18 10:10:41.45	165.95	10.05	-44.5	-49.1	13.9	3.00e-06	0	41	0	49283072	61	5805
2026-01-18 10:10:42.45	165.96	10.13	-44.5	-49.0	14.2	1.50e-06	0	41	0	51380224	60	6062
2026-01-18 10:10:43.44	165.98	10.22	-44.4	-48.6	14.4	3.80e-06	0	41	0	53477376	60	5832
2026-01-18 10:10:44.43	165.99	10.31	-44.4	-48.5	14.5	0.00e+00	0	41	0	55574528	60	5751
2026-01-18 10:10:45.43	166.00	10.40	-44.4	-48.4	14.7	0.00e+00	0	41	0	56623104	60	5657
2026-01-18 10:10:46.43	166.02	10.49	-44.5	-48.5	14.6	3.00e-06	0	41	0	58720256	60	5762
2026-01-18 10:10:47.42	166.03	10.57	-44.2	-47.8	15.3	0.00e+00	0	41	0	60817408	60	5306
2026-01-18 10:10:48.42	166.04	10.66	-44.1	-47.4	15.6	0.00e+00	0	41	0	62914560	60	5096
2026-01-18 10:10:49.41	166.06	10.75	-44.0	-47.3	15.8	0.00e+00	0	41	0	63963136	60	5028
2026-01-18 10:10:50.41	166.07	10.84	-44.1	-47.3	15.8	0.00e+00	0	41	0	66060288	59	5302
2026-01-18 10:10:51.40	166.09	10.93	-43.9	-47.0	16.0	0.00e+00	0	41	0	68157440	59	5154
2026-01-18 10:10:52.40	166.10	11.02	-43.9	-47.0	16.1	1.22e-02	0	41	0	70254592	59	5105
2026-01-18 10:10:53.45	166.12	11.12	-43.8	-46.8	16.2	0.00e+00	0	41	0	72351744	59	5012
2026-01-18 10:10:54.32	166.13	11.20	-43.9	-47.0	16.1	0.00e+00	0	41	0	73400320	59	5105
2026-01-18 10:10:55.46	166.14	11.30	-43.8	-46.8	16.3	6.85e-03	0	41	0	75497472	59	5001
2026-01-18 10:10:56.31	166.16	11.38	-43.8	-46.8	16.2	0.00e+00	0	41	0	77594624	59	5026
2026-01-18 10:10:57.45	166.17	11.49	-43.9	-46.9	16.2	0.00e+00	0	41	0	79691776	59	5061
2026-01-18 10:10:58.30	166.19	11.56	-43.7	-46.7	16.4	0.00e+00	0	41	0	80740352	59	4944
2026-01-18 10:10:59.44	166.20	11.67	-43.8	-46.8	16.2	0.00e+00	0	41	0	82837504	59	5038
2026-01-18 10:11:00.29	166.22	11.75	-43.9	-46.9	16.2	0.00e+00	0	41	0	84934656	59	5070
2026-01-18 10:11:01.43	166.23	11.86	-43.8	-46.8	16.3	0.00e+00	0	41	0	87031808	59	4991
2026-01-18 10:11:02.28	166.25	11.94	-43.7	-46.6	16.5	0.00e+00	0	41	0	88080384	59	4905
2026-01-18 10:11:03.42	166.26	12.05	-43.6	-46.5	16.6	0.00e+00	0	42	0	90177536	59	4853
2026-01-18 10:11:04.27	166.28	12.13	-43.5	-46.4	16.7	0.00e+00	0	42	0	92274688	59	4776
2026-01-18 10:11:05.41	166.29	12.23	-43.6	-46.5	16.5	0.00e+00	0	41	0	94371840	58	5156
2026-01-18 10:11:06.26	166.31	12.32	-43.6	-46.5	16.6	0.00e+00	0	41	0	96468992	58	5156
2026-01-18 10:11:07.51	166.32	12.44	-43.5	-46.4	16.7	0.00e+00	0	41	0	98566144	58	5096
2026-01-18 10:11:08.36	166.34	12.52	-43.4	-46.3	16.8	0.00e+00	0	41	0	99614720	58	5025
2026-01-18 10:11:09.50	166.36	12.63	-43.4	-46.3	16.8	0.00e+00	0	42	0	101711872	58	5022
2026-01-18 10:11:10.35	166.37	12.71	-43.4	-46.3	16.7	0.00e+00	0	42	0	103809024	58	5037
2026-01-18 10:11:11.49	166.39	12.82	-43.4	-46.3	16.7	0.00e+00	0	42	0	105906176	58	5037
2026-01-18 10:11:12.34	166.40	12.91	-43.3	-46.2	16.9	0.00e+00	0	42	0	106954752	58	4955
2026-01-18 10:11:13.69	166.42	13.04	-43.2	-46.0	17.0	0.00e+00	0	41	0	110100480	58	4862
2026-01-18 10:11:14.40	166.43	13.11	-43.1	-45.9	17.2	0.00e+00	0	41	0	111149056	58	4790
2026-01-18 10:11:15.68	166.45	13.24	-43.2	-46.0	17.1	0.00e+00	0	42	0	113246208	58	4829
2026-01-18 10:11:16.41	166.47	13.31	-43.0	-45.7	17.3	0.00e+00	0	42	0	115343360	58	4700
2026-01-18 10:11:17.69	166.49	13.44	-43.0	-45.7	17.4	0.00e+00	0	41	0	117440512	57	4932
2026-01-18 10:11:18.48	166.50	13.52	-43.0	-45.7	17.3	0.00e+00	0	42	0	118489088	57	4976
2026-01-18 10:11:19.65	166.52	13.63	-43.0	-45.7	17.3	0.00e+00	0	42	0	120586240	57	4966
2026-01-18 10:11:20.50	166.53	13.72	-42.9	-45.6	17.4	0.00e+00	0	41	0	122683392	57	4922
2026-01-18 10:11:21.64	166.55	13.84	-42.9	-45.7	17.4	0.00e+00	0	42	0	124780544	57	4927
2026-01-18 10:11:22.50	166.57	13.93	-42.8	-45.5	17.6	0.00e+00	0	42	0	126877696	57	4819
2026-01-18 10:11:23.63	166.58	14.04	-42.7	-45.4	15.4	0.00e+00	0	42	0	128974848	57	4776
2026-01-18 10:11:24.79	166.60	14.16	-42.5	-45.1	17.9	0.00e+00	0	42	0	131072000	57	4641
2026-01-18 10:11:25.83	166.62	14.27	-42.4	-45.0	18.0	0.00e+00	0	42	0	133169152	56	4842
2026-01-18 10:11:26.79	166.64	14.37	-42.4	-44.9	18.1	7.00e-07	0	42	0	134217728	56	4810
2026-01-18 10:11:27.78	166.66	14.47	-42.3	-44.8	18.3	0.00e+00	0	42	0	136314880	56	4726
2026-01-18 10:11:28.78	166.67	14.58	-42.3	-44.8	18.3	0.00e+00	0	42	0	138412032	56	4726
2026-01-18 10:11:29.77	166.69	14.68	-42.2	-44.7	18.4	0.00e+00	0	41	0	140509184	56	4654
2026-01-18 10:11:30.77	166.71	14.79	-42.2	-44.6	18.5	0.00e+00	0	42	0	141557760	56	4612
2026-01-18 10:11:31.76	166.73	14.89	-42.2	-44.6	18.4	0.00e+00	0	42	0	143654912	56	4628
2026-01-18 10:11:32.75	166.74	15.00	-42.0	-44.4	18.6	0.00e+00	0	42	0	145752064	56	4539
2026-01-18 10:11:33.75	166.76	15.11	-42.0	-44.4	18.6	0.00e+00	0	41	0	147849216	56	4534
2026-01-18 10:11:34.74	166.78	15.21	-41.9	-44.2	18.6	0.00e+00	0	42	0	148897792	55	4698
2026-01-18 10:11:35.75	166.80	15.32	-41.8	-44.1	18.7	0.00e+00	0	42	0	150994944	55	4641
2026-01-18 10:11:36.78	166.82	15.43	-41.9	-44.3	18.6	0.00e+00	0	42	0	153092096	55	4734
2026-01-18 10:11:37.83	166.83	15.55	-41.9	-44.3	18.6	0.00e+00	0	42	0	155189248	55	4740
2026-01-18 10:11:38.75	166.85	15.65	-41.9	-44.3	18.6	0.00e+00	0	42	0	157286400	55	4734
2026-01-18 10:11:39.87	166.87	15.77	-42.0	-44.4	18.5	0.00e+00	0	42	0	159383552	55	4781
2026-01-18 10:11:40.72	166.89	15.87	-42.0	-44.4	18.5	0.00e+00	0	42	0	160432128	55	4787
2026-01-18 10:11:42.07	166.91	16.02	-42.1	-44.5	18.3	0.00e+00	0	42	0	163577856	55	4846
2026-01-18 10:11:42.77	166.93	16.10	-42.0	-44.4	18.4	0.00e+00	0	42	0	164626432	55	4803
2026-01-18 10:11:44.26	166.95	16.26	-42.0	-44.4	18.5	0.00e+00	0	42	0	166723584	55	4779
2026-01-18 10:11:44.97	166.97	16.34	-41.9	-44.3	18.6	0.00e+00	0	42	0	168820736	55	4721
2026-01-18 10:11:46.25	166.99	16.49	-41.9	-44.4	18.5	0.00e+00	0	42	0	170917888	55	4777
2026-01-18 10:11:46.97	167.01	16.57	-41.8	-44.1	18.7	0.00e+00	0	42	0	171966464	55	4650
2026-01-18 10:11:48.25	167.03	16.72	-41.8	-44.2	18.7	0.00e+00	0	42	0	175112192	55	4680
2026-01-18 10:11:48.99	167.05	16.80	-41.8	-44.1	18.7	0.00e+00	0	42	0	176160768	55	4642
2026-01-18 10:11:50.27	167.07	16.95	-41.6	-43.9	18.9	0.00e+00	0	42	0	178257920	55	4529
2026-01-18 10:11:50.98	167.09	17.03	-41.6	-43.9	19.0	0.00e+00	0	42	0	180355072	55	4519
2026-01-18 10:11:52.26	167.11	17.18	-41.7	-44.0	18.9	0.00e+00	0	42	0	182452224	55	4572
2026-01-18 10:11:52.97	167.13	17.26	-41.5	-43.9	19.0	0.00e+00	0	42	0	183500800	55	4498
2026-01-18 10:11:54.26	167.15	17.42	-41.5	-43.8	19.0	0.00e+00	0	42	0	185597952	54	4750
2026-01-18 10:11:55.01	167.17	17.51	-41.5	-43.8	19.0	0.00e+00	0	42	0	187695104	54	4727
2026-01-18 10:11:56.29	167.19	17.66	-41.4	-43.7	19.1	0.00e+00	0	42	0	189792256	54	4695
2026-01-18 10:11:57.01	167.21	17.74	-41.5	-43.8	19.1	0.00e+00	0	42	0	190840832	54	4737
2026-01-18 10:11:58.29	167.24	17.90	-41.5	-43.8	19.0	0.00e+00	0	42	0	193986560	54	4733
2026-01-18 10:11:59.04	167.25	17.99	-41.5	-43.8	19.0	0.00e+00	0	42	0	195035136	54	4738
2026-01-18 10:12:00.31	167.28	18.14	-41.6	-43.9	18.9	0.00e+00	0	42	0	197132288	54	4794
2026-01-18 10:12:01.18	167.30	18.25	-41.6	-44.0	18.9	0.00e+00	0	42	0	199229440	54	4826
2026-01-18 10:12:02.63	167.33	18.43	-41.9	-44.3	18.6	0.00e+00	0	42	0	201326592	54	5011
2026-01-18 10:12:03.34	167.34	18.51	-41.7	-44.1	18.8	0.00e+00	0	42	0	203423744	54	4881
2026-01-18 10:12:04.62	167.37	18.67	-41.8	-44.2	18.7	0.00e+00	0	42	0	205520896	54	4935
2026-01-18 10:12:05.34	167.39	18.76	-41.9	-44.3	18.6	0.00e+00	0	42	0	206569472	54	5002
2026-01-18 10:12:06.61	167.41	18.92	-41.8	-44.2	18.7	0.00e+00	0	42	0	208666624	54	4944
2026-01-18 10:12:07.32	167.43	19.01	-41.8	-44.2	18.7	0.00e+00	0	42	0	210763776	54	4971
2026-01-18 10:12:08.60	167.46	19.17	-41.9	-44.3	18.6	0.00e+00	0	42	0	212860928	54	5006
2026-01-18 10:12:09.47	167.48	19.28	-41.8	-44.2	18.7	0.00e+00	0	42	0	214958080	54	4966
2026-01-18 10:12:10.61	167.51	19.43	-41.9	-44.3	18.6	0.00e+00	0	42	0	217055232	54	4995
2026-01-18 10:12:11.46	167.52	19.54	-41.8	-44.1	18.8	0.00e+00	0	42	0	218103808	54	4914
2026-01-18 10:12:12.60	167.55	19.69	-41.8	-44.2	18.7	0.00e+00	0	42	0	220200960	54	4953
2026-01-18 10:12:13.72	167.58	19.83	-41.8	-44.2	18.7	0.00e+00	0	42	0	222298112	54	4954
2026-01-18 10:12:14.74	167.60	19.96	-41.9	-44.2	18.7	0.00e+00	0	42	0	224395264	54	4979
2026-01-18 10:12:15.93	167.63	20.12	-41.9	-44.3	18.6	0.00e+00	0	42	0	226492416	54	5038
2026-01-18 10:12:16.79	167.65	20.23	-41.8	-44.1	18.8	0.00e+00	0	42	0	228589568	54	4914
2026-01-18 10:12:18.09	167.68	20.41	-41.9	-44.3	18.6	0.00e+00	0	42	0	230686720	54	5023
2026-01-18 10:12:18.81	167.70	20.50	-41.9	-44.3	18.6	0.00e+00	0	42	0	231735296	54	5013
2026-01-18 10:12:20.27	167.73	20.70	-42.0	-44.5	18.4	0.00e+00	0	42	0	234881024	54	5116
2026-01-18 10:12:20.98	167.75	20.80	-42.1	-44.6	18.3	0.00e+00	0	42	0	235929600	54	5196
2026-01-18 10:12:22.26	167.78	20.97	-42.0	-44.5	18.5	0.00e+00	0	42	0	238026752	54	5117
2026-01-18 10:12:22.97	167.80	21.07	-42.1	-44.6	18.4	0.00e+00	0	42	0	240123904	55	4887
2026-01-18 10:12:24.24	167.83	21.24	-42.3	-44.8	18.2	0.00e+00	0	42	0	242221056	55	5008
2026-01-18 10:12:24.96	167.85	21.34	-42.4	-44.9	18.0	0.00e+00	0	42	0	243269632	55	5093
2026-01-18 10:12:26.23	167.88	21.52	-42.6	-45.1	17.8	0.00e+00	0	42	0	246415360	55	5199
2026-01-18 10:12:26.94	167.90	21.62	-42.5	-45.1	16.8	0.00e+00	0	42	0	247463936	55	5173
2026-01-18 10:12:28.22	167.94	21.79	-42.5	-45.0	17.9	0.00e+00	0	42	0	249561088	55	5140
2026-01-18 10:12:28.95	167.95	21.90	-42.6	-45.2	17.8	0.00e+00	0	42	0	250609664	55	5259
2026-01-18 10:12:30.22	167.99	22.08	-42.9	-45.5	17.7	0.00e+00	0	42	0	253755392	56	5120
2026-01-18 10:12:31.10	168.01	22.20	-42.8	-45.4	17.7	0.00e+00	0	42	0	254803968	56	5072
2026-01-18 10:12:32.23	168.04	22.37	-42.8	-45.4	17.7	0.00e+00	0	42	0	256901120	56	5087
2026-01-18 10:12:33.09	168.07	22.49	-42.9	-45.5	17.6	0.00e+00	0	42	0	258998272	56	5132
2026-01-18 10:12:34.22	168.10	22.65	-43.0	-45.5	17.6	0.00e+00	0	42	0	261095424	56	5155
2026-01-18 10:12:35.08	168.12	22.78	-43.0	-45.6	17.5	0.00e+00	0	42	0	262144000	56	5211
2026-01-18 10:12:36.21	168.15	22.95	-43.0	-45.6	17.6	0.00e+00	0	42	0	264241152	57	4898
2026-01-18 10:12:37.06	168.18	23.07	-43.1	-45.7	17.5	0.00e+00	0	42	0	266338304	57	4968
2026-01-18 10:12:38.20	168.21	23.24	-43.1	-45.8	17.4	0.00e+00	0	42	0	268435456	57	4989
2026-01-18 10:12:39.06	168.23	23.37	-43.1	-45.7	17.4	0.00e+00	0	42	0	269484032	57	4957
2026-01-18 10:12:40.19	168.26	23.54	-43.2	-45.9	17.3	0.00e+00	0	42	0	272629760	57	5071
2026-01-18 10:12:41.05	168.29	23.67	-43.1	-45.7	17.4	0.00e+00	0	42	0	273678336	57	4975
2026-01-18 10:12:42.18	168.32	23.84	-43.1	-45.7	17.6	0.00e+00	0	42	0	275775488	57	4937
2026-01-18 10:12:43.03	168.35	23.97	-43.3	-46.0	17.2	0.00e+00	0	42	0	277872640	57	5125
2026-01-18 10:12:44.17	168.38	24.15	-43.1	-45.8	17.4	0.00e+00	0	42	0	279969792	57	4992
2026-01-18 10:12:45.02	168.41	24.28	-43.0	-45.6	17.6	0.00e+00	0	42	0	281018368	57	4914
2026-01-18 10:12:46.16	168.44	24.45	-43.1	-45.8	17.4	0.00e+00	0	42	0	283115520	57	5007
2026-01-18 10:12:47.01	168.47	24.59	-43.1	-45.8	17.4	0.00e+00	0	42	0	285212672	57	5021
2026-01-18 10:12:48.15	168.50	24.77	-43.0	-45.6	17.6	0.00e+00	0	42	0	287309824	57	4888
2026-01-18 10:12:49.01	168.53	24.90	-43.1	-45.8	17.4	0.00e+00	0	42	0	288358400	57	4987
2026-01-18 10:12:50.14	168.56	25.08	-43.0	-45.7	17.5	0.00e+00	0	42	0	290455552	57	4927
2026-01-18 10:12:51.00	168.59	25.22	-43.1	-45.8	17.4	0.00e+00	0	42	0	292552704	57	4996
2026-01-18 10:12:52.13	168.63	25.40	-43.2	-45.9	17.3	0.00e+00	0	42	0	294649856	57	5045
2026-01-18 10:12:52.99	168.66	25.54	-43.3	-46.0	17.2	0.00e+00	0	42	0	295698432	57	5125
2026-01-18 10:12:54.12	168.69	25.73	-43.3	-46.0	17.2	0.00e+00	0	42	0	297795584	57	5129
2026-01-18 10:12:54.97	168.72	25.87	-43.3	-46.0	17.2	0.00e+00	0	42	0	299892736	57	5113
2026-01-18 10:12:56.11	168.76	26.05	-43.1	-45.7	17.5	0.00e+00	0	42	0	301989888	57	4965
2026-01-18 10:12:56.96	168.79	26.20	-43.4	-46.0	17.2	0.00e+00	0	42	0	303038464	57	5144
2026-01-18 10:12:58.10	168.82	26.39	-43.3	-45.9	17.4	0.00e+00	0	42	0	306184192	57	5062
2026-01-18 10:12:58.95	168.85	26.53	-43.2	-45.8	17.4	0.00e+00	0	42	0	307232768	57	5014
2026-01-18 10:13:00.09	168.89	26.72	-43.2	-45.8	17.4	0.00e+00	0	42	0	309329920	57	5023
2026-01-18 10:13:00.94	168.92	26.87	-43.2	-45.8	17.4	0.00e+00	0	42	0	311427072	57	4986
2026-01-18 10:13:02.08	168.96	27.06	-43.0	-45.5	17.7	0.00e+00	0	42	0	313524224	57	4858
2026-01-18 10:13:03.01	169.00	27.22	-43.2	-45.8	17.4	0.00e+00	0	42	0	314572800	57	5006
2026-01-18 10:13:04.01	169.03	27.40	-43.3	-45.9	17.3	0.00e+00	0	42	0	316669952	57	5081
2026-01-18 10:13:05.01	169.07	27.57	-43.2	-45.8	17.5	0.00e+00	0	42	0	318767104	57	4993
2026-01-18 10:13:06.00	169.10	27.74	-43.4	-46.0	17.2	0.00e+00	0	42	0	320864256	57	5147
2026-01-18 10:13:06.99	169.14	27.92	-43.3	-45.9	17.3	0.00e+00	0	42	0	321912832	58	4791
2026-01-18 10:13:07.99	169.18	28.10	-43.4	-46.1	17.2	0.00e+00	0	42	0	324009984	58	4885
2026-01-18 10:13:08.98	169.21	28.27	-43.4	-46.1	17.2	0.00e+00	0	42	0	326107136	58	4876
2026-01-18 10:13:09.98	169.25	28.45	-43.5	-46.2	17.0	0.00e+00	0	42	0	328204288	58	4963
2026-01-18 10:13:10.97	169.29	28.63	-43.3	-45.9	17.3	0.00e+00	0	42	0	330301440	58	4789
2026-01-18 10:13:11.97	169.33	28.82	-43.5	-46.2	17.1	0.00e+00	0	42	0	331350016	58	4959
2026-01-18 10:13:12.96	169.37	29.00	-43.0	-45.5	17.7	0.00e+00	0	42	0	333447168	57	4852
2026-01-18 10:13:13.96	169.41	29.18	-43.2	-45.8	17.4	0.00e+00	0	42	0	335544320	57	5036
2026-01-18 10:13:14.95	169.45	29.37	-43.3	-45.9	17.3	0.00e+00	0	42	0	337641472	57	5086
2026-01-18 10:13:15.95	169.49	29.55	-43.2	-45.8	17.4	0.00e+00	0	42	0	338690048	57	5005
2026-01-18 10:13:16.94	169.53	29.74	-43.3	-46.0	17.3	0.00e+00	0	42	0	340787200	57	5106
2026-01-18 10:13:17.94	169.57	29.93	-43.5	-46.2	17.0	0.00e+00	0	42	0	342884352	57	5242
2026-01-18 10:13:18.93	169.61	30.12	-43.7	-46.4	16.9	0.00e+00	0	42	0	344981504	58	5093
2026-01-18 10:13:19.93	169.65	30.31	-43.7	-46.5	16.8	0.00e+00	0	42	0	347078656	58	5139
2026-01-18 10:13:20.92	169.70	30.50	-44.2	-47.2	16.1	0.00e+00	0	42	0	348127232	59	5265
2026-01-18 10:13:21.92	169.74	30.70	-44.3	-47.4	15.9	0.00e+00	0	42	0	350224384	59	5342
2026-01-18 10:13:22.91	169.78	30.89	-44.1	-47.0	16.3	0.00e+00	0	42	0	352321536	59	5138
2026-01-18 10:13:23.91	169.83	31.09	-44.2	-47.2	16.1	0.00e+00	0	42	0	354418688	59	5221
2026-01-18 10:13:24.90	169.87	31.29	-44.0	-46.9	16.5	0.00e+00	0	42	0	355467264	59	5043
2026-01-18 10:13:25.90	169.92	31.49	-44.0	-46.9	16.4	0.00e+00	0	42	0	357564416	59	5052
2026-01-18 10:13:26.89	169.96	31.69	-44.0	-46.9	16.4	0.00e+00	0	42	0	359661568	59	5082
2026-01-18 10:13:27.89	170.01	31.89	-43.8	-46.7	16.6	0.00e+00	0	42	0	361758720	59	4931
2026-01-18 10:13:28.93	170.06	32.10	-44.3	-47.3	16.0	0.00e+00	0	42	0	363855872	59	5311
2026-01-18 10:13:29.91	170.10	32.30	-44.5	-47.6	15.7	0.00e+00	0	42	0	364904448	59	5528
2026-01-18 10:13:30.98	170.15	32.53	-44.6	-47.7	15.6	0.00e+00	0	42	0	367001600	59	5580
2026-01-18 10:13:31.83	170.19	32.70	-44.7	-47.9	15.4	0.00e+00	0	42	0	369098752	60	5384
2026-01-18 10:13:32.97	170.25	32.94	-44.8	-48.1	15.2	0.00e+00	0	42	0	371195904	61	5176
2026-01-18 10:13:33.82	170.29	33.12	-44.6	-47.8	15.7	0.00e+00	0	42	0	372244480	61	5009
2026-01-18 10:13:34.96	170.35	33.36	-44.5	-47.6	15.7	0.00e+00	0	42	0	374341632	60	5217
2026-01-18 10:13:35.82	170.39	33.55	-44.7	-47.9	15.5	0.00e+00	0	42	0	376438784	60	5350
2026-01-18 10:13:36.95	170.45	33.79	-44.3	-47.3	16.1	0.00e+00	0	42	0	378535936	60	5018
2026-01-18 10:13:37.81	170.50	33.98	-44.2	-47.2	16.1	0.00e+00	0	42	0	380633088	60	4932
2026-01-18 10:13:38.94	170.56	34.23	-44.0	-46.9	16.4	0.00e+00	0	42	0	382730240	60	4795
2026-01-18 10:13:39.79	170.60	34.41	-44.0	-46.9	16.4	0.00e+00	0	42	0	383778816	59	5065
2026-01-18 10:13:40.93	170.66	34.67	-43.7	-46.5	16.8	0.00e+00	0	42	0	385875968	59	4842
2026-01-18 10:13:41.79	170.71	34.86	-43.4	-46.1	17.2	0.00e+00	0	42	0	387973120	58	4915
2026-01-18 10:13:42.92	170.77	35.11	-43.2	-45.8	17.4	0.00e+00	0	42	0	390070272	58	4748
2026-01-18 10:13:43.78	170.82	35.31	-43.0	-45.6	17.6	0.00e+00	0	42	0	391118848	58	4643
2026-01-18 10:13:45.07	170.90	35.60	-42.6	-45.0	18.2	0.00e+00	0	42	0	393216000	57	4581
2026-01-18 10:13:45.78	170.94	35.77	-42.6	-45.1	18.1	0.00e+00	0	42	0	395313152	56	4874
2026-01-18 10:13:47.27	171.02	36.11	-42.4	-44.9	18.4	0.00e+00	0	42	0	397410304	56	4762
2026-01-18 10:13:47.98	171.07	36.28	-42.4	-44.9	18.4	0.00e+00	0	42	0	399507456	56	4785
2026-01-18 10:13:49.25	171.14	36.57	-42.0	-44.4	18.7	0.00e+00	0	42	0	401604608	55	4779
2026-01-18 10:13:49.96	171.19	36.74	-41.8	-44.1	18.8	0.00e+00	0	42	0	402653184	55	4645
2026-01-18 10:13:51.24	171.27	37.05	-41.6	-43.9	19.0	0.00e+00	0	42	0	405798912	55	4542
2026-01-18 10:13:51.95	171.31	37.22	-41.3	-43.5	19.4	0.00e+00	0	42	0	406847488	54	4598
2026-01-18 10:13:53.23	171.39	37.53	-41.3	-43.5	19.5	0.00e+00	0	42	0	408944640	54	4580
2026-01-18 10:13:53.96	171.44	37.71	-41.2	-43.5	19.6	0.00e+00	0	42	0	409993216	54	4563
2026-01-18 10:13:55.24	171.52	38.02	-40.8	-42.9	20.0	0.00e+00	0	42	0	413138944	53	4517
2026-01-18 10:13:56.00	171.57	38.21	-40.9	-43.0	19.9	0.00e+00	0	42	0	414187520	53	4579
2026-01-18 10:13:57.28	171.66	38.53	-40.9	-43.0	19.9	0.00e+00	0	42	0	416284672	53	4575
2026-01-18 10:13:58.00	171.71	38.71	-40.9	-43.0	19.9	0.00e+00	0	42	0	418381824	53	4588
2026-01-18 10:13:59.28	171.80	39.03	-41.0	-43.2	19.8	0.00e+00	0	42	0	420478976	53	4672
2026-01-18 10:13:59.99	171.85	39.21	-40.9	-43.0	19.8	0.00e+00	0	42	0	421527552	53	4583
2026-01-18 10:14:01.27	171.94	39.54	-41.0	-43.1	19.8	0.00e+00	0	42	0	423624704	53	4634
2026-01-18 10:14:01.98	171.99	39.72	-41.2	-43.4	19.6	0.00e+00	0	42	0	425721856	53	4777
2026-01-18 10:14:03.26	172.09	40.05	-41.7	-44.0	19.0	0.00e+00	0	42	0	427819008	54	4840
2026-01-18 10:14:03.97	172.14	40.24	-41.9	-44.2	18.9	0.00e+00	0	42	0	428867584	54	4963
2026-01-18 10:14:05.27	172.24	40.58	-42.4	-44.8	18.3	0.00e+00	0	42	0	432013312	55	4993
2026-01-18 10:14:05.97	172.29	40.77	-42.9	-45.5	17.8	0.00e+00	0	42	0	433061888	56	5107
2026-01-18 10:14:07.27	172.39	41.12	-42.6	-45.0	18.2	0.00e+00	0	42	0	435159040	56	4856
2026-01-18 10:14:07.98	172.45	41.31	-43.1	-45.6	17.7	0.00e+00	0	42	0	437256192	56	5186
2026-01-18 10:14:09.26	172.56	41.66	-43.1	-45.6	17.7	0.00e+00	0	42	0	439353344	57	4902
2026-01-18 10:14:09.97	172.61	41.85	-43.1	-45.6	17.7	0.00e+00	0	42	0	440401920	57	4912
2026-01-18 10:14:11.24	172.72	42.20	-43.3	-45.9	17.4	0.00e+00	0	42	0	442499072	57	5096
2026-01-18 10:14:11.96	172.78	42.40	-43.3	-45.9	17.5	0.00e+00	0	42	0	444596224	57	5045
2026-01-18 10:14:13.23	172.89	42.75	-43.4	-46.1	17.2	0.00e+00	0	42	0	446693376	57	5179
2026-01-18 10:14:13.95	172.95	42.96	-42.9	-45.4	17.9	0.00e+00	0	42	0	447741952	57	4780
2026-01-18 10:14:15.23	173.07	43.32	-42.9	-45.4	17.9	0.00e+00	0	42	0	449839104	57	4761
2026-01-18 10:14:16.07	173.15	43.56	-42.3	-44.7	18.4	0.00e+00	0	42	0	451936256	56	4679
2026-01-18 10:14:17.51	173.28	43.97	-42.5	-44.9	18.4	0.00e+00	0	42	0	455081984	56	4763
2026-01-18 10:14:18.22	173.35	44.18	-42.0	-44.2	18.9	0.00e+00	0	42	0	456130560	56	4435
2026-01-18 10:14:19.73	173.49	44.62	-42.7	-45.2	18.1	0.00e+00	0	42	0	459276288	56	4933
2026-01-18 10:14:20.45	173.56	44.83	-42.7	-45.1	18.1	0.00e+00	0	42	0	460324864	56	4926
2026-01-18 10:14:21.73	173.69	45.21	-43.5	-46.2	17.3	0.00e+00	0	42	0	462422016	57	5222
2026-01-18 10:14:22.44	173.76	45.43	-44.1	-46.9	16.5	0.00e+00	0	42	0	463470592	58	5379
2026-01-18 10:14:23.72	173.90	45.81	-44.4	-47.4	16.1	0.00e+00	0	42	0	466616320	60	5076
2026-01-18 10:14:24.46	173.98	46.04	-44.9	-48.2	15.3	0.00e+00	0	42	0	467664896	60	5561
2026-01-18 10:14:25.74	174.11	46.43	-45.2	-48.6	15.0	7.00e-07	0	42	0	469762048	61	5467
2026-01-18 10:14:26.47	174.19	46.65	-45.2	-48.6	15.0	0.00e+00	0	42	0	471859200	61	5469
2026-01-18 10:14:27.74	174.34	47.05	-45.5	-49.0	14.4	7.00e-07	0	42	0	473956352	61	5765
2026-01-18 10:14:28.47	174.42	47.27	-45.2	-48.6	14.9	7.00e-07	0	42	0	475004928	61	5495
2026-01-18 10:14:29.75	174.57	47.68	-45.0	-48.3	15.1	0.00e+00	0	42	0	477102080	61	5314
2026-01-18 10:14:30.48	174.66	47.91	-44.6	-47.7	15.8	0.00e+00	0	42	0	479199232	61	4929
2026-01-18 10:14:31.76	174.81	48.31	-44.4	-47.5	16.0	0.00e+00	0	42	0	481296384	60	5105
2026-01-18 10:14:32.57	174.91	48.57	-44.3	-47.3	16.1	0.00e+00	0	42	0	483393536	59	5290
2026-01-18 10:14:33.71	175.06	48.94	-43.7	-46.4	17.0	0.00e+00	0	42	0	484442112	59	4810
2026-01-18 10:14:34.74	175.19	49.28	-42.5	-44.9	18.3	0.00e+00	0	42	0	486539264	57	4537
2026-01-18 10:14:35.73	175.32	49.60	-42.4	-44.8	18.6	0.00e+00	0	42	0	488636416	56	4712
2026-01-18 10:14:36.73	175.45	49.93	-41.6	-43.9	19.3	0.00e+00	0	42	0	490733568	55	4499
2026-01-18 10:14:37.72	175.59	50.26	-41.2	-43.4	19.7	0.00e+00	0	42	0	492830720	54	4496
2026-01-18 10:14:38.72	175.73	50.60	-40.9	-42.9	19.9	0.00e+00	0	42	0	493879296	53	4543
2026-01-18 10:14:39.71	175.87	50.93	-40.7	-42.8	20.1	0.00e+00	0	42	0	495976448	53	4465
2026-01-18 10:14:40.71	176.02	51.27	-41.2	-43.4	19.6	0.00e+00	0	42	0	498073600	53	4782
2026-01-18 10:14:41.71	176.17	51.61	-41.7	-43.9	19.1	0.00e+00	0	42	0	500170752	53	5099
2026-01-18 10:14:42.71	176.32	51.95	-41.7	-43.9	19.1	0.00e+00	0	42	0	502267904	54	4803
2026-01-18 10:14:43.70	176.48	52.30	-41.5	-43.7	19.4	0.00e+00	0	42	0	503316480	54	4679
2026-01-18 10:14:44.70	176.64	52.64	-41.3	-43.4	19.5	0.00e+00	0	42	0	505413632	54	4545
2026-01-18 10:14:45.69	176.80	52.99	-41.1	-43.2	19.8	0.00e+00	0	42	0	507510784	53	4695
2026-01-18 10:14:46.69	176.97	53.34	-41.1	-43.2	19.7	0.00e+00	0	42	0	509607936	53	4697
2026-01-18 10:14:47.76	177.16	53.72	-41.0	-43.1	19.9	0.00e+00	0	42	0	511705088	53	4611
2026-01-18 10:14:48.65	177.31	54.04	-41.0	-43.1	19.9	0.00e+00	0	42	0	512753664	53	4644
2026-01-18 10:14:49.98	177.55	54.52	-40.5	-42.6	20.3	0.00e+00	0	42	0	515899392	53	4358
2026-01-18 10:14:50.69	177.69	54.78	-40.8	-43.0	20.0	0.00e+00	0	42	0	516947968	52	4843
2026-01-18 10:14:51.97	177.93	55.24	-40.0	-42.1	20.8	0.00e+00	0	42	0	519045120	52	4367
2026-01-18 10:14:52.68	178.07	55.50	-39.7	-41.7	21.2	0.00e+00	0	42	0	520093696	51	4418
2026-01-18 10:14:54.23	178.38	56.07	-39.2	-41.1	21.7	0.00e+00	0	42	0	523239424	50	4361
2026-01-18 10:14:54.93	178.53	56.33	-39.4	-41.3	21.5	0.00e+00	0	42	0	524288000	50	4445
2026-01-18 10:14:56.21	178.80	56.81	-40.0	-41.9	21.0	0.00e+00	0	42	0	527433728	50	4812
2026-01-18 10:14:56.92	178.95	57.08	-40.5	-42.6	20.4	0.00e+00	0	42	0	528482304	51	4892
2026-01-18 10:14:58.20	179.24	57.56	-40.7	-42.9	20.0	0.00e+00	0	42	0	530579456	52	4779
2026-01-18 10:14:58.93	179.41	57.84	-40.5	-42.6	20.4	0.00e+00	0	42	0	532676608	52	4613
2026-01-18 10:15:00.20	179.71	58.32	-40.0	-41.9	21.0	0.00e+00	0	42	0	534773760	51	4540
2026-01-18 10:15:00.93	179.89	58.60	-39.9	-41.9	21.0	0.00e+00	0	42	0	535822336	51	4516
2026-01-18 10:15:02.20	180.21	59.09	-40.3	-42.3	20.7	0.00e+00	0	42	0	537919488	51	4744
2026-01-18 10:15:03.01	180.42	59.40	-40.6	-42.7	20.3	0.00e+00	0	42	0	540016640	51	4973
2026-01-18 10:15:04.15	180.72	59.85	-40.8	-43.0	20.0	0.00e+00	0	42	0	542113792	52	4830
2026-01-18 10:15:05.00	180.96	60.18	-40.8	-43.0	20.0	0.00e+00	0	42	0	543162368	52	4841
2026-01-18 10:15:06.14	181.28	60.63	-40.5	-42.6	20.4	0.00e+00	0	42	0	545259520	52	4618
2026-01-18 10:15:06.99	181.53	60.96	-40.0	-42.0	21.0	0.00e+00	0	42	0	547356672	51	4557
2026-01-18 10:15:08.13	181.87	61.41	-39.8	-41.7	21.1	0.00e+00	0	42	0	549453824	51	4427
2026-01-18 10:15:09.30	182.23	61.88	-39.8	-41.8	21.1	0.00e+00	0	42	0	551550976	51	4466
2026-01-18 10:15:10.33	182.57	62.29	-39.5	-41.4	21.4	0.00e+00	0	42	0	553648128	51	4262
2026-01-18 10:15:11.49	182.95	62.76	-39.7	-41.6	21.3	0.00e+00	0	42	0	555745280	50	4637
2026-01-18 10:15:12.35	183.25	63.11	-40.4	-42.5	20.6	0.00e+00	0	42	0	557842432	51	4822
2026-01-18 10:15:13.71	183.74	63.66	-40.5	-42.6	20.2	0.00e+00	0	42	0	559939584	52	4648
2026-01-18 10:15:14.42	184.00	63.94	-40.5	-42.6	20.4	0.00e+00	0	42	0	560988160	52	4624
2026-01-18 10:15:15.70	184.50	64.47	-40.6	-42.8	20.2	0.00e+00	0	42	0	564133888	52	4709
2026-01-18 10:15:16.41	184.78	64.76	-40.9	-43.0	20.0	0.00e+00	0	42	0	565182464	52	4861
2026-01-18 10:15:17.69	185.31	65.28	-40.8	-42.9	20.0	0.00e+00	0	42	0	567279616	52	4792
2026-01-18 10:15:18.40	185.62	65.57	-40.7	-42.8	20.2	0.00e+00	0	42	0	568328192	52	4748
2026-01-18 10:15:19.68	186.19	66.10	-40.3	-42.4	20.5	0.00e+00	0	42	0	571473920	52	4497
2026-01-18 10:15:20.39	186.51	66.39	-40.4	-42.4	20.5	0.00e+00	0	42	0	572522496	52	4526
2026-01-18 10:15:21.67	187.13	66.92	-41.2	-43.3	19.6	0.00e+00	0	42	0	574619648	53	4758
2026-01-18 10:15:22.38	187.48	67.21	-41.9	-44.2	19.0	0.00e+00	0	42	0	576716800	54	4944
2026-01-18 10:15:23.68	188.16	67.75	-43.3	-46.0	17.4	0.00e+00	0	42	0	578813952	57	5115
2026-01-18 10:15:24.62	188.67	68.14	-42.9	-45.5	17.8	0.00e+00	0	42	0	580911104	57	4823
2026-01-18 10:15:25.93	189.41	68.69	-41.5	-43.7	19.4	0.00e+00	0	42	0	583008256	55	4416
2026-01-18 10:15:26.68	189.86	69.00	-41.9	-44.2	18.9	0.00e+00	0	42	0	584056832	54	4960
2026-01-18 10:15:27.96	190.65	69.53	-44.4	-47.4	16.1	0.00e+00	0	42	0	586153984	59	5397
2026-01-18 10:15:28.67	191.11	69.82	-45.3	-48.9	14.5	0.00e+00	0	42	0	588251136	61	5704
2026-01-18 10:15:29.95	191.97	70.35	-45.4	-48.8	14.7	1.50e-06	0	42	0	590348288	61	5655
2026-01-18 10:15:30.67	192.48	70.64	-44.8	-48.0	15.4	7.00e-07	0	42	0	591396864	61	5121
2026-01-18 10:15:31.95	193.43	71.17	-45.5	-49.0	14.4	0.00e+00	0	42	0	594542592	62	5463
2026-01-18 10:15:32.67	193.98	71.46	-45.3	-48.7	14.9	0.00e+00	0	42	0	595591168	62	5265
2026-01-18 10:15:33.95	195.02	71.99	-44.2	-47.2	16.3	0.00e+00	0	42	0	597688320	60	4928
2026-01-18 10:15:34.66	195.62	72.27	-43.7	-46.5	17.0	0.00e+00	0	42	0	598736896	59	4815
2026-01-18 10:15:36.02	196.83	72.82	-44.0	-46.8	16.6	0.00e+00	0	42	0	601882624	58	5313
2026-01-18 10:15:36.73	197.50	73.11	-44.6	-47.8	15.7	0.00e+00	0	42	0	602931200	60	5295
2026-01-18 10:15:38.01	198.76	73.61	-45.1	-48.5	15.0	0.00e+00	0	42	0	605028352	61	5432
2026-01-18 10:15:38.72	199.50	73.89	-44.6	-47.8	15.8	0.00e+00	0	42	0	607125504	61	5019
2026-01-18 10:15:40.00	200.89	74.39	-43.4	-46.0	17.4	0.00e+00	0	42	0	609222656	58	4835
2026-01-18 10:15:40.71	201.71	74.67	-42.7	-45.1	18.2	0.00e+00	0	42	0	610271232	57	4643
2026-01-18 10:15:41.99	203.25	75.15	-43.0	-45.5	17.9	0.00e+00	0	42	0	613416960	56	5111
2026-01-18 10:15:42.72	204.18	75.43	-42.7	-45.1	18.2	0.00e+00	0	42	0	614465536	56	4924
2026-01-18 10:15:44.00	205.90	75.90	-43.2	-45.7	17.7	0.00e+00	0	42	0	616562688	57	4937
2026-01-18 10:15:44.71	206.91	76.15	-44.3	-47.3	16.3	0.00e+00	0	42	0	617611264	59	5307
2026-01-18 10:15:45.98	208.80	76.60	-44.7	-47.9	15.6	7.00e-07	0	42	0	620756992	61	5076
2026-01-18 10:15:46.70	209.94	76.85	-43.5	-46.1	17.3	0.00e+00	0	42	0	621805568	59	4644
2026-01-18 10:15:47.98	212.06	77.28	-42.7	-45.2	18.2	0.00e+00	0	42	0	623902720	56	4938
2026-01-18 10:15:48.70	213.32	77.52	-43.0	-45.5	17.9	0.00e+00	0	42	0	625999872	56	5147
2026-01-18 10:15:49.98	215.69	77.92	-42.4	-44.7	18.5	0.00e+00	0	42	0	628097024	56	4661
2026-01-18 10:15:50.69	217.07	78.13	-42.6	-44.9	18.5	0.00e+00	0	42	0	629145600	56	4777
2026-01-18 10:15:51.97	219.69	78.50	-43.4	-46.0	17.4	0.00e+00	0	42	0	631242752	57	5134
2026-01-18 10:15:52.71	221.28	78.71	-43.9	-46.7	16.7	0.00e+00	0	42	0	633339904	58	5276
2026-01-18 10:15:53.99	224.17	79.04	-43.6	-46.4	17.1	0.00e+00	0	42	0	635437056	58	5055
2026-01-18 10:15:54.72	225.90	79.21	-43.2	-45.8	17.6	0.00e+00	0	42	0	636485632	58	4744
2026-01-18 10:15:56.04	229.16	79.51	-43.3	-46.0	17.4	0.00e+00	0	42	0	639631360	57	5115
2026-01-18 10:15:56.75	230.99	79.65	-43.3	-46.0	17.3	0.00e+00	0	42	0	640679936	58	4850
2026-01-18 10:15:58.03	234.42	79.88	-43.3	-45.9	17.5	0.00e+00	0	42	0	642777088	57	5065
2026-01-18 10:15:58.74	236.39	79.99	-43.7	-46.5	16.9	0.00e+00	0	42	0	644874240	58	5117
2026-01-18 10:16:00.02	240.04	80.17	-44.6	-47.8	15.8	0.00e+00	0	42	0	646971392	60	5324
2026-01-18 10:16:00.75	242.18	80.25	-44.5	-47.6	15.9	0.00e+00	0	42	0	648019968	60	5201
2026-01-18 10:16:02.25	246.67	80.37	-44.0	-46.8	16.4	0.00e+00	0	42	0	651165696	60	4754
2026-01-18 10:16:02.96	248.83	80.41	-45.0	-48.5	15.1	0.00e+00	0	42	0	652214272	60	5726
2026-01-18 10:16:04.30	252.94	80.44	-44.8	-48.3	15.2	0.00e+00	0	42	0	654311424	61	5315
2026-01-18 10:16:05.01	255.12	80.44	-44.6	-47.8	15.7	0.00e+00	0	42	0	656408576	61	5014
2026-01-18 10:16:06.29	259.04	80.41	-44.8	-48.0	15.6	0.00e+00	0	42	0	658505728	60	5446
2026-01-18 10:16:07.00	261.20	80.37	-44.7	-47.8	15.8	0.00e+00	0	42	0	659554304	60	5328
2026-01-18 10:16:08.28	265.03	80.26	-44.2	-47.1	16.4	0.00e+00	0	42	0	662700032	59	5178
2026-01-18 10:16:09.01	267.18	80.18	-43.9	-46.7	16.8	0.00e+00	0	43	0	663748608	59	4953
2026-01-18 10:16:10.29	270.84	80.02	-45.6	-49.2	14.5	0.00e+00	0	42	0	665845760	62	5546
2026-01-18 10:16:11.00	272.82	79.91	-45.5	-49.1	14.6	7.00e-07	0	42	0	666894336	62	5469
2026-01-18 10:16:12.28	276.26	79.68	-44.2	-47.1	16.4	0.00e+00	0	42	0	670040064	60	4899
2026-01-18 10:16:12.99	278.10	79.54	-44.7	-47.8	15.8	0.00e+00	0	42	0	671088640	60	5337
2026-01-18 10:16:14.27	281.29	79.26	-46.2	-50.4	13.3	1.50e-06	0	42	0	673185792	63	6038
2026-01-18 10:16:15.13	283.33	79.05	-45.1	-48.4	15.1	1.52e-05	0	42	0	675282944	62	5100
2026-01-18 10:16:16.27	285.92	78.76	-44.5	-47.6	15.9	0.00e+00	0	42	0	677380096	60	5164
2026-01-18 10:16:17.12	287.76	78.53	-44.0	-46.8	16.5	0.00e+00	0	42	0	678428672	59	5025
2026-01-18 10:16:18.26	290.11	78.20	-44.1	-46.9	16.5	0.00e+00	0	42	0	680525824	59	5059
2026-01-18 10:16:19.11	291.78	77.95	-45.4	-48.9	14.7	0.00e+00	0	42	0	682622976	61	5665
2026-01-18 10:16:20.25	293.90	77.59	-45.9	-49.8	13.9	1.14e-05	0	42	0	684720128	63	5601
2026-01-18 10:16:21.10	295.40	77.32	-45.1	-48.4	15.2	4.50e-06	0	42	0	686817280	62	5074
2026-01-18 10:16:22.69	298.03	76.78	-45.4	-48.9	14.9	0.00e+00	0	43	0	688914432	61	5675
2026-01-18 10:16:23.26	298.92	76.58	-44.6	-47.7	15.8	0.00e+00	0	42	0	689963008	61	4972
2026-01-18 10:16:24.97	301.43	75.98	-41.8	-44.1	19.1	0.00e+00	0	42	0	693108736	55	4619
2026-01-18 10:16:25.54	302.22	75.77	-41.8	-44.1	19.1	0.00e+00	0	43	0	694157312	55	4628
2026-01-18 10:16:27.24	304.43	75.14	-43.2	-45.8	17.5	0.00e+00	0	42	0	698351616	57	4997
2026-01-18 10:16:27.81	305.13	74.92	-44.4	-47.5	15.9	0.00e+00	0	42	0	698351616	59	5410
2026-01-18 10:16:29.52	307.11	74.27	-44.4	-47.4	16.2	0.00e+00	0	42	0	702545920	60	5073
2026-01-18 10:16:30.09	307.73	74.04	-44.4	-47.4	16.2	0.00e+00	0	42	0	703594496	60	5071
2026-01-18 10:16:31.79	309.48	73.38	-44.4	-47.4	16.1	0.00e+00	0	43	0	706740224	60	5094
2026-01-18 10:16:32.36	310.03	73.15	-42.4	-45.1	17.8	0.00e+00	0	43	0	707788800	57	4610
2026-01-18 10:16:34.13	311.66	72.44	-41.8	-44.1	19.1	0.00e+00	0	42	0	710934528	54	4872
2026-01-18 10:16:34.70	312.15	72.21	-42.9	-45.3	18.2	0.00e+00	0	42	0	711983104	56	4997
2026-01-18 10:16:36.40	313.55	71.52	-46.4	-50.6	13.0	4.50e-06	0	42	0	715128832	63	6179
2026-01-18 10:16:36.97	313.99	71.29	-47.0	-51.8	11.7	2.21e-05	0	42	0	716177408	64	6676
2026-01-18 10:16:38.68	315.26	70.59	-44.8	-47.8	15.6	1.75e-05	0	43	0	719323136	61	5041
2026-01-18 10:16:39.25	315.66	70.35	-44.0	-46.7	16.8	0.00e+00	0	42	0	720371712	60	4667
2026-01-18 10:16:40.95	316.79	69.65	-44.2	-47.0	16.5	0.00e+00	0	42	0	723517440	59	5110
2026-01-18 10:16:41.52	317.15	69.42	-44.5	-47.4	16.0	0.00e+00	0	42	0	724566016	60	5087
2026-01-18 10:16:43.22	318.18	68.71	-44.5	-47.5	16.1	0.00e+00	0	42	0	727711744	59	5442
2026-01-18 10:16:43.79	318.51	68.48	-44.7	-47.9	15.8	0.00e+00	0	42	0	728760320	60	5352
2026-01-18 10:16:45.50	319.45	67.77	-44.7	-47.8	15.8	0.00e+00	0	42	0	731906048	61	5003
2026-01-18 10:16:46.07	319.75	67.54	-44.3	-47.3	16.2	0.00e+00	0	42	0	732954624	60	4998
2026-01-18 10:16:47.77	320.61	66.83	-40.6	-42.6	20.3	0.00e+00	0	42	0	736100352	53	4374
2026-01-18 10:16:48.52	320.97	66.53	-40.2	-42.1	20.8	0.00e+00	0	42	0	738197504	52	4389
2026-01-18 10:16:49.79	321.56	66.00	-40.6	-42.7	20.3	0.00e+00	0	42	0	740294656	52	4662
2026-01-18 10:16:50.71	321.96	65.63	-41.4	-43.7	19.4	0.00e+00	0	42	0	741343232	53	4934
2026-01-18 10:16:51.71	322.39	65.22	-41.5	-43.8	19.3	0.00e+00	0	43	0	743440384	54	4706
2026-01-18 10:16:52.70	322.80	64.81	-40.5	-42.6	20.4	0.00e+00	0	43	0	745537536	53	4347
2026-01-18 10:16:53.69	323.19	64.41	-39.8	-41.7	21.2	0.00e+00	0	42	0	747634688	51	4426
2026-01-18 10:16:54.69	323.58	64.00	-39.9	-41.8	21.2	0.00e+00	0	43	0	749731840	50	4755
2026-01-18 10:16:55.68	323.95	63.60	-41.4	-43.6	19.5	0.00e+00	0	42	0	750780416	53	4924
2026-01-18 10:16:56.68	324.30	63.20	-42.0	-44.5	18.7	0.00e+00	0	42	0	752877568	55	4842
2026-01-18 10:16:57.67	324.65	62.80	-41.6	-44.0	19.2	0.00e+00	0	42	0	754974720	55	4557
2026-01-18 10:16:58.66	324.98	62.40	-40.6	-42.8	20.2	0.00e+00	0	43	0	757071872	53	4463
2026-01-18 10:16:59.66	325.31	62.00	-40.6	-42.7	20.4	0.00e+00	0	42	0	758120448	52	4676
2026-01-18 10:17:00.65	325.62	61.61	-40.8	-42.9	20.2	0.00e+00	0	42	0	760217600	52	4788
2026-01-18 10:17:01.85	325.98	61.13	-41.2	-43.4	19.7	0.00e+00	0	42	0	762314752	53	4771
2026-01-18 10:17:02.75	326.25	60.78	-41.5	-43.7	19.4	0.00e+00	0	42	0	764411904	53	4974
2026-01-18 10:17:03.98	326.60	60.30	-41.5	-43.7	19.4	0.00e+00	0	42	0	766509056	54	4686
2026-01-18 10:17:04.84	326.84	59.96	-40.8	-42.9	20.1	0.00e+00	0	43	0	768606208	53	4522
2026-01-18 10:17:05.97	327.14	59.52	-41.3	-43.5	19.7	0.00e+00	0	42	0	770703360	53	4836
2026-01-18 10:17:06.83	327.36	59.19	-42.4	-44.7	18.5	0.00e+00	0	42	0	771751936	55	4962
2026-01-18 10:17:07.96	327.65	58.76	-43.3	-45.9	17.5	0.00e+00	0	42	0	773849088	57	5047
2026-01-18 10:17:08.92	327.88	58.39	-44.3	-47.4	16.3	0.00e+00	0	42	0	775946240	59	5365
2026-01-18 10:17:10.07	328.16	57.95	-43.9	-46.9	16.6	0.00e+00	0	42	0	778043392	59	5079
2026-01-18 10:17:10.93	328.36	57.63	-42.6	-45.0	18.4	0.00e+00	0	43	0	780140544	57	4589
2026-01-18 10:17:12.06	328.61	57.20	-41.4	-43.6	19.6	0.00e+00	0	42	0	782237696	54	4607
2026-01-18 10:17:13.04	328.83	56.84	-41.5	-43.7	19.5	0.00e+00	0	42	0	783286272	54	4692
2026-01-18 10:17:14.04	329.04	56.46	-41.0	-43.2	19.9	0.00e+00	0	42	0	785383424	53	4660
2026-01-18 10:17:15.03	329.24	56.10	-40.8	-42.9	20.2	0.00e+00	0	42	0	787480576	53	4525
2026-01-18 10:17:16.03	329.45	55.73	-40.8	-43.0	20.0	0.00e+00	0	42	0	789577728	53	4584
2026-01-18 10:17:17.02	329.64	55.37	-41.4	-43.7	19.4	0.00e+00	0	42	0	790626304	54	4688
2026-01-18 10:17:18.02	329.83	55.00	-41.4	-43.7	19.4	0.00e+00	0	42	0	792723456	54	4705
2026-01-18 10:17:19.01	330.02	54.65	-41.1	-43.3	19.8	0.00e+00	0	42	0	794820608	54	4457
2026-01-18 10:17:20.01	330.20	54.29	-41.3	-43.6	19.6	0.00e+00	0	42	0	796917760	53	4879
2026-01-18 10:17:21.00	330.38	53.93	-42.0	-44.4	18.8	0.00e+00	0	42	0	799014912	54	5079
2026-01-18 10:17:22.00	330.56	53.58	-42.3	-44.8	18.6	0.00e+00	0	43	0	800063488	55	4985
2026-01-18 10:17:22.99	330.72	53.23	-40.9	-43.0	20.0	0.00e+00	0	42	0	802160640	53	4595
2026-01-18 10:17:23.98	330.89	52.88	-40.3	-42.3	20.7	0.00e+00	0	42	0	804257792	52	4447
2026-01-18 10:17:24.98	331.05	52.54	-40.7	-42.8	20.3	0.00e+00	0	42	0	806354944	52	4730
2026-01-18 10:17:25.99	331.21	52.19	-42.4	-44.8	18.4	0.00e+00	0	42	0	808452096	55	5029
2026-01-18 10:17:27.00	331.37	51.84	-43.3	-46.0	17.5	0.00e+00	0	42	0	809500672	57	5124
2026-01-18 10:17:27.99	331.52	51.50	-43.6	-46.3	17.1	0.00e+00	0	42	0	811597824	58	5014
2026-01-18 10:17:28.99	331.67	51.16	-43.7	-46.4	17.1	0.00e+00	0	43	0	813694976	58	5049
2026-01-18 10:17:29.98	331.81	50.83	-43.4	-46.0	17.4	0.00e+00	0	42	0	815792128	58	4837
2026-01-18 10:17:30.98	331.95	50.50	-43.3	-45.9	17.6	0.00e+00	0	42	0	817889280	57	5070
2026-01-18 10:17:31.97	332.09	50.17	-43.0	-45.6	17.9	0.00e+00	0	42	0	818937856	57	4874
2026-01-18 10:17:32.96	332.23	49.84	-43.1	-45.7	17.6	0.00e+00	0	42	0	821035008	57	4963
2026-01-18 10:17:33.96	332.36	49.51	-43.5	-46.1	17.3	0.00e+00	0	42	0	823132160	57	5188
2026-01-18 10:17:34.95	332.49	49.19	-44.2	-47.1	16.4	0.00e+00	0	42	0	825229312	59	5189
2026-01-18 10:17:35.95	332.62	48.87	-44.7	-47.8	15.7	0.00e+00	0	42	0	826277888	60	5318
2026-01-18 10:17:36.94	332.74	48.55	-44.9	-48.1	15.4	0.00e+00	0	42	0	828375040	60	5526
2026-01-18 10:17:37.94	332.87	48.23	-44.9	-48.0	15.5	0.00e+00	0	42	0	830472192	60	5456
2026-01-18 10:17:38.93	332.99	47.92	-43.9	-46.6	17.0	0.00e+00	0	42	0	832569344	59	4879
2026-01-18 10:17:39.93	333.10	47.60	-42.0	-44.2	19.1	0.00e+00	0	42	0	834666496	56	4423
2026-01-18 10:17:40.92	333.22	47.29	-41.6	-43.8	19.3	0.00e+00	0	42	0	835715072	54	4719
2026-01-18 10:17:41.93	333.33	46.98	-43.5	-46.2	17.4	0.00e+00	0	42	0	837812224	57	5241
2026-01-18 10:17:42.98	333.45	46.66	-45.9	-49.8	13.9	0.00e+00	0	42	0	839909376	62	5974
2026-01-18 10:17:43.92	333.55	46.37	-46.8	-51.8	11.5	8.82e-04	0	42	0	842006528	64	6679
2026-01-18 10:17:44.92	333.66	46.07	-46.8	-51.7	11.8	1.06e-03	0	43	0	843055104	65	6256
2026-01-18 10:17:45.91	333.77	45.77	-46.1	-50.2	13.3	1.20e-04	0	42	0	845152256	63	5921
2026-01-18 10:17:46.90	333.87	45.47	-44.2	-47.2	16.4	1.50e-06	0	42	0	847249408	60	4931
2026-01-18 10:17:47.88	333.97	45.18	-43.6	-46.2	17.1	0.00e+00	0	43	0	849346560	59	4705
2026-01-18 10:17:48.88	334.07	44.89	-42.9	-45.3	18.2	0.00e+00	0	42	0	851443712	57	4758
2026-01-18 10:17:49.87	334.17	44.60	-42.3	-44.6	18.7	0.00e+00	0	42	0	852492288	56	4608
2026-01-18 10:17:50.86	334.26	44.31	-41.6	-43.8	19.4	0.00e+00	0	42	0	854589440	54	4721
2026-01-18 10:17:51.86	334.36	44.02	-42.3	-44.6	18.6	0.00e+00	0	42	0	856686592	55	4923
2026-01-18 10:17:52.85	334.45	43.73	-43.0	-45.5	18.0	0.00e+00	0	42	0	858783744	56	5135
2026-01-18 10:17:53.85	334.54	43.45	-44.4	-47.5	16.1	0.00e+00	0	42	0	859832320	59	5406
2026-01-18 10:17:54.84	334.63	43.17	-45.8	-50.1	13.5	0.00e+00	0	42	0	861929472	62	6198
2026-01-18 10:17:55.84	334.72	42.89	-46.3	-51.4	12.3	9.15e-05	0	42	0	864026624	63	6778
2026-01-18 10:17:56.92	334.81	42.59	-45.2	-49.3	14.4	6.86e-05	0	42	0	866123776	62	5597
2026-01-18 10:17:57.81	334.89	42.34	-43.8	-46.9	16.5	0.00e+00	0	42	0	868220928	59	5061
2026-01-18 10:17:59.10	335.00	41.99	-42.3	-44.7	18.7	0.00e+00	0	42	0	870318080	56	4670
2026-01-18 10:17:59.81	335.06	41.79	-41.5	-43.8	19.4	0.00e+00	0	42	0	871366656	54	4712
2026-01-18 10:18:01.10	335.16	41.44	-41.1	-43.2	19.9	0.00e+00	0	42	0	873463808	54	4429
2026-01-18 10:18:02.28	335.26	41.13	-41.6	-43.9	19.3	0.00e+00	0	42	0	875560960	54	4761
2026-01-18 10:18:03.13	335.32	40.90	-41.8	-44.0	19.2	0.00e+00	0	42	0	877658112	54	4846
2026-01-18 10:18:04.27	335.41	40.60	-41.7	-44.0	19.2	0.00e+00	0	42	0	879755264	54	4828
2026-01-18 10:18:05.12	335.48	40.38	-42.4	-44.9	18.4	0.00e+00	0	42	0	881852416	55	5051
2026-01-18 10:18:06.26	335.56	40.08	-43.0	-45.6	17.9	0.00e+00	0	42	0	883949568	56	5177
2026-01-18 10:18:07.11	335.62	39.86	-43.0	-45.7	17.9	0.00e+00	0	42	0	884998144	56	5221
2026-01-18 10:18:08.32	335.71	39.55	-43.3	-46.1	17.3	0.00e+00	0	42	0	887095296	57	5201
2026-01-18 10:18:09.17	335.77	39.33	-43.4	-46.2	17.2	0.00e+00	0	42	0	889192448	57	5269
2026-01-18 10:18:10.38	335.86	39.03	-43.5	-46.3	17.1	0.00e+00	0	42	0	891289600	57	5303
2026-01-18 10:18:11.24	335.92	38.81	-43.3	-46.0	17.5	0.00e+00	0	42	0	892338176	57	5101
2026-01-18 10:18:12.37	336.00	38.53	-43.4	-46.0	17.4	0.00e+00	0	42	0	895483904	57	5151
2026-01-18 10:18:13.23	336.05	38.32	-42.9	-45.4	18.0	0.00e+00	0	42	0	896532480	57	4804
2026-01-18 10:18:14.49	336.14	38.01	-42.4	-44.7	18.7	0.00e+00	0	42	0	898629632	56	4677
2026-01-18 10:18:15.28	336.19	37.81	-42.2	-44.4	18.9	0.00e+00	0	42	0	900726784	56	4541
2026-01-18 10:18:16.46	336.27	37.53	-42.1	-44.4	18.8	0.00e+00	0	42	0	902823936	55	4766
2026-01-18 10:18:17.32	336.32	37.32	-42.6	-45.0	18.3	0.00e+00	0	42	0	903872512	55	5147
2026-01-18 10:18:18.45	336.39	37.05	-43.6	-46.3	17.2	0.00e+00	0	42	0	905969664	57	5290
2026-01-18 10:18:19.31	336.45	36.85	-44.6	-47.8	15.7	0.00e+00	0	42	0	908066816	60	5299
2026-01-18 10:18:20.45	336.52	36.58	-45.6	-49.3	14.3	0.00e+00	0	42	0	910163968	61	5968
2026-01-18 10:18:21.30	336.57	36.38	-46.1	-50.3	13.2	6.10e-06	0	42	0	911212544	63	5973
2026-01-18 10:18:22.44	336.64	36.12	-45.7	-49.7	13.9	2.28e-05	0	43	0	914358272	63	5541
2026-01-18 10:18:23.29	336.69	35.92	-45.2	-48.9	14.6	7.00e-07	0	43	0	915406848	62	5386
2026-01-18 10:18:24.42	336.75	35.66	-44.2	-47.5	16.0	0.00e+00	0	42	0	917504000	60	5135
2026-01-18 10:18:25.28	336.80	35.47	-43.4	-46.2	17.1	0.00e+00	0	43	0	919601152	58	4966
2026-01-18 10:18:26.41	336.87	35.21	-42.5	-45.1	18.3	0.00e+00	0	42	0	921698304	57	4620
2026-01-18 10:18:27.27	336.91	35.02	-41.5	-43.9	19.2	0.00e+00	0	43	0	922746880	55	4518
2026-01-18 10:18:28.40	336.98	34.77	-41.0	-43.3	19.8	0.00e+00	0	43	0	924844032	54	4449
2026-01-18 10:18:29.25	337.02	34.58	-41.2	-43.5	19.6	0.00e+00	0	42	0	926941184	54	4548
2026-01-18 10:18:30.39	337.08	34.33	-41.8	-44.3	18.9	0.00e+00	0	42	0	929038336	54	4985
2026-01-18 10:18:31.25	337.13	34.14	-42.5	-45.0	18.2	0.00e+00	0	42	0	930086912	55	5136
2026-01-18 10:18:32.38	337.19	33.90	-43.5	-46.3	17.1	0.00e+00	0	43	0	932184064	57	5326
2026-01-18 10:18:33.23	337.23	33.72	-44.4	-47.6	16.0	0.00e+00	0	42	0	934281216	59	5509
2026-01-18 10:18:34.50	337.30	33.44	-45.2	-48.9	14.8	0.00e+00	0	42	0	936378368	61	5660
2026-01-18 10:18:35.30	337.34	33.27	-45.5	-49.3	14.3	0.00e+00	0	43	0	937426944	61	5969
2026-01-18 10:18:36.44	337.40	33.03	-45.5	-49.3	14.3	1.50e-06	0	42	0	940572672	61	5948
2026-01-18 10:18:37.29	337.44	32.86	-45.7	-49.5	14.1	3.80e-06	0	42	0	941621248	62	5754
2026-01-18 10:18:38.60	337.50	32.59	-45.0	-48.5	15.1	0.00e+00	0	43	0	943718400	62	5151
2026-01-18 10:18:39.31	337.54	32.44	-44.8	-48.2	15.4	7.00e-07	0	42	0	945815552	61	5219
2026-01-18 10:18:40.59	337.60	32.18	-44.8	-48.1	15.5	0.00e+00	0	42	0	947912704	61	5174
2026-01-18 10:18:41.30	337.63	32.03	-44.4	-47.5	16.0	0.00e+00	0	42	0	948961280	60	5129
2026-01-18 10:18:42.58	337.69	31.77	-44.1	-47.2	16.3	0.00e+00	0	42	0	952107008	59	5225
2026-01-18 10:18:43.29	337.72	31.63	-43.7	-46.6	16.9	0.00e+00	0	43	0	953155584	59	4889
2026-01-18 10:18:44.57	337.78	31.38	-43.6	-46.6	16.9	0.00e+00	0	42	0	955252736	58	5170
2026-01-18 10:18:45.30	337.81	31.23	-43.6	-46.8	16.7	0.00e+00	0	42	0	956301312	58	5303
2026-01-18 10:18:46.58	337.87	30.98	-43.4	-46.5	16.9	0.00e+00	0	42	0	959447040	58	5137
2026-01-18 10:18:47.46	337.91	30.81	-43.3	-46.3	17.1	0.00e+00	0	42	0	960495616	58	5027
2026-01-18 10:18:48.60	337.96	30.59	-43.3	-46.2	17.3	0.00e+00	0	42	0	962592768	58	4969
2026-01-18 10:18:49.46	338.00	30.42	-43.3	-46.2	17.2	0.00e+00	0	42	0	964689920	58	4960
2026-01-18 10:18:50.59	338.04	30.21	-42.9	-45.5	17.9	0.00e+00	0	42	0	966787072	57	4864
2026-01-18 10:18:51.44	338.08	30.05	-42.9	-45.5	17.9	0.00e+00	0	43	0	967835648	57	4865
2026-01-18 10:18:52.58	338.13	29.83	-42.9	-45.5	17.9	0.00e+00	0	42	0	969932800	57	4845
2026-01-18 10:18:53.44	338.16	29.67	-42.3	-44.8	18.6	0.00e+00	0	43	0	972029952	56	4711
2026-01-18 10:18:54.57	338.21	29.46	-42.4	-44.8	18.6	0.00e+00	0	42	0	974127104	56	4721
2026-01-18 10:18:55.43	338.24	29.30	-42.5	-45.0	18.4	0.00e+00	0	42	0	976224256	56	4827
2026-01-18 10:18:56.59	338.29	29.09	-42.8	-45.4	18.0	0.00e+00	0	42	0	978321408	56	5043
2026-01-18 10:18:57.45	338.33	28.93	-42.9	-45.5	17.9	0.00e+00	0	42	0	979369984	56	5108
2026-01-18 10:18:58.58	338.37	28.72	-43.1	-45.7	17.7	0.00e+00	0	42	0	981467136	57	4968
2026-01-18 10:18:59.44	338.40	28.57	-43.4	-46.1	17.3	0.00e+00	0	43	0	983564288	57	5212
2026-01-18 10:19:00.58	338.45	28.36	-43.8	-46.6	16.8	0.00e+00	0	43	0	985661440	58	5207
2026-01-18 10:19:01.43	338.48	28.21	-44.0	-46.9	16.6	0.00e+00	0	43	0	986710016	58	5372
2026-01-18 10:19:02.56	338.52	28.01	-44.0	-46.8	16.6	0.00e+00	0	43	0	988807168	58	5336
2026-01-18 10:19:03.42	338.55	27.86	-44.1	-47.0	16.5	0.00e+00	0	42	0	990904320	58	5425
2026-01-18 10:19:04.55	338.60	27.66	-44.1	-47.1	16.4	0.00e+00	0	42	0	993001472	59	5164
2026-01-18 10:19:05.40	338.63	27.52	-43.8	-46.8	16.7	0.00e+00	0	42	0	994050048	59	4998
2026-01-18 10:19:06.54	338.67	27.32	-43.8	-46.8	16.7	0.00e+00	0	42	0	996147200	58	5322
2026-01-18 10:19:07.40	338.70	27.17	-43.3	-46.1	17.3	0.00e+00	0	43	0	998244352	58	4924
2026-01-18 10:19:08.54	338.74	26.98	-42.9	-45.6	17.8	0.00e+00	0	42	0	1000341504	57	4921
2026-01-18 10:19:09.39	338.77	26.83	-42.6	-45.3	18.0	0.00e+00	0	43	0	1001390080	57	4758
2026-01-18 10:19:10.53	338.81	26.64	-42.2	-44.8	18.5	0.00e+00	0	42	0	1004535808	56	4746
2026-01-18 10:19:11.38	338.84	26.50	-41.7	-44.2	18.9	0.00e+00	0	42	0	1005584384	55	4701
2026-01-18 10:19:12.56	338.88	26.30	-41.5	-43.9	19.2	0.00e+00	0	42	0	1007681536	55	4502
2026-01-18 10:19:13.41	338.91	26.16	-41.3	-43.6	19.5	0.00e+00	0	43	0	1009778688	54	4621
2026-01-18 10:19:14.62	338.95	25.96	-40.9	-43.2	19.9	0.00e+00	0	42	0	1011875840	53	4653
2026-01-18 10:19:15.47	338.98	25.83	-40.8	-42.9	20.1	0.00e+00	0	42	0	1012924416	53	4541
2026-01-18 10:19:16.67	339.02	25.63	-40.6	-42.7	20.2	0.00e+00	0	42	0	1016070144	53	4432
2026-01-18 10:19:17.52	339.04	25.49	-40.6	-42.7	20.3	0.00e+00	0	42	0	1017118720	52	4658
2026-01-18 10:19:18.66	339.08	25.31	-40.6	-42.7	20.3	0.00e+00	0	43	0	1019215872	52	4660
2026-01-18 10:19:19.51	339.11	25.18	-40.5	-42.7	20.4	0.00e+00	0	43	0	1021313024	52	4661
2026-01-18 10:19:20.65	339.14	25.00	-40.4	-42.6	20.4	0.00e+00	0	42	0	1023410176	52	4611
2026-01-18 10:19:21.50	339.17	24.86	-40.5	-42.6	20.3	0.00e+00	0	42	0	1024458752	52	4643
2026-01-18 10:19:22.64	339.21	24.68	-40.3	-42.5	20.5	0.00e+00	0	43	0	1026555904	52	4556
2026-01-18 10:19:23.49	339.23	24.55	-40.4	-42.6	20.4	0.00e+00	0	42	0	1028653056	52	4620
2026-01-18 10:19:24.63	339.27	24.37	-40.5	-42.7	20.3	0.00e+00	0	42	0	1030750208	52	4654
2026-01-18 10:19:25.48	339.29	24.24	-40.5	-42.7	20.3	0.00e+00	0	42	0	1031798784	52	4665
2026-01-18 10:19:26.62	339.33	24.07	-40.3	-42.5	20.4	0.00e+00	0	43	0	1033895936	52	4571
2026-01-18 10:19:27.71	339.36	23.90	-40.3	-42.5	20.4	0.00e+00	0	43	0	1035993088	52	4583
2026-01-18 10:19:28.56	339.39	23.78	-40.7	-43.0	20.0	0.00e+00	0	42	0	1038090240	52	4816
2026-01-18 10:19:29.70	339.42	23.61	-40.7	-42.9	20.0	0.00e+00	0	43	0	1040187392	52	4796
2026-01-18 10:19:30.80	339.45	23.44	-40.7	-43.0	20.0	0.00e+00	0	43	0	1042284544	52	4826
2026-01-18 10:19:31.83	339.48	23.29	-40.9	-43.1	19.9	0.00e+00	0	42	0	1044381696	52	4910
2026-01-18 10:19:32.82	339.51	23.14	-41.1	-43.3	19.6	0.00e+00	0	43	0	1045430272	52	5018
2026-01-18 10:19:33.82	339.54	23.00	-41.2	-43.5	19.5	0.00e+00	0	42	0	1047527424	53	4853
2026-01-18 10:19:34.81	339.57	22.85	-41.3	-43.6	19.4	0.00e+00	0	42	0	1049624576	53	4903
2026-01-18 10:19:35.80	339.60	22.71	-41.5	-43.8	19.2	0.00e+00	0	42	0	1051721728	53	5018
2026-01-18 10:19:36.80	339.62	22.56	-41.5	-43.9	19.1	0.00e+00	0	42	0	1052770304	53	5086
2026-01-18 10:19:37.80	339.65	22.42	-41.7	-44.2	18.8	0.00e+00	0	42	0	1054867456	54	4976
2026-01-18 10:19:38.79	339.68	22.28	-41.6	-44.1	18.9	0.00e+00	0	43	0	1056964608	54	4892
2026-01-18 10:19:39.78	339.70	22.14	-41.7	-44.3	18.8	0.00e+00	0	42	0	1059061760	54	5000
2026-01-18 10:19:40.78	339.73	22.00	-41.7	-44.3	18.9	0.00e+00	0	42	0	1061158912	54	4998
2026-01-18 10:19:41.77	339.76	21.86	-41.4	-43.9	19.1	0.00e+00	0	42	0	1062207488	54	4784
2026-01-18 10:19:42.83	339.79	21.71	-41.5	-44.0	19.0	0.00e+00	0	42	0	1064304640	54	4857
2026-01-18 10:19:43.74	339.81	21.59	-41.4	-44.0	19.1	0.00e+00	0	43	0	1066401792	54	4816
2026-01-18 10:19:44.86	339.84	21.43	-41.2	-43.6	19.4	0.00e+00	0	43	0	1068498944	54	4637
2026-01-18 10:19:45.72	339.86	21.31	-41.2	-43.5	19.5	0.00e+00	0	42	0	1069547520	54	4586
2026-01-18 10:19:47.04	339.90	21.13	-41.2	-43.4	19.5	0.00e+00	0	43	0	1072693248	54	4538
2026-01-18 10:19:47.76	339.91	21.04	-41.2	-43.4	19.6	0.00e+00	0	43	0	1073741824	54	4519
2026-01-18 10:19:49.03	339.95	20.86	-41.1	-43.3	19.7	0.00e+00	0	43	0	1075838976	54	4469
2026-01-18 10:19:49.75	339.96	20.77	-41.2	-43.5	19.5	0.00e+00	0	43	0	1077936128	54	4556
2026-01-18 10:19:51.02	340.00	20.60	-41.2	-43.4	19.6	0.00e+00	0	42	0	1080033280	54	4525
2026-01-18 10:19:51.73	340.01	20.50	-41.2	-43.4	19.6	0.00e+00	0	43	0	1081081856	54	4522
2026-01-18 10:19:53.01	340.05	20.34	-41.3	-43.7	19.4	0.00e+00	0	43	0	1084227584	54	4658
2026-01-18 10:19:53.79	340.06	20.23	-41.5	-43.8	19.2	0.00e+00	0	42	0	1085276160	54	4751
2026-01-18 10:19:55.07	340.10	20.07	-41.2	-43.6	19.4	0.00e+00	0	42	0	1087373312	54	4638
2026-01-18 10:19:55.79	340.11	19.97	-41.4	-43.8	19.2	0.00e+00	0	42	0	1088421888	54	4758
2026-01-18 10:19:57.07	340.14	19.81	-41.3	-43.8	19.3	0.00e+00	0	43	0	1091567616	54	4734
2026-01-18 10:19:57.78	340.16	19.72	-41.4	-43.8	19.2	0.00e+00	0	42	0	1092616192	54	4757
2026-01-18 10:19:59.06	340.19	19.55	-41.3	-43.8	19.2	0.00e+00	0	43	0	1094713344	54	4711
2026-01-18 10:20:00.01	340.21	19.43	-41.3	-43.7	19.3	0.00e+00	0	43	0	1096810496	54	4690
2026-01-18 10:20:01.01	340.24	19.30	-41.3	-43.6	19.4	0.00e+00	0	42	0	1098907648	54	4640
2026-01-18 10:20:02.00	340.26	19.18	-41.3	-43.6	19.4	0.00e+00	0	43	0	1101004800	54	4607
2026-01-18 10:20:02.99	340.28	19.06	-41.1	-43.4	19.6	0.00e+00	0	42	0	1102053376	54	4509
2026-01-18 10:20:03.99	340.30	18.93	-41.0	-43.3	19.7	0.00e+00	0	42	0	1104150528	54	4449
2026-01-18 10:20:04.99	340.33	18.81	-41.0	-43.2	19.7	0.00e+00	0	42	0	1106247680	54	4435
2026-01-18 10:20:05.98	340.35	18.69	-41.0	-43.2	19.7	0.00e+00	0	42	0	1108344832	53	4689
2026-01-18 10:20:06.98	340.37	18.56	-41.0	-43.2	19.7	0.00e+00	0	42	0	1109393408	53	4681
2026-01-18 10:20:07.97	340.39	18.44	-41.0	-43.2	19.8	0.00e+00	0	42	0	1111490560	53	4654
2026-01-18 10:20:08.97	340.42	18.32	-41.0	-43.2	19.7	0.00e+00	0	42	0	1113587712	53	4682
2026-01-18 10:20:09.96	340.44	18.20	-40.9	-43.1	19.9	0.00e+00	0	42	0	1115684864	53	4608
2026-01-18 10:20:10.96	340.46	18.08	-40.8	-43.0	19.9	0.00e+00	0	43	0	1117782016	53	4591
2026-01-18 10:20:11.95	340.48	17.96	-40.9	-43.1	19.8	0.00e+00	0	42	0	1118830592	53	4644
2026-01-18 10:20:12.95	340.50	17.84	-40.8	-43.0	19.8	0.00e+00	0	42	0	1120927744	53	4598
2026-01-18 10:20:13.94	340.52	17.72	-40.8	-43.1	19.8	0.00e+00	0	42	0	1123024896	53	4613
2026-01-18 10:20:14.93	340.54	17.61	-40.9	-43.2	19.7	0.00e+00	0	43	0	1125122048	53	4697
2026-01-18 10:20:15.93	340.57	17.49	-40.8	-43.1	19.8	0.00e+00	0	43	0	1126170624	53	4631
2026-01-18 10:20:16.92	340.59	17.37	-41.0	-43.4	19.5	0.00e+00	0	42	0	1128267776	53	4785
2026-01-18 10:20:17.91	340.61	17.26	-41.1	-43.5	19.4	0.00e+00	0	42	0	1130364928	53	4855
2026-01-18 10:20:18.91	340.63	17.14	-41.5	-44.0	19.1	0.00e+00	0	43	0	1132462080	53	5102
2026-01-18 10:20:19.91	340.65	17.03	-41.4	-43.8	19.1	0.00e+00	0	43	0	1134559232	53	5036
2026-01-18 10:20:20.90	340.67	16.91	-41.8	-44.3	18.8	0.00e+00	0	42	0	1135607808	54	4984
2026-01-18 10:20:21.89	340.69	16.80	-41.9	-44.4	18.6	0.00e+00	0	42	0	1137704960	54	5063
2026-01-18 10:20:22.89	340.71	16.69	-41.8	-44.3	18.7	0.00e+00	0	42	0	1139802112	54	5002
2026-01-18 10:20:23.88	340.73	16.57	-41.9	-44.4	18.6	0.00e+00	0	43	0	1141899264	54	5089
2026-01-18 10:20:24.88	340.75	16.46	-42.0	-44.6	18.4	0.00e+00	0	43	0	1142947840	54	5183
2026-01-18 10:20:25.87	340.77	16.35	-42.1	-44.7	18.4	0.00e+00	0	42	0	1145044992	55	4961
2026-01-18 10:20:26.94	340.79	16.23	-42.1	-44.8	18.3	0.00e+00	0	43	0	1147142144	55	5017
2026-01-18 10:20:27.83	340.81	16.13	-42.1	-44.8	18.2	0.00e+00	0	42	0	1149239296	55	5009
2026-01-18 10:20:29.14	340.83	15.99	-42.0	-44.7	18.3	0.00e+00	0	42	0	1151336448	55	4957
2026-01-18 10:20:29.85	340.85	15.91	-42.1	-44.9	18.1	0.00e+00	0	42	0	1152385024	55	5077
2026-01-18 10:20:31.14	340.87	15.77	-41.9	-44.6	18.4	0.00e+00	0	42	0	1155530752	55	4912
2026-01-18 10:20:31.85	340.88	15.69	-42.2	-45.0	18.0	0.00e+00	0	42	0	1156579328	55	5126
2026-01-18 10:20:33.13	340.91	15.55	-42.2	-45.1	18.0	0.00e+00	0	43	0	1158676480	55	5170
2026-01-18 10:20:33.89	340.92	15.47	-42.3	-45.1	18.0	0.00e+00	0	42	0	1160773632	55	5207
2026-01-18 10:20:35.17	340.95	15.33	-42.3	-45.1	17.9	0.00e+00	0	42	0	1162870784	55	5184
2026-01-18 10:20:35.89	340.96	15.25	-42.1	-44.8	18.2	0.00e+00	0	42	0	1163919360	55	5014
2026-01-18 10:20:37.17	340.99	15.12	-42.2	-44.9	18.2	0.00e+00	0	43	0	1166016512	55	5047
2026-01-18 10:20:37.88	341.00	15.04	-42.1	-44.8	18.2	0.00e+00	0	43	0	1168113664	55	5004
2026-01-18 10:20:39.16	341.02	14.91	-42.1	-44.8	18.3	0.00e+00	0	43	0	1170210816	55	4990
2026-01-18 10:20:40.09	341.04	14.81	-42.2	-44.9	18.2	0.00e+00	0	42	0	1172307968	55	5052
2026-01-18 10:20:41.09	341.06	14.70	-42.2	-44.8	18.2	0.00e+00	0	43	0	1173356544	55	5024
2026-01-18 10:20:42.08	341.08	14.60	-42.2	-44.9	18.2	0.00e+00	0	42	0	1175453696	55	5048
2026-01-18 10:20:43.08	341.09	14.50	-42.2	-44.9	18.1	0.00e+00	0	42	0	1177550848	55	5043
2026-01-18 10:20:44.07	341.11	14.39	-42.2	-44.9	18.2	0.00e+00	0	42	0	1179648000	55	5047
2026-01-18 10:20:45.07	341.13	14.29	-42.2	-44.9	18.1	0.00e+00	0	43	0	1181745152	55	5078
2026-01-18 10:20:46.06	341.15	14.19	-42.2	-44.8	18.1	0.00e+00	0	42	0	1182793728	55	5039
2026-01-18 10:20:47.07	341.16	14.09	-42.3	-45.1	17.9	0.00e+00	0	43	0	1184890880	55	5208
2026-01-18 10:20:48.06	341.18	13.99	-42.1	-44.9	18.1	0.00e+00	0	42	0	1186988032	55	5063
2026-01-18 10:20:49.14	341.20	13.88	-42.1	-44.9	18.1	0.00e+00	0	42	0	1189085184	55	5091
2026-01-18 10:20:50.02	341.22	13.79	-42.2	-45.1	17.9	0.00e+00	0	43	0	1190133760	55	5174
2026-01-18 10:20:51.16	341.24	13.67	-42.0	-44.9	18.1	0.00e+00	0	42	0	1192230912	55	5066
2026-01-18 10:20:52.01	341.25	13.59	-42.3	-45.3	17.7	0.00e+00	0	43	0	1194328064	55	5315
2026-01-18 10:20:53.15	341.27	13.47	-42.1	-45.0	18.0	0.00e+00	0	43	0	1196425216	55	5131
2026-01-18 10:20:54.00	341.28	13.39	-42.2	-45.2	17.8	0.00e+00	0	43	0	1197473792	55	5221
2026-01-18 10:20:55.14	341.30	13.28	-42.1	-45.1	17.8	0.00e+00	0	43	0	1200619520	55	5209
2026-01-18 10:20:56.20	341.32	13.17	-42.3	-45.3	17.7	0.00e+00	0	43	0	1201668096	55	5313
2026-01-18 10:20:57.24	341.34	13.07	-42.3	-45.3	17.7	0.00e+00	0	43	0	1203765248	55	5310
2026-01-18 10:20:58.36	341.36	12.96	-42.2	-45.2	17.8	0.00e+00	0	42	0	1205862400	55	5240
2026-01-18 10:20:59.21	341.37	12.88	-42.4	-45.5	17.5	0.00e+00	0	43	0	1207959552	55	5442
2026-01-18 10:21:00.34	341.39	12.77	-42.4	-45.4	17.6	0.00e+00	0	43	0	1210056704	55	5367
2026-01-18 10:21:01.20	341.40	12.69	-42.3	-45.2	17.7	0.00e+00	0	43	0	1211105280	55	5278
2026-01-18 10:21:02.33	341.42	12.58	-42.5	-45.5	17.5	0.00e+00	0	43	0	1213202432	55	5415
2026-01-18 10:21:03.19	341.44	12.50	-42.8	-45.9	17.3	0.00e+00	0	43	0	1215299584	56	5348
2026-01-18 10:21:04.32	341.45	12.39	-42.7	-45.7	17.5	0.00e+00	0	43	0	1217396736	56	5223
2026-01-18 10:21:05.18	341.47	12.31	-42.7	-45.7	17.5	0.00e+00	0	42	0	1219493888	56	5234
2026-01-18 10:21:06.31	341.49	12.20	-42.8	-45.9	17.3	0.00e+00	0	43	0	1221591040	56	5348
2026-01-18 10:21:07.16	341.50	12.12	-42.6	-45.6	17.5	0.00e+00	0	43	0	1222639616	56	5203
2026-01-18 10:21:08.30	341.52	12.01	-42.8	-45.8	17.3	0.00e+00	0	43	0	1224736768	56	5324
2026-01-18 10:21:09.15	341.53	11.93	-42.7	-45.7	17.4	0.00e+00	0	43	0	1226833920	56	5275
2026-01-18 10:21:10.37	341.55	11.82	-42.8	-45.9	17.3	0.00e+00	0	43	0	1228931072	56	5344
2026-01-18 10:21:11.22	341.56	11.74	-42.8	-45.9	17.2	0.00e+00	0	42	0	1229979648	56	5397
2026-01-18 10:21:12.36	341.58	11.64	-42.8	-46.1	17.0	0.00e+00	0	43	0	1232076800	56	5484
