passes_logs/2026/01/18/T1/T1__20260118_072827_KHAYYAM_rec.log

#Pass ID: 20260118_072827_KHAYYAM
#Satellite: KHAYYAM
#Configuration: KHAYYAM_480M
#almurnet v.1.7.20251203
#Start time: 2026-01-18 07:28:28

#Version: 2.0.20230620
#Station: T1
#Location: 37.570604 lon 55.790049 lat
#TLE: 1 53370U 22096A   26017.64774258  .00005047  00000+0  20753-3 0  9991
#TLE: 2 53370  97.3565 284.6100 0001627 106.8472 253.2944 15.24602740191641

#Time	Az	El	Level	Level2	SNR	BER	BlckErr	Temp	State	Recorded	gain1	gain2
2026-01-18 07:28:28.58	148.89	5.18	-50.4	-54.7	3.5	0.00e+00	0	45	0	0	72	23623
2026-01-18 07:28:29.57	148.85	5.26	-50.4	-54.8	3.7	0.00e+00	0	46	104	0	71	25111
2026-01-18 07:28:30.56	148.81	5.34	-50.4	-54.8	3.7	0.00e+00	0	46	104	0	71	25098
2026-01-18 07:28:31.56	148.77	5.42	-50.4	-54.8	3.7	0.00e+00	0	46	104	0	71	25250
2026-01-18 07:28:32.55	148.74	5.51	-50.4	-54.8	3.7	0.00e+00	0	46	104	0	71	25276
2026-01-18 07:28:33.54	148.70	5.59	-50.5	-54.8	3.7	0.00e+00	0	46	104	0	71	25346
2026-01-18 07:28:34.54	148.66	5.67	-50.4	-54.8	3.7	0.00e+00	0	46	104	0	71	25250
2026-01-18 07:28:35.53	148.62	5.75	-50.4	-54.8	3.7	0.00e+00	0	46	104	0	71	25275
2026-01-18 07:28:36.52	148.58	5.84	-50.4	-54.8	3.7	0.00e+00	0	46	104	0	71	25211
2026-01-18 07:28:37.52	148.54	5.92	-50.5	-54.8	3.7	0.00e+00	0	46	104	0	71	25299
2026-01-18 07:28:38.51	148.50	6.00	-50.5	-54.8	3.7	0.00e+00	0	47	104	0	71	25317
2026-01-18 07:28:39.50	148.46	6.09	-50.4	-54.8	3.7	0.00e+00	0	47	104	0	71	25306
2026-01-18 07:28:40.50	148.42	6.17	-50.5	-54.8	3.7	0.00e+00	0	47	104	0	71	25374
2026-01-18 07:28:41.49	148.38	6.26	-50.5	-54.9	3.7	0.00e+00	0	47	104	0	71	25428
2026-01-18 07:28:42.49	148.34	6.34	-50.5	-54.8	3.7	0.00e+00	0	47	104	0	71	25336
2026-01-18 07:28:43.48	148.30	6.43	-50.5	-54.8	3.7	0.00e+00	0	47	104	0	71	25361
2026-01-18 07:28:44.47	148.26	6.51	-50.4	-54.8	3.7	0.00e+00	0	47	104	0	71	25296
2026-01-18 07:28:45.47	148.21	6.60	-50.5	-54.8	3.7	0.00e+00	0	47	104	0	71	25351
2026-01-18 07:28:46.46	148.17	6.69	-50.5	-54.8	3.7	0.00e+00	0	47	104	0	71	25350
2026-01-18 07:28:47.45	148.13	6.78	-50.5	-54.9	3.7	0.00e+00	0	47	104	0	71	25434
2026-01-18 07:28:48.45	148.09	6.86	-50.5	-54.9	3.7	0.00e+00	0	47	104	0	71	25407
2026-01-18 07:28:49.44	148.04	6.95	-50.5	-54.9	3.7	0.00e+00	0	47	104	0	71	25445
2026-01-18 07:28:50.43	148.00	7.04	-50.5	-54.9	3.6	0.00e+00	0	47	104	0	71	25523
2026-01-18 07:28:51.43	147.96	7.13	-50.5	-54.9	3.7	0.00e+00	0	47	104	0	71	25505
2026-01-18 07:28:52.42	147.91	7.22	-50.5	-54.9	3.7	0.00e+00	0	47	104	0	71	25551
2026-01-18 07:28:53.41	147.87	7.31	-50.5	-54.9	3.7	0.00e+00	0	48	104	0	71	25476
2026-01-18 07:28:54.41	147.82	7.40	-50.5	-54.9	3.7	0.00e+00	0	48	104	0	71	25515
2026-01-18 07:28:55.40	147.78	7.49	-50.5	-54.9	3.7	0.00e+00	0	48	104	0	71	25535
2026-01-18 07:28:56.39	147.73	7.58	-50.5	-54.9	3.7	0.00e+00	0	48	104	0	71	25511
2026-01-18 07:28:57.39	147.68	7.67	-50.5	-54.9	3.7	0.00e+00	0	48	104	0	71	25519
2026-01-18 07:28:58.38	147.64	7.76	-50.5	-54.9	3.7	0.00e+00	0	48	104	0	71	25524
2026-01-18 07:28:59.37	147.59	7.85	-50.5	-54.9	3.7	0.00e+00	0	48	104	0	71	25583
2026-01-18 07:29:00.37	147.54	7.95	-50.5	-54.9	3.7	0.00e+00	0	48	104	0	71	25513
2026-01-18 07:29:01.36	147.49	8.04	-50.5	-54.9	3.7	0.00e+00	0	48	104	0	71	25451
2026-01-18 07:29:02.35	147.45	8.13	-50.5	-54.9	3.7	0.00e+00	0	48	104	0	71	25526
2026-01-18 07:29:03.35	147.40	8.23	-50.5	-54.9	3.6	0.00e+00	0	48	104	0	71	25570
2026-01-18 07:29:04.34	147.35	8.32	-50.5	-54.9	3.7	0.00e+00	0	48	104	0	71	25553
2026-01-18 07:29:05.33	147.30	8.42	-50.5	-54.9	3.7	0.00e+00	0	48	104	0	71	25543
2026-01-18 07:29:06.33	147.25	8.51	-50.5	-54.9	3.7	0.00e+00	0	48	104	0	71	25563
2026-01-18 07:29:07.32	147.20	8.61	-50.5	-54.9	3.7	0.00e+00	0	48	104	0	71	25583
2026-01-18 07:29:08.31	147.15	8.70	-50.5	-54.9	3.7	0.00e+00	0	49	104	0	71	25605
2026-01-18 07:29:09.31	147.10	8.80	-50.5	-54.9	3.7	0.00e+00	0	48	104	0	71	25587
2026-01-18 07:29:10.30	147.04	8.90	-50.5	-54.9	3.7	0.00e+00	0	49	104	0	71	25646
2026-01-18 07:29:11.29	146.99	8.99	-50.6	-54.9	3.7	0.00e+00	0	49	104	0	71	25616
2026-01-18 07:29:12.29	146.94	9.09	-50.6	-55.0	3.7	0.00e+00	0	49	104	0	71	25738
2026-01-18 07:29:13.28	146.89	9.19	-50.5	-54.9	3.7	0.00e+00	0	49	104	0	71	25428
2026-01-18 07:29:14.28	146.83	9.29	-50.6	-54.7	3.7	0.00e+00	0	49	104	0	71	24873
2026-01-18 07:29:15.27	146.78	9.39	-50.6	-55.0	3.7	0.00e+00	0	48	104	0	71	25764
2026-01-18 07:29:16.27	146.72	9.49	-50.5	-54.9	3.7	0.00e+00	0	49	104	0	71	25621
2026-01-18 07:29:17.26	146.67	9.59	-50.2	-54.1	3.7	0.00e+00	0	49	104	0	71	23336
2026-01-18 07:29:18.26	146.61	9.70	-50.4	-54.2	3.7	0.00e+00	0	49	104	0	71	23671
2026-01-18 07:29:19.25	146.56	9.80	-50.4	-54.2	3.7	0.00e+00	0	49	104	0	71	23665
2026-01-18 07:29:20.25	146.50	9.90	-50.6	-54.5	3.7	0.00e+00	0	49	104	0	71	24385
2026-01-18 07:29:21.24	146.44	10.00	-50.7	-54.5	3.7	0.00e+00	0	49	104	0	72	23116
2026-01-18 07:29:22.24	146.39	10.11	-50.8	-54.5	3.7	0.00e+00	0	49	104	0	72	23150
2026-01-18 07:29:23.23	146.33	10.21	-51.0	-55.0	3.7	0.00e+00	0	49	104	0	72	24397
2026-01-18 07:29:24.23	146.27	10.32	-51.0	-55.2	3.7	0.00e+00	0	49	104	0	73	23577
2026-01-18 07:29:25.23	146.21	10.42	-51.2	-55.6	3.7	0.00e+00	0	49	104	0	73	24709
2026-01-18 07:29:26.22	146.15	10.53	-50.9	-54.9	3.7	0.00e+00	0	49	104	0	73	22662
2026-01-18 07:29:27.22	146.09	10.63	-51.3	-55.6	3.7	0.00e+00	0	49	104	0	73	24689
2026-01-18 07:29:28.54	146.01	10.78	-51.0	-55.5	3.7	0.00e+00	0	49	104	0	73	24390
2026-01-18 07:29:29.25	145.96	10.85	-50.9	-55.4	3.6	0.00e+00	0	49	104	0	73	24073
2026-01-18 07:29:30.53	145.88	10.99	-50.7	-55.3	3.7	0.00e+00	0	49	104	0	73	23820
2026-01-18 07:29:31.27	145.84	11.07	-50.7	-55.3	3.7	0.00e+00	0	49	104	0	73	23897
2026-01-18 07:29:32.55	145.75	11.22	-50.7	-55.4	3.7	0.00e+00	0	49	104	0	73	24097
2026-01-18 07:29:33.27	145.71	11.30	-50.8	-55.4	3.7	0.00e+00	0	49	104	0	73	24075
2026-01-18 07:29:34.55	145.62	11.44	-50.3	-55.2	3.7	0.00e+00	0	49	104	0	72	24923
2026-01-18 07:29:35.27	145.58	11.52	-50.6	-55.2	3.7	0.00e+00	0	49	104	0	72	25054
2026-01-18 07:29:36.55	145.49	11.66	-50.4	-55.3	3.7	0.00e+00	0	49	104	0	72	25174
2026-01-18 07:29:37.26	145.45	11.75	-50.4	-55.2	3.7	0.00e+00	0	49	104	0	72	25037
2026-01-18 07:29:38.55	145.36	11.89	-50.4	-55.2	3.7	0.00e+00	0	49	104	0	72	25048
2026-01-18 07:29:39.27	145.31	11.98	-50.4	-55.3	3.7	0.00e+00	0	49	104	0	72	25203
2026-01-18 07:29:40.54	145.22	12.12	-50.6	-55.5	3.7	0.00e+00	0	49	104	0	72	25774
2026-01-18 07:29:41.27	145.17	12.21	-50.6	-55.4	3.7	0.00e+00	0	49	104	0	72	25649
2026-01-18 07:29:42.74	145.07	12.38	-51.1	-55.6	3.7	0.00e+00	0	49	104	0	72	26003
2026-01-18 07:29:43.45	145.02	12.46	-50.9	-55.5	3.7	0.00e+00	0	49	104	0	73	24448
2026-01-18 07:29:44.73	144.92	12.62	-50.8	-55.6	3.7	0.00e+00	0	49	104	0	72	26022
2026-01-18 07:29:45.44	144.87	12.70	-51.2	-55.8	3.7	0.00e+00	0	50	104	0	73	25375
2026-01-18 07:29:46.72	144.78	12.85	-51.5	-55.8	3.7	0.00e+00	0	49	104	0	73	25236
2026-01-18 07:29:47.43	144.73	12.94	-51.5	-55.9	3.7	0.00e+00	0	50	104	0	73	25606
2026-01-18 07:29:48.71	144.63	13.10	-51.5	-56.1	3.7	0.00e+00	0	49	104	0	73	26169
2026-01-18 07:29:49.42	144.58	13.18	-51.6	-56.1	3.7	0.00e+00	0	50	104	0	73	26128
2026-01-18 07:29:50.70	144.48	13.34	-51.2	-55.5	3.7	0.00e+00	0	50	104	0	73	24448
2026-01-18 07:29:51.41	144.42	13.43	-51.4	-55.8	3.7	0.00e+00	0	50	104	0	73	25182
2026-01-18 07:29:52.69	144.32	13.59	-51.3	-55.7	3.7	0.00e+00	0	50	104	0	73	25014
2026-01-18 07:29:53.42	144.27	13.68	-51.3	-55.5	3.7	0.00e+00	0	50	104	0	73	24492
2026-01-18 07:29:54.70	144.16	13.84	-51.3	-55.7	3.7	0.00e+00	0	50	104	0	73	24872
2026-01-18 07:29:55.57	144.09	13.95	-51.3	-55.7	3.7	0.00e+00	0	50	104	0	73	25068
2026-01-18 07:29:56.70	144.00	14.10	-51.4	-55.8	3.7	0.00e+00	0	50	104	0	73	25253
2026-01-18 07:29:57.73	143.92	14.23	-51.5	-55.8	3.7	0.00e+00	0	50	104	0	73	25182
2026-01-18 07:29:58.72	143.83	14.36	-51.5	-56.1	3.7	0.00e+00	0	50	104	0	73	26125
2026-01-18 07:29:59.92	143.73	14.52	-51.6	-56.1	3.7	0.00e+00	0	50	104	0	73	26157
2026-01-18 07:30:00.81	143.66	14.63	-51.8	-56.5	3.7	0.00e+00	0	50	104	0	74	25711
2026-01-18 07:30:02.12	143.54	14.81	-51.8	-56.5	3.7	0.00e+00	0	50	104	0	74	25681
2026-01-18 07:30:02.83	143.48	14.90	-51.7	-56.3	3.7	0.00e+00	0	50	104	0	74	25331
2026-01-18 07:30:04.11	143.37	15.07	-51.5	-56.0	3.7	0.00e+00	0	50	104	0	74	24516
2026-01-18 07:30:04.83	143.30	15.17	-51.3	-55.9	3.7	0.00e+00	0	50	104	0	74	24013
2026-01-18 07:30:06.11	143.19	15.35	-51.1	-55.7	3.7	0.00e+00	0	50	104	0	74	23455
2026-01-18 07:30:06.84	143.12	15.45	-51.1	-55.7	3.7	0.00e+00	0	50	104	0	74	23616
2026-01-18 07:30:08.12	143.00	15.62	-51.3	-55.9	3.7	0.00e+00	0	50	104	0	74	24174
2026-01-18 07:30:08.89	142.93	15.73	-50.7	-55.1	3.7	0.00e+00	0	50	104	0	73	23375
2026-01-18 07:30:10.17	142.81	15.91	-51.1	-55.8	3.7	0.00e+00	0	50	104	0	73	25280
2026-01-18 07:30:10.89	142.74	16.01	-50.9	-55.5	3.7	0.00e+00	0	50	104	0	73	24495
2026-01-18 07:30:12.16	142.62	16.19	-50.7	-55.2	3.7	0.00e+00	0	50	104	0	73	23642
2026-01-18 07:30:12.89	142.55	16.30	-50.5	-55.0	3.7	0.00e+00	0	50	104	0	73	22979
2026-01-18 07:30:14.17	142.42	16.48	-50.6	-54.9	3.7	0.00e+00	0	50	104	0	72	24063
2026-01-18 07:30:14.88	142.35	16.59	-51.2	-55.6	3.7	0.00e+00	0	50	104	0	72	26138
2026-01-18 07:30:16.16	142.22	16.77	-50.6	-55.2	3.7	0.00e+00	0	50	104	0	73	23661
2026-01-18 07:30:16.87	142.15	16.88	-51.1	-56.1	3.7	0.00e+00	0	50	104	0	73	25992
2026-01-18 07:30:18.16	142.01	17.07	-50.9	-55.4	3.7	0.00e+00	0	50	104	0	73	24103
2026-01-18 07:30:18.87	141.94	17.18	-51.0	-55.6	3.7	0.00e+00	0	50	104	0	73	24781
2026-01-18 07:30:20.15	141.80	17.37	-51.1	-55.5	3.7	0.00e+00	0	50	104	0	73	24351
2026-01-18 07:30:20.86	141.73	17.48	-51.2	-55.5	3.7	0.00e+00	0	50	104	0	73	24476
2026-01-18 07:30:22.14	141.59	17.67	-51.3	-55.6	3.7	0.00e+00	0	50	104	0	73	24585
2026-01-18 07:30:22.85	141.51	17.78	-51.2	-55.5	3.7	0.00e+00	0	50	104	0	73	24396
2026-01-18 07:30:24.13	141.37	17.98	-51.5	-55.7	3.7	0.00e+00	0	50	104	0	73	24865
2026-01-18 07:30:24.87	141.28	18.10	-51.4	-55.6	3.7	0.00e+00	0	50	104	0	73	24657
2026-01-18 07:30:26.15	141.14	18.30	-51.6	-56.3	3.7	0.00e+00	0	50	104	0	73	26598
2026-01-18 07:30:26.86	141.05	18.41	-51.7	-55.9	3.7	0.00e+00	0	50	104	0	74	24228
2026-01-18 07:30:28.15	140.90	18.62	-51.7	-56.1	3.7	0.00e+00	0	50	104	0	74	24681
2026-01-18 07:30:28.86	140.82	18.73	-51.5	-55.7	3.7	0.00e+00	0	50	104	0	74	23477
2026-01-18 07:30:30.14	140.66	18.94	-51.4	-55.6	3.7	0.00e+00	0	50	104	0	74	23173
2026-01-18 07:30:30.85	140.58	19.06	-51.4	-55.6	3.7	0.00e+00	0	50	104	0	74	23210
2026-01-18 07:30:32.13	140.42	19.27	-51.4	-55.5	3.7	0.00e+00	0	50	104	0	74	23018
2026-01-18 07:30:32.84	140.33	19.39	-51.4	-55.5	3.7	0.00e+00	0	50	104	0	74	22964
2026-01-18 07:30:34.12	140.17	19.60	-51.6	-55.8	3.7	0.00e+00	0	50	104	0	74	23855
2026-01-18 07:30:34.84	140.08	19.72	-51.8	-56.2	3.7	0.00e+00	0	50	104	0	74	24859
2026-01-18 07:30:36.24	139.90	19.96	-51.8	-56.4	3.7	0.00e+00	0	50	104	0	74	25422
2026-01-18 07:30:36.95	139.80	20.08	-51.6	-55.9	3.7	0.00e+00	0	50	104	0	74	24229
2026-01-18 07:30:38.23	139.63	20.30	-51.8	-56.2	3.7	0.00e+00	0	50	104	0	74	25011
2026-01-18 07:30:38.97	139.53	20.43	-51.7	-56.2	3.7	0.00e+00	0	50	104	0	74	25076
2026-01-18 07:30:40.25	139.36	20.66	-51.7	-56.3	3.7	0.00e+00	0	50	104	0	74	25238
2026-01-18 07:30:40.96	139.26	20.78	-51.7	-56.3	3.7	0.00e+00	0	50	104	0	74	25353
2026-01-18 07:30:42.24	139.08	21.01	-51.7	-56.5	3.7	0.00e+00	0	50	104	0	74	25755
2026-01-18 07:30:42.95	138.98	21.14	-51.7	-56.4	3.7	0.00e+00	0	50	104	0	74	25549
2026-01-18 07:30:44.23	138.79	21.37	-51.4	-55.5	3.7	0.00e+00	0	50	104	0	74	23060
2026-01-18 07:30:44.95	138.69	21.50	-51.5	-55.7	3.7	0.00e+00	0	50	104	0	74	23451
2026-01-18 07:30:46.23	138.50	21.74	-51.5	-55.7	3.7	0.00e+00	0	50	104	0	74	23675
2026-01-18 07:30:46.94	138.39	21.87	-51.4	-55.5	3.7	0.00e+00	0	50	104	0	74	23116
2026-01-18 07:30:48.22	138.19	22.11	-51.4	-55.5	3.7	0.00e+00	0	50	104	0	74	22947
2026-01-18 07:30:48.93	138.09	22.25	-51.3	-55.3	3.7	0.00e+00	0	50	104	0	74	22617
2026-01-18 07:30:50.21	137.88	22.49	-51.2	-55.2	3.7	0.00e+00	0	50	104	0	74	22208
2026-01-18 07:30:51.17	137.73	22.68	-51.2	-55.3	3.7	0.00e+00	0	50	104	0	74	22403
2026-01-18 07:30:52.48	137.52	22.93	-51.6	-56.0	3.7	0.00e+00	0	50	104	0	74	24462
2026-01-18 07:30:53.19	137.40	23.07	-51.7	-56.1	3.7	0.00e+00	0	50	104	0	74	24719
2026-01-18 07:30:54.80	137.13	23.39	-51.9	-56.4	3.7	0.00e+00	0	50	104	0	74	25673
2026-01-18 07:30:55.39	137.03	23.51	-51.9	-56.4	3.7	0.00e+00	0	51	104	0	74	25552
2026-01-18 07:30:56.95	136.76	23.82	-51.8	-56.3	3.7	0.00e+00	0	51	104	0	74	25298
2026-01-18 07:30:57.65	136.64	23.96	-51.8	-56.1	3.7	0.00e+00	0	50	104	0	74	24725
2026-01-18 07:30:58.93	136.41	24.23	-51.5	-55.9	3.7	0.00e+00	0	50	104	0	74	24195
2026-01-18 07:30:59.64	136.29	24.37	-51.5	-55.8	3.7	0.00e+00	0	50	104	0	74	23714
2026-01-18 07:31:00.92	136.05	24.64	-51.4	-55.5	3.7	0.00e+00	0	50	104	0	74	23014
2026-01-18 07:31:01.63	135.92	24.79	-51.2	-55.2	3.7	0.00e+00	0	50	104	0	74	22360
2026-01-18 07:31:03.10	135.64	25.10	-50.9	-54.9	3.7	0.00e+00	0	50	104	0	73	22627
2026-01-18 07:31:03.81	135.50	25.25	-50.8	-54.7	3.7	0.00e+00	0	51	104	0	73	22352
2026-01-18 07:31:05.17	135.24	25.55	-51.1	-55.2	3.7	0.00e+00	0	50	104	0	73	23615
2026-01-18 07:31:06.17	135.04	25.76	-51.3	-55.8	3.7	0.00e+00	0	50	104	0	73	25155
2026-01-18 07:31:07.48	134.77	26.05	-51.4	-55.5	3.7	0.00e+00	0	50	104	0	73	24404
2026-01-18 07:31:08.19	134.63	26.21	-51.9	-56.1	3.7	0.00e+00	0	51	104	0	74	24746
2026-01-18 07:31:09.47	134.36	26.50	-51.2	-54.9	3.7	0.00e+00	0	51	104	0	74	21483
2026-01-18 07:31:10.18	134.21	26.66	-51.3	-55.2	3.7	0.00e+00	0	51	104	0	74	22168
2026-01-18 07:31:11.46	133.93	26.95	-51.1	-54.8	3.7	0.00e+00	0	51	104	0	74	21222
2026-01-18 07:31:12.17	133.78	27.11	-51.0	-54.6	3.7	0.00e+00	0	50	104	0	74	20814
2026-01-18 07:31:13.48	133.49	27.42	-50.9	-54.5	3.7	0.00e+00	0	51	104	0	73	21652
2026-01-18 07:31:14.19	133.32	27.58	-51.3	-55.3	3.7	0.00e+00	0	51	104	0	73	23776
2026-01-18 07:31:15.47	133.03	27.88	-51.8	-56.3	3.7	0.00e+00	0	50	104	0	74	25367
2026-01-18 07:31:16.18	132.86	28.05	-51.9	-56.3	3.7	0.00e+00	0	51	104	0	74	25303
2026-01-18 07:31:17.46	132.56	28.36	-51.6	-56.2	3.7	0.00e+00	0	51	104	0	74	24977
2026-01-18 07:31:18.17	132.39	28.53	-51.6	-56.3	3.7	0.00e+00	0	51	104	0	74	25204
2026-01-18 07:31:19.45	132.07	28.84	-51.7	-56.4	3.7	0.00e+00	0	51	104	0	74	25433
2026-01-18 07:31:20.18	131.89	29.02	-51.9	-56.5	3.7	0.00e+00	0	51	104	0	74	25787
2026-01-18 07:31:21.45	131.57	29.33	-51.9	-56.5	3.7	0.00e+00	0	51	104	0	74	25916
2026-01-18 07:31:22.16	131.38	29.51	-51.8	-56.5	3.7	0.00e+00	0	51	104	0	74	25869
2026-01-18 07:31:23.44	131.05	29.83	-51.2	-56.0	3.7	0.00e+00	0	51	104	0	74	24470
2026-01-18 07:31:24.17	130.85	30.02	-50.9	-55.8	3.7	0.00e+00	0	51	104	0	73	25365
2026-01-18 07:31:25.44	130.51	30.34	-51.0	-55.8	3.7	0.00e+00	0	50	104	0	73	25262
2026-01-18 07:31:26.17	130.31	30.53	-51.0	-55.9	3.7	0.00e+00	0	51	104	0	73	25629
2026-01-18 07:31:27.45	129.94	30.86	-51.3	-55.3	3.7	0.00e+00	0	51	104	0	73	23792
2026-01-18 07:31:28.17	129.74	31.05	-51.2	-54.9	3.7	0.00e+00	0	50	104	0	73	22777
2026-01-18 07:31:29.45	129.36	31.39	-51.0	-54.9	3.7	0.00e+00	0	51	104	0	73	22789
2026-01-18 07:31:30.16	129.15	31.58	-51.1	-55.1	3.7	0.00e+00	0	51	104	0	73	23237
2026-01-18 07:31:31.44	128.77	31.92	-51.3	-55.5	3.7	0.00e+00	0	51	104	0	73	24244
2026-01-18 07:31:32.15	128.55	32.11	-51.6	-55.9	3.7	0.00e+00	0	51	104	0	73	25573
2026-01-18 07:31:33.44	128.14	32.46	-51.8	-56.3	3.7	0.00e+00	0	51	104	0	74	25217
2026-01-18 07:31:34.15	127.92	32.66	-51.9	-56.4	3.7	0.00e+00	0	51	104	0	74	25592
2026-01-18 07:31:35.63	127.43	33.06	-52.2	-56.7	3.7	0.00e+00	0	51	104	0	75	25037
2026-01-18 07:31:36.34	127.20	33.26	-52.2	-56.8	3.7	0.00e+00	0	51	104	0	75	25214
2026-01-18 07:31:37.62	126.77	33.62	-52.3	-56.7	3.7	0.00e+00	0	51	104	0	75	24808
2026-01-18 07:31:38.69	126.40	33.92	-52.3	-56.6	3.7	0.00e+00	0	51	104	0	75	24570
2026-01-18 07:31:39.85	125.99	34.25	-52.3	-56.6	3.7	0.00e+00	0	51	104	0	75	24530
2026-01-18 07:31:40.70	125.68	34.49	-52.3	-56.8	3.7	0.00e+00	0	51	104	0	75	25114
2026-01-18 07:31:41.84	125.26	34.82	-52.0	-56.6	3.7	0.00e+00	0	51	104	0	75	24591
2026-01-18 07:31:42.69	124.94	35.07	-52.1	-56.6	3.7	0.00e+00	0	51	104	0	75	24741
2026-01-18 07:31:43.83	124.51	35.40	-52.0	-56.5	3.7	0.00e+00	0	51	104	0	75	24520
2026-01-18 07:31:44.68	124.18	35.65	-52.1	-56.5	3.7	0.00e+00	0	51	104	0	75	24356
2026-01-18 07:31:45.82	123.73	35.99	-52.0	-56.5	3.7	0.00e+00	0	51	104	0	75	24438
2026-01-18 07:31:46.67	123.39	36.24	-51.6	-56.2	3.7	0.00e+00	0	51	104	0	75	23628
2026-01-18 07:31:47.81	122.92	36.58	-51.6	-56.2	3.7	0.00e+00	0	51	104	0	75	23476
2026-01-18 07:31:48.66	122.56	36.83	-51.7	-56.2	3.7	0.00e+00	0	51	104	0	75	23661
2026-01-18 07:31:49.80	122.07	37.18	-51.8	-56.6	3.7	0.00e+00	0	51	104	0	75	24575
2026-01-18 07:31:50.65	121.70	37.43	-52.2	-56.7	3.7	0.00e+00	0	51	104	0	75	24872
2026-01-18 07:31:51.79	121.20	37.78	-52.2	-56.8	3.7	0.00e+00	0	51	104	0	75	25104
2026-01-18 07:31:52.64	120.81	38.04	-52.1	-56.5	3.7	0.00e+00	0	51	104	0	75	24373
2026-01-18 07:31:53.78	120.28	38.39	-52.0	-56.5	3.7	0.00e+00	0	51	104	0	75	24311
2026-01-18 07:31:54.63	119.88	38.65	-52.1	-56.7	3.7	0.00e+00	0	51	104	0	75	24952
2026-01-18 07:31:55.77	119.33	39.00	-52.0	-56.6	3.7	0.00e+00	0	51	104	0	75	24744
2026-01-18 07:31:56.62	118.92	39.26	-51.9	-56.6	3.7	0.00e+00	0	51	104	0	75	24692
2026-01-18 07:31:57.76	118.34	39.62	-52.0	-56.6	3.7	0.00e+00	0	51	104	0	75	24527
2026-01-18 07:31:58.61	117.91	39.88	-51.9	-56.5	3.7	0.00e+00	0	51	104	0	75	24346
2026-01-18 07:31:59.75	117.32	40.24	-51.9	-56.5	3.7	0.00e+00	0	51	104	0	75	24257
2026-01-18 07:32:00.60	116.86	40.50	-52.0	-56.6	3.7	0.00e+00	0	51	104	0	75	24588
2026-01-18 07:32:01.74	116.24	40.86	-52.0	-56.7	3.7	0.00e+00	0	51	104	0	75	25003
2026-01-18 07:32:02.59	115.77	41.12	-52.0	-56.7	3.7	0.00e+00	0	51	104	0	75	24964
2026-01-18 07:32:03.73	115.13	41.48	-52.1	-56.7	3.7	0.00e+00	0	51	104	0	75	24954
2026-01-18 07:32:04.58	114.64	41.75	-52.4	-56.9	3.7	0.00e+00	0	51	104	0	75	25562
2026-01-18 07:32:05.72	113.97	42.10	-52.3	-56.8	3.6	0.00e+00	0	51	104	0	75	25167
2026-01-18 07:32:06.73	113.36	42.42	-52.3	-56.8	3.7	0.00e+00	0	51	104	0	75	25245
2026-01-18 07:32:07.88	112.66	42.78	-52.3	-56.8	3.7	0.00e+00	0	51	104	0	75	25272
2026-01-18 07:32:08.75	112.11	43.05	-52.4	-56.9	3.7	0.00e+00	0	51	104	0	75	25417
2026-01-18 07:32:09.89	111.38	43.40	-52.4	-56.8	3.7	0.00e+00	0	51	104	0	75	25301
2026-01-18 07:32:10.79	110.79	43.68	-52.2	-56.7	3.7	0.00e+00	0	51	104	0	75	24834
2026-01-18 07:32:12.02	109.97	44.05	-52.2	-56.7	3.7	0.00e+00	0	50	104	0	75	24962
2026-01-18 07:32:12.87	109.39	44.31	-52.2	-56.6	3.7	0.00e+00	0	51	104	0	75	24640
2026-01-18 07:32:14.01	108.60	44.66	-52.1	-56.6	3.7	0.00e+00	0	51	104	0	75	24544
2026-01-18 07:32:14.86	108.00	44.92	-52.2	-56.5	3.7	0.00e+00	0	51	104	0	75	24507
2026-01-18 07:32:16.00	107.17	45.26	-52.1	-56.5	3.7	0.00e+00	0	51	104	0	75	24249
2026-01-18 07:32:16.86	106.54	45.51	-52.3	-56.7	3.7	0.00e+00	0	51	104	0	75	24944
2026-01-18 07:32:18.00	105.68	45.85	-52.1	-56.8	3.7	0.00e+00	0	51	104	0	75	25198
2026-01-18 07:32:18.85	105.03	46.10	-51.7	-56.6	3.7	0.00e+00	0	51	104	0	75	24658
2026-01-18 07:32:19.99	104.14	46.42	-51.7	-56.5	3.7	0.00e+00	0	51	104	0	75	24474
2026-01-18 07:32:20.84	103.47	46.67	-52.4	-56.9	3.7	0.00e+00	0	51	104	0	75	25396
2026-01-18 07:32:21.98	102.54	46.99	-52.3	-56.8	3.7	0.00e+00	0	51	104	0	75	25348
2026-01-18 07:32:22.83	101.84	47.22	-52.2	-56.8	3.7	0.00e+00	0	51	104	0	75	25352
2026-01-18 07:32:23.97	100.88	47.53	-52.2	-56.8	3.7	0.00e+00	0	51	104	0	75	25149
2026-01-18 07:32:24.82	100.16	47.76	-52.2	-56.9	3.7	0.00e+00	0	51	104	0	75	25611
2026-01-18 07:32:26.02	99.11	48.07	-52.3	-56.9	3.7	0.00e+00	0	51	104	0	75	25448
2026-01-18 07:32:26.87	98.36	48.29	-52.3	-56.9	3.7	0.00e+00	0	51	104	0	75	25442
2026-01-18 07:32:28.01	97.33	48.58	-52.4	-56.9	3.7	0.00e+00	0	51	104	0	75	25622
2026-01-18 07:32:28.86	96.55	48.79	-51.9	-56.6	3.7	0.00e+00	0	51	104	0	75	24728
2026-01-18 07:32:30.00	95.49	49.06	-52.3	-56.7	3.7	0.00e+00	0	51	104	0	75	24927
2026-01-18 07:32:30.85	94.69	49.25	-52.1	-56.6	3.7	0.00e+00	0	51	104	0	75	24671
2026-01-18 07:32:31.99	93.59	49.51	-52.2	-56.7	3.7	0.00e+00	0	51	104	0	75	24857
2026-01-18 07:32:32.84	92.76	49.70	-51.6	-56.4	3.7	0.00e+00	0	51	104	0	75	24105
2026-01-18 07:32:33.98	91.64	49.94	-52.2	-56.8	3.7	0.00e+00	0	51	104	0	75	25238
2026-01-18 07:32:34.83	90.78	50.11	-52.1	-56.8	3.7	0.00e+00	0	51	104	0	75	25343
2026-01-18 07:32:35.98	89.62	50.33	-52.1	-56.9	3.7	0.00e+00	0	51	104	0	75	25430
2026-01-18 07:32:36.83	88.74	50.49	-51.8	-56.7	3.7	0.00e+00	0	51	104	0	75	24867
2026-01-18 07:32:37.97	87.55	50.69	-51.6	-56.5	3.7	0.00e+00	0	51	104	0	75	24365
2026-01-18 07:32:38.82	86.66	50.83	-51.7	-56.5	3.7	0.00e+00	0	51	104	0	75	24471
2026-01-18 07:32:39.96	85.44	51.01	-51.7	-56.5	3.7	0.00e+00	0	51	104	0	75	24466
2026-01-18 07:32:40.82	84.52	51.14	-51.5	-56.5	3.7	0.00e+00	0	51	104	0	75	24370
2026-01-18 07:32:41.95	83.29	51.30	-51.7	-56.6	3.7	0.00e+00	0	51	104	0	74	26227
2026-01-18 07:32:42.81	82.34	51.41	-52.0	-56.7	3.7	0.00e+00	0	51	104	0	74	26406
2026-01-18 07:32:43.95	81.08	51.54	-52.0	-56.7	3.7	0.00e+00	0	51	104	0	74	26438
2026-01-18 07:32:44.80	80.13	51.63	-52.0	-56.9	3.7	0.00e+00	0	51	104	0	74	27039
2026-01-18 07:32:45.93	78.87	51.74	-52.1	-56.8	3.7	0.00e+00	0	51	104	0	74	26746
2026-01-18 07:32:46.79	77.89	51.81	-52.5	-57.0	3.7	0.00e+00	0	51	104	0	75	25755
2026-01-18 07:32:47.92	76.61	51.90	-52.5	-56.9	3.7	0.00e+00	0	51	104	0	75	25599
2026-01-18 07:32:48.77	75.64	51.95	-52.4	-57.0	3.7	0.00e+00	0	51	104	0	75	25779
2026-01-18 07:32:49.91	74.33	52.01	-52.3	-56.7	3.7	0.00e+00	0	51	104	0	75	24823
2026-01-18 07:32:50.76	73.36	52.04	-52.3	-57.0	3.7	0.00e+00	0	51	104	0	75	25715
2026-01-18 07:32:51.90	72.04	52.07	-52.3	-56.9	3.7	0.00e+00	0	51	104	0	75	25638
2026-01-18 07:32:52.76	71.05	52.09	-52.2	-56.6	3.7	0.00e+00	0	51	104	0	75	24787
2026-01-18 07:32:53.89	69.75	52.09	-52.6	-57.0	3.7	0.00e+00	0	51	104	0	75	25970
2026-01-18 07:32:54.75	68.76	52.09	-52.4	-56.8	3.7	0.00e+00	0	51	104	0	75	25166
2026-01-18 07:32:56.15	67.14	52.06	-52.3	-56.7	3.7	0.00e+00	0	51	104	0	75	25090
2026-01-18 07:32:56.86	66.33	52.04	-52.4	-56.7	3.7	0.00e+00	0	51	104	0	75	25024
2026-01-18 07:32:58.14	64.86	51.98	-52.4	-56.8	3.7	0.00e+00	0	51	104	0	75	25145
2026-01-18 07:32:58.87	64.02	51.94	-52.2	-56.5	3.7	0.00e+00	0	51	104	0	75	24504
2026-01-18 07:33:00.15	62.57	51.85	-52.2	-56.6	3.7	0.00e+00	0	51	104	0	75	24538
2026-01-18 07:33:00.86	61.76	51.80	-52.4	-56.7	3.7	0.00e+00	0	51	104	0	75	24829
2026-01-18 07:33:02.14	60.32	51.68	-52.5	-56.9	3.7	0.00e+00	0	51	104	0	75	25446
2026-01-18 07:33:02.96	59.40	51.60	-52.5	-57.1	3.7	0.00e+00	0	51	104	0	75	26034
2026-01-18 07:33:04.10	58.14	51.47	-52.6	-57.1	3.7	0.00e+00	0	51	104	0	75	26180
2026-01-18 07:33:04.95	57.20	51.37	-52.5	-56.8	3.7	0.00e+00	0	51	104	0	75	25187
2026-01-18 07:33:06.09	55.96	51.21	-52.6	-57.1	3.7	0.00e+00	0	51	104	0	75	26186
2026-01-18 07:33:06.94	55.04	51.09	-52.6	-57.2	3.7	0.00e+00	0	51	104	0	75	26278
2026-01-18 07:33:08.08	53.82	50.92	-52.7	-57.1	3.7	0.00e+00	0	51	104	0	75	26001
2026-01-18 07:33:09.32	52.51	50.71	-52.5	-56.8	3.7	0.00e+00	0	51	104	0	75	25135
2026-01-18 07:33:10.18	51.61	50.57	-52.4	-56.9	3.7	0.00e+00	0	51	104	0	75	25464
2026-01-18 07:33:11.31	50.45	50.36	-52.3	-56.8	3.7	0.00e+00	0	51	104	0	75	25235
2026-01-18 07:33:12.17	49.57	50.19	-52.3	-56.8	3.7	0.00e+00	0	51	104	0	75	25183
2026-01-18 07:33:13.30	48.44	49.97	-52.5	-57.1	3.7	0.00e+00	0	51	104	0	75	26131
2026-01-18 07:33:14.16	47.58	49.79	-52.5	-57.0	3.7	0.00e+00	0	51	104	0	75	25784
2026-01-18 07:33:15.29	46.48	49.55	-52.2	-56.9	3.7	0.00e+00	0	51	104	0	75	25423
2026-01-18 07:33:16.14	45.66	49.36	-52.2	-56.8	3.7	0.00e+00	0	51	104	0	75	25352
2026-01-18 07:33:17.39	44.48	49.07	-52.2	-56.8	3.7	0.00e+00	0	51	104	0	75	25169
2026-01-18 07:33:18.24	43.68	48.87	-52.1	-56.4	3.7	0.00e+00	0	51	104	0	75	24107
2026-01-18 07:33:19.38	42.64	48.59	-52.0	-56.6	3.7	0.00e+00	0	51	104	0	75	24740
2026-01-18 07:33:20.23	41.87	48.38	-52.1	-56.8	3.7	0.00e+00	0	51	104	0	75	25327
2026-01-18 07:33:21.51	40.74	48.05	-51.9	-56.4	3.7	0.00e+00	0	51	104	0	75	24140
2026-01-18 07:33:22.24	40.10	47.86	-52.0	-56.4	3.7	0.00e+00	0	51	104	0	75	23972
2026-01-18 07:33:23.52	39.01	47.52	-52.3	-56.6	3.7	0.00e+00	0	51	104	0	75	24682
2026-01-18 07:33:24.24	38.40	47.33	-52.3	-56.6	3.7	0.00e+00	0	51	104	0	75	24744
2026-01-18 07:33:25.74	37.17	46.92	-52.3	-56.8	3.7	0.00e+00	0	51	104	0	75	25148
2026-01-18 07:33:26.45	36.59	46.72	-52.1	-56.5	3.7	0.00e+00	0	51	104	0	75	24485
2026-01-18 07:33:27.73	35.58	46.35	-51.9	-56.5	3.7	0.00e+00	0	51	104	0	75	24514
2026-01-18 07:33:28.46	35.01	46.15	-51.5	-55.7	3.7	0.00e+00	0	51	104	0	75	22228
2026-01-18 07:33:29.74	34.04	45.77	-51.2	-55.1	3.7	0.00e+00	0	51	104	0	74	22003
2026-01-18 07:33:30.46	33.50	45.56	-51.2	-55.1	3.7	0.00e+00	0	51	104	0	74	22010
2026-01-18 07:33:31.74	32.56	45.18	-51.5	-55.3	3.7	0.00e+00	0	51	104	0	74	22579
2026-01-18 07:33:32.45	32.05	44.97	-51.1	-54.7	3.7	0.00e+00	0	51	104	0	74	20895
2026-01-18 07:33:33.73	31.14	44.59	-50.5	-54.3	3.7	0.00e+00	0	51	104	0	73	21339
2026-01-18 07:33:34.44	30.65	44.37	-50.4	-54.7	3.7	0.00e+00	0	51	104	0	72	23685
2026-01-18 07:33:35.72	29.78	43.98	-50.0	-54.6	3.7	0.00e+00	0	51	104	0	71	24693
2026-01-18 07:33:36.59	29.21	43.72	-49.9	-54.5	3.7	0.00e+00	0	51	104	0	71	24359
2026-01-18 07:33:38.02	28.28	43.28	-50.3	-55.0	3.7	0.00e+00	0	51	104	0	71	25822
2026-01-18 07:33:38.73	27.83	43.06	-50.5	-55.0	3.7	0.00e+00	0	51	104	0	71	25877
2026-01-18 07:33:40.22	26.90	42.60	-50.5	-55.0	3.7	0.00e+00	0	51	104	0	71	25773
2026-01-18 07:33:40.93	26.47	42.37	-50.8	-55.4	3.7	0.00e+00	0	51	104	0	72	25658
2026-01-18 07:33:42.27	25.68	41.96	-51.5	-55.6	3.7	0.00e+00	0	51	104	0	73	24585
2026-01-18 07:33:42.98	25.26	41.74	-52.1	-56.3	3.7	0.00e+00	0	51	104	0	74	25273
2026-01-18 07:33:44.26	24.53	41.34	-52.0	-56.3	3.7	0.00e+00	0	51	104	0	74	25113
2026-01-18 07:33:44.97	24.13	41.12	-52.3	-56.6	3.7	0.00e+00	0	51	104	0	75	24781
2026-01-18 07:33:46.25	23.43	40.72	-52.2	-56.6	3.7	0.00e+00	0	51	104	0	75	24668
2026-01-18 07:33:46.96	23.05	40.50	-52.3	-56.8	3.7	0.00e+00	0	51	104	0	75	25228
2026-01-18 07:33:48.24	22.38	40.10	-52.4	-56.7	3.7	0.00e+00	0	51	104	0	75	25040
2026-01-18 07:33:48.95	22.01	39.88	-52.2	-56.7	3.7	0.00e+00	0	51	104	0	75	25007
2026-01-18 07:33:50.23	21.36	39.49	-51.6	-56.3	3.7	0.00e+00	0	51	104	0	75	23699
2026-01-18 07:33:50.95	21.00	39.26	-51.9	-56.4	3.7	0.00e+00	0	51	104	0	75	24002
2026-01-18 07:33:52.23	20.38	38.87	-51.8	-56.4	3.7	0.00e+00	0	51	104	0	75	24120
2026-01-18 07:33:53.01	20.01	38.63	-51.9	-56.5	3.7	0.00e+00	0	51	104	0	75	24480
2026-01-18 07:33:54.29	19.41	38.24	-51.7	-56.5	3.7	0.00e+00	0	51	104	0	75	24472
2026-01-18 07:33:55.00	19.09	38.02	-51.6	-56.6	3.7	0.00e+00	0	51	104	0	75	24616
2026-01-18 07:33:56.27	18.52	37.64	-51.7	-56.6	3.7	0.00e+00	0	51	104	0	75	24556
2026-01-18 07:33:56.98	18.21	37.43	-51.6	-56.5	3.7	0.00e+00	0	51	104	0	75	24351
2026-01-18 07:33:58.26	17.66	37.04	-51.3	-56.0	3.7	0.00e+00	0	51	104	0	74	24356
2026-01-18 07:33:58.98	17.35	36.83	-51.4	-56.3	3.7	0.00e+00	0	51	104	0	74	25115
2026-01-18 07:34:00.25	16.82	36.45	-51.3	-56.1	3.7	0.00e+00	0	51	104	0	74	24571
2026-01-18 07:34:00.97	16.53	36.23	-51.5	-56.5	3.7	0.00e+00	0	51	104	0	74	25736
2026-01-18 07:34:02.25	16.02	35.86	-51.7	-56.6	3.7	0.00e+00	0	51	104	0	74	26023
2026-01-18 07:34:02.97	15.74	35.65	-51.7	-56.5	3.7	0.00e+00	0	51	104	0	74	25924
2026-01-18 07:34:04.25	15.25	35.27	-51.7	-56.5	3.7	0.00e+00	0	51	104	0	74	25920
2026-01-18 07:34:04.96	14.98	35.07	-51.8	-56.6	3.7	0.00e+00	0	51	104	0	74	26065
2026-01-18 07:34:06.25	14.50	34.70	-52.0	-56.7	3.7	0.00e+00	0	51	104	0	74	26280
2026-01-18 07:34:06.96	14.25	34.50	-52.0	-56.6	3.7	0.00e+00	0	51	104	0	74	26013
2026-01-18 07:34:08.23	13.79	34.13	-52.1	-56.6	3.7	0.00e+00	0	51	104	0	74	26044
2026-01-18 07:34:08.96	13.54	33.93	-51.9	-56.5	3.7	0.00e+00	0	51	104	0	74	25724
2026-01-18 07:34:10.24	13.10	33.57	-52.1	-56.4	3.7	0.00e+00	0	51	104	0	74	25545
2026-01-18 07:34:10.97	12.85	33.37	-51.8	-56.3	3.7	0.00e+00	0	51	104	0	74	25372
2026-01-18 07:34:12.24	12.44	33.02	-51.6	-56.4	3.7	0.00e+00	0	51	104	0	74	25437
2026-01-18 07:34:13.20	12.12	32.75	-51.6	-56.3	3.7	0.00e+00	0	51	104	0	74	25340
2026-01-18 07:34:14.20	11.81	32.48	-51.4	-56.2	3.7	0.00e+00	0	51	104	0	74	25034
2026-01-18 07:34:15.19	11.50	32.21	-51.0	-55.9	3.7	0.00e+00	0	51	104	0	74	24207
2026-01-18 07:34:16.19	11.19	31.95	-51.2	-56.2	3.7	0.00e+00	0	51	104	0	74	24873
2026-01-18 07:34:17.18	10.89	31.68	-51.1	-56.1	3.7	0.00e+00	0	51	104	0	74	24749
2026-01-18 07:34:18.18	10.60	31.42	-51.6	-56.5	3.7	0.00e+00	0	51	104	0	74	25958
2026-01-18 07:34:19.17	10.31	31.16	-51.5	-55.9	3.7	0.00e+00	0	51	104	0	74	23990
2026-01-18 07:34:20.16	10.03	30.90	-51.8	-56.0	3.7	0.00e+00	0	51	104	0	74	24388
2026-01-18 07:34:21.19	9.74	30.63	-51.6	-55.9	3.7	0.00e+00	0	51	104	0	74	24201
2026-01-18 07:34:22.19	9.46	30.38	-51.8	-55.9	3.7	0.00e+00	0	51	104	0	74	24226
2026-01-18 07:34:23.24	9.18	30.11	-51.6	-55.8	3.7	0.00e+00	0	51	104	0	74	23838
2026-01-18 07:34:24.14	8.94	29.88	-51.2	-55.7	3.7	0.00e+00	0	51	104	0	74	23536
2026-01-18 07:34:25.41	8.61	29.57	-50.8	-55.3	3.7	0.00e+00	0	51	104	0	73	23942
2026-01-18 07:34:26.18	8.41	29.38	-50.7	-55.3	3.7	0.00e+00	0	51	104	0	73	23787
2026-01-18 07:34:27.63	8.04	29.02	-51.3	-56.2	3.7	0.00e+00	0	51	104	0	73	26353
2026-01-18 07:34:28.35	7.86	28.84	-51.5	-56.4	3.7	0.00e+00	0	51	104	0	73	26980
2026-01-18 07:34:29.62	7.55	28.54	-51.5	-56.1	3.7	0.00e+00	0	51	104	0	73	26000
2026-01-18 07:34:30.70	7.30	28.28	-51.6	-56.1	3.7	0.00e+00	0	51	104	0	73	26276
2026-01-18 07:34:31.82	7.03	28.01	-51.7	-56.2	3.7	0.00e+00	0	51	104	0	73	26421
2026-01-18 07:34:32.67	6.84	27.81	-51.8	-56.4	3.7	0.00e+00	0	51	104	0	74	25550
2026-01-18 07:34:33.81	6.58	27.55	-52.0	-56.6	3.7	0.00e+00	0	51	104	0	74	26033
2026-01-18 07:34:34.66	6.39	27.35	-52.1	-56.7	3.7	0.00e+00	0	51	104	0	74	26495
2026-01-18 07:34:35.80	6.14	27.09	-52.0	-56.7	3.7	0.00e+00	0	51	104	0	74	26562
2026-01-18 07:34:36.65	5.96	26.90	-52.0	-56.8	3.7	0.00e+00	0	51	104	0	74	26706
2026-01-18 07:34:37.79	5.71	26.64	-52.0	-56.8	3.7	0.00e+00	0	51	104	0	74	26747
2026-01-18 07:34:38.64	5.53	26.45	-52.1	-56.8	3.7	0.00e+00	0	51	104	0	74	26751
2026-01-18 07:34:39.78	5.30	26.20	-52.0	-56.8	3.7	0.00e+00	0	51	104	0	74	26777
2026-01-18 07:34:40.63	5.13	26.01	-52.3	-56.9	3.7	0.00e+00	0	51	104	0	75	25471
2026-01-18 07:34:41.77	4.90	25.76	-51.6	-56.5	3.7	0.00e+00	0	51	104	0	75	24455
2026-01-18 07:34:42.62	4.73	25.58	-52.0	-56.7	3.7	0.00e+00	0	51	104	0	74	26475
2026-01-18 07:34:43.98	4.47	25.29	-51.6	-56.4	3.7	0.00e+00	0	51	104	0	75	24180
2026-01-18 07:34:44.69	4.33	25.13	-51.3	-56.4	3.7	0.00e+00	0	51	104	0	74	25465
2026-01-18 07:34:45.97	4.09	24.86	-51.6	-56.5	3.7	0.00e+00	0	51	104	0	74	25790
2026-01-18 07:34:46.68	3.96	24.72	-51.5	-56.4	3.7	0.00e+00	0	51	104	0	74	25611
2026-01-18 07:34:47.96	3.73	24.45	-51.6	-56.4	3.7	0.00e+00	0	51	104	0	74	25552
2026-01-18 07:34:48.68	3.60	24.30	-51.4	-56.2	3.7	0.00e+00	0	51	104	0	74	25043
2026-01-18 07:34:49.96	3.37	24.04	-51.0	-56.1	3.7	0.00e+00	0	51	104	0	74	24614
2026-01-18 07:34:50.69	3.25	23.89	-51.2	-56.2	3.7	0.00e+00	0	51	104	0	74	24906
2026-01-18 07:34:51.97	3.03	23.64	-50.9	-55.9	3.7	0.00e+00	0	51	104	0	73	25637
2026-01-18 07:34:52.68	2.91	23.50	-51.2	-56.1	3.7	0.00e+00	0	51	104	0	73	26201
2026-01-18 07:34:53.96	2.69	23.24	-51.5	-56.3	3.7	0.00e+00	0	51	104	0	73	26617
2026-01-18 07:34:54.67	2.58	23.11	-51.4	-56.3	3.7	0.00e+00	0	51	104	0	73	26669
2026-01-18 07:34:55.94	2.37	22.86	-51.4	-56.3	3.7	0.00e+00	0	51	104	0	73	26702
2026-01-18 07:34:56.66	2.25	22.72	-51.3	-56.0	3.7	0.00e+00	0	51	104	0	73	25791
2026-01-18 07:34:58.01	2.04	22.46	-50.0	-55.1	3.7	0.00e+00	0	51	104	0	71	26032
2026-01-18 07:34:58.73	1.93	22.33	-50.5	-55.5	3.7	0.00e+00	0	51	104	0	71	27403
2026-01-18 07:35:00.03	1.73	22.08	-50.7	-55.5	3.7	0.00e+00	0	51	104	0	71	27501
2026-01-18 07:35:00.74	1.62	21.95	-50.9	-55.7	3.7	0.00e+00	0	51	104	0	72	26447
2026-01-18 07:35:02.07	1.43	21.70	-51.4	-56.1	3.7	0.00e+00	0	51	104	0	73	26029
2026-01-18 07:35:02.78	1.32	21.57	-51.4	-56.1	3.7	0.00e+00	0	51	104	0	73	25990
2026-01-18 07:35:04.12	1.13	21.33	-51.0	-55.8	3.7	0.00e+00	0	51	104	0	73	25209
2026-01-18 07:35:04.83	1.03	21.20	-51.1	-55.9	3.7	0.00e+00	0	51	104	0	73	25609
2026-01-18 07:35:06.15	0.84	20.97	-51.3	-55.9	3.6	0.00e+00	0	51	104	0	73	25658
2026-01-18 07:35:06.86	0.74	20.84	-50.4	-55.4	3.7	0.00e+00	0	51	104	0	72	25387
2026-01-18 07:35:08.14	0.57	20.62	-51.0	-55.6	3.7	0.00e+00	0	51	104	0	72	26224
2026-01-18 07:35:08.85	0.47	20.49	-50.5	-55.3	3.7	0.00e+00	0	51	104	0	72	25328
2026-01-18 07:35:10.13	0.30	20.27	-51.5	-56.1	3.7	0.00e+00	0	51	104	0	73	26103
2026-01-18 07:35:10.84	0.21	20.15	-51.2	-55.8	3.7	0.00e+00	0	51	104	0	73	25235
2026-01-18 07:35:12.12	0.04	19.93	-50.8	-55.6	3.7	0.00e+00	0	51	104	0	73	24677
2026-01-18 07:35:12.85	359.95	19.81	-51.3	-55.6	3.7	0.00e+00	0	51	104	0	73	24755
2026-01-18 07:35:14.12	359.79	19.60	-50.4	-55.5	3.7	0.00e+00	0	51	104	0	72	25846
2026-01-18 07:35:14.85	359.70	19.48	-50.5	-55.4	3.7	0.00e+00	0	51	104	0	72	25497
2026-01-18 07:35:16.13	359.54	19.26	-50.8	-55.5	3.7	0.00e+00	0	51	104	0	72	25874
2026-01-18 07:35:16.90	359.45	19.14	-50.2	-55.0	3.7	0.00e+00	0	51	104	0	72	24503
2026-01-18 07:35:18.18	359.29	18.93	-51.5	-56.2	3.7	0.00e+00	0	51	104	0	73	26566
2026-01-18 07:35:18.89	359.21	18.82	-51.2	-56.1	3.7	0.00e+00	0	51	104	0	74	24528
2026-01-18 07:35:20.17	359.06	18.61	-51.2	-56.0	3.7	0.00e+00	0	51	104	0	74	24448
2026-01-18 07:35:21.05	358.96	18.47	-51.3	-56.1	3.7	0.00e+00	0	51	104	0	74	24606
2026-01-18 07:35:22.19	358.83	18.29	-50.4	-55.6	3.7	0.00e+00	0	51	104	0	72	26024
2026-01-18 07:35:23.04	358.73	18.16	-49.9	-55.4	3.7	0.00e+00	0	51	104	0	71	26897
2026-01-18 07:35:24.18	358.60	17.98	-50.1	-55.6	3.7	0.00e+00	0	51	104	0	71	27579
2026-01-18 07:35:25.03	358.51	17.85	-50.4	-55.8	3.7	0.00e+00	0	51	104	0	71	28314
2026-01-18 07:35:26.17	358.39	17.68	-50.7	-56.1	3.7	0.00e+00	0	51	104	0	72	27624
2026-01-18 07:35:27.02	358.30	17.55	-50.0	-55.3	3.7	0.00e+00	0	51	104	0	71	26878
2026-01-18 07:35:28.16	358.18	17.38	-51.3	-56.3	3.7	0.00e+00	0	51	104	0	73	26613
2026-01-18 07:35:29.02	358.09	17.25	-49.8	-55.3	3.7	0.00e+00	0	51	104	0	71	26722
2026-01-18 07:35:30.15	357.97	17.08	-50.2	-55.6	3.7	0.00e+00	0	51	104	0	71	27633
2026-01-18 07:35:31.01	357.88	16.95	-50.2	-55.6	3.7	0.00e+00	0	51	104	0	71	27574
2026-01-18 07:35:32.15	357.77	16.79	-50.2	-55.5	3.7	0.00e+00	0	51	104	0	71	27496
2026-01-18 07:35:33.01	357.68	16.66	-50.6	-55.9	3.7	0.00e+00	0	51	104	0	71	28527
2026-01-18 07:35:34.15	357.57	16.50	-51.1	-56.2	3.7	0.00e+00	0	51	104	0	72	27872
2026-01-18 07:35:35.00	357.48	16.38	-49.7	-55.1	3.7	0.00e+00	0	51	104	0	71	26202
2026-01-18 07:35:36.14	357.37	16.21	-50.8	-56.1	3.7	0.00e+00	0	51	104	0	72	27632
2026-01-18 07:35:37.15	357.28	16.07	-49.6	-55.2	3.7	0.00e+00	0	51	104	0	71	26324
2026-01-18 07:35:38.15	357.18	15.93	-50.9	-56.1	3.7	0.00e+00	0	51	104	0	72	27759
2026-01-18 07:35:39.14	357.09	15.79	-50.7	-56.0	3.7	0.00e+00	0	51	104	0	72	27299
2026-01-18 07:35:40.14	357.00	15.65	-50.9	-56.2	3.7	0.00e+00	0	51	104	0	72	28055
2026-01-18 07:35:41.14	356.91	15.52	-50.7	-56.1	3.7	0.00e+00	0	51	104	0	72	27728
2026-01-18 07:35:42.14	356.82	15.38	-50.9	-56.2	3.7	0.00e+00	0	51	104	0	72	28049
2026-01-18 07:35:43.46	356.70	15.20	-51.1	-56.3	3.7	0.00e+00	0	51	104	0	72	28225
2026-01-18 07:35:44.20	356.64	15.10	-50.8	-56.1	3.7	0.00e+00	0	51	104	0	72	27719
2026-01-18 07:35:45.48	356.53	14.93	-51.7	-56.7	3.7	0.00e+00	0	51	104	0	74	26282
2026-01-18 07:35:46.30	356.45	14.82	-51.7	-56.6	3.7	0.00e+00	0	51	104	0	74	26233
2026-01-18 07:35:47.44	356.36	14.67	-50.5	-56.0	3.7	0.00e+00	0	51	104	0	73	25783
2026-01-18 07:35:48.29	356.29	14.56	-50.8	-56.1	3.7	0.00e+00	0	51	104	0	73	26270
2026-01-18 07:35:49.43	356.19	14.42	-51.3	-56.4	3.7	0.00e+00	0	51	104	0	73	27172
2026-01-18 07:35:50.28	356.12	14.31	-51.6	-56.6	3.7	0.00e+00	0	51	104	0	73	27562
2026-01-18 07:35:51.42	356.03	14.16	-51.6	-56.6	3.7	0.00e+00	0	51	104	0	73	27747
2026-01-18 07:35:52.27	355.96	14.05	-51.6	-56.6	3.7	0.00e+00	0	51	104	0	73	27616
2026-01-18 07:35:53.41	355.87	13.91	-50.7	-56.0	3.7	0.00e+00	0	51	104	0	73	25826
2026-01-18 07:35:54.26	355.80	13.80	-51.6	-56.2	3.7	0.00e+00	0	51	104	0	73	26552
2026-01-18 07:35:55.48	355.71	13.65	-51.1	-56.0	3.7	0.00e+00	0	51	104	0	72	27415
2026-01-18 07:35:56.33	355.64	13.54	-51.4	-56.3	3.7	0.00e+00	0	51	104	0	74	25157
2026-01-18 07:35:57.47	355.56	13.40	-51.7	-56.4	3.7	0.00e+00	0	51	104	0	74	25444
2026-01-18 07:35:58.33	355.49	13.30	-51.5	-56.3	3.7	0.00e+00	0	51	104	0	74	25105
2026-01-18 07:35:59.46	355.41	13.16	-50.8	-55.8	3.7	0.00e+00	0	51	104	0	73	25343
2026-01-18 07:36:00.32	355.34	13.06	-50.8	-55.9	3.7	0.00e+00	0	51	104	0	73	25475
2026-01-18 07:36:01.45	355.26	12.92	-51.0	-56.0	3.7	0.00e+00	0	51	104	0	73	25971
2026-01-18 07:36:02.40	355.19	12.81	-50.4	-55.8	3.7	0.00e+00	0	51	104	0	71	28464
2026-01-18 07:36:03.40	355.12	12.69	-50.2	-56.0	3.7	0.00e+00	0	51	104	0	72	27372
2026-01-18 07:36:04.39	355.05	12.57	-47.5	-53.9	3.7	0.00e+00	0	51	104	0	66	30206
2026-01-18 07:36:05.39	354.98	12.45	-48.5	-54.6	3.7	0.00e+00	0	51	104	0	69	27742
2026-01-18 07:36:06.38	354.91	12.34	-47.6	-54.0	3.7	0.00e+00	0	51	104	0	67	28966
2026-01-18 07:36:07.37	354.84	12.22	-47.6	-54.0	3.7	0.00e+00	0	51	104	0	67	29020
2026-01-18 07:36:08.37	354.78	12.11	-47.8	-54.2	3.7	0.00e+00	0	51	104	0	67	29734
2026-01-18 07:36:09.37	354.71	11.99	-47.9	-54.3	3.7	0.00e+00	0	51	104	0	67	29997
2026-01-18 07:36:10.36	354.64	11.88	-48.0	-54.3	3.7	0.00e+00	0	51	104	0	67	30044
2026-01-18 07:36:11.35	354.58	11.77	-48.2	-54.5	3.7	0.00e+00	0	51	104	0	67	30716
2026-01-18 07:36:12.35	354.51	11.66	-47.7	-54.2	3.7	0.00e+00	0	51	104	0	67	29534
2026-01-18 07:36:13.35	354.45	11.55	-48.5	-54.5	3.7	0.00e+00	0	51	104	0	67	30686
2026-01-18 07:36:14.34	354.38	11.44	-47.7	-54.0	3.7	0.00e+00	0	51	104	0	67	29082
2026-01-18 07:36:15.33	354.32	11.33	-48.3	-54.4	3.7	0.00e+00	0	51	104	0	67	30425
2026-01-18 07:36:16.39	354.25	11.21	-48.5	-54.5	3.7	0.00e+00	0	51	104	0	67	30666
2026-01-18 07:36:17.26	354.20	11.11	-48.4	-54.4	3.7	0.00e+00	0	51	104	0	67	30489
2026-01-18 07:36:18.55	354.12	10.97	-48.2	-54.2	3.7	0.00e+00	0	51	104	0	67	29643
2026-01-18 07:36:19.26	354.08	10.90	-48.0	-54.0	3.7	0.00e+00	0	51	104	0	67	29083
2026-01-18 07:36:20.76	353.99	10.74	-44.4	-51.2	4.0	0.00e+00	0	51	104	0	60	31329
2026-01-18 07:36:21.73	353.93	10.63	-45.3	-52.1	3.9	0.00e+00	0	51	104	0	61	32711
2026-01-18 07:36:22.72	353.87	10.53	-44.0	-50.9	4.1	0.00e+00	0	51	104	0	60	30410
2026-01-18 07:36:23.72	353.81	10.42	-44.2	-51.1	4.0	0.00e+00	0	51	104	0	60	31080
2026-01-18 07:36:24.71	353.75	10.32	-44.8	-51.6	4.0	0.00e+00	0	51	104	0	60	32924
2026-01-18 07:36:25.71	353.70	10.22	-45.4	-52.1	3.9	0.00e+00	0	51	104	0	61	32965
2026-01-18 07:36:26.70	353.64	10.11	-45.7	-52.3	3.9	0.00e+00	0	51	104	0	62	31912
2026-01-18 07:36:27.70	353.58	10.01	-45.7	-52.3	3.8	0.00e+00	0	51	104	0	62	31706
2026-01-18 07:36:28.74	353.53	9.90	-45.3	-51.8	3.9	0.00e+00	0	51	104	0	62	30064
2026-01-18 07:36:29.73	353.47	9.80	-45.5	-52.1	3.9	0.00e+00	0	51	104	0	62	31141
2026-01-18 07:36:30.73	353.42	9.70	-43.9	-50.7	4.1	0.00e+00	0	51	104	0	59	31291
2026-01-18 07:36:31.72	353.36	9.60	-44.8	-51.5	4.0	0.00e+00	0	51	104	0	60	32359
2026-01-18 07:36:32.84	353.30	9.49	-43.8	-50.6	4.1	0.00e+00	0	51	104	0	59	31115
2026-01-18 07:36:33.73	353.25	9.40	-44.1	-50.8	4.1	0.00e+00	0	51	104	0	59	31870
2026-01-18 07:36:34.86	353.19	9.29	-44.4	-51.2	4.0	0.00e+00	0	51	104	0	59	33198
2026-01-18 07:36:35.72	353.15	9.20	-45.2	-51.8	3.9	0.00e+00	0	51	104	0	60	33666
2026-01-18 07:36:36.85	353.09	9.09	-45.6	-52.1	3.9	0.00e+00	0	51	104	0	62	31164
2026-01-18 07:36:37.71	353.05	9.01	-44.0	-50.8	4.1	0.00e+00	0	51	104	0	59	31603
2026-01-18 07:36:38.84	352.99	8.90	-47.2	-53.9	3.7	0.00e+00	0	51	104	0	66	30208
2026-01-18 07:36:39.69	352.95	8.81	-50.6	-56.2	3.7	0.00e+00	0	51	104	0	72	28109
2026-01-18 07:36:40.83	352.89	8.70	-50.7	-56.0	3.7	0.00e+00	0	51	104	0	72	27304
2026-01-18 07:36:41.68	352.85	8.62	-51.7	-56.7	3.7	0.00e+00	0	51	104	0	74	26378
2026-01-18 07:36:42.82	352.79	8.51	-50.6	-55.8	3.7	0.00e+00	0	51	104	0	72	26587
2026-01-18 07:36:43.67	352.75	8.43	-51.4	-56.0	3.7	0.00e+00	0	51	104	0	74	24399
2026-01-18 07:36:44.80	352.69	8.33	-51.6	-56.6	3.7	0.00e+00	0	51	104	0	75	24569
2026-01-18 07:36:45.65	352.65	8.25	-51.9	-56.6	3.7	0.00e+00	0	51	104	0	75	24599
2026-01-18 07:36:46.79	352.60	8.14	-52.0	-56.8	3.7	0.00e+00	0	51	104	0	75	25264
2026-01-18 07:36:47.64	352.56	8.06	-50.6	-55.8	3.7	0.00e+00	0	51	104	0	73	25232
2026-01-18 07:36:48.77	352.51	7.96	-52.5	-57.2	3.7	0.00e+00	0	51	104	0	75	26277
2026-01-18 07:36:49.63	352.47	7.88	-52.2	-56.7	3.7	0.00e+00	0	51	104	0	75	25039
2026-01-18 07:36:50.76	352.41	7.77	-52.2	-56.8	3.7	0.00e+00	0	51	104	0	75	25288
2026-01-18 07:36:51.61	352.38	7.69	-52.5	-57.1	3.7	0.00e+00	0	51	104	0	75	26218
2026-01-18 07:36:52.75	352.32	7.59	-52.5	-57.0	3.7	0.00e+00	0	51	104	0	76	24365
2026-01-18 07:36:53.60	352.29	7.51	-52.4	-56.9	3.7	0.00e+00	0	51	104	0	76	24130
2026-01-18 07:36:54.73	352.24	7.41	-52.3	-57.0	3.7	0.00e+00	0	51	104	0	76	24359
2026-01-18 07:36:55.59	352.20	7.33	-52.1	-56.9	3.7	0.00e+00	0	51	104	0	75	25437
2026-01-18 07:36:56.72	352.15	7.23	-51.8	-56.8	3.7	0.00e+00	0	51	104	0	75	25253
2026-01-18 07:36:57.57	352.11	7.16	-51.8	-56.7	3.7	0.00e+00	0	51	104	0	75	24923
2026-01-18 07:36:58.71	352.06	7.06	-52.5	-57.2	3.7	0.00e+00	0	51	104	0	75	26392
2026-01-18 07:36:59.56	352.03	6.98	-52.8	-57.4	3.7	0.00e+00	0	51	104	0	76	25427
2026-01-18 07:37:00.70	351.98	6.88	-52.6	-57.2	3.7	0.00e+00	0	51	104	0	76	24999
2026-01-18 07:37:01.55	351.94	6.81	-52.7	-57.2	3.7	0.00e+00	0	51	104	0	76	24948
2026-01-18 07:37:02.68	351.90	6.71	-52.4	-57.1	3.6	0.00e+00	0	51	104	0	76	24560
2026-01-18 07:37:03.53	351.86	6.64	-52.4	-56.8	3.7	0.00e+00	0	51	104	0	76	23803
2026-01-18 07:37:04.67	351.82	6.54	-51.9	-56.5	3.7	0.00e+00	0	51	104	0	75	24488
2026-01-18 07:37:05.52	351.78	6.47	-51.6	-56.1	3.7	0.00e+00	0	51	104	0	74	24535
2026-01-18 07:37:06.66	351.74	6.37	-51.6	-56.0	3.7	0.00e+00	0	51	104	0	74	24481
2026-01-18 07:37:07.51	351.70	6.30	-51.5	-56.0	3.7	0.00e+00	0	51	104	0	74	24415
2026-01-18 07:37:08.64	351.66	6.20	-51.5	-56.0	3.7	0.00e+00	0	51	104	0	74	24413
2026-01-18 07:37:09.50	351.62	6.13	-51.5	-56.0	3.7	0.00e+00	0	51	104	0	74	24462
2026-01-18 07:37:10.63	351.58	6.03	-51.5	-56.0	3.7	0.00e+00	0	51	104	0	74	24424
2026-01-18 07:37:11.48	351.55	5.96	-51.5	-56.0	3.7	0.00e+00	0	51	104	0	74	24424
2026-01-18 07:37:12.62	351.50	5.87	-51.5	-56.0	3.7	0.00e+00	0	51	104	0	74	24390
2026-01-18 07:37:13.47	351.47	5.80	-51.5	-56.0	3.7	0.00e+00	0	51	104	0	74	24373
2026-01-18 07:37:14.60	351.43	5.70	-51.5	-56.0	3.7	0.00e+00	0	51	104	0	74	24356
2026-01-18 07:37:15.45	351.40	5.63	-51.5	-56.0	3.7	0.00e+00	0	51	104	0	74	24318
2026-01-18 07:37:16.59	351.35	5.54	-51.5	-56.0	3.7	0.00e+00	0	51	104	0	74	24441
2026-01-18 07:37:17.44	351.32	5.47	-51.5	-56.0	3.7	0.00e+00	0	51	104	0	74	24301
2026-01-18 07:37:18.58	351.28	5.38	-51.5	-56.0	3.7	0.00e+00	0	51	104	0	74	24449
2026-01-18 07:37:19.43	351.25	5.31	-51.5	-56.0	3.7	0.00e+00	0	51	104	0	74	24388
2026-01-18 07:37:20.56	351.21	5.22	-51.5	-56.0	3.7	0.00e+00	0	51	104	0	74	24292
2026-01-18 07:37:21.41	351.18	5.15	-51.5	-56.0	3.7	0.00e+00	0	51	104	0	74	24337
2026-01-18 07:37:22.55	351.14	5.06	-51.5	-56.0	3.7	0.00e+00	0	51	104	0	74	24515
2026-01-18 07:37:23.40	351.11	4.99	-51.5	-56.0	3.7	0.00e+00	0	51	104	0	74	24392
2026-01-18 07:37:24.54	351.07	4.90	-51.5	-56.0	3.7	0.00e+00	0	51	104	0	74	24391

#Closed at: 2026-01-18 07:37:25
#Recorded file [0 MB]: D:/Data/31040_260118_102828.dat