passes_logs/2026/01/18/T1/T1__20260118_080155_NOAA_21_JPSS-2_rec.log

#Pass ID: 20260118_080155_NOAA 21 (JPSS-2)
#Satellite: NOAA 21 (JPSS-2)
#Configuration: NOAA 21
#almurnet v.1.7.20251203
#Start time: 2026-01-18 08:01:56

#Version: 2.0.20230620
#Station: T1
#Location: 37.570604 lon 55.790049 lat
#TLE: 1 54234U 22150A   26017.62066529  .00000042  00000+0  40984-4 0  9994
#TLE: 2 54234  98.7502 318.4887 0000613 271.5460  88.5645 14.19535234165189

#Time	Az	El	Level	Level2	SNR	BER	BlckErr	Temp	State	Recorded	gain1	gain2
2026-01-18 08:01:56.12	99.66	5.04	-48.1	-61.2	3.8	1.49e+00	0	41	0	0	68	15734
2026-01-18 08:01:57.11	99.57	5.09	-48.1	-61.1	3.8	1.49e+00	0	41	104	0	68	15577
2026-01-18 08:01:58.10	99.47	5.15	-48.1	-61.2	3.8	1.49e+00	0	41	104	0	68	15662
2026-01-18 08:01:59.10	99.38	5.21	-48.1	-61.2	3.8	1.49e+00	0	41	104	0	68	15597
2026-01-18 08:02:00.09	99.29	5.26	-48.1	-61.1	3.8	1.49e+00	0	41	104	0	68	15537
2026-01-18 08:02:01.08	99.19	5.32	-48.1	-61.2	3.8	1.49e+00	0	41	104	0	68	15602
2026-01-18 08:02:02.07	99.10	5.37	-48.1	-61.2	3.8	1.49e+00	0	41	104	0	68	15613
2026-01-18 08:02:03.07	99.00	5.43	-48.1	-61.2	3.8	1.49e+00	0	41	104	0	68	15607
2026-01-18 08:02:04.06	98.91	5.49	-48.1	-61.2	3.8	1.49e+00	0	42	104	0	68	15635
2026-01-18 08:02:05.05	98.81	5.54	-48.1	-61.2	3.8	1.49e+00	0	41	104	0	68	15646
2026-01-18 08:02:06.05	98.71	5.60	-48.1	-61.2	3.8	1.49e+00	0	41	104	0	68	15627
2026-01-18 08:02:07.04	98.62	5.66	-48.1	-61.2	3.8	1.49e+00	0	41	104	0	68	15690
2026-01-18 08:02:08.03	98.52	5.71	-48.1	-61.2	3.8	1.49e+00	0	42	104	0	68	15676
2026-01-18 08:02:09.03	98.42	5.77	-48.1	-61.2	3.8	1.49e+00	0	42	104	0	68	15634
2026-01-18 08:02:10.02	98.32	5.83	-48.1	-61.2	3.8	1.49e+00	0	41	104	0	68	15691
2026-01-18 08:02:11.01	98.23	5.88	-48.1	-61.2	3.8	1.49e+00	0	41	104	0	68	15636
2026-01-18 08:02:12.01	98.13	5.94	-48.1	-61.2	3.8	1.49e+00	0	42	104	0	68	15612
2026-01-18 08:02:13.00	98.03	6.00	-48.1	-61.2	3.8	1.49e+00	0	42	104	0	68	15656
2026-01-18 08:02:13.99	97.93	6.06	-48.1	-61.2	3.8	1.49e+00	0	42	104	0	68	15651
2026-01-18 08:02:14.99	97.83	6.11	-48.1	-61.2	3.8	1.49e+00	0	42	104	0	68	15613
2026-01-18 08:02:15.98	97.73	6.17	-48.1	-61.2	3.8	1.49e+00	0	42	104	0	68	15717
2026-01-18 08:02:16.97	97.63	6.23	-48.1	-61.2	3.8	1.49e+00	0	42	104	0	68	15644
2026-01-18 08:02:17.97	97.53	6.28	-48.1	-61.2	3.8	1.49e+00	0	42	104	0	68	15614
2026-01-18 08:02:18.96	97.43	6.34	-48.1	-61.2	3.8	1.49e+00	0	42	104	0	68	15638
2026-01-18 08:02:19.95	97.33	6.40	-48.1	-61.1	3.8	1.49e+00	0	42	104	0	68	15505
2026-01-18 08:02:20.94	97.22	6.46	-48.1	-61.1	3.8	1.49e+00	0	42	104	0	68	15483
2026-01-18 08:02:21.94	97.12	6.51	-48.1	-61.0	3.8	1.49e+00	0	42	104	0	68	15360
2026-01-18 08:02:22.93	97.02	6.57	-48.1	-61.0	3.8	1.49e+00	0	42	104	0	68	15272
2026-01-18 08:02:23.92	96.91	6.63	-48.0	-60.9	3.8	1.49e+00	0	42	104	0	68	15118
2026-01-18 08:02:24.92	96.81	6.69	-48.0	-60.8	3.8	1.49e+00	0	42	104	0	68	15050
2026-01-18 08:02:25.91	96.71	6.74	-48.0	-60.8	3.8	1.49e+00	0	42	104	0	68	15031
2026-01-18 08:02:26.90	96.60	6.80	-48.0	-60.9	3.8	1.49e+00	0	42	104	0	68	15138
2026-01-18 08:02:27.90	96.50	6.86	-48.0	-60.9	3.8	1.49e+00	0	42	104	0	68	15085
2026-01-18 08:02:28.89	96.39	6.92	-48.1	-60.9	3.8	1.49e+00	0	42	104	0	68	15209
2026-01-18 08:02:29.88	96.29	6.97	-48.1	-61.0	3.8	1.49e+00	0	42	104	0	68	15303
2026-01-18 08:02:30.87	96.18	7.03	-48.1	-61.0	3.8	1.49e+00	0	42	104	0	68	15244
2026-01-18 08:02:31.87	96.07	7.09	-48.1	-60.9	3.8	1.49e+00	0	42	104	0	68	15181
2026-01-18 08:02:32.86	95.97	7.15	-48.0	-60.8	3.8	1.49e+00	0	43	104	0	68	15005
2026-01-18 08:02:33.86	95.86	7.20	-48.0	-60.6	3.8	1.49e+00	0	42	104	0	68	14649
2026-01-18 08:02:34.85	95.75	7.26	-48.0	-60.5	3.8	1.49e+00	0	42	104	0	68	14389
2026-01-18 08:02:35.84	95.64	7.32	-48.0	-60.2	3.8	1.49e+00	0	42	104	0	68	14023
2026-01-18 08:02:36.83	95.53	7.38	-47.8	-59.9	3.8	1.49e+00	0	42	104	0	67	14352
2026-01-18 08:02:37.83	95.42	7.44	-47.8	-59.8	3.8	1.49e+00	0	42	104	0	67	14173
2026-01-18 08:02:38.82	95.31	7.49	-47.8	-59.9	3.8	1.49e+00	0	42	104	0	67	14265
2026-01-18 08:02:39.82	95.20	7.55	-47.8	-60.1	3.8	1.49e+00	0	42	104	0	67	14631
2026-01-18 08:02:40.81	95.09	7.61	-47.9	-60.3	3.8	1.49e+00	0	42	104	0	67	14960
2026-01-18 08:02:41.80	94.98	7.67	-47.9	-60.5	3.8	1.49e+00	0	42	104	0	67	15266
2026-01-18 08:02:42.80	94.87	7.73	-47.9	-60.6	3.8	1.49e+00	0	42	104	0	67	15433
2026-01-18 08:02:43.79	94.76	7.78	-47.9	-60.6	3.8	1.49e+00	0	42	104	0	67	15456
2026-01-18 08:02:44.78	94.64	7.84	-47.9	-60.4	3.8	1.49e+00	0	42	104	0	67	15067
2026-01-18 08:02:45.77	94.53	7.90	-47.8	-60.0	3.8	1.49e+00	0	42	104	0	67	14429
2026-01-18 08:02:46.77	94.42	7.96	-47.8	-59.4	3.8	1.49e+00	0	42	104	0	67	13463
2026-01-18 08:02:47.76	94.30	8.02	-47.7	-58.5	4.0	1.48e+00	0	43	104	0	67	12167
2026-01-18 08:02:48.75	94.19	8.08	-47.7	-58.8	3.8	1.48e+00	0	42	104	0	67	12634
2026-01-18 08:02:49.75	94.07	8.13	-47.7	-59.1	3.9	1.49e+00	0	42	104	0	67	13030
2026-01-18 08:02:50.74	93.96	8.19	-47.9	-60.3	3.8	1.49e+00	0	43	104	0	67	15037
2026-01-18 08:02:51.73	93.84	8.25	-47.9	-60.5	3.8	1.49e+00	0	42	104	0	67	15330
2026-01-18 08:02:52.73	93.73	8.31	-47.5	-57.3	3.9	1.46e+00	0	43	104	0	67	10607
2026-01-18 08:02:53.72	93.61	8.37	-46.5	-52.6	7.1	3.54e-01	0	43	0	0	65	6952
2026-01-18 08:02:54.71	93.49	8.43	-45.2	-49.4	10.4	1.47e-02	0	43	0	0	62	5706
2026-01-18 08:02:55.71	93.37	8.48	-43.7	-46.8	13.1	1.14e-04	0	43	0	0	59	5003
2026-01-18 08:02:56.70	93.26	8.54	-42.5	-45.1	14.8	0.00e+00	0	43	0	0	57	4618
2026-01-18 08:02:57.70	93.14	8.60	-41.4	-43.8	15.9	0.00e+00	0	43	0	0	54	4708
2026-01-18 08:02:58.69	93.02	8.66	-41.0	-43.2	16.5	0.00e+00	0	43	0	0	54	4418
2026-01-18 08:02:59.68	92.90	8.72	-41.1	-43.3	16.4	0.00e+00	0	43	0	0	53	4716
2026-01-18 08:03:00.67	92.78	8.78	-41.2	-43.5	16.2	0.00e+00	0	43	0	0	53	4833
2026-01-18 08:03:01.67	92.66	8.84	-41.9	-44.4	15.4	0.00e+00	0	42	0	0	54	5048
2026-01-18 08:03:02.66	92.54	8.89	-43.2	-46.0	14.0	0.00e+00	0	43	0	0	56	5415
2026-01-18 08:03:03.66	92.41	8.95	-44.3	-47.8	12.1	9.61e-05	0	43	0	0	59	5603
2026-01-18 08:03:04.65	92.29	9.01	-45.5	-50.0	9.9	3.85e-03	0	43	0	0	61	6440
2026-01-18 08:03:05.64	92.17	9.07	-46.5	-51.9	8.6	7.17e-05	0	43	0	0	63	7178
2026-01-18 08:03:06.64	92.05	9.13	-43.5	-46.4	13.5	5.51e-01	0	43	104	0	59	4794
2026-01-18 08:03:07.63	91.92	9.19	-46.7	-53.1	6.9	4.29e-02	0	43	0	0	64	7797
2026-01-18 08:03:08.63	91.80	9.25	-42.6	-45.2	14.4	1.46e+00	0	43	104	0	57	4676
2026-01-18 08:03:09.63	91.67	9.31	-45.6	-50.1	10.0	3.80e-06	0	43	0	0	61	6539
2026-01-18 08:03:10.62	91.55	9.36	-43.3	-46.1	13.4	1.14e+00	0	43	104	0	58	4905
2026-01-18 08:03:11.62	91.42	9.42	-40.5	-42.5	17.2	0.00e+00	0	43	0	0	53	4337
2026-01-18 08:03:12.69	91.29	9.49	-40.5	-42.5	17.2	0.00e+00	0	43	0	0	52	4589
2026-01-18 08:03:13.59	91.17	9.54	-40.4	-42.5	17.3	0.00e+00	0	43	0	0	52	4553
2026-01-18 08:03:14.82	91.01	9.61	-40.1	-42.0	17.8	0.00e+00	0	43	0	0	51	4580
2026-01-18 08:03:15.67	90.90	9.66	-40.2	-42.2	17.7	0.00e+00	0	43	0	0	51	4673
2026-01-18 08:03:16.97	90.74	9.74	-39.9	-41.8	18.0	0.00e+00	0	43	0	0	51	4472
2026-01-18 08:03:17.68	90.64	9.78	-39.6	-41.5	18.3	0.00e+00	0	43	0	0	51	4320
2026-01-18 08:03:18.96	90.48	9.86	-39.5	-41.4	18.5	0.00e+00	0	43	0	0	51	4248
2026-01-18 08:03:19.67	90.38	9.90	-39.5	-41.4	18.5	0.00e+00	0	43	0	0	51	4259
2026-01-18 08:03:21.23	90.18	9.99	-39.4	-41.3	18.6	0.00e+00	0	43	0	0	50	4458
2026-01-18 08:03:21.94	90.08	10.03	-39.5	-41.4	18.5	0.00e+00	0	43	0	0	50	4507
2026-01-18 08:03:23.23	89.91	10.11	-39.4	-41.3	18.5	0.00e+00	0	43	0	0	50	4468
2026-01-18 08:03:23.94	89.82	10.15	-39.4	-41.3	18.6	0.00e+00	0	43	0	0	50	4447
2026-01-18 08:03:25.22	89.65	10.23	-39.5	-41.4	18.5	0.00e+00	0	43	0	0	50	4527
2026-01-18 08:03:25.93	89.55	10.27	-39.4	-41.3	18.6	0.00e+00	0	43	0	0	50	4464
2026-01-18 08:03:27.21	89.38	10.34	-39.3	-41.1	18.8	0.00e+00	0	43	0	0	50	4376
2026-01-18 08:03:27.94	89.28	10.39	-39.3	-41.1	18.7	0.00e+00	0	43	0	0	50	4383
2026-01-18 08:03:29.22	89.11	10.46	-39.2	-41.0	18.9	0.00e+00	0	43	0	0	50	4309
2026-01-18 08:03:29.94	89.01	10.51	-39.1	-41.0	18.9	0.00e+00	0	43	0	0	50	4293
2026-01-18 08:03:31.22	88.83	10.58	-39.2	-41.1	18.8	0.00e+00	0	43	0	0	50	4360
2026-01-18 08:03:32.07	88.72	10.63	-39.3	-41.1	18.7	0.00e+00	0	43	0	0	50	4381
2026-01-18 08:03:33.51	88.52	10.72	-39.4	-41.3	18.6	0.00e+00	0	43	0	0	50	4450
2026-01-18 08:03:34.22	88.42	10.76	-39.3	-41.2	18.6	0.00e+00	0	43	0	0	50	4421
2026-01-18 08:03:35.50	88.24	10.83	-39.3	-41.2	18.7	0.00e+00	0	43	0	0	50	4398
2026-01-18 08:03:36.22	88.14	10.88	-39.4	-41.3	18.6	0.00e+00	0	43	0	0	50	4442
2026-01-18 08:03:37.50	87.96	10.95	-39.3	-41.1	18.7	0.00e+00	0	43	0	0	50	4364
2026-01-18 08:03:38.22	87.86	10.99	-39.2	-41.0	18.8	0.00e+00	0	43	0	0	50	4327
2026-01-18 08:03:39.49	87.68	11.07	-39.3	-41.2	18.6	0.00e+00	0	43	0	0	50	4425
2026-01-18 08:03:40.20	87.58	11.11	-39.3	-41.2	18.7	0.00e+00	0	43	0	0	50	4402
2026-01-18 08:03:41.48	87.39	11.18	-39.4	-41.3	18.6	0.00e+00	0	43	0	0	50	4467
2026-01-18 08:03:42.21	87.29	11.23	-39.3	-41.2	18.7	0.00e+00	0	43	0	0	50	4422
2026-01-18 08:03:43.49	87.11	11.30	-39.4	-41.3	18.6	0.00e+00	0	43	0	0	50	4458
2026-01-18 08:03:44.22	87.00	11.35	-39.3	-41.2	18.7	0.00e+00	0	43	0	0	50	4402
2026-01-18 08:03:45.49	86.82	11.42	-39.4	-41.2	18.7	0.00e+00	0	43	0	0	50	4431
2026-01-18 08:03:46.20	86.71	11.46	-39.5	-41.4	18.5	0.00e+00	0	43	0	0	50	4536
2026-01-18 08:03:47.48	86.52	11.54	-39.4	-41.3	18.6	0.00e+00	0	43	0	0	50	4465
2026-01-18 08:03:48.21	86.42	11.58	-39.4	-41.3	18.7	0.00e+00	0	43	0	0	50	4463
2026-01-18 08:03:49.49	86.23	11.65	-39.2	-41.1	18.8	0.00e+00	0	43	0	0	50	4361
2026-01-18 08:03:50.20	86.12	11.69	-39.2	-41.1	18.8	0.00e+00	0	43	0	0	50	4366
2026-01-18 08:03:51.48	85.93	11.77	-39.2	-41.1	18.8	0.00e+00	0	43	0	0	50	4359
2026-01-18 08:03:52.19	85.83	11.81	-39.2	-41.1	18.9	0.00e+00	0	43	0	0	50	4341
2026-01-18 08:03:53.75	85.59	11.90	-39.2	-41.1	18.8	0.00e+00	0	43	0	0	50	4372
2026-01-18 08:03:54.46	85.49	11.94	-39.2	-41.0	18.9	0.00e+00	0	43	0	0	50	4340
2026-01-18 08:03:55.74	85.29	12.02	-39.1	-40.9	19.0	0.00e+00	0	43	0	0	50	4289
2026-01-18 08:03:56.45	85.18	12.06	-39.1	-40.9	18.9	0.00e+00	0	43	0	0	50	4275
2026-01-18 08:03:57.73	84.99	12.13	-39.1	-41.0	18.9	0.00e+00	0	43	0	0	50	4303
2026-01-18 08:03:58.45	84.88	12.17	-39.0	-40.9	19.0	0.00e+00	0	43	0	0	50	4248
2026-01-18 08:03:59.73	84.68	12.25	-39.1	-41.0	18.8	0.00e+00	0	43	0	0	50	4327
2026-01-18 08:04:00.46	84.57	12.29	-39.2	-41.1	18.7	0.00e+00	0	43	0	0	50	4358
2026-01-18 08:04:01.73	84.37	12.36	-39.4	-41.3	18.6	0.00e+00	0	43	0	0	50	4465
2026-01-18 08:04:02.49	84.25	12.41	-39.3	-41.2	18.6	0.00e+00	0	43	0	0	50	4426
2026-01-18 08:04:03.77	84.05	12.48	-39.3	-41.3	18.6	0.00e+00	0	43	0	0	50	4447
2026-01-18 08:04:04.48	83.94	12.52	-39.3	-41.2	18.7	0.00e+00	0	43	0	0	50	4394
2026-01-18 08:04:05.76	83.74	12.60	-39.8	-41.8	18.3	0.00e+00	0	43	0	0	50	4731
2026-01-18 08:04:06.58	83.61	12.64	-39.3	-41.2	18.8	0.00e+00	0	43	0	0	50	4427
2026-01-18 08:04:07.72	83.43	12.71	-39.3	-41.2	18.7	0.00e+00	0	43	0	0	50	4407
2026-01-18 08:04:08.58	83.29	12.76	-39.2	-41.1	18.8	0.00e+00	0	43	0	0	50	4372
2026-01-18 08:04:09.71	83.11	12.82	-39.3	-41.2	18.7	0.00e+00	0	43	0	0	50	4401
2026-01-18 08:04:10.57	82.97	12.87	-39.4	-41.3	18.6	0.00e+00	0	43	0	0	50	4468
2026-01-18 08:04:11.70	82.79	12.94	-39.4	-41.3	18.7	0.00e+00	0	43	0	0	50	4461
2026-01-18 08:04:12.56	82.65	12.98	-39.5	-41.4	18.6	0.00e+00	0	43	0	0	50	4514
2026-01-18 08:04:13.69	82.47	13.05	-39.5	-41.3	18.6	0.00e+00	0	43	0	0	50	4493
2026-01-18 08:04:14.55	82.33	13.10	-39.5	-41.4	18.6	0.00e+00	0	43	0	0	50	4505
2026-01-18 08:04:15.69	82.14	13.16	-39.3	-41.2	18.7	0.00e+00	0	43	0	0	50	4428
2026-01-18 08:04:16.54	82.00	13.21	-39.3	-41.2	18.7	0.00e+00	0	44	0	0	50	4439
2026-01-18 08:04:17.68	81.81	13.27	-39.3	-41.2	18.8	0.00e+00	0	43	0	0	50	4400
2026-01-18 08:04:18.61	81.66	13.33	-39.4	-41.3	18.8	0.00e+00	0	43	0	0	50	4449
2026-01-18 08:04:19.77	81.47	13.39	-39.2	-41.0	19.0	0.00e+00	0	43	0	0	50	4338
2026-01-18 08:04:20.63	81.32	13.44	-39.1	-41.0	19.0	0.00e+00	0	43	0	0	50	4293
2026-01-18 08:04:21.76	81.13	13.50	-39.1	-40.9	19.1	0.00e+00	0	43	0	0	50	4280
2026-01-18 08:04:22.62	80.99	13.55	-39.1	-40.9	19.1	0.00e+00	0	43	0	0	50	4269
2026-01-18 08:04:23.76	80.80	13.61	-39.1	-40.9	19.1	0.00e+00	0	43	0	0	50	4266
2026-01-18 08:04:24.61	80.65	13.66	-39.0	-40.8	19.2	0.00e+00	0	43	0	0	49	4476
2026-01-18 08:04:25.75	80.46	13.72	-38.9	-40.7	19.3	0.00e+00	0	43	0	0	49	4421
2026-01-18 08:04:26.60	80.31	13.77	-39.0	-40.8	19.2	0.00e+00	0	43	0	0	49	4442
2026-01-18 08:04:27.74	80.12	13.83	-38.8	-40.6	19.3	0.00e+00	0	43	0	0	49	4368
2026-01-18 08:04:28.59	79.97	13.88	-38.9	-40.7	19.3	0.00e+00	0	43	0	0	49	4414
2026-01-18 08:04:29.73	79.78	13.94	-38.9	-40.7	19.2	0.00e+00	0	44	0	0	49	4428
2026-01-18 08:04:30.58	79.63	13.99	-38.9	-40.7	19.2	0.00e+00	0	43	0	0	49	4434
2026-01-18 08:04:31.72	79.43	14.05	-39.0	-40.8	19.1	0.00e+00	0	43	0	0	49	4480
2026-01-18 08:04:32.57	79.28	14.10	-39.0	-40.8	19.1	0.00e+00	0	43	0	0	49	4461
2026-01-18 08:04:33.71	79.08	14.16	-39.1	-40.9	19.1	0.00e+00	0	43	0	0	49	4506
2026-01-18 08:04:34.59	78.93	14.21	-39.1	-40.9	19.1	0.00e+00	0	43	0	0	49	4504
2026-01-18 08:04:35.90	78.70	14.28	-39.1	-40.9	19.1	0.00e+00	0	43	0	0	49	4525
2026-01-18 08:04:36.62	78.57	14.32	-39.0	-40.9	19.1	0.00e+00	0	43	0	0	49	4496
2026-01-18 08:04:37.90	78.34	14.39	-39.1	-40.9	19.0	0.00e+00	0	43	0	0	49	4536
2026-01-18 08:04:38.62	78.21	14.42	-39.3	-41.1	18.9	0.00e+00	0	43	0	0	49	4617
2026-01-18 08:04:39.90	77.98	14.49	-39.3	-41.1	18.9	0.00e+00	0	44	0	0	49	4638
2026-01-18 08:04:40.64	77.85	14.53	-39.3	-41.1	18.8	0.00e+00	0	43	0	0	49	4649
2026-01-18 08:04:41.92	77.62	14.60	-39.2	-41.0	19.0	0.00e+00	0	43	0	0	49	4572
2026-01-18 08:04:42.65	77.49	14.64	-39.1	-40.8	19.1	0.00e+00	0	43	0	0	49	4493
2026-01-18 08:04:43.93	77.25	14.71	-39.1	-40.9	19.1	0.00e+00	0	43	0	0	49	4520
2026-01-18 08:04:44.64	77.12	14.74	-39.1	-40.9	19.1	0.00e+00	0	43	0	0	49	4517
2026-01-18 08:04:45.92	76.89	14.81	-39.1	-40.9	19.1	0.00e+00	0	43	0	0	49	4525
2026-01-18 08:04:46.64	76.76	14.85	-39.1	-40.9	19.1	0.00e+00	0	43	0	0	49	4527
2026-01-18 08:04:47.92	76.52	14.91	-39.1	-41.0	19.1	0.00e+00	0	43	0	0	49	4547
2026-01-18 08:04:48.64	76.39	14.95	-39.1	-40.9	19.1	0.00e+00	0	43	0	0	49	4534
2026-01-18 08:04:50.08	76.12	15.03	-39.0	-40.8	19.2	0.00e+00	0	43	0	0	49	4459
2026-01-18 08:04:50.79	75.99	15.06	-39.1	-40.8	19.1	0.00e+00	0	43	0	0	49	4493
2026-01-18 08:04:52.15	75.73	15.13	-39.0	-40.8	19.2	0.00e+00	0	43	0	0	49	4479
2026-01-18 08:04:52.86	75.60	15.17	-39.1	-40.9	19.1	0.00e+00	0	43	0	0	49	4499
2026-01-18 08:04:54.14	75.36	15.23	-39.1	-40.8	19.1	0.00e+00	0	43	0	0	49	4490
2026-01-18 08:04:54.85	75.23	15.27	-39.1	-40.8	19.1	0.00e+00	0	43	0	0	49	4493
2026-01-18 08:04:56.25	74.96	15.34	-39.1	-40.9	19.1	0.00e+00	0	43	0	0	49	4499
2026-01-18 08:04:56.96	74.82	15.37	-38.9	-40.7	19.2	0.00e+00	0	43	0	0	49	4415
2026-01-18 08:04:58.23	74.58	15.44	-39.0	-40.8	19.2	0.00e+00	0	43	0	0	49	4454
2026-01-18 08:04:58.95	74.44	15.47	-39.0	-40.8	19.2	0.00e+00	0	43	0	0	49	4453
2026-01-18 08:05:00.22	74.20	15.54	-39.1	-40.9	19.0	0.00e+00	0	43	0	0	49	4531
2026-01-18 08:05:00.95	74.06	15.57	-39.1	-40.9	19.1	0.00e+00	0	43	0	0	49	4520
2026-01-18 08:05:02.23	73.81	15.64	-39.1	-41.0	19.0	0.00e+00	0	43	0	0	49	4549
2026-01-18 08:05:02.95	73.67	15.67	-39.0	-40.8	19.2	0.00e+00	0	43	0	0	49	4472
2026-01-18 08:05:04.23	73.42	15.73	-39.0	-40.8	19.2	0.00e+00	0	43	0	0	49	4442
2026-01-18 08:05:04.94	73.28	15.77	-39.1	-40.9	19.1	0.00e+00	0	43	0	0	49	4507
2026-01-18 08:05:06.22	73.03	15.83	-39.0	-40.8	19.2	0.00e+00	0	43	0	0	49	4461
2026-01-18 08:05:07.10	72.86	15.87	-39.0	-40.8	19.2	0.00e+00	0	43	0	0	49	4462
2026-01-18 08:05:08.24	72.63	15.92	-39.0	-40.8	19.2	0.00e+00	0	43	0	0	49	4449
2026-01-18 08:05:09.09	72.46	15.96	-39.0	-40.8	19.3	0.00e+00	0	43	0	0	49	4453
2026-01-18 08:05:10.23	72.24	16.02	-38.9	-40.6	19.4	0.00e+00	0	43	0	0	49	4373
2026-01-18 08:05:11.09	72.07	16.06	-38.8	-40.6	19.4	0.00e+00	0	43	0	0	49	4344
2026-01-18 08:05:12.22	71.84	16.11	-38.8	-40.5	19.5	0.00e+00	0	43	0	0	49	4335
2026-01-18 08:05:13.07	71.67	16.15	-38.8	-40.6	19.4	0.00e+00	0	43	0	0	49	4364
2026-01-18 08:05:14.21	71.44	16.20	-38.8	-40.5	19.5	0.00e+00	0	43	0	0	49	4319
2026-01-18 08:05:15.07	71.27	16.24	-38.7	-40.4	19.6	0.00e+00	0	43	0	0	49	4273
2026-01-18 08:05:16.20	71.04	16.29	-38.6	-40.3	19.7	0.00e+00	0	43	0	0	49	4242
2026-01-18 08:05:17.05	70.87	16.33	-38.5	-40.2	19.7	0.00e+00	0	43	0	0	49	4188
2026-01-18 08:05:18.19	70.63	16.38	-38.4	-40.1	19.8	0.00e+00	0	43	0	0	48	4387
2026-01-18 08:05:19.04	70.46	16.42	-38.4	-40.2	19.7	0.00e+00	0	43	0	0	48	4397
2026-01-18 08:05:20.18	70.23	16.47	-38.5	-40.2	19.7	0.00e+00	0	43	0	0	48	4401
2026-01-18 08:05:21.03	70.05	16.51	-38.4	-40.1	19.7	0.00e+00	0	43	0	0	48	4380
2026-01-18 08:05:22.17	69.82	16.56	-38.4	-40.2	19.7	0.00e+00	0	43	0	0	48	4396
2026-01-18 08:05:23.02	69.64	16.60	-38.3	-40.0	19.8	0.00e+00	0	43	0	0	48	4337
2026-01-18 08:05:24.16	69.41	16.64	-38.4	-40.1	19.7	0.00e+00	0	43	0	0	48	4363
2026-01-18 08:05:25.01	69.23	16.68	-38.4	-40.1	19.7	0.00e+00	0	43	0	0	48	4389
2026-01-18 08:05:26.15	68.99	16.73	-38.5	-40.2	19.7	0.00e+00	0	43	0	0	48	4402
2026-01-18 08:05:27.32	68.75	16.78	-38.5	-40.2	19.6	0.00e+00	0	43	0	0	48	4436
2026-01-18 08:05:28.17	68.57	16.81	-38.5	-40.2	19.6	0.00e+00	0	43	0	0	48	4416
2026-01-18 08:05:29.31	68.33	16.86	-38.5	-40.2	19.6	0.00e+00	0	43	0	0	48	4414
2026-01-18 08:05:30.40	68.10	16.91	-38.5	-40.2	19.6	0.00e+00	0	43	0	0	48	4431
2026-01-18 08:05:31.26	67.92	16.94	-38.4	-40.1	19.7	0.00e+00	0	43	0	0	48	4389
2026-01-18 08:05:32.39	67.68	16.99	-38.4	-40.1	19.7	0.00e+00	0	43	0	0	48	4383
2026-01-18 08:05:33.25	67.49	17.02	-38.5	-40.2	19.6	0.00e+00	0	43	0	0	48	4408
2026-01-18 08:05:34.38	67.25	17.07	-38.5	-40.3	19.6	0.00e+00	0	43	0	0	48	4463
2026-01-18 08:05:35.24	67.07	17.10	-38.5	-40.2	19.7	0.00e+00	0	43	0	0	48	4425
2026-01-18 08:05:36.37	66.83	17.14	-38.5	-40.2	19.8	0.00e+00	0	44	0	0	48	4399
2026-01-18 08:05:37.23	66.64	17.18	-38.5	-40.2	19.8	0.00e+00	0	43	0	0	48	4400
2026-01-18 08:05:38.37	66.40	17.22	-38.6	-40.4	19.6	0.00e+00	0	43	0	0	48	4512
2026-01-18 08:05:39.22	66.21	17.25	-38.6	-40.3	19.7	0.00e+00	0	43	0	0	48	4475
2026-01-18 08:05:40.35	65.97	17.30	-38.6	-40.3	19.7	0.00e+00	0	43	0	0	48	4469
2026-01-18 08:05:41.21	65.78	17.33	-38.5	-40.2	19.8	0.00e+00	0	44	0	0	48	4402
2026-01-18 08:05:42.34	65.54	17.37	-38.4	-40.1	19.9	0.00e+00	0	44	0	0	48	4357
2026-01-18 08:05:43.19	65.35	17.40	-38.2	-39.9	20.1	0.00e+00	0	44	0	0	48	4279
2026-01-18 08:05:44.33	65.10	17.44	-38.2	-39.8	20.1	0.00e+00	0	43	0	0	48	4234
2026-01-18 08:05:45.18	64.92	17.47	-38.2	-39.9	20.0	0.00e+00	0	43	0	0	48	4255
2026-01-18 08:05:46.32	64.67	17.51	-38.3	-40.0	20.0	0.00e+00	0	43	0	0	48	4294
2026-01-18 08:05:47.18	64.48	17.54	-38.2	-39.9	20.0	0.00e+00	0	43	0	0	48	4279
2026-01-18 08:05:48.31	64.23	17.58	-38.4	-40.1	19.9	0.00e+00	0	44	0	0	48	4348
2026-01-18 08:05:49.16	64.04	17.61	-38.4	-40.0	19.9	0.00e+00	0	43	0	0	48	4337
2026-01-18 08:05:50.30	63.79	17.65	-38.2	-39.9	20.0	0.00e+00	0	43	0	0	48	4243
2026-01-18 08:05:51.15	63.60	17.68	-38.2	-39.9	19.9	0.00e+00	0	43	0	0	48	4276
2026-01-18 08:05:52.29	63.34	17.72	-38.3	-40.0	19.9	0.00e+00	0	43	0	0	48	4311
2026-01-18 08:05:53.14	63.15	17.74	-38.3	-40.0	19.8	0.00e+00	0	43	0	0	48	4331
2026-01-18 08:05:54.28	62.90	17.78	-38.2	-39.9	19.9	0.00e+00	0	43	0	0	48	4291
2026-01-18 08:05:55.13	62.71	17.81	-38.3	-40.0	19.9	0.00e+00	0	43	0	0	48	4293
2026-01-18 08:05:56.39	62.43	17.85	-38.4	-40.1	19.7	0.00e+00	0	43	0	0	48	4374
2026-01-18 08:05:57.19	62.25	17.87	-38.4	-40.2	19.7	0.00e+00	0	43	0	0	48	4400
2026-01-18 08:05:58.33	61.99	17.91	-38.4	-40.1	19.8	0.00e+00	0	43	0	0	48	4385
2026-01-18 08:05:59.19	61.79	17.93	-38.5	-40.2	19.7	0.00e+00	0	43	0	0	48	4412
2026-01-18 08:06:00.32	61.54	17.97	-38.6	-40.3	19.7	0.00e+00	0	43	0	0	48	4474
2026-01-18 08:06:01.17	61.35	17.99	-38.6	-40.3	19.6	0.00e+00	0	43	0	0	48	4482
2026-01-18 08:06:02.52	61.04	18.03	-38.7	-40.5	19.5	0.00e+00	0	43	0	0	48	4546
2026-01-18 08:06:03.23	60.88	18.05	-38.8	-40.5	19.5	0.00e+00	0	43	0	0	48	4596
2026-01-18 08:06:04.51	60.58	18.09	-38.7	-40.4	19.5	0.00e+00	0	43	0	0	48	4530
2026-01-18 08:06:05.24	60.42	18.11	-38.6	-40.3	19.7	0.00e+00	0	44	0	0	48	4481
2026-01-18 08:06:06.51	60.13	18.14	-38.6	-40.3	19.7	0.00e+00	0	44	0	0	48	4481
2026-01-18 08:06:07.24	59.96	18.16	-38.6	-40.4	19.6	0.00e+00	0	44	0	0	48	4510
2026-01-18 08:06:08.52	59.67	18.20	-38.6	-40.3	19.7	0.00e+00	0	43	0	0	48	4476
2026-01-18 08:06:09.28	59.49	18.22	-38.6	-40.3	19.7	0.00e+00	0	43	0	0	48	4462
2026-01-18 08:06:10.56	59.19	18.25	-38.5	-40.3	19.7	0.00e+00	0	43	0	0	48	4443
2026-01-18 08:06:11.27	59.03	18.27	-38.5	-40.2	19.8	0.00e+00	0	43	0	0	48	4418
2026-01-18 08:06:12.55	58.73	18.30	-38.7	-40.4	19.6	0.00e+00	0	43	0	0	48	4508
2026-01-18 08:06:13.26	58.57	18.31	-38.8	-40.5	19.5	0.00e+00	0	43	0	0	48	4571
2026-01-18 08:06:14.54	58.27	18.34	-38.5	-40.2	19.8	0.00e+00	0	43	0	0	48	4434
2026-01-18 08:06:15.26	58.11	18.36	-38.5	-40.2	19.8	0.00e+00	0	43	0	0	48	4427
2026-01-18 08:06:16.54	57.81	18.39	-38.6	-40.3	19.7	0.00e+00	0	43	0	0	48	4472
2026-01-18 08:06:17.27	57.64	18.41	-38.6	-40.3	19.7	0.00e+00	0	43	0	0	48	4473
2026-01-18 08:06:18.54	57.34	18.43	-38.6	-40.3	19.7	0.00e+00	0	43	0	0	48	4481
2026-01-18 08:06:19.26	57.17	18.45	-38.7	-40.4	19.6	0.00e+00	0	43	0	0	48	4522
2026-01-18 08:06:20.53	56.88	18.48	-38.8	-40.5	19.5	0.00e+00	0	43	0	0	48	4591
2026-01-18 08:06:21.24	56.71	18.49	-38.8	-40.6	19.4	0.00e+00	0	43	0	0	48	4623
2026-01-18 08:06:22.52	56.41	18.52	-38.9	-40.6	19.4	0.00e+00	0	43	0	0	48	4635
2026-01-18 08:06:23.23	56.24	18.53	-38.8	-40.5	19.6	0.00e+00	0	43	0	0	48	4577
2026-01-18 08:06:24.51	55.94	18.55	-38.6	-40.3	19.7	0.00e+00	0	43	0	0	48	4470
2026-01-18 08:06:25.22	55.77	18.57	-38.6	-40.3	19.8	0.00e+00	0	43	0	0	48	4459
2026-01-18 08:06:26.50	55.47	18.59	-38.7	-40.4	19.6	0.00e+00	0	43	0	0	48	4519
2026-01-18 08:06:27.21	55.30	18.60	-38.7	-40.4	19.6	0.00e+00	0	43	0	0	48	4537
2026-01-18 08:06:28.49	55.00	18.62	-38.6	-40.3	19.7	0.00e+00	0	43	0	0	48	4469
2026-01-18 08:06:29.21	54.83	18.63	-38.7	-40.5	19.6	0.00e+00	0	43	0	0	48	4548
2026-01-18 08:06:30.84	54.44	18.66	-38.5	-40.2	19.8	0.00e+00	0	43	0	0	48	4440
2026-01-18 08:06:31.41	54.31	18.67	-38.6	-40.3	19.7	0.00e+00	0	44	0	0	48	4477
2026-01-18 08:06:33.12	53.90	18.69	-38.7	-40.4	19.6	0.00e+00	0	43	0	0	48	4528
2026-01-18 08:06:33.73	53.76	18.70	-38.6	-40.4	19.7	0.00e+00	0	44	0	0	48	4503
2026-01-18 08:06:35.30	53.38	18.72	-38.4	-40.1	19.9	0.00e+00	0	43	0	0	48	4386
2026-01-18 08:06:35.94	53.23	18.73	-38.5	-40.3	19.8	0.00e+00	0	43	0	0	48	4446
2026-01-18 08:06:37.36	52.89	18.75	-38.5	-40.2	19.8	0.00e+00	0	43	0	0	48	4423
2026-01-18 08:06:38.08	52.72	18.76	-38.5	-40.2	19.9	0.00e+00	0	43	0	0	48	4413
2026-01-18 08:06:39.35	52.42	18.77	-38.5	-40.3	19.8	0.00e+00	0	44	0	0	48	4442
2026-01-18 08:06:40.07	52.25	18.78	-38.5	-40.2	19.8	0.00e+00	0	43	0	0	48	4424
2026-01-18 08:06:41.64	51.87	18.80	-38.6	-40.3	19.7	0.00e+00	0	43	0	0	48	4487
2026-01-18 08:06:42.27	51.72	18.80	-38.7	-40.4	19.7	0.00e+00	0	44	0	0	48	4501
2026-01-18 08:06:43.82	51.35	18.82	-38.6	-40.3	19.8	0.00e+00	0	43	0	0	48	4453
2026-01-18 08:06:44.53	51.18	18.82	-38.7	-40.4	19.6	0.00e+00	0	44	0	0	48	4514
2026-01-18 08:06:45.82	50.87	18.83	-38.8	-40.5	19.6	0.00e+00	0	44	0	0	48	4576
2026-01-18 08:06:46.53	50.70	18.84	-38.7	-40.5	19.5	0.00e+00	0	44	0	0	48	4566
2026-01-18 08:06:47.81	50.39	18.85	-38.8	-40.5	19.5	0.00e+00	0	43	0	0	48	4590
2026-01-18 08:06:48.54	50.22	18.85	-38.8	-40.6	19.4	0.00e+00	0	44	0	0	48	4629
2026-01-18 08:06:49.82	49.91	18.86	-38.6	-40.3	19.7	0.00e+00	0	43	0	0	48	4456
2026-01-18 08:06:50.54	49.74	18.86	-38.6	-40.3	19.7	0.00e+00	0	43	0	0	48	4451
2026-01-18 08:06:51.82	49.43	18.87	-38.6	-40.4	19.7	0.00e+00	0	43	0	0	48	4498
2026-01-18 08:06:52.55	49.25	18.87	-38.4	-40.0	20.0	0.00e+00	0	43	0	0	48	4340
2026-01-18 08:06:53.83	48.95	18.88	-38.4	-40.1	20.0	0.00e+00	0	43	0	0	48	4342
2026-01-18 08:06:54.55	48.77	18.88	-38.4	-40.1	20.0	0.00e+00	0	44	0	0	48	4350
2026-01-18 08:06:55.83	48.46	18.89	-38.3	-40.0	20.0	0.00e+00	0	43	0	0	48	4314
2026-01-18 08:06:56.56	48.29	18.89	-38.4	-40.1	20.0	0.00e+00	0	43	0	0	48	4345
2026-01-18 08:06:57.84	47.98	18.89	-38.4	-40.1	20.0	0.00e+00	0	43	0	0	48	4360
2026-01-18 08:06:58.69	47.78	18.89	-38.4	-40.1	19.9	0.00e+00	0	43	0	0	48	4369
2026-01-18 08:07:00.11	47.43	18.89	-38.6	-40.3	19.8	0.00e+00	0	43	0	0	48	4457
2026-01-18 08:07:00.82	47.26	18.89	-38.6	-40.3	19.8	0.00e+00	0	43	0	0	48	4464
2026-01-18 08:07:02.10	46.96	18.89	-38.7	-40.4	19.7	0.00e+00	0	44	0	0	48	4510
2026-01-18 08:07:02.81	46.78	18.89	-38.7	-40.4	19.7	0.00e+00	0	44	0	0	48	4506
2026-01-18 08:07:04.09	46.48	18.89	-38.6	-40.3	19.7	0.00e+00	0	43	0	0	48	4475
2026-01-18 08:07:05.32	46.18	18.89	-38.6	-40.3	19.7	0.00e+00	0	44	0	0	48	4474
2026-01-18 08:07:06.17	45.98	18.88	-38.6	-40.3	19.7	0.00e+00	0	43	0	0	48	4456
2026-01-18 08:07:07.31	45.70	18.88	-38.6	-40.3	19.7	0.00e+00	0	44	0	0	48	4470
2026-01-18 08:07:08.16	45.50	18.88	-38.6	-40.3	19.7	0.00e+00	0	44	0	0	48	4450
2026-01-18 08:07:09.30	45.22	18.87	-38.6	-40.3	19.7	0.00e+00	0	44	0	0	48	4460
2026-01-18 08:07:10.15	45.02	18.87	-38.6	-40.3	19.7	0.00e+00	0	44	0	0	48	4486
2026-01-18 08:07:11.29	44.75	18.86	-38.6	-40.4	19.7	0.00e+00	0	43	0	0	48	4509
2026-01-18 08:07:12.14	44.54	18.86	-38.6	-40.3	19.7	0.00e+00	0	44	0	0	48	4487
2026-01-18 08:07:13.28	44.27	18.85	-38.6	-40.3	19.7	0.00e+00	0	43	0	0	48	4465
2026-01-18 08:07:14.13	44.06	18.84	-38.6	-40.3	19.6	0.00e+00	0	43	0	0	48	4491
2026-01-18 08:07:15.27	43.79	18.84	-38.4	-40.1	19.8	0.00e+00	0	43	0	0	48	4380
2026-01-18 08:07:16.12	43.59	18.83	-38.4	-40.1	19.8	0.00e+00	0	43	0	0	48	4356
2026-01-18 08:07:17.26	43.31	18.82	-38.3	-40.0	19.9	0.00e+00	0	43	0	0	48	4333
2026-01-18 08:07:18.11	43.11	18.81	-38.4	-40.0	19.9	0.00e+00	0	44	0	0	48	4335
2026-01-18 08:07:19.25	42.84	18.80	-38.3	-40.0	20.0	0.00e+00	0	44	0	0	48	4336
2026-01-18 08:07:20.10	42.63	18.79	-38.4	-40.1	20.0	0.00e+00	0	44	0	0	48	4349
2026-01-18 08:07:21.24	42.36	18.78	-38.4	-40.1	20.0	0.00e+00	0	43	0	0	48	4351
2026-01-18 08:07:22.09	42.16	18.77	-38.4	-40.1	20.0	0.00e+00	0	44	0	0	48	4353
2026-01-18 08:07:23.23	41.89	18.76	-38.6	-40.3	19.8	0.00e+00	0	44	0	0	48	4458
2026-01-18 08:07:24.08	41.68	18.75	-38.5	-40.2	19.8	0.00e+00	0	44	0	0	48	4410
2026-01-18 08:07:25.22	41.41	18.73	-38.7	-40.4	19.7	0.00e+00	0	43	0	0	48	4513
2026-01-18 08:07:26.07	41.21	18.72	-38.7	-40.4	19.7	0.00e+00	0	44	0	0	48	4526
2026-01-18 08:07:27.29	40.92	18.71	-38.7	-40.4	19.6	0.00e+00	0	43	0	0	48	4536
2026-01-18 08:07:28.14	40.72	18.69	-38.7	-40.5	19.6	0.00e+00	0	44	0	0	48	4560
2026-01-18 08:07:29.28	40.45	18.68	-38.6	-40.3	19.7	0.00e+00	0	44	0	0	48	4456
2026-01-18 08:07:30.13	40.25	18.67	-38.5	-40.3	19.7	0.00e+00	0	43	0	0	48	4444
2026-01-18 08:07:31.27	39.98	18.65	-38.5	-40.2	19.7	0.00e+00	0	44	0	0	48	4435
2026-01-18 08:07:32.12	39.78	18.63	-38.4	-40.1	19.8	0.00e+00	0	43	0	0	48	4387
2026-01-18 08:07:33.26	39.51	18.62	-38.3	-40.0	19.9	0.00e+00	0	43	0	0	48	4328
2026-01-18 08:07:34.11	39.31	18.60	-38.4	-40.0	19.9	0.00e+00	0	44	0	0	48	4337
2026-01-18 08:07:35.25	39.04	18.58	-38.4	-40.1	19.9	0.00e+00	0	44	0	0	48	4385
2026-01-18 08:07:36.10	38.84	18.57	-38.4	-40.1	19.9	0.00e+00	0	43	0	0	48	4378
2026-01-18 08:07:37.24	38.57	18.54	-38.4	-40.1	19.9	0.00e+00	0	44	0	0	48	4384
2026-01-18 08:07:38.09	38.37	18.53	-38.5	-40.2	19.9	0.00e+00	0	43	0	0	48	4412
2026-01-18 08:07:39.23	38.10	18.51	-38.3	-40.0	20.0	0.00e+00	0	44	0	0	48	4331
2026-01-18 08:07:40.08	37.90	18.49	-38.3	-40.0	20.0	0.00e+00	0	44	0	0	48	4324
2026-01-18 08:07:41.22	37.64	18.47	-38.2	-39.9	20.0	0.00e+00	0	44	0	0	48	4282
2026-01-18 08:07:42.07	37.44	18.45	-38.2	-39.9	20.0	0.00e+00	0	43	0	0	48	4268
2026-01-18 08:07:43.21	37.17	18.42	-38.1	-39.8	20.2	0.00e+00	0	43	0	0	48	4199
2026-01-18 08:07:44.06	36.97	18.41	-38.2	-39.9	20.1	0.00e+00	0	44	0	0	48	4268
2026-01-18 08:07:45.20	36.71	18.38	-38.2	-39.9	20.1	0.00e+00	0	44	0	0	48	4249
2026-01-18 08:07:46.05	36.51	18.36	-38.2	-39.9	20.1	0.00e+00	0	44	0	0	48	4278
2026-01-18 08:07:47.19	36.25	18.33	-38.3	-40.0	20.0	0.00e+00	0	44	0	0	48	4306
2026-01-18 08:07:48.05	36.05	18.31	-38.4	-40.1	20.0	0.00e+00	0	43	0	0	48	4366
2026-01-18 08:07:49.18	35.79	18.29	-38.4	-40.1	20.0	0.00e+00	0	44	0	0	48	4345
2026-01-18 08:07:50.03	35.59	18.27	-38.4	-40.1	20.0	0.00e+00	0	43	0	0	48	4351
2026-01-18 08:07:51.17	35.33	18.24	-38.4	-40.1	20.0	0.00e+00	0	43	0	0	48	4350
2026-01-18 08:07:52.02	35.13	18.22	-38.3	-40.0	20.0	0.00e+00	0	44	0	0	48	4330
2026-01-18 08:07:53.16	34.87	18.19	-38.2	-39.9	20.1	0.00e+00	0	44	0	0	48	4270
2026-01-18 08:07:54.01	34.67	18.16	-38.3	-40.0	20.1	0.00e+00	0	44	0	0	48	4302
2026-01-18 08:07:55.15	34.41	18.13	-38.3	-40.0	20.0	0.00e+00	0	44	0	0	48	4303
2026-01-18 08:07:56.00	34.22	18.11	-38.3	-40.0	20.0	0.00e+00	0	44	0	0	48	4328
2026-01-18 08:07:57.14	33.96	18.08	-38.4	-40.1	19.9	0.00e+00	0	43	0	0	48	4364
2026-01-18 08:07:57.99	33.77	18.06	-38.5	-40.2	19.8	0.00e+00	0	44	0	0	48	4413
2026-01-18 08:07:59.13	33.51	18.02	-38.5	-40.2	19.8	0.00e+00	0	44	0	0	48	4420
2026-01-18 08:07:59.98	33.31	18.00	-38.4	-40.1	19.9	0.00e+00	0	44	0	0	48	4391
2026-01-18 08:08:01.11	33.06	17.97	-38.4	-40.1	20.0	0.00e+00	0	44	0	0	48	4371
2026-01-18 08:08:01.97	32.86	17.94	-38.4	-40.1	20.0	0.00e+00	0	44	0	0	48	4371
2026-01-18 08:08:03.11	32.61	17.91	-38.3	-40.0	20.0	0.00e+00	0	44	0	0	48	4340
2026-01-18 08:08:03.96	32.42	17.88	-38.5	-40.2	19.9	0.00e+00	0	44	0	0	48	4408
2026-01-18 08:08:05.09	32.16	17.84	-38.5	-40.2	19.9	0.00e+00	0	44	0	0	48	4415
2026-01-18 08:08:06.04	31.95	17.81	-38.6	-40.3	19.8	0.00e+00	0	44	0	0	48	4461
2026-01-18 08:08:07.04	31.73	17.78	-38.5	-40.2	19.9	0.00e+00	0	44	0	0	48	4441
2026-01-18 08:08:08.03	31.51	17.75	-38.6	-40.3	19.8	0.00e+00	0	43	0	0	48	4489
2026-01-18 08:08:09.02	31.29	17.72	-38.6	-40.3	19.8	0.00e+00	0	43	0	0	48	4481
2026-01-18 08:08:10.02	31.06	17.69	-38.6	-40.3	19.7	0.00e+00	0	44	0	0	48	4486
2026-01-18 08:08:11.02	30.84	17.65	-38.6	-40.3	19.8	0.00e+00	0	44	0	0	48	4473
2026-01-18 08:08:12.01	30.62	17.62	-38.5	-40.3	19.8	0.00e+00	0	44	0	0	48	4457
2026-01-18 08:08:13.01	30.40	17.58	-38.4	-40.2	19.9	0.00e+00	0	44	0	0	48	4398
2026-01-18 08:08:14.00	30.18	17.55	-38.5	-40.2	19.9	0.00e+00	0	43	0	0	48	4429
2026-01-18 08:08:15.00	29.96	17.51	-38.4	-40.2	19.9	0.00e+00	0	43	0	0	48	4394
2026-01-18 08:08:15.99	29.75	17.48	-38.5	-40.2	19.9	0.00e+00	0	44	0	0	48	4419
2026-01-18 08:08:16.99	29.53	17.44	-38.6	-40.3	19.8	0.00e+00	0	44	0	0	48	4459
2026-01-18 08:08:17.98	29.31	17.41	-38.5	-40.2	19.9	0.00e+00	0	44	0	0	48	4424
2026-01-18 08:08:18.98	29.10	17.37	-38.5	-40.2	19.8	0.00e+00	0	44	0	0	48	4428
2026-01-18 08:08:19.97	28.88	17.34	-38.6	-40.3	19.7	0.00e+00	0	43	0	0	48	4473
2026-01-18 08:08:20.97	28.66	17.30	-38.6	-40.3	19.7	0.00e+00	0	44	0	0	48	4475
2026-01-18 08:08:21.96	28.45	17.26	-38.6	-40.4	19.7	0.00e+00	0	43	0	0	48	4497
2026-01-18 08:08:22.96	28.24	17.22	-38.5	-40.3	19.8	0.00e+00	0	44	0	0	48	4459
2026-01-18 08:08:23.95	28.02	17.18	-38.4	-40.1	19.9	0.00e+00	0	44	0	0	48	4380
2026-01-18 08:08:24.95	27.81	17.15	-38.4	-40.1	19.9	0.00e+00	0	43	0	0	48	4378
2026-01-18 08:08:25.94	27.60	17.11	-38.4	-40.2	19.9	0.00e+00	0	44	0	0	48	4407
2026-01-18 08:08:26.94	27.38	17.07	-38.3	-40.1	20.0	0.00e+00	0	44	0	0	48	4345
2026-01-18 08:08:27.93	27.17	17.03	-38.3	-40.1	19.9	0.00e+00	0	44	0	0	48	4370
2026-01-18 08:08:28.93	26.96	16.99	-38.4	-40.1	19.8	0.00e+00	0	43	0	0	48	4389
2026-01-18 08:08:29.94	26.75	16.95	-38.4	-40.1	19.8	0.00e+00	0	44	0	0	48	4385
2026-01-18 08:08:30.97	26.53	16.91	-38.3	-40.1	19.9	0.00e+00	0	44	0	0	48	4347
2026-01-18 08:08:31.96	26.32	16.87	-38.3	-40.0	19.9	0.00e+00	0	44	0	0	48	4338
2026-01-18 08:08:32.95	26.12	16.82	-38.2	-40.0	20.0	0.00e+00	0	44	0	0	48	4330
2026-01-18 08:08:33.95	25.91	16.78	-38.3	-40.0	19.9	0.00e+00	0	44	0	0	48	4334
2026-01-18 08:08:34.94	25.70	16.74	-38.3	-40.1	19.9	0.00e+00	0	44	0	0	48	4374
2026-01-18 08:08:35.94	25.49	16.70	-38.3	-40.1	19.9	0.00e+00	0	44	0	0	48	4360
2026-01-18 08:08:36.93	25.29	16.66	-38.4	-40.1	19.9	0.00e+00	0	44	0	0	48	4386
2026-01-18 08:08:37.92	25.08	16.61	-38.5	-40.2	19.9	0.00e+00	0	44	0	0	48	4427
2026-01-18 08:08:38.92	24.88	16.57	-38.6	-40.3	19.7	0.00e+00	0	44	0	0	48	4483
2026-01-18 08:08:39.91	24.67	16.53	-38.6	-40.3	19.7	0.00e+00	0	44	0	0	48	4478
2026-01-18 08:08:40.91	24.47	16.48	-38.7	-40.4	19.7	0.00e+00	0	44	0	0	48	4527
2026-01-18 08:08:41.91	24.26	16.44	-38.7	-40.4	19.6	0.00e+00	0	43	0	0	48	4539
2026-01-18 08:08:42.90	24.06	16.40	-38.7	-40.5	19.6	0.00e+00	0	44	0	0	48	4553
2026-01-18 08:08:43.90	23.86	16.35	-38.6	-40.4	19.6	0.00e+00	0	44	0	0	48	4507
2026-01-18 08:08:44.89	23.66	16.31	-38.7	-40.5	19.5	0.00e+00	0	44	0	0	48	4561
2026-01-18 08:08:45.88	23.46	16.26	-38.7	-40.4	19.5	0.00e+00	0	44	0	0	48	4536
2026-01-18 08:08:46.88	23.26	16.22	-38.6	-40.4	19.6	0.00e+00	0	44	0	0	48	4528
2026-01-18 08:08:47.87	23.06	16.17	-38.6	-40.4	19.6	0.00e+00	0	43	0	0	48	4541
2026-01-18 08:08:48.87	22.86	16.13	-38.7	-40.5	19.5	0.00e+00	0	44	0	0	48	4569
2026-01-18 08:08:49.96	22.64	16.08	-38.9	-40.7	19.3	0.00e+00	0	43	0	0	48	4696
2026-01-18 08:08:50.81	22.47	16.04	-38.9	-40.8	19.3	0.00e+00	0	44	0	0	48	4723
2026-01-18 08:08:51.95	22.25	15.98	-39.0	-40.9	19.3	0.00e+00	0	44	0	0	48	4764
2026-01-18 08:08:52.80	22.08	15.94	-39.1	-41.0	19.1	0.00e+00	0	43	0	0	48	4825
2026-01-18 08:08:53.94	21.86	15.89	-39.1	-40.9	19.2	0.00e+00	0	43	0	0	48	4794
2026-01-18 08:08:54.80	21.69	15.85	-39.1	-40.9	19.1	0.00e+00	0	44	0	0	48	4802
2026-01-18 08:08:55.93	21.47	15.79	-38.9	-40.7	19.3	0.00e+00	0	44	0	0	48	4662
2026-01-18 08:08:56.79	21.30	15.75	-38.8	-40.6	19.4	0.00e+00	0	44	0	0	48	4615
2026-01-18 08:08:57.92	21.08	15.70	-38.9	-40.6	19.3	0.00e+00	0	44	0	0	48	4637
2026-01-18 08:08:58.78	20.91	15.66	-38.8	-40.6	19.4	0.00e+00	0	43	0	0	48	4600
2026-01-18 08:08:59.98	20.68	15.60	-38.8	-40.6	19.3	0.00e+00	0	44	0	0	48	4637
2026-01-18 08:09:00.83	20.52	15.56	-38.8	-40.6	19.3	0.00e+00	0	44	0	0	48	4637
2026-01-18 08:09:01.97	20.30	15.50	-38.9	-40.7	19.3	0.00e+00	0	44	0	0	48	4669
2026-01-18 08:09:02.82	20.14	15.46	-38.9	-40.7	19.2	0.00e+00	0	44	0	0	48	4703
2026-01-18 08:09:03.96	19.92	15.40	-38.8	-40.7	19.3	0.00e+00	0	44	0	0	48	4654
2026-01-18 08:09:04.81	19.76	15.36	-38.7	-40.6	19.3	0.00e+00	0	44	0	0	48	4614
2026-01-18 08:09:05.95	19.54	15.30	-38.6	-40.5	19.4	0.00e+00	0	43	0	0	48	4568
2026-01-18 08:09:06.80	19.38	15.26	-38.7	-40.5	19.4	0.00e+00	0	44	0	0	48	4583
2026-01-18 08:09:07.94	19.17	15.20	-38.7	-40.6	19.4	0.00e+00	0	44	0	0	48	4616
2026-01-18 08:09:08.80	19.01	15.16	-38.8	-40.7	19.3	0.00e+00	0	43	0	0	48	4668
2026-01-18 08:09:09.94	18.79	15.10	-38.9	-40.8	19.2	0.00e+00	0	44	0	0	48	4707
2026-01-18 08:09:10.79	18.64	15.06	-38.8	-40.7	19.3	0.00e+00	0	44	0	0	48	4673
2026-01-18 08:09:11.93	18.43	15.00	-38.9	-40.8	19.2	0.00e+00	0	44	0	0	48	4714
2026-01-18 08:09:12.78	18.27	14.95	-39.0	-40.8	19.2	0.00e+00	0	44	0	0	48	4758
2026-01-18 08:09:13.91	18.06	14.90	-39.0	-40.8	19.2	0.00e+00	0	44	0	0	48	4730
2026-01-18 08:09:14.76	17.90	14.85	-39.0	-40.7	19.3	0.00e+00	0	44	0	0	48	4705
2026-01-18 08:09:15.90	17.70	14.79	-39.0	-40.8	19.3	0.00e+00	0	43	0	0	48	4706
2026-01-18 08:09:16.75	17.54	14.75	-39.1	-40.8	19.2	0.00e+00	0	44	0	0	48	4748
2026-01-18 08:09:17.89	17.34	14.69	-39.2	-40.9	19.1	0.00e+00	0	44	0	0	49	4544
2026-01-18 08:09:18.74	17.18	14.64	-39.1	-40.9	19.2	0.00e+00	0	44	0	0	49	4503
2026-01-18 08:09:20.08	16.94	14.57	-39.2	-41.0	19.0	0.00e+00	0	44	0	0	49	4594
2026-01-18 08:09:20.79	16.81	14.54	-39.2	-41.0	19.0	0.00e+00	0	44	0	0	49	4579
2026-01-18 08:09:22.29	16.55	14.46	-39.4	-41.3	18.8	0.00e+00	0	43	0	0	49	4715
2026-01-18 08:09:23.27	16.37	14.40	-39.3	-41.1	19.0	0.00e+00	0	44	0	0	49	4630
2026-01-18 08:09:24.56	16.14	14.33	-39.3	-41.2	18.9	0.00e+00	0	44	0	0	49	4673
2026-01-18 08:09:25.27	16.02	14.30	-39.2	-41.1	19.0	0.00e+00	0	44	0	0	49	4616
2026-01-18 08:09:26.55	15.79	14.23	-39.2	-41.1	19.0	0.00e+00	0	44	0	0	49	4647
2026-01-18 08:09:27.27	15.67	14.19	-39.2	-41.2	19.0	0.00e+00	0	44	0	0	49	4660
2026-01-18 08:09:28.55	15.44	14.12	-39.2	-41.1	18.9	0.00e+00	0	44	0	0	49	4651
2026-01-18 08:09:29.26	15.32	14.08	-39.1	-41.1	19.0	0.00e+00	0	44	0	0	49	4627
2026-01-18 08:09:30.54	15.10	14.01	-39.0	-41.0	19.1	0.00e+00	0	44	0	0	49	4559
2026-01-18 08:09:31.25	14.97	13.97	-39.0	-41.0	19.1	0.00e+00	0	43	0	0	49	4568
2026-01-18 08:09:32.53	14.75	13.90	-39.0	-41.0	19.1	0.00e+00	0	43	0	0	49	4556
2026-01-18 08:09:33.24	14.63	13.86	-39.0	-41.0	19.1	0.00e+00	0	44	0	0	49	4586
2026-01-18 08:09:34.51	14.42	13.79	-38.9	-40.9	19.2	0.00e+00	0	44	0	0	49	4521
2026-01-18 08:09:35.24	14.29	13.75	-38.9	-40.9	19.2	0.00e+00	0	44	0	0	49	4521
2026-01-18 08:09:36.66	14.05	13.68	-39.0	-41.0	19.1	0.00e+00	0	44	0	0	49	4567
2026-01-18 08:09:37.37	13.93	13.64	-38.9	-40.9	19.1	0.00e+00	0	44	0	0	49	4518
2026-01-18 08:09:38.65	13.72	13.57	-38.9	-40.9	19.1	0.00e+00	0	44	0	0	49	4504
2026-01-18 08:09:39.36	13.60	13.53	-39.0	-40.9	19.0	0.00e+00	0	44	0	0	49	4536
2026-01-18 08:09:40.77	13.36	13.45	-39.0	-40.9	19.0	0.00e+00	0	43	0	0	49	4515
2026-01-18 08:09:41.48	13.25	13.41	-39.0	-40.9	19.0	0.00e+00	0	44	0	0	49	4544
2026-01-18 08:09:42.76	13.03	13.34	-39.0	-40.8	19.1	0.00e+00	0	43	0	0	49	4493
2026-01-18 08:09:43.48	12.92	13.30	-39.0	-40.9	19.1	0.00e+00	0	43	0	0	49	4521
2026-01-18 08:09:44.76	12.71	13.22	-39.0	-40.8	19.1	0.00e+00	0	44	0	0	49	4481
2026-01-18 08:09:45.47	12.59	13.18	-38.9	-40.8	19.2	0.00e+00	0	43	0	0	49	4454
2026-01-18 08:09:46.75	12.38	13.11	-39.0	-40.9	19.1	0.00e+00	0	44	0	0	49	4494
2026-01-18 08:09:47.47	12.26	13.07	-39.1	-40.9	19.0	0.00e+00	0	44	0	0	49	4538
2026-01-18 08:09:48.76	12.06	13.00	-39.2	-41.1	18.9	0.00e+00	0	43	0	0	49	4622
2026-01-18 08:09:49.53	11.93	12.96	-39.2	-41.1	18.9	0.00e+00	0	43	0	0	49	4622
2026-01-18 08:09:50.80	11.73	12.88	-39.2	-41.1	19.0	0.00e+00	0	43	0	0	49	4613
2026-01-18 08:09:51.51	11.62	12.84	-39.2	-41.1	18.9	0.00e+00	0	44	0	0	49	4637
2026-01-18 08:09:52.79	11.41	12.77	-39.2	-41.1	18.9	0.00e+00	0	44	0	0	49	4622
2026-01-18 08:09:53.60	11.28	12.72	-39.2	-41.1	18.9	0.00e+00	0	44	0	0	49	4606
2026-01-18 08:09:55.03	11.06	12.64	-39.1	-41.0	19.0	0.00e+00	0	44	0	0	49	4574
2026-01-18 08:09:55.74	10.95	12.60	-39.0	-40.9	19.1	0.00e+00	0	44	0	0	49	4518
2026-01-18 08:09:57.26	10.71	12.51	-39.0	-40.9	19.0	0.00e+00	0	44	0	0	49	4534
2026-01-18 08:09:57.97	10.60	12.47	-38.9	-40.9	19.1	0.00e+00	0	43	0	0	49	4505
2026-01-18 08:09:59.28	10.40	12.40	-38.9	-40.9	19.1	0.00e+00	0	43	0	0	49	4519
2026-01-18 08:10:00.23	10.25	12.34	-38.9	-40.9	19.1	0.00e+00	0	44	0	0	49	4543
2026-01-18 08:10:01.22	10.10	12.29	-39.1	-41.1	18.9	0.00e+00	0	44	0	0	49	4639
2026-01-18 08:10:02.22	9.94	12.23	-39.1	-41.2	18.8	0.00e+00	0	44	0	0	49	4684
2026-01-18 08:10:03.21	9.79	12.17	-39.3	-41.3	18.7	0.00e+00	0	43	0	0	49	4754
2026-01-18 08:10:04.21	9.64	12.12	-39.2	-41.3	18.7	0.00e+00	0	44	0	0	49	4726
2026-01-18 08:10:05.20	9.49	12.06	-39.3	-41.4	18.6	0.00e+00	0	44	0	0	49	4801
2026-01-18 08:10:06.20	9.34	12.00	-39.2	-41.4	18.7	0.00e+00	0	43	0	0	49	4764
2026-01-18 08:10:07.19	9.19	11.94	-39.3	-41.4	18.6	0.00e+00	0	43	0	0	49	4812
2026-01-18 08:10:08.22	9.04	11.88	-39.2	-41.4	18.6	0.00e+00	0	43	0	0	49	4770
2026-01-18 08:10:09.21	8.89	11.83	-39.2	-41.5	18.5	0.00e+00	0	44	0	0	49	4833
2026-01-18 08:10:10.21	8.74	11.77	-39.3	-41.5	18.5	0.00e+00	0	44	0	0	49	4844
2026-01-18 08:10:11.21	8.59	11.71	-39.2	-41.4	18.6	0.00e+00	0	44	0	0	49	4797
2026-01-18 08:10:12.20	8.45	11.65	-39.2	-41.4	18.6	0.00e+00	0	43	0	0	49	4810
2026-01-18 08:10:13.20	8.30	11.59	-39.3	-41.5	18.5	0.00e+00	0	44	0	0	49	4860
2026-01-18 08:10:14.19	8.16	11.54	-39.4	-41.6	18.4	0.00e+00	0	43	0	0	49	4901
2026-01-18 08:10:15.44	7.98	11.46	-39.4	-41.5	18.5	0.00e+00	0	44	0	0	49	4856
2026-01-18 08:10:16.32	7.85	11.41	-39.4	-41.6	18.5	0.00e+00	0	44	0	0	49	4872
2026-01-18 08:10:17.63	7.66	11.34	-39.6	-41.8	18.3	0.00e+00	0	44	0	0	49	4988
2026-01-18 08:10:18.34	7.56	11.29	-39.6	-41.7	18.3	0.00e+00	0	44	0	0	49	4945
2026-01-18 08:10:19.62	7.38	11.22	-39.5	-41.6	18.4	0.00e+00	0	44	0	0	49	4877
2026-01-18 08:10:20.33	7.28	11.18	-39.5	-41.6	18.4	0.00e+00	0	44	0	0	49	4919
2026-01-18 08:10:21.61	7.09	11.10	-39.5	-41.6	18.4	0.00e+00	0	44	0	0	49	4872
2026-01-18 08:10:22.32	6.99	11.06	-39.4	-41.5	18.5	0.00e+00	0	44	0	0	49	4841
2026-01-18 08:10:23.61	6.81	10.99	-39.5	-41.5	18.5	0.00e+00	0	44	0	0	49	4845
2026-01-18 08:10:24.33	6.71	10.94	-39.5	-41.6	18.4	0.00e+00	0	44	0	0	49	4874
2026-01-18 08:10:25.61	6.53	10.87	-39.6	-41.7	18.3	0.00e+00	0	44	0	0	49	4957
2026-01-18 08:10:26.33	6.43	10.83	-39.7	-41.7	18.2	0.00e+00	0	44	0	0	49	4976
2026-01-18 08:10:27.61	6.26	10.75	-39.7	-41.8	18.2	0.00e+00	0	44	0	0	49	4991
2026-01-18 08:10:28.34	6.16	10.71	-39.6	-41.7	18.3	0.00e+00	0	44	0	0	49	4959
2026-01-18 08:10:29.62	5.98	10.63	-39.8	-42.0	18.0	0.00e+00	0	44	0	0	50	4824
2026-01-18 08:10:30.33	5.88	10.59	-39.8	-42.0	18.0	0.00e+00	0	44	0	0	50	4829
2026-01-18 08:10:31.64	5.71	10.51	-39.7	-42.0	18.0	0.00e+00	0	44	0	0	50	4834
2026-01-18 08:10:32.35	5.61	10.47	-39.7	-42.0	18.0	0.00e+00	0	43	0	0	50	4831
2026-01-18 08:10:33.63	5.44	10.40	-39.5	-41.7	18.2	0.00e+00	0	44	0	0	50	4701
2026-01-18 08:10:34.34	5.34	10.36	-39.5	-41.8	18.1	0.00e+00	0	44	0	0	50	4706
2026-01-18 08:10:35.75	5.15	10.27	-39.5	-41.7	18.2	0.00e+00	0	44	0	0	50	4676
2026-01-18 08:10:36.73	5.02	10.21	-39.6	-41.8	18.1	0.00e+00	0	44	0	0	50	4715
2026-01-18 08:10:37.72	4.89	10.16	-39.7	-41.9	18.0	0.00e+00	0	44	0	0	50	4766
2026-01-18 08:10:38.72	4.76	10.10	-39.5	-41.6	18.3	0.00e+00	0	44	0	0	50	4625
2026-01-18 08:10:39.72	4.63	10.04	-39.5	-41.6	18.3	0.00e+00	0	44	0	0	50	4624
2026-01-18 08:10:40.71	4.50	9.98	-39.7	-41.8	18.2	0.00e+00	0	44	0	0	50	4747
2026-01-18 08:10:41.71	4.37	9.92	-39.8	-42.0	18.0	0.00e+00	0	44	0	0	50	4836
2026-01-18 08:10:42.70	4.24	9.86	-40.0	-42.2	17.9	0.00e+00	0	44	0	0	50	4928
2026-01-18 08:10:43.70	4.11	9.80	-40.0	-42.1	17.9	0.00e+00	0	44	0	0	50	4925
2026-01-18 08:10:44.74	3.98	9.74	-40.3	-42.3	17.7	0.00e+00	0	44	0	0	51	4758
2026-01-18 08:10:45.73	3.85	9.68	-40.6	-42.7	17.3	0.00e+00	0	44	0	0	51	4974
2026-01-18 08:10:46.73	3.72	9.63	-40.4	-42.5	17.5	0.00e+00	0	44	0	0	51	4862
2026-01-18 08:10:47.72	3.60	9.57	-40.5	-42.7	17.3	0.00e+00	0	44	0	0	51	4969
2026-01-18 08:10:48.84	3.46	9.50	-40.5	-42.9	17.2	0.00e+00	0	44	0	0	51	5078
2026-01-18 08:10:49.74	3.34	9.45	-40.5	-43.0	17.1	0.00e+00	0	43	0	0	51	5118
2026-01-18 08:10:50.75	3.22	9.39	-40.4	-42.9	17.1	0.00e+00	0	44	0	0	51	5067
2026-01-18 08:10:51.75	3.09	9.33	-40.2	-42.6	17.4	0.00e+00	0	44	0	0	51	4873
2026-01-18 08:10:52.94	2.94	9.26	-40.1	-42.4	17.5	0.00e+00	0	44	0	0	51	4814
2026-01-18 08:10:53.83	2.83	9.21	-40.2	-42.4	17.6	0.00e+00	0	44	0	0	51	4771
2026-01-18 08:10:55.13	2.67	9.13	-40.2	-42.3	17.6	0.00e+00	0	44	0	0	51	4746
2026-01-18 08:10:55.84	2.59	9.09	-40.2	-42.3	17.7	0.00e+00	0	44	0	0	51	4732
2026-01-18 08:10:57.12	2.43	9.01	-40.3	-42.4	17.6	0.00e+00	0	44	0	0	51	4804
2026-01-18 08:10:57.83	2.34	8.97	-44.7	-48.4	12.1	0.00e+00	0	44	0	0	59	6050
2026-01-18 08:10:59.10	2.19	8.90	-48.1	-61.4	3.8	1.49e+00	0	43	104	0	67	16912
2026-01-18 08:10:59.81	2.10	8.86	-48.0	-61.6	3.8	1.49e+00	0	44	104	0	66	18411
2026-01-18 08:11:01.09	1.95	8.78	-47.8	-61.7	3.8	1.49e+00	0	44	104	0	67	17653
2026-01-18 08:11:01.83	1.86	8.74	-47.9	-61.8	3.8	1.49e+00	0	44	104	0	67	17792
2026-01-18 08:11:03.11	1.71	8.66	-48.7	-61.8	3.8	1.49e+00	0	44	104	0	67	17872
2026-01-18 08:11:03.82	1.62	8.62	-49.0	-62.1	3.8	1.49e+00	0	44	104	0	68	17293
2026-01-18 08:11:05.11	1.47	8.54	-49.0	-62.1	3.8	1.49e+00	0	44	104	0	68	17329
2026-01-18 08:11:05.82	1.39	8.50	-48.9	-62.1	3.8	1.49e+00	0	44	104	0	68	17400
2026-01-18 08:11:07.10	1.24	8.43	-48.3	-62.1	3.8	1.49e+00	0	44	104	0	68	17475
2026-01-18 08:11:07.82	1.15	8.39	-49.1	-62.1	3.8	1.49e+00	0	44	104	0	68	17473
2026-01-18 08:11:09.10	1.00	8.31	-49.1	-62.1	3.8	1.49e+00	0	44	104	0	68	17440
2026-01-18 08:11:09.81	0.92	8.27	-48.7	-62.2	3.8	1.49e+00	0	44	104	0	68	17499
2026-01-18 08:11:11.10	0.77	8.19	-49.1	-62.2	3.8	1.49e+00	0	44	104	0	68	17571
2026-01-18 08:11:11.81	0.69	8.15	-49.7	-62.6	3.8	1.49e+00	0	44	104	0	69	17426
2026-01-18 08:11:13.09	0.54	8.08	-49.1	-62.2	3.8	1.49e+00	0	44	104	0	69	16584
2026-01-18 08:11:13.81	0.46	8.04	-49.1	-62.2	3.8	1.49e+00	0	44	104	0	69	16532
2026-01-18 08:11:15.09	0.32	7.96	-48.9	-62.2	3.8	1.49e+00	0	43	104	0	69	16560
2026-01-18 08:11:15.81	0.24	7.92	-49.1	-62.2	3.8	1.49e+00	0	44	104	0	69	16566
2026-01-18 08:11:17.09	0.09	7.84	-48.9	-62.1	3.8	1.49e+00	0	44	104	0	69	16488
2026-01-18 08:11:17.81	0.01	7.80	-49.2	-62.2	3.8	1.49e+00	0	44	104	0	69	16618
2026-01-18 08:11:19.09	359.87	7.73	-49.2	-62.2	3.8	1.49e+00	0	44	104	0	69	16576
2026-01-18 08:11:19.81	359.79	7.68	-49.3	-62.1	3.8	1.49e+00	0	44	104	0	69	16487
2026-01-18 08:11:21.09	359.65	7.61	-49.2	-62.2	3.8	1.49e+00	0	44	104	0	69	16508
2026-01-18 08:11:21.80	359.57	7.57	-49.1	-62.2	3.8	1.49e+00	0	43	104	0	69	16550
2026-01-18 08:11:23.08	359.43	7.49	-49.2	-62.2	3.8	1.49e+00	0	44	104	0	69	16533
2026-01-18 08:11:23.79	359.35	7.45	-49.1	-62.2	3.8	1.49e+00	0	44	104	0	69	16519
2026-01-18 08:11:25.06	359.21	7.38	-49.0	-62.2	3.8	1.49e+00	0	44	104	0	69	16539
2026-01-18 08:11:25.79	359.13	7.34	-49.0	-62.1	3.8	1.49e+00	0	44	104	0	69	16471
2026-01-18 08:11:27.07	358.99	7.26	-48.9	-62.1	3.8	1.49e+00	0	44	104	0	69	16468
2026-01-18 08:11:27.78	358.92	7.22	-48.9	-62.1	3.8	1.49e+00	0	44	104	0	69	16487
2026-01-18 08:11:29.05	358.78	7.15	-48.9	-62.1	3.8	1.49e+00	0	44	104	0	69	16457
2026-01-18 08:11:29.76	358.71	7.11	-48.9	-62.1	3.8	1.49e+00	0	44	104	0	69	16479
2026-01-18 08:11:31.04	358.57	7.03	-48.8	-62.1	3.8	1.49e+00	0	43	104	0	69	16448
2026-01-18 08:11:31.75	358.49	6.99	-48.9	-62.1	3.8	1.49e+00	0	44	104	0	69	16440
2026-01-18 08:11:33.03	358.36	6.92	-48.8	-62.1	3.8	1.49e+00	0	44	104	0	69	16478
2026-01-18 08:11:33.74	358.29	6.88	-48.8	-62.1	3.8	1.49e+00	0	44	104	0	69	16408
2026-01-18 08:11:35.01	358.15	6.80	-48.8	-62.1	3.8	1.49e+00	0	44	104	0	69	16415
2026-01-18 08:11:35.72	358.08	6.76	-48.8	-62.1	3.8	1.49e+00	0	44	104	0	69	16419
2026-01-18 08:11:37.00	357.95	6.69	-48.8	-62.1	3.8	1.49e+00	0	44	104	0	69	16379
2026-01-18 08:11:37.72	357.87	6.65	-48.8	-62.1	3.8	1.49e+00	0	44	104	0	69	16438
2026-01-18 08:11:39.00	357.74	6.57	-48.8	-62.1	3.8	1.49e+00	0	44	104	0	69	16434
2026-01-18 08:11:39.71	357.67	6.53	-48.8	-62.1	3.8	1.49e+00	0	44	104	0	69	16383
2026-01-18 08:11:40.99	357.54	6.46	-48.8	-62.1	3.8	1.49e+00	0	44	104	0	69	16423
2026-01-18 08:11:41.70	357.46	6.42	-48.8	-62.1	3.8	1.49e+00	0	44	104	0	69	16381
2026-01-18 08:11:42.97	357.34	6.34	-48.8	-62.1	3.8	1.49e+00	0	44	104	0	69	16396
2026-01-18 08:11:43.70	357.26	6.30	-48.8	-62.1	3.8	1.49e+00	0	44	104	0	69	16332
2026-01-18 08:11:44.98	357.13	6.23	-48.8	-62.1	3.8	1.49e+00	0	44	104	0	69	16401
2026-01-18 08:11:45.69	357.06	6.19	-48.8	-62.1	3.8	1.49e+00	0	44	104	0	69	16391
2026-01-18 08:11:46.96	356.94	6.12	-48.8	-62.0	3.8	1.49e+00	0	44	104	0	69	16304
2026-01-18 08:11:47.67	356.87	6.07	-48.8	-62.0	3.8	1.49e+00	0	44	104	0	69	16276
2026-01-18 08:11:48.95	356.74	6.00	-48.8	-62.1	3.8	1.49e+00	0	44	104	0	69	16352
2026-01-18 08:11:49.69	356.67	5.96	-48.8	-62.0	3.8	1.49e+00	0	44	104	0	69	16308
2026-01-18 08:11:50.96	356.54	5.89	-48.8	-62.0	3.8	1.49e+00	0	44	104	0	69	16313
2026-01-18 08:11:51.67	356.47	5.85	-48.8	-62.0	3.8	1.49e+00	0	44	104	0	69	16268
2026-01-18 08:11:52.97	356.35	5.77	-48.8	-62.1	3.8	1.49e+00	0	44	104	0	69	16335
2026-01-18 08:11:53.68	356.28	5.73	-48.8	-62.1	3.8	1.49e+00	0	44	104	0	69	16331
2026-01-18 08:11:54.95	356.16	5.66	-48.8	-62.0	3.8	1.49e+00	0	44	104	0	69	16285
2026-01-18 08:11:55.68	356.09	5.62	-48.8	-62.0	3.8	1.49e+00	0	44	104	0	69	16223
2026-01-18 08:11:56.96	355.96	5.54	-48.8	-62.1	3.8	1.49e+00	0	44	104	0	69	16315
2026-01-18 08:11:57.67	355.90	5.50	-48.8	-62.1	3.8	1.49e+00	0	44	104	0	69	16327
2026-01-18 08:11:58.94	355.78	5.43	-48.8	-62.0	3.8	1.49e+00	0	44	104	0	69	16296
2026-01-18 08:11:59.65	355.71	5.39	-48.8	-62.1	3.8	1.49e+00	0	44	104	0	69	16354
2026-01-18 08:12:00.93	355.59	5.32	-48.8	-62.1	3.8	1.49e+00	0	44	104	0	69	16331
2026-01-18 08:12:01.65	355.52	5.28	-48.8	-62.0	3.8	1.49e+00	0	44	104	0	69	16287
2026-01-18 08:12:02.93	355.40	5.21	-48.8	-62.1	3.8	1.49e+00	0	44	104	0	69	16382
2026-01-18 08:12:03.64	355.33	5.17	-48.8	-62.1	3.8	1.49e+00	0	44	104	0	69	16374
2026-01-18 08:12:04.92	355.22	5.09	-48.8	-62.1	3.8	1.49e+00	0	44	104	0	69	16364
2026-01-18 08:12:05.63	355.15	5.05	-48.8	-62.1	3.8	1.49e+00	0	44	104	0	69	16337
2026-01-18 08:12:06.91	355.03	4.98	-48.8	-62.1	3.8	1.49e+00	0	44	104	0	69	16369

#Closed at: 2026-01-18 08:12:07
#Recorded file [0 MB]: D:/Data/31040_260118_110156.dat