passes_logs/2026/01/18/T1/T1__20260118_110836_FENGYUN_3D_rec.log

#Pass ID: 20260118_110836_FENGYUN 3D
#Satellite: FENGYUN 3D
#Configuration: FENGYUN 3D
#almurnet v.1.7.20251203
#Start time: 2026-01-18 11:08:36

#Version: 2.0.20230620
#Station: T1
#Location: 37.570604 lon 55.790049 lat
#TLE: 1 43010U 17072A   26017.61121112  .00000213  00000+0  12257-3 0  9991
#TLE: 2 43010  98.9934 349.4672 0002374 103.9362 256.2078 14.19696413423628

#Time	Az	El	Level	Level2	SNR	BER	BlckErr	Temp	State	Recorded	gain1	gain2
2026-01-18 11:08:36.85	133.95	5.05	-49.5	-61.5	3.8	8.48e-01	0	41	0	0	70	14466
2026-01-18 11:08:37.84	133.91	5.12	-49.5	-61.5	3.8	8.46e-01	0	41	104	0	70	14537
2026-01-18 11:08:38.83	133.86	5.19	-49.5	-61.6	3.8	8.48e-01	0	41	104	0	70	14564
2026-01-18 11:08:39.83	133.82	5.26	-49.5	-61.6	3.8	8.47e-01	0	41	104	0	70	14556
2026-01-18 11:08:40.82	133.78	5.33	-49.5	-61.6	3.8	8.47e-01	0	41	104	0	70	14693
2026-01-18 11:08:41.81	133.74	5.40	-49.5	-61.6	3.8	8.47e-01	0	41	104	0	70	14664
2026-01-18 11:08:42.81	133.69	5.47	-49.5	-61.6	3.8	8.48e-01	0	41	104	0	70	14702
2026-01-18 11:08:43.80	133.65	5.54	-49.5	-61.7	3.8	8.48e-01	0	41	104	0	70	14712
2026-01-18 11:08:44.80	133.60	5.61	-49.5	-61.7	3.8	8.47e-01	0	41	104	0	70	14801
2026-01-18 11:08:45.79	133.56	5.68	-49.5	-61.7	3.8	8.47e-01	0	41	104	0	70	14718
2026-01-18 11:08:46.78	133.52	5.75	-49.5	-61.7	3.8	8.47e-01	0	41	104	0	70	14767
2026-01-18 11:08:47.78	133.47	5.82	-49.5	-61.6	3.8	8.46e-01	0	41	104	0	70	14684
2026-01-18 11:08:48.77	133.43	5.89	-49.5	-61.6	3.8	8.47e-01	0	41	104	0	70	14569
2026-01-18 11:08:49.76	133.38	5.96	-49.5	-61.5	3.8	8.47e-01	0	41	104	0	70	14468
2026-01-18 11:08:50.75	133.34	6.03	-49.4	-61.4	3.8	8.48e-01	0	42	104	0	70	14291
2026-01-18 11:08:51.75	133.29	6.10	-49.5	-61.3	3.8	8.47e-01	0	41	104	0	70	14118
2026-01-18 11:08:52.74	133.25	6.17	-49.4	-61.2	3.8	8.46e-01	0	42	104	0	70	13946
2026-01-18 11:08:53.73	133.20	6.24	-49.4	-61.0	3.8	8.46e-01	0	42	104	0	70	13668
2026-01-18 11:08:54.73	133.15	6.32	-49.4	-60.9	3.8	8.47e-01	0	42	104	0	70	13442
2026-01-18 11:08:55.72	133.11	6.39	-49.4	-60.9	3.8	8.47e-01	0	42	104	0	70	13433
2026-01-18 11:08:56.72	133.06	6.46	-49.4	-60.8	3.8	8.47e-01	0	42	104	0	70	13271
2026-01-18 11:08:57.71	133.01	6.53	-49.4	-60.9	3.8	8.46e-01	0	42	104	0	70	13522
2026-01-18 11:08:58.70	132.97	6.60	-49.4	-61.1	3.8	8.47e-01	0	42	104	0	70	13748
2026-01-18 11:08:59.70	132.92	6.68	-49.5	-61.3	3.8	8.47e-01	0	42	104	0	70	14176
2026-01-18 11:09:00.69	132.87	6.75	-49.5	-61.6	3.8	8.47e-01	0	42	104	0	70	14554
2026-01-18 11:09:01.68	132.82	6.82	-49.5	-61.7	3.8	8.47e-01	0	42	104	0	70	14731
2026-01-18 11:09:02.67	132.78	6.89	-49.5	-61.6	3.8	8.47e-01	0	42	104	0	70	14689
2026-01-18 11:09:03.67	132.73	6.97	-49.4	-61.4	3.8	8.46e-01	0	42	104	0	70	14286
2026-01-18 11:09:04.66	132.68	7.04	-49.4	-60.8	3.8	8.47e-01	0	42	104	0	70	13362
2026-01-18 11:09:05.66	132.63	7.12	-49.3	-60.3	3.8	8.46e-01	0	42	104	0	70	12611
2026-01-18 11:09:06.65	132.58	7.19	-49.2	-59.7	3.8	8.46e-01	0	42	104	0	70	11792
2026-01-18 11:09:07.64	132.53	7.26	-49.2	-59.1	3.8	8.44e-01	0	42	104	0	70	10952
2026-01-18 11:09:08.64	132.48	7.34	-49.1	-58.6	4.1	8.45e-01	0	42	104	0	70	10400
2026-01-18 11:09:09.63	132.43	7.41	-49.0	-57.8	4.3	8.41e-01	0	42	0	0	69	9981
2026-01-18 11:09:10.62	132.38	7.49	-48.9	-57.2	4.4	8.26e-01	0	42	0	0	69	9366
2026-01-18 11:09:11.61	132.33	7.56	-48.4	-55.5	5.3	7.69e-01	0	42	0	0	68	8161
2026-01-18 11:09:12.61	132.28	7.64	-47.7	-53.4	6.8	2.86e-01	0	42	0	3145728	67	6793
2026-01-18 11:09:13.60	132.23	7.71	-46.8	-51.4	8.7	6.42e-02	0	42	0	8388608	65	6057
2026-01-18 11:09:14.60	132.18	7.79	-46.0	-50.0	10.2	1.76e-02	0	42	0	13631488	64	5432
2026-01-18 11:09:15.59	132.13	7.86	-45.0	-48.4	12.0	8.33e-04	0	42	0	19922944	62	5056
2026-01-18 11:09:16.58	132.07	7.94	-43.9	-46.8	13.5	5.26e-05	0	42	0	25165824	59	5005
2026-01-18 11:09:17.58	132.02	8.01	-42.7	-45.3	15.0	0.00e+00	0	42	0	30408704	57	4709
2026-01-18 11:09:18.57	131.97	8.09	-42.0	-44.4	15.9	0.00e+00	0	42	0	36700160	56	4531
2026-01-18 11:09:19.56	131.92	8.17	-41.1	-43.3	16.8	0.00e+00	0	42	0	41943040	54	4473
2026-01-18 11:09:20.55	131.86	8.24	-40.6	-42.8	17.3	0.00e+00	0	42	0	48234496	53	4461
2026-01-18 11:09:21.55	131.81	8.32	-40.3	-42.4	17.6	0.00e+00	0	42	0	53477376	52	4536
2026-01-18 11:09:22.54	131.76	8.40	-40.2	-42.3	17.7	0.00e+00	0	42	0	58720256	52	4472
2026-01-18 11:09:23.53	131.70	8.47	-40.2	-42.3	17.8	0.00e+00	0	42	0	63963136	51	4725
2026-01-18 11:09:24.53	131.65	8.55	-40.7	-42.8	17.3	0.00e+00	0	42	0	70254592	51	5013
2026-01-18 11:09:25.52	131.60	8.63	-40.8	-43.0	17.1	0.00e+00	0	42	0	75497472	52	4836
2026-01-18 11:09:26.51	131.54	8.71	-41.3	-43.6	16.5	0.00e+00	0	42	0	80740352	53	4890
2026-01-18 11:09:27.51	131.49	8.79	-42.2	-44.6	15.5	0.00e+00	0	42	0	87031808	55	4911
2026-01-18 11:09:28.50	131.43	8.86	-43.3	-46.0	14.4	1.10e-06	0	43	0	92274688	57	5107
2026-01-18 11:09:29.49	131.37	8.94	-44.3	-47.3	13.1	1.25e-05	0	42	0	97517568	59	5283
2026-01-18 11:09:30.49	131.32	9.02	-45.3	-48.8	11.5	5.89e-04	0	42	0	103809024	61	5656
2026-01-18 11:09:31.48	131.26	9.10	-46.1	-50.0	10.2	7.68e-03	0	42	0	109051904	63	5763
2026-01-18 11:09:32.48	131.20	9.18	-44.2	-47.1	13.2	2.17e-03	0	43	0	114294784	60	4911
2026-01-18 11:09:33.47	131.15	9.26	-45.0	-48.3	12.2	0.00e+00	0	43	0	120586240	60	5640
2026-01-18 11:09:34.47	131.09	9.34	-46.8	-51.4	8.5	5.97e-01	0	42	0	122683392	65	6039
2026-01-18 11:09:35.46	131.03	9.42	-41.3	-43.6	16.6	1.10e-06	0	42	0	127926272	54	4627
2026-01-18 11:09:36.46	130.97	9.50	-42.3	-44.7	15.6	8.00e-06	0	42	0	134217728	56	4702
2026-01-18 11:09:37.45	130.92	9.58	-41.1	-43.3	16.9	0.00e+00	0	42	0	139460608	54	4466
2026-01-18 11:09:38.45	130.86	9.66	-41.0	-43.2	17.0	0.00e+00	0	42	0	144703488	53	4662
2026-01-18 11:09:39.44	130.80	9.74	-40.4	-42.5	17.7	0.00e+00	0	42	0	150994944	52	4579
2026-01-18 11:09:40.43	130.74	9.82	-40.2	-42.2	18.0	0.00e+00	0	43	0	156237824	51	4704
2026-01-18 11:09:41.43	130.68	9.91	-40.1	-42.1	18.0	0.00e+00	0	43	0	161480704	51	4645
2026-01-18 11:09:42.42	130.62	9.99	-39.7	-41.8	18.4	0.00e+00	0	42	0	167772160	51	4449
2026-01-18 11:09:43.42	130.56	10.07	-39.6	-41.7	18.5	0.00e+00	0	42	0	173015040	51	4394
2026-01-18 11:09:44.42	130.50	10.15	-39.3	-41.3	18.8	0.00e+00	0	43	0	178257920	50	4490
2026-01-18 11:09:45.41	130.44	10.23	-39.5	-41.5	18.7	0.00e+00	0	43	0	184549376	50	4565
2026-01-18 11:09:46.41	130.37	10.32	-39.6	-41.6	18.6	0.00e+00	0	43	0	189792256	50	4615
2026-01-18 11:09:47.40	130.31	10.40	-39.4	-41.5	18.7	0.00e+00	0	43	0	195035136	50	4550
2026-01-18 11:09:48.39	130.25	10.48	-39.3	-41.3	18.8	0.00e+00	0	43	0	201326592	50	4475
2026-01-18 11:09:49.39	130.19	10.57	-39.3	-41.3	18.9	0.00e+00	0	43	0	206569472	50	4464
2026-01-18 11:09:50.38	130.13	10.65	-39.3	-41.3	18.9	0.00e+00	0	43	0	211812352	50	4462
2026-01-18 11:09:51.38	130.06	10.73	-39.3	-41.3	18.9	0.00e+00	0	43	0	218103808	50	4453
2026-01-18 11:09:52.37	130.00	10.82	-39.3	-41.3	18.9	0.00e+00	0	43	0	223346688	50	4451
2026-01-18 11:09:53.45	129.93	10.91	-39.3	-41.3	18.9	0.00e+00	0	43	0	229638144	50	4460
2026-01-18 11:09:54.33	129.87	10.98	-39.2	-41.2	19.0	0.00e+00	0	43	0	234881024	50	4417
2026-01-18 11:09:55.47	129.80	11.08	-39.1	-41.1	19.1	0.00e+00	0	43	0	241172480	50	4375
2026-01-18 11:09:56.32	129.74	11.15	-39.2	-41.1	19.0	0.00e+00	0	43	0	245366784	50	4375
2026-01-18 11:09:57.46	129.67	11.25	-39.1	-41.0	19.2	0.00e+00	0	43	0	251658240	50	4336
2026-01-18 11:09:58.31	129.61	11.33	-38.9	-40.9	19.3	0.00e+00	0	43	0	256901120	49	4508
2026-01-18 11:09:59.45	129.53	11.42	-39.0	-41.0	19.2	0.00e+00	0	43	0	263192576	49	4567
2026-01-18 11:10:00.30	129.48	11.50	-38.9	-40.9	19.3	0.00e+00	0	43	0	268435456	49	4503
2026-01-18 11:10:01.44	129.40	11.60	-38.9	-40.9	19.3	0.00e+00	0	43	0	274726912	49	4512
2026-01-18 11:10:02.29	129.34	11.67	-38.8	-40.8	19.4	0.00e+00	0	43	0	278921216	49	4457
2026-01-18 11:10:03.43	129.26	11.77	-39.0	-40.9	19.3	0.00e+00	0	43	0	285212672	49	4536
2026-01-18 11:10:04.28	129.20	11.85	-38.9	-40.8	19.3	0.00e+00	0	43	0	290455552	49	4492
2026-01-18 11:10:05.42	129.13	11.95	-38.9	-40.8	19.4	0.00e+00	0	43	0	296747008	49	4491
2026-01-18 11:10:06.27	129.07	12.02	-38.9	-40.9	19.3	0.00e+00	0	43	0	301989888	49	4513
2026-01-18 11:10:07.50	128.98	12.13	-39.0	-40.9	19.3	0.00e+00	0	43	0	308281344	49	4525
2026-01-18 11:10:08.35	128.92	12.21	-38.9	-40.9	19.4	0.00e+00	0	43	0	313524224	49	4497
2026-01-18 11:10:09.49	128.84	12.31	-38.9	-40.8	19.4	0.00e+00	0	43	0	319815680	49	4474
2026-01-18 11:10:10.34	128.78	12.38	-38.7	-40.6	19.6	0.00e+00	0	43	0	324009984	49	4379
2026-01-18 11:10:11.48	128.70	12.49	-38.5	-40.5	19.7	0.00e+00	0	43	0	331350016	49	4294
2026-01-18 11:10:12.33	128.63	12.56	-38.5	-40.4	19.8	0.00e+00	0	43	0	335544320	49	4282
2026-01-18 11:10:13.47	128.55	12.66	-38.6	-40.5	19.7	0.00e+00	0	43	0	341835776	49	4313
2026-01-18 11:10:14.32	128.49	12.74	-38.6	-40.5	19.7	0.00e+00	0	43	0	347078656	49	4306
2026-01-18 11:10:15.46	128.40	12.85	-38.6	-40.6	19.7	0.00e+00	0	43	0	353370112	49	4341
2026-01-18 11:10:16.31	128.34	12.92	-38.6	-40.6	19.7	0.00e+00	0	43	0	358612992	49	4355
2026-01-18 11:10:17.45	128.26	13.03	-38.5	-40.4	19.8	0.00e+00	0	43	0	363855872	49	4289
2026-01-18 11:10:18.30	128.19	13.11	-38.6	-40.5	19.7	0.00e+00	0	43	0	369098752	49	4310
2026-01-18 11:10:19.44	128.11	13.21	-38.5	-40.5	19.7	0.00e+00	0	43	0	375390208	49	4308
2026-01-18 11:10:20.29	128.04	13.29	-38.5	-40.5	19.8	0.00e+00	0	43	0	380633088	49	4292
2026-01-18 11:10:21.43	127.95	13.39	-38.6	-40.5	19.7	0.00e+00	0	43	0	386924544	49	4316
2026-01-18 11:10:22.28	127.89	13.47	-38.5	-40.4	19.8	0.00e+00	0	43	0	392167424	49	4267
2026-01-18 11:10:23.42	127.80	13.58	-38.3	-40.2	20.0	0.00e+00	0	43	0	398458880	48	4435
2026-01-18 11:10:24.27	127.73	13.66	-38.4	-40.3	19.9	0.00e+00	0	43	0	402653184	48	4462
2026-01-18 11:10:25.40	127.64	13.77	-38.3	-40.1	20.0	0.00e+00	0	43	0	408944640	48	4391
2026-01-18 11:10:26.26	127.58	13.85	-38.3	-40.2	20.0	0.00e+00	0	43	0	414187520	48	4423
2026-01-18 11:10:27.39	127.49	13.95	-38.5	-40.3	19.9	0.00e+00	0	43	0	420478976	48	4484
2026-01-18 11:10:28.25	127.42	14.03	-38.3	-40.2	20.1	0.00e+00	0	43	0	424673280	48	4394
2026-01-18 11:10:29.39	127.32	14.14	-38.3	-40.1	20.1	0.00e+00	0	43	0	432013312	48	4377
2026-01-18 11:10:30.28	127.25	14.23	-38.1	-40.0	20.2	0.00e+00	0	43	0	436207616	48	4292
2026-01-18 11:10:31.59	127.14	14.35	-38.2	-40.1	20.1	0.00e+00	0	43	0	443547648	48	4367
2026-01-18 11:10:32.30	127.09	14.42	-38.3	-40.1	20.1	0.00e+00	0	43	0	447741952	48	4381
2026-01-18 11:10:33.79	126.96	14.57	-38.1	-39.9	20.2	0.00e+00	0	43	0	456130560	48	4287
2026-01-18 11:10:34.50	126.90	14.63	-38.1	-40.0	20.2	0.00e+00	0	43	0	460324864	48	4298
2026-01-18 11:10:35.78	126.79	14.76	-37.9	-39.8	20.2	0.00e+00	0	43	0	467664896	47	4455
2026-01-18 11:10:36.49	126.73	14.83	-37.9	-39.8	20.1	0.00e+00	0	43	0	471859200	47	4468
2026-01-18 11:10:37.77	126.62	14.95	-37.8	-39.7	20.2	0.00e+00	0	43	0	479199232	47	4431
2026-01-18 11:10:38.48	126.56	15.02	-37.8	-39.7	20.2	0.00e+00	0	43	0	482344960	47	4441
2026-01-18 11:10:39.76	126.45	15.15	-37.8	-39.7	20.2	0.00e+00	0	43	0	489684992	47	4436
2026-01-18 11:10:40.48	126.39	15.22	-37.7	-39.6	20.3	0.00e+00	0	43	0	493879296	47	4370
2026-01-18 11:10:41.76	126.28	15.35	-37.9	-39.8	20.1	0.00e+00	0	43	0	501219328	47	4460
2026-01-18 11:10:42.47	126.21	15.42	-37.9	-39.8	20.2	0.00e+00	0	43	0	505413632	47	4449
2026-01-18 11:10:43.75	126.10	15.55	-37.8	-39.7	20.3	0.00e+00	0	43	0	512753664	47	4404
2026-01-18 11:10:44.54	126.03	15.62	-37.9	-39.8	20.2	0.00e+00	0	43	0	516947968	47	4449
2026-01-18 11:10:45.73	125.92	15.74	-37.8	-39.7	20.2	0.00e+00	0	43	0	523239424	47	4438
2026-01-18 11:10:46.71	125.83	15.84	-37.8	-39.7	20.3	0.00e+00	0	43	0	529530880	47	4404
2026-01-18 11:10:47.86	125.73	15.96	-37.8	-39.7	20.2	0.00e+00	0	43	0	535822336	47	4429
2026-01-18 11:10:48.73	125.65	16.05	-37.9	-39.8	20.1	0.00e+00	0	43	0	540016640	47	4454
2026-01-18 11:10:50.02	125.53	16.18	-37.7	-39.6	20.3	0.00e+00	0	43	0	547356672	47	4380
2026-01-18 11:10:50.73	125.46	16.25	-37.8	-39.6	20.3	0.00e+00	0	43	0	551550976	47	4390
2026-01-18 11:10:52.25	125.32	16.41	-37.6	-39.5	20.4	0.00e+00	0	43	0	559939584	47	4308
2026-01-18 11:10:52.96	125.25	16.48	-37.6	-39.5	20.5	0.00e+00	0	43	0	564133888	47	4294
2026-01-18 11:10:54.24	125.13	16.61	-37.6	-39.4	20.5	0.00e+00	0	43	0	571473920	47	4275
2026-01-18 11:10:54.95	125.06	16.69	-37.5	-39.3	20.6	0.00e+00	0	43	0	575668224	47	4229
2026-01-18 11:10:56.23	124.94	16.82	-37.5	-39.3	20.6	0.00e+00	0	43	0	583008256	46	4487
2026-01-18 11:10:56.94	124.87	16.89	-37.3	-39.2	20.7	0.00e+00	0	43	0	586153984	46	4410
2026-01-18 11:10:58.22	124.74	17.03	-37.3	-39.2	20.7	0.00e+00	0	43	0	593494016	46	4414
2026-01-18 11:10:58.93	124.67	17.10	-37.4	-39.2	20.7	0.00e+00	0	43	0	597688320	46	4429
2026-01-18 11:11:00.21	124.54	17.24	-37.2	-39.1	20.8	0.00e+00	0	43	0	605028352	46	4366
2026-01-18 11:11:00.93	124.47	17.31	-37.3	-39.2	20.7	0.00e+00	0	43	0	609222656	46	4407
2026-01-18 11:11:02.20	124.34	17.45	-37.2	-39.0	20.9	0.00e+00	0	43	0	616562688	46	4314
2026-01-18 11:11:02.92	124.27	17.53	-37.2	-39.0	20.8	0.00e+00	0	43	0	620756992	46	4338
2026-01-18 11:11:04.20	124.14	17.66	-37.1	-38.9	21.0	0.00e+00	0	43	0	627048448	46	4286
2026-01-18 11:11:04.92	124.06	17.74	-37.0	-38.8	21.1	0.00e+00	0	43	0	631242752	46	4228
2026-01-18 11:11:06.20	123.93	17.88	-37.1	-38.9	21.0	0.00e+00	0	43	0	638582784	45	4535
2026-01-18 11:11:07.15	123.83	17.98	-37.1	-38.9	21.0	0.00e+00	0	43	0	643825664	45	4519
2026-01-18 11:11:08.14	123.72	18.09	-37.1	-39.0	20.9	0.00e+00	0	43	0	649068544	45	4566
2026-01-18 11:11:09.14	123.62	18.20	-37.1	-38.9	21.0	0.00e+00	0	43	0	655360000	45	4517
2026-01-18 11:11:10.13	123.51	18.31	-36.9	-38.7	21.2	0.00e+00	0	43	0	660602880	45	4420
2026-01-18 11:11:11.13	123.40	18.42	-36.9	-38.7	21.2	0.00e+00	0	43	0	666894336	45	4400
2026-01-18 11:11:12.12	123.29	18.53	-36.9	-38.8	21.1	0.00e+00	0	43	0	672137216	45	4443
2026-01-18 11:11:13.12	123.18	18.64	-36.9	-38.8	21.1	0.00e+00	0	43	0	677380096	45	4442
2026-01-18 11:11:14.11	123.07	18.75	-36.9	-38.8	21.1	0.00e+00	0	43	0	683671552	45	4451
2026-01-18 11:11:15.10	122.96	18.86	-37.0	-38.8	20.9	0.00e+00	0	43	0	688914432	45	4484
2026-01-18 11:11:16.13	122.85	18.97	-37.0	-38.8	21.0	0.00e+00	0	43	0	694157312	45	4485
2026-01-18 11:11:17.16	122.73	19.09	-36.9	-38.7	21.1	0.00e+00	0	43	0	700448768	45	4416
2026-01-18 11:11:18.15	122.62	19.20	-36.9	-38.8	21.1	0.00e+00	0	43	0	705691648	45	4448
2026-01-18 11:11:19.15	122.50	19.31	-36.9	-38.8	21.1	0.00e+00	0	43	0	710934528	45	4459
2026-01-18 11:11:20.14	122.39	19.42	-37.0	-38.8	21.0	0.00e+00	0	43	0	717225984	45	4488
2026-01-18 11:11:21.14	122.27	19.54	-36.8	-38.6	21.2	0.00e+00	0	43	0	722468864	45	4391
2026-01-18 11:11:22.14	122.16	19.65	-36.8	-38.6	21.2	0.00e+00	0	43	0	728760320	45	4391
2026-01-18 11:11:23.32	122.02	19.78	-36.8	-38.6	21.2	0.00e+00	0	43	0	735051776	45	4368
2026-01-18 11:11:24.20	121.91	19.89	-36.7	-38.5	21.3	0.00e+00	0	43	0	740294656	45	4336
2026-01-18 11:11:25.51	121.75	20.04	-36.6	-38.4	21.4	0.00e+00	0	43	0	747634688	45	4285
2026-01-18 11:11:26.22	121.67	20.12	-36.7	-38.5	21.3	0.00e+00	0	43	0	751828992	45	4323
2026-01-18 11:11:27.72	121.48	20.29	-36.5	-38.3	21.5	0.00e+00	0	43	0	760217600	44	4443
2026-01-18 11:11:28.43	121.40	20.38	-36.4	-38.2	21.6	0.00e+00	0	43	0	763363328	44	4395
2026-01-18 11:11:29.79	121.23	20.53	-36.3	-38.1	21.7	0.00e+00	0	43	0	771751936	44	4347
2026-01-18 11:11:30.50	121.14	20.62	-36.2	-38.0	21.8	0.00e+00	0	43	0	774897664	44	4322
2026-01-18 11:11:31.78	120.98	20.77	-36.3	-38.1	21.7	0.00e+00	0	43	0	782237696	44	4378
2026-01-18 11:11:32.51	120.88	20.86	-36.4	-38.2	21.6	0.00e+00	0	44	0	786432000	44	4398
2026-01-18 11:11:33.79	120.72	21.01	-36.5	-38.3	21.5	0.00e+00	0	43	0	793772032	44	4456
2026-01-18 11:11:34.53	120.62	21.10	-36.5	-38.3	21.5	0.00e+00	0	43	0	797966336	44	4489
2026-01-18 11:11:35.81	120.45	21.25	-36.4	-38.2	21.6	0.00e+00	0	43	0	805306368	44	4416
2026-01-18 11:11:36.52	120.36	21.33	-36.4	-38.2	21.6	0.00e+00	0	43	0	809500672	44	4427
2026-01-18 11:11:37.80	120.19	21.49	-36.4	-38.2	21.6	0.00e+00	0	43	0	816840704	44	4440
2026-01-18 11:11:38.51	120.10	21.57	-36.3	-38.1	21.7	0.00e+00	0	43	0	821035008	44	4369
2026-01-18 11:11:39.79	119.92	21.73	-36.1	-37.9	21.9	0.00e+00	0	43	0	827326464	44	4254
2026-01-18 11:11:40.58	119.82	21.82	-36.1	-37.8	21.9	0.00e+00	0	43	0	832569344	44	4236
2026-01-18 11:11:41.77	119.65	21.97	-36.0	-37.8	22.0	0.00e+00	0	43	0	838860800	44	4202
2026-01-18 11:11:42.74	119.52	22.09	-36.0	-37.7	22.0	0.00e+00	0	43	0	844103680	44	4187
2026-01-18 11:11:43.73	119.38	22.21	-35.7	-37.5	22.1	0.00e+00	0	43	0	849346560	43	4312
2026-01-18 11:11:44.73	119.24	22.33	-35.8	-37.5	22.0	0.00e+00	0	43	0	855638016	43	4327
2026-01-18 11:11:45.72	119.10	22.45	-35.8	-37.6	21.9	0.00e+00	0	43	0	860880896	43	4375
2026-01-18 11:11:46.72	118.96	22.58	-35.8	-37.6	22.0	0.00e+00	0	43	0	867172352	43	4368
2026-01-18 11:11:47.71	118.82	22.70	-35.9	-37.7	21.9	0.00e+00	0	44	0	872415232	43	4408
2026-01-18 11:11:48.71	118.67	22.83	-35.8	-37.5	22.0	0.00e+00	0	43	0	877658112	43	4324
2026-01-18 11:11:49.71	118.53	22.95	-35.8	-37.5	22.0	0.00e+00	0	43	0	883949568	43	4340
2026-01-18 11:11:50.70	118.38	23.08	-35.8	-37.6	22.0	0.00e+00	0	43	0	889192448	43	4350
2026-01-18 11:11:51.70	118.23	23.20	-35.7	-37.5	22.1	0.00e+00	0	43	0	894435328	43	4313
2026-01-18 11:11:52.69	118.09	23.33	-35.8	-37.5	22.0	0.00e+00	0	43	0	899678208	43	4328
2026-01-18 11:11:53.68	117.94	23.45	-35.6	-37.4	22.1	0.00e+00	0	43	0	905969664	43	4274
2026-01-18 11:11:54.74	117.78	23.59	-35.7	-37.5	22.1	0.00e+00	0	43	0	911212544	43	4317
2026-01-18 11:11:55.68	117.63	23.71	-35.7	-37.5	22.1	0.00e+00	0	43	0	917504000	43	4311
2026-01-18 11:11:56.79	117.46	23.85	-35.8	-37.5	22.0	0.00e+00	0	43	0	922746880	43	4331
2026-01-18 11:11:57.69	117.32	23.96	-35.8	-37.5	22.0	0.00e+00	0	43	0	927989760	43	4326
2026-01-18 11:11:58.95	117.12	24.13	-35.9	-37.7	21.9	0.00e+00	0	44	0	935329792	43	4400
2026-01-18 11:11:59.72	117.00	24.23	-35.8	-37.6	22.0	0.00e+00	0	43	0	939524096	43	4361
2026-01-18 11:12:01.01	116.79	24.39	-35.9	-37.7	21.9	0.00e+00	0	43	0	946864128	43	4428
2026-01-18 11:12:01.71	116.68	24.48	-35.9	-37.7	21.9	0.00e+00	0	43	0	951058432	43	4405
2026-01-18 11:12:02.99	116.47	24.65	-35.9	-37.7	21.9	0.00e+00	0	43	0	958398464	43	4395
2026-01-18 11:12:03.71	116.35	24.75	-35.8	-37.6	22.0	0.00e+00	0	43	0	962592768	43	4364
2026-01-18 11:12:04.98	116.14	24.91	-35.9	-37.6	21.9	0.00e+00	0	43	0	968884224	43	4381
2026-01-18 11:12:05.69	116.02	25.01	-35.8	-37.6	21.9	0.00e+00	0	43	0	973078528	43	4348
2026-01-18 11:12:06.97	115.81	25.17	-35.6	-37.3	22.1	0.00e+00	0	43	0	980418560	43	4237
2026-01-18 11:12:07.70	115.69	25.27	-35.5	-37.2	22.2	0.00e+00	0	43	0	984612864	42	4420
2026-01-18 11:12:08.98	115.47	25.44	-35.4	-37.2	22.3	0.00e+00	0	43	0	991952896	42	4408
2026-01-18 11:12:09.69	115.34	25.54	-35.4	-37.2	22.3	0.00e+00	0	43	0	996147200	42	4404
2026-01-18 11:12:10.97	115.12	25.71	-35.3	-37.0	22.5	0.00e+00	0	43	0	1003487232	42	4324
2026-01-18 11:12:11.68	115.00	25.80	-35.3	-37.0	22.4	0.00e+00	0	43	0	1006632960	42	4335
2026-01-18 11:12:12.99	114.76	25.98	-35.2	-37.0	22.5	0.00e+00	0	43	0	1013972992	42	4293
2026-01-18 11:12:13.70	114.64	26.07	-35.3	-37.1	22.4	0.00e+00	0	43	0	1018167296	42	4353
2026-01-18 11:12:15.04	114.40	26.25	-35.4	-37.1	22.3	0.00e+00	0	43	0	1025507328	42	4382
2026-01-18 11:12:15.75	114.27	26.35	-35.5	-37.3	22.3	0.00e+00	0	43	0	1029701632	42	4450
2026-01-18 11:12:17.11	114.02	26.53	-35.6	-37.3	22.2	0.00e+00	0	44	0	1038090240	42	4490
2026-01-18 11:12:17.82	113.89	26.63	-35.6	-37.3	22.1	0.00e+00	0	43	0	1041235968	42	4485
2026-01-18 11:12:19.10	113.65	26.81	-35.7	-37.5	22.1	0.00e+00	0	43	0	1048576000	42	4546
2026-01-18 11:12:20.16	113.45	26.95	-35.6	-37.3	22.2	0.00e+00	0	43	0	1054867456	42	4490
2026-01-18 11:12:21.34	113.22	27.11	-35.4	-37.2	22.3	0.00e+00	0	43	0	1061158912	42	4418
2026-01-18 11:12:22.34	113.03	27.25	-35.2	-37.0	22.4	0.00e+00	0	43	0	1067450368	42	4313
2026-01-18 11:12:23.33	112.84	27.39	-35.2	-37.0	22.5	0.00e+00	0	43	0	1072693248	42	4306
2026-01-18 11:12:24.33	112.64	27.53	-35.2	-37.0	22.5	0.00e+00	0	43	0	1077936128	42	4295
2026-01-18 11:12:25.32	112.45	27.66	-35.2	-36.9	22.5	0.00e+00	0	43	0	1084227584	42	4285
2026-01-18 11:12:26.32	112.25	27.80	-35.2	-37.0	22.5	0.00e+00	0	43	0	1089470464	42	4305
2026-01-18 11:12:27.31	112.05	27.94	-35.4	-37.1	22.4	0.00e+00	0	44	0	1094713344	42	4388
2026-01-18 11:12:28.30	111.85	28.08	-35.3	-37.1	22.4	0.00e+00	0	43	0	1101004800	42	4367
2026-01-18 11:12:29.30	111.64	28.22	-35.4	-37.1	22.4	0.00e+00	0	43	0	1106247680	42	4378
2026-01-18 11:12:30.30	111.44	28.36	-35.4	-37.2	22.4	0.00e+00	0	43	0	1111490560	42	4392
2026-01-18 11:12:31.29	111.23	28.50	-35.4	-37.2	22.4	0.00e+00	0	43	0	1117782016	42	4397
2026-01-18 11:12:32.28	111.03	28.64	-35.3	-37.0	22.5	0.00e+00	0	43	0	1123024896	42	4318
2026-01-18 11:12:33.28	110.81	28.78	-35.3	-37.0	22.5	0.00e+00	0	43	0	1128267776	42	4316
2026-01-18 11:12:34.28	110.60	28.92	-35.2	-37.0	22.5	0.00e+00	0	43	0	1134559232	42	4304
2026-01-18 11:12:35.27	110.39	29.06	-35.3	-37.0	22.5	0.00e+00	0	43	0	1139802112	42	4326
2026-01-18 11:12:36.34	110.15	29.21	-35.3	-37.1	22.4	0.00e+00	0	43	0	1146093568	42	4350
2026-01-18 11:12:37.23	109.96	29.34	-35.2	-37.0	22.5	0.00e+00	0	44	0	1150287872	42	4301
2026-01-18 11:12:38.37	109.71	29.50	-35.2	-36.9	22.5	0.00e+00	0	43	0	1157627904	42	4288
2026-01-18 11:12:39.22	109.52	29.62	-35.1	-36.9	22.6	0.00e+00	0	43	0	1161822208	42	4255
2026-01-18 11:12:40.36	109.26	29.78	-35.2	-36.9	22.6	0.00e+00	0	44	0	1168113664	42	4284
2026-01-18 11:12:41.21	109.07	29.90	-35.3	-37.0	22.5	0.00e+00	0	44	0	1173356544	42	4324
2026-01-18 11:12:42.35	108.81	30.07	-35.2	-36.9	22.6	0.00e+00	0	43	0	1179648000	42	4268
2026-01-18 11:12:43.20	108.61	30.19	-35.1	-36.9	22.6	0.00e+00	0	43	0	1183842304	42	4250
2026-01-18 11:12:44.34	108.34	30.35	-35.1	-36.8	22.7	0.00e+00	0	43	0	1191182336	42	4226
2026-01-18 11:12:45.19	108.14	30.47	-35.1	-36.9	22.6	0.00e+00	0	43	0	1195376640	42	4248
2026-01-18 11:12:46.33	107.87	30.64	-35.1	-36.8	22.6	0.00e+00	0	43	0	1201668096	42	4240
2026-01-18 11:12:47.18	107.67	30.76	-35.2	-36.9	22.6	0.00e+00	0	44	0	1206910976	42	4285
2026-01-18 11:12:48.37	107.38	30.93	-35.2	-36.9	22.6	0.00e+00	0	43	0	1213202432	42	4271
2026-01-18 11:12:49.23	107.17	31.06	-35.0	-36.8	22.7	0.00e+00	0	43	0	1218445312	42	4197
2026-01-18 11:12:50.36	106.89	31.22	-34.9	-36.7	22.7	0.00e+00	0	43	0	1224736768	41	4396
2026-01-18 11:12:51.22	106.68	31.34	-34.9	-36.6	22.8	0.00e+00	0	43	0	1229979648	41	4370
2026-01-18 11:12:52.35	106.40	31.51	-35.0	-36.7	22.7	0.00e+00	0	43	0	1236271104	41	4411
2026-01-18 11:12:53.20	106.18	31.63	-34.9	-36.7	22.7	0.00e+00	0	43	0	1240465408	41	4398
2026-01-18 11:12:54.52	105.84	31.82	-35.0	-36.7	22.7	0.00e+00	0	43	0	1247805440	41	4438
2026-01-18 11:12:55.23	105.66	31.92	-35.0	-36.7	22.7	0.00e+00	0	43	0	1251999744	41	4421
2026-01-18 11:12:56.51	105.33	32.11	-35.0	-36.7	22.6	0.00e+00	0	43	0	1259339776	41	4425
2026-01-18 11:12:57.22	105.14	32.21	-35.0	-36.8	22.6	0.00e+00	0	43	0	1263534080	41	4465
2026-01-18 11:12:58.78	104.73	32.44	-35.1	-36.8	22.6	0.00e+00	0	43	0	1271922688	41	4471
2026-01-18 11:12:59.49	104.54	32.54	-35.1	-36.9	22.6	0.00e+00	0	43	0	1276116992	41	4497
2026-01-18 11:13:00.77	104.19	32.73	-35.2	-37.0	22.4	0.00e+00	0	43	0	1283457024	41	4559
2026-01-18 11:13:01.49	103.99	32.83	-35.1	-36.9	22.5	0.00e+00	0	43	0	1287651328	41	4519
2026-01-18 11:13:02.77	103.64	33.02	-35.2	-36.9	22.6	0.00e+00	0	43	0	1294991360	41	4520
2026-01-18 11:13:03.48	103.45	33.12	-35.2	-37.0	22.5	0.00e+00	0	43	0	1298137088	41	4546
2026-01-18 11:13:04.76	103.09	33.30	-35.1	-36.8	22.6	0.00e+00	0	43	0	1305477120	41	4476
2026-01-18 11:13:05.48	102.88	33.41	-35.0	-36.8	22.6	0.00e+00	0	43	0	1309671424	41	4442
2026-01-18 11:13:06.76	102.52	33.59	-34.8	-36.5	22.8	0.00e+00	0	43	0	1317011456	41	4324
2026-01-18 11:13:07.48	102.31	33.70	-34.8	-36.6	22.8	0.00e+00	0	43	0	1321205760	41	4347
2026-01-18 11:13:08.76	101.94	33.88	-34.8	-36.5	22.9	0.00e+00	0	44	0	1328545792	41	4314
2026-01-18 11:13:09.47	101.73	33.98	-34.8	-36.5	22.9	0.00e+00	0	43	0	1331691520	41	4319
2026-01-18 11:13:10.75	101.35	34.17	-34.8	-36.6	22.8	0.00e+00	0	43	0	1339031552	41	4359
2026-01-18 11:13:11.48	101.14	34.27	-34.8	-36.6	22.8	0.00e+00	0	44	0	1343225856	41	4353
2026-01-18 11:13:12.76	100.75	34.46	-34.8	-36.6	22.8	0.00e+00	0	44	0	1350565888	41	4347
2026-01-18 11:13:13.47	100.54	34.56	-34.8	-36.5	22.8	0.00e+00	0	43	0	1354760192	41	4339
2026-01-18 11:13:14.75	100.14	34.74	-34.9	-36.6	22.8	0.00e+00	0	43	0	1362100224	41	4359
2026-01-18 11:13:15.46	99.92	34.84	-34.9	-36.6	22.8	0.00e+00	0	43	0	1366294528	41	4359
2026-01-18 11:13:16.78	99.51	35.03	-34.7	-36.5	22.9	0.00e+00	0	43	0	1373634560	41	4297
2026-01-18 11:13:17.75	99.21	35.17	-34.7	-36.4	23.0	0.00e+00	0	43	0	1378877440	41	4289
2026-01-18 11:13:18.74	98.89	35.31	-34.7	-36.4	23.0	0.00e+00	0	43	0	1384120320	41	4273
2026-01-18 11:13:19.74	98.57	35.45	-34.7	-36.5	23.0	0.00e+00	0	43	0	1389363200	41	4297
2026-01-18 11:13:20.73	98.25	35.59	-34.7	-36.4	23.0	0.00e+00	0	43	0	1395654656	41	4284
2026-01-18 11:13:21.73	97.93	35.73	-34.8	-36.6	22.9	0.00e+00	0	43	0	1400897536	41	4355
2026-01-18 11:13:22.72	97.60	35.87	-34.9	-36.7	22.8	0.00e+00	0	43	0	1407188992	41	4392
2026-01-18 11:13:23.76	97.26	36.01	-35.0	-36.8	22.6	0.00e+00	0	44	0	1412431872	41	4467
2026-01-18 11:13:24.71	96.94	36.14	-35.1	-36.9	22.6	0.00e+00	0	43	0	1417674752	41	4498
2026-01-18 11:13:25.83	96.56	36.30	-35.1	-36.9	22.6	0.00e+00	0	43	0	1423966208	41	4512
2026-01-18 11:13:26.71	96.26	36.42	-35.1	-36.9	22.6	0.00e+00	0	43	0	1429209088	41	4494
2026-01-18 11:13:27.85	95.87	36.57	-35.2	-37.0	22.5	0.00e+00	0	43	0	1435500544	41	4570
2026-01-18 11:13:28.71	95.58	36.69	-35.4	-37.2	22.4	0.00e+00	0	43	0	1440743424	41	4658
2026-01-18 11:13:29.84	95.18	36.84	-35.4	-37.2	22.3	0.00e+00	0	43	0	1447034880	41	4689
2026-01-18 11:13:30.69	94.88	36.96	-35.5	-37.2	22.3	0.00e+00	0	43	0	1451229184	41	4702
2026-01-18 11:13:31.83	94.48	37.11	-35.3	-37.0	22.5	0.00e+00	0	43	0	1457520640	41	4588
2026-01-18 11:13:32.68	94.17	37.23	-35.0	-36.7	22.8	0.00e+00	0	44	0	1462763520	41	4434
2026-01-18 11:13:33.82	93.76	37.38	-35.0	-36.7	22.8	0.00e+00	0	44	0	1469054976	41	4422
2026-01-18 11:13:34.67	93.45	37.49	-35.0	-36.7	22.8	0.00e+00	0	43	0	1474297856	41	4428
2026-01-18 11:13:35.81	93.04	37.64	-35.2	-36.9	22.6	0.00e+00	0	43	0	1480589312	41	4538
2026-01-18 11:13:36.66	92.72	37.75	-35.3	-37.0	22.4	0.00e+00	0	44	0	1484783616	41	4597
2026-01-18 11:13:37.80	92.30	37.90	-35.0	-36.7	22.7	0.00e+00	0	44	0	1491075072	41	4439
2026-01-18 11:13:38.65	91.98	38.01	-34.9	-36.6	22.8	0.00e+00	0	43	0	1496317952	41	4375
2026-01-18 11:13:39.87	91.52	38.17	-35.1	-36.8	22.7	0.00e+00	0	43	0	1503657984	41	4475
2026-01-18 11:13:40.72	91.19	38.27	-35.1	-36.9	22.6	0.00e+00	0	43	0	1507852288	41	4518
2026-01-18 11:13:41.89	90.74	38.42	-35.2	-36.9	22.5	0.00e+00	0	43	0	1514143744	41	4537
2026-01-18 11:13:42.74	90.42	38.53	-35.2	-36.9	22.6	0.00e+00	0	43	0	1519386624	41	4522
2026-01-18 11:13:43.93	89.95	38.67	-35.2	-36.9	22.6	0.00e+00	0	44	0	1525678080	41	4531
2026-01-18 11:13:44.78	89.62	38.78	-35.1	-36.8	22.7	0.00e+00	0	43	0	1530920960	41	4480
2026-01-18 11:13:45.92	89.16	38.92	-35.1	-36.9	22.7	0.00e+00	0	44	0	1537212416	41	4502
2026-01-18 11:13:46.77	88.82	39.02	-35.2	-37.0	22.6	0.00e+00	0	43	0	1542455296	41	4565
2026-01-18 11:13:48.02	88.32	39.17	-35.0	-36.7	22.7	0.00e+00	0	43	0	1548746752	41	4434
2026-01-18 11:13:48.87	87.98	39.27	-34.8	-36.6	22.9	0.00e+00	0	44	0	1553989632	41	4350
2026-01-18 11:13:50.06	87.49	39.41	-34.9	-36.6	22.8	0.00e+00	0	43	0	1560281088	41	4371
2026-01-18 11:13:50.91	87.14	39.51	-34.9	-36.6	22.9	0.00e+00	0	44	0	1565523968	41	4377
2026-01-18 11:13:52.04	86.67	39.63	-34.8	-36.6	22.9	0.00e+00	0	43	0	1571815424	41	4352
2026-01-18 11:13:52.90	86.31	39.73	-34.9	-36.7	22.8	0.00e+00	0	44	0	1576009728	41	4418
2026-01-18 11:13:54.03	85.84	39.86	-35.0	-36.8	22.8	0.00e+00	0	43	0	1582301184	41	4447
2026-01-18 11:13:54.89	85.47	39.95	-35.0	-36.7	22.8	0.00e+00	0	44	0	1587544064	41	4429
2026-01-18 11:13:56.02	84.99	40.07	-35.0	-36.7	22.8	0.00e+00	0	44	0	1593835520	41	4434
2026-01-18 11:13:56.88	84.62	40.17	-35.0	-36.7	22.9	0.00e+00	0	43	0	1599078400	41	4404
2026-01-18 11:13:58.01	84.14	40.29	-34.7	-36.4	23.0	0.00e+00	0	43	0	1605369856	41	4291
2026-01-18 11:13:58.87	83.76	40.38	-34.7	-36.4	23.1	0.00e+00	0	43	0	1609564160	41	4275
2026-01-18 11:14:00.01	83.27	40.49	-34.8	-36.5	23.1	0.00e+00	0	43	0	1616904192	41	4305
2026-01-18 11:14:00.86	82.89	40.58	-34.8	-36.5	23.0	0.00e+00	0	43	0	1621098496	41	4324
2026-01-18 11:14:01.99	82.39	40.69	-34.7	-36.4	23.1	0.00e+00	0	43	0	1627389952	41	4283
2026-01-18 11:14:02.85	82.01	40.77	-34.7	-36.5	23.0	0.00e+00	0	43	0	1632632832	41	4292
2026-01-18 11:14:04.08	81.46	40.89	-34.9	-36.7	22.9	0.00e+00	0	44	0	1638924288	41	4399
2026-01-18 11:14:04.93	81.07	40.97	-34.8	-36.5	22.9	0.00e+00	0	43	0	1644167168	41	4300
2026-01-18 11:14:06.07	80.56	41.08	-34.8	-36.6	23.0	0.00e+00	0	44	0	1650458624	41	4355
2026-01-18 11:14:06.92	80.17	41.15	-34.9	-36.6	22.9	0.00e+00	0	43	0	1655701504	41	4385
2026-01-18 11:14:08.05	79.65	41.25	-35.0	-36.7	22.8	0.00e+00	0	43	0	1661992960	41	4416
2026-01-18 11:14:08.91	79.26	41.33	-35.0	-36.7	22.8	0.00e+00	0	43	0	1666187264	41	4432
2026-01-18 11:14:10.05	78.73	41.42	-34.8	-36.5	23.1	0.00e+00	0	43	0	1672478720	41	4300
2026-01-18 11:14:10.90	78.33	41.49	-34.5	-36.2	23.2	0.00e+00	0	43	0	1677721600	41	4189
2026-01-18 11:14:12.03	77.80	41.59	-34.6	-36.3	23.2	0.00e+00	0	43	0	1684013056	40	4442
2026-01-18 11:14:12.88	77.40	41.65	-34.5	-36.2	23.3	0.00e+00	0	43	0	1689255936	40	4431
2026-01-18 11:14:14.02	76.86	41.74	-34.6	-36.3	23.2	0.00e+00	0	43	0	1695547392	40	4465
2026-01-18 11:14:14.87	76.46	41.80	-34.6	-36.3	23.1	0.00e+00	0	43	0	1699741696	40	4488
2026-01-18 11:14:16.01	75.92	41.89	-34.4	-36.2	23.3	0.00e+00	0	43	0	1706033152	40	4392
2026-01-18 11:14:16.86	75.51	41.95	-34.4	-36.1	23.4	0.00e+00	0	43	0	1711276032	40	4351
2026-01-18 11:14:18.02	74.95	42.03	-34.4	-36.1	23.4	0.00e+00	0	43	0	1717567488	40	4352
2026-01-18 11:14:18.87	74.54	42.08	-34.6	-36.3	23.2	0.00e+00	0	43	0	1722810368	40	4460
2026-01-18 11:14:20.00	73.99	42.16	-34.9	-36.6	22.9	0.00e+00	0	43	0	1729101824	40	4647
2026-01-18 11:14:20.85	73.58	42.21	-34.9	-36.6	22.9	0.00e+00	0	43	0	1733296128	40	4627
2026-01-18 11:14:21.99	73.02	42.28	-34.8	-36.5	23.0	0.00e+00	0	43	0	1739587584	40	4588
2026-01-18 11:14:22.85	72.60	42.33	-34.9	-36.6	22.9	0.00e+00	0	43	0	1744830464	40	4633
2026-01-18 11:14:23.98	72.04	42.39	-34.8	-36.6	22.9	0.00e+00	0	44	0	1751121920	40	4606
2026-01-18 11:14:24.84	71.62	42.43	-34.8	-36.5	23.1	0.00e+00	0	43	0	1756364800	40	4562
2026-01-18 11:14:25.98	71.05	42.49	-34.8	-36.5	23.1	0.00e+00	0	44	0	1762656256	40	4550
2026-01-18 11:14:26.83	70.63	42.53	-34.6	-36.3	23.2	0.00e+00	0	44	0	1766850560	40	4484
2026-01-18 11:14:27.97	70.06	42.58	-34.5	-36.2	23.2	0.00e+00	0	43	0	1774190592	40	4420
2026-01-18 11:14:28.82	69.64	42.62	-34.6	-36.3	23.1	0.00e+00	0	43	0	1778384896	40	4487
2026-01-18 11:14:29.96	69.07	42.67	-34.6	-36.3	23.2	0.00e+00	0	43	0	1784676352	40	4478
2026-01-18 11:14:30.81	68.64	42.70	-34.7	-36.4	23.1	0.00e+00	0	43	0	1789919232	40	4506
2026-01-18 11:14:31.95	68.06	42.74	-34.7	-36.4	23.1	0.00e+00	0	43	0	1796210688	40	4535
2026-01-18 11:14:32.80	67.64	42.77	-34.7	-36.4	23.1	0.00e+00	0	43	0	1800404992	40	4534
2026-01-18 11:14:33.94	67.06	42.81	-34.8	-36.5	23.0	0.00e+00	0	44	0	1806696448	40	4579
2026-01-18 11:14:34.79	66.63	42.83	-34.6	-36.4	23.1	0.00e+00	0	44	0	1811939328	40	4501
2026-01-18 11:14:36.10	65.96	42.86	-34.6	-36.3	23.2	0.00e+00	0	43	0	1819279360	40	4486
2026-01-18 11:14:36.82	65.60	42.88	-34.9	-36.6	23.0	0.00e+00	0	43	0	1823473664	40	4605
2026-01-18 11:14:38.09	64.95	42.91	-35.1	-36.8	22.8	0.00e+00	0	43	0	1830813696	40	4745
2026-01-18 11:14:38.80	64.59	42.92	-35.1	-36.9	22.8	0.00e+00	0	43	0	1835008000	41	4500
2026-01-18 11:14:40.08	63.94	42.94	-34.9	-36.6	23.0	0.00e+00	0	43	0	1841299456	41	4368
2026-01-18 11:14:40.89	63.52	42.95	-34.6	-36.3	23.3	0.00e+00	0	43	0	1846542336	41	4223
2026-01-18 11:14:42.02	62.95	42.96	-34.5	-36.2	23.4	0.00e+00	0	44	0	1852833792	40	4406
2026-01-18 11:14:42.88	62.51	42.97	-34.3	-35.9	23.5	0.00e+00	0	43	0	1857028096	40	4287
2026-01-18 11:14:44.01	61.93	42.98	-34.3	-36.0	23.5	0.00e+00	0	43	0	1864368128	40	4304
2026-01-18 11:14:44.87	61.49	42.98	-34.3	-36.0	23.4	0.00e+00	0	43	0	1868562432	40	4333
2026-01-18 11:14:46.00	60.91	42.98	-34.4	-36.1	23.4	0.00e+00	0	43	0	1874853888	40	4364
2026-01-18 11:14:46.86	60.47	42.98	-34.4	-36.1	23.4	0.00e+00	0	43	0	1880096768	40	4365
2026-01-18 11:14:48.01	59.88	42.97	-34.7	-36.4	23.1	0.00e+00	0	43	0	1886388224	40	4543
2026-01-18 11:14:48.86	59.45	42.97	-34.8	-36.5	23.0	0.00e+00	0	43	0	1891631104	40	4576
2026-01-18 11:14:50.03	58.85	42.96	-34.6	-36.3	23.1	0.00e+00	0	43	0	1897922560	40	4484
2026-01-18 11:14:50.89	58.41	42.95	-34.4	-36.1	23.4	0.00e+00	0	43	0	1902116864	40	4349
2026-01-18 11:14:52.02	57.83	42.93	-34.6	-36.3	23.3	0.00e+00	0	43	0	1909456896	40	4464
2026-01-18 11:14:52.88	57.39	42.91	-34.6	-36.3	23.3	0.00e+00	0	43	0	1913651200	40	4447
2026-01-18 11:14:54.12	56.76	42.89	-34.6	-36.3	23.2	0.00e+00	0	44	0	1920991232	40	4476
2026-01-18 11:14:54.98	56.33	42.87	-34.7	-36.4	23.2	0.00e+00	0	43	0	1925185536	40	4498
2026-01-18 11:14:56.12	55.75	42.84	-34.7	-36.4	23.1	0.00e+00	0	43	0	1932525568	40	4529
2026-01-18 11:14:56.97	55.32	42.82	-35.0	-36.7	22.9	0.00e+00	0	44	0	1936719872	40	4691
2026-01-18 11:14:58.11	54.74	42.78	-34.7	-36.4	23.1	0.00e+00	0	44	0	1943011328	40	4501
2026-01-18 11:14:58.96	54.31	42.76	-34.6	-36.2	23.3	0.00e+00	0	43	0	1948254208	40	4439
2026-01-18 11:15:00.10	53.74	42.72	-34.3	-36.0	23.4	0.00e+00	0	43	0	1954545664	40	4306
2026-01-18 11:15:01.01	53.28	42.68	-34.5	-36.2	23.3	0.00e+00	0	43	0	1959788544	40	4405
2026-01-18 11:15:02.01	52.78	42.64	-34.6	-36.3	23.1	0.00e+00	0	43	0	1965031424	40	4490
2026-01-18 11:15:03.01	52.28	42.60	-34.6	-36.3	23.2	0.00e+00	0	43	0	1971322880	40	4446
2026-01-18 11:15:04.00	51.78	42.56	-34.5	-36.2	23.3	0.00e+00	0	43	0	1976565760	40	4413
2026-01-18 11:15:05.00	51.29	42.51	-34.5	-36.2	23.3	0.00e+00	0	44	0	1981808640	40	4393
2026-01-18 11:15:05.99	50.80	42.46	-34.4	-36.1	23.4	0.00e+00	0	43	0	1987051520	40	4360
2026-01-18 11:15:06.99	50.30	42.41	-34.5	-36.2	23.3	0.00e+00	0	43	0	1993342976	40	4427
2026-01-18 11:15:07.98	49.81	42.35	-34.6	-36.3	23.2	0.00e+00	0	43	0	1998585856	40	4452
2026-01-18 11:15:08.97	49.33	42.30	-34.4	-36.1	23.3	0.00e+00	0	44	0	2004877312	40	4369
2026-01-18 11:15:09.97	48.84	42.24	-34.5	-36.2	23.3	0.00e+00	0	44	0	2010120192	40	4413
2026-01-18 11:15:10.96	48.36	42.18	-34.7	-36.4	23.1	0.00e+00	0	43	0	2015363072	40	4502
2026-01-18 11:15:11.96	47.87	42.12	-34.7	-36.4	23.1	0.00e+00	0	43	0	2021654528	40	4527
2026-01-18 11:15:12.95	47.39	42.05	-34.7	-36.4	23.1	0.00e+00	0	43	0	2026897408	40	4543
2026-01-18 11:15:13.95	46.91	41.98	-34.6	-36.3	23.3	0.00e+00	0	43	0	2032140288	40	4448
2026-01-18 11:15:14.94	46.44	41.92	-34.4	-36.1	23.4	0.00e+00	0	43	0	2037383168	40	4365
2026-01-18 11:15:15.94	45.96	41.84	-34.4	-36.1	23.3	0.00e+00	0	43	0	2043674624	40	4378
2026-01-18 11:15:16.93	45.49	41.77	-34.4	-36.1	23.3	0.00e+00	0	43	0	2048917504	40	4373
2026-01-18 11:15:17.93	45.02	41.70	-34.4	-36.1	23.3	0.00e+00	0	43	0	2055208960	40	4360
2026-01-18 11:15:18.92	44.55	41.62	-34.3	-35.9	23.4	0.00e+00	0	43	0	2060451840	40	4291
2026-01-18 11:15:19.92	44.08	41.54	-34.3	-36.0	23.4	0.00e+00	0	43	0	2065694720	40	4293
2026-01-18 11:15:20.91	43.62	41.46	-34.1	-35.8	23.5	0.00e+00	0	43	0	2071986176	40	4216
2026-01-18 11:15:21.91	43.16	41.37	-34.2	-35.9	23.4	0.00e+00	0	43	0	2077229056	40	4270
2026-01-18 11:15:22.90	42.70	41.29	-34.3	-36.0	23.3	0.00e+00	0	43	0	2082471936	40	4325
2026-01-18 11:15:23.90	42.24	41.20	-34.3	-36.0	23.3	0.00e+00	0	43	0	2087714816	40	4325
2026-01-18 11:15:24.89	41.79	41.11	-34.4	-36.1	23.3	0.00e+00	0	43	0	2094006272	40	4354
2026-01-18 11:15:26.00	41.29	41.01	-34.4	-36.2	23.3	0.00e+00	0	43	0	2100297728	40	4393
2026-01-18 11:15:26.85	40.90	40.93	-34.5	-36.2	23.2	0.00e+00	0	43	0	2104492032	40	4440
2026-01-18 11:15:27.99	40.39	40.82	-34.4	-36.1	23.3	0.00e+00	0	43	0	2110783488	40	4361
2026-01-18 11:15:28.84	40.01	40.74	-34.2	-35.9	23.5	0.00e+00	0	44	0	2116026368	40	4265
2026-01-18 11:15:29.98	39.51	40.63	-34.3	-36.0	23.4	0.00e+00	0	43	0	2122317824	40	4322
2026-01-18 11:15:30.83	39.13	40.55	-34.4	-36.1	23.3	0.00e+00	0	43	0	2127560704	40	4346
2026-01-18 11:15:31.97	38.63	40.43	-34.5	-36.1	23.2	0.00e+00	0	44	0	2133852160	40	4384
2026-01-18 11:15:32.82	38.27	40.34	-34.3	-36.0	23.3	0.00e+00	0	43	0	2138046464	40	4327
2026-01-18 11:15:33.96	37.77	40.22	-34.4	-36.1	23.3	0.00e+00	0	43	0	2145386496	40	4363
2026-01-18 11:15:34.81	37.41	40.13	-34.5	-36.2	23.2	0.00e+00	0	43	0	2149580800	40	4429
2026-01-18 11:15:35.95	36.92	40.01	-34.4	-36.1	23.3	0.00e+00	0	43	0	2155872256	40	4375
2026-01-18 11:15:36.80	36.56	39.92	-34.4	-36.1	23.3	0.00e+00	0	43	0	2161115136	40	4370
2026-01-18 11:15:37.94	36.08	39.79	-34.5	-36.3	23.2	0.00e+00	0	44	0	2167406592	40	4444
2026-01-18 11:15:38.79	35.73	39.70	-34.7	-36.4	23.0	0.00e+00	0	43	0	2171600896	40	4518
2026-01-18 11:15:40.10	35.18	39.55	-34.7	-36.4	22.9	0.00e+00	0	43	0	2179989504	40	4533
2026-01-18 11:15:40.81	34.89	39.47	-34.6	-36.3	23.0	0.00e+00	0	43	0	2183135232	40	4493
2026-01-18 11:15:42.09	34.37	39.32	-34.7	-36.4	23.0	0.00e+00	0	44	0	2190475264	40	4538
2026-01-18 11:15:42.81	34.08	39.24	-34.7	-36.5	22.9	0.00e+00	0	43	0	2194669568	40	4562
2026-01-18 11:15:44.10	33.56	39.08	-34.7	-36.4	22.9	0.00e+00	0	43	0	2202009600	40	4518
2026-01-18 11:15:44.82	33.27	39.00	-34.6	-36.3	23.0	0.00e+00	0	43	0	2206203904	40	4476
2026-01-18 11:15:46.10	32.76	38.84	-34.6	-36.3	23.0	0.00e+00	0	43	0	2213543936	40	4492
2026-01-18 11:15:46.91	32.44	38.74	-34.4	-36.1	23.2	0.00e+00	0	43	0	2217738240	40	4391
2026-01-18 11:15:48.04	32.00	38.60	-34.3	-36.0	23.3	0.00e+00	0	44	0	2224029696	40	4311
2026-01-18 11:15:48.90	31.67	38.50	-34.3	-36.1	23.2	0.00e+00	0	44	0	2229272576	40	4350
2026-01-18 11:15:50.03	31.23	38.36	-34.6	-36.2	23.8	0.00e+00	0	44	0	2235564032	40	4429
2026-01-18 11:15:50.89	30.90	38.25	-34.6	-36.3	23.7	0.00e+00	0	44	0	2239758336	40	4461
2026-01-18 11:15:52.02	30.47	38.11	-34.7	-36.4	23.6	0.00e+00	0	44	0	2246049792	40	4510
2026-01-18 11:15:52.88	30.15	38.00	-34.6	-36.2	23.7	0.00e+00	0	44	0	2251292672	40	4441
2026-01-18 11:15:54.01	29.73	37.85	-34.7	-36.3	23.7	0.00e+00	0	43	0	2257584128	40	4469
2026-01-18 11:15:54.86	29.41	37.74	-34.7	-36.3	23.7	0.00e+00	0	43	0	2262827008	40	4459
2026-01-18 11:15:56.00	29.00	37.59	-34.8	-36.4	23.6	0.00e+00	0	44	0	2269118464	40	4536
2026-01-18 11:15:56.85	28.69	37.48	-34.7	-36.3	23.7	0.00e+00	0	43	0	2273312768	40	4465
2026-01-18 11:15:57.99	28.27	37.33	-34.8	-36.4	23.6	0.00e+00	0	43	0	2279604224	40	4534
2026-01-18 11:15:58.84	27.97	37.22	-34.8	-36.5	23.6	0.00e+00	0	43	0	2284847104	40	4546
2026-01-18 11:15:59.98	27.56	37.06	-34.7	-36.3	23.7	0.00e+00	0	43	0	2291138560	40	4455
2026-01-18 11:16:00.83	27.26	36.95	-34.7	-36.3	23.7	0.00e+00	0	43	0	2296381440	40	4461
2026-01-18 11:16:01.97	26.87	36.80	-34.8	-36.4	23.6	0.00e+00	0	43	0	2302672896	40	4520
2026-01-18 11:16:02.82	26.57	36.68	-34.6	-36.3	23.7	0.00e+00	0	43	0	2306867200	40	4449
2026-01-18 11:16:03.96	26.18	36.53	-34.4	-36.1	23.9	0.00e+00	0	44	0	2314207232	40	4344
2026-01-18 11:16:04.81	25.89	36.41	-34.2	-35.8	24.1	0.00e+00	0	43	0	2318401536	40	4242
2026-01-18 11:16:05.95	25.50	36.25	-34.2	-35.8	24.1	0.00e+00	0	43	0	2324692992	40	4202
2026-01-18 11:16:06.80	25.22	36.14	-34.2	-35.9	24.0	0.00e+00	0	44	0	2329935872	40	4250
2026-01-18 11:16:07.94	24.84	35.98	-34.2	-35.9	24.0	0.00e+00	0	43	0	2336227328	40	4246
2026-01-18 11:16:08.79	24.56	35.86	-34.3	-35.9	24.0	0.00e+00	0	43	0	2340421632	40	4260
2026-01-18 11:16:09.99	24.17	35.69	-34.5	-36.1	23.9	0.00e+00	0	44	0	2347761664	40	4364
2026-01-18 11:16:10.85	23.89	35.57	-34.5	-36.1	23.8	0.00e+00	0	43	0	2351955968	40	4388
2026-01-18 11:16:11.98	23.53	35.41	-34.4	-36.0	23.9	0.00e+00	0	43	0	2358247424	40	4340
2026-01-18 11:16:12.84	23.25	35.29	-34.4	-36.0	23.9	0.00e+00	0	44	0	2363490304	40	4306
2026-01-18 11:16:14.10	22.85	35.11	-34.4	-36.0	23.9	0.00e+00	0	44	0	2370830336	40	4337
2026-01-18 11:16:14.88	22.61	35.00	-34.4	-36.0	23.9	0.00e+00	0	43	0	2375024640	40	4331
2026-01-18 11:16:16.30	22.17	34.80	-34.5	-36.2	23.8	0.00e+00	0	43	0	2383413248	40	4398
2026-01-18 11:16:17.01	21.95	34.70	-34.5	-36.1	23.8	0.00e+00	0	44	0	2387607552	40	4386
2026-01-18 11:16:18.29	21.56	34.52	-34.4	-36.0	23.9	0.00e+00	0	43	0	2393899008	40	4326
2026-01-18 11:16:19.00	21.35	34.42	-34.4	-36.0	23.9	0.00e+00	0	43	0	2398093312	40	4329
2026-01-18 11:16:20.28	20.97	34.24	-34.3	-35.9	23.9	0.00e+00	0	43	0	2405433344	40	4289
2026-01-18 11:16:21.02	20.75	34.13	-34.3	-35.9	24.0	0.00e+00	0	43	0	2409627648	40	4281
2026-01-18 11:16:22.30	20.37	33.95	-34.4	-36.0	23.9	0.00e+00	0	43	0	2416967680	40	4323
2026-01-18 11:16:23.01	20.17	33.85	-34.5	-36.1	23.8	0.00e+00	0	43	0	2421161984	40	4373
2026-01-18 11:16:24.29	19.80	33.66	-34.6	-36.3	23.7	0.00e+00	0	44	0	2427453440	40	4446
2026-01-18 11:16:25.00	19.60	33.56	-34.7	-36.4	23.6	0.00e+00	0	44	0	2431647744	40	4499
2026-01-18 11:16:26.28	19.23	33.38	-34.7	-36.4	23.6	0.00e+00	0	44	0	2438987776	40	4497
2026-01-18 11:16:27.00	19.03	33.27	-34.6	-36.3	23.7	0.00e+00	0	43	0	2443182080	40	4468
2026-01-18 11:16:28.28	18.68	33.09	-34.6	-36.2	23.7	0.00e+00	0	44	0	2450522112	40	4435
2026-01-18 11:16:28.99	18.48	32.98	-34.6	-36.3	23.7	0.00e+00	0	44	0	2454716416	40	4448
2026-01-18 11:16:30.27	18.13	32.80	-34.5	-36.1	23.9	0.00e+00	0	44	0	2462056448	40	4357
2026-01-18 11:16:31.00	17.93	32.69	-34.6	-36.2	23.8	0.00e+00	0	43	0	2465202176	40	4399
2026-01-18 11:16:32.28	17.59	32.51	-34.6	-36.2	23.7	0.00e+00	0	43	0	2472542208	40	4422
2026-01-18 11:16:33.00	17.40	32.41	-34.6	-36.3	23.7	0.00e+00	0	43	0	2476736512	40	4459
2026-01-18 11:16:34.28	17.06	32.22	-34.7	-36.3	23.7	0.00e+00	0	44	0	2484076544	40	4470
2026-01-18 11:16:34.99	16.88	32.12	-34.6	-36.2	23.7	0.00e+00	0	44	0	2488270848	40	4433
2026-01-18 11:16:36.27	16.54	31.93	-34.5	-36.1	23.8	0.00e+00	0	44	0	2495610880	40	4381
2026-01-18 11:16:36.98	16.36	31.83	-34.6	-36.2	23.8	0.00e+00	0	44	0	2499805184	40	4409
2026-01-18 11:16:38.26	16.04	31.65	-34.7	-36.3	23.7	0.00e+00	0	43	0	2507145216	40	4458
2026-01-18 11:16:38.97	15.86	31.55	-34.7	-36.3	23.6	0.00e+00	0	44	0	2510290944	40	4492
2026-01-18 11:16:40.25	15.54	31.36	-35.0	-36.6	23.4	0.00e+00	0	43	0	2517630976	40	4631
2026-01-18 11:16:40.96	15.36	31.26	-35.0	-36.7	23.3	0.00e+00	0	43	0	2521825280	40	4682
2026-01-18 11:16:42.24	15.05	31.07	-35.0	-36.7	23.4	0.00e+00	0	44	0	2529165312	40	4671
2026-01-18 11:16:42.98	14.87	30.97	-35.0	-36.7	23.3	0.00e+00	0	43	0	2533359616	40	4676
2026-01-18 11:16:44.26	14.56	30.78	-35.0	-36.7	23.3	0.00e+00	0	44	0	2540699648	40	4676
2026-01-18 11:16:45.19	14.34	30.65	-35.0	-36.7	23.3	0.00e+00	0	43	0	2545942528	40	4673
2026-01-18 11:16:46.18	14.10	30.51	-35.0	-36.6	23.4	0.00e+00	0	44	0	2551185408	40	4649
2026-01-18 11:16:47.51	13.79	30.32	-34.9	-36.5	23.4	0.00e+00	0	44	0	2558525440	40	4588
2026-01-18 11:16:48.22	13.63	30.22	-34.8	-36.4	23.6	0.00e+00	0	44	0	2562719744	40	4530
2026-01-18 11:16:49.50	13.33	30.04	-34.7	-36.4	23.6	0.00e+00	0	44	0	2570059776	40	4506
2026-01-18 11:16:50.23	13.17	29.93	-34.7	-36.3	23.6	0.00e+00	0	44	0	2574254080	40	4484
2026-01-18 11:16:51.50	12.88	29.75	-34.8	-36.4	23.6	0.00e+00	0	44	0	2581594112	40	4538
2026-01-18 11:16:52.22	12.72	29.65	-34.8	-36.4	23.5	0.00e+00	0	43	0	2584739840	40	4545
2026-01-18 11:16:53.49	12.44	29.47	-35.0	-36.7	23.3	0.00e+00	0	44	0	2592079872	40	4669
2026-01-18 11:16:54.21	12.28	29.37	-35.0	-36.7	23.3	0.00e+00	0	43	0	2596274176	40	4673
2026-01-18 11:16:55.48	12.00	29.19	-35.1	-36.8	23.3	0.00e+00	0	44	0	2603614208	40	4732
2026-01-18 11:16:56.21	11.85	29.08	-35.2	-36.9	23.2	0.00e+00	0	44	0	2607808512	41	4506
2026-01-18 11:16:57.49	11.57	28.90	-35.2	-36.8	23.2	0.00e+00	0	44	0	2615148544	41	4486
2026-01-18 11:16:58.21	11.42	28.80	-35.2	-36.9	23.2	0.00e+00	0	44	0	2619342848	41	4512
2026-01-18 11:16:59.49	11.15	28.62	-35.2	-36.8	23.2	0.00e+00	0	43	0	2625634304	41	4492
2026-01-18 11:17:00.22	11.00	28.52	-35.2	-36.8	23.2	0.00e+00	0	43	0	2629828608	41	4492
2026-01-18 11:17:01.49	10.74	28.34	-35.2	-36.9	23.2	0.00e+00	0	44	0	2637168640	41	4499
2026-01-18 11:17:02.21	10.59	28.24	-35.3	-37.0	23.1	0.00e+00	0	44	0	2641362944	41	4557
2026-01-18 11:17:03.75	10.28	28.03	-35.4	-37.1	23.0	0.00e+00	0	44	0	2649751552	41	4631
2026-01-18 11:17:04.46	10.14	27.93	-35.5	-37.2	22.9	0.00e+00	0	44	0	2653945856	41	4656
2026-01-18 11:17:05.74	9.88	27.75	-35.5	-37.2	22.9	0.00e+00	0	43	0	2661285888	41	4672
2026-01-18 11:17:06.45	9.74	27.65	-35.6	-37.3	22.8	0.00e+00	0	43	0	2665480192	41	4718
2026-01-18 11:17:07.73	9.49	27.48	-35.4	-37.1	23.0	0.00e+00	0	43	0	2672820224	41	4625
2026-01-18 11:17:08.45	9.35	27.38	-35.4	-37.0	23.1	0.00e+00	0	44	0	2677014528	41	4584
2026-01-18 11:17:09.73	9.11	27.20	-35.3	-36.9	23.1	0.00e+00	0	44	0	2683305984	41	4540
2026-01-18 11:17:10.46	8.97	27.10	-35.3	-37.0	23.1	0.00e+00	0	43	0	2687500288	41	4561
2026-01-18 11:17:11.74	8.73	26.93	-35.3	-37.0	23.1	0.00e+00	0	43	0	2694840320	41	4554
2026-01-18 11:17:12.50	8.58	26.83	-35.3	-37.0	23.1	0.00e+00	0	43	0	2699034624	41	4555
2026-01-18 11:17:13.78	8.35	26.65	-35.3	-37.0	23.1	0.00e+00	0	43	0	2706374656	41	4548
2026-01-18 11:17:14.49	8.22	26.56	-35.3	-37.0	23.1	0.00e+00	0	44	0	2710568960	41	4568
2026-01-18 11:17:15.77	7.98	26.38	-35.4	-37.1	23.0	0.00e+00	0	43	0	2717908992	41	4624
2026-01-18 11:17:16.48	7.85	26.29	-35.4	-37.1	23.0	0.00e+00	0	44	0	2721054720	41	4604
2026-01-18 11:17:17.76	7.62	26.11	-35.5	-37.1	22.5	0.00e+00	0	43	0	2728394752	41	4647
2026-01-18 11:17:18.47	7.50	26.02	-35.4	-37.1	23.0	0.00e+00	0	44	0	2732589056	41	4611
2026-01-18 11:17:19.75	7.27	25.85	-35.5	-37.1	22.9	0.00e+00	0	43	0	2739929088	41	4649
2026-01-18 11:17:20.72	7.10	25.72	-35.5	-37.1	22.9	0.00e+00	0	44	0	2745171968	41	4650
2026-01-18 11:17:21.72	6.93	25.59	-35.3	-37.0	23.1	0.00e+00	0	44	0	2751463424	41	4577
2026-01-18 11:17:22.72	6.76	25.45	-35.4	-37.0	23.0	0.00e+00	0	44	0	2756706304	41	4586
2026-01-18 11:17:23.71	6.59	25.32	-35.3	-37.0	23.0	0.00e+00	0	43	0	2761949184	41	4569
2026-01-18 11:17:24.71	6.42	25.19	-35.3	-37.0	23.1	0.00e+00	0	44	0	2768240640	41	4553
2026-01-18 11:17:25.70	6.26	25.06	-35.3	-36.9	23.1	0.00e+00	0	44	0	2773483520	41	4544
2026-01-18 11:17:26.69	6.09	24.93	-35.3	-37.0	23.1	0.00e+00	0	44	0	2778726400	41	4549
2026-01-18 11:17:27.69	5.93	24.80	-35.2	-36.9	23.1	0.00e+00	0	43	0	2785017856	41	4514
2026-01-18 11:17:28.69	5.77	24.67	-35.3	-37.0	23.1	0.00e+00	0	44	0	2790260736	41	4550
2026-01-18 11:17:29.74	5.60	24.53	-35.4	-37.1	23.0	0.00e+00	0	44	0	2796552192	41	4613
2026-01-18 11:17:30.64	5.45	24.42	-35.4	-37.1	23.0	0.00e+00	0	44	0	2800746496	41	4615
2026-01-18 11:17:31.76	5.27	24.27	-35.5	-37.1	22.9	0.00e+00	0	43	0	2808086528	41	4643
2026-01-18 11:17:32.61	5.14	24.16	-35.5	-37.2	22.9	0.00e+00	0	43	0	2812280832	41	4664
2026-01-18 11:17:33.98	4.93	23.99	-35.5	-37.2	22.8	0.00e+00	0	43	0	2819620864	41	4687
2026-01-18 11:17:34.69	4.82	23.90	-35.6	-37.2	22.8	0.00e+00	0	44	0	2823815168	41	4698
2026-01-18 11:17:36.18	4.59	23.71	-35.7	-37.4	22.7	0.00e+00	0	43	0	2832203776	41	4770
2026-01-18 11:17:36.89	4.48	23.62	-35.6	-37.3	22.8	0.00e+00	0	43	0	2836398080	41	4722
2026-01-18 11:17:38.23	4.28	23.45	-35.6	-37.2	22.8	0.00e+00	0	44	0	2843738112	41	4696
2026-01-18 11:17:38.94	4.17	23.36	-35.5	-37.1	22.9	0.00e+00	0	43	0	2847932416	41	4645
2026-01-18 11:17:40.22	3.98	23.20	-35.5	-37.2	22.8	0.00e+00	0	43	0	2855272448	41	4663
2026-01-18 11:17:41.28	3.83	23.07	-35.6	-37.2	22.8	0.00e+00	0	44	0	2860515328	41	4700
2026-01-18 11:17:42.16	3.70	22.96	-35.6	-37.3	22.7	0.00e+00	0	44	0	2865758208	41	4746
2026-01-18 11:17:43.30	3.53	22.81	-35.6	-37.3	22.7	0.00e+00	0	44	0	2872049664	41	4734
2026-01-18 11:17:44.15	3.41	22.71	-35.7	-37.4	22.7	0.00e+00	0	43	0	2877292544	42	4494
2026-01-18 11:17:45.29	3.25	22.57	-35.6	-37.3	22.8	0.00e+00	0	44	0	2883584000	42	4457
2026-01-18 11:17:46.14	3.13	22.46	-35.5	-37.2	22.8	0.00e+00	0	43	0	2888826880	42	4433
2026-01-18 11:17:47.27	2.97	22.32	-35.5	-37.2	22.9	0.00e+00	0	43	0	2895118336	42	4414
2026-01-18 11:17:48.12	2.85	22.22	-35.6	-37.2	22.8	0.00e+00	0	44	0	2899312640	42	4425
2026-01-18 11:17:49.39	2.68	22.06	-35.6	-37.3	22.8	0.00e+00	0	43	0	2906652672	42	4453
2026-01-18 11:17:50.19	2.57	21.97	-35.6	-37.3	22.8	0.00e+00	0	43	0	2910846976	42	4459
2026-01-18 11:17:51.33	2.42	21.83	-35.7	-37.4	22.7	0.00e+00	0	44	0	2917138432	42	4530
2026-01-18 11:17:52.18	2.30	21.73	-35.8	-37.5	22.6	0.00e+00	0	44	0	2922381312	42	4589
2026-01-18 11:17:53.32	2.15	21.59	-36.0	-37.7	22.5	0.00e+00	0	44	0	2928672768	42	4661
2026-01-18 11:17:54.17	2.04	21.49	-36.0	-37.7	22.4	0.00e+00	0	43	0	2933915648	42	4703
2026-01-18 11:17:55.55	1.86	21.32	-36.1	-37.9	22.3	0.00e+00	0	43	0	2941255680	42	4767
2026-01-18 11:17:56.26	1.77	21.24	-36.1	-37.8	22.3	0.00e+00	0	44	0	2945449984	42	4730
2026-01-18 11:17:57.55	1.60	21.09	-36.1	-37.8	22.3	0.00e+00	0	43	0	2952790016	42	4749
2026-01-18 11:17:58.27	1.51	21.00	-36.2	-37.9	22.2	0.00e+00	0	44	0	2956984320	42	4788
2026-01-18 11:17:59.81	1.31	20.82	-36.1	-37.8	22.3	0.00e+00	0	44	0	2965372928	43	4492
2026-01-18 11:18:00.52	1.22	20.74	-36.2	-37.9	22.2	0.00e+00	0	44	0	2969567232	43	4520
2026-01-18 11:18:01.80	1.06	20.59	-36.2	-37.9	22.2	0.00e+00	0	43	0	2976907264	43	4524
2026-01-18 11:18:02.51	0.98	20.50	-36.2	-37.9	22.2	0.00e+00	0	43	0	2980052992	43	4535
2026-01-18 11:18:03.79	0.82	20.35	-36.3	-38.0	22.2	0.00e+00	0	43	0	2987393024	43	4550
2026-01-18 11:18:04.50	0.73	20.27	-36.3	-38.0	22.1	0.00e+00	0	44	0	2991587328	43	4580
2026-01-18 11:18:05.78	0.58	20.12	-36.3	-38.1	22.1	0.00e+00	0	43	0	2998927360	43	4602
2026-01-18 11:18:06.51	0.49	20.04	-36.4	-38.1	22.0	0.00e+00	0	44	0	3003121664	43	4631
2026-01-18 11:18:07.79	0.34	19.89	-36.5	-38.2	21.9	0.00e+00	0	43	0	3010461696	43	4681
2026-01-18 11:18:08.56	0.25	19.81	-36.5	-38.2	21.9	0.00e+00	0	43	0	3014656000	43	4673
2026-01-18 11:18:09.84	0.10	19.66	-36.6	-38.3	21.8	0.00e+00	0	44	0	3021996032	43	4753
2026-01-18 11:18:10.60	0.01	19.57	-36.6	-38.3	21.8	0.00e+00	0	43	0	3026190336	43	4756
2026-01-18 11:18:11.88	359.86	19.43	-36.4	-38.2	21.9	0.00e+00	0	44	0	3033530368	43	4664
2026-01-18 11:18:12.60	359.78	19.35	-36.4	-38.2	22.0	0.00e+00	0	44	0	3037724672	43	4655
2026-01-18 11:18:13.88	359.63	19.20	-36.4	-38.2	22.0	0.00e+00	0	44	0	3044016128	43	4654
2026-01-18 11:18:14.59	359.55	19.13	-36.3	-38.1	22.0	0.00e+00	0	44	0	3048210432	43	4604
2026-01-18 11:18:15.87	359.41	18.98	-36.5	-38.2	21.9	0.00e+00	0	43	0	3055550464	43	4669
2026-01-18 11:18:16.58	359.33	18.90	-36.5	-38.2	21.9	0.00e+00	0	43	0	3059744768	43	4687
2026-01-18 11:18:17.86	359.19	18.76	-36.6	-38.3	21.8	0.00e+00	0	44	0	3067084800	43	4740
2026-01-18 11:18:18.57	359.11	18.68	-36.6	-38.3	21.8	0.00e+00	0	44	0	3071279104	43	4749
2026-01-18 11:18:19.85	358.97	18.54	-36.6	-38.3	21.8	0.00e+00	0	43	0	3078619136	43	4731
2026-01-18 11:18:20.56	358.90	18.47	-36.6	-38.3	21.8	0.00e+00	0	44	0	3081764864	43	4732
2026-01-18 11:18:21.84	358.76	18.33	-36.5	-38.3	21.8	0.00e+00	0	44	0	3089104896	43	4737
2026-01-18 11:18:22.55	358.68	18.25	-36.8	-38.6	21.7	0.00e+00	0	44	0	3093299200	44	4641
2026-01-18 11:18:23.83	358.55	18.11	-37.0	-38.8	21.6	0.00e+00	0	43	0	3100639232	44	4712
2026-01-18 11:18:24.55	358.47	18.03	-37.0	-38.8	21.5	0.00e+00	0	43	0	3104833536	44	4731
2026-01-18 11:18:25.83	358.34	17.89	-37.1	-38.8	21.5	0.00e+00	0	43	0	3111124992	44	4757
2026-01-18 11:18:26.55	358.27	17.82	-37.0	-38.8	21.5	0.00e+00	0	43	0	3115319296	44	4721
2026-01-18 11:18:27.83	358.14	17.68	-37.0	-38.8	21.5	0.00e+00	0	44	0	3122659328	44	4722
2026-01-18 11:18:28.54	358.06	17.60	-37.1	-38.9	21.5	0.00e+00	0	44	0	3126853632	44	4760
2026-01-18 11:18:29.82	357.93	17.47	-37.3	-39.0	21.3	0.00e+00	0	44	0	3134193664	45	4592
2026-01-18 11:18:30.53	357.86	17.39	-37.1	-38.9	21.4	0.00e+00	0	43	0	3138387968	45	4529
2026-01-18 11:18:31.81	357.74	17.26	-37.1	-38.9	21.4	0.00e+00	0	44	0	3145728000	45	4530
2026-01-18 11:18:32.52	357.67	17.18	-37.2	-39.0	21.3	0.00e+00	0	43	0	3148873728	45	4572
2026-01-18 11:18:33.80	357.54	17.05	-37.3	-39.1	21.3	0.00e+00	0	44	0	3156213760	45	4613
2026-01-18 11:18:34.51	357.47	16.98	-37.1	-39.0	21.4	0.00e+00	0	44	0	3160408064	45	4548
2026-01-18 11:18:35.79	357.35	16.84	-37.3	-39.1	21.2	0.00e+00	0	44	0	3167748096	45	4635
2026-01-18 11:18:36.50	357.28	16.77	-37.4	-39.2	21.2	0.00e+00	0	44	0	3171942400	45	4666
2026-01-18 11:18:37.78	357.16	16.64	-37.4	-39.2	21.2	0.00e+00	0	44	0	3179282432	45	4660
2026-01-18 11:18:38.52	357.09	16.56	-37.5	-39.3	21.1	0.00e+00	0	43	0	3183476736	45	4735
2026-01-18 11:18:39.80	356.97	16.43	-37.5	-39.3	21.1	0.00e+00	0	44	0	3190816768	45	4734
2026-01-18 11:18:40.56	356.90	16.35	-37.5	-39.3	21.0	0.00e+00	0	44	0	3195011072	45	4750
2026-01-18 11:18:41.84	356.78	16.22	-37.5	-39.3	21.0	0.00e+00	0	44	0	3201302528	45	4757
2026-01-18 11:18:42.58	356.71	16.15	-37.5	-39.3	21.1	0.00e+00	0	44	0	3205496832	45	4711
2026-01-18 11:18:43.86	356.59	16.02	-37.5	-39.3	21.1	0.00e+00	0	44	0	3212836864	45	4711
2026-01-18 11:18:44.67	356.52	15.93	-37.5	-39.3	21.0	0.00e+00	0	43	0	3218079744	45	4741
2026-01-18 11:18:46.11	356.39	15.79	-37.4	-39.2	21.1	0.00e+00	0	43	0	3225419776	45	4686
2026-01-18 11:18:46.82	356.33	15.72	-37.4	-39.2	21.1	0.00e+00	0	44	0	3229614080	45	4693
2026-01-18 11:18:48.10	356.21	15.59	-37.6	-39.3	21.0	0.00e+00	0	44	0	3236954112	45	4757
2026-01-18 11:18:49.26	356.11	15.48	-37.5	-39.2	21.1	0.00e+00	0	43	0	3243245568	45	4702
2026-01-18 11:18:50.40	356.01	15.36	-37.6	-39.4	21.0	0.00e+00	0	44	0	3249537024	45	4763
2026-01-18 11:18:51.41	355.93	15.26	-37.6	-39.4	20.9	0.00e+00	0	43	0	3255828480	46	4531
2026-01-18 11:18:52.40	355.84	15.17	-37.7	-39.5	20.9	0.00e+00	0	44	0	3261071360	46	4556
2026-01-18 11:18:53.40	355.75	15.07	-37.8	-39.6	20.8	0.00e+00	0	44	0	3267362816	46	4618
2026-01-18 11:18:54.39	355.67	14.97	-37.8	-39.6	20.8	0.00e+00	0	43	0	3272605696	46	4614
2026-01-18 11:18:55.39	355.59	14.88	-37.9	-39.7	20.7	0.00e+00	0	44	0	3277848576	46	4655
2026-01-18 11:18:56.38	355.50	14.78	-37.8	-39.6	20.8	0.00e+00	0	44	0	3283091456	46	4601
2026-01-18 11:18:57.38	355.42	14.68	-37.8	-39.6	20.7	0.00e+00	0	44	0	3289382912	46	4645
2026-01-18 11:18:58.37	355.34	14.59	-37.9	-39.7	20.7	0.00e+00	0	44	0	3294625792	46	4668
2026-01-18 11:18:59.37	355.26	14.49	-37.8	-39.6	20.8	0.00e+00	0	43	0	3299868672	46	4615
2026-01-18 11:19:00.36	355.18	14.40	-37.7	-39.6	20.8	0.00e+00	0	44	0	3306160128	46	4603
2026-01-18 11:19:01.36	355.10	14.30	-37.8	-39.6	20.7	0.00e+00	0	44	0	3311403008	46	4635
2026-01-18 11:19:02.35	355.02	14.21	-37.9	-39.7	20.7	0.00e+00	0	44	0	3317694464	46	4676
2026-01-18 11:19:03.35	354.94	14.11	-37.9	-39.7	20.7	0.00e+00	0	44	0	3322937344	46	4663
2026-01-18 11:19:04.34	354.86	14.02	-38.0	-39.8	20.6	0.00e+00	0	44	0	3328180224	46	4748
2026-01-18 11:19:05.43	354.77	13.92	-37.8	-39.6	20.7	0.00e+00	0	44	0	3334471680	46	4640
2026-01-18 11:19:06.29	354.70	13.84	-37.9	-39.7	20.6	0.00e+00	0	44	0	3338665984	46	4685
2026-01-18 11:19:07.42	354.62	13.73	-37.9	-39.8	20.6	0.00e+00	0	43	0	3346006016	46	4715
2026-01-18 11:19:08.42	354.54	13.64	-38.0	-39.9	20.5	0.00e+00	0	43	0	3351248896	46	4767
2026-01-18 11:19:09.41	354.46	13.54	-38.1	-39.9	20.5	0.00e+00	0	44	0	3356491776	46	4791
2026-01-18 11:19:10.41	354.39	13.45	-38.3	-40.2	20.2	0.00e+00	0	43	0	3362783232	47	4684
2026-01-18 11:19:11.40	354.31	13.36	-38.2	-40.1	20.2	0.00e+00	0	43	0	3368026112	47	4642
2026-01-18 11:19:12.40	354.24	13.27	-38.1	-40.1	20.3	0.00e+00	0	44	0	3373268992	47	4599
2026-01-18 11:19:13.39	354.16	13.18	-38.2	-40.2	20.2	0.00e+00	0	43	0	3379560448	47	4689
2026-01-18 11:19:14.39	354.09	13.09	-38.1	-40.1	20.3	0.00e+00	0	43	0	3384803328	47	4616
2026-01-18 11:19:15.38	354.02	13.00	-38.3	-40.3	20.0	0.00e+00	0	43	0	3390046208	47	4744
2026-01-18 11:19:16.38	353.94	12.91	-38.2	-40.3	20.1	0.00e+00	0	44	0	3396337664	47	4737
2026-01-18 11:19:17.37	353.87	12.82	-38.3	-40.4	20.0	0.00e+00	0	44	0	3401580544	47	4805
2026-01-18 11:19:18.38	353.80	12.72	-38.3	-40.4	20.0	0.00e+00	0	44	0	3406823424	47	4781
2026-01-18 11:19:19.38	353.73	12.64	-38.4	-40.5	19.9	0.00e+00	0	44	0	3413114880	47	4834
2026-01-18 11:19:20.44	353.65	12.54	-38.4	-40.5	19.9	0.00e+00	0	43	0	3418357760	47	4828
2026-01-18 11:19:21.34	353.59	12.46	-38.4	-40.5	19.9	0.00e+00	0	44	0	3423600640	47	4818
2026-01-18 11:19:22.35	353.52	12.37	-38.4	-40.4	20.0	0.00e+00	0	43	0	3429892096	47	4795
2026-01-18 11:19:23.35	353.45	12.28	-38.5	-40.5	19.8	0.00e+00	0	43	0	3435134976	47	4850
2026-01-18 11:19:24.34	353.38	12.19	-38.4	-40.4	20.0	0.00e+00	0	44	0	3440377856	47	4784
2026-01-18 11:19:25.33	353.31	12.11	-38.5	-40.5	19.8	0.00e+00	0	44	0	3446669312	47	4860
2026-01-18 11:19:26.33	353.24	12.02	-38.3	-40.3	20.0	0.00e+00	0	44	0	3451912192	47	4733
2026-01-18 11:19:27.32	353.17	11.93	-38.5	-40.5	19.9	0.00e+00	0	44	0	3457155072	47	4834
2026-01-18 11:19:28.32	353.10	11.84	-38.5	-40.5	19.8	0.00e+00	0	44	0	3463446528	47	4845
2026-01-18 11:19:29.32	353.04	11.76	-38.3	-40.2	20.1	0.00e+00	0	43	0	3468689408	47	4700
2026-01-18 11:19:30.31	352.97	11.67	-38.4	-40.4	20.0	0.00e+00	0	44	0	3473932288	47	4771
2026-01-18 11:19:31.30	352.90	11.58	-38.3	-40.3	20.0	0.00e+00	0	44	0	3480223744	47	4744
2026-01-18 11:19:32.30	352.84	11.50	-38.2	-40.3	20.0	0.00e+00	0	44	0	3485466624	47	4731
2026-01-18 11:19:33.29	352.77	11.41	-38.3	-40.4	20.0	0.00e+00	0	44	0	3490709504	47	4773
2026-01-18 11:19:34.29	352.71	11.33	-38.2	-40.3	20.0	0.00e+00	0	44	0	3497000960	47	4749
2026-01-18 11:19:35.33	352.64	11.24	-38.1	-40.3	20.0	0.00e+00	0	44	0	3502243840	47	4739
2026-01-18 11:19:36.35	352.57	11.15	-38.0	-40.3	20.1	0.00e+00	0	43	0	3508535296	47	4708
2026-01-18 11:19:37.38	352.51	11.06	-38.0	-40.3	20.0	0.00e+00	0	44	0	3513778176	47	4747
2026-01-18 11:19:38.38	352.44	10.98	-38.0	-40.4	20.0	0.00e+00	0	43	0	3520069632	47	4768
2026-01-18 11:19:39.38	352.38	10.89	-38.0	-40.5	19.9	0.00e+00	0	44	0	3525312512	47	4817
2026-01-18 11:19:40.37	352.32	10.81	-37.9	-40.3	20.0	0.00e+00	0	43	0	3530555392	47	4750
2026-01-18 11:19:41.51	352.25	10.71	-38.1	-40.5	19.8	0.00e+00	0	44	0	3537895424	47	4838
2026-01-18 11:19:42.36	352.20	10.64	-38.1	-40.5	19.8	0.00e+00	0	43	0	3542089728	47	4831
2026-01-18 11:19:43.71	352.11	10.53	-38.1	-40.5	19.8	0.00e+00	0	44	0	3549429760	47	4859
2026-01-18 11:19:44.42	352.07	10.47	-38.2	-40.6	19.7	0.00e+00	0	44	0	3553624064	47	4893
2026-01-18 11:19:45.70	351.99	10.37	-38.4	-40.7	19.6	0.00e+00	0	43	0	3560964096	47	4970
2026-01-18 11:19:46.42	351.95	10.31	-38.4	-40.6	19.7	0.00e+00	0	44	0	3565158400	47	4900
2026-01-18 11:19:47.70	351.87	10.20	-38.5	-40.6	19.7	0.00e+00	0	44	0	3572498432	47	4915
2026-01-18 11:19:48.43	351.83	10.14	-38.3	-40.4	19.9	0.00e+00	0	44	0	3576692736	47	4779
2026-01-18 11:19:49.71	351.75	10.04	-38.8	-40.9	19.6	0.00e+00	0	44	0	3584032768	48	4768
2026-01-18 11:19:50.48	351.70	9.97	-38.8	-40.9	19.6	0.00e+00	0	44	0	3588227072	48	4789
2026-01-18 11:19:51.76	351.63	9.87	-38.6	-40.7	19.8	0.00e+00	0	43	0	3595567104	48	4672
2026-01-18 11:19:52.58	351.58	9.80	-38.7	-40.8	19.7	0.00e+00	0	44	0	3599761408	48	4747
2026-01-18 11:19:53.72	351.51	9.71	-38.6	-40.8	19.7	0.00e+00	0	44	0	3606052864	48	4728
2026-01-18 11:19:54.74	351.46	9.63	-38.9	-41.1	19.4	0.00e+00	0	44	0	3612344320	48	4883
2026-01-18 11:19:55.93	351.39	9.53	-38.8	-41.0	19.4	0.00e+00	0	44	0	3618635776	48	4862
2026-01-18 11:19:56.80	351.34	9.46	-38.8	-41.0	19.5	0.00e+00	0	43	0	3623878656	48	4854
2026-01-18 11:19:58.09	351.26	9.36	-38.6	-40.8	19.7	0.00e+00	0	43	0	3630170112	48	4752
2026-01-18 11:19:58.80	351.22	9.30	-38.7	-41.0	19.6	0.00e+00	0	44	0	3634364416	48	4830
2026-01-18 11:20:00.27	351.14	9.18	-38.9	-41.2	19.4	0.00e+00	0	44	0	3642753024	48	4931
2026-01-18 11:20:00.99	351.10	9.13	-38.8	-41.1	19.4	0.00e+00	0	44	0	3646947328	48	4899
2026-01-18 11:20:02.27	351.03	9.03	-39.1	-41.4	19.1	0.00e+00	0	44	0	3654287360	48	5072
2026-01-18 11:20:02.98	350.99	8.97	-46.8	-57.9	4.5	0.00e+00	0	44	0	3657433088	64	13522
2026-01-18 11:20:04.25	350.92	8.87	-49.3	-62.2	3.8	8.47e-01	0	44	104	3657433088	69	16563
2026-01-18 11:20:04.96	350.88	8.81	-49.2	-62.1	3.8	8.46e-01	0	44	104	3657433088	69	16377
2026-01-18 11:20:06.24	350.81	8.71	-49.7	-62.4	3.8	8.47e-01	0	44	104	3657433088	70	15952
2026-01-18 11:20:06.95	350.78	8.66	-49.8	-62.3	3.8	8.47e-01	0	44	104	3657433088	70	15926
