passes_logs/2026/01/18/T1/T1__20260118_202235_KHAYYAM_rec.log

#Pass ID: 20260118_202235_KHAYYAM
#Satellite: KHAYYAM
#Configuration: KHAYYAM_480M
#almurnet v.1.7.20251203
#Start time: 2026-01-18 20:22:36

#Version: 2.0.20230620
#Station: T1
#Location: 37.570604 lon 55.790049 lat
#TLE: 1 53370U 22096A   26017.64774258  .00005047  00000+0  20753-3 0  9991
#TLE: 2 53370  97.3565 284.6100 0001627 106.8472 253.2944 15.24602740191641

#Time	Az	El	Level	Level2	SNR	BER	BlckErr	Temp	State	Recorded	gain1	gain2
2026-01-18 20:22:36.84	28.94	5.18	-47.6	-49.6	4.0	0.00e+00	0	45	0	0	67	17461
2026-01-18 20:22:37.83	29.04	5.25	-47.5	-49.5	4.0	0.00e+00	0	45	104	0	66	18387
2026-01-18 20:22:38.82	29.14	5.32	-47.5	-49.5	4.0	0.00e+00	0	45	104	0	66	18383
2026-01-18 20:22:39.82	29.25	5.39	-47.5	-49.5	4.0	0.00e+00	0	45	104	0	66	18366
2026-01-18 20:22:40.81	29.35	5.46	-47.5	-49.5	4.0	0.00e+00	0	45	104	0	66	18374
2026-01-18 20:22:41.80	29.45	5.53	-47.5	-49.5	4.0	0.00e+00	0	46	104	0	66	18374
2026-01-18 20:22:42.80	29.56	5.61	-47.5	-49.5	4.0	0.00e+00	0	45	104	0	66	18387
2026-01-18 20:22:43.79	29.66	5.68	-47.5	-49.6	4.0	0.00e+00	0	46	104	0	66	18404
2026-01-18 20:22:44.78	29.77	5.75	-47.5	-49.5	4.0	0.00e+00	0	46	104	0	66	18320
2026-01-18 20:22:45.77	29.87	5.82	-47.5	-49.6	4.0	0.00e+00	0	46	104	0	66	18415
2026-01-18 20:22:46.77	29.98	5.90	-47.6	-49.6	4.0	0.00e+00	0	46	104	0	66	18433
2026-01-18 20:22:47.76	30.08	5.97	-47.5	-49.6	4.0	0.00e+00	0	46	104	0	66	18418
2026-01-18 20:22:48.75	30.19	6.04	-47.6	-49.6	4.0	0.00e+00	0	46	104	0	66	18424
2026-01-18 20:22:49.75	30.30	6.12	-47.6	-49.6	4.0	0.00e+00	0	46	104	0	66	18446
2026-01-18 20:22:50.74	30.41	6.19	-47.5	-49.5	4.0	0.00e+00	0	46	104	0	66	18389
2026-01-18 20:22:51.73	30.52	6.27	-47.5	-49.6	4.0	0.00e+00	0	46	104	0	66	18406
2026-01-18 20:22:52.73	30.63	6.34	-47.5	-49.6	4.0	0.00e+00	0	46	104	0	66	18430
2026-01-18 20:22:53.72	30.74	6.42	-47.5	-49.5	4.0	0.00e+00	0	46	104	0	66	18289
2026-01-18 20:22:54.71	30.85	6.49	-47.5	-49.6	4.0	0.00e+00	0	46	104	0	66	18409
2026-01-18 20:22:55.71	30.97	6.57	-47.5	-49.5	4.0	0.00e+00	0	46	104	0	66	18362
2026-01-18 20:22:56.70	31.08	6.64	-47.5	-49.5	4.0	0.00e+00	0	47	104	0	66	18337
2026-01-18 20:22:57.70	31.19	6.72	-47.5	-49.5	4.0	0.00e+00	0	47	104	0	66	18323
2026-01-18 20:22:58.69	31.31	6.79	-47.5	-49.5	4.0	0.00e+00	0	47	104	0	66	18284
2026-01-18 20:22:59.68	31.42	6.87	-47.5	-49.5	4.0	0.00e+00	0	47	104	0	66	18240
2026-01-18 20:23:00.68	31.54	6.95	-47.5	-49.5	4.0	0.00e+00	0	47	104	0	66	18319
2026-01-18 20:23:01.67	31.66	7.02	-47.5	-49.6	4.0	0.00e+00	0	47	104	0	66	18420
2026-01-18 20:23:02.67	31.77	7.10	-47.5	-49.5	4.0	0.00e+00	0	47	104	0	66	18278
2026-01-18 20:23:03.66	31.89	7.18	-47.4	-49.5	4.0	0.00e+00	0	47	104	0	66	18202
2026-01-18 20:23:04.65	32.01	7.25	-47.5	-49.5	4.0	0.00e+00	0	47	104	0	66	18262
2026-01-18 20:23:05.64	32.13	7.33	-47.5	-49.5	4.0	0.00e+00	0	47	104	0	66	18374
2026-01-18 20:23:06.64	32.25	7.41	-47.5	-49.6	4.0	0.00e+00	0	47	104	0	66	18452
2026-01-18 20:23:07.63	32.37	7.49	-47.5	-49.5	4.0	0.00e+00	0	47	104	0	66	18290
2026-01-18 20:23:08.62	32.49	7.56	-47.5	-49.4	4.0	0.00e+00	0	47	104	0	66	18176
2026-01-18 20:23:09.62	32.62	7.64	-47.5	-49.5	4.0	0.00e+00	0	47	104	0	66	18372
2026-01-18 20:23:10.61	32.74	7.72	-47.5	-49.6	4.0	0.00e+00	0	47	104	0	66	18434
2026-01-18 20:23:11.60	32.87	7.80	-47.6	-49.6	4.0	0.00e+00	0	48	104	0	66	18518
2026-01-18 20:23:12.60	32.99	7.88	-47.5	-49.5	4.0	0.00e+00	0	48	104	0	66	18305
2026-01-18 20:23:13.59	33.12	7.96	-47.5	-49.5	4.0	0.00e+00	0	48	104	0	66	18366
2026-01-18 20:23:14.58	33.25	8.04	-47.5	-49.5	4.0	0.00e+00	0	48	104	0	66	18284
2026-01-18 20:23:15.58	33.37	8.12	-47.5	-49.5	4.0	0.00e+00	0	48	104	0	66	18335
2026-01-18 20:23:16.57	33.50	8.20	-47.5	-49.5	4.0	0.00e+00	0	48	104	0	66	18266
2026-01-18 20:23:17.56	33.63	8.28	-47.5	-49.5	4.0	0.00e+00	0	48	104	0	66	18318
2026-01-18 20:23:18.56	33.76	8.36	-47.5	-49.5	4.0	0.00e+00	0	48	104	0	66	18294
2026-01-18 20:23:19.55	33.89	8.44	-47.5	-49.6	4.0	0.00e+00	0	48	104	0	66	18421
2026-01-18 20:23:20.54	34.03	8.52	-47.5	-49.5	4.0	0.00e+00	0	48	104	0	66	18234
2026-01-18 20:23:21.54	34.16	8.60	-47.5	-49.6	4.0	0.00e+00	0	48	104	0	66	18417
2026-01-18 20:23:22.53	34.29	8.68	-47.6	-49.6	4.0	0.00e+00	0	48	104	0	66	18470
2026-01-18 20:23:23.52	34.43	8.76	-47.5	-49.5	4.0	0.00e+00	0	48	104	0	66	18323
2026-01-18 20:23:24.52	34.57	8.85	-47.5	-49.5	4.0	0.00e+00	0	48	104	0	66	18352
2026-01-18 20:23:25.51	34.70	8.93	-47.5	-49.5	4.0	0.00e+00	0	48	104	0	66	18315
2026-01-18 20:23:26.51	34.84	9.01	-47.5	-49.5	4.0	0.00e+00	0	48	104	0	66	18339
2026-01-18 20:23:27.50	34.98	9.09	-48.4	-51.0	4.0	0.00e+00	0	48	104	0	67	20543
2026-01-18 20:23:28.49	35.12	9.17	-50.7	-55.6	3.7	0.00e+00	0	48	104	0	72	26274
2026-01-18 20:23:29.49	35.26	9.26	-50.5	-54.8	3.7	0.00e+00	0	48	104	0	72	23799
2026-01-18 20:23:30.48	35.40	9.34	-47.8	-51.0	4.0	0.00e+00	0	48	104	0	67	20480
2026-01-18 20:23:31.48	35.55	9.43	-50.7	-55.5	3.7	0.00e+00	0	49	104	0	72	25757
2026-01-18 20:23:32.47	35.69	9.51	-49.8	-52.9	3.7	0.00e+00	0	48	104	0	71	20292
2026-01-18 20:23:33.47	35.83	9.59	-50.1	-53.4	3.7	0.00e+00	0	48	104	0	71	21499
2026-01-18 20:23:34.46	35.98	9.68	-50.3	-53.9	3.7	0.00e+00	0	48	104	0	71	22729
2026-01-18 20:23:35.46	36.13	9.76	-50.2	-54.0	3.7	0.00e+00	0	49	104	0	71	23139
2026-01-18 20:23:36.46	36.28	9.85	-49.8	-54.1	3.7	0.00e+00	0	49	104	0	71	23273
2026-01-18 20:23:37.45	36.42	9.93	-49.4	-53.9	3.7	0.00e+00	0	49	104	0	70	23974
2026-01-18 20:23:38.44	36.57	10.02	-49.5	-54.3	3.7	0.00e+00	0	48	104	0	70	25249
2026-01-18 20:23:39.44	36.73	10.11	-50.2	-54.8	3.7	0.00e+00	0	49	104	0	72	23717
2026-01-18 20:23:40.43	36.88	10.19	-47.1	-53.7	3.7	0.00e+00	0	48	104	0	64	33316
2026-01-18 20:23:41.43	37.03	10.28	-48.9	-54.0	3.7	0.00e+00	0	48	104	0	69	25908
2026-01-18 20:23:42.42	37.19	10.36	-47.3	-53.9	3.7	0.00e+00	0	49	104	0	66	30214
2026-01-18 20:23:43.42	37.34	10.45	-46.3	-53.4	3.7	0.00e+00	0	49	104	0	64	32182
2026-01-18 20:23:44.41	37.50	10.54	-45.5	-52.4	3.9	0.00e+00	0	49	104	0	63	30182
2026-01-18 20:23:45.41	37.66	10.63	-44.9	-50.9	4.0	0.00e+00	0	49	104	0	61	28723
2026-01-18 20:23:46.40	37.81	10.71	-44.8	-49.8	4.2	0.00e+00	0	49	104	0	61	25299
2026-01-18 20:23:47.40	37.98	10.80	-44.8	-49.1	4.3	0.00e+00	0	49	104	0	61	23283
2026-01-18 20:23:48.39	38.14	10.89	-45.4	-49.6	4.1	0.00e+00	0	49	104	0	61	24708
2026-01-18 20:23:49.43	38.31	10.98	-46.4	-49.9	4.1	0.00e+00	0	49	104	0	64	21470
2026-01-18 20:23:50.46	38.47	11.07	-45.0	-49.0	4.2	0.00e+00	0	49	104	0	61	22952
2026-01-18 20:23:51.48	38.64	11.16	-45.6	-49.2	4.2	0.00e+00	0	49	104	0	61	23619
2026-01-18 20:23:52.48	38.81	11.25	-46.4	-49.9	4.1	0.00e+00	0	49	104	0	63	22626
2026-01-18 20:23:53.55	38.99	11.35	-47.7	-51.3	4.0	0.00e+00	0	49	104	0	65	23844
2026-01-18 20:23:54.41	39.14	11.43	-47.9	-51.9	3.9	0.00e+00	0	49	104	0	66	24132
2026-01-18 20:23:55.54	39.33	11.53	-48.5	-53.5	3.7	0.00e+00	0	49	104	0	67	27507
2026-01-18 20:23:56.39	39.48	11.61	-48.9	-54.4	3.7	0.00e+00	0	49	104	0	68	28679
2026-01-18 20:23:57.53	39.67	11.71	-49.6	-53.6	3.8	0.00e+00	0	49	104	0	70	23291
2026-01-18 20:23:58.39	39.82	11.79	-49.1	-53.7	3.7	0.00e+00	0	49	104	0	69	24885
2026-01-18 20:23:59.52	40.02	11.89	-49.4	-54.3	3.7	0.00e+00	0	49	104	0	69	26647
2026-01-18 20:24:00.38	40.17	11.97	-49.9	-53.5	3.8	0.00e+00	0	49	104	0	70	23131
2026-01-18 20:24:01.51	40.38	12.07	-50.4	-54.2	3.7	0.00e+00	0	49	104	0	71	23551
2026-01-18 20:24:02.37	40.53	12.15	-50.9	-54.8	3.7	0.00e+00	0	49	104	0	72	23719
2026-01-18 20:24:03.51	40.74	12.26	-51.4	-55.9	3.7	0.00e+00	0	49	104	0	73	25400
2026-01-18 20:24:04.36	40.89	12.34	-51.7	-56.5	3.7	0.00e+00	0	49	104	0	74	25838
2026-01-18 20:24:05.50	41.10	12.44	-52.1	-56.6	3.7	0.00e+00	0	49	104	0	74	26076
2026-01-18 20:24:06.35	41.26	12.52	-52.0	-56.8	3.7	0.00e+00	0	49	104	0	74	26748
2026-01-18 20:24:07.58	41.49	12.64	-51.9	-56.4	3.7	0.00e+00	0	49	104	0	75	23977
2026-01-18 20:24:08.44	41.65	12.72	-52.1	-56.3	3.7	0.00e+00	0	49	104	0	75	23850
2026-01-18 20:24:09.57	41.86	12.82	-52.2	-56.3	3.7	0.00e+00	0	50	104	0	75	23743
2026-01-18 20:24:10.42	42.03	12.90	-52.2	-56.1	3.7	0.00e+00	0	49	104	0	75	23313
2026-01-18 20:24:11.56	42.25	13.01	-52.1	-55.9	3.7	0.00e+00	0	49	104	0	75	22795
2026-01-18 20:24:12.41	42.41	13.09	-52.1	-56.0	3.7	0.00e+00	0	49	104	0	75	23005
2026-01-18 20:24:13.55	42.63	13.20	-52.0	-56.1	3.7	0.00e+00	0	49	104	0	75	23249
2026-01-18 20:24:14.40	42.80	13.28	-51.8	-55.5	3.7	0.00e+00	0	49	104	0	75	21656
2026-01-18 20:24:15.54	43.03	13.39	-51.9	-55.5	3.7	0.00e+00	0	49	104	0	75	21793
2026-01-18 20:24:16.39	43.20	13.47	-51.3	-54.7	3.7	0.00e+00	0	49	104	0	74	21030
2026-01-18 20:24:17.53	43.43	13.58	-51.3	-54.8	3.7	0.00e+00	0	49	104	0	74	21205
2026-01-18 20:24:18.38	43.60	13.66	-50.6	-54.7	3.7	0.00e+00	0	49	104	0	73	22170
2026-01-18 20:24:19.52	43.83	13.77	-50.4	-55.4	3.7	0.00e+00	0	49	104	0	72	25577
2026-01-18 20:24:20.37	44.01	13.85	-50.6	-56.0	3.7	0.00e+00	0	49	104	0	72	27360
2026-01-18 20:24:21.52	44.24	13.96	-51.0	-56.5	3.7	0.00e+00	0	49	104	0	72	29007
2026-01-18 20:24:22.38	44.42	14.05	-51.3	-56.8	3.6	0.00e+00	0	50	104	0	73	28198
2026-01-18 20:24:23.58	44.68	14.16	-51.6	-56.9	3.7	0.00e+00	0	49	104	0	73	28568
2026-01-18 20:24:24.43	44.86	14.25	-51.3	-56.8	3.7	0.00e+00	0	50	104	0	73	28215
2026-01-18 20:24:25.57	45.10	14.36	-51.5	-56.5	3.7	0.00e+00	0	49	104	0	73	27421
2026-01-18 20:24:26.42	45.29	14.44	-52.0	-56.5	3.7	0.00e+00	0	49	104	0	74	25747
2026-01-18 20:24:27.56	45.53	14.55	-52.0	-56.1	3.7	0.00e+00	0	49	104	0	74	24736
2026-01-18 20:24:28.41	45.72	14.63	-52.2	-56.2	3.7	0.00e+00	0	49	104	0	74	25047
2026-01-18 20:24:29.55	45.97	14.75	-52.4	-56.6	3.7	0.00e+00	0	49	104	0	75	24686
2026-01-18 20:24:30.40	46.16	14.83	-52.6	-56.9	3.7	0.00e+00	0	49	104	0	75	25485
2026-01-18 20:24:31.54	46.42	14.94	-52.6	-57.1	3.7	0.00e+00	0	50	104	0	75	26104
2026-01-18 20:24:32.39	46.61	15.03	-52.5	-57.1	3.7	0.00e+00	0	50	104	0	75	26229
2026-01-18 20:24:33.53	46.87	15.14	-52.6	-57.2	3.7	0.00e+00	0	50	104	0	75	26458
2026-01-18 20:24:34.38	47.06	15.22	-52.4	-57.3	3.7	0.00e+00	0	50	104	0	75	26721
2026-01-18 20:24:35.52	47.33	15.34	-52.6	-57.4	3.7	0.00e+00	0	50	104	0	75	26934
2026-01-18 20:24:36.37	47.53	15.42	-52.3	-57.3	3.7	0.00e+00	0	50	104	0	75	26821
2026-01-18 20:24:37.50	47.79	15.53	-52.4	-57.3	3.7	0.00e+00	0	50	104	0	75	26740
2026-01-18 20:24:38.36	47.99	15.62	-52.1	-57.2	3.7	0.00e+00	0	50	104	0	75	26576
2026-01-18 20:24:39.54	48.28	15.73	-52.3	-57.3	3.7	0.00e+00	0	50	104	0	75	26844
2026-01-18 20:24:40.39	48.48	15.82	-52.4	-57.4	3.7	0.00e+00	0	50	104	0	75	27000
2026-01-18 20:24:41.60	48.77	15.94	-52.3	-57.4	3.7	0.00e+00	0	50	104	0	75	26934
2026-01-18 20:24:42.45	48.98	16.03	-52.6	-57.4	3.7	0.00e+00	0	50	104	0	76	25668
2026-01-18 20:24:43.68	49.28	16.15	-52.8	-57.4	3.7	0.00e+00	0	50	104	0	76	25560
2026-01-18 20:24:44.53	49.50	16.23	-52.8	-57.4	3.7	0.00e+00	0	50	104	0	76	25605
2026-01-18 20:24:45.67	49.78	16.35	-52.8	-57.4	3.7	0.00e+00	0	50	104	0	76	25623
2026-01-18 20:24:46.52	50.00	16.43	-52.7	-57.4	3.7	0.00e+00	0	50	104	0	76	25400
2026-01-18 20:24:47.66	50.29	16.55	-52.8	-57.4	3.7	0.00e+00	0	50	104	0	76	25426
2026-01-18 20:24:48.51	50.50	16.63	-52.8	-57.3	3.7	0.00e+00	0	50	104	0	76	25371
2026-01-18 20:24:49.65	50.80	16.75	-52.8	-57.3	3.7	0.00e+00	0	50	104	0	76	25308
2026-01-18 20:24:50.50	51.02	16.83	-52.9	-57.4	3.7	0.00e+00	0	50	104	0	76	25622
2026-01-18 20:24:51.64	51.32	16.95	-52.8	-57.4	3.7	0.00e+00	0	50	104	0	76	25618
2026-01-18 20:24:52.49	51.54	17.03	-52.7	-57.3	3.7	0.00e+00	0	50	104	0	76	25267
2026-01-18 20:24:53.63	51.85	17.15	-52.7	-57.2	3.7	0.00e+00	0	50	104	0	76	24943
2026-01-18 20:24:54.48	52.07	17.23	-52.7	-57.3	3.7	0.00e+00	0	50	104	0	76	25356
2026-01-18 20:24:55.62	52.38	17.35	-52.8	-57.4	3.7	0.00e+00	0	50	104	0	76	25481
2026-01-18 20:24:56.82	52.71	17.47	-52.8	-57.4	3.7	0.00e+00	0	50	104	0	76	25593
2026-01-18 20:24:57.67	52.94	17.56	-52.8	-57.5	3.7	0.00e+00	0	50	104	0	76	25799
2026-01-18 20:24:58.81	53.26	17.67	-52.9	-57.5	3.7	0.00e+00	0	50	104	0	76	25798
2026-01-18 20:24:59.66	53.50	17.76	-52.8	-57.5	3.7	0.00e+00	0	50	104	0	76	25957
2026-01-18 20:25:00.80	53.82	17.87	-52.9	-57.5	3.7	0.00e+00	0	50	104	0	76	25944
2026-01-18 20:25:01.65	54.06	17.96	-52.7	-57.6	3.7	0.00e+00	0	50	104	0	76	26054
2026-01-18 20:25:02.79	54.38	18.07	-52.7	-57.5	3.7	0.00e+00	0	50	104	0	76	25740
2026-01-18 20:25:03.64	54.63	18.16	-52.4	-57.4	3.7	0.00e+00	0	50	104	0	76	25442
2026-01-18 20:25:04.78	54.96	18.27	-52.6	-57.5	3.7	0.00e+00	0	50	104	0	76	25783
2026-01-18 20:25:05.63	55.21	18.35	-52.6	-57.5	3.7	0.00e+00	0	50	104	0	76	25824
2026-01-18 20:25:06.77	55.54	18.47	-52.6	-57.2	3.7	0.00e+00	0	50	104	0	76	25014
2026-01-18 20:25:07.62	55.80	18.55	-52.9	-57.4	3.7	0.00e+00	0	50	104	0	76	25574
2026-01-18 20:25:08.76	56.14	18.67	-52.8	-57.4	3.7	0.00e+00	0	50	104	0	76	25514
2026-01-18 20:25:09.61	56.39	18.75	-53.0	-57.5	3.7	0.00e+00	0	50	104	0	76	25793
2026-01-18 20:25:10.75	56.74	18.87	-52.9	-57.4	3.7	0.00e+00	0	50	104	0	76	25509
2026-01-18 20:25:11.60	57.00	18.95	-52.9	-57.4	3.7	0.00e+00	0	50	104	0	76	25504
2026-01-18 20:25:13.00	57.43	19.09	-52.8	-57.3	3.7	0.00e+00	0	50	104	0	76	25233
2026-01-18 20:25:13.70	57.65	19.16	-52.9	-57.3	3.7	0.00e+00	0	50	104	0	76	25358
2026-01-18 20:25:14.98	58.05	19.28	-53.0	-57.7	3.7	0.00e+00	0	50	104	0	76	26351
2026-01-18 20:25:15.69	58.27	19.35	-52.9	-57.6	3.7	0.00e+00	0	50	104	0	76	26148
2026-01-18 20:25:16.98	58.68	19.48	-53.1	-57.6	3.7	0.00e+00	0	50	104	0	76	26267
2026-01-18 20:25:17.69	58.91	19.55	-52.6	-57.5	3.7	0.00e+00	0	50	104	0	76	25820
2026-01-18 20:25:18.96	59.32	19.67	-52.5	-57.3	3.7	0.00e+00	0	50	104	0	76	25252
2026-01-18 20:25:19.69	59.55	19.74	-52.5	-57.4	3.7	0.00e+00	0	50	104	0	76	25458
2026-01-18 20:25:20.97	59.97	19.87	-52.4	-57.4	3.7	0.00e+00	0	50	104	0	76	25505
2026-01-18 20:25:21.68	60.21	19.94	-52.7	-57.5	3.7	0.00e+00	0	50	104	0	76	25938
2026-01-18 20:25:22.96	60.63	20.06	-52.9	-57.3	3.7	0.00e+00	0	50	104	0	76	25136
2026-01-18 20:25:23.68	60.87	20.13	-52.4	-57.1	3.7	0.00e+00	0	50	104	0	76	24652
2026-01-18 20:25:25.04	61.33	20.26	-52.6	-57.2	3.7	0.00e+00	0	50	104	0	76	25037
2026-01-18 20:25:25.75	61.57	20.32	-52.5	-57.3	3.7	0.00e+00	0	50	104	0	76	25104
2026-01-18 20:25:27.03	62.01	20.44	-52.5	-57.4	3.7	0.00e+00	0	50	104	0	76	25515
2026-01-18 20:25:27.76	62.26	20.51	-52.8	-57.5	3.7	0.00e+00	0	50	104	0	76	25918
2026-01-18 20:25:29.24	62.77	20.65	-52.8	-57.4	3.7	0.00e+00	0	50	104	0	76	25579
2026-01-18 20:25:29.95	63.02	20.72	-52.8	-57.6	3.7	0.00e+00	0	50	104	0	76	26070
2026-01-18 20:25:31.23	63.47	20.83	-52.8	-57.5	3.7	0.00e+00	0	50	104	0	76	25934
2026-01-18 20:25:31.95	63.72	20.90	-53.0	-57.6	3.7	0.00e+00	0	50	104	0	76	26224
2026-01-18 20:25:33.23	64.18	21.02	-52.8	-57.5	3.7	0.00e+00	0	50	104	0	76	25822
2026-01-18 20:25:33.96	64.44	21.08	-53.1	-57.7	3.7	0.00e+00	0	50	104	0	76	26361
2026-01-18 20:25:35.24	64.90	21.20	-53.2	-57.7	3.7	0.00e+00	0	50	104	0	77	24942
2026-01-18 20:25:35.95	65.16	21.26	-53.1	-57.6	3.7	0.00e+00	0	50	104	0	77	24753
2026-01-18 20:25:37.23	65.63	21.37	-53.2	-57.7	3.7	0.00e+00	0	50	104	0	77	24850
2026-01-18 20:25:37.94	65.89	21.44	-53.0	-57.6	3.7	0.00e+00	0	50	104	0	77	24693
2026-01-18 20:25:39.22	66.36	21.55	-53.1	-57.7	3.7	0.00e+00	0	50	104	0	77	24862
2026-01-18 20:25:39.96	66.64	21.61	-53.0	-57.8	3.7	0.00e+00	0	50	104	0	77	25181
2026-01-18 20:25:41.24	67.12	21.72	-53.0	-57.7	3.7	0.00e+00	0	50	104	0	77	25008
2026-01-18 20:25:41.95	67.39	21.78	-53.0	-57.7	3.7	0.00e+00	0	50	104	0	77	25078
2026-01-18 20:25:43.23	67.87	21.89	-53.2	-57.8	3.7	0.00e+00	0	50	104	0	77	25122
2026-01-18 20:25:43.94	68.14	21.95	-53.0	-57.6	3.7	0.00e+00	0	50	104	0	77	24682
2026-01-18 20:25:45.23	68.64	22.06	-53.0	-57.6	3.7	0.00e+00	0	50	104	0	77	24705
2026-01-18 20:25:45.94	68.91	22.11	-53.0	-57.6	3.7	0.00e+00	0	50	104	0	77	24754
2026-01-18 20:25:47.24	69.42	22.22	-53.2	-57.7	3.7	0.00e+00	0	50	104	0	77	24912
2026-01-18 20:25:48.22	69.80	22.30	-53.0	-57.6	3.7	0.00e+00	0	50	104	0	77	24604
2026-01-18 20:25:49.22	70.20	22.38	-53.1	-57.6	3.7	0.00e+00	0	50	104	0	77	24743
2026-01-18 20:25:50.21	70.59	22.45	-53.0	-57.6	3.7	0.00e+00	0	50	104	0	77	24622
2026-01-18 20:25:51.21	70.99	22.53	-52.9	-57.5	3.7	0.00e+00	0	50	104	0	77	24290
2026-01-18 20:25:52.20	71.38	22.60	-53.0	-57.6	3.7	0.00e+00	0	50	104	0	77	24651
2026-01-18 20:25:53.20	71.78	22.68	-53.0	-57.5	3.7	0.00e+00	0	50	104	0	77	24514
2026-01-18 20:25:54.19	72.19	22.75	-53.0	-57.7	3.7	0.00e+00	0	50	104	0	77	24857
2026-01-18 20:25:55.19	72.59	22.83	-53.1	-57.7	3.7	0.00e+00	0	50	104	0	77	25009
2026-01-18 20:25:56.25	73.03	22.90	-53.0	-57.6	3.7	0.00e+00	0	50	104	0	77	24643
2026-01-18 20:25:57.15	73.40	22.96	-53.0	-57.6	3.7	0.00e+00	0	50	104	0	77	24770
2026-01-18 20:25:58.16	73.81	23.03	-53.1	-57.6	3.7	0.00e+00	0	50	104	0	77	24528
2026-01-18 20:25:59.15	74.22	23.10	-53.0	-57.5	3.7	0.00e+00	0	50	104	0	77	24379
2026-01-18 20:26:00.15	74.64	23.17	-52.9	-57.5	3.7	0.00e+00	0	50	104	0	77	24429
2026-01-18 20:26:01.14	75.06	23.23	-52.9	-57.5	3.7	0.00e+00	0	50	104	0	77	24288
2026-01-18 20:26:02.14	75.48	23.30	-52.8	-57.6	3.7	0.00e+00	0	50	104	0	77	24779
2026-01-18 20:26:03.43	76.02	23.38	-52.7	-57.5	3.7	0.00e+00	0	50	104	0	77	24497
2026-01-18 20:26:04.18	76.34	23.43	-52.8	-57.6	3.7	0.00e+00	0	50	104	0	77	24579
2026-01-18 20:26:05.77	77.02	23.52	-52.9	-57.6	3.7	0.00e+00	0	50	104	0	77	24654
2026-01-18 20:26:06.34	77.27	23.56	-53.0	-57.7	3.7	0.00e+00	0	50	104	0	77	24883
2026-01-18 20:26:08.25	78.09	23.67	-53.0	-57.5	3.7	0.00e+00	0	50	104	0	77	24441
2026-01-18 20:26:08.82	78.34	23.70	-53.0	-57.5	3.7	0.00e+00	0	50	104	0	77	24495
2026-01-18 20:26:10.52	79.08	23.79	-53.0	-57.6	3.7	0.00e+00	0	50	104	0	77	24643
2026-01-18 20:26:11.09	79.33	23.82	-53.1	-57.7	3.7	0.00e+00	0	50	104	0	77	25040
2026-01-18 20:26:12.89	80.12	23.91	-53.1	-57.7	3.7	0.00e+00	0	50	104	0	77	24920
2026-01-18 20:26:13.46	80.37	23.94	-52.9	-57.7	3.6	0.00e+00	0	50	104	0	77	24839
2026-01-18 20:26:15.16	81.13	24.02	-52.2	-57.3	3.7	0.00e+00	0	51	104	0	76	25301
2026-01-18 20:26:15.73	81.38	24.04	-52.5	-57.4	3.7	0.00e+00	0	50	104	0	76	25586
2026-01-18 20:26:17.43	82.14	24.12	-52.5	-57.4	3.7	0.00e+00	0	50	104	0	76	25610
2026-01-18 20:26:18.00	82.39	24.14	-52.7	-57.4	3.7	0.00e+00	0	50	104	0	76	25520
2026-01-18 20:26:19.71	83.16	24.21	-52.0	-57.0	3.7	0.00e+00	0	50	104	0	76	24307
2026-01-18 20:26:20.50	83.52	24.24	-51.9	-57.0	3.7	0.00e+00	0	50	104	0	75	25688
2026-01-18 20:26:21.70	84.06	24.28	-52.2	-57.1	3.7	0.00e+00	0	50	104	0	75	26030
2026-01-18 20:26:22.55	84.45	24.31	-52.5	-57.1	3.7	0.00e+00	0	50	104	0	75	26220
2026-01-18 20:26:23.69	84.96	24.35	-52.2	-57.1	3.7	0.00e+00	0	50	104	0	75	26093
2026-01-18 20:26:24.55	85.36	24.38	-52.2	-57.0	3.7	0.00e+00	0	50	104	0	75	25929
2026-01-18 20:26:25.68	85.87	24.41	-52.0	-57.0	3.7	0.00e+00	0	50	104	0	75	25721
2026-01-18 20:26:26.53	86.26	24.44	-52.2	-57.2	3.7	0.00e+00	0	50	104	0	75	26424
2026-01-18 20:26:27.67	86.78	24.47	-52.6	-57.4	3.7	0.00e+00	0	50	104	0	75	27087
2026-01-18 20:26:28.52	87.17	24.49	-52.7	-57.5	3.7	0.00e+00	0	50	104	0	76	25758
2026-01-18 20:26:29.66	87.70	24.51	-52.8	-57.6	3.7	0.00e+00	0	50	104	0	76	26098
2026-01-18 20:26:30.51	88.09	24.53	-52.7	-57.5	3.7	0.00e+00	0	50	104	0	76	25680
2026-01-18 20:26:31.65	88.62	24.55	-52.4	-57.2	3.7	0.00e+00	0	50	104	0	76	25037
2026-01-18 20:26:32.63	89.07	24.57	-52.3	-57.2	3.7	0.00e+00	0	50	104	0	76	24865
2026-01-18 20:26:33.79	89.61	24.59	-52.7	-57.5	3.7	0.00e+00	0	50	104	0	76	25829
2026-01-18 20:26:34.69	90.02	24.60	-52.8	-57.5	3.7	0.00e+00	0	50	104	0	76	25722
2026-01-18 20:26:35.91	90.59	24.62	-52.9	-57.4	3.7	0.00e+00	0	50	104	0	76	25551
2026-01-18 20:26:36.76	90.98	24.63	-52.9	-57.4	3.7	0.00e+00	0	51	104	0	76	25565
2026-01-18 20:26:37.90	91.51	24.64	-52.8	-57.3	3.7	0.00e+00	0	50	104	0	76	25228
2026-01-18 20:26:38.75	91.91	24.64	-52.8	-57.5	3.7	0.00e+00	0	50	104	0	76	25847
2026-01-18 20:26:39.89	92.44	24.65	-53.0	-57.6	3.7	0.00e+00	0	50	104	0	76	26037
2026-01-18 20:26:40.74	92.83	24.65	-52.9	-57.5	3.7	0.00e+00	0	50	104	0	76	25763
2026-01-18 20:26:41.88	93.36	24.65	-53.0	-57.5	3.7	0.00e+00	0	51	104	0	76	25884
2026-01-18 20:26:42.73	93.76	24.65	-52.8	-57.4	3.7	0.00e+00	0	50	104	0	76	25414
2026-01-18 20:26:43.87	94.29	24.65	-52.7	-57.2	3.7	0.00e+00	0	51	104	0	76	24837
2026-01-18 20:26:44.72	94.69	24.64	-52.7	-57.2	3.7	0.00e+00	0	50	104	0	76	24974
2026-01-18 20:26:45.86	95.22	24.64	-52.6	-57.1	3.7	0.00e+00	0	50	104	0	76	24556
2026-01-18 20:26:46.71	95.61	24.63	-52.7	-57.3	3.7	0.00e+00	0	50	104	0	76	25231
2026-01-18 20:26:47.85	96.14	24.62	-52.9	-57.6	3.7	0.00e+00	0	50	104	0	76	26149
2026-01-18 20:26:48.70	96.53	24.61	-52.8	-57.5	3.7	0.00e+00	0	50	104	0	76	25804
2026-01-18 20:26:49.93	97.10	24.59	-53.0	-57.6	3.7	0.00e+00	0	50	104	0	76	26236
2026-01-18 20:26:50.79	97.50	24.58	-52.9	-57.6	3.7	0.00e+00	0	50	104	0	76	26017
2026-01-18 20:26:51.92	98.03	24.56	-52.7	-57.5	3.7	0.00e+00	0	50	104	0	76	25848
2026-01-18 20:26:52.78	98.42	24.55	-52.8	-57.5	3.7	0.00e+00	0	50	104	0	76	25786
2026-01-18 20:26:54.03	99.00	24.52	-52.9	-57.5	3.7	0.00e+00	0	50	104	0	76	25923
2026-01-18 20:26:54.88	99.39	24.50	-53.0	-57.7	3.7	0.00e+00	0	50	104	0	76	26328
2026-01-18 20:26:56.10	99.95	24.47	-53.2	-57.7	3.6	0.00e+00	0	51	104	0	77	24840
2026-01-18 20:26:56.95	100.35	24.45	-53.1	-57.7	3.7	0.00e+00	0	50	104	0	77	24918
2026-01-18 20:26:58.09	100.87	24.42	-53.2	-57.6	3.7	0.00e+00	0	50	104	0	77	24769
2026-01-18 20:26:58.94	101.26	24.39	-53.1	-57.7	3.7	0.00e+00	0	51	104	0	77	24859
2026-01-18 20:27:00.08	101.78	24.36	-53.1	-57.8	3.7	0.00e+00	0	51	104	0	77	25101
2026-01-18 20:27:00.96	102.18	24.33	-53.1	-57.7	3.7	0.00e+00	0	50	104	0	77	25020
2026-01-18 20:27:02.10	102.70	24.29	-53.0	-57.7	3.7	0.00e+00	0	50	104	0	77	24963
2026-01-18 20:27:02.95	103.08	24.26	-53.2	-57.7	3.7	0.00e+00	0	50	104	0	77	25008
2026-01-18 20:27:04.09	103.60	24.22	-53.2	-57.7	3.7	0.00e+00	0	50	104	0	77	24914
2026-01-18 20:27:04.94	103.98	24.18	-53.3	-57.7	3.7	0.00e+00	0	50	104	0	77	25015
2026-01-18 20:27:06.07	104.49	24.14	-53.1	-57.7	3.7	0.00e+00	0	51	104	0	77	24878
2026-01-18 20:27:06.93	104.88	24.10	-53.1	-57.7	3.7	0.00e+00	0	50	104	0	77	25034
2026-01-18 20:27:08.07	105.39	24.05	-53.0	-57.7	3.7	0.00e+00	0	50	104	0	77	24887
2026-01-18 20:27:08.92	105.77	24.01	-53.1	-57.7	3.7	0.00e+00	0	50	104	0	77	25035
2026-01-18 20:27:10.05	106.27	23.96	-52.9	-57.6	3.7	0.00e+00	0	50	104	0	77	24645
2026-01-18 20:27:10.91	106.65	23.92	-53.0	-57.6	3.7	0.00e+00	0	51	104	0	77	24748
2026-01-18 20:27:12.04	107.15	23.86	-52.9	-57.5	3.7	0.00e+00	0	51	104	0	77	24488
2026-01-18 20:27:12.89	107.52	23.82	-53.0	-57.5	3.7	0.00e+00	0	51	104	0	77	24512
2026-01-18 20:27:14.08	108.04	23.75	-52.8	-57.4	3.7	0.00e+00	0	51	104	0	77	24172
2026-01-18 20:27:14.93	108.41	23.71	-53.0	-57.7	3.7	0.00e+00	0	50	104	0	77	24820
2026-01-18 20:27:16.13	108.94	23.64	-53.0	-57.6	3.7	0.00e+00	0	50	104	0	77	24612
2026-01-18 20:27:16.98	109.31	23.59	-53.0	-57.6	3.7	0.00e+00	0	50	104	0	77	24644
2026-01-18 20:27:18.12	109.80	23.53	-52.9	-57.5	3.7	0.00e+00	0	50	104	0	77	24416
2026-01-18 20:27:18.97	110.16	23.47	-53.0	-57.5	3.7	0.00e+00	0	50	104	0	77	24417
2026-01-18 20:27:20.11	110.65	23.40	-52.8	-57.5	3.7	0.00e+00	0	50	104	0	77	24331
2026-01-18 20:27:20.99	111.03	23.35	-52.8	-57.5	3.7	0.00e+00	0	51	104	0	77	24374
2026-01-18 20:27:22.13	111.51	23.28	-52.8	-57.5	3.7	0.00e+00	0	51	104	0	77	24480
2026-01-18 20:27:23.05	111.90	23.22	-53.0	-57.6	3.7	0.00e+00	0	51	104	0	77	24615
2026-01-18 20:27:24.04	112.31	23.15	-52.8	-57.5	3.7	0.00e+00	0	50	104	0	77	24260
2026-01-18 20:27:25.04	112.73	23.08	-52.9	-57.5	3.7	0.00e+00	0	50	104	0	77	24446
2026-01-18 20:27:26.03	113.14	23.01	-52.8	-57.4	3.7	0.00e+00	0	51	104	0	77	24220
2026-01-18 20:27:27.03	113.56	22.94	-52.8	-57.4	3.7	0.00e+00	0	50	104	0	76	25677
2026-01-18 20:27:28.03	113.97	22.87	-52.9	-57.5	3.7	0.00e+00	0	51	104	0	76	25796
2026-01-18 20:27:29.02	114.38	22.80	-53.0	-57.5	3.7	0.00e+00	0	51	104	0	76	25917
2026-01-18 20:27:30.02	114.78	22.73	-53.2	-57.7	3.7	0.00e+00	0	50	104	0	76	26288
2026-01-18 20:27:31.01	115.19	22.65	-53.2	-57.7	3.7	0.00e+00	0	50	104	0	76	26388
2026-01-18 20:27:32.00	115.59	22.58	-53.1	-57.7	3.7	0.00e+00	0	51	104	0	76	26397
2026-01-18 20:27:33.00	115.99	22.50	-53.0	-57.7	3.7	0.00e+00	0	50	104	0	76	26296
2026-01-18 20:27:33.99	116.38	22.43	-53.0	-57.6	3.7	0.00e+00	0	50	104	0	76	26030
2026-01-18 20:27:34.99	116.78	22.35	-52.9	-57.5	3.7	0.00e+00	0	51	104	0	76	25836
2026-01-18 20:27:35.98	117.17	22.27	-52.9	-57.5	3.7	0.00e+00	0	50	104	0	76	25756
2026-01-18 20:27:36.98	117.56	22.19	-53.0	-57.5	3.7	0.00e+00	0	51	104	0	76	25772
2026-01-18 20:27:37.97	117.95	22.11	-53.2	-57.7	3.7	0.00e+00	0	51	104	0	77	24819
2026-01-18 20:27:38.97	118.34	22.03	-53.3	-57.7	3.7	0.00e+00	0	51	104	0	77	25070
2026-01-18 20:27:39.96	118.72	21.94	-53.2	-57.7	3.7	0.00e+00	0	51	104	0	77	24963
2026-01-18 20:27:40.96	119.10	21.86	-53.2	-57.7	3.7	0.00e+00	0	50	104	0	77	24851
2026-01-18 20:27:41.95	119.48	21.78	-53.1	-57.6	3.7	0.00e+00	0	50	104	0	77	24715
2026-01-18 20:27:42.94	119.86	21.69	-53.1	-57.5	3.7	0.00e+00	0	51	104	0	77	24507
2026-01-18 20:27:43.94	120.23	21.60	-53.0	-57.5	3.7	0.00e+00	0	50	104	0	77	24286
2026-01-18 20:27:44.93	120.60	21.52	-53.1	-57.5	3.7	0.00e+00	0	51	104	0	77	24374
2026-01-18 20:27:45.93	120.98	21.43	-53.2	-57.5	3.7	0.00e+00	0	50	104	0	77	24479
2026-01-18 20:27:46.94	121.35	21.34	-53.0	-57.5	3.7	0.00e+00	0	51	104	0	77	24337
2026-01-18 20:27:47.96	121.72	21.25	-53.1	-57.4	3.7	0.00e+00	0	50	104	0	77	24063
2026-01-18 20:27:48.96	122.09	21.16	-52.8	-57.3	3.7	0.00e+00	0	51	104	0	77	23885
2026-01-18 20:27:49.96	122.45	21.07	-52.7	-57.2	3.7	0.00e+00	0	51	104	0	77	23545
2026-01-18 20:27:50.95	122.81	20.98	-52.7	-57.3	3.7	0.00e+00	0	50	104	0	77	23938
2026-01-18 20:27:51.94	123.16	20.89	-52.6	-57.1	3.7	0.00e+00	0	50	104	0	77	23382
2026-01-18 20:27:52.94	123.52	20.80	-52.7	-57.3	3.7	0.00e+00	0	50	104	0	77	23748
2026-01-18 20:27:53.93	123.87	20.70	-52.9	-57.4	3.7	0.00e+00	0	50	104	0	77	24076
2026-01-18 20:27:54.93	124.22	20.61	-52.9	-57.6	3.7	0.00e+00	0	50	104	0	77	24534
2026-01-18 20:27:55.92	124.56	20.52	-52.7	-57.2	3.7	0.00e+00	0	51	104	0	77	23534
2026-01-18 20:27:56.92	124.91	20.42	-52.9	-57.5	3.7	0.00e+00	0	51	104	0	77	24249
2026-01-18 20:27:57.91	125.25	20.33	-52.6	-57.2	3.7	0.00e+00	0	50	104	0	77	23513
2026-01-18 20:27:58.91	125.59	20.23	-52.7	-57.4	3.7	0.00e+00	0	51	104	0	77	24150
2026-01-18 20:27:59.90	125.92	20.14	-52.5	-57.0	3.7	0.00e+00	0	51	104	0	77	23144
2026-01-18 20:28:00.90	126.26	20.04	-52.7	-57.4	3.7	0.00e+00	0	50	104	0	76	25464
2026-01-18 20:28:01.89	126.59	19.95	-52.7	-57.3	3.7	0.00e+00	0	51	104	0	76	25199
2026-01-18 20:28:02.89	126.92	19.85	-52.9	-57.4	3.7	0.00e+00	0	50	104	0	76	25672
2026-01-18 20:28:03.88	127.25	19.75	-52.8	-57.3	3.7	0.00e+00	0	51	104	0	76	25192
2026-01-18 20:28:04.87	127.57	19.66	-52.9	-57.4	3.7	0.00e+00	0	51	104	0	76	25508
2026-01-18 20:28:05.87	127.90	19.56	-52.8	-57.4	3.7	0.00e+00	0	51	104	0	76	25581
2026-01-18 20:28:06.96	128.25	19.45	-52.9	-57.5	3.7	0.00e+00	0	51	104	0	76	25729
2026-01-18 20:28:07.81	128.52	19.37	-52.8	-57.4	3.7	0.00e+00	0	51	104	0	76	25446
2026-01-18 20:28:08.95	128.88	19.25	-52.8	-57.4	3.7	0.00e+00	0	51	104	0	76	25596
2026-01-18 20:28:09.80	129.15	19.17	-52.9	-57.3	3.7	0.00e+00	0	50	104	0	76	25191
2026-01-18 20:28:10.94	129.51	19.06	-52.6	-57.2	3.7	0.00e+00	0	51	104	0	76	24985
2026-01-18 20:28:11.79	129.77	18.97	-52.7	-57.2	3.7	0.00e+00	0	51	104	0	76	24867
2026-01-18 20:28:12.93	130.12	18.86	-52.6	-57.2	3.7	0.00e+00	0	50	104	0	76	24926
2026-01-18 20:28:13.78	130.38	18.77	-52.7	-57.3	3.7	0.00e+00	0	51	104	0	76	25326
2026-01-18 20:28:14.92	130.73	18.66	-52.9	-57.3	3.7	0.00e+00	0	51	104	0	76	25280
2026-01-18 20:28:15.77	130.98	18.57	-52.8	-57.3	3.7	0.00e+00	0	51	104	0	76	25315
2026-01-18 20:28:16.91	131.32	18.46	-52.7	-57.2	3.7	0.00e+00	0	51	104	0	76	24891
2026-01-18 20:28:17.76	131.58	18.37	-52.6	-57.2	3.7	0.00e+00	0	50	104	0	76	24867
2026-01-18 20:28:19.02	131.95	18.24	-52.6	-57.2	3.7	0.00e+00	0	51	104	0	76	24939
2026-01-18 20:28:19.80	132.18	18.17	-52.6	-57.2	3.7	0.00e+00	0	51	104	0	76	24915
2026-01-18 20:28:21.08	132.55	18.04	-52.5	-57.1	3.7	0.00e+00	0	50	104	0	76	24628
2026-01-18 20:28:22.20	132.87	17.92	-52.8	-57.2	3.7	0.00e+00	0	50	104	0	76	25024
2026-01-18 20:28:23.05	133.11	17.84	-52.8	-57.3	3.7	0.00e+00	0	50	104	0	76	25370
2026-01-18 20:28:24.19	133.43	17.72	-52.6	-57.1	3.7	0.00e+00	0	51	104	0	76	24527
2026-01-18 20:28:25.03	133.67	17.64	-52.9	-57.3	3.7	0.00e+00	0	51	104	0	76	25362
2026-01-18 20:28:26.17	133.99	17.52	-52.7	-57.4	3.7	0.00e+00	0	51	104	0	76	25439
2026-01-18 20:28:27.02	134.22	17.43	-52.6	-57.3	3.7	0.00e+00	0	51	104	0	76	25302
2026-01-18 20:28:28.16	134.54	17.32	-52.7	-57.3	3.7	0.00e+00	0	51	104	0	76	25258
2026-01-18 20:28:29.05	134.78	17.23	-52.7	-57.3	3.7	0.00e+00	0	50	104	0	76	25361
2026-01-18 20:28:30.18	135.08	17.11	-52.8	-57.4	3.7	0.00e+00	0	50	104	0	76	25487
2026-01-18 20:28:31.04	135.32	17.03	-52.8	-57.3	3.7	0.00e+00	0	51	104	0	76	25148
2026-01-18 20:28:32.17	135.62	16.91	-52.7	-57.3	3.7	0.00e+00	0	51	104	0	76	25195
2026-01-18 20:28:33.15	135.88	16.81	-52.4	-57.1	3.7	0.00e+00	0	50	104	0	76	24546
2026-01-18 20:28:34.15	136.14	16.71	-52.6	-57.1	3.7	0.00e+00	0	51	104	0	76	24763
2026-01-18 20:28:35.33	136.44	16.59	-52.5	-57.2	3.7	0.00e+00	0	51	104	0	76	24983
2026-01-18 20:28:36.21	136.67	16.50	-52.4	-57.0	3.7	0.00e+00	0	51	104	0	76	24427
2026-01-18 20:28:37.35	136.96	16.38	-52.6	-57.3	3.7	0.00e+00	0	51	104	0	76	25200
2026-01-18 20:28:38.20	137.18	16.30	-52.7	-57.3	3.7	0.00e+00	0	51	104	0	76	25338
2026-01-18 20:28:39.34	137.46	16.18	-52.7	-57.3	3.7	0.00e+00	0	51	104	0	76	25312
2026-01-18 20:28:40.20	137.68	16.10	-52.7	-57.3	3.7	0.00e+00	0	50	104	0	76	25331
2026-01-18 20:28:41.34	137.96	15.98	-52.8	-57.3	3.7	0.00e+00	0	51	104	0	76	25305
2026-01-18 20:28:42.19	138.17	15.90	-52.6	-57.2	3.7	0.00e+00	0	50	104	0	76	24983
2026-01-18 20:28:43.33	138.45	15.78	-52.7	-57.3	3.7	0.00e+00	0	51	104	0	76	25374
2026-01-18 20:28:44.18	138.66	15.69	-52.8	-57.3	3.7	0.00e+00	0	50	104	0	76	25299
2026-01-18 20:28:45.32	138.93	15.58	-52.7	-57.3	3.7	0.00e+00	0	50	104	0	76	25294
2026-01-18 20:28:46.17	139.13	15.49	-52.8	-57.4	3.7	0.00e+00	0	51	104	0	76	25508
2026-01-18 20:28:47.35	139.41	15.38	-52.7	-57.3	3.7	0.00e+00	0	50	104	0	76	25179
2026-01-18 20:28:48.20	139.61	15.29	-52.7	-57.3	3.7	0.00e+00	0	50	104	0	76	25381
2026-01-18 20:28:49.41	139.89	15.17	-52.5	-57.2	3.7	0.00e+00	0	51	104	0	76	24997
2026-01-18 20:28:50.26	140.09	15.09	-52.5	-57.1	3.7	0.00e+00	0	51	104	0	76	24739
2026-01-18 20:28:51.48	140.37	14.96	-52.5	-57.1	3.7	0.00e+00	0	50	104	0	76	24747
2026-01-18 20:28:52.33	140.56	14.88	-52.6	-57.2	3.6	0.00e+00	0	50	104	0	76	24841
2026-01-18 20:28:53.53	140.83	14.76	-52.4	-57.1	3.7	0.00e+00	0	50	104	0	76	24647
2026-01-18 20:28:54.38	141.02	14.68	-52.1	-56.8	3.7	0.00e+00	0	51	104	0	76	23950
2026-01-18 20:28:55.52	141.27	14.56	-52.1	-56.9	3.7	0.00e+00	0	51	104	0	76	24038
2026-01-18 20:28:56.37	141.46	14.48	-52.2	-57.0	3.7	0.00e+00	0	51	104	0	76	24284
2026-01-18 20:28:57.68	141.75	14.35	-52.1	-56.7	3.7	0.00e+00	0	51	104	0	76	23616
2026-01-18 20:28:58.39	141.90	14.28	-51.9	-56.6	3.7	0.00e+00	0	51	104	0	75	24738
2026-01-18 20:28:59.67	142.18	14.15	-51.8	-56.5	3.7	0.00e+00	0	51	104	0	75	24499
2026-01-18 20:29:00.40	142.33	14.08	-51.8	-56.6	3.7	0.00e+00	0	51	104	0	75	24595
2026-01-18 20:29:01.68	142.60	13.96	-52.3	-56.9	3.7	0.00e+00	0	51	104	0	75	25634
2026-01-18 20:29:02.39	142.75	13.89	-52.4	-57.0	3.7	0.00e+00	0	51	104	0	75	25966
2026-01-18 20:29:03.67	143.02	13.76	-52.7	-57.3	3.7	0.00e+00	0	50	104	0	76	25233
2026-01-18 20:29:04.50	143.19	13.68	-52.8	-57.3	3.7	0.00e+00	0	50	104	0	76	25256
2026-01-18 20:29:05.64	143.42	13.57	-52.7	-57.3	3.7	0.00e+00	0	50	104	0	76	25100
2026-01-18 20:29:06.49	143.60	13.49	-52.4	-57.0	3.7	0.00e+00	0	51	104	0	76	24414
2026-01-18 20:29:07.63	143.83	13.38	-52.4	-57.0	3.7	0.00e+00	0	50	104	0	76	24504
2026-01-18 20:29:08.48	144.00	13.30	-52.4	-57.0	3.7	0.00e+00	0	50	104	0	76	24492
2026-01-18 20:29:09.62	144.23	13.19	-52.6	-57.1	3.7	0.00e+00	0	50	104	0	76	24709
2026-01-18 20:29:10.47	144.39	13.11	-52.6	-57.2	3.7	0.00e+00	0	51	104	0	76	24859
2026-01-18 20:29:11.61	144.62	13.00	-52.6	-57.1	3.7	0.00e+00	0	51	104	0	76	24766
2026-01-18 20:29:12.46	144.78	12.92	-52.7	-57.3	3.7	0.00e+00	0	50	104	0	76	25095
2026-01-18 20:29:13.60	145.00	12.81	-52.1	-56.8	3.7	0.00e+00	0	50	104	0	76	23872
2026-01-18 20:29:14.45	145.16	12.73	-51.7	-56.5	3.7	0.00e+00	0	50	104	0	75	24415
2026-01-18 20:29:15.59	145.38	12.62	-51.5	-56.3	3.7	0.00e+00	0	51	104	0	74	25344
2026-01-18 20:29:16.44	145.54	12.54	-51.4	-56.3	3.7	0.00e+00	0	51	104	0	74	25122
2026-01-18 20:29:17.58	145.76	12.43	-51.4	-56.2	3.7	0.00e+00	0	51	104	0	74	24823
2026-01-18 20:29:18.43	145.91	12.35	-51.8	-56.3	3.7	0.00e+00	0	50	104	0	74	25371
2026-01-18 20:29:19.57	146.12	12.24	-51.8	-56.3	3.7	0.00e+00	0	51	104	0	75	23922
2026-01-18 20:29:20.42	146.28	12.17	-51.6	-56.1	3.7	0.00e+00	0	51	104	0	75	23413
2026-01-18 20:29:21.56	146.49	12.06	-51.8	-56.3	3.7	0.00e+00	0	50	104	0	75	23810
2026-01-18 20:29:22.41	146.64	11.98	-51.9	-56.4	3.7	0.00e+00	0	50	104	0	75	24010
2026-01-18 20:29:23.55	146.84	11.87	-52.2	-56.6	3.7	0.00e+00	0	51	104	0	75	24695
2026-01-18 20:29:24.40	146.99	11.80	-52.3	-56.7	3.7	0.00e+00	0	51	104	0	75	25086
2026-01-18 20:29:25.54	147.20	11.69	-52.3	-56.8	3.7	0.00e+00	0	51	104	0	75	25288
2026-01-18 20:29:26.39	147.34	11.61	-51.9	-56.5	3.7	0.00e+00	0	51	104	0	75	24420
2026-01-18 20:29:27.60	147.55	11.50	-52.2	-56.8	3.7	0.00e+00	0	51	104	0	75	25231
2026-01-18 20:29:28.46	147.70	11.42	-52.1	-56.7	3.7	0.00e+00	0	51	104	0	75	24808
2026-01-18 20:29:29.59	147.90	11.32	-52.2	-56.7	3.7	0.00e+00	0	51	104	0	75	25080
2026-01-18 20:29:30.45	148.04	11.24	-52.4	-57.0	3.7	0.00e+00	0	51	104	0	75	25699
2026-01-18 20:29:31.59	148.23	11.14	-52.4	-57.0	3.7	0.00e+00	0	51	104	0	75	25797
2026-01-18 20:29:32.49	148.39	11.06	-52.4	-56.9	3.7	0.00e+00	0	51	104	0	75	25604
2026-01-18 20:29:33.52	148.56	10.96	-52.3	-56.9	3.7	0.00e+00	0	50	104	0	75	25678
2026-01-18 20:29:34.51	148.72	10.88	-52.2	-56.9	3.7	0.00e+00	0	51	104	0	75	25537
2026-01-18 20:29:35.51	148.88	10.79	-51.9	-56.7	3.7	0.00e+00	0	50	104	0	75	25072
2026-01-18 20:29:36.50	149.04	10.70	-51.9	-56.9	3.7	0.00e+00	0	50	104	0	75	25424
2026-01-18 20:29:37.49	149.20	10.61	-51.8	-56.8	3.7	0.00e+00	0	51	104	0	75	25159
2026-01-18 20:29:38.49	149.36	10.52	-51.9	-56.7	3.7	0.00e+00	0	51	104	0	75	24849
2026-01-18 20:29:39.49	149.52	10.43	-52.2	-57.0	3.7	0.00e+00	0	51	104	0	75	25820
2026-01-18 20:29:40.48	149.68	10.34	-52.1	-56.9	3.7	0.00e+00	0	51	104	0	75	25596
2026-01-18 20:29:41.48	149.84	10.26	-52.5	-57.0	3.7	0.00e+00	0	51	104	0	75	25939
2026-01-18 20:29:42.47	149.99	10.17	-52.3	-56.9	3.7	0.00e+00	0	51	104	0	75	25571
2026-01-18 20:29:43.47	150.15	10.08	-52.3	-56.9	3.7	0.00e+00	0	51	104	0	75	25482
2026-01-18 20:29:44.46	150.30	10.00	-52.4	-56.9	3.7	0.00e+00	0	51	104	0	75	25596
2026-01-18 20:29:45.45	150.45	9.91	-52.2	-56.8	3.7	0.00e+00	0	51	104	0	75	25346
2026-01-18 20:29:46.45	150.60	9.82	-51.9	-56.7	3.7	0.00e+00	0	51	104	0	75	24895
2026-01-18 20:29:47.51	150.76	9.73	-52.1	-56.7	3.7	0.00e+00	0	51	104	0	75	25033
2026-01-18 20:29:48.43	150.90	9.65	-52.2	-56.8	3.7	0.00e+00	0	50	104	0	75	25357
2026-01-18 20:29:49.43	151.04	9.57	-52.2	-56.9	3.7	0.00e+00	0	51	104	0	75	25392
2026-01-18 20:29:50.43	151.19	9.48	-52.0	-56.7	3.7	0.00e+00	0	51	104	0	75	24990
2026-01-18 20:29:51.42	151.34	9.40	-51.9	-56.7	3.7	0.00e+00	0	51	104	0	75	24836
2026-01-18 20:29:52.42	151.48	9.31	-52.0	-56.8	3.7	0.00e+00	0	50	104	0	75	25302
2026-01-18 20:29:53.41	151.62	9.23	-52.0	-56.8	3.7	0.00e+00	0	50	104	0	75	25096
2026-01-18 20:29:54.40	151.76	9.14	-51.5	-56.3	3.7	0.00e+00	0	50	104	0	75	23878
2026-01-18 20:29:55.40	151.91	9.06	-51.7	-56.5	3.7	0.00e+00	0	50	104	0	74	25681
2026-01-18 20:29:56.39	152.05	8.97	-51.8	-56.6	3.7	0.00e+00	0	51	104	0	74	26084
2026-01-18 20:29:57.39	152.19	8.89	-52.5	-57.0	3.7	0.00e+00	0	51	104	0	75	25961
2026-01-18 20:29:58.38	152.32	8.81	-52.0	-56.7	3.7	0.00e+00	0	51	104	0	76	23451
2026-01-18 20:29:59.39	152.46	8.72	-52.6	-57.2	3.7	0.00e+00	0	50	104	0	76	25040
2026-01-18 20:30:00.41	152.60	8.64	-52.0	-57.0	3.7	0.00e+00	0	51	104	0	76	24311
2026-01-18 20:30:01.44	152.74	8.55	-53.2	-57.6	3.7	0.00e+00	0	50	104	0	77	24721
2026-01-18 20:30:02.46	152.88	8.47	-53.2	-57.7	3.7	0.00e+00	0	51	104	0	77	24980
2026-01-18 20:30:03.49	153.02	8.38	-53.4	-57.8	3.7	0.00e+00	0	51	104	0	77	25334
2026-01-18 20:30:04.50	153.15	8.30	-53.3	-57.8	3.7	0.00e+00	0	51	104	0	77	25105
2026-01-18 20:30:05.55	153.29	8.22	-52.9	-57.6	3.7	0.00e+00	0	51	104	0	77	24679
2026-01-18 20:30:06.42	153.41	8.14	-53.1	-57.7	3.7	0.00e+00	0	51	104	0	77	25076
2026-01-18 20:30:07.56	153.56	8.05	-53.3	-57.7	3.7	0.00e+00	0	51	104	0	77	25047
2026-01-18 20:30:08.41	153.67	7.98	-53.3	-57.8	3.7	0.00e+00	0	51	104	0	77	25349
2026-01-18 20:30:09.55	153.81	7.89	-53.1	-57.6	3.7	0.00e+00	0	51	104	0	77	24733
2026-01-18 20:30:10.40	153.92	7.82	-53.3	-57.8	3.7	0.00e+00	0	51	104	0	77	25303
2026-01-18 20:30:11.53	154.07	7.73	-52.9	-57.7	3.7	0.00e+00	0	51	104	0	76	26346
2026-01-18 20:30:12.39	154.17	7.66	-52.6	-57.6	3.7	0.00e+00	0	51	104	0	76	26095
2026-01-18 20:30:13.52	154.32	7.57	-53.4	-57.9	3.7	0.00e+00	0	51	104	0	77	25650
2026-01-18 20:30:14.37	154.42	7.50	-53.2	-57.8	3.7	0.00e+00	0	51	104	0	77	25246
2026-01-18 20:30:15.51	154.56	7.41	-53.1	-57.7	3.7	0.00e+00	0	51	104	0	77	24914
2026-01-18 20:30:16.36	154.67	7.35	-53.0	-57.8	3.7	0.00e+00	0	51	104	0	77	25302
2026-01-18 20:30:17.51	154.81	7.26	-53.1	-57.9	3.7	0.00e+00	0	51	104	0	77	25457
2026-01-18 20:30:18.36	154.91	7.19	-53.0	-57.8	3.7	0.00e+00	0	51	104	0	76	26603
2026-01-18 20:30:19.56	155.06	7.09	-52.6	-57.4	3.7	0.00e+00	0	51	104	0	76	25500
2026-01-18 20:30:20.41	155.16	7.03	-52.7	-57.4	3.7	0.00e+00	0	51	104	0	76	25552
2026-01-18 20:30:21.60	155.30	6.93	-52.7	-57.4	3.7	0.00e+00	0	51	104	0	76	25630
2026-01-18 20:30:22.45	155.40	6.87	-52.7	-57.4	3.7	0.00e+00	0	51	104	0	76	25653
2026-01-18 20:30:23.58	155.53	6.78	-52.7	-57.4	3.7	0.00e+00	0	51	104	0	76	25465
2026-01-18 20:30:24.43	155.63	6.72	-52.7	-57.4	3.7	0.00e+00	0	51	104	0	76	25601
2026-01-18 20:30:25.57	155.76	6.63	-52.7	-57.4	3.7	0.00e+00	0	51	104	0	76	25577
2026-01-18 20:30:26.42	155.86	6.56	-52.7	-57.4	3.7	0.00e+00	0	51	104	0	76	25573
2026-01-18 20:30:27.55	155.99	6.48	-52.7	-57.4	3.7	0.00e+00	0	51	104	0	76	25505
2026-01-18 20:30:28.40	156.09	6.41	-52.7	-57.4	3.7	0.00e+00	0	51	104	0	76	25611
2026-01-18 20:30:29.54	156.21	6.32	-52.7	-57.4	3.7	0.00e+00	0	50	104	0	76	25521
2026-01-18 20:30:30.39	156.31	6.26	-52.7	-57.4	3.7	0.00e+00	0	51	104	0	76	25518
2026-01-18 20:30:31.53	156.44	6.17	-52.7	-57.4	3.7	0.00e+00	0	51	104	0	76	25594
2026-01-18 20:30:32.38	156.53	6.11	-52.7	-57.4	3.7	0.00e+00	0	51	104	0	76	25552
2026-01-18 20:30:33.51	156.66	6.02	-52.7	-57.4	3.7	0.00e+00	0	51	104	0	76	25549
2026-01-18 20:30:34.37	156.75	5.96	-52.7	-57.4	3.7	0.00e+00	0	51	104	0	76	25460
2026-01-18 20:30:35.50	156.87	5.87	-52.7	-57.4	3.7	0.00e+00	0	51	104	0	76	25494
2026-01-18 20:30:36.35	156.96	5.81	-52.7	-57.4	3.7	0.00e+00	0	51	104	0	76	25487
2026-01-18 20:30:37.49	157.09	5.73	-52.7	-57.4	3.7	0.00e+00	0	51	104	0	76	25481
2026-01-18 20:30:38.34	157.18	5.66	-52.7	-57.4	3.7	0.00e+00	0	51	104	0	76	25522
2026-01-18 20:30:39.47	157.30	5.58	-52.7	-57.4	3.7	0.00e+00	0	51	104	0	76	25476
2026-01-18 20:30:40.33	157.39	5.52	-52.6	-57.4	3.7	0.00e+00	0	51	104	0	76	25491
2026-01-18 20:30:41.46	157.51	5.43	-52.6	-57.4	3.7	0.00e+00	0	51	104	0	76	25403
2026-01-18 20:30:42.31	157.59	5.37	-52.7	-57.4	3.7	0.00e+00	0	51	104	0	76	25419
2026-01-18 20:30:43.45	157.71	5.29	-52.7	-57.4	3.7	0.00e+00	0	51	104	0	76	25423
2026-01-18 20:30:44.30	157.80	5.23	-52.7	-57.4	3.7	0.00e+00	0	51	104	0	76	25493
2026-01-18 20:30:45.43	157.92	5.14	-52.7	-57.4	3.7	0.00e+00	0	51	104	0	76	25471
2026-01-18 20:30:46.29	158.00	5.08	-52.6	-57.4	3.7	0.00e+00	0	51	104	0	76	25406
2026-01-18 20:30:47.42	158.12	5.00	-52.7	-57.4	3.7	0.00e+00	0	51	104	0	76	25458
2026-01-18 20:30:48.27	158.20	4.94	-52.7	-57.4	3.7	0.00e+00	0	51	104	0	76	25456
2026-01-18 20:30:49.41	158.32	4.86	-52.7	-57.4	3.7	0.00e+00	0	51	104	0	76	25401

#Closed at: 2026-01-18 20:30:50
#Recorded file [0 MB]: D:/Data/31040_260118_232236.dat