passes_logs/2026/01/18/T1/T1__20260118_010313_AQUA_rec.log

#Pass ID: 20260118_010313_AQUA
#Satellite: AQUA
#Configuration: AQUA
#almurnet v.1.7.20251203
#Start time: 2026-01-18 01:03:13

#Version: 2.0.20230620
#Station: T1
#Location: 37.570604 lon 55.790049 lat
#TLE: 1 27424U 02022A   26017.29152041  .00000842  00000+0  17841-3 0  9992
#TLE: 2 27424  98.4085 343.7574 0002011  75.4099  30.6811 14.61825797261228

#Time	Az	El	Level	Level2	SNR	BER	BlckErr	Temp	State	Recorded	gain1	gain2
2026-01-18 01:03:13.62	18.76	5.01	-47.0	-71.1	3.8	7.46e-01	0	41	0	0	66	55031
2026-01-18 01:03:14.61	18.79	5.08	-47.0	-70.8	3.8	7.44e-01	0	41	104	0	64	59477
2026-01-18 01:03:15.61	18.81	5.15	-47.1	-70.7	3.8	7.48e-01	0	41	104	0	64	58749
2026-01-18 01:03:16.61	18.84	5.23	-47.0	-70.6	3.8	7.46e-01	0	41	104	0	64	58275
2026-01-18 01:03:17.60	18.86	5.30	-47.1	-70.5	3.8	7.47e-01	0	41	104	0	64	57855
2026-01-18 01:03:18.60	18.89	5.38	-47.1	-70.5	3.8	7.47e-01	0	41	104	0	64	57505
2026-01-18 01:03:19.60	18.92	5.45	-47.0	-70.2	3.8	7.44e-01	0	41	104	0	64	55745
2026-01-18 01:03:20.60	18.94	5.53	-47.1	-70.3	3.8	7.45e-01	0	41	104	0	64	56122
2026-01-18 01:03:21.60	18.97	5.60	-47.0	-70.3	3.8	7.43e-01	0	41	104	0	64	56068
2026-01-18 01:03:22.60	18.99	5.68	-47.1	-70.3	3.8	7.47e-01	0	41	104	0	64	56250
2026-01-18 01:03:23.59	19.02	5.75	-47.0	-70.2	3.8	7.49e-01	0	41	104	0	64	55882
2026-01-18 01:03:24.59	19.05	5.83	-47.0	-70.5	3.8	7.42e-01	0	41	104	0	64	57568
2026-01-18 01:03:25.59	19.07	5.91	-47.0	-70.6	3.8	7.45e-01	0	41	104	0	64	57969
2026-01-18 01:03:26.59	19.10	5.98	-47.0	-70.7	3.8	7.46e-01	0	41	104	0	64	58672
2026-01-18 01:03:27.59	19.13	6.06	-47.0	-70.8	3.8	7.46e-01	0	41	104	0	64	59331
2026-01-18 01:03:28.58	19.16	6.14	-47.0	-70.9	3.8	7.48e-01	0	41	104	0	64	60140
2026-01-18 01:03:29.58	19.18	6.21	-47.0	-71.0	3.8	7.49e-01	0	41	104	0	64	60898
2026-01-18 01:03:30.58	19.21	6.29	-47.0	-71.1	3.8	7.48e-01	0	42	104	0	64	61655
2026-01-18 01:03:31.58	19.24	6.37	-47.0	-71.1	3.8	7.45e-01	0	42	104	0	64	61715
2026-01-18 01:03:32.57	19.27	6.45	-47.0	-71.0	3.8	7.43e-01	0	41	104	0	64	60968
2026-01-18 01:03:33.57	19.29	6.53	-47.0	-70.8	3.8	7.44e-01	0	42	104	0	64	59490
2026-01-18 01:03:34.57	19.32	6.60	-47.0	-70.4	3.8	7.47e-01	0	42	104	0	64	57131
2026-01-18 01:03:35.56	19.35	6.68	-47.0	-69.9	3.8	7.42e-01	0	42	104	0	64	53914
2026-01-18 01:03:36.56	19.38	6.76	-47.0	-69.4	3.8	7.47e-01	0	42	104	0	64	50563
2026-01-18 01:03:37.56	19.41	6.84	-47.0	-68.8	4.0	7.47e-01	0	41	104	0	64	47442
2026-01-18 01:03:38.55	19.43	6.92	-47.0	-67.7	4.2	7.35e-01	0	42	104	0	64	41579
2026-01-18 01:03:39.55	19.46	7.00	-47.0	-67.3	4.2	7.40e-01	0	42	104	0	64	39973
2026-01-18 01:03:40.54	19.49	7.08	-47.0	-66.3	4.7	7.22e-01	0	42	104	0	64	35621
2026-01-18 01:03:41.54	19.52	7.16	-46.9	-65.7	4.9	7.11e-01	0	42	0	0	64	33083
2026-01-18 01:03:42.54	19.55	7.24	-46.9	-65.2	5.2	7.03e-01	0	42	0	0	64	31186
2026-01-18 01:03:43.54	19.58	7.32	-47.0	-64.7	5.5	6.94e-01	0	42	0	0	64	29536
2026-01-18 01:03:44.54	19.61	7.40	-46.9	-64.2	5.9	6.85e-01	0	42	0	1048576	64	27763
2026-01-18 01:03:45.54	19.64	7.49	-46.9	-63.7	6.2	6.80e-01	0	42	0	3145728	64	26418
2026-01-18 01:03:46.54	19.67	7.57	-46.9	-63.7	6.3	6.75e-01	0	42	0	4718592	64	26234
2026-01-18 01:03:47.53	19.70	7.65	-46.9	-63.7	6.2	6.80e-01	0	42	0	6815744	64	26378
2026-01-18 01:03:48.53	19.73	7.73	-46.9	-63.5	6.4	6.73e-01	0	42	0	8388608	64	25709
2026-01-18 01:03:49.53	19.76	7.82	-46.9	-63.4	6.5	6.75e-01	0	42	0	10485760	64	25548
2026-01-18 01:03:50.53	19.79	7.90	-46.9	-63.4	6.5	6.75e-01	0	42	0	12058624	64	25449
2026-01-18 01:03:51.53	19.82	7.98	-46.9	-63.1	6.8	6.65e-01	0	42	0	14155776	64	24521
2026-01-18 01:03:52.53	19.85	8.07	-46.9	-62.9	7.0	6.67e-01	0	42	0	15728640	64	24014
2026-01-18 01:03:53.52	19.88	8.15	-46.9	-62.5	7.4	6.55e-01	0	42	0	17825792	64	22831
2026-01-18 01:03:54.52	19.91	8.23	-46.8	-61.7	8.1	6.44e-01	0	42	0	19398656	64	20900
2026-01-18 01:03:55.52	19.94	8.32	-46.8	-60.8	9.0	6.31e-01	0	42	0	21495808	64	18740
2026-01-18 01:03:56.52	19.97	8.40	-46.7	-59.8	10.0	6.20e-01	0	42	0	23592960	64	16830
2026-01-18 01:03:57.51	20.01	8.49	-46.6	-58.5	11.3	6.13e-01	0	42	0	25165824	64	14536
2026-01-18 01:03:58.51	20.04	8.57	-46.5	-57.3	12.6	6.06e-01	0	42	0	27262976	64	12541
2026-01-18 01:03:59.51	20.07	8.66	-46.3	-56.2	13.7	6.04e-01	0	42	0	28835840	64	11141
2026-01-18 01:04:00.51	20.10	8.75	-46.1	-55.1	14.9	6.03e-01	0	42	0	30932992	64	9725
2026-01-18 01:04:01.50	20.13	8.83	-46.0	-54.1	15.9	6.02e-01	0	42	0	32505856	63	9276
2026-01-18 01:04:02.50	20.17	8.92	-45.9	-53.6	16.5	6.02e-01	0	42	0	34603008	63	8666
2026-01-18 01:04:03.49	20.20	9.01	-45.7	-53.0	17.1	6.00e-01	0	43	0	36700160	63	8090
2026-01-18 01:04:04.49	20.23	9.09	-45.2	-51.6	18.2	6.01e-01	0	42	0	38273024	62	7358
2026-01-18 01:04:05.49	20.26	9.18	-45.6	-52.9	17.5	6.01e-01	0	42	0	40370176	61	8985
2026-01-18 01:04:06.49	20.30	9.27	-45.9	-53.6	16.3	6.02e-01	0	42	0	41943040	63	8732
2026-01-18 01:04:07.48	20.33	9.36	-46.6	-57.2	13.1	6.06e-01	0	43	0	44040192	63	13128
2026-01-18 01:04:08.48	20.36	9.45	-45.9	-53.7	15.2	6.00e-01	0	42	0	45613056	63	8778
2026-01-18 01:04:09.48	20.40	9.54	-43.9	-48.1	21.9	6.00e-01	0	42	0	47710208	59	5792
2026-01-18 01:04:10.47	20.43	9.63	-43.9	-47.9	22.0	6.01e-01	0	42	0	49807360	59	5716
2026-01-18 01:04:11.47	20.47	9.72	-44.0	-47.8	22.2	6.01e-01	0	42	0	51380224	59	5603
2026-01-18 01:04:12.47	20.50	9.81	-43.9	-47.6	22.3	6.01e-01	0	43	0	53477376	59	5484
2026-01-18 01:04:13.47	20.54	9.90	-43.9	-47.6	22.3	6.02e-01	0	43	0	55050240	59	5487
2026-01-18 01:04:14.47	20.57	9.99	-43.9	-47.6	22.4	6.00e-01	0	42	0	57147392	59	5480
2026-01-18 01:04:15.46	20.60	10.08	-43.9	-47.7	22.3	6.02e-01	0	43	0	58720256	59	5538
2026-01-18 01:04:16.46	20.64	10.17	-43.8	-47.5	22.4	6.02e-01	0	42	0	60817408	59	5443
2026-01-18 01:04:17.46	20.68	10.26	-43.7	-47.4	22.5	6.02e-01	0	43	0	62390272	59	5379
2026-01-18 01:04:18.45	20.71	10.36	-43.7	-47.5	22.4	6.03e-01	0	43	0	64487424	59	5457
2026-01-18 01:04:19.45	20.75	10.45	-43.5	-47.3	22.6	6.01e-01	0	43	0	66584576	59	5335
2026-01-18 01:04:20.45	20.78	10.54	-43.5	-47.5	22.5	5.99e-01	0	43	0	68157440	59	5412
2026-01-18 01:04:21.45	20.82	10.64	-43.4	-47.4	22.6	6.03e-01	0	43	0	70254592	58	5666
2026-01-18 01:04:22.45	20.86	10.73	-43.3	-47.1	22.9	6.01e-01	0	43	0	71827456	58	5502
2026-01-18 01:04:23.45	20.89	10.82	-43.4	-47.1	22.8	6.01e-01	0	43	0	73924608	58	5517
2026-01-18 01:04:24.45	20.93	10.92	-43.4	-47.1	22.8	6.01e-01	0	43	0	75497472	58	5502
2026-01-18 01:04:25.45	20.97	11.02	-43.5	-47.1	22.8	5.99e-01	0	43	0	77594624	58	5525
2026-01-18 01:04:26.44	21.00	11.11	-43.6	-47.1	22.8	6.03e-01	0	43	0	79691776	58	5503
2026-01-18 01:04:27.44	21.04	11.21	-43.7	-47.0	22.9	6.04e-01	0	43	0	81264640	58	5440
2026-01-18 01:04:28.43	21.08	11.30	-43.7	-47.0	23.0	6.01e-01	0	43	0	83361792	58	5448
2026-01-18 01:04:29.43	21.12	11.40	-43.6	-46.7	23.2	6.00e-01	0	43	0	84934656	58	5265
2026-01-18 01:04:30.43	21.16	11.50	-43.7	-46.8	23.1	6.02e-01	0	43	0	87031808	58	5322
2026-01-18 01:04:31.42	21.19	11.59	-43.7	-46.8	23.1	6.02e-01	0	43	0	89128960	58	5323
2026-01-18 01:04:32.42	21.23	11.69	-43.7	-46.9	23.1	6.01e-01	0	43	0	90701824	58	5349
2026-01-18 01:04:33.42	21.27	11.79	-43.8	-46.9	23.1	6.01e-01	0	43	0	92274688	58	5382
2026-01-18 01:04:34.42	21.31	11.89	-43.6	-46.7	23.2	6.02e-01	0	43	0	94371840	58	5261
2026-01-18 01:04:35.41	21.35	11.99	-43.7	-46.8	23.1	6.02e-01	0	43	0	96468992	58	5329
2026-01-18 01:04:36.41	21.39	12.09	-43.7	-46.8	23.2	6.02e-01	0	43	0	98041856	58	5283
2026-01-18 01:04:37.40	21.43	12.19	-43.8	-46.9	23.1	6.05e-01	0	43	0	100139008	58	5356
2026-01-18 01:04:38.40	21.47	12.29	-43.9	-47.0	23.0	6.01e-01	0	43	0	101711872	58	5445
2026-01-18 01:04:39.40	21.51	12.39	-44.0	-47.1	23.0	6.01e-01	0	43	0	103809024	58	5465
2026-01-18 01:04:40.39	21.55	12.49	-44.1	-47.1	22.8	6.02e-01	0	43	0	105906176	58	5472
2026-01-18 01:04:41.39	21.59	12.59	-44.1	-47.0	23.0	6.03e-01	0	43	0	107479040	59	5132
2026-01-18 01:04:42.38	21.63	12.70	-44.2	-47.1	23.0	6.02e-01	0	43	0	109576192	59	5171
2026-01-18 01:04:43.38	21.68	12.80	-44.2	-47.1	22.9	6.03e-01	0	43	0	111149056	59	5208
2026-01-18 01:04:44.38	21.72	12.90	-44.0	-46.9	23.1	6.00e-01	0	43	0	113246208	59	5047
2026-01-18 01:04:45.38	21.76	13.01	-44.0	-46.8	23.2	6.02e-01	0	43	0	114819072	59	5028
2026-01-18 01:04:46.37	21.80	13.11	-44.0	-46.9	23.1	6.04e-01	0	43	0	116916224	59	5042
2026-01-18 01:04:47.37	21.85	13.22	-44.1	-46.8	23.2	6.03e-01	0	43	0	119013376	59	5038
2026-01-18 01:04:48.37	21.89	13.32	-44.1	-46.9	23.2	6.02e-01	0	43	0	120586240	59	5042
2026-01-18 01:04:49.37	21.93	13.43	-44.0	-46.6	23.3	6.00e-01	0	43	0	122683392	59	4926
2026-01-18 01:04:50.37	21.98	13.54	-44.0	-46.6	23.3	6.00e-01	0	43	0	124256256	59	4921
2026-01-18 01:04:51.37	22.02	13.64	-43.9	-46.6	23.4	6.01e-01	0	43	0	126353408	59	4898
2026-01-18 01:04:52.37	22.07	13.75	-44.0	-46.6	23.4	6.03e-01	0	43	0	127926272	59	4889
2026-01-18 01:04:53.37	22.11	13.86	-43.9	-46.5	23.3	6.02e-01	0	43	0	130023424	59	4864
2026-01-18 01:04:54.36	22.15	13.97	-43.9	-46.5	23.5	6.03e-01	0	43	0	131596288	59	4835
2026-01-18 01:04:55.36	22.20	14.08	-43.9	-46.5	23.5	6.03e-01	0	43	0	133693440	59	4818
2026-01-18 01:04:56.36	22.25	14.19	-43.9	-46.4	23.6	6.00e-01	0	43	0	135790592	59	4785
2026-01-18 01:04:57.36	22.29	14.30	-44.0	-46.5	23.5	5.98e-01	0	43	0	137363456	59	4846
2026-01-18 01:04:58.36	22.34	14.41	-43.8	-46.4	23.6	6.00e-01	0	43	0	139460608	59	4796
2026-01-18 01:04:59.36	22.39	14.52	-43.9	-46.5	23.5	6.03e-01	0	43	0	141033472	59	4828
2026-01-18 01:05:00.35	22.43	14.63	-43.9	-46.5	23.5	6.01e-01	0	43	0	143130624	59	4860
2026-01-18 01:05:01.35	22.48	14.74	-43.9	-46.6	23.4	6.00e-01	0	43	0	144703488	59	4892
2026-01-18 01:05:02.35	22.53	14.86	-44.0	-46.7	23.3	6.01e-01	0	43	0	146800640	59	4968
2026-01-18 01:05:03.35	22.58	14.97	-43.9	-46.7	23.4	6.03e-01	0	43	0	148897792	59	4949
2026-01-18 01:05:04.35	22.62	15.09	-44.0	-46.8	23.3	6.02e-01	0	43	0	150470656	59	5006
2026-01-18 01:05:05.34	22.67	15.20	-43.9	-46.7	23.3	6.02e-01	0	43	0	152567808	59	4944
2026-01-18 01:05:06.34	22.72	15.32	-44.0	-46.7	23.3	6.03e-01	0	43	0	154140672	59	4976
2026-01-18 01:05:07.34	22.77	15.43	-43.9	-46.7	23.4	6.02e-01	0	43	0	156237824	59	4941
2026-01-18 01:05:08.34	22.82	15.55	-43.8	-46.6	23.4	6.04e-01	0	43	0	157810688	59	4888
2026-01-18 01:05:09.34	22.87	15.67	-43.7	-46.4	23.5	6.01e-01	0	43	0	159907840	59	4812
2026-01-18 01:05:10.33	22.92	15.78	-43.7	-46.5	23.5	6.00e-01	0	43	0	162004992	59	4844
2026-01-18 01:05:11.33	22.97	15.90	-43.7	-46.4	23.6	6.01e-01	0	43	0	163577856	59	4784
2026-01-18 01:05:12.33	23.03	16.02	-43.8	-46.5	23.6	6.02e-01	0	43	0	165675008	59	4846
2026-01-18 01:05:13.32	23.08	16.14	-43.6	-46.4	23.6	5.99e-01	0	43	0	167247872	59	4760
2026-01-18 01:05:14.32	23.13	16.26	-43.6	-46.4	23.6	6.02e-01	0	43	0	169345024	59	4766
2026-01-18 01:05:15.32	23.18	16.38	-43.6	-46.4	23.6	6.03e-01	0	43	0	171442176	59	4783
2026-01-18 01:05:16.32	23.24	16.50	-43.7	-46.5	23.5	5.98e-01	0	43	0	173015040	59	4821
2026-01-18 01:05:17.32	23.29	16.63	-43.8	-46.6	23.4	6.02e-01	0	43	0	174587904	59	4872
2026-01-18 01:05:18.31	23.34	16.75	-43.8	-46.6	23.4	6.00e-01	0	43	0	176685056	59	4903
2026-01-18 01:05:19.31	23.40	16.87	-43.7	-46.5	23.5	6.04e-01	0	43	0	178782208	59	4841
2026-01-18 01:05:20.31	23.45	17.00	-43.7	-46.4	23.6	6.03e-01	0	43	0	180355072	59	4812
2026-01-18 01:05:21.30	23.51	17.12	-43.7	-46.4	23.6	6.01e-01	0	43	0	182452224	59	4766
2026-01-18 01:05:22.30	23.56	17.25	-43.8	-46.5	23.5	6.00e-01	0	43	0	184025088	59	4824
2026-01-18 01:05:23.30	23.62	17.37	-43.7	-46.4	23.6	5.99e-01	0	43	0	186122240	59	4783
2026-01-18 01:05:24.30	23.68	17.50	-43.7	-46.4	23.6	6.03e-01	0	43	0	188219392	59	4780
2026-01-18 01:05:25.29	23.73	17.63	-43.8	-46.4	23.5	6.00e-01	0	43	0	189792256	59	4784
2026-01-18 01:05:26.29	23.79	17.75	-43.8	-46.4	23.6	6.02e-01	0	43	0	191889408	59	4793
2026-01-18 01:05:27.29	23.85	17.88	-43.8	-46.4	23.7	6.01e-01	0	43	0	193462272	59	4773
2026-01-18 01:05:28.29	23.91	18.01	-43.8	-46.4	23.7	6.01e-01	0	43	0	195559424	59	4764
2026-01-18 01:05:29.28	23.97	18.14	-43.7	-46.3	23.5	6.03e-01	0	43	0	197132288	59	4751
2026-01-18 01:05:30.28	24.03	18.28	-43.7	-46.3	23.7	6.03e-01	0	43	0	199229440	59	4740
2026-01-18 01:05:31.28	24.09	18.41	-43.7	-46.3	23.8	6.03e-01	0	43	0	201326592	59	4730
2026-01-18 01:05:32.27	24.15	18.54	-43.5	-46.1	23.9	6.04e-01	0	43	0	202899456	59	4609
2026-01-18 01:05:33.27	24.21	18.67	-43.5	-46.1	23.8	6.01e-01	0	43	0	204996608	58	4926
2026-01-18 01:05:34.27	24.27	18.81	-43.6	-46.2	23.8	6.02e-01	0	43	0	206569472	58	4956
2026-01-18 01:05:35.27	24.33	18.94	-43.5	-46.2	23.9	6.01e-01	0	43	0	208666624	58	4931
2026-01-18 01:05:36.27	24.39	19.08	-43.5	-46.3	23.8	6.04e-01	0	43	0	210239488	58	4987
2026-01-18 01:05:37.26	24.46	19.22	-43.5	-46.3	23.8	6.02e-01	0	43	0	212336640	58	5001
2026-01-18 01:05:38.26	24.52	19.35	-43.5	-46.3	23.8	6.04e-01	0	43	0	213909504	58	5007
2026-01-18 01:05:39.26	24.59	19.49	-43.5	-46.4	23.7	6.03e-01	0	43	0	216006656	58	5054
2026-01-18 01:05:40.26	24.65	19.63	-43.5	-46.3	23.7	6.01e-01	0	43	0	218103808	58	5029
2026-01-18 01:05:41.25	24.72	19.77	-43.5	-46.4	23.7	6.01e-01	0	43	0	219676672	58	5053
2026-01-18 01:05:42.25	24.78	19.91	-43.6	-46.4	23.5	6.02e-01	0	43	0	221773824	58	5087
2026-01-18 01:05:43.25	24.85	20.05	-43.4	-46.2	23.8	6.00e-01	0	43	0	223346688	58	4959
2026-01-18 01:05:44.25	24.92	20.20	-43.4	-46.2	23.9	6.03e-01	0	43	0	225443840	58	4930
2026-01-18 01:05:45.25	24.99	20.34	-43.3	-46.1	23.9	6.01e-01	0	43	0	227016704	58	4881
2026-01-18 01:05:46.25	25.05	20.49	-43.3	-46.1	23.9	5.99e-01	0	43	0	229113856	58	4885
2026-01-18 01:05:47.25	25.12	20.63	-43.2	-45.9	24.1	6.04e-01	0	43	0	231211008	58	4796
2026-01-18 01:05:48.25	25.19	20.78	-43.2	-46.0	24.0	6.02e-01	0	43	0	232783872	58	4834
2026-01-18 01:05:49.24	25.26	20.92	-43.3	-46.1	23.9	6.04e-01	0	43	0	234881024	58	4888
2026-01-18 01:05:50.24	25.34	21.07	-43.3	-46.2	23.9	6.00e-01	0	43	0	236453888	58	4958
2026-01-18 01:05:51.24	25.41	21.22	-43.4	-46.3	23.7	6.01e-01	0	43	0	238551040	58	5037
2026-01-18 01:05:52.24	25.48	21.37	-43.4	-46.5	23.6	6.03e-01	0	43	0	240123904	58	5104
2026-01-18 01:05:53.24	25.56	21.52	-43.5	-46.5	23.6	6.02e-01	0	43	0	242221056	58	5147
2026-01-18 01:05:54.23	25.63	21.67	-43.5	-46.5	23.5	6.01e-01	0	43	0	244318208	58	5158
2026-01-18 01:05:55.23	25.70	21.82	-43.5	-46.5	23.6	6.02e-01	0	43	0	245891072	58	5107
2026-01-18 01:05:56.23	25.78	21.98	-43.6	-46.5	23.6	6.04e-01	0	43	0	247988224	58	5106
2026-01-18 01:05:57.23	25.86	22.13	-43.6	-46.5	23.6	6.03e-01	0	43	0	249561088	58	5109
2026-01-18 01:05:58.23	25.93	22.29	-43.6	-46.4	23.6	6.01e-01	0	43	0	251658240	58	5088
2026-01-18 01:05:59.23	26.01	22.45	-43.6	-46.4	23.6	6.02e-01	0	43	0	253755392	58	5092
2026-01-18 01:06:00.22	26.09	22.60	-43.5	-46.4	23.7	6.04e-01	0	43	0	255328256	58	5050
2026-01-18 01:06:01.22	26.17	22.76	-43.6	-46.5	23.5	6.01e-01	0	43	0	257425408	58	5147
2026-01-18 01:06:02.22	26.25	22.92	-43.6	-46.5	23.6	6.03e-01	0	43	0	258998272	58	5147
2026-01-18 01:06:03.22	26.33	23.08	-43.7	-46.5	23.6	6.02e-01	0	43	0	261095424	58	5157
2026-01-18 01:06:04.21	26.41	23.24	-43.7	-46.5	23.6	6.03e-01	0	43	0	262668288	58	5154
2026-01-18 01:06:05.21	26.50	23.41	-43.8	-46.6	23.5	6.00e-01	0	43	0	264765440	58	5166
2026-01-18 01:06:06.21	26.58	23.57	-43.9	-46.7	23.4	6.01e-01	0	43	0	266338304	58	5247
2026-01-18 01:06:07.20	26.66	23.73	-44.0	-46.7	23.4	6.03e-01	0	43	0	268435456	58	5266
2026-01-18 01:06:08.20	26.75	23.90	-43.8	-46.5	23.6	6.03e-01	0	43	0	270532608	58	5113
2026-01-18 01:06:09.19	26.84	24.07	-43.9	-46.5	23.6	6.00e-01	0	43	0	272105472	58	5149
2026-01-18 01:06:10.19	26.92	24.23	-43.9	-46.5	23.7	6.00e-01	0	43	0	274202624	58	5121
2026-01-18 01:06:11.19	27.01	24.40	-43.9	-46.4	23.6	6.04e-01	0	43	0	275775488	58	5094
2026-01-18 01:06:12.19	27.10	24.57	-43.8	-46.3	23.8	6.02e-01	0	43	0	277872640	58	5020
2026-01-18 01:06:13.19	27.19	24.75	-43.9	-46.4	23.7	6.02e-01	0	43	0	279445504	58	5091
2026-01-18 01:06:14.18	27.28	24.92	-44.1	-46.6	23.6	6.02e-01	0	43	0	281542656	58	5178
2026-01-18 01:06:15.18	27.37	25.09	-44.2	-46.8	23.4	6.03e-01	0	43	0	283639808	59	4988
2026-01-18 01:06:16.18	27.47	25.27	-44.2	-46.8	23.3	6.01e-01	0	43	0	285212672	59	5038
2026-01-18 01:06:17.18	27.56	25.44	-44.1	-46.8	23.4	6.00e-01	0	43	0	287309824	59	4999
2026-01-18 01:06:18.18	27.66	25.62	-44.0	-46.6	23.6	6.02e-01	0	43	0	288882688	59	4875
2026-01-18 01:06:19.18	27.75	25.80	-43.9	-46.5	23.6	6.01e-01	0	43	0	290979840	59	4855
2026-01-18 01:06:20.17	27.85	25.98	-43.9	-46.4	23.7	6.06e-01	0	43	0	292552704	59	4791
2026-01-18 01:06:21.17	27.95	26.16	-43.9	-46.4	23.7	6.03e-01	0	43	0	294649856	59	4788
2026-01-18 01:06:22.17	28.05	26.34	-43.9	-46.4	23.7	6.02e-01	0	43	0	296222720	59	4791
2026-01-18 01:06:23.16	28.15	26.53	-44.0	-46.5	23.7	6.05e-01	0	43	0	298319872	59	4840
2026-01-18 01:06:24.16	28.25	26.71	-44.1	-46.7	23.5	5.99e-01	0	43	0	300417024	59	4931
2026-01-18 01:06:25.16	28.35	26.90	-44.0	-46.5	23.6	6.04e-01	0	43	0	301989888	59	4846
2026-01-18 01:06:26.16	28.46	27.09	-43.9	-46.5	23.6	6.02e-01	0	43	0	304087040	59	4836
2026-01-18 01:06:27.15	28.56	27.27	-43.8	-46.3	23.8	6.02e-01	0	43	0	305659904	59	4726
2026-01-18 01:06:28.14	28.67	27.46	-43.6	-46.1	23.9	6.02e-01	0	43	0	307757056	59	4650
2026-01-18 01:06:29.14	28.78	27.65	-43.5	-46.1	23.9	6.01e-01	0	43	0	309329920	59	4633
2026-01-18 01:06:30.14	28.89	27.85	-43.5	-46.1	24.0	6.02e-01	0	43	0	311427072	59	4603
2026-01-18 01:06:31.14	29.00	28.04	-43.4	-46.0	24.1	6.04e-01	0	43	0	313524224	58	4836
2026-01-18 01:06:32.14	29.11	28.24	-43.5	-46.1	23.9	6.01e-01	0	43	0	315097088	58	4921
2026-01-18 01:06:33.13	29.22	28.43	-43.6	-46.2	23.9	6.01e-01	0	43	0	317194240	58	4961
2026-01-18 01:06:34.13	29.34	28.63	-43.7	-46.3	23.8	6.01e-01	0	43	0	318767104	58	5002
2026-01-18 01:06:35.13	29.46	28.83	-43.7	-46.2	23.9	6.02e-01	0	43	0	320864256	58	4945
2026-01-18 01:06:36.13	29.57	29.03	-43.6	-46.1	23.9	5.98e-01	0	43	0	322437120	58	4922
2026-01-18 01:06:37.13	29.69	29.24	-43.6	-46.0	24.0	6.02e-01	0	43	0	324534272	58	4865
2026-01-18 01:06:38.12	29.81	29.44	-43.5	-46.0	24.1	6.01e-01	0	43	0	326631424	58	4830
2026-01-18 01:06:39.12	29.94	29.65	-43.5	-46.0	24.1	6.00e-01	0	43	0	328204288	58	4816
2026-01-18 01:06:40.12	30.06	29.85	-43.4	-45.9	24.1	6.00e-01	0	43	0	330301440	58	4809
2026-01-18 01:06:41.12	30.19	30.06	-43.6	-46.1	24.0	6.02e-01	0	43	0	331874304	58	4916
2026-01-18 01:06:42.11	30.31	30.27	-43.5	-46.1	24.0	6.01e-01	0	43	0	333971456	58	4882
2026-01-18 01:06:43.11	30.44	30.48	-43.5	-46.0	24.0	6.02e-01	0	43	0	335544320	58	4832
2026-01-18 01:06:44.11	30.57	30.70	-43.5	-46.0	24.0	6.02e-01	0	43	0	337641472	58	4856
2026-01-18 01:06:45.10	30.71	30.91	-43.6	-46.1	24.0	6.03e-01	0	43	0	339738624	58	4889
2026-01-18 01:06:46.10	30.84	31.13	-43.5	-46.0	23.9	6.02e-01	0	43	0	341311488	58	4844
2026-01-18 01:06:47.10	30.98	31.34	-43.8	-46.3	23.8	5.99e-01	0	43	0	343408640	58	5011
2026-01-18 01:06:48.10	31.11	31.56	-43.7	-46.3	23.9	6.03e-01	0	43	0	344981504	58	4996
2026-01-18 01:06:49.10	31.25	31.79	-43.7	-46.2	23.9	6.03e-01	0	43	0	347078656	58	4973
2026-01-18 01:06:50.10	31.40	32.01	-43.6	-46.1	24.0	6.01e-01	0	43	0	348651520	58	4916
2026-01-18 01:06:51.09	31.54	32.23	-43.7	-46.1	24.0	6.02e-01	0	43	0	350748672	58	4919
2026-01-18 01:06:52.09	31.68	32.46	-43.8	-46.2	23.9	6.02e-01	0	43	0	352845824	58	4977
2026-01-18 01:06:53.09	31.83	32.69	-43.9	-46.4	23.8	5.98e-01	0	43	0	354418688	58	5045
2026-01-18 01:06:54.08	31.98	32.91	-43.8	-46.3	23.9	6.01e-01	0	43	0	356515840	58	5019
2026-01-18 01:06:55.07	32.13	33.14	-43.8	-46.4	23.8	6.04e-01	0	43	0	358088704	58	5052
2026-01-18 01:06:56.07	32.29	33.37	-44.0	-46.6	23.7	6.02e-01	0	43	0	360185856	58	5163
2026-01-18 01:06:57.07	32.44	33.61	-44.0	-46.7	23.5	6.04e-01	0	43	0	361758720	58	5225
2026-01-18 01:06:58.07	32.60	33.85	-43.8	-46.6	23.6	6.02e-01	0	43	0	363855872	58	5202
2026-01-18 01:06:59.07	32.76	34.08	-44.0	-46.8	23.4	6.04e-01	0	43	0	365953024	58	5291
2026-01-18 01:07:00.07	32.93	34.32	-44.0	-46.7	23.6	6.00e-01	0	43	0	367525888	58	5223
2026-01-18 01:07:01.06	33.09	34.56	-44.1	-46.8	23.4	6.04e-01	0	43	0	369623040	58	5284
2026-01-18 01:07:02.06	33.26	34.81	-44.2	-46.9	23.3	6.00e-01	0	43	0	371195904	58	5388
2026-01-18 01:07:03.06	33.43	35.05	-44.3	-47.2	23.1	6.02e-01	0	43	0	373293056	59	5273
2026-01-18 01:07:04.06	33.60	35.30	-44.4	-47.4	23.0	6.02e-01	0	43	0	374865920	59	5345
2026-01-18 01:07:05.06	33.78	35.55	-44.1	-47.1	23.2	5.98e-01	0	43	0	376963072	59	5198
2026-01-18 01:07:06.05	33.96	35.80	-44.1	-47.2	23.1	6.01e-01	0	43	0	378535936	59	5221
2026-01-18 01:07:07.05	34.14	36.05	-44.4	-47.5	22.9	6.02e-01	0	43	0	380633088	59	5423
2026-01-18 01:07:08.05	34.32	36.30	-44.5	-47.6	22.7	6.03e-01	0	43	0	382730240	60	5161
2026-01-18 01:07:09.05	34.51	36.56	-44.5	-47.5	22.7	6.03e-01	0	43	0	384303104	60	5130
2026-01-18 01:07:10.05	34.70	36.82	-44.5	-47.5	22.7	6.01e-01	0	43	0	386400256	60	5151
2026-01-18 01:07:11.05	34.90	37.07	-44.6	-47.6	22.7	6.02e-01	0	43	0	387973120	60	5166
2026-01-18 01:07:12.04	35.09	37.33	-44.8	-47.8	22.5	6.01e-01	0	43	0	390070272	60	5288
2026-01-18 01:07:13.04	35.29	37.60	-44.9	-47.8	22.4	6.00e-01	0	43	0	391643136	60	5327
2026-01-18 01:07:14.04	35.49	37.86	-44.8	-47.9	22.4	6.04e-01	0	44	0	393740288	60	5346
2026-01-18 01:07:15.03	35.70	38.13	-44.8	-48.0	22.3	6.03e-01	0	43	0	395837440	60	5430
2026-01-18 01:07:16.03	35.91	38.39	-44.8	-47.9	22.4	6.01e-01	0	43	0	397410304	60	5396
2026-01-18 01:07:17.03	36.12	38.67	-44.9	-48.0	22.2	6.03e-01	0	43	0	399507456	60	5457
2026-01-18 01:07:18.02	36.34	38.93	-44.8	-47.8	22.5	6.01e-01	0	43	0	401080320	60	5327
2026-01-18 01:07:19.02	36.56	39.21	-44.8	-47.7	22.6	6.01e-01	0	43	0	403177472	60	5257
2026-01-18 01:07:20.02	36.78	39.49	-44.9	-47.7	22.6	6.03e-01	0	43	0	404750336	60	5252
2026-01-18 01:07:21.01	37.01	39.76	-44.9	-47.6	22.6	6.02e-01	0	43	0	406847488	60	5218
2026-01-18 01:07:22.01	37.24	40.04	-44.9	-47.6	22.6	6.03e-01	0	43	0	408420352	60	5189
2026-01-18 01:07:23.01	37.48	40.32	-45.0	-47.6	22.6	6.01e-01	0	44	0	410517504	60	5216
2026-01-18 01:07:24.01	37.72	40.61	-44.8	-47.4	22.8	6.02e-01	0	44	0	412614656	60	5067
2026-01-18 01:07:25.01	37.96	40.89	-44.6	-47.2	23.0	6.00e-01	0	43	0	414187520	60	4947
2026-01-18 01:07:26.01	38.21	41.18	-44.3	-46.9	23.3	6.02e-01	0	43	0	416284672	60	4792
2026-01-18 01:07:27.00	38.46	41.47	-44.2	-46.8	23.3	6.03e-01	0	43	0	417857536	60	4749
2026-01-18 01:07:28.00	38.72	41.76	-44.1	-46.7	23.5	6.02e-01	0	43	0	419954688	60	4661
2026-01-18 01:07:29.00	38.98	42.05	-44.0	-46.5	23.7	6.03e-01	0	43	0	421527552	59	4861
2026-01-18 01:07:29.99	39.25	42.34	-43.9	-46.3	23.8	6.02e-01	0	43	0	423624704	59	4758
2026-01-18 01:07:30.99	39.52	42.64	-44.0	-46.4	23.8	6.04e-01	0	43	0	425721856	59	4805
2026-01-18 01:07:31.99	39.80	42.94	-43.9	-46.3	23.9	6.04e-01	0	43	0	427294720	59	4752
2026-01-18 01:07:32.98	40.08	43.23	-43.9	-46.4	23.8	6.02e-01	0	43	0	429391872	59	4809
2026-01-18 01:07:33.98	40.37	43.53	-43.8	-46.2	23.8	6.01e-01	0	43	0	430964736	59	4691
2026-01-18 01:07:34.97	40.66	43.83	-43.7	-46.1	24.0	6.03e-01	0	43	0	433061888	59	4643
2026-01-18 01:07:35.97	40.96	44.14	-43.7	-46.2	24.0	6.01e-01	0	43	0	435159040	59	4665
2026-01-18 01:07:36.97	41.26	44.45	-43.6	-46.0	24.1	6.00e-01	0	43	0	436731904	59	4564
2026-01-18 01:07:37.97	41.58	44.75	-43.3	-45.7	24.4	6.05e-01	0	43	0	438829056	58	4673
2026-01-18 01:07:38.96	41.89	45.06	-43.4	-45.8	24.3	6.01e-01	0	43	0	440401920	58	4716
2026-01-18 01:07:39.96	42.21	45.37	-43.2	-45.5	24.5	6.01e-01	0	43	0	442499072	58	4579
2026-01-18 01:07:40.96	42.54	45.69	-43.3	-45.6	24.5	6.03e-01	0	43	0	444071936	58	4634
2026-01-18 01:07:41.96	42.88	46.00	-43.2	-45.6	24.5	6.03e-01	0	43	0	446169088	58	4606
2026-01-18 01:07:42.95	43.22	46.31	-43.2	-45.6	24.5	6.02e-01	0	43	0	447741952	58	4614
2026-01-18 01:07:43.95	43.57	46.63	-43.2	-45.7	24.4	6.02e-01	0	43	0	449839104	58	4652
2026-01-18 01:07:44.94	43.93	46.95	-43.0	-45.4	24.6	6.02e-01	0	43	0	451936256	58	4513
2026-01-18 01:07:45.94	44.29	47.27	-43.2	-45.6	24.5	6.03e-01	0	43	0	453509120	58	4610
2026-01-18 01:07:46.94	44.66	47.59	-43.2	-45.6	24.5	6.03e-01	0	43	0	455606272	58	4636
2026-01-18 01:07:47.94	45.04	47.91	-43.2	-45.5	24.5	6.01e-01	0	43	0	457179136	58	4583
2026-01-18 01:07:48.94	45.43	48.24	-43.2	-45.6	24.5	6.05e-01	0	43	0	459276288	58	4614
2026-01-18 01:07:49.94	45.83	48.56	-43.3	-45.6	23.1	6.00e-01	0	43	0	460849152	58	4651
2026-01-18 01:07:50.93	46.23	48.89	-43.2	-45.5	24.6	6.01e-01	0	43	0	462946304	58	4594
2026-01-18 01:07:51.93	46.64	49.21	-43.3	-45.7	24.4	6.00e-01	0	43	0	465043456	58	4672
2026-01-18 01:07:52.92	47.06	49.54	-43.3	-45.6	24.4	6.03e-01	0	43	0	466616320	58	4628
2026-01-18 01:07:53.92	47.50	49.87	-43.2	-45.6	24.5	6.00e-01	0	43	0	468713472	58	4606
2026-01-18 01:07:54.92	47.94	50.20	-43.3	-45.6	24.4	6.02e-01	0	43	0	470286336	58	4635
2026-01-18 01:07:55.92	48.39	50.53	-43.3	-45.6	24.6	6.01e-01	0	43	0	472383488	58	4601
2026-01-18 01:07:56.92	48.85	50.86	-43.4	-45.7	24.4	6.01e-01	0	43	0	473956352	58	4705
2026-01-18 01:07:57.92	49.32	51.19	-43.3	-45.6	24.5	5.99e-01	0	43	0	476053504	58	4619
2026-01-18 01:07:58.92	49.80	51.53	-43.3	-45.6	24.5	6.02e-01	0	43	0	477626368	58	4642
2026-01-18 01:07:59.91	50.29	51.86	-43.4	-45.8	24.4	6.03e-01	0	43	0	479723520	58	4724
2026-01-18 01:08:00.91	50.80	52.19	-43.4	-45.8	24.4	5.99e-01	0	43	0	481820672	58	4707
2026-01-18 01:08:01.91	51.31	52.52	-43.0	-45.3	24.7	6.03e-01	0	43	0	483393536	58	4457
2026-01-18 01:08:02.91	51.84	52.86	-43.2	-45.5	24.6	6.04e-01	0	43	0	485490688	57	4839
2026-01-18 01:08:03.90	52.37	53.19	-43.2	-45.6	24.5	6.02e-01	0	43	0	487063552	57	4873
2026-01-18 01:08:04.90	52.93	53.52	-42.9	-45.2	24.8	5.99e-01	0	43	0	489160704	57	4679
2026-01-18 01:08:05.89	53.49	53.85	-43.1	-45.4	24.6	6.02e-01	0	43	0	490733568	57	4783
2026-01-18 01:08:06.90	54.07	54.18	-43.3	-45.6	24.5	6.03e-01	0	43	0	492830720	57	4884
2026-01-18 01:08:07.89	54.66	54.51	-43.2	-45.5	24.5	6.00e-01	0	43	0	494927872	57	4842
2026-01-18 01:08:08.89	55.26	54.84	-43.2	-45.5	24.5	6.02e-01	0	43	0	496500736	57	4841
2026-01-18 01:08:09.89	55.88	55.17	-43.4	-45.7	24.4	6.01e-01	0	43	0	498597888	57	4946
2026-01-18 01:08:10.89	56.52	55.50	-43.9	-46.3	23.9	6.00e-01	0	43	0	500170752	58	5019
2026-01-18 01:08:11.89	57.17	55.83	-43.8	-46.2	24.0	6.01e-01	0	43	0	502267904	58	4953
2026-01-18 01:08:12.89	57.83	56.15	-43.8	-46.3	23.9	6.01e-01	0	43	0	503840768	58	4994
2026-01-18 01:08:13.89	58.51	56.47	-44.3	-46.8	23.5	6.02e-01	0	43	0	505937920	59	5036
2026-01-18 01:08:14.89	59.21	56.80	-44.3	-46.8	23.5	6.01e-01	0	43	0	508035072	59	5010
2026-01-18 01:08:15.88	59.91	57.11	-44.4	-46.9	23.3	6.03e-01	0	43	0	509607936	59	5100
2026-01-18 01:08:16.88	60.64	57.43	-44.7	-47.3	23.1	5.99e-01	0	43	0	511705088	59	5280
2026-01-18 01:08:17.88	61.39	57.74	-44.9	-47.6	22.7	6.01e-01	0	43	0	513277952	60	5174
2026-01-18 01:08:18.87	62.15	58.05	-44.7	-47.4	22.9	6.02e-01	0	43	0	515375104	60	5058
2026-01-18 01:08:19.87	62.93	58.36	-45.2	-48.0	22.3	6.00e-01	0	43	0	517472256	61	5114
2026-01-18 01:08:20.87	63.73	58.66	-45.0	-47.7	22.6	6.01e-01	0	43	0	519045120	61	4972
2026-01-18 01:08:21.87	64.55	58.97	-45.1	-47.8	22.1	6.01e-01	0	43	0	521142272	61	5023
2026-01-18 01:08:22.87	65.38	59.26	-45.3	-48.1	22.2	6.00e-01	0	43	0	522715136	61	5177
2026-01-18 01:08:23.86	66.23	59.55	-45.0	-47.7	22.6	6.04e-01	0	43	0	524812288	61	4958
2026-01-18 01:08:24.86	67.11	59.84	-45.3	-48.0	22.3	6.02e-01	0	43	0	526385152	61	5145
2026-01-18 01:08:25.85	68.00	60.13	-45.4	-48.1	22.2	6.03e-01	0	43	0	528482304	61	5210
2026-01-18 01:08:26.85	68.91	60.40	-45.6	-48.5	21.9	6.01e-01	0	43	0	530055168	61	5417
2026-01-18 01:08:27.85	69.85	60.68	-45.5	-48.3	22.1	6.01e-01	0	43	0	532152320	61	5329
2026-01-18 01:08:28.85	70.80	60.95	-45.9	-49.0	21.5	6.02e-01	0	43	0	534249472	62	5421
2026-01-18 01:08:29.84	71.77	61.21	-45.9	-49.0	21.5	6.02e-01	0	43	0	535822336	62	5419
2026-01-18 01:08:30.84	72.77	61.46	-46.0	-49.0	21.4	5.99e-01	0	43	0	537919488	62	5463
2026-01-18 01:08:31.83	73.78	61.71	-46.0	-48.9	21.5	6.01e-01	0	43	0	539492352	62	5392
2026-01-18 01:08:32.83	74.81	61.95	-46.6	-49.8	20.7	5.99e-01	0	43	0	541589504	63	5598
2026-01-18 01:08:33.83	75.87	62.19	-46.2	-49.3	21.2	6.02e-01	0	43	0	543162368	63	5300
2026-01-18 01:08:34.83	76.95	62.42	-46.4	-49.5	21.0	6.03e-01	0	44	0	545259520	63	5420
2026-01-18 01:08:35.83	78.05	62.64	-46.5	-49.6	20.8	6.00e-01	0	43	0	547356672	63	5521
2026-01-18 01:08:36.82	79.16	62.85	-46.4	-49.5	20.9	6.00e-01	0	43	0	548929536	64	5141
2026-01-18 01:08:37.82	80.30	63.05	-46.2	-49.4	21.1	6.01e-01	0	43	0	551026688	64	5044
2026-01-18 01:08:38.81	81.44	63.25	-46.6	-50.0	20.5	6.02e-01	0	44	0	552599552	64	5412
2026-01-18 01:08:39.81	82.62	63.43	-46.4	-49.8	20.6	6.03e-01	0	43	0	554696704	64	5321
2026-01-18 01:08:40.81	83.81	63.61	-46.2	-49.5	20.9	5.99e-01	0	43	0	556269568	64	5150
2026-01-18 01:08:41.80	85.01	63.77	-46.6	-50.3	20.1	6.03e-01	0	44	0	558366720	64	5636
2026-01-18 01:08:42.80	86.24	63.93	-46.2	-49.7	20.6	6.01e-01	0	43	0	559939584	64	5270
2026-01-18 01:08:43.80	87.49	64.08	-46.4	-49.9	20.7	6.01e-01	0	43	0	562036736	64	5348
2026-01-18 01:08:44.79	88.74	64.21	-46.8	-50.3	20.1	6.02e-01	0	44	0	564133888	64	5615
2026-01-18 01:08:45.79	90.01	64.34	-46.6	-50.0	20.4	6.02e-01	0	43	0	565706752	64	5410
2026-01-18 01:08:46.79	91.30	64.45	-46.4	-49.8	20.7	6.02e-01	0	43	0	567803904	64	5303
2026-01-18 01:08:47.78	92.59	64.55	-46.4	-50.0	20.4	6.03e-01	0	43	0	569376768	64	5451
2026-01-18 01:08:48.78	93.90	64.64	-46.7	-50.4	20.3	6.00e-01	0	43	0	571473920	64	5670
2026-01-18 01:08:49.79	95.23	64.72	-46.3	-49.6	20.7	6.01e-01	0	43	0	573046784	64	5203
2026-01-18 01:08:50.78	96.55	64.79	-46.4	-49.6	20.9	6.00e-01	0	44	0	575143936	64	5190
2026-01-18 01:08:51.78	97.89	64.84	-46.4	-49.7	20.8	6.02e-01	0	43	0	577241088	64	5232
2026-01-18 01:08:52.78	99.23	64.88	-46.1	-49.4	21.0	6.02e-01	0	43	0	578813952	64	5064
2026-01-18 01:08:53.78	100.58	64.92	-46.2	-49.5	20.8	6.02e-01	0	43	0	580911104	64	5144
2026-01-18 01:08:54.78	101.93	64.93	-46.1	-49.3	21.2	6.00e-01	0	44	0	582483968	64	4998
2026-01-18 01:08:55.78	103.28	64.94	-46.2	-49.2	21.2	6.01e-01	0	43	0	584581120	64	4973
2026-01-18 01:08:56.77	104.62	64.93	-46.0	-49.1	21.4	6.02e-01	0	43	0	586153984	63	5168
2026-01-18 01:08:57.77	105.97	64.91	-46.5	-49.8	20.7	6.03e-01	0	43	0	588251136	63	5632
2026-01-18 01:08:58.76	107.30	64.88	-46.3	-49.4	21.1	6.02e-01	0	43	0	589824000	63	5392
2026-01-18 01:08:59.76	108.65	64.84	-46.6	-49.8	20.7	6.01e-01	0	43	0	591921152	63	5621
2026-01-18 01:09:00.76	109.98	64.78	-46.1	-49.1	21.3	6.01e-01	0	43	0	594018304	64	4912
2026-01-18 01:09:01.76	111.31	64.72	-46.1	-49.0	21.4	6.02e-01	0	43	0	595591168	63	5149
2026-01-18 01:09:02.75	112.62	64.64	-46.2	-49.3	21.2	6.00e-01	0	43	0	597688320	63	5293
2026-01-18 01:09:03.75	113.93	64.54	-45.8	-48.7	21.7	6.03e-01	0	43	0	599261184	63	4978
2026-01-18 01:09:04.75	115.23	64.44	-46.1	-49.3	21.2	6.03e-01	0	43	0	601358336	63	5284
2026-01-18 01:09:05.75	116.52	64.33	-45.6	-48.5	21.9	6.05e-01	0	43	0	603455488	63	4857
2026-01-18 01:09:06.74	117.79	64.20	-45.9	-49.0	21.5	6.01e-01	0	43	0	605028352	62	5426
2026-01-18 01:09:07.74	119.05	64.07	-45.8	-48.8	21.6	6.02e-01	0	44	0	607125504	62	5296
2026-01-18 01:09:08.74	120.29	63.92	-45.5	-48.3	22.1	6.04e-01	0	43	0	608698368	62	5018
2026-01-18 01:09:09.73	121.51	63.76	-45.9	-49.1	21.5	6.01e-01	0	43	0	610795520	62	5478
2026-01-18 01:09:10.73	122.72	63.60	-46.0	-49.2	21.3	6.01e-01	0	43	0	612368384	63	5269
2026-01-18 01:09:11.73	123.92	63.42	-46.0	-49.0	21.5	6.03e-01	0	44	0	614465536	63	5148
2026-01-18 01:09:12.73	125.09	63.23	-45.6	-48.5	21.9	6.02e-01	0	43	0	616562688	63	4831
2026-01-18 01:09:13.73	126.25	63.04	-45.9	-48.9	21.6	6.01e-01	0	43	0	618135552	63	5072
2026-01-18 01:09:14.72	127.38	62.83	-45.7	-48.6	21.8	6.03e-01	0	43	0	620232704	63	4917
2026-01-18 01:09:15.71	128.48	62.62	-45.0	-47.7	22.6	6.03e-01	0	43	0	621805568	62	4699
2026-01-18 01:09:16.71	129.58	62.40	-45.4	-48.2	22.2	6.02e-01	0	43	0	623902720	61	5252
2026-01-18 01:09:17.71	130.66	62.17	-45.3	-48.0	22.3	6.04e-01	0	43	0	625475584	61	5158
2026-01-18 01:09:18.71	131.72	61.93	-44.9	-47.7	22.7	5.99e-01	0	43	0	627572736	61	4938
2026-01-18 01:09:19.71	132.76	61.69	-44.9	-47.6	22.7	6.04e-01	0	43	0	629145600	61	4919
2026-01-18 01:09:20.71	133.78	61.44	-44.9	-47.6	22.7	6.00e-01	0	43	0	631242752	61	4896
2026-01-18 01:09:21.71	134.77	61.18	-44.6	-47.3	23.0	6.03e-01	0	43	0	633339904	61	4715
2026-01-18 01:09:22.71	135.75	60.92	-44.9	-47.6	22.8	6.03e-01	0	43	0	634912768	61	4903
2026-01-18 01:09:23.71	136.70	60.65	-44.8	-47.5	22.8	6.02e-01	0	43	0	637009920	61	4845
2026-01-18 01:09:24.70	137.63	60.38	-44.1	-46.7	23.5	6.02e-01	0	43	0	638582784	60	4661
2026-01-18 01:09:25.70	138.55	60.09	-44.7	-47.5	22.8	6.05e-01	0	43	0	640679936	60	5140
2026-01-18 01:09:26.70	139.44	59.81	-44.5	-47.4	22.8	6.00e-01	0	43	0	642252800	60	5093
2026-01-18 01:09:27.70	140.32	59.52	-44.5	-47.4	23.0	6.00e-01	0	43	0	644349952	60	5059
2026-01-18 01:09:28.70	141.17	59.22	-44.6	-47.3	23.0	6.03e-01	0	43	0	646447104	60	5033
2026-01-18 01:09:29.69	142.00	58.93	-44.4	-47.0	23.3	6.01e-01	0	44	0	648019968	60	4835
2026-01-18 01:09:30.69	142.82	58.63	-44.4	-47.0	23.3	6.03e-01	0	44	0	650117120	60	4819
2026-01-18 01:09:31.69	143.62	58.32	-44.6	-47.3	23.0	6.00e-01	0	43	0	651689984	60	5030
2026-01-18 01:09:32.68	144.39	58.01	-44.2	-46.7	23.4	6.04e-01	0	43	0	653787136	60	4693
2026-01-18 01:09:33.68	145.16	57.70	-43.9	-46.4	23.9	6.02e-01	0	44	0	655360000	59	4775
2026-01-18 01:09:34.67	145.90	57.39	-44.1	-46.6	23.7	6.02e-01	0	43	0	657457152	59	4909
2026-01-18 01:09:35.67	146.63	57.07	-44.1	-46.7	23.6	6.02e-01	0	43	0	659030016	59	4958
2026-01-18 01:09:36.67	147.34	56.75	-44.3	-46.9	23.4	6.04e-01	0	43	0	661127168	59	5081
2026-01-18 01:09:37.67	148.04	56.43	-43.6	-46.1	24.1	6.02e-01	0	43	0	663224320	59	4606
2026-01-18 01:09:38.66	148.71	56.10	-43.5	-45.9	24.3	6.01e-01	0	44	0	664797184	59	4522
2026-01-18 01:09:39.66	149.37	55.78	-43.5	-45.9	24.3	6.02e-01	0	43	0	666894336	59	4514
2026-01-18 01:09:40.66	150.02	55.45	-43.7	-46.1	24.1	6.01e-01	0	43	0	668467200	59	4624
2026-01-18 01:09:41.66	150.66	55.12	-43.9	-46.3	24.0	6.02e-01	0	43	0	670564352	59	4756
2026-01-18 01:09:42.66	151.28	54.79	-43.6	-46.0	24.2	6.01e-01	0	43	0	672137216	59	4549
2026-01-18 01:09:43.66	151.88	54.46	-43.4	-45.8	24.4	6.02e-01	0	43	0	674234368	58	4722
2026-01-18 01:09:44.65	152.47	54.13	-43.5	-45.8	24.4	6.01e-01	0	43	0	676331520	58	4735
2026-01-18 01:09:45.65	153.04	53.80	-43.3	-45.6	24.6	6.01e-01	0	43	0	677904384	58	4637
2026-01-18 01:09:46.65	153.61	53.46	-43.6	-46.0	24.2	6.04e-01	0	43	0	680001536	58	4865
2026-01-18 01:09:47.65	154.16	53.13	-43.7	-46.2	24.0	6.02e-01	0	44	0	681574400	58	4929
2026-01-18 01:09:48.64	154.70	52.80	-43.6	-45.9	24.3	6.05e-01	0	44	0	683671552	58	4799
2026-01-18 01:09:49.64	155.22	52.46	-43.5	-45.8	24.4	6.04e-01	0	44	0	685768704	58	4751
2026-01-18 01:09:50.63	155.73	52.13	-43.5	-45.9	24.3	6.00e-01	0	44	0	687341568	58	4765
2026-01-18 01:09:51.63	156.24	51.80	-43.8	-46.2	24.1	6.02e-01	0	43	0	689438720	58	4942
2026-01-18 01:09:52.63	156.73	51.46	-43.8	-46.1	24.1	6.00e-01	0	43	0	691011584	58	4920
2026-01-18 01:09:53.63	157.21	51.13	-44.0	-46.4	23.8	6.01e-01	0	44	0	693108736	58	5100
2026-01-18 01:09:54.63	157.68	50.80	-43.8	-46.2	24.0	6.03e-01	0	43	0	694681600	58	4969
2026-01-18 01:09:55.62	158.14	50.47	-44.1	-46.6	23.8	5.98e-01	0	44	0	696778752	58	5184
2026-01-18 01:09:56.62	158.59	50.13	-44.3	-46.8	23.5	6.03e-01	0	44	0	698875904	59	5001
2026-01-18 01:09:57.62	159.03	49.80	-43.9	-46.3	24.0	6.04e-01	0	43	0	700448768	59	4719
2026-01-18 01:09:58.61	159.46	49.48	-44.2	-46.7	23.6	6.02e-01	0	43	0	702545920	59	4956
2026-01-18 01:09:59.61	159.88	49.15	-44.1	-46.6	23.7	6.01e-01	0	44	0	704118784	59	4893
2026-01-18 01:10:00.61	160.30	48.82	-44.1	-46.6	23.8	6.01e-01	0	43	0	706215936	59	4881
2026-01-18 01:10:01.61	160.70	48.49	-44.4	-46.9	23.5	6.04e-01	0	43	0	707788800	59	5052
2026-01-18 01:10:02.60	161.10	48.17	-44.5	-47.1	23.3	6.02e-01	0	43	0	709885952	59	5163
2026-01-18 01:10:03.60	161.48	47.84	-44.2	-46.7	23.6	6.02e-01	0	43	0	711458816	59	4964
2026-01-18 01:10:04.61	161.87	47.51	-44.3	-46.8	23.5	6.01e-01	0	43	0	713555968	59	4993
2026-01-18 01:10:05.60	162.24	47.19	-44.4	-46.9	23.4	6.03e-01	0	43	0	715653120	59	5090
2026-01-18 01:10:06.60	162.60	46.87	-44.3	-46.8	23.4	6.01e-01	0	43	0	717225984	59	5030
2026-01-18 01:10:07.60	162.96	46.55	-44.2	-46.7	23.6	6.02e-01	0	43	0	719323136	59	4981
2026-01-18 01:10:08.59	163.31	46.23	-44.2	-46.7	23.6	6.01e-01	0	43	0	720896000	59	4930
2026-01-18 01:10:09.59	163.65	45.92	-44.1	-46.6	23.6	6.01e-01	0	43	0	722993152	59	4912
2026-01-18 01:10:10.59	163.99	45.60	-44.2	-46.8	23.5	6.04e-01	0	43	0	724566016	59	5022
2026-01-18 01:10:11.59	164.32	45.29	-44.3	-46.8	23.5	6.01e-01	0	43	0	726663168	59	5032
2026-01-18 01:10:12.58	164.64	44.98	-44.1	-46.7	23.7	6.04e-01	0	43	0	728760320	59	4934
2026-01-18 01:10:13.58	164.95	44.67	-44.2	-46.7	23.6	6.00e-01	0	43	0	730333184	59	4940
2026-01-18 01:10:14.57	165.26	44.36	-44.2	-46.7	23.5	6.00e-01	0	43	0	732430336	59	4975
2026-01-18 01:10:15.57	165.57	44.05	-44.2	-46.7	23.6	6.01e-01	0	43	0	734003200	59	4928
2026-01-18 01:10:16.57	165.87	43.74	-44.1	-46.5	23.7	6.01e-01	0	43	0	736100352	59	4867
2026-01-18 01:10:17.57	166.16	43.44	-44.2	-46.7	23.5	6.04e-01	0	43	0	737673216	59	4960
2026-01-18 01:10:18.56	166.44	43.14	-44.3	-46.8	23.5	6.03e-01	0	44	0	739770368	59	5012
2026-01-18 01:10:19.56	166.73	42.84	-44.3	-46.8	23.5	6.00e-01	0	44	0	741343232	59	5029
2026-01-18 01:10:20.56	167.00	42.54	-44.3	-46.8	23.5	6.00e-01	0	43	0	743440384	59	5031
2026-01-18 01:10:21.56	167.28	42.24	-44.5	-47.1	23.2	6.04e-01	0	44	0	745537536	59	5179
2026-01-18 01:10:22.55	167.54	41.95	-44.5	-47.1	23.1	6.00e-01	0	43	0	747110400	60	4903
2026-01-18 01:10:23.55	167.80	41.66	-44.5	-47.1	23.0	6.04e-01	0	43	0	749207552	60	4916
2026-01-18 01:10:24.55	168.06	41.36	-44.2	-46.7	23.5	6.01e-01	0	44	0	750780416	60	4681
2026-01-18 01:10:25.54	168.31	41.08	-44.2	-46.8	23.4	6.02e-01	0	44	0	752877568	60	4732
2026-01-18 01:10:26.54	168.56	40.79	-44.3	-46.9	23.3	6.01e-01	0	43	0	754450432	60	4805
2026-01-18 01:10:27.54	168.81	40.50	-44.5	-47.2	23.0	6.02e-01	0	43	0	756547584	60	4940
2026-01-18 01:10:28.54	169.05	40.22	-44.5	-47.2	23.1	6.00e-01	0	43	0	758644736	60	4927
2026-01-18 01:10:29.53	169.28	39.94	-44.7	-47.3	22.9	6.03e-01	0	43	0	760217600	60	5015
2026-01-18 01:10:30.53	169.51	39.66	-44.5	-47.1	23.1	6.01e-01	0	43	0	762314752	60	4918
2026-01-18 01:10:31.53	169.74	39.38	-44.4	-47.0	23.2	6.00e-01	0	44	0	763887616	60	4818
2026-01-18 01:10:32.52	169.96	39.10	-44.7	-47.4	22.9	6.04e-01	0	44	0	765984768	60	5042
2026-01-18 01:10:33.52	170.18	38.83	-44.8	-47.5	22.7	6.04e-01	0	43	0	767557632	60	5152
2026-01-18 01:10:34.52	170.40	38.55	-44.7	-47.4	22.8	6.01e-01	0	43	0	769654784	60	5058
2026-01-18 01:10:35.52	170.61	38.28	-44.7	-47.3	22.9	6.01e-01	0	43	0	771751936	60	5034
2026-01-18 01:10:36.52	170.82	38.01	-44.5	-47.2	23.0	6.01e-01	0	43	0	773324800	60	4934
2026-01-18 01:10:37.52	171.03	37.74	-44.4	-47.0	23.1	6.03e-01	0	43	0	775421952	60	4869
2026-01-18 01:10:38.52	171.23	37.48	-44.2	-46.8	23.4	6.05e-01	0	43	0	776994816	60	4739
2026-01-18 01:10:39.52	171.43	37.21	-44.1	-46.7	23.4	5.99e-01	0	43	0	779091968	60	4681
2026-01-18 01:10:40.51	171.63	36.95	-44.2	-46.8	23.4	6.01e-01	0	43	0	780664832	60	4723
2026-01-18 01:10:41.51	171.82	36.69	-44.1	-46.6	23.5	6.02e-01	0	43	0	782761984	60	4651
2026-01-18 01:10:42.51	172.01	36.43	-44.0	-46.5	23.6	6.03e-01	0	43	0	784859136	60	4567
2026-01-18 01:10:43.51	172.20	36.18	-44.2	-46.7	23.5	6.03e-01	0	44	0	786432000	59	4949
2026-01-18 01:10:44.50	172.38	35.93	-44.2	-46.7	23.6	6.03e-01	0	44	0	788529152	59	4952
2026-01-18 01:10:45.50	172.56	35.67	-44.0	-46.5	23.6	6.04e-01	0	44	0	790102016	59	4847
2026-01-18 01:10:46.50	172.74	35.42	-43.8	-46.3	23.8	6.01e-01	0	44	0	792199168	59	4726
2026-01-18 01:10:47.49	172.91	35.17	-43.5	-45.9	24.2	6.01e-01	0	43	0	793772032	59	4494
2026-01-18 01:10:48.49	173.09	34.93	-43.4	-45.8	24.3	6.01e-01	0	44	0	795869184	58	4720
2026-01-18 01:10:49.49	173.26	34.68	-43.3	-45.7	24.4	6.01e-01	0	43	0	797966336	58	4688
2026-01-18 01:10:50.49	173.42	34.44	-43.3	-45.7	24.4	6.04e-01	0	43	0	799539200	58	4660
2026-01-18 01:10:51.48	173.59	34.20	-43.3	-45.6	24.4	6.01e-01	0	43	0	801636352	58	4642
2026-01-18 01:10:52.48	173.75	33.95	-43.3	-45.7	24.4	6.00e-01	0	43	0	803209216	58	4663
2026-01-18 01:10:53.47	173.91	33.72	-43.3	-45.7	24.4	6.01e-01	0	43	0	805306368	58	4662
2026-01-18 01:10:54.47	174.07	33.48	-43.4	-45.8	24.3	6.02e-01	0	43	0	806879232	58	4722
2026-01-18 01:10:55.47	174.23	33.25	-43.2	-45.6	24.4	6.02e-01	0	44	0	808976384	58	4621
2026-01-18 01:10:56.47	174.38	33.01	-43.0	-45.4	24.6	6.01e-01	0	43	0	811073536	58	4507
2026-01-18 01:10:57.47	174.53	32.78	-43.0	-45.3	24.7	6.01e-01	0	43	0	812646400	58	4464
2026-01-18 01:10:58.46	174.68	32.55	-42.9	-45.2	24.8	6.01e-01	0	43	0	814743552	57	4704
2026-01-18 01:10:59.46	174.83	32.32	-42.9	-45.2	24.7	6.02e-01	0	43	0	816316416	57	4703
2026-01-18 01:11:00.45	174.97	32.10	-42.7	-45.0	25.0	6.05e-01	0	44	0	818413568	57	4546
2026-01-18 01:11:01.45	175.12	31.87	-42.7	-45.0	25.0	6.02e-01	0	43	0	819986432	57	4548
2026-01-18 01:11:02.44	175.26	31.65	-42.7	-45.0	25.0	6.04e-01	0	43	0	822083584	57	4558
2026-01-18 01:11:03.44	175.39	31.43	-42.5	-44.8	25.1	6.01e-01	0	43	0	823656448	57	4462
2026-01-18 01:11:04.44	175.53	31.21	-42.6	-44.9	25.1	6.02e-01	0	43	0	825753600	57	4494
2026-01-18 01:11:05.44	175.67	30.99	-42.7	-45.0	25.0	6.00e-01	0	43	0	827850752	57	4559
2026-01-18 01:11:06.43	175.80	30.77	-42.6	-44.9	25.0	6.03e-01	0	43	0	829423616	57	4510
2026-01-18 01:11:07.43	175.93	30.56	-42.6	-45.0	24.9	6.03e-01	0	44	0	831520768	57	4553
2026-01-18 01:11:08.43	176.06	30.34	-42.6	-44.9	25.0	6.03e-01	0	43	0	833093632	57	4538
2026-01-18 01:11:09.43	176.19	30.13	-42.7	-45.1	24.8	6.04e-01	0	43	0	835190784	57	4626
2026-01-18 01:11:10.42	176.32	29.92	-42.9	-45.2	24.7	6.03e-01	0	44	0	836763648	57	4705
2026-01-18 01:11:11.42	176.44	29.71	-42.8	-45.2	24.8	6.02e-01	0	43	0	838860800	57	4652
2026-01-18 01:11:12.42	176.57	29.50	-42.9	-45.2	24.7	6.03e-01	0	43	0	840433664	57	4701
2026-01-18 01:11:13.42	176.69	29.30	-43.0	-45.3	24.7	6.00e-01	0	43	0	842530816	57	4733
2026-01-18 01:11:14.41	176.81	29.09	-43.1	-45.4	24.5	6.01e-01	0	43	0	844627968	57	4804
2026-01-18 01:11:15.41	176.93	28.89	-43.1	-45.5	24.5	6.01e-01	0	43	0	846200832	57	4827
2026-01-18 01:11:16.41	177.05	28.69	-43.2	-45.6	24.5	6.02e-01	0	43	0	848297984	57	4891
2026-01-18 01:11:17.41	177.16	28.49	-43.2	-45.6	24.3	6.00e-01	0	43	0	849870848	57	4917
2026-01-18 01:11:18.41	177.28	28.29	-43.2	-45.6	24.3	6.01e-01	0	44	0	851968000	57	4889
2026-01-18 01:11:19.41	177.39	28.09	-43.2	-45.6	24.4	6.02e-01	0	44	0	853540864	57	4902
2026-01-18 01:11:20.41	177.50	27.89	-43.0	-45.4	24.5	6.03e-01	0	44	0	855638016	57	4795
2026-01-18 01:11:21.40	177.61	27.70	-43.0	-45.4	24.6	6.02e-01	0	43	0	857735168	57	4798
2026-01-18 01:11:22.40	177.72	27.50	-43.0	-45.4	24.6	6.00e-01	0	43	0	859308032	57	4766
2026-01-18 01:11:23.40	177.83	27.31	-43.1	-45.5	24.5	6.02e-01	0	44	0	861405184	57	4854
2026-01-18 01:11:24.40	177.94	27.12	-43.1	-45.5	24.5	6.01e-01	0	43	0	862978048	57	4821
2026-01-18 01:11:25.39	178.04	26.93	-43.2	-45.6	24.4	6.00e-01	0	43	0	865075200	57	4886
2026-01-18 01:11:26.39	178.14	26.74	-43.4	-45.8	24.3	6.02e-01	0	43	0	866648064	57	4985
2026-01-18 01:11:27.39	178.25	26.56	-43.4	-45.9	24.2	6.02e-01	0	43	0	868745216	57	5049
2026-01-18 01:11:28.39	178.35	26.37	-43.6	-46.0	24.1	6.01e-01	0	43	0	870842368	57	5138
2026-01-18 01:11:29.38	178.45	26.19	-43.6	-46.1	24.0	6.00e-01	0	43	0	872415232	57	5164
2026-01-18 01:11:30.38	178.55	26.00	-43.8	-46.3	23.8	6.03e-01	0	43	0	874512384	58	4993
2026-01-18 01:11:31.39	178.65	25.82	-43.9	-46.4	23.7	5.99e-01	0	43	0	876085248	58	5072
2026-01-18 01:11:32.38	178.74	25.64	-43.9	-46.4	23.7	6.02e-01	0	44	0	878182400	58	5069
2026-01-18 01:11:33.38	178.84	25.46	-43.9	-46.4	23.7	6.04e-01	0	43	0	880279552	58	5098
2026-01-18 01:11:34.38	178.94	25.28	-43.9	-46.4	23.7	6.02e-01	0	43	0	881852416	58	5079
2026-01-18 01:11:35.37	179.03	25.11	-44.0	-46.5	23.6	6.02e-01	0	43	0	883949568	58	5146
2026-01-18 01:11:36.37	179.12	24.93	-43.8	-46.3	23.8	6.00e-01	0	44	0	885522432	58	5020
2026-01-18 01:11:37.37	179.21	24.76	-43.7	-46.2	23.9	5.99e-01	0	43	0	887619584	58	4951
2026-01-18 01:11:38.37	179.30	24.58	-43.8	-46.3	23.8	6.04e-01	0	43	0	889192448	58	4995
2026-01-18 01:11:39.36	179.39	24.41	-43.8	-46.3	23.8	6.02e-01	0	43	0	891289600	58	5016
2026-01-18 01:11:40.36	179.48	24.24	-43.8	-46.4	23.7	6.00e-01	0	44	0	892862464	58	5045
2026-01-18 01:11:41.36	179.57	24.07	-43.9	-46.5	23.6	6.04e-01	0	44	0	894959616	58	5108
2026-01-18 01:11:42.36	179.66	23.90	-43.9	-46.4	23.7	6.02e-01	0	43	0	897056768	58	5081
2026-01-18 01:11:43.35	179.74	23.74	-43.8	-46.4	23.7	6.03e-01	0	43	0	898629632	58	5069
2026-01-18 01:11:44.35	179.83	23.57	-43.9	-46.5	23.6	6.01e-01	0	43	0	900726784	58	5141
2026-01-18 01:11:45.35	179.91	23.40	-43.9	-46.4	23.7	6.03e-01	0	43	0	902299648	58	5077
2026-01-18 01:11:46.35	179.99	23.24	-43.7	-46.2	23.9	6.01e-01	0	43	0	904396800	58	4965
2026-01-18 01:11:47.35	180.08	23.08	-43.7	-46.3	23.8	6.02e-01	0	43	0	905969664	58	5033
2026-01-18 01:11:48.34	180.16	22.91	-43.7	-46.3	23.8	6.01e-01	0	43	0	908066816	58	5007
2026-01-18 01:11:49.34	180.24	22.75	-43.6	-46.2	23.8	5.99e-01	0	43	0	910163968	58	4969
2026-01-18 01:11:50.34	180.32	22.59	-43.6	-46.2	23.9	6.00e-01	0	43	0	911736832	58	4934
2026-01-18 01:11:51.34	180.40	22.43	-43.7	-46.3	23.8	6.02e-01	0	43	0	913833984	58	5003
2026-01-18 01:11:52.33	180.47	22.28	-43.8	-46.3	23.7	6.03e-01	0	43	0	915406848	58	5037
2026-01-18 01:11:53.33	180.55	22.12	-43.7	-46.2	23.8	6.01e-01	0	44	0	917504000	58	4981
2026-01-18 01:11:54.33	180.63	21.96	-43.6	-46.1	23.9	6.01e-01	0	44	0	919076864	58	4915
2026-01-18 01:11:55.32	180.70	21.81	-43.6	-46.1	23.9	6.03e-01	0	43	0	921174016	58	4924
2026-01-18 01:11:56.32	180.78	21.65	-43.6	-46.1	23.9	6.03e-01	0	43	0	923271168	58	4905
2026-01-18 01:11:57.32	180.85	21.50	-43.6	-46.1	23.9	6.03e-01	0	43	0	924844032	58	4920
2026-01-18 01:11:58.31	180.93	21.35	-43.5	-46.0	24.1	6.02e-01	0	43	0	926941184	58	4827
2026-01-18 01:11:59.31	181.00	21.20	-43.5	-46.1	23.9	6.03e-01	0	43	0	928514048	58	4881
2026-01-18 01:12:00.31	181.07	21.05	-43.6	-46.1	23.9	6.00e-01	0	43	0	930611200	58	4910
2026-01-18 01:12:01.31	181.14	20.90	-43.6	-46.2	23.9	6.02e-01	0	43	0	932184064	58	4938
2026-01-18 01:12:02.30	181.21	20.75	-43.6	-46.2	23.8	6.02e-01	0	44	0	934281216	58	4939
2026-01-18 01:12:03.30	181.28	20.60	-43.6	-46.1	23.9	6.02e-01	0	43	0	935854080	58	4926
2026-01-18 01:12:04.30	181.35	20.46	-43.6	-46.2	23.9	6.02e-01	0	44	0	937951232	58	4930
2026-01-18 01:12:05.29	181.42	20.31	-43.6	-46.2	23.8	6.04e-01	0	43	0	940048384	58	4939
2026-01-18 01:12:06.29	181.49	20.17	-43.6	-46.1	23.9	6.01e-01	0	43	0	941621248	58	4922
2026-01-18 01:12:07.29	181.56	20.02	-43.6	-46.2	23.8	6.02e-01	0	43	0	943718400	58	4944
2026-01-18 01:12:08.29	181.63	19.88	-43.6	-46.2	23.8	6.03e-01	0	43	0	945291264	58	4952
2026-01-18 01:12:09.29	181.69	19.74	-43.6	-46.2	23.8	5.99e-01	0	43	0	947388416	58	4966
2026-01-18 01:12:10.28	181.76	19.60	-43.6	-46.2	23.8	6.02e-01	0	44	0	948961280	58	4944
2026-01-18 01:12:11.28	181.82	19.46	-43.6	-46.2	23.8	6.02e-01	0	43	0	951058432	58	4954
2026-01-18 01:12:12.29	181.89	19.32	-43.4	-45.9	24.0	6.01e-01	0	44	0	953155584	58	4796
2026-01-18 01:12:13.28	181.95	19.18	-43.4	-46.0	24.0	6.02e-01	0	44	0	954728448	58	4840
2026-01-18 01:12:14.28	182.01	19.04	-43.3	-45.9	24.1	6.04e-01	0	43	0	956825600	58	4778
2026-01-18 01:12:15.28	182.08	18.90	-43.4	-45.9	24.0	6.03e-01	0	43	0	958398464	58	4811
2026-01-18 01:12:16.28	182.14	18.77	-43.3	-45.8	24.1	6.00e-01	0	43	0	960495616	58	4727
2026-01-18 01:12:17.28	182.20	18.63	-43.4	-45.9	24.0	6.02e-01	0	43	0	962592768	58	4781
2026-01-18 01:12:18.28	182.26	18.49	-43.4	-45.9	24.1	6.02e-01	0	43	0	964165632	58	4766
2026-01-18 01:12:19.27	182.32	18.36	-43.5	-46.0	24.0	6.02e-01	0	44	0	966262784	58	4832
2026-01-18 01:12:20.27	182.38	18.23	-43.6	-46.0	23.9	6.03e-01	0	43	0	967835648	58	4867
2026-01-18 01:12:21.27	182.44	18.10	-43.6	-46.1	23.9	6.01e-01	0	43	0	969932800	58	4907
2026-01-18 01:12:22.27	182.50	17.96	-43.6	-46.1	23.9	6.01e-01	0	43	0	971505664	58	4902
2026-01-18 01:12:23.27	182.56	17.83	-43.5	-46.0	23.9	6.03e-01	0	43	0	973602816	58	4856
2026-01-18 01:12:24.27	182.62	17.70	-43.4	-45.9	24.0	5.98e-01	0	44	0	975699968	58	4789
2026-01-18 01:12:25.27	182.67	17.57	-43.5	-46.0	23.9	6.03e-01	0	44	0	977272832	58	4846
2026-01-18 01:12:26.27	182.73	17.44	-43.5	-46.0	24.0	6.00e-01	0	43	0	979369984	58	4849
2026-01-18 01:12:27.27	182.79	17.31	-43.4	-45.9	24.0	6.05e-01	0	43	0	980942848	58	4799
2026-01-18 01:12:28.26	182.84	17.19	-43.4	-45.9	24.1	6.00e-01	0	43	0	983040000	58	4781
2026-01-18 01:12:29.26	182.90	17.06	-43.3	-45.8	24.1	6.03e-01	0	43	0	984612864	58	4725
2026-01-18 01:12:30.27	182.96	16.93	-43.3	-45.8	24.1	6.00e-01	0	43	0	986710016	58	4726
2026-01-18 01:12:31.26	183.01	16.81	-43.5	-46.1	23.9	6.01e-01	0	43	0	988282880	58	4885
2026-01-18 01:12:32.26	183.06	16.68	-43.5	-46.0	23.8	6.02e-01	0	43	0	990380032	58	4831
2026-01-18 01:12:33.26	183.12	16.56	-43.4	-45.9	24.0	6.03e-01	0	43	0	992477184	58	4788
2026-01-18 01:12:34.25	183.17	16.44	-43.4	-45.9	24.0	6.02e-01	0	44	0	994050048	58	4795
2026-01-18 01:12:35.25	183.22	16.32	-43.4	-45.9	24.0	6.01e-01	0	43	0	996147200	58	4811
2026-01-18 01:12:36.25	183.28	16.19	-43.4	-45.9	24.0	6.02e-01	0	43	0	997720064	58	4806
2026-01-18 01:12:37.25	183.33	16.07	-43.3	-45.9	24.0	6.02e-01	0	43	0	999817216	58	4778
2026-01-18 01:12:38.24	183.38	15.95	-43.4	-45.9	24.0	6.01e-01	0	44	0	1001390080	58	4812
2026-01-18 01:12:39.24	183.43	15.83	-43.5	-46.1	23.9	6.03e-01	0	43	0	1003487232	58	4884
2026-01-18 01:12:40.24	183.48	15.71	-43.4	-46.0	23.9	6.01e-01	0	44	0	1005584384	58	4867
2026-01-18 01:12:41.24	183.53	15.59	-43.5	-46.2	23.7	6.02e-01	0	43	0	1007157248	58	4941
2026-01-18 01:12:42.24	183.58	15.48	-43.6	-46.3	23.6	6.01e-01	0	43	0	1009254400	58	5024
2026-01-18 01:12:43.23	183.63	15.36	-43.5	-46.2	23.8	6.03e-01	0	43	0	1010827264	58	4937
2026-01-18 01:12:44.23	183.68	15.24	-43.4	-46.1	23.9	6.03e-01	0	43	0	1012924416	58	4891
2026-01-18 01:12:45.23	183.73	15.13	-43.6	-46.3	23.7	6.02e-01	0	44	0	1014497280	58	4993
2026-01-18 01:12:46.23	183.78	15.01	-43.4	-46.2	23.8	5.99e-01	0	43	0	1016594432	58	4930
2026-01-18 01:12:47.23	183.83	14.89	-43.5	-46.2	23.7	6.01e-01	0	43	0	1018691584	58	4961
2026-01-18 01:12:48.22	183.87	14.78	-43.5	-46.2	23.7	6.03e-01	0	44	0	1020264448	58	4981
2026-01-18 01:12:49.22	183.92	14.67	-43.4	-46.1	23.8	6.00e-01	0	43	0	1022361600	58	4926
2026-01-18 01:12:50.22	183.97	14.55	-43.5	-46.3	23.6	6.02e-01	0	44	0	1023934464	58	5005
2026-01-18 01:12:51.22	184.01	14.44	-43.6	-46.4	23.5	6.02e-01	0	43	0	1026031616	58	5078
2026-01-18 01:12:52.21	184.06	14.33	-43.5	-46.2	23.7	6.02e-01	0	43	0	1027604480	58	4965
2026-01-18 01:12:53.21	184.11	14.22	-43.4	-46.2	23.7	6.03e-01	0	43	0	1029701632	58	4942
2026-01-18 01:12:54.21	184.15	14.10	-43.4	-46.2	23.7	5.98e-01	0	43	0	1031274496	58	4955
2026-01-18 01:12:55.20	184.20	14.00	-43.4	-46.2	23.7	6.02e-01	0	44	0	1033371648	58	4940
2026-01-18 01:12:56.20	184.24	13.88	-43.5	-46.3	23.6	6.05e-01	0	43	0	1035468800	58	4998
2026-01-18 01:12:57.19	184.29	13.78	-43.6	-46.4	23.5	6.02e-01	0	43	0	1037041664	58	5070
2026-01-18 01:12:58.19	184.33	13.67	-43.6	-46.4	23.5	6.03e-01	0	43	0	1039138816	58	5050
2026-01-18 01:12:59.19	184.37	13.56	-43.6	-46.4	23.5	5.99e-01	0	43	0	1040711680	58	5064
2026-01-18 01:13:00.19	184.42	13.45	-43.5	-46.3	23.6	6.01e-01	0	43	0	1042808832	58	4990
2026-01-18 01:13:01.18	184.46	13.34	-43.6	-46.4	23.5	6.03e-01	0	44	0	1044905984	58	5074
2026-01-18 01:13:02.18	184.50	13.24	-43.6	-46.4	23.5	6.01e-01	0	43	0	1046478848	58	5073
2026-01-18 01:13:03.18	184.55	13.13	-43.6	-46.4	23.4	6.00e-01	0	43	0	1048576000	58	5085
2026-01-18 01:13:04.18	184.59	13.02	-43.6	-46.4	23.4	6.01e-01	0	43	0	1050148864	58	5075
2026-01-18 01:13:05.18	184.63	12.92	-43.7	-46.5	23.4	6.00e-01	0	43	0	1052246016	58	5136
2026-01-18 01:13:06.18	184.67	12.81	-43.7	-46.6	23.3	6.00e-01	0	44	0	1053818880	58	5163
2026-01-18 01:13:07.17	184.71	12.71	-43.8	-46.6	23.3	6.03e-01	0	44	0	1055916032	58	5205
2026-01-18 01:13:08.17	184.76	12.61	-43.7	-46.5	23.3	6.02e-01	0	44	0	1058013184	58	5144
2026-01-18 01:13:09.17	184.80	12.50	-43.6	-46.5	23.4	6.01e-01	0	44	0	1059586048	58	5112
2026-01-18 01:13:10.17	184.84	12.40	-43.7	-46.5	23.4	6.03e-01	0	43	0	1061683200	58	5142
2026-01-18 01:13:11.17	184.88	12.30	-43.7	-46.5	23.3	6.02e-01	0	43	0	1063256064	58	5156
2026-01-18 01:13:12.16	184.92	12.19	-43.6	-46.4	23.4	6.01e-01	0	44	0	1065353216	58	5082
2026-01-18 01:13:13.16	184.96	12.09	-43.6	-46.4	23.5	6.04e-01	0	44	0	1066926080	58	5063
2026-01-18 01:13:14.16	185.00	11.99	-43.7	-46.6	23.3	6.04e-01	0	43	0	1069023232	58	5190
2026-01-18 01:13:15.16	185.04	11.89	-43.6	-46.4	23.5	6.03e-01	0	43	0	1070596096	58	5042
2026-01-18 01:13:16.16	185.08	11.79	-43.7	-46.5	23.4	6.04e-01	0	44	0	1072693248	58	5151
2026-01-18 01:13:17.16	185.11	11.69	-43.9	-46.7	23.1	6.03e-01	0	44	0	1074790400	58	5273
2026-01-18 01:13:18.15	185.15	11.59	-43.8	-46.6	23.3	6.01e-01	0	43	0	1076363264	58	5184
2026-01-18 01:13:19.15	185.19	11.49	-43.8	-46.6	23.3	6.04e-01	0	44	0	1078460416	58	5169
2026-01-18 01:13:20.15	185.23	11.39	-43.7	-46.5	23.3	6.04e-01	0	43	0	1080033280	58	5142
2026-01-18 01:13:21.15	185.27	11.30	-43.7	-46.5	22.8	6.02e-01	0	44	0	1082130432	58	5139
2026-01-18 01:13:22.14	185.30	11.20	-43.9	-46.8	23.1	6.00e-01	0	43	0	1083703296	58	5301
2026-01-18 01:13:23.14	185.34	11.10	-44.0	-46.9	23.0	6.03e-01	0	43	0	1085800448	58	5383
2026-01-18 01:13:24.14	185.38	11.01	-43.9	-46.7	23.1	6.00e-01	0	43	0	1087897600	58	5277
2026-01-18 01:13:25.13	185.41	10.91	-43.9	-46.8	23.1	6.01e-01	0	43	0	1089470464	58	5326
2026-01-18 01:13:26.13	185.45	10.81	-44.0	-46.9	23.0	6.01e-01	0	43	0	1091567616	58	5367
2026-01-18 01:13:27.13	185.49	10.72	-43.7	-46.6	23.2	6.02e-01	0	43	0	1093140480	58	5174
2026-01-18 01:13:28.13	185.52	10.62	-43.9	-46.8	23.0	6.01e-01	0	44	0	1095237632	58	5322
2026-01-18 01:13:29.13	185.56	10.53	-44.0	-46.9	22.9	6.01e-01	0	44	0	1096810496	58	5399
2026-01-18 01:13:30.12	185.59	10.43	-44.0	-46.9	23.0	6.03e-01	0	44	0	1098907648	58	5364
2026-01-18 01:13:31.12	185.63	10.34	-44.0	-46.9	22.9	6.00e-01	0	43	0	1101004800	58	5382
2026-01-18 01:13:32.12	185.67	10.25	-43.9	-46.8	23.1	6.03e-01	0	43	0	1102577664	58	5302
2026-01-18 01:13:33.12	185.70	10.15	-44.0	-46.9	23.0	6.03e-01	0	43	0	1104674816	58	5362
2026-01-18 01:13:34.12	185.74	10.06	-44.1	-47.0	22.9	6.01e-01	0	44	0	1106247680	58	5416
2026-01-18 01:13:35.11	185.77	9.97	-44.1	-47.1	22.8	6.01e-01	0	43	0	1108344832	59	5160
2026-01-18 01:13:36.11	185.80	9.88	-44.2	-47.1	22.8	5.99e-01	0	44	0	1109917696	59	5169
2026-01-18 01:13:37.10	185.84	9.78	-44.2	-47.2	22.7	6.03e-01	0	43	0	1112014848	59	5223
2026-01-18 01:13:38.10	185.87	9.69	-44.2	-47.1	22.8	6.03e-01	0	43	0	1113587712	59	5172
2026-01-18 01:13:39.10	185.90	9.60	-44.1	-47.0	22.8	6.02e-01	0	43	0	1115684864	59	5138
2026-01-18 01:13:40.09	185.94	9.51	-44.0	-46.9	22.9	5.99e-01	0	43	0	1117782016	59	5080
2026-01-18 01:13:41.09	185.97	9.42	-44.2	-47.1	22.7	6.05e-01	0	43	0	1119354880	59	5188
2026-01-18 01:13:42.09	186.00	9.33	-44.1	-47.0	22.8	6.03e-01	0	43	0	1121452032	59	5131
2026-01-18 01:13:43.08	186.04	9.24	-44.1	-47.0	22.9	6.00e-01	0	43	0	1123024896	59	5104
2026-01-18 01:13:44.08	186.07	9.15	-44.4	-47.5	22.4	6.03e-01	0	43	0	1125122048	59	5413
2026-01-18 01:13:45.08	186.10	9.07	-44.3	-47.3	22.6	6.01e-01	0	43	0	1127219200	59	5315
2026-01-18 01:13:46.08	186.13	8.98	-49.7	-64.4	4.7	7.28e-01	0	43	104	1128792064	70	20175
2026-01-18 01:13:47.07	186.17	8.89	-50.7	-71.3	3.8	7.48e-01	0	43	104	1128792064	72	40043
2026-01-18 01:13:48.07	186.20	8.80	-50.5	-71.4	3.8	7.47e-01	0	43	104	1128792064	71	42873
2026-01-18 01:13:49.07	186.23	8.71	-50.7	-71.6	3.8	7.46e-01	0	43	104	1128792064	72	41396
2026-01-18 01:13:50.06	186.26	8.63	-51.2	-71.7	3.8	7.47e-01	0	44	104	1128792064	73	39299
2026-01-18 01:13:51.06	186.29	8.54	-51.5	-71.7	3.8	7.47e-01	0	44	104	1128792064	73	39560
2026-01-18 01:13:52.06	186.32	8.45	-51.6	-71.8	3.8	7.42e-01	0	44	104	1128792064	74	37586
2026-01-18 01:13:53.06	186.35	8.37	-51.6	-71.8	3.8	7.47e-01	0	44	104	1128792064	74	37683
2026-01-18 01:13:54.05	186.39	8.28	-51.6	-71.8	3.8	7.47e-01	0	44	104	1128792064	74	37703
2026-01-18 01:13:55.05	186.42	8.20	-51.9	-71.8	3.8	7.44e-01	0	44	104	1128792064	74	37801
2026-01-18 01:13:56.05	186.45	8.11	-51.9	-71.9	3.8	7.48e-01	0	44	104	1128792064	74	37866
2026-01-18 01:13:57.04	186.48	8.03	-51.9	-71.9	3.8	7.47e-01	0	43	104	1128792064	75	35826
2026-01-18 01:13:58.04	186.51	7.94	-52.2	-71.9	3.8	7.46e-01	0	44	104	1128792064	75	35800
2026-01-18 01:13:59.03	186.54	7.86	-52.0	-71.9	3.8	7.44e-01	0	44	104	1128792064	75	35764
2026-01-18 01:14:00.03	186.57	7.78	-51.8	-71.9	3.8	7.47e-01	0	43	104	1128792064	75	35793
2026-01-18 01:14:01.03	186.60	7.69	-52.0	-71.9	3.8	7.47e-01	0	44	104	1128792064	75	35831
2026-01-18 01:14:02.03	186.62	7.61	-52.1	-71.9	3.8	7.47e-01	0	44	104	1128792064	75	35760
2026-01-18 01:14:03.03	186.65	7.52	-52.2	-71.9	3.8	7.49e-01	0	44	104	1128792064	75	35762
2026-01-18 01:14:04.02	186.68	7.44	-51.3	-71.9	3.8	7.48e-01	0	43	104	1128792064	74	37900
2026-01-18 01:14:05.02	186.71	7.36	-51.7	-71.9	3.8	7.49e-01	0	44	104	1128792064	74	37879
2026-01-18 01:14:06.02	186.74	7.28	-52.0	-71.9	3.8	7.48e-01	0	44	104	1128792064	74	37901
2026-01-18 01:14:07.01	186.77	7.20	-52.0	-71.9	3.8	7.45e-01	0	44	104	1128792064	74	37961
2026-01-18 01:14:08.01	186.80	7.12	-51.6	-71.9	3.8	7.48e-01	0	44	104	1128792064	74	37958
2026-01-18 01:14:09.01	186.83	7.03	-51.5	-71.9	3.8	7.41e-01	0	43	104	1128792064	74	37889
2026-01-18 01:14:10.00	186.85	6.95	-51.6	-71.9	3.8	7.45e-01	0	44	104	1128792064	74	37971
2026-01-18 01:14:11.00	186.88	6.87	-51.6	-71.9	3.8	7.42e-01	0	44	104	1128792064	74	37916
2026-01-18 01:14:12.00	186.91	6.79	-51.6	-71.9	3.8	7.45e-01	0	44	104	1128792064	74	37842
2026-01-18 01:14:13.00	186.94	6.71	-51.2	-71.8	3.8	7.50e-01	0	44	104	1128792064	73	40033
2026-01-18 01:14:13.99	186.96	6.63	-51.1	-71.8	3.8	7.46e-01	0	44	104	1128792
