passes_logs/2026/01/18/T1/T1__20260118_112128_NOAA_21_JPSS-2_rec.log

#Pass ID: 20260118_112128_NOAA 21 (JPSS-2)
#Satellite: NOAA 21 (JPSS-2)
#Configuration: NOAA 21
#almurnet v.1.7.20251203
#Start time: 2026-01-18 11:21:28

#Version: 2.0.20230620
#Station: T1
#Location: 37.570604 lon 55.790049 lat
#TLE: 1 54234U 22150A   26017.62066529  .00000042  00000+0  40984-4 0  9994
#TLE: 2 54234  98.7502 318.4887 0000613 271.5460  88.5645 14.19535234165189

#Time	Az	El	Level	Level2	SNR	BER	BlckErr	Temp	State	Recorded	gain1	gain2
2026-01-18 11:21:28.90	207.04	5.05	-49.7	-62.8	3.8	1.49e+00	0	44	0	0	71	15867
2026-01-18 11:21:29.89	207.12	5.11	-49.7	-62.8	3.8	1.49e+00	0	44	104	0	71	15805
2026-01-18 11:21:30.89	207.20	5.18	-49.7	-62.8	3.8	1.49e+00	0	44	104	0	71	15769
2026-01-18 11:21:31.88	207.29	5.24	-49.7	-62.8	3.8	1.49e+00	0	44	104	0	71	15828
2026-01-18 11:21:32.88	207.37	5.30	-49.7	-62.8	3.8	1.49e+00	0	44	104	0	71	15765
2026-01-18 11:21:33.87	207.45	5.36	-49.7	-62.8	3.8	1.49e+00	0	44	104	0	71	15833
2026-01-18 11:21:34.86	207.53	5.42	-49.7	-62.8	3.8	1.49e+00	0	43	104	0	71	15820
2026-01-18 11:21:35.85	207.61	5.48	-49.7	-62.8	3.8	1.49e+00	0	44	104	0	71	15795
2026-01-18 11:21:36.85	207.69	5.54	-49.7	-62.8	3.8	1.49e+00	0	44	104	0	71	15764
2026-01-18 11:21:37.84	207.78	5.60	-49.7	-62.8	3.8	1.49e+00	0	44	104	0	71	15781
2026-01-18 11:21:38.83	207.86	5.67	-49.7	-62.8	3.8	1.49e+00	0	44	104	0	71	15816
2026-01-18 11:21:39.83	207.94	5.73	-49.6	-62.8	3.8	1.49e+00	0	44	104	0	71	15819
2026-01-18 11:21:40.82	208.03	5.79	-49.7	-62.8	3.8	1.49e+00	0	44	104	0	71	15853
2026-01-18 11:21:41.81	208.11	5.85	-49.7	-62.8	3.8	1.49e+00	0	44	104	0	71	15825
2026-01-18 11:21:42.81	208.19	5.91	-49.7	-62.8	3.8	1.49e+00	0	44	104	0	71	15876
2026-01-18 11:21:43.80	208.28	5.98	-49.7	-62.8	3.8	1.49e+00	0	44	104	0	71	15865
2026-01-18 11:21:44.79	208.36	6.04	-49.7	-62.9	3.8	1.49e+00	0	44	104	0	71	15970
2026-01-18 11:21:45.79	208.45	6.10	-49.6	-62.8	3.8	1.49e+00	0	44	104	0	71	15819
2026-01-18 11:21:46.78	208.53	6.16	-49.7	-62.8	3.8	1.49e+00	0	44	104	0	71	15871
2026-01-18 11:21:47.77	208.62	6.22	-49.7	-62.8	3.8	1.49e+00	0	44	104	0	71	15828
2026-01-18 11:21:48.77	208.71	6.29	-49.7	-62.8	3.8	1.49e+00	0	44	104	0	71	15890
2026-01-18 11:21:49.76	208.79	6.35	-49.6	-62.7	3.8	1.49e+00	0	44	104	0	71	15739
2026-01-18 11:21:50.75	208.88	6.41	-49.6	-62.7	3.8	1.49e+00	0	44	104	0	71	15662
2026-01-18 11:21:51.75	208.97	6.48	-49.6	-62.5	3.8	1.49e+00	0	44	104	0	71	15375
2026-01-18 11:21:52.74	209.06	6.54	-49.6	-62.3	3.8	1.49e+00	0	44	104	0	71	15023
2026-01-18 11:21:53.73	209.14	6.60	-49.6	-62.2	3.8	1.49e+00	0	44	104	0	71	14857
2026-01-18 11:21:54.73	209.23	6.67	-49.6	-62.3	3.8	1.49e+00	0	44	104	0	71	14926
2026-01-18 11:21:55.72	209.32	6.73	-49.6	-62.3	3.8	1.49e+00	0	44	104	0	71	15004
2026-01-18 11:21:56.71	209.41	6.79	-49.6	-62.4	3.8	1.49e+00	0	44	104	0	71	15173
2026-01-18 11:21:57.71	209.50	6.86	-49.6	-62.6	3.8	1.49e+00	0	44	104	0	71	15404
2026-01-18 11:21:58.70	209.59	6.92	-49.6	-62.6	3.8	1.49e+00	0	44	104	0	71	15519
2026-01-18 11:21:59.69	209.68	6.98	-49.6	-62.5	3.8	1.49e+00	0	44	104	0	71	15385
2026-01-18 11:22:00.69	209.77	7.05	-49.6	-62.6	3.8	1.49e+00	0	44	104	0	71	15415
2026-01-18 11:22:01.68	209.86	7.11	-49.6	-62.5	3.8	1.49e+00	0	44	104	0	71	15338
2026-01-18 11:22:02.67	209.96	7.17	-49.6	-62.5	3.8	1.49e+00	0	44	104	0	71	15304
2026-01-18 11:22:03.67	210.05	7.24	-49.6	-62.5	3.8	1.49e+00	0	44	104	0	71	15362
2026-01-18 11:22:04.66	210.14	7.30	-49.6	-62.5	3.8	1.49e+00	0	44	104	0	71	15245
2026-01-18 11:22:05.65	210.23	7.37	-49.6	-62.5	3.8	1.49e+00	0	44	104	0	71	15345
2026-01-18 11:22:06.65	210.33	7.43	-49.6	-62.6	3.8	1.49e+00	0	44	104	0	71	15415
2026-01-18 11:22:07.64	210.42	7.50	-49.6	-62.6	3.8	1.49e+00	0	44	104	0	71	15543
2026-01-18 11:22:08.64	210.51	7.56	-49.6	-62.5	3.8	1.49e+00	0	44	104	0	71	15285
2026-01-18 11:22:09.63	210.61	7.63	-49.6	-62.0	3.8	1.49e+00	0	44	104	0	71	14525
2026-01-18 11:22:10.63	210.70	7.69	-49.5	-61.4	3.8	1.49e+00	0	44	104	0	71	13419
2026-01-18 11:22:11.62	210.80	7.76	-49.4	-60.6	3.9	1.49e+00	0	44	104	0	70	13037
2026-01-18 11:22:12.61	210.89	7.82	-49.4	-60.3	4.0	1.48e+00	0	44	104	0	70	12606
2026-01-18 11:22:13.61	210.99	7.89	-49.5	-61.0	3.8	1.48e+00	0	44	104	0	70	13661
2026-01-18 11:22:14.60	211.09	7.95	-49.6	-62.0	3.8	1.49e+00	0	44	104	0	70	15357
2026-01-18 11:22:15.59	211.18	8.02	-49.7	-62.7	3.8	1.49e+00	0	44	104	0	70	16615
2026-01-18 11:22:16.58	211.28	8.08	-49.4	-60.6	3.9	1.49e+00	0	44	104	0	70	13002
2026-01-18 11:22:17.58	211.38	8.15	-48.6	-55.6	6.0	6.73e-01	0	44	0	0	69	7777
2026-01-18 11:22:18.57	211.48	8.21	-47.2	-51.8	9.4	4.81e-02	0	44	0	0	66	5971
2026-01-18 11:22:19.56	211.57	8.28	-45.8	-49.2	12.2	7.89e-04	0	44	0	0	63	5258
2026-01-18 11:22:20.56	211.67	8.34	-44.4	-47.1	14.4	6.10e-06	0	44	0	0	60	4921
2026-01-18 11:22:21.55	211.77	8.41	-43.4	-45.8	15.7	0.00e+00	0	44	0	0	58	4732
2026-01-18 11:22:22.54	211.87	8.48	-42.6	-44.8	16.6	0.00e+00	0	44	0	0	57	4464
2026-01-18 11:22:23.54	211.97	8.54	-42.3	-44.4	17.0	0.00e+00	0	44	0	0	56	4540
2026-01-18 11:22:24.53	212.07	8.61	-42.1	-44.2	17.2	0.00e+00	0	44	0	0	56	4417
2026-01-18 11:22:25.53	212.18	8.67	-42.2	-44.3	17.1	0.00e+00	0	44	0	0	56	4443
2026-01-18 11:22:26.52	212.28	8.74	-42.7	-44.9	16.6	0.00e+00	0	44	0	0	56	4764
2026-01-18 11:22:27.51	212.38	8.81	-43.6	-46.1	15.4	0.00e+00	0	44	0	0	57	5188
2026-01-18 11:22:28.50	212.48	8.87	-44.7	-47.5	14.0	7.00e-07	0	44	0	0	59	5414
2026-01-18 11:22:29.50	212.58	8.94	-45.6	-49.0	12.5	7.09e-05	0	44	0	0	61	5753
2026-01-18 11:22:30.49	212.69	9.01	-46.6	-50.7	10.8	1.80e-03	0	44	0	0	63	6216
2026-01-18 11:22:31.49	212.79	9.07	-46.8	-51.1	10.2	1.52e-02	0	44	0	0	65	5828
2026-01-18 11:22:32.56	212.90	9.15	-47.8	-53.4	8.1	1.62e-02	0	43	0	0	66	7175
2026-01-18 11:22:33.41	212.99	9.20	-48.0	-53.7	7.5	1.02e+00	0	44	104	0	68	6627
2026-01-18 11:22:34.55	213.12	9.28	-44.6	-47.4	14.1	1.38e-03	0	44	0	0	61	4772
2026-01-18 11:22:35.40	213.21	9.34	-44.4	-47.1	14.6	0.00e+00	0	44	0	0	59	5187
2026-01-18 11:22:36.54	213.33	9.42	-46.4	-50.2	11.1	1.19e-01	0	44	0	0	64	5532
2026-01-18 11:22:37.39	213.42	9.47	-43.2	-45.5	16.0	0.00e+00	0	44	0	0	58	4596
2026-01-18 11:22:38.53	213.54	9.55	-41.7	-43.7	17.5	0.00e+00	0	43	0	0	55	4430
2026-01-18 11:22:39.38	213.63	9.61	-41.1	-43.0	18.2	0.00e+00	0	44	0	0	54	4332
2026-01-18 11:22:40.52	213.76	9.69	-41.0	-42.9	18.3	0.00e+00	0	44	0	0	53	4505
2026-01-18 11:22:41.37	213.85	9.74	-41.0	-42.9	18.3	0.00e+00	0	44	0	0	53	4507
2026-01-18 11:22:42.51	213.98	9.82	-41.1	-43.0	18.2	0.00e+00	0	44	0	0	53	4579
2026-01-18 11:22:43.36	214.07	9.88	-41.1	-42.9	18.3	0.00e+00	0	44	0	0	53	4544
2026-01-18 11:22:44.61	214.21	9.97	-40.9	-42.8	18.4	0.00e+00	0	44	0	0	53	4472
2026-01-18 11:22:45.46	214.30	10.02	-40.8	-42.7	18.5	0.00e+00	0	43	0	0	53	4396
2026-01-18 11:22:46.60	214.43	10.10	-40.9	-42.8	18.4	0.00e+00	0	44	0	0	53	4464
2026-01-18 11:22:47.45	214.53	10.16	-40.9	-42.8	18.5	0.00e+00	0	44	0	0	53	4446
2026-01-18 11:22:48.59	214.66	10.24	-40.9	-42.8	18.4	0.00e+00	0	44	0	0	53	4459
2026-01-18 11:22:49.44	214.75	10.30	-40.9	-42.8	18.4	0.00e+00	0	44	0	0	53	4461
2026-01-18 11:22:50.58	214.88	10.38	-40.9	-42.8	18.4	0.00e+00	0	43	0	0	53	4479
2026-01-18 11:22:51.55	214.99	10.45	-40.9	-42.8	18.4	0.00e+00	0	44	0	0	53	4451
2026-01-18 11:22:52.54	215.11	10.51	-40.9	-42.7	18.5	0.00e+00	0	44	0	0	53	4439
2026-01-18 11:22:53.54	215.22	10.58	-40.8	-42.7	18.5	0.00e+00	0	44	0	0	53	4407
2026-01-18 11:22:54.53	215.34	10.65	-40.9	-42.7	18.5	0.00e+00	0	44	0	0	53	4430
2026-01-18 11:22:55.52	215.45	10.72	-40.8	-42.6	18.5	0.00e+00	0	43	0	0	53	4391
2026-01-18 11:22:56.52	215.57	10.79	-40.9	-42.7	18.5	0.00e+00	0	44	0	0	53	4436
2026-01-18 11:22:57.51	215.69	10.86	-40.9	-42.8	18.4	0.00e+00	0	44	0	0	53	4445
2026-01-18 11:22:58.51	215.80	10.93	-40.7	-42.5	18.7	0.00e+00	0	44	0	0	53	4316
2026-01-18 11:22:59.50	215.92	11.00	-40.6	-42.4	18.8	0.00e+00	0	44	0	0	53	4262
2026-01-18 11:23:00.50	216.04	11.07	-40.5	-42.3	18.9	0.00e+00	0	44	0	0	53	4238
2026-01-18 11:23:01.49	216.16	11.14	-40.5	-42.4	18.8	0.00e+00	0	43	0	0	53	4254
2026-01-18 11:23:02.49	216.28	11.21	-40.6	-42.4	18.8	0.00e+00	0	44	0	0	53	4263
2026-01-18 11:23:03.48	216.40	11.28	-40.5	-42.3	18.9	0.00e+00	0	44	0	0	52	4474
2026-01-18 11:23:04.48	216.52	11.35	-40.5	-42.4	18.8	0.00e+00	0	44	0	0	52	4494
2026-01-18 11:23:05.47	216.64	11.42	-40.5	-42.3	18.9	0.00e+00	0	44	0	0	52	4459
2026-01-18 11:23:06.47	216.76	11.49	-40.5	-42.3	18.8	0.00e+00	0	44	0	0	52	4487
2026-01-18 11:23:07.46	216.89	11.56	-40.4	-42.2	18.9	0.00e+00	0	44	0	0	52	4438
2026-01-18 11:23:08.46	217.01	11.63	-40.5	-42.3	18.9	0.00e+00	0	43	0	0	52	4463
2026-01-18 11:23:09.45	217.13	11.70	-40.3	-42.2	19.0	0.00e+00	0	43	0	0	52	4400
2026-01-18 11:23:10.45	217.26	11.77	-40.4	-42.3	18.9	0.00e+00	0	44	0	0	52	4442
2026-01-18 11:23:11.44	217.38	11.84	-40.3	-42.1	19.1	0.00e+00	0	44	0	0	52	4350
2026-01-18 11:23:12.44	217.51	11.91	-40.4	-42.2	19.0	0.00e+00	0	44	0	0	52	4417
2026-01-18 11:23:13.43	217.63	11.98	-40.3	-42.1	19.0	0.00e+00	0	44	0	0	52	4381
2026-01-18 11:23:14.43	217.76	12.06	-40.2	-42.0	19.1	0.00e+00	0	43	0	0	52	4331
2026-01-18 11:23:15.42	217.89	12.13	-40.2	-42.0	19.1	0.00e+00	0	43	0	0	52	4329
2026-01-18 11:23:16.42	218.02	12.20	-40.2	-42.0	19.2	0.00e+00	0	44	0	0	52	4332
2026-01-18 11:23:17.41	218.14	12.27	-40.2	-42.0	19.2	0.00e+00	0	43	0	0	52	4333
2026-01-18 11:23:18.44	218.28	12.34	-40.3	-42.1	19.1	0.00e+00	0	43	0	0	52	4386
2026-01-18 11:23:19.47	218.41	12.42	-40.6	-42.4	18.8	0.00e+00	0	44	0	0	52	4516
2026-01-18 11:23:20.46	218.54	12.49	-40.4	-42.2	19.0	0.00e+00	0	44	0	0	52	4431
2026-01-18 11:23:21.46	218.67	12.56	-40.5	-42.3	19.0	0.00e+00	0	44	0	0	52	4461
2026-01-18 11:23:22.45	218.80	12.63	-40.5	-42.4	18.9	0.00e+00	0	44	0	0	52	4507
2026-01-18 11:23:23.45	218.94	12.70	-40.5	-42.4	18.9	0.00e+00	0	44	0	0	52	4506
2026-01-18 11:23:24.44	219.07	12.77	-40.5	-42.3	18.9	0.00e+00	0	43	0	0	52	4490
2026-01-18 11:23:25.44	219.20	12.85	-40.5	-42.4	18.9	0.00e+00	0	43	0	0	52	4504
2026-01-18 11:23:26.43	219.34	12.92	-40.3	-42.1	19.1	0.00e+00	0	44	0	0	52	4383
2026-01-18 11:23:27.43	219.47	12.99	-40.3	-42.1	19.2	0.00e+00	0	43	0	0	52	4354
2026-01-18 11:23:28.42	219.61	13.06	-40.2	-42.0	19.2	0.00e+00	0	43	0	0	52	4335
2026-01-18 11:23:29.42	219.74	13.13	-40.2	-42.0	19.2	0.00e+00	0	44	0	0	52	4339
2026-01-18 11:23:30.41	219.88	13.21	-40.3	-42.1	19.1	0.00e+00	0	43	0	0	52	4391
2026-01-18 11:23:31.41	220.02	13.28	-40.2	-42.0	19.3	0.00e+00	0	44	0	0	52	4333
2026-01-18 11:23:32.40	220.15	13.35	-40.3	-42.1	19.2	0.00e+00	0	44	0	0	52	4380
2026-01-18 11:23:33.40	220.29	13.42	-40.1	-41.9	19.4	0.00e+00	0	43	0	0	52	4260
2026-01-18 11:23:34.39	220.43	13.50	-40.3	-42.1	19.2	0.00e+00	0	43	0	0	52	4375
2026-01-18 11:23:35.39	220.57	13.57	-40.3	-42.1	19.2	0.00e+00	0	43	0	0	52	4350
2026-01-18 11:23:36.38	220.71	13.64	-40.3	-42.1	19.1	0.00e+00	0	44	0	0	52	4388
2026-01-18 11:23:37.43	220.86	13.72	-40.3	-42.1	19.2	0.00e+00	0	44	0	0	52	4346
2026-01-18 11:23:38.40	221.00	13.79	-40.2	-42.0	19.3	0.00e+00	0	44	0	0	52	4314
2026-01-18 11:23:39.48	221.15	13.87	-40.2	-42.0	19.2	0.00e+00	0	43	0	0	52	4332
2026-01-18 11:23:40.33	221.28	13.93	-40.3	-42.1	19.2	0.00e+00	0	44	0	0	52	4348
2026-01-18 11:23:41.67	221.47	14.03	-40.3	-42.1	19.2	0.00e+00	0	44	0	0	52	4348
2026-01-18 11:23:42.38	221.57	14.08	-40.3	-42.1	19.2	0.00e+00	0	44	0	0	52	4378
2026-01-18 11:23:43.67	221.76	14.17	-40.2	-42.0	19.3	0.00e+00	0	44	0	0	52	4323
2026-01-18 11:23:44.39	221.87	14.23	-40.3	-42.1	19.2	0.00e+00	0	43	0	0	52	4358
2026-01-18 11:23:45.67	222.06	14.32	-40.3	-42.0	19.3	0.00e+00	0	43	0	0	52	4335
2026-01-18 11:23:46.39	222.16	14.37	-40.3	-42.1	19.2	0.00e+00	0	44	0	0	52	4380
2026-01-18 11:23:47.67	222.35	14.47	-40.4	-42.2	19.1	0.00e+00	0	44	0	0	52	4426
2026-01-18 11:23:48.45	222.47	14.52	-40.5	-42.3	19.0	0.00e+00	0	44	0	0	52	4476
2026-01-18 11:23:49.73	222.66	14.62	-40.5	-42.3	19.0	0.00e+00	0	44	0	0	52	4481
2026-01-18 11:23:50.50	222.78	14.68	-40.5	-42.3	19.0	0.00e+00	0	44	0	0	52	4488
2026-01-18 11:23:51.78	222.97	14.77	-40.4	-42.2	19.1	0.00e+00	0	44	0	0	52	4418
2026-01-18 11:23:52.49	223.08	14.82	-40.4	-42.2	19.1	0.00e+00	0	43	0	0	52	4416
2026-01-18 11:23:53.77	223.28	14.92	-40.3	-42.0	19.3	0.00e+00	0	44	0	0	52	4336
2026-01-18 11:23:54.61	223.41	14.98	-40.4	-42.1	19.2	0.00e+00	0	44	0	0	52	4386
2026-01-18 11:23:55.74	223.58	15.06	-40.4	-42.1	19.2	0.00e+00	0	44	0	0	52	4391
2026-01-18 11:23:56.60	223.72	15.13	-40.5	-42.3	19.1	0.00e+00	0	44	0	0	52	4446
2026-01-18 11:23:57.73	223.89	15.21	-40.5	-42.3	19.0	0.00e+00	0	44	0	0	52	4480
2026-01-18 11:23:58.58	224.03	15.27	-40.6	-42.4	18.9	0.00e+00	0	44	0	0	52	4533
2026-01-18 11:23:59.72	224.21	15.36	-40.6	-42.4	18.9	0.00e+00	0	44	0	0	52	4522
2026-01-18 11:24:00.57	224.34	15.42	-40.6	-42.4	19.0	0.00e+00	0	44	0	0	52	4509
2026-01-18 11:24:01.71	224.52	15.50	-40.6	-42.4	19.0	0.00e+00	0	44	0	0	52	4513
2026-01-18 11:24:02.56	224.66	15.57	-40.6	-42.4	18.9	0.00e+00	0	44	0	0	52	4543
2026-01-18 11:24:03.70	224.84	15.65	-40.6	-42.4	19.0	0.00e+00	0	43	0	0	52	4500
2026-01-18 11:24:04.55	224.98	15.71	-40.8	-42.6	18.8	0.00e+00	0	44	0	0	52	4621
2026-01-18 11:24:05.69	225.17	15.80	-40.7	-42.6	18.9	0.00e+00	0	43	0	0	52	4603
2026-01-18 11:24:06.59	225.31	15.86	-40.8	-42.6	18.8	0.00e+00	0	43	0	0	52	4627
2026-01-18 11:24:07.80	225.51	15.95	-40.8	-42.6	18.9	0.00e+00	0	44	0	0	52	4623
2026-01-18 11:24:08.66	225.65	16.02	-40.7	-42.5	18.9	0.00e+00	0	44	0	0	52	4559
2026-01-18 11:24:09.79	225.84	16.10	-40.7	-42.5	18.9	0.00e+00	0	43	0	0	52	4573
2026-01-18 11:24:10.65	225.98	16.16	-40.6	-42.4	19.0	0.00e+00	0	43	0	0	52	4531
2026-01-18 11:24:11.78	226.17	16.25	-40.6	-42.4	19.0	0.00e+00	0	43	0	0	52	4494
2026-01-18 11:24:12.63	226.31	16.31	-40.5	-42.3	19.1	0.00e+00	0	43	0	0	52	4462
2026-01-18 11:24:14.07	226.56	16.42	-40.5	-42.3	19.1	0.00e+00	0	43	0	0	52	4453
2026-01-18 11:24:14.78	226.68	16.47	-40.6	-42.4	19.0	0.00e+00	0	44	0	0	52	4495
2026-01-18 11:24:16.06	226.90	16.56	-40.7	-42.5	18.9	0.00e+00	0	44	0	0	52	4576
2026-01-18 11:24:16.77	227.02	16.62	-40.7	-42.5	19.0	0.00e+00	0	44	0	0	52	4554
2026-01-18 11:24:18.05	227.24	16.71	-40.7	-42.5	18.9	0.00e+00	0	43	0	0	52	4568
2026-01-18 11:24:18.76	227.36	16.76	-40.7	-42.5	18.9	0.00e+00	0	43	0	0	52	4596
2026-01-18 11:24:20.04	227.59	16.86	-40.7	-42.6	18.9	0.00e+00	0	43	0	0	52	4600
2026-01-18 11:24:20.77	227.71	16.91	-40.6	-42.4	19.0	0.00e+00	0	43	0	0	52	4533
2026-01-18 11:24:22.04	227.94	17.01	-40.8	-42.6	18.8	0.00e+00	0	43	0	0	52	4629
2026-01-18 11:24:22.76	228.06	17.06	-40.8	-42.7	18.8	0.00e+00	0	44	0	0	52	4658
2026-01-18 11:24:24.03	228.29	17.15	-40.7	-42.5	18.9	0.00e+00	0	43	0	0	52	4575
2026-01-18 11:24:24.74	228.41	17.21	-40.7	-42.5	18.9	0.00e+00	0	43	0	0	52	4580
2026-01-18 11:24:26.15	228.67	17.31	-40.7	-42.4	18.9	0.00e+00	0	43	0	0	52	4544
2026-01-18 11:24:26.86	228.79	17.36	-40.6	-42.4	19.0	0.00e+00	0	44	0	0	52	4521
2026-01-18 11:24:28.14	229.03	17.46	-40.6	-42.4	18.9	0.00e+00	0	44	0	0	52	4529
2026-01-18 11:24:28.87	229.16	17.51	-40.7	-42.5	18.9	0.00e+00	0	43	0	0	52	4552
2026-01-18 11:24:30.26	229.41	17.61	-40.8	-42.6	18.8	0.00e+00	0	44	0	0	52	4610
2026-01-18 11:24:30.97	229.54	17.66	-40.8	-42.6	18.7	0.00e+00	0	43	0	0	52	4631
2026-01-18 11:24:32.25	229.78	17.76	-40.8	-42.7	18.7	0.00e+00	0	43	0	0	52	4653
2026-01-18 11:24:32.99	229.92	17.81	-40.8	-42.6	18.7	0.00e+00	0	43	0	0	52	4646
2026-01-18 11:24:34.27	230.15	17.91	-40.8	-42.7	18.7	0.00e+00	0	43	0	0	52	4663
2026-01-18 11:24:34.98	230.29	17.96	-40.7	-42.5	18.9	0.00e+00	0	43	0	0	52	4581
2026-01-18 11:24:36.26	230.53	18.05	-40.6	-42.5	18.9	0.00e+00	0	44	0	0	52	4554
2026-01-18 11:24:37.00	230.67	18.10	-40.5	-42.3	19.1	0.00e+00	0	44	0	0	52	4464
2026-01-18 11:24:38.28	230.91	18.20	-40.5	-42.2	19.1	0.00e+00	0	43	0	0	52	4440
2026-01-18 11:24:39.00	231.05	18.25	-40.4	-42.2	19.2	0.00e+00	0	43	0	0	52	4405
2026-01-18 11:24:40.28	231.29	18.34	-40.5	-42.3	19.0	0.00e+00	0	43	0	0	52	4472
2026-01-18 11:24:41.06	231.44	18.40	-40.5	-42.3	19.0	0.00e+00	0	43	0	0	52	4457
2026-01-18 11:24:42.65	231.75	18.52	-40.5	-42.3	19.1	0.00e+00	0	43	0	0	52	4450
2026-01-18 11:24:43.22	231.86	18.56	-40.5	-42.3	19.0	0.00e+00	0	44	0	0	52	4489
2026-01-18 11:24:44.93	232.19	18.68	-40.5	-42.3	19.1	0.00e+00	0	43	0	0	52	4475
2026-01-18 11:24:45.53	232.31	18.72	-40.5	-42.3	19.1	0.00e+00	0	44	0	0	52	4446
2026-01-18 11:24:47.09	232.62	18.84	-40.5	-42.3	19.1	0.00e+00	0	43	0	0	52	4493
2026-01-18 11:24:47.80	232.76	18.89	-40.6	-42.4	19.0	0.00e+00	0	43	0	0	52	4516
2026-01-18 11:24:49.08	233.02	18.98	-40.4	-42.1	19.3	0.00e+00	0	43	0	0	52	4386
2026-01-18 11:24:49.85	233.17	19.03	-40.4	-42.1	19.3	0.00e+00	0	43	0	0	52	4383
2026-01-18 11:24:51.13	233.43	19.12	-40.3	-42.1	19.3	0.00e+00	0	44	0	0	52	4355
2026-01-18 11:24:51.87	233.58	19.18	-40.3	-42.0	19.3	0.00e+00	0	44	0	0	52	4329
2026-01-18 11:24:53.15	233.84	19.27	-40.4	-42.2	19.2	0.00e+00	0	44	0	0	52	4404
2026-01-18 11:24:53.86	233.98	19.32	-40.2	-42.0	19.4	0.00e+00	0	44	0	0	52	4304
2026-01-18 11:24:55.14	234.24	19.41	-40.1	-41.9	19.5	0.00e+00	0	44	0	0	52	4251
2026-01-18 11:24:55.86	234.39	19.46	-40.0	-41.8	19.6	0.00e+00	0	44	0	0	52	4217
2026-01-18 11:24:57.14	234.66	19.55	-40.1	-41.8	19.5	0.00e+00	0	44	0	0	52	4226
2026-01-18 11:24:57.85	234.80	19.60	-40.1	-41.9	19.5	0.00e+00	0	43	0	0	52	4254
2026-01-18 11:24:59.13	235.07	19.69	-40.0	-41.8	19.7	0.00e+00	0	43	0	0	51	4449
2026-01-18 11:24:59.87	235.23	19.74	-39.9	-41.6	19.8	0.00e+00	0	44	0	0	51	4389
2026-01-18 11:25:01.15	235.49	19.83	-40.0	-41.7	19.7	0.00e+00	0	44	0	0	51	4402
2026-01-18 11:25:01.87	235.65	19.88	-39.9	-41.6	19.9	0.00e+00	0	44	0	0	51	4351
2026-01-18 11:25:03.15	235.92	19.97	-39.8	-41.5	19.8	0.00e+00	0	44	0	0	51	4315
2026-01-18 11:25:03.87	236.07	20.02	-39.9	-41.6	19.7	0.00e+00	0	43	0	0	51	4385
2026-01-18 11:25:05.15	236.35	20.11	-40.0	-41.7	19.8	0.00e+00	0	43	0	0	51	4404
2026-01-18 11:25:05.88	236.50	20.16	-40.1	-41.8	19.7	0.00e+00	0	44	0	0	51	4460
2026-01-18 11:25:07.26	236.80	20.25	-40.0	-41.7	19.7	0.00e+00	0	44	0	0	51	4426
2026-01-18 11:25:07.97	236.96	20.30	-40.0	-41.8	19.7	0.00e+00	0	43	0	0	51	4448
2026-01-18 11:25:09.26	237.24	20.39	-40.1	-41.8	19.6	0.00e+00	0	44	0	0	51	4488
2026-01-18 11:25:09.98	237.39	20.44	-40.0	-41.8	19.7	0.00e+00	0	44	0	0	51	4457
2026-01-18 11:25:11.25	237.67	20.52	-40.1	-41.8	19.7	0.00e+00	0	44	0	0	51	4484
2026-01-18 11:25:11.99	237.84	20.57	-40.1	-41.9	19.6	0.00e+00	0	44	0	0	51	4509
2026-01-18 11:25:13.27	238.12	20.66	-40.2	-42.0	19.5	0.00e+00	0	44	0	0	51	4566
2026-01-18 11:25:13.99	238.28	20.71	-40.1	-41.9	19.5	0.00e+00	0	44	0	0	51	4520
2026-01-18 11:25:15.27	238.57	20.79	-40.1	-41.9	19.6	0.00e+00	0	44	0	0	51	4494
2026-01-18 11:25:15.99	238.73	20.84	-40.0	-41.8	19.6	0.00e+00	0	44	0	0	51	4457
2026-01-18 11:25:17.27	239.02	20.93	-40.0	-41.8	19.6	0.00e+00	0	44	0	0	51	4460
2026-01-18 11:25:18.06	239.20	20.98	-40.1	-41.9	19.5	0.00e+00	0	44	0	0	51	4519
2026-01-18 11:25:19.56	239.54	21.08	-40.1	-41.8	19.6	0.00e+00	0	44	0	0	51	4472
2026-01-18 11:25:20.27	239.70	21.12	-40.0	-41.7	19.8	0.00e+00	0	44	0	0	51	4413
2026-01-18 11:25:21.55	240.00	21.21	-39.9	-41.6	19.8	0.00e+00	0	44	0	0	51	4368
2026-01-18 11:25:22.27	240.16	21.25	-39.9	-41.6	19.8	0.00e+00	0	43	0	0	51	4365
2026-01-18 11:25:23.74	240.50	21.35	-40.0	-41.7	19.7	0.00e+00	0	44	0	0	51	4412
2026-01-18 11:25:24.45	240.67	21.39	-39.9	-41.6	19.8	0.00e+00	0	44	0	0	51	4372
2026-01-18 11:25:25.74	240.97	21.47	-39.8	-41.6	19.9	0.00e+00	0	44	0	0	51	4343
2026-01-18 11:25:26.45	241.14	21.52	-39.8	-41.5	19.9	0.00e+00	0	43	0	0	51	4333
2026-01-18 11:25:27.73	241.44	21.60	-39.7	-41.4	19.9	0.00e+00	0	43	0	0	51	4250
2026-01-18 11:25:28.46	241.61	21.64	-39.7	-41.4	19.8	0.00e+00	0	44	0	0	51	4283
2026-01-18 11:25:29.74	241.91	21.72	-39.8	-41.6	19.7	0.00e+00	0	44	0	0	51	4342
2026-01-18 11:25:30.46	242.08	21.77	-39.9	-41.6	19.8	0.00e+00	0	44	0	0	51	4367
2026-01-18 11:25:31.74	242.39	21.85	-39.9	-41.6	19.8	0.00e+00	0	44	0	0	51	4366
2026-01-18 11:25:32.45	242.56	21.89	-39.9	-41.7	19.8	0.00e+00	0	43	0	0	51	4392
2026-01-18 11:25:33.73	242.87	21.97	-39.7	-41.4	20.0	0.00e+00	0	44	0	0	51	4272
2026-01-18 11:25:34.50	243.06	22.02	-39.7	-41.4	20.0	0.00e+00	0	44	0	0	51	4258
2026-01-18 11:25:35.78	243.37	22.09	-39.6	-41.3	20.0	0.00e+00	0	43	0	0	51	4207
2026-01-18 11:25:36.50	243.54	22.14	-39.6	-41.3	20.0	0.00e+00	0	43	0	0	51	4228
2026-01-18 11:25:37.78	243.86	22.21	-39.6	-41.2	20.0	0.00e+00	0	44	0	0	51	4192
2026-01-18 11:25:38.56	244.05	22.26	-39.5	-41.2	20.1	0.00e+00	0	44	0	0	51	4163
2026-01-18 11:25:39.83	244.36	22.33	-39.5	-41.2	20.1	0.00e+00	0	44	0	0	50	4404
2026-01-18 11:25:40.56	244.54	22.37	-39.6	-41.3	20.0	0.00e+00	0	44	0	0	50	4452
2026-01-18 11:25:41.84	244.86	22.45	-39.7	-41.4	20.0	0.00e+00	0	43	0	0	50	4499
2026-01-18 11:25:42.55	245.04	22.49	-39.6	-41.3	20.0	0.00e+00	0	44	0	0	50	4475
2026-01-18 11:25:43.83	245.36	22.56	-39.6	-41.3	20.0	0.00e+00	0	43	0	0	50	4447
2026-01-18 11:25:44.56	245.54	22.60	-39.7	-41.4	20.0	0.00e+00	0	43	0	0	50	4528
2026-01-18 11:25:45.84	245.86	22.68	-39.6	-41.3	20.1	0.00e+00	0	43	0	0	50	4471
2026-01-18 11:25:46.56	246.04	22.72	-39.5	-41.2	20.2	0.00e+00	0	43	0	0	50	4415
2026-01-18 11:25:47.84	246.37	22.79	-39.5	-41.2	20.2	0.00e+00	0	44	0	0	50	4410
2026-01-18 11:25:48.57	246.55	22.83	-39.5	-41.2	20.2	0.00e+00	0	43	0	0	50	4422
2026-01-18 11:25:49.85	246.88	22.90	-39.7	-41.4	20.0	0.00e+00	0	43	0	0	50	4513
2026-01-18 11:25:50.57	247.07	22.93	-39.8	-41.4	20.0	0.00e+00	0	44	0	0	50	4538
2026-01-18 11:25:51.85	247.39	23.00	-39.8	-41.5	19.9	0.00e+00	0	44	0	0	50	4566
2026-01-18 11:25:52.56	247.58	23.04	-39.9	-41.6	19.9	0.00e+00	0	44	0	0	50	4606
2026-01-18 11:25:53.84	247.91	23.11	-39.8	-41.4	20.0	0.00e+00	0	44	0	0	50	4545
2026-01-18 11:25:54.56	248.10	23.14	-39.8	-41.5	20.0	0.00e+00	0	44	0	0	50	4579
2026-01-18 11:25:55.84	248.43	23.21	-39.8	-41.5	20.0	0.00e+00	0	43	0	0	50	4559
2026-01-18 11:25:56.57	248.62	23.25	-39.7	-41.4	20.1	0.00e+00	0	43	0	0	50	4513
2026-01-18 11:25:57.85	248.96	23.31	-39.6	-41.3	20.1	0.00e+00	0	43	0	0	50	4467
2026-01-18 11:25:58.57	249.15	23.35	-39.6	-41.3	20.1	0.00e+00	0	44	0	0	50	4445
2026-01-18 11:25:59.85	249.48	23.41	-39.7	-41.3	20.0	0.00e+00	0	43	0	0	50	4487
2026-01-18 11:26:00.58	249.68	23.45	-39.7	-41.4	20.1	0.00e+00	0	43	0	0	50	4498
2026-01-18 11:26:01.86	250.02	23.51	-39.8	-41.5	19.9	0.00e+00	0	44	0	0	50	4571
2026-01-18 11:26:02.57	250.20	23.54	-39.8	-41.5	19.9	0.00e+00	0	44	0	0	50	4556
2026-01-18 11:26:03.84	250.54	23.60	-39.8	-41.5	20.0	0.00e+00	0	44	0	0	50	4581
2026-01-18 11:26:04.57	250.74	23.63	-39.7	-41.3	20.1	0.00e+00	0	44	0	0	50	4489
2026-01-18 11:26:05.85	251.08	23.69	-39.3	-41.3	18.3	6.25e-03	0	44	0	0	50	4477
2026-01-18 11:26:06.56	251.27	23.73	-39.2	-41.3	18.3	9.72e-03	0	44	0	0	50	4472
2026-01-18 11:26:07.84	251.62	23.78	-39.6	-41.4	18.7	3.83e-03	0	43	0	0	50	4532
2026-01-18 11:26:08.57	251.82	23.82	-39.8	-41.5	19.7	0.00e+00	0	44	0	0	50	4565
2026-01-18 11:26:09.84	252.16	23.87	-39.7	-41.4	20.0	0.00e+00	0	44	0	0	50	4506
2026-01-18 11:26:10.55	252.36	23.90	-39.8	-41.5	19.9	0.00e+00	0	43	0	0	50	4560
2026-01-18 11:26:11.83	252.71	23.96	-39.9	-41.7	19.8	0.00e+00	0	44	0	0	50	4657
2026-01-18 11:26:12.57	252.91	23.99	-40.0	-41.7	19.8	0.00e+00	0	44	0	0	50	4700
2026-01-18 11:26:13.85	253.26	24.04	-39.9	-41.6	19.9	0.00e+00	0	44	0	0	50	4638
2026-01-18 11:26:14.57	253.46	24.07	-39.9	-41.6	19.9	0.00e+00	0	44	0	0	50	4629
2026-01-18 11:26:15.86	253.81	24.12	-39.7	-41.4	20.1	0.00e+00	0	44	0	0	50	4495
2026-01-18 11:26:16.57	254.01	24.15	-39.7	-41.4	20.1	0.00e+00	0	44	0	0	50	4503
2026-01-18 11:26:17.85	254.36	24.20	-39.8	-41.5	20.0	0.00e+00	0	43	0	0	50	4549
2026-01-18 11:26:18.56	254.56	24.23	-39.8	-41.5	19.9	0.00e+00	0	43	0	0	50	4570
2026-01-18 11:26:19.84	254.92	24.27	-39.8	-41.4	20.0	0.00e+00	0	43	0	0	50	4540
2026-01-18 11:26:20.56	255.12	24.30	-39.7	-41.4	20.0	0.00e+00	0	43	0	0	50	4529
2026-01-18 11:26:21.84	255.48	24.35	-39.7	-41.4	20.0	0.00e+00	0	43	0	0	50	4507
2026-01-18 11:26:22.55	255.68	24.37	-39.7	-41.4	20.0	0.00e+00	0	43	0	0	50	4539
2026-01-18 11:26:23.83	256.04	24.42	-39.6	-41.3	20.2	0.00e+00	0	43	0	0	50	4456
2026-01-18 11:26:24.56	256.24	24.44	-39.5	-41.2	20.1	0.00e+00	0	43	0	0	50	4433
2026-01-18 11:26:25.84	256.60	24.48	-39.6	-41.3	20.0	0.00e+00	0	44	0	0	50	4460
2026-01-18 11:26:26.57	256.81	24.51	-39.7	-41.4	20.0	0.00e+00	0	43	0	0	50	4497
2026-01-18 11:26:27.85	257.17	24.55	-39.7	-41.4	20.0	0.00e+00	0	44	0	0	50	4494
2026-01-18 11:26:28.56	257.37	24.57	-39.6	-41.3	20.1	0.00e+00	0	44	0	0	50	4453
2026-01-18 11:26:29.84	257.74	24.61	-39.6	-41.2	20.1	0.00e+00	0	43	0	0	50	4441
2026-01-18 11:26:30.57	257.94	24.63	-39.6	-41.3	20.1	0.00e+00	0	43	0	0	50	4473
2026-01-18 11:26:31.85	258.31	24.67	-39.5	-41.2	20.2	0.00e+00	0	44	0	0	50	4404
2026-01-18 11:26:32.61	258.53	24.69	-39.5	-41.2	20.2	0.00e+00	0	44	0	0	50	4426
2026-01-18 11:26:33.89	258.89	24.73	-39.6	-41.3	20.1	0.00e+00	0	44	0	0	50	4462
2026-01-18 11:26:34.60	259.10	24.75	-39.6	-41.3	20.1	0.00e+00	0	43	0	0	50	4455
2026-01-18 11:26:36.22	259.56	24.79	-39.6	-41.3	20.1	0.00e+00	0	43	0	0	50	4470
2026-01-18 11:26:36.79	259.73	24.80	-39.6	-41.3	20.1	0.00e+00	0	44	0	0	50	4463
2026-01-18 11:26:38.50	260.22	24.85	-39.5	-41.2	20.2	0.00e+00	0	44	0	0	50	4416
2026-01-18 11:26:39.11	260.40	24.86	-39.5	-41.2	20.2	0.00e+00	0	43	0	0	50	4415
2026-01-18 11:26:40.68	260.85	24.90	-39.5	-41.2	20.1	0.00e+00	0	43	0	0	50	4432
2026-01-18 11:26:41.34	261.04	24.91	-39.5	-41.2	20.1	0.00e+00	0	44	0	0	50	4428
2026-01-18 11:26:42.76	261.45	24.94	-39.5	-41.2	20.2	0.00e+00	0	44	0	0	50	4416
2026-01-18 11:26:43.47	261.66	24.96	-39.6	-41.3	20.2	0.00e+00	0	44	0	0	50	4443
2026-01-18 11:26:44.75	262.03	24.98	-39.2	-40.9	20.5	0.00e+00	0	44	0	0	50	4251
2026-01-18 11:26:45.49	262.25	25.00	-39.2	-40.9	20.5	0.00e+00	0	44	0	0	50	4249
2026-01-18 11:26:46.77	262.62	25.02	-39.3	-40.9	20.5	0.00e+00	0	44	0	0	50	4290
2026-01-18 11:26:47.49	262.83	25.03	-39.2	-40.8	20.6	0.00e+00	0	44	0	0	50	4216
2026-01-18 11:26:48.77	263.21	25.06	-39.2	-40.9	20.5	0.00e+00	0	43	0	0	50	4268
2026-01-18 11:26:49.48	263.42	25.07	-39.3	-40.9	20.5	0.00e+00	0	43	0	0	50	4290
2026-01-18 11:26:50.76	263.79	25.09	-39.3	-41.0	20.4	0.00e+00	0	43	0	0	50	4304
2026-01-18 11:26:51.50	264.01	25.10	-39.2	-40.9	20.5	0.00e+00	0	43	0	0	50	4259
2026-01-18 11:26:52.78	264.38	25.12	-39.3	-41.0	20.4	0.00e+00	0	44	0	0	50	4301
2026-01-18 11:26:53.49	264.59	25.13	-39.3	-41.0	20.3	0.00e+00	0	43	0	0	50	4292
2026-01-18 11:26:54.77	264.97	25.14	-39.3	-40.9	20.3	0.00e+00	0	44	0	0	50	4282
2026-01-18 11:26:55.50	265.18	25.15	-39.2	-40.9	20.4	0.00e+00	0	44	0	0	50	4261
2026-01-18 11:26:56.79	265.56	25.16	-39.3	-40.9	20.3	0.00e+00	0	44	0	0	50	4291
2026-01-18 11:26:57.50	265.77	25.17	-39.3	-41.0	20.3	0.00e+00	0	43	0	0	50	4303
2026-01-18 11:26:58.78	266.15	25.18	-39.2	-40.8	20.5	0.00e+00	0	44	0	0	50	4220
2026-01-18 11:26:59.49	266.36	25.19	-39.2	-40.9	20.4	0.00e+00	0	44	0	0	50	4258
2026-01-18 11:27:00.77	266.74	25.20	-39.2	-40.8	20.5	0.00e+00	0	44	0	0	50	4217
2026-01-18 11:27:01.49	266.95	25.20	-39.2	-40.8	20.4	0.00e+00	0	43	0	0	50	4220
2026-01-18 11:27:02.76	267.32	25.21	-39.4	-41.0	20.3	0.00e+00	0	44	0	0	50	4333
2026-01-18 11:27:03.49	267.54	25.21	-39.4	-41.1	20.3	0.00e+00	0	43	0	0	50	4346
2026-01-18 11:27:04.77	267.92	25.22	-39.5	-41.2	20.3	0.00e+00	0	44	0	0	50	4393
2026-01-18 11:27:05.49	268.13	25.22	-39.3	-41.0	20.4	0.00e+00	0	43	0	0	50	4321
2026-01-18 11:27:06.78	268.51	25.23	-39.4	-41.0	20.3	0.00e+00	0	43	0	0	50	4329
2026-01-18 11:27:07.49	268.72	25.23	-39.5	-41.1	20.2	0.00e+00	0	44	0	0	50	4389
2026-01-18 11:27:08.77	269.10	25.23	-39.5	-41.2	20.1	0.00e+00	0	44	0	0	50	4398
2026-01-18 11:27:09.71	269.38	25.23	-39.5	-41.2	20.1	0.00e+00	0	43	0	0	50	4411
2026-01-18 11:27:10.70	269.67	25.23	-39.4	-41.0	20.3	0.00e+00	0	43	0	0	50	4338
2026-01-18 11:27:11.70	269.96	25.23	-39.4	-41.0	20.3	0.00e+00	0	43	0	0	50	4333
2026-01-18 11:27:12.70	270.26	25.23	-39.2	-40.8	20.5	0.00e+00	0	44	0	0	50	4229
2026-01-18 11:27:13.69	270.55	25.22	-39.0	-40.7	20.6	0.00e+00	0	43	0	0	50	4151
2026-01-18 11:27:14.69	270.85	25.22	-39.1	-40.7	20.5	0.00e+00	0	43	0	0	50	4190
2026-01-18 11:27:15.68	271.14	25.22	-39.2	-40.8	20.5	0.00e+00	0	43	0	0	50	4212
2026-01-18 11:27:16.67	271.43	25.21	-39.2	-40.9	20.4	0.00e+00	0	44	0	0	50	4253
2026-01-18 11:27:17.67	271.73	25.21	-39.3	-41.0	20.4	0.00e+00	0	43	0	0	50	4305
2026-01-18 11:27:18.67	272.02	25.20	-39.4	-41.0	20.3	0.00e+00	0	43	0	0	50	4322
2026-01-18 11:27:19.66	272.31	25.19	-39.4	-41.0	20.3	0.00e+00	0	43	0	0	50	4335
2026-01-18 11:27:20.66	272.61	25.18	-39.4	-41.1	20.2	0.00e+00	0	43	0	0	50	4353
2026-01-18 11:27:21.65	272.90	25.17	-39.3	-41.0	20.3	0.00e+00	0	44	0	0	50	4316
2026-01-18 11:27:22.65	273.20	25.16	-39.2	-40.9	20.5	0.00e+00	0	44	0	0	50	4253
2026-01-18 11:27:23.64	273.49	25.15	-39.2	-40.8	20.5	0.00e+00	0	43	0	0	50	4231
2026-01-18 11:27:24.63	273.78	25.14	-39.2	-40.9	20.5	0.00e+00	0	43	0	0	50	4248
2026-01-18 11:27:25.63	274.07	25.13	-39.2	-40.8	20.6	0.00e+00	0	44	0	0	50	4230
2026-01-18 11:27:26.63	274.36	25.12	-39.2	-40.9	20.5	0.00e+00	0	44	0	0	50	4260
2026-01-18 11:27:27.62	274.66	25.10	-39.1	-40.8	20.6	0.00e+00	0	43	0	0	50	4195
2026-01-18 11:27:28.62	274.95	25.09	-39.2	-40.9	20.5	0.00e+00	0	44	0	0	50	4249
2026-01-18 11:27:29.61	275.24	25.08	-39.3	-41.0	20.4	0.00e+00	0	43	0	0	50	4302
2026-01-18 11:27:30.61	275.53	25.06	-39.3	-40.9	20.5	0.00e+00	0	43	0	0	50	4270
2026-01-18 11:27:31.60	275.82	25.04	-39.2	-40.8	20.6	0.00e+00	0	44	0	0	50	4216
2026-01-18 11:27:32.60	276.11	25.03	-39.2	-40.9	20.5	0.00e+00	0	44	0	0	50	4260
2026-01-18 11:27:33.59	276.40	25.01	-39.1	-40.7	20.6	0.00e+00	0	44	0	0	50	4188
2026-01-18 11:27:34.59	276.69	24.99	-39.1	-40.8	20.6	0.00e+00	0	43	0	0	50	4197
2026-01-18 11:27:35.83	277.05	24.96	-39.3	-40.9	20.5	0.00e+00	0	44	0	0	50	4285
2026-01-18 11:27:36.73	277.31	24.95	-39.3	-41.0	20.4	0.00e+00	0	43	0	0	50	4298
2026-01-18 11:27:37.85	277.64	24.92	-39.2	-40.9	20.5	0.00e+00	0	44	0	0	50	4266
2026-01-18 11:27:38.70	277.88	24.90	-39.2	-40.9	20.6	0.00e+00	0	43	0	0	50	4251
2026-01-18 11:27:40.08	278.28	24.87	-39.2	-40.8	20.6	0.00e+00	0	43	0	0	50	4240
2026-01-18 11:27:40.79	278.49	24.85	-39.3	-40.9	20.5	0.00e+00	0	43	0	0	50	4275
2026-01-18 11:27:42.06	278.85	24.82	-39.3	-41.0	20.4	0.00e+00	0	43	0	0	50	4293
2026-01-18 11:27:42.80	279.07	24.80	-39.3	-41.0	20.4	0.00e+00	0	43	0	0	50	4306
2026-01-18 11:27:44.08	279.43	24.77	-39.4	-41.1	20.4	0.00e+00	0	44	0	0	50	4342
2026-01-18 11:27:44.79	279.64	24.75	-39.3	-41.0	20.5	0.00e+00	0	44	0	0	50	4295
2026-01-18 11:27:46.07	280.00	24.72	-39.0	-40.7	20.7	0.00e+00	0	43	0	0	50	4150
2026-01-18 11:27:46.80	280.21	24.70	-38.9	-40.6	20.8	0.00e+00	0	43	0	0	50	4101
2026-01-18 11:27:48.08	280.58	24.66	-39.0	-40.6	20.7	0.00e+00	0	43	0	0	49	4369
2026-01-18 11:27:48.90	280.81	24.64	-39.0	-40.6	20.7	0.00e+00	0	44	0	0	49	4373
2026-01-18 11:27:50.03	281.13	24.60	-39.0	-40.6	20.7	0.00e+00	0	43	0	0	49	4358
2026-01-18 11:27:50.89	281.38	24.58	-39.0	-40.6	20.7	0.00e+00	0	43	0	0	49	4391
2026-01-18 11:27:52.02	281.70	24.54	-39.0	-40.7	20.7	0.00e+00	0	44	0	0	49	4398
2026-01-18 11:27:52.87	281.94	24.51	-39.2	-40.8	20.6	0.00e+00	0	44	0	0	49	4486
2026-01-18 11:27:54.01	282.26	24.48	-39.4	-41.0	20.4	0.00e+00	0	44	0	0	49	4584
2026-01-18 11:27:54.86	282.50	24.45	-39.2	-40.8	20.5	0.00e+00	0	43	0	0	49	4493
2026-01-18 11:27:56.00	282.82	24.41	-39.2	-40.8	20.5	0.00e+00	0	43	0	0	49	4454
2026-01-18 11:27:56.85	283.06	24.38	-39.2	-40.8	20.5	0.00e+00	0	43	0	0	49	4493
2026-01-18 11:27:57.99	283.37	24.34	-39.2	-40.8	20.6	0.00e+00	0	44	0	0	49	4465
2026-01-18 11:27:58.84	283.61	24.31	-39.1	-40.8	20.6	0.00e+00	0	43	0	0	49	4450
2026-01-18 11:28:00.07	283.95	24.26	-39.2	-40.8	20.6	0.00e+00	0	43	0	0	49	4452
2026-01-18 11:28:00.93	284.19	24.23	-39.1	-40.7	20.7	0.00e+00	0	43	0	0	49	4416
2026-01-18 11:28:02.07	284.51	24.19	-39.3	-40.9	20.6	0.00e+00	0	43	0	0	49	4511
2026-01-18 11:28:02.92	284.74	24.15	-39.3	-40.9	20.5	0.00e+00	0	43	0	0	49	4542
2026-01-18 11:28:04.06	285.06	24.11	-39.5	-41.1	20.3	0.00e+00	0	44	0	0	49	4632
2026-01-18 11:28:05.02	285.32	24.07	-39.4	-41.1	20.3	0.00e+00	0	44	0	0	49	4626
2026-01-18 11:28:06.02	285.60	24.03	-39.5	-41.1	20.3	0.00e+00	0	44	0	0	49	4646
2026-01-18 11:28:07.01	285.87	23.99	-39.3	-41.0	20.4	0.00e+00	0	44	0	0	49	4566
2026-01-18 11:28:08.01	286.14	23.95	-39.4	-41.1	20.4	0.00e+00	0	43	0	0	49	4621
2026-01-18 11:28:09.00	286.41	23.91	-39.2	-40.9	20.5	0.00e+00	0	43	0	0	49	4499
2026-01-18 11:28:10.00	286.68	23.86	-39.2	-40.8	20.6	0.00e+00	0	44	0	0	49	4492
2026-01-18 11:28:10.99	286.95	23.82	-39.3	-41.0	20.5	0.00e+00	0	43	0	0	49	4560
2026-01-18 11:28:11.99	287.22	23.78	-39.2	-40.9	20.6	0.00e+00	0	44	0	0	49	4508
2026-01-18 11:28:12.98	287.48	23.73	-39.3	-41.0	20.5	0.00e+00	0	43	0	0	49	4578
2026-01-18 11:28:13.98	287.75	23.69	-39.4	-41.0	20.5	0.00e+00	0	44	0	0	49	4595
2026-01-18 11:28:14.97	288.02	23.64	-39.3	-40.9	20.5	0.00e+00	0	44	0	0	49	4529
2026-01-18 11:28:15.96	288.28	23.60	-39.4	-41.0	20.4	0.00e+00	0	43	0	0	49	4592
2026-01-18 11:28:16.96	288.55	23.55	-39.4	-41.1	20.3	0.00e+00	0	43	0	0	49	4633
2026-01-18 11:28:17.95	288.81	23.50	-39.5	-41.1	20.3	0.00e+00	0	44	0	0	49	4647
2026-01-18 11:28:18.95	289.07	23.45	-39.4	-41.0	20.4	0.00e+00	0	44	0	0	49	4597
2026-01-18 11:28:19.94	289.34	23.41	-39.5	-41.2	20.3	0.00e+00	0	44	0	0	49	4659
2026-01-18 11:28:20.94	289.60	23.36	-39.3	-41.0	20.5	0.00e+00	0	43	0	0	49	4568
2026-01-18 11:28:21.93	289.86	23.31	-39.3	-41.0	20.5	0.00e+00	0	43	0	0	49	4546
2026-01-18 11:28:22.93	290.12	23.26	-39.4	-41.0	20.4	0.00e+00	0	44	0	0	49	4592
2026-01-18 11:28:23.92	290.38	23.21	-39.4	-41.1	20.3	0.00e+00	0	43	0	0	49	4628
2026-01-18 11:28:24.92	290.64	23.16	-39.4	-41.1	20.4	0.00e+00	0	44	0	0	49	4630
2026-01-18 11:28:25.91	290.89	23.11	-39.5	-41.2	20.3	0.00e+00	0	43	0	0	49	4688
2026-01-18 11:28:26.91	291.15	23.05	-39.4	-41.0	20.4	0.00e+00	0	43	0	0	49	4597
2026-01-18 11:28:27.90	291.40	23.00	-39.5	-41.1	20.3	0.00e+00	0	43	0	0	49	4650
2026-01-18 11:28:28.90	291.66	22.95	-39.5	-41.2	20.2	0.00e+00	0	44	0	0	49	4678
2026-01-18 11:28:29.89	291.91	22.90	-39.5	-41.2	20.2	0.00e+00	0	44	0	0	49	4686
2026-01-18 11:28:30.89	292.17	22.84	-39.6	-41.3	20.1	0.00e+00	0	44	0	0	49	4746
2026-01-18 11:28:31.89	292.42	22.79	-39.8	-41.4	20.0	0.00e+00	0	44	0	0	50	4538
2026-01-18 11:28:32.88	292.67	22.73	-39.6	-41.3	20.2	0.00e+00	0	44	0	0	50	4457
2026-01-18 11:28:33.96	292.94	22.67	-39.7	-41.4	20.1	0.00e+00	0	44	0	0	50	4507
2026-01-18 11:28:34.81	293.16	22.63	-39.6	-41.3	20.2	0.00e+00	0	44	0	0	50	4446
2026-01-18 11:28:36.15	293.49	22.55	-39.5	-41.2	20.2	0.00e+00	0	44	0	0	50	4421
2026-01-18 11:28:36.86	293.67	22.51	-39.7	-41.4	20.1	0.00e+00	0	43	0	0	50	4495
2026-01-18 11:28:38.14	293.99	22.44	-39.8	-41.5	19.9	0.00e+00	0	44	0	0	50	4584
2026-01-18 11:28:38.86	294.16	22.40	-39.7	-41.4	20.0	0.00e+00	0	43	0	0	50	4516
2026-01-18 11:28:40.14	294.48	22.32	-39.8	-41.5	20.0	0.00e+00	0	44	0	0	50	4560
2026-01-18 11:28:40.87	294.66	22.28	-39.7	-41.4	20.0	0.00e+00	0	44	0	0	50	4534
2026-01-18 11:28:42.15	294.97	22.21	-39.6	-41.2	20.2	0.00e+00	0	44	0	0	50	4432
2026-01-18 11:28:42.87	295.15	22.16	-39.5	-41.2	20.2	0.00e+00	0	43	0	0	50	4397
2026-01-18 11:28:44.15	295.46	22.09	-39.5	-41.2	20.1	0.00e+00	0	43	0	0	50	4421
2026-01-18 11:28:44.86	295.63	22.04	-39.5	-41.2	20.2	0.00e+00	0	44	0	0	50	4423
2026-01-18 11:28:46.16	295.94	21.97	-39.6	-41.3	20.1	0.00e+00	0	44	0	0	50	4444
2026-01-18 11:28:46.87	296.11	21.92	-39.6	-41.3	20.1	0.00e+00	0	44	0	0	50	4460
2026-01-18 11:28:48.15	296.42	21.85	-39.7	-41.3	20.1	0.00e+00	0	44	0	0	50	4483
2026-01-18 11:28:49.09	296.64	21.79	-39.6	-41.3	20.1	0.00e+00	0	44	0	0	50	4489
2026-01-18 11:28:50.39	296.95	21.71	-39.6	-41.3	20.1	0.00e+00	0	44	0	0	50	4449
2026-01-18 11:28:51.10	297.12	21.66	-39.6	-41.4	20.0	0.00e+00	0	43	0	0	50	4498
2026-01-18 11:28:52.73	297.50	21.56	-39.6	-41.3	20.1	0.00e+00	0	44	0	0	50	4472
2026-01-18 11:28:53.30	297.64	21.53	-39.7	-41.4	20.0	0.00e+00	0	44	0	0	50	4526
2026-01-18 11:28:55.00	298.03	21.42	-39.8	-41.5	19.9	0.00e+00	0	43	0	0	50	4583
2026-01-18 11:28:55.57	298.16	21.38	-39.7	-41.5	20.0	0.00e+00	0	44	0	0	50	4547
2026-01-18 11:28:57.27	298.56	21.28	-39.5	-41.1	20.3	0.00e+00	0	44	0	0	50	4381
2026-01-18 11:28:57.84	298.69	21.24	-39.5	-41.2	20.2	0.00e+00	0	44	0	0	50	4413
2026-01-18 11:28:59.55	299.08	21.13	-39.6	-41.3	20.1	0.00e+00	0	43	0	0	50	4450
2026-01-18 11:29:00.11	299.20	21.09	-39.6	-41.3	20.1	0.00e+00	0	43	0	0	50	4473
2026-01-18 11:29:01.88	299.61	20.98	-39.8	-41.5	19.9	0.00e+00	0	43	0	0	50	4595
2026-01-18 11:29:02.45	299.73	20.94	-39.8	-41.5	19.9	0.00e+00	0	43	0	0	50	4587
2026-01-18 11:29:04.15	300.12	20.83	-39.8	-41.5	19.9	0.00e+00	0	44	0	0	50	4570
2026-01-18 11:29:04.72	300.24	20.79	-39.8	-41.5	20.0	0.00e+00	0	43	0	0	50	4549
2026-01-18 11:29:06.50	300.64	20.67	-39.7	-41.4	20.0	0.00e+00	0	44	0	0	50	4520
2026-01-18 11:29:07.07	300.76	20.63	-39.6	-41.3	20.1	0.00e+00	0	43	0	0	50	4442
2026-01-18 11:29:08.76	301.14	20.52	-39.6	-41.3	20.1	0.00e+00	0	44	0	0	50	4442
2026-01-18 11:29:09.51	301.30	20.47	-39.6	-41.3	20.1	0.00e+00	0	44	0	0	50	4462
2026-01-18 11:29:10.79	301.58	20.39	-39.6	-41.3	20.1	0.00e+00	0	43	0	0	50	4479
2026-01-18 11:29:11.51	301.74	20.34	-39.7	-41.4	20.0	0.00e+00	0	44	0	0	50	4522
2026-01-18 11:29:12.79	302.01	20.25	-39.8	-41.5	20.0	0.00e+00	0	43	0	0	50	4551
2026-01-18 11:29:13.50	302.16	20.20	-39.8	-41.5	19.9	0.00e+00	0	43	0	0	50	4588
2026-01-18 11:29:14.78	302.44	20.11	-39.9	-41.6	19.8	0.00e+00	0	44	0	0	50	4639
2026-01-18 11:29:15.50	302.59	20.07	-40.0	-41.7	19.7	0.00e+00	0	43	0	0	50	4677
2026-01-18 11:29:16.78	302.86	19.98	-40.0	-41.8	19.7	0.00e+00	0	44	0	0	50	4715
2026-01-18 11:29:17.49	303.01	19.93	-39.9	-41.7	19.8	0.00e+00	0	44	0	0	50	4656
2026-01-18 11:29:18.77	303.28	19.84	-40.0	-41.7	19.7	0.00e+00	0	43	0	0	50	4700
2026-01-18 11:29:19.48	303.43	19.79	-40.0	-41.7	19.7	0.00e+00	0	44	0	0	50	4677
2026-01-18 11:29:20.76	303.70	19.70	-39.9	-41.6	19.7	0.00e+00	0	44	0	0	50	4651
2026-01-18 11:29:21.47	303.85	19.65	-39.9	-41.6	19.7	0.00e+00	0	44	0	0	50	4642
2026-01-18 11:29:22.75	304.11	19.56	-39.8	-41.5	19.7	0.00e+00	0	44	0	0	50	4597
2026-01-18 11:29:23.57	304.28	19.51	-39.9	-41.7	19.6	0.00e+00	0	43	0	0	50	4655
2026-01-18 11:29:24.71	304.51	19.43	-39.8	-41.5	19.8	0.00e+00	0	44	0	0	50	4569
2026-01-18 11:29:25.56	304.69	19.37	-39.7	-41.4	19.9	0.00e+00	0	44	0	0	50	4535
2026-01-18 11:29:26.70	304.92	19.29	-39.8	-41.5	19.9	0.00e+00	0	43	0	0	50	4579
2026-01-18 11:29:27.80	305.14	19.21	-39.8	-41.5	19.9	0.00e+00	0	44	0	0	50	4567
2026-01-18 11:29:28.82	305.35	19.14	-39.9	-41.6	19.8	0.00e+00	0	43	0	0	50	4627
2026-01-18 11:29:29.99	305.58	19.05	-39.9	-41.6	19.8	0.00e+00	0	44	0	0	50	4630
2026-01-18 11:29:30.85	305.75	18.99	-40.0	-41.8	19.6	0.00e+00	0	44	0	0	50	4724
2026-01-18 11:29:31.98	305.97	18.91	-40.1	-41.8	19.5	0.00e+00	0	44	0	0	50	4752
2026-01-18 11:29:32.84	306.14	18.85	-40.1	-41.9	19.5	0.00e+00	0	44	0	0	50	4764
2026-01-18 11:29:33.97	306.37	18.77	-40.0	-41.7	19.6	0.00e+00	0	44	0	0	51	4427
2026-01-18 11:29:34.82	306.53	18.71	-39.8	-41.6	19.7	0.00e+00	0	44	0	0	51	4346
2026-01-18 11:29:35.96	306.75	18.63	-39.7	-41.4	19.8	0.00e+00	0	44	0	0	51	4281
2026-01-18 11:29:36.81	306.92	18.57	-39.8	-41.5	19.8	0.00e+00	0	44	0	0	51	4331
2026-01-18 11:29:37.95	307.14	18.49	-39.7	-41.4	19.9	0.00e+00	0	44	0	0	51	4283
2026-01-18 11:29:38.80	307.30	18.43	-39.8	-41.5	19.8	0.00e+00	0	44	0	0	51	4336
2026-01-18 11:29:39.94	307.52	18.34	-40.0	-41.7	19.8	0.00e+00	0	44	0	0	51	4403
2026-01-18 11:29:40.79	307.68	18.28	-39.8	-41.5	19.9	0.00e+00	0	44	0	0	51	4316
2026-01-18 11:29:41.93	307.90	18.20	-39.9	-41.6	19.9	0.00e+00	0	44	0	0	51	4348
2026-01-18 11:29:42.78	308.06	18.14	-39.8	-41.5	20.0	0.00e+00	0	44	0	0	51	4305
2026-01-18 11:29:44.08	308.30	18.04	-39.7	-41.4	20.0	0.00e+00	0	44	0	0	51	4266
2026-01-18 11:29:44.79	308.43	17.99	-39.8	-41.5	19.9	0.00e+00	0	44	0	0	51	4312
2026-01-18 11:29:46.07	308.67	17.90	-39.8	-41.6	19.9	0.00e+00	0	44	0	0	51	4349
2026-01-18 11:29:46.81	308.81	17.85	-39.9	-41.6	19.8	0.00e+00	0	44	0	0	51	4355
2026-01-18 11:29:48.08	309.04	17.76	-40.1	-41.8	19.7	0.00e+00	0	44	0	0	51	4472
2026-01-18 11:29:48.82	309.18	17.70	-40.0	-41.7	19.7	0.00e+00	0	44	0	0	51	4433
2026-01-18 11:29:50.10	309.41	17.61	-40.0	-41.8	19.7	0.00e+00	0	44	0	0	51	4454
2026-01-18 11:29:50.83	309.54	17.56	-40.0	-41.7	19.7	0.00e+00	0	44	0	0	51	4424
2026-01-18 11:29:52.11	309.78	17.46	-40.0	-41.8	19.7	0.00e+00	0	44	0	0	51	4452
2026-01-18 11:29:52.82	309.90	17.41	-40.0	-41.7	19.7	0.00e+00	0	43	0	0	51	4425
2026-01-18 11:29:54.10	310.13	17.32	-39.9	-41.6	19.8	0.00e+00	0	44	0	0	51	4389
2026-01-18 11:29:54.84	310.26	17.26	-39.9	-41.7	19.8	0.00e+00	0	44	0	0	51	4399
2026-01-18 11:29:56.12	310.49	17.17	-40.0	-41.8	19.7	0.00e+00	0	44	0	0	51	4455
2026-01-18 11:29:56.84	310.62	17.12	-40.0	-41.7	19.7	0.00e+00	0	44	0	0	51	4440
2026-01-18 11:29:58.12	310.84	17.02	-39.9	-41.7	19.7	0.00e+00	0	43	0	0	51	4410
2026-01-18 11:29:58.85	310.97	16.97	-39.9	-41.7	19.7	0.00e+00	0	44	0	0	51	4407
2026-01-18 11:30:00.17	311.20	16.87	-39.9	-41.7	19.7	0.00e+00	0	44	0	0	51	4406
2026-01-18 11:30:00.88	311.32	16.82	-40.0	-41.8	19.6	0.00e+00	0	44	0	0	51	4461
2026-01-18 11:30:02.23	311.55	16.72	-40.1	-41.8	19.6	0.00e+00	0	44	0	0	51	4481
2026-01-18 11:30:02.94	311.68	16.67	-40.1	-41.8	19.6	0.00e+00	0	43	0	0	51	4469
2026-01-18 11:30:04.27	311.90	16.57	-40.1	-41.8	19.6	0.00e+00	0	44	0	0	51	4476
2026-01-18 11:30:04.98	312.02	16.52	-40.1	-41.8	19.6	0.00e+00	0	44	0	0	51	4477
2026-01-18 11:30:06.26	312.24	16.43	-40.1	-41.9	19.6	0.00e+00	0	43	0	0	51	4506
2026-01-18 11:30:07.31	312.42	16.35	-40.1	-41.9	19.5	0.00e+00	0	44	0	0	51	4522
2026-01-18 11:30:08.17	312.56	16.29	-40.2	-42.0	19.4	0.00e+00	0	44	0	0	51	4578
2026-01-18 11:30:09.30	312.75	16.20	-40.1	-41.9	19.6	0.00e+00	0	43	0	0	51	4499
2026-01-18 11:30:10.15	312.89	16.14	-40.2	-42.0	19.5	0.00e+00	0	43	0	0	51	4554
2026-01-18 11:30:11.29	313.08	16.06	-40.2	-41.9	19.5	0.00e+00	0	43	0	0	51	4536
2026-01-18 11:30:12.14	313.22	16.00	-40.1	-41.9	19.5	0.00e+00	0	44	0	0	51	4500
2026-01-18 11:30:13.42	313.43	15.90	-40.1	-41.9	19.5	0.00e+00	0	44	0	0	51	4524
2026-01-18 11:30:14.15	313.54	15.85	-40.2	-42.0	19.4	0.00e+00	0	44	0	0	51	4548
2026-01-18 11:30:15.43	313.75	15.76	-40.3	-42.1	19.3	0.00e+00	0	44	0	0	51	4644
2026-01-18 11:30:16.14	313.87	15.70	-40.4	-42.3	19.2	0.00e+00	0	43	0	0	51	4709
2026-01-18 11:30:17.42	314.07	15.61	-40.4	-42.2	19.2	0.00e+00	0	44	0	0	51	4685
2026-01-18 11:30:18.13	314.18	15.56	-40.6	-42.4	19.1	0.00e+00	0	44	0	0	51	4769
2026-01-18 11:30:19.41	314.39	15.46	-40.5	-42.4	19.1	0.00e+00	0	44	0	0	51	4767
2026-01-18 11:30:20.13	314.50	15.41	-40.7	-42.5	18.9	0.00e+00	0	44	0	0	51	4854
2026-01-18 11:30:21.41	314.70	15.32	-40.5	-42.4	19.0	0.00e+00	0	44	0	0	52	4510
2026-01-18 11:30:22.30	314.84	15.25	-40.5	-42.4	19.0	0.00e+00	0	44	0	0	52	4503
2026-01-18 11:30:23.43	315.02	15.17	-40.7	-42.5	18.8	0.00e+00	0	44	0	0	52	4598
2026-01-18 11:30:24.29	315.15	15.11	-40.6	-42.5	18.9	0.00e+00	0	43	0	0	52	4560
2026-01-18 11:30:25.42	315.32	15.02	-40.8	-42.6	18.7	0.00e+00	0	44	0	0	52	4645
2026-01-18 11:30:26.28	315.46	14.96	-40.8	-42.7	18.7	0.00e+00	0	43	0	0	52	4664
2026-01-18 11:30:27.42	315.63	14.88	-40.8	-42.7	18.7	0.00e+00	0	44	0	0	52	4660
2026-01-18 11:30:28.27	315.76	14.82	-40.7	-42.6	18.8	0.00e+00	0	43	0	0	52	4622
2026-01-18 11:30:29.40	315.93	14.73	-40.8	-42.7	18.7	0.00e+00	0	44	0	0	52	4679
2026-01-18 11:30:30.26	316.06	14.67	-40.6	-42.5	18.8	0.00e+00	0	44	0	0	52	4568
2026-01-18 11:30:31.39	316.23	14.59	-40.8	-42.8	18.6	0.00e+00	0	44	0	0	52	4707
2026-01-18 11:30:32.25	316.36	14.53	-40.7	-42.5	18.7	0.00e+00	0	44	0	0	52	4596
2026-01-18 11:30:33.38	316.52	14.44	-40.9	-42.8	18.5	0.00e+00	0	44	0	0	52	4747
2026-01-18 11:30:34.23	316.65	14.38	-40.7	-42.7	18.6	0.00e+00	0	44	0	0	52	4671
2026-01-18 11:30:35.37	316.82	14.30	-40.9	-42.8	18.5	0.00e+00	0	44	0	0	52	4743
2026-01-18 11:30:36.22	316.94	14.24	-41.0	-43.0	18.4	0.00e+00	0	44	0	0	52	4837
2026-01-18 11:30:37.36	317.11	14.16	-40.8	-42.7	18.6	0.00e+00	0	44	0	0	52	4687
2026-01-18 11:30:38.21	317.23	14.09	-40.9	-42.8	18.6	0.00e+00	0	44	0	0	52	4720
2026-01-18 11:30:39.35	317.40	14.01	-40.9	-42.8	18.6	0.00e+00	0	44	0	0	52	4736
2026-01-18 11:30:40.20	317.52	13.95	-41.0	-42.8	18.6	0.00e+00	0	44	0	0	52	4759
2026-01-18 11:30:41.34	317.68	13.87	-40.9	-42.7	18.7	0.00e+00	0	44	0	0	52	4694
2026-01-18 11:30:42.19	317.80	13.81	-40.7	-42.5	18.9	0.00e+00	0	44	0	0	52	4577
2026-01-18 11:30:43.33	317.96	13.72	-40.8	-42.6	18.7	0.00e+00	0	44	0	0	52	4647
2026-01-18 11:30:44.18	318.08	13.66	-40.8	-42.7	18.7	0.00e+00	0	44	0	0	52	4654
2026-01-18 11:30:45.32	318.24	13.58	-40.8	-42.6	18.7	0.00e+00	0	43	0	0	52	4651
2026-01-18 11:30:46.17	318.36	13.52	-41.0	-42.8	18.6	0.00e+00	0	44	0	0	52	4752
2026-01-18 11:30:47.32	318.52	13.44	-41.0	-42.9	18.5	0.00e+00	0	43	0	0	52	4786
2026-01-18 11:30:48.18	318.64	13.37	-41.0	-42.9	18.5	0.00e+00	0	44	0	0	52	4812
2026-01-18 11:30:49.38	318.81	13.29	-41.1	-43.0	18.4	0.00e+00	0	43	0	0	52	4849
2026-01-18 11:30:50.23	318.92	13.23	-41.1	-43.0	18.4	0.00e+00	0	44	0	0	52	4839
2026-01-18 11:30:51.37	319.08	13.14	-41.1	-43.1	18.3	0.00e+00	0	44	0	0	53	4610
2026-01-18 11:30:52.22	319.19	13.08	-41.1	-43.0	18.4	0.00e+00	0	44	0	0	53	4580
2026-01-18 11:30:53.36	319.35	13.00	-41.1	-43.0	18.4	0.00e+00	0	44	0	0	53	4598
2026-01-18 11:30:54.21	319.46	12.94	-41.1	-43.1	18.3	0.00e+00	0	43	0	0	53	4619
2026-01-18 11:30:55.35	319.61	12.86	-41.1	-43.1	18.3	0.00e+00	0	44	0	0	53	4622
2026-01-18 11:30:56.29	319.74	12.79	-41.1	-43.1	18.3	0.00e+00	0	44	0	0	53	4599
2026-01-18 11:30:57.48	319.90	12.71	-41.0	-43.0	18.4	0.00e+00	0	44	0	0	53	4578
2026-01-18 11:30:58.33	320.01	12.65	-41.1	-43.1	18.2	0.00e+00	0	44	0	0	53	4640
2026-01-18 11:30:59.47	320.16	12.57	-41.0	-42.9	18.4	0.00e+00	0	44	0	0	53	4529
2026-01-18 11:31:00.32	320.27	12.51	-41.1	-43.1	18.3	0.00e+00	0	44	0	0	53	4623
2026-01-18 11:31:01.46	320.42	12.42	-40.9	-42.8	18.5	0.00e+00	0	44	0	0	53	4479
2026-01-18 11:31:02.31	320.53	12.36	-41.1	-43.1	18.3	0.00e+00	0	44	0	0	53	4606
2026-01-18 11:31:03.45	320.67	12.28	-41.0	-43.0	18.4	0.00e+00	0	44	0	0	53	4567
2026-01-18 11:31:04.30	320.78	12.22	-40.8	-42.7	18.6	0.00e+00	0	44	0	0	53	4407
2026-01-18 11:31:05.44	320.93	12.14	-40.9	-42.9	18.4	0.00e+00	0	44	0	0	53	4499
2026-01-18 11:31:06.29	321.04	12.08	-41.0	-42.9	18.4	0.00e+00	0	44	0	0	53	4537
2026-01-18 11:31:07.43	321.18	12.00	-41.0	-43.0	18.3	0.00e+00	0	44	0	0	53	4581
2026-01-18 11:31:08.28	321.29	11.94	-41.1	-43.1	18.2	0.00e+00	0	44	0	0	53	4629
2026-01-18 11:31:09.44	321.43	11.86	-41.3	-43.4	18.0	0.00e+00	0	44	0	0	53	4778
2026-01-18 11:31:10.29	321.54	11.80	-41.4	-43.5	17.9	0.00e+00	0	43	0	0	53	4847
2026-01-18 11:31:11.43	321.68	11.72	-41.3	-43.4	18.0	0.00e+00	0	44	0	0	53	4791
2026-01-18 11:31:12.28	321.79	11.66	-41.3	-43.4	18.0	0.00e+00	0	44	0	0	53	4794
2026-01-18 11:31:13.53	321.94	11.57	-41.4	-43.5	18.0	0.00e+00	0	43	0	0	53	4830
2026-01-18 11:31:14.38	322.04	11.51	-41.3	-43.4	18.1	0.00e+00	0	44	0	0	53	4771
2026-01-18 11:31:15.58	322.19	11.43	-41.3	-43.3	18.1	0.00e+00	0	43	0	0	53	4713
2026-01-18 11:31:16.43	322.29	11.37	-41.4	-43.4	18.0	0.00e+00	0	43	0	0	53	4781
2026-01-18 11:31:17.63	322.44	11.29	-41.3	-43.3	18.1	0.00e+00	0	44	0	0	53	4706
2026-01-18 11:31:18.49	322.54	11.23	-41.3	-43.2	18.2	0.00e+00	0	44	0	0	53	4678
2026-01-18 11:31:19.62	322.68	11.15	-41.2	-43.2	18.2	0.00e+00	0	43	0	0	53	4674
2026-01-18 11:31:20.47	322.78	11.09	-41.2	-43.2	18.1	0.00e+00	0	44	0	0	53	4681
2026-01-18 11:31:21.61	322.91	11.01	-41.2	-43.2	18.1	0.00e+00	0	43	0	0	53	4689
2026-01-18 11:31:22.46	323.01	10.95	-41.3	-43.4	18.0	0.00e+00	0	44	0	0	53	4761
2026-01-18 11:31:23.60	323.15	10.87	-41.1	-43.1	18.2	0.00e+00	0	44	0	0	53	4638
2026-01-18 11:31:24.60	323.26	10.81	-41.1	-43.2	18.1	0.00e+00	0	44	0	0	53	4668
2026-01-18 11:31:25.76	323.40	10.73	-41.1	-43.3	18.0	0.00e+00	0	43	0	0	53	4721
2026-01-18 11:31:26.62	323.50	10.67	-41.0	-43.1	18.1	0.00e+00	0	44	0	0	53	4645
2026-01-18 11:31:27.75	323.63	10.59	-41.0	-43.1	18.1	0.00e+00	0	43	0	0	53	4621
2026-01-18 11:31:28.60	323.73	10.53	-41.2	-43.3	17.9	0.00e+00	0	44	0	0	53	4749
2026-01-18 11:31:29.74	323.86	10.45	-41.2	-43.3	18.0	0.00e+00	0	44	0	0	53	4734
2026-01-18 11:31:30.60	323.95	10.39	-41.2	-43.3	17.9	0.00e+00	0	43	0	0	53	4738
2026-01-18 11:31:31.73	324.08	10.32	-41.3	-43.5	17.8	0.00e+00	0	43	0	0	53	4816
2026-01-18 11:31:32.59	324.18	10.26	-41.1	-43.3	18.0	0.00e+00	0	44	0	0	53	4719
2026-01-18 11:31:33.72	324.31	10.18	-41.5	-43.7	17.6	0.00e+00	0	44	0	0	53	4939
2026-01-18 11:31:34.57	324.40	10.12	-41.4	-43.5	17.8	0.00e+00	0	43	0	0	53	4851
2026-01-18 11:31:35.71	324.53	10.04	-41.3	-43.5	17.9	0.00e+00	0	43	0	0	53	4839
2026-01-18 11:31:36.56	324.62	9.99	-41.4	-43.6	17.8	0.00e+00	0	44	0	0	53	4884
2026-01-18 11:31:37.70	324.75	9.91	-41.3	-43.4	17.9	0.00e+00	0	43	0	0	53	4794
2026-01-18 11:31:38.60	324.85	9.85	-41.2	-43.4	18.0	0.00e+00	0	44	0	0	53	4771
2026-01-18 11:31:39.90	324.99	9.76	-41.2	-43.3	18.0	0.00e+00	0	44	0	0	53	4719
2026-01-18 11:31:40.61	325.07	9.71	-41.2	-43.3	18.0	0.00e+00	0	44	0	0	53	4721
2026-01-18 11:31:41.89	325.20	9.63	-41.1	-43.3	18.0	0.00e+00	0	43	0	0	53	4733
2026-01-18 11:31:42.60	325.28	9.58	-41.3	-43.6	17.8	0.00e+00	0	43	0	0	53	4871
2026-01-18 11:31:43.88	325.42	9.49	-41.1	-43.3	17.9	0.00e+00	0	44	0	0	53	4756
2026-01-18 11:31:44.62	325.50	9.44	-41.2	-43.4	17.9	0.00e+00	0	44	0	0	53	4806
2026-01-18 11:31:45.90	325.63	9.36	-41.4	-43.6	17.7	0.00e+00	0	43	0	0	53	4923
2026-01-18 11:31:46.63	325.71	9.31	-41.1	-43.3	17.9	0.00e+00	0	43	0	0	53	4743
2026-01-18 11:31:48.24	325.88	9.20	-41.2	-43.4	17.9	0.00e+00	0	44	0	0	53	4772
2026-01-18 11:31:48.80	325.94	9.16	-41.3	-43.5	17.8	0.00e+00	0	44	0	0	53	4850
2026-01-18 11:31:50.51	326.12	9.05	-41.4	-43.6	17.6	0.00e+00	0	44	0	0	53	4925
2026-01-18 11:31:51.07	326.18	9.01	-41.4	-43.6	17.7	0.00e+00	0	44	0	0	53	4887
2026-01-18 11:31:52.78	326.35	8.90	-48.8	-63.0	3.8	1.49e+00	0	44	104	0	68	19197
2026-01-18 11:31:53.34	326.41	8.86	-50.0	-63.1	3.8	1.49e+00	0	44	104	0	70	17459
2026-01-18 11:31:55.05	326.58	8.75	-49.8	-63.3	3.8	1.49e+00	0	43	104	0	70	17869
2026-01-18 11:31:55.61	326.64	8.71	-49.7	-63.4	3.8	1.49e+00	0	44	104	0	70	17941
2026-01-18 11:31:57.32	326.82	8.60	-50.1	-63.5	3.8	1.49e+00	0	43	104	0	71	17178
2026-01-18 11:31:57.89	326.87	8.56	-49.5	-63.5	3.8	1.49e+00	0	44	104	0	71	17128
2026-01-18 11:31:59.59	327.04	8.45	-50.3	-63.5	3.8	1.49e+00	0	44	104	0	71	17201
2026-01-18 11:32:00.16	327.10	8.41	-50.1	-63.5	3.8	1.49e+00	0	44	104	0	71	17214
2026-01-18 11:32:02.00	327.28	8.29	-50.3	-63.6	3.8	1.49e+00	0	43	104	0	71	17306
2026-01-18 11:32:02.57	327.34	8.26	-50.3	-63.6	3.8	1.49e+00	0	44	104	0	71	17310
2026-01-18 11:32:04.27	327.51	8.14	-49.9	-63.5	3.8	1.49e+00	0	44	104	0	71	17175
2026-01-18 11:32:05.01	327.58	8.10	-50.4	-63.6	3.8	1.49e+00	0	44	104	0	71	17331
2026-01-18 11:32:06.29	327.70	8.01	-50.6	-63.6	3.8	1.49e+00	0	44	104	0	71	17326
2026-01-18 11:32:07.23	327.79	7.95	-50.5	-63.6	3.8	1.49e+00	0	44	104	0	71	17297
2026-01-18 11:32:08.51	327.92	7.87	-50.5	-63.6	3.8	1.49e+00	0	44	104	0	71	17328
2026-01-18 11:32:09.27	327.99	7.82	-50.6	-63.6	3.8	1.49e+00	0	44	104	0	71	17300
2026-01-18 11:32:10.84	328.14	7.72	-50.4	-63.5	3.8	1.49e+00	0	44	104	0	71	17281
2026-01-18 11:32:11.47	328.20	7.68	-50.4	-63.5	3.8	1.49e+00	0	44	104	0	71	17236
2026-01-18 11:32:13.02	328.35	7.58	-50.3	-63.5	3.8	1.49e+00	0	44	104	0	71	17195
2026-01-18 11:32:13.73	328.41	7.53	-50.2	-63.5	3.8	1.49e+00	0	44	104	0	71	17122
2026-01-18 11:32:15.00	328.53	7.45	-50.2	-63.5	3.8	1.49e+00	0	44	104	0	71	17142
2026-01-18 11:32:15.71	328.60	7.41	-50.3	-63.5	3.8	1.49e+00	0	44	104	0	71	17230
2026-01-18 11:32:16.99	328.72	7.32	-50.2	-63.4	3.8	1.49e+00	0	44	104	0	71	17038
2026-01-18 11:32:17.70	328.79	7.28	-50.2	-63.4	3.8	1.49e+00	0	43	104	0	71	17075
2026-01-18 11:32:18.98	328.90	7.20	-50.2	-63.5	3.8	1.49e+00	0	44	104	0	71	17101
2026-01-18 11:32:19.69	328.97	7.15	-50.2	-63.4	3.8	1.49e+00	0	43	104	0	71	17015
2026-01-18 11:32:20.96	329.09	7.07	-50.2	-63.4	3.8	1.49e+00	0	43	104	0	71	17068
2026-01-18 11:32:21.67	329.15	7.03	-50.2	-63.4	3.8	1.49e+00	0	44	104	0	71	17049
2026-01-18 11:32:22.95	329.27	6.95	-50.2	-63.4	3.8	1.49e+00	0	44	104	0	71	17008
2026-01-18 11:32:23.66	329.33	6.90	-50.2	-63.4	3.8	1.49e+00	0	43	104	0	71	17048
2026-01-18 11:32:24.94	329.45	6.82	-50.2	-63.4	3.8	1.49e+00	0	44	104	0	71	17043
2026-01-18 11:32:25.66	329.51	6.77	-50.2	-63.4	3.8	1.49e+00	0	44	104	0	71	17025
2026-01-18 11:32:26.94	329.62	6.69	-50.2	-63.4	3.8	1.49e+00	0	43	104	0	71	17020
2026-01-18 11:32:27.65	329.69	6.65	-50.2	-63.4	3.8	1.49e+00	0	44	104	0	71	17055
2026-01-18 11:32:28.92	329.80	6.57	-50.2	-63.4	3.8	1.49e+00	0	44	104	0	71	17067
2026-01-18 11:32:29.65	329.87	6.52	-50.2	-63.4	3.8	1.49e+00	0	44	104	0	71	17045
2026-01-18 11:32:30.93	329.98	6.44	-50.2	-63.4	3.8	1.49e+00	0	44	104	0	71	17030
2026-01-18 11:32:31.64	330.04	6.40	-50.2	-63.4	3.8	1.49e+00	0	44	104	0	71	17066
2026-01-18 11:32:32.91	330.15	6.32	-50.2	-63.4	3.8	1.49e+00	0	44	104	0	71	17079
2026-01-18 11:32:33.62	330.21	6.28	-50.2	-63.4	3.8	1.49e+00	0	44	104	0	71	17067
2026-01-18 11:32:34.90	330.32	6.20	-50.2	-63.4	3.8	1.49e+00	0	44	104	0	71	17007
2026-01-18 11:32:35.63	330.39	6.15	-50.2	-63.4	3.8	1.49e+00	0	43	104	0	71	17038
2026-01-18 11:32:36.90	330.49	6.07	-50.2	-63.4	3.8	1.49e+00	0	44	104	0	71	16999
2026-01-18 11:32:37.63	330.56	6.03	-50.2	-63.4	3.8	1.49e+00	0	43	104	0	71	17022
2026-01-18 11:32:38.91	330.67	5.95	-50.2	-63.4	3.8	1.49e+00	0	44	104	0	71	17023
2026-01-18 11:32:39.62	330.73	5.90	-50.2	-63.5	3.8	1.49e+00	0	44	104	0	71	17109
2026-01-18 11:32:40.89	330.83	5.83	-50.2	-63.4	3.8	1.49e+00	0	43	104	0	71	17029
2026-01-18 11:32:41.60	330.89	5.78	-50.2	-63.4	3.8	1.49e+00	0	43	104	0	71	17065
2026-01-18 11:32:42.88	331.00	5.70	-50.2	-63.4	3.8	1.49e+00	0	44	104	0	71	17067
2026-01-18 11:32:43.61	331.06	5.66	-50.2	-63.4	3.8	1.49e+00	0	43	104	0	71	17046
2026-01-18 11:32:44.88	331.17	5.58	-50.2	-63.4	3.8	1.49e+00	0	43	104	0	71	17018
2026-01-18 11:32:45.60	331.23	5.54	-50.2	-63.4	3.8	1.49e+00	0	43	104	0	71	17047
2026-01-18 11:32:46.87	331.33	5.46	-50.1	-63.4	3.8	1.49e+00	0	43	104	0	71	16996
2026-01-18 11:32:47.58	331.39	5.42	-50.2	-63.4	3.8	1.49e+00	0	44	104	0	71	17000
2026-01-18 11:32:48.86	331.49	5.34	-50.2	-63.4	3.8	1.49e+00	0	43	104	0	71	17001
2026-01-18 11:32:49.57	331.55	5.30	-50.2	-63.4	3.8	1.49e+00	0	44	104	0	71	16985
2026-01-18 11:32:50.85	331.66	5.22	-50.1	-63.4	3.8	1.49e+00	0	43	104	0	71	16961
2026-01-18 11:32:51.56	331.71	5.18	-50.1	-63.4	3.8	1.49e+00	0	44	104	0	71	17069
2026-01-18 11:32:52.83	331.82	5.10	-50.1	-63.4	3.8	1.49e+00	0	44	104	0	71	17012
2026-01-18 11:32:53.54	331.87	5.06	-50.1	-63.4	3.8	1.49e+00	0	44	104	0	71	16996
2026-01-18 11:32:54.82	331.98	4.98	-50.1	-63.4	3.8	1.49e+00	0	44	104	0	71	17004

#Closed at: 2026-01-18 11:32:55
#Recorded file [0 MB]: D:/Data/31040_260118_142128.dat