passes_logs/2026/01/24/PlanumMoscow/PlanumMoscow__20260124_075325_METOP-B_rec.log

#Pass ID: 20260124_075325_METOP-B
#Satellite: METOP-B
#Configuration: METOP-B
#Start time: 2026-01-24 07:53:30.059933

#LorettStation: 1.0.0 05.05.2024
#Station: PlanumMoscow
#Location: 37.6253844 lon 55.6713361 lat
#TLE: 1 38771U 12049A   25293.92766658  .00000266  00000+0  14193-3 0  9996
#TLE: 2 38771  98.6882 344.7603 0001609 341.5209  18.5909 14.21379342679275

#Time	Az	El	Level	SNR
2026-01-24 07:57:08.506411	356.8	27.4	-60.7	0.5
2026-01-24 07:57:09.629665	356.6	27.6	-60.2	1.0
2026-01-24 07:57:10.751918	356.5	27.7	-61.8	6.1
2026-01-24 07:57:11.873677	356.3	27.9	-62.9	7.0
2026-01-24 07:57:12.995435	356.1	28.1	-61.8	4.8
2026-01-24 07:57:14.117688	355.9	28.3	-61.2	3.2
2026-01-24 07:57:15.244942	355.8	28.4	-60.8	1.6
2026-01-24 07:57:16.367196	355.6	28.6	-62.5	4.5
2026-01-24 07:57:17.487953	355.4	28.8	-62.5	5.1
2026-01-24 07:57:18.609710	355.2	29.0	-60.7	4.8
2026-01-24 07:57:19.731964	355.0	29.2	-60.6	3.1
2026-01-24 07:57:20.854217	354.8	29.3	-62.4	5.8
2026-01-24 07:57:21.978471	354.6	29.5	-61.2	2.0
2026-01-24 07:57:23.100237	354.4	29.7	-62.9	7.6
2026-01-24 07:57:24.222499	354.3	29.9	-62.8	7.2
2026-01-24 07:57:25.344257	354.1	30.1	-61.7	3.8
2026-01-24 07:57:26.465014	353.9	30.3	-62.8	8.0
2026-01-24 07:57:27.583276	353.7	30.4	-62.8	5.8
2026-01-24 07:57:28.704034	353.4	30.6	-63.5	6.2
2026-01-24 07:57:29.825791	353.2	30.8	-63.2	6.9
2026-01-24 07:57:30.947054	353.0	31.0	-62.9	7.4
2026-01-24 07:57:32.066306	352.8	31.2	-62.3	5.3
2026-01-24 07:57:33.185071	352.6	31.4	-62.9	7.0
2026-01-24 07:57:34.304828	352.4	31.6	-62.8	6.9
2026-01-24 07:57:35.425586	352.2	31.8	-63.0	6.2
2026-01-24 07:57:36.543351	351.9	32.0	-63.4	8.5
2026-01-24 07:57:37.663616	351.7	32.1	-62.3	7.4
2026-01-24 07:57:38.786870	351.5	32.3	-63.8	8.9
2026-01-24 07:57:39.908123	351.3	32.5	-63.4	6.6
2026-01-24 07:57:41.027393	351.0	32.7	-63.7	6.3
2026-01-24 07:57:42.147150	350.8	32.9	-63.3	7.5
2026-01-24 07:57:43.267908	350.5	33.1	-62.8	6.2
2026-01-24 07:57:44.387666	350.3	33.3	-63.3	6.6
2026-01-24 07:57:45.508432	350.1	33.5	-63.3	7.8
2026-01-24 07:57:46.630686	349.8	33.7	-63.8	9.1
2026-01-24 07:57:47.750452	349.6	33.9	-63.7	8.4
2026-01-24 07:57:48.872209	349.3	34.1	-63.5	8.9
2026-01-24 07:57:49.993462	349.0	34.3	-62.8	9.0
2026-01-24 07:57:51.115716	348.8	34.5	-63.4	9.9
2026-01-24 07:57:52.236977	348.5	34.7	-63.3	8.7
2026-01-24 07:57:53.357230	348.2	34.9	-63.5	8.9
2026-01-24 07:57:54.477492	348.0	35.1	-63.2	8.7
2026-01-24 07:57:55.597754	347.7	35.3	-63.3	9.5
2026-01-24 07:57:56.718511	347.4	35.5	-63.3	6.6
2026-01-24 07:57:57.839765	347.1	35.7	-63.2	7.5
2026-01-24 07:57:58.958017	346.8	35.9	-63.7	9.2
2026-01-24 07:58:00.076270	346.6	36.1	-63.0	8.9
2026-01-24 07:58:01.196036	346.3	36.3	-63.5	7.9
2026-01-24 07:58:02.316297	346.0	36.6	-63.5	8.7
2026-01-24 07:58:03.435550	345.7	36.8	-63.6	9.4
2026-01-24 07:58:04.553307	345.4	37.0	-63.7	9.6
2026-01-24 07:58:05.675560	345.1	37.2	-63.6	8.3
2026-01-24 07:58:06.794317	344.7	37.4	-63.9	9.1
2026-01-24 07:58:07.913578	344.4	37.6	-64.0	9.9
2026-01-24 07:58:09.032831	344.1	37.8	-64.2	10.5
2026-01-24 07:58:10.151092	343.8	38.0	-63.7	10.0
2026-01-24 07:58:11.268849	343.5	38.2	-63.7	9.8
2026-01-24 07:58:12.386606	343.1	38.4	-63.8	9.2
2026-01-24 07:58:13.505363	342.8	38.6	-63.9	8.2
2026-01-24 07:58:14.625616	342.4	38.8	-64.0	9.4
2026-01-24 07:58:15.745869	342.1	39.1	-64.6	9.6
2026-01-24 07:58:16.865625	341.7	39.3	-64.6	10.1
2026-01-24 07:58:17.984383	341.4	39.5	-64.1	10.1
2026-01-24 07:58:19.106140	341.0	39.7	-64.1	8.7
2026-01-24 07:58:20.224898	340.7	39.9	-64.2	9.2
2026-01-24 07:58:21.345151	340.3	40.1	-64.4	9.4
2026-01-24 07:58:22.463908	339.9	40.3	-63.9	10.1
2026-01-24 07:58:23.584170	339.5	40.5	-63.9	9.3
2026-01-24 07:58:24.702927	339.2	40.7	-64.2	10.5
2026-01-24 07:58:25.825180	338.8	40.9	-64.4	10.4
2026-01-24 07:58:26.945443	338.4	41.1	-63.8	9.2
2026-01-24 07:58:28.063199	338.0	41.4	-64.4	10.0
2026-01-24 07:58:29.184453	337.6	41.6	-64.3	10.0
2026-01-24 07:58:30.304219	337.1	41.8	-64.6	9.9
2026-01-24 07:58:31.424528	336.7	42.0	-64.7	10.1
2026-01-24 07:58:32.544781	336.3	42.2	-64.1	9.0
2026-01-24 07:58:33.664034	335.9	42.4	-64.4	8.8
2026-01-24 07:58:34.782791	335.5	42.6	-63.9	7.6
2026-01-24 07:58:35.905044	335.0	42.8	-64.4	9.1
2026-01-24 07:58:37.023305	334.6	43.0	-64.6	10.3
2026-01-24 07:58:38.142558	334.1	43.2	-64.7	10.5
2026-01-24 07:58:39.260323	333.7	43.4	-63.8	8.1
2026-01-24 07:58:40.378156	333.2	43.6	-63.9	9.8
2026-01-24 07:58:41.498922	332.7	43.8	-63.8	10.4
2026-01-24 07:58:42.618183	332.3	44.0	-64.4	9.7
2026-01-24 07:58:43.738941	331.8	44.2	-64.1	9.6
2026-01-24 07:58:44.856736	331.3	44.4	-64.6	10.3
2026-01-24 07:58:45.977989	330.8	44.6	-64.7	10.3
2026-01-24 07:58:47.100243	330.3	44.8	-64.0	10.0
2026-01-24 07:58:48.221506	329.8	45.0	-64.3	9.6
2026-01-24 07:58:49.340758	329.3	45.2	-64.4	9.6
2026-01-24 07:58:50.461517	328.8	45.3	-64.6	9.8
2026-01-24 07:58:51.582785	328.3	45.5	-64.5	9.1
2026-01-24 07:58:52.700037	327.7	45.7	-64.7	10.1
2026-01-24 07:58:53.819794	327.2	45.9	-64.7	10.1
2026-01-24 07:58:54.937054	326.7	46.1	-64.6	10.3
2026-01-24 07:58:56.058308	326.1	46.3	-64.5	11.1
2026-01-24 07:58:57.177560	325.6	46.4	-64.0	8.8
2026-01-24 07:58:58.296317	325.0	46.6	-64.0	9.4
2026-01-24 07:58:59.416083	324.4	46.8	-63.9	9.8
2026-01-24 07:59:00.537841	323.9	47.0	-63.6	9.6
2026-01-24 07:59:01.657094	323.3	47.1	-63.8	10.1
2026-01-24 07:59:02.776851	322.7	47.3	-64.2	10.3
2026-01-24 07:59:03.897104	322.1	47.5	-64.2	11.0
2026-01-24 07:59:05.018357	321.5	47.6	-64.3	10.4
2026-01-24 07:59:06.139620	320.9	47.8	-63.9	10.2
2026-01-24 07:59:07.260873	320.3	47.9	-63.8	9.8
2026-01-24 07:59:08.379135	319.7	48.1	-64.0	10.0
2026-01-24 07:59:09.499388	319.1	48.2	-63.8	9.9
2026-01-24 07:59:10.619641	318.4	48.4	-64.1	10.5
2026-01-24 07:59:11.738398	317.8	48.5	-63.9	10.1
2026-01-24 07:59:12.856155	317.2	48.6	-64.1	9.8
2026-01-24 07:59:13.975913	316.5	48.8	-64.0	9.0
2026-01-24 07:59:15.096166	315.9	48.9	-64.4	10.5
2026-01-24 07:59:16.213930	315.2	49.0	-64.2	9.6
2026-01-24 07:59:17.332688	314.6	49.2	-64.2	9.3
2026-01-24 07:59:18.453949	313.9	49.3	-64.7	10.2
2026-01-24 07:59:19.572202	313.2	49.4	-64.1	9.9
2026-01-24 07:59:20.689454	312.6	49.5	-64.4	9.7
2026-01-24 07:59:21.808706	311.9	49.6	-64.1	9.9
2026-01-24 07:59:22.927959	311.2	49.7	-64.1	10.2
2026-01-24 07:59:24.047212	310.5	49.8	-64.0	9.7
2026-01-24 07:59:25.165482	309.8	49.9	-63.9	10.0
2026-01-24 07:59:26.286735	309.1	50.0	-63.0	8.5
2026-01-24 07:59:27.407491	308.4	50.1	-64.2	10.1
2026-01-24 07:59:28.525753	307.7	50.2	-64.3	10.2
2026-01-24 07:59:29.642005	307.0	50.2	-64.5	10.1
2026-01-24 07:59:30.762305	306.3	50.3	-64.7	9.6
2026-01-24 07:59:31.882558	305.6	50.4	-64.3	9.7
2026-01-24 07:59:32.998819	304.8	50.5	-64.6	10.0
2026-01-24 07:59:34.118080	304.1	50.5	-64.5	9.6
2026-01-24 07:59:35.235333	303.4	50.6	-64.7	10.2
2026-01-24 07:59:36.355090	302.7	50.6	-64.4	9.5
2026-01-24 07:59:37.474343	301.9	50.7	-64.5	9.6
2026-01-24 07:59:38.592595	301.2	50.7	-64.7	9.7
2026-01-24 07:59:39.710848	300.5	50.7	-64.6	10.2
2026-01-24 07:59:40.830101	299.7	50.8	-64.6	8.9
2026-01-24 07:59:41.950354	299.0	50.8	-64.8	9.0
2026-01-24 07:59:43.069125	298.3	50.8	-64.8	9.8
2026-01-24 07:59:44.185890	297.5	50.8	-64.6	9.5
2026-01-24 07:59:45.303647	296.8	50.8	-65.0	10.1
2026-01-24 07:59:46.422900	296.0	50.8	-64.3	9.3
2026-01-24 07:59:47.543163	295.3	50.8	-64.8	10.4
2026-01-24 07:59:48.663416	294.6	50.8	-65.0	10.6
2026-01-24 07:59:49.781668	293.8	50.8	-64.7	10.7
2026-01-24 07:59:50.900425	293.1	50.8	-64.6	8.8
2026-01-24 07:59:52.023183	292.3	50.8	-64.7	9.8
2026-01-24 07:59:53.142446	291.6	50.8	-64.5	10.5
2026-01-24 07:59:54.260698	290.9	50.7	-64.4	10.5
2026-01-24 07:59:55.380455	290.1	50.7	-64.1	10.1
2026-01-24 07:59:56.499212	289.4	50.7	-64.1	10.3
2026-01-24 07:59:57.618473	288.7	50.6	-64.1	10.8
2026-01-24 07:59:58.740232	287.9	50.6	-64.4	11.1
2026-01-24 07:59:59.863494	287.2	50.5	-64.4	10.5
2026-01-24 08:00:00.983250	286.5	50.4	-64.1	10.7
2026-01-24 08:00:02.098510	285.8	50.4	-64.0	9.4
2026-01-24 08:00:03.220268	285.0	50.3	-64.0	10.6
2026-01-24 08:00:04.341530	284.3	50.2	-64.4	10.3
2026-01-24 08:00:05.463288	283.6	50.2	-63.9	9.4
2026-01-24 08:00:06.585542	282.9	50.1	-63.9	10.4
2026-01-24 08:00:07.706812	282.2	50.0	-63.3	9.3
2026-01-24 08:00:08.828609	281.5	49.9	-63.9	10.9
2026-01-24 08:00:09.950367	280.8	49.8	-63.8	10.5
2026-01-24 08:00:11.072133	280.1	49.7	-63.7	10.3
2026-01-24 08:00:12.193890	279.4	49.6	-63.7	8.6
2026-01-24 08:00:13.314194	278.7	49.5	-64.2	10.0
2026-01-24 08:00:14.436447	278.1	49.4	-64.0	9.7
2026-01-24 08:00:15.557221	277.4	49.2	-64.2	10.3
2026-01-24 08:00:16.678978	276.7	49.1	-64.1	10.0
2026-01-24 08:00:17.801246	276.1	49.0	-63.4	7.3
2026-01-24 08:00:18.923042	275.4	48.9	-63.7	7.4
2026-01-24 08:00:20.045297	274.8	48.7	-64.1	10.0
2026-01-24 08:00:21.167557	274.1	48.6	-63.8	9.9
2026-01-24 08:00:22.289315	273.5	48.5	-63.7	9.4
2026-01-24 08:00:23.411569	272.8	48.3	-64.1	8.6
2026-01-24 08:00:24.532864	272.2	48.2	-63.9	8.3
2026-01-24 08:00:25.655117	271.6	48.0	-64.2	8.2
2026-01-24 08:00:26.776875	271.0	47.9	-64.1	8.8
2026-01-24 08:00:27.898138	270.4	47.7	-63.8	9.4
2026-01-24 08:00:29.019895	269.8	47.6	-63.9	8.2
2026-01-24 08:00:30.140663	269.2	47.4	-63.6	8.5
2026-01-24 08:00:31.262916	268.6	47.2	-62.5	7.4
2026-01-24 08:00:32.384683	268.0	47.1	-62.9	8.0
2026-01-24 08:00:33.505946	267.4	46.9	-62.5	8.8
2026-01-24 08:00:34.626266	266.9	46.7	-62.4	8.5
2026-01-24 08:00:35.749528	266.3	46.6	-63.2	8.3
2026-01-24 08:00:36.871294	265.7	46.4	-62.7	8.0
2026-01-24 08:00:37.992557	265.2	46.2	-63.0	8.2
2026-01-24 08:00:39.114315	264.6	46.0	-63.0	9.0
2026-01-24 08:00:40.235112	264.1	45.8	-62.5	8.0
2026-01-24 08:00:41.356869	263.6	45.7	-63.1	6.9
2026-01-24 08:00:42.479135	263.0	45.5	-62.4	6.0
2026-01-24 08:00:43.600893	262.5	45.3	-61.8	5.1
2026-01-24 08:00:44.721706	262.0	45.1	-62.8	6.5
2026-01-24 08:00:45.843465	261.5	44.9	-62.3	5.7
2026-01-24 08:00:46.965718	261.0	44.7	-62.8	7.1
2026-01-24 08:00:48.087971	260.5	44.5	-62.5	6.8
2026-01-24 08:00:49.209738	260.0	44.3	-63.2	7.6
2026-01-24 08:00:50.331559	259.5	44.1	-62.9	6.8
2026-01-24 08:00:51.453812	259.0	43.9	-63.3	8.0
2026-01-24 08:00:52.576074	258.5	43.7	-63.1	7.3
2026-01-24 08:00:53.697832	258.1	43.5	-62.7	8.1
2026-01-24 08:00:54.818645	257.6	43.3	-62.8	7.4
2026-01-24 08:00:55.939906	257.2	43.1	-62.1	3.9
2026-01-24 08:00:57.060690	256.7	42.9	-62.3	3.9
2026-01-24 08:00:58.181456	256.3	42.7	-62.6	6.5
2026-01-24 08:00:59.303709	255.8	42.5	-62.7	7.3
2026-01-24 08:01:00.425011	255.4	42.3	-62.1	3.3
2026-01-24 08:01:01.546288	255.0	42.1	-62.3	5.1
2026-01-24 08:01:02.668551	254.5	41.9	-62.1	6.2
2026-01-24 08:01:03.790804	254.1	41.7	-60.3	1.8
2026-01-24 08:01:04.912562	253.7	41.5	-61.1	4.7
2026-01-24 08:01:06.033868	253.3	41.3	-61.7	5.5
2026-01-24 08:01:07.155625	252.9	41.1	-61.2	5.8
2026-01-24 08:01:08.280905	252.5	40.8	-61.6	4.3
2026-01-24 08:01:09.403159	252.1	40.6	-62.0	5.8
2026-01-24 08:01:10.523469	251.7	40.4	-62.3	6.7
2026-01-24 08:01:11.645227	251.4	40.2	-61.0	4.3
2026-01-24 08:01:12.767488	251.0	40.0	-61.7	4.9
2026-01-24 08:01:13.889246	250.6	39.8	-62.4	5.1
2026-01-24 08:01:15.011037	250.3	39.6	-61.6	4.1
2026-01-24 08:01:16.137796	249.9	39.4	-61.4	5.0
2026-01-24 08:01:17.260050	249.5	39.2	-61.8	5.8
2026-01-24 08:01:18.381816	249.2	38.9	-61.2	4.2
2026-01-24 08:01:19.504069	248.8	38.7	-62.0	4.5
2026-01-24 08:01:20.626363	248.5	38.5	-60.5	3.5
2026-01-24 08:01:21.747129	248.2	38.3	-61.3	4.6
2026-01-24 08:01:22.869431	247.8	38.1	-59.7	3.0
2026-01-24 08:01:23.991684	247.5	37.9	-59.4	1.1
2026-01-24 08:01:25.113450	247.2	37.7	-61.7	5.5
2026-01-24 08:01:26.234744	246.8	37.5	-60.6	5.8
2026-01-24 08:01:27.356502	246.5	37.3	-61.0	4.8
2026-01-24 08:01:28.478764	246.2	37.1	-60.9	2.7
2026-01-24 08:01:29.600522	245.9	36.8	-59.7	3.5
2026-01-24 08:01:30.723816	245.6	36.6	-60.8	5.9
2026-01-24 08:01:31.845573	245.3	36.4	-59.5	1.7
2026-01-24 08:01:32.967339	245.0	36.2	-60.3	4.0
2026-01-24 08:01:34.088601	244.7	36.0	-60.5	3.3
2026-01-24 08:01:35.210854	244.4	35.8	-59.6	0.4
2026-01-24 08:01:36.332659	244.1	35.6	-60.5	5.2
2026-01-24 08:01:37.453922	243.9	35.4	-60.2	3.8
2026-01-24 08:01:38.575679	243.6	35.2	-60.5	5.3
2026-01-24 08:01:39.697933	243.3	35.0	-59.2	0.3
2026-01-24 08:01:40.819690	243.0	34.8	-60.5	3.6
2026-01-24 08:01:41.941448	242.8	34.6	-60.4	4.5
2026-01-24 08:01:43.062214	242.5	34.4	-59.4	2.3
2026-01-24 08:01:44.184476	242.2	34.2	-58.8	2.5
2026-01-24 08:01:45.306730	242.0	34.0	-59.7	4.9
2026-01-24 08:01:46.428024	241.7	33.8	-61.2	5.2
2026-01-24 08:01:47.550277	241.5	33.6	-60.4	3.4
2026-01-24 08:01:48.672539	241.2	33.4	-60.4	5.0
2026-01-24 08:01:49.794793	241.0	33.2	-58.8	1.4
2026-01-24 08:01:50.916593	240.7	33.0	-59.4	2.6
2026-01-24 08:01:52.037856	240.5	32.8	-59.3	0.0
2026-01-24 08:01:53.162614	240.3	32.6	-59.4	1.4
2026-01-24 08:01:54.285372	240.0	32.4	-58.7	1.8
2026-01-24 08:01:55.406643	239.8	32.2	-60.4	2.7
2026-01-24 08:01:56.526448	239.6	32.0	-59.9	5.3
2026-01-24 08:01:57.648206	239.3	31.8	-60.5	3.2
2026-01-24 08:01:58.770468	239.1	31.6	-60.7	3.0
2026-01-24 08:01:59.891731	238.9	31.4	-60.3	4.2
2026-01-24 08:02:01.013017	238.7	31.2	-58.9	3.2
2026-01-24 08:02:02.133288	238.5	31.0	-60.1	4.9
2026-01-24 08:02:03.255542	238.2	30.9	-58.8	0.9
2026-01-24 08:02:04.377803	238.0	30.7	-59.8	3.6
2026-01-24 08:02:05.499561	237.8	30.5	-60.9	1.5
2026-01-24 08:02:06.621349	237.6	30.3	-60.0	3.9
2026-01-24 08:02:07.745612	237.4	30.1	-60.4	4.5
2026-01-24 08:02:08.867377	237.2	29.9	-60.1	4.3
2026-01-24 08:02:09.988144	237.0	29.7	-60.4	3.2
2026-01-24 08:02:11.110406	236.8	29.6	-61.2	5.3
2026-01-24 08:02:12.233209	236.6	29.4	-60.6	2.8
2026-01-24 08:02:13.354472	236.4	29.2	-60.6	4.0
2026-01-24 08:02:14.479237	236.2	29.0	-60.2	3.6
2026-01-24 08:02:15.601532	236.1	28.8	-60.1	2.9
2026-01-24 08:02:16.723289	235.9	28.6	-60.1	2.1
2026-01-24 08:02:17.845047	235.7	28.5	-59.4	3.5
2026-01-24 08:02:18.966813	235.5	28.3	-60.6	2.3
2026-01-24 08:02:20.088572	235.3	28.1	-61.6	5.7
2026-01-24 08:02:21.209337	235.2	27.9	-61.4	4.4
2026-01-24 08:02:22.331126	235.0	27.8	-60.5	2.3
2026-01-24 08:02:23.453379	234.8	27.6	-59.0	0.0
2026-01-24 08:02:24.574641	234.6	27.4	-60.5	1.5
2026-01-24 08:02:25.696399	234.5	27.2	-59.7	0.0
2026-01-24 08:02:26.817196	234.3	27.1	-60.4	1.0
2026-01-24 08:02:27.939478	234.1	26.9	-60.2	1.1
2026-01-24 08:02:29.061236	234.0	26.7	-61.3	3.1
2026-01-24 08:02:30.188615	233.8	26.5	-60.6	4.9
2026-01-24 08:02:31.309877	233.6	26.4	-60.4	4.0
2026-01-24 08:02:32.431665	233.5	26.2	-59.7	1.9
2026-01-24 08:02:33.553423	233.3	26.0	-60.1	2.8
2026-01-24 08:02:34.675685	233.2	25.9	-60.4	2.4
2026-01-24 08:02:35.797443	233.0	25.7	-60.4	3.0
2026-01-24 08:02:36.918705	232.9	25.5	-61.2	3.2
2026-01-24 08:02:38.040510	232.7	25.4	-60.7	2.3
2026-01-24 08:02:39.162268	232.6	25.2	-60.8	5.5
2026-01-24 08:02:40.283529	232.4	25.1	-60.5	3.0
2026-01-24 08:02:41.405286	232.3	24.9	-61.5	4.3
2026-01-24 08:02:42.527044	232.1	24.7	-60.9	1.2
2026-01-24 08:02:43.649338	232.0	24.6	-59.6	5.1
2026-01-24 08:02:44.772609	231.8	24.4	-59.9	2.6
2026-01-24 08:02:45.893902	231.7	24.3	-60.9	2.3
2026-01-24 08:02:47.015660	231.6	24.1	-59.4	0.8
2026-01-24 08:02:48.139418	231.4	23.9	-60.9	2.0
2026-01-24 08:02:49.261671	231.3	23.8	-61.0	2.6
2026-01-24 08:02:50.383437	231.2	23.6	-61.4	3.0
2026-01-24 08:02:51.504700	231.0	23.5	-60.4	0.0
2026-01-24 08:02:52.627458	230.9	23.3	-59.6	1.4
2026-01-24 08:02:53.749256	230.8	23.2	-60.9	5.2
2026-01-24 08:02:54.871509	230.6	23.0	-60.9	3.7
2026-01-24 08:02:55.992781	230.5	22.9	-60.0	3.8
2026-01-24 08:02:57.115043	230.4	22.7	-60.8	2.6
2026-01-24 08:02:58.236848	230.3	22.6	-60.5	2.1
2026-01-24 08:02:59.358606	230.1	22.4	-60.6	2.3
2026-01-24 08:03:00.480371	230.0	22.3	-61.3	2.9
2026-01-24 08:03:01.602625	229.9	22.1	-61.9	0.0
2026-01-24 08:03:02.724887	229.8	22.0	-60.2	0.0
2026-01-24 08:03:03.846181	229.7	21.8	-60.0	0.2
2026-01-24 08:03:04.967939	229.5	21.7	-62.5	5.3
2026-01-24 08:03:06.089696	229.4	21.5	-62.4	3.9
2026-01-24 08:03:07.210966	229.3	21.4	-62.7	3.0
2026-01-24 08:03:08.332746	229.2	21.2	-61.8	4.1
2026-01-24 08:03:09.454999	229.1	21.1	-62.8	4.6
2026-01-24 08:03:10.577253	229.0	20.9	-62.6	3.6
2026-01-24 08:03:11.699506	228.9	20.8	-61.8	3.4
2026-01-24 08:03:12.821767	228.7	20.7	-63.0	4.5
2026-01-24 08:03:13.944557	228.6	20.5	-62.1	3.1
2026-01-24 08:03:15.068315	228.5	20.4	-63.0	5.3
2026-01-24 08:03:16.190081	228.4	20.2	-63.1	2.8
2026-01-24 08:03:17.311839	228.3	20.1	-62.1	3.6
2026-01-24 08:03:18.433627	228.2	20.0	-62.6	3.2
2026-01-24 08:03:19.555880	228.1	19.8	-63.0	3.4
2026-01-24 08:03:20.677678	228.0	19.7	-62.4	4.0
2026-01-24 08:03:21.799932	227.9	19.6	-62.4	3.8
2026-01-24 08:03:22.921698	227.8	19.4	-60.7	0.0
2026-01-24 08:03:24.043486	227.7	19.3	-62.1	0.1
2026-01-24 08:03:25.165739	227.6	19.2	-63.0	4.1
2026-01-24 08:03:26.288001	227.5	19.0	-62.7	3.5
2026-01-24 08:03:27.410254	227.4	18.9	-62.6	2.1
2026-01-24 08:03:28.532507	227.3	18.8	-62.8	4.0
2026-01-24 08:03:29.654296	227.2	18.6	-60.3	0.0
2026-01-24 08:03:30.777550	227.1	18.5	-62.7	1.7
2026-01-24 08:03:31.899803	227.0	18.4	-61.2	3.2
2026-01-24 08:03:33.022065	226.9	18.2	-61.3	1.7
2026-01-24 08:03:34.143855	226.8	18.1	-61.8	2.4
2026-01-24 08:03:35.266108	226.7	18.0	-62.3	1.0
2026-01-24 08:03:36.388370	226.6	17.8	-62.5	2.4
2026-01-24 08:03:37.510128	226.6	17.7	-63.2	3.6
2026-01-24 08:03:38.632381	226.5	17.6	-63.0	0.9
2026-01-24 08:03:39.754169	226.4	17.5	-62.5	3.4
2026-01-24 08:03:40.876422	226.3	17.3	-62.9	3.4
2026-01-24 08:03:41.998676	226.2	17.2	-62.8	1.8
2026-01-24 08:03:43.120937	226.1	17.1	-62.3	0.0
2026-01-24 08:03:44.242222	226.0	17.0	-61.6	0.0
2026-01-24 08:03:45.365980	225.9	16.8	-63.3	1.7
2026-01-24 08:03:46.488242	225.9	16.7	-61.0	0.0
2026-01-24 08:03:47.610496	225.8	16.6	-61.0	0.0
2026-01-24 08:03:48.732750	225.7	16.5	-62.9	3.0
2026-01-24 08:03:49.854538	225.6	16.4	-61.5	0.0
2026-01-24 08:03:50.976792	225.5	16.2	-61.5	0.0
2026-01-24 08:03:52.103558	225.4	16.1	-59.3	0.9
2026-01-24 08:03:53.225339	225.4	16.0	-61.2	0.4
2026-01-24 08:03:54.347592	225.3	15.9	-61.6	0.9
2026-01-24 08:03:55.469846	225.2	15.8	-62.9	4.9
2026-01-24 08:03:56.591611	225.1	15.6	-62.6	3.0
2026-01-24 08:03:57.713865	225.1	15.5	-63.4	3.8
2026-01-24 08:03:58.835622	225.0	15.4	-62.5	2.2
2026-01-24 08:03:59.956915	224.9	15.3	-62.6	0.0
2026-01-24 08:04:01.079169	224.8	15.2	-63.1	5.0
2026-01-24 08:04:02.201430	224.7	15.1	-61.7	0.3
2026-01-24 08:04:03.323684	224.7	14.9	-60.5	3.9
2026-01-24 08:04:04.445976	224.6	14.8	-62.6	0.3
2026-01-24 08:04:05.568229	224.5	14.7	-62.8	3.5
2026-01-24 08:04:06.690491	224.5	14.6	-62.6	1.6
2026-01-24 08:04:07.815755	224.4	14.5	-61.6	0.7
2026-01-24 08:04:08.938008	224.3	14.4	-59.3	0.0
2026-01-24 08:04:10.058806	224.2	14.3	-61.9	0.0
2026-01-24 08:04:11.181059	224.2	14.2	-61.1	2.1
2026-01-24 08:04:12.303320	224.1	14.0	-63.4	4.0
2026-01-24 08:04:13.425574	224.0	13.9	-63.4	2.9
2026-01-24 08:04:14.547355	224.0	13.8	-63.5	3.9
2026-01-24 08:04:15.669608	223.9	13.7	-62.5	0.0
2026-01-24 08:04:16.790384	223.8	13.6	-62.6	1.1
2026-01-24 08:04:17.912637	223.8	13.5	-63.3	2.0
2026-01-24 08:04:19.034891	223.7	13.4	-63.1	1.1
2026-01-24 08:04:20.156679	223.6	13.3	-62.4	4.1
2026-01-24 08:04:21.278933	223.6	13.2	-63.2	0.0
2026-01-24 08:04:22.403692	223.5	13.1	-63.1	3.0
2026-01-24 08:04:23.525945	223.4	13.0	-62.2	0.0
2026-01-24 08:04:24.649273	223.4	12.9	-63.1	3.5
2026-01-24 08:04:25.772031	223.3	12.7	-63.1	1.9
2026-01-24 08:04:26.894284	223.2	12.6	-63.3	2.5
2026-01-24 08:04:28.016546	223.2	12.5	-63.2	3.0
2026-01-24 08:04:29.138799	223.1	12.4	-62.7	0.0
2026-01-24 08:04:30.260092	223.0	12.3	-63.1	0.9
2026-01-24 08:04:31.384345	223.0	12.2	-63.1	1.8
2026-01-24 08:04:32.506607	222.9	12.1	-63.4	2.9
2026-01-24 08:04:33.628861	222.9	12.0	-64.4	4.1
2026-01-24 08:04:34.750154	222.8	11.9	-64.0	2.9
2026-01-24 08:04:35.872408	222.7	11.8	-63.8	4.4
2026-01-24 08:04:36.994661	222.7	11.7	-64.7	3.7
2026-01-24 08:04:38.120430	222.6	11.6	-64.6	4.0
2026-01-24 08:04:39.243683	222.6	11.5	-64.9	4.0
2026-01-24 08:04:40.365937	222.5	11.4	-64.7	2.9
2026-01-24 08:04:41.488190	222.4	11.3	-64.8	2.7
2026-01-24 08:04:42.610453	222.4	11.2	-63.6	1.4
2026-01-24 08:04:43.732706	222.3	11.1	-63.7	3.3
2026-01-24 08:04:44.853502	222.3	11.0	-65.2	3.2
2026-01-24 08:04:45.975755	222.2	10.9	-65.2	5.0
2026-01-24 08:04:47.098017	222.2	10.8	-65.8	4.7
2026-01-24 08:04:48.219774	222.1	10.7	-65.7	3.7
2026-01-24 08:04:49.342028	222.1	10.6	-63.9	0.2
2026-01-24 08:04:50.463817	222.0	10.5	-65.5	5.0
2026-01-24 08:04:51.586070	221.9	10.4	-65.6	4.5
2026-01-24 08:04:52.713333	221.9	10.3	-65.7	5.8
2026-01-24 08:04:53.835091	221.8	10.2	-65.4	5.0
2026-01-24 08:04:54.956896	221.8	10.1	-63.7	2.2
2026-01-24 08:04:56.079149	221.7	10.0	-64.4	3.5
2026-01-24 08:04:57.200907	221.7	9.9	-65.9	4.6
2026-01-24 08:04:58.322688	221.6	9.9	-66.2	4.6
2026-01-24 08:04:59.444942	221.6	9.8	-66.1	5.6
2026-01-24 08:05:00.566700	221.5	9.7	-65.7	3.7
2026-01-24 08:05:01.688953	221.5	9.6	-65.8	4.4
2026-01-24 08:05:02.811214	221.4	9.5	-64.6	5.5
2026-01-24 08:05:03.933467	221.4	9.4	-65.0	4.3
2026-01-24 08:05:05.054761	221.3	9.3	-64.9	1.9
2026-01-24 08:05:06.178014	221.3	9.2	-65.6	4.0
2026-01-24 08:05:07.299772	221.2	9.1	-66.4	5.8
2026-01-24 08:05:08.423034	221.2	9.0	-65.9	4.8
2026-01-24 08:05:09.545287	221.1	8.9	-65.3	2.5
2026-01-24 08:05:10.667077	221.1	8.8	-66.4	5.6
2026-01-24 08:05:11.788835	221.0	8.7	-66.6	3.6
2026-01-24 08:05:12.911096	221.0	8.7	-66.9	5.0
2026-01-24 08:05:14.033350	220.9	8.6	-66.2	5.0
2026-01-24 08:05:15.154148	220.9	8.5	-64.5	4.2
2026-01-24 08:05:16.275906	220.8	8.4	-66.0	5.3
2026-01-24 08:05:17.398167	220.8	8.3	-66.8	4.6
2026-01-24 08:05:18.519925	220.7	8.2	-66.4	5.9
2026-01-24 08:05:19.641706	220.7	8.1	-66.8	5.1
2026-01-24 08:05:20.763959	220.7	8.0	-66.4	5.5
2026-01-24 08:05:21.886213	220.6	7.9	-66.3	3.9
2026-01-24 08:05:23.011467	220.6	7.9	-64.8	5.5
2026-01-24 08:05:24.133729	220.5	7.8	-66.3	2.2
2026-01-24 08:05:25.255983	220.5	7.7	-66.3	5.5
2026-01-24 08:05:26.378275	220.4	7.6	-64.9	5.3
2026-01-24 08:05:27.500529	220.4	7.5	-66.0	2.9
2026-01-24 08:05:28.621799	220.3	7.4	-66.6	3.9
2026-01-24 08:05:29.748557	220.3	7.3	-66.4	0.0
2026-01-24 08:05:30.870353	220.3	7.2	-65.6	4.6
2026-01-24 08:05:31.992607	220.2	7.2	-66.5	5.1
2026-01-24 08:05:33.114869	220.2	7.1	-66.9	4.0
2026-01-24 08:05:34.237122	220.1	7.0	-66.4	4.2
2026-01-24 08:05:35.359376	220.1	6.9	-66.7	3.8
2026-01-24 08:05:36.481669	220.0	6.8	-65.8	2.3
2026-01-24 08:05:37.603427	220.0	6.7	-66.9	3.7
2026-01-24 08:05:38.725689	220.0	6.7	-66.1	5.0
2026-01-24 08:05:39.847942	219.9	6.6	-65.6	3.1
2026-01-24 08:05:40.970195	219.9	6.5	-66.1	4.6
2026-01-24 08:05:42.091994	219.8	6.4	-66.6	4.0
2026-01-24 08:05:43.214247	219.8	6.3	-66.9	4.5
2026-01-24 08:05:44.337005	219.8	6.2	-65.8	3.7
2026-01-24 08:05:45.459258	219.7	6.2	-67.0	4.3
2026-01-24 08:05:46.581039	219.7	6.1	-66.9	4.2
2026-01-24 08:05:47.703308	219.6	6.0	-66.1	4.3
2026-01-24 08:05:48.825561	219.6	5.9	-67.1	0.0
2026-01-24 08:05:49.947823	219.6	5.8	-68.3	0.0
2026-01-24 08:05:51.071077	219.5	5.7	-66.2	0.0
2026-01-24 08:05:52.194836	219.5	5.7	-66.1	0.0
2026-01-24 08:05:53.317129	219.5	5.6	-65.6	0.0
2026-01-24 08:05:54.438886	219.4	5.5	-66.8	0.0
2026-01-24 08:05:55.561644	219.4	5.4	-68.3	0.0
2026-01-24 08:05:56.683898	219.3	5.3	-69.7	0.0
2026-01-24 08:05:57.805191	219.3	5.3	-70.5	0.0
2026-01-24 08:05:58.928948	219.3	5.2	-72.0	0.0
2026-01-24 08:06:00.051210	219.2	5.1	-71.8	0.0
2026-01-24 08:06:01.173464	219.2	5.0	-71.4	0.0
#Closed at: 2026-01-24 07:53:25.061885