passes_logs/2025/01/19/planumMaritime01/planumMaritime01__20250119_063328_NOAA_19_rec.log

#Pass ID: 20250119_063328_NOAA 19
#Satellite: NOAA 19
#Configuration: NOAA 19
#Start time: 2025-01-19 06:33:33.377429

#LorettStation: 1.0.0 05.05.2024
#Station: planumMaritime01
#Location: 37.49445 lon 55.92918 lat
#TLE: 1 33591U 09005A   25018.04840605  .00000325  00000+0  19728-3 0  9997
#TLE: 2 33591  99.0190  81.8343 0014373  49.4310 310.8111 14.13261983821977

#Time	Az	El	Level	SNR
2025-01-19 06:33:35.534346	35.1	10.1	-94.6	0.0
2025-01-19 06:33:36.655038	35.2	10.2	-94.6	0.0
2025-01-19 06:33:37.776622	35.3	10.3	-94.6	0.0
2025-01-19 06:33:38.898299	35.4	10.4	-94.9	0.0
2025-01-19 06:33:40.020226	35.6	10.5	-94.6	0.0
2025-01-19 06:33:41.141896	35.7	10.5	-94.6	0.0
2025-01-19 06:33:42.262652	35.8	10.6	-94.4	0.0
2025-01-19 06:33:43.383667	35.9	10.7	-94.5	0.0
2025-01-19 06:33:44.506027	36.1	10.8	-94.6	0.0
2025-01-19 06:33:45.629139	36.2	10.9	-94.8	0.0
2025-01-19 06:33:46.750960	36.3	10.9	-94.3	0.0
2025-01-19 06:33:47.872871	36.4	11.0	-94.6	0.0
2025-01-19 06:33:48.992767	36.6	11.1	-94.4	0.0
2025-01-19 06:33:50.113588	36.7	11.2	-94.5	0.0
2025-01-19 06:33:51.233895	36.8	11.2	-94.7	0.0
2025-01-19 06:33:52.354681	37.0	11.3	-94.6	0.0
2025-01-19 06:33:53.474495	37.1	11.4	-94.4	0.0
2025-01-19 06:33:54.594986	37.2	11.5	-94.2	0.0
2025-01-19 06:33:55.716212	37.3	11.6	-94.4	0.0
2025-01-19 06:33:56.837385	37.5	11.6	-94.3	0.0
2025-01-19 06:33:57.960747	37.6	11.7	-94.3	0.0
2025-01-19 06:33:59.080439	37.7	11.8	-94.5	0.0
2025-01-19 06:34:00.200923	37.9	11.9	-94.8	0.0
2025-01-19 06:34:01.321256	38.0	12.0	-94.4	0.0
2025-01-19 06:34:02.441181	38.1	12.0	-94.5	0.0
2025-01-19 06:34:03.562583	38.3	12.1	-94.6	0.0
2025-01-19 06:34:04.682237	38.4	12.2	-94.8	0.0
2025-01-19 06:34:05.803488	38.6	12.3	-94.4	0.0
2025-01-19 06:34:06.925602	38.7	12.4	-94.7	0.0
2025-01-19 06:34:08.045605	38.8	12.4	-94.8	0.0
2025-01-19 06:34:09.166013	39.0	12.5	-94.5	0.0
2025-01-19 06:34:10.286270	39.1	12.6	-94.7	0.0
2025-01-19 06:34:11.408471	39.3	12.7	-94.6	0.0
2025-01-19 06:34:12.528888	39.4	12.8	-94.4	0.0
2025-01-19 06:34:13.648481	39.5	12.9	-94.6	0.0
2025-01-19 06:34:14.769402	39.7	12.9	-94.7	0.0
2025-01-19 06:34:15.889845	39.8	13.0	-94.8	0.0
2025-01-19 06:34:17.010888	40.0	13.1	-94.5	0.0
2025-01-19 06:34:18.134030	40.1	13.2	-94.6	0.0
2025-01-19 06:34:19.255125	40.3	13.3	-94.6	0.0
2025-01-19 06:34:20.376683	40.4	13.3	-94.5	0.0
2025-01-19 06:34:21.496585	40.6	13.4	-94.7	0.0
2025-01-19 06:34:22.617360	40.7	13.5	-94.6	0.0
2025-01-19 06:34:23.735682	40.9	13.6	-94.5	0.0
2025-01-19 06:34:24.858639	41.0	13.7	-94.6	0.0
2025-01-19 06:34:25.980580	41.2	13.8	-94.7	0.0
2025-01-19 06:34:27.099204	41.3	13.8	-94.6	0.0
2025-01-19 06:34:28.221117	41.5	13.9	-94.8	0.0
2025-01-19 06:34:29.342587	41.6	14.0	-94.9	0.0
2025-01-19 06:34:30.463195	41.8	14.1	-94.4	0.0
2025-01-19 06:34:31.584663	41.9	14.2	-94.5	0.0
2025-01-19 06:34:32.707168	42.1	14.3	-94.7	0.0
2025-01-19 06:34:33.826140	42.2	14.3	-94.7	0.0
2025-01-19 06:34:34.944776	42.4	14.4	-94.9	0.0
2025-01-19 06:34:36.065471	42.6	14.5	-94.7	0.0
2025-01-19 06:34:37.185467	42.7	14.6	-94.8	0.0
2025-01-19 06:34:38.309034	42.9	14.7	-95.0	0.0
2025-01-19 06:34:39.430228	43.0	14.8	-94.8	0.0
2025-01-19 06:34:40.550818	43.2	14.8	-94.7	0.0
2025-01-19 06:34:41.672419	43.4	14.9	-94.5	0.0
2025-01-19 06:34:42.793720	43.5	15.0	-94.7	0.0
2025-01-19 06:34:43.913504	43.7	15.1	-94.7	0.0
2025-01-19 06:34:45.033784	43.9	15.2	-94.8	0.0
2025-01-19 06:34:46.155134	44.0	15.3	-94.9	0.0
2025-01-19 06:34:47.276599	44.2	15.3	-94.7	0.0
2025-01-19 06:34:48.399158	44.4	15.4	-94.6	0.0
2025-01-19 06:34:49.519717	44.5	15.5	-94.6	0.0
2025-01-19 06:34:50.640435	44.7	15.6	-94.6	0.0
2025-01-19 06:34:51.761293	44.9	15.7	-94.7	0.0
2025-01-19 06:34:52.880751	45.0	15.8	-94.4	0.0
2025-01-19 06:34:54.002427	45.2	15.8	-94.4	0.0
2025-01-19 06:34:55.122289	45.4	15.9	-94.6	0.0
2025-01-19 06:34:56.243645	45.6	16.0	-94.8	0.0
2025-01-19 06:34:57.363493	45.7	16.1	-94.4	0.0
2025-01-19 06:34:58.484507	45.9	16.2	-94.5	0.0
2025-01-19 06:34:59.606304	46.1	16.3	-94.5	0.0
2025-01-19 06:35:00.727258	46.3	16.4	-94.4	0.0
2025-01-19 06:35:01.847486	46.5	16.4	-94.6	0.0
2025-01-19 06:35:02.970284	46.6	16.5	-94.5	0.0
2025-01-19 06:35:04.092042	46.8	16.6	-94.7	0.0
2025-01-19 06:35:05.212969	47.0	16.7	-94.6	0.0
2025-01-19 06:35:06.333204	47.2	16.8	-94.2	0.0
2025-01-19 06:35:07.455455	47.4	16.9	-94.6	0.0
2025-01-19 06:35:08.576926	47.6	17.0	-94.6	0.0
2025-01-19 06:35:09.700479	47.7	17.0	-94.7	0.0
2025-01-19 06:35:10.823471	47.9	17.1	-94.6	0.0
2025-01-19 06:35:11.943392	48.1	17.2	-94.7	0.0
2025-01-19 06:35:13.065801	48.3	17.3	-94.6	0.0
2025-01-19 06:35:14.186670	48.5	17.4	-94.6	0.0
2025-01-19 06:35:15.308441	48.7	17.5	-94.5	0.0
2025-01-19 06:35:16.430347	48.9	17.5	-94.7	0.0
2025-01-19 06:35:17.551480	49.1	17.6	-94.7	0.0
2025-01-19 06:35:18.670542	49.3	17.7	-94.8	0.0
2025-01-19 06:35:19.792288	49.5	17.8	-94.6	0.0
2025-01-19 06:35:20.912590	49.7	17.9	-94.8	0.0
2025-01-19 06:35:22.033962	49.9	18.0	-94.6	0.0
2025-01-19 06:35:23.153666	50.1	18.1	-94.8	0.0
2025-01-19 06:35:24.275672	50.3	18.1	-94.6	0.0
2025-01-19 06:35:25.396655	50.5	18.2	-94.6	0.0
2025-01-19 06:35:26.518549	50.7	18.3	-94.7	0.0
2025-01-19 06:35:27.641345	50.9	18.4	-94.7	0.0
2025-01-19 06:35:28.762446	51.1	18.5	-94.6	0.0
2025-01-19 06:35:29.883352	51.3	18.6	-94.8	0.0
2025-01-19 06:35:31.005193	51.5	18.6	-94.7	0.0
2025-01-19 06:35:32.128098	51.7	18.7	-94.5	0.0
2025-01-19 06:35:33.247377	51.9	18.8	-95.1	0.0
2025-01-19 06:35:34.367023	52.1	18.9	-94.8	0.0
2025-01-19 06:35:35.486422	52.3	19.0	-94.8	0.0
2025-01-19 06:35:36.608620	52.5	19.1	-94.7	0.0
2025-01-19 06:35:37.732481	52.8	19.2	-94.6	0.0
2025-01-19 06:35:38.853798	53.0	19.2	-94.9	0.0
2025-01-19 06:35:39.975957	53.2	19.3	-94.7	0.0
2025-01-19 06:35:41.097258	53.4	19.4	-94.9	0.0
2025-01-19 06:35:42.217605	53.6	19.5	-94.8	0.0
2025-01-19 06:35:43.336075	53.8	19.6	-94.8	0.0
2025-01-19 06:35:44.455523	54.1	19.7	-95.0	0.0
2025-01-19 06:35:45.577327	54.3	19.7	-94.7	0.0
2025-01-19 06:35:46.698046	54.5	19.8	-94.6	0.0
2025-01-19 06:35:47.819510	54.7	19.9	-94.6	0.0
2025-01-19 06:35:48.941170	55.0	20.0	-94.8	0.0
2025-01-19 06:35:50.062646	55.2	20.1	-94.8	0.0
2025-01-19 06:35:51.183110	55.4	20.1	-94.8	0.0
2025-01-19 06:35:52.302856	55.6	20.2	-94.8	0.0
2025-01-19 06:35:53.421266	55.9	20.3	-94.6	0.0
2025-01-19 06:35:54.540913	56.1	20.4	-94.5	0.0
2025-01-19 06:35:55.662342	56.3	20.5	-94.8	0.0
2025-01-19 06:35:56.782219	56.6	20.6	-94.7	0.0
2025-01-19 06:35:57.902469	56.8	20.6	-94.6	0.0
2025-01-19 06:35:59.022458	57.0	20.7	-94.4	0.0
2025-01-19 06:36:00.144792	57.3	20.8	-94.7	0.0
2025-01-19 06:36:01.267639	57.5	20.9	-94.7	0.0
2025-01-19 06:36:02.386045	57.8	21.0	-94.7	0.0
2025-01-19 06:36:03.507026	58.0	21.0	-94.6	0.0
2025-01-19 06:36:04.628663	58.2	21.1	-94.7	0.0
2025-01-19 06:36:05.748289	58.5	21.2	-94.7	0.0
2025-01-19 06:36:06.869956	58.7	21.3	-94.7	0.0
2025-01-19 06:36:07.990359	59.0	21.4	-94.7	0.0
2025-01-19 06:36:09.110047	59.2	21.4	-94.6	0.0
2025-01-19 06:36:10.232397	59.5	21.5	-94.7	0.0
2025-01-19 06:36:11.352080	59.7	21.6	-94.5	0.0
2025-01-19 06:36:12.471696	60.0	21.7	-94.6	0.0
2025-01-19 06:36:13.593836	60.2	21.7	-94.6	0.0
2025-01-19 06:36:14.713492	60.5	21.8	-94.8	0.0
2025-01-19 06:36:15.834485	60.7	21.9	-94.5	0.0
2025-01-19 06:36:16.954123	61.0	22.0	-94.4	0.0
2025-01-19 06:36:18.074935	61.2	22.0	-94.6	0.0
2025-01-19 06:36:19.194526	61.5	22.1	-94.7	0.0
2025-01-19 06:36:20.313459	61.7	22.2	-94.7	0.0
2025-01-19 06:36:21.437213	62.0	22.3	-94.6	0.0
2025-01-19 06:36:22.560555	62.3	22.3	-94.6	0.0
2025-01-19 06:36:23.682289	62.5	22.4	-94.7	0.0
2025-01-19 06:36:24.802000	62.8	22.5	-94.9	0.0
2025-01-19 06:36:25.923354	63.1	22.6	-94.8	0.0
2025-01-19 06:36:27.044915	63.3	22.6	-94.8	0.0
2025-01-19 06:36:28.166951	63.6	22.7	-94.8	0.0
2025-01-19 06:36:29.289251	63.9	22.8	-94.8	0.0
2025-01-19 06:36:30.410690	64.1	22.9	-94.7	0.0
2025-01-19 06:36:31.530531	64.4	22.9	-94.9	0.0
2025-01-19 06:36:32.652443	64.7	23.0	-94.8	0.0
2025-01-19 06:36:33.774467	65.0	23.1	-94.8	0.0
2025-01-19 06:36:34.895274	65.2	23.1	-94.7	0.0
2025-01-19 06:36:36.014498	65.5	23.2	-94.9	0.0
2025-01-19 06:36:37.136121	65.8	23.3	-94.6	0.0
2025-01-19 06:36:38.256953	66.1	23.3	-95.0	0.0
2025-01-19 06:36:39.376947	66.3	23.4	-94.9	0.0
2025-01-19 06:36:40.496735	66.6	23.5	-94.7	0.0
2025-01-19 06:36:41.615526	66.9	23.5	-94.6	0.0
2025-01-19 06:36:42.736729	67.2	23.6	-94.9	0.0
2025-01-19 06:36:43.856833	67.5	23.7	-94.8	0.0
2025-01-19 06:36:44.977870	67.7	23.7	-94.7	0.0
2025-01-19 06:36:46.099514	68.0	23.8	-94.6	0.0
2025-01-19 06:36:47.219716	68.3	23.9	-94.9	0.0
2025-01-19 06:36:48.340043	68.6	23.9	-95.0	0.0
2025-01-19 06:36:49.462875	68.9	24.0	-95.0	0.0
2025-01-19 06:36:50.583520	69.2	24.1	-94.7	0.0
2025-01-19 06:36:51.706480	69.5	24.1	-94.8	0.0
2025-01-19 06:36:52.828348	69.8	24.2	-94.9	0.0
2025-01-19 06:36:53.948800	70.1	24.2	-94.7	0.0
2025-01-19 06:36:55.069469	70.4	24.3	-94.8	0.0
2025-01-19 06:36:56.189978	70.7	24.4	-94.7	0.0
2025-01-19 06:36:57.309497	71.0	24.4	-94.7	0.0
2025-01-19 06:36:58.429038	71.3	24.5	-94.6	0.0
2025-01-19 06:36:59.549117	71.6	24.5	-94.7	0.0
2025-01-19 06:37:00.670210	71.9	24.6	-94.8	0.0
2025-01-19 06:37:01.788317	72.2	24.6	-94.5	0.0
2025-01-19 06:37:02.911615	72.5	24.7	-94.4	0.0
2025-01-19 06:37:04.031876	72.8	24.7	-94.7	0.0
2025-01-19 06:37:05.152699	73.1	24.8	-94.7	0.0
2025-01-19 06:37:06.274075	73.4	24.8	-94.7	0.0
2025-01-19 06:37:07.394899	73.7	24.9	-94.5	0.0
2025-01-19 06:37:08.515832	74.0	25.0	-94.7	0.0
2025-01-19 06:37:09.635731	74.3	25.0	-94.5	0.0
2025-01-19 06:37:10.756104	74.6	25.1	-94.6	0.0
2025-01-19 06:37:11.878519	74.9	25.1	-94.6	0.0
2025-01-19 06:37:13.000485	75.2	25.1	-94.9	0.0
2025-01-19 06:37:14.121770	75.5	25.2	-94.8	0.0
2025-01-19 06:37:15.242841	75.9	25.2	-94.4	0.0
2025-01-19 06:37:16.365390	76.2	25.3	-94.5	0.0
2025-01-19 06:37:17.486219	76.5	25.3	-94.8	0.0
2025-01-19 06:37:18.605638	76.8	25.4	-94.6	0.0
2025-01-19 06:37:19.725621	77.1	25.4	-94.8	0.0
2025-01-19 06:37:20.847539	77.4	25.5	-94.7	0.0
2025-01-19 06:37:21.970712	77.8	25.5	-94.7	0.0
2025-01-19 06:37:23.091359	78.1	25.5	-94.6	0.0
2025-01-19 06:37:24.213688	78.4	25.6	-94.8	0.0
2025-01-19 06:37:25.335296	78.7	25.6	-94.5	0.0
2025-01-19 06:37:26.455435	79.0	25.7	-94.9	0.0
2025-01-19 06:37:27.577763	79.4	25.7	-94.8	0.0
2025-01-19 06:37:28.698540	79.7	25.7	-94.8	0.0
2025-01-19 06:37:29.818969	80.0	25.8	-94.6	0.0
2025-01-19 06:37:30.940864	80.3	25.8	-95.0	0.0
2025-01-19 06:37:32.061134	80.7	25.8	-95.0	0.0
2025-01-19 06:37:33.180442	81.0	25.9	-94.7	0.0
2025-01-19 06:37:34.303300	81.3	25.9	-94.7	0.0
2025-01-19 06:37:35.423567	81.6	25.9	-94.8	0.0
2025-01-19 06:37:36.545619	82.0	26.0	-94.9	0.0
2025-01-19 06:37:37.669086	82.3	26.0	-94.6	0.0
2025-01-19 06:37:38.790770	82.6	26.0	-94.9	0.0
2025-01-19 06:37:39.911185	83.0	26.0	-94.9	0.0
2025-01-19 06:37:41.032465	83.3	26.1	-94.8	0.0
2025-01-19 06:37:42.152578	83.6	26.1	-94.5	0.0
2025-01-19 06:37:43.272999	83.9	26.1	-94.7	0.0
2025-01-19 06:37:44.392767	84.3	26.1	-94.8	0.0
2025-01-19 06:37:45.511979	84.6	26.2	-94.6	0.0
2025-01-19 06:37:46.633482	84.9	26.2	-94.9	0.0
2025-01-19 06:37:47.753600	85.3	26.2	-94.7	0.0
2025-01-19 06:37:48.874208	85.6	26.2	-94.7	0.0
2025-01-19 06:37:49.993526	85.9	26.2	-94.8	0.0
2025-01-19 06:37:51.114344	86.3	26.2	-94.8	0.0
2025-01-19 06:37:52.237066	86.6	26.3	-94.4	0.0
2025-01-19 06:37:53.358710	86.9	26.3	-94.8	0.0
2025-01-19 06:37:54.478052	87.3	26.3	-94.8	0.0
2025-01-19 06:37:55.596982	87.6	26.3	-94.8	0.0
2025-01-19 06:37:56.716521	87.9	26.3	-94.5	0.0
2025-01-19 06:37:57.837231	88.3	26.3	-94.6	0.0
2025-01-19 06:37:58.955687	88.6	26.3	-94.6	0.0
2025-01-19 06:38:00.076267	88.9	26.3	-94.7	0.0
2025-01-19 06:38:01.195473	89.3	26.3	-94.9	0.0
2025-01-19 06:38:02.316755	89.6	26.4	-94.6	0.0
2025-01-19 06:38:03.436691	90.0	26.4	-94.9	0.0
2025-01-19 06:38:04.558856	90.3	26.4	-94.7	0.0
2025-01-19 06:38:05.682520	90.6	26.4	-94.8	0.0
2025-01-19 06:38:06.804731	91.0	26.4	-94.8	0.0
2025-01-19 06:38:07.925084	91.3	26.4	-94.7	0.0
2025-01-19 06:38:09.045993	91.6	26.4	-94.5	0.0
2025-01-19 06:38:10.169026	92.0	26.4	-94.7	0.0
2025-01-19 06:38:11.289821	92.3	26.4	-94.7	0.0
2025-01-19 06:38:12.411282	92.7	26.4	-94.6	0.0
2025-01-19 06:38:13.530968	93.0	26.4	-94.8	0.0
2025-01-19 06:38:14.649309	93.3	26.4	-94.6	0.0
2025-01-19 06:38:15.768706	93.7	26.3	-94.4	0.0
2025-01-19 06:38:16.889179	94.0	26.3	-94.7	0.0
2025-01-19 06:38:18.012496	94.3	26.3	-94.7	0.0
2025-01-19 06:38:19.135397	94.7	26.3	-94.8	0.0
2025-01-19 06:38:20.255531	95.0	26.3	-94.7	0.0
2025-01-19 06:38:21.374707	95.3	26.3	-94.4	0.0
2025-01-19 06:38:22.494317	95.7	26.3	-94.9	0.0
2025-01-19 06:38:23.614611	96.0	26.3	-94.9	0.0
2025-01-19 06:38:24.735203	96.3	26.3	-94.6	0.0
2025-01-19 06:38:25.855275	96.7	26.2	-94.6	0.0
2025-01-19 06:38:26.977234	97.0	26.2	-94.8	0.0
2025-01-19 06:38:28.098973	97.3	26.2	-94.7	0.0
2025-01-19 06:38:29.219846	97.7	26.2	-94.6	0.0
2025-01-19 06:38:30.338591	98.0	26.2	-94.5	0.0
2025-01-19 06:38:31.459272	98.3	26.2	-94.7	0.0
2025-01-19 06:38:32.579387	98.7	26.1	-94.8	0.0
2025-01-19 06:38:33.698275	99.0	26.1	-95.0	0.0
2025-01-19 06:38:34.817754	99.3	26.1	-94.7	0.0
2025-01-19 06:38:35.939291	99.7	26.1	-94.7	0.0
2025-01-19 06:38:37.060539	100.0	26.0	-94.7	0.0
2025-01-19 06:38:38.182697	100.3	26.0	-94.5	0.0
2025-01-19 06:38:39.300894	100.7	26.0	-94.8	0.0
2025-01-19 06:38:40.421318	101.0	26.0	-94.8	0.0
2025-01-19 06:38:41.541225	101.3	25.9	-94.6	0.0
2025-01-19 06:38:42.661642	101.6	25.9	-94.7	0.0
2025-01-19 06:38:43.783668	102.0	25.9	-94.8	0.0
2025-01-19 06:38:44.904528	102.3	25.8	-94.8	0.0
2025-01-19 06:38:46.025986	102.6	25.8	-94.7	0.0
2025-01-19 06:38:47.146531	102.9	25.8	-94.6	0.0
2025-01-19 06:38:48.265964	103.3	25.7	-94.6	0.0
2025-01-19 06:38:49.389500	103.6	25.7	-94.7	0.0
2025-01-19 06:38:50.511841	103.9	25.7	-94.8	0.0
2025-01-19 06:38:51.632161	104.2	25.6	-95.0	0.0
2025-01-19 06:38:52.753675	104.6	25.6	-95.0	0.0
2025-01-19 06:38:53.875675	104.9	25.5	-94.9	0.0
2025-01-19 06:38:54.998073	105.2	25.5	-94.7	0.0
2025-01-19 06:38:56.118040	105.5	25.5	-95.0	0.0
2025-01-19 06:38:57.239683	105.8	25.4	-94.9	0.0
2025-01-19 06:38:58.360329	106.1	25.4	-94.9	0.0
2025-01-19 06:38:59.480608	106.5	25.3	-95.0	0.0
2025-01-19 06:39:00.602456	106.8	25.3	-94.9	0.0
2025-01-19 06:39:01.723609	107.1	25.2	-95.0	0.0
2025-01-19 06:39:02.844089	107.4	25.2	-95.0	0.0
2025-01-19 06:39:03.965025	107.7	25.2	-95.0	0.0
2025-01-19 06:39:05.084519	108.0	25.1	-95.0	0.0
2025-01-19 06:39:06.206670	108.3	25.1	-95.2	0.0
2025-01-19 06:39:07.327604	108.7	25.0	-94.8	0.0
2025-01-19 06:39:08.448621	109.0	25.0	-94.9	0.0
2025-01-19 06:39:09.571698	109.3	24.9	-94.6	0.0
2025-01-19 06:39:10.692296	109.6	24.9	-95.0	0.0
2025-01-19 06:39:11.813997	109.9	24.8	-94.9	0.0
2025-01-19 06:39:12.936683	110.2	24.7	-94.8	0.0
2025-01-19 06:39:14.057557	110.5	24.7	-94.8	0.0
2025-01-19 06:39:15.179984	110.8	24.6	-94.6	0.0
2025-01-19 06:39:16.300227	111.1	24.6	-94.6	0.0
2025-01-19 06:39:17.418728	111.4	24.5	-94.8	0.0
2025-01-19 06:39:18.539136	111.7	24.5	-94.8	0.0
2025-01-19 06:39:19.662525	112.0	24.4	-94.8	0.0
2025-01-19 06:39:20.781685	112.3	24.4	-94.6	0.0
2025-01-19 06:39:21.902584	112.6	24.3	-94.6	0.0
2025-01-19 06:39:23.022199	112.9	24.2	-94.5	0.0
2025-01-19 06:39:24.143927	113.2	24.2	-94.7	0.0
2025-01-19 06:39:25.265170	113.5	24.1	-94.8	0.0
2025-01-19 06:39:26.385264	113.8	24.1	-94.5	0.0
2025-01-19 06:39:27.505852	114.1	24.0	-94.6	0.0
2025-01-19 06:39:28.626451	114.3	23.9	-94.6	0.0
2025-01-19 06:39:29.745660	114.6	23.9	-94.7	0.0
2025-01-19 06:39:30.867351	114.9	23.8	-94.4	0.0
2025-01-19 06:39:31.989946	115.2	23.7	-94.6	0.0
2025-01-19 06:39:33.113293	115.5	23.7	-94.8	0.0
2025-01-19 06:39:34.236243	115.8	23.6	-94.6	0.0
2025-01-19 06:39:35.357519	116.1	23.5	-94.5	0.0
2025-01-19 06:39:36.476873	116.3	23.5	-94.8	0.0
2025-01-19 06:39:37.599950	116.6	23.4	-94.9	0.0
2025-01-19 06:39:38.718594	116.9	23.3	-94.8	0.0
2025-01-19 06:39:39.839858	117.2	23.3	-94.5	0.0
2025-01-19 06:39:40.962608	117.5	23.2	-94.8	0.0
2025-01-19 06:39:42.084447	117.7	23.1	-94.8	0.0
2025-01-19 06:39:43.204692	118.0	23.1	-94.8	0.0
2025-01-19 06:39:44.323150	118.3	23.0	-94.7	0.0
2025-01-19 06:39:45.444541	118.6	22.9	-94.8	0.0
2025-01-19 06:39:46.563804	118.8	22.9	-95.1	0.0
2025-01-19 06:39:47.682277	119.1	22.8	-94.7	0.0
2025-01-19 06:39:48.804865	119.4	22.7	-94.9	0.0
2025-01-19 06:39:49.925046	119.6	22.6	-94.8	0.0
2025-01-19 06:39:51.044947	119.9	22.6	-94.7	0.0
2025-01-19 06:39:52.167024	120.2	22.5	-94.8	0.0
2025-01-19 06:39:53.286010	120.4	22.4	-94.8	0.0
2025-01-19 06:39:54.408318	120.7	22.3	-95.0	0.0
2025-01-19 06:39:55.529839	121.0	22.3	-95.0	0.0
2025-01-19 06:39:56.650392	121.2	22.2	-94.8	0.0
2025-01-19 06:39:57.771510	121.5	22.1	-94.8	0.0
2025-01-19 06:39:58.894518	121.7	22.0	-94.8	0.0
2025-01-19 06:40:00.014255	122.0	22.0	-95.1	0.0
2025-01-19 06:40:01.137037	122.3	21.9	-95.0	0.0
2025-01-19 06:40:02.257499	122.5	21.8	-94.4	0.0
2025-01-19 06:40:03.377611	122.8	21.7	-94.8	0.0
2025-01-19 06:40:04.498257	123.0	21.7	-94.7	0.0
2025-01-19 06:40:05.617582	123.3	21.6	-94.9	0.0
2025-01-19 06:40:06.739579	123.5	21.5	-94.8	0.0
2025-01-19 06:40:07.862250	123.8	21.4	-95.0	0.0
2025-01-19 06:40:08.982603	124.0	21.3	-94.8	0.0
2025-01-19 06:40:10.103176	124.3	21.3	-94.8	0.0
2025-01-19 06:40:11.223201	124.5	21.2	-94.9	0.0
2025-01-19 06:40:12.343252	124.7	21.1	-94.8	0.0
2025-01-19 06:40:13.465588	125.0	21.0	-94.9	0.0
2025-01-19 06:40:14.582889	125.2	21.0	-94.8	0.0
2025-01-19 06:40:15.706548	125.5	20.9	-94.8	0.0
2025-01-19 06:40:16.828322	125.7	20.8	-94.6	0.0
2025-01-19 06:40:17.947600	125.9	20.7	-94.7	0.0
2025-01-19 06:40:19.067187	126.2	20.6	-94.8	0.0
2025-01-19 06:40:20.187791	126.4	20.5	-94.9	0.0
2025-01-19 06:40:21.310567	126.6	20.5	-94.5	0.0
2025-01-19 06:40:22.432671	126.9	20.4	-94.7	0.0
2025-01-19 06:40:23.553666	127.1	20.3	-94.7	0.0
2025-01-19 06:40:24.675514	127.3	20.2	-94.4	0.0
2025-01-19 06:40:25.795518	127.6	20.1	-94.7	0.0
2025-01-19 06:40:26.915311	127.8	20.1	-94.7	0.0
2025-01-19 06:40:28.036391	128.0	20.0	-94.4	0.0
2025-01-19 06:40:29.156307	128.2	19.9	-94.5	0.0
2025-01-19 06:40:30.276467	128.5	19.8	-95.1	0.0
2025-01-19 06:40:31.399304	128.7	19.7	-94.7	0.0
2025-01-19 06:40:32.518594	128.9	19.6	-94.6	0.0
2025-01-19 06:40:33.639447	129.1	19.6	-94.2	0.0
2025-01-19 06:40:34.761308	129.4	19.5	-94.4	0.0
2025-01-19 06:40:35.880874	129.6	19.4	-94.5	0.0
2025-01-19 06:40:37.003171	129.8	19.3	-94.9	0.0
2025-01-19 06:40:38.124589	130.0	19.2	-94.7	0.0
2025-01-19 06:40:39.244351	130.2	19.1	-94.5	0.0
2025-01-19 06:40:40.366617	130.4	19.1	-94.7	0.0
2025-01-19 06:40:41.485931	130.6	19.0	-94.6	0.0
2025-01-19 06:40:42.608268	130.9	18.9	-94.6	0.0
2025-01-19 06:40:43.728413	131.1	18.8	-94.8	0.0
2025-01-19 06:40:44.848623	131.3	18.7	-94.7	0.0
2025-01-19 06:40:45.969473	131.5	18.6	-94.6	0.0
2025-01-19 06:40:47.089703	131.7	18.6	-94.4	0.0
2025-01-19 06:40:48.212138	131.9	18.5	-94.8	0.0
2025-01-19 06:40:49.333020	132.1	18.4	-94.8	0.0
2025-01-19 06:40:50.454348	132.3	18.3	-95.0	0.0
2025-01-19 06:40:51.576373	132.5	18.2	-94.9	0.0
2025-01-19 06:40:52.699468	132.7	18.1	-95.0	0.0
2025-01-19 06:40:53.819672	132.9	18.0	-94.9	0.0
2025-01-19 06:40:54.941325	133.1	18.0	-94.7	0.0
2025-01-19 06:40:56.061037	133.3	17.9	-95.0	0.0
2025-01-19 06:40:57.182798	133.5	17.8	-94.6	0.0
2025-01-19 06:40:58.304839	133.7	17.7	-94.9	0.0
2025-01-19 06:40:59.424415	133.9	17.6	-95.0	0.0
2025-01-19 06:41:00.544788	134.1	17.5	-95.0	0.0
2025-01-19 06:41:01.666849	134.3	17.4	-95.0	0.0
2025-01-19 06:41:02.786827	134.5	17.4	-95.1	0.0
2025-01-19 06:41:03.908407	134.7	17.3	-95.0	0.0
2025-01-19 06:41:05.029742	134.9	17.2	-95.1	0.0
2025-01-19 06:41:06.149939	135.0	17.1	-94.6	0.0
2025-01-19 06:41:07.270586	135.2	17.0	-94.7	0.0
2025-01-19 06:41:08.390984	135.4	16.9	-94.9	0.0
2025-01-19 06:41:09.510882	135.6	16.9	-94.9	0.0
2025-01-19 06:41:10.633373	135.8	16.8	-95.0	0.0
2025-01-19 06:41:11.755216	136.0	16.7	-94.6	0.0
2025-01-19 06:41:12.876325	136.2	16.6	-94.6	0.0
2025-01-19 06:41:13.996942	136.3	16.5	-94.9	0.0
2025-01-19 06:41:15.117161	136.5	16.4	-95.0	0.0
2025-01-19 06:41:16.238126	136.7	16.3	-94.9	0.0
2025-01-19 06:41:17.358643	136.9	16.3	-94.6	0.0
2025-01-19 06:41:18.479352	137.1	16.2	-94.7	0.0
2025-01-19 06:41:19.602258	137.2	16.1	-94.7	0.0
2025-01-19 06:41:20.720870	137.4	16.0	-94.8	0.0
2025-01-19 06:41:21.842606	137.6	15.9	-94.7	0.0
2025-01-19 06:41:22.963387	137.8	15.8	-94.7	0.0
2025-01-19 06:41:24.085903	137.9	15.7	-94.8	0.0
2025-01-19 06:41:25.208526	138.1	15.7	-94.7	0.0
2025-01-19 06:41:26.328693	138.3	15.6	-94.6	0.0
2025-01-19 06:41:27.449275	138.4	15.5	-94.8	0.0
2025-01-19 06:41:28.573237	138.6	15.4	-94.6	0.0
2025-01-19 06:41:29.693935	138.8	15.3	-94.9	0.0
2025-01-19 06:41:30.813228	138.9	15.2	-94.5	0.0
2025-01-19 06:41:31.934329	139.1	15.2	-94.7	0.0
2025-01-19 06:41:33.054028	139.3	15.1	-94.8	0.0
2025-01-19 06:41:34.174313	139.4	15.0	-94.9	0.0
2025-01-19 06:41:35.296880	139.6	14.9	-94.9	0.0
2025-01-19 06:41:36.417711	139.8	14.8	-94.5	0.0
2025-01-19 06:41:37.538405	139.9	14.7	-94.7	0.0
2025-01-19 06:41:38.659112	140.1	14.6	-94.8	0.0
2025-01-19 06:41:39.779149	140.3	14.6	-95.0	0.0
2025-01-19 06:41:40.899505	140.4	14.5	-94.8	0.0
2025-01-19 06:41:42.020846	140.6	14.4	-94.7	0.0
2025-01-19 06:41:43.140574	140.7	14.3	-94.7	0.0
2025-01-19 06:41:44.262546	140.9	14.2	-95.1	0.0
2025-01-19 06:41:45.383730	141.0	14.1	-94.8	0.0
2025-01-19 06:41:46.506240	141.2	14.1	-94.6	0.0
2025-01-19 06:41:47.627036	141.3	14.0	-94.8	0.0
2025-01-19 06:41:48.745932	141.5	13.9	-94.9	0.0
2025-01-19 06:41:49.869448	141.7	13.8	-94.8	0.0
2025-01-19 06:41:50.990183	141.8	13.7	-94.8	0.0
2025-01-19 06:41:52.110300	142.0	13.6	-95.1	0.0
2025-01-19 06:41:53.232780	142.1	13.6	-95.0	0.0
2025-01-19 06:41:54.355388	142.3	13.5	-95.0	0.0
2025-01-19 06:41:55.476517	142.4	13.4	-94.9	0.0
2025-01-19 06:41:56.599231	142.6	13.3	-94.9	0.0
2025-01-19 06:41:57.718125	142.7	13.2	-94.9	0.0
2025-01-19 06:41:58.838097	142.8	13.1	-95.1	0.0
2025-01-19 06:41:59.958897	143.0	13.1	-95.0	0.0
2025-01-19 06:42:01.078777	143.1	13.0	-95.2	0.0
2025-01-19 06:42:02.198864	143.3	12.9	-95.1	0.0
2025-01-19 06:42:03.318981	143.4	12.8	-95.1	0.0
2025-01-19 06:42:04.439419	143.6	12.7	-94.8	0.0
2025-01-19 06:42:05.560730	143.7	12.7	-95.0	0.0
2025-01-19 06:42:06.680985	143.8	12.6	-95.0	0.0
2025-01-19 06:42:07.800598	144.0	12.5	-95.1	0.0
2025-01-19 06:42:08.924421	144.1	12.4	-95.0	0.0
2025-01-19 06:42:10.043716	144.3	12.3	-95.0	0.0
2025-01-19 06:42:11.163909	144.4	12.2	-95.2	0.0
2025-01-19 06:42:12.284135	144.5	12.2	-95.0	0.0
2025-01-19 06:42:13.403010	144.7	12.1	-95.0	0.0
2025-01-19 06:42:14.524873	144.8	12.0	-95.2	0.0
2025-01-19 06:42:15.642360	144.9	11.9	-94.9	0.0
2025-01-19 06:42:16.763576	145.1	11.8	-95.1	0.0
2025-01-19 06:42:17.884365	145.2	11.8	-95.1	0.0
2025-01-19 06:42:19.005703	145.3	11.7	-95.1	0.0
2025-01-19 06:42:20.129876	145.5	11.6	-95.1	0.0
2025-01-19 06:42:21.251369	145.6	11.5	-94.8	0.0
2025-01-19 06:42:22.373582	145.7	11.4	-94.8	0.0
2025-01-19 06:42:23.494414	145.9	11.4	-95.1	0.0
2025-01-19 06:42:24.615267	146.0	11.3	-94.7	0.0
2025-01-19 06:42:25.738760	146.1	11.2	-94.6	0.0
2025-01-19 06:42:26.859270	146.3	11.1	-94.8	0.0
2025-01-19 06:42:27.980250	146.4	11.0	-94.9	0.0
2025-01-19 06:42:29.099294	146.5	11.0	-94.7	0.0
2025-01-19 06:42:30.218216	146.6	10.9	-94.5	0.0
2025-01-19 06:42:31.338101	146.8	10.8	-94.8	0.0
2025-01-19 06:42:32.460794	146.9	10.7	-94.4	0.0
2025-01-19 06:42:33.580874	147.0	10.7	-94.8	0.0
2025-01-19 06:42:34.701341	147.1	10.6	-94.8	0.0
2025-01-19 06:42:35.821304	147.3	10.5	-94.8	0.0
2025-01-19 06:42:36.941722	147.4	10.4	-94.5	0.0
2025-01-19 06:42:38.062073	147.5	10.3	-94.8	0.0
2025-01-19 06:42:39.181306	147.6	10.3	-94.9	0.0
2025-01-19 06:42:40.301933	147.7	10.2	-95.0	0.0
2025-01-19 06:42:41.423691	147.9	10.1	-94.6	0.0
#Closed at: 2025-01-19 06:33:28.381607