passes_logs/2025/01/19/planumMaritime01/planumMaritime01__20250119_081343_NOAA_19_rec.log

#Pass ID: 20250119_081343_NOAA 19
#Satellite: NOAA 19
#Configuration: NOAA 19
#Start time: 2025-01-19 08:13:48.059660

#LorettStation: 1.0.0 05.05.2024
#Station: planumMaritime01
#Location: 37.49445 lon 55.92918 lat
#TLE: 1 33591U 09005A   25018.04840605  .00000325  00000+0  19728-3 0  9997
#TLE: 2 33591  99.0190  81.8343 0014373  49.4310 310.8111 14.13261983821977

#Time	Az	El	Level	SNR
2025-01-19 08:13:50.212787	14.0	10.2	-94.7	0.0
2025-01-19 08:13:51.334396	13.9	10.3	-94.4	0.0
2025-01-19 08:13:52.457256	13.9	10.4	-94.5	0.0
2025-01-19 08:13:53.580737	13.9	10.5	-94.6	0.0
2025-01-19 08:13:54.701169	13.9	10.6	-94.5	0.0
2025-01-19 08:13:55.822351	13.9	10.7	-94.6	0.0
2025-01-19 08:13:56.944569	13.8	10.8	-94.6	0.0
2025-01-19 08:13:58.066194	13.8	10.9	-94.6	0.0
2025-01-19 08:13:59.187390	13.8	11.0	-94.5	0.0
2025-01-19 08:14:00.309214	13.8	11.1	-94.6	0.0
2025-01-19 08:14:01.430616	13.7	11.2	-94.4	0.0
2025-01-19 08:14:02.552227	13.7	11.3	-94.8	0.0
2025-01-19 08:14:03.672095	13.7	11.4	-94.6	0.0
2025-01-19 08:14:04.792489	13.7	11.5	-94.5	0.0
2025-01-19 08:14:05.914226	13.6	11.6	-94.5	0.0
2025-01-19 08:14:07.035903	13.6	11.7	-94.6	0.0
2025-01-19 08:14:08.156973	13.6	11.8	-94.5	0.0
2025-01-19 08:14:09.280633	13.6	11.9	-94.7	0.0
2025-01-19 08:14:10.401173	13.6	12.0	-94.6	0.0
2025-01-19 08:14:11.521117	13.5	12.1	-94.2	0.0
2025-01-19 08:14:12.641994	13.5	12.2	-94.4	0.0
2025-01-19 08:14:13.762136	13.5	12.3	-94.4	0.0
2025-01-19 08:14:14.883862	13.5	12.4	-94.6	0.0
2025-01-19 08:14:16.005349	13.4	12.5	-94.6	0.0
2025-01-19 08:14:17.124555	13.4	12.6	-94.5	0.0
2025-01-19 08:14:18.247411	13.4	12.7	-94.7	0.0
2025-01-19 08:14:19.367362	13.3	12.8	-94.6	0.0
2025-01-19 08:14:20.487864	13.3	12.9	-94.8	0.0
2025-01-19 08:14:21.606122	13.3	13.0	-94.8	0.0
2025-01-19 08:14:22.727918	13.3	13.2	-94.8	0.0
2025-01-19 08:14:23.850642	13.2	13.3	-94.5	0.0
2025-01-19 08:14:24.971543	13.2	13.4	-94.7	0.0
2025-01-19 08:14:26.093580	13.2	13.5	-94.6	0.0
2025-01-19 08:14:27.214531	13.2	13.6	-94.5	0.0
2025-01-19 08:14:28.336812	13.1	13.7	-94.7	0.0
2025-01-19 08:14:29.456625	13.1	13.8	-94.5	0.0
2025-01-19 08:14:30.576776	13.1	13.9	-94.6	0.0
2025-01-19 08:14:31.699444	13.0	14.0	-94.6	0.0
2025-01-19 08:14:32.822437	13.0	14.2	-94.7	0.0
2025-01-19 08:14:33.941221	13.0	14.3	-94.8	0.0
2025-01-19 08:14:35.064070	13.0	14.4	-94.7	0.0
2025-01-19 08:14:36.184524	12.9	14.5	-94.8	0.0
2025-01-19 08:14:37.305873	12.9	14.6	-94.8	0.0
2025-01-19 08:14:38.427493	12.9	14.7	-94.7	0.0
2025-01-19 08:14:39.547572	12.8	14.8	-94.6	0.0
2025-01-19 08:14:40.667928	12.8	15.0	-94.6	0.0
2025-01-19 08:14:41.790722	12.8	15.1	-94.8	0.0
2025-01-19 08:14:42.909981	12.7	15.2	-94.6	0.0
2025-01-19 08:14:44.032524	12.7	15.3	-94.7	0.0
2025-01-19 08:14:45.153542	12.7	15.4	-94.7	0.0
2025-01-19 08:14:46.275302	12.6	15.6	-94.4	0.0
2025-01-19 08:14:47.398415	12.6	15.7	-94.6	0.0
2025-01-19 08:14:48.517675	12.6	15.8	-94.7	0.0
2025-01-19 08:14:49.636673	12.5	15.9	-94.6	0.0
2025-01-19 08:14:50.758005	12.5	16.0	-94.5	0.0
2025-01-19 08:14:51.879701	12.5	16.2	-94.7	0.0
2025-01-19 08:14:53.000458	12.4	16.3	-94.7	0.0
2025-01-19 08:14:54.122661	12.4	16.4	-94.9	0.0
2025-01-19 08:14:55.247032	12.4	16.5	-94.3	0.0
2025-01-19 08:14:56.370684	12.3	16.7	-94.4	0.0
2025-01-19 08:14:57.493308	12.3	16.8	-94.7	0.0
2025-01-19 08:14:58.615398	12.3	16.9	-94.6	0.0
2025-01-19 08:14:59.734773	12.2	17.0	-94.5	0.0
2025-01-19 08:15:00.855423	12.2	17.2	-94.5	0.0
2025-01-19 08:15:01.977785	12.2	17.3	-94.5	0.0
2025-01-19 08:15:03.099544	12.1	17.4	-94.6	0.0
2025-01-19 08:15:04.218382	12.1	17.6	-94.6	0.0
2025-01-19 08:15:05.337774	12.0	17.7	-94.6	0.0
2025-01-19 08:15:06.459681	12.0	17.8	-94.5	0.0
2025-01-19 08:15:07.581144	12.0	17.9	-94.4	0.0
2025-01-19 08:15:08.701471	11.9	18.1	-94.6	0.0
2025-01-19 08:15:09.825188	11.9	18.2	-94.9	0.0
2025-01-19 08:15:10.946002	11.9	18.3	-94.9	0.0
2025-01-19 08:15:12.067186	11.8	18.5	-94.8	0.0
2025-01-19 08:15:13.190694	11.8	18.6	-94.9	0.0
2025-01-19 08:15:14.314768	11.7	18.7	-94.7	0.0
2025-01-19 08:15:15.435296	11.7	18.9	-94.8	0.0
2025-01-19 08:15:16.554692	11.6	19.0	-94.8	0.0
2025-01-19 08:15:17.675204	11.6	19.2	-94.8	0.0
2025-01-19 08:15:18.796140	11.6	19.3	-94.6	0.0
2025-01-19 08:15:19.918620	11.5	19.4	-94.7	0.0
2025-01-19 08:15:21.038529	11.5	19.6	-94.9	0.0
2025-01-19 08:15:22.159447	11.4	19.7	-94.8	0.0
2025-01-19 08:15:23.279704	11.4	19.9	-94.4	0.0
2025-01-19 08:15:24.401646	11.3	20.0	-94.5	0.0
2025-01-19 08:15:25.522679	11.3	20.1	-94.8	0.0
2025-01-19 08:15:26.641984	11.3	20.3	-94.7	0.0
2025-01-19 08:15:27.764295	11.2	20.4	-94.4	0.0
2025-01-19 08:15:28.886706	11.2	20.6	-94.7	0.0
2025-01-19 08:15:30.006776	11.1	20.7	-94.5	0.0
2025-01-19 08:15:31.128547	11.1	20.9	-94.6	0.0
2025-01-19 08:15:32.250662	11.0	21.0	-94.5	0.0
2025-01-19 08:15:33.371385	11.0	21.2	-94.8	0.0
2025-01-19 08:15:34.492929	10.9	21.3	-94.4	0.0
2025-01-19 08:15:35.615074	10.9	21.5	-94.3	0.0
2025-01-19 08:15:36.733971	10.8	21.6	-94.8	0.0
2025-01-19 08:15:37.855355	10.8	21.8	-94.7	0.0
2025-01-19 08:15:38.974708	10.7	21.9	-94.5	0.0
2025-01-19 08:15:40.096683	10.7	22.1	-94.3	0.0
2025-01-19 08:15:41.218577	10.6	22.2	-94.5	0.0
2025-01-19 08:15:42.339091	10.6	22.4	-94.5	0.0
2025-01-19 08:15:43.462812	10.5	22.5	-94.4	0.0
2025-01-19 08:15:44.584176	10.5	22.7	-94.6	0.0
2025-01-19 08:15:45.704171	10.4	22.9	-94.6	0.0
2025-01-19 08:15:46.826697	10.3	23.0	-94.8	0.0
2025-01-19 08:15:47.950623	10.3	23.2	-94.6	0.0
2025-01-19 08:15:49.071735	10.2	23.3	-94.8	0.0
2025-01-19 08:15:50.190784	10.2	23.5	-94.6	0.0
2025-01-19 08:15:51.310890	10.1	23.7	-94.8	0.0
2025-01-19 08:15:52.432240	10.1	23.8	-94.7	0.0
2025-01-19 08:15:53.552337	10.0	24.0	-94.8	0.0
2025-01-19 08:15:54.675525	9.9	24.2	-94.8	0.0
2025-01-19 08:15:55.796695	9.9	24.3	-94.7	0.0
2025-01-19 08:15:56.916518	9.8	24.5	-94.7	0.0
2025-01-19 08:15:58.038547	9.8	24.7	-94.9	0.0
2025-01-19 08:15:59.160863	9.7	24.8	-94.9	0.0
2025-01-19 08:16:00.281838	9.6	25.0	-94.6	0.0
2025-01-19 08:16:01.402479	9.6	25.2	-95.0	0.0
2025-01-19 08:16:02.522678	9.5	25.4	-94.7	0.0
2025-01-19 08:16:03.643151	9.4	25.5	-94.7	0.0
2025-01-19 08:16:04.764618	9.4	25.7	-94.7	0.0
2025-01-19 08:16:05.885816	9.3	25.9	-94.7	0.0
2025-01-19 08:16:07.007002	9.2	26.1	-94.8	0.0
2025-01-19 08:16:08.127094	9.2	26.2	-94.9	0.0
2025-01-19 08:16:09.249017	9.1	26.4	-94.8	0.0
2025-01-19 08:16:10.369525	9.0	26.6	-94.8	0.0
2025-01-19 08:16:11.490559	9.0	26.8	-94.6	0.0
2025-01-19 08:16:12.612468	8.9	27.0	-94.8	0.0
2025-01-19 08:16:13.734698	8.8	27.2	-95.0	0.0
2025-01-19 08:16:14.855233	8.7	27.3	-94.5	0.0
2025-01-19 08:16:15.975597	8.7	27.5	-94.8	0.0
2025-01-19 08:16:17.098381	8.6	27.7	-94.8	0.0
2025-01-19 08:16:18.220498	8.5	27.9	-94.8	0.0
2025-01-19 08:16:19.340547	8.4	28.1	-94.8	0.0
2025-01-19 08:16:20.461807	8.4	28.3	-95.0	0.0
2025-01-19 08:16:21.584500	8.3	28.5	-94.9	0.0
2025-01-19 08:16:22.706620	8.2	28.7	-94.6	0.0
2025-01-19 08:16:23.829543	8.1	28.9	-94.9	0.0
2025-01-19 08:16:24.952950	8.0	29.1	-94.8	0.0
2025-01-19 08:16:26.076614	8.0	29.3	-94.8	0.0
2025-01-19 08:16:27.199858	7.9	29.5	-94.5	0.0
2025-01-19 08:16:28.320098	7.8	29.7	-94.6	0.0
2025-01-19 08:16:29.440407	7.7	29.9	-94.3	0.0
2025-01-19 08:16:30.563407	7.6	30.1	-94.7	0.0
2025-01-19 08:16:31.684780	7.5	30.3	-94.8	0.0
2025-01-19 08:16:32.805532	7.4	30.5	-94.9	0.0
2025-01-19 08:16:33.927058	7.3	30.7	-94.9	0.0
2025-01-19 08:16:35.049531	7.2	30.9	-94.6	0.0
2025-01-19 08:16:36.170121	7.2	31.1	-94.6	0.0
2025-01-19 08:16:37.293105	7.1	31.4	-94.9	0.0
2025-01-19 08:16:38.414440	7.0	31.6	-94.9	0.0
2025-01-19 08:16:39.534180	6.9	31.8	-94.7	0.0
2025-01-19 08:16:40.654552	6.8	32.0	-94.8	0.0
2025-01-19 08:16:41.773112	6.7	32.2	-94.7	0.0
2025-01-19 08:16:42.896590	6.6	32.4	-95.0	0.0
2025-01-19 08:16:44.017454	6.5	32.7	-94.8	0.0
2025-01-19 08:16:45.139694	6.4	32.9	-94.8	0.0
2025-01-19 08:16:46.260879	6.2	33.1	-94.8	0.0
2025-01-19 08:16:47.381440	6.1	33.3	-94.8	0.0
2025-01-19 08:16:48.502339	6.0	33.6	-94.5	0.0
2025-01-19 08:16:49.621859	5.9	33.8	-94.8	0.0
2025-01-19 08:16:50.741285	5.8	34.0	-95.0	0.0
2025-01-19 08:16:51.862094	5.7	34.3	-94.9	0.0
2025-01-19 08:16:52.984632	5.6	34.5	-94.7	0.0
2025-01-19 08:16:54.105703	5.5	34.7	-94.6	0.0
2025-01-19 08:16:55.227757	5.3	35.0	-94.7	0.0
2025-01-19 08:16:56.348694	5.2	35.2	-94.6	0.0
2025-01-19 08:16:57.470293	5.1	35.4	-94.7	0.0
2025-01-19 08:16:58.592714	5.0	35.7	-94.6	0.0
2025-01-19 08:16:59.712947	4.8	35.9	-94.8	0.0
2025-01-19 08:17:00.833824	4.7	36.2	-94.5	0.0
2025-01-19 08:17:01.954676	4.6	36.4	-94.4	0.0
2025-01-19 08:17:03.076463	4.4	36.7	-94.5	0.0
2025-01-19 08:17:04.196975	4.3	36.9	-94.8	0.0
2025-01-19 08:17:05.317501	4.2	37.2	-94.7	0.0
2025-01-19 08:17:06.437926	4.0	37.4	-94.5	0.0
2025-01-19 08:17:07.560989	3.9	37.7	-94.7	0.0
2025-01-19 08:17:08.681672	3.7	37.9	-94.6	0.0
2025-01-19 08:17:09.801585	3.6	38.2	-94.7	0.0
2025-01-19 08:17:10.922160	3.4	38.5	-94.7	0.0
2025-01-19 08:17:12.043102	3.3	38.7	-94.8	0.0
2025-01-19 08:17:13.164861	3.1	39.0	-94.6	0.0
2025-01-19 08:17:14.287369	3.0	39.3	-94.6	0.0
2025-01-19 08:17:15.405693	2.8	39.5	-94.7	0.0
2025-01-19 08:17:16.525708	2.7	39.8	-94.7	0.0
2025-01-19 08:17:17.648282	2.5	40.1	-94.8	0.0
2025-01-19 08:17:18.769661	2.3	40.4	-94.7	0.0
2025-01-19 08:17:19.889933	2.2	40.6	-94.8	0.0
2025-01-19 08:17:21.012374	2.0	40.9	-94.7	0.0
2025-01-19 08:17:22.132053	1.8	41.2	-94.7	0.0
2025-01-19 08:17:23.253634	1.6	41.5	-94.6	0.0
2025-01-19 08:17:24.373674	1.4	41.8	-94.8	0.0
2025-01-19 08:17:25.496735	1.3	42.0	-94.7	0.0
2025-01-19 08:17:26.617067	1.1	42.3	-94.6	0.0
2025-01-19 08:17:27.736790	0.9	42.6	-94.5	0.0
2025-01-19 08:17:28.858785	0.7	42.9	-94.7	0.0
2025-01-19 08:17:29.981494	0.5	43.2	-94.8	0.0
2025-01-19 08:17:31.102292	0.3	43.5	-94.8	0.0
2025-01-19 08:17:32.223364	0.1	43.8	-94.9	0.0
2025-01-19 08:17:33.346344	359.8	44.1	-94.7	0.0
2025-01-19 08:17:34.469409	359.6	44.4	-94.9	0.0
2025-01-19 08:17:35.591515	359.4	44.7	-94.8	0.0
2025-01-19 08:17:36.712230	359.2	45.0	-94.7	0.0
2025-01-19 08:17:37.833679	359.0	45.3	-94.6	0.0
2025-01-19 08:17:38.956896	358.7	45.6	-94.8	0.0
2025-01-19 08:17:40.079024	358.5	45.9	-95.0	0.0
2025-01-19 08:17:41.200580	358.2	46.2	-94.9	0.0
2025-01-19 08:17:42.321147	358.0	46.5	-94.9	0.0
2025-01-19 08:17:43.441412	357.7	46.9	-94.8	0.0
2025-01-19 08:17:44.562348	357.5	47.2	-94.9	0.0
2025-01-19 08:17:45.683335	357.2	47.5	-94.9	0.0
2025-01-19 08:17:46.804810	356.9	47.8	-94.9	0.0
2025-01-19 08:17:47.925897	356.7	48.1	-95.0	0.0
2025-01-19 08:17:49.045653	356.4	48.5	-94.9	0.0
2025-01-19 08:17:50.166240	356.1	48.8	-95.0	0.0
2025-01-19 08:17:51.285938	355.8	49.1	-95.1	0.0
2025-01-19 08:17:52.407504	355.5	49.4	-94.9	0.0
2025-01-19 08:17:53.527930	355.2	49.8	-94.8	0.0
2025-01-19 08:17:54.649329	354.9	50.1	-94.8	0.0
2025-01-19 08:17:55.770804	354.6	50.4	-94.7	0.0
2025-01-19 08:17:56.892814	354.2	50.8	-94.9	0.0
2025-01-19 08:17:58.013608	353.9	51.1	-94.9	0.0
2025-01-19 08:17:59.134646	353.6	51.4	-95.1	0.0
2025-01-19 08:18:00.256512	353.2	51.8	-94.9	0.0
2025-01-19 08:18:01.376684	352.9	52.1	-94.7	0.0
2025-01-19 08:18:02.497993	352.5	52.4	-95.1	0.0
2025-01-19 08:18:03.619718	352.1	52.8	-95.0	0.0
2025-01-19 08:18:04.741383	351.7	53.1	-94.9	0.0
2025-01-19 08:18:05.862497	351.3	53.5	-94.9	0.0
2025-01-19 08:18:06.985272	350.9	53.8	-94.8	0.0
2025-01-19 08:18:08.104676	350.5	54.2	-94.7	0.0
2025-01-19 08:18:09.225086	350.1	54.5	-94.7	0.0
2025-01-19 08:18:10.343338	349.7	54.9	-95.0	0.0
2025-01-19 08:18:11.463804	349.2	55.2	-94.9	0.0
2025-01-19 08:18:12.585719	348.8	55.5	-94.8	0.0
2025-01-19 08:18:13.705959	348.3	55.9	-94.8	0.0
2025-01-19 08:18:14.825349	347.8	56.2	-94.8	0.0
2025-01-19 08:18:15.947799	347.3	56.6	-94.8	0.0
2025-01-19 08:18:17.068758	346.8	56.9	-94.9	0.0
2025-01-19 08:18:18.189298	346.3	57.3	-94.7	0.0
2025-01-19 08:18:19.311166	345.8	57.6	-94.9	0.0
2025-01-19 08:18:20.432487	345.2	58.0	-94.7	0.0
2025-01-19 08:18:21.553103	344.7	58.3	-95.0	0.0
2025-01-19 08:18:22.673691	344.1	58.7	-94.8	0.0
2025-01-19 08:18:23.793688	343.5	59.0	-94.7	0.0
2025-01-19 08:18:24.915034	342.9	59.4	-94.7	0.0
2025-01-19 08:18:26.035048	342.3	59.7	-94.8	0.0
2025-01-19 08:18:27.155676	341.7	60.1	-94.8	0.0
2025-01-19 08:18:28.273545	341.0	60.4	-94.8	0.0
2025-01-19 08:18:29.394605	340.3	60.7	-94.7	0.0
2025-01-19 08:18:30.516386	339.6	61.1	-94.7	0.0
2025-01-19 08:18:31.638547	338.9	61.4	-94.7	0.0
2025-01-19 08:18:32.759383	338.2	61.7	-94.8	0.0
2025-01-19 08:18:33.881017	337.5	62.1	-94.8	0.0
2025-01-19 08:18:35.001273	336.7	62.4	-95.0	0.0
2025-01-19 08:18:36.122570	335.9	62.7	-94.8	0.0
2025-01-19 08:18:37.243393	335.1	63.0	-94.7	0.0
2025-01-19 08:18:38.366810	334.3	63.4	-94.8	0.0
2025-01-19 08:18:39.488470	333.4	63.7	-94.9	0.0
2025-01-19 08:18:40.609715	332.5	64.0	-94.7	0.0
2025-01-19 08:18:41.731289	331.6	64.3	-94.8	0.0
2025-01-19 08:18:42.852184	330.7	64.6	-94.8	0.0
2025-01-19 08:18:43.974714	329.7	64.9	-95.1	0.0
2025-01-19 08:18:45.097715	328.7	65.2	-94.7	0.0
2025-01-19 08:18:46.218695	327.7	65.5	-94.7	0.0
2025-01-19 08:18:47.339877	326.7	65.7	-94.9	0.0
2025-01-19 08:18:48.462766	325.7	66.0	-94.9	0.0
2025-01-19 08:18:49.584484	324.6	66.3	-95.0	0.0
2025-01-19 08:18:50.705973	323.5	66.5	-94.6	0.0
2025-01-19 08:18:51.829525	322.3	66.8	-94.9	0.0
2025-01-19 08:18:52.949434	321.2	67.0	-94.8	0.0
2025-01-19 08:18:54.068731	320.0	67.3	-94.7	0.0
2025-01-19 08:18:55.188694	318.8	67.5	-94.9	0.0
2025-01-19 08:18:56.309523	317.5	67.7	-94.8	0.0
2025-01-19 08:18:57.432866	316.2	67.9	-94.6	0.0
2025-01-19 08:18:58.554167	314.9	68.1	-94.5	0.0
2025-01-19 08:18:59.676088	313.6	68.3	-94.6	0.0
2025-01-19 08:19:00.796667	312.3	68.5	-94.4	0.0
2025-01-19 08:19:01.918196	310.9	68.7	-94.4	0.0
2025-01-19 08:19:03.037980	309.5	68.8	-94.8	0.0
2025-01-19 08:19:04.160971	308.1	69.0	-94.8	0.0
2025-01-19 08:19:05.279817	306.7	69.1	-94.5	0.0
2025-01-19 08:19:06.402650	305.2	69.2	-94.5	0.0
2025-01-19 08:19:07.522450	303.7	69.3	-94.6	0.0
2025-01-19 08:19:08.644609	302.3	69.4	-94.6	0.0
2025-01-19 08:19:09.766696	300.7	69.5	-94.6	0.0
2025-01-19 08:19:10.889290	299.2	69.6	-94.7	0.0
2025-01-19 08:19:12.010125	297.7	69.6	-94.9	0.0
2025-01-19 08:19:13.133476	296.2	69.7	-94.6	0.0
2025-01-19 08:19:14.255547	294.6	69.7	-94.6	0.0
2025-01-19 08:19:15.377501	293.1	69.7	-94.9	0.0
2025-01-19 08:19:16.501395	291.6	69.7	-94.8	0.0
2025-01-19 08:19:17.622847	290.0	69.7	-94.5	0.0
2025-01-19 08:19:18.744523	288.5	69.7	-94.7	0.0
2025-01-19 08:19:19.864903	286.9	69.6	-94.7	0.0
2025-01-19 08:19:20.987777	285.4	69.6	-94.9	0.0
2025-01-19 08:19:22.109051	283.9	69.5	-94.7	0.0
2025-01-19 08:19:23.230448	282.4	69.4	-94.5	0.0
2025-01-19 08:19:24.352464	280.9	69.4	-94.6	0.0
2025-01-19 08:19:25.472203	279.4	69.2	-94.9	0.0
2025-01-19 08:19:26.592898	278.0	69.1	-94.7	0.0
2025-01-19 08:19:27.715194	276.5	69.0	-94.5	0.0
2025-01-19 08:19:28.835534	275.1	68.9	-94.5	0.0
2025-01-19 08:19:29.957116	273.7	68.7	-95.1	0.0
2025-01-19 08:19:31.077411	272.3	68.5	-94.7	0.0
2025-01-19 08:19:32.198805	271.0	68.4	-94.6	0.0
2025-01-19 08:19:33.322001	269.7	68.2	-94.7	0.0
2025-01-19 08:19:34.442243	268.4	68.0	-94.9	0.0
2025-01-19 08:19:35.562560	267.1	67.8	-94.9	0.0
2025-01-19 08:19:36.686645	265.8	67.6	-94.6	0.0
2025-01-19 08:19:37.805663	264.6	67.3	-94.8	0.0
2025-01-19 08:19:38.926401	263.4	67.1	-94.8	0.0
2025-01-19 08:19:40.048144	262.3	66.8	-94.7	0.0
2025-01-19 08:19:41.169699	261.1	66.6	-94.7	0.0
2025-01-19 08:19:42.291178	260.0	66.3	-94.8	0.0
2025-01-19 08:19:43.412229	258.9	66.1	-94.7	0.0
2025-01-19 08:19:44.533522	257.8	65.8	-94.7	0.0
2025-01-19 08:19:45.656300	256.8	65.5	-94.6	0.0
2025-01-19 08:19:46.774640	255.8	65.2	-94.7	0.0
2025-01-19 08:19:47.896901	254.8	65.0	-94.5	0.0
2025-01-19 08:19:49.018491	253.9	64.7	-94.8	0.0
2025-01-19 08:19:50.140815	252.9	64.4	-94.7	0.0
2025-01-19 08:19:51.263399	252.0	64.0	-94.5	0.0
2025-01-19 08:19:52.384613	251.1	63.7	-94.7	0.0
2025-01-19 08:19:53.505573	250.3	63.4	-94.7	0.0
2025-01-19 08:19:54.626482	249.4	63.1	-94.7	0.0
2025-01-19 08:19:55.745798	248.6	62.8	-94.8	0.0
2025-01-19 08:19:56.865195	247.8	62.5	-94.8	0.0
2025-01-19 08:19:57.987410	247.0	62.1	-94.8	0.0
2025-01-19 08:19:59.107424	246.3	61.8	-94.8	0.0
2025-01-19 08:20:00.227017	245.6	61.5	-94.6	0.0
2025-01-19 08:20:01.347908	244.8	61.1	-94.7	0.0
2025-01-19 08:20:02.468546	244.2	60.8	-94.7	0.0
2025-01-19 08:20:03.589232	243.5	60.5	-94.9	0.0
2025-01-19 08:20:04.710748	242.8	60.1	-94.7	0.0
2025-01-19 08:20:05.832005	242.2	59.8	-94.8	0.0
2025-01-19 08:20:06.955252	241.6	59.4	-94.8	0.0
2025-01-19 08:20:08.076038	240.9	59.1	-95.1	0.0
2025-01-19 08:20:09.197844	240.4	58.7	-95.0	0.0
2025-01-19 08:20:10.316710	239.8	58.4	-94.9	0.0
2025-01-19 08:20:11.438566	239.2	58.0	-95.0	0.0
2025-01-19 08:20:12.560145	238.7	57.7	-94.7	0.0
2025-01-19 08:20:13.681996	238.1	57.4	-95.1	0.0
2025-01-19 08:20:14.802571	237.6	57.0	-95.1	0.0
2025-01-19 08:20:15.925617	237.1	56.7	-94.9	0.0
2025-01-19 08:20:17.045322	236.6	56.3	-94.9	0.0
2025-01-19 08:20:18.165790	236.1	56.0	-94.8	0.0
2025-01-19 08:20:19.288863	235.7	55.6	-94.8	0.0
2025-01-19 08:20:20.408844	235.2	55.3	-95.1	0.0
2025-01-19 08:20:21.529472	234.8	54.9	-94.9	0.0
2025-01-19 08:20:22.651728	234.3	54.6	-95.0	0.0
2025-01-19 08:20:23.774966	233.9	54.2	-94.8	0.0
2025-01-19 08:20:24.896750	233.5	53.9	-94.9	0.0
2025-01-19 08:20:26.017777	233.1	53.5	-94.9	0.0
2025-01-19 08:20:27.138622	232.7	53.2	-94.7	0.0
2025-01-19 08:20:28.258419	232.3	52.8	-95.1	0.0
2025-01-19 08:20:29.379628	231.9	52.5	-94.6	0.0
2025-01-19 08:20:30.501253	231.6	52.2	-95.0	0.0
2025-01-19 08:20:31.624309	231.2	51.8	-94.7	0.0
2025-01-19 08:20:32.745154	230.8	51.5	-94.4	0.0
2025-01-19 08:20:33.866489	230.5	51.2	-94.6	0.0
2025-01-19 08:20:34.987657	230.2	50.8	-94.5	0.0
2025-01-19 08:20:36.109200	229.8	50.5	-94.5	0.0
2025-01-19 08:20:37.232139	229.5	50.1	-94.7	0.0
2025-01-19 08:20:38.355301	229.2	49.8	-95.0	0.0
2025-01-19 08:20:39.476824	228.9	49.5	-94.8	0.0
2025-01-19 08:20:40.597077	228.6	49.2	-94.8	0.0
2025-01-19 08:20:41.719647	228.3	48.8	-94.9	0.0
2025-01-19 08:20:42.838989	228.0	48.5	-94.9	0.0
2025-01-19 08:20:43.961033	227.7	48.2	-95.0	0.0
2025-01-19 08:20:45.080610	227.4	47.9	-95.0	0.0
2025-01-19 08:20:46.200374	227.2	47.5	-94.9	0.0
2025-01-19 08:20:47.323501	226.9	47.2	-94.9	0.0
2025-01-19 08:20:48.445783	226.6	46.9	-95.0	0.0
2025-01-19 08:20:49.567933	226.4	46.6	-94.8	0.0
2025-01-19 08:20:50.689524	226.1	46.3	-94.9	0.0
2025-01-19 08:20:51.809428	225.9	46.0	-95.0	0.0
2025-01-19 08:20:52.929776	225.7	45.7	-95.1	0.0
2025-01-19 08:20:54.050251	225.4	45.3	-95.1	0.0
2025-01-19 08:20:55.171713	225.2	45.0	-95.0	0.0
2025-01-19 08:20:56.292204	225.0	44.7	-94.8	0.0
2025-01-19 08:20:57.413810	224.7	44.4	-95.0	0.0
2025-01-19 08:20:58.533556	224.5	44.1	-95.0	0.0
2025-01-19 08:20:59.653983	224.3	43.8	-95.1	0.0
2025-01-19 08:21:00.774660	224.1	43.5	-94.9	0.0
2025-01-19 08:21:01.897920	223.9	43.2	-94.7	0.0
2025-01-19 08:21:03.020710	223.7	42.9	-95.0	0.0
2025-01-19 08:21:04.141290	223.5	42.7	-94.9	0.0
2025-01-19 08:21:05.262694	223.3	42.4	-94.9	0.0
2025-01-19 08:21:06.383135	223.1	42.1	-94.7	0.0
2025-01-19 08:21:07.502260	222.9	41.8	-94.7	0.0
2025-01-19 08:21:08.623491	222.7	41.5	-94.8	0.0
2025-01-19 08:21:09.744204	222.6	41.2	-94.9	0.0
2025-01-19 08:21:10.864479	222.4	40.9	-94.8	0.0
2025-01-19 08:21:11.983077	222.2	40.7	-94.9	0.0
2025-01-19 08:21:13.102419	222.0	40.4	-94.8	0.0
2025-01-19 08:21:14.222605	221.9	40.1	-95.1	0.0
2025-01-19 08:21:15.343068	221.7	39.8	-94.8	0.0
2025-01-19 08:21:16.464650	221.5	39.6	-95.0	0.0
2025-01-19 08:21:17.586834	221.4	39.3	-94.7	0.0
2025-01-19 08:21:18.708879	221.2	39.0	-94.7	0.0
2025-01-19 08:21:19.831694	221.1	38.8	-94.6	0.0
2025-01-19 08:21:20.954639	220.9	38.5	-94.8	0.0
2025-01-19 08:21:22.073640	220.8	38.2	-94.8	0.0
2025-01-19 08:21:23.194122	220.6	38.0	-94.9	0.0
2025-01-19 08:21:24.316152	220.5	37.7	-94.7	0.0
2025-01-19 08:21:25.436254	220.3	37.5	-94.7	0.0
2025-01-19 08:21:26.558634	220.2	37.2	-94.7	0.0
2025-01-19 08:21:27.682192	220.0	37.0	-94.7	0.0
2025-01-19 08:21:28.800955	219.9	36.7	-94.8	0.0
2025-01-19 08:21:29.922615	219.8	36.5	-94.9	0.0
2025-01-19 08:21:31.044061	219.6	36.2	-94.9	0.0
2025-01-19 08:21:32.164206	219.5	36.0	-94.9	0.0
2025-01-19 08:21:33.285861	219.4	35.7	-94.9	0.0
2025-01-19 08:21:34.408322	219.3	35.5	-94.9	0.0
2025-01-19 08:21:35.529800	219.1	35.2	-94.9	0.0
2025-01-19 08:21:36.650400	219.0	35.0	-95.1	0.0
2025-01-19 08:21:37.771167	218.9	34.8	-94.8	0.0
2025-01-19 08:21:38.892450	218.8	34.5	-94.8	0.0
2025-01-19 08:21:40.014417	218.7	34.3	-94.7	0.0
2025-01-19 08:21:41.134556	218.5	34.1	-94.8	0.0
2025-01-19 08:21:42.256669	218.4	33.8	-94.8	0.0
2025-01-19 08:21:43.379460	218.3	33.6	-94.9	0.0
2025-01-19 08:21:44.502293	218.2	33.4	-94.6	0.0
2025-01-19 08:21:45.624076	218.1	33.1	-94.8	0.0
2025-01-19 08:21:46.746377	218.0	32.9	-94.7	0.0
2025-01-19 08:21:47.868567	217.9	32.7	-95.0	0.0
2025-01-19 08:21:48.990710	217.8	32.5	-94.8	0.0
2025-01-19 08:21:50.113657	217.7	32.2	-95.0	0.0
2025-01-19 08:21:51.234067	217.6	32.0	-94.9	0.0
2025-01-19 08:21:52.357080	217.5	31.8	-94.9	0.0
2025-01-19 08:21:53.479622	217.4	31.6	-95.1	0.0
2025-01-19 08:21:54.601242	217.3	31.4	-95.0	0.0
2025-01-19 08:21:55.722829	217.2	31.2	-94.9	0.0
2025-01-19 08:21:56.843828	217.1	30.9	-94.7	0.0
2025-01-19 08:21:57.966377	217.0	30.7	-94.8	0.0
2025-01-19 08:21:59.085664	216.9	30.5	-94.6	0.0
2025-01-19 08:22:00.205511	216.8	30.3	-95.0	0.0
2025-01-19 08:22:01.329684	216.7	30.1	-94.6	0.0
2025-01-19 08:22:02.449515	216.6	29.9	-95.0	0.0
2025-01-19 08:22:03.570802	216.5	29.7	-94.8	0.0
2025-01-19 08:22:04.693284	216.4	29.5	-94.5	0.0
2025-01-19 08:22:05.815642	216.4	29.3	-94.7	0.0
2025-01-19 08:22:06.937221	216.3	29.1	-94.6	0.0
2025-01-19 08:22:08.059191	216.2	28.9	-94.7	0.0
2025-01-19 08:22:09.181655	216.1	28.7	-94.9	0.0
2025-01-19 08:22:10.303863	216.0	28.5	-94.7	0.0
2025-01-19 08:22:11.425822	216.0	28.3	-94.8	0.0
2025-01-19 08:22:12.544668	215.9	28.1	-94.8	0.0
2025-01-19 08:22:13.668817	215.8	27.9	-94.9	0.0
2025-01-19 08:22:14.791940	215.7	27.7	-94.9	0.0
2025-01-19 08:22:15.915933	215.6	27.6	-94.7	0.0
2025-01-19 08:22:17.037608	215.6	27.4	-94.6	0.0
2025-01-19 08:22:18.160212	215.5	27.2	-94.8	0.0
2025-01-19 08:22:19.282661	215.4	27.0	-94.7	0.0
2025-01-19 08:22:20.403957	215.3	26.8	-95.0	0.0
2025-01-19 08:22:21.525536	215.3	26.6	-94.7	0.0
2025-01-19 08:22:22.648601	215.2	26.4	-95.0	0.0
2025-01-19 08:22:23.768634	215.1	26.3	-94.8	0.0
2025-01-19 08:22:24.889027	215.1	26.1	-94.9	0.0
2025-01-19 08:22:26.010594	215.0	25.9	-94.7	0.0
2025-01-19 08:22:27.133358	214.9	25.7	-94.9	0.0
2025-01-19 08:22:28.254708	214.9	25.5	-94.8	0.0
2025-01-19 08:22:29.374865	214.8	25.4	-94.8	0.0
2025-01-19 08:22:30.493244	214.7	25.2	-94.9	0.0
2025-01-19 08:22:31.615279	214.7	25.0	-94.9	0.0
2025-01-19 08:22:32.734665	214.6	24.9	-94.7	0.0
2025-01-19 08:22:33.856817	214.5	24.7	-95.0	0.0
2025-01-19 08:22:34.978258	214.5	24.5	-94.8	0.0
2025-01-19 08:22:36.100002	214.4	24.3	-94.8	0.0
2025-01-19 08:22:37.222122	214.4	24.2	-94.9	0.0
2025-01-19 08:22:38.341325	214.3	24.0	-94.8	0.0
2025-01-19 08:22:39.462378	214.2	23.8	-94.7	0.0
2025-01-19 08:22:40.582326	214.2	23.7	-94.8	0.0
2025-01-19 08:22:41.703403	214.1	23.5	-94.8	0.0
2025-01-19 08:22:42.825118	214.1	23.4	-94.9	0.0
2025-01-19 08:22:43.946057	214.0	23.2	-94.7	0.0
2025-01-19 08:22:45.067055	213.9	23.0	-94.7	0.0
2025-01-19 08:22:46.187849	213.9	22.9	-94.6	0.0
2025-01-19 08:22:47.308461	213.8	22.7	-94.7	0.0
2025-01-19 08:22:48.429086	213.8	22.6	-94.8	0.0
2025-01-19 08:22:49.549706	213.7	22.4	-94.7	0.0
2025-01-19 08:22:50.673110	213.7	22.2	-94.8	0.0
2025-01-19 08:22:51.793410	213.6	22.1	-94.6	0.0
2025-01-19 08:22:52.915397	213.6	21.9	-94.5	0.0
2025-01-19 08:22:54.036929	213.5	21.8	-94.5	0.0
2025-01-19 08:22:55.161549	213.5	21.6	-94.8	0.0
2025-01-19 08:22:56.281554	213.4	21.5	-94.9	0.0
2025-01-19 08:22:57.401073	213.4	21.3	-94.8	0.0
2025-01-19 08:22:58.522959	213.3	21.2	-94.8	0.0
2025-01-19 08:22:59.644171	213.3	21.0	-94.7	0.0
2025-01-19 08:23:00.766202	213.2	20.9	-94.5	0.0
2025-01-19 08:23:01.889666	213.2	20.7	-95.1	0.0
2025-01-19 08:23:03.012223	213.1	20.6	-95.1	0.0
2025-01-19 08:23:04.131287	213.1	20.4	-94.9	0.0
2025-01-19 08:23:05.253770	213.0	20.3	-94.8	0.0
2025-01-19 08:23:06.373634	213.0	20.1	-94.7	0.0
2025-01-19 08:23:07.495216	212.9	20.0	-94.8	0.0
2025-01-19 08:23:08.617545	212.9	19.9	-94.7	0.0
2025-01-19 08:23:09.737386	212.8	19.7	-94.9	0.0
2025-01-19 08:23:10.859473	212.8	19.6	-94.7	0.0
2025-01-19 08:23:11.980024	212.7	19.4	-95.0	0.0
2025-01-19 08:23:13.099716	212.7	19.3	-94.9	0.0
2025-01-19 08:23:14.221802	212.7	19.2	-94.8	0.0
2025-01-19 08:23:15.342469	212.6	19.0	-94.4	0.0
2025-01-19 08:23:16.464454	212.6	18.9	-94.8	0.0
2025-01-19 08:23:17.586565	212.5	18.7	-94.7	0.0
2025-01-19 08:23:18.706743	212.5	18.6	-94.7	0.0
2025-01-19 08:23:19.829527	212.5	18.5	-94.7	0.0
2025-01-19 08:23:20.952227	212.4	18.3	-94.5	0.0
2025-01-19 08:23:22.073901	212.4	18.2	-94.5	0.0
2025-01-19 08:23:23.194285	212.3	18.1	-94.5	0.0
2025-01-19 08:23:24.314045	212.3	17.9	-94.6	0.0
2025-01-19 08:23:25.432547	212.2	17.8	-94.6	0.0
2025-01-19 08:23:26.556351	212.2	17.7	-94.6	0.0
2025-01-19 08:23:27.680329	212.2	17.5	-94.6	0.0
2025-01-19 08:23:28.799054	212.1	17.4	-94.3	0.0
2025-01-19 08:23:29.921226	212.1	17.3	-94.8	0.0
2025-01-19 08:23:31.044653	212.1	17.2	-94.9	0.0
2025-01-19 08:23:32.166779	212.0	17.0	-94.7	0.0
2025-01-19 08:23:33.287589	212.0	16.9	-94.8	0.0
2025-01-19 08:23:34.410616	211.9	16.8	-94.8	0.0
2025-01-19 08:23:35.533228	211.9	16.7	-94.6	0.0
2025-01-19 08:23:36.655632	211.9	16.5	-94.7	0.0
2025-01-19 08:23:37.776033	211.8	16.4	-94.9	0.0
2025-01-19 08:23:38.898337	211.8	16.3	-94.6	0.0
2025-01-19 08:23:40.021526	211.8	16.2	-94.9	0.0
2025-01-19 08:23:41.142026	211.7	16.0	-94.8	0.0
2025-01-19 08:23:42.262072	211.7	15.9	-94.7	0.0
2025-01-19 08:23:43.384523	211.7	15.8	-94.7	0.0
2025-01-19 08:23:44.504838	211.6	15.7	-94.7	0.0
2025-01-19 08:23:45.627791	211.6	15.6	-94.6	0.0
2025-01-19 08:23:46.747547	211.6	15.4	-94.7	0.0
2025-01-19 08:23:47.870060	211.5	15.3	-94.6	0.0
2025-01-19 08:23:48.992332	211.5	15.2	-95.0	0.0
2025-01-19 08:23:50.112926	211.5	15.1	-94.9	0.0
2025-01-19 08:23:51.233444	211.4	15.0	-94.7	0.0
2025-01-19 08:23:52.355844	211.4	14.8	-94.8	0.0
2025-01-19 08:23:53.475441	211.4	14.7	-94.7	0.0
2025-01-19 08:23:54.600164	211.3	14.6	-94.8	0.0
2025-01-19 08:23:55.721403	211.3	14.5	-94.6	0.0
2025-01-19 08:23:56.840617	211.3	14.4	-94.9	0.0
2025-01-19 08:23:57.962217	211.2	14.3	-95.0	0.0
2025-01-19 08:23:59.082525	211.2	14.2	-94.9	0.0
2025-01-19 08:24:00.203612	211.2	14.0	-94.6	0.0
2025-01-19 08:24:01.326703	211.2	13.9	-94.6	0.0
2025-01-19 08:24:02.449831	211.1	13.8	-94.5	0.0
2025-01-19 08:24:03.572339	211.1	13.7	-94.7	0.0
2025-01-19 08:24:04.693880	211.1	13.6	-94.4	0.0
2025-01-19 08:24:05.815585	211.0	13.5	-94.7	0.0
2025-01-19 08:24:06.935682	211.0	13.4	-94.7	0.0
2025-01-19 08:24:08.055254	211.0	13.3	-94.4	0.0
2025-01-19 08:24:09.175388	211.0	13.1	-94.3	0.0
2025-01-19 08:24:10.295487	210.9	13.0	-94.6	0.0
2025-01-19 08:24:11.415392	210.9	12.9	-94.7	0.0
2025-01-19 08:24:12.536235	210.9	12.8	-94.5	0.0
2025-01-19 08:24:13.656649	210.8	12.7	-94.3	0.0
2025-01-19 08:24:14.777698	210.8	12.6	-94.6	0.0
2025-01-19 08:24:15.900603	210.8	12.5	-94.5	0.0
2025-01-19 08:24:17.019565	210.8	12.4	-94.8	0.0
2025-01-19 08:24:18.140004	210.7	12.3	-94.6	0.0
2025-01-19 08:24:19.262165	210.7	12.2	-94.5	0.0
2025-01-19 08:24:20.383632	210.7	12.1	-94.7	0.0
2025-01-19 08:24:21.503964	210.7	12.0	-94.6	0.0
2025-01-19 08:24:22.626530	210.6	11.9	-94.6	0.0
2025-01-19 08:24:23.745878	210.6	11.8	-95.0	0.0
2025-01-19 08:24:24.865461	210.6	11.7	-94.6	0.0
2025-01-19 08:24:25.987390	210.6	11.6	-94.7	0.0
2025-01-19 08:24:27.107607	210.5	11.5	-94.5	0.0
2025-01-19 08:24:28.230786	210.5	11.4	-95.0	0.0
2025-01-19 08:24:29.350666	210.5	11.3	-94.9	0.0
2025-01-19 08:24:30.468536	210.5	11.2	-94.5	0.0
2025-01-19 08:24:31.591028	210.4	11.1	-94.5	0.0
2025-01-19 08:24:32.713295	210.4	11.0	-94.9	0.0
2025-01-19 08:24:33.833958	210.4	10.9	-94.9	0.0
2025-01-19 08:24:34.955547	210.4	10.8	-95.0	0.0
2025-01-19 08:24:36.074982	210.3	10.7	-95.0	0.0
2025-01-19 08:24:37.194663	210.3	10.6	-94.7	0.0
2025-01-19 08:24:38.315823	210.3	10.5	-94.6	0.0
2025-01-19 08:24:39.435737	210.3	10.4	-95.1	0.0
2025-01-19 08:24:40.557144	210.2	10.3	-95.0	0.0
2025-01-19 08:24:41.677015	210.2	10.2	-94.7	0.0
2025-01-19 08:24:42.796643	210.2	10.1	-94.7	0.0
#Closed at: 2025-01-19 08:13:43.061154