passes_logs/2025/01/19/planumMaritime01/planumMaritime01__20250119_101902_NOAA_18_rec.log

#Pass ID: 20250119_101902_NOAA 18
#Satellite: NOAA 18
#Configuration: NOAA 18
#Start time: 2025-01-19 10:19:07.774854

#LorettStation: 1.0.0 05.05.2024
#Station: planumMaritime01
#Location: 37.49445 lon 55.92918 lat
#TLE: 1 28654U 05018A   25018.13582066  .00000389  00000+0  23006-3 0  9999
#TLE: 2 28654  98.8561  99.1591 0014505 170.4027 189.7425 14.13489305 13620

#Time	Az	El	Level	SNR
2025-01-19 10:19:15.975148	3.7	10.6	-94.5	0.0
2025-01-19 10:19:17.096737	3.6	10.7	-94.5	0.0
2025-01-19 10:19:18.218344	3.5	10.8	-94.7	0.0
2025-01-19 10:19:19.339405	3.4	10.9	-94.7	0.0
2025-01-19 10:19:20.459096	3.3	11.0	-94.5	0.0
2025-01-19 10:19:21.580877	3.2	11.1	-94.3	0.0
2025-01-19 10:19:22.703062	3.1	11.1	-94.5	0.0
2025-01-19 10:19:23.825389	3.0	11.2	-94.8	0.0
2025-01-19 10:19:24.946345	2.9	11.3	-94.7	0.0
2025-01-19 10:19:26.068594	2.8	11.4	-94.6	0.0
2025-01-19 10:19:27.187986	2.7	11.5	-94.6	0.0
2025-01-19 10:19:28.308849	2.6	11.6	-94.6	0.0
2025-01-19 10:19:29.431180	2.5	11.7	-94.6	0.0
2025-01-19 10:19:30.551346	2.4	11.8	-94.7	0.0
2025-01-19 10:19:31.671136	2.3	11.8	-95.0	0.0
2025-01-19 10:19:32.790987	2.2	11.9	-94.6	0.0
2025-01-19 10:19:33.910867	2.1	12.0	-94.7	0.0
2025-01-19 10:19:35.032568	1.9	12.1	-94.8	0.0
2025-01-19 10:19:36.154917	1.8	12.2	-94.6	0.0
2025-01-19 10:19:37.275694	1.7	12.3	-94.8	0.0
2025-01-19 10:19:38.398370	1.6	12.4	-94.7	0.0
2025-01-19 10:19:39.519066	1.5	12.5	-94.8	0.0
2025-01-19 10:19:40.640978	1.4	12.6	-94.5	0.0
2025-01-19 10:19:41.762283	1.3	12.7	-94.5	0.0
2025-01-19 10:19:42.884074	1.2	12.7	-94.3	0.0
2025-01-19 10:19:44.004805	1.0	12.8	-94.7	0.0
2025-01-19 10:19:45.127078	0.9	12.9	-94.7	0.0
2025-01-19 10:19:46.247569	0.8	13.0	-94.4	0.0
2025-01-19 10:19:47.369077	0.7	13.1	-94.6	0.0
2025-01-19 10:19:48.488161	0.6	13.2	-94.3	0.0
2025-01-19 10:19:49.608360	0.5	13.3	-94.7	0.0
2025-01-19 10:19:50.730298	0.3	13.4	-94.5	0.0
2025-01-19 10:19:51.850502	0.2	13.5	-94.3	0.0
2025-01-19 10:19:52.971855	0.1	13.6	-94.6	0.0
2025-01-19 10:19:54.090490	360.0	13.7	-94.5	0.0
2025-01-19 10:19:55.212366	359.9	13.8	-94.6	0.0
2025-01-19 10:19:56.333643	359.7	13.9	-94.6	0.0
2025-01-19 10:19:57.453487	359.6	13.9	-94.5	0.0
2025-01-19 10:19:58.576448	359.5	14.0	-94.5	0.0
2025-01-19 10:19:59.697122	359.4	14.1	-94.3	0.0
2025-01-19 10:20:00.818983	359.2	14.2	-94.5	0.0
2025-01-19 10:20:01.939921	359.1	14.3	-94.6	0.0
2025-01-19 10:20:03.060063	359.0	14.4	-94.9	0.0
2025-01-19 10:20:04.181798	358.8	14.5	-94.6	0.0
2025-01-19 10:20:05.303619	358.7	14.6	-94.4	0.0
2025-01-19 10:20:06.424578	358.6	14.7	-94.8	0.0
2025-01-19 10:20:07.545244	358.4	14.8	-94.6	0.0
2025-01-19 10:20:08.667435	358.3	14.9	-94.8	0.0
2025-01-19 10:20:09.787097	358.2	15.0	-94.8	0.0
2025-01-19 10:20:10.906811	358.0	15.1	-94.5	0.0
2025-01-19 10:20:12.029251	357.9	15.2	-94.7	0.0
2025-01-19 10:20:13.150869	357.8	15.3	-94.7	0.0
2025-01-19 10:20:14.273068	357.6	15.4	-94.9	0.0
2025-01-19 10:20:15.393154	357.5	15.5	-94.8	0.0
2025-01-19 10:20:16.515154	357.4	15.6	-95.0	0.0
2025-01-19 10:20:17.637497	357.2	15.7	-94.9	0.0
2025-01-19 10:20:18.757958	357.1	15.8	-94.9	0.0
2025-01-19 10:20:19.879594	356.9	15.9	-94.9	0.0
2025-01-19 10:20:21.001580	356.8	16.0	-94.5	0.0
2025-01-19 10:20:22.123149	356.6	16.1	-94.5	0.0
2025-01-19 10:20:23.243172	356.5	16.2	-94.7	0.0
2025-01-19 10:20:24.364184	356.4	16.3	-94.8	0.0
2025-01-19 10:20:25.487057	356.2	16.4	-94.7	0.0
2025-01-19 10:20:26.609163	356.1	16.5	-94.4	0.0
2025-01-19 10:20:27.730268	355.9	16.6	-94.6	0.0
2025-01-19 10:20:28.851635	355.8	16.7	-94.6	0.0
2025-01-19 10:20:29.972069	355.6	16.8	-94.6	0.0
2025-01-19 10:20:31.093363	355.5	16.9	-94.5	0.0
2025-01-19 10:20:32.214535	355.3	17.0	-94.5	0.0
2025-01-19 10:20:33.335959	355.2	17.1	-94.7	0.0
2025-01-19 10:20:34.456974	355.0	17.2	-94.4	0.0
2025-01-19 10:20:35.578343	354.8	17.3	-94.7	0.0
2025-01-19 10:20:36.699914	354.7	17.4	-94.9	0.0
2025-01-19 10:20:37.821809	354.5	17.5	-94.4	0.0
2025-01-19 10:20:38.942350	354.4	17.6	-94.8	0.0
2025-01-19 10:20:40.060899	354.2	17.7	-94.4	0.0
2025-01-19 10:20:41.180597	354.0	17.8	-94.7	0.0
2025-01-19 10:20:42.301072	353.9	17.9	-94.4	0.0
2025-01-19 10:20:43.424154	353.7	18.0	-94.4	0.0
2025-01-19 10:20:44.546501	353.6	18.1	-94.8	0.0
2025-01-19 10:20:45.666329	353.4	18.2	-94.7	0.0
2025-01-19 10:20:46.785950	353.2	18.3	-94.8	0.0
2025-01-19 10:20:47.910479	353.0	18.4	-94.8	0.0
2025-01-19 10:20:49.032981	352.9	18.5	-94.7	0.0
2025-01-19 10:20:50.154938	352.7	18.6	-94.9	0.0
2025-01-19 10:20:51.275115	352.5	18.7	-94.5	0.0
2025-01-19 10:20:52.398340	352.4	18.8	-94.8	0.0
2025-01-19 10:20:53.517485	352.2	18.9	-94.7	0.0
2025-01-19 10:20:54.640193	352.0	19.0	-94.8	0.0
2025-01-19 10:20:55.760519	351.8	19.1	-94.6	0.0
2025-01-19 10:20:56.881367	351.7	19.2	-94.7	0.0
2025-01-19 10:20:58.001021	351.5	19.3	-94.8	0.0
2025-01-19 10:20:59.120196	351.3	19.4	-94.6	0.0
2025-01-19 10:21:00.241736	351.1	19.5	-94.6	0.0
2025-01-19 10:21:01.361615	350.9	19.6	-94.5	0.0
2025-01-19 10:21:02.482997	350.8	19.7	-94.8	0.0
2025-01-19 10:21:03.603997	350.6	19.8	-94.8	0.0
2025-01-19 10:21:04.723626	350.4	19.9	-94.9	0.0
2025-01-19 10:21:05.844774	350.2	20.1	-94.4	0.0
2025-01-19 10:21:06.964531	350.0	20.2	-94.9	0.0
2025-01-19 10:21:08.085421	349.8	20.3	-94.7	0.0
2025-01-19 10:21:09.206911	349.6	20.4	-94.6	0.0
2025-01-19 10:21:10.328860	349.4	20.5	-95.0	0.0
2025-01-19 10:21:11.450972	349.2	20.6	-95.0	0.0
2025-01-19 10:21:12.570596	349.0	20.7	-94.7	0.0
2025-01-19 10:21:13.691020	348.8	20.8	-94.6	0.0
2025-01-19 10:21:14.812270	348.6	20.9	-94.7	0.0
2025-01-19 10:21:15.934134	348.4	21.0	-94.8	0.0
2025-01-19 10:21:17.053525	348.2	21.1	-94.7	0.0
2025-01-19 10:21:18.175027	348.0	21.2	-94.5	0.0
2025-01-19 10:21:19.295457	347.8	21.3	-94.5	0.0
2025-01-19 10:21:20.416996	347.6	21.4	-94.9	0.0
2025-01-19 10:21:21.536168	347.4	21.5	-94.7	0.0
2025-01-19 10:21:22.656370	347.2	21.6	-94.5	0.0
2025-01-19 10:21:23.776730	347.0	21.7	-94.6	0.0
2025-01-19 10:21:24.895787	346.8	21.9	-94.9	0.0
2025-01-19 10:21:26.017168	346.6	22.0	-94.7	0.0
2025-01-19 10:21:27.137662	346.4	22.1	-94.9	0.0
2025-01-19 10:21:28.257323	346.1	22.2	-94.6	0.0
2025-01-19 10:21:29.379852	345.9	22.3	-94.5	0.0
2025-01-19 10:21:30.499109	345.7	22.4	-94.8	0.0
2025-01-19 10:21:31.620923	345.5	22.5	-94.7	0.0
2025-01-19 10:21:32.742473	345.3	22.6	-94.7	0.0
2025-01-19 10:21:33.863312	345.0	22.7	-94.5	0.0
2025-01-19 10:21:34.984170	344.8	22.8	-94.5	0.0
2025-01-19 10:21:36.105239	344.6	22.9	-94.6	0.0
2025-01-19 10:21:37.226623	344.4	23.0	-94.8	0.0
2025-01-19 10:21:38.347037	344.1	23.1	-94.6	0.0
2025-01-19 10:21:39.469245	343.9	23.2	-94.6	0.0
2025-01-19 10:21:40.590947	343.7	23.3	-94.6	0.0
2025-01-19 10:21:41.712038	343.4	23.4	-94.6	0.0
2025-01-19 10:21:42.832109	343.2	23.6	-94.6	0.0
2025-01-19 10:21:43.954277	342.9	23.7	-94.8	0.0
2025-01-19 10:21:45.076259	342.7	23.8	-94.7	0.0
2025-01-19 10:21:46.197952	342.5	23.9	-95.0	0.0
2025-01-19 10:21:47.319904	342.2	24.0	-94.7	0.0
2025-01-19 10:21:48.440931	342.0	24.1	-94.7	0.0
2025-01-19 10:21:49.563097	341.7	24.2	-94.9	0.0
2025-01-19 10:21:50.683823	341.5	24.3	-94.8	0.0
2025-01-19 10:21:51.804880	341.2	24.4	-94.9	0.0
2025-01-19 10:21:52.924212	341.0	24.5	-94.8	0.0
2025-01-19 10:21:54.044182	340.7	24.6	-95.0	0.0
2025-01-19 10:21:55.165180	340.5	24.7	-94.9	0.0
2025-01-19 10:21:56.284788	340.2	24.8	-95.1	0.0
2025-01-19 10:21:57.403170	340.0	24.9	-94.8	0.0
2025-01-19 10:21:58.523907	339.7	25.0	-94.9	0.0
2025-01-19 10:21:59.645606	339.4	25.1	-94.8	0.0
2025-01-19 10:22:00.768742	339.2	25.2	-94.9	0.0
2025-01-19 10:22:01.889897	338.9	25.3	-95.0	0.0
2025-01-19 10:22:03.010691	338.6	25.4	-94.8	0.0
2025-01-19 10:22:04.132289	338.4	25.5	-94.9	0.0
2025-01-19 10:22:05.254676	338.1	25.6	-94.8	0.0
2025-01-19 10:22:06.376008	337.8	25.7	-94.8	0.0
2025-01-19 10:22:07.496697	337.6	25.8	-94.8	0.0
2025-01-19 10:22:08.616178	337.3	25.9	-94.9	0.0
2025-01-19 10:22:09.737048	337.0	26.0	-94.7	0.0
2025-01-19 10:22:10.859002	336.7	26.1	-94.7	0.0
2025-01-19 10:22:11.980027	336.4	26.2	-94.9	0.0
2025-01-19 10:22:13.102182	336.2	26.3	-94.5	0.0
2025-01-19 10:22:14.222983	335.9	26.4	-94.6	0.0
2025-01-19 10:22:15.344619	335.6	26.5	-94.4	0.0
2025-01-19 10:22:16.465783	335.3	26.6	-94.8	0.0
2025-01-19 10:22:17.587138	335.0	26.7	-94.8	0.0
2025-01-19 10:22:18.706658	334.7	26.8	-94.4	0.0
2025-01-19 10:22:19.826805	334.4	26.9	-94.7	0.0
2025-01-19 10:22:20.947939	334.1	27.0	-94.5	0.0
2025-01-19 10:22:22.066698	333.8	27.1	-94.8	0.0
2025-01-19 10:22:23.187173	333.5	27.2	-94.7	0.0
2025-01-19 10:22:24.310166	333.2	27.3	-94.7	0.0
2025-01-19 10:22:25.430477	332.9	27.4	-94.5	0.0
2025-01-19 10:22:26.552382	332.6	27.5	-94.5	0.0
2025-01-19 10:22:27.673247	332.3	27.6	-94.7	0.0
2025-01-19 10:22:28.793601	332.0	27.7	-94.8	0.0
2025-01-19 10:22:29.917027	331.7	27.8	-94.6	0.0
2025-01-19 10:22:31.039300	331.4	27.9	-94.6	0.0
2025-01-19 10:22:32.157753	331.1	27.9	-94.6	0.0
2025-01-19 10:22:33.280154	330.7	28.0	-94.5	0.0
2025-01-19 10:22:34.401627	330.4	28.1	-94.6	0.0
2025-01-19 10:22:35.523641	330.1	28.2	-94.6	0.0
2025-01-19 10:22:36.646073	329.8	28.3	-94.7	0.0
2025-01-19 10:22:37.771003	329.5	28.4	-94.7	0.0
2025-01-19 10:22:38.893433	329.1	28.5	-94.8	0.0
2025-01-19 10:22:40.015940	328.8	28.6	-94.5	0.0
2025-01-19 10:22:41.135977	328.5	28.6	-94.5	0.0
2025-01-19 10:22:42.257350	328.2	28.7	-94.8	0.0
2025-01-19 10:22:43.379158	327.8	28.8	-94.9	0.0
2025-01-19 10:22:44.498842	327.5	28.9	-94.9	0.0
2025-01-19 10:22:45.619626	327.2	29.0	-94.6	0.0
2025-01-19 10:22:46.740369	326.8	29.1	-94.8	0.0
2025-01-19 10:22:47.859947	326.5	29.1	-94.5	0.0
2025-01-19 10:22:48.981189	326.1	29.2	-94.8	0.0
2025-01-19 10:22:50.103564	325.8	29.3	-94.7	0.0
2025-01-19 10:22:51.224118	325.5	29.4	-94.8	0.0
2025-01-19 10:22:52.344918	325.1	29.4	-94.8	0.0
2025-01-19 10:22:53.466770	324.8	29.5	-94.8	0.0
2025-01-19 10:22:54.587349	324.4	29.6	-94.8	0.0
2025-01-19 10:22:55.708905	324.1	29.7	-94.9	0.0
2025-01-19 10:22:56.829352	323.7	29.7	-94.7	0.0
2025-01-19 10:22:57.949256	323.4	29.8	-94.8	0.0
2025-01-19 10:22:59.070670	323.0	29.9	-94.9	0.0
2025-01-19 10:23:00.188662	322.7	29.9	-94.9	0.0
2025-01-19 10:23:01.310982	322.3	30.0	-94.6	0.0
2025-01-19 10:23:02.431011	321.9	30.1	-94.6	0.0
2025-01-19 10:23:03.551249	321.6	30.1	-94.8	0.0
2025-01-19 10:23:04.671601	321.2	30.2	-94.7	0.0
2025-01-19 10:23:05.790747	320.9	30.3	-94.7	0.0
2025-01-19 10:23:06.911108	320.5	30.3	-94.8	0.0
2025-01-19 10:23:08.034076	320.1	30.4	-94.6	0.0
2025-01-19 10:23:09.157580	319.8	30.4	-94.8	0.0
2025-01-19 10:23:10.278060	319.4	30.5	-94.7	0.0
2025-01-19 10:23:11.397032	319.0	30.6	-94.9	0.0
2025-01-19 10:23:12.517996	318.6	30.6	-94.8	0.0
2025-01-19 10:23:13.638018	318.3	30.7	-94.8	0.0
2025-01-19 10:23:14.758727	317.9	30.7	-95.0	0.0
2025-01-19 10:23:15.882155	317.5	30.8	-94.6	0.0
2025-01-19 10:23:17.003076	317.1	30.8	-94.9	0.0
2025-01-19 10:23:18.123727	316.8	30.9	-94.9	0.0
2025-01-19 10:23:19.245332	316.4	30.9	-94.7	0.0
2025-01-19 10:23:20.367269	316.0	31.0	-94.7	0.0
2025-01-19 10:23:21.489257	315.6	31.0	-94.8	0.0
2025-01-19 10:23:22.610221	315.2	31.1	-94.8	0.0
2025-01-19 10:23:23.731261	314.9	31.1	-94.9	0.0
2025-01-19 10:23:24.853220	314.5	31.1	-94.8	0.0
2025-01-19 10:23:25.975837	314.1	31.2	-94.8	0.0
2025-01-19 10:23:27.094984	313.7	31.2	-95.0	0.0
2025-01-19 10:23:28.214142	313.3	31.3	-94.9	0.0
2025-01-19 10:23:29.334469	312.9	31.3	-94.6	0.0
2025-01-19 10:23:30.454905	312.5	31.3	-94.8	0.0
2025-01-19 10:23:31.574954	312.2	31.4	-95.0	0.0
2025-01-19 10:23:32.695274	311.8	31.4	-94.8	0.0
2025-01-19 10:23:33.816779	311.4	31.4	-95.0	0.0
2025-01-19 10:23:34.936135	311.0	31.4	-94.9	0.0
2025-01-19 10:23:36.057118	310.6	31.5	-94.8	0.0
2025-01-19 10:23:37.177646	310.2	31.5	-94.8	0.0
2025-01-19 10:23:38.297537	309.8	31.5	-94.7	0.0
2025-01-19 10:23:39.418871	309.4	31.5	-94.9	0.0
2025-01-19 10:23:40.539508	309.0	31.6	-94.8	0.0
2025-01-19 10:23:41.659519	308.6	31.6	-94.7	0.0
2025-01-19 10:23:42.781316	308.2	31.6	-94.6	0.0
2025-01-19 10:23:43.900625	307.8	31.6	-95.0	0.0
2025-01-19 10:23:45.020835	307.4	31.6	-94.8	0.0
2025-01-19 10:23:46.143306	307.0	31.6	-94.9	0.0
2025-01-19 10:23:47.264233	306.6	31.7	-94.8	0.0
2025-01-19 10:23:48.385194	306.2	31.7	-94.9	0.0
2025-01-19 10:23:49.503988	305.8	31.7	-94.9	0.0
2025-01-19 10:23:50.624082	305.4	31.7	-94.8	0.0
2025-01-19 10:23:51.746397	305.0	31.7	-94.6	0.0
2025-01-19 10:23:52.868908	304.6	31.7	-94.9	0.0
2025-01-19 10:23:53.988580	304.2	31.7	-95.1	0.0
2025-01-19 10:23:55.111240	303.8	31.7	-95.1	0.0
2025-01-19 10:23:56.232836	303.4	31.7	-94.9	0.0
2025-01-19 10:23:57.353009	303.0	31.7	-94.9	0.0
2025-01-19 10:23:58.475567	302.7	31.7	-94.8	0.0
2025-01-19 10:23:59.596158	302.3	31.7	-94.8	0.0
2025-01-19 10:24:00.716473	301.9	31.7	-94.9	0.0
2025-01-19 10:24:01.838409	301.5	31.7	-95.0	0.0
2025-01-19 10:24:02.959418	301.1	31.6	-95.1	0.0
2025-01-19 10:24:04.080664	300.7	31.6	-95.0	0.0
2025-01-19 10:24:05.203961	300.3	31.6	-94.8	0.0
2025-01-19 10:24:06.323634	299.9	31.6	-94.9	0.0
2025-01-19 10:24:07.444996	299.5	31.6	-94.9	0.0
2025-01-19 10:24:08.562953	299.1	31.6	-95.0	0.0
2025-01-19 10:24:09.684767	298.7	31.5	-95.0	0.0
2025-01-19 10:24:10.807100	298.3	31.5	-94.8	0.0
2025-01-19 10:24:11.928003	297.9	31.5	-94.6	0.0
2025-01-19 10:24:13.049056	297.5	31.5	-94.9	0.0
2025-01-19 10:24:14.170273	297.1	31.4	-94.8	0.0
2025-01-19 10:24:15.291098	296.7	31.4	-95.0	0.0
2025-01-19 10:24:16.413638	296.3	31.4	-95.1	0.0
2025-01-19 10:24:17.535141	295.9	31.4	-94.8	0.0
2025-01-19 10:24:18.655754	295.5	31.3	-94.8	0.0
2025-01-19 10:24:19.777904	295.1	31.3	-95.0	0.0
2025-01-19 10:24:20.898813	294.8	31.3	-95.0	0.0
2025-01-19 10:24:22.018309	294.4	31.2	-95.0	0.0
2025-01-19 10:24:23.140063	294.0	31.2	-95.0	0.0
2025-01-19 10:24:24.260609	293.6	31.1	-95.0	0.0
2025-01-19 10:24:25.381180	293.2	31.1	-95.0	0.0
2025-01-19 10:24:26.504172	292.8	31.1	-94.8	0.0
2025-01-19 10:24:27.624646	292.4	31.0	-95.2	0.0
2025-01-19 10:24:28.745486	292.1	31.0	-95.0	0.0
2025-01-19 10:24:29.867089	291.7	30.9	-94.8	0.0
2025-01-19 10:24:30.988323	291.3	30.9	-94.9	0.0
2025-01-19 10:24:32.109632	290.9	30.8	-94.8	0.0
2025-01-19 10:24:33.231099	290.5	30.8	-94.6	0.0
2025-01-19 10:24:34.350567	290.2	30.7	-94.9	0.0
2025-01-19 10:24:35.472693	289.8	30.7	-95.0	0.0
2025-01-19 10:24:36.593007	289.4	30.6	-94.9	0.0
2025-01-19 10:24:37.715299	289.0	30.6	-94.6	0.0
2025-01-19 10:24:38.837257	288.7	30.5	-94.8	0.0
2025-01-19 10:24:39.956668	288.3	30.5	-94.9	0.0
2025-01-19 10:24:41.077455	287.9	30.4	-94.9	0.0
2025-01-19 10:24:42.198166	287.6	30.3	-94.9	0.0
2025-01-19 10:24:43.319055	287.2	30.3	-94.7	0.0
2025-01-19 10:24:44.439813	286.8	30.2	-94.7	0.0
2025-01-19 10:24:45.560001	286.5	30.1	-94.9	0.0
2025-01-19 10:24:46.680719	286.1	30.1	-94.8	0.0
2025-01-19 10:24:47.803389	285.7	30.0	-94.7	0.0
2025-01-19 10:24:48.924872	285.4	29.9	-94.7	0.0
2025-01-19 10:24:50.045116	285.0	29.9	-94.9	0.0
2025-01-19 10:24:51.167554	284.7	29.8	-94.8	0.0
2025-01-19 10:24:52.287607	284.3	29.7	-94.7	0.0
2025-01-19 10:24:53.410007	284.0	29.7	-94.7	0.0
2025-01-19 10:24:54.533377	283.6	29.6	-94.9	0.0
2025-01-19 10:24:55.654707	283.3	29.5	-95.1	0.0
2025-01-19 10:24:56.774685	282.9	29.4	-94.6	0.0
2025-01-19 10:24:57.895099	282.6	29.4	-94.7	0.0
2025-01-19 10:24:59.017173	282.2	29.3	-95.0	0.0
2025-01-19 10:25:00.139641	281.9	29.2	-94.7	0.0
2025-01-19 10:25:01.259934	281.5	29.1	-95.0	0.0
2025-01-19 10:25:02.381006	281.2	29.1	-95.1	0.0
2025-01-19 10:25:03.503086	280.8	29.0	-94.9	0.0
2025-01-19 10:25:04.624908	280.5	28.9	-95.0	0.0
2025-01-19 10:25:05.746159	280.2	28.8	-94.8	0.0
2025-01-19 10:25:06.866921	279.8	28.7	-95.1	0.0
2025-01-19 10:25:07.986813	279.5	28.6	-95.0	0.0
2025-01-19 10:25:09.108002	279.2	28.6	-94.9	0.0
2025-01-19 10:25:10.226999	278.9	28.5	-94.7	0.0
2025-01-19 10:25:11.347965	278.5	28.4	-94.8	0.0
2025-01-19 10:25:12.469405	278.2	28.3	-95.1	0.0
2025-01-19 10:25:13.590771	277.9	28.2	-94.9	0.0
2025-01-19 10:25:14.713091	277.6	28.1	-94.8	0.0
2025-01-19 10:25:15.834898	277.2	28.0	-94.8	0.0
2025-01-19 10:25:16.956360	276.9	28.0	-94.7	0.0
2025-01-19 10:25:18.079185	276.6	27.9	-94.9	0.0
2025-01-19 10:25:19.201819	276.3	27.8	-94.6	0.0
2025-01-19 10:25:20.320568	276.0	27.7	-94.6	0.0
2025-01-19 10:25:21.442058	275.7	27.6	-94.5	0.0
2025-01-19 10:25:22.563565	275.4	27.5	-94.7	0.0
2025-01-19 10:25:23.684267	275.0	27.4	-94.7	0.0
2025-01-19 10:25:24.805296	274.7	27.3	-94.6	0.0
2025-01-19 10:25:25.926093	274.4	27.2	-94.6	0.0
2025-01-19 10:25:27.047457	274.1	27.1	-94.6	0.0
2025-01-19 10:25:28.168218	273.8	27.0	-94.7	0.0
2025-01-19 10:25:29.288975	273.5	26.9	-94.6	0.0
2025-01-19 10:25:30.408964	273.2	26.8	-94.7	0.0
2025-01-19 10:25:31.531136	272.9	26.7	-94.6	0.0
2025-01-19 10:25:32.651634	272.7	26.6	-94.7	0.0
2025-01-19 10:25:33.772637	272.4	26.5	-94.3	0.0
2025-01-19 10:25:34.893177	272.1	26.4	-94.8	0.0
2025-01-19 10:25:36.014632	271.8	26.3	-95.0	0.0
2025-01-19 10:25:37.135908	271.5	26.2	-94.7	0.0
2025-01-19 10:25:38.255835	271.2	26.1	-94.4	0.0
2025-01-19 10:25:39.377266	270.9	26.0	-94.6	0.0
2025-01-19 10:25:40.498772	270.7	25.9	-95.0	0.0
2025-01-19 10:25:41.619984	270.4	25.8	-94.9	0.0
2025-01-19 10:25:42.740904	270.1	25.7	-95.0	0.0
2025-01-19 10:25:43.861764	269.8	25.6	-94.4	0.0
2025-01-19 10:25:44.985010	269.6	25.5	-94.9	0.0
2025-01-19 10:25:46.105082	269.3	25.4	-94.8	0.0
2025-01-19 10:25:47.224543	269.0	25.3	-94.9	0.0
2025-01-19 10:25:48.344079	268.7	25.2	-95.1	0.0
2025-01-19 10:25:49.462982	268.5	25.1	-94.8	0.0
2025-01-19 10:25:50.584490	268.2	25.0	-94.8	0.0
2025-01-19 10:25:51.706897	268.0	24.9	-94.9	0.0
2025-01-19 10:25:52.829229	267.7	24.8	-95.0	0.0
2025-01-19 10:25:53.952855	267.4	24.7	-95.1	0.0
2025-01-19 10:25:55.074778	267.2	24.6	-94.8	0.0
2025-01-19 10:25:56.197272	266.9	24.5	-94.7	0.0
2025-01-19 10:25:57.321030	266.7	24.4	-94.8	0.0
2025-01-19 10:25:58.445004	266.4	24.3	-94.7	0.0
2025-01-19 10:25:59.564439	266.2	24.2	-94.6	0.0
2025-01-19 10:26:00.686007	265.9	24.1	-94.4	0.0
2025-01-19 10:26:01.805490	265.7	24.0	-94.8	0.0
2025-01-19 10:26:02.925522	265.4	23.8	-94.8	0.0
2025-01-19 10:26:04.047646	265.2	23.7	-94.5	0.0
2025-01-19 10:26:05.169499	264.9	23.6	-94.6	0.0
2025-01-19 10:26:06.290921	264.7	23.5	-94.7	0.0
2025-01-19 10:26:07.414043	264.5	23.4	-94.8	0.0
2025-01-19 10:26:08.537338	264.2	23.3	-94.7	0.0
2025-01-19 10:26:09.657629	264.0	23.2	-94.6	0.0
2025-01-19 10:26:10.780357	263.7	23.1	-94.6	0.0
2025-01-19 10:26:11.902296	263.5	23.0	-94.9	0.0
2025-01-19 10:26:13.023725	263.3	22.9	-94.8	0.0
2025-01-19 10:26:14.145804	263.1	22.8	-94.6	0.0
2025-01-19 10:26:15.268952	262.8	22.7	-94.5	0.0
2025-01-19 10:26:16.387711	262.6	22.6	-94.7	0.0
2025-01-19 10:26:17.509073	262.4	22.5	-94.7	0.0
2025-01-19 10:26:18.630381	262.2	22.3	-94.7	0.0
2025-01-19 10:26:19.750753	261.9	22.2	-94.9	0.0
2025-01-19 10:26:20.872643	261.7	22.1	-94.8	0.0
2025-01-19 10:26:21.993582	261.5	22.0	-94.8	0.0
2025-01-19 10:26:23.116932	261.3	21.9	-94.8	0.0
2025-01-19 10:26:24.238988	261.1	21.8	-94.7	0.0
2025-01-19 10:26:25.359841	260.8	21.7	-94.8	0.0
2025-01-19 10:26:26.478165	260.6	21.6	-94.7	0.0
2025-01-19 10:26:27.597450	260.4	21.5	-95.0	0.0
2025-01-19 10:26:28.719291	260.2	21.4	-94.9	0.0
2025-01-19 10:26:29.840855	260.0	21.3	-94.7	0.0
2025-01-19 10:26:30.960221	259.8	21.2	-94.7	0.0
2025-01-19 10:26:32.080321	259.6	21.1	-94.9	0.0
2025-01-19 10:26:33.203081	259.4	21.0	-95.2	0.0
2025-01-19 10:26:34.324674	259.2	20.8	-94.8	0.0
2025-01-19 10:26:35.448968	259.0	20.7	-95.2	0.0
2025-01-19 10:26:36.570092	258.8	20.6	-95.2	0.0
2025-01-19 10:26:37.690478	258.6	20.5	-94.9	0.0
2025-01-19 10:26:38.812101	258.4	20.4	-95.2	0.0
2025-01-19 10:26:39.933098	258.2	20.3	-95.2	0.0
2025-01-19 10:26:41.054371	258.0	20.2	-95.1	0.0
2025-01-19 10:26:42.175959	257.8	20.1	-94.9	0.0
2025-01-19 10:26:43.295619	257.6	20.0	-94.9	0.0
2025-01-19 10:26:44.416020	257.4	19.9	-95.1	0.0
2025-01-19 10:26:45.539188	257.2	19.8	-95.0	0.0
2025-01-19 10:26:46.660398	257.0	19.7	-94.8	0.0
2025-01-19 10:26:47.783313	256.9	19.6	-94.9	0.0
2025-01-19 10:26:48.905007	256.7	19.5	-94.7	0.0
2025-01-19 10:26:50.026974	256.5	19.4	-94.7	0.0
2025-01-19 10:26:51.148204	256.3	19.3	-94.8	0.0
2025-01-19 10:26:52.266983	256.1	19.1	-94.6	0.0
2025-01-19 10:26:53.388069	256.0	19.0	-94.7	0.0
2025-01-19 10:26:54.508861	255.8	18.9	-94.8	0.0
2025-01-19 10:26:55.627813	255.6	18.8	-94.5	0.0
2025-01-19 10:26:56.749248	255.4	18.7	-94.7	0.0
2025-01-19 10:26:57.871121	255.2	18.6	-94.6	0.0
2025-01-19 10:26:58.990128	255.1	18.5	-94.9	0.0
2025-01-19 10:27:00.110962	254.9	18.4	-94.6	0.0
2025-01-19 10:27:01.232177	254.7	18.3	-94.4	0.0
2025-01-19 10:27:02.352096	254.6	18.2	-94.8	0.0
2025-01-19 10:27:03.472157	254.4	18.1	-94.3	0.0
2025-01-19 10:27:04.593030	254.2	18.0	-94.8	0.0
2025-01-19 10:27:05.714095	254.1	17.9	-94.8	0.0
2025-01-19 10:27:06.836345	253.9	17.8	-94.8	0.0
2025-01-19 10:27:07.954982	253.7	17.7	-94.6	0.0
2025-01-19 10:27:09.076110	253.6	17.6	-94.5	0.0
2025-01-19 10:27:10.195570	253.4	17.5	-95.0	0.0
2025-01-19 10:27:11.316675	253.2	17.4	-94.8	0.0
2025-01-19 10:27:12.438303	253.1	17.3	-94.9	0.0
2025-01-19 10:27:13.557854	252.9	17.2	-94.5	0.0
2025-01-19 10:27:14.677837	252.8	17.1	-95.0	0.0
2025-01-19 10:27:15.798559	252.6	17.0	-95.0	0.0
2025-01-19 10:27:16.918432	252.4	16.9	-94.8	0.0
2025-01-19 10:27:18.039504	252.3	16.8	-94.8	0.0
2025-01-19 10:27:19.163944	252.1	16.7	-94.7	0.0
2025-01-19 10:27:20.284891	252.0	16.6	-94.8	0.0
2025-01-19 10:27:21.408475	251.8	16.5	-94.9	0.0
2025-01-19 10:27:22.529494	251.7	16.4	-94.9	0.0
2025-01-19 10:27:23.651981	251.5	16.3	-95.0	0.0
2025-01-19 10:27:24.773099	251.4	16.2	-95.0	0.0
2025-01-19 10:27:25.892636	251.2	16.1	-94.9	0.0
2025-01-19 10:27:27.012535	251.1	16.0	-94.8	0.0
2025-01-19 10:27:28.134372	250.9	15.9	-94.8	0.0
2025-01-19 10:27:29.256250	250.8	15.8	-95.0	0.0
2025-01-19 10:27:30.376640	250.7	15.7	-95.0	0.0
2025-01-19 10:27:31.498329	250.5	15.6	-95.0	0.0
2025-01-19 10:27:32.619471	250.4	15.5	-95.0	0.0
2025-01-19 10:27:33.740191	250.2	15.4	-95.0	0.0
2025-01-19 10:27:34.861655	250.1	15.3	-95.0	0.0
2025-01-19 10:27:35.983140	249.9	15.2	-95.1	0.0
2025-01-19 10:27:37.106270	249.8	15.1	-95.0	0.0
2025-01-19 10:27:38.227540	249.7	15.0	-95.0	0.0
2025-01-19 10:27:39.347913	249.5	14.9	-95.0	0.0
2025-01-19 10:27:40.470287	249.4	14.8	-95.1	0.0
2025-01-19 10:27:41.589699	249.3	14.7	-94.9	0.0
2025-01-19 10:27:42.710374	249.1	14.6	-95.0	0.0
2025-01-19 10:27:43.831212	249.0	14.5	-94.9	0.0
2025-01-19 10:27:44.952386	248.9	14.4	-94.8	0.0
2025-01-19 10:27:46.075005	248.7	14.3	-94.9	0.0
2025-01-19 10:27:47.194863	248.6	14.2	-94.8	0.0
2025-01-19 10:27:48.317289	248.5	14.1	-94.7	0.0
2025-01-19 10:27:49.437909	248.4	14.0	-94.5	0.0
2025-01-19 10:27:50.558152	248.2	13.9	-94.8	0.0
2025-01-19 10:27:51.680368	248.1	13.8	-94.8	0.0
2025-01-19 10:27:52.800005	248.0	13.7	-94.9	0.0
2025-01-19 10:27:53.919866	247.8	13.6	-94.5	0.0
2025-01-19 10:27:55.040830	247.7	13.6	-95.0	0.0
2025-01-19 10:27:56.160856	247.6	13.5	-94.8	0.0
2025-01-19 10:27:57.281025	247.5	13.4	-94.8	0.0
2025-01-19 10:27:58.402383	247.4	13.3	-94.8	0.0
2025-01-19 10:27:59.524034	247.2	13.2	-94.7	0.0
2025-01-19 10:28:00.645217	247.1	13.1	-94.6	0.0
2025-01-19 10:28:01.767676	247.0	13.0	-94.7	0.0
2025-01-19 10:28:02.888993	246.9	12.9	-95.2	0.0
2025-01-19 10:28:04.009730	246.8	12.8	-94.9	0.0
2025-01-19 10:28:05.131758	246.6	12.7	-94.6	0.0
2025-01-19 10:28:06.252924	246.5	12.6	-94.6	0.0
2025-01-19 10:28:07.372642	246.4	12.5	-94.7	0.0
2025-01-19 10:28:08.493153	246.3	12.4	-94.9	0.0
2025-01-19 10:28:09.615254	246.2	12.4	-94.9	0.0
2025-01-19 10:28:10.736529	246.1	12.3	-95.2	0.0
2025-01-19 10:28:11.857589	245.9	12.2	-94.5	0.0
2025-01-19 10:28:12.978734	245.8	12.1	-95.0	0.0
2025-01-19 10:28:14.098764	245.7	12.0	-94.9	0.0
2025-01-19 10:28:15.219980	245.6	11.9	-94.9	0.0
2025-01-19 10:28:16.341111	245.5	11.8	-94.8	0.0
2025-01-19 10:28:17.463843	245.4	11.7	-95.2	0.0
2025-01-19 10:28:18.583291	245.3	11.6	-94.9	0.0
2025-01-19 10:28:19.704621	245.2	11.5	-95.0	0.0
2025-01-19 10:28:20.825144	245.1	11.5	-95.1	0.0
2025-01-19 10:28:21.947179	245.0	11.4	-95.0	0.0
2025-01-19 10:28:23.070102	244.9	11.3	-95.0	0.0
2025-01-19 10:28:24.190850	244.7	11.2	-94.8	0.0
2025-01-19 10:28:25.313995	244.6	11.1	-95.3	0.0
2025-01-19 10:28:26.436754	244.5	11.0	-94.7	0.0
2025-01-19 10:28:27.559222	244.4	10.9	-94.6	0.0
2025-01-19 10:28:28.679541	244.3	10.8	-94.8	0.0
2025-01-19 10:28:29.802151	244.2	10.7	-95.0	0.0
2025-01-19 10:28:30.922667	244.1	10.7	-94.9	0.0
2025-01-19 10:28:32.043688	244.0	10.6	-95.0	0.0
2025-01-19 10:28:33.167016	243.9	10.5	-94.7	0.0
2025-01-19 10:28:34.288570	243.8	10.4	-94.9	0.0
2025-01-19 10:28:35.412389	243.7	10.3	-94.9	0.0
2025-01-19 10:28:36.534409	243.6	10.2	-95.1	0.0
2025-01-19 10:28:37.655981	243.5	10.1	-94.9	0.0
2025-01-19 10:28:38.776401	243.4	10.1	-94.9	0.0
#Closed at: 2025-01-19 10:19:02.777248