passes_logs/2025/01/19/planumMaritime01/planumMaritime01__20250119_120236_METEOR-M2_2_rec.log

#Pass ID: 20250119_120236_METEOR-M2 2
#Satellite: METEOR-M2 2
#Configuration: METEOR-M2 2
#Start time: 2025-01-19 12:02:41.369314

#LorettStation: 1.0.0 05.05.2024
#Station: planumMaritime01
#Location: 37.49445 lon 55.92918 lat
#TLE: 1 44387U 19038A   25018.08914431  .00000283  00000+0  14263-3 0  9994
#TLE: 2 44387  98.8572 354.5105 0002264  74.1378 286.0050 14.24118986287972

#Time	Az	El	Level	SNR
2025-01-19 12:02:43.531190	151.3	10.2	-94.6	0.0
2025-01-19 12:02:44.652883	151.3	10.3	-94.3	0.0
2025-01-19 12:02:45.774036	151.2	10.4	-94.2	0.0
2025-01-19 12:02:46.895489	151.2	10.5	-94.6	0.0
2025-01-19 12:02:48.016887	151.2	10.6	-94.5	0.0
2025-01-19 12:02:49.137309	151.2	10.7	-94.4	0.0
2025-01-19 12:02:50.258306	151.2	10.8	-94.8	0.0
2025-01-19 12:02:51.378399	151.1	10.9	-94.7	0.0
2025-01-19 12:02:52.499023	151.1	11.0	-94.6	0.0
2025-01-19 12:02:53.619790	151.1	11.1	-94.7	0.0
2025-01-19 12:02:54.740912	151.1	11.2	-94.5	0.0
2025-01-19 12:02:55.862433	151.0	11.3	-94.8	0.0
2025-01-19 12:02:56.985192	151.0	11.4	-94.5	0.0
2025-01-19 12:02:58.105757	151.0	11.5	-94.5	0.0
2025-01-19 12:02:59.225923	151.0	11.6	-94.8	0.0
2025-01-19 12:03:00.346410	151.0	11.7	-94.6	0.0
2025-01-19 12:03:01.468381	150.9	11.8	-94.5	0.0
2025-01-19 12:03:02.589266	150.9	11.9	-94.3	0.0
2025-01-19 12:03:03.709717	150.9	12.0	-94.6	0.0
2025-01-19 12:03:04.830598	150.9	12.1	-94.4	0.0
2025-01-19 12:03:05.950779	150.8	12.3	-94.6	0.0
2025-01-19 12:03:07.072238	150.8	12.4	-95.0	0.0
2025-01-19 12:03:08.193293	150.8	12.5	-94.6	0.0
2025-01-19 12:03:09.313158	150.8	12.6	-94.3	0.0
2025-01-19 12:03:10.433971	150.7	12.7	-94.5	0.0
2025-01-19 12:03:11.555009	150.7	12.8	-94.6	0.0
2025-01-19 12:03:12.676117	150.7	12.9	-94.8	0.0
2025-01-19 12:03:13.798186	150.7	13.0	-94.8	0.0
2025-01-19 12:03:14.920625	150.6	13.1	-94.7	0.0
2025-01-19 12:03:16.042299	150.6	13.2	-94.6	0.0
2025-01-19 12:03:17.161821	150.6	13.4	-94.8	0.0
2025-01-19 12:03:18.282202	150.6	13.5	-94.5	0.0
2025-01-19 12:03:19.403593	150.5	13.6	-94.7	0.0
2025-01-19 12:03:20.524748	150.5	13.7	-94.7	0.0
2025-01-19 12:03:21.646003	150.5	13.8	-94.4	0.0
2025-01-19 12:03:22.768899	150.4	13.9	-94.8	0.0
2025-01-19 12:03:23.889115	150.4	14.0	-94.8	0.0
2025-01-19 12:03:25.009144	150.4	14.2	-94.5	0.0
2025-01-19 12:03:26.129827	150.4	14.3	-94.5	0.0
2025-01-19 12:03:27.249365	150.3	14.4	-94.5	0.0
2025-01-19 12:03:28.370189	150.3	14.5	-94.6	0.0
2025-01-19 12:03:29.492181	150.3	14.6	-94.6	0.0
2025-01-19 12:03:30.614940	150.2	14.7	-94.5	0.0
2025-01-19 12:03:31.735688	150.2	14.9	-94.5	0.0
2025-01-19 12:03:32.854746	150.2	15.0	-94.4	0.0
2025-01-19 12:03:33.978314	150.2	15.1	-94.7	0.0
2025-01-19 12:03:35.100671	150.1	15.2	-94.8	0.0
2025-01-19 12:03:36.222096	150.1	15.4	-94.5	0.0
2025-01-19 12:03:37.342039	150.1	15.5	-94.4	0.0
2025-01-19 12:03:38.460910	150.0	15.6	-94.7	0.0
2025-01-19 12:03:39.582023	150.0	15.7	-94.6	0.0
2025-01-19 12:03:40.701470	150.0	15.8	-94.4	0.0
2025-01-19 12:03:41.822849	149.9	16.0	-94.6	0.0
2025-01-19 12:03:42.942206	149.9	16.1	-94.8	0.0
2025-01-19 12:03:44.063522	149.9	16.2	-94.7	0.0
2025-01-19 12:03:45.185816	149.8	16.4	-94.7	0.0
2025-01-19 12:03:46.306815	149.8	16.5	-94.8	0.0
2025-01-19 12:03:47.430139	149.8	16.6	-94.7	0.0
2025-01-19 12:03:48.550325	149.7	16.7	-94.6	0.0
2025-01-19 12:03:49.670651	149.7	16.9	-94.7	0.0
2025-01-19 12:03:50.793093	149.7	17.0	-94.9	0.0
2025-01-19 12:03:51.914732	149.6	17.1	-94.6	0.0
2025-01-19 12:03:53.036043	149.6	17.3	-94.7	0.0
2025-01-19 12:03:54.159829	149.6	17.4	-94.8	0.0
2025-01-19 12:03:55.281172	149.5	17.5	-94.5	0.0
2025-01-19 12:03:56.400876	149.5	17.7	-94.6	0.0
2025-01-19 12:03:57.520745	149.5	17.8	-94.8	0.0
2025-01-19 12:03:58.642868	149.4	17.9	-94.8	0.0
2025-01-19 12:03:59.763862	149.4	18.1	-94.7	0.0
2025-01-19 12:04:00.885183	149.3	18.2	-94.6	0.0
2025-01-19 12:04:02.006315	149.3	18.3	-94.7	0.0
2025-01-19 12:04:03.127260	149.3	18.5	-94.8	0.0
2025-01-19 12:04:04.248043	149.2	18.6	-94.7	0.0
2025-01-19 12:04:05.368603	149.2	18.8	-94.8	0.0
2025-01-19 12:04:06.487098	149.2	18.9	-94.8	0.0
2025-01-19 12:04:07.606833	149.1	19.0	-94.6	0.0
2025-01-19 12:04:08.727335	149.1	19.2	-94.6	0.0
2025-01-19 12:04:09.848689	149.0	19.3	-94.8	0.0
2025-01-19 12:04:10.969312	149.0	19.5	-94.6	0.0
2025-01-19 12:04:12.090366	148.9	19.6	-94.4	0.0
2025-01-19 12:04:13.210700	148.9	19.8	-94.7	0.0
2025-01-19 12:04:14.332124	148.9	19.9	-94.7	0.0
2025-01-19 12:04:15.453125	148.8	20.1	-94.5	0.0
2025-01-19 12:04:16.576266	148.8	20.2	-94.8	0.0
2025-01-19 12:04:17.696929	148.7	20.4	-94.5	0.0
2025-01-19 12:04:18.818379	148.7	20.5	-94.8	0.0
2025-01-19 12:04:19.939113	148.6	20.7	-94.8	0.0
2025-01-19 12:04:21.059964	148.6	20.8	-94.8	0.0
2025-01-19 12:04:22.181072	148.6	21.0	-94.8	0.0
2025-01-19 12:04:23.303988	148.5	21.1	-94.9	0.0
2025-01-19 12:04:24.424190	148.5	21.3	-94.9	0.0
2025-01-19 12:04:25.544406	148.4	21.4	-94.7	0.0
2025-01-19 12:04:26.665863	148.4	21.6	-94.8	0.0
2025-01-19 12:04:27.788171	148.3	21.7	-95.0	0.0
2025-01-19 12:04:28.910693	148.3	21.9	-94.9	0.0
2025-01-19 12:04:30.031487	148.2	22.1	-94.9	0.0
2025-01-19 12:04:31.152266	148.2	22.2	-94.9	0.0
2025-01-19 12:04:32.271587	148.1	22.4	-94.7	0.0
2025-01-19 12:04:33.391809	148.1	22.5	-95.0	0.0
2025-01-19 12:04:34.511159	148.0	22.7	-95.0	0.0
2025-01-19 12:04:35.629534	148.0	22.9	-94.5	0.0
2025-01-19 12:04:36.751757	147.9	23.0	-94.9	0.0
2025-01-19 12:04:37.873368	147.9	23.2	-94.8	0.0
2025-01-19 12:04:38.994668	147.8	23.4	-94.9	0.0
2025-01-19 12:04:40.115291	147.8	23.5	-94.6	0.0
2025-01-19 12:04:41.234306	147.7	23.7	-94.8	0.0
2025-01-19 12:04:42.355935	147.6	23.9	-94.7	0.0
2025-01-19 12:04:43.475986	147.6	24.1	-94.6	0.0
2025-01-19 12:04:44.596186	147.5	24.2	-94.8	0.0
2025-01-19 12:04:45.717491	147.5	24.4	-94.7	0.0
2025-01-19 12:04:46.836680	147.4	24.6	-94.5	0.0
2025-01-19 12:04:47.957760	147.4	24.8	-94.5	0.0
2025-01-19 12:04:49.078888	147.3	24.9	-94.7	0.0
2025-01-19 12:04:50.199910	147.2	25.1	-94.7	0.0
2025-01-19 12:04:51.320991	147.2	25.3	-94.7	0.0
2025-01-19 12:04:52.442247	147.1	25.5	-94.7	0.0
2025-01-19 12:04:53.561283	147.0	25.7	-94.7	0.0
2025-01-19 12:04:54.684703	147.0	25.8	-94.9	0.0
2025-01-19 12:04:55.805088	146.9	26.0	-94.9	0.0
2025-01-19 12:04:56.926846	146.9	26.2	-94.8	0.0
2025-01-19 12:04:58.049674	146.8	26.4	-94.8	0.0
2025-01-19 12:04:59.169853	146.7	26.6	-94.8	0.0
2025-01-19 12:05:00.289438	146.7	26.8	-94.7	0.0
2025-01-19 12:05:01.409695	146.6	27.0	-94.5	0.0
2025-01-19 12:05:02.530129	146.5	27.2	-94.6	0.0
2025-01-19 12:05:03.650294	146.4	27.4	-94.7	0.0
2025-01-19 12:05:04.772251	146.4	27.6	-94.6	0.0
2025-01-19 12:05:05.892668	146.3	27.8	-94.7	0.0
2025-01-19 12:05:07.013273	146.2	27.9	-95.0	0.0
2025-01-19 12:05:08.131335	146.2	28.1	-94.8	0.0
2025-01-19 12:05:09.252839	146.1	28.4	-94.9	0.0
2025-01-19 12:05:10.370643	146.0	28.6	-94.7	0.0
2025-01-19 12:05:11.492250	145.9	28.8	-94.8	0.0
2025-01-19 12:05:12.613845	145.9	29.0	-95.0	0.0
2025-01-19 12:05:13.736282	145.8	29.2	-94.9	0.0
2025-01-19 12:05:14.858512	145.7	29.4	-95.0	0.0
2025-01-19 12:05:15.980297	145.6	29.6	-94.7	0.0
2025-01-19 12:05:17.100179	145.5	29.8	-94.8	0.0
2025-01-19 12:05:18.222020	145.4	30.0	-94.6	0.0
2025-01-19 12:05:19.340615	145.4	30.2	-95.0	0.0
2025-01-19 12:05:20.461487	145.3	30.4	-94.6	0.0
2025-01-19 12:05:21.582993	145.2	30.7	-95.1	0.0
2025-01-19 12:05:22.705199	145.1	30.9	-94.9	0.0
2025-01-19 12:05:23.828974	145.0	31.1	-94.9	0.0
2025-01-19 12:05:24.948040	144.9	31.3	-94.8	0.0
2025-01-19 12:05:26.069574	144.8	31.5	-94.9	0.0
2025-01-19 12:05:27.189563	144.7	31.8	-94.8	0.0
2025-01-19 12:05:28.310890	144.6	32.0	-94.7	0.0
2025-01-19 12:05:29.431731	144.5	32.2	-94.8	0.0
2025-01-19 12:05:30.553625	144.5	32.5	-94.6	0.0
2025-01-19 12:05:31.674556	144.4	32.7	-94.8	0.0
2025-01-19 12:05:32.796763	144.3	32.9	-94.8	0.0
2025-01-19 12:05:33.918188	144.2	33.2	-94.9	0.0
2025-01-19 12:05:35.038186	144.0	33.4	-94.6	0.0
2025-01-19 12:05:36.160188	143.9	33.6	-94.4	0.0
2025-01-19 12:05:37.282658	143.8	33.9	-94.6	0.0
2025-01-19 12:05:38.403293	143.7	34.1	-94.8	0.0
2025-01-19 12:05:39.526393	143.6	34.4	-94.6	0.0
2025-01-19 12:05:40.647345	143.5	34.6	-94.9	0.0
2025-01-19 12:05:41.767267	143.4	34.9	-94.8	0.0
2025-01-19 12:05:42.888205	143.3	35.1	-94.8	0.0
2025-01-19 12:05:44.010397	143.2	35.4	-94.6	0.0
2025-01-19 12:05:45.131965	143.0	35.6	-94.6	0.0
2025-01-19 12:05:46.250263	142.9	35.9	-94.8	0.0
2025-01-19 12:05:47.371570	142.8	36.1	-94.6	0.0
2025-01-19 12:05:48.492699	142.7	36.4	-94.7	0.0
2025-01-19 12:05:49.612929	142.5	36.7	-94.7	0.0
2025-01-19 12:05:50.732096	142.4	36.9	-94.9	0.0
2025-01-19 12:05:51.855204	142.3	37.2	-94.8	0.0
2025-01-19 12:05:52.976081	142.2	37.5	-94.6	0.0
2025-01-19 12:05:54.097132	142.0	37.7	-94.7	0.0
2025-01-19 12:05:55.218021	141.9	38.0	-94.7	0.0
2025-01-19 12:05:56.340871	141.7	38.3	-94.8	0.0
2025-01-19 12:05:57.460811	141.6	38.5	-94.7	0.0
2025-01-19 12:05:58.583113	141.5	38.8	-94.5	0.0
2025-01-19 12:05:59.703058	141.3	39.1	-94.7	0.0
2025-01-19 12:06:00.824599	141.2	39.4	-94.6	0.0
2025-01-19 12:06:01.946335	141.0	39.7	-94.6	0.0
2025-01-19 12:06:03.066268	140.8	40.0	-94.7	0.0
2025-01-19 12:06:04.187705	140.7	40.2	-94.7	0.0
2025-01-19 12:06:05.308060	140.5	40.5	-94.7	0.0
2025-01-19 12:06:06.430035	140.4	40.8	-94.6	0.0
2025-01-19 12:06:07.548792	140.2	41.1	-94.9	0.0
2025-01-19 12:06:08.670316	140.0	41.4	-94.8	0.0
2025-01-19 12:06:09.793327	139.9	41.7	-94.7	0.0
2025-01-19 12:06:10.917724	139.7	42.0	-94.9	0.0
2025-01-19 12:06:12.039204	139.5	42.3	-94.8	0.0
2025-01-19 12:06:13.160209	139.3	42.6	-94.8	0.0
2025-01-19 12:06:14.281236	139.1	42.9	-95.0	0.0
2025-01-19 12:06:15.399575	138.9	43.2	-94.8	0.0
2025-01-19 12:06:16.520438	138.7	43.6	-94.8	0.0
2025-01-19 12:06:17.640899	138.5	43.9	-94.8	0.0
2025-01-19 12:06:18.759484	138.3	44.2	-94.7	0.0
2025-01-19 12:06:19.880471	138.1	44.5	-94.6	0.0
2025-01-19 12:06:21.001422	137.9	44.8	-94.9	0.0
2025-01-19 12:06:22.123540	137.7	45.1	-94.9	0.0
2025-01-19 12:06:23.243546	137.5	45.5	-95.0	0.0
2025-01-19 12:06:24.364064	137.3	45.8	-94.7	0.0
2025-01-19 12:06:25.484104	137.0	46.1	-94.6	0.0
2025-01-19 12:06:26.604771	136.8	46.5	-94.7	0.0
2025-01-19 12:06:27.725919	136.5	46.8	-95.0	0.0
2025-01-19 12:06:28.846547	136.3	47.1	-94.7	0.0
2025-01-19 12:06:29.964967	136.1	47.5	-94.7	0.0
2025-01-19 12:06:31.087374	135.8	47.8	-94.8	0.0
2025-01-19 12:06:32.207694	135.5	48.1	-95.0	0.0
2025-01-19 12:06:33.329503	135.3	48.5	-94.7	0.0
2025-01-19 12:06:34.450934	135.0	48.8	-94.9	0.0
2025-01-19 12:06:35.571241	134.7	49.2	-94.9	0.0
2025-01-19 12:06:36.691769	134.4	49.5	-94.9	0.0
2025-01-19 12:06:37.814008	134.1	49.9	-94.9	0.0
2025-01-19 12:06:38.933682	133.8	50.2	-94.8	0.0
2025-01-19 12:06:40.055330	133.5	50.6	-94.9	0.0
2025-01-19 12:06:41.176212	133.2	51.0	-95.0	0.0
2025-01-19 12:06:42.295986	132.9	51.3	-94.9	0.0
2025-01-19 12:06:43.419392	132.5	51.7	-94.8	0.0
2025-01-19 12:06:44.539011	132.2	52.0	-94.9	0.0
2025-01-19 12:06:45.660014	131.9	52.4	-95.0	0.0
2025-01-19 12:06:46.779688	131.5	52.8	-94.9	0.0
2025-01-19 12:06:47.900690	131.1	53.1	-94.8	0.0
2025-01-19 12:06:49.020720	130.8	53.5	-94.9	0.0
2025-01-19 12:06:50.142264	130.4	53.9	-94.7	0.0
2025-01-19 12:06:51.263472	130.0	54.2	-94.9	0.0
2025-01-19 12:06:52.385113	129.6	54.6	-94.9	0.0
2025-01-19 12:06:53.506204	129.2	55.0	-94.9	0.0
2025-01-19 12:06:54.624787	128.7	55.4	-94.7	0.0
2025-01-19 12:06:55.743966	128.3	55.7	-94.8	0.0
2025-01-19 12:06:56.865020	127.8	56.1	-94.8	0.0
2025-01-19 12:06:57.984667	127.4	56.5	-94.7	0.0
2025-01-19 12:06:59.105681	126.9	56.9	-94.9	0.0
2025-01-19 12:07:00.227553	126.4	57.3	-94.7	0.0
2025-01-19 12:07:01.350001	125.9	57.6	-94.7	0.0
2025-01-19 12:07:02.472193	125.4	58.0	-94.8	0.0
2025-01-19 12:07:03.594187	124.9	58.4	-94.8	0.0
2025-01-19 12:07:04.713640	124.3	58.8	-94.9	0.0
2025-01-19 12:07:05.834208	123.7	59.2	-94.8	0.0
2025-01-19 12:07:06.954181	123.2	59.5	-95.0	0.0
2025-01-19 12:07:08.075476	122.6	59.9	-95.0	0.0
2025-01-19 12:07:09.196034	122.0	60.3	-94.8	0.0
2025-01-19 12:07:10.316398	121.3	60.7	-94.9	0.0
2025-01-19 12:07:11.437240	120.7	61.1	-94.9	0.0
2025-01-19 12:07:12.558057	120.0	61.4	-94.9	0.0
2025-01-19 12:07:13.677863	119.3	61.8	-95.0	0.0
2025-01-19 12:07:14.796696	118.6	62.2	-95.0	0.0
2025-01-19 12:07:15.918753	117.8	62.5	-94.9	0.0
2025-01-19 12:07:17.038470	117.1	62.9	-95.0	0.0
2025-01-19 12:07:18.159681	116.3	63.3	-95.0	0.0
2025-01-19 12:07:19.280470	115.5	63.6	-95.1	0.0
2025-01-19 12:07:20.403060	114.6	64.0	-95.0	0.0
2025-01-19 12:07:21.525541	113.8	64.4	-94.9	0.0
2025-01-19 12:07:22.645576	112.9	64.7	-95.0	0.0
2025-01-19 12:07:23.766067	112.0	65.1	-94.7	0.0
2025-01-19 12:07:24.888794	111.0	65.4	-95.0	0.0
2025-01-19 12:07:26.010724	110.0	65.8	-94.6	0.0
2025-01-19 12:07:27.132177	109.0	66.1	-94.7	0.0
2025-01-19 12:07:28.252711	108.0	66.4	-94.8	0.0
2025-01-19 12:07:29.371111	106.9	66.7	-94.7	0.0
2025-01-19 12:07:30.492829	105.8	67.1	-94.8	0.0
2025-01-19 12:07:31.612188	104.7	67.4	-94.6	0.0
2025-01-19 12:07:32.733432	103.5	67.7	-94.6	0.0
2025-01-19 12:07:33.854244	102.3	68.0	-94.8	0.0
2025-01-19 12:07:34.975319	101.1	68.2	-94.8	0.0
2025-01-19 12:07:36.097040	99.8	68.5	-94.7	0.0
2025-01-19 12:07:37.220276	98.5	68.8	-94.6	0.0
2025-01-19 12:07:38.342690	97.1	69.1	-94.5	0.0
2025-01-19 12:07:39.463535	95.7	69.3	-94.6	0.0
2025-01-19 12:07:40.585649	94.3	69.5	-94.5	0.0
2025-01-19 12:07:41.707059	92.9	69.8	-94.8	0.0
2025-01-19 12:07:42.826298	91.4	70.0	-94.9	0.0
2025-01-19 12:07:43.948251	89.8	70.2	-94.7	0.0
2025-01-19 12:07:45.067970	88.3	70.4	-94.7	0.0
2025-01-19 12:07:46.190150	86.7	70.5	-94.7	0.0
2025-01-19 12:07:47.313036	85.1	70.7	-94.5	0.0
2025-01-19 12:07:48.433092	83.4	70.8	-94.8	0.0
2025-01-19 12:07:49.553205	81.8	71.0	-94.6	0.0
2025-01-19 12:07:50.674125	80.1	71.1	-95.0	0.0
2025-01-19 12:07:51.798249	78.4	71.2	-94.7	0.0
2025-01-19 12:07:52.920103	76.6	71.3	-94.5	0.0
2025-01-19 12:07:54.039916	74.9	71.3	-94.8	0.0
2025-01-19 12:07:55.160739	73.1	71.4	-94.9	0.0
2025-01-19 12:07:56.282033	71.4	71.4	-94.7	0.0
2025-01-19 12:07:57.401066	69.6	71.4	-94.9	0.0
2025-01-19 12:07:58.523044	67.8	71.4	-94.6	0.0
2025-01-19 12:07:59.644978	66.1	71.4	-94.8	0.0
2025-01-19 12:08:00.764318	64.3	71.4	-94.7	0.0
2025-01-19 12:08:01.884589	62.5	71.4	-94.7	0.0
2025-01-19 12:08:03.005228	60.8	71.3	-94.9	0.0
2025-01-19 12:08:04.127550	59.1	71.2	-94.9	0.0
2025-01-19 12:08:05.246892	57.4	71.1	-94.9	0.0
2025-01-19 12:08:06.368020	55.7	71.0	-94.8	0.0
2025-01-19 12:08:07.486918	54.0	70.9	-94.8	0.0
2025-01-19 12:08:08.606122	52.4	70.7	-95.0	0.0
2025-01-19 12:08:09.727287	50.7	70.6	-95.1	0.0
2025-01-19 12:08:10.849839	49.1	70.4	-94.9	0.0
2025-01-19 12:08:11.969979	47.6	70.2	-94.9	0.0
2025-01-19 12:08:13.092232	46.1	70.0	-94.8	0.0
2025-01-19 12:08:14.213738	44.6	69.8	-95.0	0.0
2025-01-19 12:08:15.334274	43.1	69.6	-95.0	0.0
2025-01-19 12:08:16.455211	41.7	69.3	-94.9	0.0
2025-01-19 12:08:17.574821	40.3	69.1	-94.9	0.0
2025-01-19 12:08:18.695550	38.9	68.8	-94.9	0.0
2025-01-19 12:08:19.815692	37.6	68.6	-94.9	0.0
2025-01-19 12:08:20.937201	36.3	68.3	-95.0	0.0
2025-01-19 12:08:22.059435	35.1	68.0	-94.9	0.0
2025-01-19 12:08:23.181465	33.9	67.7	-94.7	0.0
2025-01-19 12:08:24.304140	32.7	67.4	-94.9	0.0
2025-01-19 12:08:25.424794	31.6	67.1	-94.9	0.0
2025-01-19 12:08:26.545886	30.5	66.8	-94.9	0.0
2025-01-19 12:08:27.668180	29.4	66.5	-95.1	0.0
2025-01-19 12:08:28.789192	28.3	66.1	-94.7	0.0
2025-01-19 12:08:29.910776	27.3	65.8	-94.8	0.0
2025-01-19 12:08:31.030063	26.3	65.5	-94.8	0.0
2025-01-19 12:08:32.151113	25.4	65.1	-94.8	0.0
2025-01-19 12:08:33.274040	24.5	64.8	-95.1	0.0
2025-01-19 12:08:34.395212	23.6	64.4	-95.0	0.0
2025-01-19 12:08:35.514019	22.7	64.1	-94.9	0.0
2025-01-19 12:08:36.635972	21.9	63.7	-94.7	0.0
2025-01-19 12:08:37.756200	21.1	63.4	-94.9	0.0
2025-01-19 12:08:38.877443	20.3	63.0	-94.9	0.0
2025-01-19 12:08:39.997919	19.5	62.6	-95.1	0.0
2025-01-19 12:08:41.119132	18.8	62.3	-94.7	0.0
2025-01-19 12:08:42.240252	18.0	61.9	-94.9	0.0
2025-01-19 12:08:43.361911	17.3	61.5	-94.8	0.0
2025-01-19 12:08:44.482382	16.7	61.1	-95.0	0.0
2025-01-19 12:08:45.603625	16.0	60.8	-95.1	0.0
2025-01-19 12:08:46.725322	15.4	60.4	-95.0	0.0
2025-01-19 12:08:47.848066	14.7	60.0	-94.5	0.0
2025-01-19 12:08:48.971116	14.1	59.6	-94.8	0.0
2025-01-19 12:08:50.093408	13.6	59.2	-94.8	0.0
2025-01-19 12:08:51.213540	13.0	58.9	-94.8	0.0
2025-01-19 12:08:52.334000	12.4	58.5	-94.8	0.0
2025-01-19 12:08:53.455253	11.9	58.1	-94.7	0.0
2025-01-19 12:08:54.575978	11.4	57.7	-94.8	0.0
2025-01-19 12:08:55.695131	10.9	57.3	-94.7	0.0
2025-01-19 12:08:56.815708	10.4	57.0	-94.8	0.0
2025-01-19 12:08:57.936347	9.9	56.6	-94.7	0.0
2025-01-19 12:08:59.057689	9.5	56.2	-94.9	0.0
2025-01-19 12:09:00.180194	9.0	55.8	-94.7	0.0
2025-01-19 12:09:01.299027	8.6	55.5	-94.9	0.0
2025-01-19 12:09:02.421562	8.1	55.1	-94.6	0.0
2025-01-19 12:09:03.543407	7.7	54.7	-94.8	0.0
2025-01-19 12:09:04.664210	7.3	54.3	-94.7	0.0
2025-01-19 12:09:05.785418	6.9	54.0	-94.9	0.0
2025-01-19 12:09:06.908938	6.5	53.6	-94.9	0.0
2025-01-19 12:09:08.028553	6.2	53.2	-94.7	0.0
2025-01-19 12:09:09.150039	5.8	52.9	-94.6	0.0
2025-01-19 12:09:10.269694	5.4	52.5	-95.0	0.0
2025-01-19 12:09:11.390136	5.1	52.1	-94.9	0.0
2025-01-19 12:09:12.511186	4.7	51.8	-95.0	0.0
2025-01-19 12:09:13.632200	4.4	51.4	-94.7	0.0
2025-01-19 12:09:14.753745	4.1	51.1	-95.0	0.0
2025-01-19 12:09:15.874538	3.8	50.7	-94.6	0.0
2025-01-19 12:09:16.993140	3.5	50.3	-94.8	0.0
2025-01-19 12:09:18.112802	3.2	50.0	-94.9	0.0
2025-01-19 12:09:19.234600	2.9	49.6	-94.8	0.0
2025-01-19 12:09:20.357790	2.6	49.3	-94.7	0.0
2025-01-19 12:09:21.480221	2.3	48.9	-95.0	0.0
2025-01-19 12:09:22.601630	2.0	48.6	-94.8	0.0
2025-01-19 12:09:23.722530	1.8	48.3	-95.0	0.0
2025-01-19 12:09:24.842370	1.5	47.9	-94.8	0.0
2025-01-19 12:09:25.963196	1.2	47.6	-95.2	0.0
2025-01-19 12:09:27.083583	1.0	47.2	-94.9	0.0
2025-01-19 12:09:28.203531	0.7	46.9	-94.6	0.0
2025-01-19 12:09:29.324954	0.5	46.6	-94.8	0.0
2025-01-19 12:09:30.444350	0.3	46.2	-94.8	0.0
2025-01-19 12:09:31.564484	0.0	45.9	-94.8	0.0
2025-01-19 12:09:32.685042	359.8	45.6	-94.8	0.0
2025-01-19 12:09:33.808188	359.6	45.3	-94.8	0.0
2025-01-19 12:09:34.929983	359.4	44.9	-95.0	0.0
2025-01-19 12:09:36.051344	359.2	44.6	-95.1	0.0
2025-01-19 12:09:37.170437	359.0	44.3	-94.8	0.0
2025-01-19 12:09:38.290031	358.7	44.0	-94.6	0.0
2025-01-19 12:09:39.412450	358.5	43.7	-94.6	0.0
2025-01-19 12:09:40.534445	358.4	43.4	-95.0	0.0
2025-01-19 12:09:41.654743	358.2	43.1	-94.8	0.0
2025-01-19 12:09:42.777096	358.0	42.8	-94.8	0.0
2025-01-19 12:09:43.899351	357.8	42.4	-94.8	0.0
2025-01-19 12:09:45.020058	357.6	42.1	-94.8	0.0
2025-01-19 12:09:46.143005	357.4	41.8	-94.5	0.0
2025-01-19 12:09:47.264810	357.3	41.5	-94.6	0.0
2025-01-19 12:09:48.387989	357.1	41.2	-94.5	0.0
2025-01-19 12:09:49.510129	356.9	41.0	-94.7	0.0
2025-01-19 12:09:50.631620	356.8	40.7	-94.8	0.0
2025-01-19 12:09:51.750983	356.6	40.4	-94.5	0.0
2025-01-19 12:09:52.871091	356.4	40.1	-94.6	0.0
2025-01-19 12:09:53.989915	356.3	39.8	-94.7	0.0
2025-01-19 12:09:55.110210	356.1	39.5	-94.7	0.0
2025-01-19 12:09:56.230010	356.0	39.2	-94.7	0.0
2025-01-19 12:09:57.350296	355.8	39.0	-94.8	0.0
2025-01-19 12:09:58.471421	355.7	38.7	-94.6	0.0
2025-01-19 12:09:59.592700	355.5	38.4	-94.7	0.0
2025-01-19 12:10:00.713743	355.4	38.1	-94.7	0.0
2025-01-19 12:10:01.834626	355.3	37.9	-94.6	0.0
2025-01-19 12:10:02.956371	355.1	37.6	-94.8	0.0
2025-01-19 12:10:04.077741	355.0	37.3	-94.9	0.0
2025-01-19 12:10:05.198957	354.9	37.1	-94.6	0.0
2025-01-19 12:10:06.320018	354.7	36.8	-94.8	0.0
2025-01-19 12:10:07.442167	354.6	36.5	-95.1	0.0
2025-01-19 12:10:08.562866	354.5	36.3	-95.1	0.0
2025-01-19 12:10:09.686998	354.4	36.0	-95.1	0.0
2025-01-19 12:10:10.807814	354.2	35.8	-95.2	0.0
2025-01-19 12:10:11.929617	354.1	35.5	-94.8	0.0
2025-01-19 12:10:13.050656	354.0	35.3	-94.9	0.0
2025-01-19 12:10:14.168875	353.9	35.0	-95.1	0.0
2025-01-19 12:10:15.291043	353.8	34.8	-94.9	0.0
2025-01-19 12:10:16.410881	353.7	34.5	-95.0	0.0
2025-01-19 12:10:17.531368	353.6	34.3	-95.0	0.0
2025-01-19 12:10:18.652747	353.5	34.0	-95.0	0.0
2025-01-19 12:10:19.773572	353.3	33.8	-95.2	0.0
2025-01-19 12:10:20.895930	353.2	33.5	-95.2	0.0
2025-01-19 12:10:22.016015	353.1	33.3	-95.1	0.0
2025-01-19 12:10:23.136802	353.0	33.1	-94.8	0.0
2025-01-19 12:10:24.258052	352.9	32.8	-94.8	0.0
2025-01-19 12:10:25.378819	352.8	32.6	-95.1	0.0
2025-01-19 12:10:26.500607	352.7	32.4	-95.1	0.0
2025-01-19 12:10:27.622494	352.6	32.2	-94.9	0.0
2025-01-19 12:10:28.744794	352.6	31.9	-94.6	0.0
2025-01-19 12:10:29.864087	352.5	31.7	-94.8	0.0
2025-01-19 12:10:30.983187	352.4	31.5	-94.8	0.0
2025-01-19 12:10:32.105082	352.3	31.3	-94.5	0.0
2025-01-19 12:10:33.225121	352.2	31.0	-95.1	0.0
2025-01-19 12:10:34.346688	352.1	30.8	-94.7	0.0
2025-01-19 12:10:35.465194	352.0	30.6	-94.8	0.0
2025-01-19 12:10:36.587713	351.9	30.4	-94.6	0.0
2025-01-19 12:10:37.706689	351.8	30.2	-95.0	0.0
2025-01-19 12:10:38.828066	351.8	30.0	-94.9	0.0
2025-01-19 12:10:39.950149	351.7	29.7	-95.0	0.0
2025-01-19 12:10:41.072213	351.6	29.5	-94.8	0.0
2025-01-19 12:10:42.191339	351.5	29.3	-94.7	0.0
2025-01-19 12:10:43.314533	351.4	29.1	-94.6	0.0
2025-01-19 12:10:44.438438	351.4	28.9	-94.6	0.0
2025-01-19 12:10:45.557945	351.3	28.7	-94.7	0.0
2025-01-19 12:10:46.678181	351.2	28.5	-94.8	0.0
2025-01-19 12:10:47.798197	351.1	28.3	-94.9	0.0
2025-01-19 12:10:48.920852	351.1	28.1	-94.7	0.0
2025-01-19 12:10:50.042118	351.0	27.9	-94.8	0.0
2025-01-19 12:10:51.162896	350.9	27.7	-94.9	0.0
2025-01-19 12:10:52.285556	350.9	27.5	-94.8	0.0
2025-01-19 12:10:53.405243	350.8	27.3	-94.7	0.0
2025-01-19 12:10:54.527641	350.7	27.1	-94.8	0.0
2025-01-19 12:10:55.650641	350.6	26.9	-94.8	0.0
2025-01-19 12:10:56.772404	350.6	26.8	-94.9	0.0
2025-01-19 12:10:57.892051	350.5	26.6	-95.1	0.0
2025-01-19 12:10:59.013133	350.4	26.4	-94.9	0.0
2025-01-19 12:11:00.132394	350.4	26.2	-95.0	0.0
2025-01-19 12:11:01.251006	350.3	26.0	-94.8	0.0
2025-01-19 12:11:02.372256	350.3	25.8	-94.9	0.0
2025-01-19 12:11:03.492261	350.2	25.6	-95.0	0.0
2025-01-19 12:11:04.612289	350.1	25.5	-95.0	0.0
2025-01-19 12:11:05.732164	350.1	25.3	-94.8	0.0
2025-01-19 12:11:06.853307	350.0	25.1	-94.9	0.0
2025-01-19 12:11:07.977749	350.0	24.9	-94.8	0.0
2025-01-19 12:11:09.099129	349.9	24.7	-95.1	0.0
2025-01-19 12:11:10.219417	349.8	24.6	-95.0	0.0
2025-01-19 12:11:11.338902	349.8	24.4	-95.0	0.0
2025-01-19 12:11:12.460354	349.7	24.2	-94.9	0.0
2025-01-19 12:11:13.581436	349.7	24.1	-94.9	0.0
2025-01-19 12:11:14.699416	349.6	23.9	-95.0	0.0
2025-01-19 12:11:15.821157	349.6	23.7	-95.2	0.0
2025-01-19 12:11:16.939839	349.5	23.5	-95.0	0.0
2025-01-19 12:11:18.061589	349.5	23.4	-94.8	0.0
2025-01-19 12:11:19.182677	349.4	23.2	-95.0	0.0
2025-01-19 12:11:20.304616	349.3	23.0	-95.0	0.0
2025-01-19 12:11:21.426876	349.3	22.9	-95.2	0.0
2025-01-19 12:11:22.546652	349.2	22.7	-95.3	0.0
2025-01-19 12:11:23.667214	349.2	22.6	-95.1	0.0
2025-01-19 12:11:24.786017	349.1	22.4	-94.8	0.0
2025-01-19 12:11:25.907267	349.1	22.2	-95.3	0.0
2025-01-19 12:11:27.026833	349.0	22.1	-95.0	0.0
2025-01-19 12:11:28.148371	349.0	21.9	-94.9	0.0
2025-01-19 12:11:29.268682	349.0	21.8	-94.8	0.0
2025-01-19 12:11:30.390507	348.9	21.6	-94.7	0.0
2025-01-19 12:11:31.510788	348.9	21.4	-95.2	0.0
2025-01-19 12:11:32.631812	348.8	21.3	-94.9	0.0
2025-01-19 12:11:33.752484	348.8	21.1	-95.0	0.0
2025-01-19 12:11:34.873537	348.7	21.0	-95.1	0.0
2025-01-19 12:11:35.994918	348.7	20.8	-95.0	0.0
2025-01-19 12:11:37.115252	348.6	20.7	-95.0	0.0
2025-01-19 12:11:38.234406	348.6	20.5	-95.1	0.0
2025-01-19 12:11:39.357286	348.5	20.4	-95.1	0.0
2025-01-19 12:11:40.477807	348.5	20.2	-95.0	0.0
2025-01-19 12:11:41.598215	348.5	20.1	-94.8	0.0
2025-01-19 12:11:42.717276	348.4	19.9	-95.1	0.0
2025-01-19 12:11:43.837812	348.4	19.8	-95.1	0.0
2025-01-19 12:11:44.956965	348.3	19.7	-95.0	0.0
2025-01-19 12:11:46.075334	348.3	19.5	-94.9	0.0
2025-01-19 12:11:47.196230	348.3	19.4	-94.6	0.0
2025-01-19 12:11:48.316297	348.2	19.2	-94.6	0.0
2025-01-19 12:11:49.440040	348.2	19.1	-94.9	0.0
2025-01-19 12:11:50.560813	348.1	18.9	-94.8	0.0
2025-01-19 12:11:51.681480	348.1	18.8	-94.8	0.0
2025-01-19 12:11:52.801893	348.1	18.7	-94.8	0.0
2025-01-19 12:11:53.922205	348.0	18.5	-95.0	0.0
2025-01-19 12:11:55.042262	348.0	18.4	-94.5	0.0
2025-01-19 12:11:56.165156	348.0	18.3	-95.0	0.0
2025-01-19 12:11:57.284384	347.9	18.1	-95.0	0.0
2025-01-19 12:11:58.402957	347.9	18.0	-95.0	0.0
2025-01-19 12:11:59.523845	347.8	17.8	-94.9	0.0
2025-01-19 12:12:00.646223	347.8	17.7	-95.0	0.0
2025-01-19 12:12:01.766214	347.8	17.6	-94.8	0.0
2025-01-19 12:12:02.888097	347.7	17.4	-94.8	0.0
2025-01-19 12:12:04.010277	347.7	17.3	-94.6	0.0
2025-01-19 12:12:05.131548	347.7	17.2	-94.8	0.0
2025-01-19 12:12:06.254812	347.6	17.1	-94.8	0.0
2025-01-19 12:12:07.376116	347.6	16.9	-94.8	0.0
2025-01-19 12:12:08.495135	347.6	16.8	-94.7	0.0
2025-01-19 12:12:09.616189	347.5	16.7	-94.6	0.0
2025-01-19 12:12:10.735597	347.5	16.5	-95.0	0.0
2025-01-19 12:12:11.855812	347.5	16.4	-94.8	0.0
2025-01-19 12:12:12.975712	347.4	16.3	-94.9	0.0
2025-01-19 12:12:14.097241	347.4	16.2	-94.7	0.0
2025-01-19 12:12:15.217499	347.4	16.0	-95.0	0.0
2025-01-19 12:12:16.339019	347.4	15.9	-94.9	0.0
2025-01-19 12:12:17.459245	347.3	15.8	-94.9	0.0
2025-01-19 12:12:18.579398	347.3	15.7	-94.9	0.0
2025-01-19 12:12:19.700644	347.3	15.5	-94.9	0.0
2025-01-19 12:12:20.822228	347.2	15.4	-94.9	0.0
2025-01-19 12:12:21.942270	347.2	15.3	-94.9	0.0
2025-01-19 12:12:23.063866	347.2	15.2	-94.9	0.0
2025-01-19 12:12:24.183844	347.1	15.1	-95.1	0.0
2025-01-19 12:12:25.304194	347.1	14.9	-94.7	0.0
2025-01-19 12:12:26.422978	347.1	14.8	-95.0	0.0
2025-01-19 12:12:27.543695	347.1	14.7	-94.9	0.0
2025-01-19 12:12:28.664968	347.0	14.6	-95.1	0.0
2025-01-19 12:12:29.786283	347.0	14.5	-94.9	0.0
2025-01-19 12:12:30.907550	347.0	14.4	-94.8	0.0
2025-01-19 12:12:32.029380	346.9	14.2	-94.6	0.0
2025-01-19 12:12:33.148076	346.9	14.1	-94.8	0.0
2025-01-19 12:12:34.268252	346.9	14.0	-95.1	0.0
2025-01-19 12:12:35.392226	346.9	13.9	-95.2	0.0
2025-01-19 12:12:36.512905	346.8	13.8	-94.7	0.0
2025-01-19 12:12:37.631913	346.8	13.7	-94.9	0.0
2025-01-19 12:12:38.752947	346.8	13.6	-94.9	0.0
2025-01-19 12:12:39.872788	346.8	13.4	-94.8	0.0
2025-01-19 12:12:40.996222	346.7	13.3	-94.9	0.0
2025-01-19 12:12:42.117504	346.7	13.2	-95.0	0.0
2025-01-19 12:12:43.238207	346.7	13.1	-94.9	0.0
2025-01-19 12:12:44.358963	346.7	13.0	-94.5	0.0
2025-01-19 12:12:45.481195	346.6	12.9	-94.7	0.0
2025-01-19 12:12:46.601783	346.6	12.8	-95.0	0.0
2025-01-19 12:12:47.723885	346.6	12.7	-94.9	0.0
2025-01-19 12:12:48.843116	346.6	12.6	-94.7	0.0
2025-01-19 12:12:49.963488	346.5	12.4	-94.8	0.0
2025-01-19 12:12:51.086835	346.5	12.3	-94.9	0.0
2025-01-19 12:12:52.207332	346.5	12.2	-94.9	0.0
2025-01-19 12:12:53.328881	346.5	12.1	-94.9	0.0
2025-01-19 12:12:54.447486	346.5	12.0	-94.7	0.0
2025-01-19 12:12:55.566420	346.4	11.9	-94.7	0.0
2025-01-19 12:12:56.686365	346.4	11.8	-94.9	0.0
2025-01-19 12:12:57.806243	346.4	11.7	-94.7	0.0
2025-01-19 12:12:58.927795	346.4	11.6	-94.6	0.0
2025-01-19 12:13:00.048781	346.3	11.5	-94.8	0.0
2025-01-19 12:13:01.170676	346.3	11.4	-94.7	0.0
2025-01-19 12:13:02.290127	346.3	11.3	-94.9	0.0
2025-01-19 12:13:03.410781	346.3	11.2	-94.9	0.0
2025-01-19 12:13:04.532064	346.3	11.1	-94.7	0.0
2025-01-19 12:13:05.653080	346.2	11.0	-94.7	0.0
2025-01-19 12:13:06.772245	346.2	10.9	-94.4	0.0
2025-01-19 12:13:07.891662	346.2	10.8	-94.9	0.0
2025-01-19 12:13:09.012129	346.2	10.7	-94.8	0.0
2025-01-19 12:13:10.131319	346.2	10.6	-94.7	0.0
2025-01-19 12:13:11.251069	346.1	10.5	-94.9	0.0
2025-01-19 12:13:12.372828	346.1	10.4	-94.9	0.0
2025-01-19 12:13:13.495897	346.1	10.3	-94.9	0.0
2025-01-19 12:13:14.617862	346.1	10.2	-94.8	0.0
2025-01-19 12:13:15.735028	346.1	10.1	-94.4	0.0
#Closed at: 2025-01-19 12:02:36.371722