passes_logs/2025/01/19/planumMaritime01/planumMaritime01__20250119_173756_METOP-C_rec.log

#Pass ID: 20250119_173756_METOP-C
#Satellite: METOP-C
#Configuration: METOP-C
#Start time: 2025-01-19 17:38:01.375166

#LorettStation: 1.0.0 05.05.2024
#Station: planumMaritime01
#Location: 37.49445 lon 55.92918 lat
#TLE: 1 43689U 18087A   25019.16395634  .00000282  00000+0  14866-3 0  9997
#TLE: 2 43689  98.6958  81.5940 0001612 156.8186 203.3064 14.21483818321801

#Time	Az	El	Level	SNR
2025-01-19 17:38:03.537218	145.9	10.2	-94.5	0.0
2025-01-19 17:38:04.660980	145.9	10.3	-94.5	0.0
2025-01-19 17:38:05.783818	145.8	10.4	-94.1	0.0
2025-01-19 17:38:06.908654	145.8	10.5	-94.5	0.0
2025-01-19 17:38:08.030730	145.8	10.6	-94.6	0.0
2025-01-19 17:38:09.152581	145.7	10.7	-94.6	0.0
2025-01-19 17:38:10.272919	145.7	10.8	-94.7	0.0
2025-01-19 17:38:11.395008	145.7	10.9	-94.6	0.0
2025-01-19 17:38:12.513206	145.6	11.0	-94.5	0.0
2025-01-19 17:38:13.634861	145.6	11.1	-94.7	0.0
2025-01-19 17:38:14.754874	145.6	11.2	-94.6	0.0
2025-01-19 17:38:15.872599	145.5	11.3	-94.5	0.0
2025-01-19 17:38:16.993475	145.5	11.4	-94.4	0.0
2025-01-19 17:38:18.113014	145.4	11.5	-94.7	0.0
2025-01-19 17:38:19.234127	145.4	11.6	-94.5	0.0
2025-01-19 17:38:20.354246	145.4	11.7	-94.6	0.0
2025-01-19 17:38:21.474428	145.3	11.8	-94.4	0.0
2025-01-19 17:38:22.594943	145.3	11.9	-94.4	0.0
2025-01-19 17:38:23.714873	145.3	12.0	-94.6	0.0
2025-01-19 17:38:24.838017	145.2	12.1	-94.4	0.0
2025-01-19 17:38:25.958019	145.2	12.2	-94.3	0.0
2025-01-19 17:38:27.077485	145.1	12.3	-94.3	0.0
2025-01-19 17:38:28.200038	145.1	12.4	-94.2	0.0
2025-01-19 17:38:29.322454	145.1	12.5	-94.4	0.0
2025-01-19 17:38:30.444931	145.0	12.6	-94.6	0.0
2025-01-19 17:38:31.566167	145.0	12.8	-94.5	0.0
2025-01-19 17:38:32.687751	144.9	12.9	-94.6	0.0
2025-01-19 17:38:33.807712	144.9	13.0	-94.6	0.0
2025-01-19 17:38:34.929990	144.9	13.1	-94.6	0.0
2025-01-19 17:38:36.052654	144.8	13.2	-94.5	0.0
2025-01-19 17:38:37.174039	144.8	13.3	-94.4	0.0
2025-01-19 17:38:38.295868	144.7	13.4	-94.6	0.0
2025-01-19 17:38:39.414814	144.7	13.5	-94.6	0.0
2025-01-19 17:38:40.536898	144.6	13.6	-94.6	0.0
2025-01-19 17:38:41.659238	144.6	13.7	-94.5	0.0
2025-01-19 17:38:42.780698	144.5	13.9	-94.6	0.0
2025-01-19 17:38:43.901801	144.5	14.0	-94.5	0.0
2025-01-19 17:38:45.020480	144.5	14.1	-94.7	0.0
2025-01-19 17:38:46.140866	144.4	14.2	-94.8	0.0
2025-01-19 17:38:47.262585	144.4	14.3	-94.5	0.0
2025-01-19 17:38:48.383807	144.3	14.4	-94.6	0.0
2025-01-19 17:38:49.505139	144.3	14.5	-94.5	0.0
2025-01-19 17:38:50.627011	144.2	14.7	-94.5	0.0
2025-01-19 17:38:51.748216	144.2	14.8	-94.6	0.0
2025-01-19 17:38:52.871030	144.1	14.9	-94.7	0.0
2025-01-19 17:38:53.993072	144.1	15.0	-94.8	0.0
2025-01-19 17:38:55.114148	144.0	15.1	-95.0	0.0
2025-01-19 17:38:56.237906	144.0	15.3	-94.7	0.0
2025-01-19 17:38:57.359781	143.9	15.4	-95.0	0.0
2025-01-19 17:38:58.480660	143.9	15.5	-94.7	0.0
2025-01-19 17:38:59.601380	143.8	15.6	-94.6	0.0
2025-01-19 17:39:00.722865	143.8	15.7	-94.9	0.0
2025-01-19 17:39:01.843331	143.7	15.9	-94.8	0.0
2025-01-19 17:39:02.964087	143.7	16.0	-94.6	0.0
2025-01-19 17:39:04.084063	143.6	16.1	-94.6	0.0
2025-01-19 17:39:05.206409	143.6	16.2	-94.7	0.0
2025-01-19 17:39:06.329089	143.5	16.4	-94.5	0.0
2025-01-19 17:39:07.449094	143.5	16.5	-94.8	0.0
2025-01-19 17:39:08.570393	143.4	16.6	-94.7	0.0
2025-01-19 17:39:09.690457	143.4	16.7	-94.6	0.0
2025-01-19 17:39:10.811938	143.3	16.9	-94.9	0.0
2025-01-19 17:39:11.931340	143.3	17.0	-94.7	0.0
2025-01-19 17:39:13.052329	143.2	17.1	-94.8	0.0
2025-01-19 17:39:14.171784	143.1	17.2	-94.8	0.0
2025-01-19 17:39:15.294539	143.1	17.4	-94.7	0.0
2025-01-19 17:39:16.417317	143.0	17.5	-94.5	0.0
2025-01-19 17:39:17.538928	143.0	17.6	-94.5	0.0
2025-01-19 17:39:18.660874	142.9	17.8	-94.7	0.0
2025-01-19 17:39:19.781346	142.8	17.9	-94.3	0.0
2025-01-19 17:39:20.903597	142.8	18.0	-94.5	0.0
2025-01-19 17:39:22.024956	142.7	18.2	-94.7	0.0
2025-01-19 17:39:23.147496	142.7	18.3	-94.7	0.0
2025-01-19 17:39:24.268165	142.6	18.4	-94.4	0.0
2025-01-19 17:39:25.389250	142.5	18.6	-94.3	0.0
2025-01-19 17:39:26.511686	142.5	18.7	-94.5	0.0
2025-01-19 17:39:27.633110	142.4	18.8	-94.8	0.0
2025-01-19 17:39:28.753984	142.4	19.0	-94.8	0.0
2025-01-19 17:39:29.872566	142.3	19.1	-94.8	0.0
2025-01-19 17:39:30.996020	142.2	19.3	-94.7	0.0
2025-01-19 17:39:32.115799	142.2	19.4	-94.4	0.0
2025-01-19 17:39:33.236230	142.1	19.5	-94.7	0.0
2025-01-19 17:39:34.357697	142.0	19.7	-94.6	0.0
2025-01-19 17:39:35.479039	142.0	19.8	-94.9	0.0
2025-01-19 17:39:36.601928	141.9	20.0	-95.0	0.0
2025-01-19 17:39:37.723290	141.8	20.1	-94.7	0.0
2025-01-19 17:39:38.844495	141.8	20.2	-94.5	0.0
2025-01-19 17:39:39.966142	141.7	20.4	-94.7	0.0
2025-01-19 17:39:41.088027	141.6	20.5	-94.6	0.0
2025-01-19 17:39:42.209891	141.5	20.7	-94.5	0.0
2025-01-19 17:39:43.331301	141.5	20.8	-94.7	0.0
2025-01-19 17:39:44.449014	141.4	21.0	-94.9	0.0
2025-01-19 17:39:45.569636	141.3	21.1	-94.7	0.0
2025-01-19 17:39:46.691863	141.3	21.3	-94.6	0.0
2025-01-19 17:39:47.812246	141.2	21.4	-94.5	0.0
2025-01-19 17:39:48.934574	141.1	21.6	-94.8	0.0
2025-01-19 17:39:50.055932	141.0	21.7	-94.7	0.0
2025-01-19 17:39:51.175420	140.9	21.9	-94.9	0.0
2025-01-19 17:39:52.297856	140.9	22.0	-94.7	0.0
2025-01-19 17:39:53.419755	140.8	22.2	-94.4	0.0
2025-01-19 17:39:54.539799	140.7	22.4	-94.7	0.0
2025-01-19 17:39:55.660125	140.6	22.5	-94.7	0.0
2025-01-19 17:39:56.780017	140.5	22.7	-94.6	0.0
2025-01-19 17:39:57.903007	140.5	22.8	-94.2	0.0
2025-01-19 17:39:59.026157	140.4	23.0	-94.5	0.0
2025-01-19 17:40:00.147129	140.3	23.2	-94.4	0.0
2025-01-19 17:40:01.267378	140.2	23.3	-94.5	0.0
2025-01-19 17:40:02.389654	140.1	23.5	-94.8	0.0
2025-01-19 17:40:03.508362	140.0	23.6	-94.7	0.0
2025-01-19 17:40:04.629221	139.9	23.8	-94.4	0.0
2025-01-19 17:40:05.750902	139.9	24.0	-94.2	0.0
2025-01-19 17:40:06.873684	139.8	24.1	-94.7	0.0
2025-01-19 17:40:07.994679	139.7	24.3	-94.6	0.0
2025-01-19 17:40:09.118110	139.6	24.5	-94.8	0.0
2025-01-19 17:40:10.238706	139.5	24.7	-94.9	0.0
2025-01-19 17:40:11.360939	139.4	24.8	-94.9	0.0
2025-01-19 17:40:12.481054	139.3	25.0	-94.7	0.0
2025-01-19 17:40:13.603076	139.2	25.2	-94.6	0.0
2025-01-19 17:40:14.723542	139.1	25.3	-94.7	0.0
2025-01-19 17:40:15.844137	139.0	25.5	-94.7	0.0
2025-01-19 17:40:16.964382	138.9	25.7	-94.7	0.0
2025-01-19 17:40:18.086895	138.8	25.9	-94.6	0.0
2025-01-19 17:40:19.205991	138.7	26.0	-94.8	0.0
2025-01-19 17:40:20.327789	138.6	26.2	-94.6	0.0
2025-01-19 17:40:21.448032	138.5	26.4	-94.6	0.0
2025-01-19 17:40:22.568210	138.4	26.6	-94.8	0.0
2025-01-19 17:40:23.689504	138.3	26.8	-94.7	0.0
2025-01-19 17:40:24.811441	138.2	27.0	-94.8	0.0
2025-01-19 17:40:25.935056	138.1	27.1	-94.4	0.0
2025-01-19 17:40:27.056007	138.0	27.3	-94.6	0.0
2025-01-19 17:40:28.176052	137.9	27.5	-94.8	0.0
2025-01-19 17:40:29.296809	137.7	27.7	-94.7	0.0
2025-01-19 17:40:30.418058	137.6	27.9	-94.9	0.0
2025-01-19 17:40:31.540116	137.5	28.1	-94.7	0.0
2025-01-19 17:40:32.661742	137.4	28.3	-94.8	0.0
2025-01-19 17:40:33.784712	137.3	28.5	-94.4	0.0
2025-01-19 17:40:34.905438	137.2	28.7	-94.8	0.0
2025-01-19 17:40:36.027000	137.0	28.9	-94.7	0.0
2025-01-19 17:40:37.147645	136.9	29.1	-94.7	0.0
2025-01-19 17:40:38.271203	136.8	29.3	-95.1	0.0
2025-01-19 17:40:39.392949	136.7	29.5	-94.9	0.0
2025-01-19 17:40:40.515235	136.5	29.7	-94.6	0.0
2025-01-19 17:40:41.638727	136.4	29.9	-94.8	0.0
2025-01-19 17:40:42.757819	136.3	30.1	-94.7	0.0
2025-01-19 17:40:43.879398	136.1	30.3	-94.5	0.0
2025-01-19 17:40:44.998821	136.0	30.5	-94.9	0.0
2025-01-19 17:40:46.119932	135.9	30.7	-94.8	0.0
2025-01-19 17:40:47.240736	135.7	30.9	-94.9	0.0
2025-01-19 17:40:48.361268	135.6	31.1	-94.7	0.0
2025-01-19 17:40:49.481993	135.4	31.3	-94.7	0.0
2025-01-19 17:40:50.603467	135.3	31.5	-94.9	0.0
2025-01-19 17:40:51.726292	135.1	31.7	-94.4	0.0
2025-01-19 17:40:52.846929	135.0	31.9	-94.6	0.0
2025-01-19 17:40:53.967473	134.9	32.2	-94.6	0.0
2025-01-19 17:40:55.088914	134.7	32.4	-94.6	0.0
2025-01-19 17:40:56.207848	134.5	32.6	-94.7	0.0
2025-01-19 17:40:57.329887	134.4	32.8	-94.6	0.0
2025-01-19 17:40:58.451285	134.2	33.0	-94.7	0.0
2025-01-19 17:40:59.576135	134.1	33.3	-94.4	0.0
2025-01-19 17:41:00.697797	133.9	33.5	-94.9	0.0
2025-01-19 17:41:01.817728	133.7	33.7	-94.8	0.0
2025-01-19 17:41:02.938695	133.6	33.9	-94.5	0.0
2025-01-19 17:41:04.066995	133.4	34.2	-94.5	0.0
2025-01-19 17:41:05.186369	133.2	34.4	-94.6	0.0
2025-01-19 17:41:06.309989	133.1	34.6	-94.9	0.0
2025-01-19 17:41:07.431722	132.9	34.9	-94.9	0.0
2025-01-19 17:41:08.552461	132.7	35.1	-95.2	0.0
2025-01-19 17:41:09.673457	132.5	35.3	-94.9	0.0
2025-01-19 17:41:10.797248	132.3	35.6	-94.8	0.0
2025-01-19 17:41:11.917264	132.1	35.8	-94.8	0.0
2025-01-19 17:41:13.039478	131.9	36.1	-94.8	0.0
2025-01-19 17:41:14.163075	131.8	36.3	-94.4	0.0
2025-01-19 17:41:15.281942	131.6	36.5	-94.7	0.0
2025-01-19 17:41:16.403271	131.4	36.8	-94.7	0.0
2025-01-19 17:41:17.524559	131.2	37.0	-94.9	0.0
2025-01-19 17:41:18.644633	130.9	37.3	-94.7	0.0
2025-01-19 17:41:19.765981	130.7	37.5	-94.4	0.0
2025-01-19 17:41:20.889989	130.5	37.8	-94.4	0.0
2025-01-19 17:41:22.012199	130.3	38.0	-94.6	0.0
2025-01-19 17:41:23.134930	130.1	38.3	-94.7	0.0
2025-01-19 17:41:24.256893	129.9	38.5	-94.6	0.0
2025-01-19 17:41:25.379381	129.6	38.8	-94.4	0.0
2025-01-19 17:41:26.502165	129.4	39.1	-94.9	0.0
2025-01-19 17:41:27.622332	129.2	39.3	-94.7	0.0
2025-01-19 17:41:28.743785	128.9	39.6	-94.6	0.0
2025-01-19 17:41:29.864857	128.7	39.8	-94.4	0.0
2025-01-19 17:41:30.985215	128.4	40.1	-94.6	0.0
2025-01-19 17:41:32.105273	128.2	40.4	-94.7	0.0
2025-01-19 17:41:33.227161	127.9	40.6	-94.7	0.0
2025-01-19 17:41:34.348031	127.7	40.9	-94.7	0.0
2025-01-19 17:41:35.472141	127.4	41.2	-94.8	0.0
2025-01-19 17:41:36.593056	127.2	41.4	-94.7	0.0
2025-01-19 17:41:37.711998	126.9	41.7	-94.7	0.0
2025-01-19 17:41:38.835816	126.6	42.0	-94.5	0.0
2025-01-19 17:41:39.955333	126.3	42.2	-94.8	0.0
2025-01-19 17:41:41.077253	126.0	42.5	-94.8	0.0
2025-01-19 17:41:42.200058	125.8	42.8	-94.6	0.0
2025-01-19 17:41:43.320295	125.5	43.1	-94.8	0.0
2025-01-19 17:41:44.441283	125.2	43.3	-94.7	0.0
2025-01-19 17:41:45.562022	124.8	43.6	-94.9	0.0
2025-01-19 17:41:46.682477	124.5	43.9	-94.7	0.0
2025-01-19 17:41:47.804326	124.2	44.2	-94.8	0.0
2025-01-19 17:41:48.926348	123.9	44.5	-94.7	0.0
2025-01-19 17:41:50.048134	123.6	44.8	-94.7	0.0
2025-01-19 17:41:51.170332	123.2	45.0	-94.6	0.0
2025-01-19 17:41:52.292930	122.9	45.3	-94.9	0.0
2025-01-19 17:41:53.413844	122.5	45.6	-94.9	0.0
2025-01-19 17:41:54.537296	122.2	45.9	-95.0	0.0
2025-01-19 17:41:55.659862	121.8	46.2	-95.0	0.0
2025-01-19 17:41:56.781613	121.5	46.5	-95.0	0.0
2025-01-19 17:41:57.900107	121.1	46.8	-94.9	0.0
2025-01-19 17:41:59.021589	120.7	47.1	-94.8	0.0
2025-01-19 17:42:00.142057	120.3	47.3	-95.1	0.0
2025-01-19 17:42:01.263996	119.9	47.6	-95.1	0.0
2025-01-19 17:42:02.385193	119.5	47.9	-95.1	0.0
2025-01-19 17:42:03.507346	119.1	48.2	-95.0	0.0
2025-01-19 17:42:04.631193	118.7	48.5	-94.7	0.0
2025-01-19 17:42:05.750049	118.3	48.8	-94.8	0.0
2025-01-19 17:42:06.872235	117.8	49.1	-94.6	0.0
2025-01-19 17:42:07.992430	117.4	49.4	-94.6	0.0
2025-01-19 17:42:09.114940	116.9	49.7	-94.5	0.0
2025-01-19 17:42:10.237287	116.5	50.0	-94.5	0.0
2025-01-19 17:42:11.358628	116.0	50.3	-94.9	0.0
2025-01-19 17:42:12.479598	115.5	50.6	-94.7	0.0
2025-01-19 17:42:13.601558	115.0	50.8	-94.6	0.0
2025-01-19 17:42:14.723258	114.5	51.1	-94.5	0.0
2025-01-19 17:42:15.845670	114.0	51.4	-94.9	0.0
2025-01-19 17:42:16.966809	113.5	51.7	-94.8	0.0
2025-01-19 17:42:18.087216	113.0	52.0	-94.7	0.0
2025-01-19 17:42:19.208482	112.5	52.3	-94.7	0.0
2025-01-19 17:42:20.329067	111.9	52.6	-94.8	0.0
2025-01-19 17:42:21.451355	111.3	52.9	-94.8	0.0
2025-01-19 17:42:22.573284	110.8	53.2	-94.9	0.0
2025-01-19 17:42:23.694091	110.2	53.4	-94.9	0.0
2025-01-19 17:42:24.815310	109.6	53.7	-94.8	0.0
2025-01-19 17:42:25.936183	109.0	54.0	-94.9	0.0
2025-01-19 17:42:27.058337	108.4	54.3	-94.8	0.0
2025-01-19 17:42:28.179021	107.7	54.6	-94.7	0.0
2025-01-19 17:42:29.300997	107.1	54.8	-94.6	0.0
2025-01-19 17:42:30.421178	106.5	55.1	-94.7	0.0
2025-01-19 17:42:31.542582	105.8	55.4	-94.8	0.0
2025-01-19 17:42:32.662209	105.1	55.6	-94.7	0.0
2025-01-19 17:42:33.785079	104.4	55.9	-94.9	0.0
2025-01-19 17:42:34.907846	103.7	56.2	-95.0	0.0
2025-01-19 17:42:36.027961	103.0	56.4	-94.6	0.0
2025-01-19 17:42:37.150428	102.3	56.7	-94.7	0.0
2025-01-19 17:42:38.270188	101.5	56.9	-94.8	0.0
2025-01-19 17:42:39.390865	100.8	57.2	-94.5	0.0
2025-01-19 17:42:40.511213	100.0	57.4	-94.7	0.0
2025-01-19 17:42:41.633337	99.2	57.7	-94.2	0.0
2025-01-19 17:42:42.753947	98.4	57.9	-94.6	0.0
2025-01-19 17:42:43.874739	97.6	58.1	-94.7	0.0
2025-01-19 17:42:44.997294	96.7	58.4	-94.7	0.0
2025-01-19 17:42:46.115778	95.9	58.6	-94.6	0.0
2025-01-19 17:42:47.237726	95.0	58.8	-94.5	0.0
2025-01-19 17:42:48.360018	94.2	59.0	-94.4	0.0
2025-01-19 17:42:49.479856	93.3	59.2	-94.6	0.0
2025-01-19 17:42:50.600115	92.4	59.4	-94.6	0.0
2025-01-19 17:42:51.721890	91.5	59.6	-94.8	0.0
2025-01-19 17:42:52.841492	90.5	59.8	-94.7	0.0
2025-01-19 17:42:53.963015	89.6	60.0	-94.3	0.0
2025-01-19 17:42:55.082705	88.6	60.2	-94.6	0.0
2025-01-19 17:42:56.202963	87.7	60.3	-94.6	0.0
2025-01-19 17:42:57.324525	86.7	60.5	-94.6	0.0
2025-01-19 17:42:58.446836	85.7	60.7	-94.7	0.0
2025-01-19 17:42:59.566304	84.7	60.8	-94.5	0.0
2025-01-19 17:43:00.686031	83.7	60.9	-94.8	0.0
2025-01-19 17:43:01.806481	82.7	61.1	-94.6	0.0
2025-01-19 17:43:02.927844	81.6	61.2	-94.5	0.0
2025-01-19 17:43:04.048911	80.6	61.3	-94.7	0.0
2025-01-19 17:43:05.169838	79.5	61.4	-94.5	0.0
2025-01-19 17:43:06.290289	78.5	61.5	-94.7	0.0
2025-01-19 17:43:07.412612	77.4	61.6	-94.5	0.0
2025-01-19 17:43:08.535350	76.3	61.7	-94.8	0.0
2025-01-19 17:43:09.656771	75.2	61.8	-95.0	0.0
2025-01-19 17:43:10.779363	74.1	61.8	-94.8	0.0
2025-01-19 17:43:11.901048	73.0	61.9	-94.9	0.0
2025-01-19 17:43:13.020547	71.9	61.9	-94.6	0.0
2025-01-19 17:43:14.143715	70.8	62.0	-94.8	0.0
2025-01-19 17:43:15.265196	69.7	62.0	-95.0	0.0
2025-01-19 17:43:16.387282	68.6	62.0	-94.7	0.0
2025-01-19 17:43:17.508513	67.5	62.0	-94.6	0.0
2025-01-19 17:43:18.628866	66.3	62.0	-94.9	0.0
2025-01-19 17:43:19.749338	65.2	62.0	-94.9	0.0
2025-01-19 17:43:20.869681	64.1	62.0	-94.8	0.0
2025-01-19 17:43:21.989870	63.0	62.0	-94.7	0.0
2025-01-19 17:43:23.110091	61.9	61.9	-94.9	0.0
2025-01-19 17:43:24.232222	60.8	61.9	-94.7	0.0
2025-01-19 17:43:25.352490	59.7	61.8	-94.8	0.0
2025-01-19 17:43:26.473484	58.6	61.8	-94.8	0.0
2025-01-19 17:43:27.595491	57.5	61.7	-94.6	0.0
2025-01-19 17:43:28.717967	56.4	61.6	-94.7	0.0
2025-01-19 17:43:29.839302	55.4	61.5	-94.8	0.0
2025-01-19 17:43:30.962035	54.3	61.4	-94.9	0.0
2025-01-19 17:43:32.083311	53.2	61.3	-94.9	0.0
2025-01-19 17:43:33.207167	52.2	61.2	-95.2	0.0
2025-01-19 17:43:34.329039	51.2	61.1	-94.8	0.0
2025-01-19 17:43:35.450249	50.1	60.9	-94.9	0.0
2025-01-19 17:43:36.573080	49.1	60.8	-94.8	0.0
2025-01-19 17:43:37.694685	48.1	60.7	-94.6	0.0
2025-01-19 17:43:38.814006	47.1	60.5	-95.1	0.0
2025-01-19 17:43:39.937104	46.1	60.3	-94.9	0.0
2025-01-19 17:43:41.059705	45.2	60.2	-94.8	0.0
2025-01-19 17:43:42.180841	44.2	60.0	-94.7	0.0
2025-01-19 17:43:43.301051	43.3	59.8	-94.8	0.0
2025-01-19 17:43:44.423202	42.3	59.6	-94.6	0.0
2025-01-19 17:43:45.542779	41.4	59.4	-94.3	0.0
2025-01-19 17:43:46.663652	40.5	59.2	-94.6	0.0
2025-01-19 17:43:47.785558	39.6	59.0	-94.7	0.0
2025-01-19 17:43:48.907185	38.8	58.8	-94.7	0.0
2025-01-19 17:43:50.029294	37.9	58.6	-94.8	0.0
2025-01-19 17:43:51.149638	37.1	58.4	-94.6	0.0
2025-01-19 17:43:52.268143	36.2	58.2	-94.7	0.0
2025-01-19 17:43:53.386133	35.4	57.9	-94.8	0.0
2025-01-19 17:43:54.504847	34.6	57.7	-94.7	0.0
2025-01-19 17:43:55.625972	33.8	57.5	-94.7	0.0
2025-01-19 17:43:56.747559	33.1	57.2	-94.7	0.0
2025-01-19 17:43:57.869260	32.3	57.0	-94.6	0.0
2025-01-19 17:43:58.990295	31.6	56.7	-94.5	0.0
2025-01-19 17:44:00.111152	30.8	56.5	-94.8	0.0
2025-01-19 17:44:01.233340	30.1	56.2	-94.6	0.0
2025-01-19 17:44:02.353721	29.4	55.9	-94.5	0.0
2025-01-19 17:44:03.473868	28.7	55.7	-94.4	0.0
2025-01-19 17:44:04.592754	28.0	55.4	-94.7	0.0
2025-01-19 17:44:05.713296	27.4	55.1	-94.6	0.0
2025-01-19 17:44:06.834751	26.7	54.9	-94.8	0.0
2025-01-19 17:44:07.956038	26.1	54.6	-94.8	0.0
2025-01-19 17:44:09.079670	25.4	54.3	-94.7	0.0
2025-01-19 17:44:10.202438	24.8	54.0	-94.7	0.0
2025-01-19 17:44:11.323197	24.2	53.8	-95.1	0.0
2025-01-19 17:44:12.443706	23.6	53.5	-94.8	0.0
2025-01-19 17:44:13.566127	23.1	53.2	-94.8	0.0
2025-01-19 17:44:14.686563	22.5	52.9	-94.7	0.0
2025-01-19 17:44:15.808755	21.9	52.6	-94.7	0.0
2025-01-19 17:44:16.929771	21.4	52.3	-94.9	0.0
2025-01-19 17:44:18.048880	20.8	52.0	-94.9	0.0
2025-01-19 17:44:19.168843	20.3	51.8	-94.7	0.0
2025-01-19 17:44:20.288963	19.8	51.5	-94.8	0.0
2025-01-19 17:44:21.410682	19.3	51.2	-94.8	0.0
2025-01-19 17:44:22.532577	18.8	50.9	-95.1	0.0
2025-01-19 17:44:23.651364	18.3	50.6	-94.9	0.0
2025-01-19 17:44:24.771296	17.8	50.3	-94.8	0.0
2025-01-19 17:44:25.892275	17.4	50.0	-94.8	0.0
2025-01-19 17:44:27.013852	16.9	49.7	-95.0	0.0
2025-01-19 17:44:28.132453	16.4	49.4	-95.0	0.0
2025-01-19 17:44:29.255226	16.0	49.1	-94.9	0.0
2025-01-19 17:44:30.374648	15.6	48.9	-94.8	0.0
2025-01-19 17:44:31.496746	15.1	48.6	-94.7	0.0
2025-01-19 17:44:32.618078	14.7	48.3	-95.0	0.0
2025-01-19 17:44:33.739903	14.3	48.0	-94.9	0.0
2025-01-19 17:44:34.862898	13.9	47.7	-94.7	0.0
2025-01-19 17:44:35.983030	13.5	47.4	-94.8	0.0
2025-01-19 17:44:37.103710	13.1	47.1	-94.9	0.0
2025-01-19 17:44:38.224942	12.8	46.8	-94.5	0.0
2025-01-19 17:44:39.345480	12.4	46.5	-94.9	0.0
2025-01-19 17:44:40.467711	12.0	46.2	-94.9	0.0
2025-01-19 17:44:41.587288	11.7	46.0	-94.8	0.0
2025-01-19 17:44:42.708992	11.3	45.7	-94.5	0.0
2025-01-19 17:44:43.830206	11.0	45.4	-94.9	0.0
2025-01-19 17:44:44.951049	10.6	45.1	-94.7	0.0
2025-01-19 17:44:46.072735	10.3	44.8	-94.4	0.0
2025-01-19 17:44:47.194320	9.9	44.5	-94.6	0.0
2025-01-19 17:44:48.314329	9.6	44.3	-95.0	0.0
2025-01-19 17:44:49.436453	9.3	44.0	-94.7	0.0
2025-01-19 17:44:50.559012	9.0	43.7	-94.5	0.0
2025-01-19 17:44:51.680727	8.7	43.4	-94.6	0.0
2025-01-19 17:44:52.803305	8.4	43.1	-94.6	0.0
2025-01-19 17:44:53.924667	8.1	42.9	-94.6	0.0
2025-01-19 17:44:55.045158	7.8	42.6	-94.8	0.0
2025-01-19 17:44:56.164348	7.5	42.3	-95.0	0.0
2025-01-19 17:44:57.286014	7.2	42.0	-94.6	0.0
2025-01-19 17:44:58.406415	7.0	41.8	-94.7	0.0
2025-01-19 17:44:59.526914	6.7	41.5	-94.6	0.0
2025-01-19 17:45:00.648965	6.4	41.2	-95.0	0.0
2025-01-19 17:45:01.771766	6.2	41.0	-95.0	0.0
2025-01-19 17:45:02.893896	5.9	40.7	-95.0	0.0
2025-01-19 17:45:04.014259	5.7	40.4	-94.8	0.0
2025-01-19 17:45:05.135794	5.4	40.2	-94.9	0.0
2025-01-19 17:45:06.257199	5.2	39.9	-95.0	0.0
2025-01-19 17:45:07.379305	4.9	39.7	-94.9	0.0
2025-01-19 17:45:08.499138	4.7	39.4	-95.1	0.0
2025-01-19 17:45:09.620664	4.4	39.1	-95.0	0.0
2025-01-19 17:45:10.742408	4.2	38.9	-94.9	0.0
2025-01-19 17:45:11.862438	4.0	38.6	-94.9	0.0
2025-01-19 17:45:12.982922	3.8	38.4	-94.9	0.0
2025-01-19 17:45:14.105122	3.5	38.1	-94.8	0.0
2025-01-19 17:45:15.228161	3.3	37.9	-94.6	0.0
2025-01-19 17:45:16.349920	3.1	37.6	-94.8	0.0
2025-01-19 17:45:17.472035	2.9	37.4	-94.7	0.0
2025-01-19 17:45:18.592992	2.7	37.1	-94.9	0.0
2025-01-19 17:45:19.711928	2.5	36.9	-94.7	0.0
2025-01-19 17:45:20.833435	2.3	36.6	-94.7	0.0
2025-01-19 17:45:21.954834	2.1	36.4	-94.6	0.0
2025-01-19 17:45:23.077544	1.9	36.2	-94.6	0.0
2025-01-19 17:45:24.198897	1.7	35.9	-94.8	0.0
2025-01-19 17:45:25.318832	1.5	35.7	-94.7	0.0
2025-01-19 17:45:26.440302	1.3	35.4	-94.7	0.0
2025-01-19 17:45:27.562198	1.2	35.2	-94.6	0.0
2025-01-19 17:45:28.683525	1.0	35.0	-94.8	0.0
2025-01-19 17:45:29.804348	0.8	34.7	-94.8	0.0
2025-01-19 17:45:30.924299	0.6	34.5	-94.6	0.0
2025-01-19 17:45:32.046267	0.5	34.3	-94.9	0.0
2025-01-19 17:45:33.166356	0.3	34.1	-94.5	0.0
2025-01-19 17:45:34.287145	0.1	33.8	-94.6	0.0
2025-01-19 17:45:35.409197	360.0	33.6	-94.7	0.0
2025-01-19 17:45:36.530200	359.8	33.4	-94.6	0.0
2025-01-19 17:45:37.647898	359.6	33.2	-94.8	0.0
2025-01-19 17:45:38.768721	359.5	32.9	-94.7	0.0
2025-01-19 17:45:39.891540	359.3	32.7	-94.8	0.0
2025-01-19 17:45:41.013338	359.2	32.5	-94.8	0.0
2025-01-19 17:45:42.135771	359.0	32.3	-94.8	0.0
2025-01-19 17:45:43.257178	358.9	32.1	-95.0	0.0
2025-01-19 17:45:44.378142	358.7	31.8	-95.0	0.0
2025-01-19 17:45:45.499855	358.6	31.6	-94.9	0.0
2025-01-19 17:45:46.620314	358.4	31.4	-94.8	0.0
2025-01-19 17:45:47.742316	358.3	31.2	-94.9	0.0
2025-01-19 17:45:48.862835	358.1	31.0	-94.8	0.0
2025-01-19 17:45:49.984320	358.0	30.8	-94.8	0.0
2025-01-19 17:45:51.106161	357.9	30.6	-94.9	0.0
2025-01-19 17:45:52.229281	357.7	30.4	-94.9	0.0
2025-01-19 17:45:53.349723	357.6	30.2	-94.8	0.0
2025-01-19 17:45:54.471575	357.5	30.0	-94.9	0.0
2025-01-19 17:45:55.592205	357.3	29.8	-94.8	0.0
2025-01-19 17:45:56.714464	357.2	29.6	-94.9	0.0
2025-01-19 17:45:57.835191	357.1	29.4	-94.9	0.0
2025-01-19 17:45:58.956383	357.0	29.2	-95.0	0.0
2025-01-19 17:46:00.075936	356.8	29.0	-94.8	0.0
2025-01-19 17:46:01.196865	356.7	28.8	-94.6	0.0
2025-01-19 17:46:02.316158	356.6	28.6	-94.9	0.0
2025-01-19 17:46:03.437263	356.5	28.4	-94.8	0.0
2025-01-19 17:46:04.558479	356.4	28.2	-94.7	0.0
2025-01-19 17:46:05.679888	356.3	28.0	-94.7	0.0
2025-01-19 17:46:06.800506	356.1	27.8	-95.0	0.0
2025-01-19 17:46:07.922530	356.0	27.6	-94.8	0.0
2025-01-19 17:46:09.043593	355.9	27.5	-94.8	0.0
2025-01-19 17:46:10.165759	355.8	27.3	-94.7	0.0
2025-01-19 17:46:11.286410	355.7	27.1	-94.8	0.0
2025-01-19 17:46:12.405853	355.6	26.9	-94.9	0.0
2025-01-19 17:46:13.523619	355.5	26.7	-94.7	0.0
2025-01-19 17:46:14.646156	355.4	26.5	-94.7	0.0
2025-01-19 17:46:15.767530	355.3	26.4	-94.6	0.0
2025-01-19 17:46:16.889079	355.2	26.2	-95.0	0.0
2025-01-19 17:46:18.010970	355.1	26.0	-95.0	0.0
2025-01-19 17:46:19.132871	355.0	25.8	-94.9	0.0
2025-01-19 17:46:20.254487	354.9	25.6	-94.7	0.0
2025-01-19 17:46:21.375319	354.8	25.5	-94.8	0.0
2025-01-19 17:46:22.495201	354.7	25.3	-94.8	0.0
2025-01-19 17:46:23.617203	354.6	25.1	-94.8	0.0
2025-01-19 17:46:24.739627	354.5	25.0	-94.7	0.0
2025-01-19 17:46:25.860252	354.4	24.8	-94.7	0.0
2025-01-19 17:46:26.980383	354.3	24.6	-94.7	0.0
2025-01-19 17:46:28.099473	354.2	24.4	-94.9	0.0
2025-01-19 17:46:29.220994	354.1	24.3	-94.8	0.0
2025-01-19 17:46:30.344218	354.0	24.1	-94.8	0.0
2025-01-19 17:46:31.465495	353.9	23.9	-94.5	0.0
2025-01-19 17:46:32.587153	353.9	23.8	-94.7	0.0
2025-01-19 17:46:33.709207	353.8	23.6	-94.7	0.0
2025-01-19 17:46:34.830260	353.7	23.5	-94.6	0.0
2025-01-19 17:46:35.949194	353.6	23.3	-94.8	0.0
2025-01-19 17:46:37.070735	353.5	23.1	-94.6	0.0
2025-01-19 17:46:38.191417	353.4	23.0	-94.6	0.0
2025-01-19 17:46:39.311940	353.4	22.8	-94.9	0.0
2025-01-19 17:46:40.433203	353.3	22.7	-94.5	0.0
2025-01-19 17:46:41.556244	353.2	22.5	-94.4	0.0
2025-01-19 17:46:42.674511	353.1	22.3	-94.8	0.0
2025-01-19 17:46:43.795797	353.0	22.2	-94.8	0.0
2025-01-19 17:46:44.918480	353.0	22.0	-94.7	0.0
2025-01-19 17:46:46.040541	352.9	21.9	-94.6	0.0
2025-01-19 17:46:47.162273	352.8	21.7	-94.7	0.0
2025-01-19 17:46:48.281400	352.7	21.6	-94.8	0.0
2025-01-19 17:46:49.405486	352.7	21.4	-94.9	0.0
2025-01-19 17:46:50.526089	352.6	21.3	-95.0	0.0
2025-01-19 17:46:51.647208	352.5	21.1	-95.0	0.0
2025-01-19 17:46:52.768699	352.4	21.0	-95.0	0.0
2025-01-19 17:46:53.888820	352.4	20.8	-94.9	0.0
2025-01-19 17:46:55.008474	352.3	20.7	-94.9	0.0
2025-01-19 17:46:56.128083	352.2	20.5	-94.9	0.0
2025-01-19 17:46:57.248622	352.2	20.4	-94.9	0.0
2025-01-19 17:46:58.372191	352.1	20.2	-94.9	0.0
2025-01-19 17:46:59.491891	352.0	20.1	-94.8	0.0
2025-01-19 17:47:00.610625	352.0	20.0	-95.0	0.0
2025-01-19 17:47:01.732607	351.9	19.8	-95.0	0.0
2025-01-19 17:47:02.854914	351.8	19.7	-94.9	0.0
2025-01-19 17:47:03.976705	351.8	19.5	-94.9	0.0
2025-01-19 17:47:05.097497	351.7	19.4	-94.8	0.0
2025-01-19 17:47:06.218373	351.6	19.3	-95.1	0.0
2025-01-19 17:47:07.339201	351.6	19.1	-95.1	0.0
2025-01-19 17:47:08.460123	351.5	19.0	-95.1	0.0
2025-01-19 17:47:09.582556	351.4	18.8	-95.0	0.0
2025-01-19 17:47:10.703479	351.4	18.7	-94.8	0.0
2025-01-19 17:47:11.824509	351.3	18.6	-94.8	0.0
2025-01-19 17:47:12.944939	351.3	18.4	-95.0	0.0
2025-01-19 17:47:14.065839	351.2	18.3	-94.9	0.0
2025-01-19 17:47:15.185455	351.1	18.2	-95.0	0.0
2025-01-19 17:47:16.306722	351.1	18.0	-94.7	0.0
2025-01-19 17:47:17.427359	351.0	17.9	-94.7	0.0
2025-01-19 17:47:18.547317	351.0	17.8	-94.9	0.0
2025-01-19 17:47:19.668460	350.9	17.6	-95.0	0.0
2025-01-19 17:47:20.789182	350.8	17.5	-95.0	0.0
2025-01-19 17:47:21.911500	350.8	17.4	-94.8	0.0
2025-01-19 17:47:23.031303	350.7	17.3	-94.8	0.0
2025-01-19 17:47:24.153147	350.7	17.1	-94.8	0.0
2025-01-19 17:47:25.275131	350.6	17.0	-94.6	0.0
2025-01-19 17:47:26.395717	350.6	16.9	-95.1	0.0
2025-01-19 17:47:27.517855	350.5	16.8	-94.9	0.0
2025-01-19 17:47:28.638693	350.5	16.6	-94.7	0.0
2025-01-19 17:47:29.759220	350.4	16.5	-94.6	0.0
2025-01-19 17:47:30.880290	350.4	16.4	-94.7	0.0
2025-01-19 17:47:32.001356	350.3	16.3	-94.6	0.0
2025-01-19 17:47:33.123115	350.3	16.1	-94.8	0.0
2025-01-19 17:47:34.243111	350.2	16.0	-94.7	0.0
2025-01-19 17:47:35.364746	350.2	15.9	-94.7	0.0
2025-01-19 17:47:36.484377	350.1	15.8	-94.7	0.0
2025-01-19 17:47:37.608391	350.1	15.6	-94.7	0.0
2025-01-19 17:47:38.728504	350.0	15.5	-94.9	0.0
2025-01-19 17:47:39.847006	350.0	15.4	-94.7	0.0
2025-01-19 17:47:40.968259	349.9	15.3	-94.8	0.0
2025-01-19 17:47:42.089319	349.9	15.2	-94.8	0.0
2025-01-19 17:47:43.210701	349.8	15.1	-94.9	0.0
2025-01-19 17:47:44.331573	349.8	14.9	-95.0	0.0
2025-01-19 17:47:45.453207	349.7	14.8	-95.0	0.0
2025-01-19 17:47:46.573179	349.7	14.7	-94.9	0.0
2025-01-19 17:47:47.695520	349.6	14.6	-95.0	0.0
2025-01-19 17:47:48.817852	349.6	14.5	-94.7	0.0
2025-01-19 17:47:49.940285	349.5	14.4	-95.1	0.0
2025-01-19 17:47:51.062406	349.5	14.2	-95.1	0.0
2025-01-19 17:47:52.182994	349.4	14.1	-95.0	0.0
2025-01-19 17:47:53.305405	349.4	14.0	-95.1	0.0
2025-01-19 17:47:54.427164	349.4	13.9	-95.1	0.0
2025-01-19 17:47:55.549756	349.3	13.8	-95.2	0.0
2025-01-19 17:47:56.671736	349.3	13.7	-94.8	0.0
2025-01-19 17:47:57.793349	349.2	13.6	-95.1	0.0
2025-01-19 17:47:58.913242	349.2	13.5	-94.8	0.0
2025-01-19 17:48:00.033764	349.1	13.4	-94.8	0.0
2025-01-19 17:48:01.157112	349.1	13.2	-94.7	0.0
2025-01-19 17:48:02.278556	349.1	13.1	-95.0	0.0
2025-01-19 17:48:03.397633	349.0	13.0	-94.8	0.0
2025-01-19 17:48:04.518115	349.0	12.9	-94.7	0.0
2025-01-19 17:48:05.640075	348.9	12.8	-94.6	0.0
2025-01-19 17:48:06.760964	348.9	12.7	-94.9	0.0
2025-01-19 17:48:07.882217	348.9	12.6	-95.0	0.0
2025-01-19 17:48:09.005518	348.8	12.5	-94.7	0.0
2025-01-19 17:48:10.124811	348.8	12.4	-94.4	0.0
2025-01-19 17:48:11.243191	348.7	12.3	-94.8	0.0
2025-01-19 17:48:12.364740	348.7	12.2	-94.6	0.0
2025-01-19 17:48:13.485330	348.7	12.1	-94.6	0.0
2025-01-19 17:48:14.606449	348.6	12.0	-94.6	0.0
2025-01-19 17:48:15.728173	348.6	11.9	-94.9	0.0
2025-01-19 17:48:16.849086	348.6	11.8	-94.6	0.0
2025-01-19 17:48:17.971125	348.5	11.7	-94.6	0.0
2025-01-19 17:48:19.093696	348.5	11.6	-94.8	0.0
2025-01-19 17:48:20.216257	348.5	11.4	-94.8	0.0
2025-01-19 17:48:21.338292	348.4	11.3	-94.8	0.0
2025-01-19 17:48:22.460133	348.4	11.2	-95.0	0.0
2025-01-19 17:48:23.580680	348.3	11.1	-94.9	0.0
2025-01-19 17:48:24.703054	348.3	11.0	-94.8	0.0
2025-01-19 17:48:25.822333	348.3	10.9	-94.9	0.0
2025-01-19 17:48:26.943347	348.2	10.8	-95.0	0.0
2025-01-19 17:48:28.064667	348.2	10.7	-95.0	0.0
2025-01-19 17:48:29.186653	348.2	10.6	-94.9	0.0
2025-01-19 17:48:30.307502	348.1	10.5	-94.9	0.0
2025-01-19 17:48:31.427792	348.1	10.5	-94.8	0.0
2025-01-19 17:48:32.548287	348.1	10.4	-94.8	0.0
2025-01-19 17:48:33.669041	348.0	10.3	-95.0	0.0
2025-01-19 17:48:34.790594	348.0	10.2	-95.0	0.0
2025-01-19 17:48:35.913816	348.0	10.1	-95.0	0.0
#Closed at: 2025-01-19 17:37:56.379698