passes_logs/2025/01/19/planumMaritime01/planumMaritime01__20250119_180657_NOAA_19_rec.log

#Pass ID: 20250119_180657_NOAA 19
#Satellite: NOAA 19
#Configuration: NOAA 19
#Start time: 2025-01-19 18:07:02.949070

#LorettStation: 1.0.0 05.05.2024
#Station: planumMaritime01
#Location: 37.49445 lon 55.92918 lat
#TLE: 1 33591U 09005A   25019.18116543  .00000338  00000+0  20449-3 0  9996
#TLE: 2 33591  99.0189  82.9757 0014332  46.3357 313.9000 14.13262914822133

#Time	Az	El	Level	SNR
2025-01-19 18:07:05.106491	160.5	10.2	-94.7	0.0
2025-01-19 18:07:06.227714	160.5	10.3	-94.6	0.0
2025-01-19 18:07:07.348778	160.5	10.4	-94.4	0.0
2025-01-19 18:07:08.469698	160.5	10.5	-94.5	0.0
2025-01-19 18:07:09.590198	160.5	10.6	-94.7	0.0
2025-01-19 18:07:10.712309	160.5	10.7	-94.9	0.0
2025-01-19 18:07:11.834549	160.5	10.8	-94.5	0.0
2025-01-19 18:07:12.956247	160.5	10.9	-94.7	0.0
2025-01-19 18:07:14.075221	160.5	11.0	-94.8	0.0
2025-01-19 18:07:15.194060	160.5	11.1	-94.7	0.0
2025-01-19 18:07:16.314709	160.5	11.2	-94.6	0.0
2025-01-19 18:07:17.436349	160.5	11.3	-94.8	0.0
2025-01-19 18:07:18.561090	160.5	11.4	-94.6	0.0
2025-01-19 18:07:19.682446	160.5	11.5	-94.4	0.0
2025-01-19 18:07:20.803448	160.5	11.6	-94.5	0.0
2025-01-19 18:07:21.925217	160.5	11.7	-94.5	0.0
2025-01-19 18:07:23.047253	160.5	11.8	-94.1	0.0
2025-01-19 18:07:24.171457	160.6	11.9	-94.3	0.0
2025-01-19 18:07:25.292199	160.6	12.0	-94.3	0.0
2025-01-19 18:07:26.411528	160.6	12.1	-94.3	0.0
2025-01-19 18:07:27.533494	160.6	12.2	-94.3	0.0
2025-01-19 18:07:28.656169	160.6	12.3	-94.4	0.0
2025-01-19 18:07:29.775359	160.6	12.5	-94.3	0.0
2025-01-19 18:07:30.896137	160.6	12.6	-94.4	0.0
2025-01-19 18:07:32.017148	160.6	12.7	-94.5	0.0
2025-01-19 18:07:33.138810	160.6	12.8	-94.5	0.0
2025-01-19 18:07:34.262203	160.6	12.9	-94.7	0.0
2025-01-19 18:07:35.380669	160.6	13.0	-94.6	0.0
2025-01-19 18:07:36.499788	160.6	13.1	-94.6	0.0
2025-01-19 18:07:37.619395	160.6	13.2	-94.5	0.0
2025-01-19 18:07:38.739344	160.6	13.3	-94.6	0.0
2025-01-19 18:07:39.860956	160.6	13.4	-94.5	0.0
2025-01-19 18:07:40.981854	160.6	13.6	-94.5	0.0
2025-01-19 18:07:42.105043	160.6	13.7	-94.5	0.0
2025-01-19 18:07:43.226249	160.6	13.8	-94.7	0.0
2025-01-19 18:07:44.346167	160.6	13.9	-95.0	0.0
2025-01-19 18:07:45.467382	160.6	14.0	-94.4	0.0
2025-01-19 18:07:46.589109	160.6	14.1	-94.4	0.0
2025-01-19 18:07:47.710312	160.6	14.2	-94.7	0.0
2025-01-19 18:07:48.831471	160.6	14.4	-94.7	0.0
2025-01-19 18:07:49.953472	160.6	14.5	-94.6	0.0
2025-01-19 18:07:51.075274	160.6	14.6	-94.9	0.0
2025-01-19 18:07:52.196649	160.6	14.7	-94.9	0.0
2025-01-19 18:07:53.316223	160.6	14.8	-94.6	0.0
2025-01-19 18:07:54.437756	160.6	14.9	-94.9	0.0
2025-01-19 18:07:55.557674	160.6	15.1	-94.9	0.0
2025-01-19 18:07:56.677114	160.6	15.2	-94.9	0.0
2025-01-19 18:07:57.798512	160.6	15.3	-94.9	0.0
2025-01-19 18:07:58.919303	160.6	15.4	-94.9	0.0
2025-01-19 18:08:00.039199	160.6	15.5	-94.8	0.0
2025-01-19 18:08:01.159856	160.7	15.7	-94.7	0.0
2025-01-19 18:08:02.281515	160.7	15.8	-94.9	0.0
2025-01-19 18:08:03.402271	160.7	15.9	-94.9	0.0
2025-01-19 18:08:04.524597	160.7	16.0	-94.6	0.0
2025-01-19 18:08:05.645338	160.7	16.2	-95.0	0.0
2025-01-19 18:08:06.765927	160.7	16.3	-94.8	0.0
2025-01-19 18:08:07.885810	160.7	16.4	-94.8	0.0
2025-01-19 18:08:09.007304	160.7	16.5	-94.9	0.0
2025-01-19 18:08:10.128652	160.7	16.7	-94.7	0.0
2025-01-19 18:08:11.250204	160.7	16.8	-94.6	0.0
2025-01-19 18:08:12.372348	160.7	16.9	-94.8	0.0
2025-01-19 18:08:13.493745	160.7	17.1	-94.7	0.0
2025-01-19 18:08:14.615077	160.7	17.2	-94.7	0.0
2025-01-19 18:08:15.737179	160.7	17.3	-94.6	0.0
2025-01-19 18:08:16.858141	160.7	17.5	-94.8	0.0
2025-01-19 18:08:17.976961	160.7	17.6	-94.8	0.0
2025-01-19 18:08:19.098233	160.7	17.7	-94.5	0.0
2025-01-19 18:08:20.218777	160.7	17.9	-94.6	0.0
2025-01-19 18:08:21.341284	160.7	18.0	-94.5	0.0
2025-01-19 18:08:22.462682	160.7	18.1	-94.7	0.0
2025-01-19 18:08:23.582689	160.7	18.3	-94.6	0.0
2025-01-19 18:08:24.704268	160.7	18.4	-94.4	0.0
2025-01-19 18:08:25.823097	160.7	18.5	-94.6	0.0
2025-01-19 18:08:26.945199	160.7	18.7	-94.3	0.0
2025-01-19 18:08:28.066348	160.7	18.8	-94.6	0.0
2025-01-19 18:08:29.186617	160.7	19.0	-94.4	0.0
2025-01-19 18:08:30.308163	160.7	19.1	-94.4	0.0
2025-01-19 18:08:31.429485	160.7	19.2	-94.4	0.0
2025-01-19 18:08:32.550359	160.7	19.4	-94.5	0.0
2025-01-19 18:08:33.674325	160.7	19.5	-94.7	0.0
2025-01-19 18:08:34.795306	160.7	19.7	-94.7	0.0
2025-01-19 18:08:35.915218	160.7	19.8	-94.8	0.0
2025-01-19 18:08:37.034660	160.7	20.0	-94.3	0.0
2025-01-19 18:08:38.155248	160.7	20.1	-94.5	0.0
2025-01-19 18:08:39.273825	160.8	20.3	-94.6	0.0
2025-01-19 18:08:40.394830	160.8	20.4	-94.4	0.0
2025-01-19 18:08:41.513591	160.8	20.5	-94.3	0.0
2025-01-19 18:08:42.634257	160.8	20.7	-94.4	0.0
2025-01-19 18:08:43.757335	160.8	20.9	-94.3	0.0
2025-01-19 18:08:44.877884	160.8	21.0	-94.7	0.0
2025-01-19 18:08:45.997880	160.8	21.2	-94.7	0.0
2025-01-19 18:08:47.118259	160.8	21.3	-94.3	0.0
2025-01-19 18:08:48.240487	160.8	21.5	-94.6	0.0
2025-01-19 18:08:49.363162	160.8	21.6	-94.5	0.0
2025-01-19 18:08:50.481945	160.8	21.8	-94.7	0.0
2025-01-19 18:08:51.604467	160.8	21.9	-94.6	0.0
2025-01-19 18:08:52.727399	160.8	22.1	-95.0	0.0
2025-01-19 18:08:53.847535	160.8	22.3	-95.0	0.0
2025-01-19 18:08:54.969865	160.8	22.4	-94.8	0.0
2025-01-19 18:08:56.091094	160.8	22.6	-94.9	0.0
2025-01-19 18:08:57.213236	160.8	22.7	-94.8	0.0
2025-01-19 18:08:58.334754	160.8	22.9	-95.0	0.0
2025-01-19 18:08:59.456719	160.8	23.1	-95.0	0.0
2025-01-19 18:09:00.577306	160.8	23.2	-94.9	0.0
2025-01-19 18:09:01.699419	160.8	23.4	-94.6	0.0
2025-01-19 18:09:02.820747	160.8	23.6	-95.0	0.0
2025-01-19 18:09:03.942476	160.8	23.7	-94.6	0.0
2025-01-19 18:09:05.064285	160.8	23.9	-94.5	0.0
2025-01-19 18:09:06.188028	160.8	24.1	-94.6	0.0
2025-01-19 18:09:07.308669	160.8	24.2	-94.9	0.0
2025-01-19 18:09:08.432302	160.8	24.4	-94.7	0.0
2025-01-19 18:09:09.552546	160.8	24.6	-94.8	0.0
2025-01-19 18:09:10.671387	160.8	24.8	-94.6	0.0
2025-01-19 18:09:11.791552	160.8	24.9	-94.4	0.0
2025-01-19 18:09:12.912760	160.8	25.1	-94.7	0.0
2025-01-19 18:09:14.033623	160.8	25.3	-94.9	0.0
2025-01-19 18:09:15.152227	160.8	25.5	-94.7	0.0
2025-01-19 18:09:16.274320	160.8	25.7	-94.5	0.0
2025-01-19 18:09:17.396662	160.8	25.9	-94.6	0.0
2025-01-19 18:09:18.518228	160.9	26.0	-94.8	0.0
2025-01-19 18:09:19.641168	160.9	26.2	-94.7	0.0
2025-01-19 18:09:20.763349	160.9	26.4	-94.6	0.0
2025-01-19 18:09:21.883349	160.9	26.6	-94.7	0.0
2025-01-19 18:09:23.004430	160.9	26.8	-94.9	0.0
2025-01-19 18:09:24.125409	160.9	27.0	-94.7	0.0
2025-01-19 18:09:25.245339	160.9	27.2	-94.5	0.0
2025-01-19 18:09:26.368720	160.9	27.4	-94.8	0.0
2025-01-19 18:09:27.490866	160.9	27.6	-94.8	0.0
2025-01-19 18:09:28.610926	160.9	27.8	-94.8	0.0
2025-01-19 18:09:29.731416	160.9	28.0	-94.7	0.0
2025-01-19 18:09:30.850278	160.9	28.2	-94.6	0.0
2025-01-19 18:09:31.970177	160.9	28.4	-94.9	0.0
2025-01-19 18:09:33.091211	160.9	28.6	-94.8	0.0
2025-01-19 18:09:34.210995	160.9	28.8	-94.7	0.0
2025-01-19 18:09:35.333371	160.9	29.0	-94.9	0.0
2025-01-19 18:09:36.452716	160.9	29.2	-94.6	0.0
2025-01-19 18:09:37.573900	160.9	29.4	-94.7	0.0
2025-01-19 18:09:38.694969	160.9	29.6	-94.6	0.0
2025-01-19 18:09:39.816756	160.9	29.8	-94.9	0.0
2025-01-19 18:09:40.938022	160.9	30.0	-94.7	0.0
2025-01-19 18:09:42.060530	160.9	30.2	-94.7	0.0
2025-01-19 18:09:43.180729	160.9	30.4	-94.6	0.0
2025-01-19 18:09:44.302996	160.9	30.7	-94.8	0.0
2025-01-19 18:09:45.424639	160.9	30.9	-94.6	0.0
2025-01-19 18:09:46.546467	160.9	31.1	-94.7	0.0
2025-01-19 18:09:47.667842	160.9	31.3	-94.7	0.0
2025-01-19 18:09:48.787540	160.9	31.5	-94.7	0.0
2025-01-19 18:09:49.908260	160.9	31.8	-94.7	0.0
2025-01-19 18:09:51.029586	160.9	32.0	-94.6	0.0
2025-01-19 18:09:52.151054	160.9	32.2	-94.8	0.0
2025-01-19 18:09:53.272366	160.9	32.5	-94.9	0.0
2025-01-19 18:09:54.395239	160.9	32.7	-94.8	0.0
2025-01-19 18:09:55.517308	160.9	32.9	-94.7	0.0
2025-01-19 18:09:56.639036	160.9	33.2	-94.9	0.0
2025-01-19 18:09:57.758684	160.9	33.4	-94.7	0.0
2025-01-19 18:09:58.879718	160.9	33.6	-94.8	0.0
2025-01-19 18:10:00.001632	160.9	33.9	-94.8	0.0
2025-01-19 18:10:01.121933	161.0	34.1	-94.9	0.0
2025-01-19 18:10:02.241653	161.0	34.4	-94.8	0.0
2025-01-19 18:10:03.362914	161.0	34.6	-95.1	0.0
2025-01-19 18:10:04.484697	161.0	34.9	-94.8	0.0
2025-01-19 18:10:05.608397	161.0	35.1	-94.7	0.0
2025-01-19 18:10:06.729804	161.0	35.4	-94.8	0.0
2025-01-19 18:10:07.853386	161.0	35.6	-94.5	0.0
2025-01-19 18:10:08.975218	161.0	35.9	-94.4	0.0
2025-01-19 18:10:10.096702	161.0	36.1	-94.8	0.0
2025-01-19 18:10:11.219499	161.0	36.4	-94.6	0.0
2025-01-19 18:10:12.338200	161.0	36.7	-94.7	0.0
2025-01-19 18:10:13.460592	161.0	36.9	-94.7	0.0
2025-01-19 18:10:14.583005	161.0	37.2	-94.6	0.0
2025-01-19 18:10:15.705912	161.0	37.5	-94.8	0.0
2025-01-19 18:10:16.825575	161.0	37.8	-95.0	0.0
2025-01-19 18:10:17.945266	161.0	38.0	-94.9	0.0
2025-01-19 18:10:19.065914	161.0	38.3	-94.7	0.0
2025-01-19 18:10:20.187062	161.0	38.6	-94.7	0.0
2025-01-19 18:10:21.308405	161.0	38.9	-94.7	0.0
2025-01-19 18:10:22.428441	161.0	39.1	-94.9	0.0
2025-01-19 18:10:23.548141	161.0	39.4	-94.6	0.0
2025-01-19 18:10:24.666554	161.0	39.7	-94.9	0.0
2025-01-19 18:10:25.787188	161.0	40.0	-94.9	0.0
2025-01-19 18:10:26.906749	161.0	40.3	-94.8	0.0
2025-01-19 18:10:28.029128	161.0	40.6	-94.9	0.0
2025-01-19 18:10:29.149616	161.0	40.9	-94.8	0.0
2025-01-19 18:10:30.271666	161.0	41.2	-94.7	0.0
2025-01-19 18:10:31.393278	161.0	41.5	-94.6	0.0
2025-01-19 18:10:32.513427	161.0	41.8	-94.6	0.0
2025-01-19 18:10:33.632543	161.0	42.1	-94.7	0.0
2025-01-19 18:10:34.754323	161.0	42.4	-94.8	0.0
2025-01-19 18:10:35.875139	161.0	42.7	-94.7	0.0
2025-01-19 18:10:36.996408	161.0	43.1	-94.8	0.0
2025-01-19 18:10:38.117074	161.0	43.4	-94.9	0.0
2025-01-19 18:10:39.237405	161.0	43.7	-95.0	0.0
2025-01-19 18:10:40.358175	161.0	44.0	-94.9	0.0
2025-01-19 18:10:41.478504	161.0	44.4	-94.8	0.0
2025-01-19 18:10:42.599627	161.0	44.7	-94.8	0.0
2025-01-19 18:10:43.720813	161.0	45.0	-94.8	0.0
2025-01-19 18:10:44.841348	161.0	45.4	-95.0	0.0
2025-01-19 18:10:45.961172	161.0	45.7	-94.6	0.0
2025-01-19 18:10:47.081346	161.0	46.0	-94.9	0.0
2025-01-19 18:10:48.204328	161.0	46.4	-94.8	0.0
2025-01-19 18:10:49.327637	161.0	46.7	-94.7	0.0
2025-01-19 18:10:50.447862	161.0	47.1	-94.9	0.0
2025-01-19 18:10:51.570151	161.0	47.4	-94.9	0.0
2025-01-19 18:10:52.690494	161.0	47.8	-94.9	0.0
2025-01-19 18:10:53.811841	161.0	48.1	-94.9	0.0
2025-01-19 18:10:54.932127	161.0	48.5	-94.7	0.0
2025-01-19 18:10:56.055411	161.0	48.9	-94.8	0.0
2025-01-19 18:10:57.176617	161.0	49.2	-95.1	0.0
2025-01-19 18:10:58.300021	161.0	49.6	-94.4	0.0
2025-01-19 18:10:59.418952	161.0	50.0	-94.9	0.0
2025-01-19 18:11:00.541432	161.0	50.4	-94.7	0.0
2025-01-19 18:11:01.663390	161.0	50.7	-94.6	0.0
2025-01-19 18:11:02.783804	161.0	51.1	-94.7	0.0
2025-01-19 18:11:03.905624	161.0	51.5	-94.5	0.0
2025-01-19 18:11:05.025197	161.0	51.9	-94.6	0.0
2025-01-19 18:11:06.145312	161.0	52.3	-94.6	0.0
2025-01-19 18:11:07.267106	161.0	52.7	-94.5	0.0
2025-01-19 18:11:08.388578	161.0	53.1	-94.7	0.0
2025-01-19 18:11:09.510386	161.0	53.5	-94.5	0.0
2025-01-19 18:11:10.630107	161.0	53.9	-94.6	0.0
2025-01-19 18:11:11.750219	161.0	54.3	-94.9	0.0
2025-01-19 18:11:12.870517	161.0	54.7	-94.7	0.0
2025-01-19 18:11:13.998782	161.0	55.1	-94.6	0.0
2025-01-19 18:11:15.116572	161.0	55.5	-94.4	0.0
2025-01-19 18:11:16.235481	161.0	56.0	-94.6	0.0
2025-01-19 18:11:17.356730	161.0	56.4	-94.8	0.0
2025-01-19 18:11:18.478604	161.0	56.8	-94.7	0.0
2025-01-19 18:11:19.599774	161.0	57.2	-94.8	0.0
2025-01-19 18:11:20.721804	161.0	57.7	-94.4	0.0
2025-01-19 18:11:21.842778	161.0	58.1	-94.5	0.0
2025-01-19 18:11:22.963138	161.0	58.6	-94.7	0.0
2025-01-19 18:11:24.083402	161.0	59.0	-94.8	0.0
2025-01-19 18:11:25.204698	161.0	59.5	-94.5	0.0
2025-01-19 18:11:26.323515	161.0	59.9	-94.5	0.0
2025-01-19 18:11:27.445781	161.0	60.4	-94.6	0.0
2025-01-19 18:11:28.564706	161.0	60.8	-94.5	0.0
2025-01-19 18:11:29.683517	161.0	61.3	-94.5	0.0
2025-01-19 18:11:30.804987	161.0	61.7	-94.7	0.0
2025-01-19 18:11:31.926121	161.0	62.2	-94.6	0.0
2025-01-19 18:11:33.050195	161.0	62.7	-94.6	0.0
2025-01-19 18:11:34.171903	161.0	63.1	-94.7	0.0
2025-01-19 18:11:35.294406	161.0	63.6	-94.9	0.0
2025-01-19 18:11:36.415428	161.0	64.1	-95.1	0.0
2025-01-19 18:11:37.536418	161.0	64.6	-94.9	0.0
2025-01-19 18:11:38.658425	161.0	65.1	-95.0	0.0
2025-01-19 18:11:39.780386	161.0	65.6	-94.7	0.0
2025-01-19 18:11:40.901464	160.9	66.1	-95.0	0.0
2025-01-19 18:11:42.023036	160.9	66.5	-94.8	0.0
2025-01-19 18:11:43.144130	160.9	67.0	-95.2	0.0
2025-01-19 18:11:44.266452	160.9	67.5	-94.9	0.0
2025-01-19 18:11:45.388162	160.9	68.1	-94.9	0.0
2025-01-19 18:11:46.509636	160.9	68.6	-94.8	0.0
2025-01-19 18:11:47.630804	160.9	69.1	-94.8	0.0
2025-01-19 18:11:48.752560	160.9	69.6	-94.5	0.0
2025-01-19 18:11:49.874228	160.9	70.1	-94.9	0.0
2025-01-19 18:11:50.995642	160.9	70.6	-94.7	0.0
2025-01-19 18:11:52.117575	160.8	71.1	-94.9	0.0
2025-01-19 18:11:53.240271	160.8	71.7	-94.8	0.0
2025-01-19 18:11:54.360375	160.8	72.2	-94.8	0.0
2025-01-19 18:11:55.482820	160.8	72.7	-94.6	0.0
2025-01-19 18:11:56.603539	160.8	73.2	-94.7	0.0
2025-01-19 18:11:57.723904	160.7	73.8	-94.8	0.0
2025-01-19 18:11:58.846075	160.7	74.3	-94.9	0.0
2025-01-19 18:11:59.968094	160.7	74.9	-95.1	0.0
2025-01-19 18:12:01.088672	160.7	75.4	-94.9	0.0
2025-01-19 18:12:02.209041	160.6	75.9	-94.6	0.0
2025-01-19 18:12:03.331134	160.6	76.5	-95.0	0.0
2025-01-19 18:12:04.452482	160.6	77.0	-94.7	0.0
2025-01-19 18:12:05.573107	160.5	77.6	-94.9	0.0
2025-01-19 18:12:06.692312	160.5	78.1	-94.9	0.0
2025-01-19 18:12:07.812973	160.4	78.7	-94.5	0.0
2025-01-19 18:12:08.933169	160.4	79.2	-94.7	0.0
2025-01-19 18:12:10.053548	160.3	79.8	-94.9	0.0
2025-01-19 18:12:11.174661	160.3	80.3	-94.8	0.0
2025-01-19 18:12:12.297157	160.2	80.9	-95.0	0.0
2025-01-19 18:12:13.416674	160.1	81.5	-94.8	0.0
2025-01-19 18:12:14.538769	160.0	82.0	-94.8	0.0
2025-01-19 18:12:15.659203	159.9	82.6	-94.8	0.0
2025-01-19 18:12:16.779719	159.7	83.1	-95.0	0.0
2025-01-19 18:12:17.902843	159.6	83.7	-94.9	0.0
2025-01-19 18:12:19.022770	159.4	84.3	-94.8	0.0
2025-01-19 18:12:20.144673	159.2	84.8	-95.1	0.0
2025-01-19 18:12:21.263591	158.9	85.4	-95.1	0.0
2025-01-19 18:12:22.384822	158.5	86.0	-95.0	0.0
2025-01-19 18:12:23.507054	158.0	86.5	-94.9	0.0
2025-01-19 18:12:24.629422	157.3	87.1	-94.9	0.0
2025-01-19 18:12:25.749406	156.2	87.7	-94.8	0.0
2025-01-19 18:12:26.871420	154.4	88.2	-94.8	0.0
2025-01-19 18:12:27.993269	151.0	88.8	-94.8	0.0
2025-01-19 18:12:29.112381	141.6	89.4	-95.0	0.0
2025-01-19 18:12:30.234371	79.7	89.8	-95.0	0.0
2025-01-19 18:12:31.355096	3.7	89.4	-95.0	0.0
2025-01-19 18:12:32.475551	352.8	88.9	-95.0	0.0
2025-01-19 18:12:33.598285	349.0	88.3	-94.8	0.0
2025-01-19 18:12:34.718880	347.2	87.7	-94.7	0.0
2025-01-19 18:12:35.840535	346.1	87.2	-94.7	0.0
2025-01-19 18:12:36.962816	345.3	86.6	-94.8	0.0
2025-01-19 18:12:38.083916	344.8	86.0	-94.7	0.0
2025-01-19 18:12:39.204092	344.4	85.5	-94.5	0.0
2025-01-19 18:12:40.323707	344.1	84.9	-94.5	0.0
2025-01-19 18:12:41.446078	343.9	84.3	-94.8	0.0
2025-01-19 18:12:42.566625	343.7	83.8	-95.0	0.0
2025-01-19 18:12:43.684362	343.5	83.2	-94.7	0.0
2025-01-19 18:12:44.806157	343.4	82.6	-94.7	0.0
2025-01-19 18:12:45.927266	343.2	82.1	-94.5	0.0
2025-01-19 18:12:47.050348	343.1	81.5	-94.7	0.0
2025-01-19 18:12:48.173970	343.1	81.0	-94.7	0.0
2025-01-19 18:12:49.295466	343.0	80.4	-94.7	0.0
2025-01-19 18:12:50.414199	342.9	79.8	-94.8	0.0
2025-01-19 18:12:51.535534	342.8	79.3	-94.9	0.0
2025-01-19 18:12:52.654765	342.8	78.7	-94.7	0.0
2025-01-19 18:12:53.776632	342.7	78.2	-94.7	0.0
2025-01-19 18:12:54.896536	342.7	77.6	-94.9	0.0
2025-01-19 18:12:56.016702	342.7	77.1	-94.8	0.0
2025-01-19 18:12:57.136403	342.6	76.5	-94.7	0.0
2025-01-19 18:12:58.257626	342.6	76.0	-94.7	0.0
2025-01-19 18:12:59.379403	342.6	75.5	-94.8	0.0
2025-01-19 18:13:00.501207	342.5	74.9	-94.6	0.0
2025-01-19 18:13:01.620377	342.5	74.4	-94.8	0.0
2025-01-19 18:13:02.742049	342.5	73.9	-94.9	0.0
2025-01-19 18:13:03.861576	342.5	73.3	-94.8	0.0
2025-01-19 18:13:04.983093	342.4	72.8	-94.7	0.0
2025-01-19 18:13:06.106750	342.4	72.3	-94.6	0.0
2025-01-19 18:13:07.227830	342.4	71.7	-94.8	0.0
2025-01-19 18:13:08.348562	342.4	71.2	-94.6	0.0
2025-01-19 18:13:09.467344	342.4	70.7	-94.7	0.0
2025-01-19 18:13:10.586481	342.4	70.2	-94.7	0.0
2025-01-19 18:13:11.707295	342.4	69.7	-94.7	0.0
2025-01-19 18:13:12.827680	342.3	69.2	-94.8	0.0
2025-01-19 18:13:13.947807	342.3	68.6	-94.8	0.0
2025-01-19 18:13:15.069939	342.3	68.1	-94.9	0.0
2025-01-19 18:13:16.190408	342.3	67.6	-94.8	0.0
2025-01-19 18:13:17.311035	342.3	67.1	-94.9	0.0
2025-01-19 18:13:18.431712	342.3	66.6	-94.9	0.0
2025-01-19 18:13:19.551472	342.3	66.2	-94.8	0.0
2025-01-19 18:13:20.672688	342.3	65.7	-94.8	0.0
2025-01-19 18:13:21.793800	342.3	65.2	-94.8	0.0
2025-01-19 18:13:22.914648	342.3	64.7	-95.0	0.0
2025-01-19 18:13:24.034305	342.3	64.2	-95.0	0.0
2025-01-19 18:13:25.156907	342.3	63.7	-94.9	0.0
2025-01-19 18:13:26.278112	342.2	63.3	-95.0	0.0
2025-01-19 18:13:27.400427	342.2	62.8	-95.0	0.0
2025-01-19 18:13:28.521640	342.2	62.3	-94.9	0.0
2025-01-19 18:13:29.643575	342.2	61.8	-95.0	0.0
2025-01-19 18:13:30.766097	342.2	61.4	-94.7	0.0
2025-01-19 18:13:31.887265	342.2	60.9	-94.8	0.0
2025-01-19 18:13:33.007533	342.2	60.5	-94.9	0.0
2025-01-19 18:13:34.129727	342.2	60.0	-94.7	0.0
2025-01-19 18:13:35.248590	342.2	59.6	-94.7	0.0
2025-01-19 18:13:36.369414	342.2	59.1	-94.7	0.0
2025-01-19 18:13:37.491883	342.2	58.7	-94.9	0.0
2025-01-19 18:13:38.612150	342.2	58.2	-95.0	0.0
2025-01-19 18:13:39.734040	342.2	57.8	-94.8	0.0
2025-01-19 18:13:40.852959	342.2	57.4	-94.7	0.0
2025-01-19 18:13:41.973687	342.2	56.9	-94.6	0.0
2025-01-19 18:13:43.096156	342.2	56.5	-94.8	0.0
2025-01-19 18:13:44.217702	342.2	56.1	-95.0	0.0
2025-01-19 18:13:45.338736	342.2	55.7	-94.5	0.0
2025-01-19 18:13:46.461319	342.2	55.3	-94.7	0.0
2025-01-19 18:13:47.581267	342.2	54.8	-94.8	0.0
2025-01-19 18:13:48.703345	342.2	54.4	-94.9	0.0
2025-01-19 18:13:49.825249	342.2	54.0	-94.7	0.0
2025-01-19 18:13:50.948562	342.2	53.6	-94.8	0.0
2025-01-19 18:13:52.068405	342.2	53.2	-95.0	0.0
2025-01-19 18:13:53.188937	342.2	52.8	-95.1	0.0
2025-01-19 18:13:54.311580	342.2	52.4	-94.8	0.0
2025-01-19 18:13:55.431639	342.2	52.0	-94.9	0.0
2025-01-19 18:13:56.553780	342.2	51.6	-94.7	0.0
2025-01-19 18:13:57.674913	342.2	51.3	-95.0	0.0
2025-01-19 18:13:58.795337	342.2	50.9	-95.0	0.0
2025-01-19 18:13:59.918225	342.2	50.5	-94.8	0.0
2025-01-19 18:14:01.039509	342.2	50.1	-95.1	0.0
2025-01-19 18:14:02.159196	342.2	49.7	-94.8	0.0
2025-01-19 18:14:03.279221	342.2	49.4	-94.8	0.0
2025-01-19 18:14:04.400134	342.2	49.0	-94.8	0.0
2025-01-19 18:14:05.520768	342.2	48.6	-95.0	0.0
2025-01-19 18:14:06.641226	342.2	48.3	-94.8	0.0
2025-01-19 18:14:07.762656	342.2	47.9	-94.8	0.0
2025-01-19 18:14:08.883270	342.2	47.6	-94.7	0.0
2025-01-19 18:14:10.004406	342.2	47.2	-95.0	0.0
2025-01-19 18:14:11.123239	342.2	46.9	-94.8	0.0
2025-01-19 18:14:12.246883	342.2	46.5	-94.9	0.0
2025-01-19 18:14:13.367398	342.2	46.2	-95.1	0.0
2025-01-19 18:14:14.488065	342.2	45.8	-94.9	0.0
2025-01-19 18:14:15.609173	342.2	45.5	-94.7	0.0
2025-01-19 18:14:16.729624	342.2	45.2	-94.9	0.0
2025-01-19 18:14:17.850301	342.2	44.8	-94.9	0.0
2025-01-19 18:14:18.973777	342.2	44.5	-94.7	0.0
2025-01-19 18:14:20.094524	342.2	44.2	-95.1	0.0
2025-01-19 18:14:21.213752	342.2	43.9	-94.9	0.0
2025-01-19 18:14:22.335615	342.2	43.5	-94.8	0.0
2025-01-19 18:14:23.455447	342.2	43.2	-94.8	0.0
2025-01-19 18:14:24.578385	342.2	42.9	-94.9	0.0
2025-01-19 18:14:25.697601	342.2	42.6	-94.8	0.0
2025-01-19 18:14:26.817525	342.2	42.3	-94.9	0.0
2025-01-19 18:14:27.937355	342.2	42.0	-95.0	0.0
2025-01-19 18:14:29.059152	342.2	41.7	-95.0	0.0
2025-01-19 18:14:30.180183	342.2	41.4	-95.1	0.0
2025-01-19 18:14:31.299972	342.2	41.1	-94.9	0.0
2025-01-19 18:14:32.423331	342.2	40.8	-94.7	0.0
2025-01-19 18:14:33.546709	342.2	40.5	-94.9	0.0
2025-01-19 18:14:34.666618	342.3	40.2	-95.0	0.0
2025-01-19 18:14:35.786575	342.3	39.9	-95.1	0.0
2025-01-19 18:14:36.907705	342.3	39.6	-95.0	0.0
2025-01-19 18:14:38.029218	342.3	39.3	-95.0	0.0
2025-01-19 18:14:39.149227	342.3	39.0	-95.0	0.0
2025-01-19 18:14:40.270837	342.3	38.8	-95.1	0.0
2025-01-19 18:14:41.393097	342.3	38.5	-94.8	0.0
2025-01-19 18:14:42.513394	342.3	38.2	-95.0	0.0
2025-01-19 18:14:43.633130	342.3	37.9	-95.0	0.0
2025-01-19 18:14:44.752829	342.3	37.7	-95.2	0.0
2025-01-19 18:14:45.872422	342.3	37.4	-94.7	0.0
2025-01-19 18:14:46.994018	342.3	37.1	-94.9	0.0
2025-01-19 18:14:48.118596	342.3	36.9	-95.0	0.0
2025-01-19 18:14:49.237678	342.3	36.6	-94.9	0.0
2025-01-19 18:14:50.360337	342.3	36.3	-94.8	0.0
2025-01-19 18:14:51.481078	342.3	36.1	-94.8	0.0
2025-01-19 18:14:52.601783	342.3	35.8	-95.0	0.0
2025-01-19 18:14:53.724029	342.3	35.6	-95.0	0.0
2025-01-19 18:14:54.845930	342.3	35.3	-94.9	0.0
2025-01-19 18:14:55.966124	342.3	35.1	-94.9	0.0
2025-01-19 18:14:57.086430	342.3	34.8	-95.0	0.0
2025-01-19 18:14:58.208038	342.3	34.6	-94.7	0.0
2025-01-19 18:14:59.328611	342.3	34.3	-95.0	0.0
2025-01-19 18:15:00.448177	342.3	34.1	-94.9	0.0
2025-01-19 18:15:01.569010	342.3	33.8	-94.9	0.0
2025-01-19 18:15:02.689902	342.3	33.6	-94.9	0.0
2025-01-19 18:15:03.813847	342.3	33.4	-94.8	0.0
2025-01-19 18:15:04.935331	342.3	33.1	-94.6	0.0
2025-01-19 18:15:06.055445	342.3	32.9	-94.9	0.0
2025-01-19 18:15:07.174861	342.3	32.7	-95.0	0.0
2025-01-19 18:15:08.296630	342.3	32.4	-95.0	0.0
2025-01-19 18:15:09.417345	342.3	32.2	-94.6	0.0
2025-01-19 18:15:10.537542	342.3	32.0	-94.7	0.0
2025-01-19 18:15:11.657048	342.3	31.7	-94.8	0.0
2025-01-19 18:15:12.777429	342.3	31.5	-94.7	0.0
2025-01-19 18:15:13.898511	342.3	31.3	-94.9	0.0
2025-01-19 18:15:15.018412	342.3	31.1	-94.9	0.0
2025-01-19 18:15:16.139366	342.4	30.9	-95.0	0.0
2025-01-19 18:15:17.259142	342.4	30.6	-94.8	0.0
2025-01-19 18:15:18.378979	342.4	30.4	-94.8	0.0
2025-01-19 18:15:19.499490	342.4	30.2	-94.7	0.0
2025-01-19 18:15:20.620342	342.4	30.0	-94.9	0.0
2025-01-19 18:15:21.741708	342.4	29.8	-94.7	0.0
2025-01-19 18:15:22.863447	342.4	29.6	-94.8	0.0
2025-01-19 18:15:23.984474	342.4	29.4	-95.0	0.0
2025-01-19 18:15:25.105242	342.4	29.2	-94.8	0.0
2025-01-19 18:15:26.225195	342.4	29.0	-94.7	0.0
2025-01-19 18:15:27.347492	342.4	28.8	-94.7	0.0
2025-01-19 18:15:28.469880	342.4	28.6	-95.0	0.0
2025-01-19 18:15:29.588844	342.4	28.4	-95.0	0.0
2025-01-19 18:15:30.710478	342.4	28.2	-94.7	0.0
2025-01-19 18:15:31.829444	342.4	28.0	-94.7	0.0
2025-01-19 18:15:32.949300	342.4	27.8	-94.9	0.0
2025-01-19 18:15:34.071124	342.4	27.6	-95.0	0.0
2025-01-19 18:15:35.191931	342.4	27.4	-94.8	0.0
2025-01-19 18:15:36.314784	342.4	27.2	-94.6	0.0
2025-01-19 18:15:37.435717	342.4	27.0	-95.1	0.0
2025-01-19 18:15:38.556981	342.4	26.8	-94.9	0.0
2025-01-19 18:15:39.677464	342.4	26.6	-94.8	0.0
2025-01-19 18:15:40.798351	342.4	26.4	-94.8	0.0
2025-01-19 18:15:41.918636	342.4	26.3	-94.9	0.0
2025-01-19 18:15:43.039837	342.4	26.1	-94.8	0.0
2025-01-19 18:15:44.159395	342.4	25.9	-94.6	0.0
2025-01-19 18:15:45.281688	342.4	25.7	-94.7	0.0
2025-01-19 18:15:46.402463	342.4	25.5	-94.8	0.0
2025-01-19 18:15:47.522805	342.4	25.3	-94.8	0.0
2025-01-19 18:15:48.644096	342.4	25.2	-94.6	0.0
2025-01-19 18:15:49.766841	342.5	25.0	-94.6	0.0
2025-01-19 18:15:50.888003	342.5	24.8	-95.0	0.0
2025-01-19 18:15:52.009010	342.5	24.6	-94.8	0.0
2025-01-19 18:15:53.130259	342.5	24.5	-94.8	0.0
2025-01-19 18:15:54.251191	342.5	24.3	-94.8	0.0
2025-01-19 18:15:55.372574	342.5	24.1	-94.8	0.0
2025-01-19 18:15:56.492523	342.5	24.0	-94.9	0.0
2025-01-19 18:15:57.614284	342.5	23.8	-94.8	0.0
2025-01-19 18:15:58.735148	342.5	23.6	-94.8	0.0
2025-01-19 18:15:59.855970	342.5	23.5	-94.7	0.0
2025-01-19 18:16:00.978676	342.5	23.3	-94.9	0.0
2025-01-19 18:16:02.100311	342.5	23.1	-94.8	0.0
2025-01-19 18:16:03.221794	342.5	23.0	-94.7	0.0
2025-01-19 18:16:04.342628	342.5	22.8	-94.7	0.0
2025-01-19 18:16:05.462440	342.5	22.6	-94.8	0.0
2025-01-19 18:16:06.583258	342.5	22.5	-94.8	0.0
2025-01-19 18:16:07.704490	342.5	22.3	-94.9	0.0
2025-01-19 18:16:08.824183	342.5	22.2	-94.9	0.0
2025-01-19 18:16:09.946259	342.5	22.0	-94.8	0.0
2025-01-19 18:16:11.067551	342.5	21.8	-94.8	0.0
2025-01-19 18:16:12.187514	342.5	21.7	-94.9	0.0
2025-01-19 18:16:13.307410	342.5	21.5	-94.8	0.0
2025-01-19 18:16:14.428427	342.5	21.4	-95.1	0.0
2025-01-19 18:16:15.549143	342.5	21.2	-94.9	0.0
2025-01-19 18:16:16.671331	342.5	21.1	-94.7	0.0
2025-01-19 18:16:17.791433	342.5	20.9	-94.9	0.0
2025-01-19 18:16:18.912405	342.5	20.8	-94.9	0.0
2025-01-19 18:16:20.033016	342.6	20.6	-94.9	0.0
2025-01-19 18:16:21.153321	342.6	20.5	-94.8	0.0
2025-01-19 18:16:22.275770	342.6	20.3	-94.8	0.0
2025-01-19 18:16:23.398516	342.6	20.2	-95.0	0.0
2025-01-19 18:16:24.520744	342.6	20.0	-94.8	0.0
2025-01-19 18:16:25.642808	342.6	19.9	-94.8	0.0
2025-01-19 18:16:26.763738	342.6	19.8	-95.0	0.0
2025-01-19 18:16:27.886324	342.6	19.6	-95.0	0.0
2025-01-19 18:16:29.007443	342.6	19.5	-95.1	0.0
2025-01-19 18:16:30.129379	342.6	19.3	-95.0	0.0
2025-01-19 18:16:31.250887	342.6	19.2	-94.9	0.0
2025-01-19 18:16:32.371427	342.6	19.0	-95.0	0.0
2025-01-19 18:16:33.491253	342.6	18.9	-94.7	0.0
2025-01-19 18:16:34.613752	342.6	18.8	-94.9	0.0
2025-01-19 18:16:35.734289	342.6	18.6	-94.9	0.0
2025-01-19 18:16:36.854074	342.6	18.5	-94.8	0.0
2025-01-19 18:16:37.974516	342.6	18.4	-94.8	0.0
2025-01-19 18:16:39.094487	342.6	18.2	-94.9	0.0
2025-01-19 18:16:40.216056	342.6	18.1	-95.0	0.0
2025-01-19 18:16:41.337259	342.6	18.0	-94.9	0.0
2025-01-19 18:16:42.456268	342.6	17.8	-94.8	0.0
2025-01-19 18:16:43.578552	342.6	17.7	-94.8	0.0
2025-01-19 18:16:44.700889	342.6	17.6	-94.9	0.0
2025-01-19 18:16:45.821974	342.6	17.4	-95.1	0.0
2025-01-19 18:16:46.943795	342.6	17.3	-94.9	0.0
2025-01-19 18:16:48.065976	342.6	17.2	-95.0	0.0
2025-01-19 18:16:49.185580	342.7	17.0	-94.6	0.0
2025-01-19 18:16:50.305363	342.7	16.9	-95.0	0.0
2025-01-19 18:16:51.426506	342.7	16.8	-95.0	0.0
2025-01-19 18:16:52.547473	342.7	16.7	-95.0	0.0
2025-01-19 18:16:53.667892	342.7	16.5	-94.9	0.0
2025-01-19 18:16:54.789895	342.7	16.4	-94.9	0.0
2025-01-19 18:16:55.911203	342.7	16.3	-94.7	0.0
2025-01-19 18:16:57.033537	342.7	16.2	-94.6	0.0
2025-01-19 18:16:58.155682	342.7	16.0	-94.6	0.0
2025-01-19 18:16:59.278685	342.7	15.9	-94.7	0.0
2025-01-19 18:17:00.400340	342.7	15.8	-94.9	0.0
2025-01-19 18:17:01.522104	342.7	15.7	-95.0	0.0
2025-01-19 18:17:02.644222	342.7	15.5	-94.7	0.0
2025-01-19 18:17:03.766407	342.7	15.4	-95.0	0.0
2025-01-19 18:17:04.885211	342.7	15.3	-94.7	0.0
2025-01-19 18:17:06.006531	342.7	15.2	-94.5	0.0
2025-01-19 18:17:07.127965	342.7	15.1	-94.8	0.0
2025-01-19 18:17:08.249276	342.7	15.0	-95.0	0.0
2025-01-19 18:17:09.370726	342.7	14.8	-95.1	0.0
2025-01-19 18:17:10.489367	342.7	14.7	-94.6	0.0
2025-01-19 18:17:11.610450	342.7	14.6	-94.8	0.0
2025-01-19 18:17:12.731677	342.7	14.5	-95.0	0.0
2025-01-19 18:17:13.851712	342.7	14.4	-95.3	0.0
2025-01-19 18:17:14.973857	342.7	14.3	-95.1	0.0
2025-01-19 18:17:16.094980	342.7	14.1	-95.0	0.0
2025-01-19 18:17:17.215216	342.7	14.0	-94.8	0.0
2025-01-19 18:17:18.336671	342.8	13.9	-95.1	0.0
2025-01-19 18:17:19.458448	342.8	13.8	-95.1	0.0
2025-01-19 18:17:20.581904	342.8	13.7	-95.1	0.0
2025-01-19 18:17:21.703878	342.8	13.6	-95.0	0.0
2025-01-19 18:17:22.823811	342.8	13.5	-94.7	0.0
2025-01-19 18:17:23.944117	342.8	13.4	-94.9	0.0
2025-01-19 18:17:25.063741	342.8	13.2	-95.1	0.0
2025-01-19 18:17:26.186657	342.8	13.1	-94.6	0.0
2025-01-19 18:17:27.309016	342.8	13.0	-94.6	0.0
2025-01-19 18:17:28.430201	342.8	12.9	-95.1	0.0
2025-01-19 18:17:29.550278	342.8	12.8	-95.0	0.0
2025-01-19 18:17:30.670412	342.8	12.7	-94.8	0.0
2025-01-19 18:17:31.790914	342.8	12.6	-94.6	0.0
2025-01-19 18:17:32.912136	342.8	12.5	-94.9	0.0
2025-01-19 18:17:34.034430	342.8	12.4	-95.1	0.0
2025-01-19 18:17:35.155900	342.8	12.3	-94.9	0.0
2025-01-19 18:17:36.279036	342.8	12.2	-95.1	0.0
2025-01-19 18:17:37.399217	342.8	12.1	-94.8	0.0
2025-01-19 18:17:38.521646	342.8	12.0	-94.6	0.0
2025-01-19 18:17:39.642407	342.8	11.9	-94.7	0.0
2025-01-19 18:17:40.765061	342.8	11.8	-94.9	0.0
2025-01-19 18:17:41.887309	342.8	11.6	-94.7	0.0
2025-01-19 18:17:43.008575	342.8	11.5	-94.7	0.0
2025-01-19 18:17:44.130533	342.8	11.4	-94.9	0.0
2025-01-19 18:17:45.250406	342.9	11.3	-94.9	0.0
2025-01-19 18:17:46.370522	342.9	11.2	-94.7	0.0
2025-01-19 18:17:47.489371	342.9	11.1	-94.7	0.0
2025-01-19 18:17:48.609285	342.9	11.0	-94.9	0.0
2025-01-19 18:17:49.730445	342.9	10.9	-94.8	0.0
2025-01-19 18:17:50.850494	342.9	10.8	-94.6	0.0
2025-01-19 18:17:51.972284	342.9	10.7	-94.7	0.0
2025-01-19 18:17:53.092477	342.9	10.6	-95.1	0.0
2025-01-19 18:17:54.215058	342.9	10.5	-95.1	0.0
2025-01-19 18:17:55.335791	342.9	10.4	-95.0	0.0
2025-01-19 18:17:56.456868	342.9	10.3	-94.8	0.0
2025-01-19 18:17:57.577578	342.9	10.2	-95.0	0.0
2025-01-19 18:17:58.698508	342.9	10.1	-95.0	0.0
2025-01-19 18:17:59.819574	342.9	10.1	-94.9	0.0
#Closed at: 2025-01-19 18:06:57.953280