passes_logs/2025/01/19/planumMaritime01/planumMaritime01__20250119_065155_METOP-B_rec.log

#Pass ID: 20250119_065155_METOP-B
#Satellite: METOP-B
#Configuration: METOP-B
#Start time: 2025-01-19 06:52:00.440954

#LorettStation: 1.0.0 05.05.2024
#Station: planumMaritime01
#Location: 37.49445 lon 55.92918 lat
#TLE: 1 38771U 12049A   25018.13917443  .00000268  00000+0  14250-3 0  9990
#TLE: 2 38771  98.6005  76.2164 0001715  78.2005 281.9365 14.21412314640083

#Time	Az	El	Level	SNR
2025-01-19 06:52:02.597085	23.8	10.2	-94.7	0.0
2025-01-19 06:52:03.718097	23.9	10.3	-94.7	0.0
2025-01-19 06:52:04.839996	23.9	10.4	-94.7	0.0
2025-01-19 06:52:05.960221	24.0	10.5	-94.9	0.0
2025-01-19 06:52:07.079106	24.1	10.6	-94.7	0.0
2025-01-19 06:52:08.200497	24.1	10.7	-94.7	0.0
2025-01-19 06:52:09.321840	24.2	10.7	-94.7	0.0
2025-01-19 06:52:10.442713	24.2	10.8	-94.6	0.0
2025-01-19 06:52:11.563745	24.3	10.9	-94.7	0.0
2025-01-19 06:52:12.683519	24.4	11.0	-94.9	0.0
2025-01-19 06:52:13.804106	24.4	11.1	-94.8	0.0
2025-01-19 06:52:14.926348	24.5	11.2	-94.7	0.0
2025-01-19 06:52:16.048516	24.6	11.3	-94.7	0.0
2025-01-19 06:52:17.170161	24.6	11.4	-94.6	0.0
2025-01-19 06:52:18.288669	24.7	11.5	-94.7	0.0
2025-01-19 06:52:19.408022	24.7	11.6	-94.5	0.0
2025-01-19 06:52:20.529514	24.8	11.7	-94.5	0.0
2025-01-19 06:52:21.648222	24.9	11.8	-94.7	0.0
2025-01-19 06:52:22.768862	24.9	11.9	-94.6	0.0
2025-01-19 06:52:23.890353	25.0	12.0	-94.5	0.0
2025-01-19 06:52:25.010555	25.1	12.1	-94.8	0.0
2025-01-19 06:52:26.134608	25.1	12.2	-94.9	0.0
2025-01-19 06:52:27.255242	25.2	12.3	-94.8	0.0
2025-01-19 06:52:28.375868	25.3	12.4	-94.7	0.0
2025-01-19 06:52:29.496132	25.4	12.5	-94.6	0.0
2025-01-19 06:52:30.616521	25.4	12.6	-94.7	0.0
2025-01-19 06:52:31.736607	25.5	12.7	-94.7	0.0
2025-01-19 06:52:32.857480	25.6	12.8	-94.7	0.0
2025-01-19 06:52:33.978206	25.6	12.9	-94.7	0.0
2025-01-19 06:52:35.099365	25.7	13.0	-94.5	0.0
2025-01-19 06:52:36.220254	25.8	13.2	-94.6	0.0
2025-01-19 06:52:37.342012	25.8	13.3	-94.8	0.0
2025-01-19 06:52:38.463074	25.9	13.4	-94.7	0.0
2025-01-19 06:52:39.584424	26.0	13.5	-94.4	0.0
2025-01-19 06:52:40.706492	26.1	13.6	-94.7	0.0
2025-01-19 06:52:41.827777	26.1	13.7	-94.4	0.0
2025-01-19 06:52:42.947397	26.2	13.8	-94.5	0.0
2025-01-19 06:52:44.070997	26.3	13.9	-94.5	0.0
2025-01-19 06:52:45.191418	26.4	14.0	-94.7	0.0
2025-01-19 06:52:46.311938	26.4	14.1	-94.4	0.0
2025-01-19 06:52:47.430615	26.5	14.2	-94.6	0.0
2025-01-19 06:52:48.551781	26.6	14.3	-94.6	0.0
2025-01-19 06:52:49.673596	26.7	14.4	-94.7	0.0
2025-01-19 06:52:50.795363	26.8	14.6	-94.5	0.0
2025-01-19 06:52:51.914989	26.8	14.7	-94.3	0.0
2025-01-19 06:52:53.035528	26.9	14.8	-94.4	0.0
2025-01-19 06:52:54.157220	27.0	14.9	-94.7	0.0
2025-01-19 06:52:55.277725	27.1	15.0	-94.5	0.0
2025-01-19 06:52:56.397225	27.2	15.1	-94.5	0.0
2025-01-19 06:52:57.517310	27.2	15.2	-94.6	0.0
2025-01-19 06:52:58.637739	27.3	15.3	-94.3	0.0
2025-01-19 06:52:59.757716	27.4	15.4	-94.3	0.0
2025-01-19 06:53:00.877959	27.5	15.6	-94.5	0.0
2025-01-19 06:53:01.999054	27.6	15.7	-94.3	0.0
2025-01-19 06:53:03.119901	27.7	15.8	-94.3	0.0
2025-01-19 06:53:04.242364	27.7	15.9	-94.3	0.0
2025-01-19 06:53:05.364386	27.8	16.0	-94.6	0.0
2025-01-19 06:53:06.482512	27.9	16.1	-94.7	0.0
2025-01-19 06:53:07.605674	28.0	16.3	-94.9	0.0
2025-01-19 06:53:08.727400	28.1	16.4	-94.7	0.0
2025-01-19 06:53:09.849944	28.2	16.5	-95.1	0.0
2025-01-19 06:53:10.972327	28.3	16.6	-94.9	0.0
2025-01-19 06:53:12.092519	28.4	16.7	-94.7	0.0
2025-01-19 06:53:13.212931	28.4	16.9	-94.9	0.0
2025-01-19 06:53:14.334325	28.5	17.0	-94.7	0.0
2025-01-19 06:53:15.456390	28.6	17.1	-95.1	0.0
2025-01-19 06:53:16.576983	28.7	17.2	-95.0	0.0
2025-01-19 06:53:17.696260	28.8	17.3	-94.9	0.0
2025-01-19 06:53:18.816678	28.9	17.5	-94.7	0.0
2025-01-19 06:53:19.938552	29.0	17.6	-95.0	0.0
2025-01-19 06:53:21.059322	29.1	17.7	-95.0	0.0
2025-01-19 06:53:22.180500	29.2	17.8	-95.1	0.0
2025-01-19 06:53:23.303706	29.3	18.0	-94.9	0.0
2025-01-19 06:53:24.423163	29.4	18.1	-94.5	0.0
2025-01-19 06:53:25.543120	29.5	18.2	-94.9	0.0
2025-01-19 06:53:26.665586	29.6	18.3	-94.7	0.0
2025-01-19 06:53:27.788132	29.7	18.5	-94.7	0.0
2025-01-19 06:53:28.910936	29.8	18.6	-94.8	0.0
2025-01-19 06:53:30.030089	29.9	18.7	-94.7	0.0
2025-01-19 06:53:31.150317	30.0	18.9	-94.7	0.0
2025-01-19 06:53:32.274261	30.1	19.0	-94.7	0.0
2025-01-19 06:53:33.395060	30.2	19.1	-94.7	0.0
2025-01-19 06:53:34.514732	30.3	19.3	-94.7	0.0
2025-01-19 06:53:35.634718	30.4	19.4	-94.7	0.0
2025-01-19 06:53:36.757429	30.5	19.5	-94.5	0.0
2025-01-19 06:53:37.877217	30.6	19.6	-94.6	0.0
2025-01-19 06:53:38.998255	30.7	19.8	-94.7	0.0
2025-01-19 06:53:40.118122	30.9	19.9	-94.5	0.0
2025-01-19 06:53:41.239770	31.0	20.1	-94.6	0.0
2025-01-19 06:53:42.362114	31.1	20.2	-94.7	0.0
2025-01-19 06:53:43.482021	31.2	20.3	-94.6	0.0
2025-01-19 06:53:44.603308	31.3	20.5	-94.8	0.0
2025-01-19 06:53:45.726116	31.4	20.6	-94.7	0.0
2025-01-19 06:53:46.846784	31.5	20.7	-94.7	0.0
2025-01-19 06:53:47.966262	31.7	20.9	-94.8	0.0
2025-01-19 06:53:49.088631	31.8	21.0	-94.6	0.0
2025-01-19 06:53:50.210163	31.9	21.2	-94.8	0.0
2025-01-19 06:53:51.330081	32.0	21.3	-94.8	0.0
2025-01-19 06:53:52.449803	32.1	21.4	-94.5	0.0
2025-01-19 06:53:53.572294	32.3	21.6	-94.7	0.0
2025-01-19 06:53:54.694362	32.4	21.7	-94.8	0.0
2025-01-19 06:53:55.812924	32.5	21.9	-94.7	0.0
2025-01-19 06:53:56.932518	32.6	22.0	-94.8	0.0
2025-01-19 06:53:58.053042	32.8	22.2	-94.7	0.0
2025-01-19 06:53:59.174170	32.9	22.3	-94.7	0.0
2025-01-19 06:54:00.296159	33.0	22.4	-94.8	0.0
2025-01-19 06:54:01.415300	33.1	22.6	-94.6	0.0
2025-01-19 06:54:02.534262	33.3	22.7	-94.7	0.0
2025-01-19 06:54:03.654605	33.4	22.9	-94.9	0.0
2025-01-19 06:54:04.777227	33.5	23.0	-94.7	0.0
2025-01-19 06:54:05.897442	33.7	23.2	-94.6	0.0
2025-01-19 06:54:07.016121	33.8	23.3	-94.6	0.0
2025-01-19 06:54:08.136054	33.9	23.5	-94.7	0.0
2025-01-19 06:54:09.257649	34.1	23.6	-94.8	0.0
2025-01-19 06:54:10.378365	34.2	23.8	-94.4	0.0
2025-01-19 06:54:11.499242	34.4	23.9	-94.4	0.0
2025-01-19 06:54:12.619021	34.5	24.1	-94.7	0.0
2025-01-19 06:54:13.739137	34.6	24.3	-94.8	0.0
2025-01-19 06:54:14.860511	34.8	24.4	-94.8	0.0
2025-01-19 06:54:15.980584	34.9	24.6	-94.4	0.0
2025-01-19 06:54:17.101898	35.1	24.7	-94.5	0.0
2025-01-19 06:54:18.222385	35.2	24.9	-94.8	0.0
2025-01-19 06:54:19.344387	35.4	25.0	-94.7	0.0
2025-01-19 06:54:20.463866	35.5	25.2	-94.9	0.0
2025-01-19 06:54:21.583778	35.7	25.4	-94.5	0.0
2025-01-19 06:54:22.703521	35.8	25.5	-94.6	0.0
2025-01-19 06:54:23.822511	36.0	25.7	-94.8	0.0
2025-01-19 06:54:24.943841	36.2	25.8	-94.6	0.0
2025-01-19 06:54:26.065919	36.3	26.0	-94.7	0.0
2025-01-19 06:54:27.186967	36.5	26.2	-94.6	0.0
2025-01-19 06:54:28.308605	36.6	26.3	-94.6	0.0
2025-01-19 06:54:29.429325	36.8	26.5	-94.9	0.0
2025-01-19 06:54:30.549730	37.0	26.7	-95.1	0.0
2025-01-19 06:54:31.672446	37.1	26.8	-95.2	0.0
2025-01-19 06:54:32.791643	37.3	27.0	-94.7	0.0
2025-01-19 06:54:33.913014	37.5	27.2	-95.0	0.0
2025-01-19 06:54:35.034881	37.7	27.3	-95.1	0.0
2025-01-19 06:54:36.157168	37.8	27.5	-95.0	0.0
2025-01-19 06:54:37.277295	38.0	27.7	-95.1	0.0
2025-01-19 06:54:38.398145	38.2	27.9	-94.8	0.0
2025-01-19 06:54:39.515692	38.4	28.0	-94.7	0.0
2025-01-19 06:54:40.636502	38.6	28.2	-95.2	0.0
2025-01-19 06:54:41.757349	38.7	28.4	-95.1	0.0
2025-01-19 06:54:42.877055	38.9	28.6	-95.1	0.0
2025-01-19 06:54:43.996977	39.1	28.7	-94.8	0.0
2025-01-19 06:54:45.116340	39.3	28.9	-94.7	0.0
2025-01-19 06:54:46.239958	39.5	29.1	-95.1	0.0
2025-01-19 06:54:47.361225	39.7	29.3	-95.2	0.0
2025-01-19 06:54:48.483000	39.9	29.4	-94.7	0.0
2025-01-19 06:54:49.603036	40.1	29.6	-94.8	0.0
2025-01-19 06:54:50.723450	40.3	29.8	-95.1	0.0
2025-01-19 06:54:51.844356	40.5	30.0	-95.0	0.0
2025-01-19 06:54:52.965232	40.7	30.2	-94.9	0.0
2025-01-19 06:54:54.086792	40.9	30.4	-95.0	0.0
2025-01-19 06:54:55.208611	41.1	30.5	-94.8	0.0
2025-01-19 06:54:56.330337	41.3	30.7	-94.9	0.0
2025-01-19 06:54:57.451562	41.6	30.9	-94.9	0.0
2025-01-19 06:54:58.574162	41.8	31.1	-94.8	0.0
2025-01-19 06:54:59.697257	42.0	31.3	-94.6	0.0
2025-01-19 06:55:00.815721	42.2	31.5	-94.8	0.0
2025-01-19 06:55:01.939166	42.4	31.7	-95.0	0.0
2025-01-19 06:55:03.059034	42.7	31.8	-94.8	0.0
2025-01-19 06:55:04.177835	42.9	32.0	-94.6	0.0
2025-01-19 06:55:05.298209	43.1	32.2	-94.6	0.0
2025-01-19 06:55:06.419924	43.4	32.4	-94.5	0.0
2025-01-19 06:55:07.542277	43.6	32.6	-94.4	0.0
2025-01-19 06:55:08.665850	43.9	32.8	-94.8	0.0
2025-01-19 06:55:09.784294	44.1	33.0	-94.6	0.0
2025-01-19 06:55:10.907089	44.4	33.2	-94.6	0.0
2025-01-19 06:55:12.026795	44.6	33.4	-94.5	0.0
2025-01-19 06:55:13.149366	44.9	33.6	-94.6	0.0
2025-01-19 06:55:14.270398	45.1	33.8	-94.9	0.0
2025-01-19 06:55:15.391576	45.4	34.0	-94.9	0.0
2025-01-19 06:55:16.511775	45.6	34.2	-94.4	0.0
2025-01-19 06:55:17.634518	45.9	34.4	-94.6	0.0
2025-01-19 06:55:18.756523	46.2	34.6	-94.5	0.0
2025-01-19 06:55:19.878658	46.4	34.8	-94.8	0.0
2025-01-19 06:55:20.999330	46.7	35.0	-94.9	0.0
2025-01-19 06:55:22.119821	47.0	35.2	-95.0	0.0
2025-01-19 06:55:23.239991	47.3	35.4	-94.7	0.0
2025-01-19 06:55:24.360918	47.6	35.6	-94.8	0.0
2025-01-19 06:55:25.480934	47.9	35.8	-94.8	0.0
2025-01-19 06:55:26.603725	48.1	36.0	-94.9	0.0
2025-01-19 06:55:27.722591	48.4	36.2	-94.7	0.0
2025-01-19 06:55:28.845321	48.7	36.4	-94.9	0.0
2025-01-19 06:55:29.965824	49.0	36.6	-94.9	0.0
2025-01-19 06:55:31.085322	49.4	36.8	-94.9	0.0
2025-01-19 06:55:32.206017	49.7	37.0	-95.0	0.0
2025-01-19 06:55:33.325715	50.0	37.2	-95.2	0.0
2025-01-19 06:55:34.446290	50.3	37.4	-95.0	0.0
2025-01-19 06:55:35.567164	50.6	37.6	-94.6	0.0
2025-01-19 06:55:36.687642	51.0	37.8	-94.8	0.0
2025-01-19 06:55:37.808908	51.3	38.0	-95.1	0.0
2025-01-19 06:55:38.930449	51.6	38.2	-95.1	0.0
2025-01-19 06:55:40.051056	52.0	38.4	-94.7	0.0
2025-01-19 06:55:41.172089	52.3	38.6	-94.8	0.0
2025-01-19 06:55:42.293103	52.7	38.9	-94.7	0.0
2025-01-19 06:55:43.412358	53.0	39.1	-94.8	0.0
2025-01-19 06:55:44.534046	53.4	39.3	-94.7	0.0
2025-01-19 06:55:45.656389	53.7	39.5	-94.7	0.0
2025-01-19 06:55:46.776448	54.1	39.7	-94.7	0.0
2025-01-19 06:55:47.897954	54.5	39.9	-94.8	0.0
2025-01-19 06:55:49.019035	54.8	40.1	-94.6	0.0
2025-01-19 06:55:50.139849	55.2	40.3	-94.9	0.0
2025-01-19 06:55:51.262296	55.6	40.5	-94.8	0.0
2025-01-19 06:55:52.385406	56.0	40.7	-94.6	0.0
2025-01-19 06:55:53.506358	56.4	40.9	-94.6	0.0
2025-01-19 06:55:54.630109	56.8	41.1	-94.8	0.0
2025-01-19 06:55:55.749492	57.2	41.3	-94.3	0.0
2025-01-19 06:55:56.872418	57.6	41.5	-94.5	0.0
2025-01-19 06:55:57.994644	58.0	41.7	-94.5	0.0
2025-01-19 06:55:59.116064	58.4	41.9	-94.8	0.0
2025-01-19 06:56:00.236218	58.9	42.1	-94.7	0.0
2025-01-19 06:56:01.359226	59.3	42.3	-94.7	0.0
2025-01-19 06:56:02.479951	59.7	42.6	-94.9	0.0
2025-01-19 06:56:03.601908	60.2	42.8	-94.9	0.0
2025-01-19 06:56:04.720151	60.6	43.0	-94.7	0.0
2025-01-19 06:56:05.842126	61.1	43.2	-94.6	0.0
2025-01-19 06:56:06.964710	61.5	43.4	-94.9	0.0
2025-01-19 06:56:08.086388	62.0	43.5	-94.8	0.0
2025-01-19 06:56:09.207320	62.5	43.7	-94.9	0.0
2025-01-19 06:56:10.330341	63.0	43.9	-94.9	0.0
2025-01-19 06:56:11.451984	63.4	44.1	-94.7	0.0
2025-01-19 06:56:12.574303	63.9	44.3	-94.7	0.0
2025-01-19 06:56:13.694834	64.4	44.5	-94.8	0.0
2025-01-19 06:56:14.815943	64.9	44.7	-94.7	0.0
2025-01-19 06:56:15.935592	65.4	44.9	-95.0	0.0
2025-01-19 06:56:17.055233	65.9	45.1	-94.8	0.0
2025-01-19 06:56:18.177224	66.5	45.3	-94.8	0.0
2025-01-19 06:56:19.296825	67.0	45.5	-94.8	0.0
2025-01-19 06:56:20.419389	67.5	45.6	-94.7	0.0
2025-01-19 06:56:21.541247	68.0	45.8	-94.8	0.0
2025-01-19 06:56:22.661354	68.6	46.0	-94.8	0.0
2025-01-19 06:56:23.782380	69.1	46.2	-94.8	0.0
2025-01-19 06:56:24.905439	69.7	46.3	-94.7	0.0
2025-01-19 06:56:26.027208	70.3	46.5	-94.8	0.0
2025-01-19 06:56:27.149820	70.8	46.7	-94.7	0.0
2025-01-19 06:56:28.272392	71.4	46.9	-94.9	0.0
2025-01-19 06:56:29.395575	72.0	47.0	-94.9	0.0
2025-01-19 06:56:30.516290	72.6	47.2	-95.0	0.0
2025-01-19 06:56:31.636704	73.2	47.3	-95.1	0.0
2025-01-19 06:56:32.758200	73.7	47.5	-95.0	0.0
2025-01-19 06:56:33.879196	74.4	47.7	-94.7	0.0
2025-01-19 06:56:35.001812	75.0	47.8	-94.8	0.0
2025-01-19 06:56:36.124212	75.6	48.0	-94.6	0.0
2025-01-19 06:56:37.244175	76.2	48.1	-95.1	0.0
2025-01-19 06:56:38.366261	76.8	48.2	-94.8	0.0
2025-01-19 06:56:39.485029	77.5	48.4	-94.7	0.0
2025-01-19 06:56:40.605377	78.1	48.5	-94.7	0.0
2025-01-19 06:56:41.725947	78.7	48.7	-94.9	0.0
2025-01-19 06:56:42.847347	79.4	48.8	-94.9	0.0
2025-01-19 06:56:43.967525	80.0	48.9	-95.0	0.0
2025-01-19 06:56:45.089138	80.7	49.0	-94.8	0.0
2025-01-19 06:56:46.211035	81.4	49.2	-94.8	0.0
2025-01-19 06:56:47.332901	82.0	49.3	-94.7	0.0
2025-01-19 06:56:48.454650	82.7	49.4	-94.7	0.0
2025-01-19 06:56:49.576574	83.4	49.5	-94.7	0.0
2025-01-19 06:56:50.699239	84.1	49.6	-94.7	0.0
2025-01-19 06:56:51.819716	84.8	49.7	-94.8	0.0
2025-01-19 06:56:52.940371	85.5	49.8	-95.2	0.0
2025-01-19 06:56:54.061244	86.2	49.9	-94.6	0.0
2025-01-19 06:56:55.181310	86.9	50.0	-94.7	0.0
2025-01-19 06:56:56.301310	87.6	50.0	-94.5	0.0
2025-01-19 06:56:57.421293	88.3	50.1	-95.0	0.0
2025-01-19 06:56:58.538497	89.0	50.2	-94.8	0.0
2025-01-19 06:56:59.659264	89.7	50.3	-94.7	0.0
2025-01-19 06:57:00.781048	90.4	50.3	-94.8	0.0
2025-01-19 06:57:01.902078	91.1	50.4	-94.8	0.0
2025-01-19 06:57:03.024216	91.9	50.4	-94.8	0.0
2025-01-19 06:57:04.145290	92.6	50.5	-94.7	0.0
2025-01-19 06:57:05.265857	93.3	50.5	-94.6	0.0
2025-01-19 06:57:06.387920	94.0	50.6	-94.8	0.0
2025-01-19 06:57:07.510699	94.8	50.6	-94.9	0.0
2025-01-19 06:57:08.632140	95.5	50.6	-95.0	0.0
2025-01-19 06:57:09.752271	96.3	50.7	-95.1	0.0
2025-01-19 06:57:10.874345	97.0	50.7	-95.0	0.0
2025-01-19 06:57:11.995413	97.7	50.7	-95.1	0.0
2025-01-19 06:57:13.116399	98.5	50.7	-94.9	0.0
2025-01-19 06:57:14.237331	99.2	50.7	-95.1	0.0
2025-01-19 06:57:15.358341	100.0	50.7	-95.2	0.0
2025-01-19 06:57:16.480548	100.7	50.7	-95.0	0.0
2025-01-19 06:57:17.604120	101.4	50.7	-94.9	0.0
2025-01-19 06:57:18.726021	102.2	50.7	-94.9	0.0
2025-01-19 06:57:19.847721	102.9	50.7	-95.0	0.0
2025-01-19 06:57:20.970352	103.7	50.7	-94.8	0.0
2025-01-19 06:57:22.091534	104.4	50.6	-94.5	0.0
2025-01-19 06:57:23.213753	105.1	50.6	-94.6	0.0
2025-01-19 06:57:24.335116	105.9	50.6	-94.6	0.0
2025-01-19 06:57:25.454073	106.6	50.5	-94.9	0.0
2025-01-19 06:57:26.576429	107.3	50.5	-94.7	0.0
2025-01-19 06:57:27.695616	108.0	50.4	-94.6	0.0
2025-01-19 06:57:28.815954	108.8	50.4	-94.7	0.0
2025-01-19 06:57:29.939242	109.5	50.3	-94.7	0.0
2025-01-19 06:57:31.059452	110.2	50.2	-94.7	0.0
2025-01-19 06:57:32.181990	110.9	50.2	-94.8	0.0
2025-01-19 06:57:33.304323	111.6	50.1	-94.9	0.0
2025-01-19 06:57:34.426021	112.3	50.0	-94.8	0.0
2025-01-19 06:57:35.547358	113.1	49.9	-95.0	0.0
2025-01-19 06:57:36.667699	113.8	49.8	-94.9	0.0
2025-01-19 06:57:37.791012	114.4	49.7	-94.8	0.0
2025-01-19 06:57:38.912715	115.1	49.7	-94.9	0.0
2025-01-19 06:57:40.033809	115.8	49.6	-94.9	0.0
2025-01-19 06:57:41.156170	116.5	49.4	-94.9	0.0
2025-01-19 06:57:42.276513	117.2	49.3	-94.9	0.0
2025-01-19 06:57:43.396684	117.9	49.2	-95.0	0.0
2025-01-19 06:57:44.517769	118.5	49.1	-94.9	0.0
2025-01-19 06:57:45.639663	119.2	49.0	-94.9	0.0
2025-01-19 06:57:46.759736	119.9	48.9	-95.1	0.0
2025-01-19 06:57:47.881383	120.5	48.7	-95.1	0.0
2025-01-19 06:57:49.003980	121.2	48.6	-94.9	0.0
2025-01-19 06:57:50.126067	121.8	48.5	-94.8	0.0
2025-01-19 06:57:51.246946	122.4	48.3	-94.9	0.0
2025-01-19 06:57:52.369065	123.1	48.2	-94.7	0.0
2025-01-19 06:57:53.490849	123.7	48.0	-94.8	0.0
2025-01-19 06:57:54.611246	124.3	47.9	-94.9	0.0
2025-01-19 06:57:55.733262	124.9	47.7	-94.8	0.0
2025-01-19 06:57:56.854051	125.5	47.6	-95.0	0.0
2025-01-19 06:57:57.976332	126.1	47.4	-94.9	0.0
2025-01-19 06:57:59.096595	126.7	47.3	-95.0	0.0
2025-01-19 06:58:00.217737	127.3	47.1	-94.7	0.0
2025-01-19 06:58:01.338202	127.9	47.0	-95.0	0.0
2025-01-19 06:58:02.460113	128.5	46.8	-95.1	0.0
2025-01-19 06:58:03.581251	129.1	46.6	-94.7	0.0
2025-01-19 06:58:04.702413	129.6	46.4	-94.9	0.0
2025-01-19 06:58:05.822059	130.2	46.3	-95.0	0.0
2025-01-19 06:58:06.943544	130.7	46.1	-94.8	0.0
2025-01-19 06:58:08.064107	131.3	45.9	-95.2	0.0
2025-01-19 06:58:09.183478	131.8	45.7	-94.8	0.0
2025-01-19 06:58:10.305634	132.4	45.6	-94.7	0.0
2025-01-19 06:58:11.428370	132.9	45.4	-94.8	0.0
2025-01-19 06:58:12.549011	133.4	45.2	-94.7	0.0
2025-01-19 06:58:13.670054	133.9	45.0	-95.1	0.0
2025-01-19 06:58:14.791191	134.4	44.8	-95.1	0.0
2025-01-19 06:58:15.911674	134.9	44.6	-94.8	0.0
2025-01-19 06:58:17.033381	135.4	44.4	-94.8	0.0
2025-01-19 06:58:18.152471	135.9	44.2	-94.8	0.0
2025-01-19 06:58:19.274112	136.4	44.0	-94.8	0.0
2025-01-19 06:58:20.395591	136.9	43.8	-94.8	0.0
2025-01-19 06:58:21.515129	137.4	43.6	-94.7	0.0
2025-01-19 06:58:22.635310	137.8	43.5	-94.8	0.0
2025-01-19 06:58:23.755595	138.3	43.3	-94.8	0.0
2025-01-19 06:58:24.876949	138.8	43.1	-94.9	0.0
2025-01-19 06:58:26.000929	139.2	42.9	-94.9	0.0
2025-01-19 06:58:27.123506	139.7	42.6	-94.8	0.0
2025-01-19 06:58:28.243895	140.1	42.4	-94.9	0.0
2025-01-19 06:58:29.366924	140.5	42.2	-94.6	0.0
2025-01-19 06:58:30.488273	141.0	42.0	-94.7	0.0
2025-01-19 06:58:31.610452	141.4	41.8	-94.6	0.0
2025-01-19 06:58:32.731282	141.8	41.6	-94.6	0.0
2025-01-19 06:58:33.852927	142.2	41.4	-94.8	0.0
2025-01-19 06:58:34.974538	142.6	41.2	-94.9	0.0
2025-01-19 06:58:36.095414	143.1	41.0	-94.8	0.0
2025-01-19 06:58:37.216667	143.5	40.8	-95.2	0.0
2025-01-19 06:58:38.337302	143.8	40.6	-95.0	0.0
2025-01-19 06:58:39.460430	144.2	40.4	-94.6	0.0
2025-01-19 06:58:40.580616	144.6	40.2	-94.9	0.0
2025-01-19 06:58:41.703115	145.0	40.0	-95.1	0.0
2025-01-19 06:58:42.825240	145.4	39.8	-95.2	0.0
2025-01-19 06:58:43.945821	145.7	39.6	-95.0	0.0
2025-01-19 06:58:45.070186	146.1	39.3	-94.7	0.0
2025-01-19 06:58:46.189357	146.5	39.1	-94.8	0.0
2025-01-19 06:58:47.309372	146.8	38.9	-94.9	0.0
2025-01-19 06:58:48.429949	147.2	38.7	-94.8	0.0
2025-01-19 06:58:49.551234	147.5	38.5	-94.9	0.0
2025-01-19 06:58:50.673414	147.9	38.3	-94.8	0.0
2025-01-19 06:58:51.795801	148.2	38.1	-95.0	0.0
2025-01-19 06:58:52.915422	148.5	37.9	-94.7	0.0
2025-01-19 06:58:54.036742	148.9	37.7	-94.8	0.0
2025-01-19 06:58:55.158866	149.2	37.5	-94.5	0.0
2025-01-19 06:58:56.279608	149.5	37.3	-94.4	0.0
2025-01-19 06:58:57.399911	149.8	37.1	-94.6	0.0
2025-01-19 06:58:58.520250	150.2	36.9	-94.7	0.0
2025-01-19 06:58:59.641344	150.5	36.7	-94.5	0.0
2025-01-19 06:59:00.763568	150.8	36.4	-94.7	0.0
2025-01-19 06:59:01.885341	151.1	36.2	-94.5	0.0
2025-01-19 06:59:03.009391	151.4	36.0	-94.6	0.0
2025-01-19 06:59:04.130157	151.7	35.8	-94.7	0.0
2025-01-19 06:59:05.251645	152.0	35.6	-94.9	0.0
2025-01-19 06:59:06.374310	152.3	35.4	-94.7	0.0
2025-01-19 06:59:07.496971	152.5	35.2	-94.8	0.0
2025-01-19 06:59:08.619032	152.8	35.0	-94.9	0.0
2025-01-19 06:59:09.740381	153.1	34.8	-95.0	0.0
2025-01-19 06:59:10.864372	153.4	34.6	-94.7	0.0
2025-01-19 06:59:11.985246	153.6	34.4	-94.8	0.0
2025-01-19 06:59:13.104877	153.9	34.2	-94.8	0.0
2025-01-19 06:59:14.227066	154.2	34.0	-94.9	0.0
2025-01-19 06:59:15.347305	154.4	33.8	-94.9	0.0
2025-01-19 06:59:16.467800	154.7	33.6	-94.9	0.0
2025-01-19 06:59:17.590782	155.0	33.4	-94.5	0.0
2025-01-19 06:59:18.712306	155.2	33.2	-94.8	0.0
2025-01-19 06:59:19.832727	155.5	33.0	-94.8	0.0
2025-01-19 06:59:20.954065	155.7	32.8	-94.6	0.0
2025-01-19 06:59:22.076392	155.9	32.6	-94.9	0.0
2025-01-19 06:59:23.196643	156.2	32.5	-94.9	0.0
2025-01-19 06:59:24.317709	156.4	32.3	-94.8	0.0
2025-01-19 06:59:25.440197	156.7	32.1	-94.8	0.0
2025-01-19 06:59:26.562029	156.9	31.9	-94.9	0.0
2025-01-19 06:59:27.684087	157.1	31.7	-94.9	0.0
2025-01-19 06:59:28.804514	157.4	31.5	-95.2	0.0
2025-01-19 06:59:29.924641	157.6	31.3	-94.9	0.0
2025-01-19 06:59:31.046704	157.8	31.1	-95.0	0.0
2025-01-19 06:59:32.168601	158.0	30.9	-94.9	0.0
2025-01-19 06:59:33.289387	158.2	30.7	-94.8	0.0
2025-01-19 06:59:34.411079	158.5	30.6	-94.9	0.0
2025-01-19 06:59:35.532327	158.7	30.4	-95.1	0.0
2025-01-19 06:59:36.653635	158.9	30.2	-95.1	0.0
2025-01-19 06:59:37.773977	159.1	30.0	-94.9	0.0
2025-01-19 06:59:38.894484	159.3	29.8	-94.8	0.0
2025-01-19 06:59:40.015928	159.5	29.6	-94.7	0.0
2025-01-19 06:59:41.137009	159.7	29.5	-94.8	0.0
2025-01-19 06:59:42.257016	159.9	29.3	-94.9	0.0
2025-01-19 06:59:43.378859	160.1	29.1	-94.7	0.0
2025-01-19 06:59:44.501769	160.3	28.9	-94.7	0.0
2025-01-19 06:59:45.624638	160.5	28.7	-94.8	0.0
2025-01-19 06:59:46.744407	160.7	28.6	-94.6	0.0
2025-01-19 06:59:47.865758	160.9	28.4	-94.6	0.0
2025-01-19 06:59:48.986331	161.0	28.2	-94.6	0.0
2025-01-19 06:59:50.106843	161.2	28.0	-94.6	0.0
2025-01-19 06:59:51.229427	161.4	27.9	-94.6	0.0
2025-01-19 06:59:52.348229	161.6	27.7	-95.0	0.0
2025-01-19 06:59:53.471590	161.8	27.5	-94.6	0.0
2025-01-19 06:59:54.593384	161.9	27.3	-94.7	0.0
2025-01-19 06:59:55.715523	162.1	27.2	-94.7	0.0
2025-01-19 06:59:56.840498	162.3	27.0	-94.9	0.0
2025-01-19 06:59:57.961853	162.5	26.8	-95.0	0.0
2025-01-19 06:59:59.084891	162.6	26.7	-95.0	0.0
2025-01-19 07:00:00.206307	162.8	26.5	-95.1	0.0
2025-01-19 07:00:01.327979	163.0	26.3	-94.9	0.0
2025-01-19 07:00:02.446183	163.1	26.2	-94.9	0.0
2025-01-19 07:00:03.567356	163.3	26.0	-95.1	0.0
2025-01-19 07:00:04.688548	163.5	25.8	-95.1	0.0
2025-01-19 07:00:05.810088	163.6	25.7	-94.8	0.0
2025-01-19 07:00:06.930822	163.8	25.5	-95.0	0.0
2025-01-19 07:00:08.050817	163.9	25.3	-95.0	0.0
2025-01-19 07:00:09.174092	164.1	25.2	-94.9	0.0
2025-01-19 07:00:10.295438	164.2	25.0	-94.8	0.0
2025-01-19 07:00:11.416233	164.4	24.9	-94.7	0.0
2025-01-19 07:00:12.538909	164.5	24.7	-95.0	0.0
2025-01-19 07:00:13.660592	164.7	24.5	-94.8	0.0
2025-01-19 07:00:14.780757	164.8	24.4	-94.9	0.0
2025-01-19 07:00:15.903331	165.0	24.2	-94.7	0.0
2025-01-19 07:00:17.023950	165.1	24.1	-94.7	0.0
2025-01-19 07:00:18.143590	165.3	23.9	-94.9	0.0
2025-01-19 07:00:19.265947	165.4	23.8	-94.8	0.0
2025-01-19 07:00:20.386296	165.5	23.6	-94.9	0.0
2025-01-19 07:00:21.506982	165.7	23.4	-94.7	0.0
2025-01-19 07:00:22.629882	165.8	23.3	-94.8	0.0
2025-01-19 07:00:23.752521	166.0	23.1	-94.9	0.0
2025-01-19 07:00:24.875116	166.1	23.0	-94.7	0.0
2025-01-19 07:00:25.995579	166.2	22.8	-94.6	0.0
2025-01-19 07:00:27.115142	166.4	22.7	-94.7	0.0
2025-01-19 07:00:28.236653	166.5	22.5	-94.9	0.0
2025-01-19 07:00:29.360492	166.6	22.4	-94.9	0.0
2025-01-19 07:00:30.481984	166.7	22.2	-95.0	0.0
2025-01-19 07:00:31.603389	166.9	22.1	-94.8	0.0
2025-01-19 07:00:32.725055	167.0	22.0	-94.9	0.0
2025-01-19 07:00:33.847451	167.1	21.8	-95.0	0.0
2025-01-19 07:00:34.969389	167.3	21.7	-94.6	0.0
2025-01-19 07:00:36.087854	167.4	21.5	-95.1	0.0
2025-01-19 07:00:37.211016	167.5	21.4	-94.9	0.0
2025-01-19 07:00:38.331268	167.6	21.2	-95.1	0.0
2025-01-19 07:00:39.451320	167.7	21.1	-94.9	0.0
2025-01-19 07:00:40.573557	167.9	20.9	-94.8	0.0
2025-01-19 07:00:41.696210	168.0	20.8	-94.8	0.0
2025-01-19 07:00:42.815303	168.1	20.7	-94.9	0.0
2025-01-19 07:00:43.938118	168.2	20.5	-95.0	0.0
2025-01-19 07:00:45.059372	168.3	20.4	-94.8	0.0
2025-01-19 07:00:46.181239	168.4	20.3	-94.8	0.0
2025-01-19 07:00:47.302309	168.6	20.1	-95.0	0.0
2025-01-19 07:00:48.424910	168.7	20.0	-95.0	0.0
2025-01-19 07:00:49.544388	168.8	19.8	-95.1	0.0
2025-01-19 07:00:50.669500	168.9	19.7	-95.1	0.0
2025-01-19 07:00:51.791797	169.0	19.6	-95.1	0.0
2025-01-19 07:00:52.914233	169.1	19.4	-95.0	0.0
2025-01-19 07:00:54.035360	169.2	19.3	-94.9	0.0
2025-01-19 07:00:55.156672	169.3	19.2	-94.9	0.0
2025-01-19 07:00:56.276346	169.4	19.0	-94.9	0.0
2025-01-19 07:00:57.396375	169.5	18.9	-95.1	0.0
2025-01-19 07:00:58.518375	169.6	18.8	-95.1	0.0
2025-01-19 07:00:59.639710	169.7	18.6	-95.0	0.0
2025-01-19 07:01:00.758813	169.8	18.5	-94.9	0.0
2025-01-19 07:01:01.878934	169.9	18.4	-94.7	0.0
2025-01-19 07:01:03.002346	170.0	18.3	-94.7	0.0
2025-01-19 07:01:04.124389	170.1	18.1	-94.8	0.0
2025-01-19 07:01:05.243885	170.2	18.0	-95.0	0.0
2025-01-19 07:01:06.365855	170.3	17.9	-94.7	0.0
2025-01-19 07:01:07.485361	170.4	17.8	-94.8	0.0
2025-01-19 07:01:08.607464	170.5	17.6	-94.8	0.0
2025-01-19 07:01:09.729507	170.6	17.5	-94.7	0.0
2025-01-19 07:01:10.848854	170.7	17.4	-94.9	0.0
2025-01-19 07:01:11.970998	170.8	17.3	-94.8	0.0
2025-01-19 07:01:13.093906	170.9	17.1	-94.9	0.0
2025-01-19 07:01:14.214433	171.0	17.0	-94.7	0.0
2025-01-19 07:01:15.335216	171.1	16.9	-94.5	0.0
2025-01-19 07:01:16.456262	171.2	16.8	-94.9	0.0
2025-01-19 07:01:17.577998	171.3	16.6	-94.9	0.0
2025-01-19 07:01:18.699427	171.4	16.5	-95.0	0.0
2025-01-19 07:01:19.818356	171.4	16.4	-94.5	0.0
2025-01-19 07:01:20.939486	171.5	16.3	-94.7	0.0
2025-01-19 07:01:22.061308	171.6	16.2	-95.0	0.0
2025-01-19 07:01:23.184054	171.7	16.0	-95.0	0.0
2025-01-19 07:01:24.305703	171.8	15.9	-94.9	0.0
2025-01-19 07:01:25.426496	171.9	15.8	-95.0	0.0
2025-01-19 07:01:26.548304	172.0	15.7	-94.9	0.0
2025-01-19 07:01:27.668674	172.1	15.6	-95.0	0.0
2025-01-19 07:01:28.790742	172.1	15.5	-95.1	0.0
2025-01-19 07:01:29.912389	172.2	15.3	-94.9	0.0
2025-01-19 07:01:31.032866	172.3	15.2	-95.1	0.0
2025-01-19 07:01:32.155784	172.4	15.1	-94.9	0.0
2025-01-19 07:01:33.277243	172.5	15.0	-95.1	0.0
2025-01-19 07:01:34.398616	172.5	14.9	-94.9	0.0
2025-01-19 07:01:35.518382	172.6	14.8	-95.1	0.0
2025-01-19 07:01:36.639460	172.7	14.7	-95.0	0.0
2025-01-19 07:01:37.760156	172.8	14.5	-95.0	0.0
2025-01-19 07:01:38.881092	172.9	14.4	-94.8	0.0
2025-01-19 07:01:40.003561	172.9	14.3	-95.0	0.0
2025-01-19 07:01:41.125433	173.0	14.2	-95.1	0.0
2025-01-19 07:01:42.245376	173.1	14.1	-94.7	0.0
2025-01-19 07:01:43.365292	173.2	14.0	-94.7	0.0
2025-01-19 07:01:44.486380	173.2	13.9	-94.7	0.0
2025-01-19 07:01:45.608116	173.3	13.8	-94.9	0.0
2025-01-19 07:01:46.727322	173.4	13.7	-94.9	0.0
2025-01-19 07:01:47.849048	173.5	13.6	-94.7	0.0
2025-01-19 07:01:48.969790	173.5	13.5	-94.7	0.0
2025-01-19 07:01:50.091855	173.6	13.3	-94.8	0.0
2025-01-19 07:01:51.214496	173.7	13.2	-94.8	0.0
2025-01-19 07:01:52.334769	173.8	13.1	-95.0	0.0
2025-01-19 07:01:53.456182	173.8	13.0	-94.7	0.0
2025-01-19 07:01:54.578250	173.9	12.9	-94.9	0.0
2025-01-19 07:01:55.699254	174.0	12.8	-94.7	0.0
2025-01-19 07:01:56.820712	174.0	12.7	-95.0	0.0
2025-01-19 07:01:57.943026	174.1	12.6	-94.8	0.0
2025-01-19 07:01:59.064763	174.2	12.5	-94.8	0.0
2025-01-19 07:02:00.187530	174.3	12.4	-94.8	0.0
2025-01-19 07:02:01.308724	174.3	12.3	-95.1	0.0
2025-01-19 07:02:02.430762	174.4	12.2	-95.0	0.0
2025-01-19 07:02:03.551840	174.5	12.1	-94.9	0.0
2025-01-19 07:02:04.673890	174.5	12.0	-94.9	0.0
2025-01-19 07:02:05.794526	174.6	11.9	-95.1	0.0
2025-01-19 07:02:06.915299	174.7	11.8	-95.0	0.0
2025-01-19 07:02:08.036255	174.7	11.7	-95.0	0.0
2025-01-19 07:02:09.155394	174.8	11.6	-95.0	0.0
2025-01-19 07:02:10.276157	174.9	11.5	-94.9	0.0
2025-01-19 07:02:11.398437	174.9	11.4	-95.1	0.0
2025-01-19 07:02:12.519424	175.0	11.3	-94.9	0.0
2025-01-19 07:02:13.640441	175.0	11.2	-95.1	0.0
2025-01-19 07:02:14.761851	175.1	11.1	-95.1	0.0
2025-01-19 07:02:15.884329	175.2	11.0	-95.1	0.0
2025-01-19 07:02:17.005909	175.2	10.9	-95.0	0.0
2025-01-19 07:02:18.127870	175.3	10.8	-94.9	0.0
2025-01-19 07:02:19.249890	175.4	10.7	-95.3	0.0
2025-01-19 07:02:20.372400	175.4	10.6	-95.0	0.0
2025-01-19 07:02:21.494246	175.5	10.5	-95.0	0.0
2025-01-19 07:02:22.616329	175.5	10.4	-95.2	0.0
2025-01-19 07:02:23.737085	175.6	10.3	-95.2	0.0
2025-01-19 07:02:24.857527	175.7	10.2	-94.9	0.0
2025-01-19 07:02:25.979219	175.7	10.1	-95.1	0.0
2025-01-19 07:02:27.101055	175.8	10.0	-94.9	0.0
#Closed at: 2025-01-19 06:51:55.443531