passes_logs/2025/01/19/planumMaritime01/planumMaritime01__20250119_134359_METEOR-M2_2_rec.log

#Pass ID: 20250119_134359_METEOR-M2 2
#Satellite: METEOR-M2 2
#Configuration: METEOR-M2 2
#Start time: 2025-01-19 13:44:04.674731

#LorettStation: 1.0.0 05.05.2024
#Station: planumMaritime01
#Location: 37.49445 lon 55.92918 lat
#TLE: 1 44387U 19038A   25018.08914431  .00000283  00000+0  14263-3 0  9994
#TLE: 2 44387  98.8572 354.5105 0002264  74.1378 286.0050 14.24118986287972

#Time	Az	El	Level	SNR
2025-01-19 13:44:06.833401	215.0	10.1	-94.7	0.0
2025-01-19 13:44:07.953342	215.2	10.2	-94.7	0.0
2025-01-19 13:44:09.075469	215.3	10.3	-94.4	0.0
2025-01-19 13:44:10.195732	215.4	10.4	-94.5	0.0
2025-01-19 13:44:11.314390	215.6	10.5	-94.5	0.0
2025-01-19 13:44:12.435120	215.7	10.5	-94.6	0.0
2025-01-19 13:44:13.556641	215.8	10.6	-94.5	0.0
2025-01-19 13:44:14.676725	216.0	10.7	-94.5	0.0
2025-01-19 13:44:15.798765	216.1	10.8	-94.8	0.0
2025-01-19 13:44:16.916471	216.2	10.8	-94.7	0.0
2025-01-19 13:44:18.037844	216.4	10.9	-94.5	0.0
2025-01-19 13:44:19.159629	216.5	11.0	-94.4	0.0
2025-01-19 13:44:20.281206	216.6	11.1	-94.4	0.0
2025-01-19 13:44:21.403596	216.8	11.2	-94.7	0.0
2025-01-19 13:44:22.525253	216.9	11.2	-94.7	0.0
2025-01-19 13:44:23.646944	217.1	11.3	-94.9	0.0
2025-01-19 13:44:24.769594	217.2	11.4	-94.8	0.0
2025-01-19 13:44:25.891127	217.3	11.5	-94.7	0.0
2025-01-19 13:44:27.011267	217.5	11.6	-94.5	0.0
2025-01-19 13:44:28.133178	217.6	11.6	-94.6	0.0
2025-01-19 13:44:29.253833	217.8	11.7	-94.4	0.0
2025-01-19 13:44:30.376033	217.9	11.8	-94.3	0.0
2025-01-19 13:44:31.497363	218.1	11.9	-94.5	0.0
2025-01-19 13:44:32.618752	218.2	12.0	-94.5	0.0
2025-01-19 13:44:33.739525	218.4	12.0	-94.4	0.0
2025-01-19 13:44:34.861927	218.5	12.1	-94.2	0.0
2025-01-19 13:44:35.980629	218.7	12.2	-94.2	0.0
2025-01-19 13:44:37.102702	218.8	12.3	-94.2	0.0
2025-01-19 13:44:38.223593	219.0	12.4	-94.5	0.0
2025-01-19 13:44:39.343811	219.1	12.4	-94.5	0.0
2025-01-19 13:44:40.464730	219.3	12.5	-94.3	0.0
2025-01-19 13:44:41.585181	219.4	12.6	-94.4	0.0
2025-01-19 13:44:42.706954	219.6	12.7	-94.5	0.0
2025-01-19 13:44:43.826637	219.7	12.8	-94.5	0.0
2025-01-19 13:44:44.946645	219.9	12.8	-94.5	0.0
2025-01-19 13:44:46.068633	220.0	12.9	-94.4	0.0
2025-01-19 13:44:47.188667	220.2	13.0	-94.3	0.0
2025-01-19 13:44:48.311549	220.3	13.1	-94.5	0.0
2025-01-19 13:44:49.432751	220.5	13.2	-94.6	0.0
2025-01-19 13:44:50.552944	220.7	13.2	-94.6	0.0
2025-01-19 13:44:51.674830	220.8	13.3	-94.5	0.0
2025-01-19 13:44:52.796621	221.0	13.4	-94.4	0.0
2025-01-19 13:44:53.917668	221.1	13.5	-94.5	0.0
2025-01-19 13:44:55.038815	221.3	13.6	-94.5	0.0
2025-01-19 13:44:56.158820	221.5	13.6	-94.9	0.0
2025-01-19 13:44:57.281711	221.6	13.7	-94.7	0.0
2025-01-19 13:44:58.403239	221.8	13.8	-94.5	0.0
2025-01-19 13:44:59.523466	222.0	13.9	-94.6	0.0
2025-01-19 13:45:00.644519	222.1	14.0	-94.6	0.0
2025-01-19 13:45:01.766576	222.3	14.1	-94.8	0.0
2025-01-19 13:45:02.887941	222.5	14.1	-94.7	0.0
2025-01-19 13:45:04.008256	222.6	14.2	-94.7	0.0
2025-01-19 13:45:05.129600	222.8	14.3	-94.7	0.0
2025-01-19 13:45:06.249912	223.0	14.4	-94.9	0.0
2025-01-19 13:45:07.373189	223.1	14.5	-94.6	0.0
2025-01-19 13:45:08.494558	223.3	14.5	-94.5	0.0
2025-01-19 13:45:09.614694	223.5	14.6	-94.9	0.0
2025-01-19 13:45:10.737440	223.7	14.7	-94.8	0.0
2025-01-19 13:45:11.857733	223.8	14.8	-94.7	0.0
2025-01-19 13:45:12.979155	224.0	14.9	-94.6	0.0
2025-01-19 13:45:14.100594	224.2	15.0	-94.7	0.0
2025-01-19 13:45:15.221069	224.4	15.0	-94.6	0.0
2025-01-19 13:45:16.344345	224.6	15.1	-94.7	0.0
2025-01-19 13:45:17.465730	224.7	15.2	-94.3	0.0
2025-01-19 13:45:18.588548	224.9	15.3	-95.0	0.0
2025-01-19 13:45:19.711927	225.1	15.4	-94.6	0.0
2025-01-19 13:45:20.833000	225.3	15.5	-94.9	0.0
2025-01-19 13:45:21.953169	225.5	15.5	-94.7	0.0
2025-01-19 13:45:23.072724	225.7	15.6	-94.6	0.0
2025-01-19 13:45:24.193280	225.8	15.7	-94.6	0.0
2025-01-19 13:45:25.314717	226.0	15.8	-94.4	0.0
2025-01-19 13:45:26.436730	226.2	15.9	-94.7	0.0
2025-01-19 13:45:27.558885	226.4	15.9	-94.7	0.0
2025-01-19 13:45:28.679598	226.6	16.0	-94.6	0.0
2025-01-19 13:45:29.801859	226.8	16.1	-94.4	0.0
2025-01-19 13:45:30.922622	227.0	16.2	-94.4	0.0
2025-01-19 13:45:32.044754	227.2	16.3	-94.6	0.0
2025-01-19 13:45:33.165099	227.4	16.4	-94.6	0.0
2025-01-19 13:45:34.284740	227.6	16.4	-94.5	0.0
2025-01-19 13:45:35.405737	227.8	16.5	-94.3	0.0
2025-01-19 13:45:36.526055	228.0	16.6	-94.4	0.0
2025-01-19 13:45:37.648632	228.2	16.7	-94.5	0.0
2025-01-19 13:45:38.768899	228.4	16.8	-94.5	0.0
2025-01-19 13:45:39.893334	228.6	16.9	-94.5	0.0
2025-01-19 13:45:41.013807	228.8	16.9	-94.6	0.0
2025-01-19 13:45:42.135001	229.0	17.0	-94.6	0.0
2025-01-19 13:45:43.256088	229.2	17.1	-94.8	0.0
2025-01-19 13:45:44.377145	229.4	17.2	-94.8	0.0
2025-01-19 13:45:45.498211	229.6	17.3	-94.6	0.0
2025-01-19 13:45:46.617875	229.8	17.3	-94.6	0.0
2025-01-19 13:45:47.740864	230.0	17.4	-94.9	0.0
2025-01-19 13:45:48.863390	230.2	17.5	-94.9	0.0
2025-01-19 13:45:49.983556	230.4	17.6	-94.5	0.0
2025-01-19 13:45:51.104891	230.6	17.7	-94.8	0.0
2025-01-19 13:45:52.228599	230.9	17.7	-94.7	0.0
2025-01-19 13:45:53.348814	231.1	17.8	-94.9	0.0
2025-01-19 13:45:54.472380	231.3	17.9	-94.9	0.0
2025-01-19 13:45:55.594204	231.5	18.0	-94.9	0.0
2025-01-19 13:45:56.713314	231.7	18.1	-94.9	0.0
2025-01-19 13:45:57.833628	231.9	18.2	-94.7	0.0
2025-01-19 13:45:58.955796	232.2	18.2	-95.0	0.0
2025-01-19 13:46:00.078598	232.4	18.3	-94.6	0.0
2025-01-19 13:46:01.200684	232.6	18.4	-94.8	0.0
2025-01-19 13:46:02.321404	232.8	18.5	-94.9	0.0
2025-01-19 13:46:03.443157	233.1	18.6	-94.8	0.0
2025-01-19 13:46:04.565782	233.3	18.6	-94.6	0.0
2025-01-19 13:46:05.686818	233.5	18.7	-94.7	0.0
2025-01-19 13:46:06.806640	233.7	18.8	-94.3	0.0
2025-01-19 13:46:07.927599	234.0	18.9	-94.4	0.0
2025-01-19 13:46:09.049673	234.2	18.9	-94.4	0.0
2025-01-19 13:46:10.171502	234.4	19.0	-94.7	0.0
2025-01-19 13:46:11.292773	234.7	19.1	-94.7	0.0
2025-01-19 13:46:12.413079	234.9	19.2	-94.4	0.0
2025-01-19 13:46:13.535737	235.1	19.3	-94.5	0.0
2025-01-19 13:46:14.659117	235.4	19.3	-94.6	0.0
2025-01-19 13:46:15.780567	235.6	19.4	-94.8	0.0
2025-01-19 13:46:16.903928	235.9	19.5	-94.4	0.0
2025-01-19 13:46:18.024703	236.1	19.6	-94.7	0.0
2025-01-19 13:46:19.145587	236.3	19.6	-94.8	0.0
2025-01-19 13:46:20.266445	236.6	19.7	-94.7	0.0
2025-01-19 13:46:21.389803	236.8	19.8	-94.8	0.0
2025-01-19 13:46:22.511505	237.1	19.9	-95.0	0.0
2025-01-19 13:46:23.633162	237.3	19.9	-94.6	0.0
2025-01-19 13:46:24.756100	237.6	20.0	-94.8	0.0
2025-01-19 13:46:25.879059	237.8	20.1	-94.8	0.0
2025-01-19 13:46:26.999303	238.1	20.2	-94.7	0.0
2025-01-19 13:46:28.120459	238.3	20.2	-94.5	0.0
2025-01-19 13:46:29.243709	238.6	20.3	-94.7	0.0
2025-01-19 13:46:30.365808	238.8	20.4	-95.2	0.0
2025-01-19 13:46:31.486762	239.1	20.5	-95.0	0.0
2025-01-19 13:46:32.608382	239.3	20.5	-94.8	0.0
2025-01-19 13:46:33.728416	239.6	20.6	-94.8	0.0
2025-01-19 13:46:34.847293	239.8	20.7	-94.6	0.0
2025-01-19 13:46:35.971292	240.1	20.8	-94.9	0.0
2025-01-19 13:46:37.092783	240.4	20.8	-95.0	0.0
2025-01-19 13:46:38.215131	240.6	20.9	-95.0	0.0
2025-01-19 13:46:39.335778	240.9	21.0	-94.7	0.0
2025-01-19 13:46:40.456633	241.1	21.0	-94.7	0.0
2025-01-19 13:46:41.578311	241.4	21.1	-94.7	0.0
2025-01-19 13:46:42.698586	241.7	21.2	-95.0	0.0
2025-01-19 13:46:43.819514	241.9	21.3	-94.9	0.0
2025-01-19 13:46:44.943468	242.2	21.3	-94.8	0.0
2025-01-19 13:46:46.064945	242.5	21.4	-94.8	0.0
2025-01-19 13:46:47.185926	242.8	21.5	-95.0	0.0
2025-01-19 13:46:48.305758	243.0	21.5	-95.0	0.0
2025-01-19 13:46:49.426836	243.3	21.6	-94.6	0.0
2025-01-19 13:46:50.546267	243.6	21.7	-94.7	0.0
2025-01-19 13:46:51.669272	243.9	21.7	-94.6	0.0
2025-01-19 13:46:52.789602	244.1	21.8	-94.8	0.0
2025-01-19 13:46:53.909903	244.4	21.9	-94.6	0.0
2025-01-19 13:46:55.030611	244.7	21.9	-94.5	0.0
2025-01-19 13:46:56.150895	245.0	22.0	-94.7	0.0
2025-01-19 13:46:57.272059	245.2	22.0	-94.6	0.0
2025-01-19 13:46:58.395125	245.5	22.1	-94.5	0.0
2025-01-19 13:46:59.514083	245.8	22.2	-94.6	0.0
2025-01-19 13:47:00.635773	246.1	22.2	-94.6	0.0
2025-01-19 13:47:01.755169	246.4	22.3	-94.5	0.0
2025-01-19 13:47:02.876737	246.7	22.4	-94.7	0.0
2025-01-19 13:47:03.998618	247.0	22.4	-94.7	0.0
2025-01-19 13:47:05.118613	247.2	22.5	-94.7	0.0
2025-01-19 13:47:06.239668	247.5	22.5	-94.7	0.0
2025-01-19 13:47:07.362068	247.8	22.6	-94.6	0.0
2025-01-19 13:47:08.482062	248.1	22.6	-94.8	0.0
2025-01-19 13:47:09.601786	248.4	22.7	-94.5	0.0
2025-01-19 13:47:10.721704	248.7	22.8	-94.7	0.0
2025-01-19 13:47:11.843385	249.0	22.8	-94.6	0.0
2025-01-19 13:47:12.964554	249.3	22.9	-94.4	0.0
2025-01-19 13:47:14.086282	249.6	22.9	-94.7	0.0
2025-01-19 13:47:15.206656	249.9	23.0	-94.9	0.0
2025-01-19 13:47:16.329253	250.2	23.0	-94.8	0.0
2025-01-19 13:47:17.450781	250.5	23.1	-94.7	0.0
2025-01-19 13:47:18.573619	250.8	23.1	-94.8	0.0
2025-01-19 13:47:19.693262	251.1	23.2	-94.6	0.0
2025-01-19 13:47:20.814004	251.4	23.2	-95.0	0.0
2025-01-19 13:47:21.935486	251.7	23.3	-94.9	0.0
2025-01-19 13:47:23.052891	252.0	23.3	-94.5	0.0
2025-01-19 13:47:24.177024	252.3	23.4	-94.8	0.0
2025-01-19 13:47:25.298191	252.6	23.4	-94.6	0.0
2025-01-19 13:47:26.419430	252.9	23.5	-95.1	0.0
2025-01-19 13:47:27.540728	253.2	23.5	-95.0	0.0
2025-01-19 13:47:28.664792	253.6	23.6	-95.0	0.0
2025-01-19 13:47:29.786254	253.9	23.6	-94.9	0.0
2025-01-19 13:47:30.907988	254.2	23.7	-94.7	0.0
2025-01-19 13:47:32.027798	254.5	23.7	-94.8	0.0
2025-01-19 13:47:33.147549	254.8	23.7	-94.7	0.0
2025-01-19 13:47:34.269379	255.1	23.8	-94.5	0.0
2025-01-19 13:47:35.389708	255.4	23.8	-94.7	0.0
2025-01-19 13:47:36.509856	255.7	23.9	-94.8	0.0
2025-01-19 13:47:37.632621	256.1	23.9	-94.6	0.0
2025-01-19 13:47:38.753841	256.4	23.9	-94.3	0.0
2025-01-19 13:47:39.873939	256.7	24.0	-94.4	0.0
2025-01-19 13:47:40.994931	257.0	24.0	-94.7	0.0
2025-01-19 13:47:42.115528	257.3	24.0	-94.9	0.0
2025-01-19 13:47:43.237914	257.7	24.1	-94.6	0.0
2025-01-19 13:47:44.359255	258.0	24.1	-94.4	0.0
2025-01-19 13:47:45.481118	258.3	24.1	-94.7	0.0
2025-01-19 13:47:46.602834	258.6	24.2	-94.6	0.0
2025-01-19 13:47:47.724556	258.9	24.2	-94.6	0.0
2025-01-19 13:47:48.845046	259.3	24.2	-94.7	0.0
2025-01-19 13:47:49.964510	259.6	24.3	-94.6	0.0
2025-01-19 13:47:51.084737	259.9	24.3	-94.5	0.0
2025-01-19 13:47:52.207502	260.2	24.3	-94.4	0.0
2025-01-19 13:47:53.326308	260.6	24.3	-94.5	0.0
2025-01-19 13:47:54.446725	260.9	24.4	-94.7	0.0
2025-01-19 13:47:55.570104	261.2	24.4	-94.9	0.0
2025-01-19 13:47:56.691443	261.5	24.4	-94.9	0.0
2025-01-19 13:47:57.812209	261.9	24.4	-94.7	0.0
2025-01-19 13:47:58.933577	262.2	24.5	-94.7	0.0
2025-01-19 13:48:00.055184	262.5	24.5	-95.0	0.0
2025-01-19 13:48:01.177385	262.8	24.5	-95.0	0.0
2025-01-19 13:48:02.297651	263.2	24.5	-95.0	0.0
2025-01-19 13:48:03.416858	263.5	24.5	-95.0	0.0
2025-01-19 13:48:04.537737	263.8	24.6	-94.8	0.0
2025-01-19 13:48:05.662426	264.2	24.6	-94.8	0.0
2025-01-19 13:48:06.784806	264.5	24.6	-94.9	0.0
2025-01-19 13:48:07.905360	264.8	24.6	-94.7	0.0
2025-01-19 13:48:09.027771	265.2	24.6	-94.6	0.0
2025-01-19 13:48:10.148345	265.5	24.6	-95.0	0.0
2025-01-19 13:48:11.269679	265.8	24.6	-94.9	0.0
2025-01-19 13:48:12.392830	266.2	24.6	-94.7	0.0
2025-01-19 13:48:13.514851	266.5	24.7	-94.6	0.0
2025-01-19 13:48:14.634637	266.8	24.7	-94.6	0.0
2025-01-19 13:48:15.755769	267.1	24.7	-94.8	0.0
2025-01-19 13:48:16.877077	267.5	24.7	-94.8	0.0
2025-01-19 13:48:17.997161	267.8	24.7	-94.6	0.0
2025-01-19 13:48:19.118417	268.1	24.7	-94.6	0.0
2025-01-19 13:48:20.240220	268.5	24.7	-94.5	0.0
2025-01-19 13:48:21.362922	268.8	24.7	-94.7	0.0
2025-01-19 13:48:22.483761	269.1	24.7	-94.6	0.0
2025-01-19 13:48:23.607136	269.5	24.7	-94.7	0.0
2025-01-19 13:48:24.727576	269.8	24.7	-94.7	0.0
2025-01-19 13:48:25.848342	270.1	24.7	-94.7	0.0
2025-01-19 13:48:26.968951	270.5	24.7	-94.8	0.0
2025-01-19 13:48:28.090138	270.8	24.7	-94.7	0.0
2025-01-19 13:48:29.212317	271.1	24.7	-94.6	0.0
2025-01-19 13:48:30.334609	271.5	24.7	-94.8	0.0
2025-01-19 13:48:31.455383	271.8	24.7	-94.8	0.0
2025-01-19 13:48:32.575697	272.1	24.7	-94.8	0.0
2025-01-19 13:48:33.698072	272.5	24.6	-94.6	0.0
2025-01-19 13:48:34.818891	272.8	24.6	-94.4	0.0
2025-01-19 13:48:35.940658	273.1	24.6	-94.5	0.0
2025-01-19 13:48:37.062435	273.5	24.6	-94.7	0.0
2025-01-19 13:48:38.184857	273.8	24.6	-94.4	0.0
2025-01-19 13:48:39.305644	274.1	24.6	-94.8	0.0
2025-01-19 13:48:40.425923	274.4	24.6	-94.4	0.0
2025-01-19 13:48:41.545725	274.8	24.6	-94.5	0.0
2025-01-19 13:48:42.666804	275.1	24.5	-94.5	0.0
2025-01-19 13:48:43.786811	275.4	24.5	-94.5	0.0
2025-01-19 13:48:44.908632	275.8	24.5	-94.8	0.0
2025-01-19 13:48:46.029901	276.1	24.5	-94.9	0.0
2025-01-19 13:48:47.149390	276.4	24.5	-94.7	0.0
2025-01-19 13:48:48.270674	276.7	24.4	-94.5	0.0
2025-01-19 13:48:49.390169	277.1	24.4	-94.5	0.0
2025-01-19 13:48:50.512027	277.4	24.4	-94.6	0.0
2025-01-19 13:48:51.632915	277.7	24.4	-94.7	0.0
2025-01-19 13:48:52.754078	278.0	24.3	-94.5	0.0
2025-01-19 13:48:53.874887	278.4	24.3	-94.8	0.0
2025-01-19 13:48:54.995114	278.7	24.3	-94.8	0.0
2025-01-19 13:48:56.115433	279.0	24.3	-94.8	0.0
2025-01-19 13:48:57.237184	279.3	24.2	-94.7	0.0
2025-01-19 13:48:58.358646	279.7	24.2	-94.8	0.0
2025-01-19 13:48:59.478637	280.0	24.2	-94.8	0.0
2025-01-19 13:49:00.598844	280.3	24.1	-94.8	0.0
2025-01-19 13:49:01.720375	280.6	24.1	-94.8	0.0
2025-01-19 13:49:02.842414	280.9	24.1	-94.9	0.0
2025-01-19 13:49:03.963797	281.3	24.0	-94.9	0.0
2025-01-19 13:49:05.084168	281.6	24.0	-94.7	0.0
2025-01-19 13:49:06.205177	281.9	24.0	-94.7	0.0
2025-01-19 13:49:07.326480	282.2	23.9	-94.8	0.0
2025-01-19 13:49:08.447013	282.5	23.9	-94.7	0.0
2025-01-19 13:49:09.569913	282.8	23.9	-95.0	0.0
2025-01-19 13:49:10.693407	283.2	23.8	-95.0	0.0
2025-01-19 13:49:11.814494	283.5	23.8	-94.9	0.0
2025-01-19 13:49:12.935769	283.8	23.7	-94.9	0.0
2025-01-19 13:49:14.057836	284.1	23.7	-94.9	0.0
2025-01-19 13:49:15.178463	284.4	23.7	-94.8	0.0
2025-01-19 13:49:16.300909	284.7	23.6	-94.8	0.0
2025-01-19 13:49:17.421375	285.0	23.6	-94.9	0.0
2025-01-19 13:49:18.541127	285.3	23.5	-94.8	0.0
2025-01-19 13:49:19.663376	285.6	23.5	-94.8	0.0
2025-01-19 13:49:20.783709	286.0	23.4	-94.9	0.0
2025-01-19 13:49:21.905807	286.3	23.4	-94.9	0.0
2025-01-19 13:49:23.027091	286.6	23.3	-94.3	0.0
2025-01-19 13:49:24.147991	286.9	23.3	-94.6	0.0
2025-01-19 13:49:25.269812	287.2	23.2	-94.8	0.0
2025-01-19 13:49:26.390015	287.5	23.2	-94.8	0.0
2025-01-19 13:49:27.510425	287.8	23.1	-94.7	0.0
2025-01-19 13:49:28.629756	288.1	23.1	-94.8	0.0
2025-01-19 13:49:29.750111	288.4	23.0	-94.8	0.0
2025-01-19 13:49:30.870247	288.7	23.0	-94.7	0.0
2025-01-19 13:49:31.992424	289.0	22.9	-94.7	0.0
2025-01-19 13:49:33.112745	289.3	22.9	-94.9	0.0
2025-01-19 13:49:34.231499	289.6	22.8	-94.7	0.0
2025-01-19 13:49:35.352620	289.9	22.8	-94.9	0.0
2025-01-19 13:49:36.473412	290.1	22.7	-94.6	0.0
2025-01-19 13:49:37.594393	290.4	22.6	-95.0	0.0
2025-01-19 13:49:38.716719	290.7	22.6	-94.8	0.0
2025-01-19 13:49:39.836018	291.0	22.5	-94.7	0.0
2025-01-19 13:49:40.955505	291.3	22.5	-94.9	0.0
2025-01-19 13:49:42.077084	291.6	22.4	-94.7	0.0
2025-01-19 13:49:43.198400	291.9	22.4	-94.8	0.0
2025-01-19 13:49:44.318597	292.2	22.3	-94.7	0.0
2025-01-19 13:49:45.442712	292.5	22.2	-94.7	0.0
2025-01-19 13:49:46.563092	292.7	22.2	-94.6	0.0
2025-01-19 13:49:47.683718	293.0	22.1	-94.9	0.0
2025-01-19 13:49:48.805948	293.3	22.0	-95.0	0.0
2025-01-19 13:49:49.928050	293.6	22.0	-95.0	0.0
2025-01-19 13:49:51.049780	293.9	21.9	-94.8	0.0
2025-01-19 13:49:52.171211	294.1	21.9	-94.7	0.0
2025-01-19 13:49:53.292851	294.4	21.8	-94.7	0.0
2025-01-19 13:49:54.414254	294.7	21.7	-95.0	0.0
2025-01-19 13:49:55.534347	295.0	21.7	-95.2	0.0
2025-01-19 13:49:56.654692	295.2	21.6	-94.8	0.0
2025-01-19 13:49:57.774602	295.5	21.5	-94.8	0.0
2025-01-19 13:49:58.895238	295.8	21.5	-94.6	0.0
2025-01-19 13:50:00.014601	296.0	21.4	-94.8	0.0
2025-01-19 13:50:01.134693	296.3	21.3	-94.7	0.0
2025-01-19 13:50:02.255937	296.6	21.3	-94.9	0.0
2025-01-19 13:50:03.378493	296.8	21.2	-94.9	0.0
2025-01-19 13:50:04.500539	297.1	21.1	-94.8	0.0
2025-01-19 13:50:05.619523	297.4	21.1	-94.8	0.0
2025-01-19 13:50:06.740550	297.6	21.0	-94.8	0.0
2025-01-19 13:50:07.858355	297.9	20.9	-94.9	0.0
2025-01-19 13:50:08.977834	298.2	20.8	-94.6	0.0
2025-01-19 13:50:10.096192	298.4	20.8	-94.6	0.0
2025-01-19 13:50:11.215364	298.7	20.7	-94.9	0.0
2025-01-19 13:50:12.335598	298.9	20.6	-94.8	0.0
2025-01-19 13:50:13.455713	299.2	20.6	-94.8	0.0
2025-01-19 13:50:14.580793	299.4	20.5	-94.8	0.0
2025-01-19 13:50:15.702957	299.7	20.4	-94.8	0.0
2025-01-19 13:50:16.821383	300.0	20.3	-94.7	0.0
2025-01-19 13:50:17.942242	300.2	20.3	-94.7	0.0
2025-01-19 13:50:19.064690	300.5	20.2	-94.8	0.0
2025-01-19 13:50:20.185659	300.7	20.1	-94.7	0.0
2025-01-19 13:50:21.306033	300.9	20.0	-94.7	0.0
2025-01-19 13:50:22.430684	301.2	20.0	-94.9	0.0
2025-01-19 13:50:23.552204	301.4	19.9	-94.6	0.0
2025-01-19 13:50:24.673686	301.7	19.8	-94.8	0.0
2025-01-19 13:50:25.795509	301.9	19.7	-94.7	0.0
2025-01-19 13:50:26.917746	302.2	19.7	-94.7	0.0
2025-01-19 13:50:28.039405	302.4	19.6	-94.5	0.0
2025-01-19 13:50:29.161436	302.6	19.5	-94.8	0.0
2025-01-19 13:50:30.281723	302.9	19.4	-94.8	0.0
2025-01-19 13:50:31.403213	303.1	19.4	-94.6	0.0
2025-01-19 13:50:32.524962	303.4	19.3	-94.7	0.0
2025-01-19 13:50:33.643271	303.6	19.2	-94.6	0.0
2025-01-19 13:50:34.762880	303.8	19.1	-94.7	0.0
2025-01-19 13:50:35.884079	304.1	19.0	-94.8	0.0
2025-01-19 13:50:37.002805	304.3	19.0	-94.6	0.0
2025-01-19 13:50:38.123499	304.5	18.9	-94.6	0.0
2025-01-19 13:50:39.244747	304.7	18.8	-94.9	0.0
2025-01-19 13:50:40.365068	305.0	18.7	-94.9	0.0
2025-01-19 13:50:41.488175	305.2	18.7	-94.9	0.0
2025-01-19 13:50:42.611312	305.4	18.6	-94.5	0.0
2025-01-19 13:50:43.731518	305.6	18.5	-94.6	0.0
2025-01-19 13:50:44.852406	305.9	18.4	-94.8	0.0
2025-01-19 13:50:45.974915	306.1	18.3	-94.4	0.0
2025-01-19 13:50:47.097273	306.3	18.3	-94.6	0.0
2025-01-19 13:50:48.218261	306.5	18.2	-94.7	0.0
2025-01-19 13:50:49.338778	306.7	18.1	-95.1	0.0
2025-01-19 13:50:50.459237	307.0	18.0	-95.0	0.0
2025-01-19 13:50:51.580892	307.2	17.9	-94.7	0.0
2025-01-19 13:50:52.702758	307.4	17.9	-94.7	0.0
2025-01-19 13:50:53.824077	307.6	17.8	-94.7	0.0
2025-01-19 13:50:54.945582	307.8	17.7	-95.1	0.0
2025-01-19 13:50:56.067943	308.0	17.6	-94.9	0.0
2025-01-19 13:50:57.188374	308.2	17.5	-95.0	0.0
2025-01-19 13:50:58.308331	308.5	17.5	-94.8	0.0
2025-01-19 13:50:59.431595	308.7	17.4	-94.8	0.0
2025-01-19 13:51:00.550614	308.9	17.3	-95.0	0.0
2025-01-19 13:51:01.671184	309.1	17.2	-95.1	0.0
2025-01-19 13:51:02.790933	309.3	17.1	-95.1	0.0
2025-01-19 13:51:03.912561	309.5	17.1	-95.1	0.0
2025-01-19 13:51:05.034328	309.7	17.0	-95.0	0.0
2025-01-19 13:51:06.154369	309.9	16.9	-95.1	0.0
2025-01-19 13:51:07.276110	310.1	16.8	-94.9	0.0
2025-01-19 13:51:08.398619	310.3	16.7	-94.8	0.0
2025-01-19 13:51:09.520034	310.5	16.7	-95.0	0.0
2025-01-19 13:51:10.641347	310.7	16.6	-94.8	0.0
2025-01-19 13:51:11.763698	310.9	16.5	-94.8	0.0
2025-01-19 13:51:12.885478	311.1	16.4	-94.8	0.0
2025-01-19 13:51:14.007285	311.3	16.3	-94.7	0.0
2025-01-19 13:51:15.127520	311.5	16.2	-94.6	0.0
2025-01-19 13:51:16.249664	311.7	16.2	-94.6	0.0
2025-01-19 13:51:17.372048	311.8	16.1	-94.8	0.0
2025-01-19 13:51:18.492163	312.0	16.0	-94.6	0.0
2025-01-19 13:51:19.613098	312.2	15.9	-94.5	0.0
2025-01-19 13:51:20.733233	312.4	15.8	-94.6	0.0
2025-01-19 13:51:21.853064	312.6	15.8	-94.5	0.0
2025-01-19 13:51:22.975543	312.8	15.7	-94.8	0.0
2025-01-19 13:51:24.095452	313.0	15.6	-94.8	0.0
2025-01-19 13:51:25.213940	313.2	15.5	-94.5	0.0
2025-01-19 13:51:26.334541	313.3	15.4	-94.6	0.0
2025-01-19 13:51:27.455886	313.5	15.3	-94.6	0.0
2025-01-19 13:51:28.576839	313.7	15.3	-94.7	0.0
2025-01-19 13:51:29.700419	313.9	15.2	-94.6	0.0
2025-01-19 13:51:30.820789	314.1	15.1	-94.8	0.0
2025-01-19 13:51:31.938804	314.2	15.0	-94.5	0.0
2025-01-19 13:51:33.058684	314.4	14.9	-94.7	0.0
2025-01-19 13:51:34.180897	314.6	14.9	-95.0	0.0
2025-01-19 13:51:35.301532	314.8	14.8	-94.7	0.0
2025-01-19 13:51:36.421395	314.9	14.7	-94.6	0.0
2025-01-19 13:51:37.543939	315.1	14.6	-94.6	0.0
2025-01-19 13:51:38.665453	315.3	14.5	-94.7	0.0
2025-01-19 13:51:39.785620	315.5	14.5	-94.8	0.0
2025-01-19 13:51:40.906041	315.6	14.4	-95.0	0.0
2025-01-19 13:51:42.027736	315.8	14.3	-95.1	0.0
2025-01-19 13:51:43.147844	316.0	14.2	-94.6	0.0
2025-01-19 13:51:44.267773	316.1	14.1	-94.9	0.0
2025-01-19 13:51:45.388160	316.3	14.0	-95.1	0.0
2025-01-19 13:51:46.508779	316.5	14.0	-95.1	0.0
2025-01-19 13:51:47.629496	316.6	13.9	-94.5	0.0
2025-01-19 13:51:48.749443	316.8	13.8	-94.8	0.0
2025-01-19 13:51:49.869888	317.0	13.7	-94.8	0.0
2025-01-19 13:51:50.990530	317.1	13.6	-94.9	0.0
2025-01-19 13:51:52.111047	317.3	13.6	-94.8	0.0
2025-01-19 13:51:53.232296	317.5	13.5	-94.8	0.0
2025-01-19 13:51:54.355413	317.6	13.4	-94.7	0.0
2025-01-19 13:51:55.476553	317.8	13.3	-95.0	0.0
2025-01-19 13:51:56.596488	317.9	13.2	-95.1	0.0
2025-01-19 13:51:57.714840	318.1	13.2	-95.0	0.0
2025-01-19 13:51:58.838512	318.3	13.1	-95.2	0.0
2025-01-19 13:51:59.960703	318.4	13.0	-95.1	0.0
2025-01-19 13:52:01.080507	318.6	12.9	-94.9	0.0
2025-01-19 13:52:02.200761	318.7	12.8	-95.1	0.0
2025-01-19 13:52:03.319622	318.9	12.8	-95.0	0.0
2025-01-19 13:52:04.439027	319.0	12.7	-94.9	0.0
2025-01-19 13:52:05.560809	319.2	12.6	-94.9	0.0
2025-01-19 13:52:06.682259	319.3	12.5	-94.8	0.0
2025-01-19 13:52:07.802770	319.5	12.4	-94.9	0.0
2025-01-19 13:52:08.923508	319.6	12.4	-95.0	0.0
2025-01-19 13:52:10.046499	319.8	12.3	-95.0	0.0
2025-01-19 13:52:11.167354	319.9	12.2	-94.9	0.0
2025-01-19 13:52:12.287429	320.1	12.1	-95.0	0.0
2025-01-19 13:52:13.408702	320.2	12.0	-94.9	0.0
2025-01-19 13:52:14.529577	320.4	12.0	-95.1	0.0
2025-01-19 13:52:15.651313	320.5	11.9	-95.1	0.0
2025-01-19 13:52:16.773768	320.7	11.8	-94.8	0.0
2025-01-19 13:52:17.894909	320.8	11.7	-94.8	0.0
2025-01-19 13:52:19.015373	320.9	11.7	-94.8	0.0
2025-01-19 13:52:20.135888	321.1	11.6	-94.9	0.0
2025-01-19 13:52:21.256632	321.2	11.5	-95.2	0.0
2025-01-19 13:52:22.378638	321.4	11.4	-94.8	0.0
2025-01-19 13:52:23.497980	321.5	11.3	-94.8	0.0
2025-01-19 13:52:24.616207	321.6	11.3	-95.2	0.0
2025-01-19 13:52:25.736733	321.8	11.2	-94.8	0.0
2025-01-19 13:52:26.858929	321.9	11.1	-94.9	0.0
2025-01-19 13:52:27.980349	322.1	11.0	-94.8	0.0
2025-01-19 13:52:29.101305	322.2	11.0	-94.8	0.0
2025-01-19 13:52:30.221519	322.3	10.9	-94.7	0.0
2025-01-19 13:52:31.343724	322.5	10.8	-94.7	0.0
2025-01-19 13:52:32.464853	322.6	10.7	-95.0	0.0
2025-01-19 13:52:33.584769	322.7	10.6	-94.9	0.0
2025-01-19 13:52:34.705135	322.9	10.6	-94.9	0.0
2025-01-19 13:52:35.826511	323.0	10.5	-94.6	0.0
2025-01-19 13:52:36.947154	323.1	10.4	-94.7	0.0
2025-01-19 13:52:38.070042	323.3	10.3	-94.5	0.0
2025-01-19 13:52:39.190982	323.4	10.3	-94.7	0.0
2025-01-19 13:52:40.312263	323.5	10.2	-94.6	0.0
2025-01-19 13:52:41.432496	323.6	10.1	-94.7	0.0
2025-01-19 13:52:42.553922	323.8	10.0	-94.6	0.0
#Closed at: 2025-01-19 13:43:59.676730