passes_logs/2025/01/19/planumMaritime01/planumMaritime01__20250119_201220_NOAA_18_rec.log

#Pass ID: 20250119_201220_NOAA 18
#Satellite: NOAA 18
#Configuration: NOAA 18
#Start time: 2025-01-19 20:12:25.172111

#LorettStation: 1.0.0 05.05.2024
#Station: planumMaritime01
#Location: 37.49445 lon 55.92918 lat
#TLE: 1 28654U 05018A   25019.12683114  .00000403  00000+0  23745-3 0  9992
#TLE: 2 28654  98.8559 100.1402 0014536 167.7337 192.4191 14.13490232 13765

#Time	Az	El	Level	SNR
2025-01-19 20:12:27.321633	194.1	10.2	-94.7	0.0
2025-01-19 20:12:28.444434	194.2	10.3	-94.4	0.0
2025-01-19 20:12:29.564461	194.3	10.3	-94.6	0.0
2025-01-19 20:12:30.686335	194.3	10.4	-94.4	0.0
2025-01-19 20:12:31.808367	194.4	10.5	-94.8	0.0
2025-01-19 20:12:32.929669	194.5	10.6	-94.6	0.0
2025-01-19 20:12:34.050647	194.6	10.7	-94.5	0.0
2025-01-19 20:12:35.171569	194.7	10.8	-94.6	0.0
2025-01-19 20:12:36.292587	194.8	10.9	-94.5	0.0
2025-01-19 20:12:37.414608	194.8	11.0	-94.5	0.0
2025-01-19 20:12:38.535508	194.9	11.1	-94.3	0.0
2025-01-19 20:12:39.656570	195.0	11.2	-94.3	0.0
2025-01-19 20:12:40.774580	195.1	11.3	-94.5	0.0
2025-01-19 20:12:41.896448	195.2	11.3	-94.6	0.0
2025-01-19 20:12:43.017668	195.3	11.4	-94.6	0.0
2025-01-19 20:12:44.135950	195.4	11.5	-94.4	0.0
2025-01-19 20:12:45.257951	195.4	11.6	-94.3	0.0
2025-01-19 20:12:46.379261	195.5	11.7	-94.7	0.0
2025-01-19 20:12:47.500563	195.6	11.8	-94.5	0.0
2025-01-19 20:12:48.623764	195.7	11.9	-94.4	0.0
2025-01-19 20:12:49.745732	195.8	12.0	-94.5	0.0
2025-01-19 20:12:50.867620	195.9	12.1	-94.4	0.0
2025-01-19 20:12:51.989593	196.0	12.2	-94.4	0.0
2025-01-19 20:12:53.108928	196.1	12.3	-94.6	0.0
2025-01-19 20:12:54.228042	196.2	12.4	-94.7	0.0
2025-01-19 20:12:55.351272	196.3	12.5	-94.5	0.0
2025-01-19 20:12:56.469710	196.4	12.6	-94.3	0.0
2025-01-19 20:12:57.591665	196.5	12.7	-94.4	0.0
2025-01-19 20:12:58.711288	196.5	12.8	-94.5	0.0
2025-01-19 20:12:59.831584	196.6	12.9	-94.3	0.0
2025-01-19 20:13:00.953697	196.7	13.0	-94.6	0.0
2025-01-19 20:13:02.075072	196.8	13.1	-94.7	0.0
2025-01-19 20:13:03.193763	196.9	13.2	-94.4	0.0
2025-01-19 20:13:04.315448	197.0	13.3	-94.6	0.0
2025-01-19 20:13:05.436370	197.1	13.4	-94.6	0.0
2025-01-19 20:13:06.558421	197.2	13.5	-94.7	0.0
2025-01-19 20:13:07.678858	197.3	13.6	-94.7	0.0
2025-01-19 20:13:08.798886	197.4	13.7	-94.4	0.0
2025-01-19 20:13:09.919995	197.5	13.8	-94.7	0.0
2025-01-19 20:13:11.040387	197.6	13.9	-94.7	0.0
2025-01-19 20:13:12.162448	197.7	14.0	-94.7	0.0
2025-01-19 20:13:13.283720	197.8	14.1	-94.6	0.0
2025-01-19 20:13:14.406321	197.9	14.2	-94.4	0.0
2025-01-19 20:13:15.526855	198.0	14.3	-94.7	0.0
2025-01-19 20:13:16.647278	198.2	14.4	-94.8	0.0
2025-01-19 20:13:17.768503	198.3	14.5	-94.7	0.0
2025-01-19 20:13:18.890351	198.4	14.6	-94.6	0.0
2025-01-19 20:13:20.010578	198.5	14.7	-94.7	0.0
2025-01-19 20:13:21.131125	198.6	14.8	-94.8	0.0
2025-01-19 20:13:22.252339	198.7	14.9	-94.5	0.0
2025-01-19 20:13:23.375410	198.8	15.0	-94.8	0.0
2025-01-19 20:13:24.495200	198.9	15.1	-94.7	0.0
2025-01-19 20:13:25.616907	199.0	15.2	-94.9	0.0
2025-01-19 20:13:26.740301	199.1	15.3	-94.8	0.0
2025-01-19 20:13:27.861774	199.2	15.4	-94.7	0.0
2025-01-19 20:13:28.982385	199.4	15.5	-94.6	0.0
2025-01-19 20:13:30.101466	199.5	15.6	-94.5	0.0
2025-01-19 20:13:31.222813	199.6	15.7	-94.6	0.0
2025-01-19 20:13:32.344366	199.7	15.8	-94.8	0.0
2025-01-19 20:13:33.465421	199.8	15.9	-94.8	0.0
2025-01-19 20:13:34.586226	199.9	16.0	-94.7	0.0
2025-01-19 20:13:35.710531	200.1	16.1	-94.6	0.0
2025-01-19 20:13:36.832269	200.2	16.2	-94.7	0.0
2025-01-19 20:13:37.954176	200.3	16.4	-94.9	0.0
2025-01-19 20:13:39.076344	200.4	16.5	-94.7	0.0
2025-01-19 20:13:40.197234	200.5	16.6	-94.7	0.0
2025-01-19 20:13:41.318924	200.7	16.7	-94.7	0.0
2025-01-19 20:13:42.437989	200.8	16.8	-94.7	0.0
2025-01-19 20:13:43.560618	200.9	16.9	-94.9	0.0
2025-01-19 20:13:44.680525	201.0	17.0	-94.7	0.0
2025-01-19 20:13:45.802490	201.2	17.1	-94.8	0.0
2025-01-19 20:13:46.923314	201.3	17.2	-94.9	0.0
2025-01-19 20:13:48.042401	201.4	17.4	-95.0	0.0
2025-01-19 20:13:49.162744	201.5	17.5	-94.8	0.0
2025-01-19 20:13:50.284724	201.7	17.6	-94.6	0.0
2025-01-19 20:13:51.406408	201.8	17.7	-94.7	0.0
2025-01-19 20:13:52.530075	201.9	17.8	-94.7	0.0
2025-01-19 20:13:53.652753	202.1	17.9	-94.8	0.0
2025-01-19 20:13:54.774430	202.2	18.0	-94.4	0.0
2025-01-19 20:13:55.896874	202.3	18.1	-94.5	0.0
2025-01-19 20:13:57.017534	202.5	18.3	-94.7	0.0
2025-01-19 20:13:58.140601	202.6	18.4	-94.8	0.0
2025-01-19 20:13:59.262068	202.7	18.5	-94.6	0.0
2025-01-19 20:14:00.381162	202.9	18.6	-94.7	0.0
2025-01-19 20:14:01.502620	203.0	18.7	-94.8	0.0
2025-01-19 20:14:02.622930	203.2	18.8	-94.7	0.0
2025-01-19 20:14:03.742968	203.3	19.0	-94.7	0.0
2025-01-19 20:14:04.863972	203.4	19.1	-94.5	0.0
2025-01-19 20:14:05.986179	203.6	19.2	-94.4	0.0
2025-01-19 20:14:07.108150	203.7	19.3	-94.6	0.0
2025-01-19 20:14:08.229596	203.9	19.4	-94.7	0.0
2025-01-19 20:14:09.351923	204.0	19.5	-94.9	0.0
2025-01-19 20:14:10.473203	204.2	19.7	-94.9	0.0
2025-01-19 20:14:11.595583	204.3	19.8	-94.9	0.0
2025-01-19 20:14:12.716813	204.5	19.9	-94.6	0.0
2025-01-19 20:14:13.840130	204.6	20.0	-94.8	0.0
2025-01-19 20:14:14.962608	204.8	20.1	-94.9	0.0
2025-01-19 20:14:16.086742	204.9	20.3	-94.4	0.0
2025-01-19 20:14:17.207022	205.1	20.4	-94.7	0.0
2025-01-19 20:14:18.328504	205.2	20.5	-94.4	0.0
2025-01-19 20:14:19.449369	205.4	20.6	-94.6	0.0
2025-01-19 20:14:20.570885	205.5	20.8	-94.8	0.0
2025-01-19 20:14:21.691634	205.7	20.9	-94.6	0.0
2025-01-19 20:14:22.812823	205.9	21.0	-94.5	0.0
2025-01-19 20:14:23.932677	206.0	21.1	-94.3	0.0
2025-01-19 20:14:25.053927	206.2	21.2	-94.6	0.0
2025-01-19 20:14:26.175871	206.4	21.4	-94.7	0.0
2025-01-19 20:14:27.297146	206.5	21.5	-94.7	0.0
2025-01-19 20:14:28.420619	206.7	21.6	-94.7	0.0
2025-01-19 20:14:29.541528	206.9	21.7	-94.8	0.0
2025-01-19 20:14:30.662359	207.0	21.9	-94.7	0.0
2025-01-19 20:14:31.784702	207.2	22.0	-94.7	0.0
2025-01-19 20:14:32.908801	207.4	22.1	-94.6	0.0
2025-01-19 20:14:34.030561	207.5	22.3	-94.7	0.0
2025-01-19 20:14:35.152424	207.7	22.4	-94.8	0.0
2025-01-19 20:14:36.273350	207.9	22.5	-94.7	0.0
2025-01-19 20:14:37.394275	208.1	22.6	-94.6	0.0
2025-01-19 20:14:38.517378	208.2	22.8	-94.5	0.0
2025-01-19 20:14:39.636556	208.4	22.9	-94.6	0.0
2025-01-19 20:14:40.758682	208.6	23.0	-94.8	0.0
2025-01-19 20:14:41.881902	208.8	23.2	-94.7	0.0
2025-01-19 20:14:43.003756	209.0	23.3	-94.6	0.0
2025-01-19 20:14:44.125668	209.2	23.4	-94.9	0.0
2025-01-19 20:14:45.249429	209.4	23.5	-94.9	0.0
2025-01-19 20:14:46.369463	209.5	23.7	-95.1	0.0
2025-01-19 20:14:47.489467	209.7	23.8	-94.6	0.0
2025-01-19 20:14:48.611335	209.9	23.9	-94.7	0.0
2025-01-19 20:14:49.731578	210.1	24.1	-94.8	0.0
2025-01-19 20:14:50.851351	210.3	24.2	-95.0	0.0
2025-01-19 20:14:51.972819	210.5	24.3	-95.0	0.0
2025-01-19 20:14:53.093540	210.7	24.5	-94.8	0.0
2025-01-19 20:14:54.215747	210.9	24.6	-94.6	0.0
2025-01-19 20:14:55.335933	211.1	24.7	-94.7	0.0
2025-01-19 20:14:56.456602	211.3	24.9	-94.8	0.0
2025-01-19 20:14:57.577070	211.5	25.0	-94.9	0.0
2025-01-19 20:14:58.696989	211.7	25.1	-94.9	0.0
2025-01-19 20:14:59.816634	211.9	25.3	-94.8	0.0
2025-01-19 20:15:00.939419	212.1	25.4	-94.7	0.0
2025-01-19 20:15:02.059191	212.4	25.5	-95.1	0.0
2025-01-19 20:15:03.179465	212.6	25.7	-95.0	0.0
2025-01-19 20:15:04.301876	212.8	25.8	-94.9	0.0
2025-01-19 20:15:05.422894	213.0	26.0	-94.6	0.0
2025-01-19 20:15:06.544559	213.2	26.1	-94.6	0.0
2025-01-19 20:15:07.660618	213.4	26.2	-94.8	0.0
2025-01-19 20:15:08.782790	213.7	26.4	-94.8	0.0
2025-01-19 20:15:09.902494	213.9	26.5	-94.6	0.0
2025-01-19 20:15:11.026274	214.1	26.6	-94.7	0.0
2025-01-19 20:15:12.147781	214.4	26.8	-94.9	0.0
2025-01-19 20:15:13.267422	214.6	26.9	-94.8	0.0
2025-01-19 20:15:14.387958	214.8	27.0	-94.7	0.0
2025-01-19 20:15:15.510280	215.1	27.2	-94.8	0.0
2025-01-19 20:15:16.631471	215.3	27.3	-94.8	0.0
2025-01-19 20:15:17.753024	215.5	27.5	-94.5	0.0
2025-01-19 20:15:18.872805	215.8	27.6	-94.6	0.0
2025-01-19 20:15:19.994584	216.0	27.7	-94.6	0.0
2025-01-19 20:15:21.118106	216.3	27.9	-94.6	0.0
2025-01-19 20:15:22.239523	216.5	28.0	-94.5	0.0
2025-01-19 20:15:23.361383	216.8	28.2	-94.5	0.0
2025-01-19 20:15:24.482639	217.0	28.3	-94.6	0.0
2025-01-19 20:15:25.605663	217.3	28.4	-94.6	0.0
2025-01-19 20:15:26.726462	217.5	28.6	-94.6	0.0
2025-01-19 20:15:27.848411	217.8	28.7	-94.5	0.0
2025-01-19 20:15:28.969407	218.0	28.9	-94.5	0.0
2025-01-19 20:15:30.090225	218.3	29.0	-94.8	0.0
2025-01-19 20:15:31.210828	218.6	29.1	-94.9	0.0
2025-01-19 20:15:32.332831	218.8	29.3	-94.6	0.0
2025-01-19 20:15:33.454854	219.1	29.4	-94.7	0.0
2025-01-19 20:15:34.574702	219.4	29.6	-94.7	0.0
2025-01-19 20:15:35.694341	219.6	29.7	-95.1	0.0
2025-01-19 20:15:36.813883	219.9	29.8	-94.9	0.0
2025-01-19 20:15:37.935266	220.2	30.0	-94.8	0.0
2025-01-19 20:15:39.056748	220.5	30.1	-94.6	0.0
2025-01-19 20:15:40.176556	220.8	30.2	-94.9	0.0
2025-01-19 20:15:41.298345	221.0	30.4	-94.9	0.0
2025-01-19 20:15:42.420098	221.3	30.5	-94.9	0.0
2025-01-19 20:15:43.540017	221.6	30.7	-95.0	0.0
2025-01-19 20:15:44.661267	221.9	30.8	-94.6	0.0
2025-01-19 20:15:45.783502	222.2	30.9	-94.7	0.0
2025-01-19 20:15:46.904901	222.5	31.1	-95.0	0.0
2025-01-19 20:15:48.024202	222.8	31.2	-94.9	0.0
2025-01-19 20:15:49.147492	223.1	31.4	-94.9	0.0
2025-01-19 20:15:50.270582	223.4	31.5	-95.0	0.0
2025-01-19 20:15:51.389478	223.7	31.6	-94.8	0.0
2025-01-19 20:15:52.510776	224.0	31.8	-94.8	0.0
2025-01-19 20:15:53.629884	224.3	31.9	-94.8	0.0
2025-01-19 20:15:54.752033	224.7	32.0	-94.9	0.0
2025-01-19 20:15:55.870472	225.0	32.2	-94.8	0.0
2025-01-19 20:15:56.991631	225.3	32.3	-94.8	0.0
2025-01-19 20:15:58.114177	225.6	32.5	-94.7	0.0
2025-01-19 20:15:59.235483	225.9	32.6	-94.7	0.0
2025-01-19 20:16:00.357266	226.3	32.7	-95.0	0.0
2025-01-19 20:16:01.478078	226.6	32.9	-94.8	0.0
2025-01-19 20:16:02.596314	226.9	33.0	-94.8	0.0
2025-01-19 20:16:03.718246	227.3	33.1	-94.7	0.0
2025-01-19 20:16:04.840583	227.6	33.3	-94.7	0.0
2025-01-19 20:16:05.961383	228.0	33.4	-94.5	0.0
2025-01-19 20:16:07.082527	228.3	33.5	-94.8	0.0
2025-01-19 20:16:08.203318	228.6	33.7	-94.8	0.0
2025-01-19 20:16:09.324635	229.0	33.8	-94.7	0.0
2025-01-19 20:16:10.447846	229.3	33.9	-94.7	0.0
2025-01-19 20:16:11.570319	229.7	34.1	-94.6	0.0
2025-01-19 20:16:12.691174	230.1	34.2	-94.6	0.0
2025-01-19 20:16:13.813244	230.4	34.3	-95.0	0.0
2025-01-19 20:16:14.935799	230.8	34.4	-94.6	0.0
2025-01-19 20:16:16.056290	231.2	34.6	-94.8	0.0
2025-01-19 20:16:17.176596	231.5	34.7	-95.1	0.0
2025-01-19 20:16:18.298851	231.9	34.8	-94.8	0.0
2025-01-19 20:16:19.420631	232.3	34.9	-94.9	0.0
2025-01-19 20:16:20.541941	232.7	35.1	-94.8	0.0
2025-01-19 20:16:21.665566	233.0	35.2	-94.9	0.0
2025-01-19 20:16:22.786793	233.4	35.3	-95.1	0.0
2025-01-19 20:16:23.908072	233.8	35.4	-95.0	0.0
2025-01-19 20:16:25.027553	234.2	35.5	-94.9	0.0
2025-01-19 20:16:26.149013	234.6	35.7	-94.9	0.0
2025-01-19 20:16:27.271289	235.0	35.8	-94.7	0.0
2025-01-19 20:16:28.392810	235.4	35.9	-94.8	0.0
2025-01-19 20:16:29.512456	235.8	36.0	-95.1	0.0
2025-01-19 20:16:30.632842	236.2	36.1	-94.9	0.0
2025-01-19 20:16:31.753592	236.6	36.2	-95.1	0.0
2025-01-19 20:16:32.876122	237.0	36.4	-94.7	0.0
2025-01-19 20:16:33.997411	237.4	36.5	-94.8	0.0
2025-01-19 20:16:35.118700	237.8	36.6	-94.6	0.0
2025-01-19 20:16:36.240983	238.2	36.7	-94.8	0.0
2025-01-19 20:16:37.362615	238.7	36.8	-94.8	0.0
2025-01-19 20:16:38.482841	239.1	36.9	-94.8	0.0
2025-01-19 20:16:39.602841	239.5	37.0	-94.7	0.0
2025-01-19 20:16:40.724272	239.9	37.1	-94.7	0.0
2025-01-19 20:16:41.844636	240.4	37.2	-94.8	0.0
2025-01-19 20:16:42.966064	240.8	37.3	-94.8	0.0
2025-01-19 20:16:44.088344	241.2	37.4	-94.8	0.0
2025-01-19 20:16:45.211608	241.7	37.5	-94.8	0.0
2025-01-19 20:16:46.330831	242.1	37.6	-94.6	0.0
2025-01-19 20:16:47.451326	242.6	37.7	-94.7	0.0
2025-01-19 20:16:48.570684	243.0	37.8	-94.7	0.0
2025-01-19 20:16:49.691487	243.5	37.9	-94.6	0.0
2025-01-19 20:16:50.811772	243.9	37.9	-94.7	0.0
2025-01-19 20:16:51.930192	244.4	38.0	-94.6	0.0
2025-01-19 20:16:53.050476	244.8	38.1	-94.6	0.0
2025-01-19 20:16:54.171698	245.3	38.2	-94.5	0.0
2025-01-19 20:16:55.293278	245.7	38.3	-94.6	0.0
2025-01-19 20:16:56.414424	246.2	38.4	-94.6	0.0
2025-01-19 20:16:57.536464	246.7	38.4	-94.4	0.0
2025-01-19 20:16:58.655801	247.1	38.5	-94.8	0.0
2025-01-19 20:16:59.776982	247.6	38.6	-94.8	0.0
2025-01-19 20:17:00.899270	248.1	38.7	-94.7	0.0
2025-01-19 20:17:02.020520	248.5	38.7	-94.9	0.0
2025-01-19 20:17:03.139287	249.0	38.8	-94.6	0.0
2025-01-19 20:17:04.260321	249.5	38.9	-94.6	0.0
2025-01-19 20:17:05.380693	250.0	38.9	-94.7	0.0
2025-01-19 20:17:06.502652	250.4	39.0	-94.8	0.0
2025-01-19 20:17:07.623110	250.9	39.0	-95.1	0.0
2025-01-19 20:17:08.743937	251.4	39.1	-94.6	0.0
2025-01-19 20:17:09.865409	251.9	39.2	-94.4	0.0
2025-01-19 20:17:10.988439	252.4	39.2	-94.7	0.0
2025-01-19 20:17:12.111402	252.9	39.3	-94.8	0.0
2025-01-19 20:17:13.231003	253.4	39.3	-94.8	0.0
2025-01-19 20:17:14.352472	253.8	39.4	-94.7	0.0
2025-01-19 20:17:15.472461	254.3	39.4	-94.7	0.0
2025-01-19 20:17:16.593015	254.8	39.4	-94.7	0.0
2025-01-19 20:17:17.713100	255.3	39.5	-94.8	0.0
2025-01-19 20:17:18.835810	255.8	39.5	-94.9	0.0
2025-01-19 20:17:19.957034	256.3	39.5	-94.8	0.0
2025-01-19 20:17:21.078550	256.8	39.6	-94.8	0.0
2025-01-19 20:17:22.200468	257.3	39.6	-94.7	0.0
2025-01-19 20:17:23.319865	257.8	39.6	-94.7	0.0
2025-01-19 20:17:24.439492	258.3	39.7	-94.7	0.0
2025-01-19 20:17:25.562414	258.8	39.7	-94.8	0.0
2025-01-19 20:17:26.683503	259.3	39.7	-95.0	0.0
2025-01-19 20:17:27.806359	259.8	39.7	-94.9	0.0
2025-01-19 20:17:28.926046	260.3	39.7	-94.8	0.0
2025-01-19 20:17:30.048805	260.8	39.7	-94.7	0.0
2025-01-19 20:17:31.169277	261.3	39.8	-94.7	0.0
2025-01-19 20:17:32.291532	261.8	39.8	-94.7	0.0
2025-01-19 20:17:33.411024	262.3	39.8	-95.0	0.0
2025-01-19 20:17:34.532172	262.8	39.8	-95.0	0.0
2025-01-19 20:17:35.652450	263.4	39.8	-95.0	0.0
2025-01-19 20:17:36.773621	263.9	39.8	-94.7	0.0
2025-01-19 20:17:37.895398	264.4	39.8	-94.8	0.0
2025-01-19 20:17:39.016215	264.9	39.8	-94.9	0.0
2025-01-19 20:17:40.137632	265.4	39.7	-95.0	0.0
2025-01-19 20:17:41.260936	265.9	39.7	-94.8	0.0
2025-01-19 20:17:42.382621	266.4	39.7	-95.1	0.0
2025-01-19 20:17:43.503990	266.9	39.7	-95.0	0.0
2025-01-19 20:17:44.625006	267.4	39.7	-95.0	0.0
2025-01-19 20:17:45.746610	267.9	39.7	-94.8	0.0
2025-01-19 20:17:46.868628	268.4	39.6	-94.8	0.0
2025-01-19 20:17:47.990797	268.9	39.6	-95.0	0.0
2025-01-19 20:17:49.112344	269.4	39.6	-94.9	0.0
2025-01-19 20:17:50.232824	269.9	39.6	-94.8	0.0
2025-01-19 20:17:51.353632	270.4	39.5	-94.8	0.0
2025-01-19 20:17:52.474140	270.9	39.5	-94.7	0.0
2025-01-19 20:17:53.596904	271.4	39.4	-94.8	0.0
2025-01-19 20:17:54.719799	271.9	39.4	-94.7	0.0
2025-01-19 20:17:55.841327	272.4	39.4	-94.7	0.0
2025-01-19 20:17:56.960749	272.8	39.3	-94.7	0.0
2025-01-19 20:17:58.083804	273.3	39.3	-94.7	0.0
2025-01-19 20:17:59.206489	273.8	39.2	-94.9	0.0
2025-01-19 20:18:00.327402	274.3	39.2	-94.5	0.0
2025-01-19 20:18:01.448541	274.8	39.1	-94.6	0.0
2025-01-19 20:18:02.568700	275.3	39.1	-94.8	0.0
2025-01-19 20:18:03.688883	275.8	39.0	-94.9	0.0
2025-01-19 20:18:04.812506	276.2	38.9	-95.0	0.0
2025-01-19 20:18:05.932319	276.7	38.9	-94.9	0.0
2025-01-19 20:18:07.054591	277.2	38.8	-94.9	0.0
2025-01-19 20:18:08.177005	277.7	38.7	-94.9	0.0
2025-01-19 20:18:09.299257	278.1	38.7	-95.1	0.0
2025-01-19 20:18:10.423650	278.6	38.6	-94.8	0.0
2025-01-19 20:18:11.546432	279.1	38.5	-94.8	0.0
2025-01-19 20:18:12.667452	279.6	38.5	-94.7	0.0
2025-01-19 20:18:13.791694	280.0	38.4	-94.8	0.0
2025-01-19 20:18:14.912828	280.5	38.3	-95.0	0.0
2025-01-19 20:18:16.032563	280.9	38.2	-94.7	0.0
2025-01-19 20:18:17.153380	281.4	38.1	-94.7	0.0
2025-01-19 20:18:18.270715	281.9	38.1	-94.5	0.0
2025-01-19 20:18:19.392610	282.3	38.0	-94.8	0.0
2025-01-19 20:18:20.513312	282.8	37.9	-95.0	0.0
2025-01-19 20:18:21.634864	283.2	37.8	-94.7	0.0
2025-01-19 20:18:22.755448	283.7	37.7	-94.7	0.0
2025-01-19 20:18:23.876608	284.1	37.6	-94.6	0.0
2025-01-19 20:18:24.998868	284.5	37.5	-94.8	0.0
2025-01-19 20:18:26.122692	285.0	37.4	-94.8	0.0
2025-01-19 20:18:27.243895	285.4	37.3	-94.9	0.0
2025-01-19 20:18:28.366212	285.9	37.2	-94.8	0.0
2025-01-19 20:18:29.487971	286.3	37.1	-94.8	0.0
2025-01-19 20:18:30.608607	286.7	37.0	-94.7	0.0
2025-01-19 20:18:31.731414	287.1	36.9	-95.0	0.0
2025-01-19 20:18:32.852889	287.6	36.8	-94.7	0.0
2025-01-19 20:18:33.975240	288.0	36.7	-94.9	0.0
2025-01-19 20:18:35.095780	288.4	36.6	-94.8	0.0
2025-01-19 20:18:36.215620	288.8	36.5	-94.9	0.0
2025-01-19 20:18:37.336559	289.2	36.4	-94.9	0.0
2025-01-19 20:18:38.459877	289.6	36.3	-94.8	0.0
2025-01-19 20:18:39.580597	290.0	36.2	-94.6	0.0
2025-01-19 20:18:40.702537	290.4	36.0	-94.7	0.0
2025-01-19 20:18:41.823924	290.8	35.9	-94.7	0.0
2025-01-19 20:18:42.948602	291.2	35.8	-94.7	0.0
2025-01-19 20:18:44.070326	291.6	35.7	-94.8	0.0
2025-01-19 20:18:45.190872	292.0	35.6	-95.0	0.0
2025-01-19 20:18:46.311195	292.4	35.5	-95.1	0.0
2025-01-19 20:18:47.429879	292.8	35.3	-95.0	0.0
2025-01-19 20:18:48.551630	293.2	35.2	-94.7	0.0
2025-01-19 20:18:49.672267	293.6	35.1	-94.9	0.0
2025-01-19 20:18:50.792675	294.0	35.0	-95.1	0.0
2025-01-19 20:18:51.913605	294.3	34.9	-94.8	0.0
2025-01-19 20:18:53.032228	294.7	34.7	-94.8	0.0
2025-01-19 20:18:54.154641	295.1	34.6	-94.9	0.0
2025-01-19 20:18:55.275643	295.4	34.5	-94.9	0.0
2025-01-19 20:18:56.396221	295.8	34.3	-95.0	0.0
2025-01-19 20:18:57.519443	296.2	34.2	-94.9	0.0
2025-01-19 20:18:58.641125	296.5	34.1	-94.9	0.0
2025-01-19 20:18:59.763320	296.9	34.0	-94.9	0.0
2025-01-19 20:19:00.882719	297.2	33.8	-94.9	0.0
2025-01-19 20:19:02.002427	297.6	33.7	-94.8	0.0
2025-01-19 20:19:03.122808	297.9	33.6	-94.8	0.0
2025-01-19 20:19:04.246526	298.3	33.4	-94.9	0.0
2025-01-19 20:19:05.367368	298.6	33.3	-94.8	0.0
2025-01-19 20:19:06.488158	299.0	33.2	-94.8	0.0
2025-01-19 20:19:07.608750	299.3	33.0	-94.9	0.0
2025-01-19 20:19:08.730059	299.6	32.9	-95.1	0.0
2025-01-19 20:19:09.851701	300.0	32.8	-94.8	0.0
2025-01-19 20:19:10.972770	300.3	32.6	-94.8	0.0
2025-01-19 20:19:12.094463	300.6	32.5	-94.6	0.0
2025-01-19 20:19:13.215161	300.9	32.4	-94.8	0.0
2025-01-19 20:19:14.335242	301.3	32.2	-94.7	0.0
2025-01-19 20:19:15.457896	301.6	32.1	-94.4	0.0
2025-01-19 20:19:16.578077	301.9	32.0	-94.8	0.0
2025-01-19 20:19:17.699393	302.2	31.8	-94.7	0.0
2025-01-19 20:19:18.819534	302.5	31.7	-94.7	0.0
2025-01-19 20:19:19.941220	302.8	31.5	-94.7	0.0
2025-01-19 20:19:21.061367	303.1	31.4	-94.4	0.0
2025-01-19 20:19:22.184022	303.4	31.3	-94.7	0.0
2025-01-19 20:19:23.306477	303.7	31.1	-94.7	0.0
2025-01-19 20:19:24.427809	304.0	31.0	-94.6	0.0
2025-01-19 20:19:25.549090	304.3	30.9	-94.6	0.0
2025-01-19 20:19:26.668069	304.6	30.7	-94.6	0.0
2025-01-19 20:19:27.790872	304.9	30.6	-94.5	0.0
2025-01-19 20:19:28.911597	305.2	30.4	-94.6	0.0
2025-01-19 20:19:30.033588	305.5	30.3	-94.9	0.0
2025-01-19 20:19:31.155450	305.8	30.2	-95.0	0.0
2025-01-19 20:19:32.275381	306.1	30.0	-94.6	0.0
2025-01-19 20:19:33.396997	306.3	29.9	-94.7	0.0
2025-01-19 20:19:34.519297	306.6	29.7	-94.6	0.0
2025-01-19 20:19:35.641358	306.9	29.6	-95.1	0.0
2025-01-19 20:19:36.763018	307.2	29.5	-95.0	0.0
2025-01-19 20:19:37.885154	307.4	29.3	-95.1	0.0
2025-01-19 20:19:39.006741	307.7	29.2	-94.9	0.0
2025-01-19 20:19:40.127985	308.0	29.0	-95.1	0.0
2025-01-19 20:19:41.249362	308.2	28.9	-94.9	0.0
2025-01-19 20:19:42.369463	308.5	28.8	-95.1	0.0
2025-01-19 20:19:43.492898	308.7	28.6	-94.6	0.0
2025-01-19 20:19:44.613170	309.0	28.5	-95.0	0.0
2025-01-19 20:19:45.733450	309.3	28.4	-95.1	0.0
2025-01-19 20:19:46.855218	309.5	28.2	-94.8	0.0
2025-01-19 20:19:47.976180	309.8	28.1	-94.7	0.0
2025-01-19 20:19:49.094541	310.0	27.9	-94.8	0.0
2025-01-19 20:19:50.214454	310.3	27.8	-95.0	0.0
2025-01-19 20:19:51.335651	310.5	27.7	-94.8	0.0
2025-01-19 20:19:52.458709	310.7	27.5	-94.9	0.0
2025-01-19 20:19:53.580545	311.0	27.4	-94.8	0.0
2025-01-19 20:19:54.701459	311.2	27.2	-94.7	0.0
2025-01-19 20:19:55.821835	311.4	27.1	-94.5	0.0
2025-01-19 20:19:56.945692	311.7	27.0	-94.5	0.0
2025-01-19 20:19:58.066546	311.9	26.8	-94.9	0.0
2025-01-19 20:19:59.188346	312.1	26.7	-94.7	0.0
2025-01-19 20:20:00.310306	312.4	26.6	-95.1	0.0
2025-01-19 20:20:01.430747	312.6	26.4	-94.4	0.0
2025-01-19 20:20:02.551183	312.8	26.3	-94.7	0.0
2025-01-19 20:20:03.671132	313.0	26.2	-94.7	0.0
2025-01-19 20:20:04.792181	313.3	26.0	-94.5	0.0
2025-01-19 20:20:05.913217	313.5	25.9	-94.7	0.0
2025-01-19 20:20:07.034884	313.7	25.7	-94.9	0.0
2025-01-19 20:20:08.157235	313.9	25.6	-94.7	0.0
2025-01-19 20:20:09.276225	314.1	25.5	-94.6	0.0
2025-01-19 20:20:10.397879	314.3	25.3	-94.6	0.0
2025-01-19 20:20:11.519601	314.5	25.2	-94.9	0.0
2025-01-19 20:20:12.641489	314.8	25.1	-94.9	0.0
2025-01-19 20:20:13.762588	315.0	24.9	-94.8	0.0
2025-01-19 20:20:14.884294	315.2	24.8	-94.9	0.0
2025-01-19 20:20:16.003187	315.4	24.7	-94.8	0.0
2025-01-19 20:20:17.124449	315.6	24.5	-94.9	0.0
2025-01-19 20:20:18.245472	315.8	24.4	-95.0	0.0
2025-01-19 20:20:19.366547	316.0	24.3	-94.8	0.0
2025-01-19 20:20:20.488831	316.2	24.1	-94.9	0.0
2025-01-19 20:20:21.610579	316.4	24.0	-94.8	0.0
2025-01-19 20:20:22.731449	316.6	23.9	-94.8	0.0
2025-01-19 20:20:23.854603	316.7	23.7	-94.9	0.0
2025-01-19 20:20:24.975986	316.9	23.6	-94.9	0.0
2025-01-19 20:20:26.095170	317.1	23.5	-94.9	0.0
2025-01-19 20:20:27.215117	317.3	23.4	-94.6	0.0
2025-01-19 20:20:28.335898	317.5	23.2	-94.9	0.0
2025-01-19 20:20:29.457600	317.7	23.1	-94.9	0.0
2025-01-19 20:20:30.578749	317.9	23.0	-95.0	0.0
2025-01-19 20:20:31.697043	318.0	22.8	-94.9	0.0
2025-01-19 20:20:32.815610	318.2	22.7	-94.9	0.0
2025-01-19 20:20:33.936621	318.4	22.6	-95.2	0.0
2025-01-19 20:20:35.058994	318.6	22.5	-95.0	0.0
2025-01-19 20:20:36.179433	318.8	22.3	-94.9	0.0
2025-01-19 20:20:37.300217	318.9	22.2	-95.1	0.0
2025-01-19 20:20:38.422148	319.1	22.1	-94.8	0.0
2025-01-19 20:20:39.542449	319.3	21.9	-94.9	0.0
2025-01-19 20:20:40.662695	319.4	21.8	-94.9	0.0
2025-01-19 20:20:41.783615	319.6	21.7	-94.9	0.0
2025-01-19 20:20:42.906780	319.8	21.6	-94.9	0.0
2025-01-19 20:20:44.028930	319.9	21.4	-94.7	0.0
2025-01-19 20:20:45.149701	320.1	21.3	-94.8	0.0
2025-01-19 20:20:46.271585	320.3	21.2	-94.7	0.0
2025-01-19 20:20:47.393312	320.4	21.1	-95.0	0.0
2025-01-19 20:20:48.516899	320.6	21.0	-95.0	0.0
2025-01-19 20:20:49.637629	320.8	20.8	-94.9	0.0
2025-01-19 20:20:50.759459	320.9	20.7	-94.8	0.0
2025-01-19 20:20:51.880311	321.1	20.6	-95.0	0.0
2025-01-19 20:20:53.001771	321.2	20.5	-94.8	0.0
2025-01-19 20:20:54.122699	321.4	20.3	-94.9	0.0
2025-01-19 20:20:55.244248	321.5	20.2	-94.8	0.0
2025-01-19 20:20:56.365619	321.7	20.1	-94.9	0.0
2025-01-19 20:20:57.486853	321.8	20.0	-95.1	0.0
2025-01-19 20:20:58.607703	322.0	19.9	-94.9	0.0
2025-01-19 20:20:59.728212	322.1	19.7	-94.7	0.0
2025-01-19 20:21:00.848704	322.3	19.6	-94.7	0.0
2025-01-19 20:21:01.968897	322.4	19.5	-95.0	0.0
2025-01-19 20:21:03.089721	322.6	19.4	-95.1	0.0
2025-01-19 20:21:04.211756	322.7	19.3	-94.8	0.0
2025-01-19 20:21:05.332409	322.9	19.2	-94.9	0.0
2025-01-19 20:21:06.454051	323.0	19.0	-94.8	0.0
2025-01-19 20:21:07.576448	323.2	18.9	-94.7	0.0
2025-01-19 20:21:08.697661	323.3	18.8	-94.6	0.0
2025-01-19 20:21:09.819476	323.4	18.7	-94.7	0.0
2025-01-19 20:21:10.938630	323.6	18.6	-95.1	0.0
2025-01-19 20:21:12.057387	323.7	18.5	-94.7	0.0
2025-01-19 20:21:13.179618	323.9	18.3	-94.8	0.0
2025-01-19 20:21:14.301619	324.0	18.2	-95.0	0.0
2025-01-19 20:21:15.421159	324.1	18.1	-94.7	0.0
2025-01-19 20:21:16.542832	324.3	18.0	-94.8	0.0
2025-01-19 20:21:17.664484	324.4	17.9	-94.9	0.0
2025-01-19 20:21:18.784717	324.5	17.8	-94.9	0.0
2025-01-19 20:21:19.902909	324.7	17.7	-94.8	0.0
2025-01-19 20:21:21.026708	324.8	17.5	-94.8	0.0
2025-01-19 20:21:22.150642	324.9	17.4	-94.8	0.0
2025-01-19 20:21:23.270090	325.0	17.3	-94.9	0.0
2025-01-19 20:21:24.392344	325.2	17.2	-95.1	0.0
2025-01-19 20:21:25.513513	325.3	17.1	-95.0	0.0
2025-01-19 20:21:26.634484	325.4	17.0	-95.0	0.0
2025-01-19 20:21:27.756457	325.5	16.9	-94.9	0.0
2025-01-19 20:21:28.874633	325.7	16.8	-95.1	0.0
2025-01-19 20:21:29.997343	325.8	16.7	-95.0	0.0
2025-01-19 20:21:31.118130	325.9	16.6	-94.8	0.0
2025-01-19 20:21:32.238048	326.0	16.4	-95.0	0.0
2025-01-19 20:21:33.359509	326.2	16.3	-94.9	0.0
2025-01-19 20:21:34.482408	326.3	16.2	-95.0	0.0
2025-01-19 20:21:35.601276	326.4	16.1	-95.0	0.0
2025-01-19 20:21:36.723242	326.5	16.0	-95.0	0.0
2025-01-19 20:21:37.842380	326.6	15.9	-95.0	0.0
2025-01-19 20:21:38.961620	326.7	15.8	-94.8	0.0
2025-01-19 20:21:40.081884	326.9	15.7	-95.0	0.0
2025-01-19 20:21:41.202315	327.0	15.6	-95.2	0.0
2025-01-19 20:21:42.325593	327.1	15.5	-95.0	0.0
2025-01-19 20:21:43.447495	327.2	15.4	-95.1	0.0
2025-01-19 20:21:44.569524	327.3	15.3	-94.9	0.0
2025-01-19 20:21:45.691855	327.4	15.2	-94.9	0.0
2025-01-19 20:21:46.812505	327.5	15.1	-94.9	0.0
2025-01-19 20:21:47.935118	327.7	15.0	-94.9	0.0
2025-01-19 20:21:49.056957	327.8	14.9	-95.0	0.0
2025-01-19 20:21:50.178756	327.9	14.8	-95.0	0.0
2025-01-19 20:21:51.299157	328.0	14.7	-94.7	0.0
2025-01-19 20:21:52.419688	328.1	14.5	-94.7	0.0
2025-01-19 20:21:53.539720	328.2	14.4	-94.8	0.0
2025-01-19 20:21:54.660228	328.3	14.3	-94.9	0.0
2025-01-19 20:21:55.782530	328.4	14.2	-94.9	0.0
2025-01-19 20:21:56.906417	328.5	14.1	-94.8	0.0
2025-01-19 20:21:58.028531	328.6	14.0	-95.0	0.0
2025-01-19 20:21:59.149286	328.7	13.9	-94.8	0.0
2025-01-19 20:22:00.269240	328.8	13.8	-94.9	0.0
2025-01-19 20:22:01.389604	328.9	13.7	-94.7	0.0
2025-01-19 20:22:02.512624	329.0	13.6	-94.6	0.0
2025-01-19 20:22:03.635625	329.1	13.5	-94.8	0.0
2025-01-19 20:22:04.756723	329.2	13.4	-94.9	0.0
2025-01-19 20:22:05.877186	329.3	13.3	-95.1	0.0
2025-01-19 20:22:06.996438	329.4	13.2	-94.7	0.0
2025-01-19 20:22:08.117926	329.5	13.1	-95.0	0.0
2025-01-19 20:22:09.238614	329.6	13.1	-95.0	0.0
2025-01-19 20:22:10.358962	329.7	13.0	-95.0	0.0
2025-01-19 20:22:11.480423	329.8	12.9	-94.9	0.0
2025-01-19 20:22:12.599207	329.9	12.8	-94.5	0.0
2025-01-19 20:22:13.719873	330.0	12.7	-94.9	0.0
2025-01-19 20:22:14.839306	330.1	12.6	-95.0	0.0
2025-01-19 20:22:15.962170	330.2	12.5	-95.2	0.0
2025-01-19 20:22:17.083586	330.3	12.4	-95.2	0.0
2025-01-19 20:22:18.204487	330.4	12.3	-94.9	0.0
2025-01-19 20:22:19.324412	330.5	12.2	-94.8	0.0
2025-01-19 20:22:20.445592	330.6	12.1	-94.9	0.0
2025-01-19 20:22:21.566991	330.7	12.0	-95.0	0.0
2025-01-19 20:22:22.687735	330.8	11.9	-95.0	0.0
2025-01-19 20:22:23.805472	330.8	11.8	-94.8	0.0
2025-01-19 20:22:24.926150	330.9	11.7	-95.0	0.0
2025-01-19 20:22:26.047773	331.0	11.6	-95.2	0.0
2025-01-19 20:22:27.168705	331.1	11.5	-95.2	0.0
2025-01-19 20:22:28.290311	331.2	11.4	-94.9	0.0
2025-01-19 20:22:29.409222	331.3	11.4	-94.9	0.0
2025-01-19 20:22:30.530001	331.4	11.3	-94.9	0.0
2025-01-19 20:22:31.651589	331.5	11.2	-94.8	0.0
2025-01-19 20:22:32.772421	331.6	11.1	-95.0	0.0
2025-01-19 20:22:33.895390	331.6	11.0	-95.0	0.0
2025-01-19 20:22:35.016671	331.7	10.9	-94.7	0.0
2025-01-19 20:22:36.136605	331.8	10.8	-94.7	0.0
2025-01-19 20:22:37.258719	331.9	10.7	-95.0	0.0
2025-01-19 20:22:38.379399	332.0	10.6	-95.1	0.0
2025-01-19 20:22:39.501216	332.1	10.5	-94.9	0.0
2025-01-19 20:22:40.621492	332.1	10.4	-94.6	0.0
2025-01-19 20:22:41.743618	332.2	10.4	-94.7	0.0
2025-01-19 20:22:42.866574	332.3	10.3	-94.6	0.0
2025-01-19 20:22:43.987019	332.4	10.2	-94.7	0.0
2025-01-19 20:22:45.105557	332.5	10.1	-94.8	0.0
#Closed at: 2025-01-19 20:12:20.176567