passes_logs/2026/01/25/PlanumMoscow/PlanumMoscow__20260125_175900_METOP-C_rec.log

#Pass ID: 20260125_175900_METOP-C
#Satellite: METOP-C
#Configuration: METOP-C
#Start time: 2026-01-25 17:59:05.684408

#LorettStation: 1.0.0 05.05.2024
#Station: PlanumMoscow
#Location: 37.6253844 lon 55.6713361 lat
#TLE: 1 43689U 18087A   25293.88981035  .00000265  00000+0  14109-3 0  9997
#TLE: 2 43689  98.7006 352.4487 0002041 122.1097 238.0279 14.21482740360838

#Time	Az	El	Level	SNR
2026-01-25 18:02:44.136752	158.0	29.8	-66.9	0.0
2026-01-25 18:02:45.259006	158.0	30.0	-67.0	0.0
2026-01-25 18:02:46.381298	158.0	30.2	-67.3	0.0
2026-01-25 18:02:47.503072	158.0	30.4	-67.2	0.0
2026-01-25 18:02:48.625332	158.0	30.7	-67.3	0.0
2026-01-25 18:02:49.747585	157.9	30.9	-66.8	0.0
2026-01-25 18:02:50.869343	157.9	31.1	-66.6	0.0
2026-01-25 18:02:51.996637	157.9	31.3	-67.7	0.0
2026-01-25 18:02:53.118394	157.9	31.6	-66.7	0.0
2026-01-25 18:02:54.240656	157.9	31.8	-67.6	0.0
2026-01-25 18:02:55.362910	157.9	32.0	-66.7	0.0
2026-01-25 18:02:56.485163	157.8	32.3	-67.5	0.0
2026-01-25 18:02:57.606966	157.8	32.5	-67.8	0.0
2026-01-25 18:02:58.728724	157.8	32.7	-68.2	0.0
2026-01-25 18:02:59.854987	157.8	33.0	-68.5	0.0
2026-01-25 18:03:00.977241	157.8	33.2	-68.1	0.0
2026-01-25 18:03:02.099031	157.7	33.4	-67.5	0.0
2026-01-25 18:03:03.221284	157.7	33.7	-68.3	0.0
2026-01-25 18:03:04.343050	157.7	33.9	-67.9	0.0
2026-01-25 18:03:05.465343	157.7	34.2	-68.4	0.0
2026-01-25 18:03:06.587597	157.6	34.4	-68.0	0.0
2026-01-25 18:03:07.711891	157.6	34.7	-68.4	0.0
2026-01-25 18:03:08.834145	157.6	34.9	-68.7	0.0
2026-01-25 18:03:09.956407	157.6	35.2	-68.4	0.0
2026-01-25 18:03:11.078660	157.5	35.5	-68.3	0.0
2026-01-25 18:03:12.200944	157.5	35.7	-68.6	0.0
2026-01-25 18:03:13.323198	157.5	36.0	-68.1	0.0
2026-01-25 18:03:14.445451	157.5	36.2	-68.1	0.0
2026-01-25 18:03:15.567217	157.4	36.5	-69.0	0.0
2026-01-25 18:03:16.711475	157.4	36.8	-69.3	0.0
2026-01-25 18:03:17.833256	157.4	37.1	-69.0	0.0
2026-01-25 18:03:18.955509	157.4	37.3	-67.9	0.0
2026-01-25 18:03:20.077267	157.3	37.6	-68.5	0.0
2026-01-25 18:03:21.199521	157.3	37.9	-68.6	0.0
2026-01-25 18:03:22.321278	157.3	38.2	-67.8	0.0
2026-01-25 18:03:23.443549	157.2	38.4	-67.2	0.0
2026-01-25 18:03:24.565337	157.2	38.7	-69.1	0.0
2026-01-25 18:03:25.687591	157.2	39.0	-69.3	0.0
2026-01-25 18:03:26.809845	157.1	39.3	-69.4	0.0
2026-01-25 18:03:27.932098	157.1	39.6	-68.5	0.0
2026-01-25 18:03:29.054360	157.1	39.9	-69.7	0.0
2026-01-25 18:03:30.176147	157.0	40.2	-69.2	0.0
2026-01-25 18:03:31.298905	157.0	40.5	-68.7	0.0
2026-01-25 18:03:32.421159	157.0	40.8	-68.9	0.0
2026-01-25 18:03:33.543412	156.9	41.1	-69.4	0.0
2026-01-25 18:03:34.665201	156.9	41.4	-69.7	0.0
2026-01-25 18:03:35.788454	156.9	41.7	-69.5	0.0
2026-01-25 18:03:36.910212	156.8	42.0	-69.4	0.0
2026-01-25 18:03:38.032465	156.8	42.3	-69.5	0.0
2026-01-25 18:03:39.154223	156.7	42.7	-69.5	0.0
2026-01-25 18:03:40.279526	156.7	43.0	-69.7	0.0
2026-01-25 18:03:41.401780	156.7	43.3	-69.4	0.0
2026-01-25 18:03:42.524041	156.6	43.6	-70.4	0.0
2026-01-25 18:03:43.645823	156.6	44.0	-69.9	0.0
2026-01-25 18:03:44.768076	156.5	44.3	-68.5	0.0
2026-01-25 18:03:45.890330	156.5	44.6	-69.0	0.0
2026-01-25 18:03:47.012095	156.4	45.0	-69.8	0.0
2026-01-25 18:03:48.133854	156.4	45.3	-70.3	0.0
2026-01-25 18:03:49.256108	156.3	45.6	-69.3	0.0
2026-01-25 18:03:50.377896	156.3	46.0	-68.7	0.0
2026-01-25 18:03:51.499653	156.2	46.3	-69.9	0.0
2026-01-25 18:03:52.621961	156.2	46.7	-69.6	0.0
2026-01-25 18:03:53.744208	156.1	47.0	-70.1	0.0
2026-01-25 18:03:54.865517	156.1	47.4	-70.0	0.0
2026-01-25 18:03:55.987274	156.0	47.8	-69.9	0.0
2026-01-25 18:03:57.112033	156.0	48.1	-70.0	0.0
2026-01-25 18:03:58.234295	155.9	48.5	-69.9	0.0
2026-01-25 18:03:59.355579	155.8	48.9	-70.4	0.0
2026-01-25 18:04:00.477832	155.8	49.2	-70.4	0.0
2026-01-25 18:04:01.599590	155.7	49.6	-70.1	0.0
2026-01-25 18:04:02.721356	155.6	50.0	-70.2	0.0
2026-01-25 18:04:03.843609	155.6	50.4	-70.2	0.0
2026-01-25 18:04:04.969922	155.5	50.8	-70.0	0.0
2026-01-25 18:04:06.092175	155.4	51.2	-69.8	0.0
2026-01-25 18:04:07.214437	155.4	51.5	-70.0	0.0
2026-01-25 18:04:08.336691	155.3	51.9	-70.0	0.0
2026-01-25 18:04:09.458944	155.2	52.3	-70.3	0.0
2026-01-25 18:04:10.580731	155.1	52.7	-70.5	0.0
2026-01-25 18:04:11.702984	155.0	53.1	-70.3	0.0
2026-01-25 18:04:12.824750	155.0	53.6	-70.3	0.0
2026-01-25 18:04:13.946507	154.9	54.0	-69.2	0.0
2026-01-25 18:04:15.067834	154.8	54.4	-70.1	0.0
2026-01-25 18:04:16.189096	154.7	54.8	-70.0	0.0
2026-01-25 18:04:17.311349	154.6	55.2	-69.7	0.0
2026-01-25 18:04:18.433603	154.5	55.6	-70.2	0.0
2026-01-25 18:04:19.555864	154.4	56.1	-70.0	0.0
2026-01-25 18:04:20.678155	154.3	56.5	-70.2	0.0
2026-01-25 18:04:21.799912	154.2	56.9	-70.2	0.0
2026-01-25 18:04:22.921801	154.1	57.4	-70.2	0.0
2026-01-25 18:04:24.044054	154.0	57.8	-70.0	0.0
2026-01-25 18:04:25.165847	153.8	58.3	-68.9	0.0
2026-01-25 18:04:26.288101	153.7	58.7	-69.0	0.0
2026-01-25 18:04:27.410362	153.6	59.1	-70.6	0.0
2026-01-25 18:04:28.532615	153.4	59.6	-70.4	0.0
2026-01-25 18:04:29.655374	153.3	60.1	-69.6	0.0
2026-01-25 18:04:30.779666	153.2	60.5	-70.0	0.0
2026-01-25 18:04:31.901920	153.0	61.0	-70.0	0.0
2026-01-25 18:04:33.025173	152.9	61.4	-68.9	0.0
2026-01-25 18:04:34.147435	152.7	61.9	-69.5	0.0
2026-01-25 18:04:35.269726	152.5	62.4	-69.7	0.0
2026-01-25 18:04:36.391980	152.4	62.9	-70.3	0.0
2026-01-25 18:04:37.514233	152.2	63.3	-70.3	0.0
2026-01-25 18:04:38.637998	152.0	63.8	-69.9	0.0
2026-01-25 18:04:39.760779	151.8	64.3	-69.7	0.0
2026-01-25 18:04:40.883032	151.6	64.8	-69.9	0.0
2026-01-25 18:04:42.004790	151.4	65.3	-69.9	0.0
2026-01-25 18:04:43.127052	151.2	65.8	-69.9	0.0
2026-01-25 18:04:44.249306	150.9	66.3	-70.1	0.0
2026-01-25 18:04:45.371093	150.7	66.8	-70.0	0.0
2026-01-25 18:04:46.492355	150.4	67.3	-70.0	0.0
2026-01-25 18:04:47.614608	150.1	67.8	-70.2	0.0
2026-01-25 18:04:48.736868	149.9	68.3	-69.9	0.0
2026-01-25 18:04:49.859122	149.6	68.8	-70.1	0.0
2026-01-25 18:04:50.980919	149.2	69.3	-70.0	0.0
2026-01-25 18:04:52.103173	148.9	69.8	-69.7	0.0
2026-01-25 18:04:53.224939	148.6	70.3	-70.1	0.0
2026-01-25 18:04:54.346698	148.2	70.8	-70.0	0.0
2026-01-25 18:04:55.468952	147.8	71.4	-69.8	0.0
2026-01-25 18:04:56.591244	147.4	71.9	-70.0	0.0
2026-01-25 18:04:57.713498	146.9	72.4	-69.8	0.0
2026-01-25 18:04:58.835759	146.5	72.9	-70.0	0.0
2026-01-25 18:04:59.958012	145.9	73.4	-70.2	0.0
2026-01-25 18:05:01.080307	145.4	74.0	-70.0	0.0
2026-01-25 18:05:02.202560	144.8	74.5	-69.8	0.0
2026-01-25 18:05:03.324326	144.2	75.0	-70.0	0.0
2026-01-25 18:05:04.446579	143.5	75.5	-69.7	0.0
2026-01-25 18:05:05.568833	142.8	76.1	-70.0	0.0
2026-01-25 18:05:06.691123	142.0	76.6	-70.2	0.0
2026-01-25 18:05:07.813377	141.2	77.1	-69.8	0.0
2026-01-25 18:05:08.935142	140.3	77.7	-70.3	0.0
2026-01-25 18:05:10.056902	139.3	78.2	-69.0	0.0
2026-01-25 18:05:11.179205	138.2	78.7	-69.8	0.0
2026-01-25 18:05:12.301458	136.9	79.2	-69.4	0.0
2026-01-25 18:05:13.423711	135.6	79.7	-69.2	0.0
2026-01-25 18:05:14.545469	134.1	80.2	-70.0	0.0
2026-01-25 18:05:15.667235	132.5	80.7	-70.0	0.0
2026-01-25 18:05:16.789041	130.7	81.2	-69.7	0.0
2026-01-25 18:05:17.911295	128.6	81.7	-69.6	0.0
2026-01-25 18:05:19.032566	126.3	82.2	-69.8	0.0
2026-01-25 18:05:20.154819	123.7	82.7	-69.9	0.0
2026-01-25 18:05:21.277110	120.7	83.1	-68.7	0.0
2026-01-25 18:05:22.399364	117.4	83.5	-70.1	0.0
2026-01-25 18:05:23.521617	113.6	83.9	-69.6	0.0
2026-01-25 18:05:24.643878	109.2	84.3	-70.4	0.0
2026-01-25 18:05:25.766131	104.3	84.6	-69.6	0.0
2026-01-25 18:05:26.887919	98.8	84.9	-69.9	0.0
2026-01-25 18:05:28.011677	92.7	85.2	-70.2	0.0
2026-01-25 18:05:29.132955	86.0	85.3	-68.8	0.0
2026-01-25 18:05:30.255737	78.9	85.4	-69.8	0.0
2026-01-25 18:05:31.377991	71.5	85.5	-70.2	0.0
2026-01-25 18:05:32.500244	64.2	85.4	-69.9	0.0
2026-01-25 18:05:33.621506	57.1	85.3	-71.0	0.0
2026-01-25 18:05:34.743263	50.4	85.2	-70.7	0.0
2026-01-25 18:05:35.868527	44.3	84.9	-70.8	0.0
2026-01-25 18:05:36.990819	38.7	84.6	-70.6	0.0
2026-01-25 18:05:38.113073	33.8	84.3	-70.9	0.0
2026-01-25 18:05:39.235334	29.5	83.9	-71.0	0.0
2026-01-25 18:05:40.357587	25.7	83.5	-70.2	0.0
2026-01-25 18:05:41.479376	22.3	83.1	-70.0	0.0
2026-01-25 18:05:42.601629	19.4	82.7	-70.3	0.0
2026-01-25 18:05:43.724899	16.8	82.2	-70.5	0.0
2026-01-25 18:05:44.846679	14.5	81.7	-70.2	0.0
2026-01-25 18:05:45.968933	12.4	81.2	-69.5	0.0
2026-01-25 18:05:47.091186	10.6	80.7	-70.8	0.0
2026-01-25 18:05:48.212943	8.9	80.2	-70.1	0.0
2026-01-25 18:05:49.335205	7.5	79.7	-70.1	0.0
2026-01-25 18:05:50.457459	6.1	79.2	-68.8	0.0
2026-01-25 18:05:51.579256	4.9	78.7	-70.3	0.0
2026-01-25 18:05:52.701509	3.8	78.2	-69.8	0.0
2026-01-25 18:05:53.823274	2.8	77.7	-70.4	0.0
2026-01-25 18:05:54.945528	1.9	77.1	-70.3	0.0
2026-01-25 18:05:56.067782	1.0	76.6	-69.9	0.0
2026-01-25 18:05:57.189072	0.3	76.1	-70.1	0.0
2026-01-25 18:05:58.311326	359.5	75.6	-69.9	0.0
2026-01-25 18:05:59.432131	358.9	75.0	-69.9	0.0
2026-01-25 18:06:00.554384	358.3	74.5	-70.3	0.0
2026-01-25 18:06:01.676637	357.7	74.0	-69.1	0.0
2026-01-25 18:06:02.798891	357.1	73.5	-68.8	0.0
2026-01-25 18:06:03.921152	356.6	72.9	-69.5	0.0
2026-01-25 18:06:05.042444	356.2	72.4	-69.0	0.0
2026-01-25 18:06:06.164698	355.7	71.9	-69.6	0.0
2026-01-25 18:06:07.286952	355.3	71.4	-70.1	0.0
2026-01-25 18:06:08.408213	354.9	70.9	-69.2	0.0
2026-01-25 18:06:09.529978	354.5	70.3	-68.9	0.0
2026-01-25 18:06:10.652232	354.2	69.8	-69.5	0.0
2026-01-25 18:06:11.774019	353.8	69.3	-69.5	0.0
2026-01-25 18:06:12.896272	353.5	68.8	-68.6	0.0
2026-01-25 18:06:14.018533	353.2	68.3	-68.6	0.0
2026-01-25 18:06:15.140787	352.9	67.8	-69.3	0.0
2026-01-25 18:06:16.262545	352.7	67.3	-69.0	0.0
2026-01-25 18:06:17.385333	352.4	66.8	-68.5	0.0
2026-01-25 18:06:18.507587	352.2	66.3	-69.9	0.0
2026-01-25 18:06:19.629840	351.9	65.8	-69.3	0.0
2026-01-25 18:06:20.752093	351.7	65.3	-68.7	0.0
2026-01-25 18:06:21.873880	351.5	64.8	-69.2	0.0
2026-01-25 18:06:22.996133	351.3	64.3	-69.3	0.0
2026-01-25 18:06:24.117900	351.1	63.9	-69.0	0.0
2026-01-25 18:06:25.244658	350.9	63.4	-69.0	0.0
2026-01-25 18:06:26.366911	350.7	62.9	-68.7	0.0
2026-01-25 18:06:27.488203	350.5	62.4	-68.9	0.0
2026-01-25 18:06:28.610456	350.4	62.0	-68.3	0.0
2026-01-25 18:06:29.732710	350.2	61.5	-69.2	0.0
2026-01-25 18:06:30.854972	350.1	61.0	-69.2	0.0
2026-01-25 18:06:31.976760	349.9	60.6	-69.1	0.0
2026-01-25 18:06:33.104014	349.8	60.1	-68.8	0.0
2026-01-25 18:06:34.226268	349.6	59.6	-69.2	0.0
2026-01-25 18:06:35.348521	349.5	59.2	-69.0	0.0
2026-01-25 18:06:36.470774	349.4	58.7	-69.1	0.0
2026-01-25 18:06:37.593088	349.3	58.3	-67.9	0.0
2026-01-25 18:06:38.715341	349.1	57.9	-68.5	0.0
2026-01-25 18:06:39.837595	349.0	57.4	-67.8	0.0
2026-01-25 18:06:40.959353	348.9	57.0	-68.7	0.0
2026-01-25 18:06:42.081141	348.8	56.5	-66.9	0.0
2026-01-25 18:06:43.203394	348.7	56.1	-68.8	0.0
2026-01-25 18:06:44.325648	348.6	55.7	-67.5	0.0
2026-01-25 18:06:45.447910	348.5	55.3	-67.4	0.0
2026-01-25 18:06:46.570163	348.4	54.9	-68.6	0.0
2026-01-25 18:06:47.692450	348.3	54.4	-67.7	0.0
2026-01-25 18:06:48.814704	348.2	54.0	-68.6	0.0
2026-01-25 18:06:49.935509	348.1	53.6	-67.7	0.0
2026-01-25 18:06:51.057762	348.0	53.2	-68.8	0.0
2026-01-25 18:06:52.179558	348.0	52.8	-69.1	0.0
2026-01-25 18:06:53.301812	347.9	52.4	-67.0	0.0
2026-01-25 18:06:54.424065	347.8	52.0	-68.2	0.0
2026-01-25 18:06:55.547319	347.7	51.6	-68.6	0.0
2026-01-25 18:06:56.669577	347.7	51.2	-68.6	0.0
2026-01-25 18:06:57.790867	347.6	50.8	-68.1	0.0
2026-01-25 18:06:58.918122	347.5	50.4	-68.7	0.0
2026-01-25 18:07:00.039398	347.4	50.1	-68.5	0.0
2026-01-25 18:07:01.161651	347.4	49.7	-67.8	0.0
2026-01-25 18:07:02.283945	347.3	49.3	-68.5	0.0
2026-01-25 18:07:03.406199	347.3	48.9	-68.8	0.0
2026-01-25 18:07:04.527963	347.2	48.6	-69.2	0.0
2026-01-25 18:07:05.649721	347.1	48.2	-68.8	0.0
2026-01-25 18:07:06.771974	347.1	47.8	-68.6	0.0
2026-01-25 18:07:07.893761	347.0	47.5	-69.1	0.0
2026-01-25 18:07:09.016014	347.0	47.1	-68.7	0.0
2026-01-25 18:07:10.138276	346.9	46.8	-69.0	0.0
2026-01-25 18:07:11.260529	346.9	46.4	-68.2	0.0
2026-01-25 18:07:12.382815	346.8	46.1	-68.6	0.0
2026-01-25 18:07:13.505068	346.8	45.7	-68.1	0.0
2026-01-25 18:07:14.626331	346.7	45.4	-68.3	0.0
2026-01-25 18:07:15.748594	346.7	45.0	-68.6	0.0
2026-01-25 18:07:16.870847	346.6	44.7	-69.1	0.0
2026-01-25 18:07:17.992636	346.6	44.4	-68.3	0.0
2026-01-25 18:07:19.114889	346.5	44.1	-68.6	0.0
2026-01-25 18:07:20.237150	346.5	43.7	-69.2	0.0
2026-01-25 18:07:21.358938	346.4	43.4	-68.6	0.0
2026-01-25 18:07:22.481191	346.4	43.1	-68.4	0.0
2026-01-25 18:07:23.604445	346.4	42.8	-68.7	0.0
2026-01-25 18:07:24.726698	346.3	42.4	-68.1	0.0
2026-01-25 18:07:25.848952	346.3	42.1	-68.3	0.0
2026-01-25 18:07:26.971215	346.2	41.8	-68.2	0.0
2026-01-25 18:07:28.156482	346.2	41.5	-68.6	0.0
2026-01-25 18:07:29.279736	346.2	41.2	-67.5	0.0
2026-01-25 18:07:30.401990	346.1	40.9	-68.5	0.0
2026-01-25 18:07:31.524243	346.1	40.6	-67.8	0.0
2026-01-25 18:07:32.646496	346.1	40.3	-68.0	0.0
2026-01-25 18:07:33.767806	346.0	40.0	-67.7	0.0
2026-01-25 18:07:34.890059	346.0	39.7	-68.4	0.0
2026-01-25 18:07:36.012321	346.0	39.4	-68.2	0.0
2026-01-25 18:07:37.134079	345.9	39.1	-68.1	0.0
2026-01-25 18:07:38.256837	345.9	38.8	-67.0	0.0
2026-01-25 18:07:39.378127	345.9	38.5	-66.9	0.0
2026-01-25 18:07:40.500380	345.8	38.3	-68.2	0.0
2026-01-25 18:07:41.622642	345.8	38.0	-66.4	0.0
2026-01-25 18:07:42.744422	345.8	37.7	-67.9	0.0
2026-01-25 18:07:43.866676	345.7	37.4	-68.2	0.0
2026-01-25 18:07:44.987946	345.7	37.2	-67.3	0.0
2026-01-25 18:07:46.110199	345.7	36.9	-67.5	0.0
2026-01-25 18:07:47.232453	345.7	36.6	-66.3	0.0
2026-01-25 18:07:48.354706	345.6	36.3	-67.0	0.0
2026-01-25 18:07:49.476487	345.6	36.1	-67.6	0.0
2026-01-25 18:07:50.598740	345.6	35.8	-68.1	0.0
2026-01-25 18:07:51.721017	345.6	35.6	-67.8	0.0
2026-01-25 18:07:52.842775	345.5	35.3	-67.6	0.0
2026-01-25 18:07:53.964533	345.5	35.1	-67.7	0.0
2026-01-25 18:07:55.086787	345.5	34.8	-67.6	0.0
2026-01-25 18:07:56.209040	345.5	34.5	-66.9	0.0
2026-01-25 18:07:57.331294	345.4	34.3	-67.0	0.0
2026-01-25 18:07:58.453547	345.4	34.1	-67.4	0.0
2026-01-25 18:07:59.575840	345.4	33.8	-66.5	0.0
2026-01-25 18:08:00.698093	345.4	33.6	-67.0	0.0
2026-01-25 18:08:01.822861	345.4	33.3	-66.2	0.0
2026-01-25 18:08:02.944619	345.3	33.1	-66.7	0.0
2026-01-25 18:08:04.066377	345.3	32.8	-67.3	0.0
2026-01-25 18:08:05.188161	345.3	32.6	-66.5	0.0
2026-01-25 18:08:06.310414	345.3	32.4	-67.0	0.0
2026-01-25 18:08:07.432667	345.3	32.1	-66.8	0.0
2026-01-25 18:08:08.554921	345.2	31.9	-66.9	0.0
2026-01-25 18:08:09.681725	345.2	31.7	-67.1	0.0
2026-01-25 18:08:10.804971	345.2	31.5	-67.1	0.0
2026-01-25 18:08:11.927233	345.2	31.2	-67.5	0.0
2026-01-25 18:08:13.049486	345.2	31.0	-67.2	0.0
2026-01-25 18:08:14.171740	345.2	30.8	-66.9	0.0
2026-01-25 18:08:15.294033	345.1	30.6	-66.4	0.0
2026-01-25 18:08:16.416286	345.1	30.4	-66.2	0.0
2026-01-25 18:08:17.542548	345.1	30.1	-67.1	0.0
2026-01-25 18:08:18.665802	345.1	29.9	-66.6	0.0
2026-01-25 18:08:19.788093	345.1	29.7	-67.4	0.0
2026-01-25 18:08:20.910346	345.1	29.5	-67.4	0.0
2026-01-25 18:08:22.032608	345.0	29.3	-67.3	0.0
2026-01-25 18:08:23.154365	345.0	29.1	-66.4	0.0
2026-01-25 18:08:24.276619	345.0	28.9	-67.1	0.0
2026-01-25 18:08:25.397910	345.0	28.7	-67.2	0.0
2026-01-25 18:08:26.519668	345.0	28.5	-66.2	0.0
2026-01-25 18:08:27.641922	345.0	28.3	-66.8	0.0
2026-01-25 18:08:28.764175	345.0	28.1	-67.5	0.0
2026-01-25 18:08:29.886466	344.9	27.9	-67.4	0.0
2026-01-25 18:08:31.008720	344.9	27.7	-67.3	0.0
2026-01-25 18:08:32.130485	344.9	27.5	-67.0	0.0
2026-01-25 18:08:33.252738	344.9	27.3	-67.1	0.0
2026-01-25 18:08:34.374992	344.9	27.1	-67.2	0.0
2026-01-25 18:08:35.502787	344.9	26.9	-66.6	0.0
2026-01-25 18:08:36.625041	344.9	26.7	-67.3	0.0
2026-01-25 18:08:37.747302	344.9	26.5	-66.9	0.0
2026-01-25 18:08:38.869555	344.8	26.3	-67.8	0.0
2026-01-25 18:08:39.991849	344.8	26.1	-66.9	0.0
2026-01-25 18:08:41.114102	344.8	25.9	-66.1	0.0
2026-01-25 18:08:42.235868	344.8	25.8	-66.6	0.0
2026-01-25 18:08:43.363122	344.8	25.6	-65.6	0.0
2026-01-25 18:08:44.485415	344.8	25.4	-67.3	0.0
2026-01-25 18:08:45.607669	344.8	25.2	-67.3	0.0
2026-01-25 18:08:46.729922	344.8	25.0	-67.0	0.0
2026-01-25 18:08:47.852183	344.7	24.8	-66.1	0.0
2026-01-25 18:08:48.973468	344.7	24.7	-66.8	0.0
2026-01-25 18:08:50.095722	344.7	24.5	-65.9	0.0
2026-01-25 18:08:51.218480	344.7	24.3	-67.0	0.0
2026-01-25 18:08:52.340742	344.7	24.1	-67.0	0.0
2026-01-25 18:08:53.462995	344.7	24.0	-66.6	0.0
2026-01-25 18:08:54.584767	344.7	23.8	-67.3	0.0
2026-01-25 18:08:55.706555	344.7	23.6	-67.3	0.0
2026-01-25 18:08:56.828809	344.7	23.5	-67.3	0.0
2026-01-25 18:08:57.950574	344.7	23.3	-67.6	0.0
2026-01-25 18:08:59.074332	344.7	23.1	-67.2	0.0
2026-01-25 18:09:00.196624	344.6	23.0	-67.3	0.0
2026-01-25 18:09:01.318877	344.6	22.8	-66.8	0.0
2026-01-25 18:09:02.441131	344.6	22.6	-66.7	0.0
2026-01-25 18:09:03.563384	344.6	22.5	-67.6	0.0
2026-01-25 18:09:04.684675	344.6	22.3	-67.2	0.0
2026-01-25 18:09:05.806928	344.6	22.2	-66.6	0.0
2026-01-25 18:09:06.929686	344.6	22.0	-65.8	0.0
2026-01-25 18:09:08.051940	344.6	21.8	-65.8	0.0
2026-01-25 18:09:09.174232	344.6	21.7	-66.2	0.0
2026-01-25 18:09:10.296485	344.6	21.5	-66.6	0.0
2026-01-25 18:09:11.418739	344.6	21.4	-66.2	0.0
2026-01-25 18:09:12.540992	344.6	21.2	-67.6	0.0
2026-01-25 18:09:13.663246	344.5	21.1	-66.7	0.0
2026-01-25 18:09:14.784507	344.5	20.9	-67.0	0.0
2026-01-25 18:09:15.906761	344.5	20.8	-67.0	0.0
2026-01-25 18:09:17.029014	344.5	20.6	-66.3	0.0
2026-01-25 18:09:18.150277	344.5	20.5	-66.4	0.0
2026-01-25 18:09:19.272035	344.5	20.3	-66.6	0.0
2026-01-25 18:09:20.394288	344.5	20.2	-65.7	0.0
2026-01-25 18:09:21.516541	344.5	20.0	-66.9	0.0
2026-01-25 18:09:22.638795	344.5	19.9	-66.9	0.0
2026-01-25 18:09:23.762049	344.5	19.7	-67.5	0.0
2026-01-25 18:09:24.884302	344.5	19.6	-66.1	0.0
2026-01-25 18:09:26.006555	344.5	19.4	-67.5	0.0
2026-01-25 18:09:27.128809	344.5	19.3	-66.9	0.0
2026-01-25 18:09:28.251062	344.5	19.1	-66.9	0.0
2026-01-25 18:09:29.373316	344.5	19.0	-67.1	0.0
2026-01-25 18:09:30.495074	344.5	18.9	-67.0	0.0
2026-01-25 18:09:31.617328	344.4	18.7	-66.6	0.0
2026-01-25 18:09:32.739581	344.4	18.6	-67.0	0.0
2026-01-25 18:09:33.861834	344.4	18.4	-66.1	0.0
2026-01-25 18:09:34.984088	344.4	18.3	-66.0	0.0
2026-01-25 18:09:36.106341	344.4	18.2	-66.4	0.0
2026-01-25 18:09:37.228595	344.4	18.0	-66.1	0.0
2026-01-25 18:09:38.350848	344.4	17.9	-66.3	0.0
2026-01-25 18:09:39.473102	344.4	17.8	-66.2	0.0
2026-01-25 18:09:40.595355	344.4	17.6	-66.3	0.0
2026-01-25 18:09:41.717113	344.4	17.5	-66.3	0.0
2026-01-25 18:09:42.840367	344.4	17.4	-66.4	0.0
2026-01-25 18:09:43.962620	344.4	17.2	-66.1	0.0
2026-01-25 18:09:45.084874	344.4	17.1	-66.6	0.0
2026-01-25 18:09:46.207631	344.4	17.0	-66.5	0.0
2026-01-25 18:09:47.330885	344.4	16.8	-65.6	0.0
2026-01-25 18:09:48.453138	344.4	16.7	-65.9	0.0
2026-01-25 18:09:49.575392	344.4	16.6	-66.0	0.0
2026-01-25 18:09:50.697645	344.4	16.5	-65.4	0.0
2026-01-25 18:09:51.819898	344.4	16.3	-65.8	0.0
2026-01-25 18:09:52.942152	344.4	16.2	-65.7	0.0
2026-01-25 18:09:54.063910	344.3	16.1	-66.1	0.0
2026-01-25 18:09:55.186163	344.3	16.0	-65.6	0.0
2026-01-25 18:09:56.310418	344.3	15.8	-65.8	0.0
2026-01-25 18:09:57.432671	344.3	15.7	-66.0	0.0
2026-01-25 18:09:58.554927	344.3	15.6	-66.6	0.0
2026-01-25 18:09:59.677178	344.3	15.5	-65.7	0.0
2026-01-25 18:10:00.796430	344.3	15.3	-67.1	0.0
2026-01-25 18:10:01.916683	344.3	15.2	-65.9	0.0
2026-01-25 18:10:03.037937	344.3	15.1	-66.5	0.0
2026-01-25 18:10:04.156189	344.3	15.0	-66.1	0.0
2026-01-25 18:10:05.276442	344.3	14.9	-65.8	0.0
2026-01-25 18:10:06.395695	344.3	14.7	-65.6	0.0
2026-01-25 18:10:07.512947	344.3	14.6	-65.8	0.0
2026-01-25 18:10:08.633200	344.3	14.5	-65.4	0.0
2026-01-25 18:10:09.751453	344.3	14.4	-64.9	0.0
2026-01-25 18:10:10.872706	344.3	14.3	-65.9	0.0
2026-01-25 18:10:11.988958	344.3	14.2	-65.5	0.0
2026-01-25 18:10:13.108211	344.3	14.0	-66.0	0.0
2026-01-25 18:10:14.224967	344.3	13.9	-65.4	0.0
2026-01-25 18:10:15.343220	344.3	13.8	-64.8	0.0
2026-01-25 18:10:16.460472	344.3	13.7	-65.2	0.0
2026-01-25 18:10:17.580725	344.3	13.6	-65.3	0.0
2026-01-25 18:10:18.699978	344.3	13.5	-64.4	0.0
2026-01-25 18:10:19.817230	344.3	13.4	-65.2	0.0
2026-01-25 18:10:20.937483	344.3	13.3	-65.2	0.0
2026-01-25 18:10:22.055736	344.3	13.1	-65.3	0.0
2026-01-25 18:10:23.174493	344.3	13.0	-65.8	0.0
2026-01-25 18:10:24.291249	344.3	12.9	-65.0	0.0
2026-01-25 18:10:25.413502	344.3	12.8	-65.0	0.0
2026-01-25 18:10:26.532755	344.3	12.7	-65.0	0.0
2026-01-25 18:10:27.651008	344.3	12.6	-64.6	0.0
2026-01-25 18:10:28.769260	344.3	12.5	-64.7	0.0
2026-01-25 18:10:29.890514	344.3	12.4	-64.5	0.0
2026-01-25 18:10:31.009766	344.3	12.3	-63.9	0.0
2026-01-25 18:10:32.127522	344.3	12.2	-64.8	0.0
2026-01-25 18:10:33.245775	344.2	12.1	-65.7	0.0
2026-01-25 18:10:34.367028	344.2	12.0	-65.7	1.8
2026-01-25 18:10:35.486281	344.2	11.9	-65.2	0.1
2026-01-25 18:10:36.605534	344.2	11.8	-65.6	0.0
2026-01-25 18:10:37.724787	344.2	11.6	-64.6	0.0
2026-01-25 18:10:38.846040	344.2	11.5	-65.1	0.0
2026-01-25 18:10:39.964292	344.2	11.4	-64.7	0.0
2026-01-25 18:10:41.084545	344.2	11.3	-65.6	2.1
2026-01-25 18:10:42.203798	344.2	11.2	-65.7	1.1
2026-01-25 18:10:43.323051	344.2	11.1	-65.2	0.0
2026-01-25 18:10:44.442808	344.2	11.0	-64.7	0.0
2026-01-25 18:10:45.562061	344.2	10.9	-64.5	0.0
2026-01-25 18:10:46.680313	344.2	10.8	-64.4	0.0
2026-01-25 18:10:47.798566	344.2	10.7	-65.5	0.0
2026-01-25 18:10:48.918819	344.2	10.6	-65.1	0.0
2026-01-25 18:10:50.040577	344.2	10.5	-65.0	0.0
2026-01-25 18:10:51.162830	344.2	10.4	-64.9	0.0
2026-01-25 18:10:52.280082	344.2	10.3	-65.2	0.0
2026-01-25 18:10:53.399335	344.2	10.2	-64.7	0.0
2026-01-25 18:10:54.522589	344.2	10.1	-64.7	0.0
2026-01-25 18:10:55.644843	344.2	10.0	-64.9	0.0
2026-01-25 18:10:56.767096	344.2	9.9	-65.3	0.0
2026-01-25 18:10:57.889349	344.2	9.8	-65.4	0.0
2026-01-25 18:10:59.008106	344.2	9.7	-65.5	0.0
2026-01-25 18:11:00.129359	344.2	9.7	-63.7	0.0
2026-01-25 18:11:01.247612	344.2	9.6	-64.2	0.1
2026-01-25 18:11:02.366864	344.2	9.5	-65.2	3.0
2026-01-25 18:11:03.486117	344.2	9.4	-64.4	0.0
2026-01-25 18:11:04.604369	344.2	9.3	-64.8	2.1
2026-01-25 18:11:05.727623	344.2	9.2	-64.5	0.0
2026-01-25 18:11:06.847380	344.2	9.1	-64.5	0.0
2026-01-25 18:11:07.967633	344.2	9.0	-64.7	0.0
2026-01-25 18:11:09.085886	344.2	8.9	-63.7	0.0
2026-01-25 18:11:10.204138	344.2	8.8	-64.5	0.0
2026-01-25 18:11:11.326392	344.2	8.7	-64.8	0.0
2026-01-25 18:11:12.448645	344.2	8.6	-64.8	0.0
2026-01-25 18:11:13.572899	344.2	8.5	-64.2	0.0
2026-01-25 18:11:14.694657	344.2	8.4	-64.9	0.0
2026-01-25 18:11:15.815414	344.2	8.3	-65.0	0.0
2026-01-25 18:11:16.936667	344.2	8.3	-64.4	0.0
2026-01-25 18:11:18.058921	344.2	8.2	-63.5	0.0
2026-01-25 18:11:19.181174	344.2	8.1	-63.9	0.0
2026-01-25 18:11:20.303428	344.2	8.0	-63.0	0.0
2026-01-25 18:11:21.425681	344.2	7.9	-63.2	0.0
2026-01-25 18:11:22.547439	344.2	7.8	-64.1	0.0
2026-01-25 18:11:23.669196	344.2	7.7	-63.7	0.0
2026-01-25 18:11:24.792450	344.2	7.6	-64.9	0.0
2026-01-25 18:11:25.914713	344.2	7.5	-64.6	0.0
2026-01-25 18:11:27.036966	344.2	7.5	-63.9	0.0
2026-01-25 18:11:28.159219	344.2	7.4	-64.1	0.0
2026-01-25 18:11:29.281473	344.2	7.3	-62.9	0.0
2026-01-25 18:11:30.403726	344.2	7.2	-64.3	0.0
2026-01-25 18:11:31.524988	344.2	7.1	-64.6	0.0
2026-01-25 18:11:32.646753	344.2	7.0	-64.6	0.0
2026-01-25 18:11:33.769047	344.2	6.9	-64.4	0.0
2026-01-25 18:11:34.891301	344.2	6.8	-64.2	0.0
2026-01-25 18:11:36.012602	344.2	6.8	-63.6	0.0
2026-01-25 18:11:37.134855	344.2	6.7	-63.2	0.0
2026-01-25 18:11:38.257109	344.2	6.6	-63.9	0.0
2026-01-25 18:11:39.422380	344.2	6.5	-63.5	0.0
2026-01-25 18:11:40.542670	344.2	6.4	-63.3	0.0
2026-01-25 18:11:41.662923	344.2	6.3	-64.1	0.0
2026-01-25 18:11:42.783689	344.2	6.2	-64.2	0.0
2026-01-25 18:11:43.903447	344.2	6.2	-63.7	0.0
2026-01-25 18:11:45.025204	344.2	6.1	-64.0	0.0
2026-01-25 18:11:46.142960	344.2	6.0	-64.2	0.0
2026-01-25 18:11:47.262213	344.2	5.9	-63.8	1.5
2026-01-25 18:11:48.381970	344.2	5.8	-64.7	0.0
2026-01-25 18:11:49.498239	344.2	5.8	-65.9	0.0
2026-01-25 18:11:50.616996	344.2	5.7	-66.4	0.0
2026-01-25 18:11:51.735753	344.2	5.6	-67.0	0.0
2026-01-25 18:11:52.854005	344.2	5.5	-66.8	0.0
2026-01-25 18:11:53.973762	344.2	5.4	-66.0	0.0
2026-01-25 18:11:55.095015	344.2	5.3	-67.5	0.0
2026-01-25 18:11:56.213281	344.2	5.3	-67.2	0.0
2026-01-25 18:11:57.334573	344.2	5.2	-64.6	0.0
2026-01-25 18:11:58.453834	344.2	5.1	-67.1	0.0
2026-01-25 18:11:59.573591	344.2	5.0	-67.3	0.0
#Closed at: 2026-01-25 17:59:00.685476