passes_logs/2026/01/17/R4.6S_Anadyr/R4.6S_Anadyr__20260117_133712_NOAA_21_JPSS-2_rec.log

#Pass ID: 20260117_133712_NOAA 21 (JPSS-2)
#Satellite: NOAA 21 (JPSS-2)
#Configuration: NOAA-21
#almurnet v.1.7.20251203
#Start time: 2026-01-17 13:37:13

#Version: 2.2.20231116
#Station: R4.6S_Anadyr
#Location: 177.4865 lon 64.73178 lat
#TLE: 1 54234U 22150A   26016.56338662  .00000024  00000+0  32257-4 0  9990
#TLE: 2 54234  98.7500 317.4442 0000622 279.9774  80.1332 14.19534942165033

#Time	Az	El	Level	Level2	SNR	BER	BlckErr	Temp	State	Recorded	gain1	gain2
2026-01-17 13:37:13.71	18.93	0.04	-48.5	-63.4	3.6	1.51e+00	0	25	0	0	60	53360
2026-01-17 13:37:14.72	18.96	0.10	-48.7	-61.5	3.5	1.52e+00	0	26	104	0	60	41796
2026-01-17 13:37:15.73	19.00	0.16	-48.6	-61.5	3.5	1.52e+00	0	26	104	0	60	41655
2026-01-17 13:37:16.73	19.04	0.22	-48.6	-61.5	3.5	1.52e+00	0	26	104	0	60	41823
2026-01-17 13:37:17.74	19.08	0.28	-48.7	-61.5	3.5	1.51e+00	0	26	104	0	60	41656
2026-01-17 13:37:18.75	19.11	0.33	-48.7	-61.5	3.5	1.51e+00	0	26	104	0	60	41730
2026-01-17 13:37:19.76	19.15	0.39	-48.6	-61.5	3.5	1.52e+00	0	26	104	0	60	41670
2026-01-17 13:37:20.77	19.19	0.45	-48.6	-61.5	3.5	1.52e+00	0	27	104	0	60	41678
2026-01-17 13:37:21.78	19.23	0.51	-48.6	-61.4	3.5	1.52e+00	0	27	104	0	60	41381
2026-01-17 13:37:22.79	19.27	0.57	-48.5	-61.3	3.5	1.52e+00	0	26	104	0	60	40952
2026-01-17 13:37:23.80	19.30	0.63	-48.4	-61.3	3.5	1.52e+00	0	26	104	0	60	40596
2026-01-17 13:37:24.81	19.34	0.68	-48.3	-61.2	3.5	1.52e+00	0	27	104	0	60	40203
2026-01-17 13:37:25.82	19.38	0.74	-48.1	-60.9	3.5	1.52e+00	0	26	104	0	60	39074
2026-01-17 13:37:26.83	19.42	0.80	-47.9	-60.8	3.5	1.52e+00	0	27	104	0	60	38319
2026-01-17 13:37:27.84	19.46	0.86	-47.7	-60.5	3.5	1.52e+00	0	27	104	0	60	37377
2026-01-17 13:37:28.85	19.50	0.92	-47.5	-60.3	3.5	1.52e+00	0	27	104	0	60	36162
2026-01-17 13:37:29.86	19.54	0.98	-47.1	-59.9	3.5	1.52e+00	0	27	104	0	60	34749
2026-01-17 13:37:30.87	19.58	1.04	-47.1	-59.8	3.5	1.52e+00	0	27	104	0	60	34342
2026-01-17 13:37:31.88	19.62	1.10	-47.1	-59.9	3.5	1.51e+00	0	27	104	0	60	34547
2026-01-17 13:37:32.89	19.66	1.16	-47.1	-59.9	3.5	1.52e+00	0	27	104	0	60	34535
2026-01-17 13:37:33.90	19.70	1.22	-47.0	-59.9	3.5	1.52e+00	0	27	104	0	60	34591
2026-01-17 13:37:34.91	19.74	1.28	-47.0	-59.8	3.5	1.52e+00	0	27	104	0	60	34342
2026-01-17 13:37:35.92	19.78	1.34	-47.0	-59.9	3.5	1.52e+00	0	27	104	0	60	34668
2026-01-17 13:37:36.93	19.82	1.40	-47.0	-59.8	3.5	1.51e+00	0	27	104	0	60	34402
2026-01-17 13:37:37.94	19.86	1.46	-47.0	-59.7	3.5	1.51e+00	0	27	104	0	60	34086
2026-01-17 13:37:38.95	19.90	1.52	-47.0	-59.8	3.5	1.52e+00	0	27	104	0	60	34346
2026-01-17 13:37:39.96	19.94	1.58	-47.0	-59.8	3.5	1.52e+00	0	27	104	0	60	34307
2026-01-17 13:37:40.96	19.98	1.64	-47.0	-59.7	3.5	1.51e+00	0	27	104	0	60	34025
2026-01-17 13:37:41.97	20.02	1.70	-47.0	-59.8	3.5	1.52e+00	0	27	104	0	60	34181
2026-01-17 13:37:42.98	20.06	1.76	-47.0	-59.8	3.5	1.52e+00	0	27	104	0	60	34151
2026-01-17 13:37:43.99	20.10	1.82	-47.0	-59.8	3.5	1.52e+00	0	27	104	0	60	34354
2026-01-17 13:37:45.00	20.14	1.88	-47.0	-59.8	3.5	1.52e+00	0	27	104	0	60	34318
2026-01-17 13:37:46.01	20.18	1.94	-47.0	-59.7	3.5	1.51e+00	0	27	104	0	60	34022
2026-01-17 13:37:47.02	20.23	2.00	-47.0	-59.8	3.5	1.51e+00	0	27	104	0	60	34358
2026-01-17 13:37:48.03	20.27	2.07	-47.0	-59.8	3.5	1.52e+00	0	27	104	0	60	34412
2026-01-17 13:37:49.04	20.31	2.13	-47.0	-59.7	3.5	1.52e+00	0	27	104	0	60	33935
2026-01-17 13:37:50.05	20.35	2.19	-47.0	-59.5	3.5	1.52e+00	0	27	104	0	60	33134
2026-01-17 13:37:51.06	20.39	2.25	-47.0	-59.0	3.5	1.52e+00	0	27	104	0	60	31357
2026-01-17 13:37:52.07	20.44	2.31	-46.9	-58.5	3.5	1.51e+00	0	27	104	0	60	29669
2026-01-17 13:37:53.08	20.48	2.38	-46.9	-58.4	3.5	1.51e+00	0	27	104	0	60	29115
2026-01-17 13:37:54.09	20.52	2.44	-46.9	-58.5	3.5	1.51e+00	0	27	104	0	60	29690
2026-01-17 13:37:55.10	20.57	2.50	-47.0	-59.6	3.5	1.52e+00	0	27	104	0	60	33379
2026-01-17 13:37:56.11	20.61	2.56	-47.0	-59.7	3.5	1.52e+00	0	27	104	0	60	34058
2026-01-17 13:37:57.12	20.65	2.62	-46.9	-58.2	3.6	1.52e+00	0	27	104	0	60	28600
2026-01-17 13:37:58.12	20.69	2.69	-46.4	-54.5	5.5	6.93e-01	122	27	104	0	60	18698
2026-01-17 13:37:59.13	20.74	2.75	-45.0	-49.2	9.7	3.20e-02	122	27	0	2097152	60	10142
2026-01-17 13:38:00.14	20.78	2.81	-43.9	-47.1	11.9	8.44e-04	120	27	0	5242880	60	7957
2026-01-17 13:38:01.12	20.82	2.87	-42.5	-44.8	14.7	1.98e-05	123	27	0	8388608	60	6118
2026-01-17 13:38:02.12	20.87	2.94	-40.6	-42.3	16.7	0.00e+00	121	27	0	11534336	56	5785
2026-01-17 13:38:03.13	20.91	3.00	-39.6	-41.1	18.0	0.00e+00	122	27	0	14680064	52	6321
2026-01-17 13:38:04.14	20.96	3.06	-39.2	-40.7	18.4	0.00e+00	122	27	0	17825792	52	6025
2026-01-17 13:38:05.15	21.00	3.13	-38.4	-39.7	19.1	0.00e+00	123	27	0	20971520	50	6064
2026-01-17 13:38:06.16	21.05	3.19	-38.3	-39.6	19.3	0.00e+00	123	27	0	24117248	50	5937
2026-01-17 13:38:07.17	21.09	3.25	-38.6	-39.9	19.0	0.00e+00	123	27	0	27262976	50	6159
2026-01-17 13:38:08.18	21.14	3.32	-38.7	-40.0	18.8	0.00e+00	123	27	0	30408704	50	6274
2026-01-17 13:38:09.19	21.18	3.38	-40.1	-41.7	17.2	0.00e+00	123	27	0	33554432	52	6747
2026-01-17 13:38:10.20	21.23	3.45	-41.4	-43.3	15.7	0.00e+00	123	27	0	36700160	54	7277
2026-01-17 13:38:11.21	21.27	3.51	-42.4	-44.6	14.8	2.20e-06	122	27	0	39845888	56	7540
2026-01-17 13:38:12.21	21.32	3.57	-38.6	-39.9	18.9	0.00e+00	122	27	0	42991616	50	6192
2026-01-17 13:38:13.22	21.36	3.64	-46.7	-56.9	4.5	1.07e+00	0	27	104	45088768	60	24667
2026-01-17 13:38:14.23	21.41	3.70	-45.5	-50.2	9.3	2.05e-02	123	27	0	46137344	60	11391
2026-01-17 13:38:15.24	21.46	3.77	-41.7	-43.6	16.3	0.00e+00	123	27	0	49283072	56	6695
2026-01-17 13:38:16.25	21.50	3.83	-46.9	-58.2	3.5	1.51e+00	0	27	104	50331648	60	28632
2026-01-17 13:38:17.26	21.55	3.90	-42.5	-45.3	13.9	7.75e-02	122	27	104	50331648	58	7225
2026-01-17 13:38:18.27	21.60	3.96	-42.3	-44.4	14.7	7.00e-07	122	27	0	51380224	58	6562
2026-01-17 13:38:19.28	21.64	4.03	-42.7	-45.0	14.2	1.50e-06	123	27	0	55574528	58	7007
2026-01-17 13:38:20.29	21.69	4.10	-41.8	-43.8	15.6	7.00e-07	123	27	0	57671680	58	6075
2026-01-17 13:38:21.30	21.74	4.16	-41.5	-43.4	16.1	0.00e+00	122	27	0	60817408	56	6502
2026-01-17 13:38:22.30	21.79	4.23	-41.4	-43.3	16.2	0.00e+00	120	27	0	63963136	56	6438
2026-01-17 13:38:23.31	21.83	4.29	-41.3	-43.1	16.2	0.00e+00	123	27	0	67108864	56	6302
2026-01-17 13:38:24.32	21.88	4.36	-41.8	-43.8	16.1	0.00e+00	123	27	0	70254592	56	6810
2026-01-17 13:38:25.34	21.93	4.43	-40.6	-42.3	16.7	0.00e+00	122	27	0	74448896	54	6435
2026-01-17 13:38:26.34	21.98	4.49	-41.2	-43.1	16.5	0.00e+00	120	27	0	77594624	54	7058
2026-01-17 13:38:27.36	22.03	4.56	-41.3	-43.2	16.0	0.00e+00	123	27	0	79691776	56	6382
2026-01-17 13:38:28.37	22.08	4.63	-41.7	-43.7	15.8	0.00e+00	123	27	0	82837504	56	6756
2026-01-17 13:38:29.38	22.13	4.69	-41.6	-43.4	15.7	0.00e+00	122	27	0	85983232	56	6566
2026-01-17 13:38:30.38	22.17	4.76	-41.7	-43.6	16.1	0.00e+00	120	27	0	90177536	56	6699
2026-01-17 13:38:31.39	22.22	4.83	-41.5	-43.4	16.2	0.00e+00	122	27	0	93323264	56	6536
2026-01-17 13:38:32.41	22.27	4.89	-41.3	-43.1	15.9	0.00e+00	120	27	0	96468992	56	6326
2026-01-17 13:38:33.42	22.32	4.96	-41.2	-43.0	16.5	0.00e+00	123	27	0	99614720	56	6261
2026-01-17 13:38:34.42	22.37	5.03	-41.0	-42.8	16.2	0.00e+00	120	27	0	102760448	56	6078
2026-01-17 13:38:35.44	22.42	5.10	-40.9	-42.6	16.8	0.00e+00	123	27	0	105906176	54	6706
2026-01-17 13:38:36.45	22.47	5.17	-39.5	-40.9	18.5	0.00e+00	123	27	0	109051904	52	6142
2026-01-17 13:38:37.46	22.52	5.23	-38.9	-40.2	19.1	0.00e+00	123	27	0	112197632	52	5683
2026-01-17 13:38:38.46	22.58	5.30	-38.6	-39.9	19.1	0.00e+00	122	27	0	115343360	50	6184
2026-01-17 13:38:39.47	22.63	5.37	-38.3	-39.5	19.9	0.00e+00	120	27	0	118489088	50	5891
2026-01-17 13:38:40.48	22.68	5.44	-37.9	-39.1	20.1	0.00e+00	123	27	0	121634816	50	5630
2026-01-17 13:38:41.49	22.73	5.51	-37.8	-39.0	20.1	0.00e+00	120	27	0	124780544	50	5565
2026-01-17 13:38:42.50	22.78	5.58	-37.7	-38.9	20.2	0.00e+00	123	27	0	127926272	50	5513
2026-01-17 13:38:43.50	22.83	5.65	-37.5	-38.7	20.5	0.00e+00	122	27	0	131072000	48	6004
2026-01-17 13:38:44.51	22.89	5.71	-37.5	-38.6	20.5	0.00e+00	123	27	0	134217728	48	5979
2026-01-17 13:38:45.52	22.94	5.78	-37.5	-38.7	20.5	0.00e+00	122	27	0	137363456	48	5999
2026-01-17 13:38:46.53	22.99	5.85	-37.9	-39.1	20.1	0.00e+00	120	27	0	140509184	48	6291
2026-01-17 13:38:47.54	23.04	5.92	-37.8	-39.0	20.3	0.00e+00	122	27	0	143654912	48	6236
2026-01-17 13:38:48.55	23.10	5.99	-37.7	-38.8	20.4	0.00e+00	122	27	0	146800640	48	6116
2026-01-17 13:38:49.56	23.15	6.06	-37.1	-38.3	20.8	0.00e+00	122	27	0	149946368	48	5738
2026-01-17 13:38:50.57	23.20	6.13	-37.5	-38.7	20.6	0.00e+00	122	27	0	153092096	48	6026
2026-01-17 13:38:51.58	23.26	6.20	-37.3	-38.5	20.7	0.00e+00	122	27	0	156237824	48	5868
2026-01-17 13:38:52.58	23.31	6.27	-37.2	-38.3	20.8	0.00e+00	122	27	0	159383552	48	5789
2026-01-17 13:38:53.60	23.37	6.35	-37.0	-38.1	21.0	0.00e+00	122	27	0	162529280	48	5651
2026-01-17 13:38:54.61	23.42	6.42	-37.2	-38.3	20.9	0.00e+00	120	27	0	165675008	48	5766
2026-01-17 13:38:55.61	23.47	6.49	-37.0	-38.2	20.9	0.00e+00	122	27	0	168820736	48	5666
2026-01-17 13:38:56.62	23.53	6.56	-37.3	-38.4	20.9	0.00e+00	122	27	0	171966464	48	5847
2026-01-17 13:38:57.63	23.58	6.63	-37.3	-38.4	20.9	0.00e+00	122	27	0	175112192	48	5830
2026-01-17 13:38:58.64	23.64	6.70	-37.0	-38.1	21.1	0.00e+00	120	27	0	178257920	48	5619
2026-01-17 13:38:59.65	23.70	6.77	-37.0	-38.1	21.1	0.00e+00	123	28	0	181403648	48	5622
2026-01-17 13:39:00.66	23.75	6.85	-37.1	-38.2	21.1	0.00e+00	123	27	0	184549376	48	5663
2026-01-17 13:39:01.67	23.81	6.92	-37.1	-38.2	21.1	0.00e+00	122	28	0	187695104	48	5719
2026-01-17 13:39:02.68	23.87	6.99	-37.0	-38.1	21.1	0.00e+00	122	27	0	190840832	46	6318
2026-01-17 13:39:03.69	23.92	7.06	-37.0	-38.1	21.2	0.00e+00	122	28	0	193986560	46	6288
2026-01-17 13:39:04.69	23.98	7.14	-36.9	-38.0	21.3	0.00e+00	122	27	0	197132288	46	6213
2026-01-17 13:39:05.70	24.04	7.21	-36.6	-37.7	21.5	0.00e+00	120	28	0	200278016	46	6033
2026-01-17 13:39:06.71	24.09	7.28	-36.6	-37.7	21.5	0.00e+00	123	27	0	203423744	46	6020
2026-01-17 13:39:07.72	24.15	7.36	-36.8	-37.8	21.4	0.00e+00	122	28	0	206569472	46	6129
2026-01-17 13:39:08.73	24.21	7.43	-36.6	-37.7	21.6	0.00e+00	123	28	0	209715200	46	6034
2026-01-17 13:39:09.74	24.27	7.50	-36.6	-37.7	21.5	0.00e+00	123	28	0	212860928	46	6036
2026-01-17 13:39:10.75	24.33	7.58	-36.6	-37.7	21.6	0.00e+00	122	28	0	216006656	46	6034
2026-01-17 13:39:11.76	24.39	7.65	-36.5	-37.6	21.6	0.00e+00	122	28	0	219152384	46	5939
2026-01-17 13:39:12.77	24.45	7.73	-36.5	-37.5	21.7	0.00e+00	122	28	0	222298112	46	5889
2026-01-17 13:39:13.78	24.50	7.80	-36.6	-37.6	21.7	0.00e+00	122	28	0	225443840	46	5983
2026-01-17 13:39:14.79	24.56	7.88	-36.4	-37.5	21.7	0.00e+00	123	28	0	228589568	46	5867
2026-01-17 13:39:15.79	24.62	7.95	-36.3	-37.4	21.8	0.00e+00	123	28	0	231735296	46	5819
2026-01-17 13:39:16.80	24.68	8.03	-36.3	-37.3	21.8	0.00e+00	120	28	0	234881024	46	5758
2026-01-17 13:39:17.81	24.74	8.10	-36.4	-37.4	21.8	0.00e+00	123	28	0	238026752	46	5838
2026-01-17 13:39:18.82	24.81	8.18	-36.3	-37.4	21.8	0.00e+00	120	28	0	241172480	46	5810
2026-01-17 13:39:19.83	24.87	8.25	-36.3	-37.3	21.8	0.00e+00	123	28	0	244318208	46	5790
2026-01-17 13:39:20.84	24.93	8.33	-36.4	-37.4	21.7	0.00e+00	123	28	0	247463936	46	5842
2026-01-17 13:39:21.85	24.99	8.40	-36.6	-37.7	21.7	0.00e+00	122	28	0	250609664	46	6016
2026-01-17 13:39:22.86	25.05	8.48	-36.5	-37.5	21.7	0.00e+00	122	28	0	253755392	46	5920
2026-01-17 13:39:23.87	25.12	8.56	-36.4	-37.4	21.9	0.00e+00	122	28	0	256901120	46	5833
2026-01-17 13:39:24.88	25.18	8.63	-36.1	-37.2	22.0	0.00e+00	122	28	0	260046848	46	5668
2026-01-17 13:39:25.89	25.24	8.71	-36.1	-37.2	22.1	0.00e+00	120	28	0	263192576	46	5663
2026-01-17 13:39:26.90	25.30	8.79	-36.0	-37.0	22.2	0.00e+00	121	28	0	266338304	46	5578
2026-01-17 13:39:27.91	25.37	8.87	-36.1	-37.2	22.2	0.00e+00	123	28	0	269484032	46	5674
2026-01-17 13:39:28.92	25.43	8.94	-36.0	-37.1	22.1	0.00e+00	120	28	0	272629760	46	5596
2026-01-17 13:39:29.93	25.50	9.02	-35.9	-36.9	22.3	0.00e+00	122	28	0	275775488	46	5529
2026-01-17 13:39:30.94	25.56	9.10	-36.0	-37.0	22.3	0.00e+00	123	28	0	278921216	46	5566
2026-01-17 13:39:31.95	25.63	9.18	-35.9	-37.0	22.2	0.00e+00	123	28	0	282066944	46	5552
2026-01-17 13:39:32.96	25.69	9.26	-36.0	-37.1	22.2	0.00e+00	120	28	0	285212672	46	5614
2026-01-17 13:39:33.97	25.76	9.33	-35.6	-36.6	22.5	0.00e+00	123	28	0	288358400	44	5988
2026-01-17 13:39:34.97	25.82	9.41	-35.7	-36.7	22.4	0.00e+00	122	28	0	291504128	44	6035
2026-01-17 13:39:35.98	25.89	9.49	-35.8	-36.8	22.3	0.00e+00	122	28	0	294649856	44	6115
2026-01-17 13:39:36.99	25.95	9.57	-35.6	-36.6	22.6	0.00e+00	123	28	0	297795584	44	5951
2026-01-17 13:39:38.00	26.02	9.65	-35.9	-36.9	22.4	0.00e+00	120	28	0	300941312	44	6143
2026-01-17 13:39:39.01	26.09	9.73	-35.7	-36.7	22.4	0.00e+00	123	28	0	304087040	44	6048
2026-01-17 13:39:40.02	26.16	9.81	-35.7	-36.7	22.5	0.00e+00	123	28	0	307232768	44	6031
2026-01-17 13:39:41.03	26.22	9.89	-35.8	-36.8	22.4	0.00e+00	123	28	0	310378496	44	6128
2026-01-17 13:39:42.04	26.29	9.97	-35.3	-36.3	22.8	0.00e+00	122	28	0	313524224	44	5740
2026-01-17 13:39:43.05	26.36	10.05	-35.4	-36.3	22.8	0.00e+00	122	28	0	316669952	44	5783
2026-01-17 13:39:44.05	26.43	10.13	-35.5	-36.5	22.7	0.00e+00	123	28	0	319815680	44	5865
2026-01-17 13:39:45.06	26.50	10.21	-35.5	-36.5	22.7	0.00e+00	120	28	0	322961408	44	5893
2026-01-17 13:39:46.07	26.57	10.30	-35.4	-36.4	22.8	0.00e+00	123	28	0	326107136	44	5831
2026-01-17 13:39:47.08	26.64	10.38	-35.7	-36.7	22.5	0.00e+00	123	28	0	329252864	44	6052
2026-01-17 13:39:48.09	26.71	10.46	-35.8	-36.8	22.4	0.00e+00	123	28	0	332398592	44	6099
2026-01-17 13:39:49.10	26.78	10.54	-35.5	-36.5	22.6	0.00e+00	123	28	0	335544320	44	5893
2026-01-17 13:39:50.11	26.85	10.62	-35.4	-36.4	22.9	0.00e+00	122	28	0	338690048	44	5831
2026-01-17 13:39:51.13	26.92	10.71	-35.3	-36.3	22.8	0.00e+00	122	28	0	341835776	44	5749
2026-01-17 13:39:52.13	26.99	10.79	-35.4	-36.4	22.8	0.00e+00	122	28	0	344981504	44	5813
2026-01-17 13:39:53.14	27.07	10.87	-35.3	-36.3	22.8	0.00e+00	122	28	0	348127232	44	5745
2026-01-17 13:39:54.15	27.14	10.96	-35.5	-36.4	22.8	0.00e+00	123	28	0	351272960	44	5848
2026-01-17 13:39:55.16	27.21	11.04	-35.6	-36.6	22.6	0.00e+00	120	28	0	354418688	44	5938
2026-01-17 13:39:56.17	27.29	11.12	-35.4	-36.4	22.9	0.00e+00	123	28	0	357564416	44	5832
2026-01-17 13:39:57.18	27.36	11.21	-35.2	-36.2	23.0	0.00e+00	123	28	0	360710144	44	5674
2026-01-17 13:39:58.19	27.43	11.29	-35.3	-36.3	23.0	0.00e+00	120	28	0	363855872	44	5732
2026-01-17 13:39:59.20	27.51	11.38	-35.1	-36.0	23.0	0.00e+00	122	28	0	367001600	44	5588
2026-01-17 13:40:00.21	27.58	11.46	-35.2	-36.1	23.2	0.00e+00	120	28	0	370147328	44	5639
2026-01-17 13:40:01.22	27.66	11.55	-35.2	-36.2	23.0	0.00e+00	123	28	0	373293056	44	5688
2026-01-17 13:40:02.23	27.74	11.63	-34.9	-35.9	23.2	0.00e+00	123	28	0	376438784	44	5481
2026-01-17 13:40:03.24	27.81	11.72	-34.8	-35.7	23.4	0.00e+00	122	28	0	379584512	44	5397
2026-01-17 13:40:04.25	27.89	11.80	-34.8	-35.8	23.3	0.00e+00	122	28	0	382730240	44	5423
2026-01-17 13:40:05.26	27.97	11.89	-34.8	-35.7	23.4	0.00e+00	123	28	0	385875968	44	5399
2026-01-17 13:40:06.27	28.04	11.98	-34.9	-35.8	23.3	0.00e+00	122	27	0	389021696	42	6122
2026-01-17 13:40:07.28	28.12	12.06	-34.9	-35.8	23.3	0.00e+00	122	28	0	392167424	42	6108
2026-01-17 13:40:08.29	28.20	12.15	-34.8	-35.8	23.4	0.00e+00	123	28	0	395313152	42	6068
2026-01-17 13:40:09.30	28.28	12.24	-34.8	-35.8	23.3	0.00e+00	123	28	0	398458880	42	6084
2026-01-17 13:40:10.31	28.36	12.32	-34.7	-35.6	23.5	0.00e+00	123	28	0	401604608	42	5958
2026-01-17 13:40:11.32	28.44	12.41	-34.6	-35.6	23.5	0.00e+00	123	28	0	404750336	42	5946
2026-01-17 13:40:12.33	28.52	12.50	-34.7	-35.6	23.5	0.00e+00	122	28	0	407896064	42	5971
2026-01-17 13:40:13.34	28.60	12.59	-34.7	-35.6	23.5	0.00e+00	123	28	0	411041792	42	5987
2026-01-17 13:40:14.34	28.68	12.68	-34.5	-35.5	23.6	0.00e+00	122	28	0	414187520	42	5863
2026-01-17 13:40:15.35	28.76	12.77	-34.4	-35.3	23.7	0.00e+00	123	28	0	417333248	42	5772
2026-01-17 13:40:16.36	28.84	12.85	-34.6	-35.5	23.6	0.00e+00	120	28	0	420478976	42	5911
2026-01-17 13:40:17.37	28.93	12.94	-34.5	-35.4	23.7	0.00e+00	123	28	0	423624704	42	5849
2026-01-17 13:40:18.38	29.01	13.03	-34.5	-35.4	23.7	0.00e+00	120	28	0	426770432	42	5847
2026-01-17 13:40:19.38	29.09	13.12	-34.5	-35.4	23.7	0.00e+00	122	28	0	429916160	42	5844
2026-01-17 13:40:20.39	29.18	13.21	-34.5	-35.4	23.8	0.00e+00	122	28	0	433061888	42	5857
2026-01-17 13:40:21.40	29.26	13.30	-34.6	-35.5	23.7	0.00e+00	123	28	0	436207616	42	5890
2026-01-17 13:40:22.41	29.34	13.39	-34.4	-35.3	23.8	0.00e+00	120	28	0	439353344	42	5755
2026-01-17 13:40:23.42	29.43	13.48	-34.4	-35.4	23.8	0.00e+00	122	28	0	442499072	42	5803
2026-01-17 13:40:24.43	29.52	13.58	-34.5	-35.4	23.7	0.00e+00	122	28	0	445644800	42	5823
2026-01-17 13:40:25.44	29.60	13.67	-34.6	-35.6	23.6	0.00e+00	122	28	0	448790528	42	5950
2026-01-17 13:40:26.45	29.69	13.76	-34.6	-35.6	23.7	0.00e+00	122	28	0	451936256	42	5927
2026-01-17 13:40:27.46	29.78	13.85	-34.6	-35.5	23.7	0.00e+00	122	28	0	455081984	42	5911
2026-01-17 13:40:28.47	29.86	13.94	-34.4	-35.4	23.9	0.00e+00	123	28	0	458227712	42	5795
2026-01-17 13:40:29.48	29.95	14.04	-34.4	-35.3	23.9	0.00e+00	122	28	0	462422016	42	5768
2026-01-17 13:40:30.49	30.04	14.13	-34.4	-35.3	23.7	0.00e+00	122	28	0	465567744	42	5785
2026-01-17 13:40:31.50	30.13	14.22	-34.5	-35.4	23.7	0.00e+00	123	28	0	467664896	42	5826
2026-01-17 13:40:32.51	30.22	14.32	-34.2	-35.1	24.0	0.00e+00	123	28	0	470810624	42	5632
2026-01-17 13:40:33.52	30.31	14.41	-34.3	-35.2	23.9	0.00e+00	123	28	0	473956352	42	5703
2026-01-17 13:40:34.53	30.40	14.51	-34.4	-35.3	23.9	0.00e+00	123	28	0	478150656	42	5739
2026-01-17 13:40:35.54	30.50	14.60	-34.3	-35.2	24.0	0.00e+00	123	28	0	481296384	42	5670
2026-01-17 13:40:36.55	30.59	14.70	-34.3	-35.2	23.9	0.00e+00	122	28	0	484442112	42	5723
2026-01-17 13:40:37.56	30.68	14.79	-34.4	-35.3	23.9	0.00e+00	123	28	0	487587840	42	5775
2026-01-17 13:40:38.57	30.77	14.89	-34.6	-35.5	23.7	0.00e+00	123	28	0	490733568	42	5891
2026-01-17 13:40:39.57	30.87	14.98	-34.5	-35.4	23.8	0.00e+00	122	28	0	492830720	42	5833
2026-01-17 13:40:40.58	30.96	15.08	-34.6	-35.5	23.7	0.00e+00	122	28	0	497025024	42	5926
2026-01-17 13:40:41.59	31.06	15.17	-34.3	-35.3	23.9	0.00e+00	123	28	0	500170752	42	5726
2026-01-17 13:40:42.60	31.15	15.27	-34.3	-35.2	23.9	0.00e+00	122	28	0	503316480	42	5725
2026-01-17 13:40:43.61	31.25	15.37	-34.4	-35.3	23.8	0.00e+00	123	28	0	506462208	42	5755
2026-01-17 13:40:44.62	31.35	15.47	-34.5	-35.4	23.8	0.00e+00	123	28	0	509607936	42	5827
2026-01-17 13:40:45.63	31.44	15.56	-34.5	-35.4	23.8	0.00e+00	120	28	0	512753664	42	5851
2026-01-17 13:40:46.64	31.54	15.66	-34.6	-35.6	23.8	0.00e+00	122	28	0	515899392	42	5937
2026-01-17 13:40:47.65	31.64	15.76	-34.7	-35.6	23.7	0.00e+00	123	28	0	519045120	42	5954
2026-01-17 13:40:48.66	31.74	15.86	-34.6	-35.6	23.7	0.00e+00	122	28	0	522190848	42	5946
2026-01-17 13:40:49.67	31.84	15.96	-34.7	-35.6	23.7	0.00e+00	123	28	0	525336576	42	5951
2026-01-17 13:40:50.67	31.94	16.06	-34.7	-35.6	23.6	0.00e+00	123	28	0	528482304	42	5983
2026-01-17 13:40:51.69	32.04	16.16	-34.7	-35.6	23.7	0.00e+00	120	28	0	531628032	42	5993
2026-01-17 13:40:52.69	32.14	16.26	-34.6	-35.5	23.8	0.00e+00	122	28	0	534773760	42	5913
2026-01-17 13:40:53.70	32.24	16.36	-34.7	-35.6	23.7	0.00e+00	123	28	0	537919488	42	5976
2026-01-17 13:40:54.71	32.35	16.46	-34.7	-35.6	23.7	0.00e+00	121	28	0	541065216	42	5971
2026-01-17 13:40:55.72	32.45	16.56	-34.7	-35.6	23.7	0.00e+00	123	28	0	544210944	42	5993
2026-01-17 13:40:56.73	32.56	16.66	-34.7	-35.6	23.7	0.00e+00	123	28	0	547356672	42	5945
2026-01-17 13:40:57.74	32.66	16.76	-34.8	-35.8	23.6	0.00e+00	123	28	0	550502400	42	6097
2026-01-17 13:40:58.75	32.77	16.86	-34.6	-35.5	23.7	0.00e+00	122	28	0	553648128	42	5908
2026-01-17 13:40:59.76	32.87	16.97	-34.7	-35.7	23.6	0.00e+00	122	28	0	556793856	42	6009
2026-01-17 13:41:00.77	32.98	17.07	-34.7	-35.6	23.7	0.00e+00	122	28	0	559939584	42	5950
2026-01-17 13:41:01.78	33.09	17.17	-34.7	-35.7	23.7	0.00e+00	120	28	0	563085312	42	5998
2026-01-17 13:41:02.79	33.20	17.27	-34.8	-35.8	23.8	0.00e+00	125	28	0	566231040	42	6069
2026-01-17 13:41:03.80	33.31	17.38	-34.9	-35.9	23.6	0.00e+00	123	28	0	569376768	42	6158
2026-01-17 13:41:04.81	33.42	17.48	-34.9	-35.9	23.6	0.00e+00	122	28	0	572522496	42	6135
2026-01-17 13:41:05.82	33.53	17.59	-35.0	-35.9	23.4	0.00e+00	123	28	0	575668224	42	6205
2026-01-17 13:41:06.83	33.64	17.69	-35.2	-36.1	23.3	0.00e+00	120	28	0	578813952	42	6327
2026-01-17 13:41:07.84	33.75	17.80	-35.2	-36.2	23.3	0.00e+00	121	28	0	581959680	42	6370
2026-01-17 13:41:08.85	33.86	17.90	-35.2	-36.1	23.3	0.00e+00	123	28	0	585105408	42	6350
2026-01-17 13:41:09.85	33.98	18.01	-35.0	-35.9	23.5	0.00e+00	120	28	0	588251136	42	6177
2026-01-17 13:41:10.86	34.09	18.11	-35.0	-36.0	23.5	0.00e+00	123	28	0	591396864	42	6231
2026-01-17 13:41:11.87	34.21	18.22	-35.1	-36.0	23.5	0.00e+00	123	28	0	594542592	42	6240
2026-01-17 13:41:12.88	34.32	18.33	-35.0	-35.9	23.4	0.00e+00	122	28	0	597688320	42	6178
2026-01-17 13:41:13.89	34.44	18.43	-35.0	-36.0	23.5	0.00e+00	122	28	0	600834048	42	6210
2026-01-17 13:41:14.90	34.56	18.54	-34.9	-35.8	23.5	0.00e+00	120	28	0	603979776	42	6120
2026-01-17 13:41:15.91	34.68	18.65	-34.9	-35.8	23.6	0.00e+00	122	28	0	607125504	42	6092
2026-01-17 13:41:16.92	34.80	18.76	-34.9	-35.9	23.6	0.00e+00	122	28	0	610271232	42	6136
2026-01-17 13:41:17.93	34.92	18.87	-34.9	-35.9	23.6	0.00e+00	122	28	0	613416960	42	6141
2026-01-17 13:41:18.94	35.04	18.98	-34.8	-35.7	23.7	0.00e+00	123	28	0	616562688	42	6057
2026-01-17 13:41:19.94	35.16	19.08	-34.9	-35.8	23.6	0.00e+00	122	28	0	619708416	42	6122
2026-01-17 13:41:20.95	35.28	19.19	-35.0	-35.9	23.4	0.00e+00	123	28	0	622854144	42	6180
2026-01-17 13:41:21.96	35.40	19.30	-34.9	-35.9	23.4	0.00e+00	120	28	0	625999872	42	6158
2026-01-17 13:41:22.97	35.53	19.41	-34.9	-35.8	23.4	0.00e+00	122	28	0	629145600	42	6109
2026-01-17 13:41:23.97	35.65	19.52	-34.8	-35.8	23.4	0.00e+00	121	28	0	632291328	42	6088
2026-01-17 13:41:24.98	35.78	19.64	-34.7	-35.6	23.6	0.00e+00	122	28	0	635437056	42	5984
2026-01-17 13:41:25.99	35.90	19.75	-34.9	-35.8	23.5	0.00e+00	120	28	0	638582784	42	6088
2026-01-17 13:41:27.00	36.03	19.86	-34.8	-35.7	23.6	0.00e+00	123	28	0	641728512	42	6030
2026-01-17 13:41:28.01	36.16	19.97	-34.7	-35.6	23.7	0.00e+00	120	28	0	644874240	42	5971
2026-01-17 13:41:29.02	36.29	20.08	-34.9	-35.8	23.5	0.00e+00	123	28	0	648019968	42	6114
2026-01-17 13:41:30.03	36.42	20.20	-34.6	-35.5	23.7	0.00e+00	123	28	0	651165696	42	5909
2026-01-17 13:41:31.04	36.55	20.31	-34.6	-35.6	23.7	0.00e+00	123	28	0	654311424	42	5933
2026-01-17 13:41:32.05	36.69	20.42	-34.6	-35.5	23.8	0.00e+00	122	28	0	657457152	42	5895
2026-01-17 13:41:33.06	36.82	20.54	-34.4	-35.3	23.9	0.00e+00	122	28	0	660602880	42	5788
2026-01-17 13:41:34.07	36.95	20.65	-34.3	-35.3	24.0	0.00e+00	122	28	0	663748608	42	5727
2026-01-17 13:41:35.08	37.09	20.77	-34.3	-35.3	23.9	0.00e+00	122	28	0	666894336	42	5733
2026-01-17 13:41:36.09	37.23	20.88	-34.4	-35.3	23.9	0.00e+00	122	28	0	670040064	42	5779
2026-01-17 13:41:37.09	37.36	21.00	-34.4	-35.4	23.9	0.00e+00	122	28	0	673185792	42	5794
2026-01-17 13:41:38.10	37.50	21.11	-34.4	-35.4	23.9	0.00e+00	123	28	0	676331520	42	5802
2026-01-17 13:41:39.11	37.64	21.23	-34.4	-35.3	24.0	0.00e+00	122	28	0	679477248	42	5787
2026-01-17 13:41:40.12	37.78	21.35	-34.4	-35.3	24.0	0.00e+00	122	28	0	682622976	42	5765
2026-01-17 13:41:41.13	37.92	21.47	-34.1	-35.0	24.1	0.00e+00	123	28	0	685768704	42	5587
2026-01-17 13:41:42.14	38.06	21.58	-34.2	-35.1	24.0	0.00e+00	122	28	0	688914432	42	5625
2026-01-17 13:41:43.15	38.21	21.70	-34.0	-34.9	24.2	0.00e+00	123	28	0	692060160	42	5509
2026-01-17 13:41:44.16	38.35	21.82	-34.0	-34.9	24.2	0.00e+00	123	28	0	695205888	42	5504
2026-01-17 13:41:45.17	38.50	21.94	-34.0	-34.9	24.2	0.00e+00	123	28	0	698351616	42	5511
2026-01-17 13:41:46.18	38.64	22.06	-33.9	-34.8	24.3	0.00e+00	122	28	0	701497344	42	5433
2026-01-17 13:41:47.19	38.79	22.18	-33.8	-34.7	24.4	0.00e+00	121	28	0	704643072	42	5361
2026-01-17 13:41:48.20	38.94	22.30	-33.8	-34.7	24.3	0.00e+00	120	28	0	707788800	42	5393
2026-01-17 13:41:49.21	39.09	22.42	-33.7	-34.6	24.4	0.00e+00	123	28	0	710934528	40	5971
2026-01-17 13:41:50.21	39.24	22.54	-33.6	-34.5	24.5	0.00e+00	120	28	0	714080256	40	5872
2026-01-17 13:41:51.23	39.39	22.66	-33.7	-34.6	24.5	0.00e+00	123	28	0	717225984	40	5988
2026-01-17 13:41:52.24	39.55	22.78	-33.5	-34.4	24.5	0.00e+00	123	28	0	720371712	40	5824
2026-01-17 13:41:53.24	39.70	22.90	-33.5	-34.4	24.6	0.00e+00	123	28	0	723517440	40	5840
2026-01-17 13:41:54.25	39.86	23.02	-33.4	-34.3	24.6	0.00e+00	121	28	0	726663168	40	5768
2026-01-17 13:41:55.26	40.01	23.14	-33.5	-34.4	24.5	0.00e+00	123	28	0	729808896	40	5837
2026-01-17 13:41:56.27	40.17	23.27	-33.4	-34.3	24.8	0.00e+00	123	28	0	732954624	40	5729
2026-01-17 13:41:57.28	40.33	23.39	-33.5	-34.4	24.6	0.00e+00	123	28	0	736100352	40	5816
2026-01-17 13:41:58.29	40.49	23.51	-33.4	-34.3	24.7	0.00e+00	123	28	0	739246080	40	5738
2026-01-17 13:41:59.30	40.65	23.64	-33.3	-34.1	24.8	0.00e+00	120	28	0	742391808	40	5654
2026-01-17 13:42:00.31	40.82	23.76	-33.2	-34.1	24.9	0.00e+00	123	28	0	745537536	40	5639
2026-01-17 13:42:01.32	40.98	23.89	-33.2	-34.1	25.0	0.00e+00	122	28	0	748683264	40	5631
2026-01-17 13:42:02.33	41.15	24.01	-33.3	-34.2	24.9	0.00e+00	120	28	0	751828992	40	5699
2026-01-17 13:42:03.34	41.31	24.14	-33.4	-34.3	24.9	0.00e+00	123	28	0	754974720	40	5744
2026-01-17 13:42:04.35	41.48	24.26	-33.3	-34.2	24.9	0.00e+00	122	28	0	758120448	40	5700
2026-01-17 13:42:05.36	41.65	24.39	-33.3	-34.1	25.0	0.00e+00	123	28	0	761266176	40	5639
2026-01-17 13:42:06.37	41.82	24.52	-33.3	-34.2	24.9	0.00e+00	123	28	0	764411904	40	5671
2026-01-17 13:42:07.38	41.99	24.64	-33.3	-34.2	24.9	0.00e+00	120	28	0	767557632	40	5672
2026-01-17 13:42:08.39	42.17	24.77	-33.4	-34.3	24.9	0.00e+00	123	28	0	770703360	40	5735
2026-01-17 13:42:09.40	42.34	24.90	-33.2	-34.1	25.0	0.00e+00	120	28	0	773849088	40	5625
2026-01-17 13:42:10.41	42.52	25.02	-33.3	-34.2	24.9	0.00e+00	122	28	0	776994816	40	5690
2026-01-17 13:42:11.42	42.70	25.15	-33.4	-34.3	24.8	0.00e+00	123	28	0	780140544	40	5777
2026-01-17 13:42:12.43	42.88	25.28	-33.4	-34.3	24.8	0.00e+00	123	28	0	783286272	40	5757
2026-01-17 13:42:13.44	43.06	25.41	-33.6	-34.5	24.6	0.00e+00	123	28	0	786432000	40	5884
2026-01-17 13:42:14.45	43.24	25.54	-33.4	-34.3	24.8	0.00e+00	120	28	0	789577728	40	5757
2026-01-17 13:42:15.45	43.42	25.67	-33.6	-34.4	24.7	0.00e+00	123	28	0	792723456	40	5838
2026-01-17 13:42:16.46	43.60	25.80	-33.6	-34.5	24.6	0.00e+00	121	28	0	795869184	40	5895
2026-01-17 13:42:17.47	43.79	25.93	-33.8	-34.7	24.5	0.00e+00	123	28	0	799014912	40	6044
2026-01-17 13:42:18.48	43.98	26.06	-34.0	-34.9	24.4	0.00e+00	122	28	0	802160640	40	6147
2026-01-17 13:42:19.49	44.17	26.19	-34.1	-35.0	24.3	0.00e+00	122	28	0	805306368	40	6249
2026-01-17 13:42:20.50	44.36	26.32	-34.2	-35.1	24.3	0.00e+00	122	28	0	808452096	40	6293
2026-01-17 13:42:21.51	44.55	26.45	-34.2	-35.1	24.2	0.00e+00	120	28	0	811597824	40	6312
2026-01-17 13:42:22.52	44.75	26.58	-34.1	-35.0	24.3	0.00e+00	123	28	0	814743552	40	6269
2026-01-17 13:42:23.53	44.94	26.72	-34.2	-35.1	24.3	0.00e+00	122	28	0	817889280	40	6319
2026-01-17 13:42:24.54	45.14	26.85	-34.4	-35.3	24.1	0.00e+00	122	28	0	821035008	40	6488
2026-01-17 13:42:25.55	45.34	26.98	-34.7	-35.6	23.9	0.00e+00	123	28	0	824180736	40	6676
2026-01-17 13:42:26.56	45.54	27.11	-34.7	-35.6	23.9	0.00e+00	123	28	0	827326464	42	5991
2026-01-17 13:42:27.57	45.74	27.25	-34.8	-35.7	23.8	0.00e+00	123	28	0	830472192	42	6034
2026-01-17 13:42:28.58	45.94	27.38	-34.9	-35.8	23.7	0.00e+00	123	28	0	833617920	42	6112
2026-01-17 13:42:29.59	46.15	27.51	-34.9	-35.9	23.7	0.00e+00	120	28	0	836763648	42	6140
2026-01-17 13:42:30.60	46.36	27.65	-34.8	-35.7	23.8	0.00e+00	127	28	0	839909376	42	6057
2026-01-17 13:42:31.61	46.56	27.78	-34.8	-35.7	23.8	0.00e+00	122	28	0	843055104	42	6013
2026-01-17 13:42:32.62	46.77	27.92	-34.8	-35.8	23.8	0.00e+00	122	28	0	846200832	42	6066
2026-01-17 13:42:33.63	46.99	28.05	-34.9	-35.8	23.8	0.00e+00	122	28	0	850395136	42	6118
2026-01-17 13:42:34.63	47.20	28.19	-34.9	-35.8	23.8	0.00e+00	123	28	0	853540864	42	6095
2026-01-17 13:42:35.64	47.41	28.32	-35.0	-36.0	23.7	0.00e+00	123	28	0	855638016	42	6210
2026-01-17 13:42:36.65	47.63	28.46	-34.9	-35.9	23.8	0.00e+00	123	28	0	858783744	42	6150
2026-01-17 13:42:37.66	47.85	28.59	-35.0	-35.9	23.7	0.00e+00	123	28	0	861929472	42	6192
2026-01-17 13:42:38.67	48.07	28.73	-34.9	-35.9	23.7	0.00e+00	123	28	0	865075200	42	6147
2026-01-17 13:42:39.68	48.30	28.87	-35.1	-36.1	23.5	0.00e+00	123	28	0	869269504	42	6287
2026-01-17 13:42:40.69	48.52	29.00	-34.7	-35.6	23.9	0.00e+00	122	28	0	872415232	42	5980
2026-01-17 13:42:41.71	48.75	29.14	-34.7	-35.7	23.8	0.00e+00	120	28	0	875560960	42	6007
2026-01-17 13:42:42.72	48.98	29.28	-34.4	-35.3	24.1	0.00e+00	122	28	0	878706688	42	5772
2026-01-17 13:42:43.73	49.21	29.41	-34.4	-35.3	24.1	0.00e+00	122	28	0	880803840	42	5761
2026-01-17 13:42:44.74	49.44	29.55	-34.5	-35.4	24.1	0.00e+00	120	28	0	884998144	42	5809
2026-01-17 13:42:45.74	49.67	29.69	-34.4	-35.3	24.2	0.00e+00	122	28	0	888143872	42	5756
2026-01-17 13:42:46.75	49.91	29.83	-34.4	-35.3	24.2	0.00e+00	120	28	0	891289600	42	5744
2026-01-17 13:42:47.76	50.15	29.96	-34.4	-35.3	24.1	0.00e+00	121	28	0	894435328	42	5774
2026-01-17 13:42:48.77	50.39	30.10	-34.5	-35.4	24.1	0.00e+00	122	28	0	897581056	42	5848
2026-01-17 13:42:49.78	50.63	30.24	-34.2	-35.1	24.3	0.00e+00	122	28	0	900726784	42	5630
2026-01-17 13:42:50.79	50.88	30.38	-34.3	-35.2	24.2	0.00e+00	122	28	0	903872512	42	5691
2026-01-17 13:42:51.80	51.12	30.52	-34.3	-35.2	24.2	0.00e+00	120	28	0	907018240	42	5711
2026-01-17 13:42:52.81	51.37	30.65	-34.3	-35.2	24.2	0.00e+00	123	28	0	910163968	42	5686
2026-01-17 13:42:53.82	51.62	30.79	-34.1	-35.0	24.3	0.00e+00	122	28	0	913309696	42	5590
2026-01-17 13:42:54.83	51.87	30.93	-34.2	-35.1	24.2	0.00e+00	123	28	0	916455424	42	5619
2026-01-17 13:42:55.84	52.13	31.07	-34.2	-35.1	24.3	0.00e+00	122	28	0	919601152	42	5637
2026-01-17 13:42:56.85	52.39	31.21	-34.2	-35.1	24.3	0.00e+00	123	28	0	922746880	42	5602
2026-01-17 13:42:57.85	52.64	31.34	-34.2	-35.1	24.3	0.00e+00	123	28	0	925892608	42	5609
2026-01-17 13:42:58.86	52.91	31.48	-34.3	-35.2	24.2	0.00e+00	122	28	0	929038336	42	5667
2026-01-17 13:42:59.87	53.17	31.62	-34.4	-35.3	24.1	0.00e+00	123	28	0	932184064	42	5764
2026-01-17 13:43:00.88	53.43	31.76	-34.5	-35.5	23.9	0.00e+00	123	28	0	935329792	42	5863
2026-01-17 13:43:01.89	53.70	31.90	-34.4	-35.3	24.0	0.00e+00	122	28	0	938475520	42	5772
2026-01-17 13:43:02.90	53.97	32.04	-34.6	-35.5	23.8	0.00e+00	122	28	0	941621248	42	5884
2026-01-17 13:43:03.91	54.25	32.18	-34.6	-35.5	23.8	0.00e+00	122	28	0	944766976	42	5923
2026-01-17 13:43:04.92	54.52	32.31	-34.7	-35.6	23.8	0.00e+00	123	28	0	947912704	42	5951
2026-01-17 13:43:05.93	54.80	32.45	-34.6	-35.5	23.9	0.00e+00	123	28	0	951058432	42	5912
2026-01-17 13:43:06.94	55.08	32.59	-34.7	-35.6	24.0	0.00e+00	123	28	0	954204160	42	5958
2026-01-17 13:43:07.94	55.36	32.73	-34.7	-35.6	23.9	0.00e+00	122	28	0	957349888	42	5984
2026-01-17 13:43:08.96	55.64	32.87	-34.7	-35.6	23.9	0.00e+00	122	28	0	960495616	42	5985
2026-01-17 13:43:09.97	55.93	33.01	-34.8	-35.7	23.8	0.00e+00	122	28	0	963641344	42	6027
2026-01-17 13:43:10.98	56.22	33.14	-35.0	-35.9	23.6	0.00e+00	122	28	0	966787072	42	6177
2026-01-17 13:43:11.99	56.51	33.28	-34.9	-35.9	23.6	0.00e+00	122	28	0	969932800	42	6156
2026-01-17 13:43:13.00	56.81	33.42	-35.1	-36.1	23.5	0.00e+00	123	28	0	973078528	42	6305
2026-01-17 13:43:14.01	57.10	33.56	-35.2	-36.1	23.5	0.00e+00	123	28	0	976224256	42	6344
2026-01-17 13:43:15.02	57.40	33.69	-35.2	-36.2	23.5	0.00e+00	123	28	0	979369984	42	6354
2026-01-17 13:43:16.03	57.70	33.83	-35.3	-36.3	23.4	0.00e+00	122	28	0	982515712	42	6433
2026-01-17 13:43:17.03	58.00	33.96	-35.3	-36.2	23.4	0.00e+00	123	28	0	985661440	42	6415
2026-01-17 13:43:18.05	58.31	34.10	-35.3	-36.3	23.3	0.00e+00	123	28	0	988807168	42	6448
2026-01-17 13:43:19.06	58.62	34.24	-35.4	-36.4	23.4	0.00e+00	123	28	0	991952896	42	6530
2026-01-17 13:43:20.07	58.93	34.37	-35.5	-36.5	23.3	0.00e+00	122	28	0	995098624	42	6591
2026-01-17 13:43:21.08	59.25	34.51	-35.5	-36.5	23.3	0.00e+00	120	28	0	998244352	42	6608
2026-01-17 13:43:22.09	59.56	34.64	-35.7	-36.7	23.2	0.00e+00	123	28	0	1001390080	42	6740
2026-01-17 13:43:23.10	59.88	34.78	-35.6	-36.5	23.3	0.00e+00	123	28	0	1004535808	42	6644
2026-01-17 13:43:24.11	60.21	34.91	-35.6	-36.6	23.2	0.00e+00	123	28	0	1007681536	42	6654
2026-01-17 13:43:25.12	60.53	35.05	-35.6	-36.5	23.2	0.00e+00	123	28	0	1010827264	42	6644
2026-01-17 13:43:26.13	60.86	35.18	-35.5	-36.4	23.2	0.00e+00	123	28	0	1013972992	42	6572
2026-01-17 13:43:27.14	61.19	35.31	-35.6	-36.5	23.1	0.00e+00	123	28	0	1017118720	42	6613
2026-01-17 13:43:28.15	61.52	35.44	-35.7	-36.7	23.0	0.00e+00	123	28	0	1020264448	42	6728
2026-01-17 13:43:29.16	61.85	35.58	-35.8	-36.8	22.8	0.00e+00	122	28	0	1023410176	44	6086
2026-01-17 13:43:30.17	62.19	35.71	-35.8	-36.8	23.0	0.00e+00	123	28	0	1026555904	44	6069
2026-01-17 13:43:31.18	62.53	35.84	-35.8	-36.8	23.0	0.00e+00	122	28	0	1029701632	44	6111
2026-01-17 13:43:32.19	62.88	35.97	-36.1	-37.1	22.8	0.00e+00	122	28	0	1032847360	44	6290
2026-01-17 13:43:33.20	63.22	36.10	-36.0	-37.0	22.8	0.00e+00	123	28	0	1035993088	44	6219
2026-01-17 13:43:34.21	63.57	36.23	-36.0	-37.1	22.6	0.00e+00	123	28	0	1039138816	44	6280
2026-01-17 13:43:35.22	63.92	36.36	-36.2	-37.2	22.6	0.00e+00	123	28	0	1042284544	44	6369
2026-01-17 13:43:36.23	64.28	36.48	-35.9	-36.8	22.9	0.00e+00	123	28	0	1045430272	44	6134
2026-01-17 13:43:37.24	64.63	36.61	-35.6	-36.6	23.1	0.00e+00	122	28	0	1048576000	44	5954
2026-01-17 13:43:38.25	64.99	36.74	-35.8	-36.8	22.9	0.00e+00	122	28	0	1051721728	44	6102
2026-01-17 13:43:39.26	65.35	36.86	-35.9	-36.9	22.9	0.00e+00	122	28	0	1054867456	44	6186
2026-01-17 13:43:40.27	65.72	36.99	-36.1	-37.1	22.7	0.00e+00	122	28	0	1058013184	44	6329
2026-01-17 13:43:41.28	66.09	37.11	-36.4	-37.4	22.5	0.00e+00	123	28	0	1061158912	44	6534
2026-01-17 13:43:42.29	66.46	37.23	-36.2	-37.2	22.7	0.00e+00	123	28	0	1064304640	44	6370
2026-01-17 13:43:43.30	66.83	37.36	-36.2	-37.2	22.7	0.00e+00	123	28	0	1067450368	44	6407
2026-01-17 13:43:44.31	67.21	37.48	-36.0	-37.0	22.8	0.00e+00	122	28	0	1070596096	44	6259
2026-01-17 13:43:45.32	67.59	37.60	-35.8	-36.8	22.9	0.00e+00	123	28	0	1073741824	44	6090
2026-01-17 13:43:46.33	67.97	37.72	-35.9	-36.9	22.9	0.00e+00	123	28	0	1076887552	44	6150
2026-01-17 13:43:47.34	68.35	37.83	-35.9	-36.8	22.9	0.00e+00	123	28	0	1080033280	44	6126
2026-01-17 13:43:48.35	68.74	37.95	-36.0	-37.0	22.8	0.00e+00	122	28	0	1083179008	44	6244
2026-01-17 13:43:49.36	69.13	38.07	-36.2	-37.2	22.6	0.00e+00	122	28	0	1086324736	44	6378
2026-01-17 13:43:50.38	69.53	38.18	-36.4	-37.4	22.4	0.00e+00	123	28	0	1089470464	44	6567
2026-01-17 13:43:51.39	69.92	38.30	-36.5	-37.5	22.5	0.00e+00	122	28	0	1092616192	44	6596
2026-01-17 13:43:52.39	70.32	38.41	-36.4	-37.4	22.5	0.00e+00	123	28	0	1095761920	44	6548
2026-01-17 13:43:53.41	70.72	38.52	-36.3	-37.3	22.4	0.00e+00	123	28	0	1098907648	44	6492
2026-01-17 13:43:54.42	71.12	38.63	-36.2	-37.2	22.3	0.00e+00	122	28	0	1102053376	44	6397
2026-01-17 13:43:55.43	71.53	38.74	-36.2	-37.2	22.4	0.00e+00	122	28	0	1105199104	44	6372
2026-01-17 13:43:56.44	71.94	38.85	-36.3	-37.3	22.5	0.00e+00	120	28	0	1108344832	44	6479
2026-01-17 13:43:57.45	72.35	38.96	-36.4	-37.4	22.5	0.00e+00	123	28	0	1111490560	44	6557
2026-01-17 13:43:58.46	72.77	39.06	-36.2	-37.2	22.7	0.00e+00	123	28	0	1114636288	44	6386
2026-01-17 13:43:59.47	73.18	39.17	-36.4	-37.4	22.5	0.00e+00	123	28	0	1117782016	44	6557
2026-01-17 13:44:00.48	73.60	39.27	-36.6	-37.6	22.3	0.00e+00	123	28	0	1120927744	44	6714
2026-01-17 13:44:01.49	74.02	39.37	-36.9	-38.0	21.9	0.00e+00	120	28	0	1124073472	46	6212
2026-01-17 13:44:02.50	74.45	39.47	-37.2	-38.3	21.7	0.00e+00	122	28	0	1127219200	46	6472
2026-01-17 13:44:03.51	74.88	39.57	-37.2	-38.3	21.7	0.00e+00	123	28	0	1130364928	46	6477
2026-01-17 13:44:04.52	75.31	39.67	-37.0	-38.0	22.1	0.00e+00	122	28	0	1133510656	46	6243
2026-01-17 13:44:05.53	75.74	39.77	-37.0	-38.0	22.1	0.00e+00	122	28	0	1136656384	46	6243
2026-01-17 13:44:06.54	76.17	39.86	-36.8	-37.8	22.1	0.00e+00	122	28	0	1139802112	46	6099
2026-01-17 13:44:07.55	76.61	39.95	-37.0	-38.0	21.9	0.00e+00	120	28	0	1142947840	46	6233
2026-01-17 13:44:08.56	77.05	40.04	-36.9	-37.9	22.0	0.00e+00	122	28	0	1146093568	46	6201
2026-01-17 13:44:09.57	77.50	40.13	-36.9	-38.0	22.1	0.00e+00	122	28	0	1149239296	46	6216
2026-01-17 13:44:10.58	77.94	40.22	-36.7	-37.7	22.3	0.00e+00	123	28	0	1152385024	46	6057
2026-01-17 13:44:11.59	78.39	40.31	-36.5	-37.5	22.4	0.00e+00	120	28	0	1155530752	46	5877
2026-01-17 13:44:12.60	78.84	40.39	-36.5	-37.6	22.4	0.00e+00	122	28	0	1158676480	46	5937
2026-01-17 13:44:13.61	79.29	40.47	-36.7	-37.7	22.2	0.00e+00	123	28	0	1161822208	46	6060
2026-01-17 13:44:14.61	79.74	40.55	-36.7	-37.7	22.3	0.00e+00	123	28	0	1164967936	46	6035
2026-01-17 13:44:15.62	80.20	40.63	-36.8	-37.9	22.1	0.00e+00	123	28	0	1168113664	46	6150
2026-01-17 13:44:16.63	80.65	40.71	-36.7	-37.7	21.9	0.00e+00	122	28	0	1172307968	46	6029
2026-01-17 13:44:17.64	81.11	40.78	-36.9	-37.9	21.7	0.00e+00	123	28	0	1174405120	46	6189
2026-01-17 13:44:18.65	81.58	40.86	-37.0	-38.1	21.6	0.00e+00	123	28	0	1177550848	46	6292
2026-01-17 13:44:19.66	82.04	40.93	-37.0	-38.1	21.8	0.00e+00	122	28	0	1180696576	46	6307
2026-01-17 13:44:20.67	82.51	41.00	-36.9	-38.0	22.2	0.00e+00	123	28	0	1183842304	46	6244
2026-01-17 13:44:21.68	82.98	41.07	-36.6	-37.6	22.4	0.00e+00	123	28	0	1186988032	46	5938
2026-01-17 13:44:22.69	83.45	41.13	-36.7	-37.7	22.3	0.00e+00	123	28	0	1191182336	46	6018
2026-01-17 13:44:23.70	83.92	41.19	-36.9	-37.9	22.0	0.00e+00	122	28	0	1194328064	46	6161
2026-01-17 13:44:24.71	84.40	41.26	-37.0	-38.0	22.0	0.00e+00	122	28	0	1196425216	46	6273
2026-01-17 13:44:25.72	84.87	41.32	-37.1	-38.2	21.9	0.00e+00	123	28	0	1199570944	46	6360
2026-01-17 13:44:26.73	85.35	41.37	-36.9	-37.9	22.2	0.00e+00	123	28	0	1202716672	46	6182
2026-01-17 13:44:27.74	85.83	41.43	-36.6	-37.6	22.4	0.00e+00	123	28	0	1206910976	46	5937
2026-01-17 13:44:28.75	86.31	41.48	-36.5	-37.5	22.4	0.00e+00	120	28	0	1210056704	46	5898
2026-01-17 13:44:29.76	86.79	41.53	-36.6	-37.6	22.2	0.00e+00	122	28	0	1213202432	46	5976
2026-01-17 13:44:30.77	87.28	41.58	-36.8	-37.8	22.1	0.00e+00	120	28	0	1216348160	46	6119
2026-01-17 13:44:31.78	87.76	41.63	-36.7	-37.7	22.2	0.00e+00	122	28	0	1219493888	46	6023
2026-01-17 13:44:32.79	88.25	41.67	-36.6	-37.6	22.3	0.00e+00	122	28	0	1222639616	46	5976
2026-01-17 13:44:33.80	88.74	41.71	-36.5	-37.5	22.4	0.00e+00	123	28	0	1225785344	46	5896
2026-01-17 13:44:34.81	89.23	41.75	-36.5	-37.4	22.4	0.00e+00	120	28	0	1228931072	46	5849
2026-01-17 13:44:35.82	89.72	41.79	-36.6	-37.6	22.3	0.00e+00	123	28	0	1232076800	46	5949
2026-01-17 13:44:36.82	90.21	41.83	-36.5	-37.5	22.5	0.00e+00	123	28	0	1235222528	46	5905
2026-01-17 13:44:37.83	90.70	41.86	-36.8	-37.8	22.2	0.00e+00	122	28	0	1238368256	46	6072
2026-01-17 13:44:38.84	91.19	41.89	-36.9	-38.0	22.0	0.00e+00	123	28	0	1241513984	46	6217
2026-01-17 13:44:39.85	91.69	41.92	-37.0	-38.0	21.8	0.00e+00	120	28	0	1244659712	46	6259
2026-01-17 13:44:40.86	92.18	41.94	-37.2	-38.3	21.5	0.00e+00	123	28	0	1247805440	46	6450
2026-01-17 13:44:41.87	92.68	41.97	-37.3	-38.4	21.4	0.00e+00	121	28	0	1250951168	46	6563
2026-01-17 13:44:42.88	93.18	41.99	-37.5	-38.6	21.3	0.00e+00	123	28	0	1254096896	46	6651
2026-01-17 13:44:43.89	93.68	42.01	-37.2	-38.3	21.6	0.00e+00	121	28	0	1257242624	46	6468
2026-01-17 13:44:44.90	94.17	42.03	-37.0	-38.0	21.9	0.00e+00	123	28	0	1260388352	46	6266
2026-01-17 13:44:45.91	94.67	42.04	-37.1	-38.2	21.6	0.00e+00	120	28	0	1263534080	46	6355
2026-01-17 13:44:46.92	95.17	42.05	-37.4	-38.4	21.5	0.00e+00	123	28	0	1266679808	46	6571
2026-01-17 13:44:47.93	95.67	42.06	-37.6	-38.7	21.4	0.00e+00	120	28	0	1269825536	46	6727
2026-01-17 13:44:48.93	96.17	42.07	-37.2	-38.3	21.8	0.00e+00	122	28	0	1272971264	46	6443
2026-01-17 13:44:49.95	96.67	42.07	-36.8	-37.8	22.2	0.00e+00	122	28	0	1276116992	46	6104
2026-01-17 13:44:50.96	97.17	42.08	-36.5	-37.5	22.4	0.00e+00	123	28	0	1279262720	46	5861
2026-01-17 13:44:51.97	97.67	42.08	-36.5	-37.5	22.5	0.00e+00	123	28	0	1282408448	46	5871
2026-01-17 13:44:52.98	98.17	42.07	-36.8	-37.8	22.2	0.00e+00	123	28	0	1285554176	46	6110
2026-01-17 13:44:53.99	98.67	42.07	-36.7	-37.8	22.2	0.00e+00	120	28	0	1288699904	46	6071
2026-01-17 13:44:55.00	99.17	42.06	-36.9	-37.9	22.1	0.00e+00	123	28	0	1291845632	46	6205
2026-01-17 13:44:56.01	99.67	42.05	-36.7	-37.8	22.3	0.00e+00	122	28	0	1294991360	46	6077
2026-01-17 13:44:57.02	100.17	42.04	-37.1	-38.1	21.9	0.00e+00	120	28	0	1298137088	46	6316
2026-01-17 13:44:58.03	100.67	42.03	-37.5	-38.6	21.5	0.00e+00	120	28	0	1301282816	46	6697
2026-01-17 13:44:59.04	101.17	42.01	-37.6	-38.8	21.3	0.00e+00	121	28	0	1304428544	46	6818
2026-01-17 13:45:00.05	101.67	41.99	-37.6	-38.7	21.4	0.00e+00	123	28	0	1307574272	48	6037
2026-01-17 13:45:01.06	102.17	41.97	-37.0	-38.0	22.0	0.00e+00	122	28	0	1310720000	48	5581
2026-01-17 13:45:02.06	102.66	41.95	-37.1	-38.1	21.8	0.00e+00	122	28	0	1313865728	48	5654
2026-01-17 13:45:03.07	103.15	41.92	-37.0	-38.1	22.0	0.00e+00	120	28	0	1317011456	48	5606
2026-01-17 13:45:04.08	103.65	41.89	-37.1	-38.2	21.9	0.00e+00	123	28	0	1320157184	48	5677
2026-01-17 13:45:05.09	104.14	41.86	-36.9	-37.9	22.0	0.00e+00	122	28	0	1323302912	48	5490
2026-01-17 13:45:06.10	104.64	41.83	-36.7	-37.7	22.1	0.00e+00	122	28	0	1326448640	46	6021
2026-01-17 13:45:07.11	105.13	41.79	-36.7	-37.7	22.1	0.00e+00	123	28	0	1329594368	46	6038
2026-01-17 13:45:08.12	105.62	41.76	-36.6	-37.6	22.3	0.00e+00	120	28	0	1332740096	46	5988
2026-01-17 13:45:09.13	106.11	41.72	-36.6	-37.6	22.3	0.00e+00	123	28	0	1335885824	46	5988
2026-01-17 13:45:10.14	106.60	41.67	-36.7	-37.7	22.3	0.00e+00	123	28	0	1339031552	46	6005
2026-01-17 13:45:11.15	107.09	41.63	-36.6	-37.6	22.3	0.00e+00	123	28	0	1342177280	46	5984
2026-01-17 13:45:12.16	107.57	41.58	-37.2	-38.2	21.7	0.00e+00	123	28	0	1345323008	46	6422
2026-01-17 13:45:13.17	108.06	41.53	-37.4	-38.5	21.6	0.00e+00	120	28	0	1348468736	46	6630
2026-01-17 13:45:14.18	108.54	41.48	-37.2	-38.3	21.8	0.00e+00	122	28	0	1351614464	46	6481
2026-01-17 13:45:15.19	109.02	41.43	-36.7	-37.7	22.3	0.00e+00	123	28	0	1354760192	46	6024
2026-01-17 13:45:16.20	109.50	41.38	-36.5	-37.5	22.2	0.00e+00	122	28	0	1357905920	46	5918
2026-01-17 13:45:17.21	109.98	41.32	-36.6	-37.6	22.1	0.00e+00	123	28	0	1361051648	46	5991
2026-01-17 13:45:18.22	110.46	41.26	-36.8	-37.9	22.1	0.00e+00	120	28	0	1364197376	46	6169
2026-01-17 13:45:19.23	110.94	41.20	-36.5	-37.5	22.4	0.00e+00	122	28	0	1367343104	46	5926
2026-01-17 13:45:20.24	111.41	41.13	-36.8	-37.9	22.2	0.00e+00	122	28	0	1370488832	46	6154
2026-01-17 13:45:21.25	111.88	41.07	-37.1	-38.2	21.9	0.00e+00	123	28	0	1373634560	46	6353
2026-01-17 13:45:22.26	112.35	41.00	-37.0	-38.1	21.9	0.00e+00	122	28	0	1376780288	46	6332
2026-01-17 13:45:23.27	112.82	40.93	-36.9	-37.9	22.1	0.00e+00	123	28	0	1379926016	46	6202
2026-01-17 13:45:24.28	113.28	40.86	-36.7	-37.8	22.3	0.00e+00	123	28	0	1383071744	46	6071
2026-01-17 13:45:25.29	113.75	40.79	-36.6	-37.6	22.3	0.00e+00	122	28	0	1386217472	46	5980
2026-01-17 13:45:26.30	114.21	40.71	-36.9	-38.0	21.9	0.00e+00	122	28	0	1389363200	46	6208
2026-01-17 13:45:27.31	114.67	40.63	-37.4	-38.5	21.6	0.00e+00	123	28	0	1392508928	46	6630
2026-01-17 13:45:28.32	115.13	40.56	-37.3	-38.4	21.7	0.00e+00	122	28	0	1395654656	46	6571
2026-01-17 13:45:29.33	115.58	40.47	-36.9	-37.9	22.0	0.00e+00	122	28	0	1398800384	46	6202
2026-01-17 13:45:30.34	116.03	40.39	-36.8	-37.8	22.0	0.00e+00	123	28	0	1401946112	46	6113
2026-01-17 13:45:31.35	116.48	40.31	-36.4	-37.4	22.4	0.00e+00	123	28	0	1405091840	46	5843
2026-01-17 13:45:32.36	116.93	40.22	-36.4	-37.4	22.5	0.00e+00	123	28	0	1408237568	46	5794
2026-01-17 13:45:33.37	117.38	40.13	-36.0	-36.9	22.9	0.00e+00	123	28	0	1411383296	46	5507
2026-01-17 13:45:34.38	117.82	40.04	-36.4	-37.4	22.2	0.00e+00	121	28	0	1414529024	46	5853
2026-01-17 13:45:35.39	118.26	39.95	-36.8	-37.8	21.7	0.00e+00	123	28	0	1417674752	46	6112
2026-01-17 13:45:36.40	118.70	39.86	-36.8	-37.9	22.0	0.00e+00	123	28	0	1420820480	46	6159
2026-01-17 13:45:37.41	119.14	39.77	-36.8	-37.8	22.0	0.00e+00	120	28	0	1423966208	46	6120
2026-01-17 13:45:38.42	119.57	39.67	-36.5	-37.5	22.3	0.00e+00	122	28	0	1427111936	46	5874
2026-01-17 13:45:39.43	120.00	39.57	-36.5	-37.6	22.1	0.00e+00	120	28	0	1430257664	46	5934
2026-01-17 13:45:40.44	120.43	39.47	-36.2	-37.2	22.3	0.00e+00	123	28	0	1433403392	46	5678
2026-01-17 13:45:41.45	120.86	39.37	-36.2	-37.2	22.3	0.00e+00	120	28	0	1436549120	46	5696
2026-01-17 13:45:42.46	121.28	39.27	-36.6	-37.6	22.4	0.00e+00	123	28	0	1439694848	46	5949
2026-01-17 13:45:43.47	121.70	39.17	-37.1	-38.1	22.0	0.00e+00	120	28	0	1442840576	46	6306
2026-01-17 13:45:44.48	122.12	39.06	-37.3	-38.4	21.4	0.00e+00	122	28	0	1445986304	46	6562
2026-01-17 13:45:45.49	122.54	38.96	-37.7	-38.9	21.3	0.00e+00	120	28	0	1449132032	48	6153
2026-01-17 13:45:46.50	122.95	38.85	-37.5	-38.5	21.7	0.00e+00	123	28	0	1452277760	48	5920
2026-01-17 13:45:47.51	123.36	38.74	-36.9	-37.9	22.0	0.00e+00	121	28	0	1455423488	48	5495
2026-01-17 13:45:48.52	123.77	38.63	-36.7	-37.7	22.1	0.00e+00	123	28	0	1458569216	46	6032
2026-01-17 13:45:49.53	124.17	38.52	-36.0	-37.0	22.8	0.00e+00	122	28	0	1461714944	46	5570
2026-01-17 13:45:50.54	124.57	38.41	-36.2	-37.1	22.7	0.00e+00	122	28	0	1464860672	46	5651
2026-01-17 13:45:51.55	124.97	38.29	-36.2	-37.2	22.7	0.00e+00	122	28	0	1468006400	46	5688
2026-01-17 13:45:52.56	125.37	38.18	-36.7	-37.7	22.2	0.00e+00	123	28	0	1471152128	46	6054
2026-01-17 13:45:53.57	125.76	38.06	-36.7	-37.8	22.3	0.00e+00	123	28	0	1474297856	46	6071
2026-01-17 13:45:54.58	126.15	37.95	-36.4	-37.4	22.5	0.00e+00	122	28	0	1477443584	46	5792
2026-01-17 13:45:55.59	126.54	37.83	-36.2	-37.2	22.4	0.00e+00	123	28	0	1480589312	46	5720
2026-01-17 13:45:56.60	126.93	37.71	-36.1	-37.1	22.7	0.00e+00	123	28	0	1483735040	46	5642
2026-01-17 13:45:57.61	127.31	37.59	-35.9	-36.9	23.0	0.00e+00	123	28	0	1486880768	46	5490
2026-01-17 13:45:58.62	127.69	37.47	-35.9	-36.8	23.0	0.00e+00	122	28	0	1490026496	46	5444
2026-01-17 13:45:59.63	128.07	37.35	-35.9	-36.9	22.8	0.00e+00	123	28	0	1493172224	44	6147
2026-01-17 13:46:00.64	128.44	37.23	-36.1	-37.1	22.7	0.00e+00	122	28	0	1496317952	44	6300
2026-01-17 13:46:01.65	128.81	37.10	-36.3	-37.3	22.6	0.00e+00	122	28	0	1499463680	44	6495
2026-01-17 13:46:02.66	129.18	36.98	-36.2	-37.2	22.7	0.00e+00	123	28	0	1502609408	44	6421
2026-01-17 13:46:03.67	129.55	36.85	-36.0	-37.0	22.9	0.00e+00	123	28	0	1505755136	44	6208
2026-01-17 13:46:04.68	129.91	36.73	-35.9	-36.8	22.9	0.00e+00	122	28	0	1509949440	44	6112
2026-01-17 13:46:05.69	130.27	36.60	-35.5	-36.4	23.2	0.00e+00	123	28	0	1512046592	44	5816
2026-01-17 13:46:06.70	130.63	36.47	-35.4	-36.4	23.2	0.00e+00	123	28	0	1515192320	44	5803
2026-01-17 13:46:07.71	130.99	36.34	-35.1	-36.1	23.3	0.00e+00	122	28	0	1518338048	44	5616
2026-01-17 13:46:08.71	131.33	36.22	-35.5	-36.4	23.2	0.00e+00	122	28	0	1521483776	44	5834
2026-01-17 13:46:09.72	131.68	36.09	-35.2	-36.2	23.4	0.00e+00	123	28	0	1524629504	44	5669
2026-01-17 13:46:10.73	132.03	35.96	-35.5	-36.4	23.2	0.00e+00	120	28	0	1528823808	44	5852
2026-01-17 13:46:11.74	132.38	35.83	-35.7	-36.6	23.1	0.00e+00	121	28	0	1531969536	44	5990
2026-01-17 13:46:12.74	132.71	35.70	-35.8	-36.8	22.9	0.00e+00	122	28	0	1535115264	44	6073
2026-01-17 13:46:13.75	133.05	35.56	-35.9	-36.9	22.9	0.00e+00	122	28	0	1537212416	44	6166
2026-01-17 13:46:14.76	133.39	35.43	-36.0	-37.0	22.9	0.00e+00	123	28	0	1540358144	44	6223
2026-01-17 13:46:15.77	133.72	35.30	-36.2	-37.2	22.6	0.00e+00	123	28	0	1543503872	44	6399
2026-01-17 13:46:16.78	134.05	35.17	-36.4	-37.4	22.5	0.00e+00	123	28	0	1547698176	44	6569
2026-01-17 13:46:17.79	134.38	35.03	-36.5	-37.5	22.4	0.00e+00	122	28	0	1550843904	44	6625
2026-01-17 13:46:18.80	134.71	34.90	-36.5	-37.5	22.5	0.00e+00	123	29	0	1553989632	44	6619
2026-01-17 13:46:19.81	135.03	34.76	-36.3	-37.3	22.6	0.00e+00	122	29	0	1557135360	44	6495
2026-01-17 13:46:20.82	135.35	34.63	-36.1	-37.1	22.8	0.00e+00	123	28	0	1560281088	44	6343
2026-01-17 13:46:21.83	135.67	34.49	-36.3	-37.3	22.7	0.00e+00	123	29	0	1563426816	44	6429
2026-01-17 13:46:22.84	135.98	34.36	-36.0	-37.0	22.9	0.00e+00	123	28	0	1566572544	44	6226
2026-01-17 13:46:23.85	136.30	34.22	-35.9	-36.9	23.0	0.00e+00	123	28	0	1569718272	44	6173
2026-01-17 13:46:24.86	136.61	34.08	-35.8	-36.8	23.0	0.00e+00	123	29	0	1572864000	44	6100
2026-01-17 13:46:25.87	136.91	33.95	-35.6	-36.5	23.3	0.00e+00	123	29	0	1576009728	44	5896
2026-01-17 13:46:26.88	137.22	33.81	-35.4	-36.3	23.4	0.00e+00	120	29	0	1579155456	44	5779
2026-01-17 13:46:27.89	137.52	33.67	-35.3	-36.3	23.5	0.00e+00	123	29	0	1582301184	44	5731
2026-01-17 13:46:28.90	137.82	33.53	-35.0	-35.9	23.7	0.00e+00	123	29	0	1585446912	44	5520
2026-01-17 13:46:29.91	138.12	33.39	-35.1	-36.0	23.7	0.00e+00	122	29	0	1588592640	44	5548
2026-01-17 13:46:30.92	138.41	33.26	-34.9	-35.8	23.7	0.00e+00	122	29	0	1591738368	44	5463
2026-01-17 13:46:31.92	138.70	33.12	-34.9	-35.8	23.7	0.00e+00	122	29	0	1594884096	44	5465
2026-01-17 13:46:32.93	138.99	32.98	-34.9	-35.8	23.7	0.00e+00	122	29	0	1598029824	44	5423
2026-01-17 13:46:33.94	139.28	32.84	-34.7	-35.6	23.8	0.00e+00	120	28	0	1601175552	42	5990
2026-01-17 13:46:34.95	139.57	32.70	-34.9	-35.9	23.8	0.00e+00	122	29	0	1604321280	42	6144
2026-01-17 13:46:35.96	139.85	32.56	-34.6	-35.5	23.9	0.00e+00	122	28	0	1607467008	42	5904
2026-01-17 13:46:36.97	140.13	32.43	-34.6	-35.5	24.1	0.00e+00	122	29	0	1610612736	42	5884
2026-01-17 13:46:37.98	140.41	32.29	-34.6	-35.5	24.1	0.00e+00	122	29	0	1613758464	42	5882
2026-01-17 13:46:38.99	140.68	32.15	-34.2	-35.1	24.4	0.00e+00	121	29	0	1616904192	42	5630
2026-01-17 13:46:40.00	140.96	32.01	-34.1	-35.0	24.4	0.00e+00	122	29	0	1620049920	42	5555
2026-01-17 13:46:41.01	141.23	31.87	-34.0	-34.9	24.5	0.00e+00	122	29	0	1623195648	42	5488
2026-01-17 13:46:42.02	141.50	31.73	-34.1	-35.0	24.3	0.00e+00	123	29	0	1626341376	42	5571
2026-01-17 13:46:43.02	141.76	31.59	-34.1	-35.0	24.4	0.00e+00	122	29	0	1629487104	42	5567
2026-01-17 13:46:44.04	142.03	31.45	-34.1	-35.0	24.3	0.00e+00	121	28	0	1632632832	42	5578
2026-01-17 13:46:45.04	142.29	31.31	-34.1	-35.0	24.3	0.00e+00	123	29	0	1635778560	42	5554
2026-01-17 13:46:46.05	142.55	31.17	-34.1	-35.0	24.2	0.00e+00	123	28	0	1638924288	42	5589
2026-01-17 13:46:47.06	142.81	31.03	-34.1	-35.0	24.2	0.00e+00	122	29	0	1642070016	42	5548
2026-01-17 13:46:48.07	143.06	30.89	-34.0	-34.9	24.4	0.00e+00	123	29	0	1645215744	42	5472
2026-01-17 13:46:49.08	143.32	30.75	-33.8	-34.7	24.4	0.00e+00	120	29	0	1648361472	42	5393
2026-01-17 13:46:50.09	143.57	30.62	-33.8	-34.7	24.5	0.00e+00	123	29	0	1651507200	42	5354
2026-01-17 13:46:51.10	143.82	30.48	-33.8	-34.7	24.5	0.00e+00	120	29	0	1654652928	40	6007
2026-01-17 13:46:52.11	144.06	30.34	-33.9	-34.8	24.2	0.00e+00	123	29	0	1657798656	40	6107
2026-01-17 13:46:53.12	144.31	30.20	-33.9	-34.8	24.3	0.00e+00	123	28	0	1660944384	40	6127
2026-01-17 13:46:54.13	144.55	30.06	-34.0	-34.9	24.3	0.00e+00	122	29	0	1664090112	40	6184
2026-01-17 13:46:55.13	144.79	29.92	-34.2	-35.1	24.1	0.00e+00	120	28	0	1667235840	40	6321
2026-01-17 13:46:56.14	145.03	29.78	-34.3	-35.2	24.0	0.00e+00	123	29	0	1670381568	40	6367
2026-01-17 13:46:57.15	145.27	29.65	-34.2	-35.1	24.4	0.00e+00	124	28	0	1673527296	40	6301
2026-01-17 13:46:58.16	145.50	29.51	-34.1	-35.0	24.3	0.00e+00	122	29	0	1676673024	40	6206
2026-01-17 13:46:59.17	145.74	29.37	-34.1	-34.9	24.4	0.00e+00	123	29	0	1679818752	40	6202
2026-01-17 13:47:00.18	145.97	29.23	-34.1	-35.0	24.2	0.00e+00	123	29	0	1682964480	40	6250
2026-01-17 13:47:01.19	146.20	29.09	-34.1	-35.0	24.1	0.00e+00	122	29	0	1686110208	40	6237
2026-01-17 13:47:02.20	146.42	28.96	-34.2	-35.1	24.0	0.00e+00	123	29	0	1689255936	40	6291
2026-01-17 13:47:03.21	146.65	28.82	-34.2	-35.1	24.1	0.00e+00	122	29	0	1692401664	40	6315
2026-01-17 13:47:04.22	146.87	28.68	-34.2	-35.1	24.2	0.00e+00	122	28	0	1695547392	40	6325
2026-01-17 13:47:05.23	147.09	28.54	-34.3	-35.2	24.2	0.00e+00	123	29	0	1698693120	40	6354
2026-01-17 13:47:06.24	147.31	28.41	-34.2	-35.2	24.2	0.00e+00	123	29	0	1701838848	40	6351
2026-01-17 13:47:07.25	147.53	28.27	-34.1	-35.0	24.3	0.00e+00	123	29	0	1704984576	40	6251
2026-01-17 13:47:08.26	147.75	28.14	-34.2	-35.1	24.2	0.00e+00	123	29	0	1708130304	40	6339
2026-01-17 13:47:09.27	147.96	28.00	-34.3	-35.2	24.2	0.00e+00	123	29	0	1711276032	40	6392
2026-01-17 13:47:10.28	148.18	27.86	-34.5	-35.4	24.0	0.00e+00	120	29	0	1714421760	40	6562
2026-01-17 13:47:11.28	148.39	27.73	-34.4	-35.3	24.1	0.00e+00	123	29	0	1717567488	40	6447
2026-01-17 13:47:12.30	148.60	27.59	-34.3	-35.2	24.2	0.00e+00	120	28	0	1720713216	40	6402
2026-01-17 13:47:13.30	148.80	27.46	-34.3	-35.2	24.2	0.00e+00	123	28	0	1723858944	40	6405
2026-01-17 13:47:14.31	149.01	27.32	-34.4	-35.3	24.1	0.00e+00	122	29	0	1727004672	40	6436
2026-01-17 13:47:15.32	149.21	27.19	-34.5	-35.4	24.1	0.00e+00	123	29	0	1730150400	40	6546
2026-01-17 13:47:16.33	149.41	27.06	-34.5	-35.4	24.1	0.00e+00	122	29	0	1733296128	40	6520
2026-01-17 13:47:17.34	149.62	26.92	-34.3	-35.2	24.3	0.00e+00	123	29	0	1736441856	40	6359
2026-01-17 13:47:18.36	149.82	26.79	-33.9	-34.8	24.5	0.00e+00	123	29	0	1739587584	40	6122
2026-01-17 13:47:19.37	150.01	26.65	-34.1	-35.0	24.3	0.00e+00	123	29	0	1742733312	40	6257
2026-01-17 13:47:20.37	150.21	26.52	-33.8	-34.7	24.6	0.00e+00	123	29	0	1745879040	40	6026
2026-01-17 13:47:21.38	150.40	26.39	-33.8	-34.6	24.6	0.00e+00	121	29	0	1749024768	40	5991
2026-01-17 13:47:22.39	150.60	26.26	-33.9	-34.8	24.6	0.00e+00	123	29	0	1752170496	40	6065
2026-01-17 13:47:23.40	150.79	26.13	-33.8	-34.7	24.6	0.00e+00	123	29	0	1755316224	40	6001
2026-01-17 13:47:24.41	150.98	25.99	-33.7	-34.5	24.7	0.00e+00	122	29	0	1758461952	40	5920
2026-01-17 13:47:25.42	151.17	25.86	-33.7	-34.5	24.6	0.00e+00	120	29	0	1761607680	40	5903
2026-01-17 13:47:26.43	151.35	25.73	-33.6	-34.4	24.6	0.00e+00	122	29	0	1764753408	40	5857
2026-01-17 13:47:27.44	151.54	25.60	-33.8	-34.7	24.5	0.00e+00	123	29	0	1767899136	40	6007
2026-01-17 13:47:28.45	151.72	25.47	-33.8	-34.7	24.4	0.00e+00	123	29	0	1771044864	40	6020
2026-01-17 13:47:29.46	151.90	25.34	-33.9	-34.8	24.4	0.00e+00	122	29	0	1774190592	40	6088
2026-01-17 13:47:30.47	152.08	25.21	-33.9	-34.8	24.3	0.00e+00	123	29	0	1777336320	40	6107
2026-01-17 13:47:31.48	152.26	25.08	-33.9	-34.8	24.4	0.00e+00	122	29	0	1780482048	40	6101
2026-01-17 13:47:32.49	152.44	24.95	-33.7	-34.6	24.6	0.00e+00	122	29	0	1783627776	40	5975
2026-01-17 13:47:33.50	152.62	24.82	-33.9	-34.8	24.4	0.00e+00	123	29	0	1786773504	40	6072
2026-01-17 13:47:34.50	152.79	24.70	-33.6	-34.4	24.7	0.00e+00	122	29	0	1789919232	40	5852
2026-01-17 13:47:35.51	152.97	24.57	-33.6	-34.5	24.5	0.00e+00	122	29	0	1793064960	40	5901
2026-01-17 13:47:36.52	153.14	24.44	-33.6	-34.5	24.5	0.00e+00	121	29	0	1796210688	40	5865
2026-01-17 13:47:37.53	153.31	24.31	-33.6	-34.5	24.5	0.00e+00	122	29	0	1799356416	40	5881
2026-01-17 13:47:38.54	153.48	24.19	-33.7	-34.6	24.4	0.00e+00	122	29	0	1802502144	40	5933
2026-01-17 13:47:39.54	153.65	24.06	-33.7	-34.6	24.3	0.00e+00	122	29	0	1805647872	40	5932
2026-01-17 13:47:40.55	153.81	23.94	-33.8	-34.7	24.3	0.00e+00	122	29	0	1808793600	40	6019
2026-01-17 13:47:41.56	153.98	23.81	-33.8	-34.7	24.4	0.00e+00	122	29	0	1811939328	40	6031
2026-01-17 13:47:42.57	154.14	23.68	-34.0	-34.9	24.4	0.00e+00	120	29	0	1815085056	40	6140
2026-01-17 13:47:43.58	154.31	23.56	-33.8	-34.7	24.5	0.00e+00	123	29	0	1818230784	40	6037
2026-01-17 13:47:44.59	154.47	23.43	-33.8	-34.7	24.5	0.00e+00	122	29	0	1821376512	40	6031
2026-01-17 13:47:45.60	154.63	23.31	-34.0	-34.9	24.4	0.00e+00	122	29	0	1824522240	40	6145
2026-01-17 13:47:46.61	154.79	23.19	-34.0	-34.9	24.3	0.00e+00	123	29	0	1827667968	40	6147
2026-01-17 13:47:47.62	154.95	23.06	-34.1	-35.0	24.2	0.00e+00	122	29	0	1830813696	40	6259
2026-01-17 13:47:48.63	155.10	22.94	-34.2	-35.1	24.1	0.00e+00	123	29	0	1833959424	40	6331
2026-01-17 13:47:49.64	155.26	22.82	-34.2	-35.1	24.1	0.00e+00	123	29	0	1837105152	40	6319
2026-01-17 13:47:50.65	155.42	22.69	-34.2	-35.1	24.0	0.00e+00	122	29	0	1840250880	40	6344
2026-01-17 13:47:51.66	155.57	22.57	-34.1	-35.0	24.1	0.00e+00	120	29	0	1843396608	40	6267
2026-01-17 13:47:52.67	155.72	22.45	-34.3	-35.2	24.1	0.00e+00	123	29	0	1846542336	40	6396
2026-01-17 13:47:53.68	155.87	22.33	-34.2	-35.1	24.1	0.00e+00	120	29	0	1849688064	40	6325
2026-01-17 13:47:54.68	156.02	22.21	-34.2	-35.1	24.1	0.00e+00	123	29	0	1852833792	40	6343
2026-01-17 13:47:55.69	156.17	22.09	-34.1	-35.0	24.2	0.00e+00	120	29	0	1855979520	40	6269
2026-01-17 13:47:56.70	156.32	21.97	-34.1	-35.0	24.2	0.00e+00	122	29	0	1859125248	40	6240
2026-01-17 13:47:57.71	156.46	21.85	-33.9	-34.8	24.4	0.00e+00	122	29	0	1862270976	40	6094
2026-01-17 13:47:58.72	156.61	21.73	-34.0	-34.9	24.4	0.00e+00	123	29	0	1865416704	40	6178
2026-01-17 13:47:59.73	156.76	21.61	-33.8	-34.7	24.4	0.00e+00	122	29	0	1868562432	40	6050
2026-01-17 13:48:00.74	156.90	21.49	-33.7	-34.6	24.6	0.00e+00	123	29	0	1871708160	40	5941
2026-01-17 13:48:01.75	157.04	21.37	-33.8	-34.7	24.5	0.00e+00	120	29	0	1874853888	40	6024
2026-01-17 13:48:02.76	157.18	21.26	-34.0	-34.9	24.3	0.00e+00	122	29	0	1877999616	40	6152
2026-01-17 13:48:03.77	157.32	21.14	-34.1	-35.0	24.2	0.00e+00	123	29	0	1881145344	40	6212
2026-01-17 13:48:04.78	157.46	21.02	-34.1	-35.0	24.2	0.00e+00	122	29	0	1884291072	40	6241
2026-01-17 13:48:05.79	157.60	20.90	-34.0	-34.9	24.3	0.00e+00	123	29	0	1887436800	40	6161
2026-01-17 13:48:06.80	157.74	20.79	-33.9	-34.8	24.3	0.00e+00	122	29	0	1890582528	40	6099
2026-01-17 13:48:07.81	157.87	20.67	-33.8	-34.7	24.4	0.00e+00	123	29	0	1893728256	40	6053
2026-01-17 13:48:08.81	158.01	20.56	-33.9	-34.7	24.3	0.00e+00	123	29	0	1896873984	40	6059
2026-01-17 13:48:09.83	158.14	20.44	-33.8	-34.7	24.3	0.00e+00	123	29	0	1900019712	40	6032
2026-01-17 13:48:10.83	158.28	20.33	-33.8	-34.7	24.3	0.00e+00	120	29	0	1903165440	40	6048
2026-01-17 13:48:11.84	158.41	20.21	-33.7	-34.6	24.4	0.00e+00	123	29	0	1906311168	40	5981
2026-01-17 13:48:12.85	158.54	20.10	-33.8	-34.7	24.4	0.00e+00	123	29	0	1909456896	40	6022
2026-01-17 13:48:13.86	158.67	19.98	-33.6	-34.5	24.4	0.00e+00	123	29	0	1912602624	40	5912
2026-01-17 13:48:14.87	158.80	19.87	-33.6	-34.5	24.4	0.00e+00	123	29	0	1915748352	40	5906
2026-01-17 13:48:15.88	158.93	19.76	-33.7	-34.6	24.3	0.00e+00	122	29	0	1919942656	40	5953
2026-01-17 13:48:16.89	159.06	19.64	-33.7	-34.5	24.4	0.00e+00	120	29	0	1922039808	40	5921
2026-01-17 13:48:17.89	159.18	19.53	-33.6	-34.5	24.4	0.00e+00	123	29	0	1925185536	40	5863
2026-01-17 13:48:18.90	159.31	19.42	-33.7	-34.6	24.4	0.00e+00	122	29	0	1928331264	40	5937
2026-01-17 13:48:19.91	159.43	19.31	-33.7	-34.6	24.3	0.00e+00	122	29	0	1931476992	40	5977
2026-01-17 13:48:20.92	159.56	19.20	-33.7	-34.6	24.5	0.00e+00	122	29	0	1934622720	40	5943
2026-01-17 13:48:21.93	159.68	19.09	-33.8	-34.7	24.4	0.00e+00	123	29	0	1938817024	40	6015
2026-01-17 13:48:22.94	159.80	18.98	-33.7	-34.6	24.5	0.00e+00	123	29	0	1941962752	40	5941
2026-01-17 13:48:23.95	159.93	18.87	-33.9	-34.8	24.3	0.00e+00	122	29	0	1945108480	40	6106
2026-01-17 13:48:24.96	160.05	18.76	-33.9	-34.8	24.3	0.00e+00	123	29	0	1947205632	40	6092
2026-01-17 13:48:25.97	160.17	18.65	-34.0	-34.9	24.2	0.00e+00	123	29	0	1950351360	40	6173
2026-01-17 13:48:26.98	160.29	18.54	-34.1	-35.0	24.2	0.00e+00	123	29	0	1954545664	40	6253
2026-01-17 13:48:27.99	160.41	18.43	-34.2	-35.1	24.1	0.00e+00	120	29	0	1957691392	40	6295
2026-01-17 13:48:29.00	160.52	18.32	-34.2	-35.1	24.0	0.00e+00	123	29	0	1960837120	40	6337
2026-01-17 13:48:30.01	160.64	18.21	-34.2	-35.1	24.1	0.00e+00	120	29	0	1963982848	40	6307
2026-01-17 13:48:31.02	160.76	18.11	-34.3	-35.2	24.0	0.00e+00	122	29	0	1967128576	40	6365
2026-01-17 13:48:32.03	160.87	18.00	-34.3	-35.2	24.0	0.00e+00	123	29	0	1970274304	40	6386
2026-01-17 13:48:33.04	160.99	17.89	-34.3	-35.3	23.9	0.00e+00	123	29	0	1973420032	40	6432
2026-01-17 13:48:34.05	161.10	17.79	-34.4	-35.3	23.8	0.00e+00	122	29	0	1976565760	40	6467
2026-01-17 13:48:35.06	161.21	17.68	-34.3	-35.3	23.7	0.00e+00	120	29	0	1979711488	40	6439
