passes_logs/2026/01/17/R4.6S_Anadyr/R4.6S_Anadyr__20260117_172722_SUOMI_NPP_rec.log

#Pass ID: 20260117_172722_SUOMI NPP
#Satellite: SUOMI NPP
#Configuration: NPP
#almurnet v.1.7.20251203
#Start time: 2026-01-17 17:27:25

#Version: 2.2.20231116
#Station: R4.6S_Anadyr
#Location: 177.4865 lon 64.73178 lat
#TLE: 1 37849U 11061A   26016.58419598  .00000058  00000+0  48257-4 0  9996
#TLE: 2 37849  98.7812 318.6192 0002422  60.8544 299.2874 14.19525580736934

#Time	Az	El	Level	Level2	SNR	BER	BlckErr	Temp	State	Recorded	gain1	gain2
2026-01-17 17:27:25.65	31.45	0.15	-48.6	-60.2	3.5	8.46e-01	0	26	0	0	60	36888
2026-01-17 17:27:26.66	31.39	0.20	-48.7	-63.9	3.6	1.51e+00	0	27	104	0	60	56500
2026-01-17 17:27:27.67	31.33	0.26	-48.7	-63.9	3.6	1.51e+00	0	27	104	0	60	56631
2026-01-17 17:27:28.68	31.27	0.31	-48.7	-64.0	3.6	1.51e+00	0	27	104	0	60	56963
2026-01-17 17:27:29.69	31.21	0.36	-48.8	-64.0	3.6	1.51e+00	0	27	104	0	60	56982
2026-01-17 17:27:30.70	31.15	0.42	-48.8	-63.9	3.6	1.51e+00	0	27	104	0	60	56907
2026-01-17 17:27:31.71	31.09	0.47	-48.8	-63.9	3.6	1.51e+00	0	28	104	0	60	56954
2026-01-17 17:27:32.72	31.03	0.53	-48.7	-63.9	3.6	1.51e+00	0	28	104	0	60	56658
2026-01-17 17:27:33.73	30.97	0.58	-48.7	-63.9	3.6	1.51e+00	0	28	104	0	60	56322
2026-01-17 17:27:34.74	30.91	0.64	-48.6	-63.8	3.6	1.51e+00	0	28	104	0	60	56165
2026-01-17 17:27:35.75	30.85	0.69	-48.6	-63.7	3.6	1.51e+00	0	28	104	0	60	55639
2026-01-17 17:27:36.76	30.79	0.75	-48.5	-63.6	3.6	1.51e+00	0	28	104	0	60	54973
2026-01-17 17:27:37.77	30.73	0.80	-48.4	-63.6	3.6	1.51e+00	0	28	104	0	60	54618
2026-01-17 17:27:38.78	30.67	0.86	-48.3	-63.4	3.6	1.51e+00	0	28	104	0	60	53265
2026-01-17 17:27:39.79	30.61	0.91	-48.1	-63.2	3.6	1.51e+00	0	28	104	0	60	52469
2026-01-17 17:27:40.80	30.55	0.97	-47.8	-63.0	3.6	1.51e+00	0	28	104	0	60	50864
2026-01-17 17:27:41.81	30.48	1.02	-47.4	-62.5	3.6	1.51e+00	0	28	104	0	60	48223
2026-01-17 17:27:42.83	30.42	1.08	-47.2	-62.3	3.6	1.51e+00	0	28	104	0	60	46844
2026-01-17 17:27:43.84	30.36	1.13	-47.2	-62.2	3.6	1.51e+00	0	28	104	0	60	46738
2026-01-17 17:27:44.85	30.30	1.19	-47.2	-62.3	3.6	1.51e+00	0	28	104	0	60	46882
2026-01-17 17:27:45.86	30.23	1.24	-47.2	-62.2	3.6	1.51e+00	0	28	104	0	60	46743
2026-01-17 17:27:46.87	30.17	1.30	-47.2	-62.3	3.6	1.51e+00	0	28	104	0	60	47162
2026-01-17 17:27:47.88	30.11	1.35	-47.2	-62.3	3.6	1.51e+00	0	28	104	0	60	47261
2026-01-17 17:27:48.89	30.04	1.41	-47.2	-62.3	3.6	1.51e+00	0	28	104	0	60	46836
2026-01-17 17:27:49.90	29.98	1.47	-47.2	-62.2	3.6	1.51e+00	0	28	104	0	60	46791
2026-01-17 17:27:50.91	29.91	1.52	-47.2	-62.2	3.6	1.51e+00	0	28	104	0	60	46797
2026-01-17 17:27:51.92	29.85	1.58	-47.2	-62.2	3.6	1.51e+00	0	28	104	0	60	46750
2026-01-17 17:27:52.93	29.78	1.63	-47.2	-62.3	3.6	1.51e+00	0	28	104	0	60	47035
2026-01-17 17:27:53.94	29.72	1.69	-47.2	-62.3	3.6	1.51e+00	0	28	104	0	60	47251
2026-01-17 17:27:54.95	29.65	1.74	-47.2	-62.4	3.6	1.51e+00	0	28	104	0	60	47487
2026-01-17 17:27:55.96	29.59	1.80	-47.2	-62.4	3.6	1.51e+00	0	28	104	0	60	47393
2026-01-17 17:27:56.97	29.52	1.86	-47.2	-62.3	3.6	1.51e+00	0	28	104	0	60	46841
2026-01-17 17:27:57.98	29.46	1.91	-47.2	-62.3	3.6	1.51e+00	0	28	104	0	60	47044
2026-01-17 17:27:58.99	29.39	1.97	-47.2	-62.3	3.6	1.51e+00	0	28	104	0	60	47073
2026-01-17 17:28:00.00	29.32	2.03	-47.2	-62.2	3.6	1.51e+00	0	28	104	0	60	46604
2026-01-17 17:28:01.01	29.26	2.08	-47.2	-62.1	3.6	1.51e+00	0	28	104	0	60	45883
2026-01-17 17:28:02.02	29.19	2.14	-47.1	-62.0	3.6	1.51e+00	0	28	104	0	60	45631
2026-01-17 17:28:03.03	29.12	2.20	-47.2	-62.0	3.6	1.51e+00	0	28	104	0	60	45581
2026-01-17 17:28:04.04	29.05	2.25	-47.2	-62.1	3.6	1.51e+00	0	28	104	0	60	45837
2026-01-17 17:28:05.05	28.99	2.31	-47.2	-62.2	3.6	1.51e+00	0	28	104	0	60	46743
2026-01-17 17:28:06.06	28.92	2.37	-47.2	-62.3	3.6	1.51e+00	0	28	104	0	60	47124
2026-01-17 17:28:07.07	28.85	2.42	-47.2	-62.3	3.6	1.51e+00	0	28	104	0	60	47029
2026-01-17 17:28:08.08	28.78	2.48	-47.2	-62.3	3.6	1.51e+00	0	28	104	0	60	47124
2026-01-17 17:28:09.09	28.71	2.54	-47.2	-62.3	3.6	1.51e+00	0	28	104	0	60	47089
2026-01-17 17:28:10.10	28.64	2.59	-47.2	-62.3	3.6	1.51e+00	0	28	104	0	60	47167
2026-01-17 17:28:11.11	28.57	2.65	-47.2	-62.3	3.6	1.51e+00	0	28	104	0	60	46997
2026-01-17 17:28:12.12	28.50	2.71	-47.1	-62.0	3.6	1.51e+00	0	28	104	0	60	45743
2026-01-17 17:28:13.13	28.43	2.77	-47.1	-61.7	3.6	1.51e+00	0	28	104	0	60	44037
2026-01-17 17:28:14.14	28.36	2.82	-47.1	-61.5	3.6	1.51e+00	0	28	104	0	60	43046
2026-01-17 17:28:15.15	28.29	2.88	-47.1	-61.6	3.6	1.51e+00	0	28	104	0	60	43588
2026-01-17 17:28:16.16	28.22	2.94	-47.1	-62.0	3.6	1.51e+00	0	28	104	0	60	45304
2026-01-17 17:28:17.18	28.15	3.00	-47.1	-61.6	3.6	1.51e+00	0	28	104	0	60	43462
2026-01-17 17:28:18.19	28.08	3.06	-47.0	-59.2	3.9	1.49e+00	0	28	104	0	60	32855
2026-01-17 17:28:19.20	28.00	3.11	-46.7	-55.3	5.1	8.20e-01	0	28	0	0	60	21102
2026-01-17 17:28:20.21	27.93	3.17	-46.2	-52.3	8.1	2.56e-01	33	28	0	2097152	60	14959
2026-01-17 17:28:21.22	27.86	3.23	-45.8	-51.3	9.4	2.11e-02	0	28	0	4194304	60	13226
2026-01-17 17:28:22.23	27.79	3.29	-45.4	-50.2	10.6	4.34e-03	0	28	0	6291456	60	11714
2026-01-17 17:28:23.24	27.71	3.35	-45.1	-49.3	12.0	1.35e-03	67	28	0	8388608	60	10588
2026-01-17 17:28:24.25	27.64	3.40	-47.0	-56.9	4.4	1.48e+00	0	28	104	9437184	60	25424
2026-01-17 17:28:25.26	27.56	3.46	-42.7	-45.0	16.5	1.50e-06	92	28	0	9437184	60	6406
2026-01-17 17:28:26.27	27.49	3.52	-47.1	-61.8	3.6	1.32e+00	0	28	104	10485760	60	44541
2026-01-17 17:28:27.28	27.42	3.58	-46.6	-54.6	8.9	8.27e-01	0	28	104	10485760	60	19519
2026-01-17 17:28:28.29	27.34	3.64	-46.3	-53.0	7.5	1.07e-01	0	28	0	11534336	60	16100
2026-01-17 17:28:29.31	27.27	3.70	-45.3	-49.7	11.4	1.89e-03	0	28	0	13631488	60	11088
2026-01-17 17:28:30.31	27.19	3.75	-44.2	-47.5	14.0	1.06e-04	11	28	0	14680064	60	8536
2026-01-17 17:28:31.32	27.11	3.81	-43.4	-46.1	15.2	7.00e-07	0	28	0	16777216	60	7330
2026-01-17 17:28:32.33	27.04	3.87	-42.5	-44.7	16.5	0.00e+00	59	28	0	18874368	58	6972
2026-01-17 17:28:33.34	26.96	3.93	-42.7	-45.0	16.3	0.00e+00	0	28	0	20971520	58	7224
2026-01-17 17:28:34.35	26.89	3.99	-42.6	-44.8	16.5	0.00e+00	0	28	0	23068672	58	7076
2026-01-17 17:28:35.37	26.81	4.05	-42.1	-44.1	17.3	0.00e+00	0	28	0	24117248	58	6511
2026-01-17 17:28:36.38	26.73	4.11	-43.1	-45.6	15.7	0.00e+00	0	28	0	26214400	58	7752
2026-01-17 17:28:37.39	26.65	4.17	-42.2	-44.3	17.0	0.00e+00	71	28	0	28311552	58	6659
2026-01-17 17:28:38.39	26.58	4.23	-41.6	-43.4	18.0	0.00e+00	0	28	0	30408704	56	6740
2026-01-17 17:28:39.41	26.50	4.29	-42.0	-43.9	17.6	0.00e+00	67	28	0	32505856	56	7113
2026-01-17 17:28:40.42	26.42	4.35	-41.5	-43.2	17.9	0.00e+00	0	28	0	34603008	56	6578
2026-01-17 17:28:41.43	26.34	4.41	-42.0	-43.9	17.5	0.00e+00	0	28	0	35651584	56	7116
2026-01-17 17:28:42.44	26.26	4.47	-41.7	-43.5	17.9	0.00e+00	0	28	0	37748736	56	6840
2026-01-17 17:28:43.45	26.18	4.53	-41.7	-43.5	18.1	0.00e+00	0	28	0	39845888	56	6785
2026-01-17 17:28:44.46	26.10	4.59	-42.0	-44.0	17.7	0.00e+00	64	28	0	41943040	56	7171
2026-01-17 17:28:45.47	26.02	4.65	-42.1	-44.1	17.3	0.00e+00	0	28	0	44040192	56	7305
2026-01-17 17:28:46.48	25.94	4.71	-42.0	-43.9	17.7	0.00e+00	67	28	0	45088768	56	7132
2026-01-17 17:28:47.49	25.86	4.77	-41.9	-43.7	17.8	0.00e+00	0	28	0	47185920	56	6983
2026-01-17 17:28:48.50	25.78	4.83	-41.6	-43.3	18.2	0.00e+00	49	28	0	49283072	56	6648
2026-01-17 17:28:49.51	25.69	4.89	-41.5	-43.2	18.4	0.00e+00	0	28	0	51380224	56	6575
2026-01-17 17:28:50.52	25.61	4.95	-41.3	-43.0	18.5	0.00e+00	0	29	0	53477376	56	6407
2026-01-17 17:28:51.53	25.53	5.01	-41.4	-43.0	18.4	0.00e+00	60	28	0	54525952	56	6463
2026-01-17 17:28:52.54	25.45	5.07	-41.5	-43.2	18.4	0.00e+00	0	28	0	56623104	56	6577
2026-01-17 17:28:53.55	25.36	5.13	-41.7	-43.4	18.1	0.00e+00	55	28	0	58720256	56	6765
2026-01-17 17:28:54.56	25.28	5.19	-41.3	-43.0	18.5	0.00e+00	0	28	0	60817408	56	6405
2026-01-17 17:28:55.57	25.20	5.25	-40.9	-42.4	19.0	0.00e+00	84	28	0	62914560	56	5986
2026-01-17 17:28:56.58	25.11	5.31	-41.1	-42.7	18.7	0.00e+00	0	28	0	63963136	54	6929
2026-01-17 17:28:57.59	25.03	5.37	-41.1	-42.6	18.8	0.00e+00	0	29	0	66060288	54	6914
2026-01-17 17:28:58.60	24.94	5.43	-41.2	-42.9	18.6	0.00e+00	0	28	0	68157440	54	7110
2026-01-17 17:28:59.61	24.86	5.49	-41.4	-43.1	18.6	0.00e+00	0	28	0	70254592	54	7290
2026-01-17 17:29:00.62	24.77	5.55	-40.9	-42.4	19.0	0.00e+00	64	28	0	72351744	54	6752
2026-01-17 17:29:01.63	24.68	5.62	-41.1	-42.7	18.8	0.00e+00	0	28	0	73400320	54	6972
2026-01-17 17:29:02.64	24.60	5.68	-40.8	-42.3	19.2	0.00e+00	92	28	0	75497472	54	6630
2026-01-17 17:29:03.65	24.51	5.74	-40.6	-42.1	19.4	0.00e+00	0	28	0	77594624	54	6507
2026-01-17 17:29:04.66	24.42	5.80	-40.7	-42.2	19.1	0.00e+00	0	28	0	79691776	54	6578
2026-01-17 17:29:05.67	24.34	5.86	-40.9	-42.5	19.0	0.00e+00	0	28	0	81788928	54	6784
2026-01-17 17:29:06.68	24.25	5.92	-41.0	-42.6	18.9	0.00e+00	0	28	0	82837504	54	6871
2026-01-17 17:29:07.69	24.16	5.98	-40.8	-42.3	19.3	0.00e+00	70	28	0	84934656	54	6688
2026-01-17 17:29:08.70	24.07	6.05	-41.0	-42.6	18.8	0.00e+00	0	28	0	87031808	54	6902
2026-01-17 17:29:09.71	23.98	6.11	-41.0	-42.5	18.9	0.00e+00	85	28	0	89128960	54	6827
2026-01-17 17:29:10.72	23.89	6.17	-40.9	-42.5	19.0	0.00e+00	0	28	0	91226112	54	6806
2026-01-17 17:29:11.73	23.80	6.23	-41.4	-43.0	18.5	0.00e+00	0	28	0	92274688	54	7252
2026-01-17 17:29:12.74	23.71	6.29	-41.4	-43.1	18.6	0.00e+00	0	28	0	94371840	54	7275
2026-01-17 17:29:13.74	23.62	6.36	-41.5	-43.2	18.4	0.00e+00	0	28	0	96468992	54	7376
2026-01-17 17:29:14.76	23.53	6.42	-41.4	-43.1	18.6	0.00e+00	65	28	0	98566144	54	7307
2026-01-17 17:29:15.77	23.44	6.48	-41.3	-42.9	18.7	0.00e+00	0	28	0	100663296	54	7137
2026-01-17 17:29:16.77	23.35	6.54	-41.3	-43.0	18.7	0.00e+00	74	28	0	102760448	54	7218
2026-01-17 17:29:17.79	23.25	6.61	-41.2	-42.8	18.7	0.00e+00	0	28	0	103809024	54	7079
2026-01-17 17:29:18.80	23.16	6.67	-41.3	-42.9	18.8	0.00e+00	0	28	0	105906176	54	7125
2026-01-17 17:29:19.81	23.07	6.73	-41.1	-42.7	19.1	0.00e+00	0	28	0	108003328	54	6936
2026-01-17 17:29:20.82	22.97	6.79	-41.1	-42.7	19.1	0.00e+00	0	28	0	110100480	54	6972
2026-01-17 17:29:21.83	22.88	6.86	-41.0	-42.6	19.0	0.00e+00	0	28	0	112197632	54	6881
2026-01-17 17:29:22.84	22.78	6.92	-40.9	-42.5	19.2	0.00e+00	0	28	0	113246208	54	6770
2026-01-17 17:29:23.85	22.69	6.98	-40.9	-42.4	19.3	0.00e+00	92	28	0	115343360	54	6713
2026-01-17 17:29:24.86	22.59	7.04	-40.8	-42.3	19.3	0.00e+00	0	29	0	117440512	54	6636
2026-01-17 17:29:25.87	22.50	7.11	-40.8	-42.2	19.4	0.00e+00	0	29	0	119537664	54	6605
2026-01-17 17:29:26.88	22.40	7.17	-40.7	-42.2	19.5	0.00e+00	0	28	0	121634816	54	6543
2026-01-17 17:29:27.89	22.30	7.23	-40.7	-42.1	19.5	0.00e+00	0	29	0	122683392	54	6527
2026-01-17 17:29:28.89	22.21	7.30	-40.6	-42.0	19.7	0.00e+00	0	29	0	124780544	54	6445
2026-01-17 17:29:29.90	22.11	7.36	-40.3	-41.7	19.9	0.00e+00	0	28	0	126877696	54	6195
2026-01-17 17:29:30.91	22.01	7.42	-40.3	-41.7	19.9	0.00e+00	69	29	0	128974848	54	6228
2026-01-17 17:29:31.92	21.91	7.49	-40.3	-41.7	20.0	0.00e+00	0	28	0	131072000	54	6214
2026-01-17 17:29:32.93	21.82	7.55	-40.2	-41.5	20.0	0.00e+00	92	29	0	132120576	54	6099
2026-01-17 17:29:33.94	21.72	7.61	-40.4	-41.7	19.9	0.00e+00	0	28	0	134217728	54	6229
2026-01-17 17:29:34.95	21.62	7.68	-40.2	-41.6	20.1	0.00e+00	0	29	0	136314880	54	6125
2026-01-17 17:29:35.96	21.52	7.74	-40.4	-41.8	19.9	0.00e+00	0	28	0	138412032	54	6247
2026-01-17 17:29:36.97	21.42	7.81	-40.1	-41.4	20.2	0.00e+00	0	29	0	140509184	54	6008
2026-01-17 17:29:37.98	21.31	7.87	-39.8	-41.1	20.5	0.00e+00	66	29	0	141557760	54	5790
2026-01-17 17:29:39.00	21.21	7.93	-39.7	-40.9	20.8	0.00e+00	0	29	0	143654912	52	6330
2026-01-17 17:29:40.01	21.11	8.00	-39.7	-40.9	20.7	0.00e+00	73	29	0	145752064	52	6388
2026-01-17 17:29:41.02	21.01	8.06	-39.7	-41.0	20.6	0.00e+00	0	28	0	147849216	52	6411
2026-01-17 17:29:42.02	20.90	8.13	-40.0	-41.3	20.5	0.00e+00	0	29	0	149946368	52	6619
2026-01-17 17:29:43.04	20.80	8.19	-39.7	-40.9	20.8	0.00e+00	0	28	0	150994944	52	6359
2026-01-17 17:29:44.05	20.70	8.26	-39.9	-41.2	20.5	0.00e+00	0	29	0	153092096	52	6570
2026-01-17 17:29:45.06	20.59	8.32	-40.1	-41.3	20.4	0.00e+00	39	29	0	155189248	52	6689
2026-01-17 17:29:46.07	20.49	8.39	-40.0	-41.3	20.3	0.00e+00	0	29	0	157286400	52	6673
2026-01-17 17:29:47.08	20.38	8.45	-40.1	-41.4	20.2	0.00e+00	40	29	0	159383552	52	6752
2026-01-17 17:29:48.09	20.27	8.51	-40.1	-41.3	20.4	0.00e+00	0	29	0	160432128	52	6691
2026-01-17 17:29:49.10	20.17	8.58	-40.4	-41.7	20.1	0.00e+00	0	28	0	162529280	52	6959
2026-01-17 17:29:50.11	20.06	8.64	-40.2	-41.5	20.4	0.00e+00	0	29	0	164626432	52	6822
2026-01-17 17:29:51.12	19.95	8.71	-40.1	-41.4	20.3	0.00e+00	0	29	0	166723584	52	6744
2026-01-17 17:29:52.13	19.85	8.77	-40.3	-41.6	20.2	0.00e+00	74	28	0	168820736	52	6860
2026-01-17 17:29:53.14	19.74	8.84	-40.4	-41.7	20.1	0.00e+00	0	29	0	170917888	52	6980
2026-01-17 17:29:54.15	19.63	8.90	-40.4	-41.8	20.0	0.00e+00	92	29	0	171966464	52	7035
2026-01-17 17:29:55.16	19.52	8.97	-40.5	-41.9	19.9	0.00e+00	0	28	0	174063616	52	7131
2026-01-17 17:29:56.17	19.41	9.04	-40.3	-41.7	20.2	0.00e+00	0	29	0	176160768	52	6931
2026-01-17 17:29:57.18	19.30	9.10	-40.6	-42.0	20.0	0.00e+00	0	29	0	178257920	52	7221
2026-01-17 17:29:58.19	19.19	9.17	-40.4	-41.7	20.1	0.00e+00	0	29	0	180355072	52	6982
2026-01-17 17:29:59.20	19.08	9.23	-40.7	-42.2	19.8	0.00e+00	65	29	0	181403648	52	7343
2026-01-17 17:30:00.21	18.97	9.30	-40.5	-41.9	19.9	0.00e+00	0	29	0	183500800	54	6379
2026-01-17 17:30:01.22	18.85	9.36	-40.4	-41.8	20.0	0.00e+00	92	29	0	185597952	54	6275
2026-01-17 17:30:02.23	18.74	9.43	-40.4	-41.7	19.9	0.00e+00	0	29	0	187695104	54	6216
2026-01-17 17:30:03.24	18.63	9.49	-40.4	-41.7	20.0	0.00e+00	27	29	0	189792256	54	6233
2026-01-17 17:30:04.25	18.51	9.56	-40.3	-41.6	20.2	0.00e+00	0	29	0	190840832	54	6166
2026-01-17 17:30:05.26	18.40	9.63	-40.4	-41.7	20.1	0.00e+00	0	29	0	192937984	54	6236
2026-01-17 17:30:06.27	18.28	9.69	-40.2	-41.5	20.3	0.00e+00	57	29	0	195035136	54	6070
2026-01-17 17:30:07.28	18.17	9.76	-40.3	-41.6	20.1	0.00e+00	0	29	0	197132288	54	6155
2026-01-17 17:30:08.29	18.05	9.82	-40.2	-41.5	20.0	0.00e+00	92	29	0	199229440	54	6074
2026-01-17 17:30:09.30	17.93	9.89	-40.2	-41.6	19.9	0.00e+00	0	29	0	200278016	54	6107
2026-01-17 17:30:10.31	17.82	9.96	-40.5	-41.9	19.9	0.00e+00	90	29	0	202375168	54	6331
2026-01-17 17:30:11.32	17.70	10.02	-40.5	-41.9	20.1	0.00e+00	0	29	0	204472320	54	6338
2026-01-17 17:30:12.33	17.58	10.09	-40.2	-41.5	20.4	0.00e+00	0	29	0	206569472	54	6044
2026-01-17 17:30:13.34	17.46	10.15	-40.0	-41.2	20.5	0.00e+00	41	29	0	208666624	54	5869
2026-01-17 17:30:14.35	17.34	10.22	-40.0	-41.3	20.5	0.00e+00	0	29	0	209715200	54	5929
2026-01-17 17:30:15.36	17.22	10.29	-39.9	-41.2	20.6	0.00e+00	70	29	0	211812352	54	5833
2026-01-17 17:30:16.37	17.10	10.35	-40.0	-41.3	20.6	0.00e+00	0	29	0	213909504	54	5925
2026-01-17 17:30:17.38	16.98	10.42	-39.9	-41.1	20.7	0.00e+00	92	29	0	216006656	54	5794
2026-01-17 17:30:18.39	16.86	10.49	-40.2	-41.5	20.4	0.00e+00	0	29	0	218103808	54	6075
2026-01-17 17:30:19.40	16.74	10.55	-40.0	-41.3	20.6	0.00e+00	0	29	0	219152384	54	5921
2026-01-17 17:30:20.41	16.61	10.62	-40.1	-41.4	20.4	0.00e+00	0	29	0	221249536	54	6018
2026-01-17 17:30:21.42	16.49	10.69	-40.3	-41.6	20.2	0.00e+00	0	29	0	223346688	54	6167
2026-01-17 17:30:22.43	16.37	10.75	-40.1	-41.4	20.4	0.00e+00	61	29	0	225443840	54	6025
2026-01-17 17:30:23.44	16.24	10.82	-40.1	-41.4	20.6	0.00e+00	0	29	0	227540992	54	5998
2026-01-17 17:30:24.45	16.12	10.89	-39.9	-41.2	20.6	0.00e+00	73	29	0	228589568	54	5829
2026-01-17 17:30:25.46	15.99	10.96	-39.8	-41.0	20.7	0.00e+00	0	29	0	230686720	54	5746
2026-01-17 17:30:26.47	15.86	11.02	-40.0	-41.2	20.8	0.00e+00	0	29	0	232783872	54	5862
2026-01-17 17:30:27.47	15.74	11.09	-39.8	-41.0	20.8	0.00e+00	0	29	0	234881024	54	5755
2026-01-17 17:30:28.49	15.61	11.16	-39.9	-41.1	20.7	0.00e+00	0	29	0	236978176	54	5794
2026-01-17 17:30:29.50	15.48	11.22	-39.9	-41.1	20.7	0.00e+00	27	29	0	239075328	54	5811
2026-01-17 17:30:30.51	15.35	11.29	-39.8	-41.1	20.8	0.00e+00	0	29	0	240123904	54	5791
2026-01-17 17:30:31.51	15.22	11.36	-39.8	-41.1	20.7	0.00e+00	75	29	0	242221056	54	5790
2026-01-17 17:30:32.52	15.09	11.42	-40.0	-41.3	20.5	0.00e+00	0	29	0	244318208	54	5925
2026-01-17 17:30:33.53	14.96	11.49	-39.9	-41.1	20.8	0.00e+00	0	29	0	246415360	54	5826
2026-01-17 17:30:34.54	14.83	11.56	-39.6	-40.8	21.1	0.00e+00	0	29	0	248512512	52	6278
2026-01-17 17:30:35.55	14.70	11.63	-39.4	-40.6	21.1	0.00e+00	0	29	0	249561088	52	6105
2026-01-17 17:30:36.56	14.57	11.69	-39.3	-40.5	21.3	0.00e+00	0	29	0	251658240	52	6048
2026-01-17 17:30:37.57	14.43	11.76	-39.2	-40.4	21.4	0.00e+00	0	29	0	253755392	52	5988
2026-01-17 17:30:38.58	14.30	11.83	-39.4	-40.5	21.3	0.00e+00	67	29	0	255852544	52	6100
2026-01-17 17:30:39.59	14.17	11.90	-39.4	-40.5	21.1	0.00e+00	0	29	0	257949696	52	6101
2026-01-17 17:30:40.60	14.03	11.96	-39.4	-40.6	21.4	0.00e+00	0	29	0	258998272	52	6129
2026-01-17 17:30:41.61	13.90	12.03	-39.1	-40.2	21.5	0.00e+00	0	29	0	261095424	52	5883
2026-01-17 17:30:42.62	13.76	12.10	-39.2	-40.3	21.5	0.00e+00	0	29	0	263192576	52	5951
2026-01-17 17:30:43.63	13.62	12.17	-39.2	-40.4	21.4	0.00e+00	70	29	0	265289728	52	5970
2026-01-17 17:30:44.64	13.48	12.23	-39.2	-40.3	21.5	0.00e+00	0	29	0	267386880	52	5939
2026-01-17 17:30:45.65	13.35	12.30	-39.0	-40.1	21.7	0.00e+00	70	29	0	268435456	52	5814
2026-01-17 17:30:46.66	13.21	12.37	-38.9	-40.0	21.7	0.00e+00	0	29	0	270532608	52	5727
2026-01-17 17:30:47.67	13.07	12.44	-39.2	-40.3	21.6	0.00e+00	0	29	0	272629760	52	5964
2026-01-17 17:30:48.68	12.93	12.51	-39.1	-40.2	21.6	0.00e+00	0	29	0	274726912	52	5890
2026-01-17 17:30:49.70	12.79	12.57	-39.2	-40.3	21.5	0.00e+00	0	29	0	276824064	52	5926
2026-01-17 17:30:50.71	12.64	12.64	-39.3	-40.5	21.3	0.00e+00	0	29	0	277872640	52	6070
2026-01-17 17:30:51.72	12.50	12.71	-39.4	-40.6	21.3	0.00e+00	0	29	0	279969792	52	6107
2026-01-17 17:30:52.73	12.36	12.78	-39.4	-40.5	21.4	0.00e+00	68	29	0	282066944	52	6074
2026-01-17 17:30:53.74	12.22	12.84	-39.3	-40.5	21.3	0.00e+00	0	29	0	284164096	52	6059
2026-01-17 17:30:54.75	12.07	12.91	-39.5	-40.7	21.2	0.00e+00	89	29	0	286261248	52	6218
2026-01-17 17:30:55.75	11.93	12.98	-39.6	-40.9	21.1	0.00e+00	0	29	0	287309824	52	6323
2026-01-17 17:30:56.76	11.78	13.05	-39.4	-40.6	21.2	0.00e+00	0	29	0	289406976	52	6140
2026-01-17 17:30:57.77	11.64	13.12	-39.3	-40.5	20.9	0.00e+00	0	29	0	291504128	52	6067
2026-01-17 17:30:58.78	11.49	13.18	-39.0	-40.1	21.3	0.00e+00	0	29	0	293601280	52	5808
2026-01-17 17:30:59.79	11.34	13.25	-39.2	-40.4	21.4	0.00e+00	26	29	0	295698432	52	5971
2026-01-17 17:31:00.80	11.19	13.32	-39.4	-40.5	21.4	0.00e+00	0	29	0	296747008	52	6084
2026-01-17 17:31:01.81	11.04	13.39	-39.5	-40.6	21.3	0.00e+00	72	29	0	298844160	52	6142
2026-01-17 17:31:02.82	10.89	13.45	-39.6	-40.7	21.2	0.00e+00	0	29	0	300941312	52	6222
2026-01-17 17:31:03.83	10.74	13.52	-39.4	-40.5	21.6	0.00e+00	0	29	0	303038464	52	6064
2026-01-17 17:31:04.84	10.59	13.59	-39.3	-40.4	21.5	0.00e+00	0	29	0	305135616	52	5979
2026-01-17 17:31:05.85	10.44	13.66	-39.3	-40.5	21.5	0.00e+00	0	29	0	307232768	52	6035
2026-01-17 17:31:06.86	10.29	13.73	-39.2	-40.3	21.5	0.00e+00	0	29	0	308281344	52	5912
2026-01-17 17:31:07.87	10.14	13.79	-39.4	-40.5	21.5	0.00e+00	0	29	0	310378496	52	6051
2026-01-17 17:31:08.88	9.98	13.86	-39.1	-40.2	21.5	0.00e+00	92	29	0	312475648	52	5860
2026-01-17 17:31:09.89	9.83	13.93	-39.2	-40.3	21.6	0.00e+00	0	29	0	314572800	52	5939
2026-01-17 17:31:10.90	9.67	14.00	-39.2	-40.3	21.6	0.00e+00	0	29	0	316669952	52	5949
2026-01-17 17:31:11.91	9.51	14.06	-39.3	-40.4	21.6	0.00e+00	0	29	0	317718528	52	6000
2026-01-17 17:31:12.92	9.36	14.13	-39.2	-40.3	21.5	0.00e+00	0	29	0	319815680	52	5940
2026-01-17 17:31:13.93	9.20	14.20	-39.3	-40.4	21.5	0.00e+00	74	29	0	321912832	52	5996
2026-01-17 17:31:14.94	9.04	14.27	-39.4	-40.6	21.3	0.00e+00	0	29	0	324009984	52	6126
2026-01-17 17:31:15.95	8.88	14.33	-39.6	-40.8	21.2	0.00e+00	92	29	0	326107136	52	6284
2026-01-17 17:31:16.96	8.72	14.40	-39.9	-41.2	20.9	0.00e+00	0	29	0	327155712	52	6543
2026-01-17 17:31:17.97	8.56	14.47	-40.0	-41.3	20.6	0.00e+00	0	29	0	329252864	52	6648
2026-01-17 17:31:18.99	8.40	14.54	-40.2	-41.5	20.6	0.00e+00	0	29	0	331350016	52	6783
2026-01-17 17:31:20.00	8.24	14.60	-40.2	-41.4	20.7	0.00e+00	0	29	0	333447168	52	6740
2026-01-17 17:31:21.01	8.07	14.67	-40.1	-41.3	20.7	0.00e+00	41	29	0	335544320	52	6662
2026-01-17 17:31:22.02	7.91	14.74	-40.0	-41.2	20.9	0.00e+00	0	29	0	336592896	52	6604
2026-01-17 17:31:23.03	7.75	14.81	-39.8	-40.9	21.0	0.00e+00	40	29	0	338690048	52	6384
2026-01-17 17:31:24.04	7.58	14.87	-39.7	-40.8	21.2	0.00e+00	0	29	0	340787200	52	6298
2026-01-17 17:31:25.05	7.42	14.94	-39.5	-40.6	21.4	0.00e+00	76	29	0	342884352	52	6138
2026-01-17 17:31:26.06	7.25	15.01	-39.5	-40.7	21.3	0.00e+00	0	29	0	344981504	52	6187
2026-01-17 17:31:27.07	7.08	15.07	-39.8	-41.1	21.0	0.00e+00	0	29	0	347078656	52	6467
2026-01-17 17:31:28.08	6.91	15.14	-39.9	-41.1	20.9	0.00e+00	9	29	0	348127232	52	6525
2026-01-17 17:31:29.09	6.75	15.21	-40.1	-41.4	20.7	0.00e+00	0	29	0	350224384	52	6718
2026-01-17 17:31:30.10	6.58	15.27	-40.1	-41.3	20.8	0.00e+00	40	29	0	352321536	52	6679
2026-01-17 17:31:31.11	6.40	15.34	-39.7	-40.9	21.2	0.00e+00	0	29	0	354418688	52	6323
2026-01-17 17:31:32.12	6.23	15.41	-39.6	-40.7	21.3	0.00e+00	65	29	0	356515840	52	6244
2026-01-17 17:31:33.13	6.06	15.47	-39.3	-40.4	21.6	0.00e+00	0	29	0	357564416	52	6031
2026-01-17 17:31:34.14	5.89	15.54	-39.4	-40.6	21.5	0.00e+00	33	29	0	359661568	52	6116
2026-01-17 17:31:35.15	5.72	15.61	-39.5	-40.7	21.3	0.00e+00	0	29	0	361758720	52	6212
2026-01-17 17:31:36.16	5.54	15.67	-40.0	-41.2	20.8	0.00e+00	0	29	0	363855872	52	6573
2026-01-17 17:31:37.17	5.37	15.74	-40.1	-41.3	20.7	0.00e+00	75	29	0	365953024	52	6646
2026-01-17 17:31:38.18	5.19	15.81	-39.9	-41.1	21.3	0.00e+00	33	29	0	367001600	52	6470
2026-01-17 17:31:39.19	5.01	15.87	-39.5	-40.7	21.4	0.00e+00	75	29	0	369098752	52	6188
2026-01-17 17:31:40.20	4.84	15.94	-39.6	-40.8	21.3	0.00e+00	0	29	0	371195904	52	6264
2026-01-17 17:31:41.21	4.66	16.00	-39.9	-41.1	20.8	0.00e+00	33	29	0	373293056	52	6479
2026-01-17 17:31:42.22	4.48	16.07	-40.1	-41.3	20.8	0.00e+00	0	29	0	375390208	52	6681
2026-01-17 17:31:43.23	4.30	16.14	-40.1	-41.3	20.8	0.00e+00	0	29	0	376438784	52	6680
2026-01-17 17:31:44.24	4.12	16.20	-40.3	-41.6	20.6	0.00e+00	45	29	0	378535936	52	6914
2026-01-17 17:31:45.25	3.94	16.27	-40.6	-42.0	20.2	0.00e+00	0	29	0	380633088	54	6410
2026-01-17 17:31:46.26	3.75	16.33	-40.4	-41.7	20.4	0.00e+00	92	29	0	382730240	54	6239
2026-01-17 17:31:47.27	3.57	16.40	-40.3	-41.6	20.4	0.00e+00	0	29	0	384827392	54	6143
2026-01-17 17:31:48.28	3.39	16.46	-40.4	-41.7	20.5	0.00e+00	0	29	0	385875968	54	6216
2026-01-17 17:31:49.29	3.20	16.53	-40.0	-41.2	20.9	0.00e+00	0	29	0	387973120	54	5868
2026-01-17 17:31:50.30	3.02	16.59	-39.7	-40.9	21.2	0.00e+00	0	29	0	390070272	54	5682
2026-01-17 17:31:51.31	2.83	16.66	-39.6	-40.8	21.1	0.00e+00	57	29	0	392167424	52	6251
2026-01-17 17:31:52.32	2.64	16.72	-39.6	-40.8	21.3	0.00e+00	0	29	0	394264576	52	6266
2026-01-17 17:31:53.33	2.45	16.78	-39.3	-40.5	21.6	0.00e+00	92	29	0	395313152	52	6079
2026-01-17 17:31:54.34	2.27	16.85	-39.4	-40.6	21.5	0.00e+00	0	29	0	397410304	52	6151
2026-01-17 17:31:55.35	2.08	16.91	-39.3	-40.4	21.6	0.00e+00	0	29	0	399507456	52	6028
2026-01-17 17:31:56.36	1.89	16.98	-38.9	-40.0	22.0	0.00e+00	0	29	0	401604608	52	5698
2026-01-17 17:31:57.37	1.69	17.04	-38.8	-39.9	22.1	0.00e+00	0	29	0	403701760	52	5647
2026-01-17 17:31:58.38	1.50	17.10	-38.7	-39.8	22.2	0.00e+00	0	29	0	404750336	50	6251
2026-01-17 17:31:59.39	1.31	17.17	-38.5	-39.5	22.4	0.00e+00	0	29	0	406847488	50	6061
2026-01-17 17:32:00.40	1.12	17.23	-38.6	-39.6	22.3	0.00e+00	70	29	0	408944640	50	6149
2026-01-17 17:32:01.41	0.92	17.29	-38.5	-39.5	22.4	0.00e+00	0	29	0	411041792	50	6082
2026-01-17 17:32:02.43	0.72	17.36	-38.5	-39.5	22.3	0.00e+00	38	29	0	413138944	50	6088
2026-01-17 17:32:03.44	0.53	17.42	-38.3	-39.3	22.5	0.00e+00	0	29	0	415236096	50	5952
2026-01-17 17:32:04.45	0.33	17.48	-38.3	-39.3	22.6	0.00e+00	0	29	0	416284672	50	5935
2026-01-17 17:32:05.46	0.13	17.54	-38.0	-39.0	22.7	0.00e+00	65	29	0	418381824	50	5741
2026-01-17 17:32:06.47	359.93	17.61	-38.1	-39.1	22.5	0.00e+00	0	29	0	420478976	50	5786
2026-01-17 17:32:07.48	359.73	17.67	-37.9	-38.8	23.2	0.00e+00	65	29	0	422576128	50	5608
2026-01-17 17:32:08.49	359.53	17.73	-37.7	-38.7	23.1	0.00e+00	0	29	0	424673280	48	6207
2026-01-17 17:32:09.50	359.33	17.79	-37.7	-38.7	22.9	0.00e+00	69	29	0	425721856	48	6203
2026-01-17 17:32:10.51	359.13	17.85	-37.8	-38.8	23.0	0.00e+00	0	29	0	427819008	48	6269
2026-01-17 17:32:11.52	358.93	17.91	-38.4	-39.4	22.5	0.00e+00	0	29	0	429916160	48	6743
2026-01-17 17:32:12.53	358.72	17.97	-38.0	-39.0	22.8	0.00e+00	25	29	0	432013312	48	6444
2026-01-17 17:32:13.54	358.52	18.03	-37.5	-38.5	23.2	0.00e+00	0	29	0	434110464	48	6038
2026-01-17 17:32:14.55	358.31	18.09	-37.5	-38.4	23.2	0.00e+00	65	29	0	435159040	48	6021
2026-01-17 17:32:15.56	358.11	18.15	-37.4	-38.3	23.3	0.00e+00	0	29	0	437256192	48	5937
2026-01-17 17:32:16.57	357.90	18.21	-37.3	-38.2	23.4	0.00e+00	68	29	0	439353344	48	5876
2026-01-17 17:32:17.58	357.69	18.27	-37.2	-38.1	23.4	0.00e+00	0	29	0	441450496	48	5828
2026-01-17 17:32:18.59	357.49	18.33	-37.3	-38.3	23.3	0.00e+00	0	29	0	443547648	48	5908
2026-01-17 17:32:19.61	357.27	18.39	-37.3	-38.2	23.3	0.00e+00	0	29	0	444596224	48	5876
2026-01-17 17:32:20.62	357.06	18.45	-37.1	-38.0	23.5	0.00e+00	0	29	0	446693376	48	5735
2026-01-17 17:32:21.63	356.85	18.51	-37.1	-38.0	23.6	0.00e+00	21	29	0	448790528	48	5749
2026-01-17 17:32:22.64	356.64	18.57	-36.9	-37.8	23.8	0.00e+00	0	29	0	450887680	48	5611
2026-01-17 17:32:23.65	356.43	18.63	-37.1	-38.0	23.7	0.00e+00	65	29	0	452984832	48	5697
2026-01-17 17:32:24.66	356.21	18.68	-36.9	-37.8	23.7	0.00e+00	0	29	0	454033408	48	5591
2026-01-17 17:32:25.67	356.00	18.74	-37.2	-38.1	23.5	0.00e+00	0	29	0	456130560	48	5775
2026-01-17 17:32:26.68	355.78	18.80	-37.3	-38.2	23.5	0.00e+00	0	29	0	458227712	48	5864
2026-01-17 17:32:27.69	355.57	18.86	-37.6	-38.5	23.2	0.00e+00	0	29	0	460324864	48	6075
2026-01-17 17:32:28.70	355.35	18.91	-37.5	-38.5	23.2	0.00e+00	71	29	0	462422016	48	6052
2026-01-17 17:32:29.71	355.13	18.97	-37.4	-38.3	23.3	0.00e+00	0	29	0	463470592	48	5927
2026-01-17 17:32:30.72	354.92	19.02	-37.7	-38.7	23.1	0.00e+00	68	29	0	465567744	48	6181
2026-01-17 17:32:31.74	354.69	19.08	-37.6	-38.5	23.1	0.00e+00	0	29	0	467664896	48	6100
2026-01-17 17:32:32.74	354.48	19.14	-37.6	-38.6	22.6	0.00e+00	0	29	0	469762048	48	6154
2026-01-17 17:32:33.76	354.25	19.19	-37.7	-38.7	23.0	0.00e+00	0	29	0	471859200	48	6215
2026-01-17 17:32:34.76	354.03	19.24	-38.0	-39.0	22.8	0.00e+00	0	29	0	472907776	48	6442
2026-01-17 17:32:35.77	353.81	19.30	-37.5	-38.5	23.2	0.00e+00	70	29	0	475004928	48	6045
2026-01-17 17:32:36.79	353.58	19.35	-37.4	-38.3	23.3	0.00e+00	0	29	0	477102080	48	5932
2026-01-17 17:32:37.80	353.36	19.41	-37.2	-38.1	23.5	0.00e+00	71	29	0	479199232	48	5799
2026-01-17 17:32:38.81	353.14	19.46	-37.2	-38.1	23.5	0.00e+00	0	29	0	481296384	48	5775
2026-01-17 17:32:39.81	352.91	19.51	-37.2	-38.2	23.4	0.00e+00	0	29	0	483393536	48	5839
2026-01-17 17:32:40.82	352.69	19.57	-37.4	-38.3	23.5	0.00e+00	0	29	0	484442112	48	5925
2026-01-17 17:32:41.84	352.46	19.62	-37.4	-38.3	23.4	0.00e+00	0	29	0	486539264	48	5960
2026-01-17 17:32:42.85	352.23	19.67	-37.4	-38.3	23.3	0.00e+00	65	29	0	488636416	48	5944
2026-01-17 17:32:43.85	352.00	19.72	-37.2	-38.1	23.5	0.00e+00	0	29	0	490733568	48	5790
2026-01-17 17:32:44.87	351.77	19.77	-37.1	-38.0	23.3	0.00e+00	90	29	0	492830720	48	5702
2026-01-17 17:32:45.87	351.54	19.82	-36.8	-37.7	23.8	0.00e+00	0	29	0	493879296	48	5516
2026-01-17 17:32:46.88	351.31	19.87	-36.7	-37.5	24.0	0.00e+00	0	29	0	495976448	46	6080
2026-01-17 17:32:47.89	351.08	19.92	-36.5	-37.4	23.9	0.00e+00	0	29	0	498073600	46	5977
2026-01-17 17:32:48.90	350.85	19.97	-36.8	-37.7	23.9	0.00e+00	0	29	0	500170752	46	6192
2026-01-17 17:32:49.91	350.61	20.02	-36.8	-37.7	23.9	0.00e+00	0	29	0	502267904	46	6189
2026-01-17 17:32:50.92	350.38	20.07	-36.9	-37.7	23.8	0.00e+00	0	29	0	503316480	46	6241
2026-01-17 17:32:51.93	350.14	20.12	-36.5	-37.3	24.1	0.00e+00	71	29	0	505413632	46	5940
2026-01-17 17:32:52.94	349.91	20.17	-36.5	-37.4	24.2	0.00e+00	0	29	0	507510784	46	5971
2026-01-17 17:32:53.95	349.67	20.22	-36.5	-37.4	24.1	0.00e+00	92	29	0	509607936	46	5986
2026-01-17 17:32:54.96	349.43	20.26	-36.6	-37.4	24.1	0.00e+00	0	29	0	511705088	46	6020
2026-01-17 17:32:55.97	349.19	20.31	-37.0	-37.9	23.6	0.00e+00	0	29	0	512753664	46	6383
2026-01-17 17:32:56.98	348.96	20.36	-37.2	-38.1	23.5	0.00e+00	0	29	0	514850816	46	6534
2026-01-17 17:32:57.99	348.72	20.40	-37.3	-38.2	23.6	0.00e+00	0	29	0	516947968	46	6561
2026-01-17 17:32:59.00	348.48	20.45	-37.1	-38.0	23.6	0.00e+00	75	29	0	519045120	46	6426
2026-01-17 17:33:00.01	348.24	20.49	-36.9	-37.7	23.9	0.00e+00	0	29	0	521142272	46	6223
2026-01-17 17:33:01.02	347.99	20.54	-36.6	-37.5	23.9	0.00e+00	86	29	0	523239424	46	6036
2026-01-17 17:33:02.03	347.75	20.58	-36.7	-37.5	24.0	0.00e+00	0	29	0	524288000	46	6089
2026-01-17 17:33:03.04	347.51	20.62	-36.7	-37.5	24.0	0.00e+00	0	29	0	526385152	46	6098
2026-01-17 17:33:04.05	347.26	20.67	-36.7	-37.6	24.0	0.00e+00	0	29	0	528482304	46	6151
2026-01-17 17:33:05.07	347.02	20.71	-36.8	-37.7	23.8	0.00e+00	0	29	0	530579456	46	6187
2026-01-17 17:33:06.08	346.77	20.75	-36.7	-37.6	23.9	0.00e+00	16	29	0	532676608	46	6125
2026-01-17 17:33:07.09	346.53	20.79	-36.8	-37.7	23.5	0.00e+00	0	29	0	533725184	46	6201
2026-01-17 17:33:08.10	346.28	20.83	-36.6	-37.5	24.0	0.00e+00	92	29	0	535822336	46	6062
2026-01-17 17:33:09.11	346.03	20.87	-36.4	-37.3	24.1	0.00e+00	0	29	0	537919488	46	5909
2026-01-17 17:33:10.12	345.79	20.91	-36.4	-37.2	24.1	0.00e+00	0	29	0	540016640	46	5877
2026-01-17 17:33:11.13	345.54	20.95	-36.4	-37.2	24.3	0.00e+00	0	29	0	542113792	46	5848
2026-01-17 17:33:12.14	345.29	20.99	-36.4	-37.2	24.2	0.00e+00	0	29	0	543162368	46	5894
2026-01-17 17:33:13.15	345.04	21.03	-36.5	-37.4	24.2	0.00e+00	0	29	0	545259520	46	5983
2026-01-17 17:33:14.16	344.79	21.07	-36.7	-37.6	24.0	0.00e+00	0	29	0	547356672	46	6119
2026-01-17 17:33:15.17	344.54	21.11	-36.7	-37.6	23.9	0.00e+00	90	29	0	549453824	46	6123
2026-01-17 17:33:16.18	344.29	21.14	-36.6	-37.4	24.1	0.00e+00	0	29	0	551550976	46	6029
2026-01-17 17:33:17.19	344.03	21.18	-36.3	-37.1	24.2	0.00e+00	13	29	0	552599552	46	5821
2026-01-17 17:33:18.20	343.78	21.22	-36.3	-37.1	23.9	0.00e+00	33	29	0	554696704	46	5787
2026-01-17 17:33:19.21	343.53	21.25	-36.6	-37.4	24.1	0.00e+00	0	29	0	556793856	46	6020
2026-01-17 17:33:20.22	343.27	21.29	-36.8	-37.6	23.9	0.00e+00	0	29	0	558891008	46	6153
2026-01-17 17:33:21.23	343.02	21.32	-37.0	-37.8	23.8	0.00e+00	0	29	0	560988160	46	6300
2026-01-17 17:33:22.24	342.76	21.35	-37.1	-38.0	23.4	0.00e+00	86	29	0	562036736	46	6451
2026-01-17 17:33:23.25	342.51	21.39	-37.2	-38.1	23.6	0.00e+00	0	29	0	564133888	46	6508
2026-01-17 17:33:24.26	342.25	21.42	-37.5	-38.4	23.4	0.00e+00	29	29	0	566231040	46	6736
2026-01-17 17:33:25.27	342.00	21.45	-37.3	-38.2	23.5	0.00e+00	0	29	0	568328192	46	6544
2026-01-17 17:33:26.28	341.74	21.48	-37.6	-38.6	23.3	0.00e+00	0	29	0	570425344	46	6856
2026-01-17 17:33:27.29	341.48	21.51	-38.2	-39.1	22.7	0.00e+00	0	29	0	571473920	48	6535
2026-01-17 17:33:28.30	341.22	21.55	-38.4	-39.4	22.3	0.00e+00	0	29	0	573571072	48	6747
2026-01-17 17:33:29.31	340.96	21.57	-38.7	-39.7	22.3	0.00e+00	88	29	0	575668224	48	6959
2026-01-17 17:33:30.32	340.70	21.60	-38.4	-39.3	22.6	0.00e+00	0	29	0	577765376	48	6688
2026-01-17 17:33:31.33	340.44	21.63	-38.6	-39.7	22.4	0.00e+00	92	29	0	579862528	48	6930
2026-01-17 17:33:32.34	340.18	21.66	-38.7	-39.8	22.2	0.00e+00	0	29	0	580911104	48	7024
2026-01-17 17:33:33.35	339.92	21.69	-38.5	-39.5	22.4	0.00e+00	0	29	0	583008256	50	6099
2026-01-17 17:33:34.36	339.66	21.71	-38.6	-39.7	22.3	0.00e+00	0	29	0	585105408	50	6182
2026-01-17 17:33:35.37	339.40	21.74	-38.6	-39.7	22.3	0.00e+00	0	29	0	587202560	50	6201
2026-01-17 17:33:36.38	339.14	21.77	-38.7	-39.7	22.3	0.00e+00	75	29	0	589299712	50	6215
2026-01-17 17:33:37.39	338.88	21.79	-38.7	-39.8	22.3	0.00e+00	0	29	0	591396864	50	6279
2026-01-17 17:33:38.40	338.61	21.82	-38.7	-39.7	22.4	0.00e+00	76	29	0	592445440	50	6206
2026-01-17 17:33:39.41	338.35	21.84	-38.5	-39.5	22.5	0.00e+00	0	29	0	594542592	50	6068
2026-01-17 17:33:40.42	338.09	21.86	-38.3	-39.3	22.6	0.00e+00	0	29	0	596639744	50	5948
2026-01-17 17:33:41.43	337.82	21.88	-38.1	-39.1	22.8	0.00e+00	0	29	0	598736896	50	5826
2026-01-17 17:33:42.44	337.56	21.91	-38.4	-39.4	22.6	0.00e+00	0	29	0	600834048	50	5999
2026-01-17 17:33:43.45	337.29	21.93	-38.7	-39.8	22.1	0.00e+00	69	29	0	601882624	50	6277
2026-01-17 17:33:44.46	337.03	21.95	-39.0	-40.1	21.9	0.00e+00	0	29	0	603979776	50	6539
2026-01-17 17:33:45.47	336.76	21.97	-39.5	-40.7	21.4	0.00e+00	68	29	0	606076928	50	6967
2026-01-17 17:33:46.48	336.50	21.99	-39.5	-40.7	21.5	0.00e+00	0	29	0	608174080	50	6987
2026-01-17 17:33:47.49	336.23	22.00	-38.9	-40.0	22.0	0.00e+00	0	29	0	610271232	50	6458
2026-01-17 17:33:48.50	335.96	22.02	-38.5	-39.6	22.2	0.00e+00	0	29	0	611319808	50	6128
2026-01-17 17:33:49.51	335.70	22.04	-38.1	-39.0	22.8	0.00e+00	0	29	0	613416960	50	5757
2026-01-17 17:33:50.52	335.43	22.06	-38.1	-39.0	22.8	0.00e+00	62	29	0	615514112	50	5747
2026-01-17 17:33:51.53	335.16	22.07	-37.9	-38.9	22.9	0.00e+00	0	29	0	617611264	50	5671
2026-01-17 17:33:52.54	334.89	22.09	-38.5	-39.5	22.4	0.00e+00	81	29	0	619708416	50	6102
2026-01-17 17:33:53.55	334.63	22.10	-38.8	-39.8	22.1	0.00e+00	0	29	0	620756992	50	6312
2026-01-17 17:33:54.56	334.36	22.12	-39.0	-40.1	22.0	0.00e+00	0	29	0	622854144	50	6484
2026-01-17 17:33:55.57	334.09	22.13	-38.7	-39.8	22.3	0.00e+00	0	29	0	624951296	50	6265
2026-01-17 17:33:56.58	333.82	22.14	-38.8	-39.8	22.1	0.00e+00	0	29	0	627048448	50	6291
2026-01-17 17:33:57.59	333.55	22.15	-38.4	-39.4	22.6	0.00e+00	0	29	0	629145600	50	5991
2026-01-17 17:33:58.60	333.28	22.17	-38.3	-39.3	22.5	0.00e+00	0	29	0	630194176	50	5952
2026-01-17 17:33:59.61	333.01	22.18	-38.1	-39.0	22.7	0.00e+00	65	29	0	632291328	50	5760
2026-01-17 17:34:00.62	332.74	22.19	-38.5	-39.6	22.4	0.00e+00	0	29	0	634388480	50	6108
2026-01-17 17:34:01.63	332.47	22.20	-39.0	-40.1	22.0	0.00e+00	0	29	0	636485632	50	6524
2026-01-17 17:34:02.64	332.20	22.20	-39.5	-40.7	21.6	0.00e+00	0	29	0	638582784	50	6951
2026-01-17 17:34:03.65	331.93	22.21	-40.0	-41.3	21.1	0.00e+00	0	29	0	639631360	52	6633
2026-01-17 17:34:04.66	331.66	22.22	-40.0	-41.2	21.1	0.00e+00	0	29	0	641728512	52	6610
2026-01-17 17:34:05.67	331.39	22.23	-40.0	-41.3	21.1	0.00e+00	0	29	0	643825664	52	6656
2026-01-17 17:34:06.68	331.12	22.23	-40.0	-41.2	21.1	0.00e+00	92	29	0	645922816	52	6585
2026-01-17 17:34:07.69	330.85	22.24	-39.8	-41.1	21.4	0.00e+00	0	29	0	648019968	52	6466
2026-01-17 17:34:08.70	330.58	22.24	-39.8	-41.1	21.3	0.00e+00	74	29	0	649068544	52	6467
2026-01-17 17:34:09.71	330.31	22.24	-39.7	-40.9	21.5	0.00e+00	0	29	0	651165696	52	6332
2026-01-17 17:34:10.72	330.04	22.25	-39.7	-40.9	21.6	0.00e+00	0	29	0	653262848	52	6380
2026-01-17 17:34:11.73	329.77	22.25	-39.4	-40.5	21.8	0.00e+00	0	29	0	655360000	52	6062
2026-01-17 17:34:12.74	329.50	22.25	-39.1	-40.1	22.1	0.00e+00	0	29	0	657457152	52	5806
2026-01-17 17:34:13.75	329.23	22.25	-38.9	-39.9	22.3	0.00e+00	0	29	0	659554304	52	5648
2026-01-17 17:34:14.76	328.96	22.25	-38.9	-39.9	22.3	0.00e+00	0	29	0	660602880	52	5646
2026-01-17 17:34:15.77	328.69	22.25	-38.3	-39.2	22.8	0.00e+00	92	29	0	662700032	50	5891
2026-01-17 17:34:16.78	328.42	22.25	-38.0	-39.0	23.0	0.00e+00	0	29	0	664797184	50	5704
2026-01-17 17:34:17.79	328.14	22.25	-37.9	-38.9	23.0	0.00e+00	0	29	0	666894336	50	5645
2026-01-17 17:34:18.80	327.87	22.25	-37.8	-38.8	23.1	0.00e+00	0	29	0	668991488	48	6256
2026-01-17 17:34:19.81	327.60	22.25	-37.8	-38.7	23.3	0.00e+00	0	29	0	670040064	48	6241
2026-01-17 17:34:20.82	327.33	22.24	-37.7	-38.6	23.3	0.00e+00	71	29	0	672137216	48	6149
2026-01-17 17:34:21.83	327.06	22.24	-37.9	-38.9	23.1	0.00e+00	0	29	0	674234368	48	6332
2026-01-17 17:34:22.84	326.79	22.23	-38.1	-39.0	22.9	0.00e+00	74	29	0	676331520	48	6437
2026-01-17 17:34:23.84	326.52	22.23	-38.3	-39.3	22.7	0.00e+00	0	29	0	678428672	48	6686
2026-01-17 17:34:24.85	326.25	22.22	-38.6	-39.6	22.5	0.00e+00	0	29	0	679477248	48	6899
2026-01-17 17:34:25.86	325.98	22.21	-38.6	-39.6	22.5	0.00e+00	0	29	0	681574400	48	6894
2026-01-17 17:34:26.87	325.71	22.21	-38.5	-39.5	22.4	0.00e+00	0	29	0	683671552	48	6842
2026-01-17 17:34:27.88	325.44	22.20	-38.4	-39.4	22.1	0.00e+00	73	29	0	685768704	48	6717
2026-01-17 17:34:28.89	325.17	22.19	-38.1	-39.0	23.0	0.00e+00	0	29	0	687865856	48	6446
2026-01-17 17:34:29.90	324.90	22.18	-38.0	-38.9	22.9	0.00e+00	82	29	0	688914432	48	6383
2026-01-17 17:34:30.91	324.63	22.17	-37.7	-38.7	23.2	0.00e+00	0	29	0	691011584	48	6188
2026-01-17 17:34:31.92	324.36	22.16	-37.7	-38.7	23.3	0.00e+00	0	29	0	693108736	48	6193
2026-01-17 17:34:32.93	324.10	22.14	-37.3	-38.2	23.6	0.00e+00	0	29	0	695205888	48	5855
2026-01-17 17:34:33.94	323.83	22.13	-37.3	-38.1	23.6	0.00e+00	0	29	0	697303040	48	5823
2026-01-17 17:34:34.95	323.56	22.12	-37.2	-38.1	23.6	0.00e+00	0	29	0	698351616	48	5785
2026-01-17 17:34:35.96	323.29	22.10	-37.4	-38.3	23.5	0.00e+00	0	29	0	700448768	48	5932
2026-01-17 17:34:36.97	323.02	22.09	-37.5	-38.4	23.5	0.00e+00	71	29	0	702545920	48	6010
2026-01-17 17:34:37.98	322.75	22.07	-37.6	-38.5	23.4	0.00e+00	0	29	0	704643072	48	6052
2026-01-17 17:34:38.99	322.49	22.06	-37.3	-38.2	23.6	0.00e+00	0	29	0	706740224	48	5855
2026-01-17 17:34:40.00	322.22	22.04	-36.8	-37.6	23.9	0.00e+00	0	29	0	707788800	46	6171
2026-01-17 17:34:41.01	321.95	22.03	-36.6	-37.4	23.6	0.00e+00	0	29	0	709885952	46	5997
2026-01-17 17:34:42.02	321.68	22.01	-36.5	-37.3	24.0	0.00e+00	48	29	0	711983104	46	5963
2026-01-17 17:34:43.03	321.42	21.99	-36.6	-37.5	24.1	0.00e+00	0	29	0	714080256	46	6052
2026-01-17 17:34:44.04	321.15	21.97	-36.9	-37.7	24.0	0.00e+00	44	29	0	716177408	46	6241
2026-01-17 17:34:45.05	320.89	21.95	-37.2	-38.1	23.7	0.00e+00	0	29	0	717225984	46	6484
2026-01-17 17:34:46.06	320.62	21.93	-36.9	-37.8	23.8	0.00e+00	50	29	0	719323136	46	6287
2026-01-17 17:34:47.07	320.36	21.91	-36.9	-37.8	23.8	0.00e+00	0	29	0	721420288	46	6287
2026-01-17 17:34:48.08	320.09	21.89	-36.9	-37.8	23.9	0.00e+00	0	29	0	723517440	46	6247
2026-01-17 17:34:49.09	319.83	21.86	-36.8	-37.7	23.9	0.00e+00	0	29	0	725614592	46	6209
2026-01-17 17:34:50.10	319.56	21.84	-36.9	-37.8	23.7	0.00e+00	0	29	0	727711744	46	6273
2026-01-17 17:34:51.11	319.30	21.82	-36.8	-37.7	24.0	0.00e+00	54	29	0	728760320	46	6192
2026-01-17 17:34:52.12	319.04	21.79	-36.6	-37.4	24.1	0.00e+00	33	29	0	730857472	46	6032
2026-01-17 17:34:53.13	318.77	21.77	-36.6	-37.5	24.1	0.00e+00	91	29	0	732954624	46	6045
2026-01-17 17:34:54.14	318.51	21.74	-36.6	-37.4	24.1	0.00e+00	0	29	0	735051776	46	6028
2026-01-17 17:34:55.15	318.25	21.72	-36.7	-37.6	24.0	0.00e+00	0	29	0	737148928	46	6107
2026-01-17 17:34:56.16	317.99	21.69	-36.9	-37.7	23.9	0.00e+00	0	29	0	738197504	46	6241
2026-01-17 17:34:57.17	317.73	21.66	-37.0	-37.8	23.6	0.00e+00	0	29	0	740294656	46	6308
2026-01-17 17:34:58.18	317.47	21.64	-36.9	-37.8	23.8	0.00e+00	72	29	0	742391808	46	6264
2026-01-17 17:34:59.19	317.21	21.61	-37.0	-37.9	23.8	0.00e+00	0	29	0	744488960	46	6346
2026-01-17 17:35:00.20	316.95	21.58	-36.9	-37.8	23.8	0.00e+00	76	29	0	746586112	46	6275
2026-01-17 17:35:01.21	316.69	21.55	-36.9	-37.7	24.0	0.00e+00	0	29	0	747634688	46	6223
2026-01-17 17:35:02.22	316.43	21.52	-37.1	-37.9	23.8	0.00e+00	0	29	0	749731840	46	6367
2026-01-17 17:35:03.23	316.17	21.49	-37.1	-37.9	23.8	0.00e+00	0	29	0	751828992	46	6382
2026-01-17 17:35:04.24	315.91	21.46	-37.1	-37.9	24.0	0.00e+00	0	29	0	753926144	46	6374
2026-01-17 17:35:05.26	315.65	21.42	-37.0	-37.9	23.8	0.00e+00	73	29	0	756023296	46	6353
2026-01-17 17:35:06.27	315.40	21.39	-37.0	-37.9	23.8	0.00e+00	0	29	0	757071872	46	6347
2026-01-17 17:35:07.27	315.14	21.36	-37.1	-37.9	23.7	0.00e+00	74	29	0	759169024	46	6388
2026-01-17 17:35:08.28	314.89	21.33	-37.7	-38.6	23.2	0.00e+00	0	29	0	761266176	46	6902
2026-01-17 17:35:09.29	314.63	21.29	-37.9	-38.9	23.1	0.00e+00	0	29	0	763363328	48	6332
2026-01-17 17:35:10.31	314.38	21.26	-37.9	-38.8	23.0	0.00e+00	0	29	0	765460480	48	6304
2026-01-17 17:35:11.32	314.12	21.22	-37.9	-38.9	23.1	0.00e+00	0	29	0	766509056	48	6327
2026-01-17 17:35:12.33	313.87	21.19	-37.9	-38.8	23.1	0.00e+00	0	29	0	768606208	48	6310
2026-01-17 17:35:13.34	313.62	21.15	-37.7	-38.6	23.3	0.00e+00	0	29	0	770703360	48	6128
2026-01-17 17:35:14.35	313.36	21.11	-37.3	-38.1	23.7	0.00e+00	91	29	0	772800512	48	5818
2026-01-17 17:35:15.36	313.11	21.07	-37.5	-38.4	23.4	0.00e+00	0	29	0	774897664	48	6030
2026-01-17 17:35:16.37	312.86	21.04	-37.6	-38.5	23.4	0.00e+00	1	29	0	776994816	48	6073
2026-01-17 17:35:17.38	312.61	21.00	-37.8	-38.7	23.0	0.00e+00	0	29	0	778043392	48	6221
2026-01-17 17:35:18.39	312.36	20.96	-38.0	-38.9	23.0	0.00e+00	0	29	0	780140544	48	6361
2026-01-17 17:35:19.40	312.11	20.92	-38.2	-39.1	22.8	0.00e+00	0	29	0	782237696	48	6526
2026-01-17 17:35:20.41	311.87	20.88	-38.4	-39.4	22.8	0.00e+00	0	29	0	784334848	48	6727
2026-01-17 17:35:21.42	311.62	20.84	-38.6	-39.6	22.4	0.00e+00	62	29	0	786432000	48	6927
2026-01-17 17:35:22.43	311.37	20.80	-39.1	-40.1	22.0	0.00e+00	0	29	0	787480576	50	6531
2026-01-17 17:35:23.44	311.13	20.76	-39.3	-40.4	21.9	0.00e+00	20	29	0	789577728	50	6745
2026-01-17 17:35:24.45	310.88	20.71	-39.6	-40.7	21.6	0.00e+00	0	29	0	791674880	50	6963
2026-01-17 17:35:25.46	310.64	20.67	-39.6	-40.7	21.6	0.00e+00	0	29	0	793772032	50	6992
2026-01-17 17:35:26.47	310.39	20.63	-39.6	-40.8	21.6	0.00e+00	0	29	0	795869184	50	7019
2026-01-17 17:35:27.48	310.15	20.58	-39.4	-40.5	22.0	0.00e+00	0	29	0	796917760	50	6785
2026-01-17 17:35:28.49	309.91	20.54	-39.2	-40.2	22.0	0.00e+00	86	29	0	799014912	50	6591
2026-01-17 17:35:29.50	309.66	20.50	-39.1	-40.2	22.0	0.00e+00	0	29	0	801112064	50	6563
2026-01-17 17:35:30.51	309.42	20.45	-39.0	-40.0	22.2	0.00e+00	92	29	0	803209216	50	6452
2026-01-17 17:35:31.52	309.18	20.41	-38.9	-39.9	22.4	0.00e+00	0	29	0	805306368	50	6320
2026-01-17 17:35:32.54	308.94	20.36	-38.5	-39.5	22.6	0.00e+00	0	29	0	806354944	50	6053
2026-01-17 17:35:33.55	308.70	20.31	-38.3	-39.3	22.8	0.00e+00	0	29	0	808452096	50	5899
2026-01-17 17:35:34.56	308.46	20.27	-38.4	-39.4	22.7	0.00e+00	0	29	0	810549248	50	5986
2026-01-17 17:35:35.57	308.22	20.22	-38.6	-39.5	22.5	0.00e+00	67	29	0	812646400	50	6103
2026-01-17 17:35:36.58	307.99	20.17	-38.6	-39.6	22.5	0.00e+00	0	29	0	814743552	50	6155
2026-01-17 17:35:37.59	307.75	20.12	-38.6	-39.5	22.6	0.00e+00	67	29	0	815792128	50	6086
2026-01-17 17:35:38.60	307.51	20.08	-38.2	-39.2	22.8	0.00e+00	0	29	0	817889280	50	5849
2026-01-17 17:35:39.61	307.28	20.03	-38.0	-39.0	23.0	0.00e+00	0	29	0	819986432	50	5696
2026-01-17 17:35:40.62	307.05	19.98	-37.9	-38.8	22.7	0.00e+00	0	29	0	822083584	50	5591
2026-01-17 17:35:41.63	306.81	19.93	-37.7	-38.6	23.2	0.00e+00	0	29	0	824180736	50	5484
2026-01-17 17:35:42.63	306.58	19.88	-37.7	-38.6	23.3	0.00e+00	0	29	0	825229312	48	6133
2026-01-17 17:35:43.64	306.35	19.83	-37.5	-38.3	23.2	0.00e+00	0	29	0	827326464	48	5956
2026-01-17 17:35:44.65	306.12	19.78	-37.6	-38.4	23.4	0.00e+00	92	29	0	829423616	48	6033
2026-01-17 17:35:45.66	305.89	19.73	-37.7	-38.6	23.2	0.00e+00	0	29	0	831520768	48	6133
2026-01-17 17:35:46.67	305.66	19.68	-37.7	-38.6	23.3	0.00e+00	0	29	0	833617920	48	6112
2026-01-17 17:35:47.68	305.43	19.62	-37.7	-38.5	23.3	0.00e+00	0	29	0	835715072	48	6103
2026-01-17 17:35:48.69	305.20	19.57	-37.8	-38.8	23.1	0.00e+00	0	29	0	836763648	48	6248
2026-01-17 17:35:49.70	304.98	19.52	-38.1	-39.1	22.8	0.00e+00	0	29	0	838860800	48	6481
2026-01-17 17:35:50.71	304.75	19.47	-38.3	-39.3	22.8	0.00e+00	0	29	0	840957952	48	6616
2026-01-17 17:35:51.72	304.53	19.41	-38.7	-39.7	22.4	0.00e+00	75	29	0	843055104	48	6932
2026-01-17 17:35:52.73	304.30	19.36	-39.3	-40.3	21.6	0.00e+00	0	29	0	845152256	50	6688
2026-01-17 17:35:53.74	304.08	19.30	-39.6	-40.7	21.5	0.00e+00	22	29	0	846200832	50	6986
2026-01-17 17:35:54.75	303.85	19.25	-39.7	-40.8	21.4	0.00e+00	0	29	0	848297984	52	6311
2026-01-17 17:35:55.76	303.63	19.20	-39.7	-40.8	21.3	0.00e+00	0	29	0	850395136	52	6289
2026-01-17 17:35:56.77	303.41	19.14	-39.6	-40.7	21.5	0.00e+00	49	29	0	852492288	52	6177
2026-01-17 17:35:57.78	303.19	19.08	-39.6	-40.7	21.6	0.00e+00	0	29	0	854589440	52	6235
2026-01-17 17:35:58.79	302.97	19.03	-39.8	-41.0	21.5	0.00e+00	69	29	0	855638016	52	6393
2026-01-17 17:35:59.80	302.75	18.97	-40.3	-41.6	20.9	0.00e+00	0	29	0	857735168	52	6868
2026-01-17 17:36:00.81	302.53	18.92	-40.5	-41.8	20.7	0.00e+00	66	29	0	859832320	52	7015
2026-01-17 17:36:01.82	302.31	18.86	-40.7	-42.1	20.3	0.00e+00	0	29	0	861929472	54	6520
2026-01-17 17:36:02.83	302.10	18.80	-41.0	-42.4	19.9	0.00e+00	0	29	0	864026624	54	6757
2026-01-17 17:36:03.84	301.88	18.75	-41.2	-42.6	19.9	0.00e+00	0	29	0	865075200	54	6884
2026-01-17 17:36:04.85	301.67	18.69	-41.0	-42.4	20.3	0.00e+00	0	29	0	867172352	54	6746
2026-01-17 17:36:05.86	301.45	18.63	-40.7	-42.0	20.4	0.00e+00	70	29	0	869269504	54	6416
2026-01-17 17:36:06.87	301.24	18.57	-40.2	-41.4	21.0	0.00e+00	0	29	0	871366656	54	5982
2026-01-17 17:36:07.88	301.03	18.51	-39.3	-40.4	21.7	0.00e+00	92	29	0	873463808	52	6023
2026-01-17 17:36:08.89	300.82	18.46	-38.8	-39.8	22.3	0.00e+00	0	29	0	874512384	52	5612
2026-01-17 17:36:09.90	300.60	18.40	-38.5	-39.5	22.6	0.00e+00	0	29	0	876609536	50	6068
2026-01-17 17:36:10.91	300.39	18.34	-38.4	-39.4	22.8	0.00e+00	0	29	0	878706688	50	6011
2026-01-17 17:36:11.90	300.19	18.28	-37.7	-38.6	23.3	0.00e+00	0	29	0	880803840	50	5488
2026-01-17 17:36:12.91	299.98	18.22	-37.7	-38.6	23.2	0.00e+00	1	29	0	882900992	48	6172
2026-01-17 17:36:13.92	299.77	18.16	-37.3	-38.2	23.6	0.00e+00	0	29	0	883949568	48	5870
2026-01-17 17:36:14.93	299.57	18.10	-37.2	-38.0	23.7	0.00e+00	74	29	0	886046720	48	5758
2026-01-17 17:36:15.94	299.36	18.04	-37.1	-38.0	23.8	0.00e+00	0	29	0	888143872	48	5696
2026-01-17 17:36:16.95	299.16	17.98	-37.5	-38.3	23.4	0.00e+00	0	29	0	890241024	48	5962
2026-01-17 17:36:17.96	298.95	17.92	-37.8	-38.7	23.2	0.00e+00	0	29	0	892338176	48	6236
2026-01-17 17:36:18.97	298.75	17.86	-37.9	-38.8	23.1	0.00e+00	0	29	0	893386752	48	6271
2026-01-17 17:36:19.98	298.55	17.80	-38.1	-39.0	23.0	0.00e+00	73	29	0	895483904	48	6419
2026-01-17 17:36:20.99	298.34	17.73	-37.9	-38.8	23.1	0.00e+00	0	29	0	897581056	48	6289
2026-01-17 17:36:22.00	298.14	17.67	-37.6	-38.5	23.3	0.00e+00	68	29	0	899678208	48	6076
2026-01-17 17:36:23.01	297.94	17.61	-37.6	-38.5	23.4	0.00e+00	0	29	0	901775360	48	6082
2026-01-17 17:36:24.02	297.74	17.55	-37.5	-38.4	23.4	0.00e+00	0	29	0	903872512	48	5975
2026-01-17 17:36:25.03	297.55	17.49	-37.1	-37.9	23.7	0.00e+00	0	29	0	904921088	48	5665
2026-01-17 17:36:26.04	297.35	17.42	-37.2	-38.0	23.6	0.00e+00	0	29	0	907018240	48	5749
2026-01-17 17:36:27.05	297.15	17.36	-37.5	-38.4	23.4	0.00e+00	50	29	0	909115392	48	5989
2026-01-17 17:36:28.06	296.95	17.30	-38.1	-39.0	23.0	0.00e+00	0	29	0	911212544	48	6444
2026-01-17 17:36:29.07	296.76	17.24	-38.5	-39.5	22.6	0.00e+00	92	29	0	913309696	48	6821
2026-01-17 17:36:30.08	296.57	17.17	-38.9	-40.0	22.2	0.00e+00	0	29	0	914358272	50	6404
2026-01-17 17:36:31.09	296.37	17.11	-39.2	-40.2	21.8	0.00e+00	0	29	0	916455424	50	6591
2026-01-17 17:36:32.10	296.18	17.05	-39.5	-40.6	21.6	0.00e+00	0	29	0	918552576	50	6920
2026-01-17 17:36:33.11	295.99	16.98	-39.4	-40.5	21.6	0.00e+00	0	29	0	920649728	50	6845
2026-01-17 17:36:34.12	295.80	16.92	-39.5	-40.6	21.6	0.00e+00	0	29	0	922746880	50	6860
2026-01-17 17:36:35.13	295.61	16.85	-39.4	-40.5	21.7	0.00e+00	0	29	0	923795456	50	6793
2026-01-17 17:36:36.14	295.42	16.79	-39.2	-40.2	21.9	0.00e+00	70	29	0	925892608	50	6588
2026-01-17 17:36:37.15	295.23	16.73	-39.0	-40.0	22.1	0.00e+00	0	29	0	927989760	50	6455
2026-01-17 17:36:38.16	295.04	16.66	-38.5	-39.5	22.6	0.00e+00	30	29	0	930086912	50	6061
2026-01-17 17:36:39.17	294.85	16.60	-38.6	-39.6	22.4	0.00e+00	33	29	0	932184064	50	6115
2026-01-17 17:36:40.18	294.67	16.53	-38.4	-39.3	22.6	0.00e+00	0	29	0	933232640	50	5956
2026-01-17 17:36:41.20	294.48	16.47	-38.3	-39.2	22.7	0.00e+00	0	29	0	935329792	50	5894
2026-01-17 17:36:42.21	294.30	16.40	-37.9	-38.9	23.0	0.00e+00	0	29	0	937426944	50	5634
2026-01-17 17:36:43.22	294.11	16.34	-38.0	-38.9	23.0	0.00e+00	56	29	0	939524096	50	5651
2026-01-17 17:36:44.22	293.93	16.27	-37.9	-38.9	23.0	0.00e+00	0	29	0	941621248	50	5635
2026-01-17 17:36:45.23	293.75	16.21	-38.0	-38.9	22.9	0.00e+00	92	29	0	942669824	50	5693
2026-01-17 17:36:46.24	293.57	16.14	-38.0	-38.9	23.0	0.00e+00	0	29	0	944766976	50	5691
2026-01-17 17:36:47.25	293.39	16.07	-38.2	-39.1	22.7	0.00e+00	0	29	0	946864128	50	5807
2026-01-17 17:36:48.27	293.20	16.01	-38.5	-39.5	22.4	0.00e+00	0	29	0	948961280	50	6076
2026-01-17 17:36:49.28	293.03	15.94	-38.9	-40.0	22.1	0.00e+00	0	29	0	951058432	50	6406
2026-01-17 17:36:50.29	292.85	15.88	-39.1	-40.2	21.9	0.00e+00	26	29	0	952107008	50	6547
2026-01-17 17:36:51.29	292.67	15.81	-39.3	-40.4	21.8	0.00e+00	0	29	0	954204160	50	6721
2026-01-17 17:36:52.30	292.50	15.74	-39.4	-40.5	21.7	0.00e+00	92	29	0	956301312	50	6776
2026-01-17 17:36:53.31	292.32	15.68	-39.0	-40.1	22.0	0.00e+00	0	29	0	958398464	50	6466
2026-01-17 17:36:54.32	292.14	15.61	-39.0	-40.1	22.1	0.00e+00	0	29	0	960495616	50	6485
2026-01-17 17:36:55.33	291.97	15.54	-38.9	-39.9	22.2	0.00e+00	0	29	0	961544192	50	6354
2026-01-17 17:36:56.34	291.80	15.48	-38.8	-39.9	22.2	0.00e+00	0	29	0	963641344	50	6328
2026-01-17 17:36:57.35	291.62	15.41	-38.6	-39.6	22.4	0.00e+00	72	29	0	965738496	50	6132
2026-01-17 17:36:58.36	291.45	15.35	-38.5	-39.5	22.5	0.00e+00	0	29	0	967835648	50	6052
2026-01-17 17:36:59.37	291.28	15.28	-38.8	-39.9	22.2	0.00e+00	89	29	0	969932800	50	6318
2026-01-17 17:37:00.38	291.11	15.21	-38.9	-40.0	22.1	0.00e+00	0	29	0	972029952	50	6414
2026-01-17 17:37:01.39	290.94	15.14	-38.9	-40.0	22.0	7.00e-07	0	29	0	973078528	50	6440
2026-01-17 17:37:02.40	290.77	15.08	-39.1	-40.2	22.0	0.00e+00	0	29	0	975175680	50	6577
2026-01-17 17:37:03.41	290.61	15.01	-39.3	-40.4	21.7	0.00e+00	0	29	0	977272832	50	6718
2026-01-17 17:37:04.43	290.44	14.94	-39.3	-40.5	21.7	7.00e-07	0	29	0	979369984	50	6781
2026-01-17 17:37:05.43	290.27	14.88	-39.2	-40.3	21.7	0.00e+00	0	29	0	981467136	50	6624
2026-01-17 17:37:06.44	290.11	14.81	-39.1	-40.2	21.9	0.00e+00	65	29	0	982515712	50	6601
2026-01-17 17:37:07.45	289.94	14.74	-38.9	-39.9	22.0	0.00e+00	0	29	0	984612864	50	6375
2026-01-17 17:37:08.46	289.78	14.67	-38.7	-39.8	22.2	0.00e+00	0	29	0	986710016	50	6256
2026-01-17 17:37:09.47	289.61	14.61	-38.6	-39.6	22.3	0.00e+00	0	29	0	988807168	50	6124
2026-01-17 17:37:10.48	289.45	14.54	-38.4	-39.4	22.5	0.00e+00	0	29	0	990904320	50	6015
2026-01-17 17:37:11.49	289.29	14.47	-38.1	-39.1	22.8	0.00e+00	68	29	0	991952896	50	5768
2026-01-17 17:37:12.51	289.13	14.40	-37.9	-38.9	22.9	0.00e+00	0	29	0	994050048	50	5662
2026-01-17 17:37:13.52	288.97	14.34	-38.1	-39.0	22.8	0.00e+00	66	29	0	996147200	50	5759
2026-01-17 17:37:14.53	288.81	14.27	-38.2	-39.1	22.7	0.00e+00	0	29	0	998244352	50	5828
2026-01-17 17:37:15.54	288.65	14.20	-38.0	-39.0	22.9	0.00e+00	92	29	0	1000341504	50	5699
2026-01-17 17:37:16.55	288.49	14.13	-38.1	-39.0	22.8	0.00e+00	0	29	0	1001390080	50	5733
2026-01-17 17:37:17.56	288.33	14.07	-37.6	-38.5	23.3	0.00e+00	0	29	0	1003487232	48	6055
2026-01-17 17:37:18.57	288.17	14.00	-37.2	-38.0	23.6	0.00e+00	0	29	0	1005584384	48	5754
2026-01-17 17:37:19.58	288.02	13.93	-36.8	-37.7	23.9	0.00e+00	0	29	0	1007681536	48	5522
2026-01-17 17:37:20.59	287.86	13.86	-36.7	-37.5	23.9	0.00e+00	72	29	0	1009778688	46	6067
2026-01-17 17:37:21.60	287.71	13.79	-36.8	-37.6	24.0	0.00e+00	0	29	0	1011875840	46	6124
2026-01-17 17:37:22.61	287.55	13.73	-36.7	-37.6	24.0	0.00e+00	92	29	0	1012924416	46	6104
2026-01-17 17:37:23.62	287.40	13.66	-36.9	-37.7	23.8	0.00e+00	0	29	0	1015021568	46	6224
2026-01-17 17:37:24.63	287.25	13.59	-37.1	-38.0	23.6	0.00e+00	0	29	0	1017118720	46	6436
2026-01-17 17:37:25.64	287.10	13.52	-37.2	-38.1	23.5	0.00e+00	0	29	0	1019215872	46	6503
2026-01-17 17:37:26.65	286.95	13.45	-37.5	-38.4	23.2	0.00e+00	0	29	0	1021313024	46	6768
2026-01-17 17:37:27.66	286.80	13.39	-37.6	-38.5	23.2	0.00e+00	47	29	0	1022361600	46	6847
2026-01-17 17:37:28.67	286.65	13.32	-37.7	-38.6	23.1	0.00e+00	33	29	0	1024458752	46	6925
2026-01-17 17:37:29.68	286.50	13.25	-37.9	-38.9	22.9	0.00e+00	92	29	0	1026555904	48	6349
2026-01-17 17:37:30.69	286.35	13.18	-37.9	-38.8	23.0	0.00e+00	0	29	0	1028653056	48	6310
2026-01-17 17:37:31.70	286.20	13.11	-38.1	-39.1	22.8	0.00e+00	0	29	0	1030750208	48	6475
2026-01-17 17:37:32.71	286.05	13.05	-38.0	-38.9	22.8	0.00e+00	0	29	0	1031798784	48	6383
2026-01-17 17:37:33.72	285.91	12.98	-38.0	-38.9	22.9	0.00e+00	0	29	0	1033895936	48	6361
2026-01-17 17:37:34.73	285.76	12.91	-37.8	-38.7	23.0	0.00e+00	0	29	0	1035993088	48	6215
2026-01-17 17:37:35.74	285.62	12.84	-37.5	-38.4	23.3	0.00e+00	0	29	0	1038090240	48	5972
2026-01-17 17:37:36.75	285.47	12.78	-37.4	-38.3	23.3	0.00e+00	84	29	0	1040187392	48	5949
2026-01-17 17:37:37.76	285.33	12.71	-37.0	-37.9	23.7	0.00e+00	0	29	0	1041235968	48	5661
2026-01-17 17:37:38.77	285.19	12.64	-37.1	-37.9	23.6	0.00e+00	0	29	0	1043333120	48	5688
2026-01-17 17:37:39.78	285.05	12.57	-36.9	-37.7	23.8	0.00e+00	0	29	0	1045430272	48	5537
2026-01-17 17:37:40.79	284.90	12.50	-37.1	-37.9	23.6	0.00e+00	0	29	0	1047527424	48	5683
2026-01-17 17:37:41.80	284.76	12.44	-37.2	-38.0	23.5	0.00e+00	68	29	0	1049624576	48	5753
2026-01-17 17:37:42.81	284.62	12.37	-37.3	-38.2	23.4	0.00e+00	0	29	0	1050673152	48	5858
2026-01-17 17:37:43.82	284.48	12.30	-37.6	-38.5	23.1	0.00e+00	92	29	0	1052770304	48	6077
2026-01-17 17:37:44.83	284.34	12.23	-37.9	-38.8	22.8	0.00e+00	0	29	0	1054867456	48	6302
2026-01-17 17:37:45.84	284.21	12.16	-38.0	-39.0	22.3	0.00e+00	0	29	0	1056964608	48	6408
2026-01-17 17:37:46.85	284.07	12.10	-38.2	-39.2	22.5	0.00e+00	0	29	0	1059061760	48	6551
2026-01-17 17:37:47.86	283.93	12.03	-38.4	-39.4	22.4	0.00e+00	0	29	0	1060110336	48	6747
2026-01-17 17:37:48.87	283.80	11.96	-38.4	-39.5	22.4	0.00e+00	0	29	0	1062207488	48	6772
2026-01-17 17:37:49.87	283.66	11.89	-38.6	-39.7	22.1	0.00e+00	0	29	0	1064304640	48	6931
2026-01-17 17:37:50.88	283.53	11.83	-38.7	-39.7	22.0	0.00e+00	92	29	0	1066401792	50	6231
2026-01-17 17:37:51.89	283.39	11.76	-38.8	-39.8	21.5	0.00e+00	0	29	0	1068498944	50	6315
2026-01-17 17:37:52.90	283.26	11.69	-38.9	-40.0	21.8	0.00e+00	0	29	0	1069547520	50	6392
2026-01-17 17:37:53.91	283.13	11.62	-38.5	-39.5	22.3	0.00e+00	0	29	0	1071644672	50	6093
2026-01-17 17:37:54.92	282.99	11.56	-38.5	-39.5	22.4	0.00e+00	0	29	0	1073741824	50	6045
2026-01-17 17:37:55.93	282.86	11.49	-38.4	-39.4	22.4	0.00e+00	0	29	0	1075838976	50	5998
2026-01-17 17:37:56.94	282.73	11.42	-38.2	-39.1	22.6	0.00e+00	0	29	0	1077936128	50	5820
2026-01-17 17:37:57.95	282.60	11.35	-37.7	-38.6	23.0	0.00e+00	90	29	0	1080033280	48	6141
2026-01-17 17:37:58.96	282.47	11.29	-37.5	-38.4	23.3	0.00e+00	0	29	0	1081081856	48	5984
2026-01-17 17:37:59.97	282.34	11.22	-37.3	-38.1	23.4	0.00e+00	92	29	0	1083179008	48	5816
2026-01-17 17:38:00.96	282.21	11.15	-37.3	-38.2	23.4	0.00e+00	0	29	0	1085276160	48	5871
2026-01-17 17:38:01.97	282.09	11.09	-37.6	-38.5	23.1	0.00e+00	0	29	0	1087373312	48	6070
2026-01-17 17:38:02.98	281.96	11.02	-37.5	-38.4	23.2	0.00e+00	0	29	0	1088421888	48	6016
2026-01-17 17:38:03.99	281.83	10.95	-37.6	-38.5	23.1	0.00e+00	0	29	0	1090519040	48	6097
2026-01-17 17:38:05.00	281.70	10.89	-37.8	-38.7	22.8	0.00e+00	13	29	0	1092616192	48	6241
2026-01-17 17:38:06.01	281.58	10.82	-38.4	-39.4	22.4	0.00e+00	0	29	0	1094713344	48	6702
2026-01-17 17:38:07.02	281.45	10.75	-38.7	-39.7	22.1	0.00e+00	77	29	0	1096810496	48	6953
2026-01-17 17:38:08.03	281.33	10.68	-39.0	-40.1	21.8	0.00e+00	0	29	0	1097859072	50	6520
2026-01-17 17:38:09.04	281.20	10.62	-39.1	-40.2	21.6	0.00e+00	0	29	0	1099956224	50	6593
2026-01-17 17:38:10.05	281.08	10.55	-39.2	-40.3	21.6	0.00e+00	0	29	0	1102053376	50	6683
2026-01-17 17:38:11.06	280.96	10.48	-39.2	-40.3	21.7	0.00e+00	0	29	0	1104150528	50	6654
2026-01-17 17:38:12.07	280.84	10.42	-39.1	-40.1	21.7	0.00e+00	38	29	0	1106247680	50	6536
2026-01-17 17:38:13.08	280.71	10.35	-39.1	-40.1	21.7	0.00e+00	0	29	0	1108344832	50	6534
2026-01-17 17:38:14.09	280.59	10.28	-38.7	-39.8	22.0	0.00e+00	66	29	0	1109393408	50	6273
2026-01-17 17:38:15.10	280.47	10.22	-38.7	-39.8	22.0	0.00e+00	0	29	0	1111490560	50	6274
2026-01-17 17:38:16.11	280.35	10.15	-38.4	-39.5	22.2	0.00e+00	5	29	0	1113587712	50	6039
2026-01-17 17:38:17.12	280.23	10.08	-38.6	-39.7	22.1	0.00e+00	33	29	0	1115684864	50	6179
2026-01-17 17:38:18.13	280.11	10.02	-38.5	-39.5	22.2	0.00e+00	0	29	0	1117782016	50	6072
2026-01-17 17:38:19.15	279.99	9.95	-38.7	-39.8	21.9	0.00e+00	9	29	0	1118830592	50	6288
2026-01-17 17:38:20.16	279.88	9.88	-38.8	-39.8	22.0	0.00e+00	33	29	0	1120927744	50	6316
2026-01-17 17:38:21.17	279.76	9.82	-38.8	-39.9	21.9	0.00e+00	83	29	0	1123024896	50	6327
2026-01-17 17:38:22.18	279.64	9.75	-38.9	-40.0	21.8	0.00e+00	0	29	0	1125122048	50	6443
2026-01-17 17:38:23.18	279.53	9.69	-39.0	-40.1	21.7	0.00e+00	92	29	0	1127219200	50	6497
2026-01-17 17:38:24.20	279.41	9.62	-38.9	-40.0	21.8	0.00e+00	0	29	0	1128267776	50	6398
2026-01-17 17:38:25.21	279.29	9.55	-39.2	-40.3	21.6	0.00e+00	0	29	0	1130364928	50	6670
2026-01-17 17:38:26.22	279.18	9.49	-39.1	-40.2	21.5	0.00e+00	0	29	0	1132462080	50	6603
2026-01-17 17:38:27.23	279.07	9.42	-39.5	-40.6	21.3	0.00e+00	0	29	0	1134559232	50	6892
2026-01-17 17:38:28.24	278.95	9.36	-39.4	-40.6	21.2	0.00e+00	66	29	0	1136656384	50	6857
2026-01-17 17:38:29.25	278.84	9.29	-39.5	-40.7	21.1	0.00e+00	0	29	0	1137704960	50	6948
2026-01-17 17:38:30.26	278.73	9.23	-39.4	-40.5	21.3	0.00e+00	34	29	0	1139802112	50	6808
2026-01-17 17:38:31.27	278.61	9.16	-39.5	-40.6	21.3	0.00e+00	0	29	0	1141899264	50	6883
2026-01-17 17:38:32.28	278.50	9.09	-39.6	-40.8	21.1	0.00e+00	0	29	0	1143996416	50	7030
2026-01-17 17:38:33.29	278.39	9.03	-39.6	-40.8	21.1	0.00e+00	0	29	0	1146093568	52	6287
2026-01-17 17:38:34.30	278.28	8.96	-39.8	-41.0	21.0	0.00e+00	0	29	0	1147142144	52	6391
2026-01-17 17:38:35.31	278.17	8.90	-39.8	-41.0	20.9	0.00e+00	64	29	0	1149239296	52	6398
2026-01-17 17:38:36.32	278.06	8.83	-39.9	-41.1	20.8	0.00e+00	0	29	0	1151336448	52	6491
2026-01-17 17:38:37.33	277.95	8.77	-39.3	-40.4	21.4	0.00e+00	92	29	0	1153433600	52	6024
2026-01-17 17:38:38.34	277.84	8.70	-39.5	-40.7	21.2	0.00e+00	0	29	0	1155530752	52	6179
2026-01-17 17:38:39.35	277.74	8.64	-39.5	-40.6	21.2	0.00e+00	0	29	0	1157627904	52	6171
2026-01-17 17:38:40.36	277.63	8.57	-39.4	-40.5	21.3	0.00e+00	0	29	0	1158676480	52	6060
2026-01-17 17:38:41.37	277.52	8.51	-39.5	-40.7	21.2	0.00e+00	0	29	0	1160773632	52	6204
2026-01-17 17:38:42.38	277.42	8.44	-39.6	-40.8	21.1	0.00e+00	65	29	0	1162870784	52	6265
2026-01-17 17:38:43.39	277.31	8.38	-39.7	-40.9	20.9	0.00e+00	0	29	0	1164967936	52	6337
2026-01-17 17:38:44.40	277.20	8.31	-40.0	-41.3	20.5	0.00e+00	92	29	0	1167065088	52	6655
2026-01-17 17:38:45.41	277.10	8.25	-40.1	-41.4	20.4	0.00e+00	0	29	0	1168113664	52	6698
2026-01-17 17:38:46.41	276.99	8.18	-40.5	-41.9	20.1	0.00e+00	0	29	0	1170210816	52	7100
2026-01-17 17:38:47.43	276.89	8.12	-40.6	-42.0	20.0	0.00e+00	0	29	0	1172307968	52	7190
2026-01-17 17:38:48.44	276.79	8.05	-40.8	-42.2	19.8	0.00e+00	0	29	0	1174405120	54	6610
2026-01-17 17:38:49.44	276.68	7.99	-40.9	-42.3	19.6	0.00e+00	14	29	0	1176502272	54	6671
2026-01-17 17:38:50.45	276.58	7.93	-41.0	-42.5	19.5	0.00e+00	0	29	0	1177550848	54	6808
2026-01-17 17:38:51.47	276.48	7.86	-40.7	-42.1	19.8	0.00e+00	71	29	0	1179648000	54	6506
2026-01-17 17:38:52.48	276.38	7.80	-40.5	-41.8	20.1	0.00e+00	0	29	0	1181745152	54	6271
2026-01-17 17:38:53.49	276.27	7.73	-40.3	-41.6	20.2	0.00e+00	0	29	0	1183842304	54	6132
2026-01-17 17:38:54.50	276.17	7.67	-40.1	-41.4	20.4	0.00e+00	0	29	0	1185939456	54	6012
2026-01-17 17:38:55.51	276.07	7.61	-39.8	-41.1	20.8	0.00e+00	0	29	0	1186988032	52	6474
2026-01-17 17:38:56.52	275.97	7.54	-39.9	-41.1	20.7	0.00e+00	0	29	0	1189085184	52	6487
2026-01-17 17:38:57.53	275.87	7.48	-39.7	-40.9	20.9	0.00e+00	0	29	0	1191182336	52	6383
2026-01-17 17:38:58.53	275.78	7.42	-39.6	-40.8	20.9	0.00e+00	92	29	0	1193279488	52	6289
2026-01-17 17:38:59.55	275.68	7.35	-39.5	-40.7	21.0	0.00e+00	0	29	0	1195376640	52	6214
2026-01-17 17:39:00.56	275.58	7.29	-39.7	-40.9	20.9	0.00e+00	9	29	0	1196425216	52	6351
2026-01-17 17:39:01.57	275.48	7.22	-39.6	-40.7	21.0	0.00e+00	0	29	0	1198522368	52	6233
2026-01-17 17:39:02.58	275.38	7.16	-40.0	-41.2	20.5	0.00e+00	0	29	0	1200619520	52	6573
