passes_logs/2026/01/17/R4.6S_Anadyr/R4.6S_Anadyr__20260117_182612_FENGYUN_3D_rec.log

#Pass ID: 20260117_182612_FENGYUN 3D
#Satellite: FENGYUN 3D
#Configuration: FENGYUN 3D
#almurnet v.1.7.20251203
#Start time: 2026-01-17 18:26:14

#Version: 2.2.20231116
#Station: R4.6S_Anadyr
#Location: 177.4865 lon 64.73178 lat
#TLE: 1 43010U 17072A   26016.62453405 -.00000112  00000+0 -31355-4 0  9995
#TLE: 2 43010  98.9932 348.4654 0002369 105.3910 254.7528 14.19694900423480

#Time	Az	El	Level	Level2	SNR	BER	BlckErr	Temp	State	Recorded	gain1	gain2
2026-01-17 18:26:14.73	26.23	0.15	-48.7	-63.6	3.5	1.51e+00	0	27	0	0	60	54833
2026-01-17 18:26:15.73	26.19	0.20	-48.7	-60.8	3.6	8.44e-01	0	28	104	0	60	39857
2026-01-17 18:26:16.74	26.15	0.26	-48.8	-60.9	3.6	8.46e-01	0	28	104	0	60	40063
2026-01-17 18:26:17.75	26.11	0.32	-48.8	-60.9	3.6	8.46e-01	0	28	104	0	60	39986
2026-01-17 18:26:18.76	26.08	0.38	-48.8	-60.9	3.6	8.46e-01	0	28	104	0	60	40004
2026-01-17 18:26:19.77	26.04	0.44	-48.7	-60.9	3.6	8.45e-01	0	28	104	0	60	40226
2026-01-17 18:26:20.78	26.00	0.50	-48.8	-60.9	3.6	8.46e-01	0	28	104	0	60	40051
2026-01-17 18:26:21.79	25.96	0.55	-48.7	-60.9	3.6	8.46e-01	0	28	104	0	60	39900
2026-01-17 18:26:22.80	25.92	0.61	-48.7	-60.8	3.6	8.45e-01	0	28	104	0	60	39660
2026-01-17 18:26:23.81	25.88	0.67	-48.6	-60.8	3.6	8.45e-01	0	28	104	0	60	39517
2026-01-17 18:26:24.82	25.84	0.73	-48.5	-60.7	3.6	8.45e-01	0	28	104	0	60	39135
2026-01-17 18:26:25.83	25.80	0.79	-48.4	-60.6	3.5	8.45e-01	0	28	104	0	60	38581
2026-01-17 18:26:26.84	25.76	0.85	-48.3	-60.4	3.6	8.46e-01	0	28	104	0	60	37932
2026-01-17 18:26:27.85	25.72	0.91	-48.2	-60.2	3.6	8.45e-01	0	28	104	0	60	37062
2026-01-17 18:26:28.86	25.68	0.97	-48.0	-60.0	3.6	8.46e-01	0	28	104	0	60	36090
2026-01-17 18:26:29.87	25.64	1.03	-47.7	-59.7	3.6	8.45e-01	0	28	104	0	60	34737
2026-01-17 18:26:30.88	25.60	1.09	-47.2	-59.1	3.6	8.45e-01	0	28	104	0	60	32576
2026-01-17 18:26:31.89	25.56	1.15	-47.2	-59.3	3.6	8.46e-01	0	28	104	0	60	33182
2026-01-17 18:26:32.90	25.52	1.21	-47.2	-59.2	3.6	8.45e-01	0	28	104	0	60	33140
2026-01-17 18:26:33.91	25.48	1.27	-47.2	-59.3	3.6	8.46e-01	0	28	104	0	60	33379
2026-01-17 18:26:34.92	25.44	1.33	-47.2	-59.3	3.6	8.46e-01	0	28	104	0	60	33409
2026-01-17 18:26:35.93	25.40	1.39	-47.2	-59.3	3.6	8.45e-01	0	28	104	0	60	33211
2026-01-17 18:26:36.94	25.36	1.45	-47.2	-59.2	3.6	8.46e-01	0	28	104	0	60	33146
2026-01-17 18:26:37.95	25.32	1.51	-47.2	-59.1	3.6	8.45e-01	0	28	104	0	60	32512
2026-01-17 18:26:38.96	25.27	1.57	-47.2	-59.1	3.6	8.45e-01	0	28	104	0	60	32448
2026-01-17 18:26:39.98	25.23	1.63	-47.2	-59.2	3.6	8.46e-01	0	28	104	0	60	32828
2026-01-17 18:26:40.99	25.19	1.69	-47.2	-59.2	3.6	8.45e-01	0	28	104	0	60	33001
2026-01-17 18:26:42.00	25.15	1.75	-47.2	-59.3	3.6	8.45e-01	0	28	104	0	60	33295
2026-01-17 18:26:43.01	25.11	1.81	-47.2	-59.3	3.6	8.46e-01	0	28	104	0	60	33473
2026-01-17 18:26:44.02	25.06	1.87	-47.2	-59.3	3.6	8.45e-01	0	29	104	0	60	33259
2026-01-17 18:26:45.03	25.02	1.93	-47.2	-59.1	3.6	8.45e-01	0	28	104	0	60	32657
2026-01-17 18:26:46.04	24.98	1.99	-47.2	-58.9	3.6	8.45e-01	0	29	104	0	60	31959
2026-01-17 18:26:47.05	24.93	2.05	-47.2	-58.8	3.6	8.45e-01	0	29	104	0	60	31606
2026-01-17 18:26:48.06	24.89	2.11	-47.2	-58.9	3.6	8.45e-01	0	28	104	0	60	31807
2026-01-17 18:26:49.07	24.85	2.18	-47.2	-58.9	3.6	8.45e-01	0	29	104	0	60	32000
2026-01-17 18:26:50.08	24.80	2.24	-47.2	-59.1	3.6	8.46e-01	0	29	104	0	60	32727
2026-01-17 18:26:51.09	24.76	2.30	-47.2	-59.3	3.6	8.46e-01	0	29	104	0	60	33502
2026-01-17 18:26:52.10	24.71	2.36	-47.2	-59.3	3.6	8.45e-01	0	29	104	0	60	33318
2026-01-17 18:26:53.11	24.67	2.42	-47.2	-59.2	3.6	8.45e-01	0	29	104	0	60	33006
2026-01-17 18:26:54.12	24.63	2.49	-47.2	-59.2	3.6	8.45e-01	0	29	104	0	60	32972
2026-01-17 18:26:55.13	24.58	2.55	-47.2	-59.1	3.6	8.44e-01	0	29	104	0	60	32424
2026-01-17 18:26:56.14	24.54	2.61	-47.2	-59.0	3.6	8.45e-01	0	29	104	0	60	32152
2026-01-17 18:26:57.15	24.49	2.67	-47.2	-58.7	3.6	8.45e-01	0	29	104	0	60	31248
2026-01-17 18:26:58.16	24.44	2.74	-47.1	-58.4	3.6	8.44e-01	0	29	104	0	60	30222
2026-01-17 18:26:59.17	24.40	2.80	-47.1	-58.0	3.6	8.45e-01	0	29	104	0	60	28761
2026-01-17 18:27:00.18	24.35	2.86	-47.1	-58.1	3.6	8.44e-01	0	29	104	0	60	29120
2026-01-17 18:27:01.19	24.31	2.92	-47.1	-58.4	3.6	8.45e-01	0	29	104	0	60	30152
2026-01-17 18:27:02.20	24.26	2.99	-47.2	-59.1	3.6	8.45e-01	0	29	104	0	60	32776
2026-01-17 18:27:03.21	24.21	3.05	-47.2	-59.0	3.6	8.46e-01	0	29	104	0	60	32164
2026-01-17 18:27:04.22	24.17	3.11	-46.9	-56.7	3.7	8.44e-01	0	29	104	0	60	24686
2026-01-17 18:27:05.23	24.12	3.18	-46.3	-52.8	5.6	7.41e-01	0	29	0	0	60	15803
2026-01-17 18:27:06.24	24.07	3.24	-45.2	-48.9	8.7	9.30e-02	0	29	0	5242880	60	10109
2026-01-17 18:27:07.25	24.03	3.30	-44.1	-46.9	11.0	4.58e-03	0	29	0	10485760	60	8027
2026-01-17 18:27:08.26	23.98	3.37	-42.8	-44.9	13.4	2.15e-04	0	29	0	16777216	60	6375
2026-01-17 18:27:09.27	23.93	3.43	-42.1	-43.9	14.3	3.40e-06	0	29	0	22020096	58	6384
2026-01-17 18:27:10.28	23.88	3.50	-41.4	-43.1	15.2	0.00e+00	0	29	0	28311552	56	6482
2026-01-17 18:27:11.29	23.83	3.56	-41.4	-43.0	15.3	0.00e+00	0	29	0	33554432	56	6434
2026-01-17 18:27:12.30	23.79	3.62	-41.5	-43.2	15.3	0.00e+00	0	29	0	39845888	56	6576
2026-01-17 18:27:13.31	23.74	3.69	-45.2	-49.0	8.6	2.90e-02	0	29	0	45088768	60	10159
2026-01-17 18:27:14.32	23.69	3.75	-43.1	-45.2	14.1	9.63e-02	0	29	0	50331648	60	6561
2026-01-17 18:27:15.33	23.64	3.82	-45.0	-48.1	11.3	6.50e-01	0	29	0	54525952	60	9231
2026-01-17 18:27:16.34	23.59	3.88	-36.8	-37.8	18.8	0.00e+00	0	29	0	60817408	46	6259
2026-01-17 18:27:17.35	23.54	3.95	-47.2	-59.0	3.6	8.44e-01	0	29	104	61865984	60	32133
2026-01-17 18:27:18.36	23.49	4.01	-36.6	-37.5	19.3	0.00e+00	0	29	104	61865984	46	6044
2026-01-17 18:27:19.37	23.44	4.08	-36.3	-37.2	21.3	0.00e+00	0	29	0	66060288	46	5864
2026-01-17 18:27:20.38	23.39	4.14	-36.0	-36.9	21.4	0.00e+00	0	29	0	71303168	46	5659
2026-01-17 18:27:21.39	23.34	4.21	-36.2	-37.1	21.4	0.00e+00	0	29	0	77594624	46	5768
2026-01-17 18:27:22.40	23.29	4.27	-36.0	-36.9	21.6	0.00e+00	0	29	0	82837504	46	5637
2026-01-17 18:27:23.41	23.24	4.34	-35.9	-36.7	21.6	0.00e+00	0	29	0	88080384	46	5565
2026-01-17 18:27:24.41	23.18	4.41	-35.8	-36.7	21.7	0.00e+00	0	29	0	94371840	46	5522
2026-01-17 18:27:25.43	23.13	4.47	-36.3	-37.1	21.2	0.00e+00	0	29	0	99614720	46	5815
2026-01-17 18:27:26.43	23.08	4.54	-36.0	-36.8	21.6	0.00e+00	0	29	0	104857600	46	5597
2026-01-17 18:27:27.44	23.03	4.60	-36.1	-36.9	21.5	0.00e+00	0	29	0	111149056	46	5692
2026-01-17 18:27:28.45	22.98	4.67	-36.1	-36.9	21.5	0.00e+00	0	29	0	116391936	46	5663
2026-01-17 18:27:29.46	22.92	4.74	-36.0	-36.8	21.6	0.00e+00	0	29	0	122683392	46	5616
2026-01-17 18:27:30.47	22.87	4.80	-36.0	-36.8	21.8	0.00e+00	0	29	0	127926272	46	5602
2026-01-17 18:27:31.48	22.82	4.87	-35.7	-36.6	21.9	0.00e+00	0	29	0	134217728	44	6104
2026-01-17 18:27:32.49	22.76	4.94	-36.0	-36.8	21.7	0.00e+00	0	29	0	139460608	44	6279
2026-01-17 18:27:33.50	22.71	5.01	-35.9	-36.8	21.6	0.00e+00	0	29	0	145752064	44	6260
2026-01-17 18:27:34.51	22.66	5.07	-36.2	-37.1	21.6	0.00e+00	0	29	0	150994944	44	6471
2026-01-17 18:27:35.52	22.60	5.14	-35.9	-36.7	21.8	0.00e+00	0	29	0	156237824	44	6224
2026-01-17 18:27:36.53	22.55	5.21	-35.8	-36.6	22.0	0.00e+00	0	29	0	162529280	44	6153
2026-01-17 18:27:37.54	22.49	5.28	-35.7	-36.5	22.1	0.00e+00	0	29	0	167772160	44	6066
2026-01-17 18:27:38.55	22.44	5.34	-35.7	-36.5	22.0	0.00e+00	0	29	0	174063616	44	6049
2026-01-17 18:27:39.56	22.38	5.41	-35.3	-36.1	22.4	0.00e+00	0	29	0	179306496	44	5816
2026-01-17 18:27:40.57	22.33	5.48	-35.4	-36.2	22.2	0.00e+00	0	29	0	184549376	44	5891
2026-01-17 18:27:41.58	22.27	5.55	-35.1	-35.9	22.6	0.00e+00	0	29	0	190840832	44	5662
2026-01-17 18:27:42.59	22.21	5.62	-35.2	-35.9	22.5	0.00e+00	0	29	0	196083712	44	5684
2026-01-17 18:27:43.60	22.16	5.69	-35.3	-36.1	22.5	0.00e+00	0	29	0	202375168	44	5765
2026-01-17 18:27:44.61	22.10	5.75	-35.3	-36.1	22.5	0.00e+00	0	29	0	207618048	44	5790
2026-01-17 18:27:45.62	22.04	5.82	-35.1	-35.9	22.7	0.00e+00	0	29	0	212860928	44	5661
2026-01-17 18:27:46.63	21.99	5.89	-35.1	-35.8	22.8	0.00e+00	0	29	0	219152384	44	5617
2026-01-17 18:27:47.64	21.93	5.96	-35.1	-35.9	22.8	0.00e+00	0	29	0	224395264	44	5660
2026-01-17 18:27:48.65	21.87	6.03	-34.9	-35.7	22.8	0.00e+00	0	29	0	230686720	44	5514
2026-01-17 18:27:49.66	21.81	6.10	-35.1	-35.9	22.8	0.00e+00	0	29	0	235929600	44	5645
2026-01-17 18:27:50.67	21.75	6.17	-35.0	-35.7	22.8	0.00e+00	0	29	0	242221056	44	5551
2026-01-17 18:27:51.68	21.69	6.24	-34.9	-35.6	22.9	0.00e+00	0	29	0	247463936	44	5482
2026-01-17 18:27:52.69	21.63	6.31	-35.0	-35.7	22.9	0.00e+00	0	29	0	252706816	44	5545
2026-01-17 18:27:53.70	21.58	6.38	-34.9	-35.7	22.9	0.00e+00	0	29	0	258998272	44	5531
2026-01-17 18:27:54.71	21.52	6.45	-34.9	-35.7	22.9	0.00e+00	0	29	0	264241152	44	5527
2026-01-17 18:27:55.72	21.46	6.52	-34.9	-35.6	23.0	0.00e+00	0	29	0	270532608	42	6157
2026-01-17 18:27:56.73	21.39	6.59	-34.7	-35.5	23.1	0.00e+00	0	29	0	275775488	42	6069
2026-01-17 18:27:57.74	21.33	6.66	-34.9	-35.7	23.0	0.00e+00	0	29	0	282066944	42	6209
2026-01-17 18:27:58.75	21.27	6.73	-34.9	-35.6	23.1	0.00e+00	0	29	0	287309824	42	6143
2026-01-17 18:27:59.76	21.21	6.81	-34.9	-35.6	23.1	0.00e+00	0	29	0	292552704	42	6145
2026-01-17 18:28:00.77	21.15	6.88	-34.9	-35.7	23.1	0.00e+00	0	29	0	298844160	42	6192
2026-01-17 18:28:01.78	21.09	6.95	-34.9	-35.6	23.1	0.00e+00	0	29	0	304087040	42	6153
2026-01-17 18:28:02.79	21.03	7.02	-34.9	-35.7	23.0	0.00e+00	0	29	0	310378496	42	6176
2026-01-17 18:28:03.80	20.96	7.09	-34.9	-35.7	23.0	0.00e+00	0	29	0	315621376	42	6192
2026-01-17 18:28:04.81	20.90	7.16	-34.9	-35.7	23.1	0.00e+00	0	29	0	320864256	42	6205
2026-01-17 18:28:05.82	20.84	7.24	-34.8	-35.6	23.1	0.00e+00	0	29	0	327155712	42	6141
2026-01-17 18:28:06.83	20.77	7.31	-34.8	-35.6	23.2	0.00e+00	0	29	0	332398592	42	6140
2026-01-17 18:28:07.84	20.71	7.38	-35.0	-35.8	23.1	0.00e+00	0	29	0	338690048	42	6266
2026-01-17 18:28:08.85	20.64	7.45	-34.9	-35.7	23.0	0.00e+00	0	29	0	343932928	42	6218
2026-01-17 18:28:09.86	20.58	7.53	-34.9	-35.6	23.0	0.00e+00	0	29	0	350224384	42	6155
2026-01-17 18:28:10.87	20.51	7.60	-35.1	-35.8	23.0	0.00e+00	0	29	0	355467264	42	6296
2026-01-17 18:28:11.88	20.45	7.67	-34.8	-35.6	23.1	0.00e+00	0	29	0	360710144	42	6159
2026-01-17 18:28:12.89	20.38	7.75	-34.8	-35.5	23.2	0.00e+00	0	29	0	367001600	42	6084
2026-01-17 18:28:13.91	20.32	7.82	-34.7	-35.5	23.2	0.00e+00	0	29	0	372244480	42	6069
2026-01-17 18:28:14.92	20.25	7.89	-34.8	-35.5	23.2	0.00e+00	0	29	0	378535936	42	6072
2026-01-17 18:28:15.93	20.18	7.97	-34.8	-35.6	23.3	0.00e+00	0	29	0	383778816	42	6112
2026-01-17 18:28:16.94	20.12	8.04	-34.9	-35.6	23.2	0.00e+00	0	29	0	389021696	42	6153
2026-01-17 18:28:17.95	20.05	8.12	-34.8	-35.5	23.3	0.00e+00	0	29	0	395313152	42	6089
2026-01-17 18:28:18.96	19.98	8.19	-34.8	-35.6	23.2	0.00e+00	0	29	0	400556032	42	6106
2026-01-17 18:28:19.97	19.91	8.27	-34.7	-35.4	23.3	0.00e+00	0	29	0	406847488	42	6011
2026-01-17 18:28:20.98	19.84	8.34	-34.7	-35.5	23.4	0.00e+00	0	29	0	412090368	42	6038
2026-01-17 18:28:21.99	19.78	8.42	-34.6	-35.4	23.4	0.00e+00	0	29	0	418381824	42	5969
2026-01-17 18:28:23.00	19.71	8.49	-34.6	-35.3	23.5	0.00e+00	0	29	0	423624704	42	5938
2026-01-17 18:28:24.01	19.64	8.57	-34.5	-35.3	23.6	0.00e+00	0	29	0	428867584	42	5905
2026-01-17 18:28:25.02	19.57	8.64	-34.4	-35.1	23.7	0.00e+00	0	29	0	435159040	42	5807
2026-01-17 18:28:26.04	19.49	8.72	-34.4	-35.1	23.7	0.00e+00	0	29	0	440401920	42	5828
2026-01-17 18:28:27.05	19.42	8.79	-34.4	-35.1	23.7	0.00e+00	0	29	0	446693376	42	5787
2026-01-17 18:28:28.06	19.35	8.87	-34.4	-35.1	23.7	0.00e+00	0	29	0	451936256	42	5804
2026-01-17 18:28:29.07	19.28	8.95	-34.3	-35.0	23.9	0.00e+00	0	29	0	458227712	42	5702
2026-01-17 18:28:30.08	19.21	9.02	-34.4	-35.1	23.7	0.00e+00	0	29	0	463470592	42	5807
2026-01-17 18:28:31.09	19.14	9.10	-34.1	-34.9	24.0	0.00e+00	0	29	0	469762048	42	5642
2026-01-17 18:28:32.10	19.06	9.18	-34.2	-34.9	24.0	0.00e+00	0	29	0	475004928	42	5677
2026-01-17 18:28:33.11	18.99	9.25	-34.0	-34.7	24.1	0.00e+00	0	29	0	480247808	42	5547
2026-01-17 18:28:34.12	18.92	9.33	-34.1	-34.8	24.0	0.00e+00	0	29	0	486539264	42	5616
2026-01-17 18:28:35.13	18.84	9.41	-34.1	-34.8	24.0	0.00e+00	0	29	0	491782144	42	5606
2026-01-17 18:28:36.14	18.77	9.49	-34.1	-34.8	24.1	0.00e+00	0	29	0	498073600	42	5568
2026-01-17 18:28:37.15	18.69	9.56	-34.0	-34.7	24.1	0.00e+00	0	29	0	503316480	42	5560
2026-01-17 18:28:38.16	18.62	9.64	-34.0	-34.7	24.1	0.00e+00	0	29	0	508559360	42	5545
2026-01-17 18:28:39.17	18.54	9.72	-34.0	-34.7	24.2	0.00e+00	0	29	0	514850816	42	5536
2026-01-17 18:28:40.18	18.46	9.80	-34.0	-34.7	24.1	0.00e+00	0	29	0	520093696	42	5534
2026-01-17 18:28:41.19	18.39	9.88	-33.9	-34.6	24.2	0.00e+00	0	29	0	526385152	42	5482
2026-01-17 18:28:42.20	18.31	9.96	-34.1	-34.8	24.0	0.00e+00	0	29	0	531628032	42	5585
2026-01-17 18:28:43.21	18.23	10.03	-34.0	-34.6	24.1	0.00e+00	0	29	0	536870912	42	5493
2026-01-17 18:28:44.22	18.16	10.11	-34.1	-34.8	24.1	0.00e+00	0	29	0	543162368	42	5598
2026-01-17 18:28:45.23	18.08	10.19	-34.1	-34.8	24.1	0.00e+00	0	29	0	548405248	42	5597
2026-01-17 18:28:46.24	18.00	10.27	-34.0	-34.7	24.2	0.00e+00	0	29	0	554696704	42	5533
2026-01-17 18:28:47.25	17.92	10.35	-34.0	-34.7	24.1	0.00e+00	0	29	0	559939584	42	5557
2026-01-17 18:28:48.26	17.84	10.43	-34.0	-34.7	24.2	0.00e+00	0	29	0	566231040	42	5530
2026-01-17 18:28:49.27	17.76	10.51	-34.0	-34.7	24.3	0.00e+00	0	29	0	571473920	42	5548
2026-01-17 18:28:50.28	17.68	10.59	-33.9	-34.7	24.3	0.00e+00	0	29	0	576716800	42	5506
2026-01-17 18:28:51.29	17.60	10.67	-34.0	-34.7	24.3	0.00e+00	0	29	0	583008256	42	5519
2026-01-17 18:28:52.30	17.52	10.76	-33.8	-34.5	24.3	0.00e+00	0	29	0	588251136	40	6079
2026-01-17 18:28:53.31	17.43	10.84	-33.7	-34.4	24.4	0.00e+00	0	29	0	594542592	40	6019
2026-01-17 18:28:54.32	17.35	10.92	-33.8	-34.5	24.4	0.00e+00	0	29	0	599785472	40	6047
2026-01-17 18:28:55.34	17.27	11.00	-33.9	-34.6	24.2	0.00e+00	0	29	0	605028352	40	6136
2026-01-17 18:28:56.35	17.18	11.08	-33.7	-34.4	24.4	0.00e+00	0	29	0	611319808	40	6000
2026-01-17 18:28:57.36	17.10	11.16	-33.7	-34.4	24.4	0.00e+00	0	29	0	616562688	40	6025
2026-01-17 18:28:58.37	17.01	11.25	-33.8	-34.5	24.4	0.00e+00	0	29	0	622854144	40	6071
2026-01-17 18:28:59.38	16.93	11.33	-33.8	-34.5	24.3	0.00e+00	0	29	0	628097024	40	6094
2026-01-17 18:29:00.38	16.84	11.41	-33.9	-34.6	24.3	0.00e+00	0	29	0	633339904	40	6122
2026-01-17 18:29:01.39	16.76	11.49	-34.0	-34.7	24.2	0.00e+00	0	29	0	639631360	40	6200
2026-01-17 18:29:02.40	16.67	11.57	-33.8	-34.5	24.4	0.00e+00	0	29	0	644874240	40	6098
2026-01-17 18:29:03.41	16.58	11.66	-33.9	-34.5	24.3	0.00e+00	0	29	0	651165696	40	6102
2026-01-17 18:29:04.42	16.50	11.74	-33.8	-34.4	24.4	0.00e+00	0	29	0	656408576	40	6033
2026-01-17 18:29:05.44	16.41	11.83	-33.9	-34.6	24.4	0.00e+00	0	29	0	662700032	40	6119
2026-01-17 18:29:06.45	16.32	11.91	-33.7	-34.5	24.4	0.00e+00	0	29	0	667942912	40	6036
2026-01-17 18:29:07.46	16.23	11.99	-33.6	-34.3	24.5	0.00e+00	0	29	0	674234368	40	5922
2026-01-17 18:29:08.47	16.14	12.08	-33.7	-34.3	24.6	0.00e+00	0	29	0	679477248	40	5964
2026-01-17 18:29:09.48	16.05	12.16	-33.7	-34.4	24.6	0.00e+00	0	29	0	684720128	40	6001
2026-01-17 18:29:10.49	15.96	12.25	-33.7	-34.4	24.6	0.00e+00	0	29	0	691011584	40	6002
2026-01-17 18:29:11.50	15.87	12.33	-33.4	-34.1	24.7	0.00e+00	0	29	0	696254464	40	5808
2026-01-17 18:29:12.51	15.78	12.42	-33.4	-34.1	24.8	0.00e+00	0	29	0	702545920	40	5784
2026-01-17 18:29:13.52	15.68	12.50	-33.2	-33.9	24.9	0.00e+00	0	29	0	707788800	40	5670
2026-01-17 18:29:14.53	15.59	12.59	-33.2	-33.9	25.0	0.00e+00	0	29	0	713031680	40	5637
2026-01-17 18:29:15.54	15.50	12.67	-33.4	-34.1	24.9	0.00e+00	0	29	0	719323136	40	5813
2026-01-17 18:29:16.55	15.40	12.76	-33.3	-34.0	24.9	0.00e+00	0	29	0	724566016	40	5743
2026-01-17 18:29:17.56	15.31	12.85	-33.3	-34.0	24.9	0.00e+00	0	29	0	730857472	40	5718
2026-01-17 18:29:18.57	15.21	12.93	-33.4	-34.1	24.9	0.00e+00	0	29	0	736100352	40	5811
2026-01-17 18:29:19.58	15.12	13.02	-33.3	-34.0	24.8	0.00e+00	0	29	0	741343232	40	5710
2026-01-17 18:29:20.59	15.02	13.11	-33.5	-34.2	24.8	0.00e+00	0	29	0	747634688	40	5847
2026-01-17 18:29:21.60	14.92	13.19	-33.4	-34.0	25.0	0.00e+00	0	29	0	752877568	40	5761
2026-01-17 18:29:22.61	14.83	13.28	-33.2	-33.9	25.0	0.00e+00	0	29	0	759169024	40	5632
2026-01-17 18:29:23.62	14.73	13.37	-33.3	-34.0	25.1	0.00e+00	0	29	0	764411904	40	5701
2026-01-17 18:29:24.63	14.63	13.46	-32.9	-33.6	25.3	0.00e+00	0	29	0	770703360	40	5441
2026-01-17 18:29:25.64	14.53	13.54	-33.0	-33.7	25.2	0.00e+00	0	29	0	775946240	40	5537
2026-01-17 18:29:26.65	14.43	13.63	-33.0	-33.6	25.2	0.00e+00	0	29	0	782237696	40	5500
2026-01-17 18:29:27.66	14.33	13.72	-33.0	-33.7	25.3	0.00e+00	0	29	0	787480576	40	5539
2026-01-17 18:29:28.67	14.23	13.81	-33.1	-33.8	25.0	0.00e+00	0	29	0	792723456	40	5594
2026-01-17 18:29:29.68	14.13	13.90	-33.1	-33.7	25.0	0.00e+00	0	29	0	799014912	40	5540
2026-01-17 18:29:30.69	14.02	13.99	-33.1	-33.8	25.0	0.00e+00	0	29	0	804257792	40	5599
2026-01-17 18:29:31.70	13.92	14.08	-32.8	-33.5	25.3	0.00e+00	0	29	0	810549248	40	5427
2026-01-17 18:29:32.71	13.82	14.17	-33.0	-33.7	25.2	0.00e+00	0	29	0	815792128	40	5560
2026-01-17 18:29:33.72	13.71	14.26	-33.2	-33.9	25.2	0.00e+00	0	29	0	821035008	40	5642
2026-01-17 18:29:34.73	13.61	14.35	-33.2	-33.8	25.1	0.00e+00	0	29	0	827326464	40	5616
2026-01-17 18:29:35.74	13.50	14.44	-33.2	-33.8	25.2	0.00e+00	0	29	0	832569344	40	5600
2026-01-17 18:29:36.75	13.39	14.53	-33.0	-33.6	25.2	0.00e+00	0	29	0	838860800	40	5499
2026-01-17 18:29:37.76	13.29	14.62	-33.0	-33.6	25.3	0.00e+00	0	29	0	844103680	40	5492
2026-01-17 18:29:38.77	13.18	14.71	-33.0	-33.7	25.3	0.00e+00	0	29	0	849346560	40	5539
2026-01-17 18:29:39.78	13.07	14.80	-32.9	-33.6	25.2	0.00e+00	0	29	0	855638016	40	5474
2026-01-17 18:29:40.79	12.96	14.89	-32.9	-33.6	25.3	0.00e+00	0	29	0	860880896	40	5440
2026-01-17 18:29:41.80	12.85	14.98	-32.8	-33.5	25.5	0.00e+00	0	29	0	867172352	40	5395
2026-01-17 18:29:42.81	12.74	15.08	-32.9	-33.6	25.3	0.00e+00	0	29	0	872415232	40	5450
2026-01-17 18:29:43.83	12.63	15.17	-32.8	-33.4	25.3	0.00e+00	0	29	0	878706688	38	6003
2026-01-17 18:29:44.84	12.52	15.26	-32.8	-33.4	25.4	0.00e+00	0	29	0	883949568	38	6030
2026-01-17 18:29:45.85	12.40	15.36	-32.7	-33.4	25.5	0.00e+00	0	29	0	890241024	38	6006
2026-01-17 18:29:46.86	12.29	15.45	-32.7	-33.4	25.6	0.00e+00	0	29	0	895483904	38	5974
2026-01-17 18:29:47.87	12.17	15.54	-32.7	-33.4	25.6	0.00e+00	0	29	0	900726784	38	5965
2026-01-17 18:29:48.88	12.06	15.64	-32.6	-33.3	25.6	0.00e+00	0	29	0	907018240	38	5901
2026-01-17 18:29:49.89	11.94	15.73	-32.5	-33.2	25.7	0.00e+00	0	29	0	912261120	38	5850
2026-01-17 18:29:50.90	11.83	15.82	-32.4	-33.1	25.8	0.00e+00	0	29	0	918552576	38	5779
2026-01-17 18:29:51.91	11.71	15.92	-32.4	-33.0	25.8	0.00e+00	0	29	0	923795456	38	5759
2026-01-17 18:29:52.92	11.59	16.01	-32.3	-33.0	25.8	0.00e+00	0	29	0	929038336	38	5745
2026-01-17 18:29:53.93	11.47	16.11	-32.5	-33.2	25.8	0.00e+00	0	29	0	935329792	38	5836
2026-01-17 18:29:54.94	11.35	16.20	-32.6	-33.2	25.9	0.00e+00	0	29	0	940572672	38	5896
2026-01-17 18:29:55.95	11.23	16.30	-32.5	-33.1	25.7	0.00e+00	0	29	0	946864128	38	5815
2026-01-17 18:29:56.96	11.11	16.39	-32.5	-33.2	25.6	0.00e+00	0	29	0	952107008	38	5860
2026-01-17 18:29:57.97	10.99	16.49	-32.9	-33.5	25.8	0.00e+00	0	29	0	957349888	38	6093
2026-01-17 18:29:58.98	10.87	16.58	-32.4	-33.1	25.8	0.00e+00	0	29	0	963641344	38	5768
2026-01-17 18:29:59.99	10.74	16.68	-32.5	-33.2	25.9	0.00e+00	0	29	0	968884224	38	5833
2026-01-17 18:30:01.00	10.62	16.78	-32.3	-32.9	26.0	0.00e+00	0	29	0	975175680	38	5682
2026-01-17 18:30:02.01	10.49	16.87	-32.1	-32.8	26.1	0.00e+00	0	29	0	980418560	38	5575
2026-01-17 18:30:03.02	10.37	16.97	-32.1	-32.8	26.2	0.00e+00	0	29	0	986710016	38	5576
2026-01-17 18:30:04.03	10.24	17.07	-32.1	-32.8	26.2	0.00e+00	0	29	0	991952896	38	5586
2026-01-17 18:30:05.04	10.11	17.16	-32.0	-32.7	26.2	0.00e+00	0	29	0	998244352	38	5516
2026-01-17 18:30:06.05	9.99	17.26	-32.1	-32.7	26.2	0.00e+00	0	29	0	1003487232	38	5551
2026-01-17 18:30:07.06	9.86	17.36	-32.1	-32.7	26.2	0.00e+00	0	29	0	1008730112	38	5556
2026-01-17 18:30:08.07	9.73	17.46	-32.3	-32.9	26.1	0.00e+00	0	29	0	1015021568	38	5692
2026-01-17 18:30:09.08	9.59	17.56	-32.3	-33.0	26.0	0.00e+00	0	29	0	1020264448	38	5756
2026-01-17 18:30:10.09	9.46	17.65	-32.2	-32.9	26.0	0.00e+00	0	29	0	1026555904	38	5678
2026-01-17 18:30:11.10	9.33	17.75	-32.3	-33.0	26.0	0.00e+00	0	29	0	1031798784	38	5698
2026-01-17 18:30:12.11	9.20	17.85	-32.3	-32.9	26.0	0.00e+00	0	29	0	1037041664	38	5684
2026-01-17 18:30:13.12	9.06	17.95	-32.2	-32.9	26.1	0.00e+00	0	29	0	1043333120	38	5637
2026-01-17 18:30:14.13	8.93	18.05	-32.1	-32.8	26.1	0.00e+00	0	29	0	1048576000	38	5600
2026-01-17 18:30:15.14	8.79	18.15	-32.1	-32.7	26.2	0.00e+00	0	29	0	1054867456	38	5538
2026-01-17 18:30:16.16	8.65	18.25	-31.9	-32.6	26.3	0.00e+00	0	29	0	1060110336	38	5472
2026-01-17 18:30:17.16	8.51	18.35	-31.9	-32.5	26.4	0.00e+00	0	29	0	1065353216	38	5418
2026-01-17 18:30:18.17	8.37	18.45	-31.8	-32.4	26.4	0.00e+00	0	29	0	1071644672	38	5366
2026-01-17 18:30:19.18	8.23	18.55	-32.0	-32.6	26.3	0.00e+00	0	29	0	1076887552	38	5496
2026-01-17 18:30:20.19	8.09	18.65	-32.0	-32.6	26.4	0.00e+00	0	29	0	1083179008	38	5500
2026-01-17 18:30:21.20	7.95	18.75	-31.8	-32.4	26.5	0.00e+00	0	29	0	1088421888	36	5986
2026-01-17 18:30:22.21	7.81	18.85	-32.0	-32.6	26.4	0.00e+00	0	29	0	1094713344	36	6160
2026-01-17 18:30:23.22	7.66	18.96	-31.9	-32.5	26.4	0.00e+00	0	29	0	1099956224	36	6089
2026-01-17 18:30:24.23	7.52	19.06	-31.9	-32.5	26.3	0.00e+00	0	29	0	1105199104	36	6079
2026-01-17 18:30:25.24	7.37	19.16	-31.8	-32.5	26.4	0.00e+00	0	29	0	1111490560	36	6051
2026-01-17 18:30:26.25	7.22	19.26	-31.8	-32.4	26.5	0.00e+00	0	29	0	1116733440	36	6033
2026-01-17 18:30:27.26	7.08	19.36	-31.7	-32.3	26.6	0.00e+00	0	29	0	1123024896	36	5951
2026-01-17 18:30:28.27	6.93	19.47	-31.6	-32.3	26.6	0.00e+00	0	29	0	1128267776	36	5940
2026-01-17 18:30:29.28	6.78	19.57	-31.5	-32.2	26.8	0.00e+00	0	29	0	1133510656	36	5839
2026-01-17 18:30:30.29	6.63	19.67	-31.5	-32.1	26.7	0.00e+00	0	29	0	1139802112	36	5828
2026-01-17 18:30:31.30	6.47	19.78	-31.5	-32.2	26.7	0.00e+00	0	29	0	1145044992	36	5833
2026-01-17 18:30:32.30	6.32	19.88	-31.5	-32.2	26.8	0.00e+00	0	29	0	1151336448	36	5831
2026-01-17 18:30:33.31	6.17	19.98	-31.6	-32.3	26.6	0.00e+00	0	29	0	1156579328	36	5920
2026-01-17 18:30:34.32	6.01	20.09	-31.6	-32.2	26.6	0.00e+00	0	29	0	1161822208	36	5873
2026-01-17 18:30:35.33	5.85	20.19	-31.5	-32.2	26.8	0.00e+00	0	29	0	1168113664	36	5843
2026-01-17 18:30:36.34	5.70	20.29	-31.5	-32.2	26.7	0.00e+00	0	29	0	1173356544	36	5868
2026-01-17 18:30:37.35	5.54	20.40	-31.6	-32.3	26.6	0.00e+00	0	29	0	1179648000	36	5933
2026-01-17 18:30:38.36	5.38	20.50	-31.4	-32.1	26.9	0.00e+00	0	29	0	1184890880	36	5764
2026-01-17 18:30:39.37	5.22	20.61	-31.6	-32.2	26.8	0.00e+00	0	29	0	1191182336	36	5878
2026-01-17 18:30:40.38	5.06	20.71	-31.4	-32.0	26.9	0.00e+00	0	29	0	1196425216	36	5717
2026-01-17 18:30:41.39	4.89	20.82	-31.4	-32.0	26.9	0.00e+00	0	29	0	1202716672	36	5759
2026-01-17 18:30:42.40	4.73	20.92	-31.3	-31.9	27.0	0.00e+00	0	29	0	1207959552	36	5669
2026-01-17 18:30:43.41	4.56	21.03	-31.2	-31.8	27.0	0.00e+00	0	29	0	1213202432	36	5620
2026-01-17 18:30:44.42	4.40	21.14	-31.2	-31.9	27.1	0.00e+00	0	29	0	1219493888	36	5650
2026-01-17 18:30:45.43	4.23	21.24	-31.0	-31.6	27.2	0.00e+00	0	29	0	1224736768	36	5476
2026-01-17 18:30:46.44	4.06	21.35	-30.9	-31.6	27.2	0.00e+00	0	29	0	1231028224	36	5447
2026-01-17 18:30:47.45	3.89	21.45	-30.9	-31.5	27.2	0.00e+00	0	29	0	1236271104	36	5401
2026-01-17 18:30:48.46	3.72	21.56	-30.9	-31.6	27.1	0.00e+00	0	29	0	1241513984	36	5455
2026-01-17 18:30:49.48	3.54	21.67	-30.9	-31.6	27.3	0.00e+00	0	29	0	1247805440	36	5449
2026-01-17 18:30:50.49	3.37	21.78	-30.9	-31.5	27.2	0.00e+00	0	29	0	1253048320	36	5430
2026-01-17 18:30:51.50	3.19	21.88	-31.0	-31.6	27.2	0.00e+00	0	29	0	1259339776	36	5489
2026-01-17 18:30:52.51	3.02	21.99	-30.9	-31.6	27.2	0.00e+00	0	29	0	1264582656	36	5460
2026-01-17 18:30:53.52	2.84	22.10	-31.0	-31.7	27.2	0.00e+00	0	29	0	1269825536	36	5508
2026-01-17 18:30:54.53	2.66	22.21	-31.0	-31.6	27.2	0.00e+00	0	29	0	1276116992	36	5478
2026-01-17 18:30:55.54	2.48	22.31	-31.0	-31.6	27.2	0.00e+00	0	29	0	1281359872	36	5482
2026-01-17 18:30:56.55	2.30	22.42	-30.9	-31.6	27.3	0.00e+00	0	29	0	1287651328	36	5471
2026-01-17 18:30:57.56	2.12	22.53	-30.9	-31.5	27.3	0.00e+00	0	29	0	1292894208	36	5409
2026-01-17 18:30:58.57	1.93	22.64	-30.9	-31.5	27.3	0.00e+00	0	29	0	1299185664	36	5417
2026-01-17 18:30:59.58	1.75	22.75	-31.0	-31.6	27.3	0.00e+00	0	29	0	1304428544	36	5447
2026-01-17 18:31:00.59	1.56	22.85	-30.7	-31.3	27.4	0.00e+00	0	29	0	1309671424	34	5961
2026-01-17 18:31:01.60	1.37	22.96	-30.8	-31.4	27.4	0.00e+00	0	29	0	1315962880	34	5984
2026-01-17 18:31:02.61	1.18	23.07	-30.7	-31.4	27.3	0.00e+00	0	29	0	1321205760	34	5967
2026-01-17 18:31:03.61	0.99	23.18	-30.8	-31.5	27.2	0.00e+00	0	29	0	1327497216	34	6043
2026-01-17 18:31:04.63	0.80	23.29	-30.9	-31.5	27.3	0.00e+00	0	29	0	1332740096	34	6060
2026-01-17 18:31:05.64	0.61	23.40	-30.8	-31.4	27.3	0.00e+00	0	29	0	1337982976	34	6025
2026-01-17 18:31:06.64	0.41	23.51	-30.9	-31.5	27.2	0.00e+00	0	29	0	1344274432	34	6084
2026-01-17 18:31:07.65	0.22	23.62	-30.9	-31.5	27.2	0.00e+00	0	29	0	1349517312	34	6088
2026-01-17 18:31:08.66	0.02	23.72	-30.9	-31.5	27.3	0.00e+00	0	29	0	1355808768	34	6072
2026-01-17 18:31:09.67	359.82	23.83	-30.7	-31.4	27.4	0.00e+00	0	29	0	1361051648	34	5981
2026-01-17 18:31:10.68	359.62	23.94	-30.7	-31.4	27.3	0.00e+00	0	29	0	1366294528	34	5995
2026-01-17 18:31:11.69	359.42	24.05	-30.6	-31.2	27.5	0.00e+00	0	29	0	1372585984	34	5886
2026-01-17 18:31:12.71	359.21	24.16	-30.6	-31.2	27.5	0.00e+00	0	29	0	1377828864	34	5886
2026-01-17 18:31:13.72	359.01	24.27	-30.7	-31.3	27.5	0.00e+00	0	29	0	1384120320	34	5906
2026-01-17 18:31:14.72	358.81	24.38	-30.8	-31.4	27.3	0.00e+00	0	29	0	1389363200	34	5983
2026-01-17 18:31:15.74	358.60	24.49	-30.6	-31.2	27.5	0.00e+00	0	29	0	1395654656	34	5875
2026-01-17 18:31:16.75	358.39	24.60	-30.6	-31.3	27.4	0.00e+00	0	29	0	1400897536	34	5932
2026-01-17 18:31:17.76	358.18	24.71	-30.6	-31.2	27.5	0.00e+00	0	29	0	1407188992	34	5863
2026-01-17 18:31:18.77	357.96	24.82	-30.5	-31.1	27.6	0.00e+00	0	29	0	1412431872	34	5828
2026-01-17 18:31:19.78	357.75	24.93	-30.5	-31.1	27.6	0.00e+00	0	29	0	1417674752	34	5804
2026-01-17 18:31:20.79	357.54	25.04	-30.5	-31.2	27.6	0.00e+00	0	29	0	1423966208	34	5852
2026-01-17 18:31:21.80	357.32	25.15	-30.6	-31.3	27.6	0.00e+00	0	29	0	1429209088	34	5902
2026-01-17 18:31:22.81	357.10	25.26	-30.6	-31.2	27.5	0.00e+00	0	29	0	1435500544	34	5872
2026-01-17 18:31:23.82	356.88	25.37	-30.7	-31.4	27.3	0.00e+00	0	29	0	1440743424	34	5977
2026-01-17 18:31:24.83	356.66	25.48	-30.7	-31.4	27.4	0.00e+00	0	29	0	1445986304	34	5972
2026-01-17 18:31:25.84	356.44	25.59	-30.7	-31.3	27.4	0.00e+00	0	29	0	1452277760	34	5939
2026-01-17 18:31:26.85	356.21	25.70	-30.5	-31.2	27.6	0.00e+00	0	29	0	1457520640	34	5832
2026-01-17 18:31:27.86	355.99	25.81	-30.4	-31.1	27.7	0.00e+00	0	29	0	1463812096	34	5780
2026-01-17 18:31:28.87	355.76	25.92	-30.2	-30.8	27.8	0.00e+00	0	29	0	1469054976	34	5627
2026-01-17 18:31:29.88	355.53	26.03	-30.2	-30.8	27.9	0.00e+00	0	29	0	1474297856	34	5616
2026-01-17 18:31:30.89	355.30	26.14	-30.1	-30.8	27.9	0.00e+00	0	29	0	1480589312	34	5575
2026-01-17 18:31:31.90	355.07	26.25	-30.2	-30.8	27.9	0.00e+00	0	29	0	1485832192	34	5619
2026-01-17 18:31:32.91	354.83	26.36	-30.3	-30.9	27.8	0.00e+00	0	29	0	1492123648	34	5644
2026-01-17 18:31:33.92	354.60	26.47	-30.2	-30.8	27.9	0.00e+00	0	29	0	1497366528	34	5596
2026-01-17 18:31:34.93	354.36	26.58	-30.1	-30.7	27.9	0.00e+00	0	29	0	1503657984	34	5544
2026-01-17 18:31:35.94	354.12	26.69	-30.1	-30.7	27.9	0.00e+00	0	29	0	1508900864	34	5559
2026-01-17 18:31:36.95	353.88	26.80	-30.1	-30.7	27.9	0.00e+00	0	29	0	1515192320	34	5542
2026-01-17 18:31:37.96	353.64	26.91	-30.1	-30.7	27.9	0.00e+00	0	29	0	1520435200	34	5517
2026-01-17 18:31:38.97	353.40	27.02	-30.1	-30.7	27.9	0.00e+00	0	29	0	1525678080	34	5509
2026-01-17 18:31:39.98	353.15	27.12	-30.1	-30.7	27.9	0.00e+00	0	29	0	1531969536	34	5527
2026-01-17 18:31:41.00	352.90	27.23	-30.1	-30.7	27.9	0.00e+00	0	29	0	1537212416	34	5551
2026-01-17 18:31:42.01	352.65	27.34	-30.0	-30.6	28.0	0.00e+00	0	29	0	1543503872	34	5479
2026-01-17 18:31:43.01	352.40	27.45	-30.1	-30.7	27.9	0.00e+00	0	29	0	1548746752	34	5543
2026-01-17 18:31:44.02	352.15	27.56	-30.1	-30.8	27.9	0.00e+00	0	29	0	1553989632	34	5568
2026-01-17 18:31:45.03	351.90	27.66	-29.9	-30.6	28.1	0.00e+00	0	29	0	1560281088	34	5446
2026-01-17 18:31:46.04	351.64	27.77	-29.9	-30.5	28.1	0.00e+00	0	29	0	1565523968	34	5432
2026-01-17 18:31:47.04	351.38	27.88	-29.9	-30.5	28.1	0.00e+00	0	29	0	1571815424	34	5430
2026-01-17 18:31:48.06	351.12	27.99	-29.9	-30.6	28.1	0.00e+00	0	29	0	1577058304	34	5458
2026-01-17 18:31:49.06	350.86	28.09	-29.9	-30.5	28.0	0.00e+00	0	29	0	1582301184	34	5424
2026-01-17 18:31:50.08	350.60	28.20	-30.0	-30.7	28.0	0.00e+00	0	29	0	1588592640	34	5527
2026-01-17 18:31:51.09	350.33	28.31	-30.1	-30.7	28.0	0.00e+00	0	29	0	1593835520	34	5558
2026-01-17 18:31:52.10	350.07	28.41	-30.0	-30.6	28.0	0.00e+00	0	29	0	1600126976	34	5489
2026-01-17 18:31:53.11	349.80	28.52	-30.1	-30.7	28.0	0.00e+00	0	29	0	1605369856	34	5529
2026-01-17 18:31:54.12	349.53	28.62	-30.1	-30.7	27.8	0.00e+00	0	29	0	1611661312	34	5537
2026-01-17 18:31:55.13	349.26	28.73	-30.1	-30.7	27.9	0.00e+00	0	29	0	1616904192	34	5531
2026-01-17 18:31:56.14	348.98	28.83	-30.1	-30.8	27.8	0.00e+00	0	29	0	1622147072	34	5588
2026-01-17 18:31:57.15	348.71	28.94	-30.1	-30.8	27.9	0.00e+00	0	29	0	1628438528	34	5579
2026-01-17 18:31:58.16	348.43	29.04	-30.2	-30.8	27.9	0.00e+00	0	29	0	1633681408	34	5594
2026-01-17 18:31:59.17	348.15	29.15	-30.1	-30.7	27.9	0.00e+00	0	29	0	1639972864	34	5539
2026-01-17 18:32:00.18	347.87	29.25	-30.0	-30.7	28.0	0.00e+00	0	29	0	1645215744	34	5505
2026-01-17 18:32:01.19	347.59	29.35	-30.1	-30.7	27.9	0.00e+00	0	29	0	1650458624	34	5524
2026-01-17 18:32:02.20	347.30	29.46	-30.1	-30.7	27.9	0.00e+00	0	29	0	1656750080	34	5549
2026-01-17 18:32:03.21	347.01	29.56	-30.0	-30.6	28.0	0.00e+00	0	29	0	1661992960	34	5492
2026-01-17 18:32:04.22	346.73	29.66	-29.9	-30.5	28.0	0.00e+00	0	29	0	1668284416	34	5412
2026-01-17 18:32:05.23	346.44	29.76	-29.9	-30.5	28.1	0.00e+00	0	29	0	1673527296	34	5399
2026-01-17 18:32:06.24	346.14	29.86	-29.8	-30.5	28.0	0.00e+00	0	29	0	1678770176	32	6056
2026-01-17 18:32:07.24	345.85	29.96	-29.8	-30.4	27.8	0.00e+00	0	29	0	1685061632	32	5996
2026-01-17 18:32:08.26	345.55	30.06	-29.8	-30.4	28.1	0.00e+00	0	29	0	1690304512	32	5984
2026-01-17 18:32:09.27	345.26	30.16	-29.6	-30.2	28.3	0.00e+00	0	29	0	1696595968	32	5877
2026-01-17 18:32:10.28	344.96	30.26	-29.7	-30.3	28.1	0.00e+00	0	29	0	1701838848	32	5922
2026-01-17 18:32:11.29	344.66	30.36	-29.7	-30.3	28.2	0.00e+00	0	29	0	1708130304	32	5928
2026-01-17 18:32:12.29	344.35	30.45	-29.6	-30.1	28.4	0.00e+00	0	29	0	1713373184	32	5823
2026-01-17 18:32:13.30	344.05	30.55	-29.5	-30.1	28.4	0.00e+00	0	29	0	1719664640	32	5818
2026-01-17 18:32:14.31	343.74	30.65	-29.5	-30.1	28.5	0.00e+00	0	29	0	1724907520	32	5799
2026-01-17 18:32:15.32	343.43	30.74	-29.3	-29.9	28.6	0.00e+00	0	29	0	1730150400	32	5676
2026-01-17 18:32:16.33	343.12	30.84	-29.3	-30.0	28.6	0.00e+00	0	29	0	1736441856	32	5699
2026-01-17 18:32:17.35	342.81	30.93	-29.4	-30.0	28.4	0.00e+00	0	29	0	1741684736	32	5724
2026-01-17 18:32:18.35	342.50	31.03	-29.6	-30.2	28.3	0.00e+00	0	29	0	1747976192	32	5862
2026-01-17 18:32:19.36	342.18	31.12	-29.7	-30.3	28.3	0.00e+00	0	29	0	1753219072	32	5921
2026-01-17 18:32:20.37	341.86	31.21	-29.7	-30.3	28.2	0.00e+00	0	29	0	1758461952	32	5964
2026-01-17 18:32:21.39	341.54	31.31	-29.6	-30.1	28.3	0.00e+00	0	29	0	1764753408	32	5824
2026-01-17 18:32:22.40	341.22	31.40	-29.5	-30.1	28.3	0.00e+00	0	29	0	1769996288	32	5805
2026-01-17 18:32:23.41	340.89	31.49	-29.5	-30.1	28.4	0.00e+00	0	29	0	1776287744	32	5777
2026-01-17 18:32:24.42	340.57	31.58	-29.4	-30.0	28.5	0.00e+00	0	29	0	1781530624	32	5735
2026-01-17 18:32:25.43	340.24	31.67	-29.5	-30.1	28.4	0.00e+00	0	29	0	1786773504	32	5795
2026-01-17 18:32:26.44	339.91	31.75	-29.4	-30.0	28.5	0.00e+00	0	29	0	1793064960	32	5737
2026-01-17 18:32:27.45	339.58	31.84	-29.4	-30.1	28.4	0.00e+00	0	29	0	1798307840	32	5769
2026-01-17 18:32:28.46	339.25	31.93	-29.6	-30.2	28.4	0.00e+00	0	29	0	1804599296	32	5847
2026-01-17 18:32:29.47	338.92	32.01	-29.6	-30.2	28.3	0.00e+00	0	29	0	1809842176	32	5881
2026-01-17 18:32:30.48	338.58	32.10	-29.7	-30.3	28.3	0.00e+00	0	29	0	1816133632	32	5934
2026-01-17 18:32:31.49	338.24	32.18	-29.4	-30.0	28.5	0.00e+00	0	29	0	1821376512	32	5743
2026-01-17 18:32:32.50	337.90	32.26	-29.3	-30.0	28.5	0.00e+00	0	29	0	1827667968	32	5698
2026-01-17 18:32:33.51	337.56	32.35	-29.3	-29.9	28.6	0.00e+00	0	29	0	1832910848	32	5633
2026-01-17 18:32:34.51	337.22	32.43	-29.2	-29.8	28.7	0.00e+00	0	29	0	1838153728	32	5583
2026-01-17 18:32:35.52	336.88	32.51	-29.2	-29.9	28.6	0.00e+00	0	29	0	1844445184	32	5658
2026-01-17 18:32:36.53	336.53	32.59	-29.3	-29.9	28.5	0.00e+00	0	29	0	1849688064	32	5652
2026-01-17 18:32:37.54	336.18	32.66	-29.3	-29.9	28.5	0.00e+00	0	29	0	1855979520	32	5654
2026-01-17 18:32:38.55	335.83	32.74	-29.2	-29.8	28.6	0.00e+00	0	29	0	1861222400	32	5607
2026-01-17 18:32:39.56	335.48	32.82	-29.3	-29.9	28.6	0.00e+00	0	29	0	1866465280	32	5672
2026-01-17 18:32:40.58	335.12	32.89	-29.3	-29.9	28.6	0.00e+00	0	29	0	1872756736	32	5691
2026-01-17 18:32:41.59	334.77	32.97	-29.3	-29.9	28.5	0.00e+00	0	29	0	1877999616	32	5648
2026-01-17 18:32:42.60	334.41	33.04	-29.4	-30.0	28.5	0.00e+00	0	29	0	1884291072	32	5703
2026-01-17 18:32:43.61	334.05	33.11	-29.4	-30.0	28.4	0.00e+00	0	29	0	1889533952	32	5731
2026-01-17 18:32:44.62	333.69	33.18	-29.5	-30.1	28.4	0.00e+00	0	29	0	1894776832	32	5813
2026-01-17 18:32:45.63	333.33	33.25	-29.5	-30.1	28.4	0.00e+00	0	29	0	1901068288	32	5816
2026-01-17 18:32:46.64	332.97	33.32	-29.5	-30.1	28.4	0.00e+00	0	29	0	1906311168	32	5816
2026-01-17 18:32:47.65	332.61	33.39	-29.5	-30.1	28.3	0.00e+00	0	29	0	1912602624	32	5809
2026-01-17 18:32:48.66	332.24	33.45	-29.6	-30.2	28.3	0.00e+00	0	29	0	1917845504	32	5845
2026-01-17 18:32:49.67	331.87	33.52	-29.6	-30.2	28.4	0.00e+00	0	29	0	1924136960	32	5890
2026-01-17 18:32:50.68	331.50	33.58	-29.7	-30.3	28.3	0.00e+00	0	29	0	1929379840	32	5910
2026-01-17 18:32:51.69	331.13	33.64	-29.6	-30.2	28.3	0.00e+00	0	29	0	1935671296	32	5864
2026-01-17 18:32:52.70	330.76	33.70	-29.5	-30.1	28.4	0.00e+00	0	29	0	1940914176	32	5813
2026-01-17 18:32:53.72	330.38	33.76	-29.5	-30.1	28.4	0.00e+00	0	29	0	1946157056	32	5794
2026-01-17 18:32:54.73	330.01	33.82	-29.5	-30.1	28.4	0.00e+00	0	29	0	1952448512	32	5799
2026-01-17 18:32:55.74	329.63	33.88	-29.5	-30.1	28.4	0.00e+00	0	29	0	1957691392	32	5772
2026-01-17 18:32:56.75	329.26	33.94	-29.5	-30.2	28.4	0.00e+00	0	29	0	1963982848	32	5829
2026-01-17 18:32:57.76	328.88	33.99	-29.5	-30.1	28.5	0.00e+00	0	29	0	1969225728	32	5776
2026-01-17 18:32:58.77	328.50	34.04	-29.3	-29.9	28.7	0.00e+00	0	29	0	1974468608	32	5680
2026-01-17 18:32:59.78	328.12	34.10	-29.4	-30.1	28.5	0.00e+00	0	29	0	1980760064	32	5768
2026-01-17 18:33:00.79	327.74	34.15	-29.4	-30.0	28.5	0.00e+00	0	29	0	1986002944	32	5756
2026-01-17 18:33:01.80	327.35	34.20	-29.6	-30.2	28.4	0.00e+00	0	29	0	1992294400	32	5880
2026-01-17 18:33:02.81	326.97	34.24	-29.5	-30.2	28.5	0.00e+00	0	29	0	1997537280	32	5847
2026-01-17 18:33:03.82	326.58	34.29	-29.5	-30.0	28.4	0.00e+00	0	29	0	2002780160	32	5760
2026-01-17 18:33:04.83	326.20	34.34	-29.3	-29.9	28.6	0.00e+00	0	29	0	2009071616	32	5634
2026-01-17 18:33:05.84	325.81	34.38	-29.2	-29.8	28.6	0.00e+00	0	29	0	2014314496	32	5612
2026-01-17 18:33:06.85	325.42	34.42	-29.3	-30.0	28.6	0.00e+00	0	29	0	2020605952	32	5701
2026-01-17 18:33:07.86	325.03	34.46	-29.6	-30.2	28.4	0.00e+00	0	29	0	2025848832	32	5839
2026-01-17 18:33:08.87	324.64	34.50	-29.7	-30.3	28.3	0.00e+00	0	29	0	2032140288	32	5949
2026-01-17 18:33:09.88	324.25	34.54	-29.7	-30.4	28.3	0.00e+00	0	29	0	2037383168	32	5970
2026-01-17 18:33:10.89	323.85	34.58	-29.7	-30.3	28.4	0.00e+00	0	29	0	2043674624	32	5916
2026-01-17 18:33:11.90	323.46	34.61	-29.4	-30.0	28.5	0.00e+00	0	29	0	2048917504	32	5732
2026-01-17 18:33:12.91	323.07	34.64	-29.5	-30.0	28.5	0.00e+00	0	29	0	2054160384	32	5751
2026-01-17 18:33:13.92	322.67	34.68	-29.2	-29.9	28.6	0.00e+00	0	29	0	2060451840	32	5634
2026-01-17 18:33:14.93	322.27	34.71	-29.3	-29.9	28.6	0.00e+00	0	29	0	2065694720	32	5664
2026-01-17 18:33:15.94	321.88	34.74	-29.2	-29.8	28.6	0.00e+00	0	29	0	2071986176	32	5604
2026-01-17 18:33:16.95	321.48	34.76	-29.3	-30.0	28.5	0.00e+00	0	29	0	2077229056	32	5714
2026-01-17 18:33:17.96	321.08	34.79	-29.5	-30.1	28.4	0.00e+00	0	29	0	2082471936	32	5814
2026-01-17 18:33:18.97	320.68	34.81	-29.5	-30.1	28.4	0.00e+00	0	29	0	2088763392	32	5818
2026-01-17 18:33:19.98	320.28	34.84	-29.3	-30.0	28.6	0.00e+00	0	29	0	2094006272	32	5742
2026-01-17 18:33:20.99	319.88	34.86	-29.3	-29.9	28.6	0.00e+00	0	29	0	2100297728	32	5644
2026-01-17 18:33:22.00	319.48	34.88	-29.3	-30.0	28.6	0.00e+00	0	29	0	2105540608	32	5708
2026-01-17 18:33:23.01	319.08	34.89	-29.4	-30.0	28.6	0.00e+00	0	29	0	2110783488	32	5736
2026-01-17 18:33:24.02	318.68	34.91	-29.2	-29.9	28.6	0.00e+00	0	29	0	2117074944	32	5650
2026-01-17 18:33:25.03	318.28	34.92	-29.2	-29.8	28.6	0.00e+00	0	29	0	2122317824	32	5619
2026-01-17 18:33:26.04	317.88	34.94	-29.1	-29.7	28.7	0.00e+00	0	29	0	2128609280	32	5525
2026-01-17 18:33:27.05	317.48	34.95	-29.0	-29.7	28.7	0.00e+00	0	29	0	2133852160	32	5509
2026-01-17 18:33:28.06	317.07	34.96	-29.2	-29.8	28.6	0.00e+00	0	29	0	2140143616	32	5601
2026-01-17 18:33:29.07	316.67	34.97	-29.4	-30.0	28.5	0.00e+00	0	29	0	2145386496	32	5740
2026-01-17 18:33:30.08	316.27	34.97	-29.4	-30.0	28.5	0.00e+00	0	29	0	2150629376	32	5728
2026-01-17 18:33:31.09	315.87	34.98	-29.4	-30.0	28.5	0.00e+00	0	29	0	2156920832	32	5729
2026-01-17 18:33:32.10	315.46	34.98	-29.2	-29.8	28.6	0.00e+00	0	30	0	2162163712	32	5612
2026-01-17 18:33:33.11	315.06	34.98	-29.1	-29.7	28.7	0.00e+00	0	29	0	2168455168	32	5530
2026-01-17 18:33:34.12	314.66	34.98	-29.2	-29.8	28.6	0.00e+00	0	29	0	2173698048	32	5627
2026-01-17 18:33:35.13	314.25	34.98	-29.3	-30.0	28.6	0.00e+00	0	29	0	2178940928	32	5699
2026-01-17 18:33:36.14	313.85	34.98	-29.4	-30.0	28.5	0.00e+00	0	29	0	2185232384	32	5730
2026-01-17 18:33:37.15	313.45	34.97	-29.5	-30.2	28.4	0.00e+00	0	29	0	2190475264	32	5831
2026-01-17 18:33:38.16	313.04	34.97	-29.6	-30.2	28.5	0.00e+00	0	29	0	2196766720	32	5857
2026-01-17 18:33:39.17	312.64	34.96	-29.3	-29.9	28.5	0.00e+00	0	29	0	2202009600	32	5691
2026-01-17 18:33:40.18	312.24	34.95	-29.4	-30.0	28.5	0.00e+00	0	29	0	2207252480	32	5696
2026-01-17 18:33:41.19	311.84	34.94	-29.4	-30.0	28.5	0.00e+00	0	29	0	2213543936	32	5734
2026-01-17 18:33:42.20	311.43	34.93	-29.4	-30.0	28.5	0.00e+00	0	29	0	2218786816	32	5726
2026-01-17 18:33:43.21	311.03	34.91	-29.4	-30.1	28.1	0.00e+00	0	29	0	2225078272	32	5768
2026-01-17 18:33:44.23	310.63	34.90	-29.5	-30.2	28.3	0.00e+00	0	30	0	2230321152	32	5831
2026-01-17 18:33:45.24	310.22	34.88	-29.4	-30.0	28.4	0.00e+00	0	29	0	2236612608	32	5699
2026-01-17 18:33:46.25	309.82	34.86	-29.4	-30.0	28.4	0.00e+00	0	29	0	2241855488	32	5742
2026-01-17 18:33:47.26	309.42	34.84	-29.4	-30.1	28.4	0.00e+00	0	29	0	2248146944	32	5776
2026-01-17 18:33:48.27	309.02	34.82	-29.2	-29.8	28.5	0.00e+00	0	29	0	2253389824	32	5628
2026-01-17 18:33:49.28	308.63	34.79	-29.2	-29.8	28.7	0.00e+00	0	29	0	2258632704	32	5599
2026-01-17 18:33:50.29	308.23	34.77	-29.3	-29.9	28.6	0.00e+00	0	29	0	2264924160	32	5639
2026-01-17 18:33:51.30	307.83	34.74	-29.4	-30.0	28.6	0.00e+00	0	29	0	2270167040	32	5712
2026-01-17 18:33:52.31	307.43	34.71	-29.5	-30.2	28.4	0.00e+00	0	29	0	2276458496	32	5857
2026-01-17 18:33:53.32	307.04	34.68	-29.5	-30.1	28.4	0.00e+00	0	29	0	2281701376	32	5774
2026-01-17 18:33:54.33	306.64	34.65	-29.4	-29.9	28.6	0.00e+00	0	29	0	2286944256	32	5695
2026-01-17 18:33:55.34	306.25	34.62	-29.3	-29.9	28.6	0.00e+00	0	29	0	2293235712	32	5680
2026-01-17 18:33:56.35	305.85	34.58	-29.3	-29.9	28.7	0.00e+00	0	29	0	2298478592	32	5673
2026-01-17 18:33:57.36	305.46	34.55	-29.2	-29.9	28.7	0.00e+00	0	29	0	2304770048	32	5654
2026-01-17 18:33:58.38	305.06	34.51	-29.3	-29.9	28.6	0.00e+00	0	29	0	2310012928	32	5653
2026-01-17 18:33:59.38	304.67	34.47	-29.3	-30.0	28.6	0.00e+00	0	29	0	2315255808	32	5746
2026-01-17 18:34:00.39	304.28	34.43	-29.2	-29.7	28.7	0.00e+00	0	29	0	2321547264	32	5544
2026-01-17 18:34:01.40	303.89	34.39	-29.0	-29.6	28.8	0.00e+00	0	29	0	2326790144	32	5463
2026-01-17 18:34:02.41	303.51	34.34	-29.1	-29.8	28.7	0.00e+00	0	29	0	2333081600	32	5599
2026-01-17 18:34:03.42	303.12	34.30	-29.3	-30.0	28.6	0.00e+00	0	29	0	2338324480	32	5704
2026-01-17 18:34:04.43	302.73	34.25	-29.2	-29.8	28.6	0.00e+00	0	29	0	2344615936	32	5626
2026-01-17 18:34:05.45	302.34	34.20	-29.3	-29.9	28.6	0.00e+00	0	29	0	2349858816	32	5648
2026-01-17 18:34:06.45	301.96	34.16	-29.4	-30.1	28.5	0.00e+00	0	29	0	2356150272	32	5768
2026-01-17 18:34:07.46	301.58	34.11	-29.3	-29.8	28.6	0.00e+00	0	29	0	2361393152	32	5622
2026-01-17 18:34:08.48	301.20	34.05	-29.3	-30.0	28.6	0.00e+00	0	29	0	2366636032	32	5699
2026-01-17 18:34:09.49	300.82	34.00	-29.4	-29.9	28.5	0.00e+00	0	29	0	2372927488	32	5671
2026-01-17 18:34:10.50	300.44	33.95	-29.5	-30.1	28.3	0.00e+00	0	29	0	2378170368	32	5800
2026-01-17 18:34:11.51	300.06	33.89	-29.5	-30.0	28.4	0.00e+00	0	29	0	2384461824	32	5757
2026-01-17 18:34:12.52	299.68	33.83	-29.5	-30.1	28.5	0.00e+00	0	30	0	2389704704	32	5792
2026-01-17 18:34:13.53	299.31	33.77	-29.5	-30.1	28.4	0.00e+00	0	29	0	2394947584	32	5809
2026-01-17 18:34:14.54	298.93	33.71	-29.5	-30.0	28.4	0.00e+00	0	29	0	2401239040	32	5757
2026-01-17 18:34:15.55	298.56	33.65	-29.2	-29.9	28.6	0.00e+00	0	29	0	2406481920	32	5633
2026-01-17 18:34:16.56	298.19	33.59	-29.4	-30.1	28.5	0.00e+00	0	29	0	2412773376	32	5772
2026-01-17 18:34:17.57	297.82	33.53	-29.3	-30.0	28.6	0.00e+00	0	29	0	2418016256	32	5735
2026-01-17 18:34:18.58	297.45	33.46	-29.4	-30.0	28.4	0.00e+00	0	29	0	2423259136	32	5740
2026-01-17 18:34:19.59	297.08	33.40	-29.4	-29.9	28.5	0.00e+00	0	29	0	2429550592	32	5690
2026-01-17 18:34:20.60	296.72	33.33	-29.5	-30.0	28.5	0.00e+00	0	29	0	2434793472	32	5734
2026-01-17 18:34:21.61	296.36	33.26	-29.4	-29.9	28.4	0.00e+00	0	29	0	2441084928	32	5676
2026-01-17 18:34:22.62	295.99	33.19	-29.6	-30.3	28.2	0.00e+00	0	29	0	2446327808	32	5933
2026-01-17 18:34:23.63	295.63	33.12	-29.8	-30.4	28.1	0.00e+00	0	29	0	2452619264	32	6033
2026-01-17 18:34:24.64	295.27	33.05	-29.9	-30.5	28.0	0.00e+00	0	29	0	2457862144	32	6036
2026-01-17 18:34:25.65	294.92	32.98	-29.8	-30.3	28.2	0.00e+00	0	29	0	2464153600	32	5941
2026-01-17 18:34:26.66	294.56	32.90	-29.7	-30.4	28.2	0.00e+00	0	29	0	2469396480	32	6008
2026-01-17 18:34:27.67	294.21	32.83	-29.6	-30.3	28.4	0.00e+00	0	29	0	2474639360	32	5918
2026-01-17 18:34:28.68	293.85	32.75	-29.5	-30.1	28.4	0.00e+00	0	29	0	2480930816	32	5764
2026-01-17 18:34:29.69	293.50	32.67	-29.4	-30.0	28.6	0.00e+00	0	29	0	2486173696	32	5712
2026-01-17 18:34:30.70	293.15	32.60	-29.3	-29.9	28.5	0.00e+00	0	30	0	2492465152	32	5681
2026-01-17 18:34:31.71	292.81	32.52	-29.2	-29.8	28.6	0.00e+00	0	29	0	2497708032	32	5624
2026-01-17 18:34:32.72	292.46	32.44	-29.2	-29.8	28.6	0.00e+00	0	29	0	2502950912	32	5592
2026-01-17 18:34:33.73	292.12	32.36	-29.2	-29.7	28.5	0.00e+00	0	29	0	2509242368	32	5555
2026-01-17 18:34:34.75	291.77	32.27	-29.4	-30.0	28.5	0.00e+00	0	29	0	2514485248	32	5728
2026-01-17 18:34:35.75	291.43	32.19	-29.6	-30.1	28.5	0.00e+00	0	29	0	2520776704	32	5826
2026-01-17 18:34:36.76	291.09	32.11	-29.4	-30.0	28.5	0.00e+00	0	29	0	2526019584	32	5715
2026-01-17 18:34:37.77	290.76	32.02	-29.5	-30.2	28.4	0.00e+00	0	29	0	2531262464	32	5873
2026-01-17 18:34:38.78	290.42	31.94	-29.6	-30.3	28.4	0.00e+00	0	29	0	2537553920	32	5909
2026-01-17 18:34:39.80	290.09	31.85	-29.5	-30.1	28.4	0.00e+00	0	29	0	2542796800	32	5820
2026-01-17 18:34:40.81	289.75	31.76	-29.6	-30.2	28.2	0.00e+00	0	29	0	2549088256	32	5894
2026-01-17 18:34:41.82	289.42	31.68	-30.0	-30.6	28.1	0.00e+00	0	29	0	2554331136	32	6147
2026-01-17 18:34:42.82	289.10	31.59	-30.2	-30.9	27.9	0.00e+00	0	29	0	2560622592	32	6357
2026-01-17 18:34:43.84	288.77	31.50	-30.2	-30.9	27.8	0.00e+00	0	29	0	2565865472	32	6368
2026-01-17 18:34:44.84	288.45	31.41	-29.9	-30.6	28.2	0.00e+00	0	29	0	2572156928	32	6118
2026-01-17 18:34:45.85	288.13	31.32	-29.7	-30.3	28.3	0.00e+00	0	29	0	2577399808	32	5938
2026-01-17 18:34:46.86	287.80	31.22	-29.4	-30.0	28.5	0.00e+00	0	30	0	2582642688	32	5748
2026-01-17 18:34:47.87	287.49	31.13	-29.5	-30.1	28.5	0.00e+00	0	29	0	2588934144	32	5782
2026-01-17 18:34:48.88	287.17	31.04	-29.6	-30.3	28.4	0.00e+00	0	29	0	2594177024	32	5928
2026-01-17 18:34:49.89	286.85	30.94	-29.6	-30.2	28.3	0.00e+00	0	29	0	2600468480	32	5862
2026-01-17 18:34:50.90	286.54	30.85	-29.6	-30.2	28.4	0.00e+00	0	29	0	2605711360	32	5836
2026-01-17 18:34:51.92	286.22	30.75	-29.7	-30.3	28.3	0.00e+00	0	29	0	2610954240	32	5908
2026-01-17 18:34:52.93	285.91	30.66	-29.7	-30.4	28.2	0.00e+00	0	29	0	2617245696	32	5974
2026-01-17 18:34:53.94	285.61	30.56	-29.7	-30.4	28.2	0.00e+00	0	29	0	2622488576	32	6006
2026-01-17 18:34:54.95	285.30	30.46	-29.7	-30.3	28.2	0.00e+00	0	29	0	2628780032	32	5964
2026-01-17 18:34:55.96	285.00	30.37	-29.7	-30.4	28.3	0.00e+00	0	29	0	2634022912	32	5980
2026-01-17 18:34:56.97	284.69	30.27	-29.7	-30.2	28.3	0.00e+00	0	29	0	2639265792	32	5891
2026-01-17 18:34:57.98	284.39	30.17	-29.7	-30.3	28.3	0.00e+00	0	29	0	2645557248	32	5900
2026-01-17 18:34:58.99	284.09	30.07	-29.7	-30.4	28.3	0.00e+00	0	29	0	2650800128	32	5997
2026-01-17 18:35:00.00	283.80	29.97	-29.7	-30.3	28.2	0.00e+00	0	29	0	2657091584	32	5925
2026-01-17 18:35:01.01	283.50	29.87	-29.7	-30.3	28.2	0.00e+00	0	29	0	2662334464	32	5938
2026-01-17 18:35:02.02	283.21	29.77	-29.6	-30.3	28.3	0.00e+00	0	29	0	2668625920	32	5926
2026-01-17 18:35:03.03	282.92	29.67	-29.8	-30.5	28.2	0.00e+00	0	29	0	2673868800	32	6044
2026-01-17 18:35:04.04	282.63	29.56	-29.8	-30.4	28.2	0.00e+00	0	29	0	2680160256	32	5980
2026-01-17 18:35:05.05	282.34	29.46	-29.8	-30.5	28.2	0.00e+00	0	29	0	2685403136	32	6060
2026-01-17 18:35:06.06	282.05	29.36	-29.7	-30.4	28.1	0.00e+00	0	29	0	2690646016	32	6027
2026-01-17 18:35:07.07	281.77	29.26	-29.6	-30.3	28.3	0.00e+00	0	29	0	2696937472	32	5916
2026-01-17 18:35:08.08	281.49	29.15	-29.8	-30.5	28.1	0.00e+00	0	29	0	2702180352	32	6075
2026-01-17 18:35:09.09	281.21	29.05	-29.6	-30.1	28.3	0.00e+00	0	29	0	2708471808	32	5819
2026-01-17 18:35:10.10	280.93	28.94	-29.6	-30.1	28.3	0.00e+00	0	29	0	2713714688	32	5813
2026-01-17 18:35:11.11	280.65	28.84	-29.6	-30.2	28.3	0.00e+00	0	29	0	2718957568	32	5854
2026-01-17 18:35:12.12	280.38	28.73	-29.6	-30.3	28.4	0.00e+00	0	29	0	2725249024	32	5923
2026-01-17 18:35:13.13	280.11	28.63	-29.7	-30.4	28.2	0.00e+00	0	29	0	2730491904	32	5995
2026-01-17 18:35:14.14	279.83	28.52	-29.8	-30.5	28.2	0.00e+00	0	29	0	2736783360	32	6056
2026-01-17 18:35:15.15	279.56	28.42	-29.9	-30.6	28.1	0.00e+00	0	29	0	2742026240	32	6109
2026-01-17 18:35:16.16	279.30	28.31	-30.0	-30.5	27.8	0.00e+00	0	29	0	2747269120	32	6095
2026-01-17 18:35:17.17	279.03	28.20	-29.9	-30.5	27.9	0.00e+00	0	29	0	2753560576	32	6056
2026-01-17 18:35:18.18	278.77	28.10	-30.0	-30.7	27.8	0.00e+00	0	29	0	2758803456	32	6193
2026-01-17 18:35:19.19	278.50	27.99	-29.9	-30.5	27.8	0.00e+00	0	29	0	2765094912	32	6037
2026-01-17 18:35:20.20	278.24	27.88	-29.8	-30.4	28.0	0.00e+00	0	29	0	2770337792	32	6030
2026-01-17 18:35:21.21	277.99	27.77	-29.8	-30.4	27.9	0.00e+00	0	29	0	2776629248	32	6024
2026-01-17 18:35:22.22	277.73	27.67	-30.0	-30.5	27.7	0.00e+00	0	29	0	2781872128	32	6090
2026-01-17 18:35:23.23	277.47	27.56	-29.9	-30.5	27.8	0.00e+00	0	29	0	2787115008	32	6041
2026-01-17 18:35:24.25	277.22	27.45	-29.9	-30.5	27.6	0.00e+00	0	29	0	2793406464	32	6047
2026-01-17 18:35:25.26	276.96	27.34	-29.9	-30.5	27.3	0.00e+00	0	29	0	2798649344	32	6091
2026-01-17 18:35:26.27	276.71	27.23	-30.1	-30.7	27.5	0.00e+00	0	29	0	2804940800	32	6243
2026-01-17 18:35:27.28	276.47	27.12	-30.1	-30.6	27.4	0.00e+00	0	29	0	2810183680	32	6144
2026-01-17 18:35:28.29	276.22	27.01	-30.2	-30.8	27.7	0.00e+00	0	29	0	2816475136	32	6305
2026-01-17 18:35:29.30	275.97	26.90	-30.3	-30.8	27.6	0.00e+00	0	29	0	2821718016	32	6301
2026-01-17 18:35:30.31	275.73	26.79	-30.3	-30.8	27.0	0.00e+00	0	29	0	2826960896	32	6311
2026-01-17 18:35:31.32	275.49	26.69	-30.4	-30.9	27.3	0.00e+00	0	29	0	2833252352	32	6367
2026-01-17 18:35:32.33	275.25	26.58	-30.5	-31.1	27.4	0.00e+00	0	29	0	2838495232	32	6476
2026-01-17 18:35:33.34	275.01	26.47	-30.5	-31.2	27.3	0.00e+00	0	29	0	2843738112	32	6583
2026-01-17 18:35:34.35	274.77	26.36	-30.5	-31.1	27.3	0.00e+00	0	29	0	2850029568	32	6485
2026-01-17 18:35:35.36	274.54	26.25	-30.4	-31.0	27.5	0.00e+00	0	29	0	2855272448	32	6436
2026-01-17 18:35:36.37	274.31	26.14	-30.4	-31.0	27.5	0.00e+00	0	29	0	2861563904	32	6400
2026-01-17 18:35:37.38	274.07	26.03	-30.2	-30.9	27.7	0.00e+00	0	29	0	2866806784	32	6322
2026-01-17 18:35:38.39	273.84	25.92	-30.2	-30.9	27.7	0.00e+00	0	29	0	2873098240	32	6357
2026-01-17 18:35:39.39	273.62	25.81	-30.3	-30.9	27.6	0.00e+00	0	29	0	2878341120	32	6328
2026-01-17 18:35:40.40	273.39	25.70	-30.4	-30.9	27.5	0.00e+00	0	29	0	2884632576	32	6366
2026-01-17 18:35:41.42	273.16	25.59	-30.6	-31.3	27.4	0.00e+00	0	29	0	2889875456	32	6671
2026-01-17 18:35:42.43	272.94	25.48	-30.7	-31.3	27.2	0.00e+00	0	29	0	2895118336	32	6640
2026-01-17 18:35:43.44	272.72	25.37	-30.8	-31.4	27.2	0.00e+00	0	29	0	2901409792	34	6002
2026-01-17 18:35:44.45	272.50	25.25	-30.7	-31.4	27.3	0.00e+00	0	29	0	2906652672	34	5979
2026-01-17 18:35:45.46	272.28	25.14	-30.8	-31.4	27.2	0.00e+00	0	29	0	2912944128	34	5978
2026-01-17 18:35:46.46	272.06	25.04	-30.8	-31.5	27.2	0.00e+00	0	29	0	2918187008	34	6049
2026-01-17 18:35:47.48	271.84	24.92	-30.5	-31.1	27.4	0.00e+00	0	29	0	2923429888	34	5775
2026-01-17 18:35:48.48	271.63	24.81	-30.5	-31.2	27.4	0.00e+00	0	29	0	2929721344	34	5833
2026-01-17 18:35:49.49	271.42	24.70	-30.4	-31.0	27.5	0.00e+00	0	29	0	2934964224	34	5738
2026-01-17 18:35:50.50	271.21	24.59	-30.3	-31.0	27.7	0.00e+00	0	29	0	2941255680	34	5743
2026-01-17 18:35:51.51	271.00	24.48	-30.4	-31.1	27.5	0.00e+00	0	29	0	2946498560	34	5784
2026-01-17 18:35:52.52	270.79	24.37	-30.6	-31.1	27.4	0.00e+00	0	29	0	2951741440	34	5812
2026-01-17 18:35:53.53	270.58	24.26	-30.6	-31.2	27.4	0.00e+00	0	29	0	2958032896	34	5845
2026-01-17 18:35:54.55	270.37	24.15	-30.6	-31.2	27.3	0.00e+00	0	29	0	2963275776	34	5872
2026-01-17 18:35:55.55	270.17	24.04	-30.7	-31.4	27.3	0.00e+00	0	29	0	2969567232	34	6009
2026-01-17 18:35:56.56	269.97	23.93	-30.7	-31.2	27.3	0.00e+00	0	30	0	2974810112	34	5878
2026-01-17 18:35:57.58	269.77	23.82	-30.7	-31.2	27.2	0.00e+00	0	29	0	2981101568	34	5887
2026-01-17 18:35:58.59	269.57	23.71	-30.9	-31.4	27.1	0.00e+00	0	29	0	2986344448	34	6027
2026-01-17 18:35:59.59	269.37	23.60	-30.7	-31.3	27.2	0.00e+00	0	29	0	2992635904	34	5916
2026-01-17 18:36:00.60	269.17	23.49	-30.8	-31.5	27.2	0.00e+00	0	29	0	2997878784	34	6049
2026-01-17 18:36:01.61	268.98	23.39	-30.8	-31.4	27.1	0.00e+00	0	29	0	3003121664	34	6003
2026-01-17 18:36:02.63	268.78	23.27	-30.9	-31.5	27.0	0.00e+00	0	29	0	3009413120	34	6042
2026-01-17 18:36:03.64	268.59	23.17	-31.0	-31.7	27.0	0.00e+00	0	29	0	3014656000	34	6210
2026-01-17 18:36:04.65	268.40	23.06	-31.0	-31.5	27.0	0.00e+00	0	29	0	3020947456	34	6093
2026-01-17 18:36:05.66	268.21	22.95	-30.9	-31.5	27.1	0.00e+00	0	29	0	3026190336	34	6035
2026-01-17 18:36:06.67	268.02	22.84	-31.0	-31.7	27.0	0.00e+00	0	29	0	3031433216	34	6194
2026-01-17 18:36:07.68	267.83	22.73	-30.7	-31.3	27.2	0.00e+00	0	29	0	3037724672	34	5928
2026-01-17 18:36:08.69	267.64	22.62	-30.8	-31.5	27.1	0.00e+00	0	29	0	3042967552	34	6065
2026-01-17 18:36:09.70	267.46	22.51	-30.6	-31.3	27.4	0.00e+00	0	29	0	3049259008	34	5931
2026-01-17 18:36:10.71	267.28	22.40	-30.7	-31.2	27.3	0.00e+00	0	29	0	3054501888	34	5864
2026-01-17 18:36:11.72	267.09	22.30	-30.6	-31.2	27.3	0.00e+00	0	29	0	3059744768	34	5843
2026-01-17 18:36:12.71	266.92	22.19	-30.6	-31.3	27.3	0.00e+00	0	29	0	3066036224	34	5904
2026-01-17 18:36:13.72	266.74	22.08	-30.6	-31.1	27.3	0.00e+00	0	29	0	3071279104	34	5813
2026-01-17 18:36:14.73	266.56	21.97	-30.6	-31.2	27.2	0.00e+00	0	29	0	3077570560	34	5853
2026-01-17 18:36:15.74	266.38	21.87	-30.6	-31.3	27.3	0.00e+00	0	29	0	3082813440	34	5930
2026-01-17 18:36:16.75	266.20	21.76	-30.5	-31.2	27.4	0.00e+00	0	29	0	3089104896	34	5892
2026-01-17 18:36:17.76	266.03	21.65	-30.5	-31.1	27.4	0.00e+00	0	29	0	3094347776	34	5795
2026-01-17 18:36:18.77	265.86	21.54	-30.6	-31.3	27.3	0.00e+00	0	29	0	3099590656	34	5906
2026-01-17 18:36:19.78	265.68	21.44	-30.8	-31.6	27.1	0.00e+00	0	29	0	3105882112	34	6108
2026-01-17 18:36:20.79	265.51	21.33	-30.6	-31.2	27.3	0.00e+00	0	29	0	3111124992	34	5841
2026-01-17 18:36:21.80	265.34	21.22	-30.7	-31.2	27.3	0.00e+00	0	29	0	3117416448	34	5886
2026-01-17 18:36:22.81	265.17	21.12	-30.7	-31.2	27.3	0.00e+00	0	29	0	3122659328	34	5889
2026-01-17 18:36:23.82	265.01	21.01	-30.7	-31.4	27.2	0.00e+00	0	30	0	3127902208	34	5977
2026-01-17 18:36:24.83	264.84	20.91	-30.8	-31.5	27.3	0.00e+00	0	29	0	3134193664	34	6055
2026-01-17 18:36:25.84	264.67	20.80	-30.8	-31.3	27.1	0.00e+00	0	29	0	3139436544	34	5949
2026-01-17 18:36:26.85	264.51	20.69	-30.7	-31.2	27.3	0.00e+00	0	29	0	3145728000	34	5886
2026-01-17 18:36:27.86	264.35	20.59	-30.8	-31.5	27.2	0.00e+00	0	29	0	3150970880	34	6072
2026-01-17 18:36:28.87	264.19	20.48	-30.9	-31.5	27.1	0.00e+00	0	29	0	3156213760	34	6035
2026-01-17 18:36:29.88	264.02	20.38	-30.9	-31.5	27.1	0.00e+00	0	29	0	3162505216	34	6053
2026-01-17 18:36:30.89	263.86	20.27	-31.0	-31.5	27.0	0.00e+00	0	29	0	3167748096	34	6083
2026-01-17 18:36:31.90	263.71	20.17	-31.0	-31.5	27.1	0.00e+00	0	29	0	3174039552	34	6084
2026-01-17 18:36:32.91	263.55	20.06	-31.0	-31.5	27.0	0.00e+00	0	29	0	3179282432	34	6096
2026-01-17 18:36:33.92	263.39	19.96	-30.9	-31.7	27.1	0.00e+00	0	29	0	3185573888	34	6175
2026-01-17 18:36:34.93	263.24	19.86	-31.1	-31.7	27.0	0.00e+00	0	29	0	3190816768	34	6203
2026-01-17 18:36:35.94	263.08	19.75	-31.0	-31.5	27.1	0.00e+00	0	29	0	3197108224	34	6080
2026-01-17 18:36:36.95	262.93	19.65	-31.0	-31.7	27.1	0.00e+00	0	29	0	3202351104	34	6188
2026-01-17 18:36:37.96	262.78	19.54	-30.9	-31.5	27.1	0.00e+00	0	29	0	3207593984	34	6075
2026-01-17 18:36:38.97	262.63	19.44	-31.0	-31.7	27.1	0.00e+00	0	29	0	3213885440	34	6174
2026-01-17 18:36:39.98	262.48	19.34	-31.1	-31.6	26.9	0.00e+00	0	29	0	3219128320	34	6161
2026-01-17 18:36:40.99	262.33	19.24	-31.2	-31.7	26.9	0.00e+00	0	29	0	3225419776	34	6229
2026-01-17 18:36:42.00	262.18	19.13	-31.3	-31.9	26.8	0.00e+00	0	29	0	3230662656	34	6325
2026-01-17 18:36:43.01	262.03	19.03	-31.3	-31.9	26.8	0.00e+00	0	29	0	3235905536	34	6328
2026-01-17 18:36:44.02	261.89	18.93	-31.3	-31.9	26.8	0.00e+00	0	29	0	3242196992	34	6336
2026-01-17 18:36:45.03	261.74	18.83	-31.4	-32.1	26.7	0.00e+00	0	29	0	3247439872	34	6493
2026-01-17 18:36:46.04	261.60	18.72	-31.5	-32.0	26.6	0.00e+00	0	29	0	3253731328	34	6454
2026-01-17 18:36:47.05	261.45	18.62	-31.3	-32.0	26.8	0.00e+00	0	29	0	3258974208	34	6456
2026-01-17 18:36:48.06	261.31	18.52	-31.3	-31.9	26.7	0.00e+00	0	29	0	3264217088	34	6349
2026-01-17 18:36:49.07	261.17	18.42	-31.4	-32.1	26.7	0.00e+00	0	29	0	3270508544	34	6501
2026-01-17 18:36:50.08	261.03	18.32	-31.4	-32.0	26.6	0.00e+00	0	29	0	3275751424	34	6429
2026-01-17 18:36:51.10	260.89	18.22	-31.6	-32.2	26.5	0.00e+00	0	29	0	3282042880	34	6575
2026-01-17 18:36:52.11	260.75	18.12	-31.7	-32.3	26.4	0.00e+00	0	29	0	3287285760	34	6624
2026-01-17 18:36:53.12	260.61	18.02	-31.6	-32.2	26.5	0.00e+00	0	29	0	3293577216	34	6543
2026-01-17 18:36:54.13	260.48	17.92	-31.8	-32.3	26.4	0.00e+00	0	29	0	3298820096	36	5961
2026-01-17 18:36:55.14	260.34	17.82	-31.6	-32.2	26.5	0.00e+00	0	29	0	3305111552	36	5863
2026-01-17 18:36:56.15	260.21	17.72	-31.6	-32.2	26.5	0.00e+00	0	29	0	3310354432	36	5889
2026-01-17 18:36:57.16	260.07	17.62	-31.6	-32.2	26.5	0.00e+00	0	29	0	3315597312	36	5859
2026-01-17 18:36:58.17	259.94	17.52	-31.5	-32.1	26.6	0.00e+00	0	29	0	3321888768	36	5812
2026-01-17 18:36:59.17	259.81	17.42	-31.5	-32.1	26.6	0.00e+00	0	29	0	3327131648	36	5770
2026-01-17 18:37:00.18	259.68	17.33	-31.6	-32.2	26.5	0.00e+00	0	29	0	3333423104	36	5859
2026-01-17 18:37:01.20	259.55	17.23	-31.7	-32.3	26.4	0.00e+00	0	29	0	3338665984	36	5939
2026-01-17 18:37:02.21	259.42	17.13	-31.8	-32.5	26.4	0.00e+00	0	29	0	3343908864	36	6095
2026-01-17 18:37:03.22	259.29	17.03	-31.8	-32.5	26.2	0.00e+00	0	29	0	3350200320	36	6098
2026-01-17 18:37:04.23	259.16	16.93	-32.1	-32.8	26.2	0.00e+00	0	30	0	3355443200	36	6293
2026-01-17 18:37:05.24	259.04	16.84	-32.0	-32.5	26.2	0.00e+00	0	29	0	3361734656	36	6100
2026-01-17 18:37:06.25	258.91	16.74	-32.1	-32.8	26.1	0.00e+00	0	29	0	3366977536	36	6283
2026-01-17 18:37:07.26	258.78	16.64	-32.2	-32.8	26.0	0.00e+00	0	29	0	3372220416	36	6271
2026-01-17 18:37:08.27	258.66	16.55	-32.2	-33.0	25.9	0.00e+00	0	29	0	3378511872	36	6393
2026-01-17 18:37:09.28	258.54	16.45	-32.3	-32.9	25.9	0.00e+00	0	29	0	3383754752	36	6360
2026-01-17 18:37:10.29	258.41	16.35	-32.3	-33.1	25.8	0.00e+00	0	29	0	3390046208	36	6471
2026-01-17 18:37:11.30	258.29	16.26	-32.4	-33.1	25.9	0.00e+00	0	29	0	3395289088	36	6508
2026-01-17 18:37:12.31	258.17	16.16	-32.3	-32.9	25.9	0.00e+00	0	29	0	3401580544	36	6343
2026-01-17 18:37:13.32	258.05	16.07	-32.4	-33.0	25.8	0.00e+00	0	29	0	3406823424	36	6413
2026-01-17 18:37:14.33	257.93	15.97	-32.5	-33.2	25.8	0.00e+00	0	29	0	3413114880	36	6578
2026-01-17 18:37:15.34	257.81	15.88	-32.6	-33.3	25.6	0.00e+00	0	29	0	3418357760	36	6675
2026-01-17 18:37:16.35	257.69	15.78	-32.7	-33.4	25.6	0.00e+00	0	29	0	3423600640	38	5995
2026-01-17 18:37:17.36	257.58	15.69	-32.6	-33.4	25.5	0.00e+00	0	29	0	3429892096	38	5984
2026-01-17 18:37:18.37	257.46	15.60	-32.8	-33.5	25.6	0.00e+00	0	29	0	3435134976	38	6083
2026-01-17 18:37:19.38	257.34	15.50	-32.8	-33.5	25.5	0.00e+00	0	29	0	3441426432	38	6072
2026-01-17 18:37:20.39	257.23	15.41	-32.8	-33.6	25.5	0.00e+00	0	29	0	3446669312	38	6105
2026-01-17 18:37:21.40	257.12	15.31	-32.9	-33.7	25.3	0.00e+00	0	29	0	3451912192	38	6199
2026-01-17 18:37:22.41	257.00	15.22	-32.6	-33.2	25.6	0.00e+00	0	29	0	3458203648	38	5848
2026-01-17 18:37:23.42	256.89	15.13	-32.7	-33.4	25.6	0.00e+00	0	29	0	3463446528	38	6010
2026-01-17 18:37:24.43	256.78	15.04	-32.6	-33.2	25.6	0.00e+00	0	29	0	3469737984	38	5863
2026-01-17 18:37:25.44	256.67	14.94	-32.8	-33.4	25.4	0.00e+00	0	30	0	3474980864	38	5977
2026-01-17 18:37:26.45	256.55	14.85	-32.6	-33.2	25.6	0.00e+00	0	29	0	3480223744	38	5852
2026-01-17 18:37:27.46	256.44	14.76	-32.7	-33.3	25.5	0.00e+00	0	29	0	3486515200	38	5957
2026-01-17 18:37:28.47	256.34	14.67	-32.7	-33.3	25.5	0.00e+00	0	30	0	3491758080	38	5940
2026-01-17 18:37:29.48	256.23	14.58	-32.8	-33.4	25.5	0.00e+00	0	30	0	3498049536	38	5990
2026-01-17 18:37:30.49	256.12	14.49	-32.7	-33.3	25.5	0.00e+00	0	29	0	3503292416	38	5956
2026-01-17 18:37:31.50	256.01	14.39	-32.8	-33.5	25.5	0.00e+00	0	29	0	3509583872	38	6078
2026-01-17 18:37:32.51	255.90	14.30	-32.8	-33.5	25.5	0.00e+00	0	29	0	3514826752	38	6095
2026-01-17 18:37:33.52	255.80	14.21	-32.9	-33.6	25.4	0.00e+00	0	29	0	3521118208	38	6168
2026-01-17 18:37:34.53	255.69	14.12	-32.8	-33.4	25.4	0.00e+00	0	29	0	3526361088	38	5992
2026-01-17 18:37:35.54	255.59	14.03	-32.9	-33.6	25.3	0.00e+00	0	29	0	3531603968	38	6156
2026-01-17 18:37:36.56	255.48	13.94	-33.0	-33.7	25.3	0.00e+00	0	29	0	3537895424	38	6218
2026-01-17 18:37:37.56	255.38	13.85	-32.9	-33.6	25.3	0.00e+00	0	29	0	3543138304	38	6152
2026-01-17 18:37:38.57	255.28	13.76	-32.9	-33.6	25.4	0.00e+00	0	29	0	3548381184	38	6143
2026-01-17 18:37:39.58	255.18	13.68	-32.8	-33.4	25.4	0.00e+00	0	30	0	3554672640	38	6026
2026-01-17 18:37:40.59	255.08	13.59	-32.9	-33.5	25.3	0.00e+00	0	29	0	3559915520	38	6056
2026-01-17 18:37:41.60	254.97	13.50	-32.9	-33.5	25.3	0.00e+00	0	29	0	3566206976	38	6058
2026-01-17 18:37:42.61	254.87	13.41	-33.0	-33.6	25.3	0.00e+00	0	29	0	3571449856	38	6132
2026-01-17 18:37:43.62	254.77	13.32	-33.0	-33.6	25.3	0.00e+00	0	29	0	3577741312	38	6117
2026-01-17 18:37:44.63	254.68	13.23	-33.0	-33.8	25.2	0.00e+00	0	29	0	3582984192	38	6263
2026-01-17 18:37:45.64	254.58	13.15	-33.1	-33.7	25.1	0.00e+00	0	29	0	3588227072	38	6239
2026-01-17 18:37:46.65	254.48	13.06	-33.1	-33.8	25.2	0.00e+00	0	29	0	3594518528	38	6287
2026-01-17 18:37:47.66	254.38	12.97	-33.1	-33.9	25.1	0.00e+00	0	29	0	3599761408	38	6348
2026-01-17 18:37:48.67	254.29	12.88	-33.2	-33.9	25.0	0.00e+00	0	29	0	3606052864	38	6371
