passes_logs/2026/01/17/R4.6S_Anadyr/R4.6S_Anadyr__20260117_164555_FENGYUN_3D_rec.log

#Pass ID: 20260117_164555_FENGYUN 3D
#Satellite: FENGYUN 3D
#Configuration: FENGYUN 3D
#almurnet v.1.7.20251203
#Start time: 2026-01-17 16:45:58

#Version: 2.2.20231116
#Station: R4.6S_Anadyr
#Location: 177.4865 lon 64.73178 lat
#TLE: 1 43010U 17072A   26016.62453405 -.00000112  00000+0 -31355-4 0  9995
#TLE: 2 43010  98.9932 348.4654 0002369 105.3910 254.7528 14.19694900423480

#Time	Az	El	Level	Level2	SNR	BER	BlckErr	Temp	State	Recorded	gain1	gain2
2026-01-17 16:45:58.51	20.97	0.17	-48.6	-63.5	3.5	1.51e+00	0	26	0	0	60	54317
2026-01-17 16:45:59.52	20.97	0.23	-48.6	-60.7	3.6	8.45e-01	0	27	104	0	60	38988
2026-01-17 16:46:00.53	20.98	0.29	-48.6	-60.7	3.6	8.45e-01	0	27	104	0	60	39288
2026-01-17 16:46:01.54	20.99	0.35	-48.6	-60.7	3.6	8.45e-01	0	27	104	0	60	39199
2026-01-17 16:46:02.55	20.99	0.41	-48.8	-60.9	3.6	8.45e-01	0	27	104	0	60	39930
2026-01-17 16:46:03.56	21.00	0.47	-48.6	-60.8	3.6	8.45e-01	0	27	104	0	60	39422
2026-01-17 16:46:04.57	21.01	0.53	-48.6	-60.7	3.6	8.45e-01	0	27	104	0	60	39295
2026-01-17 16:46:05.58	21.01	0.59	-48.7	-60.9	3.6	8.45e-01	0	27	104	0	60	39893
2026-01-17 16:46:06.59	21.02	0.65	-48.7	-60.9	3.5	8.45e-01	0	27	104	0	60	39940
2026-01-17 16:46:07.60	21.03	0.72	-48.7	-60.8	3.6	8.44e-01	0	27	104	0	60	39796
2026-01-17 16:46:08.61	21.03	0.78	-48.7	-60.8	3.6	8.45e-01	0	27	104	0	60	39557
2026-01-17 16:46:09.62	21.04	0.84	-48.6	-60.7	3.6	8.46e-01	0	27	104	0	60	39377
2026-01-17 16:46:10.63	21.04	0.90	-48.6	-60.7	3.6	8.45e-01	0	27	104	0	60	39068
2026-01-17 16:46:11.64	21.05	0.96	-48.5	-60.6	3.6	8.45e-01	0	27	104	0	60	38875
2026-01-17 16:46:12.65	21.06	1.02	-48.4	-60.5	3.6	8.46e-01	0	27	104	0	60	38175
2026-01-17 16:46:13.66	21.06	1.09	-48.2	-60.2	3.6	8.45e-01	0	27	104	0	60	36964
2026-01-17 16:46:14.67	21.07	1.15	-48.0	-60.1	3.6	8.45e-01	0	27	104	0	60	36493
2026-01-17 16:46:15.68	21.08	1.21	-47.8	-59.9	3.6	8.45e-01	0	28	104	0	60	35664
2026-01-17 16:46:16.69	21.08	1.27	-47.6	-59.6	3.6	8.44e-01	0	27	104	0	60	34632
2026-01-17 16:46:17.70	21.09	1.34	-47.1	-58.9	3.6	8.46e-01	0	27	104	0	60	31834
2026-01-17 16:46:18.71	21.10	1.40	-47.1	-59.1	3.6	8.45e-01	0	27	104	0	60	32705
2026-01-17 16:46:19.72	21.10	1.46	-47.1	-58.8	3.6	8.46e-01	0	27	104	0	60	31591
2026-01-17 16:46:20.73	21.11	1.53	-47.1	-58.7	3.6	8.45e-01	0	27	104	0	60	31062
2026-01-17 16:46:21.74	21.12	1.59	-47.1	-59.0	3.6	8.46e-01	0	27	104	0	60	32124
2026-01-17 16:46:22.75	21.12	1.65	-47.1	-58.7	3.6	8.45e-01	0	27	104	0	60	31188
2026-01-17 16:46:23.76	21.13	1.72	-47.1	-59.0	3.6	8.46e-01	0	27	104	0	60	32365
2026-01-17 16:46:24.77	21.13	1.78	-47.1	-59.0	3.6	8.46e-01	0	27	104	0	60	32207
2026-01-17 16:46:25.78	21.14	1.85	-47.1	-59.1	3.6	8.45e-01	0	28	104	0	60	32753
2026-01-17 16:46:26.79	21.15	1.91	-47.1	-59.1	3.6	8.47e-01	0	28	104	0	60	32759
2026-01-17 16:46:27.80	21.15	1.97	-47.1	-59.2	3.6	8.46e-01	0	28	104	0	60	32865
2026-01-17 16:46:28.81	21.16	2.04	-47.1	-59.2	3.6	8.46e-01	0	28	104	0	60	33103
2026-01-17 16:46:29.82	21.17	2.10	-47.1	-59.2	3.6	8.46e-01	0	28	104	0	60	33153
2026-01-17 16:46:30.83	21.17	2.17	-47.1	-59.3	3.6	8.45e-01	0	27	104	0	60	33167
2026-01-17 16:46:31.84	21.18	2.23	-47.1	-58.8	3.6	8.44e-01	0	28	104	0	60	31544
2026-01-17 16:46:32.85	21.19	2.30	-47.1	-58.5	3.6	8.45e-01	0	28	104	0	60	30552
2026-01-17 16:46:33.86	21.19	2.36	-47.0	-57.4	3.7	8.45e-01	0	27	104	0	60	26806
2026-01-17 16:46:34.87	21.20	2.43	-47.0	-57.3	3.6	8.43e-01	0	28	104	0	60	26618
2026-01-17 16:46:35.88	21.21	2.49	-46.8	-56.3	3.9	8.38e-01	0	28	104	0	60	23671
2026-01-17 16:46:36.89	21.21	2.56	-46.7	-53.6	4.0	8.27e-01	0	28	0	0	60	17367
2026-01-17 16:46:37.90	21.22	2.62	-46.7	-54.0	3.9	8.29e-01	0	28	0	0	60	18154
2026-01-17 16:46:38.91	21.23	2.69	-46.7	-54.2	3.8	8.33e-01	0	28	0	0	60	18482
2026-01-17 16:46:39.92	21.23	2.76	-46.7	-53.8	4.0	8.27e-01	0	28	0	0	60	17798
2026-01-17 16:46:40.93	21.24	2.82	-46.4	-52.4	5.0	7.90e-01	0	28	0	0	60	14984
2026-01-17 16:46:41.94	21.25	2.89	-45.7	-50.2	7.3	4.82e-01	0	28	0	2097152	60	11721
2026-01-17 16:46:42.95	21.25	2.96	-44.9	-48.5	9.4	5.19e-02	0	28	0	7340032	60	9577
2026-01-17 16:46:43.96	21.26	3.02	-43.6	-46.2	12.0	4.68e-03	0	28	0	13631488	60	7356
2026-01-17 16:46:44.97	21.27	3.09	-42.6	-44.7	13.5	2.28e-05	0	28	0	18874368	58	6948
2026-01-17 16:46:45.98	21.27	3.16	-41.1	-42.6	15.5	0.00e+00	0	28	0	25165824	56	6167
2026-01-17 16:46:46.99	21.28	3.22	-40.0	-41.4	17.3	0.00e+00	0	28	0	30408704	54	5971
2026-01-17 16:46:48.00	21.29	3.29	-38.7	-39.8	18.3	0.00e+00	0	28	0	35651584	50	6295
2026-01-17 16:46:49.01	21.29	3.36	-38.1	-39.1	19.2	0.00e+00	0	28	0	41943040	50	5822
2026-01-17 16:46:50.02	21.30	3.43	-38.2	-39.3	18.7	0.00e+00	0	28	0	47185920	48	6639
2026-01-17 16:46:51.03	21.31	3.49	-37.4	-38.4	19.8	0.00e+00	0	28	0	53477376	48	5979
2026-01-17 16:46:52.04	21.31	3.56	-38.0	-39.1	19.1	0.00e+00	0	28	0	58720256	48	6482
2026-01-17 16:46:53.05	21.32	3.63	-38.1	-39.2	18.9	0.00e+00	0	28	0	63963136	48	6569
2026-01-17 16:46:54.06	21.33	3.70	-38.7	-39.9	18.2	0.00e+00	0	28	0	70254592	48	7104
2026-01-17 16:46:55.07	21.33	3.77	-40.3	-41.7	16.4	0.00e+00	0	28	0	75497472	52	6968
2026-01-17 16:46:56.08	21.34	3.83	-41.0	-42.6	15.9	0.00e+00	0	28	0	81788928	54	6884
2026-01-17 16:46:57.10	21.35	3.90	-36.0	-36.8	21.3	0.00e+00	0	28	0	87031808	46	5609
2026-01-17 16:46:58.11	21.35	3.97	-40.4	-41.7	16.8	0.00e+00	0	28	0	92274688	52	7003
2026-01-17 16:46:59.12	21.36	4.04	-47.0	-57.2	3.6	6.15e-01	0	28	104	96468992	60	26269
2026-01-17 16:47:00.13	21.37	4.11	-38.7	-39.7	19.8	0.00e+00	0	28	0	96468992	52	5566
2026-01-17 16:47:01.14	21.37	4.18	-46.9	-57.4	3.6	8.45e-01	0	28	104	99614720	60	26730
2026-01-17 16:47:02.15	21.38	4.25	-37.1	-38.0	18.9	7.97e-01	0	28	104	99614720	48	5715
2026-01-17 16:47:03.16	21.39	4.32	-37.1	-38.0	20.2	0.00e+00	0	28	0	101711872	48	5751
2026-01-17 16:47:04.17	21.39	4.39	-36.0	-36.8	21.6	0.00e+00	0	28	0	108003328	46	5619
2026-01-17 16:47:05.18	21.40	4.46	-36.5	-37.3	21.0	0.00e+00	0	28	0	113246208	44	6657
2026-01-17 16:47:06.19	21.41	4.53	-36.0	-36.8	21.6	0.00e+00	0	28	0	119537664	44	6282
2026-01-17 16:47:07.20	21.42	4.60	-36.0	-36.8	21.5	0.00e+00	0	28	0	124780544	44	6293
2026-01-17 16:47:08.21	21.42	4.67	-36.6	-37.5	21.0	0.00e+00	0	28	0	130023424	44	6776
2026-01-17 16:47:09.22	21.43	4.74	-35.6	-36.4	22.1	0.00e+00	0	28	0	136314880	44	5993
2026-01-17 16:47:10.23	21.44	4.82	-35.2	-36.0	22.3	0.00e+00	0	28	0	141557760	44	5746
2026-01-17 16:47:11.24	21.44	4.89	-35.5	-36.3	22.1	0.00e+00	0	28	0	147849216	44	5923
2026-01-17 16:47:12.25	21.45	4.96	-35.2	-36.0	22.4	0.00e+00	0	28	0	153092096	44	5755
2026-01-17 16:47:13.26	21.46	5.03	-35.0	-35.8	22.5	0.00e+00	0	28	0	159383552	44	5614
2026-01-17 16:47:14.27	21.46	5.10	-35.4	-36.2	22.0	0.00e+00	0	28	0	164626432	44	5830
2026-01-17 16:47:15.28	21.47	5.17	-35.0	-35.8	22.7	0.00e+00	0	28	0	170917888	44	5610
2026-01-17 16:47:16.29	21.48	5.25	-34.8	-35.6	22.6	0.00e+00	0	28	0	176160768	44	5463
2026-01-17 16:47:17.30	21.48	5.32	-35.4	-36.2	22.4	0.00e+00	0	28	0	181403648	44	5831
2026-01-17 16:47:18.31	21.49	5.39	-34.9	-35.7	22.7	0.00e+00	0	28	0	187695104	44	5507
2026-01-17 16:47:19.32	21.50	5.47	-35.3	-36.1	22.4	0.00e+00	0	28	0	192937984	44	5779
2026-01-17 16:47:20.34	21.51	5.54	-34.8	-35.5	22.9	0.00e+00	0	28	0	199229440	44	5406
2026-01-17 16:47:21.35	21.51	5.61	-34.8	-35.6	22.8	0.00e+00	0	28	0	204472320	42	6105
2026-01-17 16:47:22.35	21.52	5.69	-34.9	-35.6	22.8	0.00e+00	0	28	0	209715200	42	6142
2026-01-17 16:47:23.36	21.53	5.76	-34.9	-35.6	23.0	0.00e+00	0	28	0	216006656	42	6156
2026-01-17 16:47:24.38	21.53	5.83	-34.8	-35.5	23.0	0.00e+00	0	28	0	221249536	42	6087
2026-01-17 16:47:25.39	21.54	5.91	-34.8	-35.5	23.0	0.00e+00	0	28	0	227540992	42	6091
2026-01-17 16:47:26.40	21.55	5.98	-34.7	-35.4	23.1	0.00e+00	0	28	0	232783872	42	6029
2026-01-17 16:47:27.41	21.56	6.06	-34.4	-35.2	23.3	0.00e+00	0	28	0	238026752	42	5832
2026-01-17 16:47:28.42	21.56	6.13	-34.7	-35.4	23.1	0.00e+00	0	28	0	244318208	42	6015
2026-01-17 16:47:29.43	21.57	6.21	-34.5	-35.2	23.4	0.00e+00	0	28	0	249561088	42	5859
2026-01-17 16:47:30.44	21.58	6.28	-34.5	-35.2	23.3	0.00e+00	0	28	0	255852544	42	5849
2026-01-17 16:47:31.45	21.58	6.36	-34.4	-35.2	23.3	0.00e+00	0	28	0	261095424	42	5832
2026-01-17 16:47:32.46	21.59	6.43	-34.6	-35.3	23.2	0.00e+00	0	28	0	267386880	42	5923
2026-01-17 16:47:33.47	21.60	6.51	-34.2	-34.9	23.5	0.00e+00	0	28	0	272629760	42	5670
2026-01-17 16:47:34.48	21.61	6.59	-34.6	-35.4	23.2	0.00e+00	0	28	0	278921216	42	5975
2026-01-17 16:47:35.49	21.61	6.66	-34.7	-35.4	23.2	0.00e+00	0	28	0	284164096	42	6015
2026-01-17 16:47:36.50	21.62	6.74	-34.5	-35.2	23.4	0.00e+00	0	28	0	289406976	42	5864
2026-01-17 16:47:37.51	21.63	6.82	-34.5	-35.2	23.5	0.00e+00	0	28	0	295698432	42	5872
2026-01-17 16:47:38.52	21.63	6.89	-34.5	-35.3	23.4	0.00e+00	0	28	0	300941312	42	5912
2026-01-17 16:47:39.53	21.64	6.97	-34.1	-34.8	23.7	0.00e+00	0	28	0	307232768	42	5607
2026-01-17 16:47:40.54	21.65	7.05	-34.4	-35.1	23.5	0.00e+00	0	28	0	312475648	42	5807
2026-01-17 16:47:41.55	21.66	7.13	-34.2	-34.9	23.7	0.00e+00	0	28	0	317718528	42	5661
2026-01-17 16:47:42.56	21.66	7.20	-34.3	-35.0	23.6	0.00e+00	0	28	0	324009984	42	5729
2026-01-17 16:47:43.57	21.67	7.28	-34.5	-35.2	23.4	0.00e+00	0	28	0	329252864	42	5891
2026-01-17 16:47:44.58	21.68	7.36	-34.3	-35.0	23.6	0.00e+00	0	28	0	335544320	42	5727
2026-01-17 16:47:45.59	21.69	7.44	-34.4	-35.1	23.5	0.00e+00	0	28	0	340787200	42	5790
2026-01-17 16:47:46.61	21.69	7.52	-34.3	-35.0	23.6	0.00e+00	0	28	0	346030080	42	5703
2026-01-17 16:47:47.62	21.70	7.60	-34.3	-35.0	23.6	0.00e+00	0	28	0	352321536	42	5726
2026-01-17 16:47:48.63	21.71	7.68	-34.3	-35.0	23.5	0.00e+00	0	28	0	357564416	42	5755
2026-01-17 16:47:49.64	21.72	7.76	-34.1	-34.8	23.8	0.00e+00	0	28	0	363855872	42	5602
2026-01-17 16:47:50.65	21.72	7.84	-34.3	-35.0	23.6	0.00e+00	0	28	0	369098752	42	5732
2026-01-17 16:47:51.66	21.73	7.92	-34.2	-35.0	23.6	0.00e+00	0	28	0	375390208	42	5696
2026-01-17 16:47:52.67	21.74	8.00	-34.5	-35.2	23.4	0.00e+00	0	28	0	380633088	42	5880
2026-01-17 16:47:53.68	21.75	8.08	-34.1	-34.8	23.7	0.00e+00	0	28	0	386924544	42	5621
2026-01-17 16:47:54.69	21.75	8.16	-34.7	-35.4	23.3	0.00e+00	0	28	0	392167424	42	6014
2026-01-17 16:47:55.70	21.76	8.24	-34.5	-35.2	23.6	0.00e+00	0	28	0	397410304	42	5839
2026-01-17 16:47:56.71	21.77	8.32	-34.4	-35.1	23.6	0.00e+00	0	28	0	403701760	42	5808
2026-01-17 16:47:57.72	21.78	8.40	-34.2	-34.8	23.7	0.00e+00	0	28	0	408944640	42	5622
2026-01-17 16:47:58.73	21.78	8.49	-34.2	-34.9	23.8	0.00e+00	0	28	0	415236096	42	5674
2026-01-17 16:47:59.75	21.79	8.57	-33.9	-34.6	24.0	0.00e+00	0	28	0	420478976	42	5484
2026-01-17 16:48:00.75	21.80	8.65	-34.0	-34.7	23.9	0.00e+00	0	28	0	425721856	42	5539
2026-01-17 16:48:01.76	21.81	8.73	-34.0	-34.7	24.0	0.00e+00	0	28	0	432013312	42	5542
2026-01-17 16:48:02.77	21.81	8.82	-34.1	-34.7	23.9	0.00e+00	0	28	0	437256192	42	5562
2026-01-17 16:48:03.78	21.82	8.90	-34.2	-34.9	23.9	0.00e+00	0	28	0	443547648	42	5683
2026-01-17 16:48:04.79	21.83	8.98	-34.2	-34.9	23.9	0.00e+00	0	28	0	448790528	42	5655
2026-01-17 16:48:05.80	21.84	9.07	-34.2	-34.9	23.9	0.00e+00	0	28	0	454033408	42	5686
2026-01-17 16:48:06.81	21.85	9.15	-34.2	-34.9	23.9	0.00e+00	0	28	0	460324864	42	5671
2026-01-17 16:48:07.82	21.85	9.24	-34.1	-34.8	23.9	0.00e+00	0	28	0	465567744	42	5589
2026-01-17 16:48:08.83	21.86	9.32	-34.0	-34.7	24.0	0.00e+00	0	28	0	471859200	42	5542
2026-01-17 16:48:09.84	21.87	9.41	-33.9	-34.6	24.1	0.00e+00	0	28	0	477102080	42	5448
2026-01-17 16:48:10.85	21.88	9.49	-33.9	-34.6	24.0	0.00e+00	0	28	0	483393536	42	5483
2026-01-17 16:48:11.86	21.88	9.58	-33.9	-34.6	24.1	0.00e+00	0	28	0	488636416	42	5450
2026-01-17 16:48:12.88	21.89	9.67	-33.9	-34.6	24.2	0.00e+00	0	28	0	494927872	42	5468
2026-01-17 16:48:13.88	21.90	9.75	-33.9	-34.6	24.1	0.00e+00	0	28	0	500170752	42	5475
2026-01-17 16:48:14.89	21.91	9.84	-33.9	-34.6	24.2	0.00e+00	0	28	0	505413632	42	5455
2026-01-17 16:48:15.90	21.92	9.93	-34.0	-34.7	24.0	0.00e+00	0	28	0	511705088	42	5551
2026-01-17 16:48:16.92	21.92	10.01	-33.9	-34.6	24.1	0.00e+00	0	28	0	516947968	42	5501
2026-01-17 16:48:17.93	21.93	10.10	-33.8	-34.5	24.1	0.00e+00	0	28	0	523239424	42	5427
2026-01-17 16:48:18.94	21.94	10.19	-33.9	-34.6	24.1	0.00e+00	0	28	0	528482304	42	5443
2026-01-17 16:48:19.95	21.95	10.28	-33.8	-34.5	24.1	0.00e+00	0	28	0	533725184	40	6083
2026-01-17 16:48:20.96	21.96	10.37	-33.7	-34.4	24.2	0.00e+00	0	28	0	540016640	40	5983
2026-01-17 16:48:21.97	21.96	10.45	-33.8	-34.5	24.2	0.00e+00	0	28	0	545259520	40	6096
2026-01-17 16:48:22.98	21.97	10.54	-33.8	-34.4	24.3	0.00e+00	0	28	0	551550976	40	6031
2026-01-17 16:48:23.99	21.98	10.63	-33.8	-34.4	24.3	0.00e+00	0	28	0	556793856	40	6024
2026-01-17 16:48:25.00	21.99	10.72	-33.7	-34.4	24.3	0.00e+00	0	28	0	562036736	40	5996
2026-01-17 16:48:26.01	22.00	10.81	-33.7	-34.4	24.3	0.00e+00	0	28	0	568328192	40	5987
2026-01-17 16:48:27.02	22.01	10.90	-33.5	-34.2	24.5	0.00e+00	0	28	0	573571072	40	5874
2026-01-17 16:48:28.03	22.01	10.99	-33.7	-34.4	24.2	0.00e+00	0	28	0	579862528	40	6030
2026-01-17 16:48:29.04	22.02	11.09	-33.7	-34.4	24.3	0.00e+00	0	28	0	585105408	40	6015
2026-01-17 16:48:30.06	22.03	11.18	-33.7	-34.4	24.4	0.00e+00	0	28	0	591396864	40	6027
2026-01-17 16:48:31.07	22.04	11.27	-33.4	-34.1	24.5	0.00e+00	0	28	0	596639744	40	5794
2026-01-17 16:48:32.08	22.05	11.36	-33.6	-34.3	24.5	0.00e+00	0	28	0	602931200	40	5957
2026-01-17 16:48:33.09	22.05	11.45	-33.4	-34.1	24.5	0.00e+00	0	28	0	608174080	40	5821
2026-01-17 16:48:34.10	22.06	11.55	-33.5	-34.2	24.5	0.00e+00	0	28	0	613416960	40	5886
2026-01-17 16:48:35.11	22.07	11.64	-33.7	-34.3	24.5	0.00e+00	0	28	0	619708416	40	5963
2026-01-17 16:48:36.12	22.08	11.73	-33.5	-34.2	24.4	0.00e+00	0	28	0	624951296	40	5896
2026-01-17 16:48:37.13	22.09	11.83	-33.4	-34.1	24.6	0.00e+00	0	28	0	631242752	40	5809
2026-01-17 16:48:38.14	22.10	11.92	-33.4	-34.0	24.7	0.00e+00	0	28	0	636485632	40	5757
2026-01-17 16:48:39.15	22.11	12.02	-33.3	-34.0	24.7	0.00e+00	0	28	0	641728512	40	5725
2026-01-17 16:48:40.16	22.11	12.11	-33.4	-34.1	24.6	0.00e+00	0	28	0	648019968	40	5817
2026-01-17 16:48:41.17	22.12	12.21	-33.4	-34.1	24.7	0.00e+00	0	28	0	653262848	40	5784
2026-01-17 16:48:42.18	22.13	12.30	-33.5	-34.2	24.5	0.00e+00	0	28	0	659554304	40	5874
2026-01-17 16:48:43.19	22.14	12.40	-33.5	-34.2	24.6	0.00e+00	0	28	0	664797184	40	5855
2026-01-17 16:48:44.20	22.15	12.50	-33.5	-34.2	24.6	0.00e+00	0	28	0	670040064	40	5868
2026-01-17 16:48:45.21	22.16	12.59	-33.5	-34.2	24.6	0.00e+00	0	28	0	676331520	40	5837
2026-01-17 16:48:46.22	22.17	12.69	-33.3	-34.0	24.7	0.00e+00	0	28	0	681574400	40	5738
2026-01-17 16:48:47.23	22.17	12.79	-33.5	-34.2	24.6	0.00e+00	0	28	0	687865856	40	5865
2026-01-17 16:48:48.25	22.18	12.89	-33.4	-34.0	24.8	0.00e+00	0	28	0	693108736	40	5749
2026-01-17 16:48:49.25	22.19	12.98	-33.4	-34.1	24.7	0.00e+00	0	28	0	699400192	40	5808
2026-01-17 16:48:50.26	22.20	13.08	-33.4	-34.1	24.7	0.00e+00	0	28	0	704643072	40	5802
2026-01-17 16:48:51.27	22.21	13.18	-33.3	-34.0	24.8	0.00e+00	0	28	0	709885952	40	5708
2026-01-17 16:48:52.28	22.22	13.28	-33.3	-34.0	24.8	0.00e+00	0	28	0	716177408	40	5758
2026-01-17 16:48:53.29	22.23	13.38	-33.2	-33.9	24.9	0.00e+00	0	28	0	721420288	40	5678
2026-01-17 16:48:54.30	22.24	13.48	-33.3	-34.0	24.8	0.00e+00	0	28	0	727711744	40	5699
2026-01-17 16:48:55.31	22.24	13.58	-33.2	-33.9	24.9	0.00e+00	0	28	0	732954624	40	5657
2026-01-17 16:48:56.32	22.25	13.69	-33.3	-33.9	24.8	0.00e+00	0	28	0	738197504	40	5691
2026-01-17 16:48:57.33	22.26	13.79	-33.2	-33.9	24.9	0.00e+00	0	28	0	744488960	40	5663
2026-01-17 16:48:58.34	22.27	13.89	-33.2	-33.8	24.9	0.00e+00	0	28	0	749731840	40	5622
2026-01-17 16:48:59.35	22.28	13.99	-33.2	-33.9	24.8	0.00e+00	0	28	0	756023296	40	5655
2026-01-17 16:49:00.36	22.29	14.10	-33.0	-33.7	25.1	0.00e+00	0	28	0	761266176	40	5512
2026-01-17 16:49:01.37	22.30	14.20	-33.1	-33.8	25.0	0.00e+00	0	28	0	766509056	40	5582
2026-01-17 16:49:02.38	22.31	14.30	-33.0	-33.7	25.1	0.00e+00	0	28	0	772800512	40	5540
2026-01-17 16:49:03.39	22.32	14.41	-32.9	-33.5	25.2	0.00e+00	0	28	0	778043392	40	5432
2026-01-17 16:49:04.40	22.33	14.51	-32.8	-33.5	25.2	0.00e+00	0	28	0	784334848	40	5411
2026-01-17 16:49:05.41	22.34	14.62	-32.9	-33.6	25.1	0.00e+00	0	28	0	789577728	40	5460
2026-01-17 16:49:06.42	22.35	14.72	-32.7	-33.4	25.4	0.00e+00	0	28	0	795869184	38	5981
2026-01-17 16:49:07.43	22.35	14.83	-32.7	-33.4	25.5	0.00e+00	0	28	0	801112064	38	5972
2026-01-17 16:49:08.44	22.36	14.94	-32.7	-33.3	25.5	0.00e+00	0	28	0	807403520	38	5924
2026-01-17 16:49:09.45	22.37	15.04	-32.5	-33.2	25.5	0.00e+00	0	28	0	812646400	38	5874
2026-01-17 16:49:10.46	22.38	15.15	-32.7	-33.4	25.5	0.00e+00	0	28	0	817889280	38	6002
2026-01-17 16:49:11.47	22.39	15.26	-32.4	-33.0	25.7	0.00e+00	0	28	0	824180736	38	5758
2026-01-17 16:49:12.48	22.40	15.37	-32.5	-33.1	25.6	0.00e+00	0	28	0	829423616	38	5805
2026-01-17 16:49:13.50	22.41	15.48	-32.4	-33.0	25.6	0.00e+00	0	28	0	835715072	38	5741
2026-01-17 16:49:14.51	22.42	15.59	-32.3	-33.0	25.8	0.00e+00	0	28	0	840957952	38	5699
2026-01-17 16:49:15.51	22.43	15.70	-32.2	-32.8	25.9	0.00e+00	0	28	0	846200832	38	5616
2026-01-17 16:49:16.53	22.44	15.81	-32.2	-32.9	25.9	0.00e+00	0	28	0	852492288	38	5652
2026-01-17 16:49:17.54	22.45	15.92	-32.3	-32.9	25.9	0.00e+00	0	28	0	857735168	38	5695
2026-01-17 16:49:18.55	22.46	16.03	-32.2	-32.8	25.9	0.00e+00	0	29	0	864026624	38	5601
2026-01-17 16:49:19.56	22.47	16.15	-32.0	-32.7	26.0	0.00e+00	0	28	0	869269504	38	5511
2026-01-17 16:49:20.57	22.48	16.26	-32.0	-32.6	26.1	0.00e+00	0	28	0	874512384	38	5462
2026-01-17 16:49:21.58	22.49	16.37	-32.0	-32.6	25.9	0.00e+00	0	28	0	880803840	38	5476
2026-01-17 16:49:22.59	22.50	16.48	-31.9	-32.5	26.2	0.00e+00	0	28	0	886046720	38	5430
2026-01-17 16:49:23.60	22.51	16.60	-31.9	-32.5	26.1	0.00e+00	0	28	0	892338176	38	5419
2026-01-17 16:49:24.61	22.52	16.71	-32.0	-32.6	26.2	0.00e+00	0	28	0	897581056	38	5487
2026-01-17 16:49:25.62	22.53	16.83	-31.8	-32.4	26.3	0.00e+00	0	28	0	903872512	38	5332
2026-01-17 16:49:26.63	22.54	16.95	-31.9	-32.5	26.2	0.00e+00	0	28	0	909115392	38	5424
2026-01-17 16:49:27.64	22.55	17.06	-31.8	-32.4	26.4	0.00e+00	0	28	0	915406848	38	5351
2026-01-17 16:49:28.65	22.56	17.18	-31.8	-32.5	26.2	0.00e+00	0	28	0	920649728	36	6063
2026-01-17 16:49:29.66	22.57	17.30	-31.7	-32.3	26.2	0.00e+00	0	28	0	925892608	36	5946
2026-01-17 16:49:30.67	22.58	17.41	-31.7	-32.4	26.3	0.00e+00	0	28	0	932184064	36	5976
2026-01-17 16:49:31.68	22.59	17.53	-31.7	-32.4	26.3	0.00e+00	0	28	0	937426944	36	5980
2026-01-17 16:49:32.69	22.60	17.65	-31.7	-32.4	26.5	0.00e+00	0	28	0	943718400	36	5979
2026-01-17 16:49:33.70	22.61	17.77	-31.6	-32.3	26.4	0.00e+00	0	28	0	948961280	36	5925
2026-01-17 16:49:34.71	22.62	17.89	-31.6	-32.2	26.5	0.00e+00	0	28	0	954204160	36	5882
2026-01-17 16:49:35.72	22.63	18.01	-31.5	-32.1	26.5	0.00e+00	0	28	0	960495616	36	5809
2026-01-17 16:49:36.73	22.64	18.14	-31.6	-32.2	26.5	0.00e+00	0	28	0	965738496	36	5879
2026-01-17 16:49:37.74	22.65	18.26	-31.4	-32.1	26.6	0.00e+00	0	28	0	972029952	36	5785
2026-01-17 16:49:38.75	22.66	18.38	-31.4	-32.0	26.8	0.00e+00	0	28	0	977272832	36	5741
2026-01-17 16:49:39.77	22.68	18.51	-31.4	-32.0	26.6	0.00e+00	0	28	0	982515712	36	5750
2026-01-17 16:49:40.78	22.69	18.63	-31.2	-31.8	26.8	0.00e+00	0	28	0	988807168	36	5615
2026-01-17 16:49:41.79	22.70	18.76	-31.4	-32.0	26.6	0.00e+00	0	28	0	994050048	36	5719
2026-01-17 16:49:42.80	22.71	18.88	-31.2	-31.8	26.8	0.00e+00	0	28	0	1000341504	36	5615
2026-01-17 16:49:43.81	22.72	19.01	-31.2	-31.8	26.8	0.00e+00	0	28	0	1005584384	36	5610
2026-01-17 16:49:44.82	22.73	19.13	-31.1	-31.7	26.9	0.00e+00	0	28	0	1011875840	36	5563
2026-01-17 16:49:45.83	22.74	19.26	-31.1	-31.7	26.8	0.00e+00	0	28	0	1017118720	36	5560
2026-01-17 16:49:46.84	22.75	19.39	-31.1	-31.8	26.9	0.00e+00	0	28	0	1023410176	36	5582
2026-01-17 16:49:47.85	22.76	19.52	-31.1	-31.7	27.0	0.00e+00	0	28	0	1028653056	36	5536
2026-01-17 16:49:48.86	22.77	19.65	-31.0	-31.6	27.0	0.00e+00	0	28	0	1033895936	36	5468
2026-01-17 16:49:49.87	22.79	19.78	-31.0	-31.6	27.0	0.00e+00	0	28	0	1040187392	36	5492
2026-01-17 16:49:50.88	22.80	19.91	-31.0	-31.6	27.1	0.00e+00	0	28	0	1045430272	36	5453
2026-01-17 16:49:51.89	22.81	20.04	-31.0	-31.5	27.0	0.00e+00	0	28	0	1051721728	36	5437
2026-01-17 16:49:52.90	22.82	20.17	-30.8	-31.4	27.2	0.00e+00	0	28	0	1056964608	36	5358
2026-01-17 16:49:53.91	22.83	20.30	-30.9	-31.4	27.2	0.00e+00	0	29	0	1062207488	36	5374
2026-01-17 16:49:54.92	22.84	20.44	-30.8	-31.4	27.2	0.00e+00	0	28	0	1068498944	36	5340
2026-01-17 16:49:55.93	22.86	20.57	-30.8	-31.4	27.2	0.00e+00	0	29	0	1073741824	36	5355
2026-01-17 16:49:56.94	22.87	20.71	-30.7	-31.3	27.3	0.00e+00	0	28	0	1080033280	34	5922
2026-01-17 16:49:57.96	22.88	20.84	-30.7	-31.3	27.3	0.00e+00	0	28	0	1085276160	34	5941
2026-01-17 16:49:58.97	22.89	20.98	-30.7	-31.3	27.3	0.00e+00	0	29	0	1090519040	34	5945
2026-01-17 16:49:59.98	22.90	21.12	-30.7	-31.4	27.2	0.00e+00	0	28	0	1096810496	34	5975
2026-01-17 16:50:00.99	22.91	21.26	-30.6	-31.2	27.4	0.00e+00	0	29	0	1102053376	34	5884
2026-01-17 16:50:02.00	22.93	21.40	-30.7	-31.3	27.3	0.00e+00	0	28	0	1108344832	34	5937
2026-01-17 16:50:03.01	22.94	21.53	-30.8	-31.4	27.3	0.00e+00	0	28	0	1113587712	34	5969
2026-01-17 16:50:04.02	22.95	21.68	-30.9	-31.5	27.2	0.00e+00	0	28	0	1119879168	34	6077
2026-01-17 16:50:05.03	22.96	21.82	-30.8	-31.4	27.2	0.00e+00	0	29	0	1125122048	34	6028
2026-01-17 16:50:06.04	22.98	21.96	-30.8	-31.4	27.2	0.00e+00	0	28	0	1131413504	34	6008
2026-01-17 16:50:07.05	22.99	22.10	-30.8	-31.4	27.3	0.00e+00	0	29	0	1136656384	34	6033
2026-01-17 16:50:08.06	23.00	22.24	-30.7	-31.4	27.2	0.00e+00	0	29	0	1141899264	34	5976
2026-01-17 16:50:09.07	23.01	22.39	-30.8	-31.4	27.3	0.00e+00	0	29	0	1148190720	34	5996
2026-01-17 16:50:10.08	23.03	22.53	-30.7	-31.3	27.3	0.00e+00	0	28	0	1153433600	34	5959
2026-01-17 16:50:11.09	23.04	22.68	-30.8	-31.4	27.3	0.00e+00	0	29	0	1159725056	34	6006
2026-01-17 16:50:12.10	23.05	22.83	-30.8	-31.4	27.3	0.00e+00	0	28	0	1164967936	34	5974
2026-01-17 16:50:13.11	23.06	22.97	-30.8	-31.4	27.3	0.00e+00	0	29	0	1170210816	34	5988
2026-01-17 16:50:14.12	23.08	23.12	-30.7	-31.3	27.3	0.00e+00	0	28	0	1176502272	34	5955
2026-01-17 16:50:15.13	23.09	23.27	-30.5	-31.1	27.5	0.00e+00	0	28	0	1181745152	34	5814
2026-01-17 16:50:16.14	23.10	23.42	-30.6	-31.2	27.4	0.00e+00	0	28	0	1188036608	34	5858
2026-01-17 16:50:17.15	23.12	23.57	-30.5	-31.1	27.4	0.00e+00	0	28	0	1193279488	34	5805
2026-01-17 16:50:18.16	23.13	23.73	-30.5	-31.2	27.5	0.00e+00	0	28	0	1198522368	34	5832
2026-01-17 16:50:19.17	23.14	23.88	-30.3	-30.9	27.6	0.00e+00	0	28	0	1204813824	34	5634
2026-01-17 16:50:20.18	23.16	24.03	-30.2	-30.9	27.8	0.00e+00	0	28	0	1210056704	34	5640
2026-01-17 16:50:21.19	23.17	24.19	-30.2	-30.8	27.7	0.00e+00	0	28	0	1216348160	34	5590
2026-01-17 16:50:22.20	23.18	24.34	-30.0	-30.6	27.9	0.00e+00	0	28	0	1221591040	34	5452
2026-01-17 16:50:23.21	23.20	24.50	-30.0	-30.6	27.9	0.00e+00	0	28	0	1227882496	34	5470
2026-01-17 16:50:24.22	23.21	24.66	-30.2	-30.8	27.8	0.00e+00	0	29	0	1233125376	34	5573
2026-01-17 16:50:25.23	23.23	24.82	-30.1	-30.6	27.8	0.00e+00	0	28	0	1239416832	34	5500
2026-01-17 16:50:26.24	23.24	24.97	-29.8	-30.4	28.0	0.00e+00	0	29	0	1244659712	34	5362
2026-01-17 16:50:27.25	23.25	25.13	-29.8	-30.5	27.9	0.00e+00	0	29	0	1249902592	34	5384
2026-01-17 16:50:28.26	23.27	25.30	-29.9	-30.4	28.0	0.00e+00	0	28	0	1256194048	34	5376
2026-01-17 16:50:29.27	23.28	25.46	-29.9	-30.5	27.9	0.00e+00	0	29	0	1261436928	34	5423
2026-01-17 16:50:30.29	23.30	25.62	-30.0	-30.6	27.9	0.00e+00	0	28	0	1267728384	34	5444
2026-01-17 16:50:31.30	23.31	25.79	-30.0	-30.6	27.9	0.00e+00	0	29	0	1272971264	34	5444
2026-01-17 16:50:32.31	23.33	25.95	-30.1	-30.7	27.8	0.00e+00	0	29	0	1278214144	34	5515
2026-01-17 16:50:33.32	23.34	26.12	-30.0	-30.6	27.9	0.00e+00	0	28	0	1284505600	34	5479
2026-01-17 16:50:34.33	23.36	26.29	-30.0	-30.6	28.0	0.00e+00	0	28	0	1289748480	34	5453
2026-01-17 16:50:35.34	23.37	26.46	-29.9	-30.6	27.9	0.00e+00	0	28	0	1296039936	34	5441
2026-01-17 16:50:36.35	23.39	26.63	-29.9	-30.5	28.0	0.00e+00	0	29	0	1301282816	34	5384
2026-01-17 16:50:37.36	23.40	26.80	-29.8	-30.4	27.9	0.00e+00	0	29	0	1306525696	34	5344
2026-01-17 16:50:38.37	23.42	26.97	-29.8	-30.4	28.0	0.00e+00	0	28	0	1312817152	34	5340
2026-01-17 16:50:39.38	23.43	27.14	-30.0	-30.6	27.9	0.00e+00	0	28	0	1318060032	34	5443
2026-01-17 16:50:40.39	23.45	27.32	-29.9	-30.5	27.9	0.00e+00	0	28	0	1324351488	34	5395
2026-01-17 16:50:41.40	23.47	27.49	-30.0	-30.6	27.9	0.00e+00	0	28	0	1329594368	34	5501
2026-01-17 16:50:42.41	23.48	27.67	-29.9	-30.5	28.0	0.00e+00	0	28	0	1335885824	34	5421
2026-01-17 16:50:43.42	23.50	27.84	-30.0	-30.6	27.9	0.00e+00	0	28	0	1341128704	34	5452
2026-01-17 16:50:44.43	23.51	28.02	-30.0	-30.6	27.9	0.00e+00	0	28	0	1347420160	34	5471
2026-01-17 16:50:45.44	23.53	28.20	-30.0	-30.6	27.9	0.00e+00	0	29	0	1352663040	34	5492
2026-01-17 16:50:46.45	23.55	28.38	-30.2	-30.8	27.8	0.00e+00	0	29	0	1357905920	34	5575
2026-01-17 16:50:47.46	23.56	28.57	-30.2	-30.8	27.8	0.00e+00	0	29	0	1364197376	34	5578
2026-01-17 16:50:48.47	23.58	28.75	-30.3	-30.9	27.7	0.00e+00	0	28	0	1369440256	34	5685
2026-01-17 16:50:49.48	23.60	28.93	-30.4	-31.0	27.6	0.00e+00	0	28	0	1375731712	34	5705
2026-01-17 16:50:50.49	23.61	29.12	-30.6	-31.3	27.4	0.00e+00	0	29	0	1380974592	34	5914
2026-01-17 16:50:51.50	23.63	29.31	-30.4	-31.0	27.6	0.00e+00	0	28	0	1386217472	34	5753
2026-01-17 16:50:52.51	23.65	29.49	-30.1	-30.7	27.9	0.00e+00	0	29	0	1392508928	34	5523
2026-01-17 16:50:53.52	23.67	29.68	-30.2	-30.8	27.8	0.00e+00	0	28	0	1397751808	34	5571
2026-01-17 16:50:54.53	23.68	29.87	-29.9	-30.5	27.9	0.00e+00	0	29	0	1404043264	34	5423
2026-01-17 16:50:55.55	23.70	30.07	-29.9	-30.5	28.0	0.00e+00	0	28	0	1409286144	34	5425
2026-01-17 16:50:56.56	23.72	30.26	-29.9	-30.5	28.0	0.00e+00	0	29	0	1414529024	34	5423
2026-01-17 16:50:57.57	23.74	30.46	-29.9	-30.5	28.0	0.00e+00	0	29	0	1420820480	34	5393
2026-01-17 16:50:58.58	23.76	30.65	-30.0	-30.6	27.9	0.00e+00	0	28	0	1426063360	34	5463
2026-01-17 16:50:59.59	23.77	30.85	-29.9	-30.5	28.1	0.00e+00	0	29	0	1432354816	34	5388
2026-01-17 16:51:00.60	23.79	31.05	-29.7	-30.3	28.2	0.00e+00	0	28	0	1437597696	32	5912
2026-01-17 16:51:01.61	23.81	31.25	-29.7	-30.3	28.2	0.00e+00	0	29	0	1443889152	32	5922
2026-01-17 16:51:02.62	23.83	31.45	-29.6	-30.2	28.2	0.00e+00	0	29	0	1449132032	32	5887
2026-01-17 16:51:03.63	23.85	31.65	-29.8	-30.4	28.1	0.00e+00	0	29	0	1455423488	32	5991
2026-01-17 16:51:04.64	23.87	31.86	-29.9	-30.5	28.1	0.00e+00	0	29	0	1460666368	32	6087
2026-01-17 16:51:05.65	23.89	32.06	-30.0	-30.6	28.0	0.00e+00	0	28	0	1465909248	32	6128
2026-01-17 16:51:06.66	23.91	32.27	-29.9	-30.5	28.1	0.00e+00	0	29	0	1472200704	32	6091
2026-01-17 16:51:07.67	23.93	32.48	-29.9	-30.6	28.0	0.00e+00	0	29	0	1477443584	32	6120
2026-01-17 16:51:08.69	23.95	32.69	-29.9	-30.5	28.1	0.00e+00	0	28	0	1483735040	32	6038
2026-01-17 16:51:09.70	23.97	32.90	-30.0	-30.7	27.9	0.00e+00	0	28	0	1488977920	32	6180
2026-01-17 16:51:10.71	23.99	33.11	-30.0	-30.6	27.9	0.00e+00	0	28	0	1494220800	32	6149
2026-01-17 16:51:11.72	24.01	33.33	-30.1	-30.7	27.9	0.00e+00	0	28	0	1500512256	32	6186
2026-01-17 16:51:12.73	24.03	33.54	-30.1	-30.7	27.8	0.00e+00	0	29	0	1505755136	32	6211
2026-01-17 16:51:13.74	24.05	33.76	-29.9	-30.5	28.0	0.00e+00	0	28	0	1512046592	32	6084
2026-01-17 16:51:14.75	24.08	33.98	-30.0	-30.5	28.0	0.00e+00	0	29	0	1517289472	32	6101
2026-01-17 16:51:15.76	24.10	34.20	-29.8	-30.4	28.0	0.00e+00	0	29	0	1522532352	32	6023
2026-01-17 16:51:16.77	24.12	34.42	-29.9	-30.5	28.0	0.00e+00	0	29	0	1528823808	32	6074
2026-01-17 16:51:17.78	24.14	34.65	-29.9	-30.5	28.1	0.00e+00	0	29	0	1534066688	32	6066
2026-01-17 16:51:18.79	24.16	34.87	-29.7	-30.3	28.2	0.00e+00	0	29	0	1540358144	32	5944
2026-01-17 16:51:19.80	24.19	35.10	-29.8	-30.4	28.1	0.00e+00	0	28	0	1545601024	32	6004
2026-01-17 16:51:20.81	24.21	35.33	-29.7	-30.3	28.2	0.00e+00	0	28	0	1551892480	32	5914
2026-01-17 16:51:21.82	24.23	35.56	-29.9	-30.6	28.0	0.00e+00	0	28	0	1557135360	32	6116
2026-01-17 16:51:22.83	24.26	35.79	-29.5	-30.2	28.3	0.00e+00	0	28	0	1563426816	32	5835
2026-01-17 16:51:23.84	24.28	36.03	-29.4	-30.0	28.4	0.00e+00	0	29	0	1568669696	32	5715
2026-01-17 16:51:24.85	24.31	36.26	-29.2	-29.8	28.6	0.00e+00	0	29	0	1573912576	32	5591
2026-01-17 16:51:25.86	24.33	36.50	-29.3	-29.9	28.5	0.00e+00	0	29	0	1580204032	32	5660
2026-01-17 16:51:26.87	24.35	36.74	-29.4	-30.0	28.4	0.00e+00	0	29	0	1585446912	32	5714
2026-01-17 16:51:27.89	24.38	36.98	-29.3	-29.9	28.5	0.00e+00	0	29	0	1591738368	32	5681
2026-01-17 16:51:28.89	24.40	37.22	-29.3	-29.9	28.4	0.00e+00	0	29	0	1596981248	32	5686
2026-01-17 16:51:29.90	24.43	37.46	-29.2	-29.9	28.6	0.00e+00	0	29	0	1602224128	32	5634
2026-01-17 16:51:30.91	24.46	37.71	-29.3	-29.9	28.5	0.00e+00	0	29	0	1608515584	32	5663
2026-01-17 16:51:31.92	24.48	37.96	-29.3	-29.9	28.5	0.00e+00	0	29	0	1613758464	32	5689
2026-01-17 16:51:32.93	24.51	38.21	-29.3	-30.0	28.5	0.00e+00	0	29	0	1620049920	32	5696
2026-01-17 16:51:33.94	24.54	38.46	-29.4	-30.0	28.4	0.00e+00	0	28	0	1625292800	32	5741
2026-01-17 16:51:34.95	24.56	38.71	-29.3	-29.9	28.5	0.00e+00	0	28	0	1630535680	32	5691
2026-01-17 16:51:35.96	24.59	38.97	-29.3	-29.9	28.5	0.00e+00	0	29	0	1636827136	32	5657
2026-01-17 16:51:36.97	24.62	39.23	-29.1	-29.7	28.6	0.00e+00	0	29	0	1642070016	32	5559
2026-01-17 16:51:37.98	24.65	39.49	-29.2	-29.8	28.6	0.00e+00	0	29	0	1648361472	32	5590
2026-01-17 16:51:38.99	24.68	39.75	-29.4	-30.0	28.4	0.00e+00	0	29	0	1653604352	32	5733
2026-01-17 16:51:40.00	24.71	40.01	-29.4	-30.0	28.4	0.00e+00	0	29	0	1659895808	32	5713
2026-01-17 16:51:41.01	24.74	40.28	-29.5	-30.1	28.3	0.00e+00	0	29	0	1665138688	32	5817
2026-01-17 16:51:42.02	24.77	40.54	-29.6	-30.2	28.3	0.00e+00	0	28	0	1670381568	32	5853
2026-01-17 16:51:43.03	24.80	40.81	-29.7	-30.3	28.2	0.00e+00	0	28	0	1676673024	32	5899
2026-01-17 16:51:44.04	24.83	41.08	-29.8	-30.4	28.2	0.00e+00	0	28	0	1681915904	32	5998
2026-01-17 16:51:45.05	24.86	41.36	-29.9	-30.5	28.1	0.00e+00	0	29	0	1688207360	32	6071
2026-01-17 16:51:46.06	24.89	41.63	-29.9	-30.5	28.1	0.00e+00	0	29	0	1693450240	32	6064
2026-01-17 16:51:47.07	24.92	41.91	-29.9	-30.5	28.1	0.00e+00	0	29	0	1698693120	32	6072
2026-01-17 16:51:48.08	24.96	42.19	-29.6	-30.1	28.3	0.00e+00	0	28	0	1704984576	32	5826
2026-01-17 16:51:49.09	24.99	42.47	-29.7	-30.3	28.3	0.00e+00	0	29	0	1710227456	32	5939
2026-01-17 16:51:50.10	25.02	42.75	-29.7	-30.3	28.1	0.00e+00	0	28	0	1716518912	32	5945
2026-01-17 16:51:51.11	25.06	43.04	-29.6	-30.2	28.2	0.00e+00	0	28	0	1721761792	32	5831
2026-01-17 16:51:52.13	25.09	43.33	-29.6	-30.2	28.3	0.00e+00	0	29	0	1728053248	32	5877
2026-01-17 16:51:53.14	25.13	43.62	-29.6	-30.2	28.3	0.00e+00	0	29	0	1733296128	32	5829
2026-01-17 16:51:54.15	25.17	43.91	-29.7	-30.3	28.1	0.00e+00	0	29	0	1738539008	32	5956
2026-01-17 16:51:55.16	25.20	44.21	-29.8	-30.3	28.2	0.00e+00	0	29	0	1744830464	32	5957
2026-01-17 16:51:56.17	25.24	44.51	-30.0	-30.6	28.0	0.00e+00	0	29	0	1750073344	32	6136
2026-01-17 16:51:57.18	25.28	44.81	-30.1	-30.7	27.9	0.00e+00	0	28	0	1756364800	32	6226
2026-01-17 16:51:58.19	25.32	45.11	-30.2	-30.8	27.8	0.00e+00	0	29	0	1761607680	32	6311
2026-01-17 16:51:59.20	25.36	45.41	-30.2	-30.8	27.9	0.00e+00	0	29	0	1767899136	32	6289
2026-01-17 16:52:00.21	25.40	45.72	-30.1	-30.7	27.9	0.00e+00	0	29	0	1773142016	32	6185
2026-01-17 16:52:01.22	25.44	46.03	-30.4	-30.9	27.7	0.00e+00	0	29	0	1778384896	32	6381
2026-01-17 16:52:02.23	25.48	46.34	-30.2	-30.8	27.8	0.00e+00	0	29	0	1784676352	32	6306
2026-01-17 16:52:03.24	25.52	46.65	-30.4	-31.0	27.7	0.00e+00	0	29	0	1789919232	32	6430
2026-01-17 16:52:04.25	25.56	46.97	-30.3	-30.9	27.8	0.00e+00	0	29	0	1796210688	32	6350
2026-01-17 16:52:05.27	25.61	47.29	-30.5	-31.1	27.6	0.00e+00	0	29	0	1801453568	32	6519
2026-01-17 16:52:06.27	25.65	47.60	-30.4	-31.1	27.6	0.00e+00	0	29	0	1807745024	32	6478
2026-01-17 16:52:07.29	25.70	47.93	-30.5	-31.2	27.6	0.00e+00	0	29	0	1812987904	32	6540
2026-01-17 16:52:08.30	25.75	48.26	-30.4	-31.0	27.7	0.00e+00	0	28	0	1818230784	32	6406
2026-01-17 16:52:09.30	25.79	48.58	-30.4	-31.0	27.7	0.00e+00	0	28	0	1824522240	32	6437
2026-01-17 16:52:10.31	25.84	48.91	-30.1	-30.7	27.8	0.00e+00	0	29	0	1829765120	32	6208
2026-01-17 16:52:11.32	25.89	49.24	-29.8	-30.4	28.2	0.00e+00	0	29	0	1835008000	32	6015
2026-01-17 16:52:12.33	25.94	49.58	-29.8	-30.4	28.1	0.00e+00	0	29	0	1841299456	32	6025
2026-01-17 16:52:13.34	25.99	49.92	-30.1	-30.7	27.9	0.00e+00	0	28	0	1846542336	32	6187
2026-01-17 16:52:14.35	26.04	50.26	-30.4	-31.0	27.6	0.00e+00	0	29	0	1852833792	32	6431
2026-01-17 16:52:15.36	26.10	50.60	-30.4	-31.0	27.7	0.00e+00	0	29	0	1858076672	32	6427
2026-01-17 16:52:16.38	26.15	50.95	-30.5	-31.1	27.6	0.00e+00	0	29	0	1864368128	32	6524
2026-01-17 16:52:17.39	26.21	51.30	-30.3	-30.9	27.6	0.00e+00	0	28	0	1869611008	32	6355
2026-01-17 16:52:18.40	26.26	51.65	-30.5	-31.1	27.5	0.00e+00	0	29	0	1875902464	32	6517
2026-01-17 16:52:19.41	26.32	52.00	-31.3	-32.0	27.1	0.00e+00	0	29	0	1881145344	34	6391
2026-01-17 16:52:20.42	26.38	52.36	-31.4	-32.0	26.9	0.00e+00	0	29	0	1886388224	34	6451
2026-01-17 16:52:21.43	26.44	52.71	-30.9	-31.5	27.3	0.00e+00	0	28	0	1892679680	34	6097
2026-01-17 16:52:22.44	26.51	53.07	-30.2	-30.8	27.8	0.00e+00	0	29	0	1897922560	34	5575
2026-01-17 16:52:23.45	26.57	53.44	-30.2	-30.8	27.8	0.00e+00	0	29	0	1904214016	34	5598
2026-01-17 16:52:24.46	26.63	53.80	-30.5	-31.2	27.6	0.00e+00	0	29	0	1909456896	34	5852
2026-01-17 16:52:25.47	26.70	54.17	-31.2	-31.8	27.1	0.00e+00	0	29	0	1914699776	34	6261
2026-01-17 16:52:26.48	26.77	54.54	-31.5	-32.2	26.7	0.00e+00	0	29	0	1920991232	34	6563
2026-01-17 16:52:27.49	26.84	54.92	-31.5	-32.1	26.9	0.00e+00	0	29	0	1926234112	34	6511
2026-01-17 16:52:28.50	26.91	55.29	-31.2	-31.8	27.0	0.00e+00	0	29	0	1932525568	34	6311
2026-01-17 16:52:29.51	26.99	55.67	-31.1	-31.7	27.1	0.00e+00	0	28	0	1937768448	34	6216
2026-01-17 16:52:30.52	27.06	56.06	-31.0	-31.7	27.2	0.00e+00	0	29	0	1943011328	34	6174
2026-01-17 16:52:31.53	27.14	56.44	-30.9	-31.6	27.3	0.00e+00	0	29	0	1949302784	34	6112
2026-01-17 16:52:32.54	27.22	56.83	-31.1	-31.7	27.1	0.00e+00	0	29	0	1954545664	34	6234
2026-01-17 16:52:33.55	27.30	57.22	-31.0	-31.6	27.2	0.00e+00	0	28	0	1960837120	34	6162
2026-01-17 16:52:34.56	27.39	57.61	-31.3	-31.9	27.0	0.00e+00	0	29	0	1966080000	34	6356
2026-01-17 16:52:35.57	27.47	58.00	-31.4	-32.1	26.9	0.00e+00	0	28	0	1972371456	34	6489
2026-01-17 16:52:36.58	27.56	58.40	-31.2	-31.9	27.0	0.00e+00	0	29	0	1977614336	34	6347
2026-01-17 16:52:37.59	27.65	58.80	-30.5	-31.2	27.6	0.00e+00	0	29	0	1982857216	34	5842
2026-01-17 16:52:38.60	27.75	59.20	-30.2	-30.8	27.8	0.00e+00	0	29	0	1989148672	34	5600
2026-01-17 16:52:39.61	27.85	59.61	-30.0	-30.6	28.0	0.00e+00	0	29	0	1994391552	34	5490
2026-01-17 16:52:40.62	27.95	60.02	-30.0	-30.7	28.0	0.00e+00	0	28	0	2000683008	34	5518
2026-01-17 16:52:41.63	28.05	60.43	-29.8	-30.4	28.1	0.00e+00	0	29	0	2005925888	34	5340
2026-01-17 16:52:42.64	28.16	60.84	-29.8	-30.4	28.1	0.00e+00	0	29	0	2012217344	34	5346
2026-01-17 16:52:43.65	28.27	61.26	-29.8	-30.4	28.1	0.00e+00	0	29	0	2017460224	34	5352
2026-01-17 16:52:44.66	28.38	61.68	-29.6	-30.2	28.2	0.00e+00	0	29	0	2022703104	32	5855
2026-01-17 16:52:45.67	28.50	62.10	-29.7	-30.2	28.1	0.00e+00	0	29	0	2028994560	32	5896
2026-01-17 16:52:46.68	28.62	62.52	-29.7	-30.3	28.0	0.00e+00	0	29	0	2034237440	32	5943
2026-01-17 16:52:47.69	28.74	62.95	-29.5	-30.2	28.2	0.00e+00	0	28	0	2040528896	32	5832
2026-01-17 16:52:48.70	28.87	63.38	-29.1	-29.7	28.6	0.00e+00	0	29	0	2045771776	32	5563
2026-01-17 16:52:49.71	29.01	63.81	-29.2	-29.7	28.5	0.00e+00	0	28	0	2051014656	32	5566
2026-01-17 16:52:50.72	29.15	64.24	-29.1	-29.6	28.6	0.00e+00	0	28	0	2057306112	32	5502
2026-01-17 16:52:51.73	29.29	64.68	-29.0	-29.6	28.7	0.00e+00	0	29	0	2062548992	32	5459
2026-01-17 16:52:52.74	29.44	65.12	-29.0	-29.6	28.7	0.00e+00	0	28	0	2068840448	32	5447
2026-01-17 16:52:53.75	29.60	65.56	-29.3	-29.9	28.4	0.00e+00	0	29	0	2074083328	32	5684
2026-01-17 16:52:54.76	29.76	66.00	-29.6	-30.2	28.3	0.00e+00	0	29	0	2080374784	32	5841
2026-01-17 16:52:55.77	29.93	66.45	-29.6	-30.2	28.3	0.00e+00	0	28	0	2085617664	32	5863
2026-01-17 16:52:56.78	30.11	66.89	-29.5	-30.1	28.4	0.00e+00	0	28	0	2090860544	32	5788
2026-01-17 16:52:57.79	30.29	67.34	-29.3	-29.9	28.5	0.00e+00	0	29	0	2097152000	32	5647
2026-01-17 16:52:58.80	30.48	67.80	-29.1	-29.7	28.7	0.00e+00	0	28	0	2102394880	32	5516
2026-01-17 16:52:59.81	30.68	68.25	-29.2	-29.8	28.6	0.00e+00	0	28	0	2108686336	32	5598
2026-01-17 16:53:00.82	30.89	68.71	-29.2	-29.7	28.6	0.00e+00	0	28	0	2113929216	32	5559
2026-01-17 16:53:01.83	31.11	69.16	-28.7	-29.3	28.9	0.00e+00	0	29	0	2120220672	30	5956
2026-01-17 16:53:02.85	31.34	69.63	-28.6	-29.2	28.9	0.00e+00	0	29	0	2125463552	30	5891
2026-01-17 16:53:03.86	31.59	70.09	-28.6	-29.2	28.9	0.00e+00	0	29	0	2130706432	30	5855
2026-01-17 16:53:04.87	31.84	70.56	-28.7	-29.3	28.9	0.00e+00	0	28	0	2136997888	30	5950
2026-01-17 16:53:05.88	32.10	71.02	-28.9	-29.5	28.8	0.00e+00	0	29	0	2142240768	30	6050
2026-01-17 16:53:06.88	32.38	71.49	-29.1	-29.7	28.6	0.00e+00	0	28	0	2148532224	30	6184
2026-01-17 16:53:07.90	32.68	71.96	-28.8	-29.4	28.8	0.00e+00	0	28	0	2153775104	30	6011
2026-01-17 16:53:08.91	32.99	72.43	-28.9	-29.5	28.7	0.00e+00	0	29	0	2159017984	30	6056
2026-01-17 16:53:09.92	33.32	72.90	-29.1	-29.6	28.6	0.00e+00	0	28	0	2165309440	30	6172
2026-01-17 16:53:10.92	33.67	73.37	-28.5	-29.1	29.1	0.00e+00	0	29	0	2170552320	30	5815
2026-01-17 16:53:11.93	34.04	73.85	-28.2	-28.7	29.3	0.00e+00	0	29	0	2176843776	30	5557
2026-01-17 16:53:12.94	34.43	74.33	-28.1	-28.7	29.3	0.00e+00	0	29	0	2182086656	30	5542
2026-01-17 16:53:13.95	34.85	74.80	-28.2	-28.8	29.4	0.00e+00	0	29	0	2187329536	30	5585
2026-01-17 16:53:14.96	35.30	75.28	-28.0	-28.6	29.4	0.00e+00	0	28	0	2193620992	30	5485
2026-01-17 16:53:15.97	35.78	75.76	-28.0	-28.6	29.4	0.00e+00	0	28	0	2198863872	30	5455
2026-01-17 16:53:16.98	36.29	76.24	-28.0	-28.6	29.4	0.00e+00	0	29	0	2205155328	30	5457
2026-01-17 16:53:17.99	36.84	76.72	-28.0	-28.5	29.4	0.00e+00	0	29	0	2210398208	30	5421
2026-01-17 16:53:19.00	37.44	77.21	-27.9	-28.5	29.5	0.00e+00	0	28	0	2216689664	30	5393
2026-01-17 16:53:20.01	38.08	77.69	-27.7	-28.3	29.5	0.00e+00	0	28	0	2221932544	28	5912
2026-01-17 16:53:21.02	38.77	78.17	-27.4	-28.0	29.8	0.00e+00	0	28	0	2227175424	28	5726
2026-01-17 16:53:22.03	39.53	78.65	-27.4	-28.0	29.8	0.00e+00	0	28	0	2233466880	28	5696
2026-01-17 16:53:23.04	40.35	79.13	-27.1	-27.7	29.9	0.00e+00	0	28	0	2238709760	28	5523
2026-01-17 16:53:24.05	41.25	79.61	-27.1	-27.6	30.0	0.00e+00	0	28	0	2245001216	28	5488
2026-01-17 16:53:25.07	42.25	80.09	-26.9	-27.5	30.1	0.00e+00	0	28	0	2250244096	28	5381
2026-01-17 16:53:26.08	43.34	80.56	-27.1	-27.7	29.9	0.00e+00	0	28	0	2256535552	28	5535
2026-01-17 16:53:27.09	44.54	81.04	-27.0	-27.6	30.0	0.00e+00	0	29	0	2261778432	28	5467
2026-01-17 16:53:28.10	45.88	81.51	-26.7	-27.3	30.2	0.00e+00	0	29	0	2267021312	28	5312
2026-01-17 16:53:29.11	47.38	81.97	-26.9	-27.4	30.0	0.00e+00	0	29	0	2273312768	26	6014
2026-01-17 16:53:30.12	49.07	82.43	-26.8	-27.4	30.0	0.00e+00	0	29	0	2278555648	26	6021
2026-01-17 16:53:31.13	50.97	82.89	-27.0	-27.5	30.0	0.00e+00	0	28	0	2284847104	26	6091
2026-01-17 16:53:32.14	53.13	83.33	-26.9	-27.4	30.0	0.00e+00	0	28	0	2290089984	26	6030
2026-01-17 16:53:33.15	55.60	83.77	-27.1	-27.7	29.9	0.00e+00	0	28	0	2295332864	26	6239
2026-01-17 16:53:34.17	58.47	84.19	-27.0	-27.6	30.0	0.00e+00	0	28	0	2301624320	26	6132
2026-01-17 16:53:35.17	61.71	84.60	-27.1	-27.7	29.9	0.00e+00	0	29	0	2306867200	26	6187
2026-01-17 16:53:36.19	65.55	84.99	-27.4	-28.0	29.8	0.00e+00	0	29	0	2313158656	26	6447
2026-01-17 16:53:37.19	69.92	85.35	-27.4	-27.9	29.8	0.00e+00	0	29	0	2318401536	26	6378
2026-01-17 16:53:38.20	75.04	85.68	-27.3	-27.8	29.9	0.00e+00	0	29	0	2324692992	26	6291
2026-01-17 16:53:39.22	81.02	85.97	-27.3	-27.8	29.8	0.00e+00	0	29	0	2329935872	26	6305
2026-01-17 16:53:40.22	87.71	86.21	-27.2	-27.7	29.7	0.00e+00	0	29	0	2336227328	26	6239
2026-01-17 16:53:41.23	95.26	86.39	-27.3	-27.9	29.8	0.00e+00	0	29	0	2341470208	26	6365
2026-01-17 16:53:42.24	103.47	86.51	-27.3	-27.9	29.8	0.00e+00	0	28	0	2346713088	26	6329
2026-01-17 16:53:43.25	112.04	86.55	-27.3	-27.8	29.7	0.00e+00	0	29	0	2353004544	26	6295
2026-01-17 16:53:44.26	120.61	86.51	-27.5	-28.0	29.8	0.00e+00	0	28	0	2358247424	26	6446
2026-01-17 16:53:45.27	128.82	86.39	-27.4	-27.9	29.9	0.00e+00	0	29	0	2364538880	26	6352
2026-01-17 16:53:46.28	136.38	86.21	-27.2	-27.8	29.8	0.00e+00	0	29	0	2369781760	26	6289
2026-01-17 16:53:47.30	143.21	85.97	-27.4	-28.0	29.6	0.00e+00	0	29	0	2375024640	26	6433
2026-01-17 16:53:48.31	149.12	85.68	-27.3	-27.8	29.6	0.00e+00	0	29	0	2381316096	26	6300
2026-01-17 16:53:49.32	154.24	85.35	-27.3	-27.9	29.3	0.00e+00	0	29	0	2386558976	26	6333
2026-01-17 16:53:50.33	158.66	84.98	-27.2	-27.8	29.8	0.00e+00	0	29	0	2392850432	26	6287
2026-01-17 16:53:51.34	162.45	84.60	-27.0	-27.6	30.0	0.00e+00	0	28	0	2398093312	26	6152
2026-01-17 16:53:52.35	165.73	84.19	-26.9	-27.4	30.1	0.00e+00	0	29	0	2403336192	26	6004
2026-01-17 16:53:53.36	168.56	83.77	-27.0	-27.7	29.8	0.00e+00	0	29	0	2409627648	26	6183
2026-01-17 16:53:54.37	171.03	83.33	-27.2	-27.8	29.9	0.00e+00	0	29	0	2414870528	26	6270
2026-01-17 16:53:55.38	173.20	82.88	-27.2	-27.8	29.8	0.00e+00	0	29	0	2421161984	26	6303
2026-01-17 16:53:56.39	175.10	82.43	-27.4	-28.1	29.6	0.00e+00	0	29	0	2426404864	26	6477
2026-01-17 16:53:57.40	176.78	81.97	-27.2	-27.8	29.8	0.00e+00	0	29	0	2432696320	26	6248
2026-01-17 16:53:58.41	178.28	81.50	-27.1	-27.7	29.9	0.00e+00	0	29	0	2437939200	26	6243
2026-01-17 16:53:59.42	179.62	81.03	-27.2	-27.7	29.9	0.00e+00	0	29	0	2443182080	26	6236
2026-01-17 16:54:00.43	180.83	80.56	-27.2	-27.7	29.9	0.00e+00	0	28	0	2449473536	26	6245
2026-01-17 16:54:01.43	181.91	80.09	-26.9	-27.5	30.1	0.00e+00	0	29	0	2454716416	26	6060
2026-01-17 16:54:02.44	182.90	79.61	-27.1	-27.7	30.0	0.00e+00	0	28	0	2461007872	26	6200
2026-01-17 16:54:03.46	183.81	79.13	-27.5	-28.0	29.8	0.00e+00	0	29	0	2466250752	26	6439
2026-01-17 16:54:04.47	184.63	78.65	-27.9	-28.5	29.4	0.00e+00	0	28	0	2471493632	28	6040
2026-01-17 16:54:05.48	185.39	78.17	-28.0	-28.6	29.3	0.00e+00	0	28	0	2477785088	28	6150
2026-01-17 16:54:06.49	186.08	77.68	-28.0	-28.5	29.1	0.00e+00	0	28	0	2483027968	28	6080
2026-01-17 16:54:07.50	186.72	77.20	-28.2	-28.8	29.3	0.00e+00	0	29	0	2489319424	28	6280
2026-01-17 16:54:08.51	187.32	76.72	-27.8	-28.3	29.5	0.00e+00	0	28	0	2494562304	28	5956
2026-01-17 16:54:09.52	187.87	76.24	-27.6	-28.2	29.5	0.00e+00	0	29	0	2499805184	28	5868
2026-01-17 16:54:10.53	188.38	75.76	-27.6	-28.1	29.6	0.00e+00	0	28	0	2506096640	28	5797
2026-01-17 16:54:11.54	188.86	75.28	-27.7	-28.3	29.4	0.00e+00	0	28	0	2511339520	28	5917
2026-01-17 16:54:12.55	189.31	74.80	-28.2	-28.8	29.1	0.00e+00	0	29	0	2517630976	28	6254
2026-01-17 16:54:13.56	189.73	74.32	-28.0	-28.6	29.2	0.00e+00	0	28	0	2522873856	28	6112
2026-01-17 16:54:14.58	190.13	73.84	-28.1	-28.6	29.2	0.00e+00	0	29	0	2529165312	28	6147
2026-01-17 16:54:15.59	190.50	73.36	-28.3	-28.9	29.1	0.00e+00	0	29	0	2534408192	28	6329
2026-01-17 16:54:16.59	190.84	72.89	-28.3	-28.9	29.0	0.00e+00	0	29	0	2540699648	28	6328
2026-01-17 16:54:17.60	191.17	72.42	-28.4	-29.1	28.9	0.00e+00	0	28	0	2545942528	28	6481
2026-01-17 16:54:18.61	191.49	71.95	-28.6	-29.2	28.9	0.00e+00	0	29	0	2551185408	28	6541
2026-01-17 16:54:19.62	191.78	71.48	-28.5	-29.0	29.0	0.00e+00	0	29	0	2557476864	28	6455
2026-01-17 16:54:20.63	192.06	71.01	-28.4	-29.0	29.0	0.00e+00	0	29	0	2562719744	28	6427
2026-01-17 16:54:21.64	192.33	70.54	-28.4	-29.0	29.1	0.00e+00	0	29	0	2569011200	28	6427
2026-01-17 16:54:22.66	192.58	70.07	-28.5	-29.2	28.9	0.00e+00	0	29	0	2574254080	28	6590
2026-01-17 16:54:23.66	192.82	69.61	-28.7	-29.3	28.9	0.00e+00	0	29	0	2579496960	28	6641
2026-01-17 16:54:24.67	193.05	69.15	-28.6	-29.3	28.9	0.00e+00	0	29	0	2585788416	28	6628
2026-01-17 16:54:25.68	193.27	68.69	-28.7	-29.3	28.8	0.00e+00	0	29	0	2591031296	30	5900
2026-01-17 16:54:26.69	193.48	68.23	-28.9	-29.5	28.7	0.00e+00	0	29	0	2597322752	30	6073
2026-01-17 16:54:27.70	193.68	67.78	-29.2	-29.8	28.5	0.00e+00	0	29	0	2602565632	30	6287
2026-01-17 16:54:28.71	193.87	67.32	-29.2	-29.8	28.4	0.00e+00	0	29	0	2607808512	30	6304
2026-01-17 16:54:29.72	194.05	66.87	-28.8	-29.3	28.9	0.00e+00	0	29	0	2614099968	30	5906
2026-01-17 16:54:30.73	194.23	66.42	-29.0	-29.6	28.6	0.00e+00	0	29	0	2619342848	30	6167
2026-01-17 16:54:31.74	194.40	65.98	-29.2	-29.8	28.6	0.00e+00	0	29	0	2625634304	30	6268
2026-01-17 16:54:32.75	194.56	65.53	-29.0	-29.6	28.6	0.00e+00	0	29	0	2630877184	30	6108
2026-01-17 16:54:33.76	194.72	65.09	-29.1	-29.7	28.6	0.00e+00	0	29	0	2637168640	30	6241
2026-01-17 16:54:34.77	194.87	64.65	-29.0	-29.6	28.7	0.00e+00	0	29	0	2642411520	30	6150
2026-01-17 16:54:35.78	195.01	64.22	-28.9	-29.5	28.8	0.00e+00	0	29	0	2648702976	30	6095
2026-01-17 16:54:36.79	195.15	63.78	-29.1	-29.7	28.6	0.00e+00	0	28	0	2653945856	30	6236
2026-01-17 16:54:37.80	195.29	63.35	-29.4	-30.0	28.4	0.00e+00	0	29	0	2659188736	30	6432
2026-01-17 16:54:38.81	195.42	62.92	-29.2	-29.9	28.5	0.00e+00	0	29	0	2665480192	30	6354
2026-01-17 16:54:39.82	195.54	62.49	-29.1	-29.7	28.6	0.00e+00	0	29	0	2670723072	30	6213
2026-01-17 16:54:40.83	195.67	62.07	-29.1	-29.7	28.5	0.00e+00	0	29	0	2677014528	30	6190
2026-01-17 16:54:41.84	195.78	61.65	-29.2	-29.7	28.5	0.00e+00	0	28	0	2682257408	30	6211
2026-01-17 16:54:42.85	195.90	61.23	-29.2	-29.7	28.5	0.00e+00	0	29	0	2687500288	30	6199
2026-01-17 16:54:43.86	196.01	60.81	-29.3	-29.8	28.5	0.00e+00	0	29	0	2693791744	30	6314
2026-01-17 16:54:44.87	196.11	60.39	-29.5	-30.1	28.2	0.00e+00	0	29	0	2699034624	30	6522
2026-01-17 16:54:45.88	196.22	59.98	-29.6	-30.2	28.2	0.00e+00	0	29	0	2705326080	30	6569
2026-01-17 16:54:46.89	196.32	59.57	-29.5	-30.2	28.2	0.00e+00	0	29	0	2710568960	30	6571
2026-01-17 16:54:47.90	196.41	59.17	-29.7	-30.3	28.2	0.00e+00	0	28	0	2715811840	30	6676
2026-01-17 16:54:48.91	196.51	58.76	-29.9	-30.4	28.1	0.00e+00	0	28	0	2722103296	32	6026
2026-01-17 16:54:49.93	196.60	58.36	-30.0	-30.7	27.8	0.00e+00	0	28	0	2727346176	32	6190
2026-01-17 16:54:50.94	196.69	57.96	-30.2	-30.8	27.8	0.00e+00	0	29	0	2733637632	32	6300
2026-01-17 16:54:51.94	196.78	57.57	-30.4	-31.0	27.5	0.00e+00	0	29	0	2738880512	32	6407
2026-01-17 16:54:52.96	196.86	57.17	-30.7	-31.4	27.2	0.00e+00	0	28	0	2745171968	32	6735
2026-01-17 16:54:53.97	196.94	56.78	-30.4	-31.0	27.6	0.00e+00	0	29	0	2750414848	32	6450
2026-01-17 16:54:54.98	197.02	56.39	-30.2	-30.7	27.6	0.00e+00	0	29	0	2756706304	32	6196
2026-01-17 16:54:55.99	197.10	56.01	-30.4	-31.0	27.4	0.00e+00	0	29	0	2761949184	32	6411
2026-01-17 16:54:57.00	197.17	55.62	-30.8	-31.6	27.0	0.00e+00	0	28	0	2767192064	34	6108
2026-01-17 16:54:58.01	197.25	55.24	-31.0	-31.6	26.8	0.00e+00	0	29	0	2773483520	34	6156
2026-01-17 16:54:59.02	197.32	54.86	-30.8	-31.4	27.0	0.00e+00	0	29	0	2778726400	34	5999
2026-01-17 16:55:00.03	197.39	54.49	-30.7	-31.2	27.3	0.00e+00	0	29	0	2785017856	34	5865
2026-01-17 16:55:01.04	197.46	54.12	-30.7	-31.3	27.2	0.00e+00	0	29	0	2790260736	34	5898
2026-01-17 16:55:02.05	197.53	53.75	-30.8	-31.4	27.3	0.00e+00	0	29	0	2795503616	34	6024
2026-01-17 16:55:03.06	197.59	53.38	-30.8	-31.5	27.3	0.00e+00	0	29	0	2801795072	34	6072
2026-01-17 16:55:04.07	197.65	53.02	-30.7	-31.4	27.4	0.00e+00	0	29	0	2807037952	34	5999
2026-01-17 16:55:05.08	197.72	52.65	-30.5	-31.1	27.6	0.00e+00	0	29	0	2813329408	34	5779
2026-01-17 16:55:06.09	197.78	52.30	-30.2	-30.7	27.8	0.00e+00	0	29	0	2818572288	34	5516
2026-01-17 16:55:07.10	197.84	51.94	-29.8	-30.5	28.0	0.00e+00	0	29	0	2823815168	34	5388
2026-01-17 16:55:08.11	197.89	51.59	-30.0	-30.5	28.1	0.00e+00	0	29	0	2830106624	34	5415
2026-01-17 16:55:09.12	197.95	51.23	-30.2	-30.7	27.8	0.00e+00	0	29	0	2835349504	34	5527
2026-01-17 16:55:10.13	198.01	50.88	-30.3	-30.8	27.7	0.00e+00	0	29	0	2841640960	34	5622
2026-01-17 16:55:11.14	198.06	50.54	-30.1	-30.8	27.9	0.00e+00	0	28	0	2846883840	34	5617
2026-01-17 16:55:12.15	198.11	50.19	-29.6	-30.2	28.2	0.00e+00	0	29	0	2853175296	32	5843
2026-01-17 16:55:13.16	198.17	49.85	-29.3	-29.8	28.5	0.00e+00	0	29	0	2858418176	32	5579
2026-01-17 16:55:14.17	198.22	49.51	-29.1	-29.8	28.5	0.00e+00	0	29	0	2863661056	32	5592
2026-01-17 16:55:15.18	198.27	49.18	-29.4	-29.9	28.5	0.00e+00	0	29	0	2869952512	32	5639
2026-01-17 16:55:16.19	198.32	48.84	-29.7	-30.2	28.2	0.00e+00	0	29	0	2875195392	32	5878
2026-01-17 16:55:17.20	198.36	48.51	-30.0	-30.5	27.9	0.00e+00	0	29	0	2881486848	32	6091
2026-01-17 16:55:18.21	198.41	48.18	-30.0	-30.6	28.0	0.00e+00	0	29	0	2886729728	32	6109
2026-01-17 16:55:19.22	198.46	47.86	-30.1	-30.7	27.8	0.00e+00	0	29	0	2891972608	32	6177
2026-01-17 16:55:20.23	198.50	47.53	-29.8	-30.4	28.1	0.00e+00	0	29	0	2898264064	32	5971
2026-01-17 16:55:21.24	198.55	47.21	-29.8	-30.3	28.1	0.00e+00	0	28	0	2903506944	32	5958
2026-01-17 16:55:22.25	198.59	46.89	-29.6	-30.2	28.3	0.00e+00	0	29	0	2909798400	32	5895
2026-01-17 16:55:23.27	198.63	46.57	-29.5	-30.0	28.3	0.00e+00	0	29	0	2915041280	32	5748
2026-01-17 16:55:24.27	198.68	46.26	-29.5	-30.0	28.3	0.00e+00	0	29	0	2921332736	32	5758
2026-01-17 16:55:25.28	198.72	45.95	-29.6	-30.1	28.2	0.00e+00	0	29	0	2926575616	32	5792
2026-01-17 16:55:26.29	198.76	45.64	-29.6	-30.1	28.2	0.00e+00	0	29	0	2931818496	32	5794
2026-01-17 16:55:27.30	198.80	45.34	-29.7	-30.3	28.2	0.00e+00	0	29	0	2938109952	32	5930
2026-01-17 16:55:28.31	198.84	45.03	-29.6	-30.2	28.2	0.00e+00	0	28	0	2943352832	32	5844
2026-01-17 16:55:29.32	198.88	44.73	-29.6	-30.3	28.2	0.00e+00	0	29	0	2949644288	32	5908
2026-01-17 16:55:30.33	198.91	44.43	-29.3	-29.9	28.4	0.00e+00	0	29	0	2954887168	32	5642
2026-01-17 16:55:31.34	198.95	44.13	-29.3	-29.8	28.5	0.00e+00	0	29	0	2961178624	32	5607
2026-01-17 16:55:32.35	198.99	43.83	-29.5	-30.0	28.3	0.00e+00	0	29	0	2966421504	32	5712
2026-01-17 16:55:33.36	199.02	43.54	-29.5	-30.0	28.3	0.00e+00	0	29	0	2971664384	32	5717
2026-01-17 16:55:34.38	199.06	43.25	-29.5	-30.0	28.3	0.00e+00	0	29	0	2977955840	32	5732
2026-01-17 16:55:35.39	199.09	42.96	-29.6	-30.1	28.2	0.00e+00	0	29	0	2983198720	32	5794
2026-01-17 16:55:36.39	199.13	42.67	-29.7	-30.2	28.1	0.00e+00	0	29	0	2989490176	32	5877
2026-01-17 16:55:37.41	199.16	42.39	-29.7	-30.2	28.1	0.00e+00	0	29	0	2994733056	32	5894
2026-01-17 16:55:38.42	199.19	42.10	-29.7	-30.2	28.2	0.00e+00	0	29	0	2999975936	32	5866
2026-01-17 16:55:39.43	199.23	41.82	-29.6	-30.2	28.2	0.00e+00	0	29	0	3006267392	32	5832
2026-01-17 16:55:40.44	199.26	41.54	-29.6	-30.2	28.2	0.00e+00	0	29	0	3011510272	32	5838
2026-01-17 16:55:41.45	199.29	41.27	-29.6	-30.1	28.2	0.00e+00	0	29	0	3017801728	32	5827
2026-01-17 16:55:42.46	199.32	40.99	-29.4	-29.9	28.5	0.00e+00	0	29	0	3023044608	32	5667
2026-01-17 16:55:43.47	199.35	40.72	-29.3	-29.9	28.4	0.00e+00	0	29	0	3028287488	32	5646
2026-01-17 16:55:44.48	199.38	40.45	-29.3	-29.8	28.4	0.00e+00	0	29	0	3034578944	32	5620
2026-01-17 16:55:45.49	199.41	40.18	-29.2	-29.7	28.5	0.00e+00	0	29	0	3039821824	32	5557
2026-01-17 16:55:46.50	199.44	39.92	-29.3	-29.9	28.5	0.00e+00	0	29	0	3046113280	32	5639
2026-01-17 16:55:47.51	199.47	39.65	-29.3	-29.9	28.4	0.00e+00	0	29	0	3051356160	32	5639
2026-01-17 16:55:48.52	199.50	39.39	-29.2	-29.8	28.5	0.00e+00	0	29	0	3057647616	32	5570
2026-01-17 16:55:49.53	199.53	39.13	-29.3	-29.9	28.5	0.00e+00	0	29	0	3062890496	32	5631
2026-01-17 16:55:50.54	199.56	38.87	-29.2	-29.8	28.4	0.00e+00	0	29	0	3069181952	32	5591
2026-01-17 16:55:51.55	199.58	38.62	-29.2	-29.8	28.5	0.00e+00	0	29	0	3074424832	32	5581
2026-01-17 16:55:52.56	199.61	38.36	-29.0	-29.5	28.7	0.00e+00	0	29	0	3079667712	32	5409
2026-01-17 16:55:53.57	199.64	38.11	-29.0	-29.7	28.6	0.00e+00	0	29	0	3085959168	32	5516
2026-01-17 16:55:54.59	199.66	37.86	-28.9	-29.4	28.7	0.00e+00	0	29	0	3091202048	32	5369
2026-01-17 16:55:55.60	199.69	37.61	-28.8	-29.4	28.7	0.00e+00	0	29	0	3097493504	32	5367
2026-01-17 16:55:56.61	199.72	37.36	-28.9	-29.5	28.8	0.00e+00	0	29	0	3102736384	32	5419
2026-01-17 16:55:57.62	199.74	37.12	-28.8	-29.5	28.8	0.00e+00	0	29	0	3107979264	32	5404
2026-01-17 16:55:58.63	199.77	36.87	-29.0	-29.6	28.7	0.00e+00	0	29	0	3114270720	32	5485
2026-01-17 16:55:59.64	199.79	36.63	-29.1	-29.7	28.6	0.00e+00	0	29	0	3119513600	32	5523
2026-01-17 16:56:00.65	199.82	36.39	-29.1	-29.7	28.6	0.00e+00	0	29	0	3125805056	32	5507
2026-01-17 16:56:01.66	199.84	36.15	-29.3	-29.8	28.5	0.00e+00	0	29	0	3131047936	32	5620
2026-01-17 16:56:02.67	199.86	35.92	-29.2	-29.7	28.5	0.00e+00	0	29	0	3136290816	32	5538
2026-01-17 16:56:03.68	199.89	35.68	-29.1	-29.8	28.5	0.00e+00	0	29	0	3142582272	32	5605
2026-01-17 16:56:04.69	199.91	35.45	-29.1	-29.8	28.5	0.00e+00	0	29	0	3147825152	32	5603
2026-01-17 16:56:05.70	199.93	35.22	-28.8	-29.3	28.8	0.00e+00	0	29	0	3154116608	32	5314
2026-01-17 16:56:06.71	199.96	34.99	-28.7	-29.2	28.8	0.00e+00	0	29	0	3159359488	30	5882
2026-01-17 16:56:07.72	199.98	34.76	-28.8	-29.4	28.8	0.00e+00	0	29	0	3165650944	30	6017
2026-01-17 16:56:08.73	200.00	34.54	-28.8	-29.3	28.9	0.00e+00	0	29	0	3170893824	30	5945
2026-01-17 16:56:09.74	200.02	34.31	-28.9	-29.4	28.8	0.00e+00	0	29	0	3177185280	30	5975
2026-01-17 16:56:10.75	200.04	34.09	-29.1	-29.6	28.6	0.00e+00	0	29	0	3182428160	30	6127
2026-01-17 16:56:11.76	200.07	33.87	-29.2	-29.7	28.6	0.00e+00	0	29	0	3187671040	30	6205
2026-01-17 16:56:12.77	200.09	33.65	-29.3	-29.8	28.4	0.00e+00	0	29	0	3193962496	30	6299
2026-01-17 16:56:13.78	200.11	33.43	-29.5	-30.0	28.4	0.00e+00	0	29	0	3199205376	30	6416
2026-01-17 16:56:14.79	200.13	33.21	-29.6	-30.2	28.2	0.00e+00	0	29	0	3205496832	30	6544
2026-01-17 16:56:15.80	200.15	33.00	-29.8	-30.3	28.1	0.00e+00	0	29	0	3210739712	32	5961
2026-01-17 16:56:16.81	200.17	32.79	-29.8	-30.3	28.1	0.00e+00	0	29	0	3215982592	32	5944
2026-01-17 16:56:17.82	200.19	32.57	-29.9	-30.5	28.0	0.00e+00	0	29	0	3222274048	32	6055
2026-01-17 16:56:18.83	200.21	32.36	-30.0	-30.5	28.0	0.00e+00	0	29	0	3227516928	32	6065
2026-01-17 16:56:19.84	200.23	32.15	-30.0	-30.6	27.9	0.00e+00	0	29	0	3233808384	32	6133
2026-01-17 16:56:20.85	200.25	31.95	-30.0	-30.5	27.9	0.00e+00	0	29	0	3239051264	32	6093
2026-01-17 16:56:21.87	200.27	31.74	-29.9	-30.4	28.0	0.00e+00	0	29	0	3244294144	32	6020
2026-01-17 16:56:22.88	200.29	31.53	-29.9	-30.5	27.9	0.00e+00	0	29	0	3250585600	32	6056
2026-01-17 16:56:23.89	200.31	31.33	-29.7	-30.2	28.1	0.00e+00	0	29	0	3255828480	32	5868
2026-01-17 16:56:24.90	200.33	31.13	-29.7	-30.3	28.2	0.00e+00	0	29	0	3262119936	32	5953
2026-01-17 16:56:25.91	200.34	30.93	-29.7	-30.2	28.1	0.00e+00	0	29	0	3267362816	32	5870
2026-01-17 16:56:26.92	200.36	30.73	-29.6	-30.1	28.3	0.00e+00	0	29	0	3273654272	32	5794
2026-01-17 16:56:27.93	200.38	30.53	-29.5	-30.1	28.3	0.00e+00	0	29	0	3278897152	32	5764
2026-01-17 16:56:28.94	200.40	30.33	-29.6	-30.1	28.2	0.00e+00	0	29	0	3285188608	32	5816
2026-01-17 16:56:29.95	200.42	30.14	-29.5	-30.0	28.3	0.00e+00	0	29	0	3290431488	32	5717
2026-01-17 16:56:30.96	200.43	29.94	-29.4	-29.9	28.4	0.00e+00	0	29	0	3295674368	32	5671
2026-01-17 16:56:31.97	200.45	29.75	-29.5	-30.0	28.3	0.00e+00	0	29	0	3301965824	32	5744
2026-01-17 16:56:32.98	200.47	29.56	-29.6	-30.1	28.3	0.00e+00	0	29	0	3307208704	32	5777
2026-01-17 16:56:33.99	200.49	29.37	-29.6	-30.2	28.2	0.00e+00	0	29	0	3313500160	32	5838
2026-01-17 16:56:35.00	200.50	29.18	-29.7	-30.2	28.2	0.00e+00	0	29	0	3318743040	32	5894
2026-01-17 16:56:36.01	200.52	29.00	-29.7	-30.2	28.2	0.00e+00	0	29	0	3323985920	32	5879
2026-01-17 16:56:37.03	200.54	28.81	-29.9	-30.4	28.1	0.00e+00	0	29	0	3330277376	32	6012
2026-01-17 16:56:38.03	200.55	28.62	-29.7	-30.2	28.1	0.00e+00	0	29	0	3335520256	32	5889
2026-01-17 16:56:39.04	200.57	28.44	-29.7	-30.2	28.1	0.00e+00	0	29	0	3341811712	32	5893
2026-01-17 16:56:40.05	200.58	28.26	-29.7	-30.2	28.2	0.00e+00	0	29	0	3347054592	32	5877
2026-01-17 16:56:41.06	200.60	28.08	-29.9	-30.4	28.0	0.00e+00	0	29	0	3352297472	32	6005
2026-01-17 16:56:42.07	200.62	27.90	-30.0	-30.5	27.9	0.00e+00	0	29	0	3358588928	32	6063
2026-01-17 16:56:43.09	200.63	27.72	-30.0	-30.5	27.9	0.00e+00	0	29	0	3363831808	32	6055
2026-01-17 16:56:44.10	200.65	27.54	-30.1	-30.6	28.0	0.00e+00	0	29	0	3370123264	32	6130
2026-01-17 16:56:45.11	200.66	27.36	-29.8	-30.3	28.1	0.00e+00	0	29	0	3375366144	32	5903
2026-01-17 16:56:46.12	200.68	27.19	-29.5	-30.1	28.2	0.00e+00	0	29	0	3381657600	32	5807
2026-01-17 16:56:47.13	200.69	27.01	-29.6	-30.3	28.2	0.00e+00	0	29	0	3386900480	32	5908
2026-01-17 16:56:48.14	200.71	26.84	-29.6	-30.3	28.2	0.00e+00	0	29	0	3393191936	32	5903
2026-01-17 16:56:49.15	200.72	26.67	-29.4	-30.1	28.3	0.00e+00	0	29	0	3398434816	32	5780
2026-01-17 16:56:50.16	200.74	26.49	-29.5	-30.2	28.3	0.00e+00	0	29	0	3403677696	32	5848
2026-01-17 16:56:51.17	200.75	26.32	-29.6	-30.2	28.2	0.00e+00	0	29	0	3409969152	32	5884
2026-01-17 16:56:52.18	200.77	26.16	-29.7	-30.3	28.1	0.00e+00	0	29	0	3415212032	32	5952
2026-01-17 16:56:53.19	200.78	25.99	-29.7	-30.3	28.1	0.00e+00	0	29	0	3421503488	32	5963
2026-01-17 16:56:54.20	200.80	25.82	-29.8	-30.5	28.0	0.00e+00	0	29	0	3426746368	32	6061
2026-01-17 16:56:55.21	200.81	25.65	-29.9	-30.5	28.0	0.00e+00	0	29	0	3431989248	32	6099
2026-01-17 16:56:56.22	200.83	25.49	-30.0	-30.6	27.9	0.00e+00	0	29	0	3438280704	32	6171
2026-01-17 16:56:57.23	200.84	25.33	-30.1	-30.7	27.9	0.00e+00	0	29	0	3443523584	32	6243
2026-01-17 16:56:58.24	200.85	25.16	-30.1	-30.8	27.8	0.00e+00	0	29	0	3449815040	32	6289
2026-01-17 16:56:59.25	200.87	25.00	-30.1	-30.8	27.8	0.00e+00	0	29	0	3455057920	32	6296
2026-01-17 16:57:00.27	200.88	24.84	-30.1	-30.8	27.8	0.00e+00	0	29	0	3460300800	32	6247
2026-01-17 16:57:01.27	200.90	24.68	-30.1	-30.8	27.8	0.00e+00	0	29	0	3466592256	32	6256
2026-01-17 16:57:02.28	200.91	24.52	-30.2	-30.9	27.7	0.00e+00	0	29	0	3471835136	32	6321
2026-01-17 16:57:03.29	200.92	24.36	-30.1	-30.8	27.7	0.00e+00	0	29	0	3478126592	32	6310
2026-01-17 16:57:04.30	200.94	24.21	-30.1	-30.8	27.8	0.00e+00	0	29	0	3483369472	32	6292
2026-01-17 16:57:05.32	200.95	24.05	-30.2	-30.9	27.7	0.00e+00	0	29	0	3489660928	32	6340
2026-01-17 16:57:06.32	200.96	23.90	-30.3	-31.0	27.7	0.00e+00	0	29	0	3494903808	32	6400
2026-01-17 16:57:07.33	200.98	23.74	-30.3	-31.0	27.6	0.00e+00	0	29	0	3501195264	32	6451
2026-01-17 16:57:08.35	200.99	23.59	-30.3	-30.9	27.7	0.00e+00	0	29	0	3506438144	32	6390
2026-01-17 16:57:09.36	201.00	23.43	-30.3	-31.0	27.7	0.00e+00	0	29	0	3511681024	32	6399
2026-01-17 16:57:10.37	201.01	23.28	-30.4	-31.1	27.6	0.00e+00	0	29	0	3517972480	32	6486
2026-01-17 16:57:11.38	201.03	23.13	-30.3	-31.0	27.7	0.00e+00	0	29	0	3523215360	32	6422
2026-01-17 16:57:12.39	201.04	22.98	-30.5	-31.1	27.5	0.00e+00	0	29	0	3529506816	32	6536
2026-01-17 16:57:13.40	201.05	22.83	-30.5	-31.2	27.5	0.00e+00	0	29	0	3534749696	32	6579
2026-01-17 16:57:14.41	201.06	22.69	-30.4	-31.1	27.6	0.00e+00	0	29	0	3539992576	32	6503
2026-01-17 16:57:15.42	201.08	22.54	-30.5	-31.2	27.5	0.00e+00	0	29	0	3546284032	32	6572
2026-01-17 16:57:16.43	201.09	22.39	-30.5	-31.2	27.5	0.00e+00	0	29	0	3551526912	32	6597
2026-01-17 16:57:17.44	201.10	22.25	-30.7	-31.4	27.4	0.00e+00	0	29	0	3557818368	34	5976
2026-01-17 16:57:18.45	201.11	22.10	-30.7	-31.4	27.3	0.00e+00	0	29	0	3563061248	34	5977
2026-01-17 16:57:19.46	201.13	21.96	-30.7	-31.4	27.4	0.00e+00	0	29	0	3568304128	34	5984
2026-01-17 16:57:20.47	201.14	21.82	-30.8	-31.5	27.3	0.00e+00	0	29	0	3574595584	34	6041
2026-01-17 16:57:21.48	201.15	21.67	-30.7	-31.4	27.2	0.00e+00	0	29	0	3579838464	34	6004
2026-01-17 16:57:22.49	201.16	21.53	-30.7	-31.4	27.3	0.00e+00	0	29	0	3586129920	34	6003
2026-01-17 16:57:23.50	201.17	21.39	-30.8	-31.5	27.3	0.00e+00	0	29	0	3591372800	34	6067
2026-01-17 16:57:24.51	201.18	21.25	-30.8	-31.5	27.2	0.00e+00	0	29	0	3597664256	34	6056
2026-01-17 16:57:25.52	201.20	21.11	-30.9	-31.5	27.2	0.00e+00	0	29	0	3602907136	34	6061
2026-01-17 16:57:26.53	201.21	20.97	-30.8	-31.3	27.2	0.00e+00	0	29	0	3609198592	34	5960
2026-01-17 16:57:27.53	201.22	20.84	-30.9	-31.6	27.2	0.00e+00	0	29	0	3614441472	34	6114
2026-01-17 16:57:28.54	201.23	20.70	-30.9	-31.7	27.0	0.00e+00	0	29	0	3619684352	34	6176
2026-01-17 16:57:29.55	201.24	20.56	-31.0	-31.6	27.1	0.00e+00	0	29	0	3625975808	34	6131
2026-01-17 16:57:30.56	201.25	20.43	-31.0	-31.7	27.0	0.00e+00	0	29	0	3631218688	34	6179
2026-01-17 16:57:31.57	201.26	20.29	-31.0	-31.7	27.1	0.00e+00	0	29	0	3636461568	34	6190
2026-01-17 16:57:32.58	201.27	20.16	-31.1	-31.8	27.0	0.00e+00	0	29	0	3642753024	34	6301
2026-01-17 16:57:33.60	201.29	20.03	-31.2	-31.7	26.9	0.00e+00	0	29	0	3647995904	34	6221
