passes_logs/2026/01/17/R4.6S_Anadyr/R4.6S_Anadyr__20260117_044244_FENGYUN_3D_rec.log

#Pass ID: 20260117_044244_FENGYUN 3D
#Satellite: FENGYUN 3D
#Configuration: FENGYUN 3D
#almurnet v.1.7.20251203
#Start time: 2026-01-17 04:42:46

#Version: 2.2.20231116
#Station: R4.6S_Anadyr
#Location: 177.4865 lon 64.73178 lat
#TLE: 1 43010U 17072A   26016.62453405 -.00000112  00000+0 -31355-4 0  9995
#TLE: 2 43010  98.9932 348.4654 0002369 105.3910 254.7528 14.19694900423480

#Time	Az	El	Level	Level2	SNR	BER	BlckErr	Temp	State	Recorded	gain1	gain2
2026-01-17 04:42:46.42	220.74	0.10	-48.6	-66.4	3.5	3.02e+01	0	25	0	0	60	80752
2026-01-17 04:42:47.43	220.81	0.15	-48.3	-60.4	3.6	8.46e-01	0	26	104	0	60	37872
2026-01-17 04:42:48.44	220.89	0.20	-48.0	-60.1	3.6	8.45e-01	0	26	104	0	60	36682
2026-01-17 04:42:49.45	220.97	0.25	-48.0	-60.1	3.6	8.45e-01	0	26	104	0	60	36637
2026-01-17 04:42:50.46	221.05	0.30	-48.0	-60.2	3.6	8.46e-01	0	27	104	0	60	36908
2026-01-17 04:42:51.47	221.12	0.34	-48.0	-60.1	3.6	8.46e-01	0	27	104	0	60	36753
2026-01-17 04:42:52.48	221.20	0.39	-48.0	-60.1	3.6	8.46e-01	0	27	104	0	60	36646
2026-01-17 04:42:53.49	221.28	0.44	-48.1	-60.3	3.6	8.45e-01	0	27	104	0	60	37255
2026-01-17 04:42:54.50	221.36	0.49	-48.1	-60.3	3.6	8.46e-01	0	27	104	0	60	37255
2026-01-17 04:42:55.51	221.44	0.54	-48.1	-60.2	3.6	8.46e-01	0	27	104	0	60	36932
2026-01-17 04:42:56.52	221.52	0.59	-48.0	-60.2	3.6	8.44e-01	0	27	104	0	60	36987
2026-01-17 04:42:57.52	221.60	0.64	-47.4	-60.1	3.6	8.46e-01	0	27	104	0	60	36654
2026-01-17 04:42:58.54	221.68	0.69	-47.2	-60.1	3.6	8.46e-01	0	27	104	0	60	36576
2026-01-17 04:42:59.55	221.76	0.74	-47.5	-60.0	3.6	8.45e-01	0	27	104	0	60	36175
2026-01-17 04:43:00.56	221.84	0.79	-47.7	-59.9	3.6	8.45e-01	0	27	104	0	60	35772
2026-01-17 04:43:01.56	221.92	0.84	-47.7	-59.7	3.6	8.45e-01	0	27	104	0	60	35031
2026-01-17 04:43:02.57	222.00	0.89	-47.2	-59.3	3.6	8.45e-01	0	27	104	0	60	33337
2026-01-17 04:43:03.58	222.08	0.94	-45.7	-57.4	3.6	8.45e-01	0	27	104	0	60	26702
2026-01-17 04:43:04.59	222.16	0.99	-45.2	-56.9	3.6	8.46e-01	0	27	104	0	60	25427
2026-01-17 04:43:05.60	222.24	1.04	-45.2	-56.9	3.6	8.46e-01	0	27	104	0	60	25231
2026-01-17 04:43:06.61	222.33	1.09	-45.1	-56.9	3.6	8.44e-01	0	27	104	0	60	25256
2026-01-17 04:43:07.62	222.41	1.14	-45.1	-56.9	3.6	8.46e-01	0	27	104	0	60	25176
2026-01-17 04:43:08.63	222.49	1.19	-45.1	-56.8	3.6	8.45e-01	0	27	104	0	60	25088
2026-01-17 04:43:09.64	222.57	1.24	-45.1	-56.7	3.6	8.45e-01	0	27	104	0	60	24815
2026-01-17 04:43:10.65	222.66	1.29	-45.1	-56.8	3.6	8.45e-01	0	27	104	0	60	25054
2026-01-17 04:43:11.66	222.74	1.34	-45.1	-56.8	3.6	8.45e-01	0	27	104	0	60	25097
2026-01-17 04:43:12.67	222.82	1.39	-45.1	-56.8	3.6	8.46e-01	0	27	104	0	60	25115
2026-01-17 04:43:13.68	222.91	1.44	-45.1	-56.9	3.6	8.45e-01	0	27	104	0	60	25185
2026-01-17 04:43:14.69	222.99	1.49	-45.1	-56.8	3.6	8.45e-01	0	27	104	0	60	25020
2026-01-17 04:43:15.69	223.07	1.54	-45.1	-56.8	3.6	8.44e-01	0	27	104	0	60	25143
2026-01-17 04:43:16.71	223.16	1.59	-45.1	-56.9	3.6	8.45e-01	0	27	104	0	60	25436
2026-01-17 04:43:17.71	223.24	1.64	-45.1	-56.9	3.6	8.45e-01	0	27	104	0	60	25211
2026-01-17 04:43:18.72	223.33	1.69	-45.1	-56.9	3.6	8.46e-01	0	27	104	0	60	25320
2026-01-17 04:43:19.73	223.41	1.74	-45.1	-56.9	3.6	8.45e-01	0	27	104	0	60	25208
2026-01-17 04:43:20.74	223.50	1.79	-45.1	-56.8	3.6	8.45e-01	0	27	104	0	60	24963
2026-01-17 04:43:21.75	223.59	1.84	-45.1	-56.8	3.6	8.45e-01	0	27	104	0	60	24936
2026-01-17 04:43:22.76	223.67	1.89	-45.1	-56.8	3.6	8.46e-01	0	27	104	0	60	24886
2026-01-17 04:43:23.77	223.76	1.94	-45.1	-56.6	3.5	8.46e-01	0	27	104	0	60	24441
2026-01-17 04:43:24.78	223.85	1.99	-45.1	-56.6	3.6	8.45e-01	0	27	104	0	60	24551
2026-01-17 04:43:25.79	223.93	2.04	-45.1	-56.7	3.6	8.46e-01	0	27	104	0	60	24820
2026-01-17 04:43:26.79	224.02	2.09	-45.1	-56.7	3.6	8.45e-01	0	28	104	0	60	24592
2026-01-17 04:43:27.80	224.11	2.14	-45.1	-56.7	3.6	8.45e-01	0	28	104	0	60	24760
2026-01-17 04:43:28.81	224.20	2.19	-45.1	-56.8	3.6	8.45e-01	0	27	104	0	60	24882
2026-01-17 04:43:29.82	224.28	2.24	-45.1	-56.6	3.6	8.45e-01	0	28	104	0	60	24533
2026-01-17 04:43:30.83	224.37	2.29	-45.1	-56.6	3.6	8.46e-01	0	27	104	0	60	24318
2026-01-17 04:43:31.84	224.46	2.34	-45.0	-55.9	3.6	8.46e-01	0	27	104	0	60	22656
2026-01-17 04:43:32.85	224.55	2.40	-45.0	-55.8	3.6	8.45e-01	0	28	104	0	60	22390
2026-01-17 04:43:33.86	224.64	2.45	-45.0	-55.5	3.6	8.46e-01	0	27	104	0	60	21506
2026-01-17 04:43:34.87	224.73	2.50	-44.9	-54.6	3.6	8.45e-01	0	27	104	0	60	19375
2026-01-17 04:43:35.88	224.82	2.55	-44.6	-52.4	4.4	8.30e-01	0	27	104	0	60	15023
2026-01-17 04:43:36.89	224.91	2.60	-44.2	-49.6	5.4	7.68e-01	0	28	0	0	60	10934
2026-01-17 04:43:37.90	225.00	2.65	-43.4	-47.4	7.7	1.17e-01	0	28	0	5242880	60	8444
2026-01-17 04:43:38.91	225.09	2.70	-42.5	-45.7	9.9	2.46e-02	0	27	0	10485760	58	7784
2026-01-17 04:43:39.91	225.18	2.75	-41.7	-44.3	11.7	1.21e-03	0	28	0	16777216	56	7438
2026-01-17 04:43:40.92	225.27	2.80	-40.9	-43.1	12.7	8.69e-05	0	28	0	22020096	56	6469
2026-01-17 04:43:41.93	225.37	2.85	-40.5	-42.6	13.4	1.48e-04	0	28	0	27262976	54	6883
2026-01-17 04:43:42.94	225.46	2.91	-40.8	-42.9	12.8	2.97e-05	0	28	0	33554432	54	7152
2026-01-17 04:43:43.95	225.55	2.96	-41.2	-43.5	12.1	2.31e-04	0	28	0	38797312	54	7615
2026-01-17 04:43:44.96	225.64	3.01	-42.4	-45.6	9.9	4.12e-03	0	28	0	45088768	56	8640
2026-01-17 04:43:45.97	225.74	3.06	-45.4	-55.7	3.6	2.54e-04	0	28	104	49283072	60	21951
2026-01-17 04:43:46.98	225.83	3.11	-42.2	-45.1	5.7	8.35e-01	0	28	104	49283072	60	6517
2026-01-17 04:43:47.99	225.92	3.16	-45.0	-54.2	3.6	1.26e-03	0	28	104	49283072	60	18628
2026-01-17 04:43:49.01	226.02	3.21	-44.4	-51.5	4.0	8.39e-01	0	28	104	49283072	60	13655
2026-01-17 04:43:50.02	226.11	3.27	-42.7	-45.9	9.3	2.29e-02	0	28	0	49283072	56	8953
2026-01-17 04:43:51.02	226.21	3.32	-42.0	-44.6	11.6	1.20e-02	0	28	0	55574528	58	6911
2026-01-17 04:43:52.04	226.30	3.37	-41.6	-44.0	12.1	8.25e-04	0	28	0	60817408	56	7203
2026-01-17 04:43:53.04	226.40	3.42	-41.2	-43.4	12.4	9.04e-05	0	28	0	67108864	56	6743
2026-01-17 04:43:54.05	226.49	3.47	-41.5	-43.9	12.1	1.70e-04	0	28	0	72351744	56	7145
2026-01-17 04:43:55.06	226.59	3.52	-41.5	-43.9	11.8	3.70e-04	0	28	0	77594624	56	7166
2026-01-17 04:43:56.07	226.68	3.57	-41.4	-43.7	12.4	4.08e-04	0	28	0	83886080	56	6962
2026-01-17 04:43:57.08	226.78	3.63	-41.3	-43.6	12.4	1.26e-04	0	28	0	89128960	56	6857
2026-01-17 04:43:58.09	226.88	3.68	-41.6	-44.0	12.2	1.81e-04	0	28	0	95420416	56	7183
2026-01-17 04:43:59.10	226.98	3.73	-42.0	-44.6	12.1	8.89e-04	0	28	0	100663296	56	7706
2026-01-17 04:44:00.11	227.07	3.78	-41.8	-44.2	12.0	3.63e-04	0	28	0	105906176	56	7341
2026-01-17 04:44:01.12	227.17	3.83	-41.8	-44.1	12.5	4.97e-04	0	28	0	112197632	56	7320
2026-01-17 04:44:02.13	227.27	3.88	-41.7	-44.0	12.1	2.35e-04	0	28	0	117440512	56	7225
2026-01-17 04:44:03.14	227.37	3.94	-41.9	-44.4	12.0	6.00e-04	0	28	0	123731968	56	7517
2026-01-17 04:44:04.15	227.47	3.99	-42.1	-44.6	11.9	6.72e-04	0	28	0	128974848	56	7761
2026-01-17 04:44:05.16	227.57	4.04	-41.6	-43.9	12.7	3.26e-04	0	28	0	134217728	56	7114
2026-01-17 04:44:06.17	227.67	4.09	-42.0	-44.4	12.4	1.04e-04	0	28	0	140509184	56	7546
2026-01-17 04:44:07.18	227.77	4.14	-41.8	-44.0	13.0	1.23e-04	0	28	0	145752064	56	7177
2026-01-17 04:44:08.19	227.87	4.20	-41.2	-43.1	13.9	4.50e-06	0	28	0	152043520	56	6519
2026-01-17 04:44:09.20	227.97	4.25	-41.0	-42.8	14.3	3.40e-06	0	28	0	157286400	56	6297
2026-01-17 04:44:10.21	228.07	4.30	-41.2	-43.1	14.1	2.20e-06	0	28	0	163577856	56	6496
2026-01-17 04:44:11.22	228.17	4.35	-41.5	-43.5	13.7	4.50e-06	0	28	0	168820736	56	6797
2026-01-17 04:44:12.23	228.27	4.40	-41.4	-43.3	14.0	5.70e-06	0	28	0	174063616	56	6646
2026-01-17 04:44:13.24	228.37	4.46	-41.4	-43.3	14.1	2.20e-06	0	28	0	180355072	56	6642
2026-01-17 04:44:14.25	228.47	4.51	-41.7	-43.7	13.5	1.14e-05	0	28	0	185597952	56	6999
2026-01-17 04:44:15.26	228.58	4.56	-41.9	-44.0	13.3	1.94e-05	0	28	0	191889408	56	7236
2026-01-17 04:44:16.28	228.68	4.61	-41.9	-44.0	13.2	5.60e-05	0	28	0	197132288	56	7248
2026-01-17 04:44:17.29	228.78	4.67	-41.8	-43.9	13.2	2.86e-05	0	28	0	202375168	56	7110
2026-01-17 04:44:18.29	228.89	4.72	-41.9	-44.1	13.1	6.52e-05	0	28	0	208666624	56	7308
2026-01-17 04:44:19.31	228.99	4.77	-42.0	-44.2	12.9	6.06e-05	0	28	0	213909504	56	7413
2026-01-17 04:44:20.32	229.10	4.82	-41.9	-44.1	13.2	5.83e-05	0	28	0	220200960	56	7297
2026-01-17 04:44:21.33	229.20	4.88	-42.0	-44.2	13.0	6.06e-05	0	28	0	225443840	56	7387
2026-01-17 04:44:22.34	229.31	4.93	-42.0	-44.1	13.1	4.69e-05	0	28	0	230686720	56	7322
2026-01-17 04:44:23.35	229.41	4.98	-41.8	-43.9	13.3	3.08e-05	0	28	0	236978176	56	7139
2026-01-17 04:44:24.36	229.52	5.03	-42.1	-44.3	12.9	4.46e-05	0	28	0	242221056	56	7482
2026-01-17 04:44:25.36	229.62	5.08	-42.3	-44.7	12.5	8.58e-05	0	28	0	248512512	56	7779
2026-01-17 04:44:26.37	229.73	5.14	-42.0	-44.2	13.1	1.21e-04	0	28	0	253755392	56	7396
2026-01-17 04:44:27.38	229.84	5.19	-42.1	-44.3	12.9	5.83e-05	0	28	0	260046848	56	7487
2026-01-17 04:44:28.39	229.94	5.24	-42.2	-44.4	12.9	9.38e-05	0	28	0	265289728	56	7554
2026-01-17 04:44:29.40	230.05	5.29	-42.2	-44.5	13.0	5.72e-05	0	28	0	271581184	56	7602
2026-01-17 04:44:30.41	230.16	5.35	-42.2	-44.4	12.9	7.89e-05	0	28	0	276824064	56	7578
2026-01-17 04:44:31.42	230.27	5.40	-42.2	-44.4	13.0	4.80e-05	0	28	0	282066944	56	7568
2026-01-17 04:44:32.43	230.38	5.45	-42.3	-44.6	12.7	1.06e-04	0	28	0	288358400	56	7697
2026-01-17 04:44:33.44	230.49	5.51	-42.5	-44.8	12.4	1.94e-04	0	28	0	293601280	56	7912
2026-01-17 04:44:34.46	230.60	5.56	-42.3	-44.6	12.6	1.25e-04	0	28	0	299892736	56	7766
2026-01-17 04:44:35.47	230.71	5.61	-42.5	-44.8	12.6	1.58e-04	0	28	0	305135616	56	7923
2026-01-17 04:44:36.47	230.82	5.66	-42.6	-44.8	12.7	1.41e-04	0	28	0	310378496	56	7920
2026-01-17 04:44:37.48	230.93	5.72	-42.5	-44.7	12.9	9.61e-05	0	28	0	316669952	56	7821
2026-01-17 04:44:38.50	231.04	5.77	-42.4	-44.7	12.8	7.89e-05	0	28	0	321912832	56	7784
2026-01-17 04:44:39.50	231.15	5.82	-42.5	-44.7	12.8	6.98e-05	0	28	0	328204288	56	7831
2026-01-17 04:44:40.51	231.26	5.87	-42.7	-45.0	12.6	1.82e-04	0	28	0	333447168	56	8081
2026-01-17 04:44:41.53	231.38	5.93	-42.8	-45.2	12.3	2.55e-04	0	28	0	338690048	58	7371
2026-01-17 04:44:42.54	231.49	5.98	-42.6	-45.0	12.7	2.55e-04	0	28	0	344981504	58	7179
2026-01-17 04:44:43.54	231.60	6.03	-42.6	-44.9	12.8	9.26e-05	0	28	0	350224384	58	7111
2026-01-17 04:44:44.55	231.71	6.09	-42.8	-45.3	12.2	2.69e-04	0	28	0	356515840	58	7488
2026-01-17 04:44:45.56	231.83	6.14	-42.8	-45.2	12.3	3.44e-04	0	28	0	361758720	58	7394
2026-01-17 04:44:46.57	231.94	6.19	-42.8	-45.2	12.3	1.90e-04	0	28	0	368050176	58	7340
2026-01-17 04:44:47.58	232.06	6.24	-42.9	-45.3	12.3	2.80e-04	0	29	0	373293056	58	7460
2026-01-17 04:44:48.59	232.17	6.30	-42.7	-45.0	12.6	2.10e-04	0	28	0	379584512	58	7197
2026-01-17 04:44:49.60	232.29	6.35	-42.5	-44.7	13.0	8.35e-05	0	28	0	384827392	58	6994
2026-01-17 04:44:50.62	232.40	6.40	-42.6	-44.9	12.9	1.06e-04	0	28	0	390070272	58	7098
2026-01-17 04:44:51.63	232.52	6.46	-42.6	-44.9	12.8	1.05e-04	0	28	0	396361728	58	7127
2026-01-17 04:44:52.64	232.64	6.51	-42.6	-44.9	12.9	6.63e-05	0	28	0	401604608	58	7107
2026-01-17 04:44:53.64	232.75	6.56	-42.5	-44.7	13.0	6.52e-05	0	28	0	407896064	58	6987
2026-01-17 04:44:54.65	232.87	6.61	-42.7	-44.9	12.7	8.69e-05	0	28	0	413138944	58	7158
2026-01-17 04:44:55.66	232.99	6.67	-42.5	-44.6	13.0	6.75e-05	0	28	0	418381824	58	6922
2026-01-17 04:44:56.67	233.11	6.72	-42.4	-44.6	13.0	5.14e-05	0	29	0	424673280	58	6891
2026-01-17 04:44:57.68	233.23	6.77	-42.3	-44.4	13.3	2.51e-05	0	29	0	429916160	58	6709
2026-01-17 04:44:58.69	233.34	6.83	-42.4	-44.6	13.1	4.00e-05	0	29	0	436207616	58	6856
2026-01-17 04:44:59.70	233.46	6.88	-42.6	-44.8	13.0	4.57e-05	0	29	0	441450496	58	7028
2026-01-17 04:45:00.71	233.58	6.93	-42.4	-44.5	13.3	2.63e-05	0	29	0	446693376	58	6831
2026-01-17 04:45:01.72	233.70	6.99	-42.5	-44.6	13.3	3.08e-05	0	29	0	452984832	58	6890
2026-01-17 04:45:02.73	233.83	7.04	-42.6	-44.7	13.1	3.43e-05	0	29	0	458227712	58	6987
2026-01-17 04:45:03.74	233.95	7.09	-42.5	-44.6	13.3	3.89e-05	0	29	0	464519168	58	6925
2026-01-17 04:45:04.75	234.07	7.14	-42.3	-44.4	13.4	1.71e-05	0	29	0	469762048	58	6722
2026-01-17 04:45:05.76	234.19	7.20	-42.4	-44.5	13.3	2.86e-05	0	29	0	476053504	58	6840
2026-01-17 04:45:06.77	234.31	7.25	-42.3	-44.4	13.4	1.94e-05	0	29	0	481296384	58	6739
2026-01-17 04:45:07.78	234.44	7.30	-42.4	-44.5	13.4	2.74e-05	0	29	0	486539264	58	6787
2026-01-17 04:45:08.79	234.56	7.36	-42.3	-44.3	13.5	1.71e-05	0	29	0	492830720	58	6662
2026-01-17 04:45:09.80	234.68	7.41	-42.1	-44.2	13.8	1.60e-05	0	29	0	498073600	58	6547
2026-01-17 04:45:10.81	234.81	7.46	-41.9	-43.9	14.0	2.20e-06	0	29	0	504365056	58	6325
2026-01-17 04:45:11.82	234.93	7.52	-41.7	-43.6	14.3	0.00e+00	0	29	0	509607936	58	6131
2026-01-17 04:45:12.83	235.06	7.57	-41.8	-43.7	14.4	2.20e-06	0	29	0	514850816	56	6939
2026-01-17 04:45:13.84	235.18	7.62	-41.8	-43.6	14.5	2.20e-06	0	29	0	521142272	56	6862
2026-01-17 04:45:14.85	235.31	7.67	-41.8	-43.6	14.5	0.00e+00	0	29	0	526385152	56	6855
2026-01-17 04:45:15.86	235.44	7.73	-41.7	-43.5	14.6	1.10e-06	0	29	0	532676608	56	6790
2026-01-17 04:45:16.87	235.56	7.78	-41.5	-43.3	14.8	0.00e+00	0	29	0	537919488	56	6627
2026-01-17 04:45:17.88	235.69	7.83	-41.4	-43.1	15.0	0.00e+00	0	29	0	543162368	56	6471
2026-01-17 04:45:18.89	235.82	7.89	-41.3	-43.0	15.1	0.00e+00	0	29	0	549453824	56	6429
2026-01-17 04:45:19.90	235.95	7.94	-41.3	-43.0	15.1	0.00e+00	0	29	0	554696704	56	6443
2026-01-17 04:45:20.91	236.07	7.99	-41.1	-42.7	15.4	0.00e+00	0	29	0	560988160	56	6184
2026-01-17 04:45:21.92	236.20	8.04	-41.0	-42.6	15.5	0.00e+00	0	29	0	566231040	56	6138
2026-01-17 04:45:22.93	236.33	8.10	-40.9	-42.5	15.6	0.00e+00	0	29	0	572522496	56	6054
2026-01-17 04:45:23.94	236.46	8.15	-40.8	-42.3	15.8	0.00e+00	0	29	0	577765376	56	5921
2026-01-17 04:45:24.95	236.59	8.20	-40.5	-41.9	16.1	0.00e+00	0	29	0	584056832	54	6366
2026-01-17 04:45:25.96	236.72	8.26	-40.5	-42.0	16.2	0.00e+00	0	29	0	589299712	54	6410
2026-01-17 04:45:26.97	236.86	8.31	-40.3	-41.7	16.3	0.00e+00	0	29	0	594542592	54	6239
2026-01-17 04:45:27.98	236.99	8.36	-40.1	-41.5	16.7	0.00e+00	0	29	0	600834048	54	6050
2026-01-17 04:45:28.99	237.12	8.41	-40.0	-41.3	16.8	0.00e+00	0	29	0	606076928	54	5960
2026-01-17 04:45:30.00	237.25	8.47	-40.0	-41.4	16.9	0.00e+00	0	29	0	612368384	54	5968
2026-01-17 04:45:31.01	237.39	8.52	-40.1	-41.4	16.8	0.00e+00	0	29	0	617611264	54	6021
2026-01-17 04:45:32.02	237.52	8.57	-39.8	-41.1	17.1	0.00e+00	0	29	0	622854144	54	5768
2026-01-17 04:45:33.03	237.65	8.63	-39.6	-40.8	17.4	0.00e+00	0	29	0	629145600	52	6265
2026-01-17 04:45:34.05	237.79	8.68	-39.5	-40.7	17.5	0.00e+00	0	29	0	634388480	52	6237
2026-01-17 04:45:35.06	237.93	8.73	-39.1	-40.3	18.0	0.00e+00	0	29	0	640679936	52	5939
2026-01-17 04:45:36.07	238.06	8.78	-39.0	-40.2	18.0	0.00e+00	0	29	0	645922816	52	5832
2026-01-17 04:45:37.08	238.20	8.84	-38.8	-40.0	18.2	0.00e+00	0	29	0	651165696	52	5697
2026-01-17 04:45:38.09	238.33	8.89	-38.5	-39.6	18.5	0.00e+00	0	29	0	657457152	50	6123
2026-01-17 04:45:39.10	238.47	8.94	-38.5	-39.6	18.5	0.00e+00	0	29	0	662700032	50	6128
2026-01-17 04:45:40.11	238.61	8.99	-38.5	-39.6	18.6	0.00e+00	0	29	0	668991488	50	6107
2026-01-17 04:45:41.12	238.75	9.05	-38.2	-39.2	18.9	0.00e+00	0	29	0	674234368	50	5876
2026-01-17 04:45:42.12	238.88	9.10	-38.2	-39.2	19.0	0.00e+00	0	29	0	680525824	50	5871
2026-01-17 04:45:43.13	239.02	9.15	-38.0	-39.0	19.2	0.00e+00	0	29	0	685768704	50	5724
2026-01-17 04:45:44.14	239.16	9.20	-37.8	-38.8	19.3	0.00e+00	0	29	0	692060160	50	5606
2026-01-17 04:45:45.15	239.30	9.26	-37.9	-38.9	19.2	0.00e+00	0	29	0	697303040	50	5673
2026-01-17 04:45:46.17	239.44	9.31	-37.7	-38.7	19.5	0.00e+00	0	29	0	702545920	48	6184
2026-01-17 04:45:47.17	239.58	9.36	-37.5	-38.5	19.7	0.00e+00	0	29	0	708837376	48	6057
2026-01-17 04:45:48.18	239.72	9.41	-37.5	-38.5	19.7	0.00e+00	0	29	0	714080256	48	6040
2026-01-17 04:45:49.19	239.87	9.47	-37.2	-38.2	20.0	0.00e+00	0	29	0	720371712	48	5843
2026-01-17 04:45:50.20	240.01	9.52	-37.2	-38.2	20.0	0.00e+00	0	29	0	725614592	48	5845
2026-01-17 04:45:51.21	240.15	9.57	-36.9	-37.8	20.3	0.00e+00	0	29	0	730857472	48	5629
2026-01-17 04:45:52.22	240.29	9.62	-36.8	-37.8	20.4	0.00e+00	0	29	0	737148928	48	5587
2026-01-17 04:45:53.23	240.44	9.67	-36.7	-37.6	20.6	0.00e+00	0	29	0	742391808	46	6150
2026-01-17 04:45:54.24	240.58	9.73	-36.7	-37.6	20.5	0.00e+00	0	29	0	748683264	46	6167
2026-01-17 04:45:55.25	240.73	9.78	-36.3	-37.2	20.9	0.00e+00	0	29	0	753926144	46	5886
2026-01-17 04:45:56.26	240.87	9.83	-36.3	-37.1	21.0	0.00e+00	0	29	0	759169024	46	5825
2026-01-17 04:45:57.27	241.02	9.88	-36.1	-37.0	21.2	0.00e+00	0	29	0	765460480	46	5704
2026-01-17 04:45:58.28	241.17	9.93	-35.9	-36.7	21.4	0.00e+00	0	29	0	770703360	46	5531
2026-01-17 04:45:59.29	241.31	9.98	-35.9	-36.8	21.4	0.00e+00	0	29	0	776994816	46	5581
2026-01-17 04:46:00.30	241.46	10.04	-35.6	-36.4	21.7	0.00e+00	0	29	0	782237696	44	5992
2026-01-17 04:46:01.31	241.61	10.09	-35.4	-36.2	21.9	0.00e+00	0	29	0	788529152	44	5871
2026-01-17 04:46:02.32	241.76	10.14	-35.3	-36.1	22.0	0.00e+00	0	29	0	793772032	44	5807
2026-01-17 04:46:03.33	241.90	10.19	-35.3	-36.1	22.0	0.00e+00	0	29	0	799014912	44	5817
2026-01-17 04:46:04.34	242.05	10.24	-35.3	-36.1	22.0	0.00e+00	0	29	0	805306368	44	5773
2026-01-17 04:46:05.35	242.20	10.29	-35.3	-36.1	22.0	0.00e+00	0	29	0	810549248	44	5775
2026-01-17 04:46:06.36	242.35	10.35	-35.0	-35.7	22.3	0.00e+00	0	29	0	816840704	44	5559
2026-01-17 04:46:07.37	242.50	10.40	-35.0	-35.8	22.3	0.00e+00	0	29	0	822083584	44	5574
2026-01-17 04:46:08.39	242.66	10.45	-34.9	-35.7	22.3	0.00e+00	0	29	0	827326464	44	5566
2026-01-17 04:46:09.40	242.81	10.50	-34.7	-35.4	22.7	0.00e+00	0	29	0	833617920	42	6032
2026-01-17 04:46:10.40	242.96	10.55	-34.6	-35.3	22.8	0.00e+00	0	29	0	838860800	42	5945
2026-01-17 04:46:11.41	243.11	10.60	-34.6	-35.4	22.8	0.00e+00	0	29	0	845152256	42	5997
2026-01-17 04:46:12.42	243.27	10.65	-34.2	-35.0	23.2	0.00e+00	0	29	0	850395136	42	5698
2026-01-17 04:46:13.44	243.42	10.70	-33.9	-34.6	23.5	0.00e+00	0	29	0	855638016	42	5498
2026-01-17 04:46:14.44	243.58	10.75	-33.9	-34.6	23.6	0.00e+00	0	29	0	861929472	42	5478
2026-01-17 04:46:15.45	243.73	10.80	-33.8	-34.5	23.6	0.00e+00	0	29	0	867172352	42	5425
2026-01-17 04:46:16.46	243.89	10.85	-33.7	-34.5	23.7	0.00e+00	0	29	0	873463808	40	6063
2026-01-17 04:46:17.48	244.04	10.91	-33.7	-34.4	23.7	0.00e+00	0	29	0	878706688	40	6017
2026-01-17 04:46:18.48	244.20	10.96	-33.4	-34.2	24.0	0.00e+00	0	29	0	884998144	40	5839
2026-01-17 04:46:19.50	244.36	11.01	-33.5	-34.2	24.0	0.00e+00	0	29	0	890241024	40	5833
2026-01-17 04:46:20.50	244.51	11.06	-33.3	-34.0	24.2	0.00e+00	0	29	0	896532480	40	5698
2026-01-17 04:46:21.52	244.67	11.11	-33.2	-33.8	24.2	0.00e+00	0	29	0	901775360	40	5625
2026-01-17 04:46:22.53	244.83	11.16	-33.1	-33.8	24.3	0.00e+00	0	29	0	907018240	40	5592
2026-01-17 04:46:23.53	244.99	11.21	-33.1	-33.8	24.4	0.00e+00	0	29	0	913309696	40	5604
2026-01-17 04:46:24.54	245.15	11.26	-33.2	-34.0	24.3	0.00e+00	0	29	0	918552576	40	5705
2026-01-17 04:46:25.55	245.31	11.31	-33.3	-34.0	24.2	0.00e+00	0	29	0	924844032	40	5715
2026-01-17 04:46:26.56	245.47	11.35	-33.2	-34.0	24.3	0.00e+00	0	29	0	930086912	40	5697
2026-01-17 04:46:27.57	245.63	11.40	-33.0	-33.7	24.4	0.00e+00	0	29	0	935329792	40	5557
2026-01-17 04:46:28.58	245.79	11.45	-32.9	-33.6	24.5	0.00e+00	0	29	0	941621248	40	5489
2026-01-17 04:46:29.59	245.95	11.50	-32.7	-33.4	24.8	0.00e+00	0	29	0	946864128	38	6010
2026-01-17 04:46:30.60	246.12	11.55	-32.7	-33.4	24.8	0.00e+00	0	29	0	953155584	38	5976
2026-01-17 04:46:31.61	246.28	11.60	-32.7	-33.4	24.8	0.00e+00	0	29	0	958398464	38	5965
2026-01-17 04:46:32.62	246.44	11.65	-32.6	-33.3	24.9	0.00e+00	0	29	0	963641344	38	5924
2026-01-17 04:46:33.63	246.61	11.70	-32.5	-33.2	25.0	0.00e+00	0	29	0	969932800	38	5863
2026-01-17 04:46:34.64	246.77	11.75	-32.4	-33.1	25.1	0.00e+00	0	29	0	975175680	38	5816
2026-01-17 04:46:35.65	246.94	11.80	-32.4	-33.1	25.1	0.00e+00	0	29	0	981467136	38	5811
2026-01-17 04:46:36.66	247.11	11.85	-32.3	-33.0	25.2	0.00e+00	0	29	0	986710016	38	5723
2026-01-17 04:46:37.67	247.27	11.89	-32.3	-33.0	25.2	0.00e+00	0	29	0	993001472	38	5731
2026-01-17 04:46:38.68	247.44	11.94	-32.3	-33.0	25.2	0.00e+00	0	29	0	998244352	38	5696
2026-01-17 04:46:39.69	247.61	11.99	-32.3	-33.0	25.2	0.00e+00	0	29	0	1004535808	38	5732
2026-01-17 04:46:40.70	247.77	12.04	-32.3	-33.0	25.2	0.00e+00	0	29	0	1009778688	38	5739
2026-01-17 04:46:41.71	247.94	12.09	-32.4	-33.1	25.1	0.00e+00	0	29	0	1015021568	38	5777
2026-01-17 04:46:42.72	248.11	12.13	-32.3	-33.0	25.2	0.00e+00	0	29	0	1021313024	38	5717
2026-01-17 04:46:43.73	248.28	12.18	-32.3	-33.0	25.2	0.00e+00	0	29	0	1026555904	38	5732
2026-01-17 04:46:44.74	248.45	12.23	-32.3	-33.0	25.2	0.00e+00	0	29	0	1032847360	38	5747
2026-01-17 04:46:45.75	248.62	12.28	-32.3	-33.0	25.2	0.00e+00	0	29	0	1038090240	38	5711
2026-01-17 04:46:46.76	248.79	12.32	-32.4	-33.1	25.2	0.00e+00	0	29	0	1043333120	38	5763
2026-01-17 04:46:47.77	248.97	12.37	-32.3	-33.0	25.2	0.00e+00	0	29	0	1049624576	38	5704
2026-01-17 04:46:48.78	249.14	12.42	-32.3	-33.0	25.2	0.00e+00	0	29	0	1054867456	38	5724
2026-01-17 04:46:49.79	249.31	12.47	-32.2	-32.9	25.3	0.00e+00	0	29	0	1060110336	38	5692
2026-01-17 04:46:50.79	249.48	12.51	-32.2	-32.8	25.4	0.00e+00	0	29	0	1066401792	38	5624
2026-01-17 04:46:51.80	249.66	12.56	-32.2	-32.9	25.3	0.00e+00	0	29	0	1071644672	38	5644
2026-01-17 04:46:52.81	249.83	12.60	-32.1	-32.8	25.3	0.00e+00	0	29	0	1077936128	38	5581
2026-01-17 04:46:53.82	250.01	12.65	-32.1	-32.7	25.3	0.00e+00	0	29	0	1083179008	38	5563
2026-01-17 04:46:54.83	250.18	12.70	-32.2	-32.9	25.2	0.00e+00	0	29	0	1089470464	38	5664
2026-01-17 04:46:55.84	250.36	12.74	-32.2	-32.9	25.3	0.00e+00	0	29	0	1094713344	38	5687
2026-01-17 04:46:56.85	250.53	12.79	-32.2	-32.9	25.3	0.00e+00	0	29	0	1101004800	38	5664
2026-01-17 04:46:57.86	250.71	12.83	-32.2	-32.9	25.3	0.00e+00	0	29	0	1106247680	38	5651
2026-01-17 04:46:58.87	250.89	12.88	-32.2	-32.9	25.2	0.00e+00	0	29	0	1111490560	38	5686
2026-01-17 04:46:59.88	251.07	12.92	-32.2	-32.9	25.3	0.00e+00	0	29	0	1117782016	38	5643
2026-01-17 04:47:00.89	251.25	12.97	-32.1	-32.8	25.4	0.00e+00	0	29	0	1123024896	38	5594
2026-01-17 04:47:01.90	251.43	13.02	-32.2	-32.8	25.3	0.00e+00	0	29	0	1129316352	38	5606
2026-01-17 04:47:02.91	251.61	13.06	-32.1	-32.8	25.4	0.00e+00	0	29	0	1134559232	38	5613
2026-01-17 04:47:03.92	251.79	13.10	-32.1	-32.8	25.4	0.00e+00	0	29	0	1139802112	38	5583
2026-01-17 04:47:04.93	251.97	13.15	-32.0	-32.7	25.5	0.00e+00	0	29	0	1146093568	38	5521
2026-01-17 04:47:05.94	252.15	13.19	-32.1	-32.7	25.4	0.00e+00	0	29	0	1151336448	38	5562
2026-01-17 04:47:06.95	252.33	13.24	-32.0	-32.7	25.5	0.00e+00	0	29	0	1157627904	38	5533
2026-01-17 04:47:07.96	252.51	13.28	-32.1	-32.8	25.4	0.00e+00	0	29	0	1162870784	38	5575
2026-01-17 04:47:08.97	252.69	13.32	-32.1	-32.7	25.5	0.00e+00	0	29	0	1168113664	38	5532
2026-01-17 04:47:09.98	252.88	13.37	-32.0	-32.7	25.5	0.00e+00	0	29	0	1174405120	38	5503
2026-01-17 04:47:10.99	253.06	13.41	-31.9	-32.6	25.6	0.00e+00	0	29	0	1179648000	38	5484
2026-01-17 04:47:12.00	253.25	13.45	-31.7	-32.4	25.7	0.00e+00	0	29	0	1185939456	36	5981
2026-01-17 04:47:13.01	253.43	13.50	-31.8	-32.4	25.7	0.00e+00	0	29	0	1191182336	36	6025
2026-01-17 04:47:14.02	253.62	13.54	-31.6	-32.3	25.8	0.00e+00	0	29	0	1197473792	36	5910
2026-01-17 04:47:15.03	253.80	13.58	-31.7	-32.3	25.8	0.00e+00	0	29	0	1202716672	36	5941
2026-01-17 04:47:16.04	253.99	13.63	-31.7	-32.3	25.8	0.00e+00	0	29	0	1209008128	36	5946
2026-01-17 04:47:17.05	254.18	13.67	-31.8	-32.4	25.6	0.00e+00	0	29	0	1214251008	36	6026
2026-01-17 04:47:18.06	254.36	13.71	-31.8	-32.4	25.7	0.00e+00	0	29	0	1219493888	36	6030
2026-01-17 04:47:19.07	254.55	13.75	-31.9	-32.5	25.6	0.00e+00	0	29	0	1225785344	36	6079
2026-01-17 04:47:20.08	254.74	13.79	-31.8	-32.5	25.6	0.00e+00	0	29	0	1231028224	36	6069
2026-01-17 04:47:21.09	254.93	13.83	-32.0	-32.6	25.6	0.00e+00	0	29	0	1236271104	36	6150
2026-01-17 04:47:22.09	255.12	13.87	-31.9	-32.6	25.6	0.00e+00	0	29	0	1242562560	36	6130
2026-01-17 04:47:23.11	255.31	13.92	-32.0	-32.7	25.4	0.00e+00	0	29	0	1247805440	36	6207
2026-01-17 04:47:24.12	255.50	13.96	-31.9	-32.5	25.6	0.00e+00	0	30	0	1254096896	36	6091
2026-01-17 04:47:25.13	255.69	14.00	-32.0	-32.7	25.5	0.00e+00	0	30	0	1259339776	36	6224
2026-01-17 04:47:26.14	255.88	14.04	-31.7	-32.4	25.8	0.00e+00	0	30	0	1264582656	36	5975
2026-01-17 04:47:27.15	256.08	14.08	-31.7	-32.4	25.7	0.00e+00	0	29	0	1270874112	36	6004
2026-01-17 04:47:28.16	256.27	14.12	-31.7	-32.3	25.9	0.00e+00	0	29	0	1276116992	36	5950
2026-01-17 04:47:29.17	256.46	14.16	-31.7	-32.4	25.8	0.00e+00	0	29	0	1282408448	36	6010
2026-01-17 04:47:30.18	256.66	14.20	-31.8	-32.4	25.7	0.00e+00	0	29	0	1287651328	36	6019
2026-01-17 04:47:31.19	256.85	14.23	-31.8	-32.4	25.7	0.00e+00	0	30	0	1293942784	36	6016
2026-01-17 04:47:32.20	257.04	14.27	-31.9	-32.6	25.7	0.00e+00	0	30	0	1299185664	36	6105
2026-01-17 04:47:33.21	257.24	14.31	-31.9	-32.6	25.6	0.00e+00	0	30	0	1305477120	36	6163
2026-01-17 04:47:34.22	257.44	14.35	-32.0	-32.7	25.6	0.00e+00	0	29	0	1310720000	36	6197
2026-01-17 04:47:35.23	257.63	14.39	-32.0	-32.7	25.5	0.00e+00	0	29	0	1315962880	36	6206
2026-01-17 04:47:36.23	257.83	14.43	-31.8	-32.5	25.6	0.00e+00	0	29	0	1322254336	36	6090
2026-01-17 04:47:37.24	258.02	14.46	-31.8	-32.4	25.7	0.00e+00	0	30	0	1327497216	36	6000
2026-01-17 04:47:38.25	258.22	14.50	-31.8	-32.4	25.8	0.00e+00	0	30	0	1333788672	36	6008
2026-01-17 04:47:39.26	258.42	14.54	-31.6	-32.2	25.9	0.00e+00	0	30	0	1339031552	36	5874
2026-01-17 04:47:40.27	258.62	14.57	-31.5	-32.2	26.0	0.00e+00	0	30	0	1344274432	36	5832
2026-01-17 04:47:41.28	258.82	14.61	-31.4	-32.1	26.0	0.00e+00	0	30	0	1350565888	36	5808
2026-01-17 04:47:42.29	259.02	14.65	-31.6	-32.2	25.9	0.00e+00	0	30	0	1355808768	36	5880
2026-01-17 04:47:43.30	259.22	14.68	-31.6	-32.2	25.9	0.00e+00	0	29	0	1362100224	36	5894
2026-01-17 04:47:44.31	259.42	14.72	-31.7	-32.4	25.7	0.00e+00	0	30	0	1367343104	36	5978
2026-01-17 04:47:45.32	259.62	14.75	-31.7	-32.4	25.7	0.00e+00	0	30	0	1372585984	36	5992
2026-01-17 04:47:46.33	259.82	14.79	-31.7	-32.4	25.9	0.00e+00	0	30	0	1378877440	36	5967
2026-01-17 04:47:47.35	260.02	14.82	-31.7	-32.4	25.7	0.00e+00	0	30	0	1384120320	36	5991
2026-01-17 04:47:48.35	260.22	14.86	-31.6	-32.3	25.9	0.00e+00	0	30	0	1390411776	36	5918
2026-01-17 04:47:49.36	260.42	14.89	-31.8	-32.4	25.6	0.00e+00	0	29	0	1395654656	36	6022
2026-01-17 04:47:50.37	260.63	14.93	-31.6	-32.3	25.8	0.00e+00	0	29	0	1401946112	36	5927
2026-01-17 04:47:51.38	260.83	14.96	-31.5	-32.1	26.1	0.00e+00	0	30	0	1407188992	36	5799
2026-01-17 04:47:52.39	261.04	14.99	-31.3	-32.0	26.1	0.00e+00	0	30	0	1413480448	36	5731
2026-01-17 04:47:53.40	261.24	15.03	-31.5	-32.1	26.0	0.00e+00	0	30	0	1418723328	36	5794
2026-01-17 04:47:54.41	261.44	15.06	-31.3	-31.9	26.1	0.00e+00	0	30	0	1423966208	36	5672
2026-01-17 04:47:55.43	261.65	15.09	-31.3	-31.9	26.2	0.00e+00	0	30	0	1430257664	36	5671
2026-01-17 04:47:56.44	261.86	15.12	-31.2	-31.8	26.3	0.00e+00	0	30	0	1435500544	36	5608
2026-01-17 04:47:57.45	262.06	15.16	-31.2	-31.8	26.3	0.00e+00	0	30	0	1441792000	36	5600
2026-01-17 04:47:58.46	262.27	15.19	-31.2	-31.9	26.2	0.00e+00	0	30	0	1447034880	36	5636
2026-01-17 04:47:59.47	262.48	15.22	-31.2	-31.8	26.2	0.00e+00	0	29	0	1452277760	36	5608
2026-01-17 04:48:00.48	262.68	15.25	-31.3	-31.9	26.2	0.00e+00	0	30	0	1458569216	36	5658
2026-01-17 04:48:01.49	262.89	15.28	-31.4	-32.0	26.0	0.00e+00	0	30	0	1463812096	36	5735
2026-01-17 04:48:02.50	263.10	15.31	-31.4	-32.1	26.0	0.00e+00	0	30	0	1470103552	36	5797
2026-01-17 04:48:03.51	263.31	15.34	-31.5	-32.2	26.0	0.00e+00	0	30	0	1475346432	36	5849
2026-01-17 04:48:04.52	263.52	15.37	-31.4	-32.1	26.0	0.00e+00	0	30	0	1480589312	36	5783
2026-01-17 04:48:05.53	263.73	15.40	-31.5	-32.2	26.0	0.00e+00	0	30	0	1486880768	36	5866
2026-01-17 04:48:06.54	263.94	15.43	-31.4	-32.1	26.1	0.00e+00	0	30	0	1492123648	36	5763
2026-01-17 04:48:07.55	264.15	15.46	-31.4	-32.1	26.0	0.00e+00	0	30	0	1498415104	36	5793
2026-01-17 04:48:08.56	264.36	15.49	-31.3	-32.0	26.2	0.00e+00	0	30	0	1503657984	36	5707
2026-01-17 04:48:09.56	264.57	15.51	-31.3	-31.9	26.1	0.00e+00	0	30	0	1509949440	36	5650
2026-01-17 04:48:10.57	264.78	15.54	-31.3	-32.0	26.1	0.00e+00	0	30	0	1515192320	36	5720
2026-01-17 04:48:11.58	264.99	15.57	-31.5	-32.2	26.0	0.00e+00	0	30	0	1520435200	36	5834
2026-01-17 04:48:12.60	265.21	15.60	-31.4	-32.1	26.1	0.00e+00	0	30	0	1526726656	36	5795
2026-01-17 04:48:13.60	265.42	15.62	-31.6	-32.2	25.9	0.00e+00	0	30	0	1531969536	36	5890
2026-01-17 04:48:14.61	265.63	15.65	-31.6	-32.2	25.9	0.00e+00	0	29	0	1538260992	36	5893
2026-01-17 04:48:15.62	265.84	15.68	-31.5	-32.2	26.0	0.00e+00	0	30	0	1543503872	36	5869
2026-01-17 04:48:16.63	266.06	15.70	-31.5	-32.2	26.0	0.00e+00	0	30	0	1548746752	36	5868
2026-01-17 04:48:17.64	266.27	15.73	-31.5	-32.2	25.9	0.00e+00	0	30	0	1555038208	36	5841
2026-01-17 04:48:18.65	266.48	15.75	-31.5	-32.2	26.0	0.00e+00	0	30	0	1560281088	36	5854
2026-01-17 04:48:19.66	266.70	15.78	-31.5	-32.2	25.9	0.00e+00	0	30	0	1566572544	36	5866
2026-01-17 04:48:20.67	266.91	15.80	-31.2	-31.9	26.2	0.00e+00	0	30	0	1571815424	36	5662
2026-01-17 04:48:21.68	267.13	15.83	-31.3	-32.0	26.2	0.00e+00	0	30	0	1577058304	36	5708
2026-01-17 04:48:22.69	267.34	15.85	-31.4	-32.0	26.0	0.00e+00	0	30	0	1583349760	36	5745
2026-01-17 04:48:23.70	267.56	15.87	-31.6	-32.2	25.9	0.00e+00	0	30	0	1588592640	36	5871
2026-01-17 04:48:24.71	267.78	15.90	-31.5	-32.2	25.9	0.00e+00	0	30	0	1594884096	36	5883
2026-01-17 04:48:25.72	267.99	15.92	-31.5	-32.2	26.0	0.00e+00	0	30	0	1600126976	36	5860
2026-01-17 04:48:26.73	268.21	15.94	-31.6	-32.2	25.9	0.00e+00	0	30	0	1606418432	36	5896
2026-01-17 04:48:27.74	268.43	15.96	-31.3	-32.0	26.0	0.00e+00	0	30	0	1611661312	36	5746
2026-01-17 04:48:28.75	268.65	15.98	-31.4	-32.1	26.0	0.00e+00	0	30	0	1617952768	36	5828
2026-01-17 04:48:29.76	268.86	16.00	-31.3	-32.0	26.1	0.00e+00	0	30	0	1623195648	36	5749
2026-01-17 04:48:30.77	269.08	16.03	-31.4	-32.0	26.0	0.00e+00	0	30	0	1628438528	36	5760
2026-01-17 04:48:31.78	269.30	16.05	-31.5	-32.1	26.1	0.00e+00	0	30	0	1634729984	36	5816
2026-01-17 04:48:32.79	269.52	16.07	-31.4	-32.0	26.1	0.00e+00	0	30	0	1639972864	36	5745
2026-01-17 04:48:33.80	269.74	16.09	-31.3	-31.9	26.2	0.00e+00	0	30	0	1646264320	36	5681
2026-01-17 04:48:34.81	269.96	16.10	-31.3	-32.0	26.1	0.00e+00	0	30	0	1651507200	36	5741
2026-01-17 04:48:35.82	270.18	16.12	-31.3	-32.0	26.2	0.00e+00	0	30	0	1656750080	36	5717
2026-01-17 04:48:36.83	270.40	16.14	-31.2	-31.9	26.2	0.00e+00	0	30	0	1663041536	36	5632
2026-01-17 04:48:37.84	270.62	16.16	-31.4	-32.1	26.0	0.00e+00	0	30	0	1668284416	36	5795
2026-01-17 04:48:38.85	270.84	16.18	-31.5	-32.2	25.9	0.00e+00	0	30	0	1674575872	36	5868
2026-01-17 04:48:39.86	271.06	16.19	-31.6	-32.3	25.8	0.00e+00	0	30	0	1679818752	36	5917
2026-01-17 04:48:40.87	271.28	16.21	-31.5	-32.2	25.9	0.00e+00	0	30	0	1685061632	36	5858
2026-01-17 04:48:41.88	271.50	16.23	-31.4	-32.1	26.1	0.00e+00	0	30	0	1691353088	36	5770
2026-01-17 04:48:42.88	271.72	16.24	-31.4	-32.1	26.0	0.00e+00	0	30	0	1696595968	36	5797
2026-01-17 04:48:43.89	271.94	16.26	-31.1	-31.8	26.3	0.00e+00	0	30	0	1702887424	36	5574
2026-01-17 04:48:44.90	272.16	16.27	-31.2	-31.9	26.2	0.00e+00	0	30	0	1708130304	36	5654
2026-01-17 04:48:45.91	272.38	16.29	-31.2	-31.8	26.2	0.00e+00	0	30	0	1714421760	36	5628
2026-01-17 04:48:46.92	272.61	16.30	-31.0	-31.7	26.4	0.00e+00	0	30	0	1719664640	36	5519
2026-01-17 04:48:47.93	272.83	16.32	-31.1	-31.7	26.4	0.00e+00	0	30	0	1724907520	36	5541
2026-01-17 04:48:48.94	273.05	16.33	-31.1	-31.7	26.3	0.00e+00	0	30	0	1731198976	36	5540
2026-01-17 04:48:49.95	273.27	16.35	-31.1	-31.7	26.3	0.00e+00	0	30	0	1736441856	36	5560
2026-01-17 04:48:50.96	273.50	16.36	-31.1	-31.7	26.3	0.00e+00	0	30	0	1742733312	36	5524
2026-01-17 04:48:51.97	273.72	16.37	-31.1	-31.7	26.4	0.00e+00	0	30	0	1747976192	36	5535
2026-01-17 04:48:52.98	273.94	16.38	-31.0	-31.6	26.4	0.00e+00	0	30	0	1753219072	36	5460
2026-01-17 04:48:53.99	274.17	16.39	-31.0	-31.7	26.4	0.00e+00	0	30	0	1759510528	36	5526
2026-01-17 04:48:55.00	274.39	16.41	-31.0	-31.7	26.3	0.00e+00	0	30	0	1764753408	36	5504
2026-01-17 04:48:56.01	274.61	16.42	-31.0	-31.6	26.4	0.00e+00	0	30	0	1771044864	36	5495
2026-01-17 04:48:57.02	274.84	16.43	-31.0	-31.7	26.3	0.00e+00	0	30	0	1776287744	36	5507
2026-01-17 04:48:58.03	275.06	16.44	-31.2	-31.9	26.3	0.00e+00	0	30	0	1781530624	36	5634
2026-01-17 04:48:59.04	275.29	16.45	-31.2	-31.9	26.1	0.00e+00	0	30	0	1787822080	36	5658
2026-01-17 04:49:00.04	275.51	16.46	-31.2	-31.8	26.3	0.00e+00	0	30	0	1793064960	36	5623
2026-01-17 04:49:01.05	275.73	16.46	-30.9	-31.6	26.4	0.00e+00	0	30	0	1799356416	36	5453
2026-01-17 04:49:02.06	275.96	16.47	-30.9	-31.5	26.4	0.00e+00	0	30	0	1804599296	36	5433
2026-01-17 04:49:03.07	276.18	16.48	-30.8	-31.5	26.5	0.00e+00	0	30	0	1810890752	36	5396
2026-01-17 04:49:04.08	276.41	16.49	-30.9	-31.5	26.4	0.00e+00	0	30	0	1816133632	36	5423
2026-01-17 04:49:05.09	276.63	16.50	-31.0	-31.7	26.4	0.00e+00	0	30	0	1822425088	36	5514
2026-01-17 04:49:06.10	276.86	16.50	-31.0	-31.6	26.4	0.00e+00	0	30	0	1827667968	36	5493
2026-01-17 04:49:07.11	277.08	16.51	-30.9	-31.6	26.4	0.00e+00	0	30	0	1832910848	36	5490
2026-01-17 04:49:08.12	277.31	16.52	-31.1	-31.8	26.3	0.00e+00	0	30	0	1839202304	36	5576
2026-01-17 04:49:09.13	277.53	16.52	-31.1	-31.7	26.3	0.00e+00	0	30	0	1844445184	36	5553
2026-01-17 04:49:10.14	277.76	16.53	-31.0	-31.6	26.4	0.00e+00	0	30	0	1850736640	36	5478
2026-01-17 04:49:11.15	277.98	16.53	-31.1	-31.7	26.4	0.00e+00	0	30	0	1855979520	36	5545
2026-01-17 04:49:12.16	278.21	16.53	-31.1	-31.7	26.3	0.00e+00	0	30	0	1861222400	36	5529
2026-01-17 04:49:13.17	278.43	16.54	-31.1	-31.8	26.2	0.00e+00	0	30	0	1867513856	36	5580
2026-01-17 04:49:14.18	278.66	16.54	-31.1	-31.7	26.3	0.00e+00	0	30	0	1872756736	36	5536
2026-01-17 04:49:15.19	278.88	16.54	-31.3	-31.9	26.1	0.00e+00	0	30	0	1877999616	36	5692
2026-01-17 04:49:16.20	279.11	16.55	-31.1	-31.8	26.3	0.00e+00	0	30	0	1884291072	36	5575
2026-01-17 04:49:17.21	279.33	16.55	-31.1	-31.7	26.3	0.00e+00	0	30	0	1889533952	36	5548
2026-01-17 04:49:18.22	279.56	16.55	-31.1	-31.8	26.3	0.00e+00	0	30	0	1895825408	36	5584
2026-01-17 04:49:19.23	279.79	16.55	-31.1	-31.7	26.3	0.00e+00	0	30	0	1901068288	36	5544
2026-01-17 04:49:20.24	280.01	16.55	-31.2	-31.8	26.1	0.00e+00	0	30	0	1907359744	36	5615
2026-01-17 04:49:21.25	280.24	16.55	-31.1	-31.7	26.3	0.00e+00	0	30	0	1912602624	36	5537
2026-01-17 04:49:22.26	280.46	16.55	-31.0	-31.7	26.4	0.00e+00	0	30	0	1918894080	36	5504
2026-01-17 04:49:23.27	280.69	16.55	-31.0	-31.7	26.3	0.00e+00	0	30	0	1924136960	36	5516
2026-01-17 04:49:24.28	280.91	16.55	-31.1	-31.8	26.3	0.00e+00	0	30	0	1929379840	36	5568
2026-01-17 04:49:25.29	281.14	16.55	-31.0	-31.6	26.4	0.00e+00	0	30	0	1935671296	36	5487
2026-01-17 04:49:26.30	281.37	16.55	-31.1	-31.7	26.2	0.00e+00	0	30	0	1940914176	36	5528
2026-01-17 04:49:27.31	281.59	16.55	-31.0	-31.7	26.3	0.00e+00	0	30	0	1947205632	36	5540
2026-01-17 04:49:28.32	281.82	16.55	-31.0	-31.7	26.3	0.00e+00	0	30	0	1952448512	36	5504
2026-01-17 04:49:29.34	282.05	16.54	-31.0	-31.7	26.3	0.00e+00	0	30	0	1957691392	36	5543
2026-01-17 04:49:30.34	282.27	16.54	-31.1	-31.7	26.3	0.00e+00	0	30	0	1963982848	36	5543
2026-01-17 04:49:31.36	282.50	16.54	-31.1	-31.8	26.2	0.00e+00	0	30	0	1969225728	36	5568
2026-01-17 04:49:32.37	282.72	16.53	-31.1	-31.8	26.2	0.00e+00	0	30	0	1975517184	36	5599
2026-01-17 04:49:33.38	282.95	16.53	-31.2	-31.8	26.1	0.00e+00	0	30	0	1980760064	36	5628
2026-01-17 04:49:34.39	283.17	16.52	-31.3	-32.0	26.1	0.00e+00	0	30	0	1986002944	36	5720
2026-01-17 04:49:35.40	283.40	16.52	-31.4	-32.0	25.8	0.00e+00	0	30	0	1992294400	36	5729
2026-01-17 04:49:36.41	283.62	16.51	-31.3	-32.0	26.0	0.00e+00	0	30	0	1997537280	36	5712
2026-01-17 04:49:37.42	283.85	16.50	-31.4	-32.0	25.9	0.00e+00	0	30	0	2003828736	36	5740
2026-01-17 04:49:38.43	284.07	16.50	-31.3	-31.9	26.1	0.00e+00	0	30	0	2009071616	36	5687
2026-01-17 04:49:39.44	284.30	16.49	-31.3	-31.9	26.1	0.00e+00	0	30	0	2015363072	36	5654
2026-01-17 04:49:40.45	284.52	16.48	-31.4	-32.0	25.9	0.00e+00	0	30	0	2020605952	36	5735
2026-01-17 04:49:41.46	284.75	16.47	-31.5	-32.1	25.9	0.00e+00	0	30	0	2026897408	36	5823
2026-01-17 04:49:42.48	284.97	16.47	-31.4	-32.0	26.0	0.00e+00	0	30	0	2032140288	36	5741
2026-01-17 04:49:43.49	285.20	16.46	-31.4	-32.1	26.0	0.00e+00	0	30	0	2037383168	36	5766
2026-01-17 04:49:44.50	285.42	16.45	-31.3	-32.0	26.0	0.00e+00	0	30	0	2043674624	36	5715
2026-01-17 04:49:45.51	285.64	16.44	-31.0	-31.7	26.3	0.00e+00	0	30	0	2048917504	36	5532
2026-01-17 04:49:46.52	285.87	16.43	-31.0	-31.6	26.4	0.00e+00	0	30	0	2055208960	36	5478
2026-01-17 04:49:47.53	286.09	16.42	-30.9	-31.5	26.4	0.00e+00	0	30	0	2060451840	36	5408
2026-01-17 04:49:48.54	286.32	16.41	-30.9	-31.6	26.5	0.00e+00	0	30	0	2066743296	36	5458
2026-01-17 04:49:49.55	286.54	16.40	-31.0	-31.7	26.3	0.00e+00	0	30	0	2071986176	36	5522
2026-01-17 04:49:50.56	286.76	16.38	-31.1	-31.7	26.2	0.00e+00	0	30	0	2077229056	36	5562
2026-01-17 04:49:51.57	286.99	16.37	-31.1	-31.8	26.2	0.00e+00	0	30	0	2083520512	36	5581
2026-01-17 04:49:52.58	287.21	16.36	-31.3	-31.9	26.1	0.00e+00	0	30	0	2088763392	36	5669
2026-01-17 04:49:53.59	287.43	16.35	-31.2	-31.9	26.2	0.00e+00	0	30	0	2095054848	36	5659
2026-01-17 04:49:54.60	287.65	16.33	-31.2	-31.9	26.1	0.00e+00	0	30	0	2100297728	36	5648
2026-01-17 04:49:55.60	287.87	16.32	-31.3	-31.9	26.1	0.00e+00	0	30	0	2105540608	36	5693
2026-01-17 04:49:56.61	288.10	16.31	-31.3	-32.0	26.1	0.00e+00	0	30	0	2111832064	36	5716
2026-01-17 04:49:57.62	288.32	16.29	-31.3	-32.0	26.1	0.00e+00	0	30	0	2117074944	36	5746
2026-01-17 04:49:58.63	288.54	16.28	-31.3	-32.0	26.0	0.00e+00	0	30	0	2123366400	36	5738
2026-01-17 04:49:59.64	288.76	16.26	-31.2	-31.9	26.2	0.00e+00	0	30	0	2128609280	36	5683
2026-01-17 04:50:00.66	288.98	16.25	-31.3	-31.9	26.1	0.00e+00	0	30	0	2134900736	36	5694
2026-01-17 04:50:01.67	289.20	16.23	-31.4	-32.1	25.9	0.00e+00	0	30	0	2140143616	36	5781
2026-01-17 04:50:02.68	289.43	16.21	-31.5	-32.1	26.0	0.00e+00	0	30	0	2145386496	36	5791
2026-01-17 04:50:03.69	289.65	16.20	-31.4	-32.0	26.0	0.00e+00	0	30	0	2151677952	36	5752
2026-01-17 04:50:04.70	289.87	16.18	-31.4	-32.1	26.0	0.00e+00	0	30	0	2156920832	36	5811
2026-01-17 04:50:05.71	290.09	16.16	-31.4	-32.1	25.9	0.00e+00	0	30	0	2163212288	36	5796
2026-01-17 04:50:06.72	290.31	16.14	-31.4	-32.0	26.0	0.00e+00	0	30	0	2168455168	36	5715
2026-01-17 04:50:07.73	290.53	16.13	-31.4	-32.0	26.1	0.00e+00	0	30	0	2173698048	36	5749
2026-01-17 04:50:08.74	290.74	16.11	-31.4	-32.1	25.9	0.00e+00	0	30	0	2179989504	36	5776
2026-01-17 04:50:09.75	290.96	16.09	-31.4	-32.1	26.0	0.00e+00	0	30	0	2185232384	36	5764
2026-01-17 04:50:10.76	291.18	16.07	-31.5	-32.2	26.0	0.00e+00	0	30	0	2191523840	36	5834
2026-01-17 04:50:11.77	291.40	16.05	-31.5	-32.1	25.9	0.00e+00	0	30	0	2196766720	36	5828
2026-01-17 04:50:12.78	291.62	16.03	-31.5	-32.2	25.9	0.00e+00	0	30	0	2202009600	36	5858
2026-01-17 04:50:13.79	291.84	16.01	-31.5	-32.2	25.8	0.00e+00	0	30	0	2208301056	36	5851
2026-01-17 04:50:14.80	292.05	15.99	-31.6	-32.3	25.8	0.00e+00	0	30	0	2213543936	36	5957
2026-01-17 04:50:15.81	292.27	15.97	-31.6	-32.3	25.8	0.00e+00	0	30	0	2219835392	36	5932
2026-01-17 04:50:16.82	292.49	15.94	-31.8	-32.4	25.6	0.00e+00	0	30	0	2225078272	36	6028
2026-01-17 04:50:17.83	292.70	15.92	-31.8	-32.4	25.7	0.00e+00	0	30	0	2231369728	36	6012
2026-01-17 04:50:18.84	292.92	15.90	-31.7	-32.3	25.7	0.00e+00	0	30	0	2236612608	36	5921
2026-01-17 04:50:19.84	293.13	15.88	-31.5	-32.2	25.9	0.00e+00	0	30	0	2242904064	36	5875
2026-01-17 04:50:20.85	293.35	15.85	-31.4	-32.0	26.0	0.00e+00	0	30	0	2248146944	36	5761
2026-01-17 04:50:21.87	293.57	15.83	-31.5	-32.2	25.9	0.00e+00	0	30	0	2253389824	36	5850
2026-01-17 04:50:22.88	293.78	15.81	-31.5	-32.2	26.0	0.00e+00	0	30	0	2259681280	36	5858
2026-01-17 04:50:23.89	294.00	15.78	-31.5	-32.3	26.0	0.00e+00	0	30	0	2264924160	36	5899
2026-01-17 04:50:24.90	294.21	15.76	-31.4	-32.1	26.0	0.00e+00	0	30	0	2271215616	36	5764
2026-01-17 04:50:25.91	294.43	15.73	-31.5	-32.2	25.9	0.00e+00	0	30	0	2276458496	36	5854
2026-01-17 04:50:26.92	294.64	15.71	-31.6	-32.2	25.9	0.00e+00	0	30	0	2281701376	36	5888
2026-01-17 04:50:27.93	294.85	15.68	-31.7	-32.3	25.9	0.00e+00	0	30	0	2287992832	36	5959
2026-01-17 04:50:28.94	295.06	15.66	-31.6	-32.3	25.8	0.00e+00	0	30	0	2293235712	36	5941
2026-01-17 04:50:29.95	295.28	15.63	-31.7	-32.3	25.8	0.00e+00	0	30	0	2299527168	36	5962
2026-01-17 04:50:30.96	295.49	15.60	-31.8	-32.5	25.6	0.00e+00	0	30	0	2304770048	36	6077
2026-01-17 04:50:31.97	295.70	15.58	-31.8	-32.5	25.6	0.00e+00	0	30	0	2310012928	36	6050
2026-01-17 04:50:32.98	295.91	15.55	-31.9	-32.5	25.5	0.00e+00	0	30	0	2316304384	36	6060
2026-01-17 04:50:33.99	296.12	15.52	-31.8	-32.4	25.6	0.00e+00	0	30	0	2321547264	36	6014
2026-01-17 04:50:34.99	296.33	15.49	-31.8	-32.5	25.6	0.00e+00	0	30	0	2327838720	36	6098
2026-01-17 04:50:36.01	296.54	15.47	-31.8	-32.4	25.6	0.00e+00	0	30	0	2333081600	36	6022
2026-01-17 04:50:37.02	296.75	15.44	-31.8	-32.6	25.6	0.00e+00	0	30	0	2339373056	36	6137
2026-01-17 04:50:38.02	296.96	15.41	-31.9	-32.7	25.6	0.00e+00	0	30	0	2344615936	36	6179
2026-01-17 04:50:39.03	297.17	15.38	-32.0	-32.6	25.5	0.00e+00	0	30	0	2349858816	36	6126
2026-01-17 04:50:40.04	297.38	15.35	-31.9	-32.5	25.5	0.00e+00	0	30	0	2356150272	36	6075
2026-01-17 04:50:41.05	297.59	15.32	-31.8	-32.4	25.7	0.00e+00	0	30	0	2361393152	36	5997
2026-01-17 04:50:42.06	297.80	15.29	-31.8	-32.5	25.6	0.00e+00	0	30	0	2367684608	36	6045
2026-01-17 04:50:43.07	298.00	15.26	-31.7	-32.4	25.7	0.00e+00	0	30	0	2372927488	36	5990
2026-01-17 04:50:44.08	298.21	15.23	-31.8	-32.4	25.7	0.00e+00	0	30	0	2378170368	36	6021
2026-01-17 04:50:45.09	298.42	15.20	-31.9	-32.7	25.6	0.00e+00	0	30	0	2384461824	36	6181
2026-01-17 04:50:46.10	298.62	15.17	-31.8	-32.5	25.6	0.00e+00	0	30	0	2389704704	36	6045
2026-01-17 04:50:47.11	298.83	15.13	-32.0	-32.7	25.6	0.00e+00	0	30	0	2395996160	36	6200
2026-01-17 04:50:48.12	299.03	15.10	-31.7	-32.3	25.7	0.00e+00	0	30	0	2401239040	36	5963
2026-01-17 04:50:49.13	299.24	15.07	-31.6	-32.3	25.8	0.00e+00	0	30	0	2406481920	36	5960
2026-01-17 04:50:50.14	299.44	15.04	-31.7	-32.4	25.7	0.00e+00	0	30	0	2412773376	36	5967
2026-01-17 04:50:51.15	299.65	15.00	-31.7	-32.4	25.7	0.00e+00	0	30	0	2418016256	36	5971
2026-01-17 04:50:52.16	299.85	14.97	-31.6	-32.2	25.9	0.00e+00	0	30	0	2424307712	36	5890
2026-01-17 04:50:53.17	300.05	14.94	-31.6	-32.3	25.9	0.00e+00	0	30	0	2429550592	36	5908
2026-01-17 04:50:54.18	300.26	14.90	-31.7	-32.4	25.8	0.00e+00	0	30	0	2435842048	36	5980
2026-01-17 04:50:55.19	300.46	14.87	-31.8	-32.4	25.7	0.00e+00	0	30	0	2441084928	36	6002
2026-01-17 04:50:56.20	300.66	14.84	-31.8	-32.4	25.7	0.00e+00	0	30	0	2447376384	36	6026
2026-01-17 04:50:57.21	300.86	14.80	-31.8	-32.4	25.8	0.00e+00	0	30	0	2452619264	36	6015
2026-01-17 04:50:58.22	301.06	14.77	-31.7	-32.3	25.9	0.00e+00	0	30	0	2457862144	36	5952
2026-01-17 04:50:59.23	301.26	14.73	-31.7	-32.4	25.8	0.00e+00	0	30	0	2464153600	36	6026
2026-01-17 04:51:00.24	301.46	14.70	-31.8	-32.4	25.9	0.00e+00	0	30	0	2469396480	36	5988
2026-01-17 04:51:01.25	301.66	14.66	-31.7	-32.4	25.8	0.00e+00	0	30	0	2475687936	36	5966
2026-01-17 04:51:02.26	301.86	14.62	-31.7	-32.5	25.8	0.00e+00	0	30	0	2480930816	36	6044
2026-01-17 04:51:03.27	302.06	14.59	-31.9	-32.6	25.7	0.00e+00	0	30	0	2486173696	36	6120
2026-01-17 04:51:04.28	302.26	14.55	-31.9	-32.6	25.6	0.00e+00	0	30	0	2492465152	36	6111
2026-01-17 04:51:05.29	302.45	14.51	-31.8	-32.4	25.8	0.00e+00	0	30	0	2497708032	36	6011
2026-01-17 04:51:06.30	302.65	14.48	-31.8	-32.5	25.7	0.00e+00	0	30	0	2503999488	36	6100
2026-01-17 04:51:07.31	302.85	14.44	-31.9	-32.6	25.8	0.00e+00	0	30	0	2509242368	36	6106
2026-01-17 04:51:08.32	303.04	14.40	-32.0	-32.7	25.6	0.00e+00	0	30	0	2514485248	36	6217
2026-01-17 04:51:09.33	303.24	14.36	-32.1	-32.8	25.5	0.00e+00	0	29	0	2520776704	36	6277
2026-01-17 04:51:10.34	303.43	14.33	-32.1	-32.8	25.5	0.00e+00	0	30	0	2526019584	36	6287
2026-01-17 04:51:11.35	303.63	14.29	-32.0	-32.7	25.5	0.00e+00	0	30	0	2532311040	36	6231
2026-01-17 04:51:12.36	303.82	14.25	-32.0	-32.7	25.5	0.00e+00	0	29	0	2537553920	36	6210
2026-01-17 04:51:13.37	304.02	14.21	-32.1	-32.8	25.5	0.00e+00	0	29	0	2543845376	36	6250
2026-01-17 04:51:14.38	304.21	14.17	-31.9	-32.6	25.6	0.00e+00	0	29	0	2549088256	36	6121
2026-01-17 04:51:15.39	304.40	14.13	-31.9	-32.5	25.6	0.00e+00	0	29	0	2555379712	36	6071
2026-01-17 04:51:16.40	304.59	14.09	-31.9	-32.6	25.7	0.00e+00	0	29	0	2560622592	36	6118
2026-01-17 04:51:17.41	304.79	14.05	-31.9	-32.6	25.6	0.00e+00	0	29	0	2565865472	36	6141
2026-01-17 04:51:18.42	304.98	14.01	-31.9	-32.6	25.7	0.00e+00	0	29	0	2572156928	36	6105
2026-01-17 04:51:19.43	305.17	13.97	-32.0	-32.7	25.5	0.00e+00	0	29	0	2577399808	36	6178
2026-01-17 04:51:20.44	305.36	13.93	-32.1	-32.8	25.4	0.00e+00	0	29	0	2583691264	36	6269
2026-01-17 04:51:21.45	305.55	13.89	-32.2	-32.9	25.4	0.00e+00	0	29	0	2588934144	36	6347
2026-01-17 04:51:22.46	305.74	13.85	-32.1	-32.8	25.5	0.00e+00	0	30	0	2594177024	36	6252
2026-01-17 04:51:23.48	305.93	13.81	-32.1	-32.8	25.4	0.00e+00	0	30	0	2600468480	36	6259
2026-01-17 04:51:24.49	306.11	13.77	-32.1	-32.8	25.5	0.00e+00	0	29	0	2605711360	36	6274
2026-01-17 04:51:25.50	306.30	13.73	-32.1	-32.8	25.4	0.00e+00	0	29	0	2612002816	36	6303
2026-01-17 04:51:26.51	306.49	13.69	-32.2	-32.8	25.3	0.00e+00	0	29	0	2617245696	36	6314
2026-01-17 04:51:27.52	306.68	13.65	-32.1	-32.8	25.4	0.00e+00	0	29	0	2622488576	36	6264
2026-01-17 04:51:28.53	306.86	13.60	-32.2	-32.9	25.4	0.00e+00	0	29	0	2628780032	36	6389
2026-01-17 04:51:29.54	307.05	13.56	-32.2	-32.8	25.4	0.00e+00	0	29	0	2634022912	36	6289
2026-01-17 04:51:30.55	307.23	13.52	-32.2	-32.9	25.3	0.00e+00	0	29	0	2640314368	36	6390
2026-01-17 04:51:31.55	307.41	13.48	-32.3	-32.9	25.4	0.00e+00	0	29	0	2645557248	36	6338
2026-01-17 04:51:32.56	307.60	13.43	-32.2	-33.0	25.4	0.00e+00	0	29	0	2651848704	36	6393
2026-01-17 04:51:33.57	307.78	13.39	-32.1	-32.9	25.4	0.00e+00	0	29	0	2657091584	36	6335
2026-01-17 04:51:34.58	307.96	13.35	-32.1	-32.8	25.5	0.00e+00	0	29	0	2662334464	36	6258
2026-01-17 04:51:35.59	308.15	13.30	-32.0	-32.7	25.5	0.00e+00	0	29	0	2668625920	36	6195
2026-01-17 04:51:36.60	308.33	13.26	-32.0	-32.7	25.6	0.00e+00	0	29	0	2673868800	36	6221
2026-01-17 04:51:37.61	308.51	13.22	-32.0	-32.6	25.5	0.00e+00	0	29	0	2680160256	36	6154
2026-01-17 04:51:38.62	308.69	13.17	-32.2	-32.8	25.4	0.00e+00	0	30	0	2685403136	36	6303
2026-01-17 04:51:39.63	308.87	13.13	-32.2	-32.9	25.3	0.00e+00	0	29	0	2690646016	36	6344
2026-01-17 04:51:40.64	309.05	13.08	-32.3	-33.0	25.3	0.00e+00	0	29	0	2696937472	36	6443
2026-01-17 04:51:41.65	309.23	13.04	-32.3	-32.9	25.2	0.00e+00	0	29	0	2702180352	36	6330
2026-01-17 04:51:42.66	309.41	13.00	-32.3	-33.0	25.1	0.00e+00	0	29	0	2708471808	36	6394
2026-01-17 04:51:43.67	309.59	12.95	-32.3	-33.0	25.2	0.00e+00	0	29	0	2713714688	36	6429
2026-01-17 04:51:44.68	309.76	12.91	-32.4	-33.1	25.1	0.00e+00	0	29	0	2718957568	36	6501
2026-01-17 04:51:45.69	309.94	12.86	-32.3	-32.9	25.3	0.00e+00	0	29	0	2725249024	36	6366
2026-01-17 04:51:46.70	310.12	12.82	-32.3	-32.9	25.3	0.00e+00	0	29	0	2730491904	36	6332
2026-01-17 04:51:47.71	310.29	12.77	-32.2	-32.9	25.4	0.00e+00	0	29	0	2736783360	36	6350
2026-01-17 04:51:48.72	310.47	12.72	-32.3	-33.0	25.3	0.00e+00	0	29	0	2742026240	36	6393
2026-01-17 04:51:49.73	310.64	12.68	-32.3	-33.0	25.2	0.00e+00	0	29	0	2748317696	36	6412
2026-01-17 04:51:50.74	310.82	12.63	-32.3	-33.0	25.2	0.00e+00	0	29	0	2753560576	36	6439
2026-01-17 04:51:51.75	310.99	12.59	-32.3	-33.0	25.2	0.00e+00	0	29	0	2759852032	36	6404
2026-01-17 04:51:52.76	311.17	12.54	-32.4	-33.2	25.2	0.00e+00	0	29	0	2765094912	36	6551
2026-01-17 04:51:53.77	311.34	12.49	-32.4	-33.1	25.1	0.00e+00	0	29	0	2770337792	36	6532
2026-01-17 04:51:54.78	311.51	12.45	-32.5	-33.2	25.0	0.00e+00	0	29	0	2776629248	36	6608
2026-01-17 04:51:55.79	311.68	12.40	-32.6	-33.2	24.9	0.00e+00	0	29	0	2781872128	36	6607
2026-01-17 04:51:56.80	311.86	12.35	-32.7	-33.3	24.9	0.00e+00	0	29	0	2788163584	36	6660
2026-01-17 04:51:57.81	312.03	12.31	-32.8	-33.6	24.7	0.00e+00	0	29	0	2793406464	38	6132
2026-01-17 04:51:58.82	312.20	12.26	-33.0	-33.7	24.6	0.00e+00	0	29	0	2798649344	38	6218
2026-01-17 04:51:59.83	312.37	12.21	-32.9	-33.6	24.6	0.00e+00	0	29	0	2804940800	38	6167
2026-01-17 04:52:00.84	312.54	12.17	-33.0	-33.7	24.6	0.00e+00	0	29	0	2810183680	38	6228
2026-01-17 04:52:01.85	312.70	12.12	-32.9	-33.6	24.7	0.00e+00	0	29	0	2816475136	38	6108
2026-01-17 04:52:02.86	312.87	12.07	-32.7	-33.5	24.9	0.00e+00	0	29	0	2821718016	38	6041
2026-01-17 04:52:03.87	313.04	12.02	-32.7	-33.4	24.8	0.00e+00	0	29	0	2826960896	38	5985
2026-01-17 04:52:04.88	313.21	11.98	-32.7	-33.4	24.9	0.00e+00	0	29	0	2833252352	38	5968
2026-01-17 04:52:05.89	313.37	11.93	-32.7	-33.5	24.8	0.00e+00	0	29	0	2838495232	38	6052
2026-01-17 04:52:06.91	313.54	11.88	-32.7	-33.4	24.7	0.00e+00	0	29	0	2844786688	38	5977
2026-01-17 04:52:07.91	313.70	11.83	-32.7	-33.5	24.7	0.00e+00	0	29	0	2850029568	38	6055
2026-01-17 04:52:08.92	313.87	11.78	-32.8	-33.5	24.7	0.00e+00	0	29	0	2856321024	38	6097
2026-01-17 04:52:09.93	314.03	11.73	-32.7	-33.3	24.8	0.00e+00	0	29	0	2861563904	38	5917
2026-01-17 04:52:10.94	314.20	11.69	-32.7	-33.4	24.7	0.00e+00	0	29	0	2867855360	38	5972
2026-01-17 04:52:11.95	314.36	11.64	-32.7	-33.4	24.9	0.00e+00	0	29	0	2873098240	38	5981
2026-01-17 04:52:12.96	314.52	11.59	-32.7	-33.4	24.9	0.00e+00	0	29	0	2878341120	38	6022
2026-01-17 04:52:13.97	314.69	11.54	-32.7	-33.3	24.8	0.00e+00	0	29	0	2884632576	38	5933
2026-01-17 04:52:14.98	314.85	11.49	-32.7	-33.5	24.9	0.00e+00	0	29	0	2889875456	38	6036
2026-01-17 04:52:15.99	315.01	11.44	-32.7	-33.4	24.8	0.00e+00	0	29	0	2896166912	38	5984
2026-01-17 04:52:17.00	315.17	11.39	-32.8	-33.5	24.8	0.00e+00	0	29	0	2901409792	38	6048
2026-01-17 04:52:18.01	315.33	11.34	-32.7	-33.5	24.8	0.00e+00	0	29	0	2906652672	38	6048
2026-01-17 04:52:19.02	315.49	11.29	-32.7	-33.4	24.8	0.00e+00	0	29	0	2912944128	38	6026
2026-01-17 04:52:20.03	315.65	11.24	-32.8	-33.6	24.8	0.00e+00	0	29	0	2918187008	38	6121
2026-01-17 04:52:21.04	315.81	11.20	-32.8	-33.5	24.7	0.00e+00	0	29	0	2924478464	38	6065
2026-01-17 04:52:22.05	315.97	11.15	-32.8	-33.4	24.7	0.00e+00	0	29	0	2929721344	38	6027
2026-01-17 04:52:23.06	316.12	11.10	-32.8	-33.6	24.7	0.00e+00	0	29	0	2934964224	38	6136
2026-01-17 04:52:24.07	316.28	11.05	-32.8	-33.5	24.7	0.00e+00	0	29	0	2941255680	38	6063
2026-01-17 04:52:25.08	316.44	11.00	-32.8	-33.6	24.7	0.00e+00	0	29	0	2946498560	38	6124
2026-01-17 04:52:26.09	316.59	10.95	-32.7	-33.4	24.7	0.00e+00	0	29	0	2952790016	38	5994
2026-01-17 04:52:27.10	316.75	10.90	-32.8	-33.4	24.7	0.00e+00	0	29	0	2958032896	38	5990
2026-01-17 04:52:28.11	316.90	10.85	-32.8	-33.4	24.7	0.00e+00	0	29	0	2964324352	38	6003
2026-01-17 04:52:29.12	317.06	10.80	-32.7	-33.4	24.7	0.00e+00	0	29	0	2969567232	38	6000
2026-01-17 04:52:30.12	317.21	10.75	-32.8	-33.5	24.5	0.00e+00	0	29	0	2974810112	38	6075
2026-01-17 04:52:31.13	317.37	10.70	-32.9	-33.6	24.5	0.00e+00	0	29	0	2981101568	38	6128
2026-01-17 04:52:32.15	317.52	10.64	-32.9	-33.7	24.5	0.00e+00	0	29	0	2986344448	38	6209
2026-01-17 04:52:33.15	317.67	10.59	-33.0	-33.8	24.4	0.00e+00	0	29	0	2992635904	38	6299
2026-01-17 04:52:34.16	317.82	10.54	-33.1	-33.9	24.3	0.00e+00	0	29	0	2997878784	38	6318
2026-01-17 04:52:35.18	317.98	10.49	-33.1	-33.8	24.4	0.00e+00	0	29	0	3003121664	38	6304
2026-01-17 04:52:36.19	318.13	10.44	-33.2	-34.0	24.1	0.00e+00	0	29	0	3009413120	38	6430
2026-01-17 04:52:37.20	318.28	10.39	-33.3	-34.1	24.0	0.00e+00	0	29	0	3014656000	38	6529
2026-01-17 04:52:38.21	318.43	10.34	-33.1	-33.8	24.3	0.00e+00	0	29	0	3020947456	38	6291
2026-01-17 04:52:39.22	318.58	10.29	-33.1	-33.8	24.2	0.00e+00	0	29	0	3026190336	38	6253
2026-01-17 04:52:40.23	318.73	10.24	-33.2	-33.8	24.1	0.00e+00	0	29	0	3031433216	38	6315
2026-01-17 04:52:41.24	318.87	10.19	-33.1	-33.8	24.2	0.00e+00	0	29	0	3037724672	38	6259
2026-01-17 04:52:42.24	319.02	10.14	-33.0	-33.8	24.4	0.00e+00	0	29	0	3042967552	38	6268
2026-01-17 04:52:43.25	319.17	10.09	-33.2	-33.9	24.3	0.00e+00	0	29	0	3049259008	38	6382
2026-01-17 04:52:44.26	319.32	10.04	-33.1	-33.9	24.3	0.00e+00	0	29	0	3054501888	38	6386
2026-01-17 04:52:45.27	319.46	9.98	-33.3	-34.0	24.2	0.00e+00	0	29	0	3060793344	38	6434
2026-01-17 04:52:46.28	319.61	9.93	-33.3	-34.0	24.1	0.00e+00	0	29	0	3066036224	38	6432
2026-01-17 04:52:47.29	319.75	9.88	-33.3	-34.1	24.1	0.00e+00	0	29	0	3072327680	38	6513
2026-01-17 04:52:48.30	319.90	9.83	-33.4	-34.0	24.1	0.00e+00	0	29	0	3077570560	38	6440
2026-01-17 04:52:49.31	320.04	9.78	-33.3	-33.9	24.2	0.00e+00	0	29	0	3082813440	38	6366
2026-01-17 04:52:50.32	320.19	9.73	-33.4	-34.1	24.0	0.00e+00	0	29	0	3089104896	38	6474
2026-01-17 04:52:51.33	320.33	9.68	-33.5	-34.1	24.0	0.00e+00	0	29	0	3094347776	38	6514
2026-01-17 04:52:52.34	320.47	9.62	-33.8	-34.6	23.7	0.00e+00	0	29	0	3100639232	38	6904
2026-01-17 04:52:53.35	320.62	9.57	-33.4	-34.2	24.0	0.00e+00	0	29	0	3105882112	40	5870
2026-01-17 04:52:54.36	320.76	9.52	-33.5	-34.2	23.8	0.00e+00	0	29	0	3111124992	40	5855
2026-01-17 04:52:55.37	320.90	9.47	-33.4	-34.1	24.1	0.00e+00	0	29	0	3117416448	40	5778
2026-01-17 04:52:56.38	321.04	9.42	-33.5	-34.1	23.9	0.00e+00	0	29	0	3122659328	40	5819
2026-01-17 04:52:57.39	321.18	9.36	-33.5	-34.1	23.9	0.00e+00	0	29	0	3128950784	40	5823
2026-01-17 04:52:58.40	321.32	9.31	-33.4	-34.2	24.0	0.00e+00	0	29	0	3134193664	40	5845
2026-01-17 04:52:59.41	321.46	9.26	-33.5	-34.2	23.9	0.00e+00	0	29	0	3139436544	40	5876
2026-01-17 04:53:00.42	321.60	9.21	-33.5	-34.2	23.9	0.00e+00	0	29	0	3145728000	40	5837
2026-01-17 04:53:01.43	321.74	9.16	-33.4	-34.0	24.0	0.00e+00	0	29	0	3150970880	40	5754
2026-01-17 04:53:02.44	321.88	9.11	-33.4	-34.1	23.9	0.00e+00	0	29	0	3157262336	40	5786
2026-01-17 04:53:03.45	322.01	9.05	-33.5	-34.2	23.9	0.00e+00	0	29	0	3162505216	40	5885
2026-01-17 04:53:04.46	322.15	9.00	-33.4	-34.1	24.0	0.00e+00	0	29	0	3167748096	40	5828
2026-01-17 04:53:05.47	322.29	8.95	-33.4	-34.2	24.0	0.00e+00	0	29	0	3174039552	40	5832
2026-01-17 04:53:06.48	322.42	8.90	-33.6	-34.2	23.8	0.00e+00	0	29	0	3179282432	40	5877
2026-01-17 04:53:07.49	322.56	8.84	-33.5	-34.2	23.9	0.00e+00	0	29	0	3185573888	40	5843
2026-01-17 04:53:08.50	322.70	8.79	-33.5	-34.1	23.9	0.00e+00	0	29	0	3190816768	40	5819
2026-01-17 04:53:09.51	322.83	8.74	-33.7	-34.5	23.7	0.00e+00	0	29	0	3197108224	40	6076
2026-01-17 04:53:10.52	322.97	8.69	-33.5	-34.2	23.8	0.00e+00	0	29	0	3202351104	40	5871
2026-01-17 04:53:11.53	323.10	8.64	-33.5	-34.2	23.8	0.00e+00	0	29	0	3207593984	40	5875
2026-01-17 04:53:12.54	323.23	8.58	-33.7	-34.5	23.7	0.00e+00	0	29	0	3213885440	40	6080
2026-01-17 04:53:13.55	323.37	8.53	-33.7	-34.5	23.7	0.00e+00	0	29	0	3219128320	40	6040
2026-01-17 04:53:14.56	323.50	8.48	-33.6	-34.4	23.8	0.00e+00	0	29	0	3225419776	40	5966
2026-01-17 04:53:15.57	323.63	8.43	-33.6	-34.4	23.7	0.00e+00	0	29	0	3230662656	40	5996
2026-01-17 04:53:16.58	323.76	8.37	-33.8	-34.6	23.5	0.00e+00	0	29	0	3235905536	40	6121
2026-01-17 04:53:17.59	323.89	8.32	-33.9	-34.7	23.5	0.00e+00	0	29	0	3242196992	40	6194
2026-01-17 04:53:18.60	324.02	8.27	-33.7	-34.4	23.6	0.00e+00	0	29	0	3247439872	40	5977
2026-01-17 04:53:19.61	324.15	8.22	-33.6	-34.4	23.7	0.00e+00	0	29	0	3253731328	40	5998
2026-01-17 04:53:20.62	324.28	8.16	-33.7	-34.5	23.6	0.00e+00	0	29	0	3258974208	40	6099
2026-01-17 04:53:21.63	324.41	8.11	-33.6	-34.4	23.7	0.00e+00	0	29	0	3264217088	40	5984
2026-01-17 04:53:22.64	324.54	8.06	-33.8	-34.6	23.5	0.00e+00	0	29	0	3270508544	40	6166
2026-01-17 04:53:23.65	324.67	8.01	-33.7	-34.5	23.6	0.00e+00	0	29	0	3275751424	40	6052
2026-01-17 04:53:24.66	324.80	7.96	-33.9	-34.7	23.3	0.00e+00	0	29	0	3282042880	40	6242
2026-01-17 04:53:25.67	324.93	7.90	-33.7	-34.4	23.6	0.00e+00	0	29	0	3287285760	40	5995
2026-01-17 04:53:26.67	325.05	7.85	-33.7	-34.4	23.6	0.00e+00	0	29	0	3293577216	40	5977
2026-01-17 04:53:27.68	325.18	7.80	-33.8	-34.6	23.6	0.00e+00	0	29	0	3298820096	40	6117
2026-01-17 04:53:28.69	325.31	7.75	-33.8	-34.6	23.5	0.00e+00	0	29	0	3305111552	40	6112
2026-01-17 04:53:29.70	325.43	7.69	-33.7	-34.4	23.5	0.00e+00	0	29	0	3310354432	40	6007
2026-01-17 04:53:30.71	325.56	7.64	-33.8	-34.5	23.4	0.00e+00	0	29	0	3315597312	40	6053
2026-01-17 04:53:31.72	325.68	7.59	-33.8	-34.5	23.4	0.00e+00	0	29	0	3321888768	40	6070
2026-01-17 04:53:32.73	325.81	7.54	-33.9	-34.7	23.4	0.00e+00	0	29	0	3327131648	40	6195
2026-01-17 04:53:33.74	325.93	7.48	-34.0	-34.8	23.2	0.00e+00	0	29	0	3333423104	40	6288
2026-01-17 04:53:34.75	326.06	7.43	-34.1	-34.9	23.2	0.00e+00	0	29	0	3338665984	40	6336
2026-01-17 04:53:35.76	326.18	7.38	-34.0	-34.7	23.2	0.00e+00	0	29	0	3343908864	40	6237
2026-01-17 04:53:36.77	326.30	7.33	-34.1	-34.9	23.2	0.00e+00	0	29	0	3350200320	40	6323
2026-01-17 04:53:37.78	326.42	7.27	-34.1	-35.0	23.1	0.00e+00	0	29	0	3355443200	40	6399
2026-01-17 04:53:38.79	326.55	7.22	-34.2	-35.0	23.1	0.00e+00	0	29	0	3361734656	40	6427
2026-01-17 04:53:39.80	326.67	7.17	-34.3	-35.1	23.0	0.00e+00	0	29	0	3366977536	40	6509
2026-01-17 04:53:40.81	326.79	7.12	-34.4	-35.2	22.9	0.00e+00	0	29	0	3372220416	40	6585
2026-01-17 04:53:41.82	326.91	7.06	-34.4	-35.1	22.9	0.00e+00	0	29	0	3378511872	40	6522
2026-01-17 04:53:42.83	327.03	7.01	-34.4	-35.2	22.8	0.00e+00	0	29	0	3383754752	40	6597
2026-01-17 04:53:43.84	327.15	6.96	-34.4	-35.3	22.8	0.00e+00	0	29	0	3390046208	40	6632
2026-01-17 04:53:44.85	327.27	6.91	-34.5	-35.3	22.7	0.00e+00	0	29	0	3395289088	40	6634
2026-01-17 04:53:45.86	327.39	6.85	-34.6	-35.5	22.6	0.00e+00	0	29	0	3401580544	40	6789
2026-01-17 04:53:46.87	327.51	6.80	-34.7	-35.5	22.5	0.00e+00	0	29	0	3406823424	40	6795
2026-01-17 04:53:47.88	327.63	6.75	-34.7	-35.4	22.6	0.00e+00	0	29	0	3412066304	42	6031
2026-01-17 04:53:48.89	327.74	6.70	-34.8	-35.6	22.5	0.00e+00	0	29	0	3418357760	42	6104
2026-01-17 04:53:49.90	327.86	6.64	-34.6	-35.5	22.6	0.00e+00	0	29	0	3423600640	42	6037
2026-01-17 04:53:50.91	327.98	6.59	-34.8	-35.7	22.4	0.00e+00	0	29	0	3429892096	42	6177
2026-01-17 04:53:51.92	328.10	6.54	-34.8	-35.5	22.4	0.00e+00	0	29	0	3435134976	42	6079
2026-01-17 04:53:52.93	328.21	6.49	-34.7	-35.4	22.2	0.00e+00	0	29	0	3440377856	42	6000
2026-01-17 04:53:53.94	328.33	6.43	-34.7	-35.5	22.4	0.00e+00	0	29	0	3446669312	42	6065
2026-01-17 04:53:54.95	328.44	6.38	-35.0	-35.9	22.2	0.00e+00	0	29	0	3451912192	42	6337
2026-01-17 04:53:55.96	328.56	6.33	-35.0	-35.7	22.1	0.00e+00	0	29	0	3458203648	42	6244
2026-01-17 04:53:56.97	328.67	6.28	-35.0	-35.7	22.2	0.00e+00	0	29	0	3463446528	42	6225
2026-01-17 04:53:57.98	328.79	6.22	-35.0	-35.7	22.2	0.00e+00	0	29	0	3468689408	42	6227
2026-01-17 04:53:58.99	328.90	6.17	-34.8	-35.6	22.3	0.00e+00	0	29	0	3474980864	42	6123
2026-01-17 04:54:00.00	329.01	6.12	-34.8	-35.6	22.2	0.00e+00	0	29	0	3480223744	42	6120
2026-01-17 04:54:01.01	329.13	6.07	-35.0	-35.8	22.3	0.00e+00	0	29	0	3486515200	42	6247
2026-01-17 04:54:02.02	329.24	6.01	-34.9	-35.8	22.1	0.00e+00	0	29	0	3491758080	42	6249
2026-01-17 04:54:03.03	329.35	5.96	-34.8	-35.5	22.3	0.00e+00	0	29	0	3498049536	42	6073
2026-01-17 04:54:04.04	329.46	5.91	-34.9	-35.7	22.2	0.00e+00	0	29	0	3503292416	42	6198
2026-01-17 04:54:05.05	329.58	5.86	-34.9	-35.7	22.1	0.00e+00	0	29	0	3509583872	42	6178
2026-01-17 04:54:06.06	329.69	5.81	-35.0	-35.9	22.1	0.00e+00	0	29	0	3514826752	42	6360
2026-01-17 04:54:07.07	329.80	5.75	-35.0	-35.8	22.2	0.00e+00	0	29	0	3520069632	42	6276
2026-01-17 04:54:08.08	329.91	5.70	-34.8	-35.6	22.2	0.00e+00	0	29	0	3526361088	42	6114
2026-01-17 04:54:09.09	330.02	5.65	-34.8	-35.5	22.3	0.00e+00	0	29	0	3531603968	42	6079
2026-01-17 04:54:10.10	330.13	5.60	-34.8	-35.6	22.2	0.00e+00	0	29	0	3537895424	42	6104
2026-01-17 04:54:11.11	330.24	5.54	-34.9	-35.8	22.1	0.00e+00	0	29	0	3543138304	42	6276
2026-01-17 04:54:12.12	330.35	5.49	-34.9	-35.7	22.1	0.00e+00	0	29	0	3548381184	42	6223
2026-01-17 04:54:13.13	330.46	5.44	-35.0	-35.8	21.9	0.00e+00	0	29	0	3554672640	42	6286
2026-01-17 04:54:14.14	330.56	5.39	-34.7	-35.6	22.2	0.00e+00	0	29	0	3559915520	42	6135
2026-01-17 04:54:15.15	330.67	5.34	-34.9	-35.8	22.0	0.00e+00	0	29	0	3566206976	42	6255
2026-01-17 04:54:16.16	330.78	5.28	-34.9	-35.7	22.0	0.00e+00	0	29	0	3571449856	42	6220
2026-01-17 04:54:17.17	330.89	5.23	-35.0	-35.8	21.9	0.00e+00	0	29	0	3576692736	42	6289
2026-01-17 04:54:18.18	330.99	5.18	-35.1	-35.9	21.8	0.00e+00	0	29	0	3582984192	42	6333
