passes_logs/2026/01/17/R4.6S_Anadyr/R4.6S_Anadyr__20260117_192651_NOAA_20_JPSS-1_rec.log

#Pass ID: 20260117_192651_NOAA 20 (JPSS-1)
#Satellite: NOAA 20 (JPSS-1)
#Configuration: NOAA 20
#almurnet v.1.7.20251203
#Start time: 2026-01-17 19:26:52

#Version: 2.2.20231116
#Station: R4.6S_Anadyr
#Location: 177.4865 lon 64.73178 lat
#TLE: 1 43013U 17073A   26016.52825843  .00000039  00000+0  39346-4 0  9991
#TLE: 2 43013  98.7637 317.4515 0001446  37.2648 322.8628 14.19536276422951

#Time	Az	El	Level	Level2	SNR	BER	BlckErr	Temp	State	Recorded	gain1	gain2
2026-01-17 19:26:52.55	53.40	0.04	-48.7	-63.6	3.5	1.51e+00	0	27	0	0	60	54713
2026-01-17 19:26:53.56	53.32	0.09	-48.9	-64.0	3.6	1.51e+00	0	28	104	0	60	57550
2026-01-17 19:26:54.57	53.24	0.14	-48.9	-64.0	3.6	1.51e+00	0	28	104	0	60	57443
2026-01-17 19:26:55.58	53.17	0.19	-48.9	-64.0	3.6	1.51e+00	0	28	104	0	60	57574
2026-01-17 19:26:56.59	53.09	0.24	-48.7	-64.0	3.6	1.51e+00	0	28	104	0	60	57002
2026-01-17 19:26:57.60	53.01	0.29	-48.9	-64.0	3.6	1.51e+00	0	28	104	0	60	57480
2026-01-17 19:26:58.61	52.94	0.34	-48.8	-64.0	3.6	1.51e+00	0	28	104	0	60	57143
2026-01-17 19:26:59.62	52.86	0.38	-48.8	-64.0	3.6	1.51e+00	0	29	104	0	60	57479
2026-01-17 19:27:00.64	52.78	0.43	-48.8	-64.0	3.6	1.51e+00	0	29	104	0	60	57513
2026-01-17 19:27:01.65	52.70	0.48	-48.8	-64.0	3.6	1.51e+00	0	29	104	0	60	57426
2026-01-17 19:27:02.66	52.62	0.53	-48.8	-64.0	3.6	1.51e+00	0	29	104	0	60	57300
2026-01-17 19:27:03.67	52.54	0.58	-48.8	-64.0	3.6	1.51e+00	0	29	104	0	60	56975
2026-01-17 19:27:04.67	52.46	0.63	-48.7	-63.9	3.6	1.51e+00	0	29	104	0	60	56796
2026-01-17 19:27:05.69	52.38	0.68	-48.7	-63.9	3.6	1.51e+00	0	29	104	0	60	56630
2026-01-17 19:27:06.70	52.30	0.73	-48.7	-63.9	3.6	1.51e+00	0	29	104	0	60	56352
2026-01-17 19:27:07.70	52.23	0.78	-48.7	-63.9	3.6	1.51e+00	0	29	104	0	60	56589
2026-01-17 19:27:08.72	52.14	0.83	-48.5	-63.7	3.6	1.51e+00	0	29	104	0	60	55534
2026-01-17 19:27:09.72	52.07	0.88	-48.4	-63.6	3.6	1.51e+00	0	29	104	0	60	54723
2026-01-17 19:27:10.73	51.98	0.93	-48.2	-63.3	3.6	1.51e+00	0	29	104	0	60	53059
2026-01-17 19:27:11.75	51.90	0.98	-47.8	-63.0	3.6	1.51e+00	0	29	104	0	60	50979
2026-01-17 19:27:12.75	51.82	1.03	-47.2	-62.3	3.6	1.51e+00	0	29	104	0	60	47170
2026-01-17 19:27:13.77	51.74	1.08	-47.1	-62.3	3.6	1.51e+00	0	29	104	0	60	46893
2026-01-17 19:27:14.78	51.66	1.12	-47.1	-62.3	3.6	1.51e+00	0	29	104	0	60	47087
2026-01-17 19:27:15.79	51.58	1.17	-47.1	-62.3	3.6	1.51e+00	0	29	104	0	60	46920
2026-01-17 19:27:16.80	51.49	1.22	-47.1	-62.2	3.6	1.51e+00	0	29	104	0	60	46810
2026-01-17 19:27:17.81	51.41	1.27	-47.1	-62.2	3.5	1.51e+00	0	29	104	0	60	46592
2026-01-17 19:27:18.82	51.33	1.32	-47.1	-62.2	3.6	1.51e+00	0	29	104	0	60	46757
2026-01-17 19:27:19.83	51.24	1.37	-47.1	-62.2	3.6	1.51e+00	0	29	104	0	60	46818
2026-01-17 19:27:20.84	51.16	1.42	-47.1	-62.2	3.6	1.51e+00	0	29	104	0	60	46687
2026-01-17 19:27:21.84	51.08	1.47	-47.1	-62.2	3.6	1.51e+00	0	29	104	0	60	46834
2026-01-17 19:27:22.85	50.99	1.52	-47.1	-62.2	3.6	1.51e+00	0	29	104	0	60	46742
2026-01-17 19:27:23.86	50.91	1.57	-47.1	-62.2	3.6	1.51e+00	0	29	104	0	60	46717
2026-01-17 19:27:24.87	50.82	1.62	-47.1	-62.2	3.6	1.51e+00	0	29	104	0	60	46342
2026-01-17 19:27:25.88	50.74	1.67	-47.1	-62.1	3.6	1.51e+00	0	29	104	0	60	46271
2026-01-17 19:27:26.89	50.65	1.72	-47.1	-62.2	3.6	1.51e+00	0	29	104	0	60	46570
2026-01-17 19:27:27.90	50.57	1.77	-47.1	-62.2	3.6	1.51e+00	0	29	104	0	60	46547
2026-01-17 19:27:28.91	50.48	1.82	-47.1	-62.2	3.6	1.51e+00	0	29	104	0	60	46528
2026-01-17 19:27:29.92	50.40	1.87	-47.1	-62.2	3.6	1.51e+00	0	29	104	0	60	46452
2026-01-17 19:27:30.93	50.31	1.92	-47.1	-62.1	3.6	1.51e+00	0	29	104	0	60	46287
2026-01-17 19:27:31.94	50.22	1.97	-47.0	-62.1	3.6	1.51e+00	0	29	104	0	60	45827
2026-01-17 19:27:32.95	50.14	2.02	-47.0	-62.0	3.6	1.51e+00	0	29	104	0	60	45575
2026-01-17 19:27:33.96	50.05	2.07	-47.0	-61.8	3.6	1.51e+00	0	29	104	0	60	44670
2026-01-17 19:27:34.97	49.96	2.12	-47.0	-61.7	3.6	1.51e+00	0	29	104	0	60	43810
2026-01-17 19:27:35.98	49.87	2.17	-47.0	-61.8	3.6	1.51e+00	0	29	104	0	60	44475
2026-01-17 19:27:36.99	49.78	2.22	-47.0	-61.9	3.6	1.51e+00	0	29	104	0	60	45041
2026-01-17 19:27:38.00	49.69	2.27	-47.0	-62.1	3.6	1.51e+00	0	29	104	0	60	46121
2026-01-17 19:27:39.01	49.61	2.32	-47.0	-62.2	3.6	1.51e+00	0	29	104	0	60	46728
2026-01-17 19:27:40.02	49.52	2.37	-47.0	-62.2	3.6	1.51e+00	0	29	104	0	60	46718
2026-01-17 19:27:41.03	49.43	2.42	-47.0	-62.1	3.6	1.51e+00	0	29	104	0	60	46213
2026-01-17 19:27:42.04	49.34	2.47	-47.0	-62.2	3.6	1.51e+00	0	29	104	0	60	46559
2026-01-17 19:27:43.05	49.25	2.52	-47.1	-62.2	3.6	1.51e+00	0	29	104	0	60	46715
2026-01-17 19:27:44.06	49.16	2.57	-47.0	-62.0	3.6	1.51e+00	0	29	104	0	60	45610
2026-01-17 19:27:45.07	49.07	2.62	-47.0	-61.5	3.6	1.51e+00	0	29	104	0	60	43024
2026-01-17 19:27:46.08	48.97	2.67	-47.0	-61.2	3.6	1.51e+00	0	29	104	0	60	41329
2026-01-17 19:27:47.09	48.88	2.72	-47.0	-61.4	3.6	1.51e+00	0	29	104	0	60	42678
2026-01-17 19:27:48.10	48.79	2.77	-47.0	-62.0	3.6	1.51e+00	0	29	104	0	60	45273
2026-01-17 19:27:49.11	48.70	2.82	-47.0	-61.1	3.6	1.51e+00	0	29	104	0	60	40847
2026-01-17 19:27:50.12	48.61	2.87	-46.8	-57.7	3.9	1.50e+00	0	29	104	0	60	27593
2026-01-17 19:27:51.13	48.51	2.92	-46.2	-53.2	7.5	2.42e-01	1	29	0	0	60	16572
2026-01-17 19:27:52.14	48.42	2.98	-45.7	-51.1	9.6	3.12e-02	92	29	0	2097152	60	12957
2026-01-17 19:27:53.15	48.33	3.03	-45.2	-49.6	11.4	5.12e-03	0	29	0	3145728	60	10946
2026-01-17 19:27:54.17	48.23	3.08	-46.7	-55.0	6.0	4.71e-01	0	29	0	5242880	60	20296
2026-01-17 19:27:55.18	48.14	3.13	-44.6	-48.2	14.2	1.27e-03	92	29	0	7340032	60	9276
2026-01-17 19:27:56.19	48.04	3.18	-46.9	-61.8	3.6	1.13e+00	0	29	104	8388608	60	44275
2026-01-17 19:27:57.20	47.95	3.23	-47.0	-59.0	4.0	1.51e+00	0	29	104	8388608	60	32248
2026-01-17 19:27:58.20	47.85	3.28	-45.7	-51.4	9.9	1.27e-01	77	29	104	8388608	60	13478
2026-01-17 19:27:59.21	47.76	3.33	-45.2	-49.6	11.5	5.78e-04	92	29	0	9437184	60	10891
2026-01-17 19:28:00.22	47.66	3.38	-44.3	-47.7	13.5	1.43e-04	0	29	0	11534336	60	8736
2026-01-17 19:28:01.23	47.57	3.43	-44.2	-47.5	13.7	2.20e-06	0	29	0	13631488	60	8591
2026-01-17 19:28:02.24	47.47	3.48	-43.8	-46.7	14.6	0.00e+00	92	29	0	14680064	60	7844
2026-01-17 19:28:03.25	47.37	3.53	-43.8	-46.7	14.1	0.00e+00	0	29	0	16777216	60	7797
2026-01-17 19:28:04.26	47.27	3.58	-44.2	-47.5	14.2	1.50e-06	92	29	0	18874368	60	8562
2026-01-17 19:28:05.27	47.18	3.63	-44.3	-47.6	14.0	2.20e-06	2	29	0	20971520	60	8644
2026-01-17 19:28:06.28	47.08	3.68	-43.8	-46.7	14.6	1.50e-06	92	29	0	23068672	60	7830
2026-01-17 19:28:07.29	46.98	3.73	-43.6	-46.3	14.7	0.00e+00	0	29	0	24117248	60	7506
2026-01-17 19:28:08.30	46.88	3.78	-43.8	-46.7	14.9	0.00e+00	92	29	0	26214400	60	7777
2026-01-17 19:28:09.31	46.78	3.84	-43.5	-46.2	15.1	7.00e-07	92	29	0	28311552	60	7338
2026-01-17 19:28:10.32	46.68	3.89	-43.6	-46.3	15.4	0.00e+00	0	29	0	30408704	60	7459
2026-01-17 19:28:11.33	46.58	3.94	-43.4	-46.1	15.5	0.00e+00	92	29	0	32505856	60	7270
2026-01-17 19:28:12.34	46.48	3.99	-43.0	-45.4	16.2	0.00e+00	79	29	0	33554432	60	6769
2026-01-17 19:28:13.35	46.38	4.04	-43.0	-45.4	16.1	0.00e+00	92	29	0	35651584	60	6759
2026-01-17 19:28:14.36	46.28	4.09	-42.8	-45.1	16.4	0.00e+00	79	29	0	37748736	58	7254
2026-01-17 19:28:15.37	46.18	4.14	-43.0	-45.3	16.1	0.00e+00	92	29	0	39845888	58	7482
2026-01-17 19:28:16.38	46.08	4.19	-42.7	-44.9	16.5	0.00e+00	47	29	0	41943040	58	7119
2026-01-17 19:28:17.39	45.98	4.24	-42.4	-44.5	17.0	0.00e+00	80	29	0	42991616	58	6815
2026-01-17 19:28:18.40	45.88	4.29	-42.2	-44.2	17.4	0.00e+00	90	29	0	45088768	58	6547
2026-01-17 19:28:19.41	45.77	4.34	-41.9	-43.8	17.7	0.00e+00	0	29	0	47185920	58	6300
2026-01-17 19:28:20.42	45.67	4.39	-41.9	-43.7	17.7	0.00e+00	92	29	0	49283072	58	6219
2026-01-17 19:28:21.43	45.57	4.45	-42.0	-43.9	17.6	0.00e+00	6	29	0	51380224	58	6348
2026-01-17 19:28:22.44	45.46	4.50	-42.2	-44.2	17.4	0.00e+00	92	29	0	52428800	58	6564
2026-01-17 19:28:23.45	45.36	4.55	-41.9	-43.8	17.8	0.00e+00	0	29	0	54525952	58	6258
2026-01-17 19:28:24.46	45.25	4.60	-41.8	-43.6	17.9	0.00e+00	6	29	0	56623104	58	6145
2026-01-17 19:28:25.47	45.15	4.65	-41.9	-43.8	17.8	0.00e+00	90	30	0	58720256	58	6279
2026-01-17 19:28:26.48	45.04	4.70	-41.8	-43.5	18.1	0.00e+00	5	29	0	60817408	56	6847
2026-01-17 19:28:27.49	44.94	4.75	-41.8	-43.6	18.0	0.00e+00	90	30	0	61865984	56	6887
2026-01-17 19:28:28.49	44.83	4.80	-41.7	-43.4	18.2	0.00e+00	2	30	0	63963136	56	6722
2026-01-17 19:28:29.51	44.73	4.85	-41.9	-43.8	17.9	0.00e+00	92	30	0	66060288	56	7016
2026-01-17 19:28:30.52	44.62	4.90	-41.8	-43.6	18.1	0.00e+00	0	30	0	68157440	56	6859
2026-01-17 19:28:31.53	44.51	4.95	-41.7	-43.4	18.1	0.00e+00	92	29	0	70254592	56	6766
2026-01-17 19:28:32.54	44.40	5.01	-41.7	-43.4	18.2	0.00e+00	37	29	0	72351744	56	6715
2026-01-17 19:28:33.55	44.30	5.06	-41.6	-43.4	18.0	0.00e+00	1	30	0	73400320	56	6695
2026-01-17 19:28:34.56	44.19	5.11	-41.8	-43.5	18.2	0.00e+00	92	29	0	75497472	56	6831
2026-01-17 19:28:35.57	44.08	5.16	-41.8	-43.6	18.0	0.00e+00	84	29	0	77594624	56	6904
2026-01-17 19:28:36.58	43.97	5.21	-41.8	-43.6	18.0	0.00e+00	92	30	0	79691776	56	6899
2026-01-17 19:28:37.59	43.86	5.26	-41.8	-43.6	18.1	0.00e+00	83	30	0	81788928	56	6871
2026-01-17 19:28:38.60	43.75	5.31	-41.6	-43.2	18.5	0.00e+00	92	29	0	82837504	56	6611
2026-01-17 19:28:39.61	43.64	5.36	-41.6	-43.2	18.5	0.00e+00	62	30	0	84934656	56	6601
2026-01-17 19:28:40.62	43.53	5.41	-41.4	-43.0	18.7	0.00e+00	6	30	0	87031808	56	6454
2026-01-17 19:28:41.63	43.42	5.46	-41.3	-42.9	18.8	0.00e+00	92	30	0	89128960	56	6339
2026-01-17 19:28:42.64	43.31	5.52	-41.2	-42.8	18.9	0.00e+00	6	30	0	91226112	56	6270
2026-01-17 19:28:43.65	43.20	5.57	-41.5	-43.1	18.7	0.00e+00	92	30	0	92274688	56	6495
2026-01-17 19:28:44.66	43.08	5.62	-41.4	-43.0	18.8	0.00e+00	0	30	0	94371840	56	6409
2026-01-17 19:28:45.67	42.97	5.67	-41.4	-43.0	18.7	0.00e+00	92	30	0	96468992	56	6439
2026-01-17 19:28:46.68	42.86	5.72	-41.5	-43.1	18.7	0.00e+00	0	30	0	98566144	56	6526
2026-01-17 19:28:47.69	42.74	5.77	-41.5	-43.1	18.8	0.00e+00	53	30	0	100663296	56	6496
2026-01-17 19:28:48.70	42.63	5.82	-41.7	-43.4	18.5	0.00e+00	92	30	0	101711872	56	6695
2026-01-17 19:28:49.71	42.52	5.87	-41.3	-42.9	18.9	0.00e+00	7	30	0	103809024	56	6343
2026-01-17 19:28:50.72	42.40	5.92	-41.3	-42.9	18.9	0.00e+00	92	30	0	105906176	56	6323
2026-01-17 19:28:51.73	42.29	5.97	-41.3	-42.9	18.9	0.00e+00	78	30	0	108003328	56	6345
2026-01-17 19:28:52.74	42.17	6.02	-41.2	-42.8	18.9	0.00e+00	90	30	0	110100480	56	6289
2026-01-17 19:28:53.75	42.05	6.08	-41.3	-42.9	18.9	0.00e+00	1	30	0	111149056	56	6336
2026-01-17 19:28:54.76	41.94	6.13	-41.3	-42.9	18.9	0.00e+00	80	30	0	113246208	56	6348
2026-01-17 19:28:55.77	41.82	6.18	-41.4	-43.0	18.9	0.00e+00	92	30	0	115343360	56	6421
2026-01-17 19:28:56.79	41.70	6.23	-41.2	-42.7	19.1	0.00e+00	0	30	0	117440512	56	6236
2026-01-17 19:28:57.80	41.59	6.28	-41.2	-42.8	19.0	0.00e+00	90	30	0	119537664	56	6251
2026-01-17 19:28:58.80	41.47	6.33	-41.2	-42.7	19.2	0.00e+00	79	30	0	120586240	56	6209
2026-01-17 19:28:59.81	41.35	6.38	-41.2	-42.7	19.2	0.00e+00	92	30	0	122683392	56	6228
2026-01-17 19:29:00.82	41.23	6.43	-41.1	-42.6	19.3	0.00e+00	2	30	0	124780544	56	6117
2026-01-17 19:29:01.83	41.11	6.48	-41.2	-42.8	19.1	0.00e+00	18	30	0	126877696	56	6258
2026-01-17 19:29:02.84	40.99	6.53	-41.3	-42.8	19.1	0.00e+00	82	30	0	128974848	56	6291
2026-01-17 19:29:03.85	40.87	6.58	-41.2	-42.7	19.1	0.00e+00	0	30	0	130023424	56	6210
2026-01-17 19:29:04.86	40.75	6.63	-41.2	-42.7	19.2	0.00e+00	92	30	0	132120576	56	6197
2026-01-17 19:29:05.87	40.63	6.68	-41.1	-42.6	19.3	0.00e+00	5	30	0	134217728	56	6118
2026-01-17 19:29:06.88	40.51	6.74	-41.0	-42.5	19.3	0.00e+00	92	30	0	136314880	56	6045
2026-01-17 19:29:07.89	40.39	6.79	-41.0	-42.5	19.4	0.00e+00	4	30	0	138412032	56	6050
2026-01-17 19:29:08.90	40.26	6.84	-41.1	-42.7	19.3	0.00e+00	90	30	0	140509184	56	6181
2026-01-17 19:29:09.91	40.14	6.89	-41.1	-42.6	19.3	0.00e+00	2	30	0	141557760	56	6125
2026-01-17 19:29:10.92	40.02	6.94	-41.1	-42.6	19.3	0.00e+00	4	30	0	143654912	56	6105
2026-01-17 19:29:11.93	39.89	6.99	-41.0	-42.5	19.4	0.00e+00	92	30	0	145752064	56	6057
2026-01-17 19:29:12.94	39.77	7.04	-41.0	-42.5	19.4	0.00e+00	3	30	0	147849216	56	6083
2026-01-17 19:29:13.95	39.65	7.09	-41.0	-42.5	19.4	0.00e+00	93	30	0	149946368	56	6068
2026-01-17 19:29:14.96	39.52	7.14	-41.2	-42.7	19.1	0.00e+00	0	30	0	150994944	56	6182
2026-01-17 19:29:15.97	39.40	7.19	-40.8	-42.2	19.7	0.00e+00	92	30	0	153092096	56	5896
2026-01-17 19:29:16.98	39.27	7.24	-40.9	-42.4	19.5	0.00e+00	0	30	0	155189248	56	5989
2026-01-17 19:29:17.99	39.14	7.29	-41.0	-42.4	19.5	0.00e+00	0	30	0	157286400	56	6002
2026-01-17 19:29:19.00	39.02	7.34	-41.0	-42.5	19.4	0.00e+00	91	30	0	159383552	56	6073
2026-01-17 19:29:20.01	38.89	7.39	-40.9	-42.4	19.6	0.00e+00	0	30	0	160432128	56	5966
2026-01-17 19:29:21.02	38.76	7.44	-41.0	-42.4	19.5	0.00e+00	91	30	0	162529280	56	6018
2026-01-17 19:29:22.03	38.63	7.49	-40.8	-42.2	19.7	0.00e+00	0	30	0	164626432	56	5884
2026-01-17 19:29:23.04	38.51	7.54	-40.8	-42.2	19.7	0.00e+00	0	30	0	166723584	56	5883
2026-01-17 19:29:24.05	38.38	7.59	-40.9	-42.4	19.6	0.00e+00	0	30	0	168820736	56	5980
2026-01-17 19:29:25.06	38.25	7.64	-40.6	-42.0	19.9	0.00e+00	2	30	0	169869312	54	6433
2026-01-17 19:29:26.07	38.12	7.69	-40.7	-42.1	19.7	0.00e+00	91	30	0	171966464	54	6519
2026-01-17 19:29:27.08	37.99	7.74	-40.6	-42.1	19.8	0.00e+00	4	30	0	174063616	54	6472
2026-01-17 19:29:28.09	37.86	7.79	-40.8	-42.2	19.7	0.00e+00	92	30	0	176160768	54	6553
2026-01-17 19:29:29.10	37.72	7.84	-40.6	-41.9	20.0	0.00e+00	4	30	0	178257920	54	6386
2026-01-17 19:29:30.11	37.59	7.89	-40.7	-42.1	19.8	0.00e+00	92	30	0	179306496	54	6515
2026-01-17 19:29:31.12	37.46	7.94	-40.5	-41.8	20.1	0.00e+00	2	30	0	181403648	54	6298
2026-01-17 19:29:32.13	37.33	7.99	-40.5	-41.9	20.1	0.00e+00	5	30	0	183500800	54	6325
2026-01-17 19:29:33.14	37.19	8.04	-40.3	-41.6	20.3	0.00e+00	0	30	0	185597952	54	6146
2026-01-17 19:29:34.15	37.06	8.09	-40.4	-41.8	20.2	0.00e+00	75	30	0	187695104	54	6252
2026-01-17 19:29:35.16	36.93	8.14	-40.4	-41.7	20.1	0.00e+00	92	30	0	188743680	54	6223
2026-01-17 19:29:36.17	36.79	8.19	-40.5	-41.8	20.2	0.00e+00	82	30	0	190840832	54	6316
2026-01-17 19:29:37.18	36.66	8.24	-40.3	-41.6	20.3	0.00e+00	92	30	0	192937984	54	6157
2026-01-17 19:29:38.19	36.52	8.29	-40.3	-41.6	20.3	0.00e+00	2	30	0	195035136	54	6133
2026-01-17 19:29:39.20	36.39	8.34	-40.4	-41.7	20.2	0.00e+00	0	30	0	197132288	54	6206
2026-01-17 19:29:40.21	36.25	8.39	-40.3	-41.6	20.2	0.00e+00	0	30	0	198180864	54	6163
2026-01-17 19:29:41.22	36.11	8.44	-40.2	-41.5	20.4	0.00e+00	0	30	0	200278016	54	6094
2026-01-17 19:29:42.23	35.98	8.49	-40.3	-41.6	20.3	0.00e+00	92	30	0	202375168	54	6125
2026-01-17 19:29:43.24	35.84	8.54	-40.4	-41.8	20.2	0.00e+00	0	30	0	204472320	54	6256
2026-01-17 19:29:44.25	35.70	8.58	-40.5	-41.8	20.2	0.00e+00	92	30	0	206569472	54	6285
2026-01-17 19:29:45.26	35.56	8.63	-40.2	-41.5	20.5	0.00e+00	0	30	0	208666624	54	6087
2026-01-17 19:29:46.27	35.42	8.68	-40.2	-41.5	20.4	0.00e+00	0	30	0	209715200	54	6076
2026-01-17 19:29:47.28	35.28	8.73	-40.3	-41.6	20.4	0.00e+00	0	30	0	211812352	54	6135
2026-01-17 19:29:48.29	35.14	8.78	-40.4	-41.8	20.2	0.00e+00	4	30	0	213909504	54	6266
2026-01-17 19:29:49.30	35.00	8.83	-40.3	-41.6	20.4	0.00e+00	71	30	0	216006656	54	6172
2026-01-17 19:29:50.31	34.86	8.88	-40.3	-41.6	20.3	0.00e+00	0	30	0	218103808	54	6161
2026-01-17 19:29:51.32	34.72	8.93	-40.3	-41.6	20.3	0.00e+00	92	30	0	219152384	54	6162
2026-01-17 19:29:52.33	34.58	8.97	-40.5	-41.8	20.2	0.00e+00	77	30	0	221249536	54	6272
2026-01-17 19:29:53.34	34.43	9.02	-40.5	-41.9	20.2	0.00e+00	78	30	0	223346688	54	6318
2026-01-17 19:29:54.35	34.29	9.07	-40.4	-41.7	20.3	0.00e+00	2	30	0	225443840	54	6206
2026-01-17 19:29:55.36	34.15	9.12	-40.5	-41.8	20.2	0.00e+00	0	30	0	227540992	54	6276
2026-01-17 19:29:56.37	34.00	9.17	-40.4	-41.7	20.4	0.00e+00	0	30	0	228589568	54	6201
2026-01-17 19:29:57.38	33.86	9.22	-40.4	-41.7	20.4	0.00e+00	0	30	0	230686720	54	6186
2026-01-17 19:29:58.39	33.71	9.26	-40.4	-41.7	20.3	0.00e+00	92	30	0	232783872	54	6203
2026-01-17 19:29:59.40	33.57	9.31	-40.3	-41.6	20.5	0.00e+00	79	30	0	234881024	54	6127
2026-01-17 19:30:00.41	33.42	9.36	-40.4	-41.7	20.3	0.00e+00	92	30	0	236978176	54	6238
2026-01-17 19:30:01.42	33.27	9.41	-40.3	-41.6	20.4	0.00e+00	5	30	0	238026752	54	6156
2026-01-17 19:30:02.43	33.13	9.46	-40.2	-41.5	20.5	0.00e+00	0	30	0	240123904	54	6059
2026-01-17 19:30:03.44	32.98	9.50	-40.0	-41.2	20.8	0.00e+00	0	30	0	242221056	54	5855
2026-01-17 19:30:04.45	32.83	9.55	-40.0	-41.2	20.7	0.00e+00	0	30	0	244318208	54	5877
2026-01-17 19:30:05.46	32.68	9.60	-39.9	-41.1	20.9	0.00e+00	91	30	0	246415360	54	5780
2026-01-17 19:30:06.47	32.53	9.65	-39.8	-41.0	21.0	0.00e+00	8	30	0	248512512	54	5707
2026-01-17 19:30:07.48	32.38	9.69	-40.0	-41.2	20.9	0.00e+00	92	30	0	249561088	54	5861
2026-01-17 19:30:08.49	32.23	9.74	-39.6	-40.8	21.2	0.00e+00	3	30	0	251658240	52	6293
2026-01-17 19:30:09.50	32.08	9.79	-39.7	-40.9	21.0	0.00e+00	4	30	0	253755392	52	6359
2026-01-17 19:30:10.51	31.93	9.83	-39.6	-40.7	21.2	0.00e+00	6	30	0	255852544	52	6240
2026-01-17 19:30:11.52	31.78	9.88	-39.5	-40.6	21.4	0.00e+00	82	30	0	257949696	52	6169
2026-01-17 19:30:12.53	31.63	9.93	-39.5	-40.7	21.4	0.00e+00	22	30	0	258998272	52	6176
2026-01-17 19:30:13.54	31.48	9.97	-39.5	-40.6	21.4	0.00e+00	5	30	0	261095424	52	6169
2026-01-17 19:30:14.55	31.32	10.02	-39.4	-40.5	21.5	0.00e+00	90	30	0	263192576	52	6066
2026-01-17 19:30:15.56	31.17	10.07	-39.4	-40.5	21.6	0.00e+00	3	30	0	265289728	52	6056
2026-01-17 19:30:16.57	31.02	10.11	-39.1	-40.2	21.9	0.00e+00	92	30	0	267386880	52	5838
2026-01-17 19:30:17.58	30.86	10.16	-39.1	-40.2	21.8	0.00e+00	2	30	0	268435456	52	5859
2026-01-17 19:30:18.59	30.71	10.21	-39.0	-40.1	21.8	0.00e+00	0	30	0	270532608	52	5811
2026-01-17 19:30:19.60	30.55	10.25	-38.9	-40.0	22.0	0.00e+00	2	30	0	272629760	52	5725
2026-01-17 19:30:20.61	30.40	10.30	-39.0	-40.1	21.9	0.00e+00	0	30	0	274726912	52	5767
2026-01-17 19:30:21.62	30.24	10.34	-39.1	-40.1	21.8	0.00e+00	92	30	0	276824064	52	5824
2026-01-17 19:30:22.63	30.08	10.39	-39.0	-40.1	22.0	0.00e+00	0	30	0	277872640	52	5775
2026-01-17 19:30:23.64	29.93	10.43	-38.9	-40.0	22.0	0.00e+00	92	30	0	279969792	52	5724
2026-01-17 19:30:24.65	29.77	10.48	-38.9	-39.9	22.1	0.00e+00	7	30	0	282066944	52	5680
2026-01-17 19:30:25.66	29.61	10.52	-38.8	-39.8	22.1	0.00e+00	0	30	0	284164096	52	5604
2026-01-17 19:30:26.67	29.45	10.57	-38.9	-40.0	22.0	0.00e+00	6	30	0	286261248	52	5699
2026-01-17 19:30:27.68	29.29	10.61	-39.1	-40.2	21.9	0.00e+00	4	30	0	287309824	52	5830
2026-01-17 19:30:28.69	29.13	10.66	-38.9	-40.0	22.0	0.00e+00	90	30	0	289406976	52	5724
2026-01-17 19:30:29.71	28.97	10.70	-39.0	-40.1	21.9	0.00e+00	6	30	0	291504128	52	5808
2026-01-17 19:30:30.72	28.81	10.75	-39.0	-40.0	22.0	0.00e+00	92	30	0	293601280	52	5760
2026-01-17 19:30:31.73	28.65	10.79	-38.6	-39.6	22.5	0.00e+00	76	30	0	295698432	50	6140
2026-01-17 19:30:32.74	28.49	10.84	-38.5	-39.5	22.5	0.00e+00	75	30	0	296747008	50	6065
2026-01-17 19:30:33.75	28.32	10.88	-38.6	-39.6	22.4	0.00e+00	5	30	0	298844160	50	6128
2026-01-17 19:30:34.76	28.16	10.93	-38.5	-39.6	22.5	0.00e+00	76	30	0	300941312	50	6120
2026-01-17 19:30:35.77	28.00	10.97	-38.6	-39.6	22.4	0.00e+00	91	30	0	303038464	50	6120
2026-01-17 19:30:36.77	27.83	11.01	-38.6	-39.7	22.4	0.00e+00	0	30	0	305135616	50	6191
2026-01-17 19:30:37.79	27.67	11.06	-38.5	-39.5	22.4	0.00e+00	91	30	0	306184192	50	6060
2026-01-17 19:30:38.80	27.50	11.10	-38.7	-39.7	22.3	0.00e+00	0	30	0	308281344	50	6234
2026-01-17 19:30:39.81	27.34	11.14	-38.5	-39.5	22.6	0.00e+00	92	30	0	310378496	50	6053
2026-01-17 19:30:40.82	27.17	11.19	-38.6	-39.6	22.4	0.00e+00	0	30	0	312475648	50	6152
2026-01-17 19:30:41.83	27.01	11.23	-38.3	-39.3	22.7	0.00e+00	0	30	0	314572800	50	5904
2026-01-17 19:30:42.84	26.84	11.27	-38.4	-39.4	22.6	0.00e+00	3	30	0	316669952	50	6010
2026-01-17 19:30:43.85	26.67	11.31	-38.2	-39.2	22.5	0.00e+00	0	30	0	317718528	50	5854
2026-01-17 19:30:44.86	26.50	11.36	-38.2	-39.2	22.8	0.00e+00	92	30	0	319815680	50	5829
2026-01-17 19:30:45.87	26.34	11.40	-38.2	-39.1	22.8	0.00e+00	0	30	0	321912832	50	5818
2026-01-17 19:30:46.88	26.17	11.44	-38.1	-39.0	22.9	0.00e+00	5	30	0	324009984	50	5752
2026-01-17 19:30:47.89	26.00	11.48	-38.2	-39.1	22.8	0.00e+00	0	30	0	326107136	50	5820
2026-01-17 19:30:48.90	25.83	11.52	-38.1	-39.1	22.9	0.00e+00	5	30	0	327155712	50	5778
2026-01-17 19:30:49.91	25.66	11.57	-38.3	-39.3	22.7	0.00e+00	0	30	0	329252864	50	5917
2026-01-17 19:30:50.92	25.49	11.61	-38.3	-39.3	22.8	0.00e+00	0	30	0	331350016	50	5905
2026-01-17 19:30:51.93	25.32	11.65	-38.1	-39.0	22.9	0.00e+00	92	30	0	333447168	50	5738
2026-01-17 19:30:52.94	25.14	11.69	-38.1	-39.0	23.0	0.00e+00	4	30	0	335544320	50	5743
2026-01-17 19:30:53.95	24.97	11.73	-37.9	-38.9	23.0	0.00e+00	92	30	0	336592896	50	5636
2026-01-17 19:30:54.96	24.80	11.77	-38.1	-39.1	22.9	0.00e+00	77	30	0	338690048	50	5798
2026-01-17 19:30:55.96	24.63	11.81	-38.1	-39.1	22.8	0.00e+00	76	30	0	340787200	50	5811
2026-01-17 19:30:56.98	24.45	11.85	-38.2	-39.2	22.8	0.00e+00	78	30	0	342884352	50	5880
2026-01-17 19:30:57.99	24.28	11.89	-38.3	-39.3	22.7	0.00e+00	76	30	0	344981504	50	5905
2026-01-17 19:30:59.00	24.10	11.93	-38.3	-39.3	22.7	0.00e+00	92	30	0	346030080	50	5936
2026-01-17 19:31:00.01	23.93	11.97	-38.4	-39.3	22.5	0.00e+00	0	30	0	348127232	50	5963
2026-01-17 19:31:01.02	23.75	12.01	-38.2	-39.2	22.8	0.00e+00	92	30	0	350224384	50	5847
2026-01-17 19:31:02.03	23.58	12.05	-38.2	-39.2	22.8	0.00e+00	0	30	0	352321536	50	5840
2026-01-17 19:31:03.04	23.40	12.09	-38.3	-39.3	22.8	0.00e+00	2	30	0	354418688	50	5900
2026-01-17 19:31:04.05	23.22	12.13	-38.4	-39.4	22.6	0.00e+00	0	30	0	355467264	50	5980
2026-01-17 19:31:05.06	23.05	12.17	-38.4	-39.5	22.5	0.00e+00	0	30	0	357564416	50	6035
2026-01-17 19:31:06.07	22.87	12.20	-38.6	-39.6	22.4	0.00e+00	0	30	0	359661568	50	6156
2026-01-17 19:31:07.08	22.69	12.24	-38.7	-39.7	22.3	0.00e+00	0	30	0	361758720	50	6237
2026-01-17 19:31:08.09	22.51	12.28	-38.6	-39.6	22.4	0.00e+00	92	30	0	363855872	50	6134
2026-01-17 19:31:09.10	22.33	12.32	-38.6	-39.6	22.4	0.00e+00	6	30	0	364904448	50	6167
2026-01-17 19:31:10.11	22.15	12.36	-38.7	-39.7	22.4	0.00e+00	92	30	0	367001600	50	6229
2026-01-17 19:31:11.12	21.97	12.39	-38.6	-39.6	22.5	0.00e+00	78	30	0	369098752	50	6119
2026-01-17 19:31:12.13	21.79	12.43	-38.5	-39.5	22.5	0.00e+00	74	30	0	371195904	50	6094
2026-01-17 19:31:13.14	21.61	12.47	-38.4	-39.4	22.6	0.00e+00	0	30	0	373293056	50	5995
2026-01-17 19:31:14.15	21.43	12.50	-38.3	-39.3	22.7	0.00e+00	0	30	0	374341632	50	5900
2026-01-17 19:31:15.16	21.24	12.54	-38.3	-39.3	22.7	0.00e+00	92	30	0	376438784	50	5912
2026-01-17 19:31:16.17	21.06	12.58	-38.4	-39.4	22.6	0.00e+00	0	30	0	378535936	50	5971
2026-01-17 19:31:17.18	20.88	12.61	-38.3	-39.3	22.7	0.00e+00	90	30	0	380633088	50	5922
2026-01-17 19:31:18.19	20.70	12.65	-38.5	-39.6	22.5	0.00e+00	0	30	0	382730240	50	6104
2026-01-17 19:31:19.20	20.51	12.68	-38.5	-39.5	22.6	0.00e+00	0	30	0	384827392	50	6037
2026-01-17 19:31:20.21	20.33	12.72	-38.5	-39.5	22.6	0.00e+00	0	30	0	385875968	50	6084
2026-01-17 19:31:21.22	20.14	12.75	-38.4	-39.4	22.7	0.00e+00	2	30	0	387973120	50	5965
2026-01-17 19:31:22.24	19.96	12.79	-38.3	-39.3	22.8	0.00e+00	73	30	0	390070272	50	5921
2026-01-17 19:31:23.24	19.77	12.82	-38.4	-39.4	22.7	0.00e+00	0	30	0	392167424	50	5968
2026-01-17 19:31:24.26	19.58	12.86	-38.3	-39.3	22.8	0.00e+00	92	30	0	394264576	50	5931
2026-01-17 19:31:25.26	19.40	12.89	-38.4	-39.3	22.7	0.00e+00	0	30	0	395313152	50	5948
2026-01-17 19:31:26.28	19.21	12.92	-38.3	-39.3	22.8	0.00e+00	4	30	0	397410304	50	5920
2026-01-17 19:31:27.29	19.02	12.96	-38.3	-39.3	22.8	0.00e+00	0	30	0	399507456	50	5899
2026-01-17 19:31:28.30	18.83	12.99	-38.2	-39.2	22.9	0.00e+00	0	30	0	401604608	50	5874
2026-01-17 19:31:29.31	18.65	13.02	-38.1	-39.1	22.9	0.00e+00	0	30	0	403701760	50	5786
2026-01-17 19:31:30.32	18.46	13.06	-38.1	-39.0	22.8	0.00e+00	0	30	0	404750336	50	5735
2026-01-17 19:31:31.33	18.27	13.09	-38.1	-39.1	23.0	0.00e+00	90	30	0	406847488	50	5762
2026-01-17 19:31:32.34	18.08	13.12	-38.3	-39.3	22.8	0.00e+00	0	30	0	408944640	50	5900
2026-01-17 19:31:33.35	17.89	13.15	-38.4	-39.4	22.6	0.00e+00	92	30	0	411041792	50	5982
2026-01-17 19:31:34.36	17.70	13.19	-38.3	-39.3	22.9	0.00e+00	82	30	0	413138944	50	5900
2026-01-17 19:31:35.37	17.51	13.22	-38.1	-39.1	22.9	0.00e+00	0	30	0	414187520	50	5799
2026-01-17 19:31:36.38	17.32	13.25	-38.1	-39.0	23.0	0.00e+00	5	30	0	416284672	50	5750
2026-01-17 19:31:37.39	17.12	13.28	-38.3	-39.2	22.8	0.00e+00	0	30	0	418381824	50	5895
2026-01-17 19:31:38.40	16.93	13.31	-38.2	-39.1	22.9	0.00e+00	92	30	0	420478976	50	5828
2026-01-17 19:31:39.41	16.74	13.34	-38.3	-39.3	22.8	0.00e+00	0	30	0	422576128	50	5938
2026-01-17 19:31:40.42	16.55	13.37	-38.2	-39.2	22.9	0.00e+00	68	30	0	424673280	50	5877
2026-01-17 19:31:41.43	16.35	13.40	-38.1	-39.0	23.0	0.00e+00	5	30	0	425721856	50	5761
2026-01-17 19:31:42.44	16.16	13.43	-38.0	-38.9	23.1	0.00e+00	6	30	0	427819008	50	5690
2026-01-17 19:31:43.45	15.97	13.46	-38.0	-38.9	23.1	0.00e+00	6	30	0	429916160	50	5691
2026-01-17 19:31:44.47	15.77	13.49	-38.1	-39.0	23.0	0.00e+00	6	30	0	432013312	50	5757
2026-01-17 19:31:45.47	15.58	13.51	-38.1	-39.1	22.9	0.00e+00	90	30	0	434110464	50	5792
2026-01-17 19:31:46.49	15.38	13.54	-38.2	-39.1	22.9	0.00e+00	4	30	0	435159040	50	5804
2026-01-17 19:31:47.50	15.18	13.57	-38.1	-39.1	23.0	0.00e+00	92	30	0	437256192	50	5788
2026-01-17 19:31:48.51	14.99	13.60	-38.1	-39.1	22.9	0.00e+00	4	30	0	439353344	50	5791
2026-01-17 19:31:49.52	14.79	13.63	-38.0	-39.0	23.1	0.00e+00	6	30	0	441450496	50	5707
2026-01-17 19:31:50.53	14.60	13.65	-38.0	-39.0	23.0	0.00e+00	81	30	0	443547648	50	5698
2026-01-17 19:31:51.54	14.40	13.68	-37.9	-38.8	23.2	0.00e+00	3	30	0	444596224	50	5611
2026-01-17 19:31:52.55	14.20	13.71	-37.9	-38.8	23.1	0.00e+00	12	30	0	446693376	50	5607
2026-01-17 19:31:53.56	14.00	13.73	-38.0	-39.0	23.1	0.00e+00	2	30	0	448790528	50	5704
2026-01-17 19:31:54.57	13.80	13.76	-38.1	-39.1	23.0	0.00e+00	92	30	0	450887680	50	5766
2026-01-17 19:31:55.58	13.61	13.78	-38.3	-39.3	22.8	0.00e+00	0	30	0	452984832	50	5931
2026-01-17 19:31:56.59	13.41	13.81	-38.2	-39.2	22.7	0.00e+00	92	30	0	454033408	50	5871
2026-01-17 19:31:57.60	13.21	13.83	-38.4	-39.3	22.8	0.00e+00	0	30	0	456130560	50	5959
2026-01-17 19:31:58.61	13.01	13.86	-38.3	-39.2	22.8	0.00e+00	0	30	0	458227712	50	5883
2026-01-17 19:31:59.62	12.81	13.88	-38.3	-39.3	22.7	0.00e+00	0	30	0	460324864	50	5931
2026-01-17 19:32:00.63	12.61	13.91	-38.5	-39.5	22.7	0.00e+00	6	30	0	462422016	50	6056
2026-01-17 19:32:01.64	12.41	13.93	-38.7	-39.7	22.4	0.00e+00	92	30	0	463470592	50	6226
2026-01-17 19:32:02.65	12.21	13.95	-38.5	-39.5	22.6	0.00e+00	6	30	0	465567744	50	6100
2026-01-17 19:32:03.66	12.01	13.98	-38.5	-39.5	22.6	0.00e+00	92	30	0	467664896	50	6075
2026-01-17 19:32:04.67	11.81	14.00	-38.4	-39.4	22.8	0.00e+00	0	30	0	469762048	50	5988
2026-01-17 19:32:05.68	11.60	14.02	-38.5	-39.5	22.6	0.00e+00	6	30	0	471859200	50	6087
2026-01-17 19:32:06.69	11.40	14.04	-38.6	-39.5	22.6	0.00e+00	0	30	0	472907776	50	6099
2026-01-17 19:32:07.70	11.20	14.06	-38.6	-39.6	22.5	0.00e+00	0	30	0	475004928	50	6150
2026-01-17 19:32:08.71	11.00	14.08	-38.8	-39.8	22.4	0.00e+00	84	30	0	477102080	50	6285
2026-01-17 19:32:09.72	10.79	14.11	-38.8	-39.8	22.4	0.00e+00	4	30	0	479199232	50	6299
2026-01-17 19:32:10.73	10.59	14.13	-38.9	-40.0	22.2	0.00e+00	92	30	0	481296384	50	6398
2026-01-17 19:32:11.74	10.39	14.15	-39.0	-40.1	22.2	0.00e+00	4	30	0	482344960	50	6489
2026-01-17 19:32:12.75	10.18	14.17	-38.9	-40.0	22.2	0.00e+00	4	30	0	484442112	50	6412
2026-01-17 19:32:13.76	9.98	14.19	-39.0	-40.1	22.2	0.00e+00	75	30	0	486539264	50	6506
2026-01-17 19:32:14.77	9.78	14.20	-38.8	-39.8	22.4	0.00e+00	0	30	0	488636416	50	6309
2026-01-17 19:32:15.78	9.57	14.22	-38.8	-39.8	22.3	0.00e+00	0	30	0	490733568	50	6291
2026-01-17 19:32:16.79	9.37	14.24	-38.9	-40.0	22.2	0.00e+00	76	30	0	492830720	50	6412
2026-01-17 19:32:17.80	9.16	14.26	-38.9	-40.0	22.2	0.00e+00	92	30	0	493879296	50	6405
2026-01-17 19:32:18.81	8.96	14.28	-39.1	-40.1	22.1	0.00e+00	0	30	0	495976448	50	6514
2026-01-17 19:32:19.82	8.75	14.29	-38.8	-39.9	22.4	0.00e+00	0	30	0	498073600	50	6320
2026-01-17 19:32:20.83	8.55	14.31	-38.7	-39.7	22.4	0.00e+00	0	30	0	500170752	50	6210
2026-01-17 19:32:21.84	8.34	14.33	-38.7	-39.7	22.4	0.00e+00	0	30	0	502267904	50	6184
2026-01-17 19:32:22.85	8.13	14.34	-38.4	-39.3	22.8	0.00e+00	0	30	0	503316480	50	5955
2026-01-17 19:32:23.86	7.93	14.36	-38.4	-39.3	22.9	0.00e+00	0	30	0	505413632	50	5941
2026-01-17 19:32:24.87	7.72	14.38	-38.5	-39.5	22.7	0.00e+00	90	30	0	507510784	50	6051
2026-01-17 19:32:25.88	7.51	14.39	-38.4	-39.4	22.7	0.00e+00	4	30	0	509607936	50	5982
2026-01-17 19:32:26.89	7.31	14.41	-38.4	-39.4	22.8	0.00e+00	90	30	0	511705088	50	5996
2026-01-17 19:32:27.90	7.10	14.42	-38.3	-39.2	22.9	0.00e+00	4	30	0	512753664	50	5870
2026-01-17 19:32:28.91	6.89	14.43	-38.3	-39.3	22.9	0.00e+00	5	30	0	514850816	50	5911
2026-01-17 19:32:29.92	6.68	14.45	-38.2	-39.2	23.0	0.00e+00	76	30	0	516947968	50	5839
2026-01-17 19:32:30.93	6.48	14.46	-38.2	-39.1	23.0	0.00e+00	0	30	0	519045120	50	5806
2026-01-17 19:32:31.94	6.27	14.47	-38.4	-39.3	22.8	0.00e+00	92	30	0	521142272	50	5958
2026-01-17 19:32:32.95	6.06	14.49	-38.4	-39.4	22.8	0.00e+00	0	30	0	522190848	50	5979
2026-01-17 19:32:33.96	5.85	14.50	-38.5	-39.5	22.6	0.00e+00	91	30	0	524288000	50	6093
2026-01-17 19:32:34.97	5.64	14.51	-38.5	-39.5	22.7	0.00e+00	3	30	0	526385152	50	6062
2026-01-17 19:32:35.99	5.43	14.52	-38.5	-39.5	22.7	0.00e+00	81	30	0	528482304	50	6079
2026-01-17 19:32:37.00	5.22	14.53	-38.4	-39.4	22.8	0.00e+00	0	30	0	530579456	50	6017
2026-01-17 19:32:38.01	5.01	14.54	-38.4	-39.4	22.8	0.00e+00	0	30	0	531628032	50	6003
2026-01-17 19:32:39.02	4.80	14.56	-38.4	-39.4	22.8	0.00e+00	92	30	0	533725184	50	6003
2026-01-17 19:32:40.03	4.59	14.57	-38.5	-39.5	22.8	0.00e+00	2	30	0	535822336	50	6036
2026-01-17 19:32:41.04	4.39	14.57	-38.5	-39.5	22.7	0.00e+00	90	30	0	537919488	50	6066
2026-01-17 19:32:42.05	4.18	14.58	-38.6	-39.6	22.7	0.00e+00	0	30	0	540016640	50	6122
2026-01-17 19:32:43.06	3.97	14.59	-38.5	-39.5	22.6	0.00e+00	82	30	0	541065216	50	6096
2026-01-17 19:32:44.07	3.76	14.60	-38.5	-39.5	22.6	0.00e+00	0	30	0	543162368	50	6097
2026-01-17 19:32:45.08	3.55	14.61	-38.4	-39.4	22.7	0.00e+00	6	30	0	545259520	50	6013
2026-01-17 19:32:46.09	3.34	14.62	-38.4	-39.4	22.8	0.00e+00	0	30	0	547356672	50	5984
2026-01-17 19:32:47.10	3.13	14.62	-38.3	-39.3	22.8	0.00e+00	5	30	0	549453824	50	5940
2026-01-17 19:32:48.11	2.91	14.63	-38.4	-39.4	22.8	0.00e+00	90	30	0	550502400	50	6011
2026-01-17 19:32:49.12	2.70	14.64	-38.4	-39.4	22.8	0.00e+00	76	30	0	552599552	50	5994
2026-01-17 19:32:50.13	2.49	14.64	-38.4	-39.4	22.8	0.00e+00	92	30	0	554696704	50	6025
2026-01-17 19:32:51.14	2.28	14.65	-38.6	-39.6	22.7	0.00e+00	0	30	0	556793856	50	6143
2026-01-17 19:32:52.15	2.07	14.66	-38.7	-39.7	22.6	0.00e+00	6	30	0	558891008	50	6244
2026-01-17 19:32:53.16	1.86	14.66	-38.8	-39.9	22.5	0.00e+00	81	30	0	560988160	50	6320
2026-01-17 19:32:54.17	1.65	14.66	-38.5	-39.5	22.8	0.00e+00	81	30	0	562036736	50	6050
2026-01-17 19:32:55.18	1.44	14.67	-38.5	-39.5	22.8	0.00e+00	90	30	0	564133888	50	6095
2026-01-17 19:32:56.19	1.23	14.67	-38.4	-39.3	23.0	0.00e+00	78	30	0	566231040	50	5964
2026-01-17 19:32:57.20	1.02	14.68	-38.4	-39.4	22.7	0.00e+00	90	30	0	568328192	50	5971
2026-01-17 19:32:58.21	0.81	14.68	-38.3	-39.2	22.8	0.00e+00	0	30	0	570425344	50	5882
2026-01-17 19:32:59.22	0.60	14.68	-38.4	-39.3	22.9	0.00e+00	0	30	0	571473920	50	5946
2026-01-17 19:33:00.23	0.38	14.68	-38.2	-39.1	23.1	0.00e+00	0	30	0	573571072	50	5803
2026-01-17 19:33:01.24	0.17	14.69	-38.3	-39.3	22.9	0.00e+00	0	30	0	575668224	50	5918
2026-01-17 19:33:02.25	359.96	14.69	-38.3	-39.3	22.9	0.00e+00	82	30	0	577765376	50	5909
2026-01-17 19:33:03.26	359.75	14.69	-38.3	-39.3	22.9	0.00e+00	0	30	0	579862528	50	5925
2026-01-17 19:33:04.27	359.54	14.69	-38.4	-39.4	22.7	0.00e+00	92	30	0	580911104	50	5979
2026-01-17 19:33:05.28	359.33	14.69	-38.4	-39.3	22.9	0.00e+00	0	30	0	583008256	50	5947
2026-01-17 19:33:06.29	359.12	14.69	-38.4	-39.3	22.9	0.00e+00	0	30	0	585105408	50	5957
2026-01-17 19:33:07.30	358.91	14.69	-38.2	-39.2	23.0	0.00e+00	0	30	0	587202560	50	5851
2026-01-17 19:33:08.31	358.70	14.69	-38.2	-39.2	23.0	0.00e+00	0	30	0	589299712	50	5859
2026-01-17 19:33:09.32	358.48	14.69	-38.3	-39.3	22.9	0.00e+00	0	30	0	590348288	50	5908
2026-01-17 19:33:10.33	358.27	14.69	-38.3	-39.3	22.2	0.00e+00	4	30	0	592445440	50	5899
2026-01-17 19:33:11.34	358.06	14.68	-38.3	-39.3	22.9	0.00e+00	92	30	0	594542592	50	5942
2026-01-17 19:33:12.35	357.85	14.68	-38.3	-39.2	22.9	0.00e+00	5	30	0	596639744	50	5896
2026-01-17 19:33:13.36	357.64	14.68	-38.4	-39.4	22.8	0.00e+00	92	30	0	598736896	50	5984
2026-01-17 19:33:14.37	357.43	14.68	-38.3	-39.3	22.9	0.00e+00	0	30	0	600834048	50	5917
2026-01-17 19:33:15.37	357.22	14.67	-38.3	-39.2	23.0	0.00e+00	0	30	0	601882624	50	5887
2026-01-17 19:33:16.39	357.01	14.67	-38.4	-39.4	22.8	0.00e+00	78	30	0	603979776	50	5968
2026-01-17 19:33:17.40	356.80	14.66	-38.3	-39.3	22.9	0.00e+00	0	30	0	606076928	50	5902
2026-01-17 19:33:18.41	356.58	14.66	-38.3	-39.3	22.8	0.00e+00	92	30	0	608174080	50	5922
2026-01-17 19:33:19.42	356.37	14.65	-38.5	-39.5	22.7	0.00e+00	0	30	0	610271232	50	6080
2026-01-17 19:33:20.43	356.16	14.65	-38.7	-39.7	22.5	0.00e+00	91	30	0	611319808	50	6208
2026-01-17 19:33:21.44	355.95	14.64	-38.8	-39.8	22.4	0.00e+00	2	30	0	613416960	50	6270
2026-01-17 19:33:22.45	355.74	14.64	-38.7	-39.7	22.6	0.00e+00	6	30	0	615514112	50	6201
2026-01-17 19:33:23.46	355.53	14.63	-38.8	-39.8	22.4	0.00e+00	5	30	0	617611264	50	6266
2026-01-17 19:33:24.47	355.32	14.62	-38.8	-39.8	22.4	0.00e+00	3	30	0	619708416	50	6298
2026-01-17 19:33:25.48	355.11	14.61	-38.7	-39.8	22.5	0.00e+00	0	30	0	620756992	50	6248
2026-01-17 19:33:26.49	354.90	14.61	-38.8	-39.8	22.5	0.00e+00	2	30	0	622854144	50	6267
2026-01-17 19:33:27.50	354.69	14.60	-38.7	-39.7	22.5	0.00e+00	92	30	0	624951296	50	6187
2026-01-17 19:33:28.51	354.48	14.59	-38.7	-39.7	22.5	0.00e+00	5	30	0	627048448	50	6187
2026-01-17 19:33:29.52	354.27	14.58	-38.9	-39.9	22.4	0.00e+00	2	30	0	629145600	50	6334
2026-01-17 19:33:30.53	354.06	14.57	-38.7	-39.7	22.6	0.00e+00	86	30	0	630194176	50	6214
2026-01-17 19:33:31.54	353.85	14.56	-38.7	-39.7	22.6	0.00e+00	0	30	0	632291328	50	6201
2026-01-17 19:33:32.55	353.64	14.55	-38.6	-39.6	22.6	0.00e+00	0	30	0	634388480	50	6159
2026-01-17 19:33:33.56	353.43	14.54	-38.7	-39.7	22.5	0.00e+00	0	30	0	636485632	50	6176
2026-01-17 19:33:34.57	353.23	14.53	-38.9	-39.9	22.4	0.00e+00	90	30	0	638582784	50	6378
2026-01-17 19:33:35.58	353.02	14.52	-39.0	-40.0	22.3	0.00e+00	0	30	0	639631360	50	6416
2026-01-17 19:33:36.59	352.81	14.51	-39.1	-40.1	22.2	0.00e+00	92	30	0	641728512	50	6516
2026-01-17 19:33:37.60	352.60	14.50	-39.0	-40.0	22.3	0.00e+00	4	30	0	643825664	50	6411
2026-01-17 19:33:38.61	352.39	14.48	-39.0	-40.1	22.2	0.00e+00	85	30	0	645922816	50	6476
2026-01-17 19:33:39.62	352.18	14.47	-38.8	-39.8	22.5	0.00e+00	0	30	0	648019968	50	6302
2026-01-17 19:33:40.63	351.97	14.46	-38.7	-39.7	22.6	0.00e+00	7	30	0	649068544	50	6226
2026-01-17 19:33:41.64	351.77	14.44	-38.7	-39.7	22.4	0.00e+00	92	30	0	651165696	50	6230
2026-01-17 19:33:42.65	351.56	14.43	-38.5	-39.4	22.8	0.00e+00	0	30	0	653262848	50	6022
2026-01-17 19:33:43.66	351.35	14.42	-38.5	-39.4	22.8	0.00e+00	92	30	0	655360000	50	6031
2026-01-17 19:33:44.67	351.14	14.40	-38.4	-39.4	22.8	0.00e+00	6	30	0	657457152	50	5989
2026-01-17 19:33:45.69	350.94	14.39	-38.3	-39.3	22.9	0.00e+00	8	30	0	658505728	50	5932
2026-01-17 19:33:46.70	350.73	14.37	-38.4	-39.4	22.8	0.00e+00	6	30	0	660602880	50	5979
2026-01-17 19:33:47.71	350.52	14.35	-38.6	-39.6	22.6	0.00e+00	6	30	0	662700032	50	6110
2026-01-17 19:33:48.72	350.32	14.34	-38.6	-39.6	22.7	0.00e+00	92	30	0	664797184	50	6172
2026-01-17 19:33:49.73	350.11	14.32	-38.6	-39.6	22.6	0.00e+00	5	30	0	666894336	50	6109
2026-01-17 19:33:50.73	349.91	14.31	-38.7	-39.7	22.5	0.00e+00	92	30	0	668991488	50	6187
2026-01-17 19:33:51.74	349.70	14.29	-38.6	-39.6	22.7	0.00e+00	5	30	0	670040064	50	6163
2026-01-17 19:33:52.75	349.49	14.27	-38.5	-39.5	22.7	0.00e+00	5	30	0	672137216	50	6049
2026-01-17 19:33:53.76	349.29	14.25	-38.6	-39.6	22.7	0.00e+00	76	30	0	674234368	50	6127
2026-01-17 19:33:54.77	349.08	14.24	-38.6	-39.6	22.6	0.00e+00	77	30	0	676331520	50	6112
2026-01-17 19:33:55.78	348.88	14.22	-38.4	-39.3	22.9	0.00e+00	0	30	0	678428672	50	5943
2026-01-17 19:33:56.79	348.68	14.20	-38.3	-39.3	22.9	0.00e+00	77	30	0	679477248	50	5927
2026-01-17 19:33:57.80	348.47	14.18	-38.4	-39.4	22.7	0.00e+00	91	30	0	681574400	50	6000
2026-01-17 19:33:58.81	348.27	14.16	-38.6	-39.5	22.5	0.00e+00	0	30	0	683671552	50	6101
2026-01-17 19:33:59.82	348.06	14.14	-38.4	-39.3	22.8	0.00e+00	95	30	0	685768704	50	5952
2026-01-17 19:34:00.83	347.86	14.12	-38.4	-39.4	22.8	0.00e+00	0	30	0	687865856	50	5977
2026-01-17 19:34:01.84	347.66	14.10	-38.3	-39.2	22.9	0.00e+00	0	30	0	688914432	50	5883
2026-01-17 19:34:02.85	347.46	14.08	-38.4	-39.4	22.9	0.00e+00	0	30	0	691011584	50	5982
2026-01-17 19:34:03.86	347.25	14.06	-38.3	-39.2	22.9	0.00e+00	0	30	0	693108736	50	5896
2026-01-17 19:34:04.87	347.05	14.03	-38.3	-39.3	22.9	0.00e+00	92	30	0	695205888	50	5911
2026-01-17 19:34:05.88	346.85	14.01	-38.5	-39.5	22.7	0.00e+00	3	30	0	697303040	50	6036
2026-01-17 19:34:06.89	346.65	13.99	-38.4	-39.3	22.8	0.00e+00	92	30	0	698351616	50	5963
2026-01-17 19:34:07.90	346.45	13.97	-38.4	-39.4	22.8	0.00e+00	0	30	0	700448768	50	5977
2026-01-17 19:34:08.91	346.24	13.94	-38.5	-39.5	22.8	0.00e+00	0	30	0	702545920	50	6056
2026-01-17 19:34:09.92	346.04	13.92	-38.6	-39.6	22.6	0.00e+00	82	30	0	704643072	50	6116
2026-01-17 19:34:10.93	345.84	13.90	-38.6	-39.6	22.6	0.00e+00	2	30	0	706740224	50	6162
2026-01-17 19:34:11.94	345.64	13.87	-38.7	-39.7	22.5	0.00e+00	92	30	0	707788800	50	6177
2026-01-17 19:34:12.95	345.44	13.85	-38.8	-39.8	22.4	0.00e+00	4	30	0	709885952	50	6268
2026-01-17 19:34:13.96	345.25	13.82	-38.7	-39.7	22.5	0.00e+00	92	30	0	711983104	50	6235
2026-01-17 19:34:14.97	345.05	13.80	-38.8	-39.8	22.5	0.00e+00	77	30	0	714080256	50	6258
2026-01-17 19:34:15.99	344.85	13.77	-38.8	-39.8	22.4	0.00e+00	0	30	0	716177408	50	6276
2026-01-17 19:34:17.00	344.65	13.75	-38.8	-39.8	22.5	0.00e+00	80	30	0	717225984	50	6311
2026-01-17 19:34:18.01	344.45	13.72	-38.8	-39.9	22.4	0.00e+00	0	30	0	719323136	50	6324
2026-01-17 19:34:19.02	344.25	13.70	-38.5	-39.5	22.7	0.00e+00	90	30	0	721420288	50	6085
2026-01-17 19:34:20.03	344.05	13.67	-38.6	-39.7	22.6	0.00e+00	0	30	0	723517440	50	6174
2026-01-17 19:34:21.04	343.86	13.64	-38.8	-39.8	22.5	0.00e+00	91	30	0	725614592	50	6264
2026-01-17 19:34:22.05	343.66	13.62	-38.6	-39.6	22.6	0.00e+00	0	30	0	726663168	50	6169
2026-01-17 19:34:23.06	343.47	13.59	-38.8	-39.8	22.4	0.00e+00	72	30	0	728760320	50	6272
2026-01-17 19:34:24.07	343.27	13.56	-38.6	-39.6	22.5	0.00e+00	0	30	0	730857472	50	6173
2026-01-17 19:34:25.08	343.07	13.53	-38.7	-39.7	22.5	0.00e+00	0	30	0	732954624	50	6211
2026-01-17 19:34:26.09	342.88	13.51	-38.7	-39.7	22.5	0.00e+00	2	30	0	735051776	50	6227
2026-01-17 19:34:27.10	342.68	13.48	-38.7	-39.7	22.5	0.00e+00	0	30	0	737148928	50	6240
2026-01-17 19:34:28.11	342.49	13.45	-38.9	-39.9	22.3	0.00e+00	92	30	0	738197504	50	6357
2026-01-17 19:34:29.12	342.30	13.42	-38.9	-39.9	22.4	0.00e+00	4	30	0	740294656	50	6349
2026-01-17 19:34:30.14	342.10	13.39	-39.0	-40.0	22.3	0.00e+00	92	30	0	742391808	50	6451
2026-01-17 19:34:31.15	341.91	13.36	-38.9	-39.9	22.3	0.00e+00	4	30	0	744488960	50	6389
2026-01-17 19:34:32.16	341.72	13.33	-38.8	-39.9	22.4	0.00e+00	3	30	0	746586112	50	6345
2026-01-17 19:34:33.17	341.52	13.30	-38.9	-39.9	22.4	0.00e+00	82	30	0	747634688	50	6358
2026-01-17 19:34:34.18	341.33	13.27	-38.8	-39.9	22.4	0.00e+00	0	30	0	749731840	50	6324
2026-01-17 19:34:35.19	341.14	13.24	-38.7	-39.7	22.6	0.00e+00	92	30	0	751828992	50	6201
2026-01-17 19:34:36.20	340.95	13.21	-38.6	-39.6	22.6	0.00e+00	80	30	0	753926144	50	6105
2026-01-17 19:34:37.21	340.76	13.17	-38.5	-39.5	22.7	0.00e+00	92	30	0	756023296	50	6055
2026-01-17 19:34:38.22	340.57	13.14	-38.4	-39.4	22.6	0.00e+00	0	30	0	757071872	50	6019
2026-01-17 19:34:39.23	340.38	13.11	-38.4	-39.4	22.7	0.00e+00	19	30	0	759169024	50	6018
2026-01-17 19:34:40.24	340.19	13.08	-38.4	-39.4	22.7	0.00e+00	0	30	0	761266176	50	6024
2026-01-17 19:34:41.25	340.00	13.05	-38.5	-39.5	22.6	0.00e+00	0	30	0	763363328	50	6040
2026-01-17 19:34:42.26	339.81	13.01	-38.5	-39.5	22.7	0.00e+00	0	30	0	765460480	50	6087
2026-01-17 19:34:43.27	339.62	12.98	-38.5	-39.5	22.7	0.00e+00	0	30	0	766509056	50	6047
2026-01-17 19:34:44.28	339.44	12.95	-38.3	-39.3	22.8	0.00e+00	92	30	0	768606208	50	5934
2026-01-17 19:34:45.29	339.25	12.91	-38.4	-39.4	22.8	0.00e+00	2	30	0	770703360	50	5987
2026-01-17 19:34:46.30	339.06	12.88	-38.4	-39.4	22.9	0.00e+00	0	30	0	772800512	50	5974
2026-01-17 19:34:47.31	338.87	12.85	-38.5	-39.5	22.6	0.00e+00	1	30	0	774897664	50	6047
2026-01-17 19:34:48.32	338.69	12.81	-38.4	-39.4	22.8	0.00e+00	0	30	0	776994816	50	5980
2026-01-17 19:34:49.33	338.50	12.78	-38.2	-39.2	22.9	0.00e+00	0	30	0	778043392	50	5867
2026-01-17 19:34:50.34	338.32	12.74	-38.3	-39.3	22.8	0.00e+00	0	30	0	780140544	50	5919
2026-01-17 19:34:51.35	338.13	12.71	-38.5	-39.5	22.7	0.00e+00	92	30	0	782237696	50	6048
2026-01-17 19:34:52.36	337.95	12.67	-38.5	-39.5	22.4	0.00e+00	78	30	0	784334848	50	6057
2026-01-17 19:34:53.37	337.77	12.64	-38.5	-39.6	22.6	0.00e+00	92	30	0	786432000	50	6106
2026-01-17 19:34:54.39	337.58	12.60	-38.5	-39.5	22.6	0.00e+00	0	30	0	787480576	50	6067
2026-01-17 19:34:55.40	337.40	12.56	-38.4	-39.4	22.8	0.00e+00	80	30	0	789577728	50	5983
2026-01-17 19:34:56.41	337.22	12.53	-38.5	-39.5	22.5	0.00e+00	82	30	0	791674880	50	6043
2026-01-17 19:34:57.42	337.03	12.49	-38.4	-39.4	22.7	0.00e+00	0	30	0	793772032	50	6012
2026-01-17 19:34:58.42	336.85	12.45	-38.4	-39.4	22.8	0.00e+00	90	30	0	795869184	50	5992
2026-01-17 19:34:59.43	336.67	12.42	-38.4	-39.3	22.8	0.00e+00	0	30	0	796917760	50	5948
2026-01-17 19:35:00.44	336.49	12.38	-38.4	-39.4	22.7	0.00e+00	92	30	0	799014912	50	6000
2026-01-17 19:35:01.45	336.31	12.34	-38.2	-39.2	22.9	0.00e+00	6	30	0	801112064	50	5850
2026-01-17 19:35:02.46	336.13	12.31	-38.4	-39.4	22.8	0.00e+00	56	30	0	803209216	50	5982
2026-01-17 19:35:03.47	335.95	12.27	-38.3	-39.3	22.8	0.00e+00	5	30	0	805306368	50	5925
2026-01-17 19:35:04.47	335.78	12.23	-38.3	-39.3	22.8	0.00e+00	6	30	0	806354944	50	5925
2026-01-17 19:35:05.48	335.60	12.19	-38.4	-39.4	22.7	0.00e+00	16	30	0	808452096	50	6001
2026-01-17 19:35:06.49	335.42	12.15	-38.4	-39.4	22.7	0.00e+00	0	30	0	810549248	50	5972
2026-01-17 19:35:07.50	335.24	12.11	-38.4	-39.4	22.7	0.00e+00	90	30	0	812646400	50	5998
2026-01-17 19:35:08.51	335.07	12.08	-38.6	-39.6	22.6	0.00e+00	7	30	0	814743552	50	6145
2026-01-17 19:35:09.52	334.89	12.04	-38.4	-39.4	22.8	0.00e+00	90	30	0	815792128	50	6011
2026-01-17 19:35:10.53	334.71	12.00	-38.6	-39.5	22.6	0.00e+00	1	30	0	817889280	50	6102
2026-01-17 19:35:11.54	334.54	11.96	-38.7	-39.7	22.4	0.00e+00	2	30	0	819986432	50	6207
2026-01-17 19:35:12.55	334.36	11.92	-38.8	-39.8	22.3	0.00e+00	0	30	0	822083584	50	6303
2026-01-17 19:35:13.56	334.19	11.88	-38.8	-39.8	22.4	0.00e+00	0	30	0	824180736	50	6279
2026-01-17 19:35:14.57	334.02	11.84	-38.8	-39.9	22.3	0.00e+00	92	30	0	825229312	50	6326
2026-01-17 19:35:15.58	333.84	11.80	-39.0	-40.0	22.2	0.00e+00	84	30	0	827326464	50	6411
2026-01-17 19:35:16.59	333.67	11.76	-39.1	-40.2	22.0	0.00e+00	92	30	0	829423616	50	6552
2026-01-17 19:35:17.60	333.50	11.72	-39.0	-40.1	22.1	0.00e+00	84	30	0	831520768	50	6489
2026-01-17 19:35:18.61	333.32	11.68	-39.2	-40.3	21.9	0.00e+00	0	30	0	833617920	50	6637
2026-01-17 19:35:19.62	333.15	11.64	-39.4	-40.5	21.7	0.00e+00	0	30	0	834666496	50	6774
2026-01-17 19:35:20.63	332.98	11.59	-39.2	-40.2	22.0	0.00e+00	0	30	0	836763648	50	6613
2026-01-17 19:35:21.65	332.81	11.55	-39.2	-40.3	21.9	0.00e+00	75	30	0	838860800	50	6664
2026-01-17 19:35:22.66	332.64	11.51	-39.3	-40.4	21.7	0.00e+00	6	30	0	840957952	50	6713
2026-01-17 19:35:23.66	332.47	11.47	-39.3	-40.4	21.8	0.00e+00	92	30	0	843055104	50	6742
2026-01-17 19:35:24.68	332.30	11.43	-39.4	-40.4	21.7	0.00e+00	6	30	0	845152256	50	6769
2026-01-17 19:35:25.69	332.13	11.38	-39.5	-40.6	21.5	0.00e+00	76	30	0	846200832	50	6914
2026-01-17 19:35:26.70	331.96	11.34	-39.6	-40.7	21.5	0.00e+00	3	30	0	848297984	50	6997
2026-01-17 19:35:27.71	331.80	11.30	-39.6	-40.7	21.5	0.00e+00	6	30	0	850395136	50	6941
2026-01-17 19:35:28.72	331.63	11.26	-39.7	-40.8	21.4	0.00e+00	88	30	0	852492288	50	7082
2026-01-17 19:35:29.73	331.46	11.21	-39.8	-40.9	21.3	0.00e+00	80	30	0	854589440	50	7166
2026-01-17 19:35:30.74	331.30	11.17	-39.9	-41.1	21.2	0.00e+00	91	30	0	855638016	52	6504
2026-01-17 19:35:31.75	331.13	11.13	-39.9	-41.1	21.1	0.00e+00	80	30	0	857735168	52	6513
2026-01-17 19:35:32.76	330.97	11.09	-40.3	-41.5	20.9	0.00e+00	91	30	0	859832320	52	6803
2026-01-17 19:35:33.77	330.80	11.04	-40.2	-41.4	20.9	0.00e+00	79	30	0	861929472	52	6740
2026-01-17 19:35:34.78	330.64	11.00	-40.3	-41.5	20.8	0.00e+00	0	30	0	864026624	52	6822
2026-01-17 19:35:35.79	330.47	10.96	-40.4	-41.6	20.7	0.00e+00	72	30	0	865075200	52	6891
2026-01-17 19:35:36.80	330.31	10.91	-40.4	-41.6	20.5	0.00e+00	0	30	0	867172352	52	6904
2026-01-17 19:35:37.81	330.15	10.87	-40.4	-41.7	20.6	0.00e+00	91	30	0	869269504	52	6973
2026-01-17 19:35:38.82	329.99	10.82	-40.5	-41.7	20.7	0.00e+00	0	30	0	871366656	52	6982
2026-01-17 19:35:39.83	329.82	10.78	-40.5	-41.7	20.6	0.00e+00	92	30	0	873463808	52	6996
2026-01-17 19:35:40.84	329.66	10.73	-40.5	-41.7	20.5	0.00e+00	0	30	0	874512384	52	6975
2026-01-17 19:35:41.85	329.50	10.69	-40.5	-41.8	20.6	0.00e+00	0	30	0	876609536	52	7034
2026-01-17 19:35:42.86	329.34	10.65	-40.4	-41.7	20.6	0.00e+00	0	30	0	878706688	52	6956
2026-01-17 19:35:43.87	329.18	10.60	-40.5	-41.8	20.5	0.00e+00	0	30	0	880803840	52	7023
2026-01-17 19:35:44.88	329.02	10.56	-40.5	-41.8	20.5	0.00e+00	92	30	0	882900992	52	7036
2026-01-17 19:35:45.89	328.86	10.51	-40.6	-41.9	20.3	0.00e+00	0	30	0	883949568	52	7155
2026-01-17 19:35:46.90	328.71	10.47	-40.7	-42.0	20.3	0.00e+00	92	30	0	886046720	54	6421
2026-01-17 19:35:47.91	328.55	10.42	-40.8	-42.1	20.2	0.00e+00	2	30	0	888143872	54	6492
2026-01-17 19:35:48.92	328.39	10.37	-40.9	-42.3	20.0	0.00e+00	81	30	0	890241024	54	6621
2026-01-17 19:35:49.93	328.23	10.33	-41.0	-42.4	19.8	0.00e+00	80	30	0	892338176	54	6753
2026-01-17 19:35:50.94	328.08	10.28	-41.2	-42.7	19.7	0.00e+00	81	30	0	893386752	54	6941
2026-01-17 19:35:51.95	327.92	10.24	-41.1	-42.5	19.7	0.00e+00	88	30	0	895483904	54	6834
2026-01-17 19:35:52.96	327.77	10.19	-41.2	-42.6	19.7	0.00e+00	81	30	0	897581056	54	6862
2026-01-17 19:35:53.97	327.61	10.15	-41.1	-42.5	19.8	0.00e+00	92	30	0	899678208	54	6819
2026-01-17 19:35:54.97	327.46	10.10	-41.1	-42.5	19.8	0.00e+00	2	30	0	901775360	54	6789
2026-01-17 19:35:55.98	327.31	10.05	-41.0	-42.3	19.9	0.00e+00	92	30	0	902823936	54	6673
2026-01-17 19:35:56.99	327.15	10.01	-41.0	-42.3	20.0	0.00e+00	0	30	0	904921088	54	6667
2026-01-17 19:35:58.00	327.00	9.96	-41.0	-42.4	19.9	0.00e+00	80	30	0	907018240	54	6735
2026-01-17 19:35:59.01	326.85	9.91	-41.1	-42.5	19.8	0.00e+00	3	30	0	909115392	54	6780
2026-01-17 19:36:00.02	326.70	9.87	-41.2	-42.7	19.7	0.00e+00	0	30	0	911212544	54	6929
2026-01-17 19:36:01.03	326.55	9.82	-41.2	-42.7	19.6	0.00e+00	92	30	0	913309696	54	6962
2026-01-17 19:36:02.04	326.39	9.77	-41.3	-42.8	19.5	0.00e+00	0	30	0	914358272	54	7012
2026-01-17 19:36:03.05	326.24	9.73	-41.3	-42.8	19.5	0.00e+00	92	30	0	916455424	54	7033
2026-01-17 19:36:04.06	326.09	9.68	-41.4	-42.9	19.3	0.00e+00	0	30	0	918552576	54	7140
2026-01-17 19:36:05.07	325.95	9.63	-41.4	-42.9	19.3	0.00e+00	2	30	0	920649728	54	7133
2026-01-17 19:36:06.08	325.80	9.58	-41.6	-43.2	19.2	0.00e+00	0	30	0	922746880	54	7351
2026-01-17 19:36:07.09	325.65	9.54	-41.8	-43.4	19.0	0.00e+00	0	30	0	923795456	54	7548
2026-01-17 19:36:08.10	325.50	9.49	-41.9	-43.5	18.9	0.00e+00	89	30	0	925892608	56	6796
2026-01-17 19:36:09.10	325.35	9.44	-42.1	-43.8	18.6	0.00e+00	0	30	0	927989760	56	7056
2026-01-17 19:36:10.11	325.21	9.39	-42.3	-44.0	18.4	0.00e+00	92	30	0	930086912	56	7208
2026-01-17 19:36:11.12	325.06	9.35	-42.5	-44.3	18.1	0.00e+00	0	30	0	932184064	56	7494
2026-01-17 19:36:12.11	324.92	9.30	-42.2	-43.9	18.4	0.00e+00	82	30	0	933232640	56	7158
2026-01-17 19:36:13.12	324.77	9.25	-42.1	-43.8	18.6	0.00e+00	1	30	0	935329792	56	7042
2026-01-17 19:36:14.13	324.63	9.20	-41.6	-43.1	19.3	2.20e-06	3	30	0	937426944	56	6488
2026-01-17 19:36:15.15	324.48	9.16	-41.6	-43.1	19.2	0.00e+00	0	30	0	939524096	56	6530
2026-01-17 19:36:16.15	324.34	9.11	-41.7	-43.3	19.0	0.00e+00	0	30	0	941621248	56	6653
2026-01-17 19:36:17.16	324.20	9.06	-41.7	-43.3	19.1	0.00e+00	91	30	0	942669824	56	6624
2026-01-17 19:36:18.17	324.05	9.01	-41.5	-43.0	19.2	0.00e+00	0	30	0	944766976	56	6459
2026-01-17 19:36:19.18	323.91	8.96	-41.5	-43.0	19.3	0.00e+00	0	30	0	946864128	56	6461
2026-01-17 19:36:20.19	323.77	8.91	-41.4	-42.9	19.5	0.00e+00	0	30	0	948961280	56	6327
2026-01-17 19:36:21.20	323.63	8.87	-41.4	-42.9	19.5	0.00e+00	0	30	0	951058432	56	6333
2026-01-17 19:36:22.21	323.49	8.82	-41.3	-42.8	19.5	0.00e+00	0	30	0	952107008	56	6254
2026-01-17 19:36:23.22	323.35	8.77	-41.2	-42.6	19.7	0.00e+00	2	30	0	954204160	56	6161
2026-01-17 19:36:24.23	323.21	8.72	-41.2	-42.6	19.7	0.00e+00	90	30	0	956301312	56	6129
2026-01-17 19:36:25.24	323.07	8.67	-41.0	-42.4	19.9	0.00e+00	0	30	0	958398464	56	5992
2026-01-17 19:36:26.25	322.93	8.62	-41.0	-42.4	19.9	0.00e+00	52	30	0	960495616	56	5997
2026-01-17 19:36:27.26	322.79	8.57	-41.0	-42.4	19.9	0.00e+00	0	30	0	961544192	56	5983
2026-01-17 19:36:28.27	322.65	8.52	-41.0	-42.4	19.8	0.00e+00	0	30	0	963641344	56	6011
2026-01-17 19:36:29.28	322.51	8.47	-41.1	-42.5	19.7	0.00e+00	0	30	0	965738496	56	6098
2026-01-17 19:36:30.29	322.38	8.42	-41.0	-42.4	19.9	0.00e+00	0	30	0	967835648	56	6005
2026-01-17 19:36:31.30	322.24	8.38	-41.0	-42.5	19.8	0.00e+00	84	30	0	969932800	56	6041
2026-01-17 19:36:32.31	322.10	8.33	-40.9	-42.3	19.9	0.00e+00	80	30	0	970981376	56	5935
2026-01-17 19:36:33.32	321.97	8.28	-40.9	-42.3	20.0	0.00e+00	91	30	0	973078528	56	5940
2026-01-17 19:36:34.33	321.83	8.23	-40.9	-42.2	20.0	0.00e+00	0	30	0	975175680	56	5875
2026-01-17 19:36:35.34	321.70	8.18	-40.9	-42.3	20.0	0.00e+00	0	30	0	977272832	56	5903
2026-01-17 19:36:36.35	321.56	8.13	-40.8	-42.1	20.1	0.00e+00	0	30	0	979369984	56	5816
2026-01-17 19:36:37.36	321.43	8.08	-40.8	-42.2	20.1	0.00e+00	81	30	0	981467136	56	5869
2026-01-17 19:36:38.37	321.30	8.03	-40.6	-42.0	20.1	0.00e+00	69	30	0	982515712	54	6403
2026-01-17 19:36:39.38	321.16	7.98	-40.7	-42.0	20.1	0.00e+00	0	30	0	984612864	54	6427
2026-01-17 19:36:40.39	321.03	7.93	-40.6	-42.0	20.2	0.00e+00	92	30	0	986710016	54	6393
2026-01-17 19:36:41.40	320.90	7.88	-40.5	-41.8	20.3	0.00e+00	6	30	0	988807168	54	6315
2026-01-17 19:36:42.41	320.77	7.83	-40.4	-41.6	20.5	0.00e+00	6	30	0	990904320	54	6163
2026-01-17 19:36:43.42	320.64	7.78	-40.3	-41.5	20.5	0.00e+00	0	30	0	991952896	54	6079
2026-01-17 19:36:44.43	320.50	7.73	-40.3	-41.5	20.6	0.00e+00	0	30	0	994050048	54	6089
2026-01-17 19:36:45.44	320.37	7.68	-40.1	-41.4	20.7	0.00e+00	0	30	0	996147200	54	5971
2026-01-17 19:36:46.45	320.24	7.63	-40.1	-41.4	20.7	0.00e+00	6	30	0	998244352	54	5968
2026-01-17 19:36:47.46	320.12	7.58	-40.0	-41.2	20.9	0.00e+00	93	30	0	1000341504	54	5843
2026-01-17 19:36:48.47	319.99	7.53	-40.0	-41.3	20.8	0.00e+00	0	30	0	1001390080	54	5913
2026-01-17 19:36:49.48	319.86	7.48	-39.9	-41.1	21.0	0.00e+00	92	30	0	1003487232	54	5794
2026-01-17 19:36:50.49	319.73	7.43	-39.8	-41.0	21.0	0.00e+00	0	30	0	1005584384	54	5760
2026-01-17 19:36:51.50	319.60	7.38	-39.7	-40.9	21.2	0.00e+00	0	30	0	1007681536	52	6364
2026-01-17 19:36:52.51	319.48	7.33	-39.8	-41.0	21.1	0.00e+00	0	30	0	1009778688	52	6407
2026-01-17 19:36:53.52	319.35	7.28	-39.8	-40.9	21.2	0.00e+00	0	30	0	1010827264	52	6389
2026-01-17 19:36:54.53	319.22	7.23	-39.7	-40.8	21.2	0.00e+00	91	30	0	1012924416	52	6303
2026-01-17 19:36:55.54	319.10	7.18	-39.6	-40.8	21.3	0.00e+00	0	30	0	1015021568	52	6257
2026-01-17 19:36:56.55	318.97	7.13	-39.7	-40.9	21.2	0.00e+00	92	30	0	1017118720	52	6336
2026-01-17 19:36:57.56	318.85	7.08	-39.6	-40.8	21.3	0.00e+00	4	30	0	1019215872	52	6247
2026-01-17 19:36:58.57	318.72	7.03	-39.6	-40.8	21.2	0.00e+00	85	30	0	1020264448	52	6272
2026-01-17 19:36:59.58	318.60	6.98	-39.6	-40.7	21.3	0.00e+00	0	30	0	1022361600	52	6217
2026-01-17 19:37:00.59	318.48	6.93	-39.6	-40.7	21.2	0.00e+00	87	30	0	1024458752	52	6241
2026-01-17 19:37:01.60	318.35	6.88	-39.6	-40.8	21.2	0.00e+00	90	30	0	1026555904	52	6256
2026-01-17 19:37:02.61	318.23	6.82	-39.5	-40.7	21.1	0.00e+00	7	30	0	1028653056	52	6174
2026-01-17 19:37:03.62	318.11	6.77	-39.5	-40.6	21.3	0.00e+00	90	30	0	1029701632	52	6147
2026-01-17 19:37:04.63	317.99	6.72	-39.6	-40.8	21.2	0.00e+00	6	30	0	1031798784	52	6261
2026-01-17 19:37:05.64	317.86	6.67	-39.3	-40.4	21.5	0.00e+00	20	30	0	1033895936	52	6032
2026-01-17 19:37:06.65	317.74	6.62	-39.2	-40.3	21.6	0.00e+00	0	30	0	1035993088	52	5939
2026-01-17 19:37:07.66	317.62	6.57	-39.2	-40.3	21.5	0.00e+00	7	30	0	1038090240	52	5948
2026-01-17 19:37:08.67	317.50	6.52	-39.3	-40.4	21.4	0.00e+00	0	30	0	1039138816	52	5987
2026-01-17 19:37:09.68	317.38	6.47	-39.3	-40.4	21.6	0.00e+00	7	30	0	1041235968	52	5971
2026-01-17 19:37:10.69	317.26	6.42	-39.5	-40.6	21.4	0.00e+00	92	30	0	1043333120	52	6143
2026-01-17 19:37:11.70	317.15	6.37	-39.4	-40.5	21.3	0.00e+00	0	30	0	1045430272	52	6087
2026-01-17 19:37:12.71	317.03	6.32	-39.3	-40.5	21.5	0.00e+00	91	30	0	1047527424	52	6064
2026-01-17 19:37:13.72	316.91	6.27	-39.5	-40.6	21.3	0.00e+00	82	30	0	1049624576	52	6137
2026-01-17 19:37:14.73	316.79	6.22	-39.3	-40.4	21.5	0.00e+00	80	30	0	1050673152	52	6000
2026-01-17 19:37:15.74	316.67	6.17	-39.5	-40.6	21.3	0.00e+00	82	30	0	1052770304	52	6167
2026-01-17 19:37:16.75	316.56	6.11	-39.5	-40.7	21.2	0.00e+00	82	30	0	1054867456	52	6207
2026-01-17 19:37:17.76	316.44	6.06	-39.4	-40.6	21.3	0.00e+00	92	30	0	1056964608	52	6142
2026-01-17 19:37:18.77	316.33	6.01	-39.5	-40.6	21.3	0.00e+00	0	30	0	1059061760	52	6150
2026-01-17 19:37:19.78	316.21	5.96	-39.6	-40.8	21.1	0.00e+00	92	30	0	1060110336	52	6249
2026-01-17 19:37:20.79	316.10	5.91	-39.7	-40.8	21.0	0.00e+00	0	30	0	1062207488	52	6316
2026-01-17 19:37:21.80	315.98	5.86	-39.6	-40.7	21.2	0.00e+00	0	30	0	1064304640	52	6233
2026-01-17 19:37:22.81	315.87	5.81	-39.3	-40.5	21.4	0.00e+00	2	30	0	1066401792	52	6063
2026-01-17 19:37:23.82	315.75	5.76	-39.5	-40.6	21.3	0.00e+00	0	30	0	1068498944	52	6154
2026-01-17 19:37:24.83	315.64	5.71	-39.5	-40.7	21.1	0.00e+00	77	30	0	1069547520	52	6222
2026-01-17 19:37:25.84	315.53	5.66	-39.7	-40.9	21.0	0.00e+00	0	30	0	1071644672	52	6386
2026-01-17 19:37:26.85	315.41	5.61	-39.8	-41.0	20.9	0.00e+00	92	30	0	1073741824	52	6453
2026-01-17 19:37:27.86	315.30	5.55	-40.0	-41.3	20.7	0.00e+00	0	30	0	1075838976	52	6633
2026-01-17 19:37:28.87	315.19	5.50	-40.0	-41.3	20.4	0.00e+00	5	30	0	1077936128	52	6657
2026-01-17 19:37:29.88	315.08	5.45	-40.3	-41.6	20.4	0.00e+00	0	30	0	1078984704	52	6864
2026-01-17 19:37:30.89	314.97	5.40	-40.4	-41.8	20.1	0.00e+00	0	30	0	1081081856	52	7035
2026-01-17 19:37:31.90	314.86	5.35	-40.8	-42.2	19.8	0.00e+00	0	30	0	1083179008	54	6550
2026-01-17 19:37:32.91	314.75	5.30	-41.1	-42.5	19.3	0.00e+00	82	30	0	1085276160	54	6842
2026-01-17 19:37:33.92	314.64	5.25	-41.2	-42.7	19.2	0.00e+00	90	30	0	1087373312	54	6968
2026-01-17 19:37:34.93	314.53	5.20	-41.6	-43.2	18.7	0.00e+00	0	30	0	1088421888	54	7365
2026-01-17 19:37:35.94	314.42	5.15	-41.9	-43.6	18.5	0.00e+00	92	30	0	1090519040	56	6854
2026-01-17 19:37:36.95	314.31	5.10	-41.9	-43.6	18.6	0.00e+00	82	30	0	1092616192	56	6857
2026-01-17 19:37:37.96	314.20	5.05	-41.8	-43.4	18.4	0.00e+00	5	30	0	1094713344	56	6762
2026-01-17 19:37:38.97	314.10	4.99	-42.1	-43.9	18.0	0.00e+00	0	30	0	1096810496	56	7157
2026-01-17 19:37:39.98	313.99	4.94	-41.9	-43.6	18.6	0.00e+00	82	30	0	1097859072	56	6920
2026-01-17 19:37:40.99	313.88	4.89	-41.8	-43.5	18.6	0.00e+00	92	30	0	1099956224	56	6833
2026-01-17 19:37:42.00	313.77	4.84	-41.2	-42.8	19.3	0.00e+00	0	30	0	1102053376	56	6268
2026-01-17 19:37:43.01	313.67	4.79	-40.8	-42.3	19.5	0.00e+00	92	30	0	1104150528	54	6649
2026-01-17 19:37:44.02	313.56	4.74	-40.7	-42.1	19.8	0.00e+00	0	30	0	1106247680	54	6530
2026-01-17 19:37:45.03	313.46	4.69	-40.4	-41.7	19.9	0.00e+00	61	30	0	1107296256	54	6238
2026-01-17 19:37:46.04	313.35	4.64	-40.4	-41.8	20.0	0.00e+00	2	30	0	1109393408	54	6292
2026-01-17 19:37:47.05	313.25	4.59	-39.9	-41.1	20.6	0.00e+00	0	30	0	1111490560	54	5825
2026-01-17 19:37:48.06	313.14	4.54	-39.9	-41.2	20.5	0.00e+00	0	30	0	1113587712	52	6579
2026-01-17 19:37:49.07	313.04	4.49	-40.1	-41.4	20.4	0.00e+00	0	30	0	1115684864	52	6700
2026-01-17 19:37:50.08	312.93	4.43	-40.2	-41.5	20.3	0.00e+00	91	30	0	1117782016	52	6823
2026-01-17 19:37:51.09	312.83	4.38	-40.3	-41.6	20.1	0.00e+00	0	30	0	1118830592	52	6913
2026-01-17 19:37:52.10	312.73	4.33	-40.4	-41.7	20.1	0.00e+00	81	30	0	1120927744	52	6994
2026-01-17 19:37:53.10	312.63	4.28	-40.3	-41.6	20.1	0.00e+00	82	30	0	1123024896	52	6890
2026-01-17 19:37:54.11	312.53	4.23	-40.6	-42.0	19.7	0.00e+00	0	30	0	1125122048	52	7212
2026-01-17 19:37:55.12	312.42	4.18	-40.5	-42.0	19.7	0.00e+00	0	30	0	1127219200	54	6399
2026-01-17 19:37:56.13	312.32	4.13	-40.5	-41.9	19.7	0.00e+00	81	30	0	1128267776	54	6357
2026-01-17 19:37:57.14	312.22	4.08	-40.5	-41.9	19.7	0.00e+00	92	30	0	1130364928	54	6369
2026-01-17 19:37:58.15	312.12	4.03	-40.6	-42.0	19.5	0.00e+00	0	30	0	1132462080	54	6438
2026-01-17 19:37:59.16	312.02	3.98	-40.6	-42.1	19.5	0.00e+00	91	30	0	1134559232	54	6504
2026-01-17 19:38:00.17	311.92	3.93	-40.8	-42.2	19.4	0.00e+00	0	30	0	1136656384	54	6599
2026-01-17 19:38:01.18	311.82	3.88	-41.0	-42.6	19.1	0.00e+00	82	30	0	1137704960	54	6858
2026-01-17 19:38:02.19	311.72	3.83	-40.5	-42.0	19.5	0.00e+00	0	30	0	1139802112	54	6409
2026-01-17 19:38:03.20	311.62	3.77	-40.8	-42.3	19.3	0.00e+00	0	30	0	1141899264	54	6628
2026-01-17 19:38:04.21	311.52	3.72	-40.8	-42.3	19.2	0.00e+00	74	30	0	1143996416	54	6680
2026-01-17 19:38:05.22	311.43	3.67	-40.6	-42.1	19.3	0.00e+00	0	30	0	1146093568	54	6482
2026-01-17 19:38:06.22	311.33	3.62	-40.6	-42.0	19.5	0.00e+00	91	30	0	1147142144	54	6461
2026-01-17 19:38:07.23	311.23	3.57	-41.0	-42.6	19.2	0.00e+00	0	30	0	1149239296	54	6856
2026-01-17 19:38:08.24	311.13	3.52	-41.0	-42.5	19.1	0.00e+00	59	30	0	1151336448	54	6799
2026-01-17 19:38:09.25	311.04	3.47	-40.8	-42.3	19.3	0.00e+00	0	30	0	1153433600	54	6659
2026-01-17 19:38:10.26	310.94	3.42	-41.2	-42.8	18.7	0.00e+00	2	30	0	1155530752	54	7017
2026-01-17 19:38:11.27	310.84	3.37	-41.0	-42.5	19.0	0.00e+00	0	30	0	1156579328	54	6816
2026-01-17 19:38:12.28	310.75	3.32	-40.8	-42.4	19.2	0.00e+00	0	30	0	1158676480	54	6707
2026-01-17 19:38:13.29	310.65	3.27	-41.1	-42.7	18.8	0.00e+00	92	30	0	1160773632	54	6928
2026-01-17 19:38:14.30	310.56	3.22	-41.3	-43.0	18.6	0.00e+00	80	30	0	1162870784	54	7178
2026-01-17 19:38:15.31	310.46	3.17	-41.4	-43.1	18.2	0.00e+00	92	30	0	1164967936	54	7278
2026-01-17 19:38:16.32	310.37	3.12	-41.2	-42.8	18.7	0.00e+00	0	30	0	1166016512	54	7033
2026-01-17 19:38:17.33	310.27	3.07	-41.4	-43.1	18.4	0.00e+00	0	30	0	1168113664	54	7263
2026-01-17 19:38:18.35	310.18	3.02	-46.5	-53.6	5.9	0.00e+00	2	30	0	1170210816	58	19321
2026-01-17 19:38:19.35	310.09	2.97	-48.1	-63.3	3.6	1.51e+00	0	30	104	1170210816	60	52671
2026-01-17 19:38:20.36	309.99	2.92	-48.5	-63.7	3.6	1.51e+00	0	30	104	1170210816	60	55028
2026-01-17 19:38:21.37	309.90	2.86	-48.7	-63.8	3.6	1.51e+00	0	30	104	1170210816	60	56274
2026-01-17 19:38:22.38	309.81	2.81	-48.8	-64.0	3.6	1.51e+00	0	30	104	1170210816	60	57162
2026-01-17 19:38:23.39	309.72	2.76	-48.9	-64.0	3.6	1.51e+00	0	30	104	1170210816	60	57311
2026-01-17 19:38:24.41	309.62	2.71	-48.9	-64.1	3.6	1.51e+00	0	30	104	1170210816	60	57906
2026-01-17 19:38:25.42	309.53	2.66	-48.9	-64.1	3.5	1.51e+00	0	30	104	1170210816	60	58034
2026-01-17 19:38:26.43	309.44	2.61	-48.9	-64.1	3.6	1.51e+00	0	30	104	1170210816	60	58185
2026-01-17 19:38:27.44	309.35	2.56	-48.9	-64.1	3.6	1.51e+00	0	30	104	1170210816	60	57704
2026-01-17 19:38:28.45	309.26	2.51	-48.7	-64.1	3.5	1.51e+00	0	30	104	1170210816	60	57755
2026-01-17 19:38:29.46	309.17	2.46	-48.4	-64.0	3.6	1.51e+00	0	30	104	1170210816	60	57131
2026-01-17 19:38:30.47	309.08	2.41	-48.6	-64.0	3.6	1.51e+00	0	30	104	1170210816	60	57494
2026-01-17 19:38:31.48	308.99	2.36	-48.6	-63.9	3.6	1.51e+00	0	30	104	1170210816	60	56958
