passes_logs/2026/01/17/R4.6S_Anadyr/R4.6S_Anadyr__20260117_021028_TY-42_rec.log

#Pass ID: 20260117_021028_TY-42
#Satellite: TY-42
#Configuration: TY-42_900M
#almurnet v.1.7.20251203
#Start time: 2026-01-17 02:11:01

#Version: 2.2.20231116
#Station: R4.6S_Anadyr
#Location: 177.4865 lon 64.73178 lat
#TLE: 1 64048U 25103A   26016.68670139  .00008013  00000-0  38191-3 0 09995
#TLE: 2 64048 097.4124 092.0725 0001744 090.9850 308.0267 15.19180168 37076

#Time	Az	El	Level	Level2	SNR	BER	BlckErr	Temp	State	Recorded	gain1	gain2
2026-01-17 02:11:01.54	15.34	1.72	-48.3	-66.1	3.5	3.02e+01	0	24	0	0	60	77705
2026-01-17 02:11:02.55	15.22	1.77	-46.5	-49.0	6.0	0.00e+00	0	26	104	0	60	34561
2026-01-17 02:11:03.55	15.11	1.83	-46.5	-49.0	6.1	0.00e+00	0	26	104	0	60	34392
2026-01-17 02:11:04.56	14.99	1.88	-46.5	-49.0	6.1	0.00e+00	0	26	104	0	60	34581
2026-01-17 02:11:05.57	14.87	1.93	-46.5	-49.0	6.1	0.00e+00	0	26	104	0	60	34426
2026-01-17 02:11:06.58	14.75	1.99	-46.5	-49.0	6.1	0.00e+00	0	26	104	0	60	34703
2026-01-17 02:11:07.59	14.63	2.04	-46.5	-49.0	6.1	0.00e+00	0	26	104	0	60	34568
2026-01-17 02:11:08.60	14.51	2.09	-46.5	-49.0	6.1	0.00e+00	0	26	104	0	60	34573
2026-01-17 02:11:09.61	14.39	2.15	-46.5	-49.0	6.1	0.00e+00	0	26	104	0	60	34624
2026-01-17 02:11:10.62	14.27	2.20	-46.5	-49.0	6.1	0.00e+00	0	26	104	0	60	34602
2026-01-17 02:11:11.63	14.15	2.25	-46.6	-49.0	6.1	0.00e+00	0	26	104	0	60	34617
2026-01-17 02:11:12.64	14.02	2.31	-46.6	-49.1	6.1	0.00e+00	0	26	104	0	60	34808
2026-01-17 02:11:13.65	13.90	2.36	-46.6	-49.0	6.1	0.00e+00	0	26	104	0	60	34527
2026-01-17 02:11:14.66	13.78	2.41	-46.5	-49.0	6.1	0.00e+00	0	26	104	0	60	34410
2026-01-17 02:11:15.67	13.65	2.47	-46.5	-49.1	6.1	0.00e+00	0	26	104	0	60	34758
2026-01-17 02:11:16.68	13.53	2.52	-46.5	-49.0	6.1	0.00e+00	0	26	104	0	60	34698
2026-01-17 02:11:17.69	13.40	2.57	-46.5	-49.0	6.1	0.00e+00	0	26	104	0	60	34692
2026-01-17 02:11:18.70	13.27	2.63	-46.5	-49.0	6.1	0.00e+00	0	26	104	0	60	34560
2026-01-17 02:11:19.71	13.15	2.68	-46.5	-49.1	6.1	0.00e+00	0	26	104	0	60	34726
2026-01-17 02:11:20.72	13.02	2.73	-46.5	-49.0	6.1	0.00e+00	0	26	104	0	60	34573
2026-01-17 02:11:21.73	12.89	2.79	-46.5	-49.0	6.1	0.00e+00	0	27	104	0	60	34662
2026-01-17 02:11:22.74	12.76	2.84	-46.5	-49.0	6.0	0.00e+00	0	27	104	0	60	34676
2026-01-17 02:11:23.75	12.63	2.90	-46.6	-49.0	6.1	0.00e+00	0	27	104	0	60	34666
2026-01-17 02:11:24.76	12.51	2.95	-46.5	-49.0	6.1	0.00e+00	0	27	104	0	60	34627
2026-01-17 02:11:25.77	12.37	3.00	-46.5	-49.0	6.1	0.00e+00	0	27	104	0	60	34582
2026-01-17 02:11:26.78	12.24	3.06	-46.5	-49.0	6.1	0.00e+00	0	27	104	0	60	34612
2026-01-17 02:11:27.79	12.11	3.11	-46.5	-49.0	6.1	0.00e+00	0	27	104	0	60	34355
2026-01-17 02:11:28.80	11.98	3.16	-46.5	-49.0	6.1	0.00e+00	0	27	104	0	60	34541
2026-01-17 02:11:29.81	11.85	3.22	-46.6	-49.0	6.1	0.00e+00	0	27	104	0	60	34668
2026-01-17 02:11:30.82	11.71	3.27	-46.6	-49.1	6.1	0.00e+00	0	27	104	0	60	34862
2026-01-17 02:11:31.83	11.58	3.33	-46.6	-49.0	6.1	0.00e+00	0	27	104	0	60	34593
2026-01-17 02:11:32.84	11.44	3.38	-46.6	-49.1	6.1	0.00e+00	0	27	104	0	60	34896
2026-01-17 02:11:33.85	11.31	3.43	-46.6	-49.1	6.1	0.00e+00	0	27	104	0	60	34741
2026-01-17 02:11:34.86	11.17	3.49	-46.7	-49.2	6.1	0.00e+00	0	27	104	0	60	35171
2026-01-17 02:11:35.87	11.04	3.54	-46.6	-49.1	6.1	0.00e+00	0	27	104	0	60	34932
2026-01-17 02:11:36.87	10.90	3.59	-46.8	-49.3	6.1	0.00e+00	0	27	104	0	60	35746
2026-01-17 02:11:37.88	10.76	3.65	-46.6	-49.0	6.1	0.00e+00	0	27	104	0	60	34657
2026-01-17 02:11:38.89	10.62	3.70	-46.7	-49.2	6.1	0.00e+00	0	27	104	0	60	35181
2026-01-17 02:11:39.90	10.48	3.76	-46.7	-49.1	6.1	0.00e+00	0	27	104	0	60	35098
2026-01-17 02:11:40.91	10.34	3.81	-46.8	-49.3	6.1	0.00e+00	0	27	104	0	60	35769
2026-01-17 02:11:41.91	10.20	3.86	-46.6	-49.0	6.1	0.00e+00	0	27	104	0	60	34714
2026-01-17 02:11:42.92	10.06	3.92	-46.8	-49.2	6.1	0.00e+00	0	27	104	0	60	35463
2026-01-17 02:11:43.93	9.92	3.97	-46.7	-49.2	6.1	0.00e+00	0	27	104	0	60	35126
2026-01-17 02:11:44.94	9.78	4.03	-46.9	-49.4	6.1	0.00e+00	0	27	104	0	60	36184
2026-01-17 02:11:45.95	9.63	4.08	-46.6	-49.1	6.1	0.00e+00	0	27	104	0	60	34766
2026-01-17 02:11:46.96	9.49	4.13	-46.9	-49.3	6.1	0.00e+00	0	27	104	0	60	35930
2026-01-17 02:11:47.97	9.34	4.19	-46.8	-49.2	6.1	0.00e+00	0	27	104	0	60	35499
2026-01-17 02:11:48.98	9.20	4.24	-47.0	-49.4	6.1	0.00e+00	0	27	104	0	60	36214
2026-01-17 02:11:49.99	9.05	4.30	-46.7	-49.2	6.0	0.00e+00	0	27	104	0	60	35485
2026-01-17 02:11:51.00	8.91	4.35	-46.9	-49.4	6.1	0.00e+00	0	27	104	0	60	36335
2026-01-17 02:11:52.01	8.76	4.40	-46.9	-49.3	6.1	0.00e+00	0	27	104	0	60	35805
2026-01-17 02:11:53.02	8.61	4.46	-47.0	-49.5	6.1	0.00e+00	0	27	104	0	60	36417
2026-01-17 02:11:54.03	8.46	4.51	-46.8	-49.3	6.1	0.00e+00	0	27	104	0	60	35582
2026-01-17 02:11:55.04	8.31	4.57	-47.0	-49.5	6.1	0.00e+00	0	27	104	0	60	36420
2026-01-17 02:11:56.04	8.16	4.62	-46.9	-49.4	6.1	0.00e+00	0	27	104	0	60	36011
2026-01-17 02:11:57.05	8.01	4.67	-46.9	-49.4	6.1	0.00e+00	0	27	104	0	60	36214
2026-01-17 02:11:58.06	7.86	4.73	-46.8	-49.4	6.1	0.00e+00	0	27	104	0	60	36001
2026-01-17 02:11:59.07	7.71	4.78	-46.9	-49.4	6.1	0.00e+00	0	27	104	0	60	36344
2026-01-17 02:12:00.08	7.55	4.84	-47.0	-49.4	6.1	0.00e+00	0	28	104	0	60	36160
2026-01-17 02:12:01.09	7.40	4.89	-47.1	-49.6	6.1	0.00e+00	0	28	104	0	60	36988
2026-01-17 02:12:02.10	7.24	4.94	-46.9	-49.4	6.0	0.00e+00	0	28	104	0	60	36165
2026-01-17 02:12:03.11	7.09	5.00	-47.1	-49.5	6.1	0.00e+00	0	28	104	0	60	36726
2026-01-17 02:12:04.12	6.93	5.05	-46.9	-49.4	6.1	0.00e+00	0	27	104	0	60	36099
2026-01-17 02:12:05.13	6.77	5.11	-47.0	-49.5	6.1	0.00e+00	0	28	104	0	60	36540
2026-01-17 02:12:06.14	6.62	5.16	-46.8	-49.4	6.1	0.00e+00	0	28	104	0	60	36044
2026-01-17 02:12:07.15	6.46	5.21	-47.0	-49.5	6.1	0.00e+00	0	28	104	0	60	36431
2026-01-17 02:12:08.15	6.30	5.27	-47.0	-49.5	6.1	0.00e+00	0	28	104	0	60	36507
2026-01-17 02:12:09.17	6.14	5.32	-47.1	-49.6	6.1	0.00e+00	0	28	104	0	60	36968
2026-01-17 02:12:10.18	5.98	5.37	-47.0	-49.4	6.1	0.00e+00	0	28	104	0	60	36274
2026-01-17 02:12:11.19	5.82	5.43	-47.1	-49.6	6.1	0.00e+00	0	28	104	0	60	36786
2026-01-17 02:12:12.20	5.65	5.48	-47.0	-49.5	6.1	0.00e+00	0	28	104	0	60	36414
2026-01-17 02:12:13.21	5.49	5.54	-47.2	-49.7	6.1	0.00e+00	0	28	104	0	60	37240
2026-01-17 02:12:14.22	5.33	5.59	-47.0	-49.5	6.1	0.00e+00	0	28	104	0	60	36429
2026-01-17 02:12:15.23	5.16	5.64	-47.1	-49.6	6.1	0.00e+00	0	28	104	0	60	37112
2026-01-17 02:12:16.24	5.00	5.70	-47.1	-49.5	6.1	0.00e+00	0	28	104	0	60	36666
2026-01-17 02:12:17.25	4.83	5.75	-47.2	-49.7	6.1	0.00e+00	0	28	104	0	60	37318
2026-01-17 02:12:18.26	4.66	5.80	-47.0	-49.5	6.1	0.00e+00	0	28	104	0	60	36697
2026-01-17 02:12:19.27	4.49	5.86	-47.1	-49.6	6.1	0.00e+00	0	28	104	0	60	37143
2026-01-17 02:12:20.28	4.33	5.91	-47.1	-49.6	6.1	0.00e+00	0	28	104	0	60	36966
2026-01-17 02:12:21.29	4.16	5.96	-47.2	-49.7	6.1	0.00e+00	0	28	104	0	60	37291
2026-01-17 02:12:22.30	3.99	6.02	-47.1	-49.6	6.1	0.00e+00	0	28	104	0	60	36834
2026-01-17 02:12:23.31	3.82	6.07	-47.1	-49.6	6.1	0.00e+00	0	28	104	0	60	36895
2026-01-17 02:12:24.31	3.65	6.12	-47.1	-49.6	6.1	0.00e+00	0	28	104	0	60	37125
2026-01-17 02:12:25.32	3.47	6.17	-47.3	-49.7	6.1	0.00e+00	0	28	104	0	60	37411
2026-01-17 02:12:26.33	3.30	6.23	-47.1	-49.6	6.1	0.00e+00	0	28	104	0	60	37112
2026-01-17 02:12:27.34	3.13	6.28	-47.2	-49.7	6.1	0.00e+00	0	28	104	0	60	37602
2026-01-17 02:12:28.35	2.95	6.33	-47.2	-49.6	6.1	0.00e+00	0	28	104	0	60	37081
2026-01-17 02:12:29.36	2.77	6.39	-47.3	-49.8	6.1	0.00e+00	0	28	104	0	60	37689
2026-01-17 02:12:30.37	2.60	6.44	-47.1	-49.6	6.1	0.00e+00	0	28	104	0	60	37029
2026-01-17 02:12:31.38	2.42	6.49	-47.2	-49.7	6.1	0.00e+00	0	28	104	0	60	37575
2026-01-17 02:12:32.39	2.24	6.54	-47.2	-49.7	6.1	0.00e+00	0	28	104	0	60	37460
2026-01-17 02:12:33.40	2.06	6.60	-47.3	-49.8	6.1	0.00e+00	0	28	104	0	60	37871
2026-01-17 02:12:34.41	1.88	6.65	-47.2	-49.7	6.1	0.00e+00	0	28	104	0	60	37530
2026-01-17 02:12:35.42	1.70	6.70	-47.2	-49.7	6.1	0.00e+00	0	28	104	0	60	37411
2026-01-17 02:12:36.43	1.52	6.75	-47.3	-49.7	6.1	0.00e+00	0	28	104	0	60	37485
2026-01-17 02:12:37.44	1.34	6.80	-47.3	-49.8	6.1	0.00e+00	0	28	104	0	60	37928
2026-01-17 02:12:38.44	1.16	6.86	-47.1	-49.6	6.1	0.00e+00	0	28	104	0	60	37183
2026-01-17 02:12:39.45	0.97	6.91	-47.3	-49.8	6.1	0.00e+00	0	28	104	0	60	37799
2026-01-17 02:12:40.46	0.79	6.96	-47.3	-49.8	6.1	0.00e+00	0	28	104	0	60	37786
2026-01-17 02:12:41.47	0.60	7.01	-47.3	-49.9	6.1	0.00e+00	0	28	104	0	60	38125
2026-01-17 02:12:42.48	0.42	7.06	-47.2	-49.7	6.1	0.00e+00	0	29	104	0	60	37465
2026-01-17 02:12:43.49	0.23	7.11	-47.4	-49.9	6.1	0.00e+00	0	28	104	0	60	38198
2026-01-17 02:12:44.50	0.04	7.17	-47.4	-49.9	6.1	0.00e+00	0	28	104	0	60	38157
2026-01-17 02:12:45.51	359.85	7.22	-47.3	-49.8	6.1	0.00e+00	0	29	104	0	60	38003
2026-01-17 02:12:46.52	359.66	7.27	-47.3	-49.8	6.1	0.00e+00	0	29	104	0	60	37876
2026-01-17 02:12:47.53	359.47	7.32	-47.3	-49.8	6.1	0.00e+00	0	29	104	0	60	37966
2026-01-17 02:12:48.54	359.28	7.37	-47.3	-49.8	6.1	0.00e+00	0	29	104	0	60	37799
2026-01-17 02:12:49.55	359.09	7.42	-47.3	-49.9	6.1	0.00e+00	0	29	104	0	60	38200
2026-01-17 02:12:50.56	358.89	7.47	-47.4	-49.8	6.1	0.00e+00	0	29	104	0	60	38068
2026-01-17 02:12:51.57	358.70	7.52	-47.4	-49.9	6.1	0.00e+00	0	29	104	0	60	38349
2026-01-17 02:12:52.58	358.50	7.57	-47.4	-49.9	6.1	0.00e+00	0	29	104	0	60	38299
2026-01-17 02:12:53.59	358.31	7.62	-47.4	-49.9	6.1	0.00e+00	0	29	104	0	60	38210
2026-01-17 02:12:54.60	358.11	7.67	-47.3	-49.8	6.1	0.00e+00	0	29	104	0	60	37962
2026-01-17 02:12:55.61	357.91	7.72	-47.4	-49.9	6.1	0.00e+00	0	29	104	0	60	38368
2026-01-17 02:12:56.62	357.72	7.77	-47.5	-50.0	6.1	0.00e+00	0	29	104	0	60	38675
2026-01-17 02:12:57.62	357.52	7.82	-47.4	-49.8	6.1	0.00e+00	0	29	104	0	60	37961
2026-01-17 02:12:58.63	357.32	7.87	-47.4	-49.9	6.1	0.00e+00	0	29	104	0	60	38452
2026-01-17 02:12:59.64	357.12	7.92	-47.5	-50.0	6.1	0.00e+00	0	29	104	0	60	38696
2026-01-17 02:13:00.65	356.91	7.97	-47.5	-50.0	6.1	0.00e+00	0	29	104	0	60	38609
2026-01-17 02:13:01.66	356.71	8.02	-47.4	-49.9	6.1	0.00e+00	0	29	104	0	60	38157
2026-01-17 02:13:02.67	356.51	8.07	-47.4	-49.9	6.1	0.00e+00	0	29	104	0	60	38390
2026-01-17 02:13:03.68	356.30	8.12	-47.5	-50.0	6.1	0.00e+00	0	29	104	0	60	38827
2026-01-17 02:13:04.69	356.10	8.17	-47.6	-50.1	6.1	0.00e+00	0	29	104	0	60	39239
2026-01-17 02:13:05.70	355.89	8.22	-47.4	-49.9	6.1	0.00e+00	0	29	104	0	60	38185
2026-01-17 02:13:06.71	355.69	8.26	-47.5	-50.0	6.1	0.00e+00	0	29	104	0	60	38662
2026-01-17 02:13:07.72	355.48	8.31	-47.5	-50.0	6.1	0.00e+00	0	29	104	0	60	38865
2026-01-17 02:13:08.73	355.27	8.36	-47.5	-50.0	6.1	0.00e+00	0	29	104	0	60	38811
2026-01-17 02:13:09.73	355.06	8.41	-47.4	-49.9	6.1	0.00e+00	0	29	104	0	60	38328
2026-01-17 02:13:10.74	354.85	8.45	-47.5	-50.0	6.1	0.00e+00	0	29	104	0	60	38578
2026-01-17 02:13:11.75	354.64	8.50	-47.4	-49.9	6.1	0.00e+00	0	29	104	0	60	38420
2026-01-17 02:13:12.76	354.43	8.55	-47.5	-50.0	6.1	0.00e+00	0	29	104	0	60	38803
2026-01-17 02:13:13.77	354.21	8.60	-47.5	-49.9	6.1	0.00e+00	0	29	104	0	60	38469
2026-01-17 02:13:14.78	354.00	8.64	-47.5	-50.0	6.1	0.00e+00	0	29	104	0	60	38761
2026-01-17 02:13:15.79	353.79	8.69	-47.5	-50.0	6.1	0.00e+00	0	29	104	0	60	38893
2026-01-17 02:13:16.80	353.57	8.74	-47.5	-50.0	6.1	0.00e+00	0	29	104	0	60	38781
2026-01-17 02:13:17.81	353.35	8.78	-47.5	-50.0	6.1	0.00e+00	0	29	104	0	60	38648
2026-01-17 02:13:18.82	353.14	8.83	-47.6	-50.1	6.1	0.00e+00	0	29	104	0	60	39143
2026-01-17 02:13:19.83	352.92	8.87	-47.5	-50.0	6.1	0.00e+00	0	29	104	0	60	38818
2026-01-17 02:13:20.83	352.70	8.92	-47.5	-50.0	6.1	0.00e+00	0	29	104	0	60	38879
2026-01-17 02:13:21.84	352.48	8.96	-47.5	-50.1	6.1	0.00e+00	0	29	104	0	60	38998
2026-01-17 02:13:22.85	352.26	9.01	-47.5	-50.1	6.1	0.00e+00	0	29	104	0	60	39052
2026-01-17 02:13:23.86	352.04	9.05	-47.5	-50.0	6.1	0.00e+00	0	29	104	0	60	38902
2026-01-17 02:13:24.87	351.82	9.10	-47.6	-50.1	6.1	0.00e+00	0	29	104	0	60	39192
2026-01-17 02:13:25.87	351.60	9.14	-47.5	-50.0	6.1	0.00e+00	0	29	104	0	60	38916
2026-01-17 02:13:26.88	351.37	9.19	-47.5	-50.0	6.1	0.00e+00	0	29	104	0	60	38672
2026-01-17 02:13:27.88	351.15	9.23	-47.6	-50.1	6.1	0.00e+00	0	29	104	0	60	38993
2026-01-17 02:13:28.89	350.92	9.27	-47.5	-50.0	6.1	0.00e+00	0	29	104	0	60	38723
2026-01-17 02:13:29.90	350.70	9.32	-47.6	-50.1	6.1	0.00e+00	0	29	104	0	60	39125
2026-01-17 02:13:30.91	350.47	9.36	-47.6	-50.1	6.0	0.00e+00	0	29	104	0	60	39180
2026-01-17 02:13:31.92	350.24	9.40	-47.5	-50.0	6.1	0.00e+00	0	29	104	0	60	38677
2026-01-17 02:13:32.93	350.01	9.44	-47.6	-50.1	6.1	0.00e+00	0	29	104	0	60	39147
2026-01-17 02:13:33.94	349.78	9.49	-47.6	-50.1	6.1	0.00e+00	0	29	104	0	60	39214
2026-01-17 02:13:34.95	349.55	9.53	-47.6	-50.1	6.1	0.00e+00	0	29	104	0	60	39166
2026-01-17 02:13:35.96	349.32	9.57	-47.6	-50.0	6.1	0.00e+00	0	29	104	0	60	38841
2026-01-17 02:13:36.97	349.09	9.61	-47.6	-50.1	6.1	0.00e+00	0	29	104	0	60	39124
2026-01-17 02:13:37.97	348.85	9.65	-47.6	-50.1	6.1	0.00e+00	0	29	104	0	60	39177
2026-01-17 02:13:38.99	348.62	9.69	-47.6	-50.0	6.1	0.00e+00	0	29	104	0	60	38710
2026-01-17 02:13:40.00	348.38	9.73	-47.6	-50.1	6.1	0.00e+00	0	29	104	0	60	39081
2026-01-17 02:13:41.01	348.15	9.77	-47.6	-50.1	6.1	0.00e+00	0	29	104	0	60	38984
2026-01-17 02:13:42.01	347.91	9.81	-47.6	-50.1	6.1	0.00e+00	0	30	104	0	60	39149
2026-01-17 02:13:43.03	347.67	9.85	-47.6	-50.1	6.1	0.00e+00	0	29	104	0	60	39023
2026-01-17 02:13:44.03	347.44	9.89	-47.6	-50.1	6.1	0.00e+00	0	29	104	0	60	39244
2026-01-17 02:13:45.04	347.20	9.93	-47.6	-50.1	6.1	0.00e+00	0	30	104	0	60	39151
2026-01-17 02:13:46.05	346.96	9.97	-47.6	-50.1	6.1	0.00e+00	0	30	104	0	60	39227
2026-01-17 02:13:47.06	346.72	10.01	-47.6	-50.1	6.1	0.00e+00	0	29	104	0	60	39088
2026-01-17 02:13:48.07	346.48	10.05	-47.6	-50.1	6.1	0.00e+00	0	29	104	0	60	39186
2026-01-17 02:13:49.08	346.24	10.08	-47.6	-50.1	6.1	0.00e+00	0	29	104	0	60	39284
2026-01-17 02:13:50.09	345.99	10.12	-47.6	-50.1	6.1	0.00e+00	0	30	104	0	60	39184
2026-01-17 02:13:51.10	345.75	10.16	-47.6	-50.1	6.1	0.00e+00	0	30	104	0	60	39137
2026-01-17 02:13:52.11	345.51	10.19	-47.6	-50.1	6.1	0.00e+00	0	30	104	0	60	39176
2026-01-17 02:13:53.12	345.26	10.23	-47.6	-50.1	6.1	0.00e+00	0	30	104	0	60	39183
2026-01-17 02:13:54.13	345.01	10.27	-47.6	-50.1	6.1	0.00e+00	0	30	104	0	60	39135
2026-01-17 02:13:55.14	344.77	10.30	-47.6	-50.1	6.1	0.00e+00	0	30	104	0	60	39355
2026-01-17 02:13:56.15	344.52	10.34	-47.6	-50.1	6.1	0.00e+00	0	30	104	0	60	39072
2026-01-17 02:13:57.16	344.27	10.37	-47.6	-50.1	6.1	0.00e+00	0	30	104	0	60	39385
2026-01-17 02:13:58.17	344.02	10.40	-47.6	-50.1	6.1	0.00e+00	0	30	104	0	60	39305
2026-01-17 02:13:59.18	343.77	10.44	-47.6	-50.1	6.1	0.00e+00	0	30	104	0	60	39368
2026-01-17 02:14:00.19	343.52	10.47	-47.6	-50.1	6.1	0.00e+00	0	30	104	0	60	39371
2026-01-17 02:14:01.20	343.27	10.51	-47.7	-50.2	6.1	0.00e+00	0	30	104	0	60	39698
2026-01-17 02:14:02.20	343.02	10.54	-47.7	-50.2	6.1	0.00e+00	0	30	104	0	60	39809
2026-01-17 02:14:03.21	342.77	10.57	-47.7	-50.2	6.1	0.00e+00	0	30	104	0	60	39560
2026-01-17 02:14:04.22	342.52	10.60	-47.6	-50.2	6.1	0.00e+00	0	30	104	0	60	39460
2026-01-17 02:14:05.23	342.27	10.63	-47.6	-50.1	6.1	0.00e+00	0	30	104	0	60	39207
2026-01-17 02:14:06.24	342.01	10.66	-47.7	-50.2	6.1	0.00e+00	0	30	104	0	60	39498
2026-01-17 02:14:07.25	341.76	10.69	-47.7	-50.2	6.1	0.00e+00	0	30	104	0	60	39644
2026-01-17 02:14:08.26	341.50	10.73	-47.7	-50.2	6.1	0.00e+00	0	30	104	0	60	39490
2026-01-17 02:14:09.27	341.24	10.76	-47.7	-50.2	6.1	0.00e+00	0	30	104	0	60	39851
2026-01-17 02:14:10.28	340.99	10.78	-47.6	-50.2	6.1	0.00e+00	0	30	104	0	60	39449
2026-01-17 02:14:11.29	340.73	10.81	-47.7	-50.2	6.1	0.00e+00	0	30	104	0	60	39730
2026-01-17 02:14:12.30	340.47	10.84	-47.7	-50.2	6.1	0.00e+00	0	30	104	0	60	39519
2026-01-17 02:14:13.31	340.21	10.87	-47.7	-50.2	6.1	0.00e+00	0	30	104	0	60	39804
2026-01-17 02:14:14.32	339.95	10.90	-44.2	-45.6	6.6	0.00e+00	0	30	104	0	60	23366
2026-01-17 02:14:15.33	339.69	10.92	-37.5	-37.9	10.1	0.00e+00	5403	30	104	0	48	19290
2026-01-17 02:14:16.34	339.43	10.95	-38.0	-38.3	10.4	1.23e-01	5512	30	0	75497472	50	17870
2026-01-17 02:14:17.35	339.17	10.98	-36.8	-37.1	10.7	1.23e-01	5509	30	0	184549376	50	15582
2026-01-17 02:14:18.36	338.91	11.00	-37.2	-37.5	10.6	3.78e-01	5514	30	0	301989888	48	18242
2026-01-17 02:14:19.37	338.65	11.03	-33.3	-33.6	13.3	3.78e-01	0	30	0	411041792	44	14708
2026-01-17 02:14:20.38	338.38	11.05	-30.2	-30.6	14.8	2.13e-01	0	30	0	528482304	36	16528
2026-01-17 02:14:21.39	338.12	11.08	-27.8	-28.2	15.6	2.13e-01	0	30	0	637534208	32	15767
2026-01-17 02:14:22.40	337.86	11.10	-26.4	-26.8	16.0	1.08e-02	0	30	0	754974720	28	16906
2026-01-17 02:14:23.41	337.59	11.13	-25.7	-26.1	16.2	1.08e-02	0	30	0	872415232	28	15621
2026-01-17 02:14:24.42	337.33	11.15	-26.0	-26.4	16.1	3.27e-04	0	30	0	981467136	26	18060
2026-01-17 02:14:25.43	337.06	11.17	-26.0	-26.4	16.0	3.27e-04	0	30	0	1098907648	26	18176
2026-01-17 02:14:26.44	336.80	11.19	-25.6	-26.0	16.1	8.71e-05	0	31	0	1207959552	26	17392
2026-01-17 02:14:27.45	336.53	11.22	-25.4	-25.8	16.2	8.71e-05	0	31	0	1317011456	26	16983
2026-01-17 02:14:28.46	336.26	11.24	-25.4	-25.8	16.2	5.99e-05	0	31	0	1442840576	26	16933
2026-01-17 02:14:29.47	336.00	11.26	-25.5	-25.9	16.2	5.99e-05	0	31	0	1551892480	26	17142
2026-01-17 02:14:30.49	335.72	11.28	-25.4	-25.8	16.2	7.62e-05	0	31	0	1660944384	26	16922
2026-01-17 02:14:31.50	335.46	11.30	-25.5	-25.9	16.2	7.62e-05	0	31	0	1778384896	26	17058
2026-01-17 02:14:32.51	335.19	11.32	-25.6	-26.0	16.2	6.53e-05	0	31	0	1895825408	26	17262
2026-01-17 02:14:33.52	334.92	11.33	-25.4	-25.8	16.2	5.44e-05	0	31	0	2004877312	26	16933
2026-01-17 02:14:34.53	334.65	11.35	-25.5	-25.9	16.1	5.44e-05	0	31	0	2122317824	26	17044
2026-01-17 02:14:35.54	334.38	11.37	-25.5	-25.9	16.1	7.62e-05	0	31	0	2231369728	26	17097
2026-01-17 02:14:36.55	334.11	11.39	-25.6	-26.0	16.1	7.62e-05	0	31	0	2340421632	26	17326
2026-01-17 02:14:37.55	333.84	11.40	-25.7	-26.1	16.1	5.99e-05	0	31	0	2466250752	26	17472
2026-01-17 02:14:38.56	333.57	11.42	-25.6	-26.0	16.1	5.99e-05	0	31	0	2575302656	26	17374
2026-01-17 02:14:39.57	333.30	11.44	-25.6	-26.0	16.1	1.03e-04	0	31	0	2684354560	26	17399
2026-01-17 02:14:40.58	333.03	11.45	-25.6	-26.1	16.0	1.03e-04	0	31	0	2801795072	26	17419
2026-01-17 02:14:41.59	332.75	11.47	-25.7	-26.1	16.1	1.42e-04	0	31	0	2910846976	26	17466
2026-01-17 02:14:42.59	332.48	11.48	-25.7	-26.1	16.0	1.42e-04	0	31	0	3028287488	26	17462
2026-01-17 02:14:43.60	332.21	11.49	-25.6	-26.0	16.0	9.80e-05	0	31	0	3137339392	26	17397
2026-01-17 02:14:44.61	331.94	11.51	-25.8	-26.2	16.0	9.80e-05	0	31	0	3254779904	26	17731
2026-01-17 02:14:45.62	331.66	11.52	-25.6	-26.0	16.0	1.03e-04	0	31	0	3372220416	26	17358
2026-01-17 02:14:46.63	331.39	11.53	-25.7	-26.1	16.1	1.03e-04	0	31	0	3481272320	26	17510
2026-01-17 02:14:47.64	331.12	11.54	-25.8	-26.2	16.1	1.03e-04	0	31	0	3590324224	26	17684
2026-01-17 02:14:48.65	330.84	11.55	-25.9	-26.3	16.0	1.20e-04	0	31	0	3707764736	26	17934
2026-01-17 02:14:49.66	330.57	11.56	-26.1	-26.5	16.0	1.20e-04	0	31	0	3825205248	26	18258
2026-01-17 02:14:50.67	330.29	11.57	-47.7	-50.3	6.1	1.20e-04	0	31	104	3892314112	60	39882
2026-01-17 02:14:51.68	330.02	11.58	-47.7	-50.2	6.1	2.07e-04	0	31	104	3892314112	60	39709
2026-01-17 02:14:52.69	329.74	11.59	-47.7	-50.3	6.1	2.07e-04	0	31	104	3892314112	60	39871
2026-01-17 02:14:53.70	329.47	11.60	-47.7	-50.2	6.1	2.07e-04	0	31	104	3892314112	60	39704
2026-01-17 02:14:54.71	329.19	11.60	-47.7	-50.2	6.1	2.07e-04	0	31	104	3892314112	60	39680
2026-01-17 02:14:55.72	328.92	11.61	-47.7	-50.3	6.1	2.07e-04	0	31	104	3892314112	60	39926
2026-01-17 02:14:56.73	328.64	11.62	-47.8	-50.3	6.1	2.07e-04	0	31	104	3892314112	60	40219
2026-01-17 02:14:57.73	328.37	11.62	-47.8	-50.3	6.1	2.07e-04	0	31	104	3892314112	60	40086
2026-01-17 02:14:58.74	328.09	11.63	-47.8	-50.3	6.1	2.07e-04	0	31	104	3892314112	60	40006
2026-01-17 02:14:59.75	327.81	11.63	-47.8	-50.2	6.1	2.07e-04	0	31	104	3892314112	60	39701
2026-01-17 02:15:00.76	327.54	11.64	-47.7	-50.2	6.1	2.07e-04	0	31	104	3892314112	60	39614
2026-01-17 02:15:01.77	327.26	11.64	-47.7	-50.2	6.1	0.00e+00	0	31	104	3892314112	60	39815
2026-01-17 02:15:02.78	326.98	11.64	-47.8	-50.3	6.1	0.00e+00	0	31	104	3892314112	60	40018
2026-01-17 02:15:03.79	326.71	11.65	-47.8	-50.3	6.1	0.00e+00	0	31	104	3892314112	60	39986
2026-01-17 02:15:04.80	326.43	11.65	-47.8	-50.3	6.1	0.00e+00	0	31	104	3892314112	60	39871
2026-01-17 02:15:05.81	326.15	11.65	-47.7	-50.2	6.1	0.00e+00	0	31	104	3892314112	60	39703
2026-01-17 02:15:06.82	325.88	11.65	-47.9	-50.3	6.1	0.00e+00	0	31	104	3892314112	60	40295
2026-01-17 02:15:07.83	325.60	11.65	-47.8	-50.3	6.1	0.00e+00	0	31	104	3892314112	60	40151
2026-01-17 02:15:08.84	325.32	11.65	-47.8	-50.3	6.1	0.00e+00	0	31	104	3892314112	60	40108
2026-01-17 02:15:09.85	325.05	11.65	-47.8	-50.3	6.1	0.00e+00	0	31	104	3892314112	60	40051
2026-01-17 02:15:10.86	324.77	11.65	-47.8	-50.3	6.1	0.00e+00	0	31	104	3892314112	60	40165
2026-01-17 02:15:11.87	324.49	11.65	-47.8	-50.3	6.1	0.00e+00	0	31	104	3892314112	60	40003
2026-01-17 02:15:12.88	324.22	11.64	-47.8	-50.2	6.1	0.00e+00	0	31	104	3892314112	60	39857
2026-01-17 02:15:13.89	323.94	11.64	-47.8	-50.4	6.1	0.00e+00	0	31	104	3892314112	60	40396
2026-01-17 02:15:14.90	323.66	11.64	-47.8	-50.3	6.1	0.00e+00	0	31	104	3892314112	60	40134
2026-01-17 02:15:15.91	323.39	11.63	-47.8	-50.3	6.1	0.00e+00	0	31	104	3892314112	60	40120
2026-01-17 02:15:16.92	323.11	11.63	-47.9	-50.4	6.1	0.00e+00	0	31	104	3892314112	60	40477
2026-01-17 02:15:17.93	322.84	11.62	-47.8	-50.3	6.0	0.00e+00	0	31	104	3892314112	60	40125
2026-01-17 02:15:18.94	322.56	11.62	-47.9	-50.4	6.1	0.00e+00	0	31	104	3892314112	60	40497
2026-01-17 02:15:19.95	322.28	11.61	-47.8	-50.3	6.1	0.00e+00	0	31	104	3892314112	60	40260
2026-01-17 02:15:20.96	322.01	11.60	-47.7	-50.2	6.1	0.00e+00	0	31	104	3892314112	60	39849
2026-01-17 02:15:21.97	321.73	11.60	-47.9	-50.4	6.1	0.00e+00	0	31	104	3892314112	60	40385
2026-01-17 02:15:22.98	321.46	11.59	-47.8	-50.4	6.1	0.00e+00	0	31	104	3892314112	60	40368
2026-01-17 02:15:23.99	321.18	11.58	-47.7	-50.2	6.1	0.00e+00	0	31	104	3892314112	60	39660
2026-01-17 02:15:25.00	320.91	11.57	-47.8	-50.3	6.1	0.00e+00	0	31	104	3892314112	60	40027
2026-01-17 02:15:26.01	320.63	11.56	-47.8	-50.3	6.1	0.00e+00	0	31	104	3892314112	60	39889
2026-01-17 02:15:27.02	320.36	11.55	-47.8	-50.3	6.1	0.00e+00	0	31	104	3892314112	60	40134
2026-01-17 02:15:28.03	320.08	11.54	-47.8	-50.3	6.1	0.00e+00	0	31	104	3892314112	60	39877
2026-01-17 02:15:29.03	319.81	11.53	-47.9	-50.3	6.1	0.00e+00	0	31	104	3892314112	60	40219
2026-01-17 02:15:30.04	319.54	11.52	-47.9	-50.3	6.1	0.00e+00	0	31	104	3892314112	60	40261
2026-01-17 02:15:31.05	319.26	11.51	-47.9	-50.4	6.1	0.00e+00	0	31	104	3892314112	60	40481
2026-01-17 02:15:32.06	318.99	11.49	-47.9	-50.4	6.1	0.00e+00	0	31	104	3892314112	60	40653
2026-01-17 02:15:33.07	318.72	11.48	-47.8	-50.3	6.1	0.00e+00	0	31	104	3892314112	60	39959
2026-01-17 02:15:34.08	318.44	11.47	-47.9	-50.3	6.1	0.00e+00	0	31	104	3892314112	60	40253
2026-01-17 02:15:35.09	318.17	11.45	-47.8	-50.3	6.1	0.00e+00	0	31	104	3892314112	60	40058
2026-01-17 02:15:36.10	317.90	11.44	-47.6	-50.1	6.1	0.00e+00	0	31	104	3892314112	60	39271
2026-01-17 02:15:37.11	317.63	11.42	-47.7	-50.3	6.1	0.00e+00	0	31	104	3892314112	60	39949
2026-01-17 02:15:38.12	317.35	11.40	-47.7	-50.2	6.1	0.00e+00	0	31	104	3892314112	60	39753
2026-01-17 02:15:39.13	317.08	11.39	-47.9	-50.4	6.1	0.00e+00	0	31	104	3892314112	60	40375
2026-01-17 02:15:40.14	316.81	11.37	-47.7	-50.2	6.1	0.00e+00	0	31	104	3892314112	60	39705
2026-01-17 02:15:41.15	316.54	11.35	-47.8	-50.3	6.1	0.00e+00	0	31	104	3892314112	60	40149
2026-01-17 02:15:42.16	316.27	11.33	-47.8	-50.3	6.1	0.00e+00	0	31	104	3892314112	60	39966
2026-01-17 02:15:43.17	316.00	11.32	-47.9	-50.3	6.1	0.00e+00	0	31	104	3892314112	60	40219
2026-01-17 02:15:44.18	315.73	11.30	-47.8	-50.4	6.1	0.00e+00	0	31	104	3892314112	60	40394
2026-01-17 02:15:45.19	315.46	11.28	-47.8	-50.4	6.1	0.00e+00	0	31	104	3892314112	60	40331
2026-01-17 02:15:46.20	315.20	11.26	-47.8	-50.3	6.1	0.00e+00	0	31	104	3892314112	60	40316
2026-01-17 02:15:47.20	314.93	11.24	-47.7	-50.2	6.1	0.00e+00	0	31	104	3892314112	60	39743
2026-01-17 02:15:48.22	314.66	11.22	-47.8	-50.3	6.1	0.00e+00	0	31	104	3892314112	60	40268
2026-01-17 02:15:49.23	314.39	11.19	-47.7	-50.2	6.1	0.00e+00	0	31	104	3892314112	60	39792
2026-01-17 02:15:50.24	314.13	11.17	-47.8	-50.3	6.1	0.00e+00	0	31	104	3892314112	60	40071
2026-01-17 02:15:51.25	313.86	11.15	-47.5	-50.1	6.1	0.00e+00	0	31	104	3892314112	60	39004
2026-01-17 02:15:52.26	313.60	11.13	-47.7	-50.2	6.1	0.00e+00	0	31	104	3892314112	60	39443
2026-01-17 02:15:53.27	313.33	11.10	-47.6	-50.1	6.1	0.00e+00	0	31	104	3892314112	60	39286
2026-01-17 02:15:54.28	313.07	11.08	-47.6	-50.2	6.1	0.00e+00	0	31	104	3892314112	60	39599
2026-01-17 02:15:55.29	312.80	11.05	-47.6	-50.2	6.1	0.00e+00	0	31	104	3892314112	60	39560
2026-01-17 02:15:56.30	312.54	11.03	-47.8	-50.2	6.1	0.00e+00	0	31	104	3892314112	60	39852
2026-01-17 02:15:57.31	312.28	11.00	-47.7	-50.2	6.0	0.00e+00	0	31	104	3892314112	60	39607
2026-01-17 02:15:58.32	312.02	10.98	-47.6	-50.2	6.1	0.00e+00	0	31	104	3892314112	60	39604
2026-01-17 02:15:59.33	311.75	10.95	-47.7	-50.2	6.1	0.00e+00	0	31	104	3892314112	60	39706
2026-01-17 02:16:00.34	311.49	10.92	-47.7	-50.2	6.0	0.00e+00	0	31	104	3892314112	60	39698
2026-01-17 02:16:01.35	311.23	10.90	-47.9	-50.4	6.1	0.00e+00	0	31	104	3892314112	60	40355
2026-01-17 02:16:02.36	310.97	10.87	-47.8	-50.3	6.1	0.00e+00	0	31	104	3892314112	60	40185
2026-01-17 02:16:03.37	310.71	10.84	-47.8	-50.3	6.1	0.00e+00	0	31	104	3892314112	60	40302
2026-01-17 02:16:04.37	310.46	10.81	-47.9	-50.3	6.1	0.00e+00	0	31	104	3892314112	60	40280
2026-01-17 02:16:05.39	310.20	10.78	-47.8	-50.3	6.1	0.00e+00	0	31	104	3892314112	60	40240
2026-01-17 02:16:06.40	309.94	10.75	-47.7	-50.2	6.1	0.00e+00	0	31	104	3892314112	60	39823
2026-01-17 02:16:07.41	309.68	10.72	-47.7	-50.3	6.1	0.00e+00	0	31	104	3892314112	60	39935
2026-01-17 02:16:08.41	309.43	10.69	-47.8	-50.2	6.1	0.00e+00	0	31	104	3892314112	60	39838
2026-01-17 02:16:09.42	309.17	10.66	-47.8	-50.3	6.1	0.00e+00	0	31	104	3892314112	60	40223
2026-01-17 02:16:10.43	308.92	10.63	-47.8	-50.2	6.1	0.00e+00	0	31	104	3892314112	60	39787
2026-01-17 02:16:11.44	308.66	10.60	-47.7	-50.3	6.1	0.00e+00	0	31	104	3892314112	60	40036
2026-01-17 02:16:12.46	308.41	10.57	-47.5	-50.1	6.1	0.00e+00	0	31	104	3892314112	60	39053
2026-01-17 02:16:13.47	308.15	10.54	-47.5	-50.1	6.1	0.00e+00	0	31	104	3892314112	60	39198
2026-01-17 02:16:14.47	307.90	10.50	-47.6	-50.1	6.1	0.00e+00	0	31	104	3892314112	60	39346
2026-01-17 02:16:15.48	307.65	10.47	-47.4	-50.0	6.1	0.00e+00	0	31	104	3892314112	60	38737
2026-01-17 02:16:16.49	307.40	10.44	-47.5	-50.1	6.1	0.00e+00	0	31	104	3892314112	60	39093
2026-01-17 02:16:17.50	307.15	10.40	-47.3	-49.9	6.1	0.00e+00	0	31	104	3892314112	60	38135
2026-01-17 02:16:18.51	306.90	10.37	-47.4	-49.9	6.1	0.00e+00	0	31	104	3892314112	60	38453
2026-01-17 02:16:19.52	306.65	10.33	-47.2	-49.8	6.1	0.00e+00	0	31	104	3892314112	60	37837
2026-01-17 02:16:20.53	306.41	10.30	-47.3	-49.9	6.1	0.00e+00	0	31	104	3892314112	60	38231
2026-01-17 02:16:21.54	306.16	10.26	-47.5	-50.1	6.1	0.00e+00	0	31	104	3892314112	60	39000
2026-01-17 02:16:22.54	305.92	10.23	-47.4	-49.9	6.1	0.00e+00	0	31	104	3892314112	60	38501
2026-01-17 02:16:23.55	305.67	10.19	-47.5	-50.0	6.1	0.00e+00	0	31	104	3892314112	60	38853
2026-01-17 02:16:24.56	305.42	10.16	-47.3	-49.9	6.1	0.00e+00	0	31	104	3892314112	60	38205
2026-01-17 02:16:25.57	305.18	10.12	-47.5	-50.0	6.1	0.00e+00	0	31	104	3892314112	60	38941
2026-01-17 02:16:26.58	304.94	10.08	-47.6	-50.1	6.1	0.00e+00	0	31	104	3892314112	60	39369
2026-01-17 02:16:27.59	304.69	10.04	-47.3	-49.9	6.1	0.00e+00	0	31	104	3892314112	60	38444
2026-01-17 02:16:28.60	304.45	10.01	-47.5	-50.1	6.1	0.00e+00	0	31	104	3892314112	60	38965
2026-01-17 02:16:29.61	304.21	9.97	-47.3	-49.9	6.1	0.00e+00	0	31	104	3892314112	60	38251
2026-01-17 02:16:30.62	303.97	9.93	-47.5	-50.0	6.1	0.00e+00	0	31	104	3892314112	60	38721
2026-01-17 02:16:31.63	303.73	9.89	-47.6	-50.2	6.1	0.00e+00	0	31	104	3892314112	60	39535
2026-01-17 02:16:32.64	303.49	9.85	-47.6	-50.1	6.1	0.00e+00	0	31	104	3892314112	60	39297
2026-01-17 02:16:33.65	303.25	9.81	-47.6	-50.1	6.1	0.00e+00	0	31	104	3892314112	60	39306
2026-01-17 02:16:34.66	303.02	9.77	-47.5	-50.1	6.1	0.00e+00	0	31	104	3892314112	60	39061
2026-01-17 02:16:35.66	302.78	9.73	-47.6	-50.2	6.1	0.00e+00	0	31	104	3892314112	60	39450
2026-01-17 02:16:36.68	302.54	9.69	-47.6	-50.1	6.1	0.00e+00	0	31	104	3892314112	60	39142
2026-01-17 02:16:37.69	302.31	9.65	-47.7	-50.2	6.1	0.00e+00	0	31	104	3892314112	60	39514
2026-01-17 02:16:38.69	302.08	9.61	-47.7	-50.3	6.1	0.00e+00	0	31	104	3892314112	60	39875
2026-01-17 02:16:39.70	301.85	9.57	-47.7	-50.2	6.1	0.00e+00	0	31	104	3892314112	60	39507
2026-01-17 02:16:40.71	301.61	9.53	-47.7	-50.1	6.1	0.00e+00	0	31	104	3892314112	60	39264
2026-01-17 02:16:41.72	301.38	9.48	-47.6	-50.1	6.1	0.00e+00	0	31	104	3892314112	60	39320
2026-01-17 02:16:42.73	301.15	9.44	-47.8	-50.3	6.1	0.00e+00	0	31	104	3892314112	60	40101
2026-01-17 02:16:43.74	300.92	9.40	-47.7	-50.2	6.1	0.00e+00	0	31	104	3892314112	60	39701
2026-01-17 02:16:44.75	300.69	9.36	-47.8	-50.2	6.1	0.00e+00	0	31	104	3892314112	60	39841
2026-01-17 02:16:45.76	300.46	9.31	-47.6	-50.1	6.1	0.00e+00	0	31	104	3892314112	60	39390
2026-01-17 02:16:46.77	300.24	9.27	-47.7	-50.3	6.1	0.00e+00	0	31	104	3892314112	60	39884
2026-01-17 02:16:47.78	300.01	9.23	-47.7	-50.2	6.1	0.00e+00	0	31	104	3892314112	60	39469
2026-01-17 02:16:48.79	299.78	9.18	-47.7	-50.2	6.1	0.00e+00	0	31	104	3892314112	60	39570
2026-01-17 02:16:49.80	299.56	9.14	-47.7	-50.2	6.1	0.00e+00	0	31	104	3892314112	60	39757
2026-01-17 02:16:50.81	299.33	9.09	-47.8	-50.2	6.1	0.00e+00	0	31	104	3892314112	60	39833
2026-01-17 02:16:51.82	299.11	9.05	-47.6	-50.1	6.1	0.00e+00	0	31	104	3892314112	60	39291
2026-01-17 02:16:52.82	298.89	9.00	-47.7	-50.2	6.1	0.00e+00	0	31	104	3892314112	60	39746
2026-01-17 02:16:53.84	298.67	8.96	-47.7	-50.2	6.1	0.00e+00	0	31	104	3892314112	60	39476
2026-01-17 02:16:54.84	298.45	8.91	-47.8	-50.2	6.1	0.00e+00	0	31	104	3892314112	60	39839
2026-01-17 02:16:55.85	298.23	8.87	-47.7	-50.2	6.1	0.00e+00	0	31	104	3892314112	60	39467
2026-01-17 02:16:56.86	298.01	8.82	-47.8	-50.3	6.1	0.00e+00	0	31	104	3892314112	60	40002
2026-01-17 02:16:57.87	297.79	8.78	-47.6	-50.2	6.1	0.00e+00	0	31	104	3892314112	60	39501
2026-01-17 02:16:58.88	297.57	8.73	-47.7	-50.2	6.1	0.00e+00	0	31	104	3892314112	60	39673
2026-01-17 02:16:59.89	297.36	8.68	-47.7	-50.2	6.1	0.00e+00	0	31	104	3892314112	60	39562
2026-01-17 02:17:00.90	297.14	8.64	-47.7	-50.2	6.1	0.00e+00	0	31	104	3892314112	60	39545
2026-01-17 02:17:01.91	296.93	8.59	-47.7	-50.2	6.1	0.00e+00	0	31	104	3892314112	60	39698
2026-01-17 02:17:02.92	296.71	8.54	-47.8	-50.2	6.1	0.00e+00	0	31	104	3892314112	60	39838
2026-01-17 02:17:03.93	296.50	8.50	-47.7	-50.2	6.1	0.00e+00	0	31	104	3892314112	60	39489
2026-01-17 02:17:04.94	296.29	8.45	-47.7	-50.3	6.1	0.00e+00	0	31	104	3892314112	60	39872
2026-01-17 02:17:05.95	296.08	8.40	-47.8	-50.2	6.1	0.00e+00	0	31	104	3892314112	60	39854
2026-01-17 02:17:06.96	295.87	8.35	-47.7	-50.2	6.1	0.00e+00	0	31	104	3892314112	60	39793
2026-01-17 02:17:07.97	295.66	8.30	-47.7	-50.2	6.1	0.00e+00	0	31	104	3892314112	60	39414
2026-01-17 02:17:08.98	295.45	8.26	-47.7	-50.2	6.1	0.00e+00	0	31	104	3892314112	60	39610
2026-01-17 02:17:09.99	295.24	8.21	-47.7	-50.2	6.1	0.00e+00	0	31	104	3892314112	60	39588
2026-01-17 02:17:11.00	295.03	8.16	-47.7	-50.2	6.1	0.00e+00	0	31	104	3892314112	60	39599
2026-01-17 02:17:12.00	294.83	8.11	-47.7	-50.1	6.1	0.00e+00	0	31	104	3892314112	60	39292
2026-01-17 02:17:13.01	294.62	8.06	-47.7	-50.2	6.1	0.00e+00	0	31	104	3892314112	60	39807
2026-01-17 02:17:14.02	294.42	8.01	-47.7	-50.2	6.1	0.00e+00	0	31	104	3892314112	60	39644
2026-01-17 02:17:15.03	294.22	7.96	-47.7	-50.2	6.1	0.00e+00	0	31	104	3892314112	60	39647
2026-01-17 02:17:16.04	294.01	7.91	-47.6	-50.2	6.1	0.00e+00	0	31	104	3892314112	60	39443
2026-01-17 02:17:17.05	293.81	7.86	-47.7	-50.2	6.1	0.00e+00	0	31	104	3892314112	60	39526
2026-01-17 02:17:18.06	293.61	7.81	-47.7	-50.2	6.0	0.00e+00	0	31	104	3892314112	60	39461
2026-01-17 02:17:19.07	293.41	7.76	-47.7	-50.1	6.1	0.00e+00	0	31	104	3892314112	60	39404
2026-01-17 02:17:20.08	293.21	7.71	-47.6	-50.1	6.1	0.00e+00	0	31	104	3892314112	60	39257
2026-01-17 02:17:21.09	293.01	7.66	-47.7	-50.1	6.1	0.00e+00	0	31	104	3892314112	60	39329
2026-01-17 02:17:22.10	292.82	7.61	-47.6	-50.1	6.1	0.00e+00	0	31	104	3892314112	60	39350
2026-01-17 02:17:23.11	292.62	7.56	-47.7	-50.2	6.1	0.00e+00	0	31	104	3892314112	60	39443
2026-01-17 02:17:24.12	292.42	7.51	-47.6	-50.0	6.1	0.00e+00	0	31	104	3892314112	60	38945
2026-01-17 02:17:25.12	292.23	7.46	-47.6	-50.1	6.1	0.00e+00	0	31	104	3892314112	60	39281
2026-01-17 02:17:26.13	292.04	7.41	-47.6	-50.1	6.1	0.00e+00	0	31	104	3892314112	60	39146
2026-01-17 02:17:27.14	291.84	7.36	-47.7	-50.1	6.1	0.00e+00	0	31	104	3892314112	60	39211
2026-01-17 02:17:28.15	291.65	7.31	-47.5	-50.0	6.1	0.00e+00	0	31	104	3892314112	60	38787
2026-01-17 02:17:29.16	291.46	7.26	-47.6	-50.1	6.1	0.00e+00	0	31	104	3892314112	60	39057
2026-01-17 02:17:30.17	291.27	7.21	-47.6	-50.1	6.1	0.00e+00	0	31	104	3892314112	60	39192
2026-01-17 02:17:31.18	291.08	7.16	-47.7	-50.1	6.1	0.00e+00	0	31	104	3892314112	60	39244
2026-01-17 02:17:32.19	290.89	7.10	-47.5	-50.0	6.1	0.00e+00	0	31	104	3892314112	60	38924
2026-01-17 02:17:33.20	290.70	7.05	-47.6	-50.1	6.1	0.00e+00	0	31	104	3892314112	60	39009
2026-01-17 02:17:34.20	290.52	7.00	-47.6	-50.1	6.1	0.00e+00	0	31	104	3892314112	60	39164
2026-01-17 02:17:35.21	290.33	6.95	-47.6	-50.1	6.1	0.00e+00	0	31	104	3892314112	60	39041
2026-01-17 02:17:36.22	290.14	6.90	-47.5	-50.0	6.1	0.00e+00	0	31	104	3892314112	60	38787
2026-01-17 02:17:37.23	289.96	6.85	-47.5	-50.0	6.1	0.00e+00	0	31	104	3892314112	60	38736
2026-01-17 02:17:38.24	289.77	6.79	-47.6	-50.0	6.1	0.00e+00	0	31	104	3892314112	60	38892
2026-01-17 02:17:39.24	289.59	6.74	-47.6	-50.1	6.1	0.00e+00	0	32	104	3892314112	60	39283
2026-01-17 02:17:40.25	289.41	6.69	-47.4	-49.9	6.1	0.00e+00	0	31	104	3892314112	60	38237
2026-01-17 02:17:41.26	289.23	6.64	-47.5	-50.0	6.1	0.00e+00	0	31	104	3892314112	60	38782
2026-01-17 02:17:42.27	289.05	6.58	-47.5	-50.0	6.1	0.00e+00	0	31	104	3892314112	60	38682
2026-01-17 02:17:43.28	288.87	6.53	-47.5	-50.0	6.1	0.00e+00	0	31	104	3892314112	60	38802
2026-01-17 02:17:44.29	288.69	6.48	-47.4	-49.9	6.1	0.00e+00	0	31	104	3892314112	60	38432
2026-01-17 02:17:45.29	288.51	6.43	-47.5	-50.0	6.1	0.00e+00	0	31	104	3892314112	60	38618
2026-01-17 02:17:46.30	288.34	6.37	-47.5	-50.0	6.1	0.00e+00	0	31	104	3892314112	60	38696
2026-01-17 02:17:47.31	288.16	6.32	-47.5	-50.0	6.1	0.00e+00	0	32	104	3892314112	60	38679
2026-01-17 02:17:48.32	287.98	6.27	-47.4	-49.9	6.1	0.00e+00	0	32	104	3892314112	60	38281
2026-01-17 02:17:49.33	287.81	6.21	-47.5	-50.0	6.1	0.00e+00	0	31	104	3892314112	60	38772
2026-01-17 02:17:50.33	287.64	6.16	-47.5	-50.0	6.1	0.00e+00	0	31	104	3892314112	60	38714
2026-01-17 02:17:51.35	287.46	6.11	-47.5	-50.0	6.1	0.00e+00	0	31	104	3892314112	60	38799
2026-01-17 02:17:52.35	287.29	6.06	-47.4	-49.8	6.1	0.00e+00	0	31	104	3892314112	60	37960
2026-01-17 02:17:53.36	287.12	6.00	-47.4	-49.9	6.1	0.00e+00	0	32	104	3892314112	60	38219
2026-01-17 02:17:54.37	286.95	5.95	-47.4	-49.9	6.1	0.00e+00	0	32	104	3892314112	60	38371
2026-01-17 02:17:55.38	286.78	5.90	-47.5	-49.9	6.1	0.00e+00	0	32	104	3892314112	60	38485
2026-01-17 02:17:56.39	286.61	5.84	-47.3	-49.8	6.1	0.00e+00	0	32	104	3892314112	60	37937
2026-01-17 02:17:57.40	286.44	5.79	-47.4	-49.9	6.1	0.00e+00	0	32	104	3892314112	60	38272
2026-01-17 02:17:58.41	286.27	5.74	-47.4	-50.0	6.1	0.00e+00	0	32	104	3892314112	60	38516
2026-01-17 02:17:59.42	286.10	5.68	-47.4	-49.9	6.1	0.00e+00	0	32	104	3892314112	60	38293
2026-01-17 02:18:00.43	285.94	5.63	-47.3	-49.8	6.0	0.00e+00	0	32	104	3892314112	60	37773
2026-01-17 02:18:01.44	285.77	5.57	-47.4	-49.8	6.1	0.00e+00	0	32	104	3892314112	60	37878
2026-01-17 02:18:02.45	285.61	5.52	-47.4	-49.9	6.1	0.00e+00	0	32	104	3892314112	60	38172
2026-01-17 02:18:03.46	285.44	5.47	-47.4	-49.9	6.0	0.00e+00	0	32	104	3892314112	60	38192
2026-01-17 02:18:04.47	285.28	5.41	-47.3	-49.7	6.1	0.00e+00	0	32	104	3892314112	60	37538
2026-01-17 02:18:05.47	285.12	5.36	-47.3	-49.8	6.1	0.00e+00	0	32	104	3892314112	60	37853
2026-01-17 02:18:06.48	284.96	5.31	-47.4	-49.8	6.1	0.00e+00	0	32	104	3892314112	60	37932
2026-01-17 02:18:07.49	284.80	5.25	-47.3	-49.8	6.1	0.00e+00	0	32	104	3892314112	60	37811
2026-01-17 02:18:08.50	284.64	5.20	-47.2	-49.7	6.1	0.00e+00	0	32	104	3892314112	60	37513
2026-01-17 02:18:09.51	284.48	5.14	-47.3	-49.8	6.1	0.00e+00	0	32	104	3892314112	60	37762
2026-01-17 02:18:10.51	284.32	5.09	-47.3	-49.8	6.1	0.00e+00	0	32	104	3892314112	60	37989
2026-01-17 02:18:11.52	284.16	5.04	-47.3	-49.8	6.1	0.00e+00	0	32	104	3892314112	60	37722
2026-01-17 02:18:12.53	284.00	4.98	-47.2	-49.7	6.1	0.00e+00	0	32	104	3892314112	60	37241
2026-01-17 02:18:13.54	283.85	4.93	-47.2	-49.7	6.1	0.00e+00	0	32	104	3892314112	60	37571
2026-01-17 02:18:14.55	283.69	4.87	-47.3	-49.8	6.1	0.00e+00	0	32	104	3892314112	60	37719
2026-01-17 02:18:15.55	283.54	4.82	-47.2	-49.7	6.1	0.00e+00	0	32	104	3892314112	60	37441
2026-01-17 02:18:16.56	283.38	4.77	-47.1	-49.6	6.1	0.00e+00	0	32	104	3892314112	60	36964
2026-01-17 02:18:17.57	283.23	4.71	-47.2	-49.7	6.1	0.00e+00	0	32	104	3892314112	60	37321
2026-01-17 02:18:18.58	283.08	4.66	-47.3	-49.7	6.1	0.00e+00	0	32	104	3892314112	60	37615
2026-01-17 02:18:19.59	282.92	4.60	-47.2	-49.7	6.1	0.00e+00	0	32	104	3892314112	60	37226
2026-01-17 02:18:20.60	282.77	4.55	-47.1	-49.6	6.1	0.00e+00	0	32	104	3892314112	60	36852
2026-01-17 02:18:21.61	282.62	4.50	-47.2	-49.6	6.1	0.00e+00	0	32	104	3892314112	60	37183
2026-01-17 02:18:22.62	282.47	4.44	-47.2	-49.7	6.1	0.00e+00	0	32	104	3892314112	60	37427
2026-01-17 02:18:23.63	282.32	4.39	-47.1	-49.6	6.1	0.00e+00	0	32	104	3892314112	60	36884
2026-01-17 02:18:24.64	282.18	4.33	-47.1	-49.5	6.1	0.00e+00	0	32	104	3892314112	60	36738
2026-01-17 02:18:25.65	282.03	4.28	-47.1	-49.6	6.1	0.00e+00	0	32	104	3892314112	60	36898
2026-01-17 02:18:26.66	281.88	4.22	-47.2	-49.7	6.1	0.00e+00	0	32	104	3892314112	60	37357
2026-01-17 02:18:27.66	281.74	4.17	-47.1	-49.6	6.1	0.00e+00	0	32	104	3892314112	60	36800
2026-01-17 02:18:28.68	281.59	4.12	-47.0	-49.5	6.1	0.00e+00	0	32	104	3892314112	60	36424
2026-01-17 02:18:29.68	281.44	4.06	-47.1	-49.6	6.1	0.00e+00	0	32	104	3892314112	60	36944
2026-01-17 02:18:30.69	281.30	4.01	-47.2	-49.6	6.1	0.00e+00	0	32	104	3892314112	60	37150
2026-01-17 02:18:31.70	281.16	3.95	-47.0	-49.5	6.1	0.00e+00	0	32	104	3892314112	60	36495
2026-01-17 02:18:32.71	281.01	3.90	-47.0	-49.4	6.1	0.00e+00	0	32	104	3892314112	60	36196
2026-01-17 02:18:33.72	280.87	3.85	-47.0	-49.5	6.1	0.00e+00	0	32	104	3892314112	60	36640
2026-01-17 02:18:34.72	280.73	3.79	-47.1	-49.6	6.1	0.00e+00	0	32	104	3892314112	60	36874
2026-01-17 02:18:35.73	280.59	3.74	-46.9	-49.4	6.1	0.00e+00	0	32	104	3892314112	60	36243
2026-01-17 02:18:36.74	280.45	3.68	-46.9	-49.3	6.1	0.00e+00	0	32	104	3892314112	60	35907
2026-01-17 02:18:37.75	280.31	3.63	-47.0	-49.4	6.1	0.00e+00	0	32	104	3892314112	60	36318
2026-01-17 02:18:38.76	280.17	3.58	-47.0	-49.5	6.1	0.00e+00	0	32	104	3892314112	60	36519
2026-01-17 02:18:39.77	280.03	3.52	-46.8	-49.3	6.1	0.00e+00	0	32	104	3892314112	60	35602
2026-01-17 02:18:40.78	279.90	3.47	-46.8	-49.3	6.1	0.00e+00	0	32	104	3892314112	60	35643
2026-01-17 02:18:41.79	279.76	3.41	-46.9	-49.3	6.1	0.00e+00	0	32	104	3892314112	60	35916
2026-01-17 02:18:42.80	279.62	3.36	-47.0	-49.4	6.1	0.00e+00	0	32	104	3892314112	60	36233
2026-01-17 02:18:43.81	279.49	3.31	-46.7	-49.2	6.1	0.00e+00	0	32	104	3892314112	60	35479
2026-01-17 02:18:44.82	279.35	3.25	-46.7	-49.2	6.1	0.00e+00	0	32	104	3892314112	60	35306
2026-01-17 02:18:45.83	279.22	3.20	-46.8	-49.3	6.1	0.00e+00	0	32	104	3892314112	60	35819
2026-01-17 02:18:46.84	279.08	3.14	-46.9	-49.4	6.1	0.00e+00	0	32	104	3892314112	60	36319
2026-01-17 02:18:47.84	278.95	3.09	-46.6	-49.1	6.1	0.00e+00	0	32	104	3892314112	60	34938
2026-01-17 02:18:48.85	278.82	3.04	-46.7	-49.2	6.1	0.00e+00	0	32	104	3892314112	60	35133
2026-01-17 02:18:49.86	278.69	2.98	-47.3	-49.7	6.1	0.00e+00	0	32	104	3892314112	60	37616
2026-01-17 02:18:50.87	278.56	2.93	-47.8	-50.3	6.1	0.00e+00	0	32	104	3892314112	60	40172
2026-01-17 02:18:51.88	278.43	2.87	-48.2	-50.6	6.1	0.00e+00	0	32	104	3892314112	60	41631
2026-01-17 02:18:52.89	278.30	2.82	-48.3	-50.8	6.1	0.00e+00	0	32	104	3892314112	60	42376
2026-01-17 02:18:53.90	278.17	2.77	-48.4	-50.8	6.1	0.00e+00	0	32	104	3892314112	60	42667
2026-01-17 02:18:54.91	278.04	2.71	-48.5	-51.0	6.1	0.00e+00	0	32	104	3892314112	60	43266
2026-01-17 02:18:55.92	277.91	2.66	-48.5	-50.9	6.1	0.00e+00	0	32	104	3892314112	60	43194
2026-01-17 02:18:56.93	277.78	2.61	-48.5	-51.0	6.1	0.00e+00	0	32	104	3892314112	60	43391
2026-01-17 02:18:57.94	277.65	2.55	-48.4	-50.9	6.1	0.00e+00	0	32	104	3892314112	60	42985
2026-01-17 02:18:58.95	277.53	2.50	-48.3	-50.9	6.1	0.00e+00	0	32	104	3892314112	60	42780
2026-01-17 02:18:59.96	277.40	2.44	-48.1	-50.6	6.1	0.00e+00	0	32	104	3892314112	60	41558
2026-01-17 02:19:00.97	277.28	2.39	-48.0	-50.6	6.1	0.00e+00	0	32	104	3892314112	60	41389
2026-01-17 02:19:01.98	277.15	2.34	-47.9	-50.4	6.1	0.00e+00	0	32	104	3892314112	60	40612
2026-01-17 02:19:02.99	277.03	2.28	-48.0	-50.5	6.1	0.00e+00	0	32	104	3892314112	60	40982
2026-01-17 02:19:04.00	276.90	2.23	-48.2	-50.8	6.1	0.00e+00	0	32	104	3892314112	60	42227
2026-01-17 02:19:05.01	276.78	2.18	-48.1	-50.6	6.1	0.00e+00	0	32	104	3892314112	60	41345
2026-01-17 02:19:06.02	276.66	2.12	-48.2	-50.7	6.1	0.00e+00	0	32	104	3892314112	60	41968
2026-01-17 02:19:07.03	276.54	2.07	-48.3	-50.8	6.1	0.00e+00	0	32	104	3892314112	60	42630
2026-01-17 02:19:08.04	276.42	2.02	-48.4	-50.9	6.1	0.00e+00	0	32	104	3892314112	60	42944
2026-01-17 02:19:09.05	276.30	1.96	-48.3	-50.7	6.1	0.00e+00	0	32	104	3892314112	60	42142
2026-01-17 02:19:10.06	276.18	1.91	-48.3	-50.7	6.1	0.00e+00	0	32	104	3892314112	60	42064
2026-01-17 02:19:11.07	276.06	1.86	-48.3	-50.8	6.1	0.00e+00	0	32	104	3892314112	60	42326
2026-01-17 02:19:12.08	275.94	1.80	-48.2	-50.7	6.1	0.00e+00	0	32	104	3892314112	60	41979
2026-01-17 02:19:13.09	275.82	1.75	-48.3	-50.8	6.1	0.00e+00	0	32	104	3892314112	60	42280
2026-01-17 02:19:14.10	275.70	1.70	-48.2	-50.8	6.1	0.00e+00	0	32	104	3892314112	60	42266
2026-01-17 02:19:15.11	275.58	1.64	-48.2	-50.8	6.1	0.00e+00	0	32	104	3892314112	60	42267
2026-01-17 02:19:16.12	275.47	1.59	-48.3	-50.8	6.1	0.00e+00	0	32	104	3892314112	60	42554
2026-01-17 02:19:17.13	275.35	1.54	-48.3	-50.8	6.1	0.00e+00	0	32	104	3892314112	60	42591
2026-01-17 02:19:18.14	275.24	1.48	-48.2	-50.7	6.1	0.00e+00	0	32	104	3892314112	60	42105
2026-01-17 02:19:19.15	275.12	1.43	-48.2	-50.7	6.1	0.00e+00	0	32	104	3892314112	60	42087
2026-01-17 02:19:20.16	275.01	1.38	-48.2	-50.8	6.1	0.00e+00	0	32	104	3892314112	60	42326
2026-01-17 02:19:21.17	274.89	1.32	-48.2	-50.8	6.1	0.00e+00	0	32	104	3892314112	60	42289
2026-01-17 02:19:22.18	274.78	1.27	-48.3	-50.8	6.1	0.00e+00	0	32	104	3892314112	60	42383
2026-01-17 02:19:23.19	274.67	1.22	-48.3	-50.8	6.1	0.00e+00	0	32	104	3892314112	60	42237
2026-01-17 02:19:24.20	274.55	1.16	-48.2	-50.7	6.1	0.00e+00	0	32	104	3892314112	60	42109
2026-01-17 02:19:25.21	274.44	1.11	-48.3	-50.8	6.1	0.00e+00	0	32	104	3892314112	60	42490
2026-01-17 02:19:26.22	274.33	1.06	-48.3	-50.9	6.1	0.00e+00	0	32	104	3892314112	60	42714
2026-01-17 02:19:27.23	274.22	1.01	-48.3	-50.8	6.1	0.00e+00	0	32	104	3892314112	60	42255
2026-01-17 02:19:28.24	274.11	0.95	-48.3	-50.8	6.1	0.00e+00	0	32	104	3892314112	60	42650
2026-01-17 02:19:29.25	274.00	0.90	-48.3	-50.8	6.1	0.00e+00	0	32	104	3892314112	60	42244
2026-01-17 02:19:30.26	273.89	0.85	-48.2	-50.8	6.1	0.00e+00	0	32	104	3892314112	60	42251
2026-01-17 02:19:31.27	273.78	0.80	-48.3	-50.8	6.1	0.00e+00	0	32	104	3892314112	60	42476
2026-01-17 02:19:32.28	273.67	0.74	-48.2	-50.7	6.1	0.00e+00	0	32	104	3892314112	60	41924
2026-01-17 02:19:33.29	273.57	0.69	-48.2	-50.7	6.1	0.00e+00	0	32	104	3892314112	60	41986
2026-01-17 02:19:34.30	273.46	0.64	-48.2	-50.7	6.1	0.00e+00	0	32	104	3892314112	60	41939
2026-01-17 02:19:35.31	273.35	0.59	-48.2	-50.7	6.1	0.00e+00	0	32	104	3892314112	60	41962
2026-01-17 02:19:36.32	273.25	0.53	-48.2	-50.7	6.1	0.00e+00	0	32	104	3892314112	60	41982
2026-01-17 02:19:37.33	273.14	0.48	-48.2	-50.8	6.1	0.00e+00	0	32	104	3892314112	60	42336
2026-01-17 02:19:38.34	273.04	0.43	-48.2	-50.8	6.1	0.00e+00	0	32	104	3892314112	60	42390
2026-01-17 02:19:39.35	272.93	0.38	-48.3	-50.8	6.1	0.00e+00	0	32	104	3892314112	60	42708
2026-01-17 02:19:40.36	272.83	0.32	-48.2	-50.7	6.1	0.00e+00	0	32	104	3892314112	60	42114
2026-01-17 02:19:41.37	272.72	0.27	-48.3	-50.8	6.1	0.00e+00	0	32	104	3892314112	60	42506
2026-01-17 02:19:42.38	272.62	0.22	-48.3	-50.8	6.1	0.00e+00	0	32	104	3892314112	60	42456
2026-01-17 02:19:43.39	272.52	0.17	-48.2	-50.7	6.1	0.00e+00	0	32	104	3892314112	60	42087
2026-01-17 02:19:44.40	272.41	0.12	-48.3	-50.8	6.1	0.00e+00	0	32	104	3892314112	60	42423
2026-01-17 02:19:45.41	272.31	0.06	-48.3	-50.8	6.1	0.00e+00	0	32	104	3892314112	60	42428
2026-01-17 02:19:46.42	272.21	0.01	-48.2	-50.7	6.1	0.00e+00	0	32	104	3892314112	60	42151
2026-01-17 02:19:47.43	272.11	-0.04	-48.6	-51.2	6.1	0.00e+00	0	32	104	3892314112	60	44274
2026-01-17 02:19:48.44	272.01	-0.09	-48.3	-50.8	6.1	0.00e+00	0	32	104	3892314112	60	42690

#Closed at: 2026-01-17 02:19:49
#Recorded file [3892 MB]: D:/lorett/data/35029_260117_141101.dat