passes_logs/2026/01/17/R4.6S_Anadyr/R4.6S_Anadyr__20260117_002102_SUOMI_NPP_rec.log

#Pass ID: 20260117_002102_SUOMI NPP
#Satellite: SUOMI NPP
#Configuration: NPP
#almurnet v.1.7.20251203
#Start time: 2026-01-17 00:21:04

#Version: 2.2.20231116
#Station: R4.6S_Anadyr
#Location: 177.4865 lon 64.73178 lat
#TLE: 1 37849U 11061A   26016.58419598  .00000058  00000+0  48257-4 0  9996
#TLE: 2 37849  98.7812 318.6192 0002422  60.8544 299.2874 14.19525580736934

#Time	Az	El	Level	Level2	SNR	BER	BlckErr	Temp	State	Recorded	gain1	gain2
2026-01-17 00:21:04.00	157.71	0.07	-48.3	-60.8	3.4	1.52e+00	0	28	0	0	60	38327
2026-01-17 00:21:05.00	157.72	0.13	-48.8	-64.0	3.6	1.51e+00	0	30	104	0	60	57511
2026-01-17 00:21:06.01	157.72	0.19	-48.5	-63.7	3.6	1.51e+00	0	29	104	0	60	55560
2026-01-17 00:21:07.02	157.73	0.26	-48.7	-63.9	3.6	1.51e+00	0	30	104	0	60	56733
2026-01-17 00:21:08.03	157.73	0.32	-49.0	-64.1	3.6	1.51e+00	0	30	104	0	60	58000
2026-01-17 00:21:09.04	157.74	0.38	-48.8	-64.0	3.6	1.51e+00	0	30	104	0	60	57130
2026-01-17 00:21:10.05	157.74	0.44	-48.6	-63.7	3.6	1.51e+00	0	30	104	0	60	55659
2026-01-17 00:21:11.06	157.75	0.50	-48.6	-63.7	3.5	1.51e+00	0	30	104	0	60	55390
2026-01-17 00:21:12.07	157.75	0.56	-48.5	-63.7	3.6	1.51e+00	0	30	104	0	60	55071
2026-01-17 00:21:13.08	157.76	0.62	-48.2	-63.6	3.6	1.51e+00	0	30	104	0	60	54480
2026-01-17 00:21:14.09	157.77	0.69	-48.2	-63.4	3.6	1.51e+00	0	30	104	0	60	53375
2026-01-17 00:21:15.10	157.77	0.75	-48.1	-63.2	3.6	1.51e+00	0	30	104	0	60	52279
2026-01-17 00:21:16.10	157.78	0.81	-47.8	-63.0	3.6	1.51e+00	0	30	104	0	60	51026
2026-01-17 00:21:17.11	157.78	0.87	-46.3	-61.5	3.5	1.51e+00	0	30	104	0	60	42985
2026-01-17 00:21:18.12	157.79	0.94	-47.1	-62.3	3.6	1.51e+00	0	30	104	0	60	46929
2026-01-17 00:21:19.13	157.79	1.00	-46.9	-62.1	3.6	1.51e+00	0	30	104	0	60	46132
2026-01-17 00:21:20.14	157.80	1.06	-46.9	-62.1	3.6	1.51e+00	0	30	104	0	60	45886
2026-01-17 00:21:21.15	157.80	1.12	-46.9	-62.1	3.6	1.51e+00	0	30	104	0	60	45837
2026-01-17 00:21:22.16	157.81	1.19	-46.9	-62.0	3.6	1.51e+00	0	30	104	0	60	45560
2026-01-17 00:21:23.17	157.82	1.25	-46.9	-62.0	3.6	1.51e+00	0	30	104	0	60	45657
2026-01-17 00:21:24.18	157.82	1.31	-46.9	-62.0	3.6	1.51e+00	0	30	104	0	60	45402
2026-01-17 00:21:25.18	157.83	1.38	-46.9	-62.0	3.6	1.51e+00	0	30	104	0	60	45543
2026-01-17 00:21:26.19	157.83	1.44	-46.9	-62.0	3.6	1.51e+00	0	30	104	0	60	45689
2026-01-17 00:21:27.20	157.84	1.50	-46.9	-62.0	3.6	1.51e+00	0	30	104	0	60	45654
2026-01-17 00:21:28.21	157.84	1.57	-46.9	-62.0	3.6	1.51e+00	0	30	104	0	60	45557
2026-01-17 00:21:29.22	157.85	1.63	-46.9	-62.0	3.6	1.51e+00	0	30	104	0	60	45562
2026-01-17 00:21:30.22	157.85	1.69	-46.9	-62.0	3.6	1.51e+00	0	30	104	0	60	45430
2026-01-17 00:21:31.23	157.86	1.76	-46.9	-62.0	3.6	1.51e+00	0	30	104	0	60	45322
2026-01-17 00:21:32.24	157.87	1.82	-46.9	-62.0	3.6	1.51e+00	0	30	104	0	60	45326
2026-01-17 00:21:33.25	157.87	1.89	-46.9	-61.9	3.6	1.51e+00	0	30	104	0	60	45163
2026-01-17 00:21:34.26	157.88	1.95	-46.9	-61.9	3.6	1.51e+00	0	30	104	0	60	45026
2026-01-17 00:21:35.26	157.88	2.02	-46.9	-62.0	3.6	1.51e+00	0	30	104	0	60	45419
2026-01-17 00:21:36.27	157.89	2.08	-46.9	-61.9	3.6	1.51e+00	0	30	104	0	60	45121
2026-01-17 00:21:37.28	157.89	2.15	-46.9	-61.9	3.6	1.51e+00	0	30	104	0	60	44826
2026-01-17 00:21:38.29	157.90	2.21	-46.9	-61.8	3.6	1.51e+00	0	30	104	0	60	44518
2026-01-17 00:21:39.30	157.91	2.28	-46.8	-61.8	3.6	1.51e+00	0	30	104	0	60	44461
2026-01-17 00:21:40.30	157.91	2.34	-46.9	-61.8	3.6	1.51e+00	0	30	104	0	60	44331
2026-01-17 00:21:41.31	157.92	2.41	-46.8	-61.5	3.6	1.51e+00	0	30	104	0	60	42794
2026-01-17 00:21:42.32	157.92	2.47	-46.8	-61.4	3.6	1.51e+00	0	30	104	0	60	42524
2026-01-17 00:21:43.32	157.93	2.54	-46.8	-61.3	3.6	1.51e+00	0	30	104	0	60	42179
2026-01-17 00:21:44.33	157.93	2.61	-46.8	-61.2	3.6	1.51e+00	0	30	104	0	60	41580
2026-01-17 00:21:45.34	157.94	2.67	-46.8	-61.3	3.6	1.51e+00	0	30	104	0	60	41876
2026-01-17 00:21:46.35	157.95	2.74	-46.8	-61.3	3.6	1.51e+00	0	30	104	0	60	42190
2026-01-17 00:21:47.36	157.95	2.81	-46.8	-61.4	3.5	1.51e+00	0	30	104	0	60	42428
2026-01-17 00:21:48.37	157.96	2.87	-46.8	-61.3	3.6	1.51e+00	0	30	104	0	60	41770
2026-01-17 00:21:49.38	157.96	2.94	-46.8	-60.4	3.6	1.51e+00	0	30	104	0	60	37918
2026-01-17 00:21:50.39	157.97	3.01	-46.7	-58.6	3.7	1.50e+00	0	30	104	0	60	30912
2026-01-17 00:21:51.40	157.98	3.07	-46.5	-56.2	5.0	8.43e-01	82	30	0	0	60	23428
2026-01-17 00:21:52.40	157.98	3.14	-46.1	-53.0	7.2	2.54e-01	92	30	0	1048576	60	16056
2026-01-17 00:21:53.41	157.99	3.21	-45.7	-51.4	8.9	7.07e-02	0	30	0	3145728	60	13415
2026-01-17 00:21:54.42	157.99	3.28	-45.1	-49.9	10.7	6.91e-03	92	30	0	5242880	60	11270
2026-01-17 00:21:55.43	158.00	3.34	-44.5	-48.3	12.4	4.48e-04	0	30	0	6291456	60	9437
2026-01-17 00:21:56.44	158.01	3.41	-44.0	-47.4	13.5	9.53e-05	92	30	0	8388608	60	8487
2026-01-17 00:21:57.44	158.01	3.48	-43.5	-46.4	14.4	7.00e-07	92	30	0	10485760	60	7555
2026-01-17 00:21:58.45	158.02	3.55	-43.4	-46.4	14.5	0.00e+00	67	30	0	12582912	60	7570
2026-01-17 00:21:59.46	158.02	3.62	-43.3	-46.2	14.7	0.00e+00	92	30	0	14680064	60	7363
2026-01-17 00:22:00.47	158.03	3.69	-43.4	-46.3	14.6	0.00e+00	0	30	0	15728640	60	7502
2026-01-17 00:22:01.48	158.04	3.76	-43.4	-46.3	14.6	2.20e-06	92	30	0	17825792	60	7486
2026-01-17 00:22:02.49	158.04	3.82	-44.2	-47.7	12.6	7.00e-07	0	30	0	19922944	60	8783
2026-01-17 00:22:03.50	158.05	3.89	-44.2	-47.3	14.5	3.89e-01	92	30	0	22020096	60	8406
2026-01-17 00:22:04.51	158.05	3.96	-43.2	-45.9	14.8	7.60e-06	11	30	0	24117248	60	7141
2026-01-17 00:22:05.52	158.06	4.03	-45.8	-51.2	10.2	5.85e-01	92	30	0	25165824	60	13166
2026-01-17 00:22:06.53	158.07	4.10	-42.9	-45.3	15.1	1.36e-02	92	30	0	27262976	60	6635
2026-01-17 00:22:07.53	158.07	4.17	-46.6	-57.0	4.9	1.51e+00	0	30	104	28311552	60	25637
2026-01-17 00:22:08.54	158.08	4.24	-42.8	-45.4	15.1	5.73e-01	81	30	104	28311552	60	6700
2026-01-17 00:22:09.55	158.08	4.31	-43.2	-45.9	15.3	0.00e+00	0	30	0	29360128	60	7137
2026-01-17 00:22:10.56	158.09	4.38	-43.1	-45.6	15.5	0.00e+00	92	30	0	31457280	60	6909
2026-01-17 00:22:11.57	158.10	4.45	-42.8	-45.3	15.8	0.00e+00	0	30	0	32505856	58	7424
2026-01-17 00:22:12.58	158.10	4.53	-42.7	-45.1	16.1	0.00e+00	92	30	0	34603008	58	7268
2026-01-17 00:22:13.59	158.11	4.60	-42.0	-44.1	17.0	0.00e+00	92	30	0	36700160	58	6479
2026-01-17 00:22:14.60	158.11	4.67	-42.3	-44.5	16.7	0.00e+00	0	30	0	38797312	58	6796
2026-01-17 00:22:15.61	158.12	4.74	-42.3	-44.5	16.7	0.00e+00	57	30	0	40894464	58	6771
2026-01-17 00:22:16.61	158.13	4.81	-42.3	-44.4	16.8	0.00e+00	0	30	0	42991616	58	6712
2026-01-17 00:22:17.62	158.13	4.88	-42.2	-44.3	16.7	0.00e+00	92	30	0	44040192	58	6650
2026-01-17 00:22:18.63	158.14	4.96	-41.9	-43.9	17.1	0.00e+00	0	30	0	46137344	58	6365
2026-01-17 00:22:19.64	158.15	5.03	-42.1	-44.1	17.2	0.00e+00	92	30	0	48234496	58	6510
2026-01-17 00:22:20.65	158.15	5.10	-42.3	-44.4	16.7	0.00e+00	92	30	0	50331648	58	6722
2026-01-17 00:22:21.66	158.16	5.17	-42.3	-44.4	16.8	0.00e+00	53	30	0	51380224	58	6715
2026-01-17 00:22:22.67	158.16	5.25	-42.3	-44.5	16.7	0.00e+00	89	30	0	53477376	58	6802
2026-01-17 00:22:23.68	158.17	5.32	-42.5	-44.7	16.8	0.00e+00	0	30	0	55574528	58	6978
2026-01-17 00:22:24.69	158.18	5.39	-42.3	-44.4	16.6	0.00e+00	92	30	0	57671680	58	6754
2026-01-17 00:22:25.69	158.18	5.47	-42.5	-44.8	16.6	0.00e+00	0	30	0	59768832	58	7037
2026-01-17 00:22:26.70	158.19	5.54	-42.0	-44.0	17.1	0.00e+00	92	30	0	60817408	58	6442
2026-01-17 00:22:27.71	158.20	5.61	-42.1	-44.2	16.9	0.00e+00	92	30	0	62914560	58	6557
2026-01-17 00:22:28.72	158.20	5.69	-42.2	-44.3	16.9	0.00e+00	92	30	0	65011712	58	6646
2026-01-17 00:22:29.73	158.21	5.76	-41.8	-43.8	17.4	0.00e+00	90	30	0	67108864	58	6272
2026-01-17 00:22:30.73	158.22	5.84	-41.9	-43.8	17.4	0.00e+00	0	30	0	69206016	58	6312
2026-01-17 00:22:31.74	158.22	5.91	-41.8	-43.7	17.7	0.00e+00	91	30	0	70254592	56	6962
2026-01-17 00:22:32.75	158.23	5.99	-41.9	-43.8	17.4	0.00e+00	0	30	0	72351744	56	7087
2026-01-17 00:22:33.76	158.24	6.06	-41.8	-43.7	17.6	0.00e+00	91	30	0	74448896	56	6933
2026-01-17 00:22:34.77	158.24	6.14	-41.5	-43.3	18.0	0.00e+00	92	30	0	76546048	56	6645
2026-01-17 00:22:35.78	158.25	6.21	-41.7	-43.5	17.8	0.00e+00	84	30	0	78643200	56	6790
2026-01-17 00:22:36.79	158.26	6.29	-41.6	-43.3	17.9	0.00e+00	91	30	0	80740352	56	6681
2026-01-17 00:22:37.80	158.26	6.36	-41.5	-43.3	18.1	0.00e+00	10	30	0	81788928	56	6637
2026-01-17 00:22:38.81	158.27	6.44	-41.3	-43.0	18.3	0.00e+00	92	30	0	83886080	56	6393
2026-01-17 00:22:39.82	158.28	6.52	-41.2	-42.9	18.4	0.00e+00	0	30	0	85983232	56	6323
2026-01-17 00:22:40.83	158.28	6.59	-41.0	-42.5	18.6	0.00e+00	91	30	0	88080384	56	6097
2026-01-17 00:22:41.84	158.29	6.67	-41.2	-42.8	18.5	0.00e+00	92	30	0	90177536	56	6282
2026-01-17 00:22:42.85	158.30	6.75	-41.2	-42.8	18.5	0.00e+00	92	30	0	91226112	56	6282
2026-01-17 00:22:43.85	158.30	6.83	-41.1	-42.8	18.5	0.00e+00	90	30	0	93323264	56	6263
2026-01-17 00:22:44.86	158.31	6.90	-41.5	-43.2	18.4	0.00e+00	0	30	0	95420416	56	6575
2026-01-17 00:22:45.87	158.32	6.98	-41.7	-43.4	18.1	0.00e+00	90	30	0	97517568	56	6764
2026-01-17 00:22:46.88	158.32	7.06	-41.5	-43.2	18.2	0.00e+00	0	30	0	99614720	56	6592
2026-01-17 00:22:47.89	158.33	7.14	-41.2	-42.8	18.5	0.00e+00	93	30	0	100663296	56	6301
2026-01-17 00:22:48.90	158.34	7.22	-41.4	-43.1	18.2	0.00e+00	24	30	0	102760448	56	6472
2026-01-17 00:22:49.91	158.34	7.30	-41.4	-43.2	18.2	0.00e+00	90	30	0	104857600	56	6558
2026-01-17 00:22:50.92	158.35	7.37	-41.4	-43.1	18.3	0.00e+00	91	30	0	106954752	56	6494
2026-01-17 00:22:51.93	158.36	7.45	-41.6	-43.4	18.1	0.00e+00	0	30	0	109051904	56	6707
2026-01-17 00:22:52.93	158.36	7.53	-41.5	-43.2	18.2	0.00e+00	91	30	0	110100480	56	6591
2026-01-17 00:22:53.94	158.37	7.61	-41.5	-43.3	18.2	0.00e+00	0	30	0	112197632	56	6631
2026-01-17 00:22:54.96	158.38	7.69	-41.5	-43.3	18.1	0.00e+00	91	30	0	114294784	56	6621
2026-01-17 00:22:55.96	158.38	7.77	-41.2	-42.8	18.6	0.00e+00	22	30	0	116391936	56	6297
2026-01-17 00:22:56.97	158.39	7.85	-41.3	-42.9	18.6	0.00e+00	91	30	0	118489088	56	6389
2026-01-17 00:22:57.98	158.40	7.94	-41.3	-42.9	18.5	0.00e+00	90	30	0	119537664	56	6353
2026-01-17 00:22:59.00	158.40	8.02	-41.3	-42.9	18.5	0.00e+00	56	30	0	121634816	56	6373
2026-01-17 00:23:00.00	158.41	8.10	-40.9	-42.5	19.0	0.00e+00	91	30	0	123731968	56	6058
2026-01-17 00:23:01.01	158.42	8.18	-41.0	-42.6	18.9	0.00e+00	0	30	0	125829120	56	6151
2026-01-17 00:23:02.02	158.43	8.26	-40.9	-42.5	19.0	0.00e+00	91	30	0	127926272	56	6041
2026-01-17 00:23:03.03	158.43	8.34	-41.1	-42.6	18.9	0.00e+00	0	30	0	128974848	56	6167
2026-01-17 00:23:04.04	158.44	8.43	-41.1	-42.6	19.0	0.00e+00	92	30	0	131072000	56	6143
2026-01-17 00:23:05.05	158.45	8.51	-40.7	-42.1	19.2	0.00e+00	24	30	0	133169152	54	6527
2026-01-17 00:23:06.05	158.45	8.59	-40.8	-42.3	19.1	0.00e+00	35	30	0	135266304	54	6640
2026-01-17 00:23:07.06	158.46	8.68	-40.7	-42.2	19.3	0.00e+00	92	30	0	137363456	54	6541
2026-01-17 00:23:08.07	158.47	8.76	-40.7	-42.2	19.2	0.00e+00	0	30	0	139460608	54	6585
2026-01-17 00:23:09.08	158.48	8.84	-40.7	-42.1	19.3	0.00e+00	52	30	0	140509184	54	6519
2026-01-17 00:23:10.09	158.48	8.93	-40.8	-42.3	19.1	0.00e+00	0	30	0	142606336	54	6663
2026-01-17 00:23:11.10	158.49	9.01	-41.0	-42.6	19.1	0.00e+00	92	30	0	144703488	54	6892
2026-01-17 00:23:12.11	158.50	9.10	-40.6	-42.1	19.1	0.00e+00	0	30	0	146800640	54	6510
2026-01-17 00:23:13.12	158.50	9.18	-40.8	-42.3	19.1	0.00e+00	91	30	0	148897792	54	6671
2026-01-17 00:23:14.13	158.51	9.27	-40.8	-42.3	19.1	0.00e+00	92	30	0	149946368	54	6684
2026-01-17 00:23:15.13	158.52	9.35	-40.9	-42.5	19.0	0.00e+00	0	30	0	152043520	54	6811
2026-01-17 00:23:16.15	158.53	9.44	-41.0	-42.6	18.8	0.00e+00	64	30	0	154140672	54	6887
2026-01-17 00:23:17.15	158.53	9.52	-40.8	-42.3	19.3	0.00e+00	0	30	0	156237824	54	6635
2026-01-17 00:23:18.16	158.54	9.61	-40.8	-42.3	19.2	0.00e+00	91	30	0	158334976	54	6680
2026-01-17 00:23:19.17	158.55	9.70	-40.8	-42.3	19.2	0.00e+00	21	30	0	159383552	54	6682
2026-01-17 00:23:20.18	158.56	9.78	-40.7	-42.3	19.3	0.00e+00	91	30	0	161480704	54	6619
2026-01-17 00:23:21.19	158.56	9.87	-40.6	-42.1	19.4	0.00e+00	85	30	0	163577856	54	6532
2026-01-17 00:23:22.20	158.57	9.96	-40.5	-41.9	19.6	0.00e+00	24	30	0	165675008	54	6368
2026-01-17 00:23:23.21	158.58	10.05	-40.6	-42.0	19.5	0.00e+00	89	30	0	167772160	54	6433
2026-01-17 00:23:24.22	158.59	10.14	-40.5	-41.9	19.6	0.00e+00	0	30	0	168820736	54	6357
2026-01-17 00:23:25.23	158.59	10.23	-40.3	-41.7	19.9	0.00e+00	92	30	0	170917888	54	6209
2026-01-17 00:23:26.24	158.60	10.31	-40.3	-41.7	19.9	0.00e+00	0	30	0	173015040	54	6219
2026-01-17 00:23:27.25	158.61	10.40	-40.2	-41.5	19.9	0.00e+00	92	30	0	175112192	54	6093
2026-01-17 00:23:28.26	158.62	10.49	-40.1	-41.4	20.0	0.00e+00	92	30	0	177209344	54	6011
2026-01-17 00:23:29.26	158.63	10.58	-40.1	-41.5	19.9	0.00e+00	0	30	0	178257920	54	6043
2026-01-17 00:23:30.28	158.63	10.67	-40.1	-41.4	20.0	0.00e+00	92	30	0	180355072	54	6021
2026-01-17 00:23:31.28	158.64	10.76	-40.0	-41.3	20.1	0.00e+00	0	30	0	182452224	54	5959
2026-01-17 00:23:32.29	158.65	10.86	-40.1	-41.5	20.0	0.00e+00	92	30	0	184549376	54	6059
2026-01-17 00:23:33.30	158.66	10.95	-40.1	-41.4	20.0	0.00e+00	0	30	0	186646528	54	6028
2026-01-17 00:23:34.31	158.66	11.04	-39.9	-41.2	20.3	0.00e+00	92	30	0	187695104	54	5854
2026-01-17 00:23:35.32	158.67	11.13	-39.8	-41.1	20.4	0.00e+00	92	30	0	189792256	52	6494
2026-01-17 00:23:36.33	158.68	11.22	-39.7	-41.0	20.6	0.00e+00	5	30	0	191889408	52	6416
2026-01-17 00:23:37.34	158.69	11.32	-39.7	-40.9	20.5	0.00e+00	92	30	0	193986560	52	6380
2026-01-17 00:23:38.35	158.70	11.41	-39.6	-40.9	20.6	0.00e+00	0	30	0	196083712	52	6340
2026-01-17 00:23:39.35	158.70	11.50	-39.6	-40.9	20.5	0.00e+00	92	30	0	197132288	52	6360
2026-01-17 00:23:40.36	158.71	11.60	-39.6	-40.8	20.6	0.00e+00	0	30	0	199229440	52	6300
2026-01-17 00:23:41.36	158.72	11.69	-39.5	-40.7	20.7	0.00e+00	91	30	0	201326592	52	6237
2026-01-17 00:23:42.38	158.73	11.78	-39.2	-40.5	21.0	0.00e+00	22	30	0	203423744	52	6041
2026-01-17 00:23:43.38	158.74	11.88	-39.5	-40.7	20.6	0.00e+00	90	30	0	205520896	52	6238
2026-01-17 00:23:44.39	158.74	11.97	-39.3	-40.5	20.9	0.00e+00	91	30	0	206569472	52	6097
2026-01-17 00:23:45.40	158.75	12.07	-39.3	-40.5	21.0	0.00e+00	0	30	0	208666624	52	6055
2026-01-17 00:23:46.41	158.76	12.17	-39.3	-40.4	20.9	0.00e+00	60	30	0	210763776	52	6030
2026-01-17 00:23:47.42	158.77	12.26	-39.1	-40.3	21.1	0.00e+00	0	30	0	212860928	52	5927
2026-01-17 00:23:48.43	158.78	12.36	-39.1	-40.3	21.2	0.00e+00	92	30	0	214958080	52	5920
2026-01-17 00:23:49.44	158.79	12.46	-39.3	-40.5	21.0	0.00e+00	27	30	0	216006656	52	6040
2026-01-17 00:23:50.45	158.79	12.55	-39.0	-40.2	21.1	0.00e+00	91	30	0	218103808	52	5864
2026-01-17 00:23:51.46	158.80	12.65	-39.0	-40.2	21.1	0.00e+00	92	30	0	220200960	52	5875
2026-01-17 00:23:52.47	158.81	12.75	-39.1	-40.3	21.1	0.00e+00	0	30	0	222298112	52	5915
2026-01-17 00:23:53.48	158.82	12.85	-39.2	-40.4	21.0	0.00e+00	90	30	0	224395264	52	5993
2026-01-17 00:23:54.49	158.83	12.95	-39.4	-40.6	20.9	0.00e+00	0	30	0	225443840	52	6143
2026-01-17 00:23:55.50	158.84	13.05	-39.1	-40.3	21.1	0.00e+00	90	30	0	227540992	52	5914
2026-01-17 00:23:56.51	158.84	13.15	-38.8	-39.9	21.4	0.00e+00	20	30	0	229638144	52	5682
2026-01-17 00:23:57.52	158.85	13.25	-38.9	-40.1	21.3	0.00e+00	92	30	0	231735296	50	6484
2026-01-17 00:23:58.53	158.86	13.35	-38.6	-39.7	21.7	0.00e+00	92	30	0	233832448	50	6186
2026-01-17 00:23:59.53	158.87	13.45	-38.5	-39.6	21.7	0.00e+00	0	30	0	235929600	50	6134
2026-01-17 00:24:00.55	158.88	13.55	-38.5	-39.6	21.7	0.00e+00	92	30	0	236978176	50	6121
2026-01-17 00:24:01.55	158.89	13.65	-38.3	-39.4	21.8	0.00e+00	0	30	0	239075328	50	6007
2026-01-17 00:24:02.56	158.90	13.76	-38.4	-39.5	21.8	0.00e+00	92	30	0	241172480	50	6083
2026-01-17 00:24:03.57	158.91	13.86	-38.2	-39.3	21.9	0.00e+00	0	30	0	243269632	50	5933
2026-01-17 00:24:04.58	158.91	13.96	-38.1	-39.2	22.1	0.00e+00	90	30	0	245366784	50	5835
2026-01-17 00:24:05.59	158.92	14.07	-38.2	-39.2	22.1	0.00e+00	92	30	0	246415360	50	5879
2026-01-17 00:24:06.59	158.93	14.17	-38.1	-39.1	22.2	0.00e+00	0	30	0	248512512	50	5795
2026-01-17 00:24:07.60	158.94	14.27	-38.0	-39.0	22.1	0.00e+00	91	30	0	250609664	50	5726
2026-01-17 00:24:08.61	158.95	14.38	-38.0	-39.0	22.2	0.00e+00	0	30	0	252706816	50	5750
2026-01-17 00:24:09.62	158.96	14.48	-37.8	-38.8	22.3	0.00e+00	92	30	0	254803968	48	6315
2026-01-17 00:24:10.62	158.97	14.59	-37.9	-39.0	22.3	0.00e+00	0	30	0	255852544	48	6399
2026-01-17 00:24:11.63	158.98	14.70	-37.7	-38.7	22.5	0.00e+00	92	30	0	257949696	48	6199
2026-01-17 00:24:12.64	158.99	14.80	-37.7	-38.6	22.5	0.00e+00	90	30	0	260046848	48	6173
2026-01-17 00:24:13.65	159.00	14.91	-37.6	-38.6	22.6	0.00e+00	91	30	0	262144000	48	6143
2026-01-17 00:24:14.66	159.01	15.02	-37.5	-38.4	22.7	0.00e+00	92	30	0	264241152	48	6022
2026-01-17 00:24:15.67	159.01	15.13	-37.5	-38.5	22.7	0.00e+00	0	30	0	265289728	48	6068
2026-01-17 00:24:16.68	159.02	15.24	-37.4	-38.4	22.7	0.00e+00	92	30	0	267386880	48	5971
2026-01-17 00:24:17.69	159.03	15.35	-37.3	-38.2	22.9	0.00e+00	0	30	0	269484032	48	5888
2026-01-17 00:24:18.70	159.04	15.46	-37.5	-38.5	22.6	0.00e+00	90	30	0	271581184	48	6052
2026-01-17 00:24:19.71	159.05	15.57	-37.5	-38.4	22.7	0.00e+00	23	30	0	273678336	48	6026
2026-01-17 00:24:20.71	159.06	15.68	-37.2	-38.1	22.9	0.00e+00	91	30	0	274726912	48	5799
2026-01-17 00:24:21.73	159.07	15.79	-37.3	-38.2	22.9	0.00e+00	91	30	0	276824064	48	5885
2026-01-17 00:24:22.73	159.08	15.90	-37.3	-38.3	22.8	0.00e+00	0	30	0	278921216	48	5927
2026-01-17 00:24:23.75	159.09	16.01	-37.2	-38.2	22.9	0.00e+00	69	30	0	281018368	48	5853
2026-01-17 00:24:24.75	159.10	16.12	-37.1	-38.1	23.0	0.00e+00	0	30	0	283115520	48	5775
2026-01-17 00:24:25.76	159.11	16.24	-37.4	-38.3	22.9	0.00e+00	92	30	0	284164096	48	5955
2026-01-17 00:24:26.77	159.12	16.35	-37.6	-38.6	22.6	0.00e+00	0	30	0	286261248	48	6151
2026-01-17 00:24:27.78	159.13	16.47	-37.4	-38.3	22.8	0.00e+00	92	30	0	288358400	48	5947
2026-01-17 00:24:28.79	159.14	16.58	-37.1	-38.0	23.0	0.00e+00	90	30	0	290455552	48	5752
2026-01-17 00:24:29.80	159.15	16.70	-37.0	-38.0	22.7	0.00e+00	0	30	0	292552704	48	5702
2026-01-17 00:24:30.81	159.16	16.81	-37.0	-37.9	23.2	0.00e+00	92	30	0	293601280	48	5666
2026-01-17 00:24:31.82	159.17	16.93	-36.9	-37.9	23.0	0.00e+00	0	30	0	295698432	48	5638
2026-01-17 00:24:32.83	159.18	17.05	-36.9	-37.8	23.2	0.00e+00	92	30	0	297795584	48	5596
2026-01-17 00:24:33.84	159.19	17.17	-36.8	-37.7	23.2	0.00e+00	0	30	0	299892736	48	5554
2026-01-17 00:24:34.85	159.20	17.28	-37.0	-37.9	23.1	0.00e+00	92	30	0	301989888	48	5687
2026-01-17 00:24:35.86	159.21	17.40	-36.9	-37.8	23.2	0.00e+00	90	30	0	303038464	48	5617
2026-01-17 00:24:36.87	159.22	17.52	-36.7	-37.7	23.3	0.00e+00	0	30	0	305135616	48	5504
2026-01-17 00:24:37.88	159.23	17.64	-36.8	-37.7	23.4	0.00e+00	92	30	0	307232768	46	6214
2026-01-17 00:24:38.89	159.24	17.76	-36.9	-37.8	23.3	0.00e+00	0	30	0	309329920	46	6317
2026-01-17 00:24:39.89	159.25	17.88	-36.8	-37.7	23.3	0.00e+00	92	30	0	311427072	46	6207
2026-01-17 00:24:40.90	159.26	18.01	-36.9	-37.8	23.3	0.00e+00	0	30	0	312475648	46	6283
2026-01-17 00:24:41.91	159.27	18.13	-36.8	-37.7	23.3	0.00e+00	92	30	0	314572800	46	6240
2026-01-17 00:24:42.92	159.28	18.25	-36.9	-37.8	23.4	0.00e+00	92	30	0	316669952	46	6314
2026-01-17 00:24:43.93	159.29	18.38	-36.9	-37.8	23.3	0.00e+00	5	30	0	318767104	46	6289
2026-01-17 00:24:44.94	159.31	18.50	-36.7	-37.7	23.5	0.00e+00	92	30	0	320864256	46	6177
2026-01-17 00:24:45.94	159.32	18.63	-36.5	-37.4	23.7	0.00e+00	0	30	0	321912832	46	5973
2026-01-17 00:24:46.95	159.33	18.75	-36.7	-37.6	23.4	0.00e+00	72	30	0	324009984	46	6132
2026-01-17 00:24:47.96	159.34	18.88	-36.6	-37.5	23.5	0.00e+00	0	30	0	326107136	46	6055
2026-01-17 00:24:48.97	159.35	19.00	-36.6	-37.5	23.5	0.00e+00	92	30	0	328204288	46	6091
2026-01-17 00:24:49.98	159.36	19.13	-36.6	-37.6	23.5	0.00e+00	27	30	0	330301440	46	6107
2026-01-17 00:24:50.98	159.37	19.26	-36.7	-37.7	23.4	0.00e+00	90	30	0	332398592	46	6177
2026-01-17 00:24:51.99	159.38	19.39	-36.9	-37.8	23.3	0.00e+00	90	30	0	333447168	46	6293
2026-01-17 00:24:53.00	159.39	19.52	-36.8	-37.7	23.4	0.00e+00	0	30	0	335544320	46	6197
2026-01-17 00:24:54.01	159.41	19.65	-36.9	-37.8	23.2	0.00e+00	85	30	0	337641472	46	6273
2026-01-17 00:24:55.02	159.42	19.78	-37.0	-37.9	23.3	0.00e+00	0	30	0	339738624	46	6361
2026-01-17 00:24:56.02	159.43	19.91	-37.0	-37.9	23.1	0.00e+00	92	30	0	341835776	46	6359
2026-01-17 00:24:57.03	159.44	20.04	-37.1	-38.1	23.2	0.00e+00	29	30	0	342884352	46	6468
2026-01-17 00:24:58.04	159.45	20.18	-37.0	-38.0	23.2	0.00e+00	91	30	0	344981504	46	6397
2026-01-17 00:24:59.05	159.46	20.31	-37.0	-37.9	23.2	0.00e+00	91	30	0	347078656	46	6362
2026-01-17 00:25:00.06	159.47	20.44	-37.0	-38.0	23.2	0.00e+00	0	30	0	349175808	46	6428
2026-01-17 00:25:01.07	159.49	20.58	-37.1	-38.1	23.1	0.00e+00	92	30	0	351272960	46	6502
2026-01-17 00:25:02.08	159.50	20.72	-37.0	-37.9	23.3	0.00e+00	0	30	0	352321536	46	6355
2026-01-17 00:25:03.09	159.51	20.85	-36.9	-37.8	23.3	0.00e+00	92	30	0	354418688	46	6277
2026-01-17 00:25:04.10	159.52	20.99	-36.9	-37.8	23.2	0.00e+00	0	30	0	356515840	46	6297
2026-01-17 00:25:05.11	159.53	21.13	-37.0	-38.0	23.2	0.00e+00	90	30	0	358612992	46	6399
2026-01-17 00:25:06.11	159.55	21.27	-37.0	-37.9	23.2	0.00e+00	92	30	0	360710144	46	6368
2026-01-17 00:25:07.12	159.56	21.41	-37.0	-38.0	23.2	0.00e+00	0	30	0	361758720	46	6411
2026-01-17 00:25:08.13	159.57	21.55	-37.1	-38.1	23.2	0.00e+00	89	30	0	363855872	46	6468
2026-01-17 00:25:09.14	159.58	21.69	-36.9	-37.8	23.4	0.00e+00	0	30	0	365953024	46	6296
2026-01-17 00:25:10.15	159.60	21.83	-37.1	-38.0	23.2	0.00e+00	92	30	0	368050176	46	6460
2026-01-17 00:25:11.16	159.61	21.97	-37.3	-38.3	23.1	0.00e+00	0	30	0	370147328	46	6623
2026-01-17 00:25:12.16	159.62	22.12	-37.4	-38.3	22.9	0.00e+00	92	30	0	371195904	46	6690
2026-01-17 00:25:13.17	159.63	22.26	-37.4	-38.3	23.0	0.00e+00	92	30	0	373293056	46	6680
2026-01-17 00:25:14.18	159.65	22.41	-37.1	-38.1	23.2	0.00e+00	0	30	0	375390208	46	6489
2026-01-17 00:25:15.19	159.66	22.55	-37.4	-38.3	23.0	0.00e+00	92	30	0	377487360	46	6682
2026-01-17 00:25:16.20	159.67	22.70	-37.3	-38.3	23.0	0.00e+00	24	30	0	379584512	46	6639
2026-01-17 00:25:17.21	159.69	22.85	-37.2	-38.1	23.1	0.00e+00	92	30	0	380633088	46	6538
2026-01-17 00:25:18.22	159.70	23.00	-37.4	-38.4	22.9	0.00e+00	0	30	0	382730240	46	6718
2026-01-17 00:25:19.23	159.71	23.15	-37.3	-38.3	22.9	0.00e+00	92	30	0	384827392	46	6642
2026-01-17 00:25:20.24	159.73	23.30	-37.1	-38.1	23.2	0.00e+00	90	30	0	386924544	46	6474
2026-01-17 00:25:21.25	159.74	23.45	-37.2	-38.1	23.2	0.00e+00	92	30	0	389021696	46	6510
2026-01-17 00:25:22.25	159.75	23.60	-37.1	-38.0	23.2	0.00e+00	92	30	0	390070272	46	6463
2026-01-17 00:25:23.26	159.77	23.75	-37.3	-38.2	23.2	0.00e+00	0	30	0	392167424	46	6608
2026-01-17 00:25:24.27	159.78	23.91	-37.3	-38.3	22.9	0.00e+00	92	30	0	394264576	46	6646
2026-01-17 00:25:25.28	159.80	24.06	-37.2	-38.1	23.2	0.00e+00	0	30	0	396361728	46	6504
2026-01-17 00:25:26.29	159.81	24.22	-37.4	-38.3	23.0	0.00e+00	92	30	0	398458880	46	6686
2026-01-17 00:25:27.30	159.82	24.37	-37.5	-38.4	22.9	0.00e+00	29	30	0	399507456	46	6763
2026-01-17 00:25:28.31	159.84	24.53	-37.3	-38.2	23.0	0.00e+00	92	30	0	401604608	46	6596
2026-01-17 00:25:29.32	159.85	24.69	-37.3	-38.2	23.0	0.00e+00	92	30	0	403701760	46	6572
2026-01-17 00:25:30.33	159.87	24.85	-37.3	-38.2	23.1	0.00e+00	0	30	0	405798912	46	6594
2026-01-17 00:25:31.34	159.88	25.01	-37.3	-38.2	23.0	0.00e+00	91	30	0	407896064	46	6604
2026-01-17 00:25:32.35	159.90	25.17	-37.3	-38.2	23.1	0.00e+00	0	30	0	408944640	46	6584
2026-01-17 00:25:33.36	159.91	25.34	-37.1	-38.1	23.2	0.00e+00	90	30	0	411041792	46	6472
2026-01-17 00:25:34.37	159.93	25.50	-37.1	-38.0	23.3	0.00e+00	27	30	0	413138944	46	6422
2026-01-17 00:25:35.38	159.94	25.67	-37.1	-38.0	23.4	0.00e+00	92	30	0	415236096	46	6422
2026-01-17 00:25:36.39	159.96	25.83	-36.9	-37.8	23.4	0.00e+00	91	30	0	417333248	46	6282
2026-01-17 00:25:37.39	159.97	26.00	-37.3	-38.2	23.2	0.00e+00	0	30	0	418381824	46	6583
2026-01-17 00:25:38.40	159.99	26.16	-37.6	-38.5	22.9	0.00e+00	91	30	0	420478976	48	6092
2026-01-17 00:25:39.41	160.00	26.33	-37.8	-38.8	22.8	0.00e+00	0	30	0	422576128	48	6252
2026-01-17 00:25:40.42	160.02	26.50	-37.8	-38.7	22.7	0.00e+00	92	30	0	424673280	48	6221
2026-01-17 00:25:41.43	160.03	26.67	-37.9	-38.9	22.7	0.00e+00	0	30	0	426770432	48	6327
2026-01-17 00:25:42.44	160.05	26.85	-37.5	-38.4	22.9	0.00e+00	90	30	0	428867584	48	6005
2026-01-17 00:25:43.45	160.07	27.02	-37.6	-38.5	22.9	0.00e+00	92	30	0	429916160	48	6049
2026-01-17 00:25:44.46	160.08	27.19	-37.5	-38.5	23.0	0.00e+00	0	30	0	432013312	48	6040
2026-01-17 00:25:45.47	160.10	27.37	-37.4	-38.3	23.0	0.00e+00	92	30	0	434110464	48	5963
2026-01-17 00:25:46.47	160.11	27.54	-37.6	-38.5	22.8	0.00e+00	0	29	0	436207616	48	6074
2026-01-17 00:25:47.48	160.13	27.72	-37.5	-38.4	23.0	0.00e+00	92	30	0	438304768	48	6000
2026-01-17 00:25:48.49	160.15	27.90	-37.6	-38.5	22.9	0.00e+00	0	30	0	439353344	48	6089
2026-01-17 00:25:49.50	160.16	28.08	-37.9	-38.9	22.6	0.00e+00	92	30	0	441450496	48	6328
2026-01-17 00:25:50.50	160.18	28.26	-38.0	-39.0	22.6	0.00e+00	19	30	0	443547648	48	6455
2026-01-17 00:25:51.51	160.20	28.44	-38.4	-39.4	22.1	0.00e+00	76	30	0	445644800	48	6754
2026-01-17 00:25:52.52	160.22	28.63	-38.7	-39.8	21.8	0.00e+00	90	30	0	447741952	50	6280
2026-01-17 00:25:53.53	160.23	28.81	-38.8	-39.9	21.8	0.00e+00	0	30	0	448790528	50	6375
2026-01-17 00:25:54.54	160.25	29.00	-39.3	-40.4	21.3	0.00e+00	90	30	0	450887680	50	6760
2026-01-17 00:25:55.55	160.27	29.18	-38.9	-40.0	21.6	0.00e+00	0	30	0	452984832	50	6427
2026-01-17 00:25:56.55	160.29	29.37	-39.0	-40.2	21.6	0.00e+00	92	30	0	455081984	50	6554
2026-01-17 00:25:57.56	160.31	29.56	-39.5	-40.7	21.2	0.00e+00	23	29	0	457179136	50	6962
2026-01-17 00:25:58.57	160.32	29.75	-38.8	-40.0	21.8	0.00e+00	92	30	0	458227712	50	6399
2026-01-17 00:25:59.58	160.34	29.94	-38.9	-40.0	21.9	0.00e+00	90	30	0	460324864	50	6400
2026-01-17 00:26:00.59	160.36	30.14	-38.9	-40.0	21.8	0.00e+00	0	30	0	462422016	50	6441
2026-01-17 00:26:01.60	160.38	30.33	-39.0	-40.1	21.7	0.00e+00	92	29	0	464519168	50	6521
2026-01-17 00:26:02.61	160.40	30.53	-38.7	-39.8	21.8	0.00e+00	0	29	0	466616320	50	6249
2026-01-17 00:26:03.62	160.42	30.73	-39.2	-40.3	21.3	0.00e+00	91	30	0	467664896	50	6692
2026-01-17 00:26:04.63	160.44	30.93	-39.1	-40.2	21.6	0.00e+00	25	29	0	469762048	50	6595
2026-01-17 00:26:05.64	160.46	31.13	-39.0	-40.2	21.6	0.00e+00	91	30	0	471859200	50	6549
2026-01-17 00:26:06.65	160.48	31.33	-39.3	-40.4	21.4	0.00e+00	91	29	0	473956352	50	6769
2026-01-17 00:26:07.66	160.50	31.53	-39.3	-40.4	21.4	0.00e+00	0	29	0	476053504	50	6734
2026-01-17 00:26:08.67	160.52	31.74	-39.1	-40.2	21.6	0.00e+00	88	30	0	477102080	50	6552
2026-01-17 00:26:09.68	160.54	31.94	-39.0	-40.1	21.7	0.00e+00	0	30	0	479199232	50	6528
2026-01-17 00:26:10.69	160.56	32.15	-38.5	-39.5	22.1	0.00e+00	90	30	0	481296384	50	6053
2026-01-17 00:26:11.69	160.58	32.36	-39.0	-40.1	21.7	0.00e+00	9	30	0	483393536	50	6465
2026-01-17 00:26:12.70	160.60	32.57	-38.8	-39.9	21.8	0.00e+00	91	30	0	485490688	50	6379
2026-01-17 00:26:13.71	160.62	32.78	-39.1	-40.2	21.4	0.00e+00	91	30	0	486539264	50	6596
2026-01-17 00:26:14.72	160.64	32.99	-39.3	-40.5	21.3	0.00e+00	0	29	0	488636416	50	6800
2026-01-17 00:26:15.73	160.67	33.21	-39.9	-41.1	20.8	0.00e+00	92	29	0	490733568	52	6539
2026-01-17 00:26:16.74	160.69	33.42	-39.9	-41.1	20.9	0.00e+00	0	30	0	492830720	52	6516
2026-01-17 00:26:17.74	160.71	33.64	-39.9	-41.1	21.0	0.00e+00	91	29	0	494927872	52	6538
2026-01-17 00:26:18.76	160.73	33.86	-39.4	-40.6	21.2	0.00e+00	0	30	0	495976448	52	6153
2026-01-17 00:26:19.76	160.76	34.08	-39.1	-40.3	21.6	0.00e+00	92	29	0	498073600	52	5910
2026-01-17 00:26:20.78	160.78	34.30	-39.0	-40.1	21.8	0.00e+00	92	30	0	500170752	52	5784
2026-01-17 00:26:21.78	160.80	34.53	-38.5	-39.6	22.0	0.00e+00	12	30	0	502267904	50	6106
2026-01-17 00:26:22.79	160.83	34.75	-38.3	-39.3	22.2	0.00e+00	92	30	0	504365056	50	5929
2026-01-17 00:26:23.80	160.85	34.98	-38.1	-39.1	22.6	0.00e+00	0	30	0	505413632	50	5768
2026-01-17 00:26:24.81	160.87	35.21	-38.0	-39.1	22.6	0.00e+00	92	30	0	507510784	50	5776
2026-01-17 00:26:25.82	160.90	35.44	-37.8	-38.8	22.7	0.00e+00	0	29	0	509607936	50	5574
2026-01-17 00:26:26.83	160.92	35.67	-37.4	-38.4	23.1	0.00e+00	92	29	0	511705088	48	5995
2026-01-17 00:26:27.84	160.95	35.91	-37.2	-38.1	23.3	0.00e+00	92	29	0	513802240	48	5804
2026-01-17 00:26:28.85	160.97	36.14	-36.9	-37.8	23.5	0.00e+00	92	29	0	514850816	46	6267
2026-01-17 00:26:29.85	161.00	36.38	-36.4	-37.3	23.9	0.00e+00	92	29	0	516947968	46	5900
2026-01-17 00:26:30.86	161.03	36.62	-36.1	-36.9	24.2	0.00e+00	0	29	0	519045120	46	5666
2026-01-17 00:26:31.87	161.05	36.86	-35.9	-36.8	24.4	0.00e+00	80	29	0	521142272	46	5577
2026-01-17 00:26:32.88	161.08	37.10	-35.8	-36.6	24.3	0.00e+00	0	29	0	523239424	46	5483
2026-01-17 00:26:33.89	161.11	37.35	-35.7	-36.5	24.4	0.00e+00	91	30	0	525336576	44	6039
2026-01-17 00:26:34.90	161.13	37.59	-35.9	-36.8	24.3	0.00e+00	0	29	0	526385152	44	6256
2026-01-17 00:26:35.91	161.16	37.84	-35.8	-36.6	24.3	0.00e+00	92	29	0	528482304	44	6140
2026-01-17 00:26:36.92	161.19	38.09	-35.6	-36.4	24.4	0.00e+00	92	29	0	530579456	44	6007
2026-01-17 00:26:37.93	161.22	38.34	-35.5	-36.3	24.7	0.00e+00	0	29	0	532676608	44	5900
2026-01-17 00:26:38.94	161.25	38.60	-35.3	-36.1	24.8	0.00e+00	54	29	0	534773760	44	5821
2026-01-17 00:26:39.94	161.28	38.85	-35.5	-36.3	24.5	0.00e+00	0	29	0	535822336	44	5926
2026-01-17 00:26:40.95	161.31	39.11	-35.6	-36.4	24.4	0.00e+00	90	29	0	537919488	44	6006
2026-01-17 00:26:41.96	161.34	39.37	-35.7	-36.6	24.4	0.00e+00	0	29	0	540016640	44	6107
2026-01-17 00:26:42.97	161.37	39.63	-36.2	-37.0	24.0	0.00e+00	92	30	0	542113792	44	6460
2026-01-17 00:26:43.98	161.40	39.89	-36.3	-37.2	23.8	0.00e+00	92	30	0	544210944	44	6553
2026-01-17 00:26:44.99	161.43	40.16	-36.4	-37.3	23.9	0.00e+00	0	30	0	545259520	44	6659
2026-01-17 00:26:46.00	161.46	40.43	-36.4	-37.3	23.9	0.00e+00	63	29	0	547356672	44	6645
2026-01-17 00:26:47.01	161.50	40.69	-36.4	-37.3	23.8	0.00e+00	0	29	0	549453824	44	6660
2026-01-17 00:26:48.02	161.53	40.97	-36.3	-37.1	23.9	0.00e+00	91	30	0	551550976	44	6537
2026-01-17 00:26:49.03	161.56	41.24	-37.1	-38.0	23.2	0.00e+00	0	30	0	553648128	46	6430
2026-01-17 00:26:50.04	161.60	41.52	-37.6	-38.6	22.8	0.00e+00	91	30	0	554696704	46	6906
2026-01-17 00:26:51.05	161.63	41.79	-37.3	-38.3	23.1	0.00e+00	36	30	0	556793856	46	6619
2026-01-17 00:26:52.05	161.66	42.07	-37.6	-38.6	22.9	0.00e+00	0	29	0	558891008	48	6112
2026-01-17 00:26:53.06	161.70	42.35	-37.8	-38.8	22.9	0.00e+00	5	29	0	560988160	48	6249
2026-01-17 00:26:54.07	161.74	42.64	-38.2	-39.3	22.4	0.00e+00	0	29	0	563085312	48	6630
2026-01-17 00:26:55.08	161.77	42.92	-38.0	-39.0	22.4	0.00e+00	62	29	0	564133888	48	6399
2026-01-17 00:26:56.09	161.81	43.21	-38.2	-39.2	22.2	0.00e+00	0	30	0	566231040	48	6573
2026-01-17 00:26:57.10	161.85	43.50	-37.9	-38.9	22.7	0.00e+00	92	29	0	568328192	48	6342
2026-01-17 00:26:58.11	161.89	43.80	-38.2	-39.2	22.4	0.00e+00	66	29	0	570425344	48	6610
2026-01-17 00:26:59.12	161.93	44.09	-38.6	-39.6	22.0	0.00e+00	0	29	0	572522496	48	6921
2026-01-17 00:27:00.13	161.97	44.39	-38.7	-39.8	21.8	0.00e+00	92	29	0	573571072	48	7013
2026-01-17 00:27:01.13	162.01	44.68	-39.4	-40.6	21.1	0.00e+00	0	29	0	575668224	50	6876
2026-01-17 00:27:02.14	162.05	44.99	-39.5	-40.7	20.9	0.00e+00	14	30	0	577765376	52	6231
2026-01-17 00:27:03.15	162.09	45.29	-39.9	-41.2	20.8	0.00e+00	0	29	0	579862528	52	6560
2026-01-17 00:27:04.16	162.13	45.60	-39.4	-40.7	21.1	0.00e+00	86	29	0	581959680	52	6185
2026-01-17 00:27:05.17	162.18	45.91	-39.7	-41.0	20.9	0.00e+00	55	30	0	583008256	52	6413
2026-01-17 00:27:06.17	162.22	46.21	-39.7	-41.0	20.9	0.00e+00	92	29	0	585105408	52	6437
2026-01-17 00:27:07.18	162.26	46.53	-39.7	-41.0	21.0	0.00e+00	92	30	0	587202560	52	6419
2026-01-17 00:27:08.19	162.31	46.84	-39.9	-41.2	21.0	0.00e+00	0	29	0	589299712	52	6564
2026-01-17 00:27:09.20	162.36	47.16	-39.4	-40.6	21.1	0.00e+00	92	29	0	591396864	52	6167
2026-01-17 00:27:10.21	162.40	47.48	-39.8	-41.0	21.0	0.00e+00	0	29	0	592445440	52	6455
2026-01-17 00:27:11.22	162.45	47.81	-39.9	-41.2	20.7	0.00e+00	92	29	0	594542592	52	6584
2026-01-17 00:27:12.22	162.50	48.13	-39.9	-41.2	20.7	0.00e+00	27	29	0	596639744	52	6543
2026-01-17 00:27:13.23	162.55	48.46	-39.8	-41.1	20.9	0.00e+00	92	29	0	598736896	52	6469
2026-01-17 00:27:14.24	162.60	48.79	-39.9	-41.2	20.9	0.00e+00	92	30	0	600834048	52	6564
2026-01-17 00:27:15.25	162.66	49.12	-39.4	-40.6	21.2	0.00e+00	0	29	0	601882624	52	6171
2026-01-17 00:27:16.26	162.71	49.45	-39.3	-40.4	21.6	0.00e+00	85	29	0	603979776	52	6006
2026-01-17 00:27:17.27	162.76	49.79	-39.1	-40.3	21.3	0.00e+00	0	29	0	606076928	52	5900
2026-01-17 00:27:18.28	162.82	50.13	-38.2	-39.2	22.4	0.00e+00	92	29	0	608174080	50	5871
2026-01-17 00:27:19.29	162.88	50.48	-37.6	-38.6	22.8	0.00e+00	4	29	0	610271232	50	5497
2026-01-17 00:27:20.30	162.94	50.82	-36.9	-37.8	23.4	0.00e+00	92	29	0	611319808	48	5625
2026-01-17 00:27:21.31	163.00	51.17	-36.7	-37.6	23.6	0.00e+00	92	29	0	613416960	46	6158
2026-01-17 00:27:22.31	163.06	51.52	-35.9	-36.7	24.1	0.00e+00	0	29	0	615514112	46	5546
2026-01-17 00:27:23.32	163.12	51.87	-35.2	-35.9	24.8	0.00e+00	92	29	0	617611264	44	5694
2026-01-17 00:27:24.33	163.18	52.22	-35.2	-35.9	24.8	0.00e+00	0	29	0	619708416	44	5677
2026-01-17 00:27:25.34	163.25	52.58	-35.5	-36.3	24.5	0.00e+00	92	29	0	621805568	44	5942
2026-01-17 00:27:26.35	163.31	52.94	-36.1	-37.0	24.0	0.00e+00	0	29	0	622854144	44	6395
2026-01-17 00:27:27.36	163.38	53.31	-36.5	-37.4	23.8	0.00e+00	92	29	0	624951296	44	6715
2026-01-17 00:27:28.36	163.45	53.67	-36.8	-37.7	23.7	0.00e+00	91	29	0	627048448	46	6214
2026-01-17 00:27:29.37	163.52	54.04	-36.5	-37.4	23.8	0.00e+00	24	29	0	629145600	46	6032
2026-01-17 00:27:30.38	163.60	54.41	-36.4	-37.3	23.9	0.00e+00	91	29	0	631242752	46	5941
2026-01-17 00:27:31.39	163.67	54.78	-36.2	-37.1	24.1	0.00e+00	0	29	0	632291328	46	5765
2026-01-17 00:27:32.40	163.75	55.16	-36.8	-37.7	23.7	0.00e+00	86	29	0	634388480	46	6216
2026-01-17 00:27:33.41	163.83	55.54	-36.0	-36.9	24.3	0.00e+00	0	29	0	636485632	46	5647
2026-01-17 00:27:34.41	163.91	55.92	-36.0	-36.8	24.2	0.00e+00	92	29	0	638582784	46	5626
2026-01-17 00:27:35.42	163.99	56.30	-35.7	-36.5	24.5	0.00e+00	91	29	0	640679936	44	6072
2026-01-17 00:27:36.43	164.07	56.69	-35.8	-36.7	24.6	0.00e+00	68	29	0	641728512	44	6175
2026-01-17 00:27:37.44	164.16	57.08	-35.8	-36.7	24.3	0.00e+00	92	29	0	643825664	44	6176
2026-01-17 00:27:38.45	164.25	57.47	-36.6	-37.6	23.4	0.00e+00	0	29	0	645922816	44	6852
2026-01-17 00:27:39.46	164.35	57.86	-37.0	-38.0	23.3	0.00e+00	80	29	0	648019968	46	6439
2026-01-17 00:27:40.47	164.44	58.26	-36.9	-37.9	23.5	0.00e+00	0	29	0	650117120	46	6351
2026-01-17 00:27:41.48	164.54	58.66	-36.8	-37.7	23.4	0.00e+00	91	29	0	651165696	46	6229
2026-01-17 00:27:42.49	164.64	59.06	-36.6	-37.5	23.8	0.00e+00	24	29	0	653262848	46	6095
2026-01-17 00:27:43.49	164.74	59.46	-36.2	-37.1	24.1	0.00e+00	91	29	0	655360000	46	5791
2026-01-17 00:27:44.50	164.85	59.87	-35.7	-36.5	24.4	0.00e+00	91	29	0	657457152	46	5434
2026-01-17 00:27:45.51	164.96	60.28	-35.5	-36.3	24.5	0.00e+00	0	29	0	659554304	44	5931
2026-01-17 00:27:46.52	165.07	60.70	-35.4	-36.2	24.8	0.00e+00	92	29	0	660602880	44	5843
2026-01-17 00:27:47.53	165.19	61.11	-35.4	-36.2	24.8	0.00e+00	0	29	0	662700032	44	5893
2026-01-17 00:27:48.53	165.31	61.52	-35.3	-36.1	24.7	0.00e+00	91	29	0	664797184	44	5785
2026-01-17 00:27:49.54	165.44	61.95	-35.0	-35.8	25.1	0.00e+00	0	29	0	666894336	44	5576
2026-01-17 00:27:50.55	165.57	62.37	-34.7	-35.4	25.1	0.00e+00	91	29	0	668991488	42	6025
2026-01-17 00:27:51.56	165.70	62.79	-35.1	-35.8	25.1	0.00e+00	91	29	0	670040064	42	6311
2026-01-17 00:27:52.57	165.84	63.22	-35.7	-36.5	24.4	0.00e+00	0	29	0	672137216	42	6838
2026-01-17 00:27:53.58	165.98	63.65	-35.7	-36.6	24.5	0.00e+00	92	29	0	674234368	44	6107
2026-01-17 00:27:54.59	166.13	64.09	-34.9	-35.7	25.1	0.00e+00	0	29	0	676331520	44	5542
2026-01-17 00:27:55.60	166.29	64.52	-34.8	-35.5	25.1	0.00e+00	91	29	0	678428672	42	6085
2026-01-17 00:27:56.61	166.45	64.96	-35.1	-35.9	24.9	0.00e+00	0	29	0	679477248	42	6352
2026-01-17 00:27:57.62	166.61	65.40	-35.5	-36.3	24.7	0.00e+00	91	29	0	681574400	42	6673
2026-01-17 00:27:58.63	166.79	65.84	-35.4	-36.2	24.7	0.00e+00	26	29	0	683671552	44	5832
2026-01-17 00:27:59.64	166.97	66.29	-35.4	-36.3	24.4	0.00e+00	0	29	0	685768704	44	5901
2026-01-17 00:28:00.65	167.16	66.73	-35.8	-36.7	24.4	0.00e+00	78	29	0	687865856	44	6185
2026-01-17 00:28:01.65	167.35	67.18	-36.3	-37.2	24.2	0.00e+00	0	29	0	688914432	44	6548
2026-01-17 00:28:02.66	167.55	67.63	-37.1	-38.0	23.5	0.00e+00	91	29	0	691011584	46	6396
2026-01-17 00:28:03.67	167.77	68.08	-38.2	-39.2	22.1	0.00e+00	0	29	0	693108736	48	6573
2026-01-17 00:28:04.68	167.99	68.54	-39.5	-40.7	20.8	0.00e+00	91	29	0	695205888	50	6999
2026-01-17 00:28:05.69	168.22	68.99	-40.2	-41.6	20.5	0.00e+00	39	29	0	697303040	52	6854
2026-01-17 00:28:06.70	168.47	69.45	-39.5	-40.7	21.2	0.00e+00	43	29	0	698351616	52	6196
2026-01-17 00:28:07.71	168.72	69.91	-39.4	-40.5	21.4	0.00e+00	88	29	0	700448768	52	6078
2026-01-17 00:28:08.72	168.99	70.38	-39.8	-41.0	21.1	0.00e+00	0	29	0	702545920	52	6397
2026-01-17 00:28:09.73	169.28	70.84	-39.8	-41.1	21.0	0.00e+00	72	29	0	704643072	52	6480
2026-01-17 00:28:10.74	169.57	71.31	-39.7	-40.9	21.2	0.00e+00	0	29	0	706740224	52	6359
2026-01-17 00:28:11.75	169.89	71.78	-39.1	-40.2	21.8	0.00e+00	92	29	0	707788800	52	5830
2026-01-17 00:28:12.76	170.22	72.25	-37.4	-38.3	23.2	0.00e+00	0	29	0	709885952	48	5939
2026-01-17 00:28:13.76	170.56	72.71	-35.7	-36.5	24.6	0.00e+00	92	29	0	711983104	46	5407
2026-01-17 00:28:14.77	170.93	73.18	-35.3	-36.1	24.7	0.00e+00	92	29	0	714080256	44	5774
2026-01-17 00:28:15.78	171.32	73.66	-35.9	-36.8	24.2	0.00e+00	0	29	0	716177408	44	6289
2026-01-17 00:28:16.79	171.74	74.13	-36.0	-36.8	24.5	0.00e+00	68	29	0	718274560	44	6275
2026-01-17 00:28:17.80	172.18	74.61	-35.6	-36.4	24.6	0.00e+00	0	29	0	719323136	44	5976
2026-01-17 00:28:18.81	172.65	75.09	-36.9	-37.8	23.6	0.00e+00	92	29	0	721420288	44	7031
2026-01-17 00:28:19.81	173.15	75.56	-39.0	-40.1	21.7	0.00e+00	9	29	0	723517440	48	7302
2026-01-17 00:28:20.83	173.70	76.04	-38.3	-39.3	22.7	0.00e+00	92	29	0	725614592	50	5911
2026-01-17 00:28:21.83	174.27	76.51	-37.1	-38.0	23.3	0.00e+00	92	29	0	727711744	48	5719
2026-01-17 00:28:22.84	174.89	76.99	-37.4	-38.3	23.2	0.00e+00	0	29	0	728760320	48	5946
2026-01-17 00:28:23.85	175.56	77.47	-38.3	-39.4	22.3	0.00e+00	90	29	0	730857472	48	6696
2026-01-17 00:28:24.85	176.28	77.94	-38.9	-40.0	21.8	0.00e+00	0	29	0	732954624	50	6435
2026-01-17 00:28:25.86	177.06	78.42	-39.7	-40.9	21.1	0.00e+00	92	29	0	735051776	50	7126
2026-01-17 00:28:26.87	177.92	78.90	-39.0	-40.0	22.0	0.00e+00	0	29	0	737148928	50	6410
2026-01-17 00:28:27.88	178.85	79.37	-38.0	-39.0	22.6	0.00e+00	92	29	0	738197504	50	5710
2026-01-17 00:28:28.89	179.87	79.85	-38.6	-39.6	22.1	0.00e+00	92	29	0	740294656	50	6172
2026-01-17 00:28:29.90	180.99	80.32	-38.5	-39.5	21.7	0.00e+00	0	29	0	742391808	50	6062
2026-01-17 00:28:30.91	182.23	80.78	-39.2	-40.3	21.5	0.00e+00	84	29	0	744488960	50	6679
2026-01-17 00:28:31.92	183.59	81.25	-40.3	-41.7	20.2	0.00e+00	0	29	0	746586112	52	6983
2026-01-17 00:28:32.92	185.10	81.70	-41.5	-43.2	18.8	0.00e+00	90	29	0	747634688	54	7375
2026-01-17 00:28:33.93	186.80	82.16	-40.9	-42.3	20.1	0.00e+00	0	29	0	749731840	56	5933
2026-01-17 00:28:34.94	188.71	82.61	-39.7	-40.9	21.1	0.00e+00	90	29	0	751828992	52	6365
2026-01-17 00:28:35.95	190.87	83.04	-38.6	-39.6	22.1	0.00e+00	30	29	0	753926144	50	6129
2026-01-17 00:28:36.96	193.32	83.47	-37.8	-38.7	23.2	0.00e+00	0	29	0	756023296	48	6238
2026-01-17 00:28:37.97	196.10	83.89	-37.4	-38.3	23.4	0.00e+00	92	29	0	757071872	48	5911
2026-01-17 00:28:38.98	199.29	84.29	-37.3	-38.1	23.5	0.00e+00	0	29	0	759169024	48	5817
2026-01-17 00:28:39.98	202.90	84.67	-37.1	-37.9	23.3	0.00e+00	90	29	0	761266176	48	5687
2026-01-17 00:28:40.99	207.09	85.02	-38.0	-38.9	22.9	0.00e+00	0	29	0	763363328	48	6389
2026-01-17 00:28:42.00	211.90	85.35	-37.0	-37.9	23.7	0.00e+00	92	29	0	765460480	48	5676
2026-01-17 00:28:43.01	217.39	85.64	-37.5	-38.4	23.1	0.00e+00	90	29	0	766509056	46	6758
2026-01-17 00:28:44.02	223.60	85.88	-38.8	-39.9	22.1	0.00e+00	90	29	0	768606208	48	7101
2026-01-17 00:28:45.03	230.49	86.07	-38.6	-39.7	22.2	0.00e+00	92	29	0	770703360	50	6180
2026-01-17 00:28:46.04	237.96	86.20	-38.6	-39.6	22.0	0.00e+00	0	29	0	772800512	50	6159
2026-01-17 00:28:47.04	245.74	86.26	-38.7	-39.7	22.1	0.00e+00	69	29	0	774897664	50	6241
2026-01-17 00:28:48.05	253.69	86.25	-37.0	-37.9	23.8	0.00e+00	0	29	0	775946240	48	5650
2026-01-17 00:28:49.06	261.45	86.16	-34.7	-35.4	25.2	0.00e+00	92	29	0	778043392	42	6024
2026-01-17 00:28:50.07	268.76	86.02	-35.0	-35.7	25.1	0.00e+00	0	29	0	780140544	42	6211
2026-01-17 00:28:51.08	275.44	85.81	-37.0	-37.9	23.6	0.00e+00	92	29	0	782237696	46	6359
2026-01-17 00:28:52.09	281.42	85.55	-38.4	-39.4	22.4	0.00e+00	92	29	0	784334848	48	6767
2026-01-17 00:28:53.09	286.64	85.25	-37.8	-38.8	22.8	0.00e+00	0	29	0	785383424	48	6254
2026-01-17 00:28:54.11	291.30	84.91	-37.7	-38.6	23.0	0.00e+00	5	29	0	787480576	48	6156
2026-01-17 00:28:55.11	295.27	84.55	-36.8	-37.7	23.6	0.00e+00	0	29	0	789577728	48	5507
2026-01-17 00:28:56.13	298.80	84.16	-36.8	-37.7	23.4	0.00e+00	30	29	0	791674880	46	6242
2026-01-17 00:28:57.13	301.82	83.76	-37.3	-38.2	23.2	0.00e+00	0	29	0	793772032	46	6607
2026-01-17 00:28:58.14	304.50	83.34	-37.4	-38.4	23.0	0.00e+00	92	29	0	794820608	46	6706
2026-01-17 00:28:59.15	306.85	82.91	-37.3	-38.2	23.4	0.00e+00	0	29	0	796917760	46	6568
2026-01-17 00:29:00.16	308.92	82.47	-37.7	-38.7	23.0	0.00e+00	0	29	0	799014912	46	6961
2026-01-17 00:29:01.16	310.74	82.02	-39.7	-40.9	21.2	0.00e+00	89	29	0	801112064	50	7143
2026-01-17 00:29:02.17	312.39	81.57	-40.5	-41.9	20.2	0.00e+00	0	29	0	803209216	52	7164
2026-01-17 00:29:03.18	313.86	81.11	-39.1	-40.2	21.7	0.00e+00	90	29	0	804257792	52	5829
2026-01-17 00:29:04.19	315.19	80.64	-38.1	-39.0	22.5	0.00e+00	0	29	0	806354944	50	5747
2026-01-17 00:29:05.19	316.37	80.18	-37.9	-38.8	22.8	0.00e+00	91	29	0	808452096	48	6264
2026-01-17 00:29:06.20	317.46	79.71	-38.0	-39.0	22.5	0.00e+00	92	29	0	810549248	48	6396
2026-01-17 00:29:07.21	318.45	79.23	-38.2	-39.3	22.4	0.00e+00	0	29	0	812646400	48	6639
2026-01-17 00:29:08.22	319.36	78.76	-40.8	-42.3	19.6	0.00e+00	91	29	0	814743552	52	7457
2026-01-17 00:29:09.23	320.19	78.28	-40.3	-41.7	20.8	0.00e+00	29	29	0	815792128	54	6204
2026-01-17 00:29:10.23	320.95	77.81	-38.8	-39.9	21.5	0.00e+00	92	29	0	817889280	52	5672
2026-01-17 00:29:11.24	321.66	77.33	-39.1	-40.3	21.7	0.00e+00	0	29	0	819986432	50	6619
2026-01-17 00:29:12.25	322.31	76.86	-39.6	-40.8	21.4	0.00e+00	92	29	0	822083584	50	7012
2026-01-17 00:29:13.26	322.92	76.38	-39.1	-40.2	21.8	0.00e+00	30	29	0	824180736	50	6590
2026-01-17 00:29:14.27	323.49	75.90	-39.6	-40.7	21.2	0.00e+00	0	29	0	825229312	50	6977
2026-01-17 00:29:15.28	324.02	75.42	-39.1	-40.2	22.0	0.00e+00	91	29	0	827326464	52	5857
2026-01-17 00:29:16.28	324.50	74.95	-39.2	-40.2	21.8	0.00e+00	4	29	0	829423616	52	5870
2026-01-17 00:29:17.29	324.97	74.48	-41.5	-43.1	19.1	0.00e+00	42	29	0	831520768	54	7280
2026-01-17 00:29:18.30	325.40	74.00	-41.3	-42.8	19.6	0.00e+00	0	29	0	832569344	56	6308
2026-01-17 00:29:19.31	325.81	73.53	-40.6	-41.9	20.1	0.00e+00	92	29	0	834666496	54	6379
2026-01-17 00:29:20.32	326.19	73.06	-43.1	-45.3	17.3	0.00e+00	25	29	0	836763648	58	7469
2026-01-17 00:29:21.32	326.55	72.59	-43.9	-46.6	15.9	0.00e+00	91	29	0	838860800	60	7703
2026-01-17 00:29:22.33	326.90	72.12	-43.2	-45.3	17.2	0.00e+00	92	29	0	840957952	60	6650
2026-01-17 00:29:23.34	327.22	71.65	-42.6	-44.5	17.7	0.00e+00	0	29	0	843055104	58	6802
2026-01-17 00:29:24.35	327.53	71.18	-43.2	-45.4	16.8	0.00e+00	48	29	0	844103680	58	7532
2026-01-17 00:29:25.35	327.82	70.72	-43.7	-46.1	16.5	0.00e+00	0	29	0	846200832	58	8201
2026-01-17 00:29:26.36	328.10	70.26	-44.3	-47.0	15.3	0.00e+00	91	29	0	848297984	60	8136
2026-01-17 00:29:27.37	328.36	69.80	-41.8	-43.4	19.3	0.00e+00	0	29	0	850395136	58	6013
2026-01-17 00:29:28.38	328.62	69.34	-39.7	-40.9	21.3	0.00e+00	92	29	0	852492288	52	6354
2026-01-17 00:29:29.39	328.86	68.88	-38.3	-39.3	22.3	0.00e+00	91	29	0	853540864	50	5952
2026-01-17 00:29:30.40	329.09	68.42	-38.1	-39.1	22.0	0.00e+00	0	29	0	855638016	50	5792
2026-01-17 00:29:31.41	329.31	67.97	-38.5	-39.6	22.0	0.00e+00	92	29	0	857735168	50	6125
2026-01-17 00:29:32.41	329.52	67.52	-39.5	-40.8	21.0	0.00e+00	0	29	0	859832320	50	7016
2026-01-17 00:29:33.42	329.72	67.07	-40.0	-41.4	20.7	0.00e+00	92	29	0	861929472	52	6730
2026-01-17 00:29:34.43	329.91	66.63	-38.3	-39.4	22.3	0.00e+00	0	29	0	862978048	50	5998
2026-01-17 00:29:35.44	330.10	66.18	-37.1	-38.1	23.2	0.00e+00	92	29	0	865075200	48	5764
2026-01-17 00:29:36.45	330.28	65.74	-37.4	-38.4	22.8	0.00e+00	92	29	0	867172352	48	5989
2026-01-17 00:29:37.46	330.45	65.30	-37.0	-37.9	23.4	0.00e+00	0	29	0	869269504	48	5671
2026-01-17 00:29:38.47	330.61	64.86	-35.0	-35.8	24.8	0.00e+00	47	29	0	871366656	44	5592
2026-01-17 00:29:39.48	330.77	64.42	-35.0	-35.8	25.0	0.00e+00	0	29	0	872415232	44	5587
2026-01-17 00:29:40.49	330.92	63.99	-36.8	-37.8	23.4	0.00e+00	89	29	0	874512384	44	7075
2026-01-17 00:29:41.50	331.07	63.56	-37.4	-38.5	22.9	0.00e+00	0	29	0	876609536	46	6793
2026-01-17 00:29:42.50	331.21	63.13	-37.0	-38.0	23.3	0.00e+00	90	29	0	878706688	46	6428
2026-01-17 00:29:43.51	331.35	62.71	-36.3	-37.2	23.7	0.00e+00	92	29	0	880803840	46	5885
2026-01-17 00:29:44.52	331.48	62.28	-35.5	-36.3	24.8	0.00e+00	0	29	0	881852416	44	5931
2026-01-17 00:29:45.53	331.61	61.86	-36.0	-36.9	24.1	0.00e+00	92	29	0	883949568	44	6341
2026-01-17 00:29:46.53	331.74	61.45	-37.1	-38.0	23.1	0.00e+00	0	29	0	886046720	46	6436
2026-01-17 00:29:47.54	331.86	61.03	-39.1	-40.4	21.4	0.00e+00	90	29	0	888143872	50	6694
2026-01-17 00:29:48.55	331.97	60.62	-39.8	-41.2	20.8	0.00e+00	0	29	0	890241024	52	6540
2026-01-17 00:29:49.56	332.09	60.21	-39.2	-40.4	21.2	0.00e+00	90	29	0	891289600	52	6012
2026-01-17 00:29:50.57	332.20	59.80	-37.4	-38.4	23.0	0.00e+00	25	29	0	893386752	48	6002
2026-01-17 00:29:51.58	332.30	59.39	-36.6	-37.5	23.9	0.00e+00	85	29	0	895483904	46	6080
2026-01-17 00:29:52.59	332.41	58.99	-36.9	-37.8	23.3	0.00e+00	92	29	0	897581056	46	6310
2026-01-17 00:29:53.60	332.51	58.59	-38.0	-39.1	22.4	0.00e+00	0	28	0	899678208	48	6520
2026-01-17 00:29:54.61	332.60	58.19	-38.3	-39.4	22.2	0.00e+00	38	29	0	900726784	48	6748
2026-01-17 00:29:55.61	332.70	57.80	-37.2	-38.2	23.2	0.00e+00	0	29	0	902823936	48	5845
2026-01-17 00:29:56.62	332.79	57.41	-35.6	-36.5	24.5	0.00e+00	92	29	0	904921088	46	5383
2026-01-17 00:29:57.63	332.88	57.02	-35.5	-36.3	24.5	0.00e+00	0	29	0	907018240	44	5938
2026-01-17 00:29:58.64	332.97	56.63	-36.0	-36.9	24.2	0.00e+00	15	29	0	909115392	44	6356
2026-01-17 00:29:59.65	333.05	56.24	-37.4	-38.5	22.9	0.00e+00	68	29	0	910163968	46	6795
2026-01-17 00:30:00.65	333.13	55.86	-37.3	-38.3	23.2	0.00e+00	0	29	0	912261120	46	6624
2026-01-17 00:30:01.66	333.21	55.48	-36.8	-37.7	23.5	0.00e+00	23	29	0	914358272	46	6244
2026-01-17 00:30:02.67	333.29	55.11	-36.1	-37.0	24.0	0.00e+00	0	28	0	916455424	46	5747
2026-01-17 00:30:03.68	333.37	54.73	-36.6	-37.6	23.7	0.00e+00	90	29	0	918552576	46	6117
2026-01-17 00:30:04.69	333.44	54.36	-37.2	-38.1	23.3	0.00e+00	0	29	0	919601152	46	6528
2026-01-17 00:30:05.70	333.52	53.99	-37.7	-38.7	22.7	0.00e+00	74	29	0	921698304	46	6979
2026-01-17 00:30:06.71	333.59	53.62	-37.9	-39.1	22.2	0.00e+00	92	29	0	923795456	48	6522
2026-01-17 00:30:07.72	333.66	53.26	-37.6	-38.8	22.6	0.00e+00	0	29	0	925892608	48	6263
2026-01-17 00:30:08.73	333.72	52.90	-37.3	-38.3	23.1	0.00e+00	27	29	0	927989760	48	5901
2026-01-17 00:30:09.74	333.79	52.54	-37.4	-38.4	22.5	0.00e+00	0	29	0	929038336	48	5985
2026-01-17 00:30:10.74	333.85	52.19	-38.7	-39.8	21.8	0.00e+00	92	29	0	931135488	48	7080
2026-01-17 00:30:11.75	333.92	51.83	-40.1	-41.6	20.1	0.00e+00	0	29	0	933232640	52	6900
2026-01-17 00:30:12.76	333.98	51.48	-41.4	-43.3	18.8	0.00e+00	60	29	0	935329792	54	7426
2026-01-17 00:30:13.77	334.04	51.13	-39.8	-41.3	20.6	0.00e+00	28	29	0	937426944	54	5903
2026-01-17 00:30:14.78	334.10	50.79	-39.6	-41.0	20.9	0.00e+00	0	28	0	939524096	52	6421
2026-01-17 00:30:15.79	334.16	50.44	-38.6	-39.8	21.9	0.00e+00	29	29	0	940572672	52	5584
2026-01-17 00:30:16.80	334.21	50.10	-37.8	-38.8	22.8	0.00e+00	0	29	0	942669824	50	5599
2026-01-17 00:30:17.81	334.27	49.76	-36.9	-37.7	23.5	0.00e+00	78	29	0	944766976	48	5566
2026-01-17 00:30:18.82	334.33	49.43	-36.9	-37.8	23.5	0.00e+00	0	29	0	946864128	46	6250
2026-01-17 00:30:19.82	334.38	49.10	-37.2	-38.1	23.3	0.00e+00	82	29	0	948961280	46	6495
2026-01-17 00:30:20.83	334.43	48.77	-38.5	-39.6	22.0	0.00e+00	31	28	0	950009856	48	6863
2026-01-17 00:30:21.84	334.48	48.44	-40.9	-42.6	19.4	0.00e+00	0	29	0	952107008	52	7696
2026-01-17 00:30:22.85	334.53	48.11	-42.7	-45.1	17.4	0.00e+00	92	29	0	954204160	58	7286
2026-01-17 00:30:23.86	334.58	47.79	-39.8	-41.3	21.1	0.00e+00	0	28	0	956301312	54	5920
2026-01-17 00:30:24.87	334.63	47.47	-37.8	-38.9	22.6	0.00e+00	92	29	0	958398464	50	5667
2026-01-17 00:30:25.88	334.68	47.15	-37.5	-38.5	23.0	0.00e+00	0	28	0	959447040	48	6095
2026-01-17 00:30:26.89	334.72	46.83	-37.9	-38.9	22.5	0.00e+00	92	28	0	961544192	48	6336
2026-01-17 00:30:27.90	334.77	46.52	-37.4	-38.4	23.0	0.00e+00	0	28	0	963641344	48	6003
2026-01-17 00:30:28.91	334.82	46.20	-37.1	-38.1	22.8	0.00e+00	0	29	0	965738496	48	5769
2026-01-17 00:30:29.92	334.86	45.89	-37.2	-38.1	23.0	0.00e+00	92	28	0	967835648	48	5804
2026-01-17 00:30:30.93	334.90	45.59	-38.0	-39.1	22.4	0.00e+00	0	29	0	968884224	48	6482
2026-01-17 00:30:31.94	334.95	45.28	-39.3	-40.6	21.6	0.00e+00	29	29	0	970981376	50	6857
2026-01-17 00:30:32.95	334.99	44.98	-39.6	-41.0	20.5	0.00e+00	0	29	0	973078528	50	7200
2026-01-17 00:30:33.96	335.03	44.68	-39.4	-40.8	21.0	0.00e+00	92	29	0	975175680	52	6271
2026-01-17 00:30:34.96	335.07	44.38	-38.2	-39.4	22.3	0.00e+00	0	29	0	977272832	50	5971
2026-01-17 00:30:35.97	335.11	44.09	-37.7	-38.7	22.9	0.00e+00	0	29	0	978321408	50	5556
2026-01-17 00:30:36.98	335.15	43.80	-36.1	-37.0	24.2	0.00e+00	91	28	0	980418560	46	5714
2026-01-17 00:30:37.99	335.19	43.50	-35.7	-36.5	24.6	0.00e+00	0	28	0	982515712	44	6075
2026-01-17 00:30:39.00	335.23	43.21	-35.0	-35.7	25.0	0.00e+00	27	28	0	984612864	44	5547
2026-01-17 00:30:40.01	335.26	42.93	-35.4	-36.2	24.7	0.00e+00	0	28	0	986710016	44	5849
2026-01-17 00:30:41.02	335.30	42.64	-36.2	-37.1	23.9	0.00e+00	79	28	0	987758592	44	6465
2026-01-17 00:30:42.03	335.34	42.36	-37.5	-38.5	23.0	0.00e+00	0	29	0	989855744	46	6798
2026-01-17 00:30:43.04	335.37	42.08	-38.1	-39.3	22.2	0.00e+00	70	29	0	991952896	48	6641
2026-01-17 00:30:44.05	335.41	41.80	-39.4	-40.7	21.1	0.00e+00	29	28	0	994050048	50	6989
2026-01-17 00:30:45.06	335.44	41.53	-39.5	-40.8	21.3	0.00e+00	0	29	0	996147200	50	7064
2026-01-17 00:30:46.07	335.48	41.25	-38.4	-39.5	22.0	0.00e+00	50	28	0	997195776	50	6102
2026-01-17 00:30:47.07	335.51	40.98	-38.6	-39.8	21.7	0.00e+00	0	29	0	999292928	50	6263
2026-01-17 00:30:48.08	335.54	40.71	-38.3	-39.4	22.4	0.00e+00	92	28	0	1001390080	50	5991
2026-01-17 00:30:49.09	335.57	40.44	-38.4	-39.5	22.2	0.00e+00	0	28	0	1003487232	50	6069
2026-01-17 00:30:50.10	335.61	40.18	-37.9	-38.9	22.9	0.00e+00	91	28	0	1005584384	48	6333
2026-01-17 00:30:51.11	335.64	39.91	-36.3	-37.2	23.8	0.00e+00	82	28	0	1006632960	46	5834
2026-01-17 00:30:52.12	335.67	39.65	-35.8	-36.6	24.3	0.00e+00	0	28	0	1008730112	44	6133
2026-01-17 00:30:53.13	335.70	39.39	-37.1	-38.0	23.4	0.00e+00	43	29	0	1010827264	46	6395
2026-01-17 00:30:54.14	335.73	39.13	-38.0	-39.1	22.5	0.00e+00	0	28	0	1012924416	48	6471
2026-01-17 00:30:55.15	335.76	38.88	-39.2	-40.5	21.3	0.00e+00	89	28	0	1015021568	50	6823
2026-01-17 00:30:56.16	335.79	38.62	-40.8	-42.5	19.5	0.00e+00	0	28	0	1016070144	52	7662
2026-01-17 00:30:57.17	335.82	38.37	-42.5	-44.9	17.3	0.00e+00	92	28	0	1018167296	56	7955
2026-01-17 00:30:58.17	335.85	38.12	-43.9	-47.2	15.2	7.00e-07	25	29	0	1020264448	58	9267
2026-01-17 00:30:59.18	335.88	37.87	-44.1	-47.8	14.5	1.50e-06	0	28	0	1022361600	60	8869
2026-01-17 00:31:00.19	335.90	37.62	-43.9	-47.9	14.0	7.00e-07	85	28	0	1024458752	60	8960
2026-01-17 00:31:01.20	335.93	37.38	-43.2	-46.5	15.5	0.00e+00	0	28	0	1025507328	60	7672
2026-01-17 00:31:02.21	335.96	37.14	-43.8	-47.4	15.2	0.00e+00	90	28	0	1027604480	60	8475
2026-01-17 00:31:03.22	335.99	36.89	-43.3	-46.2	16.2	0.00e+00	25	29	0	1029701632	60	7415
2026-01-17 00:31:04.23	336.01	36.65	-41.8	-43.6	18.8	0.00e+00	92	29	0	1031798784	58	6156
2026-01-17 00:31:05.24	336.04	36.42	-40.8	-42.3	20.0	0.00e+00	0	28	0	1033895936	56	5921
2026-01-17 00:31:06.25	336.07	36.18	-39.7	-40.9	20.8	0.00e+00	4	28	0	1034944512	54	5653
2026-01-17 00:31:07.25	336.09	35.95	-39.3	-40.4	21.3	0.00e+00	92	28	0	1037041664	52	6019
2026-01-17 00:31:08.26	336.12	35.71	-38.3	-39.4	22.2	0.00e+00	0	28	0	1039138816	50	5985
2026-01-17 00:31:09.27	336.14	35.48	-39.5	-40.8	21.0	0.00e+00	87	28	0	1041235968	50	7026
2026-01-17 00:31:10.28	336.17	35.25	-39.9	-41.3	20.4	0.00e+00	0	29	0	1043333120	52	6627
2026-01-17 00:31:11.29	336.19	35.03	-40.8	-42.4	19.8	0.00e+00	92	28	0	1045430272	52	7566
2026-01-17 00:31:12.30	336.21	34.80	-42.3	-44.3	17.6	0.00e+00	0	28	0	1046478848	56	7480
2026-01-17 00:31:13.31	336.24	34.57	-43.5	-46.3	15.6	0.00e+00	92	28	0	1048576000	58	8337
2026-01-17 00:31:14.31	336.26	34.35	-44.1	-47.1	15.2	0.00e+00	50	28	0	1050673152	60	8221
2026-01-17 00:31:15.32	336.29	34.13	-44.4	-47.7	14.6	6.10e-06	0	28	0	1052770304	60	8755
2026-01-17 00:31:16.33	336.31	33.91	-44.4	-47.8	14.2	2.13e-05	84	28	0	1054867456	60	8923
2026-01-17 00:31:17.34	336.33	33.69	-44.0	-47.1	14.9	7.00e-07	0	28	0	1055916032	60	8233
2026-01-17 00:31:18.35	336.35	33.48	-44.1	-47.3	15.0	0.00e+00	92	28	0	1058013184	60	8378
2026-01-17 00:31:19.36	336.38	33.26	-44.0	-47.0	15.2	0.00e+00	0	28	0	1060110336	60	8091
2026-01-17 00:31:20.37	336.40	33.05	-44.0	-47.1	15.3	0.00e+00	19	28	0	1062207488	60	8152
2026-01-17 00:31:21.38	336.42	32.84	-44.1	-47.0	15.4	0.00e+00	27	28	0	1064304640	60	8119
2026-01-17 00:31:22.39	336.44	32.63	-42.9	-45.2	17.3	0.00e+00	0	28	0	1065353216	60	6606
2026-01-17 00:31:23.40	336.46	32.42	-42.3	-44.3	18.3	0.00e+00	29	28	0	1067450368	58	6628
2026-01-17 00:31:24.41	336.49	32.21	-40.9	-42.5	19.7	0.00e+00	0	28	0	1069547520	56	6043
2026-01-17 00:31:25.42	336.51	32.00	-40.5	-41.9	19.9	0.00e+00	77	28	0	1071644672	54	6363
2026-01-17 00:31:26.43	336.53	31.80	-39.5	-40.7	21.4	0.00e+00	0	28	0	1073741824	52	6237
2026-01-17 00:31:27.43	336.55	31.60	-39.2	-40.3	21.5	0.00e+00	92	28	0	1074790400	52	5928
2026-01-17 00:31:28.44	336.57	31.39	-39.5	-40.7	21.3	0.00e+00	27	28	0	1076887552	52	6196
2026-01-17 00:31:29.45	336.59	31.19	-39.2	-40.4	21.3	0.00e+00	0	28	0	1078984704	52	5986
2026-01-17 00:31:30.46	336.61	30.99	-39.9	-41.2	20.8	0.00e+00	21	28	0	1081081856	52	6548
2026-01-17 00:31:31.47	336.63	30.79	-40.2	-41.6	20.4	0.00e+00	0	28	0	1083179008	52	6866
2026-01-17 00:31:32.48	336.65	30.60	-40.4	-41.8	20.1	0.00e+00	87	28	0	1084227584	52	7052
2026-01-17 00:31:33.49	336.67	30.40	-40.7	-42.2	19.7	0.00e+00	0	28	0	1086324736	54	6611
2026-01-17 00:31:34.50	336.69	30.21	-41.1	-42.7	19.3	0.00e+00	90	28	0	1088421888	54	6951
2026-01-17 00:31:35.51	336.71	30.02	-41.0	-42.6	19.5	0.00e+00	0	28	0	1090519040	54	6882
2026-01-17 00:31:36.52	336.72	29.82	-40.2	-41.6	20.3	0.00e+00	0	28	0	1092616192	54	6162
2026-01-17 00:31:37.52	336.74	29.64	-40.2	-41.6	20.3	0.00e+00	79	28	0	1093664768	54	6158
2026-01-17 00:31:38.53	336.76	29.45	-39.8	-41.1	20.7	0.00e+00	0	28	0	1095761920	54	5807
2026-01-17 00:31:39.54	336.78	29.26	-39.9	-41.2	20.7	0.00e+00	21	28	0	1097859072	52	6578
2026-01-17 00:31:40.55	336.80	29.07	-39.9	-41.2	20.8	0.00e+00	0	28	0	1099956224	52	6604
2026-01-17 00:31:41.55	336.82	28.89	-39.2	-40.4	21.5	0.00e+00	81	28	0	1102053376	52	5993
2026-01-17 00:31:42.56	336.83	28.71	-39.1	-40.2	21.6	0.00e+00	0	28	0	1103101952	52	5892
2026-01-17 00:31:43.57	336.85	28.52	-39.1	-40.2	21.6	0.00e+00	0	28	0	1105199104	52	5855
2026-01-17 00:31:44.59	336.87	28.34	-38.7	-39.8	22.0	0.00e+00	70	28	0	1107296256	50	6292
2026-01-17 00:31:45.59	336.89	28.16	-38.5	-39.5	22.2	0.00e+00	0	28	0	1109393408	50	6095
2026-01-17 00:31:46.60	336.90	27.98	-38.8	-39.9	21.9	0.00e+00	21	28	0	1111490560	50	6343
2026-01-17 00:31:47.61	336.92	27.80	-38.4	-39.4	22.2	0.00e+00	0	28	0	1113587712	50	5993
2026-01-17 00:31:48.62	336.94	27.63	-38.0	-39.0	22.5	0.00e+00	87	28	0	1114636288	50	5707
2026-01-17 00:31:49.63	336.96	27.45	-38.0	-39.0	22.5	0.00e+00	0	28	0	1116733440	50	5708
2026-01-17 00:31:50.64	336.97	27.28	-37.9	-38.8	22.8	0.00e+00	0	28	0	1118830592	50	5623
2026-01-17 00:31:51.65	336.99	27.10	-37.3	-38.2	23.5	0.00e+00	92	28	0	1120927744	48	5873
2026-01-17 00:31:52.66	337.00	26.93	-36.8	-37.7	23.6	0.00e+00	0	28	0	1123024896	48	5538
2026-01-17 00:31:53.67	337.02	26.76	-36.7	-37.6	23.8	0.00e+00	22	28	0	1124073472	46	6147
2026-01-17 00:31:54.68	337.04	26.59	-36.6	-37.5	23.9	0.00e+00	0	28	0	1126170624	46	6084
2026-01-17 00:31:55.69	337.05	26.42	-36.4	-37.2	23.9	0.00e+00	0	28	0	1128267776	46	5896
2026-01-17 00:31:56.70	337.07	26.25	-36.4	-37.3	24.0	0.00e+00	0	28	0	1130364928	46	5898
2026-01-17 00:31:57.70	337.09	26.09	-36.2	-37.1	24.0	0.00e+00	0	28	0	1131413504	46	5790
2026-01-17 00:31:58.72	337.10	25.92	-36.2	-37.0	23.9	0.00e+00	68	28	0	1133510656	46	5750
2026-01-17 00:31:59.73	337.12	25.75	-36.0	-36.9	24.3	0.00e+00	0	28	0	1135607808	46	5662
2026-01-17 00:32:00.73	337.13	25.59	-36.1	-37.0	24.0	0.00e+00	85	28	0	1137704960	46	5696
2026-01-17 00:32:01.74	337.15	25.43	-36.6	-37.5	23.7	0.00e+00	0	28	0	1139802112	46	6096
2026-01-17 00:32:02.75	337.16	25.27	-36.4	-37.3	23.8	0.00e+00	39	28	0	1141899264	46	5949
2026-01-17 00:32:03.76	337.18	25.10	-36.7	-37.6	23.6	0.00e+00	0	28	0	1142947840	46	6160
2026-01-17 00:32:04.77	337.19	24.94	-36.9	-37.9	23.5	0.00e+00	0	28	0	1145044992	46	6337
2026-01-17 00:32:05.77	337.21	24.79	-37.2	-38.2	23.2	0.00e+00	0	28	0	1147142144	46	6576
2026-01-17 00:32:06.79	337.22	24.63	-37.0	-37.9	23.4	0.00e+00	0	28	0	1149239296	46	6344
2026-01-17 00:32:07.79	337.24	24.47	-37.0	-37.9	23.4	0.00e+00	60	28	0	1151336448	46	6355
2026-01-17 00:32:08.80	337.25	24.32	-37.0	-38.0	23.4	0.00e+00	0	28	0	1152385024	46	6399
2026-01-17 00:32:09.81	337.27	24.16	-37.0	-37.9	23.4	0.00e+00	0	28	0	1154482176	46	6348
2026-01-17 00:32:10.82	337.28	24.01	-36.7	-37.6	23.6	0.00e+00	0	28	0	1156579328	46	6136
2026-01-17 00:32:11.83	337.29	23.85	-36.5	-37.4	23.8	0.00e+00	0	28	0	1158676480	46	5966
2026-01-17 00:32:12.84	337.31	23.70	-36.1	-37.0	24.1	0.00e+00	0	28	0	1160773632	46	5704
2026-01-17 00:32:13.85	337.32	23.55	-36.1	-36.9	24.1	0.00e+00	0	28	0	1161822208	46	5676
2026-01-17 00:32:14.85	337.34	23.40	-35.9	-36.7	24.2	0.00e+00	22	28	0	1163919360	46	5531
2026-01-17 00:32:15.86	337.35	23.25	-35.7	-36.5	24.5	0.00e+00	0	28	0	1166016512	46	5424
2026-01-17 00:32:16.87	337.36	23.10	-35.6	-36.4	24.4	0.00e+00	92	28	0	1168113664	44	5982
2026-01-17 00:32:17.88	337.38	22.95	-35.4	-36.3	24.6	0.00e+00	0	28	0	1170210816	44	5897
2026-01-17 00:32:18.89	337.39	22.80	-35.5	-36.3	24.6	0.00e+00	0	28	0	1171259392	44	5952
2026-01-17 00:32:19.90	337.41	22.66	-35.5	-36.3	24.5	0.00e+00	0	28	0	1173356544	44	5910
2026-01-17 00:32:20.91	337.42	22.51	-35.8	-36.6	24.4	0.00e+00	0	28	0	1175453696	44	6168
2026-01-17 00:32:21.92	337.43	22.37	-35.6	-36.5	24.5	0.00e+00	25	28	0	1177550848	44	6045
2026-01-17 00:32:22.93	337.45	22.22	-35.9	-36.8	24.2	0.00e+00	0	28	0	1179648000	44	6246
2026-01-17 00:32:23.94	337.46	22.08	-36.0	-36.8	24.1	0.00e+00	92	28	0	1180696576	44	6311
2026-01-17 00:32:24.95	337.47	21.94	-36.1	-36.9	24.0	0.00e+00	0	28	0	1182793728	44	6375
2026-01-17 00:32:25.96	337.48	21.80	-36.3	-37.2	23.8	0.00e+00	0	28	0	1184890880	44	6583
2026-01-17 00:32:26.97	337.50	21.65	-36.4	-37.3	23.8	0.00e+00	0	28	0	1186988032	44	6645
2026-01-17 00:32:27.98	337.51	21.51	-36.6	-37.5	23.6	0.00e+00	0	28	0	1189085184	44	6783
2026-01-17 00:32:28.99	337.52	21.38	-36.5	-37.5	23.7	0.00e+00	25	28	0	1190133760	44	6770
2026-01-17 00:32:29.99	337.54	21.24	-36.6	-37.5	23.6	0.00e+00	0	28	0	1192230912	46	6047
2026-01-17 00:32:31.00	337.55	21.10	-36.5	-37.4	23.7	0.00e+00	92	28	0	1194328064	46	5987
2026-01-17 00:32:32.01	337.56	20.96	-36.5	-37.4	23.7	0.00e+00	0	28	0	1196425216	46	6032
2026-01-17 00:32:33.02	337.57	20.83	-36.8	-37.7	23.5	0.00e+00	0	28	0	1198522368	46	6225
