passes_logs/2026/01/17/R4.6S_Anadyr/R4.6S_Anadyr__20260117_222306_SUOMI_NPP_rec.log

#Pass ID: 20260117_222306_SUOMI NPP
#Satellite: SUOMI NPP
#Configuration: NPP
#almurnet v.1.7.20251203
#Start time: 2026-01-17 22:23:10

#Version: 2.2.20231116
#Station: R4.6S_Anadyr
#Location: 177.4865 lon 64.73178 lat
#TLE: 1 37849U 11061A   26017.57099531  .00000072  00000+0  54974-4 0  9996
#TLE: 2 37849  98.7814 319.5974 0002398  59.1749 300.9663 14.19525865737072

#Time	Az	El	Level	Level2	SNR	BER	BlckErr	Temp	State	Recorded	gain1	gain2
2026-01-17 22:23:10.16	110.08	0.19	-49.5	-63.3	3.3	1.54e+00	0	30	0	0	60	52737
2026-01-17 22:23:11.17	110.03	0.25	-48.9	-64.1	3.6	1.51e+00	0	30	104	0	60	57815
2026-01-17 22:23:12.18	109.98	0.30	-48.9	-64.1	3.6	1.51e+00	0	30	104	0	60	58060
2026-01-17 22:23:13.19	109.94	0.36	-49.0	-64.1	3.6	1.51e+00	0	30	104	0	60	58228
2026-01-17 22:23:14.20	109.89	0.42	-48.8	-64.1	3.6	1.51e+00	0	30	104	0	60	57686
2026-01-17 22:23:15.21	109.84	0.47	-48.9	-64.0	3.6	1.51e+00	0	30	104	0	60	57210
2026-01-17 22:23:16.22	109.80	0.53	-48.8	-64.0	3.6	1.51e+00	0	30	104	0	60	57357
2026-01-17 22:23:17.23	109.75	0.59	-48.8	-64.0	3.6	1.51e+00	0	30	104	0	60	57201
2026-01-17 22:23:18.24	109.70	0.65	-48.8	-63.9	3.6	1.51e+00	0	30	104	0	60	56722
2026-01-17 22:23:19.25	109.66	0.71	-48.7	-63.9	3.6	1.51e+00	0	30	104	0	60	56579
2026-01-17 22:23:20.26	109.61	0.76	-48.6	-63.8	3.6	1.51e+00	0	30	104	0	60	56093
2026-01-17 22:23:21.27	109.56	0.82	-48.5	-63.6	3.6	1.51e+00	0	30	104	0	60	54766
2026-01-17 22:23:22.28	109.51	0.88	-48.3	-63.5	3.6	1.51e+00	0	31	104	0	60	54083
2026-01-17 22:23:23.29	109.46	0.94	-48.1	-63.2	3.6	1.51e+00	0	31	104	0	60	52323
2026-01-17 22:23:24.30	109.42	1.00	-46.8	-62.3	3.6	1.51e+00	0	30	104	0	60	47216
2026-01-17 22:23:25.31	109.37	1.05	-44.9	-61.4	3.5	1.51e+00	0	30	104	0	60	42681
2026-01-17 22:23:26.32	109.32	1.11	-44.9	-61.5	3.6	1.51e+00	0	31	104	0	60	42777
2026-01-17 22:23:27.33	109.27	1.17	-44.9	-61.4	3.6	1.51e+00	0	31	104	0	60	42484
2026-01-17 22:23:28.35	109.22	1.23	-44.9	-61.4	3.6	1.51e+00	0	31	104	0	60	42641
2026-01-17 22:23:29.36	109.17	1.29	-44.9	-61.4	3.6	1.51e+00	0	31	104	0	60	42621
2026-01-17 22:23:30.37	109.12	1.35	-44.9	-61.5	3.5	1.51e+00	0	31	104	0	60	42952
2026-01-17 22:23:31.37	109.07	1.41	-45.0	-61.4	3.6	1.51e+00	0	31	104	0	60	42660
2026-01-17 22:23:32.38	109.02	1.47	-45.0	-61.5	3.6	1.51e+00	0	31	104	0	60	42824
2026-01-17 22:23:33.40	108.97	1.53	-45.0	-61.4	3.6	1.51e+00	0	31	104	0	60	42481
2026-01-17 22:23:34.41	108.92	1.59	-44.9	-61.4	3.6	1.51e+00	0	31	104	0	60	42709
2026-01-17 22:23:35.42	108.87	1.64	-44.9	-61.4	3.6	1.51e+00	0	31	104	0	60	42608
2026-01-17 22:23:36.43	108.82	1.70	-44.9	-61.4	3.6	1.51e+00	0	31	104	0	60	42624
2026-01-17 22:23:37.44	108.77	1.76	-44.9	-61.4	3.6	1.51e+00	0	31	104	0	60	42548
2026-01-17 22:23:38.45	108.72	1.82	-44.9	-61.4	3.6	1.51e+00	0	31	104	0	60	42288
2026-01-17 22:23:39.46	108.66	1.88	-44.9	-61.3	3.6	1.51e+00	0	31	104	0	60	41970
2026-01-17 22:23:40.47	108.61	1.94	-44.9	-61.3	3.6	1.51e+00	0	31	104	0	60	41945
2026-01-17 22:23:41.48	108.56	2.00	-44.9	-61.3	3.6	1.51e+00	0	31	104	0	60	42079
2026-01-17 22:23:42.49	108.51	2.06	-45.0	-61.2	3.6	1.51e+00	0	31	104	0	60	41497
2026-01-17 22:23:43.50	108.46	2.12	-44.9	-61.2	3.6	1.51e+00	0	31	104	0	60	41567
2026-01-17 22:23:44.51	108.40	2.18	-44.9	-61.2	3.6	1.51e+00	0	31	104	0	60	41457
2026-01-17 22:23:45.52	108.35	2.24	-44.9	-61.2	3.6	1.51e+00	0	31	104	0	60	41562
2026-01-17 22:23:46.53	108.30	2.31	-44.9	-61.1	3.6	1.51e+00	0	31	104	0	60	41175
2026-01-17 22:23:47.54	108.24	2.37	-45.0	-61.2	3.6	1.51e+00	0	31	104	0	60	41569
2026-01-17 22:23:48.55	108.19	2.43	-44.9	-61.2	3.6	1.51e+00	0	31	104	0	60	41385
2026-01-17 22:23:49.57	108.14	2.49	-44.9	-61.1	3.6	1.51e+00	0	31	104	0	60	41128
2026-01-17 22:23:50.57	108.08	2.55	-44.9	-61.0	3.6	1.51e+00	0	31	104	0	60	40438
2026-01-17 22:23:51.58	108.03	2.61	-44.9	-61.0	3.6	1.51e+00	0	31	104	0	60	40732
2026-01-17 22:23:52.60	107.97	2.67	-44.9	-60.8	3.6	1.51e+00	0	31	104	0	60	39765
2026-01-17 22:23:53.61	107.92	2.73	-44.9	-60.4	3.6	1.51e+00	0	31	104	0	60	37936
2026-01-17 22:23:54.62	107.86	2.79	-44.9	-60.2	3.6	1.51e+00	0	31	104	0	60	36850
2026-01-17 22:23:55.63	107.81	2.86	-44.8	-60.0	3.6	1.51e+00	0	31	104	0	60	36077
2026-01-17 22:23:56.64	107.75	2.92	-44.8	-59.8	3.6	1.51e+00	0	31	104	0	60	35132
2026-01-17 22:23:57.65	107.70	2.98	-44.8	-60.2	3.6	1.51e+00	0	31	104	0	60	36780
2026-01-17 22:23:58.66	107.64	3.04	-44.8	-59.8	3.6	1.51e+00	0	31	104	0	60	35443
2026-01-17 22:23:59.67	107.58	3.10	-44.8	-58.6	3.9	1.50e+00	0	31	104	0	60	30873
2026-01-17 22:24:00.68	107.53	3.17	-44.6	-54.8	4.6	9.57e-01	48	31	0	1048576	60	19888
2026-01-17 22:24:01.69	107.47	3.23	-44.5	-53.1	6.3	3.77e-01	92	31	0	2097152	60	16313
2026-01-17 22:24:02.70	107.41	3.29	-44.0	-51.1	8.6	9.69e-02	92	31	0	4194304	60	13041
2026-01-17 22:24:03.71	107.36	3.35	-43.7	-49.6	10.3	1.35e-02	0	31	0	6291456	60	10957
2026-01-17 22:24:04.72	107.30	3.41	-43.4	-48.8	11.3	2.53e-03	87	31	0	8388608	60	10007
2026-01-17 22:24:05.73	107.24	3.48	-46.3	-60.3	3.6	1.05e-03	0	31	104	9437184	60	37285
2026-01-17 22:24:06.74	107.18	3.54	-44.4	-50.0	5.5	1.50e+00	0	31	104	9437184	60	11454
2026-01-17 22:24:07.75	107.13	3.60	-45.5	-53.7	4.8	6.56e-05	0	31	0	9437184	60	17565
2026-01-17 22:24:08.76	107.07	3.67	-45.6	-55.0	4.3	1.51e+00	0	31	104	9437184	60	20358
2026-01-17 22:24:09.77	107.01	3.73	-41.5	-44.2	16.0	8.89e-03	57	31	104	9437184	56	7347
2026-01-17 22:24:10.78	106.95	3.79	-42.3	-45.4	15.2	1.50e-06	0	31	0	10485760	58	7590
2026-01-17 22:24:11.79	106.89	3.86	-42.0	-45.0	15.7	0.00e+00	69	31	0	12582912	58	7237
2026-01-17 22:24:12.80	106.83	3.92	-42.0	-45.1	15.3	0.00e+00	0	31	0	14680064	58	7311
2026-01-17 22:24:13.81	106.77	3.98	-42.3	-45.6	15.1	0.00e+00	87	31	0	16777216	58	7743
2026-01-17 22:24:14.82	106.71	4.05	-42.1	-45.2	15.6	0.00e+00	0	31	0	17825792	58	7346
2026-01-17 22:24:15.82	106.65	4.11	-42.1	-44.9	15.8	0.00e+00	92	31	0	19922944	58	7136
2026-01-17 22:24:16.84	106.59	4.17	-42.2	-45.0	15.6	0.00e+00	92	31	0	22020096	58	7242
2026-01-17 22:24:17.84	106.53	4.24	-42.5	-45.5	15.3	0.00e+00	0	31	0	24117248	58	7650
2026-01-17 22:24:18.85	106.47	4.30	-42.4	-45.2	15.6	0.00e+00	92	31	0	26214400	58	7388
2026-01-17 22:24:19.86	106.41	4.37	-42.2	-44.8	16.1	0.00e+00	0	31	0	28311552	58	7041
2026-01-17 22:24:20.87	106.34	4.43	-42.2	-44.6	16.4	0.00e+00	92	31	0	29360128	58	6895
2026-01-17 22:24:21.88	106.28	4.50	-42.1	-44.4	16.6	0.00e+00	0	31	0	31457280	58	6752
2026-01-17 22:24:22.89	106.22	4.56	-41.8	-43.9	17.3	0.00e+00	92	31	0	33554432	56	7137
2026-01-17 22:24:23.90	106.16	4.62	-41.7	-43.6	17.6	0.00e+00	60	31	0	35651584	56	6887
2026-01-17 22:24:24.91	106.09	4.69	-41.5	-43.4	17.8	0.00e+00	90	31	0	37748736	56	6705
2026-01-17 22:24:25.92	106.03	4.75	-41.2	-43.0	18.1	0.00e+00	92	31	0	38797312	56	6453
2026-01-17 22:24:26.93	105.97	4.82	-41.3	-43.1	18.1	0.00e+00	0	31	0	40894464	56	6519
2026-01-17 22:24:27.94	105.90	4.89	-41.5	-43.3	17.9	0.00e+00	60	31	0	42991616	56	6661
2026-01-17 22:24:28.95	105.84	4.95	-41.1	-42.9	18.3	0.00e+00	0	31	0	45088768	56	6322
2026-01-17 22:24:29.96	105.77	5.02	-41.2	-42.9	18.4	0.00e+00	92	31	0	47185920	56	6324
2026-01-17 22:24:30.97	105.71	5.08	-41.3	-43.1	18.2	0.00e+00	0	31	0	48234496	56	6478
2026-01-17 22:24:31.98	105.64	5.15	-40.8	-42.3	19.0	0.00e+00	92	31	0	50331648	56	5956
2026-01-17 22:24:32.99	105.58	5.21	-40.7	-42.3	18.9	0.00e+00	92	31	0	52428800	54	6663
2026-01-17 22:24:34.00	105.51	5.28	-40.2	-41.6	19.6	0.00e+00	0	31	0	54525952	54	6166
2026-01-17 22:24:35.01	105.45	5.35	-40.8	-42.4	18.9	0.00e+00	92	31	0	56623104	54	6726
2026-01-17 22:24:36.02	105.38	5.41	-40.7	-42.2	19.2	0.00e+00	0	31	0	57671680	54	6612
2026-01-17 22:24:37.03	105.31	5.48	-41.3	-43.0	18.3	0.00e+00	92	31	0	59768832	54	7235
2026-01-17 22:24:38.04	105.25	5.55	-40.7	-42.2	19.1	0.00e+00	0	31	0	61865984	54	6592
2026-01-17 22:24:39.05	105.18	5.61	-40.9	-42.5	18.9	0.00e+00	92	31	0	63963136	54	6770
2026-01-17 22:24:40.06	105.11	5.68	-41.0	-42.6	18.9	0.00e+00	92	31	0	66060288	54	6880
2026-01-17 22:24:41.07	105.04	5.75	-40.9	-42.5	18.8	0.00e+00	0	31	0	67108864	54	6801
2026-01-17 22:24:42.08	104.98	5.81	-40.8	-42.4	19.0	0.00e+00	92	31	0	69206016	54	6710
2026-01-17 22:24:43.09	104.91	5.88	-40.7	-42.2	19.2	0.00e+00	0	31	0	71303168	54	6574
2026-01-17 22:24:44.10	104.84	5.95	-40.9	-42.5	18.9	0.00e+00	68	31	0	73400320	54	6783
2026-01-17 22:24:45.11	104.77	6.02	-41.0	-42.7	18.6	0.00e+00	0	31	0	75497472	54	6939
2026-01-17 22:24:46.12	104.70	6.08	-40.8	-42.4	18.9	0.00e+00	92	31	0	76546048	54	6742
2026-01-17 22:24:47.12	104.63	6.15	-40.5	-42.0	19.3	0.00e+00	56	31	0	78643200	54	6425
2026-01-17 22:24:48.13	104.56	6.22	-40.6	-42.1	19.3	0.00e+00	0	31	0	80740352	54	6476
2026-01-17 22:24:49.14	104.49	6.29	-40.7	-42.2	19.3	0.00e+00	73	31	0	82837504	54	6546
2026-01-17 22:24:50.15	104.42	6.35	-40.7	-42.2	19.1	0.00e+00	0	31	0	84934656	54	6581
2026-01-17 22:24:51.16	104.35	6.42	-41.0	-42.6	18.9	0.00e+00	92	31	0	85983232	54	6910
2026-01-17 22:24:52.17	104.28	6.49	-40.9	-42.5	19.0	0.00e+00	0	31	0	88080384	54	6834
2026-01-17 22:24:53.18	104.20	6.56	-41.5	-43.2	18.5	0.00e+00	92	31	0	90177536	54	7384
2026-01-17 22:24:54.19	104.13	6.63	-41.3	-42.9	18.7	0.00e+00	60	31	0	92274688	54	7150
2026-01-17 22:24:55.20	104.06	6.70	-41.3	-43.0	18.5	0.00e+00	44	31	0	94371840	54	7218
2026-01-17 22:24:56.21	103.99	6.77	-41.1	-42.6	18.9	0.00e+00	90	31	0	96468992	54	6925
2026-01-17 22:24:57.22	103.91	6.84	-41.1	-42.7	18.8	0.00e+00	0	31	0	97517568	54	7007
2026-01-17 22:24:58.22	103.84	6.90	-40.9	-42.5	19.0	0.00e+00	91	31	0	99614720	54	6818
2026-01-17 22:24:59.23	103.77	6.97	-41.0	-42.6	18.9	0.00e+00	32	31	0	101711872	54	6914
2026-01-17 22:25:00.24	103.69	7.04	-41.0	-42.6	18.9	0.00e+00	91	31	0	103809024	54	6887
2026-01-17 22:25:01.25	103.62	7.11	-41.4	-43.1	18.6	0.00e+00	0	31	0	105906176	54	7272
2026-01-17 22:25:02.26	103.54	7.18	-41.1	-42.7	18.9	0.00e+00	88	31	0	106954752	54	6999
2026-01-17 22:25:03.27	103.46	7.25	-41.2	-43.0	18.7	0.00e+00	92	31	0	109051904	54	7177
2026-01-17 22:25:04.28	103.39	7.32	-41.0	-42.7	18.9	0.00e+00	0	31	0	111149056	54	6958
2026-01-17 22:25:05.29	103.31	7.39	-40.8	-42.4	19.1	0.00e+00	91	31	0	113246208	54	6737
2026-01-17 22:25:06.30	103.24	7.46	-40.8	-42.6	19.1	0.00e+00	0	31	0	115343360	54	6874
2026-01-17 22:25:07.31	103.16	7.53	-40.5	-42.2	19.4	0.00e+00	92	31	0	116391936	54	6583
2026-01-17 22:25:08.32	103.08	7.60	-40.3	-42.0	19.6	0.00e+00	0	31	0	118489088	54	6411
2026-01-17 22:25:09.33	103.00	7.68	-40.4	-42.0	19.6	0.00e+00	91	31	0	120586240	54	6415
2026-01-17 22:25:10.34	102.92	7.75	-40.3	-41.9	19.6	0.00e+00	91	31	0	122683392	54	6377
2026-01-17 22:25:11.35	102.85	7.82	-40.5	-42.1	19.5	0.00e+00	0	31	0	124780544	54	6494
2026-01-17 22:25:12.36	102.77	7.89	-40.8	-42.4	19.3	0.00e+00	91	31	0	125829120	54	6717
2026-01-17 22:25:13.37	102.69	7.96	-40.1	-41.5	20.1	0.00e+00	0	31	0	127926272	54	6047
2026-01-17 22:25:14.38	102.61	8.03	-40.4	-41.9	19.8	0.00e+00	88	31	0	130023424	54	6323
2026-01-17 22:25:15.39	102.53	8.10	-40.4	-41.7	20.0	0.00e+00	0	31	0	132120576	54	6225
2026-01-17 22:25:16.40	102.45	8.18	-40.1	-41.5	20.2	0.00e+00	91	31	0	134217728	54	6050
2026-01-17 22:25:17.41	102.36	8.25	-39.9	-41.2	20.4	0.00e+00	92	31	0	135266304	54	5877
2026-01-17 22:25:18.42	102.28	8.32	-39.8	-41.1	20.6	0.00e+00	0	31	0	137363456	54	5805
2026-01-17 22:25:19.43	102.20	8.39	-39.6	-40.8	20.7	0.00e+00	90	31	0	139460608	52	6307
2026-01-17 22:25:20.44	102.12	8.47	-39.6	-40.8	20.8	0.00e+00	0	31	0	141557760	52	6316
2026-01-17 22:25:21.45	102.04	8.54	-39.7	-41.0	20.5	0.00e+00	91	31	0	143654912	52	6396
2026-01-17 22:25:22.46	101.95	8.61	-39.9	-41.2	20.4	0.00e+00	0	31	0	144703488	52	6592
2026-01-17 22:25:23.47	101.87	8.68	-40.0	-41.3	20.5	0.00e+00	92	31	0	146800640	52	6643
2026-01-17 22:25:24.48	101.78	8.76	-40.1	-41.4	20.2	0.00e+00	92	31	0	148897792	52	6767
2026-01-17 22:25:25.49	101.70	8.83	-39.9	-41.2	20.5	0.00e+00	0	31	0	150994944	52	6577
2026-01-17 22:25:26.50	101.61	8.90	-39.7	-40.9	20.7	0.00e+00	92	31	0	153092096	52	6383
2026-01-17 22:25:27.51	101.53	8.98	-39.7	-41.0	20.6	0.00e+00	0	31	0	154140672	52	6400
2026-01-17 22:25:28.51	101.44	9.05	-39.7	-41.0	20.6	0.00e+00	92	31	0	156237824	52	6427
2026-01-17 22:25:29.53	101.36	9.12	-39.6	-40.9	20.9	0.00e+00	0	31	0	158334976	52	6339
2026-01-17 22:25:30.54	101.27	9.20	-39.7	-40.9	20.8	0.00e+00	92	31	0	160432128	52	6382
2026-01-17 22:25:31.55	101.18	9.27	-39.8	-41.1	20.5	0.00e+00	92	31	0	162529280	52	6513
2026-01-17 22:25:32.56	101.10	9.35	-40.0	-41.3	20.5	0.00e+00	53	31	0	164626432	52	6656
2026-01-17 22:25:33.57	101.01	9.42	-40.3	-41.6	20.1	0.00e+00	92	31	0	165675008	52	6918
2026-01-17 22:25:34.58	100.92	9.50	-40.4	-41.8	20.1	0.00e+00	0	31	0	167772160	52	7068
2026-01-17 22:25:35.59	100.83	9.57	-40.0	-41.3	20.3	0.00e+00	92	31	0	169869312	52	6671
2026-01-17 22:25:36.60	100.74	9.65	-40.2	-41.5	20.1	0.00e+00	0	31	0	171966464	52	6836
2026-01-17 22:25:37.61	100.65	9.72	-39.9	-41.1	20.4	0.00e+00	92	31	0	174063616	52	6539
2026-01-17 22:25:38.61	100.56	9.80	-39.9	-41.2	20.3	0.00e+00	0	31	0	175112192	52	6604
2026-01-17 22:25:39.62	100.47	9.87	-40.0	-41.3	20.2	0.00e+00	92	31	0	177209344	52	6689
2026-01-17 22:25:40.63	100.38	9.95	-40.1	-41.5	20.2	0.00e+00	92	31	0	179306496	52	6788
2026-01-17 22:25:41.64	100.28	10.02	-40.1	-41.4	20.3	0.00e+00	0	31	0	181403648	52	6753
2026-01-17 22:25:42.65	100.19	10.10	-39.8	-41.1	20.6	0.00e+00	58	31	0	183500800	52	6498
2026-01-17 22:25:43.66	100.10	10.18	-40.2	-41.5	20.3	0.00e+00	0	31	0	184549376	52	6814
2026-01-17 22:25:44.67	100.01	10.25	-39.6	-40.8	20.7	0.00e+00	92	31	0	186646528	52	6251
2026-01-17 22:25:45.69	99.91	10.33	-39.6	-40.9	20.6	0.00e+00	0	31	0	188743680	52	6328
2026-01-17 22:25:46.69	99.82	10.40	-39.9	-41.2	20.4	0.00e+00	92	31	0	190840832	52	6554
2026-01-17 22:25:47.70	99.72	10.48	-39.6	-40.8	20.8	0.00e+00	90	31	0	192937984	52	6301
2026-01-17 22:25:48.72	99.63	10.56	-39.5	-40.7	21.0	0.00e+00	0	31	0	193986560	52	6179
2026-01-17 22:25:49.73	99.53	10.64	-39.7	-40.9	20.9	0.00e+00	79	31	0	196083712	52	6376
2026-01-17 22:25:50.74	99.43	10.71	-39.7	-40.9	20.7	0.00e+00	0	31	0	198180864	52	6345
2026-01-17 22:25:51.75	99.34	10.79	-39.6	-40.8	20.8	0.00e+00	92	31	0	200278016	52	6270
2026-01-17 22:25:52.76	99.24	10.87	-39.7	-40.9	20.9	0.00e+00	0	31	0	202375168	52	6354
2026-01-17 22:25:53.77	99.14	10.95	-39.5	-40.6	21.1	0.00e+00	92	31	0	203423744	52	6167
2026-01-17 22:25:54.78	99.04	11.02	-39.7	-40.9	20.9	0.00e+00	92	31	0	205520896	52	6344
2026-01-17 22:25:55.78	98.94	11.10	-39.4	-40.6	21.0	0.00e+00	0	31	0	207618048	52	6160
2026-01-17 22:25:56.79	98.84	11.18	-39.6	-40.8	21.0	0.00e+00	55	31	0	209715200	52	6261
2026-01-17 22:25:57.80	98.74	11.26	-39.6	-40.8	20.9	0.00e+00	0	31	0	211812352	52	6290
2026-01-17 22:25:58.81	98.64	11.34	-39.5	-40.7	21.0	0.00e+00	92	31	0	212860928	52	6234
2026-01-17 22:25:59.82	98.54	11.41	-39.5	-40.7	20.9	0.00e+00	0	31	0	214958080	52	6244
2026-01-17 22:26:00.83	98.44	11.49	-39.8	-41.1	20.7	0.00e+00	92	31	0	217055232	52	6526
2026-01-17 22:26:01.84	98.34	11.57	-40.0	-41.3	20.5	0.00e+00	90	31	0	219152384	52	6647
2026-01-17 22:26:02.84	98.23	11.65	-39.9	-41.3	20.5	0.00e+00	0	31	0	221249536	52	6663
2026-01-17 22:26:03.85	98.13	11.73	-39.7	-41.0	20.9	0.00e+00	92	31	0	222298112	52	6422
2026-01-17 22:26:04.86	98.03	11.81	-39.8	-41.2	20.7	0.00e+00	0	31	0	224395264	52	6590
2026-01-17 22:26:05.87	97.92	11.89	-39.7	-41.0	20.9	0.00e+00	90	31	0	226492416	52	6423
2026-01-17 22:26:06.88	97.81	11.97	-39.6	-41.0	20.9	0.00e+00	0	31	0	228589568	52	6412
2026-01-17 22:26:07.89	97.71	12.05	-39.6	-40.9	20.9	0.00e+00	92	31	0	230686720	52	6321
2026-01-17 22:26:08.90	97.60	12.13	-39.8	-41.1	20.7	0.00e+00	0	31	0	232783872	52	6514
2026-01-17 22:26:09.91	97.49	12.21	-39.8	-41.2	20.7	0.00e+00	36	31	0	233832448	52	6549
2026-01-17 22:26:10.92	97.39	12.29	-40.0	-41.3	20.5	0.00e+00	92	31	0	235929600	52	6691
2026-01-17 22:26:11.93	97.28	12.37	-39.9	-41.2	20.8	0.00e+00	0	31	0	238026752	52	6580
2026-01-17 22:26:12.94	97.17	12.45	-39.7	-41.0	21.0	0.00e+00	73	31	0	240123904	52	6424
2026-01-17 22:26:13.95	97.06	12.53	-39.8	-41.1	20.9	0.00e+00	0	31	0	242221056	52	6465
2026-01-17 22:26:14.96	96.95	12.61	-39.9	-41.1	20.7	0.00e+00	91	31	0	243269632	52	6515
2026-01-17 22:26:15.97	96.84	12.70	-39.7	-41.0	20.8	0.00e+00	0	31	0	245366784	52	6398
2026-01-17 22:26:16.98	96.73	12.78	-40.1	-41.4	20.6	0.00e+00	92	31	0	247463936	52	6708
2026-01-17 22:26:17.99	96.61	12.86	-40.0	-41.2	20.6	0.00e+00	90	31	0	249561088	52	6607
2026-01-17 22:26:19.00	96.50	12.94	-39.9	-41.1	20.8	0.00e+00	0	31	0	251658240	52	6527
2026-01-17 22:26:20.01	96.39	13.02	-39.4	-40.6	21.2	0.00e+00	82	31	0	252706816	52	6130
2026-01-17 22:26:21.02	96.27	13.10	-39.0	-40.0	21.7	0.00e+00	0	31	0	254803968	52	5756
2026-01-17 22:26:22.02	96.16	13.19	-39.3	-40.5	21.3	0.00e+00	91	31	0	256901120	52	6070
2026-01-17 22:26:23.03	96.05	13.27	-39.1	-40.2	21.4	0.00e+00	0	31	0	258998272	52	5887
2026-01-17 22:26:24.04	95.93	13.35	-39.2	-40.3	21.4	0.00e+00	91	31	0	261095424	52	5957
2026-01-17 22:26:25.05	95.81	13.43	-39.2	-40.3	21.4	0.00e+00	90	31	0	262144000	52	5939
2026-01-17 22:26:26.06	95.69	13.52	-39.4	-40.6	21.3	0.00e+00	0	31	0	264241152	52	6133
2026-01-17 22:26:27.07	95.58	13.60	-39.2	-40.4	21.4	0.00e+00	61	31	0	266338304	52	5991
2026-01-17 22:26:28.08	95.46	13.68	-39.1	-40.2	21.6	0.00e+00	0	31	0	268435456	52	5895
2026-01-17 22:26:29.09	95.34	13.77	-38.6	-39.6	22.1	0.00e+00	90	31	0	270532608	52	5452
2026-01-17 22:26:30.10	95.22	13.85	-38.6	-39.7	21.9	0.00e+00	0	31	0	271581184	50	6190
2026-01-17 22:26:31.11	95.10	13.93	-38.7	-39.7	21.9	0.00e+00	90	31	0	273678336	50	6229
2026-01-17 22:26:32.12	94.98	14.02	-38.9	-40.0	21.6	0.00e+00	92	31	0	275775488	50	6431
2026-01-17 22:26:33.13	94.85	14.10	-39.3	-40.4	21.3	0.00e+00	0	31	0	277872640	50	6745
2026-01-17 22:26:34.14	94.73	14.19	-39.2	-40.4	21.1	0.00e+00	79	31	0	279969792	50	6749
2026-01-17 22:26:35.15	94.61	14.27	-39.5	-40.7	21.0	0.00e+00	31	31	0	281018368	50	6991
2026-01-17 22:26:36.16	94.48	14.35	-39.7	-40.9	20.9	0.00e+00	90	31	0	283115520	50	7121
2026-01-17 22:26:37.17	94.36	14.44	-39.2	-40.3	21.5	0.00e+00	0	31	0	285212672	50	6653
2026-01-17 22:26:38.18	94.23	14.52	-39.4	-40.6	21.3	0.00e+00	92	31	0	287309824	50	6908
2026-01-17 22:26:39.19	94.10	14.61	-39.2	-40.4	21.4	0.00e+00	79	31	0	289406976	50	6702
2026-01-17 22:26:40.20	93.98	14.69	-39.4	-40.6	21.3	0.00e+00	0	31	0	290455552	50	6860
2026-01-17 22:26:41.21	93.85	14.78	-39.6	-40.9	21.0	0.00e+00	91	31	0	292552704	50	7114
2026-01-17 22:26:42.22	93.72	14.86	-40.0	-41.3	20.8	0.00e+00	0	31	0	294649856	52	6645
2026-01-17 22:26:43.23	93.59	14.95	-40.2	-41.6	20.3	0.00e+00	92	31	0	296747008	52	6871
2026-01-17 22:26:44.24	93.46	15.04	-40.5	-41.9	20.1	0.00e+00	0	31	0	298844160	52	7153
2026-01-17 22:26:45.25	93.33	15.12	-39.8	-41.0	20.8	0.00e+00	92	31	0	300941312	52	6422
2026-01-17 22:26:46.26	93.20	15.21	-39.8	-41.0	21.0	0.00e+00	66	31	0	301989888	52	6428
2026-01-17 22:26:47.27	93.06	15.29	-39.6	-40.8	21.2	0.00e+00	91	31	0	304087040	52	6287
2026-01-17 22:26:48.28	92.93	15.38	-39.2	-40.3	21.5	0.00e+00	92	31	0	306184192	52	5945
2026-01-17 22:26:49.29	92.80	15.47	-39.5	-40.7	21.2	0.00e+00	0	31	0	308281344	52	6183
2026-01-17 22:26:50.30	92.66	15.55	-39.3	-40.4	21.5	0.00e+00	61	31	0	310378496	52	5986
2026-01-17 22:26:51.31	92.53	15.64	-39.7	-41.0	21.0	0.00e+00	0	31	0	311427072	52	6396
2026-01-17 22:26:52.32	92.39	15.73	-39.6	-40.8	21.1	0.00e+00	91	31	0	313524224	52	6295
2026-01-17 22:26:53.33	92.25	15.81	-39.4	-40.6	21.3	0.00e+00	0	31	0	315621376	52	6131
2026-01-17 22:26:54.34	92.11	15.90	-39.5	-40.7	21.0	0.00e+00	38	31	0	317718528	52	6238
2026-01-17 22:26:55.35	91.97	15.99	-39.4	-40.6	21.4	0.00e+00	92	31	0	319815680	52	6120
2026-01-17 22:26:56.35	91.84	16.08	-39.2	-40.3	21.5	0.00e+00	0	31	0	320864256	52	5909
2026-01-17 22:26:57.36	91.70	16.16	-39.2	-40.3	21.5	0.00e+00	62	31	0	322961408	52	5955
2026-01-17 22:26:58.37	91.55	16.25	-38.7	-39.8	22.1	0.00e+00	0	31	0	325058560	52	5582
2026-01-17 22:26:59.38	91.41	16.34	-38.9	-40.0	21.7	0.00e+00	92	31	0	327155712	50	6445
2026-01-17 22:27:00.39	91.27	16.43	-38.9	-40.0	21.8	0.00e+00	0	31	0	329252864	50	6435
2026-01-17 22:27:01.40	91.12	16.52	-38.7	-39.7	22.0	0.00e+00	92	31	0	330301440	50	6238
2026-01-17 22:27:02.41	90.98	16.60	-38.6	-39.7	22.2	0.00e+00	92	31	0	332398592	50	6184
2026-01-17 22:27:03.42	90.83	16.69	-38.6	-39.6	22.2	0.00e+00	0	31	0	334495744	50	6165
2026-01-17 22:27:04.43	90.69	16.78	-38.1	-39.1	22.6	0.00e+00	91	31	0	336592896	50	5817
2026-01-17 22:27:05.44	90.54	16.87	-38.3	-39.3	22.5	0.00e+00	0	31	0	338690048	50	5916
2026-01-17 22:27:06.45	90.39	16.96	-38.0	-39.0	22.7	0.00e+00	91	31	0	339738624	50	5719
2026-01-17 22:27:07.46	90.24	17.05	-38.1	-39.1	22.6	0.00e+00	0	31	0	341835776	50	5820
2026-01-17 22:27:08.47	90.09	17.14	-38.1	-39.1	22.6	0.00e+00	92	31	0	343932928	50	5796
2026-01-17 22:27:09.48	89.94	17.23	-38.0	-39.0	22.7	0.00e+00	92	31	0	346030080	50	5720
2026-01-17 22:27:10.48	89.79	17.31	-38.0	-39.0	22.7	0.00e+00	0	31	0	348127232	50	5728
2026-01-17 22:27:11.49	89.64	17.40	-38.0	-39.0	22.7	0.00e+00	91	31	0	349175808	50	5725
2026-01-17 22:27:12.50	89.48	17.49	-38.4	-39.4	22.5	0.00e+00	0	31	0	351272960	50	5993
2026-01-17 22:27:13.51	89.33	17.58	-38.2	-39.2	22.5	0.00e+00	92	31	0	353370112	50	5844
2026-01-17 22:27:14.52	89.17	17.67	-38.0	-39.0	22.6	0.00e+00	0	31	0	355467264	50	5750
2026-01-17 22:27:15.53	89.01	17.76	-38.3	-39.3	22.4	0.00e+00	90	31	0	357564416	50	5898
2026-01-17 22:27:16.54	88.86	17.85	-38.2	-39.2	22.4	0.00e+00	92	31	0	358612992	50	5863
2026-01-17 22:27:17.55	88.70	17.94	-38.5	-39.5	22.2	0.00e+00	0	31	0	360710144	50	6077
2026-01-17 22:27:18.56	88.54	18.03	-38.6	-39.7	22.2	0.00e+00	91	31	0	362807296	50	6177
2026-01-17 22:27:19.57	88.38	18.12	-38.6	-39.7	22.1	0.00e+00	0	31	0	364904448	50	6215
2026-01-17 22:27:20.58	88.22	18.21	-38.7	-39.7	22.2	0.00e+00	92	31	0	367001600	50	6233
2026-01-17 22:27:21.59	88.05	18.30	-38.6	-39.6	22.3	0.00e+00	0	31	0	369098752	50	6149
2026-01-17 22:27:22.60	87.89	18.39	-38.6	-39.7	22.0	0.00e+00	92	31	0	370147328	50	6214
2026-01-17 22:27:23.61	87.73	18.48	-39.1	-40.2	21.7	0.00e+00	0	31	0	372244480	50	6574
2026-01-17 22:27:24.62	87.56	18.57	-38.9	-40.0	21.9	0.00e+00	92	31	0	374341632	50	6421
2026-01-17 22:27:25.63	87.39	18.67	-38.7	-39.7	22.1	0.00e+00	91	31	0	376438784	50	6222
2026-01-17 22:27:26.64	87.23	18.76	-38.6	-39.6	22.2	0.00e+00	0	31	0	378535936	50	6162
2026-01-17 22:27:27.65	87.06	18.85	-38.4	-39.3	22.5	0.00e+00	63	31	0	379584512	50	5955
2026-01-17 22:27:28.66	86.89	18.94	-38.1	-39.0	22.8	0.00e+00	0	31	0	381681664	50	5727
2026-01-17 22:27:29.67	86.72	19.03	-38.2	-39.2	22.7	0.00e+00	91	31	0	383778816	50	5840
2026-01-17 22:27:30.68	86.55	19.12	-38.3	-39.2	22.6	0.00e+00	0	31	0	385875968	50	5896
2026-01-17 22:27:31.69	86.37	19.21	-38.0	-38.9	22.9	0.00e+00	33	31	0	387973120	50	5681
2026-01-17 22:27:32.70	86.20	19.30	-37.9	-38.9	22.8	0.00e+00	91	31	0	389021696	50	5644
2026-01-17 22:27:33.71	86.02	19.39	-37.8	-38.8	22.8	0.00e+00	0	31	0	391118848	50	5583
2026-01-17 22:27:34.72	85.85	19.49	-38.1	-39.0	22.7	0.00e+00	86	31	0	393216000	50	5743
2026-01-17 22:27:35.73	85.67	19.58	-38.0	-39.0	22.2	0.00e+00	0	31	0	395313152	50	5696
2026-01-17 22:27:36.74	85.49	19.67	-38.2	-39.2	22.5	0.00e+00	60	31	0	397410304	50	5882
2026-01-17 22:27:37.75	85.31	19.76	-38.5	-39.5	22.4	0.00e+00	0	31	0	398458880	50	6090
2026-01-17 22:27:38.76	85.13	19.85	-38.7	-39.8	22.2	0.00e+00	90	31	0	400556032	50	6281
2026-01-17 22:27:39.77	84.95	19.94	-38.8	-39.8	22.0	0.00e+00	85	31	0	402653184	50	6303
2026-01-17 22:27:40.78	84.77	20.03	-38.8	-39.9	22.0	0.00e+00	0	31	0	404750336	50	6328
2026-01-17 22:27:41.79	84.59	20.13	-39.1	-40.2	21.7	0.00e+00	63	31	0	406847488	50	6567
2026-01-17 22:27:42.80	84.40	20.22	-39.1	-40.2	21.8	0.00e+00	0	31	0	407896064	50	6613
2026-01-17 22:27:43.81	84.22	20.31	-39.1	-40.2	21.7	0.00e+00	89	31	0	409993216	50	6603
2026-01-17 22:27:44.81	84.03	20.40	-39.0	-40.0	21.9	0.00e+00	0	31	0	412090368	50	6456
2026-01-17 22:27:45.82	83.84	20.49	-38.9	-39.9	22.0	0.00e+00	92	31	0	414187520	50	6370
2026-01-17 22:27:46.83	83.65	20.58	-38.8	-39.9	22.1	0.00e+00	55	31	0	416284672	50	6329
2026-01-17 22:27:47.84	83.46	20.68	-38.8	-39.8	22.1	0.00e+00	0	31	0	417333248	50	6286
2026-01-17 22:27:48.85	83.27	20.77	-38.8	-39.9	22.1	0.00e+00	27	31	0	419430400	50	6333
2026-01-17 22:27:49.86	83.08	20.86	-39.0	-40.1	21.9	0.00e+00	0	31	0	421527552	50	6471
2026-01-17 22:27:50.87	82.89	20.95	-39.0	-40.1	21.9	0.00e+00	92	31	0	423624704	50	6538
2026-01-17 22:27:51.88	82.69	21.04	-38.8	-39.8	22.0	0.00e+00	0	31	0	425721856	50	6314
2026-01-17 22:27:52.89	82.50	21.13	-38.9	-40.0	22.1	0.00e+00	90	31	0	426770432	50	6409
2026-01-17 22:27:53.90	82.30	21.23	-39.0	-40.1	21.9	0.00e+00	65	31	0	428867584	50	6468
2026-01-17 22:27:54.91	82.10	21.32	-39.2	-40.3	21.7	0.00e+00	0	31	0	430964736	50	6690
2026-01-17 22:27:55.92	81.90	21.41	-39.4	-40.5	21.5	0.00e+00	92	31	0	433061888	50	6827
2026-01-17 22:27:56.93	81.70	21.50	-39.5	-40.7	21.4	0.00e+00	0	31	0	435159040	50	6979
2026-01-17 22:27:57.94	81.50	21.59	-39.2	-40.3	21.7	0.00e+00	65	31	0	437256192	50	6663
2026-01-17 22:27:58.95	81.30	21.68	-38.7	-39.8	22.2	0.00e+00	0	31	0	438304768	50	6248
2026-01-17 22:27:59.96	81.09	21.77	-38.7	-39.7	22.5	0.00e+00	92	31	0	440401920	50	6231
2026-01-17 22:28:00.97	80.89	21.87	-38.8	-39.8	22.2	0.00e+00	49	31	0	442499072	50	6280
2026-01-17 22:28:01.98	80.68	21.96	-38.6	-39.6	22.4	0.00e+00	0	31	0	444596224	50	6171
2026-01-17 22:28:02.98	80.47	22.05	-38.7	-39.7	22.1	0.00e+00	92	31	0	446693376	50	6233
2026-01-17 22:28:04.00	80.26	22.14	-38.2	-39.2	22.7	0.00e+00	0	31	0	447741952	50	5871
2026-01-17 22:28:05.01	80.05	22.23	-38.6	-39.7	22.3	0.00e+00	92	31	0	449839104	50	6213
2026-01-17 22:28:06.01	79.84	22.32	-38.5	-39.6	22.2	0.00e+00	0	32	0	451936256	50	6123
2026-01-17 22:28:07.02	79.63	22.41	-38.5	-39.6	22.3	0.00e+00	92	31	0	454033408	50	6110
2026-01-17 22:28:08.03	79.41	22.50	-38.4	-39.4	22.4	0.00e+00	40	31	0	456130560	50	6000
2026-01-17 22:28:09.04	79.20	22.59	-38.5	-39.6	22.4	0.00e+00	65	31	0	457179136	50	6106
2026-01-17 22:28:10.05	78.98	22.68	-38.6	-39.6	22.3	0.00e+00	92	31	0	459276288	50	6139
2026-01-17 22:28:11.06	78.76	22.77	-38.2	-39.2	22.6	0.00e+00	0	31	0	461373440	50	5864
2026-01-17 22:28:12.07	78.54	22.86	-38.4	-39.4	22.5	0.00e+00	67	31	0	463470592	50	6019
2026-01-17 22:28:13.08	78.32	22.95	-38.0	-39.0	22.8	0.00e+00	0	31	0	465567744	50	5733
2026-01-17 22:28:14.09	78.10	23.04	-37.7	-38.7	23.1	0.00e+00	92	31	0	466616320	48	6193
2026-01-17 22:28:15.10	77.88	23.13	-37.5	-38.4	23.3	0.00e+00	0	31	0	468713472	48	6017
2026-01-17 22:28:16.10	77.66	23.22	-37.5	-38.4	23.2	0.00e+00	92	31	0	470810624	48	5982
2026-01-17 22:28:17.11	77.43	23.31	-37.4	-38.3	23.4	0.00e+00	75	31	0	472907776	48	5902
2026-01-17 22:28:18.12	77.20	23.40	-36.7	-37.5	23.9	0.00e+00	0	31	0	475004928	46	6101
2026-01-17 22:28:19.13	76.97	23.49	-36.7	-37.5	23.9	0.00e+00	32	31	0	476053504	46	6068
2026-01-17 22:28:20.14	76.75	23.58	-36.7	-37.5	23.9	0.00e+00	0	31	0	478150656	46	6066
2026-01-17 22:28:21.15	76.51	23.67	-36.8	-37.6	23.8	0.00e+00	90	31	0	480247808	46	6164
2026-01-17 22:28:22.16	76.28	23.75	-37.1	-37.9	23.7	0.00e+00	0	31	0	482344960	46	6369
2026-01-17 22:28:23.17	76.05	23.84	-37.2	-38.1	23.5	0.00e+00	92	31	0	484442112	46	6523
2026-01-17 22:28:24.18	75.81	23.93	-37.5	-38.4	23.4	0.00e+00	90	31	0	485490688	46	6710
2026-01-17 22:28:25.19	75.58	24.02	-37.3	-38.2	23.4	0.00e+00	0	31	0	487587840	46	6614
2026-01-17 22:28:26.20	75.34	24.11	-37.2	-38.1	23.4	0.00e+00	70	31	0	489684992	46	6480
2026-01-17 22:28:27.21	75.10	24.19	-37.3	-38.2	23.5	0.00e+00	32	31	0	491782144	46	6569
2026-01-17 22:28:28.22	74.86	24.28	-37.4	-38.4	23.2	0.00e+00	90	31	0	493879296	46	6698
2026-01-17 22:28:29.23	74.62	24.37	-37.9	-38.9	22.9	0.00e+00	0	31	0	494927872	48	6351
2026-01-17 22:28:30.24	74.38	24.45	-37.6	-38.6	23.1	0.00e+00	88	31	0	497025024	48	6142
2026-01-17 22:28:31.25	74.13	24.54	-37.5	-38.4	23.2	0.00e+00	61	31	0	499122176	48	6014
2026-01-17 22:28:32.26	73.89	24.63	-37.3	-38.3	23.3	0.00e+00	0	31	0	501219328	48	5901
2026-01-17 22:28:33.27	73.64	24.71	-37.4	-38.3	23.3	0.00e+00	90	31	0	503316480	48	5918
2026-01-17 22:28:34.28	73.39	24.80	-37.2	-38.0	23.6	0.00e+00	0	31	0	505413632	48	5756
2026-01-17 22:28:35.29	73.14	24.88	-37.1	-38.0	23.6	0.00e+00	92	31	0	506462208	48	5703
2026-01-17 22:28:36.30	72.89	24.97	-37.1	-38.0	23.6	0.00e+00	0	31	0	508559360	48	5745
2026-01-17 22:28:37.31	72.64	25.05	-37.2	-38.1	23.5	0.00e+00	92	31	0	510656512	48	5762
2026-01-17 22:28:38.32	72.38	25.13	-37.2	-38.1	23.5	0.00e+00	0	31	0	512753664	48	5781
2026-01-17 22:28:39.33	72.13	25.22	-37.4	-38.3	23.5	0.00e+00	0	31	0	514850816	48	5924
2026-01-17 22:28:40.34	71.87	25.30	-37.6	-38.5	23.3	0.00e+00	92	31	0	515899392	48	6065
2026-01-17 22:28:41.35	71.61	25.38	-37.5	-38.4	23.4	0.00e+00	0	31	0	517996544	48	5996
2026-01-17 22:28:42.36	71.35	25.47	-37.3	-38.3	23.4	0.00e+00	65	31	0	520093696	48	5901
2026-01-17 22:28:43.37	71.09	25.55	-37.3	-38.2	23.4	0.00e+00	0	31	0	522190848	48	5835
2026-01-17 22:28:44.38	70.83	25.63	-37.4	-38.3	23.3	0.00e+00	92	31	0	524288000	48	5951
2026-01-17 22:28:45.39	70.57	25.71	-37.1	-38.0	23.5	0.00e+00	64	31	0	525336576	48	5730
2026-01-17 22:28:46.40	70.30	25.79	-37.0	-37.9	23.6	0.00e+00	24	31	0	527433728	48	5663
2026-01-17 22:28:47.41	70.04	25.87	-37.1	-38.0	23.6	0.00e+00	92	31	0	529530880	48	5700
2026-01-17 22:28:48.42	69.77	25.95	-36.9	-37.7	23.9	0.00e+00	0	31	0	531628032	46	6241
2026-01-17 22:28:49.43	69.50	26.03	-36.9	-37.7	23.8	0.00e+00	66	31	0	533725184	46	6212
2026-01-17 22:28:50.44	69.23	26.11	-37.0	-37.9	23.7	0.00e+00	0	31	0	534773760	46	6346
2026-01-17 22:28:51.44	68.96	26.19	-37.5	-38.4	23.3	0.00e+00	92	31	0	536870912	46	6734
2026-01-17 22:28:52.45	68.69	26.27	-37.7	-38.6	23.0	0.00e+00	0	31	0	538968064	46	6922
2026-01-17 22:28:53.46	68.41	26.34	-37.9	-38.8	22.4	0.00e+00	42	31	0	541065216	48	6290
2026-01-17 22:28:54.47	68.14	26.42	-38.0	-38.9	22.8	0.00e+00	65	31	0	543162368	48	6377
2026-01-17 22:28:55.48	67.86	26.50	-37.8	-38.8	23.0	0.00e+00	0	31	0	544210944	48	6267
2026-01-17 22:28:56.49	67.58	26.57	-38.0	-39.0	22.7	0.00e+00	34	31	0	546308096	48	6445
2026-01-17 22:28:57.50	67.30	26.65	-37.5	-38.4	23.4	0.00e+00	0	31	0	548405248	48	5970
2026-01-17 22:28:58.51	67.02	26.72	-37.5	-38.4	23.3	0.00e+00	92	31	0	550502400	48	5982
2026-01-17 22:28:59.52	66.74	26.80	-37.4	-38.3	23.4	0.00e+00	0	31	0	552599552	48	5912
2026-01-17 22:29:00.53	66.46	26.87	-37.3	-38.2	23.4	0.00e+00	92	31	0	553648128	48	5832
2026-01-17 22:29:01.53	66.18	26.95	-37.4	-38.3	23.3	0.00e+00	92	32	0	555745280	48	5934
2026-01-17 22:29:02.54	65.89	27.02	-37.6	-38.5	23.1	0.00e+00	0	31	0	557842432	48	6102
2026-01-17 22:29:03.55	65.60	27.09	-37.8	-38.7	22.9	0.00e+00	14	32	0	559939584	48	6217
2026-01-17 22:29:04.56	65.31	27.16	-37.7	-38.6	23.0	0.00e+00	0	32	0	562036736	48	6173
2026-01-17 22:29:05.57	65.02	27.23	-37.9	-38.9	22.9	0.00e+00	92	32	0	563085312	48	6328
2026-01-17 22:29:06.58	64.73	27.30	-37.6	-38.5	23.3	0.00e+00	0	32	0	565182464	48	6059
2026-01-17 22:29:07.59	64.44	27.37	-37.5	-38.4	23.3	0.00e+00	92	32	0	567279616	48	5996
2026-01-17 22:29:08.60	64.15	27.44	-37.2	-38.1	23.6	0.00e+00	60	31	0	569376768	48	5777
2026-01-17 22:29:09.61	63.85	27.51	-37.4	-38.3	23.4	0.00e+00	0	31	0	571473920	48	5943
2026-01-17 22:29:10.62	63.55	27.58	-37.6	-38.5	23.2	0.00e+00	92	32	0	572522496	48	6102
2026-01-17 22:29:11.63	63.26	27.64	-38.2	-39.2	22.8	0.00e+00	0	31	0	574619648	48	6571
2026-01-17 22:29:12.64	62.96	27.71	-38.2	-39.2	22.6	0.00e+00	85	32	0	576716800	48	6607
2026-01-17 22:29:13.65	62.66	27.78	-38.2	-39.2	22.7	0.00e+00	0	31	0	578813952	48	6604
2026-01-17 22:29:14.66	62.36	27.84	-38.3	-39.3	22.7	0.00e+00	87	32	0	580911104	48	6654
2026-01-17 22:29:15.67	62.05	27.90	-38.5	-39.5	22.4	0.00e+00	33	31	0	581959680	50	6100
2026-01-17 22:29:16.68	61.75	27.97	-38.5	-39.5	22.5	0.00e+00	0	32	0	584056832	50	6070
2026-01-17 22:29:17.69	61.44	28.03	-38.2	-39.2	22.8	0.00e+00	84	31	0	586153984	50	5880
2026-01-17 22:29:18.70	61.14	28.09	-37.9	-38.9	23.0	0.00e+00	0	31	0	588251136	50	5665
2026-01-17 22:29:19.71	60.83	28.15	-37.8	-38.7	23.0	0.00e+00	92	31	0	590348288	48	6222
2026-01-17 22:29:20.72	60.52	28.21	-37.8	-38.7	23.1	0.00e+00	0	31	0	591396864	48	6222
2026-01-17 22:29:21.73	60.21	28.27	-37.5	-38.4	23.3	0.00e+00	91	31	0	593494016	48	6007
2026-01-17 22:29:22.74	59.90	28.33	-37.3	-38.2	23.3	0.00e+00	40	31	0	595591168	48	5872
2026-01-17 22:29:23.75	59.59	28.39	-37.2	-38.1	23.7	0.00e+00	0	31	0	597688320	48	5769
2026-01-17 22:29:24.76	59.28	28.45	-36.9	-37.7	23.8	0.00e+00	92	31	0	599785472	48	5558
2026-01-17 22:29:25.76	58.97	28.50	-37.2	-38.1	23.6	0.00e+00	0	31	0	601882624	48	5795
2026-01-17 22:29:26.77	58.65	28.56	-37.4	-38.3	23.4	0.00e+00	61	31	0	602931200	48	5912
2026-01-17 22:29:27.78	58.33	28.61	-37.3	-38.1	23.5	0.00e+00	0	31	0	605028352	48	5824
2026-01-17 22:29:28.79	58.02	28.66	-37.6	-38.5	23.2	0.00e+00	92	31	0	607125504	48	6058
2026-01-17 22:29:29.80	57.70	28.72	-37.8	-38.8	23.1	0.00e+00	0	31	0	609222656	48	6259
2026-01-17 22:29:30.81	57.38	28.77	-38.0	-38.9	22.9	0.00e+00	37	31	0	611319808	48	6352
2026-01-17 22:29:31.82	57.06	28.82	-37.5	-38.4	23.3	0.00e+00	92	31	0	612368384	48	6005
2026-01-17 22:29:32.83	56.74	28.87	-36.9	-37.8	23.9	0.00e+00	0	31	0	614465536	48	5582
2026-01-17 22:29:33.84	56.41	28.92	-37.3	-38.1	23.6	0.00e+00	63	31	0	616562688	48	5809
2026-01-17 22:29:34.85	56.09	28.96	-37.5	-38.4	23.4	0.00e+00	0	31	0	618659840	48	5971
2026-01-17 22:29:35.86	55.77	29.01	-37.9	-38.9	23.1	0.00e+00	92	31	0	620756992	48	6342
2026-01-17 22:29:36.87	55.44	29.06	-37.8	-38.8	23.1	0.00e+00	0	31	0	621805568	48	6272
2026-01-17 22:29:37.88	55.11	29.10	-37.7	-38.7	23.1	0.00e+00	0	31	0	623902720	48	6178
2026-01-17 22:29:38.89	54.79	29.15	-38.0	-38.9	22.8	0.00e+00	78	31	0	625999872	48	6373
2026-01-17 22:29:39.90	54.46	29.19	-38.6	-39.6	21.9	0.00e+00	0	31	0	628097024	48	6855
2026-01-17 22:29:40.90	54.13	29.23	-39.3	-40.4	21.6	0.00e+00	0	31	0	630194176	50	6753
2026-01-17 22:29:41.92	53.80	29.27	-39.7	-40.9	21.4	0.00e+00	0	31	0	631242752	52	6385
2026-01-17 22:29:42.93	53.47	29.31	-39.6	-40.7	21.6	0.00e+00	67	31	0	633339904	52	6203
2026-01-17 22:29:43.94	53.14	29.35	-39.8	-40.9	21.3	0.00e+00	0	31	0	635437056	52	6388
2026-01-17 22:29:44.95	52.81	29.39	-39.9	-41.1	21.3	0.00e+00	54	31	0	637534208	52	6480
2026-01-17 22:29:45.96	52.47	29.43	-39.8	-41.0	21.3	0.00e+00	66	31	0	639631360	52	6419
2026-01-17 22:29:46.97	52.14	29.46	-39.6	-40.7	21.6	0.00e+00	0	32	0	640679936	52	6236
2026-01-17 22:29:47.98	51.80	29.50	-39.6	-40.7	21.5	0.00e+00	65	31	0	642777088	52	6239
2026-01-17 22:29:48.99	51.47	29.53	-40.1	-41.4	21.0	0.00e+00	0	31	0	644874240	52	6697
2026-01-17 22:29:50.00	51.13	29.57	-39.4	-40.6	21.6	0.00e+00	92	31	0	646971392	52	6134
2026-01-17 22:29:51.01	50.80	29.60	-39.4	-40.5	21.7	0.00e+00	0	31	0	649068544	52	6103
2026-01-17 22:29:52.02	50.46	29.63	-39.0	-40.0	22.2	0.00e+00	87	31	0	650117120	52	5744
2026-01-17 22:29:53.03	50.12	29.66	-38.5	-39.5	22.5	0.00e+00	62	32	0	652214272	50	6085
2026-01-17 22:29:54.04	49.78	29.69	-38.3	-39.3	22.8	0.00e+00	0	32	0	654311424	50	5917
2026-01-17 22:29:55.05	49.44	29.71	-38.6	-39.6	22.6	0.00e+00	19	32	0	656408576	50	6133
2026-01-17 22:29:56.06	49.10	29.74	-39.0	-40.1	22.0	0.00e+00	0	31	0	658505728	50	6502
2026-01-17 22:29:57.07	48.76	29.77	-39.4	-40.5	21.7	0.00e+00	63	31	0	659554304	50	6809
2026-01-17 22:29:58.07	48.43	29.79	-39.6	-40.8	21.5	0.00e+00	0	31	0	661651456	50	7050
2026-01-17 22:29:59.08	48.09	29.81	-39.5	-40.6	21.5	0.00e+00	39	31	0	663748608	50	6908
2026-01-17 22:30:00.09	47.74	29.83	-39.1	-40.1	21.9	0.00e+00	30	31	0	665845760	50	6515
2026-01-17 22:30:01.10	47.40	29.86	-39.1	-40.1	22.0	0.00e+00	0	31	0	667942912	50	6516
2026-01-17 22:30:02.11	47.06	29.87	-39.1	-40.2	22.2	0.00e+00	54	32	0	670040064	50	6544
2026-01-17 22:30:03.12	46.72	29.89	-39.3	-40.3	21.8	0.00e+00	0	32	0	671088640	50	6687
2026-01-17 22:30:04.13	46.37	29.91	-39.9	-41.1	21.3	0.00e+00	91	32	0	673185792	52	6477
2026-01-17 22:30:05.14	46.03	29.93	-40.1	-41.3	20.9	0.00e+00	0	32	0	675282944	52	6684
2026-01-17 22:30:06.15	45.68	29.94	-40.0	-41.3	21.0	0.00e+00	92	32	0	677380096	52	6629
2026-01-17 22:30:07.16	45.34	29.96	-39.9	-41.1	21.0	0.00e+00	0	32	0	679477248	52	6518
2026-01-17 22:30:08.17	45.00	29.97	-39.7	-40.9	21.6	0.00e+00	0	32	0	680525824	52	6339
2026-01-17 22:30:09.18	44.65	29.98	-38.7	-39.7	22.4	0.00e+00	90	31	0	682622976	52	5535
2026-01-17 22:30:10.19	44.31	29.99	-37.9	-38.8	23.1	0.00e+00	0	31	0	684720128	50	5621
2026-01-17 22:30:11.20	43.96	30.00	-37.6	-38.5	23.3	0.00e+00	65	31	0	686817280	48	6074
2026-01-17 22:30:12.21	43.61	30.01	-37.8	-38.7	23.1	0.00e+00	0	32	0	688914432	48	6215
2026-01-17 22:30:13.21	43.27	30.01	-38.1	-39.1	22.7	0.00e+00	92	31	0	689963008	48	6482
2026-01-17 22:30:14.23	42.92	30.02	-39.0	-40.0	22.1	0.00e+00	33	31	0	692060160	50	6446
2026-01-17 22:30:15.24	42.58	30.03	-39.6	-40.8	21.5	0.00e+00	0	31	0	694157312	50	7029
2026-01-17 22:30:16.25	42.23	30.03	-39.8	-40.9	21.4	0.00e+00	63	31	0	696254464	52	6363
2026-01-17 22:30:17.26	41.89	30.03	-39.7	-40.9	21.4	0.00e+00	31	31	0	698351616	52	6342
2026-01-17 22:30:18.27	41.54	30.03	-39.8	-41.0	21.3	0.00e+00	68	31	0	699400192	52	6404
2026-01-17 22:30:19.28	41.19	30.03	-39.8	-40.9	21.4	0.00e+00	0	31	0	701497344	52	6383
2026-01-17 22:30:20.29	40.85	30.03	-39.7	-40.9	21.5	0.00e+00	92	31	0	703594496	52	6335
2026-01-17 22:30:21.30	40.50	30.03	-39.6	-40.8	21.5	0.00e+00	0	31	0	705691648	52	6248
2026-01-17 22:30:22.31	40.16	30.02	-38.9	-40.0	22.2	0.00e+00	32	31	0	707788800	52	5702
2026-01-17 22:30:23.32	39.81	30.02	-38.7	-39.7	22.3	0.00e+00	64	31	0	708837376	50	6235
2026-01-17 22:30:24.33	39.46	30.01	-38.4	-39.4	22.6	0.00e+00	0	31	0	710934528	50	6003
2026-01-17 22:30:25.34	39.12	30.01	-38.9	-40.0	22.2	0.00e+00	66	31	0	713031680	50	6391
2026-01-17 22:30:26.35	38.77	30.00	-39.3	-40.4	21.7	0.00e+00	0	31	0	715128832	50	6752
2026-01-17 22:30:27.36	38.43	29.99	-39.6	-40.7	21.4	0.00e+00	92	32	0	717225984	50	6970
2026-01-17 22:30:28.37	38.08	29.98	-39.6	-40.7	21.4	0.00e+00	0	31	0	718274560	50	6974
2026-01-17 22:30:29.38	37.74	29.97	-39.0	-40.0	21.6	0.00e+00	92	31	0	720371712	50	6455
2026-01-17 22:30:30.39	37.39	29.95	-38.6	-39.6	22.5	0.00e+00	65	31	0	722468864	50	6119
2026-01-17 22:30:31.40	37.05	29.94	-38.1	-39.0	22.8	0.00e+00	0	31	0	724566016	50	5728
2026-01-17 22:30:32.41	36.71	29.92	-38.2	-39.1	22.9	0.00e+00	90	31	0	726663168	50	5815
2026-01-17 22:30:33.42	36.36	29.91	-38.5	-39.5	22.4	0.00e+00	0	31	0	727711744	50	6089
2026-01-17 22:30:34.43	36.02	29.89	-39.4	-40.5	21.8	0.00e+00	68	31	0	729808896	50	6837
2026-01-17 22:30:35.44	35.68	29.87	-39.6	-40.8	21.5	0.00e+00	0	32	0	731906048	50	7008
2026-01-17 22:30:36.45	35.33	29.85	-39.4	-40.5	21.7	0.00e+00	68	32	0	734003200	50	6824
2026-01-17 22:30:37.46	34.99	29.83	-38.8	-39.9	22.1	0.00e+00	0	31	0	736100352	50	6331
2026-01-17 22:30:38.47	34.65	29.81	-38.6	-39.6	22.5	0.00e+00	0	31	0	738197504	50	6143
2026-01-17 22:30:39.48	34.31	29.78	-38.2	-39.2	22.6	0.00e+00	60	31	0	739246080	50	5835
2026-01-17 22:30:40.49	33.97	29.76	-38.5	-39.5	22.7	0.00e+00	0	31	0	741343232	50	6096
2026-01-17 22:30:41.50	33.63	29.74	-38.2	-39.2	22.7	0.00e+00	71	31	0	743440384	50	5888
2026-01-17 22:30:42.51	33.29	29.71	-38.6	-39.6	22.5	0.00e+00	0	31	0	745537536	50	6158
2026-01-17 22:30:43.52	32.95	29.68	-38.2	-39.1	22.8	0.00e+00	90	31	0	747634688	50	5821
2026-01-17 22:30:44.53	32.61	29.65	-38.1	-39.1	22.8	0.00e+00	0	31	0	748683264	50	5789
2026-01-17 22:30:45.54	32.28	29.62	-38.1	-39.0	22.8	0.00e+00	0	31	0	750780416	48	6439
2026-01-17 22:30:46.55	31.94	29.59	-37.7	-38.6	23.2	0.00e+00	68	32	0	752877568	48	6124
2026-01-17 22:30:47.56	31.60	29.56	-37.6	-38.5	23.3	0.00e+00	0	31	0	754974720	48	6060
2026-01-17 22:30:48.57	31.27	29.53	-37.4	-38.4	23.3	0.00e+00	59	31	0	757071872	48	5969
2026-01-17 22:30:49.58	30.93	29.49	-37.7	-38.6	23.0	0.00e+00	0	31	0	758120448	48	6156
2026-01-17 22:30:50.59	30.60	29.46	-37.7	-38.6	23.2	0.00e+00	92	31	0	760217600	48	6137
2026-01-17 22:30:51.60	30.27	29.42	-37.7	-38.6	23.2	0.00e+00	0	31	0	762314752	48	6143
2026-01-17 22:30:52.61	29.93	29.38	-37.9	-38.8	23.0	0.00e+00	0	31	0	764411904	48	6295
2026-01-17 22:30:53.62	29.60	29.35	-38.4	-39.4	22.5	0.00e+00	86	31	0	766509056	48	6742
2026-01-17 22:30:54.63	29.27	29.31	-38.8	-39.8	22.2	0.00e+00	0	31	0	767557632	48	7054
2026-01-17 22:30:55.64	28.94	29.27	-38.7	-39.7	22.3	0.00e+00	66	31	0	769654784	50	6208
2026-01-17 22:30:56.65	28.61	29.22	-38.7	-39.7	22.3	0.00e+00	0	31	0	771751936	50	6207
2026-01-17 22:30:57.66	28.28	29.18	-38.4	-39.4	22.5	0.00e+00	92	31	0	773849088	50	5992
2026-01-17 22:30:58.66	27.96	29.14	-38.2	-39.2	22.8	0.00e+00	0	32	0	775946240	50	5877
2026-01-17 22:30:59.67	27.63	29.09	-38.1	-39.1	22.8	0.00e+00	63	31	0	776994816	50	5770
2026-01-17 22:31:00.68	27.31	29.05	-38.3	-39.2	22.7	0.00e+00	61	31	0	779091968	50	5891
2026-01-17 22:31:01.68	26.98	29.00	-38.3	-39.3	22.5	0.00e+00	0	32	0	781189120	50	5933
2026-01-17 22:31:02.70	26.66	28.96	-38.7	-39.7	22.2	0.00e+00	23	31	0	783286272	50	6240
2026-01-17 22:31:03.70	26.34	28.91	-38.8	-39.8	22.3	0.00e+00	0	32	0	785383424	50	6308
2026-01-17 22:31:04.72	26.01	28.86	-38.6	-39.6	22.3	0.00e+00	92	31	0	786432000	50	6124
2026-01-17 22:31:05.72	25.70	28.81	-39.0	-40.1	22.1	0.00e+00	0	31	0	788529152	50	6477
2026-01-17 22:31:06.73	25.38	28.76	-38.6	-39.6	22.4	0.00e+00	56	32	0	790626304	50	6164
2026-01-17 22:31:07.74	25.06	28.71	-38.7	-39.7	22.4	0.00e+00	62	31	0	792723456	50	6218
2026-01-17 22:31:08.75	24.74	28.65	-38.7	-39.7	22.3	0.00e+00	0	32	0	794820608	50	6221
2026-01-17 22:31:09.76	24.42	28.60	-38.8	-39.8	22.2	0.00e+00	34	31	0	795869184	50	6287
2026-01-17 22:31:10.77	24.11	28.55	-38.6	-39.7	22.4	0.00e+00	0	31	0	797966336	50	6181
2026-01-17 22:31:11.77	23.80	28.49	-39.0	-40.0	22.1	0.00e+00	62	31	0	800063488	50	6456
2026-01-17 22:31:12.78	23.48	28.44	-38.7	-39.7	22.3	0.00e+00	0	31	0	802160640	50	6239
2026-01-17 22:31:13.79	23.17	28.38	-38.7	-39.7	22.3	0.00e+00	72	31	0	804257792	50	6191
2026-01-17 22:31:14.80	22.86	28.32	-38.9	-39.9	22.2	0.00e+00	0	31	0	806354944	50	6379
2026-01-17 22:31:15.81	22.55	28.26	-39.3	-40.4	21.7	0.00e+00	0	32	0	807403520	50	6712
2026-01-17 22:31:16.82	22.24	28.20	-40.1	-41.3	21.1	0.00e+00	92	31	0	809500672	52	6655
2026-01-17 22:31:17.83	21.93	28.14	-40.3	-41.6	20.7	0.00e+00	0	31	0	811597824	52	6896
2026-01-17 22:31:18.84	21.63	28.08	-40.6	-41.9	20.5	0.00e+00	92	31	0	813694976	52	7158
2026-01-17 22:31:19.85	21.32	28.02	-40.5	-41.8	20.4	0.00e+00	0	31	0	815792128	52	7033
2026-01-17 22:31:20.86	21.02	27.96	-40.6	-42.0	20.4	0.00e+00	92	31	0	816840704	54	6418
2026-01-17 22:31:21.87	20.71	27.89	-41.2	-42.6	19.7	0.00e+00	0	31	0	818937856	54	6927
2026-01-17 22:31:22.88	20.41	27.83	-41.6	-43.2	19.4	0.00e+00	0	31	0	821035008	56	6577
2026-01-17 22:31:23.89	20.11	27.77	-41.5	-43.1	19.3	0.00e+00	70	31	0	823132160	56	6476
2026-01-17 22:31:24.90	19.81	27.70	-41.3	-42.7	20.0	0.00e+00	0	32	0	825229312	56	6229
2026-01-17 22:31:25.90	19.52	27.64	-41.0	-42.5	20.1	0.00e+00	35	32	0	826277888	56	6035
2026-01-17 22:31:26.91	19.22	27.57	-40.7	-42.1	20.3	0.00e+00	0	31	0	828375040	54	6505
2026-01-17 22:31:27.92	18.92	27.50	-40.1	-41.4	20.6	0.00e+00	88	31	0	830472192	54	5984
2026-01-17 22:31:28.93	18.63	27.43	-39.3	-40.5	21.7	0.00e+00	0	32	0	832569344	52	6064
2026-01-17 22:31:29.94	18.34	27.36	-39.0	-40.1	21.7	0.00e+00	0	31	0	834666496	52	5762
2026-01-17 22:31:30.95	18.05	27.29	-38.8	-39.8	22.3	0.00e+00	64	31	0	835715072	52	5601
2026-01-17 22:31:31.96	17.75	27.22	-38.5	-39.5	22.3	0.00e+00	0	31	0	837812224	50	6100
2026-01-17 22:31:32.97	17.47	27.15	-38.6	-39.6	22.4	0.00e+00	76	32	0	839909376	50	6134
2026-01-17 22:31:33.98	17.18	27.08	-37.6	-38.5	23.3	0.00e+00	0	31	0	842006528	48	6041
2026-01-17 22:31:34.99	16.89	27.01	-37.1	-38.0	23.6	0.00e+00	0	31	0	844103680	48	5723
2026-01-17 22:31:36.00	16.61	26.94	-37.1	-37.9	23.8	0.00e+00	0	31	0	845152256	48	5685
2026-01-17 22:31:37.00	16.33	26.87	-37.6	-38.5	23.3	0.00e+00	0	31	0	847249408	48	6055
2026-01-17 22:31:38.01	16.04	26.79	-37.7	-38.6	23.2	0.00e+00	63	31	0	849346560	48	6121
2026-01-17 22:31:39.03	15.76	26.72	-37.4	-38.3	23.2	0.00e+00	0	31	0	851443712	48	5937
2026-01-17 22:31:40.04	15.48	26.64	-37.3	-38.1	23.2	0.00e+00	51	31	0	853540864	48	5806
2026-01-17 22:31:41.05	15.20	26.57	-37.7	-38.6	23.0	0.00e+00	0	31	0	854589440	48	6164
2026-01-17 22:31:42.06	14.92	26.49	-38.1	-39.0	22.8	0.00e+00	0	31	0	856686592	48	6457
2026-01-17 22:31:43.06	14.65	26.41	-38.6	-39.6	22.3	0.00e+00	0	32	0	858783744	48	6870
2026-01-17 22:31:44.07	14.38	26.34	-38.9	-39.9	22.1	0.00e+00	0	31	0	860880896	50	6348
2026-01-17 22:31:45.08	14.10	26.26	-39.0	-40.1	22.0	0.00e+00	31	32	0	862978048	50	6510
2026-01-17 22:31:46.09	13.83	26.18	-38.8	-39.8	22.1	0.00e+00	0	31	0	864026624	50	6311
2026-01-17 22:31:47.09	13.56	26.10	-38.9	-39.9	22.1	0.00e+00	27	31	0	866123776	50	6377
2026-01-17 22:31:48.10	13.29	26.03	-39.2	-40.4	21.7	0.00e+00	0	31	0	868220928	50	6714
2026-01-17 22:31:49.11	13.03	25.95	-40.0	-41.3	20.9	0.00e+00	25	32	0	870318080	52	6687
2026-01-17 22:31:50.12	12.76	25.87	-40.2	-41.5	20.8	0.00e+00	0	32	0	872415232	52	6808
2026-01-17 22:31:51.13	12.49	25.79	-40.1	-41.3	21.0	0.00e+00	0	31	0	874512384	52	6685
2026-01-17 22:31:52.13	12.23	25.71	-40.1	-41.4	20.9	0.00e+00	0	31	0	875560960	52	6704
2026-01-17 22:31:53.14	11.97	25.63	-39.7	-40.9	21.6	0.00e+00	0	31	0	877658112	52	6324
2026-01-17 22:31:54.15	11.71	25.54	-39.2	-40.3	21.8	0.00e+00	90	31	0	879755264	52	5920
2026-01-17 22:31:55.16	11.45	25.46	-38.8	-39.8	22.3	0.00e+00	0	31	0	881852416	50	6284
2026-01-17 22:31:56.17	11.19	25.38	-38.2	-39.2	22.8	0.00e+00	32	32	0	882900992	50	5835
2026-01-17 22:31:57.18	10.93	25.30	-37.9	-38.9	23.1	0.00e+00	0	31	0	884998144	50	5657
2026-01-17 22:31:58.19	10.68	25.21	-37.9	-38.9	23.1	0.00e+00	0	31	0	887095296	48	6319
2026-01-17 22:31:59.20	10.42	25.13	-37.8	-38.7	23.0	0.00e+00	0	31	0	889192448	48	6227
2026-01-17 22:32:00.21	10.17	25.05	-37.9	-38.8	23.1	0.00e+00	0	31	0	891289600	48	6304
2026-01-17 22:32:01.22	9.92	24.96	-37.3	-38.2	23.4	0.00e+00	67	31	0	892338176	48	5872
2026-01-17 22:32:02.23	9.67	24.88	-36.8	-37.7	23.7	0.00e+00	0	31	0	894435328	48	5534
2026-01-17 22:32:03.24	9.42	24.79	-37.1	-38.0	23.6	0.00e+00	92	31	0	896532480	48	5712
2026-01-17 22:32:04.26	9.17	24.71	-36.7	-37.6	23.8	0.00e+00	32	31	0	898629632	48	5464
2026-01-17 22:32:05.27	8.93	24.62	-36.6	-37.5	24.1	0.00e+00	0	31	0	900726784	46	6064
2026-01-17 22:32:06.28	8.68	24.54	-36.7	-37.6	24.0	0.00e+00	0	32	0	902823936	46	6144
2026-01-17 22:32:07.29	8.44	24.45	-36.7	-37.6	23.9	0.00e+00	0	31	0	903872512	46	6152
2026-01-17 22:32:08.30	8.20	24.36	-36.6	-37.5	24.0	0.00e+00	63	31	0	905969664	46	6084
2026-01-17 22:32:09.31	7.95	24.28	-36.5	-37.4	24.0	0.00e+00	0	32	0	908066816	46	5995
2026-01-17 22:32:10.32	7.72	24.19	-36.6	-37.4	24.1	0.00e+00	75	32	0	910163968	46	6019
2026-01-17 22:32:11.33	7.48	24.10	-36.6	-37.4	24.0	0.00e+00	0	31	0	912261120	46	6021
2026-01-17 22:32:12.34	7.24	24.02	-36.7	-37.5	24.0	0.00e+00	0	31	0	913309696	46	6100
2026-01-17 22:32:13.35	7.01	23.93	-36.5	-37.4	23.9	0.00e+00	0	31	0	915406848	46	5972
2026-01-17 22:32:14.36	6.77	23.84	-36.8	-37.6	24.0	0.00e+00	0	31	0	917504000	46	6152
2026-01-17 22:32:15.36	6.54	23.75	-36.9	-37.8	23.9	0.00e+00	11	31	0	919601152	46	6275
2026-01-17 22:32:16.37	6.31	23.67	-37.2	-38.1	23.4	0.00e+00	0	31	0	921698304	46	6465
2026-01-17 22:32:17.38	6.08	23.58	-37.4	-38.3	23.4	0.00e+00	73	31	0	922746880	46	6645
2026-01-17 22:32:18.39	5.85	23.49	-37.3	-38.2	23.6	0.00e+00	0	31	0	924844032	46	6557
2026-01-17 22:32:19.40	5.62	23.40	-37.5	-38.4	23.3	0.00e+00	33	31	0	926941184	46	6717
2026-01-17 22:32:20.41	5.40	23.31	-37.4	-38.3	23.4	0.00e+00	0	31	0	929038336	46	6660
2026-01-17 22:32:21.42	5.17	23.22	-37.4	-38.3	23.4	0.00e+00	0	31	0	931135488	46	6649
2026-01-17 22:32:22.43	4.95	23.13	-37.3	-38.2	23.6	0.00e+00	63	31	0	932184064	46	6561
2026-01-17 22:32:23.44	4.73	23.04	-37.4	-38.3	23.4	0.00e+00	0	31	0	934281216	46	6667
2026-01-17 22:32:24.45	4.51	22.95	-37.1	-38.0	23.7	0.00e+00	92	31	0	936378368	46	6421
2026-01-17 22:32:25.46	4.29	22.86	-37.1	-38.0	23.6	0.00e+00	0	31	0	938475520	46	6422
2026-01-17 22:32:26.47	4.07	22.77	-36.9	-37.7	23.7	0.00e+00	78	31	0	940572672	46	6243
2026-01-17 22:32:27.48	3.85	22.68	-36.6	-37.5	24.1	0.00e+00	0	31	0	942669824	46	6048
2026-01-17 22:32:28.49	3.64	22.59	-36.3	-37.1	24.3	0.00e+00	0	31	0	943718400	46	5811
2026-01-17 22:32:29.50	3.42	22.50	-36.0	-36.8	24.4	0.00e+00	0	31	0	945815552	46	5580
2026-01-17 22:32:30.50	3.21	22.41	-35.8	-36.6	24.7	0.00e+00	0	31	0	947912704	46	5448
2026-01-17 22:32:31.52	3.00	22.32	-35.4	-36.2	24.8	0.00e+00	56	31	0	950009856	44	5867
2026-01-17 22:32:32.53	2.78	22.23	-35.4	-36.2	24.9	0.00e+00	0	31	0	952107008	44	5885
2026-01-17 22:32:33.54	2.57	22.14	-35.7	-36.5	24.5	0.00e+00	79	31	0	953155584	44	6064
2026-01-17 22:32:34.55	2.37	22.05	-36.1	-36.9	24.6	0.00e+00	0	31	0	955252736	44	6346
2026-01-17 22:32:35.56	2.16	21.96	-36.3	-37.2	24.3	0.00e+00	0	31	0	957349888	44	6547
2026-01-17 22:32:36.57	1.95	21.87	-36.4	-37.3	24.1	0.00e+00	0	31	0	959447040	44	6640
2026-01-17 22:32:37.58	1.75	21.78	-36.5	-37.4	24.1	0.00e+00	0	31	0	961544192	44	6731
2026-01-17 22:32:38.59	1.55	21.69	-36.4	-37.3	24.1	0.00e+00	18	32	0	962592768	44	6624
2026-01-17 22:32:39.59	1.35	21.60	-36.0	-36.8	24.2	0.00e+00	0	31	0	964689920	44	6312
2026-01-17 22:32:40.60	1.14	21.51	-36.1	-36.9	24.4	0.00e+00	74	31	0	966787072	44	6366
2026-01-17 22:32:41.61	0.94	21.41	-36.2	-37.0	24.3	0.00e+00	0	31	0	968884224	44	6459
2026-01-17 22:32:42.62	0.75	21.32	-36.3	-37.1	24.2	0.00e+00	0	31	0	970981376	44	6522
2026-01-17 22:32:43.63	0.55	21.23	-36.4	-37.2	24.0	0.00e+00	0	31	0	972029952	44	6579
2026-01-17 22:32:44.64	0.35	21.14	-36.4	-37.3	24.1	0.00e+00	0	31	0	974127104	44	6652
2026-01-17 22:32:45.65	0.16	21.05	-36.6	-37.5	24.0	0.00e+00	55	31	0	976224256	44	6803
2026-01-17 22:32:46.66	359.96	20.96	-36.5	-37.4	24.0	0.00e+00	0	32	0	978321408	44	6704
2026-01-17 22:32:47.67	359.77	20.87	-36.8	-37.7	23.8	0.00e+00	71	31	0	980418560	44	6983
2026-01-17 22:32:48.68	359.58	20.78	-36.8	-37.6	23.8	0.00e+00	0	31	0	981467136	46	6147
2026-01-17 22:32:49.68	359.39	20.68	-36.7	-37.5	24.0	0.00e+00	0	31	0	983564288	46	6096
2026-01-17 22:32:50.69	359.20	20.59	-36.9	-37.8	23.8	0.00e+00	0	31	0	985661440	46	6291
2026-01-17 22:32:51.70	359.01	20.50	-36.8	-37.7	23.9	0.00e+00	0	31	0	987758592	46	6197
2026-01-17 22:32:52.71	358.83	20.41	-36.9	-37.7	23.7	0.00e+00	0	31	0	989855744	46	6220
2026-01-17 22:32:53.72	358.64	20.32	-36.2	-37.0	24.4	0.00e+00	0	31	0	990904320	46	5753
2026-01-17 22:32:54.73	358.46	20.23	-36.2	-37.0	24.3	0.00e+00	62	31	0	993001472	46	5720
2026-01-17 22:32:55.74	358.27	20.14	-35.8	-36.6	24.6	0.00e+00	0	31	0	995098624	46	5478
2026-01-17 22:32:56.75	358.09	20.05	-35.8	-36.6	24.7	0.00e+00	68	32	0	997195776	44	6142
2026-01-17 22:32:57.76	357.91	19.95	-36.1	-36.9	24.4	0.00e+00	0	32	0	999292928	44	6331
2026-01-17 22:32:58.77	357.73	19.86	-36.5	-37.4	24.1	0.00e+00	0	32	0	1000341504	44	6719
2026-01-17 22:32:59.78	357.55	19.77	-36.6	-37.5	23.9	0.00e+00	0	31	0	1002438656	44	6809
2026-01-17 22:33:00.79	357.37	19.68	-36.8	-37.7	23.9	0.00e+00	0	31	0	1004535808	46	6231
2026-01-17 22:33:01.79	357.20	19.59	-37.5	-38.4	23.3	0.00e+00	57	32	0	1006632960	46	6732
2026-01-17 22:33:02.80	357.02	19.50	-37.6	-38.6	23.2	0.00e+00	0	32	0	1008730112	46	6850
2026-01-17 22:33:03.81	356.84	19.41	-37.5	-38.5	23.2	0.00e+00	92	31	0	1009778688	46	6771
2026-01-17 22:33:04.82	356.67	19.32	-37.4	-38.3	23.5	0.00e+00	0	31	0	1011875840	46	6632
2026-01-17 22:33:05.83	356.50	19.23	-37.0	-37.9	23.6	0.00e+00	0	31	0	1013972992	46	6347
2026-01-17 22:33:06.85	356.32	19.13	-36.6	-37.4	24.0	0.00e+00	0	31	0	1016070144	46	6006
2026-01-17 22:33:07.86	356.15	19.04	-36.7	-37.5	24.1	0.00e+00	0	32	0	1018167296	46	6089
2026-01-17 22:33:08.87	355.98	18.95	-36.5	-37.3	24.1	0.00e+00	60	31	0	1019215872	46	5949
2026-01-17 22:33:09.87	355.82	18.86	-36.5	-37.3	24.1	0.00e+00	0	32	0	1021313024	46	5958
2026-01-17 22:33:10.88	355.65	18.77	-36.6	-37.4	24.0	0.00e+00	81	31	0	1023410176	46	6012
2026-01-17 22:33:11.89	355.48	18.68	-36.8	-37.7	23.7	0.00e+00	0	31	0	1025507328	46	6224
2026-01-17 22:33:12.90	355.32	18.59	-37.1	-38.0	23.3	0.00e+00	0	31	0	1027604480	46	6408
2026-01-17 22:33:13.91	355.15	18.50	-37.0	-37.9	23.2	0.00e+00	0	32	0	1028653056	46	6377
2026-01-17 22:33:14.92	354.99	18.41	-37.5	-38.4	23.2	0.00e+00	0	31	0	1030750208	46	6743
2026-01-17 22:33:15.93	354.83	18.32	-37.5	-38.5	23.1	0.00e+00	60	31	0	1032847360	46	6798
2026-01-17 22:33:16.94	354.66	18.23	-38.1	-39.2	22.5	0.00e+00	0	32	0	1034944512	48	6554
2026-01-17 22:33:17.95	354.50	18.14	-38.3	-39.4	22.5	0.00e+00	92	32	0	1037041664	48	6703
2026-01-17 22:33:18.96	354.34	18.05	-38.3	-39.3	22.1	0.00e+00	0	31	0	1039138816	48	6673
2026-01-17 22:33:19.97	354.19	17.96	-38.2	-39.2	22.6	0.00e+00	0	31	0	1040187392	48	6609
2026-01-17 22:33:20.98	354.03	17.87	-38.1	-39.1	22.7	0.00e+00	0	32	0	1042284544	48	6486
2026-01-17 22:33:21.99	353.87	17.78	-38.0	-39.0	22.7	0.00e+00	0	31	0	1044381696	48	6432
2026-01-17 22:33:23.00	353.71	17.69	-37.8	-38.7	23.0	0.00e+00	58	31	0	1046478848	48	6212
2026-01-17 22:33:24.01	353.56	17.60	-37.5	-38.4	23.2	0.00e+00	0	31	0	1048576000	48	5992
2026-01-17 22:33:25.02	353.41	17.51	-37.5	-38.4	23.2	0.00e+00	91	31	0	1049624576	48	6005
2026-01-17 22:33:26.03	353.25	17.42	-37.4	-38.4	23.3	0.00e+00	0	32	0	1051721728	48	5977
2026-01-17 22:33:27.04	353.10	17.34	-37.7	-38.7	23.0	0.00e+00	0	31	0	1053818880	48	6195
2026-01-17 22:33:28.05	352.95	17.25	-38.2	-39.2	22.4	0.00e+00	0	31	0	1055916032	48	6580
2026-01-17 22:33:29.06	352.80	17.16	-38.4	-39.4	22.4	0.00e+00	0	31	0	1058013184	48	6769
2026-01-17 22:33:30.07	352.65	17.07	-38.4	-39.4	22.4	0.00e+00	60	32	0	1059061760	48	6744
2026-01-17 22:33:31.08	352.50	16.98	-38.5	-39.6	22.4	0.00e+00	0	31	0	1061158912	48	6853
2026-01-17 22:33:32.09	352.35	16.89	-38.5	-39.5	22.3	0.00e+00	92	32	0	1063256064	48	6829
2026-01-17 22:33:33.10	352.21	16.80	-38.3	-39.4	22.4	0.00e+00	0	31	0	1065353216	48	6696
2026-01-17 22:33:34.11	352.06	16.71	-38.1	-39.1	22.7	0.00e+00	69	31	0	1067450368	48	6539
2026-01-17 22:33:35.12	351.92	16.63	-38.0	-38.9	22.9	0.00e+00	0	31	0	1068498944	48	6379
2026-01-17 22:33:36.13	351.77	16.54	-37.2	-38.1	23.4	0.00e+00	0	31	0	1070596096	48	5773
2026-01-17 22:33:37.14	351.63	16.45	-37.3	-38.2	23.3	0.00e+00	27	31	0	1072693248	48	5886
2026-01-17 22:33:38.15	351.49	16.36	-37.2	-38.1	23.4	0.00e+00	0	32	0	1074790400	48	5783
2026-01-17 22:33:39.16	351.34	16.28	-37.2	-38.1	23.5	0.00e+00	24	31	0	1076887552	48	5797
2026-01-17 22:33:40.17	351.20	16.19	-37.1	-38.0	23.5	0.00e+00	0	31	0	1077936128	48	5713
2026-01-17 22:33:41.18	351.06	16.10	-37.1	-38.0	23.5	0.00e+00	91	31	0	1080033280	48	5736
2026-01-17 22:33:42.19	350.92	16.01	-37.0	-37.9	23.7	0.00e+00	0	31	0	1082130432	48	5642
2026-01-17 22:33:43.20	350.79	15.93	-37.1	-38.0	23.5	0.00e+00	33	32	0	1084227584	48	5702
2026-01-17 22:33:44.21	350.65	15.84	-37.6	-38.5	23.4	0.00e+00	0	31	0	1086324736	48	6063
2026-01-17 22:33:45.22	350.51	15.75	-37.3	-38.2	23.3	0.00e+00	0	31	0	1087373312	48	5850
2026-01-17 22:33:46.23	350.38	15.67	-37.7	-38.7	22.9	0.00e+00	92	31	0	1089470464	48	6185
2026-01-17 22:33:47.24	350.24	15.58	-37.8	-38.7	23.0	0.00e+00	0	32	0	1091567616	48	6207
2026-01-17 22:33:48.25	350.11	15.49	-37.9	-38.8	22.9	0.00e+00	92	31	0	1093664768	48	6284
2026-01-17 22:33:49.26	349.97	15.41	-37.9	-38.8	22.9	0.00e+00	0	31	0	1095761920	48	6298
2026-01-17 22:33:50.27	349.84	15.32	-38.1	-39.0	22.7	0.00e+00	0	31	0	1096810496	48	6438
2026-01-17 22:33:51.28	349.71	15.24	-38.0	-39.0	22.7	0.00e+00	0	31	0	1098907648	48	6402
2026-01-17 22:33:52.29	349.58	15.15	-37.7	-38.6	23.0	0.00e+00	0	31	0	1101004800	48	6131
2026-01-17 22:33:53.29	349.45	15.07	-37.7	-38.6	22.9	0.00e+00	60	31	0	1103101952	48	6168
2026-01-17 22:33:54.31	349.32	14.98	-37.5	-38.4	23.1	0.00e+00	0	31	0	1105199104	48	6022
2026-01-17 22:33:55.32	349.19	14.89	-37.7	-38.6	23.0	0.00e+00	67	31	0	1107296256	48	6141
2026-01-17 22:33:56.33	349.06	14.81	-37.9	-38.9	22.9	0.00e+00	0	31	0	1108344832	48	6319
2026-01-17 22:33:57.34	348.93	14.72	-38.0	-39.0	22.7	0.00e+00	0	31	0	1110441984	48	6425
2026-01-17 22:33:58.35	348.81	14.64	-38.4	-39.5	22.2	0.00e+00	0	32	0	1112539136	48	6780
2026-01-17 22:33:59.36	348.68	14.55	-38.6	-39.7	22.0	0.00e+00	0	31	0	1114636288	48	6950
2026-01-17 22:34:00.37	348.56	14.47	-39.1	-40.2	21.6	0.00e+00	54	31	0	1116733440	50	6582
2026-01-17 22:34:01.38	348.43	14.38	-39.5	-40.7	21.3	0.00e+00	0	31	0	1117782016	50	6936
2026-01-17 22:34:02.39	348.31	14.30	-39.9	-41.2	20.8	0.00e+00	64	31	0	1119879168	52	6595
2026-01-17 22:34:03.40	348.19	14.22	-39.8	-41.0	20.9	0.00e+00	0	31	0	1121976320	52	6443
2026-01-17 22:34:04.41	348.06	14.13	-39.8	-41.1	20.9	0.00e+00	13	31	0	1124073472	52	6470
2026-01-17 22:34:05.42	347.94	14.05	-39.4	-40.6	21.4	0.00e+00	0	31	0	1126170624	52	6153
2026-01-17 22:34:06.43	347.82	13.97	-39.2	-40.4	21.5	0.00e+00	0	31	0	1127219200	52	5984
2026-01-17 22:34:07.44	347.70	13.88	-39.1	-40.2	21.7	0.00e+00	59	32	0	1129316352	52	5875
2026-01-17 22:34:08.45	347.58	13.80	-38.4	-39.4	22.4	0.00e+00	0	31	0	1131413504	50	6026
2026-01-17 22:34:09.46	347.46	13.72	-38.0	-39.0	22.7	0.00e+00	88	31	0	1133510656	50	5718
2026-01-17 22:34:10.47	347.35	13.63	-37.8	-38.8	22.8	0.00e+00	0	31	0	1135607808	50	5602
2026-01-17 22:34:11.48	347.23	13.55	-37.8	-38.7	23.0	0.00e+00	0	32	0	1136656384	48	6240
2026-01-17 22:34:12.48	347.11	13.47	-37.7	-38.6	23.0	0.00e+00	0	31	0	1138753536	48	6159
2026-01-17 22:34:13.49	347.00	13.39	-37.4	-38.4	23.1	0.00e+00	0	31	0	1140850688	48	5990
2026-01-17 22:34:14.50	346.88	13.30	-37.7	-38.7	22.9	0.00e+00	0	31	0	1142947840	48	6180
2026-01-17 22:34:15.51	346.77	13.22	-38.0	-39.0	22.8	0.00e+00	0	31	0	1145044992	48	6434
2026-01-17 22:34:16.52	346.65	13.14	-38.5	-39.6	22.0	0.00e+00	49	31	0	1146093568	48	6879
2026-01-17 22:34:17.53	346.54	13.06	-38.9	-40.0	21.9	0.00e+00	0	32	0	1148190720	50	6449
2026-01-17 22:34:18.54	346.43	12.98	-39.3	-40.5	21.5	0.00e+00	20	31	0	1150287872	50	6775
2026-01-17 22:34:19.55	346.31	12.89	-39.5	-40.7	21.2	0.00e+00	0	31	0	1152385024	50	6974
2026-01-17 22:34:20.56	346.20	12.81	-39.7	-41.0	21.0	0.00e+00	0	31	0	1154482176	52	6426
2026-01-17 22:34:21.57	346.09	12.73	-39.7	-41.0	21.0	0.00e+00	0	31	0	1155530752	52	6400
2026-01-17 22:34:22.58	345.98	12.65	-40.1	-41.4	20.7	0.00e+00	0	32	0	1157627904	52	6730
2026-01-17 22:34:23.59	345.87	12.57	-40.2	-41.5	20.4	0.00e+00	35	31	0	1159725056	52	6832
2026-01-17 22:34:24.60	345.76	12.49	-40.1	-41.5	20.8	0.00e+00	0	31	0	1161822208	52	6770
2026-01-17 22:34:25.61	345.66	12.41	-40.2	-41.6	20.5	0.00e+00	91	31	0	1163919360	52	6884
2026-01-17 22:34:26.62	345.55	12.33	-40.2	-41.6	20.4	0.00e+00	0	31	0	1164967936	52	6863
2026-01-17 22:34:27.63	345.44	12.25	-40.0	-41.3	20.7	0.00e+00	0	31	0	1167065088	52	6634
2026-01-17 22:34:28.64	345.33	12.17	-39.9	-41.2	20.7	0.00e+00	0	31	0	1169162240	52	6547
2026-01-17 22:34:29.65	345.23	12.09	-40.1	-41.4	20.7	0.00e+00	0	31	0	1171259392	52	6731
2026-01-17 22:34:30.66	345.12	12.01	-39.9	-41.2	20.8	0.00e+00	52	32	0	1173356544	52	6571
2026-01-17 22:34:31.67	345.02	11.93	-39.8	-41.1	20.9	0.00e+00	0	32	0	1175453696	52	6483
2026-01-17 22:34:32.68	344.91	11.85	-39.8	-41.1	20.9	0.00e+00	72	32	0	1176502272	52	6515
2026-01-17 22:34:33.69	344.81	11.77	-39.8	-41.0	20.9	0.00e+00	0	31	0	1178599424	52	6450
2026-01-17 22:34:34.70	344.71	11.69	-39.8	-41.1	20.8	0.00e+00	0	31	0	1180696576	52	6495
2026-01-17 22:34:35.70	344.61	11.61	-39.8	-41.1	20.8	0.00e+00	0	31	0	1182793728	52	6470
2026-01-17 22:34:36.71	344.50	11.53	-39.7	-40.9	20.7	0.00e+00	0	32	0	1184890880	52	6381
2026-01-17 22:34:37.72	344.40	11.46	-39.9	-41.1	20.6	0.00e+00	54	32	0	1185939456	52	6525
2026-01-17 22:34:38.73	344.30	11.38	-39.9	-41.2	20.8	0.00e+00	0	31	0	1188036608	52	6548
2026-01-17 22:34:39.74	344.20	11.30	-39.8	-41.1	20.9	0.00e+00	91	32	0	1190133760	52	6486
2026-01-17 22:34:40.75	344.10	11.22	-40.2	-41.5	20.5	0.00e+00	0	32	0	1192230912	52	6797
2026-01-17 22:34:41.77	344.00	11.14	-40.3	-41.6	20.4	0.00e+00	0	32	0	1194328064	52	6878
2026-01-17 22:34:42.77	343.91	11.06	-40.2	-41.5	20.6	0.00e+00	0	32	0	1195376640	52	6782
2026-01-17 22:34:43.78	343.81	10.99	-40.3	-41.6	20.5	0.00e+00	0	32	0	1197473792	52	6879
2026-01-17 22:34:44.79	343.71	10.91	-40.2	-41.6	20.6	0.00e+00	0	31	0	1199570944	52	6858
2026-01-17 22:34:45.80	343.61	10.83	-40.1	-41.4	20.5	0.00e+00	0	31	0	1201668096	52	6718
