passes_logs/2026/01/17/R4.6S_Anadyr/R4.6S_Anadyr__20260117_190638_SUOMI_NPP_rec.log

#Pass ID: 20260117_190638_SUOMI NPP
#Satellite: SUOMI NPP
#Configuration: NPP
#almurnet v.1.7.20251203
#Start time: 2026-01-17 19:06:40

#Version: 2.2.20231116
#Station: R4.6S_Anadyr
#Location: 177.4865 lon 64.73178 lat
#TLE: 1 37849U 11061A   26016.58419598  .00000058  00000+0  48257-4 0  9996
#TLE: 2 37849  98.7812 318.6192 0002422  60.8544 299.2874 14.19525580736934

#Time	Az	El	Level	Level2	SNR	BER	BlckErr	Temp	State	Recorded	gain1	gain2
2026-01-17 19:06:40.97	47.60	0.12	-48.6	-60.3	3.5	8.45e-01	0	27	0	0	60	37450
2026-01-17 19:06:41.98	47.52	0.17	-49.1	-64.3	3.6	1.51e+00	0	28	104	0	60	59001
2026-01-17 19:06:42.99	47.45	0.21	-48.9	-64.1	3.6	1.51e+00	0	28	104	0	60	57691
2026-01-17 19:06:44.00	47.37	0.26	-48.8	-64.0	3.6	1.51e+00	0	28	104	0	60	57310
2026-01-17 19:06:45.01	47.29	0.31	-48.8	-64.0	3.6	1.51e+00	0	28	104	0	60	57152
2026-01-17 19:06:46.02	47.22	0.36	-48.8	-64.0	3.5	1.51e+00	0	28	104	0	60	57020
2026-01-17 19:06:47.03	47.14	0.41	-48.8	-64.0	3.6	1.51e+00	0	28	104	0	60	57609
2026-01-17 19:06:48.04	47.06	0.46	-48.8	-64.0	3.6	1.51e+00	0	29	104	0	60	57574
2026-01-17 19:06:49.05	46.99	0.51	-48.8	-64.0	3.6	1.51e+00	0	28	104	0	60	57076
2026-01-17 19:06:50.06	46.91	0.56	-48.7	-64.0	3.6	1.51e+00	0	29	104	0	60	57023
2026-01-17 19:06:51.07	46.83	0.61	-48.7	-63.9	3.6	1.51e+00	0	29	104	0	60	56583
2026-01-17 19:06:52.08	46.75	0.66	-48.7	-63.9	3.6	1.51e+00	0	29	104	0	60	56428
2026-01-17 19:06:53.09	46.67	0.71	-48.7	-63.8	3.6	1.51e+00	0	29	104	0	60	55908
2026-01-17 19:06:54.10	46.59	0.76	-48.6	-63.8	3.6	1.51e+00	0	29	104	0	60	55739
2026-01-17 19:06:55.11	46.51	0.81	-48.5	-63.6	3.6	1.51e+00	0	29	104	0	60	54788
2026-01-17 19:06:56.12	46.44	0.86	-48.3	-63.5	3.6	1.51e+00	0	29	104	0	60	53819
2026-01-17 19:06:57.13	46.36	0.91	-48.0	-63.2	3.6	1.51e+00	0	29	104	0	60	51961
2026-01-17 19:06:58.14	46.28	0.96	-47.5	-62.6	3.6	1.51e+00	0	29	104	0	60	48672
2026-01-17 19:06:59.15	46.20	1.01	-47.1	-62.3	3.6	1.51e+00	0	29	104	0	60	47105
2026-01-17 19:07:00.16	46.12	1.06	-47.1	-62.3	3.6	1.51e+00	0	29	104	0	60	47151
2026-01-17 19:07:01.17	46.03	1.11	-47.1	-62.3	3.6	1.51e+00	0	29	104	0	60	46953
2026-01-17 19:07:02.18	45.95	1.16	-47.1	-62.3	3.6	1.51e+00	0	29	104	0	60	47087
2026-01-17 19:07:03.19	45.87	1.21	-47.1	-62.3	3.6	1.51e+00	0	29	104	0	60	47018
2026-01-17 19:07:04.20	45.79	1.26	-47.1	-62.3	3.6	1.51e+00	0	29	104	0	60	46882
2026-01-17 19:07:05.21	45.71	1.31	-47.1	-62.3	3.6	1.51e+00	0	29	104	0	60	46943
2026-01-17 19:07:06.22	45.63	1.36	-47.1	-62.3	3.6	1.51e+00	0	29	104	0	60	47006
2026-01-17 19:07:07.23	45.54	1.41	-47.1	-62.3	3.6	1.51e+00	0	29	104	0	60	46840
2026-01-17 19:07:08.24	45.46	1.46	-47.1	-62.3	3.6	1.51e+00	0	29	104	0	60	46968
2026-01-17 19:07:09.25	45.38	1.51	-47.1	-62.2	3.6	1.51e+00	0	29	104	0	60	46499
2026-01-17 19:07:10.26	45.29	1.56	-47.1	-62.2	3.6	1.51e+00	0	29	104	0	60	46441
2026-01-17 19:07:11.27	45.21	1.61	-47.1	-62.1	3.6	1.51e+00	0	29	104	0	60	46276
2026-01-17 19:07:12.28	45.13	1.66	-47.1	-62.2	3.6	1.51e+00	0	29	104	0	60	46568
2026-01-17 19:07:13.29	45.04	1.71	-47.1	-62.2	3.6	1.51e+00	0	29	104	0	60	46472
2026-01-17 19:07:14.30	44.96	1.76	-47.1	-62.2	3.6	1.51e+00	0	29	104	0	60	46594
2026-01-17 19:07:15.31	44.87	1.81	-47.1	-62.2	3.6	1.51e+00	0	29	104	0	60	46503
2026-01-17 19:07:16.33	44.79	1.86	-47.1	-62.2	3.6	1.51e+00	0	29	104	0	60	46598
2026-01-17 19:07:17.34	44.70	1.91	-47.1	-62.1	3.6	1.51e+00	0	29	104	0	60	46122
2026-01-17 19:07:18.34	44.62	1.96	-47.1	-62.0	3.6	1.51e+00	0	29	104	0	60	45707
2026-01-17 19:07:19.36	44.53	2.01	-47.1	-62.0	3.6	1.51e+00	0	29	104	0	60	45490
2026-01-17 19:07:20.37	44.44	2.06	-47.0	-61.8	3.6	1.51e+00	0	29	104	0	60	44508
2026-01-17 19:07:21.38	44.36	2.11	-47.0	-61.6	3.6	1.51e+00	0	29	104	0	60	43693
2026-01-17 19:07:22.38	44.27	2.16	-47.0	-61.7	3.6	1.51e+00	0	29	104	0	60	43832
2026-01-17 19:07:23.39	44.18	2.21	-47.0	-61.8	3.6	1.51e+00	0	29	104	0	60	44390
2026-01-17 19:07:24.40	44.10	2.26	-47.0	-62.0	3.6	1.51e+00	0	29	104	0	60	45348
2026-01-17 19:07:25.41	44.01	2.31	-47.1	-62.2	3.6	1.51e+00	0	29	104	0	60	46308
2026-01-17 19:07:26.42	43.92	2.36	-47.1	-62.2	3.6	1.51e+00	0	29	104	0	60	46821
2026-01-17 19:07:27.43	43.83	2.41	-47.1	-62.2	3.6	1.51e+00	0	29	104	0	60	46436
2026-01-17 19:07:28.44	43.74	2.46	-47.1	-62.2	3.6	1.51e+00	0	29	104	0	60	46569
2026-01-17 19:07:29.45	43.65	2.52	-47.1	-62.3	3.6	1.51e+00	0	29	104	0	60	47144
2026-01-17 19:07:30.46	43.56	2.57	-47.1	-62.1	3.6	1.51e+00	0	29	104	0	60	46092
2026-01-17 19:07:31.47	43.47	2.62	-47.0	-61.7	3.6	1.51e+00	0	29	104	0	60	43899
2026-01-17 19:07:32.48	43.38	2.67	-47.0	-61.1	3.6	1.51e+00	0	29	104	0	60	40840
2026-01-17 19:07:33.49	43.29	2.72	-47.0	-61.0	3.6	1.51e+00	0	29	104	0	60	40415
2026-01-17 19:07:34.50	43.20	2.77	-47.0	-61.7	3.6	1.51e+00	0	29	104	0	60	43729
2026-01-17 19:07:35.51	43.11	2.82	-47.0	-61.7	3.6	1.51e+00	0	29	104	0	60	43721
2026-01-17 19:07:36.52	43.02	2.87	-46.9	-59.0	3.7	1.50e+00	0	29	104	0	60	32333
2026-01-17 19:07:37.53	42.93	2.92	-46.5	-54.8	6.3	8.76e-01	0	29	0	0	60	19947
2026-01-17 19:07:38.54	42.84	2.97	-45.8	-51.3	9.3	5.16e-02	73	29	0	2097152	60	13340
2026-01-17 19:07:39.55	42.74	3.02	-45.2	-49.6	11.3	4.76e-03	0	29	0	3145728	60	10940
2026-01-17 19:07:40.56	42.65	3.07	-46.5	-54.3	4.9	4.14e-04	90	29	0	5242880	60	18768
2026-01-17 19:07:41.57	42.56	3.13	-47.2	-61.2	3.6	1.51e+00	0	29	104	5242880	60	41647
2026-01-17 19:07:42.58	42.46	3.18	-44.9	-49.2	5.6	1.49e+00	0	29	104	5242880	60	10465
2026-01-17 19:07:43.59	42.37	3.23	-42.4	-44.6	16.8	1.92e-02	28	29	0	5242880	60	6135
2026-01-17 19:07:44.60	42.28	3.28	-46.3	-54.0	3.7	1.14e-03	0	29	0	7340032	60	18016
2026-01-17 19:07:45.61	42.18	3.33	-46.0	-52.3	5.6	1.51e+00	3	29	104	7340032	60	14849
2026-01-17 19:07:46.62	42.09	3.38	-42.5	-44.8	16.1	1.56e-01	0	29	0	7340032	58	7052
2026-01-17 19:07:47.63	41.99	3.43	-42.4	-44.6	16.6	0.00e+00	28	29	0	8388608	58	6873
2026-01-17 19:07:48.65	41.90	3.48	-42.6	-44.9	16.1	0.00e+00	0	29	0	10485760	58	7094
2026-01-17 19:07:49.66	41.80	3.53	-42.6	-44.9	16.2	0.00e+00	88	29	0	12582912	58	7111
2026-01-17 19:07:50.67	41.70	3.59	-42.5	-44.8	16.5	0.00e+00	0	29	0	14680064	58	7032
2026-01-17 19:07:51.68	41.61	3.64	-42.6	-44.9	16.5	0.00e+00	0	29	0	16777216	58	7113
2026-01-17 19:07:52.69	41.51	3.69	-42.4	-44.6	16.7	0.00e+00	92	29	0	17825792	58	6865
2026-01-17 19:07:53.70	41.41	3.74	-42.2	-44.3	17.0	0.00e+00	0	29	0	19922944	58	6619
2026-01-17 19:07:54.71	41.32	3.79	-42.4	-44.5	16.8	0.00e+00	83	29	0	22020096	58	6814
2026-01-17 19:07:55.72	41.22	3.84	-42.3	-44.4	16.9	0.00e+00	0	29	0	24117248	58	6737
2026-01-17 19:07:56.73	41.12	3.89	-42.5	-44.7	16.6	0.00e+00	85	29	0	26214400	58	6953
2026-01-17 19:07:57.74	41.02	3.94	-42.4	-44.5	16.8	0.00e+00	0	29	0	27262976	58	6839
2026-01-17 19:07:58.75	40.92	4.00	-42.5	-44.7	16.7	0.00e+00	0	29	0	29360128	58	6965
2026-01-17 19:07:59.76	40.82	4.05	-42.2	-44.3	17.1	0.00e+00	92	29	0	31457280	58	6680
2026-01-17 19:08:00.77	40.72	4.10	-42.0	-43.9	17.4	0.00e+00	0	29	0	33554432	58	6385
2026-01-17 19:08:01.78	40.62	4.15	-42.1	-44.1	17.3	0.00e+00	82	29	0	35651584	58	6478
2026-01-17 19:08:02.78	40.52	4.20	-42.1	-44.1	17.2	0.00e+00	0	29	0	36700160	58	6506
2026-01-17 19:08:03.79	40.42	4.25	-42.0	-44.0	17.4	0.00e+00	90	29	0	38797312	58	6402
2026-01-17 19:08:04.80	40.32	4.30	-42.3	-44.3	17.2	0.00e+00	0	29	0	40894464	58	6668
2026-01-17 19:08:05.81	40.22	4.35	-42.2	-44.3	17.1	0.00e+00	6	29	0	42991616	58	6644
2026-01-17 19:08:06.82	40.12	4.41	-42.3	-44.4	17.1	0.00e+00	30	29	0	45088768	58	6719
2026-01-17 19:08:07.83	40.02	4.46	-42.1	-44.1	17.3	0.00e+00	0	29	0	46137344	58	6474
2026-01-17 19:08:08.84	39.91	4.51	-42.0	-43.9	17.5	0.00e+00	79	29	0	48234496	58	6363
2026-01-17 19:08:09.85	39.81	4.56	-42.1	-44.0	17.4	0.00e+00	0	29	0	50331648	58	6460
2026-01-17 19:08:10.86	39.71	4.61	-42.1	-44.1	17.4	0.00e+00	64	29	0	52428800	58	6494
2026-01-17 19:08:11.88	39.60	4.66	-41.9	-43.8	17.6	0.00e+00	0	29	0	54525952	58	6313
2026-01-17 19:08:12.89	39.50	4.72	-42.2	-44.3	17.4	0.00e+00	75	29	0	56623104	58	6673
2026-01-17 19:08:13.90	39.39	4.77	-42.2	-44.2	17.4	0.00e+00	34	29	0	57671680	58	6595
2026-01-17 19:08:14.91	39.29	4.82	-42.0	-44.0	17.5	0.00e+00	0	29	0	59768832	58	6408
2026-01-17 19:08:15.92	39.18	4.87	-42.0	-44.0	17.5	0.00e+00	49	29	0	61865984	58	6399
2026-01-17 19:08:16.93	39.08	4.92	-41.9	-43.8	17.7	0.00e+00	33	29	0	63963136	58	6249
2026-01-17 19:08:17.94	38.97	4.97	-41.9	-43.8	17.7	0.00e+00	70	29	0	66060288	58	6265
2026-01-17 19:08:18.95	38.87	5.02	-42.0	-43.9	17.6	0.00e+00	0	29	0	67108864	58	6386
2026-01-17 19:08:19.95	38.76	5.08	-42.2	-44.1	17.4	0.00e+00	92	29	0	69206016	58	6533
2026-01-17 19:08:20.96	38.65	5.13	-42.0	-43.9	17.6	0.00e+00	0	29	0	71303168	58	6359
2026-01-17 19:08:21.98	38.54	5.18	-42.0	-43.9	17.8	0.00e+00	0	29	0	73400320	58	6332
2026-01-17 19:08:22.99	38.44	5.23	-42.0	-43.9	17.7	0.00e+00	92	29	0	75497472	56	7117
2026-01-17 19:08:24.00	38.33	5.28	-42.0	-43.9	17.7	0.00e+00	0	29	0	76546048	56	7138
2026-01-17 19:08:25.01	38.22	5.33	-41.8	-43.6	18.0	0.00e+00	92	29	0	78643200	56	6897
2026-01-17 19:08:26.02	38.11	5.39	-41.8	-43.6	18.1	0.00e+00	0	29	0	80740352	56	6860
2026-01-17 19:08:27.03	38.00	5.44	-41.9	-43.7	17.8	0.00e+00	92	29	0	82837504	56	7006
2026-01-17 19:08:28.04	37.89	5.49	-41.7	-43.4	18.1	0.00e+00	0	29	0	84934656	56	6747
2026-01-17 19:08:29.05	37.78	5.54	-41.8	-43.6	18.0	0.00e+00	0	29	0	85983232	56	6903
2026-01-17 19:08:30.06	37.67	5.59	-41.8	-43.6	17.9	0.00e+00	0	29	0	88080384	56	6863
2026-01-17 19:08:31.07	37.56	5.64	-41.8	-43.6	17.9	0.00e+00	0	29	0	90177536	56	6894
2026-01-17 19:08:32.08	37.45	5.70	-41.9	-43.8	17.9	0.00e+00	3	29	0	92274688	56	7054
2026-01-17 19:08:33.09	37.33	5.75	-41.8	-43.6	18.0	0.00e+00	33	29	0	94371840	56	6906
2026-01-17 19:08:34.10	37.22	5.80	-41.6	-43.4	18.2	0.00e+00	0	29	0	95420416	56	6731
2026-01-17 19:08:35.11	37.11	5.85	-41.6	-43.4	18.4	0.00e+00	0	30	0	97517568	56	6709
2026-01-17 19:08:36.12	37.00	5.90	-41.5	-43.3	18.5	0.00e+00	0	29	0	99614720	56	6633
2026-01-17 19:08:37.13	36.88	5.95	-41.4	-43.0	18.6	0.00e+00	31	29	0	101711872	56	6445
2026-01-17 19:08:38.14	36.77	6.00	-41.3	-42.9	18.7	0.00e+00	0	30	0	103809024	56	6389
2026-01-17 19:08:39.15	36.65	6.06	-41.2	-42.8	18.8	0.00e+00	69	30	0	105906176	56	6316
2026-01-17 19:08:40.16	36.54	6.11	-41.1	-42.6	19.0	0.00e+00	0	29	0	106954752	56	6164
2026-01-17 19:08:41.17	36.42	6.16	-40.9	-42.4	19.2	0.00e+00	0	29	0	109051904	56	5997
2026-01-17 19:08:42.18	36.31	6.21	-41.0	-42.5	19.1	0.00e+00	0	29	0	111149056	56	6067
2026-01-17 19:08:43.19	36.19	6.26	-40.9	-42.4	19.2	0.00e+00	0	29	0	113246208	54	6723
2026-01-17 19:08:44.20	36.07	6.31	-40.5	-42.0	19.6	0.00e+00	34	29	0	115343360	54	6392
2026-01-17 19:08:45.21	35.96	6.37	-40.6	-42.1	19.4	0.00e+00	0	29	0	116391936	54	6481
2026-01-17 19:08:46.22	35.84	6.42	-40.5	-41.9	19.6	0.00e+00	90	30	0	118489088	54	6387
2026-01-17 19:08:47.23	35.72	6.47	-40.4	-41.8	19.7	0.00e+00	0	29	0	120586240	54	6288
2026-01-17 19:08:48.24	35.60	6.52	-40.4	-41.8	19.6	0.00e+00	0	30	0	122683392	54	6264
2026-01-17 19:08:49.25	35.49	6.57	-40.4	-41.9	19.6	0.00e+00	0	30	0	124780544	54	6321
2026-01-17 19:08:50.26	35.37	6.62	-40.5	-42.0	19.7	0.00e+00	0	29	0	125829120	54	6414
2026-01-17 19:08:51.27	35.25	6.67	-40.4	-41.8	19.5	0.00e+00	33	30	0	127926272	54	6272
2026-01-17 19:08:52.28	35.13	6.73	-40.7	-42.1	19.0	0.00e+00	0	30	0	130023424	54	6517
2026-01-17 19:08:53.29	35.01	6.78	-40.6	-42.1	19.5	0.00e+00	92	29	0	132120576	54	6482
2026-01-17 19:08:54.30	34.89	6.83	-40.7	-42.2	19.3	0.00e+00	0	29	0	134217728	54	6589
2026-01-17 19:08:55.31	34.76	6.88	-40.6	-42.0	19.6	0.00e+00	0	29	0	135266304	54	6431
2026-01-17 19:08:56.32	34.64	6.93	-40.7	-42.2	19.4	0.00e+00	0	29	0	137363456	54	6555
2026-01-17 19:08:57.33	34.52	6.98	-40.7	-42.1	19.4	0.00e+00	0	30	0	139460608	54	6529
2026-01-17 19:08:58.34	34.40	7.03	-40.7	-42.2	19.3	0.00e+00	38	29	0	141557760	54	6548
2026-01-17 19:08:59.35	34.27	7.09	-41.0	-42.6	19.1	0.00e+00	0	29	0	143654912	54	6851
2026-01-17 19:09:00.36	34.15	7.14	-40.9	-42.5	19.1	0.00e+00	31	29	0	144703488	54	6775
2026-01-17 19:09:01.37	34.03	7.19	-41.0	-42.5	19.1	0.00e+00	0	29	0	146800640	54	6813
2026-01-17 19:09:02.38	33.90	7.24	-40.7	-42.1	19.4	0.00e+00	92	29	0	148897792	54	6511
2026-01-17 19:09:03.39	33.78	7.29	-40.9	-42.4	19.3	0.00e+00	0	30	0	150994944	54	6706
2026-01-17 19:09:04.40	33.65	7.34	-41.0	-42.5	19.1	0.00e+00	0	29	0	153092096	54	6817
2026-01-17 19:09:05.41	33.53	7.39	-41.0	-42.6	19.2	0.00e+00	30	30	0	154140672	54	6866
2026-01-17 19:09:06.42	33.40	7.44	-40.9	-42.4	19.4	0.00e+00	0	30	0	156237824	54	6710
2026-01-17 19:09:07.43	33.27	7.49	-40.8	-42.3	19.3	0.00e+00	79	30	0	158334976	54	6674
2026-01-17 19:09:08.44	33.15	7.55	-41.1	-42.6	19.0	0.00e+00	0	30	0	160432128	54	6896
2026-01-17 19:09:09.45	33.02	7.60	-41.0	-42.5	19.2	0.00e+00	75	30	0	162529280	54	6802
2026-01-17 19:09:10.46	32.89	7.65	-41.0	-42.6	18.9	0.00e+00	0	30	0	163577856	54	6856
2026-01-17 19:09:11.47	32.76	7.70	-41.2	-42.8	19.1	0.00e+00	0	29	0	165675008	54	7023
2026-01-17 19:09:12.48	32.63	7.75	-40.9	-42.4	19.2	0.00e+00	0	29	0	167772160	54	6750
2026-01-17 19:09:13.49	32.50	7.80	-40.9	-42.4	19.3	0.00e+00	0	30	0	169869312	54	6750
2026-01-17 19:09:14.50	32.37	7.85	-40.9	-42.4	19.3	0.00e+00	27	29	0	171966464	54	6712
2026-01-17 19:09:15.51	32.24	7.90	-40.9	-42.4	19.3	0.00e+00	0	29	0	174063616	54	6744
2026-01-17 19:09:16.52	32.11	7.95	-40.9	-42.5	19.3	0.00e+00	90	29	0	175112192	54	6779
2026-01-17 19:09:17.52	31.98	8.00	-40.7	-42.2	19.4	0.00e+00	0	30	0	177209344	54	6572
2026-01-17 19:09:18.53	31.85	8.05	-40.7	-42.1	19.6	0.00e+00	0	29	0	179306496	54	6507
2026-01-17 19:09:19.54	31.72	8.10	-40.6	-42.0	19.6	0.00e+00	0	29	0	181403648	54	6447
2026-01-17 19:09:20.55	31.59	8.15	-40.7	-42.1	19.5	0.00e+00	0	29	0	183500800	54	6536
2026-01-17 19:09:21.56	31.45	8.21	-40.6	-42.0	19.7	0.00e+00	30	29	0	184549376	54	6431
2026-01-17 19:09:22.57	31.32	8.26	-40.5	-41.9	19.7	0.00e+00	0	29	0	186646528	54	6351
2026-01-17 19:09:23.58	31.19	8.31	-40.4	-41.8	19.9	0.00e+00	76	30	0	188743680	54	6295
2026-01-17 19:09:24.59	31.05	8.36	-40.5	-41.9	19.9	0.00e+00	0	29	0	190840832	54	6344
2026-01-17 19:09:25.60	30.92	8.41	-40.3	-41.7	20.0	0.00e+00	0	30	0	192937984	54	6200
2026-01-17 19:09:26.61	30.78	8.46	-40.5	-41.9	19.9	0.00e+00	0	30	0	193986560	54	6327
2026-01-17 19:09:27.62	30.64	8.51	-40.6	-42.0	19.8	0.00e+00	0	30	0	196083712	54	6392
2026-01-17 19:09:28.63	30.51	8.56	-40.4	-41.7	20.0	0.00e+00	0	30	0	198180864	54	6228
2026-01-17 19:09:29.64	30.37	8.61	-40.4	-41.7	20.0	0.00e+00	0	30	0	200278016	54	6244
2026-01-17 19:09:30.65	30.23	8.66	-40.5	-42.0	19.8	0.00e+00	92	30	0	202375168	54	6395
2026-01-17 19:09:31.66	30.09	8.71	-40.7	-42.1	19.7	0.00e+00	0	30	0	203423744	54	6528
2026-01-17 19:09:32.66	29.96	8.76	-40.8	-42.3	19.4	0.00e+00	0	30	0	205520896	54	6631
2026-01-17 19:09:33.67	29.82	8.81	-41.0	-42.5	19.3	0.00e+00	0	30	0	207618048	54	6801
2026-01-17 19:09:34.68	29.68	8.86	-40.9	-42.5	19.3	0.00e+00	0	30	0	209715200	54	6777
2026-01-17 19:09:35.69	29.54	8.91	-41.2	-42.8	19.0	0.00e+00	33	30	0	211812352	54	7059
2026-01-17 19:09:36.70	29.40	8.96	-41.3	-42.9	18.9	0.00e+00	0	30	0	212860928	54	7110
2026-01-17 19:09:37.71	29.26	9.01	-41.2	-42.8	19.1	0.00e+00	57	30	0	214958080	54	7026
2026-01-17 19:09:38.72	29.12	9.06	-41.3	-42.9	18.7	0.00e+00	0	30	0	217055232	54	7129
2026-01-17 19:09:39.73	28.98	9.10	-41.3	-42.8	19.1	0.00e+00	92	30	0	219152384	54	7081
2026-01-17 19:09:40.74	28.83	9.15	-41.1	-42.7	19.0	0.00e+00	0	30	0	221249536	54	6941
2026-01-17 19:09:41.75	28.69	9.20	-41.0	-42.5	19.4	0.00e+00	0	30	0	222298112	54	6801
2026-01-17 19:09:42.76	28.55	9.25	-40.9	-42.4	19.4	0.00e+00	0	30	0	224395264	54	6695
2026-01-17 19:09:43.77	28.40	9.30	-41.0	-42.5	19.5	0.00e+00	0	30	0	226492416	54	6838
2026-01-17 19:09:44.78	28.26	9.35	-40.8	-42.3	19.6	0.00e+00	33	30	0	228589568	54	6644
2026-01-17 19:09:45.79	28.11	9.40	-40.6	-42.0	19.8	0.00e+00	0	30	0	230686720	54	6396
2026-01-17 19:09:46.80	27.97	9.45	-40.4	-41.8	19.9	0.00e+00	90	30	0	231735296	54	6300
2026-01-17 19:09:47.80	27.82	9.50	-40.2	-41.6	20.2	0.00e+00	0	30	0	233832448	54	6126
2026-01-17 19:09:48.81	27.68	9.55	-40.0	-41.3	20.5	0.00e+00	0	30	0	235929600	54	5908
2026-01-17 19:09:49.82	27.53	9.59	-40.1	-41.4	20.4	0.00e+00	0	29	0	238026752	54	5975
2026-01-17 19:09:50.83	27.38	9.64	-40.1	-41.4	20.4	0.00e+00	0	29	0	240123904	54	6002
2026-01-17 19:09:51.85	27.23	9.69	-40.0	-41.3	20.3	0.00e+00	36	30	0	242221056	54	5952
2026-01-17 19:09:52.86	27.09	9.74	-40.3	-41.6	20.0	0.00e+00	0	30	0	243269632	54	6172
2026-01-17 19:09:53.87	26.94	9.79	-39.9	-41.2	20.6	0.00e+00	82	30	0	245366784	54	5855
2026-01-17 19:09:54.88	26.79	9.84	-39.7	-41.0	20.8	0.00e+00	0	30	0	247463936	52	6394
2026-01-17 19:09:55.89	26.64	9.89	-39.6	-40.8	20.9	0.00e+00	0	30	0	249561088	52	6316
2026-01-17 19:09:56.90	26.49	9.93	-39.5	-40.7	21.1	0.00e+00	0	30	0	251658240	52	6223
2026-01-17 19:09:57.91	26.34	9.98	-39.6	-40.8	20.8	0.00e+00	0	30	0	252706816	52	6256
2026-01-17 19:09:58.91	26.19	10.03	-39.5	-40.7	21.0	0.00e+00	30	30	0	254803968	52	6221
2026-01-17 19:09:59.93	26.03	10.08	-39.4	-40.6	21.0	0.00e+00	0	30	0	256901120	52	6125
2026-01-17 19:10:00.94	25.88	10.12	-39.3	-40.5	21.2	0.00e+00	92	30	0	258998272	52	6035
2026-01-17 19:10:01.95	25.73	10.17	-39.1	-40.2	21.5	0.00e+00	0	30	0	261095424	52	5868
2026-01-17 19:10:02.96	25.58	10.22	-38.9	-40.0	21.6	0.00e+00	0	30	0	262144000	52	5708
2026-01-17 19:10:03.97	25.42	10.27	-38.9	-40.0	21.7	0.00e+00	0	30	0	264241152	52	5710
2026-01-17 19:10:04.98	25.27	10.31	-38.7	-39.8	21.9	0.00e+00	0	30	0	266338304	50	6258
2026-01-17 19:10:05.99	25.11	10.36	-38.9	-40.0	21.6	0.00e+00	29	30	0	268435456	50	6413
2026-01-17 19:10:07.00	24.96	10.41	-38.8	-39.9	21.8	0.00e+00	0	30	0	270532608	50	6372
2026-01-17 19:10:08.00	24.80	10.45	-39.0	-40.1	21.6	0.00e+00	39	30	0	271581184	50	6488
2026-01-17 19:10:09.01	24.65	10.50	-38.8	-39.9	21.6	0.00e+00	0	30	0	273678336	50	6387
2026-01-17 19:10:10.02	24.49	10.55	-39.0	-40.2	21.5	0.00e+00	60	30	0	275775488	50	6572
2026-01-17 19:10:11.03	24.33	10.59	-39.1	-40.3	21.5	0.00e+00	0	30	0	277872640	50	6626
2026-01-17 19:10:12.04	24.17	10.64	-39.1	-40.3	21.4	0.00e+00	0	30	0	279969792	50	6636
2026-01-17 19:10:13.05	24.02	10.69	-39.3	-40.5	21.2	0.00e+00	39	30	0	281018368	50	6772
2026-01-17 19:10:14.06	23.86	10.73	-39.4	-40.6	21.1	0.00e+00	0	30	0	283115520	50	6896
2026-01-17 19:10:15.07	23.70	10.78	-39.4	-40.6	21.2	0.00e+00	3	30	0	285212672	50	6884
2026-01-17 19:10:16.08	23.54	10.82	-39.1	-40.3	21.4	0.00e+00	0	30	0	287309824	50	6623
2026-01-17 19:10:17.09	23.38	10.87	-39.1	-40.2	21.3	0.00e+00	91	30	0	289406976	50	6590
2026-01-17 19:10:18.10	23.22	10.92	-38.8	-39.9	21.8	0.00e+00	0	30	0	290455552	50	6326
2026-01-17 19:10:19.11	23.05	10.96	-38.7	-39.8	21.9	0.00e+00	0	30	0	292552704	50	6297
2026-01-17 19:10:20.12	22.89	11.01	-38.4	-39.5	22.0	0.00e+00	0	30	0	294649856	50	6043
2026-01-17 19:10:21.13	22.73	11.05	-38.6	-39.7	21.9	0.00e+00	0	30	0	296747008	50	6183
2026-01-17 19:10:22.14	22.57	11.10	-38.4	-39.5	22.0	0.00e+00	79	30	0	298844160	50	6052
2026-01-17 19:10:23.14	22.40	11.14	-38.4	-39.4	22.1	0.00e+00	33	30	0	299892736	50	6025
2026-01-17 19:10:24.15	22.24	11.19	-38.1	-39.1	22.4	0.00e+00	91	30	0	301989888	50	5827
2026-01-17 19:10:25.16	22.08	11.23	-38.1	-39.1	22.4	0.00e+00	0	30	0	304087040	50	5799
2026-01-17 19:10:26.17	21.91	11.28	-38.0	-39.0	22.5	0.00e+00	33	30	0	306184192	50	5716
2026-01-17 19:10:27.18	21.75	11.32	-38.1	-39.0	22.5	0.00e+00	0	30	0	308281344	50	5756
2026-01-17 19:10:28.19	21.58	11.36	-38.1	-39.1	22.4	0.00e+00	0	30	0	310378496	50	5805
2026-01-17 19:10:29.20	21.41	11.41	-38.2	-39.2	22.1	0.00e+00	34	30	0	311427072	50	5888
2026-01-17 19:10:30.21	21.25	11.45	-38.4	-39.5	22.1	0.00e+00	0	30	0	313524224	50	6044
2026-01-17 19:10:31.22	21.08	11.50	-38.4	-39.5	22.0	0.00e+00	92	30	0	315621376	50	6071
2026-01-17 19:10:32.23	20.91	11.54	-38.6	-39.7	22.0	0.00e+00	0	30	0	317718528	50	6180
2026-01-17 19:10:33.23	20.74	11.58	-38.5	-39.6	21.9	0.00e+00	0	30	0	318767104	50	6121
2026-01-17 19:10:34.25	20.57	11.63	-38.4	-39.5	22.1	0.00e+00	0	30	0	320864256	50	6069
2026-01-17 19:10:35.26	20.40	11.67	-38.3	-39.3	22.3	0.00e+00	0	30	0	322961408	50	5931
2026-01-17 19:10:36.27	20.23	11.71	-38.2	-39.2	22.3	0.00e+00	36	30	0	325058560	50	5859
2026-01-17 19:10:37.28	20.06	11.75	-37.8	-38.8	22.6	0.00e+00	0	30	0	327155712	50	5611
2026-01-17 19:10:38.29	19.89	11.80	-37.7	-38.7	22.7	0.00e+00	90	30	0	329252864	48	6193
2026-01-17 19:10:39.30	19.72	11.84	-37.7	-38.6	22.9	0.00e+00	0	30	0	330301440	48	6139
2026-01-17 19:10:40.31	19.55	11.88	-37.6	-38.6	22.9	0.00e+00	0	30	0	332398592	48	6111
2026-01-17 19:10:41.32	19.37	11.92	-37.6	-38.6	22.9	0.00e+00	0	30	0	334495744	48	6120
2026-01-17 19:10:42.33	19.20	11.96	-37.6	-38.5	22.9	0.00e+00	0	30	0	336592896	48	6087
2026-01-17 19:10:43.34	19.03	12.01	-37.6	-38.6	22.9	0.00e+00	46	30	0	338690048	48	6120
2026-01-17 19:10:44.35	18.85	12.05	-37.9	-38.8	22.7	0.00e+00	0	30	0	339738624	48	6314
2026-01-17 19:10:45.36	18.68	12.09	-38.0	-39.0	22.4	0.00e+00	46	30	0	341835776	48	6427
2026-01-17 19:10:46.37	18.50	12.13	-38.3	-39.3	22.3	0.00e+00	0	30	0	343932928	48	6664
2026-01-17 19:10:47.38	18.33	12.17	-38.3	-39.4	22.2	0.00e+00	19	30	0	346030080	48	6741
2026-01-17 19:10:48.39	18.15	12.21	-38.3	-39.4	22.2	0.00e+00	0	30	0	348127232	48	6704
2026-01-17 19:10:49.40	17.98	12.25	-38.5	-39.5	21.6	0.00e+00	0	30	0	349175808	48	6827
2026-01-17 19:10:50.41	17.80	12.29	-38.6	-39.7	21.9	0.00e+00	29	30	0	351272960	48	6953
2026-01-17 19:10:51.42	17.62	12.33	-38.6	-39.6	22.0	0.00e+00	0	30	0	353370112	48	6901
2026-01-17 19:10:52.43	17.44	12.37	-38.5	-39.6	22.1	0.00e+00	37	30	0	355467264	48	6868
2026-01-17 19:10:53.43	17.27	12.41	-38.6	-39.7	22.1	0.00e+00	0	30	0	357564416	48	6936
2026-01-17 19:10:54.44	17.09	12.45	-38.4	-39.5	22.2	0.00e+00	51	30	0	358612992	48	6778
2026-01-17 19:10:55.45	16.91	12.49	-38.4	-39.5	22.1	0.00e+00	0	30	0	360710144	48	6777
2026-01-17 19:10:56.46	16.73	12.53	-38.5	-39.6	22.0	0.00e+00	0	30	0	362807296	48	6858
2026-01-17 19:10:57.47	16.55	12.57	-38.5	-39.6	22.1	0.00e+00	0	30	0	364904448	48	6879
2026-01-17 19:10:58.48	16.37	12.61	-38.7	-39.8	21.8	0.00e+00	0	30	0	367001600	50	6257
2026-01-17 19:10:59.49	16.18	12.64	-39.1	-40.2	21.5	0.00e+00	29	30	0	368050176	50	6592
2026-01-17 19:11:00.50	16.00	12.68	-39.4	-40.6	21.2	0.00e+00	0	30	0	370147328	50	6879
2026-01-17 19:11:01.51	15.82	12.72	-39.5	-40.7	21.1	0.00e+00	92	29	0	372244480	50	6962
2026-01-17 19:11:02.52	15.64	12.76	-39.2	-40.4	21.3	0.00e+00	0	30	0	374341632	50	6759
2026-01-17 19:11:03.53	15.45	12.79	-39.1	-40.3	21.5	0.00e+00	0	30	0	376438784	50	6655
2026-01-17 19:11:04.54	15.27	12.83	-38.9	-40.0	21.7	0.00e+00	0	30	0	378535936	50	6437
2026-01-17 19:11:05.55	15.09	12.87	-38.6	-39.7	22.0	0.00e+00	0	30	0	379584512	50	6212
2026-01-17 19:11:06.56	14.90	12.91	-38.4	-39.4	22.3	0.00e+00	42	30	0	381681664	50	6000
2026-01-17 19:11:07.57	14.72	12.94	-38.7	-39.7	22.0	0.00e+00	0	30	0	383778816	50	6240
2026-01-17 19:11:08.58	14.53	12.98	-38.4	-39.4	22.2	0.00e+00	92	30	0	385875968	50	6013
2026-01-17 19:11:09.59	14.34	13.01	-38.5	-39.5	22.1	0.00e+00	0	30	0	387973120	50	6083
2026-01-17 19:11:10.60	14.16	13.05	-38.6	-39.6	22.1	0.00e+00	0	30	0	389021696	50	6157
2026-01-17 19:11:11.61	13.97	13.08	-38.4	-39.5	22.2	0.00e+00	0	30	0	391118848	50	6055
2026-01-17 19:11:12.62	13.78	13.12	-38.6	-39.7	22.2	0.00e+00	0	30	0	393216000	50	6217
2026-01-17 19:11:13.63	13.59	13.15	-38.7	-39.8	22.0	0.00e+00	30	30	0	395313152	50	6249
2026-01-17 19:11:14.64	13.41	13.19	-38.6	-39.7	22.0	0.00e+00	0	30	0	397410304	50	6227
2026-01-17 19:11:15.65	13.22	13.22	-38.4	-39.4	22.2	0.00e+00	82	30	0	398458880	50	6022
2026-01-17 19:11:16.66	13.03	13.26	-38.5	-39.5	22.1	0.00e+00	0	30	0	400556032	50	6100
2026-01-17 19:11:17.67	12.84	13.29	-38.0	-39.0	22.5	0.00e+00	0	30	0	402653184	50	5733
2026-01-17 19:11:18.68	12.65	13.33	-38.0	-39.0	22.4	0.00e+00	0	30	0	404750336	50	5712
2026-01-17 19:11:19.69	12.46	13.36	-37.9	-38.9	22.6	0.00e+00	0	30	0	406847488	48	6321
2026-01-17 19:11:20.71	12.26	13.39	-38.1	-39.1	22.5	0.00e+00	2	30	0	407896064	48	6469
2026-01-17 19:11:21.72	12.07	13.43	-38.2	-39.3	22.4	0.00e+00	0	30	0	409993216	48	6628
2026-01-17 19:11:22.73	11.88	13.46	-38.4	-39.5	22.1	0.00e+00	92	30	0	412090368	48	6785
2026-01-17 19:11:23.73	11.69	13.49	-38.6	-39.7	22.0	0.00e+00	0	30	0	414187520	48	6990
2026-01-17 19:11:24.75	11.50	13.52	-38.9	-40.0	21.8	0.00e+00	0	30	0	416284672	50	6430
2026-01-17 19:11:25.76	11.30	13.55	-38.9	-40.0	21.8	0.00e+00	0	30	0	417333248	50	6428
2026-01-17 19:11:26.77	11.11	13.59	-38.9	-40.1	21.8	0.00e+00	0	30	0	419430400	50	6472
2026-01-17 19:11:27.78	10.92	13.62	-38.9	-40.0	21.8	0.00e+00	0	30	0	421527552	50	6437
2026-01-17 19:11:28.79	10.72	13.65	-38.8	-39.9	21.9	0.00e+00	0	30	0	423624704	50	6359
2026-01-17 19:11:29.80	10.53	13.68	-38.4	-39.4	22.3	0.00e+00	66	30	0	425721856	50	5991
2026-01-17 19:11:30.81	10.33	13.71	-38.1	-39.1	22.5	0.00e+00	0	30	0	426770432	50	5823
2026-01-17 19:11:31.82	10.13	13.74	-37.8	-38.8	22.2	0.00e+00	60	30	0	428867584	50	5589
2026-01-17 19:11:32.83	9.94	13.77	-37.8	-38.8	22.7	0.00e+00	2	30	0	430964736	48	6250
2026-01-17 19:11:33.84	9.74	13.80	-37.8	-38.8	22.8	0.00e+00	0	30	0	433061888	48	6248
2026-01-17 19:11:34.85	9.55	13.83	-37.6	-38.5	23.1	0.00e+00	0	30	0	435159040	48	6059
2026-01-17 19:11:35.85	9.35	13.85	-37.6	-38.6	23.0	0.00e+00	0	30	0	436207616	48	6130
2026-01-17 19:11:36.86	9.15	13.88	-37.6	-38.5	23.1	0.00e+00	37	30	0	438304768	48	6060
2026-01-17 19:11:37.87	8.95	13.91	-37.7	-38.6	23.0	0.00e+00	0	30	0	440401920	48	6163
2026-01-17 19:11:38.88	8.76	13.94	-37.7	-38.7	22.8	0.00e+00	92	30	0	442499072	48	6202
2026-01-17 19:11:39.90	8.56	13.97	-37.7	-38.7	22.9	0.00e+00	0	30	0	444596224	48	6209
2026-01-17 19:11:40.91	8.36	13.99	-37.7	-38.7	23.1	0.00e+00	0	30	0	446693376	48	6208
2026-01-17 19:11:41.91	8.16	14.02	-37.5	-38.4	23.1	0.00e+00	0	30	0	447741952	48	5992
2026-01-17 19:11:42.92	7.96	14.05	-37.4	-38.3	23.2	0.00e+00	0	30	0	449839104	48	5928
2026-01-17 19:11:43.93	7.76	14.07	-37.6	-38.5	23.0	0.00e+00	43	30	0	451936256	48	6083
2026-01-17 19:11:44.94	7.56	14.10	-37.6	-38.5	22.7	0.00e+00	0	30	0	454033408	48	6073
2026-01-17 19:11:45.95	7.36	14.13	-37.4	-38.3	23.2	0.00e+00	56	30	0	456130560	48	5914
2026-01-17 19:11:46.96	7.16	14.15	-37.3	-38.2	23.3	0.00e+00	0	30	0	457179136	48	5867
2026-01-17 19:11:47.97	6.95	14.18	-37.5	-38.4	23.1	0.00e+00	0	30	0	459276288	48	6006
2026-01-17 19:11:48.98	6.75	14.20	-37.7	-38.6	22.9	0.00e+00	0	30	0	461373440	48	6162
2026-01-17 19:11:49.99	6.55	14.22	-38.0	-39.0	22.6	0.00e+00	0	30	0	463470592	48	6415
2026-01-17 19:11:51.00	6.35	14.25	-38.4	-39.4	22.3	0.00e+00	0	30	0	465567744	48	6736
2026-01-17 19:11:52.01	6.14	14.27	-38.5	-39.6	22.1	0.00e+00	0	30	0	466616320	48	6866
2026-01-17 19:11:53.02	5.94	14.30	-38.5	-39.5	22.2	0.00e+00	45	30	0	468713472	48	6804
2026-01-17 19:11:54.03	5.74	14.32	-38.4	-39.5	22.3	0.00e+00	0	30	0	470810624	48	6773
2026-01-17 19:11:55.04	5.53	14.34	-38.4	-39.4	22.3	0.00e+00	0	30	0	472907776	48	6725
2026-01-17 19:11:56.05	5.33	14.36	-38.4	-39.4	22.3	0.00e+00	0	30	0	475004928	48	6723
2026-01-17 19:11:57.06	5.12	14.39	-38.4	-39.4	22.4	0.00e+00	0	30	0	476053504	48	6725
2026-01-17 19:11:58.07	4.92	14.41	-38.5	-39.6	21.9	0.00e+00	62	30	0	478150656	48	6861
2026-01-17 19:11:59.08	4.71	14.43	-38.7	-39.8	21.9	0.00e+00	0	30	0	480247808	48	7045
2026-01-17 19:12:00.09	4.51	14.45	-38.9	-40.0	21.8	0.00e+00	92	30	0	482344960	50	6434
2026-01-17 19:12:01.09	4.31	14.47	-38.9	-40.0	21.9	0.00e+00	0	30	0	484442112	50	6419
2026-01-17 19:12:02.11	4.10	14.49	-38.8	-39.9	22.0	0.00e+00	0	30	0	485490688	50	6374
2026-01-17 19:12:03.12	3.89	14.51	-38.7	-39.8	22.0	0.00e+00	0	30	0	487587840	50	6305
2026-01-17 19:12:04.13	3.68	14.53	-38.6	-39.7	22.1	0.00e+00	0	30	0	489684992	50	6218
2026-01-17 19:12:05.14	3.48	14.55	-38.6	-39.7	22.2	0.00e+00	34	30	0	491782144	50	6194
2026-01-17 19:12:06.15	3.27	14.57	-38.8	-39.9	21.9	0.00e+00	0	30	0	493879296	50	6352
2026-01-17 19:12:07.16	3.06	14.59	-38.9	-39.9	21.8	0.00e+00	31	30	0	494927872	50	6383
2026-01-17 19:12:08.17	2.86	14.60	-38.9	-40.0	21.8	0.00e+00	0	30	0	497025024	50	6431
2026-01-17 19:12:09.18	2.65	14.62	-39.2	-40.3	21.6	0.00e+00	91	30	0	499122176	50	6658
2026-01-17 19:12:10.19	2.44	14.64	-39.2	-40.3	21.6	0.00e+00	0	30	0	501219328	50	6646
2026-01-17 19:12:11.20	2.23	14.66	-38.4	-39.4	22.5	0.00e+00	0	30	0	503316480	50	5971
2026-01-17 19:12:12.21	2.02	14.67	-37.9	-38.8	23.0	0.00e+00	33	30	0	504365056	50	5627
2026-01-17 19:12:13.22	1.81	14.69	-37.6	-38.5	23.1	0.00e+00	0	30	0	506462208	48	6087
2026-01-17 19:12:14.23	1.60	14.70	-37.7	-38.6	23.0	0.00e+00	31	30	0	508559360	48	6160
2026-01-17 19:12:15.24	1.39	14.72	-37.9	-38.9	22.9	0.00e+00	0	30	0	510656512	48	6326
2026-01-17 19:12:16.25	1.19	14.73	-38.1	-39.1	22.6	0.00e+00	90	30	0	512753664	48	6507
2026-01-17 19:12:17.26	0.98	14.75	-38.2	-39.2	22.6	0.00e+00	0	30	0	514850816	48	6575
2026-01-17 19:12:18.27	0.77	14.76	-38.3	-39.3	22.5	0.00e+00	0	30	0	515899392	48	6616
2026-01-17 19:12:19.28	0.56	14.78	-38.1	-39.1	22.7	0.00e+00	0	30	0	517996544	48	6514
2026-01-17 19:12:20.29	0.34	14.79	-38.1	-39.1	22.7	0.00e+00	0	30	0	520093696	48	6477
2026-01-17 19:12:21.30	0.13	14.80	-38.0	-39.0	22.6	0.00e+00	28	30	0	522190848	48	6423
2026-01-17 19:12:22.31	359.92	14.82	-38.0	-39.0	22.5	0.00e+00	0	30	0	524288000	48	6445
2026-01-17 19:12:23.32	359.71	14.83	-37.9	-38.9	22.7	0.00e+00	92	30	0	525336576	48	6349
2026-01-17 19:12:24.33	359.50	14.84	-37.9	-38.8	22.8	0.00e+00	33	30	0	527433728	48	6306
2026-01-17 19:12:25.34	359.29	14.85	-38.1	-39.1	22.6	0.00e+00	0	30	0	529530880	48	6465
2026-01-17 19:12:26.35	359.08	14.86	-38.1	-39.1	22.6	0.00e+00	0	30	0	531628032	48	6536
2026-01-17 19:12:27.36	358.87	14.88	-38.2	-39.3	22.5	0.00e+00	0	30	0	533725184	48	6628
2026-01-17 19:12:28.37	358.66	14.89	-38.3	-39.3	22.4	0.00e+00	35	30	0	534773760	48	6635
2026-01-17 19:12:29.38	358.44	14.90	-38.3	-39.3	22.4	0.00e+00	0	30	0	536870912	48	6645
2026-01-17 19:12:30.39	358.23	14.91	-38.4	-39.4	22.3	0.00e+00	92	30	0	538968064	48	6752
2026-01-17 19:12:31.40	358.02	14.91	-38.4	-39.4	22.2	0.00e+00	0	30	0	541065216	48	6752
2026-01-17 19:12:32.41	357.81	14.92	-38.5	-39.5	22.3	0.00e+00	0	30	0	543162368	48	6815
2026-01-17 19:12:33.42	357.59	14.93	-38.5	-39.5	22.3	0.00e+00	0	30	0	544210944	48	6806
2026-01-17 19:12:34.43	357.38	14.94	-38.5	-39.6	22.2	0.00e+00	0	30	0	546308096	48	6862
2026-01-17 19:12:35.44	357.17	14.95	-38.5	-39.6	22.2	0.00e+00	44	30	0	548405248	50	6134
2026-01-17 19:12:36.45	356.96	14.96	-38.4	-39.4	22.4	0.00e+00	0	30	0	550502400	50	6032
2026-01-17 19:12:37.46	356.74	14.96	-38.4	-39.4	22.4	0.00e+00	52	30	0	552599552	50	5978
2026-01-17 19:12:38.47	356.53	14.97	-38.2	-39.2	22.6	0.00e+00	0	30	0	553648128	50	5855
2026-01-17 19:12:39.48	356.32	14.98	-38.1	-39.1	22.6	0.00e+00	90	30	0	555745280	50	5808
2026-01-17 19:12:40.49	356.10	14.98	-38.2	-39.2	22.5	0.00e+00	0	30	0	557842432	50	5843
2026-01-17 19:12:41.50	355.89	14.99	-38.3	-39.3	22.4	0.00e+00	0	30	0	559939584	50	5916
2026-01-17 19:12:42.51	355.68	14.99	-38.4	-39.4	22.4	0.00e+00	0	30	0	562036736	50	6007
2026-01-17 19:12:43.52	355.46	15.00	-38.2	-39.2	22.6	0.00e+00	0	30	0	563085312	50	5877
2026-01-17 19:12:44.53	355.25	15.00	-38.3	-39.4	22.3	0.00e+00	92	30	0	565182464	50	5977
2026-01-17 19:12:45.54	355.04	15.00	-38.4	-39.4	22.4	0.00e+00	0	30	0	567279616	50	5982
2026-01-17 19:12:46.55	354.82	15.01	-38.3	-39.4	22.4	0.00e+00	86	30	0	569376768	50	5973
2026-01-17 19:12:47.56	354.61	15.01	-38.2	-39.2	22.5	0.00e+00	0	30	0	571473920	50	5862
2026-01-17 19:12:48.57	354.40	15.01	-38.4	-39.4	22.3	0.00e+00	0	30	0	572522496	50	6017
2026-01-17 19:12:49.58	354.18	15.02	-38.7	-39.7	22.1	0.00e+00	0	30	0	574619648	50	6219
2026-01-17 19:12:50.59	353.97	15.02	-38.8	-39.9	22.1	0.00e+00	0	30	0	576716800	50	6362
2026-01-17 19:12:51.60	353.76	15.02	-38.7	-39.8	22.1	0.00e+00	82	30	0	578813952	50	6250
2026-01-17 19:12:52.61	353.54	15.02	-38.9	-39.9	21.9	0.00e+00	0	30	0	580911104	50	6386
2026-01-17 19:12:53.62	353.33	15.02	-38.7	-39.8	22.1	0.00e+00	91	30	0	583008256	50	6249
2026-01-17 19:12:54.64	353.11	15.02	-38.6	-39.6	22.2	0.00e+00	0	30	0	584056832	50	6132
2026-01-17 19:12:55.64	352.90	15.02	-38.3	-39.3	22.5	0.00e+00	0	30	0	586153984	50	5932
2026-01-17 19:12:56.65	352.69	15.02	-38.1	-39.1	22.6	0.00e+00	0	30	0	588251136	50	5812
2026-01-17 19:12:57.66	352.47	15.02	-37.7	-38.6	23.0	0.00e+00	33	30	0	590348288	50	5495
2026-01-17 19:12:58.67	352.26	15.02	-37.7	-38.6	23.0	0.00e+00	67	30	0	592445440	48	6147
2026-01-17 19:12:59.68	352.05	15.02	-37.7	-38.6	23.1	0.00e+00	0	30	0	593494016	48	6155
2026-01-17 19:13:00.69	351.83	15.01	-37.7	-38.6	23.0	0.00e+00	80	30	0	595591168	48	6147
2026-01-17 19:13:01.70	351.62	15.01	-37.8	-38.8	22.8	0.00e+00	0	30	0	597688320	48	6260
2026-01-17 19:13:02.71	351.41	15.01	-38.1	-39.1	22.6	0.00e+00	0	30	0	599785472	48	6520
2026-01-17 19:13:03.73	351.19	15.00	-38.3	-39.3	22.4	0.00e+00	0	30	0	601882624	48	6675
2026-01-17 19:13:04.73	350.98	15.00	-38.4	-39.5	22.3	0.00e+00	0	30	0	602931200	48	6789
2026-01-17 19:13:05.75	350.76	15.00	-38.6	-39.7	22.2	0.00e+00	34	30	0	605028352	48	6942
2026-01-17 19:13:06.75	350.55	14.99	-38.6	-39.7	22.2	0.00e+00	0	30	0	607125504	48	6963
2026-01-17 19:13:07.76	350.34	14.99	-38.5	-39.6	22.2	0.00e+00	90	30	0	609222656	48	6868
2026-01-17 19:13:08.77	350.12	14.98	-38.6	-39.6	22.2	0.00e+00	0	30	0	611319808	48	6914
2026-01-17 19:13:09.78	349.91	14.97	-38.8	-39.8	21.6	0.00e+00	38	30	0	612368384	50	6308
2026-01-17 19:13:10.79	349.70	14.97	-38.9	-40.0	21.8	0.00e+00	0	30	0	614465536	50	6449
2026-01-17 19:13:11.80	349.49	14.96	-38.7	-39.8	22.1	0.00e+00	0	30	0	616562688	50	6279
2026-01-17 19:13:12.81	349.27	14.96	-39.0	-40.1	21.8	0.00e+00	7	30	0	618659840	50	6487
2026-01-17 19:13:13.82	349.06	14.95	-39.2	-40.3	21.6	0.00e+00	0	30	0	620756992	50	6662
2026-01-17 19:13:14.83	348.85	14.94	-39.2	-40.4	21.5	0.00e+00	67	30	0	621805568	50	6721
2026-01-17 19:13:15.84	348.63	14.93	-39.2	-40.3	21.7	0.00e+00	0	30	0	623902720	50	6678
2026-01-17 19:13:16.85	348.42	14.92	-39.1	-40.3	21.7	0.00e+00	20	30	0	625999872	50	6629
2026-01-17 19:13:17.86	348.21	14.91	-38.9	-40.0	22.0	0.00e+00	0	30	0	628097024	50	6420
2026-01-17 19:13:18.87	348.00	14.90	-38.7	-39.8	22.1	0.00e+00	0	30	0	630194176	50	6276
2026-01-17 19:13:19.88	347.79	14.90	-38.7	-39.8	22.3	0.00e+00	0	30	0	631242752	50	6266
2026-01-17 19:13:20.89	347.57	14.88	-38.5	-39.5	22.3	0.00e+00	0	30	0	633339904	50	6068
2026-01-17 19:13:21.90	347.36	14.87	-38.5	-39.5	22.3	0.00e+00	82	30	0	635437056	50	6090
2026-01-17 19:13:22.91	347.15	14.86	-38.1	-39.1	22.7	0.00e+00	0	30	0	637534208	50	5770
2026-01-17 19:13:23.92	346.94	14.85	-38.2	-39.2	22.6	0.00e+00	90	30	0	639631360	50	5875
2026-01-17 19:13:24.93	346.73	14.84	-37.9	-38.9	22.8	0.00e+00	0	30	0	640679936	50	5671
2026-01-17 19:13:25.94	346.52	14.83	-38.2	-39.2	22.7	0.00e+00	0	30	0	642777088	50	5865
2026-01-17 19:13:26.95	346.31	14.82	-38.3	-39.3	22.5	0.00e+00	0	30	0	644874240	50	5955
2026-01-17 19:13:27.96	346.10	14.80	-38.5	-39.6	22.3	0.00e+00	0	30	0	646971392	50	6143
2026-01-17 19:13:28.97	345.88	14.79	-38.4	-39.5	22.4	0.00e+00	92	30	0	649068544	50	6049
2026-01-17 19:13:29.98	345.67	14.78	-38.4	-39.4	22.4	0.00e+00	0	30	0	651165696	50	6007
2026-01-17 19:13:30.98	345.47	14.76	-38.2	-39.2	22.6	0.00e+00	35	30	0	652214272	50	5892
2026-01-17 19:13:31.99	345.26	14.75	-37.9	-38.9	22.8	0.00e+00	0	30	0	654311424	50	5675
2026-01-17 19:13:33.00	345.05	14.73	-38.0	-38.9	22.9	0.00e+00	0	30	0	656408576	50	5681
2026-01-17 19:13:34.02	344.83	14.72	-37.5	-38.4	23.0	0.00e+00	0	30	0	658505728	48	6011
2026-01-17 19:13:35.03	344.63	14.70	-37.6	-38.5	23.0	0.00e+00	0	30	0	660602880	48	6048
2026-01-17 19:13:36.04	344.42	14.69	-37.7	-38.6	23.0	0.00e+00	4	30	0	661651456	48	6169
2026-01-17 19:13:37.05	344.21	14.67	-37.5	-38.5	22.9	0.00e+00	0	30	0	663748608	48	6039
2026-01-17 19:13:38.06	344.00	14.65	-37.7	-38.6	22.9	0.00e+00	92	30	0	665845760	48	6165
2026-01-17 19:13:39.07	343.79	14.64	-37.8	-38.8	22.9	0.00e+00	0	30	0	667942912	48	6268
2026-01-17 19:13:40.08	343.58	14.62	-37.9	-38.9	22.8	0.00e+00	0	30	0	670040064	48	6357
2026-01-17 19:13:41.09	343.37	14.60	-37.9	-38.9	22.7	0.00e+00	0	30	0	671088640	48	6378
2026-01-17 19:13:42.10	343.17	14.58	-38.0	-39.0	22.8	0.00e+00	0	30	0	673185792	48	6396
2026-01-17 19:13:43.11	342.96	14.57	-38.2	-39.2	22.6	0.00e+00	33	30	0	675282944	48	6555
2026-01-17 19:13:44.12	342.75	14.55	-38.2	-39.2	22.5	0.00e+00	32	30	0	677380096	48	6606
2026-01-17 19:13:45.13	342.55	14.53	-38.4	-39.5	22.3	0.00e+00	92	30	0	679477248	48	6772
2026-01-17 19:13:46.14	342.34	14.51	-38.4	-39.4	22.1	0.00e+00	0	30	0	680525824	48	6744
2026-01-17 19:13:47.15	342.13	14.49	-38.5	-39.6	22.2	0.00e+00	0	30	0	682622976	48	6897
2026-01-17 19:13:48.16	341.93	14.47	-38.5	-39.6	22.1	0.00e+00	33	30	0	684720128	48	6879
2026-01-17 19:13:49.17	341.72	14.45	-38.7	-39.7	22.1	0.00e+00	0	30	0	686817280	48	6980
2026-01-17 19:13:50.18	341.52	14.43	-38.5	-39.6	22.2	0.00e+00	34	30	0	688914432	50	6112
2026-01-17 19:13:51.19	341.31	14.41	-38.7	-39.8	22.2	0.00e+00	0	30	0	691011584	50	6248
2026-01-17 19:13:52.20	341.11	14.38	-38.6	-39.7	22.1	0.00e+00	72	30	0	692060160	50	6219
2026-01-17 19:13:53.21	340.90	14.36	-38.8	-39.9	22.0	0.00e+00	0	30	0	694157312	50	6345
2026-01-17 19:13:54.22	340.70	14.34	-38.3	-39.3	22.5	0.00e+00	47	30	0	696254464	50	5948
2026-01-17 19:13:55.23	340.49	14.32	-38.3	-39.3	22.4	0.00e+00	0	30	0	698351616	50	5951
2026-01-17 19:13:56.24	340.29	14.29	-38.2	-39.2	22.6	0.00e+00	0	30	0	700448768	50	5861
2026-01-17 19:13:57.25	340.09	14.27	-37.9	-38.9	22.8	0.00e+00	35	30	0	701497344	50	5674
2026-01-17 19:13:58.26	339.88	14.25	-37.9	-38.9	22.6	0.00e+00	0	30	0	703594496	50	5673
2026-01-17 19:13:59.27	339.68	14.22	-38.2	-39.2	22.5	0.00e+00	33	30	0	705691648	50	5881
2026-01-17 19:14:00.28	339.48	14.20	-38.4	-39.4	22.4	0.00e+00	0	30	0	707788800	50	5986
2026-01-17 19:14:01.29	339.28	14.17	-38.4	-39.4	22.4	0.00e+00	22	30	0	709885952	50	5980
2026-01-17 19:14:02.30	339.07	14.15	-38.8	-39.8	22.0	0.00e+00	0	30	0	710934528	50	6316
2026-01-17 19:14:03.31	338.87	14.12	-38.1	-39.0	22.8	0.00e+00	0	30	0	713031680	50	5740
2026-01-17 19:14:04.32	338.67	14.10	-37.8	-38.7	23.0	0.00e+00	0	30	0	715128832	50	5548
2026-01-17 19:14:05.33	338.47	14.07	-37.9	-38.8	22.9	0.00e+00	0	30	0	717225984	48	6310
2026-01-17 19:14:06.34	338.27	14.05	-37.9	-38.9	22.8	0.00e+00	92	30	0	719323136	48	6329
2026-01-17 19:14:07.35	338.07	14.02	-38.1	-39.1	22.6	0.00e+00	0	30	0	720371712	48	6485
2026-01-17 19:14:08.36	337.87	13.99	-38.4	-39.4	22.4	0.00e+00	78	30	0	722468864	48	6724
2026-01-17 19:14:09.37	337.67	13.96	-38.6	-39.6	22.3	0.00e+00	0	30	0	724566016	48	6880
2026-01-17 19:14:10.38	337.47	13.94	-38.4	-39.4	22.4	0.00e+00	0	30	0	726663168	48	6718
2026-01-17 19:14:11.39	337.28	13.91	-38.8	-39.9	22.1	0.00e+00	25	30	0	728760320	50	6332
2026-01-17 19:14:12.40	337.08	13.88	-38.9	-40.0	21.8	0.00e+00	0	30	0	729808896	50	6412
2026-01-17 19:14:13.41	336.88	13.85	-38.8	-39.9	21.9	0.00e+00	50	30	0	731906048	50	6326
2026-01-17 19:14:14.42	336.68	13.82	-38.7	-39.8	22.1	0.00e+00	0	30	0	734003200	50	6249
2026-01-17 19:14:15.43	336.49	13.79	-38.7	-39.8	22.0	0.00e+00	54	30	0	736100352	50	6253
2026-01-17 19:14:16.44	336.29	13.77	-38.8	-39.9	22.0	0.00e+00	0	30	0	738197504	50	6337
2026-01-17 19:14:17.45	336.09	13.74	-38.7	-39.8	22.2	0.00e+00	0	30	0	739246080	50	6246
2026-01-17 19:14:18.46	335.90	13.71	-38.9	-40.0	21.8	0.00e+00	0	30	0	741343232	50	6418
2026-01-17 19:14:19.47	335.70	13.68	-38.8	-39.8	22.0	0.00e+00	0	30	0	743440384	50	6317
2026-01-17 19:14:20.48	335.51	13.64	-38.8	-39.9	22.0	0.00e+00	44	30	0	745537536	50	6341
2026-01-17 19:14:21.49	335.31	13.61	-38.7	-39.8	22.0	0.00e+00	0	30	0	747634688	50	6301
2026-01-17 19:14:22.50	335.12	13.58	-38.8	-39.9	22.0	0.00e+00	90	30	0	748683264	50	6338
2026-01-17 19:14:23.50	334.93	13.55	-38.7	-39.8	22.4	0.00e+00	0	30	0	750780416	50	6247
2026-01-17 19:14:24.51	334.73	13.52	-38.3	-39.3	22.4	0.00e+00	0	30	0	752877568	50	5916
2026-01-17 19:14:25.52	334.54	13.49	-38.2	-39.2	22.5	0.00e+00	0	30	0	754974720	50	5891
2026-01-17 19:14:26.53	334.35	13.46	-38.3	-39.3	22.5	0.00e+00	0	30	0	757071872	50	5903
2026-01-17 19:14:27.54	334.16	13.42	-38.3	-39.3	22.6	0.00e+00	29	30	0	759169024	50	5913
2026-01-17 19:14:28.55	333.97	13.39	-38.1	-39.1	22.6	0.00e+00	0	30	0	760217600	50	5816
2026-01-17 19:14:29.56	333.77	13.36	-38.2	-39.2	22.5	0.00e+00	40	30	0	762314752	50	5842
2026-01-17 19:14:30.57	333.58	13.32	-38.1	-39.1	22.6	0.00e+00	0	30	0	764411904	50	5807
2026-01-17 19:14:31.58	333.39	13.29	-38.0	-39.0	22.7	0.00e+00	36	30	0	766509056	50	5718
2026-01-17 19:14:32.59	333.20	13.26	-38.1	-39.0	22.7	0.00e+00	0	30	0	768606208	50	5752
2026-01-17 19:14:33.60	333.01	13.22	-38.1	-39.1	22.7	0.00e+00	0	30	0	769654784	50	5763
2026-01-17 19:14:34.60	332.83	13.19	-38.0	-38.9	22.8	0.00e+00	24	30	0	771751936	50	5681
2026-01-17 19:14:35.62	332.64	13.15	-37.8	-38.8	22.9	0.00e+00	0	30	0	773849088	50	5588
2026-01-17 19:14:36.63	332.45	13.12	-37.8	-38.7	22.9	0.00e+00	39	30	0	775946240	50	5564
2026-01-17 19:14:37.63	332.26	13.08	-37.9	-38.9	22.8	0.00e+00	0	30	0	776994816	50	5641
2026-01-17 19:14:38.64	332.08	13.05	-37.6	-38.5	23.0	0.00e+00	79	30	0	779091968	48	6063
2026-01-17 19:14:39.66	331.89	13.01	-37.4	-38.4	22.8	0.00e+00	0	30	0	781189120	48	5966
2026-01-17 19:14:40.67	331.70	12.98	-37.5	-38.4	23.1	0.00e+00	0	30	0	783286272	48	6003
2026-01-17 19:14:41.68	331.52	12.94	-37.6	-38.5	23.0	0.00e+00	0	30	0	785383424	48	6082
2026-01-17 19:14:42.68	331.33	12.90	-37.7	-38.6	22.8	0.00e+00	0	30	0	787480576	48	6137
2026-01-17 19:14:43.69	331.15	12.87	-37.8	-38.7	22.9	0.00e+00	31	30	0	788529152	48	6224
2026-01-17 19:14:44.70	330.96	12.83	-37.9	-38.9	22.8	0.00e+00	0	30	0	790626304	48	6333
2026-01-17 19:14:45.71	330.78	12.79	-38.1	-39.1	22.6	0.00e+00	92	30	0	792723456	48	6469
2026-01-17 19:14:46.72	330.60	12.75	-38.1	-39.1	22.7	0.00e+00	0	30	0	794820608	48	6470
2026-01-17 19:14:47.73	330.41	12.72	-38.3	-39.4	22.4	0.00e+00	0	30	0	796917760	48	6711
2026-01-17 19:14:48.74	330.23	12.68	-38.4	-39.4	22.3	0.00e+00	0	30	0	797966336	48	6743
2026-01-17 19:14:49.75	330.05	12.64	-38.6	-39.6	22.2	0.00e+00	0	30	0	800063488	48	6919
2026-01-17 19:14:50.76	329.87	12.60	-38.8	-39.9	21.9	0.00e+00	77	30	0	802160640	50	6326
2026-01-17 19:14:51.77	329.69	12.56	-38.9	-39.9	21.9	0.00e+00	0	30	0	804257792	50	6389
2026-01-17 19:14:52.78	329.51	12.53	-39.0	-40.1	21.8	0.00e+00	91	30	0	806354944	50	6501
2026-01-17 19:14:53.79	329.33	12.49	-38.9	-40.0	21.7	0.00e+00	0	30	0	807403520	50	6459
2026-01-17 19:14:54.80	329.15	12.45	-38.9	-39.9	21.9	0.00e+00	0	30	0	809500672	50	6383
2026-01-17 19:14:55.81	328.97	12.41	-38.7	-39.8	21.9	0.00e+00	0	30	0	811597824	50	6250
2026-01-17 19:14:56.82	328.79	12.37	-38.8	-39.8	22.0	0.00e+00	0	30	0	813694976	50	6287
2026-01-17 19:14:57.83	328.61	12.33	-38.8	-39.9	22.0	0.00e+00	34	30	0	815792128	50	6366
2026-01-17 19:14:58.84	328.43	12.29	-38.8	-39.8	22.0	0.00e+00	0	30	0	816840704	50	6317
2026-01-17 19:14:59.84	328.26	12.25	-38.8	-39.9	21.9	0.00e+00	92	30	0	818937856	50	6318
2026-01-17 19:15:00.85	328.08	12.21	-38.9	-40.0	21.8	0.00e+00	0	30	0	821035008	50	6431
2026-01-17 19:15:01.86	327.91	12.17	-39.0	-40.1	21.8	0.00e+00	0	30	0	823132160	50	6506
2026-01-17 19:15:02.87	327.73	12.13	-39.0	-40.1	21.8	0.00e+00	0	30	0	825229312	50	6475
2026-01-17 19:15:03.88	327.55	12.09	-39.0	-40.1	21.8	0.00e+00	0	30	0	826277888	50	6515
2026-01-17 19:15:04.89	327.38	12.04	-39.0	-40.1	21.7	0.00e+00	7	30	0	828375040	50	6522
2026-01-17 19:15:05.90	327.21	12.00	-39.1	-40.2	21.7	0.00e+00	0	30	0	830472192	50	6543
2026-01-17 19:15:06.91	327.03	11.96	-39.0	-40.1	21.8	0.00e+00	91	30	0	832569344	50	6502
2026-01-17 19:15:07.92	326.86	11.92	-39.1	-40.2	21.7	0.00e+00	0	30	0	834666496	50	6607
2026-01-17 19:15:08.93	326.69	11.88	-39.0	-40.1	21.8	0.00e+00	82	30	0	835715072	50	6499
2026-01-17 19:15:09.94	326.51	11.84	-39.3	-40.4	21.5	0.00e+00	0	30	0	837812224	50	6755
2026-01-17 19:15:10.95	326.34	11.79	-39.1	-40.2	21.6	0.00e+00	0	30	0	839909376	50	6591
2026-01-17 19:15:11.96	326.17	11.75	-39.4	-40.6	21.6	0.00e+00	9	30	0	842006528	50	6865
2026-01-17 19:15:12.96	326.00	11.71	-39.7	-40.8	21.2	0.00e+00	0	30	0	844103680	50	7073
2026-01-17 19:15:13.97	325.83	11.67	-39.6	-40.8	21.2	0.00e+00	90	30	0	845152256	50	7035
2026-01-17 19:15:14.98	325.66	11.62	-39.5	-40.6	21.3	0.00e+00	0	30	0	847249408	50	6881
2026-01-17 19:15:15.99	325.49	11.58	-39.2	-40.2	21.7	0.00e+00	92	30	0	849346560	50	6610
2026-01-17 19:15:17.00	325.33	11.54	-39.2	-40.3	21.7	0.00e+00	0	30	0	851443712	50	6643
2026-01-17 19:15:18.01	325.16	11.49	-39.0	-40.0	21.9	0.00e+00	0	30	0	853540864	50	6452
2026-01-17 19:15:19.02	324.99	11.45	-38.6	-39.6	22.1	0.00e+00	0	30	0	855638016	50	6162
2026-01-17 19:15:20.03	324.82	11.41	-38.8	-39.8	22.0	0.00e+00	0	30	0	856686592	50	6280
2026-01-17 19:15:21.04	324.66	11.36	-38.8	-39.9	21.9	0.00e+00	90	30	0	858783744	50	6327
2026-01-17 19:15:22.05	324.49	11.32	-39.0	-40.1	21.8	0.00e+00	0	30	0	860880896	50	6503
2026-01-17 19:15:23.06	324.32	11.27	-39.4	-40.5	21.4	0.00e+00	7	30	0	862978048	50	6809
2026-01-17 19:15:24.07	324.16	11.23	-39.9	-41.1	21.0	0.00e+00	0	30	0	865075200	52	6507
2026-01-17 19:15:25.08	323.99	11.18	-40.1	-41.4	20.7	0.00e+00	0	30	0	866123776	52	6701
2026-01-17 19:15:26.09	323.83	11.14	-40.5	-41.8	20.3	0.00e+00	0	30	0	868220928	52	7084
2026-01-17 19:15:27.10	323.67	11.09	-40.6	-42.0	20.0	0.00e+00	0	30	0	870318080	52	7221
2026-01-17 19:15:28.11	323.50	11.05	-40.8	-42.2	19.9	0.00e+00	34	30	0	872415232	54	6587
2026-01-17 19:15:29.12	323.34	11.00	-40.8	-42.2	19.8	0.00e+00	0	30	0	874512384	54	6574
2026-01-17 19:15:30.13	323.18	10.96	-40.6	-42.0	20.0	0.00e+00	60	30	0	875560960	54	6417
2026-01-17 19:15:31.14	323.02	10.91	-40.2	-41.5	20.6	0.00e+00	2	30	0	877658112	54	6055
2026-01-17 19:15:32.15	322.86	10.87	-40.1	-41.3	20.7	0.00e+00	0	30	0	879755264	54	5936
2026-01-17 19:15:33.16	322.70	10.82	-39.8	-41.0	20.9	0.00e+00	0	30	0	881852416	54	5740
2026-01-17 19:15:34.17	322.54	10.78	-39.7	-40.9	21.1	0.00e+00	0	30	0	883949568	52	6356
2026-01-17 19:15:35.18	322.38	10.73	-39.7	-40.9	21.1	0.00e+00	28	30	0	884998144	52	6362
2026-01-17 19:15:36.20	322.22	10.68	-40.0	-41.3	20.8	0.00e+00	0	30	0	887095296	52	6625
2026-01-17 19:15:37.21	322.06	10.64	-40.2	-41.5	20.5	0.00e+00	92	30	0	889192448	52	6788
2026-01-17 19:15:38.22	321.90	10.59	-40.8	-42.2	19.9	0.00e+00	4	30	0	891289600	54	6605
2026-01-17 19:15:39.23	321.74	10.54	-41.5	-43.1	19.0	0.00e+00	58	30	0	893386752	54	7284
2026-01-17 19:15:40.24	321.59	10.50	-42.1	-43.9	18.3	0.00e+00	0	30	0	894435328	56	7112
2026-01-17 19:15:41.25	321.43	10.45	-42.2	-44.0	18.2	0.00e+00	0	30	0	896532480	56	7204
2026-01-17 19:15:42.26	321.27	10.40	-42.6	-44.6	17.7	0.00e+00	32	30	0	898629632	56	7720
2026-01-17 19:15:43.27	321.12	10.36	-42.7	-44.6	17.7	0.00e+00	0	30	0	900726784	56	7726
2026-01-17 19:15:44.28	320.96	10.31	-42.6	-44.6	17.7	0.00e+00	59	30	0	902823936	56	7708
2026-01-17 19:15:45.29	320.81	10.26	-42.2	-44.0	18.4	0.00e+00	0	30	0	904921088	56	7180
2026-01-17 19:15:46.30	320.65	10.22	-42.2	-44.0	18.6	0.00e+00	62	30	0	905969664	56	7208
2026-01-17 19:15:47.31	320.50	10.17	-41.6	-43.2	18.9	0.00e+00	0	30	0	908066816	56	6612
2026-01-17 19:15:48.32	320.35	10.12	-41.5	-43.1	19.1	0.00e+00	0	30	0	910163968	56	6487
2026-01-17 19:15:49.33	320.20	10.07	-41.7	-43.3	19.0	0.00e+00	0	30	0	912261120	56	6638
2026-01-17 19:15:50.34	320.04	10.03	-41.6	-43.2	19.0	0.00e+00	0	30	0	914358272	56	6599
2026-01-17 19:15:51.35	319.89	9.98	-41.5	-43.0	19.1	0.00e+00	29	30	0	915406848	56	6460
2026-01-17 19:15:52.36	319.74	9.93	-41.3	-42.8	19.4	0.00e+00	0	30	0	917504000	56	6279
2026-01-17 19:15:53.37	319.59	9.88	-41.0	-42.5	19.7	0.00e+00	72	30	0	919601152	56	6046
2026-01-17 19:15:54.38	319.44	9.83	-41.2	-42.6	19.6	0.00e+00	0	30	0	921698304	56	6155
2026-01-17 19:15:55.39	319.29	9.79	-40.9	-42.3	19.8	0.00e+00	0	30	0	923795456	56	5904
2026-01-17 19:15:56.40	319.14	9.74	-40.6	-41.9	20.1	0.00e+00	25	30	0	924844032	54	6345
2026-01-17 19:15:57.41	319.00	9.69	-40.4	-41.7	20.3	0.00e+00	0	30	0	926941184	54	6232
2026-01-17 19:15:58.42	318.85	9.64	-40.3	-41.6	20.4	0.00e+00	51	30	0	929038336	54	6113
2026-01-17 19:15:59.43	318.70	9.59	-40.3	-41.5	20.3	0.00e+00	0	30	0	931135488	54	6100
2026-01-17 19:16:00.44	318.55	9.54	-40.5	-41.9	20.2	0.00e+00	79	30	0	933232640	54	6321
2026-01-17 19:16:01.45	318.41	9.49	-40.5	-41.8	20.2	0.00e+00	0	30	0	934281216	54	6273
2026-01-17 19:16:02.46	318.26	9.45	-40.6	-41.9	20.0	0.00e+00	0	30	0	936378368	54	6336
2026-01-17 19:16:03.47	318.12	9.40	-40.4	-41.7	20.2	0.00e+00	0	30	0	938475520	54	6227
2026-01-17 19:16:04.48	317.97	9.35	-40.4	-41.7	20.3	0.00e+00	0	30	0	940572672	54	6214
2026-01-17 19:16:05.49	317.83	9.30	-40.2	-41.4	20.5	0.00e+00	64	30	0	942669824	54	6004
2026-01-17 19:16:06.50	317.68	9.25	-40.1	-41.3	20.6	0.00e+00	0	30	0	943718400	54	5961
2026-01-17 19:16:07.51	317.54	9.20	-40.1	-41.3	20.7	0.00e+00	92	30	0	945815552	54	5949
2026-01-17 19:16:08.53	317.40	9.15	-39.8	-41.0	20.8	0.00e+00	0	30	0	947912704	54	5748
2026-01-17 19:16:09.54	317.25	9.10	-39.9	-41.1	20.8	0.00e+00	0	30	0	950009856	54	5799
2026-01-17 19:16:10.55	317.11	9.05	-39.8	-41.0	20.8	0.00e+00	0	30	0	952107008	54	5739
2026-01-17 19:16:11.56	316.97	9.00	-40.3	-41.6	20.4	0.00e+00	0	30	0	953155584	54	6110
2026-01-17 19:16:12.57	316.83	8.95	-40.2	-41.5	20.5	0.00e+00	26	30	0	955252736	54	6044
2026-01-17 19:16:13.58	316.69	8.90	-39.8	-41.1	20.8	0.00e+00	0	30	0	957349888	54	5776
2026-01-17 19:16:14.59	316.55	8.85	-39.8	-41.0	20.9	0.00e+00	92	30	0	959447040	52	6419
2026-01-17 19:16:15.59	316.41	8.80	-39.8	-41.0	21.0	0.00e+00	0	30	0	961544192	52	6430
2026-01-17 19:16:16.60	316.27	8.75	-39.9	-41.1	20.8	0.00e+00	0	30	0	962592768	52	6537
2026-01-17 19:16:17.61	316.13	8.70	-40.0	-41.3	20.6	0.00e+00	0	30	0	964689920	52	6631
2026-01-17 19:16:18.62	316.00	8.65	-40.1	-41.4	20.5	0.00e+00	0	30	0	966787072	52	6720
2026-01-17 19:16:19.63	315.86	8.60	-40.2	-41.5	20.4	0.00e+00	0	30	0	968884224	52	6799
2026-01-17 19:16:20.64	315.72	8.55	-40.3	-41.7	20.3	0.00e+00	0	30	0	970981376	52	6940
2026-01-17 19:16:21.65	315.58	8.50	-40.4	-41.7	20.3	0.00e+00	92	30	0	973078528	52	6943
2026-01-17 19:16:22.66	315.45	8.45	-40.5	-41.8	20.2	0.00e+00	0	30	0	974127104	52	7073
2026-01-17 19:16:23.66	315.31	8.40	-40.5	-41.8	20.0	0.00e+00	0	30	0	976224256	52	7052
2026-01-17 19:16:24.68	315.18	8.35	-40.6	-42.0	19.9	0.00e+00	0	30	0	978321408	52	7174
2026-01-17 19:16:25.69	315.04	8.30	-40.2	-41.5	20.3	0.00e+00	0	30	0	980418560	52	6819
2026-01-17 19:16:26.69	314.91	8.25	-40.4	-41.7	20.1	0.00e+00	0	30	0	982515712	52	6978
2026-01-17 19:16:27.70	314.78	8.20	-40.3	-41.6	20.3	0.00e+00	0	30	0	983564288	52	6927
2026-01-17 19:16:28.71	314.64	8.15	-40.3	-41.5	20.4	0.00e+00	57	30	0	985661440	52	6848
2026-01-17 19:16:29.72	314.51	8.10	-40.1	-41.4	20.4	0.00e+00	0	30	0	987758592	52	6753
2026-01-17 19:16:30.74	314.38	8.05	-40.1	-41.4	20.5	0.00e+00	92	30	0	989855744	52	6721
2026-01-17 19:16:31.75	314.25	8.00	-40.2	-41.5	20.3	0.00e+00	0	30	0	991952896	52	6832
2026-01-17 19:16:32.76	314.11	7.95	-40.1	-41.4	20.4	0.00e+00	0	30	0	993001472	52	6740
2026-01-17 19:16:33.77	313.98	7.90	-40.1	-41.4	20.5	0.00e+00	0	30	0	995098624	52	6736
2026-01-17 19:16:34.77	313.85	7.85	-40.1	-41.4	20.5	0.00e+00	0	30	0	997195776	52	6693
2026-01-17 19:16:35.78	313.72	7.80	-39.9	-41.1	20.7	0.00e+00	92	30	0	999292928	52	6537
2026-01-17 19:16:36.79	313.59	7.75	-39.9	-41.2	20.8	0.00e+00	0	30	0	1001390080	52	6546
2026-01-17 19:16:37.80	313.47	7.69	-39.4	-40.5	21.2	0.00e+00	92	30	0	1002438656	52	6088
2026-01-17 19:16:38.81	313.34	7.64	-39.3	-40.4	21.2	0.00e+00	0	30	0	1004535808	52	6019
2026-01-17 19:16:39.82	313.21	7.59	-39.2	-40.3	21.4	0.00e+00	0	30	0	1006632960	52	5960
2026-01-17 19:16:40.83	313.08	7.54	-39.0	-40.2	21.6	0.00e+00	0	30	0	1008730112	52	5829
2026-01-17 19:16:41.84	312.95	7.49	-39.0	-40.1	21.7	0.00e+00	0	30	0	1010827264	52	5791
2026-01-17 19:16:42.85	312.83	7.44	-38.9	-40.0	21.6	0.00e+00	29	30	0	1011875840	52	5732
2026-01-17 19:16:43.87	312.70	7.39	-38.9	-40.0	21.7	0.00e+00	0	30	0	1013972992	52	5699
2026-01-17 19:16:44.88	312.57	7.34	-39.1	-40.2	21.6	0.00e+00	92	30	0	1016070144	52	5867
2026-01-17 19:16:45.89	312.45	7.29	-39.1	-40.2	21.5	0.00e+00	0	30	0	1018167296	52	5851
2026-01-17 19:16:46.90	312.32	7.23	-39.2	-40.4	21.4	0.00e+00	0	30	0	1020264448	52	5967
2026-01-17 19:16:47.91	312.20	7.18	-39.3	-40.5	21.3	0.00e+00	0	30	0	1021313024	52	6036
2026-01-17 19:16:48.92	312.08	7.13	-39.2	-40.3	21.3	0.00e+00	0	30	0	1023410176	52	5964
2026-01-17 19:16:49.93	311.95	7.08	-39.2	-40.4	21.4	0.00e+00	37	30	0	1025507328	52	5980
2026-01-17 19:16:50.94	311.83	7.03	-39.4	-40.6	21.2	0.00e+00	0	30	0	1027604480	52	6145
2026-01-17 19:16:51.95	311.71	6.98	-39.1	-40.2	21.5	0.00e+00	88	30	0	1029701632	52	5873
2026-01-17 19:16:52.96	311.58	6.93	-39.2	-40.4	21.2	0.00e+00	0	30	0	1030750208	52	5987
2026-01-17 19:16:53.97	311.46	6.88	-39.1	-40.2	21.4	0.00e+00	0	30	0	1032847360	52	5869
2026-01-17 19:16:54.97	311.34	6.82	-39.0	-40.1	21.5	0.00e+00	0	30	0	1034944512	52	5798
2026-01-17 19:16:55.98	311.22	6.77	-38.9	-40.0	21.6	0.00e+00	0	30	0	1037041664	52	5732
2026-01-17 19:16:56.99	311.10	6.72	-39.1	-40.3	21.3	0.00e+00	12	30	0	1039138816	52	5913
2026-01-17 19:16:58.00	310.98	6.67	-39.3	-40.5	21.2	0.00e+00	0	30	0	1041235968	52	6067
2026-01-17 19:16:59.01	310.86	6.62	-39.1	-40.3	21.2	0.00e+00	52	30	0	1042284544	52	5927
2026-01-17 19:17:00.03	310.74	6.57	-39.4	-40.6	21.2	0.00e+00	0	30	0	1044381696	52	6105
2026-01-17 19:17:01.04	310.62	6.52	-39.2	-40.3	21.3	0.00e+00	6	30	0	1046478848	52	5946
2026-01-17 19:17:02.05	310.50	6.46	-39.4	-40.5	21.1	0.00e+00	0	30	0	1048576000	52	6101
2026-01-17 19:17:03.05	310.39	6.41	-39.3	-40.5	21.2	0.00e+00	0	30	0	1050673152	52	6053
2026-01-17 19:17:04.06	310.27	6.36	-39.5	-40.7	21.0	0.00e+00	0	30	0	1051721728	52	6199
2026-01-17 19:17:05.07	310.15	6.31	-39.6	-40.8	20.8	0.00e+00	0	30	0	1053818880	52	6280
2026-01-17 19:17:06.09	310.03	6.26	-39.6	-40.8	20.8	0.00e+00	89	30	0	1055916032	52	6273
2026-01-17 19:17:07.10	309.92	6.21	-39.6	-40.9	20.8	0.00e+00	0	30	0	1058013184	52	6337
2026-01-17 19:17:08.11	309.80	6.15	-39.7	-41.0	20.7	0.00e+00	90	30	0	1060110336	52	6405
2026-01-17 19:17:09.12	309.69	6.10	-39.8	-41.1	20.6	0.00e+00	0	30	0	1061158912	52	6519
2026-01-17 19:17:10.13	309.57	6.05	-39.8	-41.1	20.6	0.00e+00	0	30	0	1063256064	52	6507
2026-01-17 19:17:11.13	309.46	6.00	-39.8	-41.1	20.5	0.00e+00	0	30	0	1065353216	52	6517
2026-01-17 19:17:12.15	309.34	5.95	-39.8	-41.0	20.6	0.00e+00	6	30	0	1067450368	52	6453
2026-01-17 19:17:13.15	309.23	5.90	-40.0	-41.4	20.3	0.00e+00	22	30	0	1069547520	52	6701
2026-01-17 19:17:14.17	309.12	5.85	-40.0	-41.3	20.3	0.00e+00	0	30	0	1070596096	52	6690
2026-01-17 19:17:15.17	309.01	5.79	-39.9	-41.2	20.4	0.00e+00	92	30	0	1072693248	52	6574
2026-01-17 19:17:16.18	308.89	5.74	-40.2	-41.5	20.1	0.00e+00	0	30	0	1074790400	52	6832
2026-01-17 19:17:17.20	308.78	5.69	-40.0	-41.3	20.4	0.00e+00	0	30	0	1076887552	52	6648
2026-01-17 19:17:18.20	308.67	5.64	-39.8	-41.0	20.6	0.00e+00	0	30	0	1078984704	52	6457
2026-01-17 19:17:19.21	308.56	5.59	-39.9	-41.2	20.4	0.00e+00	0	30	0	1080033280	52	6566
2026-01-17 19:17:20.22	308.45	5.54	-39.8	-41.1	20.5	0.00e+00	30	30	0	1082130432	52	6488
2026-01-17 19:17:21.23	308.34	5.48	-39.7	-40.9	20.4	0.00e+00	0	30	0	1084227584	52	6367
2026-01-17 19:17:22.24	308.23	5.43	-39.7	-41.0	20.5	0.00e+00	72	30	0	1086324736	52	6402
2026-01-17 19:17:23.25	308.12	5.38	-39.7	-40.9	20.5	0.00e+00	0	30	0	1088421888	52	6384
2026-01-17 19:17:24.26	308.01	5.33	-39.6	-40.9	20.7	0.00e+00	0	30	0	1089470464	52	6336
2026-01-17 19:17:25.27	307.90	5.28	-39.6	-40.9	20.6	0.00e+00	0	30	0	1091567616	52	6321
2026-01-17 19:17:26.29	307.79	5.23	-39.5	-40.7	20.7	0.00e+00	0	30	0	1093664768	52	6231
2026-01-17 19:17:27.30	307.68	5.18	-39.6	-40.8	20.7	0.00e+00	30	30	0	1095761920	52	6316
2026-01-17 19:17:28.31	307.57	5.12	-39.3	-40.5	20.9	7.00e-07	0	30	0	1097859072	52	6073
2026-01-17 19:17:29.32	307.47	5.07	-39.0	-40.2	21.2	0.00e+00	71	30	0	1098907648	52	5835
2026-01-17 19:17:30.33	307.36	5.02	-39.2	-40.4	21.0	0.00e+00	0	30	0	1101004800	52	6016
2026-01-17 19:17:31.34	307.25	4.97	-39.3	-40.5	20.9	0.00e+00	0	30	0	1103101952	52	6072
2026-01-17 19:17:32.35	307.15	4.92	-39.3	-40.5	21.0	0.00e+00	0	30	0	1105199104	52	6039
2026-01-17 19:17:33.36	307.04	4.87	-39.5	-40.8	20.8	0.00e+00	0	30	0	1107296256	52	6259
2026-01-17 19:17:34.37	306.94	4.81	-39.9	-41.2	20.4	0.00e+00	17	30	0	1109393408	52	6561
2026-01-17 19:17:35.38	306.83	4.76	-40.1	-41.5	20.1	0.00e+00	0	30	0	1110441984	52	6775
2026-01-17 19:17:36.38	306.73	4.71	-40.1	-41.5	20.0	0.00e+00	92	30	0	1112539136	52	6791
2026-01-17 19:17:37.39	306.62	4.66	-40.1	-41.5	20.0	0.00e+00	0	30	0	1114636288	52	6807
2026-01-17 19:17:38.41	306.52	4.61	-40.3	-41.7	19.8	0.00e+00	47	30	0	1116733440	52	6941
2026-01-17 19:17:39.42	306.42	4.56	-40.5	-42.0	19.7	0.00e+00	0	30	0	1118830592	52	7203
2026-01-17 19:17:40.43	306.31	4.51	-40.8	-42.3	19.3	0.00e+00	0	30	0	1119879168	54	6666
2026-01-17 19:17:41.44	306.21	4.45	-40.7	-42.2	19.4	0.00e+00	50	30	0	1121976320	54	6548
2026-01-17 19:17:42.45	306.11	4.40	-40.5	-42.0	19.5	0.00e+00	0	30	0	1124073472	54	6411
2026-01-17 19:17:43.46	306.01	4.35	-40.2	-41.5	19.9	0.00e+00	21	30	0	1126170624	54	6067
2026-01-17 19:17:44.47	305.90	4.30	-40.5	-41.9	19.6	0.00e+00	0	30	0	1128267776	54	6341
2026-01-17 19:17:45.48	305.80	4.25	-40.5	-41.9	19.5	0.00e+00	66	30	0	1129316352	54	6363
2026-01-17 19:17:46.49	305.70	4.20	-40.7	-42.2	19.4	0.00e+00	0	30	0	1131413504	54	6580
2026-01-17 19:17:47.50	305.60	4.15	-40.1	-41.4	20.0	0.00e+00	0	30	0	1133510656	54	6008
2026-01-17 19:17:48.51	305.50	4.09	-39.7	-41.0	20.4	0.00e+00	0	30	0	1135607808	52	6393
2026-01-17 19:17:49.52	305.40	4.04	-39.4	-40.6	20.7	0.00e+00	0	30	0	1137704960	52	6159
2026-01-17 19:17:50.53	305.30	3.99	-39.9	-41.2	20.2	0.00e+00	22	30	0	1138753536	52	6565
2026-01-17 19:17:51.54	305.20	3.94	-39.8	-41.0	20.3	0.00e+00	0	30	0	1140850688	52	6455
2026-01-17 19:17:52.55	305.10	3.89	-39.6	-40.9	20.4	0.00e+00	90	30	0	1142947840	52	6357
2026-01-17 19:17:53.56	305.01	3.84	-39.6	-40.9	20.4	0.00e+00	0	30	0	1145044992	52	6328
2026-01-17 19:17:54.57	304.91	3.79	-39.5	-40.7	20.5	0.00e+00	0	30	0	1147142144	52	6234
2026-01-17 19:17:55.58	304.81	3.74	-39.8	-41.1	20.2	0.00e+00	0	30	0	1148190720	52	6502
2026-01-17 19:17:56.59	304.71	3.68	-39.8	-41.1	20.2	0.00e+00	0	30	0	1150287872	52	6503
2026-01-17 19:17:57.60	304.62	3.63	-39.3	-40.5	20.6	0.00e+00	65	30	0	1152385024	52	6098
2026-01-17 19:17:58.61	304.52	3.58	-39.5	-40.8	20.5	0.00e+00	0	30	0	1154482176	52	6267
2026-01-17 19:17:59.62	304.42	3.53	-39.6	-40.8	20.3	0.00e+00	92	30	0	1156579328	52	6316
2026-01-17 19:18:00.63	304.33	3.48	-40.1	-41.4	19.8	0.00e+00	0	30	0	1157627904	52	6762
2026-01-17 19:18:01.64	304.23	3.43	-40.2	-41.5	19.7	0.00e+00	0	30	0	1159725056	52	6828
2026-01-17 19:18:02.65	304.14	3.38	-40.4	-41.9	19.5	0.00e+00	0	30	0	1161822208	52	7104
2026-01-17 19:18:03.66	304.04	3.33	-40.7	-42.2	19.1	0.00e+00	0	30	0	1163919360	52	7368
2026-01-17 19:18:04.67	303.95	3.27	-40.8	-42.4	18.9	0.00e+00	61	30	0	1166016512	54	6729
2026-01-17 19:18:05.68	303.85	3.22	-41.1	-42.7	18.6	0.00e+00	0	30	0	1167065088	54	6992
2026-01-17 19:18:06.69	303.76	3.17	-41.3	-43.0	18.3	0.00e+00	37	30	0	1169162240	54	7191
2026-01-17 19:18:07.70	303.67	3.12	-41.2	-42.9	18.2	0.00e+00	0	30	0	1171259392	54	7125
2026-01-17 19:18:08.71	303.57	3.07	-41.1	-42.7	18.6	0.00e+00	0	30	0	1173356544	54	7003
2026-01-17 19:18:09.73	303.48	3.02	-42.0	-44.0	17.5	0.00e+00	0	30	0	1175453696	56	7183
2026-01-17 19:18:10.73	303.39	2.97	-47.7	-62.9	3.6	3.61e-01	0	30	104	1176502272	60	50298
2026-01-17 19:18:11.75	303.29	2.92	-48.3	-63.5	3.6	1.51e+00	0	30	104	1176502272	60	53888
2026-01-17 19:18:12.76	303.20	2.87	-48.6	-63.7	3.6	1.51e+00	0	30	104	1176502272	60	55651
2026-01-17 19:18:13.77	303.11	2.82	-48.7	-63.9	3.6	1.51e+00	0	30	104	1176502272	60	56487
2026-01-17 19:18:14.78	303.02	2.77	-48.8	-64.0	3.6	1.51e+00	0	30	104	1176502272	60	57483
2026-01-17 19:18:15.79	302.93	2.71	-48.9	-64.1	3.6	1.51e+00	0	30	104	1176502272	60	57735
2026-01-17 19:18:16.80	302.84	2.66	-48.9	-64.1	3.6	1.51e+00	0	30	104	1176502272	60	57663
2026-01-17 19:18:17.81	302.75	2.61	-48.9	-64.1	3.5	1.51e+00	0	30	104	1176502272	60	57749
2026-01-17 19:18:18.82	302.66	2.56	-48.8	-64.1	3.6	1.51e+00	0	30	104	1176502272	60	57719
2026-01-17 19:18:19.83	302.57	2.51	-48.8	-64.0	3.6	1.51e+00	0	30	104	1176502272	60	57593
