passes_logs/2026/01/17/R4.6S_Anadyr/R4.6S_Anadyr__20260117_151739_NOAA_21_JPSS-2_rec.log

#Pass ID: 20260117_151739_NOAA 21 (JPSS-2)
#Satellite: NOAA 21 (JPSS-2)
#Configuration: NOAA-21
#almurnet v.1.7.20251203
#Start time: 2026-01-17 15:17:42

#Version: 2.2.20231116
#Station: R4.6S_Anadyr
#Location: 177.4865 lon 64.73178 lat
#TLE: 1 54234U 22150A   26016.56338662  .00000024  00000+0  32257-4 0  9990
#TLE: 2 54234  98.7500 317.4442 0000622 279.9774  80.1332 14.19534942165033

#Time	Az	El	Level	Level2	SNR	BER	BlckErr	Temp	State	Recorded	gain1	gain2
2026-01-17 15:17:42.32	21.85	0.16	-48.5	-63.3	3.5	1.51e+00	0	25	0	0	60	53108
2026-01-17 15:17:43.32	21.84	0.22	-48.6	-61.4	3.5	1.52e+00	0	26	104	0	60	41399
2026-01-17 15:17:44.33	21.82	0.28	-48.5	-61.5	3.5	1.52e+00	0	26	104	0	60	41703
2026-01-17 15:17:45.34	21.81	0.34	-48.6	-61.5	3.5	1.52e+00	0	27	104	0	60	41658
2026-01-17 15:17:46.35	21.80	0.40	-48.7	-61.5	3.5	1.52e+00	0	26	104	0	60	41651
2026-01-17 15:17:47.36	21.79	0.46	-48.7	-61.5	3.5	1.51e+00	0	27	104	0	60	41858
2026-01-17 15:17:48.37	21.78	0.52	-48.7	-61.6	3.5	1.52e+00	0	27	104	0	60	42012
2026-01-17 15:17:49.38	21.76	0.58	-48.7	-61.5	3.5	1.52e+00	0	27	104	0	60	41615
2026-01-17 15:17:50.39	21.75	0.64	-48.6	-61.4	3.5	1.52e+00	0	27	104	0	60	41433
2026-01-17 15:17:51.40	21.74	0.70	-48.5	-61.4	3.5	1.52e+00	0	27	104	0	60	41041
2026-01-17 15:17:52.41	21.73	0.77	-48.5	-61.3	3.5	1.52e+00	0	27	104	0	60	40937
2026-01-17 15:17:53.42	21.72	0.83	-48.4	-61.2	3.5	1.52e+00	0	27	104	0	60	40284
2026-01-17 15:17:54.43	21.70	0.89	-48.3	-61.1	3.5	1.52e+00	0	27	104	0	60	39998
2026-01-17 15:17:55.44	21.69	0.95	-48.0	-60.8	3.5	1.52e+00	0	27	104	0	60	38382
2026-01-17 15:17:56.45	21.68	1.01	-47.8	-60.7	3.5	1.52e+00	0	27	104	0	60	37973
2026-01-17 15:17:57.47	21.67	1.07	-47.6	-60.4	3.5	1.51e+00	0	27	104	0	60	36759
2026-01-17 15:17:58.48	21.65	1.14	-47.3	-60.1	3.5	1.52e+00	0	27	104	0	60	35466
2026-01-17 15:17:59.49	21.64	1.20	-47.2	-59.9	3.5	1.52e+00	0	27	104	0	60	34888
2026-01-17 15:18:00.50	21.63	1.26	-47.2	-60.0	3.5	1.52e+00	0	27	104	0	60	34962
2026-01-17 15:18:01.51	21.61	1.32	-47.1	-59.9	3.5	1.52e+00	0	27	104	0	60	34855
2026-01-17 15:18:02.52	21.60	1.39	-47.1	-59.9	3.5	1.52e+00	0	27	104	0	60	34888
2026-01-17 15:18:03.53	21.59	1.45	-47.1	-59.8	3.5	1.52e+00	0	27	104	0	60	34342
2026-01-17 15:18:04.54	21.58	1.51	-47.1	-59.8	3.5	1.52e+00	0	27	104	0	60	34282
2026-01-17 15:18:05.55	21.56	1.58	-47.1	-59.7	3.5	1.52e+00	0	27	104	0	60	33808
2026-01-17 15:18:06.56	21.55	1.64	-47.1	-59.6	3.5	1.52e+00	0	27	104	0	60	33435
2026-01-17 15:18:07.57	21.54	1.70	-47.1	-59.5	3.5	1.52e+00	0	27	104	0	60	32967
2026-01-17 15:18:08.58	21.52	1.77	-47.1	-59.5	3.5	1.52e+00	0	27	104	0	60	33249
2026-01-17 15:18:09.59	21.51	1.83	-47.1	-59.5	3.5	1.52e+00	0	27	104	0	60	33092
2026-01-17 15:18:10.60	21.50	1.89	-47.1	-59.6	3.5	1.52e+00	0	27	104	0	60	33557
2026-01-17 15:18:11.61	21.48	1.96	-47.1	-59.8	3.5	1.52e+00	0	27	104	0	60	34299
2026-01-17 15:18:12.63	21.47	2.02	-47.1	-59.9	3.5	1.52e+00	0	27	104	0	60	34508
2026-01-17 15:18:13.64	21.45	2.09	-47.1	-59.9	3.5	1.52e+00	0	27	104	0	60	34879
2026-01-17 15:18:14.65	21.44	2.15	-47.1	-59.9	3.5	1.52e+00	0	27	104	0	60	34840
2026-01-17 15:18:15.66	21.43	2.21	-47.1	-59.9	3.5	1.52e+00	0	27	104	0	60	34541
2026-01-17 15:18:16.67	21.41	2.28	-47.1	-59.8	3.5	1.52e+00	0	27	104	0	60	34276
2026-01-17 15:18:17.68	21.40	2.34	-47.1	-59.7	3.5	1.52e+00	0	27	104	0	60	33948
2026-01-17 15:18:18.69	21.38	2.41	-47.1	-59.5	3.5	1.52e+00	0	27	104	0	60	33284
2026-01-17 15:18:19.70	21.37	2.47	-47.1	-59.2	3.5	1.52e+00	0	27	104	0	60	32050
2026-01-17 15:18:20.71	21.36	2.54	-47.0	-58.9	3.5	1.51e+00	0	27	104	0	60	31087
2026-01-17 15:18:21.72	21.34	2.60	-47.0	-58.9	3.5	1.51e+00	0	27	104	0	60	30994
2026-01-17 15:18:22.73	21.33	2.67	-47.0	-58.5	3.5	1.52e+00	0	27	104	0	60	29695
2026-01-17 15:18:23.74	21.31	2.74	-47.0	-58.1	3.6	1.51e+00	0	27	104	0	60	28196
2026-01-17 15:18:24.75	21.30	2.80	-47.0	-58.6	3.5	1.51e+00	0	27	104	0	60	29883
2026-01-17 15:18:25.76	21.28	2.87	-47.0	-58.4	3.5	1.51e+00	0	27	104	0	60	29274
2026-01-17 15:18:26.77	21.27	2.93	-47.0	-58.6	3.5	1.51e+00	0	27	104	0	60	29795
2026-01-17 15:18:27.78	21.25	3.00	-46.9	-57.2	3.6	1.51e+00	0	27	104	0	60	25513
2026-01-17 15:18:28.79	21.24	3.07	-46.5	-54.7	5.2	1.30e+00	120	27	104	0	60	19046
2026-01-17 15:18:29.80	21.22	3.13	-46.0	-51.5	7.3	2.62e-01	122	27	0	1048576	60	13229
2026-01-17 15:18:30.81	21.21	3.20	-45.4	-49.9	9.0	4.53e-02	120	27	0	4194304	60	10916
2026-01-17 15:18:31.82	21.19	3.27	-44.6	-48.2	10.7	2.79e-03	123	27	0	7340032	60	9023
2026-01-17 15:18:32.83	21.18	3.33	-43.7	-46.7	12.4	8.69e-05	122	27	0	10485760	60	7566
2026-01-17 15:18:33.84	21.16	3.40	-42.3	-44.5	14.6	1.06e-05	120	27	0	13631488	58	6636
2026-01-17 15:18:34.85	21.15	3.47	-42.5	-44.8	14.3	7.00e-07	122	27	0	16777216	58	6848
2026-01-17 15:18:35.86	21.13	3.54	-41.5	-43.4	15.8	0.00e+00	122	27	0	19922944	58	5854
2026-01-17 15:18:36.87	21.12	3.60	-41.2	-43.0	16.2	0.00e+00	122	27	0	23068672	56	6225
2026-01-17 15:18:37.88	21.10	3.67	-42.2	-44.4	14.8	7.00e-07	120	27	0	26214400	56	7313
2026-01-17 15:18:38.89	21.08	3.74	-41.8	-43.8	15.3	0.00e+00	122	27	0	29360128	56	6870
2026-01-17 15:18:39.90	21.07	3.81	-42.8	-45.3	13.8	7.00e-07	121	27	0	32505856	56	8125
2026-01-17 15:18:40.91	21.05	3.88	-46.2	-52.2	5.8	1.15e-02	123	27	0	35651584	60	14360
2026-01-17 15:18:41.92	21.03	3.94	-38.4	-40.0	18.5	0.00e+00	123	27	104	35651584	50	6244
2026-01-17 15:18:42.93	21.02	4.01	-47.1	-59.1	3.5	8.43e-01	0	27	104	37748736	60	31802
2026-01-17 15:18:43.94	21.00	4.08	-42.9	-45.8	4.9	1.42e+00	0	27	104	37748736	56	8603
2026-01-17 15:18:44.95	20.99	4.15	-45.8	-51.6	5.1	0.00e+00	122	27	0	37748736	60	13318
2026-01-17 15:18:45.96	20.97	4.22	-38.3	-39.9	19.1	6.80e-06	120	27	104	37748736	52	5484
2026-01-17 15:18:46.97	20.95	4.29	-38.5	-39.8	19.2	0.00e+00	121	27	0	39845888	48	6834
2026-01-17 15:18:47.98	20.94	4.36	-37.9	-39.2	19.9	0.00e+00	122	27	0	42991616	48	6362
2026-01-17 15:18:48.99	20.92	4.43	-37.6	-38.8	20.3	0.00e+00	120	27	0	46137344	48	6070
2026-01-17 15:18:50.00	20.90	4.50	-38.0	-39.2	19.9	0.00e+00	122	27	0	49283072	48	6372
2026-01-17 15:18:51.01	20.88	4.57	-37.8	-39.0	20.1	0.00e+00	120	27	0	52428800	48	6257
2026-01-17 15:18:52.01	20.87	4.64	-37.7	-38.9	20.3	0.00e+00	122	27	0	55574528	48	6139
2026-01-17 15:18:53.03	20.85	4.71	-38.0	-39.2	19.9	0.00e+00	123	27	0	58720256	48	6387
2026-01-17 15:18:54.03	20.83	4.78	-37.7	-39.0	20.2	0.00e+00	123	27	0	61865984	48	6207
2026-01-17 15:18:55.05	20.82	4.85	-37.8	-39.0	20.3	0.00e+00	121	27	0	65011712	48	6225
2026-01-17 15:18:56.06	20.80	4.92	-37.9	-39.1	20.0	0.00e+00	122	27	0	68157440	48	6301
2026-01-17 15:18:57.07	20.78	4.99	-37.7	-38.9	20.2	0.00e+00	123	27	0	71303168	48	6145
2026-01-17 15:18:58.08	20.76	5.06	-37.6	-38.8	20.4	0.00e+00	122	27	0	74448896	48	6068
2026-01-17 15:18:59.09	20.74	5.14	-37.8	-39.0	20.2	0.00e+00	123	27	0	77594624	48	6217
2026-01-17 15:19:00.10	20.73	5.21	-38.0	-39.2	19.9	0.00e+00	120	28	0	80740352	48	6393
2026-01-17 15:19:01.11	20.71	5.28	-37.9	-39.1	20.1	0.00e+00	122	27	0	83886080	48	6298
2026-01-17 15:19:02.12	20.69	5.35	-37.8	-39.0	20.2	0.00e+00	122	27	0	87031808	48	6274
2026-01-17 15:19:03.13	20.67	5.42	-37.6	-38.8	20.5	0.00e+00	122	27	0	90177536	48	6070
2026-01-17 15:19:04.14	20.65	5.50	-37.8	-39.0	20.3	0.00e+00	123	28	0	94371840	48	6227
2026-01-17 15:19:05.15	20.63	5.57	-37.5	-38.7	20.5	0.00e+00	123	27	0	97517568	48	5996
2026-01-17 15:19:06.16	20.62	5.64	-37.2	-38.4	20.8	0.00e+00	122	27	0	99614720	48	5820
2026-01-17 15:19:07.17	20.60	5.72	-37.3	-38.5	20.7	0.00e+00	123	28	0	102760448	48	5893
2026-01-17 15:19:08.18	20.58	5.79	-37.9	-39.1	20.2	0.00e+00	122	27	0	105906176	48	6328
2026-01-17 15:19:09.19	20.56	5.86	-37.5	-38.7	20.4	0.00e+00	123	27	0	110100480	48	6043
2026-01-17 15:19:10.19	20.54	5.94	-37.3	-38.4	20.5	0.00e+00	122	28	0	113246208	48	5850
2026-01-17 15:19:11.21	20.52	6.01	-37.1	-38.3	20.6	1.83e-05	122	27	0	116391936	48	5727
2026-01-17 15:19:12.21	20.50	6.08	-37.2	-38.3	20.2	0.00e+00	123	27	0	119537664	48	5752
2026-01-17 15:19:13.23	20.48	6.16	-37.5	-38.7	20.2	2.13e-05	120	28	0	122683392	48	6039
2026-01-17 15:19:14.23	20.46	6.23	-37.1	-38.3	20.8	0.00e+00	122	27	0	125829120	48	5730
2026-01-17 15:19:15.24	20.44	6.31	-37.0	-38.2	20.1	1.06e-05	122	28	0	128974848	48	5661
2026-01-17 15:19:16.25	20.42	6.38	-37.2	-38.4	20.9	0.00e+00	122	28	0	132120576	48	5805
2026-01-17 15:19:17.26	20.40	6.46	-37.0	-38.1	21.1	0.00e+00	123	28	0	135266304	48	5633
2026-01-17 15:19:18.27	20.38	6.53	-37.3	-38.5	20.8	0.00e+00	118	28	0	138412032	48	5871
2026-01-17 15:19:19.28	20.36	6.61	-36.8	-37.9	21.3	0.00e+00	123	28	0	141557760	48	5514
2026-01-17 15:19:20.29	20.34	6.68	-37.1	-38.3	21.0	0.00e+00	122	27	0	144703488	48	5728
2026-01-17 15:19:21.30	20.32	6.76	-36.9	-38.0	21.2	0.00e+00	122	28	0	147849216	48	5579
2026-01-17 15:19:22.31	20.30	6.84	-36.6	-37.7	21.6	0.00e+00	123	28	0	150994944	46	6031
2026-01-17 15:19:23.32	20.28	6.91	-37.2	-38.3	21.1	0.00e+00	122	28	0	154140672	46	6447
2026-01-17 15:19:24.33	20.26	6.99	-36.9	-38.0	21.3	0.00e+00	120	28	0	157286400	46	6230
2026-01-17 15:19:25.34	20.24	7.07	-37.1	-38.2	21.2	0.00e+00	123	28	0	160432128	46	6386
2026-01-17 15:19:26.35	20.22	7.14	-36.7	-37.7	21.6	0.00e+00	123	28	0	163577856	46	6044
2026-01-17 15:19:27.35	20.19	7.22	-36.7	-37.8	21.6	0.00e+00	120	28	0	166723584	46	6075
2026-01-17 15:19:28.37	20.17	7.30	-36.9	-38.0	21.4	0.00e+00	123	28	0	169869312	46	6219
2026-01-17 15:19:29.38	20.15	7.38	-36.8	-37.9	21.4	0.00e+00	123	28	0	173015040	46	6169
2026-01-17 15:19:30.39	20.13	7.45	-36.9	-38.0	21.3	0.00e+00	123	28	0	176160768	46	6255
2026-01-17 15:19:31.39	20.11	7.53	-36.7	-37.8	21.5	0.00e+00	123	28	0	179306496	46	6107
2026-01-17 15:19:32.40	20.09	7.61	-36.9	-37.9	21.5	0.00e+00	123	28	0	182452224	46	6191
2026-01-17 15:19:33.41	20.06	7.69	-36.5	-37.6	21.7	0.00e+00	123	28	0	185597952	46	5928
2026-01-17 15:19:34.43	20.04	7.77	-36.4	-37.4	21.9	0.00e+00	123	28	0	188743680	46	5836
2026-01-17 15:19:35.43	20.02	7.85	-36.4	-37.5	21.8	0.00e+00	123	28	0	191889408	46	5874
2026-01-17 15:19:36.44	20.00	7.93	-36.7	-37.8	21.7	0.00e+00	123	28	0	195035136	46	6073
2026-01-17 15:19:37.45	19.97	8.01	-36.6	-37.6	21.7	0.00e+00	123	28	0	198180864	46	5982
2026-01-17 15:19:38.46	19.95	8.09	-36.3	-37.4	22.0	0.00e+00	122	28	0	201326592	46	5792
2026-01-17 15:19:39.47	19.93	8.17	-36.2	-37.3	22.0	0.00e+00	123	28	0	204472320	46	5745
2026-01-17 15:19:40.48	19.90	8.25	-36.3	-37.3	22.0	0.00e+00	122	28	0	207618048	46	5774
2026-01-17 15:19:41.49	19.88	8.33	-36.3	-37.4	21.9	0.00e+00	122	28	0	210763776	46	5813
2026-01-17 15:19:42.50	19.86	8.41	-36.3	-37.3	22.0	0.00e+00	123	28	0	213909504	46	5780
2026-01-17 15:19:43.51	19.83	8.49	-36.2	-37.2	22.1	0.00e+00	123	28	0	217055232	46	5711
2026-01-17 15:19:44.52	19.81	8.57	-36.2	-37.2	22.1	0.00e+00	123	28	0	220200960	46	5723
2026-01-17 15:19:45.53	19.78	8.65	-36.4	-37.4	21.9	0.00e+00	122	28	0	223346688	46	5819
2026-01-17 15:19:46.54	19.76	8.74	-36.2	-37.2	22.1	0.00e+00	121	28	0	226492416	46	5704
2026-01-17 15:19:47.55	19.74	8.82	-36.1	-37.2	22.1	0.00e+00	122	28	0	229638144	46	5669
2026-01-17 15:19:48.56	19.71	8.90	-36.1	-37.1	22.1	0.00e+00	120	28	0	232783872	46	5651
2026-01-17 15:19:49.57	19.69	8.98	-35.9	-36.9	22.3	0.00e+00	123	28	0	235929600	46	5494
2026-01-17 15:19:50.58	19.66	9.07	-36.1	-37.1	22.2	0.00e+00	120	28	0	239075328	46	5653
2026-01-17 15:19:51.59	19.64	9.15	-36.0	-37.0	22.2	0.00e+00	123	28	0	242221056	46	5584
2026-01-17 15:19:52.60	19.61	9.23	-36.0	-37.1	22.4	0.00e+00	121	28	0	245366784	46	5602
2026-01-17 15:19:53.61	19.59	9.32	-35.9	-36.9	22.3	0.00e+00	123	28	0	248512512	46	5513
2026-01-17 15:19:54.62	19.56	9.40	-35.9	-36.9	22.3	0.00e+00	120	28	0	251658240	46	5504
2026-01-17 15:19:55.63	19.54	9.49	-35.8	-36.8	22.4	0.00e+00	122	28	0	254803968	44	6106
2026-01-17 15:19:56.63	19.51	9.57	-35.8	-36.8	22.5	0.00e+00	123	28	0	257949696	44	6101
2026-01-17 15:19:57.65	19.48	9.66	-36.0	-37.0	22.3	0.00e+00	122	28	0	261095424	44	6232
2026-01-17 15:19:58.65	19.46	9.74	-35.7	-36.7	22.6	0.00e+00	120	28	0	264241152	44	6023
2026-01-17 15:19:59.66	19.43	9.83	-35.8	-36.8	22.5	0.00e+00	122	28	0	267386880	44	6085
2026-01-17 15:20:00.68	19.40	9.91	-35.8	-36.8	22.5	0.00e+00	122	28	0	270532608	44	6078
2026-01-17 15:20:01.69	19.38	10.00	-35.7	-36.7	22.6	0.00e+00	122	28	0	273678336	44	6015
2026-01-17 15:20:02.69	19.35	10.09	-35.6	-36.6	22.6	0.00e+00	123	28	0	276824064	44	5974
2026-01-17 15:20:03.70	19.32	10.17	-35.5	-36.5	22.7	0.00e+00	122	28	0	279969792	44	5918
2026-01-17 15:20:04.71	19.30	10.26	-35.6	-36.6	22.7	0.00e+00	122	28	0	283115520	44	5955
2026-01-17 15:20:05.72	19.27	10.35	-35.7	-36.7	22.6	0.00e+00	123	28	0	286261248	44	6015
2026-01-17 15:20:06.73	19.24	10.43	-35.6	-36.6	22.7	0.00e+00	122	28	0	289406976	44	5983
2026-01-17 15:20:07.74	19.21	10.52	-35.7	-36.7	22.6	0.00e+00	123	28	0	292552704	44	6041
2026-01-17 15:20:08.75	19.19	10.61	-35.5	-36.4	22.8	0.00e+00	121	28	0	295698432	44	5854
2026-01-17 15:20:09.76	19.16	10.70	-35.4	-36.4	22.8	0.00e+00	123	28	0	298844160	44	5842
2026-01-17 15:20:10.77	19.13	10.79	-35.6	-36.6	22.7	0.00e+00	120	28	0	301989888	44	5939
2026-01-17 15:20:11.78	19.10	10.88	-36.0	-37.0	22.4	0.00e+00	123	28	0	305135616	44	6254
2026-01-17 15:20:12.79	19.07	10.97	-35.3	-36.3	22.9	0.00e+00	120	28	0	308281344	44	5743
2026-01-17 15:20:13.80	19.04	11.06	-35.5	-36.5	22.8	0.00e+00	122	28	0	311427072	44	5905
2026-01-17 15:20:14.81	19.01	11.15	-35.3	-36.3	23.0	0.00e+00	120	28	0	314572800	44	5752
2026-01-17 15:20:15.82	18.98	11.24	-35.5	-36.4	22.9	0.00e+00	122	28	0	317718528	44	5841
2026-01-17 15:20:16.82	18.95	11.33	-35.3	-36.2	23.0	0.00e+00	120	28	0	320864256	44	5719
2026-01-17 15:20:17.83	18.92	11.42	-35.4	-36.4	22.9	0.00e+00	122	28	0	324009984	44	5830
2026-01-17 15:20:18.84	18.89	11.51	-35.4	-36.4	22.9	0.00e+00	122	28	0	327155712	44	5836
2026-01-17 15:20:19.85	18.86	11.60	-35.3	-36.2	23.1	0.00e+00	122	28	0	330301440	44	5724
2026-01-17 15:20:20.86	18.83	11.69	-35.2	-36.2	23.0	0.00e+00	123	28	0	333447168	44	5700
2026-01-17 15:20:21.87	18.80	11.79	-35.3	-36.2	23.1	0.00e+00	123	28	0	336592896	44	5716
2026-01-17 15:20:22.88	18.77	11.88	-35.2	-36.1	23.1	0.00e+00	122	28	0	339738624	44	5645
2026-01-17 15:20:23.89	18.74	11.97	-35.2	-36.2	23.1	0.00e+00	123	28	0	342884352	44	5696
2026-01-17 15:20:24.90	18.71	12.07	-35.3	-36.3	23.0	0.00e+00	122	28	0	346030080	44	5738
2026-01-17 15:20:25.91	18.68	12.16	-35.1	-36.1	23.1	0.00e+00	122	28	0	349175808	44	5617
2026-01-17 15:20:26.92	18.65	12.26	-35.0	-36.0	23.3	0.00e+00	122	28	0	352321536	44	5532
2026-01-17 15:20:27.93	18.61	12.35	-35.1	-36.0	23.2	0.00e+00	121	28	0	355467264	44	5586
2026-01-17 15:20:28.94	18.58	12.44	-35.0	-35.9	23.4	0.00e+00	122	28	0	358612992	44	5513
2026-01-17 15:20:29.95	18.55	12.54	-35.0	-36.0	23.3	0.00e+00	123	28	0	361758720	44	5544
2026-01-17 15:20:30.96	18.52	12.64	-35.2	-36.2	23.1	0.00e+00	120	28	0	364904448	44	5667
2026-01-17 15:20:31.97	18.48	12.73	-35.1	-36.0	23.2	0.00e+00	123	28	0	368050176	44	5588
2026-01-17 15:20:32.98	18.45	12.83	-35.0	-35.9	23.4	0.00e+00	121	28	0	371195904	44	5516
2026-01-17 15:20:33.99	18.42	12.93	-35.0	-36.0	23.3	0.00e+00	122	28	0	374341632	44	5554
2026-01-17 15:20:35.00	18.38	13.02	-34.9	-35.8	23.4	0.00e+00	123	28	0	377487360	44	5461
2026-01-17 15:20:36.01	18.35	13.12	-35.0	-35.9	23.4	0.00e+00	123	28	0	380633088	44	5506
2026-01-17 15:20:37.02	18.31	13.22	-34.9	-35.9	23.4	0.00e+00	123	28	0	383778816	44	5487
2026-01-17 15:20:38.03	18.28	13.32	-34.9	-35.8	23.4	0.00e+00	123	28	0	386924544	44	5467
2026-01-17 15:20:39.05	18.24	13.42	-35.1	-36.1	23.2	0.00e+00	123	28	0	390070272	44	5611
2026-01-17 15:20:40.06	18.21	13.51	-35.1	-36.1	23.3	0.00e+00	122	28	0	393216000	44	5597
2026-01-17 15:20:41.07	18.17	13.61	-35.0	-35.9	23.5	0.00e+00	122	28	0	396361728	44	5510
2026-01-17 15:20:42.08	18.14	13.71	-35.0	-36.0	23.3	0.00e+00	122	28	0	399507456	42	6245
2026-01-17 15:20:43.09	18.10	13.81	-34.8	-35.7	23.5	0.00e+00	122	28	0	402653184	42	6061
2026-01-17 15:20:44.10	18.07	13.92	-34.8	-35.7	23.7	0.00e+00	123	28	0	405798912	42	6029
2026-01-17 15:20:45.11	18.03	14.02	-34.8	-35.7	23.6	0.00e+00	123	28	0	408944640	42	6060
2026-01-17 15:20:46.12	17.99	14.12	-34.7	-35.7	23.6	0.00e+00	122	28	0	412090368	42	6023
2026-01-17 15:20:47.13	17.96	14.22	-34.8	-35.8	23.5	0.00e+00	120	28	0	415236096	42	6068
2026-01-17 15:20:48.14	17.92	14.32	-34.7	-35.6	23.7	0.00e+00	123	28	0	418381824	42	5989
2026-01-17 15:20:49.15	17.88	14.42	-34.6	-35.6	23.8	0.00e+00	123	28	0	421527552	42	5929
2026-01-17 15:20:50.16	17.84	14.53	-34.6	-35.5	23.7	0.00e+00	122	28	0	424673280	42	5921
2026-01-17 15:20:51.17	17.81	14.63	-34.7	-35.6	23.6	0.00e+00	123	28	0	427819008	42	5980
2026-01-17 15:20:52.17	17.77	14.73	-34.6	-35.5	23.7	0.00e+00	123	28	0	430964736	42	5908
2026-01-17 15:20:53.19	17.73	14.84	-34.8	-35.7	23.6	0.00e+00	122	28	0	435159040	42	6033
2026-01-17 15:20:54.19	17.69	14.94	-34.8	-35.7	23.6	0.00e+00	122	28	0	438304768	42	6038
2026-01-17 15:20:55.21	17.65	15.05	-34.8	-35.7	23.6	0.00e+00	122	28	0	440401920	42	6050
2026-01-17 15:20:56.21	17.61	15.16	-34.7	-35.7	23.6	0.00e+00	120	28	0	443547648	42	6019
2026-01-17 15:20:57.22	17.57	15.26	-34.7	-35.6	23.8	0.00e+00	123	28	0	446693376	42	5946
2026-01-17 15:20:58.23	17.53	15.37	-34.8	-35.7	23.6	0.00e+00	123	28	0	450887680	42	6025
2026-01-17 15:20:59.24	17.49	15.48	-34.7	-35.6	23.7	0.00e+00	122	28	0	454033408	42	5964
2026-01-17 15:21:00.25	17.45	15.58	-34.8	-35.8	23.6	0.00e+00	122	28	0	457179136	42	6071
2026-01-17 15:21:01.26	17.41	15.69	-34.7	-35.7	23.7	0.00e+00	120	28	0	460324864	42	6008
2026-01-17 15:21:02.27	17.37	15.80	-34.8	-35.7	23.7	0.00e+00	123	28	0	463470592	42	6036
2026-01-17 15:21:03.28	17.33	15.91	-34.7	-35.7	23.7	0.00e+00	123	28	0	466616320	42	6018
2026-01-17 15:21:04.30	17.28	16.02	-34.8	-35.8	23.6	0.00e+00	122	28	0	469762048	42	6078
2026-01-17 15:21:05.31	17.24	16.13	-34.8	-35.7	23.7	0.00e+00	122	28	0	472907776	42	6023
2026-01-17 15:21:06.32	17.20	16.24	-34.8	-35.7	23.7	0.00e+00	120	28	0	476053504	42	6037
2026-01-17 15:21:07.33	17.15	16.35	-34.9	-35.8	23.6	0.00e+00	122	28	0	479199232	42	6120
2026-01-17 15:21:08.34	17.11	16.46	-34.8	-35.8	23.7	0.00e+00	123	28	0	482344960	42	6095
2026-01-17 15:21:09.35	17.07	16.57	-34.9	-35.8	23.6	0.00e+00	122	28	0	485490688	42	6125
2026-01-17 15:21:10.36	17.02	16.69	-34.9	-35.8	23.6	0.00e+00	123	28	0	488636416	42	6100
2026-01-17 15:21:11.37	16.98	16.80	-34.9	-35.9	23.6	0.00e+00	122	28	0	491782144	42	6137
2026-01-17 15:21:12.38	16.93	16.91	-34.9	-35.8	23.6	0.00e+00	122	28	0	494927872	42	6125
2026-01-17 15:21:13.39	16.89	17.03	-35.2	-36.1	23.4	0.00e+00	120	28	0	498073600	42	6318
2026-01-17 15:21:14.40	16.84	17.14	-34.8	-35.7	23.8	0.00e+00	122	28	0	501219328	42	6029
2026-01-17 15:21:15.41	16.80	17.25	-34.9	-35.9	23.7	0.00e+00	120	28	0	504365056	42	6143
2026-01-17 15:21:16.42	16.75	17.37	-34.8	-35.8	23.7	0.00e+00	123	28	0	507510784	42	6084
2026-01-17 15:21:17.43	16.70	17.49	-34.9	-35.8	23.6	0.00e+00	122	28	0	510656512	42	6116
2026-01-17 15:21:18.44	16.65	17.60	-34.8	-35.7	23.7	0.00e+00	123	28	0	513802240	42	6056
2026-01-17 15:21:19.45	16.61	17.72	-34.9	-35.8	23.7	0.00e+00	123	28	0	516947968	42	6110
2026-01-17 15:21:20.46	16.56	17.84	-34.9	-35.8	23.7	0.00e+00	122	28	0	520093696	42	6084
2026-01-17 15:21:21.47	16.51	17.96	-34.8	-35.7	23.8	0.00e+00	123	28	0	523239424	42	6019
2026-01-17 15:21:22.48	16.46	18.07	-34.7	-35.6	23.9	0.00e+00	120	28	0	526385152	42	5965
2026-01-17 15:21:23.49	16.41	18.19	-34.8	-35.7	23.8	0.00e+00	123	28	0	529530880	42	6021
2026-01-17 15:21:24.50	16.36	18.31	-34.7	-35.6	23.9	0.00e+00	121	28	0	532676608	42	5959
2026-01-17 15:21:25.51	16.31	18.43	-34.7	-35.6	23.8	0.00e+00	123	28	0	535822336	42	5990
2026-01-17 15:21:26.52	16.26	18.55	-34.6	-35.6	23.9	0.00e+00	120	28	0	538968064	42	5931
2026-01-17 15:21:27.53	16.21	18.68	-34.8	-35.7	23.9	0.00e+00	123	28	0	542113792	42	6011
2026-01-17 15:21:28.54	16.16	18.80	-34.7	-35.6	23.9	0.00e+00	122	28	0	545259520	42	5976
2026-01-17 15:21:29.55	16.11	18.92	-34.6	-35.5	24.0	0.00e+00	122	28	0	548405248	42	5879
2026-01-17 15:21:30.56	16.05	19.04	-34.5	-35.4	24.0	0.00e+00	122	28	0	551550976	42	5821
2026-01-17 15:21:31.57	16.00	19.17	-34.6	-35.5	23.9	0.00e+00	123	28	0	554696704	42	5911
2026-01-17 15:21:32.58	15.95	19.29	-34.5	-35.5	23.9	0.00e+00	123	28	0	557842432	42	5866
2026-01-17 15:21:33.59	15.89	19.42	-34.6	-35.5	24.0	0.00e+00	123	28	0	560988160	42	5886
2026-01-17 15:21:34.60	15.84	19.54	-34.5	-35.5	24.0	0.00e+00	123	28	0	564133888	42	5863
2026-01-17 15:21:35.61	15.79	19.67	-34.4	-35.3	24.0	0.00e+00	122	28	0	567279616	42	5777
2026-01-17 15:21:36.62	15.73	19.79	-34.5	-35.4	23.9	0.00e+00	122	28	0	570425344	42	5849
2026-01-17 15:21:37.63	15.68	19.92	-34.5	-35.4	23.9	0.00e+00	122	28	0	573571072	42	5843
2026-01-17 15:21:38.64	15.62	20.05	-34.3	-35.2	24.1	0.00e+00	123	28	0	576716800	42	5713
2026-01-17 15:21:39.65	15.56	20.18	-34.4	-35.3	24.0	0.00e+00	123	28	0	579862528	42	5775
2026-01-17 15:21:40.66	15.50	20.31	-34.4	-35.4	24.0	0.00e+00	122	28	0	583008256	42	5799
2026-01-17 15:21:41.67	15.45	20.44	-34.4	-35.3	24.0	0.00e+00	122	28	0	586153984	42	5735
2026-01-17 15:21:42.68	15.39	20.57	-34.4	-35.3	24.0	0.00e+00	123	28	0	589299712	42	5780
2026-01-17 15:21:43.69	15.33	20.70	-34.2	-35.1	24.3	0.00e+00	122	28	0	592445440	42	5647
2026-01-17 15:21:44.70	15.27	20.83	-34.4	-35.4	24.0	0.00e+00	122	28	0	595591168	42	5792
2026-01-17 15:21:45.71	15.21	20.96	-34.1	-35.0	24.2	0.00e+00	122	28	0	598736896	42	5588
2026-01-17 15:21:46.71	15.15	21.10	-34.2	-35.1	24.2	0.00e+00	123	28	0	601882624	42	5648
2026-01-17 15:21:47.72	15.09	21.23	-34.0	-34.9	24.4	0.00e+00	123	28	0	605028352	42	5528
2026-01-17 15:21:48.73	15.03	21.36	-34.1	-35.0	24.4	0.00e+00	122	28	0	608174080	42	5538
2026-01-17 15:21:49.74	14.97	21.50	-33.9	-34.8	24.6	0.00e+00	122	28	0	611319808	42	5416
2026-01-17 15:21:50.75	14.90	21.64	-34.0	-34.9	24.4	0.00e+00	122	28	0	614465536	42	5513
2026-01-17 15:21:51.76	14.84	21.77	-33.8	-34.6	24.6	0.00e+00	123	28	0	617611264	42	5336
2026-01-17 15:21:52.77	14.78	21.91	-33.9	-34.8	24.6	0.00e+00	122	28	0	620756992	42	5429
2026-01-17 15:21:53.78	14.71	22.05	-33.6	-34.5	24.7	0.00e+00	123	28	0	623902720	40	5906
2026-01-17 15:21:54.79	14.65	22.19	-33.6	-34.5	24.7	0.00e+00	123	28	0	627048448	40	5905
2026-01-17 15:21:55.80	14.58	22.33	-33.4	-34.3	24.9	0.00e+00	123	28	0	630194176	40	5759
2026-01-17 15:21:56.81	14.51	22.47	-33.5	-34.4	24.8	0.00e+00	120	28	0	633339904	40	5804
2026-01-17 15:21:57.82	14.45	22.61	-33.4	-34.3	24.9	0.00e+00	121	28	0	636485632	40	5726
2026-01-17 15:21:58.83	14.38	22.75	-33.2	-34.0	25.1	0.00e+00	123	28	0	639631360	40	5591
2026-01-17 15:21:59.84	14.31	22.89	-33.1	-33.9	25.1	0.00e+00	122	28	0	642777088	40	5516
2026-01-17 15:22:00.85	14.24	23.03	-33.1	-33.9	25.2	0.00e+00	122	28	0	645922816	40	5518
2026-01-17 15:22:01.86	14.17	23.18	-33.0	-33.8	25.3	0.00e+00	123	28	0	649068544	40	5448
2026-01-17 15:22:02.87	14.10	23.32	-33.0	-33.8	25.3	0.00e+00	123	28	0	652214272	40	5457
2026-01-17 15:22:03.88	14.03	23.47	-32.9	-33.8	25.2	0.00e+00	123	28	0	655360000	40	5417
2026-01-17 15:22:04.89	13.96	23.61	-33.0	-33.9	25.2	0.00e+00	120	28	0	658505728	40	5485
2026-01-17 15:22:05.90	13.89	23.76	-32.9	-33.8	25.3	0.00e+00	123	28	0	661651456	40	5422
2026-01-17 15:22:06.91	13.81	23.91	-32.9	-33.7	25.3	0.00e+00	122	28	0	664797184	40	5398
2026-01-17 15:22:07.92	13.74	24.06	-33.0	-33.8	25.3	0.00e+00	122	28	0	667942912	40	5435
2026-01-17 15:22:08.93	13.67	24.21	-33.0	-33.8	25.3	0.00e+00	123	28	0	671088640	40	5433
2026-01-17 15:22:09.94	13.59	24.36	-33.0	-33.8	25.2	0.00e+00	123	28	0	674234368	40	5447
2026-01-17 15:22:10.95	13.51	24.51	-33.0	-33.9	25.3	0.00e+00	123	28	0	677380096	40	5469
2026-01-17 15:22:11.96	13.44	24.66	-33.1	-34.0	25.1	0.00e+00	120	28	0	680525824	40	5554
2026-01-17 15:22:12.97	13.36	24.81	-33.3	-34.2	25.0	0.00e+00	122	28	0	683671552	40	5671
2026-01-17 15:22:13.98	13.28	24.96	-33.2	-34.1	25.0	0.00e+00	123	28	0	686817280	40	5596
2026-01-17 15:22:14.99	13.20	25.12	-33.3	-34.1	25.0	0.00e+00	122	28	0	689963008	40	5653
2026-01-17 15:22:16.00	13.12	25.27	-33.2	-34.1	25.1	0.00e+00	123	28	0	693108736	40	5615
2026-01-17 15:22:17.01	13.04	25.43	-33.3	-34.2	25.0	0.00e+00	123	28	0	696254464	40	5671
2026-01-17 15:22:18.02	12.96	25.59	-33.4	-34.3	25.0	0.00e+00	122	28	0	699400192	40	5731
2026-01-17 15:22:19.03	12.88	25.74	-33.5	-34.3	24.9	0.00e+00	122	28	0	702545920	40	5788
2026-01-17 15:22:20.04	12.79	25.90	-33.6	-34.4	24.6	0.00e+00	122	28	0	705691648	40	5846
2026-01-17 15:22:21.05	12.71	26.06	-33.7	-34.6	24.6	0.00e+00	122	28	0	708837376	40	5949
2026-01-17 15:22:22.05	12.62	26.22	-33.8	-34.7	24.5	0.00e+00	120	28	0	711983104	40	6059
2026-01-17 15:22:23.06	12.54	26.38	-33.8	-34.7	24.5	0.00e+00	122	28	0	715128832	40	6018
2026-01-17 15:22:24.08	12.45	26.55	-34.0	-34.9	24.4	0.00e+00	120	28	0	718274560	40	6155
2026-01-17 15:22:25.09	12.36	26.71	-34.1	-35.0	24.3	0.00e+00	123	28	0	721420288	40	6258
2026-01-17 15:22:26.10	12.27	26.87	-34.2	-35.1	24.2	0.00e+00	123	28	0	724566016	40	6323
2026-01-17 15:22:27.11	12.18	27.04	-34.2	-35.1	24.1	0.00e+00	127	28	0	727711744	40	6338
2026-01-17 15:22:28.12	12.09	27.20	-34.3	-35.2	24.1	0.00e+00	122	28	0	730857472	40	6407
2026-01-17 15:22:29.13	12.00	27.37	-34.5	-35.4	24.0	0.00e+00	122	28	0	734003200	40	6523
2026-01-17 15:22:30.14	11.91	27.54	-34.5	-35.4	24.0	0.00e+00	122	28	0	737148928	40	6546
2026-01-17 15:22:31.15	11.81	27.71	-34.5	-35.4	23.9	0.00e+00	122	28	0	740294656	40	6555
2026-01-17 15:22:32.16	11.72	27.87	-34.5	-35.5	23.9	0.00e+00	120	28	0	743440384	40	6578
2026-01-17 15:22:33.17	11.62	28.05	-34.7	-35.6	23.7	0.00e+00	123	28	0	746586112	40	6697
2026-01-17 15:22:34.18	11.53	28.22	-34.6	-35.6	23.7	0.00e+00	122	28	0	750780416	40	6650
2026-01-17 15:22:35.19	11.43	28.39	-34.7	-35.6	23.7	0.00e+00	120	28	0	753926144	42	5969
2026-01-17 15:22:36.20	11.33	28.56	-34.9	-35.8	23.6	0.00e+00	123	28	0	757071872	42	6112
2026-01-17 15:22:37.21	11.23	28.74	-34.7	-35.7	23.8	0.00e+00	120	28	0	759169024	42	5995
2026-01-17 15:22:38.22	11.13	28.91	-34.6	-35.5	23.9	0.00e+00	123	28	0	762314752	42	5923
2026-01-17 15:22:39.23	11.02	29.09	-34.6	-35.5	24.0	0.00e+00	122	28	0	766509056	42	5893
2026-01-17 15:22:40.24	10.92	29.26	-34.6	-35.5	23.9	0.00e+00	123	28	0	769654784	42	5916
2026-01-17 15:22:41.25	10.82	29.44	-34.5	-35.4	24.1	0.00e+00	122	28	0	772800512	42	5833
2026-01-17 15:22:42.26	10.71	29.62	-34.5	-35.4	24.1	0.00e+00	120	28	0	775946240	42	5854
2026-01-17 15:22:43.27	10.60	29.80	-34.7	-35.6	23.9	0.00e+00	123	28	0	779091968	42	5948
2026-01-17 15:22:44.28	10.49	29.98	-34.6	-35.6	23.9	0.00e+00	122	28	0	782237696	42	5932
2026-01-17 15:22:45.29	10.38	30.17	-34.5	-35.4	23.9	0.00e+00	122	28	0	785383424	42	5838
2026-01-17 15:22:46.30	10.27	30.35	-34.4	-35.4	23.9	0.00e+00	123	28	0	788529152	42	5793
2026-01-17 15:22:47.31	10.16	30.53	-34.4	-35.4	23.9	0.00e+00	122	28	0	791674880	42	5802
2026-01-17 15:22:48.32	10.05	30.72	-34.3	-35.2	24.0	0.00e+00	122	28	0	794820608	42	5676
2026-01-17 15:22:49.33	9.93	30.91	-34.1	-35.0	24.1	0.00e+00	122	28	0	797966336	42	5572
2026-01-17 15:22:50.34	9.81	31.09	-34.3	-35.2	24.0	0.00e+00	122	28	0	801112064	42	5723
2026-01-17 15:22:51.35	9.70	31.28	-34.2	-35.1	24.0	0.00e+00	123	28	0	804257792	42	5646
2026-01-17 15:22:52.36	9.58	31.47	-34.3	-35.2	24.1	0.00e+00	123	28	0	807403520	42	5705
2026-01-17 15:22:53.37	9.45	31.66	-34.3	-35.3	24.1	0.00e+00	122	28	0	810549248	42	5728
2026-01-17 15:22:54.38	9.33	31.86	-34.5	-35.4	24.0	0.00e+00	123	28	0	813694976	42	5836
2026-01-17 15:22:55.39	9.21	32.05	-34.6	-35.5	24.1	0.00e+00	123	28	0	816840704	42	5887
2026-01-17 15:22:56.40	9.08	32.24	-34.5	-35.5	24.1	0.00e+00	123	28	0	819986432	42	5884
2026-01-17 15:22:57.41	8.96	32.44	-34.5	-35.4	24.2	0.00e+00	122	28	0	823132160	42	5857
2026-01-17 15:22:58.43	8.83	32.64	-34.5	-35.5	24.2	0.00e+00	120	28	0	826277888	42	5866
2026-01-17 15:22:59.44	8.70	32.83	-34.7	-35.6	24.1	0.00e+00	123	28	0	829423616	42	5935
2026-01-17 15:23:00.45	8.56	33.03	-34.7	-35.6	24.1	0.00e+00	123	28	0	832569344	42	5992
2026-01-17 15:23:01.46	8.43	33.23	-34.6	-35.5	24.1	0.00e+00	122	28	0	835715072	42	5923
2026-01-17 15:23:02.47	8.29	33.43	-34.5	-35.4	24.2	0.00e+00	123	28	0	838860800	42	5830
2026-01-17 15:23:03.48	8.16	33.64	-34.6	-35.5	24.2	0.00e+00	120	28	0	842006528	42	5867
2026-01-17 15:23:04.49	8.02	33.84	-34.7	-35.6	24.0	0.00e+00	123	28	0	845152256	42	5982
2026-01-17 15:23:05.50	7.88	34.04	-34.9	-35.8	23.9	0.00e+00	123	28	0	848297984	42	6104
2026-01-17 15:23:06.51	7.74	34.25	-35.1	-36.1	23.8	0.00e+00	123	28	0	851443712	42	6313
2026-01-17 15:23:07.52	7.59	34.46	-35.3	-36.3	23.6	0.00e+00	122	28	0	854589440	42	6433
2026-01-17 15:23:08.53	7.45	34.66	-35.4	-36.4	23.5	0.00e+00	123	28	0	857735168	42	6522
2026-01-17 15:23:09.54	7.30	34.87	-35.7	-36.6	23.3	0.00e+00	122	28	0	860880896	42	6708
2026-01-17 15:23:10.55	7.15	35.08	-35.8	-36.7	23.2	0.00e+00	123	28	0	864026624	42	6788
2026-01-17 15:23:11.56	7.00	35.29	-35.7	-36.6	23.3	0.00e+00	122	28	0	867172352	44	5984
2026-01-17 15:23:12.57	6.84	35.51	-35.8	-36.8	23.1	0.00e+00	122	28	0	870318080	44	6107
2026-01-17 15:23:13.57	6.69	35.72	-36.0	-37.0	22.9	0.00e+00	123	28	0	873463808	44	6227
2026-01-17 15:23:14.58	6.53	35.93	-36.3	-37.3	22.7	0.00e+00	122	28	0	876609536	44	6432
2026-01-17 15:23:15.59	6.37	36.15	-36.3	-37.4	22.7	0.00e+00	123	28	0	879755264	44	6518
2026-01-17 15:23:16.60	6.21	36.37	-36.5	-37.5	22.6	0.00e+00	123	28	0	882900992	44	6587
2026-01-17 15:23:17.61	6.04	36.58	-36.5	-37.5	22.6	0.00e+00	122	28	0	886046720	44	6643
2026-01-17 15:23:18.62	5.87	36.80	-36.3	-37.2	22.8	0.00e+00	123	28	0	889192448	44	6419
2026-01-17 15:23:19.63	5.70	37.03	-36.2	-37.2	22.8	0.00e+00	123	28	0	892338176	44	6417
2026-01-17 15:23:20.64	5.53	37.25	-36.1	-37.1	22.8	0.00e+00	122	28	0	895483904	44	6294
2026-01-17 15:23:21.65	5.36	37.47	-36.0	-37.0	22.9	0.00e+00	122	28	0	898629632	44	6255
2026-01-17 15:23:22.66	5.18	37.70	-36.1	-37.1	22.8	0.00e+00	123	28	0	901775360	44	6328
2026-01-17 15:23:23.67	5.00	37.92	-35.9	-36.8	23.1	0.00e+00	123	28	0	904921088	44	6127
2026-01-17 15:23:24.68	4.82	38.15	-35.9	-36.8	23.1	0.00e+00	122	28	0	908066816	44	6111
2026-01-17 15:23:25.69	4.64	38.38	-35.8	-36.7	23.2	0.00e+00	121	28	0	911212544	44	6052
2026-01-17 15:23:26.70	4.45	38.61	-35.9	-36.8	23.1	0.00e+00	122	28	0	914358272	44	6121
2026-01-17 15:23:27.71	4.26	38.84	-36.1	-37.0	22.8	0.00e+00	120	28	0	917504000	44	6256
2026-01-17 15:23:28.72	4.07	39.07	-36.0	-37.0	22.7	0.00e+00	123	28	0	920649728	44	6247
2026-01-17 15:23:29.73	3.87	39.30	-36.3	-37.3	22.6	0.00e+00	122	28	0	923795456	44	6479
2026-01-17 15:23:30.74	3.67	39.53	-36.6	-37.7	22.3	0.00e+00	123	28	0	926941184	44	6748
2026-01-17 15:23:31.75	3.47	39.77	-36.9	-38.0	22.1	0.00e+00	120	28	0	930086912	46	6235
2026-01-17 15:23:32.76	3.27	40.01	-36.9	-38.0	22.3	0.00e+00	123	28	0	933232640	46	6219
2026-01-17 15:23:33.77	3.06	40.24	-37.2	-38.2	22.0	0.00e+00	122	28	0	936378368	46	6421
2026-01-17 15:23:34.78	2.85	40.48	-36.9	-38.0	22.1	0.00e+00	121	28	0	939524096	46	6214
2026-01-17 15:23:35.79	2.64	40.72	-37.1	-38.1	22.1	0.00e+00	122	28	0	942669824	46	6332
2026-01-17 15:23:36.80	2.42	40.96	-36.7	-37.7	22.5	0.00e+00	122	28	0	945815552	46	6047
2026-01-17 15:23:37.81	2.20	41.21	-36.3	-37.3	22.9	0.00e+00	123	28	0	948961280	46	5744
2026-01-17 15:23:38.82	1.98	41.45	-36.3	-37.3	22.8	0.00e+00	122	28	0	952107008	46	5731
2026-01-17 15:23:39.83	1.75	41.69	-36.4	-37.3	22.7	0.00e+00	123	28	0	955252736	46	5788
2026-01-17 15:23:40.84	1.52	41.94	-36.5	-37.5	22.4	0.00e+00	123	28	0	958398464	46	5873
2026-01-17 15:23:41.85	1.29	42.19	-36.8	-37.8	22.2	0.00e+00	123	28	0	961544192	46	6090
2026-01-17 15:23:42.86	1.05	42.43	-36.9	-37.9	22.0	0.00e+00	120	28	0	964689920	46	6172
2026-01-17 15:23:43.87	0.81	42.68	-37.0	-38.0	21.8	0.00e+00	123	28	0	967835648	46	6273
2026-01-17 15:23:44.88	0.56	42.93	-37.0	-38.1	21.9	0.00e+00	123	28	0	970981376	46	6314
2026-01-17 15:23:45.89	0.31	43.18	-37.2	-38.2	21.9	0.00e+00	123	28	0	974127104	46	6401
2026-01-17 15:23:46.89	0.06	43.43	-37.3	-38.4	21.8	0.00e+00	122	28	0	977272832	46	6521
2026-01-17 15:23:47.90	359.80	43.69	-37.2	-38.3	21.9	0.00e+00	123	28	0	980418560	46	6442
2026-01-17 15:23:48.91	359.54	43.94	-37.4	-38.4	21.8	0.00e+00	122	28	0	983564288	46	6516
2026-01-17 15:23:49.92	359.28	44.19	-37.1	-38.1	22.1	0.00e+00	120	28	0	986710016	46	6291
2026-01-17 15:23:50.93	359.01	44.45	-37.2	-38.2	21.9	0.00e+00	122	28	0	989855744	46	6374
2026-01-17 15:23:51.94	358.73	44.71	-37.2	-38.2	21.7	0.00e+00	120	28	0	993001472	46	6385
2026-01-17 15:23:52.95	358.45	44.97	-37.1	-38.1	21.8	0.00e+00	122	28	0	996147200	46	6348
2026-01-17 15:23:53.96	358.17	45.22	-36.8	-37.8	22.1	0.00e+00	122	28	0	999292928	46	6123
2026-01-17 15:23:54.97	357.88	45.48	-36.7	-37.7	22.4	0.00e+00	122	28	0	1002438656	46	6043
2026-01-17 15:23:55.99	357.59	45.75	-36.5	-37.6	22.5	0.00e+00	120	28	0	1005584384	46	5938
2026-01-17 15:23:57.00	357.29	46.01	-36.8	-37.8	22.4	0.00e+00	122	28	0	1008730112	46	6108
2026-01-17 15:23:58.01	356.98	46.27	-36.7	-37.7	22.4	0.00e+00	120	28	0	1011875840	46	6032
2026-01-17 15:23:59.02	356.68	46.53	-36.7	-37.7	22.4	0.00e+00	123	28	0	1015021568	46	6033
2026-01-17 15:24:00.03	356.36	46.80	-36.5	-37.5	22.6	0.00e+00	120	28	0	1018167296	46	5892
2026-01-17 15:24:01.03	356.05	47.06	-36.5	-37.5	22.6	0.00e+00	122	28	0	1021313024	46	5880
2026-01-17 15:24:02.05	355.72	47.33	-36.4	-37.3	22.5	0.00e+00	123	28	0	1024458752	46	5790
2026-01-17 15:24:03.06	355.39	47.59	-36.0	-36.9	22.9	0.00e+00	122	28	0	1027604480	46	5524
2026-01-17 15:24:04.07	355.05	47.86	-36.0	-37.0	22.7	0.00e+00	120	28	0	1030750208	46	5544
2026-01-17 15:24:05.08	354.71	48.13	-36.1	-37.1	22.6	0.00e+00	123	28	0	1033895936	46	5623
2026-01-17 15:24:06.09	354.36	48.39	-36.1	-37.1	22.4	0.00e+00	122	28	0	1037041664	46	5639
2026-01-17 15:24:07.10	354.01	48.66	-36.2	-37.2	22.5	0.00e+00	123	28	0	1040187392	46	5719
2026-01-17 15:24:08.11	353.65	48.93	-36.4	-37.4	22.4	0.00e+00	123	28	0	1043333120	46	5855
2026-01-17 15:24:09.12	353.28	49.20	-36.4	-37.4	22.5	0.00e+00	122	28	0	1046478848	46	5831
2026-01-17 15:24:10.13	352.91	49.47	-36.3	-37.3	22.7	0.00e+00	123	28	0	1049624576	46	5788
2026-01-17 15:24:11.13	352.53	49.73	-36.1	-37.1	23.0	0.00e+00	122	28	0	1052770304	46	5605
2026-01-17 15:24:12.15	352.14	50.01	-36.1	-37.1	23.0	0.00e+00	123	28	0	1055916032	46	5597
2026-01-17 15:24:13.15	351.75	50.27	-35.8	-36.8	23.1	0.00e+00	123	28	0	1059061760	46	5446
2026-01-17 15:24:14.16	351.35	50.54	-35.8	-36.8	23.2	0.00e+00	123	28	0	1062207488	46	5413
2026-01-17 15:24:15.17	350.94	50.81	-35.9	-36.9	23.1	0.00e+00	122	28	0	1065353216	46	5471
2026-01-17 15:24:16.18	350.53	51.08	-35.8	-36.7	23.1	0.00e+00	123	28	0	1069547520	46	5401
2026-01-17 15:24:17.19	350.10	51.35	-35.6	-36.5	23.1	0.00e+00	120	28	0	1072693248	44	5922
2026-01-17 15:24:18.20	349.67	51.62	-35.5	-36.4	23.4	0.00e+00	122	28	0	1074790400	44	5842
2026-01-17 15:24:19.21	349.23	51.89	-35.6	-36.6	23.2	0.00e+00	123	28	0	1077936128	44	5952
2026-01-17 15:24:20.23	348.78	52.16	-35.8	-36.8	23.0	0.00e+00	123	28	0	1081081856	44	6118
2026-01-17 15:24:21.23	348.33	52.43	-35.9	-36.9	22.9	0.00e+00	123	28	0	1085276160	44	6184
2026-01-17 15:24:22.24	347.87	52.70	-35.9	-36.9	23.0	0.00e+00	122	28	0	1088421888	44	6166
2026-01-17 15:24:23.25	347.40	52.97	-35.7	-36.6	23.3	0.00e+00	124	28	0	1091567616	44	5962
2026-01-17 15:24:24.26	346.91	53.23	-35.4	-36.3	23.5	0.00e+00	123	28	0	1094713344	44	5788
2026-01-17 15:24:25.27	346.42	53.50	-34.8	-35.8	23.9	0.00e+00	120	28	0	1096810496	44	5413
2026-01-17 15:24:26.28	345.93	53.77	-34.6	-35.5	24.0	0.00e+00	122	28	0	1101004800	42	5873
2026-01-17 15:24:27.30	345.41	54.03	-34.5	-35.4	24.2	0.00e+00	123	28	0	1104150528	42	5805
2026-01-17 15:24:28.31	344.89	54.30	-34.5	-35.4	24.2	0.00e+00	123	28	0	1107296256	42	5826
2026-01-17 15:24:29.31	344.37	54.56	-34.6	-35.5	24.2	0.00e+00	120	28	0	1110441984	42	5874
2026-01-17 15:24:30.33	343.83	54.82	-34.7	-35.6	24.1	0.00e+00	122	28	0	1113587712	42	5941
2026-01-17 15:24:31.34	343.28	55.08	-34.2	-35.1	24.3	0.00e+00	120	28	0	1116733440	42	5644
2026-01-17 15:24:32.35	342.72	55.34	-34.4	-35.4	23.9	0.00e+00	122	28	0	1119879168	42	5813
2026-01-17 15:24:33.36	342.15	55.60	-34.5	-35.5	23.9	0.00e+00	120	28	0	1123024896	42	5865
2026-01-17 15:24:34.37	341.58	55.85	-34.6	-35.6	24.0	0.00e+00	122	28	0	1126170624	42	5942
2026-01-17 15:24:35.38	340.99	56.11	-34.5	-35.5	24.1	0.00e+00	120	28	0	1129316352	42	5872
2026-01-17 15:24:36.39	340.39	56.36	-34.5	-35.4	24.2	0.00e+00	123	28	0	1132462080	42	5847
2026-01-17 15:24:37.40	339.77	56.61	-34.4	-35.3	24.3	0.00e+00	120	28	0	1135607808	42	5778
2026-01-17 15:24:38.41	339.15	56.86	-34.3	-35.2	24.2	0.00e+00	123	28	0	1138753536	42	5676
2026-01-17 15:24:39.42	338.52	57.10	-34.6	-35.6	24.0	0.00e+00	123	28	0	1141899264	42	5944
2026-01-17 15:24:40.43	337.87	57.35	-34.6	-35.5	24.1	0.00e+00	123	28	0	1145044992	42	5889
2026-01-17 15:24:41.44	337.22	57.59	-34.2	-35.1	24.4	0.00e+00	122	28	0	1148190720	42	5646
2026-01-17 15:24:42.45	336.55	57.83	-33.8	-34.7	24.8	0.00e+00	122	28	0	1151336448	42	5362
2026-01-17 15:24:43.46	335.87	58.06	-33.8	-34.7	24.7	0.00e+00	123	28	0	1154482176	42	5365
2026-01-17 15:24:44.47	335.17	58.30	-33.9	-34.8	24.5	0.00e+00	123	28	0	1157627904	42	5462
2026-01-17 15:24:45.48	334.47	58.53	-34.1	-35.0	24.4	0.00e+00	123	28	0	1160773632	42	5592
2026-01-17 15:24:46.49	333.75	58.75	-34.3	-35.3	24.3	0.00e+00	121	28	0	1163919360	42	5732
2026-01-17 15:24:47.50	333.02	58.97	-34.3	-35.2	24.2	0.00e+00	123	28	0	1167065088	42	5723
2026-01-17 15:24:48.51	332.28	59.19	-34.0	-34.9	23.9	0.00e+00	120	28	0	1170210816	42	5512
2026-01-17 15:24:49.52	331.52	59.41	-33.8	-34.8	23.6	0.00e+00	122	28	0	1173356544	42	5445
2026-01-17 15:24:50.53	330.76	59.62	-34.0	-34.9	24.1	0.00e+00	122	28	0	1176502272	42	5509
2026-01-17 15:24:51.54	329.98	59.83	-33.7	-34.6	24.6	0.00e+00	123	28	0	1179648000	42	5316
2026-01-17 15:24:52.55	329.18	60.03	-33.7	-34.6	24.6	0.00e+00	123	28	0	1182793728	40	5949
2026-01-17 15:24:53.56	328.38	60.23	-33.5	-34.4	24.9	0.00e+00	123	28	0	1185939456	40	5826
2026-01-17 15:24:54.57	327.56	60.43	-33.5	-34.4	24.9	0.00e+00	123	28	0	1189085184	40	5794
2026-01-17 15:24:55.58	326.73	60.62	-33.4	-34.3	25.0	0.00e+00	123	28	0	1192230912	40	5747
2026-01-17 15:24:56.59	325.89	60.80	-33.3	-34.1	25.1	0.00e+00	123	28	0	1195376640	40	5654
2026-01-17 15:24:57.60	325.03	60.98	-33.2	-34.0	25.2	0.00e+00	122	28	0	1198522368	40	5573
2026-01-17 15:24:58.61	324.17	61.16	-33.2	-34.1	25.1	0.00e+00	123	28	0	1201668096	40	5615
2026-01-17 15:24:59.62	323.29	61.33	-33.3	-34.2	25.1	0.00e+00	122	28	0	1204813824	40	5676
2026-01-17 15:25:00.63	322.40	61.49	-33.4	-34.3	25.0	0.00e+00	123	28	0	1207959552	40	5731
2026-01-17 15:25:01.64	321.49	61.65	-33.5	-34.3	24.9	0.00e+00	122	28	0	1211105280	40	5791
2026-01-17 15:25:02.65	320.58	61.80	-33.2	-34.1	25.0	0.00e+00	120	28	0	1214251008	40	5637
2026-01-17 15:25:03.66	319.65	61.95	-33.2	-34.1	25.0	0.00e+00	123	28	0	1217396736	40	5600
2026-01-17 15:25:04.67	318.72	62.08	-33.1	-34.0	24.9	0.00e+00	122	28	0	1220542464	40	5531
2026-01-17 15:25:05.68	317.77	62.22	-33.4	-34.2	24.6	0.00e+00	120	28	0	1223688192	40	5718
2026-01-17 15:25:06.69	316.81	62.35	-33.5	-34.4	24.6	0.00e+00	123	28	0	1226833920	40	5838
2026-01-17 15:25:07.70	315.85	62.47	-33.5	-34.4	24.6	0.00e+00	120	28	0	1229979648	40	5853
2026-01-17 15:25:08.71	314.87	62.58	-33.6	-34.5	24.8	0.00e+00	123	28	0	1233125376	40	5867
2026-01-17 15:25:09.72	313.88	62.69	-33.3	-34.2	25.0	0.00e+00	121	28	0	1236271104	40	5687
2026-01-17 15:25:10.73	312.89	62.79	-33.4	-34.2	25.0	0.00e+00	122	28	0	1239416832	40	5714
2026-01-17 15:25:11.74	311.89	62.88	-33.4	-34.3	25.0	0.00e+00	120	28	0	1242562560	40	5746
2026-01-17 15:25:12.75	310.88	62.96	-33.2	-34.1	25.2	0.00e+00	123	28	0	1245708288	40	5611
2026-01-17 15:25:13.76	309.86	63.04	-33.1	-33.9	25.2	0.00e+00	120	28	0	1248854016	40	5518
2026-01-17 15:25:14.77	308.84	63.11	-32.7	-33.6	25.2	0.00e+00	122	28	0	1251999744	38	5946
2026-01-17 15:25:15.78	307.81	63.17	-32.7	-33.6	25.0	0.00e+00	123	28	0	1255145472	38	5951
2026-01-17 15:25:16.79	306.78	63.23	-32.8	-33.6	24.6	0.00e+00	120	28	0	1258291200	38	5989
2026-01-17 15:25:17.80	305.74	63.28	-33.0	-33.8	24.8	0.00e+00	121	28	0	1261436928	38	6132
2026-01-17 15:25:18.81	304.70	63.31	-33.3	-34.2	24.7	0.00e+00	123	28	0	1264582656	38	6414
2026-01-17 15:25:19.82	303.65	63.35	-33.4	-34.3	24.6	0.00e+00	123	28	0	1267728384	38	6480
2026-01-17 15:25:20.83	302.60	63.37	-33.6	-34.4	24.7	0.00e+00	123	28	0	1270874112	38	6573
2026-01-17 15:25:21.84	301.55	63.39	-33.6	-34.4	24.8	0.00e+00	122	28	0	1274019840	38	6559
2026-01-17 15:25:22.85	300.50	63.39	-33.6	-34.5	24.6	0.00e+00	122	28	0	1277165568	38	6574
2026-01-17 15:25:23.86	299.45	63.39	-33.5	-34.4	24.5	0.00e+00	123	28	0	1280311296	38	6513
2026-01-17 15:25:24.87	298.40	63.38	-33.2	-34.1	25.1	0.00e+00	123	28	0	1283457024	38	6282
2026-01-17 15:25:25.88	297.35	63.37	-33.4	-34.2	25.0	0.00e+00	123	28	0	1286602752	38	6414
2026-01-17 15:25:26.89	296.30	63.34	-33.3	-34.1	25.1	0.00e+00	122	28	0	1289748480	38	6349
2026-01-17 15:25:27.90	295.26	63.31	-32.9	-33.7	25.2	0.00e+00	122	28	0	1292894208	38	6049
2026-01-17 15:25:28.91	294.22	63.27	-33.0	-33.9	25.1	0.00e+00	123	28	0	1296039936	38	6167
2026-01-17 15:25:29.92	293.18	63.22	-33.0	-33.8	25.3	0.00e+00	120	28	0	1299185664	38	6095
2026-01-17 15:25:30.93	292.15	63.17	-33.0	-33.9	25.2	0.00e+00	122	28	0	1302331392	38	6163
2026-01-17 15:25:31.94	291.12	63.11	-33.0	-33.9	25.4	0.00e+00	120	28	0	1305477120	38	6136
2026-01-17 15:25:32.95	290.09	63.04	-32.9	-33.7	25.4	0.00e+00	122	28	0	1308622848	38	6043
2026-01-17 15:25:33.96	289.08	62.96	-33.3	-34.1	25.1	0.00e+00	120	28	0	1311768576	38	6322
2026-01-17 15:25:34.97	288.07	62.87	-33.2	-34.1	25.0	0.00e+00	122	28	0	1314914304	38	6338
2026-01-17 15:25:35.98	287.07	62.78	-33.2	-34.1	24.5	0.00e+00	123	28	0	1318060032	38	6316
2026-01-17 15:25:36.99	286.07	62.68	-33.3	-34.2	24.6	0.00e+00	123	28	0	1321205760	38	6373
2026-01-17 15:25:38.00	285.09	62.57	-33.7	-34.6	24.6	0.00e+00	122	28	0	1324351488	40	5946
2026-01-17 15:25:39.01	284.11	62.46	-33.6	-34.5	24.8	0.00e+00	123	28	0	1327497216	40	5905
2026-01-17 15:25:40.02	283.14	62.34	-33.7	-34.5	24.4	0.00e+00	123	28	0	1330642944	40	5920
2026-01-17 15:25:41.03	282.19	62.21	-33.8	-34.7	24.7	0.00e+00	122	28	0	1333788672	40	6004
2026-01-17 15:25:42.04	281.24	62.07	-33.7	-34.6	24.8	0.00e+00	123	28	0	1336934400	40	5979
2026-01-17 15:25:43.06	280.29	61.93	-33.6	-34.4	24.9	0.00e+00	120	28	0	1340080128	40	5856
2026-01-17 15:25:44.07	279.37	61.79	-33.3	-34.1	25.1	0.00e+00	122	28	0	1343225856	40	5654
2026-01-17 15:25:45.08	278.45	61.63	-33.5	-34.4	25.0	0.00e+00	123	28	0	1346371584	40	5815
2026-01-17 15:25:46.09	277.55	61.47	-34.2	-35.1	24.4	0.00e+00	123	28	0	1349517312	40	6291
2026-01-17 15:25:47.10	276.66	61.31	-34.3	-35.3	24.3	0.00e+00	123	28	0	1352663040	40	6437
2026-01-17 15:25:48.11	275.78	61.14	-34.5	-35.4	24.2	0.00e+00	123	28	0	1355808768	40	6543
2026-01-17 15:25:49.12	274.92	60.96	-34.4	-35.3	24.2	0.00e+00	120	28	0	1358954496	40	6481
2026-01-17 15:25:50.13	274.06	60.78	-34.0	-34.9	24.4	0.00e+00	123	28	0	1362100224	40	6153
2026-01-17 15:25:51.14	273.22	60.60	-33.8	-34.7	24.7	0.00e+00	122	28	0	1366294528	40	6032
2026-01-17 15:25:52.15	272.39	60.41	-33.9	-34.9	24.6	0.00e+00	122	28	0	1368391680	40	6139
2026-01-17 15:25:53.15	271.58	60.21	-34.2	-35.2	24.4	0.00e+00	123	28	0	1371537408	40	6371
2026-01-17 15:25:54.16	270.77	60.01	-34.2	-35.1	24.4	0.00e+00	123	28	0	1374683136	40	6282
2026-01-17 15:25:55.17	269.98	59.81	-34.1	-35.0	24.4	0.00e+00	123	28	0	1377828864	40	6206
2026-01-17 15:25:56.18	269.20	59.60	-33.2	-34.1	25.0	0.00e+00	123	28	0	1382023168	40	5605
2026-01-17 15:25:57.19	268.43	59.39	-33.7	-34.6	24.6	0.00e+00	125	28	0	1385168896	40	5947
2026-01-17 15:25:58.21	267.67	59.17	-34.6	-35.5	24.0	0.00e+00	122	28	0	1388314624	40	6616
2026-01-17 15:25:59.21	266.94	58.95	-35.0	-35.9	23.8	0.00e+00	123	28	0	1390411776	42	6195
2026-01-17 15:26:00.23	266.20	58.73	-34.9	-35.8	23.9	0.00e+00	123	28	0	1393557504	42	6114
2026-01-17 15:26:01.23	265.49	58.50	-34.3	-35.2	24.4	0.00e+00	123	28	0	1397751808	42	5691
2026-01-17 15:26:02.25	264.78	58.27	-34.0	-34.8	24.6	0.00e+00	122	28	0	1400897536	42	5455
2026-01-17 15:26:03.25	264.09	58.04	-33.4	-34.3	25.1	0.00e+00	123	28	0	1404043264	40	5755
2026-01-17 15:26:04.27	263.40	57.80	-33.7	-34.6	24.7	0.00e+00	123	28	0	1407188992	40	5963
2026-01-17 15:26:05.28	262.73	57.56	-34.5	-35.4	24.2	0.00e+00	122	28	0	1410334720	40	6537
2026-01-17 15:26:06.29	262.08	57.32	-34.7	-35.6	23.8	0.00e+00	122	28	0	1413480448	42	5993
2026-01-17 15:26:07.30	261.43	57.07	-34.4	-35.4	23.6	0.00e+00	123	28	0	1416626176	42	5807
2026-01-17 15:26:08.31	260.80	56.83	-34.1	-35.0	23.7	0.00e+00	123	28	0	1419771904	42	5571
2026-01-17 15:26:09.31	260.18	56.58	-34.1	-35.0	24.0	0.00e+00	123	28	0	1422917632	42	5587
2026-01-17 15:26:10.33	259.56	56.33	-34.1	-35.0	24.3	0.00e+00	120	28	0	1426063360	42	5568
2026-01-17 15:26:11.33	258.97	56.08	-34.5	-35.4	24.0	0.00e+00	123	28	0	1429209088	42	5814
2026-01-17 15:26:12.35	258.37	55.82	-35.2	-36.1	23.6	0.00e+00	123	28	0	1432354816	42	6342
2026-01-17 15:26:13.35	257.80	55.56	-36.1	-37.1	22.9	0.00e+00	123	28	0	1435500544	44	6304
2026-01-17 15:26:14.37	257.23	55.30	-36.6	-37.7	22.3	0.00e+00	120	28	0	1438646272	44	6752
2026-01-17 15:26:15.38	256.67	55.04	-35.9	-36.9	22.8	0.00e+00	122	28	0	1441792000	44	6154
2026-01-17 15:26:16.39	256.12	54.78	-35.3	-36.3	23.4	0.00e+00	120	28	0	1444937728	44	5730
2026-01-17 15:26:17.40	255.58	54.52	-34.7	-35.6	24.0	0.00e+00	122	28	0	1448083456	44	5315
2026-01-17 15:26:18.41	255.06	54.26	-34.1	-34.9	24.5	0.00e+00	123	28	0	1451229184	42	5528
2026-01-17 15:26:19.42	254.54	53.99	-34.4	-35.3	24.3	0.00e+00	123	28	0	1454374912	42	5778
2026-01-17 15:26:20.43	254.03	53.73	-35.0	-35.9	23.8	0.00e+00	123	28	0	1457520640	42	6163
2026-01-17 15:26:21.44	253.53	53.46	-35.7	-36.6	23.2	0.00e+00	121	28	0	1460666368	42	6724
2026-01-17 15:26:22.45	253.04	53.19	-35.9	-36.8	23.2	0.00e+00	122	28	0	1463812096	44	6134
2026-01-17 15:26:23.46	252.56	52.92	-35.6	-36.6	23.0	0.00e+00	123	28	0	1466957824	44	5949
2026-01-17 15:26:24.47	252.09	52.66	-35.6	-36.6	22.5	0.00e+00	123	28	0	1470103552	44	5987
2026-01-17 15:26:25.48	251.62	52.39	-35.6	-36.6	23.0	0.00e+00	123	28	0	1473249280	44	5933
2026-01-17 15:26:26.49	251.17	52.12	-35.1	-36.0	23.8	0.00e+00	122	28	0	1476395008	44	5552
2026-01-17 15:26:27.50	250.72	51.85	-34.9	-35.8	23.8	0.00e+00	122	28	0	1479540736	44	5437
2026-01-17 15:26:28.51	250.28	51.58	-35.7	-36.6	23.3	0.00e+00	122	28	0	1482686464	44	5964
2026-01-17 15:26:29.52	249.85	51.31	-36.6	-37.6	22.4	0.00e+00	122	28	0	1485832192	44	6674
2026-01-17 15:26:30.53	249.43	51.04	-36.9	-37.9	21.9	0.00e+00	123	28	0	1488977920	46	6200
2026-01-17 15:26:31.54	249.01	50.77	-36.6	-37.7	21.6	0.00e+00	122	28	0	1492123648	46	5998
2026-01-17 15:26:32.55	248.60	50.49	-36.8	-37.9	21.8	0.00e+00	123	28	0	1495269376	46	6150
2026-01-17 15:26:33.55	248.20	50.23	-36.4	-37.5	22.4	0.00e+00	123	28	0	1498415104	46	5880
2026-01-17 15:26:34.56	247.81	49.96	-36.2	-37.2	22.8	0.00e+00	121	28	0	1501560832	46	5706
2026-01-17 15:26:35.57	247.42	49.69	-36.1	-37.1	22.9	0.00e+00	122	28	0	1504706560	46	5623
2026-01-17 15:26:36.58	247.04	49.42	-36.2	-37.2	22.9	0.00e+00	121	28	0	1507852288	46	5673
2026-01-17 15:26:37.59	246.67	49.15	-36.6	-37.6	22.5	0.00e+00	122	28	0	1510998016	46	5959
2026-01-17 15:26:38.60	246.30	48.88	-37.3	-38.4	21.8	0.00e+00	120	28	0	1514143744	46	6539
2026-01-17 15:26:39.61	245.94	48.61	-37.7	-38.8	21.1	0.00e+00	122	28	0	1517289472	48	6123
2026-01-17 15:26:40.62	245.59	48.34	-37.4	-38.5	20.9	0.00e+00	122	28	0	1520435200	48	5919
2026-01-17 15:26:41.64	245.24	48.07	-36.7	-37.8	22.0	0.00e+00	122	28	0	1523580928	46	6079
2026-01-17 15:26:42.65	244.90	47.80	-36.1	-37.1	22.8	0.00e+00	123	28	0	1526726656	46	5631
2026-01-17 15:26:43.66	244.56	47.53	-35.9	-36.9	23.1	0.00e+00	122	28	0	1529872384	44	6137
2026-01-17 15:26:44.67	244.23	47.27	-36.9	-38.0	22.2	0.00e+00	123	28	0	1533018112	46	6212
2026-01-17 15:26:45.68	243.90	47.00	-37.9	-39.0	21.3	0.00e+00	120	28	0	1536163840	46	7004
2026-01-17 15:26:46.69	243.59	46.74	-37.9	-39.0	21.2	0.00e+00	123	28	0	1539309568	48	6234
2026-01-17 15:26:47.70	243.27	46.47	-38.0	-39.2	21.0	0.00e+00	120	28	0	1542455296	48	6371
2026-01-17 15:26:48.71	242.96	46.21	-38.6	-39.9	20.4	0.00e+00	121	28	0	1545601024	48	6904
2026-01-17 15:26:49.72	242.66	45.94	-39.5	-40.9	19.6	0.00e+00	123	28	0	1548746752	50	6914
2026-01-17 15:26:50.73	242.36	45.68	-39.6	-41.0	19.3	0.00e+00	122	28	0	1551892480	50	7003
2026-01-17 15:26:51.74	242.07	45.42	-39.2	-40.6	19.1	0.00e+00	122	28	0	1555038208	50	6715
2026-01-17 15:26:52.75	241.78	45.16	-38.4	-39.7	20.0	0.00e+00	122	28	0	1558183936	50	6060
2026-01-17 15:26:53.76	241.50	44.90	-37.7	-38.8	21.0	0.00e+00	120	28	0	1561329664	48	6115
2026-01-17 15:26:54.77	241.22	44.64	-36.7	-37.7	22.4	0.00e+00	122	28	0	1564475392	48	5357
2026-01-17 15:26:55.77	240.94	44.39	-36.2	-37.1	22.9	0.00e+00	120	28	0	1567621120	46	5643
2026-01-17 15:26:56.78	240.67	44.13	-36.7	-37.7	22.3	0.00e+00	122	28	0	1570766848	46	6036
2026-01-17 15:26:57.79	240.41	43.87	-37.3	-38.5	21.2	0.00e+00	123	28	0	1573912576	46	6582
2026-01-17 15:26:58.81	240.14	43.62	-38.1	-39.3	20.4	0.00e+00	123	28	0	1577058304	48	6475
2026-01-17 15:26:59.82	239.89	43.36	-38.4	-39.6	20.6	0.00e+00	121	28	0	1580204032	48	6695
2026-01-17 15:27:00.83	239.63	43.11	-38.1	-39.3	21.0	0.00e+00	123	28	0	1583349760	48	6479
2026-01-17 15:27:01.83	239.39	42.86	-37.8	-38.9	21.5	0.00e+00	123	28	0	1586495488	48	6170
2026-01-17 15:27:02.85	239.14	42.61	-37.6	-38.7	21.6	0.00e+00	120	28	0	1589641216	48	6053
2026-01-17 15:27:03.86	238.90	42.36	-37.7	-38.8	21.4	0.00e+00	122	28	0	1592786944	48	6107
2026-01-17 15:27:04.87	238.66	42.11	-37.7	-38.8	21.3	0.00e+00	122	28	0	1595932672	48	6128
2026-01-17 15:27:05.88	238.43	41.86	-37.3	-38.4	21.5	0.00e+00	123	28	0	1599078400	48	5848
2026-01-17 15:27:06.89	238.19	41.62	-36.5	-37.6	22.2	0.00e+00	120	28	0	1602224128	46	5970
2026-01-17 15:27:07.90	237.97	41.37	-36.1	-37.1	22.7	0.00e+00	123	28	0	1605369856	46	5638
2026-01-17 15:27:08.91	237.74	41.13	-36.0	-36.9	23.1	0.00e+00	122	28	0	1608515584	46	5520
2026-01-17 15:27:09.92	237.52	40.88	-36.1	-37.0	23.2	0.00e+00	120	28	0	1611661312	46	5592
2026-01-17 15:27:10.93	237.31	40.64	-35.8	-36.8	22.9	0.00e+00	123	28	0	1614807040	46	5440
2026-01-17 15:27:11.94	237.09	40.40	-36.3	-37.3	22.1	0.00e+00	120	28	0	1617952768	46	5778
2026-01-17 15:27:12.95	236.88	40.16	-37.0	-38.1	21.6	0.00e+00	123	28	0	1621098496	46	6292
2026-01-17 15:27:13.96	236.68	39.92	-37.0	-38.1	21.9	0.00e+00	120	28	0	1624244224	46	6301
2026-01-17 15:27:14.97	236.47	39.69	-36.9	-37.9	22.2	0.00e+00	123	28	0	1627389952	46	6186
2026-01-17 15:27:15.98	236.27	39.45	-36.8	-37.8	22.3	0.00e+00	120	28	0	1630535680	46	6113
2026-01-17 15:27:16.99	236.07	39.22	-36.9	-37.9	22.3	0.00e+00	122	28	0	1633681408	46	6173
2026-01-17 15:27:18.00	235.88	38.98	-36.6	-37.6	22.5	0.00e+00	122	28	0	1636827136	46	5972
2026-01-17 15:27:19.01	235.68	38.75	-36.5	-37.5	22.6	0.00e+00	122	28	0	1639972864	46	5874
2026-01-17 15:27:20.02	235.49	38.52	-36.5	-37.5	22.6	0.00e+00	123	28	0	1643118592	46	5920
2026-01-17 15:27:21.03	235.31	38.29	-36.3	-37.3	22.8	0.00e+00	122	28	0	1646264320	46	5764
2026-01-17 15:27:22.04	235.12	38.06	-36.1	-37.1	23.0	0.00e+00	122	28	0	1649410048	46	5638
2026-01-17 15:27:23.05	234.94	37.83	-35.8	-36.8	23.3	0.00e+00	122	28	0	1652555776	46	5410
2026-01-17 15:27:24.06	234.76	37.61	-35.4	-36.4	23.5	0.00e+00	123	28	0	1655701504	44	5803
2026-01-17 15:27:25.07	234.58	37.38	-35.2	-36.1	23.7	0.00e+00	122	28	0	1658847232	44	5626
2026-01-17 15:27:26.08	234.41	37.16	-35.0	-35.9	23.9	0.00e+00	122	28	0	1661992960	44	5496
2026-01-17 15:27:27.09	234.24	36.93	-35.0	-35.9	24.0	0.00e+00	123	28	0	1665138688	44	5505
2026-01-17 15:27:28.09	234.07	36.72	-35.1	-36.1	23.8	0.00e+00	122	28	0	1668284416	44	5599
2026-01-17 15:27:29.10	233.90	36.50	-35.6	-36.5	23.4	0.00e+00	123	28	0	1671430144	44	5916
2026-01-17 15:27:30.12	233.73	36.27	-35.8	-36.8	23.1	0.00e+00	123	28	0	1674575872	44	6116
2026-01-17 15:27:31.12	233.57	36.06	-36.1	-37.1	23.0	0.00e+00	122	28	0	1677721600	44	6287
2026-01-17 15:27:32.13	233.41	35.84	-36.0	-37.0	23.1	0.00e+00	123	28	0	1681915904	44	6228
2026-01-17 15:27:33.14	233.25	35.63	-35.9	-36.9	23.0	0.00e+00	120	28	0	1684013056	44	6165
2026-01-17 15:27:34.15	233.10	35.41	-35.9	-37.0	22.9	0.00e+00	122	28	0	1687158784	44	6218
2026-01-17 15:27:35.17	232.94	35.20	-35.9	-36.9	22.7	0.00e+00	122	28	0	1690304512	44	6197
2026-01-17 15:27:36.18	232.79	34.98	-35.9	-36.9	22.9	0.00e+00	122	28	0	1693450240	44	6164
2026-01-17 15:27:37.19	232.64	34.77	-35.6	-36.5	23.4	0.00e+00	122	28	0	1697644544	44	5907
2026-01-17 15:27:38.20	232.49	34.56	-35.3	-36.3	23.7	0.00e+00	122	28	0	1700790272	44	5727
2026-01-17 15:27:39.21	232.34	34.36	-35.0	-35.8	23.9	0.00e+00	123	28	0	1703936000	44	5467
2026-01-17 15:27:40.22	232.20	34.15	-34.9	-35.8	23.9	0.00e+00	123	28	0	1706033152	44	5447
2026-01-17 15:27:41.23	232.06	33.94	-34.8	-35.7	23.9	0.00e+00	123	28	0	1709178880	44	5401
2026-01-17 15:27:42.24	231.92	33.74	-34.7	-35.7	23.9	0.00e+00	122	28	0	1713373184	42	5995
2026-01-17 15:27:43.25	231.78	33.53	-34.8	-35.8	23.9	0.00e+00	120	28	0	1716518912	42	6079
2026-01-17 15:27:44.26	231.64	33.33	-34.7	-35.6	24.0	0.00e+00	123	28	0	1719664640	42	5976
2026-01-17 15:27:45.27	231.50	33.13	-34.8	-35.8	23.8	0.00e+00	120	28	0	1722810368	42	6073
2026-01-17 15:27:46.28	231.37	32.93	-34.9	-35.8	23.8	0.00e+00	122	28	0	1725956096	42	6094
2026-01-17 15:27:47.29	231.24	32.73	-34.9	-35.9	23.7	0.00e+00	122	28	0	1729101824	42	6143
2026-01-17 15:27:48.30	231.11	32.53	-35.1	-36.0	23.7	0.00e+00	122	28	0	1732247552	42	6253
2026-01-17 15:27:49.31	230.98	32.33	-35.2	-36.1	23.6	0.00e+00	123	28	0	1735393280	42	6327
2026-01-17 15:27:50.32	230.85	32.14	-35.1	-36.0	23.8	0.00e+00	123	28	0	1738539008	42	6223
2026-01-17 15:27:51.33	230.73	31.94	-35.1	-36.1	23.8	0.00e+00	120	28	0	1741684736	42	6280
2026-01-17 15:27:52.34	230.60	31.75	-35.0	-35.9	24.0	0.00e+00	122	28	0	1744830464	42	6162
2026-01-17 15:27:53.35	230.48	31.56	-34.8	-35.7	24.0	0.00e+00	122	28	0	1747976192	42	6045
2026-01-17 15:27:54.36	230.36	31.37	-34.5	-35.4	24.2	0.00e+00	123	28	0	1751121920	42	5855
2026-01-17 15:27:55.38	230.24	31.17	-34.5	-35.4	24.2	0.00e+00	122	28	0	1754267648	42	5854
2026-01-17 15:27:56.39	230.12	30.99	-34.5	-35.4	24.2	0.00e+00	123	28	0	1757413376	42	5836
2026-01-17 15:27:57.40	230.00	30.80	-34.5	-35.4	24.2	0.00e+00	120	28	0	1760559104	42	5830
2026-01-17 15:27:58.41	229.89	30.61	-34.6	-35.5	24.1	0.00e+00	122	28	0	1763704832	42	5874
2026-01-17 15:27:59.42	229.77	30.42	-34.5	-35.5	24.1	0.00e+00	123	28	0	1766850560	42	5859
2026-01-17 15:28:00.42	229.66	30.24	-34.6	-35.5	24.0	0.00e+00	122	28	0	1769996288	42	5925
2026-01-17 15:28:01.43	229.55	30.06	-34.8	-35.8	23.8	0.00e+00	120	28	0	1773142016	42	6085
2026-01-17 15:28:02.44	229.44	29.87	-35.0	-36.0	23.7	0.00e+00	122	28	0	1776287744	42	6224
2026-01-17 15:28:03.45	229.33	29.69	-35.2	-36.1	23.6	0.00e+00	123	28	0	1779433472	42	6345
2026-01-17 15:28:04.46	229.22	29.51	-35.3	-36.3	23.5	0.00e+00	123	28	0	1782579200	42	6447
2026-01-17 15:28:05.47	229.11	29.33	-35.4	-36.3	23.4	0.00e+00	122	28	0	1785724928	42	6483
2026-01-17 15:28:06.48	229.01	29.15	-35.6	-36.5	23.3	0.00e+00	120	28	0	1788870656	42	6641
2026-01-17 15:28:07.49	228.90	28.98	-35.4	-36.4	23.4	0.00e+00	122	28	0	1792016384	42	6519
2026-01-17 15:28:08.50	228.80	28.80	-35.4	-36.4	23.4	0.00e+00	123	28	0	1795162112	42	6557
2026-01-17 15:28:09.51	228.70	28.62	-35.5	-36.5	23.3	0.00e+00	123	28	0	1798307840	42	6589
2026-01-17 15:28:10.52	228.60	28.45	-35.4	-36.4	23.4	0.00e+00	120	28	0	1801453568	42	6507
2026-01-17 15:28:11.53	228.50	28.27	-35.4	-36.4	23.5	0.00e+00	123	28	0	1804599296	42	6501
2026-01-17 15:28:12.54	228.40	28.10	-35.3	-36.3	23.5	0.00e+00	123	28	0	1807745024	42	6432
2026-01-17 15:28:13.55	228.30	27.93	-35.1	-36.0	23.7	0.00e+00	123	28	0	1810890752	42	6250
2026-01-17 15:28:14.56	228.21	27.76	-34.9	-35.9	23.8	0.00e+00	120	28	0	1814036480	42	6139
2026-01-17 15:28:15.57	228.11	27.59	-34.8	-35.7	24.0	0.00e+00	123	28	0	1817182208	42	6027
2026-01-17 15:28:16.58	228.02	27.42	-34.7	-35.6	24.1	0.00e+00	123	28	0	1820327936	42	5958
2026-01-17 15:28:17.58	227.92	27.25	-34.6	-35.5	24.2	0.00e+00	120	28	0	1823473664	42	5896
2026-01-17 15:28:18.60	227.83	27.09	-34.3	-35.2	24.4	0.00e+00	123	28	0	1826619392	42	5674
2026-01-17 15:28:19.60	227.74	26.92	-33.9	-34.7	24.8	0.00e+00	120	28	0	1829765120	42	5396
2026-01-17 15:28:20.61	227.65	26.76	-33.9	-34.8	24.7	0.00e+00	123	28	0	1832910848	42	5425
2026-01-17 15:28:21.63	227.56	26.59	-33.6	-34.5	25.0	0.00e+00	122	28	0	1836056576	40	5861
2026-01-17 15:28:22.63	227.47	26.43	-33.3	-34.2	25.1	0.00e+00	120	28	0	1839202304	40	5676
2026-01-17 15:28:23.64	227.39	26.27	-33.4	-34.2	25.1	0.00e+00	122	28	0	1842348032	40	5711
2026-01-17 15:28:24.66	227.30	26.10	-33.3	-34.2	25.1	0.00e+00	120	28	0	1845493760	40	5686
2026-01-17 15:28:25.67	227.21	25.94	-33.4	-34.2	25.1	0.00e+00	123	28	0	1848639488	40	5691
2026-01-17 15:28:26.68	227.13	25.78	-33.4	-34.2	25.2	0.00e+00	122	28	0	1851785216	40	5718
2026-01-17 15:28:27.69	227.04	25.62	-33.5	-34.3	25.1	0.00e+00	123	28	0	1854930944	40	5765
2026-01-17 15:28:28.70	226.96	25.47	-33.5	-34.4	25.0	0.00e+00	123	28	0	1858076672	40	5796
2026-01-17 15:28:29.71	226.88	25.31	-33.5	-34.3	25.0	0.00e+00	122	28	0	1861222400	40	5786
2026-01-17 15:28:30.72	226.80	25.15	-33.6	-34.4	24.9	0.00e+00	123	28	0	1864368128	40	5853
2026-01-17 15:28:31.73	226.72	25.00	-33.6	-34.5	24.9	0.00e+00	120	28	0	1867513856	40	5898
2026-01-17 15:28:32.74	226.64	24.84	-33.8	-34.7	24.8	0.00e+00	123	28	0	1870659584	40	6032
2026-01-17 15:28:33.75	226.56	24.69	-33.9	-34.8	24.7	0.00e+00	120	28	0	1873805312	40	6100
2026-01-17 15:28:34.76	226.48	24.54	-34.0	-34.9	24.6	0.00e+00	123	28	0	1876951040	40	6150
2026-01-17 15:28:35.77	226.40	24.38	-34.2	-35.1	24.5	0.00e+00	120	28	0	1880096768	40	6324
2026-01-17 15:28:36.78	226.33	24.23	-34.3	-35.2	24.3	0.00e+00	122	28	0	1883242496	40	6392
2026-01-17 15:28:37.79	226.25	24.08	-34.3	-35.2	24.4	0.00e+00	123	28	0	1886388224	40	6390
2026-01-17 15:28:38.80	226.18	23.93	-34.4	-35.3	24.2	0.00e+00	123	28	0	1889533952	40	6445
2026-01-17 15:28:39.81	226.10	23.78	-34.6	-35.5	24.1	0.00e+00	122	28	0	1892679680	40	6601
2026-01-17 15:28:40.82	226.03	23.64	-34.4	-35.3	24.3	0.00e+00	121	28	0	1895825408	40	6469
2026-01-17 15:28:41.83	225.96	23.49	-34.6	-35.5	24.1	0.00e+00	123	28	0	1898971136	40	6648
2026-01-17 15:28:42.84	225.88	23.34	-34.6	-35.5	24.1	0.00e+00	122	28	0	1902116864	40	6620
2026-01-17 15:28:43.85	225.81	23.20	-34.6	-35.5	24.1	0.00e+00	120	28	0	1905262592	40	6649
2026-01-17 15:28:44.86	225.74	23.05	-34.8	-35.7	24.0	0.00e+00	122	28	0	1908408320	40	6739
2026-01-17 15:28:45.87	225.67	22.91	-34.7	-35.6	24.1	0.00e+00	123	28	0	1911554048	42	5944
2026-01-17 15:28:46.88	225.60	22.76	-34.6	-35.6	24.1	0.00e+00	122	28	0	1914699776	42	5941
2026-01-17 15:28:47.89	225.53	22.62	-34.6	-35.5	24.1	0.00e+00	122	28	0	1917845504	42	5885
2026-01-17 15:28:48.90	225.47	22.48	-34.5	-35.4	24.1	0.00e+00	120	28	0	1920991232	42	5854
2026-01-17 15:28:49.91	225.40	22.34	-34.5	-35.5	24.1	0.00e+00	122	28	0	1924136960	42	5863
2026-01-17 15:28:50.92	225.33	22.20	-34.6	-35.6	24.0	0.00e+00	120	28	0	1927282688	42	5932
2026-01-17 15:28:51.93	225.26	22.06	-34.6	-35.5	24.1	0.00e+00	123	28	0	1930428416	42	5874
2026-01-17 15:28:52.94	225.20	21.92	-34.6	-35.5	24.0	0.00e+00	120	28	0	1933574144	42	5890
2026-01-17 15:28:53.95	225.13	21.78	-34.6	-35.5	24.0	0.00e+00	123	28	0	1936719872	42	5917
2026-01-17 15:28:54.97	225.07	21.64	-34.6	-35.5	24.0	0.00e+00	122	28	0	1939865600	42	5906
2026-01-17 15:28:55.97	225.01	21.51	-34.7	-35.7	24.0	0.00e+00	123	28	0	1943011328	42	6006
2026-01-17 15:28:56.99	224.94	21.37	-34.6	-35.5	24.1	0.00e+00	120	28	0	1946157056	42	5892
2026-01-17 15:28:58.00	224.88	21.23	-34.6	-35.5	24.0	0.00e+00	122	28	0	1949302784	42	5922
2026-01-17 15:28:59.01	224.82	21.10	-34.4	-35.4	24.2	0.00e+00	123	28	0	1952448512	42	5810
2026-01-17 15:29:00.02	224.76	20.96	-34.5	-35.4	24.1	0.00e+00	122	28	0	1955594240	42	5846
2026-01-17 15:29:01.03	224.70	20.83	-34.5	-35.4	24.2	0.00e+00	122	28	0	1958739968	42	5811
2026-01-17 15:29:02.04	224.64	20.70	-34.4	-35.3	24.2	0.00e+00	122	28	0	1961885696	42	5755
2026-01-17 15:29:03.05	224.58	20.57	-34.4	-35.3	24.3	0.00e+00	122	28	0	1965031424	42	5744
2026-01-17 15:29:04.06	224.52	20.43	-34.3	-35.3	24.2	0.00e+00	123	28	0	1968177152	42	5740
