passes_logs/2026/01/17/R4.6S_Anadyr/R4.6S_Anadyr__20260117_022351_NOAA_20_JPSS-1_rec.log

#Pass ID: 20260117_022351_NOAA 20 (JPSS-1)
#Satellite: NOAA 20 (JPSS-1)
#Configuration: NOAA 20
#almurnet v.1.7.20251203
#Start time: 2026-01-17 02:23:54

#Version: 2.2.20231116
#Station: R4.6S_Anadyr
#Location: 177.4865 lon 64.73178 lat
#TLE: 1 43013U 17073A   26016.52825843  .00000039  00000+0  39346-4 0  9991
#TLE: 2 43013  98.7637 317.4515 0001446  37.2648 322.8628 14.19536276422951

#Time	Az	El	Level	Level2	SNR	BER	BlckErr	Temp	State	Recorded	gain1	gain2
2026-01-17 02:23:54.97	213.33	0.20	-48.3	-49.9	5.7	0.00e+00	0	28	0	0	60	38321
2026-01-17 02:23:55.95	213.40	0.25	-48.2	-63.4	3.6	1.51e+00	0	29	104	0	60	53772
2026-01-17 02:23:56.92	213.47	0.30	-48.3	-63.4	3.6	1.51e+00	0	29	104	0	60	53492
2026-01-17 02:23:57.90	213.54	0.35	-48.1	-63.4	3.6	1.51e+00	0	29	104	0	60	53538
2026-01-17 02:23:58.88	213.60	0.40	-48.1	-63.4	3.6	1.51e+00	0	29	104	0	60	53261
2026-01-17 02:23:59.86	213.67	0.45	-48.2	-63.4	3.6	1.51e+00	0	29	104	0	60	53767
2026-01-17 02:24:00.84	213.74	0.50	-48.2	-63.4	3.6	1.51e+00	0	29	104	0	60	53485
2026-01-17 02:24:01.81	213.81	0.55	-47.9	-63.3	3.6	1.51e+00	0	29	104	0	60	52708
2026-01-17 02:24:02.80	213.88	0.60	-47.7	-63.4	3.6	1.51e+00	0	29	104	0	60	53258
2026-01-17 02:24:03.78	213.95	0.65	-48.0	-63.2	3.6	1.51e+00	0	29	104	0	60	52140
2026-01-17 02:24:04.76	214.02	0.70	-47.9	-63.2	3.6	1.51e+00	0	29	104	0	60	51983
2026-01-17 02:24:05.73	214.09	0.75	-47.8	-63.0	3.6	1.51e+00	0	29	104	0	60	51039
2026-01-17 02:24:06.71	214.16	0.80	-47.6	-62.8	3.6	1.51e+00	0	29	104	0	60	49749
2026-01-17 02:24:07.69	214.23	0.86	-47.1	-62.3	3.6	1.51e+00	0	29	104	0	60	46989
2026-01-17 02:24:08.67	214.30	0.91	-46.7	-61.8	3.6	1.51e+00	0	29	104	0	60	44419
2026-01-17 02:24:09.64	214.37	0.96	-46.6	-61.8	3.6	1.51e+00	0	29	104	0	60	44225
2026-01-17 02:24:10.63	214.44	1.01	-46.6	-61.8	3.6	1.51e+00	0	29	104	0	60	44363
2026-01-17 02:24:11.60	214.51	1.06	-46.7	-61.8	3.6	1.51e+00	0	29	104	0	60	44459
2026-01-17 02:24:12.58	214.58	1.11	-46.7	-61.8	3.6	1.51e+00	0	29	104	0	60	44338
2026-01-17 02:24:13.55	214.65	1.16	-46.7	-61.8	3.6	1.51e+00	0	29	104	0	60	44243
2026-01-17 02:24:14.53	214.72	1.21	-46.6	-61.7	3.6	1.51e+00	0	29	104	0	60	43842
2026-01-17 02:24:15.51	214.79	1.26	-46.6	-61.8	3.6	1.51e+00	0	29	104	0	60	44274
2026-01-17 02:24:16.48	214.86	1.31	-46.6	-61.7	3.6	1.51e+00	0	29	104	0	60	43931
2026-01-17 02:24:17.46	214.94	1.37	-46.6	-61.8	3.6	1.51e+00	0	29	104	0	60	44249
2026-01-17 02:24:18.44	215.01	1.42	-46.6	-61.8	3.6	1.51e+00	0	29	104	0	60	44472
2026-01-17 02:24:19.42	215.08	1.47	-46.7	-61.8	3.6	1.51e+00	0	29	104	0	60	44613
2026-01-17 02:24:20.39	215.15	1.52	-46.6	-61.8	3.6	1.51e+00	0	29	104	0	60	44364
2026-01-17 02:24:21.37	215.23	1.57	-46.6	-61.8	3.6	1.51e+00	0	29	104	0	60	44360
2026-01-17 02:24:22.34	215.30	1.62	-46.6	-61.8	3.6	1.51e+00	0	29	104	0	60	44261
2026-01-17 02:24:23.32	215.37	1.68	-46.6	-61.7	3.6	1.51e+00	0	29	104	0	60	44059
2026-01-17 02:24:24.30	215.45	1.73	-46.6	-61.7	3.6	1.51e+00	0	29	104	0	60	43770
2026-01-17 02:24:25.28	215.52	1.78	-46.6	-61.6	3.6	1.51e+00	0	29	104	0	60	43664
2026-01-17 02:24:26.26	215.60	1.83	-46.6	-61.6	3.6	1.51e+00	0	29	104	0	60	43659
2026-01-17 02:24:27.24	215.67	1.88	-46.7	-61.7	3.6	1.51e+00	0	29	104	0	60	44007
2026-01-17 02:24:28.21	215.75	1.93	-46.6	-61.7	3.6	1.51e+00	0	29	104	0	60	43806
2026-01-17 02:24:29.19	215.82	1.99	-46.6	-61.7	3.6	1.51e+00	0	29	104	0	60	43868
2026-01-17 02:24:30.17	215.90	2.04	-46.7	-61.6	3.6	1.51e+00	0	29	104	0	60	43562
2026-01-17 02:24:31.15	215.97	2.09	-46.6	-61.7	3.6	1.51e+00	0	29	104	0	60	43931
2026-01-17 02:24:32.13	216.05	2.14	-46.6	-61.7	3.6	1.51e+00	0	29	104	0	60	43858
2026-01-17 02:24:33.11	216.13	2.20	-46.6	-61.5	3.6	1.51e+00	0	29	104	0	60	43189
2026-01-17 02:24:34.08	216.20	2.25	-46.6	-61.6	3.6	1.51e+00	0	29	104	0	60	43502
2026-01-17 02:24:35.06	216.28	2.30	-46.6	-60.5	3.6	1.51e+00	0	29	104	0	60	38466
2026-01-17 02:24:36.04	216.36	2.35	-46.5	-60.0	3.6	1.51e+00	0	29	104	0	60	36047
2026-01-17 02:24:37.02	216.43	2.41	-46.5	-58.9	3.7	1.49e+00	0	29	104	0	60	31849
2026-01-17 02:24:37.99	216.51	2.46	-46.5	-59.7	3.7	1.49e+00	0	29	104	0	60	34949
2026-01-17 02:24:38.97	216.59	2.51	-46.6	-60.9	3.6	1.51e+00	0	29	104	0	60	40079
2026-01-17 02:24:39.95	216.67	2.56	-46.5	-60.3	3.6	1.51e+00	0	29	104	0	60	37309
2026-01-17 02:24:40.93	216.74	2.62	-46.3	-56.8	5.0	1.50e+00	0	29	104	0	60	25084
2026-01-17 02:24:41.91	216.82	2.67	-45.7	-52.4	7.8	1.73e-01	0	29	0	0	60	15130
2026-01-17 02:24:42.88	216.90	2.72	-44.5	-48.5	11.9	3.90e-03	0	29	0	2097152	60	9644
2026-01-17 02:24:43.86	216.98	2.77	-43.9	-47.3	13.4	1.32e-04	0	29	0	4194304	60	8374
2026-01-17 02:24:44.84	217.06	2.83	-42.6	-45.1	15.6	0.00e+00	0	29	0	6291456	58	7274
2026-01-17 02:24:45.82	217.14	2.88	-42.1	-44.3	16.5	0.00e+00	0	29	0	7340032	58	6665
2026-01-17 02:24:46.80	217.22	2.93	-41.7	-43.8	16.8	0.00e+00	0	29	0	9437184	58	6289
2026-01-17 02:24:47.78	217.30	2.99	-42.2	-44.4	16.1	0.00e+00	0	29	0	11534336	56	7568
2026-01-17 02:24:48.76	217.38	3.04	-43.4	-46.4	14.1	0.00e+00	0	29	0	13631488	58	8475
2026-01-17 02:24:49.74	217.46	3.09	-42.7	-45.3	14.6	0.00e+00	0	29	0	14680064	58	7493
2026-01-17 02:24:50.72	217.54	3.15	-43.1	-45.9	14.9	7.00e-07	0	29	0	16777216	60	7107
2026-01-17 02:24:51.70	217.62	3.20	-45.6	-52.2	6.6	0.00e+00	0	29	0	18874368	60	14772
2026-01-17 02:24:52.67	217.70	3.25	-46.5	-59.3	3.7	1.51e+00	0	29	104	18874368	60	33193
2026-01-17 02:24:53.65	217.79	3.31	-41.9	-44.0	17.7	5.42e-01	0	29	104	18874368	60	5707
2026-01-17 02:24:54.63	217.87	3.36	-42.1	-44.2	16.8	0.00e+00	0	29	0	19922944	56	7394
2026-01-17 02:24:55.60	217.95	3.41	-41.8	-43.8	17.3	0.00e+00	0	29	0	22020096	56	7049
2026-01-17 02:24:56.58	218.03	3.47	-41.5	-43.4	17.6	0.00e+00	0	29	0	23068672	56	6752
2026-01-17 02:24:57.56	218.12	3.52	-41.0	-42.7	18.3	0.00e+00	0	29	0	25165824	56	6238
2026-01-17 02:24:58.54	218.20	3.57	-40.9	-42.6	18.4	0.00e+00	0	29	0	27262976	56	6154
2026-01-17 02:24:59.52	218.28	3.63	-41.1	-42.9	18.1	0.00e+00	0	29	0	29360128	56	6350
2026-01-17 02:25:00.50	218.37	3.68	-40.8	-42.4	18.8	0.00e+00	0	29	0	31457280	56	6005
2026-01-17 02:25:01.47	218.45	3.74	-40.4	-42.0	19.0	0.00e+00	0	29	0	32505856	54	6406
2026-01-17 02:25:02.45	218.53	3.79	-41.1	-42.8	18.1	0.00e+00	0	29	0	34603008	54	7056
2026-01-17 02:25:03.43	218.62	3.84	-40.3	-41.9	19.0	0.00e+00	0	29	0	36700160	54	6324
2026-01-17 02:25:04.41	218.71	3.90	-40.7	-42.3	18.7	0.00e+00	0	29	0	38797312	54	6659
2026-01-17 02:25:05.38	218.79	3.95	-40.7	-42.3	18.7	0.00e+00	0	29	0	39845888	54	6662
2026-01-17 02:25:06.37	218.88	4.01	-40.2	-41.7	19.2	0.00e+00	0	29	0	41943040	54	6235
2026-01-17 02:25:07.35	218.96	4.06	-40.5	-42.1	19.0	0.00e+00	0	29	0	44040192	54	6495
2026-01-17 02:25:08.33	219.05	4.12	-40.0	-41.5	19.4	0.00e+00	0	29	0	45088768	54	6045
2026-01-17 02:25:09.32	219.14	4.17	-40.2	-41.7	19.3	0.00e+00	0	29	0	47185920	54	6213
2026-01-17 02:25:10.29	219.22	4.23	-40.2	-41.7	19.3	0.00e+00	0	29	0	49283072	54	6219
2026-01-17 02:25:11.27	219.31	4.28	-40.2	-41.6	19.4	0.00e+00	0	29	0	51380224	54	6168
2026-01-17 02:25:12.25	219.40	4.33	-40.2	-41.7	19.3	0.00e+00	0	29	0	53477376	54	6213
2026-01-17 02:25:13.23	219.49	4.39	-40.2	-41.7	19.3	0.00e+00	0	29	0	54525952	54	6201
2026-01-17 02:25:14.21	219.57	4.44	-40.7	-42.3	18.7	0.00e+00	0	29	0	56623104	54	6678
2026-01-17 02:25:15.19	219.66	4.50	-40.6	-42.1	18.9	0.00e+00	0	29	0	58720256	54	6526
2026-01-17 02:25:16.17	219.75	4.55	-40.3	-41.7	19.3	0.00e+00	0	29	0	60817408	54	6238
2026-01-17 02:25:17.15	219.84	4.61	-40.4	-41.9	19.2	0.00e+00	0	29	0	61865984	54	6344
2026-01-17 02:25:18.12	219.93	4.66	-40.4	-42.0	19.2	0.00e+00	0	29	0	63963136	54	6402
2026-01-17 02:25:19.10	220.02	4.72	-40.3	-41.8	19.3	0.00e+00	0	29	0	66060288	54	6254
2026-01-17 02:25:20.08	220.11	4.77	-40.4	-42.0	19.1	0.00e+00	0	29	0	67108864	54	6410
2026-01-17 02:25:21.06	220.20	4.83	-40.5	-42.0	19.1	0.00e+00	0	29	0	69206016	54	6453
2026-01-17 02:25:22.04	220.29	4.88	-40.3	-41.8	19.4	0.00e+00	0	29	0	71303168	54	6282
2026-01-17 02:25:23.02	220.38	4.94	-40.4	-41.9	19.2	0.00e+00	0	29	0	73400320	54	6375
2026-01-17 02:25:24.00	220.47	4.99	-40.6	-42.2	19.0	0.00e+00	0	29	0	75497472	54	6556
2026-01-17 02:25:24.98	220.56	5.05	-40.3	-41.8	19.4	0.00e+00	0	29	0	76546048	54	6268
2026-01-17 02:25:25.96	220.66	5.11	-40.3	-41.8	19.2	0.00e+00	0	29	0	78643200	54	6279
2026-01-17 02:25:26.93	220.75	5.16	-40.4	-41.9	19.0	0.00e+00	0	29	0	80740352	54	6373
2026-01-17 02:25:27.91	220.84	5.22	-40.4	-41.9	19.2	0.00e+00	0	29	0	82837504	54	6357
2026-01-17 02:25:28.89	220.93	5.27	-40.5	-42.0	19.1	0.00e+00	0	29	0	83886080	54	6427
2026-01-17 02:25:29.87	221.03	5.33	-40.5	-42.0	19.1	0.00e+00	0	29	0	85983232	54	6432
2026-01-17 02:25:30.85	221.12	5.38	-40.5	-42.0	19.1	0.00e+00	0	29	0	88080384	54	6415
2026-01-17 02:25:31.83	221.22	5.44	-40.3	-41.8	19.3	0.00e+00	0	29	0	90177536	54	6261
2026-01-17 02:25:32.82	221.31	5.50	-40.2	-41.7	19.5	0.00e+00	0	29	0	91226112	54	6213
2026-01-17 02:25:33.80	221.41	5.55	-40.2	-41.7	19.5	0.00e+00	0	29	0	93323264	54	6200
2026-01-17 02:25:34.78	221.50	5.61	-40.3	-41.8	19.4	0.00e+00	0	29	0	95420416	54	6249
2026-01-17 02:25:35.77	221.60	5.66	-40.4	-41.9	19.3	0.00e+00	0	29	0	97517568	54	6353
2026-01-17 02:25:36.75	221.69	5.72	-40.2	-41.7	19.5	0.00e+00	0	29	0	98566144	54	6203
2026-01-17 02:25:37.73	221.79	5.78	-40.4	-42.0	19.1	0.00e+00	0	29	0	100663296	54	6423
2026-01-17 02:25:38.72	221.89	5.83	-40.5	-42.1	19.1	0.00e+00	0	29	0	102760448	54	6475
2026-01-17 02:25:39.71	221.99	5.89	-40.6	-42.1	19.1	0.00e+00	0	29	0	104857600	54	6503
2026-01-17 02:25:40.71	222.09	5.95	-40.6	-42.1	19.1	0.00e+00	0	29	0	105906176	54	6506
2026-01-17 02:25:41.70	222.18	6.00	-40.8	-42.4	18.8	0.00e+00	0	29	0	108003328	54	6695
2026-01-17 02:25:42.69	222.28	6.06	-40.6	-42.1	19.0	0.00e+00	0	29	0	110100480	54	6522
2026-01-17 02:25:43.68	222.38	6.12	-40.5	-42.1	19.1	0.00e+00	0	29	0	112197632	54	6470
2026-01-17 02:25:44.68	222.48	6.18	-40.8	-42.4	18.8	0.00e+00	0	29	0	113246208	54	6721
2026-01-17 02:25:45.68	222.59	6.23	-40.7	-42.3	18.8	0.00e+00	0	29	0	115343360	54	6686
2026-01-17 02:25:46.68	222.69	6.29	-40.6	-42.2	19.1	0.00e+00	0	29	0	117440512	54	6541
2026-01-17 02:25:47.69	222.79	6.35	-40.8	-42.3	18.9	0.00e+00	0	29	0	119537664	54	6683
2026-01-17 02:25:48.70	222.89	6.41	-40.8	-42.4	18.7	0.00e+00	0	29	0	121634816	54	6742
2026-01-17 02:25:49.71	223.00	6.47	-40.7	-42.3	18.8	0.00e+00	0	29	0	123731968	54	6668
2026-01-17 02:25:50.72	223.10	6.52	-40.8	-42.4	18.8	0.00e+00	0	29	0	124780544	54	6715
2026-01-17 02:25:51.71	223.20	6.58	-40.7	-42.3	18.8	0.00e+00	0	29	0	126877696	54	6645
2026-01-17 02:25:52.71	223.31	6.64	-40.8	-42.4	18.9	0.00e+00	0	29	0	128974848	54	6701
2026-01-17 02:25:53.71	223.41	6.70	-40.7	-42.3	19.0	0.00e+00	0	29	0	131072000	54	6638
2026-01-17 02:25:54.71	223.52	6.76	-40.7	-42.3	18.9	0.00e+00	0	29	0	132120576	54	6649
2026-01-17 02:25:55.72	223.62	6.82	-40.8	-42.3	18.9	0.00e+00	0	29	0	134217728	54	6687
2026-01-17 02:25:56.73	223.73	6.87	-40.9	-42.5	18.8	0.00e+00	0	29	0	136314880	54	6779
2026-01-17 02:25:57.74	223.84	6.93	-40.8	-42.4	18.8	0.00e+00	0	29	0	138412032	54	6744
2026-01-17 02:25:58.75	223.94	6.99	-40.8	-42.4	18.9	0.00e+00	0	29	0	140509184	54	6724
2026-01-17 02:25:59.76	224.05	7.05	-40.9	-42.5	18.8	0.00e+00	0	29	0	141557760	54	6840
2026-01-17 02:26:00.76	224.16	7.11	-41.1	-42.8	18.5	0.00e+00	0	29	0	143654912	54	7013
2026-01-17 02:26:01.77	224.27	7.17	-40.9	-42.5	18.9	0.00e+00	0	29	0	145752064	54	6779
2026-01-17 02:26:02.78	224.38	7.23	-41.0	-42.7	18.6	0.00e+00	0	29	0	147849216	54	6946
2026-01-17 02:26:03.78	224.49	7.29	-41.2	-42.9	18.5	0.00e+00	0	29	0	149946368	54	7148
2026-01-17 02:26:04.79	224.60	7.35	-40.9	-42.5	18.9	0.00e+00	0	29	0	152043520	54	6776
2026-01-17 02:26:05.80	224.71	7.41	-40.9	-42.5	18.8	0.00e+00	0	29	0	153092096	54	6842
2026-01-17 02:26:06.81	224.82	7.46	-40.9	-42.5	18.8	0.00e+00	0	29	0	155189248	54	6786
2026-01-17 02:26:07.82	224.93	7.52	-41.0	-42.7	18.7	0.00e+00	0	29	0	157286400	54	6935
2026-01-17 02:26:08.83	225.04	7.58	-40.8	-42.4	19.0	0.00e+00	0	29	0	159383552	54	6707
2026-01-17 02:26:09.84	225.15	7.64	-40.7	-42.3	19.1	0.00e+00	0	29	0	161480704	54	6644
2026-01-17 02:26:10.85	225.27	7.70	-40.8	-42.4	18.8	0.00e+00	0	29	0	162529280	54	6752
2026-01-17 02:26:11.86	225.38	7.76	-40.7	-42.3	19.1	0.00e+00	0	29	0	164626432	54	6631
2026-01-17 02:26:12.87	225.49	7.82	-40.9	-42.5	18.9	0.00e+00	0	29	0	166723584	54	6781
2026-01-17 02:26:13.88	225.61	7.88	-41.0	-42.6	18.7	0.00e+00	0	29	0	168820736	54	6891
2026-01-17 02:26:14.89	225.72	7.94	-40.9	-42.4	18.9	0.00e+00	0	29	0	170917888	54	6768
2026-01-17 02:26:15.90	225.84	8.00	-40.8	-42.4	19.0	0.00e+00	0	29	0	171966464	54	6697
2026-01-17 02:26:16.91	225.95	8.06	-40.9	-42.5	18.9	0.00e+00	0	29	0	174063616	54	6790
2026-01-17 02:26:17.92	226.07	8.12	-40.8	-42.4	19.0	0.00e+00	0	29	0	176160768	54	6724
2026-01-17 02:26:18.93	226.18	8.18	-40.7	-42.3	19.1	0.00e+00	0	29	0	178257920	54	6628
2026-01-17 02:26:19.94	226.30	8.24	-40.8	-42.4	19.0	0.00e+00	0	29	0	180355072	54	6752
2026-01-17 02:26:20.95	226.42	8.30	-40.9	-42.4	19.0	0.00e+00	0	29	0	181403648	54	6767
2026-01-17 02:26:21.96	226.53	8.36	-40.7	-42.3	19.1	0.00e+00	0	29	0	183500800	54	6627
2026-01-17 02:26:22.96	226.65	8.42	-40.8	-42.4	19.0	0.00e+00	0	29	0	185597952	54	6715
2026-01-17 02:26:23.97	226.77	8.48	-40.7	-42.3	19.0	0.00e+00	0	29	0	187695104	54	6652
2026-01-17 02:26:24.98	226.89	8.54	-40.6	-42.2	19.2	0.00e+00	0	29	0	189792256	54	6548
2026-01-17 02:26:25.99	227.01	8.60	-40.6	-42.1	19.2	0.00e+00	0	29	0	190840832	54	6531
2026-01-17 02:26:27.00	227.13	8.66	-40.7	-42.3	19.1	0.00e+00	0	29	0	192937984	54	6627
2026-01-17 02:26:28.01	227.25	8.72	-40.7	-42.2	19.1	0.00e+00	0	29	0	195035136	54	6591
2026-01-17 02:26:29.02	227.37	8.78	-40.7	-42.2	19.2	0.00e+00	0	29	0	197132288	54	6570
2026-01-17 02:26:30.03	227.49	8.84	-40.8	-42.3	19.1	0.00e+00	0	29	0	199229440	54	6670
2026-01-17 02:26:31.04	227.61	8.90	-40.9	-42.5	18.9	0.00e+00	0	29	0	200278016	54	6833
2026-01-17 02:26:32.05	227.74	8.96	-40.8	-42.3	19.1	0.00e+00	0	29	0	202375168	54	6652
2026-01-17 02:26:33.06	227.86	9.02	-40.9	-42.5	19.0	0.00e+00	0	29	0	204472320	54	6787
2026-01-17 02:26:34.07	227.98	9.08	-40.8	-42.3	19.1	0.00e+00	0	29	0	206569472	54	6665
2026-01-17 02:26:35.08	228.11	9.15	-40.9	-42.5	19.0	0.00e+00	0	29	0	208666624	54	6776
2026-01-17 02:26:36.09	228.23	9.21	-40.9	-42.5	18.9	0.00e+00	0	29	0	209715200	54	6813
2026-01-17 02:26:37.10	228.35	9.27	-41.0	-42.5	18.9	0.00e+00	0	29	0	211812352	54	6840
2026-01-17 02:26:38.11	228.48	9.33	-41.1	-42.7	18.8	0.00e+00	0	29	0	213909504	54	6966
2026-01-17 02:26:39.12	228.61	9.39	-40.9	-42.5	19.0	0.00e+00	0	29	0	216006656	54	6783
2026-01-17 02:26:40.13	228.73	9.45	-41.0	-42.5	18.9	0.00e+00	0	29	0	218103808	54	6838
2026-01-17 02:26:41.14	228.86	9.51	-40.8	-42.4	19.1	0.00e+00	0	29	0	219152384	54	6717
2026-01-17 02:26:42.14	228.99	9.57	-40.9	-42.4	19.0	0.00e+00	0	29	0	221249536	54	6753
2026-01-17 02:26:43.15	229.11	9.63	-41.0	-42.5	18.9	0.00e+00	0	29	0	223346688	54	6841
2026-01-17 02:26:44.16	229.24	9.69	-40.9	-42.5	18.9	0.00e+00	0	29	0	225443840	54	6817
2026-01-17 02:26:45.17	229.37	9.75	-40.9	-42.5	19.0	0.00e+00	0	29	0	227540992	54	6787
2026-01-17 02:26:46.18	229.50	9.81	-41.0	-42.6	18.9	0.00e+00	0	29	0	228589568	54	6897
2026-01-17 02:26:47.19	229.63	9.87	-41.0	-42.6	18.9	0.00e+00	0	29	0	230686720	54	6915
2026-01-17 02:26:48.20	229.76	9.93	-40.9	-42.5	19.0	0.00e+00	0	29	0	232783872	54	6772
2026-01-17 02:26:49.21	229.89	10.00	-40.8	-42.4	19.0	0.00e+00	0	29	0	234881024	54	6733
2026-01-17 02:26:50.22	230.02	10.06	-40.9	-42.4	19.1	0.00e+00	0	29	0	236978176	54	6735
2026-01-17 02:26:51.23	230.16	10.12	-40.7	-42.2	19.2	0.00e+00	0	29	0	238026752	54	6612
2026-01-17 02:26:52.24	230.29	10.18	-40.7	-42.2	19.3	0.00e+00	0	29	0	240123904	54	6555
2026-01-17 02:26:53.25	230.42	10.24	-40.6	-42.1	19.3	0.00e+00	0	29	0	242221056	54	6520
2026-01-17 02:26:54.26	230.55	10.30	-40.6	-42.1	19.3	0.00e+00	0	29	0	244318208	54	6533
2026-01-17 02:26:55.27	230.69	10.36	-40.7	-42.2	19.3	0.00e+00	0	29	0	246415360	54	6554
2026-01-17 02:26:56.28	230.82	10.42	-40.6	-42.1	19.3	0.00e+00	0	29	0	248512512	54	6465
2026-01-17 02:26:57.29	230.96	10.48	-40.7	-42.2	19.2	0.00e+00	0	29	0	249561088	54	6558
2026-01-17 02:26:58.30	231.09	10.54	-40.6	-42.1	19.4	0.00e+00	0	29	0	251658240	54	6507
2026-01-17 02:26:59.31	231.23	10.61	-40.5	-42.0	19.5	0.00e+00	0	29	0	253755392	54	6404
2026-01-17 02:27:00.32	231.37	10.67	-40.7	-42.2	19.3	0.00e+00	0	29	0	255852544	54	6573
2026-01-17 02:27:01.33	231.51	10.73	-40.7	-42.2	19.3	0.00e+00	0	29	0	257949696	54	6597
2026-01-17 02:27:02.33	231.64	10.79	-40.5	-41.9	19.6	0.00e+00	0	29	0	258998272	54	6382
2026-01-17 02:27:03.34	231.78	10.85	-40.4	-41.9	19.6	0.00e+00	0	29	0	261095424	54	6346
2026-01-17 02:27:04.35	231.92	10.91	-40.4	-41.8	19.7	0.00e+00	0	29	0	263192576	54	6259
2026-01-17 02:27:05.36	232.06	10.97	-40.4	-41.9	19.6	0.00e+00	0	29	0	265289728	54	6336
2026-01-17 02:27:06.37	232.20	11.03	-40.5	-42.0	19.5	0.00e+00	0	29	0	267386880	54	6408
2026-01-17 02:27:07.38	232.34	11.09	-40.5	-41.9	19.6	0.00e+00	0	29	0	268435456	54	6354
2026-01-17 02:27:08.39	232.48	11.15	-40.5	-42.0	19.4	0.00e+00	0	29	0	270532608	54	6398
2026-01-17 02:27:09.40	232.62	11.22	-40.5	-41.9	19.6	0.00e+00	0	29	0	272629760	54	6349
2026-01-17 02:27:10.41	232.77	11.28	-40.5	-41.9	19.5	0.00e+00	0	29	0	274726912	54	6359
2026-01-17 02:27:11.43	232.91	11.34	-40.4	-41.9	19.6	0.00e+00	0	29	0	276824064	54	6320
2026-01-17 02:27:12.43	233.05	11.40	-40.5	-41.9	19.5	0.00e+00	0	29	0	277872640	54	6379
2026-01-17 02:27:13.45	233.20	11.46	-40.4	-41.8	19.6	0.00e+00	0	29	0	279969792	54	6312
2026-01-17 02:27:14.46	233.34	11.52	-40.4	-41.8	19.7	0.00e+00	0	29	0	282066944	54	6298
2026-01-17 02:27:15.47	233.49	11.58	-40.4	-41.8	19.6	0.00e+00	0	29	0	284164096	54	6279
2026-01-17 02:27:16.48	233.64	11.64	-40.2	-41.7	19.8	0.00e+00	0	29	0	286261248	54	6176
2026-01-17 02:27:17.49	233.78	11.71	-40.3	-41.7	19.8	0.00e+00	0	29	0	287309824	54	6209
2026-01-17 02:27:18.50	233.93	11.77	-40.2	-41.6	19.9	0.00e+00	0	29	0	289406976	54	6120
2026-01-17 02:27:19.51	234.08	11.83	-40.2	-41.5	20.0	0.00e+00	0	29	0	291504128	54	6092
2026-01-17 02:27:20.52	234.23	11.89	-40.1	-41.5	20.0	0.00e+00	0	29	0	293601280	54	6063
2026-01-17 02:27:21.53	234.37	11.95	-40.1	-41.5	20.0	0.00e+00	0	29	0	295698432	54	6069
2026-01-17 02:27:22.54	234.52	12.01	-40.1	-41.4	20.0	0.00e+00	0	29	0	297795584	54	6028
2026-01-17 02:27:23.55	234.67	12.07	-40.1	-41.4	20.0	0.00e+00	0	29	0	298844160	54	6022
2026-01-17 02:27:24.56	234.82	12.13	-39.9	-41.2	20.2	0.00e+00	0	29	0	300941312	54	5895
2026-01-17 02:27:25.57	234.98	12.19	-39.9	-41.2	20.2	0.00e+00	0	29	0	303038464	54	5890
2026-01-17 02:27:26.58	235.13	12.25	-40.0	-41.4	20.1	0.00e+00	0	29	0	305135616	54	5996
2026-01-17 02:27:27.59	235.28	12.31	-39.9	-41.2	20.3	0.00e+00	0	29	0	307232768	54	5879
2026-01-17 02:27:28.60	235.43	12.38	-39.8	-41.1	20.3	0.00e+00	0	29	0	308281344	52	6494
2026-01-17 02:27:29.61	235.59	12.44	-39.7	-41.0	20.4	0.00e+00	0	29	0	310378496	52	6417
2026-01-17 02:27:30.62	235.74	12.50	-39.5	-40.8	20.7	0.00e+00	0	29	0	312475648	52	6254
2026-01-17 02:27:31.63	235.90	12.56	-39.4	-40.6	20.8	0.00e+00	0	29	0	314572800	52	6164
2026-01-17 02:27:32.64	236.05	12.62	-39.4	-40.6	20.8	0.00e+00	0	29	0	316669952	52	6134
2026-01-17 02:27:33.65	236.21	12.68	-39.2	-40.4	21.0	0.00e+00	0	29	0	317718528	52	6019
2026-01-17 02:27:34.66	236.37	12.74	-39.2	-40.4	21.1	0.00e+00	0	29	0	319815680	52	5975
2026-01-17 02:27:35.67	236.52	12.80	-39.3	-40.4	21.0	0.00e+00	0	29	0	321912832	52	6032
2026-01-17 02:27:36.68	236.68	12.86	-39.2	-40.4	21.1	0.00e+00	0	29	0	324009984	52	5978
2026-01-17 02:27:37.69	236.84	12.92	-39.1	-40.3	21.2	0.00e+00	0	29	0	326107136	52	5922
2026-01-17 02:27:38.70	237.00	12.98	-39.0	-40.1	21.3	0.00e+00	0	29	0	327155712	52	5821
2026-01-17 02:27:39.71	237.16	13.04	-39.0	-40.1	21.4	0.00e+00	0	29	0	329252864	52	5795
2026-01-17 02:27:40.71	237.32	13.10	-39.0	-40.2	21.3	0.00e+00	0	28	0	331350016	52	5849
2026-01-17 02:27:41.72	237.48	13.16	-38.8	-39.9	21.5	0.00e+00	0	29	0	333447168	52	5682
2026-01-17 02:27:42.73	237.64	13.22	-38.9	-40.0	21.5	0.00e+00	0	29	0	335544320	52	5742
2026-01-17 02:27:43.74	237.80	13.28	-38.7	-39.8	21.7	0.00e+00	0	29	0	336592896	50	6257
2026-01-17 02:27:44.75	237.97	13.34	-38.7	-39.8	21.6	0.00e+00	0	29	0	338690048	50	6297
2026-01-17 02:27:45.76	238.13	13.40	-38.8	-39.9	21.6	0.00e+00	0	29	0	340787200	50	6376
2026-01-17 02:27:46.77	238.30	13.46	-38.8	-39.9	21.6	0.00e+00	0	29	0	342884352	50	6361
2026-01-17 02:27:47.78	238.46	13.52	-38.8	-40.0	21.6	0.00e+00	0	29	0	344981504	50	6399
2026-01-17 02:27:48.79	238.63	13.58	-38.8	-40.0	21.6	0.00e+00	0	29	0	346030080	50	6392
2026-01-17 02:27:49.80	238.79	13.64	-38.7	-39.7	21.8	0.00e+00	0	29	0	348127232	50	6243
2026-01-17 02:27:50.81	238.96	13.70	-38.7	-39.8	21.7	0.00e+00	0	29	0	350224384	50	6260
2026-01-17 02:27:51.82	239.13	13.76	-38.5	-39.6	21.9	0.00e+00	0	29	0	352321536	50	6112
2026-01-17 02:27:52.83	239.30	13.82	-38.5	-39.6	21.8	0.00e+00	0	29	0	354418688	50	6151
2026-01-17 02:27:53.84	239.47	13.88	-38.6	-39.6	21.8	0.00e+00	0	29	0	356515840	50	6173
2026-01-17 02:27:54.85	239.64	13.94	-38.5	-39.6	22.0	0.00e+00	0	29	0	357564416	50	6105
2026-01-17 02:27:55.86	239.81	14.00	-38.5	-39.6	21.9	0.00e+00	0	29	0	359661568	50	6132
2026-01-17 02:27:56.87	239.98	14.06	-38.4	-39.4	22.1	0.00e+00	0	29	0	361758720	50	6018
2026-01-17 02:27:57.88	240.15	14.12	-38.2	-39.2	22.3	0.00e+00	0	29	0	363855872	50	5877
2026-01-17 02:27:58.88	240.32	14.17	-38.4	-39.4	22.1	0.00e+00	0	29	0	364904448	50	6007
2026-01-17 02:27:59.90	240.49	14.23	-38.2	-39.2	22.4	0.00e+00	0	28	0	367001600	50	5856
2026-01-17 02:28:00.91	240.67	14.29	-38.0	-39.1	22.4	0.00e+00	0	28	0	369098752	50	5764
2026-01-17 02:28:01.92	240.84	14.35	-37.8	-38.8	22.6	0.00e+00	0	28	0	371195904	50	5626
2026-01-17 02:28:02.93	241.02	14.41	-37.7	-38.7	22.8	0.00e+00	0	29	0	373293056	50	5558
2026-01-17 02:28:03.94	241.19	14.47	-37.7	-38.7	22.8	0.00e+00	0	29	0	375390208	48	6191
2026-01-17 02:28:04.95	241.37	14.53	-37.4	-38.3	23.1	0.00e+00	0	28	0	376438784	48	5963
2026-01-17 02:28:05.96	241.55	14.58	-37.4	-38.4	23.1	0.00e+00	0	28	0	378535936	48	5988
2026-01-17 02:28:06.97	241.72	14.64	-37.6	-38.5	23.0	0.00e+00	0	28	0	380633088	48	6096
2026-01-17 02:28:07.98	241.90	14.70	-37.6	-38.5	23.0	0.00e+00	0	28	0	382730240	48	6077
2026-01-17 02:28:08.99	242.08	14.76	-37.4	-38.4	23.1	0.00e+00	0	29	0	384827392	48	5970
2026-01-17 02:28:10.00	242.26	14.82	-37.2	-38.2	23.3	0.00e+00	0	29	0	385875968	48	5831
2026-01-17 02:28:11.01	242.44	14.87	-37.1	-38.0	23.5	0.00e+00	0	28	0	387973120	48	5732
2026-01-17 02:28:12.02	242.62	14.93	-37.2	-38.1	23.3	0.00e+00	0	29	0	390070272	48	5820
2026-01-17 02:28:13.03	242.80	14.99	-37.1	-38.0	23.5	0.00e+00	0	29	0	392167424	48	5738
2026-01-17 02:28:14.04	242.99	15.05	-36.9	-37.9	23.7	0.00e+00	0	29	0	394264576	48	5632
2026-01-17 02:28:15.05	243.17	15.10	-36.7	-37.6	23.8	0.00e+00	0	28	0	395313152	46	6124
2026-01-17 02:28:16.06	243.35	15.16	-36.6	-37.4	23.9	0.00e+00	0	28	0	397410304	46	6026
2026-01-17 02:28:17.07	243.54	15.22	-36.5	-37.4	23.9	0.00e+00	0	28	0	399507456	46	6004
2026-01-17 02:28:18.08	243.72	15.27	-36.5	-37.4	24.0	0.00e+00	0	29	0	401604608	46	5973
2026-01-17 02:28:19.09	243.91	15.33	-36.5	-37.4	24.0	0.00e+00	0	28	0	403701760	46	5973
2026-01-17 02:28:20.10	244.09	15.39	-36.6	-37.5	24.0	0.00e+00	0	29	0	404750336	46	6049
2026-01-17 02:28:21.11	244.28	15.44	-36.5	-37.4	24.0	0.00e+00	0	29	0	406847488	46	6012
2026-01-17 02:28:22.12	244.47	15.50	-36.8	-37.7	23.7	0.00e+00	0	28	0	408944640	46	6228
2026-01-17 02:28:23.12	244.66	15.55	-36.7	-37.5	23.9	0.00e+00	0	28	0	411041792	46	6097
2026-01-17 02:28:24.13	244.85	15.61	-36.8	-37.7	23.7	0.00e+00	0	28	0	413138944	46	6195
2026-01-17 02:28:25.14	245.04	15.66	-36.7	-37.6	23.8	0.00e+00	0	29	0	414187520	46	6132
2026-01-17 02:28:26.16	245.23	15.72	-36.6	-37.5	23.9	0.00e+00	0	28	0	416284672	46	6084
2026-01-17 02:28:27.17	245.42	15.78	-36.6	-37.5	24.0	0.00e+00	0	28	0	418381824	46	6039
2026-01-17 02:28:28.18	245.61	15.83	-36.7	-37.6	23.8	0.00e+00	0	28	0	420478976	46	6119
2026-01-17 02:28:29.19	245.80	15.89	-36.7	-37.6	23.9	0.00e+00	0	29	0	422576128	46	6108
2026-01-17 02:28:30.20	246.00	15.94	-36.6	-37.5	23.9	0.00e+00	0	29	0	424673280	46	6073
2026-01-17 02:28:31.21	246.19	15.99	-36.5	-37.4	24.1	0.00e+00	0	28	0	425721856	46	5976
2026-01-17 02:28:32.22	246.39	16.05	-36.6	-37.5	23.9	0.00e+00	0	28	0	427819008	46	6059
2026-01-17 02:28:33.23	246.58	16.10	-36.7	-37.6	23.9	0.00e+00	0	28	0	429916160	46	6129
2026-01-17 02:28:34.24	246.78	16.16	-36.9	-37.8	23.7	0.00e+00	0	29	0	432013312	46	6254
2026-01-17 02:28:35.25	246.97	16.21	-37.0	-37.9	23.7	0.00e+00	0	29	0	434110464	46	6352
2026-01-17 02:28:36.26	247.17	16.26	-37.1	-38.0	23.5	0.00e+00	0	29	0	435159040	46	6407
2026-01-17 02:28:37.27	247.37	16.32	-37.1	-38.0	23.5	0.00e+00	0	28	0	437256192	46	6448
2026-01-17 02:28:38.28	247.57	16.37	-37.1	-38.0	23.2	0.00e+00	0	28	0	439353344	46	6439
2026-01-17 02:28:39.29	247.77	16.42	-37.2	-38.1	23.5	0.00e+00	0	28	0	441450496	46	6484
2026-01-17 02:28:40.30	247.97	16.48	-37.0	-37.9	23.6	0.00e+00	0	29	0	443547648	46	6371
2026-01-17 02:28:41.31	248.17	16.53	-37.0	-37.9	23.6	0.00e+00	0	28	0	444596224	46	6328
2026-01-17 02:28:42.32	248.37	16.58	-37.1	-38.0	23.6	0.00e+00	0	28	0	446693376	46	6413
2026-01-17 02:28:43.33	248.57	16.63	-37.1	-38.0	23.5	0.00e+00	0	28	0	448790528	46	6436
2026-01-17 02:28:44.34	248.78	16.68	-37.2	-38.1	23.4	0.00e+00	0	28	0	450887680	46	6515
2026-01-17 02:28:45.35	248.98	16.74	-37.3	-38.2	23.4	0.00e+00	0	28	0	452984832	46	6603
2026-01-17 02:28:46.36	249.18	16.79	-37.4	-38.3	23.2	0.00e+00	0	28	0	454033408	46	6651
2026-01-17 02:28:47.37	249.39	16.84	-37.5	-38.4	23.2	0.00e+00	0	28	0	456130560	46	6743
2026-01-17 02:28:48.38	249.59	16.89	-37.5	-38.5	23.1	0.00e+00	0	28	0	458227712	46	6797
2026-01-17 02:28:49.39	249.80	16.94	-37.6	-38.6	23.0	0.00e+00	0	28	0	460324864	46	6861
2026-01-17 02:28:50.40	250.01	16.99	-37.7	-38.7	23.0	0.00e+00	0	28	0	462422016	48	6187
2026-01-17 02:28:51.41	250.21	17.04	-37.6	-38.6	23.1	0.00e+00	0	28	0	463470592	48	6119
2026-01-17 02:28:52.42	250.42	17.09	-37.6	-38.6	22.8	0.00e+00	0	28	0	465567744	48	6133
2026-01-17 02:28:53.43	250.63	17.14	-37.5	-38.5	23.1	0.00e+00	0	28	0	467664896	48	6061
2026-01-17 02:28:54.44	250.84	17.19	-37.6	-38.5	23.1	0.00e+00	0	28	0	469762048	48	6067
2026-01-17 02:28:55.45	251.05	17.24	-37.5	-38.5	23.1	0.00e+00	0	28	0	471859200	48	6060
2026-01-17 02:28:56.46	251.26	17.29	-37.7	-38.6	23.0	0.00e+00	0	28	0	472907776	48	6155
2026-01-17 02:28:57.47	251.47	17.34	-37.8	-38.7	22.9	0.00e+00	0	28	0	475004928	48	6232
2026-01-17 02:28:58.47	251.68	17.38	-37.9	-38.9	22.8	0.00e+00	0	28	0	477102080	48	6330
2026-01-17 02:28:59.48	251.90	17.43	-38.1	-39.1	22.5	0.00e+00	0	28	0	479199232	48	6493
2026-01-17 02:29:00.50	252.11	17.48	-38.2	-39.3	22.4	0.00e+00	0	28	0	481296384	48	6625
2026-01-17 02:29:01.51	252.33	17.53	-38.3	-39.4	22.3	0.00e+00	0	28	0	482344960	48	6706
2026-01-17 02:29:02.52	252.54	17.57	-38.4	-39.5	22.3	0.00e+00	0	28	0	484442112	48	6774
2026-01-17 02:29:03.52	252.75	17.62	-38.5	-39.5	22.1	0.00e+00	0	28	0	486539264	48	6815
2026-01-17 02:29:04.53	252.97	17.67	-38.3	-39.3	22.4	0.00e+00	0	28	0	488636416	48	6660
2026-01-17 02:29:05.54	253.19	17.71	-38.3	-39.4	22.3	0.00e+00	0	28	0	490733568	48	6706
2026-01-17 02:29:06.55	253.40	17.76	-38.4	-39.4	22.3	0.00e+00	0	28	0	492830720	48	6713
2026-01-17 02:29:07.56	253.62	17.80	-38.4	-39.4	22.2	0.00e+00	0	28	0	493879296	48	6757
2026-01-17 02:29:08.57	253.84	17.85	-38.5	-39.5	22.2	0.00e+00	0	28	0	495976448	48	6818
2026-01-17 02:29:09.58	254.06	17.89	-38.7	-39.8	21.9	0.00e+00	0	28	0	498073600	48	7011
2026-01-17 02:29:10.59	254.28	17.94	-38.8	-39.9	21.8	0.00e+00	0	28	0	500170752	50	6379
2026-01-17 02:29:11.60	254.50	17.98	-39.0	-40.1	21.7	0.00e+00	0	28	0	502267904	50	6508
2026-01-17 02:29:12.61	254.72	18.03	-38.9	-40.0	21.8	0.00e+00	0	28	0	503316480	50	6460
2026-01-17 02:29:13.62	254.94	18.07	-38.7	-39.8	21.9	0.00e+00	0	28	0	505413632	50	6288
2026-01-17 02:29:14.63	255.17	18.11	-38.8	-39.8	22.0	0.00e+00	0	28	0	507510784	50	6309
2026-01-17 02:29:15.63	255.39	18.16	-38.5	-39.6	22.1	0.00e+00	0	28	0	509607936	50	6115
2026-01-17 02:29:16.64	255.61	18.20	-38.6	-39.7	22.1	0.00e+00	0	28	0	511705088	50	6211
2026-01-17 02:29:17.65	255.83	18.24	-38.6	-39.7	22.0	0.00e+00	0	29	0	512753664	50	6174
2026-01-17 02:29:18.66	256.06	18.28	-38.7	-39.7	22.0	0.00e+00	0	28	0	514850816	50	6238
2026-01-17 02:29:19.67	256.28	18.32	-38.5	-39.5	22.3	0.00e+00	0	28	0	516947968	50	6064
2026-01-17 02:29:20.68	256.51	18.37	-38.3	-39.3	22.4	0.00e+00	0	28	0	519045120	50	5918
2026-01-17 02:29:21.69	256.74	18.41	-38.3	-39.4	22.2	0.00e+00	0	28	0	521142272	50	5978
2026-01-17 02:29:22.70	256.96	18.45	-38.5	-39.6	22.2	0.00e+00	0	28	0	522190848	50	6130
2026-01-17 02:29:23.71	257.19	18.49	-38.5	-39.6	22.2	0.00e+00	0	28	0	524288000	50	6128
2026-01-17 02:29:24.72	257.42	18.53	-38.7	-39.8	22.0	0.00e+00	0	28	0	526385152	50	6256
2026-01-17 02:29:25.73	257.65	18.57	-38.5	-39.6	22.2	0.00e+00	0	28	0	528482304	50	6120
2026-01-17 02:29:26.74	257.88	18.60	-38.5	-39.5	22.2	0.00e+00	0	28	0	530579456	50	6103
2026-01-17 02:29:27.75	258.11	18.64	-38.3	-39.3	22.4	0.00e+00	0	28	0	531628032	50	5961
2026-01-17 02:29:28.76	258.34	18.68	-38.2	-39.2	22.5	0.00e+00	0	28	0	533725184	50	5873
2026-01-17 02:29:29.76	258.57	18.72	-38.2	-39.2	22.6	0.00e+00	0	28	0	535822336	50	5835
2026-01-17 02:29:30.77	258.80	18.76	-37.9	-38.9	22.8	0.00e+00	0	28	0	537919488	50	5632
2026-01-17 02:29:31.78	259.03	18.79	-37.9	-38.8	22.9	0.00e+00	0	28	0	540016640	50	5621
2026-01-17 02:29:32.79	259.26	18.83	-38.0	-39.0	22.8	0.00e+00	0	28	0	541065216	50	5698
2026-01-17 02:29:33.80	259.50	18.86	-38.0	-39.0	22.8	0.00e+00	0	28	0	543162368	50	5703
2026-01-17 02:29:34.81	259.73	18.90	-38.1	-39.1	22.6	0.00e+00	0	28	0	545259520	50	5822
2026-01-17 02:29:35.82	259.97	18.94	-38.2	-39.2	22.5	0.00e+00	0	28	0	547356672	50	5852
2026-01-17 02:29:36.83	260.20	18.97	-38.1	-39.1	22.6	0.00e+00	0	28	0	549453824	50	5814
2026-01-17 02:29:37.84	260.44	19.01	-38.1	-39.1	22.6	0.00e+00	0	28	0	550502400	50	5767
2026-01-17 02:29:38.85	260.67	19.04	-38.1	-39.1	22.6	0.00e+00	0	28	0	552599552	50	5793
2026-01-17 02:29:39.86	260.91	19.07	-38.1	-39.1	22.6	0.00e+00	0	28	0	554696704	50	5807
2026-01-17 02:29:40.87	261.15	19.11	-38.2	-39.2	22.5	0.00e+00	0	28	0	556793856	50	5834
2026-01-17 02:29:41.88	261.38	19.14	-38.2	-39.2	22.5	0.00e+00	0	28	0	558891008	50	5889
2026-01-17 02:29:42.89	261.62	19.17	-38.2	-39.2	22.6	0.00e+00	0	28	0	560988160	50	5860
2026-01-17 02:29:43.90	261.86	19.20	-38.2	-39.2	22.6	0.00e+00	0	28	0	562036736	50	5872
2026-01-17 02:29:44.91	262.10	19.23	-38.2	-39.2	22.5	0.00e+00	0	28	0	564133888	50	5891
2026-01-17 02:29:45.92	262.34	19.26	-38.1	-39.1	22.6	0.00e+00	0	28	0	566231040	50	5806
2026-01-17 02:29:46.93	262.58	19.30	-38.0	-39.0	22.7	0.00e+00	0	28	0	568328192	50	5743
2026-01-17 02:29:47.94	262.82	19.33	-37.9	-38.9	22.8	0.00e+00	0	28	0	570425344	50	5671
2026-01-17 02:29:48.95	263.06	19.36	-37.9	-38.9	22.8	0.00e+00	0	28	0	571473920	50	5650
2026-01-17 02:29:49.95	263.30	19.38	-37.9	-38.9	22.8	0.00e+00	0	28	0	573571072	50	5665
2026-01-17 02:29:50.97	263.54	19.41	-37.9	-38.8	22.9	0.00e+00	0	28	0	575668224	50	5608
2026-01-17 02:29:51.98	263.78	19.44	-37.9	-38.8	22.9	0.00e+00	0	28	0	577765376	50	5615
2026-01-17 02:29:52.98	264.02	19.47	-38.0	-39.0	22.7	0.00e+00	0	28	0	578813952	50	5727
2026-01-17 02:29:53.99	264.27	19.50	-37.9	-38.9	22.8	0.00e+00	0	28	0	580911104	50	5653
2026-01-17 02:29:55.00	264.51	19.52	-38.0	-39.0	22.6	0.00e+00	0	28	0	583008256	50	5731
2026-01-17 02:29:56.01	264.75	19.55	-38.0	-39.0	22.8	0.00e+00	0	28	0	585105408	50	5711
2026-01-17 02:29:57.02	265.00	19.57	-37.9	-38.9	22.9	0.00e+00	0	28	0	587202560	50	5678
2026-01-17 02:29:58.03	265.24	19.60	-37.9	-38.9	22.9	0.00e+00	0	28	0	589299712	50	5647
2026-01-17 02:29:59.04	265.49	19.62	-38.1	-39.1	22.7	0.00e+00	0	28	0	590348288	50	5813
2026-01-17 02:30:00.05	265.73	19.65	-38.1	-39.1	22.7	0.00e+00	0	28	0	592445440	50	5787
2026-01-17 02:30:01.05	265.98	19.67	-37.9	-38.9	22.7	0.00e+00	0	28	0	594542592	50	5672
2026-01-17 02:30:02.06	266.22	19.70	-37.9	-38.9	22.9	0.00e+00	0	28	0	596639744	50	5652
2026-01-17 02:30:03.07	266.47	19.72	-37.6	-38.6	23.1	0.00e+00	0	28	0	598736896	48	6116
2026-01-17 02:30:04.08	266.72	19.74	-38.0	-38.9	23.0	0.00e+00	0	28	0	599785472	48	6362
2026-01-17 02:30:05.09	266.96	19.76	-37.6	-38.5	23.2	0.00e+00	0	28	0	601882624	48	6060
2026-01-17 02:30:06.10	267.21	19.78	-37.9	-38.9	22.9	0.00e+00	0	28	0	603979776	48	6324
2026-01-17 02:30:07.10	267.45	19.80	-37.9	-38.9	22.9	0.00e+00	0	28	0	606076928	48	6347
2026-01-17 02:30:08.11	267.70	19.83	-37.9	-38.9	22.8	0.00e+00	0	28	0	608174080	48	6363
2026-01-17 02:30:09.12	267.95	19.85	-37.8	-38.8	22.9	0.00e+00	0	28	0	609222656	48	6290
2026-01-17 02:30:10.13	268.20	19.86	-37.7	-38.6	23.0	0.00e+00	0	28	0	611319808	48	6167
2026-01-17 02:30:11.14	268.45	19.88	-37.6	-38.6	23.2	0.00e+00	0	28	0	613416960	48	6119
2026-01-17 02:30:12.15	268.70	19.90	-37.5	-38.4	23.1	0.00e+00	0	28	0	615514112	48	6028
2026-01-17 02:30:13.16	268.95	19.92	-37.3	-38.2	23.4	0.00e+00	0	28	0	617611264	48	5862
2026-01-17 02:30:14.17	269.20	19.94	-37.3	-38.2	23.4	0.00e+00	0	28	0	618659840	48	5875
2026-01-17 02:30:15.18	269.45	19.95	-37.3	-38.2	23.4	0.00e+00	0	28	0	620756992	48	5862
2026-01-17 02:30:16.20	269.70	19.97	-37.6	-38.5	23.1	0.00e+00	0	28	0	622854144	48	6071
2026-01-17 02:30:17.20	269.95	19.98	-37.8	-38.7	22.9	0.00e+00	0	28	0	624951296	48	6241
2026-01-17 02:30:18.22	270.20	20.00	-37.9	-38.9	22.8	0.00e+00	0	28	0	627048448	48	6332
2026-01-17 02:30:19.22	270.45	20.01	-38.2	-39.2	22.5	0.00e+00	0	28	0	628097024	48	6603
2026-01-17 02:30:20.23	270.70	20.03	-38.3	-39.4	22.4	0.00e+00	0	28	0	630194176	48	6710
2026-01-17 02:30:21.24	270.95	20.04	-38.5	-39.5	22.3	0.00e+00	0	28	0	632291328	48	6825
2026-01-17 02:30:22.25	271.20	20.06	-38.5	-39.6	22.2	0.00e+00	0	28	0	634388480	48	6890
2026-01-17 02:30:23.26	271.46	20.07	-38.6	-39.6	22.2	0.00e+00	0	28	0	636485632	48	6893
2026-01-17 02:30:24.27	271.71	20.08	-38.5	-39.5	22.1	0.00e+00	0	28	0	637534208	48	6833
2026-01-17 02:30:25.28	271.96	20.09	-38.1	-39.1	22.7	0.00e+00	0	28	0	639631360	48	6473
2026-01-17 02:30:26.29	272.21	20.10	-38.1	-39.1	22.6	0.00e+00	0	28	0	641728512	48	6479
2026-01-17 02:30:27.30	272.47	20.11	-37.9	-38.9	22.8	0.00e+00	0	28	0	643825664	48	6337
2026-01-17 02:30:28.31	272.72	20.12	-37.9	-38.9	22.8	0.00e+00	0	28	0	645922816	48	6367
2026-01-17 02:30:29.32	272.97	20.13	-37.9	-38.9	22.8	0.00e+00	0	28	0	646971392	48	6369
2026-01-17 02:30:30.33	273.22	20.14	-38.1	-39.0	22.7	0.00e+00	0	28	0	649068544	48	6464
2026-01-17 02:30:31.34	273.48	20.15	-38.2	-39.2	22.5	0.00e+00	0	28	0	651165696	48	6612
2026-01-17 02:30:32.35	273.73	20.15	-38.3	-39.4	22.4	0.00e+00	0	28	0	653262848	48	6695
2026-01-17 02:30:33.36	273.98	20.16	-38.2	-39.3	22.4	0.00e+00	0	28	0	655360000	48	6616
2026-01-17 02:30:34.37	274.24	20.17	-38.4	-39.4	22.4	0.00e+00	0	28	0	657457152	48	6740
2026-01-17 02:30:35.38	274.49	20.17	-38.3	-39.4	22.4	0.00e+00	0	28	0	658505728	48	6719
2026-01-17 02:30:36.39	274.75	20.18	-38.4	-39.4	22.4	0.00e+00	0	28	0	660602880	48	6735
2026-01-17 02:30:37.40	275.00	20.18	-38.6	-39.6	22.2	0.00e+00	0	28	0	662700032	48	6905
2026-01-17 02:30:38.41	275.25	20.19	-38.7	-39.8	22.3	0.00e+00	0	28	0	664797184	50	6260
2026-01-17 02:30:39.42	275.51	20.19	-38.4	-39.5	22.3	0.00e+00	0	28	0	666894336	50	6036
2026-01-17 02:30:40.43	275.76	20.20	-38.6	-39.6	22.2	0.00e+00	0	28	0	667942912	50	6166
2026-01-17 02:30:41.43	276.01	20.20	-38.8	-39.9	22.0	0.00e+00	0	28	0	670040064	50	6318
2026-01-17 02:30:42.44	276.27	20.20	-38.9	-40.0	21.8	0.00e+00	0	28	0	672137216	50	6416
2026-01-17 02:30:43.45	276.52	20.20	-38.8	-39.9	21.9	0.00e+00	0	28	0	674234368	50	6372
2026-01-17 02:30:44.46	276.77	20.20	-38.9	-39.9	21.8	0.00e+00	0	28	0	676331520	50	6386
2026-01-17 02:30:45.47	277.03	20.20	-38.9	-40.0	21.8	0.00e+00	0	28	0	677380096	50	6451
2026-01-17 02:30:46.49	277.28	20.20	-38.8	-39.9	22.0	0.00e+00	0	28	0	679477248	50	6368
2026-01-17 02:30:47.50	277.54	20.20	-38.7	-39.8	22.0	0.00e+00	0	28	0	681574400	50	6247
2026-01-17 02:30:48.50	277.79	20.20	-38.6	-39.7	22.1	0.00e+00	0	28	0	683671552	50	6211
2026-01-17 02:30:49.52	278.05	20.20	-38.7	-39.8	22.0	0.00e+00	0	28	0	685768704	50	6259
2026-01-17 02:30:50.53	278.30	20.20	-38.7	-39.8	22.0	0.00e+00	0	28	0	686817280	50	6279
2026-01-17 02:30:51.54	278.55	20.19	-38.6	-39.6	22.2	0.00e+00	0	28	0	688914432	50	6159
2026-01-17 02:30:52.55	278.81	20.19	-38.6	-39.6	22.2	0.00e+00	0	28	0	691011584	50	6132
2026-01-17 02:30:53.56	279.06	20.18	-38.3	-39.4	22.4	0.00e+00	0	28	0	693108736	50	5968
2026-01-17 02:30:54.57	279.32	20.18	-38.3	-39.4	22.4	0.00e+00	0	28	0	695205888	50	5973
2026-01-17 02:30:55.58	279.57	20.17	-38.1	-39.1	22.6	0.00e+00	0	28	0	696254464	50	5799
2026-01-17 02:30:56.59	279.82	20.17	-38.0	-39.0	22.7	0.00e+00	0	28	0	698351616	50	5718
2026-01-17 02:30:57.60	280.08	20.16	-38.0	-39.0	22.8	0.00e+00	0	28	0	700448768	50	5727
2026-01-17 02:30:58.61	280.33	20.16	-37.8	-38.8	22.9	0.00e+00	0	28	0	702545920	50	5592
2026-01-17 02:30:59.62	280.58	20.15	-37.7	-38.7	23.0	0.00e+00	0	28	0	704643072	50	5538
2026-01-17 02:31:00.63	280.84	20.14	-37.9	-38.8	22.9	0.00e+00	0	28	0	705691648	48	6314
2026-01-17 02:31:01.64	281.09	20.13	-38.0	-39.0	22.7	0.00e+00	0	28	0	707788800	48	6428
2026-01-17 02:31:02.65	281.34	20.12	-38.2	-39.2	22.5	0.00e+00	0	28	0	709885952	48	6608
2026-01-17 02:31:03.66	281.59	20.11	-38.3	-39.3	22.5	0.00e+00	0	28	0	711983104	48	6636
2026-01-17 02:31:04.67	281.85	20.10	-38.3	-39.3	22.5	0.00e+00	0	28	0	714080256	48	6622
2026-01-17 02:31:05.68	282.10	20.09	-38.2	-39.2	22.5	0.00e+00	0	28	0	715128832	48	6556
2026-01-17 02:31:06.69	282.35	20.08	-38.2	-39.2	22.5	0.00e+00	0	28	0	717225984	48	6588
2026-01-17 02:31:07.70	282.60	20.07	-38.2	-39.1	22.6	0.00e+00	0	28	0	719323136	48	6529
2026-01-17 02:31:08.71	282.85	20.06	-38.2	-39.2	22.5	0.00e+00	0	28	0	721420288	48	6543
2026-01-17 02:31:09.72	283.10	20.04	-38.3	-39.3	22.5	0.00e+00	0	28	0	723517440	48	6639
2026-01-17 02:31:10.73	283.36	20.03	-38.2	-39.2	22.5	0.00e+00	0	28	0	725614592	48	6610
2026-01-17 02:31:11.74	283.61	20.02	-38.4	-39.4	22.4	0.00e+00	0	28	0	726663168	48	6712
2026-01-17 02:31:12.75	283.86	20.00	-38.4	-39.4	22.3	0.00e+00	0	28	0	728760320	48	6746
2026-01-17 02:31:13.76	284.11	19.99	-38.4	-39.4	22.4	0.00e+00	0	28	0	730857472	48	6721
2026-01-17 02:31:14.77	284.36	19.97	-38.3	-39.3	22.4	0.00e+00	0	28	0	732954624	48	6653
2026-01-17 02:31:15.78	284.61	19.96	-38.5	-39.6	22.2	0.00e+00	0	28	0	735051776	48	6886
2026-01-17 02:31:16.79	284.86	19.94	-38.5	-39.5	22.2	0.00e+00	0	28	0	736100352	48	6815
2026-01-17 02:31:17.80	285.11	19.92	-38.5	-39.5	22.2	0.00e+00	0	28	0	738197504	48	6841
2026-01-17 02:31:18.81	285.36	19.90	-38.4	-39.4	22.3	0.00e+00	0	28	0	740294656	48	6762
2026-01-17 02:31:19.82	285.61	19.89	-38.4	-39.4	22.4	0.00e+00	0	28	0	742391808	48	6714
2026-01-17 02:31:20.83	285.85	19.87	-38.1	-39.1	22.6	0.00e+00	0	28	0	744488960	48	6498
2026-01-17 02:31:21.84	286.10	19.85	-38.1	-39.1	22.6	0.00e+00	0	28	0	745537536	48	6505
2026-01-17 02:31:22.85	286.35	19.83	-37.7	-38.6	23.1	0.00e+00	0	28	0	747634688	48	6140
2026-01-17 02:31:23.85	286.60	19.81	-37.6	-38.5	23.0	0.00e+00	0	28	0	749731840	48	6100
2026-01-17 02:31:24.86	286.84	19.79	-37.6	-38.6	23.0	0.00e+00	0	28	0	751828992	48	6132
2026-01-17 02:31:25.87	287.09	19.77	-37.9	-38.9	22.7	0.00e+00	0	28	0	753926144	48	6362
2026-01-17 02:31:26.88	287.34	19.74	-38.1	-39.1	22.6	0.00e+00	0	28	0	754974720	48	6496
2026-01-17 02:31:27.89	287.58	19.72	-38.1	-39.1	22.6	0.00e+00	0	28	0	757071872	48	6470
2026-01-17 02:31:28.90	287.83	19.70	-38.3	-39.3	22.4	0.00e+00	0	28	0	759169024	48	6644
2026-01-17 02:31:29.92	288.08	19.68	-38.1	-39.1	22.6	0.00e+00	0	28	0	761266176	48	6532
2026-01-17 02:31:30.92	288.32	19.65	-38.0	-39.0	22.7	0.00e+00	0	28	0	763363328	48	6400
2026-01-17 02:31:31.93	288.56	19.63	-38.0	-39.0	22.7	0.00e+00	0	28	0	764411904	48	6425
2026-01-17 02:31:32.94	288.81	19.60	-37.8	-38.7	23.0	0.00e+00	0	28	0	766509056	48	6228
2026-01-17 02:31:33.95	289.05	19.58	-37.5	-38.4	23.2	0.00e+00	0	28	0	768606208	48	6033
2026-01-17 02:31:34.96	289.30	19.55	-37.3	-38.2	23.4	0.00e+00	0	28	0	770703360	48	5847
2026-01-17 02:31:35.97	289.54	19.53	-37.3	-38.2	23.4	0.00e+00	0	28	0	772800512	48	5841
2026-01-17 02:31:36.98	289.78	19.50	-37.1	-38.0	23.5	0.00e+00	0	28	0	773849088	48	5742
2026-01-17 02:31:37.99	290.03	19.47	-37.0	-37.9	23.7	0.00e+00	0	28	0	775946240	48	5640
2026-01-17 02:31:39.00	290.27	19.45	-37.1	-38.0	23.6	0.00e+00	0	28	0	778043392	48	5739
2026-01-17 02:31:40.01	290.51	19.42	-36.7	-37.6	24.0	0.00e+00	0	28	0	780140544	46	6125
2026-01-17 02:31:41.02	290.75	19.39	-36.7	-37.6	23.9	0.00e+00	0	28	0	782237696	46	6116
2026-01-17 02:31:42.03	290.99	19.36	-36.6	-37.5	24.1	0.00e+00	0	28	0	783286272	46	6056
2026-01-17 02:31:43.04	291.23	19.33	-36.9	-37.8	23.8	0.00e+00	0	28	0	785383424	46	6252
2026-01-17 02:31:44.05	291.47	19.30	-36.9	-37.8	23.7	0.00e+00	0	28	0	787480576	46	6300
2026-01-17 02:31:45.06	291.71	19.27	-37.3	-38.2	23.4	0.00e+00	0	28	0	789577728	46	6576
2026-01-17 02:31:46.06	291.95	19.24	-37.5	-38.4	23.2	0.00e+00	0	28	0	791674880	46	6725
2026-01-17 02:31:47.07	292.18	19.21	-37.5	-38.5	23.1	0.00e+00	0	28	0	793772032	46	6800
2026-01-17 02:31:48.08	292.42	19.18	-37.4	-38.3	23.3	0.00e+00	0	28	0	794820608	46	6648
2026-01-17 02:31:49.09	292.66	19.14	-37.3	-38.2	23.3	0.00e+00	0	28	0	796917760	46	6605
2026-01-17 02:31:50.10	292.90	19.11	-37.3	-38.2	23.3	0.00e+00	0	28	0	799014912	46	6613
2026-01-17 02:31:51.11	293.13	19.08	-37.2	-38.1	23.5	0.00e+00	0	28	0	801112064	46	6476
2026-01-17 02:31:52.12	293.37	19.05	-37.2	-38.2	23.5	0.00e+00	0	28	0	803209216	46	6547
2026-01-17 02:31:53.13	293.60	19.01	-37.2	-38.1	23.5	0.00e+00	0	28	0	804257792	46	6492
2026-01-17 02:31:54.14	293.84	18.98	-37.1	-38.0	23.6	0.00e+00	0	28	0	806354944	46	6444
2026-01-17 02:31:55.15	294.07	18.94	-36.9	-37.7	23.9	0.00e+00	0	28	0	808452096	46	6236
2026-01-17 02:31:56.16	294.31	18.91	-36.6	-37.4	24.0	0.00e+00	0	28	0	810549248	46	6016
2026-01-17 02:31:57.17	294.54	18.87	-36.2	-37.1	24.4	0.00e+00	0	28	0	812646400	46	5787
2026-01-17 02:31:58.18	294.77	18.84	-36.1	-36.9	24.5	0.00e+00	0	28	0	813694976	46	5694
2026-01-17 02:31:59.19	295.01	18.80	-36.0	-36.9	24.6	0.00e+00	0	28	0	815792128	46	5645
2026-01-17 02:32:00.20	295.24	18.76	-36.1	-36.9	24.4	0.00e+00	0	28	0	817889280	46	5672
2026-01-17 02:32:01.20	295.47	18.73	-36.3	-37.1	24.3	0.00e+00	0	28	0	819986432	46	5794
2026-01-17 02:32:02.21	295.70	18.69	-36.4	-37.2	24.3	0.00e+00	0	28	0	822083584	46	5876
2026-01-17 02:32:03.22	295.93	18.65	-36.4	-37.2	24.3	0.00e+00	0	28	0	823132160	46	5874
2026-01-17 02:32:04.23	296.16	18.61	-36.5	-37.3	24.1	0.00e+00	0	28	0	825229312	46	5939
2026-01-17 02:32:05.24	296.38	18.58	-36.5	-37.4	24.2	0.00e+00	0	28	0	827326464	46	5968
2026-01-17 02:32:06.26	296.61	18.54	-36.8	-37.6	23.8	0.00e+00	0	28	0	829423616	46	6168
2026-01-17 02:32:07.27	296.84	18.50	-36.8	-37.7	23.9	0.00e+00	0	28	0	831520768	46	6180
2026-01-17 02:32:08.28	297.07	18.46	-36.6	-37.4	24.1	0.00e+00	0	28	0	832569344	46	6012
2026-01-17 02:32:09.29	297.30	18.42	-36.5	-37.4	24.1	0.00e+00	0	28	0	834666496	46	6001
2026-01-17 02:32:10.30	297.52	18.38	-36.4	-37.3	24.0	0.00e+00	0	28	0	836763648	46	5897
2026-01-17 02:32:11.31	297.75	18.34	-36.4	-37.2	24.1	0.00e+00	0	28	0	838860800	46	5895
2026-01-17 02:32:12.32	297.97	18.29	-36.2	-37.0	24.4	0.00e+00	0	28	0	840957952	46	5723
2026-01-17 02:32:13.33	298.20	18.25	-36.2	-37.0	24.4	0.00e+00	0	28	0	842006528	46	5738
2026-01-17 02:32:14.33	298.42	18.21	-36.0	-36.8	24.2	0.00e+00	0	28	0	844103680	46	5603
2026-01-17 02:32:15.34	298.64	18.17	-36.1	-36.9	24.5	0.00e+00	0	28	0	846200832	46	5651
2026-01-17 02:32:16.35	298.86	18.13	-36.0	-36.8	24.7	0.00e+00	0	28	0	848297984	46	5584
2026-01-17 02:32:17.36	299.08	18.08	-36.0	-36.8	24.5	0.00e+00	0	28	0	850395136	46	5617
2026-01-17 02:32:18.37	299.30	18.04	-35.8	-36.6	24.7	0.00e+00	0	28	0	851443712	46	5496
2026-01-17 02:32:19.38	299.53	18.00	-36.0	-36.8	24.7	0.00e+00	0	28	0	853540864	46	5626
2026-01-17 02:32:20.39	299.74	17.95	-35.8	-36.6	24.7	0.00e+00	0	28	0	855638016	46	5464
2026-01-17 02:32:21.40	299.96	17.91	-36.0	-36.8	24.6	0.00e+00	0	28	0	857735168	46	5610
2026-01-17 02:32:22.40	300.18	17.86	-35.9	-36.7	24.7	0.00e+00	0	28	0	859832320	46	5519
2026-01-17 02:32:23.42	300.40	17.82	-35.9	-36.7	24.6	0.00e+00	0	28	0	861929472	46	5523
2026-01-17 02:32:24.43	300.62	17.77	-36.0	-36.8	24.4	0.00e+00	0	28	0	862978048	46	5614
2026-01-17 02:32:25.44	300.83	17.73	-36.2	-37.0	24.4	0.00e+00	0	28	0	865075200	46	5734
2026-01-17 02:32:26.44	301.05	17.68	-36.2	-37.0	24.2	0.00e+00	0	28	0	867172352	46	5756
2026-01-17 02:32:27.45	301.26	17.64	-36.4	-37.2	24.2	0.00e+00	0	28	0	869269504	46	5875
2026-01-17 02:32:28.46	301.48	17.59	-36.5	-37.3	24.2	0.00e+00	0	28	0	871366656	46	5938
2026-01-17 02:32:29.47	301.69	17.54	-36.4	-37.2	24.1	0.00e+00	0	28	0	872415232	46	5874
2026-01-17 02:32:30.48	301.91	17.50	-36.4	-37.3	24.2	0.00e+00	0	28	0	874512384	46	5916
2026-01-17 02:32:31.49	302.12	17.45	-36.3	-37.1	24.3	0.00e+00	0	28	0	876609536	46	5811
2026-01-17 02:32:32.50	302.33	17.40	-36.4	-37.2	24.2	0.00e+00	0	28	0	878706688	46	5895
2026-01-17 02:32:33.51	302.54	17.35	-36.6	-37.5	24.0	0.00e+00	0	28	0	880803840	46	6059
2026-01-17 02:32:34.52	302.75	17.31	-36.8	-37.7	23.8	0.00e+00	0	28	0	881852416	46	6198
2026-01-17 02:32:35.53	302.96	17.26	-37.0	-37.9	23.6	0.00e+00	0	28	0	883949568	46	6390
2026-01-17 02:32:36.54	303.17	17.21	-37.2	-38.1	23.4	0.00e+00	0	28	0	886046720	46	6525
2026-01-17 02:32:37.55	303.38	17.16	-37.3	-38.3	23.3	0.00e+00	0	28	0	888143872	46	6634
2026-01-17 02:32:38.56	303.59	17.11	-37.5	-38.4	23.2	0.00e+00	0	28	0	890241024	46	6739
2026-01-17 02:32:39.57	303.80	17.06	-37.5	-38.4	23.2	0.00e+00	0	28	0	891289600	46	6741
2026-01-17 02:32:40.58	304.00	17.01	-37.4	-38.3	23.2	0.00e+00	0	28	0	893386752	46	6676
2026-01-17 02:32:41.59	304.21	16.96	-37.4	-38.3	23.3	0.00e+00	0	28	0	895483904	46	6641
2026-01-17 02:32:42.60	304.42	16.91	-37.4	-38.3	23.2	0.00e+00	0	28	0	897581056	46	6684
2026-01-17 02:32:43.61	304.62	16.86	-37.6	-38.5	23.1	0.00e+00	0	28	0	899678208	46	6826
2026-01-17 02:32:44.62	304.82	16.81	-37.7	-38.6	23.0	0.00e+00	0	28	0	900726784	46	6893
2026-01-17 02:32:45.63	305.03	16.76	-37.6	-38.6	23.0	0.00e+00	0	28	0	902823936	46	6866
2026-01-17 02:32:46.64	305.23	16.71	-37.5	-38.5	23.1	0.00e+00	0	28	0	904921088	46	6780
2026-01-17 02:32:47.64	305.43	16.66	-37.5	-38.4	23.2	0.00e+00	0	28	0	907018240	46	6741
2026-01-17 02:32:48.65	305.63	16.61	-37.5	-38.5	23.1	0.00e+00	0	28	0	909115392	46	6785
2026-01-17 02:32:49.66	305.83	16.55	-37.3	-38.2	23.3	0.00e+00	0	28	0	910163968	46	6571
2026-01-17 02:32:50.67	306.03	16.50	-37.3	-38.2	23.3	0.00e+00	0	28	0	912261120	46	6553
2026-01-17 02:32:51.68	306.23	16.45	-37.3	-38.2	23.2	0.00e+00	0	28	0	914358272	46	6555
2026-01-17 02:32:52.69	306.43	16.40	-37.5	-38.4	23.1	0.00e+00	0	28	0	916455424	46	6730
2026-01-17 02:32:53.70	306.63	16.34	-37.8	-38.8	22.8	0.00e+00	0	28	0	918552576	48	6281
2026-01-17 02:32:54.71	306.83	16.29	-37.8	-38.8	22.8	0.00e+00	0	28	0	919601152	48	6248
2026-01-17 02:32:55.72	307.02	16.24	-38.0	-39.0	22.6	0.00e+00	0	28	0	921698304	48	6426
2026-01-17 02:32:56.73	307.22	16.18	-38.1	-39.1	22.6	0.00e+00	0	28	0	923795456	48	6479
2026-01-17 02:32:57.74	307.41	16.13	-38.1	-39.1	22.4	0.00e+00	0	28	0	925892608	48	6525
2026-01-17 02:32:58.75	307.61	16.08	-38.2	-39.2	22.3	0.00e+00	0	28	0	927989760	48	6586
2026-01-17 02:32:59.76	307.80	16.02	-38.0	-39.0	22.6	0.00e+00	0	28	0	930086912	48	6441
2026-01-17 02:33:00.77	308.00	15.97	-37.9	-38.9	22.7	0.00e+00	0	28	0	931135488	48	6371
2026-01-17 02:33:01.78	308.19	15.92	-37.9	-38.9	22.7	0.00e+00	0	28	0	933232640	48	6337
2026-01-17 02:33:02.79	308.38	15.86	-37.9	-38.8	22.7	0.00e+00	0	28	0	935329792	48	6310
2026-01-17 02:33:03.79	308.57	15.81	-37.9	-38.9	22.6	0.00e+00	0	28	0	937426944	48	6388
2026-01-17 02:33:04.81	308.76	15.75	-37.8	-38.8	22.7	0.00e+00	0	28	0	939524096	48	6279
2026-01-17 02:33:05.82	308.95	15.70	-37.8	-38.8	22.8	0.00e+00	0	28	0	940572672	48	6287
2026-01-17 02:33:06.83	309.14	15.64	-37.9	-38.8	22.8	0.00e+00	0	28	0	942669824	48	6314
2026-01-17 02:33:07.84	309.33	15.59	-37.9	-38.9	22.5	0.00e+00	0	28	0	944766976	48	6380
2026-01-17 02:33:08.85	309.52	15.53	-37.9	-38.9	22.7	0.00e+00	0	28	0	946864128	48	6336
2026-01-17 02:33:09.86	309.71	15.48	-38.0	-39.0	22.6	0.00e+00	0	28	0	948961280	48	6421
2026-01-17 02:33:10.87	309.89	15.42	-38.0	-39.0	22.4	0.00e+00	0	28	0	950009856	48	6448
2026-01-17 02:33:11.88	310.08	15.36	-38.0	-39.1	22.5	0.00e+00	0	28	0	952107008	48	6473
2026-01-17 02:33:12.89	310.26	15.31	-38.2	-39.2	22.4	0.00e+00	0	28	0	954204160	48	6585
2026-01-17 02:33:13.90	310.45	15.25	-38.2	-39.2	22.3	0.00e+00	0	28	0	956301312	48	6613
2026-01-17 02:33:14.91	310.63	15.20	-37.9	-38.9	22.6	0.00e+00	0	28	0	958398464	48	6340
2026-01-17 02:33:15.92	310.81	15.14	-37.7	-38.7	22.8	0.00e+00	0	28	0	959447040	48	6211
2026-01-17 02:33:16.93	311.00	15.08	-37.7	-38.6	22.9	0.00e+00	0	28	0	961544192	48	6171
2026-01-17 02:33:17.94	311.18	15.03	-37.4	-38.3	23.1	0.00e+00	0	28	0	963641344	48	5946
2026-01-17 02:33:18.95	311.36	14.97	-37.4	-38.3	23.2	0.00e+00	0	28	0	965738496	48	5919
2026-01-17 02:33:19.96	311.54	14.91	-37.3	-38.2	23.2	0.00e+00	0	27	0	967835648	48	5896
2026-01-17 02:33:20.97	311.72	14.85	-37.3	-38.3	23.2	0.00e+00	0	28	0	968884224	48	5915
2026-01-17 02:33:21.98	311.90	14.80	-37.2	-38.1	23.3	0.00e+00	0	28	0	970981376	48	5781
2026-01-17 02:33:22.99	312.08	14.74	-37.3	-38.2	23.2	0.00e+00	0	27	0	973078528	48	5871
2026-01-17 02:33:24.00	312.25	14.68	-37.3	-38.2	23.2	0.00e+00	0	28	0	975175680	48	5851
2026-01-17 02:33:25.01	312.43	14.62	-37.4	-38.3	23.2	0.00e+00	0	28	0	977272832	48	5942
2026-01-17 02:33:26.02	312.61	14.57	-37.5	-38.4	23.0	0.00e+00	0	28	0	978321408	48	6024
2026-01-17 02:33:27.03	312.78	14.51	-37.7	-38.7	22.8	0.00e+00	0	28	0	980418560	48	6216
2026-01-17 02:33:28.04	312.96	14.45	-37.8	-38.8	22.7	0.00e+00	0	28	0	982515712	48	6283
2026-01-17 02:33:29.05	313.13	14.39	-38.3	-39.3	22.2	0.00e+00	0	28	0	984612864	48	6657
2026-01-17 02:33:30.06	313.31	14.34	-38.4	-39.5	22.0	0.00e+00	0	28	0	986710016	48	6813
2026-01-17 02:33:31.07	313.48	14.28	-38.8	-39.9	21.7	0.00e+00	0	28	0	987758592	50	6353
2026-01-17 02:33:32.08	313.65	14.22	-38.8	-39.9	21.6	0.00e+00	0	28	0	989855744	50	6356
2026-01-17 02:33:33.09	313.82	14.16	-38.8	-39.9	21.7	0.00e+00	0	28	0	991952896	50	6362
2026-01-17 02:33:34.10	313.99	14.10	-47.7	-62.8	3.6	1.51e+00	0	28	104	991952896	60	50074
2026-01-17 02:33:35.11	314.17	14.04	-47.7	-62.9	3.6	1.51e+00	0	28	104	991952896	60	50334
2026-01-17 02:33:36.12	314.34	13.98	-47.7	-62.8	3.6	1.51e+00	0	28	104	991952896	60	50073
2026-01-17 02:33:37.13	314.50	13.93	-47.7	-62.8	3.6	1.51e+00	0	28	104	991952896	60	50148
2026-01-17 02:33:38.14	314.67	13.87	-47.7	-62.9	3.6	1.51e+00	0	28	104	991952896	60	50253
2026-01-17 02:33:39.15	314.84	13.81	-47.6	-62.8	3.6	1.51e+00	0	28	104	991952896	60	49876
2026-01-17 02:33:40.16	315.01	13.75	-47.6	-62.8	3.6	1.51e+00	0	28	104	991952896	60	50032
2026-01-17 02:33:41.17	315.17	13.69	-47.7	-62.8	3.6	1.51e+00	0	28	104	991952896	60	50012
2026-01-17 02:33:42.18	315.34	13.63	-47.6	-62.8	3.6	1.51e+00	0	28	104	991952896	60	49890
2026-01-17 02:33:43.19	315.51	13.57	-47.7	-62.8	3.6	1.51e+00	0	28	104	991952896	60	50086
2026-01-17 02:33:44.20	315.67	13.51	-47.6	-62.8	3.6	1.51e+00	0	28	104	991952896	60	49761
2026-01-17 02:33:45.21	315.83	13.45	-47.6	-62.8	3.6	1.51e+00	0	28	104	991952896	60	49831
2026-01-17 02:33:46.22	316.00	13.39	-47.6	-62.8	3.6	1.51e+00	0	28	104	991952896	60	49837
2026-01-17 02:33:47.23	316.16	13.33	-47.7	-62.8	3.6	1.51e+00	0	28	104	991952896	60	49872
2026-01-17 02:33:48.23	316.32	13.27	-47.6	-62.8	3.6	1.51e+00	0	28	104	991952896	60	49617
2026-01-17 02:33:49.24	316.48	13.22	-47.6	-62.8	3.6	1.51e+00	0	28	104	991952896	60	49756
2026-01-17 02:33:50.25	316.64	13.16	-47.6	-62.8	3.6	1.51e+00	0	28	104	991952896	60	49635
2026-01-17 02:33:51.26	316.80	13.10	-47.6	-62.8	3.6	1.51e+00	0	28	104	991952896	60	49893
2026-01-17 02:33:52.27	316.96	13.04	-47.6	-62.8	3.6	1.51e+00	0	28	104	991952896	60	49907
2026-01-17 02:33:53.28	317.12	12.98	-47.6	-62.8	3.6	1.51e+00	0	28	104	991952896	60	49923
2026-01-17 02:33:54.29	317.28	12.92	-47.6	-62.7	3.6	1.51e+00	0	28	104	991952896	60	49419
2026-01-17 02:33:55.30	317.44	12.86	-47.6	-62.8	3.6	1.51e+00	0	28	104	991952896	60	50030
2026-01-17 02:33:56.31	317.59	12.80	-47.6	-62.8	3.6	1.51e+00	0	28	104	991952896	60	49837
2026-01-17 02:33:57.32	317.75	12.74	-47.6	-62.8	3.6	1.51e+00	0	28	104	991952896	60	49647
2026-01-17 02:33:58.33	317.91	12.68	-47.6	-62.7	3.6	1.51e+00	0	28	104	991952896	60	49429
2026-01-17 02:33:59.34	318.06	12.62	-39.0	-40.2	6.2	1.51e+00	0	28	104	991952896	52	5834
2026-01-17 02:34:00.35	318.22	12.56	-40.2	-41.5	19.3	9.39e-01	0	28	104	991952896	56	5423
2026-01-17 02:34:01.36	318.37	12.50	-43.0	-45.1	16.8	7.00e-07	0	28	0	993001472	60	6508
2026-01-17 02:34:02.37	318.52	12.44	-38.7	-39.8	21.7	0.00e+00	0	28	0	995098624	50	6285
2026-01-17 02:34:03.38	318.68	12.38	-38.7	-39.8	21.6	0.00e+00	0	28	0	996147200	50	6271
2026-01-17 02:34:04.39	318.83	12.32	-39.1	-40.3	21.5	0.00e+00	0	28	0	998244352	50	6617
2026-01-17 02:34:05.40	318.98	12.26	-39.0	-40.2	21.3	0.00e+00	0	28	0	1000341504	50	6569
2026-01-17 02:34:06.40	319.13	12.20	-39.7	-41.0	20.7	0.00e+00	0	28	0	1002438656	50	7204
2026-01-17 02:34:07.41	319.28	12.13	-40.0	-41.3	20.5	0.00e+00	0	28	0	1004535808	52	6653
2026-01-17 02:34:08.42	319.43	12.07	-39.6	-40.8	20.7	0.00e+00	0	28	0	1005584384	52	6300
2026-01-17 02:34:09.43	319.58	12.01	-39.9	-41.2	20.4	0.00e+00	0	28	0	1007681536	52	6561
2026-01-17 02:34:10.44	319.73	11.95	-39.7	-40.9	20.4	0.00e+00	0	28	0	1009778688	52	6363
2026-01-17 02:34:11.45	319.88	11.89	-39.8	-41.1	20.8	0.00e+00	0	28	0	1011875840	52	6473
2026-01-17 02:34:12.46	320.02	11.83	-39.4	-40.6	20.9	0.00e+00	0	28	0	1013972992	52	6145
2026-01-17 02:34:13.47	320.17	11.77	-39.8	-41.1	20.7	0.00e+00	0	28	0	1016070144	52	6493
2026-01-17 02:34:14.48	320.32	11.71	-39.6	-40.8	21.0	0.00e+00	0	27	0	1017118720	52	6268
2026-01-17 02:34:15.49	320.46	11.65	-40.1	-41.4	20.3	0.00e+00	0	28	0	1019215872	52	6714
2026-01-17 02:34:16.50	320.61	11.59	-39.8	-41.0	20.4	0.00e+00	0	27	0	1021313024	52	6451
2026-01-17 02:34:17.51	320.75	11.53	-40.1	-41.4	19.6	0.00e+00	0	27	0	1023410176	52	6750
2026-01-17 02:34:18.52	320.90	11.47	-40.3	-41.7	20.7	0.00e+00	0	28	0	1025507328	52	7000
2026-01-17 02:34:19.52	321.04	11.41	-39.6	-40.8	20.4	0.00e+00	0	27	0	1026555904	52	6316
2026-01-17 02:34:20.53	321.18	11.35	-39.7	-41.0	20.1	0.00e+00	0	28	0	1028653056	52	6396
2026-01-17 02:34:21.54	321.32	11.29	-39.6	-40.8	20.4	0.00e+00	0	28	0	1030750208	52	6302
2026-01-17 02:34:22.55	321.46	11.23	-39.6	-40.9	20.5	0.00e+00	0	28	0	1032847360	52	6338
2026-01-17 02:34:23.56	321.60	11.17	-39.4	-40.6	20.9	0.00e+00	0	28	0	1034944512	52	6160
2026-01-17 02:34:24.57	321.75	11.11	-38.9	-40.0	21.2	0.00e+00	0	27	0	1035993088	50	6433
2026-01-17 02:34:25.58	321.89	11.05	-39.1	-40.3	21.2	0.00e+00	0	28	0	1038090240	50	6663
2026-01-17 02:34:26.59	322.02	10.99	-38.6	-39.6	21.5	0.00e+00	0	28	0	1040187392	50	6154
2026-01-17 02:34:27.60	322.16	10.93	-39.0	-40.1	21.1	0.00e+00	0	28	0	1042284544	50	6526
2026-01-17 02:34:28.61	322.30	10.87	-39.3	-40.5	21.2	0.00e+00	0	27	0	1044381696	50	6795
2026-01-17 02:34:29.62	322.44	10.80	-39.5	-40.7	20.7	0.00e+00	0	28	0	1045430272	50	6947
2026-01-17 02:34:30.63	322.58	10.74	-39.5	-40.7	20.6	0.00e+00	0	28	0	1047527424	52	6190
2026-01-17 02:34:31.64	322.71	10.68	-39.8	-41.1	20.6	0.00e+00	0	28	0	1049624576	52	6474
2026-01-17 02:34:32.65	322.85	10.62	-40.0	-41.3	20.0	0.00e+00	0	28	0	1051721728	52	6683
2026-01-17 02:34:33.66	322.99	10.56	-40.0	-41.3	19.7	0.00e+00	0	28	0	1053818880	52	6656
2026-01-17 02:34:34.67	323.12	10.50	-39.6	-40.8	20.5	0.00e+00	0	27	0	1054867456	52	6309
2026-01-17 02:34:35.68	323.25	10.44	-39.1	-40.3	21.2	0.00e+00	0	28	0	1056964608	52	5942
2026-01-17 02:34:36.69	323.39	10.38	-39.1	-40.3	21.3	0.00e+00	0	28	0	1059061760	52	5900
2026-01-17 02:34:37.70	323.52	10.32	-38.8	-39.9	21.5	0.00e+00	0	27	0	1061158912	52	5661
2026-01-17 02:34:38.71	323.66	10.26	-38.7	-39.8	21.6	0.00e+00	0	27	0	1063256064	50	6251
2026-01-17 02:34:39.72	323.79	10.20	-38.0	-39.0	22.2	0.00e+00	0	28	0	1064304640	50	5723
2026-01-17 02:34:40.73	323.92	10.14	-37.8	-38.8	22.5	0.00e+00	0	27	0	1066401792	50	5592
2026-01-17 02:34:41.74	324.05	10.08	-37.9	-38.9	22.4	0.00e+00	0	28	0	1068498944	50	5662
2026-01-17 02:34:42.75	324.18	10.02	-38.0	-39.1	22.2	0.00e+00	0	28	0	1070596096	50	5777
2026-01-17 02:34:43.76	324.31	9.96	-38.2	-39.3	21.9	0.00e+00	0	28	0	1072693248	50	5909
2026-01-17 02:34:44.77	324.44	9.90	-38.4	-39.5	21.8	0.00e+00	0	28	0	1073741824	50	6067
2026-01-17 02:34:45.78	324.57	9.84	-38.6	-39.7	21.6	0.00e+00	0	27	0	1075838976	50	6212
2026-01-17 02:34:46.79	324.70	9.78	-38.6	-39.7	21.6	0.00e+00	0	28	0	1077936128	50	6216
2026-01-17 02:34:47.80	324.83	9.72	-38.6	-39.7	21.6	0.00e+00	0	27	0	1080033280	50	6242
2026-01-17 02:34:48.81	324.96	9.66	-38.6	-39.8	21.6	0.00e+00	0	27	0	1082130432	50	6257
2026-01-17 02:34:49.82	325.08	9.60	-38.5	-39.6	21.7	0.00e+00	0	28	0	1084227584	50	6131
2026-01-17 02:34:50.83	325.21	9.54	-38.6	-39.7	21.6	0.00e+00	0	27	0	1085276160	50	6228
2026-01-17 02:34:51.84	325.34	9.48	-38.5	-39.6	21.7	0.00e+00	0	28	0	1087373312	50	6113
2026-01-17 02:34:52.85	325.46	9.42	-38.5	-39.6	21.7	0.00e+00	0	28	0	1089470464	50	6114
2026-01-17 02:34:53.86	325.59	9.36	-38.5	-39.6	21.7	0.00e+00	0	27	0	1091567616	50	6112
2026-01-17 02:34:54.87	325.71	9.30	-38.4	-39.5	21.8	0.00e+00	0	27	0	1093664768	50	6039
2026-01-17 02:34:55.88	325.84	9.24	-38.4	-39.5	21.7	0.00e+00	0	27	0	1094713344	50	6085
2026-01-17 02:34:56.89	325.96	9.18	-38.6	-39.7	21.6	0.00e+00	0	28	0	1096810496	50	6230
2026-01-17 02:34:57.89	326.08	9.12	-38.6	-39.7	21.6	0.00e+00	0	27	0	1098907648	50	6203
2026-01-17 02:34:58.90	326.20	9.06	-38.6	-39.7	21.5	0.00e+00	0	27	0	1101004800	50	6238
2026-01-17 02:34:59.91	326.33	9.00	-38.7	-39.9	21.3	0.00e+00	0	27	0	1103101952	50	6339
2026-01-17 02:35:00.92	326.45	8.94	-38.9	-40.0	21.3	0.00e+00	0	27	0	1104150528	50	6436
2026-01-17 02:35:01.93	326.57	8.88	-39.0	-40.1	21.1	0.00e+00	0	28	0	1106247680	50	6528
2026-01-17 02:35:02.94	326.69	8.82	-39.3	-40.5	20.9	0.00e+00	0	27	0	1108344832	50	6795
2026-01-17 02:35:03.95	326.81	8.76	-38.8	-39.9	21.3	0.00e+00	0	27	0	1110441984	50	6386
2026-01-17 02:35:04.96	326.93	8.70	-38.7	-39.9	21.3	0.00e+00	0	28	0	1112539136	50	6344
2026-01-17 02:35:05.97	327.05	8.64	-38.8	-39.9	21.3	0.00e+00	0	27	0	1113587712	50	6377
2026-01-17 02:35:06.98	327.17	8.58	-38.8	-39.9	21.3	0.00e+00	0	27	0	1115684864	50	6386
2026-01-17 02:35:07.99	327.29	8.52	-38.8	-40.0	21.2	0.00e+00	0	27	0	1117782016	50	6406
2026-01-17 02:35:09.00	327.41	8.46	-38.7	-39.8	21.4	0.00e+00	0	27	0	1119879168	50	6282
2026-01-17 02:35:10.01	327.52	8.40	-38.8	-40.0	21.2	0.00e+00	0	27	0	1121976320	50	6409
2026-01-17 02:35:11.02	327.64	8.34	-39.0	-40.2	21.0	0.00e+00	0	27	0	1123024896	50	6565
2026-01-17 02:35:12.03	327.76	8.28	-38.9	-40.1	21.1	0.00e+00	0	27	0	1125122048	50	6477
2026-01-17 02:35:13.04	327.87	8.22	-39.1	-40.3	21.0	0.00e+00	0	27	0	1127219200	50	6621
2026-01-17 02:35:14.05	327.99	8.16	-39.3	-40.6	20.7	0.00e+00	0	27	0	1129316352	50	6851
2026-01-17 02:35:15.06	328.10	8.10	-39.4	-40.7	20.6	0.00e+00	0	27	0	1131413504	50	6963
2026-01-17 02:35:16.07	328.22	8.04	-39.6	-40.9	20.3	0.00e+00	0	27	0	1132462080	50	7151
2026-01-17 02:35:17.08	328.33	7.98	-39.4	-40.7	20.4	0.00e+00	0	27	0	1134559232	50	6970
2026-01-17 02:35:18.09	328.45	7.93	-39.6	-40.9	20.4	0.00e+00	0	27	0	1136656384	50	7123
2026-01-17 02:35:19.10	328.56	7.87	-39.5	-40.8	20.5	0.00e+00	0	27	0	1138753536	50	7039
2026-01-17 02:35:20.11	328.67	7.81	-39.5	-40.7	20.5	0.00e+00	0	27	0	1140850688	50	7005
2026-01-17 02:35:21.12	328.79	7.75	-39.5	-40.8	20.4	0.00e+00	0	27	0	1141899264	50	7032
2026-01-17 02:35:22.12	328.90	7.69	-39.4	-40.7	20.5	0.00e+00	0	27	0	1143996416	50	6955
2026-01-17 02:35:23.13	329.01	7.63	-39.1	-40.4	20.8	0.00e+00	0	27	0	1146093568	50	6702
2026-01-17 02:35:24.14	329.12	7.57	-39.3	-40.5	20.6	0.00e+00	0	27	0	1148190720	50	6823
2026-01-17 02:35:25.15	329.23	7.51	-39.0	-40.3	20.8	0.00e+00	0	27	0	1150287872	50	6621
2026-01-17 02:35:26.16	329.34	7.45	-39.1	-40.4	20.6	0.00e+00	0	27	0	1152385024	50	6716
