passes_logs/2026/01/17/R4.6S_Anadyr/R4.6S_Anadyr__20260117_140655_SUOMI_NPP_rec.log

#Pass ID: 20260117_140655_SUOMI NPP
#Satellite: SUOMI NPP
#Configuration: NPP
#almurnet v.1.7.20251203
#Start time: 2026-01-17 14:06:59

#Version: 2.2.20231116
#Station: R4.6S_Anadyr
#Location: 177.4865 lon 64.73178 lat
#TLE: 1 37849U 11061A   26016.58419598  .00000058  00000+0  48257-4 0  9996
#TLE: 2 37849  98.7812 318.6192 0002422  60.8544 299.2874 14.19525580736934

#Time	Az	El	Level	Level2	SNR	BER	BlckErr	Temp	State	Recorded	gain1	gain2
2026-01-17 14:06:59.12	19.49	0.19	-48.5	-62.2	3.3	1.54e+00	0	26	0	0	60	46696
2026-01-17 14:07:00.13	19.51	0.25	-48.6	-63.8	3.6	1.51e+00	0	26	104	0	60	55678
2026-01-17 14:07:01.14	19.54	0.31	-48.5	-63.8	3.6	1.51e+00	0	26	104	0	60	55666
2026-01-17 14:07:02.15	19.56	0.37	-48.5	-63.7	3.6	1.51e+00	0	26	104	0	60	55321
2026-01-17 14:07:03.16	19.59	0.43	-48.5	-63.7	3.6	1.51e+00	0	26	104	0	60	55593
2026-01-17 14:07:04.17	19.62	0.49	-48.6	-63.8	3.6	1.51e+00	0	26	104	0	60	55724
2026-01-17 14:07:05.18	19.64	0.55	-48.6	-63.8	3.6	1.51e+00	0	26	104	0	60	55746
2026-01-17 14:07:06.19	19.67	0.61	-48.5	-63.7	3.6	1.51e+00	0	26	104	0	60	55306
2026-01-17 14:07:07.20	19.69	0.67	-48.5	-63.7	3.6	1.51e+00	0	26	104	0	60	55186
2026-01-17 14:07:08.21	19.72	0.73	-48.5	-63.6	3.6	1.51e+00	0	26	104	0	60	54749
2026-01-17 14:07:09.22	19.74	0.79	-48.4	-63.6	3.6	1.51e+00	0	26	104	0	60	54465
2026-01-17 14:07:10.24	19.77	0.85	-48.3	-63.4	3.6	1.51e+00	0	26	104	0	60	53714
2026-01-17 14:07:11.25	19.80	0.91	-48.1	-63.2	3.6	1.51e+00	0	26	104	0	60	52521
2026-01-17 14:07:12.26	19.82	0.97	-47.9	-63.1	3.6	1.51e+00	0	26	104	0	60	51604
2026-01-17 14:07:13.27	19.85	1.03	-47.8	-62.9	3.6	1.51e+00	0	26	104	0	60	50369
2026-01-17 14:07:14.28	19.87	1.09	-47.6	-62.7	3.6	1.51e+00	0	26	104	0	60	49323
2026-01-17 14:07:15.29	19.90	1.15	-47.2	-62.4	3.6	1.51e+00	0	27	104	0	60	47501
2026-01-17 14:07:16.30	19.93	1.22	-47.0	-62.1	3.6	1.51e+00	0	27	104	0	60	45915
2026-01-17 14:07:17.31	19.95	1.28	-47.0	-62.1	3.6	1.51e+00	0	27	104	0	60	45875
2026-01-17 14:07:18.32	19.98	1.34	-46.9	-62.0	3.6	1.51e+00	0	27	104	0	60	45731
2026-01-17 14:07:19.33	20.01	1.40	-46.9	-62.1	3.6	1.51e+00	0	27	104	0	60	45886
2026-01-17 14:07:20.34	20.03	1.46	-46.9	-62.0	3.6	1.51e+00	0	27	104	0	60	45518
2026-01-17 14:07:21.35	20.06	1.52	-46.9	-62.0	3.6	1.51e+00	0	27	104	0	60	45717
2026-01-17 14:07:22.36	20.09	1.59	-46.9	-62.1	3.6	1.51e+00	0	27	104	0	60	46118
2026-01-17 14:07:23.37	20.11	1.65	-46.9	-62.1	3.6	1.51e+00	0	27	104	0	60	46043
2026-01-17 14:07:24.38	20.14	1.71	-46.9	-62.1	3.6	1.51e+00	0	27	104	0	60	45937
2026-01-17 14:07:25.39	20.17	1.77	-46.9	-62.0	3.6	1.51e+00	0	27	104	0	60	45671
2026-01-17 14:07:26.40	20.20	1.84	-46.9	-62.1	3.6	1.51e+00	0	27	104	0	60	45856
2026-01-17 14:07:27.41	20.22	1.90	-46.9	-62.1	3.6	1.51e+00	0	27	104	0	60	45776
2026-01-17 14:07:28.42	20.25	1.96	-46.9	-62.1	3.6	1.51e+00	0	27	104	0	60	46158
2026-01-17 14:07:29.43	20.28	2.03	-46.9	-62.1	3.6	1.51e+00	0	27	104	0	60	45921
2026-01-17 14:07:30.44	20.31	2.09	-46.9	-62.0	3.6	1.51e+00	0	27	104	0	60	45266
2026-01-17 14:07:31.46	20.34	2.15	-46.9	-61.7	3.6	1.51e+00	0	27	104	0	60	43873
2026-01-17 14:07:32.47	20.36	2.22	-46.9	-61.1	3.6	1.51e+00	0	27	104	0	60	41164
2026-01-17 14:07:33.48	20.39	2.28	-46.9	-60.6	3.6	1.51e+00	0	27	104	0	60	38951
2026-01-17 14:07:34.48	20.42	2.34	-46.8	-60.2	3.6	1.51e+00	0	27	104	0	60	37021
2026-01-17 14:07:35.49	20.45	2.41	-46.8	-60.0	3.7	1.51e+00	0	27	104	0	60	36160
2026-01-17 14:07:36.50	20.48	2.47	-46.9	-60.5	3.6	1.50e+00	0	27	104	0	60	38430
2026-01-17 14:07:37.51	20.50	2.53	-46.9	-61.0	3.6	1.51e+00	0	27	104	0	60	40537
2026-01-17 14:07:38.52	20.53	2.60	-46.9	-61.0	3.6	1.51e+00	0	27	104	0	60	40563
2026-01-17 14:07:39.53	20.56	2.66	-46.7	-58.3	3.8	1.50e+00	0	27	104	0	60	29809
2026-01-17 14:07:40.54	20.59	2.73	-46.4	-54.4	5.9	7.69e-01	0	27	0	0	60	19079
2026-01-17 14:07:41.55	20.62	2.79	-45.8	-51.9	8.7	6.59e-02	0	27	0	2097152	60	14219
2026-01-17 14:07:42.56	20.65	2.86	-44.8	-48.9	12.0	4.36e-03	0	27	0	4194304	60	10116
2026-01-17 14:07:43.57	20.68	2.92	-44.1	-47.6	13.5	4.11e-05	0	27	0	5242880	60	8649
2026-01-17 14:07:44.58	20.71	2.99	-43.2	-46.0	15.0	0.00e+00	0	27	0	7340032	60	7187
2026-01-17 14:07:45.58	20.74	3.05	-42.3	-44.7	16.4	0.00e+00	0	27	0	9437184	58	6929
2026-01-17 14:07:46.60	20.76	3.12	-41.6	-43.5	17.3	0.00e+00	64	27	0	11534336	56	6822
2026-01-17 14:07:47.61	20.79	3.18	-41.6	-43.6	17.5	0.00e+00	0	27	0	13631488	56	6873
2026-01-17 14:07:48.62	20.82	3.25	-41.3	-43.1	17.8	0.00e+00	39	27	0	14680064	56	6533
2026-01-17 14:07:49.63	20.85	3.32	-41.4	-43.2	17.6	0.00e+00	0	27	0	16777216	56	6599
2026-01-17 14:07:50.64	20.88	3.38	-41.4	-43.3	17.5	0.00e+00	0	27	0	18874368	56	6677
2026-01-17 14:07:51.65	20.91	3.45	-42.3	-44.5	16.5	0.00e+00	0	27	0	20971520	56	7636
2026-01-17 14:07:52.66	20.94	3.52	-43.0	-45.7	15.3	0.00e+00	33	27	0	23068672	58	7795
2026-01-17 14:07:53.67	20.97	3.58	-44.1	-47.6	13.3	1.50e-06	58	27	0	25165824	60	8687
2026-01-17 14:07:54.68	21.00	3.65	-41.1	-42.8	18.2	6.10e-06	0	27	0	26214400	56	6305
2026-01-17 14:07:55.69	21.03	3.72	-44.1	-47.8	11.5	0.00e+00	77	27	0	28311552	58	9946
2026-01-17 14:07:56.70	21.07	3.78	-44.6	-48.4	11.2	4.23e-01	0	27	0	30408704	60	9491
2026-01-17 14:07:57.71	21.10	3.85	-45.1	-49.2	11.4	1.92e-01	0	27	0	32505856	60	10391
2026-01-17 14:07:58.72	21.13	3.92	-46.7	-57.1	3.6	2.81e-04	0	27	0	34603008	60	25972
2026-01-17 14:07:59.73	21.16	3.98	-46.4	-54.8	4.8	1.51e+00	0	27	104	34603008	60	19831
2026-01-17 14:08:00.74	21.19	4.05	-44.8	-48.9	12.0	9.21e-04	82	27	0	34603008	60	10065
2026-01-17 14:08:01.74	21.22	4.12	-44.6	-48.4	13.1	2.57e-04	0	27	0	36700160	60	9524
2026-01-17 14:08:02.75	21.25	4.19	-44.5	-48.1	13.2	4.27e-05	77	27	0	37748736	60	9154
2026-01-17 14:08:03.76	21.28	4.26	-44.5	-48.1	12.7	6.94e-05	0	27	0	39845888	60	9163
2026-01-17 14:08:04.77	21.31	4.32	-44.4	-47.9	13.2	1.22e-05	0	27	0	41943040	60	9017
2026-01-17 14:08:05.78	21.35	4.39	-44.5	-48.2	12.7	1.07e-04	0	27	0	44040192	60	9254
2026-01-17 14:08:06.79	21.38	4.46	-44.2	-47.6	13.6	6.80e-06	0	27	0	46137344	60	8667
2026-01-17 14:08:07.80	21.41	4.53	-43.6	-46.4	14.8	7.00e-07	0	27	0	47185920	60	7567
2026-01-17 14:08:08.81	21.44	4.60	-43.6	-46.4	14.9	0.00e+00	0	27	0	49283072	60	7561
2026-01-17 14:08:09.82	21.47	4.67	-43.8	-46.9	14.4	0.00e+00	83	27	0	51380224	60	7967
2026-01-17 14:08:10.82	21.51	4.74	-42.6	-44.8	16.5	0.00e+00	0	27	0	53477376	58	7045
2026-01-17 14:08:11.83	21.54	4.81	-41.7	-43.6	17.5	0.00e+00	0	27	0	54525952	56	6900
2026-01-17 14:08:12.84	21.57	4.88	-40.9	-42.6	18.7	0.00e+00	0	27	0	56623104	56	6120
2026-01-17 14:08:13.85	21.60	4.95	-41.7	-43.5	18.0	0.00e+00	0	27	0	58720256	56	6807
2026-01-17 14:08:14.86	21.64	5.02	-41.3	-43.0	18.2	0.00e+00	7	27	0	60817408	56	6440
2026-01-17 14:08:15.87	21.67	5.09	-41.4	-43.2	18.1	0.00e+00	0	27	0	62914560	56	6548
2026-01-17 14:08:16.88	21.70	5.16	-40.6	-42.1	19.1	0.00e+00	80	27	0	65011712	54	6539
2026-01-17 14:08:17.89	21.74	5.23	-40.5	-42.1	19.1	0.00e+00	0	27	0	66060288	54	6496
2026-01-17 14:08:18.90	21.77	5.30	-40.5	-42.0	19.2	0.00e+00	13	27	0	68157440	54	6427
2026-01-17 14:08:19.91	21.80	5.37	-40.8	-42.4	18.9	0.00e+00	0	27	0	70254592	54	6740
2026-01-17 14:08:20.92	21.84	5.44	-40.4	-42.0	19.3	0.00e+00	0	27	0	72351744	54	6391
2026-01-17 14:08:21.93	21.87	5.51	-40.5	-42.1	19.2	0.00e+00	9	27	0	74448896	54	6482
2026-01-17 14:08:22.93	21.90	5.58	-40.4	-41.8	19.3	0.00e+00	0	27	0	75497472	54	6314
2026-01-17 14:08:23.94	21.94	5.66	-40.5	-42.0	19.5	0.00e+00	69	27	0	77594624	54	6425
2026-01-17 14:08:24.95	21.97	5.73	-40.3	-41.7	19.5	0.00e+00	0	27	0	79691776	54	6244
2026-01-17 14:08:25.96	22.01	5.80	-40.2	-41.6	19.5	0.00e+00	66	27	0	81788928	54	6159
2026-01-17 14:08:26.97	22.04	5.87	-40.3	-41.7	19.5	0.00e+00	0	27	0	83886080	54	6245
2026-01-17 14:08:27.98	22.07	5.94	-40.2	-41.7	19.6	0.00e+00	0	27	0	84934656	54	6191
2026-01-17 14:08:28.99	22.11	6.02	-40.2	-41.7	19.6	0.00e+00	0	27	0	87031808	54	6201
2026-01-17 14:08:30.00	22.14	6.09	-40.1	-41.5	19.7	0.00e+00	0	27	0	89128960	54	6051
2026-01-17 14:08:31.01	22.18	6.16	-40.2	-41.6	19.6	0.00e+00	83	27	0	91226112	54	6130
2026-01-17 14:08:32.02	22.22	6.24	-40.1	-41.5	19.7	0.00e+00	0	27	0	93323264	54	6093
2026-01-17 14:08:33.03	22.25	6.31	-40.2	-41.7	19.6	0.00e+00	84	27	0	94371840	54	6180
2026-01-17 14:08:34.04	22.29	6.38	-39.8	-41.2	20.1	0.00e+00	0	27	0	96468992	54	5830
2026-01-17 14:08:35.04	22.32	6.46	-39.9	-41.3	19.9	0.00e+00	0	27	0	98566144	54	5943
2026-01-17 14:08:36.05	22.36	6.53	-40.1	-41.5	19.7	0.00e+00	0	27	0	100663296	54	6056
2026-01-17 14:08:37.07	22.39	6.61	-39.9	-41.2	20.1	0.00e+00	0	27	0	102760448	54	5880
2026-01-17 14:08:38.08	22.43	6.68	-40.2	-41.6	19.7	0.00e+00	86	27	0	103809024	52	6856
2026-01-17 14:08:39.08	22.47	6.75	-40.2	-41.6	19.7	0.00e+00	0	27	0	105906176	52	6858
2026-01-17 14:08:40.09	22.50	6.83	-40.2	-41.6	19.7	0.00e+00	45	27	0	108003328	52	6925
2026-01-17 14:08:41.10	22.54	6.90	-40.1	-41.5	19.9	0.00e+00	0	27	0	110100480	52	6780
2026-01-17 14:08:42.11	22.58	6.98	-40.1	-41.5	19.8	0.00e+00	0	27	0	112197632	52	6809
2026-01-17 14:08:43.12	22.61	7.06	-39.9	-41.3	20.1	0.00e+00	0	27	0	113246208	52	6643
2026-01-17 14:08:44.13	22.65	7.13	-40.2	-41.6	19.9	0.00e+00	0	27	0	115343360	52	6869
2026-01-17 14:08:45.14	22.69	7.21	-40.0	-41.3	20.0	0.00e+00	60	27	0	117440512	52	6666
2026-01-17 14:08:46.15	22.73	7.28	-40.1	-41.4	19.9	0.00e+00	0	27	0	119537664	52	6754
2026-01-17 14:08:47.16	22.76	7.36	-39.9	-41.3	20.1	0.00e+00	51	27	0	121634816	52	6635
2026-01-17 14:08:48.17	22.80	7.44	-39.9	-41.3	20.1	0.00e+00	0	27	0	122683392	52	6628
2026-01-17 14:08:49.18	22.84	7.51	-39.8	-41.1	20.2	0.00e+00	33	27	0	124780544	52	6534
2026-01-17 14:08:50.19	22.88	7.59	-40.3	-41.8	19.7	0.00e+00	0	27	0	126877696	52	7015
2026-01-17 14:08:51.20	22.92	7.67	-40.1	-41.5	20.0	0.00e+00	0	27	0	128974848	52	6797
2026-01-17 14:08:52.21	22.95	7.75	-40.0	-41.4	20.0	0.00e+00	0	27	0	131072000	52	6693
2026-01-17 14:08:53.22	22.99	7.82	-40.1	-41.5	19.9	0.00e+00	0	27	0	133169152	52	6805
2026-01-17 14:08:54.23	23.03	7.90	-40.3	-41.6	19.9	0.00e+00	85	27	0	134217728	52	6912
2026-01-17 14:08:55.24	23.07	7.98	-40.0	-41.4	19.9	0.00e+00	0	27	0	136314880	52	6708
2026-01-17 14:08:56.25	23.11	8.06	-40.3	-41.7	20.1	0.00e+00	92	27	0	138412032	52	6977
2026-01-17 14:08:57.26	23.15	8.14	-40.0	-41.3	20.1	0.00e+00	0	27	0	140509184	52	6647
2026-01-17 14:08:58.27	23.19	8.22	-40.0	-41.4	20.0	0.00e+00	0	27	0	142606336	52	6707
2026-01-17 14:08:59.28	23.23	8.30	-40.0	-41.4	19.9	0.00e+00	0	27	0	143654912	52	6695
2026-01-17 14:09:00.29	23.27	8.38	-39.9	-41.2	20.2	0.00e+00	0	27	0	145752064	52	6601
2026-01-17 14:09:01.30	23.31	8.46	-40.1	-41.4	20.0	0.00e+00	82	27	0	147849216	52	6750
2026-01-17 14:09:02.31	23.35	8.54	-39.4	-40.7	20.6	0.00e+00	0	27	0	149946368	52	6194
2026-01-17 14:09:03.32	23.39	8.62	-39.5	-40.7	20.6	0.00e+00	89	27	0	152043520	52	6205
2026-01-17 14:09:04.33	23.43	8.70	-39.5	-40.7	20.5	0.00e+00	0	27	0	153092096	52	6222
2026-01-17 14:09:05.34	23.47	8.78	-39.4	-40.6	20.6	0.00e+00	0	27	0	155189248	52	6156
2026-01-17 14:09:06.35	23.51	8.86	-39.5	-40.7	20.7	0.00e+00	0	27	0	157286400	52	6245
2026-01-17 14:09:07.36	23.56	8.94	-39.8	-41.1	20.2	0.00e+00	0	27	0	159383552	52	6500
2026-01-17 14:09:08.37	23.60	9.02	-39.9	-41.2	20.4	0.00e+00	11	27	0	161480704	52	6608
2026-01-17 14:09:09.38	23.64	9.10	-39.3	-40.5	20.5	0.00e+00	0	27	0	162529280	52	6103
2026-01-17 14:09:10.39	23.68	9.18	-39.4	-40.6	20.9	0.00e+00	87	27	0	164626432	52	6127
2026-01-17 14:09:11.40	23.72	9.27	-39.2	-40.3	20.8	0.00e+00	0	27	0	166723584	52	5950
2026-01-17 14:09:12.40	23.77	9.35	-39.2	-40.4	20.9	0.00e+00	0	27	0	168820736	52	5979
2026-01-17 14:09:13.41	23.81	9.43	-39.0	-40.1	21.1	0.00e+00	0	27	0	170917888	52	5803
2026-01-17 14:09:14.42	23.85	9.51	-39.3	-40.5	20.9	0.00e+00	0	27	0	171966464	52	6087
2026-01-17 14:09:15.43	23.90	9.60	-39.1	-40.3	21.1	0.00e+00	0	27	0	174063616	52	5903
2026-01-17 14:09:16.44	23.94	9.68	-38.8	-39.9	21.4	0.00e+00	0	27	0	176160768	52	5671
2026-01-17 14:09:17.45	23.98	9.76	-39.0	-40.2	21.2	0.00e+00	87	27	0	178257920	50	6569
2026-01-17 14:09:18.46	24.03	9.85	-38.9	-40.1	21.3	0.00e+00	0	27	0	180355072	50	6475
2026-01-17 14:09:19.47	24.07	9.93	-38.9	-40.0	21.3	0.00e+00	0	27	0	181403648	50	6456
2026-01-17 14:09:20.48	24.11	10.02	-38.9	-40.0	21.3	0.00e+00	0	27	0	183500800	50	6425
2026-01-17 14:09:21.49	24.16	10.10	-39.0	-40.1	21.2	0.00e+00	0	27	0	185597952	50	6532
2026-01-17 14:09:22.50	24.20	10.19	-38.8	-39.9	21.5	0.00e+00	82	27	0	187695104	50	6352
2026-01-17 14:09:23.51	24.25	10.27	-38.8	-40.0	21.3	0.00e+00	0	27	0	189792256	50	6406
2026-01-17 14:09:24.52	24.29	10.36	-38.8	-39.9	21.4	0.00e+00	77	27	0	190840832	50	6381
2026-01-17 14:09:25.53	24.34	10.44	-38.5	-39.6	21.7	0.00e+00	0	27	0	192937984	50	6146
2026-01-17 14:09:26.54	24.39	10.53	-38.7	-39.8	21.7	0.00e+00	0	27	0	195035136	50	6253
2026-01-17 14:09:27.55	24.43	10.62	-38.4	-39.5	21.8	0.00e+00	0	27	0	197132288	50	6072
2026-01-17 14:09:28.56	24.48	10.70	-38.4	-39.4	21.9	0.00e+00	0	27	0	199229440	50	6019
2026-01-17 14:09:29.57	24.52	10.79	-38.6	-39.7	21.7	0.00e+00	17	27	0	201326592	50	6190
2026-01-17 14:09:30.57	24.57	10.88	-38.4	-39.4	21.9	0.00e+00	0	27	0	202375168	50	6025
2026-01-17 14:09:31.58	24.62	10.97	-38.3	-39.4	21.9	0.00e+00	77	27	0	204472320	50	5979
2026-01-17 14:09:32.59	24.66	11.05	-38.6	-39.7	21.8	0.00e+00	0	27	0	206569472	50	6176
2026-01-17 14:09:33.60	24.71	11.14	-38.1	-39.1	22.2	0.00e+00	41	27	0	208666624	50	5805
2026-01-17 14:09:34.61	24.76	11.23	-38.4	-39.5	21.9	0.00e+00	0	27	0	210763776	50	6044
2026-01-17 14:09:35.62	24.81	11.32	-38.3	-39.3	22.1	0.00e+00	0	27	0	211812352	50	5963
2026-01-17 14:09:36.63	24.86	11.41	-38.3	-39.3	22.0	0.00e+00	0	27	0	213909504	50	5933
2026-01-17 14:09:37.64	24.90	11.50	-38.2	-39.2	22.1	0.00e+00	0	27	0	216006656	50	5871
2026-01-17 14:09:38.65	24.95	11.59	-38.0	-39.0	22.3	0.00e+00	82	27	0	218103808	50	5707
2026-01-17 14:09:39.66	25.00	11.68	-38.0	-39.1	22.2	0.00e+00	0	27	0	220200960	50	5764
2026-01-17 14:09:40.67	25.05	11.77	-38.0	-39.0	22.2	0.00e+00	84	27	0	221249536	50	5761
2026-01-17 14:09:41.68	25.10	11.86	-38.0	-39.0	22.3	0.00e+00	0	27	0	223346688	50	5717
2026-01-17 14:09:42.69	25.15	11.95	-38.3	-39.3	22.2	0.00e+00	0	27	0	225443840	50	5917
2026-01-17 14:09:43.70	25.20	12.04	-38.0	-39.0	22.4	0.00e+00	0	27	0	227540992	50	5723
2026-01-17 14:09:44.71	25.25	12.14	-37.8	-38.8	22.5	0.00e+00	0	27	0	229638144	48	6297
2026-01-17 14:09:45.72	25.30	12.23	-37.9	-38.9	22.4	0.00e+00	0	27	0	230686720	48	6328
2026-01-17 14:09:46.73	25.35	12.32	-37.7	-38.7	22.5	0.00e+00	0	27	0	232783872	48	6199
2026-01-17 14:09:47.74	25.40	12.41	-37.8	-38.8	22.5	0.00e+00	82	27	0	234881024	48	6250
2026-01-17 14:09:48.75	25.46	12.51	-37.9	-38.9	22.5	0.00e+00	0	27	0	236978176	48	6366
2026-01-17 14:09:49.76	25.51	12.60	-37.8	-38.8	22.5	0.00e+00	0	27	0	239075328	48	6256
2026-01-17 14:09:50.76	25.56	12.69	-37.8	-38.8	22.5	0.00e+00	0	27	0	240123904	48	6286
2026-01-17 14:09:51.77	25.61	12.79	-37.9	-38.9	22.5	0.00e+00	0	27	0	242221056	48	6346
2026-01-17 14:09:52.78	25.67	12.88	-37.8	-38.7	22.4	0.00e+00	0	27	0	244318208	48	6241
2026-01-17 14:09:53.79	25.72	12.98	-38.1	-39.1	22.4	0.00e+00	0	27	0	246415360	48	6491
2026-01-17 14:09:54.80	25.77	13.07	-38.0	-39.0	22.4	0.00e+00	87	27	0	248512512	48	6406
2026-01-17 14:09:55.81	25.83	13.17	-37.8	-38.8	22.5	0.00e+00	0	27	0	249561088	48	6288
2026-01-17 14:09:56.82	25.88	13.27	-38.0	-39.0	22.3	0.00e+00	0	27	0	251658240	48	6451
2026-01-17 14:09:57.83	25.93	13.36	-38.0	-39.0	22.4	0.00e+00	0	27	0	253755392	48	6407
2026-01-17 14:09:58.84	25.99	13.46	-37.9	-38.9	22.4	0.00e+00	0	27	0	255852544	48	6335
2026-01-17 14:09:59.85	26.04	13.56	-37.9	-38.8	22.4	0.00e+00	65	27	0	257949696	48	6316
2026-01-17 14:10:00.86	26.10	13.65	-37.8	-38.8	22.5	0.00e+00	0	27	0	258998272	48	6306
2026-01-17 14:10:01.87	26.16	13.75	-38.0	-39.0	22.3	0.00e+00	80	27	0	261095424	48	6440
2026-01-17 14:10:02.88	26.21	13.85	-38.0	-39.0	22.4	0.00e+00	0	27	0	263192576	48	6409
2026-01-17 14:10:03.89	26.27	13.95	-38.0	-39.0	22.5	0.00e+00	0	27	0	265289728	48	6416
2026-01-17 14:10:04.89	26.32	14.05	-38.0	-39.0	22.4	0.00e+00	0	27	0	267386880	48	6402
2026-01-17 14:10:05.90	26.38	14.14	-37.9	-38.8	22.6	0.00e+00	0	27	0	269484032	48	6306
2026-01-17 14:10:06.91	26.44	14.24	-37.5	-38.5	22.8	0.00e+00	57	27	0	270532608	48	6046
2026-01-17 14:10:07.92	26.50	14.34	-37.6	-38.6	22.7	0.00e+00	0	27	0	272629760	48	6135
2026-01-17 14:10:08.93	26.56	14.45	-37.6	-38.6	22.7	0.00e+00	85	27	0	274726912	48	6127
2026-01-17 14:10:09.94	26.61	14.55	-37.7	-38.7	22.7	0.00e+00	0	27	0	276824064	48	6191
2026-01-17 14:10:10.95	26.67	14.65	-37.9	-38.9	22.5	0.00e+00	8	27	0	278921216	48	6324
2026-01-17 14:10:11.96	26.73	14.75	-37.6	-38.6	22.8	0.00e+00	0	27	0	279969792	48	6138
2026-01-17 14:10:12.97	26.79	14.85	-37.9	-38.9	22.6	0.00e+00	6	27	0	282066944	48	6331
2026-01-17 14:10:13.98	26.85	14.95	-37.8	-38.8	22.6	0.00e+00	0	27	0	284164096	48	6300
2026-01-17 14:10:14.99	26.91	15.06	-37.9	-38.9	22.6	0.00e+00	0	27	0	286261248	48	6331
2026-01-17 14:10:15.99	26.97	15.16	-37.8	-38.8	22.6	0.00e+00	1	27	0	288358400	48	6269
2026-01-17 14:10:17.00	27.03	15.26	-37.8	-38.8	22.7	0.00e+00	0	27	0	289406976	48	6274
2026-01-17 14:10:18.01	27.10	15.37	-37.9	-38.9	22.5	0.00e+00	87	27	0	291504128	48	6340
2026-01-17 14:10:19.02	27.16	15.47	-37.8	-38.8	22.6	0.00e+00	0	27	0	293601280	48	6313
2026-01-17 14:10:20.03	27.22	15.58	-37.7	-38.7	22.6	0.00e+00	0	27	0	295698432	48	6238
2026-01-17 14:10:21.04	27.28	15.68	-37.7	-38.7	22.7	0.00e+00	0	27	0	297795584	48	6211
2026-01-17 14:10:22.05	27.35	15.79	-37.9	-38.9	22.6	0.00e+00	0	27	0	298844160	48	6387
2026-01-17 14:10:23.06	27.41	15.89	-37.8	-38.8	22.6	0.00e+00	0	27	0	300941312	48	6249
2026-01-17 14:10:24.07	27.47	16.00	-37.8	-38.8	22.6	0.00e+00	0	27	0	303038464	48	6272
2026-01-17 14:10:25.08	27.54	16.11	-37.8	-38.8	22.7	0.00e+00	89	27	0	305135616	48	6253
2026-01-17 14:10:26.09	27.60	16.22	-37.9	-39.0	22.5	0.00e+00	0	27	0	307232768	48	6395
2026-01-17 14:10:27.10	27.67	16.32	-37.6	-38.6	22.6	0.00e+00	0	27	0	308281344	48	6143
2026-01-17 14:10:28.11	27.73	16.43	-37.7	-38.7	22.6	0.00e+00	0	27	0	310378496	48	6183
2026-01-17 14:10:29.12	27.80	16.54	-37.6	-38.5	22.8	0.00e+00	0	27	0	312475648	48	6096
2026-01-17 14:10:30.12	27.87	16.65	-37.5	-38.4	23.0	0.00e+00	0	27	0	314572800	48	6013
2026-01-17 14:10:31.13	27.93	16.76	-37.3	-38.3	23.0	0.00e+00	0	27	0	316669952	48	5907
2026-01-17 14:10:32.14	28.00	16.87	-37.2	-38.2	23.2	0.00e+00	87	27	0	317718528	48	5835
2026-01-17 14:10:33.15	28.07	16.98	-37.3	-38.2	23.1	0.00e+00	0	27	0	319815680	48	5875
2026-01-17 14:10:34.16	28.14	17.09	-37.3	-38.3	23.1	0.00e+00	0	27	0	321912832	48	5907
2026-01-17 14:10:35.17	28.21	17.20	-37.5	-38.4	23.0	0.00e+00	0	27	0	324009984	48	5991
2026-01-17 14:10:36.18	28.28	17.32	-36.9	-37.8	23.4	0.00e+00	0	27	0	326107136	48	5600
2026-01-17 14:10:37.19	28.35	17.43	-36.8	-37.6	23.6	0.00e+00	89	27	0	327155712	46	6171
2026-01-17 14:10:38.20	28.42	17.54	-36.7	-37.5	23.6	0.00e+00	0	27	0	329252864	46	6080
2026-01-17 14:10:39.21	28.49	17.66	-36.4	-37.3	23.9	0.00e+00	89	27	0	331350016	46	5903
2026-01-17 14:10:40.22	28.56	17.77	-36.4	-37.3	23.8	0.00e+00	0	27	0	333447168	46	5919
2026-01-17 14:10:41.23	28.63	17.89	-36.4	-37.3	23.8	0.00e+00	92	27	0	335544320	46	5903
2026-01-17 14:10:42.24	28.70	18.00	-36.7	-37.6	23.7	0.00e+00	33	27	0	337641472	46	6108
2026-01-17 14:10:43.25	28.78	18.12	-36.4	-37.2	23.9	0.00e+00	0	27	0	338690048	46	5880
2026-01-17 14:10:44.26	28.85	18.23	-36.5	-37.3	23.8	0.00e+00	0	27	0	340787200	46	5964
2026-01-17 14:10:45.27	28.92	18.35	-36.8	-37.7	23.6	0.00e+00	0	27	0	342884352	46	6223
2026-01-17 14:10:46.29	29.00	18.47	-36.6	-37.5	23.6	0.00e+00	86	27	0	344981504	46	6035
2026-01-17 14:10:47.30	29.08	18.59	-36.6	-37.5	23.8	0.00e+00	0	27	0	347078656	46	6047
2026-01-17 14:10:48.31	29.15	18.70	-36.8	-37.7	23.6	0.00e+00	91	27	0	348127232	46	6185
2026-01-17 14:10:49.31	29.23	18.82	-36.8	-37.7	23.5	0.00e+00	0	27	0	350224384	46	6243
2026-01-17 14:10:50.32	29.30	18.94	-36.8	-37.7	23.6	0.00e+00	0	27	0	352321536	46	6186
2026-01-17 14:10:51.33	29.38	19.06	-36.8	-37.7	23.6	0.00e+00	0	27	0	354418688	46	6187
2026-01-17 14:10:52.34	29.46	19.18	-36.8	-37.7	23.6	0.00e+00	0	27	0	356515840	46	6175
2026-01-17 14:10:53.35	29.54	19.30	-36.8	-37.7	23.5	0.00e+00	88	27	0	357564416	46	6239
2026-01-17 14:10:54.36	29.62	19.42	-36.8	-37.7	23.6	0.00e+00	0	27	0	359661568	46	6186
2026-01-17 14:10:55.37	29.70	19.55	-36.9	-37.8	23.5	0.00e+00	91	27	0	361758720	46	6313
2026-01-17 14:10:56.38	29.78	19.67	-36.9	-37.8	23.5	0.00e+00	0	27	0	363855872	46	6282
2026-01-17 14:10:57.38	29.86	19.79	-36.9	-37.8	23.5	0.00e+00	0	27	0	365953024	46	6311
2026-01-17 14:10:58.40	29.94	19.92	-36.9	-37.8	23.5	0.00e+00	0	27	0	367001600	46	6291
2026-01-17 14:10:59.40	30.02	20.04	-36.8	-37.7	23.6	0.00e+00	0	27	0	369098752	46	6218
2026-01-17 14:11:00.41	30.10	20.16	-36.9	-37.8	23.6	0.00e+00	0	27	0	371195904	46	6279
2026-01-17 14:11:01.42	30.19	20.29	-36.8	-37.7	23.7	0.00e+00	0	27	0	373293056	46	6193
2026-01-17 14:11:02.43	30.27	20.41	-36.8	-37.7	23.6	0.00e+00	89	27	0	375390208	46	6175
2026-01-17 14:11:03.44	30.36	20.54	-36.5	-37.4	23.8	0.00e+00	0	27	0	376438784	46	5976
2026-01-17 14:11:04.45	30.44	20.67	-36.5	-37.3	23.9	0.00e+00	0	27	0	378535936	46	5951
2026-01-17 14:11:05.46	30.53	20.80	-36.4	-37.2	23.9	0.00e+00	0	27	0	380633088	46	5873
2026-01-17 14:11:06.47	30.61	20.92	-36.3	-37.1	24.1	0.00e+00	0	27	0	382730240	46	5796
2026-01-17 14:11:07.48	30.70	21.05	-36.3	-37.1	24.0	0.00e+00	0	27	0	384827392	46	5825
2026-01-17 14:11:08.49	30.79	21.18	-36.3	-37.1	24.1	0.00e+00	0	27	0	385875968	46	5803
2026-01-17 14:11:09.50	30.88	21.31	-36.3	-37.2	23.9	0.00e+00	83	27	0	387973120	46	5869
2026-01-17 14:11:10.51	30.97	21.44	-36.4	-37.2	23.9	0.00e+00	0	27	0	390070272	46	5883
2026-01-17 14:11:11.52	31.06	21.58	-36.4	-37.3	23.8	0.00e+00	0	27	0	392167424	46	5900
2026-01-17 14:11:12.52	31.15	21.71	-36.4	-37.3	23.9	0.00e+00	0	27	0	394264576	46	5932
2026-01-17 14:11:13.53	31.24	21.84	-36.5	-37.3	23.9	0.00e+00	0	27	0	395313152	46	5958
2026-01-17 14:11:14.55	31.33	21.97	-36.4	-37.3	23.9	0.00e+00	57	27	0	397410304	46	5918
2026-01-17 14:11:15.56	31.43	22.11	-36.5	-37.3	23.9	0.00e+00	0	27	0	399507456	46	5959
2026-01-17 14:11:16.56	31.52	22.24	-36.2	-37.0	24.1	0.00e+00	79	27	0	401604608	46	5744
2026-01-17 14:11:17.57	31.62	22.38	-36.3	-37.2	24.0	0.00e+00	0	27	0	403701760	46	5843
2026-01-17 14:11:18.58	31.71	22.51	-36.2	-37.0	24.2	0.00e+00	29	27	0	404750336	46	5756
2026-01-17 14:11:19.59	31.81	22.65	-36.2	-37.1	24.1	0.00e+00	0	27	0	406847488	46	5776
2026-01-17 14:11:20.60	31.90	22.79	-36.0	-36.9	24.2	0.00e+00	0	27	0	408944640	46	5636
2026-01-17 14:11:21.61	32.00	22.92	-35.9	-36.7	24.5	0.00e+00	0	27	0	411041792	46	5536
2026-01-17 14:11:22.62	32.10	23.06	-35.7	-36.5	24.5	0.00e+00	0	27	0	413138944	44	6103
2026-01-17 14:11:23.63	32.20	23.20	-35.6	-36.4	24.5	0.00e+00	0	27	0	414187520	44	6031
2026-01-17 14:11:24.64	32.30	23.34	-35.8	-36.6	24.4	0.00e+00	0	27	0	416284672	44	6171
2026-01-17 14:11:25.65	32.40	23.48	-35.6	-36.4	24.6	0.00e+00	84	27	0	418381824	44	6012
2026-01-17 14:11:26.66	32.51	23.62	-35.8	-36.7	24.4	0.00e+00	0	27	0	420478976	44	6176
2026-01-17 14:11:27.66	32.61	23.76	-35.5	-36.3	24.6	0.00e+00	0	27	0	422576128	44	5954
2026-01-17 14:11:28.67	32.71	23.90	-35.6	-36.4	24.6	0.00e+00	0	27	0	423624704	44	6012
2026-01-17 14:11:29.68	32.82	24.05	-35.7	-36.5	24.4	0.00e+00	0	27	0	425721856	44	6088
2026-01-17 14:11:30.69	32.92	24.19	-35.6	-36.4	24.7	0.00e+00	0	27	0	427819008	44	5975
2026-01-17 14:11:31.70	33.03	24.34	-35.9	-36.7	24.2	0.00e+00	0	27	0	429916160	44	6242
2026-01-17 14:11:32.71	33.14	24.48	-35.9	-36.7	24.3	0.00e+00	92	27	0	432013312	44	6196
2026-01-17 14:11:33.72	33.25	24.63	-35.5	-36.3	24.6	0.00e+00	0	27	0	434110464	44	5930
2026-01-17 14:11:34.73	33.36	24.77	-35.5	-36.3	24.6	0.00e+00	0	27	0	435159040	44	5954
2026-01-17 14:11:35.74	33.47	24.92	-35.6	-36.4	24.6	0.00e+00	0	27	0	437256192	44	6020
2026-01-17 14:11:36.75	33.58	25.07	-35.8	-36.7	24.3	0.00e+00	0	27	0	439353344	44	6185
2026-01-17 14:11:37.76	33.69	25.22	-36.2	-37.0	24.0	0.00e+00	81	27	0	441450496	44	6444
2026-01-17 14:11:38.77	33.81	25.37	-35.8	-36.6	24.3	0.00e+00	0	27	0	443547648	44	6114
2026-01-17 14:11:39.78	33.92	25.52	-36.2	-37.0	24.2	0.00e+00	42	27	0	444596224	44	6422
2026-01-17 14:11:40.79	34.04	25.67	-35.9	-36.8	23.8	0.00e+00	0	27	0	446693376	44	6251
2026-01-17 14:11:41.80	34.15	25.82	-36.2	-37.0	23.8	0.00e+00	0	27	0	448790528	44	6461
2026-01-17 14:11:42.81	34.27	25.98	-36.3	-37.1	24.0	0.00e+00	0	27	0	450887680	44	6516
2026-01-17 14:11:43.82	34.39	26.13	-36.6	-37.5	23.9	0.00e+00	0	27	0	452984832	44	6771
2026-01-17 14:11:44.82	34.51	26.28	-36.5	-37.4	23.9	0.00e+00	0	27	0	454033408	44	6711
2026-01-17 14:11:45.83	34.63	26.44	-36.8	-37.7	23.7	0.00e+00	0	27	0	456130560	46	6176
2026-01-17 14:11:46.84	34.75	26.59	-37.0	-37.9	23.5	0.00e+00	59	27	0	458227712	46	6381
2026-01-17 14:11:47.85	34.88	26.75	-36.9	-37.8	23.6	0.00e+00	0	27	0	460324864	46	6259
2026-01-17 14:11:48.87	35.00	26.91	-37.2	-38.1	23.3	0.00e+00	3	27	0	462422016	46	6511
2026-01-17 14:11:49.87	35.13	27.06	-37.2	-38.1	23.3	0.00e+00	0	27	0	463470592	46	6492
2026-01-17 14:11:50.88	35.26	27.22	-37.0	-37.9	23.6	0.00e+00	0	27	0	465567744	46	6341
2026-01-17 14:11:51.89	35.38	27.38	-37.2	-38.2	23.5	0.00e+00	57	27	0	467664896	46	6542
2026-01-17 14:11:52.90	35.51	27.54	-37.1	-38.0	23.4	0.00e+00	0	27	0	469762048	46	6448
2026-01-17 14:11:53.90	35.64	27.70	-37.3	-38.2	23.1	0.00e+00	88	27	0	471859200	46	6588
2026-01-17 14:11:54.91	35.78	27.86	-36.8	-37.7	23.6	0.00e+00	0	27	0	472907776	46	6210
2026-01-17 14:11:55.92	35.91	28.03	-37.4	-38.3	23.2	0.00e+00	80	27	0	475004928	46	6689
2026-01-17 14:11:56.93	36.04	28.19	-37.3	-38.3	23.2	0.00e+00	0	27	0	477102080	46	6632
2026-01-17 14:11:57.94	36.18	28.35	-37.6	-38.5	23.0	0.00e+00	0	27	0	479199232	46	6834
2026-01-17 14:11:58.95	36.32	28.52	-37.7	-38.7	22.9	0.00e+00	0	27	0	481296384	48	6176
2026-01-17 14:11:59.96	36.46	28.69	-37.8	-38.8	22.8	0.00e+00	0	27	0	482344960	48	6284
2026-01-17 14:12:00.97	36.60	28.85	-38.0	-39.0	22.7	0.00e+00	21	27	0	484442112	48	6392
2026-01-17 14:12:01.98	36.74	29.02	-38.0	-38.9	22.8	0.00e+00	0	27	0	486539264	48	6389
2026-01-17 14:12:02.99	36.88	29.19	-38.3	-39.3	22.4	0.00e+00	90	27	0	488636416	48	6627
2026-01-17 14:12:04.00	37.03	29.36	-38.3	-39.3	22.4	0.00e+00	0	27	0	490733568	48	6618
2026-01-17 14:12:05.01	37.17	29.53	-38.5	-39.5	22.3	0.00e+00	0	27	0	491782144	48	6801
2026-01-17 14:12:06.02	37.32	29.70	-38.8	-39.8	22.1	0.00e+00	0	27	0	493879296	50	6295
2026-01-17 14:12:07.02	37.47	29.87	-39.3	-40.4	21.6	0.00e+00	0	27	0	495976448	50	6732
2026-01-17 14:12:08.03	37.62	30.04	-40.3	-41.6	20.5	0.00e+00	90	27	0	498073600	52	6871
2026-01-17 14:12:09.04	37.77	30.22	-40.1	-41.4	20.6	0.00e+00	0	27	0	500170752	52	6703
2026-01-17 14:12:10.06	37.93	30.39	-40.6	-42.0	20.2	0.00e+00	92	27	0	502267904	52	7243
2026-01-17 14:12:11.06	38.08	30.56	-40.7	-42.2	20.1	0.00e+00	0	28	0	503316480	54	6549
2026-01-17 14:12:12.07	38.24	30.74	-40.9	-42.4	19.7	0.00e+00	0	27	0	505413632	54	6693
2026-01-17 14:12:13.08	38.40	30.92	-40.9	-42.3	20.0	0.00e+00	0	27	0	507510784	54	6650
2026-01-17 14:12:14.09	38.56	31.10	-40.6	-42.0	20.2	0.00e+00	0	27	0	509607936	54	6415
2026-01-17 14:12:15.10	38.72	31.27	-40.3	-41.6	20.5	0.00e+00	0	27	0	511705088	54	6124
2026-01-17 14:12:16.11	38.89	31.45	-39.9	-41.1	21.0	0.00e+00	0	27	0	512753664	54	5823
2026-01-17 14:12:17.12	39.05	31.63	-40.0	-41.2	21.0	0.00e+00	80	27	0	514850816	54	5860
2026-01-17 14:12:18.13	39.22	31.81	-39.5	-40.6	21.3	0.00e+00	0	27	0	516947968	52	6173
2026-01-17 14:12:19.14	39.39	32.00	-39.4	-40.5	21.5	0.00e+00	0	27	0	519045120	52	6089
2026-01-17 14:12:20.15	39.56	32.18	-39.1	-40.2	21.7	0.00e+00	0	27	0	521142272	52	5879
2026-01-17 14:12:21.16	39.73	32.36	-38.9	-39.9	21.4	0.00e+00	0	27	0	522190848	52	5689
2026-01-17 14:12:22.17	39.91	32.55	-39.2	-40.3	21.6	0.00e+00	25	27	0	524288000	52	5955
2026-01-17 14:12:23.18	40.09	32.73	-39.2	-40.3	21.7	0.00e+00	0	27	0	526385152	52	5902
2026-01-17 14:12:24.19	40.27	32.92	-38.9	-39.9	21.9	0.00e+00	92	27	0	528482304	52	5673
2026-01-17 14:12:25.20	40.45	33.11	-38.6	-39.6	22.3	0.00e+00	0	27	0	530579456	50	6137
2026-01-17 14:12:26.21	40.63	33.29	-38.4	-39.4	22.3	0.00e+00	51	27	0	531628032	50	6010
2026-01-17 14:12:27.22	40.82	33.48	-38.0	-39.0	22.6	0.00e+00	0	27	0	533725184	50	5697
2026-01-17 14:12:28.23	41.00	33.67	-38.0	-39.0	22.8	0.00e+00	0	27	0	535822336	50	5733
2026-01-17 14:12:29.24	41.19	33.86	-38.6	-39.7	22.2	0.00e+00	0	27	0	537919488	50	6192
2026-01-17 14:12:30.25	41.38	34.05	-38.7	-39.8	22.1	0.00e+00	0	27	0	540016640	50	6279
2026-01-17 14:12:31.26	41.58	34.25	-39.6	-40.8	21.5	0.00e+00	88	27	0	541065216	50	7028
2026-01-17 14:12:32.27	41.77	34.44	-39.3	-40.4	21.7	0.00e+00	0	27	0	543162368	50	6713
2026-01-17 14:12:33.28	41.97	34.63	-39.4	-40.6	21.3	0.00e+00	89	27	0	545259520	50	6887
2026-01-17 14:12:34.29	42.17	34.83	-39.3	-40.5	21.5	0.00e+00	0	27	0	547356672	50	6786
2026-01-17 14:12:35.30	42.38	35.02	-39.1	-40.2	21.7	0.00e+00	0	27	0	549453824	50	6551
2026-01-17 14:12:36.31	42.58	35.22	-39.0	-40.1	21.7	0.00e+00	0	27	0	550502400	50	6510
2026-01-17 14:12:37.32	42.79	35.42	-39.0	-40.1	21.9	0.00e+00	0	27	0	552599552	50	6508
2026-01-17 14:12:38.33	43.00	35.62	-38.4	-39.4	22.3	0.00e+00	92	28	0	554696704	50	6017
2026-01-17 14:12:39.34	43.21	35.82	-38.1	-39.0	22.6	0.00e+00	0	27	0	556793856	50	5754
2026-01-17 14:12:40.35	43.43	36.02	-38.1	-39.1	22.7	0.00e+00	92	27	0	558891008	50	5805
2026-01-17 14:12:41.36	43.65	36.22	-38.0	-38.9	22.7	0.00e+00	0	27	0	559939584	50	5677
2026-01-17 14:12:42.37	43.87	36.42	-37.5	-38.4	23.2	0.00e+00	0	27	0	562036736	50	5333
2026-01-17 14:12:43.38	44.09	36.62	-37.8	-38.7	22.8	0.00e+00	0	27	0	564133888	48	6215
2026-01-17 14:12:44.39	44.32	36.82	-38.0	-38.9	22.7	0.00e+00	0	27	0	566231040	48	6377
2026-01-17 14:12:45.40	44.55	37.03	-38.6	-39.7	22.1	0.00e+00	0	27	0	568328192	48	6946
2026-01-17 14:12:46.41	44.78	37.23	-39.0	-40.2	21.6	0.00e+00	0	27	0	570425344	50	6558
2026-01-17 14:12:47.41	45.01	37.43	-39.3	-40.5	21.6	0.00e+00	74	27	0	571473920	50	6796
2026-01-17 14:12:48.42	45.25	37.64	-39.4	-40.6	21.0	0.00e+00	0	27	0	573571072	50	6877
2026-01-17 14:12:49.43	45.49	37.85	-39.0	-40.2	21.6	0.00e+00	6	27	0	575668224	50	6551
2026-01-17 14:12:50.44	45.73	38.05	-39.4	-40.6	21.4	0.00e+00	0	27	0	577765376	50	6856
2026-01-17 14:12:51.45	45.98	38.26	-39.1	-40.2	21.8	0.00e+00	0	27	0	579862528	52	5896
2026-01-17 14:12:52.46	46.23	38.47	-38.5	-39.6	22.1	0.00e+00	63	28	0	580911104	50	6160
2026-01-17 14:12:53.47	46.48	38.68	-38.6	-39.7	22.0	0.00e+00	0	27	0	583008256	50	6226
2026-01-17 14:12:54.48	46.74	38.89	-38.2	-39.2	22.5	0.00e+00	91	27	0	585105408	50	5889
2026-01-17 14:12:55.49	47.00	39.10	-38.1	-39.1	22.7	0.00e+00	0	27	0	587202560	50	5802
2026-01-17 14:12:56.50	47.26	39.31	-37.3	-38.2	23.2	0.00e+00	0	27	0	589299712	48	5864
2026-01-17 14:12:57.51	47.53	39.53	-37.1	-38.0	23.6	0.00e+00	0	27	0	590348288	48	5719
2026-01-17 14:12:58.52	47.80	39.74	-37.1	-38.0	23.5	0.00e+00	0	27	0	592445440	48	5731
2026-01-17 14:12:59.53	48.07	39.95	-36.8	-37.7	23.6	0.00e+00	0	27	0	594542592	46	6179
2026-01-17 14:13:00.54	48.35	40.17	-37.3	-38.2	23.4	0.00e+00	0	27	0	596639744	46	6582
2026-01-17 14:13:01.55	48.63	40.38	-37.5	-38.5	23.0	0.00e+00	86	27	0	598736896	46	6776
2026-01-17 14:13:02.56	48.91	40.60	-37.9	-38.9	22.7	0.00e+00	0	27	0	599785472	48	6325
2026-01-17 14:13:03.57	49.20	40.81	-38.2	-39.3	22.6	0.00e+00	8	28	0	601882624	48	6636
2026-01-17 14:13:04.57	49.49	41.03	-38.5	-39.7	22.3	0.00e+00	0	27	0	603979776	48	6937
2026-01-17 14:13:05.58	49.79	41.24	-38.0	-39.0	22.7	0.00e+00	0	27	0	606076928	48	6426
2026-01-17 14:13:06.59	50.09	41.46	-37.9	-38.9	22.7	0.00e+00	0	27	0	608174080	48	6361
2026-01-17 14:13:07.60	50.39	41.68	-37.9	-38.9	22.7	0.00e+00	0	27	0	609222656	48	6368
2026-01-17 14:13:08.61	50.70	41.89	-37.9	-38.8	22.8	0.00e+00	85	28	0	611319808	48	6276
2026-01-17 14:13:09.62	51.01	42.11	-37.8	-38.8	22.5	0.00e+00	0	27	0	613416960	48	6256
2026-01-17 14:13:10.63	51.32	42.33	-38.2	-39.2	22.4	0.00e+00	90	28	0	615514112	48	6598
2026-01-17 14:13:11.64	51.64	42.55	-38.4	-39.4	22.4	0.00e+00	0	27	0	617611264	48	6736
2026-01-17 14:13:12.65	51.97	42.77	-38.6	-39.7	22.2	0.00e+00	0	27	0	618659840	48	6934
2026-01-17 14:13:13.66	52.30	42.99	-38.4	-39.4	22.4	0.00e+00	0	27	0	620756992	48	6730
2026-01-17 14:13:14.67	52.63	43.21	-38.6	-39.6	22.2	0.00e+00	0	27	0	622854144	48	6921
2026-01-17 14:13:15.68	52.97	43.43	-38.5	-39.6	22.1	0.00e+00	73	27	0	624951296	48	6895
2026-01-17 14:13:16.68	53.31	43.65	-38.7	-39.7	22.1	0.00e+00	0	27	0	627048448	48	7003
2026-01-17 14:13:17.69	53.66	43.87	-38.8	-39.8	21.8	0.00e+00	67	27	0	628097024	50	6285
2026-01-17 14:13:18.70	54.01	44.09	-39.4	-40.6	21.4	0.00e+00	0	27	0	630194176	50	6869
2026-01-17 14:13:19.71	54.36	44.31	-39.5	-40.7	21.1	0.00e+00	0	27	0	632291328	50	6960
2026-01-17 14:13:20.72	54.73	44.53	-39.6	-40.9	21.0	0.00e+00	0	27	0	634388480	50	7133
2026-01-17 14:13:21.73	55.09	44.75	-39.3	-40.5	21.4	0.00e+00	0	27	0	636485632	50	6831
2026-01-17 14:13:22.74	55.46	44.97	-39.1	-40.2	21.7	0.00e+00	65	27	0	638582784	50	6571
2026-01-17 14:13:23.75	55.84	45.19	-39.0	-40.1	21.8	0.00e+00	0	27	0	639631360	50	6477
2026-01-17 14:13:24.76	56.22	45.41	-38.9	-39.9	21.7	0.00e+00	43	27	0	641728512	50	6375
2026-01-17 14:13:25.77	56.61	45.63	-39.4	-40.6	21.3	0.00e+00	0	27	0	643825664	50	6869
2026-01-17 14:13:26.78	57.00	45.85	-40.1	-41.4	20.7	0.00e+00	0	27	0	645922816	52	6708
2026-01-17 14:13:27.79	57.40	46.07	-40.5	-42.0	20.0	0.00e+00	0	27	0	648019968	52	7184
2026-01-17 14:13:28.80	57.80	46.29	-40.6	-42.0	20.2	0.00e+00	0	27	0	649068544	54	6416
2026-01-17 14:13:29.80	58.21	46.51	-40.5	-41.9	20.3	0.00e+00	0	27	0	651165696	54	6329
2026-01-17 14:13:30.81	58.62	46.73	-40.4	-41.7	20.4	0.00e+00	0	27	0	653262848	54	6242
2026-01-17 14:13:31.82	59.05	46.95	-40.6	-42.0	20.2	0.00e+00	71	27	0	655360000	54	6447
2026-01-17 14:13:32.83	59.47	47.16	-40.6	-42.0	20.3	0.00e+00	0	28	0	656408576	54	6411
2026-01-17 14:13:33.84	59.90	47.38	-40.6	-41.9	20.2	0.00e+00	8	27	0	658505728	54	6370
2026-01-17 14:13:34.84	60.34	47.60	-40.4	-41.8	20.3	0.00e+00	0	27	0	660602880	54	6247
2026-01-17 14:13:35.85	60.78	47.81	-40.4	-41.8	20.2	0.00e+00	0	27	0	662700032	54	6291
2026-01-17 14:13:36.86	61.23	48.03	-40.3	-41.7	20.6	0.00e+00	2	27	0	664797184	54	6226
2026-01-17 14:13:37.87	61.69	48.24	-39.4	-40.6	21.2	0.00e+00	0	28	0	666894336	52	6140
2026-01-17 14:13:38.88	62.15	48.45	-39.0	-40.1	21.8	0.00e+00	63	27	0	667942912	52	5772
2026-01-17 14:13:39.89	62.62	48.67	-38.8	-39.9	22.1	0.00e+00	0	27	0	670040064	52	5666
2026-01-17 14:13:40.90	63.10	48.88	-39.3	-40.5	21.3	0.00e+00	81	27	0	672137216	50	6798
2026-01-17 14:13:41.91	63.58	49.09	-39.6	-40.9	21.2	0.00e+00	0	27	0	674234368	52	6349
2026-01-17 14:13:42.92	64.07	49.30	-39.2	-40.4	21.3	0.00e+00	0	28	0	676331520	52	6033
2026-01-17 14:13:43.93	64.57	49.51	-38.7	-39.8	22.2	0.00e+00	0	27	0	677380096	52	5584
2026-01-17 14:13:44.94	65.07	49.71	-38.3	-39.4	22.6	0.00e+00	0	27	0	679477248	50	5968
2026-01-17 14:13:45.95	65.58	49.92	-38.5	-39.6	22.2	0.00e+00	36	27	0	681574400	50	6154
2026-01-17 14:13:46.96	66.09	50.12	-39.3	-40.6	21.4	0.00e+00	0	27	0	683671552	50	6875
2026-01-17 14:13:47.96	66.61	50.32	-39.3	-40.5	21.4	0.00e+00	87	27	0	685768704	50	6800
2026-01-17 14:13:48.97	67.14	50.52	-38.9	-40.0	21.8	0.00e+00	0	27	0	686817280	50	6451
2026-01-17 14:13:49.98	67.68	50.72	-38.8	-39.9	21.8	0.00e+00	0	28	0	688914432	50	6367
2026-01-17 14:13:50.99	68.22	50.92	-38.3	-39.4	22.5	0.00e+00	0	28	0	691011584	50	5990
2026-01-17 14:13:52.00	68.77	51.11	-37.2	-38.1	23.4	0.00e+00	0	27	0	693108736	48	5813
2026-01-17 14:13:53.01	69.33	51.31	-36.6	-37.5	23.8	0.00e+00	92	28	0	695205888	46	6063
2026-01-17 14:13:54.02	69.90	51.50	-36.4	-37.3	24.1	0.00e+00	0	28	0	696254464	46	5910
2026-01-17 14:13:55.03	70.47	51.69	-36.5	-37.4	23.9	0.00e+00	73	28	0	698351616	46	6002
2026-01-17 14:13:56.04	71.05	51.87	-36.4	-37.2	23.9	0.00e+00	0	28	0	700448768	46	5871
2026-01-17 14:13:57.05	71.64	52.06	-36.2	-37.0	24.2	0.00e+00	0	27	0	702545920	46	5736
2026-01-17 14:13:58.06	72.23	52.24	-35.8	-36.6	24.4	0.00e+00	0	28	0	704643072	44	6162
2026-01-17 14:13:59.07	72.83	52.42	-35.8	-36.6	24.4	0.00e+00	0	28	0	705691648	44	6119
2026-01-17 14:14:00.08	73.44	52.60	-36.3	-37.2	24.1	0.00e+00	0	27	0	707788800	44	6575
2026-01-17 14:14:01.09	74.06	52.77	-36.4	-37.2	24.0	0.00e+00	0	27	0	709885952	44	6605
2026-01-17 14:14:02.10	74.68	52.94	-36.6	-37.5	23.9	0.00e+00	67	28	0	711983104	44	6839
2026-01-17 14:14:03.10	75.31	53.11	-37.3	-38.2	23.2	0.00e+00	0	28	0	714080256	46	6579
2026-01-17 14:14:04.11	75.94	53.28	-37.4	-38.3	23.1	0.00e+00	0	28	0	715128832	48	5919
2026-01-17 14:14:05.12	76.59	53.44	-37.8	-38.8	23.0	0.00e+00	0	28	0	717225984	48	6282
2026-01-17 14:14:06.13	77.24	53.60	-36.6	-37.5	23.9	0.00e+00	0	27	0	719323136	46	6041
2026-01-17 14:14:07.14	77.90	53.76	-36.7	-37.6	23.7	0.00e+00	3	27	0	721420288	46	6131
2026-01-17 14:14:08.15	78.57	53.91	-37.3	-38.2	23.2	0.00e+00	0	28	0	723517440	46	6589
2026-01-17 14:14:09.16	79.24	54.06	-37.8	-38.8	22.9	0.00e+00	60	27	0	724566016	46	7051
2026-01-17 14:14:10.17	79.92	54.21	-37.1	-38.1	23.4	0.00e+00	4	27	0	726663168	48	5778
2026-01-17 14:14:11.18	80.61	54.35	-37.1	-38.1	23.5	0.00e+00	65	27	0	728760320	48	5764
2026-01-17 14:14:12.19	81.30	54.49	-36.8	-37.8	23.7	0.00e+00	0	28	0	730857472	48	5568
2026-01-17 14:14:13.20	82.00	54.62	-36.4	-37.2	24.2	0.00e+00	29	28	0	732954624	46	5883
2026-01-17 14:14:14.20	82.70	54.75	-36.5	-37.4	24.1	0.00e+00	31	27	0	735051776	46	6002
2026-01-17 14:14:15.22	83.42	54.88	-36.4	-37.3	24.0	0.00e+00	4	28	0	736100352	46	5923
2026-01-17 14:14:16.23	84.14	55.00	-36.4	-37.3	24.1	0.00e+00	30	27	0	738197504	46	5933
2026-01-17 14:14:17.23	84.86	55.12	-35.9	-36.8	24.3	0.00e+00	0	28	0	740294656	46	5567
2026-01-17 14:14:18.24	85.59	55.24	-35.8	-36.6	24.7	0.00e+00	82	27	0	742391808	44	6112
2026-01-17 14:14:19.25	86.33	55.35	-36.6	-37.5	23.9	0.00e+00	0	27	0	744488960	44	6771
2026-01-17 14:14:20.26	87.07	55.45	-37.2	-38.1	23.2	0.00e+00	30	28	0	745537536	46	6500
2026-01-17 14:14:21.27	87.82	55.56	-36.4	-37.3	24.0	0.00e+00	0	27	0	747634688	46	5931
2026-01-17 14:14:22.28	88.58	55.65	-36.6	-37.5	24.0	0.00e+00	0	27	0	749731840	46	6080
2026-01-17 14:14:23.29	89.34	55.74	-37.1	-38.1	23.5	0.00e+00	28	28	0	751828992	46	6479
2026-01-17 14:14:24.30	90.10	55.83	-36.7	-37.6	23.8	0.00e+00	0	28	0	753926144	46	6143
2026-01-17 14:14:25.31	90.87	55.92	-36.2	-37.1	24.2	0.00e+00	92	28	0	754974720	46	5788
2026-01-17 14:14:26.32	91.64	55.99	-36.5	-37.3	23.7	0.00e+00	0	28	0	757071872	46	5952
2026-01-17 14:14:27.33	92.42	56.07	-37.6	-38.6	23.0	0.00e+00	0	28	0	759169024	46	6873
2026-01-17 14:14:28.34	93.20	56.13	-37.8	-38.8	23.1	0.00e+00	0	28	0	761266176	48	6294
2026-01-17 14:14:29.35	93.99	56.20	-37.0	-37.8	23.5	0.00e+00	0	27	0	763363328	48	5629
2026-01-17 14:14:30.36	94.77	56.26	-37.4	-38.3	23.2	0.00e+00	0	27	0	764411904	48	5926
2026-01-17 14:14:31.37	95.57	56.31	-37.9	-38.9	22.7	0.00e+00	0	27	0	766509056	48	6378
2026-01-17 14:14:32.38	96.36	56.36	-37.5	-38.5	23.0	0.00e+00	92	27	0	768606208	48	6051
2026-01-17 14:14:33.39	97.16	56.40	-36.9	-37.8	23.6	0.00e+00	0	27	0	770703360	46	6307
2026-01-17 14:14:34.39	97.95	56.43	-36.7	-37.6	23.8	0.00e+00	0	28	0	772800512	46	6147
2026-01-17 14:14:35.40	98.75	56.47	-36.6	-37.5	24.0	0.00e+00	0	28	0	773849088	46	6043
2026-01-17 14:14:36.42	99.56	56.49	-36.6	-37.4	23.9	0.00e+00	0	28	0	775946240	46	6020
2026-01-17 14:14:37.42	100.36	56.51	-36.9	-37.8	23.5	0.00e+00	1	28	0	778043392	46	6291
2026-01-17 14:14:38.43	101.16	56.53	-36.8	-37.6	23.8	0.00e+00	0	28	0	780140544	46	6160
2026-01-17 14:14:39.44	101.97	56.54	-36.8	-37.6	23.7	0.00e+00	90	27	0	782237696	46	6169
2026-01-17 14:14:40.45	102.78	56.54	-38.2	-39.3	22.5	0.00e+00	0	28	0	783286272	48	6629
2026-01-17 14:14:41.46	103.58	56.54	-39.1	-40.3	21.7	0.00e+00	0	28	0	785383424	50	6629
2026-01-17 14:14:42.46	104.38	56.54	-38.2	-39.2	22.6	0.00e+00	0	28	0	787480576	50	5881
2026-01-17 14:14:43.47	105.19	56.53	-37.1	-38.0	23.5	0.00e+00	0	28	0	789577728	48	5708
2026-01-17 14:14:44.48	105.99	56.51	-37.4	-38.4	23.2	0.00e+00	0	28	0	791674880	48	5993
2026-01-17 14:14:45.49	106.80	56.49	-37.8	-38.9	22.8	0.00e+00	0	27	0	792723456	48	6331
2026-01-17 14:14:46.50	107.60	56.46	-37.3	-38.2	23.4	0.00e+00	62	28	0	794820608	48	5877
2026-01-17 14:14:47.51	108.40	56.43	-36.3	-37.1	24.2	0.00e+00	0	28	0	796917760	46	5792
2026-01-17 14:14:48.52	109.20	56.39	-35.9	-36.7	23.4	0.00e+00	92	28	0	799014912	46	5522
2026-01-17 14:14:49.53	110.00	56.35	-36.4	-37.2	24.1	0.00e+00	0	27	0	801112064	46	5875
2026-01-17 14:14:50.54	110.79	56.30	-36.5	-37.3	24.1	0.00e+00	0	27	0	803209216	46	5964
2026-01-17 14:14:51.55	111.58	56.25	-35.6	-36.3	24.7	0.00e+00	0	27	0	804257792	44	5933
2026-01-17 14:14:52.56	112.37	56.19	-35.4	-36.2	24.7	0.00e+00	0	28	0	806354944	44	5844
2026-01-17 14:14:53.57	113.16	56.12	-36.3	-37.2	24.0	0.00e+00	79	28	0	808452096	44	6552
2026-01-17 14:14:54.58	113.94	56.05	-37.5	-38.5	23.2	0.00e+00	0	28	0	810549248	46	6781
2026-01-17 14:14:55.59	114.71	55.98	-37.0	-37.9	23.6	0.00e+00	90	27	0	812646400	46	6377
2026-01-17 14:14:56.60	115.49	55.90	-37.7	-38.7	23.0	0.00e+00	0	28	0	813694976	46	6966
2026-01-17 14:14:57.60	116.25	55.82	-38.8	-40.0	22.0	0.00e+00	0	28	0	815792128	48	7198
2026-01-17 14:14:58.61	117.01	55.73	-39.1	-40.3	21.7	0.00e+00	0	28	0	817889280	50	6683
2026-01-17 14:14:59.62	117.77	55.64	-38.9	-40.0	22.0	0.00e+00	0	28	0	819986432	50	6420
2026-01-17 14:15:00.62	118.52	55.54	-37.8	-38.7	22.1	0.00e+00	0	27	0	821035008	50	5551
2026-01-17 14:15:01.64	119.27	55.44	-36.8	-37.7	23.7	0.00e+00	0	27	0	823132160	48	5544
2026-01-17 14:15:02.65	120.02	55.33	-36.6	-37.5	23.8	0.00e+00	92	28	0	825229312	46	6057
2026-01-17 14:15:03.66	120.75	55.22	-37.1	-38.0	23.5	0.00e+00	0	28	0	827326464	46	6454
2026-01-17 14:15:04.67	121.49	55.10	-36.8	-37.7	23.7	0.00e+00	0	28	0	829423616	46	6181
2026-01-17 14:15:05.68	122.21	54.98	-36.8	-37.7	23.4	0.00e+00	0	27	0	831520768	46	6187
2026-01-17 14:15:06.69	122.93	54.86	-36.4	-37.2	23.9	0.00e+00	0	27	0	832569344	46	5874
2026-01-17 14:15:07.70	123.64	54.73	-36.7	-37.5	23.9	0.00e+00	73	27	0	834666496	46	6091
2026-01-17 14:15:08.70	124.34	54.60	-37.3	-38.2	23.5	0.00e+00	0	27	0	836763648	46	6556
2026-01-17 14:15:09.71	125.04	54.46	-37.2	-38.1	23.4	0.00e+00	95	27	0	838860800	46	6525
2026-01-17 14:15:10.72	125.74	54.32	-36.4	-37.2	24.0	0.00e+00	0	27	0	840957952	46	5894
2026-01-17 14:15:11.73	126.42	54.18	-36.1	-36.9	24.1	0.00e+00	33	27	0	842006528	46	5695
2026-01-17 14:15:12.74	127.10	54.03	-36.2	-37.1	24.0	0.00e+00	0	27	0	844103680	46	5768
2026-01-17 14:15:13.75	127.78	53.88	-37.1	-38.0	23.5	0.00e+00	0	27	0	846200832	46	6407
2026-01-17 14:15:14.76	128.44	53.73	-37.3	-38.2	23.2	0.00e+00	33	27	0	848297984	46	6570
2026-01-17 14:15:15.77	129.10	53.57	-37.3	-38.2	23.2	0.00e+00	0	27	0	850395136	46	6567
2026-01-17 14:15:16.78	129.75	53.41	-36.8	-37.7	23.8	0.00e+00	84	27	0	851443712	46	6218
2026-01-17 14:15:17.79	130.40	53.24	-37.3	-38.3	23.3	0.00e+00	0	27	0	853540864	46	6621
2026-01-17 14:15:18.80	131.04	53.08	-37.1	-38.0	23.5	0.00e+00	0	27	0	855638016	46	6441
2026-01-17 14:15:19.81	131.67	52.91	-36.7	-37.6	23.9	0.00e+00	0	27	0	857735168	46	6129
2026-01-17 14:15:20.82	132.29	52.73	-36.5	-37.3	24.0	0.00e+00	0	27	0	859832320	46	5960
2026-01-17 14:15:21.83	132.90	52.56	-36.5	-37.4	23.9	0.00e+00	0	27	0	860880896	46	5978
2026-01-17 14:15:22.84	133.51	52.38	-37.2	-38.1	23.4	0.00e+00	0	28	0	862978048	46	6491
2026-01-17 14:15:23.85	134.11	52.20	-38.3	-39.4	22.3	0.00e+00	72	27	0	865075200	48	6717
2026-01-17 14:15:24.86	134.71	52.02	-40.0	-41.3	20.6	0.00e+00	0	28	0	867172352	52	6670
2026-01-17 14:15:25.87	135.29	51.83	-41.6	-43.3	19.5	0.00e+00	90	27	0	869269504	54	7427
2026-01-17 14:15:26.88	135.87	51.64	-40.3	-41.6	20.4	0.00e+00	0	28	0	870318080	54	6158
2026-01-17 14:15:27.89	136.45	51.45	-39.0	-40.0	22.2	0.00e+00	0	28	0	872415232	52	5750
2026-01-17 14:15:28.90	137.01	51.26	-38.1	-39.1	22.4	0.00e+00	0	28	0	874512384	50	5807
2026-01-17 14:15:29.90	137.56	51.07	-39.4	-40.5	21.3	0.00e+00	0	28	0	876609536	50	6839
2026-01-17 14:15:30.91	138.11	50.87	-40.8	-42.3	19.9	0.00e+00	0	28	0	878706688	52	7427
2026-01-17 14:15:31.92	138.66	50.67	-40.2	-41.5	20.4	0.00e+00	0	28	0	879755264	54	6073
2026-01-17 14:15:32.93	139.19	50.48	-39.3	-40.5	21.5	0.00e+00	34	27	0	881852416	52	6073
2026-01-17 14:15:33.94	139.72	50.27	-39.8	-41.1	21.0	0.00e+00	0	27	0	883949568	52	6475
2026-01-17 14:15:34.95	140.25	50.07	-41.2	-42.7	19.5	0.00e+00	0	27	0	886046720	54	6954
2026-01-17 14:15:35.96	140.76	49.87	-41.9	-43.7	18.7	0.00e+00	0	28	0	888143872	56	6946
2026-01-17 14:15:36.96	141.27	49.66	-40.0	-41.2	20.8	0.00e+00	0	28	0	889192448	54	5887
2026-01-17 14:15:37.97	141.77	49.45	-38.2	-39.2	22.6	0.00e+00	0	28	0	891289600	50	5843
2026-01-17 14:15:38.98	142.26	49.25	-37.4	-38.2	23.0	0.00e+00	0	28	0	893386752	48	5880
2026-01-17 14:15:39.99	142.75	49.04	-39.0	-40.1	21.9	0.00e+00	73	27	0	895483904	50	6515
2026-01-17 14:15:41.00	143.23	48.82	-39.8	-41.0	21.0	0.00e+00	0	27	0	897581056	52	6462
2026-01-17 14:15:42.01	143.71	48.61	-41.1	-42.6	19.8	0.00e+00	0	28	0	899678208	54	6859
2026-01-17 14:15:43.02	144.18	48.40	-41.0	-42.6	19.6	0.00e+00	0	27	0	900726784	54	6863
2026-01-17 14:15:44.03	144.64	48.18	-39.4	-40.7	21.4	0.00e+00	0	27	0	902823936	52	6181
2026-01-17 14:15:45.04	145.10	47.97	-37.6	-38.5	23.3	0.00e+00	73	28	0	904921088	48	6093
2026-01-17 14:15:46.05	145.55	47.75	-36.1	-36.9	24.5	0.00e+00	0	28	0	907018240	46	5686
2026-01-17 14:15:47.06	145.99	47.54	-36.4	-37.2	24.0	0.00e+00	88	28	0	909115392	46	5883
2026-01-17 14:15:48.07	146.43	47.32	-37.4	-38.3	23.2	0.00e+00	0	27	0	910163968	46	6675
2026-01-17 14:15:49.08	146.86	47.10	-37.1	-38.1	23.6	0.00e+00	91	28	0	912261120	46	6466
2026-01-17 14:15:50.09	147.29	46.88	-35.7	-36.5	24.7	0.00e+00	0	28	0	914358272	44	6051
2026-01-17 14:15:51.10	147.71	46.66	-35.6	-36.4	24.6	0.00e+00	0	28	0	916455424	44	6012
2026-01-17 14:15:52.10	148.12	46.45	-36.5	-37.4	24.0	0.00e+00	59	27	0	918552576	44	6729
2026-01-17 14:15:53.11	148.53	46.23	-37.7	-38.6	23.0	0.00e+00	0	28	0	919601152	46	6919
2026-01-17 14:15:54.12	148.93	46.01	-38.2	-39.3	22.5	0.00e+00	61	28	0	921698304	48	6625
2026-01-17 14:15:55.13	149.33	45.79	-38.0	-39.0	22.7	0.00e+00	0	28	0	923795456	48	6409
2026-01-17 14:15:56.14	149.72	45.56	-37.8	-38.7	22.9	0.00e+00	62	28	0	925892608	48	6241
2026-01-17 14:15:57.15	150.11	45.34	-38.4	-39.4	22.3	0.00e+00	0	27	0	927989760	48	6752
2026-01-17 14:15:58.16	150.49	45.12	-39.0	-40.1	21.9	0.00e+00	0	28	0	929038336	50	6475
2026-01-17 14:15:59.17	150.87	44.90	-39.2	-40.3	21.6	0.00e+00	0	27	0	931135488	50	6676
2026-01-17 14:16:00.18	151.24	44.68	-38.9	-40.0	22.0	0.00e+00	0	28	0	933232640	50	6453
2026-01-17 14:16:01.19	151.60	44.46	-38.6	-39.7	22.2	0.00e+00	63	27	0	935329792	50	6226
2026-01-17 14:16:02.20	151.96	44.24	-38.7	-39.8	22.1	0.00e+00	0	28	0	937426944	50	6264
2026-01-17 14:16:03.20	152.32	44.02	-39.0	-40.1	21.7	0.00e+00	91	27	0	938475520	50	6515
2026-01-17 14:16:04.21	152.67	43.80	-41.0	-42.5	19.7	0.00e+00	0	28	0	940572672	54	6793
2026-01-17 14:16:05.22	153.02	43.57	-41.3	-42.8	19.5	0.00e+00	0	28	0	942669824	54	7078
2026-01-17 14:16:06.23	153.36	43.35	-40.0	-41.3	20.8	0.00e+00	0	28	0	944766976	54	5914
2026-01-17 14:16:07.24	153.69	43.13	-39.1	-40.1	21.9	0.00e+00	0	28	0	946864128	52	5813
2026-01-17 14:16:08.25	154.03	42.91	-39.6	-40.8	20.9	0.00e+00	86	28	0	947912704	52	6260
2026-01-17 14:16:09.26	154.36	42.69	-42.2	-43.8	18.4	0.00e+00	0	28	0	950009856	56	7079
2026-01-17 14:16:10.27	154.68	42.47	-45.0	-48.3	13.5	0.00e+00	92	27	0	952107008	60	9390
2026-01-17 14:16:11.28	155.00	42.25	-45.4	-49.2	12.7	6.79e-05	0	28	0	954204160	60	10412
2026-01-17 14:16:12.29	155.32	42.03	-43.1	-45.3	17.3	0.00e+00	0	28	0	956301312	60	6631
2026-01-17 14:16:13.30	155.63	41.81	-41.7	-43.4	19.0	0.00e+00	0	28	0	957349888	58	5965
2026-01-17 14:16:14.31	155.93	41.59	-40.7	-42.1	20.3	0.00e+00	0	28	0	959447040	56	5799
2026-01-17 14:16:15.32	156.24	41.37	-40.9	-42.3	19.8	0.00e+00	0	27	0	961544192	54	6658
2026-01-17 14:16:16.33	156.54	41.16	-42.9	-45.0	17.5	0.00e+00	0	27	0	963641344	58	7207
2026-01-17 14:16:17.34	156.83	40.94	-43.7	-46.2	16.0	0.00e+00	91	28	0	965738496	58	8315
2026-01-17 14:16:18.35	157.12	40.72	-43.7	-46.3	16.0	0.00e+00	0	28	0	967835648	60	7501
2026-01-17 14:16:19.36	157.41	40.51	-41.9	-43.7	18.9	0.00e+00	0	27	0	968884224	58	6204
2026-01-17 14:16:20.37	157.69	40.29	-41.2	-42.8	19.9	0.00e+00	0	27	0	970981376	56	6251
2026-01-17 14:16:21.38	157.97	40.07	-40.0	-41.2	20.7	0.00e+00	0	27	0	973078528	54	5890
2026-01-17 14:16:22.39	158.25	39.86	-39.6	-40.7	21.4	0.00e+00	0	27	0	975175680	52	6223
2026-01-17 14:16:23.39	158.52	39.65	-39.7	-40.8	21.2	0.00e+00	0	27	0	977272832	52	6275
2026-01-17 14:16:24.40	158.79	39.43	-40.4	-41.7	20.5	0.00e+00	92	27	0	978321408	52	6986
2026-01-17 14:16:25.41	159.05	39.22	-41.3	-42.8	19.7	0.00e+00	0	27	0	980418560	54	7076
2026-01-17 14:16:26.42	159.32	39.01	-39.5	-40.7	21.5	0.00e+00	92	28	0	982515712	54	5549
2026-01-17 14:16:27.43	159.58	38.80	-37.6	-38.6	22.9	0.00e+00	0	27	0	984612864	48	6153
2026-01-17 14:16:28.44	159.83	38.59	-36.3	-37.1	24.2	0.00e+00	0	27	0	986710016	46	5811
2026-01-17 14:16:29.45	160.08	38.38	-36.1	-36.9	24.3	0.00e+00	0	28	0	987758592	46	5681
2026-01-17 14:16:30.46	160.33	38.17	-37.0	-37.9	23.6	0.00e+00	0	27	0	989855744	46	6350
2026-01-17 14:16:31.47	160.58	37.96	-39.2	-40.3	21.7	0.00e+00	90	28	0	991952896	50	6690
2026-01-17 14:16:32.48	160.82	37.75	-41.5	-43.2	19.0	0.00e+00	0	27	0	994050048	54	7375
2026-01-17 14:16:33.49	161.06	37.54	-43.0	-45.2	17.2	0.00e+00	84	27	0	996147200	58	7383
2026-01-17 14:16:34.50	161.30	37.34	-41.6	-43.4	19.2	0.00e+00	0	28	0	997195776	56	6703
2026-01-17 14:16:35.51	161.54	37.13	-39.9	-41.2	21.0	0.00e+00	0	27	0	999292928	54	5839
2026-01-17 14:16:36.52	161.77	36.92	-39.0	-40.1	21.9	0.00e+00	0	28	0	1001390080	52	5801
2026-01-17 14:16:37.52	161.99	36.72	-38.9	-40.0	21.9	0.00e+00	0	27	0	1003487232	52	5721
2026-01-17 14:16:38.53	162.22	36.52	-38.7	-39.8	22.1	0.00e+00	83	28	0	1005584384	50	6274
2026-01-17 14:16:39.54	162.44	36.32	-38.2	-39.2	22.8	0.00e+00	0	28	0	1006632960	50	5846
2026-01-17 14:16:40.55	162.66	36.11	-37.9	-38.9	22.7	0.00e+00	84	27	0	1008730112	50	5647
2026-01-17 14:16:41.56	162.88	35.91	-38.2	-39.2	22.6	0.00e+00	0	28	0	1010827264	50	5844
2026-01-17 14:16:42.57	163.10	35.71	-38.1	-39.1	22.6	0.00e+00	0	28	0	1012924416	50	5786
2026-01-17 14:16:43.58	163.31	35.51	-38.1	-39.1	22.6	0.00e+00	0	28	0	1015021568	50	5807
2026-01-17 14:16:44.59	163.52	35.31	-38.4	-39.5	22.0	0.00e+00	0	28	0	1016070144	50	6047
2026-01-17 14:16:45.60	163.73	35.12	-38.1	-39.1	22.7	0.00e+00	0	28	0	1018167296	50	5782
2026-01-17 14:16:46.61	163.93	34.92	-37.9	-38.9	22.8	0.00e+00	0	27	0	1020264448	50	5667
2026-01-17 14:16:47.62	164.14	34.72	-38.0	-39.0	22.7	0.00e+00	92	28	0	1022361600	50	5723
2026-01-17 14:16:48.63	164.34	34.53	-37.9	-38.9	22.7	0.00e+00	0	27	0	1024458752	48	6324
2026-01-17 14:16:49.64	164.53	34.33	-38.7	-39.7	22.2	0.00e+00	0	28	0	1025507328	48	6948
2026-01-17 14:16:50.65	164.73	34.14	-38.9	-40.0	22.0	0.00e+00	0	27	0	1027604480	50	6403
2026-01-17 14:16:51.66	164.92	33.95	-39.2	-40.3	21.6	0.00e+00	0	27	0	1029701632	50	6676
2026-01-17 14:16:52.67	165.11	33.75	-39.3	-40.5	21.4	0.00e+00	0	28	0	1031798784	50	6777
2026-01-17 14:16:53.68	165.30	33.56	-39.0	-40.2	21.8	0.00e+00	0	28	0	1033895936	50	6578
2026-01-17 14:16:54.68	165.49	33.37	-39.4	-40.6	21.5	0.00e+00	81	27	0	1034944512	50	6879
2026-01-17 14:16:55.69	165.67	33.19	-39.3	-40.5	21.6	0.00e+00	0	28	0	1037041664	50	6800
2026-01-17 14:16:56.70	165.86	33.00	-39.5	-40.7	21.3	0.00e+00	0	28	0	1039138816	50	7001
2026-01-17 14:16:57.71	166.04	32.81	-38.9	-40.0	21.8	0.00e+00	0	28	0	1041235968	50	6458
2026-01-17 14:16:58.72	166.22	32.62	-39.0	-40.0	21.9	0.00e+00	0	28	0	1043333120	50	6463
2026-01-17 14:16:59.73	166.39	32.44	-38.8	-39.8	22.0	0.00e+00	65	28	0	1044381696	50	6299
2026-01-17 14:17:00.74	166.57	32.25	-38.9	-40.0	22.0	0.00e+00	0	28	0	1046478848	50	6426
2026-01-17 14:17:01.75	166.74	32.07	-38.9	-39.9	22.0	0.00e+00	85	27	0	1048576000	50	6353
2026-01-17 14:17:02.76	166.91	31.88	-38.0	-38.9	22.8	0.00e+00	0	27	0	1050673152	50	5673
2026-01-17 14:17:03.77	167.08	31.70	-37.7	-38.6	23.0	0.00e+00	67	27	0	1052770304	48	6143
2026-01-17 14:17:04.78	167.25	31.52	-37.4	-38.3	23.6	0.00e+00	0	27	0	1053818880	48	5923
2026-01-17 14:17:05.79	167.41	31.34	-37.2	-38.1	23.4	0.00e+00	0	28	0	1055916032	48	5807
2026-01-17 14:17:06.80	167.58	31.16	-38.1	-39.1	22.7	0.00e+00	25	27	0	1058013184	48	6487
2026-01-17 14:17:07.81	167.74	30.98	-38.4	-39.4	22.4	0.00e+00	0	28	0	1060110336	48	6696
2026-01-17 14:17:08.82	167.90	30.80	-39.1	-40.3	21.7	0.00e+00	84	28	0	1062207488	50	6621
2026-01-17 14:17:09.82	168.06	30.62	-40.2	-41.5	20.6	0.00e+00	0	28	0	1064304640	52	6774
2026-01-17 14:17:10.83	168.21	30.45	-41.0	-42.5	19.6	0.00e+00	77	28	0	1065353216	54	6832
2026-01-17 14:17:11.84	168.37	30.27	-41.5	-43.1	19.1	0.00e+00	0	28	0	1067450368	54	7255
2026-01-17 14:17:12.85	168.52	30.10	-41.0	-42.4	19.7	0.00e+00	0	28	0	1069547520	54	6746
2026-01-17 14:17:13.86	168.67	29.92	-40.6	-42.0	20.2	0.00e+00	0	28	0	1071644672	54	6400
2026-01-17 14:17:14.87	168.82	29.75	-39.7	-40.9	21.2	0.00e+00	0	28	0	1073741824	52	6343
2026-01-17 14:17:15.88	168.97	29.58	-39.2	-40.3	21.7	0.00e+00	81	28	0	1074790400	52	5951
2026-01-17 14:17:16.89	169.12	29.41	-38.4	-39.4	22.6	0.00e+00	0	28	0	1076887552	50	6023
2026-01-17 14:17:17.90	169.27	29.24	-37.7	-38.7	22.9	0.00e+00	89	28	0	1078984704	50	5516
2026-01-17 14:17:18.91	169.41	29.07	-37.5	-38.5	23.2	0.00e+00	0	28	0	1081081856	48	6052
2026-01-17 14:17:19.92	169.55	28.90	-37.0	-37.9	23.7	0.00e+00	0	28	0	1083179008	48	5665
2026-01-17 14:17:20.93	169.69	28.73	-37.0	-37.9	23.6	0.00e+00	0	28	0	1084227584	46	6349
2026-01-17 14:17:21.94	169.83	28.56	-37.6	-38.6	23.1	0.00e+00	0	28	0	1086324736	46	6852
2026-01-17 14:17:22.95	169.97	28.40	-37.9	-38.9	22.8	0.00e+00	73	28	0	1088421888	48	6343
2026-01-17 14:17:23.96	170.11	28.23	-38.7	-39.8	22.1	0.00e+00	0	28	0	1090519040	50	6284
2026-01-17 14:17:24.96	170.25	28.07	-39.9	-41.1	21.0	0.00e+00	92	28	0	1092616192	52	6501
2026-01-17 14:17:25.97	170.38	27.90	-40.4	-41.7	20.5	0.00e+00	0	28	0	1093664768	52	7006
2026-01-17 14:17:26.98	170.51	27.74	-41.1	-42.6	19.6	0.00e+00	64	28	0	1095761920	54	6891
2026-01-17 14:17:27.99	170.64	27.58	-41.6	-43.2	19.2	0.00e+00	0	28	0	1097859072	54	7358
2026-01-17 14:17:29.00	170.78	27.42	-41.1	-42.6	19.7	0.00e+00	0	28	0	1099956224	54	6858
2026-01-17 14:17:30.01	170.90	27.25	-40.9	-42.3	19.9	0.00e+00	0	28	0	1102053376	54	6661
2026-01-17 14:17:31.02	171.03	27.09	-40.6	-42.0	20.1	0.00e+00	0	28	0	1103101952	54	6395
2026-01-17 14:17:32.03	171.16	26.94	-39.8	-41.0	21.0	0.00e+00	92	28	0	1105199104	52	6461
2026-01-17 14:17:33.04	171.29	26.78	-40.0	-41.3	20.9	0.00e+00	0	28	0	1107296256	52	6662
2026-01-17 14:17:34.05	171.41	26.62	-39.6	-40.8	21.3	0.00e+00	92	28	0	1109393408	52	6246
2026-01-17 14:17:35.05	171.53	26.46	-38.8	-39.9	22.1	0.00e+00	0	28	0	1111490560	52	5648
2026-01-17 14:17:36.06	171.65	26.31	-38.5	-39.5	22.2	0.00e+00	0	28	0	1112539136	50	6083
2026-01-17 14:17:37.07	171.77	26.15	-38.7	-39.7	22.0	0.00e+00	0	28	0	1114636288	50	6238
2026-01-17 14:17:38.08	171.89	26.00	-38.8	-39.9	21.9	0.00e+00	0	28	0	1116733440	50	6365
2026-01-17 14:17:39.09	172.01	25.84	-39.5	-40.7	21.3	0.00e+00	75	28	0	1118830592	50	6934
2026-01-17 14:17:40.10	172.13	25.69	-39.5	-40.6	21.3	0.00e+00	0	28	0	1120927744	50	6926
2026-01-17 14:17:41.11	172.25	25.54	-39.9	-41.1	21.0	0.00e+00	91	27	0	1121976320	52	6478
2026-01-17 14:17:42.12	172.36	25.39	-39.2	-40.3	21.7	0.00e+00	0	28	0	1124073472	52	5907
2026-01-17 14:17:43.13	172.48	25.24	-38.7	-39.7	22.1	0.00e+00	0	28	0	1126170624	50	6224
2026-01-17 14:17:44.14	172.59	25.09	-38.6	-39.7	22.2	0.00e+00	0	28	0	1128267776	50	6178
2026-01-17 14:17:45.15	172.70	24.94	-38.0	-38.9	22.8	0.00e+00	0	28	0	1130364928	50	5677
2026-01-17 14:17:46.16	172.81	24.79	-38.0	-39.0	22.9	0.00e+00	54	28	0	1132462080	50	5721
2026-01-17 14:17:47.17	172.92	24.64	-37.9	-38.9	22.9	0.00e+00	0	28	0	1133510656	50	5660
2026-01-17 14:17:48.18	173.03	24.49	-37.2	-38.1	23.3	0.00e+00	54	28	0	1135607808	48	5827
2026-01-17 14:17:49.19	173.14	24.35	-37.2	-38.1	23.4	0.00e+00	0	28	0	1137704960	48	5786
2026-01-17 14:17:50.20	173.25	24.20	-37.0	-37.9	23.6	0.00e+00	0	28	0	1139802112	48	5659
2026-01-17 14:17:51.21	173.36	24.06	-37.0	-37.9	23.6	0.00e+00	0	28	0	1141899264	48	5633
2026-01-17 14:17:52.22	173.46	23.91	-36.6	-37.5	23.8	0.00e+00	0	28	0	1142947840	46	6070
2026-01-17 14:17:53.23	173.57	23.77	-36.7	-37.5	23.8	0.00e+00	1	27	0	1145044992	46	6080
2026-01-17 14:17:54.24	173.67	23.62	-36.7	-37.6	23.7	0.00e+00	0	27	0	1147142144	46	6142
2026-01-17 14:17:55.25	173.77	23.48	-36.8	-37.6	23.6	0.00e+00	90	28	0	1149239296	46	6145
2026-01-17 14:17:56.26	173.87	23.34	-36.7	-37.5	23.9	0.00e+00	0	28	0	1151336448	46	6068
2026-01-17 14:17:57.27	173.97	23.20	-36.5	-37.3	23.9	0.00e+00	0	28	0	1152385024	46	5958
2026-01-17 14:17:58.28	174.07	23.06	-36.7	-37.5	23.5	0.00e+00	0	28	0	1154482176	46	6079
2026-01-17 14:17:59.28	174.17	22.92	-36.9	-37.8	23.4	0.00e+00	0	28	0	1156579328	46	6278
2026-01-17 14:18:00.29	174.27	22.78	-37.2	-38.1	23.4	0.00e+00	7	28	0	1158676480	46	6504
2026-01-17 14:18:01.31	174.37	22.64	-37.3	-38.2	23.1	0.00e+00	0	28	0	1160773632	46	6579
2026-01-17 14:18:02.31	174.47	22.51	-37.4	-38.3	23.2	0.00e+00	90	28	0	1161822208	46	6620
2026-01-17 14:18:03.32	174.56	22.37	-37.7	-38.7	22.9	0.00e+00	0	28	0	1163919360	46	6934
2026-01-17 14:18:04.33	174.66	22.23	-38.0	-39.0	22.6	0.00e+00	92	28	0	1166016512	48	6409
2026-01-17 14:18:05.34	174.75	22.10	-38.1	-39.1	22.4	0.00e+00	0	28	0	1168113664	48	6488
2026-01-17 14:18:06.35	174.84	21.96	-38.3	-39.4	22.2	0.00e+00	0	28	0	1170210816	48	6721
2026-01-17 14:18:07.36	174.94	21.83	-38.3	-39.4	22.4	0.00e+00	57	28	0	1171259392	48	6716
2026-01-17 14:18:08.37	175.03	21.70	-38.2	-39.2	22.5	0.00e+00	0	28	0	1173356544	48	6607
2026-01-17 14:18:09.38	175.12	21.56	-38.0	-39.0	22.6	0.00e+00	90	28	0	1175453696	48	6462
2026-01-17 14:18:10.39	175.21	21.43	-37.9	-38.9	22.7	0.00e+00	0	28	0	1177550848	48	6389
2026-01-17 14:18:11.40	175.30	21.30	-37.5	-38.5	23.1	0.00e+00	51	28	0	1179648000	48	6099
2026-01-17 14:18:12.41	175.39	21.17	-37.5	-38.5	23.0	0.00e+00	0	28	0	1180696576	48	6044
2026-01-17 14:18:13.42	175.48	21.04	-37.0	-37.9	23.4	0.00e+00	0	28	0	1182793728	48	5676
2026-01-17 14:18:14.43	175.57	20.91	-36.9	-37.8	23.6	0.00e+00	0	28	0	1184890880	46	6271
2026-01-17 14:18:15.44	175.65	20.78	-36.5	-37.4	23.8	0.00e+00	0	28	0	1186988032	46	5981
2026-01-17 14:18:16.46	175.74	20.65	-36.1	-37.0	24.1	0.00e+00	90	28	0	1189085184	46	5697
2026-01-17 14:18:17.46	175.82	20.52	-35.7	-36.5	24.5	0.00e+00	0	28	0	1190133760	46	5419
2026-01-17 14:18:18.47	175.91	20.39	-35.6	-36.4	24.5	0.00e+00	90	28	0	1192230912	44	6022
2026-01-17 14:18:19.48	175.99	20.27	-35.1	-35.9	24.9	0.00e+00	0	27	0	1194328064	44	5683
2026-01-17 14:18:20.49	176.08	20.14	-34.8	-35.6	25.1	0.00e+00	0	28	0	1196425216	44	5482
2026-01-17 14:18:21.50	176.16	20.01	-34.8	-35.6	25.1	0.00e+00	0	28	0	1198522368	42	6116
2026-01-17 14:18:22.51	176.24	19.89	-34.9	-35.6	25.0	0.00e+00	0	28	0	1200619520	42	6168
2026-01-17 14:18:23.52	176.32	19.77	-34.9	-35.6	25.1	0.00e+00	75	28	0	1201668096	42	6160
2026-01-17 14:18:24.53	176.41	19.64	-35.0	-35.8	25.0	0.00e+00	0	28	0	1203765248	42	6257
2026-01-17 14:18:25.54	176.49	19.52	-35.2	-36.0	24.8	0.00e+00	92	28	0	1205862400	42	6405
2026-01-17 14:18:26.55	176.57	19.39	-35.2	-36.0	24.8	0.00e+00	0	28	0	1207959552	42	6415
2026-01-17 14:18:27.55	176.64	19.27	-35.6	-36.4	24.6	0.00e+00	0	28	0	1210056704	42	6745
2026-01-17 14:18:28.56	176.72	19.15	-35.9	-36.8	24.3	0.00e+00	0	28	0	1211105280	44	6285
2026-01-17 14:18:29.57	176.80	19.03	-36.2	-37.1	24.0	0.00e+00	0	28	0	1213202432	44	6482
2026-01-17 14:18:30.58	176.88	18.91	-36.5	-37.4	23.8	0.00e+00	77	28	0	1215299584	44	6706
2026-01-17 14:18:31.59	176.95	18.79	-36.8	-37.7	23.6	0.00e+00	0	28	0	1217396736	44	6957
2026-01-17 14:18:32.60	177.03	18.67	-37.2	-38.2	23.2	0.00e+00	80	28	0	1219493888	46	6586
2026-01-17 14:18:33.61	177.11	18.55	-37.3	-38.3	23.1	0.00e+00	0	27	0	1220542464	46	6631
2026-01-17 14:18:34.62	177.18	18.43	-37.6	-38.6	22.9	0.00e+00	6	28	0	1222639616	46	6869
2026-01-17 14:18:35.63	177.26	18.31	-37.9	-39.0	22.6	0.00e+00	0	27	0	1224736768	48	6405
