passes_logs/2026/01/17/R4.6S_Anadyr/R4.6S_Anadyr__20260117_004146_NOAA_20_JPSS-1_rec.log

#Pass ID: 20260117_004146_NOAA 20 (JPSS-1)
#Satellite: NOAA 20 (JPSS-1)
#Configuration: NOAA 20
#almurnet v.1.7.20251203
#Start time: 2026-01-17 00:41:46

#Version: 2.2.20231116
#Station: R4.6S_Anadyr
#Location: 177.4865 lon 64.73178 lat
#TLE: 1 43013U 17073A   26016.52825843  .00000039  00000+0  39346-4 0  9991
#TLE: 2 43013  98.7637 317.4515 0001446  37.2648 322.8628 14.19536276422951

#Time	Az	El	Level	Level2	SNR	BER	BlckErr	Temp	State	Recorded	gain1	gain2
2026-01-17 00:41:46.81	168.22	0.04	-48.4	-63.3	3.5	1.51e+00	0	25	0	0	60	52701
2026-01-17 00:41:47.82	168.24	0.10	-48.7	-63.8	3.6	1.51e+00	0	26	104	0	60	56261
2026-01-17 00:41:48.83	168.25	0.17	-48.7	-63.9	3.6	1.51e+00	0	26	104	0	60	56547
2026-01-17 00:41:49.83	168.27	0.23	-48.6	-63.9	3.6	1.51e+00	0	26	104	0	60	56644
2026-01-17 00:41:50.84	168.29	0.29	-48.9	-64.1	3.6	1.51e+00	0	26	104	0	60	58133
2026-01-17 00:41:51.85	168.31	0.35	-49.2	-64.3	3.6	1.51e+00	0	26	104	0	60	59605
2026-01-17 00:41:52.86	168.32	0.41	-48.7	-63.9	3.6	1.51e+00	0	26	104	0	60	56610
2026-01-17 00:41:53.87	168.34	0.47	-48.6	-63.8	3.6	1.51e+00	0	26	104	0	60	55790
2026-01-17 00:41:54.89	168.36	0.53	-48.5	-63.6	3.5	1.51e+00	0	26	104	0	60	54786
2026-01-17 00:41:55.90	168.38	0.59	-48.5	-63.7	3.6	1.51e+00	0	26	104	0	60	55058
2026-01-17 00:41:56.90	168.40	0.65	-48.5	-63.6	3.6	1.51e+00	0	27	104	0	60	54975
2026-01-17 00:41:57.91	168.42	0.71	-48.3	-63.5	3.6	1.51e+00	0	27	104	0	60	54271
2026-01-17 00:41:58.92	168.43	0.78	-48.2	-63.4	3.6	1.51e+00	0	26	104	0	60	53692
2026-01-17 00:41:59.93	168.45	0.84	-48.1	-63.3	3.6	1.51e+00	0	26	104	0	60	53117
2026-01-17 00:42:00.94	168.47	0.90	-48.0	-63.2	3.6	1.51e+00	0	26	104	0	60	52157
2026-01-17 00:42:01.95	168.49	0.96	-47.9	-63.1	3.6	1.51e+00	0	27	104	0	60	51571
2026-01-17 00:42:02.96	168.51	1.02	-47.6	-62.8	3.6	1.51e+00	0	27	104	0	60	49657
2026-01-17 00:42:03.97	168.53	1.09	-47.6	-62.7	3.6	1.51e+00	0	27	104	0	60	49129
2026-01-17 00:42:04.98	168.55	1.15	-47.3	-62.5	3.6	1.51e+00	0	26	104	0	60	47977
2026-01-17 00:42:05.98	168.56	1.21	-46.9	-61.9	3.6	1.51e+00	0	27	104	0	60	44899
2026-01-17 00:42:06.99	168.58	1.27	-46.8	-61.9	3.6	1.51e+00	0	27	104	0	60	45092
2026-01-17 00:42:08.00	168.60	1.33	-46.8	-61.9	3.6	1.51e+00	0	27	104	0	60	44978
2026-01-17 00:42:09.01	168.62	1.40	-46.8	-61.8	3.6	1.51e+00	0	27	104	0	60	44272
2026-01-17 00:42:10.02	168.64	1.46	-46.8	-61.8	3.6	1.51e+00	0	27	104	0	60	44583
2026-01-17 00:42:11.03	168.66	1.52	-46.8	-61.6	3.6	1.51e+00	0	27	104	0	60	43654
2026-01-17 00:42:12.04	168.68	1.59	-46.8	-61.6	3.6	1.51e+00	0	27	104	0	60	43373
2026-01-17 00:42:13.05	168.70	1.65	-46.8	-61.5	3.6	1.51e+00	0	27	104	0	60	42788
2026-01-17 00:42:14.06	168.72	1.71	-46.8	-61.5	3.6	1.51e+00	0	27	104	0	60	43053
2026-01-17 00:42:15.07	168.74	1.78	-46.8	-61.6	3.6	1.51e+00	0	27	104	0	60	43369
2026-01-17 00:42:16.08	168.76	1.84	-46.8	-61.7	3.6	1.51e+00	0	27	104	0	60	43940
2026-01-17 00:42:17.09	168.78	1.91	-46.8	-61.8	3.6	1.51e+00	0	27	104	0	60	44305
2026-01-17 00:42:18.10	168.80	1.97	-46.8	-61.8	3.6	1.51e+00	0	27	104	0	60	44693
2026-01-17 00:42:19.11	168.82	2.03	-46.8	-61.9	3.5	1.51e+00	0	27	104	0	60	45053
2026-01-17 00:42:20.12	168.84	2.10	-46.8	-61.9	3.6	1.51e+00	0	27	104	0	60	44948
2026-01-17 00:42:21.13	168.86	2.16	-46.8	-61.8	3.6	1.51e+00	0	27	104	0	60	44485
2026-01-17 00:42:22.14	168.88	2.23	-46.7	-61.6	3.6	1.51e+00	0	27	104	0	60	43559
2026-01-17 00:42:23.15	168.90	2.29	-46.7	-61.5	3.6	1.51e+00	0	27	104	0	60	42902
2026-01-17 00:42:24.15	168.92	2.36	-46.7	-61.3	3.6	1.51e+00	0	27	104	0	60	42149
2026-01-17 00:42:25.16	168.94	2.42	-46.7	-61.0	3.6	1.51e+00	0	27	104	0	60	40487
2026-01-17 00:42:26.17	168.96	2.49	-46.7	-60.5	3.6	1.51e+00	0	27	104	0	60	38441
2026-01-17 00:42:27.18	168.98	2.55	-46.7	-60.4	3.6	1.51e+00	0	27	104	0	60	37972
2026-01-17 00:42:28.19	169.00	2.62	-46.7	-60.4	3.6	1.51e+00	0	27	104	0	60	37775
2026-01-17 00:42:29.20	169.02	2.68	-46.7	-60.7	3.6	1.51e+00	0	27	104	0	60	39353
2026-01-17 00:42:30.21	169.04	2.75	-46.8	-60.7	3.6	1.51e+00	0	27	104	0	60	39233
2026-01-17 00:42:31.22	169.06	2.82	-46.7	-59.7	3.7	1.51e+00	0	27	104	0	60	34743
2026-01-17 00:42:32.23	169.08	2.88	-46.4	-56.5	4.8	1.22e+00	91	27	0	0	60	24057
2026-01-17 00:42:33.24	169.10	2.95	-46.0	-53.1	7.0	3.96e-01	92	27	0	1048576	60	16282
2026-01-17 00:42:34.25	169.12	3.02	-45.4	-50.7	9.6	7.88e-02	4	27	0	3145728	60	12415
2026-01-17 00:42:35.26	169.14	3.08	-44.9	-49.4	11.4	1.15e-03	92	27	0	5242880	60	10631
2026-01-17 00:42:36.27	169.16	3.15	-43.7	-46.8	14.1	1.90e-05	84	27	0	7340032	60	7939
2026-01-17 00:42:37.28	169.19	3.22	-42.7	-45.2	15.8	0.00e+00	92	27	0	9437184	60	6586
2026-01-17 00:42:38.29	169.21	3.28	-42.0	-44.2	16.7	0.00e+00	92	27	0	10485760	58	6610
2026-01-17 00:42:39.29	169.23	3.35	-41.5	-43.4	17.5	0.00e+00	92	27	0	12582912	56	6712
2026-01-17 00:42:40.30	169.25	3.42	-41.0	-42.8	18.3	0.00e+00	92	27	0	14680064	56	6248
2026-01-17 00:42:41.31	169.27	3.49	-40.8	-42.6	18.3	0.00e+00	54	27	0	16777216	56	6116
2026-01-17 00:42:42.33	169.29	3.55	-40.7	-42.5	18.3	0.00e+00	92	27	0	18874368	54	6771
2026-01-17 00:42:43.33	169.31	3.62	-40.8	-42.5	18.2	0.00e+00	2	27	0	19922944	54	6848
2026-01-17 00:42:44.34	169.34	3.69	-41.4	-43.4	17.4	0.00e+00	92	27	0	22020096	54	7541
2026-01-17 00:42:45.35	169.36	3.76	-42.5	-44.9	15.9	0.00e+00	92	27	0	24117248	56	7976
2026-01-17 00:42:46.36	169.38	3.83	-43.8	-46.9	15.5	1.56e-04	92	27	0	26214400	60	8043
2026-01-17 00:42:47.37	169.40	3.90	-44.1	-47.6	15.0	6.40e-05	92	27	0	28311552	60	8646
2026-01-17 00:42:48.38	169.42	3.96	-45.5	-50.7	9.9	5.75e-02	92	27	0	30408704	60	12422
2026-01-17 00:42:49.39	169.45	4.03	-44.2	-47.5	13.6	2.78e-02	90	27	0	31457280	60	8525
2026-01-17 00:42:50.39	169.47	4.10	-47.0	-60.1	3.8	9.90e-01	0	27	104	32505856	60	36630
2026-01-17 00:42:51.40	169.49	4.17	-45.5	-50.5	10.1	4.64e-03	92	27	0	32505856	60	12044
2026-01-17 00:42:52.41	169.51	4.24	-45.2	-49.9	10.9	1.31e-03	21	27	0	34603008	60	11280
2026-01-17 00:42:53.42	169.54	4.31	-44.9	-49.0	11.6	7.41e-04	92	27	0	36700160	60	10241
2026-01-17 00:42:54.43	169.56	4.38	-44.6	-48.4	12.5	2.70e-04	95	27	0	38797312	60	9550
2026-01-17 00:42:55.44	169.58	4.45	-44.4	-48.0	12.5	2.53e-04	90	27	0	40894464	60	9115
2026-01-17 00:42:56.45	169.60	4.52	-44.8	-49.0	12.1	3.24e-04	92	27	0	41943040	60	10130
2026-01-17 00:42:57.45	169.63	4.59	-44.5	-48.2	12.6	1.14e-04	92	27	0	44040192	60	9277
2026-01-17 00:42:58.46	169.65	4.66	-44.2	-47.5	13.0	9.46e-05	92	28	0	46137344	60	8567
2026-01-17 00:42:59.47	169.67	4.73	-44.5	-48.3	12.6	7.24e-05	0	27	0	48234496	60	9358
2026-01-17 00:43:00.48	169.70	4.80	-44.6	-48.4	13.3	3.35e-05	91	28	0	50331648	60	9501
2026-01-17 00:43:01.49	169.72	4.87	-44.6	-48.4	13.7	8.85e-05	91	27	0	51380224	60	9539
2026-01-17 00:43:02.50	169.74	4.95	-44.5	-48.1	13.0	5.49e-05	92	27	0	53477376	60	9179
2026-01-17 00:43:03.51	169.77	5.02	-44.6	-48.4	14.5	1.44e-05	92	27	0	55574528	60	9504
2026-01-17 00:43:04.52	169.79	5.09	-44.0	-47.1	13.8	1.29e-05	92	28	0	57671680	60	8195
2026-01-17 00:43:05.53	169.81	5.16	-44.2	-47.6	13.7	2.20e-06	92	28	0	59768832	60	8676
2026-01-17 00:43:06.54	169.84	5.23	-43.9	-47.0	14.8	7.00e-07	0	28	0	60817408	60	8061
2026-01-17 00:43:07.55	169.86	5.30	-43.8	-46.7	14.4	7.00e-07	92	28	0	62914560	60	7849
2026-01-17 00:43:08.55	169.89	5.38	-43.8	-46.8	14.6	2.20e-06	92	28	0	65011712	60	7927
2026-01-17 00:43:09.56	169.91	5.45	-43.4	-46.0	15.2	0.00e+00	92	28	0	67108864	60	7242
2026-01-17 00:43:10.57	169.93	5.52	-43.5	-46.1	15.4	0.00e+00	94	28	0	69206016	60	7332
2026-01-17 00:43:11.58	169.96	5.60	-43.4	-46.0	15.4	0.00e+00	93	28	0	70254592	60	7225
2026-01-17 00:43:12.59	169.98	5.67	-43.2	-45.8	16.1	0.00e+00	92	28	0	72351744	60	7014
2026-01-17 00:43:13.60	170.01	5.74	-42.5	-44.7	15.9	0.00e+00	33	28	0	74448896	58	6928
2026-01-17 00:43:14.61	170.03	5.82	-42.6	-44.8	16.1	0.00e+00	90	28	0	76546048	58	7068
2026-01-17 00:43:15.62	170.06	5.89	-42.5	-44.6	16.8	0.00e+00	9	28	0	78643200	58	6890
2026-01-17 00:43:16.63	170.08	5.96	-43.0	-45.4	17.0	0.00e+00	92	28	0	80740352	58	7533
2026-01-17 00:43:17.64	170.11	6.04	-42.3	-44.3	16.6	0.00e+00	92	28	0	81788928	58	6660
2026-01-17 00:43:18.65	170.13	6.11	-42.2	-44.3	16.9	0.00e+00	92	28	0	83886080	58	6626
2026-01-17 00:43:19.66	170.16	6.19	-42.6	-44.8	17.4	0.00e+00	92	28	0	85983232	58	7017
2026-01-17 00:43:20.67	170.18	6.26	-42.2	-44.2	17.3	0.00e+00	50	28	0	88080384	58	6575
2026-01-17 00:43:21.68	170.21	6.34	-41.9	-43.9	17.5	0.00e+00	92	28	0	89128960	58	6333
2026-01-17 00:43:22.68	170.23	6.41	-41.4	-43.1	18.3	0.00e+00	0	28	0	91226112	56	6521
2026-01-17 00:43:23.69	170.26	6.49	-42.0	-43.9	17.5	0.00e+00	92	28	0	93323264	56	7113
2026-01-17 00:43:24.70	170.28	6.56	-41.7	-43.5	18.0	0.00e+00	92	28	0	95420416	56	6791
2026-01-17 00:43:25.71	170.31	6.64	-41.7	-43.5	18.3	0.00e+00	92	28	0	97517568	56	6838
2026-01-17 00:43:26.72	170.34	6.72	-41.1	-42.7	18.4	0.00e+00	92	28	0	98566144	56	6203
2026-01-17 00:43:27.72	170.36	6.79	-41.0	-42.6	18.9	0.00e+00	90	28	0	100663296	56	6128
2026-01-17 00:43:28.73	170.39	6.87	-41.2	-42.8	18.6	0.00e+00	92	28	0	102760448	54	7044
2026-01-17 00:43:29.74	170.41	6.95	-40.6	-42.1	19.4	0.00e+00	13	28	0	104857600	54	6534
2026-01-17 00:43:30.76	170.44	7.02	-39.7	-41.0	20.3	0.00e+00	92	28	0	106954752	54	5751
2026-01-17 00:43:31.76	170.47	7.10	-39.2	-40.4	20.8	0.00e+00	90	28	0	109051904	52	6007
2026-01-17 00:43:32.77	170.49	7.18	-39.2	-40.4	20.9	0.00e+00	92	28	0	110100480	52	6013
2026-01-17 00:43:33.78	170.52	7.26	-39.2	-40.4	20.7	0.00e+00	92	28	0	112197632	52	6025
2026-01-17 00:43:34.79	170.55	7.33	-39.2	-40.4	21.0	0.00e+00	92	28	0	114294784	52	6021
2026-01-17 00:43:35.80	170.58	7.41	-39.1	-40.3	21.2	0.00e+00	92	28	0	116391936	52	5918
2026-01-17 00:43:36.81	170.60	7.49	-39.0	-40.2	21.2	0.00e+00	19	28	0	118489088	52	5831
2026-01-17 00:43:37.82	170.63	7.57	-39.2	-40.4	21.0	0.00e+00	92	28	0	119537664	52	5973
2026-01-17 00:43:38.83	170.66	7.65	-38.9	-40.1	21.3	0.00e+00	4	28	0	121634816	52	5793
2026-01-17 00:43:39.83	170.69	7.73	-38.8	-40.0	21.2	0.00e+00	91	28	0	123731968	50	6406
2026-01-17 00:43:40.84	170.71	7.81	-38.9	-40.0	21.3	0.00e+00	91	28	0	125829120	50	6429
2026-01-17 00:43:41.85	170.74	7.89	-38.9	-40.0	21.4	0.00e+00	92	28	0	127926272	50	6430
2026-01-17 00:43:42.86	170.77	7.97	-38.6	-39.7	21.6	0.00e+00	92	28	0	128974848	50	6215
2026-01-17 00:43:43.87	170.80	8.05	-38.6	-39.7	21.7	0.00e+00	92	28	0	131072000	50	6223
2026-01-17 00:43:44.88	170.83	8.13	-38.5	-39.6	21.7	0.00e+00	92	28	0	133169152	50	6136
2026-01-17 00:43:45.88	170.85	8.21	-38.9	-40.1	21.4	0.00e+00	0	28	0	135266304	50	6484
2026-01-17 00:43:46.89	170.88	8.29	-38.8	-39.9	21.4	0.00e+00	91	28	0	137363456	50	6389
2026-01-17 00:43:47.90	170.91	8.37	-38.6	-39.7	21.6	0.00e+00	90	28	0	138412032	50	6204
2026-01-17 00:43:48.91	170.94	8.45	-38.8	-39.9	21.4	0.00e+00	91	28	0	140509184	50	6384
2026-01-17 00:43:49.92	170.97	8.53	-38.4	-39.5	21.9	0.00e+00	90	28	0	142606336	50	6040
2026-01-17 00:43:50.93	171.00	8.62	-38.4	-39.4	22.0	0.00e+00	92	28	0	144703488	50	6014
2026-01-17 00:43:51.94	171.03	8.70	-38.4	-39.5	21.9	0.00e+00	91	28	0	146800640	50	6060
2026-01-17 00:43:52.95	171.06	8.78	-38.2	-39.3	22.1	0.00e+00	0	28	0	147849216	50	5931
2026-01-17 00:43:53.96	171.09	8.86	-38.2	-39.3	22.1	0.00e+00	92	28	0	149946368	50	5909
2026-01-17 00:43:54.97	171.12	8.95	-38.2	-39.2	22.1	0.00e+00	90	28	0	152043520	50	5879
2026-01-17 00:43:55.97	171.15	9.03	-38.2	-39.2	22.1	0.00e+00	92	28	0	154140672	50	5883
2026-01-17 00:43:56.98	171.18	9.11	-38.1	-39.1	22.3	0.00e+00	92	28	0	156237824	50	5785
2026-01-17 00:43:57.99	171.21	9.20	-38.0	-39.0	22.3	0.00e+00	92	28	0	157286400	50	5757
2026-01-17 00:43:58.99	171.24	9.28	-37.9	-39.0	22.4	0.00e+00	92	28	0	159383552	50	5700
2026-01-17 00:44:00.00	171.27	9.36	-37.9	-39.0	22.4	0.00e+00	71	28	0	161480704	50	5702
2026-01-17 00:44:01.01	171.30	9.45	-37.9	-38.9	22.5	0.00e+00	92	28	0	163577856	50	5660
2026-01-17 00:44:02.02	171.33	9.53	-37.8	-38.9	22.6	0.00e+00	0	28	0	165675008	50	5631
2026-01-17 00:44:03.03	171.36	9.62	-37.9	-38.9	22.4	0.00e+00	92	28	0	166723584	50	5644
2026-01-17 00:44:04.04	171.39	9.71	-37.7	-38.7	22.7	0.00e+00	92	28	0	168820736	48	6207
2026-01-17 00:44:05.04	171.42	9.79	-37.8	-38.8	22.6	0.00e+00	92	28	0	170917888	48	6278
2026-01-17 00:44:06.05	171.45	9.88	-37.6	-38.5	22.9	0.00e+00	91	28	0	173015040	48	6092
2026-01-17 00:44:07.06	171.49	9.96	-37.7	-38.6	22.7	0.00e+00	91	28	0	175112192	48	6160
2026-01-17 00:44:08.07	171.52	10.05	-37.6	-38.6	22.8	0.00e+00	90	28	0	176160768	48	6110
2026-01-17 00:44:09.08	171.55	10.14	-37.8	-38.8	22.7	0.00e+00	0	28	0	178257920	48	6267
2026-01-17 00:44:10.09	171.58	10.23	-37.6	-38.6	22.8	0.00e+00	92	28	0	180355072	48	6134
2026-01-17 00:44:11.10	171.61	10.31	-37.5	-38.5	22.9	0.00e+00	92	28	0	182452224	48	6055
2026-01-17 00:44:12.11	171.65	10.40	-37.5	-38.4	22.9	0.00e+00	92	28	0	184549376	48	6023
2026-01-17 00:44:13.12	171.68	10.49	-37.4	-38.4	23.0	0.00e+00	92	28	0	185597952	48	5980
2026-01-17 00:44:14.12	171.71	10.58	-37.5	-38.5	22.9	0.00e+00	92	28	0	187695104	48	6042
2026-01-17 00:44:15.13	171.74	10.67	-37.5	-38.4	23.0	0.00e+00	92	28	0	189792256	48	6028
2026-01-17 00:44:16.14	171.78	10.76	-37.5	-38.4	22.9	0.00e+00	8	28	0	191889408	48	6013
2026-01-17 00:44:17.15	171.81	10.85	-37.4	-38.4	23.0	0.00e+00	92	28	0	193986560	48	5980
2026-01-17 00:44:18.15	171.84	10.93	-37.6	-38.5	22.8	0.00e+00	0	28	0	195035136	48	6085
2026-01-17 00:44:19.17	171.88	11.03	-37.4	-38.4	23.1	0.00e+00	92	28	0	197132288	48	5965
2026-01-17 00:44:20.17	171.91	11.12	-37.4	-38.3	23.1	0.00e+00	90	28	0	199229440	48	5964
2026-01-17 00:44:21.18	171.95	11.21	-37.4	-38.3	23.1	0.00e+00	90	28	0	201326592	48	5919
2026-01-17 00:44:22.19	171.98	11.30	-37.2	-38.1	23.3	0.00e+00	91	28	0	203423744	48	5800
2026-01-17 00:44:23.20	172.02	11.39	-37.2	-38.1	23.3	0.00e+00	71	28	0	205520896	48	5786
2026-01-17 00:44:24.21	172.05	11.48	-37.2	-38.1	23.3	0.00e+00	92	28	0	206569472	48	5791
2026-01-17 00:44:25.22	172.08	11.57	-37.3	-38.2	23.2	0.00e+00	0	28	0	208666624	48	5861
2026-01-17 00:44:26.23	172.12	11.67	-37.3	-38.2	23.2	0.00e+00	92	28	0	210763776	48	5871
2026-01-17 00:44:27.24	172.16	11.76	-37.3	-38.2	23.2	0.00e+00	90	28	0	212860928	48	5873
2026-01-17 00:44:28.25	172.19	11.85	-37.2	-38.2	23.3	0.00e+00	92	29	0	214958080	48	5838
2026-01-17 00:44:29.25	172.23	11.94	-37.2	-38.1	23.3	0.00e+00	90	28	0	216006656	48	5803
2026-01-17 00:44:30.26	172.26	12.04	-37.1	-38.0	23.4	0.00e+00	92	28	0	218103808	48	5760
2026-01-17 00:44:31.27	172.30	12.13	-37.2	-38.1	23.4	0.00e+00	90	28	0	220200960	48	5782
2026-01-17 00:44:32.28	172.33	12.23	-37.3	-38.2	23.3	0.00e+00	7	29	0	222298112	48	5855
2026-01-17 00:44:33.29	172.37	12.32	-37.0	-37.9	23.5	0.00e+00	92	29	0	224395264	48	5694
2026-01-17 00:44:34.29	172.41	12.42	-37.0	-37.9	23.5	0.00e+00	92	28	0	225443840	48	5685
2026-01-17 00:44:35.30	172.44	12.51	-37.1	-38.0	23.4	0.00e+00	92	28	0	227540992	48	5761
2026-01-17 00:44:36.31	172.48	12.61	-37.1	-38.1	23.3	0.00e+00	92	28	0	229638144	48	5767
2026-01-17 00:44:37.32	172.52	12.71	-37.0	-37.9	23.6	0.00e+00	90	29	0	231735296	48	5635
2026-01-17 00:44:38.33	172.56	12.80	-37.1	-38.0	23.5	0.00e+00	92	29	0	233832448	48	5717
2026-01-17 00:44:39.34	172.59	12.90	-37.3	-38.2	23.3	0.00e+00	7	29	0	234881024	48	5858
2026-01-17 00:44:40.35	172.63	13.00	-37.2	-38.1	23.5	0.00e+00	92	29	0	236978176	48	5796
2026-01-17 00:44:41.36	172.67	13.10	-36.9	-37.8	23.7	0.00e+00	69	28	0	239075328	48	5586
2026-01-17 00:44:42.37	172.71	13.19	-37.0	-37.9	23.6	0.00e+00	92	29	0	241172480	48	5644
2026-01-17 00:44:43.38	172.75	13.29	-36.9	-37.8	23.6	0.00e+00	92	29	0	243269632	48	5608
2026-01-17 00:44:44.39	172.79	13.39	-36.9	-37.8	23.7	0.00e+00	91	29	0	244318208	48	5622
2026-01-17 00:44:45.39	172.83	13.49	-37.0	-37.9	23.6	0.00e+00	92	29	0	246415360	48	5647
2026-01-17 00:44:46.40	172.87	13.59	-36.8	-37.7	23.8	0.00e+00	84	29	0	248512512	48	5510
2026-01-17 00:44:47.41	172.91	13.69	-36.9	-37.8	23.6	0.00e+00	92	29	0	250609664	48	5589
2026-01-17 00:44:48.42	172.95	13.79	-37.0	-37.9	23.5	0.00e+00	0	28	0	252706816	48	5673
2026-01-17 00:44:49.43	172.99	13.89	-37.0	-37.8	23.7	0.00e+00	92	29	0	253755392	48	5628
2026-01-17 00:44:50.44	173.03	14.00	-36.8	-37.7	23.8	0.00e+00	90	29	0	255852544	48	5526
2026-01-17 00:44:51.45	173.07	14.10	-36.9	-37.7	23.7	0.00e+00	92	29	0	257949696	48	5559
2026-01-17 00:44:52.46	173.11	14.20	-37.1	-38.0	23.5	0.00e+00	92	29	0	260046848	48	5709
2026-01-17 00:44:53.47	173.15	14.30	-36.9	-37.8	23.7	0.00e+00	92	29	0	262144000	48	5603
2026-01-17 00:44:54.47	173.19	14.41	-37.0	-37.9	23.6	0.00e+00	92	29	0	263192576	48	5671
2026-01-17 00:44:55.48	173.23	14.51	-37.0	-37.9	23.6	0.00e+00	0	29	0	265289728	48	5676
2026-01-17 00:44:56.49	173.28	14.61	-37.0	-37.9	23.7	0.00e+00	90	29	0	267386880	48	5635
2026-01-17 00:44:57.50	173.32	14.72	-37.0	-37.9	23.7	0.00e+00	95	29	0	269484032	48	5658
2026-01-17 00:44:58.51	173.36	14.82	-37.0	-37.9	23.6	0.00e+00	92	29	0	271581184	48	5691
2026-01-17 00:44:59.52	173.40	14.93	-37.2	-38.1	23.5	0.00e+00	92	29	0	272629760	48	5762
2026-01-17 00:45:00.52	173.45	15.03	-37.3	-38.2	23.5	0.00e+00	90	29	0	274726912	48	5849
2026-01-17 00:45:01.53	173.49	15.14	-37.2	-38.1	23.4	0.00e+00	90	29	0	276824064	48	5804
2026-01-17 00:45:02.54	173.53	15.25	-37.4	-38.3	23.3	0.00e+00	11	29	0	278921216	48	5932
2026-01-17 00:45:03.55	173.58	15.35	-37.3	-38.3	23.3	0.00e+00	92	29	0	281018368	48	5900
2026-01-17 00:45:04.56	173.62	15.46	-37.3	-38.2	23.5	0.00e+00	29	29	0	282066944	48	5879
2026-01-17 00:45:05.57	173.67	15.57	-37.3	-38.3	23.3	0.00e+00	92	29	0	284164096	48	5910
2026-01-17 00:45:06.58	173.71	15.68	-37.5	-38.4	23.2	0.00e+00	92	29	0	286261248	48	6015
2026-01-17 00:45:07.59	173.76	15.79	-37.6	-38.5	23.2	0.00e+00	92	29	0	288358400	48	6083
2026-01-17 00:45:08.60	173.80	15.90	-37.7	-38.7	23.0	0.00e+00	90	29	0	290455552	48	6203
2026-01-17 00:45:09.61	173.85	16.01	-37.6	-38.6	23.1	0.00e+00	92	29	0	291504128	48	6110
2026-01-17 00:45:10.62	173.89	16.12	-37.6	-38.5	23.2	0.00e+00	92	29	0	293601280	48	6070
2026-01-17 00:45:11.63	173.94	16.23	-37.5	-38.5	23.2	0.00e+00	27	29	0	295698432	48	6053
2026-01-17 00:45:12.64	173.99	16.34	-37.5	-38.5	23.2	0.00e+00	92	29	0	297795584	48	6049
2026-01-17 00:45:13.65	174.03	16.45	-37.7	-38.6	23.1	0.00e+00	92	29	0	299892736	48	6152
2026-01-17 00:45:14.66	174.08	16.57	-37.8	-38.7	23.0	0.00e+00	92	29	0	301989888	48	6225
2026-01-17 00:45:15.66	174.13	16.68	-37.7	-38.6	23.1	0.00e+00	90	29	0	303038464	48	6144
2026-01-17 00:45:16.67	174.18	16.79	-37.8	-38.7	23.0	0.00e+00	91	29	0	305135616	48	6230
2026-01-17 00:45:17.68	174.23	16.91	-37.7	-38.6	23.0	0.00e+00	92	29	0	307232768	48	6164
2026-01-17 00:45:18.69	174.27	17.02	-37.8	-38.7	23.1	0.00e+00	0	29	0	309329920	48	6235
2026-01-17 00:45:19.70	174.32	17.14	-37.8	-38.8	22.9	0.00e+00	92	29	0	311427072	48	6251
2026-01-17 00:45:20.70	174.37	17.25	-37.7	-38.6	23.1	0.00e+00	76	29	0	312475648	48	6171
2026-01-17 00:45:21.71	174.42	17.37	-37.7	-38.6	23.2	0.00e+00	90	29	0	314572800	48	6162
2026-01-17 00:45:22.72	174.47	17.48	-37.6	-38.5	23.2	0.00e+00	92	29	0	316669952	48	6076
2026-01-17 00:45:23.73	174.52	17.60	-37.7	-38.7	23.0	0.00e+00	14	29	0	318767104	48	6204
2026-01-17 00:45:24.74	174.57	17.72	-37.9	-38.9	22.9	0.00e+00	92	29	0	320864256	48	6346
2026-01-17 00:45:25.75	174.63	17.84	-37.7	-38.6	23.1	0.00e+00	6	29	0	321912832	48	6165
2026-01-17 00:45:26.76	174.68	17.96	-37.7	-38.6	23.2	0.00e+00	92	29	0	324009984	48	6127
2026-01-17 00:45:27.77	174.73	18.07	-37.6	-38.5	23.2	0.00e+00	18	29	0	326107136	48	6087
2026-01-17 00:45:28.78	174.78	18.19	-37.6	-38.6	23.2	0.00e+00	92	29	0	328204288	48	6119
2026-01-17 00:45:29.79	174.83	18.32	-37.7	-38.6	23.2	0.00e+00	91	29	0	330301440	48	6150
2026-01-17 00:45:30.80	174.89	18.44	-37.6	-38.6	23.1	0.00e+00	90	29	0	331350016	48	6120
2026-01-17 00:45:31.81	174.94	18.56	-37.7	-38.7	23.1	0.00e+00	91	29	0	333447168	48	6181
2026-01-17 00:45:32.82	174.99	18.68	-37.7	-38.6	23.2	0.00e+00	92	29	0	335544320	48	6164
2026-01-17 00:45:33.83	175.05	18.80	-37.6	-38.5	23.2	0.00e+00	90	29	0	337641472	48	6092
2026-01-17 00:45:34.84	175.10	18.93	-37.7	-38.7	23.2	0.00e+00	0	29	0	339738624	48	6181
2026-01-17 00:45:35.84	175.16	19.05	-37.8	-38.7	23.0	0.00e+00	92	29	0	340787200	48	6236
2026-01-17 00:45:36.85	175.21	19.18	-38.0	-39.0	23.0	0.00e+00	92	29	0	342884352	48	6426
2026-01-17 00:45:37.86	175.27	19.30	-37.7	-38.7	23.1	0.00e+00	90	29	0	344981504	48	6183
2026-01-17 00:45:38.87	175.33	19.43	-37.7	-38.7	23.1	0.00e+00	92	29	0	347078656	48	6185
2026-01-17 00:45:39.88	175.38	19.55	-37.7	-38.6	23.2	0.00e+00	0	29	0	349175808	48	6166
2026-01-17 00:45:40.88	175.44	19.68	-37.8	-38.7	23.1	0.00e+00	91	29	0	350224384	48	6206
2026-01-17 00:45:41.89	175.50	19.81	-37.9	-38.8	23.0	0.00e+00	7	29	0	352321536	48	6296
2026-01-17 00:45:42.90	175.56	19.94	-37.8	-38.8	23.0	0.00e+00	92	29	0	354418688	48	6264
2026-01-17 00:45:43.91	175.62	20.06	-38.0	-38.9	22.9	0.00e+00	87	29	0	356515840	48	6380
2026-01-17 00:45:44.92	175.67	20.19	-38.0	-38.9	22.8	0.00e+00	90	29	0	358612992	48	6374
2026-01-17 00:45:45.93	175.73	20.32	-37.7	-38.7	23.1	0.00e+00	95	29	0	359661568	48	6186
2026-01-17 00:45:46.93	175.79	20.45	-37.9	-38.9	22.9	0.00e+00	92	29	0	361758720	48	6343
2026-01-17 00:45:47.94	175.85	20.59	-37.9	-38.9	22.9	0.00e+00	92	29	0	363855872	48	6360
2026-01-17 00:45:48.95	175.92	20.72	-37.9	-38.9	22.9	0.00e+00	69	29	0	365953024	48	6359
2026-01-17 00:45:49.96	175.98	20.85	-37.9	-38.9	22.9	0.00e+00	90	29	0	368050176	48	6329
2026-01-17 00:45:50.97	176.04	20.99	-37.9	-38.9	23.0	0.00e+00	8	29	0	369098752	48	6346
2026-01-17 00:45:51.98	176.10	21.12	-37.9	-38.8	23.0	0.00e+00	92	29	0	371195904	48	6303
2026-01-17 00:45:52.99	176.17	21.25	-37.9	-38.9	22.9	0.00e+00	92	29	0	373293056	48	6353
2026-01-17 00:45:54.00	176.23	21.39	-38.0	-39.0	22.8	0.00e+00	91	29	0	375390208	48	6432
2026-01-17 00:45:55.01	176.29	21.53	-37.9	-38.8	23.1	0.00e+00	92	29	0	377487360	48	6303
2026-01-17 00:45:56.01	176.36	21.66	-37.9	-38.9	23.0	0.00e+00	82	29	0	378535936	48	6356
2026-01-17 00:45:57.02	176.42	21.80	-37.9	-38.8	23.0	0.00e+00	91	29	0	380633088	48	6314
2026-01-17 00:45:58.03	176.49	21.94	-37.9	-38.9	23.0	0.00e+00	0	29	0	382730240	48	6356
2026-01-17 00:45:59.04	176.55	22.08	-37.9	-38.9	23.0	0.00e+00	91	29	0	384827392	48	6329
2026-01-17 00:46:00.05	176.62	22.22	-37.9	-38.8	23.0	0.00e+00	92	29	0	386924544	48	6313
2026-01-17 00:46:01.06	176.69	22.36	-37.8	-38.7	23.1	0.00e+00	91	29	0	387973120	48	6237
2026-01-17 00:46:02.07	176.76	22.50	-37.9	-38.9	23.0	0.00e+00	90	29	0	390070272	48	6328
2026-01-17 00:46:03.07	176.83	22.64	-37.8	-38.7	23.2	0.00e+00	34	29	0	392167424	48	6222
2026-01-17 00:46:04.08	176.89	22.79	-37.8	-38.7	23.2	0.00e+00	92	29	0	394264576	48	6232
2026-01-17 00:46:05.09	176.96	22.93	-37.7	-38.7	23.2	0.00e+00	57	29	0	396361728	48	6201
2026-01-17 00:46:06.10	177.03	23.07	-37.8	-38.8	23.1	0.00e+00	92	29	0	398458880	48	6259
2026-01-17 00:46:07.11	177.11	23.22	-37.7	-38.7	23.2	0.00e+00	87	29	0	399507456	48	6204
2026-01-17 00:46:08.12	177.18	23.37	-37.8	-38.7	23.1	0.00e+00	92	29	0	401604608	48	6240
2026-01-17 00:46:09.13	177.25	23.51	-37.7	-38.7	23.1	0.00e+00	92	29	0	403701760	48	6184
2026-01-17 00:46:10.14	177.32	23.66	-37.8	-38.7	23.2	0.00e+00	90	29	0	405798912	48	6207
2026-01-17 00:46:11.15	177.40	23.81	-37.8	-38.7	23.2	0.00e+00	90	29	0	407896064	48	6242
2026-01-17 00:46:12.16	177.47	23.96	-37.8	-38.8	23.1	0.00e+00	12	29	0	408944640	48	6253
2026-01-17 00:46:13.17	177.55	24.11	-37.8	-38.7	23.2	0.00e+00	92	29	0	411041792	48	6204
2026-01-17 00:46:14.17	177.62	24.26	-37.6	-38.5	23.3	0.00e+00	0	29	0	413138944	48	6099
2026-01-17 00:46:15.18	177.70	24.41	-37.7	-38.6	23.3	0.00e+00	92	29	0	415236096	48	6166
2026-01-17 00:46:16.19	177.77	24.56	-37.5	-38.4	23.4	0.00e+00	90	29	0	417333248	48	5993
2026-01-17 00:46:17.20	177.85	24.72	-37.6	-38.5	23.4	0.00e+00	90	29	0	418381824	48	6090
2026-01-17 00:46:18.20	177.93	24.87	-37.6	-38.5	23.4	0.00e+00	92	29	0	420478976	48	6078
2026-01-17 00:46:19.21	178.01	25.02	-37.6	-38.6	23.3	0.00e+00	35	29	0	422576128	48	6123
2026-01-17 00:46:20.22	178.09	25.18	-37.6	-38.5	23.3	0.00e+00	92	29	0	424673280	48	6095
2026-01-17 00:46:21.23	178.17	25.34	-37.7	-38.7	23.0	0.00e+00	77	29	0	426770432	48	6180
2026-01-17 00:46:22.24	178.25	25.49	-37.6	-38.5	23.4	0.00e+00	92	29	0	427819008	48	6081
2026-01-17 00:46:23.25	178.33	25.65	-37.7	-38.6	23.3	0.00e+00	92	29	0	429916160	48	6151
2026-01-17 00:46:24.26	178.42	25.81	-37.9	-38.8	23.1	0.00e+00	92	29	0	432013312	48	6284
2026-01-17 00:46:25.27	178.50	25.97	-37.9	-38.9	23.2	0.00e+00	90	29	0	434110464	48	6347
2026-01-17 00:46:26.28	178.59	26.13	-37.8	-38.8	23.2	0.00e+00	92	29	0	436207616	48	6258
2026-01-17 00:46:27.29	178.67	26.30	-37.9	-38.8	23.1	0.00e+00	90	29	0	437256192	48	6288
2026-01-17 00:46:28.29	178.76	26.46	-37.8	-38.8	23.1	0.00e+00	7	29	0	439353344	48	6270
2026-01-17 00:46:29.30	178.84	26.62	-37.9	-38.9	23.1	0.00e+00	92	29	0	441450496	48	6331
2026-01-17 00:46:30.31	178.93	26.79	-37.8	-38.7	23.3	0.00e+00	0	29	0	443547648	48	6201
2026-01-17 00:46:31.32	179.02	26.95	-37.3	-38.2	23.7	0.00e+00	92	29	0	445644800	48	5888
2026-01-17 00:46:32.33	179.11	27.12	-37.5	-38.4	23.5	0.00e+00	90	29	0	446693376	48	5985
2026-01-17 00:46:33.34	179.20	27.29	-37.2	-38.0	23.8	0.00e+00	92	29	0	448790528	48	5754
2026-01-17 00:46:34.35	179.29	27.46	-37.2	-38.1	23.8	0.00e+00	90	29	0	450887680	48	5777
2026-01-17 00:46:35.36	179.39	27.63	-37.1	-37.9	23.9	0.00e+00	0	29	0	452984832	48	5679
2026-01-17 00:46:36.36	179.48	27.80	-37.1	-38.0	23.9	0.00e+00	90	29	0	455081984	48	5697
2026-01-17 00:46:37.37	179.57	27.97	-37.2	-38.1	23.8	0.00e+00	0	29	0	456130560	48	5775
2026-01-17 00:46:38.38	179.67	28.14	-37.1	-38.0	23.8	0.00e+00	90	29	0	458227712	48	5706
2026-01-17 00:46:39.39	179.76	28.31	-37.3	-38.1	23.7	0.00e+00	92	29	0	460324864	48	5825
2026-01-17 00:46:40.40	179.86	28.49	-37.4	-38.2	23.6	0.00e+00	90	29	0	462422016	48	5893
2026-01-17 00:46:41.41	179.96	28.66	-37.5	-38.4	23.5	0.00e+00	92	29	0	464519168	48	5966
2026-01-17 00:46:42.42	180.06	28.84	-37.5	-38.4	23.5	0.00e+00	92	29	0	465567744	48	5988
2026-01-17 00:46:43.42	180.16	29.02	-37.7	-38.7	23.2	0.00e+00	92	29	0	467664896	48	6197
2026-01-17 00:46:44.43	180.26	29.20	-37.8	-38.7	23.2	0.00e+00	71	29	0	469762048	48	6215
2026-01-17 00:46:45.44	180.36	29.38	-38.0	-38.9	23.1	0.00e+00	92	29	0	471859200	48	6364
2026-01-17 00:46:46.45	180.47	29.56	-38.2	-39.2	22.8	0.00e+00	10	29	0	473956352	48	6580
2026-01-17 00:46:47.46	180.57	29.74	-38.3	-39.3	22.8	0.00e+00	92	29	0	475004928	48	6661
2026-01-17 00:46:48.47	180.68	29.92	-38.4	-39.4	22.7	0.00e+00	90	29	0	477102080	48	6727
2026-01-17 00:46:49.48	180.79	30.11	-38.6	-39.6	22.4	0.00e+00	92	29	0	479199232	48	6901
2026-01-17 00:46:50.49	180.90	30.29	-38.8	-39.9	22.2	0.00e+00	92	29	0	481296384	50	6344
2026-01-17 00:46:51.50	181.01	30.48	-39.1	-40.2	21.9	0.00e+00	0	29	0	483393536	50	6547
2026-01-17 00:46:52.51	181.12	30.67	-38.9	-40.0	22.1	0.00e+00	90	29	0	484442112	50	6415
2026-01-17 00:46:53.52	181.23	30.85	-39.0	-40.1	22.1	0.00e+00	0	29	0	486539264	50	6470
2026-01-17 00:46:54.53	181.34	31.04	-38.9	-40.0	22.1	0.00e+00	91	29	0	488636416	50	6407
2026-01-17 00:46:55.54	181.46	31.23	-39.0	-40.1	22.0	0.00e+00	92	29	0	490733568	50	6490
2026-01-17 00:46:56.55	181.57	31.43	-39.1	-40.2	21.9	0.00e+00	92	29	0	492830720	50	6586
2026-01-17 00:46:57.55	181.69	31.62	-39.0	-40.1	22.0	0.00e+00	90	29	0	494927872	50	6492
2026-01-17 00:46:58.56	181.81	31.81	-39.0	-40.1	22.0	0.00e+00	9	29	0	495976448	50	6468
2026-01-17 00:46:59.57	181.93	32.01	-39.1	-40.1	22.0	0.00e+00	90	29	0	498073600	50	6537
2026-01-17 00:47:00.58	182.05	32.20	-39.1	-40.2	21.9	0.00e+00	7	29	0	500170752	50	6540
2026-01-17 00:47:01.59	182.17	32.40	-39.3	-40.4	21.8	0.00e+00	92	29	0	502267904	50	6735
2026-01-17 00:47:02.60	182.30	32.60	-39.2	-40.2	21.9	0.00e+00	92	29	0	504365056	50	6595
2026-01-17 00:47:03.61	182.42	32.80	-39.3	-40.4	21.8	0.00e+00	92	29	0	505413632	50	6752
2026-01-17 00:47:04.62	182.55	33.00	-39.3	-40.4	21.8	0.00e+00	92	29	0	507510784	50	6707
2026-01-17 00:47:05.63	182.68	33.20	-39.1	-40.2	21.8	0.00e+00	92	29	0	509607936	50	6567
2026-01-17 00:47:06.64	182.81	33.41	-39.0	-40.1	22.0	0.00e+00	90	29	0	511705088	50	6470
2026-01-17 00:47:07.65	182.94	33.61	-38.8	-39.8	22.3	0.00e+00	71	29	0	513802240	50	6264
2026-01-17 00:47:08.66	183.08	33.82	-38.7	-39.7	22.4	0.00e+00	90	29	0	514850816	50	6190
2026-01-17 00:47:09.66	183.21	34.02	-38.7	-39.7	22.4	0.00e+00	82	29	0	516947968	50	6233
2026-01-17 00:47:10.67	183.35	34.23	-38.6	-39.7	22.4	0.00e+00	92	29	0	519045120	50	6177
2026-01-17 00:47:11.68	183.49	34.44	-38.7	-39.8	22.3	0.00e+00	92	29	0	521142272	50	6250
2026-01-17 00:47:12.69	183.63	34.65	-38.9	-40.0	22.1	0.00e+00	90	29	0	523239424	50	6393
2026-01-17 00:47:13.70	183.77	34.87	-39.1	-40.2	22.0	0.00e+00	92	29	0	524288000	50	6542
2026-01-17 00:47:14.71	183.91	35.08	-39.1	-40.2	22.0	0.00e+00	2	29	0	526385152	50	6543
2026-01-17 00:47:15.72	184.06	35.29	-39.2	-40.2	21.9	0.00e+00	92	30	0	528482304	50	6614
2026-01-17 00:47:16.73	184.21	35.51	-39.1	-40.1	22.0	0.00e+00	0	29	0	530579456	50	6516
2026-01-17 00:47:17.74	184.36	35.73	-39.1	-40.2	21.9	0.00e+00	92	30	0	532676608	50	6594
2026-01-17 00:47:18.75	184.51	35.95	-39.2	-40.3	21.9	0.00e+00	92	30	0	533725184	50	6620
2026-01-17 00:47:19.76	184.66	36.17	-39.2	-40.3	21.8	0.00e+00	92	30	0	535822336	50	6673
2026-01-17 00:47:20.77	184.82	36.39	-39.3	-40.4	21.7	0.00e+00	92	30	0	537919488	50	6707
2026-01-17 00:47:21.78	184.98	36.61	-39.6	-40.7	21.4	0.00e+00	11	30	0	540016640	50	6999
2026-01-17 00:47:22.78	185.13	36.83	-39.9	-41.1	21.2	0.00e+00	90	29	0	542113792	52	6484
2026-01-17 00:47:23.80	185.30	37.06	-40.1	-41.3	21.0	0.00e+00	0	30	0	543162368	52	6645
2026-01-17 00:47:24.80	185.46	37.28	-40.3	-41.5	20.8	0.00e+00	90	30	0	545259520	52	6808
2026-01-17 00:47:25.81	185.63	37.51	-40.4	-41.7	20.6	0.00e+00	75	29	0	547356672	52	6928
2026-01-17 00:47:26.82	185.80	37.74	-40.3	-41.6	20.7	0.00e+00	92	29	0	549453824	52	6852
2026-01-17 00:47:27.83	185.97	37.97	-40.1	-41.3	20.8	0.00e+00	92	30	0	551550976	52	6684
2026-01-17 00:47:28.84	186.14	38.20	-40.3	-41.5	20.8	0.00e+00	92	30	0	552599552	52	6802
2026-01-17 00:47:29.85	186.32	38.43	-40.4	-41.6	20.8	0.00e+00	90	30	0	554696704	52	6925
2026-01-17 00:47:30.86	186.49	38.67	-40.3	-41.6	20.8	0.00e+00	7	30	0	556793856	52	6855
2026-01-17 00:47:31.87	186.68	38.90	-40.3	-41.6	20.7	0.00e+00	92	30	0	558891008	52	6865
2026-01-17 00:47:32.88	186.86	39.14	-40.3	-41.5	20.7	0.00e+00	81	30	0	560988160	52	6836
2026-01-17 00:47:33.88	187.04	39.37	-40.8	-42.1	20.4	0.00e+00	90	30	0	563085312	52	7293
2026-01-17 00:47:34.89	187.23	39.61	-40.8	-42.1	20.2	0.00e+00	92	30	0	564133888	54	6487
2026-01-17 00:47:35.90	187.42	39.85	-41.0	-42.4	19.9	0.00e+00	90	30	0	566231040	54	6739
2026-01-17 00:47:36.91	187.62	40.10	-41.0	-42.4	19.9	0.00e+00	91	30	0	568328192	54	6722
2026-01-17 00:47:37.92	187.82	40.34	-40.8	-42.1	20.2	0.00e+00	0	30	0	570425344	54	6532
2026-01-17 00:47:38.93	188.02	40.58	-40.6	-41.9	20.3	0.00e+00	92	30	0	572522496	54	6386
2026-01-17 00:47:39.94	188.22	40.83	-40.4	-41.6	20.7	0.00e+00	14	30	0	573571072	54	6146
2026-01-17 00:47:40.95	188.42	41.08	-40.3	-41.5	20.8	0.00e+00	92	30	0	575668224	54	6054
2026-01-17 00:47:41.95	188.63	41.32	-40.2	-41.4	20.8	0.00e+00	92	30	0	577765376	54	5987
2026-01-17 00:47:42.96	188.84	41.57	-40.1	-41.3	20.9	0.00e+00	92	30	0	579862528	54	5956
2026-01-17 00:47:43.97	189.06	41.82	-40.4	-41.6	20.7	0.00e+00	92	30	0	580911104	54	6128
2026-01-17 00:47:44.98	189.28	42.08	-39.7	-40.8	21.5	0.00e+00	67	30	0	583008256	54	5585
2026-01-17 00:47:45.99	189.50	42.33	-39.6	-40.7	21.5	0.00e+00	92	30	0	585105408	52	6244
2026-01-17 00:47:47.00	189.73	42.58	-39.5	-40.6	21.6	0.00e+00	7	30	0	587202560	52	6128
2026-01-17 00:47:48.00	189.95	42.84	-39.3	-40.4	21.9	0.00e+00	92	30	0	589299712	52	6016
2026-01-17 00:47:49.02	190.19	43.10	-39.1	-40.2	22.0	0.00e+00	92	30	0	591396864	52	5859
2026-01-17 00:47:50.02	190.42	43.35	-39.3	-40.3	21.9	0.00e+00	90	30	0	592445440	52	5963
2026-01-17 00:47:51.03	190.66	43.61	-39.5	-40.7	21.7	0.00e+00	92	30	0	594542592	52	6190
2026-01-17 00:47:52.04	190.91	43.87	-39.4	-40.6	21.6	0.00e+00	90	30	0	596639744	52	6105
2026-01-17 00:47:53.05	191.16	44.14	-39.3	-40.3	21.9	0.00e+00	92	30	0	598736896	52	5956
2026-01-17 00:47:54.06	191.41	44.40	-39.2	-40.2	22.0	0.00e+00	7	30	0	600834048	52	5895
2026-01-17 00:47:55.07	191.67	44.66	-39.2	-40.3	21.9	0.00e+00	92	30	0	601882624	52	5913
2026-01-17 00:47:56.08	191.93	44.93	-39.6	-40.7	21.5	0.00e+00	91	30	0	603979776	52	6192
2026-01-17 00:47:57.09	192.19	45.20	-39.7	-40.9	21.3	0.00e+00	92	30	0	606076928	52	6354
2026-01-17 00:47:58.09	192.46	45.46	-40.1	-41.3	20.9	0.00e+00	92	30	0	608174080	52	6639
2026-01-17 00:47:59.10	192.73	45.73	-40.2	-41.4	20.8	0.00e+00	92	30	0	610271232	52	6762
2026-01-17 00:48:00.11	193.01	46.00	-40.3	-41.5	20.8	0.00e+00	90	30	0	611319808	52	6814
2026-01-17 00:48:01.11	193.29	46.27	-40.0	-41.2	21.2	0.00e+00	8	30	0	613416960	52	6547
2026-01-17 00:48:02.12	193.58	46.54	-39.9	-41.0	21.2	0.00e+00	92	30	0	615514112	52	6460
2026-01-17 00:48:03.13	193.87	46.81	-39.5	-40.6	21.6	0.00e+00	7	30	0	617611264	52	6157
2026-01-17 00:48:04.14	194.17	47.09	-39.0	-40.0	22.1	0.00e+00	92	30	0	619708416	52	5740
2026-01-17 00:48:05.15	194.47	47.36	-39.0	-40.0	22.1	0.00e+00	92	30	0	620756992	52	5739
2026-01-17 00:48:06.16	194.78	47.64	-39.3	-40.4	21.8	0.00e+00	92	30	0	622854144	52	6008
2026-01-17 00:48:07.17	195.10	47.92	-39.4	-40.4	21.7	0.00e+00	92	30	0	624951296	52	6025
2026-01-17 00:48:08.18	195.42	48.19	-39.6	-40.7	21.6	0.00e+00	90	30	0	627048448	52	6198
2026-01-17 00:48:09.19	195.74	48.47	-39.5	-40.7	21.6	0.00e+00	92	30	0	629145600	52	6189
2026-01-17 00:48:10.20	196.07	48.75	-39.2	-40.3	22.0	0.00e+00	0	30	0	630194176	52	5961
2026-01-17 00:48:11.21	196.41	49.03	-38.9	-40.0	22.3	0.00e+00	92	30	0	632291328	52	5731
2026-01-17 00:48:12.22	196.75	49.31	-38.0	-39.0	23.1	0.00e+00	27	30	0	634388480	50	5737
2026-01-17 00:48:13.23	197.10	49.59	-37.6	-38.5	23.5	0.00e+00	92	30	0	636485632	48	6095
2026-01-17 00:48:14.24	197.46	49.88	-37.2	-38.1	23.8	0.00e+00	92	30	0	638582784	48	5816
2026-01-17 00:48:15.25	197.82	50.16	-36.5	-37.3	24.5	0.00e+00	92	30	0	639631360	46	5950
2026-01-17 00:48:16.26	198.19	50.44	-36.4	-37.2	24.5	0.00e+00	92	30	0	641728512	46	5896
2026-01-17 00:48:17.27	198.57	50.73	-36.4	-37.2	24.6	0.00e+00	0	30	0	643825664	46	5864
2026-01-17 00:48:18.28	198.95	51.01	-36.5	-37.3	24.5	0.00e+00	92	30	0	645922816	46	5911
2026-01-17 00:48:19.29	199.34	51.29	-36.0	-36.8	24.9	0.00e+00	0	30	0	648019968	46	5630
2026-01-17 00:48:20.30	199.74	51.58	-35.9	-36.7	25.1	0.00e+00	92	30	0	649068544	46	5509
2026-01-17 00:48:21.30	200.14	51.86	-35.3	-36.0	25.5	0.00e+00	92	30	0	651165696	44	5760
2026-01-17 00:48:22.31	200.56	52.15	-34.8	-35.6	25.8	0.00e+00	92	30	0	653262848	44	5462
2026-01-17 00:48:23.32	200.98	52.43	-34.7	-35.5	25.9	0.00e+00	92	30	0	655360000	42	6053
2026-01-17 00:48:24.33	201.41	52.72	-34.5	-35.3	26.1	0.00e+00	27	30	0	657457152	42	5910
2026-01-17 00:48:25.34	201.84	53.00	-34.3	-35.0	26.3	0.00e+00	92	30	0	659554304	42	5750
2026-01-17 00:48:26.35	202.29	53.29	-34.6	-35.3	26.2	0.00e+00	0	30	0	660602880	42	5950
2026-01-17 00:48:27.36	202.75	53.57	-34.7	-35.4	26.1	0.00e+00	90	30	0	662700032	42	5999
2026-01-17 00:48:28.36	203.20	53.86	-34.6	-35.3	26.2	0.00e+00	92	30	0	664797184	42	5939
2026-01-17 00:48:29.37	203.68	54.14	-34.5	-35.2	26.2	0.00e+00	92	30	0	666894336	42	5861
2026-01-17 00:48:30.38	204.16	54.43	-34.7	-35.4	26.0	0.00e+00	92	30	0	668991488	42	6033
2026-01-17 00:48:31.39	204.65	54.71	-35.0	-35.7	25.9	0.00e+00	92	30	0	670040064	42	6235
2026-01-17 00:48:32.40	205.15	54.99	-35.5	-36.3	25.4	0.00e+00	92	30	0	672137216	42	6623
2026-01-17 00:48:33.40	205.66	55.27	-35.8	-36.6	25.1	0.00e+00	79	30	0	674234368	44	6127
2026-01-17 00:48:34.41	206.18	55.56	-36.0	-36.8	24.8	0.00e+00	92	30	0	676331520	44	6280
2026-01-17 00:48:35.42	206.71	55.84	-36.0	-36.8	24.8	0.00e+00	14	30	0	677380096	44	6281
2026-01-17 00:48:36.43	207.26	56.12	-36.6	-37.5	24.3	0.00e+00	92	30	0	679477248	44	6789
2026-01-17 00:48:37.44	207.81	56.40	-37.0	-37.9	24.0	0.00e+00	90	30	0	681574400	46	6321
2026-01-17 00:48:38.45	208.38	56.67	-37.6	-38.6	23.5	0.00e+00	56	30	0	683671552	46	6862
2026-01-17 00:48:39.46	208.95	56.95	-37.8	-38.7	23.2	0.00e+00	90	30	0	685768704	48	6225
2026-01-17 00:48:40.47	209.54	57.23	-38.0	-39.0	23.0	0.00e+00	68	30	0	687865856	48	6463
2026-01-17 00:48:41.48	210.14	57.50	-38.1	-39.1	22.9	0.00e+00	90	30	0	688914432	48	6494
2026-01-17 00:48:42.48	210.75	57.77	-38.2	-39.2	22.6	0.00e+00	0	30	0	691011584	48	6562
2026-01-17 00:48:43.49	211.37	58.04	-38.1	-39.0	22.9	0.00e+00	90	30	0	693108736	48	6453
2026-01-17 00:48:44.50	212.01	58.31	-38.3	-39.3	22.8	0.00e+00	92	30	0	695205888	48	6619
2026-01-17 00:48:45.51	212.66	58.57	-38.0	-39.0	23.0	0.00e+00	92	30	0	697303040	48	6420
2026-01-17 00:48:46.52	213.32	58.84	-38.1	-39.0	22.9	0.00e+00	92	30	0	698351616	48	6439
2026-01-17 00:48:47.53	214.00	59.10	-38.2	-39.2	22.7	0.00e+00	15	30	0	700448768	48	6595
2026-01-17 00:48:48.54	214.68	59.36	-38.4	-39.4	22.6	0.00e+00	92	30	0	702545920	48	6768
2026-01-17 00:48:49.55	215.39	59.61	-37.9	-38.9	23.1	0.00e+00	0	30	0	704643072	48	6330
2026-01-17 00:48:50.55	216.10	59.86	-37.3	-38.2	23.8	0.00e+00	91	30	0	706740224	48	5880
2026-01-17 00:48:51.56	216.83	60.11	-36.9	-37.8	24.2	0.00e+00	92	30	0	707788800	48	5580
2026-01-17 00:48:52.57	217.57	60.36	-36.7	-37.5	24.4	0.00e+00	92	30	0	709885952	46	6082
2026-01-17 00:48:53.58	218.33	60.60	-36.7	-37.5	24.4	0.00e+00	91	30	0	711983104	46	6102
2026-01-17 00:48:54.59	219.10	60.84	-36.3	-37.1	24.6	0.00e+00	92	30	0	714080256	46	5775
2026-01-17 00:48:55.60	219.89	61.08	-36.1	-36.9	24.9	0.00e+00	92	30	0	716177408	46	5692
2026-01-17 00:48:56.60	220.69	61.31	-36.1	-36.9	24.9	0.00e+00	10	30	0	717225984	46	5667
2026-01-17 00:48:57.61	221.50	61.54	-35.9	-36.7	25.1	0.00e+00	92	30	0	719323136	46	5503
2026-01-17 00:48:58.62	222.34	61.76	-35.7	-36.5	25.2	0.00e+00	2	30	0	721420288	46	5423
2026-01-17 00:48:59.63	223.18	61.98	-35.8	-36.6	25.0	0.00e+00	92	30	0	723517440	44	6133
2026-01-17 00:49:00.64	224.05	62.19	-36.0	-36.8	25.0	0.00e+00	90	30	0	725614592	44	6296
2026-01-17 00:49:01.65	224.92	62.40	-36.3	-37.1	24.7	0.00e+00	92	30	0	726663168	44	6482
2026-01-17 00:49:02.66	225.82	62.61	-36.1	-36.8	24.9	0.00e+00	91	30	0	728760320	44	6312
2026-01-17 00:49:03.66	226.71	62.81	-36.6	-37.5	24.5	0.00e+00	82	30	0	730857472	44	6787
2026-01-17 00:49:04.67	227.64	63.00	-36.9	-37.7	24.2	0.00e+00	92	30	0	732954624	46	6240
2026-01-17 00:49:05.68	228.57	63.19	-36.9	-37.8	24.2	0.00e+00	0	30	0	735051776	46	6247
2026-01-17 00:49:06.69	229.52	63.37	-36.4	-37.3	24.6	0.00e+00	90	30	0	736100352	46	5909
2026-01-17 00:49:07.70	230.49	63.55	-36.4	-37.2	24.6	0.00e+00	92	30	0	738197504	46	5852
2026-01-17 00:49:08.71	231.47	63.72	-36.4	-37.2	24.6	0.00e+00	92	30	0	740294656	46	5896
2026-01-17 00:49:09.72	232.46	63.88	-36.9	-37.8	24.0	0.00e+00	92	30	0	742391808	46	6296
2026-01-17 00:49:10.73	233.47	64.04	-37.4	-38.3	23.5	0.00e+00	9	30	0	744488960	46	6675
2026-01-17 00:49:11.74	234.49	64.19	-37.4	-38.3	23.7	0.00e+00	92	30	0	745537536	46	6637
2026-01-17 00:49:12.75	235.53	64.33	-37.4	-38.3	23.7	0.00e+00	1	30	0	747634688	46	6658
2026-01-17 00:49:13.76	236.57	64.46	-37.3	-38.2	23.9	0.00e+00	92	30	0	749731840	46	6583
2026-01-17 00:49:14.77	237.63	64.59	-36.9	-37.8	24.1	0.00e+00	92	30	0	751828992	46	6259
2026-01-17 00:49:15.78	238.70	64.71	-37.4	-38.3	23.5	0.00e+00	92	30	0	753926144	46	6684
2026-01-17 00:49:16.78	239.77	64.82	-38.0	-39.0	23.1	0.00e+00	92	30	0	756023296	48	6422
2026-01-17 00:49:17.80	240.88	64.93	-38.4	-39.4	22.7	0.00e+00	92	30	0	757071872	48	6757
2026-01-17 00:49:18.80	241.97	65.03	-38.4	-39.5	22.6	0.00e+00	92	30	0	759169024	48	6786
2026-01-17 00:49:19.81	243.08	65.11	-38.3	-39.3	23.0	0.00e+00	15	30	0	761266176	48	6633
2026-01-17 00:49:20.82	244.20	65.19	-38.0	-38.9	23.3	0.00e+00	92	30	0	763363328	48	6382
2026-01-17 00:49:21.83	245.32	65.27	-37.8	-38.8	23.3	0.00e+00	11	30	0	765460480	48	6251
2026-01-17 00:49:22.84	246.46	65.33	-38.3	-39.3	22.8	0.00e+00	92	30	0	766509056	48	6640
2026-01-17 00:49:23.85	247.60	65.38	-38.8	-39.9	22.3	0.00e+00	92	30	0	768606208	50	6329
2026-01-17 00:49:24.86	248.74	65.43	-39.1	-40.2	22.2	0.00e+00	92	30	0	770703360	50	6548
2026-01-17 00:49:25.87	249.89	65.47	-38.8	-39.9	22.4	0.00e+00	92	30	0	772800512	50	6324
2026-01-17 00:49:26.88	251.04	65.50	-38.0	-38.9	23.4	0.00e+00	4	30	0	774897664	50	5684
2026-01-17 00:49:27.88	252.18	65.52	-37.7	-38.6	23.4	0.00e+00	92	30	0	775946240	48	6173
2026-01-17 00:49:28.89	253.34	65.53	-37.3	-38.2	23.9	0.00e+00	0	30	0	778043392	48	5868
2026-01-17 00:49:29.90	254.50	65.53	-37.3	-38.1	24.0	0.00e+00	90	30	0	780140544	48	5820
2026-01-17 00:49:30.91	255.65	65.52	-37.1	-38.0	24.0	0.00e+00	92	30	0	782237696	48	5728
2026-01-17 00:49:31.92	256.81	65.51	-37.1	-38.0	23.7	0.00e+00	89	30	0	784334848	48	5724
2026-01-17 00:49:32.93	257.96	65.48	-37.3	-38.1	24.0	0.00e+00	90	30	0	785383424	48	5828
2026-01-17 00:49:33.94	259.11	65.45	-37.2	-38.1	24.1	0.00e+00	15	30	0	787480576	48	5777
2026-01-17 00:49:34.95	260.26	65.40	-37.2	-38.1	24.0	0.00e+00	92	30	0	789577728	48	5763
2026-01-17 00:49:35.96	261.40	65.35	-37.4	-38.3	23.8	0.00e+00	7	30	0	791674880	48	5902
2026-01-17 00:49:36.97	262.53	65.29	-37.4	-38.3	24.0	0.00e+00	92	30	0	793772032	48	5920
2026-01-17 00:49:37.98	263.66	65.22	-37.9	-38.9	23.2	0.00e+00	92	30	0	794820608	48	6348
2026-01-17 00:49:38.99	264.78	65.15	-38.3	-39.3	22.8	0.00e+00	92	30	0	796917760	48	6654
2026-01-17 00:49:40.00	265.90	65.06	-37.2	-38.1	23.9	0.00e+00	92	30	0	799014912	48	5769
2026-01-17 00:49:41.01	267.00	64.97	-36.6	-37.5	24.5	0.00e+00	78	30	0	801112064	46	6070
2026-01-17 00:49:42.02	268.09	64.87	-36.6	-37.4	24.5	0.00e+00	92	30	0	803209216	46	6027
2026-01-17 00:49:43.03	269.18	64.76	-36.7	-37.5	24.6	0.00e+00	78	30	0	804257792	46	6063
2026-01-17 00:49:44.04	270.25	64.64	-37.1	-38.0	24.1	0.00e+00	96	30	0	806354944	46	6400
2026-01-17 00:49:45.05	271.32	64.52	-37.6	-38.5	23.4	0.00e+00	0	30	0	808452096	46	6833
2026-01-17 00:49:46.06	272.37	64.38	-36.7	-37.6	24.3	0.00e+00	90	30	0	810549248	48	5466
2026-01-17 00:49:47.07	273.40	64.24	-36.1	-36.9	24.8	0.00e+00	92	30	0	812646400	46	5684
2026-01-17 00:49:48.07	274.42	64.10	-36.5	-37.4	24.6	0.00e+00	0	30	0	813694976	46	5965
2026-01-17 00:49:49.08	275.43	63.94	-36.2	-37.0	25.0	0.00e+00	90	30	0	815792128	46	5703
2026-01-17 00:49:50.09	276.43	63.78	-35.7	-36.5	25.4	0.00e+00	0	30	0	817889280	46	5403
2026-01-17 00:49:51.10	277.42	63.62	-35.6	-36.4	25.4	0.00e+00	92	30	0	819986432	44	5991
2026-01-17 00:49:52.11	278.39	63.44	-35.5	-36.3	25.4	0.00e+00	0	30	0	822083584	44	5941
2026-01-17 00:49:53.12	279.34	63.26	-35.1	-35.9	25.7	0.00e+00	90	30	0	823132160	44	5639
2026-01-17 00:49:54.13	280.29	63.08	-34.8	-35.6	25.9	0.00e+00	92	30	0	825229312	44	5443
2026-01-17 00:49:55.14	281.21	62.89	-35.1	-35.9	25.7	0.00e+00	90	30	0	827326464	44	5667
2026-01-17 00:49:56.15	282.12	62.69	-35.2	-36.0	25.5	0.00e+00	92	30	0	829423616	44	5728
2026-01-17 00:49:57.17	283.03	62.49	-34.9	-35.7	25.8	0.00e+00	90	30	0	831520768	44	5540
2026-01-17 00:49:58.18	283.91	62.28	-35.2	-35.9	25.8	0.00e+00	92	30	0	833617920	44	5695
2026-01-17 00:49:59.19	284.78	62.07	-34.7	-35.4	26.2	0.00e+00	68	30	0	834666496	42	6016
2026-01-17 00:50:00.19	285.62	61.85	-34.4	-35.2	26.5	0.00e+00	90	30	0	836763648	42	5837
2026-01-17 00:50:01.20	286.46	61.63	-34.4	-35.1	26.2	0.00e+00	92	30	0	838860800	42	5816
2026-01-17 00:50:02.21	287.28	61.40	-34.8	-35.6	25.9	0.00e+00	91	30	0	840957952	42	6135
2026-01-17 00:50:03.22	288.09	61.17	-34.8	-35.6	25.9	0.00e+00	91	30	0	842006528	42	6146
2026-01-17 00:50:04.23	288.88	60.94	-34.8	-35.6	26.0	0.00e+00	0	30	0	844103680	42	6126
2026-01-17 00:50:05.24	289.66	60.70	-34.9	-35.7	25.8	0.00e+00	92	30	0	846200832	42	6213
2026-01-17 00:50:06.25	290.42	60.46	-35.1	-35.9	25.7	0.00e+00	77	30	0	848297984	42	6332
2026-01-17 00:50:07.26	291.17	60.22	-35.8	-36.7	24.8	0.00e+00	92	30	0	850395136	42	6956
2026-01-17 00:50:08.27	291.91	59.97	-36.7	-37.7	24.0	0.00e+00	4	30	0	852492288	44	6950
2026-01-17 00:50:09.28	292.63	59.72	-37.0	-38.0	24.0	0.00e+00	89	30	0	853540864	46	6420
2026-01-17 00:50:10.29	293.34	59.46	-37.1	-38.0	23.9	0.00e+00	92	30	0	855638016	46	6458
2026-01-17 00:50:11.29	294.02	59.21	-37.3	-38.3	23.5	0.00e+00	7	30	0	857735168	46	6619
2026-01-17 00:50:12.30	294.70	58.95	-37.6	-38.6	23.4	0.00e+00	92	30	0	859832320	46	6872
2026-01-17 00:50:13.31	295.37	58.69	-37.5	-38.4	23.7	0.00e+00	0	30	0	861929472	46	6769
2026-01-17 00:50:14.32	296.02	58.42	-37.7	-38.8	23.3	0.00e+00	92	30	0	862978048	48	6256
2026-01-17 00:50:15.33	296.66	58.16	-37.3	-38.3	23.4	0.00e+00	0	30	0	865075200	48	5916
2026-01-17 00:50:16.34	297.29	57.89	-36.9	-37.9	24.3	0.00e+00	92	30	0	867172352	48	5648
2026-01-17 00:50:17.35	297.91	57.62	-36.3	-37.1	24.8	0.00e+00	90	30	0	869269504	46	5818
2026-01-17 00:50:18.36	298.51	57.35	-36.3	-37.1	24.7	0.00e+00	92	30	0	871366656	46	5827
2026-01-17 00:50:19.37	299.10	57.07	-35.6	-36.4	25.3	0.00e+00	91	30	0	872415232	44	6016
2026-01-17 00:50:20.38	299.68	56.80	-35.3	-36.1	25.6	0.00e+00	8	30	0	874512384	44	5769
2026-01-17 00:50:21.39	300.25	56.52	-34.8	-35.5	25.9	0.00e+00	91	30	0	876609536	42	6102
2026-01-17 00:50:22.40	300.81	56.24	-34.6	-35.3	26.2	0.00e+00	68	30	0	878706688	42	5961
2026-01-17 00:50:23.41	301.35	55.96	-34.2	-35.0	26.3	0.00e+00	90	30	0	880803840	42	5711
2026-01-17 00:50:24.42	301.89	55.68	-34.1	-34.9	26.5	0.00e+00	17	30	0	881852416	42	5633
2026-01-17 00:50:25.43	302.41	55.40	-34.0	-34.7	26.7	0.00e+00	92	30	0	883949568	42	5525
2026-01-17 00:50:26.44	302.93	55.12	-34.0	-34.8	26.5	0.00e+00	91	30	0	886046720	42	5579
2026-01-17 00:50:27.45	303.43	54.84	-34.0	-34.8	26.6	0.00e+00	0	30	0	888143872	42	5577
2026-01-17 00:50:28.46	303.93	54.56	-33.8	-34.5	26.6	0.00e+00	90	30	0	890241024	40	6097
2026-01-17 00:50:29.46	304.41	54.28	-34.2	-34.9	26.3	0.00e+00	66	30	0	891289600	40	6383
2026-01-17 00:50:30.47	304.89	53.99	-34.5	-35.3	26.0	0.00e+00	92	30	0	893386752	40	6669
2026-01-17 00:50:31.48	305.35	53.71	-34.3	-35.1	26.3	0.00e+00	0	30	0	895483904	40	6473
2026-01-17 00:50:32.49	305.81	53.42	-34.1	-34.8	26.4	0.00e+00	92	30	0	897581056	40	6307
2026-01-17 00:50:33.50	306.26	53.14	-34.9	-35.7	25.8	0.00e+00	92	30	0	899678208	42	6230
2026-01-17 00:50:34.51	306.70	52.86	-35.4	-36.2	25.5	0.00e+00	0	30	0	900726784	42	6570
2026-01-17 00:50:35.52	307.13	52.57	-35.4	-36.2	25.6	0.00e+00	92	30	0	902823936	42	6563
2026-01-17 00:50:36.53	307.56	52.29	-35.0	-35.8	25.9	0.00e+00	13	30	0	904921088	42	6248
2026-01-17 00:50:37.54	307.97	52.00	-35.6	-36.4	25.3	0.00e+00	92	30	0	907018240	42	6723
2026-01-17 00:50:38.55	308.38	51.72	-36.6	-37.5	24.4	0.00e+00	0	30	0	909115392	44	6836
2026-01-17 00:50:39.56	308.78	51.43	-37.3	-38.3	23.7	0.00e+00	90	30	0	910163968	46	6647
2026-01-17 00:50:40.57	309.17	51.15	-37.1	-38.1	23.9	0.00e+00	92	30	0	912261120	46	6468
2026-01-17 00:50:41.57	309.55	50.87	-37.2	-38.1	23.8	0.00e+00	92	30	0	914358272	46	6537
2026-01-17 00:50:42.58	309.93	50.59	-37.9	-38.9	23.1	0.00e+00	92	30	0	916455424	48	6343
2026-01-17 00:50:43.59	310.30	50.30	-38.5	-39.6	22.5	0.00e+00	85	30	0	918552576	48	6901
2026-01-17 00:50:44.60	310.67	50.02	-38.6	-39.7	22.4	0.00e+00	90	30	0	920649728	48	6963
2026-01-17 00:50:45.61	311.03	49.74	-38.6	-39.7	22.5	0.00e+00	14	30	0	921698304	48	6933
2026-01-17 00:50:46.62	311.38	49.46	-39.6	-40.8	21.3	0.00e+00	92	30	0	923795456	50	7056
2026-01-17 00:50:47.63	311.72	49.18	-40.8	-42.4	19.9	0.00e+00	14	30	0	925892608	52	7526
2026-01-17 00:50:48.64	312.06	48.90	-40.7	-42.2	20.1	0.00e+00	52	30	0	927989760	54	6592
2026-01-17 00:50:49.64	312.39	48.63	-40.4	-41.8	20.4	0.00e+00	90	30	0	930086912	54	6316
2026-01-17 00:50:50.65	312.72	48.35	-40.4	-41.8	20.4	0.00e+00	1	31	0	931135488	54	6283
2026-01-17 00:50:51.66	313.04	48.07	-41.0	-42.5	19.9	0.00e+00	90	31	0	933232640	54	6795
2026-01-17 00:50:52.67	313.36	47.79	-41.2	-42.7	19.7	0.00e+00	1	30	0	935329792	54	6956
2026-01-17 00:50:53.68	313.67	47.52	-41.2	-42.7	19.6	0.00e+00	92	30	0	937426944	54	6966
2026-01-17 00:50:54.69	313.97	47.24	-40.8	-42.2	20.1	0.00e+00	0	30	0	939524096	54	6588
2026-01-17 00:50:55.70	314.27	46.97	-40.9	-42.4	19.9	0.00e+00	92	30	0	940572672	54	6706
2026-01-17 00:50:56.71	314.57	46.70	-41.1	-42.7	19.7	0.00e+00	92	30	0	942669824	54	6959
2026-01-17 00:50:57.72	314.86	46.43	-40.5	-41.9	20.6	0.00e+00	0	30	0	944766976	54	6384
2026-01-17 00:50:58.73	315.14	46.16	-39.7	-40.9	21.4	0.00e+00	90	30	0	946864128	54	5650
2026-01-17 00:50:59.74	315.42	45.89	-39.5	-40.6	21.7	0.00e+00	7	30	0	948961280	52	6156
2026-01-17 00:51:00.75	315.70	45.62	-39.7	-40.9	21.3	0.00e+00	92	30	0	950009856	52	6321
2026-01-17 00:51:01.76	315.97	45.35	-40.1	-41.3	21.0	0.00e+00	4	30	0	952107008	52	6655
2026-01-17 00:51:02.76	316.23	45.09	-39.9	-41.0	21.3	0.00e+00	90	30	0	954204160	52	6464
2026-01-17 00:51:03.77	316.50	44.82	-39.5	-40.6	22.0	0.00e+00	92	30	0	956301312	52	6112
2026-01-17 00:51:04.78	316.75	44.56	-38.5	-39.5	22.8	0.00e+00	67	30	0	958398464	50	6057
2026-01-17 00:51:05.79	317.01	44.30	-37.4	-38.3	23.9	0.00e+00	92	30	0	959447040	48	5898
2026-01-17 00:51:06.80	317.26	44.04	-37.0	-37.9	24.2	0.00e+00	68	30	0	961544192	48	5632
2026-01-17 00:51:07.81	317.50	43.78	-36.7	-37.5	24.4	0.00e+00	92	30	0	963641344	48	5439
2026-01-17 00:51:08.82	317.75	43.52	-36.2	-37.0	25.0	0.00e+00	69	30	0	965738496	46	5729
2026-01-17 00:51:09.83	317.98	43.26	-36.3	-37.1	24.7	0.00e+00	92	30	0	967835648	46	5812
2026-01-17 00:51:10.84	318.22	43.00	-36.6	-37.4	24.6	0.00e+00	92	30	0	968884224	46	5983
2026-01-17 00:51:11.85	318.45	42.75	-37.2	-38.1	23.9	0.00e+00	0	30	0	970981376	46	6486
2026-01-17 00:51:12.86	318.68	42.49	-38.0	-38.9	23.2	0.00e+00	92	30	0	973078528	48	6388
2026-01-17 00:51:13.86	318.90	42.24	-38.2	-39.2	22.7	0.00e+00	68	30	0	975175680	48	6579
2026-01-17 00:51:14.87	319.12	41.99	-37.0	-37.9	24.1	0.00e+00	92	30	0	977272832	48	5646
2026-01-17 00:51:15.88	319.33	41.74	-36.4	-37.2	24.7	0.00e+00	2	30	0	978321408	46	5844
2026-01-17 00:51:16.89	319.55	41.49	-36.1	-36.9	25.1	0.00e+00	91	30	0	980418560	46	5671
2026-01-17 00:51:17.90	319.76	41.24	-35.3	-36.1	25.6	0.00e+00	0	30	0	982515712	44	5767
2026-01-17 00:51:18.91	319.96	41.00	-35.9	-36.7	25.1	0.00e+00	92	30	0	984612864	44	6198
2026-01-17 00:51:19.92	320.17	40.75	-36.3	-37.1	24.7	0.00e+00	92	30	0	986710016	44	6520
2026-01-17 00:51:20.93	320.37	40.51	-37.4	-38.4	23.7	0.00e+00	0	30	0	988807168	46	6694
2026-01-17 00:51:21.94	320.57	40.26	-37.8	-38.8	23.3	0.00e+00	92	30	0	989855744	48	6280
2026-01-17 00:51:22.94	320.76	40.03	-38.2	-39.2	23.1	0.00e+00	5	30	0	991952896	48	6587
2026-01-17 00:51:23.95	320.95	39.79	-38.1	-39.1	23.1	0.00e+00	92	30	0	994050048	48	6513
2026-01-17 00:51:24.96	321.14	39.55	-37.4	-38.3	23.8	0.00e+00	0	30	0	996147200	48	5932
2026-01-17 00:51:25.97	321.33	39.31	-36.8	-37.6	24.3	0.00e+00	58	30	0	997195776	48	5489
2026-01-17 00:51:26.98	321.52	39.07	-36.5	-37.3	24.8	0.00e+00	84	31	0	999292928	46	5911
2026-01-17 00:51:27.98	321.70	38.84	-35.4	-36.1	25.6	0.00e+00	69	30	0	1001390080	44	5804
2026-01-17 00:51:28.99	321.88	38.61	-35.2	-36.0	25.7	0.00e+00	92	30	0	1003487232	44	5699
2026-01-17 00:51:30.00	322.05	38.37	-35.8	-36.6	25.2	0.00e+00	70	30	0	1005584384	44	6137
2026-01-17 00:51:31.01	322.23	38.14	-37.0	-37.8	24.2	0.00e+00	92	30	0	1006632960	44	7062
2026-01-17 00:51:32.02	322.40	37.91	-38.0	-39.0	23.2	0.00e+00	12	30	0	1008730112	48	6444
2026-01-17 00:51:33.03	322.57	37.69	-38.3	-39.3	22.9	0.00e+00	90	30	0	1010827264	48	6667
2026-01-17 00:51:34.04	322.74	37.46	-38.0	-38.9	23.2	0.00e+00	0	30	0	1012924416	48	6369
2026-01-17 00:51:35.05	322.90	37.23	-37.6	-38.5	23.5	0.00e+00	0	30	0	1015021568	48	6052
2026-01-17 00:51:36.06	323.07	37.01	-37.7	-38.6	23.6	0.00e+00	92	30	0	1017118720	48	6173
2026-01-17 00:51:37.06	323.22	36.79	-36.1	-36.9	25.1	0.00e+00	0	30	0	1018167296	46	5637
2026-01-17 00:51:38.07	323.38	36.57	-35.4	-36.2	25.5	0.00e+00	91	30	0	1020264448	44	5844
2026-01-17 00:51:39.08	323.54	36.34	-35.7	-36.4	25.3	0.00e+00	0	30	0	1022361600	44	6021
2026-01-17 00:51:40.09	323.69	36.13	-36.2	-37.0	24.8	0.00e+00	92	30	0	1024458752	44	6413
2026-01-17 00:51:41.10	323.85	35.91	-37.0	-37.8	24.1	0.00e+00	0	30	0	1026555904	46	6314
2026-01-17 00:51:42.11	324.00	35.69	-37.5	-38.4	23.7	0.00e+00	0	30	0	1027604480	46	6703
2026-01-17 00:51:43.12	324.15	35.47	-38.0	-38.9	23.2	0.00e+00	92	30	0	1029701632	48	6367
2026-01-17 00:51:44.13	324.29	35.26	-38.4	-39.5	22.7	0.00e+00	0	30	0	1031798784	48	6774
2026-01-17 00:51:45.14	324.44	35.05	-38.5	-39.5	22.7	0.00e+00	92	30	0	1033895936	48	6808
2026-01-17 00:51:46.15	324.58	34.84	-38.4	-39.4	22.8	0.00e+00	0	30	0	1035993088	48	6711
2026-01-17 00:51:47.15	324.72	34.63	-38.2	-39.2	23.0	0.00e+00	91	30	0	1037041664	48	6598
2026-01-17 00:51:48.16	324.86	34.42	-37.7	-38.6	23.5	0.00e+00	0	30	0	1039138816	48	6161
2026-01-17 00:51:49.17	325.00	34.21	-37.3	-38.1	23.9	0.00e+00	92	30	0	1041235968	48	5810
2026-01-17 00:51:50.18	325.14	34.00	-37.2	-38.1	24.1	0.00e+00	90	30	0	1043333120	48	5778
2026-01-17 00:51:51.19	325.27	33.80	-36.8	-37.6	24.2	0.00e+00	12	30	0	1045430272	48	5496
2026-01-17 00:51:52.20	325.40	33.59	-37.0	-37.9	24.2	0.00e+00	92	30	0	1046478848	46	6355
2026-01-17 00:51:53.21	325.53	33.39	-37.6	-38.5	23.6	0.00e+00	71	30	0	1048576000	46	6777
2026-01-17 00:51:54.22	325.66	33.19	-37.8	-38.7	23.4	0.00e+00	92	30	0	1050673152	48	6201
2026-01-17 00:51:55.23	325.79	32.99	-38.2	-39.2	22.8	0.00e+00	0	30	0	1052770304	48	6560
2026-01-17 00:51:56.23	325.92	32.79	-38.4	-39.4	22.8	0.00e+00	92	30	0	1054867456	48	6725
2026-01-17 00:51:57.24	326.04	32.59	-38.6	-39.5	22.7	0.00e+00	0	30	0	1055916032	48	6847
2026-01-17 00:51:58.25	326.17	32.39	-38.5	-39.5	22.7	0.00e+00	69	30	0	1058013184	48	6846
2026-01-17 00:51:59.26	326.29	32.20	-38.6	-39.6	22.6	0.00e+00	90	30	0	1060110336	48	6896
2026-01-17 00:52:00.27	326.41	32.00	-38.7	-39.7	22.7	0.00e+00	67	30	0	1062207488	50	6203
2026-01-17 00:52:01.28	326.53	31.81	-38.8	-39.8	22.4	0.00e+00	92	30	0	1064304640	50	6271
2026-01-17 00:52:02.29	326.65	31.61	-39.3	-40.4	22.0	0.00e+00	0	30	0	1065353216	50	6694
2026-01-17 00:52:03.30	326.76	31.42	-39.3	-40.5	21.8	0.00e+00	92	30	0	1067450368	50	6772
2026-01-17 00:52:04.31	326.88	31.23	-39.7	-40.8	21.4	0.00e+00	0	30	0	1069547520	50	7055
2026-01-17 00:52:05.32	326.99	31.04	-39.8	-41.0	21.3	0.00e+00	2	30	0	1071644672	52	6443
2026-01-17 00:52:06.33	327.11	30.85	-39.7	-40.9	21.4	0.00e+00	92	30	0	1073741824	52	6344
2026-01-17 00:52:07.34	327.22	30.67	-39.5	-40.7	21.6	0.00e+00	9	30	0	1074790400	52	6191
2026-01-17 00:52:08.35	327.33	30.48	-39.5	-40.6	21.6	0.00e+00	91	30	0	1076887552	52	6166
2026-01-17 00:52:09.36	327.44	30.30	-39.2	-40.2	21.9	0.00e+00	9	30	0	1078984704	52	5896
2026-01-17 00:52:10.36	327.55	30.11	-38.7	-39.7	22.5	0.00e+00	92	30	0	1081081856	50	6214
2026-01-17 00:52:11.37	327.65	29.93	-38.4	-39.4	22.8	0.00e+00	0	30	0	1083179008	50	5967
2026-01-17 00:52:12.38	327.76	29.75	-38.4	-39.4	22.8	0.00e+00	90	30	0	1085276160	50	5984
2026-01-17 00:52:13.39	327.86	29.57	-38.1	-39.0	23.0	0.00e+00	47	30	0	1086324736	50	5750
2026-01-17 00:52:14.39	327.97	29.39	-38.1	-39.0	23.0	0.00e+00	72	30	0	1088421888	50	5731
2026-01-17 00:52:15.40	328.07	29.21	-38.3	-39.2	23.0	0.00e+00	92	30	0	1090519040	50	5883
2026-01-17 00:52:16.41	328.17	29.03	-38.2	-39.2	22.9	0.00e+00	71	30	0	1092616192	50	5851
2026-01-17 00:52:17.42	328.27	28.86	-38.4	-39.3	22.9	0.00e+00	90	30	0	1093664768	50	5952
2026-01-17 00:52:18.43	328.37	28.68	-38.3	-39.2	23.0	0.00e+00	0	30	0	1095761920	50	5894
2026-01-17 00:52:19.44	328.47	28.51	-38.4	-39.4	22.9	0.00e+00	0	30	0	1097859072	50	5976
2026-01-17 00:52:20.45	328.56	28.33	-38.3	-39.3	22.8	0.00e+00	6	30	0	1099956224	50	5950
2026-01-17 00:52:21.46	328.66	28.16	-38.5	-39.5	22.7	0.00e+00	71	30	0	1102053376	50	6036
2026-01-17 00:52:22.47	328.76	27.99	-38.6	-39.6	22.6	0.00e+00	92	30	0	1103101952	50	6134
2026-01-17 00:52:23.48	328.85	27.82	-38.5	-39.5	22.6	0.00e+00	6	30	0	1105199104	50	6076
2026-01-17 00:52:24.49	328.94	27.65	-38.5	-39.5	22.7	0.00e+00	92	30	0	1107296256	50	6047
2026-01-17 00:52:25.50	329.04	27.48	-38.3	-39.3	22.8	0.00e+00	0	30	0	1109393408	50	5928
2026-01-17 00:52:26.51	329.13	27.31	-38.4	-39.4	22.7	0.00e+00	92	30	0	1111490560	50	5972
2026-01-17 00:52:27.52	329.22	27.15	-38.2	-39.2	22.9	0.00e+00	0	30	0	1113587712	50	5846
2026-01-17 00:52:28.53	329.31	26.98	-37.9	-38.9	23.2	0.00e+00	48	30	0	1114636288	50	5635
2026-01-17 00:52:29.53	329.39	26.82	-37.9	-38.9	23.1	0.00e+00	90	30	0	1116733440	50	5654
2026-01-17 00:52:30.54	329.48	26.65	-37.4	-38.3	23.6	0.00e+00	7	30	0	1118830592	48	5920
2026-01-17 00:52:31.55	329.57	26.49	-37.4	-38.3	23.8	0.00e+00	92	30	0	1120927744	48	5900
2026-01-17 00:52:32.56	329.66	26.33	-37.0	-37.9	23.9	0.00e+00	5	30	0	1123024896	48	5647
2026-01-17 00:52:33.57	329.74	26.17	-37.0	-37.8	24.1	0.00e+00	92	30	0	1124073472	48	5611
2026-01-17 00:52:34.58	329.83	26.01	-37.1	-38.0	24.0	0.00e+00	77	30	0	1126170624	48	5713
2026-01-17 00:52:35.59	329.91	25.85	-37.1	-38.0	24.1	0.00e+00	80	30	0	1128267776	48	5723
2026-01-17 00:52:36.59	329.99	25.69	-37.1	-38.0	23.9	0.00e+00	25	30	0	1130364928	48	5719
2026-01-17 00:52:37.60	330.07	25.53	-37.3	-38.2	23.8	0.00e+00	77	30	0	1132462080	48	5830
2026-01-17 00:52:38.61	330.16	25.38	-37.5	-38.4	23.5	0.00e+00	92	30	0	1133510656	48	5975
2026-01-17 00:52:39.62	330.24	25.22	-37.4	-38.4	23.6	0.00e+00	8	30	0	1135607808	48	5968
2026-01-17 00:52:40.63	330.32	25.07	-37.6	-38.5	23.4	0.00e+00	92	30	0	1137704960	48	6080
2026-01-17 00:52:41.63	330.39	24.92	-37.7	-38.7	23.2	0.00e+00	0	30	0	1139802112	48	6210
2026-01-17 00:52:42.64	330.47	24.76	-37.8	-38.8	23.1	0.00e+00	91	30	0	1141899264	48	6271
2026-01-17 00:52:43.65	330.55	24.61	-38.0	-39.0	23.0	0.00e+00	2	30	0	1142947840	48	6401
2026-01-17 00:52:44.66	330.63	24.46	-37.9	-38.9	23.1	0.00e+00	78	30	0	1145044992	48	6322
2026-01-17 00:52:45.67	330.70	24.31	-38.1	-39.1	22.9	0.00e+00	92	30	0	1147142144	48	6495
2026-01-17 00:52:46.68	330.78	24.16	-37.6	-38.6	23.4	0.00e+00	6	30	0	1149239296	48	6148
2026-01-17 00:52:47.69	330.85	24.01	-37.6	-38.6	23.4	0.00e+00	85	30	0	1151336448	48	6121
2026-01-17 00:52:48.69	330.93	23.86	-37.2	-38.2	23.8	0.00e+00	0	30	0	1152385024	48	5843
2026-01-17 00:52:49.70	331.00	23.71	-37.1	-38.0	24.0	0.00e+00	0	30	0	1154482176	48	5740
2026-01-17 00:52:50.71	331.08	23.57	-37.1	-37.9	24.0	0.00e+00	5	30	0	1156579328	48	5690
2026-01-17 00:52:51.72	331.15	23.42	-36.5	-37.4	24.5	0.00e+00	7	30	0	1158676480	46	5982
2026-01-17 00:52:52.73	331.22	23.28	-36.4	-37.2	24.6	0.00e+00	90	30	0	1160773632	46	5850
2026-01-17 00:52:53.74	331.29	23.13	-36.2	-37.1	24.6	0.00e+00	7	30	0	1161822208	46	5780
2026-01-17 00:52:54.75	331.36	22.99	-36.2	-37.0	24.7	0.00e+00	90	30	0	1163919360	46	5707
2026-01-17 00:52:55.76	331.43	22.85	-35.9	-36.7	24.8	0.00e+00	8	30	0	1166016512	46	5552
2026-01-17 00:52:56.77	331.50	22.70	-35.9	-36.7	24.9	0.00e+00	6	30	0	1168113664	46	5557
2026-01-17 00:52:57.78	331.57	22.56	-36.0	-36.8	24.9	0.00e+00	8	30	0	1170210816	46	5568
2026-01-17 00:52:58.79	331.64	22.42	-36.0	-36.8	25.0	0.00e+00	9	30	0	1171259392	46	5573
2026-01-17 00:52:59.80	331.70	22.28	-36.0	-36.8	24.8	0.00e+00	92	30	0	1173356544	46	5598
2026-01-17 00:53:00.80	331.77	22.14	-36.0	-36.8	24.9	0.00e+00	73	30	0	1175453696	46	5594
2026-01-17 00:53:01.82	331.84	22.00	-36.1	-36.9	24.7	0.00e+00	92	30	0	1177550848	46	5655
2026-01-17 00:53:02.82	331.90	21.87	-36.1	-36.9	24.7	0.00e+00	8	30	0	1179648000	46	5675
2026-01-17 00:53:03.83	331.97	21.73	-36.2	-37.1	24.6	0.00e+00	13	30	0	1181745152	46	5772
2026-01-17 00:53:04.84	332.03	21.59	-36.4	-37.2	24.5	0.00e+00	73	30	0	1182793728	46	5855
2026-01-17 00:53:05.85	332.10	21.46	-36.5	-37.3	24.4	0.00e+00	0	30	0	1184890880	46	5943
2026-01-17 00:53:06.86	332.16	21.32	-36.6	-37.4	24.2	0.00e+00	82	30	0	1186988032	46	6021
2026-01-17 00:53:07.87	332.23	21.19	-36.9	-37.7	24.0	0.00e+00	0	30	0	1189085184	46	6245
2026-01-17 00:53:08.88	332.29	21.06	-37.1	-38.0	24.0	0.00e+00	92	30	0	1191182336	46	6417
2026-01-17 00:53:09.89	332.35	20.92	-36.9	-37.8	23.9	0.00e+00	0	30	0	1192230912	46	6247
2026-01-17 00:53:10.90	332.41	20.79	-36.9	-37.7	23.9	0.00e+00	89	30	0	1194328064	46	6244
2026-01-17 00:53:11.91	332.47	20.66	-37.0	-37.9	23.9	0.00e+00	0	30	0	1196425216	46	6327
2026-01-17 00:53:12.92	332.53	20.53	-36.7	-37.6	24.1	0.00e+00	0	30	0	1198522368	46	6132
2026-01-17 00:53:13.93	332.59	20.40	-36.9	-37.7	24.0	0.00e+00	2	30	0	1199570944	46	6244
