passes_logs/2026/01/17/R4.6S_Anadyr/R4.6S_Anadyr__20260117_122630_SUOMI_NPP_rec.log

#Pass ID: 20260117_122630_SUOMI NPP
#Satellite: SUOMI NPP
#Configuration: NPP
#almurnet v.1.7.20251203
#Start time: 2026-01-17 12:26:31

#Version: 2.2.20231116
#Station: R4.6S_Anadyr
#Location: 177.4865 lon 64.73178 lat
#TLE: 1 37849U 11061A   26016.58419598  .00000058  00000+0  48257-4 0  9996
#TLE: 2 37849  98.7812 318.6192 0002422  60.8544 299.2874 14.19525580736934

#Time	Az	El	Level	Level2	SNR	BER	BlckErr	Temp	State	Recorded	gain1	gain2
2026-01-17 12:26:31.66	19.15	0.05	-48.5	-61.0	3.4	1.52e+00	0	24	0	0	60	39354
2026-01-17 12:26:32.67	19.23	0.10	-49.0	-64.2	3.6	1.51e+00	0	26	104	0	60	58775
2026-01-17 12:26:33.68	19.30	0.15	-48.8	-64.0	3.6	1.51e+00	0	26	104	0	60	57598
2026-01-17 12:26:34.68	19.38	0.20	-48.7	-63.9	3.6	1.51e+00	0	26	104	0	60	56809
2026-01-17 12:26:35.69	19.45	0.25	-48.7	-63.8	3.6	1.51e+00	0	26	104	0	60	56173
2026-01-17 12:26:36.70	19.53	0.29	-48.7	-63.8	3.6	1.51e+00	0	26	104	0	60	56302
2026-01-17 12:26:37.71	19.61	0.34	-48.6	-63.8	3.6	1.51e+00	0	26	104	0	60	56096
2026-01-17 12:26:38.72	19.68	0.39	-48.6	-63.8	3.6	1.51e+00	0	26	104	0	60	55892
2026-01-17 12:26:39.73	19.76	0.44	-48.5	-63.8	3.5	1.51e+00	0	26	104	0	60	55762
2026-01-17 12:26:40.74	19.84	0.49	-48.5	-63.7	3.6	1.51e+00	0	26	104	0	60	55082
2026-01-17 12:26:41.75	19.91	0.54	-48.4	-63.6	3.6	1.51e+00	0	26	104	0	60	54463
2026-01-17 12:26:42.76	19.99	0.59	-48.3	-63.4	3.5	1.51e+00	0	26	104	0	60	53580
2026-01-17 12:26:43.77	20.07	0.64	-48.2	-63.3	3.6	1.51e+00	0	26	104	0	60	53125
2026-01-17 12:26:44.78	20.14	0.69	-48.0	-63.2	3.6	1.51e+00	0	26	104	0	60	51979
2026-01-17 12:26:45.79	20.22	0.74	-47.8	-63.0	3.6	1.51e+00	0	26	104	0	60	50934
2026-01-17 12:26:46.80	20.30	0.79	-47.6	-62.7	3.6	1.51e+00	0	26	104	0	60	49244
2026-01-17 12:26:47.81	20.38	0.84	-47.1	-62.2	3.6	1.51e+00	0	26	104	0	60	46412
2026-01-17 12:26:48.82	20.46	0.89	-46.9	-62.1	3.6	1.51e+00	0	26	104	0	60	45835
2026-01-17 12:26:49.83	20.54	0.94	-46.9	-62.1	3.6	1.51e+00	0	26	104	0	60	45798
2026-01-17 12:26:50.84	20.62	0.99	-46.9	-62.1	3.6	1.51e+00	0	26	104	0	60	45859
2026-01-17 12:26:51.84	20.69	1.04	-46.9	-62.0	3.6	1.51e+00	0	26	104	0	60	45765
2026-01-17 12:26:52.85	20.77	1.09	-46.8	-62.0	3.6	1.51e+00	0	26	104	0	60	45577
2026-01-17 12:26:53.87	20.85	1.14	-46.8	-62.0	3.6	1.51e+00	0	26	104	0	60	45296
2026-01-17 12:26:54.87	20.93	1.19	-46.8	-62.0	3.6	1.51e+00	0	26	104	0	60	45368
2026-01-17 12:26:55.89	21.01	1.24	-46.8	-62.0	3.6	1.51e+00	0	26	104	0	60	45441
2026-01-17 12:26:56.90	21.10	1.29	-46.8	-62.0	3.6	1.51e+00	0	26	104	0	60	45439
2026-01-17 12:26:57.90	21.18	1.34	-46.8	-62.0	3.6	1.51e+00	0	26	104	0	60	45542
2026-01-17 12:26:58.91	21.26	1.39	-46.9	-62.0	3.6	1.51e+00	0	26	104	0	60	45569
2026-01-17 12:26:59.92	21.34	1.44	-46.8	-62.0	3.6	1.51e+00	0	26	104	0	60	45406
2026-01-17 12:27:00.93	21.42	1.49	-46.8	-62.0	3.6	1.51e+00	0	26	104	0	60	45365
2026-01-17 12:27:01.94	21.50	1.54	-46.8	-62.0	3.6	1.51e+00	0	26	104	0	60	45372
2026-01-17 12:27:02.95	21.58	1.59	-46.8	-62.0	3.6	1.51e+00	0	26	104	0	60	45385
2026-01-17 12:27:03.96	21.67	1.64	-46.8	-62.0	3.6	1.51e+00	0	26	104	0	60	45446
2026-01-17 12:27:04.97	21.75	1.69	-46.8	-62.0	3.6	1.51e+00	0	26	104	0	60	45532
2026-01-17 12:27:05.98	21.83	1.74	-46.8	-61.9	3.6	1.51e+00	0	26	104	0	60	45214
2026-01-17 12:27:06.99	21.91	1.79	-46.8	-62.0	3.6	1.51e+00	0	26	104	0	60	45492
2026-01-17 12:27:08.00	22.00	1.84	-46.8	-62.0	3.6	1.51e+00	0	26	104	0	60	45353
2026-01-17 12:27:09.01	22.08	1.90	-46.8	-61.9	3.6	1.51e+00	0	26	104	0	60	45222
2026-01-17 12:27:10.02	22.17	1.95	-46.8	-61.9	3.6	1.51e+00	0	26	104	0	60	45199
2026-01-17 12:27:11.02	22.25	2.00	-46.8	-61.9	3.5	1.51e+00	0	27	104	0	60	45098
2026-01-17 12:27:12.03	22.33	2.05	-46.8	-61.9	3.6	1.51e+00	0	26	104	0	60	45122
2026-01-17 12:27:13.04	22.42	2.10	-46.8	-62.0	3.6	1.51e+00	0	26	104	0	60	45294
2026-01-17 12:27:14.05	22.50	2.15	-46.8	-62.0	3.6	1.51e+00	0	26	104	0	60	45545
2026-01-17 12:27:15.06	22.59	2.20	-46.8	-61.9	3.6	1.51e+00	0	26	104	0	60	45188
2026-01-17 12:27:16.07	22.68	2.25	-46.8	-61.8	3.6	1.51e+00	0	26	104	0	60	44600
2026-01-17 12:27:17.08	22.76	2.30	-46.8	-61.1	3.6	1.51e+00	0	26	104	0	60	41032
2026-01-17 12:27:18.09	22.85	2.35	-46.8	-60.9	3.6	1.51e+00	0	26	104	0	60	39983
2026-01-17 12:27:19.10	22.93	2.40	-46.7	-60.4	3.6	1.51e+00	0	26	104	0	60	37882
2026-01-17 12:27:20.11	23.02	2.46	-46.7	-60.5	3.6	1.51e+00	0	26	104	0	60	38479
2026-01-17 12:27:21.12	23.11	2.51	-46.6	-58.7	4.0	1.48e+00	0	26	104	0	60	31023
2026-01-17 12:27:22.13	23.19	2.56	-46.1	-53.2	6.9	6.47e-01	92	26	0	1048576	60	16486
2026-01-17 12:27:23.14	23.28	2.61	-45.3	-50.4	10.3	2.04e-02	0	26	0	3145728	60	12016
2026-01-17 12:27:24.15	23.37	2.66	-44.0	-47.5	13.6	9.68e-05	30	26	0	5242880	60	8555
2026-01-17 12:27:25.16	23.46	2.71	-42.9	-45.5	15.4	0.00e+00	0	26	0	6291456	60	6801
2026-01-17 12:27:26.17	23.55	2.76	-42.1	-44.3	16.6	0.00e+00	0	26	0	8388608	58	6653
2026-01-17 12:27:27.18	23.64	2.82	-41.7	-43.8	17.0	0.00e+00	76	26	0	10485760	56	7034
2026-01-17 12:27:28.19	23.73	2.87	-41.9	-44.0	16.8	0.00e+00	0	26	0	12582912	56	7202
2026-01-17 12:27:29.20	23.81	2.92	-42.1	-44.3	16.5	0.00e+00	87	26	0	14680064	56	7500
2026-01-17 12:27:30.21	23.90	2.97	-43.1	-45.9	14.5	0.00e+00	0	26	0	15728640	58	7988
2026-01-17 12:27:31.22	23.99	3.02	-44.3	-48.1	13.1	5.72e-05	0	26	0	17825792	60	9198
2026-01-17 12:27:32.23	24.08	3.07	-42.7	-45.3	14.9	0.00e+00	0	26	0	19922944	58	7471
2026-01-17 12:27:33.24	24.17	3.13	-46.7	-60.8	3.6	1.51e+00	0	27	104	20971520	60	39740
2026-01-17 12:27:34.25	24.27	3.18	-45.2	-49.9	11.2	7.54e-01	14	27	104	20971520	60	11310
2026-01-17 12:27:35.25	24.36	3.23	-43.2	-45.9	15.5	1.50e-06	0	26	0	22020096	60	7105
2026-01-17 12:27:36.26	24.45	3.28	-46.9	-61.4	3.6	3.36e-01	0	27	104	23068672	60	42479
2026-01-17 12:27:37.27	24.54	3.33	-44.3	-47.9	12.9	1.04e+00	0	27	104	23068672	60	8979
2026-01-17 12:27:38.28	24.63	3.38	-43.6	-46.5	14.8	3.00e-06	0	26	0	24117248	60	7628
2026-01-17 12:27:39.29	24.72	3.44	-43.2	-45.8	15.2	0.00e+00	0	27	0	25165824	60	7084
2026-01-17 12:27:40.30	24.82	3.49	-43.1	-45.7	15.8	0.00e+00	0	26	0	27262976	60	6976
2026-01-17 12:27:41.31	24.91	3.54	-42.2	-44.4	16.7	0.00e+00	65	26	0	29360128	58	6724
2026-01-17 12:27:42.32	25.00	3.59	-42.3	-44.5	16.6	0.00e+00	0	26	0	31457280	58	6814
2026-01-17 12:27:43.33	25.10	3.64	-42.2	-44.3	16.8	0.00e+00	85	27	0	33554432	58	6657
2026-01-17 12:27:44.34	25.19	3.70	-41.9	-44.0	17.3	0.00e+00	0	27	0	34603008	58	6409
2026-01-17 12:27:45.35	25.28	3.75	-41.9	-43.9	17.3	0.00e+00	0	27	0	36700160	58	6348
2026-01-17 12:27:46.36	25.38	3.80	-41.9	-43.9	17.2	0.00e+00	0	27	0	38797312	56	7148
2026-01-17 12:27:47.37	25.47	3.85	-41.8	-43.8	17.3	0.00e+00	0	27	0	40894464	56	7021
2026-01-17 12:27:48.38	25.57	3.91	-41.8	-43.7	17.5	0.00e+00	57	27	0	42991616	56	6935
2026-01-17 12:27:49.39	25.67	3.96	-41.4	-43.2	17.9	0.00e+00	0	27	0	44040192	56	6586
2026-01-17 12:27:50.40	25.76	4.01	-41.5	-43.3	17.7	0.00e+00	82	27	0	46137344	56	6641
2026-01-17 12:27:51.41	25.86	4.06	-41.5	-43.3	18.0	0.00e+00	0	27	0	48234496	56	6669
2026-01-17 12:27:52.42	25.95	4.12	-41.5	-43.4	17.6	0.00e+00	85	26	0	50331648	56	6718
2026-01-17 12:27:53.43	26.05	4.17	-41.6	-43.5	17.7	0.00e+00	0	27	0	52428800	56	6813
2026-01-17 12:27:54.44	26.15	4.22	-41.7	-43.6	17.7	0.00e+00	0	27	0	53477376	56	6867
2026-01-17 12:27:55.44	26.24	4.27	-41.5	-43.3	17.8	0.00e+00	25	27	0	55574528	56	6655
2026-01-17 12:27:56.45	26.34	4.33	-41.4	-43.2	17.9	0.00e+00	0	27	0	57671680	56	6563
2026-01-17 12:27:57.46	26.44	4.38	-41.6	-43.4	17.8	0.00e+00	5	27	0	59768832	56	6711
2026-01-17 12:27:58.47	26.54	4.43	-41.4	-43.1	17.9	0.00e+00	0	27	0	61865984	56	6524
2026-01-17 12:27:59.48	26.64	4.48	-41.2	-42.9	18.2	0.00e+00	79	27	0	62914560	56	6377
2026-01-17 12:28:00.49	26.74	4.54	-41.1	-42.8	18.2	0.00e+00	0	27	0	65011712	56	6276
2026-01-17 12:28:01.50	26.84	4.59	-41.0	-42.7	18.6	0.00e+00	0	27	0	67108864	56	6177
2026-01-17 12:28:02.50	26.94	4.64	-41.0	-42.7	18.5	0.00e+00	0	27	0	69206016	56	6197
2026-01-17 12:28:03.52	27.04	4.70	-40.9	-42.6	18.6	0.00e+00	0	27	0	71303168	56	6108
2026-01-17 12:28:04.53	27.14	4.75	-40.9	-42.5	18.7	0.00e+00	72	27	0	72351744	56	6034
2026-01-17 12:28:05.54	27.24	4.80	-40.3	-41.8	19.3	0.00e+00	0	27	0	74448896	54	6271
2026-01-17 12:28:06.54	27.34	4.85	-40.4	-41.9	19.2	0.00e+00	79	27	0	76546048	54	6330
2026-01-17 12:28:07.56	27.44	4.91	-40.0	-41.4	19.6	0.00e+00	0	27	0	78643200	54	6033
2026-01-17 12:28:08.56	27.54	4.96	-40.1	-41.5	19.6	0.00e+00	0	27	0	80740352	54	6055
2026-01-17 12:28:09.57	27.64	5.01	-40.1	-41.6	19.6	0.00e+00	0	27	0	82837504	54	6119
2026-01-17 12:28:10.58	27.75	5.07	-40.0	-41.4	19.8	0.00e+00	0	27	0	83886080	54	5999
2026-01-17 12:28:11.59	27.85	5.12	-39.7	-41.0	20.1	0.00e+00	79	27	0	85983232	54	5744
2026-01-17 12:28:12.60	27.95	5.17	-39.6	-40.9	20.3	0.00e+00	0	27	0	88080384	52	6333
2026-01-17 12:28:13.61	28.06	5.23	-39.3	-40.6	20.5	0.00e+00	77	27	0	90177536	52	6123
2026-01-17 12:28:14.62	28.16	5.28	-39.3	-40.6	20.5	0.00e+00	0	27	0	91226112	52	6119
2026-01-17 12:28:15.63	28.27	5.33	-39.1	-40.4	20.7	0.00e+00	0	27	0	93323264	52	5967
2026-01-17 12:28:16.64	28.37	5.39	-39.3	-40.5	20.6	0.00e+00	0	27	0	95420416	52	6056
2026-01-17 12:28:17.64	28.47	5.44	-39.2	-40.5	20.7	0.00e+00	0	27	0	97517568	52	6039
2026-01-17 12:28:18.65	28.58	5.49	-39.1	-40.3	20.7	0.00e+00	75	27	0	99614720	52	5944
2026-01-17 12:28:19.66	28.69	5.55	-39.0	-40.2	20.9	0.00e+00	0	27	0	100663296	52	5881
2026-01-17 12:28:20.67	28.79	5.60	-39.2	-40.4	20.7	0.00e+00	65	27	0	102760448	52	6002
2026-01-17 12:28:21.68	28.90	5.65	-39.4	-40.7	20.5	0.00e+00	0	27	0	104857600	52	6183
2026-01-17 12:28:22.69	29.01	5.71	-39.4	-40.7	20.5	0.00e+00	60	27	0	106954752	52	6181
2026-01-17 12:28:23.70	29.11	5.76	-39.3	-40.5	20.6	0.00e+00	0	27	0	109051904	52	6059
2026-01-17 12:28:24.71	29.22	5.81	-39.3	-40.6	20.5	0.00e+00	0	27	0	111149056	52	6126
2026-01-17 12:28:25.72	29.33	5.87	-39.5	-40.8	20.5	0.00e+00	0	27	0	112197632	52	6291
2026-01-17 12:28:26.73	29.44	5.92	-39.4	-40.7	20.5	0.00e+00	0	27	0	114294784	52	6175
2026-01-17 12:28:27.74	29.55	5.97	-39.6	-40.9	20.4	0.00e+00	82	27	0	116391936	52	6332
2026-01-17 12:28:28.76	29.66	6.03	-39.7	-41.0	20.3	0.00e+00	0	27	0	118489088	52	6404
2026-01-17 12:28:29.76	29.77	6.08	-39.5	-40.8	20.4	0.00e+00	81	27	0	120586240	52	6317
2026-01-17 12:28:30.77	29.88	6.14	-39.9	-41.2	20.1	0.00e+00	0	27	0	121634816	52	6591
2026-01-17 12:28:31.78	29.99	6.19	-39.9	-41.3	20.0	0.00e+00	0	27	0	123731968	52	6645
2026-01-17 12:28:32.79	30.10	6.24	-39.5	-40.8	20.4	0.00e+00	0	27	0	125829120	52	6288
2026-01-17 12:28:33.79	30.21	6.30	-39.8	-41.1	20.2	0.00e+00	0	27	0	127926272	52	6497
2026-01-17 12:28:34.80	30.32	6.35	-39.9	-41.2	20.0	0.00e+00	22	27	0	130023424	52	6590
2026-01-17 12:28:35.81	30.43	6.40	-39.8	-41.1	20.3	0.00e+00	0	27	0	131072000	52	6495
2026-01-17 12:28:36.82	30.54	6.46	-39.9	-41.2	20.1	0.00e+00	86	27	0	133169152	52	6568
2026-01-17 12:28:37.83	30.66	6.51	-39.9	-41.2	20.1	0.00e+00	0	27	0	135266304	52	6586
2026-01-17 12:28:38.84	30.77	6.57	-39.8	-41.1	20.2	0.00e+00	0	27	0	137363456	52	6486
2026-01-17 12:28:39.85	30.88	6.62	-39.8	-41.1	20.1	0.00e+00	0	27	0	139460608	52	6480
2026-01-17 12:28:40.86	31.00	6.67	-39.5	-40.8	20.4	0.00e+00	0	27	0	140509184	52	6275
2026-01-17 12:28:41.87	31.11	6.73	-39.3	-40.6	20.7	0.00e+00	0	27	0	142606336	52	6108
2026-01-17 12:28:42.88	31.23	6.78	-39.6	-40.9	20.4	0.00e+00	0	27	0	144703488	52	6321
2026-01-17 12:28:43.89	31.34	6.84	-39.4	-40.7	20.6	0.00e+00	86	27	0	146800640	52	6204
2026-01-17 12:28:44.90	31.46	6.89	-39.4	-40.6	20.7	0.00e+00	0	27	0	148897792	52	6148
2026-01-17 12:28:45.91	31.57	6.94	-39.3	-40.5	20.7	0.00e+00	0	27	0	149946368	52	6096
2026-01-17 12:28:46.92	31.69	7.00	-39.2	-40.4	20.8	0.00e+00	0	27	0	152043520	52	6005
2026-01-17 12:28:47.92	31.81	7.05	-39.1	-40.2	21.1	0.00e+00	0	27	0	154140672	52	5890
2026-01-17 12:28:48.93	31.92	7.11	-39.1	-40.3	21.1	0.00e+00	81	27	0	156237824	52	5927
2026-01-17 12:28:49.94	32.04	7.16	-39.1	-40.3	21.0	0.00e+00	0	27	0	158334976	52	5928
2026-01-17 12:28:50.95	32.16	7.21	-39.2	-40.4	20.9	0.00e+00	87	27	0	159383552	52	5971
2026-01-17 12:28:51.96	32.28	7.27	-39.0	-40.2	21.1	0.00e+00	0	27	0	161480704	52	5866
2026-01-17 12:28:52.97	32.40	7.32	-39.1	-40.3	21.0	0.00e+00	19	27	0	163577856	52	5931
2026-01-17 12:28:53.98	32.52	7.38	-38.9	-40.1	21.2	0.00e+00	0	27	0	165675008	52	5776
2026-01-17 12:28:54.99	32.64	7.43	-38.9	-40.0	21.3	0.00e+00	0	27	0	167772160	52	5742
2026-01-17 12:28:55.99	32.76	7.49	-38.6	-39.7	21.4	0.00e+00	17	27	0	168820736	50	6213
2026-01-17 12:28:57.00	32.88	7.54	-38.8	-39.9	21.3	0.00e+00	0	27	0	170917888	50	6362
2026-01-17 12:28:58.01	33.00	7.59	-38.6	-39.7	21.6	0.00e+00	62	27	0	173015040	50	6179
2026-01-17 12:28:59.02	33.12	7.65	-38.3	-39.3	21.8	0.00e+00	0	27	0	175112192	50	5963
2026-01-17 12:29:00.04	33.24	7.70	-38.4	-39.5	21.7	0.00e+00	50	27	0	177209344	50	6057
2026-01-17 12:29:01.04	33.36	7.76	-38.3	-39.4	21.8	0.00e+00	0	27	0	179306496	50	5975
2026-01-17 12:29:02.06	33.49	7.81	-38.6	-39.7	21.6	0.00e+00	0	27	0	180355072	50	6201
2026-01-17 12:29:03.07	33.61	7.87	-38.6	-39.7	21.5	0.00e+00	0	27	0	182452224	50	6212
2026-01-17 12:29:04.08	33.73	7.92	-38.7	-39.8	21.3	0.00e+00	0	27	0	184549376	50	6317
2026-01-17 12:29:05.08	33.86	7.97	-38.8	-39.9	21.4	0.00e+00	92	27	0	186646528	50	6347
2026-01-17 12:29:06.09	33.98	8.03	-38.8	-39.9	21.4	0.00e+00	0	27	0	188743680	50	6333
2026-01-17 12:29:07.10	34.11	8.08	-38.6	-39.7	21.5	0.00e+00	92	27	0	189792256	50	6241
2026-01-17 12:29:08.11	34.23	8.14	-38.8	-39.9	21.4	0.00e+00	0	27	0	191889408	50	6332
2026-01-17 12:29:09.12	34.36	8.19	-38.9	-40.0	20.8	0.00e+00	0	27	0	193986560	50	6429
2026-01-17 12:29:10.13	34.49	8.25	-38.7	-39.8	21.3	0.00e+00	0	27	0	196083712	50	6252
2026-01-17 12:29:11.14	34.61	8.30	-38.7	-39.8	21.4	0.00e+00	32	27	0	198180864	50	6286
2026-01-17 12:29:12.15	34.74	8.35	-38.8	-39.9	21.5	0.00e+00	23	27	0	199229440	50	6380
2026-01-17 12:29:13.16	34.87	8.41	-38.7	-39.8	21.5	0.00e+00	0	27	0	201326592	50	6311
2026-01-17 12:29:14.17	35.00	8.46	-38.9	-40.0	21.3	0.00e+00	92	27	0	203423744	50	6431
2026-01-17 12:29:15.18	35.12	8.52	-38.9	-40.0	21.2	0.00e+00	0	27	0	205520896	50	6461
2026-01-17 12:29:16.19	35.25	8.57	-38.8	-39.9	21.4	0.00e+00	0	27	0	207618048	50	6341
2026-01-17 12:29:17.20	35.38	8.63	-38.8	-40.0	21.4	0.00e+00	0	27	0	208666624	50	6396
2026-01-17 12:29:18.21	35.51	8.68	-38.8	-40.0	21.3	0.00e+00	0	27	0	210763776	50	6404
2026-01-17 12:29:19.22	35.64	8.73	-39.0	-40.1	21.2	0.00e+00	0	27	0	212860928	50	6538
2026-01-17 12:29:20.23	35.77	8.79	-38.9	-40.1	21.3	0.00e+00	0	27	0	214958080	50	6498
2026-01-17 12:29:21.23	35.91	8.84	-38.9	-40.1	21.3	0.00e+00	92	27	0	217055232	50	6475
2026-01-17 12:29:22.24	36.04	8.90	-38.9	-40.1	21.3	0.00e+00	0	27	0	218103808	50	6469
2026-01-17 12:29:23.25	36.17	8.95	-39.1	-40.2	21.1	0.00e+00	0	27	0	220200960	50	6605
2026-01-17 12:29:24.26	36.30	9.01	-38.9	-40.0	21.4	0.00e+00	0	27	0	222298112	50	6420
2026-01-17 12:29:25.27	36.44	9.06	-39.0	-40.1	21.2	0.00e+00	0	27	0	224395264	50	6496
2026-01-17 12:29:26.28	36.57	9.11	-39.1	-40.2	21.1	0.00e+00	0	27	0	226492416	50	6608
2026-01-17 12:29:27.29	36.70	9.17	-39.4	-40.6	20.8	0.00e+00	0	27	0	227540992	50	6870
2026-01-17 12:29:28.29	36.84	9.22	-39.4	-40.6	20.9	0.00e+00	83	27	0	229638144	50	6868
2026-01-17 12:29:29.31	36.97	9.28	-39.2	-40.4	21.0	0.00e+00	0	27	0	231735296	50	6696
2026-01-17 12:29:30.31	37.11	9.33	-39.1	-40.3	21.1	0.00e+00	87	27	0	233832448	50	6669
2026-01-17 12:29:31.32	37.25	9.38	-38.9	-40.0	21.4	0.00e+00	0	27	0	235929600	50	6431
2026-01-17 12:29:32.33	37.38	9.44	-38.9	-40.1	21.3	0.00e+00	0	27	0	236978176	50	6467
2026-01-17 12:29:33.34	37.52	9.49	-38.9	-40.1	21.3	0.00e+00	0	27	0	239075328	50	6485
2026-01-17 12:29:34.35	37.66	9.55	-38.8	-39.9	21.4	0.00e+00	0	27	0	241172480	50	6372
2026-01-17 12:29:35.36	37.80	9.60	-38.5	-39.6	21.6	0.00e+00	27	27	0	243269632	50	6154
2026-01-17 12:29:36.37	37.93	9.65	-38.4	-39.4	21.9	0.00e+00	0	27	0	245366784	50	6019
2026-01-17 12:29:37.38	38.07	9.71	-38.4	-39.5	21.8	0.00e+00	21	27	0	247463936	50	6077
2026-01-17 12:29:38.38	38.21	9.76	-38.4	-39.4	21.9	0.00e+00	0	27	0	248512512	50	6010
2026-01-17 12:29:39.39	38.35	9.82	-38.2	-39.3	22.0	0.00e+00	0	27	0	250609664	50	5917
2026-01-17 12:29:40.40	38.49	9.87	-38.2	-39.2	22.0	0.00e+00	0	27	0	252706816	50	5882
2026-01-17 12:29:41.41	38.63	9.92	-38.3	-39.4	21.9	0.00e+00	0	27	0	254803968	50	5970
2026-01-17 12:29:42.42	38.78	9.98	-38.3	-39.3	22.0	0.00e+00	79	27	0	256901120	50	5959
2026-01-17 12:29:43.43	38.92	10.03	-38.2	-39.3	22.1	0.00e+00	0	27	0	257949696	50	5925
2026-01-17 12:29:44.44	39.06	10.08	-38.2	-39.3	22.1	0.00e+00	81	27	0	260046848	50	5938
2026-01-17 12:29:45.45	39.20	10.14	-38.2	-39.2	22.1	0.00e+00	0	27	0	262144000	50	5871
2026-01-17 12:29:46.46	39.35	10.19	-38.0	-39.0	22.2	0.00e+00	0	27	0	264241152	50	5740
2026-01-17 12:29:47.47	39.49	10.25	-37.9	-38.9	22.2	0.00e+00	0	27	0	265289728	48	6363
2026-01-17 12:29:48.47	39.64	10.30	-37.5	-38.5	22.6	0.00e+00	0	27	0	267386880	48	6049
2026-01-17 12:29:49.48	39.78	10.35	-37.6	-38.6	22.7	0.00e+00	0	27	0	269484032	48	6130
2026-01-17 12:29:50.49	39.93	10.41	-37.2	-38.2	23.0	0.00e+00	0	27	0	271581184	48	5843
2026-01-17 12:29:51.50	40.07	10.46	-37.3	-38.2	22.9	0.00e+00	66	27	0	273678336	48	5883
2026-01-17 12:29:52.50	40.22	10.51	-37.3	-38.3	22.8	0.00e+00	0	27	0	275775488	48	5903
2026-01-17 12:29:53.51	40.37	10.57	-37.4	-38.3	22.8	0.00e+00	0	27	0	276824064	48	5944
2026-01-17 12:29:54.52	40.51	10.62	-37.5	-38.5	22.7	0.00e+00	0	27	0	278921216	48	6050
2026-01-17 12:29:55.53	40.66	10.67	-37.6	-38.6	22.7	0.00e+00	0	27	0	281018368	48	6143
2026-01-17 12:29:56.54	40.81	10.73	-37.9	-38.9	22.4	0.00e+00	81	27	0	283115520	48	6381
2026-01-17 12:29:57.55	40.96	10.78	-37.9	-38.9	22.3	0.00e+00	0	27	0	285212672	48	6330
2026-01-17 12:29:58.56	41.11	10.83	-38.0	-39.0	22.2	0.00e+00	84	27	0	286261248	48	6461
2026-01-17 12:29:59.57	41.26	10.89	-37.9	-38.9	22.2	0.00e+00	0	27	0	288358400	48	6348
2026-01-17 12:30:00.58	41.41	10.94	-38.2	-39.3	22.2	0.00e+00	0	27	0	290455552	48	6645
2026-01-17 12:30:01.59	41.56	10.99	-38.1	-39.1	22.2	0.00e+00	0	27	0	292552704	48	6507
2026-01-17 12:30:02.60	41.72	11.04	-38.2	-39.2	22.3	0.00e+00	0	27	0	294649856	48	6577
2026-01-17 12:30:03.60	41.87	11.10	-37.8	-38.8	22.5	0.00e+00	0	27	0	295698432	48	6265
2026-01-17 12:30:04.61	42.02	11.15	-37.7	-38.7	22.6	0.00e+00	0	27	0	297795584	48	6197
2026-01-17 12:30:05.62	42.17	11.20	-37.6	-38.6	22.6	0.00e+00	66	27	0	299892736	48	6156
2026-01-17 12:30:06.63	42.33	11.25	-37.7	-38.7	22.7	0.00e+00	0	27	0	301989888	48	6187
2026-01-17 12:30:07.64	42.48	11.31	-37.6	-38.6	22.7	0.00e+00	4	27	0	304087040	48	6154
2026-01-17 12:30:08.65	42.64	11.36	-37.8	-38.8	22.6	0.00e+00	0	27	0	305135616	48	6272
2026-01-17 12:30:09.66	42.79	11.41	-37.8	-38.8	22.5	0.00e+00	0	27	0	307232768	48	6275
2026-01-17 12:30:10.67	42.95	11.46	-37.8	-38.9	22.3	0.00e+00	0	27	0	309329920	48	6318
2026-01-17 12:30:11.68	43.11	11.52	-38.0	-39.0	22.3	0.00e+00	0	27	0	311427072	48	6424
2026-01-17 12:30:12.69	43.26	11.57	-37.8	-38.8	22.5	0.00e+00	62	27	0	313524224	48	6252
2026-01-17 12:30:13.70	43.42	11.62	-37.6	-38.6	22.6	0.00e+00	0	27	0	314572800	48	6109
2026-01-17 12:30:14.71	43.58	11.67	-37.6	-38.6	22.6	0.00e+00	77	27	0	316669952	48	6126
2026-01-17 12:30:15.72	43.74	11.73	-37.5	-38.5	22.7	0.00e+00	0	27	0	318767104	48	6056
2026-01-17 12:30:16.72	43.90	11.78	-37.7	-38.7	22.5	0.00e+00	0	27	0	320864256	48	6212
2026-01-17 12:30:17.73	44.06	11.83	-37.6	-38.6	22.5	0.00e+00	0	27	0	322961408	48	6165
2026-01-17 12:30:18.74	44.22	11.88	-37.6	-38.6	22.3	0.00e+00	0	27	0	324009984	48	6144
2026-01-17 12:30:19.75	44.38	11.93	-37.8	-38.8	22.5	0.00e+00	5	27	0	326107136	48	6253
2026-01-17 12:30:20.76	44.54	11.98	-37.7	-38.7	22.6	0.00e+00	0	27	0	328204288	48	6197
2026-01-17 12:30:21.77	44.71	12.03	-37.7	-38.7	22.6	0.00e+00	67	27	0	330301440	48	6196
2026-01-17 12:30:22.77	44.87	12.09	-38.1	-39.1	22.3	0.00e+00	0	27	0	332398592	48	6491
2026-01-17 12:30:23.78	45.03	12.14	-37.7	-38.7	22.6	0.00e+00	0	27	0	333447168	48	6175
2026-01-17 12:30:24.79	45.19	12.19	-37.6	-38.6	22.6	0.00e+00	0	27	0	335544320	48	6132
2026-01-17 12:30:25.80	45.36	12.24	-37.8	-38.8	22.5	0.00e+00	0	27	0	337641472	48	6274
2026-01-17 12:30:26.82	45.53	12.29	-37.8	-38.8	22.5	0.00e+00	73	27	0	339738624	48	6261
2026-01-17 12:30:27.82	45.69	12.34	-37.5	-38.5	22.8	0.00e+00	0	27	0	341835776	48	6076
2026-01-17 12:30:28.83	45.86	12.39	-37.8	-38.8	22.5	0.00e+00	86	27	0	343932928	48	6295
2026-01-17 12:30:29.84	46.02	12.44	-38.0	-39.0	22.4	0.00e+00	0	27	0	344981504	48	6403
2026-01-17 12:30:30.85	46.19	12.49	-37.9	-38.9	22.5	0.00e+00	0	27	0	347078656	48	6331
2026-01-17 12:30:31.86	46.36	12.54	-38.0	-39.1	22.3	0.00e+00	0	27	0	349175808	48	6479
2026-01-17 12:30:32.87	46.53	12.59	-38.2	-39.3	22.1	0.00e+00	0	27	0	351272960	48	6654
2026-01-17 12:30:33.88	46.70	12.64	-38.4	-39.5	22.0	0.00e+00	0	27	0	353370112	48	6795
2026-01-17 12:30:34.89	46.87	12.69	-38.6	-39.7	21.8	0.00e+00	0	27	0	354418688	48	6944
2026-01-17 12:30:35.90	47.04	12.74	-38.2	-39.3	22.1	0.00e+00	86	27	0	356515840	48	6636
2026-01-17 12:30:36.90	47.20	12.79	-38.3	-39.4	22.1	0.00e+00	0	27	0	358612992	48	6700
2026-01-17 12:30:37.91	47.38	12.84	-38.1	-39.1	22.1	0.00e+00	88	27	0	360710144	48	6510
2026-01-17 12:30:38.92	47.55	12.89	-38.0	-39.0	22.4	0.00e+00	0	27	0	361758720	48	6404
2026-01-17 12:30:39.93	47.72	12.94	-38.0	-39.0	22.4	0.00e+00	0	27	0	363855872	48	6403
2026-01-17 12:30:40.94	47.89	12.99	-38.1	-39.1	22.3	0.00e+00	57	27	0	365953024	48	6520
2026-01-17 12:30:41.95	48.07	13.04	-38.2	-39.3	22.1	0.00e+00	0	27	0	368050176	48	6624
2026-01-17 12:30:42.96	48.24	13.09	-38.4	-39.5	21.9	0.00e+00	18	27	0	370147328	48	6773
2026-01-17 12:30:43.97	48.42	13.14	-38.6	-39.7	21.8	0.00e+00	0	27	0	372244480	48	6966
2026-01-17 12:30:44.98	48.59	13.19	-38.5	-39.6	21.9	0.00e+00	42	27	0	373293056	48	6920
2026-01-17 12:30:45.98	48.76	13.23	-38.7	-39.9	21.7	0.00e+00	0	27	0	375390208	50	6320
2026-01-17 12:30:46.99	48.94	13.28	-38.4	-39.5	21.9	0.00e+00	0	27	0	377487360	50	6068
2026-01-17 12:30:48.00	49.12	13.33	-38.4	-39.4	22.0	0.00e+00	0	27	0	379584512	50	6029
2026-01-17 12:30:49.01	49.30	13.38	-38.5	-39.6	21.9	0.00e+00	0	27	0	381681664	50	6131
2026-01-17 12:30:50.02	49.47	13.43	-38.3	-39.4	22.1	0.00e+00	0	27	0	382730240	50	6000
2026-01-17 12:30:51.03	49.65	13.47	-38.2	-39.2	22.1	0.00e+00	0	27	0	384827392	50	5884
2026-01-17 12:30:52.04	49.83	13.52	-38.3	-39.4	22.0	0.00e+00	33	27	0	386924544	50	5989
2026-01-17 12:30:53.05	50.01	13.57	-38.5	-39.6	22.0	0.00e+00	0	27	0	389021696	50	6108
2026-01-17 12:30:54.06	50.19	13.62	-38.7	-39.8	21.7	0.00e+00	0	27	0	391118848	50	6276
2026-01-17 12:30:55.07	50.37	13.66	-38.7	-39.8	21.7	0.00e+00	0	27	0	392167424	50	6247
2026-01-17 12:30:56.08	50.55	13.71	-38.5	-39.6	21.8	0.00e+00	0	27	0	394264576	50	6153
2026-01-17 12:30:57.08	50.73	13.76	-38.5	-39.6	21.9	0.00e+00	60	27	0	396361728	50	6153
2026-01-17 12:30:58.09	50.92	13.80	-38.6	-39.6	21.9	0.00e+00	0	27	0	398458880	50	6171
2026-01-17 12:30:59.11	51.10	13.85	-38.7	-39.8	21.8	0.00e+00	69	27	0	400556032	50	6249
2026-01-17 12:31:00.11	51.28	13.90	-38.8	-40.0	21.6	0.00e+00	0	27	0	401604608	50	6403
2026-01-17 12:31:01.12	51.47	13.94	-39.0	-40.2	21.4	0.00e+00	0	27	0	403701760	50	6555
2026-01-17 12:31:02.13	51.65	13.99	-39.0	-40.2	21.4	0.00e+00	0	27	0	405798912	50	6567
2026-01-17 12:31:03.14	51.84	14.03	-39.0	-40.1	21.4	0.00e+00	0	27	0	407896064	50	6499
2026-01-17 12:31:04.15	52.02	14.08	-39.1	-40.2	21.4	0.00e+00	0	27	0	409993216	50	6594
2026-01-17 12:31:05.16	52.21	14.13	-39.1	-40.2	21.4	0.00e+00	0	27	0	411041792	50	6581
2026-01-17 12:31:06.17	52.40	14.17	-39.0	-40.2	21.4	0.00e+00	92	27	0	413138944	50	6560
2026-01-17 12:31:07.17	52.58	14.21	-38.8	-39.9	21.6	0.00e+00	0	27	0	415236096	50	6378
2026-01-17 12:31:08.18	52.77	14.26	-38.9	-40.0	21.5	0.00e+00	35	27	0	417333248	50	6432
2026-01-17 12:31:09.19	52.96	14.30	-39.1	-40.2	21.3	0.00e+00	0	27	0	419430400	50	6610
2026-01-17 12:31:10.20	53.15	14.35	-39.1	-40.2	21.2	0.00e+00	0	27	0	420478976	50	6589
2026-01-17 12:31:11.21	53.34	14.39	-39.2	-40.4	21.3	0.00e+00	0	27	0	422576128	50	6712
2026-01-17 12:31:12.22	53.53	14.44	-39.2	-40.4	21.1	0.00e+00	0	27	0	424673280	50	6707
2026-01-17 12:31:13.22	53.72	14.48	-39.6	-40.8	21.0	0.00e+00	84	27	0	426770432	50	7038
2026-01-17 12:31:14.23	53.91	14.52	-39.4	-40.6	21.1	0.00e+00	0	27	0	428867584	50	6924
2026-01-17 12:31:15.24	54.10	14.57	-39.5	-40.7	20.9	0.00e+00	92	27	0	429916160	50	6997
2026-01-17 12:31:16.25	54.29	14.61	-39.5	-40.7	21.0	0.00e+00	0	27	0	432013312	50	7003
2026-01-17 12:31:17.26	54.48	14.65	-39.6	-40.8	20.9	0.00e+00	0	27	0	434110464	50	7035
2026-01-17 12:31:18.27	54.68	14.70	-39.6	-40.9	20.9	0.00e+00	0	27	0	436207616	52	6319
2026-01-17 12:31:19.28	54.87	14.74	-40.0	-41.3	20.6	0.00e+00	0	27	0	438304768	52	6646
2026-01-17 12:31:20.29	55.07	14.78	-40.2	-41.5	20.3	0.00e+00	56	27	0	440401920	52	6838
2026-01-17 12:31:21.30	55.26	14.82	-40.0	-41.3	20.5	0.00e+00	0	27	0	441450496	52	6647
2026-01-17 12:31:22.31	55.46	14.86	-40.1	-41.4	20.5	0.00e+00	90	27	0	443547648	52	6706
2026-01-17 12:31:23.32	55.65	14.90	-39.7	-41.0	20.8	0.00e+00	0	27	0	445644800	52	6396
2026-01-17 12:31:24.32	55.85	14.95	-39.5	-40.7	21.0	0.00e+00	0	27	0	447741952	52	6205
2026-01-17 12:31:25.33	56.05	14.99	-39.3	-40.5	21.3	0.00e+00	0	27	0	449839104	52	6054
2026-01-17 12:31:26.34	56.24	15.03	-39.0	-40.1	21.4	0.00e+00	33	27	0	450887680	52	5804
2026-01-17 12:31:27.35	56.44	15.07	-38.9	-40.0	21.6	0.00e+00	84	27	0	452984832	52	5739
2026-01-17 12:31:28.36	56.64	15.11	-39.1	-40.2	21.4	0.00e+00	0	27	0	455081984	52	5872
2026-01-17 12:31:29.37	56.84	15.15	-39.2	-40.4	21.3	0.00e+00	67	27	0	457179136	52	6006
2026-01-17 12:31:30.38	57.04	15.19	-39.3	-40.5	21.2	0.00e+00	0	27	0	459276288	52	6076
2026-01-17 12:31:31.39	57.24	15.23	-39.5	-40.7	21.0	0.00e+00	0	27	0	460324864	52	6236
2026-01-17 12:31:32.39	57.44	15.27	-39.4	-40.6	21.1	0.00e+00	0	27	0	462422016	52	6165
2026-01-17 12:31:33.40	57.64	15.31	-39.3	-40.4	21.3	0.00e+00	0	27	0	464519168	52	6019
2026-01-17 12:31:34.41	57.84	15.34	-39.3	-40.4	21.3	0.00e+00	57	27	0	466616320	52	6015
2026-01-17 12:31:35.42	58.05	15.38	-38.9	-40.0	21.6	0.00e+00	0	27	0	468713472	52	5708
2026-01-17 12:31:36.43	58.25	15.42	-38.7	-39.8	21.8	0.00e+00	84	27	0	469762048	52	5586
2026-01-17 12:31:37.44	58.45	15.46	-38.8	-39.9	21.8	0.00e+00	0	27	0	471859200	50	6342
2026-01-17 12:31:38.45	58.66	15.50	-38.5	-39.6	21.9	0.00e+00	0	27	0	473956352	50	6138
2026-01-17 12:31:39.46	58.86	15.53	-38.3	-39.3	22.2	0.00e+00	0	27	0	476053504	50	5923
2026-01-17 12:31:40.47	59.07	15.57	-38.6	-39.6	21.8	0.00e+00	0	27	0	478150656	50	6153
2026-01-17 12:31:41.48	59.27	15.61	-38.4	-39.5	22.0	0.00e+00	65	27	0	479199232	50	6059
2026-01-17 12:31:42.49	59.48	15.64	-38.1	-39.1	22.4	0.00e+00	0	27	0	481296384	50	5825
2026-01-17 12:31:43.50	59.68	15.68	-37.9	-38.9	22.6	0.00e+00	81	27	0	483393536	50	5686
2026-01-17 12:31:44.51	59.89	15.72	-37.7	-38.7	22.7	0.00e+00	0	27	0	485490688	48	6207
2026-01-17 12:31:45.51	60.10	15.75	-37.6	-38.6	22.8	0.00e+00	83	27	0	487587840	48	6106
2026-01-17 12:31:46.52	60.30	15.79	-37.6	-38.6	22.8	0.00e+00	0	27	0	488636416	48	6131
2026-01-17 12:31:47.53	60.51	15.82	-37.6	-38.6	22.7	0.00e+00	0	27	0	490733568	48	6148
2026-01-17 12:31:48.54	60.72	15.86	-37.7	-38.7	22.7	0.00e+00	0	27	0	492830720	48	6205
2026-01-17 12:31:49.55	60.93	15.89	-37.7	-38.6	22.7	0.00e+00	0	27	0	494927872	48	6154
2026-01-17 12:31:50.56	61.14	15.92	-37.7	-38.7	22.7	0.00e+00	82	27	0	497025024	48	6191
2026-01-17 12:31:51.57	61.35	15.96	-37.8	-38.8	22.6	0.00e+00	0	27	0	498073600	48	6310
2026-01-17 12:31:52.58	61.56	15.99	-37.8	-38.8	22.6	0.00e+00	86	27	0	500170752	48	6254
2026-01-17 12:31:53.59	61.77	16.02	-37.9	-38.9	22.4	0.00e+00	0	27	0	502267904	48	6357
2026-01-17 12:31:54.60	61.98	16.06	-37.9	-38.9	21.9	0.00e+00	0	27	0	504365056	48	6330
2026-01-17 12:31:55.61	62.20	16.09	-38.1	-39.1	22.3	0.00e+00	0	27	0	506462208	48	6485
2026-01-17 12:31:56.62	62.41	16.12	-38.3	-39.3	22.2	0.00e+00	0	27	0	507510784	48	6684
2026-01-17 12:31:57.62	62.62	16.15	-38.4	-39.4	22.0	0.00e+00	84	27	0	509607936	48	6751
2026-01-17 12:31:58.63	62.83	16.18	-38.4	-39.5	22.1	0.00e+00	0	27	0	511705088	48	6821
2026-01-17 12:31:59.64	63.05	16.22	-38.7	-39.8	21.8	0.00e+00	90	27	0	513802240	48	7069
2026-01-17 12:32:00.65	63.26	16.25	-38.8	-40.0	21.6	0.00e+00	0	27	0	515899392	50	6404
2026-01-17 12:32:01.66	63.48	16.28	-38.9	-40.0	21.6	0.00e+00	0	27	0	516947968	50	6413
2026-01-17 12:32:02.67	63.69	16.31	-38.6	-39.7	21.8	0.00e+00	0	27	0	519045120	50	6236
2026-01-17 12:32:03.68	63.91	16.34	-38.7	-39.8	21.8	0.00e+00	0	27	0	521142272	50	6263
2026-01-17 12:32:04.69	64.12	16.37	-38.7	-39.8	21.8	0.00e+00	0	27	0	523239424	50	6280
2026-01-17 12:32:05.70	64.34	16.39	-38.5	-39.6	22.0	0.00e+00	0	27	0	525336576	50	6118
2026-01-17 12:32:06.71	64.56	16.42	-38.2	-39.3	22.2	0.00e+00	91	27	0	526385152	50	5925
2026-01-17 12:32:07.72	64.77	16.45	-38.2	-39.2	22.2	0.00e+00	0	27	0	528482304	50	5880
2026-01-17 12:32:08.73	64.99	16.48	-37.5	-38.5	22.8	0.00e+00	0	27	0	530579456	48	6069
2026-01-17 12:32:09.74	65.21	16.51	-37.6	-38.6	22.8	0.00e+00	0	27	0	532676608	48	6114
2026-01-17 12:32:10.75	65.43	16.53	-37.4	-38.3	23.0	0.00e+00	0	27	0	534773760	48	5948
2026-01-17 12:32:11.76	65.65	16.56	-37.6	-38.5	22.8	0.00e+00	81	27	0	536870912	48	6098
2026-01-17 12:32:12.77	65.87	16.59	-37.9	-39.0	22.4	0.00e+00	0	27	0	537919488	48	6400
2026-01-17 12:32:13.78	66.09	16.61	-38.3	-39.4	22.1	0.00e+00	77	27	0	540016640	48	6699
2026-01-17 12:32:14.79	66.31	16.64	-38.5	-39.6	22.0	0.00e+00	0	27	0	542113792	48	6878
2026-01-17 12:32:15.80	66.53	16.67	-38.4	-39.5	22.0	0.00e+00	0	27	0	544210944	48	6782
2026-01-17 12:32:16.81	66.75	16.69	-38.3	-39.4	22.1	0.00e+00	0	27	0	546308096	48	6698
2026-01-17 12:32:17.82	66.97	16.72	-38.2	-39.2	22.2	0.00e+00	0	27	0	547356672	48	6615
2026-01-17 12:32:18.83	67.19	16.74	-38.4	-39.4	22.2	0.00e+00	0	27	0	549453824	48	6738
2026-01-17 12:32:19.84	67.41	16.76	-38.3	-39.3	22.1	0.00e+00	0	27	0	551550976	48	6685
2026-01-17 12:32:20.84	67.63	16.79	-38.5	-39.5	21.9	0.00e+00	86	27	0	553648128	48	6834
2026-01-17 12:32:21.85	67.85	16.81	-38.6	-39.7	21.9	0.00e+00	0	27	0	555745280	48	6970
2026-01-17 12:32:22.86	68.08	16.83	-38.5	-39.6	21.9	0.00e+00	91	27	0	556793856	50	6112
2026-01-17 12:32:23.87	68.30	16.86	-38.1	-39.1	22.4	0.00e+00	0	27	0	558891008	50	5771
2026-01-17 12:32:24.88	68.52	16.88	-37.8	-38.8	22.6	0.00e+00	0	27	0	560988160	50	5608
2026-01-17 12:32:25.89	68.75	16.90	-37.5	-38.4	22.9	0.00e+00	0	27	0	563085312	48	6022
2026-01-17 12:32:26.90	68.97	16.92	-37.3	-38.2	23.0	0.00e+00	0	27	0	565182464	48	5871
2026-01-17 12:32:27.91	69.20	16.94	-37.7	-38.7	22.7	0.00e+00	88	27	0	566231040	48	6184
2026-01-17 12:32:28.92	69.42	16.96	-37.8	-38.8	22.6	0.00e+00	0	27	0	568328192	48	6256
2026-01-17 12:32:29.93	69.65	16.98	-37.9	-38.9	22.5	0.00e+00	92	27	0	570425344	48	6360
2026-01-17 12:32:30.94	69.87	17.00	-38.0	-39.0	22.3	0.00e+00	0	27	0	572522496	48	6455
2026-01-17 12:32:31.95	70.10	17.02	-37.9	-38.9	22.5	0.00e+00	0	27	0	574619648	48	6374
2026-01-17 12:32:32.95	70.32	17.04	-37.9	-38.9	22.5	0.00e+00	0	27	0	575668224	48	6318
2026-01-17 12:32:33.96	70.55	17.06	-37.5	-38.5	22.8	0.00e+00	0	27	0	577765376	48	6067
2026-01-17 12:32:34.97	70.77	17.07	-37.4	-38.4	22.9	0.00e+00	25	27	0	579862528	48	5968
2026-01-17 12:32:35.99	71.00	17.09	-37.5	-38.4	22.9	0.00e+00	0	27	0	581959680	48	6006
2026-01-17 12:32:36.99	71.23	17.11	-37.9	-38.9	22.4	0.00e+00	92	27	0	584056832	48	6372
2026-01-17 12:32:38.01	71.46	17.13	-38.4	-39.5	22.0	0.00e+00	0	27	0	585105408	48	6781
2026-01-17 12:32:39.02	71.68	17.14	-38.7	-39.8	21.9	0.00e+00	0	27	0	587202560	50	6286
2026-01-17 12:32:40.03	71.91	17.16	-38.9	-40.1	21.6	0.00e+00	0	27	0	589299712	50	6471
2026-01-17 12:32:41.03	72.14	17.17	-39.1	-40.2	21.5	0.00e+00	0	27	0	591396864	50	6566
2026-01-17 12:32:42.04	72.36	17.19	-39.0	-40.1	21.5	0.00e+00	0	27	0	593494016	50	6532
2026-01-17 12:32:43.05	72.59	17.20	-39.0	-40.1	21.6	0.00e+00	0	27	0	594542592	50	6493
2026-01-17 12:32:44.06	72.82	17.22	-39.1	-40.2	21.4	0.00e+00	91	27	0	596639744	50	6604
2026-01-17 12:32:45.07	73.05	17.23	-39.4	-40.5	21.2	0.00e+00	0	27	0	598736896	50	6842
2026-01-17 12:32:46.08	73.28	17.24	-39.6	-40.8	20.9	0.00e+00	0	27	0	600834048	50	7052
2026-01-17 12:32:47.09	73.51	17.26	-39.9	-41.2	20.7	0.00e+00	0	27	0	602931200	52	6548
2026-01-17 12:32:48.10	73.74	17.27	-39.8	-41.1	20.7	0.00e+00	0	27	0	605028352	52	6481
2026-01-17 12:32:49.11	73.97	17.28	-39.5	-40.7	20.9	0.00e+00	49	27	0	606076928	52	6229
2026-01-17 12:32:50.12	74.20	17.29	-39.4	-40.6	21.3	0.00e+00	0	27	0	608174080	52	6107
2026-01-17 12:32:51.12	74.42	17.30	-39.2	-40.3	21.1	0.00e+00	90	27	0	610271232	52	5952
2026-01-17 12:32:52.13	74.65	17.32	-39.1	-40.3	21.6	0.00e+00	32	27	0	612368384	52	5907
2026-01-17 12:32:53.14	74.88	17.33	-39.2	-40.3	21.4	0.00e+00	92	27	0	614465536	52	5931
2026-01-17 12:32:54.15	75.11	17.34	-39.2	-40.4	21.5	0.00e+00	0	27	0	615514112	52	5988
2026-01-17 12:32:55.16	75.35	17.34	-38.6	-39.7	21.9	0.00e+00	0	27	0	617611264	50	6198
2026-01-17 12:32:56.17	75.58	17.35	-38.5	-39.6	22.0	0.00e+00	17	27	0	619708416	50	6133
2026-01-17 12:32:57.19	75.81	17.36	-38.4	-39.4	22.3	0.00e+00	0	27	0	621805568	50	5990
2026-01-17 12:32:58.19	76.04	17.37	-38.1	-39.1	22.4	0.00e+00	91	27	0	623902720	50	5802
2026-01-17 12:32:59.20	76.27	17.38	-38.2	-39.2	22.3	0.00e+00	0	27	0	624951296	50	5885
2026-01-17 12:33:00.21	76.50	17.39	-38.4	-39.5	22.1	0.00e+00	91	27	0	627048448	50	6062
2026-01-17 12:33:01.22	76.73	17.39	-38.6	-39.7	21.8	0.00e+00	0	27	0	629145600	50	6191
2026-01-17 12:33:02.23	76.96	17.40	-38.7	-39.8	21.9	0.00e+00	0	27	0	631242752	50	6257
2026-01-17 12:33:03.24	77.19	17.40	-38.6	-39.7	21.9	0.00e+00	0	27	0	633339904	50	6177
2026-01-17 12:33:04.25	77.43	17.41	-38.5	-39.5	22.0	0.00e+00	0	27	0	634388480	50	6085
2026-01-17 12:33:05.26	77.66	17.41	-38.4	-39.5	22.1	0.00e+00	84	27	0	636485632	50	6042
2026-01-17 12:33:06.27	77.89	17.42	-38.3	-39.4	22.2	0.00e+00	0	27	0	638582784	50	5978
2026-01-17 12:33:07.27	78.12	17.42	-38.3	-39.4	22.2	0.00e+00	92	27	0	640679936	50	5988
2026-01-17 12:33:08.28	78.35	17.43	-38.4	-39.4	22.1	0.00e+00	0	27	0	642777088	50	6023
2026-01-17 12:33:09.29	78.58	17.43	-38.6	-39.7	22.0	0.00e+00	0	27	0	643825664	50	6178
2026-01-17 12:33:10.30	78.81	17.43	-38.7	-39.8	21.9	0.00e+00	0	27	0	645922816	50	6256
2026-01-17 12:33:11.31	79.05	17.43	-38.6	-39.6	22.1	0.00e+00	0	27	0	648019968	50	6152
2026-01-17 12:33:12.32	79.28	17.44	-38.4	-39.5	22.2	0.00e+00	0	27	0	650117120	50	6046
2026-01-17 12:33:13.33	79.51	17.44	-38.3	-39.4	22.3	0.00e+00	0	27	0	652214272	50	5965
2026-01-17 12:33:14.34	79.74	17.44	-38.0	-39.0	22.4	0.00e+00	68	27	0	653262848	50	5732
2026-01-17 12:33:15.35	79.97	17.44	-38.0	-39.0	22.4	0.00e+00	0	27	0	655360000	50	5724
2026-01-17 12:33:16.36	80.21	17.44	-38.1	-39.1	22.5	0.00e+00	0	27	0	657457152	50	5793
2026-01-17 12:33:17.37	80.44	17.44	-38.0	-39.0	22.4	0.00e+00	0	27	0	659554304	50	5716
2026-01-17 12:33:18.38	80.67	17.44	-38.2	-39.2	22.4	0.00e+00	0	27	0	661651456	50	5832
2026-01-17 12:33:19.39	80.90	17.44	-38.1	-39.1	22.3	0.00e+00	73	27	0	662700032	50	5809
2026-01-17 12:33:20.39	81.13	17.43	-38.2	-39.2	22.2	0.00e+00	0	27	0	664797184	50	5880
2026-01-17 12:33:21.40	81.36	17.43	-38.3	-39.4	22.1	0.00e+00	92	27	0	666894336	50	5991
2026-01-17 12:33:22.41	81.60	17.43	-38.3	-39.4	22.1	0.00e+00	0	27	0	668991488	50	6021
2026-01-17 12:33:23.42	81.83	17.43	-38.3	-39.4	22.1	0.00e+00	0	27	0	671088640	50	6000
2026-01-17 12:33:24.43	82.06	17.42	-38.6	-39.7	21.8	0.00e+00	0	27	0	672137216	50	6244
2026-01-17 12:33:25.44	82.29	17.42	-38.7	-39.8	21.7	0.00e+00	0	27	0	674234368	50	6296
2026-01-17 12:33:26.45	82.52	17.41	-38.9	-40.0	21.6	0.00e+00	57	27	0	676331520	50	6441
2026-01-17 12:33:27.46	82.76	17.41	-38.8	-39.9	21.6	0.00e+00	0	27	0	678428672	50	6380
2026-01-17 12:33:28.46	82.99	17.40	-38.7	-39.8	21.8	0.00e+00	58	27	0	680525824	50	6313
2026-01-17 12:33:29.47	83.22	17.40	-38.9	-40.0	21.8	0.00e+00	0	27	0	682622976	50	6391
2026-01-17 12:33:30.48	83.45	17.39	-39.0	-40.1	21.6	0.00e+00	88	27	0	683671552	50	6489
2026-01-17 12:33:31.49	83.68	17.39	-39.0	-40.1	21.5	0.00e+00	0	27	0	685768704	50	6480
2026-01-17 12:33:32.50	83.91	17.38	-39.1	-40.3	20.9	0.00e+00	0	27	0	687865856	50	6623
2026-01-17 12:33:33.51	84.14	17.37	-39.4	-40.5	21.2	0.00e+00	0	27	0	689963008	50	6843
2026-01-17 12:33:34.52	84.37	17.36	-39.2	-40.4	21.3	0.00e+00	0	27	0	692060160	50	6751
2026-01-17 12:33:35.54	84.61	17.35	-39.1	-40.3	21.5	0.00e+00	79	27	0	693108736	50	6639
2026-01-17 12:33:36.54	84.84	17.35	-38.9	-40.0	21.7	0.00e+00	0	27	0	695205888	50	6450
2026-01-17 12:33:37.56	85.07	17.34	-38.7	-39.8	21.8	0.00e+00	92	27	0	697303040	50	6249
2026-01-17 12:33:38.57	85.30	17.33	-38.5	-39.5	22.1	0.00e+00	0	27	0	699400192	50	6088
2026-01-17 12:33:39.57	85.53	17.32	-38.1	-39.1	22.4	0.00e+00	0	27	0	701497344	50	5788
2026-01-17 12:33:40.58	85.76	17.31	-37.9	-38.9	22.6	0.00e+00	0	27	0	702545920	50	5644
2026-01-17 12:33:41.59	85.99	17.29	-37.7	-38.7	22.7	0.00e+00	0	27	0	704643072	48	6188
2026-01-17 12:33:42.61	86.22	17.28	-37.6	-38.6	22.9	0.00e+00	16	27	0	706740224	48	6138
2026-01-17 12:33:43.62	86.45	17.27	-37.5	-38.4	22.9	0.00e+00	0	27	0	708837376	48	6027
2026-01-17 12:33:44.63	86.68	17.26	-37.3	-38.2	23.1	0.00e+00	92	27	0	710934528	48	5855
2026-01-17 12:33:45.63	86.91	17.25	-37.4	-38.4	22.9	0.00e+00	0	27	0	711983104	48	5983
2026-01-17 12:33:46.64	87.14	17.23	-37.6	-38.5	22.9	0.00e+00	0	27	0	714080256	48	6074
2026-01-17 12:33:47.65	87.36	17.22	-37.9	-38.9	22.5	0.00e+00	0	27	0	716177408	48	6379
2026-01-17 12:33:48.66	87.59	17.20	-38.2	-39.2	22.3	0.00e+00	0	27	0	718274560	48	6569
2026-01-17 12:33:49.67	87.82	17.19	-38.2	-39.3	22.2	0.00e+00	57	27	0	720371712	48	6640
2026-01-17 12:33:50.69	88.05	17.18	-38.4	-39.4	22.1	0.00e+00	0	27	0	721420288	48	6723
2026-01-17 12:33:51.69	88.28	17.16	-38.3	-39.4	22.2	0.00e+00	83	27	0	723517440	48	6693
2026-01-17 12:33:52.70	88.51	17.14	-38.4	-39.5	22.0	0.00e+00	0	27	0	725614592	48	6811
2026-01-17 12:33:53.71	88.73	17.13	-38.4	-39.5	22.1	0.00e+00	0	27	0	727711744	48	6779
2026-01-17 12:33:54.72	88.96	17.11	-38.5	-39.5	22.0	0.00e+00	0	27	0	729808896	48	6835
2026-01-17 12:33:55.73	89.19	17.09	-38.4	-39.5	22.0	0.00e+00	0	27	0	730857472	48	6787
2026-01-17 12:33:56.74	89.42	17.08	-38.4	-39.5	21.9	0.00e+00	82	27	0	732954624	48	6785
2026-01-17 12:33:57.75	89.64	17.06	-38.1	-39.2	22.3	0.00e+00	0	27	0	735051776	48	6547
2026-01-17 12:33:58.76	89.87	17.04	-37.9	-38.9	22.5	0.00e+00	91	27	0	737148928	48	6367
2026-01-17 12:33:59.77	90.10	17.02	-37.8	-38.8	22.5	0.00e+00	0	27	0	739246080	48	6246
2026-01-17 12:34:00.78	90.32	17.00	-37.5	-38.5	22.8	0.00e+00	20	27	0	740294656	48	6042
2026-01-17 12:34:01.79	90.55	16.98	-37.6	-38.5	22.8	0.00e+00	0	27	0	742391808	48	6091
2026-01-17 12:34:02.80	90.77	16.96	-37.6	-38.6	22.6	0.00e+00	0	27	0	744488960	48	6162
2026-01-17 12:34:03.81	91.00	16.94	-37.7	-38.7	22.8	0.00e+00	0	27	0	746586112	48	6232
2026-01-17 12:34:04.81	91.22	16.92	-37.6	-38.6	22.7	0.00e+00	0	27	0	748683264	48	6116
2026-01-17 12:34:05.82	91.45	16.90	-37.7	-38.7	22.6	0.00e+00	89	27	0	750780416	48	6213
2026-01-17 12:34:06.83	91.67	16.88	-37.7	-38.6	22.8	0.00e+00	0	27	0	751828992	48	6173
2026-01-17 12:34:07.84	91.89	16.86	-37.7	-38.7	22.7	0.00e+00	92	27	0	753926144	48	6180
2026-01-17 12:34:08.85	92.12	16.83	-37.9	-38.9	22.2	0.00e+00	0	27	0	756023296	48	6376
2026-01-17 12:34:09.86	92.34	16.81	-37.7	-38.7	22.6	0.00e+00	0	27	0	758120448	48	6218
2026-01-17 12:34:10.87	92.56	16.79	-37.9	-38.9	22.5	0.00e+00	0	27	0	760217600	48	6343
2026-01-17 12:34:11.88	92.79	16.76	-37.6	-38.6	22.7	0.00e+00	0	27	0	761266176	48	6111
2026-01-17 12:34:12.89	93.01	16.74	-37.5	-38.5	22.8	0.00e+00	68	27	0	763363328	48	6043
2026-01-17 12:34:13.90	93.23	16.72	-37.4	-38.4	22.9	0.00e+00	0	27	0	765460480	48	5988
2026-01-17 12:34:14.91	93.45	16.69	-37.3	-38.3	22.9	0.00e+00	86	27	0	767557632	48	5911
2026-01-17 12:34:15.92	93.67	16.67	-37.4	-38.4	22.7	0.00e+00	0	27	0	768606208	48	5992
2026-01-17 12:34:16.93	93.89	16.64	-37.4	-38.4	22.7	0.00e+00	0	27	0	770703360	48	5974
2026-01-17 12:34:17.94	94.11	16.62	-37.6	-38.6	22.6	0.00e+00	0	27	0	772800512	48	6116
2026-01-17 12:34:18.95	94.33	16.59	-37.6	-38.6	22.7	0.00e+00	0	27	0	774897664	48	6106
2026-01-17 12:34:19.95	94.55	16.56	-37.3	-38.3	22.9	0.00e+00	0	27	0	776994816	48	5921
2026-01-17 12:34:20.96	94.77	16.54	-37.4	-38.4	22.8	0.00e+00	0	27	0	779091968	48	5998
2026-01-17 12:34:21.97	94.99	16.51	-37.1	-38.1	23.1	0.00e+00	86	27	0	780140544	48	5782
2026-01-17 12:34:22.98	95.21	16.48	-37.0	-38.0	23.2	0.00e+00	0	27	0	782237696	48	5703
2026-01-17 12:34:23.99	95.43	16.45	-37.1	-38.0	23.2	0.00e+00	0	27	0	784334848	48	5736
2026-01-17 12:34:25.00	95.64	16.42	-36.8	-37.7	23.4	0.00e+00	0	27	0	786432000	48	5563
2026-01-17 12:34:26.01	95.86	16.40	-36.7	-37.7	23.4	0.00e+00	0	27	0	788529152	46	6175
2026-01-17 12:34:27.02	96.08	16.37	-36.8	-37.7	23.4	0.00e+00	65	27	0	789577728	46	6236
2026-01-17 12:34:28.03	96.30	16.34	-37.0	-37.9	23.2	0.00e+00	0	27	0	791674880	46	6373
2026-01-17 12:34:29.04	96.51	16.31	-37.2	-38.1	23.1	0.00e+00	63	27	0	793772032	46	6536
2026-01-17 12:34:30.05	96.73	16.28	-37.3	-38.3	23.0	0.00e+00	0	27	0	795869184	46	6661
2026-01-17 12:34:31.06	96.94	16.25	-37.3	-38.3	23.1	0.00e+00	0	27	0	797966336	46	6644
2026-01-17 12:34:32.07	97.16	16.22	-37.3	-38.3	23.0	0.00e+00	0	27	0	799014912	46	6635
2026-01-17 12:34:33.07	97.37	16.18	-37.4	-38.3	23.0	0.00e+00	0	27	0	801112064	46	6677
2026-01-17 12:34:34.09	97.59	16.15	-37.2	-38.2	23.0	0.00e+00	57	27	0	803209216	46	6550
2026-01-17 12:34:35.09	97.80	16.12	-37.4	-38.3	23.0	0.00e+00	0	27	0	805306368	46	6647
2026-01-17 12:34:36.11	98.01	16.09	-37.2	-38.2	23.0	0.00e+00	60	27	0	807403520	46	6549
2026-01-17 12:34:37.11	98.22	16.06	-37.3	-38.2	23.0	0.00e+00	0	27	0	808452096	46	6583
2026-01-17 12:34:38.12	98.44	16.02	-37.3	-38.3	23.0	0.00e+00	0	27	0	810549248	46	6622
2026-01-17 12:34:39.13	98.65	15.99	-37.3	-38.2	23.0	0.00e+00	0	27	0	812646400	46	6612
2026-01-17 12:34:40.15	98.86	15.96	-37.4	-38.4	23.0	0.00e+00	0	27	0	814743552	46	6736
2026-01-17 12:34:41.15	99.07	15.92	-37.5	-38.5	22.8	0.00e+00	49	27	0	816840704	46	6827
2026-01-17 12:34:42.16	99.28	15.89	-37.4	-38.4	22.9	0.00e+00	31	27	0	817889280	46	6740
2026-01-17 12:34:43.17	99.49	15.85	-37.6	-38.5	22.8	0.00e+00	83	27	0	819986432	46	6844
2026-01-17 12:34:44.18	99.70	15.82	-37.3	-38.2	23.1	0.00e+00	0	27	0	822083584	46	6593
2026-01-17 12:34:45.19	99.91	15.78	-37.3	-38.2	23.1	0.00e+00	86	27	0	824180736	46	6608
2026-01-17 12:34:46.20	100.12	15.75	-37.0	-37.9	23.2	0.00e+00	0	27	0	826277888	46	6373
2026-01-17 12:34:47.21	100.33	15.71	-36.9	-37.8	23.5	0.00e+00	0	27	0	827326464	46	6298
2026-01-17 12:34:48.22	100.53	15.68	-37.0	-37.9	23.2	0.00e+00	0	27	0	829423616	46	6379
2026-01-17 12:34:49.23	100.74	15.64	-36.9	-37.8	23.3	0.00e+00	0	27	0	831520768	46	6317
2026-01-17 12:34:50.24	100.95	15.60	-37.1	-38.1	23.1	0.00e+00	0	27	0	833617920	46	6466
2026-01-17 12:34:51.25	101.15	15.57	-37.3	-38.2	23.0	0.00e+00	0	27	0	835715072	46	6569
2026-01-17 12:34:52.26	101.36	15.53	-37.4	-38.4	22.9	0.00e+00	91	27	0	836763648	46	6701
2026-01-17 12:34:53.27	101.56	15.49	-37.4	-38.4	22.9	0.00e+00	0	27	0	838860800	46	6736
2026-01-17 12:34:54.28	101.77	15.45	-37.1	-38.1	23.1	0.00e+00	0	27	0	840957952	46	6468
2026-01-17 12:34:55.29	101.97	15.42	-37.0	-38.0	23.1	0.00e+00	0	27	0	843055104	46	6400
2026-01-17 12:34:56.30	102.18	15.38	-37.1	-38.0	23.2	0.00e+00	0	27	0	845152256	46	6427
2026-01-17 12:34:57.30	102.38	15.34	-37.1	-38.0	23.1	0.00e+00	0	27	0	847249408	46	6431
2026-01-17 12:34:58.31	102.58	15.30	-37.4	-38.4	22.8	0.00e+00	0	27	0	848297984	46	6699
2026-01-17 12:34:59.32	102.78	15.26	-37.6	-38.6	22.7	0.00e+00	69	27	0	850395136	46	6896
2026-01-17 12:35:00.33	102.98	15.22	-38.1	-39.2	22.1	0.00e+00	0	27	0	852492288	48	6544
2026-01-17 12:35:01.34	103.19	15.18	-38.4	-39.6	21.7	0.00e+00	0	27	0	854589440	48	6862
2026-01-17 12:35:02.35	103.39	15.14	-38.8	-40.0	21.2	0.00e+00	0	27	0	856686592	50	6424
2026-01-17 12:35:03.36	103.59	15.10	-38.8	-40.0	21.6	0.00e+00	0	27	0	857735168	50	6458
2026-01-17 12:35:04.37	103.79	15.06	-38.4	-39.6	21.8	0.00e+00	84	27	0	859832320	50	6160
2026-01-17 12:35:05.38	103.98	15.02	-38.1	-39.3	21.9	0.00e+00	0	27	0	861929472	50	5944
2026-01-17 12:35:06.39	104.18	14.98	-37.9	-39.1	22.3	0.00e+00	84	27	0	864026624	50	5769
2026-01-17 12:35:07.40	104.38	14.94	-37.7	-38.8	22.4	0.00e+00	0	27	0	866123776	50	5620
2026-01-17 12:35:08.41	104.58	14.90	-38.0	-39.1	22.2	0.00e+00	0	27	0	867172352	48	6505
2026-01-17 12:35:09.42	104.78	14.86	-37.8	-38.8	22.4	0.00e+00	0	27	0	869269504	48	6292
2026-01-17 12:35:10.43	104.97	14.81	-37.8	-38.8	22.5	0.00e+00	0	27	0	871366656	48	6310
2026-01-17 12:35:11.44	105.17	14.77	-37.6	-38.6	22.7	0.00e+00	0	27	0	873463808	48	6108
2026-01-17 12:35:12.44	105.36	14.73	-37.7	-38.7	22.5	0.00e+00	0	27	0	875560960	48	6202
2026-01-17 12:35:13.45	105.56	14.69	-37.7	-38.7	22.5	0.00e+00	77	27	0	876609536	48	6233
2026-01-17 12:35:14.46	105.75	14.64	-37.9	-39.0	22.3	0.00e+00	0	27	0	878706688	48	6406
2026-01-17 12:35:15.47	105.94	14.60	-38.2	-39.2	22.0	0.00e+00	75	27	0	880803840	48	6589
2026-01-17 12:35:16.48	106.14	14.56	-38.3	-39.4	21.8	0.00e+00	0	27	0	882900992	48	6697
2026-01-17 12:35:17.49	106.33	14.51	-38.5	-39.6	22.0	0.00e+00	0	27	0	884998144	48	6896
2026-01-17 12:35:18.50	106.52	14.47	-38.5	-39.6	21.7	0.00e+00	0	27	0	886046720	48	6895
2026-01-17 12:35:19.51	106.71	14.43	-38.9	-40.1	21.4	0.00e+00	0	27	0	888143872	50	6469
2026-01-17 12:35:20.52	106.90	14.38	-39.3	-40.5	20.8	0.00e+00	77	27	0	890241024	50	6844
2026-01-17 12:35:21.53	107.09	14.34	-39.4	-40.6	21.0	0.00e+00	0	27	0	892338176	50	6915
2026-01-17 12:35:22.54	107.28	14.29	-39.7	-41.0	20.7	0.00e+00	81	27	0	894435328	52	6427
2026-01-17 12:35:23.55	107.47	14.25	-39.5	-40.7	20.9	0.00e+00	0	27	0	895483904	52	6239
2026-01-17 12:35:24.56	107.66	14.20	-39.5	-40.8	20.9	0.00e+00	0	27	0	897581056	52	6262
2026-01-17 12:35:25.57	107.85	14.16	-39.3	-40.6	21.1	0.00e+00	0	27	0	899678208	52	6104
2026-01-17 12:35:26.58	108.04	14.11	-39.2	-40.4	21.2	0.00e+00	0	27	0	901775360	52	5974
2026-01-17 12:35:27.59	108.23	14.07	-39.0	-40.1	21.4	0.00e+00	79	27	0	903872512	52	5812
2026-01-17 12:35:28.60	108.41	14.02	-38.9	-40.1	21.4	0.00e+00	0	27	0	904921088	52	5776
2026-01-17 12:35:29.61	108.60	13.98	-38.8	-40.0	21.6	0.00e+00	90	27	0	907018240	52	5701
2026-01-17 12:35:30.62	108.78	13.93	-38.8	-39.9	21.7	0.00e+00	0	27	0	909115392	52	5684
2026-01-17 12:35:31.63	108.97	13.88	-38.7	-39.8	21.6	0.00e+00	0	27	0	911212544	50	6291
2026-01-17 12:35:32.64	109.15	13.84	-38.5	-39.5	22.0	0.00e+00	0	27	0	913309696	50	6091
2026-01-17 12:35:33.65	109.34	13.79	-38.2	-39.2	22.2	0.00e+00	0	27	0	915406848	50	5890
2026-01-17 12:35:34.66	109.52	13.74	-38.2	-39.3	22.1	0.00e+00	80	27	0	916455424	50	5932
2026-01-17 12:35:35.66	109.70	13.70	-38.1	-39.2	22.2	0.00e+00	0	27	0	918552576	50	5829
2026-01-17 12:35:36.67	109.88	13.65	-38.2	-39.2	22.1	0.00e+00	81	27	0	920649728	50	5879
2026-01-17 12:35:37.69	110.07	13.60	-38.2	-39.3	22.1	0.00e+00	0	27	0	922746880	50	5913
2026-01-17 12:35:38.70	110.25	13.55	-38.4	-39.5	21.8	0.00e+00	0	27	0	924844032	50	6096
2026-01-17 12:35:39.71	110.43	13.51	-38.6	-39.7	21.7	0.00e+00	0	27	0	925892608	50	6209
2026-01-17 12:35:40.71	110.60	13.46	-38.7	-39.8	21.6	0.00e+00	0	27	0	927989760	50	6267
2026-01-17 12:35:41.72	110.78	13.41	-38.6	-39.7	21.6	0.00e+00	73	27	0	930086912	50	6236
2026-01-17 12:35:42.73	110.96	13.36	-38.8	-40.0	21.3	0.00e+00	0	27	0	932184064	50	6402
2026-01-17 12:35:43.74	111.14	13.31	-38.7	-39.9	21.5	0.00e+00	92	27	0	934281216	50	6331
2026-01-17 12:35:44.75	111.32	13.26	-38.7	-39.8	21.6	0.00e+00	0	27	0	935329792	50	6317
2026-01-17 12:35:45.76	111.49	13.22	-39.0	-40.2	21.3	0.00e+00	0	27	0	937426944	50	6549
2026-01-17 12:35:46.77	111.67	13.17	-39.2	-40.4	21.1	0.00e+00	0	27	0	939524096	50	6700
2026-01-17 12:35:47.78	111.85	13.12	-38.9	-40.0	21.3	0.00e+00	0	27	0	941621248	50	6464
2026-01-17 12:35:48.79	112.02	13.07	-39.2	-40.4	21.1	0.00e+00	0	27	0	943718400	50	6697
2026-01-17 12:35:49.79	112.20	13.02	-38.9	-40.1	21.5	0.00e+00	0	27	0	944766976	50	6473
2026-01-17 12:35:50.81	112.37	12.97	-38.8	-39.9	21.5	0.00e+00	92	27	0	946864128	50	6389
2026-01-17 12:35:51.82	112.54	12.92	-38.6	-39.7	21.6	0.00e+00	0	27	0	948961280	50	6227
2026-01-17 12:35:52.83	112.72	12.87	-38.4	-39.5	21.9	0.00e+00	92	27	0	951058432	50	6043
2026-01-17 12:35:53.83	112.89	12.82	-38.4	-39.6	21.8	0.00e+00	0	27	0	953155584	50	6110
2026-01-17 12:35:54.84	113.06	12.77	-38.4	-39.5	21.8	0.00e+00	0	27	0	954204160	50	6096
2026-01-17 12:35:55.85	113.23	12.72	-38.6	-39.7	21.7	0.00e+00	0	27	0	956301312	50	6237
2026-01-17 12:35:56.86	113.40	12.67	-38.6	-39.7	21.7	0.00e+00	0	27	0	958398464	50	6210
2026-01-17 12:35:57.87	113.57	12.62	-38.7	-39.8	21.7	0.00e+00	1	27	0	960495616	50	6267
2026-01-17 12:35:58.87	113.74	12.57	-38.8	-40.0	21.5	0.00e+00	0	27	0	962592768	50	6403
2026-01-17 12:35:59.88	113.91	12.52	-38.7	-39.9	21.5	0.00e+00	84	27	0	963641344	50	6340
2026-01-17 12:36:00.89	114.08	12.47	-38.8	-40.1	21.4	0.00e+00	0	27	0	965738496	50	6468
2026-01-17 12:36:01.90	114.25	12.42	-38.6	-39.8	21.6	0.00e+00	0	27	0	967835648	50	6258
2026-01-17 12:36:02.91	114.41	12.37	-38.2	-39.3	22.0	0.00e+00	0	27	0	969932800	50	5933
2026-01-17 12:36:03.92	114.58	12.32	-38.0	-39.1	22.2	0.00e+00	0	27	0	972029952	50	5768
2026-01-17 12:36:04.93	114.75	12.26	-37.9	-39.0	22.3	0.00e+00	5	27	0	973078528	50	5714
2026-01-17 12:36:05.94	114.91	12.21	-37.7	-38.8	22.4	0.00e+00	0	27	0	975175680	48	6259
2026-01-17 12:36:06.95	115.08	12.16	-37.7	-38.8	22.5	0.00e+00	78	27	0	977272832	48	6251
2026-01-17 12:36:07.96	115.24	12.11	-37.7	-38.7	22.4	0.00e+00	0	27	0	979369984	48	6189
2026-01-17 12:36:08.96	115.40	12.06	-37.8	-38.8	22.4	0.00e+00	0	27	0	981467136	48	6294
2026-01-17 12:36:09.97	115.57	12.01	-37.9	-38.9	22.4	0.00e+00	0	27	0	983564288	48	6360
2026-01-17 12:36:10.98	115.73	11.96	-38.0	-39.0	22.2	0.00e+00	0	27	0	984612864	48	6457
2026-01-17 12:36:12.24	115.93	11.89	-37.9	-38.9	22.2	0.00e+00	0	27	0	986710016	48	6387
2026-01-17 12:36:12.96	116.05	11.85	-38.1	-39.1	22.1	0.00e+00	0	27	0	987758592	48	6534
2026-01-17 12:36:14.26	116.26	11.79	-38.2	-39.2	22.1	0.00e+00	80	27	0	990904320	48	6607
2026-01-17 12:36:14.98	116.37	11.75	-38.0	-39.1	22.2	0.00e+00	0	27	0	991952896	48	6481
2026-01-17 12:36:16.27	116.58	11.68	-37.9	-38.9	22.3	0.00e+00	83	27	0	994050048	48	6340
2026-01-17 12:36:16.99	116.69	11.65	-37.9	-38.9	22.2	0.00e+00	0	27	0	996147200	48	6354
2026-01-17 12:36:18.29	116.89	11.58	-37.9	-38.9	22.3	0.00e+00	0	27	0	998244352	48	6367
2026-01-17 12:36:19.01	117.01	11.54	-38.3	-39.4	21.9	0.00e+00	0	27	0	999292928	48	6705
2026-01-17 12:36:20.31	117.21	11.47	-38.3	-39.4	21.9	0.00e+00	0	27	0	1001390080	48	6741
2026-01-17 12:36:21.03	117.32	11.44	-38.3	-39.3	22.0	0.00e+00	0	27	0	1003487232	48	6666
2026-01-17 12:36:22.32	117.52	11.37	-38.2	-39.3	22.0	0.00e+00	0	27	0	1005584384	48	6648
2026-01-17 12:36:23.04	117.63	11.33	-38.2	-39.2	22.0	0.00e+00	90	27	0	1006632960	48	6615
2026-01-17 12:36:24.34	117.83	11.26	-37.9	-38.9	22.3	0.00e+00	0	27	0	1009778688	48	6372
2026-01-17 12:36:25.06	117.95	11.22	-37.8	-38.8	22.3	0.00e+00	81	27	0	1010827264	48	6292
2026-01-17 12:36:26.36	118.14	11.16	-37.6	-38.6	22.5	0.00e+00	0	27	0	1012924416	48	6165
2026-01-17 12:36:27.08	118.25	11.12	-37.5	-38.4	22.5	0.00e+00	0	27	0	1015021568	48	6014
2026-01-17 12:36:28.38	118.45	11.05	-37.2	-38.1	22.9	0.00e+00	72	27	0	1017118720	48	5790
2026-01-17 12:36:29.10	118.56	11.01	-37.0	-38.0	23.1	0.00e+00	0	27	0	1018167296	48	5714
2026-01-17 12:36:30.40	118.76	10.94	-37.0	-37.9	23.0	0.00e+00	91	27	0	1021313024	48	5690
2026-01-17 12:36:31.12	118.87	10.91	-37.1	-38.1	22.8	0.00e+00	0	27	0	1022361600	48	5795
2026-01-17 12:36:32.41	119.06	10.84	-37.1	-38.1	22.9	0.00e+00	0	27	0	1024458752	48	5791
2026-01-17 12:36:33.13	119.17	10.80	-37.4	-38.3	22.7	0.00e+00	0	27	0	1025507328	48	5948
2026-01-17 12:36:34.43	119.36	10.73	-37.5	-38.5	22.6	0.00e+00	0	27	0	1028653056	48	6068
2026-01-17 12:36:35.15	119.47	10.69	-37.5	-38.4	22.7	0.00e+00	0	27	0	1029701632	48	6031
2026-01-17 12:36:36.44	119.66	10.62	-37.8	-38.8	22.2	0.00e+00	31	27	0	1031798784	48	6297
2026-01-17 12:36:37.16	119.76	10.58	-37.9	-38.9	22.2	0.00e+00	0	27	0	1033895936	48	6365
2026-01-17 12:36:38.46	119.95	10.52	-37.7	-38.7	22.4	0.00e+00	0	27	0	1035993088	48	6221
2026-01-17 12:36:39.18	120.06	10.48	-37.8	-38.9	22.3	0.00e+00	92	27	0	1037041664	48	6339
2026-01-17 12:36:40.48	120.25	10.41	-37.8	-38.8	22.3	0.00e+00	0	27	0	1040187392	48	6277
2026-01-17 12:36:41.20	120.35	10.37	-37.7	-38.7	22.4	0.00e+00	15	27	0	1041235968	48	6236
2026-01-17 12:36:42.49	120.54	10.30	-38.0	-39.0	22.2	0.00e+00	81	27	0	1043333120	48	6439
2026-01-17 12:36:43.21	120.64	10.26	-38.0	-39.1	22.1	0.00e+00	0	27	0	1044381696	48	6471
2026-01-17 12:36:44.51	120.83	10.19	-38.2	-39.3	21.9	0.00e+00	92	27	0	1047527424	48	6635
2026-01-17 12:36:45.23	120.93	10.15	-38.3	-39.4	21.9	0.00e+00	0	27	0	1048576000	48	6702
2026-01-17 12:36:46.53	121.12	10.08	-38.2	-39.3	21.8	0.00e+00	0	27	0	1050673152	48	6633
2026-01-17 12:36:47.25	121.22	10.05	-38.4	-39.5	21.8	0.00e+00	0	27	0	1052770304	48	6803
2026-01-17 12:36:48.55	121.41	9.98	-38.2	-39.3	21.7	0.00e+00	0	27	0	1054867456	48	6619
2026-01-17 12:36:49.27	121.51	9.94	-38.1	-39.2	21.8	0.00e+00	0	27	0	1055916032	48	6567
2026-01-17 12:36:50.57	121.69	9.87	-38.0	-39.1	22.1	0.00e+00	0	27	0	1059061760	48	6475
2026-01-17 12:36:51.29	121.79	9.83	-37.9	-38.9	22.2	0.00e+00	57	27	0	1060110336	48	6361
2026-01-17 12:36:52.58	121.97	9.76	-37.7	-38.7	22.3	0.00e+00	0	27	0	1062207488	48	6217
2026-01-17 12:36:53.30	122.07	9.72	-37.7	-38.7	22.4	0.00e+00	52	27	0	1063256064	48	6213
2026-01-17 12:36:54.60	122.25	9.65	-37.8	-38.8	22.2	0.00e+00	0	27	0	1066401792	48	6311
2026-01-17 12:36:55.32	122.35	9.61	-38.0	-39.0	22.2	0.00e+00	67	27	0	1067450368	48	6430
2026-01-17 12:36:56.61	122.53	9.54	-38.3	-39.4	21.8	0.00e+00	0	27	0	1069547520	48	6713
2026-01-17 12:36:57.33	122.63	9.50	-38.4	-39.5	21.6	0.00e+00	0	27	0	1071644672	48	6841
2026-01-17 12:36:58.63	122.81	9.43	-38.9	-40.1	21.2	0.00e+00	92	27	0	1073741824	50	6492
2026-01-17 12:36:59.35	122.90	9.39	-39.0	-40.2	21.1	0.00e+00	0	27	0	1074790400	50	6577
2026-01-17 12:37:00.65	123.08	9.32	-39.1	-40.3	21.0	0.00e+00	90	27	0	1077936128	50	6647
2026-01-17 12:37:01.37	123.18	9.28	-39.1	-40.3	20.9	0.00e+00	0	27	0	1078984704	50	6664
2026-01-17 12:37:02.67	123.35	9.21	-39.0	-40.2	21.1	0.00e+00	0	27	0	1081081856	50	6593
2026-01-17 12:37:03.39	123.45	9.17	-38.9	-40.1	21.2	0.00e+00	0	27	0	1083179008	50	6489
2026-01-17 12:37:04.69	123.62	9.10	-38.8	-40.0	21.3	0.00e+00	0	27	0	1085276160	50	6415
2026-01-17 12:37:05.41	123.72	9.07	-38.8	-39.9	21.3	0.00e+00	28	27	0	1086324736	50	6384
2026-01-17 12:37:06.70	123.89	9.00	-38.6	-39.8	21.4	0.00e+00	0	27	0	1088421888	50	6258
2026-01-17 12:37:07.43	123.99	8.96	-38.7	-39.9	21.4	0.00e+00	73	27	0	1090519040	50	6331
2026-01-17 12:37:08.72	124.16	8.89	-38.7	-39.8	21.4	0.00e+00	0	27	0	1092616192	50	6270
2026-01-17 12:37:09.44	124.25	8.85	-38.9	-40.0	21.2	0.00e+00	92	27	0	1093664768	50	6437
2026-01-17 12:37:10.74	124.42	8.78	-39.1	-40.3	21.0	0.00e+00	0	27	0	1096810496	50	6667
2026-01-17 12:37:11.46	124.52	8.74	-39.0	-40.2	21.0	0.00e+00	59	27	0	1097859072	50	6594
2026-01-17 12:37:12.76	124.69	8.67	-39.1	-40.3	20.9	0.00e+00	74	27	0	1099956224	50	6656
2026-01-17 12:37:13.48	124.78	8.63	-39.1	-40.3	20.9	0.00e+00	0	27	0	1102053376	50	6692
2026-01-17 12:37:14.78	124.95	8.56	-39.3	-40.6	20.7	0.00e+00	76	27	0	1104150528	50	6865
2026-01-17 12:37:15.50	125.04	8.52	-39.5	-40.8	20.5	0.00e+00	0	27	0	1105199104	50	7074
2026-01-17 12:37:16.80	125.21	8.45	-39.3	-40.6	20.8	0.00e+00	0	27	0	1108344832	50	6851
2026-01-17 12:37:17.52	125.30	8.41	-39.2	-40.4	20.7	0.00e+00	0	27	0	1109393408	50	6761
2026-01-17 12:37:18.81	125.46	8.34	-39.3	-40.6	20.7	0.00e+00	0	27	0	1111490560	50	6857
2026-01-17 12:37:19.53	125.55	8.30	-39.1	-40.2	20.9	0.00e+00	0	27	0	1112539136	50	6614
2026-01-17 12:37:20.83	125.72	8.23	-39.4	-40.6	20.6	0.00e+00	0	27	0	1115684864	50	6893
2026-01-17 12:37:21.55	125.81	8.19	-39.4	-40.7	20.6	0.00e+00	0	27	0	1116733440	50	6978
2026-01-17 12:37:22.85	125.97	8.12	-39.4	-40.7	20.5	0.00e+00	0	27	0	1118830592	50	6990
2026-01-17 12:37:23.57	126.06	8.08	-39.6	-40.9	20.4	0.00e+00	90	27	0	1120927744	50	7095
2026-01-17 12:37:24.87	126.22	8.01	-39.6	-40.9	20.4	0.00e+00	0	27	0	1123024896	50	7104
2026-01-17 12:37:25.59	126.31	7.97	-39.8	-41.2	20.1	0.00e+00	90	27	0	1124073472	50	7380
2026-01-17 12:37:26.89	126.47	7.90	-39.5	-40.8	20.6	0.00e+00	0	27	0	1127219200	52	6271
2026-01-17 12:37:27.61	126.56	7.86	-39.3	-40.6	20.6	0.00e+00	0	27	0	1128267776	52	6128
2026-01-17 12:37:28.91	126.72	7.79	-39.4	-40.7	20.7	0.00e+00	55	27	0	1130364928	52	6203
2026-01-17 12:37:29.63	126.81	7.75	-39.3	-40.6	20.7	0.00e+00	0	27	0	1131413504	52	6104
2026-01-17 12:37:30.93	126.97	7.68	-39.2	-40.4	20.8	0.00e+00	50	27	0	1134559232	52	6002
2026-01-17 12:37:31.64	127.05	7.64	-38.9	-40.1	21.1	0.00e+00	0	27	0	1135607808	52	5768
2026-01-17 12:37:32.94	127.21	7.57	-38.8	-40.0	21.2	0.00e+00	0	27	0	1137704960	50	6409
2026-01-17 12:37:33.66	127.30	7.53	-38.6	-39.8	21.2	0.00e+00	0	27	0	1139802112	50	6272
2026-01-17 12:37:34.96	127.45	7.46	-38.8	-39.9	21.2	0.00e+00	0	27	0	1141899264	50	6365
2026-01-17 12:37:35.68	127.54	7.42	-38.7	-39.9	21.2	0.00e+00	0	27	0	1142947840	50	6342
2026-01-17 12:37:36.97	127.69	7.35	-39.2	-40.4	20.7	0.00e+00	0	27	0	1146093568	50	6766
2026-01-17 12:37:37.70	127.78	7.31	-39.4	-40.7	20.6	0.00e+00	73	27	0	1147142144	50	6930
2026-01-17 12:37:38.99	127.93	7.24	-39.5	-40.8	20.4	0.00e+00	0	27	0	1149239296	50	7046
2026-01-17 12:37:39.71	128.02	7.21	-39.7	-41.1	20.1	0.00e+00	92	27	0	1150287872	50	7273
2026-01-17 12:37:41.01	128.17	7.14	-39.8	-41.2	19.9	0.00e+00	0	27	0	1153433600	52	6571
2026-01-17 12:37:41.73	128.25	7.10	-40.0	-41.4	19.7	0.00e+00	0	27	0	1154482176	52	6755
2026-01-17 12:37:43.03	128.41	7.03	-39.9	-41.3	19.8	0.00e+00	76	27	0	1156579328	52	6626
2026-01-17 12:37:43.75	128.49	6.99	-39.7	-41.1	20.1	0.00e+00	0	27	0	1158676480	52	6502
2026-01-17 12:37:45.05	128.64	6.92	-39.4	-40.7	20.6	0.00e+00	92	27	0	1160773632	52	6190
2026-01-17 12:37:45.77	128.72	6.88	-39.4	-40.7	20.5	0.00e+00	0	27	0	1161822208	52	6200
2026-01-17 12:37:47.07	128.87	6.81	-39.1	-40.3	20.9	0.00e+00	0	27	0	1164967936	52	5959
2026-01-17 12:37:47.79	128.95	6.77	-39.1	-40.3	20.7	0.00e+00	0	27	0	1166016512	52	5944
2026-01-17 12:37:49.09	129.10	6.70	-39.0	-40.2	20.7	0.00e+00	2	27	0	1168113664	52	5855
2026-01-17 12:37:49.81	129.18	6.66	-38.9	-40.1	20.6	0.00e+00	0	27	0	1170210816	52	5810
2026-01-17 12:37:51.11	129.33	6.59	-39.1	-40.3	20.7	0.00e+00	0	27	0	1172307968	52	5933
2026-01-17 12:37:51.83	129.41	6.55	-39.0	-40.2	20.8	0.00e+00	57	27	0	1173356544	52	5856
2026-01-17 12:37:53.13	129.56	6.48	-39.4	-40.6	20.5	0.00e+00	0	27	0	1176502272	52	6145
2026-01-17 12:37:53.85	129.64	6.44	-39.3	-40.6	20.5	0.00e+00	71	27	0	1177550848	52	6129
2026-01-17 12:37:55.15	129.79	6.37	-39.7	-41.0	20.1	0.00e+00	0	27	0	1179648000	52	6433
2026-01-17 12:37:55.87	129.87	6.33	-40.0	-41.3	19.8	0.00e+00	81	27	0	1180696576	52	6689
2026-01-17 12:37:57.17	130.01	6.26	-40.1	-41.5	19.7	0.00e+00	9	27	0	1183842304	52	6795
2026-01-17 12:37:57.89	130.09	6.22	-40.2	-41.7	19.5	0.00e+00	0	27	0	1184890880	52	6951
2026-01-17 12:37:59.19	130.23	6.15	-39.8	-41.2	20.0	0.00e+00	92	27	0	1186988032	52	6560
2026-01-17 12:37:59.91	130.31	6.12	-40.0	-41.5	19.7	0.00e+00	0	27	0	1189085184	52	6770
2026-01-17 12:38:01.21	130.45	6.05	-40.1	-41.5	19.6	0.00e+00	90	27	0	1191182336	52	6801
2026-01-17 12:38:01.93	130.53	6.01	-40.2	-41.7	19.3	0.00e+00	0	27	0	1192230912	52	6929
2026-01-17 12:38:03.23	130.67	5.94	-40.3	-41.7	19.4	0.00e+00	0	27	0	1195376640	52	6991
2026-01-17 12:38:03.95	130.75	5.90	-40.5	-42.0	19.2	0.00e+00	0	27	0	1196425216	52	7229
2026-01-17 12:38:05.25	130.89	5.83	-40.4	-41.9	19.3	0.00e+00	0	27	0	1198522368	52	7135
2026-01-17 12:38:05.97	130.97	5.79	-40.4	-41.9	19.2	0.00e+00	9	27	0	1199570944	52	7157
2026-01-17 12:38:07.27	131.11	5.72	-40.8	-42.4	18.8	0.00e+00	0	27	0	1202716672	54	6767
2026-01-17 12:38:07.99	131.18	5.68	-40.8	-42.4	18.7	0.00e+00	0	27	0	1203765248	54	6724
2026-01-17 12:38:09.29	131.32	5.61	-41.1	-42.8	18.3	0.00e+00	0	27	0	1205862400	54	7064
2026-01-17 12:38:10.01	131.40	5.57	-41.1	-42.7	18.4	0.00e+00	78	27	0	1207959552	54	7001
2026-01-17 12:38:11.31	131.54	5.50	-41.3	-43.1	18.1	0.00e+00	0	27	0	1210056704	54	7260
