passes_logs/2026/01/17/R4.6S_Anadyr/R4.6S_Anadyr__20260117_012004_FENGYUN_3D_rec.log

#Pass ID: 20260117_012004_FENGYUN 3D
#Satellite: FENGYUN 3D
#Configuration: FENGYUN 3D
#almurnet v.1.7.20251203
#Start time: 2026-01-17 01:20:05

#Version: 2.2.20231116
#Station: R4.6S_Anadyr
#Location: 177.4865 lon 64.73178 lat
#TLE: 1 43010U 17072A   26016.62453405 -.00000112  00000+0 -31355-4 0  9995
#TLE: 2 43010  98.9932 348.4654 0002369 105.3910 254.7528 14.19694900423480

#Time	Az	El	Level	Level2	SNR	BER	BlckErr	Temp	State	Recorded	gain1	gain2
2026-01-17 01:20:05.79	133.36	0.06	-48.5	-63.3	3.5	1.51e+00	0	27	0	0	60	52800
2026-01-17 01:20:06.80	133.34	0.12	-48.6	-60.7	3.6	8.46e-01	0	29	104	0	60	39046
2026-01-17 01:20:07.81	133.32	0.18	-48.3	-60.4	3.6	8.45e-01	0	28	104	0	60	37968
2026-01-17 01:20:08.82	133.30	0.24	-48.4	-60.5	3.6	8.45e-01	0	29	104	0	60	38350
2026-01-17 01:20:09.83	133.28	0.30	-48.6	-60.7	3.6	8.46e-01	0	29	104	0	60	39132
2026-01-17 01:20:10.83	133.26	0.36	-48.5	-60.6	3.6	8.46e-01	0	29	104	0	60	38569
2026-01-17 01:20:11.84	133.23	0.42	-48.4	-60.5	3.6	8.45e-01	0	29	104	0	60	38383
2026-01-17 01:20:12.85	133.21	0.48	-48.4	-60.4	3.6	8.45e-01	0	29	104	0	60	37885
2026-01-17 01:20:13.86	133.19	0.54	-48.2	-60.3	3.6	8.47e-01	0	29	104	0	60	37600
2026-01-17 01:20:14.87	133.17	0.60	-48.2	-60.3	3.6	8.46e-01	0	29	104	0	60	37288
2026-01-17 01:20:15.88	133.14	0.66	-48.1	-60.2	3.6	8.45e-01	0	29	104	0	60	36808
2026-01-17 01:20:16.89	133.12	0.72	-48.0	-60.1	3.5	8.46e-01	0	29	104	0	60	36550
2026-01-17 01:20:17.90	133.10	0.78	-47.9	-60.1	3.6	8.45e-01	0	29	104	0	60	36417
2026-01-17 01:20:18.91	133.08	0.84	-47.8	-59.9	3.6	8.44e-01	0	29	104	0	60	35662
2026-01-17 01:20:19.92	133.05	0.91	-47.6	-59.7	3.6	8.45e-01	0	29	104	0	60	34944
2026-01-17 01:20:20.93	133.03	0.97	-47.3	-59.3	3.6	8.45e-01	0	29	104	0	60	33424
2026-01-17 01:20:21.94	133.01	1.03	-46.9	-59.0	3.6	8.44e-01	0	29	104	0	60	32165
2026-01-17 01:20:22.95	132.98	1.09	-46.6	-58.8	3.6	8.44e-01	0	29	104	0	60	31346
2026-01-17 01:20:23.96	132.96	1.15	-46.6	-58.8	3.6	8.46e-01	0	29	104	0	60	31401
2026-01-17 01:20:24.97	132.94	1.21	-46.6	-58.7	3.6	8.45e-01	0	29	104	0	60	31016
2026-01-17 01:20:25.98	132.91	1.28	-46.6	-58.6	3.6	8.45e-01	0	29	104	0	60	30928
2026-01-17 01:20:26.98	132.89	1.34	-46.6	-58.6	3.6	8.45e-01	0	29	104	0	60	30800
2026-01-17 01:20:27.99	132.87	1.40	-46.6	-58.5	3.6	8.45e-01	0	29	104	0	60	30486
2026-01-17 01:20:29.01	132.84	1.46	-46.6	-58.5	3.6	8.45e-01	0	29	104	0	60	30574
2026-01-17 01:20:30.02	132.82	1.53	-46.6	-58.6	3.6	8.45e-01	0	29	104	0	60	30932
2026-01-17 01:20:31.02	132.79	1.59	-46.6	-58.8	3.6	8.45e-01	0	29	104	0	60	31337
2026-01-17 01:20:32.04	132.77	1.65	-46.6	-58.8	3.6	8.45e-01	0	29	104	0	60	31350
2026-01-17 01:20:33.05	132.74	1.72	-46.6	-58.8	3.6	8.45e-01	0	29	104	0	60	31309
2026-01-17 01:20:34.05	132.72	1.78	-46.6	-58.7	3.6	8.45e-01	0	29	104	0	60	31130
2026-01-17 01:20:35.06	132.69	1.84	-46.5	-58.5	3.6	8.45e-01	0	29	104	0	60	30427
2026-01-17 01:20:36.07	132.67	1.91	-46.5	-58.4	3.6	8.46e-01	0	29	104	0	60	29922
2026-01-17 01:20:37.08	132.65	1.97	-46.5	-58.2	3.6	8.46e-01	0	29	104	0	60	29388
2026-01-17 01:20:38.09	132.62	2.03	-46.5	-58.4	3.6	8.44e-01	0	29	104	0	60	30010
2026-01-17 01:20:39.10	132.59	2.10	-46.5	-58.4	3.6	8.45e-01	0	29	104	0	60	30029
2026-01-17 01:20:40.11	132.57	2.16	-46.6	-58.6	3.6	8.45e-01	0	29	104	0	60	30709
2026-01-17 01:20:41.12	132.54	2.23	-46.6	-58.7	3.6	8.45e-01	0	29	104	0	60	31144
2026-01-17 01:20:42.13	132.52	2.29	-46.6	-58.8	3.6	8.46e-01	0	30	104	0	60	31356
2026-01-17 01:20:43.14	132.49	2.35	-46.6	-58.7	3.6	8.46e-01	0	30	104	0	60	30984
2026-01-17 01:20:44.15	132.47	2.42	-46.6	-58.6	3.6	8.46e-01	0	29	104	0	60	30829
2026-01-17 01:20:45.16	132.44	2.48	-46.5	-58.4	3.6	8.45e-01	0	30	104	0	60	29958
2026-01-17 01:20:46.17	132.42	2.55	-46.5	-58.1	3.6	8.44e-01	0	30	104	0	60	29148
2026-01-17 01:20:47.18	132.39	2.61	-46.5	-57.8	3.6	8.44e-01	0	30	104	0	60	28100
2026-01-17 01:20:48.19	132.36	2.68	-46.4	-57.4	3.6	8.45e-01	0	30	104	0	60	26680
2026-01-17 01:20:49.19	132.34	2.74	-46.4	-57.4	3.6	8.45e-01	0	30	104	0	60	26817
2026-01-17 01:20:50.20	132.31	2.81	-46.4	-57.1	3.6	8.44e-01	0	30	104	0	60	25869
2026-01-17 01:20:51.21	132.28	2.88	-46.4	-57.5	3.6	8.45e-01	0	30	104	0	60	27009
2026-01-17 01:20:52.22	132.26	2.94	-46.5	-58.1	3.6	8.47e-01	0	30	104	0	60	29110
2026-01-17 01:20:53.23	132.23	3.01	-46.5	-58.4	3.6	8.46e-01	0	30	104	0	60	30108
2026-01-17 01:20:54.24	132.20	3.07	-46.4	-56.9	3.6	8.45e-01	0	30	104	0	60	25188
2026-01-17 01:20:55.25	132.18	3.14	-45.7	-52.6	5.4	7.91e-01	0	30	104	0	60	15341
2026-01-17 01:20:56.27	132.15	3.21	-44.7	-48.7	8.4	1.33e-01	0	30	0	4194304	60	9889
2026-01-17 01:20:57.28	132.12	3.27	-43.3	-46.0	11.4	2.28e-03	0	30	0	10485760	60	7232
2026-01-17 01:20:58.28	132.09	3.34	-42.0	-44.1	13.7	1.30e-04	0	30	0	15728640	58	6513
2026-01-17 01:20:59.29	132.07	3.41	-40.3	-41.8	16.1	0.00e+00	0	30	0	20971520	54	6317
2026-01-17 01:21:00.30	132.04	3.47	-39.1	-40.3	17.4	0.00e+00	0	30	0	27262976	52	5939
2026-01-17 01:21:01.31	132.01	3.54	-38.1	-39.2	18.5	0.00e+00	0	30	0	32505856	50	5844
2026-01-17 01:21:02.33	131.98	3.61	-37.7	-38.8	19.2	0.00e+00	0	30	0	38797312	48	6256
2026-01-17 01:21:03.34	131.95	3.68	-37.3	-38.3	19.5	0.00e+00	0	30	0	44040192	48	5934
2026-01-17 01:21:04.35	131.92	3.74	-37.2	-38.2	19.7	0.00e+00	0	30	0	49283072	48	5851
2026-01-17 01:21:05.35	131.90	3.81	-47.0	-58.8	3.6	8.45e-01	0	30	104	51380224	60	31375
2026-01-17 01:21:06.36	131.87	3.88	-35.2	-36.0	19.9	1.29e-01	0	30	104	51380224	46	5122
2026-01-17 01:21:07.38	131.84	3.95	-45.7	-52.2	7.0	8.31e-01	0	30	104	52428800	60	14730
2026-01-17 01:21:08.39	131.81	4.02	-39.8	-41.1	17.8	1.76e-02	0	30	0	53477376	58	4579
2026-01-17 01:21:09.39	131.78	4.08	-43.6	-46.3	12.0	5.24e-02	0	30	0	59768832	60	7483
2026-01-17 01:21:10.40	131.75	4.15	-37.3	-38.3	19.4	0.00e+00	0	30	0	65011712	48	5952
2026-01-17 01:21:11.41	131.72	4.22	-36.8	-37.7	20.1	0.00e+00	0	30	0	71303168	48	5562
2026-01-17 01:21:12.42	131.69	4.29	-36.3	-37.2	20.5	0.00e+00	0	30	0	76546048	46	5871
2026-01-17 01:21:13.43	131.66	4.36	-36.0	-36.9	20.9	0.00e+00	0	30	0	81788928	46	5638
2026-01-17 01:21:14.44	131.63	4.43	-35.8	-36.6	21.3	0.00e+00	0	30	0	88080384	46	5472
2026-01-17 01:21:15.45	131.60	4.50	-35.2	-36.0	21.8	0.00e+00	0	30	0	93323264	44	5713
2026-01-17 01:21:16.46	131.57	4.57	-35.1	-36.0	21.8	0.00e+00	0	30	0	99614720	44	5699
2026-01-17 01:21:17.47	131.54	4.64	-35.0	-35.9	21.8	0.00e+00	0	30	0	104857600	44	5649
2026-01-17 01:21:18.48	131.51	4.71	-35.6	-36.4	21.5	0.00e+00	0	30	0	110100480	44	6031
2026-01-17 01:21:19.49	131.48	4.78	-35.0	-35.8	21.8	0.00e+00	0	30	0	116391936	44	5627
2026-01-17 01:21:20.50	131.45	4.85	-35.2	-36.1	21.7	0.00e+00	0	30	0	121634816	44	5766
2026-01-17 01:21:21.51	131.42	4.92	-34.8	-35.6	22.3	0.00e+00	0	30	0	127926272	44	5441
2026-01-17 01:21:22.52	131.39	4.99	-35.2	-36.1	21.8	0.00e+00	0	30	0	133169152	44	5763
2026-01-17 01:21:23.53	131.35	5.06	-34.8	-35.6	22.3	0.00e+00	0	30	0	139460608	44	5469
2026-01-17 01:21:24.54	131.32	5.13	-34.9	-35.7	22.3	0.00e+00	0	30	0	144703488	42	6187
2026-01-17 01:21:25.55	131.29	5.20	-34.8	-35.6	22.3	0.00e+00	0	30	0	149946368	42	6108
2026-01-17 01:21:26.55	131.26	5.27	-34.7	-35.5	22.4	0.00e+00	0	30	0	156237824	42	6050
2026-01-17 01:21:27.56	131.23	5.35	-34.8	-35.6	22.2	0.00e+00	0	30	0	161480704	42	6148
2026-01-17 01:21:28.57	131.19	5.42	-35.0	-35.8	22.2	0.00e+00	0	30	0	167772160	42	6310
2026-01-17 01:21:29.58	131.16	5.49	-34.7	-35.5	22.4	0.00e+00	0	30	0	173015040	42	6085
2026-01-17 01:21:30.59	131.13	5.56	-34.9	-35.7	22.2	0.00e+00	0	30	0	178257920	42	6217
2026-01-17 01:21:31.60	131.10	5.63	-34.8	-35.6	22.4	0.00e+00	0	30	0	184549376	42	6137
2026-01-17 01:21:32.61	131.06	5.71	-34.9	-35.7	22.5	0.00e+00	0	30	0	189792256	42	6206
2026-01-17 01:21:33.62	131.03	5.78	-34.9	-35.7	22.3	0.00e+00	0	30	0	196083712	42	6235
2026-01-17 01:21:34.63	131.00	5.85	-34.5	-35.2	22.6	0.00e+00	0	30	0	201326592	42	5895
2026-01-17 01:21:35.64	130.96	5.93	-34.6	-35.3	22.6	0.00e+00	0	30	0	206569472	42	5963
2026-01-17 01:21:36.65	130.93	6.00	-34.8	-35.6	22.4	0.00e+00	0	30	0	212860928	42	6165
2026-01-17 01:21:37.66	130.90	6.07	-34.7	-35.5	22.5	0.00e+00	0	30	0	218103808	42	6082
2026-01-17 01:21:38.67	130.86	6.15	-34.8	-35.6	22.5	0.00e+00	0	30	0	224395264	42	6114
2026-01-17 01:21:39.68	130.83	6.22	-34.7	-35.5	22.6	0.00e+00	0	30	0	229638144	42	6063
2026-01-17 01:21:40.69	130.79	6.30	-34.9	-35.7	22.4	0.00e+00	0	30	0	235929600	42	6181
2026-01-17 01:21:41.70	130.76	6.37	-34.7	-35.5	22.6	0.00e+00	0	30	0	241172480	42	6043
2026-01-17 01:21:42.71	130.72	6.44	-34.6	-35.4	22.7	0.00e+00	0	30	0	247463936	42	5977
2026-01-17 01:21:43.72	130.69	6.52	-34.6	-35.3	22.7	0.00e+00	0	30	0	252706816	42	5961
2026-01-17 01:21:44.73	130.65	6.59	-34.7	-35.5	22.6	0.00e+00	0	30	0	257949696	42	6050
2026-01-17 01:21:45.74	130.62	6.67	-34.6	-35.4	22.7	0.00e+00	0	30	0	264241152	42	5981
2026-01-17 01:21:46.75	130.58	6.74	-34.7	-35.5	22.6	0.00e+00	0	30	0	269484032	42	6064
2026-01-17 01:21:47.76	130.55	6.82	-34.8	-35.6	22.5	0.00e+00	0	30	0	275775488	42	6144
2026-01-17 01:21:48.77	130.51	6.90	-34.7	-35.4	22.6	0.00e+00	0	30	0	281018368	42	6017
2026-01-17 01:21:49.78	130.47	6.97	-34.6	-35.3	22.8	0.00e+00	0	30	0	286261248	42	5960
2026-01-17 01:21:50.79	130.44	7.05	-34.5	-35.3	22.7	0.00e+00	0	30	0	292552704	42	5962
2026-01-17 01:21:51.80	130.40	7.12	-34.6	-35.4	22.7	0.00e+00	0	30	0	297795584	42	5981
2026-01-17 01:21:52.81	130.36	7.20	-34.5	-35.3	22.8	0.00e+00	0	30	0	304087040	42	5948
2026-01-17 01:21:53.82	130.33	7.28	-34.5	-35.3	22.8	0.00e+00	0	30	0	309329920	42	5962
2026-01-17 01:21:54.82	130.29	7.35	-34.6	-35.4	22.8	0.00e+00	0	30	0	314572800	42	5979
2026-01-17 01:21:55.83	130.25	7.43	-34.6	-35.4	22.8	0.00e+00	0	30	0	320864256	42	6009
2026-01-17 01:21:56.84	130.21	7.51	-34.5	-35.3	22.9	0.00e+00	0	30	0	326107136	42	5920
2026-01-17 01:21:57.85	130.18	7.59	-34.5	-35.3	23.0	0.00e+00	0	30	0	332398592	42	5935
2026-01-17 01:21:58.86	130.14	7.67	-34.5	-35.3	23.0	0.00e+00	0	30	0	337641472	42	5904
2026-01-17 01:21:59.87	130.10	7.74	-34.3	-35.1	23.1	0.00e+00	0	30	0	343932928	42	5782
2026-01-17 01:22:00.87	130.06	7.82	-34.5	-35.3	22.9	0.00e+00	0	30	0	349175808	42	5908
2026-01-17 01:22:01.88	130.02	7.90	-34.4	-35.2	22.9	0.00e+00	0	30	0	354418688	42	5863
2026-01-17 01:22:02.89	129.98	7.98	-34.4	-35.1	23.1	0.00e+00	0	30	0	360710144	42	5804
2026-01-17 01:22:03.90	129.94	8.06	-34.4	-35.1	23.1	0.00e+00	0	30	0	365953024	42	5805
2026-01-17 01:22:04.91	129.90	8.14	-34.4	-35.2	23.1	0.00e+00	0	30	0	372244480	42	5839
2026-01-17 01:22:05.91	129.87	8.22	-34.3	-35.0	23.2	0.00e+00	0	30	0	377487360	42	5761
2026-01-17 01:22:06.92	129.83	8.30	-34.2	-35.0	23.2	0.00e+00	0	30	0	382730240	42	5726
2026-01-17 01:22:07.93	129.79	8.38	-34.2	-35.0	23.2	0.00e+00	0	30	0	389021696	42	5711
2026-01-17 01:22:08.94	129.74	8.46	-34.0	-34.7	23.5	0.00e+00	0	30	0	394264576	42	5557
2026-01-17 01:22:09.95	129.70	8.54	-34.1	-34.9	23.2	0.00e+00	0	30	0	399507456	42	5662
2026-01-17 01:22:10.96	129.66	8.62	-34.1	-34.9	23.3	0.00e+00	0	30	0	405798912	42	5651
2026-01-17 01:22:11.97	129.62	8.70	-34.1	-34.8	23.4	0.00e+00	0	30	0	411041792	42	5621
2026-01-17 01:22:12.98	129.58	8.78	-33.9	-34.7	23.6	0.00e+00	0	30	0	417333248	42	5503
2026-01-17 01:22:13.99	129.54	8.86	-34.0	-34.7	23.6	0.00e+00	0	30	0	422576128	42	5523
2026-01-17 01:22:15.00	129.50	8.94	-33.9	-34.6	23.6	0.00e+00	0	30	0	428867584	42	5471
2026-01-17 01:22:16.01	129.45	9.03	-34.0	-34.8	23.4	0.00e+00	0	30	0	434110464	42	5599
2026-01-17 01:22:17.01	129.41	9.11	-33.9	-34.6	23.6	0.00e+00	0	30	0	440401920	42	5476
2026-01-17 01:22:18.03	129.37	9.19	-33.7	-34.5	23.8	0.00e+00	0	30	0	445644800	40	6036
2026-01-17 01:22:19.04	129.33	9.27	-33.8	-34.6	23.6	0.00e+00	0	30	0	450887680	40	6118
2026-01-17 01:22:20.05	129.28	9.36	-33.7	-34.4	23.8	0.00e+00	0	30	0	457179136	40	6028
2026-01-17 01:22:21.06	129.24	9.44	-33.8	-34.5	23.7	0.00e+00	0	30	0	462422016	40	6092
2026-01-17 01:22:22.07	129.20	9.52	-33.8	-34.6	23.8	0.00e+00	0	30	0	468713472	40	6116
2026-01-17 01:22:23.08	129.15	9.61	-33.6	-34.3	23.9	0.00e+00	0	30	0	473956352	40	5949
2026-01-17 01:22:24.09	129.11	9.69	-33.7	-34.4	23.9	0.00e+00	0	30	0	479199232	40	5982
2026-01-17 01:22:25.10	129.06	9.78	-33.7	-34.4	23.9	0.00e+00	0	30	0	485490688	40	5972
2026-01-17 01:22:26.11	129.02	9.86	-33.8	-34.5	23.8	0.00e+00	0	30	0	490733568	40	6093
2026-01-17 01:22:27.12	128.97	9.95	-33.6	-34.3	24.0	0.00e+00	0	30	0	497025024	40	5954
2026-01-17 01:22:28.13	128.93	10.03	-33.4	-34.1	24.2	0.00e+00	0	30	0	502267904	40	5782
2026-01-17 01:22:29.14	128.88	10.12	-33.5	-34.2	24.1	0.00e+00	0	30	0	507510784	40	5844
2026-01-17 01:22:30.14	128.84	10.20	-33.5	-34.2	24.0	0.00e+00	0	30	0	513802240	40	5873
2026-01-17 01:22:31.15	128.79	10.29	-33.6	-34.3	24.0	0.00e+00	0	30	0	519045120	40	5909
2026-01-17 01:22:32.16	128.74	10.38	-33.7	-34.4	23.9	0.00e+00	0	30	0	525336576	40	6012
2026-01-17 01:22:33.17	128.70	10.46	-33.5	-34.2	24.2	0.00e+00	0	30	0	530579456	40	5838
2026-01-17 01:22:34.18	128.65	10.55	-33.3	-33.9	24.4	0.00e+00	0	30	0	536870912	40	5688
2026-01-17 01:22:35.19	128.60	10.64	-33.2	-33.9	24.4	0.00e+00	0	30	0	542113792	40	5674
2026-01-17 01:22:36.20	128.55	10.72	-33.2	-33.9	24.3	0.00e+00	0	30	0	547356672	40	5649
2026-01-17 01:22:37.21	128.51	10.81	-33.2	-33.9	24.4	0.00e+00	0	30	0	553648128	40	5671
2026-01-17 01:22:38.22	128.46	10.90	-33.1	-33.8	24.5	0.00e+00	0	30	0	558891008	40	5583
2026-01-17 01:22:39.22	128.41	10.99	-33.1	-33.8	24.5	0.00e+00	0	30	0	565182464	40	5598
2026-01-17 01:22:40.23	128.36	11.08	-33.2	-33.9	24.4	0.00e+00	0	30	0	570425344	40	5655
2026-01-17 01:22:41.24	128.31	11.16	-33.1	-33.9	24.5	0.00e+00	0	30	0	575668224	40	5631
2026-01-17 01:22:42.25	128.26	11.25	-33.1	-33.8	24.4	0.00e+00	0	30	0	581959680	40	5596
2026-01-17 01:22:43.26	128.21	11.34	-33.1	-33.8	24.5	0.00e+00	0	30	0	587202560	40	5607
2026-01-17 01:22:44.27	128.16	11.43	-33.1	-33.8	24.5	0.00e+00	0	30	0	593494016	40	5592
2026-01-17 01:22:45.28	128.11	11.52	-33.0	-33.7	24.6	0.00e+00	0	30	0	598736896	40	5543
2026-01-17 01:22:46.28	128.06	11.61	-33.1	-33.8	24.4	0.00e+00	0	30	0	603979776	40	5587
2026-01-17 01:22:47.30	128.01	11.71	-33.1	-33.8	24.5	0.00e+00	0	30	0	610271232	40	5606
2026-01-17 01:22:48.31	127.96	11.80	-33.1	-33.8	24.5	0.00e+00	0	30	0	615514112	40	5587
2026-01-17 01:22:49.32	127.91	11.89	-33.0	-33.8	24.6	0.00e+00	0	30	0	621805568	40	5573
2026-01-17 01:22:50.33	127.85	11.98	-33.0	-33.8	24.6	0.00e+00	0	30	0	627048448	40	5573
2026-01-17 01:22:51.33	127.80	12.07	-33.0	-33.7	24.6	0.00e+00	0	30	0	633339904	40	5554
2026-01-17 01:22:52.34	127.75	12.16	-32.9	-33.6	24.6	0.00e+00	0	30	0	638582784	40	5484
2026-01-17 01:22:53.35	127.69	12.26	-32.9	-33.6	24.7	0.00e+00	0	30	0	643825664	40	5473
2026-01-17 01:22:54.36	127.64	12.35	-32.9	-33.6	24.6	0.00e+00	0	30	0	650117120	40	5500
2026-01-17 01:22:55.37	127.59	12.44	-33.0	-33.7	24.6	0.00e+00	0	30	0	655360000	40	5550
2026-01-17 01:22:56.38	127.53	12.54	-32.8	-33.6	24.8	0.00e+00	0	30	0	661651456	40	5449
2026-01-17 01:22:57.39	127.48	12.63	-32.9	-33.6	24.8	0.00e+00	0	30	0	666894336	38	6129
2026-01-17 01:22:58.40	127.42	12.72	-32.8	-33.5	24.9	0.00e+00	0	30	0	672137216	38	6054
2026-01-17 01:22:59.41	127.37	12.82	-32.9	-33.6	24.8	0.00e+00	0	30	0	678428672	38	6112
2026-01-17 01:23:00.42	127.31	12.91	-32.8	-33.4	25.0	0.00e+00	0	30	0	683671552	38	6030
2026-01-17 01:23:01.43	127.25	13.01	-32.7	-33.4	25.0	0.00e+00	0	30	0	689963008	38	5993
2026-01-17 01:23:02.43	127.20	13.11	-32.8	-33.5	24.9	0.00e+00	0	30	0	695205888	38	6049
2026-01-17 01:23:03.44	127.14	13.20	-32.8	-33.5	25.0	0.00e+00	0	30	0	700448768	38	6037
2026-01-17 01:23:04.45	127.08	13.30	-32.7	-33.3	25.0	0.00e+00	0	30	0	706740224	38	5954
2026-01-17 01:23:05.46	127.03	13.39	-32.7	-33.4	25.0	0.00e+00	0	30	0	711983104	38	6011
2026-01-17 01:23:06.47	126.97	13.49	-32.8	-33.5	24.8	0.00e+00	0	30	0	718274560	38	6035
2026-01-17 01:23:07.48	126.91	13.59	-32.7	-33.3	25.1	0.00e+00	0	30	0	723517440	38	5963
2026-01-17 01:23:08.49	126.85	13.69	-32.5	-33.2	25.2	0.00e+00	0	30	0	729808896	38	5874
2026-01-17 01:23:09.50	126.79	13.79	-32.6	-33.3	24.9	0.00e+00	0	30	0	735051776	38	5897
2026-01-17 01:23:10.51	126.73	13.88	-32.6	-33.3	25.2	0.00e+00	0	30	0	741343232	38	5897
2026-01-17 01:23:11.52	126.67	13.98	-32.6	-33.3	25.1	0.00e+00	0	30	0	746586112	38	5902
2026-01-17 01:23:12.53	126.61	14.08	-32.7	-33.3	25.0	0.00e+00	0	30	0	751828992	38	5960
2026-01-17 01:23:13.54	126.55	14.18	-32.7	-33.4	25.0	0.00e+00	0	30	0	758120448	38	6002
2026-01-17 01:23:14.55	126.49	14.28	-32.3	-33.0	25.4	0.00e+00	0	30	0	763363328	38	5712
2026-01-17 01:23:15.56	126.43	14.38	-32.3	-33.0	25.3	0.00e+00	0	30	0	769654784	38	5712
2026-01-17 01:23:16.57	126.36	14.48	-32.3	-33.0	25.3	0.00e+00	0	30	0	774897664	38	5732
2026-01-17 01:23:17.58	126.30	14.59	-32.3	-33.0	25.4	0.00e+00	0	30	0	780140544	38	5705
2026-01-17 01:23:18.59	126.24	14.69	-32.2	-32.9	25.4	0.00e+00	0	30	0	786432000	38	5686
2026-01-17 01:23:19.60	126.17	14.79	-32.4	-33.0	25.3	0.00e+00	0	30	0	791674880	38	5756
2026-01-17 01:23:20.61	126.11	14.89	-32.4	-33.1	25.3	0.00e+00	0	30	0	797966336	38	5778
2026-01-17 01:23:21.62	126.04	14.99	-32.3	-33.0	25.4	0.00e+00	0	30	0	803209216	38	5717
2026-01-17 01:23:22.63	125.98	15.10	-32.3	-33.0	25.4	0.00e+00	0	30	0	808452096	38	5736
2026-01-17 01:23:23.64	125.91	15.20	-32.2	-32.9	25.5	0.00e+00	0	30	0	814743552	38	5639
2026-01-17 01:23:24.65	125.85	15.31	-32.2	-32.9	25.5	0.00e+00	0	30	0	819986432	38	5636
2026-01-17 01:23:25.66	125.78	15.41	-32.1	-32.7	25.7	0.00e+00	0	29	0	826277888	38	5559
2026-01-17 01:23:26.67	125.71	15.51	-32.1	-32.7	25.6	0.00e+00	0	30	0	831520768	38	5548
2026-01-17 01:23:27.68	125.65	15.62	-32.1	-32.8	25.6	0.00e+00	0	30	0	837812224	38	5569
2026-01-17 01:23:28.69	125.58	15.73	-31.8	-32.5	25.8	0.00e+00	0	30	0	843055104	38	5398
2026-01-17 01:23:29.70	125.51	15.83	-31.9	-32.5	25.8	0.00e+00	0	30	0	848297984	38	5422
2026-01-17 01:23:30.71	125.44	15.94	-31.8	-32.5	25.9	0.00e+00	0	29	0	854589440	36	6055
2026-01-17 01:23:31.72	125.37	16.05	-31.7	-32.4	26.0	0.00e+00	0	30	0	859832320	36	5993
2026-01-17 01:23:32.73	125.30	16.15	-31.6	-32.2	26.0	0.00e+00	0	30	0	866123776	36	5893
2026-01-17 01:23:33.74	125.23	16.26	-31.7	-32.4	26.0	0.00e+00	0	30	0	871366656	36	5966
2026-01-17 01:23:34.75	125.16	16.37	-31.7	-32.3	26.0	0.00e+00	0	30	0	876609536	36	5964
2026-01-17 01:23:35.75	125.09	16.48	-31.7	-32.4	25.9	0.00e+00	0	30	0	882900992	36	6006
2026-01-17 01:23:36.76	125.01	16.59	-31.7	-32.4	25.9	0.00e+00	0	30	0	888143872	36	5976
2026-01-17 01:23:37.77	124.94	16.70	-31.5	-32.1	26.1	0.00e+00	0	30	0	894435328	36	5815
2026-01-17 01:23:38.78	124.87	16.81	-31.4	-32.1	26.2	0.00e+00	0	30	0	899678208	36	5771
2026-01-17 01:23:39.79	124.79	16.92	-31.4	-32.1	26.1	0.00e+00	0	30	0	904921088	36	5788
2026-01-17 01:23:40.80	124.72	17.03	-31.5	-32.2	26.1	0.00e+00	0	30	0	911212544	36	5868
2026-01-17 01:23:41.81	124.64	17.14	-31.5	-32.2	26.1	0.00e+00	0	30	0	916455424	36	5849
2026-01-17 01:23:42.82	124.57	17.25	-31.4	-32.0	26.3	0.00e+00	0	30	0	922746880	36	5755
2026-01-17 01:23:43.83	124.49	17.36	-31.4	-32.0	26.3	0.00e+00	0	30	0	927989760	36	5743
2026-01-17 01:23:44.84	124.42	17.48	-31.4	-32.1	26.2	0.00e+00	0	29	0	934281216	36	5776
2026-01-17 01:23:45.85	124.34	17.59	-31.4	-32.0	26.3	0.00e+00	0	30	0	939524096	36	5755
2026-01-17 01:23:46.86	124.26	17.70	-31.3	-32.0	26.3	0.00e+00	0	29	0	945815552	36	5720
2026-01-17 01:23:47.86	124.18	17.82	-31.2	-31.9	26.4	0.00e+00	0	30	0	951058432	36	5647
2026-01-17 01:23:48.87	124.10	17.93	-31.3	-32.0	26.3	0.00e+00	0	29	0	956301312	36	5709
2026-01-17 01:23:49.88	124.02	18.04	-31.3	-32.0	26.3	0.00e+00	0	30	0	962592768	36	5697
2026-01-17 01:23:50.89	123.94	18.16	-31.3	-32.0	26.3	0.00e+00	0	30	0	967835648	36	5736
2026-01-17 01:23:51.90	123.86	18.28	-31.3	-31.9	26.3	0.00e+00	0	30	0	973078528	36	5691
2026-01-17 01:23:52.91	123.78	18.39	-31.3	-32.0	26.4	0.00e+00	0	30	0	979369984	36	5706
2026-01-17 01:23:53.92	123.70	18.51	-31.3	-31.9	26.4	0.00e+00	0	30	0	984612864	36	5686
2026-01-17 01:23:54.93	123.61	18.63	-31.1	-31.8	26.5	0.00e+00	0	29	0	990904320	36	5591
2026-01-17 01:23:55.94	123.53	18.75	-31.1	-31.8	26.6	0.00e+00	0	29	0	996147200	36	5598
2026-01-17 01:23:56.95	123.45	18.86	-31.1	-31.7	26.6	0.00e+00	0	30	0	1001390080	36	5557
2026-01-17 01:23:57.96	123.36	18.98	-31.0	-31.7	26.6	0.00e+00	0	30	0	1007681536	36	5536
2026-01-17 01:23:58.96	123.27	19.10	-31.2	-31.8	26.6	0.00e+00	0	30	0	1012924416	36	5616
2026-01-17 01:23:59.97	123.19	19.22	-31.0	-31.7	26.6	0.00e+00	0	29	0	1019215872	36	5536
2026-01-17 01:24:00.98	123.10	19.34	-31.3	-32.0	26.5	0.00e+00	0	29	0	1024458752	36	5715
2026-01-17 01:24:01.99	123.01	19.46	-30.9	-31.6	26.7	0.00e+00	0	29	0	1030750208	36	5457
2026-01-17 01:24:03.00	122.92	19.58	-30.9	-31.6	26.7	0.00e+00	0	29	0	1035993088	36	5474
2026-01-17 01:24:04.01	122.83	19.71	-31.1	-31.8	26.6	0.00e+00	0	29	0	1042284544	36	5570
2026-01-17 01:24:05.03	122.74	19.83	-30.8	-31.5	26.7	0.00e+00	0	29	0	1047527424	36	5404
2026-01-17 01:24:06.04	122.65	19.95	-31.0	-31.6	26.7	0.00e+00	0	30	0	1052770304	36	5478
2026-01-17 01:24:07.05	122.56	20.08	-30.9	-31.5	26.8	0.00e+00	0	29	0	1059061760	36	5427
2026-01-17 01:24:08.05	122.47	20.20	-30.9	-31.5	26.7	0.00e+00	0	29	0	1064304640	36	5432
2026-01-17 01:24:09.07	122.38	20.33	-30.7	-31.3	26.9	0.00e+00	0	29	0	1070596096	34	5940
2026-01-17 01:24:10.07	122.28	20.45	-30.7	-31.3	26.9	0.00e+00	0	30	0	1075838976	34	5961
2026-01-17 01:24:11.08	122.19	20.58	-30.7	-31.3	26.9	0.00e+00	0	29	0	1081081856	34	5951
2026-01-17 01:24:12.09	122.09	20.70	-30.7	-31.3	27.0	0.00e+00	0	29	0	1087373312	34	5941
2026-01-17 01:24:13.10	122.00	20.83	-30.6	-31.3	26.9	0.00e+00	0	29	0	1092616192	34	5919
2026-01-17 01:24:14.11	121.90	20.96	-30.5	-31.1	27.1	0.00e+00	0	29	0	1097859072	34	5817
2026-01-17 01:24:15.11	121.80	21.08	-30.4	-31.0	27.1	0.00e+00	0	29	0	1104150528	34	5756
2026-01-17 01:24:16.12	121.70	21.21	-30.3	-31.0	27.2	0.00e+00	0	29	0	1109393408	34	5703
2026-01-17 01:24:17.13	121.60	21.34	-30.4	-31.0	27.2	0.00e+00	0	30	0	1115684864	34	5706
2026-01-17 01:24:18.14	121.50	21.47	-30.2	-30.8	27.3	0.00e+00	0	29	0	1120927744	34	5630
2026-01-17 01:24:19.15	121.40	21.60	-30.2	-30.9	27.3	0.00e+00	0	29	0	1127219200	34	5653
2026-01-17 01:24:20.15	121.30	21.73	-30.1	-30.8	27.4	0.00e+00	0	29	0	1132462080	34	5581
2026-01-17 01:24:21.16	121.20	21.86	-30.0	-30.6	27.5	0.00e+00	0	30	0	1138753536	34	5489
2026-01-17 01:24:22.17	121.09	21.99	-30.0	-30.6	27.5	0.00e+00	0	29	0	1143996416	34	5465
2026-01-17 01:24:23.18	120.99	22.13	-30.1	-30.7	27.4	0.00e+00	0	29	0	1149239296	34	5540
2026-01-17 01:24:24.19	120.88	22.26	-30.0	-30.7	27.5	0.00e+00	0	29	0	1155530752	34	5514
2026-01-17 01:24:25.21	120.77	22.40	-30.2	-30.9	27.3	0.00e+00	0	29	0	1160773632	34	5633
2026-01-17 01:24:26.22	120.66	22.53	-30.2	-30.9	27.3	0.00e+00	0	29	0	1167065088	34	5646
2026-01-17 01:24:27.23	120.56	22.67	-30.2	-30.9	27.3	0.00e+00	0	29	0	1172307968	34	5643
2026-01-17 01:24:28.23	120.45	22.80	-30.3	-30.9	27.3	0.00e+00	0	29	0	1177550848	34	5679
2026-01-17 01:24:29.24	120.34	22.94	-30.2	-30.8	27.2	0.00e+00	0	29	0	1183842304	34	5627
2026-01-17 01:24:30.25	120.22	23.07	-30.3	-30.9	27.2	0.00e+00	0	29	0	1189085184	34	5692
2026-01-17 01:24:31.26	120.11	23.21	-30.1	-30.8	27.4	0.00e+00	0	29	0	1195376640	34	5574
2026-01-17 01:24:32.26	120.00	23.35	-30.3	-30.9	27.3	0.00e+00	0	29	0	1200619520	34	5684
2026-01-17 01:24:33.27	119.88	23.49	-30.1	-30.7	27.4	0.00e+00	0	29	0	1205862400	34	5557
2026-01-17 01:24:34.29	119.77	23.63	-30.1	-30.7	27.5	0.00e+00	0	29	0	1212153856	34	5556
2026-01-17 01:24:35.29	119.65	23.76	-29.9	-30.6	27.5	0.00e+00	0	29	0	1217396736	34	5445
2026-01-17 01:24:36.30	119.53	23.90	-29.8	-30.4	27.6	0.00e+00	0	29	0	1223688192	34	5373
2026-01-17 01:24:37.31	119.41	24.05	-29.9	-30.5	27.6	0.00e+00	0	29	0	1228931072	34	5414
2026-01-17 01:24:38.32	119.29	24.19	-29.8	-30.4	27.7	0.00e+00	0	29	0	1235222528	34	5335
2026-01-17 01:24:39.33	119.17	24.33	-29.8	-30.4	27.6	0.00e+00	0	29	0	1240465408	32	5993
2026-01-17 01:24:40.34	119.05	24.47	-29.7	-30.4	27.7	0.00e+00	0	29	0	1245708288	32	5965
2026-01-17 01:24:41.35	118.93	24.62	-29.9	-30.5	27.5	0.00e+00	0	29	0	1251999744	32	6094
2026-01-17 01:24:42.36	118.80	24.76	-29.9	-30.5	27.5	0.00e+00	0	29	0	1257242624	32	6062
2026-01-17 01:24:43.37	118.67	24.91	-30.1	-30.7	27.4	0.00e+00	0	29	0	1263534080	32	6224
2026-01-17 01:24:44.38	118.55	25.05	-30.1	-30.7	27.5	0.00e+00	0	29	0	1268776960	32	6229
2026-01-17 01:24:45.39	118.42	25.20	-30.0	-30.7	27.5	0.00e+00	0	29	0	1274019840	32	6189
2026-01-17 01:24:46.40	118.29	25.34	-30.0	-30.6	27.5	0.00e+00	0	29	0	1280311296	32	6168
2026-01-17 01:24:47.41	118.16	25.49	-30.1	-30.7	27.5	0.00e+00	0	29	0	1285554176	32	6238
2026-01-17 01:24:48.42	118.03	25.64	-29.8	-30.5	27.7	0.00e+00	0	29	0	1291845632	32	6059
2026-01-17 01:24:49.42	117.89	25.79	-29.8	-30.5	27.7	0.00e+00	0	29	0	1297088512	32	6048
2026-01-17 01:24:50.43	117.76	25.94	-29.8	-30.5	27.6	0.00e+00	0	29	0	1302331392	32	6048
2026-01-17 01:24:51.44	117.62	26.09	-29.7	-30.3	27.8	0.00e+00	0	29	0	1308622848	32	5958
2026-01-17 01:24:52.45	117.49	26.24	-29.7	-30.3	27.8	0.00e+00	0	29	0	1313865728	32	5948
2026-01-17 01:24:53.46	117.35	26.39	-29.5	-30.1	28.0	0.00e+00	0	29	0	1320157184	32	5798
2026-01-17 01:24:54.47	117.21	26.54	-29.5	-30.1	28.0	0.00e+00	0	29	0	1325400064	32	5788
2026-01-17 01:24:55.48	117.07	26.69	-29.4	-30.0	28.1	0.00e+00	0	29	0	1331691520	32	5743
2026-01-17 01:24:56.49	116.92	26.85	-29.6	-30.2	27.8	0.00e+00	0	29	0	1336934400	32	5867
2026-01-17 01:24:57.50	116.78	27.00	-29.4	-30.1	27.9	0.00e+00	0	29	0	1342177280	32	5767
2026-01-17 01:24:58.51	116.63	27.16	-29.6	-30.3	27.8	0.00e+00	0	29	0	1348468736	32	5920
2026-01-17 01:24:59.51	116.49	27.31	-29.9	-30.5	27.7	0.00e+00	0	29	0	1353711616	32	6098
2026-01-17 01:25:00.52	116.34	27.47	-29.8	-30.5	27.7	0.00e+00	0	29	0	1360003072	32	6049
2026-01-17 01:25:01.53	116.19	27.62	-29.8	-30.5	27.7	0.00e+00	0	29	0	1365245952	32	6036
2026-01-17 01:25:02.54	116.04	27.78	-29.7	-30.4	27.8	0.00e+00	0	29	0	1370488832	32	5984
2026-01-17 01:25:03.56	115.88	27.94	-29.7	-30.3	27.8	0.00e+00	0	29	0	1376780288	32	5929
2026-01-17 01:25:04.56	115.73	28.10	-29.7	-30.3	27.9	0.00e+00	0	29	0	1382023168	32	5949
2026-01-17 01:25:05.57	115.57	28.26	-29.7	-30.4	27.8	0.00e+00	0	29	0	1388314624	32	5976
2026-01-17 01:25:06.58	115.42	28.42	-29.6	-30.2	27.9	0.00e+00	0	29	0	1393557504	32	5868
2026-01-17 01:25:07.59	115.26	28.58	-29.4	-30.1	28.0	0.00e+00	0	29	0	1398800384	32	5767
2026-01-17 01:25:08.60	115.10	28.74	-29.5	-30.2	27.9	0.00e+00	0	29	0	1405091840	32	5832
2026-01-17 01:25:09.61	114.93	28.90	-29.4	-30.0	28.0	0.00e+00	0	29	0	1410334720	32	5756
2026-01-17 01:25:10.62	114.77	29.06	-29.4	-30.1	28.1	0.00e+00	0	29	0	1416626176	32	5773
2026-01-17 01:25:11.63	114.60	29.23	-29.3	-29.9	28.1	0.00e+00	0	29	0	1421869056	32	5685
2026-01-17 01:25:12.64	114.44	29.39	-29.4	-30.1	28.1	0.00e+00	0	29	0	1428160512	32	5783
2026-01-17 01:25:13.65	114.27	29.56	-29.4	-30.0	28.1	0.00e+00	0	29	0	1433403392	32	5759
2026-01-17 01:25:14.66	114.10	29.72	-29.6	-30.2	27.9	0.00e+00	0	29	0	1438646272	32	5887
2026-01-17 01:25:15.66	113.92	29.89	-29.7	-30.3	27.8	0.00e+00	0	29	0	1444937728	32	5924
2026-01-17 01:25:16.67	113.75	30.05	-29.8	-30.4	27.7	0.00e+00	0	29	0	1450180608	32	6024
2026-01-17 01:25:17.68	113.57	30.22	-29.8	-30.4	27.8	0.00e+00	0	29	0	1456472064	32	6024
2026-01-17 01:25:18.69	113.39	30.39	-29.8	-30.4	27.8	0.00e+00	0	29	0	1461714944	32	5989
2026-01-17 01:25:19.69	113.22	30.56	-29.8	-30.4	27.7	0.00e+00	0	29	0	1466957824	32	5973
2026-01-17 01:25:20.70	113.03	30.73	-29.7	-30.3	27.8	0.00e+00	0	29	0	1473249280	32	5953
2026-01-17 01:25:21.71	112.85	30.90	-29.7	-30.4	27.8	0.00e+00	0	29	0	1478492160	32	5972
2026-01-17 01:25:22.72	112.66	31.07	-29.7	-30.3	27.8	0.00e+00	0	29	0	1484783616	32	5937
2026-01-17 01:25:23.73	112.47	31.24	-29.5	-30.1	28.0	0.00e+00	0	29	0	1490026496	32	5799
2026-01-17 01:25:24.74	112.28	31.41	-29.3	-30.0	28.1	0.00e+00	0	29	0	1495269376	32	5710
2026-01-17 01:25:25.75	112.09	31.58	-29.2	-29.8	28.2	0.00e+00	0	29	0	1501560832	32	5609
2026-01-17 01:25:26.76	111.90	31.76	-29.4	-30.1	28.0	0.00e+00	0	29	0	1506803712	32	5767
2026-01-17 01:25:27.77	111.70	31.93	-29.4	-30.1	27.9	0.00e+00	0	29	0	1513095168	32	5771
2026-01-17 01:25:28.78	111.50	32.11	-29.4	-30.0	28.1	0.00e+00	0	29	0	1518338048	32	5723
2026-01-17 01:25:29.79	111.30	32.28	-29.4	-30.0	28.0	0.00e+00	0	29	0	1524629504	32	5738
2026-01-17 01:25:30.80	111.10	32.46	-29.5	-30.1	28.0	0.00e+00	0	29	0	1529872384	32	5764
2026-01-17 01:25:31.81	110.89	32.63	-29.5	-30.1	28.0	0.00e+00	0	29	0	1536163840	32	5821
2026-01-17 01:25:32.82	110.68	32.81	-29.2	-29.8	28.2	0.00e+00	0	29	0	1541406720	32	5602
2026-01-17 01:25:33.83	110.47	32.99	-29.1	-29.7	28.3	0.00e+00	0	29	0	1546649600	32	5540
2026-01-17 01:25:34.84	110.26	33.17	-29.1	-29.7	28.3	0.00e+00	0	29	0	1552941056	32	5551
2026-01-17 01:25:35.85	110.05	33.35	-29.1	-29.7	28.3	0.00e+00	0	29	0	1558183936	32	5534
2026-01-17 01:25:36.86	109.83	33.53	-28.9	-29.5	28.4	0.00e+00	0	29	0	1563426816	32	5413
2026-01-17 01:25:37.87	109.61	33.71	-28.8	-29.4	28.5	0.00e+00	0	29	0	1569718272	32	5367
2026-01-17 01:25:38.88	109.39	33.89	-28.9	-29.6	28.4	0.00e+00	0	29	0	1574961152	32	5440
2026-01-17 01:25:39.89	109.16	34.07	-29.0	-29.6	28.4	0.00e+00	0	29	0	1581252608	32	5450
2026-01-17 01:25:40.89	108.94	34.25	-29.0	-29.6	28.4	0.00e+00	0	29	0	1586495488	32	5494
2026-01-17 01:25:41.90	108.71	34.43	-28.9	-29.5	28.4	0.00e+00	0	29	0	1591738368	32	5424
2026-01-17 01:25:42.91	108.48	34.61	-28.8	-29.5	28.5	0.00e+00	0	29	0	1598029824	32	5378
2026-01-17 01:25:43.92	108.24	34.80	-28.9	-29.5	28.4	0.00e+00	0	29	0	1603272704	32	5434
2026-01-17 01:25:44.93	108.00	34.98	-29.1	-29.7	28.3	0.00e+00	0	29	0	1609564160	32	5535
2026-01-17 01:25:45.94	107.76	35.17	-29.3	-29.9	28.2	0.00e+00	0	29	0	1614807040	32	5672
2026-01-17 01:25:46.95	107.52	35.35	-29.4	-30.0	28.1	0.00e+00	0	29	0	1621098496	32	5739
2026-01-17 01:25:47.96	107.28	35.54	-29.3	-29.9	28.1	0.00e+00	0	29	0	1626341376	32	5691
2026-01-17 01:25:48.97	107.03	35.72	-29.2	-29.8	28.2	0.00e+00	0	29	0	1632632832	32	5624
2026-01-17 01:25:49.98	106.77	35.91	-29.2	-29.9	28.2	0.00e+00	0	29	0	1637875712	32	5652
2026-01-17 01:25:50.99	106.52	36.10	-29.3	-29.9	28.3	0.00e+00	0	29	0	1643118592	32	5676
2026-01-17 01:25:52.00	106.26	36.28	-29.1	-29.7	28.4	0.00e+00	0	29	0	1649410048	32	5536
2026-01-17 01:25:53.00	106.00	36.47	-28.9	-29.5	28.4	0.00e+00	0	29	0	1654652928	32	5392
2026-01-17 01:25:54.01	105.74	36.66	-28.9	-29.5	28.4	0.00e+00	0	29	0	1660944384	32	5396
2026-01-17 01:25:55.02	105.47	36.84	-29.0	-29.5	28.4	0.00e+00	0	29	0	1666187264	32	5435
2026-01-17 01:25:56.03	105.21	37.03	-29.2	-29.8	28.2	0.00e+00	0	29	0	1671430144	32	5610
2026-01-17 01:25:57.04	104.93	37.22	-29.3	-29.9	28.1	0.00e+00	0	29	0	1677721600	32	5663
2026-01-17 01:25:58.05	104.66	37.41	-29.3	-30.0	28.2	0.00e+00	0	29	0	1682964480	32	5708
2026-01-17 01:25:59.06	104.38	37.60	-29.1	-29.7	28.3	0.00e+00	0	29	0	1689255936	32	5523
2026-01-17 01:26:00.07	104.09	37.79	-29.2	-29.8	28.2	0.00e+00	0	29	0	1694498816	32	5579
2026-01-17 01:26:01.08	103.81	37.98	-29.1	-29.7	28.3	0.00e+00	0	29	0	1699741696	32	5529
2026-01-17 01:26:02.09	103.52	38.17	-29.1	-29.7	28.3	0.00e+00	0	29	0	1706033152	32	5557
2026-01-17 01:26:03.10	103.23	38.36	-29.0	-29.7	28.3	0.00e+00	0	29	0	1711276032	32	5529
2026-01-17 01:26:04.11	102.93	38.55	-29.1	-29.7	28.3	0.00e+00	0	29	0	1717567488	32	5547
2026-01-17 01:26:05.12	102.63	38.75	-29.2	-29.8	28.2	0.00e+00	0	29	0	1722810368	32	5589
2026-01-17 01:26:06.13	102.33	38.94	-29.0	-29.6	28.4	0.00e+00	0	29	0	1729101824	32	5489
2026-01-17 01:26:07.14	102.02	39.13	-29.2	-29.8	28.2	0.00e+00	0	29	0	1734344704	32	5569
2026-01-17 01:26:08.15	101.71	39.32	-29.1	-29.7	28.3	0.00e+00	0	29	0	1739587584	32	5520
2026-01-17 01:26:09.16	101.39	39.51	-29.2	-29.8	28.3	0.00e+00	0	29	0	1745879040	32	5583
2026-01-17 01:26:10.16	101.08	39.70	-29.1	-29.7	28.3	0.00e+00	0	29	0	1751121920	32	5562
2026-01-17 01:26:11.17	100.76	39.89	-29.4	-30.0	28.1	0.00e+00	0	29	0	1757413376	32	5713
2026-01-17 01:26:12.18	100.43	40.08	-29.4	-30.1	28.0	0.00e+00	0	29	0	1762656256	32	5781
2026-01-17 01:26:13.19	100.10	40.28	-29.4	-30.0	28.1	0.00e+00	0	29	0	1767899136	32	5757
2026-01-17 01:26:14.20	99.77	40.47	-29.2	-29.8	28.1	0.00e+00	0	29	0	1774190592	32	5621
2026-01-17 01:26:15.21	99.43	40.66	-29.2	-29.8	28.3	0.00e+00	0	29	0	1779433472	32	5595
2026-01-17 01:26:16.22	99.09	40.85	-29.2	-29.8	28.3	0.00e+00	0	29	0	1785724928	32	5594
2026-01-17 01:26:17.23	98.74	41.04	-29.3	-29.9	28.1	0.00e+00	0	29	0	1790967808	32	5671
2026-01-17 01:26:18.24	98.39	41.23	-29.3	-29.9	28.1	0.00e+00	0	29	0	1796210688	32	5660
2026-01-17 01:26:19.25	98.04	41.42	-29.1	-29.7	28.3	0.00e+00	0	29	0	1802502144	32	5528
2026-01-17 01:26:20.26	97.68	41.62	-29.1	-29.8	28.3	0.00e+00	0	29	0	1807745024	32	5576
2026-01-17 01:26:21.27	97.32	41.81	-29.3	-29.9	28.2	0.00e+00	0	29	0	1814036480	32	5664
2026-01-17 01:26:22.27	96.95	41.99	-29.3	-29.9	28.2	0.00e+00	0	29	0	1819279360	32	5659
2026-01-17 01:26:23.29	96.58	42.18	-29.1	-29.7	28.3	0.00e+00	0	29	0	1825570816	32	5541
2026-01-17 01:26:24.30	96.20	42.37	-29.0	-29.7	28.3	0.00e+00	0	29	0	1830813696	32	5509
2026-01-17 01:26:25.31	95.82	42.56	-28.7	-29.3	28.6	0.00e+00	0	29	0	1837105152	30	5905
2026-01-17 01:26:26.32	95.44	42.75	-28.8	-29.3	28.6	0.00e+00	0	29	0	1842348032	30	5962
2026-01-17 01:26:27.33	95.05	42.94	-28.6	-29.3	28.6	0.00e+00	0	29	0	1847590912	30	5900
2026-01-17 01:26:28.34	94.66	43.13	-28.8	-29.3	28.6	0.00e+00	0	29	0	1853882368	30	5952
2026-01-17 01:26:29.35	94.26	43.31	-29.0	-29.6	28.3	0.00e+00	0	29	0	1859125248	30	6151
2026-01-17 01:26:30.36	93.86	43.50	-29.2	-29.8	28.1	0.00e+00	0	29	0	1865416704	30	6257
2026-01-17 01:26:31.36	93.45	43.68	-29.3	-29.9	28.0	0.00e+00	0	29	0	1870659584	30	6368
2026-01-17 01:26:32.37	93.04	43.87	-29.3	-30.0	27.9	0.00e+00	0	29	0	1875902464	30	6411
2026-01-17 01:26:33.38	92.62	44.05	-29.3	-29.9	28.3	0.00e+00	0	29	0	1882193920	30	6323
2026-01-17 01:26:34.39	92.20	44.23	-29.2	-29.8	28.2	0.00e+00	0	29	0	1887436800	30	6302
2026-01-17 01:26:35.40	91.77	44.41	-29.4	-30.1	28.1	0.00e+00	0	29	0	1892679680	30	6467
2026-01-17 01:26:36.41	91.34	44.59	-29.5	-30.1	28.1	0.00e+00	0	29	0	1898971136	30	6504
2026-01-17 01:26:37.42	90.90	44.77	-29.4	-30.1	28.2	0.00e+00	0	29	0	1904214016	30	6485
2026-01-17 01:26:38.43	90.46	44.95	-29.0	-29.6	28.4	0.00e+00	0	29	0	1910505472	30	6129
2026-01-17 01:26:39.44	90.01	45.13	-28.7	-29.4	28.6	0.00e+00	0	29	0	1915748352	30	5967
2026-01-17 01:26:40.45	89.56	45.31	-28.9	-29.5	28.4	0.00e+00	0	29	0	1922039808	30	6087
2026-01-17 01:26:41.46	89.11	45.48	-29.2	-29.9	28.2	0.00e+00	0	29	0	1927282688	30	6338
2026-01-17 01:26:42.47	88.64	45.65	-29.5	-30.1	28.2	0.00e+00	0	29	0	1933574144	30	6530
2026-01-17 01:26:43.48	88.18	45.83	-29.5	-30.1	28.2	0.00e+00	0	29	0	1938817024	30	6515
2026-01-17 01:26:44.49	87.70	46.00	-29.5	-30.1	28.1	0.00e+00	0	29	0	1944059904	30	6511
2026-01-17 01:26:45.50	87.23	46.17	-29.5	-30.1	28.1	0.00e+00	0	29	0	1950351360	30	6468
2026-01-17 01:26:46.50	86.75	46.33	-29.7	-30.4	27.9	0.00e+00	0	29	0	1955594240	30	6722
2026-01-17 01:26:47.51	86.26	46.50	-29.8	-30.5	27.8	0.00e+00	0	29	0	1961885696	32	6055
2026-01-17 01:26:48.52	85.77	46.67	-29.8	-30.4	27.9	0.00e+00	0	29	0	1967128576	32	6010
2026-01-17 01:26:49.53	85.27	46.83	-29.5	-30.1	28.1	0.00e+00	0	29	0	1972371456	32	5786
2026-01-17 01:26:50.54	84.77	46.99	-29.5	-30.1	28.1	0.00e+00	0	29	0	1978662912	32	5778
2026-01-17 01:26:51.55	84.26	47.15	-29.7	-30.3	28.0	0.00e+00	0	29	0	1983905792	32	5901
2026-01-17 01:26:52.56	83.74	47.31	-29.8	-30.4	27.9	0.00e+00	0	29	0	1990197248	32	6004
2026-01-17 01:26:53.57	83.23	47.46	-29.8	-30.4	27.9	0.00e+00	0	29	0	1995440128	32	5999
2026-01-17 01:26:54.58	82.70	47.62	-29.8	-30.5	27.9	0.00e+00	0	29	0	2000683008	32	6042
2026-01-17 01:26:55.59	82.17	47.77	-29.8	-30.4	27.8	0.00e+00	0	29	0	2006974464	32	6005
2026-01-17 01:26:56.60	81.64	47.92	-29.8	-30.5	27.8	0.00e+00	0	29	0	2012217344	32	6045
2026-01-17 01:26:57.61	81.10	48.06	-30.0	-30.7	27.8	0.00e+00	0	29	0	2018508800	32	6177
2026-01-17 01:26:58.62	80.55	48.21	-30.1	-30.8	27.5	0.00e+00	0	29	0	2023751680	32	6264
2026-01-17 01:26:59.63	80.00	48.35	-30.4	-31.0	27.5	0.00e+00	0	29	0	2030043136	32	6456
2026-01-17 01:27:00.63	79.45	48.49	-30.3	-30.9	27.5	0.00e+00	0	29	0	2035286016	32	6376
2026-01-17 01:27:01.64	78.89	48.63	-30.1	-30.7	27.7	0.00e+00	0	29	0	2040528896	32	6239
2026-01-17 01:27:02.65	78.33	48.76	-30.0	-30.6	27.6	0.00e+00	0	29	0	2046820352	32	6152
2026-01-17 01:27:03.66	77.76	48.89	-30.0	-30.6	27.8	0.00e+00	0	29	0	2052063232	32	6124
2026-01-17 01:27:04.67	77.19	49.02	-29.9	-30.5	27.9	0.00e+00	0	29	0	2058354688	32	6101
2026-01-17 01:27:05.68	76.61	49.15	-29.9	-30.5	27.9	0.00e+00	0	29	0	2063597568	32	6081
2026-01-17 01:27:06.69	76.02	49.27	-29.9	-30.6	27.8	0.00e+00	0	29	0	2068840448	32	6116
2026-01-17 01:27:07.70	75.43	49.40	-29.9	-30.6	27.8	0.00e+00	0	29	0	2075131904	32	6106
2026-01-17 01:27:08.71	74.84	49.51	-30.2	-30.8	27.6	0.00e+00	0	29	0	2080374784	32	6313
2026-01-17 01:27:09.72	74.24	49.63	-30.0	-30.6	27.7	0.00e+00	0	29	0	2086666240	32	6168
2026-01-17 01:27:10.73	73.64	49.74	-30.0	-30.6	27.8	0.00e+00	0	29	0	2091909120	32	6118
2026-01-17 01:27:11.74	73.03	49.85	-30.0	-30.6	27.8	0.00e+00	0	29	0	2097152000	32	6155
2026-01-17 01:27:12.75	72.42	49.95	-30.1	-30.7	27.6	0.00e+00	0	29	0	2103443456	32	6200
2026-01-17 01:27:13.76	71.80	50.06	-30.0	-30.6	27.6	0.00e+00	0	29	0	2108686336	32	6151
2026-01-17 01:27:14.77	71.18	50.16	-29.9	-30.4	27.8	0.00e+00	0	29	0	2114977792	32	6031
2026-01-17 01:27:15.78	70.56	50.25	-30.0	-30.7	27.7	0.00e+00	0	29	0	2120220672	32	6176
2026-01-17 01:27:16.79	69.93	50.34	-30.1	-30.7	27.7	0.00e+00	0	29	0	2126512128	32	6209
2026-01-17 01:27:17.80	69.30	50.43	-30.1	-30.7	27.7	0.00e+00	0	29	0	2131755008	32	6200
2026-01-17 01:27:18.81	68.67	50.52	-30.2	-30.8	27.6	0.00e+00	0	29	0	2138046464	32	6267
2026-01-17 01:27:19.82	68.03	50.60	-30.1	-30.8	27.5	0.00e+00	0	29	0	2143289344	32	6264
2026-01-17 01:27:20.83	67.39	50.68	-29.9	-30.6	27.8	0.00e+00	0	29	0	2148532224	32	6127
2026-01-17 01:27:21.84	66.74	50.75	-30.0	-30.6	27.7	0.00e+00	0	29	0	2154823680	32	6129
2026-01-17 01:27:22.85	66.09	50.82	-30.0	-30.6	27.7	0.00e+00	0	29	0	2160066560	32	6146
2026-01-17 01:27:23.86	65.44	50.89	-29.9	-30.5	27.7	0.00e+00	0	29	0	2166358016	32	6048
2026-01-17 01:27:24.88	64.78	50.95	-30.2	-30.8	27.4	0.00e+00	0	29	0	2171600896	32	6313
2026-01-17 01:27:25.89	64.13	51.01	-30.3	-31.0	27.4	0.00e+00	0	29	0	2176843776	32	6399
2026-01-17 01:27:26.89	63.47	51.07	-30.0	-30.6	27.7	0.00e+00	0	29	0	2183135232	32	6155
2026-01-17 01:27:27.90	62.81	51.12	-30.0	-30.6	27.8	0.00e+00	0	29	0	2188378112	32	6118
2026-01-17 01:27:28.91	62.15	51.16	-30.0	-30.6	27.7	0.00e+00	0	29	0	2194669568	32	6141
2026-01-17 01:27:29.92	61.48	51.21	-29.9	-30.6	27.8	0.00e+00	0	29	0	2199912448	32	6111
2026-01-17 01:27:30.93	60.81	51.25	-29.8	-30.4	27.8	0.00e+00	0	29	0	2205155328	32	5973
2026-01-17 01:27:31.94	60.15	51.28	-30.0	-30.6	27.7	0.00e+00	0	28	0	2211446784	32	6147
2026-01-17 01:27:32.95	59.47	51.31	-29.8	-30.5	27.8	0.00e+00	0	29	0	2216689664	32	6037
2026-01-17 01:27:33.96	58.80	51.34	-29.9	-30.5	27.7	0.00e+00	0	29	0	2222981120	32	6078
2026-01-17 01:27:34.97	58.13	51.36	-30.1	-30.8	27.6	0.00e+00	0	28	0	2228224000	32	6280
2026-01-17 01:27:35.98	57.46	51.38	-30.2	-30.8	27.4	0.00e+00	0	28	0	2234515456	32	6304
2026-01-17 01:27:36.99	56.78	51.39	-30.1	-30.7	27.6	0.00e+00	0	29	0	2239758336	32	6206
2026-01-17 01:27:38.00	56.11	51.41	-30.3	-30.9	27.5	0.00e+00	0	28	0	2245001216	32	6351
2026-01-17 01:27:39.01	55.43	51.41	-30.5	-31.1	27.3	0.00e+00	0	29	0	2251292672	32	6529
2026-01-17 01:27:40.02	54.76	51.41	-30.4	-31.1	27.4	0.00e+00	0	29	0	2256535552	32	6516
2026-01-17 01:27:41.03	54.08	51.41	-30.3	-30.9	27.5	0.00e+00	0	28	0	2262827008	32	6340
2026-01-17 01:27:42.04	53.40	51.40	-30.1	-30.7	27.7	0.00e+00	0	29	0	2268069888	32	6211
2026-01-17 01:27:43.05	52.73	51.39	-29.7	-30.3	27.8	0.00e+00	0	29	0	2273312768	32	5942
2026-01-17 01:27:44.06	52.05	51.38	-29.8	-30.4	27.8	0.00e+00	0	29	0	2279604224	32	6021
2026-01-17 01:27:45.06	51.39	51.36	-29.8	-30.4	27.9	0.00e+00	0	29	0	2284847104	32	5983
2026-01-17 01:27:46.07	50.72	51.34	-29.9	-30.5	27.6	0.00e+00	0	28	0	2291138560	32	6075
2026-01-17 01:27:47.08	50.04	51.31	-30.0	-30.7	27.5	0.00e+00	0	28	0	2296381440	32	6202
2026-01-17 01:27:48.09	49.37	51.28	-30.1	-30.7	27.4	0.00e+00	0	28	0	2301624320	32	6226
2026-01-17 01:27:49.10	48.70	51.24	-30.1	-30.7	27.6	0.00e+00	0	28	0	2307915776	32	6240
2026-01-17 01:27:50.11	48.04	51.20	-30.0	-30.6	27.5	0.00e+00	0	28	0	2313158656	32	6143
2026-01-17 01:27:51.12	47.37	51.16	-30.0	-30.6	27.8	0.00e+00	0	29	0	2319450112	32	6110
2026-01-17 01:27:52.13	46.71	51.11	-30.0	-30.6	27.7	0.00e+00	0	29	0	2324692992	32	6120
2026-01-17 01:27:53.14	46.05	51.06	-29.7	-30.3	27.8	0.00e+00	0	29	0	2330984448	32	5943
2026-01-17 01:27:54.15	45.39	51.01	-29.8	-30.4	28.0	0.00e+00	0	29	0	2336227328	32	5982
2026-01-17 01:27:55.16	44.73	50.95	-29.5	-30.1	28.1	0.00e+00	0	29	0	2342518784	32	5824
2026-01-17 01:27:56.17	44.08	50.88	-29.5	-30.1	28.0	0.00e+00	0	29	0	2347761664	32	5792
2026-01-17 01:27:57.18	43.43	50.82	-29.5	-30.2	27.9	0.00e+00	0	29	0	2353004544	32	5846
2026-01-17 01:27:58.19	42.78	50.75	-29.7	-30.4	27.9	0.00e+00	0	28	0	2359296000	32	5986
2026-01-17 01:27:59.20	42.14	50.67	-29.8	-30.4	27.8	0.00e+00	0	28	0	2364538880	32	6026
2026-01-17 01:28:00.21	41.50	50.59	-29.8	-30.3	27.8	0.00e+00	0	29	0	2370830336	32	5955
2026-01-17 01:28:01.22	40.86	50.51	-29.6	-30.2	28.0	0.00e+00	0	28	0	2376073216	32	5870
2026-01-17 01:28:02.23	40.23	50.43	-29.7	-30.3	27.9	0.00e+00	0	28	0	2381316096	32	5951
2026-01-17 01:28:03.24	39.59	50.34	-29.8	-30.5	27.7	0.00e+00	0	28	0	2387607552	32	6085
2026-01-17 01:28:04.25	38.97	50.24	-29.6	-30.2	27.9	0.00e+00	0	29	0	2392850432	32	5877
2026-01-17 01:28:05.26	38.35	50.15	-29.5	-30.1	28.0	0.00e+00	0	29	0	2399141888	32	5804
2026-01-17 01:28:06.26	37.73	50.05	-29.7	-30.3	28.0	0.00e+00	0	29	0	2404384768	32	5958
2026-01-17 01:28:07.27	37.12	49.95	-29.8	-30.4	27.7	0.00e+00	0	29	0	2409627648	32	6014
2026-01-17 01:28:08.29	36.50	49.84	-29.8	-30.5	27.8	0.00e+00	0	28	0	2415919104	32	6039
2026-01-17 01:28:09.29	35.90	49.73	-29.8	-30.5	27.8	0.00e+00	0	28	0	2421161984	32	6064
2026-01-17 01:28:10.31	35.29	49.62	-29.7	-30.3	27.8	0.00e+00	0	29	0	2427453440	32	5914
2026-01-17 01:28:11.31	34.70	49.51	-29.5	-30.2	27.8	0.00e+00	0	28	0	2432696320	32	5878
2026-01-17 01:28:12.32	34.11	49.39	-29.7	-30.3	27.9	0.00e+00	0	28	0	2438987776	32	5909
2026-01-17 01:28:13.33	33.52	49.27	-29.4	-30.0	28.1	0.00e+00	0	28	0	2444230656	32	5740
2026-01-17 01:28:14.34	32.94	49.14	-29.2	-29.9	28.3	0.00e+00	0	28	0	2449473536	32	5669
2026-01-17 01:28:15.35	32.36	49.02	-29.3	-30.0	28.1	0.00e+00	0	28	0	2455764992	32	5744
2026-01-17 01:28:16.36	31.79	48.89	-29.3	-30.0	28.2	0.00e+00	0	28	0	2461007872	32	5712
2026-01-17 01:28:17.37	31.22	48.75	-29.3	-29.8	28.2	0.00e+00	0	28	0	2467299328	32	5627
2026-01-17 01:28:18.38	30.66	48.62	-29.4	-30.0	28.1	0.00e+00	0	28	0	2472542208	32	5755
2026-01-17 01:28:19.39	30.10	48.48	-29.5	-30.2	28.0	0.00e+00	0	28	0	2477785088	32	5850
2026-01-17 01:28:20.39	29.55	48.34	-29.4	-30.1	28.0	0.00e+00	0	28	0	2484076544	32	5772
2026-01-17 01:28:21.41	28.99	48.20	-29.5	-30.1	27.8	0.00e+00	0	28	0	2489319424	32	5819
2026-01-17 01:28:22.42	28.45	48.06	-29.5	-30.2	28.0	0.00e+00	0	28	0	2495610880	32	5829
2026-01-17 01:28:23.42	27.92	47.91	-29.6	-30.2	27.9	0.00e+00	0	28	0	2500853760	32	5868
2026-01-17 01:28:24.43	27.38	47.76	-29.3	-29.9	28.1	0.00e+00	0	28	0	2506096640	32	5666
2026-01-17 01:28:25.44	26.86	47.61	-29.2	-29.8	28.2	0.00e+00	0	28	0	2512388096	32	5588
2026-01-17 01:28:26.45	26.33	47.46	-29.1	-29.6	28.3	0.00e+00	0	28	0	2517630976	32	5466
2026-01-17 01:28:27.45	25.82	47.30	-28.9	-29.6	28.5	0.00e+00	0	28	0	2523922432	32	5462
2026-01-17 01:28:28.46	25.31	47.14	-28.8	-29.5	28.5	0.00e+00	0	28	0	2529165312	32	5403
2026-01-17 01:28:29.48	24.80	46.98	-28.9	-29.4	28.3	0.00e+00	0	28	0	2535456768	32	5374
2026-01-17 01:28:30.49	24.29	46.82	-28.9	-29.4	28.4	0.00e+00	0	28	0	2540699648	32	5370
2026-01-17 01:28:31.49	23.80	46.66	-28.9	-29.6	28.4	0.00e+00	0	28	0	2545942528	32	5477
2026-01-17 01:28:32.50	23.31	46.50	-29.0	-29.7	28.4	0.00e+00	0	28	0	2552233984	32	5527
2026-01-17 01:28:33.51	22.82	46.33	-29.2	-29.9	28.2	0.00e+00	0	28	0	2557476864	32	5638
2026-01-17 01:28:34.52	22.34	46.16	-29.1	-29.7	28.3	0.00e+00	0	28	0	2563768320	32	5524
2026-01-17 01:28:35.53	21.87	45.99	-28.8	-29.4	28.5	0.00e+00	0	28	0	2569011200	32	5343
2026-01-17 01:28:36.54	21.39	45.82	-28.8	-29.4	28.5	0.00e+00	0	28	0	2574254080	32	5363
2026-01-17 01:28:37.55	20.93	45.65	-28.6	-29.3	28.7	0.00e+00	0	28	0	2580545536	30	5921
2026-01-17 01:28:38.56	20.47	45.48	-28.7	-29.2	28.6	0.00e+00	0	28	0	2585788416	30	5864
2026-01-17 01:28:39.57	20.01	45.30	-28.8	-29.4	28.4	0.00e+00	0	28	0	2592079872	30	5995
2026-01-17 01:28:40.58	19.56	45.13	-28.9	-29.6	28.4	0.00e+00	0	28	0	2597322752	30	6110
2026-01-17 01:28:41.59	19.12	44.95	-28.8	-29.5	28.5	0.00e+00	0	28	0	2602565632	30	6071
2026-01-17 01:28:42.60	18.67	44.77	-28.8	-29.5	28.5	0.00e+00	0	28	0	2608857088	30	6087
2026-01-17 01:28:43.61	18.24	44.59	-28.8	-29.5	28.5	0.00e+00	0	28	0	2614099968	30	6057
2026-01-17 01:28:44.62	17.81	44.41	-29.0	-29.6	28.5	0.00e+00	0	28	0	2620391424	30	6169
2026-01-17 01:28:45.63	17.38	44.23	-28.8	-29.5	28.5	0.00e+00	0	28	0	2625634304	30	6059
2026-01-17 01:28:46.63	16.97	44.05	-29.0	-29.6	28.4	0.00e+00	0	28	0	2631925760	30	6173
2026-01-17 01:28:47.64	16.55	43.87	-28.6	-29.2	28.7	0.00e+00	0	28	0	2637168640	30	5841
2026-01-17 01:28:48.65	16.14	43.68	-28.8	-29.3	28.5	0.00e+00	0	28	0	2642411520	30	5945
2026-01-17 01:28:49.66	15.73	43.50	-28.6	-29.3	28.7	0.00e+00	0	28	0	2648702976	30	5924
2026-01-17 01:28:50.68	15.33	43.31	-28.7	-29.4	28.6	0.00e+00	0	28	0	2653945856	30	5965
2026-01-17 01:28:51.69	14.93	43.13	-28.4	-29.0	28.7	0.00e+00	0	28	0	2660237312	30	5744
2026-01-17 01:28:52.69	14.54	42.94	-28.4	-29.1	28.7	0.00e+00	0	28	0	2665480192	30	5816
2026-01-17 01:28:53.70	14.15	42.75	-28.6	-29.1	28.6	0.00e+00	0	28	0	2670723072	30	5793
2026-01-17 01:28:54.71	13.77	42.57	-28.6	-29.2	28.5	0.00e+00	0	28	0	2677014528	30	5858
2026-01-17 01:28:55.72	13.39	42.38	-28.7	-29.4	28.6	0.00e+00	0	28	0	2682257408	30	5975
2026-01-17 01:28:56.73	13.01	42.19	-28.7	-29.2	28.5	0.00e+00	0	28	0	2688548864	30	5864
2026-01-17 01:28:57.74	12.64	42.00	-28.8	-29.3	28.5	0.00e+00	0	28	0	2693791744	30	5954
2026-01-17 01:28:58.75	12.28	41.81	-28.8	-29.4	28.3	0.00e+00	0	28	0	2699034624	30	5980
2026-01-17 01:28:59.75	11.92	41.62	-28.8	-29.5	28.5	0.00e+00	0	28	0	2705326080	30	6046
2026-01-17 01:29:00.76	11.56	41.43	-28.7	-29.2	28.6	0.00e+00	0	28	0	2710568960	30	5880
2026-01-17 01:29:01.77	11.21	41.24	-28.6	-29.2	28.7	0.00e+00	0	28	0	2716860416	30	5836
2026-01-17 01:29:02.78	10.86	41.05	-28.7	-29.2	28.5	0.00e+00	0	28	0	2722103296	30	5869
2026-01-17 01:29:03.79	10.52	40.86	-28.5	-29.2	28.7	0.00e+00	0	28	0	2728394752	30	5829
2026-01-17 01:29:04.79	10.18	40.67	-28.5	-29.0	28.5	0.00e+00	0	28	0	2733637632	30	5744
2026-01-17 01:29:05.80	9.84	40.48	-28.6	-29.2	28.5	0.00e+00	0	28	0	2738880512	30	5831
2026-01-17 01:29:06.81	9.51	40.29	-28.7	-29.4	28.5	0.00e+00	0	28	0	2745171968	30	6003
2026-01-17 01:29:07.82	9.18	40.10	-28.9	-29.6	28.3	0.00e+00	0	28	0	2750414848	30	6139
2026-01-17 01:29:08.83	8.86	39.91	-29.0	-29.7	28.3	0.00e+00	0	28	0	2756706304	30	6187
2026-01-17 01:29:09.84	8.53	39.72	-28.8	-29.5	28.3	0.00e+00	0	28	0	2761949184	30	6065
2026-01-17 01:29:10.85	8.22	39.53	-28.7	-29.3	28.0	0.00e+00	0	28	0	2767192064	30	5922
2026-01-17 01:29:11.86	7.90	39.33	-28.6	-29.3	28.2	0.00e+00	0	28	0	2773483520	30	5952
2026-01-17 01:29:12.87	7.59	39.14	-28.5	-29.2	28.5	0.00e+00	0	28	0	2778726400	30	5831
2026-01-17 01:29:13.88	7.29	38.95	-28.7	-29.2	28.4	0.00e+00	0	28	0	2785017856	30	5858
2026-01-17 01:29:14.88	6.99	38.76	-28.6	-29.1	28.6	0.00e+00	0	28	0	2790260736	30	5801
2026-01-17 01:29:15.89	6.69	38.57	-28.6	-29.1	28.5	0.00e+00	0	28	0	2795503616	30	5796
2026-01-17 01:29:16.90	6.39	38.38	-28.7	-29.2	28.5	0.00e+00	0	28	0	2801795072	30	5886
2026-01-17 01:29:17.91	6.10	38.19	-28.7	-29.4	28.5	0.00e+00	0	28	0	2807037952	30	6021
2026-01-17 01:29:18.92	5.81	38.00	-28.7	-29.4	28.5	0.00e+00	0	28	0	2813329408	30	6020
2026-01-17 01:29:19.93	5.53	37.81	-28.8	-29.4	28.5	0.00e+00	0	28	0	2818572288	30	6023
2026-01-17 01:29:20.94	5.25	37.62	-28.7	-29.4	28.5	0.00e+00	0	28	0	2824863744	30	6018
2026-01-17 01:29:21.95	4.97	37.43	-28.5	-29.1	28.6	0.00e+00	0	28	0	2830106624	30	5794
2026-01-17 01:29:22.95	4.70	37.25	-28.3	-28.9	28.9	0.00e+00	0	28	0	2835349504	30	5652
2026-01-17 01:29:23.96	4.42	37.06	-28.2	-28.9	28.9	0.00e+00	0	28	0	2841640960	30	5640
2026-01-17 01:29:24.97	4.15	36.87	-28.2	-28.9	28.9	0.00e+00	0	28	0	2846883840	30	5639
2026-01-17 01:29:25.98	3.89	36.68	-28.4	-29.0	28.9	0.00e+00	0	28	0	2853175296	30	5714
2026-01-17 01:29:26.99	3.63	36.50	-28.4	-29.0	28.7	0.00e+00	0	28	0	2858418176	30	5729
2026-01-17 01:29:28.00	3.37	36.31	-28.4	-29.0	28.6	0.00e+00	0	28	0	2863661056	30	5721
2026-01-17 01:29:29.01	3.11	36.12	-28.5	-29.2	28.8	0.00e+00	0	28	0	2869952512	30	5832
2026-01-17 01:29:30.02	2.86	35.94	-28.4	-29.0	28.6	0.00e+00	0	28	0	2875195392	30	5729
2026-01-17 01:29:31.03	2.60	35.75	-28.3	-29.0	28.8	0.00e+00	0	28	0	2881486848	30	5736
2026-01-17 01:29:32.04	2.36	35.56	-28.5	-29.2	28.7	0.00e+00	0	28	0	2886729728	30	5829
2026-01-17 01:29:33.05	2.11	35.38	-28.3	-28.9	28.6	0.00e+00	0	28	0	2891972608	30	5669
2026-01-17 01:29:34.06	1.87	35.20	-28.1	-28.8	28.9	0.00e+00	0	28	0	2898264064	30	5587
2026-01-17 01:29:35.07	1.63	35.01	-28.1	-28.6	29.0	0.00e+00	0	28	0	2903506944	30	5455
2026-01-17 01:29:36.08	1.39	34.83	-28.2	-28.7	29.0	0.00e+00	0	28	0	2909798400	30	5518
2026-01-17 01:29:37.09	1.16	34.65	-28.2	-28.8	28.9	0.00e+00	0	28	0	2915041280	30	5567
2026-01-17 01:29:38.09	0.93	34.46	-28.4	-28.9	28.8	0.00e+00	0	28	0	2921332736	30	5684
2026-01-17 01:29:39.10	0.70	34.28	-28.5	-29.0	28.7	0.00e+00	0	28	0	2926575616	30	5736
2026-01-17 01:29:40.11	0.47	34.10	-28.5	-29.2	28.7	0.00e+00	0	28	0	2932867072	30	5830
2026-01-17 01:29:41.12	0.25	33.92	-28.4	-29.0	28.7	0.00e+00	0	28	0	2938109952	30	5704
2026-01-17 01:29:42.13	0.03	33.74	-28.5	-29.1	28.7	0.00e+00	0	28	0	2943352832	30	5783
2026-01-17 01:29:43.14	359.81	33.56	-28.4	-29.1	28.8	0.00e+00	0	28	0	2949644288	30	5768
2026-01-17 01:29:44.15	359.59	33.38	-28.4	-29.1	28.8	0.00e+00	0	28	0	2954887168	30	5765
2026-01-17 01:29:45.16	359.38	33.20	-28.6	-29.3	28.6	0.00e+00	0	28	0	2961178624	30	5925
2026-01-17 01:29:46.17	359.17	33.03	-28.6	-29.2	28.6	0.00e+00	0	28	0	2966421504	30	5829
2026-01-17 01:29:47.18	358.96	32.85	-28.6	-29.2	28.5	0.00e+00	0	28	0	2971664384	30	5866
2026-01-17 01:29:48.19	358.75	32.67	-28.7	-29.3	28.4	0.00e+00	0	28	0	2977955840	30	5944
2026-01-17 01:29:49.20	358.55	32.50	-28.7	-29.2	28.5	0.00e+00	0	28	0	2983198720	30	5883
2026-01-17 01:29:50.21	358.34	32.32	-28.7	-29.4	28.5	0.00e+00	0	28	0	2988441600	30	6007
2026-01-17 01:29:51.21	358.15	32.15	-28.6	-29.3	28.7	0.00e+00	0	28	0	2994733056	30	5928
2026-01-17 01:29:52.22	357.95	31.97	-28.6	-29.2	28.6	0.00e+00	0	28	0	2999975936	30	5848
2026-01-17 01:29:53.23	357.75	31.80	-28.7	-29.3	28.5	0.00e+00	0	28	0	3006267392	30	5916
2026-01-17 01:29:54.24	357.56	31.63	-28.7	-29.3	28.5	0.00e+00	0	28	0	3011510272	30	5951
2026-01-17 01:29:55.25	357.37	31.45	-28.6	-29.3	28.5	0.00e+00	0	28	0	3017801728	30	5903
2026-01-17 01:29:56.27	357.18	31.28	-28.7	-29.2	28.6	0.00e+00	0	28	0	3023044608	30	5871
2026-01-17 01:29:57.27	356.99	31.11	-28.6	-29.3	28.6	0.00e+00	0	28	0	3029336064	30	5928
2026-01-17 01:29:58.29	356.80	30.94	-28.8	-29.5	28.4	0.00e+00	0	28	0	3034578944	30	6075
2026-01-17 01:29:59.29	356.62	30.77	-29.0	-29.5	28.4	0.00e+00	0	28	0	3039821824	30	6093
2026-01-17 01:30:00.30	356.44	30.60	-29.0	-29.7	28.3	0.00e+00	0	28	0	3046113280	30	6204
2026-01-17 01:30:01.31	356.26	30.43	-29.2	-29.7	28.2	0.00e+00	0	28	0	3051356160	30	6208
2026-01-17 01:30:02.32	356.08	30.27	-29.0	-29.5	28.3	0.00e+00	0	28	0	3057647616	30	6102
2026-01-17 01:30:03.33	355.90	30.10	-29.0	-29.6	28.2	0.00e+00	0	28	0	3062890496	30	6113
2026-01-17 01:30:04.34	355.73	29.93	-29.1	-29.6	28.3	0.00e+00	0	28	0	3068133376	30	6168
2026-01-17 01:30:05.35	355.56	29.77	-29.2	-29.7	28.1	0.00e+00	0	28	0	3074424832	30	6219
2026-01-17 01:30:06.36	355.39	29.60	-29.2	-29.7	28.2	0.00e+00	0	28	0	3079667712	30	6243
2026-01-17 01:30:07.37	355.22	29.44	-29.2	-29.7	28.2	0.00e+00	0	28	0	3085959168	30	6229
2026-01-17 01:30:08.38	355.05	29.28	-29.2	-29.9	28.2	0.00e+00	0	28	0	3091202048	30	6349
2026-01-17 01:30:09.39	354.89	29.11	-29.2	-29.9	28.1	0.00e+00	0	28	0	3096444928	30	6351
2026-01-17 01:30:10.40	354.72	28.95	-29.0	-29.7	28.2	0.00e+00	0	28	0	3102736384	30	6217
2026-01-17 01:30:11.41	354.56	28.79	-29.0	-29.6	28.2	0.00e+00	0	28	0	3107979264	30	6120
2026-01-17 01:30:12.42	354.40	28.63	-29.2	-29.9	28.2	0.00e+00	0	28	0	3114270720	30	6327
2026-01-17 01:30:13.43	354.24	28.47	-28.9	-29.6	28.3	0.00e+00	0	28	0	3119513600	30	6163
2026-01-17 01:30:14.44	354.08	28.31	-29.1	-29.8	28.2	0.00e+00	0	28	0	3125805056	30	6257
2026-01-17 01:30:15.44	353.93	28.15	-29.2	-29.9	28.1	0.00e+00	0	28	0	3131047936	30	6345
2026-01-17 01:30:16.46	353.78	27.99	-29.4	-30.1	28.1	0.00e+00	0	28	0	3136290816	30	6482
2026-01-17 01:30:17.46	353.62	27.83	-29.3	-30.0	28.1	0.00e+00	0	28	0	3142582272	30	6422
2026-01-17 01:30:18.47	353.47	27.68	-29.4	-30.1	28.0	0.00e+00	0	28	0	3147825152	30	6473
2026-01-17 01:30:19.48	353.32	27.52	-29.3	-30.0	28.1	0.00e+00	0	28	0	3154116608	30	6435
2026-01-17 01:30:20.49	353.18	27.37	-29.4	-30.1	28.0	0.00e+00	0	28	0	3159359488	30	6480
2026-01-17 01:30:21.50	353.03	27.21	-29.3	-30.1	28.0	0.00e+00	0	28	0	3164602368	30	6467
2026-01-17 01:30:22.51	352.88	27.06	-29.2	-29.8	28.1	0.00e+00	0	28	0	3170893824	30	6256
2026-01-17 01:30:23.52	352.74	26.90	-29.3	-29.8	28.1	0.00e+00	0	28	0	3176136704	30	6304
2026-01-17 01:30:24.53	352.60	26.75	-29.4	-29.9	28.0	0.00e+00	0	28	0	3182428160	30	6369
2026-01-17 01:30:25.54	352.46	26.60	-29.4	-30.1	27.9	0.00e+00	0	28	0	3187671040	30	6475
2026-01-17 01:30:26.55	352.32	26.45	-29.3	-30.0	28.0	0.00e+00	0	28	0	3192913920	30	6452
2026-01-17 01:30:27.56	352.18	26.29	-29.2	-29.9	28.1	0.00e+00	0	28	0	3199205376	30	6372
2026-01-17 01:30:28.57	352.04	26.14	-29.2	-29.9	28.0	0.00e+00	0	28	0	3204448256	30	6363
2026-01-17 01:30:29.58	351.91	25.99	-29.4	-30.0	28.0	0.00e+00	0	28	0	3210739712	30	6412
2026-01-17 01:30:30.59	351.77	25.85	-29.2	-29.7	28.1	0.00e+00	0	28	0	3215982592	30	6233
2026-01-17 01:30:31.60	351.64	25.70	-29.3	-29.9	28.1	0.00e+00	0	28	0	3222274048	30	6322
2026-01-17 01:30:32.61	351.51	25.55	-29.2	-29.8	28.1	0.00e+00	0	28	0	3227516928	30	6272
2026-01-17 01:30:33.62	351.38	25.40	-29.3	-29.8	28.0	0.00e+00	0	28	0	3233808384	30	6301
2026-01-17 01:30:34.63	351.25	25.26	-29.4	-29.9	28.0	0.00e+00	0	28	0	3239051264	30	6368
2026-01-17 01:30:35.63	351.12	25.11	-29.4	-30.1	27.9	0.00e+00	0	28	0	3244294144	30	6506
2026-01-17 01:30:36.65	351.00	24.97	-29.5	-30.2	27.8	0.00e+00	0	28	0	3250585600	30	6613
2026-01-17 01:30:37.65	350.87	24.82	-29.5	-30.2	28.0	0.00e+00	0	28	0	3255828480	30	6584
2026-01-17 01:30:38.66	350.75	24.68	-29.5	-30.1	27.8	0.00e+00	0	28	0	3262119936	30	6497
2026-01-17 01:30:39.67	350.63	24.54	-29.5	-30.2	27.9	0.00e+00	0	28	0	3267362816	30	6546
2026-01-17 01:30:40.68	350.50	24.39	-29.4	-30.1	27.9	0.00e+00	0	28	0	3272605696	30	6531
2026-01-17 01:30:41.69	350.38	24.25	-29.3	-30.0	28.0	0.00e+00	0	28	0	3278897152	30	6456
2026-01-17 01:30:42.69	350.26	24.11	-29.3	-30.0	28.0	0.00e+00	0	28	0	3284140032	30	6429
2026-01-17 01:30:43.70	350.15	23.97	-29.3	-30.0	28.1	0.00e+00	0	28	0	3289382912	30	6406
2026-01-17 01:30:44.71	350.03	23.83	-29.4	-30.1	27.9	0.00e+00	0	28	0	3295674368	30	6520
2026-01-17 01:30:45.72	349.91	23.69	-29.4	-30.1	28.0	0.00e+00	0	28	0	3300917248	30	6518
2026-01-17 01:30:46.73	349.80	23.55	-29.6	-30.3	27.7	0.00e+00	0	28	0	3307208704	30	6669
2026-01-17 01:30:47.74	349.68	23.41	-29.8	-30.5	27.7	0.00e+00	0	28	0	3312451584	30	6807
2026-01-17 01:30:48.75	349.57	23.28	-29.6	-30.1	27.9	0.00e+00	0	28	0	3318743040	32	5807
2026-01-17 01:30:49.76	349.46	23.14	-29.7	-30.3	27.7	0.00e+00	0	28	0	3323985920	32	5916
2026-01-17 01:30:50.77	349.35	23.00	-29.8	-30.3	27.7	0.00e+00	0	28	0	3330277376	32	5942
2026-01-17 01:30:51.78	349.24	22.87	-29.7	-30.3	27.7	0.00e+00	0	28	0	3335520256	32	5902
2026-01-17 01:30:52.79	349.13	22.73	-29.7	-30.3	27.7	0.00e+00	0	28	0	3340763136	32	5910
2026-01-17 01:30:53.80	349.02	22.60	-29.7	-30.3	27.7	0.00e+00	0	28	0	3347054592	32	5908
2026-01-17 01:30:54.81	348.91	22.46	-29.7	-30.2	27.7	0.00e+00	0	28	0	3352297472	32	5883
2026-01-17 01:30:55.81	348.80	22.33	-29.7	-30.4	27.7	0.00e+00	0	28	0	3358588928	32	6011
2026-01-17 01:30:56.83	348.70	22.20	-29.9	-30.6	27.5	0.00e+00	0	28	0	3363831808	32	6140
2026-01-17 01:30:57.83	348.59	22.07	-29.9	-30.6	27.5	0.00e+00	0	28	0	3369074688	32	6137
2026-01-17 01:30:58.84	348.49	21.93	-29.8	-30.5	27.6	0.00e+00	0	28	0	3375366144	32	6072
2026-01-17 01:30:59.85	348.39	21.80	-30.0	-30.7	27.5	0.00e+00	0	28	0	3380609024	32	6178
2026-01-17 01:31:00.86	348.29	21.67	-29.9	-30.5	27.6	0.00e+00	0	28	0	3386900480	32	6056
2026-01-17 01:31:01.87	348.19	21.54	-30.0	-30.6	27.4	0.00e+00	0	28	0	3392143360	32	6137
2026-01-17 01:31:02.88	348.09	21.41	-29.9	-30.6	27.5	0.00e+00	0	28	0	3397386240	32	6117
2026-01-17 01:31:03.89	347.99	21.28	-30.0	-30.7	27.5	0.00e+00	0	28	0	3403677696	32	6186
2026-01-17 01:31:04.90	347.89	21.16	-30.0	-30.7	27.5	0.00e+00	0	28	0	3408920576	32	6199
2026-01-17 01:31:05.90	347.79	21.03	-30.0	-30.6	27.4	0.00e+00	0	28	0	3415212032	32	6127
2026-01-17 01:31:06.91	347.70	20.90	-30.1	-30.7	27.3	0.00e+00	0	28	0	3420454912	32	6208
2026-01-17 01:31:07.92	347.60	20.78	-30.0	-30.6	27.4	0.00e+00	0	28	0	3426746368	32	6138
2026-01-17 01:31:08.93	347.50	20.65	-30.1	-30.7	27.3	0.00e+00	0	28	0	3431989248	32	6185
2026-01-17 01:31:09.94	347.41	20.52	-30.2	-30.7	27.2	0.00e+00	0	28	0	3437232128	32	6241
2026-01-17 01:31:10.95	347.32	20.40	-30.1	-30.7	27.3	0.00e+00	0	28	0	3443523584	32	6201
2026-01-17 01:31:11.96	347.22	20.28	-30.2	-30.9	27.3	0.00e+00	0	28	0	3448766464	32	6363
2026-01-17 01:31:12.97	347.13	20.15	-30.2	-30.9	27.3	0.00e+00	0	28	0	3455057920	32	6341
2026-01-17 01:31:13.98	347.04	20.03	-30.3	-31.0	27.1	0.00e+00	0	28	0	3460300800	32	6451
2026-01-17 01:31:14.99	346.95	19.91	-30.2	-31.0	27.2	0.00e+00	0	28	0	3465543680	32	6392
2026-01-17 01:31:16.00	346.86	19.78	-30.3	-31.0	27.2	0.00e+00	0	28	0	3471835136	32	6461
2026-01-17 01:31:17.01	346.77	19.66	-30.4	-31.0	27.1	0.00e+00	0	28	0	3477078016	32	6421
2026-01-17 01:31:18.02	346.68	19.54	-30.5	-31.0	27.1	0.00e+00	0	28	0	3483369472	32	6449
2026-01-17 01:31:19.03	346.60	19.42	-30.5	-31.0	27.0	0.00e+00	0	28	0	3488612352	32	6461
2026-01-17 01:31:20.04	346.51	19.30	-30.5	-31.1	27.0	0.00e+00	0	28	0	3493855232	32	6492
2026-01-17 01:31:21.05	346.42	19.18	-30.6	-31.2	26.9	0.00e+00	0	28	0	3500146688	32	6595
2026-01-17 01:31:22.05	346.34	19.06	-30.6	-31.1	26.9	0.00e+00	0	28	0	3505389568	34	5823
2026-01-17 01:31:23.06	346.25	18.94	-30.6	-31.2	26.9	0.00e+00	0	28	0	3511681024	34	5874
2026-01-17 01:31:24.07	346.17	18.82	-30.6	-31.2	26.9	0.00e+00	0	28	0	3516923904	34	5844
2026-01-17 01:31:25.08	346.09	18.71	-30.7	-31.3	26.8	0.00e+00	0	28	0	3523215360	34	5948
2026-01-17 01:31:26.09	346.01	18.59	-30.6	-31.2	26.9	0.00e+00	0	28	0	3528458240	34	5864
2026-01-17 01:31:27.10	345.92	18.47	-30.6	-31.3	26.9	0.00e+00	0	28	0	3533701120	34	5964
2026-01-17 01:31:28.11	345.84	18.36	-30.7	-31.4	26.8	0.00e+00	0	28	0	3539992576	34	6003
2026-01-17 01:31:29.12	345.76	18.24	-30.7	-31.5	26.8	0.00e+00	0	28	0	3545235456	34	6036
2026-01-17 01:31:30.13	345.68	18.13	-30.7	-31.4	26.9	0.00e+00	0	28	0	3551526912	34	6028
2026-01-17 01:31:31.14	345.60	18.01	-30.7	-31.5	26.8	0.00e+00	0	28	0	3556769792	34	6035
2026-01-17 01:31:32.15	345.52	17.90	-30.8	-31.5	26.8	0.00e+00	0	28	0	3562012672	34	6084
2026-01-17 01:31:33.16	345.45	17.78	-30.9	-31.6	26.7	0.00e+00	0	28	0	3568304128	34	6129
2026-01-17 01:31:34.17	345.37	17.67	-30.9	-31.6	26.6	0.00e+00	0	28	0	3573547008	34	6123
2026-01-17 01:31:35.18	345.29	17.56	-31.0	-31.8	26.6	0.00e+00	0	28	0	3579838464	34	6260
2026-01-17 01:31:36.19	345.21	17.44	-31.1	-31.7	26.5	0.00e+00	0	28	0	3585081344	34	6196
2026-01-17 01:31:37.20	345.14	17.33	-31.1	-31.7	26.4	0.00e+00	0	28	0	3590324224	34	6230
2026-01-17 01:31:38.21	345.06	17.22	-31.1	-31.7	26.5	0.00e+00	0	28	0	3596615680	34	6216
