passes_logs/2026/01/17/R4.6S_Anadyr/R4.6S_Anadyr__20260117_014620_AQUA_rec.log

#Pass ID: 20260117_014620_AQUA
#Satellite: AQUA
#Configuration: AQUA
#almurnet v.1.7.20251203
#Start time: 2026-01-17 01:46:22

#Version: 2.2.20231116
#Station: R4.6S_Anadyr
#Location: 177.4865 lon 64.73178 lat
#TLE: 1 27424U 02022A   26016.59833233  .00000670  00000+0  14410-3 0  9991
#TLE: 2 27424  98.4084 343.0525 0002018  76.3524 343.9424 14.61823666261128

#Time	Az	El	Level	Level2	SNR	BER	BlckErr	Temp	State	Recorded	gain1	gain2
2026-01-17 01:46:22.88	151.68	0.13	-48.3	-60.0	3.5	8.46e-01	0	26	0	0	60	36107
2026-01-17 01:46:23.88	151.68	0.19	-48.9	-66.8	3.5	3.02e+01	0	27	104	0	60	84157
2026-01-17 01:46:24.89	151.68	0.26	-48.6	-66.6	3.5	3.02e+01	0	27	104	0	60	81812
2026-01-17 01:46:25.90	151.67	0.32	-48.7	-66.6	3.5	3.02e+01	0	27	104	0	60	82704
2026-01-17 01:46:26.91	151.67	0.38	-48.7	-66.6	3.5	3.02e+01	0	28	104	0	60	81989
2026-01-17 01:46:27.92	151.66	0.45	-48.6	-66.5	3.5	3.02e+01	0	28	104	0	60	81372
2026-01-17 01:46:28.93	151.66	0.51	-48.6	-66.5	3.5	3.02e+01	0	28	104	0	60	81375
2026-01-17 01:46:29.94	151.66	0.57	-48.5	-66.5	3.5	3.02e+01	0	28	104	0	60	81531
2026-01-17 01:46:30.95	151.65	0.64	-48.6	-66.5	3.5	3.02e+01	0	28	104	0	60	81035
2026-01-17 01:46:31.96	151.65	0.70	-48.4	-66.4	3.5	3.02e+01	0	28	104	0	60	80172
2026-01-17 01:46:32.97	151.64	0.76	-48.3	-66.2	3.5	3.02e+01	0	28	104	0	60	78944
2026-01-17 01:46:33.98	151.64	0.83	-48.2	-66.0	3.5	3.02e+01	0	28	104	0	60	76556
2026-01-17 01:46:34.99	151.63	0.89	-48.0	-65.9	3.5	3.02e+01	0	28	104	0	60	76033
2026-01-17 01:46:35.99	151.63	0.96	-47.6	-65.6	3.5	3.02e+01	0	28	104	0	60	72933
2026-01-17 01:46:37.00	151.63	1.02	-47.3	-65.2	3.5	3.02e+01	0	28	104	0	60	70037
2026-01-17 01:46:38.02	151.62	1.09	-47.1	-64.9	3.5	3.02e+01	0	28	104	0	60	67398
2026-01-17 01:46:39.03	151.62	1.15	-47.0	-64.9	3.5	3.02e+01	0	28	104	0	60	67460
2026-01-17 01:46:40.04	151.61	1.22	-47.0	-65.0	3.5	3.02e+01	0	28	104	0	60	68557
2026-01-17 01:46:41.05	151.61	1.28	-47.0	-64.9	3.5	3.02e+01	0	28	104	0	60	67929
2026-01-17 01:46:42.06	151.60	1.35	-47.0	-65.0	3.5	3.02e+01	0	28	104	0	60	68170
2026-01-17 01:46:43.07	151.60	1.41	-47.0	-65.0	3.5	3.02e+01	0	28	104	0	60	68190
2026-01-17 01:46:44.08	151.59	1.48	-47.0	-65.0	3.5	3.02e+01	0	28	104	0	60	68190
2026-01-17 01:46:45.09	151.59	1.55	-47.0	-65.0	3.5	3.02e+01	0	28	104	0	60	68275
2026-01-17 01:46:46.10	151.58	1.61	-47.0	-65.0	3.5	3.02e+01	0	28	104	0	60	68244
2026-01-17 01:46:47.11	151.58	1.68	-47.0	-64.9	3.5	3.02e+01	0	28	104	0	60	67494
2026-01-17 01:46:48.12	151.58	1.74	-47.0	-64.8	3.5	3.02e+01	0	28	104	0	60	66635
2026-01-17 01:46:49.13	151.57	1.81	-46.9	-64.7	3.5	3.02e+01	0	28	104	0	60	65985
2026-01-17 01:46:50.14	151.57	1.88	-47.0	-64.5	3.5	3.02e+01	0	28	104	0	60	64609
2026-01-17 01:46:51.15	151.56	1.95	-47.0	-64.4	3.5	3.02e+01	0	28	104	0	60	64065
2026-01-17 01:46:52.16	151.56	2.01	-47.0	-64.1	3.5	3.02e+01	0	28	104	0	60	61792
2026-01-17 01:46:53.17	151.55	2.08	-47.0	-64.3	3.5	3.02e+01	0	28	104	0	60	63326
2026-01-17 01:46:54.18	151.55	2.15	-46.9	-64.3	3.5	3.02e+01	0	28	104	0	60	62824
2026-01-17 01:46:55.19	151.54	2.22	-46.9	-64.4	3.5	3.02e+01	0	28	104	0	60	64156
2026-01-17 01:46:56.20	151.54	2.28	-46.9	-64.5	3.5	3.02e+01	0	28	104	0	60	64324
2026-01-17 01:46:57.21	151.53	2.35	-47.0	-64.8	3.5	3.02e+01	0	28	104	0	60	66839
2026-01-17 01:46:58.22	151.53	2.42	-47.0	-64.8	3.5	3.02e+01	0	28	104	0	60	66598
2026-01-17 01:46:59.23	151.52	2.49	-47.0	-64.6	3.5	3.02e+01	0	28	104	0	60	65571
2026-01-17 01:47:00.24	151.51	2.56	-46.9	-64.6	3.5	3.02e+01	0	28	104	0	60	65044
2026-01-17 01:47:01.24	151.51	2.62	-46.9	-64.4	3.5	3.02e+01	0	28	104	0	60	64204
2026-01-17 01:47:02.26	151.50	2.69	-46.9	-64.0	3.5	3.02e+01	0	28	104	0	60	60813
2026-01-17 01:47:03.26	151.50	2.76	-46.9	-63.6	3.5	3.02e+01	0	28	104	0	60	57992
2026-01-17 01:47:04.27	151.49	2.83	-46.9	-63.0	3.5	3.02e+01	0	28	104	0	60	54397
2026-01-17 01:47:05.28	151.49	2.90	-46.9	-62.1	4.0	3.02e+01	0	28	104	0	60	49119
2026-01-17 01:47:06.29	151.48	2.97	-46.9	-61.9	4.0	3.02e+01	0	28	104	0	60	47940
2026-01-17 01:47:07.30	151.48	3.04	-46.9	-62.1	3.9	3.02e+01	0	29	104	0	60	49229
2026-01-17 01:47:08.31	151.47	3.11	-46.9	-63.0	3.5	3.02e+01	0	28	104	0	60	54522
2026-01-17 01:47:09.32	151.47	3.18	-46.9	-63.3	3.6	3.02e+01	0	28	104	0	60	56289
2026-01-17 01:47:10.33	151.46	3.25	-46.8	-60.8	4.5	3.02e+01	0	28	104	0	60	42242
2026-01-17 01:47:11.34	151.45	3.32	-46.4	-55.6	8.4	3.02e+01	92	29	0	524288	60	23191
2026-01-17 01:47:12.35	151.45	3.39	-45.5	-51.6	12.6	3.02e+01	92	29	0	2621440	60	14587
2026-01-17 01:47:13.36	151.44	3.47	-44.2	-48.4	16.2	3.02e+01	85	28	0	4718592	60	10094
2026-01-17 01:47:14.37	151.44	3.54	-43.1	-46.4	18.5	3.02e+01	92	28	0	6291456	60	8019
2026-01-17 01:47:15.38	151.43	3.61	-41.5	-43.9	20.5	3.02e+01	92	29	0	8388608	58	6760
2026-01-17 01:47:16.39	151.43	3.68	-40.4	-42.5	22.0	3.02e+01	92	29	0	10485760	56	6434
2026-01-17 01:47:17.40	151.42	3.75	-39.3	-41.1	23.3	3.02e+01	91	28	0	12058624	54	6172
2026-01-17 01:47:18.41	151.41	3.82	-38.8	-40.6	23.8	3.02e+01	92	28	0	14155776	52	6524
2026-01-17 01:47:19.41	151.41	3.90	-38.6	-40.3	24.1	3.02e+01	92	29	0	15728640	52	6318
2026-01-17 01:47:20.42	151.40	3.97	-38.5	-40.2	24.2	3.02e+01	92	29	0	17825792	52	6243
2026-01-17 01:47:21.43	151.39	4.04	-39.6	-41.6	21.4	3.02e+01	92	28	0	19398656	52	7296
2026-01-17 01:47:22.44	151.39	4.12	-45.0	-49.8	14.6	3.02e+01	92	29	0	21495808	60	11890
2026-01-17 01:47:23.45	151.38	4.19	-38.8	-40.4	24.6	3.02e+01	90	29	0	23592960	56	5086
2026-01-17 01:47:24.46	151.38	4.26	-45.5	-51.8	15.0	3.02e+01	92	29	104	24117248	60	14913
2026-01-17 01:47:25.47	151.37	4.34	-39.1	-40.9	23.1	3.02e+01	92	29	0	24641536	52	6735
2026-01-17 01:47:26.48	151.36	4.41	-44.7	-49.7	16.0	3.02e+01	92	29	104	25690112	60	11724
2026-01-17 01:47:27.49	151.36	4.48	-39.0	-40.8	23.9	3.02e+01	92	29	0	26214400	52	6650
2026-01-17 01:47:28.50	151.35	4.56	-37.9	-39.4	25.0	3.02e+01	92	29	0	28311552	50	6415
2026-01-17 01:47:29.51	151.34	4.63	-37.0	-38.5	25.9	3.02e+01	90	29	0	29884416	50	5747
2026-01-17 01:47:30.51	151.34	4.71	-36.5	-37.9	26.5	3.02e+01	92	29	0	31981568	48	6057
2026-01-17 01:47:31.52	151.33	4.78	-36.8	-38.3	26.2	3.02e+01	92	29	0	34078720	48	6284
2026-01-17 01:47:32.53	151.32	4.86	-36.7	-38.2	26.2	3.02e+01	89	29	0	35651584	48	6208
2026-01-17 01:47:33.54	151.32	4.93	-36.8	-38.3	26.1	3.02e+01	92	29	0	37748736	48	6288
2026-01-17 01:47:34.55	151.31	5.01	-36.5	-37.9	26.4	3.02e+01	90	29	0	39321600	48	6003
2026-01-17 01:47:35.56	151.30	5.09	-36.4	-37.8	26.6	3.02e+01	92	29	0	41418752	48	5947
2026-01-17 01:47:36.57	151.29	5.16	-36.5	-38.0	26.4	3.02e+01	92	29	0	43515904	48	6065
2026-01-17 01:47:37.58	151.29	5.24	-36.3	-37.7	26.7	3.02e+01	90	29	0	45088768	48	5880
2026-01-17 01:47:38.59	151.28	5.32	-36.4	-37.8	26.7	3.02e+01	90	29	0	47185920	48	5953
2026-01-17 01:47:39.60	151.27	5.39	-36.4	-37.8	26.7	3.02e+01	91	29	0	48758784	48	5983
2026-01-17 01:47:40.61	151.27	5.47	-36.4	-37.8	26.6	3.02e+01	91	29	0	50855936	48	5978
2026-01-17 01:47:41.61	151.26	5.55	-36.1	-37.5	26.9	3.02e+01	90	29	0	52953088	48	5760
2026-01-17 01:47:42.62	151.25	5.62	-36.1	-37.5	27.0	3.02e+01	92	29	0	54525952	48	5765
2026-01-17 01:47:43.63	151.24	5.70	-36.0	-37.3	27.2	3.02e+01	90	29	0	56623104	48	5628
2026-01-17 01:47:44.64	151.24	5.78	-36.2	-37.6	26.9	3.02e+01	92	29	0	58720256	48	5834
2026-01-17 01:47:45.65	151.23	5.86	-35.8	-37.1	27.3	3.02e+01	92	29	0	60293120	46	6204
2026-01-17 01:47:46.66	151.22	5.94	-36.2	-37.5	27.1	3.02e+01	91	29	0	62390272	46	6483
2026-01-17 01:47:47.67	151.21	6.02	-36.1	-37.5	27.1	3.02e+01	91	29	0	63963136	46	6446
2026-01-17 01:47:48.68	151.21	6.10	-36.0	-37.3	27.3	3.02e+01	92	29	0	66060288	46	6312
2026-01-17 01:47:49.69	151.20	6.18	-36.0	-37.4	27.2	3.02e+01	92	29	0	67633152	46	6367
2026-01-17 01:47:50.70	151.19	6.26	-36.2	-37.5	27.0	3.02e+01	92	29	0	69730304	46	6465
2026-01-17 01:47:51.71	151.18	6.34	-35.9	-37.3	27.3	3.02e+01	90	29	0	71827456	46	6278
2026-01-17 01:47:52.72	151.17	6.42	-35.7	-37.1	27.5	3.02e+01	92	29	0	73400320	46	6148
2026-01-17 01:47:53.72	151.17	6.50	-35.9	-37.2	27.3	3.02e+01	90	29	0	75497472	46	6232
2026-01-17 01:47:54.73	151.16	6.58	-35.8	-37.1	27.4	3.02e+01	89	29	0	77070336	46	6187
2026-01-17 01:47:55.74	151.15	6.66	-35.6	-37.0	27.7	3.02e+01	90	29	0	79167488	46	6069
2026-01-17 01:47:56.76	151.14	6.74	-35.6	-36.9	27.7	3.02e+01	91	29	0	81264640	46	6007
2026-01-17 01:47:57.77	151.13	6.82	-35.8	-37.1	27.5	3.02e+01	92	29	0	82837504	46	6170
2026-01-17 01:47:58.77	151.12	6.91	-35.5	-36.8	27.7	3.02e+01	90	29	0	84934656	46	5987
2026-01-17 01:47:59.79	151.12	6.99	-35.6	-36.9	27.7	3.02e+01	92	29	0	87031808	46	6032
2026-01-17 01:48:00.80	151.11	7.07	-35.7	-37.0	27.6	3.02e+01	91	29	0	88604672	46	6119
2026-01-17 01:48:01.80	151.10	7.15	-35.8	-37.1	27.6	3.02e+01	92	29	0	90701824	46	6183
2026-01-17 01:48:02.81	151.09	7.24	-35.9	-37.2	27.4	3.02e+01	92	29	0	92274688	46	6244
2026-01-17 01:48:03.82	151.08	7.32	-35.9	-37.2	27.5	3.02e+01	90	29	0	94371840	46	6267
2026-01-17 01:48:04.83	151.07	7.40	-35.9	-37.2	27.6	3.02e+01	92	29	0	96468992	46	6225
2026-01-17 01:48:05.84	151.06	7.49	-35.9	-37.2	27.5	3.02e+01	92	29	0	98041856	46	6261
2026-01-17 01:48:06.85	151.05	7.57	-35.9	-37.2	27.5	3.02e+01	92	29	0	100139008	46	6264
2026-01-17 01:48:07.86	151.05	7.66	-35.8	-37.1	27.6	3.02e+01	92	29	0	102236160	46	6150
2026-01-17 01:48:08.87	151.04	7.74	-35.9	-37.2	27.6	3.02e+01	90	29	0	103809024	46	6254
2026-01-17 01:48:09.88	151.03	7.83	-35.5	-36.8	27.9	3.02e+01	92	29	0	105906176	46	5934
2026-01-17 01:48:10.89	151.02	7.92	-35.4	-36.7	27.9	3.02e+01	92	29	0	107479040	46	5913
2026-01-17 01:48:11.90	151.01	8.00	-35.6	-36.9	27.8	3.02e+01	90	29	0	109576192	46	6010
2026-01-17 01:48:12.91	151.00	8.09	-35.3	-36.6	28.0	3.02e+01	92	29	0	111673344	46	5836
2026-01-17 01:48:13.92	150.99	8.18	-35.3	-36.6	28.0	3.02e+01	88	29	0	113246208	46	5840
2026-01-17 01:48:14.93	150.98	8.26	-35.4	-36.7	28.0	3.02e+01	93	29	0	115343360	46	5873
2026-01-17 01:48:15.94	150.97	8.35	-35.3	-36.6	28.0	3.02e+01	90	29	0	116916224	46	5842
2026-01-17 01:48:16.95	150.96	8.44	-35.2	-36.5	28.2	3.02e+01	90	29	0	119013376	46	5741
2026-01-17 01:48:17.96	150.95	8.53	-35.3	-36.6	28.1	3.02e+01	89	29	0	121110528	46	5819
2026-01-17 01:48:18.96	150.94	8.61	-35.3	-36.6	28.1	3.02e+01	90	29	0	122683392	46	5829
2026-01-17 01:48:19.97	150.93	8.70	-35.3	-36.5	28.1	3.02e+01	91	29	0	124780544	46	5787
2026-01-17 01:48:20.98	150.92	8.79	-35.2	-36.5	28.2	3.02e+01	90	29	0	126353408	46	5744
2026-01-17 01:48:21.99	150.91	8.88	-35.2	-36.4	28.2	3.02e+01	92	29	0	128450560	46	5711
2026-01-17 01:48:22.99	150.90	8.97	-35.2	-36.5	28.2	3.02e+01	90	29	0	130547712	46	5768
2026-01-17 01:48:24.00	150.89	9.06	-35.3	-36.5	28.2	3.02e+01	92	29	0	132120576	46	5784
2026-01-17 01:48:25.01	150.88	9.15	-35.1	-36.4	28.4	3.02e+01	90	29	0	134217728	46	5671
2026-01-17 01:48:26.02	150.87	9.24	-35.1	-36.4	28.3	3.02e+01	92	29	0	135790592	46	5695
2026-01-17 01:48:27.03	150.86	9.33	-35.1	-36.4	28.3	3.02e+01	92	29	0	137887744	46	5669
2026-01-17 01:48:28.04	150.85	9.43	-35.1	-36.3	28.4	3.02e+01	90	29	0	139984896	46	5633
2026-01-17 01:48:29.05	150.83	9.52	-35.1	-36.3	28.4	3.02e+01	91	29	0	141557760	46	5641
2026-01-17 01:48:30.06	150.82	9.61	-34.8	-36.1	28.6	3.02e+01	88	29	0	143654912	44	6150
2026-01-17 01:48:31.07	150.81	9.70	-34.9	-36.2	28.5	3.02e+01	92	29	0	145227776	44	6209
2026-01-17 01:48:32.08	150.80	9.80	-34.9	-36.2	28.6	3.02e+01	91	29	0	147324928	44	6223
2026-01-17 01:48:33.09	150.79	9.89	-35.0	-36.2	28.5	3.02e+01	92	29	0	149422080	44	6264
2026-01-17 01:48:34.10	150.78	9.99	-34.9	-36.2	28.5	3.02e+01	92	29	0	150994944	44	6227
2026-01-17 01:48:35.10	150.77	10.08	-34.9	-36.2	28.6	3.02e+01	90	29	0	153092096	44	6230
2026-01-17 01:48:36.11	150.75	10.17	-35.0	-36.2	28.5	3.02e+01	87	29	0	155189248	44	6264
2026-01-17 01:48:37.12	150.74	10.27	-35.0	-36.2	28.5	3.02e+01	92	29	0	156762112	44	6257
2026-01-17 01:48:38.13	150.73	10.37	-34.8	-36.0	28.7	3.02e+01	90	29	0	158859264	44	6112
2026-01-17 01:48:39.14	150.72	10.46	-34.9	-36.1	28.7	3.02e+01	92	29	0	160432128	44	6202
2026-01-17 01:48:40.15	150.71	10.56	-34.7	-35.9	28.7	3.02e+01	92	29	0	162529280	44	6058
2026-01-17 01:48:41.16	150.70	10.66	-34.7	-35.9	28.8	3.02e+01	90	29	0	164626432	44	6024
2026-01-17 01:48:42.17	150.68	10.75	-34.6	-35.9	28.8	3.02e+01	92	29	0	166199296	44	6003
2026-01-17 01:48:43.18	150.67	10.85	-34.6	-35.9	28.8	3.02e+01	92	29	0	168296448	44	5996
2026-01-17 01:48:44.18	150.66	10.95	-34.6	-35.8	28.8	3.02e+01	92	29	0	169869312	44	5984
2026-01-17 01:48:45.19	150.65	11.05	-34.7	-35.9	28.9	3.02e+01	92	29	0	171966464	44	6030
2026-01-17 01:48:46.20	150.63	11.15	-34.5	-35.7	28.9	3.02e+01	90	29	0	174063616	44	5898
2026-01-17 01:48:47.21	150.62	11.25	-34.6	-35.8	28.9	3.02e+01	92	29	0	175636480	44	5961
2026-01-17 01:48:48.22	150.61	11.35	-34.6	-35.8	28.9	3.02e+01	92	29	0	177733632	44	5979
2026-01-17 01:48:49.23	150.59	11.45	-34.3	-35.6	29.1	3.02e+01	90	29	0	179306496	44	5804
2026-01-17 01:48:50.24	150.58	11.55	-34.3	-35.6	29.2	3.02e+01	92	29	0	181403648	44	5804
2026-01-17 01:48:51.25	150.57	11.65	-34.3	-35.5	29.2	3.02e+01	92	30	0	183500800	44	5781
2026-01-17 01:48:52.26	150.55	11.75	-34.2	-35.4	29.2	3.02e+01	92	29	0	185073664	44	5703
2026-01-17 01:48:53.27	150.54	11.85	-34.2	-35.4	29.2	3.02e+01	92	30	0	187170816	44	5706
2026-01-17 01:48:54.28	150.53	11.96	-34.2	-35.4	29.3	3.02e+01	92	29	0	188743680	44	5709
2026-01-17 01:48:55.29	150.51	12.06	-34.2	-35.4	29.3	3.02e+01	90	29	0	190840832	44	5725
2026-01-17 01:48:56.29	150.50	12.16	-34.2	-35.4	29.3	3.02e+01	92	29	0	192937984	44	5704
2026-01-17 01:48:57.30	150.48	12.27	-34.0	-35.2	29.5	3.02e+01	92	29	0	194510848	44	5584
2026-01-17 01:48:58.31	150.47	12.37	-34.2	-35.4	29.3	3.02e+01	92	29	0	196608000	44	5715
2026-01-17 01:48:59.32	150.46	12.48	-34.3	-35.5	29.2	3.02e+01	92	29	0	198705152	44	5770
2026-01-17 01:49:00.33	150.44	12.58	-34.1	-35.3	29.4	3.02e+01	92	29	0	200278016	44	5655
2026-01-17 01:49:01.34	150.43	12.69	-34.1	-35.3	29.4	3.02e+01	90	29	0	202375168	44	5633
2026-01-17 01:49:02.35	150.41	12.80	-34.2	-35.4	29.2	3.02e+01	92	29	0	203948032	44	5718
2026-01-17 01:49:03.36	150.40	12.90	-34.3	-35.5	29.2	3.02e+01	92	29	0	206045184	44	5747
2026-01-17 01:49:04.36	150.38	13.01	-34.2	-35.4	29.4	3.02e+01	90	29	0	208142336	44	5689
2026-01-17 01:49:05.38	150.37	13.12	-34.2	-35.5	29.3	3.02e+01	92	29	0	209715200	44	5728
2026-01-17 01:49:06.39	150.35	13.23	-34.2	-35.5	29.2	3.02e+01	92	29	0	211812352	44	5727
2026-01-17 01:49:07.39	150.34	13.34	-34.3	-35.5	29.2	3.02e+01	92	29	0	213385216	44	5767
2026-01-17 01:49:08.40	150.32	13.45	-34.2	-35.4	29.3	3.02e+01	91	30	0	215482368	44	5710
2026-01-17 01:49:09.41	150.30	13.56	-34.5	-44.7	3.4	3.02e+01	0	29	104	217055232	44	16698
2026-01-17 01:49:10.42	150.29	13.67	-34.6	-44.7	3.4	3.02e+01	0	30	104	217055232	44	16549
2026-01-17 01:49:11.43	150.27	13.78	-34.5	-44.7	3.6	3.02e+01	0	30	104	217055232	44	16676
2026-01-17 01:49:12.44	150.26	13.89	-34.5	-44.6	3.6	3.02e+01	0	30	104	217055232	44	16509
2026-01-17 01:49:13.45	150.24	14.01	-34.4	-44.5	3.6	3.02e+01	0	30	104	217055232	44	16286
2026-01-17 01:49:14.45	150.22	14.12	-34.5	-44.6	3.6	3.02e+01	0	30	104	217055232	44	16461
2026-01-17 01:49:15.46	150.21	14.23	-43.2	-54.6	3.4	3.02e+01	0	30	104	217055232	60	20590
2026-01-17 01:49:16.47	150.19	14.35	-36.6	-46.9	3.6	3.02e+01	0	30	104	217055232	54	12088
2026-01-17 01:49:17.48	150.17	14.46	-41.3	-52.2	3.6	3.02e+01	0	30	104	217055232	60	15721
2026-01-17 01:49:18.49	150.16	14.58	-35.6	-45.8	3.6	3.02e+01	0	30	104	217055232	46	16760
2026-01-17 01:49:19.50	150.14	14.70	-35.1	-45.2	3.6	3.02e+01	0	30	104	217055232	46	15715
2026-01-17 01:49:20.51	150.12	14.81	-34.6	-44.7	3.6	3.02e+01	0	30	104	217055232	44	16658
2026-01-17 01:49:21.52	150.10	14.93	-35.2	-45.5	3.4	3.02e+01	0	29	104	217055232	44	18123
2026-01-17 01:49:22.52	150.08	15.05	-35.1	-45.3	3.6	3.02e+01	0	30	104	217055232	46	15786
2026-01-17 01:49:23.53	150.07	15.17	-35.4	-45.6	3.6	3.02e+01	0	30	104	217055232	50	12974
2026-01-17 01:49:24.54	150.05	15.29	-42.7	-54.0	3.5	3.02e+01	0	30	104	217055232	60	19324
2026-01-17 01:49:25.55	150.03	15.41	-36.0	-46.3	3.4	3.02e+01	0	30	104	217055232	48	15949
2026-01-17 01:49:26.56	150.01	15.53	-43.5	-54.9	3.4	3.02e+01	0	30	104	217055232	60	21402
2026-01-17 01:49:27.57	149.99	15.65	-38.4	-48.9	4.1	3.02e+01	0	30	104	217055232	52	16928
2026-01-17 01:49:28.58	149.97	15.77	-37.5	-47.8	4.1	3.02e+01	0	30	104	217055232	50	16796
2026-01-17 01:49:29.59	149.95	15.90	-37.2	-47.5	4.1	3.02e+01	0	30	104	217055232	50	16288
2026-01-17 01:49:30.60	149.93	16.02	-36.9	-47.1	3.8	3.02e+01	0	30	104	217055232	50	15575
2026-01-17 01:49:31.61	149.91	16.14	-42.0	-53.0	3.4	3.02e+01	0	30	104	217055232	54	24229
2026-01-17 01:49:32.62	149.89	16.27	-34.6	-44.8	3.5	3.02e+01	0	30	104	217055232	46	15033
2026-01-17 01:49:33.63	149.87	16.39	-43.0	-54.3	3.7	3.02e+01	0	30	104	217055232	56	25261
2026-01-17 01:49:34.64	149.85	16.52	-35.2	-45.4	3.5	3.02e+01	0	30	104	217055232	44	18069
2026-01-17 01:49:35.65	149.83	16.65	-39.6	-50.2	3.5	3.02e+01	0	30	104	217055232	56	15720
2026-01-17 01:49:36.65	149.81	16.78	-37.1	-47.5	3.5	3.02e+01	0	30	104	217055232	50	16284
2026-01-17 01:49:37.67	149.79	16.91	-35.7	-46.1	3.5	3.02e+01	0	30	104	217055232	46	17306
2026-01-17 01:49:38.67	149.77	17.03	-35.1	-45.4	3.5	3.02e+01	0	30	104	217055232	46	16056
2026-01-17 01:49:39.68	149.75	17.16	-37.0	-47.4	3.5	3.02e+01	0	30	104	217055232	46	20129
2026-01-17 01:49:40.69	149.73	17.29	-38.4	-48.9	3.5	3.02e+01	0	30	104	217055232	52	16977
2026-01-17 01:49:41.70	149.71	17.43	-37.7	-48.1	3.5	3.02e+01	0	30	104	217055232	44	24541
2026-01-17 01:49:42.71	149.68	17.56	-44.6	-56.8	3.5	3.02e+01	0	30	104	217055232	60	26475
2026-01-17 01:49:43.72	149.66	17.69	-35.7	-45.9	3.5	3.02e+01	0	30	104	217055232	44	19176
2026-01-17 01:49:44.73	149.64	17.83	-36.8	-47.2	3.5	3.02e+01	0	30	104	217055232	52	13897
2026-01-17 01:49:45.74	149.62	17.96	-34.7	-45.0	3.5	3.02e+01	0	30	104	217055232	44	17158
2026-01-17 01:49:46.75	149.59	18.10	-34.7	-44.8	3.5	3.02e+01	0	30	104	217055232	44	16878
2026-01-17 01:49:47.76	149.57	18.23	-34.3	-44.5	3.5	3.02e+01	0	30	104	217055232	44	16312
2026-01-17 01:49:48.77	149.55	18.37	-40.1	-50.7	3.8	3.02e+01	0	30	104	217055232	50	23581
2026-01-17 01:49:49.78	149.52	18.51	-38.2	-48.5	3.5	3.02e+01	0	30	104	217055232	52	16318
2026-01-17 01:49:50.79	149.50	18.65	-38.3	-48.7	3.4	3.02e+01	0	30	104	217055232	44	26384
2026-01-17 01:49:51.80	149.47	18.79	-47.6	-63.4	3.5	3.02e+01	0	30	104	217055232	60	56789
2026-01-17 01:49:52.80	149.45	18.93	-41.5	-52.4	3.5	3.02e+01	0	30	104	217055232	52	25474
2026-01-17 01:49:53.81	149.42	19.07	-40.3	-50.9	3.5	3.02e+01	0	30	104	217055232	56	17058
2026-01-17 01:49:54.82	149.40	19.21	-39.0	-49.5	3.5	3.02e+01	0	30	104	217055232	54	16170
2026-01-17 01:49:55.83	149.37	19.35	-37.9	-48.3	3.5	3.02e+01	0	30	104	217055232	52	15860
2026-01-17 01:49:56.84	149.35	19.50	-37.1	-47.6	3.5	3.02e+01	0	30	104	217055232	50	16325
2026-01-17 01:49:57.85	149.32	19.64	-35.8	-46.1	3.5	3.02e+01	0	30	104	217055232	46	17398
2026-01-17 01:49:58.86	149.30	19.79	-41.8	-52.8	3.5	3.02e+01	0	30	104	217055232	54	23799
2026-01-17 01:49:59.87	149.27	19.94	-44.9	-57.3	3.5	3.02e+01	0	30	104	217055232	56	35379
2026-01-17 01:50:00.88	149.24	20.09	-41.7	-52.7	3.5	3.02e+01	0	30	104	217055232	58	18615
2026-01-17 01:50:01.89	149.22	20.23	-44.4	-56.2	3.5	3.02e+01	0	30	104	217055232	58	28024
2026-01-17 01:50:02.89	149.19	20.38	-38.9	-49.5	3.6	3.02e+01	0	30	104	217055232	54	16158
2026-01-17 01:50:03.90	149.16	20.53	-38.2	-48.6	3.5	3.02e+01	0	30	104	217055232	52	16468
2026-01-17 01:50:04.91	149.13	20.69	-38.0	-48.4	3.5	3.02e+01	0	30	104	217055232	50	18082
2026-01-17 01:50:05.92	149.10	20.84	-37.6	-48.0	3.5	3.02e+01	0	30	104	217055232	50	17197
2026-01-17 01:50:06.92	149.07	20.99	-37.8	-48.2	3.5	3.02e+01	0	30	104	217055232	50	17612
2026-01-17 01:50:07.93	149.05	21.15	-45.1	-57.4	3.5	3.02e+01	0	30	104	217055232	60	28446
2026-01-17 01:50:08.94	149.02	21.30	-39.2	-49.7	3.5	3.02e+01	0	30	104	217055232	50	20898
2026-01-17 01:50:09.95	148.99	21.46	-47.9	-64.3	3.5	3.02e+01	0	30	104	217055232	60	62984
2026-01-17 01:50:10.96	148.96	21.62	-43.7	-55.4	3.5	3.02e+01	0	30	104	217055232	56	28525
2026-01-17 01:50:11.96	148.93	21.78	-35.8	-46.1	3.5	3.02e+01	0	30	104	217055232	48	15469
2026-01-17 01:50:12.97	148.89	21.94	-35.8	-46.1	3.5	3.02e+01	0	30	104	217055232	46	17333
2026-01-17 01:50:13.99	148.86	22.10	-35.3	-45.6	3.5	3.02e+01	0	30	104	217055232	46	16348
2026-01-17 01:50:15.00	148.83	22.26	-34.7	-45.0	3.5	3.02e+01	0	30	104	217055232	44	17100
2026-01-17 01:50:16.01	148.80	22.42	-39.4	-50.0	3.5	3.02e+01	0	30	104	217055232	52	19313
2026-01-17 01:50:17.01	148.77	22.59	-39.9	-50.5	3.5	3.02e+01	0	30	104	217055232	52	20488
2026-01-17 01:50:18.02	148.73	22.75	-45.7	-58.4	3.5	3.02e+01	0	30	104	217055232	60	31925
2026-01-17 01:50:19.03	148.70	22.92	-48.2	-65.9	3.5	3.02e+01	0	30	104	217055232	60	75755
2026-01-17 01:50:20.03	148.67	23.09	-45.4	-57.9	3.5	3.02e+01	0	30	104	217055232	60	30151
2026-01-17 01:50:21.04	148.63	23.26	-39.0	-49.5	3.5	3.02e+01	0	30	104	217055232	54	16284
2026-01-17 01:50:22.05	148.60	23.43	-39.4	-50.0	3.5	3.02e+01	0	30	104	217055232	52	19385
2026-01-17 01:50:23.05	148.56	23.60	-37.8	-48.2	3.5	3.02e+01	0	30	104	217055232	52	15757
2026-01-17 01:50:24.06	148.53	23.77	-36.7	-47.1	3.5	3.02e+01	0	30	104	217055232	48	17291
2026-01-17 01:50:25.07	148.49	23.95	-39.1	-49.6	3.5	3.02e+01	0	30	104	217055232	50	20709
2026-01-17 01:50:26.08	148.46	24.12	-44.4	-56.4	3.5	3.02e+01	0	30	104	217055232	60	25376
2026-01-17 01:50:27.08	148.42	24.30	-48.0	-64.8	3.5	3.02e+01	0	30	104	217055232	60	67047
2026-01-17 01:50:28.09	148.38	24.47	-42.4	-53.4	3.5	3.02e+01	0	30	104	217055232	60	18091
2026-01-17 01:50:29.10	148.34	24.65	-47.3	-61.8	3.5	3.02e+01	0	30	104	217055232	60	47122
2026-01-17 01:50:30.11	148.31	24.83	-38.5	-49.0	3.5	3.02e+01	0	30	104	217055232	52	17200
2026-01-17 01:50:31.12	148.27	25.02	-38.4	-48.9	3.5	3.02e+01	0	30	104	217055232	52	16992
2026-01-17 01:50:32.13	148.23	25.20	-38.3	-48.8	3.5	3.02e+01	0	30	104	217055232	50	18890
2026-01-17 01:50:33.14	148.19	25.38	-37.9	-48.3	3.5	3.02e+01	0	30	104	217055232	50	17819
2026-01-17 01:50:34.15	148.15	25.57	-43.8	-55.2	3.5	3.02e+01	0	30	104	217055232	60	22175
2026-01-17 01:50:35.16	148.11	25.76	-47.5	-62.8	3.6	3.02e+01	0	30	104	217055232	60	52965
2026-01-17 01:50:36.17	148.07	25.95	-44.8	-57.0	3.5	3.02e+01	0	30	104	217055232	60	27381
2026-01-17 01:50:37.18	148.02	26.14	-39.6	-50.1	3.5	3.02e+01	0	30	104	217055232	54	17417
2026-01-17 01:50:38.19	147.98	26.33	-46.3	-59.4	3.5	3.02e+01	0	30	104	217055232	60	35762
2026-01-17 01:50:39.20	147.94	26.52	-34.8	-45.1	3.5	3.02e+01	0	30	104	217055232	44	17351
2026-01-17 01:50:40.21	147.89	26.72	-34.7	-44.9	3.5	3.02e+01	0	30	104	217055232	44	16962
2026-01-17 01:50:41.22	147.85	26.91	-34.7	-44.9	3.5	3.02e+01	0	30	104	217055232	44	16916
2026-01-17 01:50:42.23	147.80	27.11	-34.6	-44.8	3.5	3.02e+01	0	30	104	217055232	44	16834
2026-01-17 01:50:43.24	147.76	27.31	-39.7	-50.3	3.5	3.02e+01	0	30	104	217055232	56	15796
2026-01-17 01:50:44.25	147.71	27.51	-43.0	-54.4	3.7	3.02e+01	0	30	104	217055232	60	20251
2026-01-17 01:50:45.26	147.67	27.72	-47.8	-63.7	3.6	3.02e+01	0	30	104	217055232	60	58622
2026-01-17 01:50:46.26	147.62	27.92	-41.3	-52.1	3.6	3.02e+01	0	30	104	217055232	60	15474
2026-01-17 01:50:47.27	147.57	28.12	-46.6	-60.1	3.5	3.02e+01	0	30	104	217055232	60	38787
2026-01-17 01:50:48.28	147.52	28.33	-37.7	-48.1	3.5	3.02e+01	0	30	104	217055232	50	17356
2026-01-17 01:50:49.29	147.47	28.54	-36.7	-47.1	3.5	3.02e+01	0	30	104	217055232	48	17316
2026-01-17 01:50:50.30	147.42	28.75	-36.7	-47.0	3.5	3.02e+01	0	30	104	217055232	48	17104
2026-01-17 01:50:51.31	147.37	28.96	-36.6	-46.9	3.5	3.02e+01	0	30	104	217055232	48	17045
2026-01-17 01:50:52.32	147.32	29.18	-42.2	-53.4	3.5	3.02e+01	0	30	104	217055232	58	20241
2026-01-17 01:50:53.33	147.27	29.39	-41.6	-52.7	3.5	3.02e+01	0	30	104	217055232	60	16606
2026-01-17 01:50:54.34	147.21	29.61	-43.0	-54.4	3.5	3.02e+01	0	30	104	217055232	60	20249
2026-01-17 01:50:55.35	147.16	29.83	-39.0	-49.4	3.5	3.02e+01	0	30	104	217055232	56	14339
2026-01-17 01:50:56.36	147.10	30.05	-46.2	-59.2	3.5	3.02e+01	0	30	104	217055232	60	35254
2026-01-17 01:50:57.37	147.05	30.27	-37.8	-48.2	3.5	3.02e+01	0	30	104	217055232	50	17681
2026-01-17 01:50:58.38	146.99	30.50	-37.2	-47.5	3.5	3.02e+01	0	30	104	217055232	50	16313
2026-01-17 01:50:59.39	146.93	30.73	-35.7	-46.0	3.5	3.02e+01	0	30	104	217055232	46	17176
2026-01-17 01:51:00.40	146.88	30.95	-34.9	-45.1	3.5	3.02e+01	0	30	104	217055232	46	15423
2026-01-17 01:51:01.41	146.82	31.18	-34.8	-45.0	3.5	3.02e+01	0	30	104	217055232	44	17216
2026-01-17 01:51:02.42	146.76	31.42	-39.6	-50.1	3.6	3.02e+01	0	30	104	217055232	60	12369
2026-01-17 01:51:03.43	146.69	31.65	-40.9	-51.6	3.5	3.02e+01	0	30	104	217055232	56	18351
2026-01-17 01:51:04.44	146.63	31.89	-36.7	-47.0	3.6	3.02e+01	0	30	104	217055232	56	10869
2026-01-17 01:51:05.45	146.57	32.13	-39.2	-49.7	3.5	3.02e+01	0	30	104	217055232	56	14812
2026-01-17 01:51:06.46	146.51	32.37	-34.4	-44.6	3.5	3.02e+01	0	30	104	217055232	44	16435
2026-01-17 01:51:07.47	146.44	32.61	-34.6	-44.8	3.5	3.02e+01	0	30	104	217055232	44	16792
2026-01-17 01:51:08.48	146.37	32.85	-34.5	-44.7	3.5	3.02e+01	0	30	104	217055232	44	16564
2026-01-17 01:51:09.49	146.31	33.10	-35.6	-45.8	3.5	3.02e+01	0	30	104	217055232	44	18896
2026-01-17 01:51:10.50	146.24	33.35	-34.8	-45.1	3.5	3.02e+01	0	30	104	217055232	48	13836
2026-01-17 01:51:11.51	146.17	33.60	-34.7	-44.9	3.5	3.02e+01	0	30	104	217055232	48	13558
2026-01-17 01:51:12.52	146.10	33.85	-45.0	-57.3	3.5	3.02e+01	0	30	104	217055232	60	28217
2026-01-17 01:51:13.53	146.03	34.11	-37.3	-47.6	3.5	3.02e+01	0	30	104	217055232	52	14686
2026-01-17 01:51:14.54	145.95	34.36	-43.5	-54.9	3.5	3.02e+01	0	30	104	217055232	60	21429
2026-01-17 01:51:15.55	145.88	34.62	-38.5	-49.0	3.5	3.02e+01	0	30	104	217055232	52	17097
2026-01-17 01:51:16.56	145.80	34.88	-38.3	-48.6	3.5	3.02e+01	0	30	104	217055232	52	16341
2026-01-17 01:51:17.57	145.73	35.15	-37.9	-48.3	3.5	3.02e+01	0	30	104	217055232	50	17758
2026-01-17 01:51:18.57	145.65	35.41	-39.2	-49.7	3.5	3.02e+01	0	30	104	217055232	50	20938
2026-01-17 01:51:19.58	145.57	35.68	-44.8	-56.9	3.4	3.02e+01	0	30	104	217055232	58	30337
2026-01-17 01:51:20.59	145.49	35.95	-35.7	-46.0	3.5	3.02e+01	0	30	104	217055232	46	17254
2026-01-17 01:51:21.60	145.40	36.22	-41.8	-52.7	3.4	3.02e+01	0	30	104	217055232	60	16612
2026-01-17 01:51:22.61	145.32	36.50	-39.1	-49.6	3.5	3.02e+01	0	30	104	217055232	52	18450
2026-01-17 01:51:23.62	145.23	36.78	-41.9	-52.7	3.5	3.02e+01	0	30	104	217055232	60	16644
2026-01-17 01:51:24.63	145.15	37.06	-39.6	-50.1	3.5	3.02e+01	0	30	104	217055232	54	17366
2026-01-17 01:51:25.64	145.06	37.34	-38.3	-48.7	3.5	3.02e+01	0	30	104	217055232	52	16659
2026-01-17 01:51:26.65	144.97	37.63	-38.0	-48.4	3.5	3.02e+01	0	30	104	217055232	52	16079
2026-01-17 01:51:27.66	144.88	37.91	-36.8	-47.2	3.5	3.02e+01	0	30	104	217055232	48	17616
2026-01-17 01:51:28.67	144.78	38.20	-39.6	-50.2	3.5	3.02e+01	0	30	104	217055232	50	22027
2026-01-17 01:51:29.68	144.69	38.50	-39.8	-50.3	3.5	3.02e+01	0	30	104	217055232	48	25148
2026-01-17 01:51:30.69	144.59	38.79	-45.7	-58.4	3.5	3.02e+01	0	30	104	217055232	60	31995
2026-01-17 01:51:31.70	144.49	39.09	-40.7	-51.5	3.5	3.02e+01	0	30	104	217055232	52	22794
2026-01-17 01:51:32.71	144.39	39.39	-42.0	-53.0	3.5	3.02e+01	0	30	104	217055232	60	17187
2026-01-17 01:51:33.71	144.28	39.69	-39.1	-49.7	3.5	3.02e+01	0	30	104	217055232	54	16525
2026-01-17 01:51:34.72	144.18	40.00	-39.1	-49.7	3.5	3.02e+01	0	30	104	217055232	52	18546
2026-01-17 01:51:35.73	144.07	40.31	-38.3	-48.8	3.5	3.02e+01	0	30	104	217055232	52	16783
2026-01-17 01:51:36.74	143.96	40.62	-42.9	-54.2	3.5	3.02e+01	0	30	104	217055232	58	22033
2026-01-17 01:51:37.75	143.85	40.93	-48.3	-65.8	3.5	3.02e+01	0	30	104	217055232	60	74697
2026-01-17 01:51:38.76	143.74	41.25	-36.9	-47.2	3.3	3.02e+01	0	30	104	217055232	46	19762
2026-01-17 01:51:39.77	143.62	41.57	-43.0	-54.3	3.5	3.02e+01	0	30	104	217055232	60	19878
2026-01-17 01:51:40.78	143.50	41.89	-40.1	-50.7	3.5	3.02e+01	0	30	104	217055232	50	23469
2026-01-17 01:51:41.79	143.38	42.22	-42.0	-53.0	3.5	3.02e+01	0	30	104	217055232	60	17099
2026-01-17 01:51:42.80	143.25	42.55	-41.3	-52.1	3.5	3.02e+01	0	30	104	217055232	56	19426
2026-01-17 01:51:43.81	143.13	42.88	-39.6	-50.1	3.5	3.02e+01	0	30	104	217055232	54	17463
2026-01-17 01:51:44.82	143.00	43.21	-38.1	-48.5	3.5	3.02e+01	0	30	104	217055232	52	16263
2026-01-17 01:51:45.83	142.86	43.55	-35.5	-45.8	3.5	3.02e+01	0	30	104	217055232	46	16787
2026-01-17 01:51:46.84	142.73	43.89	-40.6	-51.3	3.5	3.02e+01	0	30	104	217055232	52	22295
2026-01-17 01:51:47.85	142.59	44.24	-46.4	-59.9	3.5	3.02e+01	0	30	104	217055232	58	42519
2026-01-17 01:51:48.86	142.45	44.58	-46.4	-59.5	3.5	3.02e+01	0	30	104	217055232	60	36423
2026-01-17 01:51:49.87	142.30	44.93	-44.6	-56.4	3.5	3.02e+01	0	31	104	217055232	56	32053
2026-01-17 01:51:50.88	142.15	45.28	-40.0	-50.4	3.6	3.02e+01	0	30	104	217055232	56	16129
2026-01-17 01:51:51.89	142.00	45.64	-38.5	-49.1	3.5	3.02e+01	0	30	104	217055232	52	17350
2026-01-17 01:51:52.89	141.85	45.99	-38.5	-49.0	3.5	3.02e+01	0	30	104	217055232	52	17161
2026-01-17 01:51:53.90	141.69	46.36	-37.1	-47.3	3.5	3.02e+01	0	30	104	217055232	50	15861
2026-01-17 01:51:54.91	141.53	46.72	-45.9	-58.6	3.5	3.02e+01	0	31	104	217055232	60	32943
2026-01-17 01:51:55.92	141.36	47.09	-48.4	-66.2	3.5	3.02e+01	0	30	104	217055232	60	78881
2026-01-17 01:51:56.93	141.19	47.46	-39.2	-49.7	3.5	3.02e+01	0	30	104	217055232	48	23543
2026-01-17 01:51:57.94	141.01	47.83	-46.4	-59.4	3.5	3.02e+01	0	30	104	217055232	60	35985
2026-01-17 01:51:58.95	140.83	48.21	-46.5	-59.7	3.5	3.02e+01	0	30	104	217055232	60	37228
2026-01-17 01:51:59.95	140.65	48.59	-37.6	-48.0	3.5	3.02e+01	0	30	104	217055232	50	17278
2026-01-17 01:52:00.96	140.46	48.97	-36.8	-47.1	3.5	3.02e+01	0	31	104	217055232	48	17383
2026-01-17 01:52:01.97	140.27	49.36	-36.1	-46.5	3.5	3.02e+01	0	30	104	217055232	48	16154
2026-01-17 01:52:02.98	140.07	49.75	-35.7	-46.0	3.5	3.02e+01	0	30	104	217055232	46	17245
2026-01-17 01:52:03.98	139.87	50.13	-38.9	-49.4	3.5	3.02e+01	0	30	104	217055232	50	20120
2026-01-17 01:52:04.99	139.66	50.53	-42.0	-53.0	3.5	3.02e+01	0	30	104	217055232	54	24310
2026-01-17 01:52:06.00	139.44	50.93	-48.1	-65.2	3.5	3.02e+01	0	30	104	217055232	60	69866
2026-01-17 01:52:07.01	139.22	51.33	-46.9	-60.6	3.5	3.02e+01	0	30	104	217055232	60	41181
2026-01-17 01:52:08.01	138.99	51.73	-47.2	-61.3	3.5	3.02e+01	0	30	104	217055232	60	44728
2026-01-17 01:52:09.02	138.76	52.14	-38.3	-48.7	3.5	3.02e+01	0	30	104	217055232	52	16591
2026-01-17 01:52:10.03	138.52	52.55	-36.5	-46.9	3.5	3.02e+01	0	30	104	217055232	48	16986
2026-01-17 01:52:11.04	138.27	52.97	-35.8	-46.1	3.6	3.02e+01	0	30	104	217055232	48	15524
2026-01-17 01:52:12.04	138.02	53.38	-34.3	-44.5	3.5	3.02e+01	0	30	104	217055232	44	16142
2026-01-17 01:52:13.05	137.76	53.80	-40.5	-51.2	3.5	3.02e+01	0	30	104	217055232	56	17658
2026-01-17 01:52:14.06	137.49	54.22	-48.4	-66.1	3.5	3.02e+01	0	30	104	217055232	60	77493
2026-01-17 01:52:15.07	137.21	54.65	-42.0	-52.9	3.5	3.02e+01	0	30	104	217055232	52	27035
2026-01-17 01:52:16.08	136.92	55.08	-47.5	-62.1	3.5	3.02e+01	0	30	104	217055232	60	49145
2026-01-17 01:52:17.09	136.62	55.51	-46.7	-60.1	3.6	3.02e+01	0	30	104	217055232	60	38885
2026-01-17 01:52:18.10	136.32	55.95	-39.3	-49.8	3.5	3.02e+01	0	30	104	217055232	54	16856
2026-01-17 01:52:19.11	136.00	56.38	-39.0	-49.5	3.6	3.02e+01	0	30	104	217055232	54	16251
2026-01-17 01:52:20.12	135.67	56.82	-37.4	-47.8	3.5	3.02e+01	0	30	104	217055232	50	16776
2026-01-17 01:52:21.12	135.34	57.26	-36.4	-46.7	3.5	3.02e+01	0	30	104	217055232	48	16565
2026-01-17 01:52:22.13	134.99	57.71	-37.4	-47.8	3.5	3.02e+01	0	30	104	217055232	48	18799
2026-01-17 01:52:23.14	134.63	58.16	-43.9	-55.4	3.5	3.02e+01	0	30	104	217055232	60	22641
2026-01-17 01:52:24.16	134.25	58.61	-48.2	-65.3	3.5	3.02e+01	0	30	104	217055232	60	70460
2026-01-17 01:52:25.17	133.87	59.06	-46.9	-60.6	3.6	3.02e+01	0	30	104	217055232	60	41391
2026-01-17 01:52:26.17	133.47	59.51	-47.2	-61.4	3.5	3.02e+01	0	30	104	217055232	60	45376
2026-01-17 01:52:27.18	133.06	59.97	-39.2	-49.8	3.5	3.02e+01	0	30	104	217055232	52	18939
2026-01-17 01:52:28.19	132.63	60.43	-38.4	-48.7	3.5	3.02e+01	0	30	104	217055232	52	16659
2026-01-17 01:52:29.20	132.18	60.89	-37.7	-48.1	3.5	3.02e+01	0	30	104	217055232	50	17446
2026-01-17 01:52:30.21	131.72	61.36	-36.6	-46.9	3.5	3.02e+01	0	30	104	217055232	48	16992
2026-01-17 01:52:31.22	131.24	61.82	-41.3	-52.2	3.5	3.02e+01	0	30	104	217055232	60	15610
2026-01-17 01:52:32.23	130.74	62.29	-44.7	-56.5	3.6	3.02e+01	0	30	104	217055232	60	25849
2026-01-17 01:52:33.24	130.22	62.75	-47.0	-61.6	3.5	3.02e+01	0	30	104	217055232	60	46472
2026-01-17 01:52:34.25	129.69	63.22	-47.9	-64.4	3.6	3.02e+01	0	30	104	217055232	60	63572
2026-01-17 01:52:35.26	129.12	63.69	-45.6	-58.2	3.6	3.02e+01	0	30	104	217055232	60	31434
2026-01-17 01:52:36.27	128.54	64.16	-40.1	-50.7	3.6	3.02e+01	0	30	104	217055232	52	21002
2026-01-17 01:52:37.28	127.93	64.64	-39.7	-50.4	3.5	3.02e+01	0	30	104	217055232	54	18044
2026-01-17 01:52:38.29	127.30	65.11	-39.8	-50.4	3.5	3.02e+01	0	30	104	217055232	54	17980
2026-01-17 01:52:39.30	126.63	65.58	-39.8	-50.4	3.5	3.02e+01	0	30	104	217055232	54	18062
2026-01-17 01:52:40.31	125.94	66.05	-39.6	-50.2	3.5	3.02e+01	0	30	104	217055232	56	15614
2026-01-17 01:52:41.32	125.22	66.52	-42.0	-53.1	3.5	3.02e+01	0	30	104	217055232	60	17362
2026-01-17 01:52:42.33	124.46	66.99	-48.0	-64.4	3.5	3.02e+01	0	30	104	217055232	60	63527
2026-01-17 01:52:43.34	123.67	67.46	-46.2	-59.3	3.5	3.02e+01	0	30	104	217055232	60	35466
2026-01-17 01:52:44.35	122.85	67.93	-46.6	-60.2	3.6	3.02e+01	0	30	104	217055232	60	39174
2026-01-17 01:52:45.35	121.99	68.39	-41.5	-52.1	3.5	3.02e+01	0	30	104	217055232	58	17477
2026-01-17 01:52:46.36	121.08	68.85	-40.7	-51.7	3.5	3.02e+01	0	30	104	217055232	56	18592
2026-01-17 01:52:47.37	120.13	69.31	-39.3	-49.7	3.5	3.02e+01	0	30	104	217055232	54	16696
2026-01-17 01:52:48.38	119.13	69.77	-39.4	-49.9	3.5	3.02e+01	0	30	104	217055232	54	17086
2026-01-17 01:52:49.39	118.08	70.23	-43.6	-54.9	3.5	3.02e+01	0	30	104	217055232	60	21512
2026-01-17 01:52:50.40	116.98	70.67	-42.6	-53.9	3.5	3.02e+01	0	30	104	217055232	60	19154
2026-01-17 01:52:51.41	115.83	71.12	-47.6	-62.4	3.5	3.02e+01	0	30	104	217055232	60	50611
2026-01-17 01:52:52.42	114.61	71.56	-45.7	-58.5	3.5	3.02e+01	0	30	104	217055232	60	32229
2026-01-17 01:52:53.43	113.33	71.99	-46.5	-59.7	3.5	3.02e+01	0	30	104	217055232	60	37344
2026-01-17 01:52:54.44	111.99	72.41	-41.6	-52.2	3.5	3.02e+01	0	30	104	217055232	58	17661
2026-01-17 01:52:55.44	110.59	72.83	-41.9	-53.0	3.5	3.02e+01	0	30	104	217055232	58	19192
2026-01-17 01:52:56.45	109.10	73.24	-41.1	-51.9	3.6	3.02e+01	0	30	104	217055232	56	19037
2026-01-17 01:52:57.46	107.54	73.63	-40.3	-51.0	3.5	3.02e+01	0	30	104	217055232	56	17198
2026-01-17 01:52:58.47	105.89	74.02	-40.3	-50.9	3.7	3.02e+01	0	30	104	217055232	58	15092
2026-01-17 01:52:59.48	104.16	74.40	-39.6	-50.3	3.7	3.02e+01	0	30	104	217055232	60	12584
2026-01-17 01:53:00.49	102.35	74.76	-47.9	-63.6	3.5	3.02e+01	0	30	104	217055232	60	57925
2026-01-17 01:53:01.50	100.44	75.11	-42.0	-53.0	3.5	3.02e+01	0	30	104	217055232	60	17264
2026-01-17 01:53:02.50	98.46	75.43	-46.0	-58.6	3.6	3.02e+01	0	30	104	217055232	60	32787
2026-01-17 01:53:03.51	96.37	75.75	-43.3	-54.8	3.5	3.02e+01	0	30	104	217055232	60	21039
2026-01-17 01:53:04.53	94.16	76.05	-43.1	-54.3	3.5	3.02e+01	0	30	104	217055232	60	19992
2026-01-17 01:53:05.53	91.90	76.32	-42.6	-53.8	3.5	3.02e+01	0	30	104	217055232	60	18831
2026-01-17 01:53:06.54	89.52	76.57	-42.6	-53.7	3.5	3.02e+01	0	30	104	217055232	58	20805
2026-01-17 01:53:07.55	87.05	76.81	-43.4	-55.0	3.5	3.02e+01	0	30	104	217055232	60	21549
2026-01-17 01:53:08.56	84.50	77.01	-37.9	-48.1	3.5	3.02e+01	0	30	104	217055232	52	15492
2026-01-17 01:53:09.57	81.87	77.19	-47.8	-63.0	3.5	3.02e+01	0	30	104	217055232	60	54110
2026-01-17 01:53:10.57	79.19	77.35	-40.2	-50.8	3.5	3.02e+01	0	30	104	217055232	60	13279
2026-01-17 01:53:11.58	76.42	77.48	-42.6	-53.7	3.6	3.02e+01	0	30	104	217055232	60	18636
2026-01-17 01:53:12.59	73.60	77.57	-39.7	-50.4	3.5	3.02e+01	0	30	104	217055232	54	17915
2026-01-17 01:53:13.60	70.75	77.64	-39.9	-50.4	3.5	3.02e+01	0	30	104	217055232	54	17923
2026-01-17 01:53:14.61	67.87	77.68	-39.7	-50.3	3.6	3.02e+01	0	30	104	217055232	54	17896
2026-01-17 01:53:15.62	64.97	77.69	-41.3	-52.2	3.5	3.02e+01	0	30	104	217055232	54	22105
2026-01-17 01:53:16.63	62.08	77.66	-39.5	-50.0	3.5	3.02e+01	0	30	104	217055232	58	13581
2026-01-17 01:53:17.64	59.21	77.61	-38.4	-48.9	3.5	3.02e+01	0	30	104	217055232	48	21412
2026-01-17 01:53:18.65	56.37	77.53	-47.5	-62.2	3.5	3.02e+01	0	30	104	217055232	60	49363
2026-01-17 01:53:19.66	53.58	77.41	-39.0	-49.3	3.5	3.02e+01	0	30	104	217055232	50	19915
2026-01-17 01:53:20.67	50.85	77.27	-40.2	-51.1	3.5	3.02e+01	0	30	104	217055232	56	17433
2026-01-17 01:53:21.68	48.18	77.10	-38.3	-48.8	3.5	3.02e+01	0	30	104	217055232	52	16771
2026-01-17 01:53:22.69	45.59	76.91	-37.6	-48.2	3.5	3.02e+01	0	30	104	217055232	50	17503
2026-01-17 01:53:23.69	43.10	76.69	-37.6	-47.9	3.5	3.02e+01	0	30	104	217055232	50	16913
2026-01-17 01:53:24.70	40.69	76.45	-41.1	-52.1	3.5	3.02e+01	0	30	104	217055232	54	21788
2026-01-17 01:53:25.71	38.36	76.18	-44.2	-55.7	3.5	3.02e+01	0	30	104	217055232	58	26235
2026-01-17 01:53:26.72	36.13	75.90	-43.9	-55.1	3.5	3.02e+01	0	30	104	217055232	54	30899
2026-01-17 01:53:27.73	33.99	75.59	-48.5	-66.0	3.5	3.02e+01	0	30	104	217055232	60	76715
2026-01-17 01:53:28.74	31.94	75.27	-40.5	-51.0	3.5	3.02e+01	0	30	104	217055232	56	17198
2026-01-17 01:53:29.75	29.99	74.93	-42.1	-53.0	3.5	3.02e+01	0	30	104	217055232	60	17122
2026-01-17 01:53:30.76	28.14	74.57	-41.8	-52.7	3.5	3.02e+01	0	30	104	217055232	58	18591
2026-01-17 01:53:31.77	26.37	74.20	-41.8	-52.6	3.5	3.02e+01	0	30	104	217055232	58	18498
2026-01-17 01:53:32.77	24.70	73.83	-41.5	-52.9	3.5	3.02e+01	0	30	104	217055232	58	19022
2026-01-17 01:53:33.79	23.08	73.43	-44.3	-55.9	3.5	3.02e+01	0	30	104	217055232	60	24142
2026-01-17 01:53:34.80	21.56	73.03	-41.0	-51.1	3.5	3.02e+01	0	30	104	217055232	54	19578
2026-01-17 01:53:35.81	20.11	72.62	-48.4	-66.1	3.5	3.02e+01	0	30	104	217055232	60	77597
2026-01-17 01:53:36.81	18.75	72.20	-48.0	-64.6	3.5	3.02e+01	0	30	104	217055232	60	65587
2026-01-17 01:53:37.83	17.43	71.77	-44.2	-55.5	3.7	3.02e+01	0	30	104	217055232	58	25672
2026-01-17 01:53:38.83	16.20	71.34	-43.0	-54.3	3.5	3.02e+01	0	30	104	217055232	60	19899
2026-01-17 01:53:39.84	15.02	70.89	-41.9	-53.1	3.6	3.02e+01	0	30	104	217055232	58	19606
2026-01-17 01:53:40.85	13.89	70.45	-41.1	-51.3	3.5	3.02e+01	0	30	104	217055232	58	15915
2026-01-17 01:53:41.86	12.82	70.00	-41.3	-52.4	3.5	3.02e+01	0	30	104	217055232	56	20161
2026-01-17 01:53:42.87	11.80	69.54	-46.9	-60.9	3.5	3.02e+01	0	30	104	217055232	60	42558
2026-01-17 01:53:43.88	10.82	69.08	-47.4	-62.2	3.5	3.02e+01	0	30	104	217055232	60	49753
2026-01-17 01:53:44.89	9.90	68.62	-48.0	-64.3	3.5	3.02e+01	0	30	104	217055232	60	63198
2026-01-17 01:53:45.90	9.01	68.16	-48.6	-66.4	3.5	3.02e+01	0	30	104	217055232	60	80015
2026-01-17 01:53:46.91	8.17	67.69	-42.7	-54.2	3.5	3.02e+01	0	30	104	217055232	56	24911
2026-01-17 01:53:47.92	7.36	67.23	-40.8	-51.5	3.5	3.02e+01	0	30	104	217055232	58	16174
2026-01-17 01:53:48.93	6.59	66.76	-39.9	-50.1	3.5	3.02e+01	0	30	104	217055232	56	15579
2026-01-17 01:53:49.94	5.85	66.29	-39.6	-50.3	3.5	3.02e+01	0	30	104	217055232	54	17801
2026-01-17 01:53:50.95	5.15	65.82	-39.2	-49.8	3.5	3.02e+01	0	30	104	217055232	54	16758
2026-01-17 01:53:51.96	4.47	65.35	-48.0	-64.3	3.5	3.02e+01	0	30	104	217055232	60	63205
2026-01-17 01:53:52.96	3.83	64.88	-40.7	-51.0	3.4	3.02e+01	0	30	104	217055232	52	21704
2026-01-17 01:53:53.97	3.21	64.41	-48.4	-66.2	3.5	3.02e+01	0	30	104	217055232	60	78892
2026-01-17 01:53:54.98	2.61	63.94	-48.0	-64.5	3.5	3.02e+01	0	30	104	217055232	60	64684
2026-01-17 01:53:55.99	2.04	63.47	-47.8	-63.7	3.5	3.02e+01	0	30	104	217055232	60	58925
2026-01-17 01:53:57.01	1.49	63.00	-43.8	-54.9	3.5	3.02e+01	0	30	104	217055232	60	21513
2026-01-17 01:53:58.02	0.96	62.53	-43.1	-54.6	3.5	3.02e+01	0	30	104	217055232	60	20574
2026-01-17 01:53:59.02	0.46	62.07	-43.3	-54.7	3.5	3.02e+01	0	30	104	217055232	60	20793
2026-01-17 01:54:00.03	359.97	61.60	-41.5	-52.7	3.5	3.02e+01	0	30	104	217055232	58	18722
2026-01-17 01:54:01.04	359.50	61.14	-48.4	-66.1	3.5	3.02e+01	0	30	104	217055232	60	77931
2026-01-17 01:54:02.05	359.05	60.68	-45.8	-58.4	3.5	3.02e+01	0	30	104	217055232	60	32160
2026-01-17 01:54:03.06	358.61	60.22	-47.7	-63.2	3.5	3.02e+01	0	30	104	217055232	60	55488
2026-01-17 01:54:04.07	358.19	59.76	-48.3	-65.6	3.5	3.02e+01	0	30	104	217055232	60	73610
2026-01-17 01:54:05.08	357.78	59.31	-43.8	-55.8	3.5	3.02e+01	0	30	104	217055232	58	26504
2026-01-17 01:54:06.09	357.39	58.86	-39.3	-49.8	3.5	3.02e+01	0	30	104	217055232	54	16861
2026-01-17 01:54:07.10	357.01	58.40	-37.9	-48.0	3.5	3.02e+01	0	30	104	217055232	52	15312
2026-01-17 01:54:08.11	356.64	57.96	-36.2	-46.2	3.5	3.02e+01	0	30	104	217055232	48	15663
2026-01-17 01:54:09.12	356.29	57.51	-35.3	-45.7	3.5	3.02e+01	0	30	104	217055232	46	16592
2026-01-17 01:54:10.13	355.95	57.07	-42.1	-53.4	3.5	3.02e+01	0	30	104	217055232	58	20150
2026-01-17 01:54:11.14	355.62	56.63	-40.4	-51.1	3.5	3.02e+01	0	30	104	217055232	52	21796
2026-01-17 01:54:12.15	355.30	56.19	-48.4	-66.2	3.5	3.02e+01	0	30	104	217055232	60	78222
2026-01-17 01:54:13.15	354.99	55.76	-47.3	-61.6	3.5	3.02e+01	0	30	104	217055232	60	46318
2026-01-17 01:54:14.16	354.69	55.33	-42.5	-53.5	3.5	3.02e+01	0	30	104	217055232	60	18132
2026-01-17 01:54:15.17	354.40	54.90	-35.2	-45.7	3.5	3.02e+01	0	30	104	217055232	46	16701
2026-01-17 01:54:16.18	354.11	54.47	-35.5	-45.9	3.5	3.02e+01	0	30	104	217055232	46	17052
2026-01-17 01:54:17.19	353.84	54.05	-34.1	-44.1	3.5	3.02e+01	0	30	104	217055232	44	15581
2026-01-17 01:54:18.20	353.57	53.63	-33.6	-43.8	3.5	3.02e+01	0	30	104	217055232	42	16723
2026-01-17 01:54:19.21	353.32	53.21	-35.6	-45.8	3.5	3.02e+01	0	30	104	217055232	46	16729
2026-01-17 01:54:20.22	353.06	52.79	-38.8	-49.2	3.5	3.02e+01	0	30	104	217055232	52	17568
2026-01-17 01:54:21.23	352.82	52.38	-48.3	-66.0	3.5	3.02e+01	0	30	104	217055232	60	77066
2026-01-17 01:54:22.24	352.58	51.97	-47.2	-61.7	3.5	3.02e+01	0	30	104	217055232	60	46925
2026-01-17 01:54:23.25	352.35	51.57	-46.0	-58.8	3.5	3.02e+01	0	30	104	217055232	60	33635
2026-01-17 01:54:24.26	352.13	51.17	-42.0	-53.1	3.6	3.02e+01	0	30	104	217055232	60	17406
2026-01-17 01:54:25.27	351.91	50.77	-41.6	-52.5	3.5	3.02e+01	0	30	104	217055232	58	18265
2026-01-17 01:54:26.28	351.70	50.37	-38.7	-49.2	3.5	3.02e+01	0	30	104	217055232	54	15599
2026-01-17 01:54:27.29	351.49	49.98	-37.2	-47.6	3.5	3.02e+01	0	30	104	217055232	50	16437
2026-01-17 01:54:28.30	351.29	49.59	-38.9	-49.6	3.5	3.02e+01	0	29	104	217055232	54	16440
2026-01-17 01:54:29.31	351.09	49.20	-38.8	-49.6	3.5	3.02e+01	0	30	104	217055232	56	14608
2026-01-17 01:54:30.31	350.91	48.82	-47.2	-62.0	3.5	3.02e+01	0	29	104	217055232	60	48191
2026-01-17 01:54:31.32	350.72	48.44	-47.2	-62.1	3.5	3.02e+01	0	30	104	217055232	60	48877
2026-01-17 01:54:32.33	350.54	48.06	-42.8	-54.0	3.5	3.02e+01	0	30	104	217055232	60	19235
2026-01-17 01:54:33.34	350.36	47.69	-39.2	-49.5	3.5	3.02e+01	0	30	104	217055232	52	18194
2026-01-17 01:54:34.35	350.19	47.32	-38.6	-48.8	3.5	3.02e+01	0	29	104	217055232	52	16885
2026-01-17 01:54:35.36	350.02	46.95	-36.9	-47.5	3.5	3.02e+01	0	30	104	217055232	50	16140
2026-01-17 01:54:36.37	349.86	46.59	-35.4	-45.9	3.5	3.02e+01	0	30	104	217055232	46	17012
2026-01-17 01:54:37.38	349.69	46.22	-34.7	-45.1	3.5	3.02e+01	0	29	104	217055232	44	17307
2026-01-17 01:54:38.39	349.54	45.87	-36.0	-46.4	3.5	3.02e+01	0	30	104	217055232	50	14242
2026-01-17 01:54:39.40	349.38	45.51	-47.9	-64.3	3.5	3.02e+01	0	29	104	217055232	60	63498
2026-01-17 01:54:40.41	349.24	45.16	-43.0	-54.2	3.6	3.02e+01	0	29	104	217055232	60	19627
2026-01-17 01:54:41.42	349.09	44.81	-40.4	-50.9	3.5	3.02e+01	0	30	104	217055232	56	17085
2026-01-17 01:54:42.43	348.95	44.46	-36.4	-46.5	3.5	3.02e+01	0	30	104	217055232	48	16245
2026-01-17 01:54:43.44	348.81	44.12	-35.2	-45.5	3.5	3.02e+01	0	30	104	217055232	46	16166
2026-01-17 01:54:44.44	348.67	43.78	-34.8	-45.0	3.5	3.02e+01	0	29	104	217055232	44	17286
2026-01-17 01:54:45.45	348.54	43.44	-35.2	-45.6	3.5	3.02e+01	0	29	104	217055232	44	18420
2026-01-17 01:54:46.46	348.41	43.11	-37.1	-47.4	3.5	3.02e+01	0	30	104	217055232	50	16062
2026-01-17 01:54:47.47	348.28	42.78	-36.0	-46.4	3.5	3.02e+01	0	29	104	217055232	50	14311
2026-01-17 01:54:48.48	348.15	42.45	-47.9	-64.0	3.5	3.02e+01	0	29	104	217055232	60	61018
2026-01-17 01:54:49.49	348.03	42.12	-38.4	-48.8	3.6	3.02e+01	0	29	104	217055232	58	11917
2026-01-17 01:54:50.50	347.91	41.80	-41.5	-52.3	3.5	3.02e+01	0	29	104	217055232	60	15842
2026-01-17 01:54:51.51	347.79	41.48	-38.5	-48.9	3.5	3.02e+01	0	29	104	217055232	52	17091
2026-01-17 01:54:52.52	347.68	41.16	-37.3	-47.8	3.5	3.02e+01	0	29	104	217055232	50	16710
2026-01-17 01:54:53.53	347.57	40.85	-36.9	-47.5	3.5	3.02e+01	0	29	104	217055232	48	18110
2026-01-17 01:54:54.53	347.46	40.54	-37.1	-47.5	3.5	3.02e+01	0	29	104	217055232	48	18261
2026-01-17 01:54:55.54	347.35	40.23	-40.0	-50.5	3.5	3.02e+01	0	29	104	217055232	52	20411
2026-01-17 01:54:56.55	347.24	39.92	-38.4	-48.7	3.5	3.02e+01	0	29	104	217055232	52	16682
2026-01-17 01:54:57.56	347.14	39.62	-47.3	-62.3	3.5	3.02e+01	0	29	104	217055232	60	49870
2026-01-17 01:54:58.57	347.04	39.32	-41.2	-52.2	3.5	3.02e+01	0	29	104	217055232	60	15743
2026-01-17 01:54:59.58	346.93	39.02	-42.0	-53.1	3.5	3.02e+01	0	29	104	217055232	60	17462
2026-01-17 01:55:00.59	346.84	38.72	-40.2	-50.9	3.5	3.02e+01	0	29	104	217055232	56	16999
2026-01-17 01:55:01.60	346.74	38.43	-39.3	-49.8	3.5	3.02e+01	0	29	104	217055232	54	16810
2026-01-17 01:55:02.61	346.65	38.14	-38.1	-48.5	3.5	3.02e+01	0	29	104	217055232	52	16159
2026-01-17 01:55:03.62	346.55	37.85	-37.0	-47.4	3.5	3.02e+01	0	29	104	217055232	50	15954
2026-01-17 01:55:04.63	346.46	37.56	-37.1	-47.6	3.5	3.02e+01	0	29	104	217055232	48	18421
2026-01-17 01:55:05.63	346.37	37.28	-38.5	-49.1	3.5	3.02e+01	0	29	104	217055232	48	21798
2026-01-17 01:55:06.65	346.29	37.00	-46.6	-60.2	3.5	3.02e+01	0	29	104	217055232	60	39178
2026-01-17 01:55:07.66	346.20	36.72	-38.1	-48.6	3.5	3.02e+01	0	29	104	217055232	50	18349
2026-01-17 01:55:08.67	346.11	36.44	-38.6	-49.3	3.5	3.02e+01	0	29	104	217055232	54	15821
2026-01-17 01:55:09.67	346.03	36.17	-36.8	-47.3	3.5	3.02e+01	0	29	104	217055232	50	15805
2026-01-17 01:55:10.68	345.95	35.90	-35.6	-46.0	3.5	3.02e+01	0	29	104	217055232	46	17214
2026-01-17 01:55:11.69	345.87	35.63	-35.2	-45.4	3.5	3.02e+01	0	29	104	217055232	46	16043
2026-01-17 01:55:12.70	345.79	35.37	-35.7	-45.8	3.5	3.02e+01	0	29	104	217055232	46	16775
2026-01-17 01:55:13.71	345.71	35.10	-37.4	-47.7	3.5	3.02e+01	0	29	104	217055232	48	18724
2026-01-17 01:55:14.72	345.64	34.84	-44.3	-56.1	3.5	3.02e+01	0	29	104	217055232	52	39127
2026-01-17 01:55:15.73	345.56	34.58	-46.0	-58.8	3.5	3.02e+01	0	29	104	217055232	60	33499
2026-01-17 01:55:16.74	345.49	34.32	-37.5	-47.8	3.5	3.02e+01	0	29	104	217055232	48	18809
2026-01-17 01:55:17.74	345.42	34.07	-39.0	-49.4	3.5	3.02e+01	0	29	104	217055232	54	16089
2026-01-17 01:55:18.75	345.35	33.82	-36.8	-47.1	3.5	3.02e+01	0	29	104	217055232	50	15493
2026-01-17 01:55:19.76	345.28	33.57	-35.7	-45.9	3.5	3.02e+01	0	29	104	217055232	46	17084
2026-01-17 01:55:20.77	345.21	33.32	-35.3	-45.6	3.6	3.02e+01	0	29	104	217055232	46	16489
2026-01-17 01:55:21.78	345.14	33.07	-34.2	-44.6	3.5	3.02e+01	0	29	104	217055232	44	16381
2026-01-17 01:55:22.79	345.08	32.83	-41.8	-53.0	3.5	3.02e+01	0	29	104	217055232	54	24226
2026-01-17 01:55:23.80	345.01	32.59	-44.0	-55.9	3.6	3.02e+01	0	29	104	217055232	56	30185
2026-01-17 01:55:24.81	344.95	32.34	-47.8	-64.1	3.5	3.02e+01	0	29	104	217055232	60	61802
2026-01-17 01:55:25.82	344.88	32.11	-37.4	-47.8	3.6	3.02e+01	0	29	104	217055232	46	21227
2026-01-17 01:55:26.83	344.82	31.87	-37.7	-48.2	3.4	3.02e+01	0	29	104	217055232	52	15625
2026-01-17 01:55:27.84	344.76	31.64	-37.7	-48.2	3.5	3.02e+01	0	29	104	217055232	50	17643
2026-01-17 01:55:28.84	344.70	31.40	-36.8	-47.3	3.5	3.02e+01	0	29	104	217055232	48	17802
2026-01-17 01:55:29.86	344.64	31.17	-36.7	-47.1	3.5	3.02e+01	0	29	104	217055232	48	17384
2026-01-17 01:55:30.86	344.58	30.95	-34.6	-44.7	3.5	3.02e+01	0	29	104	217055232	44	16605
2026-01-17 01:55:31.88	344.52	30.72	-37.1	-47.2	3.5	3.02e+01	0	29	104	217055232	46	19767
2026-01-17 01:55:32.88	344.47	30.49	-48.1	-64.9	3.5	3.02e+01	0	29	104	217055232	60	67467
2026-01-17 01:55:33.89	344.41	30.27	-45.8	-58.2	3.5	3.02e+01	0	29	104	217055232	60	31432
2026-01-17 01:55:34.90	344.36	30.05	-40.4	-50.9	3.5	3.02e+01	0	29	104	217055232	50	24001
2026-01-17 01:55:35.91	344.30	29.83	-35.9	-46.0	3.5	3.02e+01	0	29	104	217055232	48	15304
2026-01-17 01:55:36.92	344.25	29.61	-34.7	-44.8	3.5	3.02e+01	0	29	104	217055232	44	16710
2026-01-17 01:55:37.93	344.20	29.40	-33.9	-44.0	3.5	3.02e+01	0	29	104	217055232	44	15273
2026-01-17 01:55:38.94	344.14	29.18	-33.9	-44.1	3.5	3.02e+01	0	29	104	217055232	42	17364
2026-01-17 01:55:39.95	344.09	28.97	-38.0	-48.5	3.5	3.02e+01	0	29	104	217055232	50	18159
2026-01-17 01:55:40.96	344.04	28.76	-38.4	-49.0	3.6	3.02e+01	0	29	104	217055232	48	21721
2026-01-17 01:55:41.96	343.99	28.55	-48.1	-65.1	3.5	3.02e+01	0	29	104	217055232	60	69242
2026-01-17 01:55:42.97	343.94	28.34	-45.9	-58.7	3.5	3.02e+01	0	29	104	217055232	60	33277
2026-01-17 01:55:43.98	343.90	28.14	-41.2	-52.3	3.4	3.02e+01	0	29	104	217055232	52	25217
2026-01-17 01:55:44.99	343.85	27.93	-37.7	-48.3	3.5	3.02e+01	0	29	104	217055232	52	15852
2026-01-17 01:55:46.00	343.80	27.73	-38.0	-48.6	3.5	3.02e+01	0	29	104	217055232	50	18389
2026-01-17 01:55:47.00	343.76	27.53	-36.8	-47.1	3.6	3.02e+01	0	29	104	217055232	48	17375
2026-01-17 01:55:48.01	343.71	27.33	-35.7	-37.3	5.3	3.02e+01	0	29	104	217055232	46	6299
2026-01-17 01:55:49.02	343.67	27.13	-39.1	-40.7	24.6	3.02e+01	60	29	0	217055232	50	7456
2026-01-17 01:55:50.03	343.62	26.94	-43.8	-46.7	19.1	3.02e+01	59	29	0	218628096	60	8317
2026-01-17 01:55:51.04	343.58	26.74	-46.0	-50.8	13.9	3.02e+01	63	29	0	220725248	60	13307
2026-01-17 01:55:52.05	343.53	26.55	-47.9	-58.2	7.0	3.02e+01	90	29	0	222822400	60	31237
2026-01-17 01:55:53.06	343.49	26.36	-40.3	-42.1	22.4	3.02e+01	53	29	0	224395264	52	7766
2026-01-17 01:55:54.07	343.45	26.16	-37.7	-39.1	26.2	3.02e+01	62	29	0	226492416	50	6177
2026-01-17 01:55:55.07	343.41	25.98	-37.5	-38.9	26.7	3.02e+01	64	29	0	228065280	50	6025
2026-01-17 01:55:56.08	343.37	25.79	-36.1	-37.4	27.8	3.02e+01	50	29	0	230162432	48	5715
2026-01-17 01:55:57.09	343.33	25.60	-35.8	-37.1	28.0	3.02e+01	57	29	0	232259584	46	6174
2026-01-17 01:55:58.10	343.29	25.42	-35.4	-36.7	28.4	3.02e+01	60	29	0	233832448	46	5876
2026-01-17 01:55:59.11	343.25	25.23	-35.7	-37.0	28.2	3.02e+01	57	29	0	235929600	46	6089
2026-01-17 01:56:00.12	343.21	25.05	-34.8	-36.0	29.0	3.02e+01	62	29	0	237502464	44	6098
2026-01-17 01:56:01.12	343.17	24.87	-34.3	-35.5	29.4	3.02e+01	53	29	0	239599616	44	5769
2026-01-17 01:56:02.13	343.14	24.69	-34.3	-35.5	29.5	3.02e+01	58	29	0	241172480	44	5762
2026-01-17 01:56:03.14	343.10	24.51	-34.4	-35.6	29.3	3.02e+01	59	29	0	243269632	44	5848
2026-01-17 01:56:04.15	343.06	24.34	-34.3	-35.5	29.4	3.02e+01	47	29	0	245366784	44	5788
2026-01-17 01:56:05.16	343.03	24.16	-34.3	-35.5	29.5	3.02e+01	59	29	0	246939648	44	5737
2026-01-17 01:56:06.17	342.99	23.99	-34.4	-35.6	29.4	3.02e+01	60	29	0	249036800	44	5806
2026-01-17 01:56:07.18	342.95	23.81	-34.5	-35.7	29.2	3.02e+01	59	29	0	251133952	44	5922
2026-01-17 01:56:08.19	342.92	23.64	-34.6	-35.8	29.3	3.02e+01	60	29	0	252706816	44	5949
2026-01-17 01:56:09.20	342.89	23.47	-34.5	-35.7	29.3	3.02e+01	53	29	0	254803968	44	5875
2026-01-17 01:56:10.21	342.85	23.30	-34.4	-35.6	29.3	3.02e+01	59	29	0	256376832	44	5851
2026-01-17 01:56:11.22	342.82	23.13	-34.7	-35.9	29.2	3.02e+01	59	29	0	258473984	44	6017
2026-01-17 01:56:12.23	342.78	22.97	-34.6	-35.8	29.2	3.02e+01	59	29	0	260571136	44	5973
2026-01-17 01:56:13.24	342.75	22.80	-34.6	-35.8	29.2	3.02e+01	59	29	0	262144000	44	5944
2026-01-17 01:56:14.25	342.72	22.63	-34.8	-36.0	28.9	3.02e+01	46	29	0	264241152	44	6124
2026-01-17 01:56:15.25	342.69	22.47	-34.6	-35.8	29.1	3.02e+01	60	29	0	265814016	44	5951
2026-01-17 01:56:16.26	342.66	22.31	-34.7	-36.0	29.1	3.02e+01	58	29	0	267911168	44	6069
2026-01-17 01:56:17.27	342.63	22.15	-34.6	-35.8	29.2	3.02e+01	45	29	0	270008320	44	5980
2026-01-17 01:56:18.28	342.59	21.99	-34.6	-35.8	29.1	3.02e+01	61	29	0	271581184	44	5989
2026-01-17 01:56:19.29	342.56	21.83	-34.5	-35.7	29.2	3.02e+01	59	29	0	273678336	44	5913
2026-01-17 01:56:20.30	342.53	21.67	-34.5	-35.8	29.1	3.02e+01	63	29	0	275775488	44	5930
2026-01-17 01:56:21.31	342.50	21.51	-34.5	-35.7	29.2	3.02e+01	54	29	0	277348352	44	5898
2026-01-17 01:56:22.32	342.48	21.36	-34.6	-35.8	29.1	3.02e+01	55	29	0	279445504	44	5972
2026-01-17 01:56:23.33	342.45	21.20	-34.7	-35.9	29.0	3.02e+01	59	29	0	281018368	44	6021
2026-01-17 01:56:24.34	342.42	21.05	-34.5	-35.8	29.2	3.02e+01	53	29	0	283115520	44	5934
2026-01-17 01:56:25.35	342.39	20.89	-34.4	-35.6	29.3	3.02e+01	44	29	0	285212672	44	5847
2026-01-17 01:56:26.36	342.36	20.74	-34.5	-35.7	29.2	3.02e+01	60	29	0	286785536	44	5876
2026-01-17 01:56:27.36	342.33	20.59	-34.3	-35.5	29.4	3.02e+01	59	29	0	288882688	44	5730
2026-01-17 01:56:28.37	342.31	20.44	-34.2	-35.4	29.4	3.02e+01	61	29	0	290455552	44	5719
2026-01-17 01:56:29.38	342.28	20.29	-34.3	-35.5	29.3	3.02e+01	57	29	0	292552704	44	5744
2026-01-17 01:56:30.39	342.25	20.15	-34.1	-35.3	29.6	3.02e+01	55	29	0	294649856	44	5633
2026-01-17 01:56:31.41	342.23	20.00	-34.1	-35.3	29.6	3.02e+01	59	29	0	296222720	44	5617
2026-01-17 01:56:32.41	342.20	19.85	-34.1	-35.2	29.5	3.02e+01	57	29	0	298319872	44	5588
2026-01-17 01:56:33.42	342.18	19.71	-34.1	-35.2	29.6	3.02e+01	48	29	0	299892736	44	5592
2026-01-17 01:56:34.43	342.15	19.56	-34.2	-35.3	29.5	3.02e+01	57	29	0	301989888	44	5657
2026-01-17 01:56:35.44	342.13	19.42	-34.1	-35.3	29.6	3.02e+01	57	29	0	304087040	44	5624
2026-01-17 01:56:36.44	342.10	19.28	-34.2	-35.4	29.6	3.02e+01	60	29	0	305659904	44	5670
2026-01-17 01:56:37.46	342.08	19.13	-34.1	-35.3	29.5	3.02e+01	62	29	0	307757056	44	5652
2026-01-17 01:56:38.46	342.05	18.99	-34.1	-35.4	29.5	3.02e+01	51	29	0	309329920	44	5661
2026-01-17 01:56:39.47	342.03	18.85	-34.3	-35.5	29.5	3.02e+01	59	29	0	311427072	44	5737
2026-01-17 01:56:40.48	342.00	18.72	-34.2	-35.4	29.4	3.02e+01	59	29	0	313524224	44	5723
2026-01-17 01:56:41.48	341.98	18.58	-34.2	-35.5	29.5	3.02e+01	47	29	0	315097088	44	5727
2026-01-17 01:56:42.49	341.96	18.44	-34.2	-35.4	29.4	3.02e+01	60	29	0	317194240	44	5700
2026-01-17 01:56:43.50	341.93	18.30	-34.2	-35.4	29.4	3.02e+01	46	29	0	319291392	44	5717
2026-01-17 01:56:44.51	341.91	18.17	-34.4	-35.7	29.3	3.02e+01	60	29	0	320864256	44	5859
2026-01-17 01:56:45.52	341.89	18.03	-34.4	-35.7	29.2	3.02e+01	59	29	0	322961408	44	5872
2026-01-17 01:56:46.53	341.87	17.90	-34.4	-35.7	29.2	3.02e+01	46	29	0	324534272	44	5867
2026-01-17 01:56:47.53	341.85	17.77	-34.5	-35.8	29.2	3.02e+01	57	29	0	326631424	44	5941
2026-01-17 01:56:48.55	341.82	17.63	-34.5	-35.8	29.1	3.02e+01	58	29	0	328728576	44	5927
2026-01-17 01:56:49.55	341.80	17.50	-34.5	-35.8	29.2	3.02e+01	57	29	0	330301440	44	5934
2026-01-17 01:56:50.57	341.78	17.37	-34.6	-35.8	29.1	3.02e+01	59	29	0	332398592	44	5985
2026-01-17 01:56:51.57	341.76	17.24	-34.6	-35.8	29.1	3.02e+01	45	29	0	333971456	44	5982
2026-01-17 01:56:52.58	341.74	17.11	-34.5	-35.8	29.1	3.02e+01	59	29	0	336068608	44	5954
2026-01-17 01:56:53.59	341.72	16.98	-34.6	-35.8	29.1	3.02e+01	59	29	0	337641472	44	5965
2026-01-17 01:56:54.59	341.70	16.86	-34.7	-36.0	28.9	3.02e+01	45	29	0	339738624	44	6095
2026-01-17 01:56:55.60	341.68	16.73	-34.5	-35.7	29.1	3.02e+01	59	29	0	341835776	44	5911
2026-01-17 01:56:56.61	341.66	16.60	-34.5	-35.8	29.1	3.02e+01	58	29	0	343408640	44	5930
2026-01-17 01:56:57.61	341.64	16.48	-34.6	-35.8	29.0	3.02e+01	57	29	0	345505792	44	5976
2026-01-17 01:56:58.62	341.62	16.35	-34.5	-35.8	29.1	3.02e+01	60	29	0	347602944	44	5953
2026-01-17 01:56:59.63	341.60	16.23	-34.4	-35.7	29.1	3.02e+01	45	29	0	349175808	44	5884
2026-01-17 01:57:00.64	341.58	16.10	-34.6	-35.8	29.0	3.02e+01	58	29	0	351272960	44	5959
2026-01-17 01:57:01.65	341.56	15.98	-34.5	-35.7	29.1	3.02e+01	60	29	0	352845824	44	5921
2026-01-17 01:57:02.66	341.54	15.86	-34.5	-35.7	29.0	3.02e+01	49	29	0	354942976	44	5922
2026-01-17 01:57:03.67	341.53	15.74	-34.5	-35.7	29.0	3.02e+01	60	29	0	357040128	44	5925
2026-01-17 01:57:04.68	341.51	15.62	-34.4	-35.6	29.1	3.02e+01	58	29	0	358612992	44	5849
2026-01-17 01:57:05.69	341.49	15.50	-34.5	-35.7	29.0	3.02e+01	48	29	0	360710144	44	5918
2026-01-17 01:57:06.70	341.47	15.38	-34.5	-35.7	29.0	3.02e+01	61	29	0	362283008	44	5898
2026-01-17 01:57:07.71	341.45	15.26	-34.4	-35.7	29.0	3.02e+01	54	29	0	364380160	44	5860
2026-01-17 01:57:08.72	341.44	15.14	-34.4	-35.6	29.1	3.02e+01	58	29	0	366477312	44	5837
2026-01-17 01:57:09.73	341.42	15.02	-34.3	-35.5	29.0	3.02e+01	60	29	0	368050176	44	5790
2026-01-17 01:57:10.74	341.40	14.90	-34.3	-35.5	29.1	3.02e+01	51	29	0	370147328	44	5750
2026-01-17 01:57:11.75	341.39	14.79	-34.1	-35.3	29.2	3.02e+01	60	29	0	372244480	44	5656
2026-01-17 01:57:12.76	341.37	14.67	-34.2	-35.4	29.3	3.02e+01	59	29	0	373817344	44	5671
2026-01-17 01:57:13.76	341.35	14.56	-34.3	-35.5	29.2	3.02e+01	60	29	0	375914496	44	5773
2026-01-17 01:57:14.77	341.34	14.44	-34.2	-35.4	29.2	3.02e+01	59	29	0	377487360	44	5684
2026-01-17 01:57:15.78	341.32	14.33	-34.1	-35.3	29.2	3.02e+01	45	29	0	379584512	44	5652
2026-01-17 01:57:16.79	341.30	14.21	-34.2	-35.4	29.3	3.02e+01	62	29	0	381681664	44	5672
2026-01-17 01:57:17.80	341.29	14.10	-34.2	-35.4	29.2	3.02e+01	61	29	0	383254528	44	5707
2026-01-17 01:57:18.81	341.27	13.99	-34.1	-35.3	29.4	3.02e+01	46	29	0	385351680	44	5613
2026-01-17 01:57:19.82	341.26	13.88	-34.1	-35.3	29.3	3.02e+01	63	29	0	386924544	44	5651
2026-01-17 01:57:20.83	341.24	13.77	-34.2	-35.4	29.3	3.02e+01	54	29	0	389021696	44	5677
2026-01-17 01:57:21.83	341.23	13.66	-34.1	-35.3	29.3	3.02e+01	59	29	0	390594560	44	5642
2026-01-17 01:57:22.85	341.21	13.54	-34.0	-35.2	29.5	3.02e+01	59	29	0	392691712	42	6219
2026-01-17 01:57:23.85	341.19	13.44	-34.0	-35.2	29.4	3.02e+01	45	29	0	394788864	42	6263
2026-01-17 01:57:24.86	341.18	13.33	-34.2	-35.4	29.3	3.02e+01	52	29	0	396361728	42	6377
2026-01-17 01:57:25.87	341.17	13.22	-34.1	-35.3	29.4	3.02e+01	60	29	0	398458880	42	6328
2026-01-17 01:57:26.88	341.15	13.11	-34.1	-35.3	29.5	3.02e+01	57	29	0	400556032	42	6285
2026-01-17 01:57:27.89	341.14	13.00	-34.1	-35.3	29.4	3.02e+01	60	29	0	402128896	42	6321
2026-01-17 01:57:28.90	341.12	12.90	-34.3	-35.5	29.2	3.02e+01	45	29	0	404226048	42	6436
2026-01-17 01:57:29.91	341.11	12.79	-34.1	-35.3	29.4	3.02e+01	57	29	0	405798912	42	6326
2026-01-17 01:57:30.92	341.09	12.68	-34.3	-35.6	29.2	3.02e+01	59	29	0	407896064	42	6499
2026-01-17 01:57:31.93	341.08	12.58	-34.6	-35.8	29.0	3.02e+01	45	29	0	409993216	42	6669
2026-01-17 01:57:32.94	341.07	12.47	-34.6	-35.8	29.1	3.02e+01	58	29	0	411566080	42	6677
2026-01-17 01:57:33.95	341.05	12.37	-34.2	-35.4	29.2	3.02e+01	59	29	0	413663232	42	6422
2026-01-17 01:57:34.96	341.04	12.26	-34.5	-35.7	29.0	3.02e+01	60	29	0	415760384	42	6616
2026-01-17 01:57:35.97	341.03	12.16	-34.5	-35.8	28.9	3.02e+01	58	29	0	417333248	42	6674
2026-01-17 01:57:36.97	341.01	12.06	-34.4	-35.6	29.1	3.02e+01	50	29	0	419430400	42	6551
2026-01-17 01:57:37.98	341.00	11.96	-34.5	-35.8	29.0	3.02e+01	60	28	0	421003264	42	6652
2026-01-17 01:57:38.99	340.99	11.86	-34.6	-35.9	28.9	3.02e+01	59	28	0	423100416	42	6727
2026-01-17 01:57:40.01	340.97	11.75	-34.5	-35.7	29.1	3.02e+01	50	29	0	425197568	42	6623
2026-01-17 01:57:41.01	340.96	11.65	-34.7	-35.9	28.8	3.02e+01	58	29	0	426770432	42	6769
2026-01-17 01:57:42.02	340.95	11.55	-34.5	-35.7	29.0	3.02e+01	59	29	0	428867584	42	6631
2026-01-17 01:57:43.03	340.94	11.45	-34.7	-35.9	28.8	3.02e+01	59	29	0	430440448	42	6801
2026-01-17 01:57:44.04	340.92	11.35	-34.7	-35.9	28.8	3.02e+01	53	28	0	432537600	42	6781
2026-01-17 01:57:45.05	340.91	11.25	-34.5	-35.8	28.9	3.02e+01	46	29	0	434634752	42	6664
2026-01-17 01:57:46.06	340.90	11.15	-34.7	-35.9	28.8	3.02e+01	57	29	0	436207616	42	6786
2026-01-17 01:57:47.07	340.89	11.06	-34.8	-36.0	28.7	3.02e+01	60	28	0	438304768	42	6875
