passes_logs/2026/01/17/R4.6S_Anadyr/R4.6S_Anadyr__20260117_210501_NOAA_20_JPSS-1_rec.log

#Pass ID: 20260117_210501_NOAA 20 (JPSS-1)
#Satellite: NOAA 20 (JPSS-1)
#Configuration: NOAA 20
#almurnet v.1.7.20251203
#Start time: 2026-01-17 21:05:03

#Version: 2.2.20231116
#Station: R4.6S_Anadyr
#Location: 177.4865 lon 64.73178 lat
#TLE: 1 43013U 17073A   26016.52825843  .00000039  00000+0  39346-4 0  9991
#TLE: 2 43013  98.7637 317.4515 0001446  37.2648 322.8628 14.19536276422951

#Time	Az	El	Level	Level2	SNR	BER	BlckErr	Temp	State	Recorded	gain1	gain2
2026-01-17 21:05:03.50	82.85	0.10	-48.9	-63.8	3.6	1.51e+00	0	28	0	0	60	56043
2026-01-17 21:05:04.51	82.78	0.15	-49.1	-64.3	3.6	1.51e+00	0	29	104	0	60	59153
2026-01-17 21:05:05.52	82.72	0.20	-49.1	-64.3	3.6	1.51e+00	0	29	104	0	60	58996
2026-01-17 21:05:06.53	82.65	0.25	-48.9	-64.1	3.6	1.51e+00	0	30	104	0	60	58054
2026-01-17 21:05:07.54	82.58	0.30	-49.3	-64.5	3.6	1.51e+00	0	30	104	0	60	60480
2026-01-17 21:05:08.55	82.51	0.36	-49.2	-64.3	3.6	1.51e+00	0	30	104	0	60	59416
2026-01-17 21:05:09.56	82.45	0.41	-49.3	-64.4	3.6	1.51e+00	0	30	104	0	60	60317
2026-01-17 21:05:10.57	82.38	0.46	-48.9	-64.0	3.6	1.51e+00	0	30	104	0	60	57409
2026-01-17 21:05:11.58	82.31	0.51	-48.9	-64.1	3.6	1.51e+00	0	30	104	0	60	57721
2026-01-17 21:05:12.59	82.24	0.57	-48.8	-64.0	3.6	1.51e+00	0	30	104	0	60	57158
2026-01-17 21:05:13.60	82.17	0.62	-48.8	-64.0	3.6	1.51e+00	0	30	104	0	60	57187
2026-01-17 21:05:14.61	82.10	0.67	-48.8	-64.0	3.6	1.51e+00	0	30	104	0	60	57052
2026-01-17 21:05:15.62	82.04	0.72	-48.7	-63.9	3.6	1.51e+00	0	30	104	0	60	56399
2026-01-17 21:05:16.63	81.97	0.78	-48.6	-63.8	3.6	1.51e+00	0	30	104	0	60	56185
2026-01-17 21:05:17.64	81.90	0.83	-48.4	-63.6	3.6	1.51e+00	0	30	104	0	60	54936
2026-01-17 21:05:18.64	81.83	0.88	-48.3	-63.5	3.6	1.51e+00	0	30	104	0	60	53906
2026-01-17 21:05:19.66	81.76	0.94	-47.7	-63.2	3.6	1.51e+00	0	30	104	0	60	52156
2026-01-17 21:05:20.66	81.69	0.99	-47.4	-62.6	3.6	1.51e+00	0	30	104	0	60	48797
2026-01-17 21:05:21.68	81.61	1.04	-47.0	-62.2	3.6	1.51e+00	0	30	104	0	60	46728
2026-01-17 21:05:22.69	81.54	1.10	-46.9	-62.2	3.6	1.51e+00	0	30	104	0	60	46566
2026-01-17 21:05:23.70	81.47	1.15	-46.9	-62.1	3.6	1.51e+00	0	30	104	0	60	46191
2026-01-17 21:05:24.71	81.40	1.20	-46.9	-62.2	3.6	1.51e+00	0	30	104	0	60	46353
2026-01-17 21:05:25.72	81.33	1.26	-46.9	-62.2	3.6	1.51e+00	0	30	104	0	60	46380
2026-01-17 21:05:26.72	81.26	1.31	-46.9	-62.2	3.6	1.51e+00	0	30	104	0	60	46536
2026-01-17 21:05:27.73	81.19	1.36	-46.9	-62.2	3.6	1.51e+00	0	30	104	0	60	46496
2026-01-17 21:05:28.74	81.11	1.41	-46.9	-62.1	3.6	1.51e+00	0	30	104	0	60	46296
2026-01-17 21:05:29.75	81.04	1.47	-46.9	-62.2	3.6	1.51e+00	0	30	104	0	60	46605
2026-01-17 21:05:30.76	80.97	1.52	-46.9	-62.1	3.6	1.51e+00	0	30	104	0	60	46252
2026-01-17 21:05:31.77	80.89	1.58	-46.9	-62.1	3.6	1.51e+00	0	30	104	0	60	46263
2026-01-17 21:05:32.78	80.82	1.63	-46.9	-62.2	3.6	1.51e+00	0	30	104	0	60	46307
2026-01-17 21:05:33.79	80.75	1.68	-46.9	-62.2	3.6	1.51e+00	0	30	104	0	60	46619
2026-01-17 21:05:34.80	80.67	1.74	-46.9	-62.2	3.6	1.51e+00	0	30	104	0	60	46523
2026-01-17 21:05:35.81	80.60	1.79	-46.9	-62.2	3.6	1.51e+00	0	30	104	0	60	46709
2026-01-17 21:05:36.81	80.52	1.84	-46.9	-62.2	3.6	1.51e+00	0	30	104	0	60	46442
2026-01-17 21:05:37.83	80.45	1.90	-47.0	-62.1	3.6	1.51e+00	0	30	104	0	60	45929
2026-01-17 21:05:38.84	80.37	1.95	-46.9	-62.0	3.6	1.51e+00	0	30	104	0	60	45753
2026-01-17 21:05:39.85	80.29	2.01	-46.9	-61.7	3.6	1.51e+00	0	30	104	0	60	44033
2026-01-17 21:05:40.86	80.22	2.06	-46.9	-61.9	3.6	1.51e+00	0	30	104	0	60	44967
2026-01-17 21:05:41.87	80.14	2.12	-46.9	-61.8	3.6	1.51e+00	0	30	104	0	60	44574
2026-01-17 21:05:42.88	80.07	2.17	-46.9	-61.8	3.6	1.51e+00	0	30	104	0	60	44666
2026-01-17 21:05:43.89	79.99	2.22	-46.9	-61.8	3.6	1.51e+00	0	30	104	0	60	44554
2026-01-17 21:05:44.90	79.91	2.28	-46.9	-62.1	3.6	1.51e+00	0	30	104	0	60	45812
2026-01-17 21:05:45.91	79.83	2.33	-46.9	-62.2	3.6	1.51e+00	0	30	104	0	60	46445
2026-01-17 21:05:46.92	79.76	2.39	-46.9	-62.2	3.6	1.51e+00	0	30	104	0	60	46745
2026-01-17 21:05:47.93	79.68	2.44	-46.9	-62.2	3.6	1.51e+00	0	30	104	0	60	46422
2026-01-17 21:05:48.94	79.60	2.50	-46.9	-62.1	3.6	1.51e+00	0	30	104	0	60	46183
2026-01-17 21:05:49.95	79.52	2.55	-46.9	-62.2	3.6	1.51e+00	0	30	104	0	60	46413
2026-01-17 21:05:50.96	79.44	2.61	-46.9	-62.1	3.6	1.51e+00	0	30	104	0	60	46121
2026-01-17 21:05:51.97	79.36	2.66	-46.9	-61.9	3.6	1.51e+00	0	30	104	0	60	44779
2026-01-17 21:05:52.98	79.28	2.71	-46.9	-61.4	3.6	1.51e+00	0	30	104	0	60	42337
2026-01-17 21:05:53.99	79.20	2.77	-46.9	-61.1	3.6	1.51e+00	0	30	104	0	60	41067
2026-01-17 21:05:55.00	79.12	2.82	-46.9	-61.4	3.6	1.51e+00	0	30	104	0	60	42397
2026-01-17 21:05:56.01	79.04	2.88	-46.9	-61.9	3.6	1.51e+00	0	30	104	0	60	44850
2026-01-17 21:05:57.02	78.96	2.93	-46.8	-60.1	3.6	1.51e+00	0	30	104	0	60	36629
2026-01-17 21:05:58.03	78.88	2.99	-46.5	-55.4	5.2	1.03e+00	92	30	0	0	60	21190
2026-01-17 21:05:59.04	78.80	3.04	-45.9	-52.2	8.1	1.67e-01	90	30	0	2097152	60	14719
2026-01-17 21:06:00.05	78.72	3.10	-45.1	-49.8	11.2	2.39e-02	60	30	0	3145728	60	11113
2026-01-17 21:06:01.06	78.64	3.16	-44.6	-48.4	12.6	2.21e-04	90	30	0	5242880	60	9562
2026-01-17 21:06:02.07	78.55	3.21	-45.5	-50.7	10.0	1.49e-04	86	30	0	7340032	60	12369
2026-01-17 21:06:03.08	78.47	3.27	-44.3	-47.6	13.4	5.29e-03	92	30	0	8388608	60	8713
2026-01-17 21:06:04.09	78.39	3.32	-46.8	-62.1	3.6	1.75e-01	0	30	104	10485760	60	45771
2026-01-17 21:06:05.10	78.30	3.38	-47.0	-59.7	3.6	1.51e+00	0	30	104	10485760	60	34906
2026-01-17 21:06:06.11	78.22	3.43	-44.4	-48.3	12.3	1.49e+00	31	30	104	10485760	60	9406
2026-01-17 21:06:07.12	78.14	3.49	-44.1	-47.3	14.2	1.56e-04	0	30	0	10485760	60	8416
2026-01-17 21:06:08.13	78.05	3.54	-44.1	-47.4	13.6	2.20e-06	91	30	0	12582912	60	8491
2026-01-17 21:06:09.14	77.97	3.60	-43.6	-46.5	14.4	8.30e-06	0	30	0	14680064	60	7630
2026-01-17 21:06:10.15	77.88	3.65	-43.7	-46.5	14.7	0.00e+00	92	30	0	16777216	60	7670
2026-01-17 21:06:11.16	77.80	3.71	-43.6	-46.4	15.3	0.00e+00	92	30	0	17825792	60	7575
2026-01-17 21:06:12.16	77.71	3.77	-42.7	-45.0	16.5	0.00e+00	45	30	0	19922944	60	6419
2026-01-17 21:06:13.17	77.63	3.82	-41.7	-43.6	17.9	0.00e+00	92	30	0	22020096	58	6121
2026-01-17 21:06:14.18	77.54	3.88	-41.9	-43.8	17.7	0.00e+00	21	30	0	24117248	56	7019
2026-01-17 21:06:15.19	77.45	3.93	-41.7	-43.6	17.9	0.00e+00	92	30	0	26214400	56	6861
2026-01-17 21:06:16.20	77.37	3.99	-41.8	-43.6	17.9	0.00e+00	0	30	0	27262976	56	6910
2026-01-17 21:06:17.21	77.28	4.05	-42.1	-44.1	17.5	0.00e+00	92	30	0	29360128	56	7291
2026-01-17 21:06:18.23	77.19	4.10	-42.0	-43.9	17.6	0.00e+00	92	30	0	31457280	56	7144
2026-01-17 21:06:19.24	77.10	4.16	-42.1	-44.0	17.5	0.00e+00	82	30	0	33554432	56	7247
2026-01-17 21:06:20.25	77.01	4.21	-42.1	-44.0	17.6	0.00e+00	91	30	0	35651584	56	7221
2026-01-17 21:06:21.26	76.92	4.27	-41.7	-43.5	18.0	0.00e+00	72	30	0	36700160	56	6817
2026-01-17 21:06:22.27	76.83	4.33	-42.1	-44.0	17.5	0.00e+00	92	30	0	38797312	56	7228
2026-01-17 21:06:23.28	76.75	4.38	-41.7	-43.6	17.9	0.00e+00	71	30	0	40894464	56	6850
2026-01-17 21:06:24.29	76.66	4.44	-41.8	-43.7	18.0	0.00e+00	92	30	0	42991616	56	6947
2026-01-17 21:06:25.30	76.56	4.50	-41.9	-43.7	17.9	0.00e+00	2	30	0	45088768	56	6958
2026-01-17 21:06:26.31	76.47	4.55	-41.8	-43.6	17.9	0.00e+00	91	30	0	46137344	56	6923
2026-01-17 21:06:27.32	76.38	4.61	-41.8	-43.6	18.0	0.00e+00	92	31	0	48234496	56	6909
2026-01-17 21:06:28.33	76.29	4.67	-41.6	-43.3	18.3	0.00e+00	3	30	0	50331648	56	6674
2026-01-17 21:06:29.33	76.20	4.72	-41.5	-43.2	18.3	0.00e+00	90	30	0	52428800	56	6606
2026-01-17 21:06:30.34	76.11	4.78	-41.6	-43.4	18.2	0.00e+00	2	30	0	54525952	56	6702
2026-01-17 21:06:31.35	76.02	4.84	-41.7	-43.5	18.1	0.00e+00	92	30	0	55574528	56	6821
2026-01-17 21:06:32.36	75.92	4.89	-41.7	-43.4	18.1	0.00e+00	0	30	0	57671680	56	6768
2026-01-17 21:06:33.37	75.83	4.95	-41.6	-43.3	18.3	0.00e+00	92	30	0	59768832	56	6685
2026-01-17 21:06:34.38	75.74	5.01	-41.8	-43.6	18.0	0.00e+00	92	30	0	61865984	56	6854
2026-01-17 21:06:35.39	75.64	5.06	-41.8	-43.6	17.9	0.00e+00	7	30	0	63963136	56	6907
2026-01-17 21:06:36.40	75.55	5.12	-41.8	-43.6	18.0	0.00e+00	92	31	0	65011712	56	6865
2026-01-17 21:06:37.41	75.45	5.18	-41.8	-43.6	18.0	0.00e+00	24	30	0	67108864	56	6882
2026-01-17 21:06:38.42	75.36	5.24	-41.8	-43.6	18.1	0.00e+00	92	30	0	69206016	56	6894
2026-01-17 21:06:39.43	75.26	5.29	-42.0	-43.9	17.9	0.00e+00	10	31	0	71303168	56	7122
2026-01-17 21:06:40.44	75.17	5.35	-41.9	-43.6	18.1	0.00e+00	90	31	0	73400320	56	6924
2026-01-17 21:06:41.45	75.07	5.41	-41.7	-43.5	18.2	0.00e+00	82	31	0	75497472	56	6797
2026-01-17 21:06:42.46	74.97	5.47	-41.8	-43.6	18.1	0.00e+00	91	30	0	76546048	56	6868
2026-01-17 21:06:43.47	74.88	5.52	-41.8	-43.6	18.1	0.00e+00	92	30	0	78643200	56	6877
2026-01-17 21:06:44.48	74.78	5.58	-41.7	-43.5	18.4	0.00e+00	60	30	0	80740352	56	6784
2026-01-17 21:06:45.49	74.68	5.64	-41.7	-43.4	18.3	0.00e+00	92	30	0	82837504	56	6749
2026-01-17 21:06:46.50	74.58	5.70	-41.8	-43.5	18.2	0.00e+00	0	31	0	84934656	56	6819
2026-01-17 21:06:47.51	74.49	5.75	-41.7	-43.4	18.3	0.00e+00	92	31	0	85983232	56	6752
2026-01-17 21:06:48.52	74.39	5.81	-41.6	-43.3	18.5	0.00e+00	12	31	0	88080384	56	6665
2026-01-17 21:06:49.52	74.29	5.87	-41.6	-43.2	18.5	0.00e+00	92	30	0	90177536	56	6597
2026-01-17 21:06:50.53	74.19	5.93	-41.8	-43.5	18.3	0.00e+00	92	30	0	92274688	56	6806
2026-01-17 21:06:51.54	74.09	5.98	-41.7	-43.4	18.4	0.00e+00	3	30	0	94371840	56	6728
2026-01-17 21:06:52.55	73.99	6.04	-41.6	-43.3	18.6	0.00e+00	92	30	0	95420416	56	6628
2026-01-17 21:06:53.56	73.89	6.10	-41.7	-43.4	18.3	0.00e+00	4	30	0	97517568	56	6747
2026-01-17 21:06:54.57	73.78	6.16	-41.6	-43.2	18.6	0.00e+00	91	30	0	99614720	56	6594
2026-01-17 21:06:55.58	73.68	6.21	-41.6	-43.2	18.6	0.00e+00	0	30	0	101711872	56	6578
2026-01-17 21:06:56.59	73.58	6.27	-41.6	-43.3	18.5	0.00e+00	92	30	0	103809024	56	6646
2026-01-17 21:06:57.60	73.48	6.33	-41.6	-43.3	18.5	0.00e+00	91	30	0	104857600	56	6676
2026-01-17 21:06:58.62	73.37	6.39	-41.6	-43.3	18.5	0.00e+00	74	30	0	106954752	56	6653
2026-01-17 21:06:59.63	73.27	6.45	-41.7	-43.4	18.3	0.00e+00	90	30	0	109051904	56	6760
2026-01-17 21:07:00.64	73.17	6.51	-41.9	-43.7	18.3	0.00e+00	71	31	0	111149056	56	6942
2026-01-17 21:07:01.65	73.06	6.56	-41.8	-43.5	18.2	0.00e+00	92	30	0	113246208	56	6823
2026-01-17 21:07:02.66	72.96	6.62	-41.7	-43.4	18.6	0.00e+00	62	30	0	114294784	56	6704
2026-01-17 21:07:03.67	72.85	6.68	-41.7	-43.3	18.5	0.00e+00	92	30	0	116391936	56	6691
2026-01-17 21:07:04.68	72.75	6.74	-41.6	-43.2	18.7	0.00e+00	92	31	0	118489088	56	6596
2026-01-17 21:07:05.69	72.64	6.80	-41.6	-43.2	18.6	0.00e+00	92	30	0	120586240	56	6610
2026-01-17 21:07:06.70	72.53	6.86	-41.5	-43.2	18.7	0.00e+00	90	30	0	122683392	56	6559
2026-01-17 21:07:07.71	72.43	6.91	-41.5	-43.1	18.6	0.00e+00	1	30	0	123731968	56	6526
2026-01-17 21:07:08.72	72.32	6.97	-41.6	-43.2	18.6	0.00e+00	92	30	0	125829120	56	6580
2026-01-17 21:07:09.73	72.21	7.03	-41.6	-43.2	18.6	0.00e+00	0	30	0	127926272	56	6570
2026-01-17 21:07:10.74	72.10	7.09	-41.5	-43.1	18.8	0.00e+00	92	30	0	130023424	56	6532
2026-01-17 21:07:11.75	71.99	7.15	-41.5	-43.1	18.8	0.00e+00	74	30	0	132120576	56	6492
2026-01-17 21:07:12.76	71.88	7.21	-41.5	-43.2	18.8	0.00e+00	92	31	0	133169152	56	6552
2026-01-17 21:07:13.77	71.77	7.27	-41.6	-43.2	18.7	0.00e+00	92	31	0	135266304	56	6567
2026-01-17 21:07:14.78	71.66	7.32	-41.5	-43.1	18.7	0.00e+00	23	31	0	137363456	56	6531
2026-01-17 21:07:15.79	71.55	7.38	-41.6	-43.2	18.8	0.00e+00	90	31	0	139460608	56	6564
2026-01-17 21:07:16.80	71.44	7.44	-41.4	-42.9	19.1	0.00e+00	0	31	0	141557760	56	6358
2026-01-17 21:07:17.81	71.33	7.50	-41.4	-43.0	19.0	0.00e+00	92	31	0	143654912	56	6410
2026-01-17 21:07:18.82	71.22	7.56	-41.3	-42.8	19.1	0.00e+00	2	31	0	144703488	56	6304
2026-01-17 21:07:19.82	71.11	7.62	-41.2	-42.7	19.2	0.00e+00	92	30	0	146800640	56	6218
2026-01-17 21:07:20.83	70.99	7.68	-41.4	-42.9	19.1	0.00e+00	92	30	0	148897792	56	6364
2026-01-17 21:07:21.84	70.88	7.74	-41.2	-42.7	19.3	0.00e+00	92	30	0	150994944	56	6202
2026-01-17 21:07:22.86	70.77	7.80	-41.2	-42.7	19.3	0.00e+00	92	30	0	153092096	56	6202
2026-01-17 21:07:23.86	70.65	7.85	-41.1	-42.5	19.6	0.00e+00	13	31	0	154140672	56	6099
2026-01-17 21:07:24.87	70.54	7.91	-40.7	-42.1	19.8	0.00e+00	92	30	0	156237824	54	6514
2026-01-17 21:07:25.88	70.42	7.97	-40.7	-42.2	19.7	0.00e+00	73	31	0	158334976	54	6542
2026-01-17 21:07:26.89	70.31	8.03	-40.5	-41.9	19.9	0.00e+00	92	31	0	160432128	54	6362
2026-01-17 21:07:27.90	70.19	8.09	-40.6	-42.0	19.9	0.00e+00	90	30	0	162529280	54	6429
2026-01-17 21:07:28.91	70.07	8.15	-40.6	-42.0	20.0	0.00e+00	92	31	0	163577856	54	6391
2026-01-17 21:07:29.92	69.96	8.21	-40.5	-41.9	20.0	0.00e+00	90	31	0	165675008	54	6335
2026-01-17 21:07:30.93	69.84	8.27	-40.5	-41.9	20.0	0.00e+00	4	31	0	167772160	54	6331
2026-01-17 21:07:31.94	69.72	8.33	-40.4	-41.7	20.2	0.00e+00	92	30	0	169869312	54	6208
2026-01-17 21:07:32.95	69.60	8.39	-40.3	-41.6	20.3	0.00e+00	11	31	0	171966464	54	6162
2026-01-17 21:07:33.96	69.48	8.45	-40.4	-41.8	20.1	0.00e+00	92	31	0	173015040	54	6255
2026-01-17 21:07:34.96	69.36	8.50	-40.5	-41.8	20.2	0.00e+00	0	31	0	175112192	54	6274
2026-01-17 21:07:35.97	69.24	8.56	-40.3	-41.6	20.2	0.00e+00	90	31	0	177209344	54	6149
2026-01-17 21:07:36.98	69.12	8.62	-40.3	-41.6	20.3	0.00e+00	92	31	0	179306496	54	6152
2026-01-17 21:07:37.99	69.00	8.68	-40.4	-41.8	20.1	0.00e+00	18	31	0	181403648	54	6250
2026-01-17 21:07:39.00	68.88	8.74	-40.5	-41.9	20.0	0.00e+00	92	31	0	182452224	54	6343
2026-01-17 21:07:40.01	68.76	8.80	-40.5	-41.9	20.0	0.00e+00	0	31	0	184549376	54	6332
2026-01-17 21:07:41.02	68.64	8.86	-40.5	-41.9	20.1	0.00e+00	92	31	0	186646528	54	6329
2026-01-17 21:07:42.03	68.51	8.92	-40.5	-41.9	20.1	0.00e+00	15	31	0	188743680	54	6347
2026-01-17 21:07:43.04	68.39	8.98	-40.4	-41.7	20.2	0.00e+00	90	31	0	190840832	54	6231
2026-01-17 21:07:44.05	68.26	9.04	-40.5	-41.9	20.0	0.00e+00	92	31	0	191889408	54	6319
2026-01-17 21:07:45.06	68.14	9.10	-40.3	-41.7	20.3	0.00e+00	90	31	0	193986560	54	6183
2026-01-17 21:07:46.07	68.01	9.16	-40.2	-41.5	20.4	0.00e+00	92	31	0	196083712	54	6098
2026-01-17 21:07:47.08	67.89	9.22	-40.3	-41.6	20.4	0.00e+00	58	31	0	198180864	54	6137
2026-01-17 21:07:48.09	67.76	9.28	-40.3	-41.6	20.5	0.00e+00	92	31	0	200278016	54	6151
2026-01-17 21:07:49.10	67.64	9.33	-40.1	-41.3	20.6	0.00e+00	0	31	0	201326592	54	5952
2026-01-17 21:07:50.11	67.51	9.39	-39.9	-41.1	20.9	0.00e+00	92	31	0	203423744	54	5816
2026-01-17 21:07:51.12	67.38	9.45	-40.0	-41.3	20.6	0.00e+00	91	31	0	205520896	54	5910
2026-01-17 21:07:52.13	67.25	9.51	-40.1	-41.3	20.6	0.00e+00	92	31	0	207618048	54	5938
2026-01-17 21:07:53.14	67.12	9.57	-40.1	-41.4	20.6	0.00e+00	92	31	0	209715200	54	5966
2026-01-17 21:07:54.15	66.99	9.63	-40.3	-41.5	20.5	0.00e+00	2	31	0	211812352	54	6089
2026-01-17 21:07:55.16	66.86	9.69	-40.2	-41.5	20.6	0.00e+00	92	31	0	212860928	54	6062
2026-01-17 21:07:56.17	66.73	9.75	-40.2	-41.5	20.5	0.00e+00	14	31	0	214958080	54	6068
2026-01-17 21:07:57.18	66.60	9.81	-40.2	-41.5	20.5	0.00e+00	90	31	0	217055232	54	6078
2026-01-17 21:07:58.19	66.47	9.87	-40.2	-41.4	20.5	0.00e+00	0	31	0	219152384	54	6025
2026-01-17 21:07:59.20	66.34	9.93	-40.3	-41.5	20.4	0.00e+00	91	30	0	221249536	54	6099
2026-01-17 21:08:00.21	66.21	9.99	-40.3	-41.6	20.3	0.00e+00	91	31	0	222298112	54	6142
2026-01-17 21:08:01.21	66.07	10.05	-40.4	-41.7	20.3	0.00e+00	71	31	0	224395264	54	6223
2026-01-17 21:08:02.23	65.94	10.11	-40.5	-41.9	20.1	0.00e+00	91	31	0	226492416	54	6339
2026-01-17 21:08:03.24	65.80	10.17	-40.3	-41.6	20.5	0.00e+00	0	31	0	228589568	54	6107
2026-01-17 21:08:04.25	65.67	10.23	-40.3	-41.6	20.4	0.00e+00	92	31	0	230686720	54	6113
2026-01-17 21:08:05.26	65.53	10.29	-40.3	-41.6	20.4	0.00e+00	14	30	0	231735296	54	6129
2026-01-17 21:08:06.27	65.40	10.34	-40.2	-41.5	20.5	0.00e+00	92	31	0	233832448	54	6072
2026-01-17 21:08:07.28	65.26	10.40	-40.1	-41.4	20.7	0.00e+00	92	31	0	235929600	54	5988
2026-01-17 21:08:08.29	65.12	10.46	-40.1	-41.4	20.6	0.00e+00	5	31	0	238026752	54	5982
2026-01-17 21:08:09.30	64.98	10.52	-40.1	-41.4	20.7	0.00e+00	90	31	0	240123904	54	5988
2026-01-17 21:08:10.31	64.85	10.58	-40.2	-41.4	20.6	0.00e+00	66	31	0	241172480	54	6019
2026-01-17 21:08:11.32	64.71	10.64	-40.2	-41.4	20.7	0.00e+00	90	31	0	243269632	54	6028
2026-01-17 21:08:12.33	64.57	10.70	-40.1	-41.4	20.7	0.00e+00	0	31	0	245366784	54	5980
2026-01-17 21:08:13.34	64.43	10.76	-40.1	-41.4	20.7	0.00e+00	92	31	0	247463936	54	5974
2026-01-17 21:08:14.35	64.29	10.82	-40.1	-41.4	20.7	0.00e+00	92	31	0	249561088	54	5984
2026-01-17 21:08:15.36	64.15	10.88	-40.1	-41.4	20.7	0.00e+00	90	31	0	250609664	54	5966
2026-01-17 21:08:16.37	64.00	10.94	-40.2	-41.4	20.6	0.00e+00	92	31	0	252706816	54	6008
2026-01-17 21:08:17.39	63.86	11.00	-40.1	-41.4	20.7	0.00e+00	0	31	0	254803968	54	5976
2026-01-17 21:08:18.40	63.72	11.06	-40.1	-41.3	20.8	0.00e+00	92	31	0	256901120	54	5927
2026-01-17 21:08:19.41	63.57	11.12	-40.2	-41.5	20.5	0.00e+00	0	30	0	258998272	54	6045
2026-01-17 21:08:20.42	63.43	11.17	-40.3	-41.6	20.5	0.00e+00	92	31	0	261095424	54	6157
2026-01-17 21:08:21.42	63.29	11.23	-40.4	-41.7	20.1	0.00e+00	92	31	0	262144000	54	6239
2026-01-17 21:08:22.43	63.14	11.29	-40.6	-41.9	20.3	0.00e+00	92	31	0	264241152	54	6389
2026-01-17 21:08:23.44	62.99	11.35	-40.5	-41.8	20.3	0.00e+00	92	30	0	266338304	54	6256
2026-01-17 21:08:24.45	62.85	11.41	-40.3	-41.6	20.6	0.00e+00	55	31	0	268435456	54	6149
2026-01-17 21:08:25.46	62.70	11.47	-40.0	-41.2	20.9	0.00e+00	92	31	0	269484032	54	5853
2026-01-17 21:08:26.47	62.55	11.53	-40.1	-41.4	20.7	0.00e+00	2	31	0	271581184	54	5978
2026-01-17 21:08:27.48	62.40	11.59	-40.0	-41.2	20.9	0.00e+00	91	31	0	273678336	54	5896
2026-01-17 21:08:28.49	62.26	11.64	-40.2	-41.4	20.7	0.00e+00	82	31	0	275775488	54	6009
2026-01-17 21:08:29.50	62.11	11.70	-40.1	-41.3	20.7	0.00e+00	92	31	0	277872640	54	5957
2026-01-17 21:08:30.51	61.96	11.76	-40.1	-41.3	20.8	0.00e+00	90	31	0	279969792	54	5943
2026-01-17 21:08:31.52	61.81	11.82	-40.1	-41.3	20.8	0.00e+00	0	31	0	281018368	54	5953
2026-01-17 21:08:32.53	61.65	11.88	-40.0	-41.3	20.8	0.00e+00	90	31	0	283115520	54	5909
2026-01-17 21:08:33.54	61.50	11.94	-39.9	-41.1	21.0	0.00e+00	3	31	0	285212672	54	5780
2026-01-17 21:08:34.55	61.35	12.00	-39.9	-41.1	21.0	0.00e+00	90	31	0	287309824	54	5813
2026-01-17 21:08:35.56	61.20	12.05	-39.8	-41.0	21.1	0.00e+00	7	31	0	289406976	54	5721
2026-01-17 21:08:36.57	61.04	12.11	-39.9	-41.1	21.0	0.00e+00	92	31	0	290455552	54	5765
2026-01-17 21:08:37.58	60.89	12.17	-39.8	-41.0	21.1	0.00e+00	92	31	0	292552704	54	5711
2026-01-17 21:08:38.58	60.73	12.23	-39.8	-41.0	21.1	0.00e+00	92	31	0	294649856	54	5702
2026-01-17 21:08:39.60	60.58	12.29	-39.9	-41.1	21.0	0.00e+00	90	31	0	296747008	54	5788
2026-01-17 21:08:40.61	60.42	12.34	-39.9	-41.1	21.0	0.00e+00	18	31	0	298844160	54	5784
2026-01-17 21:08:41.61	60.26	12.40	-39.9	-41.1	20.9	0.00e+00	92	31	0	299892736	54	5812
2026-01-17 21:08:42.62	60.11	12.46	-40.1	-41.3	20.9	0.00e+00	6	31	0	301989888	54	5962
2026-01-17 21:08:43.63	59.95	12.52	-40.0	-41.2	20.9	0.00e+00	92	31	0	304087040	54	5882
2026-01-17 21:08:44.64	59.79	12.57	-40.1	-41.4	20.8	0.00e+00	23	31	0	306184192	54	5980
2026-01-17 21:08:45.65	59.63	12.63	-40.1	-41.3	20.8	0.00e+00	92	31	0	308281344	54	5945
2026-01-17 21:08:46.66	59.47	12.69	-40.2	-41.4	20.7	0.00e+00	90	31	0	309329920	54	6008
2026-01-17 21:08:47.67	59.31	12.75	-40.0	-41.2	20.9	0.00e+00	6	31	0	311427072	54	5879
2026-01-17 21:08:48.68	59.15	12.80	-39.9	-41.1	21.1	0.00e+00	90	31	0	313524224	54	5770
2026-01-17 21:08:49.69	58.99	12.86	-39.8	-40.9	21.2	0.00e+00	63	31	0	315621376	54	5679
2026-01-17 21:08:50.70	58.82	12.92	-39.7	-40.9	21.3	0.00e+00	90	31	0	317718528	52	6320
2026-01-17 21:08:51.71	58.66	12.98	-39.7	-40.9	21.2	0.00e+00	0	31	0	318767104	52	6366
2026-01-17 21:08:52.72	58.50	13.03	-39.7	-40.9	21.2	0.00e+00	92	31	0	320864256	52	6345
2026-01-17 21:08:53.73	58.33	13.09	-39.7	-40.9	21.3	0.00e+00	92	31	0	322961408	52	6341
2026-01-17 21:08:54.74	58.17	13.15	-39.6	-40.8	21.4	0.00e+00	0	31	0	325058560	52	6250
2026-01-17 21:08:55.75	58.00	13.20	-39.5	-40.6	21.5	0.00e+00	92	31	0	327155712	52	6143
2026-01-17 21:08:56.76	57.83	13.26	-39.5	-40.6	21.5	0.00e+00	0	31	0	328204288	52	6165
2026-01-17 21:08:57.77	57.67	13.31	-39.5	-40.7	21.4	0.00e+00	92	31	0	330301440	52	6192
2026-01-17 21:08:58.78	57.50	13.37	-39.3	-40.4	21.7	0.00e+00	0	31	0	332398592	52	5994
2026-01-17 21:08:59.79	57.33	13.43	-39.4	-40.5	21.7	0.00e+00	23	31	0	334495744	52	6047
2026-01-17 21:09:00.79	57.16	13.48	-39.2	-40.3	21.9	0.00e+00	92	31	0	336592896	52	5912
2026-01-17 21:09:01.80	56.99	13.54	-39.1	-40.2	21.9	0.00e+00	25	31	0	337641472	52	5850
2026-01-17 21:09:02.81	56.82	13.59	-39.1	-40.1	22.0	0.00e+00	91	31	0	339738624	52	5816
2026-01-17 21:09:03.82	56.65	13.65	-39.1	-40.2	22.0	0.00e+00	24	31	0	341835776	52	5848
2026-01-17 21:09:04.83	56.48	13.71	-39.2	-40.2	21.9	0.00e+00	91	31	0	343932928	52	5896
2026-01-17 21:09:05.84	56.31	13.76	-39.0	-40.0	22.2	0.00e+00	4	31	0	346030080	52	5731
2026-01-17 21:09:06.85	56.14	13.82	-38.8	-39.9	22.2	0.00e+00	92	31	0	348127232	52	5651
2026-01-17 21:09:07.86	55.96	13.87	-38.9	-40.0	22.1	0.00e+00	0	31	0	349175808	52	5705
2026-01-17 21:09:08.87	55.79	13.93	-39.0	-40.1	22.0	0.00e+00	32	31	0	351272960	52	5766
2026-01-17 21:09:09.88	55.61	13.98	-38.7	-39.8	22.4	0.00e+00	92	31	0	353370112	50	6262
2026-01-17 21:09:10.89	55.44	14.04	-38.6	-39.6	22.5	0.00e+00	7	31	0	355467264	50	6165
2026-01-17 21:09:11.90	55.26	14.09	-38.5	-39.5	22.6	0.00e+00	92	31	0	357564416	50	6063
2026-01-17 21:09:12.91	55.08	14.14	-38.6	-39.6	22.6	0.00e+00	6	31	0	358612992	50	6111
2026-01-17 21:09:13.92	54.91	14.20	-38.4	-39.4	22.7	0.00e+00	92	31	0	360710144	50	6004
2026-01-17 21:09:14.93	54.73	14.25	-38.4	-39.4	22.7	0.00e+00	0	31	0	362807296	50	6024
2026-01-17 21:09:15.94	54.55	14.31	-38.4	-39.4	22.8	0.00e+00	7	31	0	364904448	50	5967
2026-01-17 21:09:16.94	54.37	14.36	-38.4	-39.4	22.7	0.00e+00	92	31	0	367001600	50	6001
2026-01-17 21:09:17.95	54.19	14.41	-38.3	-39.3	22.8	0.00e+00	0	31	0	368050176	50	5940
2026-01-17 21:09:18.96	54.01	14.47	-38.4	-39.4	22.8	0.00e+00	92	31	0	370147328	50	5966
2026-01-17 21:09:19.97	53.83	14.52	-38.2	-39.2	22.9	0.00e+00	0	31	0	372244480	50	5868
2026-01-17 21:09:20.98	53.65	14.57	-38.2	-39.2	22.9	0.00e+00	92	31	0	374341632	50	5842
2026-01-17 21:09:21.99	53.46	14.63	-38.1	-39.0	23.0	0.00e+00	0	31	0	376438784	50	5757
2026-01-17 21:09:23.00	53.28	14.68	-38.0	-38.9	23.1	0.00e+00	25	31	0	377487360	50	5690
2026-01-17 21:09:24.01	53.10	14.73	-37.8	-38.7	23.3	0.00e+00	92	31	0	379584512	50	5565
2026-01-17 21:09:25.02	52.91	14.78	-37.8	-38.8	23.3	0.00e+00	57	31	0	381681664	50	5570
2026-01-17 21:09:26.03	52.73	14.84	-37.8	-38.8	23.3	0.00e+00	92	31	0	383778816	50	5585
2026-01-17 21:09:27.04	52.54	14.89	-37.9	-38.8	23.2	0.00e+00	56	31	0	385875968	50	5623
2026-01-17 21:09:28.05	52.35	14.94	-37.9	-38.8	23.3	0.00e+00	92	31	0	386924544	50	5596
2026-01-17 21:09:29.06	52.17	14.99	-37.7	-38.6	23.4	0.00e+00	55	31	0	389021696	48	6151
2026-01-17 21:09:30.07	51.98	15.04	-37.6	-38.5	23.4	0.00e+00	92	31	0	391118848	48	6097
2026-01-17 21:09:31.08	51.79	15.09	-37.6	-38.5	23.4	0.00e+00	0	31	0	393216000	48	6083
2026-01-17 21:09:32.09	51.60	15.15	-37.6	-38.5	23.4	0.00e+00	0	31	0	395313152	48	6082
2026-01-17 21:09:33.10	51.41	15.20	-37.6	-38.5	23.4	0.00e+00	92	31	0	396361728	48	6084
2026-01-17 21:09:34.11	51.22	15.25	-37.6	-38.5	23.1	0.00e+00	55	31	0	398458880	48	6065
2026-01-17 21:09:35.12	51.03	15.30	-37.7	-38.7	23.3	0.00e+00	92	31	0	400556032	48	6181
2026-01-17 21:09:36.12	50.84	15.35	-37.8	-38.7	23.4	0.00e+00	0	31	0	402653184	48	6211
2026-01-17 21:09:37.14	50.64	15.40	-37.9	-38.8	23.2	0.00e+00	92	31	0	404750336	48	6312
2026-01-17 21:09:38.15	50.45	15.45	-37.8	-38.8	23.4	0.00e+00	0	31	0	405798912	48	6246
2026-01-17 21:09:39.16	50.25	15.50	-37.6	-38.6	23.5	0.00e+00	0	31	0	407896064	48	6106
2026-01-17 21:09:40.17	50.06	15.55	-37.7	-38.6	23.4	0.00e+00	90	31	0	409993216	48	6168
2026-01-17 21:09:41.18	49.86	15.59	-37.7	-38.6	23.4	0.00e+00	25	31	0	412090368	48	6128
2026-01-17 21:09:42.19	49.67	15.64	-37.9	-38.8	23.2	0.00e+00	90	31	0	414187520	48	6276
2026-01-17 21:09:43.20	49.47	15.69	-37.9	-38.8	23.3	0.00e+00	25	31	0	416284672	48	6278
2026-01-17 21:09:44.21	49.28	15.74	-37.9	-38.9	23.2	0.00e+00	92	31	0	417333248	48	6328
2026-01-17 21:09:45.22	49.08	15.79	-37.9	-38.9	23.3	0.00e+00	8	31	0	419430400	48	6328
2026-01-17 21:09:46.23	48.88	15.84	-38.1	-39.0	23.1	0.00e+00	57	31	0	421527552	48	6435
2026-01-17 21:09:47.24	48.68	15.88	-37.9	-38.8	23.3	0.00e+00	92	31	0	423624704	48	6287
2026-01-17 21:09:48.25	48.48	15.93	-37.9	-38.8	23.1	0.00e+00	58	31	0	425721856	48	6317
2026-01-17 21:09:49.26	48.28	15.98	-37.9	-38.9	23.2	0.00e+00	90	31	0	426770432	48	6340
2026-01-17 21:09:50.27	48.08	16.02	-38.0	-39.0	23.2	0.00e+00	0	31	0	428867584	48	6395
2026-01-17 21:09:51.28	47.88	16.07	-38.0	-38.9	23.1	0.00e+00	91	31	0	430964736	48	6389
2026-01-17 21:09:52.29	47.67	16.12	-38.0	-39.0	23.2	0.00e+00	57	31	0	433061888	48	6424
2026-01-17 21:09:53.30	47.47	16.16	-37.8	-38.7	23.4	0.00e+00	92	31	0	435159040	48	6219
2026-01-17 21:09:54.31	47.27	16.21	-37.9	-38.8	23.3	0.00e+00	0	31	0	436207616	48	6287
2026-01-17 21:09:55.32	47.06	16.25	-37.9	-38.8	23.3	0.00e+00	0	31	0	438304768	48	6307
2026-01-17 21:09:56.33	46.86	16.30	-38.0	-38.9	23.1	0.00e+00	92	31	0	440401920	48	6344
2026-01-17 21:09:57.34	46.65	16.34	-38.0	-38.9	23.2	0.00e+00	0	31	0	442499072	48	6359
2026-01-17 21:09:58.35	46.45	16.39	-37.7	-38.6	23.5	0.00e+00	92	31	0	444596224	48	6144
2026-01-17 21:09:59.36	46.24	16.43	-37.6	-38.5	23.6	0.00e+00	0	31	0	445644800	48	6078
2026-01-17 21:10:00.37	46.03	16.47	-37.5	-38.4	23.6	0.00e+00	92	31	0	447741952	48	6010
2026-01-17 21:10:01.38	45.83	16.52	-37.5	-38.4	23.7	0.00e+00	25	31	0	449839104	48	5977
2026-01-17 21:10:02.39	45.62	16.56	-37.3	-38.2	23.8	0.00e+00	2	31	0	451936256	48	5876
2026-01-17 21:10:03.40	45.41	16.60	-37.3	-38.2	23.8	0.00e+00	92	31	0	454033408	48	5842
2026-01-17 21:10:04.41	45.20	16.65	-37.3	-38.1	23.8	0.00e+00	27	31	0	455081984	48	5811
2026-01-17 21:10:05.42	44.99	16.69	-37.3	-38.1	23.9	0.00e+00	92	31	0	457179136	48	5826
2026-01-17 21:10:06.43	44.78	16.73	-37.3	-38.2	23.9	0.00e+00	56	31	0	459276288	48	5867
2026-01-17 21:10:07.44	44.57	16.77	-37.4	-38.2	23.7	0.00e+00	92	31	0	461373440	48	5891
2026-01-17 21:10:08.45	44.36	16.81	-37.4	-38.3	23.8	0.00e+00	56	31	0	463470592	48	5904
2026-01-17 21:10:09.46	44.14	16.85	-37.5	-38.3	23.8	0.00e+00	92	31	0	464519168	48	5961
2026-01-17 21:10:10.47	43.93	16.90	-37.4	-38.3	23.7	0.00e+00	92	31	0	466616320	48	5900
2026-01-17 21:10:11.48	43.72	16.94	-37.1	-37.9	24.0	0.00e+00	0	31	0	468713472	48	5695
2026-01-17 21:10:12.49	43.50	16.98	-37.2	-38.1	23.9	0.00e+00	90	31	0	470810624	48	5782
2026-01-17 21:10:13.50	43.29	17.01	-37.4	-38.2	22.7	0.00e+00	55	31	0	472907776	48	5879
2026-01-17 21:10:14.51	43.07	17.05	-37.4	-38.2	23.8	0.00e+00	92	31	0	473956352	48	5883
2026-01-17 21:10:15.52	42.86	17.09	-37.2	-38.0	24.0	0.00e+00	63	31	0	476053504	48	5760
2026-01-17 21:10:16.52	42.64	17.13	-37.2	-38.1	23.9	0.00e+00	92	31	0	478150656	48	5801
2026-01-17 21:10:17.54	42.42	17.17	-37.3	-38.2	23.8	0.00e+00	88	31	0	480247808	48	5841
2026-01-17 21:10:18.55	42.20	17.21	-37.3	-38.2	23.9	0.00e+00	0	31	0	482344960	48	5867
2026-01-17 21:10:19.55	41.99	17.24	-37.4	-38.2	23.8	0.00e+00	92	31	0	484442112	48	5891
2026-01-17 21:10:20.56	41.77	17.28	-37.1	-37.9	24.1	0.00e+00	2	31	0	485490688	48	5675
2026-01-17 21:10:21.57	41.55	17.32	-37.1	-38.0	24.0	0.00e+00	92	31	0	487587840	48	5732
2026-01-17 21:10:22.58	41.33	17.35	-37.0	-37.9	24.0	0.00e+00	24	31	0	489684992	48	5664
2026-01-17 21:10:23.59	41.11	17.39	-37.0	-37.8	24.2	0.00e+00	92	31	0	491782144	48	5613
2026-01-17 21:10:24.60	40.89	17.43	-37.1	-38.0	24.1	0.00e+00	0	31	0	493879296	48	5733
2026-01-17 21:10:25.61	40.67	17.46	-37.1	-37.9	24.1	0.00e+00	26	31	0	494927872	48	5676
2026-01-17 21:10:26.62	40.45	17.50	-37.2	-38.1	23.9	0.00e+00	92	31	0	497025024	48	5785
2026-01-17 21:10:27.63	40.22	17.53	-37.2	-38.1	24.0	0.00e+00	0	31	0	499122176	48	5775
2026-01-17 21:10:28.64	40.00	17.56	-37.3	-38.2	23.8	0.00e+00	92	31	0	501219328	48	5878
2026-01-17 21:10:29.65	39.78	17.60	-37.5	-38.4	23.7	0.00e+00	56	31	0	503316480	48	5997
2026-01-17 21:10:30.66	39.55	17.63	-37.6	-38.5	23.6	0.00e+00	92	31	0	504365056	48	6059
2026-01-17 21:10:31.67	39.33	17.66	-37.5	-38.4	23.7	0.00e+00	56	31	0	506462208	48	5997
2026-01-17 21:10:32.68	39.10	17.70	-37.6	-38.5	23.6	0.00e+00	62	31	0	508559360	48	6052
2026-01-17 21:10:33.69	38.88	17.73	-37.4	-38.3	23.8	0.00e+00	90	31	0	510656512	48	5948
2026-01-17 21:10:34.70	38.65	17.76	-37.4	-38.2	23.8	0.00e+00	7	31	0	512753664	48	5879
2026-01-17 21:10:35.71	38.43	17.79	-37.3	-38.2	23.9	0.00e+00	92	31	0	513802240	48	5878
2026-01-17 21:10:36.72	38.20	17.82	-37.5	-38.4	23.6	0.00e+00	6	31	0	515899392	48	6014
2026-01-17 21:10:37.72	37.97	17.85	-37.3	-38.2	23.8	0.00e+00	91	31	0	517996544	48	5878
2026-01-17 21:10:38.73	37.75	17.88	-37.4	-38.3	23.8	0.00e+00	0	31	0	520093696	48	5921
2026-01-17 21:10:39.74	37.52	17.91	-37.4	-38.3	23.7	0.00e+00	91	31	0	522190848	48	5937
2026-01-17 21:10:40.75	37.29	17.94	-37.5	-38.3	23.7	0.00e+00	0	31	0	523239424	48	5964
2026-01-17 21:10:41.76	37.06	17.97	-37.5	-38.4	23.7	0.00e+00	0	31	0	525336576	48	6000
2026-01-17 21:10:42.77	36.83	18.00	-37.7	-38.6	23.5	0.00e+00	92	31	0	527433728	48	6139
2026-01-17 21:10:43.78	36.60	18.02	-37.7	-38.6	23.5	0.00e+00	22	31	0	529530880	48	6127
2026-01-17 21:10:44.78	36.37	18.05	-37.8	-38.7	23.4	0.00e+00	92	31	0	531628032	48	6211
2026-01-17 21:10:45.79	36.14	18.08	-37.8	-38.7	23.5	0.00e+00	0	31	0	532676608	48	6183
2026-01-17 21:10:46.80	35.91	18.10	-37.8	-38.7	23.3	0.00e+00	92	31	0	534773760	48	6245
2026-01-17 21:10:47.81	35.68	18.13	-38.0	-38.9	23.3	0.00e+00	0	31	0	536870912	48	6362
2026-01-17 21:10:48.82	35.45	18.15	-38.2	-39.1	22.9	0.00e+00	25	31	0	538968064	48	6511
2026-01-17 21:10:49.83	35.22	18.18	-38.3	-39.3	22.9	0.00e+00	92	31	0	541065216	48	6628
2026-01-17 21:10:50.84	34.98	18.20	-38.4	-39.4	22.8	0.00e+00	25	31	0	542113792	48	6700
2026-01-17 21:10:51.85	34.75	18.23	-38.4	-39.4	22.9	0.00e+00	92	31	0	544210944	48	6706
2026-01-17 21:10:52.86	34.52	18.25	-38.2	-39.1	23.1	0.00e+00	62	31	0	546308096	48	6539
2026-01-17 21:10:53.87	34.28	18.27	-38.1	-39.1	23.0	0.00e+00	6	31	0	548405248	48	6470
2026-01-17 21:10:54.88	34.05	18.30	-38.2	-39.1	23.1	0.00e+00	0	31	0	550502400	48	6503
2026-01-17 21:10:55.89	33.81	18.32	-38.4	-39.4	23.0	0.00e+00	6	31	0	552599552	48	6718
2026-01-17 21:10:56.90	33.58	18.34	-38.1	-39.1	23.1	0.00e+00	92	31	0	553648128	48	6466
2026-01-17 21:10:57.91	33.34	18.36	-38.2	-39.1	23.2	0.00e+00	7	31	0	555745280	48	6500
2026-01-17 21:10:58.92	33.11	18.38	-38.0	-38.9	23.2	0.00e+00	92	31	0	557842432	48	6341
2026-01-17 21:10:59.93	32.87	18.40	-38.1	-39.0	22.9	0.00e+00	6	31	0	559939584	48	6448
2026-01-17 21:11:00.94	32.64	18.42	-38.1	-39.1	23.1	0.00e+00	0	31	0	562036736	48	6488
2026-01-17 21:11:01.95	32.40	18.44	-38.4	-39.4	22.8	0.00e+00	5	31	0	563085312	48	6720
2026-01-17 21:11:02.96	32.16	18.46	-38.5	-39.5	22.7	0.00e+00	0	31	0	565182464	48	6804
2026-01-17 21:11:03.97	31.93	18.48	-38.5	-39.5	22.7	0.00e+00	84	31	0	567279616	48	6796
2026-01-17 21:11:04.98	31.69	18.49	-38.6	-39.6	22.7	0.00e+00	26	31	0	569376768	48	6855
2026-01-17 21:11:05.99	31.45	18.51	-38.5	-39.5	22.7	0.00e+00	92	31	0	571473920	48	6788
2026-01-17 21:11:07.00	31.21	18.53	-38.6	-39.6	22.5	0.00e+00	0	31	0	572522496	48	6905
2026-01-17 21:11:08.01	30.98	18.54	-38.7	-39.7	22.5	0.00e+00	25	31	0	574619648	48	6966
2026-01-17 21:11:09.02	30.74	18.56	-38.9	-39.9	22.4	0.00e+00	24	31	0	576716800	50	6381
2026-01-17 21:11:10.03	30.50	18.58	-39.0	-40.0	22.3	0.00e+00	55	31	0	578813952	50	6432
2026-01-17 21:11:11.04	30.26	18.59	-38.9	-39.9	22.4	0.00e+00	0	31	0	580911104	50	6379
2026-01-17 21:11:12.05	30.02	18.60	-38.7	-39.7	22.5	0.00e+00	25	31	0	581959680	50	6212
2026-01-17 21:11:13.06	29.78	18.62	-38.7	-39.6	22.6	0.00e+00	92	31	0	584056832	50	6169
2026-01-17 21:11:14.07	29.54	18.63	-38.8	-39.8	22.5	0.00e+00	57	31	0	586153984	50	6265
2026-01-17 21:11:15.08	29.30	18.64	-38.9	-40.0	22.4	0.00e+00	92	31	0	588251136	50	6401
2026-01-17 21:11:16.09	29.06	18.66	-39.0	-40.0	22.4	0.00e+00	56	31	0	590348288	50	6449
2026-01-17 21:11:17.10	28.82	18.67	-38.9	-40.0	22.4	0.00e+00	0	31	0	591396864	50	6392
2026-01-17 21:11:18.11	28.58	18.68	-38.8	-39.8	22.5	0.00e+00	55	31	0	593494016	50	6281
2026-01-17 21:11:19.12	28.34	18.69	-38.8	-39.8	22.5	0.00e+00	0	31	0	595591168	50	6314
2026-01-17 21:11:20.13	28.10	18.70	-38.7	-39.7	22.5	0.00e+00	92	31	0	597688320	50	6242
2026-01-17 21:11:21.14	27.86	18.71	-38.8	-39.9	22.4	0.00e+00	0	31	0	599785472	50	6325
2026-01-17 21:11:22.15	27.62	18.72	-39.0	-40.0	22.3	0.00e+00	92	31	0	600834048	50	6443
2026-01-17 21:11:23.16	27.38	18.73	-38.9	-39.9	22.4	0.00e+00	0	31	0	602931200	50	6343
2026-01-17 21:11:24.17	27.14	18.73	-39.0	-40.0	22.4	0.00e+00	26	31	0	605028352	50	6423
2026-01-17 21:11:25.18	26.90	18.74	-38.7	-39.7	22.6	0.00e+00	0	31	0	607125504	50	6237
2026-01-17 21:11:26.20	26.65	18.75	-38.7	-39.6	22.5	0.00e+00	0	31	0	609222656	50	6171
2026-01-17 21:11:27.21	26.41	18.75	-38.7	-39.7	22.6	0.00e+00	36	31	0	610271232	50	6181
2026-01-17 21:11:28.22	26.17	18.76	-38.6	-39.6	22.7	0.00e+00	27	31	0	612368384	50	6131
2026-01-17 21:11:29.23	25.93	18.77	-38.7	-39.7	22.6	0.00e+00	92	31	0	614465536	50	6180
2026-01-17 21:11:30.24	25.69	18.77	-38.7	-39.7	22.6	0.00e+00	57	31	0	616562688	50	6225
2026-01-17 21:11:31.25	25.45	18.77	-38.8	-39.8	22.5	0.00e+00	0	31	0	618659840	50	6302
2026-01-17 21:11:32.26	25.21	18.78	-38.7	-39.7	22.5	0.00e+00	57	31	0	620756992	50	6187
2026-01-17 21:11:33.27	24.96	18.78	-38.5	-39.5	22.7	0.00e+00	57	31	0	621805568	50	6056
2026-01-17 21:11:34.28	24.72	18.78	-38.5	-39.5	22.8	0.00e+00	21	31	0	623902720	50	6035
2026-01-17 21:11:35.28	24.48	18.79	-38.7	-39.6	22.7	0.00e+00	57	31	0	625999872	50	6170
2026-01-17 21:11:36.29	24.24	18.79	-38.7	-39.7	22.5	0.00e+00	92	31	0	628097024	50	6233
2026-01-17 21:11:37.30	24.00	18.79	-38.8	-39.8	22.5	0.00e+00	56	31	0	630194176	50	6274
2026-01-17 21:11:38.31	23.76	18.79	-38.7	-39.7	22.5	0.00e+00	92	31	0	631242752	50	6227
2026-01-17 21:11:39.32	23.51	18.79	-38.6	-39.6	22.7	0.00e+00	0	31	0	633339904	50	6116
2026-01-17 21:11:40.33	23.27	18.79	-38.4	-39.4	22.9	0.00e+00	0	31	0	635437056	50	5976
2026-01-17 21:11:41.34	23.03	18.79	-38.2	-39.2	23.0	0.00e+00	0	31	0	637534208	50	5860
2026-01-17 21:11:42.35	22.79	18.79	-38.2	-39.1	22.9	0.00e+00	0	31	0	639631360	50	5808
2026-01-17 21:11:43.36	22.55	18.78	-38.0	-39.0	23.2	0.00e+00	92	31	0	640679936	50	5711
2026-01-17 21:11:44.37	22.30	18.78	-38.1	-39.0	23.2	0.00e+00	0	31	0	642777088	50	5740
2026-01-17 21:11:45.38	22.06	18.78	-38.0	-39.0	23.3	0.00e+00	91	31	0	644874240	50	5696
2026-01-17 21:11:46.38	21.82	18.77	-38.1	-39.0	23.2	0.00e+00	0	31	0	646971392	50	5729
2026-01-17 21:11:47.39	21.58	18.77	-38.2	-39.1	23.1	0.00e+00	0	31	0	649068544	50	5788
2026-01-17 21:11:48.40	21.34	18.77	-38.2	-39.1	23.1	0.00e+00	0	31	0	650117120	50	5795
2026-01-17 21:11:49.42	21.10	18.76	-38.1	-39.1	23.2	0.00e+00	0	31	0	652214272	50	5772
2026-01-17 21:11:50.42	20.86	18.75	-38.0	-39.0	23.2	0.00e+00	27	31	0	654311424	50	5704
2026-01-17 21:11:51.43	20.62	18.75	-37.8	-38.7	23.5	0.00e+00	24	31	0	656408576	50	5566
2026-01-17 21:11:52.44	20.37	18.74	-37.9	-38.8	23.4	0.00e+00	92	31	0	658505728	50	5623
2026-01-17 21:11:53.45	20.13	18.73	-38.1	-39.0	23.2	0.00e+00	57	31	0	659554304	50	5748
2026-01-17 21:11:54.47	19.89	18.73	-38.0	-38.9	23.3	0.00e+00	41	31	0	661651456	50	5676
2026-01-17 21:11:55.48	19.65	18.72	-38.1	-39.0	23.2	0.00e+00	0	31	0	663748608	50	5738
2026-01-17 21:11:56.49	19.41	18.71	-37.9	-38.8	23.3	0.00e+00	56	31	0	665845760	50	5571
2026-01-17 21:11:57.50	19.17	18.70	-37.7	-38.6	23.6	0.00e+00	71	31	0	667942912	48	6110
2026-01-17 21:11:58.51	18.93	18.69	-37.5	-38.4	23.8	0.00e+00	0	31	0	668991488	48	5967
2026-01-17 21:11:59.52	18.69	18.68	-37.4	-38.3	23.8	0.00e+00	92	31	0	671088640	48	5935
2026-01-17 21:12:00.53	18.45	18.67	-37.5	-38.4	23.8	0.00e+00	0	31	0	673185792	48	6015
2026-01-17 21:12:01.54	18.21	18.66	-37.5	-38.4	23.8	0.00e+00	92	31	0	675282944	48	5974
2026-01-17 21:12:02.55	17.97	18.64	-37.6	-38.5	23.6	0.00e+00	0	31	0	677380096	48	6086
2026-01-17 21:12:03.56	17.73	18.63	-37.5	-38.4	23.8	0.00e+00	0	31	0	678428672	48	5988
2026-01-17 21:12:04.57	17.49	18.62	-37.4	-38.3	23.6	0.00e+00	0	31	0	680525824	48	5934
2026-01-17 21:12:05.58	17.25	18.60	-37.4	-38.3	23.8	0.00e+00	24	31	0	682622976	48	5943
2026-01-17 21:12:06.59	17.01	18.59	-37.4	-38.3	23.9	0.00e+00	91	31	0	684720128	48	5910
2026-01-17 21:12:07.60	16.77	18.57	-37.3	-38.1	24.0	0.00e+00	0	31	0	686817280	48	5812
2026-01-17 21:12:08.61	16.53	18.56	-37.3	-38.2	23.9	0.00e+00	92	31	0	688914432	48	5830
2026-01-17 21:12:09.62	16.30	18.54	-37.0	-37.9	24.2	0.00e+00	24	31	0	689963008	48	5657
2026-01-17 21:12:10.63	16.06	18.53	-37.0	-37.8	24.2	0.00e+00	0	31	0	692060160	48	5630
2026-01-17 21:12:11.64	15.82	18.51	-36.9	-37.8	24.4	0.00e+00	0	31	0	694157312	48	5584
2026-01-17 21:12:12.65	15.58	18.49	-36.9	-37.7	24.4	0.00e+00	24	31	0	696254464	48	5545
2026-01-17 21:12:13.66	15.35	18.48	-37.0	-37.9	24.2	0.00e+00	92	31	0	698351616	48	5632
2026-01-17 21:12:14.67	15.11	18.46	-36.9	-37.8	24.2	0.00e+00	58	31	0	699400192	48	5575
2026-01-17 21:12:15.68	14.87	18.44	-36.9	-37.7	24.3	0.00e+00	92	31	0	701497344	48	5541
2026-01-17 21:12:16.69	14.64	18.42	-37.0	-37.8	24.3	0.00e+00	57	31	0	703594496	48	5606
2026-01-17 21:12:17.70	14.40	18.40	-36.9	-37.7	24.2	0.00e+00	41	31	0	705691648	48	5550
2026-01-17 21:12:18.71	14.17	18.38	-37.0	-37.8	24.2	0.00e+00	0	31	0	707788800	48	5622
2026-01-17 21:12:19.72	13.93	18.36	-37.1	-37.9	24.2	0.00e+00	5	31	0	708837376	48	5669
2026-01-17 21:12:20.73	13.70	18.34	-37.1	-38.0	24.1	0.00e+00	0	31	0	710934528	48	5731
2026-01-17 21:12:21.74	13.46	18.32	-37.2	-38.0	24.1	0.00e+00	6	31	0	713031680	48	5751
2026-01-17 21:12:22.75	13.23	18.30	-37.2	-38.1	24.0	0.00e+00	92	31	0	715128832	48	5782
2026-01-17 21:12:23.76	12.99	18.27	-37.3	-38.2	23.9	0.00e+00	0	31	0	717225984	48	5833
2026-01-17 21:12:24.77	12.76	18.25	-37.2	-38.1	24.0	0.00e+00	92	31	0	718274560	48	5801
2026-01-17 21:12:25.78	12.53	18.23	-37.3	-38.2	23.8	0.00e+00	0	31	0	720371712	48	5835
2026-01-17 21:12:26.79	12.29	18.20	-37.4	-38.3	23.8	0.00e+00	24	31	0	722468864	48	5909
2026-01-17 21:12:27.80	12.06	18.18	-37.4	-38.3	23.9	0.00e+00	0	31	0	724566016	48	5939
2026-01-17 21:12:28.81	11.83	18.15	-37.4	-38.3	23.8	0.00e+00	22	31	0	726663168	48	5960
2026-01-17 21:12:29.82	11.60	18.13	-37.5	-38.4	23.8	0.00e+00	92	31	0	728760320	48	6007
2026-01-17 21:12:30.83	11.37	18.10	-37.5	-38.4	23.8	0.00e+00	24	31	0	729808896	48	5990
2026-01-17 21:12:31.84	11.14	18.08	-37.5	-38.4	23.7	0.00e+00	92	31	0	731906048	48	5985
2026-01-17 21:12:32.85	10.90	18.05	-37.6	-38.5	23.8	0.00e+00	25	31	0	734003200	48	6043
2026-01-17 21:12:33.86	10.67	18.02	-37.5	-38.4	23.9	0.00e+00	0	31	0	736100352	48	5975
2026-01-17 21:12:34.87	10.44	17.99	-37.6	-38.5	23.7	0.00e+00	60	31	0	738197504	48	6038
2026-01-17 21:12:35.88	10.22	17.97	-37.7	-38.6	23.6	0.00e+00	6	31	0	739246080	48	6105
2026-01-17 21:12:36.89	9.99	17.94	-37.8	-38.7	23.4	0.00e+00	0	31	0	741343232	48	6201
2026-01-17 21:12:37.90	9.76	17.91	-37.9	-38.8	23.3	0.00e+00	6	31	0	743440384	48	6316
2026-01-17 21:12:38.92	9.53	17.88	-38.2	-39.1	23.1	0.00e+00	90	31	0	745537536	48	6520
2026-01-17 21:12:39.93	9.30	17.85	-38.2	-39.1	23.1	0.00e+00	0	31	0	747634688	48	6531
2026-01-17 21:12:40.93	9.08	17.82	-38.3	-39.3	23.0	0.00e+00	0	31	0	748683264	48	6645
2026-01-17 21:12:41.94	8.85	17.79	-38.2	-39.2	23.0	0.00e+00	0	31	0	750780416	48	6567
2026-01-17 21:12:42.95	8.62	17.76	-38.1	-39.1	23.2	0.00e+00	7	31	0	752877568	48	6472
2026-01-17 21:12:43.96	8.40	17.73	-38.1	-39.0	23.3	0.00e+00	0	31	0	754974720	48	6411
2026-01-17 21:12:44.98	8.17	17.69	-38.2	-39.1	23.1	0.00e+00	0	31	0	757071872	48	6536
2026-01-17 21:12:45.98	7.95	17.66	-38.1	-39.1	23.0	0.00e+00	92	31	0	758120448	48	6488
2026-01-17 21:12:47.00	7.72	17.63	-38.3	-39.2	22.9	0.00e+00	0	31	0	760217600	48	6608
2026-01-17 21:12:48.00	7.50	17.60	-38.4	-39.4	22.8	0.00e+00	92	31	0	762314752	48	6721
2026-01-17 21:12:49.02	7.28	17.56	-38.3	-39.2	23.1	0.00e+00	25	31	0	764411904	48	6598
2026-01-17 21:12:50.02	7.06	17.53	-38.3	-39.2	23.1	0.00e+00	22	31	0	766509056	48	6584
2026-01-17 21:12:51.03	6.83	17.49	-38.4	-39.3	23.1	0.00e+00	7	31	0	767557632	48	6661
2026-01-17 21:12:52.04	6.61	17.46	-38.1	-39.1	23.2	0.00e+00	59	31	0	769654784	48	6491
2026-01-17 21:12:53.05	6.39	17.42	-38.1	-39.1	23.2	0.00e+00	92	31	0	771751936	48	6473
2026-01-17 21:12:54.06	6.17	17.39	-38.1	-39.1	23.2	0.00e+00	24	31	0	773849088	48	6472
2026-01-17 21:12:55.07	5.95	17.35	-38.0	-39.0	23.2	0.00e+00	92	31	0	775946240	48	6422
2026-01-17 21:12:56.08	5.73	17.32	-38.1	-39.0	23.3	0.00e+00	2	31	0	776994816	48	6443
2026-01-17 21:12:57.09	5.51	17.28	-38.1	-39.0	23.2	0.00e+00	56	31	0	779091968	48	6444
2026-01-17 21:12:58.10	5.29	17.24	-38.1	-39.1	23.2	0.00e+00	2	31	0	781189120	48	6481
2026-01-17 21:12:59.11	5.08	17.21	-38.0	-38.9	23.3	0.00e+00	2	31	0	783286272	48	6388
2026-01-17 21:13:00.12	4.86	17.17	-38.0	-39.0	23.2	0.00e+00	81	31	0	785383424	48	6393
2026-01-17 21:13:01.13	4.64	17.13	-38.0	-38.9	23.1	0.00e+00	0	31	0	786432000	48	6348
2026-01-17 21:13:02.14	4.43	17.09	-38.1	-39.0	23.2	0.00e+00	92	31	0	788529152	48	6431
2026-01-17 21:13:03.15	4.21	17.05	-38.1	-39.0	23.2	0.00e+00	0	31	0	790626304	48	6424
2026-01-17 21:13:04.16	4.00	17.01	-38.1	-39.0	22.9	0.00e+00	42	31	0	792723456	48	6425
2026-01-17 21:13:05.17	3.78	16.97	-38.2	-39.2	23.1	0.00e+00	17	31	0	794820608	48	6564
2026-01-17 21:13:06.18	3.57	16.93	-38.3	-39.3	23.0	0.00e+00	0	31	0	796917760	48	6624
2026-01-17 21:13:07.19	3.35	16.89	-38.3	-39.3	23.0	0.00e+00	0	31	0	797966336	48	6649
2026-01-17 21:13:08.20	3.14	16.85	-38.3	-39.3	23.0	0.00e+00	17	31	0	800063488	48	6623
2026-01-17 21:13:09.21	2.93	16.81	-38.4	-39.4	22.9	0.00e+00	92	31	0	802160640	48	6702
2026-01-17 21:13:10.22	2.72	16.77	-38.1	-39.1	23.2	0.00e+00	24	31	0	804257792	48	6489
2026-01-17 21:13:11.23	2.51	16.73	-38.2	-39.1	23.1	0.00e+00	91	31	0	806354944	48	6522
2026-01-17 21:13:12.24	2.30	16.69	-38.1	-39.0	23.2	0.00e+00	22	31	0	807403520	48	6415
2026-01-17 21:13:13.25	2.09	16.65	-38.2	-39.2	23.0	0.00e+00	60	31	0	809500672	48	6561
2026-01-17 21:13:14.26	1.88	16.60	-38.1	-39.1	23.0	0.00e+00	63	31	0	811597824	48	6466
2026-01-17 21:13:15.27	1.67	16.56	-38.2	-39.2	23.0	0.00e+00	0	31	0	813694976	48	6569
2026-01-17 21:13:16.28	1.46	16.52	-38.3	-39.2	22.9	0.00e+00	92	31	0	815792128	48	6601
2026-01-17 21:13:17.29	1.25	16.47	-38.4	-39.4	22.7	0.00e+00	0	31	0	816840704	48	6720
2026-01-17 21:13:18.30	1.05	16.43	-38.4	-39.4	22.8	0.00e+00	91	31	0	818937856	48	6722
2026-01-17 21:13:19.30	0.84	16.39	-38.5	-39.5	22.7	0.00e+00	58	31	0	821035008	48	6818
2026-01-17 21:13:20.32	0.63	16.34	-38.6	-39.6	22.7	0.00e+00	66	31	0	823132160	48	6868
2026-01-17 21:13:21.32	0.43	16.30	-38.7	-39.8	22.5	0.00e+00	0	31	0	825229312	48	7016
2026-01-17 21:13:22.33	0.23	16.25	-38.7	-39.7	22.6	0.00e+00	0	31	0	826277888	50	6191
2026-01-17 21:13:23.34	0.02	16.21	-38.7	-39.7	22.6	0.00e+00	27	31	0	828375040	50	6187
2026-01-17 21:13:24.35	359.82	16.16	-38.6	-39.6	22.7	0.00e+00	0	31	0	830472192	50	6143
2026-01-17 21:13:25.36	359.62	16.12	-38.5	-39.5	22.7	0.00e+00	92	31	0	832569344	50	6050
2026-01-17 21:13:26.37	359.42	16.07	-38.6	-39.6	22.7	0.00e+00	22	31	0	834666496	50	6121
2026-01-17 21:13:27.38	359.21	16.02	-38.6	-39.6	22.6	0.00e+00	23	31	0	835715072	50	6154
2026-01-17 21:13:28.39	359.01	15.98	-38.8	-39.8	22.4	0.00e+00	25	31	0	837812224	50	6286
2026-01-17 21:13:29.40	358.81	15.93	-38.9	-39.9	22.4	0.00e+00	23	31	0	839909376	50	6376
2026-01-17 21:13:30.41	358.62	15.88	-39.0	-40.0	22.4	0.00e+00	0	31	0	842006528	50	6432
2026-01-17 21:13:31.42	358.42	15.84	-38.8	-39.8	22.4	0.00e+00	0	31	0	844103680	50	6295
2026-01-17 21:13:32.42	358.22	15.79	-38.9	-39.9	22.4	0.00e+00	91	31	0	845152256	50	6339
2026-01-17 21:13:33.43	358.02	15.74	-38.8	-39.8	22.5	0.00e+00	12	31	0	847249408	50	6263
2026-01-17 21:13:34.44	357.83	15.69	-38.9	-40.0	22.3	0.00e+00	91	31	0	849346560	50	6409
2026-01-17 21:13:35.45	357.63	15.64	-39.0	-40.0	22.4	0.00e+00	17	31	0	851443712	50	6427
2026-01-17 21:13:36.46	357.43	15.60	-39.0	-40.0	22.3	0.00e+00	18	31	0	853540864	50	6431
2026-01-17 21:13:37.47	357.24	15.55	-38.8	-39.8	22.5	0.00e+00	0	31	0	854589440	50	6307
2026-01-17 21:13:38.48	357.05	15.50	-38.8	-39.8	22.5	0.00e+00	0	31	0	856686592	50	6301
2026-01-17 21:13:39.49	356.85	15.45	-38.8	-39.8	22.5	0.00e+00	92	31	0	858783744	50	6265
2026-01-17 21:13:40.50	356.66	15.40	-38.7	-39.7	22.5	0.00e+00	0	31	0	860880896	50	6198
2026-01-17 21:13:41.51	356.47	15.35	-38.7	-39.8	22.5	0.00e+00	91	31	0	862978048	50	6247
2026-01-17 21:13:42.52	356.28	15.30	-38.9	-39.9	22.4	0.00e+00	0	31	0	865075200	50	6369
2026-01-17 21:13:43.53	356.09	15.25	-39.0	-40.0	22.2	0.00e+00	0	31	0	866123776	50	6429
2026-01-17 21:13:44.53	355.90	15.20	-39.0	-40.0	22.2	0.00e+00	0	31	0	868220928	50	6434
2026-01-17 21:13:45.54	355.71	15.15	-39.1	-40.1	22.1	0.00e+00	2	31	0	870318080	50	6516
2026-01-17 21:13:46.55	355.52	15.10	-39.1	-40.2	22.1	0.00e+00	22	31	0	872415232	50	6563
2026-01-17 21:13:47.56	355.33	15.05	-39.2	-40.2	22.0	0.00e+00	2	31	0	873463808	50	6598
2026-01-17 21:13:48.57	355.14	15.00	-39.2	-40.3	21.9	0.00e+00	91	31	0	875560960	50	6683
2026-01-17 21:13:49.58	354.96	14.94	-39.3	-40.4	21.9	0.00e+00	0	31	0	877658112	50	6743
2026-01-17 21:13:50.59	354.77	14.89	-39.2	-40.3	22.0	0.00e+00	42	31	0	879755264	50	6655
2026-01-17 21:13:51.60	354.58	14.84	-39.3	-40.4	21.9	0.00e+00	21	31	0	881852416	50	6739
2026-01-17 21:13:52.61	354.40	14.79	-39.1	-40.1	22.1	0.00e+00	0	31	0	882900992	50	6506
2026-01-17 21:13:53.62	354.21	14.74	-39.0	-40.1	22.2	0.00e+00	0	31	0	884998144	50	6473
2026-01-17 21:13:54.63	354.03	14.68	-38.9	-39.9	22.3	0.00e+00	0	31	0	887095296	50	6356
2026-01-17 21:13:55.64	353.85	14.63	-38.8	-39.8	22.5	0.00e+00	92	31	0	889192448	50	6278
2026-01-17 21:13:56.65	353.67	14.58	-38.8	-39.8	22.4	0.00e+00	61	31	0	891289600	50	6299
2026-01-17 21:13:57.66	353.48	14.52	-39.0	-40.1	22.2	0.00e+00	92	31	0	893386752	50	6468
2026-01-17 21:13:58.67	353.30	14.47	-39.2	-40.3	22.0	0.00e+00	61	31	0	894435328	50	6625
2026-01-17 21:13:59.67	353.12	14.42	-39.4	-40.5	21.7	0.00e+00	5	31	0	896532480	50	6811
2026-01-17 21:14:00.69	352.94	14.36	-39.6	-40.7	21.6	0.00e+00	0	31	0	898629632	50	6960
2026-01-17 21:14:01.70	352.76	14.31	-39.8	-40.9	21.5	0.00e+00	66	31	0	900726784	52	6335
2026-01-17 21:14:02.70	352.59	14.26	-39.7	-40.9	21.4	0.00e+00	92	31	0	902823936	52	6338
2026-01-17 21:14:03.72	352.41	14.20	-39.9	-41.0	21.3	0.00e+00	4	31	0	903872512	52	6460
2026-01-17 21:14:04.73	352.23	14.15	-39.9	-41.1	21.3	0.00e+00	92	31	0	905969664	52	6469
2026-01-17 21:14:05.74	352.05	14.09	-39.9	-41.1	21.3	0.00e+00	2	31	0	908066816	52	6493
2026-01-17 21:14:06.75	351.88	14.04	-39.8	-40.9	21.4	0.00e+00	5	31	0	910163968	52	6371
2026-01-17 21:14:07.76	351.70	13.99	-39.9	-41.0	21.3	0.00e+00	0	31	0	912261120	52	6450
2026-01-17 21:14:08.77	351.53	13.93	-39.9	-41.0	21.3	0.00e+00	5	31	0	913309696	52	6464
2026-01-17 21:14:09.78	351.35	13.88	-39.9	-41.1	21.2	0.00e+00	15	31	0	915406848	52	6494
2026-01-17 21:14:10.79	351.18	13.82	-40.1	-41.3	21.1	0.00e+00	21	31	0	917504000	52	6637
2026-01-17 21:14:11.80	351.01	13.77	-39.9	-41.1	21.2	0.00e+00	92	31	0	919601152	52	6506
2026-01-17 21:14:12.81	350.84	13.71	-39.9	-41.1	21.2	0.00e+00	20	31	0	921698304	52	6507
2026-01-17 21:14:13.82	350.67	13.66	-39.8	-41.0	21.3	0.00e+00	64	31	0	922746880	52	6438
2026-01-17 21:14:14.83	350.50	13.60	-39.8	-41.0	21.3	0.00e+00	66	31	0	924844032	52	6410
2026-01-17 21:14:15.84	350.33	13.54	-39.9	-41.0	21.2	0.00e+00	63	31	0	926941184	52	6436
2026-01-17 21:14:16.85	350.16	13.49	-39.8	-41.0	21.4	0.00e+00	0	31	0	929038336	52	6394
2026-01-17 21:14:17.86	349.99	13.43	-39.7	-40.8	21.5	0.00e+00	5	31	0	931135488	52	6314
2026-01-17 21:14:18.87	349.82	13.38	-39.8	-40.9	21.4	0.00e+00	92	31	0	933232640	52	6387
2026-01-17 21:14:19.88	349.65	13.32	-39.8	-40.9	21.4	0.00e+00	66	31	0	934281216	52	6357
2026-01-17 21:14:20.89	349.49	13.26	-39.9	-41.0	21.3	0.00e+00	92	31	0	936378368	52	6435
2026-01-17 21:14:21.90	349.32	13.21	-39.8	-41.0	21.3	0.00e+00	6	31	0	938475520	52	6407
2026-01-17 21:14:22.91	349.15	13.15	-40.0	-41.2	21.1	0.00e+00	66	31	0	940572672	52	6563
2026-01-17 21:14:23.92	348.99	13.09	-40.0	-41.2	21.2	0.00e+00	5	31	0	942669824	52	6569
2026-01-17 21:14:24.93	348.83	13.04	-40.0	-41.2	21.2	0.00e+00	6	31	0	943718400	52	6541
2026-01-17 21:14:25.94	348.66	12.98	-40.0	-41.2	21.1	0.00e+00	90	31	0	945815552	52	6555
2026-01-17 21:14:26.95	348.50	12.92	-39.8	-41.0	21.4	0.00e+00	6	31	0	947912704	52	6395
2026-01-17 21:14:27.96	348.34	12.87	-39.8	-40.9	21.4	0.00e+00	91	31	0	950009856	52	6368
2026-01-17 21:14:28.97	348.18	12.81	-39.7	-40.8	21.5	0.00e+00	0	31	0	952107008	52	6269
2026-01-17 21:14:29.98	348.01	12.75	-39.6	-40.7	21.6	0.00e+00	0	31	0	953155584	52	6191
2026-01-17 21:14:30.99	347.85	12.70	-39.4	-40.5	21.8	0.00e+00	5	31	0	955252736	52	6072
2026-01-17 21:14:32.00	347.70	12.64	-39.3	-40.4	21.9	0.00e+00	5	31	0	957349888	52	5976
2026-01-17 21:14:33.01	347.54	12.58	-39.5	-40.6	21.6	0.00e+00	0	31	0	959447040	52	6171
2026-01-17 21:14:34.02	347.38	12.52	-39.4	-40.5	21.8	0.00e+00	16	31	0	961544192	52	6056
2026-01-17 21:14:35.03	347.22	12.47	-39.6	-40.7	21.6	0.00e+00	92	31	0	962592768	52	6209
2026-01-17 21:14:36.04	347.06	12.41	-39.4	-40.5	21.8	0.00e+00	15	31	0	964689920	52	6074
2026-01-17 21:14:37.04	346.91	12.35	-39.3	-40.4	21.9	0.00e+00	91	31	0	966787072	52	5971
2026-01-17 21:14:38.05	346.75	12.29	-39.1	-40.2	22.1	0.00e+00	64	31	0	968884224	52	5839
2026-01-17 21:14:39.07	346.60	12.24	-39.0	-40.1	22.2	0.00e+00	20	31	0	970981376	52	5774
2026-01-17 21:14:40.07	346.44	12.18	-39.0	-40.1	22.1	0.00e+00	71	31	0	972029952	52	5790
2026-01-17 21:14:41.08	346.29	12.12	-39.1	-40.1	22.1	0.00e+00	61	31	0	974127104	52	5823
2026-01-17 21:14:42.09	346.14	12.06	-39.0	-40.1	22.1	0.00e+00	92	31	0	976224256	52	5821
2026-01-17 21:14:43.10	345.98	12.00	-39.1	-40.2	22.0	0.00e+00	0	31	0	978321408	52	5895
2026-01-17 21:14:44.11	345.83	11.95	-39.1	-40.1	22.1	0.00e+00	92	31	0	980418560	52	5826
2026-01-17 21:14:45.12	345.68	11.89	-39.0	-40.1	22.1	0.00e+00	0	31	0	981467136	52	5822
2026-01-17 21:14:46.13	345.53	11.83	-38.9	-39.9	22.3	0.00e+00	0	31	0	983564288	52	5683
2026-01-17 21:14:47.14	345.38	11.77	-38.9	-40.0	22.2	0.00e+00	0	31	0	985661440	52	5705
2026-01-17 21:14:48.15	345.23	11.71	-38.9	-40.0	22.2	0.00e+00	0	31	0	987758592	52	5703
2026-01-17 21:14:49.16	345.08	11.65	-38.7	-39.8	22.4	0.00e+00	92	31	0	989855744	50	6248
2026-01-17 21:14:50.17	344.93	11.59	-38.6	-39.6	22.5	0.00e+00	2	31	0	990904320	50	6164
2026-01-17 21:14:51.18	344.78	11.54	-38.5	-39.6	22.6	0.00e+00	92	31	0	993001472	50	6104
2026-01-17 21:14:52.19	344.64	11.48	-38.6	-39.7	22.5	0.00e+00	0	31	0	995098624	50	6179
2026-01-17 21:14:53.20	344.49	11.42	-38.4	-39.4	22.7	0.00e+00	19	31	0	997195776	50	5981
2026-01-17 21:14:54.21	344.34	11.36	-38.3	-39.3	22.7	0.00e+00	0	31	0	999292928	50	5935
2026-01-17 21:14:55.22	344.20	11.30	-38.3	-39.3	22.8	0.00e+00	19	31	0	1001390080	50	5937
2026-01-17 21:14:56.22	344.05	11.24	-38.4	-39.5	22.6	0.00e+00	92	31	0	1002438656	50	6038
2026-01-17 21:14:57.23	343.91	11.18	-38.5	-39.5	22.6	0.00e+00	62	31	0	1004535808	50	6091
2026-01-17 21:14:58.24	343.77	11.13	-38.4	-39.5	22.7	0.00e+00	92	31	0	1006632960	50	6039
2026-01-17 21:14:59.25	343.62	11.07	-38.5	-39.5	22.6	0.00e+00	0	31	0	1008730112	50	6097
2026-01-17 21:15:00.26	343.48	11.01	-38.6	-39.6	22.5	0.00e+00	92	31	0	1009778688	50	6150
2026-01-17 21:15:01.27	343.34	10.95	-38.5	-39.5	22.6	0.00e+00	66	31	0	1011875840	50	6072
2026-01-17 21:15:02.28	343.20	10.89	-38.3	-39.3	22.8	0.00e+00	66	31	0	1013972992	50	5899
2026-01-17 21:15:03.29	343.06	10.83	-38.2	-39.2	22.9	0.00e+00	0	31	0	1016070144	50	5843
2026-01-17 21:15:04.30	342.92	10.77	-38.2	-39.2	22.9	0.00e+00	0	31	0	1018167296	50	5867
2026-01-17 21:15:05.31	342.78	10.71	-38.0	-38.9	23.0	0.00e+00	92	31	0	1019215872	50	5683
2026-01-17 21:15:06.32	342.64	10.65	-38.1	-39.1	22.9	0.00e+00	0	31	0	1021313024	50	5802
2026-01-17 21:15:07.33	342.50	10.59	-38.2	-39.2	22.7	0.00e+00	0	31	0	1023410176	50	5844
2026-01-17 21:15:08.34	342.36	10.53	-38.2	-39.2	22.5	0.00e+00	0	31	0	1025507328	50	5865
2026-01-17 21:15:09.35	342.22	10.48	-38.3	-39.3	22.5	0.00e+00	1	31	0	1027604480	50	5928
2026-01-17 21:15:10.36	342.09	10.42	-38.3	-39.2	22.8	0.00e+00	0	31	0	1029701632	50	5892
2026-01-17 21:15:11.37	341.95	10.36	-38.2	-39.2	22.8	0.00e+00	0	31	0	1030750208	50	5879
2026-01-17 21:15:12.38	341.82	10.30	-38.2	-39.2	22.8	0.00e+00	91	31	0	1032847360	50	5848
2026-01-17 21:15:13.39	341.68	10.24	-38.3	-39.3	22.7	0.00e+00	0	31	0	1034944512	50	5900
2026-01-17 21:15:14.40	341.55	10.18	-38.3	-39.3	22.7	0.00e+00	90	31	0	1037041664	50	5949
2026-01-17 21:15:15.41	341.41	10.12	-38.2	-39.2	22.6	0.00e+00	0	31	0	1039138816	50	5878
2026-01-17 21:15:16.42	341.28	10.06	-38.2	-39.2	22.9	0.00e+00	20	31	0	1040187392	50	5830
2026-01-17 21:15:17.43	341.15	10.00	-38.3	-39.3	22.7	0.00e+00	21	31	0	1042284544	50	5929
2026-01-17 21:15:18.44	341.01	9.94	-38.2	-39.2	22.8	0.00e+00	20	31	0	1044381696	50	5847
2026-01-17 21:15:19.45	340.88	9.88	-38.4	-39.4	22.6	0.00e+00	0	31	0	1046478848	50	5979
2026-01-17 21:15:20.46	340.75	9.82	-38.5	-39.5	22.5	0.00e+00	61	31	0	1048576000	50	6082
2026-01-17 21:15:21.47	340.62	9.76	-38.5	-39.6	22.5	0.00e+00	91	31	0	1049624576	50	6104
2026-01-17 21:15:22.48	340.49	9.71	-38.8	-39.9	22.4	0.00e+00	0	31	0	1051721728	50	6332
2026-01-17 21:15:23.49	340.36	9.65	-38.5	-39.6	22.4	0.00e+00	0	31	0	1053818880	50	6123
2026-01-17 21:15:24.50	340.23	9.59	-38.6	-39.7	22.4	0.00e+00	2	31	0	1055916032	50	6175
2026-01-17 21:15:25.50	340.10	9.53	-38.6	-39.7	22.3	0.00e+00	0	31	0	1058013184	50	6204
2026-01-17 21:15:26.51	339.98	9.47	-38.9	-40.0	22.1	0.00e+00	0	31	0	1059061760	50	6393
2026-01-17 21:15:27.52	339.85	9.41	-38.9	-40.0	22.0	0.00e+00	0	31	0	1061158912	50	6412
2026-01-17 21:15:28.53	339.72	9.35	-39.1	-40.3	21.8	0.00e+00	91	31	0	1063256064	50	6618
2026-01-17 21:15:29.54	339.60	9.29	-39.2	-40.3	21.8	0.00e+00	0	31	0	1065353216	50	6663
2026-01-17 21:15:30.55	339.47	9.23	-38.7	-39.8	22.2	0.00e+00	91	31	0	1067450368	50	6280
2026-01-17 21:15:31.56	339.34	9.17	-38.8	-39.9	22.1	0.00e+00	0	31	0	1068498944	50	6347
2026-01-17 21:15:32.57	339.22	9.11	-38.8	-39.8	22.1	0.00e+00	12	31	0	1070596096	50	6304
2026-01-17 21:15:33.58	339.10	9.05	-38.8	-39.9	22.0	0.00e+00	0	31	0	1072693248	50	6331
2026-01-17 21:15:34.59	338.97	8.99	-38.7	-39.7	22.2	0.00e+00	17	31	0	1074790400	50	6231
2026-01-17 21:15:35.60	338.85	8.93	-38.7	-39.7	22.1	0.00e+00	91	31	0	1076887552	50	6227
2026-01-17 21:15:36.61	338.73	8.88	-38.8	-39.8	22.0	0.00e+00	0	31	0	1077936128	50	6294
2026-01-17 21:15:37.62	338.60	8.82	-38.8	-39.9	22.0	0.00e+00	91	31	0	1080033280	50	6368
2026-01-17 21:15:38.63	338.48	8.76	-38.6	-39.6	22.2	0.00e+00	0	31	0	1082130432	50	6168
2026-01-17 21:15:39.64	338.36	8.70	-38.5	-39.5	22.3	0.00e+00	0	31	0	1084227584	50	6081
2026-01-17 21:15:40.65	338.24	8.64	-38.8	-39.8	22.1	0.00e+00	71	31	0	1086324736	50	6296
2026-01-17 21:15:41.66	338.12	8.58	-39.0	-40.0	22.0	0.00e+00	62	31	0	1087373312	50	6460
2026-01-17 21:15:42.67	338.00	8.52	-38.9	-39.9	22.1	0.00e+00	12	31	0	1089470464	50	6384
2026-01-17 21:15:43.68	337.88	8.46	-38.9	-40.0	22.0	0.00e+00	65	31	0	1091567616	50	6395
2026-01-17 21:15:44.68	337.76	8.40	-39.1	-40.2	21.8	0.00e+00	92	31	0	1093664768	50	6564
2026-01-17 21:15:45.69	337.65	8.34	-39.2	-40.3	21.7	0.00e+00	66	31	0	1095761920	50	6671
2026-01-17 21:15:46.70	337.53	8.28	-39.3	-40.4	21.5	0.00e+00	0	31	0	1097859072	50	6751
2026-01-17 21:15:47.71	337.41	8.23	-39.4	-40.6	21.3	0.00e+00	0	31	0	1098907648	50	6857
2026-01-17 21:15:48.72	337.29	8.17	-39.3	-40.4	21.5	0.00e+00	0	31	0	1101004800	50	6763
2026-01-17 21:15:49.73	337.18	8.11	-39.6	-40.8	21.2	0.00e+00	0	31	0	1103101952	50	7042
2026-01-17 21:15:50.74	337.06	8.05	-39.5	-40.7	21.3	0.00e+00	6	31	0	1105199104	52	6199
2026-01-17 21:15:51.75	336.95	7.99	-39.7	-40.9	21.0	0.00e+00	92	31	0	1107296256	52	6360
2026-01-17 21:15:52.76	336.83	7.93	-39.7	-40.8	21.2	0.00e+00	2	31	0	1108344832	52	6311
2026-01-17 21:15:53.77	336.72	7.87	-39.6	-40.8	21.1	0.00e+00	92	31	0	1110441984	52	6288
2026-01-17 21:15:54.78	336.60	7.81	-39.7	-40.9	21.1	0.00e+00	11	31	0	1112539136	52	6364
2026-01-17 21:15:55.79	336.49	7.75	-39.6	-40.8	21.2	0.00e+00	12	31	0	1114636288	52	6254
2026-01-17 21:15:56.80	336.38	7.70	-39.7	-40.8	21.1	0.00e+00	7	31	0	1116733440	52	6308
2026-01-17 21:15:57.81	336.26	7.64	-39.8	-41.1	21.0	0.00e+00	4	31	0	1117782016	52	6467
2026-01-17 21:15:58.82	336.15	7.58	-39.8	-41.0	20.9	0.00e+00	90	31	0	1119879168	52	6408
2026-01-17 21:15:59.83	336.04	7.52	-39.8	-41.0	20.8	0.00e+00	16	31	0	1121976320	52	6431
2026-01-17 21:16:00.84	335.93	7.46	-39.8	-41.0	20.9	0.00e+00	92	31	0	1124073472	52	6411
2026-01-17 21:16:01.85	335.82	7.40	-39.9	-41.1	20.7	0.00e+00	0	31	0	1126170624	52	6523
2026-01-17 21:16:02.86	335.71	7.34	-39.9	-41.1	20.7	0.00e+00	12	31	0	1127219200	52	6539
2026-01-17 21:16:03.87	335.60	7.28	-40.0	-41.2	20.7	0.00e+00	0	31	0	1129316352	52	6591
2026-01-17 21:16:04.88	335.49	7.23	-40.0	-41.3	20.6	0.00e+00	2	31	0	1131413504	52	6671
2026-01-17 21:16:05.89	335.38	7.17	-40.1	-41.4	20.5	0.00e+00	2	31	0	1133510656	52	6707
2026-01-17 21:16:06.89	335.27	7.11	-40.0	-41.2	20.7	0.00e+00	2	31	0	1135607808	52	6610
2026-01-17 21:16:07.91	335.17	7.05	-40.1	-41.3	20.5	0.00e+00	92	31	0	1136656384	52	6671
2026-01-17 21:16:08.92	335.06	6.99	-40.1	-41.4	20.5	0.00e+00	70	31	0	1138753536	52	6737
2026-01-17 21:16:09.93	334.95	6.93	-40.2	-41.5	20.5	0.00e+00	92	31	0	1140850688	52	6797
2026-01-17 21:16:10.93	334.85	6.88	-40.1	-41.4	20.5	0.00e+00	6	31	0	1142947840	52	6725
2026-01-17 21:16:11.94	334.74	6.82	-40.2	-41.5	20.4	0.00e+00	6	31	0	1145044992	52	6828
2026-01-17 21:16:12.95	334.63	6.76	-40.2	-41.5	20.3	0.00e+00	7	31	0	1146093568	52	6835
2026-01-17 21:16:13.96	334.53	6.70	-40.2	-41.5	20.3	0.00e+00	3	31	0	1148190720	52	6780
2026-01-17 21:16:14.97	334.42	6.64	-40.6	-41.9	19.8	0.00e+00	90	31	0	1150287872	52	7168
2026-01-17 21:16:15.98	334.32	6.58	-40.5	-41.8	19.9	0.00e+00	17	31	0	1152385024	54	6312
2026-01-17 21:16:16.99	334.22	6.53	-40.4	-41.8	19.9	0.00e+00	92	31	0	1154482176	54	6294
2026-01-17 21:16:18.00	334.11	6.47	-40.5	-41.9	19.7	0.00e+00	5	31	0	1155530752	54	6341
2026-01-17 21:16:19.01	334.01	6.41	-40.8	-42.3	19.4	0.00e+00	13	31	0	1157627904	54	6625
2026-01-17 21:16:20.02	333.91	6.35	-40.7	-42.2	19.4	0.00e+00	11	31	0	1159725056	54	6541
2026-01-17 21:16:21.03	333.80	6.29	-40.9	-42.4	19.2	0.00e+00	11	31	0	1161822208	54	6747
2026-01-17 21:16:22.04	333.70	6.24	-40.8	-42.3	19.2	0.00e+00	74	31	0	1163919360	54	6640
2026-01-17 21:16:23.05	333.60	6.18	-40.7	-42.2	19.4	0.00e+00	17	31	0	1166016512	54	6568
2026-01-17 21:16:24.06	333.50	6.12	-40.9	-42.4	19.2	0.00e+00	92	31	0	1167065088	54	6738
2026-01-17 21:16:25.07	333.40	6.06	-40.9	-42.4	19.1	0.00e+00	0	31	0	1169162240	54	6725
2026-01-17 21:16:26.08	333.30	6.01	-40.8	-42.2	19.3	0.00e+00	64	31	0	1171259392	54	6615
2026-01-17 21:16:27.09	333.20	5.95	-40.8	-42.3	19.1	0.00e+00	2	31	0	1173356544	54	6690
2026-01-17 21:16:28.10	333.10	5.89	-41.0	-42.5	18.9	0.00e+00	0	31	0	1175453696	54	6847
2026-01-17 21:16:29.11	333.00	5.83	-41.0	-42.6	18.8	0.00e+00	11	31	0	1176502272	54	6861
2026-01-17 21:16:30.12	332.90	5.78	-41.0	-42.6	18.6	0.00e+00	0	31	0	1178599424	54	6916
2026-01-17 21:16:31.13	332.81	5.72	-41.2	-42.8	18.6	0.00e+00	92	31	0	1180696576	54	7060
2026-01-17 21:16:32.14	332.71	5.66	-41.0	-42.6	18.6	0.00e+00	0	31	0	1182793728	54	6911
2026-01-17 21:16:33.16	332.61	5.60	-41.3	-42.9	18.6	0.00e+00	92	31	0	1184890880	54	7137
2026-01-17 21:16:34.17	332.51	5.54	-41.4	-43.2	18.2	0.00e+00	0	31	0	1185939456	54	7342
2026-01-17 21:16:35.18	332.42	5.49	-41.7	-43.5	17.9	0.00e+00	4	31	0	1188036608	54	7607
2026-01-17 21:16:36.19	332.32	5.43	-41.6	-43.3	18.2	0.00e+00	0	31	0	1190133760	56	6671
2026-01-17 21:16:37.20	332.22	5.37	-41.6	-43.4	18.2	0.00e+00	16	31	0	1192230912	56	6706
2026-01-17 21:16:38.21	332.13	5.32	-41.5	-43.2	18.3	0.00e+00	92	31	0	1194328064	56	6561
2026-01-17 21:16:39.22	332.03	5.26	-41.4	-43.1	18.5	0.00e+00	66	31	0	1195376640	56	6514
2026-01-17 21:16:40.23	331.94	5.20	-41.4	-43.1	18.5	0.00e+00	90	31	0	1197473792	56	6495
2026-01-17 21:16:41.24	331.84	5.14	-41.4	-43.1	18.5	0.00e+00	15	31	0	1199570944	56	6472
