passes_logs/2026/01/17/R4.6S_Anadyr/R4.6S_Anadyr__20260117_154720_SUOMI_NPP_rec.log

#Pass ID: 20260117_154720_SUOMI NPP
#Satellite: SUOMI NPP
#Configuration: NPP
#almurnet v.1.7.20251203
#Start time: 2026-01-17 15:47:22

#Version: 2.2.20231116
#Station: R4.6S_Anadyr
#Location: 177.4865 lon 64.73178 lat
#TLE: 1 37849U 11061A   26016.58419598  .00000058  00000+0  48257-4 0  9996
#TLE: 2 37849  98.7812 318.6192 0002422  60.8544 299.2874 14.19525580736934

#Time	Az	El	Level	Level2	SNR	BER	BlckErr	Temp	State	Recorded	gain1	gain2
2026-01-17 15:47:22.27	23.19	0.11	-48.5	-61.0	3.4	1.52e+00	0	25	0	0	60	39488
2026-01-17 15:47:23.28	23.17	0.17	-48.7	-63.9	3.6	1.51e+00	0	27	104	0	60	56621
2026-01-17 15:47:24.29	23.15	0.23	-48.6	-63.9	3.6	1.51e+00	0	27	104	0	60	56622
2026-01-17 15:47:25.30	23.13	0.29	-48.6	-63.9	3.6	1.51e+00	0	27	104	0	60	56605
2026-01-17 15:47:26.31	23.10	0.35	-48.7	-63.9	3.6	1.51e+00	0	27	104	0	60	56436
2026-01-17 15:47:27.32	23.08	0.41	-48.7	-63.9	3.6	1.51e+00	0	27	104	0	60	56493
2026-01-17 15:47:28.33	23.06	0.47	-48.7	-63.9	3.6	1.51e+00	0	27	104	0	60	56534
2026-01-17 15:47:29.34	23.03	0.53	-48.7	-63.9	3.5	1.51e+00	0	27	104	0	60	56446
2026-01-17 15:47:30.35	23.01	0.59	-48.7	-63.9	3.6	1.51e+00	0	27	104	0	60	56471
2026-01-17 15:47:31.36	22.99	0.65	-48.6	-63.8	3.6	1.51e+00	0	27	104	0	60	55943
2026-01-17 15:47:32.37	22.96	0.71	-48.5	-63.7	3.6	1.51e+00	0	27	104	0	60	55569
2026-01-17 15:47:33.38	22.94	0.78	-48.4	-63.6	3.6	1.51e+00	0	27	104	0	60	54467
2026-01-17 15:47:34.39	22.92	0.84	-48.3	-63.4	3.6	1.51e+00	0	27	104	0	60	53726
2026-01-17 15:47:35.40	22.89	0.90	-48.1	-63.3	3.6	1.51e+00	0	27	104	0	60	52611
2026-01-17 15:47:36.41	22.87	0.96	-47.9	-63.1	3.6	1.51e+00	0	27	104	0	60	51818
2026-01-17 15:47:37.42	22.84	1.02	-47.7	-62.8	3.6	1.51e+00	0	27	104	0	60	49903
2026-01-17 15:47:38.43	22.82	1.08	-47.3	-62.5	3.6	1.51e+00	0	27	104	0	60	47928
2026-01-17 15:47:39.45	22.80	1.14	-47.1	-62.3	3.6	1.51e+00	0	27	104	0	60	47211
2026-01-17 15:47:40.46	22.77	1.20	-47.1	-62.2	3.6	1.51e+00	0	27	104	0	60	46780
2026-01-17 15:47:41.47	22.75	1.27	-47.1	-62.3	3.6	1.51e+00	0	27	104	0	60	47079
2026-01-17 15:47:42.48	22.72	1.33	-47.1	-62.2	3.6	1.51e+00	0	27	104	0	60	46375
2026-01-17 15:47:43.49	22.70	1.39	-47.1	-62.2	3.6	1.51e+00	0	27	104	0	60	46750
2026-01-17 15:47:44.50	22.67	1.45	-47.1	-62.3	3.5	1.51e+00	0	27	104	0	60	46978
2026-01-17 15:47:45.51	22.65	1.51	-47.1	-62.3	3.6	1.51e+00	0	27	104	0	60	46912
2026-01-17 15:47:46.52	22.62	1.58	-47.1	-62.3	3.6	1.51e+00	0	27	104	0	60	46843
2026-01-17 15:47:47.53	22.60	1.64	-47.1	-62.3	3.6	1.51e+00	0	27	104	0	60	46971
2026-01-17 15:47:48.54	22.57	1.70	-47.1	-62.1	3.6	1.51e+00	0	27	104	0	60	46074
2026-01-17 15:47:49.55	22.54	1.76	-47.1	-62.1	3.6	1.51e+00	0	27	104	0	60	45916
2026-01-17 15:47:50.56	22.52	1.83	-47.1	-61.9	3.6	1.51e+00	0	27	104	0	60	44829
2026-01-17 15:47:51.57	22.49	1.89	-47.1	-62.1	3.6	1.51e+00	0	27	104	0	60	45820
2026-01-17 15:47:52.57	22.47	1.95	-47.1	-62.0	3.6	1.51e+00	0	27	104	0	60	45256
2026-01-17 15:47:53.58	22.44	2.02	-47.1	-62.0	3.6	1.51e+00	0	27	104	0	60	45287
2026-01-17 15:47:54.60	22.41	2.08	-47.1	-62.2	3.6	1.51e+00	0	27	104	0	60	46567
2026-01-17 15:47:55.60	22.39	2.14	-47.1	-62.3	3.6	1.51e+00	0	27	104	0	60	46982
2026-01-17 15:47:56.62	22.36	2.21	-47.1	-62.3	3.6	1.51e+00	0	27	104	0	60	47182
2026-01-17 15:47:57.63	22.34	2.27	-47.1	-62.3	3.6	1.51e+00	0	27	104	0	60	46895
2026-01-17 15:47:58.64	22.31	2.33	-47.1	-62.2	3.6	1.51e+00	0	27	104	0	60	46412
2026-01-17 15:47:59.65	22.28	2.40	-47.1	-62.0	3.6	1.51e+00	0	27	104	0	60	45576
2026-01-17 15:48:00.66	22.25	2.46	-47.1	-61.8	3.5	1.51e+00	0	27	104	0	60	44519
2026-01-17 15:48:01.67	22.23	2.53	-47.1	-61.5	3.6	1.51e+00	0	27	104	0	60	42898
2026-01-17 15:48:02.68	22.20	2.59	-47.0	-61.3	3.6	1.51e+00	0	27	104	0	60	41895
2026-01-17 15:48:03.69	22.17	2.66	-47.0	-60.8	3.6	1.51e+00	0	27	104	0	60	39851
2026-01-17 15:48:04.70	22.14	2.72	-47.0	-61.1	3.6	1.51e+00	0	27	104	0	60	41208
2026-01-17 15:48:05.71	22.12	2.79	-47.0	-60.9	3.6	1.51e+00	0	27	104	0	60	39963
2026-01-17 15:48:06.72	22.09	2.85	-47.0	-61.3	3.6	1.51e+00	0	27	104	0	60	41784
2026-01-17 15:48:07.73	22.06	2.92	-47.1	-61.9	3.6	1.51e+00	0	27	104	0	60	44796
2026-01-17 15:48:08.74	22.03	2.98	-47.0	-61.7	3.6	1.51e+00	0	27	104	0	60	43915
2026-01-17 15:48:09.75	22.00	3.05	-47.0	-59.5	3.9	1.51e+00	0	27	104	0	60	34320
2026-01-17 15:48:10.76	21.98	3.11	-46.7	-56.0	4.9	1.34e+00	0	27	0	0	60	22811
2026-01-17 15:48:11.77	21.95	3.18	-46.3	-53.3	7.2	4.04e-01	0	27	0	2097152	60	16756
2026-01-17 15:48:12.78	21.92	3.24	-45.8	-51.3	9.5	3.28e-02	6	27	0	4194304	60	13260
2026-01-17 15:48:13.80	21.89	3.31	-45.1	-49.6	11.4	1.92e-03	0	27	0	5242880	60	10878
2026-01-17 15:48:14.81	21.86	3.38	-44.3	-47.8	13.4	3.13e-04	58	27	0	7340032	60	8884
2026-01-17 15:48:15.82	21.83	3.44	-43.8	-46.9	14.3	7.00e-07	0	27	0	9437184	60	8041
2026-01-17 15:48:16.82	21.80	3.51	-43.6	-46.5	14.7	0.00e+00	47	27	0	11534336	60	7633
2026-01-17 15:48:17.84	21.77	3.58	-43.4	-46.2	14.9	0.00e+00	0	27	0	13631488	60	7399
2026-01-17 15:48:18.85	21.74	3.64	-43.1	-45.6	15.4	0.00e+00	0	27	0	15728640	60	6905
2026-01-17 15:48:19.86	21.71	3.71	-43.7	-46.6	14.6	7.00e-07	2	27	0	16777216	60	7759
2026-01-17 15:48:20.87	21.68	3.78	-44.9	-48.9	11.8	1.50e-06	0	27	0	18874368	60	10120
2026-01-17 15:48:21.88	21.65	3.85	-46.1	-52.0	8.8	3.43e-03	62	28	0	20971520	60	14462
2026-01-17 15:48:22.89	21.62	3.91	-46.8	-57.1	3.6	3.56e-02	3	28	0	23068672	60	25937
2026-01-17 15:48:23.90	21.59	3.98	-39.5	-40.8	18.7	4.19e-01	90	27	104	23068672	52	6317
2026-01-17 15:48:24.91	21.56	4.05	-47.1	-61.5	3.6	0.00e+00	0	27	104	24117248	60	42764
2026-01-17 15:48:25.92	21.53	4.12	-40.8	-42.5	6.1	1.48e+00	0	27	104	24117248	56	6079
2026-01-17 15:48:26.93	21.50	4.18	-40.0	-41.4	19.8	0.00e+00	0	27	0	24117248	54	6023
2026-01-17 15:48:27.94	21.47	4.25	-40.5	-42.0	19.2	0.00e+00	0	27	0	26214400	52	7188
2026-01-17 15:48:28.95	21.44	4.32	-39.6	-40.9	20.2	0.00e+00	92	27	0	27262976	52	6365
2026-01-17 15:48:29.96	21.41	4.39	-40.0	-41.4	19.7	0.00e+00	0	27	0	29360128	52	6727
2026-01-17 15:48:30.97	21.37	4.46	-39.4	-40.6	20.4	0.00e+00	70	27	0	31457280	52	6172
2026-01-17 15:48:31.98	21.34	4.53	-39.5	-40.8	20.4	0.00e+00	0	28	0	33554432	52	6269
2026-01-17 15:48:32.99	21.31	4.60	-39.1	-40.4	20.6	0.00e+00	0	27	0	35651584	52	5973
2026-01-17 15:48:34.00	21.28	4.67	-39.2	-40.4	20.7	0.00e+00	0	27	0	37748736	52	6000
2026-01-17 15:48:35.01	21.25	4.74	-39.6	-40.8	20.2	0.00e+00	0	28	0	38797312	52	6314
2026-01-17 15:48:36.02	21.21	4.80	-39.0	-40.3	20.8	0.00e+00	91	27	0	40894464	52	5900
2026-01-17 15:48:37.03	21.18	4.87	-39.1	-40.3	20.7	0.00e+00	0	27	0	42991616	52	5960
2026-01-17 15:48:38.04	21.15	4.94	-39.4	-40.7	20.6	0.00e+00	92	27	0	45088768	52	6215
2026-01-17 15:48:39.05	21.12	5.01	-39.5	-40.7	20.5	0.00e+00	0	27	0	47185920	52	6232
2026-01-17 15:48:40.05	21.08	5.08	-39.5	-40.7	20.5	0.00e+00	0	27	0	48234496	52	6243
2026-01-17 15:48:41.06	21.05	5.15	-39.0	-40.2	20.8	0.00e+00	0	27	0	50331648	50	6542
2026-01-17 15:48:42.07	21.02	5.23	-39.3	-40.5	20.6	0.00e+00	0	28	0	52428800	50	6808
2026-01-17 15:48:43.09	20.98	5.30	-39.2	-40.4	20.8	0.00e+00	0	28	0	54525952	50	6729
2026-01-17 15:48:44.09	20.95	5.37	-39.1	-40.3	20.9	0.00e+00	0	27	0	56623104	50	6658
2026-01-17 15:48:45.10	20.91	5.44	-39.0	-40.2	21.0	0.00e+00	69	28	0	57671680	50	6549
2026-01-17 15:48:46.11	20.88	5.51	-38.9	-40.0	21.0	0.00e+00	0	27	0	59768832	50	6456
2026-01-17 15:48:47.12	20.85	5.58	-38.9	-40.1	21.1	0.00e+00	0	28	0	61865984	50	6480
2026-01-17 15:48:48.13	20.81	5.65	-39.0	-40.2	21.0	0.00e+00	0	28	0	63963136	50	6545
2026-01-17 15:48:49.14	20.78	5.72	-38.7	-39.9	21.3	0.00e+00	9	28	0	66060288	50	6341
2026-01-17 15:48:50.15	20.74	5.80	-39.0	-40.2	20.9	0.00e+00	65	28	0	67108864	50	6572
2026-01-17 15:48:51.16	20.71	5.87	-38.9	-40.1	21.1	0.00e+00	0	28	0	69206016	50	6496
2026-01-17 15:48:52.17	20.67	5.94	-38.7	-39.8	21.3	0.00e+00	92	28	0	71303168	50	6275
2026-01-17 15:48:53.18	20.63	6.01	-38.8	-40.0	21.2	0.00e+00	0	28	0	73400320	50	6412
2026-01-17 15:48:54.19	20.60	6.09	-38.8	-39.9	21.2	0.00e+00	20	28	0	75497472	50	6360
2026-01-17 15:48:55.19	20.56	6.16	-38.6	-39.7	21.4	0.00e+00	11	28	0	76546048	50	6182
2026-01-17 15:48:56.20	20.53	6.23	-38.7	-39.9	21.4	0.00e+00	0	28	0	78643200	50	6322
2026-01-17 15:48:57.22	20.49	6.31	-38.6	-39.7	21.5	0.00e+00	46	28	0	80740352	50	6180
2026-01-17 15:48:58.23	20.45	6.38	-38.6	-39.7	21.6	0.00e+00	20	28	0	82837504	50	6202
2026-01-17 15:48:59.24	20.42	6.45	-38.3	-39.4	21.7	0.00e+00	90	28	0	84934656	50	5988
2026-01-17 15:49:00.25	20.38	6.53	-38.9	-40.0	21.2	0.00e+00	20	27	0	85983232	50	6425
2026-01-17 15:49:01.26	20.34	6.60	-38.5	-39.6	21.4	0.00e+00	36	28	0	88080384	50	6104
2026-01-17 15:49:02.27	20.30	6.68	-38.5	-39.6	21.5	0.00e+00	0	28	0	90177536	50	6113
2026-01-17 15:49:03.28	20.27	6.75	-38.8	-39.9	21.2	0.00e+00	0	28	0	92274688	50	6387
2026-01-17 15:49:04.29	20.23	6.83	-38.8	-40.0	21.5	0.00e+00	6	28	0	94371840	50	6393
2026-01-17 15:49:05.30	20.19	6.90	-38.7	-39.9	21.4	0.00e+00	0	28	0	95420416	50	6326
2026-01-17 15:49:06.31	20.15	6.98	-38.2	-39.2	21.9	0.00e+00	92	28	0	97517568	50	5878
2026-01-17 15:49:07.32	20.11	7.05	-38.5	-39.5	21.7	0.00e+00	0	28	0	99614720	50	6101
2026-01-17 15:49:08.33	20.08	7.13	-38.3	-39.4	21.8	0.00e+00	92	28	0	101711872	50	5977
2026-01-17 15:49:09.34	20.04	7.20	-39.0	-40.1	21.3	0.00e+00	0	28	0	103809024	50	6513
2026-01-17 15:49:10.35	20.00	7.28	-38.7	-39.8	21.4	0.00e+00	0	28	0	105906176	50	6292
2026-01-17 15:49:11.36	19.96	7.36	-38.6	-39.7	21.7	0.00e+00	9	28	0	106954752	50	6193
2026-01-17 15:49:12.37	19.92	7.43	-38.3	-39.4	21.7	0.00e+00	0	28	0	109051904	50	6015
2026-01-17 15:49:13.38	19.88	7.51	-38.6	-39.7	21.6	0.00e+00	62	28	0	111149056	50	6187
2026-01-17 15:49:14.39	19.84	7.59	-38.7	-39.8	21.3	0.00e+00	0	28	0	113246208	50	6309
2026-01-17 15:49:15.40	19.80	7.66	-38.7	-39.8	21.3	0.00e+00	92	28	0	115343360	50	6294
2026-01-17 15:49:16.41	19.76	7.74	-39.0	-40.2	21.3	0.00e+00	0	28	0	116391936	50	6545
2026-01-17 15:49:17.42	19.72	7.82	-38.7	-39.8	21.3	0.00e+00	0	28	0	118489088	50	6310
2026-01-17 15:49:18.43	19.67	7.90	-38.4	-39.5	21.5	0.00e+00	0	28	0	120586240	50	6086
2026-01-17 15:49:19.44	19.63	7.97	-38.4	-39.5	21.5	0.00e+00	0	28	0	122683392	50	6082
2026-01-17 15:49:20.45	19.59	8.05	-38.6	-39.8	21.7	0.00e+00	5	28	0	124780544	50	6248
2026-01-17 15:49:21.46	19.55	8.13	-38.4	-39.5	21.4	0.00e+00	0	28	0	125829120	50	6087
2026-01-17 15:49:22.47	19.51	8.21	-38.4	-39.5	21.7	0.00e+00	92	28	0	127926272	50	6085
2026-01-17 15:49:23.48	19.47	8.29	-38.4	-39.5	21.6	0.00e+00	0	28	0	130023424	50	6091
2026-01-17 15:49:24.49	19.42	8.37	-38.8	-39.9	21.4	0.00e+00	0	28	0	132120576	50	6366
2026-01-17 15:49:25.49	19.38	8.45	-38.5	-39.6	21.6	0.00e+00	0	28	0	134217728	50	6107
2026-01-17 15:49:26.50	19.34	8.53	-38.4	-39.5	21.7	0.00e+00	0	28	0	135266304	50	6083
2026-01-17 15:49:27.51	19.29	8.61	-38.5	-39.6	21.6	0.00e+00	4	28	0	137363456	50	6136
2026-01-17 15:49:28.52	19.25	8.69	-38.3	-39.4	21.8	0.00e+00	0	28	0	139460608	50	5982
2026-01-17 15:49:29.53	19.21	8.77	-38.6	-39.8	21.6	0.00e+00	51	28	0	141557760	50	6248
2026-01-17 15:49:30.54	19.16	8.85	-38.5	-39.6	21.7	0.00e+00	0	28	0	143654912	50	6137
2026-01-17 15:49:31.55	19.12	8.93	-38.3	-39.4	21.8	0.00e+00	0	28	0	144703488	50	6015
2026-01-17 15:49:32.56	19.07	9.01	-38.6	-39.7	21.8	0.00e+00	0	28	0	146800640	50	6190
2026-01-17 15:49:33.57	19.03	9.09	-38.4	-39.5	21.9	0.00e+00	0	28	0	148897792	50	6049
2026-01-17 15:49:34.58	18.98	9.17	-38.5	-39.5	21.8	0.00e+00	6	28	0	150994944	50	6094
2026-01-17 15:49:35.59	18.94	9.25	-38.4	-39.5	21.9	0.00e+00	0	28	0	153092096	50	6043
2026-01-17 15:49:36.60	18.89	9.34	-38.4	-39.5	21.9	0.00e+00	31	28	0	154140672	50	6047
2026-01-17 15:49:37.61	18.85	9.42	-38.6	-39.7	21.7	0.00e+00	0	28	0	156237824	50	6236
2026-01-17 15:49:38.62	18.80	9.50	-38.3	-39.4	22.0	0.00e+00	92	28	0	158334976	50	5996
2026-01-17 15:49:39.63	18.75	9.58	-38.3	-39.3	22.0	0.00e+00	0	28	0	160432128	50	5956
2026-01-17 15:49:40.64	18.71	9.67	-38.6	-39.7	21.7	0.00e+00	0	28	0	162529280	50	6199
2026-01-17 15:49:41.65	18.66	9.75	-38.2	-39.3	22.2	0.00e+00	9	28	0	163577856	50	5922
2026-01-17 15:49:42.66	18.61	9.83	-38.1	-39.2	22.1	0.00e+00	0	28	0	165675008	50	5832
2026-01-17 15:49:43.67	18.56	9.92	-38.1	-39.1	22.3	0.00e+00	6	28	0	167772160	50	5788
2026-01-17 15:49:44.68	18.52	10.00	-38.1	-39.1	22.2	0.00e+00	0	28	0	169869312	50	5820
2026-01-17 15:49:45.69	18.47	10.09	-38.1	-39.1	22.3	0.00e+00	72	28	0	171966464	50	5792
2026-01-17 15:49:46.70	18.42	10.17	-37.8	-38.8	22.5	0.00e+00	0	28	0	174063616	48	6255
2026-01-17 15:49:47.71	18.37	10.26	-38.0	-39.0	22.4	0.00e+00	0	28	0	175112192	48	6427
2026-01-17 15:49:48.72	18.32	10.34	-37.8	-38.8	22.5	0.00e+00	0	28	0	177209344	48	6257
2026-01-17 15:49:49.73	18.27	10.43	-38.0	-39.0	22.4	0.00e+00	0	28	0	179306496	48	6432
2026-01-17 15:49:50.74	18.22	10.51	-38.1	-39.1	22.2	0.00e+00	80	28	0	181403648	48	6494
2026-01-17 15:49:51.75	18.17	10.60	-37.8	-38.8	22.5	0.00e+00	0	28	0	183500800	48	6295
2026-01-17 15:49:52.76	18.12	10.68	-37.9	-38.9	22.4	0.00e+00	90	28	0	184549376	48	6354
2026-01-17 15:49:53.77	18.07	10.77	-37.8	-38.8	22.5	0.00e+00	0	28	0	186646528	48	6314
2026-01-17 15:49:54.78	18.02	10.86	-37.6	-38.6	22.8	0.00e+00	0	28	0	188743680	48	6128
2026-01-17 15:49:55.79	17.97	10.95	-37.6	-38.6	22.7	0.00e+00	0	28	0	190840832	48	6124
2026-01-17 15:49:56.80	17.91	11.03	-37.5	-38.5	22.8	0.00e+00	0	28	0	192937984	48	6055
2026-01-17 15:49:57.81	17.86	11.12	-37.5	-38.4	22.9	0.00e+00	69	28	0	193986560	48	5998
2026-01-17 15:49:58.82	17.81	11.21	-37.5	-38.4	22.9	0.00e+00	0	28	0	196083712	48	6008
2026-01-17 15:49:59.83	17.76	11.30	-37.3	-38.3	23.0	0.00e+00	91	28	0	198180864	48	5917
2026-01-17 15:50:00.83	17.70	11.38	-37.3	-38.2	23.1	0.00e+00	0	28	0	200278016	48	5885
2026-01-17 15:50:01.84	17.65	11.47	-37.3	-38.3	23.0	0.00e+00	0	28	0	202375168	48	5911
2026-01-17 15:50:02.85	17.60	11.56	-37.5	-38.5	22.8	0.00e+00	0	28	0	203423744	48	6040
2026-01-17 15:50:03.86	17.54	11.65	-37.7	-38.7	22.6	0.00e+00	0	28	0	205520896	48	6190
2026-01-17 15:50:04.87	17.49	11.74	-37.4	-38.4	22.8	0.00e+00	11	28	0	207618048	48	5973
2026-01-17 15:50:05.88	17.43	11.83	-37.7	-38.7	22.7	0.00e+00	0	28	0	209715200	48	6180
2026-01-17 15:50:06.89	17.38	11.92	-37.4	-38.3	23.0	0.00e+00	72	28	0	211812352	48	5955
2026-01-17 15:50:07.90	17.32	12.01	-37.4	-38.4	23.0	0.00e+00	0	28	0	212860928	48	5984
2026-01-17 15:50:08.91	17.26	12.10	-37.3	-38.2	23.0	0.00e+00	0	28	0	214958080	48	5883
2026-01-17 15:50:09.92	17.21	12.20	-37.3	-38.3	23.0	0.00e+00	0	28	0	217055232	48	5908
2026-01-17 15:50:10.93	17.15	12.29	-37.3	-38.3	23.1	0.00e+00	0	28	0	219152384	48	5920
2026-01-17 15:50:11.94	17.09	12.38	-37.3	-38.2	23.0	0.00e+00	12	28	0	221249536	48	5866
2026-01-17 15:50:12.95	17.04	12.47	-37.3	-38.2	23.0	0.00e+00	0	28	0	222298112	48	5878
2026-01-17 15:50:13.95	16.98	12.56	-37.3	-38.2	23.1	0.00e+00	90	28	0	224395264	48	5890
2026-01-17 15:50:14.96	16.92	12.66	-37.3	-38.2	23.1	0.00e+00	0	28	0	226492416	48	5876
2026-01-17 15:50:15.97	16.86	12.75	-37.4	-38.3	23.0	0.00e+00	71	28	0	228589568	48	5964
2026-01-17 15:50:16.98	16.80	12.84	-37.2	-38.2	23.1	0.00e+00	0	28	0	230686720	48	5845
2026-01-17 15:50:17.99	16.74	12.94	-37.2	-38.2	23.1	0.00e+00	0	28	0	231735296	48	5846
2026-01-17 15:50:19.00	16.68	13.03	-37.2	-38.1	23.2	0.00e+00	0	28	0	233832448	48	5792
2026-01-17 15:50:20.01	16.62	13.13	-37.3	-38.2	23.1	0.00e+00	0	28	0	235929600	48	5855
2026-01-17 15:50:21.02	16.56	13.22	-37.4	-38.3	23.0	0.00e+00	15	28	0	238026752	48	5921
2026-01-17 15:50:22.03	16.50	13.32	-37.5	-38.4	23.0	0.00e+00	0	28	0	240123904	48	6020
2026-01-17 15:50:23.04	16.44	13.41	-37.1	-38.0	23.2	0.00e+00	92	28	0	242221056	48	5753
2026-01-17 15:50:24.05	16.38	13.51	-37.5	-38.4	23.0	0.00e+00	0	28	0	243269632	48	6031
2026-01-17 15:50:25.06	16.31	13.60	-37.4	-38.3	23.0	0.00e+00	0	28	0	245366784	48	5947
2026-01-17 15:50:26.07	16.25	13.70	-37.4	-38.4	22.9	0.00e+00	0	28	0	247463936	48	5996
2026-01-17 15:50:27.09	16.19	13.80	-37.3	-38.2	23.0	0.00e+00	0	28	0	249561088	48	5870
2026-01-17 15:50:28.10	16.12	13.89	-37.3	-38.2	23.1	0.00e+00	0	28	0	251658240	48	5875
2026-01-17 15:50:29.11	16.06	13.99	-37.4	-38.4	23.1	0.00e+00	0	28	0	252706816	48	5972
2026-01-17 15:50:30.12	15.99	14.09	-37.3	-38.2	23.1	0.00e+00	72	28	0	254803968	48	5891
2026-01-17 15:50:31.13	15.93	14.19	-37.6	-38.5	22.9	0.00e+00	0	28	0	256901120	48	6083
2026-01-17 15:50:32.13	15.86	14.29	-37.3	-38.2	23.2	0.00e+00	16	28	0	258998272	48	5879
2026-01-17 15:50:33.15	15.80	14.39	-37.2	-38.2	23.2	0.00e+00	0	28	0	261095424	48	5835
2026-01-17 15:50:34.16	15.73	14.49	-37.3	-38.3	23.2	0.00e+00	0	28	0	262144000	48	5900
2026-01-17 15:50:35.17	15.66	14.59	-37.2	-38.1	23.2	0.00e+00	73	28	0	264241152	48	5824
2026-01-17 15:50:36.17	15.60	14.69	-37.1	-38.0	23.3	0.00e+00	14	28	0	266338304	48	5748
2026-01-17 15:50:37.18	15.53	14.79	-37.6	-38.6	22.8	0.00e+00	90	28	0	268435456	48	6127
2026-01-17 15:50:38.19	15.46	14.89	-37.5	-38.5	22.9	0.00e+00	0	28	0	270532608	48	6064
2026-01-17 15:50:39.20	15.39	14.99	-37.3	-38.2	23.2	0.00e+00	13	28	0	271581184	48	5854
2026-01-17 15:50:40.21	15.32	15.09	-37.4	-38.3	23.3	0.00e+00	0	28	0	273678336	48	5936
2026-01-17 15:50:41.22	15.25	15.19	-37.4	-38.3	23.0	0.00e+00	0	28	0	275775488	48	5947
2026-01-17 15:50:42.24	15.18	15.30	-37.1	-38.0	23.3	0.00e+00	13	28	0	277872640	48	5756
2026-01-17 15:50:43.25	15.11	15.40	-37.1	-38.0	23.3	0.00e+00	0	28	0	279969792	48	5746
2026-01-17 15:50:44.25	15.04	15.50	-37.1	-38.0	23.4	0.00e+00	91	28	0	281018368	48	5714
2026-01-17 15:50:45.26	14.97	15.60	-37.4	-38.4	23.1	0.00e+00	0	28	0	283115520	48	5976
2026-01-17 15:50:46.27	14.89	15.71	-37.2	-38.2	23.2	0.00e+00	2	28	0	285212672	48	5840
2026-01-17 15:50:47.28	14.82	15.81	-37.4	-38.3	23.0	0.00e+00	0	28	0	287309824	48	5962
2026-01-17 15:50:48.29	14.75	15.92	-37.4	-38.3	23.2	0.00e+00	0	28	0	289406976	48	5933
2026-01-17 15:50:49.31	14.67	16.02	-37.4	-38.3	23.1	0.00e+00	51	28	0	290455552	48	5952
2026-01-17 15:50:50.31	14.60	16.13	-37.3	-38.3	23.1	0.00e+00	0	28	0	292552704	48	5912
2026-01-17 15:50:51.32	14.52	16.23	-37.3	-38.2	23.2	0.00e+00	90	28	0	294649856	48	5861
2026-01-17 15:50:52.33	14.45	16.34	-37.2	-38.1	23.3	0.00e+00	0	28	0	296747008	48	5799
2026-01-17 15:50:53.34	14.37	16.45	-37.4	-38.4	23.2	0.00e+00	89	28	0	298844160	48	5981
2026-01-17 15:50:54.35	14.29	16.55	-37.3	-38.2	23.1	0.00e+00	0	28	0	299892736	48	5893
2026-01-17 15:50:55.36	14.21	16.66	-37.5	-38.5	23.2	0.00e+00	0	28	0	301989888	48	6035
2026-01-17 15:50:56.37	14.14	16.77	-37.3	-38.3	23.1	0.00e+00	0	28	0	304087040	48	5903
2026-01-17 15:50:57.38	14.06	16.88	-37.6	-38.6	23.0	0.00e+00	0	28	0	306184192	48	6152
2026-01-17 15:50:58.39	13.98	16.99	-37.6	-38.5	23.0	0.00e+00	92	28	0	308281344	48	6086
2026-01-17 15:50:59.40	13.90	17.10	-37.4	-38.3	23.1	0.00e+00	0	28	0	310378496	48	5953
2026-01-17 15:51:00.41	13.82	17.21	-37.7	-38.6	23.0	0.00e+00	79	28	0	311427072	48	6166
2026-01-17 15:51:01.42	13.74	17.32	-37.5	-38.5	23.1	0.00e+00	0	28	0	313524224	48	6059
2026-01-17 15:51:02.43	13.65	17.43	-37.4	-38.4	23.2	0.00e+00	0	28	0	315621376	48	5972
2026-01-17 15:51:03.44	13.57	17.54	-37.4	-38.3	23.2	0.00e+00	8	28	0	317718528	48	5941
2026-01-17 15:51:04.45	13.49	17.65	-37.4	-38.3	23.2	0.00e+00	0	28	0	319815680	48	5951
2026-01-17 15:51:05.46	13.41	17.76	-37.3	-38.2	23.2	0.00e+00	75	28	0	320864256	48	5862
2026-01-17 15:51:06.47	13.32	17.87	-37.4	-38.3	23.2	0.00e+00	0	28	0	322961408	48	5940
2026-01-17 15:51:07.48	13.24	17.99	-37.5	-38.4	23.1	0.00e+00	92	28	0	325058560	48	5995
2026-01-17 15:51:08.49	13.15	18.10	-37.5	-38.4	23.2	0.00e+00	0	28	0	327155712	48	5997
2026-01-17 15:51:09.49	13.06	18.21	-37.3	-38.2	23.2	0.00e+00	0	28	0	329252864	48	5863
2026-01-17 15:51:10.50	12.98	18.33	-37.5	-38.4	23.0	0.00e+00	0	28	0	330301440	48	6028
2026-01-17 15:51:11.51	12.89	18.44	-37.3	-38.2	23.5	0.00e+00	0	28	0	332398592	48	5831
2026-01-17 15:51:12.52	12.80	18.56	-37.2	-38.2	23.4	0.00e+00	73	28	0	334495744	48	5830
2026-01-17 15:51:13.53	12.71	18.67	-37.2	-38.1	23.4	0.00e+00	0	28	0	336592896	48	5811
2026-01-17 15:51:14.54	12.62	18.79	-37.3	-38.2	23.3	0.00e+00	92	28	0	338690048	48	5892
2026-01-17 15:51:15.55	12.53	18.91	-37.4	-38.3	23.2	0.00e+00	24	28	0	339738624	48	5936
2026-01-17 15:51:16.56	12.44	19.02	-37.5	-38.4	23.1	0.00e+00	0	28	0	341835776	48	6008
2026-01-17 15:51:17.57	12.35	19.14	-37.7	-38.6	22.9	0.00e+00	0	28	0	343932928	48	6161
2026-01-17 15:51:18.58	12.25	19.26	-37.8	-38.7	22.7	0.00e+00	0	28	0	346030080	48	6226
2026-01-17 15:51:19.59	12.16	19.38	-37.9	-38.9	22.8	0.00e+00	8	28	0	348127232	48	6356
2026-01-17 15:51:20.60	12.07	19.50	-38.0	-39.0	22.7	0.00e+00	0	28	0	349175808	48	6424
2026-01-17 15:51:21.61	11.97	19.62	-38.0	-39.0	22.6	0.00e+00	59	28	0	351272960	48	6411
2026-01-17 15:51:22.62	11.88	19.74	-38.4	-39.5	22.4	0.00e+00	0	28	0	353370112	48	6794
2026-01-17 15:51:23.63	11.78	19.86	-38.1	-39.1	22.6	0.00e+00	92	28	0	355467264	48	6522
2026-01-17 15:51:24.64	11.68	19.98	-38.3	-39.4	22.4	0.00e+00	0	28	0	357564416	48	6695
2026-01-17 15:51:25.65	11.58	20.10	-38.6	-39.7	22.2	0.00e+00	0	28	0	358612992	48	6933
2026-01-17 15:51:26.66	11.48	20.22	-38.6	-39.7	22.3	0.00e+00	0	28	0	360710144	48	6961
2026-01-17 15:51:27.67	11.38	20.34	-38.0	-39.0	22.7	0.00e+00	0	28	0	362807296	48	6427
2026-01-17 15:51:28.68	11.28	20.47	-38.1	-39.1	22.6	0.00e+00	63	28	0	364904448	48	6492
2026-01-17 15:51:29.69	11.18	20.59	-38.1	-39.1	22.7	0.00e+00	0	28	0	367001600	48	6474
2026-01-17 15:51:30.70	11.08	20.71	-37.9	-38.8	22.9	0.00e+00	90	28	0	368050176	48	6307
2026-01-17 15:51:31.71	10.98	20.84	-38.0	-38.9	22.6	0.00e+00	0	28	0	370147328	48	6388
2026-01-17 15:51:32.72	10.87	20.96	-38.2	-39.2	22.5	0.00e+00	0	28	0	372244480	48	6598
2026-01-17 15:51:33.73	10.77	21.09	-38.2	-39.2	22.6	0.00e+00	13	28	0	374341632	48	6568
2026-01-17 15:51:34.74	10.66	21.21	-38.1	-39.1	22.7	0.00e+00	0	28	0	376438784	48	6482
2026-01-17 15:51:35.75	10.56	21.34	-38.1	-39.0	22.6	0.00e+00	92	28	0	378535936	48	6455
2026-01-17 15:51:36.76	10.45	21.47	-38.1	-39.1	22.6	0.00e+00	0	28	0	379584512	48	6534
2026-01-17 15:51:37.77	10.34	21.59	-38.3	-39.3	22.5	0.00e+00	90	28	0	381681664	48	6663
2026-01-17 15:51:38.78	10.23	21.72	-38.3	-39.3	22.5	0.00e+00	0	28	0	383778816	48	6671
2026-01-17 15:51:39.79	10.12	21.85	-38.2	-39.2	22.5	0.00e+00	0	28	0	385875968	48	6596
2026-01-17 15:51:40.80	10.01	21.98	-38.2	-39.2	22.8	0.00e+00	0	28	0	387973120	48	6551
2026-01-17 15:51:41.81	9.90	22.11	-38.0	-39.0	22.8	0.00e+00	0	28	0	389021696	48	6450
2026-01-17 15:51:42.82	9.78	22.24	-37.9	-38.9	22.8	0.00e+00	92	28	0	391118848	48	6368
2026-01-17 15:51:43.83	9.67	22.37	-37.9	-38.9	22.8	0.00e+00	0	28	0	393216000	48	6358
2026-01-17 15:51:44.84	9.55	22.50	-38.0	-39.0	22.9	0.00e+00	92	28	0	395313152	48	6395
2026-01-17 15:51:45.85	9.44	22.63	-37.9	-38.9	22.8	0.00e+00	0	28	0	397410304	48	6335
2026-01-17 15:51:46.86	9.32	22.77	-38.1	-39.1	22.7	0.00e+00	0	28	0	398458880	48	6467
2026-01-17 15:51:47.87	9.20	22.90	-38.1	-39.1	22.3	0.00e+00	0	28	0	400556032	48	6474
2026-01-17 15:51:48.88	9.08	23.03	-38.2	-39.2	22.6	0.00e+00	0	28	0	402653184	48	6552
2026-01-17 15:51:49.89	8.96	23.17	-38.5	-39.6	22.3	0.00e+00	57	28	0	404750336	48	6853
2026-01-17 15:51:50.90	8.84	23.30	-38.4	-39.4	22.5	0.00e+00	0	28	0	406847488	48	6703
2026-01-17 15:51:51.91	8.72	23.44	-38.3	-39.3	22.4	0.00e+00	74	28	0	407896064	48	6643
2026-01-17 15:51:52.92	8.59	23.57	-38.6	-39.6	22.4	0.00e+00	0	28	0	409993216	48	6864
2026-01-17 15:51:53.93	8.47	23.71	-39.0	-40.1	21.9	0.00e+00	0	28	0	412090368	50	6469
2026-01-17 15:51:54.94	8.34	23.85	-39.3	-40.4	21.7	0.00e+00	0	28	0	414187520	50	6693
2026-01-17 15:51:55.95	8.21	23.98	-39.1	-40.2	21.7	0.00e+00	0	28	0	416284672	50	6585
2026-01-17 15:51:56.96	8.09	24.12	-39.2	-40.3	22.0	0.00e+00	34	28	0	417333248	50	6678
2026-01-17 15:51:57.97	7.96	24.26	-39.0	-40.0	22.0	0.00e+00	0	28	0	419430400	50	6457
2026-01-17 15:51:58.98	7.83	24.40	-38.9	-40.0	21.9	0.00e+00	89	28	0	421527552	50	6393
2026-01-17 15:51:59.99	7.69	24.54	-38.7	-39.7	22.2	0.00e+00	0	28	0	423624704	50	6215
2026-01-17 15:52:01.00	7.56	24.68	-38.8	-39.8	22.1	0.00e+00	37	28	0	425721856	50	6269
2026-01-17 15:52:02.01	7.43	24.82	-38.8	-39.8	22.2	0.00e+00	0	28	0	426770432	50	6287
2026-01-17 15:52:03.02	7.29	24.96	-38.7	-39.7	22.3	0.00e+00	0	28	0	428867584	50	6217
2026-01-17 15:52:04.04	7.15	25.11	-38.8	-39.9	22.1	0.00e+00	0	28	0	430964736	50	6352
2026-01-17 15:52:05.05	7.01	25.25	-38.9	-39.9	22.0	0.00e+00	0	28	0	433061888	50	6378
2026-01-17 15:52:06.05	6.88	25.39	-39.3	-40.5	21.6	0.00e+00	48	28	0	435159040	50	6778
2026-01-17 15:52:07.06	6.74	25.54	-39.4	-40.5	21.6	0.00e+00	0	28	0	436207616	50	6809
2026-01-17 15:52:08.07	6.59	25.68	-39.6	-40.8	21.3	0.00e+00	90	28	0	438304768	52	6264
2026-01-17 15:52:09.08	6.45	25.83	-39.7	-40.9	21.2	0.00e+00	0	28	0	440401920	52	6390
2026-01-17 15:52:10.09	6.31	25.97	-39.6	-40.8	21.3	0.00e+00	0	28	0	442499072	52	6286
2026-01-17 15:52:11.10	6.16	26.12	-39.5	-40.6	21.5	0.00e+00	0	28	0	444596224	52	6173
2026-01-17 15:52:12.11	6.01	26.26	-39.5	-40.7	21.4	0.00e+00	0	28	0	446693376	52	6215
2026-01-17 15:52:13.12	5.86	26.41	-38.8	-39.9	22.2	0.00e+00	0	28	0	447741952	52	5655
2026-01-17 15:52:14.13	5.71	26.56	-39.0	-40.1	21.9	0.00e+00	0	28	0	449839104	52	5790
2026-01-17 15:52:15.14	5.56	26.71	-39.0	-40.0	21.9	0.00e+00	91	28	0	451936256	52	5760
2026-01-17 15:52:16.15	5.41	26.86	-38.6	-39.6	22.2	0.00e+00	0	28	0	454033408	50	6169
2026-01-17 15:52:17.16	5.25	27.01	-38.2	-39.2	22.7	0.00e+00	0	28	0	456130560	50	5861
2026-01-17 15:52:18.17	5.10	27.16	-38.2	-39.1	22.8	0.00e+00	0	28	0	457179136	50	5816
2026-01-17 15:52:19.18	4.94	27.31	-38.0	-38.9	23.0	0.00e+00	0	28	0	459276288	48	6341
2026-01-17 15:52:20.19	4.78	27.46	-38.1	-39.1	22.7	0.00e+00	92	28	0	461373440	48	6470
2026-01-17 15:52:21.20	4.62	27.61	-37.7	-38.6	23.1	0.00e+00	0	28	0	463470592	48	6147
2026-01-17 15:52:22.21	4.46	27.76	-38.0	-39.0	22.8	0.00e+00	92	28	0	465567744	48	6413
2026-01-17 15:52:23.22	4.29	27.92	-38.3	-39.2	22.6	0.00e+00	20	28	0	466616320	48	6615
2026-01-17 15:52:24.23	4.13	28.07	-38.6	-39.6	22.3	0.00e+00	0	28	0	468713472	48	6922
2026-01-17 15:52:25.24	3.96	28.23	-38.6	-39.7	22.3	0.00e+00	0	28	0	470810624	50	6184
2026-01-17 15:52:26.25	3.79	28.38	-38.7	-39.8	22.4	0.00e+00	0	28	0	472907776	50	6278
2026-01-17 15:52:27.26	3.62	28.54	-38.7	-39.8	22.2	0.00e+00	57	28	0	475004928	50	6276
2026-01-17 15:52:28.27	3.45	28.69	-38.5	-39.5	22.1	0.00e+00	0	28	0	476053504	50	6065
2026-01-17 15:52:29.28	3.28	28.85	-38.2	-39.2	22.5	0.00e+00	91	28	0	478150656	50	5867
2026-01-17 15:52:30.29	3.10	29.01	-38.8	-39.9	22.0	0.00e+00	0	28	0	480247808	50	6357
2026-01-17 15:52:31.30	2.92	29.17	-38.6	-39.7	22.3	0.00e+00	0	28	0	482344960	50	6197
2026-01-17 15:52:32.31	2.74	29.32	-39.0	-40.1	22.1	0.00e+00	0	28	0	484442112	50	6465
2026-01-17 15:52:33.32	2.56	29.48	-39.0	-40.1	21.9	0.00e+00	0	28	0	485490688	50	6534
2026-01-17 15:52:34.33	2.38	29.64	-38.9	-40.0	22.3	0.00e+00	16	28	0	487587840	50	6402
2026-01-17 15:52:35.34	2.19	29.80	-39.4	-40.5	21.6	0.00e+00	0	28	0	489684992	50	6821
2026-01-17 15:52:36.35	2.01	29.96	-39.1	-40.2	21.8	0.00e+00	92	28	0	491782144	50	6597
2026-01-17 15:52:37.36	1.82	30.13	-39.1	-40.2	21.9	0.00e+00	0	28	0	493879296	50	6557
2026-01-17 15:52:38.37	1.63	30.29	-39.1	-40.1	21.9	0.00e+00	81	28	0	494927872	50	6539
2026-01-17 15:52:39.38	1.44	30.45	-39.2	-40.2	21.8	0.00e+00	0	28	0	497025024	50	6593
2026-01-17 15:52:40.39	1.24	30.61	-39.4	-40.5	21.6	0.00e+00	0	28	0	499122176	50	6773
2026-01-17 15:52:41.40	1.05	30.78	-39.9	-41.1	21.2	0.00e+00	16	28	0	501219328	52	6527
2026-01-17 15:52:42.41	0.85	30.94	-39.9	-41.0	21.2	0.00e+00	0	28	0	503316480	52	6455
2026-01-17 15:52:43.42	0.65	31.11	-40.4	-41.7	20.6	0.00e+00	13	28	0	504365056	52	6957
2026-01-17 15:52:44.43	0.44	31.27	-40.8	-42.2	20.2	0.00e+00	0	28	0	506462208	52	7363
2026-01-17 15:52:45.44	0.24	31.44	-40.4	-41.8	20.4	0.00e+00	1	28	0	508559360	54	6261
2026-01-17 15:52:46.45	0.03	31.60	-40.5	-41.8	20.6	0.00e+00	0	28	0	510656512	54	6258
2026-01-17 15:52:47.45	359.83	31.77	-40.1	-41.3	20.9	0.00e+00	0	28	0	512753664	54	5933
2026-01-17 15:52:48.46	359.61	31.94	-39.7	-40.8	21.4	0.00e+00	0	28	0	514850816	52	6289
2026-01-17 15:52:49.47	359.40	32.10	-39.5	-40.6	21.8	0.00e+00	0	28	0	515899392	52	6153
2026-01-17 15:52:50.49	359.18	32.27	-39.0	-40.1	22.0	0.00e+00	4	28	0	517996544	52	5793
2026-01-17 15:52:51.49	358.97	32.44	-39.6	-40.7	21.6	0.00e+00	0	28	0	520093696	52	6189
2026-01-17 15:52:52.50	358.75	32.61	-39.9	-41.1	21.1	0.00e+00	92	28	0	522190848	52	6503
2026-01-17 15:52:53.51	358.53	32.78	-40.6	-42.0	19.7	0.00e+00	0	28	0	524288000	52	7185
2026-01-17 15:52:54.53	358.30	32.95	-41.0	-42.4	20.0	0.00e+00	0	28	0	525336576	54	6707
2026-01-17 15:52:55.53	358.07	33.12	-41.2	-42.7	19.6	0.00e+00	11	28	0	527433728	54	6929
2026-01-17 15:52:56.55	357.84	33.29	-41.1	-42.5	19.8	0.00e+00	0	28	0	529530880	54	6804
2026-01-17 15:52:57.55	357.61	33.46	-40.4	-41.7	20.7	0.00e+00	73	28	0	531628032	54	6203
2026-01-17 15:52:58.56	357.38	33.63	-39.8	-40.9	21.2	0.00e+00	0	28	0	533725184	52	6390
2026-01-17 15:52:59.57	357.14	33.81	-39.6	-40.7	21.5	0.00e+00	46	28	0	534773760	52	6215
2026-01-17 15:53:00.58	356.90	33.98	-39.5	-40.6	21.5	0.00e+00	0	28	0	536870912	52	6152
2026-01-17 15:53:01.59	356.66	34.15	-39.7	-40.8	21.4	0.00e+00	0	28	0	538968064	52	6289
2026-01-17 15:53:02.60	356.41	34.33	-39.5	-40.6	21.4	0.00e+00	0	28	0	541065216	52	6112
2026-01-17 15:53:03.61	356.16	34.50	-40.2	-41.4	21.1	0.00e+00	0	28	0	543162368	52	6717
2026-01-17 15:53:04.62	355.91	34.67	-40.4	-41.7	20.5	0.00e+00	76	28	0	544210944	52	6982
2026-01-17 15:53:05.63	355.66	34.85	-40.4	-41.8	20.6	0.00e+00	0	28	0	546308096	52	7020
2026-01-17 15:53:06.64	355.40	35.02	-40.7	-42.1	20.4	0.00e+00	92	28	0	548405248	52	7265
2026-01-17 15:53:07.65	355.15	35.20	-40.3	-41.6	20.9	0.00e+00	0	28	0	550502400	52	6875
2026-01-17 15:53:08.66	354.88	35.37	-40.2	-41.5	20.8	0.00e+00	0	28	0	552599552	52	6780
2026-01-17 15:53:09.67	354.62	35.55	-40.6	-41.9	20.5	0.00e+00	0	28	0	553648128	54	6356
2026-01-17 15:53:10.68	354.35	35.72	-40.2	-41.5	20.8	0.00e+00	0	28	0	555745280	54	6066
2026-01-17 15:53:11.69	354.08	35.90	-40.7	-42.1	20.1	0.00e+00	91	28	0	557842432	54	6507
2026-01-17 15:53:12.70	353.81	36.08	-40.4	-41.7	20.5	0.00e+00	0	28	0	559939584	54	6219
2026-01-17 15:53:13.71	353.53	36.25	-40.5	-41.8	20.4	0.00e+00	55	28	0	562036736	54	6312
2026-01-17 15:53:14.72	353.25	36.43	-40.1	-41.3	21.0	0.00e+00	0	28	0	563085312	54	5927
2026-01-17 15:53:15.73	352.97	36.61	-40.2	-41.5	20.7	0.00e+00	81	28	0	565182464	54	6086
2026-01-17 15:53:16.74	352.68	36.78	-40.2	-41.5	20.9	0.00e+00	0	28	0	567279616	54	6067
2026-01-17 15:53:17.75	352.40	36.96	-40.3	-41.5	20.7	0.00e+00	0	28	0	569376768	54	6097
2026-01-17 15:53:18.76	352.10	37.14	-41.1	-42.6	19.8	0.00e+00	0	28	0	571473920	54	6907
2026-01-17 15:53:19.77	351.81	37.32	-41.3	-42.9	19.5	0.00e+00	0	28	0	572522496	54	7158
2026-01-17 15:53:20.78	351.51	37.49	-40.6	-42.0	20.1	0.00e+00	92	28	0	574619648	54	6446
2026-01-17 15:53:21.79	351.21	37.67	-39.8	-41.0	20.8	0.00e+00	0	28	0	576716800	54	5741
2026-01-17 15:53:22.80	350.90	37.85	-38.6	-39.7	22.3	0.00e+00	44	28	0	578813952	50	6215
2026-01-17 15:53:23.81	350.60	38.03	-38.7	-39.7	22.3	0.00e+00	0	28	0	580911104	50	6243
2026-01-17 15:53:24.82	350.28	38.21	-38.8	-39.9	22.1	0.00e+00	0	28	0	583008256	50	6333
2026-01-17 15:53:25.83	349.97	38.38	-39.1	-40.2	21.7	0.00e+00	0	28	0	584056832	50	6577
2026-01-17 15:53:26.84	349.65	38.56	-39.4	-40.5	21.5	0.00e+00	0	28	0	586153984	50	6811
2026-01-17 15:53:27.85	349.33	38.74	-39.8	-41.0	21.1	0.00e+00	91	28	0	588251136	50	7233
2026-01-17 15:53:28.86	349.00	38.91	-40.1	-41.3	20.8	0.00e+00	0	28	0	590348288	52	6670
2026-01-17 15:53:29.87	348.67	39.09	-40.0	-41.2	21.0	0.00e+00	91	28	0	592445440	52	6600
2026-01-17 15:53:30.88	348.34	39.27	-40.0	-41.3	21.0	0.00e+00	0	28	0	593494016	52	6622
2026-01-17 15:53:31.89	348.00	39.45	-39.7	-40.9	21.5	0.00e+00	0	28	0	595591168	52	6372
2026-01-17 15:53:32.90	347.66	39.62	-39.1	-40.3	21.6	0.00e+00	0	28	0	597688320	52	5912
2026-01-17 15:53:33.91	347.32	39.80	-38.7	-39.7	22.4	0.00e+00	0	28	0	599785472	50	6229
2026-01-17 15:53:34.92	346.97	39.97	-38.6	-39.6	22.3	0.00e+00	92	28	0	601882624	50	6161
2026-01-17 15:53:35.93	346.62	40.15	-38.6	-39.6	22.4	0.00e+00	0	28	0	602931200	50	6141
2026-01-17 15:53:36.94	346.26	40.32	-39.3	-40.3	21.5	0.00e+00	92	28	0	605028352	50	6692
2026-01-17 15:53:37.95	345.90	40.50	-39.5	-40.7	21.4	0.00e+00	0	28	0	607125504	50	6976
2026-01-17 15:53:38.96	345.54	40.67	-39.9	-41.1	21.2	0.00e+00	0	28	0	609222656	52	6532
2026-01-17 15:53:39.97	345.17	40.85	-39.6	-40.7	21.4	0.00e+00	0	28	0	611319808	52	6212
2026-01-17 15:53:40.98	344.80	41.02	-39.8	-40.9	21.1	0.00e+00	0	28	0	612368384	52	6380
2026-01-17 15:53:41.99	344.42	41.19	-40.2	-41.5	20.8	0.00e+00	63	28	0	614465536	52	6795
2026-01-17 15:53:43.00	344.04	41.37	-40.6	-41.9	20.5	0.00e+00	0	28	0	616562688	52	7143
2026-01-17 15:53:44.01	343.66	41.54	-41.4	-42.9	19.5	0.00e+00	88	28	0	618659840	54	7160
2026-01-17 15:53:45.02	343.27	41.71	-41.4	-43.0	19.4	0.00e+00	0	28	0	620756992	54	7172
2026-01-17 15:53:46.03	342.88	41.88	-40.9	-42.4	20.0	0.00e+00	0	28	0	621805568	54	6724
2026-01-17 15:53:47.04	342.48	42.05	-40.6	-42.0	20.3	0.00e+00	0	28	0	623902720	54	6427
2026-01-17 15:53:48.05	342.08	42.22	-40.5	-41.9	20.5	0.00e+00	0	28	0	625999872	54	6324
2026-01-17 15:53:49.06	341.68	42.38	-39.4	-40.5	21.7	0.00e+00	0	28	0	628097024	52	6048
2026-01-17 15:53:50.07	341.27	42.55	-39.2	-40.3	22.0	0.00e+00	0	28	0	630194176	52	5935
2026-01-17 15:53:51.08	340.86	42.72	-39.0	-40.1	22.1	0.00e+00	92	28	0	631242752	52	5774
2026-01-17 15:53:52.09	340.44	42.88	-39.7	-40.9	21.3	0.00e+00	0	28	0	633339904	52	6318
2026-01-17 15:53:53.10	340.02	43.05	-40.3	-41.5	20.7	0.00e+00	44	28	0	635437056	52	6826
2026-01-17 15:53:54.11	339.59	43.21	-40.7	-42.0	20.0	0.00e+00	0	28	0	637534208	52	7212
2026-01-17 15:53:55.12	339.16	43.37	-40.9	-42.3	20.2	0.00e+00	0	28	0	639631360	54	6672
2026-01-17 15:53:56.13	338.73	43.53	-41.0	-42.4	20.1	0.00e+00	33	28	0	640679936	54	6721
2026-01-17 15:53:57.14	338.29	43.69	-41.5	-43.2	19.2	0.00e+00	18	28	0	642777088	54	7379
2026-01-17 15:53:58.15	337.84	43.85	-41.5	-43.2	19.3	0.00e+00	92	28	0	644874240	54	7364
2026-01-17 15:53:59.16	337.40	44.01	-41.0	-42.6	19.8	0.00e+00	0	28	0	646971392	54	6921
2026-01-17 15:54:00.17	336.94	44.16	-39.7	-41.0	21.2	0.00e+00	86	28	0	649068544	54	5716
2026-01-17 15:54:01.18	336.49	44.32	-39.0	-40.2	21.8	0.00e+00	0	28	0	651165696	52	5871
2026-01-17 15:54:02.19	336.02	44.47	-38.7	-39.8	22.2	0.00e+00	0	28	0	652214272	50	6313
2026-01-17 15:54:03.20	335.56	44.62	-38.4	-39.5	22.4	0.00e+00	9	28	0	654311424	50	6092
2026-01-17 15:54:04.21	335.09	44.77	-38.0	-39.0	22.9	0.00e+00	19	28	0	656408576	50	5712
2026-01-17 15:54:05.22	334.61	44.92	-37.4	-38.4	23.3	0.00e+00	92	28	0	658505728	48	5974
2026-01-17 15:54:06.23	334.13	45.06	-37.3	-38.2	23.6	0.00e+00	0	28	0	660602880	48	5878
2026-01-17 15:54:07.24	333.65	45.21	-37.1	-38.1	23.5	0.00e+00	90	28	0	661651456	48	5769
2026-01-17 15:54:08.25	333.16	45.35	-37.8	-38.8	22.8	0.00e+00	0	28	0	663748608	48	6271
2026-01-17 15:54:09.26	332.67	45.49	-38.8	-40.0	22.0	0.00e+00	0	28	0	665845760	48	7199
2026-01-17 15:54:10.27	332.17	45.63	-38.9	-40.0	22.2	0.00e+00	0	28	0	667942912	50	6444
2026-01-17 15:54:11.28	331.67	45.77	-38.7	-39.9	22.1	0.00e+00	0	28	0	670040064	50	6319
2026-01-17 15:54:12.28	331.17	45.90	-39.0	-40.2	21.9	0.00e+00	90	28	0	671088640	50	6552
2026-01-17 15:54:13.29	330.66	46.04	-38.8	-39.9	22.1	0.00e+00	0	28	0	673185792	50	6387
2026-01-17 15:54:14.30	330.14	46.17	-38.3	-39.3	22.5	0.00e+00	52	28	0	675282944	50	5915
2026-01-17 15:54:15.31	329.63	46.29	-38.7	-39.8	22.0	0.00e+00	0	28	0	677380096	50	6296
2026-01-17 15:54:16.32	329.10	46.42	-39.1	-40.2	22.0	0.00e+00	0	28	0	679477248	50	6610
2026-01-17 15:54:17.33	328.57	46.55	-39.6	-40.8	21.4	0.00e+00	0	28	0	680525824	50	7012
2026-01-17 15:54:18.34	328.04	46.67	-39.1	-40.2	21.9	0.00e+00	0	28	0	682622976	50	6559
2026-01-17 15:54:19.35	327.51	46.79	-39.1	-40.1	21.9	0.00e+00	18	28	0	684720128	50	6527
2026-01-17 15:54:20.36	326.97	46.90	-38.3	-39.3	22.7	0.00e+00	0	28	0	686817280	50	5912
2026-01-17 15:54:21.37	326.42	47.02	-37.6	-38.5	23.3	0.00e+00	92	28	0	688914432	48	6090
2026-01-17 15:54:22.38	325.88	47.13	-38.0	-39.0	22.8	0.00e+00	0	28	0	689963008	48	6397
2026-01-17 15:54:23.39	325.32	47.24	-38.6	-39.7	22.4	0.00e+00	0	28	0	692060160	50	6182
2026-01-17 15:54:24.40	324.77	47.35	-39.7	-40.9	21.3	0.00e+00	0	28	0	694157312	50	7138
2026-01-17 15:54:25.41	324.21	47.45	-40.7	-42.1	20.3	0.00e+00	0	28	0	696254464	52	7286
2026-01-17 15:54:26.42	323.65	47.55	-41.3	-42.9	19.3	0.00e+00	18	28	0	698351616	54	7152
2026-01-17 15:54:27.43	323.08	47.65	-41.6	-43.3	19.2	0.00e+00	0	28	0	699400192	56	6629
2026-01-17 15:54:28.44	322.51	47.75	-42.5	-44.6	17.3	0.00e+00	65	28	0	701497344	58	6859
2026-01-17 15:54:29.45	321.94	47.84	-42.5	-44.5	17.9	0.00e+00	0	28	0	703594496	58	6835
2026-01-17 15:54:30.46	321.36	47.93	-42.0	-43.9	18.8	0.00e+00	0	28	0	705691648	58	6339
2026-01-17 15:54:31.47	320.78	48.02	-41.1	-42.7	19.4	0.00e+00	0	28	0	707788800	56	6178
2026-01-17 15:54:32.48	320.19	48.10	-41.4	-43.1	19.4	0.00e+00	0	28	0	708837376	54	7283
2026-01-17 15:54:33.49	319.61	48.18	-41.9	-43.6	18.8	0.00e+00	53	28	0	710934528	56	6920
2026-01-17 15:54:34.50	319.02	48.26	-41.0	-42.4	19.9	0.00e+00	0	28	0	713031680	56	6021
2026-01-17 15:54:35.51	318.42	48.33	-39.8	-41.1	21.2	0.00e+00	92	28	0	715128832	54	5762
2026-01-17 15:54:36.52	317.83	48.41	-39.6	-40.8	21.3	0.00e+00	0	28	0	717225984	52	6248
2026-01-17 15:54:37.53	317.23	48.47	-39.6	-40.8	21.3	0.00e+00	92	28	0	719323136	52	6291
2026-01-17 15:54:38.54	316.63	48.54	-39.6	-40.8	21.5	0.00e+00	0	28	0	720371712	52	6252
2026-01-17 15:54:39.55	316.03	48.60	-39.6	-40.8	20.8	0.00e+00	0	28	0	722468864	52	6289
2026-01-17 15:54:40.56	315.42	48.66	-40.5	-42.0	20.5	0.00e+00	14	28	0	724566016	52	7193
2026-01-17 15:54:41.57	314.81	48.71	-40.4	-41.8	20.4	0.00e+00	0	28	0	726663168	52	7025
2026-01-17 15:54:42.58	314.20	48.76	-39.5	-40.7	21.7	0.00e+00	92	28	0	728760320	52	6183
2026-01-17 15:54:43.59	313.59	48.81	-38.4	-39.5	22.4	0.00e+00	0	28	0	729808896	50	6043
2026-01-17 15:54:44.59	312.98	48.86	-37.9	-38.8	22.5	0.00e+00	92	28	0	731906048	50	5622
2026-01-17 15:54:45.60	312.36	48.90	-37.8	-38.8	22.8	0.00e+00	0	28	0	734003200	48	6250
2026-01-17 15:54:46.61	311.75	48.93	-38.5	-39.6	22.1	0.00e+00	0	28	0	736100352	48	6874
2026-01-17 15:54:47.63	311.12	48.97	-38.7	-39.8	22.3	0.00e+00	0	28	0	738197504	48	7071
2026-01-17 15:54:48.63	310.51	49.00	-37.8	-38.8	23.0	0.00e+00	0	28	0	739246080	48	6276
2026-01-17 15:54:49.64	309.89	49.02	-37.6	-38.6	23.3	0.00e+00	15	28	0	741343232	48	6105
2026-01-17 15:54:50.65	309.26	49.05	-36.3	-37.1	24.3	0.00e+00	0	28	0	743440384	46	5827
2026-01-17 15:54:51.66	308.64	49.06	-35.9	-36.7	24.5	0.00e+00	54	28	0	745537536	46	5566
2026-01-17 15:54:52.67	308.02	49.08	-36.1	-36.9	24.3	0.00e+00	0	28	0	747634688	46	5688
2026-01-17 15:54:53.68	307.39	49.09	-37.0	-37.9	23.7	0.00e+00	0	28	0	748683264	46	6374
2026-01-17 15:54:54.69	306.77	49.10	-38.1	-39.2	22.7	0.00e+00	0	28	0	750780416	48	6553
2026-01-17 15:54:55.71	306.14	49.10	-38.6	-39.7	22.4	0.00e+00	0	28	0	752877568	48	6974
2026-01-17 15:54:56.72	305.51	49.11	-39.0	-40.2	21.9	0.00e+00	13	28	0	754974720	50	6572
2026-01-17 15:54:57.73	304.89	49.10	-39.3	-40.5	21.7	0.00e+00	0	28	0	757071872	50	6819
2026-01-17 15:54:58.73	304.27	49.10	-39.3	-40.5	21.5	0.00e+00	92	28	0	759169024	50	6811
2026-01-17 15:54:59.74	303.64	49.09	-38.8	-39.9	22.3	0.00e+00	0	28	0	760217600	50	6355
2026-01-17 15:55:00.75	303.02	49.07	-38.3	-39.4	22.5	0.00e+00	0	28	0	762314752	50	6000
2026-01-17 15:55:01.76	302.39	49.05	-39.0	-40.2	21.7	0.00e+00	0	28	0	764411904	50	6601
2026-01-17 15:55:02.77	301.77	49.03	-40.1	-41.6	20.8	0.00e+00	0	28	0	766509056	52	6875
2026-01-17 15:55:03.78	301.15	49.01	-40.1	-41.5	20.7	0.00e+00	56	28	0	768606208	52	6840
2026-01-17 15:55:04.79	300.53	48.98	-38.9	-40.0	21.9	0.00e+00	0	28	0	769654784	52	5729
2026-01-17 15:55:05.80	299.91	48.95	-37.8	-38.7	23.1	0.00e+00	54	28	0	771751936	50	5564
2026-01-17 15:55:06.81	299.29	48.91	-37.8	-38.8	23.1	0.00e+00	0	28	0	773849088	48	6248
2026-01-17 15:55:07.82	298.67	48.87	-37.9	-38.8	23.0	0.00e+00	92	28	0	775946240	48	6303
2026-01-17 15:55:08.83	298.06	48.83	-37.7	-38.7	22.9	0.00e+00	0	28	0	778043392	48	6203
2026-01-17 15:55:09.84	297.45	48.79	-37.8	-38.7	23.0	0.00e+00	0	28	0	779091968	48	6209
2026-01-17 15:55:10.85	296.83	48.74	-37.4	-38.3	23.2	0.00e+00	17	28	0	781189120	48	5928
2026-01-17 15:55:11.86	296.22	48.68	-37.6	-38.5	23.2	0.00e+00	0	28	0	783286272	48	6059
2026-01-17 15:55:12.87	295.62	48.63	-38.5	-39.5	22.4	0.00e+00	45	28	0	785383424	48	6798
2026-01-17 15:55:13.88	295.01	48.57	-38.9	-39.9	22.2	0.00e+00	0	28	0	787480576	50	6382
2026-01-17 15:55:14.89	294.41	48.50	-39.7	-40.9	21.5	0.00e+00	81	28	0	788529152	50	7158
2026-01-17 15:55:15.90	293.81	48.44	-39.8	-41.0	21.2	0.00e+00	0	28	0	790626304	52	6423
2026-01-17 15:55:16.91	293.21	48.37	-40.3	-41.6	20.7	0.00e+00	0	28	0	792723456	52	6919
2026-01-17 15:55:17.92	292.62	48.29	-40.1	-41.4	20.7	0.00e+00	0	28	0	794820608	54	5995
2026-01-17 15:55:18.93	292.03	48.22	-39.5	-40.7	21.4	0.00e+00	0	28	0	796917760	52	6186
2026-01-17 15:55:19.94	291.44	48.14	-39.6	-40.8	21.5	0.00e+00	92	28	0	797966336	52	6274
2026-01-17 15:55:20.95	290.85	48.05	-39.8	-41.0	21.3	0.00e+00	0	28	0	800063488	52	6458
2026-01-17 15:55:21.96	290.27	47.97	-40.0	-41.3	21.0	0.00e+00	92	28	0	802160640	52	6630
2026-01-17 15:55:22.97	289.69	47.88	-39.9	-41.1	21.1	0.00e+00	0	28	0	804257792	52	6490
2026-01-17 15:55:23.97	289.12	47.79	-39.0	-40.1	22.0	0.00e+00	0	28	0	806354944	52	5812
2026-01-17 15:55:24.99	288.54	47.69	-38.8	-39.9	22.1	0.00e+00	0	28	0	807403520	52	5640
2026-01-17 15:55:26.00	287.97	47.60	-39.4	-40.5	21.9	0.00e+00	0	28	0	809500672	50	6821
2026-01-17 15:55:27.01	287.41	47.50	-38.8	-39.9	22.0	0.00e+00	92	28	0	811597824	50	6333
2026-01-17 15:55:28.02	286.85	47.39	-39.0	-40.0	22.2	0.00e+00	0	28	0	813694976	50	6449
2026-01-17 15:55:29.03	286.29	47.29	-38.6	-39.7	22.2	0.00e+00	92	28	0	815792128	50	6184
2026-01-17 15:55:30.04	285.73	47.18	-39.5	-40.6	21.6	0.00e+00	0	28	0	816840704	50	6924
2026-01-17 15:55:31.05	285.18	47.07	-40.2	-41.4	20.7	0.00e+00	0	28	0	818937856	52	6761
2026-01-17 15:55:32.06	284.64	46.95	-40.8	-42.1	20.6	0.00e+00	0	28	0	821035008	52	7316
2026-01-17 15:55:33.07	284.09	46.84	-39.7	-40.9	21.5	0.00e+00	0	28	0	823132160	54	5640
2026-01-17 15:55:34.08	283.56	46.72	-39.5	-40.6	21.5	0.00e+00	48	28	0	825229312	52	6150
2026-01-17 15:55:35.09	283.02	46.60	-39.4	-40.5	21.7	0.00e+00	0	28	0	827326464	52	6052
2026-01-17 15:55:36.10	282.49	46.47	-39.4	-40.4	21.8	0.00e+00	76	28	0	828375040	52	6019
2026-01-17 15:55:37.11	281.97	46.35	-39.1	-40.1	22.1	0.00e+00	0	28	0	830472192	52	5800
2026-01-17 15:55:38.12	281.45	46.22	-38.8	-39.8	22.1	0.00e+00	13	28	0	832569344	52	5625
2026-01-17 15:55:39.13	280.93	46.09	-39.3	-40.5	21.8	0.00e+00	0	28	0	834666496	50	6773
2026-01-17 15:55:40.14	280.42	45.96	-39.4	-40.5	21.4	0.00e+00	0	28	0	836763648	52	6088
2026-01-17 15:55:41.15	279.91	45.82	-39.7	-40.9	21.3	0.00e+00	49	28	0	837812224	52	6352
2026-01-17 15:55:42.16	279.40	45.69	-39.9	-41.1	21.3	0.00e+00	0	28	0	839909376	52	6509
2026-01-17 15:55:43.17	278.90	45.55	-39.5	-40.6	21.6	0.00e+00	78	28	0	842006528	52	6173
2026-01-17 15:55:44.18	278.41	45.41	-39.4	-40.5	21.7	0.00e+00	0	28	0	844103680	52	6099
2026-01-17 15:55:45.19	277.92	45.27	-39.4	-40.6	21.7	0.00e+00	30	28	0	846200832	52	6147
2026-01-17 15:55:46.20	277.43	45.12	-39.7	-40.9	21.4	0.00e+00	0	28	0	847249408	52	6389
2026-01-17 15:55:47.21	276.95	44.98	-39.2	-40.4	22.0	0.00e+00	19	28	0	849346560	52	5988
2026-01-17 15:55:48.22	276.47	44.83	-38.6	-39.6	22.4	0.00e+00	16	28	0	851443712	50	6133
2026-01-17 15:55:49.23	276.00	44.68	-37.7	-38.6	23.1	0.00e+00	0	28	0	853540864	50	5459
2026-01-17 15:55:50.23	275.53	44.53	-38.2	-39.2	22.8	0.00e+00	92	28	0	855638016	48	6588
2026-01-17 15:55:51.24	275.07	44.38	-38.1	-39.0	22.9	0.00e+00	0	28	0	856686592	48	6463
2026-01-17 15:55:52.25	274.61	44.22	-37.8	-38.8	23.3	0.00e+00	79	28	0	858783744	48	6268
2026-01-17 15:55:53.26	274.15	44.07	-37.6	-38.5	23.4	0.00e+00	0	28	0	860880896	48	6052
2026-01-17 15:55:54.27	273.70	43.91	-37.7	-38.7	23.1	0.00e+00	0	28	0	862978048	48	6197
2026-01-17 15:55:55.28	273.26	43.75	-38.4	-39.5	22.6	0.00e+00	0	28	0	865075200	48	6807
2026-01-17 15:55:56.29	272.81	43.59	-38.3	-39.3	22.5	0.00e+00	0	28	0	866123776	48	6679
2026-01-17 15:55:57.30	272.38	43.43	-37.1	-37.9	23.7	0.00e+00	91	28	0	868220928	48	5690
2026-01-17 15:55:58.31	271.94	43.27	-36.8	-37.6	23.9	0.00e+00	0	28	0	870318080	46	6144
2026-01-17 15:55:59.32	271.51	43.11	-37.0	-37.8	23.8	0.00e+00	91	28	0	872415232	46	6312
2026-01-17 15:56:00.33	271.09	42.94	-37.7	-38.6	23.3	0.00e+00	0	28	0	874512384	48	6173
2026-01-17 15:56:01.34	270.67	42.78	-37.9	-38.9	23.2	0.00e+00	0	28	0	875560960	48	6358
2026-01-17 15:56:02.35	270.25	42.61	-37.8	-38.7	23.1	0.00e+00	0	28	0	877658112	48	6217
2026-01-17 15:56:03.36	269.84	42.45	-37.9	-38.8	23.1	0.00e+00	0	28	0	879755264	48	6288
2026-01-17 15:56:04.37	269.43	42.28	-38.3	-39.3	22.6	0.00e+00	75	28	0	881852416	48	6648
2026-01-17 15:56:05.38	269.03	42.11	-38.9	-39.9	22.2	0.00e+00	0	28	0	883949568	48	7134
2026-01-17 15:56:06.39	268.63	41.94	-39.0	-40.1	22.2	0.00e+00	92	28	0	884998144	50	6493
2026-01-17 15:56:07.40	268.24	41.77	-37.7	-38.6	23.4	0.00e+00	0	28	0	887095296	50	5479
2026-01-17 15:56:08.41	267.85	41.60	-36.8	-37.7	24.1	0.00e+00	18	28	0	889192448	48	5520
2026-01-17 15:56:09.42	267.46	41.43	-36.3	-37.0	24.4	0.00e+00	0	28	0	891289600	46	5759
2026-01-17 15:56:10.42	267.08	41.26	-36.6	-37.4	24.1	0.00e+00	0	28	0	893386752	46	6016
2026-01-17 15:56:11.43	266.71	41.08	-37.4	-38.3	23.4	0.00e+00	8	28	0	895483904	46	6638
2026-01-17 15:56:12.44	266.33	40.91	-37.5	-38.4	23.5	0.00e+00	0	28	0	896532480	46	6747
2026-01-17 15:56:13.45	265.96	40.74	-37.5	-38.5	23.2	0.00e+00	92	28	0	898629632	48	6086
2026-01-17 15:56:14.46	265.60	40.56	-38.3	-39.4	22.5	0.00e+00	0	28	0	900726784	48	6762
2026-01-17 15:56:15.47	265.23	40.39	-38.0	-39.0	22.9	0.00e+00	50	28	0	902823936	48	6444
2026-01-17 15:56:16.48	264.87	40.21	-38.0	-39.0	23.0	0.00e+00	0	28	0	903872512	48	6420
2026-01-17 15:56:17.49	264.52	40.04	-37.9	-38.9	23.0	0.00e+00	0	28	0	905969664	48	6348
2026-01-17 15:56:18.50	264.17	39.86	-39.0	-40.1	22.0	0.00e+00	57	28	0	908066816	50	6469
2026-01-17 15:56:19.51	263.82	39.68	-40.2	-41.5	20.8	0.00e+00	0	28	0	910163968	52	6789
2026-01-17 15:56:20.52	263.48	39.51	-40.6	-42.0	20.3	0.00e+00	92	28	0	912261120	54	6418
2026-01-17 15:56:21.53	263.14	39.33	-40.0	-41.3	21.1	0.00e+00	0	28	0	913309696	54	5897
2026-01-17 15:56:22.54	262.81	39.15	-39.8	-41.0	21.3	0.00e+00	0	28	0	915406848	52	6406
2026-01-17 15:56:23.55	262.47	38.97	-39.4	-40.5	21.2	0.00e+00	0	28	0	917504000	52	6095
2026-01-17 15:56:24.56	262.15	38.80	-39.5	-40.6	21.5	0.00e+00	0	28	0	919601152	52	6139
2026-01-17 15:56:25.57	261.82	38.62	-38.9	-40.0	22.1	0.00e+00	0	28	0	921698304	52	5700
2026-01-17 15:56:26.58	261.50	38.44	-38.9	-39.9	22.0	0.00e+00	0	28	0	923795456	52	5669
2026-01-17 15:56:27.59	261.18	38.26	-39.3	-40.4	21.7	0.00e+00	38	28	0	924844032	52	5996
2026-01-17 15:56:28.60	260.87	38.08	-40.0	-41.2	21.0	0.00e+00	0	28	0	926941184	52	6583
2026-01-17 15:56:29.61	260.56	37.91	-40.4	-41.7	20.7	0.00e+00	91	28	0	929038336	52	6967
2026-01-17 15:56:30.62	260.25	37.73	-40.5	-41.7	20.7	0.00e+00	23	28	0	931135488	52	6968
2026-01-17 15:56:31.63	259.95	37.55	-40.3	-41.6	20.8	0.00e+00	0	28	0	933232640	52	6866
2026-01-17 15:56:32.64	259.65	37.37	-40.7	-42.0	20.5	0.00e+00	0	28	0	934281216	52	7221
2026-01-17 15:56:33.65	259.35	37.19	-40.5	-41.8	20.5	0.00e+00	0	28	0	936378368	52	7070
2026-01-17 15:56:34.66	259.05	37.02	-40.4	-41.8	20.7	0.00e+00	92	28	0	938475520	54	6271
2026-01-17 15:56:35.67	258.76	36.84	-40.1	-41.4	20.9	0.00e+00	0	28	0	940572672	54	6004
2026-01-17 15:56:36.68	258.48	36.66	-40.8	-42.2	20.2	0.00e+00	49	28	0	942669824	54	6558
2026-01-17 15:56:37.69	258.19	36.48	-41.7	-43.4	18.7	0.00e+00	0	28	0	943718400	54	7545
2026-01-17 15:56:38.70	257.91	36.31	-42.6	-44.5	18.1	0.00e+00	0	28	0	945815552	56	7604
2026-01-17 15:56:39.71	257.63	36.13	-42.3	-44.1	18.4	0.00e+00	0	28	0	947912704	58	6519
2026-01-17 15:56:40.72	257.36	35.95	-41.5	-43.0	19.6	0.00e+00	0	28	0	950009856	56	6444
2026-01-17 15:56:41.73	257.08	35.77	-41.2	-42.6	20.1	0.00e+00	91	28	0	952107008	56	6151
2026-01-17 15:56:42.74	256.82	35.60	-42.4	-44.2	18.4	0.00e+00	0	28	0	953155584	56	7380
2026-01-17 15:56:43.75	256.55	35.42	-43.9	-46.4	16.3	0.00e+00	92	28	0	955252736	60	7584
2026-01-17 15:56:44.76	256.29	35.25	-44.3	-46.9	15.7	0.00e+00	0	28	0	957349888	60	7991
2026-01-17 15:56:45.77	256.02	35.07	-43.6	-45.7	16.8	0.00e+00	0	28	0	959447040	60	6987
2026-01-17 15:56:46.78	255.77	34.89	-42.6	-44.4	18.2	0.00e+00	0	28	0	961544192	60	6012
2026-01-17 15:56:47.79	255.51	34.72	-42.0	-43.6	19.2	0.00e+00	0	28	0	962592768	56	6877
2026-01-17 15:56:48.80	255.26	34.54	-41.2	-42.6	20.0	0.00e+00	61	28	0	964689920	56	6143
2026-01-17 15:56:49.81	255.01	34.37	-41.3	-42.7	19.6	0.00e+00	0	28	0	966787072	56	6211
2026-01-17 15:56:50.82	254.76	34.20	-41.4	-42.8	19.9	0.00e+00	69	28	0	968884224	56	6288
2026-01-17 15:56:51.82	254.52	34.02	-41.4	-42.8	19.8	0.00e+00	0	28	0	970981376	56	6278
2026-01-17 15:56:52.83	254.28	33.85	-40.8	-42.1	20.4	0.00e+00	0	28	0	973078528	56	5796
2026-01-17 15:56:53.84	254.04	33.68	-40.5	-41.8	20.6	0.00e+00	0	28	0	974127104	54	6261
2026-01-17 15:56:54.85	253.80	33.50	-39.9	-41.0	21.5	0.00e+00	0	28	0	976224256	54	5722
2026-01-17 15:56:55.86	253.57	33.33	-39.8	-40.9	21.4	0.00e+00	14	28	0	978321408	52	6365
2026-01-17 15:56:56.87	253.34	33.16	-38.7	-39.7	22.3	0.00e+00	0	28	0	980418560	50	6217
2026-01-17 15:56:57.88	253.11	32.99	-38.6	-39.5	22.6	0.00e+00	92	28	0	981467136	50	6084
2026-01-17 15:56:58.89	252.88	32.82	-38.5	-39.4	22.6	0.00e+00	0	28	0	983564288	50	6024
2026-01-17 15:56:59.90	252.66	32.65	-40.1	-41.3	21.1	0.00e+00	38	28	0	985661440	52	6624
2026-01-17 15:57:00.91	252.44	32.48	-40.9	-42.3	20.2	0.00e+00	0	28	0	987758592	54	6628
2026-01-17 15:57:01.92	252.22	32.31	-41.9	-43.5	19.4	0.00e+00	0	28	0	989855744	56	6783
2026-01-17 15:57:02.93	252.00	32.14	-41.3	-42.8	19.8	0.00e+00	0	28	0	990904320	56	6262
2026-01-17 15:57:03.94	251.78	31.97	-41.6	-43.1	19.3	0.00e+00	0	28	0	993001472	56	6494
2026-01-17 15:57:04.95	251.57	31.80	-40.8	-42.2	20.4	0.00e+00	92	28	0	995098624	56	5833
2026-01-17 15:57:05.96	251.36	31.64	-41.3	-42.7	19.7	0.00e+00	0	28	0	997195776	56	6221
2026-01-17 15:57:06.96	251.15	31.47	-41.3	-42.7	19.8	0.00e+00	90	28	0	999292928	56	6218
2026-01-17 15:57:07.98	250.95	31.30	-41.1	-42.5	19.9	0.00e+00	0	28	0	1001390080	56	6049
2026-01-17 15:57:08.99	250.74	31.14	-40.6	-41.9	20.5	0.00e+00	0	28	0	1002438656	56	5651
2026-01-17 15:57:09.99	250.54	30.97	-39.8	-40.9	21.4	0.00e+00	0	28	0	1004535808	54	5659
2026-01-17 15:57:11.00	250.34	30.81	-39.4	-40.5	21.6	0.00e+00	0	28	0	1006632960	52	6095
2026-01-17 15:57:12.01	250.14	30.64	-39.0	-40.1	22.0	0.00e+00	14	28	0	1008730112	52	5769
2026-01-17 15:57:13.02	249.95	30.48	-39.2	-40.3	21.7	0.00e+00	0	28	0	1010827264	52	5951
2026-01-17 15:57:14.03	249.75	30.32	-39.6	-40.8	21.2	0.00e+00	90	28	0	1011875840	52	6288
2026-01-17 15:57:15.04	249.56	30.15	-40.8	-42.2	20.3	0.00e+00	0	28	0	1013972992	54	6592
2026-01-17 15:57:16.05	249.37	29.99	-41.2	-42.6	19.8	0.00e+00	0	28	0	1016070144	54	6914
2026-01-17 15:57:17.06	249.18	29.83	-41.5	-43.0	19.5	0.00e+00	0	28	0	1018167296	54	7182
2026-01-17 15:57:18.07	249.00	29.67	-41.1	-42.5	20.0	0.00e+00	0	28	0	1020264448	54	6820
2026-01-17 15:57:19.08	248.81	29.51	-40.3	-41.6	20.8	0.00e+00	53	28	0	1021313024	54	6109
2026-01-17 15:57:20.09	248.63	29.35	-39.0	-40.1	22.1	0.00e+00	0	28	0	1023410176	52	5791
2026-01-17 15:57:21.10	248.45	29.19	-38.4	-39.4	22.7	0.00e+00	76	28	0	1025507328	50	5977
2026-01-17 15:57:22.11	248.27	29.03	-38.0	-38.9	23.0	0.00e+00	0	28	0	1027604480	50	5639
2026-01-17 15:57:23.12	248.10	28.87	-38.0	-38.9	22.9	0.00e+00	0	28	0	1029701632	50	5664
2026-01-17 15:57:24.13	247.92	28.72	-37.9	-38.8	23.1	0.00e+00	0	28	0	1030750208	48	6298
2026-01-17 15:57:25.14	247.75	28.56	-38.5	-39.5	22.5	0.00e+00	0	28	0	1032847360	48	6770
2026-01-17 15:57:26.15	247.57	28.40	-39.0	-40.1	22.1	0.00e+00	57	28	0	1034944512	50	6480
2026-01-17 15:57:27.15	247.41	28.25	-40.0	-41.2	21.0	0.00e+00	0	28	0	1037041664	52	6587
2026-01-17 15:57:28.16	247.24	28.09	-41.0	-42.4	20.1	0.00e+00	66	28	0	1039138816	54	6713
2026-01-17 15:57:29.17	247.07	27.94	-41.2	-42.7	19.9	0.00e+00	0	28	0	1040187392	54	6956
2026-01-17 15:57:30.18	246.91	27.78	-40.6	-41.9	20.9	0.00e+00	59	28	0	1042284544	54	6359
2026-01-17 15:57:31.19	246.74	27.63	-39.9	-41.0	21.2	0.00e+00	22	28	0	1044381696	52	6458
2026-01-17 15:57:32.20	246.58	27.48	-39.6	-40.7	21.5	0.00e+00	0	28	0	1046478848	52	6241
2026-01-17 15:57:33.21	246.42	27.33	-39.0	-40.0	22.0	0.00e+00	47	28	0	1048576000	52	5759
2026-01-17 15:57:34.22	246.26	27.17	-38.5	-39.5	22.5	0.00e+00	24	28	0	1049624576	50	6040
2026-01-17 15:57:35.23	246.10	27.02	-38.3	-39.3	22.6	0.00e+00	73	28	0	1051721728	50	5930
2026-01-17 15:57:36.24	245.95	26.87	-39.0	-40.0	22.1	0.00e+00	0	28	0	1053818880	50	6454
2026-01-17 15:57:37.25	245.79	26.72	-38.5	-39.5	22.5	0.00e+00	92	28	0	1055916032	50	6060
2026-01-17 15:57:38.26	245.64	26.57	-39.1	-40.2	22.1	0.00e+00	55	28	0	1058013184	50	6540
2026-01-17 15:57:39.27	245.49	26.42	-39.0	-40.0	22.1	0.00e+00	0	28	0	1059061760	50	6460
2026-01-17 15:57:40.28	245.34	26.28	-39.2	-40.3	21.9	0.00e+00	13	28	0	1061158912	50	6616
2026-01-17 15:57:41.29	245.19	26.13	-38.9	-40.0	22.1	0.00e+00	0	28	0	1063256064	50	6391
2026-01-17 15:57:42.30	245.04	25.98	-38.9	-39.9	22.1	0.00e+00	9	28	0	1065353216	50	6337
2026-01-17 15:57:43.31	244.90	25.83	-38.9	-39.9	22.1	0.00e+00	0	28	0	1067450368	50	6374
2026-01-17 15:57:44.32	244.75	25.69	-38.5	-39.4	22.4	0.00e+00	90	28	0	1069547520	50	6028
2026-01-17 15:57:45.33	244.61	25.54	-38.7	-39.7	22.4	0.00e+00	0	28	0	1070596096	50	6185
2026-01-17 15:57:46.34	244.47	25.40	-38.8	-39.8	22.2	0.00e+00	0	28	0	1072693248	50	6309
2026-01-17 15:57:47.35	244.33	25.26	-39.4	-40.5	21.7	0.00e+00	0	28	0	1074790400	50	6771
2026-01-17 15:57:48.36	244.19	25.11	-39.8	-41.0	21.2	0.00e+00	0	28	0	1076887552	50	7199
2026-01-17 15:57:49.37	244.05	24.97	-40.4	-41.7	20.7	0.00e+00	77	28	0	1078984704	52	6952
2026-01-17 15:57:50.38	243.91	24.83	-40.5	-41.8	20.7	0.00e+00	0	28	0	1080033280	52	7020
2026-01-17 15:57:51.39	243.78	24.69	-40.3	-41.5	20.8	0.00e+00	84	28	0	1082130432	52	6825
2026-01-17 15:57:52.40	243.64	24.54	-40.0	-41.2	21.1	0.00e+00	0	28	0	1084227584	52	6579
2026-01-17 15:57:53.41	243.51	24.40	-39.9	-41.0	21.3	0.00e+00	0	28	0	1086324736	52	6459
2026-01-17 15:57:54.42	243.38	24.26	-39.7	-40.8	21.5	0.00e+00	0	28	0	1088421888	52	6300
2026-01-17 15:57:55.43	243.25	24.12	-39.2	-40.3	21.9	0.00e+00	0	28	0	1089470464	52	5902
2026-01-17 15:57:56.44	243.12	23.99	-39.1	-40.1	22.0	0.00e+00	78	28	0	1091567616	52	5823
2026-01-17 15:57:57.45	242.99	23.85	-39.0	-40.0	22.1	0.00e+00	0	28	0	1093664768	52	5722
2026-01-17 15:57:58.46	242.86	23.71	-39.3	-40.3	21.8	0.00e+00	92	28	0	1095761920	52	5950
2026-01-17 15:57:59.46	242.74	23.57	-38.9	-39.9	22.1	0.00e+00	0	28	0	1097859072	52	5690
2026-01-17 15:58:00.47	242.61	23.44	-39.2	-40.3	21.9	0.00e+00	45	28	0	1098907648	52	5906
2026-01-17 15:58:01.48	242.49	23.30	-39.1	-40.2	22.0	0.00e+00	0	28	0	1101004800	52	5860
2026-01-17 15:58:02.49	242.37	23.17	-38.8	-39.8	22.0	0.00e+00	0	28	0	1103101952	50	6296
2026-01-17 15:58:03.50	242.25	23.03	-38.8	-39.8	22.1	0.00e+00	3	28	0	1105199104	50	6296
2026-01-17 15:58:04.51	242.13	22.90	-39.0	-40.1	22.0	0.00e+00	0	28	0	1107296256	50	6515
2026-01-17 15:58:05.52	242.01	22.76	-39.2	-40.3	21.8	0.00e+00	90	28	0	1108344832	50	6651
2026-01-17 15:58:06.53	241.89	22.63	-39.2	-40.3	21.8	0.00e+00	0	28	0	1110441984	50	6649
2026-01-17 15:58:07.54	241.77	22.50	-39.2	-40.3	21.7	0.00e+00	54	28	0	1112539136	50	6685
2026-01-17 15:58:08.55	241.65	22.37	-39.4	-40.5	21.6	0.00e+00	0	28	0	1114636288	50	6812
2026-01-17 15:58:09.56	241.54	22.24	-39.2	-40.4	21.7	0.00e+00	0	28	0	1116733440	50	6703
2026-01-17 15:58:10.57	241.42	22.10	-39.5	-40.6	21.6	0.00e+00	0	28	0	1117782016	50	6890
2026-01-17 15:58:11.58	241.31	21.97	-38.8	-39.9	22.3	0.00e+00	0	28	0	1119879168	50	6318
2026-01-17 15:58:12.59	241.20	21.84	-38.6	-39.7	22.4	0.00e+00	44	28	0	1121976320	50	6177
2026-01-17 15:58:13.60	241.09	21.71	-38.4	-39.4	22.6	0.00e+00	0	28	0	1124073472	50	5982
2026-01-17 15:58:14.61	240.98	21.59	-38.4	-39.4	22.6	0.00e+00	88	28	0	1126170624	50	5987
2026-01-17 15:58:15.62	240.87	21.46	-38.5	-39.5	22.4	0.00e+00	0	28	0	1127219200	50	6066
2026-01-17 15:58:16.63	240.76	21.33	-39.1	-40.1	21.8	0.00e+00	0	28	0	1129316352	50	6508
2026-01-17 15:58:17.64	240.65	21.20	-39.5	-40.6	21.5	0.00e+00	0	28	0	1131413504	50	6868
2026-01-17 15:58:18.65	240.54	21.08	-40.2	-41.4	21.0	0.00e+00	0	28	0	1133510656	52	6745
2026-01-17 15:58:19.66	240.44	20.95	-40.8	-42.1	20.1	0.00e+00	90	28	0	1135607808	52	7328
2026-01-17 15:58:20.67	240.33	20.82	-41.1	-42.5	19.8	0.00e+00	0	28	0	1137704960	54	6806
2026-01-17 15:58:21.68	240.23	20.70	-41.5	-43.0	19.3	0.00e+00	90	28	0	1138753536	54	7218
2026-01-17 15:58:22.69	240.12	20.58	-41.4	-42.9	19.5	0.00e+00	0	28	0	1140850688	54	7125
2026-01-17 15:58:23.70	240.02	20.45	-41.4	-42.9	19.6	0.00e+00	0	28	0	1142947840	54	7094
2026-01-17 15:58:24.71	239.92	20.33	-40.8	-42.2	20.2	0.00e+00	0	28	0	1145044992	54	6557
2026-01-17 15:58:25.72	239.82	20.20	-40.6	-41.9	20.4	0.00e+00	0	28	0	1147142144	54	6357
2026-01-17 15:58:26.73	239.72	20.08	-40.5	-41.8	20.5	0.00e+00	90	28	0	1148190720	54	6280
2026-01-17 15:58:27.74	239.62	19.96	-40.2	-41.4	20.8	0.00e+00	0	28	0	1150287872	54	6030
2026-01-17 15:58:28.75	239.52	19.84	-40.3	-41.6	20.8	0.00e+00	92	28	0	1152385024	54	6116
2026-01-17 15:58:29.76	239.42	19.72	-40.2	-41.4	20.8	0.00e+00	0	28	0	1154482176	54	6020
2026-01-17 15:58:30.77	239.33	19.60	-39.8	-41.1	21.1	0.00e+00	0	28	0	1156579328	54	5778
2026-01-17 15:58:31.77	239.23	19.48	-40.0	-41.2	21.0	0.00e+00	0	28	0	1157627904	54	5893
2026-01-17 15:58:32.78	239.14	19.36	-40.0	-41.3	21.0	0.00e+00	0	28	0	1159725056	54	5919
2026-01-17 15:58:33.79	239.04	19.24	-39.8	-41.0	21.0	0.00e+00	7	28	0	1161822208	54	5733
2026-01-17 15:58:34.80	238.95	19.12	-39.8	-41.1	21.1	0.00e+00	0	28	0	1163919360	54	5769
2026-01-17 15:58:35.81	238.86	19.00	-40.0	-41.2	20.9	0.00e+00	92	28	0	1166016512	54	5879
2026-01-17 15:58:36.82	238.76	18.89	-39.9	-41.1	21.1	0.00e+00	0	28	0	1167065088	54	5799
2026-01-17 15:58:37.83	238.67	18.77	-40.0	-41.2	21.0	0.00e+00	38	28	0	1169162240	54	5860
2026-01-17 15:58:38.84	238.58	18.65	-40.3	-41.6	20.6	0.00e+00	0	28	0	1171259392	54	6123
2026-01-17 15:58:39.85	238.49	18.54	-39.9	-41.1	21.0	0.00e+00	0	28	0	1173356544	54	5800
2026-01-17 15:58:40.86	238.40	18.42	-40.1	-41.4	20.9	0.00e+00	26	28	0	1175453696	54	5983
2026-01-17 15:58:41.87	238.31	18.31	-40.1	-41.4	20.8	0.00e+00	0	28	0	1176502272	54	6001
2026-01-17 15:58:42.88	238.23	18.19	-40.0	-41.3	20.9	0.00e+00	87	28	0	1178599424	54	5906
2026-01-17 15:58:43.89	238.14	18.08	-40.2	-41.4	20.7	0.00e+00	0	28	0	1180696576	54	6020
2026-01-17 15:58:44.90	238.05	17.96	-40.0	-41.3	20.9	0.00e+00	0	28	0	1182793728	54	5910
2026-01-17 15:58:45.91	237.97	17.85	-39.9	-41.1	21.0	0.00e+00	0	28	0	1184890880	54	5794
2026-01-17 15:58:46.92	237.88	17.74	-39.8	-41.0	21.1	0.00e+00	0	28	0	1185939456	54	5754
2026-01-17 15:58:47.93	237.80	17.62	-39.9	-41.1	21.0	0.00e+00	9	28	0	1188036608	52	6520
2026-01-17 15:58:48.94	237.71	17.51	-39.6	-40.8	21.3	0.00e+00	0	28	0	1190133760	52	6277
2026-01-17 15:58:49.95	237.63	17.40	-39.7	-40.8	21.2	0.00e+00	92	28	0	1192230912	52	6316
2026-01-17 15:58:50.96	237.55	17.29	-39.6	-40.8	21.3	0.00e+00	0	28	0	1194328064	52	6303
2026-01-17 15:58:51.97	237.46	17.18	-39.6	-40.7	21.3	0.00e+00	92	28	0	1195376640	52	6241
2026-01-17 15:58:52.98	237.38	17.07	-40.0	-41.2	20.9	0.00e+00	0	28	0	1197473792	52	6602
2026-01-17 15:58:53.98	237.30	16.96	-39.9	-41.2	20.9	0.00e+00	0	28	0	1199570944	52	6557
2026-01-17 15:58:54.99	237.22	16.85	-39.9	-41.1	21.0	0.00e+00	8	28	0	1201668096	52	6526
2026-01-17 15:58:56.00	237.14	16.74	-40.1	-41.3	20.8	0.00e+00	0	28	0	1203765248	52	6671
2026-01-17 15:58:57.01	237.06	16.63	-40.3	-41.6	20.6	0.00e+00	92	28	0	1205862400	52	6878
2026-01-17 15:58:58.02	236.98	16.52	-40.1	-41.4	20.7	0.00e+00	0	28	0	1206910976	52	6724
2026-01-17 15:58:59.03	236.91	16.42	-40.2	-41.5	20.7	0.00e+00	91	28	0	1209008128	52	6814
