passes_logs/2026/01/17/R4.6S_Anadyr/R4.6S_Anadyr__20260117_200557_FENGYUN_3D_rec.log

#Pass ID: 20260117_200557_FENGYUN 3D
#Satellite: FENGYUN 3D
#Configuration: FENGYUN 3D
#almurnet v.1.7.20251203
#Start time: 2026-01-17 20:06:14

#Version: 2.2.20231116
#Station: R4.6S_Anadyr
#Location: 177.4865 lon 64.73178 lat
#TLE: 1 43010U 17072A   26016.62453405 -.00000112  00000+0 -31355-4 0  9995
#TLE: 2 43010  98.9932 348.4654 0002369 105.3910 254.7528 14.19694900423480

#Time	Az	El	Level	Level2	SNR	BER	BlckErr	Temp	State	Recorded	gain1	gain2
2026-01-17 20:06:14.85	36.16	0.89	-49.1	-65.2	3.2	0.00e+00	0	33	0	0	60	65053
2026-01-17 20:06:15.86	36.09	0.95	-47.4	-59.5	3.6	8.45e-01	0	34	104	0	60	34019
2026-01-17 20:06:16.87	36.02	1.00	-47.1	-59.2	3.5	8.45e-01	0	34	104	0	60	32864
2026-01-17 20:06:17.88	35.95	1.05	-47.1	-59.2	3.6	8.46e-01	0	34	104	0	60	32867
2026-01-17 20:06:18.89	35.88	1.10	-47.1	-59.1	3.6	8.46e-01	0	34	104	0	60	32482
2026-01-17 20:06:19.90	35.80	1.16	-47.1	-59.1	3.6	8.45e-01	0	34	104	0	60	32627
2026-01-17 20:06:20.90	35.73	1.21	-47.1	-59.0	3.6	8.45e-01	0	34	104	0	60	32273
2026-01-17 20:06:21.91	35.66	1.26	-47.1	-59.1	3.6	8.45e-01	0	34	104	0	60	32510
2026-01-17 20:06:22.92	35.59	1.32	-47.1	-59.1	3.6	8.45e-01	0	34	104	0	60	32517
2026-01-17 20:06:23.94	35.51	1.37	-47.1	-59.1	3.6	8.46e-01	0	34	104	0	60	32426
2026-01-17 20:06:24.95	35.44	1.42	-47.1	-59.0	3.6	8.45e-01	0	34	104	0	60	32350
2026-01-17 20:06:25.96	35.37	1.48	-47.1	-59.0	3.6	8.45e-01	0	34	104	0	60	32316
2026-01-17 20:06:26.97	35.30	1.53	-47.1	-59.0	3.6	8.46e-01	0	34	104	0	60	32276
2026-01-17 20:06:27.97	35.22	1.58	-47.1	-59.0	3.6	8.46e-01	0	34	104	0	60	32285
2026-01-17 20:06:28.98	35.15	1.64	-47.1	-59.1	3.6	8.46e-01	0	34	104	0	60	32704
2026-01-17 20:06:29.99	35.07	1.69	-47.1	-59.1	3.6	8.45e-01	0	34	104	0	60	32722
2026-01-17 20:06:31.00	35.00	1.74	-47.1	-59.1	3.6	8.45e-01	0	33	104	0	60	32474
2026-01-17 20:06:32.01	34.92	1.80	-47.1	-59.0	3.6	8.45e-01	0	33	104	0	60	32378
2026-01-17 20:06:33.01	34.85	1.85	-47.1	-59.1	3.6	8.46e-01	0	33	104	0	60	32514
2026-01-17 20:06:34.02	34.77	1.90	-47.1	-58.9	3.6	8.45e-01	0	33	104	0	60	31979
2026-01-17 20:06:35.03	34.70	1.96	-47.1	-58.7	3.6	8.45e-01	0	33	104	0	60	30994
2026-01-17 20:06:36.04	34.62	2.01	-47.0	-58.6	3.6	8.45e-01	0	33	104	0	60	30614
2026-01-17 20:06:37.05	34.55	2.06	-47.0	-58.3	3.6	8.45e-01	0	33	104	0	60	29703
2026-01-17 20:06:38.06	34.47	2.12	-47.0	-58.1	3.6	8.45e-01	0	33	104	0	60	29157
2026-01-17 20:06:39.07	34.39	2.17	-47.0	-58.3	3.6	8.45e-01	0	33	104	0	60	29757
2026-01-17 20:06:40.08	34.32	2.23	-47.0	-58.7	3.6	8.45e-01	0	33	104	0	60	31074
2026-01-17 20:06:41.09	34.24	2.28	-47.1	-59.0	3.6	8.45e-01	0	33	104	0	60	32181
2026-01-17 20:06:42.10	34.16	2.33	-47.1	-59.1	3.6	8.44e-01	0	33	104	0	60	32725
2026-01-17 20:06:43.11	34.08	2.39	-47.1	-59.0	3.6	8.45e-01	0	33	104	0	60	32373
2026-01-17 20:06:44.12	34.00	2.44	-47.1	-59.1	3.6	8.46e-01	0	33	104	0	60	32522
2026-01-17 20:06:45.13	33.93	2.50	-47.1	-59.2	3.6	8.46e-01	0	33	104	0	60	32950
2026-01-17 20:06:46.14	33.85	2.55	-47.1	-59.0	3.6	8.45e-01	0	33	104	0	60	32351
2026-01-17 20:06:47.15	33.77	2.61	-47.0	-58.5	3.6	8.45e-01	0	33	104	0	60	30579
2026-01-17 20:06:48.16	33.69	2.66	-46.9	-57.5	3.6	8.45e-01	0	33	104	0	60	27066
2026-01-17 20:06:49.17	33.61	2.71	-46.9	-57.2	3.6	8.44e-01	0	33	104	0	60	26111
2026-01-17 20:06:50.18	33.53	2.77	-46.9	-57.6	3.6	8.45e-01	0	33	104	0	60	27295
2026-01-17 20:06:51.19	33.45	2.82	-47.0	-58.5	3.6	8.45e-01	0	33	104	0	60	30448
2026-01-17 20:06:52.20	33.37	2.88	-46.9	-56.8	3.6	8.46e-01	0	33	104	0	60	25061
2026-01-17 20:06:53.21	33.29	2.93	-46.0	-52.1	6.1	7.97e-01	0	33	104	0	60	14565
2026-01-17 20:06:54.22	33.20	2.99	-44.6	-48.0	9.7	4.97e-02	0	33	0	4194304	60	9046
2026-01-17 20:06:55.23	33.12	3.04	-42.9	-45.1	13.0	1.15e-03	0	33	0	9437184	60	6485
2026-01-17 20:06:56.24	33.04	3.10	-42.3	-44.3	13.7	2.40e-05	0	33	0	15728640	58	6681
2026-01-17 20:06:57.25	32.96	3.15	-42.1	-44.0	14.1	0.00e+00	0	33	0	20971520	58	6412
2026-01-17 20:06:58.26	32.87	3.21	-43.1	-45.4	14.5	1.44e-03	0	33	0	26214400	60	6695
2026-01-17 20:06:59.27	32.79	3.26	-37.5	-38.5	19.7	0.00e+00	0	33	0	32505856	50	5382
2026-01-17 20:07:00.28	32.71	3.32	-47.0	-58.7	3.6	8.45e-01	0	33	104	34603008	60	31264
2026-01-17 20:07:01.29	32.62	3.37	-42.9	-45.1	14.6	3.48e-01	0	33	104	34603008	60	6472
2026-01-17 20:07:02.30	32.54	3.43	-39.9	-41.1	17.4	0.00e+00	0	33	0	37748736	52	6536
2026-01-17 20:07:03.31	32.46	3.48	-37.6	-38.6	19.6	0.00e+00	0	33	0	44040192	48	6125
2026-01-17 20:07:04.32	32.37	3.54	-38.0	-39.1	19.1	0.00e+00	0	33	0	49283072	48	6483
2026-01-17 20:07:05.33	32.29	3.59	-36.9	-37.8	20.4	0.00e+00	0	32	0	55574528	48	5596
2026-01-17 20:07:06.34	32.20	3.65	-36.6	-37.5	20.7	0.00e+00	0	32	0	60817408	46	6072
2026-01-17 20:07:07.35	32.12	3.70	-36.4	-37.3	20.9	0.00e+00	0	32	0	67108864	46	5953
2026-01-17 20:07:08.36	32.03	3.76	-36.3	-37.2	21.1	0.00e+00	0	32	0	72351744	46	5883
2026-01-17 20:07:09.37	31.94	3.81	-36.2	-37.1	21.2	0.00e+00	0	32	0	77594624	46	5767
2026-01-17 20:07:10.38	31.86	3.87	-36.5	-37.4	20.9	0.00e+00	0	32	0	83886080	46	6010
2026-01-17 20:07:11.38	31.77	3.93	-36.4	-37.3	21.0	0.00e+00	0	32	0	89128960	46	5949
2026-01-17 20:07:12.39	31.68	3.98	-36.7	-37.6	20.9	0.00e+00	0	32	0	95420416	46	6117
2026-01-17 20:07:13.40	31.59	4.04	-36.6	-37.5	20.9	0.00e+00	0	32	0	100663296	46	6085
2026-01-17 20:07:14.41	31.51	4.09	-36.3	-37.2	21.2	0.00e+00	0	32	0	105906176	46	5829
2026-01-17 20:07:15.42	31.42	4.15	-36.7	-37.5	20.7	0.00e+00	0	32	0	112197632	46	6103
2026-01-17 20:07:16.43	31.33	4.20	-36.3	-37.2	21.2	0.00e+00	0	32	0	117440512	46	5839
2026-01-17 20:07:17.44	31.24	4.26	-36.5	-37.3	21.0	0.00e+00	0	32	0	123731968	46	5939
2026-01-17 20:07:18.45	31.15	4.32	-36.0	-36.9	21.4	0.00e+00	0	32	0	128974848	46	5644
2026-01-17 20:07:19.46	31.06	4.37	-36.5	-37.4	21.1	0.00e+00	0	32	0	134217728	46	5995
2026-01-17 20:07:20.47	30.97	4.43	-36.2	-37.0	21.4	0.00e+00	0	32	0	140509184	46	5741
2026-01-17 20:07:21.48	30.88	4.48	-36.2	-37.1	21.1	0.00e+00	0	32	0	145752064	46	5779
2026-01-17 20:07:22.49	30.79	4.54	-36.4	-37.2	21.3	0.00e+00	0	32	0	152043520	46	5879
2026-01-17 20:07:23.50	30.70	4.60	-36.4	-37.3	21.1	0.00e+00	0	32	0	157286400	46	5901
2026-01-17 20:07:24.51	30.61	4.65	-36.3	-37.2	21.4	0.00e+00	0	32	0	163577856	46	5848
2026-01-17 20:07:25.52	30.51	4.71	-36.1	-37.0	21.7	0.00e+00	0	32	0	168820736	46	5703
2026-01-17 20:07:26.53	30.42	4.77	-36.1	-37.0	21.6	0.00e+00	0	32	0	174063616	46	5699
2026-01-17 20:07:27.54	30.33	4.82	-36.3	-37.1	21.5	0.00e+00	0	32	0	180355072	46	5805
2026-01-17 20:07:28.55	30.23	4.88	-36.2	-37.0	21.5	0.00e+00	0	32	0	185597952	46	5754
2026-01-17 20:07:29.56	30.14	4.94	-36.0	-36.9	21.6	0.00e+00	0	32	0	191889408	46	5649
2026-01-17 20:07:30.57	30.05	4.99	-36.1	-36.9	21.6	0.00e+00	0	32	0	197132288	46	5675
2026-01-17 20:07:31.58	29.95	5.05	-35.9	-36.7	21.7	0.00e+00	0	32	0	203423744	44	6211
2026-01-17 20:07:32.59	29.86	5.10	-35.7	-36.5	22.0	0.00e+00	0	32	0	208666624	44	6035
2026-01-17 20:07:33.60	29.76	5.16	-35.7	-36.5	21.9	0.00e+00	0	32	0	213909504	44	6092
2026-01-17 20:07:34.61	29.67	5.22	-35.6	-36.4	22.1	0.00e+00	0	32	0	220200960	44	5990
2026-01-17 20:07:35.62	29.57	5.28	-35.7	-36.6	21.9	0.00e+00	0	32	0	225443840	44	6116
2026-01-17 20:07:36.63	29.48	5.33	-35.8	-36.6	22.0	0.00e+00	0	32	0	231735296	44	6147
2026-01-17 20:07:37.64	29.38	5.39	-35.6	-36.4	22.0	0.00e+00	0	32	0	236978176	44	6021
2026-01-17 20:07:38.65	29.28	5.45	-35.7	-36.5	22.1	0.00e+00	0	32	0	242221056	44	6051
2026-01-17 20:07:39.66	29.18	5.50	-35.6	-36.4	22.1	0.00e+00	0	32	0	248512512	44	5970
2026-01-17 20:07:40.67	29.09	5.56	-35.4	-36.2	22.2	0.00e+00	0	32	0	253755392	44	5873
2026-01-17 20:07:41.68	28.99	5.62	-35.4	-36.2	22.4	0.00e+00	0	32	0	260046848	44	5829
2026-01-17 20:07:42.69	28.89	5.67	-35.3	-36.1	22.4	0.00e+00	0	32	0	265289728	44	5806
2026-01-17 20:07:43.70	28.79	5.73	-35.4	-36.2	22.4	0.00e+00	0	32	0	270532608	44	5863
2026-01-17 20:07:44.71	28.69	5.79	-35.4	-36.2	22.3	0.00e+00	0	32	0	276824064	44	5851
2026-01-17 20:07:45.72	28.59	5.85	-35.5	-36.3	22.4	0.00e+00	0	32	0	282066944	44	5915
2026-01-17 20:07:46.73	28.49	5.90	-35.5	-36.3	22.2	0.00e+00	0	32	0	288358400	44	5939
2026-01-17 20:07:47.74	28.39	5.96	-35.4	-36.2	22.4	0.00e+00	0	32	0	293601280	44	5842
2026-01-17 20:07:48.75	28.29	6.02	-35.4	-36.2	22.3	0.00e+00	0	32	0	299892736	44	5883
2026-01-17 20:07:49.76	28.19	6.07	-35.4	-36.2	22.4	0.00e+00	0	32	0	305135616	44	5837
2026-01-17 20:07:50.77	28.09	6.13	-35.4	-36.2	22.4	0.00e+00	0	32	0	311427072	44	5861
2026-01-17 20:07:51.78	27.98	6.19	-35.4	-36.2	22.4	0.00e+00	0	32	0	316669952	44	5871
2026-01-17 20:07:52.79	27.88	6.25	-35.4	-36.2	22.4	0.00e+00	0	32	0	321912832	44	5870
2026-01-17 20:07:53.80	27.78	6.30	-35.4	-36.2	22.4	0.00e+00	0	32	0	328204288	44	5869
2026-01-17 20:07:54.81	27.67	6.36	-35.4	-36.2	22.4	0.00e+00	0	32	0	333447168	44	5874
2026-01-17 20:07:55.82	27.57	6.42	-35.4	-36.2	22.4	0.00e+00	0	31	0	339738624	44	5874
2026-01-17 20:07:56.83	27.47	6.48	-35.4	-36.2	22.4	0.00e+00	0	31	0	344981504	44	5839
2026-01-17 20:07:57.84	27.36	6.54	-35.5	-36.3	22.3	0.00e+00	0	32	0	350224384	44	5950
2026-01-17 20:07:58.85	27.26	6.59	-35.6	-36.4	22.3	0.00e+00	0	31	0	356515840	44	6012
2026-01-17 20:07:59.86	27.15	6.65	-35.4	-36.2	22.5	0.00e+00	0	31	0	361758720	44	5865
2026-01-17 20:08:00.87	27.04	6.71	-35.5	-36.3	22.5	0.00e+00	0	31	0	368050176	44	5912
2026-01-17 20:08:01.88	26.94	6.77	-35.4	-36.2	22.5	0.00e+00	0	31	0	373293056	44	5841
2026-01-17 20:08:02.89	26.83	6.82	-35.3	-36.1	22.6	0.00e+00	0	31	0	379584512	44	5799
2026-01-17 20:08:03.90	26.72	6.88	-35.2	-36.0	22.7	0.00e+00	0	31	0	384827392	44	5696
2026-01-17 20:08:04.91	26.62	6.94	-35.1	-35.9	22.8	0.00e+00	0	31	0	390070272	44	5670
2026-01-17 20:08:05.92	26.51	7.00	-35.0	-35.8	22.9	0.00e+00	0	31	0	396361728	44	5598
2026-01-17 20:08:06.92	26.40	7.06	-35.0	-35.8	22.9	0.00e+00	0	31	0	401604608	44	5592
2026-01-17 20:08:07.93	26.29	7.11	-35.1	-35.9	22.8	0.00e+00	0	31	0	407896064	44	5645
2026-01-17 20:08:08.94	26.18	7.17	-35.0	-35.7	22.9	0.00e+00	0	31	0	413138944	44	5556
2026-01-17 20:08:09.95	26.07	7.23	-34.7	-35.5	23.2	0.00e+00	0	31	0	418381824	42	6039
2026-01-17 20:08:10.96	25.96	7.29	-34.9	-35.6	23.1	0.00e+00	0	31	0	424673280	42	6158
2026-01-17 20:08:11.97	25.85	7.35	-34.8	-35.6	23.2	0.00e+00	0	31	0	429916160	42	6120
2026-01-17 20:08:12.98	25.74	7.40	-34.8	-35.5	23.2	0.00e+00	0	31	0	436207616	42	6092
2026-01-17 20:08:13.99	25.63	7.46	-34.7	-35.4	23.3	0.00e+00	0	31	0	441450496	42	6000
2026-01-17 20:08:15.00	25.51	7.52	-34.8	-35.5	23.3	0.00e+00	0	31	0	446693376	42	6066
2026-01-17 20:08:16.01	25.40	7.58	-34.4	-35.2	23.6	0.00e+00	0	31	0	452984832	42	5857
2026-01-17 20:08:17.02	25.29	7.64	-34.6	-35.3	23.4	0.00e+00	0	31	0	458227712	42	5939
2026-01-17 20:08:18.03	25.17	7.70	-34.3	-35.1	23.6	0.00e+00	0	31	0	464519168	42	5775
2026-01-17 20:08:19.04	25.06	7.75	-34.5	-35.3	23.6	0.00e+00	0	31	0	469762048	42	5915
2026-01-17 20:08:20.05	24.94	7.81	-34.4	-35.1	23.6	0.00e+00	0	31	0	475004928	42	5817
2026-01-17 20:08:21.06	24.83	7.87	-34.5	-35.2	23.4	0.00e+00	0	31	0	481296384	42	5864
2026-01-17 20:08:22.07	24.71	7.93	-34.2	-34.9	23.8	0.00e+00	0	31	0	486539264	42	5687
2026-01-17 20:08:23.08	24.60	7.99	-34.3	-35.0	23.7	0.00e+00	0	31	0	492830720	42	5753
2026-01-17 20:08:24.09	24.48	8.05	-34.4	-35.1	23.6	0.00e+00	0	31	0	498073600	42	5816
2026-01-17 20:08:25.10	24.36	8.10	-34.5	-35.2	23.5	0.00e+00	0	31	0	504365056	42	5879
2026-01-17 20:08:26.11	24.25	8.16	-34.5	-35.2	23.5	0.00e+00	0	31	0	509607936	42	5879
2026-01-17 20:08:27.12	24.13	8.22	-34.6	-35.3	23.5	0.00e+00	0	31	0	515899392	42	5931
2026-01-17 20:08:28.13	24.01	8.28	-34.6	-35.3	23.5	0.00e+00	0	31	0	521142272	42	5941
2026-01-17 20:08:29.14	23.89	8.34	-34.6	-35.3	23.4	0.00e+00	0	31	0	526385152	42	5951
2026-01-17 20:08:30.15	23.77	8.40	-34.6	-35.3	23.5	0.00e+00	0	31	0	532676608	42	5922
2026-01-17 20:08:31.16	23.65	8.46	-34.7	-35.4	23.4	0.00e+00	0	31	0	537919488	42	6017
2026-01-17 20:08:32.17	23.53	8.51	-34.6	-35.3	23.4	0.00e+00	0	31	0	544210944	42	5931
2026-01-17 20:08:33.18	23.41	8.57	-34.5	-35.3	23.5	0.00e+00	0	31	0	549453824	42	5924
2026-01-17 20:08:34.19	23.29	8.63	-34.5	-35.2	23.5	0.00e+00	0	31	0	554696704	42	5896
2026-01-17 20:08:35.20	23.16	8.69	-34.4	-35.2	23.7	0.00e+00	0	31	0	560988160	42	5830
2026-01-17 20:08:36.21	23.04	8.75	-34.6	-35.4	23.5	0.00e+00	0	31	0	566231040	42	5965
2026-01-17 20:08:37.22	22.92	8.81	-34.6	-35.3	23.5	0.00e+00	0	31	0	572522496	42	5943
2026-01-17 20:08:38.23	22.80	8.87	-34.5	-35.3	23.6	0.00e+00	0	31	0	577765376	42	5898
2026-01-17 20:08:39.24	22.67	8.93	-34.4	-35.2	23.6	0.00e+00	0	31	0	583008256	42	5862
2026-01-17 20:08:40.25	22.55	8.98	-34.7	-35.4	23.4	0.00e+00	0	31	0	589299712	42	6015
2026-01-17 20:08:41.26	22.42	9.04	-34.6	-35.3	23.5	0.00e+00	0	31	0	594542592	42	5945
2026-01-17 20:08:42.27	22.30	9.10	-34.5	-35.2	23.6	0.00e+00	0	31	0	600834048	42	5893
2026-01-17 20:08:43.28	22.17	9.16	-34.3	-35.1	23.8	0.00e+00	0	31	0	606076928	42	5777
2026-01-17 20:08:44.29	22.04	9.22	-34.2	-35.0	23.9	0.00e+00	0	31	0	612368384	42	5702
2026-01-17 20:08:45.30	21.92	9.28	-34.3	-35.0	23.8	0.00e+00	0	31	0	617611264	42	5719
2026-01-17 20:08:46.31	21.79	9.34	-34.2	-34.9	24.0	0.00e+00	0	31	0	622854144	42	5659
2026-01-17 20:08:47.32	21.66	9.40	-34.2	-34.9	23.9	0.00e+00	0	31	0	629145600	42	5673
2026-01-17 20:08:48.33	21.53	9.45	-34.2	-34.9	23.9	0.00e+00	0	31	0	634388480	42	5667
2026-01-17 20:08:49.34	21.40	9.51	-34.1	-34.8	24.0	0.00e+00	0	31	0	640679936	42	5602
2026-01-17 20:08:50.35	21.27	9.57	-34.2	-34.9	23.9	0.00e+00	0	31	0	645922816	42	5666
2026-01-17 20:08:51.36	21.14	9.63	-34.1	-34.8	24.0	0.00e+00	0	31	0	651165696	42	5630
2026-01-17 20:08:52.37	21.01	9.69	-34.1	-34.8	24.0	0.00e+00	0	31	0	657457152	42	5591
2026-01-17 20:08:53.38	20.88	9.75	-33.9	-34.6	24.2	0.00e+00	0	31	0	662700032	42	5464
2026-01-17 20:08:54.39	20.75	9.81	-34.0	-34.8	24.1	0.00e+00	0	31	0	668991488	42	5586
2026-01-17 20:08:55.40	20.61	9.86	-33.9	-34.6	24.2	0.00e+00	0	31	0	674234368	42	5466
2026-01-17 20:08:56.41	20.48	9.92	-33.8	-34.5	24.3	0.00e+00	0	31	0	680525824	42	5405
2026-01-17 20:08:57.42	20.35	9.98	-33.6	-34.3	24.5	0.00e+00	0	31	0	685768704	40	5940
2026-01-17 20:08:58.43	20.21	10.04	-33.7	-34.5	24.2	0.00e+00	0	31	0	691011584	40	6044
2026-01-17 20:08:59.44	20.08	10.10	-33.6	-34.3	24.5	0.00e+00	0	31	0	697303040	40	5940
2026-01-17 20:09:00.45	19.94	10.16	-33.6	-34.3	24.5	0.00e+00	0	31	0	702545920	40	5924
2026-01-17 20:09:01.46	19.81	10.22	-33.8	-34.5	24.2	0.00e+00	0	31	0	708837376	40	6070
2026-01-17 20:09:02.47	19.67	10.28	-33.8	-34.5	24.3	0.00e+00	0	31	0	714080256	40	6048
2026-01-17 20:09:03.48	19.53	10.33	-33.8	-34.5	24.3	0.00e+00	0	31	0	720371712	40	6040
2026-01-17 20:09:04.49	19.39	10.39	-33.8	-34.5	24.2	0.00e+00	0	31	0	725614592	40	6097
2026-01-17 20:09:05.50	19.26	10.45	-33.9	-34.6	24.2	0.00e+00	0	31	0	730857472	40	6136
2026-01-17 20:09:06.51	19.12	10.51	-33.7	-34.5	24.3	0.00e+00	0	31	0	737148928	40	6035
2026-01-17 20:09:07.52	18.98	10.57	-33.9	-34.6	24.3	0.00e+00	0	31	0	742391808	40	6123
2026-01-17 20:09:08.53	18.84	10.63	-33.8	-34.6	24.3	0.00e+00	0	31	0	748683264	40	6104
2026-01-17 20:09:09.54	18.70	10.68	-33.9	-34.6	24.2	0.00e+00	0	31	0	753926144	40	6146
2026-01-17 20:09:10.55	18.56	10.74	-34.0	-34.7	24.2	0.00e+00	0	31	0	759169024	40	6201
2026-01-17 20:09:11.56	18.42	10.80	-33.9	-34.7	24.2	0.00e+00	0	31	0	765460480	40	6187
2026-01-17 20:09:12.57	18.27	10.86	-34.1	-34.8	24.0	0.00e+00	0	31	0	770703360	40	6267
2026-01-17 20:09:13.58	18.13	10.92	-33.8	-34.5	24.3	0.00e+00	0	31	0	776994816	40	6088
2026-01-17 20:09:14.59	17.99	10.98	-33.7	-34.4	24.4	0.00e+00	0	31	0	782237696	40	6020
2026-01-17 20:09:15.60	17.84	11.03	-33.7	-34.4	24.4	0.00e+00	0	31	0	788529152	40	6006
2026-01-17 20:09:16.61	17.70	11.09	-33.6	-34.3	24.5	0.00e+00	0	31	0	793772032	40	5925
2026-01-17 20:09:17.62	17.55	11.15	-33.6	-34.3	24.5	0.00e+00	0	31	0	799014912	40	5953
2026-01-17 20:09:18.63	17.41	11.21	-33.6	-34.3	24.5	0.00e+00	0	31	0	805306368	40	5963
2026-01-17 20:09:19.64	17.26	11.27	-33.8	-34.6	24.3	0.00e+00	0	31	0	810549248	40	6110
2026-01-17 20:09:20.65	17.11	11.32	-33.8	-34.5	24.3	0.00e+00	0	31	0	816840704	40	6064
2026-01-17 20:09:21.66	16.97	11.38	-33.8	-34.5	24.4	0.00e+00	0	31	0	822083584	40	6088
2026-01-17 20:09:22.66	16.82	11.44	-33.8	-34.5	24.4	0.00e+00	0	31	0	827326464	40	6051
2026-01-17 20:09:23.67	16.67	11.50	-33.6	-34.3	24.5	0.00e+00	0	31	0	833617920	40	5953
2026-01-17 20:09:24.68	16.52	11.56	-33.6	-34.3	24.6	0.00e+00	0	31	0	838860800	40	5911
2026-01-17 20:09:25.69	16.37	11.61	-33.5	-34.2	24.7	0.00e+00	0	31	0	845152256	40	5845
2026-01-17 20:09:26.70	16.22	11.67	-33.4	-34.1	24.7	0.00e+00	0	31	0	850395136	40	5817
2026-01-17 20:09:27.71	16.07	11.73	-33.4	-34.0	24.8	0.00e+00	0	31	0	855638016	40	5757
2026-01-17 20:09:28.72	15.92	11.79	-33.5	-34.2	24.8	0.00e+00	0	31	0	861929472	40	5833
2026-01-17 20:09:29.73	15.77	11.84	-33.4	-34.1	24.8	0.00e+00	0	31	0	867172352	40	5764
2026-01-17 20:09:30.74	15.61	11.90	-33.4	-34.1	24.8	0.00e+00	0	31	0	873463808	40	5812
2026-01-17 20:09:31.75	15.46	11.96	-33.4	-34.1	24.8	0.00e+00	0	31	0	878706688	40	5781
2026-01-17 20:09:32.76	15.31	12.02	-33.5	-34.2	24.7	0.00e+00	0	31	0	883949568	40	5852
2026-01-17 20:09:33.77	15.15	12.07	-33.3	-34.0	24.9	0.00e+00	0	31	0	890241024	40	5754
2026-01-17 20:09:34.78	15.00	12.13	-33.2	-33.9	24.8	0.00e+00	0	31	0	895483904	40	5662
2026-01-17 20:09:35.79	14.84	12.19	-33.2	-33.9	24.9	0.00e+00	0	31	0	901775360	40	5695
2026-01-17 20:09:36.80	14.68	12.24	-33.3	-34.0	24.9	0.00e+00	0	31	0	907018240	40	5697
2026-01-17 20:09:37.81	14.53	12.30	-33.2	-33.8	25.0	0.00e+00	0	31	0	913309696	40	5627
2026-01-17 20:09:38.82	14.37	12.36	-33.2	-33.9	25.0	0.00e+00	0	31	0	918552576	40	5648
2026-01-17 20:09:39.84	14.21	12.41	-33.1	-33.9	25.0	0.00e+00	0	31	0	924844032	40	5641
2026-01-17 20:09:40.85	14.05	12.47	-33.2	-33.9	24.9	0.00e+00	0	31	0	930086912	40	5663
2026-01-17 20:09:41.86	13.89	12.53	-33.3	-34.0	24.9	0.00e+00	0	31	0	935329792	40	5696
2026-01-17 20:09:42.87	13.73	12.58	-33.3	-34.0	24.9	0.00e+00	0	31	0	941621248	40	5715
2026-01-17 20:09:43.88	13.57	12.64	-33.3	-34.0	25.0	0.00e+00	0	31	0	946864128	40	5706
2026-01-17 20:09:44.89	13.41	12.70	-33.3	-34.0	24.9	0.00e+00	0	31	0	953155584	40	5699
2026-01-17 20:09:45.90	13.24	12.75	-33.1	-33.8	25.1	0.00e+00	0	31	0	958398464	40	5580
2026-01-17 20:09:46.91	13.08	12.81	-33.1	-33.8	25.1	0.00e+00	0	31	0	963641344	40	5584
2026-01-17 20:09:47.92	12.92	12.87	-32.9	-33.6	25.2	0.00e+00	0	31	0	969932800	40	5476
2026-01-17 20:09:48.93	12.75	12.92	-33.0	-33.6	25.2	0.00e+00	0	31	0	975175680	40	5502
2026-01-17 20:09:49.94	12.59	12.98	-33.1	-33.8	25.1	0.00e+00	0	31	0	981467136	40	5597
2026-01-17 20:09:50.95	12.42	13.03	-33.1	-33.7	25.1	0.00e+00	0	31	0	986710016	40	5562
2026-01-17 20:09:51.96	12.26	13.09	-33.2	-33.9	25.0	0.00e+00	0	31	0	991952896	40	5674
2026-01-17 20:09:52.97	12.09	13.14	-33.3	-34.0	24.9	0.00e+00	0	31	0	998244352	40	5713
2026-01-17 20:09:53.98	11.92	13.20	-33.3	-34.1	25.0	0.00e+00	0	31	0	1003487232	40	5765
2026-01-17 20:09:54.99	11.76	13.25	-33.4	-34.1	24.9	0.00e+00	0	31	0	1009778688	40	5812
2026-01-17 20:09:56.00	11.59	13.31	-33.3	-34.0	24.9	0.00e+00	0	31	0	1015021568	40	5708
2026-01-17 20:09:57.01	11.42	13.36	-33.3	-34.0	24.9	0.00e+00	0	31	0	1021313024	40	5739
2026-01-17 20:09:58.02	11.25	13.42	-33.2	-33.9	25.0	0.00e+00	0	31	0	1026555904	40	5663
2026-01-17 20:09:59.03	11.08	13.47	-33.0	-33.7	25.1	0.00e+00	0	31	0	1032847360	40	5528
2026-01-17 20:10:00.04	10.91	13.53	-33.1	-33.8	25.2	0.00e+00	0	31	0	1038090240	40	5589
2026-01-17 20:10:01.04	10.74	13.58	-32.8	-33.4	25.4	0.00e+00	0	31	0	1043333120	40	5372
2026-01-17 20:10:02.05	10.56	13.64	-32.9	-33.5	25.3	0.00e+00	0	31	0	1049624576	38	6090
2026-01-17 20:10:03.06	10.39	13.69	-32.8	-33.5	25.4	0.00e+00	0	31	0	1054867456	38	6061
2026-01-17 20:10:04.07	10.22	13.74	-32.6	-33.3	25.6	0.00e+00	0	31	0	1060110336	38	5904
2026-01-17 20:10:05.08	10.04	13.80	-32.6	-33.3	25.6	0.00e+00	0	31	0	1066401792	38	5923
2026-01-17 20:10:06.09	9.87	13.85	-32.6	-33.3	25.6	0.00e+00	0	31	0	1071644672	38	5916
2026-01-17 20:10:07.10	9.69	13.91	-32.6	-33.3	25.5	0.00e+00	0	31	0	1077936128	38	5923
2026-01-17 20:10:08.11	9.52	13.96	-32.8	-33.5	25.4	0.00e+00	0	31	0	1083179008	38	6069
2026-01-17 20:10:09.12	9.34	14.01	-32.7	-33.4	25.5	0.00e+00	0	31	0	1088421888	38	6010
2026-01-17 20:10:10.13	9.16	14.07	-32.7	-33.4	25.6	0.00e+00	0	31	0	1094713344	38	5998
2026-01-17 20:10:11.13	8.99	14.12	-32.8	-33.5	25.5	0.00e+00	0	31	0	1099956224	38	6084
2026-01-17 20:10:12.14	8.81	14.17	-32.6	-33.3	25.5	0.00e+00	0	31	0	1106247680	38	5951
2026-01-17 20:10:13.15	8.63	14.22	-32.5	-33.2	25.7	0.00e+00	0	31	0	1111490560	38	5844
2026-01-17 20:10:14.16	8.45	14.28	-32.6	-33.2	25.7	0.00e+00	0	31	0	1117782016	38	5889
2026-01-17 20:10:15.17	8.27	14.33	-32.6	-33.2	25.7	0.00e+00	0	31	0	1123024896	38	5892
2026-01-17 20:10:16.18	8.08	14.38	-32.5	-33.2	25.6	0.00e+00	0	31	0	1129316352	38	5859
2026-01-17 20:10:17.19	7.90	14.43	-32.6	-33.3	25.5	0.00e+00	0	31	0	1134559232	38	5937
2026-01-17 20:10:18.20	7.72	14.48	-32.5	-33.2	25.7	0.00e+00	0	31	0	1139802112	38	5882
2026-01-17 20:10:19.21	7.54	14.54	-32.6	-33.3	25.6	0.00e+00	0	31	0	1146093568	38	5922
2026-01-17 20:10:20.22	7.35	14.59	-32.7	-33.3	25.4	0.00e+00	0	31	0	1151336448	38	5963
2026-01-17 20:10:21.23	7.17	14.64	-32.9	-33.6	25.4	0.00e+00	0	31	0	1157627904	38	6119
2026-01-17 20:10:22.24	6.98	14.69	-32.8	-33.5	25.5	0.00e+00	0	31	0	1162870784	38	6042
2026-01-17 20:10:23.25	6.80	14.74	-32.6	-33.2	25.6	0.00e+00	0	31	0	1168113664	38	5884
2026-01-17 20:10:24.27	6.61	14.79	-32.7	-33.3	25.5	0.00e+00	0	31	0	1174405120	38	5944
2026-01-17 20:10:25.28	6.42	14.84	-32.7	-33.4	25.5	0.00e+00	0	31	0	1179648000	38	6023
2026-01-17 20:10:26.29	6.23	14.89	-32.7	-33.4	25.6	0.00e+00	0	31	0	1185939456	38	5976
2026-01-17 20:10:27.30	6.04	14.94	-32.7	-33.4	25.4	0.00e+00	0	31	0	1191182336	38	5989
2026-01-17 20:10:28.31	5.85	14.99	-32.8	-33.5	25.4	0.00e+00	0	31	0	1196425216	38	6061
2026-01-17 20:10:29.32	5.66	15.04	-32.5	-33.2	25.7	0.00e+00	0	31	0	1202716672	38	5874
2026-01-17 20:10:30.33	5.47	15.09	-32.6	-33.3	25.6	0.00e+00	0	31	0	1207959552	38	5938
2026-01-17 20:10:31.34	5.28	15.14	-32.6	-33.3	25.7	0.00e+00	0	31	0	1214251008	38	5919
2026-01-17 20:10:32.35	5.09	15.19	-32.3	-33.0	26.0	0.00e+00	0	31	0	1219493888	38	5725
2026-01-17 20:10:33.36	4.90	15.24	-32.6	-33.2	25.8	0.00e+00	0	31	0	1225785344	38	5877
2026-01-17 20:10:34.37	4.71	15.28	-32.5	-33.2	25.8	0.00e+00	0	31	0	1231028224	38	5846
2026-01-17 20:10:35.38	4.51	15.33	-32.6	-33.3	25.7	0.00e+00	0	31	0	1237319680	38	5920
2026-01-17 20:10:36.39	4.32	15.38	-32.6	-33.2	25.7	0.00e+00	0	31	0	1242562560	38	5885
2026-01-17 20:10:37.40	4.12	15.43	-32.6	-33.3	25.7	0.00e+00	0	31	0	1247805440	38	5924
2026-01-17 20:10:38.41	3.93	15.48	-32.5	-33.2	25.7	0.00e+00	0	31	0	1254096896	38	5857
2026-01-17 20:10:39.42	3.73	15.52	-32.6	-33.3	25.7	0.00e+00	0	31	0	1259339776	38	5920
2026-01-17 20:10:40.43	3.53	15.57	-32.6	-33.3	25.6	0.00e+00	0	31	0	1265631232	38	5912
2026-01-17 20:10:41.44	3.34	15.62	-32.6	-33.4	25.6	0.00e+00	0	31	0	1270874112	38	5967
2026-01-17 20:10:42.45	3.14	15.66	-32.4	-33.1	25.8	0.00e+00	0	31	0	1276116992	38	5793
2026-01-17 20:10:43.46	2.94	15.71	-32.4	-33.1	25.9	0.00e+00	0	31	0	1282408448	38	5803
2026-01-17 20:10:44.47	2.74	15.76	-32.4	-33.1	25.9	0.00e+00	0	31	0	1287651328	38	5783
2026-01-17 20:10:45.48	2.54	15.80	-32.2	-32.9	26.1	0.00e+00	0	31	0	1293942784	38	5652
2026-01-17 20:10:46.49	2.34	15.85	-32.0	-32.7	26.2	0.00e+00	0	31	0	1299185664	38	5541
2026-01-17 20:10:47.50	2.14	15.89	-32.1	-32.8	26.2	0.00e+00	0	31	0	1304428544	38	5567
2026-01-17 20:10:48.51	1.94	15.94	-32.1	-32.7	26.2	0.00e+00	0	31	0	1310720000	38	5564
2026-01-17 20:10:49.52	1.73	15.98	-32.1	-32.7	26.1	0.00e+00	0	31	0	1315962880	38	5563
2026-01-17 20:10:50.53	1.53	16.03	-32.2	-32.8	26.1	0.00e+00	0	31	0	1322254336	38	5625
2026-01-17 20:10:51.53	1.33	16.07	-32.1	-32.8	26.2	0.00e+00	0	31	0	1327497216	38	5567
2026-01-17 20:10:52.54	1.13	16.11	-32.0	-32.6	26.2	0.00e+00	0	31	0	1333788672	38	5482
2026-01-17 20:10:53.55	0.92	16.16	-32.1	-32.7	26.2	0.00e+00	0	31	0	1339031552	38	5550
2026-01-17 20:10:54.56	0.71	16.20	-32.0	-32.7	26.2	0.00e+00	0	31	0	1344274432	38	5505
2026-01-17 20:10:55.57	0.51	16.24	-32.0	-32.6	26.2	0.00e+00	0	31	0	1350565888	38	5488
2026-01-17 20:10:56.58	0.30	16.28	-32.0	-32.7	26.3	0.00e+00	0	31	0	1355808768	38	5513
2026-01-17 20:10:57.59	0.09	16.33	-32.0	-32.6	26.2	0.00e+00	0	31	0	1362100224	38	5464
2026-01-17 20:10:58.61	359.89	16.37	-32.0	-32.7	26.2	0.00e+00	0	31	0	1367343104	38	5528
2026-01-17 20:10:59.62	359.68	16.41	-32.1	-32.8	26.1	0.00e+00	0	31	0	1372585984	38	5595
2026-01-17 20:11:00.63	359.47	16.45	-32.0	-32.6	26.3	0.00e+00	0	31	0	1378877440	38	5477
2026-01-17 20:11:01.64	359.26	16.49	-31.9	-32.6	26.3	0.00e+00	0	31	0	1384120320	38	5474
2026-01-17 20:11:02.65	359.05	16.53	-32.0	-32.6	26.2	0.00e+00	0	31	0	1390411776	38	5499
2026-01-17 20:11:03.66	358.84	16.57	-31.8	-32.5	26.4	0.00e+00	0	31	0	1395654656	38	5385
2026-01-17 20:11:04.67	358.63	16.61	-31.7	-32.4	26.5	0.00e+00	0	31	0	1401946112	36	5986
2026-01-17 20:11:05.68	358.41	16.65	-31.7	-32.3	26.4	0.00e+00	0	31	0	1407188992	36	5963
2026-01-17 20:11:06.69	358.20	16.69	-31.7	-32.3	26.4	0.00e+00	0	31	0	1412431872	36	5947
2026-01-17 20:11:07.70	357.99	16.73	-31.6	-32.3	26.6	0.00e+00	0	31	0	1418723328	36	5921
2026-01-17 20:11:08.71	357.77	16.77	-31.6	-32.3	26.5	0.00e+00	0	31	0	1423966208	36	5911
2026-01-17 20:11:09.72	357.56	16.81	-31.6	-32.3	26.6	0.00e+00	0	30	0	1430257664	36	5904
2026-01-17 20:11:10.73	357.35	16.85	-31.7	-32.4	26.5	0.00e+00	0	31	0	1435500544	36	5983
2026-01-17 20:11:11.74	357.13	16.88	-31.7	-32.3	26.6	0.00e+00	0	31	0	1441792000	36	5926
2026-01-17 20:11:12.75	356.91	16.92	-31.6	-32.3	26.5	0.00e+00	0	31	0	1447034880	36	5930
2026-01-17 20:11:13.76	356.70	16.96	-31.6	-32.2	26.6	0.00e+00	0	31	0	1452277760	36	5873
2026-01-17 20:11:14.77	356.48	16.99	-31.5	-32.2	26.7	0.00e+00	0	31	0	1458569216	36	5857
2026-01-17 20:11:15.78	356.26	17.03	-31.3	-32.0	26.8	0.00e+00	0	31	0	1463812096	36	5698
2026-01-17 20:11:16.79	356.05	17.07	-31.4	-32.1	26.7	0.00e+00	0	31	0	1470103552	36	5786
2026-01-17 20:11:17.80	355.83	17.10	-31.3	-32.0	26.9	0.00e+00	0	31	0	1475346432	36	5703
2026-01-17 20:11:18.81	355.61	17.14	-31.4	-32.1	26.8	0.00e+00	0	31	0	1480589312	36	5764
2026-01-17 20:11:19.82	355.39	17.17	-31.3	-32.0	26.8	0.00e+00	0	31	0	1486880768	36	5732
2026-01-17 20:11:20.83	355.17	17.21	-31.4	-32.0	26.6	0.00e+00	0	31	0	1492123648	36	5761
2026-01-17 20:11:21.84	354.95	17.24	-31.5	-32.2	26.6	0.00e+00	0	30	0	1498415104	36	5838
2026-01-17 20:11:22.85	354.73	17.27	-31.5	-32.2	26.7	0.00e+00	0	31	0	1503657984	36	5861
2026-01-17 20:11:23.86	354.51	17.31	-31.6	-32.2	26.6	0.00e+00	0	31	0	1508900864	36	5895
2026-01-17 20:11:24.87	354.28	17.34	-31.7	-32.4	26.5	0.00e+00	0	31	0	1515192320	36	5965
2026-01-17 20:11:25.88	354.06	17.37	-31.7	-32.3	26.5	0.00e+00	0	31	0	1520435200	36	5961
2026-01-17 20:11:26.89	353.84	17.40	-31.8	-32.4	26.4	0.00e+00	0	31	0	1526726656	36	6007
2026-01-17 20:11:27.90	353.62	17.43	-31.7	-32.4	26.5	0.00e+00	0	31	0	1531969536	36	6008
2026-01-17 20:11:28.90	353.39	17.46	-31.9	-32.5	26.4	0.00e+00	0	31	0	1538260992	36	6061
2026-01-17 20:11:29.91	353.17	17.49	-31.8	-32.5	26.5	0.00e+00	0	31	0	1543503872	36	6070
2026-01-17 20:11:30.92	352.94	17.53	-31.7	-32.3	26.6	0.00e+00	0	31	0	1549795328	36	5950
2026-01-17 20:11:31.93	352.72	17.55	-31.8	-32.4	26.5	0.00e+00	0	31	0	1555038208	36	6012
2026-01-17 20:11:32.94	352.49	17.58	-31.7	-32.4	26.6	0.00e+00	0	31	0	1560281088	36	5966
2026-01-17 20:11:33.95	352.27	17.61	-31.9	-32.5	26.4	0.00e+00	0	31	0	1566572544	36	6100
2026-01-17 20:11:34.96	352.04	17.64	-31.8	-32.5	26.5	0.00e+00	0	30	0	1571815424	36	6060
2026-01-17 20:11:35.97	351.81	17.67	-31.7	-32.4	26.5	0.00e+00	0	30	0	1578106880	36	5995
2026-01-17 20:11:36.98	351.59	17.70	-31.7	-32.4	26.5	0.00e+00	0	31	0	1583349760	36	5970
2026-01-17 20:11:37.99	351.36	17.72	-31.8	-32.4	26.5	0.00e+00	0	31	0	1588592640	36	6001
2026-01-17 20:11:39.00	351.13	17.75	-31.8	-32.5	26.5	0.00e+00	0	30	0	1594884096	36	6037
2026-01-17 20:11:40.01	350.90	17.78	-31.8	-32.5	26.4	0.00e+00	0	31	0	1600126976	36	6040
2026-01-17 20:11:41.02	350.67	17.80	-31.7	-32.4	26.5	0.00e+00	0	30	0	1606418432	36	5984
2026-01-17 20:11:42.02	350.45	17.83	-31.7	-32.3	26.6	0.00e+00	0	31	0	1611661312	36	5962
2026-01-17 20:11:43.03	350.22	17.85	-31.6	-32.3	26.6	0.00e+00	0	31	0	1616904192	36	5903
2026-01-17 20:11:44.04	349.99	17.88	-31.7	-32.3	26.5	0.00e+00	0	31	0	1623195648	36	5944
2026-01-17 20:11:45.05	349.76	17.90	-31.7	-32.3	26.5	0.00e+00	0	31	0	1628438528	36	5964
2026-01-17 20:11:46.06	349.52	17.93	-31.6	-32.2	26.7	0.00e+00	0	31	0	1634729984	36	5870
2026-01-17 20:11:47.07	349.29	17.95	-31.6	-32.2	26.7	0.00e+00	0	31	0	1639972864	36	5884
2026-01-17 20:11:48.08	349.06	17.97	-31.4	-32.0	26.8	0.00e+00	0	30	0	1646264320	36	5760
2026-01-17 20:11:49.09	348.83	17.99	-31.4	-32.0	26.9	0.00e+00	0	31	0	1651507200	36	5743
2026-01-17 20:11:50.10	348.60	18.02	-31.4	-32.0	26.8	0.00e+00	0	31	0	1656750080	36	5725
2026-01-17 20:11:51.11	348.36	18.04	-31.5	-32.2	26.7	0.00e+00	0	31	0	1663041536	36	5838
2026-01-17 20:11:52.12	348.13	18.06	-31.7	-32.3	26.5	0.00e+00	0	31	0	1668284416	36	5955
2026-01-17 20:11:53.13	347.90	18.08	-31.6	-32.3	26.6	0.00e+00	0	31	0	1674575872	36	5900
2026-01-17 20:11:54.14	347.66	18.10	-31.7	-32.4	26.5	0.00e+00	0	31	0	1679818752	36	5993
2026-01-17 20:11:55.15	347.43	18.12	-31.4	-32.0	26.7	0.00e+00	0	31	0	1685061632	36	5723
2026-01-17 20:11:56.16	347.20	18.14	-31.5	-32.1	26.6	0.00e+00	0	31	0	1691353088	36	5819
2026-01-17 20:11:57.17	346.96	18.16	-31.6	-32.2	26.6	0.00e+00	0	31	0	1696595968	36	5882
2026-01-17 20:11:58.18	346.73	18.17	-31.7	-32.4	26.5	0.00e+00	0	31	0	1702887424	36	5972
2026-01-17 20:11:59.19	346.49	18.19	-31.5	-32.2	26.7	0.00e+00	0	31	0	1708130304	36	5836
2026-01-17 20:12:00.20	346.26	18.21	-31.5	-32.1	26.7	0.00e+00	0	31	0	1713373184	36	5795
2026-01-17 20:12:01.21	346.02	18.22	-31.4	-32.0	26.8	0.00e+00	0	31	0	1719664640	36	5750
2026-01-17 20:12:02.22	345.78	18.24	-31.4	-32.1	26.8	0.00e+00	0	31	0	1724907520	36	5779
2026-01-17 20:12:03.23	345.55	18.26	-31.3	-31.9	27.0	0.00e+00	0	31	0	1731198976	36	5663
2026-01-17 20:12:04.24	345.31	18.27	-31.3	-32.0	26.8	0.00e+00	0	31	0	1736441856	36	5708
2026-01-17 20:12:05.25	345.07	18.29	-31.2	-31.8	26.9	0.00e+00	0	31	0	1742733312	36	5627
2026-01-17 20:12:06.26	344.84	18.30	-31.3	-32.0	26.9	0.00e+00	0	30	0	1747976192	36	5708
2026-01-17 20:12:07.27	344.60	18.31	-31.3	-32.0	26.9	0.00e+00	0	31	0	1754267648	36	5751
2026-01-17 20:12:08.28	344.36	18.33	-31.3	-32.0	26.9	0.00e+00	0	30	0	1759510528	36	5718
2026-01-17 20:12:09.29	344.13	18.34	-31.4	-32.0	26.8	0.00e+00	0	31	0	1764753408	36	5751
2026-01-17 20:12:10.30	343.89	18.35	-31.3	-32.0	26.9	0.00e+00	0	31	0	1771044864	36	5718
2026-01-17 20:12:11.32	343.65	18.36	-31.3	-32.0	26.8	0.00e+00	0	30	0	1776287744	36	5723
2026-01-17 20:12:12.33	343.41	18.37	-31.5	-32.1	26.7	0.00e+00	0	31	0	1782579200	36	5817
2026-01-17 20:12:13.34	343.17	18.38	-31.5	-32.1	26.7	0.00e+00	0	31	0	1787822080	36	5820
2026-01-17 20:12:14.35	342.93	18.39	-31.5	-32.1	26.8	0.00e+00	0	31	0	1793064960	36	5777
2026-01-17 20:12:15.36	342.69	18.40	-31.5	-32.2	26.7	0.00e+00	0	31	0	1799356416	36	5840
2026-01-17 20:12:16.37	342.46	18.41	-31.5	-32.1	26.8	0.00e+00	0	31	0	1804599296	36	5819
2026-01-17 20:12:17.38	342.22	18.42	-31.5	-32.2	26.6	0.00e+00	0	30	0	1810890752	36	5839
2026-01-17 20:12:18.39	341.98	18.43	-31.4	-32.0	26.8	0.00e+00	0	31	0	1816133632	36	5751
2026-01-17 20:12:19.40	341.74	18.44	-31.2	-31.9	26.9	0.00e+00	0	31	0	1821376512	36	5666
2026-01-17 20:12:20.40	341.50	18.44	-31.3	-31.9	26.9	0.00e+00	0	31	0	1827667968	36	5695
2026-01-17 20:12:21.42	341.26	18.45	-31.3	-31.9	26.9	0.00e+00	0	31	0	1832910848	36	5665
2026-01-17 20:12:22.43	341.02	18.45	-31.2	-31.8	27.0	0.00e+00	0	31	0	1839202304	36	5599
2026-01-17 20:12:23.43	340.78	18.46	-31.2	-31.9	27.0	0.00e+00	0	31	0	1844445184	36	5636
2026-01-17 20:12:24.45	340.54	18.46	-31.2	-31.8	26.9	0.00e+00	0	30	0	1850736640	36	5596
2026-01-17 20:12:25.45	340.30	18.47	-31.1	-31.7	27.1	0.00e+00	0	31	0	1855979520	36	5563
2026-01-17 20:12:26.46	340.06	18.47	-31.1	-31.7	27.1	0.00e+00	0	30	0	1861222400	36	5543
2026-01-17 20:12:27.47	339.82	18.48	-31.0	-31.6	27.1	0.00e+00	0	30	0	1867513856	36	5453
2026-01-17 20:12:28.48	339.58	18.48	-30.9	-31.6	27.2	0.00e+00	0	30	0	1872756736	36	5441
2026-01-17 20:12:29.49	339.34	18.48	-30.9	-31.5	27.1	0.00e+00	0	30	0	1879048192	36	5409
2026-01-17 20:12:30.50	339.10	18.48	-31.0	-31.6	27.0	0.00e+00	0	30	0	1884291072	36	5485
2026-01-17 20:12:31.51	338.86	18.48	-31.0	-31.6	27.0	0.00e+00	0	31	0	1889533952	36	5502
2026-01-17 20:12:32.52	338.62	18.48	-31.1	-31.7	26.9	0.00e+00	0	30	0	1895825408	36	5563
2026-01-17 20:12:33.53	338.38	18.48	-31.2	-31.8	26.9	0.00e+00	0	31	0	1901068288	36	5623
2026-01-17 20:12:34.54	338.14	18.48	-31.2	-31.9	26.9	0.00e+00	0	31	0	1907359744	36	5656
2026-01-17 20:12:35.55	337.90	18.48	-31.3	-31.9	26.9	0.00e+00	0	31	0	1912602624	36	5672
2026-01-17 20:12:36.56	337.66	18.48	-31.2	-31.9	26.9	0.00e+00	0	31	0	1917845504	36	5638
2026-01-17 20:12:37.57	337.42	18.48	-31.3	-32.0	26.8	0.00e+00	0	30	0	1924136960	36	5701
2026-01-17 20:12:38.59	337.18	18.48	-31.4	-32.1	26.7	0.00e+00	0	30	0	1929379840	36	5793
2026-01-17 20:12:39.60	336.94	18.47	-31.5	-32.1	26.6	0.00e+00	0	30	0	1935671296	36	5767
2026-01-17 20:12:40.61	336.70	18.47	-31.5	-32.2	26.6	0.00e+00	0	30	0	1940914176	36	5843
2026-01-17 20:12:41.62	336.46	18.47	-31.5	-32.2	26.6	0.00e+00	0	31	0	1947205632	36	5871
2026-01-17 20:12:42.63	336.22	18.46	-31.5	-32.2	26.6	0.00e+00	0	31	0	1952448512	36	5850
2026-01-17 20:12:43.64	335.98	18.46	-31.5	-32.1	26.7	0.00e+00	0	31	0	1958739968	36	5803
2026-01-17 20:12:44.65	335.74	18.45	-31.4	-32.0	26.6	0.00e+00	0	31	0	1963982848	36	5758
2026-01-17 20:12:45.66	335.50	18.45	-31.5	-32.1	26.7	0.00e+00	0	30	0	1969225728	36	5795
2026-01-17 20:12:46.67	335.26	18.44	-31.5	-32.2	26.5	0.00e+00	0	30	0	1975517184	36	5856
2026-01-17 20:12:47.68	335.03	18.43	-31.3	-32.0	26.8	0.00e+00	0	30	0	1980760064	36	5707
2026-01-17 20:12:48.69	334.79	18.42	-31.3	-31.9	26.8	0.00e+00	0	30	0	1987051520	36	5695
2026-01-17 20:12:49.69	334.55	18.42	-31.0	-31.7	27.0	0.00e+00	0	30	0	1992294400	36	5503
2026-01-17 20:12:50.70	334.31	18.41	-31.1	-31.7	27.0	0.00e+00	0	30	0	1997537280	36	5547
2026-01-17 20:12:51.71	334.07	18.40	-31.0	-31.7	27.0	0.00e+00	0	30	0	2003828736	36	5507
2026-01-17 20:12:52.72	333.83	18.39	-31.2	-31.8	27.0	0.00e+00	0	30	0	2009071616	36	5616
2026-01-17 20:12:53.73	333.59	18.38	-31.2	-31.9	27.0	0.00e+00	0	31	0	2015363072	36	5667
2026-01-17 20:12:54.74	333.36	18.37	-31.2	-31.9	26.9	0.00e+00	0	31	0	2020605952	36	5646
2026-01-17 20:12:55.75	333.12	18.36	-31.2	-31.9	27.0	0.00e+00	0	30	0	2025848832	36	5645
2026-01-17 20:12:56.76	332.88	18.35	-31.1	-31.8	27.1	0.00e+00	0	31	0	2032140288	36	5574
2026-01-17 20:12:57.77	332.64	18.33	-31.0	-31.6	27.0	0.00e+00	0	30	0	2037383168	36	5483
2026-01-17 20:12:58.78	332.40	18.32	-31.1	-31.7	27.1	0.00e+00	0	31	0	2043674624	36	5528
2026-01-17 20:12:59.79	332.17	18.31	-31.1	-31.7	27.0	0.00e+00	0	31	0	2048917504	36	5541
2026-01-17 20:13:00.80	331.93	18.29	-31.2	-31.8	27.0	0.00e+00	0	30	0	2055208960	36	5623
2026-01-17 20:13:01.81	331.69	18.28	-31.3	-31.9	26.9	0.00e+00	0	30	0	2060451840	36	5652
2026-01-17 20:13:02.82	331.46	18.26	-31.3	-32.0	26.8	0.00e+00	0	30	0	2065694720	36	5720
2026-01-17 20:13:03.82	331.22	18.25	-31.4	-32.1	26.8	0.00e+00	0	30	0	2071986176	36	5767
2026-01-17 20:13:04.84	330.98	18.23	-31.5	-32.1	26.7	0.00e+00	0	30	0	2077229056	36	5822
2026-01-17 20:13:05.85	330.75	18.22	-31.6	-32.3	26.6	0.00e+00	0	30	0	2083520512	36	5904
2026-01-17 20:13:06.86	330.51	18.20	-31.7	-32.3	26.6	0.00e+00	0	30	0	2088763392	36	5935
2026-01-17 20:13:07.87	330.28	18.18	-31.7	-32.3	26.6	0.00e+00	0	30	0	2094006272	36	5936
2026-01-17 20:13:08.88	330.04	18.17	-31.6	-32.3	26.6	0.00e+00	0	30	0	2100297728	36	5912
2026-01-17 20:13:09.89	329.81	18.15	-31.6	-32.2	26.7	0.00e+00	0	30	0	2105540608	36	5880
2026-01-17 20:13:10.90	329.57	18.13	-31.6	-32.3	26.7	0.00e+00	0	30	0	2111832064	36	5910
2026-01-17 20:13:11.91	329.34	18.11	-31.6	-32.2	26.7	0.00e+00	0	30	0	2117074944	36	5832
2026-01-17 20:13:12.92	329.10	18.09	-31.7	-32.4	26.6	0.00e+00	0	30	0	2123366400	36	5988
2026-01-17 20:13:13.93	328.87	18.07	-31.6	-32.3	26.6	0.00e+00	0	31	0	2128609280	36	5913
2026-01-17 20:13:14.94	328.64	18.05	-31.8	-32.5	26.4	0.00e+00	0	31	0	2133852160	36	6083
2026-01-17 20:13:15.95	328.40	18.03	-31.7	-32.3	26.6	0.00e+00	0	30	0	2140143616	36	5938
2026-01-17 20:13:16.96	328.17	18.01	-31.8	-32.4	26.4	0.00e+00	0	30	0	2145386496	36	6031
2026-01-17 20:13:17.97	327.94	17.99	-31.6	-32.2	26.5	0.00e+00	0	30	0	2151677952	36	5879
2026-01-17 20:13:18.98	327.71	17.96	-31.6	-32.2	26.6	0.00e+00	0	30	0	2156920832	36	5881
2026-01-17 20:13:19.99	327.47	17.94	-31.7	-32.3	26.5	0.00e+00	0	30	0	2163212288	36	5926
2026-01-17 20:13:21.00	327.24	17.92	-31.7	-32.4	26.5	0.00e+00	0	30	0	2168455168	36	5974
2026-01-17 20:13:22.01	327.01	17.89	-31.8	-32.5	26.5	0.00e+00	0	30	0	2173698048	36	6075
2026-01-17 20:13:23.02	326.78	17.87	-31.7	-32.3	26.5	0.00e+00	0	30	0	2179989504	36	5947
2026-01-17 20:13:24.03	326.55	17.84	-31.8	-32.5	26.5	0.00e+00	0	30	0	2185232384	36	6068
2026-01-17 20:13:25.04	326.32	17.82	-31.9	-32.6	26.4	0.00e+00	0	30	0	2191523840	36	6118
2026-01-17 20:13:26.05	326.09	17.79	-31.8	-32.4	26.5	0.00e+00	0	31	0	2196766720	36	6028
2026-01-17 20:13:27.06	325.86	17.77	-31.9	-32.5	26.5	0.00e+00	0	30	0	2202009600	36	6100
2026-01-17 20:13:28.07	325.63	17.74	-31.8	-32.5	26.5	0.00e+00	0	30	0	2208301056	36	6049
2026-01-17 20:13:29.08	325.41	17.71	-31.8	-32.5	26.4	0.00e+00	0	31	0	2213543936	36	6037
2026-01-17 20:13:30.09	325.18	17.69	-31.9	-32.5	26.4	0.00e+00	0	30	0	2219835392	36	6103
2026-01-17 20:13:31.10	324.95	17.66	-31.9	-32.5	26.4	0.00e+00	0	30	0	2225078272	36	6093
2026-01-17 20:13:32.11	324.72	17.63	-31.9	-32.6	26.4	0.00e+00	0	30	0	2230321152	36	6113
2026-01-17 20:13:33.12	324.50	17.60	-32.0	-32.6	26.4	0.00e+00	0	30	0	2236612608	36	6119
2026-01-17 20:13:34.13	324.27	17.57	-31.8	-32.4	26.5	0.00e+00	0	30	0	2241855488	36	6027
2026-01-17 20:13:35.14	324.04	17.54	-31.7	-32.4	26.6	0.00e+00	0	30	0	2248146944	36	5982
2026-01-17 20:13:36.14	323.82	17.51	-31.6	-32.4	26.6	0.00e+00	0	30	0	2253389824	36	5970
2026-01-17 20:13:37.15	323.60	17.48	-31.6	-32.2	26.7	0.00e+00	0	30	0	2259681280	36	5889
2026-01-17 20:13:38.16	323.37	17.45	-31.6	-32.2	26.7	0.00e+00	0	30	0	2264924160	36	5880
2026-01-17 20:13:39.17	323.15	17.42	-31.6	-32.3	26.6	0.00e+00	0	30	0	2271215616	36	5941
2026-01-17 20:13:40.18	322.93	17.39	-31.6	-32.4	26.6	0.00e+00	0	30	0	2276458496	36	5970
2026-01-17 20:13:41.19	322.70	17.36	-31.7	-32.3	26.6	0.00e+00	0	31	0	2281701376	36	5911
2026-01-17 20:13:42.20	322.48	17.32	-31.6	-32.2	26.6	0.00e+00	0	30	0	2287992832	36	5870
2026-01-17 20:13:43.21	322.26	17.29	-31.7	-32.4	26.5	0.00e+00	0	30	0	2293235712	36	5996
2026-01-17 20:13:44.22	322.04	17.26	-31.7	-32.4	26.5	0.00e+00	0	30	0	2299527168	36	5971
2026-01-17 20:13:45.23	321.82	17.22	-31.8	-32.4	26.5	0.00e+00	0	30	0	2304770048	36	6008
2026-01-17 20:13:46.24	321.59	17.19	-31.8	-32.4	26.4	0.00e+00	0	31	0	2310012928	36	5980
2026-01-17 20:13:47.25	321.37	17.16	-31.8	-32.5	26.5	0.00e+00	0	30	0	2316304384	36	6093
2026-01-17 20:13:48.26	321.15	17.12	-31.8	-32.4	26.5	0.00e+00	0	31	0	2321547264	36	6019
2026-01-17 20:13:49.27	320.94	17.09	-31.8	-32.4	26.5	0.00e+00	0	31	0	2326790144	36	5988
2026-01-17 20:13:50.28	320.72	17.05	-31.8	-32.4	26.5	0.00e+00	0	31	0	2333081600	36	6021
2026-01-17 20:13:51.29	320.50	17.01	-31.8	-32.5	26.4	0.00e+00	0	31	0	2338324480	36	6063
2026-01-17 20:13:52.30	320.28	16.98	-31.9	-32.6	26.3	0.00e+00	0	30	0	2344615936	36	6142
2026-01-17 20:13:53.31	320.07	16.94	-31.8	-32.5	26.4	0.00e+00	0	31	0	2349858816	36	6096
2026-01-17 20:13:54.32	319.85	16.90	-31.8	-32.4	26.6	0.00e+00	0	30	0	2356150272	36	5972
2026-01-17 20:13:55.33	319.63	16.87	-31.6	-32.2	26.7	0.00e+00	0	31	0	2361393152	36	5832
2026-01-17 20:13:56.34	319.42	16.83	-31.6	-32.2	26.7	0.00e+00	0	31	0	2367684608	36	5842
2026-01-17 20:13:57.34	319.20	16.79	-31.6	-32.2	26.6	0.00e+00	0	31	0	2372927488	36	5874
2026-01-17 20:13:58.35	318.99	16.75	-31.7	-32.4	26.5	0.00e+00	0	31	0	2378170368	36	6024
2026-01-17 20:13:59.37	318.77	16.71	-31.8	-32.5	26.4	0.00e+00	0	30	0	2384461824	36	6086
2026-01-17 20:14:00.38	318.56	16.68	-31.9	-32.5	26.4	0.00e+00	0	30	0	2389704704	36	6064
2026-01-17 20:14:01.38	318.35	16.64	-31.8	-32.5	26.5	0.00e+00	0	31	0	2395996160	36	6055
2026-01-17 20:14:02.40	318.14	16.60	-31.9	-32.5	26.4	0.00e+00	0	31	0	2401239040	36	6103
2026-01-17 20:14:03.41	317.93	16.56	-31.9	-32.5	26.4	0.00e+00	0	30	0	2406481920	36	6084
2026-01-17 20:14:04.42	317.71	16.52	-32.0	-32.6	26.3	0.00e+00	0	30	0	2412773376	36	6121
2026-01-17 20:14:05.43	317.50	16.47	-32.0	-32.8	26.3	0.00e+00	0	30	0	2418016256	36	6255
2026-01-17 20:14:06.44	317.30	16.43	-32.1	-32.8	26.2	0.00e+00	0	31	0	2424307712	36	6267
2026-01-17 20:14:07.45	317.09	16.39	-32.0	-32.7	26.3	0.00e+00	0	31	0	2429550592	36	6186
2026-01-17 20:14:08.46	316.88	16.35	-31.9	-32.6	26.3	0.00e+00	0	31	0	2434793472	36	6155
2026-01-17 20:14:09.47	316.67	16.31	-32.1	-32.7	26.2	0.00e+00	0	30	0	2441084928	36	6237
2026-01-17 20:14:10.48	316.46	16.27	-32.2	-32.8	26.2	0.00e+00	0	31	0	2446327808	36	6300
2026-01-17 20:14:11.49	316.26	16.22	-32.2	-32.8	26.1	0.00e+00	0	30	0	2452619264	36	6308
2026-01-17 20:14:12.50	316.05	16.18	-32.3	-33.0	26.0	0.00e+00	0	30	0	2457862144	36	6446
2026-01-17 20:14:13.51	315.84	16.14	-32.2	-32.9	26.1	0.00e+00	0	31	0	2464153600	36	6338
2026-01-17 20:14:14.52	315.64	16.09	-32.2	-32.9	26.1	0.00e+00	0	30	0	2469396480	36	6337
2026-01-17 20:14:15.54	315.43	16.05	-32.2	-32.8	26.1	0.00e+00	0	30	0	2475687936	36	6304
2026-01-17 20:14:16.55	315.23	16.00	-32.2	-33.0	26.1	0.00e+00	0	30	0	2480930816	36	6397
2026-01-17 20:14:17.56	315.03	15.96	-32.2	-32.9	26.1	0.00e+00	0	31	0	2486173696	36	6372
2026-01-17 20:14:18.57	314.82	15.92	-32.3	-32.9	26.0	0.00e+00	0	30	0	2492465152	36	6357
2026-01-17 20:14:19.58	314.62	15.87	-32.3	-33.0	26.1	0.00e+00	0	30	0	2497708032	36	6420
2026-01-17 20:14:20.59	314.42	15.83	-32.2	-32.8	26.1	0.00e+00	0	31	0	2503999488	36	6275
2026-01-17 20:14:21.60	314.22	15.78	-32.3	-32.9	26.1	0.00e+00	0	31	0	2509242368	36	6321
2026-01-17 20:14:22.61	314.02	15.73	-32.3	-32.9	26.0	0.00e+00	0	30	0	2514485248	36	6370
2026-01-17 20:14:23.62	313.82	15.69	-32.3	-33.0	26.0	0.00e+00	0	30	0	2520776704	36	6419
2026-01-17 20:14:24.63	313.62	15.64	-32.3	-32.9	26.0	0.00e+00	0	30	0	2526019584	36	6362
2026-01-17 20:14:25.64	313.42	15.59	-32.3	-33.0	26.1	0.00e+00	0	31	0	2532311040	36	6428
2026-01-17 20:14:26.65	313.22	15.55	-32.3	-33.0	26.0	0.00e+00	0	30	0	2537553920	36	6456
2026-01-17 20:14:27.65	313.03	15.50	-32.4	-33.1	26.0	0.00e+00	0	31	0	2542796800	36	6482
2026-01-17 20:14:28.66	312.83	15.45	-32.6	-33.2	25.9	0.00e+00	0	30	0	2549088256	36	6546
2026-01-17 20:14:29.67	312.64	15.41	-32.6	-33.4	25.6	0.00e+00	0	30	0	2554331136	36	6710
2026-01-17 20:14:30.68	312.44	15.36	-32.6	-33.4	25.8	0.00e+00	0	30	0	2560622592	36	6695
2026-01-17 20:14:31.69	312.25	15.31	-32.7	-33.3	25.7	0.00e+00	0	30	0	2565865472	36	6680
2026-01-17 20:14:32.70	312.05	15.26	-33.0	-33.8	25.4	0.00e+00	0	30	0	2572156928	38	6259
2026-01-17 20:14:33.71	311.86	15.21	-32.9	-33.6	25.5	0.00e+00	0	30	0	2577399808	38	6108
2026-01-17 20:14:34.73	311.67	15.16	-32.6	-33.3	25.7	0.00e+00	0	30	0	2583691264	38	5911
2026-01-17 20:14:35.74	311.48	15.11	-32.6	-33.3	25.8	0.00e+00	0	30	0	2588934144	38	5961
2026-01-17 20:14:36.75	311.28	15.07	-32.4	-33.0	26.0	0.00e+00	0	30	0	2594177024	38	5731
2026-01-17 20:14:37.76	311.09	15.02	-32.4	-33.0	26.0	0.00e+00	0	30	0	2600468480	38	5725
2026-01-17 20:14:38.77	310.90	14.97	-32.6	-33.1	25.8	0.00e+00	0	30	0	2605711360	38	5827
2026-01-17 20:14:39.78	310.71	14.92	-32.6	-33.3	25.7	0.00e+00	0	31	0	2612002816	38	5933
2026-01-17 20:14:40.79	310.53	14.87	-32.8	-33.5	25.6	0.00e+00	0	30	0	2617245696	38	6037
2026-01-17 20:14:41.80	310.34	14.82	-32.8	-33.6	25.5	0.00e+00	0	31	0	2622488576	38	6140
2026-01-17 20:14:42.81	310.15	14.77	-32.7	-33.5	25.5	0.00e+00	0	30	0	2628780032	38	6054
2026-01-17 20:14:43.82	309.96	14.71	-32.6	-33.2	25.7	0.00e+00	0	30	0	2634022912	38	5853
2026-01-17 20:14:44.83	309.78	14.66	-32.6	-33.3	25.7	0.00e+00	0	30	0	2640314368	38	5920
2026-01-17 20:14:45.84	309.59	14.61	-32.7	-33.3	25.7	0.00e+00	0	30	0	2645557248	38	5929
2026-01-17 20:14:46.85	309.41	14.56	-32.7	-33.5	25.6	0.00e+00	0	30	0	2650800128	38	6034
2026-01-17 20:14:47.86	309.22	14.51	-32.8	-33.5	25.6	0.00e+00	0	30	0	2657091584	38	6044
2026-01-17 20:14:48.87	309.04	14.46	-32.9	-33.5	25.5	0.00e+00	0	30	0	2662334464	38	6059
2026-01-17 20:14:49.88	308.86	14.41	-32.9	-33.5	25.4	0.00e+00	0	30	0	2668625920	38	6098
2026-01-17 20:14:50.89	308.67	14.35	-32.9	-33.6	25.4	0.00e+00	0	30	0	2673868800	38	6107
2026-01-17 20:14:51.90	308.49	14.30	-32.9	-33.7	25.5	0.00e+00	0	31	0	2680160256	38	6202
2026-01-17 20:14:52.91	308.31	14.25	-33.3	-34.0	25.1	0.00e+00	0	30	0	2685403136	38	6441
2026-01-17 20:14:53.92	308.13	14.20	-33.3	-34.0	25.1	0.00e+00	0	30	0	2691694592	38	6452
2026-01-17 20:14:54.93	307.95	14.14	-33.4	-34.1	25.0	0.00e+00	0	31	0	2696937472	38	6476
2026-01-17 20:14:55.94	307.77	14.09	-33.3	-34.0	25.1	0.00e+00	0	30	0	2702180352	38	6431
2026-01-17 20:14:56.95	307.59	14.04	-33.3	-34.0	25.0	0.00e+00	0	30	0	2708471808	38	6453
2026-01-17 20:14:57.96	307.42	13.98	-33.2	-34.0	25.2	0.00e+00	0	30	0	2713714688	38	6422
2026-01-17 20:14:58.97	307.24	13.93	-33.1	-33.8	25.2	0.00e+00	0	30	0	2720006144	38	6276
2026-01-17 20:14:59.98	307.06	13.88	-33.2	-33.9	25.1	0.00e+00	0	30	0	2725249024	38	6384
2026-01-17 20:15:00.99	306.89	13.82	-33.1	-33.7	25.3	0.00e+00	0	30	0	2730491904	38	6235
2026-01-17 20:15:02.00	306.71	13.77	-33.1	-33.9	25.2	0.00e+00	0	30	0	2736783360	38	6341
2026-01-17 20:15:03.01	306.54	13.72	-33.2	-33.9	25.1	0.00e+00	0	30	0	2742026240	38	6321
2026-01-17 20:15:04.02	306.36	13.66	-33.4	-34.1	25.0	0.00e+00	0	30	0	2748317696	38	6517
2026-01-17 20:15:05.04	306.19	13.61	-33.1	-33.8	25.2	0.00e+00	0	30	0	2753560576	38	6252
2026-01-17 20:15:06.05	306.02	13.55	-33.2	-34.0	25.2	0.00e+00	0	30	0	2758803456	38	6417
2026-01-17 20:15:07.06	305.84	13.50	-33.0	-33.6	25.4	0.00e+00	0	30	0	2765094912	38	6128
2026-01-17 20:15:08.07	305.67	13.44	-32.6	-33.2	25.7	0.00e+00	0	30	0	2770337792	38	5870
2026-01-17 20:15:09.08	305.50	13.39	-32.7	-33.3	25.7	0.00e+00	0	30	0	2776629248	38	5954
2026-01-17 20:15:10.09	305.33	13.33	-32.8	-33.4	25.5	0.00e+00	0	30	0	2781872128	38	5987
2026-01-17 20:15:11.10	305.16	13.28	-32.9	-33.7	25.4	0.00e+00	0	30	0	2788163584	38	6182
2026-01-17 20:15:12.11	304.99	13.22	-32.9	-33.6	25.3	0.00e+00	0	30	0	2793406464	38	6104
2026-01-17 20:15:13.12	304.83	13.17	-33.0	-33.6	25.2	0.00e+00	0	30	0	2799697920	38	6160
2026-01-17 20:15:14.13	304.66	13.11	-32.9	-33.6	25.3	0.00e+00	0	30	0	2804940800	38	6125
2026-01-17 20:15:15.14	304.49	13.06	-32.8	-33.4	25.4	0.00e+00	0	30	0	2810183680	38	6012
2026-01-17 20:15:16.15	304.33	13.00	-32.8	-33.5	25.3	0.00e+00	0	30	0	2816475136	38	6060
2026-01-17 20:15:17.16	304.16	12.95	-32.9	-33.5	25.4	0.00e+00	0	30	0	2821718016	38	6059
2026-01-17 20:15:18.17	304.00	12.89	-33.0	-33.7	25.1	0.00e+00	0	30	0	2828009472	38	6245
2026-01-17 20:15:19.18	303.83	12.83	-33.0	-33.7	25.0	0.00e+00	0	30	0	2833252352	38	6175
2026-01-17 20:15:20.19	303.67	12.78	-33.3	-33.9	25.0	0.00e+00	0	30	0	2838495232	38	6375
2026-01-17 20:15:21.20	303.50	12.72	-33.4	-34.0	24.7	0.00e+00	0	30	0	2844786688	38	6460
2026-01-17 20:15:22.21	303.34	12.66	-33.4	-34.1	24.7	0.00e+00	0	30	0	2850029568	38	6475
2026-01-17 20:15:23.22	303.18	12.61	-33.4	-34.0	24.8	0.00e+00	0	30	0	2856321024	38	6430
2026-01-17 20:15:24.23	303.02	12.55	-33.3	-34.0	24.8	0.00e+00	0	30	0	2861563904	38	6403
2026-01-17 20:15:25.24	302.86	12.50	-33.2	-33.9	25.0	0.00e+00	0	30	0	2866806784	38	6379
2026-01-17 20:15:26.25	302.70	12.44	-33.2	-33.9	25.0	0.00e+00	0	30	0	2873098240	38	6361
2026-01-17 20:15:27.26	302.54	12.38	-33.3	-34.1	24.7	0.00e+00	0	30	0	2878341120	38	6490
2026-01-17 20:15:28.27	302.38	12.33	-33.3	-33.9	24.9	0.00e+00	0	30	0	2884632576	38	6388
2026-01-17 20:15:29.28	302.22	12.27	-33.6	-34.2	24.5	0.00e+00	0	30	0	2889875456	38	6594
2026-01-17 20:15:30.29	302.07	12.21	-33.7	-34.4	24.6	0.00e+00	0	30	0	2896166912	38	6767
2026-01-17 20:15:31.31	301.91	12.15	-33.8	-34.5	24.6	0.00e+00	0	30	0	2901409792	40	6096
2026-01-17 20:15:32.32	301.75	12.10	-33.7	-34.4	24.6	0.00e+00	0	30	0	2906652672	40	5983
2026-01-17 20:15:33.33	301.60	12.04	-33.5	-34.1	24.8	0.00e+00	0	31	0	2912944128	40	5804
2026-01-17 20:15:34.34	301.44	11.98	-33.6	-34.2	24.6	0.00e+00	0	30	0	2918187008	40	5870
2026-01-17 20:15:35.35	301.29	11.92	-33.5	-34.3	24.6	0.00e+00	0	30	0	2924478464	40	5909
2026-01-17 20:15:36.36	301.13	11.87	-33.7	-34.3	24.5	0.00e+00	0	30	0	2929721344	40	5922
2026-01-17 20:15:37.37	300.98	11.81	-33.7	-34.4	24.4	0.00e+00	0	30	0	2934964224	40	5966
2026-01-17 20:15:38.38	300.83	11.75	-33.8	-34.6	24.4	0.00e+00	0	30	0	2941255680	40	6125
2026-01-17 20:15:39.39	300.68	11.69	-33.8	-34.5	24.5	0.00e+00	0	30	0	2946498560	40	6035
2026-01-17 20:15:40.40	300.53	11.64	-33.8	-34.4	24.5	0.00e+00	0	30	0	2952790016	40	6032
2026-01-17 20:15:41.41	300.37	11.58	-33.7	-34.4	24.5	0.00e+00	0	30	0	2958032896	40	5999
2026-01-17 20:15:42.42	300.22	11.52	-33.8	-34.4	24.4	0.00e+00	0	30	0	2964324352	40	6030
2026-01-17 20:15:43.43	300.08	11.46	-33.7	-34.5	24.5	0.00e+00	0	31	0	2969567232	40	6038
2026-01-17 20:15:44.44	299.93	11.40	-33.7	-34.3	24.5	0.00e+00	0	30	0	2974810112	40	5955
2026-01-17 20:15:45.45	299.78	11.35	-33.5	-34.1	24.7	0.00e+00	0	30	0	2981101568	40	5821
2026-01-17 20:15:46.46	299.63	11.29	-33.6	-34.3	24.6	0.00e+00	0	30	0	2986344448	40	5964
2026-01-17 20:15:47.47	299.48	11.23	-33.7	-34.4	24.5	0.00e+00	0	30	0	2992635904	40	5969
2026-01-17 20:15:48.48	299.34	11.17	-33.7	-34.4	24.4	0.00e+00	0	30	0	2997878784	40	5977
2026-01-17 20:15:49.49	299.19	11.11	-33.9	-34.6	24.2	0.00e+00	0	31	0	3004170240	40	6116
2026-01-17 20:15:50.50	299.05	11.06	-33.7	-34.5	24.4	0.00e+00	0	30	0	3009413120	40	6039
2026-01-17 20:15:51.51	298.90	11.00	-33.8	-34.4	24.4	0.00e+00	0	30	0	3014656000	40	5996
2026-01-17 20:15:52.52	298.76	10.94	-33.7	-34.4	24.4	0.00e+00	0	31	0	3020947456	40	5965
2026-01-17 20:15:53.53	298.61	10.88	-33.9	-34.6	24.4	0.00e+00	0	30	0	3026190336	40	6119
2026-01-17 20:15:54.54	298.47	10.82	-33.9	-34.6	24.3	0.00e+00	0	30	0	3032481792	40	6161
2026-01-17 20:15:55.55	298.33	10.76	-34.0	-34.8	24.1	0.00e+00	0	30	0	3037724672	40	6291
2026-01-17 20:15:56.56	298.19	10.71	-34.3	-35.1	23.9	0.00e+00	0	30	0	3042967552	40	6491
2026-01-17 20:15:57.57	298.05	10.65	-34.8	-35.5	23.5	0.00e+00	0	30	0	3049259008	42	6099
2026-01-17 20:15:58.58	297.90	10.59	-34.9	-35.6	23.3	0.00e+00	0	30	0	3054501888	42	6161
2026-01-17 20:15:59.59	297.76	10.53	-34.7	-35.5	23.7	0.00e+00	0	30	0	3060793344	42	6071
2026-01-17 20:16:00.60	297.63	10.47	-34.7	-35.5	23.4	0.00e+00	0	31	0	3066036224	42	6051
2026-01-17 20:16:01.61	297.49	10.41	-34.8	-35.5	23.6	0.00e+00	0	31	0	3071279104	42	6076
2026-01-17 20:16:02.62	297.35	10.35	-34.3	-35.0	23.7	0.00e+00	0	31	0	3077570560	42	5719
2026-01-17 20:16:03.63	297.21	10.30	-34.7	-35.4	23.8	0.00e+00	0	30	0	3082813440	42	5967
2026-01-17 20:16:04.64	297.07	10.24	-34.6	-35.3	23.8	0.00e+00	0	30	0	3089104896	42	5909
2026-01-17 20:16:05.65	296.94	10.18	-34.6	-35.4	23.5	0.00e+00	0	30	0	3094347776	42	5993
2026-01-17 20:16:06.67	296.80	10.12	-34.6	-35.4	24.0	0.00e+00	0	31	0	3100639232	42	5971
2026-01-17 20:16:07.68	296.66	10.06	-34.5	-35.2	23.7	0.00e+00	0	31	0	3105882112	42	5845
2026-01-17 20:16:08.69	296.53	10.00	-34.5	-35.2	23.8	0.00e+00	0	30	0	3112173568	42	5888
2026-01-17 20:16:09.70	296.39	9.94	-34.4	-35.0	24.0	0.00e+00	0	31	0	3117416448	42	5760
2026-01-17 20:16:10.71	296.26	9.88	-34.3	-35.0	23.9	0.00e+00	0	31	0	3122659328	42	5756
2026-01-17 20:16:11.72	296.13	9.83	-34.5	-35.2	23.8	0.00e+00	0	30	0	3128950784	42	5883
2026-01-17 20:16:12.73	295.99	9.77	-34.3	-34.9	24.0	0.00e+00	0	30	0	3134193664	42	5675
2026-01-17 20:16:13.74	295.86	9.71	-34.2	-35.0	24.0	0.00e+00	0	30	0	3140485120	42	5697
2026-01-17 20:16:14.75	295.73	9.65	-34.1	-34.8	24.1	0.00e+00	0	31	0	3145728000	42	5583
2026-01-17 20:16:15.76	295.60	9.59	-34.2	-34.8	23.9	0.00e+00	0	30	0	3150970880	42	5607
2026-01-17 20:16:16.77	295.47	9.53	-34.3	-34.9	23.9	0.00e+00	0	31	0	3157262336	42	5669
2026-01-17 20:16:17.78	295.34	9.47	-34.3	-35.1	23.9	0.00e+00	0	30	0	3162505216	42	5792
2026-01-17 20:16:18.79	295.21	9.41	-34.3	-35.1	23.8	0.00e+00	0	30	0	3168796672	42	5824
2026-01-17 20:16:19.80	295.08	9.36	-34.6	-35.4	23.6	0.00e+00	0	30	0	3174039552	42	6026
2026-01-17 20:16:20.81	294.95	9.30	-34.8	-35.4	23.4	0.00e+00	0	31	0	3179282432	42	6030
2026-01-17 20:16:21.82	294.82	9.24	-35.1	-35.8	23.2	0.00e+00	0	30	0	3185573888	42	6267
2026-01-17 20:16:22.84	294.69	9.18	-34.8	-35.7	23.3	0.00e+00	0	31	0	3190816768	42	6182
2026-01-17 20:16:23.85	294.57	9.12	-34.7	-35.5	23.5	0.00e+00	0	30	0	3197108224	42	6043
2026-01-17 20:16:24.86	294.44	9.06	-35.1	-36.0	23.0	0.00e+00	0	30	0	3202351104	42	6399
2026-01-17 20:16:25.87	294.32	9.00	-34.9	-35.5	23.4	0.00e+00	0	30	0	3208642560	42	6081
2026-01-17 20:16:26.88	294.19	8.94	-34.5	-35.3	23.6	0.00e+00	0	31	0	3213885440	42	5898
2026-01-17 20:16:27.89	294.07	8.88	-34.6	-35.2	23.6	0.00e+00	0	30	0	3220176896	42	5876
2026-01-17 20:16:28.90	293.94	8.83	-34.6	-35.4	23.5	0.00e+00	0	30	0	3225419776	42	5990
2026-01-17 20:16:29.90	293.82	8.77	-34.7	-35.4	23.5	0.00e+00	0	30	0	3230662656	42	5970
2026-01-17 20:16:30.91	293.69	8.71	-34.7	-35.3	23.4	0.00e+00	0	30	0	3236954112	42	5956
2026-01-17 20:16:31.92	293.57	8.65	-34.8	-35.4	23.4	0.00e+00	0	30	0	3242196992	42	6027
2026-01-17 20:16:32.93	293.45	8.59	-34.8	-35.6	23.5	0.00e+00	0	30	0	3248488448	42	6126
2026-01-17 20:16:33.94	293.33	8.53	-34.9	-35.6	23.3	0.00e+00	0	30	0	3253731328	42	6112
2026-01-17 20:16:34.95	293.21	8.47	-34.7	-35.5	23.4	0.00e+00	0	30	0	3258974208	42	6072
2026-01-17 20:16:35.96	293.09	8.42	-34.8	-35.6	23.3	0.00e+00	0	30	0	3265265664	42	6160
2026-01-17 20:16:36.98	292.96	8.36	-34.9	-35.7	23.2	0.00e+00	0	30	0	3270508544	42	6207
2026-01-17 20:16:37.98	292.85	8.30	-34.8	-35.6	23.3	0.00e+00	0	30	0	3276800000	42	6155
2026-01-17 20:16:38.99	292.73	8.24	-34.8	-35.5	23.3	0.00e+00	0	30	0	3282042880	42	6058
2026-01-17 20:16:40.01	292.61	8.18	-34.7	-35.4	23.4	0.00e+00	0	30	0	3287285760	42	5974
2026-01-17 20:16:41.02	292.49	8.12	-34.6	-35.4	23.4	0.00e+00	0	30	0	3293577216	42	6015
2026-01-17 20:16:42.03	292.37	8.06	-34.6	-35.4	23.5	0.00e+00	0	30	0	3298820096	42	6000
2026-01-17 20:16:43.04	292.25	8.00	-34.4	-35.2	23.7	0.00e+00	0	30	0	3305111552	42	5847
2026-01-17 20:16:44.05	292.14	7.95	-34.6	-35.2	23.5	0.00e+00	0	30	0	3310354432	42	5864
2026-01-17 20:16:45.06	292.02	7.89	-34.6	-35.3	23.5	0.00e+00	0	30	0	3316645888	42	5919
2026-01-17 20:16:46.07	291.90	7.83	-34.7	-35.5	23.4	0.00e+00	0	30	0	3321888768	42	6081
2026-01-17 20:16:47.08	291.79	7.77	-34.8	-35.5	23.3	0.00e+00	0	30	0	3328180224	42	6097
2026-01-17 20:16:48.09	291.67	7.71	-34.6	-35.3	23.4	0.00e+00	0	30	0	3333423104	42	5931
2026-01-17 20:16:49.10	291.56	7.65	-34.9	-35.7	23.2	0.00e+00	0	30	0	3338665984	42	6198
2026-01-17 20:16:50.11	291.44	7.59	-34.8	-35.6	23.3	0.00e+00	0	30	0	3344957440	42	6153
2026-01-17 20:16:51.12	291.33	7.54	-34.7	-35.4	23.3	0.00e+00	0	30	0	3350200320	42	6015
2026-01-17 20:16:52.13	291.22	7.48	-35.0	-35.7	23.0	0.00e+00	0	30	0	3356491776	42	6236
2026-01-17 20:16:53.14	291.11	7.42	-34.8	-35.7	23.2	0.00e+00	0	30	0	3361734656	42	6181
2026-01-17 20:16:54.15	290.99	7.36	-35.0	-35.8	23.1	0.00e+00	0	30	0	3366977536	42	6282
2026-01-17 20:16:55.16	290.88	7.30	-35.0	-35.9	23.0	0.00e+00	0	30	0	3373268992	42	6327
2026-01-17 20:16:56.17	290.77	7.24	-34.9	-35.6	23.2	0.00e+00	0	30	0	3378511872	42	6111
2026-01-17 20:16:57.18	290.66	7.19	-35.0	-35.7	23.1	0.00e+00	0	30	0	3384803328	42	6199
2026-01-17 20:16:58.19	290.55	7.13	-34.9	-35.6	23.2	0.00e+00	0	30	0	3390046208	42	6158
2026-01-17 20:16:59.20	290.44	7.07	-34.8	-35.6	23.1	0.00e+00	0	30	0	3395289088	42	6134
2026-01-17 20:17:00.21	290.33	7.01	-35.3	-36.1	22.8	0.00e+00	0	30	0	3401580544	42	6497
2026-01-17 20:17:01.22	290.22	6.95	-35.2	-36.1	22.8	0.00e+00	0	30	0	3406823424	42	6475
2026-01-17 20:17:02.23	290.11	6.90	-35.4	-36.2	22.5	0.00e+00	0	30	0	3413114880	42	6592
2026-01-17 20:17:03.24	290.00	6.84	-35.4	-36.1	22.6	0.00e+00	0	31	0	3418357760	42	6496
2026-01-17 20:17:04.25	289.90	6.78	-35.4	-36.1	22.6	0.00e+00	0	31	0	3424649216	42	6531
2026-01-17 20:17:05.26	289.79	6.72	-35.2	-36.0	22.7	0.00e+00	0	31	0	3429892096	42	6421
2026-01-17 20:17:06.27	289.68	6.66	-35.4	-36.3	22.5	0.00e+00	0	30	0	3436183552	42	6626
2026-01-17 20:17:07.28	289.58	6.61	-35.3	-36.1	22.7	0.00e+00	0	30	0	3441426432	42	6474
2026-01-17 20:17:08.29	289.47	6.55	-35.3	-36.1	22.7	0.00e+00	0	31	0	3446669312	42	6499
2026-01-17 20:17:09.30	289.37	6.49	-35.3	-36.0	22.6	0.00e+00	0	31	0	3452960768	42	6438
2026-01-17 20:17:10.31	289.26	6.43	-35.4	-36.1	22.5	0.00e+00	0	31	0	3458203648	42	6497
2026-01-17 20:17:11.32	289.16	6.38	-35.6	-36.3	22.4	0.00e+00	0	31	0	3464495104	42	6691
2026-01-17 20:17:12.33	289.05	6.32	-35.4	-36.1	22.6	0.00e+00	0	31	0	3469737984	42	6465
2026-01-17 20:17:13.34	288.95	6.26	-35.6	-36.3	22.3	0.00e+00	0	31	0	3474980864	42	6672
2026-01-17 20:17:14.35	288.84	6.20	-35.8	-36.5	22.1	0.00e+00	0	30	0	3481272320	44	6069
2026-01-17 20:17:15.36	288.74	6.14	-35.5	-36.4	22.3	0.00e+00	0	31	0	3486515200	44	5982
2026-01-17 20:17:16.37	288.64	6.09	-35.6	-36.4	22.4	0.00e+00	0	30	0	3492806656	44	6021
2026-01-17 20:17:17.38	288.54	6.03	-35.4	-36.3	22.4	0.00e+00	0	30	0	3498049536	44	5940
2026-01-17 20:17:18.39	288.43	5.97	-35.7	-36.5	22.2	0.00e+00	0	30	0	3503292416	44	6095
2026-01-17 20:17:19.40	288.33	5.91	-35.6	-36.3	22.3	0.00e+00	0	30	0	3509583872	44	5918
2026-01-17 20:17:20.41	288.23	5.86	-35.7	-36.4	22.2	0.00e+00	0	30	0	3514826752	44	5998
2026-01-17 20:17:21.42	288.13	5.80	-35.7	-36.6	22.1	0.00e+00	0	30	0	3521118208	44	6146
2026-01-17 20:17:22.43	288.03	5.74	-35.5	-36.2	22.4	0.00e+00	0	31	0	3526361088	44	5851
2026-01-17 20:17:23.44	287.93	5.69	-35.5	-36.4	22.3	0.00e+00	0	30	0	3532652544	44	5987
2026-01-17 20:17:24.45	287.83	5.63	-35.4	-36.2	22.5	0.00e+00	0	31	0	3537895424	44	5837
2026-01-17 20:17:25.46	287.73	5.57	-35.6	-36.3	22.3	0.00e+00	0	30	0	3543138304	44	5938
2026-01-17 20:17:26.47	287.64	5.51	-35.5	-36.3	22.4	0.00e+00	0	31	0	3549429760	44	5948
2026-01-17 20:17:27.48	287.54	5.46	-35.6	-36.4	22.2	0.00e+00	0	31	0	3554672640	44	5997
2026-01-17 20:17:28.48	287.44	5.40	-35.8	-36.6	22.0	0.00e+00	0	30	0	3560964096	44	6142
2026-01-17 20:17:29.50	287.34	5.34	-35.8	-36.5	22.0	0.00e+00	0	30	0	3566206976	44	6102
2026-01-17 20:17:30.51	287.25	5.29	-35.3	-36.2	22.4	0.00e+00	0	31	0	3571449856	44	5857
2026-01-17 20:17:31.52	287.15	5.23	-35.4	-36.2	22.4	0.00e+00	0	31	0	3577741312	44	5859
2026-01-17 20:17:32.53	287.05	5.17	-35.5	-36.4	22.2	0.00e+00	0	30	0	3582984192	44	6009
2026-01-17 20:17:33.54	286.96	5.12	-35.6	-36.4	22.1	0.00e+00	0	31	0	3589275648	44	5996
2026-01-17 20:17:34.55	286.86	5.06	-35.6	-36.3	22.1	0.00e+00	0	31	0	3594518528	44	5959
2026-01-17 20:17:35.56	286.77	5.00	-35.6	-36.5	22.1	0.00e+00	0	31	0	3599761408	44	6079
2026-01-17 20:17:36.57	286.67	4.95	-35.9	-36.7	21.8	0.00e+00	0	31	0	3606052864	44	6196
2026-01-17 20:17:37.58	286.58	4.89	-35.8	-36.6	21.9	0.00e+00	0	31	0	3611295744	44	6117
2026-01-17 20:17:38.59	286.49	4.83	-35.9	-36.6	21.7	0.00e+00	0	30	0	3617587200	44	6164
2026-01-17 20:17:39.60	286.39	4.78	-36.2	-37.2	21.5	0.00e+00	0	30	0	3622830080	44	6555
2026-01-17 20:17:40.61	286.30	4.72	-36.2	-37.0	21.4	0.00e+00	0	31	0	3629121536	44	6414
2026-01-17 20:17:41.62	286.21	4.66	-36.4	-37.3	21.2	0.00e+00	0	30	0	3634364416	44	6659
2026-01-17 20:17:42.63	286.11	4.61	-36.5	-37.4	21.1	0.00e+00	0	30	0	3640655872	44	6745
2026-01-17 20:17:43.64	286.02	4.55	-36.3	-37.2	21.3	0.00e+00	0	30	0	3645898752	44	6543
2026-01-17 20:17:44.65	285.93	4.49	-36.2	-37.1	21.4	0.00e+00	0	31	0	3651141632	44	6505
2026-01-17 20:17:45.66	285.84	4.44	-36.3	-37.1	21.6	0.00e+00	0	31	0	3657433088	44	6476
2026-01-17 20:17:46.67	285.75	4.38	-36.1	-36.9	21.5	0.00e+00	0	31	0	3662675968	44	6388
2026-01-17 20:17:47.68	285.66	4.33	-36.2	-37.1	21.4	0.00e+00	0	31	0	3668967424	44	6516
2026-01-17 20:17:48.69	285.57	4.27	-36.0	-36.7	21.6	0.00e+00	0	30	0	3674210304	44	6237
