passes_logs/2026/01/17/R4.6S_Anadyr/R4.6S_Anadyr__20260117_233244_NOAA_21_JPSS-2_rec.log

#Pass ID: 20260117_233244_NOAA 21 (JPSS-2)
#Satellite: NOAA 21 (JPSS-2)
#Configuration: NOAA-21
#almurnet v.1.7.20251203
#Start time: 2026-01-17 23:32:46

#Version: 2.2.20231116
#Station: R4.6S_Anadyr
#Location: 177.4865 lon 64.73178 lat
#TLE: 1 54234U 22150A   26017.62066529  .00000042  00000+0  40984-4 0  9994
#TLE: 2 54234  98.7502 318.4887 0000613 271.5460  88.5645 14.19535234165189

#Time	Az	El	Level	Level2	SNR	BER	BlckErr	Temp	State	Recorded	gain1	gain2
2026-01-17 23:32:46.16	139.70	0.11	-49.3	-67.0	3.5	7.66e-01	0	29	0	0	60	86341
2026-01-17 23:32:47.13	139.69	0.17	-49.2	-62.1	3.5	1.52e+00	0	31	104	0	60	44480
2026-01-17 23:32:48.11	139.67	0.23	-49.3	-62.1	3.5	1.52e+00	0	31	104	0	60	44798
2026-01-17 23:32:49.08	139.66	0.29	-49.1	-62.0	3.5	1.52e+00	0	31	104	0	60	44434
2026-01-17 23:32:50.06	139.64	0.34	-49.0	-61.9	3.5	1.52e+00	0	31	104	0	60	43541
2026-01-17 23:32:51.04	139.63	0.40	-48.9	-61.8	3.5	1.52e+00	0	31	104	0	60	43409
2026-01-17 23:32:52.01	139.61	0.46	-49.0	-61.9	3.5	1.52e+00	0	31	104	0	60	43481
2026-01-17 23:32:52.99	139.60	0.52	-49.0	-61.8	3.5	1.51e+00	0	31	104	0	60	43243
2026-01-17 23:32:53.97	139.58	0.58	-48.9	-61.8	3.5	1.52e+00	0	31	104	0	60	43019
2026-01-17 23:32:54.94	139.57	0.64	-48.7	-61.6	3.5	1.51e+00	0	31	104	0	60	42152
2026-01-17 23:32:55.92	139.55	0.70	-48.7	-61.6	3.5	1.52e+00	0	31	104	0	60	41960
2026-01-17 23:32:56.90	139.53	0.76	-48.6	-61.4	3.5	1.52e+00	0	31	104	0	60	41400
2026-01-17 23:32:57.88	139.52	0.82	-48.5	-61.4	3.5	1.52e+00	0	31	104	0	60	41190
2026-01-17 23:32:58.86	139.50	0.88	-48.0	-60.9	3.5	1.52e+00	0	31	104	0	60	39052
2026-01-17 23:32:59.83	139.49	0.94	-47.9	-60.7	3.5	1.52e+00	0	31	104	0	60	38159
2026-01-17 23:33:00.81	139.47	1.00	-47.7	-60.3	3.5	1.52e+00	0	31	104	0	60	36285
2026-01-17 23:33:01.79	139.45	1.06	-47.4	-60.2	3.5	1.52e+00	0	31	104	0	60	35751
2026-01-17 23:33:02.76	139.44	1.12	-47.2	-60.1	3.5	1.52e+00	0	31	104	0	60	35677
2026-01-17 23:33:03.74	139.42	1.18	-47.2	-60.2	3.5	1.52e+00	0	31	104	0	60	35773
2026-01-17 23:33:04.71	139.41	1.24	-47.2	-60.2	3.5	1.52e+00	0	31	104	0	60	35713
2026-01-17 23:33:05.69	139.39	1.30	-47.2	-60.1	3.5	1.52e+00	0	31	104	0	60	35614
2026-01-17 23:33:06.68	139.37	1.36	-47.2	-60.1	3.5	1.52e+00	0	31	104	0	60	35641
2026-01-17 23:33:07.65	139.36	1.42	-47.2	-60.2	3.5	1.52e+00	0	31	104	0	60	35714
2026-01-17 23:33:08.63	139.34	1.48	-47.2	-60.1	3.5	1.51e+00	0	31	104	0	60	35662
2026-01-17 23:33:09.61	139.32	1.55	-47.2	-60.2	3.5	1.52e+00	0	31	104	0	60	35829
2026-01-17 23:33:10.59	139.31	1.61	-47.2	-60.1	3.5	1.52e+00	0	31	104	0	60	35553
2026-01-17 23:33:11.57	139.29	1.67	-47.2	-60.1	3.5	1.52e+00	0	31	104	0	60	35414
2026-01-17 23:33:12.54	139.27	1.73	-47.2	-60.0	3.5	1.52e+00	0	31	104	0	60	35073
2026-01-17 23:33:13.52	139.26	1.79	-47.2	-59.9	3.5	1.51e+00	0	31	104	0	60	34739
2026-01-17 23:33:14.49	139.24	1.85	-47.2	-59.8	3.5	1.52e+00	0	31	104	0	60	34255
2026-01-17 23:33:15.47	139.22	1.92	-47.2	-59.8	3.5	1.52e+00	0	31	104	0	60	34376
2026-01-17 23:33:16.45	139.20	1.98	-47.2	-59.8	3.5	1.52e+00	0	31	104	0	60	34131
2026-01-17 23:33:17.42	139.19	2.04	-47.2	-59.7	3.5	1.52e+00	0	31	104	0	60	34003
2026-01-17 23:33:18.40	139.17	2.10	-47.2	-59.9	3.5	1.51e+00	0	31	104	0	60	34708
2026-01-17 23:33:19.38	139.15	2.17	-47.2	-60.0	3.5	1.52e+00	0	31	104	0	60	35136
2026-01-17 23:33:20.36	139.14	2.23	-47.2	-60.0	3.5	1.52e+00	0	32	104	0	60	35232
2026-01-17 23:33:21.34	139.12	2.29	-47.2	-60.0	3.5	1.51e+00	0	32	104	0	60	35167
2026-01-17 23:33:22.32	139.10	2.35	-47.2	-59.9	3.5	1.52e+00	0	31	104	0	60	34842
2026-01-17 23:33:23.30	139.08	2.42	-47.2	-59.9	3.5	1.52e+00	0	32	104	0	60	34557
2026-01-17 23:33:24.27	139.06	2.48	-47.2	-59.8	3.5	1.52e+00	0	31	104	0	60	34419
2026-01-17 23:33:25.25	139.05	2.54	-47.1	-59.7	3.5	1.52e+00	0	32	104	0	60	34042
2026-01-17 23:33:26.23	139.03	2.61	-47.1	-59.8	3.5	1.51e+00	0	32	104	0	60	34172
2026-01-17 23:33:27.20	139.01	2.67	-47.2	-59.7	3.5	1.52e+00	0	31	104	0	60	33970
2026-01-17 23:33:28.18	138.99	2.74	-47.1	-59.7	3.5	1.52e+00	0	32	104	0	60	33896
2026-01-17 23:33:29.16	138.97	2.80	-47.1	-59.7	3.5	1.52e+00	0	31	104	0	60	33732
2026-01-17 23:33:30.13	138.95	2.86	-47.2	-59.9	3.5	1.52e+00	0	31	104	0	60	34585
2026-01-17 23:33:31.11	138.94	2.93	-47.1	-60.0	3.5	1.51e+00	0	32	104	0	60	35084
2026-01-17 23:33:32.09	138.92	2.99	-47.0	-59.9	3.5	1.52e+00	0	32	104	0	60	34579
2026-01-17 23:33:33.07	138.90	3.06	-46.9	-59.0	3.5	1.52e+00	0	32	104	0	60	31295
2026-01-17 23:33:34.04	138.88	3.12	-46.7	-56.7	3.7	1.51e+00	0	32	104	0	60	24110
2026-01-17 23:33:35.02	138.86	3.19	-46.3	-53.4	5.4	5.65e-01	122	32	0	0	60	16497
2026-01-17 23:33:36.00	138.84	3.25	-45.8	-50.8	8.0	1.24e-01	122	32	0	3145728	60	12129
2026-01-17 23:33:36.97	138.82	3.32	-44.9	-48.6	9.8	3.31e-02	122	32	0	6291456	60	9467
2026-01-17 23:33:37.95	138.80	3.38	-43.9	-47.0	12.3	5.02e-04	123	32	0	9437184	60	7867
2026-01-17 23:33:38.93	138.78	3.45	-43.0	-45.6	13.9	9.10e-06	121	32	0	12582912	60	6678
2026-01-17 23:33:39.91	138.76	3.51	-42.0	-44.2	15.2	0.00e+00	124	32	0	14680064	58	6389
2026-01-17 23:33:40.89	138.74	3.58	-41.1	-42.9	16.4	0.00e+00	123	32	0	17825792	56	6159
2026-01-17 23:33:41.86	138.73	3.64	-41.3	-43.2	16.4	0.00e+00	120	32	0	20971520	56	6373
2026-01-17 23:33:42.84	138.71	3.71	-40.2	-41.8	17.3	0.00e+00	120	32	0	24117248	54	6126
2026-01-17 23:33:43.82	138.69	3.78	-40.5	-42.2	16.8	0.00e+00	123	32	0	27262976	54	6410
2026-01-17 23:33:44.80	138.67	3.84	-47.3	-58.5	3.5	7.35e-04	0	32	104	30408704	60	29447
2026-01-17 23:33:45.78	138.65	3.91	-46.8	-54.7	3.9	1.51e+00	0	32	104	30408704	60	19141
2026-01-17 23:33:46.75	138.63	3.98	-42.2	-44.6	12.7	1.99e-03	121	32	0	30408704	54	8384
2026-01-17 23:33:47.73	138.61	4.04	-40.4	-42.3	17.1	7.12e-01	123	32	104	31457280	56	5783
2026-01-17 23:33:48.71	138.58	4.11	-42.2	-44.3	11.0	0.00e+00	120	32	0	32505856	52	9150
2026-01-17 23:33:49.68	138.56	4.18	-43.4	-46.5	5.2	1.45e+00	0	32	104	33554432	60	7377
2026-01-17 23:33:50.66	138.54	4.24	-39.3	-41.0	17.8	0.00e+00	123	32	104	33554432	52	6260
2026-01-17 23:33:51.63	138.52	4.31	-39.6	-41.1	18.3	0.00e+00	122	32	0	35651584	52	6289
2026-01-17 23:33:52.61	138.50	4.38	-38.8	-40.1	19.3	0.00e+00	124	32	0	38797312	52	5600
2026-01-17 23:33:53.59	138.48	4.45	-38.5	-39.8	19.5	0.00e+00	120	32	0	41943040	50	6089
2026-01-17 23:33:54.57	138.46	4.51	-39.2	-40.6	18.9	0.00e+00	122	32	0	45088768	50	6679
2026-01-17 23:33:55.54	138.44	4.58	-38.8	-40.1	19.1	0.00e+00	122	32	0	48234496	50	6313
2026-01-17 23:33:56.52	138.42	4.65	-38.5	-39.7	19.5	0.00e+00	121	32	0	51380224	50	6037
2026-01-17 23:33:57.50	138.40	4.72	-38.3	-39.5	19.8	0.00e+00	121	32	0	54525952	50	5885
2026-01-17 23:33:58.47	138.38	4.79	-38.5	-39.8	19.6	0.00e+00	124	32	0	57671680	50	6072
2026-01-17 23:33:59.45	138.35	4.86	-38.6	-39.9	19.3	0.00e+00	122	32	0	59768832	50	6188
2026-01-17 23:34:00.43	138.33	4.93	-38.3	-39.5	19.8	0.00e+00	121	32	0	62914560	50	5879
2026-01-17 23:34:01.40	138.31	4.99	-38.1	-39.3	19.9	0.00e+00	123	32	0	66060288	50	5760
2026-01-17 23:34:02.38	138.29	5.06	-38.0	-39.2	19.9	0.00e+00	122	32	0	69206016	50	5709
2026-01-17 23:34:03.35	138.27	5.13	-38.2	-39.5	19.8	0.00e+00	124	32	0	72351744	50	5867
2026-01-17 23:34:04.33	138.24	5.20	-38.7	-40.0	19.2	0.00e+00	123	32	0	75497472	50	6275
2026-01-17 23:34:05.31	138.22	5.27	-38.2	-39.5	19.8	0.00e+00	123	32	0	78643200	50	5870
2026-01-17 23:34:06.28	138.20	5.34	-38.2	-39.4	20.0	0.00e+00	123	32	0	81788928	50	5817
2026-01-17 23:34:07.26	138.18	5.41	-38.0	-39.2	20.2	0.00e+00	122	32	0	84934656	50	5693
2026-01-17 23:34:08.24	138.15	5.48	-38.3	-39.5	19.9	0.00e+00	122	32	0	88080384	50	5871
2026-01-17 23:34:09.22	138.13	5.55	-38.0	-39.1	20.2	0.00e+00	121	32	0	90177536	50	5649
2026-01-17 23:34:10.20	138.11	5.63	-38.0	-39.2	20.3	0.00e+00	121	32	0	93323264	50	5678
2026-01-17 23:34:11.17	138.09	5.70	-37.8	-38.9	20.4	0.00e+00	123	32	0	96468992	50	5508
2026-01-17 23:34:12.15	138.06	5.77	-38.0	-39.1	20.3	0.00e+00	120	32	0	99614720	50	5642
2026-01-17 23:34:13.13	138.04	5.84	-37.8	-39.0	20.4	0.00e+00	123	32	0	102760448	48	6228
2026-01-17 23:34:14.11	138.02	5.91	-37.9	-39.1	20.3	0.00e+00	123	32	0	105906176	48	6316
2026-01-17 23:34:15.09	137.99	5.98	-38.5	-39.7	19.8	0.00e+00	121	32	0	109051904	48	6793
2026-01-17 23:34:16.06	137.97	6.05	-38.5	-39.7	19.8	0.00e+00	123	32	0	112197632	48	6804
2026-01-17 23:34:17.04	137.94	6.13	-38.4	-39.7	19.9	0.00e+00	122	32	0	115343360	48	6737
2026-01-17 23:34:18.02	137.92	6.20	-38.3	-39.5	20.2	0.00e+00	124	32	0	118489088	50	5911
2026-01-17 23:34:19.00	137.90	6.27	-38.5	-39.7	20.1	0.00e+00	121	32	0	121634816	50	6010
2026-01-17 23:34:19.97	137.87	6.34	-38.2	-39.4	20.4	0.00e+00	125	32	0	124780544	50	5806
2026-01-17 23:34:20.95	137.85	6.42	-38.0	-39.1	20.4	0.00e+00	122	32	0	126877696	50	5654
2026-01-17 23:34:21.93	137.82	6.49	-38.2	-39.4	20.2	0.00e+00	120	32	0	130023424	50	5858
2026-01-17 23:34:22.91	137.80	6.56	-37.6	-38.7	21.0	0.00e+00	121	32	0	133169152	48	6013
2026-01-17 23:34:23.88	137.77	6.64	-37.1	-38.2	21.3	0.00e+00	124	32	0	136314880	48	5696
2026-01-17 23:34:24.86	137.75	6.71	-37.1	-38.2	21.3	0.00e+00	123	32	0	139460608	48	5691
2026-01-17 23:34:25.84	137.72	6.78	-37.1	-38.2	21.3	0.00e+00	120	32	0	142606336	48	5699
2026-01-17 23:34:26.82	137.70	6.86	-36.9	-38.0	21.4	0.00e+00	121	32	0	145752064	48	5544
2026-01-17 23:34:27.79	137.67	6.93	-36.9	-37.9	21.6	0.00e+00	123	32	0	148897792	48	5506
2026-01-17 23:34:28.77	137.65	7.01	-36.9	-38.0	21.5	0.00e+00	120	32	0	152043520	46	6237
2026-01-17 23:34:29.75	137.62	7.08	-36.7	-37.8	21.6	0.00e+00	122	32	0	155189248	46	6100
2026-01-17 23:34:30.73	137.60	7.16	-36.6	-37.7	21.8	0.00e+00	123	32	0	158334976	46	6004
2026-01-17 23:34:31.71	137.57	7.23	-36.7	-37.8	21.8	0.00e+00	125	32	0	160432128	46	6092
2026-01-17 23:34:32.69	137.55	7.31	-37.0	-38.0	21.6	0.00e+00	122	32	0	163577856	46	6267
2026-01-17 23:34:33.66	137.52	7.38	-36.8	-37.8	21.7	0.00e+00	121	32	0	166723584	46	6121
2026-01-17 23:34:34.64	137.49	7.46	-36.8	-37.9	21.7	0.00e+00	123	32	0	169869312	46	6149
2026-01-17 23:34:35.62	137.47	7.54	-36.6	-37.7	21.9	0.00e+00	120	32	0	173015040	46	6023
2026-01-17 23:34:36.59	137.44	7.61	-36.6	-37.6	22.1	0.00e+00	123	32	0	176160768	46	5945
2026-01-17 23:34:37.57	137.41	7.69	-36.5	-37.5	22.0	0.00e+00	121	32	0	179306496	46	5914
2026-01-17 23:34:38.55	137.39	7.77	-36.3	-37.3	22.2	0.00e+00	123	32	0	182452224	46	5756
2026-01-17 23:34:39.52	137.36	7.84	-36.4	-37.4	22.1	0.00e+00	120	32	0	185597952	46	5831
2026-01-17 23:34:40.50	137.33	7.92	-36.5	-37.5	22.1	0.00e+00	123	32	0	188743680	46	5921
2026-01-17 23:34:41.48	137.30	8.00	-36.1	-37.1	22.4	0.00e+00	125	32	0	191889408	46	5631
2026-01-17 23:34:42.46	137.28	8.07	-36.3	-37.4	22.1	0.00e+00	123	32	0	195035136	46	5796
2026-01-17 23:34:43.43	137.25	8.15	-36.2	-37.2	22.4	0.00e+00	122	32	0	198180864	46	5716
2026-01-17 23:34:44.41	137.22	8.23	-36.1	-37.1	22.5	0.00e+00	123	32	0	200278016	46	5631
2026-01-17 23:34:45.39	137.19	8.31	-36.2	-37.2	22.3	0.00e+00	121	32	0	203423744	46	5713
2026-01-17 23:34:46.36	137.16	8.39	-36.2	-37.3	22.3	0.00e+00	122	32	0	206569472	46	5733
2026-01-17 23:34:47.34	137.14	8.47	-36.1	-37.1	22.4	0.00e+00	124	32	0	209715200	46	5648
2026-01-17 23:34:48.32	137.11	8.54	-36.3	-37.3	22.3	0.00e+00	124	32	0	212860928	46	5776
2026-01-17 23:34:49.29	137.08	8.62	-36.2	-37.2	22.4	0.00e+00	123	32	0	216006656	46	5685
2026-01-17 23:34:50.27	137.05	8.70	-36.2	-37.2	22.4	0.00e+00	123	32	0	219152384	46	5718
2026-01-17 23:34:51.25	137.02	8.78	-36.4	-37.5	22.2	0.00e+00	120	32	0	222298112	46	5870
2026-01-17 23:34:52.23	136.99	8.86	-36.0	-37.0	22.6	0.00e+00	121	32	0	225443840	46	5579
2026-01-17 23:34:53.21	136.96	8.94	-36.3	-37.3	22.5	0.00e+00	121	32	0	228589568	46	5729
2026-01-17 23:34:54.18	136.93	9.02	-36.1	-37.1	22.6	0.00e+00	120	32	0	231735296	46	5604
2026-01-17 23:34:55.16	136.90	9.11	-36.0	-37.0	22.6	0.00e+00	120	32	0	233832448	46	5566
2026-01-17 23:34:56.14	136.87	9.19	-36.1	-37.1	22.6	0.00e+00	124	32	0	236978176	46	5621
2026-01-17 23:34:57.11	136.84	9.27	-36.2	-37.2	22.6	0.00e+00	124	32	0	240123904	46	5671
2026-01-17 23:34:58.09	136.81	9.35	-36.1	-37.2	22.4	0.00e+00	123	32	0	243269632	46	5661
2026-01-17 23:34:59.06	136.78	9.43	-36.1	-37.1	22.6	0.00e+00	125	32	0	246415360	46	5655
2026-01-17 23:35:00.04	136.75	9.51	-35.8	-36.8	22.2	0.00e+00	120	32	0	249561088	46	5421
2026-01-17 23:35:01.02	136.72	9.59	-35.9	-36.8	22.7	0.00e+00	121	32	0	252706816	44	6125
2026-01-17 23:35:01.99	136.69	9.68	-35.9	-36.8	22.8	0.00e+00	119	32	0	255852544	44	6122
2026-01-17 23:35:02.97	136.66	9.76	-35.8	-36.8	22.7	0.00e+00	123	32	0	258998272	44	6119
2026-01-17 23:35:03.95	136.63	9.84	-35.9	-36.9	22.7	0.00e+00	120	32	0	262144000	44	6171
2026-01-17 23:35:04.93	136.59	9.93	-35.9	-36.8	22.8	0.00e+00	122	32	0	265289728	44	6113
2026-01-17 23:35:05.91	136.56	10.01	-35.6	-36.6	23.0	0.00e+00	121	32	0	267386880	44	5968
2026-01-17 23:35:06.88	136.53	10.09	-35.7	-36.7	22.9	0.00e+00	123	32	0	270532608	44	6040
2026-01-17 23:35:07.86	136.50	10.18	-35.7	-36.7	22.9	0.00e+00	123	32	0	273678336	44	6002
2026-01-17 23:35:08.84	136.46	10.26	-35.7	-36.7	23.0	0.00e+00	122	32	0	276824064	44	6018
2026-01-17 23:35:09.82	136.43	10.35	-35.6	-36.6	22.9	0.00e+00	122	32	0	279969792	44	5952
2026-01-17 23:35:10.80	136.40	10.43	-35.5	-36.5	23.0	0.00e+00	124	32	0	283115520	44	5889
2026-01-17 23:35:11.77	136.37	10.52	-35.6	-36.5	23.1	0.00e+00	121	32	0	286261248	44	5923
2026-01-17 23:35:12.74	136.33	10.60	-35.7	-36.6	22.9	0.00e+00	120	32	0	289406976	44	5979
2026-01-17 23:35:13.72	136.30	10.69	-35.7	-36.7	22.9	0.00e+00	122	32	0	292552704	44	6012
2026-01-17 23:35:14.69	136.27	10.78	-35.7	-36.7	22.9	0.00e+00	122	32	0	295698432	44	6006
2026-01-17 23:35:15.67	136.23	10.86	-35.9	-36.9	22.8	0.00e+00	124	32	0	298844160	44	6166
2026-01-17 23:35:16.65	136.20	10.95	-35.5	-36.5	23.0	0.00e+00	122	32	0	300941312	44	5905
2026-01-17 23:35:17.62	136.16	11.04	-35.3	-36.3	23.2	0.00e+00	121	32	0	304087040	44	5757
2026-01-17 23:35:18.60	136.13	11.12	-35.5	-36.5	23.1	0.00e+00	122	32	0	307232768	44	5885
2026-01-17 23:35:19.58	136.09	11.21	-35.5	-36.5	23.1	0.00e+00	122	32	0	310378496	44	5883
2026-01-17 23:35:20.56	136.06	11.30	-35.4	-36.3	23.1	0.00e+00	121	32	0	313524224	44	5788
2026-01-17 23:35:21.53	136.02	11.39	-35.5	-36.5	23.1	0.00e+00	123	32	0	316669952	44	5887
2026-01-17 23:35:22.51	135.99	11.48	-35.3	-36.3	23.3	0.00e+00	123	32	0	319815680	44	5756
2026-01-17 23:35:23.49	135.95	11.56	-35.4	-36.4	23.3	0.00e+00	124	32	0	322961408	44	5797
2026-01-17 23:35:24.47	135.91	11.65	-35.4	-36.4	23.2	0.00e+00	123	32	0	326107136	44	5795
2026-01-17 23:35:25.45	135.88	11.74	-35.4	-36.4	23.2	0.00e+00	124	32	0	329252864	44	5825
2026-01-17 23:35:26.42	135.84	11.83	-35.4	-36.4	23.2	0.00e+00	124	32	0	332398592	44	5800
2026-01-17 23:35:27.40	135.81	11.92	-35.3	-36.3	23.3	0.00e+00	120	32	0	334495744	44	5738
2026-01-17 23:35:28.37	135.77	12.01	-35.3	-36.3	23.3	0.00e+00	123	32	0	337641472	44	5733
2026-01-17 23:35:29.35	135.73	12.10	-35.4	-36.3	23.3	0.00e+00	124	32	0	340787200	44	5775
2026-01-17 23:35:30.33	135.69	12.20	-35.3	-36.2	23.4	0.00e+00	125	32	0	343932928	44	5707
2026-01-17 23:35:31.31	135.66	12.29	-35.3	-36.3	23.3	0.00e+00	122	32	0	347078656	44	5753
2026-01-17 23:35:32.28	135.62	12.38	-35.4	-36.3	23.3	0.00e+00	124	32	0	350224384	44	5791
2026-01-17 23:35:33.26	135.58	12.47	-35.2	-36.1	23.4	0.00e+00	122	32	0	353370112	44	5658
2026-01-17 23:35:34.24	135.54	12.56	-35.2	-36.2	23.4	0.00e+00	123	32	0	356515840	44	5685
2026-01-17 23:35:35.21	135.50	12.66	-35.4	-36.3	23.3	0.00e+00	121	32	0	359661568	44	5781
2026-01-17 23:35:36.19	135.46	12.75	-35.3	-36.3	23.3	0.00e+00	122	32	0	362807296	44	5773
2026-01-17 23:35:37.17	135.42	12.84	-35.3	-36.3	23.3	0.00e+00	121	32	0	365953024	44	5759
2026-01-17 23:35:38.14	135.38	12.94	-35.2	-36.2	23.4	0.00e+00	121	32	0	369098752	44	5694
2026-01-17 23:35:39.12	135.34	13.03	-35.3	-36.3	23.4	0.00e+00	121	32	0	372244480	44	5781
2026-01-17 23:35:40.10	135.30	13.13	-35.1	-36.1	23.6	0.00e+00	120	32	0	374341632	44	5602
2026-01-17 23:35:41.08	135.26	13.22	-35.1	-36.1	23.6	0.00e+00	120	32	0	377487360	44	5598
2026-01-17 23:35:42.06	135.22	13.32	-35.1	-36.1	23.5	0.00e+00	122	32	0	380633088	44	5628
2026-01-17 23:35:43.03	135.18	13.41	-35.1	-36.1	23.5	0.00e+00	122	32	0	383778816	44	5628
2026-01-17 23:35:44.01	135.14	13.51	-35.2	-36.2	23.5	0.00e+00	123	32	0	386924544	44	5677
2026-01-17 23:35:44.99	135.10	13.60	-35.1	-36.1	23.6	0.00e+00	123	32	0	390070272	44	5599
2026-01-17 23:35:45.96	135.06	13.70	-35.0	-35.9	23.7	0.00e+00	121	32	0	393216000	44	5523
2026-01-17 23:35:46.94	135.02	13.80	-35.2	-36.1	23.5	0.00e+00	121	32	0	396361728	44	5641
2026-01-17 23:35:47.92	134.97	13.90	-35.2	-36.1	23.5	0.00e+00	121	32	0	399507456	44	5657
2026-01-17 23:35:48.89	134.93	13.99	-35.1	-36.1	23.6	0.00e+00	123	32	0	402653184	44	5620
2026-01-17 23:35:49.87	134.89	14.09	-35.1	-36.0	23.6	0.00e+00	120	32	0	405798912	44	5575
2026-01-17 23:35:50.85	134.84	14.19	-35.2	-36.1	23.6	0.00e+00	123	32	0	407896064	44	5652
2026-01-17 23:35:51.83	134.80	14.29	-35.0	-36.0	23.7	0.00e+00	125	32	0	411041792	44	5534
2026-01-17 23:35:52.80	134.76	14.39	-35.1	-36.1	23.6	0.00e+00	122	32	0	414187520	44	5604
2026-01-17 23:35:53.78	134.71	14.49	-35.1	-36.0	23.7	0.00e+00	120	32	0	417333248	44	5586
2026-01-17 23:35:54.76	134.67	14.59	-35.0	-35.9	23.8	0.00e+00	122	32	0	420478976	44	5502
2026-01-17 23:35:55.73	134.62	14.69	-34.9	-35.9	23.8	0.00e+00	120	32	0	423624704	44	5472
2026-01-17 23:35:56.71	134.58	14.79	-34.9	-35.9	23.7	0.00e+00	123	32	0	426770432	44	5468
2026-01-17 23:35:57.69	134.53	14.89	-35.0	-36.0	23.7	0.00e+00	123	32	0	429916160	44	5540
2026-01-17 23:35:58.67	134.49	14.99	-35.0	-36.0	23.7	0.00e+00	122	32	0	433061888	44	5546
2026-01-17 23:35:59.65	134.44	15.09	-34.9	-35.8	23.8	0.00e+00	124	32	0	436207616	44	5426
2026-01-17 23:36:00.63	134.39	15.20	-35.0	-35.9	23.8	0.00e+00	123	32	0	439353344	44	5516
2026-01-17 23:36:01.60	134.35	15.30	-34.9	-35.8	23.8	0.00e+00	123	32	0	441450496	44	5445
2026-01-17 23:36:02.58	134.30	15.40	-35.0	-35.9	23.8	0.00e+00	120	32	0	444596224	44	5512
2026-01-17 23:36:03.56	134.25	15.51	-35.0	-35.9	23.8	0.00e+00	122	32	0	447741952	44	5510
2026-01-17 23:36:04.54	134.20	15.61	-35.0	-35.9	23.7	0.00e+00	122	32	0	450887680	44	5510
2026-01-17 23:36:05.52	134.15	15.72	-35.0	-35.9	23.7	0.00e+00	121	32	0	454033408	44	5492
2026-01-17 23:36:06.49	134.11	15.82	-35.0	-35.9	23.7	0.00e+00	121	32	0	457179136	44	5523
2026-01-17 23:36:07.46	134.06	15.93	-35.0	-36.0	23.7	0.00e+00	125	32	0	460324864	44	5535
2026-01-17 23:36:08.44	134.01	16.03	-35.1	-36.0	23.7	0.00e+00	122	32	0	463470592	44	5558
2026-01-17 23:36:09.42	133.96	16.14	-35.1	-36.1	23.6	0.00e+00	122	32	0	466616320	44	5614
2026-01-17 23:36:10.40	133.91	16.25	-35.2	-36.2	23.6	0.00e+00	123	32	0	469762048	44	5661
2026-01-17 23:36:11.38	133.86	16.35	-35.2	-36.1	23.7	0.00e+00	121	32	0	472907776	44	5649
2026-01-17 23:36:12.35	133.81	16.46	-35.0	-36.0	23.7	0.00e+00	123	32	0	475004928	44	5545
2026-01-17 23:36:13.28	133.76	16.56	-35.1	-36.1	23.6	0.00e+00	121	32	0	478150656	44	5601
2026-01-17 23:36:14.26	133.71	16.67	-35.1	-36.0	23.7	0.00e+00	123	32	0	481296384	44	5575
2026-01-17 23:36:15.24	133.65	16.78	-35.1	-36.1	23.7	0.00e+00	122	32	0	484442112	44	5609
2026-01-17 23:36:16.21	133.60	16.89	-35.3	-36.2	23.5	0.00e+00	123	32	0	487587840	44	5705
2026-01-17 23:36:17.19	133.55	17.00	-35.3	-36.2	23.5	0.00e+00	122	32	0	490733568	44	5724
2026-01-17 23:36:18.17	133.50	17.11	-35.4	-36.3	23.4	0.00e+00	124	32	0	493879296	44	5776
2026-01-17 23:36:19.14	133.44	17.22	-35.3	-36.2	23.5	0.00e+00	122	32	0	497025024	44	5696
2026-01-17 23:36:20.12	133.39	17.33	-35.6	-36.5	23.4	0.00e+00	123	32	0	500170752	44	5905
2026-01-17 23:36:21.10	133.33	17.44	-35.3	-36.2	23.5	0.00e+00	120	32	0	503316480	44	5696
2026-01-17 23:36:22.07	133.28	17.56	-35.3	-36.2	23.5	0.00e+00	121	32	0	506462208	44	5696
2026-01-17 23:36:23.05	133.22	17.67	-35.4	-36.3	23.4	0.00e+00	122	32	0	508559360	44	5788
2026-01-17 23:36:24.02	133.17	17.78	-35.4	-36.4	23.5	0.00e+00	122	32	0	511705088	44	5811
2026-01-17 23:36:25.00	133.11	17.90	-35.3	-36.2	23.5	0.00e+00	121	32	0	514850816	44	5696
2026-01-17 23:36:25.98	133.05	18.01	-35.3	-36.3	23.5	0.00e+00	124	32	0	517996544	44	5743
2026-01-17 23:36:26.95	133.00	18.12	-35.5	-36.5	23.3	0.00e+00	122	32	0	521142272	44	5878
2026-01-17 23:36:27.93	132.94	18.24	-35.4	-36.4	23.4	0.00e+00	122	32	0	524288000	44	5813
2026-01-17 23:36:28.91	132.88	18.36	-35.6	-36.5	23.3	0.00e+00	123	32	0	527433728	44	5916
2026-01-17 23:36:29.89	132.82	18.47	-35.3	-36.3	23.4	0.00e+00	121	32	0	530579456	44	5761
2026-01-17 23:36:30.87	132.76	18.59	-35.4	-36.4	23.4	0.00e+00	123	32	0	533725184	44	5803
2026-01-17 23:36:31.84	132.70	18.71	-35.2	-36.2	23.6	0.00e+00	119	32	0	536870912	44	5679
2026-01-17 23:36:32.82	132.64	18.83	-35.3	-36.2	23.5	0.00e+00	121	32	0	540016640	44	5716
2026-01-17 23:36:33.79	132.58	18.94	-35.3	-36.2	23.6	0.00e+00	123	32	0	543162368	44	5707
2026-01-17 23:36:34.77	132.52	19.06	-35.4	-36.3	23.4	0.00e+00	121	32	0	546308096	44	5774
2026-01-17 23:36:35.75	132.46	19.18	-35.3	-36.2	23.6	0.00e+00	123	32	0	548405248	44	5706
2026-01-17 23:36:36.73	132.40	19.30	-35.4	-36.3	23.5	0.00e+00	124	32	0	551550976	44	5764
2026-01-17 23:36:37.70	132.34	19.42	-35.3	-36.2	23.6	0.00e+00	120	32	0	554696704	44	5711
2026-01-17 23:36:38.68	132.27	19.54	-35.2	-36.1	23.7	0.00e+00	123	32	0	557842432	44	5617
2026-01-17 23:36:39.66	132.21	19.67	-35.1	-36.0	23.7	0.00e+00	121	32	0	560988160	44	5587
2026-01-17 23:36:40.64	132.15	19.79	-35.0	-35.9	23.8	0.00e+00	123	32	0	564133888	44	5509
2026-01-17 23:36:41.61	132.08	19.91	-34.9	-35.8	23.9	0.00e+00	124	32	0	567279616	44	5432
2026-01-17 23:36:42.59	132.02	20.03	-35.1	-36.0	23.7	0.00e+00	125	32	0	570425344	44	5561
2026-01-17 23:36:43.57	131.95	20.16	-34.9	-35.8	23.8	0.00e+00	124	32	0	573571072	44	5445
2026-01-17 23:36:44.53	131.89	20.28	-35.1	-36.0	23.7	0.00e+00	121	32	0	576716800	44	5565
2026-01-17 23:36:45.51	131.82	20.41	-34.8	-35.7	23.8	0.00e+00	123	32	0	578813952	42	6034
2026-01-17 23:36:46.49	131.75	20.53	-34.6	-35.5	24.0	0.00e+00	126	32	0	581959680	42	5909
2026-01-17 23:36:47.46	131.68	20.66	-34.6	-35.6	24.0	0.00e+00	124	32	0	585105408	42	5933
2026-01-17 23:36:48.44	131.62	20.78	-34.5	-35.4	24.1	0.00e+00	122	32	0	588251136	42	5838
2026-01-17 23:36:49.42	131.55	20.91	-34.6	-35.5	24.0	0.00e+00	120	32	0	591396864	42	5877
2026-01-17 23:36:50.39	131.48	21.04	-34.4	-35.4	24.0	0.00e+00	122	32	0	594542592	42	5797
2026-01-17 23:36:51.38	131.41	21.17	-34.5	-35.4	24.1	0.00e+00	123	33	0	597688320	42	5834
2026-01-17 23:36:52.36	131.33	21.30	-34.2	-35.1	24.3	0.00e+00	121	32	0	600834048	42	5623
2026-01-17 23:36:53.34	131.26	21.43	-34.3	-35.3	24.2	0.00e+00	121	32	0	603979776	42	5727
2026-01-17 23:36:54.31	131.19	21.56	-34.1	-35.0	24.3	0.00e+00	121	32	0	607125504	42	5553
2026-01-17 23:36:55.29	131.12	21.69	-34.2	-35.1	24.3	0.00e+00	124	32	0	610271232	42	5628
2026-01-17 23:36:56.27	131.04	21.82	-34.0	-34.9	24.5	0.00e+00	121	33	0	612368384	42	5469
2026-01-17 23:36:57.25	130.97	21.96	-34.1	-35.0	24.4	0.00e+00	124	32	0	615514112	42	5556
2026-01-17 23:36:58.23	130.89	22.09	-33.9	-34.8	24.5	0.00e+00	122	32	0	618659840	42	5438
2026-01-17 23:36:59.21	130.82	22.22	-33.9	-34.8	24.5	0.00e+00	120	32	0	621805568	42	5421
2026-01-17 23:37:00.19	130.74	22.36	-33.9	-34.8	24.5	0.00e+00	122	32	0	624951296	42	5450
2026-01-17 23:37:01.16	130.67	22.49	-33.8	-34.7	24.7	0.00e+00	122	32	0	628097024	42	5391
2026-01-17 23:37:02.14	130.59	22.63	-33.7	-34.6	24.8	0.00e+00	120	32	0	631242752	40	5978
2026-01-17 23:37:03.12	130.51	22.76	-33.6	-34.5	24.9	0.00e+00	120	32	0	634388480	40	5859
2026-01-17 23:37:04.09	130.43	22.90	-33.5	-34.4	25.0	0.00e+00	123	32	0	637534208	40	5850
2026-01-17 23:37:05.07	130.35	23.04	-33.5	-34.4	25.0	0.00e+00	121	32	0	640679936	40	5803
2026-01-17 23:37:06.05	130.27	23.18	-33.5	-34.4	25.0	0.00e+00	124	33	0	643825664	40	5808
2026-01-17 23:37:07.02	130.19	23.31	-33.6	-34.5	24.9	0.00e+00	121	32	0	646971392	40	5878
2026-01-17 23:37:08.00	130.11	23.45	-33.5	-34.3	25.1	0.00e+00	123	33	0	649068544	40	5774
2026-01-17 23:37:08.98	130.03	23.60	-33.5	-34.3	25.0	0.00e+00	121	32	0	652214272	40	5786
2026-01-17 23:37:09.96	129.94	23.74	-33.5	-34.3	25.0	0.00e+00	120	32	0	655360000	40	5781
2026-01-17 23:37:10.93	129.86	23.88	-33.6	-34.5	24.9	0.00e+00	125	33	0	658505728	40	5872
2026-01-17 23:37:11.91	129.77	24.02	-33.5	-34.4	24.9	0.00e+00	122	33	0	661651456	40	5847
2026-01-17 23:37:12.89	129.69	24.16	-33.7	-34.6	24.8	0.00e+00	123	33	0	664797184	40	5958
2026-01-17 23:37:13.86	129.60	24.31	-33.8	-34.6	24.7	0.00e+00	121	32	0	667942912	40	5991
2026-01-17 23:37:14.84	129.51	24.45	-33.9	-34.8	24.6	0.00e+00	122	32	0	671088640	40	6116
2026-01-17 23:37:15.81	129.43	24.60	-33.8	-34.7	24.8	0.00e+00	122	32	0	674234368	40	6036
2026-01-17 23:37:16.79	129.34	24.74	-33.9	-34.8	24.7	0.00e+00	120	32	0	677380096	40	6077
2026-01-17 23:37:17.77	129.25	24.89	-34.0	-34.9	24.6	0.00e+00	123	32	0	680525824	40	6198
2026-01-17 23:37:18.75	129.16	25.04	-34.0	-34.9	24.6	0.00e+00	121	32	0	682622976	40	6174
2026-01-17 23:37:19.72	129.06	25.18	-34.0	-34.9	24.6	0.00e+00	121	33	0	685768704	40	6190
2026-01-17 23:37:20.70	128.97	25.33	-34.2	-35.1	24.6	0.00e+00	125	32	0	688914432	40	6293
2026-01-17 23:37:21.68	128.88	25.48	-34.3	-35.2	24.5	0.00e+00	124	32	0	692060160	40	6385
2026-01-17 23:37:22.65	128.78	25.63	-34.5	-35.4	24.3	0.00e+00	123	32	0	695205888	40	6540
2026-01-17 23:37:23.63	128.69	25.79	-34.6	-35.6	24.3	0.00e+00	122	32	0	698351616	40	6652
2026-01-17 23:37:24.61	128.59	25.94	-34.4	-35.3	24.5	0.00e+00	123	33	0	701497344	40	6455
2026-01-17 23:37:25.59	128.49	26.09	-34.5	-35.4	24.4	0.00e+00	122	32	0	704643072	40	6521
2026-01-17 23:37:26.56	128.40	26.24	-34.5	-35.4	24.4	0.00e+00	121	32	0	707788800	40	6512
2026-01-17 23:37:27.54	128.30	26.40	-34.5	-35.4	24.4	0.00e+00	123	32	0	710934528	40	6562
2026-01-17 23:37:28.52	128.20	26.55	-34.5	-35.4	24.4	0.00e+00	124	32	0	714080256	40	6518
2026-01-17 23:37:29.49	128.10	26.71	-34.4	-35.3	24.5	0.00e+00	121	32	0	717225984	40	6492
2026-01-17 23:37:30.47	127.99	26.87	-34.6	-35.5	24.3	0.00e+00	123	32	0	720371712	40	6583
2026-01-17 23:37:31.45	127.89	27.02	-34.6	-35.5	24.4	0.00e+00	123	32	0	722468864	40	6598
2026-01-17 23:37:32.43	127.79	27.18	-34.5	-35.4	24.4	0.00e+00	121	32	0	725614592	40	6544
2026-01-17 23:37:33.41	127.68	27.34	-34.7	-35.6	24.2	0.00e+00	123	32	0	728760320	42	5984
2026-01-17 23:37:34.39	127.57	27.50	-34.7	-35.6	24.3	0.00e+00	125	32	0	731906048	42	5937
2026-01-17 23:37:35.36	127.47	27.66	-34.7	-35.6	24.2	0.00e+00	121	32	0	735051776	42	5952
2026-01-17 23:37:36.34	127.36	27.82	-34.7	-35.7	24.3	0.00e+00	119	32	0	738197504	42	5996
2026-01-17 23:37:37.31	127.25	27.99	-34.9	-35.8	24.1	0.00e+00	121	33	0	741343232	42	6073
2026-01-17 23:37:38.29	127.14	28.15	-34.7	-35.6	24.2	0.00e+00	123	33	0	744488960	42	5945
2026-01-17 23:37:39.27	127.03	28.31	-34.8	-35.7	24.1	0.00e+00	121	33	0	747634688	42	6033
2026-01-17 23:37:40.24	126.91	28.48	-34.6	-35.5	24.2	0.00e+00	123	33	0	750780416	42	5891
2026-01-17 23:37:41.22	126.80	28.64	-34.6	-35.5	24.2	0.00e+00	120	33	0	753926144	42	5914
2026-01-17 23:37:42.20	126.68	28.81	-34.5	-35.4	24.2	0.00e+00	122	32	0	756023296	42	5842
2026-01-17 23:37:43.17	126.57	28.98	-34.6	-35.5	24.3	0.00e+00	121	32	0	759169024	42	5880
2026-01-17 23:37:44.15	126.45	29.15	-34.5	-35.5	24.3	0.00e+00	123	32	0	762314752	42	5860
2026-01-17 23:37:45.13	126.33	29.32	-34.6	-35.5	24.3	0.00e+00	122	32	0	765460480	42	5884
2026-01-17 23:37:46.12	126.20	29.49	-34.5	-35.4	24.4	0.00e+00	121	32	0	768606208	42	5834
2026-01-17 23:37:47.10	126.08	29.66	-34.5	-35.5	24.4	0.00e+00	122	32	0	771751936	42	5859
2026-01-17 23:37:48.07	125.96	29.83	-34.6	-35.5	24.4	0.00e+00	124	32	0	774897664	42	5912
2026-01-17 23:37:49.05	125.83	30.00	-34.7	-35.6	24.4	0.00e+00	124	32	0	778043392	42	5945
2026-01-17 23:37:50.03	125.71	30.18	-34.5	-35.4	24.6	0.00e+00	120	32	0	781189120	42	5835
2026-01-17 23:37:51.01	125.58	30.35	-34.6	-35.5	24.4	0.00e+00	123	32	0	784334848	42	5910
2026-01-17 23:37:51.98	125.45	30.53	-34.4	-35.3	24.5	0.00e+00	122	32	0	787480576	42	5763
2026-01-17 23:37:52.96	125.32	30.71	-34.4	-35.3	24.5	0.00e+00	122	32	0	789577728	42	5745
2026-01-17 23:37:53.94	125.19	30.88	-34.5	-35.4	24.6	0.00e+00	124	32	0	792723456	42	5802
2026-01-17 23:37:54.92	125.06	31.06	-34.6	-35.5	24.5	0.00e+00	124	32	0	795869184	42	5869
2026-01-17 23:37:55.89	124.92	31.24	-34.6	-35.5	24.4	0.00e+00	126	33	0	799014912	42	5898
2026-01-17 23:37:56.87	124.78	31.42	-34.9	-35.8	24.1	0.00e+00	122	32	0	802160640	42	6093
2026-01-17 23:37:57.85	124.65	31.60	-35.1	-36.0	24.0	0.00e+00	125	32	0	805306368	42	6248
2026-01-17 23:37:58.83	124.51	31.78	-35.3	-36.2	23.9	0.00e+00	122	32	0	808452096	42	6422
2026-01-17 23:37:59.81	124.36	31.97	-35.3	-36.3	23.8	0.00e+00	122	32	0	811597824	42	6451
2026-01-17 23:38:00.79	124.22	32.15	-35.4	-36.4	23.9	0.00e+00	123	32	0	814743552	42	6534
2026-01-17 23:38:01.77	124.08	32.34	-35.3	-36.2	24.0	0.00e+00	122	32	0	817889280	42	6392
2026-01-17 23:38:02.75	123.93	32.52	-35.3	-36.3	23.9	0.00e+00	123	32	0	821035008	42	6442
2026-01-17 23:38:03.73	123.78	32.71	-35.2	-36.1	24.0	0.00e+00	121	32	0	824180736	42	6320
2026-01-17 23:38:04.70	123.63	32.90	-35.0	-35.9	24.1	0.00e+00	121	32	0	826277888	42	6188
2026-01-17 23:38:05.68	123.48	33.09	-35.1	-36.0	24.1	0.00e+00	121	33	0	829423616	42	6240
2026-01-17 23:38:06.66	123.33	33.27	-35.1	-36.0	24.1	0.00e+00	122	33	0	832569344	42	6223
2026-01-17 23:38:07.64	123.17	33.47	-34.9	-35.9	24.2	0.00e+00	122	32	0	835715072	42	6137
2026-01-17 23:38:08.62	123.01	33.66	-35.1	-36.0	24.0	0.00e+00	122	33	0	838860800	42	6230
2026-01-17 23:38:09.60	122.85	33.85	-34.9	-35.8	24.1	0.00e+00	123	32	0	842006528	42	6120
2026-01-17 23:38:10.57	122.70	34.04	-35.2	-36.1	23.8	0.00e+00	123	32	0	845152256	42	6311
2026-01-17 23:38:11.55	122.53	34.24	-35.3	-36.2	23.6	0.00e+00	122	32	0	848297984	42	6403
2026-01-17 23:38:12.53	122.37	34.43	-35.5	-36.5	23.4	0.00e+00	121	32	0	851443712	42	6604
2026-01-17 23:38:13.50	122.20	34.63	-35.7	-36.7	23.3	0.00e+00	122	32	0	854589440	42	6781
2026-01-17 23:38:14.48	122.03	34.82	-36.0	-37.0	23.2	0.00e+00	123	32	0	857735168	44	6234
2026-01-17 23:38:15.46	121.86	35.02	-36.2	-37.1	23.1	0.00e+00	121	32	0	859832320	44	6343
2026-01-17 23:38:16.43	121.69	35.22	-36.3	-37.3	23.1	0.00e+00	122	32	0	862978048	44	6439
2026-01-17 23:38:17.41	121.51	35.42	-36.4	-37.3	23.1	0.00e+00	122	32	0	866123776	44	6492
2026-01-17 23:38:18.39	121.34	35.62	-36.3	-37.3	23.0	0.00e+00	124	32	0	869269504	44	6472
2026-01-17 23:38:19.37	121.16	35.82	-36.3	-37.3	23.1	0.00e+00	122	32	0	872415232	44	6445
2026-01-17 23:38:20.34	120.98	36.02	-36.1	-37.1	23.3	0.00e+00	122	32	0	875560960	44	6298
2026-01-17 23:38:21.32	120.79	36.23	-36.1	-37.0	23.3	0.00e+00	124	32	0	878706688	44	6245
2026-01-17 23:38:22.29	120.61	36.43	-36.1	-37.0	23.3	0.00e+00	123	32	0	881852416	44	6265
2026-01-17 23:38:23.27	120.42	36.64	-35.9	-36.8	23.4	0.00e+00	123	33	0	884998144	44	6119
2026-01-17 23:38:24.25	120.22	36.84	-35.9	-36.9	23.3	0.00e+00	119	32	0	888143872	44	6158
2026-01-17 23:38:25.23	120.03	37.05	-36.0	-36.9	23.3	0.00e+00	124	32	0	891289600	44	6189
2026-01-17 23:38:26.21	119.83	37.26	-36.1	-37.1	23.1	0.00e+00	121	32	0	894435328	44	6291
2026-01-17 23:38:27.18	119.64	37.47	-36.4	-37.3	23.0	0.00e+00	122	32	0	896532480	44	6487
2026-01-17 23:38:28.16	119.43	37.68	-36.2	-37.2	23.1	0.00e+00	123	33	0	899678208	44	6371
2026-01-17 23:38:29.14	119.23	37.89	-36.2	-37.1	23.1	0.00e+00	121	33	0	902823936	44	6349
2026-01-17 23:38:30.11	119.02	38.10	-36.1	-37.1	23.1	0.00e+00	120	32	0	905969664	44	6282
2026-01-17 23:38:31.09	118.81	38.31	-36.1	-37.1	23.2	0.00e+00	121	33	0	909115392	44	6299
2026-01-17 23:38:32.07	118.60	38.53	-36.0	-36.9	23.2	0.00e+00	124	33	0	912261120	44	6203
2026-01-17 23:38:33.05	118.39	38.74	-36.1	-37.0	23.2	0.00e+00	124	33	0	915406848	44	6245
2026-01-17 23:38:34.02	118.17	38.96	-36.1	-37.0	23.2	0.00e+00	122	33	0	918552576	44	6265
2026-01-17 23:38:35.00	117.95	39.17	-35.9	-36.9	23.3	0.00e+00	122	33	0	921698304	44	6150
2026-01-17 23:38:35.98	117.72	39.39	-36.0	-37.0	23.3	0.00e+00	124	33	0	924844032	44	6226
2026-01-17 23:38:36.95	117.50	39.61	-36.1	-37.1	23.2	0.00e+00	121	32	0	927989760	44	6306
2026-01-17 23:38:37.93	117.27	39.83	-36.2	-37.1	23.2	0.00e+00	121	33	0	931135488	44	6316
2026-01-17 23:38:38.91	117.03	40.05	-36.1	-37.1	23.2	0.00e+00	120	32	0	933232640	44	6294
2026-01-17 23:38:39.88	116.80	40.27	-36.2	-37.1	23.3	0.00e+00	121	32	0	936378368	44	6347
2026-01-17 23:38:40.86	116.56	40.49	-35.8	-36.7	23.5	0.00e+00	119	32	0	939524096	44	6028
2026-01-17 23:38:41.84	116.31	40.71	-35.8	-36.7	23.5	0.00e+00	123	32	0	942669824	44	6055
2026-01-17 23:38:42.81	116.07	40.93	-35.7	-36.6	23.5	0.00e+00	125	32	0	945815552	44	5981
2026-01-17 23:38:43.79	115.82	41.16	-36.0	-37.0	23.2	0.00e+00	123	32	0	948961280	44	6226
2026-01-17 23:38:44.76	115.57	41.38	-36.2	-37.2	22.9	0.00e+00	120	32	0	952107008	44	6386
2026-01-17 23:38:45.75	115.31	41.61	-36.4	-37.4	22.8	0.00e+00	120	32	0	955252736	44	6531
2026-01-17 23:38:46.72	115.05	41.83	-36.6	-37.6	22.7	0.00e+00	121	32	0	958398464	44	6718
2026-01-17 23:38:47.70	114.78	42.06	-36.9	-37.9	22.6	0.00e+00	120	32	0	961544192	46	6138
2026-01-17 23:38:48.67	114.52	42.28	-37.0	-38.0	22.6	0.00e+00	122	32	0	964689920	46	6210
2026-01-17 23:38:49.65	114.24	42.51	-37.1	-38.1	22.3	0.00e+00	125	33	0	966787072	46	6343
2026-01-17 23:38:50.63	113.97	42.74	-37.3	-38.3	22.2	0.00e+00	121	33	0	969932800	46	6472
2026-01-17 23:38:51.60	113.69	42.97	-37.6	-38.7	21.9	0.00e+00	124	32	0	973078528	46	6739
2026-01-17 23:38:52.58	113.40	43.20	-37.9	-39.0	21.6	0.00e+00	121	32	0	976224256	48	6224
2026-01-17 23:38:53.55	113.12	43.43	-37.9	-39.0	21.5	0.00e+00	123	32	0	979369984	48	6259
2026-01-17 23:38:54.53	112.82	43.66	-38.1	-39.2	21.4	0.00e+00	122	33	0	982515712	48	6411
2026-01-17 23:38:55.51	112.53	43.89	-37.9	-39.0	21.6	0.00e+00	122	32	0	985661440	48	6244
2026-01-17 23:38:56.48	112.23	44.12	-37.6	-38.6	22.0	0.00e+00	120	33	0	988807168	48	5992
2026-01-17 23:38:57.46	111.92	44.35	-37.5	-38.6	22.0	0.00e+00	124	32	0	991952896	48	5942
2026-01-17 23:38:58.44	111.61	44.59	-37.6	-38.7	21.9	0.00e+00	123	32	0	995098624	48	5999
2026-01-17 23:38:59.41	111.30	44.82	-37.5	-38.6	21.9	0.00e+00	121	33	0	997195776	48	5972
2026-01-17 23:39:00.39	110.98	45.05	-37.6	-38.6	21.8	0.00e+00	118	33	0	1000341504	48	5982
2026-01-17 23:39:01.36	110.66	45.28	-37.6	-38.7	21.8	0.00e+00	124	33	0	1003487232	48	5996
2026-01-17 23:39:02.34	110.33	45.52	-37.5	-38.6	21.8	0.00e+00	124	32	0	1006632960	48	5969
2026-01-17 23:39:03.31	110.00	45.75	-37.8	-38.9	21.4	0.00e+00	120	32	0	1009778688	48	6163
2026-01-17 23:39:04.28	109.66	45.99	-37.9	-39.1	21.5	0.00e+00	122	32	0	1012924416	48	6287
2026-01-17 23:39:05.26	109.32	46.22	-38.0	-39.2	21.5	0.00e+00	121	32	0	1016070144	48	6353
2026-01-17 23:39:06.24	108.97	46.46	-37.9	-39.0	21.6	0.00e+00	123	32	0	1019215872	48	6243
2026-01-17 23:39:07.21	108.61	46.69	-37.7	-38.8	21.7	0.00e+00	122	32	0	1022361600	48	6078
2026-01-17 23:39:08.19	108.25	46.93	-37.5	-38.5	22.0	0.00e+00	122	32	0	1025507328	48	5922
2026-01-17 23:39:09.16	107.89	47.16	-37.4	-38.5	21.9	0.00e+00	123	33	0	1028653056	48	5861
2026-01-17 23:39:10.14	107.52	47.40	-37.5	-38.6	21.8	0.00e+00	123	32	0	1030750208	48	5933
2026-01-17 23:39:11.11	107.15	47.63	-37.7	-38.8	21.7	0.00e+00	122	32	0	1033895936	48	6068
2026-01-17 23:39:12.09	106.76	47.87	-37.9	-39.0	21.6	0.00e+00	123	32	0	1037041664	48	6255
2026-01-17 23:39:13.07	106.37	48.10	-37.6	-38.7	21.9	0.00e+00	125	33	0	1040187392	48	6045
2026-01-17 23:39:14.05	105.98	48.34	-37.9	-39.1	21.6	0.00e+00	122	32	0	1043333120	48	6285
2026-01-17 23:39:15.02	105.58	48.57	-38.3	-39.5	21.2	0.00e+00	122	32	0	1046478848	48	6590
2026-01-17 23:39:16.00	105.17	48.81	-38.1	-39.1	21.5	0.00e+00	120	32	0	1049624576	48	6350
2026-01-17 23:39:16.98	104.76	49.04	-38.1	-39.2	21.5	0.00e+00	122	32	0	1052770304	48	6380
2026-01-17 23:39:17.95	104.34	49.27	-37.5	-38.6	22.0	0.00e+00	124	33	0	1055916032	48	5930
2026-01-17 23:39:18.93	103.92	49.51	-37.4	-38.4	22.1	0.00e+00	120	32	0	1059061760	48	5832
2026-01-17 23:39:19.91	103.48	49.74	-37.2	-38.2	22.4	0.00e+00	123	32	0	1062207488	48	5666
2026-01-17 23:39:20.89	103.04	49.97	-37.2	-38.3	22.1	0.00e+00	124	33	0	1065353216	48	5732
2026-01-17 23:39:21.86	102.60	50.20	-37.1	-38.1	22.2	0.00e+00	124	33	0	1067450368	48	5626
2026-01-17 23:39:22.84	102.15	50.43	-37.1	-38.1	22.3	0.00e+00	122	33	0	1070596096	48	5658
2026-01-17 23:39:23.82	101.69	50.66	-37.0	-38.0	22.5	0.00e+00	121	32	0	1073741824	48	5575
2026-01-17 23:39:24.79	101.23	50.89	-36.7	-37.6	22.7	0.00e+00	122	32	0	1076887552	46	5978
2026-01-17 23:39:25.77	100.75	51.12	-36.6	-37.5	22.8	0.00e+00	124	32	0	1080033280	46	5912
2026-01-17 23:39:26.75	100.27	51.35	-36.1	-37.1	23.1	0.00e+00	123	33	0	1083179008	46	5606
2026-01-17 23:39:27.73	99.78	51.58	-36.0	-36.9	23.1	0.00e+00	121	33	0	1086324736	46	5508
2026-01-17 23:39:28.71	99.28	51.80	-36.0	-37.0	23.2	0.00e+00	121	32	0	1089470464	46	5531
2026-01-17 23:39:29.68	98.78	52.02	-36.0	-37.0	23.2	0.00e+00	124	33	0	1092616192	46	5571
2026-01-17 23:39:30.66	98.27	52.25	-36.1	-37.1	23.1	0.00e+00	121	33	0	1095761920	46	5619
2026-01-17 23:39:31.64	97.75	52.47	-36.1	-37.1	23.1	0.00e+00	121	32	0	1098907648	46	5595
2026-01-17 23:39:32.61	97.23	52.69	-36.0	-37.0	23.1	0.00e+00	122	33	0	1101004800	46	5544
2026-01-17 23:39:33.59	96.69	52.90	-36.0	-37.0	22.6	0.00e+00	122	33	0	1104150528	46	5571
2026-01-17 23:39:34.57	96.15	53.12	-36.1	-37.1	22.7	0.00e+00	123	32	0	1107296256	46	5623
2026-01-17 23:39:35.55	95.60	53.34	-36.0	-37.0	23.0	0.00e+00	124	32	0	1110441984	46	5574
2026-01-17 23:39:36.52	95.04	53.55	-35.9	-36.9	23.2	0.00e+00	122	32	0	1113587712	46	5477
2026-01-17 23:39:37.50	94.47	53.76	-35.7	-36.6	23.3	0.00e+00	123	32	0	1116733440	44	5980
2026-01-17 23:39:38.48	93.90	53.97	-35.7	-36.7	23.2	0.00e+00	123	32	0	1119879168	44	6026
2026-01-17 23:39:39.45	93.32	54.17	-35.8	-36.7	23.1	0.00e+00	123	32	0	1123024896	44	6061
2026-01-17 23:39:40.43	92.72	54.38	-36.0	-37.0	22.9	0.00e+00	126	32	0	1126170624	44	6239
2026-01-17 23:39:41.41	92.12	54.58	-35.8	-36.8	23.3	0.00e+00	125	32	0	1129316352	44	6103
2026-01-17 23:39:42.39	91.51	54.78	-35.7	-36.7	23.6	0.00e+00	120	33	0	1132462080	44	6027
2026-01-17 23:39:43.37	90.89	54.98	-35.2	-36.1	24.0	0.00e+00	122	32	0	1134559232	44	5599
2026-01-17 23:39:44.34	90.27	55.17	-35.0	-35.8	24.1	0.00e+00	121	33	0	1137704960	44	5462
2026-01-17 23:39:45.32	89.63	55.36	-35.1	-36.0	24.0	0.00e+00	121	32	0	1140850688	44	5540
2026-01-17 23:39:46.30	88.99	55.55	-35.0	-35.9	24.0	0.00e+00	122	32	0	1143996416	44	5502
2026-01-17 23:39:47.27	88.34	55.74	-34.7	-35.6	24.4	0.00e+00	121	33	0	1147142144	42	5941
2026-01-17 23:39:48.25	87.68	55.92	-34.6	-35.5	24.4	0.00e+00	124	32	0	1150287872	42	5879
2026-01-17 23:39:49.22	87.01	56.10	-34.3	-35.2	24.6	0.00e+00	123	32	0	1153433600	42	5672
2026-01-17 23:39:50.20	86.33	56.28	-34.3	-35.2	24.4	0.00e+00	123	33	0	1156579328	42	5693
2026-01-17 23:39:51.17	85.65	56.45	-34.3	-35.2	24.4	0.00e+00	122	33	0	1159725056	42	5699
2026-01-17 23:39:52.15	84.96	56.62	-34.3	-35.2	24.4	0.00e+00	123	32	0	1162870784	42	5679
2026-01-17 23:39:53.13	84.25	56.78	-34.4	-35.3	24.4	0.00e+00	119	32	0	1166016512	42	5775
2026-01-17 23:39:54.11	83.54	56.95	-34.6	-35.5	24.4	0.00e+00	121	32	0	1168113664	42	5896
2026-01-17 23:39:55.09	82.81	57.10	-34.6	-35.5	24.3	0.00e+00	122	33	0	1171259392	42	5887
2026-01-17 23:39:56.06	82.09	57.26	-34.8	-35.7	24.2	0.00e+00	121	33	0	1174405120	42	6045
2026-01-17 23:39:57.04	81.35	57.41	-34.4	-35.2	24.4	0.00e+00	122	33	0	1177550848	42	5723
2026-01-17 23:39:58.01	80.61	57.55	-34.1	-35.0	24.5	0.00e+00	123	33	0	1180696576	42	5575
2026-01-17 23:39:58.99	79.86	57.69	-33.9	-34.8	24.8	0.00e+00	123	32	0	1183842304	42	5418
2026-01-17 23:39:59.97	79.09	57.83	-33.9	-34.8	24.8	0.00e+00	121	32	0	1186988032	42	5436
2026-01-17 23:40:00.94	78.33	57.96	-34.1	-35.0	24.6	0.00e+00	122	33	0	1190133760	42	5587
2026-01-17 23:40:01.92	77.55	58.09	-34.3	-35.2	24.6	0.00e+00	122	33	0	1193279488	42	5670
2026-01-17 23:40:02.90	76.77	58.21	-34.1	-35.0	24.7	0.00e+00	123	33	0	1196425216	42	5570
2026-01-17 23:40:03.87	75.98	58.33	-34.1	-35.0	24.9	0.00e+00	123	32	0	1199570944	42	5546
2026-01-17 23:40:04.85	75.18	58.45	-34.2	-35.1	24.8	0.00e+00	121	33	0	1202716672	42	5610
2026-01-17 23:40:05.83	74.38	58.55	-34.3	-35.2	24.6	0.00e+00	120	32	0	1205862400	42	5690
2026-01-17 23:40:06.81	73.57	58.66	-34.4	-35.2	24.6	0.00e+00	123	32	0	1207959552	42	5723
2026-01-17 23:40:07.79	72.75	58.76	-34.3	-35.2	24.6	0.00e+00	122	33	0	1211105280	42	5705
2026-01-17 23:40:08.76	71.93	58.85	-34.4	-35.3	24.3	0.00e+00	122	32	0	1214251008	42	5760
2026-01-17 23:40:09.74	71.10	58.94	-34.6	-35.5	24.3	0.00e+00	123	32	0	1217396736	42	5869
2026-01-17 23:40:10.72	70.26	59.02	-34.4	-35.3	24.4	0.00e+00	122	32	0	1220542464	42	5770
2026-01-17 23:40:11.70	69.42	59.10	-34.5	-35.4	24.4	0.00e+00	121	32	0	1223688192	42	5798
2026-01-17 23:40:12.67	68.59	59.17	-34.5	-35.4	24.0	0.00e+00	124	33	0	1226833920	42	5816
2026-01-17 23:40:13.65	67.74	59.23	-34.7	-35.7	23.9	0.00e+00	121	33	0	1229979648	42	6025
2026-01-17 23:40:14.62	66.89	59.29	-34.9	-35.8	24.1	0.00e+00	123	33	0	1233125376	42	6099
2026-01-17 23:40:15.60	66.03	59.34	-34.9	-35.9	24.1	0.00e+00	124	32	0	1236271104	42	6156
2026-01-17 23:40:16.57	65.18	59.39	-35.0	-36.0	23.9	0.00e+00	122	32	0	1239416832	42	6216
2026-01-17 23:40:17.55	64.32	59.43	-35.1	-36.0	23.9	0.00e+00	122	32	0	1241513984	42	6255
2026-01-17 23:40:18.52	63.46	59.47	-34.9	-35.9	24.1	0.00e+00	120	33	0	1244659712	42	6145
2026-01-17 23:40:19.50	62.59	59.50	-34.5	-35.4	24.6	0.00e+00	122	33	0	1247805440	42	5800
2026-01-17 23:40:20.48	61.72	59.53	-33.8	-34.7	25.0	0.00e+00	121	32	0	1250951168	42	5369
2026-01-17 23:40:21.46	60.85	59.54	-34.0	-34.8	24.9	0.00e+00	120	33	0	1254096896	42	5463
2026-01-17 23:40:22.44	59.97	59.56	-34.0	-34.9	24.8	0.00e+00	121	32	0	1257242624	42	5505
2026-01-17 23:40:23.42	59.10	59.56	-33.8	-34.7	25.0	0.00e+00	123	32	0	1260388352	42	5367
2026-01-17 23:40:24.40	58.23	59.56	-33.5	-34.4	25.2	0.00e+00	121	32	0	1263534080	40	5813
2026-01-17 23:40:25.38	57.35	59.56	-33.5	-34.4	25.2	0.00e+00	122	32	0	1266679808	40	5816
2026-01-17 23:40:26.35	56.49	59.54	-33.8	-34.6	25.0	0.00e+00	121	32	0	1269825536	40	5974
2026-01-17 23:40:27.33	55.62	59.53	-34.3	-35.2	24.5	0.00e+00	122	32	0	1272971264	40	6410
2026-01-17 23:40:28.31	54.75	59.50	-34.4	-35.3	24.5	0.00e+00	121	32	0	1275068416	40	6459
2026-01-17 23:40:29.29	53.88	59.47	-34.3	-35.2	24.6	0.00e+00	122	33	0	1278214144	40	6372
2026-01-17 23:40:30.26	53.02	59.44	-34.2	-35.1	24.4	0.00e+00	122	33	0	1281359872	40	6306
2026-01-17 23:40:31.24	52.16	59.39	-34.5	-35.5	24.0	0.00e+00	122	32	0	1284505600	40	6588
2026-01-17 23:40:32.22	51.30	59.35	-34.9	-35.9	24.1	0.00e+00	121	32	0	1287651328	42	6157
2026-01-17 23:40:33.19	50.45	59.29	-34.5	-35.4	24.5	0.00e+00	122	33	0	1290797056	42	5831
2026-01-17 23:40:34.17	49.59	59.23	-34.3	-35.2	24.8	0.00e+00	123	32	0	1293942784	42	5660
2026-01-17 23:40:35.15	48.74	59.17	-34.4	-35.2	24.7	0.00e+00	122	32	0	1297088512	42	5712
2026-01-17 23:40:36.12	47.91	59.10	-34.1	-35.0	24.8	0.00e+00	126	32	0	1300234240	42	5555
2026-01-17 23:40:37.10	47.07	59.02	-33.8	-34.6	25.0	0.00e+00	123	32	0	1303379968	40	5969
2026-01-17 23:40:38.08	46.23	58.94	-34.4	-35.3	24.6	0.00e+00	123	32	0	1306525696	40	6459
2026-01-17 23:40:39.06	45.40	58.85	-34.7	-35.6	24.4	0.00e+00	124	32	0	1308622848	40	6704
2026-01-17 23:40:40.04	44.58	58.76	-34.7	-35.6	24.4	0.00e+00	121	32	0	1311768576	42	5973
2026-01-17 23:40:41.01	43.77	58.66	-34.8	-35.7	24.2	0.00e+00	120	32	0	1314914304	42	6046
2026-01-17 23:40:41.99	42.96	58.56	-34.6	-35.5	24.2	0.00e+00	123	32	0	1318060032	42	5894
2026-01-17 23:40:42.97	42.15	58.45	-34.7	-35.6	24.3	0.00e+00	123	32	0	1321205760	42	5936
2026-01-17 23:40:43.94	41.36	58.34	-34.9	-35.8	24.1	0.00e+00	122	33	0	1324351488	42	6078
2026-01-17 23:40:44.92	40.57	58.22	-35.2	-36.1	24.1	0.00e+00	117	32	0	1327497216	42	6318
2026-01-17 23:40:45.89	39.79	58.10	-35.1	-36.0	24.1	0.00e+00	126	33	0	1330642944	42	6267
2026-01-17 23:40:46.87	39.01	57.97	-35.3	-36.3	23.9	0.00e+00	121	33	0	1333788672	42	6435
2026-01-17 23:40:47.84	38.25	57.84	-34.8	-35.7	24.3	0.00e+00	120	32	0	1336934400	42	6029
2026-01-17 23:40:48.81	37.50	57.70	-34.7	-35.6	24.3	0.00e+00	124	32	0	1339031552	42	5987
2026-01-17 23:40:49.79	36.74	57.56	-34.8	-35.7	24.3	0.00e+00	121	33	0	1342177280	42	6018
2026-01-17 23:40:50.77	35.99	57.42	-34.9	-35.8	24.3	0.00e+00	119	33	0	1345323008	42	6071
2026-01-17 23:40:51.75	35.26	57.27	-35.0	-36.0	24.1	0.00e+00	124	32	0	1348468736	42	6222
2026-01-17 23:40:52.73	34.53	57.11	-34.8	-35.7	24.2	0.00e+00	121	32	0	1351614464	42	6026
2026-01-17 23:40:53.71	33.80	56.95	-35.4	-36.4	23.8	0.00e+00	123	33	0	1354760192	42	6499
2026-01-17 23:40:54.68	33.10	56.79	-35.8	-36.7	23.4	0.00e+00	122	32	0	1357905920	44	6045
2026-01-17 23:40:55.65	32.40	56.63	-35.6	-36.6	23.6	0.00e+00	123	32	0	1361051648	44	5949
2026-01-17 23:40:56.63	31.70	56.46	-35.6	-36.6	23.5	0.00e+00	122	32	0	1364197376	44	5953
2026-01-17 23:40:57.61	31.01	56.29	-34.9	-35.9	24.0	0.00e+00	124	33	0	1367343104	44	5468
2026-01-17 23:40:58.58	30.34	56.11	-34.7	-35.6	24.4	0.00e+00	122	33	0	1370488832	42	5954
2026-01-17 23:40:59.56	29.67	55.93	-35.0	-35.9	24.1	0.00e+00	120	32	0	1373634560	42	6180
2026-01-17 23:41:00.54	29.01	55.75	-35.8	-36.8	23.5	0.00e+00	123	32	0	1376780288	42	6806
2026-01-17 23:41:01.52	28.36	55.57	-36.3	-37.3	23.0	0.00e+00	122	32	0	1378877440	44	6427
2026-01-17 23:41:02.49	27.72	55.38	-36.5	-37.5	22.7	0.00e+00	122	32	0	1382023168	44	6579
2026-01-17 23:41:03.47	27.08	55.19	-36.3	-37.4	22.2	0.00e+00	124	33	0	1385168896	44	6519
2026-01-17 23:41:04.45	26.45	54.99	-35.6	-36.6	23.0	0.00e+00	119	32	0	1388314624	44	5990
2026-01-17 23:41:05.42	25.84	54.80	-35.3	-36.2	23.8	0.00e+00	122	32	0	1391460352	44	5698
2026-01-17 23:41:06.40	25.23	54.60	-35.4	-36.3	23.8	0.00e+00	120	33	0	1394606080	44	5766
2026-01-17 23:41:07.38	24.63	54.40	-36.0	-36.9	23.4	0.00e+00	121	32	0	1397751808	44	6190
2026-01-17 23:41:08.36	24.04	54.19	-36.6	-37.6	22.7	0.00e+00	122	33	0	1400897536	44	6705
2026-01-17 23:41:09.33	23.46	53.99	-37.2	-38.3	22.0	0.00e+00	121	32	0	1404043264	46	6454
2026-01-17 23:41:10.31	22.88	53.78	-37.6	-38.8	21.2	0.00e+00	121	32	0	1407188992	46	6853
2026-01-17 23:41:11.29	22.31	53.57	-37.6	-38.7	21.5	0.00e+00	123	32	0	1410334720	46	6757
2026-01-17 23:41:12.26	21.76	53.36	-36.2	-37.1	23.0	0.00e+00	123	32	0	1412431872	46	5654
2026-01-17 23:41:13.24	21.21	53.14	-35.6	-36.5	23.8	0.00e+00	123	32	0	1415577600	44	5872
2026-01-17 23:41:14.22	20.67	52.93	-34.9	-35.8	24.0	0.00e+00	121	32	0	1418723328	44	5429
2026-01-17 23:41:15.19	20.14	52.71	-35.8	-36.8	23.3	0.00e+00	120	33	0	1421869056	44	6068
2026-01-17 23:41:16.17	19.61	52.49	-37.1	-38.1	22.2	0.00e+00	122	32	0	1425014784	46	6346
2026-01-17 23:41:17.15	19.09	52.27	-37.9	-39.0	21.4	0.00e+00	122	32	0	1428160512	46	6982
2026-01-17 23:41:18.13	18.58	52.05	-36.7	-37.7	22.4	0.00e+00	121	33	0	1431306240	48	5402
2026-01-17 23:41:19.10	18.08	51.83	-35.7	-36.7	23.2	0.00e+00	123	33	0	1434451968	46	5357
2026-01-17 23:41:20.08	17.58	51.60	-35.6	-36.5	23.0	0.00e+00	121	32	0	1437597696	44	5902
2026-01-17 23:41:21.05	17.10	51.38	-35.2	-36.2	23.2	0.00e+00	124	32	0	1440743424	44	5678
2026-01-17 23:41:22.03	16.61	51.15	-35.2	-36.2	23.4	0.00e+00	122	33	0	1443889152	44	5672
2026-01-17 23:41:23.01	16.14	50.92	-35.4	-36.3	23.3	0.00e+00	123	33	0	1445986304	44	5791
2026-01-17 23:41:23.99	15.67	50.69	-36.6	-37.6	22.6	0.00e+00	124	33	0	1449132032	44	6710
2026-01-17 23:41:24.96	15.22	50.47	-37.5	-38.6	21.9	0.00e+00	122	32	0	1452277760	46	6657
2026-01-17 23:41:25.94	14.76	50.24	-37.5	-38.6	21.4	0.00e+00	123	32	0	1455423488	46	6704
2026-01-17 23:41:26.92	14.32	50.00	-37.4	-38.6	21.1	0.00e+00	124	33	0	1458569216	46	6654
2026-01-17 23:41:27.89	13.88	49.77	-37.0	-38.0	21.9	0.00e+00	121	32	0	1461714944	46	6260
2026-01-17 23:41:28.87	13.45	49.54	-36.2	-37.1	22.9	0.00e+00	124	33	0	1464860672	46	5656
2026-01-17 23:41:29.85	13.02	49.31	-36.2	-37.1	23.2	0.00e+00	121	33	0	1468006400	46	5658
2026-01-17 23:41:30.83	12.60	49.07	-36.7	-37.6	22.8	0.00e+00	123	33	0	1471152128	46	5993
2026-01-17 23:41:31.80	12.20	48.84	-37.3	-38.4	22.2	0.00e+00	121	32	0	1474297856	46	6499
2026-01-17 23:41:32.77	11.79	48.61	-37.8	-38.9	21.8	0.00e+00	122	32	0	1477443584	46	6920
2026-01-17 23:41:33.75	11.39	48.38	-38.1	-39.2	21.4	0.00e+00	124	33	0	1479540736	48	6418
2026-01-17 23:41:34.72	11.00	48.14	-38.0	-39.1	21.5	0.00e+00	122	32	0	1482686464	48	6321
2026-01-17 23:41:35.70	10.61	47.91	-37.7	-38.8	21.6	0.00e+00	120	33	0	1485832192	48	6105
2026-01-17 23:41:36.68	10.23	47.67	-37.3	-38.3	22.0	0.00e+00	119	33	0	1488977920	48	5783
2026-01-17 23:41:37.66	9.85	47.44	-36.7	-37.7	22.9	0.00e+00	120	33	0	1492123648	48	5374
2026-01-17 23:41:38.63	9.48	47.21	-35.9	-36.8	23.4	0.00e+00	122	32	0	1495269376	46	5452
2026-01-17 23:41:39.61	9.12	46.97	-36.7	-37.7	22.5	0.00e+00	121	32	0	1498415104	46	5996
2026-01-17 23:41:40.58	8.76	46.74	-37.9	-39.0	21.2	0.00e+00	120	32	0	1501560832	46	6967
2026-01-17 23:41:41.56	8.41	46.50	-38.4	-39.6	20.9	0.00e+00	121	32	0	1504706560	48	6688
2026-01-17 23:41:42.54	8.06	46.27	-38.5	-39.6	20.9	0.00e+00	123	32	0	1507852288	48	6677
2026-01-17 23:41:43.51	7.72	46.03	-38.5	-39.6	20.9	0.00e+00	123	32	0	1510998016	48	6718
2026-01-17 23:41:44.49	7.38	45.80	-38.0	-39.1	21.4	0.00e+00	127	32	0	1513095168	48	6292
2026-01-17 23:41:45.47	7.04	45.57	-37.8	-38.9	21.4	0.00e+00	120	32	0	1516240896	48	6165
2026-01-17 23:41:46.44	6.72	45.33	-37.2	-38.2	22.1	0.00e+00	126	32	0	1519386624	48	5715
2026-01-17 23:41:47.42	6.39	45.10	-36.6	-37.6	22.8	0.00e+00	124	33	0	1522532352	46	5929
2026-01-17 23:41:48.40	6.07	44.87	-35.9	-36.8	23.4	0.00e+00	120	32	0	1525678080	46	5453
2026-01-17 23:41:49.38	5.76	44.63	-35.9	-36.8	23.4	0.00e+00	125	33	0	1528823808	46	5466
2026-01-17 23:41:50.36	5.45	44.40	-36.7	-37.7	22.7	0.00e+00	123	33	0	1531969536	46	6003
2026-01-17 23:41:51.34	5.14	44.17	-37.8	-38.9	21.5	0.00e+00	121	33	0	1535115264	46	6938
2026-01-17 23:41:52.31	4.84	43.94	-38.7	-39.8	20.4	0.00e+00	121	32	0	1538260992	48	6878
2026-01-17 23:41:53.29	4.55	43.71	-38.3	-39.6	20.0	0.00e+00	123	32	0	1541406720	50	5941
2026-01-17 23:41:54.27	4.25	43.48	-37.7	-38.8	20.5	0.00e+00	121	32	0	1544552448	48	6128
2026-01-17 23:41:55.24	3.97	43.25	-37.2	-38.3	21.3	0.00e+00	122	32	0	1547698176	48	5737
2026-01-17 23:41:56.22	3.68	43.02	-37.2	-38.2	21.8	0.00e+00	123	33	0	1549795328	48	5683
2026-01-17 23:41:57.20	3.40	42.79	-37.6	-38.6	21.9	0.00e+00	122	33	0	1552941056	48	5972
2026-01-17 23:41:58.17	3.13	42.57	-37.7	-38.7	21.8	0.00e+00	122	33	0	1556086784	48	6053
2026-01-17 23:41:59.15	2.86	42.34	-38.4	-39.6	21.2	0.00e+00	122	32	0	1559232512	48	6655
2026-01-17 23:42:00.13	2.59	42.11	-38.4	-39.6	21.2	0.00e+00	123	33	0	1562378240	48	6676
2026-01-17 23:42:01.11	2.32	41.88	-38.1	-39.3	21.4	0.00e+00	119	32	0	1565523968	48	6427
2026-01-17 23:42:02.08	2.07	41.66	-38.2	-39.3	21.4	0.00e+00	120	33	0	1568669696	48	6449
2026-01-17 23:42:03.06	1.81	41.44	-38.0	-39.1	21.5	0.00e+00	124	33	0	1571815424	48	6315
2026-01-17 23:42:04.04	1.56	41.21	-38.0	-39.1	21.5	0.00e+00	122	33	0	1574961152	48	6314
2026-01-17 23:42:05.02	1.30	40.99	-37.8	-38.9	21.8	0.00e+00	123	32	0	1578106880	48	6142
2026-01-17 23:42:05.99	1.06	40.77	-37.0	-38.0	22.4	0.00e+00	124	32	0	1581252608	48	5590
2026-01-17 23:42:06.97	0.82	40.55	-36.6	-37.6	22.6	0.00e+00	123	32	0	1583349760	46	5950
2026-01-17 23:42:07.95	0.58	40.32	-36.1	-37.0	23.1	0.00e+00	120	32	0	1586495488	46	5571
2026-01-17 23:42:08.92	0.34	40.11	-35.7	-36.6	23.4	0.00e+00	121	33	0	1589641216	44	5969
2026-01-17 23:42:09.90	0.11	39.89	-35.0	-35.9	24.2	0.00e+00	124	33	0	1592786944	44	5478
2026-01-17 23:42:10.88	359.88	39.67	-35.0	-35.8	24.2	0.00e+00	120	33	0	1595932672	44	5466
2026-01-17 23:42:11.85	359.65	39.45	-35.6	-36.5	23.5	0.00e+00	123	32	0	1599078400	44	5895
2026-01-17 23:42:12.83	359.43	39.24	-36.6	-37.6	22.7	0.00e+00	121	33	0	1602224128	44	6679
2026-01-17 23:42:13.81	359.21	39.02	-37.4	-38.5	22.1	0.00e+00	121	32	0	1605369856	46	6599
2026-01-17 23:42:14.78	358.99	38.81	-37.9	-39.0	21.6	0.00e+00	121	32	0	1608515584	48	6223
2026-01-17 23:42:15.76	358.78	38.59	-37.8	-38.9	21.7	0.00e+00	123	33	0	1611661312	48	6153
2026-01-17 23:42:16.74	358.57	38.38	-37.5	-38.6	22.0	0.00e+00	123	32	0	1614807040	48	5930
2026-01-17 23:42:17.72	358.36	38.17	-37.3	-38.3	22.2	0.00e+00	123	33	0	1617952768	48	5787
2026-01-17 23:42:18.70	358.15	37.95	-36.7	-37.7	22.7	0.00e+00	123	32	0	1620049920	46	6028
2026-01-17 23:42:19.67	357.95	37.75	-36.2	-37.2	23.1	0.00e+00	122	32	0	1623195648	46	5678
2026-01-17 23:42:20.65	357.74	37.54	-36.1	-37.1	23.3	0.00e+00	121	33	0	1626341376	46	5602
2026-01-17 23:42:21.62	357.55	37.33	-35.9	-36.9	23.4	0.00e+00	122	33	0	1629487104	46	5491
2026-01-17 23:42:22.60	357.35	37.12	-35.7	-36.7	23.5	0.00e+00	121	33	0	1632632832	46	5360
2026-01-17 23:42:23.58	357.16	36.91	-35.2	-36.2	23.8	0.00e+00	120	33	0	1635778560	44	5664
2026-01-17 23:42:24.56	356.97	36.71	-35.0	-35.9	23.8	0.00e+00	120	33	0	1638924288	44	5497
2026-01-17 23:42:25.54	356.78	36.50	-34.9	-35.8	24.0	0.00e+00	119	32	0	1642070016	44	5434
2026-01-17 23:42:26.51	356.59	36.30	-34.8	-35.7	24.2	0.00e+00	121	32	0	1645215744	42	5998
2026-01-17 23:42:27.49	356.41	36.10	-34.8	-35.7	24.4	0.00e+00	124	32	0	1648361472	42	6010
2026-01-17 23:42:28.46	356.23	35.90	-35.2	-36.1	24.0	0.00e+00	122	33	0	1650458624	42	6308
2026-01-17 23:42:29.44	356.05	35.69	-35.4	-36.4	23.7	0.00e+00	123	32	0	1653604352	42	6501
2026-01-17 23:42:30.42	355.87	35.49	-35.9	-36.8	23.4	0.00e+00	122	33	0	1656750080	44	6116
2026-01-17 23:42:31.39	355.70	35.30	-36.1	-37.1	23.2	0.00e+00	119	32	0	1659895808	44	6331
2026-01-17 23:42:32.37	355.52	35.10	-36.3	-37.3	23.1	0.00e+00	122	32	0	1663041536	44	6463
2026-01-17 23:42:33.35	355.35	34.90	-36.2	-37.2	23.1	0.00e+00	122	33	0	1666187264	44	6352
2026-01-17 23:42:34.33	355.19	34.70	-36.2	-37.1	23.1	0.00e+00	121	33	0	1669332992	44	6348
2026-01-17 23:42:35.31	355.02	34.51	-35.8	-36.8	23.4	0.00e+00	121	33	0	1672478720	44	6076
2026-01-17 23:42:36.28	354.86	34.31	-35.8	-36.7	23.4	0.00e+00	122	33	0	1675624448	44	6049
2026-01-17 23:42:37.26	354.69	34.12	-35.4	-36.4	23.7	0.00e+00	124	32	0	1678770176	44	5795
2026-01-17 23:42:38.24	354.53	33.93	-35.2	-36.1	23.7	0.00e+00	123	32	0	1681915904	44	5654
2026-01-17 23:42:39.22	354.37	33.74	-34.9	-35.8	23.9	0.00e+00	120	33	0	1685061632	44	5448
2026-01-17 23:42:40.19	354.22	33.55	-34.8	-35.7	23.9	0.00e+00	123	33	0	1687158784	44	5398
2026-01-17 23:42:41.17	354.06	33.36	-35.0	-36.0	23.8	0.00e+00	121	32	0	1690304512	44	5537
2026-01-17 23:42:42.14	353.91	33.17	-35.2	-36.2	23.6	0.00e+00	122	32	0	1693450240	44	5666
2026-01-17 23:42:43.12	353.76	32.98	-35.3	-36.2	23.6	0.00e+00	123	33	0	1696595968	44	5719
2026-01-17 23:42:44.09	353.61	32.79	-35.4	-36.4	23.5	0.00e+00	123	33	0	1699741696	44	5803
2026-01-17 23:42:45.07	353.46	32.61	-35.4	-36.3	23.6	0.00e+00	120	33	0	1702887424	44	5791
2026-01-17 23:42:46.05	353.32	32.42	-35.4	-36.4	23.7	0.00e+00	122	33	0	1706033152	44	5810
2026-01-17 23:42:47.02	353.17	32.24	-35.2	-36.1	23.9	0.00e+00	124	33	0	1709178880	44	5639
2026-01-17 23:42:48.00	353.03	32.06	-35.1	-36.0	23.9	0.00e+00	121	33	0	1712324608	44	5544
2026-01-17 23:42:48.98	352.89	31.87	-35.0	-35.9	24.1	0.00e+00	121	33	0	1715470336	44	5515
2026-01-17 23:42:49.95	352.75	31.69	-35.0	-35.9	24.1	0.00e+00	123	33	0	1718616064	44	5489
2026-01-17 23:42:50.93	352.61	31.51	-35.0	-35.9	24.0	0.00e+00	124	33	0	1721761792	44	5506
2026-01-17 23:42:51.91	352.48	31.33	-35.1	-36.0	23.9	0.00e+00	122	33	0	1723858944	44	5593
2026-01-17 23:42:52.88	352.34	31.15	-34.9	-35.8	24.0	0.00e+00	123	33	0	1727004672	44	5466
2026-01-17 23:42:53.86	352.21	30.98	-34.7	-35.6	24.3	0.00e+00	122	33	0	1730150400	42	5982
2026-01-17 23:42:54.83	352.08	30.80	-34.7	-35.6	24.3	0.00e+00	122	32	0	1733296128	42	5951
2026-01-17 23:42:55.81	351.95	30.62	-34.7	-35.6	24.2	0.00e+00	122	32	0	1736441856	42	5968
2026-01-17 23:42:56.79	351.82	30.45	-34.6	-35.5	24.3	0.00e+00	122	33	0	1739587584	42	5885
2026-01-17 23:42:57.76	351.69	30.28	-34.6	-35.5	24.3	0.00e+00	122	33	0	1742733312	42	5914
2026-01-17 23:42:58.74	351.57	30.10	-34.8	-35.7	24.1	0.00e+00	121	32	0	1745879040	42	6045
2026-01-17 23:42:59.71	351.44	29.93	-34.9	-35.9	24.0	0.00e+00	125	32	0	1749024768	42	6158
2026-01-17 23:43:00.69	351.32	29.76	-35.1	-36.0	24.0	0.00e+00	124	32	0	1752170496	42	6273
2026-01-17 23:43:01.66	351.20	29.59	-35.2	-36.2	23.9	0.00e+00	123	33	0	1754267648	42	6376
2026-01-17 23:43:02.63	351.08	29.42	-35.2	-36.2	23.9	0.00e+00	124	33	0	1757413376	42	6354
2026-01-17 23:43:03.61	350.96	29.25	-35.3	-36.3	23.8	0.00e+00	123	33	0	1760559104	42	6430
2026-01-17 23:43:04.59	350.84	29.08	-35.3	-36.2	23.9	0.00e+00	119	33	0	1763704832	42	6410
2026-01-17 23:43:05.57	350.73	28.92	-35.4	-36.3	23.8	0.00e+00	124	33	0	1766850560	42	6494
2026-01-17 23:43:06.55	350.61	28.75	-35.4	-36.4	23.7	0.00e+00	123	33	0	1769996288	42	6536
2026-01-17 23:43:07.52	350.50	28.59	-35.6	-36.6	23.5	0.00e+00	123	33	0	1773142016	42	6666
2026-01-17 23:43:08.50	350.38	28.42	-35.6	-36.6	23.5	0.00e+00	121	33	0	1776287744	42	6683
2026-01-17 23:43:09.48	350.27	28.26	-35.6	-36.6	23.4	0.00e+00	119	33	0	1779433472	42	6688
2026-01-17 23:43:10.45	350.16	28.09	-35.5	-36.5	23.5	0.00e+00	124	33	0	1782579200	42	6593
2026-01-17 23:43:11.43	350.05	27.93	-35.4	-36.3	23.6	0.00e+00	123	33	0	1785724928	42	6482
2026-01-17 23:43:12.40	349.94	27.77	-35.3	-36.2	23.6	0.00e+00	119	33	0	1787822080	42	6408
2026-01-17 23:43:13.38	349.84	27.61	-35.1	-36.0	23.8	0.00e+00	122	33	0	1790967808	42	6269
2026-01-17 23:43:14.36	349.73	27.45	-34.9	-35.8	24.0	0.00e+00	121	33	0	1794113536	42	6120
2026-01-17 23:43:15.33	349.63	27.29	-35.0	-36.0	23.9	0.00e+00	123	33	0	1797259264	42	6222
2026-01-17 23:43:16.31	349.52	27.14	-34.5	-35.4	24.4	0.00e+00	122	32	0	1800404992	42	5810
2026-01-17 23:43:17.28	349.42	26.98	-34.0	-34.9	24.9	0.00e+00	123	33	0	1803550720	42	5471
2026-01-17 23:43:18.26	349.32	26.82	-33.8	-34.7	25.0	0.00e+00	122	33	0	1806696448	42	5373
2026-01-17 23:43:19.24	349.22	26.67	-33.7	-34.6	25.1	0.00e+00	122	33	0	1809842176	42	5293
2026-01-17 23:43:20.21	349.12	26.51	-33.6	-34.5	25.1	0.00e+00	121	33	0	1812987904	40	5880
2026-01-17 23:43:21.19	349.02	26.36	-33.6	-34.5	25.1	0.00e+00	121	33	0	1816133632	40	5902
2026-01-17 23:43:22.16	348.92	26.21	-33.6	-34.4	25.2	0.00e+00	120	33	0	1819279360	40	5854
2026-01-17 23:43:23.14	348.82	26.05	-33.6	-34.4	25.1	0.00e+00	123	33	0	1821376512	40	5852
2026-01-17 23:43:24.12	348.73	25.90	-33.6	-34.5	25.1	0.00e+00	123	33	0	1824522240	40	5890
2026-01-17 23:43:25.10	348.63	25.75	-33.8	-34.7	24.9	0.00e+00	121	33	0	1827667968	40	6016
2026-01-17 23:43:26.07	348.54	25.60	-33.8	-34.7	24.9	0.00e+00	121	33	0	1830813696	40	6011
2026-01-17 23:43:27.05	348.44	25.45	-33.8	-34.6	24.9	0.00e+00	121	33	0	1833959424	40	5977
2026-01-17 23:43:28.03	348.35	25.30	-33.9	-34.8	24.8	0.00e+00	125	33	0	1837105152	40	6066
2026-01-17 23:43:29.01	348.26	25.15	-34.0	-34.8	24.8	0.00e+00	122	32	0	1840250880	40	6127
2026-01-17 23:43:29.99	348.17	25.01	-33.9	-34.8	24.8	0.00e+00	122	33	0	1843396608	40	6109
2026-01-17 23:43:30.97	348.08	24.86	-34.1	-34.9	24.8	0.00e+00	122	33	0	1846542336	40	6192
2026-01-17 23:43:31.95	347.99	24.71	-34.0	-34.9	24.8	0.00e+00	120	32	0	1849688064	40	6182
2026-01-17 23:43:32.93	347.90	24.57	-34.2	-35.0	24.7	0.00e+00	121	33	0	1852833792	40	6275
2026-01-17 23:43:33.91	347.82	24.42	-34.1	-35.0	24.8	0.00e+00	122	33	0	1855979520	40	6215
2026-01-17 23:43:34.88	347.73	24.28	-34.2	-35.1	24.6	0.00e+00	123	33	0	1859125248	40	6282
2026-01-17 23:43:35.86	347.64	24.14	-34.2	-35.1	24.7	0.00e+00	122	33	0	1861222400	40	6294
2026-01-17 23:43:36.84	347.56	24.00	-34.3	-35.2	24.5	0.00e+00	121	33	0	1864368128	40	6370
2026-01-17 23:43:37.82	347.48	23.85	-34.3	-35.2	24.5	0.00e+00	124	33	0	1867513856	40	6400
2026-01-17 23:43:38.79	347.39	23.71	-34.6	-35.5	24.3	0.00e+00	121	33	0	1870659584	40	6589
2026-01-17 23:43:39.77	347.31	23.57	-34.6	-35.5	24.3	0.00e+00	121	32	0	1873805312	40	6603
2026-01-17 23:43:40.74	347.23	23.43	-34.6	-35.5	24.3	0.00e+00	122	33	0	1876951040	40	6627
2026-01-17 23:43:41.72	347.15	23.30	-34.6	-35.6	24.3	0.00e+00	122	33	0	1880096768	40	6654
2026-01-17 23:43:42.70	347.07	23.16	-34.7	-35.6	24.2	0.00e+00	121	33	0	1883242496	40	6676
2026-01-17 23:43:43.68	346.99	23.02	-34.7	-35.6	24.2	0.00e+00	123	33	0	1886388224	42	5986
