passes_logs/2026/01/17/R4.6S_Anadyr/R4.6S_Anadyr__20260117_204457_SUOMI_NPP_rec.log

#Pass ID: 20260117_204457_SUOMI NPP
#Satellite: SUOMI NPP
#Configuration: NPP
#almurnet v.1.7.20251203
#Start time: 2026-01-17 20:45:01

#Version: 2.2.20231116
#Station: R4.6S_Anadyr
#Location: 177.4865 lon 64.73178 lat
#TLE: 1 37849U 11061A   26016.58419598  .00000058  00000+0  48257-4 0  9996
#TLE: 2 37849  98.7812 318.6192 0002422  60.8544 299.2874 14.19525580736934

#Time	Az	El	Level	Level2	SNR	BER	BlckErr	Temp	State	Recorded	gain1	gain2
2026-01-17 20:45:01.17	74.47	0.17	-49.1	-62.8	3.3	1.54e+00	0	29	0	0	60	49904
2026-01-17 20:45:02.18	74.40	0.22	-48.9	-64.1	3.6	1.51e+00	0	29	104	0	60	57703
2026-01-17 20:45:03.19	74.33	0.28	-48.8	-64.0	3.6	1.51e+00	0	29	104	0	60	57166
2026-01-17 20:45:04.20	74.26	0.33	-48.8	-64.0	3.6	1.51e+00	0	29	104	0	60	57049
2026-01-17 20:45:05.21	74.19	0.38	-48.8	-64.0	3.6	1.51e+00	0	29	104	0	60	57006
2026-01-17 20:45:06.22	74.11	0.43	-48.8	-64.0	3.6	1.51e+00	0	29	104	0	60	57033
2026-01-17 20:45:07.23	74.04	0.48	-48.8	-64.0	3.6	1.51e+00	0	29	104	0	60	57445
2026-01-17 20:45:08.24	73.97	0.53	-48.8	-64.0	3.6	1.51e+00	0	29	104	0	60	57020
2026-01-17 20:45:09.25	73.90	0.58	-48.8	-64.0	3.6	1.51e+00	0	29	104	0	60	57093
2026-01-17 20:45:10.26	73.82	0.63	-48.7	-63.9	3.5	1.51e+00	0	29	104	0	60	56815
2026-01-17 20:45:11.27	73.75	0.68	-48.6	-63.8	3.6	1.51e+00	0	29	104	0	60	56299
2026-01-17 20:45:12.28	73.68	0.74	-48.5	-63.7	3.6	1.51e+00	0	30	104	0	60	55312
2026-01-17 20:45:13.29	73.60	0.79	-48.2	-63.5	3.6	1.51e+00	0	29	104	0	60	54180
2026-01-17 20:45:14.30	73.53	0.84	-48.2	-63.3	3.6	1.51e+00	0	30	104	0	60	53126
2026-01-17 20:45:15.31	73.45	0.89	-47.8	-62.9	3.6	1.51e+00	0	29	104	0	60	50382
2026-01-17 20:45:16.32	73.38	0.94	-47.1	-62.3	3.6	1.51e+00	0	29	104	0	60	46972
2026-01-17 20:45:17.33	73.30	0.99	-47.1	-62.3	3.6	1.51e+00	0	30	104	0	60	47106
2026-01-17 20:45:18.34	73.23	1.04	-47.1	-62.3	3.6	1.51e+00	0	30	104	0	60	46860
2026-01-17 20:45:19.35	73.15	1.10	-47.1	-62.3	3.6	1.51e+00	0	30	104	0	60	47049
2026-01-17 20:45:20.36	73.07	1.15	-47.1	-62.3	3.6	1.51e+00	0	30	104	0	60	46849
2026-01-17 20:45:21.37	73.00	1.20	-47.1	-62.2	3.6	1.51e+00	0	30	104	0	60	46626
2026-01-17 20:45:22.38	72.92	1.25	-47.1	-62.2	3.6	1.51e+00	0	30	104	0	60	46458
2026-01-17 20:45:23.39	72.84	1.30	-47.1	-62.2	3.6	1.51e+00	0	30	104	0	60	46503
2026-01-17 20:45:24.40	72.77	1.35	-47.1	-62.2	3.6	1.51e+00	0	30	104	0	60	46680
2026-01-17 20:45:25.41	72.69	1.41	-47.1	-62.2	3.6	1.51e+00	0	30	104	0	60	46745
2026-01-17 20:45:26.42	72.61	1.46	-47.1	-62.2	3.6	1.51e+00	0	30	104	0	60	46495
2026-01-17 20:45:27.43	72.53	1.51	-47.1	-62.2	3.6	1.51e+00	0	30	104	0	60	46657
2026-01-17 20:45:28.44	72.45	1.56	-47.1	-62.2	3.6	1.51e+00	0	30	104	0	60	46436
2026-01-17 20:45:29.45	72.38	1.61	-47.1	-62.1	3.6	1.51e+00	0	30	104	0	60	46118
2026-01-17 20:45:30.46	72.30	1.67	-47.1	-62.2	3.6	1.51e+00	0	30	104	0	60	46501
2026-01-17 20:45:31.47	72.22	1.72	-47.1	-62.2	3.6	1.51e+00	0	30	104	0	60	46339
2026-01-17 20:45:32.48	72.14	1.77	-47.1	-62.2	3.6	1.51e+00	0	30	104	0	60	46621
2026-01-17 20:45:33.49	72.06	1.82	-47.1	-62.2	3.6	1.51e+00	0	30	104	0	60	46613
2026-01-17 20:45:34.50	71.98	1.88	-47.1	-62.0	3.6	1.51e+00	0	30	104	0	60	45674
2026-01-17 20:45:35.51	71.90	1.93	-47.1	-62.0	3.6	1.51e+00	0	30	104	0	60	45599
2026-01-17 20:45:36.52	71.82	1.98	-47.0	-62.0	3.6	1.51e+00	0	30	104	0	60	45267
2026-01-17 20:45:37.53	71.74	2.03	-47.0	-61.7	3.6	1.51e+00	0	30	104	0	60	43900
2026-01-17 20:45:38.54	71.65	2.09	-47.0	-61.8	3.5	1.51e+00	0	30	104	0	60	44487
2026-01-17 20:45:39.55	71.57	2.14	-47.0	-61.6	3.6	1.51e+00	0	30	104	0	60	43480
2026-01-17 20:45:40.56	71.49	2.19	-47.0	-61.7	3.5	1.51e+00	0	30	104	0	60	43917
2026-01-17 20:45:41.57	71.41	2.24	-47.0	-62.0	3.6	1.51e+00	0	30	104	0	60	45382
2026-01-17 20:45:42.58	71.33	2.30	-47.0	-62.1	3.6	1.51e+00	0	30	104	0	60	46263
2026-01-17 20:45:43.59	71.24	2.35	-47.0	-62.2	3.6	1.51e+00	0	30	104	0	60	46565
2026-01-17 20:45:44.60	71.16	2.40	-47.1	-62.2	3.6	1.51e+00	0	30	104	0	60	46421
2026-01-17 20:45:45.61	71.08	2.45	-47.0	-62.2	3.6	1.51e+00	0	30	104	0	60	46389
2026-01-17 20:45:46.62	70.99	2.51	-47.1	-62.2	3.6	1.51e+00	0	30	104	0	60	46649
2026-01-17 20:45:47.63	70.91	2.56	-47.1	-62.1	3.6	1.51e+00	0	30	104	0	60	46270
2026-01-17 20:45:48.64	70.82	2.61	-47.0	-61.7	3.6	1.51e+00	0	30	104	0	60	43747
2026-01-17 20:45:49.65	70.74	2.67	-47.0	-61.2	3.6	1.51e+00	0	30	104	0	60	41585
2026-01-17 20:45:50.66	70.66	2.72	-47.0	-61.1	3.6	1.51e+00	0	30	104	0	60	40918
2026-01-17 20:45:51.67	70.57	2.77	-47.0	-61.6	3.6	1.51e+00	0	30	104	0	60	43503
2026-01-17 20:45:52.68	70.48	2.82	-47.0	-61.4	3.6	1.51e+00	0	30	104	0	60	42389
2026-01-17 20:45:53.69	70.40	2.88	-46.8	-58.3	3.8	1.51e+00	0	30	104	0	60	29646
2026-01-17 20:45:54.70	70.31	2.93	-46.3	-53.3	7.2	3.31e-01	0	30	0	0	60	16759
2026-01-17 20:45:55.71	70.23	2.98	-45.4	-50.2	10.6	2.13e-02	86	30	0	2097152	60	11658
2026-01-17 20:45:56.72	70.14	3.04	-44.7	-48.5	12.6	1.01e-03	0	30	0	4194304	60	9573
2026-01-17 20:45:57.73	70.05	3.09	-44.5	-48.2	12.8	4.95e-05	92	30	0	5242880	60	9332
2026-01-17 20:45:58.74	69.96	3.14	-44.7	-48.3	13.1	1.72e-02	92	30	0	7340032	60	9412
2026-01-17 20:45:59.75	69.88	3.20	-43.5	-46.3	13.2	6.63e-05	0	30	0	8388608	60	7482
2026-01-17 20:46:00.76	69.79	3.25	-47.0	-61.0	3.6	1.51e+00	0	30	104	9437184	60	40497
2026-01-17 20:46:01.77	69.70	3.30	-44.8	-48.8	5.8	1.50e+00	0	30	104	9437184	60	9942
2026-01-17 20:46:02.78	69.61	3.36	-44.7	-48.7	12.5	1.85e-01	90	30	104	9437184	60	9820
2026-01-17 20:46:03.79	69.52	3.41	-44.4	-47.9	13.6	1.37e-05	0	30	0	10485760	60	9008
2026-01-17 20:46:04.79	69.43	3.46	-43.9	-46.9	14.6	3.00e-06	90	30	0	12582912	60	7963
2026-01-17 20:46:05.80	69.34	3.52	-43.7	-46.7	13.8	1.06e-05	34	30	0	14680064	60	7774
2026-01-17 20:46:06.81	69.25	3.57	-44.2	-47.6	13.9	9.10e-06	92	30	0	16777216	60	8659
2026-01-17 20:46:07.82	69.16	3.62	-44.1	-47.3	13.4	3.00e-06	92	30	0	17825792	60	8343
2026-01-17 20:46:08.83	69.07	3.68	-43.8	-46.7	15.0	7.00e-07	0	30	0	19922944	60	7803
2026-01-17 20:46:09.84	68.98	3.73	-43.8	-46.7	14.6	0.00e+00	92	30	0	22020096	60	7840
2026-01-17 20:46:10.85	68.89	3.79	-43.3	-45.9	15.4	7.00e-07	0	30	0	24117248	60	7115
2026-01-17 20:46:11.86	68.80	3.84	-43.5	-46.2	15.0	0.00e+00	74	30	0	26214400	60	7351
2026-01-17 20:46:12.87	68.70	3.89	-43.1	-45.6	15.6	7.00e-07	0	30	0	28311552	60	6877
2026-01-17 20:46:13.88	68.61	3.95	-43.1	-45.6	15.8	0.00e+00	92	30	0	29360128	60	6872
2026-01-17 20:46:14.88	68.52	4.00	-43.0	-45.4	16.1	0.00e+00	92	30	0	31457280	60	6762
2026-01-17 20:46:15.89	68.42	4.05	-42.1	-44.2	17.2	0.00e+00	0	30	0	33554432	58	6548
2026-01-17 20:46:16.90	68.33	4.11	-42.0	-44.0	17.3	0.00e+00	38	30	0	35651584	58	6441
2026-01-17 20:46:17.91	68.24	4.16	-41.9	-43.8	17.4	0.00e+00	0	30	0	37748736	58	6303
2026-01-17 20:46:18.92	68.14	4.22	-42.2	-44.2	17.2	0.00e+00	40	30	0	38797312	58	6568
2026-01-17 20:46:19.93	68.05	4.27	-41.8	-43.6	17.7	0.00e+00	0	30	0	40894464	58	6170
2026-01-17 20:46:20.94	67.95	4.32	-41.5	-43.2	18.2	0.00e+00	92	30	0	42991616	56	6566
2026-01-17 20:46:21.95	67.86	4.38	-41.6	-43.3	18.0	0.00e+00	51	30	0	45088768	56	6672
2026-01-17 20:46:22.96	67.76	4.43	-41.5	-43.2	18.2	0.00e+00	0	30	0	47185920	56	6553
2026-01-17 20:46:23.97	67.66	4.49	-41.5	-43.2	18.2	0.00e+00	80	30	0	48234496	56	6564
2026-01-17 20:46:24.98	67.57	4.54	-41.4	-43.0	18.4	0.00e+00	0	30	0	50331648	56	6444
2026-01-17 20:46:25.99	67.47	4.60	-41.5	-43.2	18.1	0.00e+00	55	30	0	52428800	56	6605
2026-01-17 20:46:27.00	67.37	4.65	-41.3	-43.0	18.4	0.00e+00	0	30	0	54525952	56	6425
2026-01-17 20:46:28.01	67.28	4.70	-41.7	-43.4	17.9	0.00e+00	90	30	0	56623104	56	6747
2026-01-17 20:46:29.02	67.18	4.76	-42.0	-43.9	17.5	0.00e+00	38	30	0	57671680	56	7130
2026-01-17 20:46:30.03	67.08	4.81	-41.9	-43.8	17.7	0.00e+00	0	30	0	59768832	56	7037
2026-01-17 20:46:31.04	66.98	4.87	-42.1	-44.1	17.4	0.00e+00	71	30	0	61865984	56	7281
2026-01-17 20:46:32.05	66.88	4.92	-42.2	-44.1	17.4	0.00e+00	0	30	0	63963136	56	7326
2026-01-17 20:46:33.06	66.78	4.98	-42.1	-44.0	17.5	0.00e+00	69	30	0	66060288	56	7215
2026-01-17 20:46:34.07	66.68	5.03	-41.9	-43.7	17.8	0.00e+00	0	30	0	67108864	56	6985
2026-01-17 20:46:35.08	66.58	5.09	-42.1	-44.1	17.5	0.00e+00	92	30	0	69206016	56	7287
2026-01-17 20:46:36.08	66.48	5.14	-42.1	-44.0	17.5	0.00e+00	41	30	0	71303168	56	7218
2026-01-17 20:46:37.09	66.38	5.19	-41.8	-43.7	17.6	0.00e+00	0	30	0	73400320	56	6932
2026-01-17 20:46:38.10	66.28	5.25	-41.9	-43.7	17.8	0.00e+00	92	30	0	75497472	56	6995
2026-01-17 20:46:39.11	66.18	5.30	-41.9	-43.7	17.6	0.00e+00	0	30	0	76546048	56	6992
2026-01-17 20:46:40.12	66.07	5.36	-41.7	-43.6	18.0	0.00e+00	92	30	0	78643200	56	6861
2026-01-17 20:46:41.13	65.97	5.41	-41.7	-43.5	18.1	0.00e+00	0	30	0	80740352	56	6792
2026-01-17 20:46:42.14	65.87	5.47	-41.8	-43.6	18.0	0.00e+00	92	30	0	82837504	56	6873
2026-01-17 20:46:43.15	65.76	5.52	-41.6	-43.3	18.2	0.00e+00	1	30	0	84934656	56	6684
2026-01-17 20:46:44.16	65.66	5.58	-41.8	-43.6	18.0	0.00e+00	83	30	0	85983232	56	6882
2026-01-17 20:46:45.17	65.56	5.63	-41.6	-43.3	18.0	0.00e+00	90	30	0	88080384	56	6657
2026-01-17 20:46:46.18	65.45	5.69	-41.6	-43.3	18.3	0.00e+00	0	30	0	90177536	56	6643
2026-01-17 20:46:47.18	65.35	5.74	-41.7	-43.5	18.2	0.00e+00	68	30	0	92274688	56	6775
2026-01-17 20:46:48.19	65.24	5.80	-41.8	-43.6	18.1	0.00e+00	0	30	0	94371840	56	6858
2026-01-17 20:46:49.20	65.14	5.85	-42.3	-44.3	17.4	0.00e+00	92	30	0	96468992	56	7437
2026-01-17 20:46:50.21	65.03	5.91	-41.9	-43.7	17.9	0.00e+00	17	30	0	97517568	56	6974
2026-01-17 20:46:51.22	64.92	5.96	-41.7	-43.5	18.2	0.00e+00	92	30	0	99614720	56	6772
2026-01-17 20:46:52.23	64.82	6.02	-41.3	-43.0	18.5	0.00e+00	92	30	0	101711872	56	6413
2026-01-17 20:46:53.24	64.71	6.07	-41.8	-43.6	18.2	0.00e+00	0	30	0	103809024	56	6864
2026-01-17 20:46:54.25	64.60	6.13	-41.5	-43.3	18.4	0.00e+00	92	30	0	105906176	56	6620
2026-01-17 20:46:55.27	64.49	6.18	-41.4	-43.1	18.7	0.00e+00	0	30	0	106954752	56	6494
2026-01-17 20:46:56.29	64.38	6.24	-41.6	-43.4	18.2	0.00e+00	92	30	0	109051904	56	6726
2026-01-17 20:46:57.31	64.27	6.29	-41.7	-43.5	18.1	0.00e+00	0	30	0	111149056	56	6808
2026-01-17 20:46:58.32	64.16	6.35	-41.7	-43.5	18.3	0.00e+00	74	30	0	113246208	56	6773
2026-01-17 20:46:59.33	64.05	6.40	-41.7	-43.5	18.1	0.00e+00	92	30	0	115343360	56	6825
2026-01-17 20:47:00.34	63.94	6.46	-41.5	-43.2	18.4	0.00e+00	0	30	0	116391936	56	6598
2026-01-17 20:47:01.35	63.83	6.51	-41.4	-43.1	18.6	0.00e+00	10	30	0	118489088	56	6510
2026-01-17 20:47:02.36	63.72	6.57	-41.5	-43.2	18.5	0.00e+00	0	30	0	120586240	56	6540
2026-01-17 20:47:03.37	63.60	6.62	-41.4	-43.0	18.7	0.00e+00	47	30	0	122683392	56	6439
2026-01-17 20:47:04.38	63.49	6.68	-41.4	-43.1	18.6	0.00e+00	0	30	0	124780544	56	6472
2026-01-17 20:47:05.39	63.38	6.73	-41.6	-43.3	18.3	0.00e+00	92	30	0	125829120	56	6672
2026-01-17 20:47:06.40	63.27	6.79	-41.5	-43.2	18.4	0.00e+00	90	30	0	127926272	56	6593
2026-01-17 20:47:07.41	63.15	6.85	-41.5	-43.2	18.6	0.00e+00	0	30	0	130023424	56	6582
2026-01-17 20:47:08.42	63.04	6.90	-41.6	-43.3	18.5	0.00e+00	92	30	0	132120576	56	6653
2026-01-17 20:47:09.43	62.92	6.96	-41.6	-43.3	18.4	0.00e+00	0	30	0	134217728	56	6662
2026-01-17 20:47:10.43	62.81	7.01	-41.4	-43.1	18.5	0.00e+00	92	30	0	136314880	56	6494
2026-01-17 20:47:11.44	62.69	7.07	-41.7	-43.4	18.3	0.00e+00	0	30	0	137363456	56	6768
2026-01-17 20:47:12.45	62.58	7.12	-41.5	-43.2	18.5	0.00e+00	91	30	0	139460608	56	6588
2026-01-17 20:47:13.46	62.46	7.18	-41.2	-42.8	18.8	0.00e+00	43	30	0	141557760	56	6303
2026-01-17 20:47:14.47	62.34	7.23	-41.5	-43.2	18.5	0.00e+00	0	30	0	143654912	56	6591
2026-01-17 20:47:15.48	62.23	7.29	-41.3	-42.9	18.8	0.00e+00	90	30	0	145752064	56	6376
2026-01-17 20:47:16.49	62.11	7.34	-41.0	-42.5	19.1	0.00e+00	0	30	0	146800640	56	6096
2026-01-17 20:47:17.50	61.99	7.40	-41.0	-42.6	19.2	0.00e+00	91	30	0	148897792	56	6109
2026-01-17 20:47:18.51	61.87	7.45	-40.8	-42.3	19.4	0.00e+00	0	30	0	150994944	56	5960
2026-01-17 20:47:19.52	61.75	7.51	-40.7	-42.1	19.5	0.00e+00	92	30	0	153092096	54	6521
2026-01-17 20:47:20.53	61.63	7.56	-40.6	-42.0	19.6	0.00e+00	0	30	0	154140672	54	6426
2026-01-17 20:47:21.54	61.51	7.62	-40.5	-41.9	19.6	0.00e+00	0	30	0	156237824	54	6331
2026-01-17 20:47:22.55	61.39	7.67	-40.4	-41.8	19.6	0.00e+00	92	31	0	158334976	54	6299
2026-01-17 20:47:23.56	61.27	7.73	-40.1	-41.4	20.1	0.00e+00	0	31	0	160432128	54	6017
2026-01-17 20:47:24.57	61.15	7.79	-40.2	-41.5	20.1	0.00e+00	92	30	0	162529280	54	6066
2026-01-17 20:47:25.58	61.03	7.84	-40.3	-41.6	20.0	0.00e+00	0	30	0	164626432	54	6152
2026-01-17 20:47:26.59	60.91	7.90	-40.2	-41.5	20.0	0.00e+00	92	31	0	165675008	54	6092
2026-01-17 20:47:27.60	60.78	7.95	-40.3	-41.7	19.9	0.00e+00	43	31	0	167772160	54	6229
2026-01-17 20:47:28.61	60.66	8.01	-40.3	-41.6	19.9	0.00e+00	0	30	0	169869312	54	6151
2026-01-17 20:47:29.62	60.54	8.06	-40.3	-41.7	19.9	0.00e+00	92	30	0	171966464	54	6176
2026-01-17 20:47:30.63	60.41	8.12	-40.3	-41.7	19.9	0.00e+00	0	31	0	174063616	54	6227
2026-01-17 20:47:31.64	60.29	8.17	-40.1	-41.4	20.2	0.00e+00	42	30	0	175112192	54	5982
2026-01-17 20:47:32.64	60.16	8.23	-40.2	-41.5	20.1	0.00e+00	0	30	0	177209344	54	6080
2026-01-17 20:47:33.65	60.04	8.28	-40.3	-41.7	20.0	0.00e+00	92	30	0	179306496	54	6177
2026-01-17 20:47:34.66	59.91	8.34	-40.2	-41.6	20.0	0.00e+00	0	31	0	181403648	54	6120
2026-01-17 20:47:35.67	59.79	8.39	-40.3	-41.6	19.7	0.00e+00	76	30	0	183500800	54	6154
2026-01-17 20:47:36.68	59.66	8.45	-40.3	-41.6	20.0	0.00e+00	43	30	0	184549376	54	6155
2026-01-17 20:47:37.69	59.53	8.50	-40.5	-41.9	19.8	0.00e+00	0	30	0	186646528	54	6388
2026-01-17 20:47:38.70	59.40	8.56	-40.5	-42.0	19.9	0.00e+00	77	30	0	188743680	54	6411
2026-01-17 20:47:39.71	59.27	8.61	-40.6	-42.0	19.7	0.00e+00	0	30	0	190840832	54	6423
2026-01-17 20:47:40.72	59.14	8.67	-40.5	-41.9	19.8	0.00e+00	91	30	0	192937984	54	6370
2026-01-17 20:47:41.73	59.01	8.72	-40.5	-41.9	19.7	0.00e+00	0	30	0	193986560	54	6374
2026-01-17 20:47:42.74	58.88	8.78	-40.5	-42.0	19.8	0.00e+00	92	30	0	196083712	54	6392
2026-01-17 20:47:43.75	58.75	8.83	-40.4	-41.8	19.9	0.00e+00	91	30	0	198180864	54	6279
2026-01-17 20:47:44.76	58.62	8.89	-40.4	-41.8	19.9	0.00e+00	0	30	0	200278016	54	6255
2026-01-17 20:47:45.77	58.49	8.94	-40.4	-41.7	19.9	0.00e+00	88	31	0	202375168	54	6244
2026-01-17 20:47:46.78	58.36	9.00	-40.3	-41.7	20.2	0.00e+00	0	30	0	203423744	54	6191
2026-01-17 20:47:47.79	58.23	9.05	-40.2	-41.6	20.1	0.00e+00	71	31	0	205520896	54	6135
2026-01-17 20:47:48.80	58.09	9.11	-40.3	-41.6	20.0	0.00e+00	0	30	0	207618048	54	6152
2026-01-17 20:47:49.81	57.96	9.16	-40.3	-41.7	20.0	0.00e+00	92	30	0	209715200	54	6176
2026-01-17 20:47:50.82	57.82	9.22	-40.3	-41.7	20.0	0.00e+00	0	30	0	211812352	54	6175
2026-01-17 20:47:51.82	57.69	9.27	-40.2	-41.5	20.1	0.00e+00	0	31	0	212860928	54	6080
2026-01-17 20:47:52.83	57.56	9.33	-40.0	-41.3	20.4	0.00e+00	24	31	0	214958080	54	5918
2026-01-17 20:47:53.84	57.42	9.38	-40.0	-41.3	20.4	0.00e+00	0	31	0	217055232	54	5946
2026-01-17 20:47:54.85	57.28	9.44	-40.1	-41.4	20.2	0.00e+00	79	30	0	219152384	54	6008
2026-01-17 20:47:55.86	57.15	9.49	-40.2	-41.5	20.2	0.00e+00	0	30	0	221249536	54	6058
2026-01-17 20:47:56.87	57.01	9.55	-40.3	-41.7	20.0	0.00e+00	92	31	0	222298112	54	6199
2026-01-17 20:47:57.88	56.87	9.60	-40.3	-41.6	20.2	0.00e+00	0	31	0	224395264	54	6126
2026-01-17 20:47:58.89	56.73	9.66	-40.1	-41.4	20.3	0.00e+00	0	31	0	226492416	54	6005
2026-01-17 20:47:59.90	56.59	9.71	-40.2	-41.5	20.3	0.00e+00	92	30	0	228589568	54	6062
2026-01-17 20:48:00.91	56.45	9.77	-40.1	-41.4	20.4	0.00e+00	0	30	0	230686720	54	5977
2026-01-17 20:48:01.92	56.31	9.82	-40.1	-41.3	20.3	0.00e+00	92	31	0	232783872	54	5955
2026-01-17 20:48:02.93	56.17	9.88	-40.0	-41.3	20.3	0.00e+00	0	31	0	233832448	54	5924
2026-01-17 20:48:03.94	56.03	9.93	-40.3	-41.6	20.1	0.00e+00	92	30	0	235929600	54	6134
2026-01-17 20:48:04.95	55.89	9.98	-40.3	-41.6	20.1	0.00e+00	0	31	0	238026752	54	6161
2026-01-17 20:48:05.96	55.75	10.04	-40.2	-41.5	20.3	0.00e+00	0	31	0	240123904	54	6076
2026-01-17 20:48:06.97	55.61	10.09	-40.2	-41.6	20.2	0.00e+00	92	31	0	242221056	54	6118
2026-01-17 20:48:07.98	55.46	10.15	-40.3	-41.7	20.1	0.00e+00	0	31	0	243269632	54	6197
2026-01-17 20:48:08.99	55.32	10.20	-40.5	-41.9	19.9	0.00e+00	79	30	0	245366784	54	6345
2026-01-17 20:48:10.00	55.17	10.25	-40.7	-42.1	19.7	0.00e+00	0	30	0	247463936	54	6511
2026-01-17 20:48:11.01	55.03	10.31	-40.7	-42.1	19.7	0.00e+00	92	31	0	249561088	54	6495
2026-01-17 20:48:12.02	54.88	10.36	-40.7	-42.2	19.6	0.00e+00	0	31	0	251658240	54	6579
2026-01-17 20:48:13.03	54.74	10.42	-40.9	-42.5	19.4	0.00e+00	0	31	0	252706816	54	6772
2026-01-17 20:48:14.04	54.59	10.47	-40.8	-42.3	19.6	0.00e+00	82	31	0	254803968	54	6680
2026-01-17 20:48:15.05	54.44	10.52	-40.7	-42.2	19.6	0.00e+00	0	31	0	256901120	54	6585
2026-01-17 20:48:16.06	54.30	10.58	-40.7	-42.2	19.7	0.00e+00	42	31	0	258998272	54	6543
2026-01-17 20:48:17.07	54.15	10.63	-40.6	-42.1	19.7	0.00e+00	0	31	0	261095424	54	6506
2026-01-17 20:48:18.08	54.00	10.69	-40.8	-42.3	19.7	0.00e+00	68	31	0	262144000	54	6654
2026-01-17 20:48:19.09	53.85	10.74	-40.7	-42.2	19.7	0.00e+00	0	30	0	264241152	54	6554
2026-01-17 20:48:20.09	53.70	10.79	-40.6	-42.0	19.8	0.00e+00	0	30	0	266338304	54	6424
2026-01-17 20:48:21.10	53.55	10.85	-40.3	-41.6	20.1	0.00e+00	79	31	0	268435456	54	6152
2026-01-17 20:48:22.11	53.40	10.90	-40.2	-41.5	20.2	0.00e+00	0	31	0	270532608	54	6081
2026-01-17 20:48:23.12	53.25	10.95	-40.1	-41.4	20.4	0.00e+00	43	31	0	271581184	54	5976
2026-01-17 20:48:24.13	53.10	11.00	-39.9	-41.2	20.6	0.00e+00	0	30	0	273678336	52	6586
2026-01-17 20:48:25.14	52.94	11.06	-40.1	-41.4	20.5	0.00e+00	92	30	0	275775488	52	6728
2026-01-17 20:48:26.15	52.79	11.11	-40.1	-41.5	20.3	0.00e+00	0	31	0	277872640	52	6782
2026-01-17 20:48:27.16	52.64	11.16	-39.8	-41.1	20.7	0.00e+00	92	30	0	279969792	52	6479
2026-01-17 20:48:28.17	52.48	11.22	-39.5	-40.7	21.0	0.00e+00	71	31	0	281018368	52	6224
2026-01-17 20:48:29.18	52.33	11.27	-39.5	-40.7	21.2	0.00e+00	0	31	0	283115520	52	6198
2026-01-17 20:48:30.19	52.17	11.32	-39.3	-40.4	21.2	0.00e+00	46	30	0	285212672	52	6016
2026-01-17 20:48:31.20	52.02	11.37	-39.2	-40.4	21.3	0.00e+00	0	31	0	287309824	52	5972
2026-01-17 20:48:32.21	51.86	11.43	-39.4	-40.6	21.1	0.00e+00	92	31	0	289406976	52	6133
2026-01-17 20:48:33.22	51.70	11.48	-39.4	-40.6	21.1	0.00e+00	0	31	0	290455552	52	6131
2026-01-17 20:48:34.23	51.54	11.53	-39.2	-40.4	21.4	0.00e+00	92	31	0	292552704	52	5968
2026-01-17 20:48:35.24	51.39	11.58	-39.0	-40.2	21.5	0.00e+00	44	31	0	294649856	52	5839
2026-01-17 20:48:36.24	51.23	11.63	-39.1	-40.2	21.5	0.00e+00	0	31	0	296747008	52	5872
2026-01-17 20:48:37.26	51.07	11.69	-38.6	-39.7	21.9	0.00e+00	79	31	0	298844160	50	6177
2026-01-17 20:48:38.27	50.91	11.74	-38.6	-39.7	21.6	0.00e+00	0	31	0	300941312	50	6210
2026-01-17 20:48:39.28	50.75	11.79	-38.7	-39.7	21.9	0.00e+00	92	31	0	301989888	50	6224
2026-01-17 20:48:40.28	50.59	11.84	-38.7	-39.8	21.7	0.00e+00	0	31	0	304087040	50	6302
2026-01-17 20:48:41.29	50.43	11.89	-38.9	-40.0	21.7	0.00e+00	48	31	0	306184192	50	6396
2026-01-17 20:48:42.30	50.26	11.94	-38.4	-39.4	22.1	0.00e+00	0	31	0	308281344	50	6019
2026-01-17 20:48:43.31	50.10	12.00	-38.4	-39.4	22.1	0.00e+00	0	31	0	310378496	50	6026
2026-01-17 20:48:44.32	49.94	12.05	-38.4	-39.4	22.1	0.00e+00	92	30	0	311427072	50	6004
2026-01-17 20:48:45.33	49.77	12.10	-38.5	-39.5	22.0	0.00e+00	0	31	0	313524224	50	6097
2026-01-17 20:48:46.34	49.61	12.15	-38.6	-39.6	22.0	0.00e+00	11	31	0	315621376	50	6171
2026-01-17 20:48:47.35	49.44	12.20	-38.6	-39.6	21.9	0.00e+00	0	31	0	317718528	50	6159
2026-01-17 20:48:48.36	49.28	12.25	-38.5	-39.6	21.9	0.00e+00	61	31	0	319815680	50	6123
2026-01-17 20:48:49.36	49.11	12.30	-38.4	-39.5	22.1	0.00e+00	0	31	0	320864256	50	6079
2026-01-17 20:48:50.37	48.95	12.35	-38.5	-39.5	22.1	0.00e+00	0	31	0	322961408	50	6085
2026-01-17 20:48:51.38	48.78	12.40	-38.3	-39.4	22.2	0.00e+00	92	30	0	325058560	50	5977
2026-01-17 20:48:52.39	48.61	12.45	-38.3	-39.4	22.3	0.00e+00	33	30	0	327155712	50	5980
2026-01-17 20:48:53.40	48.44	12.50	-38.5	-39.5	22.1	0.00e+00	45	30	0	329252864	50	6102
2026-01-17 20:48:54.41	48.27	12.55	-38.3	-39.3	22.3	0.00e+00	0	30	0	330301440	50	5920
2026-01-17 20:48:55.42	48.10	12.60	-38.3	-39.3	22.4	0.00e+00	92	31	0	332398592	50	5923
2026-01-17 20:48:56.43	47.93	12.65	-38.0	-39.0	22.3	0.00e+00	33	31	0	334495744	50	5711
2026-01-17 20:48:57.44	47.76	12.70	-38.0	-39.0	22.6	0.00e+00	47	30	0	336592896	50	5721
2026-01-17 20:48:58.45	47.59	12.75	-37.9	-38.8	22.7	0.00e+00	41	30	0	338690048	50	5606
2026-01-17 20:48:59.46	47.42	12.80	-38.1	-39.1	22.4	0.00e+00	33	31	0	339738624	50	5799
2026-01-17 20:49:00.47	47.24	12.85	-38.3	-39.4	22.2	0.00e+00	55	31	0	341835776	50	5973
2026-01-17 20:49:01.48	47.07	12.89	-38.4	-39.4	22.2	0.00e+00	0	30	0	343932928	50	5984
2026-01-17 20:49:02.49	46.90	12.94	-38.3	-39.3	22.3	0.00e+00	90	31	0	346030080	50	5922
2026-01-17 20:49:03.50	46.72	12.99	-38.3	-39.3	22.3	0.00e+00	0	31	0	348127232	50	5944
2026-01-17 20:49:04.51	46.55	13.04	-38.4	-39.5	22.2	0.00e+00	90	31	0	349175808	50	6076
2026-01-17 20:49:05.51	46.37	13.09	-38.6	-39.6	21.9	0.00e+00	0	30	0	351272960	50	6163
2026-01-17 20:49:06.53	46.20	13.13	-38.8	-40.0	21.8	0.00e+00	0	30	0	353370112	50	6410
2026-01-17 20:49:07.53	46.02	13.18	-38.8	-40.0	21.8	0.00e+00	11	30	0	355467264	50	6413
2026-01-17 20:49:08.54	45.84	13.23	-38.7	-39.8	21.9	0.00e+00	0	30	0	357564416	50	6289
2026-01-17 20:49:09.55	45.67	13.28	-38.5	-39.6	22.0	0.00e+00	73	30	0	358612992	50	6136
2026-01-17 20:49:10.56	45.49	13.32	-38.1	-39.1	22.5	0.00e+00	0	30	0	360710144	50	5785
2026-01-17 20:49:11.58	45.31	13.37	-37.9	-38.9	22.5	0.00e+00	92	31	0	362807296	50	5655
2026-01-17 20:49:12.59	45.13	13.42	-37.6	-38.6	22.9	0.00e+00	44	31	0	364904448	48	6110
2026-01-17 20:49:13.59	44.95	13.46	-37.4	-38.4	23.0	0.00e+00	0	31	0	367001600	48	5989
2026-01-17 20:49:14.60	44.77	13.51	-37.3	-38.3	23.2	0.00e+00	92	31	0	369098752	48	5907
2026-01-17 20:49:15.61	44.59	13.56	-37.4	-38.3	23.1	0.00e+00	0	31	0	370147328	48	5933
2026-01-17 20:49:16.62	44.40	13.60	-37.2	-38.1	23.3	0.00e+00	78	30	0	372244480	48	5801
2026-01-17 20:49:17.64	44.22	13.65	-37.0	-37.9	23.4	0.00e+00	0	31	0	374341632	48	5693
2026-01-17 20:49:18.64	44.04	13.69	-37.3	-38.3	23.1	0.00e+00	90	30	0	376438784	48	5903
2026-01-17 20:49:19.65	43.85	13.74	-37.4	-38.4	23.2	0.00e+00	0	31	0	378535936	48	5982
2026-01-17 20:49:20.66	43.67	13.78	-37.4	-38.3	23.1	0.00e+00	0	31	0	379584512	48	5935
2026-01-17 20:49:21.67	43.49	13.83	-37.6	-38.6	22.9	0.00e+00	92	31	0	381681664	48	6122
2026-01-17 20:49:22.67	43.30	13.87	-37.8	-38.8	22.7	0.00e+00	0	31	0	383778816	48	6267
2026-01-17 20:49:23.68	43.12	13.92	-38.1	-39.1	22.4	0.00e+00	92	30	0	385875968	48	6487
2026-01-17 20:49:24.70	42.93	13.96	-38.2	-39.3	22.5	0.00e+00	0	31	0	387973120	48	6639
2026-01-17 20:49:25.70	42.74	14.01	-38.3	-39.4	22.4	0.00e+00	92	30	0	389021696	48	6698
2026-01-17 20:49:26.71	42.56	14.05	-38.4	-39.5	21.8	0.00e+00	0	31	0	391118848	48	6777
2026-01-17 20:49:27.72	42.37	14.09	-38.2	-39.2	22.3	0.00e+00	34	30	0	393216000	48	6577
2026-01-17 20:49:28.73	42.18	14.14	-38.2	-39.3	22.4	0.00e+00	39	30	0	395313152	48	6639
2026-01-17 20:49:29.74	41.99	14.18	-38.1	-39.1	22.5	0.00e+00	0	30	0	397410304	48	6468
2026-01-17 20:49:30.75	41.80	14.22	-38.1	-39.1	22.5	0.00e+00	39	30	0	398458880	48	6476
2026-01-17 20:49:31.76	41.61	14.27	-38.0	-39.0	22.6	0.00e+00	0	30	0	400556032	48	6433
2026-01-17 20:49:32.77	41.42	14.31	-38.1	-39.1	22.6	0.00e+00	92	30	0	402653184	48	6514
2026-01-17 20:49:33.78	41.23	14.35	-38.3	-39.4	22.2	0.00e+00	0	30	0	404750336	48	6747
2026-01-17 20:49:34.79	41.03	14.39	-38.4	-39.5	22.2	0.00e+00	0	30	0	406847488	48	6806
2026-01-17 20:49:35.80	40.84	14.43	-38.6	-39.7	22.0	0.00e+00	74	30	0	407896064	48	6933
2026-01-17 20:49:36.81	40.65	14.47	-38.7	-39.8	22.0	0.00e+00	0	31	0	409993216	48	7037
2026-01-17 20:49:37.82	40.46	14.52	-38.6	-39.7	22.1	0.00e+00	39	31	0	412090368	48	6933
2026-01-17 20:49:38.83	40.26	14.56	-38.3	-39.4	22.3	0.00e+00	0	30	0	414187520	48	6720
2026-01-17 20:49:39.84	40.07	14.60	-38.3	-39.4	22.2	0.00e+00	69	30	0	416284672	48	6730
2026-01-17 20:49:40.85	39.87	14.64	-38.3	-39.3	22.2	0.00e+00	0	30	0	417333248	48	6669
2026-01-17 20:49:41.86	39.67	14.68	-38.0	-39.1	22.5	0.00e+00	53	30	0	419430400	48	6470
2026-01-17 20:49:42.87	39.48	14.72	-37.7	-38.7	22.8	0.00e+00	41	30	0	421527552	48	6216
2026-01-17 20:49:43.88	39.28	14.76	-37.7	-38.7	22.9	0.00e+00	0	30	0	423624704	48	6178
2026-01-17 20:49:44.88	39.09	14.80	-37.6	-38.5	23.0	0.00e+00	66	30	0	425721856	48	6101
2026-01-17 20:49:45.89	38.89	14.84	-37.7	-38.7	22.9	0.00e+00	0	31	0	426770432	48	6178
2026-01-17 20:49:46.90	38.69	14.87	-37.7	-38.7	22.7	0.00e+00	91	30	0	428867584	48	6212
2026-01-17 20:49:47.91	38.49	14.91	-37.7	-38.7	22.8	0.00e+00	0	31	0	430964736	48	6198
2026-01-17 20:49:48.92	38.29	14.95	-37.7	-38.7	22.7	0.00e+00	92	31	0	433061888	48	6220
2026-01-17 20:49:49.93	38.09	14.99	-37.9	-38.9	22.6	0.00e+00	41	31	0	435159040	48	6326
2026-01-17 20:49:50.94	37.89	15.03	-37.7	-38.7	22.8	0.00e+00	0	31	0	437256192	48	6204
2026-01-17 20:49:51.95	37.69	15.06	-37.6	-38.6	23.0	0.00e+00	78	31	0	438304768	48	6117
2026-01-17 20:49:52.96	37.49	15.10	-37.7	-38.7	22.9	0.00e+00	0	31	0	440401920	48	6179
2026-01-17 20:49:53.97	37.29	15.14	-37.7	-38.7	22.8	0.00e+00	92	30	0	442499072	48	6187
2026-01-17 20:49:54.98	37.08	15.17	-37.9	-38.9	22.6	0.00e+00	0	31	0	444596224	48	6342
2026-01-17 20:49:55.99	36.88	15.21	-38.0	-39.0	22.6	0.00e+00	58	30	0	446693376	48	6396
2026-01-17 20:49:57.00	36.68	15.24	-37.8	-38.8	22.8	0.00e+00	0	31	0	447741952	48	6270
2026-01-17 20:49:58.01	36.47	15.28	-37.6	-38.6	22.9	0.00e+00	0	30	0	449839104	48	6143
2026-01-17 20:49:59.02	36.27	15.32	-37.5	-38.4	23.1	0.00e+00	62	30	0	451936256	48	6021
2026-01-17 20:50:00.03	36.06	15.35	-37.4	-38.3	23.1	0.00e+00	0	31	0	454033408	48	5954
2026-01-17 20:50:01.04	35.86	15.38	-37.3	-38.3	23.2	0.00e+00	72	31	0	456130560	48	5904
2026-01-17 20:50:02.05	35.65	15.42	-37.5	-38.4	23.1	0.00e+00	0	30	0	457179136	48	5996
2026-01-17 20:50:03.06	35.45	15.45	-37.3	-38.2	23.3	0.00e+00	0	31	0	459276288	48	5854
2026-01-17 20:50:04.07	35.24	15.49	-36.8	-37.6	23.6	0.00e+00	0	30	0	461373440	48	5487
2026-01-17 20:50:05.08	35.03	15.52	-36.9	-37.8	23.6	0.00e+00	0	31	0	463470592	48	5592
2026-01-17 20:50:06.09	34.82	15.55	-36.7	-37.6	23.8	0.00e+00	42	30	0	465567744	46	6104
2026-01-17 20:50:07.10	34.62	15.58	-36.8	-37.7	22.7	0.00e+00	0	31	0	466616320	46	6199
2026-01-17 20:50:08.11	34.41	15.62	-37.0	-37.9	23.5	0.00e+00	92	31	0	468713472	46	6362
2026-01-17 20:50:09.12	34.20	15.65	-37.3	-38.2	23.3	0.00e+00	0	30	0	470810624	46	6588
2026-01-17 20:50:10.13	33.99	15.68	-37.5	-38.4	23.1	0.00e+00	0	30	0	472907776	46	6726
2026-01-17 20:50:11.14	33.78	15.71	-37.3	-38.2	23.3	0.00e+00	0	30	0	475004928	46	6600
2026-01-17 20:50:12.15	33.57	15.74	-37.4	-38.4	23.1	0.00e+00	0	30	0	476053504	46	6724
2026-01-17 20:50:13.16	33.36	15.77	-37.6	-38.5	23.1	0.00e+00	43	30	0	478150656	46	6811
2026-01-17 20:50:14.17	33.15	15.80	-37.9	-38.9	22.7	0.00e+00	0	31	0	480247808	48	6356
2026-01-17 20:50:15.18	32.93	15.83	-38.0	-38.9	22.8	0.00e+00	92	30	0	482344960	48	6390
2026-01-17 20:50:16.19	32.72	15.86	-37.8	-38.8	22.9	0.00e+00	0	31	0	484442112	48	6283
2026-01-17 20:50:17.20	32.51	15.89	-37.6	-38.5	23.0	0.00e+00	0	31	0	485490688	48	6075
2026-01-17 20:50:18.21	32.30	15.92	-37.7	-38.6	22.9	0.00e+00	0	30	0	487587840	48	6160
2026-01-17 20:50:19.22	32.08	15.95	-37.8	-38.7	22.6	0.00e+00	0	30	0	489684992	48	6226
2026-01-17 20:50:20.23	31.87	15.97	-38.1	-39.1	22.5	0.00e+00	45	31	0	491782144	48	6487
2026-01-17 20:50:21.23	31.66	16.00	-38.3	-39.4	22.4	0.00e+00	0	30	0	493879296	48	6706
2026-01-17 20:50:22.25	31.44	16.03	-38.3	-39.3	22.3	0.00e+00	63	31	0	494927872	48	6670
2026-01-17 20:50:23.26	31.22	16.06	-38.4	-39.4	22.3	0.00e+00	0	30	0	497025024	48	6736
2026-01-17 20:50:24.26	31.01	16.08	-38.2	-39.2	22.5	0.00e+00	0	30	0	499122176	48	6581
2026-01-17 20:50:25.27	30.80	16.11	-38.3	-39.3	22.4	0.00e+00	0	30	0	501219328	48	6659
2026-01-17 20:50:26.28	30.58	16.13	-38.2	-39.2	22.5	0.00e+00	0	31	0	503316480	48	6549
2026-01-17 20:50:27.29	30.36	16.16	-38.3	-39.3	22.2	0.00e+00	0	30	0	505413632	48	6664
2026-01-17 20:50:28.30	30.15	16.18	-38.6	-39.6	22.1	0.00e+00	0	30	0	506462208	48	6893
2026-01-17 20:50:29.31	29.93	16.21	-38.4	-39.4	22.3	0.00e+00	19	31	0	508559360	48	6718
2026-01-17 20:50:30.32	29.71	16.23	-38.5	-39.5	22.2	0.00e+00	0	31	0	510656512	48	6797
2026-01-17 20:50:31.33	29.49	16.25	-38.2	-39.2	22.2	0.00e+00	92	30	0	512753664	48	6610
2026-01-17 20:50:32.34	29.28	16.28	-38.4	-39.4	22.4	0.00e+00	0	31	0	514850816	48	6743
2026-01-17 20:50:33.35	29.06	16.30	-38.2	-39.2	22.5	0.00e+00	0	30	0	515899392	48	6555
2026-01-17 20:50:34.36	28.84	16.32	-38.3	-39.3	22.4	0.00e+00	0	31	0	517996544	48	6667
2026-01-17 20:50:35.37	28.62	16.34	-38.1	-39.1	22.5	0.00e+00	0	30	0	520093696	48	6481
2026-01-17 20:50:36.38	28.40	16.37	-37.9	-38.9	22.7	0.00e+00	11	31	0	522190848	48	6351
2026-01-17 20:50:37.39	28.18	16.39	-38.0	-38.9	22.7	0.00e+00	0	31	0	524288000	48	6381
2026-01-17 20:50:38.39	27.96	16.41	-37.9	-38.9	22.7	0.00e+00	92	30	0	525336576	48	6326
2026-01-17 20:50:39.40	27.74	16.43	-38.0	-39.0	22.7	0.00e+00	33	31	0	527433728	48	6400
2026-01-17 20:50:40.41	27.52	16.45	-37.9	-38.9	22.7	0.00e+00	0	31	0	529530880	48	6343
2026-01-17 20:50:41.42	27.30	16.47	-37.7	-38.7	22.9	0.00e+00	0	31	0	531628032	48	6190
2026-01-17 20:50:42.43	27.08	16.49	-37.7	-38.6	22.9	0.00e+00	0	31	0	533725184	48	6167
2026-01-17 20:50:43.44	26.86	16.51	-37.6	-38.6	22.9	0.00e+00	92	31	0	534773760	48	6124
2026-01-17 20:50:44.45	26.63	16.52	-37.7	-38.7	23.0	0.00e+00	0	31	0	536870912	48	6176
2026-01-17 20:50:45.46	26.41	16.54	-37.7	-38.6	22.9	0.00e+00	92	31	0	538968064	48	6145
2026-01-17 20:50:46.47	26.19	16.56	-37.8	-38.8	22.9	0.00e+00	0	30	0	541065216	48	6269
2026-01-17 20:50:47.48	25.97	16.58	-37.9	-38.9	22.7	0.00e+00	0	30	0	543162368	48	6371
2026-01-17 20:50:48.49	25.74	16.59	-38.1	-39.1	22.7	0.00e+00	0	31	0	544210944	48	6515
2026-01-17 20:50:49.50	25.52	16.61	-38.3	-39.3	22.4	0.00e+00	0	30	0	546308096	48	6640
2026-01-17 20:50:50.52	25.29	16.62	-38.3	-39.4	22.3	0.00e+00	32	31	0	548405248	48	6707
2026-01-17 20:50:51.52	25.07	16.64	-38.3	-39.4	22.3	0.00e+00	0	31	0	550502400	48	6715
2026-01-17 20:50:52.53	24.85	16.65	-38.5	-39.5	22.2	0.00e+00	92	31	0	552599552	48	6832
2026-01-17 20:50:53.54	24.62	16.67	-38.6	-39.7	22.1	0.00e+00	0	30	0	553648128	48	6989
2026-01-17 20:50:54.54	24.40	16.68	-38.8	-39.9	21.7	0.00e+00	0	31	0	555745280	50	6352
2026-01-17 20:50:55.55	24.18	16.70	-38.9	-40.1	21.6	0.00e+00	0	31	0	557842432	50	6471
2026-01-17 20:50:56.56	23.95	16.71	-39.0	-40.1	21.6	0.00e+00	0	31	0	559939584	50	6487
2026-01-17 20:50:57.58	23.73	16.72	-38.9	-40.0	21.8	0.00e+00	45	30	0	562036736	50	6428
2026-01-17 20:50:58.58	23.50	16.73	-38.7	-39.8	22.1	0.00e+00	0	31	0	563085312	50	6261
2026-01-17 20:50:59.59	23.28	16.75	-38.8	-39.9	22.0	0.00e+00	78	31	0	565182464	50	6318
2026-01-17 20:51:00.61	23.05	16.76	-38.5	-39.6	22.2	0.00e+00	0	31	0	567279616	50	6128
2026-01-17 20:51:01.62	22.82	16.77	-38.5	-39.5	22.3	0.00e+00	65	31	0	569376768	50	6074
2026-01-17 20:51:02.63	22.60	16.78	-38.5	-39.5	22.3	0.00e+00	0	31	0	571473920	50	6087
2026-01-17 20:51:03.64	22.37	16.79	-38.4	-39.4	22.4	0.00e+00	0	31	0	573571072	50	6016
2026-01-17 20:51:04.65	22.15	16.80	-38.3	-39.3	22.4	0.00e+00	43	31	0	574619648	50	5923
2026-01-17 20:51:05.66	21.92	16.81	-38.3	-39.3	22.3	0.00e+00	0	31	0	576716800	50	5959
2026-01-17 20:51:06.67	21.69	16.81	-38.4	-39.4	22.3	0.00e+00	43	31	0	578813952	50	5987
2026-01-17 20:51:07.68	21.47	16.82	-38.3	-39.3	22.5	0.00e+00	0	31	0	580911104	50	5944
2026-01-17 20:51:08.69	21.24	16.83	-38.1	-39.1	22.5	0.00e+00	24	31	0	583008256	50	5821
2026-01-17 20:51:09.70	21.01	16.84	-38.1	-39.1	22.5	0.00e+00	0	31	0	584056832	50	5781
2026-01-17 20:51:10.71	20.79	16.84	-38.0	-39.0	22.7	0.00e+00	0	31	0	586153984	50	5735
2026-01-17 20:51:11.72	20.56	16.85	-37.9	-38.9	22.7	0.00e+00	25	31	0	588251136	50	5637
2026-01-17 20:51:12.73	20.33	16.86	-37.7	-38.7	22.9	0.00e+00	0	31	0	590348288	48	6184
2026-01-17 20:51:13.73	20.11	16.86	-37.6	-38.5	23.0	0.00e+00	92	31	0	592445440	48	6087
2026-01-17 20:51:14.74	19.88	16.87	-37.6	-38.6	23.0	0.00e+00	0	31	0	593494016	48	6108
2026-01-17 20:51:15.75	19.65	16.87	-37.9	-38.9	22.7	0.00e+00	92	31	0	595591168	48	6365
2026-01-17 20:51:16.76	19.43	16.87	-38.3	-39.3	22.3	0.00e+00	0	30	0	597688320	48	6644
2026-01-17 20:51:17.77	19.20	16.88	-38.3	-39.3	22.4	0.00e+00	0	31	0	599785472	48	6671
2026-01-17 20:51:18.78	18.97	16.88	-38.4	-39.5	22.3	0.00e+00	0	30	0	601882624	48	6791
2026-01-17 20:51:19.79	18.75	16.88	-38.5	-39.5	22.2	0.00e+00	0	31	0	602931200	48	6812
2026-01-17 20:51:20.80	18.52	16.89	-38.5	-39.5	22.3	0.00e+00	50	31	0	605028352	48	6798
2026-01-17 20:51:21.81	18.29	16.89	-38.4	-39.4	22.3	0.00e+00	0	31	0	607125504	48	6766
2026-01-17 20:51:22.82	18.06	16.89	-38.3	-39.3	22.4	0.00e+00	39	31	0	609222656	48	6682
2026-01-17 20:51:23.83	17.84	16.89	-38.4	-39.4	22.4	0.00e+00	33	31	0	611319808	48	6731
2026-01-17 20:51:24.84	17.61	16.89	-38.3	-39.4	22.4	0.00e+00	0	31	0	612368384	48	6703
2026-01-17 20:51:25.85	17.38	16.89	-38.1	-39.0	22.7	0.00e+00	0	30	0	614465536	48	6461
2026-01-17 20:51:26.86	17.15	16.89	-37.8	-38.8	22.8	0.00e+00	0	30	0	616562688	48	6278
2026-01-17 20:51:27.87	16.93	16.89	-37.8	-38.8	22.8	0.00e+00	40	31	0	618659840	48	6280
2026-01-17 20:51:28.88	16.70	16.89	-37.6	-38.5	23.0	0.00e+00	0	31	0	620756992	48	6094
2026-01-17 20:51:29.89	16.47	16.88	-37.8	-38.8	22.8	0.00e+00	84	31	0	621805568	48	6288
2026-01-17 20:51:30.90	16.24	16.88	-37.9	-38.9	22.7	0.00e+00	0	30	0	623902720	48	6357
2026-01-17 20:51:31.91	16.02	16.88	-38.1	-39.1	22.6	0.00e+00	0	30	0	625999872	48	6523
2026-01-17 20:51:32.92	15.79	16.88	-38.2	-39.2	22.5	0.00e+00	0	31	0	628097024	48	6612
2026-01-17 20:51:33.93	15.56	16.87	-38.6	-39.6	22.1	0.00e+00	0	31	0	630194176	48	6911
2026-01-17 20:51:34.94	15.33	16.87	-38.6	-39.7	22.1	0.00e+00	77	31	0	631242752	48	6983
2026-01-17 20:51:35.95	15.11	16.86	-38.7	-39.8	22.1	0.00e+00	0	30	0	633339904	50	6290
2026-01-17 20:51:36.96	14.88	16.86	-39.0	-40.1	21.8	0.00e+00	43	31	0	635437056	50	6512
2026-01-17 20:51:37.97	14.65	16.85	-39.0	-40.1	21.7	0.00e+00	0	31	0	637534208	50	6518
2026-01-17 20:51:38.98	14.43	16.84	-39.2	-40.3	21.5	0.00e+00	1	31	0	639631360	50	6656
2026-01-17 20:51:39.98	14.20	16.84	-39.1	-40.2	21.2	0.00e+00	0	31	0	641728512	50	6592
2026-01-17 20:51:41.00	13.97	16.83	-38.9	-40.0	21.9	0.00e+00	0	31	0	642777088	50	6443
2026-01-17 20:51:42.00	13.75	16.82	-38.7	-39.8	22.0	0.00e+00	43	30	0	644874240	50	6247
2026-01-17 20:51:43.01	13.52	16.82	-38.6	-39.7	22.0	0.00e+00	0	30	0	646971392	50	6200
2026-01-17 20:51:44.03	13.29	16.81	-38.6	-39.7	22.1	0.00e+00	36	30	0	649068544	50	6211
2026-01-17 20:51:45.03	13.07	16.80	-38.3	-39.4	22.3	0.00e+00	0	30	0	651165696	50	5972
2026-01-17 20:51:46.04	12.84	16.79	-38.4	-39.5	22.3	0.00e+00	92	31	0	652214272	50	6073
2026-01-17 20:51:47.05	12.62	16.78	-38.4	-39.4	22.3	0.00e+00	0	31	0	654311424	50	6021
2026-01-17 20:51:48.07	12.39	16.77	-38.5	-39.6	22.3	0.00e+00	0	31	0	656408576	50	6119
2026-01-17 20:51:49.08	12.16	16.76	-38.7	-39.7	22.3	0.00e+00	0	30	0	658505728	50	6239
2026-01-17 20:51:50.09	11.94	16.75	-38.1	-39.1	22.6	0.00e+00	0	31	0	660602880	50	5824
2026-01-17 20:51:51.10	11.71	16.74	-38.2	-39.1	22.5	0.00e+00	39	31	0	661651456	50	5819
2026-01-17 20:51:52.11	11.49	16.72	-38.0	-39.1	22.7	0.00e+00	0	31	0	663748608	50	5763
2026-01-17 20:51:53.12	11.26	16.71	-38.2	-39.2	22.5	0.00e+00	71	30	0	665845760	50	5863
2026-01-17 20:51:54.13	11.04	16.70	-38.2	-39.3	22.5	0.00e+00	0	31	0	667942912	50	5907
2026-01-17 20:51:55.14	10.81	16.68	-38.4	-39.4	22.4	0.00e+00	0	31	0	670040064	50	6017
2026-01-17 20:51:56.15	10.59	16.67	-38.4	-39.5	22.4	0.00e+00	0	30	0	671088640	50	6073
2026-01-17 20:51:57.16	10.37	16.66	-38.3	-39.3	22.5	0.00e+00	0	31	0	673185792	50	5922
2026-01-17 20:51:58.16	10.14	16.64	-37.9	-38.9	22.8	0.00e+00	44	31	0	675282944	50	5664
2026-01-17 20:51:59.18	9.92	16.63	-37.5	-38.5	23.2	0.00e+00	0	31	0	677380096	48	6052
2026-01-17 20:52:00.18	9.70	16.61	-37.2	-38.1	23.4	0.00e+00	90	31	0	679477248	48	5794
2026-01-17 20:52:01.19	9.47	16.60	-37.0	-37.9	23.6	0.00e+00	0	31	0	680525824	48	5642
2026-01-17 20:52:02.20	9.25	16.58	-37.1	-38.0	23.4	0.00e+00	0	30	0	682622976	48	5743
2026-01-17 20:52:03.20	9.03	16.56	-36.8	-37.7	23.6	0.00e+00	0	31	0	684720128	48	5543
2026-01-17 20:52:04.21	8.81	16.54	-37.1	-38.0	23.5	0.00e+00	0	31	0	686817280	48	5751
2026-01-17 20:52:05.22	8.59	16.53	-37.2	-38.1	23.5	0.00e+00	44	31	0	688914432	48	5786
2026-01-17 20:52:06.23	8.37	16.51	-37.3	-38.3	23.2	0.00e+00	0	31	0	689963008	48	5898
2026-01-17 20:52:07.24	8.14	16.49	-37.4	-38.3	23.3	0.00e+00	92	31	0	692060160	48	5944
2026-01-17 20:52:08.25	7.92	16.47	-37.4	-38.4	23.0	0.00e+00	0	31	0	694157312	48	5965
2026-01-17 20:52:09.26	7.70	16.45	-37.4	-38.4	23.2	0.00e+00	9	31	0	696254464	48	5986
2026-01-17 20:52:10.27	7.48	16.43	-37.5	-38.5	23.1	0.00e+00	0	31	0	698351616	48	6072
2026-01-17 20:52:11.28	7.26	16.41	-37.6	-38.5	23.0	0.00e+00	0	31	0	699400192	48	6086
2026-01-17 20:52:12.29	7.04	16.39	-37.8	-38.8	22.8	0.00e+00	10	31	0	701497344	48	6282
2026-01-17 20:52:13.30	6.82	16.37	-37.9	-38.9	22.8	0.00e+00	0	31	0	703594496	48	6336
2026-01-17 20:52:14.31	6.60	16.35	-37.8	-38.8	22.8	0.00e+00	92	31	0	705691648	48	6288
2026-01-17 20:52:15.32	6.38	16.33	-38.1	-39.1	22.5	0.00e+00	0	31	0	707788800	48	6506
2026-01-17 20:52:16.33	6.16	16.30	-37.9	-38.9	22.7	0.00e+00	15	31	0	708837376	48	6366
2026-01-17 20:52:17.34	5.94	16.28	-38.2	-39.2	22.5	0.00e+00	0	31	0	710934528	48	6562
2026-01-17 20:52:18.35	5.73	16.26	-38.0	-39.0	22.8	0.00e+00	0	31	0	713031680	48	6430
2026-01-17 20:52:19.35	5.51	16.24	-37.7	-38.6	23.0	0.00e+00	0	31	0	715128832	48	6173
2026-01-17 20:52:20.36	5.29	16.21	-37.7	-38.6	23.1	0.00e+00	0	31	0	717225984	48	6163
2026-01-17 20:52:21.37	5.08	16.19	-37.6	-38.6	23.0	0.00e+00	90	31	0	718274560	48	6140
2026-01-17 20:52:22.38	4.86	16.16	-37.6	-38.6	23.1	0.00e+00	0	31	0	720371712	48	6105
2026-01-17 20:52:23.39	4.64	16.14	-37.6	-38.5	23.1	0.00e+00	92	31	0	722468864	48	6088
2026-01-17 20:52:24.40	4.43	16.11	-37.7	-38.6	23.0	0.00e+00	0	31	0	724566016	48	6131
2026-01-17 20:52:25.41	4.21	16.09	-37.5	-38.4	23.1	0.00e+00	0	31	0	726663168	48	6018
2026-01-17 20:52:26.42	4.00	16.06	-37.6	-38.5	23.0	0.00e+00	33	31	0	727711744	48	6053
2026-01-17 20:52:27.43	3.78	16.03	-37.4	-38.3	23.2	0.00e+00	0	31	0	729808896	48	5924
2026-01-17 20:52:28.44	3.57	16.01	-37.3	-38.2	23.3	0.00e+00	40	31	0	731906048	48	5876
2026-01-17 20:52:29.45	3.35	15.98	-37.4	-38.3	23.2	0.00e+00	0	31	0	734003200	48	5942
2026-01-17 20:52:30.46	3.14	15.95	-37.6	-38.5	23.1	0.00e+00	92	31	0	736100352	48	6082
2026-01-17 20:52:31.47	2.93	15.92	-37.7	-38.7	23.0	0.00e+00	0	30	0	738197504	48	6183
2026-01-17 20:52:32.48	2.71	15.89	-37.6	-38.6	23.0	0.00e+00	0	31	0	739246080	48	6121
2026-01-17 20:52:33.49	2.50	15.87	-38.1	-39.0	22.7	0.00e+00	0	31	0	741343232	48	6463
2026-01-17 20:52:34.50	2.29	15.84	-38.0	-39.0	22.7	0.00e+00	0	31	0	743440384	48	6402
2026-01-17 20:52:35.50	2.08	15.81	-38.2	-39.3	22.5	0.00e+00	44	31	0	745537536	48	6620
2026-01-17 20:52:36.51	1.87	15.78	-38.3	-39.3	22.5	0.00e+00	0	30	0	747634688	48	6648
2026-01-17 20:52:37.52	1.66	15.75	-38.4	-39.5	22.3	0.00e+00	59	30	0	748683264	48	6774
2026-01-17 20:52:38.53	1.45	15.72	-38.6	-39.6	22.1	0.00e+00	0	30	0	750780416	48	6897
2026-01-17 20:52:39.54	1.24	15.69	-38.7	-39.7	22.1	0.00e+00	0	31	0	752877568	48	6996
2026-01-17 20:52:40.55	1.03	15.65	-38.9	-40.0	21.9	0.00e+00	0	31	0	754974720	50	6403
2026-01-17 20:52:41.56	0.82	15.62	-39.0	-40.1	21.8	0.00e+00	0	31	0	757071872	50	6523
2026-01-17 20:52:42.57	0.61	15.59	-38.8	-39.9	22.0	0.00e+00	29	31	0	758120448	50	6333
2026-01-17 20:52:43.58	0.40	15.56	-38.9	-40.0	21.9	0.00e+00	0	31	0	760217600	50	6420
2026-01-17 20:52:44.59	0.19	15.53	-38.8	-39.9	21.9	0.00e+00	92	31	0	762314752	50	6325
2026-01-17 20:52:45.60	359.99	15.49	-38.7	-39.8	22.1	0.00e+00	0	31	0	764411904	50	6253
2026-01-17 20:52:46.61	359.78	15.46	-38.7	-39.8	22.2	0.00e+00	41	31	0	766509056	50	6249
2026-01-17 20:52:47.62	359.57	15.43	-38.5	-39.5	22.3	0.00e+00	0	31	0	767557632	50	6071
2026-01-17 20:52:48.63	359.37	15.39	-38.2	-39.3	22.5	0.00e+00	0	31	0	769654784	50	5903
2026-01-17 20:52:49.64	359.16	15.36	-38.2	-39.2	22.6	0.00e+00	44	31	0	771751936	50	5872
2026-01-17 20:52:50.65	358.96	15.32	-38.1	-39.1	22.6	0.00e+00	0	31	0	773849088	50	5771
2026-01-17 20:52:51.66	358.75	15.29	-38.2	-39.2	22.3	0.00e+00	43	31	0	775946240	50	5875
2026-01-17 20:52:52.67	358.55	15.25	-38.2	-39.2	22.5	0.00e+00	0	31	0	776994816	50	5856
2026-01-17 20:52:53.68	358.35	15.22	-38.3	-39.3	22.5	0.00e+00	37	31	0	779091968	50	5926
2026-01-17 20:52:54.69	358.14	15.18	-38.3	-39.4	22.4	0.00e+00	0	31	0	781189120	50	5965
2026-01-17 20:52:55.70	357.94	15.14	-38.2	-39.2	22.5	0.00e+00	0	31	0	783286272	50	5890
2026-01-17 20:52:56.71	357.74	15.11	-38.0	-39.0	22.8	0.00e+00	0	31	0	785383424	50	5699
2026-01-17 20:52:57.72	357.54	15.07	-37.7	-38.7	22.9	0.00e+00	0	31	0	786432000	48	6212
2026-01-17 20:52:58.73	357.34	15.03	-37.7	-38.7	22.9	0.00e+00	33	31	0	788529152	48	6177
2026-01-17 20:52:59.74	357.14	15.00	-37.5	-38.4	23.1	0.00e+00	0	31	0	790626304	48	5991
2026-01-17 20:53:00.75	356.94	14.96	-37.4	-38.3	23.3	0.00e+00	60	31	0	792723456	48	5937
2026-01-17 20:53:01.76	356.74	14.92	-37.3	-38.2	23.3	0.00e+00	0	31	0	794820608	48	5852
2026-01-17 20:53:02.77	356.54	14.88	-37.6	-38.5	23.0	0.00e+00	0	31	0	795869184	48	6053
2026-01-17 20:53:03.78	356.34	14.84	-37.5	-38.4	23.0	0.00e+00	0	31	0	797966336	48	5995
2026-01-17 20:53:04.79	356.14	14.80	-37.5	-38.4	23.0	0.00e+00	0	30	0	800063488	48	6005
2026-01-17 20:53:05.80	355.95	14.77	-37.7	-38.6	22.9	0.00e+00	36	31	0	802160640	48	6161
2026-01-17 20:53:06.81	355.75	14.73	-37.7	-38.6	22.8	0.00e+00	0	31	0	804257792	48	6143
2026-01-17 20:53:07.82	355.55	14.69	-37.8	-38.7	22.9	0.00e+00	92	31	0	806354944	48	6235
2026-01-17 20:53:08.83	355.36	14.65	-38.0	-39.0	22.7	0.00e+00	0	31	0	807403520	48	6450
2026-01-17 20:53:09.84	355.16	14.61	-38.4	-39.4	22.3	0.00e+00	0	31	0	809500672	48	6766
2026-01-17 20:53:10.85	354.97	14.57	-38.6	-39.7	22.0	0.00e+00	0	31	0	811597824	48	6975
2026-01-17 20:53:11.86	354.77	14.52	-39.0	-40.2	21.8	0.00e+00	0	31	0	813694976	50	6562
2026-01-17 20:53:12.87	354.58	14.48	-39.3	-40.5	21.5	0.00e+00	40	31	0	815792128	50	6821
2026-01-17 20:53:13.88	354.39	14.44	-39.5	-40.7	21.2	0.00e+00	0	31	0	816840704	50	7000
2026-01-17 20:53:14.89	354.20	14.40	-39.3	-40.4	21.4	0.00e+00	56	31	0	818937856	50	6752
2026-01-17 20:53:15.90	354.00	14.36	-39.3	-40.5	21.5	0.00e+00	0	31	0	821035008	50	6775
2026-01-17 20:53:16.90	353.81	14.32	-39.1	-40.3	21.6	0.00e+00	0	31	0	823132160	50	6618
2026-01-17 20:53:17.91	353.62	14.27	-39.1	-40.3	21.5	0.00e+00	0	31	0	825229312	50	6625
2026-01-17 20:53:18.92	353.43	14.23	-39.0	-40.2	21.6	0.00e+00	0	31	0	826277888	50	6555
2026-01-17 20:53:19.93	353.24	14.19	-39.3	-40.5	21.4	0.00e+00	0	31	0	828375040	50	6784
2026-01-17 20:53:20.94	353.06	14.15	-39.4	-40.6	21.3	0.00e+00	0	31	0	830472192	50	6896
2026-01-17 20:53:21.95	352.87	14.10	-39.1	-40.3	21.5	0.00e+00	83	31	0	832569344	50	6643
2026-01-17 20:53:22.96	352.68	14.06	-39.3	-40.4	21.5	0.00e+00	0	31	0	834666496	50	6766
2026-01-17 20:53:23.97	352.49	14.02	-39.2	-40.3	21.6	0.00e+00	0	31	0	835715072	50	6685
2026-01-17 20:53:24.98	352.30	13.97	-39.2	-40.3	21.6	0.00e+00	0	31	0	837812224	50	6663
2026-01-17 20:53:25.99	352.12	13.93	-38.9	-40.0	21.7	0.00e+00	0	31	0	839909376	50	6432
2026-01-17 20:53:27.00	351.93	13.88	-39.0	-40.1	21.8	0.00e+00	38	31	0	842006528	50	6469
2026-01-17 20:53:28.01	351.75	13.84	-38.4	-39.5	22.2	0.00e+00	0	30	0	844103680	50	6036
2026-01-17 20:53:29.02	351.56	13.79	-38.8	-39.8	22.0	0.00e+00	92	31	0	845152256	50	6307
2026-01-17 20:53:30.03	351.38	13.75	-38.8	-39.9	21.9	0.00e+00	0	31	0	847249408	50	6369
2026-01-17 20:53:31.04	351.20	13.70	-38.9	-40.0	21.9	0.00e+00	0	31	0	849346560	50	6395
2026-01-17 20:53:32.05	351.01	13.66	-38.9	-40.0	21.9	0.00e+00	0	31	0	851443712	50	6399
2026-01-17 20:53:33.06	350.83	13.61	-38.6	-39.7	22.1	0.00e+00	0	31	0	853540864	50	6192
2026-01-17 20:53:34.07	350.65	13.57	-38.6	-39.7	22.1	0.00e+00	0	31	0	854589440	50	6175
2026-01-17 20:53:35.08	350.47	13.52	-38.5	-39.5	22.2	0.00e+00	0	31	0	856686592	50	6082
2026-01-17 20:53:36.09	350.29	13.47	-38.5	-39.5	22.1	0.00e+00	92	31	0	858783744	50	6071
2026-01-17 20:53:37.10	350.11	13.43	-38.2	-39.1	22.7	0.00e+00	0	31	0	860880896	50	5809
2026-01-17 20:53:38.10	349.93	13.38	-38.0	-38.9	22.7	0.00e+00	92	31	0	862978048	50	5683
2026-01-17 20:53:39.11	349.75	13.34	-38.0	-38.9	22.7	0.00e+00	0	31	0	864026624	50	5680
2026-01-17 20:53:40.12	349.57	13.29	-38.1	-39.1	22.6	0.00e+00	0	31	0	866123776	50	5779
2026-01-17 20:53:41.13	349.39	13.24	-38.6	-39.6	22.5	0.00e+00	7	31	0	868220928	50	6124
2026-01-17 20:53:42.15	349.22	13.19	-38.5	-39.6	22.1	0.00e+00	0	31	0	870318080	50	6120
2026-01-17 20:53:43.16	349.04	13.15	-38.8	-39.9	22.0	0.00e+00	89	31	0	872415232	50	6332
2026-01-17 20:53:44.17	348.86	13.10	-38.6	-39.6	22.1	0.00e+00	0	31	0	874512384	50	6150
2026-01-17 20:53:45.18	348.69	13.05	-38.8	-39.9	22.0	0.00e+00	72	31	0	875560960	50	6356
2026-01-17 20:53:46.19	348.51	13.00	-38.8	-39.9	21.9	0.00e+00	0	31	0	877658112	50	6327
2026-01-17 20:53:47.20	348.34	12.95	-38.7	-39.7	22.1	0.00e+00	0	31	0	879755264	50	6214
2026-01-17 20:53:48.21	348.17	12.91	-38.6	-39.6	22.1	0.00e+00	0	31	0	881852416	50	6135
2026-01-17 20:53:49.22	347.99	12.86	-38.8	-39.8	22.0	0.00e+00	0	31	0	883949568	50	6303
2026-01-17 20:53:50.23	347.82	12.81	-38.8	-39.8	21.9	0.00e+00	43	31	0	884998144	50	6296
2026-01-17 20:53:51.24	347.65	12.76	-38.7	-39.7	22.1	0.00e+00	0	31	0	887095296	50	6207
2026-01-17 20:53:52.25	347.48	12.71	-39.1	-40.2	21.6	0.00e+00	75	31	0	889192448	50	6561
2026-01-17 20:53:53.26	347.31	12.66	-39.4	-40.6	21.2	0.00e+00	0	31	0	891289600	50	6872
2026-01-17 20:53:54.27	347.14	12.61	-39.9	-41.2	20.8	0.00e+00	0	31	0	893386752	52	6559
2026-01-17 20:53:55.28	346.97	12.56	-40.5	-41.8	20.2	0.00e+00	0	31	0	894435328	52	7056
2026-01-17 20:53:56.29	346.80	12.51	-41.0	-42.5	19.5	0.00e+00	0	31	0	896532480	54	6784
2026-01-17 20:53:57.30	346.63	12.46	-41.4	-43.0	19.0	0.00e+00	15	31	0	898629632	54	7198
2026-01-17 20:53:58.31	346.46	12.41	-42.1	-43.9	18.1	0.00e+00	0	31	0	900726784	56	7163
2026-01-17 20:53:59.32	346.29	12.36	-42.3	-44.3	18.1	0.00e+00	92	31	0	902823936	56	7434
2026-01-17 20:54:00.33	346.13	12.31	-42.2	-44.1	18.1	0.00e+00	0	31	0	903872512	56	7327
2026-01-17 20:54:01.34	345.96	12.26	-41.7	-43.4	18.8	0.00e+00	0	31	0	905969664	56	6736
2026-01-17 20:54:02.35	345.80	12.21	-41.6	-43.3	18.9	0.00e+00	0	31	0	908066816	56	6645
2026-01-17 20:54:03.36	345.63	12.16	-41.1	-42.7	19.5	0.00e+00	0	31	0	910163968	56	6178
2026-01-17 20:54:04.37	345.47	12.11	-40.9	-42.5	19.6	7.00e-07	24	31	0	912261120	56	6040
2026-01-17 20:54:05.37	345.30	12.06	-41.1	-42.6	19.5	0.00e+00	0	31	0	913309696	56	6148
2026-01-17 20:54:06.38	345.14	12.01	-40.7	-42.2	19.9	0.00e+00	92	31	0	915406848	56	5850
2026-01-17 20:54:07.39	344.98	11.96	-40.6	-42.1	20.0	0.00e+00	31	31	0	917504000	54	6471
2026-01-17 20:54:08.40	344.82	11.91	-40.5	-41.9	19.9	0.00e+00	43	31	0	919601152	54	6335
2026-01-17 20:54:09.41	344.66	11.86	-40.4	-41.7	20.3	0.00e+00	0	31	0	921698304	54	6231
2026-01-17 20:54:10.42	344.49	11.80	-40.3	-41.7	20.5	0.00e+00	0	31	0	922746880	54	6186
2026-01-17 20:54:11.42	344.34	11.75	-39.8	-41.1	20.8	0.00e+00	9	31	0	924844032	54	5764
2026-01-17 20:54:12.44	344.17	11.70	-39.7	-40.9	20.9	0.00e+00	0	31	0	926941184	52	6346
2026-01-17 20:54:13.44	344.02	11.65	-39.5	-40.7	21.1	0.00e+00	92	31	0	929038336	52	6182
2026-01-17 20:54:14.46	343.86	11.60	-39.5	-40.7	21.0	0.00e+00	0	31	0	931135488	52	6234
2026-01-17 20:54:15.47	343.70	11.54	-39.6	-40.9	21.0	0.00e+00	74	31	0	932184064	52	6319
2026-01-17 20:54:16.48	343.54	11.49	-39.9	-41.2	20.9	0.00e+00	0	31	0	934281216	52	6548
2026-01-17 20:54:17.48	343.39	11.44	-39.8	-41.0	20.9	0.00e+00	0	31	0	936378368	52	6458
2026-01-17 20:54:18.49	343.23	11.39	-40.1	-41.4	20.6	0.00e+00	0	31	0	938475520	52	6701
2026-01-17 20:54:19.50	343.07	11.34	-40.1	-41.4	20.5	0.00e+00	0	31	0	940572672	52	6742
2026-01-17 20:54:20.51	342.92	11.28	-40.0	-41.2	20.6	0.00e+00	39	31	0	942669824	52	6589
2026-01-17 20:54:21.52	342.76	11.23	-39.9	-41.2	20.9	0.00e+00	0	31	0	943718400	52	6574
2026-01-17 20:54:22.53	342.61	11.18	-39.7	-40.9	21.0	0.00e+00	92	31	0	945815552	52	6339
2026-01-17 20:54:23.54	342.46	11.13	-39.7	-40.9	20.9	0.00e+00	0	31	0	947912704	52	6382
2026-01-17 20:54:24.55	342.30	11.07	-40.0	-41.3	20.7	0.00e+00	0	31	0	950009856	52	6648
2026-01-17 20:54:25.56	342.15	11.02	-39.7	-40.9	21.0	0.00e+00	0	31	0	952107008	52	6360
2026-01-17 20:54:26.57	342.00	10.97	-39.8	-41.0	20.8	0.00e+00	0	31	0	953155584	52	6464
2026-01-17 20:54:27.58	341.85	10.91	-39.8	-41.0	20.8	0.00e+00	42	31	0	955252736	52	6440
2026-01-17 20:54:28.58	341.70	10.86	-39.7	-40.9	20.9	0.00e+00	0	31	0	957349888	52	6384
2026-01-17 20:54:29.59	341.55	10.81	-39.5	-40.7	21.2	0.00e+00	49	31	0	959447040	52	6198
2026-01-17 20:54:30.60	341.40	10.75	-39.5	-40.7	21.1	0.00e+00	0	31	0	961544192	52	6207
2026-01-17 20:54:31.61	341.25	10.70	-39.5	-40.7	21.0	0.00e+00	0	31	0	962592768	52	6240
2026-01-17 20:54:32.62	341.10	10.65	-39.8	-41.0	20.8	0.00e+00	0	31	0	964689920	52	6457
2026-01-17 20:54:33.63	340.95	10.59	-39.7	-40.9	21.0	0.00e+00	0	31	0	966787072	52	6357
2026-01-17 20:54:34.64	340.81	10.54	-39.9	-41.1	20.7	0.00e+00	32	31	0	968884224	52	6524
2026-01-17 20:54:35.65	340.66	10.49	-39.9	-41.2	20.7	0.00e+00	0	31	0	970981376	52	6546
2026-01-17 20:54:36.66	340.51	10.43	-39.9	-41.2	20.6	0.00e+00	92	31	0	972029952	52	6592
2026-01-17 20:54:37.67	340.37	10.38	-40.0	-41.3	20.6	0.00e+00	0	31	0	974127104	52	6680
2026-01-17 20:54:38.68	340.22	10.33	-40.0	-41.3	20.5	0.00e+00	86	31	0	976224256	52	6634
2026-01-17 20:54:39.69	340.08	10.27	-39.8	-41.1	20.8	0.00e+00	0	31	0	978321408	52	6486
2026-01-17 20:54:40.70	339.93	10.22	-39.9	-41.2	20.7	0.00e+00	0	31	0	980418560	52	6546
2026-01-17 20:54:41.71	339.79	10.16	-39.7	-41.0	20.8	0.00e+00	33	31	0	981467136	52	6430
2026-01-17 20:54:42.72	339.65	10.11	-39.7	-41.0	20.7	0.00e+00	0	31	0	983564288	52	6428
2026-01-17 20:54:43.72	339.51	10.06	-39.6	-40.8	21.1	0.00e+00	90	31	0	985661440	52	6267
2026-01-17 20:54:44.73	339.36	10.00	-39.6	-40.8	21.0	0.00e+00	0	31	0	987758592	52	6296
2026-01-17 20:54:45.74	339.22	9.95	-39.5	-40.7	21.1	0.00e+00	68	31	0	989855744	52	6242
2026-01-17 20:54:46.75	339.08	9.89	-39.3	-40.5	21.3	0.00e+00	0	31	0	990904320	52	6060
2026-01-17 20:54:47.76	338.94	9.84	-39.4	-40.6	21.2	0.00e+00	0	31	0	993001472	52	6165
2026-01-17 20:54:48.77	338.80	9.78	-39.0	-40.2	21.5	0.00e+00	0	31	0	995098624	52	5846
2026-01-17 20:54:49.78	338.66	9.73	-38.9	-40.0	21.7	0.00e+00	0	31	0	997195776	52	5720
2026-01-17 20:54:50.79	338.52	9.68	-38.5	-39.5	22.0	0.00e+00	32	31	0	999292928	50	6086
2026-01-17 20:54:51.80	338.39	9.62	-38.4	-39.5	22.2	0.00e+00	0	31	0	1000341504	50	6054
2026-01-17 20:54:52.81	338.25	9.57	-38.3	-39.3	22.1	0.00e+00	72	31	0	1002438656	50	5939
2026-01-17 20:54:53.82	338.11	9.51	-38.2	-39.2	22.3	0.00e+00	0	31	0	1004535808	50	5855
2026-01-17 20:54:54.83	337.97	9.46	-38.2	-39.2	22.3	0.00e+00	0	31	0	1006632960	50	5882
2026-01-17 20:54:55.84	337.84	9.40	-38.4	-39.4	22.1	0.00e+00	0	31	0	1008730112	50	6031
2026-01-17 20:54:56.85	337.70	9.35	-38.4	-39.5	22.1	0.00e+00	0	31	0	1010827264	50	6077
2026-01-17 20:54:57.86	337.57	9.29	-38.5	-39.6	22.0	0.00e+00	30	31	0	1011875840	50	6127
2026-01-17 20:54:58.87	337.43	9.24	-38.7	-39.8	21.8	0.00e+00	0	31	0	1013972992	50	6315
2026-01-17 20:54:59.88	337.30	9.18	-38.8	-39.9	21.7	0.00e+00	92	31	0	1016070144	50	6329
2026-01-17 20:55:00.89	337.17	9.13	-38.9	-40.1	21.6	0.00e+00	0	31	0	1018167296	50	6492
2026-01-17 20:55:01.90	337.03	9.07	-38.7	-39.9	21.8	0.00e+00	0	31	0	1020264448	50	6322
2026-01-17 20:55:02.91	336.90	9.02	-38.6	-39.7	21.8	0.00e+00	0	31	0	1021313024	50	6219
2026-01-17 20:55:03.92	336.77	8.96	-38.6	-39.7	21.9	0.00e+00	0	31	0	1023410176	50	6183
2026-01-17 20:55:04.92	336.64	8.91	-38.7	-39.8	21.8	0.00e+00	0	31	0	1025507328	50	6282
2026-01-17 20:55:05.93	336.51	8.85	-38.5	-39.6	21.9	0.00e+00	0	31	0	1027604480	50	6126
2026-01-17 20:55:06.94	336.38	8.80	-38.4	-39.4	22.0	0.00e+00	92	31	0	1029701632	50	6017
2026-01-17 20:55:07.95	336.25	8.74	-38.5	-39.5	22.0	0.00e+00	0	31	0	1030750208	50	6101
2026-01-17 20:55:08.96	336.12	8.69	-38.5	-39.6	21.9	0.00e+00	32	31	0	1032847360	50	6113
2026-01-17 20:55:09.97	335.99	8.63	-38.5	-39.6	21.9	0.00e+00	0	31	0	1034944512	50	6134
2026-01-17 20:55:10.98	335.86	8.58	-38.7	-39.8	21.8	0.00e+00	0	31	0	1037041664	50	6252
2026-01-17 20:55:11.99	335.73	8.52	-38.7	-39.8	21.7	0.00e+00	0	31	0	1039138816	50	6283
2026-01-17 20:55:13.00	335.61	8.47	-38.8	-39.9	21.7	0.00e+00	0	31	0	1040187392	50	6356
2026-01-17 20:55:14.01	335.48	8.41	-38.7	-39.8	21.7	0.00e+00	76	31	0	1042284544	50	6308
2026-01-17 20:55:15.02	335.35	8.36	-39.1	-40.2	21.3	0.00e+00	0	31	0	1044381696	50	6582
2026-01-17 20:55:16.02	335.23	8.30	-39.0	-40.1	21.4	0.00e+00	92	31	0	1046478848	50	6539
2026-01-17 20:55:17.03	335.10	8.25	-39.0	-40.1	21.4	0.00e+00	0	31	0	1048576000	50	6499
2026-01-17 20:55:18.04	334.98	8.19	-39.0	-40.1	21.4	0.00e+00	0	31	0	1049624576	50	6507
2026-01-17 20:55:19.06	334.85	8.14	-39.1	-40.3	21.3	0.00e+00	0	31	0	1051721728	50	6646
2026-01-17 20:55:20.06	334.73	8.08	-39.2	-40.4	21.3	0.00e+00	0	30	0	1053818880	50	6705
2026-01-17 20:55:21.07	334.60	8.03	-39.3	-40.4	21.2	0.00e+00	36	31	0	1055916032	50	6748
2026-01-17 20:55:22.08	334.48	7.97	-39.1	-40.3	21.3	0.00e+00	0	31	0	1058013184	50	6628
2026-01-17 20:55:23.09	334.36	7.92	-39.0	-40.1	21.3	0.00e+00	92	31	0	1059061760	50	6534
2026-01-17 20:55:24.10	334.24	7.86	-39.2	-40.4	21.1	0.00e+00	0	31	0	1061158912	50	6721
2026-01-17 20:55:25.11	334.12	7.81	-39.4	-40.6	21.1	0.00e+00	0	31	0	1063256064	50	6885
2026-01-17 20:55:26.12	333.99	7.75	-39.3	-40.5	21.2	0.00e+00	0	31	0	1065353216	50	6806
2026-01-17 20:55:27.13	333.87	7.70	-39.2	-40.4	21.1	0.00e+00	0	31	0	1067450368	50	6716
2026-01-17 20:55:28.14	333.75	7.64	-39.2	-40.3	21.1	0.00e+00	92	31	0	1068498944	50	6657
2026-01-17 20:55:29.14	333.63	7.59	-39.3	-40.5	20.9	0.00e+00	0	31	0	1070596096	50	6814
2026-01-17 20:55:30.15	333.52	7.53	-39.1	-40.2	21.4	0.00e+00	62	31	0	1072693248	50	6588
2026-01-17 20:55:31.16	333.40	7.48	-39.1	-40.2	21.2	0.00e+00	0	31	0	1074790400	50	6600
2026-01-17 20:55:32.17	333.28	7.42	-39.0	-40.1	21.5	0.00e+00	0	31	0	1076887552	50	6503
2026-01-17 20:55:33.18	333.16	7.37	-38.9	-40.0	21.3	0.00e+00	0	31	0	1077936128	50	6398
2026-01-17 20:55:34.19	333.04	7.31	-38.7	-39.7	21.6	0.00e+00	0	31	0	1080033280	50	6239
2026-01-17 20:55:35.20	332.93	7.25	-38.5	-39.5	21.8	0.00e+00	35	31	0	1082130432	50	6077
2026-01-17 20:55:36.21	332.81	7.20	-38.5	-39.6	21.4	0.00e+00	0	31	0	1084227584	50	6131
2026-01-17 20:55:37.22	332.69	7.14	-38.6	-39.6	21.7	0.00e+00	73	31	0	1086324736	50	6154
2026-01-17 20:55:38.23	332.58	7.09	-38.5	-39.5	21.6	0.00e+00	0	31	0	1087373312	50	6092
2026-01-17 20:55:39.24	332.46	7.03	-38.5	-39.6	21.7	0.00e+00	0	31	0	1089470464	50	6120
2026-01-17 20:55:40.25	332.35	6.98	-38.8	-39.9	21.5	0.00e+00	0	31	0	1091567616	50	6338
2026-01-17 20:55:41.25	332.23	6.92	-38.9	-40.0	21.4	0.00e+00	0	31	0	1093664768	50	6443
2026-01-17 20:55:42.27	332.12	6.87	-39.3	-40.5	21.0	0.00e+00	27	31	0	1095761920	50	6803
2026-01-17 20:55:43.28	332.01	6.81	-39.5	-40.7	20.8	0.00e+00	0	31	0	1096810496	50	6965
2026-01-17 20:55:44.28	331.89	6.76	-39.4	-40.6	20.9	0.00e+00	34	31	0	1098907648	50	6875
2026-01-17 20:55:45.29	331.78	6.70	-39.6	-40.9	20.7	0.00e+00	0	31	0	1101004800	52	6341
2026-01-17 20:55:46.30	331.67	6.65	-40.0	-41.4	20.3	0.00e+00	41	31	0	1103101952	52	6696
2026-01-17 20:55:47.31	331.56	6.59	-40.5	-41.8	19.7	0.00e+00	0	31	0	1105199104	52	7078
2026-01-17 20:55:48.32	331.45	6.54	-40.2	-41.6	20.1	0.00e+00	0	31	0	1107296256	52	6851
2026-01-17 20:55:49.33	331.34	6.48	-40.2	-41.5	20.0	0.00e+00	0	31	0	1108344832	52	6790
2026-01-17 20:55:50.34	331.23	6.43	-39.8	-41.1	20.6	0.00e+00	0	31	0	1110441984	52	6494
2026-01-17 20:55:51.35	331.12	6.37	-39.7	-41.0	20.5	0.00e+00	92	31	0	1112539136	52	6422
2026-01-17 20:55:52.36	331.01	6.32	-39.8	-41.1	20.5	0.00e+00	0	31	0	1114636288	52	6482
2026-01-17 20:55:53.37	330.90	6.26	-39.2	-40.4	21.1	0.00e+00	50	31	0	1116733440	52	5977
2026-01-17 20:55:54.38	330.79	6.21	-39.2	-40.4	21.1	0.00e+00	0	31	0	1117782016	52	5978
2026-01-17 20:55:55.39	330.68	6.15	-39.2	-40.3	21.1	0.00e+00	0	31	0	1119879168	52	5960
2026-01-17 20:55:56.40	330.57	6.10	-39.0	-40.2	21.2	0.00e+00	34	31	0	1121976320	52	5856
2026-01-17 20:55:57.40	330.47	6.04	-39.1	-40.2	21.2	0.00e+00	0	31	0	1124073472	52	5864
2026-01-17 20:55:58.41	330.36	5.99	-39.0	-40.2	21.2	0.00e+00	58	31	0	1126170624	52	5840
2026-01-17 20:55:59.42	330.25	5.93	-39.1	-40.3	21.2	0.00e+00	0	31	0	1127219200	52	5897
2026-01-17 20:56:00.42	330.15	5.88	-39.0	-40.1	21.3	0.00e+00	92	31	0	1129316352	52	5792
2026-01-17 20:56:01.43	330.04	5.82	-39.1	-40.3	21.1	0.00e+00	0	31	0	1131413504	52	5920
2026-01-17 20:56:02.44	329.94	5.77	-39.3	-40.5	21.1	0.00e+00	0	31	0	1133510656	52	6077
2026-01-17 20:56:03.45	329.83	5.71	-39.5	-40.7	20.8	0.00e+00	0	31	0	1135607808	52	6176
2026-01-17 20:56:04.46	329.73	5.66	-39.6	-40.8	20.7	0.00e+00	33	31	0	1136656384	52	6300
2026-01-17 20:56:05.47	329.62	5.61	-39.4	-40.6	20.8	0.00e+00	35	31	0	1138753536	52	6154
2026-01-17 20:56:06.48	329.52	5.55	-39.8	-41.1	20.5	0.00e+00	0	31	0	1140850688	52	6469
2026-01-17 20:56:07.49	329.42	5.50	-39.9	-41.2	20.3	0.00e+00	90	31	0	1142947840	52	6570
2026-01-17 20:56:08.50	329.31	5.44	-40.0	-41.3	20.1	0.00e+00	0	31	0	1145044992	52	6661
2026-01-17 20:56:09.51	329.21	5.39	-40.3	-41.7	19.7	0.00e+00	0	31	0	1146093568	52	6984
2026-01-17 20:56:10.52	329.11	5.33	-40.6	-42.0	19.6	0.00e+00	0	31	0	1148190720	52	7191
2026-01-17 20:56:11.53	329.01	5.28	-40.6	-42.0	19.5	0.00e+00	0	31	0	1150287872	54	6448
2026-01-17 20:56:12.54	328.91	5.22	-40.7	-42.1	19.4	0.00e+00	35	31	0	1152385024	54	6526
2026-01-17 20:56:13.55	328.81	5.17	-40.8	-42.3	19.1	0.00e+00	0	31	0	1154482176	54	6659
2026-01-17 20:56:14.56	328.71	5.11	-40.8	-42.3	19.3	0.00e+00	92	31	0	1155530752	54	6630
2026-01-17 20:56:15.57	328.61	5.06	-41.0	-42.5	19.1	0.00e+00	0	31	0	1157627904	54	6805
2026-01-17 20:56:16.58	328.51	5.00	-40.9	-42.4	19.1	0.00e+00	64	31	0	1159725056	54	6762
2026-01-17 20:56:17.59	328.41	4.95	-41.0	-42.5	19.1	0.00e+00	0	31	0	1161822208	54	6799
2026-01-17 20:56:18.60	328.31	4.90	-40.9	-42.5	19.1	0.00e+00	0	31	0	1163919360	54	6774
2026-01-17 20:56:19.60	328.21	4.84	-41.0	-42.5	19.0	0.00e+00	0	31	0	1164967936	54	6825
2026-01-17 20:56:20.61	328.11	4.79	-40.6	-42.1	19.5	0.00e+00	0	31	0	1167065088	54	6487
2026-01-17 20:56:21.62	328.01	4.73	-40.3	-41.7	19.8	0.00e+00	56	31	0	1169162240	54	6184
2026-01-17 20:56:22.63	327.92	4.68	-40.4	-41.8	19.6	0.00e+00	0	31	0	1171259392	54	6311
2026-01-17 20:56:23.64	327.82	4.62	-40.4	-41.8	19.6	0.00e+00	84	31	0	1173356544	54	6291
2026-01-17 20:56:24.65	327.72	4.57	-40.6	-42.0	19.4	0.00e+00	0	31	0	1174405120	54	6459
2026-01-17 20:56:25.66	327.63	4.52	-40.8	-42.3	19.3	0.00e+00	0	31	0	1176502272	54	6657
2026-01-17 20:56:26.67	327.53	4.46	-40.6	-42.0	19.4	0.00e+00	0	31	0	1178599424	54	6433
2026-01-17 20:56:27.68	327.43	4.41	-41.1	-42.7	18.7	0.00e+00	0	31	0	1180696576	54	6982
2026-01-17 20:56:28.69	327.34	4.35	-41.1	-42.7	18.7	0.00e+00	45	31	0	1182793728	54	6951
2026-01-17 20:56:29.70	327.24	4.30	-41.1	-42.7	18.8	0.00e+00	0	31	0	1184890880	54	6956
2026-01-17 20:56:30.71	327.15	4.25	-41.4	-43.2	18.3	0.00e+00	91	31	0	1185939456	54	7347
2026-01-17 20:56:31.72	327.06	4.19	-41.6	-43.4	18.2	0.00e+00	0	31	0	1188036608	54	7531
2026-01-17 20:56:32.73	326.96	4.14	-41.6	-43.3	18.2	0.00e+00	0	31	0	1190133760	54	7483
2026-01-17 20:56:33.74	326.87	4.08	-41.7	-43.5	18.1	0.00e+00	0	31	0	1192230912	56	6826
2026-01-17 20:56:34.75	326.78	4.03	-41.9	-43.7	17.9	0.00e+00	0	31	0	1194328064	56	6960
2026-01-17 20:56:35.76	326.68	3.98	-41.6	-43.4	18.0	0.00e+00	30	31	0	1195376640	56	6739
2026-01-17 20:56:36.77	326.59	3.92	-41.6	-43.4	18.1	0.00e+00	0	31	0	1197473792	56	6726
2026-01-17 20:56:37.78	326.50	3.87	-41.8	-43.6	18.0	0.00e+00	92	31	0	1199570944	56	6875
2026-01-17 20:56:38.79	326.41	3.81	-41.4	-43.1	18.3	0.00e+00	0	31	0	1201668096	56	6525
2026-01-17 20:56:39.80	326.32	3.76	-41.2	-42.9	18.5	0.00e+00	0	31	0	1203765248	56	6337
2026-01-17 20:56:40.81	326.22	3.71	-41.5	-43.2	18.4	0.00e+00	0	31	0	1204813824	56	6599
