passes_logs/2026/01/17/R4.6S_Anadyr/R4.6S_Anadyr__20260117_174751_NOAA_20_JPSS-1_rec.log

#Pass ID: 20260117_174751_NOAA 20 (JPSS-1)
#Satellite: NOAA 20 (JPSS-1)
#Configuration: NOAA 20
#almurnet v.1.7.20251203
#Start time: 2026-01-17 17:47:52

#Version: 2.2.20231116
#Station: R4.6S_Anadyr
#Location: 177.4865 lon 64.73178 lat
#TLE: 1 43013U 17073A   26016.52825843  .00000039  00000+0  39346-4 0  9991
#TLE: 2 43013  98.7637 317.4515 0001446  37.2648 322.8628 14.19536276422951

#Time	Az	El	Level	Level2	SNR	BER	BlckErr	Temp	State	Recorded	gain1	gain2
2026-01-17 17:47:52.40	34.64	0.07	-48.7	-63.6	3.5	1.51e+00	0	26	0	0	60	54853
2026-01-17 17:47:53.41	34.58	0.12	-48.7	-63.9	3.6	1.51e+00	0	28	104	0	60	56708
2026-01-17 17:47:54.42	34.52	0.18	-48.8	-64.0	3.6	1.51e+00	0	28	104	0	60	57277
2026-01-17 17:47:55.43	34.45	0.23	-48.7	-63.9	3.6	1.51e+00	0	28	104	0	60	56953
2026-01-17 17:47:56.44	34.39	0.28	-48.8	-64.0	3.6	1.51e+00	0	28	104	0	60	57224
2026-01-17 17:47:57.45	34.32	0.33	-48.8	-64.0	3.6	1.51e+00	0	28	104	0	60	57600
2026-01-17 17:47:58.46	34.25	0.39	-48.8	-64.0	3.6	1.51e+00	0	28	104	0	60	57239
2026-01-17 17:47:59.47	34.19	0.44	-48.8	-64.0	3.6	1.51e+00	0	28	104	0	60	57336
2026-01-17 17:48:00.48	34.12	0.49	-48.8	-63.9	3.6	1.51e+00	0	28	104	0	60	56734
2026-01-17 17:48:01.49	34.06	0.55	-48.7	-63.9	3.6	1.51e+00	0	28	104	0	60	56410
2026-01-17 17:48:02.50	33.99	0.60	-48.6	-63.8	3.6	1.51e+00	0	28	104	0	60	55870
2026-01-17 17:48:03.50	33.92	0.65	-48.6	-63.8	3.6	1.51e+00	0	28	104	0	60	56044
2026-01-17 17:48:04.51	33.86	0.70	-48.5	-63.7	3.6	1.51e+00	0	28	104	0	60	55459
2026-01-17 17:48:05.52	33.79	0.76	-48.4	-63.5	3.6	1.51e+00	0	28	104	0	60	54308
2026-01-17 17:48:06.53	33.72	0.81	-48.2	-63.3	3.6	1.51e+00	0	28	104	0	60	53142
2026-01-17 17:48:07.54	33.65	0.86	-48.0	-63.1	3.6	1.51e+00	0	28	104	0	60	51740
2026-01-17 17:48:08.56	33.58	0.92	-47.6	-62.7	3.6	1.51e+00	0	28	104	0	60	49567
2026-01-17 17:48:09.57	33.52	0.97	-47.2	-62.3	3.6	1.51e+00	0	28	104	0	60	47190
2026-01-17 17:48:10.57	33.45	1.02	-47.2	-62.3	3.6	1.51e+00	0	28	104	0	60	47044
2026-01-17 17:48:11.58	33.38	1.08	-47.2	-62.3	3.6	1.51e+00	0	28	104	0	60	46938
2026-01-17 17:48:12.59	33.31	1.13	-47.2	-62.3	3.6	1.51e+00	0	28	104	0	60	46838
2026-01-17 17:48:13.61	33.24	1.18	-47.2	-62.3	3.6	1.51e+00	0	28	104	0	60	46914
2026-01-17 17:48:14.62	33.17	1.24	-47.2	-62.3	3.6	1.51e+00	0	28	104	0	60	46877
2026-01-17 17:48:15.63	33.10	1.29	-47.1	-62.2	3.6	1.51e+00	0	28	104	0	60	46756
2026-01-17 17:48:16.64	33.03	1.34	-47.2	-62.3	3.6	1.51e+00	0	28	104	0	60	46977
2026-01-17 17:48:17.65	32.96	1.40	-47.2	-62.3	3.6	1.51e+00	0	28	104	0	60	46880
2026-01-17 17:48:18.66	32.89	1.45	-47.2	-62.3	3.6	1.51e+00	0	28	104	0	60	46872
2026-01-17 17:48:19.67	32.82	1.51	-47.2	-62.3	3.6	1.51e+00	0	28	104	0	60	46838
2026-01-17 17:48:20.68	32.75	1.56	-47.2	-62.3	3.6	1.51e+00	0	28	104	0	60	46947
2026-01-17 17:48:21.69	32.67	1.61	-47.2	-62.3	3.6	1.51e+00	0	28	104	0	60	47064
2026-01-17 17:48:22.70	32.60	1.67	-47.2	-62.3	3.5	1.51e+00	0	28	104	0	60	47235
2026-01-17 17:48:23.71	32.53	1.72	-47.2	-62.3	3.6	1.51e+00	0	28	104	0	60	47063
2026-01-17 17:48:24.72	32.46	1.78	-47.2	-62.3	3.6	1.51e+00	0	28	104	0	60	47227
2026-01-17 17:48:25.73	32.39	1.83	-47.2	-62.3	3.6	1.51e+00	0	28	104	0	60	46990
2026-01-17 17:48:26.74	32.31	1.89	-47.2	-62.2	3.6	1.51e+00	0	28	104	0	60	46505
2026-01-17 17:48:27.75	32.24	1.94	-47.1	-62.1	3.6	1.51e+00	0	28	104	0	60	46072
2026-01-17 17:48:28.76	32.17	1.99	-47.1	-62.1	3.6	1.51e+00	0	28	104	0	60	45801
2026-01-17 17:48:29.77	32.09	2.05	-47.1	-62.0	3.6	1.51e+00	0	28	104	0	60	45460
2026-01-17 17:48:30.78	32.02	2.10	-47.1	-61.9	3.6	1.51e+00	0	28	104	0	60	45056
2026-01-17 17:48:31.79	31.94	2.16	-47.1	-62.0	3.6	1.51e+00	0	28	104	0	60	45534
2026-01-17 17:48:32.80	31.87	2.21	-47.1	-62.2	3.6	1.51e+00	0	28	104	0	60	46513
2026-01-17 17:48:33.81	31.79	2.27	-47.2	-62.3	3.6	1.51e+00	0	28	104	0	60	46946
2026-01-17 17:48:34.82	31.72	2.32	-47.2	-62.3	3.6	1.51e+00	0	28	104	0	60	47201
2026-01-17 17:48:35.83	31.64	2.38	-47.2	-62.3	3.6	1.51e+00	0	28	104	0	60	47144
2026-01-17 17:48:36.84	31.57	2.43	-47.2	-62.3	3.6	1.51e+00	0	28	104	0	60	46899
2026-01-17 17:48:37.85	31.49	2.49	-47.1	-62.3	3.6	1.51e+00	0	29	104	0	60	46981
2026-01-17 17:48:38.86	31.41	2.54	-47.1	-62.3	3.6	1.51e+00	0	28	104	0	60	46979
2026-01-17 17:48:39.87	31.34	2.60	-47.1	-62.0	3.6	1.51e+00	0	28	104	0	60	45409
2026-01-17 17:48:40.88	31.26	2.65	-47.1	-61.5	3.6	1.51e+00	0	28	104	0	60	42725
2026-01-17 17:48:41.89	31.18	2.71	-47.1	-61.2	3.6	1.51e+00	0	28	104	0	60	41380
2026-01-17 17:48:42.90	31.10	2.76	-47.1	-61.5	3.6	1.51e+00	0	29	104	0	60	42777
2026-01-17 17:48:43.91	31.03	2.82	-47.1	-62.0	3.6	1.51e+00	0	29	104	0	60	45338
2026-01-17 17:48:44.92	30.95	2.87	-47.1	-61.2	3.6	1.51e+00	0	29	104	0	60	41327
2026-01-17 17:48:45.93	30.87	2.93	-46.9	-58.2	4.3	1.45e+00	0	29	104	0	60	29535
2026-01-17 17:48:46.95	30.79	2.98	-46.6	-54.1	6.1	6.16e-01	46	28	0	1048576	60	18369
2026-01-17 17:48:47.96	30.71	3.04	-46.0	-51.6	9.0	1.11e-01	35	28	0	3145728	60	13735
2026-01-17 17:48:48.97	30.63	3.10	-45.6	-50.6	10.3	9.14e-03	47	29	0	4194304	60	12229
2026-01-17 17:48:49.98	30.55	3.15	-45.5	-50.3	10.7	2.48e-03	2	29	0	6291456	60	11778
2026-01-17 17:48:50.99	30.47	3.21	-46.4	-53.2	7.3	1.45e-02	92	28	0	8388608	60	16560
2026-01-17 17:48:52.00	30.39	3.26	-47.1	-59.9	3.6	1.39e+00	0	29	104	9437184	60	35571
2026-01-17 17:48:53.00	30.31	3.32	-46.4	-54.1	6.2	1.37e-02	92	29	0	9437184	60	18256
2026-01-17 17:48:54.01	30.23	3.37	-42.3	-44.4	17.0	1.19e-04	0	28	0	11534336	56	7548
2026-01-17 17:48:55.02	30.15	3.43	-47.0	-61.2	3.6	1.54e+00	0	29	104	12582912	60	41634
2026-01-17 17:48:56.03	30.07	3.49	-43.1	-45.6	15.4	1.21e+00	0	29	104	12582912	60	6893
2026-01-17 17:48:57.04	29.98	3.54	-43.6	-46.3	15.5	0.00e+00	0	29	0	12582912	60	7432
2026-01-17 17:48:58.05	29.90	3.60	-42.5	-44.6	16.6	0.00e+00	0	28	0	14680064	58	6918
2026-01-17 17:48:59.06	29.82	3.65	-42.4	-44.5	17.0	0.00e+00	0	29	0	16777216	58	6771
2026-01-17 17:49:00.07	29.74	3.71	-42.3	-44.4	17.1	0.00e+00	92	28	0	18874368	58	6739
2026-01-17 17:49:01.08	29.65	3.77	-42.0	-43.9	17.5	0.00e+00	0	28	0	20971520	58	6355
2026-01-17 17:49:02.10	29.57	3.82	-41.9	-43.8	17.7	0.00e+00	92	29	0	22020096	58	6306
2026-01-17 17:49:03.11	29.48	3.88	-42.0	-43.8	17.7	0.00e+00	37	29	0	24117248	56	7083
2026-01-17 17:49:04.11	29.40	3.94	-42.0	-43.9	17.6	0.00e+00	0	28	0	26214400	56	7095
2026-01-17 17:49:05.12	29.32	3.99	-41.9	-43.7	17.8	0.00e+00	30	28	0	28311552	56	6998
2026-01-17 17:49:06.13	29.23	4.05	-42.0	-43.8	17.8	0.00e+00	0	29	0	30408704	56	7073
2026-01-17 17:49:07.14	29.14	4.11	-42.0	-43.8	17.8	0.00e+00	92	28	0	31457280	56	7071
2026-01-17 17:49:08.15	29.06	4.16	-42.0	-43.9	17.7	0.00e+00	38	29	0	33554432	56	7115
2026-01-17 17:49:09.15	28.97	4.22	-42.0	-43.9	17.7	0.00e+00	92	29	0	35651584	56	7121
2026-01-17 17:49:10.16	28.89	4.28	-42.2	-44.1	17.6	0.00e+00	38	29	0	37748736	56	7272
2026-01-17 17:49:11.17	28.80	4.33	-42.4	-44.4	17.3	0.00e+00	0	29	0	39845888	56	7565
2026-01-17 17:49:12.18	28.71	4.39	-42.3	-44.2	17.5	0.00e+00	44	29	0	40894464	56	7381
2026-01-17 17:49:13.19	28.63	4.45	-42.1	-44.0	17.8	0.00e+00	43	29	0	42991616	56	7225
2026-01-17 17:49:14.20	28.54	4.50	-41.8	-43.6	18.1	0.00e+00	92	29	0	45088768	56	6871
2026-01-17 17:49:15.21	28.45	4.56	-42.3	-44.2	17.5	0.00e+00	0	29	0	47185920	56	7365
2026-01-17 17:49:16.22	28.36	4.62	-42.2	-44.1	17.7	0.00e+00	91	29	0	49283072	56	7291
2026-01-17 17:49:17.23	28.27	4.67	-41.6	-43.3	18.4	0.00e+00	0	29	0	50331648	56	6664
2026-01-17 17:49:18.24	28.18	4.73	-41.7	-43.5	18.2	0.00e+00	90	29	0	52428800	56	6781
2026-01-17 17:49:19.25	28.09	4.79	-41.5	-43.2	18.6	0.00e+00	0	29	0	54525952	56	6563
2026-01-17 17:49:20.26	28.00	4.85	-41.4	-43.1	18.5	0.00e+00	0	29	0	56623104	56	6500
2026-01-17 17:49:21.27	27.91	4.90	-41.7	-43.4	18.3	0.00e+00	37	29	0	58720256	56	6738
2026-01-17 17:49:22.28	27.82	4.96	-41.5	-43.2	18.6	0.00e+00	2	29	0	60817408	56	6555
2026-01-17 17:49:23.29	27.73	5.02	-41.3	-43.0	18.8	0.00e+00	92	29	0	61865984	56	6391
2026-01-17 17:49:24.30	27.64	5.08	-41.7	-43.3	18.4	0.00e+00	38	29	0	63963136	56	6692
2026-01-17 17:49:25.31	27.55	5.13	-41.6	-43.3	18.5	0.00e+00	92	29	0	66060288	56	6624
2026-01-17 17:49:26.32	27.45	5.19	-41.6	-43.2	18.6	0.00e+00	44	29	0	68157440	56	6595
2026-01-17 17:49:27.33	27.36	5.25	-41.5	-43.2	18.6	0.00e+00	46	29	0	70254592	56	6543
2026-01-17 17:49:28.34	27.27	5.31	-41.5	-43.2	18.6	0.00e+00	60	29	0	71303168	56	6573
2026-01-17 17:49:29.35	27.17	5.37	-41.6	-43.3	18.5	0.00e+00	36	29	0	73400320	56	6616
2026-01-17 17:49:30.36	27.08	5.42	-41.3	-42.9	18.9	0.00e+00	91	29	0	75497472	56	6356
2026-01-17 17:49:31.37	26.99	5.48	-41.6	-43.3	18.4	0.00e+00	0	29	0	77594624	56	6630
2026-01-17 17:49:32.38	26.89	5.54	-41.5	-43.1	18.7	0.00e+00	90	29	0	79691776	56	6530
2026-01-17 17:49:33.39	26.80	5.60	-41.4	-43.0	18.8	0.00e+00	43	28	0	80740352	56	6457
2026-01-17 17:49:34.40	26.70	5.66	-41.4	-43.0	18.7	0.00e+00	7	29	0	82837504	56	6426
2026-01-17 17:49:35.41	26.61	5.71	-41.4	-43.0	18.9	0.00e+00	5	29	0	84934656	56	6447
2026-01-17 17:49:36.42	26.51	5.77	-41.4	-43.0	18.9	0.00e+00	0	29	0	87031808	56	6408
2026-01-17 17:49:37.43	26.41	5.83	-41.3	-42.9	19.0	0.00e+00	89	29	0	89128960	56	6377
2026-01-17 17:49:38.44	26.32	5.89	-41.5	-43.1	18.8	0.00e+00	5	29	0	90177536	56	6479
2026-01-17 17:49:39.45	26.22	5.95	-41.4	-43.0	18.9	0.00e+00	91	29	0	92274688	56	6411
2026-01-17 17:49:40.46	26.12	6.01	-41.4	-42.9	19.0	0.00e+00	0	29	0	94371840	56	6378
2026-01-17 17:49:41.47	26.02	6.06	-41.4	-43.0	18.8	0.00e+00	37	29	0	96468992	56	6452
2026-01-17 17:49:42.48	25.92	6.12	-41.7	-43.4	18.4	0.00e+00	0	29	0	98566144	56	6698
2026-01-17 17:49:43.49	25.82	6.18	-41.7	-43.4	18.6	0.00e+00	35	29	0	99614720	56	6719
2026-01-17 17:49:44.50	25.72	6.24	-41.6	-43.2	18.7	0.00e+00	6	29	0	101711872	56	6599
2026-01-17 17:49:45.51	25.63	6.30	-41.6	-43.2	18.8	0.00e+00	6	29	0	103809024	56	6567
2026-01-17 17:49:46.53	25.52	6.36	-41.7	-43.3	18.6	0.00e+00	91	29	0	105906176	56	6674
2026-01-17 17:49:47.53	25.42	6.42	-41.7	-43.3	18.7	0.00e+00	51	29	0	108003328	56	6676
2026-01-17 17:49:48.55	25.32	6.48	-41.6	-43.2	18.7	0.00e+00	92	29	0	109051904	56	6608
2026-01-17 17:49:49.56	25.22	6.53	-41.8	-43.4	18.6	0.00e+00	49	29	0	111149056	56	6766
2026-01-17 17:49:50.57	25.12	6.59	-41.8	-43.4	18.4	0.00e+00	50	29	0	113246208	56	6769
2026-01-17 17:49:51.58	25.02	6.65	-41.6	-43.2	18.8	0.00e+00	0	29	0	115343360	56	6570
2026-01-17 17:49:52.59	24.91	6.71	-41.8	-43.5	18.4	0.00e+00	48	29	0	117440512	56	6846
2026-01-17 17:49:53.60	24.81	6.77	-41.9	-43.6	18.5	0.00e+00	92	29	0	118489088	56	6869
2026-01-17 17:49:54.61	24.71	6.83	-41.4	-43.0	19.0	0.00e+00	6	29	0	120586240	56	6427
2026-01-17 17:49:55.62	24.60	6.89	-41.6	-43.2	18.8	0.00e+00	76	29	0	122683392	56	6575
2026-01-17 17:49:56.63	24.50	6.95	-41.6	-43.2	18.8	0.00e+00	6	29	0	124780544	56	6553
2026-01-17 17:49:57.64	24.39	7.01	-41.7	-43.4	18.6	0.00e+00	6	29	0	126877696	56	6703
2026-01-17 17:49:58.65	24.29	7.07	-41.7	-43.4	18.6	0.00e+00	5	29	0	128974848	56	6732
2026-01-17 17:49:59.66	24.18	7.13	-41.6	-43.3	18.7	0.00e+00	7	29	0	130023424	56	6622
2026-01-17 17:50:00.67	24.07	7.19	-41.8	-43.4	18.8	0.00e+00	91	29	0	132120576	56	6736
2026-01-17 17:50:01.68	23.97	7.24	-41.6	-43.2	18.9	0.00e+00	0	29	0	134217728	56	6540
2026-01-17 17:50:02.69	23.86	7.30	-41.6	-43.2	18.7	0.00e+00	92	29	0	136314880	56	6610
2026-01-17 17:50:03.70	23.75	7.36	-41.6	-43.3	18.8	0.00e+00	0	29	0	138412032	56	6623
2026-01-17 17:50:04.71	23.64	7.42	-41.5	-43.1	18.9	0.00e+00	66	29	0	139460608	56	6516
2026-01-17 17:50:05.72	23.54	7.48	-41.6	-43.2	18.8	0.00e+00	35	29	0	141557760	56	6564
2026-01-17 17:50:06.73	23.43	7.54	-41.5	-43.0	18.9	0.00e+00	33	29	0	143654912	56	6434
2026-01-17 17:50:07.73	23.32	7.60	-41.6	-43.2	18.8	0.00e+00	0	29	0	145752064	56	6575
2026-01-17 17:50:08.74	23.21	7.66	-41.6	-43.2	18.9	0.00e+00	47	29	0	147849216	56	6572
2026-01-17 17:50:09.75	23.10	7.72	-41.3	-42.9	19.2	0.00e+00	92	29	0	148897792	56	6324
2026-01-17 17:50:10.76	22.99	7.78	-41.3	-42.8	19.3	0.00e+00	44	29	0	150994944	56	6298
2026-01-17 17:50:11.77	22.88	7.84	-41.3	-42.8	19.4	0.00e+00	0	29	0	153092096	56	6258
2026-01-17 17:50:12.78	22.76	7.90	-41.3	-42.8	19.4	0.00e+00	42	29	0	155189248	56	6271
2026-01-17 17:50:13.79	22.65	7.96	-41.4	-43.0	19.1	0.00e+00	0	29	0	157286400	56	6405
2026-01-17 17:50:14.80	22.54	8.02	-41.1	-42.6	19.6	0.00e+00	42	29	0	158334976	56	6112
2026-01-17 17:50:15.82	22.42	8.08	-41.1	-42.5	19.6	0.00e+00	0	29	0	160432128	56	6062
2026-01-17 17:50:16.83	22.31	8.14	-41.3	-42.7	19.3	0.00e+00	92	29	0	162529280	56	6234
2026-01-17 17:50:17.84	22.20	8.20	-41.2	-42.7	19.4	0.00e+00	0	29	0	164626432	56	6186
2026-01-17 17:50:18.85	22.08	8.26	-41.2	-42.6	19.4	0.00e+00	91	29	0	166723584	56	6163
2026-01-17 17:50:19.86	21.97	8.32	-41.3	-42.8	19.4	0.00e+00	0	29	0	167772160	56	6277
2026-01-17 17:50:20.87	21.85	8.38	-41.2	-42.7	19.5	0.00e+00	0	29	0	169869312	56	6181
2026-01-17 17:50:21.88	21.73	8.44	-41.2	-42.6	19.5	0.00e+00	23	29	0	171966464	56	6172
2026-01-17 17:50:22.89	21.62	8.50	-41.2	-42.7	19.4	0.00e+00	33	29	0	174063616	56	6204
2026-01-17 17:50:23.90	21.50	8.56	-41.1	-42.6	19.5	0.00e+00	92	29	0	176160768	56	6134
2026-01-17 17:50:24.91	21.38	8.62	-41.3	-42.8	19.4	0.00e+00	0	29	0	177209344	56	6251
2026-01-17 17:50:25.92	21.26	8.68	-41.2	-42.7	19.5	0.00e+00	92	29	0	179306496	56	6191
2026-01-17 17:50:26.93	21.14	8.74	-41.2	-42.7	19.5	0.00e+00	0	29	0	181403648	56	6232
2026-01-17 17:50:27.94	21.03	8.80	-41.1	-42.6	19.7	0.00e+00	38	29	0	183500800	56	6109
2026-01-17 17:50:28.95	20.91	8.86	-41.0	-42.4	19.7	0.00e+00	39	29	0	185597952	56	6008
2026-01-17 17:50:29.96	20.78	8.92	-41.1	-42.5	19.6	0.00e+00	40	29	0	186646528	56	6082
2026-01-17 17:50:30.96	20.67	8.98	-41.1	-42.6	19.6	0.00e+00	17	29	0	188743680	56	6128
2026-01-17 17:50:31.97	20.54	9.04	-40.9	-42.3	19.8	0.00e+00	48	29	0	190840832	56	5950
2026-01-17 17:50:32.98	20.42	9.10	-40.8	-42.2	20.0	0.00e+00	90	29	0	192937984	56	5894
2026-01-17 17:50:33.99	20.30	9.16	-40.6	-41.9	19.9	0.00e+00	48	29	0	195035136	54	6384
2026-01-17 17:50:35.00	20.18	9.22	-40.6	-42.0	19.6	0.00e+00	92	29	0	197132288	54	6405
2026-01-17 17:50:36.01	20.05	9.29	-40.5	-41.8	20.1	0.00e+00	3	29	0	198180864	54	6292
2026-01-17 17:50:37.02	19.93	9.35	-40.5	-41.8	20.2	0.00e+00	2	29	0	200278016	54	6298
2026-01-17 17:50:38.03	19.81	9.41	-40.4	-41.7	20.4	0.00e+00	0	29	0	202375168	54	6203
2026-01-17 17:50:39.04	19.68	9.47	-40.4	-41.7	20.4	0.00e+00	0	29	0	204472320	54	6187
2026-01-17 17:50:40.05	19.55	9.53	-40.2	-41.5	20.6	0.00e+00	91	29	0	206569472	54	6058
2026-01-17 17:50:41.06	19.43	9.59	-40.3	-41.5	20.6	0.00e+00	0	29	0	207618048	54	6085
2026-01-17 17:50:42.07	19.30	9.65	-40.3	-41.6	20.5	0.00e+00	91	29	0	209715200	54	6140
2026-01-17 17:50:43.08	19.17	9.71	-40.3	-41.6	20.6	0.00e+00	0	29	0	211812352	54	6104
2026-01-17 17:50:44.09	19.05	9.77	-40.3	-41.6	20.6	0.00e+00	0	29	0	213909504	54	6106
2026-01-17 17:50:45.10	18.92	9.83	-40.2	-41.5	20.6	0.00e+00	0	29	0	216006656	54	6070
2026-01-17 17:50:46.11	18.79	9.89	-40.3	-41.6	20.6	0.00e+00	0	29	0	217055232	54	6119
2026-01-17 17:50:47.12	18.66	9.95	-40.5	-41.9	20.4	0.00e+00	92	29	0	219152384	54	6326
2026-01-17 17:50:48.12	18.53	10.01	-40.5	-41.8	20.4	0.00e+00	41	29	0	221249536	54	6254
2026-01-17 17:50:49.13	18.40	10.07	-40.1	-41.4	20.7	0.00e+00	92	29	0	223346688	54	5992
2026-01-17 17:50:50.14	18.27	10.13	-40.2	-41.4	20.7	0.00e+00	0	29	0	225443840	54	5999
2026-01-17 17:50:51.15	18.14	10.19	-40.2	-41.4	20.7	0.00e+00	2	29	0	226492416	54	6019
2026-01-17 17:50:52.16	18.01	10.25	-40.2	-41.5	20.6	0.00e+00	40	29	0	228589568	54	6060
2026-01-17 17:50:53.17	17.87	10.31	-40.1	-41.4	20.8	0.00e+00	42	29	0	230686720	54	5996
2026-01-17 17:50:54.18	17.74	10.38	-40.1	-41.3	20.9	0.00e+00	91	29	0	232783872	54	5955
2026-01-17 17:50:55.19	17.61	10.44	-40.1	-41.3	20.9	0.00e+00	0	29	0	234881024	54	5930
2026-01-17 17:50:56.20	17.47	10.50	-39.9	-41.1	21.0	0.00e+00	92	29	0	235929600	54	5787
2026-01-17 17:50:57.21	17.34	10.56	-40.0	-41.2	20.9	0.00e+00	41	29	0	238026752	54	5885
2026-01-17 17:50:58.22	17.20	10.62	-40.0	-41.2	21.0	0.00e+00	0	29	0	240123904	54	5854
2026-01-17 17:50:59.23	17.07	10.68	-40.0	-41.2	21.0	0.00e+00	0	29	0	242221056	54	5842
2026-01-17 17:51:00.24	16.93	10.74	-39.9	-41.1	21.1	0.00e+00	0	29	0	244318208	54	5799
2026-01-17 17:51:01.24	16.79	10.80	-40.0	-41.2	21.0	0.00e+00	0	29	0	245366784	54	5855
2026-01-17 17:51:02.26	16.66	10.86	-40.0	-41.2	20.9	0.00e+00	0	29	0	247463936	54	5877
2026-01-17 17:51:03.27	16.52	10.92	-40.1	-41.3	20.8	0.00e+00	92	29	0	249561088	54	5960
2026-01-17 17:51:04.28	16.38	10.98	-40.1	-41.3	20.9	0.00e+00	33	29	0	251658240	54	5949
2026-01-17 17:51:05.28	16.24	11.04	-40.1	-41.3	20.9	0.00e+00	90	29	0	253755392	54	5936
2026-01-17 17:51:06.29	16.10	11.10	-40.1	-41.3	20.9	0.00e+00	0	29	0	254803968	54	5950
2026-01-17 17:51:07.30	15.96	11.16	-40.1	-41.3	20.9	0.00e+00	0	29	0	256901120	54	5907
2026-01-17 17:51:08.31	15.82	11.22	-39.9	-41.1	21.1	0.00e+00	33	29	0	258998272	54	5821
2026-01-17 17:51:09.32	15.68	11.28	-39.9	-41.2	21.0	0.00e+00	37	29	0	261095424	54	5830
2026-01-17 17:51:10.33	15.53	11.34	-40.0	-41.2	20.9	0.00e+00	92	29	0	263192576	54	5874
2026-01-17 17:51:11.34	15.39	11.40	-40.0	-41.2	20.9	0.00e+00	38	29	0	265289728	54	5877
2026-01-17 17:51:12.35	15.25	11.46	-40.1	-41.3	20.9	0.00e+00	92	29	0	266338304	54	5932
2026-01-17 17:51:13.36	15.10	11.52	-40.1	-41.3	20.9	0.00e+00	43	29	0	268435456	54	5927
2026-01-17 17:51:14.37	14.96	11.58	-40.0	-41.3	21.0	0.00e+00	6	29	0	270532608	54	5903
2026-01-17 17:51:15.38	14.81	11.65	-40.0	-41.3	20.9	0.00e+00	5	29	0	272629760	54	5903
2026-01-17 17:51:16.40	14.66	11.71	-39.9	-41.1	21.1	0.00e+00	42	29	0	274726912	54	5796
2026-01-17 17:51:17.41	14.52	11.77	-39.9	-41.1	21.0	0.00e+00	36	29	0	275775488	54	5820
2026-01-17 17:51:18.41	14.37	11.83	-40.0	-41.2	21.1	0.00e+00	7	29	0	277872640	54	5856
2026-01-17 17:51:19.42	14.22	11.89	-40.1	-41.3	20.9	0.00e+00	92	29	0	279969792	54	5949
2026-01-17 17:51:20.44	14.07	11.95	-39.9	-41.1	21.1	0.00e+00	5	29	0	282066944	54	5804
2026-01-17 17:51:21.45	13.92	12.01	-40.0	-41.2	21.1	0.00e+00	92	29	0	284164096	54	5866
2026-01-17 17:51:22.46	13.77	12.07	-39.9	-41.1	21.1	0.00e+00	6	29	0	285212672	54	5799
2026-01-17 17:51:23.47	13.62	12.13	-40.2	-41.4	20.8	0.00e+00	4	29	0	287309824	54	6007
2026-01-17 17:51:24.48	13.47	12.19	-40.0	-41.2	21.0	0.00e+00	0	29	0	289406976	54	5866
2026-01-17 17:51:25.49	13.32	12.25	-40.1	-41.3	20.9	0.00e+00	0	29	0	291504128	54	5956
2026-01-17 17:51:26.50	13.17	12.31	-40.1	-41.3	20.9	0.00e+00	92	29	0	293601280	54	5899
2026-01-17 17:51:27.51	13.01	12.37	-40.0	-41.2	21.0	0.00e+00	0	29	0	294649856	54	5845
2026-01-17 17:51:28.52	12.86	12.43	-40.0	-41.2	21.0	0.00e+00	90	29	0	296747008	54	5883
2026-01-17 17:51:29.53	12.71	12.48	-40.2	-41.4	20.8	0.00e+00	4	29	0	298844160	54	6033
2026-01-17 17:51:30.54	12.55	12.54	-40.2	-41.4	20.9	0.00e+00	51	29	0	300941312	54	6012
2026-01-17 17:51:31.55	12.40	12.60	-40.3	-41.5	20.7	0.00e+00	34	29	0	303038464	54	6076
2026-01-17 17:51:32.56	12.24	12.66	-40.3	-41.5	20.8	0.00e+00	53	29	0	304087040	54	6089
2026-01-17 17:51:33.57	12.08	12.72	-40.4	-41.7	20.6	0.00e+00	90	29	0	306184192	54	6229
2026-01-17 17:51:34.58	11.93	12.78	-40.4	-41.7	20.7	0.00e+00	6	29	0	308281344	54	6182
2026-01-17 17:51:35.59	11.77	12.84	-40.4	-41.7	20.6	0.00e+00	92	29	0	310378496	54	6194
2026-01-17 17:51:36.60	11.61	12.90	-40.4	-41.7	20.6	0.00e+00	6	29	0	312475648	54	6193
2026-01-17 17:51:37.61	11.45	12.96	-40.4	-41.6	20.7	0.00e+00	8	29	0	313524224	54	6159
2026-01-17 17:51:38.62	11.29	13.02	-40.4	-41.7	20.6	0.00e+00	0	29	0	315621376	54	6216
2026-01-17 17:51:39.63	11.13	13.08	-40.3	-41.5	20.6	0.00e+00	0	29	0	317718528	54	6071
2026-01-17 17:51:40.64	10.97	13.14	-40.2	-41.5	20.8	0.00e+00	7	29	0	319815680	54	6043
2026-01-17 17:51:41.65	10.80	13.19	-40.4	-41.6	20.7	0.00e+00	6	29	0	321912832	54	6144
2026-01-17 17:51:42.66	10.64	13.25	-40.3	-41.5	20.9	0.00e+00	92	29	0	322961408	54	6050
2026-01-17 17:51:43.67	10.48	13.31	-40.2	-41.4	20.9	0.00e+00	0	29	0	325058560	54	6032
2026-01-17 17:51:44.68	10.31	13.37	-40.2	-41.4	20.9	0.00e+00	36	29	0	327155712	54	6011
2026-01-17 17:51:45.69	10.15	13.43	-40.2	-41.4	20.9	0.00e+00	0	29	0	329252864	54	6016
2026-01-17 17:51:46.70	9.98	13.49	-40.2	-41.4	21.0	0.00e+00	40	29	0	331350016	54	6030
2026-01-17 17:51:47.71	9.82	13.54	-40.2	-41.4	20.9	0.00e+00	0	29	0	333447168	54	6020
2026-01-17 17:51:48.71	9.65	13.60	-40.2	-41.4	20.9	0.00e+00	0	29	0	334495744	54	6029
2026-01-17 17:51:49.72	9.49	13.66	-40.2	-41.4	20.9	0.00e+00	92	29	0	336592896	54	5971
2026-01-17 17:51:50.74	9.32	13.72	-40.2	-41.4	21.0	0.00e+00	43	29	0	338690048	54	6000
2026-01-17 17:51:51.74	9.15	13.78	-40.1	-41.3	21.0	0.00e+00	91	29	0	340787200	54	5917
2026-01-17 17:51:52.75	8.98	13.83	-40.1	-41.3	21.0	0.00e+00	40	29	0	342884352	54	5947
2026-01-17 17:51:53.76	8.81	13.89	-39.9	-41.0	21.3	0.00e+00	40	29	0	343932928	54	5748
2026-01-17 17:51:54.78	8.64	13.95	-39.9	-41.0	21.3	0.00e+00	41	29	0	346030080	54	5752
2026-01-17 17:51:55.79	8.47	14.01	-39.8	-40.9	21.5	0.00e+00	42	29	0	348127232	54	5660
2026-01-17 17:51:56.79	8.30	14.06	-39.8	-40.9	21.4	0.00e+00	92	29	0	350224384	52	6338
2026-01-17 17:51:57.81	8.12	14.12	-39.7	-40.9	21.4	0.00e+00	0	29	0	352321536	52	6329
2026-01-17 17:51:58.81	7.95	14.18	-39.6	-40.7	21.7	0.00e+00	92	29	0	353370112	52	6181
2026-01-17 17:51:59.82	7.78	14.23	-39.4	-40.5	21.8	0.00e+00	0	29	0	355467264	52	6052
2026-01-17 17:52:00.83	7.60	14.29	-39.4	-40.5	21.9	0.00e+00	22	29	0	357564416	52	6071
2026-01-17 17:52:01.84	7.43	14.35	-39.4	-40.5	21.9	0.00e+00	2	29	0	359661568	52	6066
2026-01-17 17:52:02.85	7.25	14.40	-39.3	-40.3	22.0	0.00e+00	0	29	0	361758720	52	5964
2026-01-17 17:52:03.86	7.07	14.46	-39.2	-40.3	22.1	0.00e+00	4	29	0	362807296	52	5901
2026-01-17 17:52:04.87	6.90	14.51	-39.2	-40.3	22.1	0.00e+00	0	29	0	364904448	52	5939
2026-01-17 17:52:05.88	6.72	14.57	-39.3	-40.4	22.0	0.00e+00	92	29	0	367001600	52	6004
2026-01-17 17:52:06.89	6.54	14.63	-39.3	-40.3	21.9	0.00e+00	0	29	0	369098752	52	5961
2026-01-17 17:52:07.90	6.36	14.68	-39.3	-40.4	22.1	0.00e+00	92	29	0	371195904	52	5966
2026-01-17 17:52:08.91	6.18	14.74	-39.0	-40.0	22.3	0.00e+00	35	29	0	372244480	52	5729
2026-01-17 17:52:09.92	6.00	14.79	-38.8	-39.8	22.5	0.00e+00	42	29	0	374341632	52	5616
2026-01-17 17:52:10.93	5.82	14.85	-38.8	-39.8	22.6	0.00e+00	0	29	0	376438784	52	5572
2026-01-17 17:52:11.93	5.64	14.90	-38.7	-39.7	22.7	0.00e+00	39	29	0	378535936	52	5540
2026-01-17 17:52:12.94	5.45	14.96	-38.6	-39.6	22.7	0.00e+00	92	29	0	380633088	50	6111
2026-01-17 17:52:13.95	5.27	15.01	-38.7	-39.6	22.7	0.00e+00	39	29	0	381681664	50	6167
2026-01-17 17:52:14.97	5.08	15.07	-38.6	-39.6	22.7	0.00e+00	92	29	0	383778816	50	6110
2026-01-17 17:52:15.98	4.90	15.12	-38.6	-39.6	22.7	0.00e+00	0	29	0	385875968	50	6153
2026-01-17 17:52:16.99	4.71	15.17	-38.5	-39.4	22.9	0.00e+00	0	29	0	387973120	50	6033
2026-01-17 17:52:17.99	4.53	15.23	-38.4	-39.4	22.9	0.00e+00	2	29	0	390070272	50	5984
2026-01-17 17:52:19.01	4.34	15.28	-38.5	-39.5	22.8	0.00e+00	0	29	0	391118848	50	6064
2026-01-17 17:52:20.01	4.15	15.34	-38.4	-39.3	23.0	0.00e+00	16	29	0	393216000	50	5964
2026-01-17 17:52:21.02	3.96	15.39	-38.2	-39.2	23.1	0.00e+00	0	29	0	395313152	50	5846
2026-01-17 17:52:22.03	3.78	15.44	-38.2	-39.1	23.1	0.00e+00	92	29	0	397410304	50	5797
2026-01-17 17:52:23.04	3.59	15.49	-38.2	-39.2	23.1	0.00e+00	0	29	0	399507456	50	5873
2026-01-17 17:52:24.05	3.40	15.55	-38.2	-39.2	23.1	0.00e+00	92	29	0	401604608	50	5852
2026-01-17 17:52:25.06	3.20	15.60	-38.2	-39.2	23.3	0.00e+00	0	29	0	402653184	50	5867
2026-01-17 17:52:26.07	3.01	15.65	-37.8	-38.7	23.5	0.00e+00	0	29	0	404750336	50	5524
2026-01-17 17:52:27.08	2.82	15.70	-37.7	-38.6	23.6	0.00e+00	43	29	0	406847488	48	6169
2026-01-17 17:52:28.09	2.63	15.76	-37.6	-38.5	23.7	0.00e+00	42	29	0	408944640	48	6075
2026-01-17 17:52:29.10	2.43	15.81	-37.6	-38.5	23.7	0.00e+00	90	29	0	411041792	48	6064
2026-01-17 17:52:30.11	2.24	15.86	-37.7	-38.6	23.6	0.00e+00	0	29	0	412090368	48	6168
2026-01-17 17:52:31.12	2.04	15.91	-37.6	-38.5	23.7	0.00e+00	92	29	0	414187520	48	6098
2026-01-17 17:52:32.12	1.85	15.96	-37.8	-38.7	23.6	0.00e+00	37	29	0	416284672	48	6223
2026-01-17 17:52:33.13	1.65	16.01	-37.6	-38.4	23.8	0.00e+00	41	29	0	418381824	48	6023
2026-01-17 17:52:34.14	1.46	16.06	-37.6	-38.5	23.8	0.00e+00	0	29	0	420478976	48	6042
2026-01-17 17:52:35.15	1.26	16.11	-37.4	-38.3	23.9	0.00e+00	0	29	0	421527552	48	5908
2026-01-17 17:52:36.16	1.06	16.16	-37.5	-38.4	23.8	0.00e+00	90	29	0	423624704	48	5998
2026-01-17 17:52:37.17	0.86	16.21	-37.6	-38.5	23.7	0.00e+00	0	29	0	425721856	48	6093
2026-01-17 17:52:38.18	0.66	16.26	-37.5	-38.4	23.8	0.00e+00	92	29	0	427819008	48	6010
2026-01-17 17:52:39.19	0.46	16.31	-37.6	-38.5	23.7	0.00e+00	47	29	0	429916160	48	6068
2026-01-17 17:52:40.20	0.26	16.36	-37.6	-38.5	23.8	0.00e+00	45	29	0	430964736	48	6044
2026-01-17 17:52:41.21	0.06	16.41	-37.6	-38.5	23.6	0.00e+00	2	29	0	433061888	48	6042
2026-01-17 17:52:42.22	359.85	16.46	-37.6	-38.5	23.5	0.00e+00	0	29	0	435159040	48	6080
2026-01-17 17:52:43.23	359.65	16.50	-37.8	-38.7	23.5	0.00e+00	90	29	0	437256192	48	6224
2026-01-17 17:52:44.24	359.45	16.55	-37.8	-38.7	23.5	0.00e+00	0	29	0	439353344	48	6237
2026-01-17 17:52:45.25	359.24	16.60	-38.0	-38.9	23.4	0.00e+00	86	29	0	440401920	48	6348
2026-01-17 17:52:46.25	359.04	16.65	-38.0	-39.0	23.3	0.00e+00	0	29	0	442499072	48	6420
2026-01-17 17:52:47.27	358.83	16.69	-37.9	-38.9	23.4	0.00e+00	92	29	0	444596224	48	6335
2026-01-17 17:52:48.28	358.62	16.74	-38.1	-39.0	23.2	0.00e+00	33	29	0	446693376	48	6459
2026-01-17 17:52:49.29	358.42	16.79	-38.0	-38.9	23.3	0.00e+00	0	29	0	448790528	48	6373
2026-01-17 17:52:50.30	358.21	16.83	-37.9	-38.8	23.4	0.00e+00	0	29	0	449839104	48	6309
2026-01-17 17:52:51.31	358.00	16.88	-38.1	-39.0	23.3	0.00e+00	0	29	0	451936256	48	6436
2026-01-17 17:52:52.32	357.79	16.92	-38.0	-39.0	23.3	0.00e+00	92	29	0	454033408	48	6401
2026-01-17 17:52:53.33	357.58	16.97	-38.1	-39.0	23.3	0.00e+00	40	29	0	456130560	48	6435
2026-01-17 17:52:54.34	357.37	17.01	-38.0	-38.9	23.2	0.00e+00	92	29	0	458227712	48	6359
2026-01-17 17:52:55.35	357.16	17.06	-38.0	-38.9	23.3	0.00e+00	34	29	0	459276288	48	6351
2026-01-17 17:52:56.36	356.95	17.10	-38.0	-38.9	23.4	0.00e+00	47	29	0	461373440	48	6357
2026-01-17 17:52:57.36	356.74	17.15	-37.9	-38.8	23.6	0.00e+00	43	29	0	463470592	48	6272
2026-01-17 17:52:58.37	356.53	17.19	-37.9	-38.8	23.5	0.00e+00	0	29	0	465567744	48	6267
2026-01-17 17:52:59.38	356.31	17.23	-37.8	-38.7	23.5	0.00e+00	92	29	0	467664896	48	6236
2026-01-17 17:53:00.39	356.10	17.28	-37.8	-38.7	23.5	0.00e+00	43	29	0	469762048	48	6226
2026-01-17 17:53:01.40	355.88	17.32	-37.6	-38.5	23.6	0.00e+00	92	29	0	470810624	48	6095
2026-01-17 17:53:02.41	355.67	17.36	-37.5	-38.4	23.9	0.00e+00	47	29	0	472907776	48	5971
2026-01-17 17:53:03.42	355.45	17.40	-37.5	-38.4	23.8	0.00e+00	5	29	0	475004928	48	6007
2026-01-17 17:53:04.43	355.24	17.44	-37.3	-38.2	24.0	0.00e+00	0	29	0	477102080	48	5848
2026-01-17 17:53:05.44	355.02	17.49	-37.2	-38.0	24.2	0.00e+00	6	29	0	479199232	48	5740
2026-01-17 17:53:06.45	354.80	17.53	-37.3	-38.2	24.0	0.00e+00	29	29	0	480247808	48	5853
2026-01-17 17:53:07.46	354.58	17.57	-37.3	-38.1	23.2	0.00e+00	0	29	0	482344960	48	5813
2026-01-17 17:53:08.47	354.36	17.61	-37.4	-38.2	24.0	0.00e+00	92	29	0	484442112	48	5890
2026-01-17 17:53:09.48	354.14	17.65	-37.4	-38.3	23.9	0.00e+00	0	29	0	486539264	48	5928
2026-01-17 17:53:10.49	353.92	17.69	-37.4	-38.3	23.9	0.00e+00	42	29	0	488636416	48	5936
2026-01-17 17:53:11.50	353.70	17.73	-37.5	-38.4	23.9	0.00e+00	34	29	0	489684992	48	6007
2026-01-17 17:53:12.51	353.48	17.76	-37.3	-38.2	23.9	0.00e+00	0	29	0	491782144	48	5842
2026-01-17 17:53:13.52	353.26	17.80	-37.3	-38.2	24.0	0.00e+00	0	29	0	493879296	48	5853
2026-01-17 17:53:14.53	353.04	17.84	-37.3	-38.2	24.1	0.00e+00	33	29	0	495976448	48	5871
2026-01-17 17:53:15.54	352.82	17.88	-37.5	-38.4	23.9	0.00e+00	92	29	0	498073600	48	5971
2026-01-17 17:53:16.55	352.59	17.91	-37.5	-38.4	23.9	0.00e+00	44	29	0	499122176	48	5979
2026-01-17 17:53:17.56	352.37	17.95	-37.5	-38.4	23.8	0.00e+00	92	29	0	501219328	48	6012
2026-01-17 17:53:18.57	352.14	17.99	-37.5	-38.4	23.9	0.00e+00	53	29	0	503316480	48	5980
2026-01-17 17:53:19.58	351.92	18.02	-37.3	-38.2	24.0	0.00e+00	7	29	0	505413632	48	5866
2026-01-17 17:53:20.59	351.69	18.06	-37.3	-38.2	24.1	0.00e+00	53	29	0	507510784	48	5837
2026-01-17 17:53:21.59	351.47	18.09	-37.3	-38.1	24.1	0.00e+00	0	29	0	508559360	48	5807
2026-01-17 17:53:22.60	351.24	18.13	-37.2	-38.0	24.2	0.00e+00	92	29	0	510656512	48	5755
2026-01-17 17:53:23.61	351.01	18.16	-37.2	-38.1	24.1	0.00e+00	46	29	0	512753664	48	5787
2026-01-17 17:53:24.62	350.79	18.20	-37.2	-38.1	24.1	0.00e+00	91	29	0	514850816	48	5787
2026-01-17 17:53:25.63	350.56	18.23	-37.1	-38.0	24.3	0.00e+00	6	29	0	516947968	48	5725
2026-01-17 17:53:26.64	350.33	18.26	-37.3	-38.1	24.2	0.00e+00	6	29	0	517996544	48	5821
2026-01-17 17:53:27.66	350.10	18.30	-37.2	-38.0	24.2	0.00e+00	0	29	0	520093696	48	5746
2026-01-17 17:53:28.66	349.87	18.33	-37.3	-38.2	24.1	0.00e+00	0	29	0	522190848	48	5876
2026-01-17 17:53:29.67	349.64	18.36	-37.3	-38.2	24.0	0.00e+00	13	29	0	524288000	48	5880
2026-01-17 17:53:30.68	349.41	18.39	-37.5	-38.3	23.9	0.00e+00	41	29	0	526385152	48	5957
2026-01-17 17:53:31.70	349.18	18.42	-37.7	-38.6	23.7	0.00e+00	91	29	0	527433728	48	6144
2026-01-17 17:53:32.71	348.94	18.45	-37.7	-38.6	23.7	0.00e+00	40	29	0	529530880	48	6123
2026-01-17 17:53:33.72	348.71	18.48	-37.6	-38.5	23.8	0.00e+00	41	29	0	531628032	48	6037
2026-01-17 17:53:34.72	348.48	18.51	-37.7	-38.6	23.7	0.00e+00	47	29	0	533725184	48	6148
2026-01-17 17:53:35.73	348.25	18.54	-37.3	-38.2	24.1	0.00e+00	44	29	0	535822336	48	5868
2026-01-17 17:53:36.74	348.01	18.57	-37.4	-38.3	24.0	0.00e+00	0	29	0	537919488	48	5906
2026-01-17 17:53:37.75	347.78	18.60	-37.4	-38.2	24.1	0.00e+00	40	29	0	538968064	48	5892
2026-01-17 17:53:38.76	347.55	18.62	-37.6	-38.5	23.7	0.00e+00	92	29	0	541065216	48	6075
2026-01-17 17:53:39.77	347.31	18.65	-37.5	-38.4	23.9	0.00e+00	0	29	0	543162368	48	6009
2026-01-17 17:53:40.78	347.08	18.68	-37.7	-38.6	23.8	0.00e+00	92	29	0	545259520	48	6125
2026-01-17 17:53:41.79	346.84	18.70	-37.6	-38.5	23.7	0.00e+00	39	29	0	547356672	48	6083
2026-01-17 17:53:42.80	346.60	18.73	-37.7	-38.6	23.7	0.00e+00	45	29	0	548405248	48	6107
2026-01-17 17:53:43.81	346.37	18.75	-37.7	-38.6	23.7	0.00e+00	0	29	0	550502400	48	6148
2026-01-17 17:53:44.82	346.13	18.78	-37.7	-38.6	23.7	0.00e+00	0	29	0	552599552	48	6172
2026-01-17 17:53:45.83	345.89	18.80	-37.8	-38.7	23.6	0.00e+00	92	29	0	554696704	48	6214
2026-01-17 17:53:46.84	345.66	18.83	-37.9	-38.8	23.5	0.00e+00	0	29	0	556793856	48	6309
2026-01-17 17:53:47.85	345.42	18.85	-38.2	-39.1	23.1	0.00e+00	92	29	0	557842432	48	6533
2026-01-17 17:53:48.86	345.18	18.87	-38.2	-39.2	23.2	0.00e+00	2	29	0	559939584	48	6554
2026-01-17 17:53:49.87	344.94	18.90	-38.5	-39.4	22.9	0.00e+00	36	29	0	562036736	48	6749
2026-01-17 17:53:50.89	344.70	18.92	-38.5	-39.4	23.0	0.00e+00	0	29	0	564133888	48	6753
2026-01-17 17:53:51.90	344.46	18.94	-38.4	-39.4	23.0	0.00e+00	35	29	0	566231040	48	6705
2026-01-17 17:53:52.91	344.22	18.96	-38.2	-39.2	23.2	0.00e+00	5	29	0	567279616	48	6554
2026-01-17 17:53:53.92	343.98	18.98	-38.4	-39.4	23.0	0.00e+00	41	29	0	569376768	48	6727
2026-01-17 17:53:54.93	343.74	19.00	-38.4	-39.3	23.0	0.00e+00	91	29	0	571473920	48	6692
2026-01-17 17:53:55.94	343.50	19.02	-38.7	-39.7	22.8	0.00e+00	41	29	0	573571072	48	6947
2026-01-17 17:53:56.95	343.26	19.04	-38.5	-39.5	23.0	0.00e+00	40	29	0	575668224	48	6776
2026-01-17 17:53:57.96	343.02	19.06	-38.5	-39.5	22.9	0.00e+00	40	29	0	576716800	48	6812
2026-01-17 17:53:58.97	342.77	19.07	-38.5	-39.5	22.9	0.00e+00	2	29	0	578813952	48	6779
2026-01-17 17:53:59.98	342.53	19.09	-38.4	-39.4	23.1	0.00e+00	27	29	0	580911104	48	6710
2026-01-17 17:54:00.98	342.29	19.11	-38.4	-39.3	23.1	0.00e+00	4	29	0	583008256	48	6663
2026-01-17 17:54:01.99	342.05	19.12	-38.4	-39.4	22.9	0.00e+00	90	29	0	585105408	48	6722
2026-01-17 17:54:03.01	341.81	19.14	-38.8	-39.8	22.6	0.00e+00	0	29	0	586153984	48	7015
2026-01-17 17:54:04.02	341.56	19.15	-39.0	-40.0	22.4	0.00e+00	90	29	0	588251136	50	6396
2026-01-17 17:54:05.03	341.32	19.17	-38.9	-39.9	22.5	0.00e+00	0	29	0	590348288	50	6374
2026-01-17 17:54:06.04	341.08	19.18	-39.2	-40.2	22.3	0.00e+00	0	29	0	592445440	50	6568
2026-01-17 17:54:07.05	340.83	19.20	-39.2	-40.2	22.3	0.00e+00	0	29	0	594542592	50	6593
2026-01-17 17:54:08.06	340.59	19.21	-39.2	-40.2	22.3	0.00e+00	0	29	0	595591168	50	6610
2026-01-17 17:54:09.07	340.34	19.22	-39.1	-40.2	22.3	0.00e+00	92	29	0	597688320	50	6547
2026-01-17 17:54:10.08	340.10	19.23	-39.1	-40.2	22.4	0.00e+00	0	29	0	599785472	50	6568
2026-01-17 17:54:11.09	339.86	19.24	-39.1	-40.1	22.4	0.00e+00	92	29	0	601882624	50	6503
2026-01-17 17:54:12.10	339.61	19.26	-38.8	-39.8	22.6	0.00e+00	0	29	0	603979776	50	6316
2026-01-17 17:54:13.11	339.37	19.27	-38.7	-39.7	22.8	0.00e+00	41	29	0	606076928	50	6206
2026-01-17 17:54:14.13	339.12	19.28	-38.8	-39.8	22.6	0.00e+00	44	29	0	607125504	50	6280
2026-01-17 17:54:15.14	338.87	19.28	-38.8	-39.9	22.7	0.00e+00	47	29	0	609222656	50	6328
2026-01-17 17:54:16.14	338.63	19.29	-38.8	-39.9	22.6	0.00e+00	38	29	0	611319808	50	6332
2026-01-17 17:54:17.15	338.39	19.30	-38.8	-39.8	22.7	0.00e+00	42	29	0	613416960	50	6262
2026-01-17 17:54:18.16	338.14	19.31	-38.8	-39.9	22.6	0.00e+00	91	29	0	615514112	50	6319
2026-01-17 17:54:19.17	337.89	19.32	-38.6	-39.7	22.8	0.00e+00	0	29	0	616562688	50	6175
2026-01-17 17:54:20.18	337.65	19.32	-38.7	-39.8	22.7	0.00e+00	2	29	0	618659840	50	6257
2026-01-17 17:54:21.19	337.40	19.33	-38.9	-39.9	22.6	0.00e+00	2	29	0	620756992	50	6356
2026-01-17 17:54:22.20	337.16	19.33	-38.9	-39.9	22.6	0.00e+00	41	29	0	622854144	50	6360
2026-01-17 17:54:23.21	336.91	19.34	-38.9	-39.9	22.5	0.00e+00	36	29	0	624951296	50	6381
2026-01-17 17:54:24.22	336.66	19.34	-38.9	-40.0	22.5	0.00e+00	0	29	0	625999872	50	6411
2026-01-17 17:54:25.23	336.42	19.35	-38.8	-39.9	22.6	0.00e+00	91	29	0	628097024	50	6327
2026-01-17 17:54:26.24	336.17	19.35	-38.8	-39.8	22.7	0.00e+00	0	29	0	630194176	50	6292
2026-01-17 17:54:27.25	335.93	19.35	-38.8	-39.8	22.6	0.00e+00	0	29	0	632291328	50	6280
2026-01-17 17:54:28.26	335.68	19.35	-38.7	-39.7	22.8	0.00e+00	0	29	0	634388480	50	6236
2026-01-17 17:54:29.27	335.43	19.35	-38.8	-39.8	22.7	0.00e+00	0	29	0	635437056	50	6250
2026-01-17 17:54:30.28	335.19	19.36	-38.6	-39.6	22.8	0.00e+00	0	29	0	637534208	50	6160
2026-01-17 17:54:31.29	334.94	19.36	-38.8	-39.7	22.7	0.00e+00	0	29	0	639631360	50	6245
2026-01-17 17:54:32.30	334.69	19.36	-38.8	-39.8	22.6	0.00e+00	90	29	0	641728512	50	6298
2026-01-17 17:54:33.30	334.45	19.36	-38.9	-39.9	22.6	0.00e+00	0	29	0	643825664	50	6354
2026-01-17 17:54:34.31	334.20	19.35	-39.1	-40.1	22.3	0.00e+00	92	29	0	644874240	50	6526
2026-01-17 17:54:35.32	333.96	19.35	-39.1	-40.1	21.7	0.00e+00	0	29	0	646971392	50	6539
2026-01-17 17:54:36.33	333.71	19.35	-39.1	-40.1	22.4	0.00e+00	39	29	0	649068544	50	6485
2026-01-17 17:54:37.34	333.46	19.35	-39.2	-40.2	22.3	0.00e+00	41	29	0	651165696	50	6573
2026-01-17 17:54:38.35	333.22	19.34	-38.8	-39.8	22.6	0.00e+00	34	29	0	653262848	50	6281
2026-01-17 17:54:39.36	332.97	19.34	-38.5	-39.4	23.0	0.00e+00	91	29	0	654311424	50	6020
2026-01-17 17:54:40.37	332.73	19.33	-38.4	-39.4	23.1	0.00e+00	53	29	0	656408576	50	5990
2026-01-17 17:54:41.38	332.48	19.33	-38.3	-39.2	23.2	0.00e+00	90	29	0	658505728	50	5851
2026-01-17 17:54:42.39	332.23	19.32	-38.2	-39.2	23.3	0.00e+00	0	29	0	660602880	50	5832
2026-01-17 17:54:43.40	331.99	19.32	-38.1	-39.1	23.4	0.00e+00	4	29	0	662700032	50	5766
2026-01-17 17:54:44.41	331.74	19.31	-38.2	-39.1	23.3	0.00e+00	6	29	0	663748608	50	5816
2026-01-17 17:54:45.42	331.50	19.30	-38.3	-39.3	23.2	0.00e+00	6	29	0	665845760	50	5908
2026-01-17 17:54:46.43	331.25	19.29	-38.4	-39.3	23.1	0.00e+00	17	29	0	667942912	50	5931
2026-01-17 17:54:47.44	331.01	19.29	-38.4	-39.4	23.2	0.00e+00	0	29	0	670040064	50	5981
2026-01-17 17:54:48.45	330.76	19.28	-38.3	-39.2	23.2	0.00e+00	92	29	0	672137216	50	5888
2026-01-17 17:54:49.46	330.52	19.27	-38.2	-39.1	23.3	0.00e+00	0	29	0	674234368	50	5808
2026-01-17 17:54:50.47	330.27	19.26	-38.1	-39.0	23.4	0.00e+00	0	29	0	675282944	50	5755
2026-01-17 17:54:51.48	330.03	19.25	-38.0	-38.9	23.5	0.00e+00	0	29	0	677380096	50	5657
2026-01-17 17:54:52.49	329.78	19.24	-37.9	-38.7	23.6	0.00e+00	0	29	0	679477248	50	5562
2026-01-17 17:54:53.50	329.54	19.22	-37.9	-38.8	23.6	0.00e+00	0	29	0	681574400	50	5606
2026-01-17 17:54:54.51	329.29	19.21	-37.7	-38.6	23.7	0.00e+00	0	29	0	683671552	48	6155
2026-01-17 17:54:55.52	329.05	19.20	-37.6	-38.5	23.8	0.00e+00	91	29	0	684720128	48	6085
2026-01-17 17:54:56.53	328.80	19.19	-37.8	-38.7	23.3	0.00e+00	52	29	0	686817280	48	6196
2026-01-17 17:54:57.54	328.56	19.17	-37.7	-38.6	23.9	0.00e+00	91	29	0	688914432	48	6115
2026-01-17 17:54:58.55	328.32	19.16	-37.7	-38.5	23.8	0.00e+00	46	29	0	691011584	48	6099
2026-01-17 17:54:59.56	328.07	19.14	-37.5	-38.4	23.9	0.00e+00	37	29	0	693108736	48	5983
2026-01-17 17:55:00.57	327.83	19.13	-37.6	-38.4	24.0	0.00e+00	5	29	0	694157312	48	6019
2026-01-17 17:55:01.58	327.59	19.11	-37.5	-38.4	24.0	0.00e+00	47	29	0	696254464	48	5997
2026-01-17 17:55:02.59	327.35	19.09	-37.5	-38.4	24.0	0.00e+00	90	29	0	698351616	48	5967
2026-01-17 17:55:03.60	327.10	19.08	-37.7	-38.5	23.8	0.00e+00	56	29	0	700448768	48	6089
2026-01-17 17:55:04.61	326.86	19.06	-37.5	-38.4	23.9	0.00e+00	90	29	0	702545920	48	5979
2026-01-17 17:55:05.62	326.62	19.04	-37.6	-38.5	23.9	0.00e+00	0	29	0	703594496	48	6076
2026-01-17 17:55:06.63	326.38	19.02	-37.7	-38.6	23.7	0.00e+00	6	29	0	705691648	48	6162
2026-01-17 17:55:07.64	326.14	19.00	-37.4	-38.3	23.9	0.00e+00	6	29	0	707788800	48	5900
2026-01-17 17:55:08.64	325.90	18.98	-37.6	-38.5	23.9	0.00e+00	0	29	0	709885952	48	6046
2026-01-17 17:55:09.65	325.66	18.96	-37.2	-38.1	24.2	0.00e+00	2	29	0	711983104	48	5766
2026-01-17 17:55:10.66	325.42	18.94	-37.2	-38.1	24.3	0.00e+00	7	29	0	713031680	48	5768
2026-01-17 17:55:11.67	325.18	18.92	-37.0	-37.8	24.4	0.00e+00	92	29	0	715128832	48	5603
2026-01-17 17:55:12.68	324.94	18.90	-37.1	-37.9	24.3	0.00e+00	35	29	0	717225984	48	5662
2026-01-17 17:55:13.69	324.70	18.88	-37.2	-38.0	24.2	0.00e+00	83	29	0	719323136	48	5747
2026-01-17 17:55:14.70	324.46	18.86	-37.1	-37.9	24.3	0.00e+00	40	29	0	721420288	48	5661
2026-01-17 17:55:15.71	324.23	18.83	-37.2	-38.0	24.3	0.00e+00	39	29	0	722468864	48	5738
2026-01-17 17:55:16.72	323.99	18.81	-37.3	-38.1	24.2	0.00e+00	67	29	0	724566016	48	5799
2026-01-17 17:55:17.73	323.75	18.79	-37.3	-38.1	24.0	0.00e+00	40	29	0	726663168	48	5811
2026-01-17 17:55:18.74	323.51	18.76	-37.4	-38.3	24.0	0.00e+00	92	29	0	728760320	48	5934
2026-01-17 17:55:19.75	323.28	18.74	-37.4	-38.3	24.0	0.00e+00	41	29	0	730857472	48	5914
2026-01-17 17:55:20.76	323.04	18.71	-37.4	-38.3	24.0	0.00e+00	92	29	0	731906048	48	5897
2026-01-17 17:55:21.77	322.80	18.68	-37.3	-38.1	24.2	0.00e+00	2	29	0	734003200	48	5809
2026-01-17 17:55:22.78	322.57	18.66	-37.2	-38.1	24.2	0.00e+00	2	29	0	736100352	48	5781
2026-01-17 17:55:23.79	322.33	18.63	-37.3	-38.2	24.2	0.00e+00	2	29	0	738197504	48	5844
2026-01-17 17:55:24.80	322.10	18.60	-37.3	-38.2	24.2	0.00e+00	42	29	0	740294656	48	5864
2026-01-17 17:55:25.81	321.86	18.57	-37.3	-38.2	24.1	0.00e+00	25	29	0	742391808	48	5829
2026-01-17 17:55:26.82	321.63	18.55	-37.5	-38.4	24.0	0.00e+00	2	29	0	743440384	48	5972
2026-01-17 17:55:27.83	321.40	18.52	-37.6	-38.5	23.8	0.00e+00	92	29	0	745537536	48	6095
2026-01-17 17:55:28.84	321.16	18.49	-37.7	-38.6	23.7	0.00e+00	0	29	0	747634688	48	6166
2026-01-17 17:55:29.85	320.93	18.46	-37.9	-38.8	23.6	0.00e+00	0	29	0	749731840	48	6259
2026-01-17 17:55:30.86	320.70	18.43	-37.9	-38.8	23.6	0.00e+00	0	29	0	751828992	48	6272
2026-01-17 17:55:31.87	320.47	18.40	-37.9	-38.8	23.5	0.00e+00	39	29	0	752877568	48	6312
2026-01-17 17:55:32.88	320.24	18.37	-37.9	-38.8	23.6	0.00e+00	2	29	0	754974720	48	6304
2026-01-17 17:55:33.89	320.01	18.33	-38.0	-38.9	23.5	0.00e+00	0	29	0	757071872	48	6346
2026-01-17 17:55:34.90	319.78	18.30	-38.1	-39.0	23.4	0.00e+00	92	29	0	759169024	48	6418
2026-01-17 17:55:35.91	319.55	18.27	-38.1	-39.1	23.4	0.00e+00	39	29	0	761266176	48	6467
2026-01-17 17:55:36.92	319.32	18.24	-38.3	-39.3	23.2	0.00e+00	92	29	0	762314752	48	6625
2026-01-17 17:55:37.93	319.09	18.20	-38.5	-39.4	23.0	0.00e+00	45	29	0	764411904	48	6751
2026-01-17 17:55:38.94	318.86	18.17	-38.6	-39.5	23.0	0.00e+00	4	29	0	766509056	48	6847
2026-01-17 17:55:39.95	318.63	18.14	-38.4	-39.4	23.1	0.00e+00	24	29	0	768606208	48	6725
2026-01-17 17:55:40.96	318.40	18.10	-38.6	-39.6	23.0	0.00e+00	42	29	0	770703360	48	6890
2026-01-17 17:55:41.97	318.18	18.07	-38.6	-39.6	22.8	0.00e+00	92	29	0	771751936	48	6900
2026-01-17 17:55:42.98	317.95	18.03	-38.8	-39.8	22.8	0.00e+00	42	29	0	773849088	48	7017
2026-01-17 17:55:43.99	317.73	18.00	-38.7	-39.6	22.8	0.00e+00	91	29	0	775946240	50	6171
2026-01-17 17:55:45.00	317.50	17.96	-38.9	-39.9	22.6	0.00e+00	2	29	0	778043392	50	6374
2026-01-17 17:55:46.01	317.28	17.92	-38.8	-39.8	22.8	0.00e+00	42	29	0	780140544	50	6262
2026-01-17 17:55:47.01	317.06	17.89	-38.8	-39.8	22.8	0.00e+00	0	29	0	781189120	50	6271
2026-01-17 17:55:48.02	316.83	17.85	-38.7	-39.7	22.9	0.00e+00	0	29	0	783286272	50	6191
2026-01-17 17:55:49.03	316.61	17.81	-38.6	-39.6	22.9	0.00e+00	91	29	0	785383424	50	6128
2026-01-17 17:55:50.04	316.39	17.77	-38.5	-39.4	23.1	0.00e+00	0	29	0	787480576	50	6025
2026-01-17 17:55:51.05	316.17	17.73	-38.4	-39.4	23.1	0.00e+00	90	29	0	789577728	50	5965
2026-01-17 17:55:52.06	315.94	17.69	-38.4	-39.3	23.1	0.00e+00	0	29	0	790626304	50	5939
2026-01-17 17:55:53.07	315.72	17.66	-38.4	-39.3	23.2	0.00e+00	38	29	0	792723456	50	5964
2026-01-17 17:55:54.08	315.50	17.62	-38.4	-39.3	23.2	0.00e+00	2	29	0	794820608	50	5960
2026-01-17 17:55:55.09	315.28	17.58	-38.4	-39.3	23.0	0.00e+00	0	29	0	796917760	50	5948
2026-01-17 17:55:56.10	315.07	17.54	-38.4	-39.4	22.9	0.00e+00	0	29	0	799014912	50	5981
2026-01-17 17:55:57.11	314.85	17.49	-38.7	-39.6	22.9	0.00e+00	0	29	0	800063488	50	6151
2026-01-17 17:55:58.12	314.63	17.45	-38.6	-39.6	22.9	0.00e+00	92	29	0	802160640	50	6132
2026-01-17 17:55:59.13	314.41	17.41	-38.8	-39.8	22.7	0.00e+00	40	29	0	804257792	50	6271
2026-01-17 17:56:00.13	314.20	17.37	-38.9	-39.9	22.6	0.00e+00	86	29	0	806354944	50	6343
2026-01-17 17:56:01.14	313.98	17.33	-38.7	-39.7	22.8	0.00e+00	34	29	0	808452096	50	6203
2026-01-17 17:56:02.15	313.77	17.29	-38.9	-39.9	22.7	0.00e+00	2	29	0	810549248	50	6341
2026-01-17 17:56:03.16	313.55	17.24	-38.7	-39.6	22.8	0.00e+00	0	29	0	811597824	50	6166
2026-01-17 17:56:04.17	313.34	17.20	-38.7	-39.7	22.7	0.00e+00	0	29	0	813694976	50	6225
2026-01-17 17:56:05.18	313.13	17.16	-38.8	-39.8	22.7	0.00e+00	92	29	0	815792128	50	6276
2026-01-17 17:56:06.19	312.91	17.11	-38.6	-39.6	23.0	0.00e+00	53	29	0	817889280	50	6106
2026-01-17 17:56:07.20	312.70	17.07	-38.7	-39.7	22.8	0.00e+00	92	29	0	819986432	50	6180
2026-01-17 17:56:08.21	312.49	17.02	-38.7	-39.7	22.8	0.00e+00	0	29	0	821035008	50	6176
2026-01-17 17:56:09.23	312.28	16.98	-38.5	-39.4	23.0	0.00e+00	0	29	0	823132160	50	6013
2026-01-17 17:56:10.24	312.07	16.93	-38.5	-39.4	23.1	0.00e+00	2	29	0	825229312	50	6009
2026-01-17 17:56:11.25	311.86	16.89	-38.5	-39.4	23.0	0.00e+00	0	29	0	827326464	50	6014
2026-01-17 17:56:12.26	311.65	16.84	-38.5	-39.5	23.0	0.00e+00	92	29	0	829423616	50	6062
2026-01-17 17:56:13.27	311.44	16.80	-38.6	-39.5	22.9	0.00e+00	37	29	0	830472192	50	6080
2026-01-17 17:56:14.28	311.23	16.75	-38.7	-39.7	22.8	0.00e+00	92	29	0	832569344	50	6220
2026-01-17 17:56:15.28	311.03	16.70	-38.7	-39.7	22.8	0.00e+00	37	29	0	834666496	50	6221
2026-01-17 17:56:16.29	310.82	16.66	-38.7	-39.7	22.8	0.00e+00	19	29	0	836763648	50	6188
2026-01-17 17:56:17.30	310.62	16.61	-38.8	-39.7	22.7	0.00e+00	36	29	0	838860800	50	6234
2026-01-17 17:56:18.31	310.41	16.56	-38.8	-39.8	22.7	0.00e+00	2	29	0	839909376	50	6311
2026-01-17 17:56:19.32	310.21	16.51	-38.8	-39.8	22.7	0.00e+00	0	29	0	842006528	50	6257
2026-01-17 17:56:20.33	310.00	16.47	-38.9	-39.9	22.6	0.00e+00	44	29	0	844103680	50	6363
2026-01-17 17:56:21.34	309.80	16.42	-38.9	-39.9	22.7	0.00e+00	91	29	0	846200832	50	6323
2026-01-17 17:56:22.35	309.60	16.37	-38.8	-39.8	22.7	0.00e+00	45	29	0	848297984	50	6275
2026-01-17 17:56:23.36	309.40	16.32	-38.9	-39.9	22.6	0.00e+00	92	29	0	849346560	50	6372
2026-01-17 17:56:24.37	309.19	16.27	-39.0	-40.0	22.5	0.00e+00	7	29	0	851443712	50	6461
2026-01-17 17:56:25.38	308.99	16.22	-39.0	-40.0	22.5	0.00e+00	6	29	0	853540864	50	6455
2026-01-17 17:56:26.39	308.79	16.17	-39.1	-40.1	22.4	0.00e+00	0	29	0	855638016	50	6510
2026-01-17 17:56:27.40	308.60	16.12	-39.3	-40.3	22.3	0.00e+00	5	29	0	857735168	50	6679
2026-01-17 17:56:28.41	308.40	16.07	-39.1	-40.2	22.3	0.00e+00	92	29	0	858783744	50	6553
2026-01-17 17:56:29.42	308.20	16.02	-39.1	-40.2	22.4	0.00e+00	6	29	0	860880896	50	6540
2026-01-17 17:56:30.43	308.00	15.97	-39.0	-40.0	22.5	0.00e+00	92	29	0	862978048	50	6412
2026-01-17 17:56:31.44	307.81	15.92	-39.0	-40.0	22.5	0.00e+00	0	29	0	865075200	50	6412
2026-01-17 17:56:32.45	307.61	15.87	-38.9	-39.9	22.5	0.00e+00	0	29	0	867172352	50	6364
2026-01-17 17:56:33.46	307.42	15.82	-39.0	-40.1	22.5	0.00e+00	0	29	0	868220928	50	6466
2026-01-17 17:56:34.47	307.22	15.76	-39.0	-40.0	22.5	0.00e+00	33	29	0	870318080	50	6462
2026-01-17 17:56:35.48	307.03	15.71	-39.2	-40.2	22.3	0.00e+00	2	29	0	872415232	50	6591
2026-01-17 17:56:36.49	306.83	15.66	-39.1	-40.1	22.4	0.00e+00	0	29	0	874512384	50	6502
2026-01-17 17:56:37.50	306.64	15.61	-39.1	-40.1	22.4	0.00e+00	91	29	0	876609536	50	6535
2026-01-17 17:56:38.51	306.45	15.56	-39.1	-40.2	22.3	0.00e+00	34	29	0	878706688	50	6540
2026-01-17 17:56:39.52	306.26	15.50	-39.3	-40.4	22.2	0.00e+00	49	29	0	879755264	50	6710
2026-01-17 17:56:40.53	306.07	15.45	-39.3	-40.3	22.2	0.00e+00	48	29	0	881852416	50	6680
2026-01-17 17:56:41.53	305.88	15.40	-39.4	-40.4	22.1	0.00e+00	0	29	0	883949568	50	6741
2026-01-17 17:56:42.54	305.69	15.34	-39.4	-40.5	22.0	0.00e+00	0	29	0	886046720	50	6825
2026-01-17 17:56:43.55	305.50	15.29	-39.4	-40.5	22.0	0.00e+00	34	29	0	888143872	50	6798
2026-01-17 17:56:44.56	305.32	15.24	-39.4	-40.5	22.0	0.00e+00	92	29	0	889192448	50	6822
2026-01-17 17:56:45.57	305.13	15.18	-39.5	-40.6	21.9	0.00e+00	48	29	0	891289600	50	6894
2026-01-17 17:56:46.58	304.94	15.13	-39.5	-40.5	22.0	0.00e+00	92	29	0	893386752	50	6844
2026-01-17 17:56:47.59	304.76	15.07	-39.6	-40.7	22.0	0.00e+00	6	29	0	895483904	50	6936
2026-01-17 17:56:48.60	304.57	15.02	-39.5	-40.6	21.9	0.00e+00	49	29	0	897581056	50	6867
2026-01-17 17:56:49.61	304.39	14.97	-39.5	-40.6	21.8	0.00e+00	0	29	0	898629632	50	6864
2026-01-17 17:56:50.62	304.21	14.91	-39.3	-40.4	22.1	0.00e+00	6	29	0	900726784	50	6703
2026-01-17 17:56:51.63	304.02	14.86	-39.3	-40.3	22.2	0.00e+00	92	29	0	902823936	50	6643
2026-01-17 17:56:52.64	303.84	14.80	-39.3	-40.4	22.2	0.00e+00	6	29	0	904921088	50	6725
2026-01-17 17:56:53.65	303.66	14.75	-39.3	-40.4	22.1	0.00e+00	90	29	0	907018240	50	6701
2026-01-17 17:56:54.66	303.48	14.69	-39.2	-40.2	22.3	0.00e+00	6	29	0	908066816	50	6596
2026-01-17 17:56:55.67	303.30	14.63	-39.3	-40.3	22.2	0.00e+00	19	29	0	910163968	50	6682
2026-01-17 17:56:56.68	303.12	14.58	-39.3	-40.4	22.1	0.00e+00	36	29	0	912261120	50	6721
2026-01-17 17:56:57.69	302.94	14.52	-39.6	-40.7	21.8	0.00e+00	0	29	0	914358272	50	6964
2026-01-17 17:56:58.69	302.76	14.47	-39.8	-40.9	21.6	0.00e+00	2	29	0	916455424	52	6368
2026-01-17 17:56:59.70	302.59	14.41	-39.9	-41.0	21.6	0.00e+00	38	29	0	917504000	52	6415
2026-01-17 17:57:00.71	302.41	14.35	-40.0	-41.1	21.4	0.00e+00	91	29	0	919601152	52	6530
2026-01-17 17:57:01.72	302.23	14.30	-40.0	-41.1	21.3	0.00e+00	32	29	0	921698304	52	6525
2026-01-17 17:57:02.74	302.06	14.24	-39.9	-41.0	21.6	0.00e+00	87	29	0	923795456	52	6406
2026-01-17 17:57:03.75	301.88	14.18	-39.8	-40.9	21.6	0.00e+00	31	29	0	925892608	52	6362
2026-01-17 17:57:04.76	301.71	14.13	-39.8	-40.9	21.6	0.00e+00	49	29	0	926941184	52	6363
2026-01-17 17:57:05.77	301.54	14.07	-39.9	-41.1	21.5	0.00e+00	66	29	0	929038336	52	6482
2026-01-17 17:57:06.78	301.36	14.01	-40.0	-41.1	21.4	0.00e+00	50	29	0	931135488	52	6530
2026-01-17 17:57:07.79	301.19	13.96	-40.1	-41.2	21.3	0.00e+00	92	29	0	933232640	52	6585
2026-01-17 17:57:08.80	301.02	13.90	-40.1	-41.3	21.3	0.00e+00	2	29	0	935329792	52	6647
2026-01-17 17:57:09.81	300.85	13.84	-40.1	-41.2	21.3	0.00e+00	92	29	0	936378368	52	6582
2026-01-17 17:57:10.82	300.68	13.78	-40.0	-41.1	21.5	0.00e+00	0	29	0	938475520	52	6515
2026-01-17 17:57:11.83	300.51	13.73	-40.0	-41.2	21.4	0.00e+00	0	29	0	940572672	52	6567
2026-01-17 17:57:12.84	300.34	13.67	-40.1	-41.2	21.3	0.00e+00	0	29	0	942669824	52	6592
2026-01-17 17:57:13.85	300.17	13.61	-40.0	-41.1	21.4	0.00e+00	0	29	0	944766976	52	6539
2026-01-17 17:57:14.86	300.01	13.55	-40.1	-41.3	21.2	0.00e+00	92	29	0	946864128	52	6649
2026-01-17 17:57:15.87	299.84	13.49	-40.2	-41.4	21.2	0.00e+00	37	29	0	947912704	52	6699
2026-01-17 17:57:16.88	299.67	13.44	-40.2	-41.4	21.1	0.00e+00	91	29	0	950009856	52	6703
2026-01-17 17:57:17.89	299.51	13.38	-40.2	-41.4	21.1	0.00e+00	0	29	0	952107008	52	6729
2026-01-17 17:57:18.90	299.34	13.32	-40.3	-41.5	21.0	0.00e+00	0	29	0	954204160	52	6822
2026-01-17 17:57:19.91	299.18	13.26	-40.1	-41.3	21.3	0.00e+00	36	29	0	956301312	52	6645
2026-01-17 17:57:20.92	299.02	13.20	-40.2	-41.3	21.2	0.00e+00	45	29	0	957349888	52	6690
2026-01-17 17:57:21.93	298.85	13.14	-40.0	-41.2	21.3	0.00e+00	92	29	0	959447040	52	6575
2026-01-17 17:57:22.94	298.69	13.08	-40.2	-41.3	21.1	0.00e+00	0	29	0	961544192	52	6687
2026-01-17 17:57:23.95	298.53	13.02	-40.0	-41.2	21.4	0.00e+00	92	29	0	963641344	52	6579
2026-01-17 17:57:24.96	298.37	12.97	-40.0	-41.1	21.4	0.00e+00	36	29	0	965738496	52	6529
2026-01-17 17:57:25.97	298.21	12.91	-39.9	-41.0	21.5	0.00e+00	16	29	0	966787072	52	6441
2026-01-17 17:57:26.98	298.05	12.85	-39.8	-41.0	21.6	0.00e+00	2	29	0	968884224	52	6397
2026-01-17 17:57:27.99	297.89	12.79	-39.7	-40.8	21.7	0.00e+00	45	29	0	970981376	52	6291
2026-01-17 17:57:29.00	297.73	12.73	-39.6	-40.7	21.8	0.00e+00	34	29	0	973078528	52	6207
2026-01-17 17:57:30.01	297.58	12.67	-39.6	-40.7	21.8	0.00e+00	0	29	0	975175680	52	6204
2026-01-17 17:57:31.02	297.42	12.61	-39.6	-40.7	21.9	0.00e+00	92	29	0	976224256	52	6183
2026-01-17 17:57:32.03	297.26	12.55	-39.4	-40.5	22.0	0.00e+00	2	29	0	978321408	52	6066
2026-01-17 17:57:33.04	297.11	12.49	-39.5	-40.6	21.9	0.00e+00	91	29	0	980418560	52	6156
2026-01-17 17:57:34.05	296.95	12.43	-39.3	-40.4	22.1	0.00e+00	0	29	0	982515712	52	5996
2026-01-17 17:57:35.06	296.80	12.37	-39.4	-40.5	22.0	0.00e+00	0	29	0	984612864	52	6067
2026-01-17 17:57:36.07	296.65	12.31	-39.2	-40.3	22.2	0.00e+00	0	29	0	986710016	52	5910
2026-01-17 17:57:37.08	296.49	12.25	-39.3	-40.4	22.1	0.00e+00	31	29	0	987758592	52	5969
2026-01-17 17:57:38.09	296.34	12.19	-39.3	-40.3	22.1	0.00e+00	90	29	0	989855744	52	5957
2026-01-17 17:57:39.10	296.19	12.13	-39.5	-40.6	21.9	0.00e+00	0	29	0	991952896	52	6106
2026-01-17 17:57:40.11	296.04	12.07	-39.3	-40.4	22.0	0.00e+00	92	29	0	994050048	52	5973
2026-01-17 17:57:41.12	295.89	12.01	-39.3	-40.4	22.0	0.00e+00	47	29	0	996147200	52	6006
2026-01-17 17:57:42.13	295.74	11.95	-39.3	-40.4	22.0	0.00e+00	45	29	0	997195776	52	5966
2026-01-17 17:57:43.14	295.59	11.89	-39.2	-40.3	22.1	0.00e+00	46	29	0	999292928	52	5931
2026-01-17 17:57:44.15	295.44	11.83	-39.2	-40.2	22.2	0.00e+00	37	29	0	1001390080	52	5894
2026-01-17 17:57:45.17	295.29	11.77	-39.1	-40.1	22.2	0.00e+00	27	29	0	1003487232	52	5820
2026-01-17 17:57:46.17	295.15	11.71	-39.0	-40.0	22.4	0.00e+00	0	29	0	1005584384	52	5717
2026-01-17 17:57:47.18	295.00	11.65	-38.9	-39.9	22.5	0.00e+00	92	29	0	1006632960	52	5648
2026-01-17 17:57:48.19	294.85	11.59	-38.9	-39.9	22.5	0.00e+00	2	29	0	1008730112	52	5648
2026-01-17 17:57:49.21	294.71	11.53	-38.7	-39.7	22.5	0.00e+00	42	29	0	1010827264	50	6220
2026-01-17 17:57:50.22	294.56	11.47	-38.6	-39.6	22.7	0.00e+00	45	29	0	1012924416	50	6136
2026-01-17 17:57:51.22	294.42	11.41	-38.7	-39.6	22.7	0.00e+00	0	29	0	1015021568	50	6167
2026-01-17 17:57:52.24	294.27	11.35	-38.6	-39.6	22.7	0.00e+00	0	29	0	1016070144	50	6154
2026-01-17 17:57:53.25	294.13	11.29	-38.5	-39.5	22.8	0.00e+00	0	29	0	1018167296	50	6053
2026-01-17 17:57:54.26	293.99	11.23	-38.6	-39.6	22.7	0.00e+00	92	29	0	1020264448	50	6109
2026-01-17 17:57:55.27	293.85	11.17	-38.6	-39.6	22.6	0.00e+00	0	29	0	1022361600	50	6162
2026-01-17 17:57:56.28	293.70	11.11	-38.6	-39.6	22.7	0.00e+00	92	29	0	1024458752	50	6107
2026-01-17 17:57:57.29	293.56	11.05	-38.7	-39.6	22.6	0.00e+00	36	29	0	1025507328	50	6168
2026-01-17 17:57:58.30	293.42	10.98	-38.5	-39.5	22.7	0.00e+00	0	29	0	1027604480	50	6080
2026-01-17 17:57:59.31	293.28	10.92	-38.5	-39.5	22.6	0.00e+00	0	29	0	1029701632	50	6088
2026-01-17 17:58:00.32	293.14	10.86	-38.4	-39.4	22.7	0.00e+00	51	29	0	1031798784	50	5990
2026-01-17 17:58:01.33	293.01	10.80	-38.4	-39.4	22.8	0.00e+00	91	29	0	1033895936	50	6004
2026-01-17 17:58:02.34	292.87	10.74	-38.3	-39.3	22.8	0.00e+00	0	29	0	1034944512	50	5898
2026-01-17 17:58:03.35	292.73	10.68	-38.1	-39.0	22.7	0.00e+00	91	29	0	1037041664	50	5736
2026-01-17 17:58:04.36	292.59	10.62	-38.2	-39.2	22.6	0.00e+00	54	29	0	1039138816	50	5851
2026-01-17 17:58:05.37	292.46	10.56	-38.0	-39.0	23.1	0.00e+00	51	29	0	1041235968	50	5701
2026-01-17 17:58:06.38	292.32	10.50	-38.0	-39.0	23.2	0.00e+00	57	29	0	1043333120	50	5696
2026-01-17 17:58:07.39	292.19	10.44	-38.1	-39.0	23.1	0.00e+00	5	29	0	1044381696	50	5735
2026-01-17 17:58:08.40	292.05	10.38	-38.1	-39.1	23.1	0.00e+00	86	29	0	1046478848	50	5788
2026-01-17 17:58:09.41	291.92	10.32	-38.4	-39.3	22.8	0.00e+00	5	29	0	1048576000	50	5949
2026-01-17 17:58:10.42	291.79	10.26	-38.5	-39.5	22.7	0.00e+00	92	29	0	1050673152	50	6043
2026-01-17 17:58:11.44	291.65	10.20	-38.7	-39.7	22.6	0.00e+00	5	29	0	1052770304	50	6186
2026-01-17 17:58:12.44	291.52	10.14	-38.8	-39.8	22.5	0.00e+00	70	29	0	1054867456	50	6269
2026-01-17 17:58:13.45	291.39	10.07	-38.6	-39.6	22.6	0.00e+00	0	29	0	1055916032	50	6119
2026-01-17 17:58:14.46	291.26	10.01	-38.6	-39.6	22.6	0.00e+00	0	29	0	1058013184	50	6133
2026-01-17 17:58:15.47	291.13	9.95	-38.3	-39.3	22.9	0.00e+00	39	29	0	1060110336	50	5923
2026-01-17 17:58:16.48	291.00	9.89	-38.3	-39.3	22.9	0.00e+00	34	29	0	1062207488	50	5943
2026-01-17 17:58:17.49	290.87	9.83	-38.4	-39.4	22.8	0.00e+00	91	29	0	1064304640	50	5968
2026-01-17 17:58:18.50	290.74	9.77	-38.4	-39.3	22.8	0.00e+00	34	29	0	1065353216	50	5963
2026-01-17 17:58:19.51	290.61	9.71	-38.3	-39.3	22.8	0.00e+00	50	29	0	1067450368	50	5903
2026-01-17 17:58:20.52	290.49	9.65	-38.4	-39.4	22.7	0.00e+00	52	29	0	1069547520	50	6010
2026-01-17 17:58:21.53	290.36	9.59	-38.5	-39.5	22.6	0.00e+00	32	29	0	1071644672	50	6088
2026-01-17 17:58:22.54	290.23	9.53	-38.5	-39.5	22.6	0.00e+00	9	29	0	1073741824	50	6099
2026-01-17 17:58:23.55	290.11	9.47	-38.6	-39.6	22.6	0.00e+00	34	29	0	1074790400	50	6127
2026-01-17 17:58:24.57	289.98	9.41	-38.6	-39.6	22.5	0.00e+00	92	29	0	1076887552	50	6172
2026-01-17 17:58:25.57	289.86	9.35	-38.8	-39.8	22.4	0.00e+00	0	29	0	1078984704	50	6273
2026-01-17 17:58:26.58	289.73	9.29	-38.9	-39.9	22.3	0.00e+00	85	29	0	1081081856	50	6369
2026-01-17 17:58:27.59	289.61	9.23	-39.0	-40.1	22.1	0.00e+00	6	29	0	1083179008	50	6482
2026-01-17 17:58:28.60	289.48	9.16	-38.9	-40.0	22.2	0.00e+00	52	29	0	1084227584	50	6395
2026-01-17 17:58:29.61	289.36	9.10	-39.0	-40.1	22.1	0.00e+00	5	29	0	1086324736	50	6494
2026-01-17 17:58:30.62	289.24	9.04	-39.0	-40.0	22.2	0.00e+00	7	29	0	1088421888	50	6432
2026-01-17 17:58:31.63	289.12	8.98	-39.0	-40.1	22.1	0.00e+00	85	29	0	1090519040	50	6486
2026-01-17 17:58:32.64	289.00	8.92	-38.9	-39.9	22.2	0.00e+00	6	29	0	1092616192	50	6356
2026-01-17 17:58:33.65	288.87	8.86	-38.9	-40.0	22.2	0.00e+00	91	29	0	1093664768	50	6415
2026-01-17 17:58:34.66	288.75	8.80	-38.7	-39.8	22.4	0.00e+00	7	29	0	1095761920	50	6251
2026-01-17 17:58:35.67	288.63	8.74	-38.8	-39.8	22.3	0.00e+00	28	29	0	1097859072	50	6265
2026-01-17 17:58:36.68	288.52	8.68	-38.6	-39.6	22.4	0.00e+00	28	29	0	1099956224	50	6172
2026-01-17 17:58:37.70	288.40	8.62	-38.7	-39.7	22.4	0.00e+00	0	29	0	1102053376	50	6202
2026-01-17 17:58:38.71	288.28	8.56	-38.7	-39.7	22.4	0.00e+00	28	29	0	1103101952	50	6193
2026-01-17 17:58:39.72	288.16	8.50	-38.6	-39.7	22.4	0.00e+00	34	29	0	1105199104	50	6178
2026-01-17 17:58:40.73	288.04	8.44	-38.6	-39.6	22.5	0.00e+00	90	29	0	1107296256	50	6155
2026-01-17 17:58:41.74	287.93	8.38	-38.8	-39.8	22.3	0.00e+00	49	29	0	1109393408	50	6287
2026-01-17 17:58:42.75	287.81	8.32	-39.0	-40.0	22.1	0.00e+00	71	29	0	1111490560	50	6447
2026-01-17 17:58:43.76	287.69	8.26	-39.1	-40.1	22.0	0.00e+00	49	29	0	1112539136	50	6531
2026-01-17 17:58:44.77	287.58	8.20	-38.9	-40.0	22.1	0.00e+00	49	29	0	1114636288	50	6425
2026-01-17 17:58:45.78	287.46	8.14	-39.2	-40.2	21.9	0.00e+00	0	29	0	1116733440	50	6606
2026-01-17 17:58:46.79	287.35	8.08	-39.3	-40.4	21.7	0.00e+00	49	29	0	1118830592	50	6719
2026-01-17 17:58:47.80	287.24	8.02	-39.1	-40.2	21.8	0.00e+00	92	29	0	1120927744	50	6598
2026-01-17 17:58:48.81	287.12	7.96	-39.2	-40.3	21.8	0.00e+00	0	29	0	1121976320	50	6659
2026-01-17 17:58:49.82	287.01	7.90	-39.5	-40.6	21.5	0.00e+00	0	29	0	1124073472	50	6877
2026-01-17 17:58:50.83	286.90	7.84	-39.7	-40.8	21.2	0.00e+00	2	29	0	1126170624	50	7076
2026-01-17 17:58:51.84	286.78	7.78	-39.7	-40.9	21.4	0.00e+00	0	29	0	1128267776	52	6320
2026-01-17 17:58:52.85	286.67	7.72	-39.6	-40.8	21.3	0.00e+00	2	29	0	1130364928	52	6265
2026-01-17 17:58:53.86	286.56	7.66	-39.6	-40.8	21.4	0.00e+00	0	29	0	1132462080	52	6249
2026-01-17 17:58:54.87	286.45	7.60	-39.8	-40.9	21.2	0.00e+00	92	29	0	1133510656	52	6375
2026-01-17 17:58:55.88	286.34	7.54	-39.7	-40.9	21.2	0.00e+00	33	29	0	1135607808	52	6333
2026-01-17 17:58:56.89	286.23	7.48	-39.8	-41.0	21.1	0.00e+00	92	29	0	1137704960	52	6396
2026-01-17 17:58:57.90	286.12	7.42	-40.0	-41.3	20.9	0.00e+00	31	29	0	1139802112	52	6627
2026-01-17 17:58:58.91	286.01	7.36	-39.9	-41.1	21.0	0.00e+00	4	29	0	1141899264	52	6477
2026-01-17 17:58:59.92	285.91	7.30	-39.9	-41.1	21.0	0.00e+00	49	29	0	1142947840	52	6536
2026-01-17 17:59:00.93	285.80	7.24	-40.0	-41.2	21.0	0.00e+00	55	29	0	1145044992	52	6547
2026-01-17 17:59:01.94	285.69	7.18	-40.0	-41.2	20.9	0.00e+00	0	29	0	1147142144	52	6570
2026-01-17 17:59:02.95	285.58	7.12	-40.1	-41.3	20.8	0.00e+00	55	29	0	1149239296	52	6633
2026-01-17 17:59:03.96	285.48	7.06	-40.2	-41.5	20.6	0.00e+00	92	29	0	1151336448	52	6770
2026-01-17 17:59:04.97	285.37	7.00	-40.1	-41.3	20.7	0.00e+00	54	29	0	1152385024	52	6673
2026-01-17 17:59:05.98	285.27	6.94	-40.0	-41.2	20.9	0.00e+00	2	29	0	1154482176	52	6559
2026-01-17 17:59:06.99	285.16	6.88	-40.4	-41.7	20.4	0.00e+00	0	29	0	1156579328	52	6947
2026-01-17 17:59:08.00	285.06	6.83	-40.4	-41.7	20.4	0.00e+00	53	29	0	1158676480	52	6982
2026-01-17 17:59:09.01	284.95	6.77	-40.3	-41.6	20.5	0.00e+00	0	29	0	1160773632	52	6879
2026-01-17 17:59:10.02	284.85	6.71	-40.3	-41.6	20.4	0.00e+00	0	29	0	1161822208	52	6912
2026-01-17 17:59:11.03	284.74	6.65	-40.6	-42.0	20.0	0.00e+00	92	29	0	1163919360	52	7175
2026-01-17 17:59:12.04	284.64	6.59	-40.5	-41.8	20.3	0.00e+00	0	29	0	1166016512	52	7038
2026-01-17 17:59:13.05	284.54	6.53	-40.5	-41.8	20.2	0.00e+00	91	29	0	1168113664	52	7077
2026-01-17 17:59:14.06	284.44	6.47	-40.7	-42.1	19.9	0.00e+00	0	29	0	1170210816	52	7322
2026-01-17 17:59:15.07	284.33	6.41	-40.8	-42.2	19.8	0.00e+00	0	29	0	1172307968	52	7347
2026-01-17 17:59:16.08	284.23	6.35	-40.5	-41.9	20.0	0.00e+00	0	29	0	1173356544	54	6343
2026-01-17 17:59:17.09	284.13	6.29	-40.7	-42.1	19.8	0.00e+00	0	29	0	1175453696	54	6529
2026-01-17 17:59:18.10	284.03	6.24	-40.8	-42.2	19.9	0.00e+00	92	29	0	1177550848	54	6569
2026-01-17 17:59:19.11	283.93	6.18	-40.8	-42.3	19.6	0.00e+00	31	29	0	1179648000	54	6622
2026-01-17 17:59:20.12	283.83	6.12	-41.0	-42.4	19.7	0.00e+00	92	29	0	1181745152	54	6728
2026-01-17 17:59:21.13	283.73	6.06	-40.7	-42.1	19.8	0.00e+00	31	29	0	1182793728	54	6532
2026-01-17 17:59:22.14	283.63	6.00	-40.9	-42.3	19.6	0.00e+00	2	29	0	1184890880	54	6657
2026-01-17 17:59:23.15	283.54	5.94	-41.1	-42.5	19.3	0.00e+00	0	29	0	1186988032	54	6844
2026-01-17 17:59:24.16	283.44	5.88	-41.3	-42.8	19.3	0.00e+00	55	29	0	1189085184	54	7037
2026-01-17 17:59:25.17	283.34	5.83	-41.1	-42.6	19.3	0.00e+00	4	29	0	1191182336	54	6923
2026-01-17 17:59:26.18	283.24	5.77	-41.1	-42.6	19.3	0.00e+00	50	29	0	1192230912	54	6889
2026-01-17 17:59:27.19	283.15	5.71	-41.1	-42.6	19.3	0.00e+00	91	29	0	1194328064	54	6895
2026-01-17 17:59:28.20	283.05	5.65	-40.9	-42.3	19.5	0.00e+00	0	29	0	1196425216	54	6673
