passes_logs/2026/01/17/R4.6S_Anadyr/R4.6S_Anadyr__20260117_215355_NOAA_21_JPSS-2_rec.log

#Pass ID: 20260117_215355_NOAA 21 (JPSS-2)
#Satellite: NOAA 21 (JPSS-2)
#Configuration: NOAA-21
#almurnet v.1.7.20251203
#Start time: 2026-01-17 21:53:57

#Version: 2.2.20231116
#Station: R4.6S_Anadyr
#Location: 177.4865 lon 64.73178 lat
#TLE: 1 54234U 22150A   26017.62066529  .00000042  00000+0  40984-4 0  9994
#TLE: 2 54234  98.7502 318.4887 0000613 271.5460  88.5645 14.19535234165189

#Time	Az	El	Level	Level2	SNR	BER	BlckErr	Temp	State	Recorded	gain1	gain2
2026-01-17 21:53:57.88	100.66	0.15	-48.9	-63.7	3.6	1.51e+00	0	29	0	0	60	55561
2026-01-17 21:53:58.89	100.61	0.20	-49.1	-62.0	3.5	1.52e+00	0	30	104	0	60	44096
2026-01-17 21:53:59.89	100.56	0.26	-48.9	-61.8	3.5	1.52e+00	0	30	104	0	60	42967
2026-01-17 21:54:00.90	100.50	0.31	-48.9	-61.8	3.5	1.52e+00	0	30	104	0	60	43158
2026-01-17 21:54:01.91	100.45	0.37	-48.9	-61.7	3.5	1.52e+00	0	30	104	0	60	42629
2026-01-17 21:54:02.92	100.39	0.43	-48.8	-61.6	3.5	1.52e+00	0	30	104	0	60	42225
2026-01-17 21:54:03.93	100.34	0.48	-48.9	-61.7	3.5	1.52e+00	0	30	104	0	60	42458
2026-01-17 21:54:04.94	100.28	0.54	-48.8	-61.7	3.5	1.52e+00	0	30	104	0	60	42568
2026-01-17 21:54:05.95	100.23	0.59	-48.8	-61.7	3.5	1.52e+00	0	30	104	0	60	42510
2026-01-17 21:54:06.96	100.17	0.65	-48.7	-61.6	3.5	1.52e+00	0	30	104	0	60	42346
2026-01-17 21:54:07.97	100.11	0.71	-48.8	-61.6	3.5	1.52e+00	0	30	104	0	60	42138
2026-01-17 21:54:08.98	100.06	0.76	-48.8	-61.6	3.5	1.52e+00	0	30	104	0	60	42364
2026-01-17 21:54:09.99	100.00	0.82	-48.5	-61.5	3.5	1.52e+00	0	30	104	0	60	41522
2026-01-17 21:54:11.00	99.95	0.87	-48.5	-61.4	3.5	1.52e+00	0	30	104	0	60	41095
2026-01-17 21:54:12.01	99.89	0.93	-48.3	-61.2	3.5	1.52e+00	0	30	104	0	60	40443
2026-01-17 21:54:13.02	99.83	0.99	-47.8	-61.0	3.5	1.52e+00	0	30	104	0	60	39330
2026-01-17 21:54:14.03	99.78	1.04	-47.4	-60.3	3.5	1.52e+00	0	30	104	0	60	36491
2026-01-17 21:54:15.03	99.72	1.10	-46.1	-59.9	3.5	1.52e+00	0	30	104	0	60	34751
2026-01-17 21:54:16.05	99.66	1.16	-46.1	-59.9	3.5	1.52e+00	0	30	104	0	60	34679
2026-01-17 21:54:17.06	99.60	1.21	-46.0	-59.9	3.5	1.52e+00	0	30	104	0	60	34606
2026-01-17 21:54:18.06	99.54	1.27	-46.0	-59.8	3.5	1.52e+00	0	30	104	0	60	34427
2026-01-17 21:54:19.07	99.49	1.33	-46.0	-59.8	3.5	1.52e+00	0	30	104	0	60	34422
2026-01-17 21:54:20.08	99.43	1.39	-46.0	-59.8	3.5	1.52e+00	0	31	104	0	60	34376
2026-01-17 21:54:21.09	99.37	1.44	-46.0	-59.8	3.5	1.52e+00	0	31	104	0	60	34258
2026-01-17 21:54:22.10	99.31	1.50	-46.0	-59.8	3.4	1.52e+00	0	30	104	0	60	34379
2026-01-17 21:54:23.11	99.25	1.56	-46.0	-59.8	3.5	1.52e+00	0	31	104	0	60	34223
2026-01-17 21:54:24.12	99.19	1.61	-46.0	-59.9	3.5	1.52e+00	0	31	104	0	60	34557
2026-01-17 21:54:25.13	99.13	1.67	-46.0	-59.9	3.5	1.52e+00	0	31	104	0	60	34797
2026-01-17 21:54:26.14	99.07	1.73	-46.0	-60.0	3.5	1.52e+00	0	31	104	0	60	34921
2026-01-17 21:54:27.15	99.01	1.79	-46.0	-59.9	3.5	1.52e+00	0	31	104	0	60	34879
2026-01-17 21:54:28.16	98.95	1.84	-46.0	-60.0	3.5	1.52e+00	0	31	104	0	60	34976
2026-01-17 21:54:29.17	98.89	1.90	-46.0	-59.9	3.5	1.52e+00	0	31	104	0	60	34841
2026-01-17 21:54:30.18	98.83	1.96	-46.0	-59.9	3.5	1.52e+00	0	31	104	0	60	34856
2026-01-17 21:54:31.19	98.77	2.02	-46.0	-59.9	3.5	1.52e+00	0	31	104	0	60	34631
2026-01-17 21:54:32.20	98.71	2.08	-46.0	-59.9	3.5	1.52e+00	0	31	104	0	60	34501
2026-01-17 21:54:33.21	98.64	2.14	-46.0	-59.7	3.5	1.52e+00	0	31	104	0	60	34087
2026-01-17 21:54:34.22	98.58	2.19	-45.9	-59.6	3.5	1.52e+00	0	31	104	0	60	33503
2026-01-17 21:54:35.23	98.52	2.25	-45.9	-59.6	3.5	1.51e+00	0	31	104	0	60	33383
2026-01-17 21:54:36.24	98.46	2.31	-45.9	-59.5	3.5	1.52e+00	0	31	104	0	60	33165
2026-01-17 21:54:37.25	98.40	2.37	-45.9	-59.6	3.5	1.52e+00	0	31	104	0	60	33415
2026-01-17 21:54:38.26	98.33	2.43	-45.9	-59.8	3.5	1.52e+00	0	31	104	0	60	34344
2026-01-17 21:54:39.27	98.27	2.49	-45.9	-59.9	3.5	1.52e+00	0	31	104	0	60	34598
2026-01-17 21:54:40.28	98.21	2.55	-45.9	-59.9	3.5	1.52e+00	0	31	104	0	60	34895
2026-01-17 21:54:41.28	98.14	2.60	-45.9	-59.9	3.5	1.51e+00	0	31	104	0	60	34737
2026-01-17 21:54:42.30	98.08	2.66	-45.9	-59.9	3.5	1.52e+00	0	31	104	0	60	34605
2026-01-17 21:54:43.30	98.01	2.72	-45.9	-59.8	3.5	1.52e+00	0	31	104	0	60	34403
2026-01-17 21:54:44.31	97.95	2.78	-45.9	-59.8	3.5	1.51e+00	0	31	104	0	60	34181
2026-01-17 21:54:45.32	97.88	2.84	-45.9	-59.5	3.5	1.52e+00	0	31	104	0	60	33078
2026-01-17 21:54:46.34	97.82	2.90	-45.9	-59.0	3.5	1.52e+00	0	31	104	0	60	31354
2026-01-17 21:54:47.35	97.75	2.96	-45.8	-58.7	3.5	1.51e+00	0	31	104	0	60	30048
2026-01-17 21:54:48.36	97.69	3.02	-45.9	-58.9	3.5	1.51e+00	0	31	104	0	60	31059
2026-01-17 21:54:49.36	97.62	3.08	-45.9	-59.6	3.5	1.52e+00	0	31	104	0	60	33633
2026-01-17 21:54:50.37	97.56	3.14	-45.8	-58.9	3.5	1.51e+00	0	31	104	0	60	31034
2026-01-17 21:54:51.38	97.49	3.20	-45.4	-54.5	5.3	7.00e-01	123	31	104	0	60	18730
2026-01-17 21:54:52.39	97.42	3.26	-44.7	-50.3	8.4	1.37e-01	123	31	0	1048576	60	11529
2026-01-17 21:54:53.40	97.35	3.32	-43.5	-47.4	11.5	2.68e-03	123	31	0	5242880	60	8231
2026-01-17 21:54:54.41	97.29	3.38	-42.4	-45.4	13.7	2.28e-05	123	31	0	7340032	58	7306
2026-01-17 21:54:55.42	97.22	3.44	-41.3	-43.7	15.4	0.00e+00	122	31	0	10485760	56	6763
2026-01-17 21:54:56.43	97.15	3.50	-41.4	-43.7	15.0	0.00e+00	123	31	0	13631488	56	6771
2026-01-17 21:54:57.44	97.08	3.56	-44.1	-49.6	7.8	5.41e-03	123	31	0	16777216	60	10561
2026-01-17 21:54:58.45	97.01	3.62	-42.3	-45.8	14.5	7.87e-02	120	31	104	17825792	60	6874
2026-01-17 21:54:59.45	96.95	3.68	-40.7	-42.6	17.2	4.03e-04	123	31	0	19922944	58	5337
2026-01-17 21:55:00.46	96.88	3.74	-38.9	-40.3	17.9	0.00e+00	123	31	0	23068672	50	6495
2026-01-17 21:55:01.47	96.81	3.80	-45.5	-54.5	4.1	1.51e+00	0	31	104	23068672	60	18570
2026-01-17 21:55:02.48	96.74	3.86	-38.3	-40.1	18.5	0.00e+00	123	31	104	23068672	50	6341
2026-01-17 21:55:03.49	96.67	3.92	-38.2	-39.8	19.2	0.00e+00	122	31	0	25165824	50	6110
2026-01-17 21:55:04.50	96.60	3.98	-38.3	-40.0	19.1	0.00e+00	122	31	0	28311552	50	6221
2026-01-17 21:55:05.51	96.53	4.04	-37.9	-39.4	19.4	0.00e+00	123	31	0	31457280	50	5835
2026-01-17 21:55:06.52	96.46	4.11	-38.0	-39.5	19.4	0.00e+00	122	31	0	34603008	50	5919
2026-01-17 21:55:07.53	96.38	4.17	-38.2	-39.6	19.2	0.00e+00	123	31	0	37748736	50	5976
2026-01-17 21:55:08.53	96.31	4.23	-38.1	-39.5	19.4	0.00e+00	122	31	0	40894464	50	5895
2026-01-17 21:55:09.55	96.24	4.29	-38.5	-39.9	19.3	0.00e+00	122	31	0	44040192	50	6173
2026-01-17 21:55:10.56	96.17	4.35	-38.1	-39.4	19.7	0.00e+00	120	31	0	47185920	50	5811
2026-01-17 21:55:11.57	96.10	4.41	-38.1	-39.4	19.8	0.00e+00	123	31	0	50331648	50	5797
2026-01-17 21:55:12.58	96.02	4.48	-37.9	-39.1	19.9	0.00e+00	123	31	0	53477376	50	5655
2026-01-17 21:55:13.58	95.95	4.54	-38.3	-39.6	19.7	0.00e+00	123	31	0	56623104	50	5944
2026-01-17 21:55:14.59	95.88	4.60	-37.9	-39.2	20.1	0.00e+00	122	31	0	59768832	50	5676
2026-01-17 21:55:15.61	95.80	4.66	-38.4	-39.7	19.6	0.00e+00	120	31	0	62914560	50	5999
2026-01-17 21:55:16.62	95.73	4.72	-38.5	-39.8	19.3	0.00e+00	120	31	0	66060288	50	6128
2026-01-17 21:55:17.63	95.65	4.79	-38.0	-39.2	20.0	0.00e+00	123	31	0	69206016	50	5712
2026-01-17 21:55:18.64	95.58	4.85	-37.7	-38.9	20.3	0.00e+00	122	31	0	72351744	48	6164
2026-01-17 21:55:19.65	95.50	4.91	-37.8	-39.0	20.2	0.00e+00	122	31	0	75497472	48	6233
2026-01-17 21:55:20.66	95.43	4.97	-37.9	-39.1	20.1	0.00e+00	122	31	0	78643200	48	6316
2026-01-17 21:55:21.67	95.35	5.04	-38.3	-39.5	19.8	0.00e+00	122	31	0	81788928	48	6619
2026-01-17 21:55:22.68	95.28	5.10	-38.1	-39.3	20.1	0.00e+00	123	31	0	84934656	48	6459
2026-01-17 21:55:23.69	95.20	5.16	-37.9	-39.1	20.2	0.00e+00	123	31	0	88080384	48	6290
2026-01-17 21:55:24.70	95.12	5.22	-37.8	-39.1	20.2	0.00e+00	122	31	0	91226112	48	6287
2026-01-17 21:55:25.71	95.05	5.29	-37.6	-39.0	20.3	0.00e+00	121	31	0	94371840	48	6213
2026-01-17 21:55:26.72	94.97	5.35	-37.7	-39.1	20.2	0.00e+00	123	31	0	97517568	48	6302
2026-01-17 21:55:27.73	94.89	5.41	-37.5	-38.8	20.4	0.00e+00	123	31	0	100663296	48	6132
2026-01-17 21:55:28.74	94.81	5.48	-37.7	-39.1	20.3	0.00e+00	123	31	0	103809024	48	6278
2026-01-17 21:55:29.75	94.73	5.54	-37.6	-38.8	20.5	0.00e+00	123	31	0	106954752	48	6114
2026-01-17 21:55:30.76	94.65	5.61	-37.6	-38.9	20.4	0.00e+00	122	31	0	110100480	48	6163
2026-01-17 21:55:31.77	94.57	5.67	-37.6	-38.8	20.5	0.00e+00	122	31	0	113246208	48	6100
2026-01-17 21:55:32.78	94.50	5.73	-37.5	-38.7	20.6	0.00e+00	123	31	0	116391936	48	6001
2026-01-17 21:55:33.79	94.42	5.80	-37.5	-38.7	20.6	0.00e+00	122	31	0	119537664	48	6052
2026-01-17 21:55:34.80	94.33	5.86	-37.5	-38.7	20.6	0.00e+00	123	31	0	122683392	48	6010
2026-01-17 21:55:35.81	94.25	5.92	-37.4	-38.6	20.7	0.00e+00	123	31	0	125829120	48	5947
2026-01-17 21:55:36.82	94.17	5.99	-37.6	-38.9	20.4	0.00e+00	123	31	0	128974848	48	6152
2026-01-17 21:55:37.83	94.09	6.05	-37.6	-38.8	20.4	0.00e+00	122	31	0	132120576	48	6095
2026-01-17 21:55:38.84	94.01	6.12	-37.6	-38.8	20.4	0.00e+00	123	31	0	135266304	48	6070
2026-01-17 21:55:39.85	93.93	6.18	-37.6	-38.7	20.4	0.00e+00	123	31	0	138412032	48	6056
2026-01-17 21:55:40.86	93.84	6.25	-37.7	-38.9	20.5	0.00e+00	122	31	0	141557760	48	6136
2026-01-17 21:55:41.87	93.76	6.31	-37.4	-38.6	20.6	0.00e+00	123	31	0	144703488	48	5930
2026-01-17 21:55:42.88	93.68	6.38	-37.3	-38.5	20.7	0.00e+00	122	31	0	147849216	48	5892
2026-01-17 21:55:43.89	93.59	6.44	-37.4	-38.6	20.7	0.00e+00	123	31	0	150994944	48	5955
2026-01-17 21:55:44.90	93.51	6.51	-37.2	-38.5	20.9	0.00e+00	122	31	0	155189248	48	5886
2026-01-17 21:55:45.91	93.43	6.57	-37.3	-38.5	20.8	0.00e+00	122	31	0	157286400	48	5896
2026-01-17 21:55:46.92	93.34	6.64	-37.0	-38.2	21.1	0.00e+00	123	31	0	160432128	48	5679
2026-01-17 21:55:47.93	93.26	6.70	-37.0	-38.2	21.1	0.00e+00	123	31	0	163577856	48	5662
2026-01-17 21:55:48.94	93.17	6.77	-37.0	-38.1	21.0	0.00e+00	123	31	0	166723584	48	5659
2026-01-17 21:55:49.95	93.08	6.83	-37.1	-38.3	21.1	0.00e+00	123	31	0	170917888	48	5745
2026-01-17 21:55:50.96	93.00	6.90	-37.0	-38.1	21.2	0.00e+00	123	31	0	174063616	48	5635
2026-01-17 21:55:51.97	92.91	6.96	-36.9	-38.0	21.3	0.00e+00	123	31	0	177209344	48	5580
2026-01-17 21:55:52.98	92.82	7.03	-36.8	-38.0	21.4	0.00e+00	123	31	0	179306496	48	5554
2026-01-17 21:55:53.99	92.73	7.10	-37.0	-38.2	21.3	0.00e+00	122	31	0	182452224	48	5708
2026-01-17 21:55:55.00	92.65	7.16	-36.8	-37.9	21.5	0.00e+00	123	31	0	186646528	48	5520
2026-01-17 21:55:56.01	92.56	7.23	-36.6	-37.7	21.7	0.00e+00	123	31	0	189792256	46	6039
2026-01-17 21:55:57.02	92.47	7.30	-36.7	-37.8	21.6	0.00e+00	123	31	0	192937984	46	6134
2026-01-17 21:55:58.03	92.38	7.36	-36.7	-37.7	21.7	0.00e+00	122	31	0	196083712	46	6062
2026-01-17 21:55:59.04	92.29	7.43	-36.7	-37.8	21.7	0.00e+00	123	31	0	199229440	46	6134
2026-01-17 21:56:00.05	92.20	7.50	-36.8	-37.8	21.7	0.00e+00	120	31	0	202375168	46	6119
2026-01-17 21:56:01.06	92.11	7.56	-36.7	-37.7	21.8	0.00e+00	125	31	0	205520896	46	6048
2026-01-17 21:56:02.07	92.02	7.63	-36.6	-37.7	21.8	0.00e+00	122	31	0	208666624	46	6014
2026-01-17 21:56:03.08	91.93	7.70	-36.5	-37.6	21.8	0.00e+00	120	31	0	211812352	46	5982
2026-01-17 21:56:04.09	91.83	7.76	-36.4	-37.5	21.8	0.00e+00	122	31	0	214958080	46	5906
2026-01-17 21:56:05.10	91.74	7.83	-36.5	-37.6	21.8	0.00e+00	122	31	0	218103808	46	5958
2026-01-17 21:56:06.11	91.65	7.90	-36.5	-37.6	21.8	0.00e+00	122	31	0	221249536	46	5959
2026-01-17 21:56:07.12	91.55	7.96	-36.5	-37.6	21.8	0.00e+00	120	31	0	224395264	46	5948
2026-01-17 21:56:08.13	91.46	8.03	-36.2	-37.3	22.0	0.00e+00	122	31	0	227540992	46	5750
2026-01-17 21:56:09.14	91.37	8.10	-36.3	-37.4	22.0	0.00e+00	122	31	0	230686720	46	5808
2026-01-17 21:56:10.15	91.27	8.17	-36.1	-37.2	22.2	0.00e+00	123	31	0	233832448	46	5662
2026-01-17 21:56:11.16	91.18	8.24	-36.1	-37.2	22.2	0.00e+00	122	31	0	236978176	46	5679
2026-01-17 21:56:12.17	91.08	8.30	-36.1	-37.2	22.2	0.00e+00	122	31	0	240123904	46	5695
2026-01-17 21:56:13.18	90.99	8.37	-36.1	-37.2	22.2	0.00e+00	120	31	0	243269632	46	5689
2026-01-17 21:56:14.19	90.89	8.44	-36.1	-37.2	22.2	0.00e+00	123	31	0	246415360	46	5687
2026-01-17 21:56:15.20	90.79	8.51	-36.1	-37.2	22.2	0.00e+00	120	31	0	249561088	46	5722
2026-01-17 21:56:16.21	90.69	8.58	-36.1	-37.2	22.3	0.00e+00	123	31	0	252706816	46	5678
2026-01-17 21:56:17.22	90.60	8.64	-36.0	-37.1	22.4	0.00e+00	121	31	0	255852544	46	5606
2026-01-17 21:56:18.23	90.50	8.71	-36.0	-37.0	22.5	0.00e+00	120	31	0	258998272	46	5556
2026-01-17 21:56:19.24	90.40	8.78	-36.1	-37.1	22.3	0.00e+00	122	31	0	262144000	46	5636
2026-01-17 21:56:20.25	90.30	8.85	-36.1	-37.1	22.3	0.00e+00	122	31	0	265289728	46	5646
2026-01-17 21:56:21.26	90.20	8.92	-35.9	-37.0	22.5	0.00e+00	123	31	0	268435456	46	5542
2026-01-17 21:56:22.27	90.10	8.99	-36.1	-37.1	22.3	0.00e+00	123	31	0	271581184	46	5658
2026-01-17 21:56:23.28	90.00	9.06	-36.0	-37.0	22.4	0.00e+00	120	31	0	274726912	46	5587
2026-01-17 21:56:24.29	89.90	9.13	-35.8	-36.8	22.6	0.00e+00	123	31	0	277872640	46	5446
2026-01-17 21:56:25.30	89.80	9.20	-35.6	-36.6	22.7	0.00e+00	120	31	0	281018368	44	5960
2026-01-17 21:56:26.31	89.69	9.26	-35.6	-36.6	22.8	0.00e+00	123	31	0	284164096	44	5928
2026-01-17 21:56:27.32	89.59	9.33	-35.7	-36.7	22.7	0.00e+00	123	31	0	287309824	44	6007
2026-01-17 21:56:28.34	89.49	9.40	-35.5	-36.5	22.8	0.00e+00	122	31	0	290455552	44	5921
2026-01-17 21:56:29.35	89.38	9.47	-35.4	-36.4	23.0	0.00e+00	121	31	0	293601280	44	5824
2026-01-17 21:56:30.36	89.28	9.54	-35.5	-36.6	22.8	0.00e+00	123	31	0	296747008	44	5935
2026-01-17 21:56:31.37	89.17	9.61	-35.3	-36.3	23.0	0.00e+00	123	31	0	299892736	44	5759
2026-01-17 21:56:32.38	89.07	9.68	-35.3	-36.3	23.0	0.00e+00	123	31	0	303038464	44	5784
2026-01-17 21:56:33.39	88.96	9.75	-35.3	-36.3	23.0	0.00e+00	120	31	0	306184192	44	5762
2026-01-17 21:56:34.40	88.86	9.82	-35.3	-36.3	22.9	0.00e+00	122	31	0	309329920	44	5761
2026-01-17 21:56:35.41	88.75	9.89	-35.5	-36.5	22.8	0.00e+00	123	31	0	312475648	44	5891
2026-01-17 21:56:36.42	88.64	9.96	-35.3	-36.3	23.0	0.00e+00	120	31	0	315621376	44	5753
2026-01-17 21:56:37.44	88.53	10.04	-35.4	-36.4	22.9	0.00e+00	123	31	0	318767104	44	5799
2026-01-17 21:56:38.45	88.42	10.11	-35.4	-36.4	22.9	0.00e+00	123	31	0	321912832	44	5842
2026-01-17 21:56:39.45	88.32	10.18	-35.4	-36.4	22.8	0.00e+00	123	31	0	325058560	44	5856
2026-01-17 21:56:40.46	88.21	10.25	-35.3	-36.3	23.0	0.00e+00	122	31	0	328204288	44	5738
2026-01-17 21:56:41.47	88.10	10.32	-35.4	-36.4	23.0	0.00e+00	122	31	0	331350016	44	5834
2026-01-17 21:56:42.48	87.99	10.39	-35.3	-36.3	22.9	0.00e+00	123	31	0	334495744	44	5773
2026-01-17 21:56:43.49	87.87	10.46	-35.3	-36.3	23.0	0.00e+00	122	31	0	337641472	44	5774
2026-01-17 21:56:44.50	87.76	10.53	-35.4	-36.4	23.1	0.00e+00	122	31	0	340787200	44	5801
2026-01-17 21:56:45.51	87.65	10.60	-35.1	-36.1	23.2	0.00e+00	123	31	0	343932928	44	5632
2026-01-17 21:56:46.52	87.54	10.67	-35.2	-36.2	23.2	0.00e+00	123	31	0	347078656	44	5677
2026-01-17 21:56:47.54	87.42	10.75	-35.2	-36.1	23.2	0.00e+00	123	31	0	350224384	44	5656
2026-01-17 21:56:48.55	87.31	10.82	-35.2	-36.2	23.1	0.00e+00	122	31	0	353370112	44	5699
2026-01-17 21:56:49.56	87.19	10.89	-35.2	-36.2	23.1	0.00e+00	122	31	0	356515840	44	5693
2026-01-17 21:56:50.57	87.08	10.96	-35.3	-36.3	23.0	0.00e+00	123	31	0	359661568	44	5767
2026-01-17 21:56:51.58	86.96	11.03	-35.4	-36.4	23.0	0.00e+00	122	31	0	362807296	44	5818
2026-01-17 21:56:52.59	86.85	11.11	-35.2	-36.1	23.2	0.00e+00	123	31	0	365953024	44	5659
2026-01-17 21:56:53.60	86.73	11.18	-35.2	-36.2	23.1	0.00e+00	122	31	0	369098752	44	5660
2026-01-17 21:56:54.61	86.61	11.25	-35.2	-36.2	23.1	0.00e+00	122	31	0	372244480	44	5682
2026-01-17 21:56:55.62	86.49	11.32	-35.2	-36.2	23.0	0.00e+00	123	31	0	375390208	44	5713
2026-01-17 21:56:56.63	86.38	11.39	-35.1	-36.1	23.2	0.00e+00	123	31	0	378535936	44	5606
2026-01-17 21:56:57.64	86.26	11.47	-35.1	-36.1	23.2	0.00e+00	123	31	0	381681664	44	5599
2026-01-17 21:56:58.65	86.14	11.54	-35.2	-36.1	23.2	0.00e+00	120	31	0	384827392	44	5643
2026-01-17 21:56:59.66	86.02	11.61	-34.9	-35.9	23.2	0.00e+00	123	31	0	387973120	44	5470
2026-01-17 21:57:00.67	85.90	11.68	-35.0	-35.9	23.2	0.00e+00	122	31	0	391118848	44	5510
2026-01-17 21:57:01.68	85.77	11.76	-34.9	-35.9	23.1	0.00e+00	123	31	0	394264576	44	5493
2026-01-17 21:57:02.69	85.65	11.83	-35.0	-36.0	23.2	0.00e+00	122	31	0	397410304	44	5538
2026-01-17 21:57:03.70	85.53	11.90	-34.9	-35.9	23.2	0.00e+00	122	31	0	400556032	44	5490
2026-01-17 21:57:04.71	85.40	11.98	-34.9	-35.9	23.3	0.00e+00	122	31	0	403701760	44	5470
2026-01-17 21:57:05.71	85.28	12.05	-35.0	-35.9	23.3	0.00e+00	123	31	0	406847488	44	5502
2026-01-17 21:57:06.72	85.16	12.12	-35.0	-35.9	23.2	0.00e+00	120	31	0	409993216	44	5518
2026-01-17 21:57:07.74	85.03	12.20	-34.9	-35.9	23.3	0.00e+00	123	31	0	413138944	44	5497
2026-01-17 21:57:08.75	84.90	12.27	-35.0	-36.0	23.3	0.00e+00	122	31	0	416284672	44	5534
2026-01-17 21:57:09.75	84.78	12.34	-35.1	-36.1	23.1	0.00e+00	120	31	0	419430400	44	5612
2026-01-17 21:57:10.77	84.65	12.42	-35.1	-36.1	23.3	0.00e+00	121	31	0	422576128	44	5600
2026-01-17 21:57:11.78	84.52	12.49	-35.1	-36.1	23.3	0.00e+00	120	31	0	425721856	44	5632
2026-01-17 21:57:12.78	84.39	12.56	-35.2	-36.2	23.2	0.00e+00	120	31	0	428867584	44	5674
2026-01-17 21:57:13.79	84.26	12.64	-35.0	-36.0	23.4	0.00e+00	121	31	0	432013312	44	5547
2026-01-17 21:57:14.80	84.13	12.71	-34.8	-35.7	23.7	0.00e+00	123	31	0	435159040	44	5375
2026-01-17 21:57:15.81	84.00	12.78	-34.8	-35.8	23.6	0.00e+00	120	31	0	438304768	42	6097
2026-01-17 21:57:16.82	83.87	12.86	-35.0	-35.9	23.5	0.00e+00	123	31	0	441450496	42	6188
2026-01-17 21:57:17.83	83.74	12.93	-34.8	-35.8	23.7	0.00e+00	122	31	0	444596224	42	6085
2026-01-17 21:57:18.84	83.61	13.01	-34.8	-35.8	23.6	0.00e+00	123	31	0	447741952	42	6074
2026-01-17 21:57:19.84	83.48	13.08	-34.8	-35.8	23.6	0.00e+00	120	31	0	450887680	42	6092
2026-01-17 21:57:20.86	83.34	13.16	-34.7	-35.6	23.6	0.00e+00	123	31	0	454033408	42	5966
2026-01-17 21:57:21.87	83.21	13.23	-34.8	-35.8	23.5	0.00e+00	120	31	0	457179136	42	6077
2026-01-17 21:57:22.88	83.07	13.30	-34.8	-35.7	23.6	0.00e+00	122	31	0	460324864	42	6048
2026-01-17 21:57:23.89	82.93	13.38	-34.9	-35.9	23.5	0.00e+00	122	31	0	463470592	42	6136
2026-01-17 21:57:24.90	82.80	13.45	-34.9	-35.8	23.5	0.00e+00	122	31	0	467664896	42	6099
2026-01-17 21:57:25.91	82.66	13.53	-34.9	-35.8	23.5	0.00e+00	123	31	0	470810624	42	6130
2026-01-17 21:57:26.92	82.52	13.60	-35.0	-35.9	23.5	0.00e+00	121	31	0	472907776	42	6171
2026-01-17 21:57:27.93	82.38	13.68	-34.9	-35.8	23.6	0.00e+00	123	31	0	476053504	42	6124
2026-01-17 21:57:28.93	82.24	13.75	-34.9	-35.9	23.5	0.00e+00	123	31	0	479199232	42	6147
2026-01-17 21:57:29.94	82.10	13.83	-34.7	-35.7	23.8	0.00e+00	122	31	0	483393536	42	6002
2026-01-17 21:57:30.95	81.96	13.90	-34.9	-35.8	23.6	0.00e+00	121	31	0	486539264	42	6131
2026-01-17 21:57:31.96	81.82	13.98	-34.8	-35.7	23.7	0.00e+00	123	31	0	489684992	42	6041
2026-01-17 21:57:32.97	81.68	14.05	-34.7	-35.7	23.7	0.00e+00	122	31	0	492830720	42	6003
2026-01-17 21:57:33.98	81.53	14.13	-34.8	-35.8	23.6	0.00e+00	122	31	0	495976448	42	6080
2026-01-17 21:57:34.99	81.39	14.20	-34.9	-35.9	23.5	0.00e+00	123	31	0	498073600	42	6138
2026-01-17 21:57:36.00	81.25	14.28	-35.1	-36.1	23.3	0.00e+00	122	31	0	502267904	42	6288
2026-01-17 21:57:37.01	81.10	14.35	-35.1	-36.1	23.4	0.00e+00	122	31	0	505413632	42	6320
2026-01-17 21:57:38.02	80.95	14.43	-35.3	-36.3	23.3	0.00e+00	123	31	0	508559360	42	6426
2026-01-17 21:57:39.03	80.81	14.50	-35.2	-36.2	23.4	0.00e+00	122	31	0	511705088	42	6375
2026-01-17 21:57:40.04	80.66	14.58	-35.4	-36.4	23.2	0.00e+00	123	31	0	514850816	42	6520
2026-01-17 21:57:41.05	80.51	14.65	-35.2	-36.2	23.4	0.00e+00	123	31	0	517996544	42	6367
2026-01-17 21:57:42.06	80.36	14.73	-35.2	-36.2	23.4	0.00e+00	123	31	0	521142272	42	6389
2026-01-17 21:57:43.07	80.21	14.80	-35.1	-36.1	23.5	0.00e+00	123	31	0	524288000	42	6295
2026-01-17 21:57:44.08	80.06	14.88	-35.2	-36.1	23.4	0.00e+00	123	31	0	527433728	42	6325
2026-01-17 21:57:45.09	79.91	14.96	-35.1	-36.0	23.5	0.00e+00	123	31	0	530579456	42	6269
2026-01-17 21:57:46.10	79.76	15.03	-35.1	-36.0	23.5	0.00e+00	122	31	0	533725184	42	6238
2026-01-17 21:57:47.11	79.60	15.11	-35.1	-36.1	23.4	0.00e+00	125	31	0	536870912	42	6302
2026-01-17 21:57:48.12	79.45	15.18	-35.1	-36.1	23.4	0.00e+00	123	31	0	540016640	42	6283
2026-01-17 21:57:49.13	79.29	15.26	-35.2	-36.2	23.3	0.00e+00	123	31	0	543162368	42	6381
2026-01-17 21:57:50.14	79.14	15.33	-35.3	-36.2	23.3	0.00e+00	122	31	0	546308096	42	6409
2026-01-17 21:57:51.15	78.98	15.41	-35.3	-36.3	23.3	0.00e+00	120	31	0	549453824	42	6449
2026-01-17 21:57:52.16	78.82	15.48	-35.4	-36.4	23.2	0.00e+00	122	31	0	552599552	42	6537
2026-01-17 21:57:53.18	78.66	15.56	-35.3	-36.3	23.4	0.00e+00	122	31	0	555745280	42	6427
2026-01-17 21:57:54.19	78.51	15.64	-35.3	-36.2	23.4	0.00e+00	123	31	0	558891008	42	6390
2026-01-17 21:57:55.20	78.35	15.71	-35.3	-36.3	23.3	0.00e+00	121	31	0	562036736	42	6450
2026-01-17 21:57:56.21	78.19	15.79	-35.2	-36.1	23.5	0.00e+00	122	31	0	565182464	42	6335
2026-01-17 21:57:57.22	78.02	15.86	-35.1	-36.1	23.5	0.00e+00	123	31	0	568328192	42	6287
2026-01-17 21:57:58.23	77.86	15.94	-35.3	-36.2	23.4	0.00e+00	123	31	0	571473920	42	6394
2026-01-17 21:57:59.24	77.70	16.02	-35.3	-36.2	23.3	0.00e+00	123	31	0	574619648	42	6413
2026-01-17 21:58:00.25	77.54	16.09	-35.4	-36.4	23.2	0.00e+00	122	31	0	577765376	42	6522
2026-01-17 21:58:01.26	77.37	16.17	-35.3	-36.3	23.3	0.00e+00	120	31	0	580911104	42	6450
2026-01-17 21:58:02.27	77.21	16.24	-35.4	-36.4	23.2	0.00e+00	123	31	0	584056832	42	6530
2026-01-17 21:58:03.28	77.04	16.32	-35.3	-36.3	23.4	0.00e+00	121	31	0	587202560	42	6454
2026-01-17 21:58:04.29	76.87	16.39	-35.4	-36.4	23.3	0.00e+00	123	31	0	590348288	42	6503
2026-01-17 21:58:05.30	76.70	16.47	-35.1	-36.1	23.6	0.00e+00	122	31	0	593494016	42	6299
2026-01-17 21:58:06.31	76.53	16.55	-35.0	-36.0	23.6	0.00e+00	123	31	0	596639744	42	6242
2026-01-17 21:58:07.32	76.37	16.62	-35.1	-36.0	23.6	0.00e+00	123	31	0	599785472	42	6236
2026-01-17 21:58:08.33	76.19	16.70	-35.1	-36.1	23.6	0.00e+00	121	31	0	602931200	42	6317
2026-01-17 21:58:09.34	76.02	16.77	-35.0	-36.0	23.6	0.00e+00	123	31	0	606076928	42	6225
2026-01-17 21:58:10.35	75.85	16.85	-35.0	-35.9	23.7	0.00e+00	120	31	0	609222656	42	6180
2026-01-17 21:58:11.36	75.68	16.92	-35.0	-36.0	23.6	0.00e+00	122	31	0	612368384	42	6210
2026-01-17 21:58:12.37	75.50	17.00	-34.9	-35.9	23.6	0.00e+00	127	31	0	615514112	42	6156
2026-01-17 21:58:13.38	75.33	17.07	-35.0	-35.9	23.7	0.00e+00	123	31	0	618659840	42	6188
2026-01-17 21:58:14.39	75.15	17.15	-34.8	-35.8	23.6	0.00e+00	120	31	0	621805568	42	6079
2026-01-17 21:58:15.40	74.98	17.22	-35.0	-35.9	23.7	0.00e+00	120	31	0	624951296	42	6168
2026-01-17 21:58:16.41	74.80	17.30	-34.8	-35.7	23.9	0.00e+00	123	31	0	628097024	42	6035
2026-01-17 21:58:17.42	74.62	17.38	-34.7	-35.6	24.0	0.00e+00	120	31	0	631242752	42	5939
2026-01-17 21:58:18.43	74.44	17.45	-34.6	-35.5	24.0	0.00e+00	123	31	0	634388480	42	5918
2026-01-17 21:58:19.44	74.26	17.53	-34.6	-35.6	23.9	0.00e+00	122	31	0	637534208	42	5936
2026-01-17 21:58:20.45	74.08	17.60	-34.7	-35.6	23.9	0.00e+00	123	31	0	640679936	42	5947
2026-01-17 21:58:21.47	73.89	17.68	-34.7	-35.6	23.8	0.00e+00	123	31	0	643825664	42	5971
2026-01-17 21:58:22.48	73.71	17.75	-34.9	-35.8	23.7	0.00e+00	120	31	0	646971392	42	6123
2026-01-17 21:58:23.49	73.53	17.83	-34.9	-35.8	23.8	0.00e+00	123	31	0	650117120	42	6114
2026-01-17 21:58:24.50	73.34	17.90	-35.0	-36.0	23.7	0.00e+00	120	31	0	653262848	42	6210
2026-01-17 21:58:25.51	73.16	17.98	-34.7	-35.7	24.0	0.00e+00	123	31	0	656408576	42	5995
2026-01-17 21:58:26.52	72.97	18.05	-34.7	-35.7	24.0	0.00e+00	120	31	0	659554304	42	6003
2026-01-17 21:58:27.53	72.78	18.12	-34.7	-35.6	23.9	0.00e+00	123	31	0	662700032	42	5940
2026-01-17 21:58:28.54	72.59	18.20	-34.4	-35.4	24.1	0.00e+00	120	31	0	665845760	42	5799
2026-01-17 21:58:29.55	72.40	18.27	-34.4	-35.3	24.1	0.00e+00	122	31	0	668991488	42	5752
2026-01-17 21:58:30.56	72.21	18.35	-34.5	-35.4	24.0	0.00e+00	123	31	0	672137216	42	5855
2026-01-17 21:58:31.57	72.02	18.42	-34.4	-35.3	24.1	0.00e+00	123	31	0	675282944	42	5753
2026-01-17 21:58:32.58	71.83	18.50	-34.2	-35.2	24.3	0.00e+00	122	31	0	678428672	42	5660
2026-01-17 21:58:33.59	71.63	18.57	-34.4	-35.3	24.1	0.00e+00	122	31	0	681574400	42	5760
2026-01-17 21:58:34.60	71.44	18.64	-34.4	-35.4	24.1	0.00e+00	123	31	0	684720128	42	5797
2026-01-17 21:58:35.61	71.25	18.72	-34.6	-35.5	24.0	0.00e+00	122	31	0	687865856	42	5894
2026-01-17 21:58:36.62	71.05	18.79	-34.5	-35.5	24.0	0.00e+00	123	31	0	691011584	42	5867
2026-01-17 21:58:37.63	70.85	18.86	-34.5	-35.4	24.1	0.00e+00	123	31	0	694157312	42	5823
2026-01-17 21:58:38.64	70.65	18.94	-34.5	-35.5	24.0	0.00e+00	123	31	0	697303040	42	5869
2026-01-17 21:58:39.65	70.45	19.01	-34.5	-35.5	24.0	0.00e+00	122	31	0	700448768	42	5862
2026-01-17 21:58:40.66	70.25	19.08	-34.6	-35.5	24.0	0.00e+00	122	31	0	703594496	42	5914
2026-01-17 21:58:41.67	70.05	19.16	-34.6	-35.5	23.9	0.00e+00	122	31	0	706740224	42	5904
2026-01-17 21:58:42.68	69.85	19.23	-34.6	-35.6	23.9	0.00e+00	123	31	0	709885952	42	5928
2026-01-17 21:58:43.69	69.65	19.30	-34.4	-35.4	23.9	0.00e+00	123	31	0	713031680	42	5807
2026-01-17 21:58:44.70	69.44	19.37	-34.5	-35.4	24.0	0.00e+00	123	31	0	716177408	42	5855
2026-01-17 21:58:45.72	69.24	19.44	-34.5	-35.5	24.0	0.00e+00	123	31	0	719323136	42	5869
2026-01-17 21:58:46.73	69.03	19.52	-34.5	-35.4	24.1	0.00e+00	123	31	0	722468864	42	5829
2026-01-17 21:58:47.74	68.82	19.59	-34.6	-35.5	24.0	0.00e+00	122	31	0	725614592	42	5900
2026-01-17 21:58:48.75	68.62	19.66	-34.7	-35.6	23.9	0.00e+00	120	31	0	728760320	42	5967
2026-01-17 21:58:49.76	68.41	19.73	-34.7	-35.6	23.9	0.00e+00	122	31	0	731906048	42	5957
2026-01-17 21:58:50.77	68.20	19.80	-34.8	-35.8	23.9	0.00e+00	123	31	0	735051776	42	6077
2026-01-17 21:58:51.78	67.99	19.87	-34.6	-35.5	24.0	0.00e+00	123	31	0	738197504	42	5913
2026-01-17 21:58:52.79	67.77	19.94	-34.5	-35.4	24.1	0.00e+00	123	31	0	741343232	42	5828
2026-01-17 21:58:53.80	67.56	20.01	-34.5	-35.4	24.2	0.00e+00	120	31	0	744488960	42	5837
2026-01-17 21:58:54.81	67.35	20.08	-34.4	-35.3	24.2	0.00e+00	123	31	0	747634688	42	5759
2026-01-17 21:58:55.82	67.13	20.15	-34.5	-35.4	24.2	0.00e+00	123	31	0	750780416	42	5803
2026-01-17 21:58:56.83	66.92	20.22	-34.3	-35.2	24.3	0.00e+00	122	31	0	753926144	42	5674
2026-01-17 21:58:57.84	66.70	20.29	-34.2	-35.0	24.4	0.00e+00	122	31	0	758120448	42	5587
2026-01-17 21:58:58.85	66.48	20.36	-34.3	-35.2	24.3	0.00e+00	123	31	0	761266176	42	5672
2026-01-17 21:58:59.87	66.26	20.43	-34.2	-35.1	24.3	0.00e+00	123	31	0	764411904	42	5643
2026-01-17 21:59:00.87	66.04	20.50	-34.2	-35.1	24.3	0.00e+00	122	31	0	766509056	42	5656
2026-01-17 21:59:01.89	65.82	20.57	-34.3	-35.2	24.3	0.00e+00	123	31	0	769654784	42	5688
2026-01-17 21:59:02.90	65.60	20.64	-34.3	-35.2	24.3	0.00e+00	122	31	0	773849088	42	5683
2026-01-17 21:59:03.91	65.38	20.71	-34.3	-35.2	24.3	0.00e+00	120	31	0	776994816	42	5703
2026-01-17 21:59:04.92	65.15	20.77	-34.1	-35.0	24.4	0.00e+00	123	31	0	780140544	42	5571
2026-01-17 21:59:05.93	64.93	20.84	-34.1	-35.0	24.4	0.00e+00	120	31	0	783286272	42	5569
2026-01-17 21:59:06.94	64.70	20.91	-34.1	-35.0	24.4	0.00e+00	123	31	0	786432000	42	5584
2026-01-17 21:59:07.95	64.48	20.98	-34.2	-35.1	24.4	0.00e+00	123	31	0	789577728	42	5606
2026-01-17 21:59:08.96	64.25	21.04	-34.2	-35.1	24.4	0.00e+00	123	31	0	792723456	42	5620
2026-01-17 21:59:09.97	64.02	21.11	-34.3	-35.2	24.3	0.00e+00	123	31	0	795869184	42	5676
2026-01-17 21:59:10.98	63.79	21.17	-34.2	-35.1	24.4	0.00e+00	120	32	0	799014912	42	5652
2026-01-17 21:59:11.99	63.56	21.24	-34.1	-35.0	24.5	0.00e+00	122	31	0	802160640	42	5546
2026-01-17 21:59:13.00	63.33	21.31	-34.2	-35.1	24.4	0.00e+00	122	31	0	805306368	42	5619
2026-01-17 21:59:14.01	63.10	21.37	-34.3	-35.2	24.3	0.00e+00	123	31	0	808452096	42	5691
2026-01-17 21:59:15.02	62.86	21.44	-34.3	-35.2	24.3	0.00e+00	123	31	0	811597824	42	5720
2026-01-17 21:59:16.03	62.63	21.50	-34.2	-35.2	24.4	0.00e+00	122	31	0	814743552	42	5661
2026-01-17 21:59:17.04	62.39	21.56	-34.1	-35.0	24.5	0.00e+00	122	31	0	817889280	42	5576
2026-01-17 21:59:18.05	62.16	21.63	-34.3	-35.2	24.2	0.00e+00	121	31	0	821035008	42	5702
2026-01-17 21:59:19.05	61.92	21.69	-34.3	-35.1	24.4	0.00e+00	122	31	0	824180736	42	5655
2026-01-17 21:59:20.06	61.68	21.75	-33.9	-34.8	24.5	0.00e+00	123	31	0	827326464	42	5452
2026-01-17 21:59:21.07	61.44	21.81	-34.0	-34.9	24.5	0.00e+00	123	31	0	830472192	42	5527
2026-01-17 21:59:22.09	61.20	21.88	-34.0	-34.9	24.5	0.00e+00	122	32	0	833617920	42	5509
2026-01-17 21:59:23.10	60.96	21.94	-33.9	-34.7	24.6	0.00e+00	123	31	0	836763648	42	5404
2026-01-17 21:59:24.11	60.72	22.00	-33.8	-34.7	24.6	0.00e+00	120	31	0	839909376	42	5371
2026-01-17 21:59:25.12	60.47	22.06	-33.8	-34.7	24.6	0.00e+00	120	31	0	843055104	42	5396
2026-01-17 21:59:26.12	60.23	22.12	-34.0	-34.9	24.5	0.00e+00	123	31	0	846200832	42	5473
2026-01-17 21:59:27.14	59.98	22.18	-34.0	-34.9	24.5	0.00e+00	122	32	0	849346560	42	5485
2026-01-17 21:59:28.15	59.74	22.24	-34.0	-34.9	24.5	0.00e+00	120	31	0	852492288	42	5502
2026-01-17 21:59:29.16	59.49	22.30	-34.0	-34.9	24.5	0.00e+00	121	31	0	855638016	42	5476
2026-01-17 21:59:30.17	59.24	22.36	-34.1	-35.0	24.4	0.00e+00	123	31	0	858783744	42	5543
2026-01-17 21:59:31.18	58.99	22.42	-34.1	-35.0	24.3	0.00e+00	121	31	0	861929472	42	5584
2026-01-17 21:59:32.19	58.74	22.48	-34.3	-35.2	24.2	0.00e+00	123	31	0	865075200	42	5673
2026-01-17 21:59:33.20	58.49	22.53	-34.3	-35.2	24.3	0.00e+00	120	31	0	868220928	42	5709
2026-01-17 21:59:34.21	58.24	22.59	-34.2	-35.1	24.4	0.00e+00	123	31	0	871366656	42	5646
2026-01-17 21:59:35.22	57.99	22.65	-34.0	-34.9	24.5	0.00e+00	122	31	0	874512384	42	5510
2026-01-17 21:59:36.23	57.73	22.70	-34.2	-35.1	24.4	0.00e+00	123	31	0	877658112	42	5603
2026-01-17 21:59:37.24	57.48	22.76	-34.0	-34.9	24.5	0.00e+00	123	31	0	880803840	42	5518
2026-01-17 21:59:38.25	57.22	22.81	-34.1	-35.0	24.5	0.00e+00	120	31	0	883949568	42	5564
2026-01-17 21:59:39.26	56.97	22.87	-34.2	-35.1	24.4	0.00e+00	123	31	0	887095296	42	5650
2026-01-17 21:59:40.27	56.71	22.92	-34.4	-35.3	24.3	0.00e+00	123	31	0	890241024	42	5776
2026-01-17 21:59:41.28	56.45	22.97	-34.1	-35.0	24.5	0.00e+00	123	31	0	893386752	42	5554
2026-01-17 21:59:42.29	56.19	23.03	-34.3	-35.2	24.4	0.00e+00	123	31	0	896532480	42	5725
2026-01-17 21:59:43.30	55.93	23.08	-33.9	-34.7	24.7	0.00e+00	122	31	0	899678208	42	5397
2026-01-17 21:59:44.31	55.67	23.13	-33.9	-34.8	24.6	0.00e+00	120	31	0	902823936	42	5435
2026-01-17 21:59:45.32	55.41	23.18	-33.8	-34.7	24.6	0.00e+00	120	31	0	905969664	42	5386
2026-01-17 21:59:46.33	55.15	23.23	-33.9	-34.8	24.6	0.00e+00	122	31	0	909115392	42	5429
2026-01-17 21:59:47.34	54.88	23.28	-33.9	-34.8	24.6	0.00e+00	121	32	0	912261120	42	5431
2026-01-17 21:59:48.35	54.62	23.33	-34.0	-34.9	24.5	0.00e+00	122	31	0	915406848	42	5501
2026-01-17 21:59:49.36	54.36	23.38	-34.1	-35.0	24.5	0.00e+00	123	31	0	918552576	42	5546
2026-01-17 21:59:50.37	54.09	23.43	-34.0	-34.9	24.5	0.00e+00	123	32	0	921698304	42	5500
2026-01-17 21:59:51.38	53.82	23.48	-34.1	-35.0	24.5	0.00e+00	122	32	0	924844032	42	5582
2026-01-17 21:59:52.39	53.56	23.53	-34.2	-35.1	24.3	0.00e+00	123	31	0	927989760	42	5628
2026-01-17 21:59:53.40	53.29	23.57	-34.0	-34.9	24.5	0.00e+00	122	31	0	931135488	42	5529
2026-01-17 21:59:54.41	53.02	23.62	-33.8	-34.7	24.6	0.00e+00	122	31	0	934281216	42	5394
2026-01-17 21:59:55.42	52.75	23.66	-34.0	-34.9	24.5	0.00e+00	120	31	0	937426944	42	5497
2026-01-17 21:59:56.43	52.48	23.71	-34.0	-34.9	24.6	0.00e+00	122	31	0	940572672	42	5506
2026-01-17 21:59:57.44	52.21	23.75	-34.0	-35.0	24.5	0.00e+00	122	31	0	943718400	42	5531
2026-01-17 21:59:58.45	51.93	23.80	-34.1	-35.0	24.5	0.00e+00	122	31	0	946864128	42	5580
2026-01-17 21:59:59.46	51.66	23.84	-34.1	-35.0	24.5	0.00e+00	120	31	0	950009856	42	5549
2026-01-17 22:00:00.47	51.39	23.88	-34.2	-35.1	24.4	0.00e+00	122	31	0	953155584	42	5606
2026-01-17 22:00:01.48	51.11	23.93	-34.1	-35.0	24.4	0.00e+00	123	31	0	956301312	42	5587
2026-01-17 22:00:02.49	50.84	23.97	-34.3	-35.2	24.4	0.00e+00	121	31	0	959447040	42	5660
2026-01-17 22:00:03.50	50.56	24.01	-34.0	-34.9	24.5	0.00e+00	123	31	0	962592768	42	5521
2026-01-17 22:00:04.51	50.28	24.05	-34.1	-34.9	24.5	0.00e+00	123	31	0	965738496	42	5530
2026-01-17 22:00:05.53	50.00	24.09	-33.9	-34.8	24.6	0.00e+00	123	32	0	968884224	42	5462
2026-01-17 22:00:06.53	49.73	24.12	-33.8	-34.7	24.7	0.00e+00	123	31	0	972029952	42	5373
2026-01-17 22:00:07.54	49.45	24.16	-33.8	-34.6	24.7	0.00e+00	120	32	0	975175680	40	5984
2026-01-17 22:00:08.55	49.17	24.20	-33.8	-34.7	24.5	0.00e+00	123	31	0	978321408	40	5995
2026-01-17 22:00:09.57	48.89	24.24	-33.9	-34.8	24.4	0.00e+00	122	31	0	981467136	40	6112
2026-01-17 22:00:10.57	48.61	24.27	-33.9	-34.8	24.5	0.00e+00	122	31	0	984612864	40	6125
2026-01-17 22:00:11.59	48.33	24.31	-34.0	-34.9	24.4	0.00e+00	123	31	0	987758592	40	6141
2026-01-17 22:00:12.60	48.04	24.34	-34.2	-35.1	24.3	0.00e+00	122	31	0	990904320	40	6343
2026-01-17 22:00:13.61	47.76	24.38	-34.2	-35.1	24.3	0.00e+00	123	31	0	994050048	40	6350
2026-01-17 22:00:14.62	47.48	24.41	-34.0	-34.9	24.5	0.00e+00	123	31	0	997195776	40	6184
2026-01-17 22:00:15.63	47.20	24.44	-34.1	-35.0	24.5	0.00e+00	122	31	0	1000341504	40	6236
2026-01-17 22:00:16.64	46.91	24.47	-33.9	-34.8	24.7	0.00e+00	123	31	0	1003487232	40	6107
2026-01-17 22:00:17.65	46.63	24.50	-34.0	-34.9	24.7	0.00e+00	122	32	0	1006632960	40	6155
2026-01-17 22:00:18.65	46.34	24.53	-33.9	-34.7	24.6	0.00e+00	123	32	0	1009778688	40	6055
2026-01-17 22:00:19.67	46.05	24.56	-33.8	-34.7	24.7	0.00e+00	122	32	0	1012924416	40	6035
2026-01-17 22:00:20.68	45.77	24.59	-33.9	-34.7	24.7	0.00e+00	123	31	0	1016070144	40	6062
2026-01-17 22:00:21.69	45.48	24.62	-33.9	-34.8	24.7	0.00e+00	122	31	0	1019215872	40	6101
2026-01-17 22:00:22.70	45.19	24.64	-33.9	-34.9	24.6	0.00e+00	123	31	0	1022361600	40	6136
2026-01-17 22:00:23.71	44.91	24.67	-33.7	-34.6	24.8	0.00e+00	122	32	0	1025507328	40	5944
2026-01-17 22:00:24.72	44.62	24.70	-33.8	-34.7	24.7	0.00e+00	122	31	0	1028653056	40	6012
2026-01-17 22:00:25.73	44.33	24.72	-33.6	-34.5	24.8	0.00e+00	123	31	0	1031798784	40	5915
2026-01-17 22:00:26.74	44.04	24.75	-33.6	-34.5	24.8	0.00e+00	120	32	0	1034944512	40	5874
2026-01-17 22:00:27.75	43.75	24.77	-33.7	-34.5	24.8	0.00e+00	123	32	0	1038090240	40	5917
2026-01-17 22:00:28.76	43.46	24.79	-33.6	-34.4	24.9	0.00e+00	122	31	0	1041235968	40	5841
2026-01-17 22:00:29.77	43.17	24.81	-33.4	-34.3	25.1	0.00e+00	123	32	0	1044381696	40	5747
2026-01-17 22:00:30.78	42.88	24.83	-33.4	-34.3	25.0	0.00e+00	122	32	0	1047527424	40	5748
2026-01-17 22:00:31.79	42.59	24.85	-33.4	-34.3	25.0	0.00e+00	120	31	0	1051721728	40	5755
2026-01-17 22:00:32.80	42.29	24.87	-33.5	-34.4	25.0	0.00e+00	123	32	0	1054867456	40	5810
2026-01-17 22:00:33.81	42.00	24.89	-33.6	-34.5	24.9	0.00e+00	123	31	0	1058013184	40	5909
2026-01-17 22:00:34.82	41.71	24.91	-33.7	-34.6	24.9	0.00e+00	123	32	0	1060110336	40	5929
2026-01-17 22:00:35.83	41.42	24.93	-33.7	-34.5	24.8	0.00e+00	123	32	0	1063256064	40	5925
2026-01-17 22:00:36.84	41.12	24.94	-33.7	-34.6	24.8	0.00e+00	123	32	0	1067450368	40	5957
2026-01-17 22:00:37.85	40.83	24.96	-33.8	-34.7	24.7	0.00e+00	123	31	0	1070596096	40	6051
2026-01-17 22:00:38.87	40.53	24.97	-33.8	-34.6	24.8	0.00e+00	123	32	0	1073741824	40	5977
2026-01-17 22:00:39.87	40.24	24.98	-33.8	-34.7	24.7	0.00e+00	122	32	0	1076887552	40	6000
2026-01-17 22:00:40.89	39.95	25.00	-33.6	-34.5	24.8	0.00e+00	123	32	0	1080033280	40	5882
2026-01-17 22:00:41.89	39.66	25.01	-33.6	-34.5	24.7	0.00e+00	123	32	0	1083179008	40	5887
2026-01-17 22:00:42.90	39.36	25.02	-33.8	-34.6	24.7	0.00e+00	122	31	0	1086324736	40	5985
2026-01-17 22:00:43.92	39.06	25.03	-33.7	-34.6	24.7	0.00e+00	120	31	0	1089470464	40	5976
2026-01-17 22:00:44.92	38.77	25.04	-33.9	-34.7	24.6	0.00e+00	123	32	0	1092616192	40	6058
2026-01-17 22:00:45.93	38.48	25.05	-34.0	-34.8	24.6	0.00e+00	123	31	0	1095761920	40	6132
2026-01-17 22:00:46.95	38.18	25.06	-34.0	-34.9	24.6	0.00e+00	121	31	0	1098907648	40	6177
2026-01-17 22:00:47.96	37.88	25.06	-34.1	-35.0	24.6	0.00e+00	123	32	0	1102053376	40	6266
2026-01-17 22:00:48.97	37.59	25.07	-33.9	-34.8	24.6	0.00e+00	120	32	0	1105199104	40	6093
2026-01-17 22:00:49.98	37.29	25.07	-34.1	-34.9	24.5	0.00e+00	122	31	0	1108344832	40	6203
2026-01-17 22:00:50.99	37.00	25.08	-33.8	-34.7	24.7	0.00e+00	123	32	0	1111490560	40	6056
2026-01-17 22:00:52.00	36.70	25.08	-33.7	-34.6	24.8	0.00e+00	120	32	0	1114636288	40	5971
2026-01-17 22:00:53.01	36.40	25.09	-33.6	-34.5	24.8	0.00e+00	123	32	0	1117782016	40	5886
2026-01-17 22:00:54.02	36.11	25.09	-33.6	-34.5	24.8	0.00e+00	123	31	0	1120927744	40	5906
2026-01-17 22:00:55.03	35.81	25.09	-33.6	-34.5	24.9	0.00e+00	122	31	0	1124073472	40	5900
2026-01-17 22:00:56.04	35.52	25.09	-33.6	-34.5	24.9	0.00e+00	122	32	0	1127219200	40	5876
2026-01-17 22:00:57.05	35.22	25.09	-33.6	-34.5	24.8	0.00e+00	127	32	0	1130364928	40	5904
2026-01-17 22:00:58.06	34.93	25.09	-33.7	-34.6	24.7	0.00e+00	120	32	0	1133510656	40	5963
2026-01-17 22:00:59.07	34.63	25.08	-33.9	-34.8	24.6	0.00e+00	123	32	0	1136656384	40	6076
2026-01-17 22:01:00.08	34.33	25.08	-33.8	-34.7	24.7	0.00e+00	120	31	0	1139802112	40	6020
2026-01-17 22:01:01.09	34.04	25.08	-33.8	-34.7	24.7	0.00e+00	123	32	0	1142947840	40	6039
2026-01-17 22:01:02.10	33.74	25.07	-33.7	-34.6	24.8	0.00e+00	121	32	0	1146093568	40	5954
2026-01-17 22:01:03.11	33.45	25.07	-33.6	-34.5	24.8	0.00e+00	123	32	0	1149239296	40	5868
2026-01-17 22:01:04.12	33.15	25.06	-33.6	-34.4	24.8	0.00e+00	123	31	0	1152385024	40	5850
2026-01-17 22:01:05.14	32.85	25.05	-33.7	-34.6	24.7	0.00e+00	120	32	0	1155530752	40	5966
2026-01-17 22:01:06.15	32.56	25.05	-33.7	-34.6	24.8	0.00e+00	123	32	0	1158676480	40	5941
2026-01-17 22:01:07.16	32.26	25.04	-33.7	-34.6	24.8	0.00e+00	123	32	0	1161822208	40	5993
2026-01-17 22:01:08.17	31.97	25.03	-33.8	-34.7	24.8	0.00e+00	122	32	0	1164967936	40	6048
2026-01-17 22:01:09.18	31.67	25.02	-34.0	-34.9	24.7	0.00e+00	123	32	0	1168113664	40	6156
2026-01-17 22:01:10.19	31.38	25.01	-34.0	-34.9	24.6	0.00e+00	122	31	0	1171259392	40	6186
2026-01-17 22:01:11.20	31.09	24.99	-33.9	-34.8	24.7	0.00e+00	123	31	0	1174405120	40	6113
2026-01-17 22:01:12.21	30.79	24.98	-33.9	-34.7	24.8	0.00e+00	122	31	0	1177550848	40	6064
2026-01-17 22:01:13.22	30.50	24.97	-33.8	-34.7	24.7	0.00e+00	123	31	0	1180696576	40	6016
2026-01-17 22:01:14.23	30.21	24.95	-33.7	-34.6	24.8	0.00e+00	122	31	0	1183842304	40	5941
2026-01-17 22:01:15.24	29.91	24.94	-33.7	-34.6	24.8	0.00e+00	120	32	0	1186988032	40	5939
2026-01-17 22:01:16.25	29.62	24.92	-33.6	-34.4	24.9	0.00e+00	123	31	0	1190133760	40	5852
2026-01-17 22:01:17.26	29.33	24.90	-33.5	-34.4	24.9	0.00e+00	120	31	0	1193279488	40	5818
2026-01-17 22:01:18.27	29.04	24.88	-33.6	-34.4	25.0	0.00e+00	123	32	0	1196425216	40	5846
2026-01-17 22:01:19.28	28.74	24.87	-33.6	-34.5	24.9	0.00e+00	122	32	0	1199570944	40	5901
2026-01-17 22:01:20.29	28.45	24.85	-33.8	-34.7	24.8	0.00e+00	122	32	0	1202716672	40	6022
2026-01-17 22:01:21.30	28.16	24.83	-33.8	-34.7	24.7	0.00e+00	123	31	0	1205862400	40	6007
2026-01-17 22:01:22.31	27.87	24.81	-33.9	-34.8	24.7	0.00e+00	123	32	0	1209008128	40	6091
2026-01-17 22:01:23.32	27.58	24.78	-33.8	-34.6	24.8	0.00e+00	122	31	0	1212153856	40	5984
2026-01-17 22:01:24.33	27.29	24.76	-33.9	-34.7	24.8	0.00e+00	123	31	0	1215299584	40	6045
2026-01-17 22:01:25.34	27.00	24.74	-33.5	-34.4	24.9	0.00e+00	122	32	0	1218445312	40	5836
2026-01-17 22:01:26.35	26.71	24.71	-33.7	-34.6	24.9	0.00e+00	122	32	0	1221591040	40	5929
2026-01-17 22:01:27.37	26.42	24.69	-33.7	-34.6	24.8	0.00e+00	123	32	0	1224736768	40	5945
2026-01-17 22:01:28.38	26.13	24.66	-33.6	-34.5	24.9	0.00e+00	122	32	0	1227882496	40	5903
2026-01-17 22:01:29.39	25.85	24.64	-33.7	-34.6	24.8	0.00e+00	123	31	0	1231028224	40	5952
2026-01-17 22:01:30.40	25.56	24.61	-33.7	-34.6	24.8	0.00e+00	123	32	0	1234173952	40	5945
2026-01-17 22:01:31.41	25.27	24.58	-33.9	-34.8	24.6	0.00e+00	123	32	0	1237319680	40	6070
2026-01-17 22:01:32.42	24.99	24.55	-34.1	-35.0	24.5	0.00e+00	122	32	0	1240465408	40	6243
2026-01-17 22:01:33.43	24.70	24.52	-34.0	-34.9	24.5	0.00e+00	123	31	0	1243611136	40	6165
2026-01-17 22:01:34.44	24.42	24.49	-34.1	-35.0	24.4	0.00e+00	123	31	0	1246756864	40	6277
2026-01-17 22:01:35.45	24.13	24.46	-34.4	-35.3	24.2	0.00e+00	123	32	0	1249902592	40	6484
2026-01-17 22:01:36.46	23.85	24.43	-34.5	-35.4	24.2	0.00e+00	123	32	0	1253048320	40	6516
2026-01-17 22:01:37.47	23.56	24.40	-34.5	-35.4	24.2	0.00e+00	123	32	0	1256194048	40	6523
2026-01-17 22:01:38.48	23.28	24.36	-34.4	-35.3	24.2	0.00e+00	123	32	0	1259339776	40	6494
2026-01-17 22:01:39.49	23.00	24.33	-34.5	-35.4	24.1	0.00e+00	122	32	0	1262485504	40	6562
2026-01-17 22:01:40.50	22.72	24.30	-34.3	-35.2	24.3	0.00e+00	120	32	0	1265631232	40	6357
2026-01-17 22:01:41.51	22.44	24.26	-34.1	-35.0	24.5	0.00e+00	122	32	0	1268776960	40	6211
2026-01-17 22:01:42.52	22.16	24.23	-34.0	-34.9	24.5	0.00e+00	123	32	0	1271922688	40	6186
2026-01-17 22:01:43.53	21.88	24.19	-34.0	-34.9	24.5	0.00e+00	123	32	0	1275068416	40	6197
2026-01-17 22:01:44.54	21.60	24.15	-34.0	-34.9	24.5	0.00e+00	123	32	0	1278214144	40	6171
2026-01-17 22:01:45.55	21.32	24.11	-34.1	-35.0	24.4	0.00e+00	122	31	0	1281359872	40	6212
2026-01-17 22:01:46.56	21.04	24.07	-33.8	-34.7	24.6	0.00e+00	122	32	0	1284505600	40	6040
2026-01-17 22:01:47.57	20.77	24.04	-33.9	-34.8	24.4	0.00e+00	123	31	0	1287651328	40	6096
2026-01-17 22:01:48.58	20.49	24.00	-33.8	-34.7	24.6	0.00e+00	122	32	0	1290797056	40	6000
2026-01-17 22:01:49.59	20.22	23.95	-33.7	-34.6	24.7	0.00e+00	122	32	0	1293942784	40	5957
2026-01-17 22:01:50.60	19.94	23.91	-33.7	-34.6	24.7	0.00e+00	120	32	0	1297088512	40	5974
2026-01-17 22:01:51.61	19.67	23.87	-33.7	-34.5	24.8	0.00e+00	122	32	0	1300234240	40	5919
2026-01-17 22:01:52.62	19.39	23.83	-33.6	-34.5	24.7	0.00e+00	122	32	0	1303379968	40	5883
2026-01-17 22:01:53.63	19.12	23.79	-33.6	-34.5	24.6	0.00e+00	122	32	0	1306525696	40	5915
2026-01-17 22:01:54.64	18.85	23.74	-33.8	-34.7	24.6	0.00e+00	123	32	0	1309671424	40	6041
2026-01-17 22:01:55.66	18.58	23.70	-33.8	-34.7	24.5	0.00e+00	123	32	0	1312817152	40	6045
2026-01-17 22:01:56.67	18.31	23.65	-33.9	-34.8	24.4	0.00e+00	123	32	0	1315962880	40	6078
2026-01-17 22:01:57.68	18.04	23.61	-33.9	-34.8	24.4	0.00e+00	123	32	0	1319108608	40	6102
2026-01-17 22:01:58.69	17.77	23.56	-33.9	-34.8	24.4	0.00e+00	123	32	0	1322254336	40	6080
2026-01-17 22:01:59.70	17.50	23.51	-33.9	-34.9	24.3	0.00e+00	123	32	0	1326448640	40	6139
2026-01-17 22:02:00.71	17.23	23.47	-33.9	-34.8	24.4	0.00e+00	122	32	0	1328545792	40	6071
2026-01-17 22:02:01.72	16.97	23.42	-34.0	-34.9	24.3	0.00e+00	122	32	0	1331691520	40	6189
2026-01-17 22:02:02.73	16.70	23.37	-34.0	-34.9	24.4	0.00e+00	123	32	0	1334837248	40	6182
2026-01-17 22:02:03.74	16.44	23.32	-34.2	-35.1	24.3	0.00e+00	120	32	0	1337982976	40	6284
2026-01-17 22:02:04.75	16.18	23.27	-34.1	-35.0	24.5	0.00e+00	122	32	0	1342177280	40	6235
2026-01-17 22:02:05.76	15.91	23.22	-34.0	-34.9	24.6	0.00e+00	123	32	0	1345323008	40	6176
2026-01-17 22:02:06.77	15.65	23.17	-33.7	-34.6	24.6	0.00e+00	123	32	0	1348468736	40	5969
2026-01-17 22:02:07.78	15.39	23.12	-33.9	-34.8	24.7	0.00e+00	123	32	0	1350565888	40	6083
2026-01-17 22:02:08.79	15.13	23.06	-33.6	-34.5	24.8	0.00e+00	120	32	0	1353711616	40	5886
2026-01-17 22:02:09.80	14.87	23.01	-33.7	-34.5	24.9	0.00e+00	123	32	0	1357905920	40	5926
2026-01-17 22:02:10.81	14.61	22.96	-33.6	-34.5	24.9	0.00e+00	123	32	0	1361051648	40	5890
2026-01-17 22:02:11.82	14.36	22.91	-33.8	-34.6	24.7	0.00e+00	122	32	0	1364197376	40	5977
2026-01-17 22:02:12.83	14.10	22.85	-33.9	-34.8	24.7	0.00e+00	122	32	0	1367343104	40	6066
2026-01-17 22:02:13.84	13.84	22.80	-33.9	-34.8	24.6	0.00e+00	123	32	0	1370488832	40	6070
2026-01-17 22:02:14.85	13.59	22.74	-33.9	-34.8	24.7	0.00e+00	122	32	0	1373634560	40	6103
2026-01-17 22:02:15.86	13.34	22.69	-34.0	-34.9	24.7	0.00e+00	123	32	0	1376780288	40	6143
2026-01-17 22:02:16.87	13.08	22.63	-34.0	-34.9	24.7	0.00e+00	123	32	0	1379926016	40	6146
2026-01-17 22:02:17.89	12.83	22.57	-33.8	-34.7	24.7	0.00e+00	122	32	0	1383071744	40	6043
2026-01-17 22:02:18.90	12.58	22.52	-33.9	-34.8	24.7	0.00e+00	120	32	0	1386217472	40	6122
2026-01-17 22:02:19.91	12.33	22.46	-33.7	-34.6	24.8	0.00e+00	122	32	0	1389363200	40	5966
2026-01-17 22:02:20.92	12.08	22.40	-33.6	-34.5	24.8	0.00e+00	123	31	0	1392508928	40	5908
2026-01-17 22:02:21.93	11.83	22.34	-33.7	-34.6	24.7	0.00e+00	122	32	0	1395654656	40	5940
2026-01-17 22:02:22.94	11.58	22.28	-33.8	-34.7	24.6	0.00e+00	122	32	0	1398800384	40	6048
2026-01-17 22:02:23.95	11.34	22.23	-34.1	-35.0	24.4	0.00e+00	123	32	0	1401946112	40	6215
2026-01-17 22:02:24.96	11.09	22.17	-34.1	-35.0	24.4	0.00e+00	120	32	0	1405091840	40	6246
2026-01-17 22:02:25.97	10.85	22.11	-34.1	-35.0	24.4	0.00e+00	122	31	0	1408237568	40	6243
2026-01-17 22:02:26.98	10.60	22.05	-34.2	-35.1	24.4	0.00e+00	122	32	0	1411383296	40	6301
2026-01-17 22:02:27.99	10.36	21.98	-34.1	-35.0	24.5	0.00e+00	123	31	0	1414529024	40	6263
2026-01-17 22:02:29.00	10.12	21.92	-34.0	-34.9	24.5	0.00e+00	123	32	0	1417674752	40	6166
2026-01-17 22:02:30.01	9.88	21.86	-34.1	-35.0	24.6	0.00e+00	123	31	0	1420820480	40	6225
2026-01-17 22:02:31.02	9.64	21.80	-34.0	-34.9	24.6	0.00e+00	120	32	0	1423966208	40	6192
2026-01-17 22:02:32.03	9.40	21.74	-34.3	-35.1	24.4	0.00e+00	123	32	0	1427111936	40	6344
2026-01-17 22:02:33.04	9.16	21.67	-34.3	-35.2	24.4	0.00e+00	122	31	0	1430257664	40	6373
2026-01-17 22:02:34.05	8.93	21.61	-34.3	-35.2	24.3	0.00e+00	123	31	0	1433403392	40	6371
2026-01-17 22:02:35.06	8.69	21.55	-34.3	-35.2	24.3	0.00e+00	121	32	0	1436549120	40	6370
2026-01-17 22:02:36.07	8.46	21.48	-34.1	-35.0	24.4	0.00e+00	120	31	0	1439694848	40	6239
2026-01-17 22:02:37.08	8.22	21.42	-34.2	-35.1	24.4	0.00e+00	122	32	0	1442840576	40	6305
2026-01-17 22:02:38.09	7.99	21.35	-33.9	-34.8	24.5	0.00e+00	123	32	0	1445986304	40	6114
2026-01-17 22:02:39.10	7.76	21.29	-33.9	-34.8	24.5	0.00e+00	122	32	0	1449132032	40	6130
2026-01-17 22:02:40.11	7.53	21.22	-33.6	-34.5	24.8	0.00e+00	123	32	0	1452277760	40	5918
2026-01-17 22:02:41.12	7.30	21.16	-33.7	-34.6	24.8	0.00e+00	123	32	0	1455423488	40	5964
2026-01-17 22:02:42.13	7.07	21.09	-33.7	-34.5	24.7	0.00e+00	123	32	0	1458569216	40	5923
2026-01-17 22:02:43.14	6.84	21.03	-33.9	-34.8	24.6	0.00e+00	123	32	0	1461714944	40	6072
2026-01-17 22:02:44.15	6.62	20.96	-34.1	-35.0	24.5	0.00e+00	123	32	0	1464860672	40	6246
2026-01-17 22:02:45.16	6.39	20.89	-34.1	-35.0	24.4	0.00e+00	123	32	0	1468006400	40	6277
2026-01-17 22:02:46.17	6.17	20.83	-34.2	-35.1	24.5	0.00e+00	123	32	0	1471152128	40	6316
2026-01-17 22:02:47.18	5.94	20.76	-34.1	-35.0	24.4	0.00e+00	123	32	0	1474297856	40	6276
2026-01-17 22:02:48.20	5.72	20.69	-34.0	-34.9	24.5	0.00e+00	122	32	0	1477443584	40	6179
2026-01-17 22:02:49.21	5.49	20.62	-34.0	-34.9	24.5	0.00e+00	123	32	0	1480589312	40	6148
2026-01-17 22:02:50.22	5.27	20.55	-34.0	-34.9	24.5	0.00e+00	123	32	0	1483735040	40	6141
2026-01-17 22:02:51.23	5.05	20.49	-33.9	-34.8	24.6	0.00e+00	123	32	0	1486880768	40	6104
2026-01-17 22:02:52.24	4.84	20.42	-33.9	-34.7	24.6	0.00e+00	123	32	0	1490026496	40	6059
2026-01-17 22:02:53.25	4.62	20.35	-34.0	-34.9	24.5	0.00e+00	122	32	0	1493172224	40	6147
2026-01-17 22:02:54.26	4.40	20.28	-33.9	-34.9	24.5	0.00e+00	123	32	0	1496317952	40	6136
2026-01-17 22:02:55.27	4.19	20.21	-34.1	-35.0	24.4	0.00e+00	122	31	0	1499463680	40	6216
2026-01-17 22:02:56.28	3.97	20.14	-34.1	-35.0	24.4	0.00e+00	122	31	0	1502609408	40	6230
2026-01-17 22:02:57.29	3.76	20.07	-34.1	-35.0	24.4	0.00e+00	123	32	0	1505755136	40	6225
2026-01-17 22:02:58.30	3.54	20.00	-33.9	-34.8	24.5	0.00e+00	122	32	0	1508900864	40	6085
2026-01-17 22:02:59.31	3.33	19.93	-33.8	-34.7	24.6	0.00e+00	123	32	0	1512046592	40	6018
2026-01-17 22:03:00.32	3.12	19.86	-33.9	-34.8	24.6	0.00e+00	122	32	0	1515192320	40	6069
2026-01-17 22:03:01.33	2.91	19.79	-34.0	-34.8	24.5	0.00e+00	123	32	0	1518338048	40	6133
2026-01-17 22:03:02.33	2.70	19.72	-34.1	-35.0	24.5	0.00e+00	123	32	0	1521483776	40	6273
2026-01-17 22:03:03.34	2.50	19.65	-34.2	-35.1	24.4	0.00e+00	123	32	0	1524629504	40	6323
2026-01-17 22:03:04.35	2.29	19.58	-34.4	-35.3	24.3	0.00e+00	122	32	0	1527775232	40	6425
2026-01-17 22:03:05.36	2.08	19.50	-34.4	-35.3	24.2	0.00e+00	122	32	0	1530920960	40	6493
2026-01-17 22:03:06.38	1.88	19.43	-34.5	-35.4	24.2	0.00e+00	123	31	0	1534066688	40	6540
2026-01-17 22:03:07.39	1.67	19.36	-34.2	-35.2	24.3	0.00e+00	123	31	0	1537212416	40	6357
2026-01-17 22:03:08.40	1.47	19.29	-34.2	-35.1	24.4	0.00e+00	122	32	0	1540358144	40	6326
2026-01-17 22:03:09.41	1.27	19.22	-34.1	-35.0	24.3	0.00e+00	123	32	0	1543503872	40	6254
2026-01-17 22:03:10.42	1.07	19.14	-33.9	-34.8	24.5	0.00e+00	123	32	0	1546649600	40	6080
2026-01-17 22:03:11.43	0.87	19.07	-34.0	-35.0	24.4	0.00e+00	123	32	0	1549795328	40	6208
2026-01-17 22:03:12.44	0.67	19.00	-33.9	-34.8	24.4	0.00e+00	122	32	0	1552941056	40	6124
2026-01-17 22:03:13.45	0.47	18.93	-34.1	-35.0	24.4	0.00e+00	122	32	0	1556086784	40	6221
2026-01-17 22:03:14.46	0.27	18.85	-34.1	-35.0	24.5	0.00e+00	122	32	0	1559232512	40	6227
2026-01-17 22:03:15.47	0.08	18.78	-34.3	-35.2	24.3	0.00e+00	123	32	0	1562378240	40	6377
2026-01-17 22:03:16.48	359.88	18.71	-34.3	-35.2	24.3	0.00e+00	123	31	0	1565523968	40	6414
2026-01-17 22:03:17.49	359.69	18.63	-34.3	-35.2	24.2	0.00e+00	120	31	0	1568669696	40	6370
2026-01-17 22:03:18.50	359.49	18.56	-34.4	-35.4	24.2	0.00e+00	123	32	0	1571815424	40	6499
2026-01-17 22:03:19.51	359.30	18.49	-34.3	-35.2	24.3	0.00e+00	123	31	0	1574961152	40	6378
2026-01-17 22:03:20.52	359.11	18.41	-34.3	-35.2	24.4	0.00e+00	123	32	0	1578106880	40	6396
2026-01-17 22:03:21.53	358.92	18.34	-34.2	-35.1	24.3	0.00e+00	122	32	0	1581252608	40	6342
2026-01-17 22:03:22.54	358.73	18.26	-34.3	-35.2	24.4	0.00e+00	121	32	0	1584398336	40	6368
2026-01-17 22:03:23.55	358.54	18.19	-34.4	-35.3	24.2	0.00e+00	123	31	0	1587544064	40	6492
2026-01-17 22:03:24.56	358.35	18.12	-34.4	-35.4	24.1	0.00e+00	122	32	0	1590689792	40	6505
2026-01-17 22:03:25.57	358.16	18.04	-34.6	-35.5	24.0	0.00e+00	120	32	0	1593835520	40	6623
2026-01-17 22:03:26.58	357.98	17.97	-34.6	-35.5	24.0	0.00e+00	122	32	0	1596981248	40	6648
2026-01-17 22:03:27.59	357.79	17.89	-34.7	-35.6	24.0	0.00e+00	122	32	0	1600126976	40	6703
2026-01-17 22:03:28.60	357.61	17.82	-34.8	-35.7	23.9	0.00e+00	122	32	0	1603272704	40	6772
2026-01-17 22:03:29.61	357.43	17.74	-34.7	-35.6	24.0	0.00e+00	120	32	0	1606418432	42	5957
2026-01-17 22:03:30.62	357.24	17.67	-34.8	-35.7	23.9	0.00e+00	123	32	0	1609564160	42	6050
2026-01-17 22:03:31.63	357.06	17.59	-34.7	-35.6	24.0	0.00e+00	122	32	0	1612709888	42	5986
2026-01-17 22:03:32.64	356.88	17.52	-34.8	-35.7	23.9	0.00e+00	122	32	0	1615855616	42	6042
2026-01-17 22:03:33.65	356.70	17.44	-34.8	-35.7	23.9	0.00e+00	123	32	0	1619001344	42	6030
2026-01-17 22:03:34.66	356.52	17.37	-34.9	-35.9	23.8	0.00e+00	122	32	0	1622147072	42	6157
2026-01-17 22:03:35.67	356.35	17.29	-34.9	-35.8	23.8	0.00e+00	123	32	0	1625292800	42	6125
2026-01-17 22:03:36.68	356.17	17.22	-34.8	-35.7	23.9	0.00e+00	122	32	0	1628438528	42	6019
2026-01-17 22:03:37.69	355.99	17.14	-34.8	-35.7	23.9	0.00e+00	123	31	0	1632632832	42	6061
2026-01-17 22:03:38.70	355.82	17.07	-34.8	-35.8	23.9	0.00e+00	120	32	0	1635778560	42	6093
2026-01-17 22:03:39.71	355.64	16.99	-34.9	-35.8	23.8	0.00e+00	123	32	0	1638924288	42	6124
2026-01-17 22:03:40.72	355.47	16.92	-34.9	-35.9	23.8	0.00e+00	123	32	0	1642070016	42	6161
2026-01-17 22:03:41.73	355.30	16.84	-34.7	-35.7	23.9	0.00e+00	123	32	0	1644167168	42	6023
2026-01-17 22:03:42.74	355.13	16.77	-34.7	-35.6	24.0	0.00e+00	123	32	0	1648361472	42	5982
2026-01-17 22:03:43.75	354.96	16.69	-34.7	-35.7	23.8	0.00e+00	124	32	0	1651507200	42	6020
2026-01-17 22:03:44.76	354.79	16.62	-34.7	-35.6	23.9	0.00e+00	123	31	0	1654652928	42	5977
2026-01-17 22:03:45.77	354.62	16.54	-34.8	-35.7	23.9	0.00e+00	120	31	0	1657798656	42	6048
2026-01-17 22:03:46.79	354.45	16.46	-34.8	-35.7	23.9	0.00e+00	122	31	0	1660944384	42	6039
2026-01-17 22:03:47.80	354.28	16.39	-34.9	-35.8	23.7	0.00e+00	120	31	0	1664090112	42	6118
2026-01-17 22:03:48.80	354.12	16.31	-34.7	-35.7	23.8	0.00e+00	123	32	0	1667235840	42	5998
2026-01-17 22:03:49.81	353.95	16.24	-34.8	-35.7	23.8	0.00e+00	123	32	0	1670381568	42	6036
2026-01-17 22:03:50.82	353.79	16.16	-34.7	-35.6	23.9	0.00e+00	121	32	0	1673527296	42	5932
2026-01-17 22:03:51.83	353.62	16.09	-34.7	-35.6	23.9	0.00e+00	123	32	0	1676673024	42	5965
2026-01-17 22:03:52.84	353.46	16.01	-34.7	-35.6	23.9	0.00e+00	120	32	0	1679818752	42	5970
2026-01-17 22:03:53.85	353.30	15.94	-34.6	-35.5	24.0	0.00e+00	122	32	0	1682964480	42	5876
2026-01-17 22:03:54.86	353.14	15.86	-34.7	-35.6	23.9	0.00e+00	122	32	0	1686110208	42	5993
2026-01-17 22:03:55.87	352.98	15.79	-34.6	-35.5	24.0	0.00e+00	123	32	0	1689255936	42	5913
2026-01-17 22:03:56.88	352.82	15.71	-34.7	-35.7	23.9	0.00e+00	123	32	0	1692401664	42	6001
2026-01-17 22:03:57.89	352.66	15.63	-34.8	-35.7	23.8	0.00e+00	122	32	0	1695547392	42	6047
2026-01-17 22:03:58.90	352.50	15.56	-34.9	-35.8	23.8	0.00e+00	122	31	0	1698693120	42	6090
2026-01-17 22:03:59.91	352.34	15.48	-35.0	-35.9	23.8	0.00e+00	123	32	0	1701838848	42	6163
2026-01-17 22:04:00.92	352.19	15.41	-35.1	-36.0	23.6	0.00e+00	122	31	0	1704984576	42	6264
2026-01-17 22:04:01.93	352.03	15.33	-35.3	-36.2	23.5	0.00e+00	121	32	0	1708130304	42	6403
2026-01-17 22:04:02.94	351.88	15.26	-35.3	-36.2	23.5	0.00e+00	120	32	0	1711276032	42	6396
2026-01-17 22:04:03.95	351.72	15.18	-35.3	-36.2	23.5	0.00e+00	123	32	0	1714421760	42	6390
2026-01-17 22:04:04.96	351.57	15.11	-35.2	-36.2	23.4	0.00e+00	123	32	0	1717567488	42	6390
2026-01-17 22:04:05.97	351.42	15.03	-35.2	-36.1	23.5	0.00e+00	123	32	0	1720713216	42	6335
2026-01-17 22:04:06.98	351.27	14.96	-35.1	-36.1	23.4	0.00e+00	123	31	0	1723858944	42	6299
2026-01-17 22:04:07.99	351.11	14.88	-34.9	-35.8	23.7	0.00e+00	122	31	0	1727004672	42	6128
2026-01-17 22:04:09.00	350.96	14.81	-34.8	-35.7	23.8	0.00e+00	122	32	0	1730150400	42	6054
2026-01-17 22:04:10.01	350.82	14.73	-34.9	-35.9	23.7	0.00e+00	123	31	0	1733296128	42	6145
2026-01-17 22:04:11.02	350.67	14.65	-34.8	-35.7	23.9	0.00e+00	122	32	0	1736441856	42	6023
2026-01-17 22:04:12.03	350.52	14.58	-34.8	-35.8	23.8	0.00e+00	122	32	0	1739587584	42	6069
2026-01-17 22:04:13.04	350.37	14.50	-35.0	-35.9	23.7	0.00e+00	123	32	0	1742733312	42	6172
2026-01-17 22:04:14.05	350.23	14.43	-35.0	-35.9	23.7	0.00e+00	123	32	0	1745879040	42	6203
2026-01-17 22:04:15.06	350.08	14.35	-35.2	-36.2	23.5	0.00e+00	123	31	0	1749024768	42	6373
2026-01-17 22:04:16.07	349.94	14.28	-35.4	-36.4	23.3	0.00e+00	123	32	0	1752170496	42	6509
2026-01-17 22:04:17.08	349.79	14.20	-35.6	-36.6	23.1	0.00e+00	122	32	0	1755316224	42	6661
2026-01-17 22:04:18.09	349.65	14.13	-35.7	-36.7	23.0	0.00e+00	122	32	0	1758461952	44	6010
2026-01-17 22:04:19.10	349.51	14.05	-35.8	-36.8	22.8	0.00e+00	123	32	0	1761607680	44	6123
2026-01-17 22:04:20.11	349.36	13.98	-35.8	-36.8	22.8	0.00e+00	120	32	0	1764753408	44	6090
2026-01-17 22:04:21.12	349.22	13.90	-35.6	-36.6	22.9	0.00e+00	122	32	0	1767899136	44	5988
2026-01-17 22:04:22.13	349.08	13.83	-35.5	-36.4	23.0	0.00e+00	122	32	0	1771044864	44	5856
2026-01-17 22:04:23.14	348.94	13.76	-35.4	-36.4	23.1	0.00e+00	123	32	0	1774190592	44	5820
2026-01-17 22:04:24.14	348.81	13.68	-35.4	-36.3	23.2	0.00e+00	123	32	0	1777336320	44	5778
2026-01-17 22:04:25.15	348.67	13.61	-35.4	-36.4	23.3	0.00e+00	123	31	0	1780482048	44	5805
2026-01-17 22:04:26.16	348.53	13.53	-35.2	-36.1	23.4	0.00e+00	120	32	0	1783627776	44	5625
2026-01-17 22:04:27.17	348.39	13.46	-35.3	-36.2	23.4	0.00e+00	122	32	0	1786773504	44	5708
2026-01-17 22:04:28.18	348.26	13.38	-35.4	-36.3	23.3	0.00e+00	123	32	0	1789919232	44	5775
2026-01-17 22:04:29.19	348.12	13.31	-35.6	-36.6	23.1	0.00e+00	123	32	0	1793064960	44	5930
2026-01-17 22:04:30.20	347.99	13.24	-35.8	-36.8	22.9	0.00e+00	123	32	0	1796210688	44	6071
2026-01-17 22:04:31.21	347.85	13.16	-35.9	-36.9	22.8	0.00e+00	122	32	0	1799356416	44	6152
2026-01-17 22:04:32.22	347.72	13.09	-36.1	-37.1	22.7	0.00e+00	123	32	0	1802502144	44	6292
2026-01-17 22:04:33.23	347.59	13.01	-36.2	-37.3	22.6	0.00e+00	122	32	0	1805647872	44	6424
2026-01-17 22:04:34.24	347.46	12.94	-36.3	-37.3	22.5	0.00e+00	122	32	0	1808793600	44	6474
2026-01-17 22:04:35.25	347.33	12.87	-36.3	-37.3	22.4	0.00e+00	120	31	0	1811939328	44	6492
2026-01-17 22:04:36.26	347.19	12.79	-36.1	-37.1	22.6	0.00e+00	122	32	0	1815085056	44	6329
2026-01-17 22:04:37.27	347.07	12.72	-36.1	-37.1	22.6	0.00e+00	123	32	0	1818230784	44	6329
2026-01-17 22:04:38.29	346.93	12.64	-35.8	-36.8	22.8	0.00e+00	122	31	0	1821376512	44	6131
2026-01-17 22:04:39.30	346.81	12.57	-35.6	-36.6	23.0	0.00e+00	123	32	0	1824522240	44	5929
2026-01-17 22:04:40.31	346.68	12.50	-35.5	-36.5	23.1	0.00e+00	122	32	0	1827667968	44	5898
2026-01-17 22:04:41.32	346.55	12.42	-35.5	-36.5	23.1	0.00e+00	123	31	0	1830813696	44	5889
2026-01-17 22:04:42.33	346.42	12.35	-35.3	-36.3	23.3	0.00e+00	120	32	0	1833959424	44	5728
2026-01-17 22:04:43.34	346.30	12.28	-35.3	-36.2	23.3	0.00e+00	123	32	0	1837105152	44	5724
2026-01-17 22:04:44.35	346.17	12.20	-35.3	-36.3	23.3	1.50e-06	122	32	0	1840250880	44	5778
2026-01-17 22:04:45.36	346.05	12.13	-35.5	-36.4	23.2	0.00e+00	123	32	0	1843396608	44	5850
2026-01-17 22:04:46.37	345.92	12.06	-35.5	-36.5	23.1	0.00e+00	121	32	0	1846542336	44	5872
2026-01-17 22:04:47.38	345.80	11.98	-35.7	-36.7	23.0	0.00e+00	123	32	0	1849688064	44	6051
2026-01-17 22:04:48.39	345.68	11.91	-35.9	-36.9	22.8	0.00e+00	122	31	0	1852833792	44	6138
2026-01-17 22:04:49.40	345.56	11.84	-36.0	-37.1	22.6	0.00e+00	123	32	0	1855979520	44	6288
2026-01-17 22:04:50.41	345.43	11.77	-36.0	-37.0	22.7	0.00e+00	123	32	0	1859125248	44	6244
2026-01-17 22:04:51.42	345.31	11.69	-36.1	-37.1	22.6	0.00e+00	122	32	0	1862270976	44	6335
2026-01-17 22:04:52.43	345.19	11.62	-36.2	-37.3	22.4	0.00e+00	120	32	0	1865416704	44	6451
2026-01-17 22:04:53.44	345.07	11.55	-36.0	-37.0	22.6	0.00e+00	122	32	0	1868562432	44	6234
2026-01-17 22:04:54.45	344.95	11.48	-35.9	-37.0	22.6	0.00e+00	123	32	0	1871708160	44	6219
2026-01-17 22:04:55.46	344.84	11.40	-35.9	-37.0	22.5	0.00e+00	123	32	0	1874853888	44	6223
2026-01-17 22:04:56.47	344.72	11.33	-35.6	-36.7	22.7	0.00e+00	122	32	0	1877999616	44	6002
2026-01-17 22:04:57.48	344.60	11.26	-35.4	-36.4	23.1	0.00e+00	120	32	0	1881145344	44	5797
2026-01-17 22:04:58.49	344.48	11.19	-35.3	-36.2	23.1	0.00e+00	120	32	0	1884291072	44	5704
2026-01-17 22:04:59.50	344.37	11.12	-35.3	-36.3	23.1	0.00e+00	123	32	0	1887436800	44	5726
2026-01-17 22:05:00.51	344.25	11.04	-34.9	-35.9	23.5	0.00e+00	123	32	0	1890582528	44	5473
2026-01-17 22:05:01.52	344.14	10.97	-35.0	-35.9	23.4	0.00e+00	123	32	0	1893728256	44	5499
2026-01-17 22:05:02.53	344.02	10.90	-35.1	-36.0	23.4	0.00e+00	123	32	0	1896873984	44	5585
2026-01-17 22:05:03.54	343.91	10.83	-35.2	-36.1	23.3	0.00e+00	122	32	0	1900019712	44	5641
2026-01-17 22:05:04.55	343.80	10.76	-35.3	-36.2	23.3	0.00e+00	122	32	0	1903165440	44	5717
2026-01-17 22:05:05.56	343.68	10.69	-35.4	-36.4	23.1	0.00e+00	123	31	0	1906311168	44	5816
2026-01-17 22:05:06.57	343.57	10.62	-35.7	-36.7	22.9	0.00e+00	122	32	0	1909456896	44	6035
2026-01-17 22:05:07.58	343.46	10.54	-35.9	-36.9	22.8	0.00e+00	122	31	0	1912602624	44	6164
2026-01-17 22:05:08.59	343.35	10.47	-36.1	-37.1	22.6	0.00e+00	120	31	0	1915748352	44	6335
2026-01-17 22:05:09.60	343.24	10.40	-36.2	-37.3	22.4	0.00e+00	123	32	0	1918894080	44	6440
2026-01-17 22:05:10.61	343.13	10.33	-36.5	-37.5	22.3	0.00e+00	123	31	0	1922039808	44	6648
2026-01-17 22:05:11.62	343.02	10.26	-36.5	-37.6	22.1	0.00e+00	122	32	0	1925185536	44	6665
2026-01-17 22:05:12.63	342.91	10.19	-36.7	-37.8	21.9	0.00e+00	123	32	0	1928331264	44	6808
2026-01-17 22:05:13.64	342.80	10.12	-36.3	-37.4	22.3	0.00e+00	120	32	0	1931476992	44	6520
2026-01-17 22:05:14.65	342.69	10.05	-36.3	-37.3	22.2	0.00e+00	122	32	0	1934622720	44	6481
2026-01-17 22:05:15.66	342.59	9.98	-36.4	-37.4	22.1	0.00e+00	123	31	0	1937768448	44	6567
2026-01-17 22:05:16.67	342.48	9.91	-36.3	-37.3	22.2	0.00e+00	123	31	0	1940914176	44	6455
2026-01-17 22:05:17.68	342.37	9.84	-36.3	-37.3	22.3	0.00e+00	123	31	0	1944059904	44	6472
2026-01-17 22:05:18.69	342.27	9.77	-36.5	-37.5	22.0	0.00e+00	123	32	0	1948254208	44	6635
2026-01-17 22:05:19.70	342.16	9.70	-36.1	-37.1	22.4	0.00e+00	123	32	0	1951399936	44	6320
2026-01-17 22:05:20.71	342.06	9.63	-36.2	-37.2	22.3	0.00e+00	120	32	0	1954545664	44	6377
2026-01-17 22:05:21.72	341.96	9.56	-35.7	-36.7	22.7	0.00e+00	123	32	0	1957691392	44	6046
2026-01-17 22:05:22.74	341.85	9.49	-35.8	-36.8	22.7	0.00e+00	123	32	0	1959788544	44	6095
