passes_logs/2026/01/17/R4.6S_Anadyr/R4.6S_Anadyr__20260117_115651_NOAA_21_JPSS-2_rec.log

#Pass ID: 20260117_115651_NOAA 21 (JPSS-2)
#Satellite: NOAA 21 (JPSS-2)
#Configuration: NOAA-21
#almurnet v.1.7.20251203
#Start time: 2026-01-17 11:56:52

#Version: 2.2.20231116
#Station: R4.6S_Anadyr
#Location: 177.4865 lon 64.73178 lat
#TLE: 1 54234U 22150A   26016.56338662  .00000024  00000+0  32257-4 0  9990
#TLE: 2 54234  98.7500 317.4442 0000622 279.9774  80.1332 14.19534942165033

#Time	Az	El	Level	Level2	SNR	BER	BlckErr	Temp	State	Recorded	gain1	gain2
2026-01-17 11:56:52.99	19.72	0.08	-47.9	-59.6	3.4	8.45e-01	0	25	0	0	60	34548
2026-01-17 11:56:54.00	19.81	0.12	-49.6	-62.5	3.5	1.52e+00	0	26	104	0	60	46731
2026-01-17 11:56:55.01	19.90	0.17	-48.8	-61.7	3.5	1.52e+00	0	26	104	0	60	42634
2026-01-17 11:56:56.01	19.98	0.21	-48.7	-61.6	3.5	1.51e+00	0	26	104	0	60	42247
2026-01-17 11:56:57.02	20.07	0.26	-48.7	-61.4	3.5	1.52e+00	0	26	104	0	60	41404
2026-01-17 11:56:58.03	20.16	0.30	-48.7	-61.5	3.5	1.52e+00	0	26	104	0	60	41609
2026-01-17 11:56:59.04	20.24	0.35	-48.7	-61.5	3.5	1.52e+00	0	26	104	0	60	41676
2026-01-17 11:57:00.05	20.33	0.39	-48.6	-61.5	3.5	1.52e+00	0	26	104	0	60	41580
2026-01-17 11:57:01.06	20.42	0.44	-48.6	-61.4	3.5	1.52e+00	0	26	104	0	60	41325
2026-01-17 11:57:02.07	20.51	0.48	-48.5	-61.4	3.5	1.52e+00	0	26	104	0	60	41248
2026-01-17 11:57:03.08	20.60	0.53	-48.5	-61.3	3.5	1.52e+00	0	26	104	0	60	40874
2026-01-17 11:57:04.09	20.69	0.57	-48.4	-61.2	3.5	1.52e+00	0	26	104	0	60	40375
2026-01-17 11:57:05.10	20.78	0.62	-48.2	-61.1	3.5	1.51e+00	0	26	104	0	60	39635
2026-01-17 11:57:06.11	20.86	0.66	-48.1	-61.0	3.5	1.52e+00	0	26	104	0	60	39168
2026-01-17 11:57:07.12	20.95	0.71	-48.0	-60.8	3.5	1.52e+00	0	26	104	0	60	38457
2026-01-17 11:57:08.13	21.04	0.75	-47.8	-60.5	3.5	1.52e+00	0	26	104	0	60	37316
2026-01-17 11:57:09.14	21.13	0.80	-47.5	-60.3	3.5	1.52e+00	0	26	104	0	60	36150
2026-01-17 11:57:10.15	21.22	0.84	-46.9	-59.7	3.5	1.52e+00	0	26	104	0	60	34014
2026-01-17 11:57:11.16	21.31	0.89	-46.9	-59.7	3.5	1.52e+00	0	26	104	0	60	33883
2026-01-17 11:57:12.17	21.41	0.93	-46.9	-59.6	3.5	1.52e+00	0	26	104	0	60	33609
2026-01-17 11:57:13.18	21.50	0.98	-46.9	-59.6	3.6	1.52e+00	0	26	104	0	60	33569
2026-01-17 11:57:14.19	21.59	1.02	-46.9	-59.6	3.5	1.52e+00	0	26	104	0	60	33555
2026-01-17 11:57:15.20	21.68	1.07	-46.9	-59.6	3.5	1.52e+00	0	26	104	0	60	33682
2026-01-17 11:57:16.21	21.77	1.11	-46.9	-59.7	3.5	1.52e+00	0	26	104	0	60	33717
2026-01-17 11:57:17.22	21.86	1.16	-46.8	-59.6	3.5	1.51e+00	0	27	104	0	60	33469
2026-01-17 11:57:18.23	21.96	1.20	-46.8	-59.6	3.5	1.52e+00	0	26	104	0	60	33633
2026-01-17 11:57:19.24	22.05	1.25	-46.8	-59.6	3.5	1.52e+00	0	26	104	0	60	33634
2026-01-17 11:57:20.25	22.14	1.29	-46.8	-59.6	3.5	1.52e+00	0	27	104	0	60	33423
2026-01-17 11:57:21.26	22.24	1.34	-46.8	-59.6	3.5	1.52e+00	0	27	104	0	60	33691
2026-01-17 11:57:22.27	22.33	1.38	-46.8	-59.7	3.5	1.51e+00	0	27	104	0	60	33785
2026-01-17 11:57:23.28	22.42	1.43	-46.8	-59.6	3.5	1.51e+00	0	27	104	0	60	33659
2026-01-17 11:57:24.29	22.52	1.47	-46.8	-59.6	3.5	1.52e+00	0	27	104	0	60	33499
2026-01-17 11:57:25.30	22.61	1.52	-46.8	-59.6	3.5	1.52e+00	0	27	104	0	60	33460
2026-01-17 11:57:26.31	22.71	1.56	-46.8	-59.6	3.5	1.52e+00	0	27	104	0	60	33331
2026-01-17 11:57:27.32	22.80	1.61	-46.8	-59.5	3.5	1.52e+00	0	27	104	0	60	33282
2026-01-17 11:57:28.32	22.89	1.65	-46.8	-59.6	3.5	1.52e+00	0	27	104	0	60	33528
2026-01-17 11:57:29.33	22.99	1.70	-46.8	-59.6	3.5	1.52e+00	0	27	104	0	60	33446
2026-01-17 11:57:30.34	23.09	1.74	-46.8	-59.6	3.5	1.52e+00	0	27	104	0	60	33583
2026-01-17 11:57:31.35	23.18	1.79	-46.8	-59.6	3.5	1.52e+00	0	27	104	0	60	33565
2026-01-17 11:57:32.36	23.28	1.84	-46.8	-59.6	3.5	1.52e+00	0	27	104	0	60	33527
2026-01-17 11:57:33.37	23.37	1.88	-46.8	-59.6	3.5	1.52e+00	0	27	104	0	60	33691
2026-01-17 11:57:34.38	23.47	1.93	-46.8	-59.6	3.5	1.52e+00	0	27	104	0	60	33607
2026-01-17 11:57:35.40	23.57	1.97	-46.8	-59.6	3.5	1.52e+00	0	27	104	0	60	33568
2026-01-17 11:57:36.41	23.67	2.02	-46.8	-59.5	3.5	1.52e+00	0	27	104	0	60	33251
2026-01-17 11:57:37.41	23.76	2.06	-46.8	-59.6	3.5	1.52e+00	0	27	104	0	60	33480
2026-01-17 11:57:38.43	23.86	2.11	-46.8	-59.6	3.5	1.52e+00	0	27	104	0	60	33347
2026-01-17 11:57:39.44	23.96	2.15	-46.8	-59.5	3.5	1.52e+00	0	27	104	0	60	33149
2026-01-17 11:57:40.45	24.06	2.20	-46.8	-59.5	3.5	1.52e+00	0	27	104	0	60	33106
2026-01-17 11:57:41.46	24.16	2.24	-46.8	-59.6	3.5	1.51e+00	0	27	104	0	60	33424
2026-01-17 11:57:42.47	24.26	2.29	-46.8	-59.5	3.5	1.52e+00	0	27	104	0	60	33244
2026-01-17 11:57:43.48	24.36	2.34	-46.8	-59.5	3.5	1.52e+00	0	27	104	0	60	33298
2026-01-17 11:57:44.49	24.46	2.38	-46.8	-59.6	3.5	1.52e+00	0	27	104	0	60	33518
2026-01-17 11:57:45.50	24.56	2.43	-46.8	-59.5	3.5	1.52e+00	0	27	104	0	60	33063
2026-01-17 11:57:46.51	24.66	2.47	-46.7	-58.8	3.5	1.52e+00	0	27	104	0	60	30624
2026-01-17 11:57:47.52	24.76	2.52	-46.7	-58.0	3.5	1.51e+00	0	27	104	0	60	27941
2026-01-17 11:57:48.53	24.86	2.56	-46.7	-58.0	3.5	1.51e+00	0	27	104	0	60	27914
2026-01-17 11:57:49.54	24.96	2.61	-46.7	-58.0	3.5	1.51e+00	0	27	104	0	60	27720
2026-01-17 11:57:50.55	25.06	2.65	-46.3	-55.4	4.7	1.50e+00	121	27	104	0	60	20569
2026-01-17 11:57:51.56	25.16	2.70	-45.0	-49.5	8.9	1.41e-01	122	27	0	1048576	60	10463
2026-01-17 11:57:52.57	25.26	2.74	-43.3	-46.2	12.7	7.67e-04	123	27	0	4194304	60	7129
2026-01-17 11:57:53.58	25.37	2.79	-41.2	-43.1	15.7	0.00e+00	122	27	0	7340032	56	6350
2026-01-17 11:57:54.59	25.47	2.83	-40.1	-41.7	17.0	0.00e+00	123	27	0	10485760	54	6056
2026-01-17 11:57:55.60	25.57	2.88	-39.5	-41.0	17.8	0.00e+00	123	27	0	13631488	52	6216
2026-01-17 11:57:56.61	25.67	2.93	-39.6	-41.1	17.7	0.00e+00	123	27	0	16777216	52	6333
2026-01-17 11:57:57.62	25.78	2.97	-39.9	-41.5	17.1	0.00e+00	122	27	0	19922944	52	6592
2026-01-17 11:57:58.63	25.88	3.02	-41.6	-43.7	14.8	0.00e+00	123	27	0	23068672	54	7591
2026-01-17 11:57:59.63	25.99	3.06	-40.5	-42.3	14.2	0.00e+00	123	27	0	26214400	50	8139
2026-01-17 11:58:00.64	26.09	3.11	-39.0	-40.4	18.7	1.50e-06	123	27	0	29360128	52	5799
2026-01-17 11:58:01.65	26.19	3.15	-45.9	-52.5	5.3	8.69e-04	123	27	0	32505856	60	14741
2026-01-17 11:58:02.66	26.30	3.20	-46.4	-56.3	3.6	1.52e+00	0	27	104	32505856	60	23031
2026-01-17 11:58:03.67	26.40	3.24	-38.0	-39.6	18.5	1.22e-01	122	27	0	32505856	50	5965
2026-01-17 11:58:04.68	26.51	3.29	-39.9	-41.5	17.5	7.00e-07	123	27	0	35651584	54	5859
2026-01-17 11:58:05.69	26.62	3.33	-38.9	-40.3	18.7	0.00e+00	123	27	0	38797312	52	5738
2026-01-17 11:58:06.70	26.72	3.38	-38.4	-39.7	19.2	0.00e+00	122	27	0	41943040	50	6050
2026-01-17 11:58:07.71	26.83	3.43	-38.3	-39.6	19.3	0.00e+00	123	27	0	45088768	50	5971
2026-01-17 11:58:08.72	26.94	3.47	-38.0	-39.3	19.5	0.00e+00	120	27	0	48234496	50	5732
2026-01-17 11:58:09.73	27.04	3.52	-38.3	-39.6	19.2	0.00e+00	123	27	0	51380224	50	5970
2026-01-17 11:58:10.74	27.15	3.56	-38.1	-39.4	19.5	0.00e+00	123	27	0	54525952	50	5811
2026-01-17 11:58:11.75	27.26	3.61	-38.3	-39.6	19.2	0.00e+00	122	27	0	57671680	50	5950
2026-01-17 11:58:12.76	27.37	3.65	-38.3	-39.5	19.5	0.00e+00	120	27	0	60817408	50	5923
2026-01-17 11:58:13.77	27.48	3.70	-38.1	-39.3	19.5	0.00e+00	123	27	0	63963136	50	5778
2026-01-17 11:58:14.78	27.58	3.74	-38.1	-39.4	19.6	0.00e+00	123	27	0	67108864	50	5821
2026-01-17 11:58:15.79	27.69	3.79	-38.2	-39.5	19.3	0.00e+00	123	27	0	70254592	50	5892
2026-01-17 11:58:16.80	27.80	3.83	-37.9	-39.2	19.8	0.00e+00	123	27	0	73400320	50	5671
2026-01-17 11:58:17.81	27.91	3.88	-37.9	-39.1	19.8	0.00e+00	122	27	0	76546048	50	5646
2026-01-17 11:58:18.82	28.02	3.93	-37.5	-38.7	20.3	0.00e+00	121	27	0	79691776	48	6000
2026-01-17 11:58:19.82	28.13	3.97	-37.7	-38.9	20.0	0.00e+00	122	27	0	82837504	48	6154
2026-01-17 11:58:20.83	28.24	4.02	-37.9	-39.2	19.8	0.00e+00	123	27	0	85983232	48	6358
2026-01-17 11:58:21.84	28.35	4.06	-37.7	-39.0	20.0	0.00e+00	123	27	0	89128960	48	6213
2026-01-17 11:58:22.85	28.47	4.11	-38.0	-39.2	19.7	0.00e+00	122	27	0	92274688	48	6401
2026-01-17 11:58:23.86	28.58	4.15	-37.5	-38.7	20.2	0.00e+00	122	27	0	95420416	48	6039
2026-01-17 11:58:24.87	28.69	4.20	-37.9	-39.1	19.8	0.00e+00	122	27	0	98566144	48	6322
2026-01-17 11:58:25.88	28.80	4.24	-37.6	-38.8	20.2	0.00e+00	123	27	0	101711872	48	6091
2026-01-17 11:58:26.89	28.91	4.29	-37.8	-39.0	20.0	0.00e+00	122	27	0	104857600	48	6239
2026-01-17 11:58:27.90	29.03	4.33	-37.7	-38.9	20.1	0.00e+00	122	27	0	108003328	48	6144
2026-01-17 11:58:28.91	29.14	4.38	-37.7	-38.9	20.1	0.00e+00	123	27	0	111149056	48	6164
2026-01-17 11:58:29.92	29.25	4.42	-37.7	-38.9	20.1	0.00e+00	123	27	0	114294784	48	6159
2026-01-17 11:58:30.93	29.37	4.47	-37.5	-38.7	20.2	0.00e+00	123	27	0	117440512	48	6054
2026-01-17 11:58:31.94	29.48	4.51	-37.7	-38.9	20.0	0.00e+00	120	27	0	120586240	48	6141
2026-01-17 11:58:32.95	29.60	4.56	-37.6	-38.8	20.2	0.00e+00	120	27	0	123731968	48	6099
2026-01-17 11:58:33.96	29.71	4.60	-37.7	-38.9	20.1	0.00e+00	122	27	0	126877696	48	6202
2026-01-17 11:58:34.97	29.83	4.65	-37.5	-38.7	20.3	0.00e+00	122	27	0	130023424	48	6018
2026-01-17 11:58:35.98	29.94	4.69	-37.9	-39.1	20.0	0.00e+00	122	27	0	133169152	48	6290
2026-01-17 11:58:36.99	30.06	4.74	-37.4	-38.6	20.3	0.00e+00	123	27	0	136314880	48	5982
2026-01-17 11:58:38.00	30.18	4.79	-37.5	-38.7	20.3	0.00e+00	120	27	0	139460608	48	6038
2026-01-17 11:58:39.01	30.29	4.83	-37.6	-38.8	20.2	0.00e+00	123	27	0	142606336	48	6068
2026-01-17 11:58:40.02	30.41	4.88	-37.6	-38.8	20.2	0.00e+00	123	27	0	145752064	48	6073
2026-01-17 11:58:41.03	30.53	4.92	-37.4	-38.6	20.3	0.00e+00	123	27	0	148897792	48	5984
2026-01-17 11:58:42.04	30.65	4.97	-37.6	-38.7	20.3	0.00e+00	123	27	0	152043520	48	6062
2026-01-17 11:58:43.05	30.76	5.01	-37.5	-38.7	20.4	0.00e+00	123	27	0	155189248	48	6007
2026-01-17 11:58:44.06	30.88	5.06	-37.8	-39.0	20.2	0.00e+00	123	27	0	158334976	48	6217
2026-01-17 11:58:45.06	31.00	5.10	-37.9	-39.1	19.9	0.00e+00	122	27	0	161480704	48	6324
2026-01-17 11:58:46.07	31.12	5.15	-37.9	-39.1	20.0	0.00e+00	122	27	0	164626432	48	6298
2026-01-17 11:58:47.08	31.24	5.19	-37.8	-39.0	20.1	0.00e+00	122	27	0	167772160	48	6243
2026-01-17 11:58:48.09	31.36	5.24	-37.6	-38.7	20.4	0.00e+00	123	27	0	170917888	48	6050
2026-01-17 11:58:49.10	31.48	5.28	-37.4	-38.6	20.5	0.00e+00	122	27	0	174063616	48	5940
2026-01-17 11:58:50.11	31.60	5.32	-37.5	-38.7	20.5	0.00e+00	123	27	0	177209344	48	6032
2026-01-17 11:58:51.12	31.72	5.37	-37.6	-38.8	20.2	0.00e+00	122	27	0	180355072	48	6071
2026-01-17 11:58:52.13	31.84	5.41	-37.8	-39.0	20.3	0.00e+00	123	27	0	183500800	48	6240
2026-01-17 11:58:53.14	31.96	5.46	-37.9	-39.1	19.9	0.00e+00	121	27	0	186646528	48	6315
2026-01-17 11:58:54.15	32.09	5.50	-37.7	-38.9	20.2	0.00e+00	122	27	0	189792256	48	6185
2026-01-17 11:58:55.16	32.21	5.55	-38.0	-39.2	20.0	0.00e+00	120	27	0	192937984	48	6397
2026-01-17 11:58:56.17	32.33	5.59	-37.7	-38.9	20.4	0.00e+00	123	27	0	196083712	48	6140
2026-01-17 11:58:57.19	32.46	5.64	-37.9	-39.1	20.0	0.00e+00	120	27	0	199229440	48	6323
2026-01-17 11:58:58.20	32.58	5.68	-37.9	-39.2	19.9	0.00e+00	122	27	0	202375168	48	6358
2026-01-17 11:58:59.20	32.70	5.73	-37.4	-38.6	20.6	0.00e+00	123	27	0	205520896	48	5928
2026-01-17 11:59:00.21	32.83	5.77	-37.2	-38.3	20.8	0.00e+00	120	27	0	208666624	48	5760
2026-01-17 11:59:01.22	32.95	5.82	-37.1	-38.2	20.9	0.00e+00	120	27	0	211812352	48	5709
2026-01-17 11:59:02.23	33.08	5.86	-37.1	-38.2	20.8	0.00e+00	120	27	0	214958080	48	5690
2026-01-17 11:59:03.24	33.20	5.91	-37.0	-38.1	20.9	0.00e+00	122	27	0	218103808	48	5645
2026-01-17 11:59:04.25	33.33	5.95	-36.9	-38.1	21.0	0.00e+00	123	27	0	221249536	48	5605
2026-01-17 11:59:05.26	33.45	5.99	-37.1	-38.3	20.9	0.00e+00	122	27	0	224395264	48	5738
2026-01-17 11:59:06.27	33.58	6.04	-37.1	-38.2	21.0	0.00e+00	120	27	0	227540992	48	5676
2026-01-17 11:59:07.28	33.71	6.08	-36.9	-38.1	21.0	0.00e+00	123	27	0	230686720	48	5596
2026-01-17 11:59:08.29	33.83	6.13	-37.0	-38.1	21.0	0.00e+00	123	27	0	233832448	48	5646
2026-01-17 11:59:09.30	33.96	6.17	-36.9	-38.1	21.0	0.00e+00	122	27	0	236978176	48	5603
2026-01-17 11:59:10.31	34.09	6.22	-36.9	-38.0	21.1	0.00e+00	123	27	0	240123904	48	5591
2026-01-17 11:59:11.32	34.22	6.26	-37.0	-38.1	21.0	0.00e+00	123	27	0	243269632	48	5641
2026-01-17 11:59:12.33	34.35	6.30	-37.3	-38.4	20.7	0.00e+00	120	27	0	246415360	48	5841
2026-01-17 11:59:13.34	34.48	6.35	-37.3	-38.4	20.8	0.00e+00	123	27	0	249561088	48	5828
2026-01-17 11:59:14.34	34.60	6.39	-37.4	-38.6	20.7	0.00e+00	125	27	0	252706816	48	5958
2026-01-17 11:59:15.35	34.73	6.44	-37.1	-38.2	20.8	0.00e+00	122	27	0	255852544	48	5711
2026-01-17 11:59:16.36	34.86	6.48	-37.3	-38.5	20.7	0.00e+00	123	27	0	258998272	48	5881
2026-01-17 11:59:17.37	34.99	6.52	-37.2	-38.3	20.7	0.00e+00	122	27	0	262144000	48	5772
2026-01-17 11:59:18.38	35.12	6.57	-37.4	-38.6	20.8	0.00e+00	121	27	0	265289728	48	5941
2026-01-17 11:59:19.39	35.26	6.61	-37.1	-38.3	20.9	0.00e+00	123	27	0	268435456	48	5728
2026-01-17 11:59:20.40	35.39	6.66	-36.8	-37.9	21.3	0.00e+00	122	27	0	271581184	48	5469
2026-01-17 11:59:21.41	35.52	6.70	-36.8	-37.9	21.2	0.00e+00	123	27	0	274726912	48	5482
2026-01-17 11:59:22.42	35.65	6.74	-36.7	-37.7	21.5	0.00e+00	122	27	0	277872640	46	6055
2026-01-17 11:59:23.43	35.79	6.79	-36.6	-37.7	21.5	0.00e+00	122	27	0	281018368	46	6027
2026-01-17 11:59:24.44	35.92	6.83	-36.6	-37.7	21.5	0.00e+00	123	27	0	284164096	46	6016
2026-01-17 11:59:25.45	36.05	6.87	-36.9	-38.0	21.2	0.00e+00	122	27	0	287309824	46	6240
2026-01-17 11:59:26.46	36.19	6.92	-36.8	-37.9	21.2	0.00e+00	120	27	0	290455552	46	6173
2026-01-17 11:59:27.47	36.32	6.96	-36.8	-37.9	21.3	0.00e+00	122	27	0	293601280	46	6155
2026-01-17 11:59:28.48	36.45	7.00	-36.6	-37.6	21.5	0.00e+00	120	27	0	296747008	46	5992
2026-01-17 11:59:29.49	36.59	7.05	-36.6	-37.7	21.6	0.00e+00	120	27	0	299892736	46	6032
2026-01-17 11:59:30.49	36.72	7.09	-36.7	-37.7	21.4	0.00e+00	122	27	0	303038464	46	6037
2026-01-17 11:59:31.50	36.86	7.13	-36.5	-37.6	21.6	0.00e+00	123	27	0	306184192	46	5938
2026-01-17 11:59:32.51	37.00	7.18	-36.7	-37.8	21.4	0.00e+00	121	27	0	309329920	46	6083
2026-01-17 11:59:33.52	37.13	7.22	-36.7	-37.7	21.5	0.00e+00	123	27	0	312475648	46	6054
2026-01-17 11:59:34.53	37.27	7.26	-36.6	-37.7	21.5	0.00e+00	123	27	0	315621376	46	6011
2026-01-17 11:59:35.54	37.41	7.30	-36.5	-37.5	21.7	0.00e+00	123	27	0	318767104	46	5905
2026-01-17 11:59:36.55	37.55	7.35	-36.6	-37.7	21.5	0.00e+00	123	27	0	321912832	46	5995
2026-01-17 11:59:37.56	37.68	7.39	-36.5	-37.5	21.7	0.00e+00	123	27	0	325058560	46	5909
2026-01-17 11:59:38.57	37.82	7.43	-36.5	-37.6	21.7	0.00e+00	123	27	0	328204288	46	5954
2026-01-17 11:59:39.58	37.96	7.48	-36.4	-37.5	21.7	0.00e+00	123	27	0	331350016	46	5880
2026-01-17 11:59:40.59	38.10	7.52	-36.5	-37.6	21.6	0.00e+00	123	27	0	334495744	46	5956
2026-01-17 11:59:41.60	38.24	7.56	-36.5	-37.5	21.6	0.00e+00	123	27	0	338690048	46	5917
2026-01-17 11:59:42.61	38.38	7.60	-36.5	-37.5	21.7	0.00e+00	120	27	0	340787200	46	5926
2026-01-17 11:59:43.62	38.52	7.65	-36.4	-37.4	21.6	0.00e+00	123	27	0	343932928	46	5852
2026-01-17 11:59:44.63	38.66	7.69	-36.6	-37.6	21.6	0.00e+00	122	27	0	347078656	46	5974
2026-01-17 11:59:45.64	38.80	7.73	-36.6	-37.7	21.5	0.00e+00	123	27	0	350224384	46	6042
2026-01-17 11:59:46.65	38.95	7.77	-36.5	-37.5	21.7	0.00e+00	122	27	0	354418688	46	5905
2026-01-17 11:59:47.66	39.09	7.81	-36.4	-37.5	21.7	0.00e+00	123	27	0	357564416	46	5865
2026-01-17 11:59:48.67	39.23	7.86	-36.5	-37.5	21.7	0.00e+00	120	27	0	360710144	46	5909
2026-01-17 11:59:49.68	39.37	7.90	-36.3	-37.4	21.8	0.00e+00	123	27	0	362807296	46	5808
2026-01-17 11:59:50.69	39.52	7.94	-36.3	-37.4	21.8	0.00e+00	120	27	0	365953024	46	5818
2026-01-17 11:59:51.70	39.66	7.98	-36.3	-37.3	21.8	0.00e+00	123	27	0	370147328	46	5785
2026-01-17 11:59:52.71	39.80	8.02	-36.3	-37.3	21.9	0.00e+00	121	27	0	373293056	46	5769
2026-01-17 11:59:53.72	39.95	8.06	-36.3	-37.4	21.9	0.00e+00	123	27	0	376438784	46	5817
2026-01-17 11:59:54.73	40.09	8.11	-36.4	-37.4	21.9	0.00e+00	123	27	0	379584512	46	5852
2026-01-17 11:59:55.74	40.24	8.15	-36.3	-37.4	21.9	0.00e+00	123	27	0	382730240	46	5821
2026-01-17 11:59:56.76	40.39	8.19	-36.4	-37.4	21.8	0.00e+00	123	27	0	385875968	46	5831
2026-01-17 11:59:57.76	40.53	8.23	-36.5	-37.5	21.8	0.00e+00	123	27	0	389021696	46	5917
2026-01-17 11:59:58.77	40.68	8.27	-36.2	-37.3	22.0	0.00e+00	120	27	0	392167424	46	5734
2026-01-17 11:59:59.78	40.83	8.31	-36.2	-37.3	22.0	0.00e+00	122	27	0	395313152	46	5750
2026-01-17 12:00:00.79	40.97	8.35	-36.2	-37.3	21.9	0.00e+00	120	27	0	398458880	46	5726
2026-01-17 12:00:01.80	41.12	8.39	-36.3	-37.3	22.0	0.00e+00	122	27	0	401604608	46	5774
2026-01-17 12:00:02.81	41.27	8.43	-36.1	-37.1	22.1	0.00e+00	120	27	0	404750336	46	5637
2026-01-17 12:00:03.82	41.42	8.47	-36.0	-37.0	22.2	0.00e+00	123	27	0	407896064	46	5588
2026-01-17 12:00:04.83	41.57	8.52	-36.2	-37.2	22.1	0.00e+00	120	27	0	411041792	46	5698
2026-01-17 12:00:05.84	41.72	8.56	-36.1	-37.1	22.1	0.00e+00	123	27	0	414187520	46	5658
2026-01-17 12:00:06.85	41.86	8.60	-36.2	-37.3	22.0	0.00e+00	122	27	0	417333248	46	5750
2026-01-17 12:00:07.86	42.02	8.64	-36.0	-37.1	22.2	0.00e+00	122	27	0	420478976	46	5609
2026-01-17 12:00:08.87	42.17	8.68	-36.1	-37.2	22.1	0.00e+00	123	27	0	423624704	46	5674
2026-01-17 12:00:09.88	42.32	8.72	-36.1	-37.1	22.2	0.00e+00	123	27	0	426770432	46	5621
2026-01-17 12:00:10.89	42.47	8.76	-36.1	-37.1	22.1	0.00e+00	120	27	0	429916160	46	5644
2026-01-17 12:00:11.90	42.62	8.80	-36.3	-37.3	22.0	0.00e+00	122	27	0	433061888	46	5775
2026-01-17 12:00:12.91	42.77	8.84	-36.5	-37.5	21.8	0.00e+00	122	27	0	436207616	46	5902
2026-01-17 12:00:13.92	42.92	8.88	-36.3	-37.3	22.1	0.00e+00	122	27	0	439353344	46	5751
2026-01-17 12:00:14.93	43.08	8.91	-36.1	-37.1	22.1	0.00e+00	120	27	0	442499072	46	5655
2026-01-17 12:00:15.94	43.23	8.95	-36.3	-37.3	22.1	0.00e+00	123	27	0	445644800	46	5767
2026-01-17 12:00:16.95	43.38	8.99	-35.9	-37.0	22.3	0.00e+00	123	27	0	448790528	46	5536
2026-01-17 12:00:17.96	43.54	9.03	-36.0	-37.0	22.3	0.00e+00	120	27	0	451936256	46	5540
2026-01-17 12:00:18.97	43.69	9.07	-36.0	-37.0	22.3	0.00e+00	122	27	0	455081984	46	5540
2026-01-17 12:00:19.98	43.85	9.11	-35.9	-36.9	22.4	0.00e+00	122	27	0	458227712	46	5484
2026-01-17 12:00:20.99	44.00	9.15	-35.8	-36.8	22.4	0.00e+00	122	28	0	461373440	46	5427
2026-01-17 12:00:22.00	44.16	9.19	-35.7	-36.7	22.5	0.00e+00	123	27	0	464519168	44	6007
2026-01-17 12:00:23.01	44.32	9.23	-35.8	-36.8	22.5	0.00e+00	122	28	0	467664896	44	6075
2026-01-17 12:00:24.01	44.47	9.26	-35.7	-36.7	22.5	0.00e+00	122	28	0	470810624	44	6041
2026-01-17 12:00:25.02	44.63	9.30	-35.8	-36.8	22.3	0.00e+00	120	28	0	473956352	44	6124
2026-01-17 12:00:26.03	44.78	9.34	-35.8	-36.8	22.4	0.00e+00	123	27	0	477102080	44	6131
2026-01-17 12:00:27.04	44.94	9.38	-35.9	-36.9	22.4	0.00e+00	123	27	0	480247808	44	6138
2026-01-17 12:00:28.05	45.10	9.42	-36.0	-37.0	22.3	0.00e+00	120	27	0	483393536	44	6226
2026-01-17 12:00:29.06	45.26	9.45	-36.0	-37.0	22.2	0.00e+00	122	27	0	486539264	44	6240
2026-01-17 12:00:30.07	45.42	9.49	-36.1	-37.1	22.2	0.00e+00	122	27	0	489684992	44	6318
2026-01-17 12:00:31.08	45.58	9.53	-36.0	-37.0	22.3	0.00e+00	123	27	0	492830720	44	6265
2026-01-17 12:00:32.09	45.74	9.57	-36.0	-37.0	22.3	0.00e+00	123	27	0	495976448	44	6249
2026-01-17 12:00:33.10	45.90	9.60	-36.1	-37.2	22.1	0.00e+00	122	27	0	499122176	44	6361
2026-01-17 12:00:34.12	46.06	9.64	-36.1	-37.1	22.2	0.00e+00	123	27	0	502267904	44	6328
2026-01-17 12:00:35.12	46.22	9.68	-36.1	-37.2	22.2	0.00e+00	123	27	0	505413632	44	6367
2026-01-17 12:00:36.13	46.38	9.71	-36.1	-37.1	22.2	0.00e+00	123	27	0	508559360	44	6296
2026-01-17 12:00:37.14	46.54	9.75	-36.1	-37.1	22.3	0.00e+00	123	28	0	511705088	44	6310
2026-01-17 12:00:38.15	46.70	9.79	-36.0	-37.0	22.3	0.00e+00	122	27	0	514850816	44	6265
2026-01-17 12:00:39.16	46.87	9.82	-36.0	-37.0	22.3	0.00e+00	122	27	0	517996544	44	6236
2026-01-17 12:00:40.18	47.03	9.86	-35.8	-36.8	22.4	0.00e+00	123	27	0	521142272	44	6118
2026-01-17 12:00:41.19	47.19	9.90	-36.0	-37.0	22.4	0.00e+00	120	27	0	524288000	44	6209
2026-01-17 12:00:42.20	47.36	9.93	-36.0	-37.0	22.3	0.00e+00	122	27	0	527433728	44	6249
2026-01-17 12:00:43.21	47.52	9.97	-36.0	-37.0	22.3	0.00e+00	123	28	0	530579456	44	6251
2026-01-17 12:00:44.22	47.69	10.00	-36.0	-37.1	22.1	0.00e+00	123	28	0	533725184	44	6287
2026-01-17 12:00:45.23	47.85	10.04	-35.9	-36.9	22.3	0.00e+00	122	27	0	536870912	44	6204
2026-01-17 12:00:46.24	48.02	10.08	-35.8	-36.8	22.4	0.00e+00	122	27	0	540016640	44	6134
2026-01-17 12:00:47.25	48.18	10.11	-36.0	-37.1	22.3	0.00e+00	123	27	0	543162368	44	6284
2026-01-17 12:00:48.26	48.35	10.15	-36.1	-37.1	22.1	0.00e+00	123	27	0	546308096	44	6318
2026-01-17 12:00:49.27	48.52	10.18	-36.0	-37.0	22.3	0.00e+00	123	27	0	549453824	44	6227
2026-01-17 12:00:50.28	48.68	10.21	-35.9	-36.9	22.4	0.00e+00	122	27	0	552599552	44	6153
2026-01-17 12:00:51.29	48.85	10.25	-35.9	-36.9	22.3	0.00e+00	123	28	0	555745280	44	6183
2026-01-17 12:00:52.29	49.02	10.28	-35.9	-37.0	22.3	0.00e+00	123	27	0	558891008	44	6218
2026-01-17 12:00:53.30	49.18	10.32	-35.9	-36.9	22.4	0.00e+00	122	27	0	562036736	44	6201
2026-01-17 12:00:54.31	49.35	10.35	-35.8	-36.8	22.4	0.00e+00	123	28	0	565182464	44	6109
2026-01-17 12:00:55.32	49.52	10.39	-35.9	-36.9	22.4	0.00e+00	122	28	0	568328192	44	6142
2026-01-17 12:00:56.33	49.69	10.42	-35.8	-36.8	22.4	0.00e+00	120	27	0	571473920	44	6113
2026-01-17 12:00:57.34	49.86	10.45	-35.9	-36.9	22.3	0.00e+00	123	27	0	574619648	44	6199
2026-01-17 12:00:58.35	50.03	10.49	-36.0	-37.0	22.3	0.00e+00	123	27	0	577765376	44	6246
2026-01-17 12:00:59.36	50.20	10.52	-36.0	-37.0	22.3	0.00e+00	122	27	0	580911104	44	6252
2026-01-17 12:01:00.37	50.37	10.55	-35.9	-37.0	22.3	0.00e+00	122	27	0	584056832	44	6208
2026-01-17 12:01:01.38	50.54	10.58	-36.0	-37.0	22.3	0.00e+00	122	28	0	587202560	44	6216
2026-01-17 12:01:02.40	50.71	10.62	-36.0	-37.1	22.3	0.00e+00	122	27	0	590348288	44	6287
2026-01-17 12:01:03.41	50.88	10.65	-36.2	-37.2	22.2	0.00e+00	122	28	0	593494016	44	6382
2026-01-17 12:01:04.41	51.06	10.68	-36.1	-37.2	22.2	0.00e+00	122	27	0	596639744	44	6379
2026-01-17 12:01:05.42	51.23	10.71	-36.1	-37.2	22.1	0.00e+00	122	27	0	599785472	44	6370
2026-01-17 12:01:06.43	51.40	10.75	-36.1	-37.2	22.2	0.00e+00	122	27	0	602931200	44	6362
2026-01-17 12:01:07.44	51.57	10.78	-36.0	-37.0	22.4	0.00e+00	122	27	0	606076928	44	6218
2026-01-17 12:01:08.45	51.75	10.81	-36.1	-37.1	22.3	0.00e+00	120	27	0	609222656	44	6298
2026-01-17 12:01:09.46	51.92	10.84	-36.0	-37.0	22.3	0.00e+00	123	27	0	612368384	44	6272
2026-01-17 12:01:10.47	52.10	10.87	-35.9	-37.0	22.4	0.00e+00	122	27	0	615514112	44	6208
2026-01-17 12:01:11.48	52.27	10.90	-36.0	-37.0	22.3	0.00e+00	122	27	0	618659840	44	6239
2026-01-17 12:01:12.49	52.45	10.93	-35.9	-36.9	22.5	0.00e+00	123	27	0	621805568	44	6168
2026-01-17 12:01:13.50	52.62	10.96	-35.9	-36.9	22.5	0.00e+00	120	27	0	624951296	44	6151
2026-01-17 12:01:14.51	52.80	10.99	-35.8	-36.8	22.5	0.00e+00	123	27	0	628097024	44	6109
2026-01-17 12:01:15.52	52.97	11.02	-35.8	-36.8	22.6	0.00e+00	123	27	0	631242752	44	6102
2026-01-17 12:01:16.53	53.15	11.05	-35.8	-36.8	22.6	0.00e+00	122	27	0	634388480	44	6110
2026-01-17 12:01:17.54	53.33	11.08	-35.9	-36.9	22.5	0.00e+00	123	27	0	637534208	44	6174
2026-01-17 12:01:18.55	53.50	11.11	-35.9	-36.9	22.5	0.00e+00	120	27	0	640679936	44	6172
2026-01-17 12:01:19.56	53.68	11.14	-35.9	-36.9	22.3	0.00e+00	120	27	0	643825664	44	6153
2026-01-17 12:01:20.57	53.86	11.17	-35.9	-36.9	22.4	0.00e+00	123	27	0	646971392	44	6160
2026-01-17 12:01:21.58	54.04	11.20	-36.0	-37.0	22.2	0.00e+00	122	28	0	650117120	44	6260
2026-01-17 12:01:22.59	54.21	11.23	-36.1	-37.1	22.5	0.00e+00	122	27	0	653262848	44	6301
2026-01-17 12:01:23.60	54.39	11.26	-36.1	-37.1	22.3	0.00e+00	122	27	0	656408576	44	6298
2026-01-17 12:01:24.61	54.57	11.29	-36.0	-37.0	22.3	0.00e+00	123	27	0	659554304	44	6230
2026-01-17 12:01:25.62	54.75	11.31	-35.7	-36.7	22.5	0.00e+00	123	27	0	662700032	44	6052
2026-01-17 12:01:26.63	54.93	11.34	-35.7	-36.7	22.5	0.00e+00	121	27	0	665845760	44	6044
2026-01-17 12:01:27.64	55.11	11.37	-35.8	-36.8	22.4	0.00e+00	123	27	0	668991488	44	6126
2026-01-17 12:01:28.65	55.29	11.40	-35.8	-36.8	22.5	0.00e+00	122	28	0	673185792	44	6113
2026-01-17 12:01:29.66	55.47	11.42	-35.7	-36.7	22.7	0.00e+00	123	28	0	676331520	44	6030
2026-01-17 12:01:30.67	55.65	11.45	-35.7	-36.7	22.7	0.00e+00	123	28	0	678428672	44	6010
2026-01-17 12:01:31.68	55.84	11.48	-35.6	-36.5	22.8	0.00e+00	122	27	0	681574400	44	5925
2026-01-17 12:01:32.69	56.02	11.50	-35.6	-36.6	22.8	0.00e+00	122	27	0	684720128	44	5950
2026-01-17 12:01:33.70	56.20	11.53	-35.5	-36.5	22.8	0.00e+00	122	27	0	688914432	44	5892
2026-01-17 12:01:34.71	56.38	11.56	-35.6	-36.6	22.7	0.00e+00	122	27	0	692060160	44	5970
2026-01-17 12:01:35.72	56.57	11.58	-35.7	-36.7	22.6	0.00e+00	122	27	0	695205888	44	6032
2026-01-17 12:01:36.73	56.75	11.61	-35.7	-36.7	22.5	0.00e+00	120	27	0	698351616	44	6053
2026-01-17 12:01:37.74	56.93	11.63	-35.7	-36.8	22.6	0.00e+00	122	27	0	701497344	44	6074
2026-01-17 12:01:38.75	57.12	11.66	-35.9	-36.9	22.5	0.00e+00	120	28	0	703594496	44	6150
2026-01-17 12:01:39.76	57.30	11.68	-35.8	-36.8	22.6	0.00e+00	123	27	0	707788800	44	6078
2026-01-17 12:01:40.77	57.48	11.71	-35.8	-36.8	22.5	0.00e+00	123	28	0	710934528	44	6127
2026-01-17 12:01:41.78	57.67	11.73	-35.8	-36.8	22.5	0.00e+00	123	27	0	714080256	44	6116
2026-01-17 12:01:42.79	57.85	11.76	-35.7	-36.7	22.7	0.00e+00	123	28	0	717225984	44	6023
2026-01-17 12:01:43.80	58.04	11.78	-35.6	-36.6	22.7	0.00e+00	122	27	0	720371712	44	5937
2026-01-17 12:01:44.81	58.22	11.80	-35.5	-36.5	22.8	0.00e+00	123	27	0	723517440	44	5903
2026-01-17 12:01:45.82	58.41	11.83	-35.6	-36.6	22.7	0.00e+00	122	27	0	726663168	44	5960
2026-01-17 12:01:46.82	58.59	11.85	-35.5	-36.6	22.7	0.00e+00	122	27	0	729808896	44	5930
2026-01-17 12:01:47.83	58.78	11.87	-35.6	-36.6	22.6	0.00e+00	123	27	0	732954624	44	5953
2026-01-17 12:01:48.84	58.97	11.90	-35.6	-36.5	22.7	0.00e+00	122	27	0	736100352	44	5919
2026-01-17 12:01:49.85	59.15	11.92	-35.6	-36.6	22.6	0.00e+00	123	28	0	739246080	44	5983
2026-01-17 12:01:50.86	59.34	11.94	-35.6	-36.6	22.7	0.00e+00	122	27	0	742391808	44	5943
2026-01-17 12:01:51.87	59.53	11.96	-35.7	-36.7	22.6	0.00e+00	122	28	0	745537536	44	6036
2026-01-17 12:01:52.88	59.72	11.98	-35.7	-36.7	22.7	0.00e+00	123	28	0	748683264	44	6044
2026-01-17 12:01:53.89	59.90	12.01	-35.7	-36.6	22.7	0.00e+00	122	28	0	751828992	44	5989
2026-01-17 12:01:54.90	60.09	12.03	-35.5	-36.5	22.8	0.00e+00	123	28	0	754974720	44	5896
2026-01-17 12:01:55.91	60.28	12.05	-35.5	-36.4	22.9	0.00e+00	122	27	0	758120448	44	5858
2026-01-17 12:01:56.92	60.47	12.07	-35.4	-36.3	23.0	0.00e+00	120	27	0	761266176	44	5783
2026-01-17 12:01:57.93	60.66	12.09	-35.5	-36.5	22.9	0.00e+00	123	27	0	764411904	44	5897
2026-01-17 12:01:58.94	60.85	12.11	-35.5	-36.5	22.8	0.00e+00	122	28	0	767557632	44	5882
2026-01-17 12:01:59.95	61.04	12.13	-35.8	-36.8	22.5	0.00e+00	120	27	0	770703360	44	6081
2026-01-17 12:02:00.96	61.23	12.15	-35.8	-36.8	22.4	0.00e+00	123	27	0	773849088	44	6099
2026-01-17 12:02:01.97	61.42	12.17	-35.8	-36.9	22.4	0.00e+00	123	27	0	776994816	44	6137
2026-01-17 12:02:02.98	61.61	12.19	-35.9	-36.9	22.4	0.00e+00	121	27	0	780140544	44	6186
2026-01-17 12:02:03.99	61.80	12.21	-35.7	-36.7	22.6	0.00e+00	122	28	0	783286272	44	6048
2026-01-17 12:02:05.00	61.99	12.22	-35.7	-36.7	22.6	0.00e+00	123	27	0	786432000	44	6033
2026-01-17 12:02:06.01	62.18	12.24	-35.5	-36.5	22.7	0.00e+00	123	27	0	789577728	44	5895
2026-01-17 12:02:07.02	62.37	12.26	-35.3	-36.3	22.9	0.00e+00	123	27	0	792723456	44	5769
2026-01-17 12:02:08.03	62.56	12.28	-35.4	-36.4	22.9	0.00e+00	122	28	0	795869184	44	5806
2026-01-17 12:02:09.04	62.75	12.30	-35.3	-36.3	22.9	0.00e+00	123	27	0	799014912	44	5751
2026-01-17 12:02:10.04	62.94	12.31	-35.3	-36.3	22.9	0.00e+00	122	27	0	802160640	44	5760
2026-01-17 12:02:11.05	63.14	12.33	-35.3	-36.3	23.0	0.00e+00	120	28	0	805306368	44	5736
2026-01-17 12:02:12.06	63.33	12.35	-35.2	-36.2	23.0	0.00e+00	122	27	0	808452096	44	5712
2026-01-17 12:02:13.07	63.52	12.36	-35.4	-36.3	22.9	0.00e+00	122	27	0	811597824	44	5788
2026-01-17 12:02:14.08	63.71	12.38	-35.5	-36.5	22.7	0.00e+00	120	28	0	814743552	44	5923
2026-01-17 12:02:15.09	63.91	12.39	-35.5	-36.5	22.8	0.00e+00	123	27	0	817889280	44	5906
2026-01-17 12:02:16.10	64.10	12.41	-35.5	-36.5	22.8	0.00e+00	122	27	0	821035008	44	5870
2026-01-17 12:02:17.11	64.29	12.42	-35.5	-36.5	22.8	0.00e+00	121	27	0	824180736	44	5892
2026-01-17 12:02:18.12	64.49	12.44	-35.6	-36.5	22.8	0.00e+00	123	28	0	827326464	44	5925
2026-01-17 12:02:19.14	64.68	12.45	-35.5	-36.5	22.8	0.00e+00	123	28	0	830472192	44	5902
2026-01-17 12:02:20.15	64.88	12.47	-35.5	-36.5	22.8	0.00e+00	123	28	0	833617920	44	5869
2026-01-17 12:02:21.15	65.07	12.48	-35.5	-36.5	22.8	0.00e+00	123	27	0	836763648	44	5867
2026-01-17 12:02:22.16	65.26	12.50	-35.5	-36.4	22.8	0.00e+00	123	27	0	839909376	44	5858
2026-01-17 12:02:23.17	65.46	12.51	-35.5	-36.5	22.8	0.00e+00	123	27	0	843055104	44	5883
2026-01-17 12:02:24.18	65.65	12.52	-35.7	-36.7	22.7	0.00e+00	123	27	0	846200832	44	6021
2026-01-17 12:02:25.19	65.85	12.54	-35.7	-36.7	22.7	0.00e+00	123	27	0	849346560	44	6029
2026-01-17 12:02:26.20	66.04	12.55	-35.7	-36.7	22.7	0.00e+00	122	28	0	852492288	44	6052
2026-01-17 12:02:27.21	66.24	12.56	-35.6	-36.6	22.8	0.00e+00	123	28	0	855638016	44	5941
2026-01-17 12:02:28.22	66.43	12.57	-35.7	-36.7	22.7	0.00e+00	123	28	0	858783744	44	6055
2026-01-17 12:02:29.23	66.63	12.58	-35.7	-36.7	22.7	0.00e+00	123	27	0	861929472	44	6008
2026-01-17 12:02:30.23	66.82	12.59	-35.6	-36.6	22.9	0.00e+00	122	28	0	865075200	44	5940
2026-01-17 12:02:31.24	67.02	12.61	-35.6	-36.6	22.8	0.00e+00	122	28	0	868220928	44	5966
2026-01-17 12:02:32.25	67.21	12.62	-35.6	-36.6	22.8	0.00e+00	123	27	0	871366656	44	5936
2026-01-17 12:02:33.26	67.41	12.63	-35.5	-36.5	22.8	0.00e+00	122	28	0	874512384	44	5911
2026-01-17 12:02:34.27	67.61	12.64	-35.6	-36.6	22.7	0.00e+00	123	28	0	877658112	44	5951
2026-01-17 12:02:35.28	67.80	12.65	-35.5	-36.5	22.8	0.00e+00	123	27	0	880803840	44	5872
2026-01-17 12:02:36.29	68.00	12.66	-35.5	-36.4	22.8	0.00e+00	122	27	0	883949568	44	5854
2026-01-17 12:02:37.30	68.20	12.67	-35.4	-36.3	22.8	0.00e+00	122	27	0	887095296	44	5771
2026-01-17 12:02:38.31	68.39	12.68	-35.3	-36.3	22.9	0.00e+00	123	27	0	890241024	44	5733
2026-01-17 12:02:39.32	68.59	12.68	-35.1	-36.1	23.0	0.00e+00	123	27	0	893386752	44	5623
2026-01-17 12:02:40.33	68.79	12.69	-35.2	-36.2	23.0	0.00e+00	122	28	0	896532480	44	5662
2026-01-17 12:02:41.34	68.98	12.70	-35.2	-36.2	23.0	0.00e+00	122	28	0	899678208	44	5666
2026-01-17 12:02:42.35	69.18	12.71	-35.2	-36.2	23.0	0.00e+00	122	28	0	902823936	44	5669
2026-01-17 12:02:43.36	69.38	12.72	-35.2	-36.1	23.0	0.00e+00	122	28	0	905969664	44	5657
2026-01-17 12:02:44.37	69.58	12.72	-35.4	-36.4	23.0	0.00e+00	122	28	0	909115392	44	5804
2026-01-17 12:02:45.38	69.77	12.73	-35.3	-36.3	22.9	0.00e+00	122	28	0	912261120	44	5739
2026-01-17 12:02:46.39	69.97	12.74	-35.3	-36.3	23.0	0.00e+00	123	27	0	915406848	44	5768
2026-01-17 12:02:47.40	70.17	12.74	-35.2	-36.2	23.0	0.00e+00	122	28	0	918552576	44	5672
2026-01-17 12:02:48.41	70.37	12.75	-35.2	-36.2	23.0	0.00e+00	122	28	0	921698304	44	5668
2026-01-17 12:02:49.42	70.56	12.75	-35.3	-36.3	23.0	0.00e+00	120	27	0	924844032	44	5729
2026-01-17 12:02:50.43	70.76	12.76	-35.3	-36.3	22.9	0.00e+00	123	27	0	927989760	44	5778
2026-01-17 12:02:51.44	70.96	12.76	-35.4	-36.4	22.8	0.00e+00	120	28	0	931135488	44	5824
2026-01-17 12:02:52.45	71.16	12.77	-35.3	-36.3	23.0	0.00e+00	121	28	0	934281216	44	5760
2026-01-17 12:02:53.46	71.36	12.77	-35.2	-36.1	23.1	0.00e+00	122	27	0	937426944	44	5651
2026-01-17 12:02:54.47	71.55	12.78	-35.2	-36.2	23.0	0.00e+00	121	27	0	940572672	44	5690
2026-01-17 12:02:55.48	71.75	12.78	-35.1	-36.1	23.2	0.00e+00	122	28	0	943718400	44	5628
2026-01-17 12:02:56.49	71.95	12.78	-35.3	-36.2	23.1	0.00e+00	122	27	0	946864128	44	5723
2026-01-17 12:02:57.50	72.15	12.79	-35.2	-36.2	23.1	0.00e+00	123	28	0	950009856	44	5669
2026-01-17 12:02:58.51	72.35	12.79	-35.1	-36.0	23.2	0.00e+00	123	28	0	953155584	44	5580
2026-01-17 12:02:59.51	72.54	12.79	-35.1	-36.0	23.2	0.00e+00	123	27	0	956301312	44	5571
2026-01-17 12:03:00.53	72.75	12.80	-35.0	-36.0	23.2	0.00e+00	123	27	0	959447040	44	5550
2026-01-17 12:03:01.53	72.94	12.80	-35.1	-36.0	23.2	0.00e+00	122	28	0	962592768	44	5583
2026-01-17 12:03:02.54	73.14	12.80	-35.2	-36.2	23.0	0.00e+00	123	27	0	965738496	44	5686
2026-01-17 12:03:03.55	73.34	12.80	-35.2	-36.2	23.0	0.00e+00	122	28	0	968884224	44	5707
2026-01-17 12:03:04.56	73.54	12.80	-35.3	-36.3	23.0	0.00e+00	123	28	0	972029952	44	5753
2026-01-17 12:03:05.57	73.74	12.80	-35.2	-36.1	23.1	0.00e+00	123	28	0	975175680	44	5654
2026-01-17 12:03:06.58	73.93	12.80	-35.2	-36.1	23.1	0.00e+00	123	27	0	978321408	44	5645
2026-01-17 12:03:07.59	74.13	12.80	-35.0	-36.0	23.2	0.00e+00	122	28	0	981467136	44	5566
2026-01-17 12:03:08.60	74.33	12.80	-35.3	-36.2	23.0	0.00e+00	121	28	0	984612864	44	5721
2026-01-17 12:03:09.61	74.53	12.80	-35.0	-36.0	23.2	0.00e+00	123	28	0	987758592	44	5546
2026-01-17 12:03:10.62	74.73	12.80	-35.2	-36.1	23.1	0.00e+00	122	28	0	990904320	44	5646
2026-01-17 12:03:11.63	74.93	12.80	-35.1	-36.1	23.1	0.00e+00	122	28	0	994050048	44	5597
2026-01-17 12:03:12.64	75.13	12.80	-35.2	-36.1	23.1	0.00e+00	123	27	0	997195776	44	5655
2026-01-17 12:03:13.65	75.32	12.80	-35.2	-36.1	23.1	0.00e+00	123	28	0	1000341504	44	5645
2026-01-17 12:03:14.66	75.52	12.79	-35.1	-36.1	23.1	0.00e+00	122	28	0	1003487232	44	5632
2026-01-17 12:03:15.67	75.72	12.79	-35.2	-36.2	23.0	0.00e+00	123	28	0	1006632960	44	5693
2026-01-17 12:03:16.68	75.92	12.79	-35.3	-36.3	23.0	0.00e+00	122	28	0	1009778688	44	5743
2026-01-17 12:03:17.69	76.12	12.79	-35.3	-36.3	22.9	0.00e+00	123	28	0	1012924416	44	5771
2026-01-17 12:03:18.70	76.32	12.78	-35.4	-36.4	22.8	0.00e+00	123	27	0	1016070144	44	5816
2026-01-17 12:03:19.71	76.51	12.78	-35.4	-36.4	22.8	0.00e+00	123	28	0	1019215872	44	5856
2026-01-17 12:03:20.72	76.71	12.78	-35.5	-36.5	22.7	0.00e+00	120	28	0	1022361600	44	5885
2026-01-17 12:03:21.73	76.91	12.77	-35.5	-36.5	22.7	0.00e+00	122	28	0	1025507328	44	5899
2026-01-17 12:03:22.74	77.11	12.77	-35.5	-36.5	22.6	0.00e+00	123	28	0	1028653056	44	5896
2026-01-17 12:03:23.75	77.31	12.76	-35.6	-36.6	22.6	0.00e+00	123	27	0	1031798784	44	5930
2026-01-17 12:03:24.76	77.51	12.76	-35.4	-36.4	22.8	0.00e+00	123	28	0	1035993088	44	5844
2026-01-17 12:03:25.77	77.70	12.75	-35.5	-36.5	22.6	0.00e+00	122	28	0	1039138816	44	5905
2026-01-17 12:03:26.78	77.90	12.74	-35.3	-36.3	22.8	0.00e+00	120	28	0	1042284544	44	5754
2026-01-17 12:03:27.79	78.10	12.74	-35.4	-36.3	22.8	0.00e+00	122	28	0	1044381696	44	5790
2026-01-17 12:03:28.80	78.30	12.73	-35.3	-36.3	22.9	0.00e+00	123	28	0	1047527424	44	5746
2026-01-17 12:03:29.81	78.50	12.73	-35.3	-36.3	22.9	0.00e+00	122	28	0	1051721728	44	5741
2026-01-17 12:03:30.82	78.69	12.72	-35.3	-36.2	22.9	0.00e+00	123	28	0	1054867456	44	5724
2026-01-17 12:03:31.83	78.89	12.71	-35.2	-36.2	23.0	0.00e+00	123	28	0	1058013184	44	5697
2026-01-17 12:03:32.84	79.09	12.70	-35.3	-36.3	22.9	0.00e+00	123	28	0	1061158912	44	5743
2026-01-17 12:03:33.85	79.28	12.70	-35.2	-36.2	22.9	0.00e+00	123	28	0	1064304640	44	5688
2026-01-17 12:03:34.85	79.48	12.69	-35.4	-36.4	22.8	0.00e+00	123	28	0	1067450368	44	5837
2026-01-17 12:03:35.86	79.68	12.68	-35.3	-36.3	22.9	0.00e+00	123	28	0	1070596096	44	5739
2026-01-17 12:03:36.87	79.87	12.67	-35.3	-36.3	22.8	0.00e+00	123	28	0	1073741824	44	5766
2026-01-17 12:03:37.88	80.07	12.66	-35.3	-36.3	22.8	0.00e+00	123	28	0	1076887552	44	5756
2026-01-17 12:03:38.89	80.27	12.65	-35.3	-36.2	22.9	0.00e+00	122	28	0	1080033280	44	5711
2026-01-17 12:03:39.90	80.46	12.64	-35.4	-36.4	22.8	0.00e+00	120	28	0	1083179008	44	5807
2026-01-17 12:03:40.91	80.66	12.63	-35.1	-36.1	23.1	0.00e+00	122	27	0	1086324736	44	5611
2026-01-17 12:03:41.92	80.86	12.62	-34.9	-35.9	23.2	0.00e+00	123	28	0	1089470464	44	5505
2026-01-17 12:03:42.93	81.05	12.61	-35.0	-36.0	23.1	0.00e+00	122	28	0	1092616192	44	5555
2026-01-17 12:03:43.94	81.25	12.60	-35.0	-36.0	23.1	0.00e+00	123	28	0	1095761920	44	5550
2026-01-17 12:03:44.95	81.45	12.59	-35.1	-36.1	22.9	0.00e+00	123	28	0	1098907648	44	5610
2026-01-17 12:03:45.96	81.64	12.58	-35.1	-36.1	23.0	0.00e+00	123	28	0	1102053376	44	5602
2026-01-17 12:03:46.97	81.84	12.56	-35.3	-36.2	22.9	0.00e+00	122	28	0	1105199104	44	5706
2026-01-17 12:03:47.98	82.03	12.55	-35.3	-36.3	22.9	0.00e+00	121	28	0	1108344832	44	5770
2026-01-17 12:03:48.99	82.23	12.54	-35.3	-36.3	22.9	0.00e+00	123	28	0	1111490560	44	5762
2026-01-17 12:03:50.00	82.42	12.53	-35.2	-36.2	23.0	0.00e+00	122	28	0	1114636288	44	5692
2026-01-17 12:03:51.01	82.62	12.51	-35.2	-36.1	23.0	0.00e+00	122	28	0	1117782016	44	5659
2026-01-17 12:03:52.02	82.81	12.50	-35.2	-36.2	23.0	0.00e+00	123	28	0	1120927744	44	5686
2026-01-17 12:03:53.03	83.01	12.49	-35.1	-36.1	23.1	0.00e+00	123	28	0	1124073472	44	5630
2026-01-17 12:03:54.04	83.20	12.47	-35.1	-36.1	23.0	0.00e+00	122	28	0	1127219200	44	5631
2026-01-17 12:03:55.05	83.40	12.46	-35.2	-36.2	22.9	0.00e+00	122	28	0	1130364928	44	5697
2026-01-17 12:03:56.06	83.59	12.44	-35.3	-36.3	22.9	0.00e+00	123	27	0	1133510656	44	5747
2026-01-17 12:03:57.07	83.79	12.43	-35.3	-36.2	22.9	0.00e+00	122	28	0	1136656384	44	5708
2026-01-17 12:03:58.08	83.98	12.41	-35.4	-36.4	22.8	0.00e+00	122	28	0	1139802112	44	5798
2026-01-17 12:03:59.09	84.17	12.40	-35.3	-36.2	22.9	0.00e+00	123	28	0	1142947840	44	5706
2026-01-17 12:04:00.10	84.37	12.38	-35.1	-36.1	23.0	0.00e+00	123	28	0	1146093568	44	5634
2026-01-17 12:04:01.11	84.56	12.37	-35.1	-36.1	23.0	0.00e+00	123	28	0	1149239296	44	5598
2026-01-17 12:04:02.12	84.75	12.35	-35.1	-36.0	23.0	0.00e+00	122	28	0	1152385024	44	5563
2026-01-17 12:04:03.13	84.95	12.33	-35.2	-36.2	22.9	0.00e+00	123	28	0	1155530752	44	5685
2026-01-17 12:04:04.14	85.14	12.32	-35.2	-36.1	22.9	0.00e+00	122	27	0	1158676480	44	5650
2026-01-17 12:04:05.15	85.33	12.30	-35.1	-36.1	23.0	0.00e+00	123	27	0	1161822208	44	5626
2026-01-17 12:04:06.16	85.52	12.28	-35.2	-36.1	23.1	0.00e+00	120	28	0	1164967936	44	5646
2026-01-17 12:04:07.17	85.72	12.27	-35.1	-36.1	23.0	0.00e+00	122	28	0	1168113664	44	5604
2026-01-17 12:04:08.18	85.91	12.25	-35.1	-36.1	23.1	0.00e+00	122	28	0	1171259392	44	5632
2026-01-17 12:04:09.19	86.10	12.23	-35.2	-36.2	22.9	0.00e+00	123	28	0	1174405120	44	5660
2026-01-17 12:04:10.19	86.29	12.21	-35.3	-36.3	22.9	0.00e+00	123	28	0	1177550848	44	5751
2026-01-17 12:04:11.20	86.48	12.19	-35.1	-36.1	23.0	0.00e+00	123	28	0	1180696576	44	5652
2026-01-17 12:04:12.21	86.67	12.17	-35.1	-36.1	23.0	0.00e+00	122	28	0	1183842304	44	5638
2026-01-17 12:04:13.22	86.86	12.15	-35.3	-36.3	22.9	0.00e+00	123	28	0	1186988032	44	5735
2026-01-17 12:04:14.23	87.05	12.13	-35.4	-36.4	22.9	0.00e+00	120	28	0	1190133760	44	5792
2026-01-17 12:04:15.24	87.24	12.11	-35.3	-36.3	22.8	0.00e+00	123	28	0	1193279488	44	5737
2026-01-17 12:04:16.25	87.43	12.09	-35.4	-36.4	22.8	0.00e+00	122	27	0	1196425216	44	5822
2026-01-17 12:04:17.26	87.62	12.07	-35.4	-36.4	22.8	0.00e+00	120	28	0	1199570944	44	5806
2026-01-17 12:04:18.27	87.81	12.05	-35.3	-36.3	22.9	0.00e+00	122	27	0	1202716672	44	5785
2026-01-17 12:04:19.28	88.00	12.03	-35.4	-36.4	22.8	0.00e+00	122	27	0	1205862400	44	5813
2026-01-17 12:04:20.29	88.19	12.01	-35.3	-36.3	23.0	0.00e+00	123	28	0	1209008128	44	5726
2026-01-17 12:04:21.29	88.37	11.99	-35.2	-36.2	23.0	0.00e+00	122	28	0	1212153856	44	5662
2026-01-17 12:04:22.30	88.56	11.97	-35.1	-36.1	23.0	0.00e+00	123	27	0	1215299584	44	5636
2026-01-17 12:04:23.31	88.75	11.95	-35.2	-36.2	23.0	0.00e+00	122	28	0	1218445312	44	5691
2026-01-17 12:04:24.32	88.94	11.92	-35.2	-36.2	23.0	0.00e+00	120	28	0	1221591040	44	5706
2026-01-17 12:04:25.33	89.13	11.90	-35.3	-36.3	22.9	0.00e+00	123	28	0	1224736768	44	5783
2026-01-17 12:04:26.34	89.31	11.88	-35.2	-36.3	22.9	0.00e+00	121	28	0	1227882496	44	5729
2026-01-17 12:04:27.35	89.50	11.86	-35.4	-36.4	22.8	0.00e+00	122	28	0	1231028224	44	5820
2026-01-17 12:04:28.36	89.69	11.83	-35.6	-36.6	22.7	0.00e+00	122	27	0	1234173952	44	5933
2026-01-17 12:04:29.37	89.87	11.81	-35.4	-36.4	22.8	0.00e+00	120	27	0	1237319680	44	5853
2026-01-17 12:04:30.38	90.06	11.79	-35.5	-36.5	22.8	0.00e+00	122	28	0	1240465408	44	5868
2026-01-17 12:04:31.39	90.25	11.76	-35.5	-36.5	22.7	0.00e+00	123	28	0	1243611136	44	5863
2026-01-17 12:04:32.40	90.43	11.74	-35.4	-36.4	22.8	0.00e+00	122	28	0	1246756864	44	5843
2026-01-17 12:04:33.40	90.62	11.71	-35.4	-36.3	22.8	0.00e+00	122	28	0	1249902592	44	5790
2026-01-17 12:04:34.41	90.80	11.69	-35.4	-36.4	22.9	0.00e+00	120	28	0	1253048320	44	5801
2026-01-17 12:04:35.42	90.98	11.66	-35.4	-36.3	22.8	0.00e+00	121	28	0	1256194048	44	5790
2026-01-17 12:04:36.43	91.17	11.64	-35.4	-36.4	22.8	0.00e+00	122	28	0	1259339776	44	5850
2026-01-17 12:04:37.44	91.35	11.61	-35.5	-36.5	22.7	0.00e+00	123	28	0	1262485504	44	5911
2026-01-17 12:04:38.45	91.54	11.59	-35.3	-36.3	22.9	0.00e+00	120	28	0	1265631232	44	5768
2026-01-17 12:04:39.46	91.72	11.56	-35.5	-36.5	22.8	0.00e+00	122	28	0	1268776960	44	5895
2026-01-17 12:04:40.47	91.90	11.54	-35.6	-36.6	22.7	0.00e+00	120	28	0	1271922688	44	5977
2026-01-17 12:04:41.48	92.09	11.51	-35.5	-36.5	22.8	0.00e+00	123	28	0	1275068416	44	5883
2026-01-17 12:04:42.49	92.27	11.48	-35.6	-36.5	22.8	0.00e+00	122	28	0	1278214144	44	5921
2026-01-17 12:04:43.50	92.45	11.46	-35.5	-36.5	22.8	0.00e+00	123	28	0	1281359872	44	5863
2026-01-17 12:04:44.51	92.63	11.43	-35.5	-36.5	22.7	0.00e+00	123	28	0	1284505600	44	5882
2026-01-17 12:04:45.52	92.81	11.40	-35.5	-36.5	22.7	0.00e+00	122	28	0	1287651328	44	5871
2026-01-17 12:04:46.52	92.99	11.37	-35.7	-36.7	22.6	0.00e+00	120	28	0	1290797056	44	6040
2026-01-17 12:04:47.53	93.17	11.35	-35.4	-36.4	22.8	0.00e+00	123	27	0	1293942784	44	5831
2026-01-17 12:04:48.54	93.36	11.32	-35.5	-36.5	22.7	0.00e+00	123	28	0	1297088512	44	5879
2026-01-17 12:04:49.55	93.54	11.29	-35.5	-36.5	22.7	0.00e+00	122	28	0	1300234240	44	5875
2026-01-17 12:04:50.56	93.72	11.26	-35.3	-36.3	22.9	0.00e+00	122	28	0	1303379968	44	5734
2026-01-17 12:04:51.57	93.90	11.23	-35.4	-36.4	22.7	0.00e+00	123	28	0	1306525696	44	5802
2026-01-17 12:04:52.58	94.07	11.21	-35.5	-36.5	22.6	0.00e+00	123	27	0	1309671424	44	5874
2026-01-17 12:04:53.59	94.25	11.18	-35.6	-36.6	22.7	0.00e+00	120	28	0	1312817152	44	5985
2026-01-17 12:04:54.60	94.43	11.15	-35.5	-36.5	22.7	0.00e+00	121	28	0	1315962880	44	5897
2026-01-17 12:04:55.61	94.61	11.12	-35.5	-36.5	22.7	0.00e+00	120	28	0	1319108608	44	5900
2026-01-17 12:04:56.61	94.79	11.09	-35.6	-36.6	22.6	0.00e+00	122	28	0	1322254336	44	5953
2026-01-17 12:04:57.62	94.96	11.06	-35.4	-36.4	22.8	0.00e+00	123	28	0	1325400064	44	5819
2026-01-17 12:04:58.63	95.14	11.03	-35.5	-36.5	22.6	0.00e+00	123	28	0	1328545792	44	5896
2026-01-17 12:04:59.64	95.32	11.00	-35.4	-36.4	22.6	0.00e+00	122	28	0	1331691520	44	5841
2026-01-17 12:05:00.65	95.49	10.97	-35.6	-36.6	22.5	0.00e+00	120	28	0	1334837248	44	5937
2026-01-17 12:05:01.66	95.67	10.94	-35.5	-36.5	22.6	0.00e+00	122	28	0	1337982976	44	5880
2026-01-17 12:05:02.67	95.85	10.91	-35.6	-36.6	22.6	0.00e+00	123	28	0	1341128704	44	5941
2026-01-17 12:05:03.68	96.02	10.88	-35.3	-36.3	22.8	0.00e+00	122	28	0	1344274432	44	5757
2026-01-17 12:05:04.69	96.20	10.84	-35.4	-36.4	22.7	0.00e+00	123	28	0	1347420160	44	5844
2026-01-17 12:05:05.70	96.37	10.81	-35.3	-36.2	22.8	0.00e+00	123	28	0	1350565888	44	5712
2026-01-17 12:05:06.71	96.55	10.78	-35.3	-36.3	22.8	0.00e+00	121	28	0	1353711616	44	5759
2026-01-17 12:05:07.72	96.72	10.75	-35.3	-36.3	22.8	0.00e+00	123	28	0	1356857344	44	5756
2026-01-17 12:05:08.73	96.89	10.72	-35.4	-36.3	22.8	0.00e+00	122	28	0	1360003072	44	5791
2026-01-17 12:05:09.74	97.07	10.68	-35.4	-36.4	22.7	0.00e+00	122	28	0	1363148800	44	5842
2026-01-17 12:05:10.75	97.24	10.65	-35.5	-36.5	22.7	0.00e+00	123	28	0	1366294528	44	5883
2026-01-17 12:05:11.75	97.41	10.62	-35.4	-36.4	22.7	0.00e+00	122	28	0	1369440256	44	5800
2026-01-17 12:05:12.77	97.58	10.59	-35.3	-36.3	22.7	0.00e+00	122	28	0	1372585984	44	5783
2026-01-17 12:05:13.77	97.75	10.55	-35.4	-36.4	22.8	0.00e+00	123	28	0	1375731712	44	5816
2026-01-17 12:05:14.79	97.93	10.52	-35.5	-36.5	22.6	0.00e+00	123	28	0	1378877440	44	5871
2026-01-17 12:05:15.79	98.10	10.49	-35.6	-36.6	22.5	0.00e+00	122	28	0	1382023168	44	5946
2026-01-17 12:05:16.80	98.27	10.45	-35.7	-36.7	22.5	0.00e+00	123	27	0	1385168896	44	6009
2026-01-17 12:05:17.81	98.44	10.42	-35.7	-36.7	22.4	0.00e+00	124	28	0	1388314624	44	6036
2026-01-17 12:05:18.82	98.61	10.39	-35.7	-36.7	22.5	0.00e+00	122	28	0	1391460352	44	6013
2026-01-17 12:05:19.83	98.78	10.35	-35.6	-36.6	22.6	0.00e+00	122	28	0	1394606080	44	5938
2026-01-17 12:05:20.84	98.95	10.32	-35.4	-36.4	22.7	0.00e+00	122	28	0	1397751808	44	5806
2026-01-17 12:05:21.85	99.11	10.28	-35.6	-36.5	22.6	0.00e+00	122	28	0	1400897536	44	5922
2026-01-17 12:05:22.86	99.28	10.25	-35.7	-36.7	22.4	0.00e+00	122	28	0	1405091840	44	6002
2026-01-17 12:05:23.87	99.45	10.22	-35.5	-36.5	22.5	0.00e+00	122	28	0	1407188992	44	5911
2026-01-17 12:05:24.88	99.62	10.18	-35.6	-36.6	22.4	0.00e+00	123	28	0	1410334720	44	5981
2026-01-17 12:05:25.89	99.79	10.15	-35.7	-36.7	22.3	0.00e+00	123	28	0	1413480448	44	6021
2026-01-17 12:05:26.89	99.95	10.11	-35.7	-36.7	22.3	0.00e+00	123	28	0	1416626176	44	6028
2026-01-17 12:05:27.90	100.12	10.08	-35.8	-36.8	22.2	0.00e+00	123	28	0	1420820480	44	6091
2026-01-17 12:05:28.91	100.28	10.04	-35.8	-36.9	22.2	0.00e+00	120	28	0	1423966208	44	6135
2026-01-17 12:05:29.92	100.45	10.00	-35.8	-36.9	22.2	0.00e+00	123	28	0	1427111936	44	6136
2026-01-17 12:05:30.93	100.61	9.97	-35.9	-36.9	22.2	0.00e+00	123	28	0	1429209088	44	6157
2026-01-17 12:05:31.94	100.78	9.93	-35.9	-36.9	22.1	0.00e+00	123	28	0	1432354816	44	6158
2026-01-17 12:05:32.95	100.94	9.90	-35.9	-36.9	22.1	0.00e+00	123	28	0	1436549120	44	6195
2026-01-17 12:05:33.96	101.11	9.86	-36.0	-37.0	22.0	0.00e+00	123	28	0	1439694848	44	6240
2026-01-17 12:05:34.97	101.27	9.82	-35.8	-36.8	22.2	0.00e+00	122	28	0	1442840576	44	6102
2026-01-17 12:05:35.98	101.44	9.79	-35.9	-37.0	22.0	0.00e+00	123	28	0	1445986304	44	6232
2026-01-17 12:05:36.99	101.60	9.75	-36.0	-37.1	21.9	0.00e+00	120	28	0	1449132032	44	6279
2026-01-17 12:05:38.00	101.76	9.71	-36.0	-37.1	22.0	0.00e+00	122	28	0	1452277760	44	6311
2026-01-17 12:05:39.01	101.92	9.68	-35.9	-37.0	22.1	0.00e+00	120	28	0	1455423488	44	6233
2026-01-17 12:05:40.02	102.08	9.64	-36.0	-37.0	22.1	0.00e+00	123	28	0	1458569216	44	6274
2026-01-17 12:05:41.03	102.25	9.60	-35.8	-36.8	22.2	0.00e+00	122	28	0	1461714944	44	6123
2026-01-17 12:05:42.04	102.41	9.56	-36.0	-37.0	22.1	0.00e+00	123	28	0	1464860672	44	6274
2026-01-17 12:05:43.05	102.57	9.53	-35.8	-36.8	22.2	0.00e+00	122	27	0	1468006400	44	6113
2026-01-17 12:05:44.06	102.73	9.49	-35.9	-36.9	22.2	0.00e+00	123	28	0	1471152128	44	6179
2026-01-17 12:05:45.07	102.89	9.45	-35.9	-37.0	22.1	0.00e+00	120	28	0	1474297856	44	6222
2026-01-17 12:05:46.08	103.05	9.41	-35.8	-36.8	22.3	0.00e+00	123	28	0	1477443584	44	6086
2026-01-17 12:05:47.09	103.21	9.37	-36.0	-37.0	22.1	0.00e+00	122	28	0	1480589312	44	6262
2026-01-17 12:05:48.10	103.36	9.34	-36.0	-37.0	22.1	0.00e+00	123	28	0	1483735040	44	6273
2026-01-17 12:05:49.11	103.52	9.30	-36.1	-37.2	22.0	0.00e+00	120	28	0	1486880768	44	6361
2026-01-17 12:05:50.12	103.68	9.26	-36.0	-37.1	22.0	0.00e+00	122	28	0	1490026496	44	6319
2026-01-17 12:05:51.13	103.84	9.22	-36.1	-37.2	21.8	0.00e+00	123	28	0	1493172224	44	6401
2026-01-17 12:05:52.14	103.99	9.18	-36.1	-37.2	22.0	0.00e+00	123	28	0	1496317952	44	6361
2026-01-17 12:05:53.15	104.15	9.14	-36.2	-37.3	21.9	0.00e+00	120	28	0	1499463680	44	6425
2026-01-17 12:05:54.16	104.31	9.10	-36.2	-37.3	21.9	0.00e+00	122	28	0	1502609408	44	6456
2026-01-17 12:05:55.17	104.46	9.06	-36.2	-37.2	21.9	0.00e+00	123	28	0	1505755136	44	6421
2026-01-17 12:05:56.18	104.62	9.02	-36.2	-37.2	21.9	0.00e+00	123	28	0	1508900864	44	6417
2026-01-17 12:05:57.19	104.77	8.99	-36.2	-37.3	21.9	0.00e+00	122	28	0	1512046592	44	6453
2026-01-17 12:05:58.20	104.93	8.95	-36.2	-37.3	21.8	0.00e+00	123	28	0	1515192320	44	6434
2026-01-17 12:05:59.21	105.08	8.91	-36.1	-37.2	21.8	0.00e+00	122	28	0	1518338048	44	6355
2026-01-17 12:06:00.22	105.24	8.87	-36.1	-37.2	21.9	0.00e+00	122	28	0	1521483776	44	6357
2026-01-17 12:06:01.23	105.39	8.83	-36.2	-37.2	21.9	0.00e+00	123	28	0	1524629504	44	6396
2026-01-17 12:06:02.24	105.54	8.79	-36.1	-37.2	21.8	0.00e+00	120	28	0	1527775232	44	6366
2026-01-17 12:06:03.25	105.69	8.75	-36.3	-37.3	21.7	0.00e+00	120	28	0	1530920960	44	6464
2026-01-17 12:06:04.26	105.85	8.71	-36.2	-37.3	21.7	0.00e+00	123	28	0	1534066688	44	6471
2026-01-17 12:06:05.27	106.00	8.67	-36.4	-37.5	21.6	0.00e+00	119	28	0	1537212416	44	6587
2026-01-17 12:06:06.28	106.15	8.63	-36.3	-37.4	21.6	0.00e+00	123	28	0	1540358144	44	6539
2026-01-17 12:06:07.29	106.30	8.59	-36.2	-37.3	21.7	0.00e+00	123	28	0	1543503872	44	6460
2026-01-17 12:06:08.30	106.45	8.54	-36.2	-37.2	21.8	0.00e+00	122	28	0	1546649600	44	6419
2026-01-17 12:06:09.31	106.60	8.50	-36.3	-37.3	21.7	0.00e+00	122	28	0	1549795328	44	6492
2026-01-17 12:06:10.32	106.75	8.46	-36.2	-37.3	21.8	0.00e+00	122	28	0	1552941056	44	6450
2026-01-17 12:06:11.33	106.90	8.42	-36.4	-37.4	21.7	0.00e+00	122	28	0	1556086784	44	6551
2026-01-17 12:06:12.33	107.05	8.38	-36.4	-37.5	21.6	0.00e+00	120	28	0	1559232512	44	6621
2026-01-17 12:06:13.34	107.20	8.34	-36.4	-37.5	21.6	0.00e+00	122	28	0	1562378240	44	6639
2026-01-17 12:06:14.35	107.34	8.30	-36.4	-37.6	21.6	0.00e+00	123	28	0	1565523968	44	6654
2026-01-17 12:06:15.36	107.49	8.26	-36.3	-37.4	21.7	0.00e+00	122	28	0	1568669696	44	6555
2026-01-17 12:06:16.37	107.64	8.22	-36.5	-37.6	21.5	0.00e+00	122	28	0	1571815424	44	6668
2026-01-17 12:06:17.38	107.79	8.17	-36.3	-37.3	21.9	0.00e+00	123	28	0	1574961152	44	6487
2026-01-17 12:06:18.39	107.93	8.13	-36.3	-37.4	21.7	0.00e+00	123	28	0	1578106880	44	6508
2026-01-17 12:06:19.40	108.08	8.09	-36.3	-37.4	21.7	0.00e+00	122	28	0	1581252608	44	6546
2026-01-17 12:06:20.41	108.22	8.05	-36.4	-37.5	21.7	0.00e+00	123	28	0	1584398336	44	6577
2026-01-17 12:06:21.42	108.37	8.01	-36.4	-37.5	21.6	0.00e+00	120	28	0	1587544064	44	6605
2026-01-17 12:06:22.43	108.51	7.97	-36.4	-37.4	21.7	0.00e+00	120	28	0	1590689792	44	6567
2026-01-17 12:06:23.44	108.66	7.92	-36.3	-37.4	21.7	0.00e+00	123	28	0	1593835520	44	6526
2026-01-17 12:06:24.45	108.80	7.88	-36.3	-37.3	21.8	0.00e+00	122	28	0	1596981248	44	6494
2026-01-17 12:06:25.46	108.95	7.84	-36.4	-37.4	21.7	0.00e+00	122	28	0	1600126976	44	6563
2026-01-17 12:06:26.47	109.09	7.80	-36.4	-37.5	21.6	0.00e+00	122	28	0	1603272704	44	6601
2026-01-17 12:06:27.48	109.23	7.75	-36.5	-37.6	21.5	0.00e+00	122	28	0	1606418432	44	6679
2026-01-17 12:06:28.48	109.37	7.71	-36.3	-37.4	21.7	0.00e+00	122	28	0	1609564160	44	6560
2026-01-17 12:06:29.49	109.52	7.67	-36.5	-37.6	21.5	0.00e+00	123	28	0	1612709888	44	6695
2026-01-17 12:06:30.50	109.66	7.63	-36.8	-37.9	21.3	0.00e+00	122	28	0	1615855616	46	6145
2026-01-17 12:06:31.51	109.80	7.58	-37.0	-38.1	21.1	0.00e+00	123	28	0	1619001344	46	6345
2026-01-17 12:06:32.52	109.94	7.54	-36.8	-37.9	21.3	0.00e+00	122	28	0	1622147072	46	6204
2026-01-17 12:06:33.53	110.08	7.50	-36.8	-37.9	21.3	0.00e+00	122	28	0	1625292800	46	6147
2026-01-17 12:06:34.54	110.22	7.46	-37.0	-38.1	21.1	0.00e+00	123	28	0	1628438528	46	6321
2026-01-17 12:06:35.55	110.36	7.41	-36.9	-38.0	21.2	0.00e+00	122	28	0	1631584256	46	6239
2026-01-17 12:06:36.55	110.50	7.37	-36.7	-37.8	21.3	0.00e+00	122	28	0	1634729984	46	6112
2026-01-17 12:06:37.56	110.64	7.33	-36.6	-37.7	21.4	0.00e+00	122	28	0	1637875712	46	6041
2026-01-17 12:06:38.57	110.78	7.28	-36.7	-37.8	21.3	0.00e+00	123	28	0	1641021440	46	6109
2026-01-17 12:06:39.58	110.91	7.24	-37.0	-38.1	21.1	0.00e+00	122	28	0	1644167168	46	6325
2026-01-17 12:06:40.59	111.05	7.20	-36.9	-38.1	21.1	0.00e+00	123	28	0	1647312896	46	6294
2026-01-17 12:06:41.60	111.19	7.15	-36.9	-38.0	21.1	0.00e+00	122	28	0	1650458624	46	6244
2026-01-17 12:06:42.61	111.33	7.11	-36.9	-38.0	21.0	0.00e+00	122	28	0	1653604352	46	6260
2026-01-17 12:06:43.62	111.46	7.07	-37.0	-38.2	20.9	0.00e+00	123	28	0	1656750080	46	6381
2026-01-17 12:06:44.63	111.60	7.02	-37.0	-38.1	21.0	0.00e+00	122	28	0	1659895808	46	6328
2026-01-17 12:06:45.63	111.73	6.98	-36.9	-38.1	21.1	0.00e+00	123	28	0	1663041536	46	6302
2026-01-17 12:06:46.64	111.87	6.94	-37.0	-38.2	21.0	0.00e+00	123	28	0	1666187264	46	6374
2026-01-17 12:06:47.65	112.00	6.89	-37.1	-38.2	20.9	0.00e+00	123	28	0	1669332992	46	6414
2026-01-17 12:06:48.66	112.14	6.85	-37.0	-38.1	21.1	0.00e+00	123	28	0	1672478720	46	6314
2026-01-17 12:06:49.67	112.27	6.80	-36.9	-38.0	21.1	0.00e+00	123	28	0	1675624448	46	6256
2026-01-17 12:06:50.68	112.41	6.76	-37.0	-38.1	21.0	0.00e+00	122	28	0	1678770176	46	6321
2026-01-17 12:06:51.69	112.54	6.72	-36.8	-37.9	21.2	0.00e+00	122	28	0	1681915904	46	6190
2026-01-17 12:06:52.70	112.67	6.67	-37.0	-38.1	21.0	0.00e+00	123	28	0	1685061632	46	6316
2026-01-17 12:06:53.71	112.81	6.63	-36.9	-38.1	21.0	0.00e+00	123	28	0	1688207360	46	6296
2026-01-17 12:06:54.72	112.94	6.58	-37.0	-38.2	21.0	0.00e+00	123	28	0	1691353088	46	6355
2026-01-17 12:06:55.73	113.07	6.54	-37.1	-38.2	20.8	0.00e+00	123	28	0	1694498816	46	6384
2026-01-17 12:06:56.74	113.20	6.50	-36.9	-38.1	21.0	0.00e+00	122	28	0	1697644544	46	6286
2026-01-17 12:06:57.75	113.33	6.45	-36.8	-37.9	21.2	0.00e+00	123	28	0	1700790272	46	6182
2026-01-17 12:06:58.76	113.46	6.41	-37.0	-38.1	21.0	0.00e+00	123	28	0	1703936000	46	6308
2026-01-17 12:06:59.77	113.59	6.36	-36.9	-38.0	21.1	0.00e+00	123	28	0	1707081728	46	6229
2026-01-17 12:07:00.78	113.72	6.32	-37.1	-38.3	20.8	0.00e+00	122	28	0	1710227456	46	6432
2026-01-17 12:07:01.79	113.85	6.27	-36.8	-37.9	21.1	0.00e+00	123	28	0	1713373184	46	6188
2026-01-17 12:07:02.80	113.98	6.23	-37.0	-38.1	20.9	0.00e+00	123	28	0	1716518912	46	6343
2026-01-17 12:07:03.81	114.11	6.18	-36.9	-38.0	21.1	0.00e+00	123	28	0	1719664640	46	6262
2026-01-17 12:07:04.82	114.24	6.14	-36.7	-37.8	21.3	0.00e+00	123	28	0	1722810368	46	6087
2026-01-17 12:07:05.83	114.37	6.10	-36.8	-37.9	21.1	0.00e+00	120	28	0	1725956096	46	6199
2026-01-17 12:07:06.84	114.50	6.05	-36.9	-38.0	21.1	0.00e+00	123	28	0	1729101824	46	6230
2026-01-17 12:07:07.85	114.62	6.01	-36.8	-37.9	21.1	0.00e+00	122	28	0	1732247552	46	6147
2026-01-17 12:07:08.86	114.75	5.96	-36.9	-38.0	20.9	0.00e+00	123	28	0	1735393280	46	6276
2026-01-17 12:07:09.87	114.88	5.92	-37.0	-38.1	20.9	0.00e+00	120	28	0	1738539008	46	6350
2026-01-17 12:07:10.88	115.00	5.87	-37.0	-38.1	21.0	0.00e+00	123	28	0	1741684736	46	6301
2026-01-17 12:07:11.89	115.13	5.83	-36.9	-38.0	21.0	0.00e+00	120	28	0	1744830464	46	6233
2026-01-17 12:07:12.90	115.25	5.78	-36.7	-37.8	21.2	0.00e+00	123	28	0	1747976192	46	6120
2026-01-17 12:07:13.91	115.38	5.74	-36.9	-38.0	21.0	0.00e+00	120	28	0	1751121920	46	6225
2026-01-17 12:07:14.92	115.50	5.69	-37.1	-38.2	20.8	0.00e+00	123	27	0	1754267648	46	6388
2026-01-17 12:07:15.93	115.63	5.65	-36.9	-38.0	21.1	0.00e+00	120	28	0	1757413376	46	6223
2026-01-17 12:07:16.94	115.75	5.60	-37.0	-38.1	20.9	0.00e+00	123	28	0	1760559104	46	6346
2026-01-17 12:07:17.95	115.88	5.56	-36.9	-38.1	20.9	0.00e+00	120	28	0	1763704832	46	6302
2026-01-17 12:07:18.96	116.00	5.51	-37.0	-38.1	20.9	0.00e+00	121	28	0	1767899136	46	6329
2026-01-17 12:07:19.97	116.12	5.47	-37.2	-38.3	20.7	0.00e+00	122	28	0	1769996288	46	6488
2026-01-17 12:07:20.98	116.24	5.42	-37.4	-38.6	20.4	0.00e+00	122	28	0	1773142016	46	6655
2026-01-17 12:07:21.99	116.37	5.38	-37.1	-38.3	20.8	0.00e+00	122	28	0	1776287744	46	6445
2026-01-17 12:07:23.00	116.49	5.33	-37.2	-38.4	20.6	0.00e+00	123	28	0	1779433472	46	6532
2026-01-17 12:07:24.01	116.61	5.28	-37.7	-38.9	20.2	0.00e+00	123	28	0	1783627776	48	6143
2026-01-17 12:07:25.02	116.73	5.24	-37.3	-38.4	20.5	0.00e+00	120	28	0	1786773504	48	5849
2026-01-17 12:07:26.02	116.85	5.19	-37.1	-38.2	20.7	0.00e+00	123	28	0	1789919232	48	5697
2026-01-17 12:07:27.03	116.97	5.15	-37.1	-38.2	20.8	0.00e+00	123	28	0	1792016384	48	5718
2026-01-17 12:07:28.04	117.09	5.10	-37.3	-38.5	20.3	0.00e+00	122	28	0	1795162112	48	5896
2026-01-17 12:07:29.05	117.21	5.06	-37.5	-38.8	20.2	0.00e+00	123	28	0	1799356416	48	6069
2026-01-17 12:07:30.06	117.33	5.01	-37.4	-38.7	20.3	0.00e+00	123	28	0	1802502144	48	6013
2026-01-17 12:07:31.07	117.45	4.97	-37.2	-38.5	20.4	0.00e+00	122	28	0	1805647872	48	5873
2026-01-17 12:07:32.08	117.57	4.92	-37.4	-38.7	20.1	0.00e+00	123	28	0	1808793600	48	6047
2026-01-17 12:07:33.09	117.69	4.88	-37.1	-38.3	20.5	0.00e+00	122	28	0	1811939328	48	5759
2026-01-17 12:07:34.10	117.80	4.83	-37.6	-38.9	20.1	0.00e+00	122	28	0	1815085056	48	6138
2026-01-17 12:07:35.11	117.92	4.79	-37.2	-38.4	20.4	0.00e+00	120	28	0	1818230784	48	5803
2026-01-17 12:07:36.12	118.04	4.74	-37.5	-38.7	20.2	0.00e+00	122	28	0	1821376512	48	6018
2026-01-17 12:07:37.12	118.15	4.69	-37.5	-38.7	20.2	0.00e+00	122	28	0	1824522240	48	6055
2026-01-17 12:07:38.14	118.27	4.65	-37.6	-38.8	20.0	0.00e+00	123	28	0	1827667968	48	6129
2026-01-17 12:07:39.15	118.39	4.60	-37.4	-38.6	20.2	0.00e+00	122	28	0	1830813696	48	5964
2026-01-17 12:07:40.15	118.50	4.56	-37.6	-38.8	19.9	0.00e+00	123	28	0	1833959424	48	6132
2026-01-17 12:07:41.16	118.62	4.51	-38.1	-39.4	19.4	0.00e+00	123	28	0	1837105152	48	6527
2026-01-17 12:07:42.17	118.73	4.47	-37.6	-38.8	20.0	0.00e+00	123	28	0	1840250880	48	6069
2026-01-17 12:07:43.18	118.85	4.42	-37.7	-39.0	20.0	0.00e+00	122	28	0	1843396608	48	6224
2026-01-17 12:07:44.19	118.96	4.37	-37.6	-38.8	20.0	0.00e+00	123	28	0	1846542336	48	6092
2026-01-17 12:07:45.20	119.08	4.33	-37.8	-39.1	19.8	0.00e+00	122	28	0	1849688064	48	6319
2026-01-17 12:07:46.21	119.19	4.28	-38.0	-39.2	19.6	0.00e+00	123	28	0	1852833792	48	6400
2026-01-17 12:07:47.22	119.30	4.24	-38.1	-39.4	19.5	0.00e+00	120	28	0	1855979520	48	6515
2026-01-17 12:07:48.23	119.42	4.19	-37.7	-38.9	19.9	0.00e+00	120	28	0	1859125248	48	6175
2026-01-17 12:07:49.24	119.53	4.15	-37.5	-38.7	20.1	0.00e+00	120	28	0	1862270976	48	6043
2026-01-17 12:07:50.25	119.64	4.10	-37.7	-39.0	19.8	0.00e+00	123	28	0	1865416704	48	6241
2026-01-17 12:07:51.26	119.75	4.05	-37.7	-38.9	19.9	0.00e+00	123	28	0	1868562432	48	6205
2026-01-17 12:07:52.27	119.86	4.01	-37.3	-38.5	20.2	0.00e+00	122	28	0	1871708160	48	5898
2026-01-17 12:07:53.28	119.98	3.96	-37.9	-39.2	19.7	0.00e+00	122	28	0	1874853888	48	6380
2026-01-17 12:07:54.29	120.09	3.92	-37.6	-38.9	19.9	0.00e+00	123	28	0	1877999616	48	6149
2026-01-17 12:07:55.30	120.20	3.87	-38.0	-39.3	19.5	0.00e+00	123	28	0	1881145344	48	6456
2026-01-17 12:07:56.31	120.31	3.82	-38.2	-39.5	19.1	0.00e+00	123	28	0	1884291072	48	6623
2026-01-17 12:07:57.32	120.42	3.78	-38.8	-40.2	18.8	0.00e+00	121	28	0	1887436800	50	6371
2026-01-17 12:07:58.33	120.53	3.73	-38.3	-39.6	19.1	0.00e+00	123	28	0	1890582528	50	5959
2026-01-17 12:07:59.34	120.64	3.69	-38.1	-39.4	19.5	0.00e+00	123	28	0	1893728256	50	5829
2026-01-17 12:08:00.35	120.75	3.64	-38.1	-39.4	19.3	0.00e+00	122	28	0	1896873984	50	5803
2026-01-17 12:08:01.36	120.86	3.59	-37.9	-39.2	19.5	0.00e+00	123	28	0	1900019712	50	5704
2026-01-17 12:08:02.37	120.96	3.55	-38.2	-39.5	19.1	0.00e+00	123	28	0	1903165440	50	5897
2026-01-17 12:08:03.38	121.07	3.50	-38.5	-39.9	18.8	0.00e+00	123	28	0	1906311168	50	6178
2026-01-17 12:08:04.39	121.18	3.46	-38.4	-39.7	18.9	0.00e+00	123	28	0	1909456896	50	6054
2026-01-17 12:08:05.40	121.29	3.41	-38.6	-40.0	18.7	0.00e+00	122	28	0	1912602624	50	6267
2026-01-17 12:08:06.40	121.39	3.37	-37.9	-39.3	19.3	0.00e+00	123	28	0	1915748352	50	5740
2026-01-17 12:08:07.41	121.50	3.32	-38.4	-39.8	18.9	0.00e+00	120	28	0	1918894080	50	6123
2026-01-17 12:08:08.42	121.61	3.27	-38.9	-40.4	18.3	0.00e+00	123	28	0	1922039808	50	6506
2026-01-17 12:08:09.43	121.71	3.23	-38.6	-40.0	18.5	0.00e+00	123	28	0	1925185536	50	6218
2026-01-17 12:08:10.44	121.82	3.18	-38.8	-40.2	18.3	0.00e+00	120	28	0	1928331264	50	6364
2026-01-17 12:08:11.44	121.92	3.14	-38.3	-39.7	18.7	0.00e+00	122	28	0	1931476992	50	6027
2026-01-17 12:08:12.45	122.03	3.09	-38.8	-40.2	18.1	0.00e+00	122	28	0	1934622720	50	6395
2026-01-17 12:08:13.46	122.13	3.04	-38.8	-40.3	17.8	0.00e+00	121	28	0	1937768448	50	6456
2026-01-17 12:08:14.47	122.24	3.00	-45.8	-53.0	3.5	0.00e+00	118	28	104	1940914176	50	27876
2026-01-17 12:08:15.48	122.34	2.95	-47.6	-60.4	3.5	1.51e+00	0	28	104	1940914176	60	36586
2026-01-17 12:08:16.49	122.45	2.91	-47.8	-60.7	3.5	1.52e+00	0	28	104	1940914176	60	38145
2026-01-17 12:08:17.51	122.55	2.86	-48.1	-60.9	3.5	1.52e+00	0	28	104	1940914176	60	39151
2026-01-17 12:08:18.51	122.65	2.81	-48.3	-61.1	3.5	1.52e+00	0	28	104	1940914176	60	39844
2026-01-17 12:08:19.52	122.76	2.77	-48.4	-61.2	3.5	1.52e+00	0	28	104	1940914176	60	40523
