passes_logs/2026/01/17/R4.6S_Anadyr/R4.6S_Anadyr__20260117_030015_FENGYUN_3D_rec.log

#Pass ID: 20260117_030015_FENGYUN 3D
#Satellite: FENGYUN 3D
#Configuration: FENGYUN 3D
#almurnet v.1.7.20251203
#Start time: 2026-01-17 03:00:18

#Version: 2.2.20231116
#Station: R4.6S_Anadyr
#Location: 177.4865 lon 64.73178 lat
#TLE: 1 43010U 17072A   26016.62453405 -.00000112  00000+0 -31355-4 0  9995
#TLE: 2 43010  98.9932 348.4654 0002369 105.3910 254.7528 14.19694900423480

#Time	Az	El	Level	Level2	SNR	BER	BlckErr	Temp	State	Recorded	gain1	gain2
2026-01-17 03:00:18.99	174.84	0.19	-48.3	-59.0	3.3	8.40e-01	0	26	0	0	60	32320
2026-01-17 03:00:20.00	174.86	0.25	-48.3	-60.4	3.6	8.46e-01	0	27	104	0	60	38025
2026-01-17 03:00:21.01	174.89	0.31	-48.1	-60.3	3.6	8.44e-01	0	27	104	0	60	37378
2026-01-17 03:00:22.02	174.92	0.37	-48.3	-60.4	3.6	8.47e-01	0	27	104	0	60	38058
2026-01-17 03:00:23.03	174.94	0.43	-48.1	-60.2	3.6	8.45e-01	0	27	104	0	60	37191
2026-01-17 03:00:24.03	174.97	0.49	-48.0	-60.1	3.6	8.46e-01	0	27	104	0	60	36542
2026-01-17 03:00:25.04	175.00	0.55	-48.0	-60.1	3.5	8.45e-01	0	27	104	0	60	36575
2026-01-17 03:00:26.05	175.02	0.61	-48.1	-60.2	3.6	8.46e-01	0	27	104	0	60	36893
2026-01-17 03:00:27.06	175.05	0.67	-47.8	-60.0	3.6	8.46e-01	0	27	104	0	60	36155
2026-01-17 03:00:28.07	175.08	0.73	-47.8	-60.0	3.6	8.45e-01	0	27	104	0	60	36155
2026-01-17 03:00:29.08	175.11	0.79	-47.8	-59.9	3.6	8.45e-01	0	27	104	0	60	35917
2026-01-17 03:00:30.09	175.13	0.85	-47.5	-59.9	3.6	8.45e-01	0	27	104	0	60	35636
2026-01-17 03:00:31.10	175.16	0.91	-47.5	-59.6	3.6	8.46e-01	0	27	104	0	60	34553
2026-01-17 03:00:32.11	175.19	0.98	-47.3	-59.3	3.6	8.45e-01	0	27	104	0	60	33407
2026-01-17 03:00:33.12	175.22	1.04	-46.7	-58.8	3.6	8.43e-01	0	27	104	0	60	31366
2026-01-17 03:00:34.13	175.24	1.10	-46.4	-58.3	3.6	8.45e-01	0	27	104	0	60	29667
2026-01-17 03:00:35.14	175.27	1.16	-46.4	-58.3	3.6	8.46e-01	0	27	104	0	60	29769
2026-01-17 03:00:36.15	175.30	1.22	-46.4	-58.3	3.6	8.45e-01	0	27	104	0	60	29683
2026-01-17 03:00:37.16	175.33	1.28	-46.4	-58.2	3.6	8.45e-01	0	27	104	0	60	29440
2026-01-17 03:00:38.17	175.36	1.35	-46.4	-58.3	3.6	8.45e-01	0	27	104	0	60	29581
2026-01-17 03:00:39.18	175.38	1.41	-46.4	-58.3	3.6	8.45e-01	0	27	104	0	60	29752
2026-01-17 03:00:40.19	175.41	1.47	-46.4	-58.3	3.6	8.45e-01	0	27	104	0	60	29783
2026-01-17 03:00:41.20	175.44	1.53	-46.4	-58.4	3.6	8.45e-01	0	27	104	0	60	30164
2026-01-17 03:00:42.21	175.47	1.60	-46.4	-58.4	3.6	8.45e-01	0	27	104	0	60	30085
2026-01-17 03:00:43.21	175.50	1.66	-46.4	-58.4	3.6	8.46e-01	0	27	104	0	60	30118
2026-01-17 03:00:44.22	175.53	1.72	-46.4	-58.4	3.6	8.46e-01	0	27	104	0	60	29920
2026-01-17 03:00:45.23	175.56	1.78	-46.4	-58.3	3.5	8.45e-01	0	27	104	0	60	29603
2026-01-17 03:00:46.24	175.58	1.85	-46.4	-58.3	3.6	8.45e-01	0	27	104	0	60	29646
2026-01-17 03:00:47.25	175.61	1.91	-46.4	-58.3	3.6	8.45e-01	0	27	104	0	60	29694
2026-01-17 03:00:48.26	175.64	1.97	-46.4	-58.4	3.6	8.46e-01	0	27	104	0	60	29896
2026-01-17 03:00:49.27	175.67	2.04	-46.4	-58.4	3.5	8.45e-01	0	27	104	0	60	30233
2026-01-17 03:00:50.28	175.70	2.10	-46.4	-58.4	3.6	8.44e-01	0	27	104	0	60	30237
2026-01-17 03:00:51.29	175.73	2.16	-46.4	-58.3	3.6	8.46e-01	0	27	104	0	60	29774
2026-01-17 03:00:52.30	175.76	2.23	-46.3	-57.8	3.6	8.46e-01	0	27	104	0	60	27968
2026-01-17 03:00:53.32	175.79	2.29	-46.3	-57.2	3.6	8.45e-01	0	27	104	0	60	26100
2026-01-17 03:00:54.33	175.82	2.36	-46.1	-55.7	3.8	8.44e-01	0	27	104	0	60	22051
2026-01-17 03:00:55.34	175.85	2.42	-46.0	-53.6	3.8	8.38e-01	0	27	0	0	60	17267
2026-01-17 03:00:56.35	175.88	2.49	-46.0	-54.9	3.7	8.38e-01	0	27	104	0	60	20166
2026-01-17 03:00:57.36	175.91	2.55	-46.0	-53.9	3.7	8.35e-01	0	27	0	0	60	17821
2026-01-17 03:00:58.37	175.94	2.61	-46.1	-55.7	3.8	8.42e-01	0	27	104	0	60	22073
2026-01-17 03:00:59.38	175.97	2.68	-46.3	-57.5	3.6	8.44e-01	0	27	104	0	60	26970
2026-01-17 03:01:00.39	176.00	2.74	-46.2	-56.5	3.6	8.46e-01	0	27	104	0	60	24245
2026-01-17 03:01:01.40	176.03	2.81	-45.6	-52.0	4.9	8.10e-01	0	27	0	0	60	14356
2026-01-17 03:01:02.41	176.07	2.88	-44.1	-47.6	9.3	5.27e-02	0	27	0	4194304	60	8624
2026-01-17 03:01:03.42	176.10	2.94	-42.4	-44.7	12.5	1.22e-03	0	27	0	9437184	58	6985
2026-01-17 03:01:04.43	176.13	3.01	-40.1	-41.6	15.9	0.00e+00	0	27	0	14680064	54	6157
2026-01-17 03:01:05.43	176.16	3.07	-38.9	-40.1	17.5	0.00e+00	0	27	0	20971520	52	5802
2026-01-17 03:01:06.45	176.19	3.14	-37.4	-38.4	19.1	0.00e+00	0	27	0	26214400	48	6008
2026-01-17 03:01:07.45	176.22	3.20	-36.3	-37.3	20.2	0.00e+00	0	27	0	32505856	46	5906
2026-01-17 03:01:08.46	176.25	3.27	-35.5	-36.4	21.2	0.00e+00	0	27	0	37748736	44	5971
2026-01-17 03:01:09.47	176.28	3.34	-35.2	-36.0	21.3	0.00e+00	0	27	0	44040192	42	6451
2026-01-17 03:01:10.48	176.32	3.40	-34.5	-35.3	21.9	0.00e+00	0	27	0	49283072	42	5935
2026-01-17 03:01:11.49	176.35	3.47	-34.5	-35.3	22.0	0.00e+00	0	27	0	54525952	42	5933
2026-01-17 03:01:12.50	176.38	3.54	-35.7	-36.5	20.7	0.00e+00	0	27	0	60817408	42	6847
2026-01-17 03:01:13.51	176.41	3.60	-36.3	-37.2	20.2	0.00e+00	0	27	0	66060288	44	6581
2026-01-17 03:01:14.52	176.45	3.67	-34.8	-35.7	21.7	0.00e+00	0	27	0	72351744	44	5506
2026-01-17 03:01:15.53	176.48	3.74	-37.9	-39.0	18.2	0.00e+00	0	27	0	77594624	44	8124
2026-01-17 03:01:16.54	176.51	3.81	-37.0	-37.9	20.9	6.20e-02	0	27	0	82837504	52	4520
2026-01-17 03:01:17.55	176.54	3.87	-39.7	-41.0	15.6	0.00e+00	0	27	0	89128960	54	5748
2026-01-17 03:01:18.56	176.58	3.94	-39.4	-40.9	14.4	4.50e-06	0	27	0	94371840	48	7970
2026-01-17 03:01:19.57	176.61	4.01	-41.0	-42.7	6.0	7.70e-01	0	27	104	95420416	60	4944
2026-01-17 03:01:20.58	176.64	4.08	-37.4	-38.4	18.1	0.00e+00	0	27	104	95420416	48	6012
2026-01-17 03:01:21.59	176.68	4.15	-37.3	-38.3	19.4	0.00e+00	0	27	0	99614720	48	5927
2026-01-17 03:01:22.60	176.71	4.21	-37.4	-38.4	19.4	0.00e+00	0	27	0	104857600	48	6000
2026-01-17 03:01:23.61	176.74	4.28	-37.4	-38.4	19.7	0.00e+00	0	27	0	111149056	48	5983
2026-01-17 03:01:24.62	176.78	4.35	-37.8	-38.8	19.1	0.00e+00	0	27	0	116391936	48	6312
2026-01-17 03:01:25.63	176.81	4.42	-37.9	-39.0	19.3	0.00e+00	0	27	0	122683392	48	6427
2026-01-17 03:01:26.64	176.85	4.49	-37.8	-38.8	19.6	0.00e+00	0	27	0	127926272	48	6288
2026-01-17 03:01:27.65	176.88	4.56	-37.8	-38.9	19.6	0.00e+00	0	27	0	133169152	48	6321
2026-01-17 03:01:28.66	176.91	4.63	-37.1	-38.1	19.5	0.00e+00	0	27	0	139460608	48	5767
2026-01-17 03:01:29.67	176.95	4.70	-37.3	-38.3	19.5	0.00e+00	0	27	0	144703488	48	5915
2026-01-17 03:01:30.67	176.98	4.77	-36.9	-37.9	19.9	0.00e+00	0	27	0	150994944	48	5655
2026-01-17 03:01:31.68	177.02	4.84	-36.5	-37.4	20.6	0.00e+00	0	27	0	156237824	46	6020
2026-01-17 03:01:32.69	177.05	4.91	-36.6	-37.5	20.3	0.00e+00	0	27	0	161480704	46	6073
2026-01-17 03:01:33.70	177.09	4.98	-36.8	-37.7	19.9	0.00e+00	0	27	0	167772160	46	6229
2026-01-17 03:01:34.71	177.12	5.05	-36.5	-37.5	20.4	0.00e+00	0	27	0	173015040	46	6048
2026-01-17 03:01:35.72	177.16	5.12	-35.7	-36.6	21.1	0.00e+00	0	27	0	179306496	44	6106
2026-01-17 03:01:36.73	177.20	5.19	-35.2	-36.0	21.6	0.00e+00	0	27	0	184549376	44	5747
2026-01-17 03:01:37.74	177.23	5.26	-35.7	-36.6	21.1	0.00e+00	0	27	0	190840832	44	6127
2026-01-17 03:01:38.75	177.27	5.33	-34.7	-35.5	22.2	0.00e+00	0	27	0	196083712	44	5439
2026-01-17 03:01:39.76	177.30	5.40	-34.0	-34.7	22.9	0.00e+00	0	27	0	202375168	42	5561
2026-01-17 03:01:40.77	177.34	5.48	-34.1	-34.9	22.7	0.00e+00	0	27	0	207618048	42	5664
2026-01-17 03:01:41.78	177.38	5.55	-33.9	-34.7	23.1	0.00e+00	0	27	0	212860928	42	5508
2026-01-17 03:01:42.79	177.41	5.62	-33.9	-34.7	23.0	0.00e+00	0	27	0	219152384	42	5526
2026-01-17 03:01:43.80	177.45	5.69	-33.9	-34.7	23.1	0.00e+00	0	27	0	224395264	42	5548
2026-01-17 03:01:44.81	177.49	5.76	-34.0	-34.8	22.9	0.00e+00	0	27	0	230686720	42	5572
2026-01-17 03:01:45.82	177.52	5.84	-33.9	-34.7	23.0	0.00e+00	0	27	0	235929600	42	5518
2026-01-17 03:01:46.83	177.56	5.91	-34.2	-35.0	22.8	0.00e+00	0	27	0	241172480	42	5699
2026-01-17 03:01:47.84	177.60	5.98	-34.0	-34.8	22.9	0.00e+00	0	27	0	247463936	42	5588
2026-01-17 03:01:48.85	177.64	6.06	-34.1	-34.8	23.1	0.00e+00	0	27	0	252706816	42	5607
2026-01-17 03:01:49.86	177.67	6.13	-33.5	-34.3	23.3	0.00e+00	0	27	0	258998272	40	5916
2026-01-17 03:01:50.87	177.71	6.20	-34.1	-34.8	22.9	0.00e+00	0	27	0	264241152	40	6301
2026-01-17 03:01:51.88	177.75	6.28	-33.8	-34.6	23.1	0.00e+00	0	27	0	269484032	40	6148
2026-01-17 03:01:52.89	177.79	6.35	-33.9	-34.7	23.1	0.00e+00	0	27	0	275775488	40	6210
2026-01-17 03:01:53.90	177.83	6.42	-33.5	-34.3	23.5	0.00e+00	0	27	0	281018368	40	5927
2026-01-17 03:01:54.90	177.86	6.50	-33.7	-34.5	23.2	0.00e+00	0	27	0	287309824	40	6042
2026-01-17 03:01:55.92	177.90	6.57	-33.5	-34.3	23.5	0.00e+00	0	27	0	292552704	40	5902
2026-01-17 03:01:56.93	177.94	6.65	-33.5	-34.2	23.4	0.00e+00	0	27	0	298844160	40	5896
2026-01-17 03:01:57.94	177.98	6.72	-33.8	-34.6	23.2	0.00e+00	0	27	0	304087040	40	6122
2026-01-17 03:01:58.95	178.02	6.80	-33.6	-34.3	23.4	0.00e+00	0	27	0	309329920	40	5961
2026-01-17 03:01:59.96	178.06	6.87	-33.4	-34.2	23.5	0.00e+00	0	27	0	315621376	40	5840
2026-01-17 03:02:00.97	178.10	6.95	-33.7	-34.5	23.5	0.00e+00	0	27	0	320864256	40	6058
2026-01-17 03:02:01.98	178.14	7.03	-33.5	-34.3	23.6	0.00e+00	0	27	0	327155712	40	5949
2026-01-17 03:02:02.99	178.18	7.10	-33.8	-34.6	23.3	0.00e+00	0	27	0	332398592	40	6115
2026-01-17 03:02:04.00	178.22	7.18	-33.4	-34.2	23.6	0.00e+00	0	27	0	337641472	40	5861
2026-01-17 03:02:05.01	178.26	7.25	-33.3	-34.1	23.8	0.00e+00	0	27	0	343932928	40	5763
2026-01-17 03:02:06.02	178.30	7.33	-33.1	-33.8	24.0	0.00e+00	0	27	0	349175808	40	5591
2026-01-17 03:02:07.03	178.34	7.41	-33.3	-34.0	23.8	0.00e+00	0	27	0	355467264	40	5758
2026-01-17 03:02:08.04	178.38	7.49	-33.3	-34.0	23.9	0.00e+00	0	27	0	360710144	40	5734
2026-01-17 03:02:09.05	178.43	7.56	-33.5	-34.2	23.7	0.00e+00	0	27	0	365953024	40	5863
2026-01-17 03:02:10.06	178.47	7.64	-33.0	-33.8	24.1	0.00e+00	0	27	0	372244480	40	5584
2026-01-17 03:02:11.07	178.51	7.72	-33.3	-34.0	23.8	0.00e+00	0	27	0	377487360	40	5758
2026-01-17 03:02:12.08	178.55	7.80	-33.0	-33.7	24.1	0.00e+00	0	27	0	383778816	40	5558
2026-01-17 03:02:13.09	178.59	7.87	-32.7	-33.4	24.4	0.00e+00	0	27	0	389021696	38	6030
2026-01-17 03:02:14.11	178.64	7.95	-33.1	-33.8	23.9	0.00e+00	0	27	0	395313152	38	6285
2026-01-17 03:02:15.12	178.68	8.03	-32.6	-33.3	24.5	0.00e+00	0	27	0	400556032	38	5928
2026-01-17 03:02:16.12	178.72	8.11	-32.8	-33.5	24.3	0.00e+00	0	27	0	406847488	38	6094
2026-01-17 03:02:17.13	178.76	8.19	-32.9	-33.6	24.2	0.00e+00	0	27	0	412090368	38	6172
2026-01-17 03:02:18.14	178.81	8.27	-32.9	-33.6	24.3	0.00e+00	0	27	0	417333248	38	6150
2026-01-17 03:02:19.16	178.85	8.35	-32.9	-33.5	24.3	0.00e+00	0	27	0	423624704	38	6100
2026-01-17 03:02:20.17	178.89	8.43	-32.9	-33.6	24.2	0.00e+00	0	27	0	428867584	38	6156
2026-01-17 03:02:21.18	178.94	8.51	-32.7	-33.4	24.5	0.00e+00	0	27	0	435159040	38	5997
2026-01-17 03:02:22.19	178.98	8.59	-32.7	-33.4	24.4	0.00e+00	0	27	0	440401920	38	5971
2026-01-17 03:02:23.20	179.03	8.67	-32.7	-33.4	24.4	0.00e+00	0	27	0	445644800	38	6020
2026-01-17 03:02:24.20	179.07	8.75	-32.7	-33.4	24.4	0.00e+00	0	27	0	451936256	38	5975
2026-01-17 03:02:25.21	179.12	8.83	-33.0	-33.7	24.2	0.00e+00	0	27	0	457179136	38	6193
2026-01-17 03:02:26.22	179.16	8.91	-32.9	-33.6	24.3	0.00e+00	0	27	0	463470592	38	6147
2026-01-17 03:02:27.23	179.21	9.00	-32.6	-33.3	24.6	0.00e+00	0	27	0	468713472	38	5934
2026-01-17 03:02:28.24	179.25	9.08	-32.8	-33.5	24.4	0.00e+00	0	27	0	473956352	38	6046
2026-01-17 03:02:29.25	179.30	9.16	-32.8	-33.5	24.5	0.00e+00	0	27	0	480247808	38	6081
2026-01-17 03:02:30.26	179.34	9.24	-32.7	-33.4	24.5	0.00e+00	0	27	0	485490688	38	6019
2026-01-17 03:02:31.27	179.39	9.33	-32.8	-33.5	24.4	0.00e+00	0	27	0	491782144	38	6073
2026-01-17 03:02:32.28	179.44	9.41	-32.7	-33.4	24.6	0.00e+00	0	27	0	497025024	38	5995
2026-01-17 03:02:33.29	179.48	9.49	-32.8	-33.5	24.4	0.00e+00	0	27	0	503316480	38	6048
2026-01-17 03:02:34.30	179.53	9.58	-32.8	-33.5	24.4	0.00e+00	0	27	0	508559360	38	6087
2026-01-17 03:02:35.31	179.58	9.66	-32.9	-33.6	24.4	0.00e+00	0	27	0	514850816	38	6124
2026-01-17 03:02:36.31	179.62	9.74	-32.7	-33.5	24.5	0.00e+00	0	27	0	520093696	38	6038
2026-01-17 03:02:37.33	179.67	9.83	-32.8	-33.5	24.6	0.00e+00	0	27	0	525336576	38	6047
2026-01-17 03:02:38.33	179.72	9.91	-32.6	-33.3	24.6	0.00e+00	0	27	0	531628032	38	5947
2026-01-17 03:02:39.34	179.77	10.00	-32.7	-33.4	24.5	0.00e+00	0	27	0	536870912	38	6027
2026-01-17 03:02:40.36	179.82	10.08	-32.7	-33.5	24.5	0.00e+00	0	27	0	543162368	38	6041
2026-01-17 03:02:41.36	179.86	10.17	-32.7	-33.5	24.6	0.00e+00	0	27	0	548405248	38	6041
2026-01-17 03:02:42.37	179.91	10.25	-32.8	-33.5	24.5	0.00e+00	0	27	0	553648128	38	6064
2026-01-17 03:02:43.38	179.96	10.34	-32.8	-33.4	24.5	0.00e+00	0	27	0	559939584	38	6032
2026-01-17 03:02:44.39	180.01	10.43	-32.8	-33.4	24.6	0.00e+00	0	27	0	565182464	38	6032
2026-01-17 03:02:45.40	180.06	10.51	-32.7	-33.3	24.6	0.00e+00	0	27	0	570425344	38	5964
2026-01-17 03:02:46.41	180.11	10.60	-32.8	-33.5	24.5	0.00e+00	0	27	0	576716800	38	6093
2026-01-17 03:02:47.42	180.16	10.69	-32.6	-33.3	24.7	0.00e+00	0	27	0	581959680	38	5958
2026-01-17 03:02:48.43	180.21	10.77	-32.5	-33.2	24.7	0.00e+00	0	27	0	588251136	38	5874
2026-01-17 03:02:49.44	180.26	10.86	-32.6	-33.3	24.7	0.00e+00	0	27	0	593494016	38	5903
2026-01-17 03:02:50.45	180.32	10.95	-32.5	-33.2	24.8	0.00e+00	0	27	0	599785472	38	5861
2026-01-17 03:02:51.46	180.37	11.04	-32.4	-33.1	25.0	0.00e+00	0	27	0	605028352	38	5770
2026-01-17 03:02:52.47	180.42	11.13	-32.4	-33.1	25.0	0.00e+00	0	27	0	611319808	38	5811
2026-01-17 03:02:53.48	180.47	11.21	-32.3	-33.0	25.0	0.00e+00	0	27	0	616562688	38	5712
2026-01-17 03:02:54.49	180.52	11.30	-32.2	-32.9	25.1	0.00e+00	0	27	0	621805568	38	5663
2026-01-17 03:02:55.50	180.58	11.39	-32.1	-32.8	25.2	0.00e+00	0	27	0	628097024	38	5607
2026-01-17 03:02:56.51	180.63	11.48	-32.1	-32.8	25.2	0.00e+00	0	27	0	633339904	38	5592
2026-01-17 03:02:57.52	180.68	11.57	-32.1	-32.8	25.2	0.00e+00	0	27	0	639631360	38	5588
2026-01-17 03:02:58.53	180.74	11.66	-31.9	-32.6	25.3	0.00e+00	0	27	0	644874240	38	5478
2026-01-17 03:02:59.54	180.79	11.75	-32.2	-32.8	25.2	0.00e+00	0	27	0	650117120	38	5624
2026-01-17 03:03:00.55	180.84	11.85	-31.9	-32.6	25.4	0.00e+00	0	27	0	656408576	38	5467
2026-01-17 03:03:01.56	180.90	11.94	-31.9	-32.6	25.3	0.00e+00	0	27	0	661651456	36	6132
2026-01-17 03:03:02.57	180.95	12.03	-31.9	-32.5	25.4	0.00e+00	0	27	0	667942912	36	6092
2026-01-17 03:03:03.58	181.01	12.12	-31.9	-32.5	25.4	0.00e+00	0	27	0	673185792	36	6100
2026-01-17 03:03:04.59	181.06	12.21	-31.9	-32.6	25.5	0.00e+00	0	27	0	678428672	36	6120
2026-01-17 03:03:05.60	181.12	12.31	-31.9	-32.6	25.4	0.00e+00	0	27	0	684720128	36	6115
2026-01-17 03:03:06.61	181.18	12.40	-31.9	-32.6	25.5	0.00e+00	0	27	0	689963008	36	6121
2026-01-17 03:03:07.62	181.23	12.49	-31.8	-32.5	25.4	0.00e+00	0	27	0	696254464	36	6095
2026-01-17 03:03:08.63	181.29	12.59	-31.8	-32.5	25.5	0.00e+00	0	27	0	701497344	36	6091
2026-01-17 03:03:09.64	181.35	12.68	-31.8	-32.5	25.5	0.00e+00	0	27	0	707788800	36	6055
2026-01-17 03:03:10.65	181.40	12.78	-31.9	-32.6	25.5	0.00e+00	0	27	0	713031680	36	6104
2026-01-17 03:03:11.66	181.46	12.87	-32.0	-32.6	25.3	0.00e+00	0	27	0	719323136	36	6163
2026-01-17 03:03:12.67	181.52	12.97	-31.9	-32.5	25.5	0.00e+00	0	27	0	724566016	36	6096
2026-01-17 03:03:13.68	181.58	13.06	-31.8	-32.4	25.5	0.00e+00	0	27	0	729808896	36	6019
2026-01-17 03:03:14.69	181.64	13.16	-31.8	-32.5	25.5	0.00e+00	0	27	0	736100352	36	6081
2026-01-17 03:03:15.70	181.70	13.25	-31.7	-32.4	25.6	0.00e+00	0	27	0	741343232	36	6005
2026-01-17 03:03:16.71	181.76	13.35	-31.7	-32.4	25.6	0.00e+00	0	27	0	747634688	36	5997
2026-01-17 03:03:17.72	181.82	13.45	-31.7	-32.4	25.6	0.00e+00	0	27	0	752877568	36	5968
2026-01-17 03:03:18.73	181.88	13.54	-31.8	-32.4	25.6	0.00e+00	0	27	0	758120448	36	6013
2026-01-17 03:03:19.74	181.94	13.64	-31.7	-32.3	25.7	0.00e+00	0	27	0	764411904	36	5937
2026-01-17 03:03:20.75	182.00	13.74	-31.9	-32.5	25.5	0.00e+00	0	27	0	769654784	36	6088
2026-01-17 03:03:21.76	182.06	13.84	-31.7	-32.4	25.6	0.00e+00	0	27	0	775946240	36	5999
2026-01-17 03:03:22.77	182.12	13.94	-31.7	-32.4	25.6	0.00e+00	0	27	0	781189120	36	6024
2026-01-17 03:03:23.78	182.18	14.04	-31.6	-32.3	25.7	0.00e+00	0	27	0	786432000	36	5907
2026-01-17 03:03:24.78	182.25	14.13	-31.6	-32.3	25.7	0.00e+00	0	27	0	792723456	36	5916
2026-01-17 03:03:25.79	182.31	14.23	-31.7	-32.4	25.7	0.00e+00	0	27	0	797966336	36	5971
2026-01-17 03:03:26.80	182.37	14.33	-31.6	-32.3	25.8	0.00e+00	0	27	0	804257792	36	5910
2026-01-17 03:03:27.82	182.44	14.44	-31.5	-32.1	25.8	0.00e+00	0	27	0	809500672	36	5810
2026-01-17 03:03:28.83	182.50	14.54	-31.2	-31.8	26.1	0.00e+00	0	27	0	815792128	36	5623
2026-01-17 03:03:29.84	182.57	14.64	-31.3	-31.9	26.1	0.00e+00	0	27	0	821035008	36	5684
2026-01-17 03:03:30.85	182.63	14.74	-31.2	-31.9	26.1	0.00e+00	0	27	0	826277888	36	5642
2026-01-17 03:03:31.86	182.70	14.84	-31.2	-31.8	26.1	0.00e+00	0	27	0	832569344	36	5620
2026-01-17 03:03:32.87	182.76	14.94	-31.2	-31.9	26.1	0.00e+00	0	27	0	837812224	36	5638
2026-01-17 03:03:33.88	182.83	15.05	-31.4	-32.1	25.9	0.00e+00	0	27	0	844103680	36	5796
2026-01-17 03:03:34.88	182.89	15.15	-31.4	-32.0	26.0	0.00e+00	0	27	0	849346560	36	5753
2026-01-17 03:03:35.89	182.96	15.25	-31.2	-31.9	26.0	0.00e+00	0	27	0	854589440	36	5668
2026-01-17 03:03:36.90	183.03	15.36	-31.3	-32.0	26.0	0.00e+00	0	27	0	860880896	36	5699
2026-01-17 03:03:37.91	183.10	15.46	-31.3	-32.0	26.0	0.00e+00	0	27	0	866123776	36	5739
2026-01-17 03:03:38.92	183.17	15.57	-31.2	-31.9	26.1	0.00e+00	0	27	0	872415232	36	5651
2026-01-17 03:03:39.93	183.23	15.67	-31.2	-31.9	26.1	0.00e+00	0	27	0	877658112	36	5659
2026-01-17 03:03:40.94	183.30	15.78	-31.1	-31.8	26.2	0.00e+00	0	27	0	882900992	36	5581
2026-01-17 03:03:41.95	183.37	15.89	-31.2	-31.8	26.1	0.00e+00	0	27	0	889192448	36	5605
2026-01-17 03:03:42.96	183.44	15.99	-31.0	-31.7	26.3	0.00e+00	0	27	0	894435328	36	5511
2026-01-17 03:03:43.97	183.52	16.10	-31.0	-31.7	26.3	0.00e+00	0	27	0	900726784	36	5522
2026-01-17 03:03:44.98	183.59	16.21	-31.0	-31.7	26.3	0.00e+00	0	27	0	905969664	36	5512
2026-01-17 03:03:46.00	183.66	16.32	-30.9	-31.5	26.5	0.00e+00	0	27	0	912261120	36	5399
2026-01-17 03:03:47.01	183.73	16.42	-31.0	-31.6	26.4	0.00e+00	0	27	0	917504000	36	5490
2026-01-17 03:03:48.02	183.80	16.53	-30.6	-31.3	26.6	0.00e+00	0	27	0	923795456	34	5934
2026-01-17 03:03:49.03	183.88	16.64	-30.8	-31.4	26.5	0.00e+00	0	27	0	929038336	34	6001
2026-01-17 03:03:50.04	183.95	16.75	-30.8	-31.5	26.5	0.00e+00	0	27	0	934281216	34	6050
2026-01-17 03:03:51.05	184.03	16.86	-30.7	-31.3	26.6	0.00e+00	0	27	0	940572672	34	5941
2026-01-17 03:03:52.06	184.10	16.97	-30.7	-31.4	26.5	0.00e+00	0	27	0	945815552	34	5982
2026-01-17 03:03:53.07	184.18	17.08	-30.6	-31.3	26.6	0.00e+00	0	27	0	952107008	34	5903
2026-01-17 03:03:54.08	184.25	17.20	-30.8	-31.5	26.6	0.00e+00	0	27	0	957349888	34	6043
2026-01-17 03:03:55.09	184.33	17.31	-30.6	-31.2	26.7	0.00e+00	0	27	0	962592768	34	5865
2026-01-17 03:03:56.10	184.41	17.42	-30.6	-31.2	26.7	0.00e+00	0	27	0	968884224	34	5878
2026-01-17 03:03:57.11	184.48	17.53	-30.5	-31.1	26.8	0.00e+00	0	27	0	974127104	34	5815
2026-01-17 03:03:58.12	184.56	17.65	-30.5	-31.2	26.8	0.00e+00	0	27	0	980418560	34	5849
2026-01-17 03:03:59.13	184.64	17.76	-30.5	-31.1	26.8	0.00e+00	0	27	0	985661440	34	5802
2026-01-17 03:04:00.14	184.72	17.88	-30.4	-31.0	26.8	0.00e+00	0	27	0	990904320	34	5756
2026-01-17 03:04:01.15	184.80	17.99	-30.4	-31.1	26.9	0.00e+00	0	27	0	997195776	34	5775
2026-01-17 03:04:02.16	184.88	18.11	-30.4	-31.0	26.9	0.00e+00	0	27	0	1002438656	34	5755
2026-01-17 03:04:03.17	184.96	18.22	-30.5	-31.1	26.8	0.00e+00	0	27	0	1008730112	34	5806
2026-01-17 03:04:04.18	185.04	18.34	-30.4	-31.0	26.8	0.00e+00	0	27	0	1013972992	34	5704
2026-01-17 03:04:05.19	185.12	18.46	-30.2	-30.8	27.0	0.00e+00	0	27	0	1020264448	34	5627
2026-01-17 03:04:06.20	185.21	18.57	-30.3	-30.9	27.0	0.00e+00	0	27	0	1025507328	34	5684
2026-01-17 03:04:07.21	185.29	18.69	-30.2	-30.9	27.0	0.00e+00	0	27	0	1031798784	34	5639
2026-01-17 03:04:08.22	185.38	18.81	-30.2	-30.9	27.0	0.00e+00	0	27	0	1037041664	34	5655
2026-01-17 03:04:09.23	185.46	18.93	-30.3	-30.9	26.9	0.00e+00	0	27	0	1042284544	34	5665
2026-01-17 03:04:10.24	185.55	19.05	-30.2	-30.8	27.0	0.00e+00	0	27	0	1048576000	34	5622
2026-01-17 03:04:11.25	185.63	19.17	-30.2	-30.9	27.0	0.00e+00	0	27	0	1053818880	34	5636
2026-01-17 03:04:12.26	185.72	19.29	-30.2	-30.8	27.1	0.00e+00	0	27	0	1060110336	34	5605
2026-01-17 03:04:13.27	185.80	19.41	-30.3	-31.0	26.9	0.00e+00	0	27	0	1065353216	34	5727
2026-01-17 03:04:14.28	185.89	19.53	-30.2	-30.9	27.1	0.00e+00	0	27	0	1070596096	34	5643
2026-01-17 03:04:15.29	185.98	19.65	-30.3	-31.0	27.0	0.00e+00	0	27	0	1076887552	34	5696
2026-01-17 03:04:16.30	186.07	19.78	-30.1	-30.8	26.9	0.00e+00	0	27	0	1082130432	34	5595
2026-01-17 03:04:17.31	186.16	19.90	-30.3	-30.9	26.9	0.00e+00	0	27	0	1088421888	34	5677
2026-01-17 03:04:18.32	186.25	20.02	-30.3	-30.9	26.8	0.00e+00	0	27	0	1093664768	34	5687
2026-01-17 03:04:19.33	186.34	20.15	-30.4	-31.0	26.8	0.00e+00	0	27	0	1098907648	34	5761
2026-01-17 03:04:20.34	186.43	20.27	-30.5	-31.1	26.8	0.00e+00	0	27	0	1105199104	34	5792
2026-01-17 03:04:21.35	186.53	20.40	-30.4	-31.0	26.9	0.00e+00	0	27	0	1110441984	34	5752
2026-01-17 03:04:22.36	186.62	20.52	-30.2	-30.9	27.1	0.00e+00	0	27	0	1116733440	34	5652
2026-01-17 03:04:23.37	186.72	20.65	-30.3	-30.9	27.0	0.00e+00	0	27	0	1121976320	34	5685
2026-01-17 03:04:24.38	186.81	20.78	-30.3	-31.0	26.9	0.00e+00	0	27	0	1128267776	34	5728
2026-01-17 03:04:25.39	186.91	20.91	-30.1	-30.7	27.2	0.00e+00	0	27	0	1133510656	34	5539
2026-01-17 03:04:26.40	187.00	21.03	-29.7	-30.4	27.5	0.00e+00	0	27	0	1138753536	32	5973
2026-01-17 03:04:27.41	187.10	21.16	-29.7	-30.4	27.5	0.00e+00	0	27	0	1145044992	32	5975
2026-01-17 03:04:28.42	187.20	21.29	-29.7	-30.3	27.5	0.00e+00	0	27	0	1150287872	32	5948
2026-01-17 03:04:29.43	187.30	21.42	-29.7	-30.3	27.5	0.00e+00	0	27	0	1156579328	32	5936
2026-01-17 03:04:30.44	187.40	21.55	-29.6	-30.2	27.5	0.00e+00	0	27	0	1161822208	32	5892
2026-01-17 03:04:31.45	187.50	21.68	-29.6	-30.2	27.6	0.00e+00	0	27	0	1167065088	32	5859
2026-01-17 03:04:32.46	187.60	21.82	-29.6	-30.2	27.6	0.00e+00	0	27	0	1173356544	32	5866
2026-01-17 03:04:33.47	187.70	21.95	-29.6	-30.2	27.6	0.00e+00	0	27	0	1178599424	32	5846
2026-01-17 03:04:34.48	187.80	22.08	-29.5	-30.1	27.6	0.00e+00	0	27	0	1184890880	32	5814
2026-01-17 03:04:35.49	187.91	22.22	-29.6	-30.3	27.5	0.00e+00	0	27	0	1190133760	32	5905
2026-01-17 03:04:36.49	188.01	22.35	-29.4	-30.0	27.7	0.00e+00	0	27	0	1195376640	32	5729
2026-01-17 03:04:37.51	188.12	22.48	-29.5	-30.1	27.7	0.00e+00	0	27	0	1201668096	32	5804
2026-01-17 03:04:38.52	188.22	22.62	-29.5	-30.1	27.7	0.00e+00	0	27	0	1206910976	32	5804
2026-01-17 03:04:39.53	188.33	22.76	-29.5	-30.1	27.7	0.00e+00	0	27	0	1213202432	32	5799
2026-01-17 03:04:40.54	188.44	22.89	-29.4	-30.0	27.9	0.00e+00	0	27	0	1218445312	32	5717
2026-01-17 03:04:41.54	188.55	23.03	-29.5	-30.2	27.7	0.00e+00	0	27	0	1224736768	32	5834
2026-01-17 03:04:42.56	188.66	23.17	-29.6	-30.2	27.6	0.00e+00	0	27	0	1229979648	32	5882
2026-01-17 03:04:43.57	188.77	23.31	-29.7	-30.3	27.6	0.00e+00	0	27	0	1236271104	32	5944
2026-01-17 03:04:44.58	188.88	23.45	-29.8	-30.4	27.5	0.00e+00	0	27	0	1241513984	32	6017
2026-01-17 03:04:45.59	188.99	23.59	-29.8	-30.4	27.4	0.00e+00	0	27	0	1246756864	32	6019
2026-01-17 03:04:46.60	189.11	23.73	-29.6	-30.2	27.5	0.00e+00	0	27	0	1253048320	32	5866
2026-01-17 03:04:47.61	189.22	23.87	-29.6	-30.3	27.6	0.00e+00	0	27	0	1258291200	32	5919
2026-01-17 03:04:48.62	189.34	24.01	-29.4	-30.0	27.8	0.00e+00	0	27	0	1264582656	32	5714
2026-01-17 03:04:49.63	189.46	24.15	-29.4	-30.0	27.8	0.00e+00	0	27	0	1269825536	32	5759
2026-01-17 03:04:50.64	189.57	24.30	-29.6	-30.2	27.6	0.00e+00	0	27	0	1275068416	32	5848
2026-01-17 03:04:51.65	189.69	24.44	-29.8	-30.5	27.5	0.00e+00	0	27	0	1281359872	32	6050
2026-01-17 03:04:52.66	189.81	24.58	-29.9	-30.6	27.4	0.00e+00	0	27	0	1286602752	32	6122
2026-01-17 03:04:53.67	189.93	24.73	-29.8	-30.4	27.5	0.00e+00	0	27	0	1292894208	32	5997
2026-01-17 03:04:54.68	190.06	24.88	-29.7	-30.4	27.6	0.00e+00	0	27	0	1298137088	32	5990
2026-01-17 03:04:55.69	190.18	25.02	-29.2	-29.8	27.9	0.00e+00	0	27	0	1303379968	32	5605
2026-01-17 03:04:56.70	190.30	25.17	-29.2	-29.8	28.0	0.00e+00	0	27	0	1309671424	32	5592
2026-01-17 03:04:57.71	190.43	25.32	-29.1	-29.7	27.9	0.00e+00	0	27	0	1314914304	32	5563
2026-01-17 03:04:58.72	190.56	25.47	-29.2	-29.8	28.0	0.00e+00	0	27	0	1321205760	32	5612
2026-01-17 03:04:59.73	190.68	25.62	-28.9	-29.5	28.2	0.00e+00	0	27	0	1326448640	32	5401
2026-01-17 03:05:00.74	190.81	25.77	-29.0	-29.6	28.1	0.00e+00	0	27	0	1332740096	32	5471
2026-01-17 03:05:01.75	190.94	25.92	-29.0	-29.6	28.0	0.00e+00	0	27	0	1337982976	32	5480
2026-01-17 03:05:02.76	191.07	26.07	-29.0	-29.6	28.1	0.00e+00	0	27	0	1344274432	32	5456
2026-01-17 03:05:03.77	191.21	26.22	-28.8	-29.4	28.2	0.00e+00	0	27	0	1349517312	32	5367
2026-01-17 03:05:04.78	191.34	26.37	-28.9	-29.5	28.1	0.00e+00	0	27	0	1354760192	32	5432
2026-01-17 03:05:05.79	191.48	26.53	-28.9	-29.6	28.2	0.00e+00	0	27	0	1361051648	32	5442
2026-01-17 03:05:06.80	191.61	26.68	-28.8	-29.5	28.2	0.00e+00	0	27	0	1366294528	32	5380
2026-01-17 03:05:07.81	191.75	26.84	-28.9	-29.5	28.2	0.00e+00	0	27	0	1372585984	32	5412
2026-01-17 03:05:08.82	191.89	26.99	-28.8	-29.5	28.2	0.00e+00	0	27	0	1377828864	32	5381
2026-01-17 03:05:09.83	192.03	27.15	-28.8	-29.5	28.2	0.00e+00	0	27	0	1383071744	32	5400
2026-01-17 03:05:10.83	192.17	27.30	-28.9	-29.6	28.2	0.00e+00	0	27	0	1389363200	32	5446
2026-01-17 03:05:11.84	192.31	27.46	-28.9	-29.6	28.2	0.00e+00	0	27	0	1394606080	32	5451
2026-01-17 03:05:12.85	192.46	27.62	-29.1	-29.8	28.1	0.00e+00	0	27	0	1399848960	32	5568
2026-01-17 03:05:13.86	192.60	27.78	-29.1	-29.8	28.0	0.00e+00	0	27	0	1406140416	32	5600
2026-01-17 03:05:14.88	192.75	27.94	-29.1	-29.7	28.0	0.00e+00	0	27	0	1411383296	32	5566
2026-01-17 03:05:15.89	192.90	28.10	-28.9	-29.5	28.2	0.00e+00	0	27	0	1417674752	32	5438
2026-01-17 03:05:16.90	193.05	28.26	-28.8	-29.4	28.2	0.00e+00	0	27	0	1422917632	32	5376
2026-01-17 03:05:17.91	193.20	28.42	-28.8	-29.4	28.3	0.00e+00	0	27	0	1429209088	30	5975
2026-01-17 03:05:18.92	193.36	28.59	-28.8	-29.4	28.2	0.00e+00	0	27	0	1434451968	30	6020
2026-01-17 03:05:19.93	193.51	28.75	-28.8	-29.4	28.3	0.00e+00	0	27	0	1440743424	30	6011
2026-01-17 03:05:20.94	193.67	28.92	-28.8	-29.5	28.3	0.00e+00	0	27	0	1445986304	30	6044
2026-01-17 03:05:21.95	193.82	29.08	-28.9	-29.5	28.3	0.00e+00	0	27	0	1451229184	30	6083
2026-01-17 03:05:22.96	193.98	29.25	-29.0	-29.6	28.1	0.00e+00	0	27	0	1457520640	30	6112
2026-01-17 03:05:23.97	194.14	29.41	-28.9	-29.5	28.2	0.00e+00	0	27	0	1462763520	30	6097
2026-01-17 03:05:24.98	194.31	29.58	-29.1	-29.7	28.1	0.00e+00	0	27	0	1469054976	30	6190
2026-01-17 03:05:25.99	194.47	29.75	-29.0	-29.6	28.2	0.00e+00	0	27	0	1474297856	30	6142
2026-01-17 03:05:27.00	194.64	29.92	-29.2	-29.8	28.0	0.00e+00	0	27	0	1479540736	30	6249
2026-01-17 03:05:28.01	194.80	30.09	-29.2	-29.8	28.1	0.00e+00	0	27	0	1485832192	30	6308
2026-01-17 03:05:29.02	194.97	30.26	-29.2	-29.8	28.0	0.00e+00	0	27	0	1491075072	30	6306
2026-01-17 03:05:30.03	195.14	30.43	-29.1	-29.7	28.2	0.00e+00	0	27	0	1497366528	30	6185
2026-01-17 03:05:31.04	195.32	30.60	-28.9	-29.5	28.3	0.00e+00	0	27	0	1502609408	30	6077
2026-01-17 03:05:32.05	195.49	30.78	-28.5	-29.1	28.6	0.00e+00	0	27	0	1507852288	30	5792
2026-01-17 03:05:33.06	195.67	30.95	-28.6	-29.2	28.5	0.00e+00	0	27	0	1514143744	30	5859
2026-01-17 03:05:34.07	195.85	31.12	-28.3	-29.0	28.6	0.00e+00	0	27	0	1519386624	30	5698
2026-01-17 03:05:35.08	196.03	31.30	-28.6	-29.2	28.5	0.00e+00	0	27	0	1525678080	30	5843
2026-01-17 03:05:36.09	196.21	31.47	-28.7	-29.3	28.4	0.00e+00	0	27	0	1530920960	30	5941
2026-01-17 03:05:37.10	196.39	31.65	-28.7	-29.3	28.4	0.00e+00	0	27	0	1537212416	30	5948
2026-01-17 03:05:38.11	196.58	31.83	-28.7	-29.4	28.4	0.00e+00	0	27	0	1542455296	30	5966
2026-01-17 03:05:39.12	196.77	32.01	-28.9	-29.5	28.2	0.00e+00	0	27	0	1548746752	30	6077
2026-01-17 03:05:40.13	196.96	32.18	-28.7	-29.3	28.4	0.00e+00	0	27	0	1553989632	30	5951
2026-01-17 03:05:41.14	197.15	32.36	-28.9	-29.5	28.3	0.00e+00	0	27	0	1559232512	30	6069
2026-01-17 03:05:42.15	197.34	32.54	-28.9	-29.5	28.3	0.00e+00	0	27	0	1565523968	30	6064
2026-01-17 03:05:43.16	197.54	32.72	-28.8	-29.5	28.2	0.00e+00	0	27	0	1570766848	30	6042
2026-01-17 03:05:44.17	197.74	32.91	-28.8	-29.4	28.4	0.00e+00	0	27	0	1577058304	30	6028
2026-01-17 03:05:45.18	197.94	33.09	-28.8	-29.4	28.4	0.00e+00	0	27	0	1582301184	30	6020
2026-01-17 03:05:46.19	198.14	33.27	-28.6	-29.2	28.5	0.00e+00	0	27	0	1587544064	30	5868
2026-01-17 03:05:47.20	198.35	33.45	-28.7	-29.3	28.5	0.00e+00	0	27	0	1593835520	30	5912
2026-01-17 03:05:48.21	198.55	33.64	-28.5	-29.2	28.6	0.00e+00	0	27	0	1599078400	30	5829
2026-01-17 03:05:49.22	198.76	33.82	-28.5	-29.1	28.6	0.00e+00	0	27	0	1605369856	30	5778
2026-01-17 03:05:50.23	198.98	34.01	-28.5	-29.2	28.6	0.00e+00	0	27	0	1610612736	30	5830
2026-01-17 03:05:51.24	199.19	34.20	-28.5	-29.1	28.6	0.00e+00	0	27	0	1615855616	30	5774
2026-01-17 03:05:52.25	199.41	34.38	-28.6	-29.2	28.7	0.00e+00	0	27	0	1622147072	30	5842
2026-01-17 03:05:53.26	199.63	34.57	-28.8	-29.4	28.4	0.00e+00	0	27	0	1627389952	30	5985
2026-01-17 03:05:54.27	199.85	34.76	-28.7	-29.3	28.6	0.00e+00	0	27	0	1633681408	30	5936
2026-01-17 03:05:55.28	200.07	34.95	-28.7	-29.3	28.5	0.00e+00	0	27	0	1638924288	30	5925
2026-01-17 03:05:56.29	200.30	35.14	-28.6	-29.2	28.6	0.00e+00	0	27	0	1645215744	30	5870
2026-01-17 03:05:57.30	200.53	35.33	-28.6	-29.3	28.6	0.00e+00	0	27	0	1650458624	30	5900
2026-01-17 03:05:58.31	200.76	35.52	-28.5	-29.1	28.6	0.00e+00	0	27	0	1656750080	30	5821
2026-01-17 03:05:59.32	201.00	35.71	-28.3	-28.9	28.7	0.00e+00	0	27	0	1661992960	30	5682
2026-01-17 03:06:00.34	201.24	35.91	-28.2	-28.7	28.7	0.00e+00	0	27	0	1667235840	30	5566
2026-01-17 03:06:01.34	201.47	36.10	-28.3	-28.9	28.7	0.00e+00	0	27	0	1673527296	30	5660
2026-01-17 03:06:02.36	201.72	36.30	-28.5	-29.1	28.6	0.00e+00	0	27	0	1678770176	30	5770
2026-01-17 03:06:03.36	201.96	36.49	-28.4	-28.9	28.7	0.00e+00	0	27	0	1685061632	30	5693
2026-01-17 03:06:04.37	202.21	36.68	-28.6	-29.2	28.5	0.00e+00	0	27	0	1690304512	30	5838
2026-01-17 03:06:05.38	202.46	36.88	-28.4	-29.0	28.6	0.00e+00	0	27	0	1695547392	30	5755
2026-01-17 03:06:06.39	202.72	37.07	-28.5	-29.2	28.6	0.00e+00	0	27	0	1701838848	30	5832
2026-01-17 03:06:07.41	202.98	37.27	-28.6	-29.2	28.6	0.00e+00	0	27	0	1707081728	30	5859
2026-01-17 03:06:08.41	203.24	37.47	-28.7	-29.3	28.4	0.00e+00	0	27	0	1713373184	30	5921
2026-01-17 03:06:09.42	203.50	37.67	-28.8	-29.3	28.4	0.00e+00	0	27	0	1718616064	30	5964
2026-01-17 03:06:10.43	203.77	37.86	-28.8	-29.4	28.4	0.00e+00	0	27	0	1723858944	30	5984
2026-01-17 03:06:11.44	204.04	38.06	-28.5	-29.2	28.6	0.00e+00	0	27	0	1730150400	30	5830
2026-01-17 03:06:12.46	204.32	38.26	-28.6	-29.3	28.5	0.00e+00	0	27	0	1735393280	30	5903
2026-01-17 03:06:13.47	204.59	38.46	-28.5	-29.1	28.6	0.00e+00	0	27	0	1741684736	30	5784
2026-01-17 03:06:14.48	204.87	38.66	-28.7	-29.4	28.5	0.00e+00	0	27	0	1746927616	30	5968
2026-01-17 03:06:15.49	205.16	38.86	-28.8	-29.4	28.4	0.00e+00	0	27	0	1753219072	30	6004
2026-01-17 03:06:16.50	205.44	39.06	-28.8	-29.5	28.4	0.00e+00	0	27	0	1758461952	30	6044
2026-01-17 03:06:17.51	205.73	39.27	-29.1	-29.7	28.2	0.00e+00	0	27	0	1764753408	30	6191
2026-01-17 03:06:18.52	206.03	39.47	-28.7	-29.3	28.5	0.00e+00	0	27	0	1769996288	30	5946
2026-01-17 03:06:19.53	206.33	39.67	-28.6	-29.2	28.6	0.00e+00	0	27	0	1775239168	30	5863
2026-01-17 03:06:20.54	206.63	39.87	-28.6	-29.2	28.5	0.00e+00	0	27	0	1781530624	30	5836
2026-01-17 03:06:21.55	206.93	40.07	-28.6	-29.2	28.6	0.00e+00	0	27	0	1786773504	30	5830
2026-01-17 03:06:22.56	207.24	40.28	-28.6	-29.3	28.5	0.00e+00	0	27	0	1793064960	30	5897
2026-01-17 03:06:23.57	207.56	40.48	-28.5	-29.1	28.6	0.00e+00	0	27	0	1798307840	30	5792
2026-01-17 03:06:24.58	207.87	40.68	-28.3	-28.9	28.7	0.00e+00	0	27	0	1803550720	30	5694
2026-01-17 03:06:25.58	208.19	40.88	-28.5	-29.1	28.7	0.00e+00	0	27	0	1809842176	30	5774
2026-01-17 03:06:26.59	208.51	41.09	-28.6	-29.2	28.7	0.00e+00	0	27	0	1815085056	30	5846
2026-01-17 03:06:27.61	208.85	41.29	-28.6	-29.3	28.6	0.00e+00	0	27	0	1821376512	30	5904
2026-01-17 03:06:28.62	209.18	41.50	-28.7	-29.3	28.3	0.00e+00	0	27	0	1826619392	30	5950
2026-01-17 03:06:29.63	209.52	41.70	-28.7	-29.3	28.4	0.00e+00	0	27	0	1831862272	30	5939
2026-01-17 03:06:30.64	209.86	41.90	-28.8	-29.5	28.3	0.00e+00	0	27	0	1838153728	30	6043
2026-01-17 03:06:31.65	210.20	42.11	-28.7	-29.4	28.4	0.00e+00	0	27	0	1843396608	30	5979
2026-01-17 03:06:32.66	210.55	42.31	-28.8	-29.4	28.5	0.00e+00	0	27	0	1849688064	30	5976
2026-01-17 03:06:33.67	210.91	42.52	-28.6	-29.2	28.5	0.00e+00	0	27	0	1854930944	30	5854
2026-01-17 03:06:34.68	211.27	42.72	-28.7	-29.3	28.5	0.00e+00	0	27	0	1861222400	30	5899
2026-01-17 03:06:35.69	211.63	42.92	-28.7	-29.3	28.4	0.00e+00	0	27	0	1866465280	30	5956
2026-01-17 03:06:36.70	212.00	43.13	-29.0	-29.6	28.3	0.00e+00	0	27	0	1871708160	30	6144
2026-01-17 03:06:37.71	212.37	43.33	-28.9	-29.4	28.4	0.00e+00	0	27	0	1877999616	30	6028
2026-01-17 03:06:38.72	212.75	43.53	-29.1	-29.7	28.2	0.00e+00	0	27	0	1883242496	30	6184
2026-01-17 03:06:39.73	213.13	43.73	-29.2	-29.8	28.1	0.00e+00	0	27	0	1889533952	30	6287
2026-01-17 03:06:40.74	213.51	43.94	-29.0	-29.6	28.2	0.00e+00	0	27	0	1894776832	30	6162
2026-01-17 03:06:41.74	213.90	44.14	-28.8	-29.4	28.4	0.00e+00	0	27	0	1900019712	30	6000
2026-01-17 03:06:42.75	214.30	44.34	-28.9	-29.5	28.4	0.00e+00	0	27	0	1906311168	30	6054
2026-01-17 03:06:43.76	214.70	44.54	-29.0	-29.6	28.3	0.00e+00	0	27	0	1911554048	30	6120
2026-01-17 03:06:44.77	215.11	44.74	-29.0	-29.6	28.3	0.00e+00	0	27	0	1917845504	30	6110
2026-01-17 03:06:45.78	215.52	44.94	-29.0	-29.6	28.2	0.00e+00	0	27	0	1923088384	30	6156
2026-01-17 03:06:46.79	215.93	45.14	-29.0	-29.6	28.3	0.00e+00	0	27	0	1928331264	30	6153
2026-01-17 03:06:47.80	216.35	45.34	-29.2	-29.8	28.0	0.00e+00	0	27	0	1934622720	30	6281
2026-01-17 03:06:48.81	216.78	45.54	-29.3	-29.9	28.0	0.00e+00	0	27	0	1939865600	30	6387
2026-01-17 03:06:49.82	217.21	45.73	-29.3	-30.0	27.8	0.00e+00	0	27	0	1946157056	30	6397
2026-01-17 03:06:50.83	217.65	45.93	-29.1	-29.7	28.2	0.00e+00	0	27	0	1951399936	30	6195
2026-01-17 03:06:51.84	218.09	46.12	-28.7	-29.3	28.5	0.00e+00	0	27	0	1957691392	30	5943
2026-01-17 03:06:52.85	218.54	46.32	-28.5	-29.1	28.6	0.00e+00	0	27	0	1962934272	30	5799
2026-01-17 03:06:53.86	219.00	46.51	-28.8	-29.4	28.4	0.00e+00	0	27	0	1969225728	30	5970
2026-01-17 03:06:54.87	219.46	46.71	-29.0	-29.6	28.2	0.00e+00	0	27	0	1974468608	30	6131
2026-01-17 03:06:55.88	219.92	46.90	-29.1	-29.8	28.1	0.00e+00	0	27	0	1979711488	30	6281
2026-01-17 03:06:56.89	220.39	47.09	-29.2	-29.9	28.1	0.00e+00	0	27	0	1986002944	30	6324
2026-01-17 03:06:57.90	220.87	47.28	-28.9	-29.6	28.3	0.00e+00	0	27	0	1991245824	30	6110
2026-01-17 03:06:58.91	221.35	47.46	-28.8	-29.4	28.4	0.00e+00	0	27	0	1997537280	30	5998
2026-01-17 03:06:59.92	221.84	47.65	-28.9	-29.6	28.3	0.00e+00	0	27	0	2002780160	30	6104
2026-01-17 03:07:00.92	222.33	47.83	-28.9	-29.6	28.2	0.00e+00	0	27	0	2008023040	30	6111
2026-01-17 03:07:01.93	222.83	48.02	-29.0	-29.6	28.2	0.00e+00	0	27	0	2014314496	30	6155
2026-01-17 03:07:02.94	223.33	48.20	-28.9	-29.5	28.2	0.00e+00	0	27	0	2019557376	30	6092
2026-01-17 03:07:03.95	223.84	48.38	-29.2	-29.8	28.0	0.00e+00	0	27	0	2024800256	30	6278
2026-01-17 03:07:04.96	224.36	48.56	-29.3	-30.0	28.1	0.00e+00	0	27	0	2031091712	30	6402
2026-01-17 03:07:05.97	224.88	48.73	-29.1	-29.8	28.1	0.00e+00	0	27	0	2036334592	30	6257
2026-01-17 03:07:06.98	225.41	48.91	-29.3	-29.9	28.2	0.00e+00	0	27	0	2042626048	30	6328
2026-01-17 03:07:07.99	225.95	49.08	-28.8	-29.4	28.4	0.00e+00	0	27	0	2047868928	30	6013
2026-01-17 03:07:09.00	226.49	49.25	-28.7	-29.4	28.4	0.00e+00	0	27	0	2054160384	30	5978
2026-01-17 03:07:10.01	227.03	49.42	-29.1	-29.8	28.2	0.00e+00	0	27	0	2059403264	30	6261
2026-01-17 03:07:11.02	227.59	49.59	-29.4	-30.1	28.0	0.00e+00	0	27	0	2065694720	30	6466
2026-01-17 03:07:12.03	228.15	49.75	-29.6	-30.2	27.8	0.00e+00	0	27	0	2070937600	30	6575
2026-01-17 03:07:13.04	228.71	49.92	-29.5	-30.2	27.9	0.00e+00	0	27	0	2076180480	30	6551
2026-01-17 03:07:14.05	229.28	50.08	-29.2	-29.8	28.2	0.00e+00	0	27	0	2082471936	30	6295
2026-01-17 03:07:15.06	229.86	50.23	-29.2	-29.8	28.2	0.00e+00	0	27	0	2087714816	30	6304
2026-01-17 03:07:16.07	230.44	50.39	-29.3	-29.9	28.0	0.00e+00	0	27	0	2094006272	30	6382
2026-01-17 03:07:17.08	231.03	50.54	-29.4	-30.0	28.0	0.00e+00	0	27	0	2099249152	30	6424
2026-01-17 03:07:18.09	231.62	50.69	-29.5	-30.1	27.8	0.00e+00	0	27	0	2104492032	30	6509
2026-01-17 03:07:19.10	232.22	50.84	-29.5	-30.0	27.9	0.00e+00	0	27	0	2110783488	30	6462
2026-01-17 03:07:20.11	232.83	50.98	-29.3	-29.9	28.0	0.00e+00	0	27	0	2116026368	30	6343
2026-01-17 03:07:21.12	233.44	51.12	-29.4	-30.0	28.0	0.00e+00	0	27	0	2122317824	30	6391
2026-01-17 03:07:22.13	234.06	51.26	-29.3	-29.9	28.0	0.00e+00	0	27	0	2127560704	30	6359
2026-01-17 03:07:23.14	234.68	51.40	-29.0	-29.7	28.1	0.00e+00	0	27	0	2132803584	30	6188
2026-01-17 03:07:24.15	235.31	51.53	-29.3	-29.9	27.9	0.00e+00	0	27	0	2139095040	30	6378
2026-01-17 03:07:25.16	235.94	51.66	-29.7	-30.4	25.3	0.00e+00	0	27	0	2144337920	30	6702
2026-01-17 03:07:26.17	236.58	51.79	-29.8	-30.4	27.6	0.00e+00	0	27	0	2150629376	32	6017
2026-01-17 03:07:27.18	237.23	51.91	-29.6	-30.2	27.8	0.00e+00	0	27	0	2155872256	32	5848
2026-01-17 03:07:28.19	237.88	52.03	-29.5	-30.1	27.8	0.00e+00	0	27	0	2162163712	32	5781
2026-01-17 03:07:29.20	238.53	52.14	-29.7	-30.4	27.7	0.00e+00	0	27	0	2167406592	32	5993
2026-01-17 03:07:30.20	239.19	52.25	-29.5	-30.1	27.9	0.00e+00	0	27	0	2173698048	32	5786
2026-01-17 03:07:31.21	239.85	52.36	-29.5	-30.1	27.8	0.00e+00	0	27	0	2178940928	32	5768
2026-01-17 03:07:32.22	240.52	52.47	-29.7	-30.4	27.6	0.00e+00	0	27	0	2184183808	32	6008
2026-01-17 03:07:33.23	241.20	52.57	-29.7	-30.3	27.8	0.00e+00	0	27	0	2190475264	32	5933
2026-01-17 03:07:34.24	241.87	52.66	-29.6	-30.1	27.9	0.00e+00	0	27	0	2195718144	32	5818
2026-01-17 03:07:35.25	242.56	52.76	-29.6	-30.2	27.8	0.00e+00	0	27	0	2200961024	32	5872
2026-01-17 03:07:36.26	243.24	52.85	-29.8	-30.5	27.5	0.00e+00	0	27	0	2207252480	32	6038
2026-01-17 03:07:37.27	243.94	52.93	-29.5	-30.2	27.8	0.00e+00	0	27	0	2212495360	32	5847
2026-01-17 03:07:38.27	244.62	53.01	-29.7	-30.4	27.7	0.00e+00	0	27	0	2218786816	32	5979
2026-01-17 03:07:39.28	245.32	53.09	-29.6	-30.2	27.8	0.00e+00	0	27	0	2224029696	32	5862
2026-01-17 03:07:40.29	246.03	53.16	-29.6	-30.2	27.8	0.00e+00	0	27	0	2229272576	32	5889
2026-01-17 03:07:41.30	246.73	53.23	-29.8	-30.4	27.6	0.00e+00	0	27	0	2235564032	32	5992
2026-01-17 03:07:42.31	247.44	53.29	-29.7	-30.3	27.6	0.00e+00	0	27	0	2240806912	32	5950
2026-01-17 03:07:43.32	248.15	53.35	-29.7	-30.3	27.7	0.00e+00	0	27	0	2247098368	32	5926
2026-01-17 03:07:44.33	248.87	53.41	-29.6	-30.2	27.8	0.00e+00	0	27	0	2252341248	32	5895
2026-01-17 03:07:45.34	249.58	53.46	-29.9	-30.5	27.5	0.00e+00	0	27	0	2258632704	32	6041
2026-01-17 03:07:46.35	250.30	53.51	-29.7	-30.4	27.6	0.00e+00	0	27	0	2263875584	32	5990
2026-01-17 03:07:47.36	251.03	53.55	-29.5	-30.1	27.9	0.00e+00	0	27	0	2270167040	32	5797
2026-01-17 03:07:48.37	251.75	53.59	-29.3	-29.9	28.0	0.00e+00	0	27	0	2275409920	32	5679
2026-01-17 03:07:49.38	252.48	53.62	-29.6	-30.2	27.7	0.00e+00	0	27	0	2280652800	32	5880
2026-01-17 03:07:50.39	253.20	53.65	-29.8	-30.4	27.5	0.00e+00	0	27	0	2286944256	32	6029
2026-01-17 03:07:51.40	253.93	53.67	-29.9	-30.5	27.5	0.00e+00	0	27	0	2292187136	32	6094
2026-01-17 03:07:52.41	254.66	53.69	-30.2	-30.9	27.2	0.00e+00	0	27	0	2298478592	32	6320
2026-01-17 03:07:53.42	255.39	53.71	-30.0	-30.7	27.4	0.00e+00	0	27	0	2303721472	32	6188
2026-01-17 03:07:54.43	256.12	53.72	-29.8	-30.4	27.6	0.00e+00	0	27	0	2308964352	32	5988
2026-01-17 03:07:55.44	256.85	53.72	-29.9	-30.5	27.5	0.00e+00	0	27	0	2315255808	32	6048
2026-01-17 03:07:56.44	257.58	53.72	-30.4	-31.1	27.1	0.00e+00	0	27	0	2320498688	32	6466
2026-01-17 03:07:57.45	258.31	53.72	-30.5	-31.2	27.0	0.00e+00	0	27	0	2325741568	32	6579
2026-01-17 03:07:58.46	259.04	53.71	-30.0	-30.6	27.5	0.00e+00	0	27	0	2332033024	32	6165
2026-01-17 03:07:59.48	259.78	53.70	-29.9	-30.6	27.5	0.00e+00	0	27	0	2337275904	32	6119
2026-01-17 03:08:00.48	260.50	53.68	-29.8	-30.4	27.6	0.00e+00	0	27	0	2343567360	32	5986
2026-01-17 03:08:01.49	261.23	53.66	-29.9	-30.5	27.4	0.00e+00	0	27	0	2348810240	32	6094
2026-01-17 03:08:02.51	261.96	53.63	-29.9	-30.5	27.4	0.00e+00	0	27	0	2355101696	32	6088
2026-01-17 03:08:03.52	262.69	53.60	-29.6	-30.2	27.7	0.00e+00	0	27	0	2360344576	32	5891
2026-01-17 03:08:04.52	263.41	53.56	-29.6	-30.2	27.6	0.00e+00	0	27	0	2366636032	32	5871
2026-01-17 03:08:05.53	264.13	53.52	-29.6	-30.2	27.7	0.00e+00	0	27	0	2371878912	32	5859
2026-01-17 03:08:06.54	264.85	53.48	-29.7	-30.3	27.6	0.00e+00	0	27	0	2377121792	32	5920
2026-01-17 03:08:07.55	265.57	53.43	-29.6	-30.1	27.7	0.00e+00	0	27	0	2383413248	32	5821
2026-01-17 03:08:08.57	266.29	53.37	-29.4	-30.0	27.8	0.00e+00	0	27	0	2388656128	32	5753
2026-01-17 03:08:09.58	267.00	53.32	-29.4	-29.9	27.9	0.00e+00	0	27	0	2394947584	32	5683
2026-01-17 03:08:10.59	267.71	53.25	-29.9	-30.6	27.5	0.00e+00	0	27	0	2400190464	32	6148
2026-01-17 03:08:11.60	268.42	53.19	-29.8	-30.4	27.5	0.00e+00	0	27	0	2405433344	32	6022
2026-01-17 03:08:12.61	269.12	53.12	-29.7	-30.3	27.6	0.00e+00	0	27	0	2411724800	32	5926
2026-01-17 03:08:13.62	269.82	53.04	-29.2	-29.8	28.0	0.00e+00	0	27	0	2416967680	32	5624
2026-01-17 03:08:14.63	270.52	52.96	-29.4	-30.0	27.8	0.00e+00	0	27	0	2423259136	32	5716
2026-01-17 03:08:15.64	271.21	52.88	-29.5	-30.2	27.7	0.00e+00	0	27	0	2428502016	32	5840
2026-01-17 03:08:16.65	271.90	52.79	-29.6	-30.1	27.7	0.00e+00	0	27	0	2433744896	32	5826
2026-01-17 03:08:17.66	272.58	52.70	-29.7	-30.3	27.6	0.00e+00	0	27	0	2440036352	32	5954
2026-01-17 03:08:18.67	273.26	52.60	-29.9	-30.5	27.5	0.00e+00	0	27	0	2445279232	32	6043
2026-01-17 03:08:19.68	273.93	52.50	-29.8	-30.4	27.6	0.00e+00	0	27	0	2451570688	32	5966
2026-01-17 03:08:20.69	274.61	52.40	-29.7	-30.4	27.5	0.00e+00	0	27	0	2456813568	32	5995
2026-01-17 03:08:21.70	275.27	52.29	-29.6	-30.3	27.7	0.00e+00	0	27	0	2463105024	32	5961
2026-01-17 03:08:22.71	275.93	52.18	-29.4	-30.1	27.8	0.00e+00	0	27	0	2468347904	32	5785
2026-01-17 03:08:23.72	276.59	52.07	-29.4	-29.9	27.8	0.00e+00	0	27	0	2474639360	32	5689
2026-01-17 03:08:24.72	277.23	51.95	-29.5	-30.1	27.8	0.00e+00	0	27	0	2479882240	32	5808
2026-01-17 03:08:25.73	277.88	51.83	-29.5	-30.1	27.8	0.00e+00	0	27	0	2485125120	32	5798
2026-01-17 03:08:26.74	278.52	51.71	-29.7	-30.3	27.6	0.00e+00	0	27	0	2491416576	32	5919
2026-01-17 03:08:27.75	279.15	51.58	-29.7	-30.4	27.7	0.00e+00	0	27	0	2496659456	32	5970
2026-01-17 03:08:28.76	279.78	51.45	-29.5	-30.1	27.8	0.00e+00	0	27	0	2502950912	32	5810
2026-01-17 03:08:29.77	280.41	51.31	-29.4	-30.0	27.9	0.00e+00	0	27	0	2508193792	32	5749
2026-01-17 03:08:30.78	281.03	51.18	-29.1	-29.7	28.0	0.00e+00	0	27	0	2513436672	32	5518
2026-01-17 03:08:31.79	281.64	51.04	-29.3	-30.0	27.8	0.00e+00	0	27	0	2519728128	32	5730
2026-01-17 03:08:32.80	282.25	50.89	-29.7	-30.2	27.6	0.00e+00	0	27	0	2524971008	32	5893
2026-01-17 03:08:33.81	282.85	50.75	-29.8	-30.5	27.5	0.00e+00	0	27	0	2531262464	32	6062
2026-01-17 03:08:34.82	283.44	50.60	-29.4	-30.1	27.8	0.00e+00	0	27	0	2536505344	32	5809
2026-01-17 03:08:35.83	284.03	50.45	-29.0	-29.7	28.1	0.00e+00	0	27	0	2541748224	32	5542
2026-01-17 03:08:36.84	284.62	50.29	-29.1	-29.6	28.1	0.00e+00	0	27	0	2548039680	32	5475
2026-01-17 03:08:37.85	285.19	50.14	-29.1	-29.7	28.0	0.00e+00	0	27	0	2553282560	32	5524
2026-01-17 03:08:38.86	285.77	49.98	-29.0	-29.6	28.2	0.00e+00	0	27	0	2559574016	32	5475
2026-01-17 03:08:39.87	286.33	49.82	-29.1	-29.6	28.1	0.00e+00	0	27	0	2564816896	32	5478
2026-01-17 03:08:40.88	286.89	49.65	-29.2	-29.9	27.9	0.00e+00	0	27	0	2571108352	32	5654
2026-01-17 03:08:41.88	287.44	49.49	-29.3	-29.9	27.9	0.00e+00	0	27	0	2576351232	32	5680
2026-01-17 03:08:42.89	287.99	49.32	-29.5	-30.2	27.6	0.00e+00	0	27	0	2581594112	32	5833
2026-01-17 03:08:43.91	288.54	49.15	-29.3	-30.0	27.9	0.00e+00	0	27	0	2587885568	32	5705
2026-01-17 03:08:44.92	289.07	48.98	-29.0	-29.6	28.2	0.00e+00	0	27	0	2593128448	32	5492
2026-01-17 03:08:45.92	289.60	48.81	-29.3	-29.9	27.9	0.00e+00	0	27	0	2599419904	32	5686
2026-01-17 03:08:46.93	290.12	48.63	-29.5	-30.2	27.7	0.00e+00	0	27	0	2604662784	32	5839
2026-01-17 03:08:47.94	290.64	48.45	-29.7	-30.3	27.6	0.00e+00	0	27	0	2609905664	32	5939
2026-01-17 03:08:48.96	291.16	48.27	-28.8	-29.4	28.3	0.00e+00	0	27	0	2616197120	32	5323
2026-01-17 03:08:49.97	291.66	48.09	-28.8	-29.4	28.3	0.00e+00	0	27	0	2621440000	30	5971
2026-01-17 03:08:50.98	292.16	47.91	-29.2	-29.9	27.9	0.00e+00	0	27	0	2627731456	30	6321
2026-01-17 03:08:51.99	292.66	47.73	-29.4	-30.1	27.8	0.00e+00	0	27	0	2632974336	30	6467
2026-01-17 03:08:53.00	293.15	47.54	-29.3	-30.0	27.9	0.00e+00	0	27	0	2638217216	30	6402
2026-01-17 03:08:54.01	293.63	47.35	-29.0	-29.7	28.1	0.00e+00	0	27	0	2644508672	30	6174
2026-01-17 03:08:55.02	294.11	47.17	-28.9	-29.6	28.2	0.00e+00	0	27	0	2649751552	30	6110
2026-01-17 03:08:56.03	294.58	46.98	-29.1	-29.8	28.0	0.00e+00	0	27	0	2656043008	30	6282
2026-01-17 03:08:57.04	295.05	46.79	-29.3	-30.0	28.0	0.00e+00	0	27	0	2661285888	30	6435
2026-01-17 03:08:58.05	295.51	46.60	-29.3	-29.9	27.8	0.00e+00	0	27	0	2667577344	30	6353
2026-01-17 03:08:59.06	295.96	46.40	-29.1	-29.8	27.9	0.00e+00	0	27	0	2672820224	30	6257
2026-01-17 03:09:00.07	296.41	46.21	-29.0	-29.7	28.1	0.00e+00	0	27	0	2679111680	30	6194
2026-01-17 03:09:01.08	296.85	46.01	-28.8	-29.5	28.3	0.00e+00	0	27	0	2684354560	30	6042
2026-01-17 03:09:02.09	297.29	45.82	-29.0	-29.5	28.2	0.00e+00	0	27	0	2689597440	30	6073
2026-01-17 03:09:03.10	297.73	45.62	-29.2	-29.9	28.0	0.00e+00	0	27	0	2695888896	30	6335
2026-01-17 03:09:04.11	298.15	45.43	-29.4	-30.0	27.8	0.00e+00	0	27	0	2701131776	30	6428
2026-01-17 03:09:05.12	298.58	45.23	-29.4	-30.1	27.9	0.00e+00	0	27	0	2707423232	30	6506
2026-01-17 03:09:06.13	299.00	45.03	-29.3	-30.0	27.9	0.00e+00	0	27	0	2712666112	30	6424
2026-01-17 03:09:07.14	299.41	44.83	-29.0	-29.6	28.2	0.00e+00	0	27	0	2717908992	30	6109
2026-01-17 03:09:08.15	299.81	44.63	-28.9	-29.5	28.2	0.00e+00	0	27	0	2724200448	30	6053
2026-01-17 03:09:09.16	300.22	44.43	-29.1	-29.8	28.0	0.00e+00	0	27	0	2729443328	30	6286
2026-01-17 03:09:10.17	300.61	44.23	-29.2	-29.9	28.0	0.00e+00	0	27	0	2735734784	30	6367
2026-01-17 03:09:11.18	301.01	44.03	-29.3	-30.0	27.9	0.00e+00	0	27	0	2740977664	30	6420
2026-01-17 03:09:12.19	301.39	43.83	-29.4	-30.1	27.9	0.00e+00	0	27	0	2746220544	30	6489
2026-01-17 03:09:13.20	301.78	43.63	-29.3	-29.8	28.0	0.00e+00	0	27	0	2752512000	30	6295
2026-01-17 03:09:14.21	302.15	43.42	-29.3	-30.0	27.9	0.00e+00	0	27	0	2757754880	30	6425
2026-01-17 03:09:15.22	302.53	43.22	-29.2	-29.8	28.0	0.00e+00	0	27	0	2764046336	30	6255
2026-01-17 03:09:16.23	302.90	43.02	-29.3	-29.9	27.8	0.00e+00	0	27	0	2769289216	30	6336
2026-01-17 03:09:17.24	303.26	42.82	-29.3	-30.0	27.9	0.00e+00	0	27	0	2775580672	30	6391
2026-01-17 03:09:18.26	303.62	42.61	-29.5	-30.2	27.7	0.00e+00	0	27	0	2780823552	32	5846
2026-01-17 03:09:19.26	303.98	42.41	-29.4	-30.0	27.9	0.00e+00	0	27	0	2787115008	32	5729
2026-01-17 03:09:20.28	304.33	42.21	-29.2	-29.8	27.9	0.00e+00	0	27	0	2792357888	32	5600
2026-01-17 03:09:21.28	304.67	42.01	-29.1	-29.6	28.0	0.00e+00	0	27	0	2797600768	32	5488
2026-01-17 03:09:22.30	305.02	41.80	-29.0	-29.7	28.0	0.00e+00	0	27	0	2803892224	32	5527
2026-01-17 03:09:23.31	305.36	41.60	-28.8	-29.4	28.2	0.00e+00	0	27	0	2809135104	32	5368
2026-01-17 03:09:24.32	305.69	41.39	-28.8	-29.4	28.1	0.00e+00	0	27	0	2815426560	32	5332
2026-01-17 03:09:25.33	306.02	41.19	-28.9	-29.5	28.0	0.00e+00	0	27	0	2820669440	32	5392
2026-01-17 03:09:26.33	306.34	40.99	-28.6	-29.3	28.0	0.00e+00	0	27	0	2825912320	30	5958
2026-01-17 03:09:27.34	306.66	40.79	-28.7	-29.4	28.2	0.00e+00	0	27	0	2832203776	30	5966
2026-01-17 03:09:28.35	306.98	40.59	-28.6	-29.3	28.2	0.00e+00	0	27	0	2837446656	30	5951
2026-01-17 03:09:29.36	307.29	40.38	-28.7	-29.4	28.1	0.00e+00	0	27	0	2843738112	30	5967
2026-01-17 03:09:30.37	307.60	40.18	-28.6	-29.2	28.2	0.00e+00	0	27	0	2848980992	30	5834
2026-01-17 03:09:31.38	307.91	39.98	-28.7	-29.4	28.2	0.00e+00	0	27	0	2854223872	30	5988
2026-01-17 03:09:32.39	308.21	39.78	-28.7	-29.4	28.3	0.00e+00	0	27	0	2860515328	30	5990
2026-01-17 03:09:33.40	308.51	39.58	-28.8	-29.5	28.2	0.00e+00	0	27	0	2865758208	30	6099
2026-01-17 03:09:34.41	308.81	39.38	-29.0	-29.8	28.1	0.00e+00	0	27	0	2872049664	30	6255
2026-01-17 03:09:35.42	309.10	39.18	-28.9	-29.5	28.2	0.00e+00	0	27	0	2877292544	30	6038
2026-01-17 03:09:36.43	309.39	38.98	-28.6	-29.2	28.4	0.00e+00	0	27	0	2883584000	30	5835
2026-01-17 03:09:37.44	309.67	38.78	-28.4	-29.1	28.6	0.00e+00	0	27	0	2888826880	30	5771
2026-01-17 03:09:38.45	309.95	38.58	-28.1	-28.7	28.7	0.00e+00	0	27	0	2894069760	30	5530
2026-01-17 03:09:39.46	310.23	38.38	-28.3	-28.8	28.7	0.00e+00	0	27	0	2900361216	30	5584
2026-01-17 03:09:40.47	310.50	38.18	-28.3	-28.9	28.6	0.00e+00	0	27	0	2905604096	30	5676
2026-01-17 03:09:41.48	310.78	37.98	-28.3	-29.0	28.6	0.00e+00	0	27	0	2911895552	30	5734
2026-01-17 03:09:42.48	311.04	37.79	-28.5	-29.2	28.5	0.00e+00	0	27	0	2917138432	30	5849
2026-01-17 03:09:43.49	311.31	37.59	-28.6	-29.3	28.4	0.00e+00	0	27	0	2922381312	30	5929
2026-01-17 03:09:44.50	311.57	37.39	-28.5	-29.1	28.5	0.00e+00	0	27	0	2928672768	30	5767
2026-01-17 03:09:45.51	311.83	37.20	-28.5	-29.0	28.5	0.00e+00	0	27	0	2933915648	30	5755
2026-01-17 03:09:46.52	312.08	37.00	-28.3	-28.9	28.6	0.00e+00	0	27	0	2940207104	30	5684
2026-01-17 03:09:47.53	312.33	36.81	-28.2	-28.8	28.7	0.00e+00	0	27	0	2945449984	30	5584
2026-01-17 03:09:48.54	312.58	36.61	-28.3	-29.0	28.6	0.00e+00	0	27	0	2950692864	30	5739
2026-01-17 03:09:49.56	312.83	36.42	-28.5	-29.0	28.6	0.00e+00	0	27	0	2956984320	30	5731
2026-01-17 03:09:50.57	313.08	36.22	-28.6	-29.1	28.4	0.00e+00	0	27	0	2962227200	30	5822
2026-01-17 03:09:51.58	313.32	36.03	-28.7	-29.4	28.3	0.00e+00	0	27	0	2968518656	30	5999
2026-01-17 03:09:52.59	313.56	35.84	-28.6	-29.2	28.4	0.00e+00	0	27	0	2973761536	30	5847
2026-01-17 03:09:53.60	313.79	35.65	-28.9	-29.4	28.3	0.00e+00	0	27	0	2980052992	30	6013
2026-01-17 03:09:54.61	314.02	35.46	-28.7	-29.4	28.3	0.00e+00	0	27	0	2985295872	30	6024
2026-01-17 03:09:55.62	314.25	35.27	-28.4	-29.1	28.5	0.00e+00	0	27	0	2991587328	30	5808
2026-01-17 03:09:56.63	314.48	35.08	-28.4	-28.9	28.5	0.00e+00	0	27	0	2996830208	30	5681
2026-01-17 03:09:57.63	314.71	34.89	-28.3	-28.8	28.6	0.00e+00	0	27	0	3002073088	30	5595
2026-01-17 03:09:58.64	314.93	34.70	-28.4	-29.1	28.5	0.00e+00	0	27	0	3008364544	30	5804
2026-01-17 03:09:59.65	315.15	34.52	-28.4	-29.1	28.6	0.00e+00	0	27	0	3013607424	30	5789
2026-01-17 03:10:00.66	315.37	34.33	-28.5	-29.2	28.5	0.00e+00	0	27	0	3019898880	30	5853
2026-01-17 03:10:01.67	315.58	34.14	-28.4	-29.0	28.6	0.00e+00	0	27	0	3025141760	30	5716
2026-01-17 03:10:02.68	315.79	33.96	-28.6	-29.3	28.5	0.00e+00	0	27	0	3030384640	30	5926
2026-01-17 03:10:03.69	316.00	33.77	-28.5	-29.2	28.5	0.00e+00	0	27	0	3036676096	30	5855
2026-01-17 03:10:04.70	316.21	33.59	-28.7	-29.2	28.3	0.00e+00	0	27	0	3041918976	30	5861
2026-01-17 03:10:05.71	316.42	33.41	-28.7	-29.2	28.4	0.00e+00	0	27	0	3048210432	30	5863
2026-01-17 03:10:06.72	316.62	33.22	-28.8	-29.5	28.3	0.00e+00	0	27	0	3053453312	30	6043
2026-01-17 03:10:07.73	316.82	33.04	-28.9	-29.6	28.3	0.00e+00	0	27	0	3058696192	30	6123
2026-01-17 03:10:08.74	317.02	32.86	-28.8	-29.4	28.2	0.00e+00	0	27	0	3064987648	30	6028
2026-01-17 03:10:09.75	317.22	32.68	-28.8	-29.4	28.3	0.00e+00	0	27	0	3070230528	30	5981
2026-01-17 03:10:10.76	317.41	32.50	-28.9	-29.4	28.2	0.00e+00	0	27	0	3076521984	30	6004
2026-01-17 03:10:11.76	317.60	32.32	-28.9	-29.5	28.2	0.00e+00	0	27	0	3081764864	30	6096
2026-01-17 03:10:12.77	317.80	32.15	-29.0	-29.7	28.1	0.00e+00	0	27	0	3088056320	30	6179
2026-01-17 03:10:13.78	317.98	31.97	-29.1	-29.8	28.0	0.00e+00	0	27	0	3093299200	30	6312
2026-01-17 03:10:14.80	318.17	31.79	-29.2	-29.9	28.0	0.00e+00	0	27	0	3098542080	30	6324
2026-01-17 03:10:15.80	318.36	31.62	-29.2	-29.7	28.0	0.00e+00	0	27	0	3104833536	30	6236
2026-01-17 03:10:16.81	318.54	31.44	-29.1	-29.7	28.0	0.00e+00	0	27	0	3110076416	30	6196
2026-01-17 03:10:17.82	318.72	31.27	-29.2	-29.8	27.9	0.00e+00	0	27	0	3116367872	30	6260
2026-01-17 03:10:18.83	318.90	31.09	-29.2	-29.9	28.0	0.00e+00	0	27	0	3121610752	30	6352
2026-01-17 03:10:19.84	319.08	30.92	-29.1	-29.7	28.0	0.00e+00	0	27	0	3126853632	30	6199
2026-01-17 03:10:20.85	319.25	30.75	-29.1	-29.7	28.0	0.00e+00	0	27	0	3133145088	30	6202
2026-01-17 03:10:21.86	319.42	30.58	-29.0	-29.5	28.1	0.00e+00	0	27	0	3138387968	30	6102
2026-01-17 03:10:22.87	319.60	30.41	-29.0	-29.6	28.1	0.00e+00	0	27	0	3144679424	30	6115
2026-01-17 03:10:23.88	319.77	30.24	-29.0	-29.6	28.1	0.00e+00	0	27	0	3149922304	30	6106
2026-01-17 03:10:24.89	319.93	30.07	-29.1	-29.6	28.1	0.00e+00	0	27	0	3155165184	30	6169
2026-01-17 03:10:25.90	320.10	29.90	-29.0	-29.6	28.1	0.00e+00	0	27	0	3161456640	30	6129
2026-01-17 03:10:26.91	320.27	29.73	-29.2	-29.8	27.9	0.00e+00	0	27	0	3166699520	30	6259
2026-01-17 03:10:27.92	320.43	29.56	-29.1	-29.8	28.1	0.00e+00	0	27	0	3172990976	30	6281
2026-01-17 03:10:28.93	320.59	29.40	-29.2	-30.0	27.9	0.00e+00	0	27	0	3178233856	30	6393
2026-01-17 03:10:29.94	320.75	29.23	-29.2	-29.7	28.0	0.00e+00	0	27	0	3184525312	30	6241
2026-01-17 03:10:30.95	320.91	29.07	-29.3	-30.0	27.9	0.00e+00	0	27	0	3189768192	30	6397
2026-01-17 03:10:31.96	321.07	28.90	-29.1	-29.7	27.9	0.00e+00	0	27	0	3196059648	30	6203
2026-01-17 03:10:32.97	321.22	28.74	-29.1	-29.8	28.0	0.00e+00	0	27	0	3201302528	30	6290
2026-01-17 03:10:33.98	321.38	28.58	-29.2	-29.9	27.9	0.00e+00	0	27	0	3206545408	30	6361
2026-01-17 03:10:34.99	321.53	28.41	-29.2	-29.9	28.0	0.00e+00	0	27	0	3212836864	30	6325
2026-01-17 03:10:36.00	321.68	28.25	-29.2	-29.8	28.1	0.00e+00	0	27	0	3218079744	30	6249
2026-01-17 03:10:37.01	321.83	28.09	-29.2	-29.7	28.0	0.00e+00	0	27	0	3224371200	30	6211
2026-01-17 03:10:38.02	321.98	27.93	-29.0	-29.5	28.1	0.00e+00	0	27	0	3229614080	30	6096
2026-01-17 03:10:39.03	322.12	27.77	-29.0	-29.7	28.1	0.00e+00	0	27	0	3234856960	30	6211
2026-01-17 03:10:40.04	322.27	27.62	-29.1	-29.8	28.0	0.00e+00	0	27	0	3241148416	30	6306
2026-01-17 03:10:41.05	322.41	27.46	-29.1	-29.7	28.1	0.00e+00	0	27	0	3246391296	30	6221
2026-01-17 03:10:42.06	322.55	27.30	-29.0	-29.5	28.1	0.00e+00	0	27	0	3252682752	30	6094
2026-01-17 03:10:43.07	322.69	27.15	-29.0	-29.7	28.1	0.00e+00	0	27	0	3257925632	30	6201
2026-01-17 03:10:44.08	322.83	26.99	-29.0	-29.6	28.0	0.00e+00	0	27	0	3263168512	30	6144
2026-01-17 03:10:45.09	322.97	26.84	-29.0	-29.6	28.1	0.00e+00	0	27	0	3269459968	30	6138
2026-01-17 03:10:46.10	323.11	26.68	-29.0	-29.7	28.1	0.00e+00	0	27	0	3274702848	30	6230
2026-01-17 03:10:47.11	323.24	26.53	-28.9	-29.7	28.1	0.00e+00	0	27	0	3280994304	30	6176
2026-01-17 03:10:48.12	323.38	26.38	-29.1	-29.8	28.1	0.00e+00	0	27	0	3286237184	30	6281
2026-01-17 03:10:49.13	323.51	26.22	-29.2	-29.9	28.0	0.00e+00	0	27	0	3292528640	30	6335
2026-01-17 03:10:50.14	323.64	26.07	-29.0	-29.6	28.0	0.00e+00	0	27	0	3297771520	30	6140
2026-01-17 03:10:51.15	323.78	25.92	-28.9	-29.5	28.1	0.00e+00	0	27	0	3303014400	30	6055
2026-01-17 03:10:52.16	323.91	25.77	-29.0	-29.6	28.1	0.00e+00	0	27	0	3309305856	30	6121
2026-01-17 03:10:53.17	324.03	25.62	-29.0	-29.5	28.1	0.00e+00	0	27	0	3314548736	30	6094
2026-01-17 03:10:54.18	324.16	25.48	-29.1	-29.8	28.0	0.00e+00	0	27	0	3320840192	30	6247
2026-01-17 03:10:55.19	324.29	25.33	-29.2	-29.9	27.9	0.00e+00	0	27	0	3326083072	30	6362
2026-01-17 03:10:56.20	324.41	25.18	-29.3	-29.9	27.9	0.00e+00	0	27	0	3331325952	30	6332
2026-01-17 03:10:57.21	324.54	25.04	-29.4	-30.0	27.7	0.00e+00	0	27	0	3337617408	30	6420
2026-01-17 03:10:58.22	324.66	24.89	-29.5	-30.1	27.7	0.00e+00	0	27	0	3342860288	30	6484
2026-01-17 03:10:59.23	324.78	24.74	-29.7	-30.3	27.5	0.00e+00	0	27	0	3349151744	30	6649
2026-01-17 03:11:00.24	324.90	24.60	-29.7	-30.4	27.5	0.00e+00	0	27	0	3354394624	32	6008
2026-01-17 03:11:01.25	325.02	24.46	-29.9	-30.5	27.3	0.00e+00	0	27	0	3359637504	32	6035
2026-01-17 03:11:02.26	325.14	24.31	-29.6	-30.2	27.5	0.00e+00	0	27	0	3365928960	32	5874
2026-01-17 03:11:03.27	325.26	24.17	-29.6	-30.2	27.6	0.00e+00	0	27	0	3371171840	32	5833
2026-01-17 03:11:04.28	325.37	24.03	-29.6	-30.1	27.6	0.00e+00	0	27	0	3377463296	32	5822
2026-01-17 03:11:05.29	325.49	23.89	-29.4	-30.0	27.8	0.00e+00	0	27	0	3382706176	32	5715
2026-01-17 03:11:06.30	325.60	23.75	-29.4	-29.9	27.8	0.00e+00	0	27	0	3388997632	32	5664
2026-01-17 03:11:07.31	325.72	23.61	-29.4	-30.0	27.8	0.00e+00	0	27	0	3394240512	32	5699
2026-01-17 03:11:08.32	325.83	23.47	-29.5	-30.2	27.6	0.00e+00	0	27	0	3400531968	32	5836
2026-01-17 03:11:09.32	325.94	23.33	-29.4	-30.1	27.7	0.00e+00	0	27	0	3405774848	32	5774
2026-01-17 03:11:10.33	326.05	23.20	-29.4	-30.0	27.8	0.00e+00	0	27	0	3411017728	32	5703
2026-01-17 03:11:11.34	326.16	23.06	-29.5	-30.1	27.7	0.00e+00	0	27	0	3417309184	32	5766
2026-01-17 03:11:12.35	326.27	22.92	-29.6	-30.3	27.6	0.00e+00	0	27	0	3422552064	32	5901
2026-01-17 03:11:13.36	326.38	22.79	-29.8	-30.5	27.4	0.00e+00	0	27	0	3428843520	32	6074
2026-01-17 03:11:14.37	326.49	22.65	-29.9	-30.6	27.3	0.00e+00	0	27	0	3434086400	32	6146
2026-01-17 03:11:15.38	326.59	22.52	-30.0	-30.7	27.3	0.00e+00	0	27	0	3439329280	32	6198
2026-01-17 03:11:16.39	326.70	22.38	-30.2	-30.9	27.1	0.00e+00	0	27	0	3445620736	32	6366
2026-01-17 03:11:17.40	326.80	22.25	-30.2	-31.0	27.1	0.00e+00	0	27	0	3450863616	32	6406
2026-01-17 03:11:18.41	326.90	22.12	-30.2	-30.9	27.2	0.00e+00	0	27	0	3457155072	32	6365
2026-01-17 03:11:19.42	327.01	21.98	-30.3	-31.0	27.0	0.00e+00	0	27	0	3462397952	32	6432
2026-01-17 03:11:20.43	327.11	21.85	-30.3	-31.0	27.0	0.00e+00	0	27	0	3467640832	32	6463
2026-01-17 03:11:21.44	327.21	21.72	-30.3	-31.0	27.0	0.00e+00	0	28	0	3473932288	32	6452
2026-01-17 03:11:22.45	327.31	21.59	-30.2	-31.0	27.1	0.00e+00	0	28	0	3479175168	32	6412
2026-01-17 03:11:23.46	327.41	21.46	-30.2	-30.9	27.1	0.00e+00	0	27	0	3485466624	32	6366
2026-01-17 03:11:24.47	327.51	21.33	-30.3	-30.9	27.0	0.00e+00	0	28	0	3490709504	32	6331
2026-01-17 03:11:25.48	327.61	21.20	-30.2	-30.9	27.1	0.00e+00	0	27	0	3497000960	32	6382
2026-01-17 03:11:26.49	327.70	21.08	-30.1	-30.7	27.1	0.00e+00	0	28	0	3502243840	32	6203
2026-01-17 03:11:27.50	327.80	20.95	-30.2	-30.8	27.1	0.00e+00	0	28	0	3507486720	32	6258
2026-01-17 03:11:28.51	327.90	20.82	-30.0	-30.5	27.2	0.00e+00	0	27	0	3513778176	32	6103
2026-01-17 03:11:29.52	327.99	20.70	-30.0	-30.7	27.2	0.00e+00	0	28	0	3519021056	32	6204
2026-01-17 03:11:30.53	328.09	20.57	-30.1	-30.8	27.1	0.00e+00	0	28	0	3525312512	32	6294
2026-01-17 03:11:31.54	328.18	20.44	-30.1	-30.8	27.2	0.00e+00	0	28	0	3530555392	32	6269
2026-01-17 03:11:32.55	328.27	20.32	-30.0	-30.6	27.2	0.00e+00	0	28	0	3535798272	32	6139
2026-01-17 03:11:33.56	328.36	20.20	-30.1	-30.6	27.1	0.00e+00	0	28	0	3542089728	32	6171
2026-01-17 03:11:34.57	328.46	20.07	-30.2	-30.7	27.0	0.00e+00	0	28	0	3547332608	32	6227
2026-01-17 03:11:35.58	328.55	19.95	-30.4	-30.9	26.9	0.00e+00	0	28	0	3553624064	32	6366
2026-01-17 03:11:36.59	328.64	19.83	-30.3	-30.8	26.9	0.00e+00	0	28	0	3558866944	32	6305
2026-01-17 03:11:37.60	328.72	19.71	-30.5	-31.1	26.8	0.00e+00	0	28	0	3564109824	32	6470
2026-01-17 03:11:38.61	328.81	19.58	-30.4	-31.0	26.9	0.00e+00	0	28	0	3570401280	32	6424
2026-01-17 03:11:39.62	328.90	19.46	-30.5	-31.1	26.9	0.00e+00	0	27	0	3575644160	32	6486
2026-01-17 03:11:40.63	328.99	19.34	-30.5	-31.1	26.7	0.00e+00	0	28	0	3581935616	32	6474
2026-01-17 03:11:41.64	329.08	19.22	-30.5	-31.1	26.8	0.00e+00	0	28	0	3587178496	32	6513
2026-01-17 03:11:42.65	329.16	19.10	-30.8	-31.3	26.6	0.00e+00	0	28	0	3593469952	32	6674
2026-01-17 03:11:43.66	329.25	18.98	-30.5	-31.1	26.8	0.00e+00	0	28	0	3598712832	34	5786
2026-01-17 03:11:44.67	329.33	18.87	-30.5	-31.2	26.8	0.00e+00	0	28	0	3605004288	34	5878
2026-01-17 03:11:45.68	329.42	18.75	-30.6	-31.2	26.6	0.00e+00	0	28	0	3610247168	34	5855
2026-01-17 03:11:46.69	329.50	18.63	-30.6	-31.2	26.7	0.00e+00	0	28	0	3615490048	34	5862
2026-01-17 03:11:47.70	329.58	18.51	-30.9	-31.4	26.5	0.00e+00	0	28	0	3621781504	34	6010
