passes_logs/2026/01/17/R4.6S_Anadyr/R4.6S_Anadyr__20260117_124709_NOAA_20_JPSS-1_rec.log

#Pass ID: 20260117_124709_NOAA 20 (JPSS-1)
#Satellite: NOAA 20 (JPSS-1)
#Configuration: NOAA 20
#almurnet v.1.7.20251203
#Start time: 2026-01-17 12:47:11

#Version: 2.2.20231116
#Station: R4.6S_Anadyr
#Location: 177.4865 lon 64.73178 lat
#TLE: 1 43013U 17073A   26016.52825843  .00000039  00000+0  39346-4 0  9991
#TLE: 2 43013  98.7637 317.4515 0001446  37.2648 322.8628 14.19536276422951

#Time	Az	El	Level	Level2	SNR	BER	BlckErr	Temp	State	Recorded	gain1	gain2
2026-01-17 12:47:11.03	18.83	0.09	-48.5	-63.5	3.5	1.51e+00	0	25	0	0	60	54008
2026-01-17 12:47:12.04	18.89	0.14	-48.6	-63.8	3.6	1.51e+00	0	26	104	0	60	55922
2026-01-17 12:47:13.05	18.96	0.19	-48.6	-63.8	3.6	1.51e+00	0	26	104	0	60	55908
2026-01-17 12:47:14.06	19.02	0.24	-48.5	-63.8	3.6	1.51e+00	0	26	104	0	60	55778
2026-01-17 12:47:15.07	19.08	0.30	-48.6	-63.8	3.6	1.51e+00	0	26	104	0	60	56002
2026-01-17 12:47:16.08	19.15	0.35	-48.6	-63.8	3.6	1.51e+00	0	26	104	0	60	55832
2026-01-17 12:47:17.09	19.21	0.40	-48.6	-63.8	3.6	1.51e+00	0	26	104	0	60	56080
2026-01-17 12:47:18.10	19.27	0.46	-48.6	-63.8	3.6	1.51e+00	0	26	104	0	60	55768
2026-01-17 12:47:19.11	19.34	0.51	-48.4	-63.7	3.6	1.51e+00	0	26	104	0	60	55284
2026-01-17 12:47:20.12	19.40	0.56	-48.4	-63.6	3.6	1.51e+00	0	26	104	0	60	54883
2026-01-17 12:47:21.13	19.47	0.62	-48.3	-63.5	3.6	1.51e+00	0	26	104	0	60	54079
2026-01-17 12:47:22.14	19.53	0.67	-48.2	-63.4	3.6	1.51e+00	0	26	104	0	60	53305
2026-01-17 12:47:23.15	19.60	0.72	-48.1	-63.3	3.6	1.51e+00	0	26	104	0	60	52704
2026-01-17 12:47:24.16	19.66	0.78	-47.9	-63.1	3.6	1.51e+00	0	26	104	0	60	51412
2026-01-17 12:47:25.17	19.73	0.83	-47.7	-62.9	3.6	1.51e+00	0	26	104	0	60	50335
2026-01-17 12:47:26.18	19.79	0.88	-47.4	-62.6	3.6	1.51e+00	0	26	104	0	60	48674
2026-01-17 12:47:27.19	19.86	0.94	-47.0	-62.1	3.5	1.51e+00	0	26	104	0	60	45973
2026-01-17 12:47:28.20	19.92	0.99	-46.9	-62.0	3.6	1.51e+00	0	26	104	0	60	45327
2026-01-17 12:47:29.21	19.99	1.05	-46.9	-62.0	3.6	1.51e+00	0	26	104	0	60	45618
2026-01-17 12:47:30.22	20.06	1.10	-46.9	-61.9	3.6	1.51e+00	0	26	104	0	60	44786
2026-01-17 12:47:31.23	20.12	1.15	-46.9	-61.9	3.6	1.51e+00	0	26	104	0	60	44939
2026-01-17 12:47:32.25	20.19	1.21	-46.9	-61.9	3.6	1.51e+00	0	26	104	0	60	44961
2026-01-17 12:47:33.25	20.26	1.26	-46.9	-62.0	3.6	1.51e+00	0	26	104	0	60	45284
2026-01-17 12:47:34.26	20.33	1.32	-46.9	-62.1	3.6	1.51e+00	0	26	104	0	60	45838
2026-01-17 12:47:35.28	20.39	1.37	-46.9	-62.0	3.6	1.51e+00	0	26	104	0	60	45605
2026-01-17 12:47:36.28	20.46	1.43	-46.9	-62.0	3.6	1.51e+00	0	26	104	0	60	45627
2026-01-17 12:47:37.29	20.53	1.48	-46.9	-62.0	3.6	1.51e+00	0	26	104	0	60	45395
2026-01-17 12:47:38.30	20.60	1.54	-46.9	-62.0	3.6	1.51e+00	0	26	104	0	60	45442
2026-01-17 12:47:39.31	20.67	1.59	-46.9	-62.0	3.6	1.51e+00	0	26	104	0	60	45458
2026-01-17 12:47:40.32	20.73	1.64	-46.9	-62.0	3.6	1.51e+00	0	26	104	0	60	45485
2026-01-17 12:47:41.33	20.80	1.70	-46.9	-62.0	3.6	1.51e+00	0	26	104	0	60	45459
2026-01-17 12:47:42.34	20.87	1.75	-46.9	-61.9	3.6	1.51e+00	0	26	104	0	60	45170
2026-01-17 12:47:43.36	20.94	1.81	-46.9	-62.0	3.6	1.51e+00	0	27	104	0	60	45249
2026-01-17 12:47:44.36	21.01	1.86	-46.8	-61.9	3.6	1.51e+00	0	26	104	0	60	44927
2026-01-17 12:47:45.38	21.08	1.92	-46.8	-61.9	3.6	1.51e+00	0	26	104	0	60	45184
2026-01-17 12:47:46.39	21.15	1.98	-46.8	-61.9	3.6	1.51e+00	0	26	104	0	60	45106
2026-01-17 12:47:47.39	21.22	2.03	-46.8	-62.0	3.6	1.51e+00	0	26	104	0	60	45266
2026-01-17 12:47:48.40	21.29	2.09	-46.8	-61.9	3.6	1.51e+00	0	27	104	0	60	45129
2026-01-17 12:47:49.41	21.36	2.14	-46.8	-61.9	3.6	1.51e+00	0	27	104	0	60	45198
2026-01-17 12:47:50.42	21.44	2.20	-46.8	-62.0	3.6	1.51e+00	0	27	104	0	60	45477
2026-01-17 12:47:51.43	21.51	2.25	-46.9	-62.0	3.6	1.51e+00	0	26	104	0	60	45381
2026-01-17 12:47:52.44	21.58	2.31	-46.8	-61.6	3.6	1.51e+00	0	27	104	0	60	43520
2026-01-17 12:47:53.45	21.65	2.36	-46.8	-60.9	3.6	1.51e+00	0	27	104	0	60	39944
2026-01-17 12:47:54.47	21.72	2.42	-46.8	-60.6	3.6	1.51e+00	0	27	104	0	60	38522
2026-01-17 12:47:55.48	21.80	2.48	-46.8	-60.3	3.6	1.51e+00	0	27	104	0	60	37505
2026-01-17 12:47:56.49	21.87	2.53	-46.8	-60.2	3.6	1.51e+00	0	27	104	0	60	37144
2026-01-17 12:47:57.50	21.94	2.59	-46.7	-59.6	3.8	1.51e+00	0	27	104	0	60	34347
2026-01-17 12:47:58.51	22.01	2.64	-46.5	-55.9	4.7	1.33e+00	0	27	0	0	60	22456
2026-01-17 12:47:59.52	22.09	2.70	-45.9	-52.0	8.5	1.36e-01	47	27	0	2097152	60	14336
2026-01-17 12:48:00.53	22.16	2.76	-44.8	-49.0	12.0	6.11e-03	0	27	0	4194304	60	10140
2026-01-17 12:48:01.54	22.24	2.81	-43.6	-46.7	14.4	5.87e-05	92	27	0	6291456	60	7784
2026-01-17 12:48:02.55	22.31	2.87	-42.6	-45.1	16.2	0.00e+00	0	27	0	7340032	60	6467
2026-01-17 12:48:03.56	22.38	2.93	-41.7	-43.7	17.3	0.00e+00	0	26	0	9437184	58	6192
2026-01-17 12:48:04.57	22.46	2.98	-41.1	-42.9	18.1	0.00e+00	52	27	0	11534336	56	6351
2026-01-17 12:48:05.58	22.53	3.04	-41.1	-42.8	18.1	0.00e+00	0	27	0	13631488	56	6315
2026-01-17 12:48:06.59	22.61	3.10	-41.3	-43.1	17.9	0.00e+00	0	27	0	15728640	56	6523
2026-01-17 12:48:07.60	22.68	3.15	-42.1	-44.3	16.6	0.00e+00	0	27	0	16777216	56	7477
2026-01-17 12:48:08.60	22.76	3.21	-43.2	-46.0	14.8	0.00e+00	92	27	0	18874368	58	8084
2026-01-17 12:48:09.61	22.84	3.27	-42.8	-45.2	16.4	6.80e-06	45	27	0	20971520	60	6615
2026-01-17 12:48:10.62	22.91	3.32	-42.5	-44.9	15.2	0.00e+00	92	27	0	23068672	56	7956
2026-01-17 12:48:11.64	22.99	3.38	-46.2	-54.8	5.1	1.09e+00	0	27	104	24117248	60	19862
2026-01-17 12:48:12.65	23.07	3.44	-44.6	-48.5	13.0	2.92e-01	52	27	104	24117248	60	9667
2026-01-17 12:48:13.66	23.14	3.50	-43.2	-45.8	14.6	5.30e-06	29	27	0	25165824	60	7046
2026-01-17 12:48:14.66	23.22	3.55	-46.9	-60.4	3.8	1.14e+00	0	27	104	25165824	60	37883
2026-01-17 12:48:15.67	23.30	3.61	-44.2	-47.8	12.9	2.44e-01	93	27	104	25165824	60	8867
2026-01-17 12:48:16.68	23.38	3.67	-43.8	-46.8	14.4	2.20e-06	35	27	0	26214400	60	7943
2026-01-17 12:48:17.69	23.45	3.73	-43.8	-46.9	14.3	0.00e+00	92	27	0	28311552	60	8032
2026-01-17 12:48:18.70	23.53	3.78	-43.6	-46.5	14.7	0.00e+00	5	27	0	29360128	60	7639
2026-01-17 12:48:19.71	23.61	3.84	-43.2	-45.8	15.4	0.00e+00	5	27	0	31457280	60	7062
2026-01-17 12:48:20.72	23.69	3.90	-43.1	-45.6	15.6	0.00e+00	0	27	0	33554432	60	6890
2026-01-17 12:48:21.73	23.77	3.96	-43.1	-45.7	16.2	0.00e+00	0	27	0	35651584	60	6938
2026-01-17 12:48:22.74	23.85	4.01	-42.4	-44.6	16.3	0.00e+00	0	27	0	37748736	58	6866
2026-01-17 12:48:23.75	23.93	4.07	-42.2	-44.2	17.1	0.00e+00	0	27	0	38797312	58	6597
2026-01-17 12:48:24.76	24.01	4.13	-42.2	-44.3	16.7	0.00e+00	92	27	0	40894464	58	6663
2026-01-17 12:48:25.76	24.09	4.19	-42.3	-44.4	17.0	0.00e+00	0	27	0	42991616	58	6752
2026-01-17 12:48:26.77	24.17	4.25	-42.3	-44.4	16.7	0.00e+00	52	27	0	45088768	58	6753
2026-01-17 12:48:27.78	24.25	4.31	-42.3	-44.5	16.9	0.00e+00	0	27	0	47185920	58	6770
2026-01-17 12:48:28.79	24.34	4.36	-42.3	-44.4	16.8	0.00e+00	53	27	0	48234496	58	6748
2026-01-17 12:48:29.80	24.42	4.42	-42.5	-44.6	17.0	0.00e+00	0	27	0	50331648	58	6909
2026-01-17 12:48:30.81	24.50	4.48	-42.2	-44.2	16.8	0.00e+00	52	27	0	52428800	58	6578
2026-01-17 12:48:31.82	24.58	4.54	-42.6	-44.8	16.6	0.00e+00	92	27	0	54525952	58	7059
2026-01-17 12:48:32.82	24.66	4.60	-42.0	-43.9	17.1	0.00e+00	37	27	0	56623104	58	6360
2026-01-17 12:48:33.84	24.75	4.66	-42.3	-44.5	17.3	0.00e+00	92	27	0	57671680	58	6775
2026-01-17 12:48:34.84	24.83	4.72	-42.4	-44.5	16.8	0.00e+00	33	27	0	59768832	58	6824
2026-01-17 12:48:35.85	24.91	4.78	-42.7	-45.0	16.5	0.00e+00	7	27	0	61865984	58	7204
2026-01-17 12:48:36.85	25.00	4.83	-42.0	-43.9	17.5	0.00e+00	33	27	0	63963136	58	6356
2026-01-17 12:48:37.86	25.08	4.89	-41.8	-43.7	17.7	0.00e+00	31	27	0	66060288	56	6943
2026-01-17 12:48:38.87	25.17	4.95	-41.2	-42.9	18.6	0.00e+00	35	27	0	68157440	56	6368
2026-01-17 12:48:39.88	25.25	5.01	-40.9	-42.5	18.9	0.00e+00	7	27	0	69206016	56	6037
2026-01-17 12:48:40.89	25.34	5.07	-41.0	-42.7	18.7	0.00e+00	90	27	0	71303168	56	6175
2026-01-17 12:48:41.90	25.42	5.13	-40.3	-41.8	19.6	0.00e+00	0	27	0	73400320	54	6250
2026-01-17 12:48:42.91	25.51	5.19	-40.4	-41.9	19.6	0.00e+00	7	27	0	75497472	54	6324
2026-01-17 12:48:43.91	25.60	5.25	-40.3	-41.7	19.7	0.00e+00	6	27	0	77594624	54	6221
2026-01-17 12:48:44.92	25.68	5.31	-40.1	-41.5	19.9	0.00e+00	6	27	0	78643200	54	6064
2026-01-17 12:48:45.93	25.77	5.37	-40.4	-41.9	19.5	0.00e+00	0	27	0	80740352	54	6343
2026-01-17 12:48:46.94	25.86	5.43	-40.4	-41.8	19.6	0.00e+00	0	27	0	82837504	54	6288
2026-01-17 12:48:47.95	25.94	5.49	-40.2	-41.6	19.7	0.00e+00	91	27	0	84934656	54	6158
2026-01-17 12:48:48.96	26.03	5.55	-40.2	-41.6	19.7	0.00e+00	49	27	0	87031808	54	6168
2026-01-17 12:48:49.97	26.12	5.61	-40.1	-41.4	20.0	0.00e+00	48	27	0	88080384	54	6027
2026-01-17 12:48:50.98	26.21	5.67	-40.0	-41.4	20.1	0.00e+00	53	27	0	90177536	54	5971
2026-01-17 12:48:51.99	26.30	5.73	-40.2	-41.6	19.8	0.00e+00	53	27	0	92274688	54	6111
2026-01-17 12:48:53.00	26.39	5.79	-40.0	-41.4	20.1	0.00e+00	51	27	0	94371840	54	5972
2026-01-17 12:48:54.01	26.48	5.85	-39.9	-41.3	20.1	0.00e+00	55	27	0	96468992	54	5925
2026-01-17 12:48:55.02	26.57	5.91	-40.0	-41.4	20.1	0.00e+00	92	27	0	97517568	54	5981
2026-01-17 12:48:56.03	26.66	5.97	-40.0	-41.4	20.1	0.00e+00	33	27	0	99614720	54	5998
2026-01-17 12:48:57.04	26.75	6.04	-40.0	-41.4	20.0	0.00e+00	94	27	0	101711872	54	5995
2026-01-17 12:48:58.04	26.84	6.10	-39.8	-41.1	20.3	0.00e+00	48	27	0	103809024	54	5798
2026-01-17 12:48:59.05	26.93	6.16	-40.0	-41.3	20.2	0.00e+00	28	27	0	105906176	52	6661
2026-01-17 12:49:00.06	27.02	6.22	-39.8	-41.1	20.4	0.00e+00	28	27	0	106954752	52	6534
2026-01-17 12:49:01.07	27.12	6.28	-39.6	-40.9	20.6	0.00e+00	28	27	0	109051904	52	6321
2026-01-17 12:49:02.08	27.21	6.34	-39.9	-41.2	20.4	0.00e+00	92	27	0	111149056	52	6560
2026-01-17 12:49:03.09	27.30	6.40	-39.7	-41.0	20.5	0.00e+00	0	27	0	113246208	52	6396
2026-01-17 12:49:04.10	27.40	6.46	-39.9	-41.2	20.4	0.00e+00	91	27	0	115343360	52	6547
2026-01-17 12:49:05.11	27.49	6.52	-39.8	-41.0	20.5	0.00e+00	0	27	0	116391936	52	6451
2026-01-17 12:49:06.12	27.58	6.59	-39.7	-41.0	20.5	0.00e+00	7	27	0	118489088	52	6414
2026-01-17 12:49:07.12	27.68	6.65	-40.0	-41.3	20.3	0.00e+00	0	27	0	120586240	52	6624
2026-01-17 12:49:08.13	27.77	6.71	-40.2	-41.5	20.0	0.00e+00	0	27	0	122683392	52	6836
2026-01-17 12:49:09.14	27.87	6.77	-40.1	-41.5	20.1	0.00e+00	0	27	0	124780544	52	6783
2026-01-17 12:49:10.15	27.96	6.83	-40.1	-41.4	20.2	0.00e+00	0	27	0	125829120	52	6725
2026-01-17 12:49:11.16	28.06	6.90	-40.2	-41.5	20.1	0.00e+00	92	27	0	127926272	52	6818
2026-01-17 12:49:12.17	28.16	6.96	-40.1	-41.4	20.2	0.00e+00	48	27	0	130023424	52	6736
2026-01-17 12:49:13.18	28.25	7.02	-40.0	-41.3	20.3	0.00e+00	91	27	0	132120576	52	6626
2026-01-17 12:49:14.19	28.35	7.08	-40.0	-41.4	20.3	0.00e+00	48	27	0	134217728	52	6707
2026-01-17 12:49:15.20	28.45	7.14	-40.1	-41.5	20.1	0.00e+00	0	27	0	135266304	52	6787
2026-01-17 12:49:16.21	28.55	7.21	-40.2	-41.6	20.1	0.00e+00	46	27	0	137363456	52	6859
2026-01-17 12:49:17.22	28.64	7.27	-40.1	-41.4	20.3	0.00e+00	27	27	0	139460608	52	6717
2026-01-17 12:49:18.22	28.74	7.33	-39.8	-41.1	20.5	0.00e+00	92	27	0	141557760	52	6518
2026-01-17 12:49:19.23	28.84	7.39	-40.0	-41.3	20.3	0.00e+00	27	27	0	143654912	52	6683
2026-01-17 12:49:20.24	28.94	7.46	-40.0	-41.3	20.3	0.00e+00	92	27	0	144703488	52	6633
2026-01-17 12:49:21.25	29.04	7.52	-39.8	-41.1	20.6	0.00e+00	0	27	0	146800640	52	6465
2026-01-17 12:49:22.26	29.14	7.58	-39.9	-41.2	20.3	0.00e+00	2	27	0	148897792	52	6577
2026-01-17 12:49:23.27	29.24	7.65	-40.0	-41.3	20.3	0.00e+00	0	27	0	150994944	52	6631
2026-01-17 12:49:24.27	29.34	7.71	-39.9	-41.2	20.2	0.00e+00	2	27	0	153092096	52	6557
2026-01-17 12:49:25.28	29.45	7.77	-40.1	-41.4	20.3	0.00e+00	91	27	0	154140672	52	6704
2026-01-17 12:49:26.28	29.55	7.84	-39.8	-41.1	20.5	0.00e+00	0	27	0	156237824	52	6484
2026-01-17 12:49:27.29	29.65	7.90	-40.1	-41.4	20.3	0.00e+00	90	27	0	158334976	52	6761
2026-01-17 12:49:28.30	29.75	7.96	-39.8	-41.1	20.6	0.00e+00	0	27	0	160432128	52	6494
2026-01-17 12:49:29.31	29.86	8.03	-39.9	-41.2	20.6	0.00e+00	10	27	0	162529280	52	6540
2026-01-17 12:49:30.32	29.96	8.09	-39.9	-41.1	20.7	0.00e+00	0	27	0	164626432	52	6538
2026-01-17 12:49:31.33	30.06	8.15	-39.7	-40.9	20.7	0.00e+00	0	27	0	165675008	52	6380
2026-01-17 12:49:32.34	30.17	8.22	-40.1	-41.4	20.3	0.00e+00	0	27	0	167772160	52	6722
2026-01-17 12:49:33.35	30.27	8.28	-40.2	-41.5	20.3	0.00e+00	55	27	0	169869312	52	6830
2026-01-17 12:49:34.36	30.38	8.34	-40.1	-41.4	20.4	0.00e+00	92	27	0	171966464	52	6707
2026-01-17 12:49:35.37	30.49	8.41	-39.9	-41.2	20.5	0.00e+00	54	27	0	174063616	52	6582
2026-01-17 12:49:36.38	30.59	8.47	-39.5	-40.8	21.0	0.00e+00	92	27	0	175112192	52	6249
2026-01-17 12:49:37.39	30.70	8.54	-39.7	-40.9	20.9	0.00e+00	49	27	0	177209344	52	6340
2026-01-17 12:49:38.40	30.81	8.60	-39.5	-40.7	21.1	0.00e+00	0	27	0	179306496	52	6230
2026-01-17 12:49:39.41	30.91	8.67	-39.4	-40.6	21.1	0.00e+00	0	27	0	181403648	52	6133
2026-01-17 12:49:40.42	31.02	8.73	-39.5	-40.7	21.1	0.00e+00	54	27	0	183500800	52	6177
2026-01-17 12:49:41.42	31.13	8.79	-39.3	-40.5	21.3	0.00e+00	56	27	0	184549376	52	6057
2026-01-17 12:49:42.44	31.24	8.86	-39.4	-40.5	21.2	0.00e+00	23	27	0	186646528	52	6093
2026-01-17 12:49:43.45	31.35	8.92	-39.3	-40.5	21.3	0.00e+00	91	27	0	188743680	52	6042
2026-01-17 12:49:44.46	31.46	8.99	-39.4	-40.6	21.2	0.00e+00	0	27	0	190840832	52	6123
2026-01-17 12:49:45.47	31.57	9.05	-39.4	-40.5	21.2	0.00e+00	32	27	0	192937984	52	6092
2026-01-17 12:49:46.48	31.68	9.12	-39.3	-40.5	21.2	0.00e+00	0	27	0	193986560	52	6079
2026-01-17 12:49:47.49	31.79	9.18	-39.3	-40.5	21.2	0.00e+00	0	27	0	196083712	52	6076
2026-01-17 12:49:48.50	31.91	9.25	-39.4	-40.6	21.2	0.00e+00	47	27	0	198180864	52	6113
2026-01-17 12:49:49.50	32.02	9.31	-39.2	-40.3	21.4	0.00e+00	0	27	0	200278016	52	5938
2026-01-17 12:49:50.51	32.13	9.38	-39.1	-40.2	21.6	0.00e+00	91	27	0	202375168	52	5856
2026-01-17 12:49:51.52	32.24	9.45	-39.2	-40.3	21.5	0.00e+00	0	27	0	203423744	52	5924
2026-01-17 12:49:52.53	32.36	9.51	-39.0	-40.2	21.6	0.00e+00	92	27	0	205520896	52	5837
2026-01-17 12:49:53.54	32.47	9.58	-38.9	-40.0	21.7	0.00e+00	0	27	0	207618048	52	5714
2026-01-17 12:49:54.55	32.59	9.64	-38.9	-39.9	21.8	0.00e+00	0	27	0	209715200	52	5694
2026-01-17 12:49:55.56	32.70	9.71	-38.9	-40.0	21.7	0.00e+00	0	27	0	211812352	52	5748
2026-01-17 12:49:56.57	32.82	9.77	-38.7	-39.8	21.9	0.00e+00	55	27	0	212860928	52	5613
2026-01-17 12:49:57.58	32.94	9.84	-38.8	-39.9	21.8	0.00e+00	92	27	0	214958080	50	6360
2026-01-17 12:49:58.59	33.05	9.90	-38.8	-39.9	21.8	0.00e+00	54	27	0	217055232	50	6343
2026-01-17 12:49:59.60	33.17	9.97	-38.8	-39.9	21.8	0.00e+00	92	27	0	219152384	50	6371
2026-01-17 12:50:00.61	33.29	10.04	-38.6	-39.7	21.8	0.00e+00	32	27	0	221249536	50	6218
2026-01-17 12:50:01.62	33.41	10.10	-38.8	-39.9	21.7	0.00e+00	31	27	0	222298112	50	6347
2026-01-17 12:50:02.63	33.53	10.17	-38.8	-39.9	21.8	0.00e+00	0	27	0	224395264	50	6331
2026-01-17 12:50:03.64	33.65	10.24	-38.8	-39.9	21.8	0.00e+00	0	27	0	226492416	50	6359
2026-01-17 12:50:04.65	33.77	10.30	-38.8	-39.9	21.8	0.00e+00	53	27	0	228589568	50	6354
2026-01-17 12:50:05.66	33.89	10.37	-38.7	-39.8	21.9	0.00e+00	5	27	0	230686720	50	6300
2026-01-17 12:50:06.67	34.01	10.43	-38.7	-39.8	22.0	0.00e+00	92	27	0	232783872	50	6256
2026-01-17 12:50:07.68	34.13	10.50	-38.7	-39.8	22.1	0.00e+00	34	27	0	233832448	50	6275
2026-01-17 12:50:08.68	34.25	10.57	-38.6	-39.7	22.1	0.00e+00	63	27	0	235929600	50	6183
2026-01-17 12:50:09.69	34.37	10.63	-38.7	-39.8	22.0	0.00e+00	32	27	0	238026752	50	6275
2026-01-17 12:50:10.70	34.50	10.70	-38.7	-39.7	22.1	0.00e+00	0	27	0	240123904	50	6234
2026-01-17 12:50:11.71	34.62	10.77	-38.7	-39.7	22.0	0.00e+00	0	27	0	242221056	50	6238
2026-01-17 12:50:12.72	34.74	10.83	-38.7	-39.7	22.1	0.00e+00	0	27	0	243269632	50	6235
2026-01-17 12:50:13.73	34.87	10.90	-38.7	-39.8	22.0	0.00e+00	90	27	0	245366784	50	6291
2026-01-17 12:50:14.74	34.99	10.97	-38.7	-39.7	22.1	0.00e+00	0	27	0	247463936	50	6235
2026-01-17 12:50:15.75	35.12	11.04	-38.6	-39.7	22.1	0.00e+00	9	27	0	249561088	50	6204
2026-01-17 12:50:16.76	35.25	11.10	-38.7	-39.8	22.0	0.00e+00	49	27	0	251658240	50	6286
2026-01-17 12:50:17.77	35.37	11.17	-38.6	-39.7	22.1	0.00e+00	5	27	0	252706816	50	6206
2026-01-17 12:50:18.78	35.50	11.24	-38.8	-39.8	22.0	0.00e+00	0	27	0	254803968	50	6302
2026-01-17 12:50:19.79	35.63	11.30	-38.7	-39.8	22.0	0.00e+00	0	27	0	256901120	50	6284
2026-01-17 12:50:20.79	35.76	11.37	-38.6	-39.7	22.1	0.00e+00	92	27	0	258998272	50	6176
2026-01-17 12:50:21.80	35.89	11.44	-38.6	-39.7	22.1	0.00e+00	55	27	0	261095424	50	6209
2026-01-17 12:50:22.82	36.02	11.51	-38.5	-39.5	22.3	0.00e+00	90	27	0	262144000	50	6103
2026-01-17 12:50:23.82	36.15	11.57	-38.4	-39.5	22.3	0.00e+00	49	27	0	264241152	50	6049
2026-01-17 12:50:24.83	36.28	11.64	-38.5	-39.6	22.2	0.00e+00	49	27	0	266338304	50	6104
2026-01-17 12:50:25.84	36.41	11.71	-38.4	-39.4	22.4	0.00e+00	5	27	0	268435456	50	5979
2026-01-17 12:50:26.85	36.54	11.78	-38.4	-39.4	22.4	0.00e+00	6	27	0	270532608	50	6010
2026-01-17 12:50:27.86	36.67	11.85	-38.4	-39.4	22.4	0.00e+00	46	27	0	271581184	50	6000
2026-01-17 12:50:28.87	36.81	11.91	-38.3	-39.3	22.3	0.00e+00	6	27	0	273678336	50	5926
2026-01-17 12:50:29.88	36.94	11.98	-38.2	-39.2	22.6	0.00e+00	92	27	0	275775488	50	5883
2026-01-17 12:50:30.89	37.08	12.05	-38.3	-39.3	21.6	0.00e+00	32	27	0	277872640	50	5952
2026-01-17 12:50:31.90	37.21	12.12	-38.3	-39.3	22.2	0.00e+00	7	27	0	279969792	50	5961
2026-01-17 12:50:32.91	37.35	12.19	-38.3	-39.3	22.4	0.00e+00	6	27	0	281018368	50	5904
2026-01-17 12:50:33.92	37.48	12.25	-38.5	-39.5	22.3	0.00e+00	8	27	0	283115520	50	6062
2026-01-17 12:50:34.93	37.62	12.32	-38.3	-39.3	22.5	0.00e+00	0	27	0	285212672	50	5952
2026-01-17 12:50:35.94	37.76	12.39	-38.1	-39.1	22.7	0.00e+00	6	27	0	287309824	50	5803
2026-01-17 12:50:36.95	37.90	12.46	-38.2	-39.2	22.6	0.00e+00	92	27	0	289406976	50	5847
2026-01-17 12:50:37.96	38.04	12.53	-38.1	-39.1	22.7	0.00e+00	55	27	0	290455552	50	5820
2026-01-17 12:50:38.97	38.18	12.59	-38.2	-39.2	22.6	0.00e+00	83	27	0	292552704	50	5887
2026-01-17 12:50:39.98	38.32	12.66	-38.3	-39.3	22.5	0.00e+00	0	27	0	294649856	50	5915
2026-01-17 12:50:40.99	38.46	12.73	-38.1	-39.1	22.7	0.00e+00	0	27	0	296747008	50	5771
2026-01-17 12:50:41.99	38.60	12.80	-38.1	-39.1	22.7	0.00e+00	0	27	0	298844160	50	5771
2026-01-17 12:50:43.00	38.74	12.87	-38.1	-39.1	22.7	0.00e+00	26	27	0	300941312	50	5805
2026-01-17 12:50:44.01	38.88	12.94	-38.2	-39.1	22.8	0.00e+00	92	27	0	301989888	50	5825
2026-01-17 12:50:45.02	39.02	13.00	-38.2	-39.1	22.7	0.00e+00	54	27	0	304087040	50	5827
2026-01-17 12:50:46.03	39.17	13.07	-38.2	-39.2	22.6	0.00e+00	91	27	0	306184192	50	5874
2026-01-17 12:50:47.04	39.31	13.14	-38.1	-39.1	22.7	0.00e+00	27	27	0	308281344	50	5779
2026-01-17 12:50:48.05	39.46	13.21	-38.0	-39.0	22.8	0.00e+00	3	27	0	310378496	50	5717
2026-01-17 12:50:49.06	39.60	13.28	-38.1	-39.1	22.7	0.00e+00	26	27	0	311427072	50	5784
2026-01-17 12:50:50.07	39.75	13.35	-38.1	-39.1	22.7	0.00e+00	25	27	0	313524224	50	5811
2026-01-17 12:50:51.08	39.90	13.42	-38.0	-38.9	22.9	0.00e+00	91	27	0	315621376	50	5688
2026-01-17 12:50:52.09	40.05	13.49	-38.1	-39.0	22.9	0.00e+00	0	27	0	317718528	50	5752
2026-01-17 12:50:53.10	40.19	13.55	-38.1	-39.1	22.6	0.00e+00	92	27	0	318767104	50	5796
2026-01-17 12:50:54.10	40.34	13.62	-38.0	-39.0	22.8	0.00e+00	0	27	0	320864256	50	5739
2026-01-17 12:50:55.11	40.49	13.69	-38.1	-39.1	22.7	0.00e+00	7	27	0	322961408	50	5786
2026-01-17 12:50:56.12	40.64	13.76	-38.1	-39.1	22.7	0.00e+00	0	27	0	325058560	50	5779
2026-01-17 12:50:57.13	40.79	13.83	-38.2	-39.2	22.7	0.00e+00	0	27	0	327155712	50	5837
2026-01-17 12:50:58.14	40.95	13.90	-38.1	-39.1	22.7	0.00e+00	2	27	0	329252864	50	5817
2026-01-17 12:50:59.15	41.10	13.97	-38.1	-39.1	22.8	0.00e+00	0	27	0	330301440	50	5812
2026-01-17 12:51:00.16	41.25	14.04	-38.1	-39.1	22.8	0.00e+00	92	27	0	332398592	50	5776
2026-01-17 12:51:01.17	41.41	14.10	-38.2	-39.2	22.7	0.00e+00	0	27	0	334495744	50	5895
2026-01-17 12:51:02.18	41.56	14.17	-38.1	-39.1	22.7	0.00e+00	91	27	0	336592896	50	5802
2026-01-17 12:51:03.19	41.72	14.24	-38.0	-39.0	22.9	0.00e+00	0	27	0	338690048	50	5710
2026-01-17 12:51:04.20	41.87	14.31	-38.0	-39.0	22.8	0.00e+00	0	27	0	339738624	50	5739
2026-01-17 12:51:05.21	42.03	14.38	-37.9	-38.8	23.0	0.00e+00	40	27	0	341835776	50	5629
2026-01-17 12:51:06.22	42.19	14.45	-38.0	-38.9	22.9	0.00e+00	55	27	0	343932928	50	5680
2026-01-17 12:51:07.23	42.34	14.52	-37.9	-38.8	22.9	0.00e+00	92	27	0	346030080	50	5630
2026-01-17 12:51:08.24	42.50	14.59	-38.1	-39.1	22.9	0.00e+00	26	27	0	348127232	50	5800
2026-01-17 12:51:09.25	42.66	14.66	-38.3	-39.2	22.7	0.00e+00	92	27	0	349175808	50	5896
2026-01-17 12:51:10.26	42.82	14.73	-38.3	-39.3	22.6	0.00e+00	0	27	0	351272960	50	5915
2026-01-17 12:51:11.27	42.98	14.79	-38.5	-39.5	22.5	0.00e+00	2	27	0	353370112	50	6052
2026-01-17 12:51:12.28	43.15	14.86	-38.2	-39.2	22.6	0.00e+00	26	27	0	355467264	50	5857
2026-01-17 12:51:13.28	43.31	14.93	-38.2	-39.2	22.8	0.00e+00	0	27	0	357564416	50	5852
2026-01-17 12:51:14.30	43.47	15.00	-38.0	-39.0	22.9	0.00e+00	92	27	0	358612992	50	5719
2026-01-17 12:51:15.30	43.63	15.07	-38.0	-38.9	23.0	0.00e+00	0	27	0	360710144	50	5679
2026-01-17 12:51:16.31	43.80	15.14	-38.0	-38.9	22.9	0.00e+00	92	27	0	362807296	50	5681
2026-01-17 12:51:17.32	43.96	15.21	-38.0	-39.0	22.9	0.00e+00	2	27	0	364904448	50	5698
2026-01-17 12:51:18.33	44.13	15.28	-38.0	-39.0	22.9	0.00e+00	19	27	0	367001600	50	5732
2026-01-17 12:51:19.34	44.30	15.34	-38.2	-39.2	22.7	0.00e+00	2	27	0	368050176	50	5840
2026-01-17 12:51:20.35	44.47	15.41	-38.2	-39.1	22.8	0.00e+00	59	27	0	370147328	50	5827
2026-01-17 12:51:21.36	44.63	15.48	-38.2	-39.2	22.7	0.00e+00	56	27	0	372244480	50	5845
2026-01-17 12:51:22.37	44.80	15.55	-38.3	-39.3	22.6	0.00e+00	0	27	0	374341632	50	5943
2026-01-17 12:51:23.38	44.97	15.62	-38.2	-39.2	22.8	0.00e+00	92	27	0	376438784	50	5874
2026-01-17 12:51:24.38	45.14	15.69	-38.1	-39.1	22.7	0.00e+00	57	27	0	377487360	50	5809
2026-01-17 12:51:25.40	45.32	15.76	-38.2	-39.2	22.7	0.00e+00	91	27	0	379584512	50	5862
2026-01-17 12:51:26.40	45.49	15.82	-38.0	-39.0	22.9	0.00e+00	58	27	0	381681664	50	5722
2026-01-17 12:51:27.41	45.66	15.89	-37.8	-38.7	23.2	0.00e+00	25	27	0	383778816	50	5564
2026-01-17 12:51:28.42	45.83	15.96	-37.9	-38.9	23.1	0.00e+00	27	27	0	385875968	50	5664
2026-01-17 12:51:29.43	46.01	16.03	-37.8	-38.7	23.2	0.00e+00	25	27	0	386924544	50	5558
2026-01-17 12:51:30.44	46.18	16.10	-37.7	-38.7	23.2	0.00e+00	90	27	0	389021696	50	5513
2026-01-17 12:51:31.45	46.36	16.17	-37.7	-38.7	23.3	0.00e+00	0	27	0	391118848	48	6186
2026-01-17 12:51:32.46	46.54	16.23	-37.9	-38.9	23.1	0.00e+00	90	27	0	393216000	48	6319
2026-01-17 12:51:33.47	46.71	16.30	-37.9	-38.8	23.1	0.00e+00	30	27	0	395313152	48	6307
2026-01-17 12:51:34.48	46.89	16.37	-37.8	-38.8	23.0	0.00e+00	2	27	0	397410304	48	6272
2026-01-17 12:51:35.49	47.07	16.44	-37.8	-38.8	22.8	0.00e+00	31	27	0	398458880	48	6269
2026-01-17 12:51:36.49	47.25	16.51	-37.7	-38.6	23.2	0.00e+00	29	27	0	400556032	48	6166
2026-01-17 12:51:37.50	47.43	16.57	-37.6	-38.5	23.4	0.00e+00	92	27	0	402653184	48	6101
2026-01-17 12:51:38.52	47.61	16.64	-37.8	-38.7	23.1	0.00e+00	2	27	0	404750336	48	6240
2026-01-17 12:51:39.52	47.79	16.71	-37.6	-38.5	23.3	0.00e+00	92	27	0	406847488	48	6093
2026-01-17 12:51:40.53	47.98	16.78	-37.4	-38.3	23.6	0.00e+00	0	27	0	407896064	48	5955
2026-01-17 12:51:41.54	48.16	16.84	-37.4	-38.3	23.6	0.00e+00	19	27	0	409993216	48	5960
2026-01-17 12:51:42.55	48.35	16.91	-37.2	-38.1	23.7	0.00e+00	55	27	0	412090368	48	5770
2026-01-17 12:51:43.56	48.53	16.98	-37.3	-38.2	23.7	0.00e+00	55	27	0	414187520	48	5851
2026-01-17 12:51:44.57	48.72	17.05	-37.3	-38.2	23.6	0.00e+00	0	27	0	416284672	48	5884
2026-01-17 12:51:45.58	48.90	17.11	-37.3	-38.1	23.7	0.00e+00	0	27	0	417333248	48	5824
2026-01-17 12:51:46.59	49.09	17.18	-37.3	-38.2	23.6	0.00e+00	92	27	0	419430400	48	5870
2026-01-17 12:51:47.60	49.28	17.25	-37.2	-38.1	23.7	0.00e+00	0	27	0	421527552	48	5800
2026-01-17 12:51:48.61	49.47	17.31	-37.0	-37.9	24.0	0.00e+00	92	27	0	423624704	48	5647
2026-01-17 12:51:49.62	49.66	17.38	-37.0	-37.9	23.9	0.00e+00	56	27	0	425721856	48	5658
2026-01-17 12:51:50.63	49.85	17.45	-37.0	-37.9	23.9	0.00e+00	26	27	0	426770432	48	5683
2026-01-17 12:51:51.64	50.05	17.51	-37.0	-37.9	23.9	0.00e+00	56	27	0	428867584	48	5637
2026-01-17 12:51:52.65	50.24	17.58	-37.1	-38.0	23.8	0.00e+00	25	27	0	430964736	48	5701
2026-01-17 12:51:53.66	50.43	17.65	-37.1	-38.0	23.8	0.00e+00	91	27	0	433061888	48	5708
2026-01-17 12:51:54.67	50.63	17.71	-37.2	-38.0	23.7	0.00e+00	0	27	0	435159040	48	5752
2026-01-17 12:51:55.68	50.82	17.78	-37.4	-38.3	23.6	0.00e+00	92	27	0	436207616	48	5938
2026-01-17 12:51:56.69	51.02	17.84	-37.3	-38.2	23.6	0.00e+00	27	27	0	438304768	48	5861
2026-01-17 12:51:57.70	51.22	17.91	-37.5	-38.4	23.7	0.00e+00	25	27	0	440401920	48	6006
2026-01-17 12:51:58.70	51.41	17.97	-37.4	-38.3	23.6	0.00e+00	0	27	0	442499072	48	5940
2026-01-17 12:51:59.71	51.61	18.04	-37.3	-38.2	23.7	0.00e+00	0	27	0	444596224	48	5885
2026-01-17 12:52:00.72	51.81	18.10	-37.4	-38.3	23.6	0.00e+00	51	27	0	445644800	48	5958
2026-01-17 12:52:01.73	52.01	18.17	-37.4	-38.3	23.4	0.00e+00	5	27	0	447741952	48	5935
2026-01-17 12:52:02.74	52.21	18.23	-37.6	-38.5	23.7	0.00e+00	92	27	0	449839104	48	6087
2026-01-17 12:52:03.75	52.41	18.30	-37.7	-38.6	23.4	0.00e+00	0	27	0	451936256	48	6124
2026-01-17 12:52:04.76	52.62	18.36	-37.5	-38.4	23.6	0.00e+00	27	27	0	454033408	48	5992
2026-01-17 12:52:05.77	52.82	18.43	-37.6	-38.5	23.4	0.00e+00	0	27	0	455081984	48	6072
2026-01-17 12:52:06.78	53.03	18.49	-38.3	-39.2	22.9	0.00e+00	0	27	0	457179136	48	6599
2026-01-17 12:52:07.79	53.23	18.56	-38.2	-39.2	22.7	0.00e+00	0	27	0	459276288	48	6542
2026-01-17 12:52:08.80	53.44	18.62	-38.6	-39.6	22.8	0.00e+00	29	27	0	461373440	48	6915
2026-01-17 12:52:09.81	53.64	18.68	-38.5	-39.5	22.4	0.00e+00	91	27	0	463470592	50	6068
2026-01-17 12:52:10.82	53.85	18.75	-39.0	-40.1	22.3	0.00e+00	57	27	0	465567744	50	6479
2026-01-17 12:52:11.83	54.06	18.81	-38.6	-39.7	22.2	0.00e+00	92	27	0	466616320	50	6177
2026-01-17 12:52:12.83	54.27	18.87	-39.3	-40.4	21.8	0.00e+00	57	27	0	468713472	50	6744
2026-01-17 12:52:13.84	54.48	18.93	-39.3	-40.4	21.9	0.00e+00	29	27	0	470810624	50	6750
2026-01-17 12:52:14.85	54.69	19.00	-39.0	-40.1	22.2	0.00e+00	29	27	0	472907776	50	6465
2026-01-17 12:52:15.86	54.90	19.06	-38.8	-39.9	22.3	0.00e+00	32	27	0	475004928	50	6344
2026-01-17 12:52:16.88	55.12	19.12	-38.6	-39.6	22.5	0.00e+00	92	27	0	476053504	50	6142
2026-01-17 12:52:17.88	55.33	19.18	-38.2	-39.2	22.9	0.00e+00	6	27	0	478150656	50	5862
2026-01-17 12:52:18.89	55.54	19.24	-38.4	-39.3	22.6	0.00e+00	92	27	0	480247808	50	5961
2026-01-17 12:52:19.90	55.76	19.31	-38.5	-39.5	22.6	0.00e+00	7	27	0	482344960	50	6054
2026-01-17 12:52:20.91	55.98	19.37	-38.6	-39.6	22.3	0.00e+00	15	27	0	484442112	50	6155
2026-01-17 12:52:21.92	56.19	19.43	-38.8	-39.8	21.6	0.00e+00	0	27	0	485490688	50	6267
2026-01-17 12:52:22.93	56.41	19.49	-39.0	-40.0	21.9	0.00e+00	0	27	0	487587840	50	6446
2026-01-17 12:52:23.94	56.63	19.55	-39.1	-40.2	21.9	0.00e+00	14	27	0	489684992	50	6586
2026-01-17 12:52:24.94	56.85	19.61	-39.3	-40.4	21.7	0.00e+00	6	27	0	491782144	50	6713
2026-01-17 12:52:25.95	57.07	19.67	-39.4	-40.5	21.5	0.00e+00	90	27	0	493879296	50	6835
2026-01-17 12:52:26.96	57.29	19.73	-39.7	-40.8	21.2	0.00e+00	0	27	0	494927872	50	7077
2026-01-17 12:52:27.97	57.51	19.79	-39.8	-41.0	21.2	0.00e+00	56	27	0	497025024	52	6406
2026-01-17 12:52:28.98	57.74	19.85	-39.7	-40.9	21.3	0.00e+00	0	27	0	499122176	52	6339
2026-01-17 12:52:29.99	57.96	19.90	-39.7	-40.8	21.3	0.00e+00	52	27	0	501219328	52	6304
2026-01-17 12:52:31.00	58.19	19.96	-39.4	-40.5	21.7	0.00e+00	53	27	0	503316480	52	6086
2026-01-17 12:52:32.01	58.41	20.02	-39.4	-40.5	21.7	0.00e+00	51	27	0	504365056	52	6050
2026-01-17 12:52:33.02	58.64	20.08	-39.4	-40.5	21.7	0.00e+00	92	27	0	506462208	52	6039
2026-01-17 12:52:34.03	58.87	20.14	-39.4	-40.5	21.7	0.00e+00	29	27	0	508559360	52	6064
2026-01-17 12:52:35.04	59.09	20.19	-39.2	-40.3	21.9	0.00e+00	92	27	0	510656512	52	5946
2026-01-17 12:52:36.05	59.32	20.25	-39.2	-40.2	21.9	0.00e+00	29	27	0	512753664	52	5892
2026-01-17 12:52:37.05	59.55	20.31	-39.3	-40.4	21.8	0.00e+00	0	27	0	513802240	52	6011
2026-01-17 12:52:38.07	59.78	20.36	-39.3	-40.4	21.8	0.00e+00	0	27	0	515899392	52	5978
2026-01-17 12:52:39.07	60.01	20.42	-39.2	-40.3	21.9	0.00e+00	26	27	0	517996544	52	5907
2026-01-17 12:52:40.09	60.25	20.47	-39.4	-40.5	21.7	0.00e+00	53	27	0	520093696	52	6060
2026-01-17 12:52:41.09	60.48	20.53	-39.3	-40.4	21.8	0.00e+00	24	27	0	522190848	52	6031
2026-01-17 12:52:42.10	60.71	20.58	-39.2	-40.3	21.9	0.00e+00	92	27	0	523239424	52	5915
2026-01-17 12:52:43.11	60.95	20.64	-39.0	-40.1	22.2	0.00e+00	2	27	0	525336576	52	5812
2026-01-17 12:52:44.12	61.18	20.69	-38.7	-39.8	22.3	0.00e+00	0	27	0	527433728	50	6273
2026-01-17 12:52:45.13	61.42	20.75	-38.5	-39.5	22.7	0.00e+00	0	27	0	529530880	50	6056
2026-01-17 12:52:46.14	61.66	20.80	-38.3	-39.2	22.9	0.00e+00	0	27	0	531628032	50	5892
2026-01-17 12:52:47.15	61.90	20.85	-38.2	-39.1	23.0	0.00e+00	9	27	0	533725184	50	5820
2026-01-17 12:52:48.16	62.14	20.91	-38.3	-39.2	22.7	0.00e+00	0	27	0	534773760	50	5878
2026-01-17 12:52:49.17	62.37	20.96	-38.4	-39.4	22.8	0.00e+00	92	27	0	536870912	50	6010
2026-01-17 12:52:50.18	62.62	21.01	-38.4	-39.4	22.6	0.00e+00	56	27	0	538968064	50	6001
2026-01-17 12:52:51.19	62.86	21.06	-38.6	-39.6	22.4	0.00e+00	92	27	0	541065216	50	6157
2026-01-17 12:52:52.20	63.10	21.11	-38.7	-39.7	22.4	0.00e+00	55	27	0	542113792	50	6227
2026-01-17 12:52:53.20	63.34	21.16	-38.9	-40.0	22.2	0.00e+00	56	27	0	544210944	50	6420
2026-01-17 12:52:54.21	63.58	21.21	-38.9	-39.9	22.2	0.00e+00	0	27	0	546308096	50	6381
2026-01-17 12:52:55.22	63.83	21.26	-39.0	-40.0	22.1	0.00e+00	25	27	0	548405248	50	6464
2026-01-17 12:52:56.23	64.07	21.31	-38.8	-39.9	22.2	0.00e+00	92	27	0	550502400	50	6353
2026-01-17 12:52:57.24	64.32	21.36	-38.8	-39.8	22.3	0.00e+00	55	27	0	551550976	50	6277
2026-01-17 12:52:58.26	64.57	21.41	-38.7	-39.7	22.4	0.00e+00	92	27	0	553648128	50	6225
2026-01-17 12:52:59.26	64.81	21.46	-38.7	-39.7	22.0	0.00e+00	0	27	0	555745280	50	6219
2026-01-17 12:53:00.27	65.06	21.51	-38.6	-39.6	22.2	0.00e+00	30	27	0	557842432	50	6120
2026-01-17 12:53:01.28	65.31	21.55	-38.5	-39.5	22.6	0.00e+00	29	27	0	559939584	50	6074
2026-01-17 12:53:02.29	65.56	21.60	-38.6	-39.6	22.5	0.00e+00	29	27	0	562036736	50	6143
2026-01-17 12:53:03.30	65.81	21.65	-38.5	-39.5	22.6	0.00e+00	91	27	0	563085312	50	6100
2026-01-17 12:53:04.31	66.06	21.69	-38.6	-39.7	22.5	0.00e+00	0	27	0	565182464	50	6187
2026-01-17 12:53:05.32	66.31	21.74	-38.6	-39.6	22.5	0.00e+00	92	27	0	567279616	50	6111
2026-01-17 12:53:06.33	66.57	21.78	-38.8	-39.8	22.3	0.00e+00	0	27	0	569376768	50	6303
2026-01-17 12:53:07.34	66.82	21.83	-38.8	-39.9	22.3	0.00e+00	0	27	0	571473920	50	6324
2026-01-17 12:53:08.34	67.07	21.87	-38.7	-39.7	22.4	0.00e+00	0	27	0	572522496	50	6239
2026-01-17 12:53:09.36	67.33	21.91	-38.7	-39.7	22.4	0.00e+00	57	27	0	574619648	50	6225
2026-01-17 12:53:10.36	67.58	21.96	-38.4	-39.4	22.8	0.00e+00	59	27	0	576716800	50	6027
2026-01-17 12:53:11.37	67.84	22.00	-38.3	-39.2	22.9	0.00e+00	0	27	0	578813952	50	5887
2026-01-17 12:53:12.38	68.09	22.04	-38.3	-39.3	22.8	0.00e+00	90	27	0	580911104	50	5931
2026-01-17 12:53:13.39	68.35	22.08	-38.2	-39.1	22.9	0.00e+00	58	27	0	581959680	50	5826
2026-01-17 12:53:14.40	68.61	22.12	-38.1	-39.0	23.0	0.00e+00	46	27	0	584056832	50	5755
2026-01-17 12:53:15.41	68.87	22.16	-38.0	-39.0	23.1	0.00e+00	0	27	0	586153984	50	5713
2026-01-17 12:53:16.42	69.13	22.20	-37.9	-38.8	23.3	0.00e+00	57	27	0	588251136	50	5590
2026-01-17 12:53:17.43	69.39	22.24	-37.8	-38.8	23.3	0.00e+00	35	27	0	590348288	50	5575
2026-01-17 12:53:18.44	69.65	22.28	-37.9	-38.8	23.2	0.00e+00	58	27	0	591396864	50	5619
2026-01-17 12:53:19.45	69.91	22.32	-37.9	-38.8	23.3	0.00e+00	90	27	0	593494016	50	5590
2026-01-17 12:53:20.46	70.17	22.36	-37.9	-38.8	23.2	0.00e+00	0	27	0	595591168	50	5619
2026-01-17 12:53:21.47	70.44	22.40	-37.9	-38.8	23.2	0.00e+00	92	27	0	597688320	50	5599
2026-01-17 12:53:22.48	70.70	22.43	-37.9	-38.9	23.0	0.00e+00	0	27	0	599785472	50	5650
2026-01-17 12:53:23.48	70.96	22.47	-38.0	-38.9	23.1	0.00e+00	0	27	0	600834048	50	5669
2026-01-17 12:53:24.49	71.23	22.50	-38.0	-39.0	23.1	0.00e+00	0	27	0	602931200	50	5733
2026-01-17 12:53:25.50	71.49	22.54	-38.0	-39.0	23.1	0.00e+00	0	27	0	605028352	50	5730
2026-01-17 12:53:26.51	71.76	22.57	-38.1	-39.1	23.0	0.00e+00	91	27	0	607125504	50	5790
2026-01-17 12:53:27.52	72.02	22.61	-38.2	-39.2	22.9	0.00e+00	0	27	0	609222656	50	5856
2026-01-17 12:53:28.53	72.29	22.64	-38.3	-39.3	22.8	0.00e+00	92	27	0	610271232	50	5940
2026-01-17 12:53:29.54	72.56	22.67	-38.3	-39.3	22.9	0.00e+00	0	27	0	612368384	50	5910
2026-01-17 12:53:30.55	72.83	22.70	-38.5	-39.5	22.6	0.00e+00	0	27	0	614465536	50	6047
2026-01-17 12:53:31.56	73.09	22.74	-38.6	-39.7	22.5	0.00e+00	0	27	0	616562688	50	6176
2026-01-17 12:53:32.56	73.36	22.77	-38.7	-39.8	22.4	0.00e+00	51	27	0	618659840	50	6248
2026-01-17 12:53:33.57	73.63	22.80	-38.8	-39.8	22.3	0.00e+00	0	27	0	619708416	50	6299
2026-01-17 12:53:34.58	73.90	22.83	-38.7	-39.8	22.4	0.00e+00	50	27	0	621805568	50	6267
2026-01-17 12:53:35.58	74.17	22.85	-38.8	-39.9	22.2	0.00e+00	92	27	0	623902720	50	6354
2026-01-17 12:53:36.59	74.44	22.88	-38.7	-39.8	22.4	0.00e+00	0	27	0	625999872	50	6255
2026-01-17 12:53:37.60	74.71	22.91	-38.7	-39.7	22.4	0.00e+00	92	27	0	628097024	50	6229
2026-01-17 12:53:38.60	74.98	22.94	-38.7	-39.7	22.5	0.00e+00	2	27	0	630194176	50	6212
2026-01-17 12:53:39.61	75.25	22.96	-38.7	-39.7	22.5	0.00e+00	0	27	0	631242752	50	6196
2026-01-17 12:53:40.62	75.53	22.99	-38.6	-39.6	22.5	0.00e+00	53	27	0	633339904	50	6133
2026-01-17 12:53:41.63	75.80	23.02	-38.6	-39.6	22.5	0.00e+00	56	27	0	635437056	50	6129
2026-01-17 12:53:42.64	76.07	23.04	-38.4	-39.4	22.7	0.00e+00	75	27	0	637534208	50	6002
2026-01-17 12:53:43.65	76.35	23.06	-38.2	-39.1	23.0	0.00e+00	5	27	0	639631360	50	5814
2026-01-17 12:53:44.66	76.62	23.09	-38.2	-39.2	23.0	0.00e+00	92	27	0	640679936	50	5830
2026-01-17 12:53:45.66	76.90	23.11	-38.2	-39.1	23.0	0.00e+00	5	27	0	642777088	50	5807
2026-01-17 12:53:46.67	77.17	23.13	-38.1	-39.0	23.1	0.00e+00	5	27	0	644874240	50	5751
2026-01-17 12:53:47.68	77.45	23.15	-38.0	-39.0	23.1	0.00e+00	0	27	0	646971392	50	5733
2026-01-17 12:53:48.70	77.73	23.17	-37.9	-38.9	23.2	0.00e+00	5	27	0	648019968	50	5665
2026-01-17 12:53:49.70	78.00	23.19	-37.8	-38.8	23.3	0.00e+00	92	27	0	650117120	50	5570
2026-01-17 12:53:50.71	78.28	23.21	-37.8	-38.8	23.4	0.00e+00	6	27	0	652214272	48	6268
2026-01-17 12:53:51.72	78.55	23.23	-37.7	-38.6	23.3	0.00e+00	91	27	0	654311424	48	6153
2026-01-17 12:53:52.73	78.83	23.25	-37.9	-38.8	23.2	0.00e+00	6	27	0	656408576	48	6304
2026-01-17 12:53:53.74	79.11	23.27	-38.0	-39.0	22.9	0.00e+00	90	27	0	658505728	48	6396
2026-01-17 12:53:54.75	79.39	23.28	-38.1	-39.1	22.9	0.00e+00	57	27	0	659554304	48	6499
2026-01-17 12:53:55.76	79.67	23.30	-38.2	-39.2	22.8	0.00e+00	0	27	0	661651456	48	6573
2026-01-17 12:53:56.76	79.94	23.32	-38.4	-39.3	22.8	0.00e+00	0	27	0	663748608	48	6683
2026-01-17 12:53:57.77	80.22	23.33	-38.2	-39.2	22.8	0.00e+00	0	27	0	665845760	48	6556
2026-01-17 12:53:58.78	80.50	23.34	-38.2	-39.2	22.9	0.00e+00	90	27	0	667942912	48	6554
2026-01-17 12:53:59.79	80.78	23.36	-38.0	-38.9	23.1	0.00e+00	52	27	0	668991488	48	6362
2026-01-17 12:54:00.80	81.06	23.37	-37.9	-38.9	23.2	0.00e+00	92	27	0	671088640	48	6332
2026-01-17 12:54:01.81	81.34	23.38	-37.7	-38.7	23.4	0.00e+00	0	27	0	673185792	48	6176
2026-01-17 12:54:02.82	81.62	23.39	-37.7	-38.6	23.3	0.00e+00	36	27	0	675282944	48	6154
2026-01-17 12:54:03.83	81.90	23.40	-37.8	-38.7	23.3	0.00e+00	35	27	0	677380096	48	6203
2026-01-17 12:54:04.84	82.18	23.41	-37.8	-38.7	23.3	0.00e+00	49	27	0	678428672	48	6229
2026-01-17 12:54:05.85	82.46	23.42	-37.9	-38.9	23.2	0.00e+00	92	27	0	680525824	48	6336
2026-01-17 12:54:06.86	82.74	23.43	-38.1	-39.0	23.0	0.00e+00	7	27	0	682622976	48	6454
2026-01-17 12:54:07.86	83.02	23.44	-38.2	-39.2	22.9	0.00e+00	92	27	0	684720128	48	6569
2026-01-17 12:54:08.87	83.30	23.45	-38.2	-39.1	23.0	0.00e+00	6	27	0	686817280	48	6539
2026-01-17 12:54:09.88	83.58	23.45	-38.0	-39.0	23.1	0.00e+00	13	27	0	687865856	48	6397
2026-01-17 12:54:10.89	83.87	23.46	-37.9	-38.8	23.2	0.00e+00	29	27	0	689963008	48	6277
2026-01-17 12:54:11.90	84.15	23.46	-37.8	-38.8	23.2	0.00e+00	7	27	0	692060160	48	6250
2026-01-17 12:54:12.91	84.43	23.47	-37.9	-38.8	23.2	0.00e+00	31	27	0	694157312	48	6289
2026-01-17 12:54:13.92	84.71	23.47	-37.9	-38.8	23.2	0.00e+00	7	27	0	696254464	48	6271
2026-01-17 12:54:14.93	84.99	23.47	-37.9	-38.8	23.2	0.00e+00	92	27	0	697303040	48	6277
2026-01-17 12:54:15.94	85.27	23.48	-38.1	-39.0	23.0	0.00e+00	0	27	0	699400192	48	6434
2026-01-17 12:54:16.95	85.56	23.48	-38.3	-39.3	22.8	0.00e+00	92	27	0	701497344	48	6618
2026-01-17 12:54:17.96	85.84	23.48	-38.5	-39.5	22.6	0.00e+00	0	27	0	703594496	48	6816
2026-01-17 12:54:18.97	86.12	23.48	-38.7	-39.7	22.4	0.00e+00	0	27	0	705691648	48	6989
2026-01-17 12:54:19.98	86.40	23.48	-38.7	-39.7	22.4	0.00e+00	0	27	0	706740224	50	6212
2026-01-17 12:54:20.98	86.68	23.48	-38.7	-39.7	22.3	0.00e+00	56	27	0	708837376	50	6241
2026-01-17 12:54:21.99	86.96	23.47	-38.9	-39.9	22.2	0.00e+00	92	27	0	710934528	50	6368
2026-01-17 12:54:23.00	87.24	23.47	-38.5	-39.5	22.2	0.00e+00	55	27	0	713031680	50	6087
2026-01-17 12:54:24.01	87.53	23.47	-38.2	-39.2	22.8	0.00e+00	92	27	0	715128832	50	5878
2026-01-17 12:54:25.02	87.81	23.46	-38.2	-39.2	22.8	0.00e+00	25	27	0	716177408	50	5869
2026-01-17 12:54:26.03	88.09	23.46	-38.2	-39.1	22.8	0.00e+00	24	27	0	718274560	50	5803
2026-01-17 12:54:27.04	88.37	23.45	-37.9	-38.8	23.3	0.00e+00	24	27	0	720371712	50	5592
2026-01-17 12:54:28.04	88.65	23.45	-37.8	-38.7	23.2	0.00e+00	25	27	0	722468864	50	5562
2026-01-17 12:54:29.05	88.93	23.44	-37.9	-38.8	23.2	0.00e+00	90	27	0	724566016	50	5609
2026-01-17 12:54:30.06	89.21	23.43	-37.6	-38.6	23.5	0.00e+00	0	27	0	726663168	48	6110
2026-01-17 12:54:31.07	89.49	23.42	-37.7	-38.7	23.3	0.00e+00	92	27	0	727711744	48	6183
2026-01-17 12:54:32.08	89.77	23.41	-37.8	-38.8	23.2	0.00e+00	0	27	0	729808896	48	6254
2026-01-17 12:54:33.09	90.06	23.40	-38.1	-39.0	22.9	0.00e+00	38	27	0	731906048	48	6461
2026-01-17 12:54:34.10	90.34	23.39	-38.3	-39.3	22.9	0.00e+00	0	27	0	734003200	48	6641
2026-01-17 12:54:35.11	90.62	23.38	-38.5	-39.5	22.7	0.00e+00	0	27	0	736100352	48	6812
2026-01-17 12:54:36.12	90.90	23.37	-38.6	-39.6	22.4	0.00e+00	0	27	0	737148928	48	6896
2026-01-17 12:54:37.12	91.17	23.36	-38.6	-39.6	22.5	0.00e+00	0	27	0	739246080	48	6918
2026-01-17 12:54:38.13	91.45	23.34	-38.6	-39.6	22.5	0.00e+00	92	27	0	741343232	48	6903
2026-01-17 12:54:39.14	91.73	23.33	-38.5	-39.6	22.6	0.00e+00	0	27	0	743440384	48	6855
2026-01-17 12:54:40.15	92.01	23.32	-38.8	-39.8	22.4	0.00e+00	91	27	0	745537536	50	6273
2026-01-17 12:54:41.16	92.29	23.30	-38.6	-39.6	22.5	0.00e+00	55	27	0	746586112	50	6144
2026-01-17 12:54:42.17	92.57	23.28	-38.4	-39.4	22.7	0.00e+00	0	27	0	748683264	50	6011
2026-01-17 12:54:43.18	92.85	23.27	-38.0	-39.0	22.9	0.00e+00	0	27	0	750780416	50	5738
2026-01-17 12:54:44.19	93.13	23.25	-37.9	-38.8	23.1	0.00e+00	57	27	0	752877568	50	5590
2026-01-17 12:54:45.20	93.41	23.23	-37.9	-38.8	23.0	0.00e+00	92	27	0	754974720	50	5629
2026-01-17 12:54:46.21	93.68	23.21	-38.2	-39.2	22.9	0.00e+00	58	27	0	756023296	50	5839
2026-01-17 12:54:47.22	93.96	23.19	-38.3	-39.3	22.7	0.00e+00	92	27	0	758120448	50	5931
2026-01-17 12:54:48.22	94.23	23.17	-38.5	-39.5	22.6	0.00e+00	26	27	0	760217600	50	6041
2026-01-17 12:54:49.23	94.51	23.15	-38.3	-39.3	22.8	0.00e+00	56	27	0	762314752	50	5939
2026-01-17 12:54:50.24	94.79	23.13	-38.3	-39.3	22.8	0.00e+00	26	27	0	764411904	50	5943
2026-01-17 12:54:51.25	95.06	23.11	-38.1	-39.1	22.9	0.00e+00	0	27	0	765460480	50	5781
2026-01-17 12:54:52.26	95.34	23.09	-38.0	-39.0	23.0	0.00e+00	32	27	0	767557632	50	5729
2026-01-17 12:54:53.27	95.61	23.06	-38.0	-39.0	22.9	0.00e+00	26	27	0	769654784	50	5713
2026-01-17 12:54:54.28	95.89	23.04	-37.8	-38.7	23.2	0.00e+00	92	27	0	771751936	50	5559
2026-01-17 12:54:55.29	96.16	23.01	-37.9	-38.9	23.1	0.00e+00	0	27	0	773849088	48	6319
2026-01-17 12:54:56.30	96.44	22.99	-37.9	-38.9	23.1	0.00e+00	92	27	0	774897664	48	6327
2026-01-17 12:54:57.31	96.71	22.96	-37.9	-38.8	23.2	0.00e+00	2	27	0	776994816	48	6286
2026-01-17 12:54:58.32	96.98	22.94	-37.7	-38.6	23.3	0.00e+00	0	27	0	779091968	48	6164
2026-01-17 12:54:59.32	97.25	22.91	-37.7	-38.6	23.4	0.00e+00	0	27	0	781189120	48	6151
2026-01-17 12:55:00.33	97.53	22.88	-37.5	-38.5	23.5	0.00e+00	0	27	0	783286272	48	6035
2026-01-17 12:55:01.34	97.80	22.85	-37.3	-38.1	23.7	0.00e+00	92	27	0	784334848	48	5825
2026-01-17 12:55:02.35	98.07	22.82	-37.2	-38.1	23.8	0.00e+00	0	27	0	786432000	48	5789
2026-01-17 12:55:03.36	98.34	22.79	-37.2	-38.1	23.8	0.00e+00	92	27	0	788529152	48	5793
2026-01-17 12:55:04.37	98.61	22.76	-37.2	-38.1	23.8	0.00e+00	0	27	0	790626304	48	5791
2026-01-17 12:55:05.38	98.88	22.73	-37.0	-37.9	23.9	0.00e+00	50	27	0	792723456	48	5669
2026-01-17 12:55:06.38	99.14	22.70	-36.8	-37.7	24.1	0.00e+00	0	27	0	793772032	48	5507
2026-01-17 12:55:07.39	99.41	22.67	-36.7	-37.6	24.2	0.00e+00	0	27	0	795869184	46	6138
2026-01-17 12:55:08.40	99.68	22.64	-36.7	-37.6	24.2	0.00e+00	92	27	0	797966336	46	6140
2026-01-17 12:55:09.41	99.95	22.60	-36.7	-37.5	24.4	0.00e+00	56	27	0	800063488	46	6079
2026-01-17 12:55:10.42	100.22	22.57	-36.5	-37.3	24.5	0.00e+00	92	27	0	802160640	46	5916
2026-01-17 12:55:11.42	100.48	22.53	-36.6	-37.4	24.4	0.00e+00	25	27	0	803209216	46	6009
2026-01-17 12:55:12.43	100.74	22.50	-36.6	-37.5	24.4	0.00e+00	24	27	0	805306368	46	6057
2026-01-17 12:55:13.44	101.01	22.46	-36.6	-37.5	24.4	0.00e+00	25	27	0	807403520	46	6064
2026-01-17 12:55:14.45	101.27	22.43	-36.7	-37.5	24.2	0.00e+00	0	27	0	809500672	46	6088
2026-01-17 12:55:15.46	101.54	22.39	-36.6	-37.4	24.4	0.00e+00	55	27	0	811597824	46	6021
2026-01-17 12:55:16.47	101.80	22.35	-36.4	-37.3	24.5	0.00e+00	24	27	0	812646400	46	5917
2026-01-17 12:55:17.48	102.06	22.32	-36.5	-37.3	24.4	0.00e+00	92	27	0	814743552	46	5927
2026-01-17 12:55:18.48	102.32	22.28	-36.4	-37.2	24.6	0.00e+00	23	27	0	816840704	46	5865
2026-01-17 12:55:19.49	102.59	22.24	-36.3	-37.2	24.6	0.00e+00	92	27	0	818937856	46	5846
2026-01-17 12:55:20.50	102.85	22.20	-36.1	-36.9	24.8	0.00e+00	0	27	0	821035008	46	5648
2026-01-17 12:55:21.51	103.11	22.16	-36.0	-36.8	24.9	0.00e+00	0	27	0	823132160	46	5600
2026-01-17 12:55:22.52	103.37	22.12	-35.8	-36.6	25.1	0.00e+00	2	27	0	824180736	46	5455
2026-01-17 12:55:23.53	103.62	22.08	-35.7	-36.4	25.2	0.00e+00	0	27	0	826277888	44	6030
2026-01-17 12:55:24.54	103.88	22.04	-35.6	-36.4	25.1	0.00e+00	92	27	0	828375040	44	5990
2026-01-17 12:55:25.55	104.14	21.99	-35.8	-36.6	25.0	0.00e+00	55	27	0	830472192	44	6123
2026-01-17 12:55:26.56	104.40	21.95	-35.8	-36.6	25.0	0.00e+00	92	27	0	832569344	44	6145
2026-01-17 12:55:27.57	104.65	21.91	-35.8	-36.6	24.9	0.00e+00	0	27	0	833617920	44	6151
2026-01-17 12:55:28.58	104.91	21.86	-35.8	-36.6	25.0	0.00e+00	0	27	0	835715072	44	6104
2026-01-17 12:55:29.59	105.16	21.82	-36.0	-36.8	25.0	0.00e+00	0	27	0	837812224	44	6277
2026-01-17 12:55:30.60	105.42	21.78	-35.9	-36.8	24.9	0.00e+00	0	27	0	839909376	44	6248
2026-01-17 12:55:31.61	105.67	21.73	-36.2	-37.0	24.6	0.00e+00	56	27	0	842006528	44	6433
2026-01-17 12:55:32.62	105.92	21.68	-36.5	-37.3	24.4	0.00e+00	31	27	0	843055104	44	6660
2026-01-17 12:55:33.63	106.18	21.64	-36.7	-37.6	24.2	0.00e+00	92	27	0	845152256	44	6887
2026-01-17 12:55:34.64	106.43	21.59	-36.8	-37.7	24.2	0.00e+00	48	27	0	847249408	46	6183
2026-01-17 12:55:35.65	106.68	21.54	-37.0	-37.8	24.1	0.00e+00	50	27	0	849346560	46	6310
2026-01-17 12:55:36.65	106.92	21.50	-36.9	-37.8	23.7	0.00e+00	6	27	0	851443712	46	6284
2026-01-17 12:55:37.66	107.17	21.45	-36.9	-37.7	24.1	0.00e+00	31	27	0	852492288	46	6219
2026-01-17 12:55:38.68	107.42	21.40	-36.8	-37.6	24.1	0.00e+00	2	27	0	854589440	46	6161
2026-01-17 12:55:39.68	107.67	21.35	-36.4	-37.2	24.0	0.00e+00	0	27	0	856686592	46	5886
2026-01-17 12:55:40.69	107.92	21.30	-36.4	-37.3	24.5	0.00e+00	90	27	0	858783744	46	5910
2026-01-17 12:55:41.70	108.16	21.25	-36.3	-37.1	24.6	0.00e+00	0	27	0	860880896	46	5800
2026-01-17 12:55:42.71	108.41	21.20	-36.3	-37.1	24.4	0.00e+00	92	27	0	861929472	46	5824
2026-01-17 12:55:43.72	108.65	21.15	-36.2	-37.1	24.6	0.00e+00	0	27	0	864026624	46	5769
2026-01-17 12:55:44.73	108.89	21.10	-36.2	-37.0	24.8	0.00e+00	5	27	0	866123776	46	5708
2026-01-17 12:55:45.74	109.14	21.05	-36.1	-36.9	24.7	0.00e+00	0	27	0	868220928	46	5676
2026-01-17 12:55:46.74	109.38	21.00	-36.3	-37.1	24.6	0.00e+00	5	27	0	870318080	46	5799
2026-01-17 12:55:47.75	109.62	20.95	-36.6	-37.4	24.3	0.00e+00	92	27	0	871366656	46	6030
2026-01-17 12:55:48.76	109.86	20.89	-37.0	-37.9	24.0	0.00e+00	54	27	0	873463808	46	6318
2026-01-17 12:55:49.77	110.10	20.84	-37.4	-38.3	23.6	0.00e+00	92	27	0	875560960	46	6620
2026-01-17 12:55:50.78	110.34	20.79	-37.7	-38.6	23.3	0.00e+00	0	27	0	877658112	46	6912
2026-01-17 12:55:51.79	110.58	20.73	-37.8	-38.8	23.1	0.00e+00	53	27	0	879755264	48	6270
2026-01-17 12:55:52.80	110.81	20.68	-37.9	-38.9	23.0	0.00e+00	30	27	0	880803840	48	6321
2026-01-17 12:55:53.81	111.05	20.63	-38.0	-38.9	22.9	0.00e+00	0	27	0	882900992	48	6369
2026-01-17 12:55:54.82	111.28	20.57	-38.0	-39.0	22.9	0.00e+00	91	27	0	884998144	48	6401
2026-01-17 12:55:55.83	111.52	20.52	-38.0	-38.9	23.0	0.00e+00	32	27	0	887095296	48	6387
2026-01-17 12:55:56.84	111.75	20.46	-38.0	-38.9	23.0	0.00e+00	92	27	0	889192448	48	6375
2026-01-17 12:55:57.85	111.99	20.40	-37.8	-38.7	23.3	0.00e+00	31	27	0	891289600	48	6235
2026-01-17 12:55:58.86	112.22	20.35	-37.5	-38.5	23.5	0.00e+00	7	27	0	892338176	48	6052
2026-01-17 12:55:59.87	112.45	20.29	-37.2	-38.1	23.8	0.00e+00	5	27	0	894435328	48	5824
2026-01-17 12:56:00.88	112.68	20.23	-37.0	-37.9	24.0	0.00e+00	6	27	0	896532480	48	5635
2026-01-17 12:56:01.89	112.91	20.18	-37.0	-37.9	23.9	0.00e+00	6	27	0	898629632	48	5631
2026-01-17 12:56:02.89	113.14	20.12	-36.9	-37.8	24.0	0.00e+00	37	27	0	899678208	48	5569
2026-01-17 12:56:03.90	113.37	20.06	-37.0	-37.9	23.9	0.00e+00	92	27	0	901775360	48	5650
2026-01-17 12:56:04.91	113.59	20.00	-37.2	-38.1	23.8	0.00e+00	0	27	0	903872512	48	5779
2026-01-17 12:56:05.92	113.82	19.95	-37.3	-38.2	23.7	0.00e+00	92	27	0	905969664	48	5834
2026-01-17 12:56:06.93	114.04	19.89	-37.5	-38.4	23.4	0.00e+00	0	27	0	908066816	48	5996
2026-01-17 12:56:07.94	114.27	19.83	-37.5	-38.4	23.4	0.00e+00	0	27	0	909115392	48	6030
2026-01-17 12:56:08.95	114.49	19.77	-37.6	-38.6	23.4	0.00e+00	0	27	0	911212544	48	6119
2026-01-17 12:56:09.96	114.72	19.71	-37.7	-38.6	23.3	0.00e+00	54	27	0	913309696	48	6149
2026-01-17 12:56:10.97	114.94	19.65	-37.7	-38.6	23.3	0.00e+00	90	27	0	915406848	48	6163
2026-01-17 12:56:11.98	115.16	19.59	-37.8	-38.8	23.1	0.00e+00	54	27	0	917504000	48	6280
2026-01-17 12:56:12.99	115.38	19.53	-38.0	-38.9	23.0	0.00e+00	92	27	0	919601152	48	6378
2026-01-17 12:56:13.99	115.60	19.47	-37.9	-38.9	23.0	0.00e+00	56	27	0	920649728	48	6358
2026-01-17 12:56:15.00	115.82	19.41	-37.7	-38.7	23.2	0.00e+00	53	27	0	922746880	48	6182
2026-01-17 12:56:16.01	116.04	19.35	-37.6	-38.6	23.3	0.00e+00	54	27	0	924844032	48	6108
2026-01-17 12:56:17.02	116.25	19.28	-37.5	-38.4	23.5	0.00e+00	24	27	0	926941184	48	5978
2026-01-17 12:56:18.03	116.47	19.22	-37.3	-38.2	23.6	0.00e+00	53	27	0	929038336	48	5879
2026-01-17 12:56:19.04	116.68	19.16	-37.0	-37.9	23.9	0.00e+00	55	27	0	930086912	48	5671
2026-01-17 12:56:20.05	116.90	19.10	-37.2	-38.0	23.6	0.00e+00	92	27	0	932184064	48	5757
2026-01-17 12:56:21.06	117.11	19.04	-37.2	-38.1	23.6	0.00e+00	28	27	0	934281216	48	5786
2026-01-17 12:56:22.07	117.33	18.97	-37.4	-38.3	23.5	0.00e+00	44	27	0	936378368	48	5949
2026-01-17 12:56:23.08	117.54	18.91	-37.6	-38.5	23.3	0.00e+00	28	27	0	938475520	48	6089
2026-01-17 12:56:24.08	117.75	18.85	-37.6	-38.6	23.2	0.00e+00	2	27	0	939524096	48	6115
2026-01-17 12:56:25.09	117.96	18.78	-37.4	-38.3	23.5	0.00e+00	0	27	0	941621248	48	5927
2026-01-17 12:56:26.10	118.17	18.72	-37.4	-38.3	23.5	0.00e+00	0	27	0	943718400	48	5902
2026-01-17 12:56:27.11	118.38	18.66	-37.4	-38.3	23.6	0.00e+00	92	27	0	945815552	48	5922
2026-01-17 12:56:28.11	118.58	18.59	-37.5	-38.5	23.2	0.00e+00	3	27	0	947912704	48	6035
2026-01-17 12:56:29.13	118.79	18.53	-37.7	-38.6	23.2	0.00e+00	92	27	0	948961280	48	6151
2026-01-17 12:56:30.14	119.00	18.46	-37.6	-38.5	23.3	0.00e+00	0	27	0	951058432	48	6088
2026-01-17 12:56:31.15	119.20	18.40	-37.8	-38.7	23.1	0.00e+00	0	27	0	953155584	48	6227
2026-01-17 12:56:32.15	119.40	18.34	-37.8	-38.8	23.0	0.00e+00	0	27	0	955252736	48	6266
2026-01-17 12:56:33.16	119.61	18.27	-37.8	-38.8	23.1	0.00e+00	0	27	0	957349888	48	6249
2026-01-17 12:56:34.17	119.81	18.21	-37.9	-38.8	23.1	0.00e+00	91	27	0	958398464	48	6307
2026-01-17 12:56:35.18	120.01	18.14	-37.9	-38.9	23.0	0.00e+00	3	27	0	960495616	48	6330
2026-01-17 12:56:36.19	120.21	18.08	-38.1	-39.1	22.8	0.00e+00	91	27	0	962592768	48	6527
2026-01-17 12:56:37.20	120.41	18.01	-38.2	-39.2	22.6	0.00e+00	48	27	0	964689920	48	6601
2026-01-17 12:56:38.21	120.61	17.94	-38.5	-39.6	22.3	0.00e+00	62	27	0	966787072	48	6871
2026-01-17 12:56:39.22	120.81	17.88	-38.7	-39.7	22.2	0.00e+00	28	27	0	967835648	48	6993
2026-01-17 12:56:40.23	121.01	17.81	-38.7	-39.7	22.2	0.00e+00	53	27	0	969932800	48	6987
2026-01-17 12:56:41.24	121.21	17.75	-38.4	-39.4	22.6	0.00e+00	53	27	0	972029952	50	5999
2026-01-17 12:56:42.24	121.40	17.68	-38.1	-39.1	22.8	0.00e+00	29	27	0	974127104	50	5794
2026-01-17 12:56:43.25	121.60	17.61	-38.3	-39.3	22.7	0.00e+00	92	27	0	976224256	50	5905
2026-01-17 12:56:44.26	121.79	17.55	-37.8	-38.7	23.2	0.00e+00	2	27	0	977272832	50	5547
2026-01-17 12:56:45.27	121.98	17.48	-38.0	-38.9	22.9	0.00e+00	92	27	0	979369984	48	6363
2026-01-17 12:56:46.29	122.18	17.41	-37.8	-38.8	23.0	0.00e+00	29	27	0	981467136	48	6264
2026-01-17 12:56:47.29	122.37	17.35	-38.3	-39.3	22.5	0.00e+00	2	27	0	983564288	48	6625
2026-01-17 12:56:48.30	122.56	17.28	-38.6	-39.6	22.2	0.00e+00	0	27	0	985661440	48	6906
2026-01-17 12:56:49.32	122.75	17.21	-38.7	-39.8	22.2	0.00e+00	0	27	0	987758592	50	6257
2026-01-17 12:56:50.32	122.94	17.14	-38.6	-39.6	22.3	0.00e+00	90	27	0	988807168	50	6142
2026-01-17 12:56:51.33	123.13	17.08	-38.5	-39.6	22.4	0.00e+00	0	27	0	990904320	50	6124
2026-01-17 12:56:52.34	123.32	17.01	-38.6	-39.7	22.4	0.00e+00	92	27	0	993001472	50	6175
2026-01-17 12:56:53.35	123.50	16.94	-38.0	-39.0	22.9	0.00e+00	53	27	0	995098624	50	5744
2026-01-17 12:56:54.36	123.69	16.87	-38.2	-39.2	22.8	0.00e+00	53	27	0	997195776	50	5838
2026-01-17 12:56:55.37	123.87	16.81	-38.1	-39.1	22.8	0.00e+00	0	27	0	998244352	50	5783
2026-01-17 12:56:56.38	124.06	16.74	-38.2	-39.2	22.7	0.00e+00	54	27	0	1000341504	50	5888
2026-01-17 12:56:57.39	124.24	16.67	-38.2	-39.3	22.6	0.00e+00	92	27	0	1002438656	50	5913
2026-01-17 12:56:58.40	124.43	16.60	-38.3	-39.3	22.6	0.00e+00	0	27	0	1004535808	50	5929
2026-01-17 12:56:59.41	124.61	16.53	-38.2	-39.2	22.5	0.00e+00	92	27	0	1006632960	50	5880
2026-01-17 12:57:00.42	124.79	16.47	-38.1	-39.1	22.8	0.00e+00	47	27	0	1007681536	50	5764
2026-01-17 12:57:01.43	124.97	16.40	-38.0	-39.0	22.8	0.00e+00	56	27	0	1009778688	50	5719
2026-01-17 12:57:02.44	125.15	16.33	-37.6	-38.5	23.4	0.00e+00	49	27	0	1011875840	48	6062
2026-01-17 12:57:03.45	125.33	16.26	-37.7	-38.6	23.1	0.00e+00	35	27	0	1013972992	48	6152
2026-01-17 12:57:04.46	125.51	16.19	-37.8	-38.8	23.1	0.00e+00	31	27	0	1016070144	48	6249
2026-01-17 12:57:05.47	125.68	16.12	-37.8	-38.8	23.0	0.00e+00	32	27	0	1017118720	48	6271
2026-01-17 12:57:06.48	125.86	16.05	-38.1	-39.1	22.7	0.00e+00	92	27	0	1019215872	48	6499
2026-01-17 12:57:07.49	126.04	15.98	-38.3	-39.3	22.6	0.00e+00	0	27	0	1021313024	48	6643
2026-01-17 12:57:08.50	126.21	15.92	-38.3	-39.3	22.6	0.00e+00	69	27	0	1023410176	48	6660
2026-01-17 12:57:09.51	126.38	15.85	-38.3	-39.3	22.5	0.00e+00	0	27	0	1025507328	48	6691
2026-01-17 12:57:10.52	126.56	15.78	-37.9	-38.9	22.9	0.00e+00	0	27	0	1026555904	48	6366
2026-01-17 12:57:11.53	126.73	15.71	-37.9	-38.9	23.0	0.00e+00	0	27	0	1028653056	48	6350
2026-01-17 12:57:12.54	126.90	15.64	-37.9	-38.9	23.0	0.00e+00	0	27	0	1030750208	48	6355
2026-01-17 12:57:13.54	127.07	15.57	-37.7	-38.6	23.1	0.00e+00	92	27	0	1032847360	48	6131
2026-01-17 12:57:14.56	127.24	15.50	-37.6	-38.5	23.3	0.00e+00	0	27	0	1034944512	48	6092
2026-01-17 12:57:15.56	127.41	15.43	-37.8	-38.8	23.0	0.00e+00	0	27	0	1035993088	48	6284
2026-01-17 12:57:16.57	127.58	15.36	-38.2	-39.2	22.6	0.00e+00	0	27	0	1038090240	48	6575
2026-01-17 12:57:17.58	127.75	15.29	-38.6	-39.6	22.2	0.00e+00	0	27	0	1040187392	48	6909
2026-01-17 12:57:18.59	127.92	15.23	-38.8	-39.9	22.1	0.00e+00	0	27	0	1042284544	50	6324
2026-01-17 12:57:19.60	128.08	15.16	-38.9	-40.0	21.9	0.00e+00	51	27	0	1044381696	50	6429
2026-01-17 12:57:20.61	128.25	15.09	-38.7	-39.7	22.1	0.00e+00	92	27	0	1045430272	50	6241
2026-01-17 12:57:21.62	128.41	15.02	-38.6	-39.7	22.2	0.00e+00	51	27	0	1047527424	50	6195
2026-01-17 12:57:22.63	128.58	14.95	-38.3	-39.3	22.5	0.00e+00	92	27	0	1049624576	50	5949
2026-01-17 12:57:23.64	128.74	14.88	-37.9	-38.9	22.9	0.00e+00	0	27	0	1051721728	50	5642
2026-01-17 12:57:24.65	128.91	14.81	-38.0	-39.0	22.9	0.00e+00	58	27	0	1053818880	50	5715
2026-01-17 12:57:25.66	129.07	14.74	-38.1	-39.0	22.8	0.00e+00	5	27	0	1055916032	50	5756
2026-01-17 12:57:26.67	129.23	14.67	-38.3	-39.3	22.6	0.00e+00	31	27	0	1056964608	50	5929
2026-01-17 12:57:27.68	129.39	14.60	-38.5	-39.6	22.3	0.00e+00	91	27	0	1059061760	50	6122
2026-01-17 12:57:28.68	129.55	14.53	-38.9	-40.0	22.0	0.00e+00	30	27	0	1061158912	50	6416
2026-01-17 12:57:29.69	129.71	14.46	-38.8	-39.9	22.1	0.00e+00	90	27	0	1063256064	50	6328
2026-01-17 12:57:30.70	129.87	14.39	-38.8	-39.9	22.0	0.00e+00	7	27	0	1065353216	50	6371
2026-01-17 12:57:31.71	130.02	14.32	-38.5	-39.5	22.4	0.00e+00	5	27	0	1066401792	50	6083
2026-01-17 12:57:32.72	130.18	14.25	-38.4	-39.4	22.4	0.00e+00	5	27	0	1068498944	50	6015
2026-01-17 12:57:33.73	130.34	14.18	-38.5	-39.6	22.3	0.00e+00	5	27	0	1070596096	50	6106
2026-01-17 12:57:34.74	130.49	14.11	-38.1	-39.1	22.7	0.00e+00	6	27	0	1072693248	50	5783
2026-01-17 12:57:35.75	130.65	14.05	-38.0	-39.0	22.8	0.00e+00	6	27	0	1073741824	50	5697
2026-01-17 12:57:36.76	130.80	13.98	-38.1	-39.1	22.7	0.00e+00	91	27	0	1075838976	50	5799
2026-01-17 12:57:37.76	130.95	13.91	-38.1	-39.1	22.3	0.00e+00	5	27	0	1077936128	50	5817
2026-01-17 12:57:38.78	131.11	13.84	-38.4	-39.5	22.4	0.00e+00	92	27	0	1080033280	50	6049
2026-01-17 12:57:39.79	131.26	13.77	-38.7	-39.7	22.1	0.00e+00	0	27	0	1082130432	50	6228
2026-01-17 12:57:40.79	131.41	13.70	-38.8	-39.8	22.0	0.00e+00	51	27	0	1084227584	50	6312
2026-01-17 12:57:41.80	131.56	13.63	-38.8	-39.9	21.9	0.00e+00	45	27	0	1085276160	50	6352
2026-01-17 12:57:42.81	131.71	13.56	-38.8	-39.9	21.7	0.00e+00	50	27	0	1087373312	50	6355
2026-01-17 12:57:43.82	131.86	13.49	-38.9	-40.0	21.9	0.00e+00	88	27	0	1089470464	50	6423
2026-01-17 12:57:44.83	132.01	13.42	-38.6	-39.6	22.1	0.00e+00	50	27	0	1091567616	50	6158
2026-01-17 12:57:45.84	132.16	13.35	-38.6	-39.6	22.2	0.00e+00	90	27	0	1093664768	50	6155
2026-01-17 12:57:46.85	132.31	13.28	-38.6	-39.7	22.2	0.00e+00	6	27	0	1094713344	50	6176
2026-01-17 12:57:47.86	132.45	13.21	-38.4	-39.5	22.3	0.00e+00	35	27	0	1096810496	50	6046
2026-01-17 12:57:48.87	132.60	13.14	-38.3	-39.3	22.4	0.00e+00	35	27	0	1098907648	50	5949
2026-01-17 12:57:49.88	132.74	13.07	-38.4	-39.5	22.3	0.00e+00	34	27	0	1101004800	50	6054
2026-01-17 12:57:50.89	132.89	13.01	-38.5	-39.6	22.2	0.00e+00	91	27	0	1103101952	50	6120
2026-01-17 12:57:51.89	133.03	12.94	-38.7	-39.8	21.9	0.00e+00	36	27	0	1104150528	50	6285
2026-01-17 12:57:52.90	133.17	12.87	-38.8	-39.8	21.9	0.00e+00	92	27	0	1106247680	50	6313
2026-01-17 12:57:53.91	133.32	12.80	-38.7	-39.8	22.0	0.00e+00	0	27	0	1108344832	50	6288
2026-01-17 12:57:54.92	133.46	12.73	-38.7	-39.8	22.0	0.00e+00	7	27	0	1110441984	50	6260
2026-01-17 12:57:55.93	133.60	12.66	-38.7	-39.7	22.0	0.00e+00	7	27	0	1112539136	50	6243
2026-01-17 12:57:56.94	133.74	12.59	-38.7	-39.8	22.1	0.00e+00	7	27	0	1113587712	50	6250
2026-01-17 12:57:57.95	133.88	12.52	-38.5	-39.5	22.3	0.00e+00	4	27	0	1115684864	50	6087
2026-01-17 12:57:58.96	134.02	12.45	-38.4	-39.5	22.3	0.00e+00	0	27	0	1117782016	50	6037
2026-01-17 12:57:59.96	134.16	12.39	-38.4	-39.5	22.3	0.00e+00	91	27	0	1119879168	50	6042
2026-01-17 12:58:00.97	134.30	12.32	-38.3	-39.3	22.4	0.00e+00	45	27	0	1121976320	50	5917
2026-01-17 12:58:01.98	134.44	12.25	-38.3	-39.3	22.3	0.00e+00	92	27	0	1123024896	50	5959
2026-01-17 12:58:02.99	134.57	12.18	-38.4	-39.4	22.3	0.00e+00	45	27	0	1125122048	50	6000
2026-01-17 12:58:04.00	134.71	12.11	-38.3	-39.3	22.4	0.00e+00	37	27	0	1127219200	50	5938
2026-01-17 12:58:05.01	134.85	12.04	-38.3	-39.3	22.4	0.00e+00	36	27	0	1129316352	50	5943
2026-01-17 12:58:06.01	134.98	11.97	-38.3	-39.3	22.4	0.00e+00	36	27	0	1131413504	50	5949
2026-01-17 12:58:07.02	135.12	11.91	-38.4	-39.5	22.3	0.00e+00	92	27	0	1132462080	50	6052
2026-01-17 12:58:08.03	135.25	11.84	-38.5	-39.6	22.2	0.00e+00	45	27	0	1134559232	50	6113
2026-01-17 12:58:09.04	135.38	11.77	-38.7	-39.8	22.0	0.00e+00	92	27	0	1136656384	50	6253
2026-01-17 12:58:10.05	135.52	11.70	-38.8	-39.9	21.9	0.00e+00	31	27	0	1138753536	50	6341
2026-01-17 12:58:11.06	135.65	11.63	-38.7	-39.8	22.0	0.00e+00	0	27	0	1140850688	50	6273
2026-01-17 12:58:12.07	135.78	11.56	-38.6	-39.7	22.0	0.00e+00	31	27	0	1141899264	50	6181
2026-01-17 12:58:13.08	135.91	11.50	-38.8	-39.8	21.8	0.00e+00	0	27	0	1143996416	50	6307
2026-01-17 12:58:14.09	136.04	11.43	-39.0	-40.1	21.6	0.00e+00	59	27	0	1146093568	50	6506
2026-01-17 12:58:15.10	136.17	11.36	-39.0	-40.1	21.6	0.00e+00	32	27	0	1148190720	50	6519
2026-01-17 12:58:16.11	136.30	11.29	-39.1	-40.3	21.5	0.00e+00	92	27	0	1150287872	50	6640
2026-01-17 12:58:17.12	136.43	11.22	-39.2	-40.3	21.5	0.00e+00	0	27	0	1152385024	50	6673
2026-01-17 12:58:18.13	136.56	11.16	-39.1	-40.2	21.6	0.00e+00	90	27	0	1153433600	50	6599
2026-01-17 12:58:19.13	136.68	11.09	-39.1	-40.2	21.5	0.00e+00	0	27	0	1155530752	50	6596
2026-01-17 12:58:20.14	136.81	11.02	-39.1	-40.2	21.5	0.00e+00	0	27	0	1157627904	50	6609
2026-01-17 12:58:21.15	136.94	10.95	-39.1	-40.3	21.4	0.00e+00	0	27	0	1159725056	50	6629
2026-01-17 12:58:22.16	137.06	10.89	-39.2	-40.3	21.5	0.00e+00	50	27	0	1161822208	50	6651
2026-01-17 12:58:23.17	137.19	10.82	-39.3	-40.4	21.3	0.00e+00	92	27	0	1162870784	50	6756
2026-01-17 12:58:24.18	137.31	10.75	-39.0	-40.1	21.5	0.00e+00	0	27	0	1164967936	50	6534
2026-01-17 12:58:25.19	137.44	10.68	-38.7	-39.8	21.9	0.00e+00	92	27	0	1167065088	50	6286
2026-01-17 12:58:26.20	137.56	10.62	-38.9	-40.0	21.7	0.00e+00	49	27	0	1169162240	50	6403
2026-01-17 12:58:27.21	137.69	10.55	-39.0	-40.1	21.6	0.00e+00	0	27	0	1171259392	50	6494
2026-01-17 12:58:28.22	137.81	10.48	-38.9	-40.0	21.7	0.00e+00	33	27	0	1172307968	50	6401
2026-01-17 12:58:29.23	137.93	10.41	-38.9	-40.0	21.7	0.00e+00	48	27	0	1174405120	50	6415
2026-01-17 12:58:30.24	138.05	10.35	-38.9	-40.0	21.7	0.00e+00	92	27	0	1176502272	50	6442
2026-01-17 12:58:31.25	138.17	10.28	-39.0	-40.2	21.5	0.00e+00	37	27	0	1178599424	50	6558
2026-01-17 12:58:32.26	138.29	10.21	-39.1	-40.2	21.4	0.00e+00	92	27	0	1180696576	50	6604
2026-01-17 12:58:33.27	138.41	10.15	-39.2	-40.4	21.2	0.00e+00	2	27	0	1181745152	50	6741
2026-01-17 12:58:34.28	138.53	10.08	-39.4	-40.5	21.1	0.00e+00	92	27	0	1183842304	50	6848
2026-01-17 12:58:35.29	138.65	10.01	-39.4	-40.6	21.0	0.00e+00	0	27	0	1185939456	50	6910
2026-01-17 12:58:36.30	138.77	9.95	-39.7	-41.0	20.4	0.00e+00	0	27	0	1188036608	50	7188
2026-01-17 12:58:37.30	138.89	9.88	-39.9	-41.2	20.5	0.00e+00	0	27	0	1190133760	52	6558
2026-01-17 12:58:38.31	139.01	9.81	-40.1	-41.4	20.3	0.00e+00	0	27	0	1191182336	52	6724
2026-01-17 12:58:39.32	139.12	9.75	-40.3	-41.7	19.9	0.00e+00	91	27	0	1193279488	52	6961
2026-01-17 12:58:40.33	139.24	9.68	-40.5	-42.0	19.7	0.00e+00	0	27	0	1195376640	52	7187
2026-01-17 12:58:41.34	139.36	9.61	-40.6	-42.1	19.6	0.00e+00	91	27	0	1197473792	52	7294
2026-01-17 12:58:42.35	139.47	9.55	-40.8	-42.3	19.3	0.00e+00	2	27	0	1199570944	54	6668
2026-01-17 12:58:43.36	139.59	9.48	-41.0	-42.6	18.9	0.00e+00	0	27	0	1200619520	54	6886
2026-01-17 12:58:44.37	139.70	9.42	-41.3	-42.9	18.7	0.00e+00	0	27	0	1202716672	54	7138
2026-01-17 12:58:45.38	139.81	9.35	-41.3	-43.0	18.5	0.00e+00	0	27	0	1204813824	54	7231
2026-01-17 12:58:46.39	139.93	9.28	-41.5	-43.2	18.3	0.00e+00	91	27	0	1206910976	54	7382
