passes_logs/2026/01/17/R4.6S_Anadyr/R4.6S_Anadyr__20260117_160757_NOAA_20_JPSS-1_rec.log

#Pass ID: 20260117_160757_NOAA 20 (JPSS-1)
#Satellite: NOAA 20 (JPSS-1)
#Configuration: NOAA 20
#almurnet v.1.7.20251203
#Start time: 2026-01-17 16:08:01

#Version: 2.2.20231116
#Station: R4.6S_Anadyr
#Location: 177.4865 lon 64.73178 lat
#TLE: 1 43013U 17073A   26016.52825843  .00000039  00000+0  39346-4 0  9991
#TLE: 2 43013  98.7637 317.4515 0001446  37.2648 322.8628 14.19536276422951

#Time	Az	El	Level	Level2	SNR	BER	BlckErr	Temp	State	Recorded	gain1	gain2
2026-01-17 16:08:01.13	24.67	0.20	-48.6	-62.4	3.3	1.54e+00	0	27	0	0	60	47901
2026-01-17 16:08:02.14	24.64	0.26	-48.6	-63.8	3.6	1.51e+00	0	27	104	0	60	56250
2026-01-17 16:08:03.15	24.60	0.31	-48.6	-63.9	3.6	1.51e+00	0	27	104	0	60	56422
2026-01-17 16:08:04.16	24.57	0.37	-48.6	-63.9	3.6	1.51e+00	0	27	104	0	60	56353
2026-01-17 16:08:05.17	24.54	0.43	-48.6	-63.8	3.6	1.51e+00	0	27	104	0	60	55967
2026-01-17 16:08:06.18	24.50	0.49	-48.6	-63.8	3.6	1.51e+00	0	27	104	0	60	55910
2026-01-17 16:08:07.19	24.47	0.55	-48.5	-63.7	3.6	1.51e+00	0	27	104	0	60	55336
2026-01-17 16:08:08.20	24.43	0.61	-48.4	-63.6	3.6	1.51e+00	0	27	104	0	60	54639
2026-01-17 16:08:09.21	24.40	0.67	-48.2	-63.4	3.6	1.51e+00	0	27	104	0	60	53671
2026-01-17 16:08:10.22	24.37	0.73	-48.0	-63.2	3.6	1.51e+00	0	27	104	0	60	52525
2026-01-17 16:08:11.23	24.33	0.79	-47.9	-63.2	3.6	1.51e+00	0	27	104	0	60	52097
2026-01-17 16:08:12.24	24.30	0.85	-47.7	-62.9	3.6	1.51e+00	0	27	104	0	60	50560
2026-01-17 16:08:13.25	24.26	0.91	-47.3	-62.5	3.6	1.51e+00	0	27	104	0	60	48227
2026-01-17 16:08:14.26	24.23	0.97	-47.1	-62.1	3.6	1.51e+00	0	27	104	0	60	46146
2026-01-17 16:08:15.27	24.19	1.03	-47.1	-62.2	3.6	1.51e+00	0	27	104	0	60	46411
2026-01-17 16:08:16.28	24.16	1.09	-47.1	-62.3	3.5	1.51e+00	0	27	104	0	60	46882
2026-01-17 16:08:17.29	24.12	1.15	-47.1	-62.2	3.6	1.51e+00	0	27	104	0	60	46562
2026-01-17 16:08:18.30	24.09	1.21	-47.1	-62.2	3.5	1.51e+00	0	27	104	0	60	46480
2026-01-17 16:08:19.31	24.05	1.27	-47.0	-62.1	3.6	1.51e+00	0	27	104	0	60	46171
2026-01-17 16:08:20.32	24.01	1.33	-47.0	-62.1	3.6	1.51e+00	0	27	104	0	60	46121
2026-01-17 16:08:21.33	23.98	1.39	-47.1	-62.1	3.6	1.51e+00	0	27	104	0	60	45886
2026-01-17 16:08:22.34	23.94	1.45	-47.0	-62.1	3.6	1.51e+00	0	27	104	0	60	46112
2026-01-17 16:08:23.35	23.90	1.51	-47.0	-62.2	3.6	1.51e+00	0	27	104	0	60	46371
2026-01-17 16:08:24.36	23.87	1.57	-47.0	-62.2	3.5	1.51e+00	0	27	104	0	60	46300
2026-01-17 16:08:25.37	23.83	1.63	-47.0	-62.2	3.6	1.51e+00	0	27	104	0	60	46680
2026-01-17 16:08:26.38	23.79	1.70	-47.1	-62.2	3.6	1.51e+00	0	27	104	0	60	46500
2026-01-17 16:08:27.39	23.76	1.76	-47.0	-62.2	3.6	1.51e+00	0	27	104	0	60	46395
2026-01-17 16:08:28.40	23.72	1.82	-47.0	-62.1	3.6	1.51e+00	0	27	104	0	60	46026
2026-01-17 16:08:29.41	23.68	1.88	-47.0	-61.7	3.6	1.51e+00	0	27	104	0	60	43912
2026-01-17 16:08:30.42	23.64	1.94	-47.1	-62.1	3.6	1.51e+00	0	27	104	0	60	46148
2026-01-17 16:08:31.43	23.61	2.00	-47.0	-62.1	3.6	1.51e+00	0	27	104	0	60	45964
2026-01-17 16:08:32.44	23.57	2.07	-47.0	-62.1	3.6	1.51e+00	0	27	104	0	60	46180
2026-01-17 16:08:33.45	23.53	2.13	-47.0	-62.2	3.6	1.51e+00	0	28	104	0	60	46393
2026-01-17 16:08:34.46	23.49	2.19	-47.0	-62.2	3.6	1.51e+00	0	28	104	0	60	46666
2026-01-17 16:08:35.47	23.45	2.25	-47.0	-62.2	3.6	1.51e+00	0	27	104	0	60	46751
2026-01-17 16:08:36.48	23.41	2.31	-47.0	-62.2	3.5	1.51e+00	0	27	104	0	60	46380
2026-01-17 16:08:37.50	23.38	2.38	-47.0	-62.1	3.6	1.51e+00	0	27	104	0	60	46119
2026-01-17 16:08:38.51	23.34	2.44	-47.0	-61.9	3.6	1.51e+00	0	28	104	0	60	44955
2026-01-17 16:08:39.52	23.30	2.50	-47.0	-61.9	3.5	1.51e+00	0	27	104	0	60	45141
2026-01-17 16:08:40.53	23.26	2.57	-47.0	-61.6	3.6	1.51e+00	0	28	104	0	60	43687
2026-01-17 16:08:41.54	23.22	2.63	-47.0	-61.6	3.6	1.51e+00	0	28	104	0	60	43589
2026-01-17 16:08:42.55	23.18	2.69	-47.0	-61.3	3.6	1.51e+00	0	28	104	0	60	41930
2026-01-17 16:08:43.56	23.14	2.76	-47.0	-61.5	3.6	1.51e+00	0	28	104	0	60	43056
2026-01-17 16:08:44.57	23.10	2.82	-47.0	-61.8	3.6	1.51e+00	0	28	104	0	60	44241
2026-01-17 16:08:45.58	23.06	2.88	-47.1	-62.2	3.6	1.51e+00	0	28	104	0	60	46432
2026-01-17 16:08:46.59	23.02	2.95	-47.0	-62.0	3.6	1.51e+00	0	28	104	0	60	45591
2026-01-17 16:08:47.60	22.98	3.01	-47.0	-60.2	3.6	1.51e+00	0	28	104	0	60	36785
2026-01-17 16:08:48.61	22.93	3.08	-46.8	-57.7	4.5	1.24e+00	52	28	104	0	60	27611
2026-01-17 16:08:49.62	22.89	3.14	-46.4	-54.1	6.4	3.15e-01	0	28	0	1048576	60	18229
2026-01-17 16:08:50.63	22.85	3.20	-45.9	-51.7	8.5	5.36e-02	51	28	0	2097152	60	13855
2026-01-17 16:08:51.65	22.81	3.27	-45.4	-50.2	10.6	1.11e-02	90	28	0	4194304	60	11681
2026-01-17 16:08:52.65	22.77	3.33	-44.8	-48.8	12.2	7.06e-04	6	28	0	6291456	60	9982
2026-01-17 16:08:53.67	22.73	3.40	-44.9	-49.1	11.9	4.15e-04	92	28	0	8388608	60	10317
2026-01-17 16:08:54.68	22.68	3.46	-44.4	-48.0	13.1	3.12e-05	6	28	0	10485760	60	9045
2026-01-17 16:08:55.68	22.64	3.53	-44.4	-48.0	13.1	1.22e-05	90	28	0	11534336	60	9039
2026-01-17 16:08:56.70	22.60	3.59	-46.8	-56.6	3.8	1.11e-03	45	28	0	13631488	60	24456
2026-01-17 16:08:57.71	22.56	3.66	-42.3	-44.4	6.0	1.50e+00	43	28	104	13631488	60	5977
2026-01-17 16:08:58.72	22.51	3.72	-46.8	-57.1	3.6	3.62e-02	0	28	0	13631488	60	25903
2026-01-17 16:08:59.73	22.47	3.79	-45.3	-50.2	5.5	1.49e+00	0	28	104	13631488	60	11671
2026-01-17 16:09:00.74	22.43	3.85	-41.9	-43.8	16.9	5.39e-02	92	28	0	13631488	56	7072
2026-01-17 16:09:01.75	22.38	3.92	-42.8	-45.0	16.3	4.80e-05	29	28	0	15728640	60	6456
2026-01-17 16:09:02.76	22.34	3.99	-41.6	-43.5	18.0	0.00e+00	91	28	0	16777216	56	6799
2026-01-17 16:09:03.77	22.29	4.05	-41.8	-43.7	17.7	0.00e+00	29	28	0	18874368	56	6938
2026-01-17 16:09:04.78	22.25	4.12	-41.9	-43.9	17.4	0.00e+00	29	28	0	20971520	56	7101
2026-01-17 16:09:05.79	22.21	4.19	-41.6	-43.5	17.9	0.00e+00	19	28	0	23068672	56	6771
2026-01-17 16:09:06.80	22.16	4.25	-41.5	-43.3	18.0	0.00e+00	30	28	0	25165824	56	6626
2026-01-17 16:09:07.81	22.12	4.32	-41.8	-43.6	17.7	0.00e+00	92	28	0	26214400	56	6922
2026-01-17 16:09:08.82	22.07	4.39	-41.7	-43.6	17.9	0.00e+00	46	28	0	28311552	56	6890
2026-01-17 16:09:09.83	22.02	4.45	-41.2	-42.9	18.6	0.00e+00	90	28	0	30408704	56	6331
2026-01-17 16:09:10.84	21.98	4.52	-40.9	-42.5	18.9	0.00e+00	47	28	0	32505856	56	6076
2026-01-17 16:09:11.85	21.93	4.59	-40.5	-42.0	19.4	0.00e+00	48	28	0	34603008	54	6449
2026-01-17 16:09:12.86	21.89	4.65	-40.5	-41.9	19.5	0.00e+00	46	28	0	35651584	54	6378
2026-01-17 16:09:13.86	21.84	4.72	-40.9	-42.4	19.0	0.00e+00	49	28	0	37748736	54	6751
2026-01-17 16:09:14.87	21.79	4.79	-41.1	-42.8	18.6	0.00e+00	92	28	0	39845888	54	7023
2026-01-17 16:09:15.88	21.75	4.86	-40.9	-42.5	19.0	0.00e+00	0	28	0	41943040	54	6788
2026-01-17 16:09:16.89	21.70	4.92	-40.8	-42.4	18.7	0.00e+00	92	28	0	44040192	54	6742
2026-01-17 16:09:17.90	21.65	4.99	-40.6	-42.1	19.5	0.00e+00	0	28	0	45088768	54	6465
2026-01-17 16:09:18.91	21.61	5.06	-40.7	-42.2	19.3	0.00e+00	90	28	0	47185920	54	6591
2026-01-17 16:09:19.92	21.56	5.13	-40.6	-42.0	19.4	0.00e+00	0	28	0	49283072	54	6451
2026-01-17 16:09:20.93	21.51	5.20	-40.6	-42.0	19.6	0.00e+00	0	28	0	51380224	54	6439
2026-01-17 16:09:21.94	21.46	5.27	-40.3	-41.7	19.6	0.00e+00	0	28	0	53477376	54	6240
2026-01-17 16:09:22.95	21.41	5.34	-40.7	-42.1	19.4	0.00e+00	4	28	0	54525952	54	6524
2026-01-17 16:09:23.96	21.36	5.41	-40.4	-41.8	19.7	0.00e+00	92	28	0	56623104	54	6277
2026-01-17 16:09:24.96	21.32	5.47	-40.6	-42.1	19.4	0.00e+00	0	28	0	58720256	54	6490
2026-01-17 16:09:25.97	21.27	5.54	-40.8	-42.3	19.2	0.00e+00	92	28	0	60817408	54	6655
2026-01-17 16:09:26.98	21.22	5.61	-40.4	-41.8	19.7	0.00e+00	0	28	0	62914560	54	6310
2026-01-17 16:09:27.99	21.17	5.68	-40.5	-42.0	19.7	0.00e+00	35	28	0	63963136	54	6416
2026-01-17 16:09:29.00	21.12	5.75	-40.3	-41.7	19.8	0.00e+00	49	28	0	66060288	54	6230
2026-01-17 16:09:30.01	21.07	5.82	-40.7	-42.2	19.4	0.00e+00	53	28	0	68157440	54	6567
2026-01-17 16:09:31.02	21.02	5.89	-40.6	-42.1	19.6	0.00e+00	92	28	0	70254592	54	6511
2026-01-17 16:09:32.03	20.97	5.96	-40.6	-42.0	19.7	0.00e+00	28	28	0	72351744	54	6433
2026-01-17 16:09:33.04	20.91	6.03	-40.5	-42.0	19.7	0.00e+00	91	28	0	73400320	54	6409
2026-01-17 16:09:34.05	20.86	6.10	-40.8	-42.3	19.4	0.00e+00	51	28	0	75497472	54	6691
2026-01-17 16:09:35.06	20.81	6.18	-40.9	-42.4	19.3	0.00e+00	2	28	0	77594624	54	6734
2026-01-17 16:09:36.07	20.76	6.25	-40.5	-41.9	19.8	0.00e+00	0	28	0	79691776	54	6387
2026-01-17 16:09:37.08	20.71	6.32	-40.5	-42.0	19.6	0.00e+00	0	28	0	81788928	54	6403
2026-01-17 16:09:38.09	20.65	6.39	-40.4	-41.7	19.9	0.00e+00	90	28	0	82837504	54	6243
2026-01-17 16:09:39.10	20.60	6.46	-40.5	-42.0	19.7	0.00e+00	0	28	0	84934656	54	6396
2026-01-17 16:09:40.11	20.55	6.53	-40.0	-41.3	20.2	0.00e+00	92	28	0	87031808	54	5964
2026-01-17 16:09:41.12	20.50	6.60	-40.3	-41.6	20.2	0.00e+00	0	28	0	89128960	54	6151
2026-01-17 16:09:42.13	20.44	6.68	-40.4	-41.8	19.8	0.00e+00	47	28	0	91226112	54	6295
2026-01-17 16:09:43.14	20.39	6.75	-40.1	-41.4	20.3	0.00e+00	0	28	0	92274688	54	6004
2026-01-17 16:09:44.15	20.33	6.82	-40.1	-41.5	20.2	0.00e+00	0	28	0	94371840	54	6041
2026-01-17 16:09:45.16	20.28	6.89	-40.2	-41.5	20.1	0.00e+00	0	28	0	96468992	54	6100
2026-01-17 16:09:46.17	20.22	6.97	-40.1	-41.4	20.2	0.00e+00	0	28	0	98566144	54	6031
2026-01-17 16:09:47.18	20.17	7.04	-40.1	-41.4	20.3	0.00e+00	92	28	0	100663296	54	5991
2026-01-17 16:09:48.19	20.11	7.11	-40.1	-41.4	20.3	0.00e+00	0	28	0	101711872	54	5983
2026-01-17 16:09:49.20	20.06	7.19	-39.7	-41.0	20.7	0.00e+00	92	28	0	103809024	52	6407
2026-01-17 16:09:50.21	20.00	7.26	-40.0	-41.2	20.5	7.00e-07	36	28	0	105906176	52	6602
2026-01-17 16:09:51.22	19.95	7.33	-39.8	-41.1	20.6	0.00e+00	46	28	0	108003328	52	6504
2026-01-17 16:09:52.22	19.89	7.41	-39.9	-41.2	20.6	0.00e+00	38	28	0	110100480	52	6553
2026-01-17 16:09:53.23	19.83	7.48	-39.9	-41.1	20.6	0.00e+00	36	28	0	112197632	52	6523
2026-01-17 16:09:54.24	19.78	7.56	-39.8	-41.0	20.8	0.00e+00	92	28	0	113246208	52	6456
2026-01-17 16:09:55.25	19.72	7.63	-39.8	-41.0	20.7	0.00e+00	0	28	0	115343360	52	6428
2026-01-17 16:09:56.26	19.66	7.71	-39.5	-40.7	21.1	0.00e+00	92	28	0	117440512	52	6206
2026-01-17 16:09:57.28	19.60	7.78	-39.7	-40.9	20.9	0.00e+00	0	28	0	119537664	52	6357
2026-01-17 16:09:58.28	19.54	7.86	-40.0	-41.3	20.6	0.00e+00	0	28	0	121634816	52	6626
2026-01-17 16:09:59.29	19.49	7.93	-39.5	-40.6	21.2	0.00e+00	0	28	0	122683392	52	6162
2026-01-17 16:10:00.30	19.43	8.01	-39.4	-40.6	21.2	0.00e+00	0	28	0	124780544	52	6139
2026-01-17 16:10:01.31	19.37	8.08	-39.6	-40.8	21.0	0.00e+00	30	28	0	126877696	52	6294
2026-01-17 16:10:02.32	19.31	8.16	-39.6	-40.7	21.1	0.00e+00	0	28	0	128974848	52	6244
2026-01-17 16:10:03.33	19.25	8.23	-39.4	-40.6	21.2	0.00e+00	92	28	0	131072000	52	6152
2026-01-17 16:10:04.34	19.19	8.31	-39.4	-40.6	21.3	0.00e+00	0	28	0	132120576	52	6107
2026-01-17 16:10:05.35	19.13	8.39	-39.3	-40.4	21.3	0.00e+00	37	28	0	134217728	52	6032
2026-01-17 16:10:06.36	19.06	8.46	-39.6	-40.8	21.0	0.00e+00	29	28	0	136314880	52	6286
2026-01-17 16:10:07.37	19.00	8.54	-39.6	-40.8	21.1	0.00e+00	0	28	0	138412032	52	6256
2026-01-17 16:10:08.38	18.94	8.62	-39.3	-40.4	21.4	0.00e+00	0	28	0	140509184	52	6030
2026-01-17 16:10:09.39	18.88	8.69	-39.2	-40.4	21.4	0.00e+00	35	28	0	141557760	52	5977
2026-01-17 16:10:10.39	18.82	8.77	-39.3	-40.5	21.3	0.00e+00	92	28	0	143654912	52	6056
2026-01-17 16:10:11.40	18.75	8.85	-39.4	-40.5	21.3	0.00e+00	0	28	0	145752064	52	6077
2026-01-17 16:10:12.41	18.69	8.93	-39.3	-40.4	21.4	0.00e+00	92	28	0	147849216	52	6016
2026-01-17 16:10:13.42	18.63	9.00	-39.4	-40.6	21.4	0.00e+00	36	28	0	149946368	52	6106
2026-01-17 16:10:14.43	18.56	9.08	-39.3	-40.4	21.5	0.00e+00	47	28	0	150994944	52	6007
2026-01-17 16:10:15.44	18.50	9.16	-39.6	-40.7	21.1	0.00e+00	45	28	0	153092096	52	6240
2026-01-17 16:10:16.45	18.43	9.24	-39.3	-40.4	21.4	0.00e+00	46	28	0	155189248	52	6019
2026-01-17 16:10:17.46	18.37	9.32	-39.3	-40.5	21.4	0.00e+00	92	28	0	157286400	52	6055
2026-01-17 16:10:18.47	18.30	9.40	-39.3	-40.4	21.4	0.00e+00	0	28	0	159383552	52	6013
2026-01-17 16:10:19.48	18.24	9.48	-39.6	-40.8	21.1	0.00e+00	92	28	0	160432128	52	6299
2026-01-17 16:10:20.49	18.17	9.56	-39.4	-40.6	21.3	0.00e+00	47	28	0	162529280	52	6135
2026-01-17 16:10:21.50	18.11	9.64	-39.2	-40.4	21.3	0.00e+00	0	28	0	164626432	52	5991
2026-01-17 16:10:22.51	18.04	9.72	-39.1	-40.2	21.6	0.00e+00	6	28	0	166723584	52	5875
2026-01-17 16:10:23.52	17.97	9.80	-39.1	-40.2	21.7	0.00e+00	5	28	0	168820736	52	5882
2026-01-17 16:10:24.52	17.90	9.88	-39.4	-40.5	21.4	0.00e+00	2	28	0	169869312	52	6072
2026-01-17 16:10:25.53	17.84	9.96	-39.3	-40.5	21.5	0.00e+00	0	28	0	171966464	52	6035
2026-01-17 16:10:26.54	17.77	10.04	-39.3	-40.4	21.4	0.00e+00	92	28	0	174063616	52	6014
2026-01-17 16:10:27.55	17.70	10.12	-39.1	-40.2	21.7	0.00e+00	0	28	0	176160768	52	5893
2026-01-17 16:10:28.56	17.63	10.20	-39.2	-40.3	21.6	0.00e+00	92	28	0	178257920	52	5919
2026-01-17 16:10:29.57	17.56	10.28	-38.9	-40.0	21.9	0.00e+00	0	28	0	180355072	52	5747
2026-01-17 16:10:30.58	17.49	10.36	-39.2	-40.3	21.5	0.00e+00	30	28	0	181403648	52	5937
2026-01-17 16:10:31.59	17.42	10.45	-39.1	-40.2	21.7	0.00e+00	0	28	0	183500800	52	5879
2026-01-17 16:10:32.60	17.35	10.53	-38.9	-40.0	21.9	0.00e+00	30	28	0	185597952	52	5740
2026-01-17 16:10:33.61	17.28	10.61	-39.0	-40.0	21.9	0.00e+00	91	28	0	187695104	52	5754
2026-01-17 16:10:34.62	17.21	10.69	-39.0	-40.0	21.9	0.00e+00	55	28	0	189792256	52	5752
2026-01-17 16:10:35.63	17.13	10.78	-38.9	-40.0	21.9	0.00e+00	91	28	0	190840832	52	5705
2026-01-17 16:10:36.64	17.06	10.86	-39.0	-40.1	21.8	0.00e+00	55	28	0	192937984	52	5789
2026-01-17 16:10:37.65	16.99	10.94	-39.1	-40.2	21.7	0.00e+00	54	28	0	195035136	52	5893
2026-01-17 16:10:38.66	16.91	11.03	-38.9	-40.0	22.0	0.00e+00	6	28	0	197132288	52	5708
2026-01-17 16:10:39.67	16.84	11.11	-38.7	-39.8	22.1	0.00e+00	50	28	0	199229440	52	5596
2026-01-17 16:10:40.68	16.77	11.19	-38.6	-39.7	22.3	0.00e+00	90	28	0	200278016	50	6178
2026-01-17 16:10:41.69	16.69	11.28	-38.7	-39.8	22.2	0.00e+00	0	28	0	202375168	50	6257
2026-01-17 16:10:42.70	16.61	11.36	-38.7	-39.7	22.1	0.00e+00	92	28	0	204472320	50	6236
2026-01-17 16:10:43.71	16.54	11.45	-38.6	-39.7	22.3	0.00e+00	7	28	0	206569472	50	6183
2026-01-17 16:10:44.71	16.46	11.53	-38.7	-39.7	22.2	0.00e+00	0	28	0	208666624	50	6228
2026-01-17 16:10:45.72	16.39	11.62	-38.7	-39.8	22.2	0.00e+00	0	28	0	209715200	50	6262
2026-01-17 16:10:46.73	16.31	11.70	-38.6	-39.7	22.2	0.00e+00	6	28	0	211812352	50	6195
2026-01-17 16:10:47.74	16.23	11.79	-38.7	-39.7	22.2	0.00e+00	0	28	0	213909504	50	6237
2026-01-17 16:10:48.75	16.15	11.87	-38.7	-39.8	22.1	0.00e+00	38	28	0	216006656	50	6264
2026-01-17 16:10:49.76	16.08	11.96	-38.6	-39.6	22.3	0.00e+00	90	28	0	218103808	50	6135
2026-01-17 16:10:50.77	16.00	12.05	-38.6	-39.6	22.3	0.00e+00	0	28	0	219152384	50	6167
2026-01-17 16:10:51.78	15.92	12.13	-38.6	-39.7	22.3	0.00e+00	92	28	0	221249536	50	6184
2026-01-17 16:10:52.79	15.84	12.22	-38.6	-39.6	22.3	0.00e+00	0	28	0	223346688	50	6139
2026-01-17 16:10:53.80	15.76	12.31	-38.7	-39.7	22.2	0.00e+00	37	28	0	225443840	50	6222
2026-01-17 16:10:54.81	15.67	12.40	-38.6	-39.6	22.5	0.00e+00	17	28	0	227540992	50	6120
2026-01-17 16:10:55.82	15.59	12.48	-38.6	-39.6	22.4	0.00e+00	37	28	0	228589568	50	6124
2026-01-17 16:10:56.83	15.51	12.57	-38.5	-39.5	22.4	0.00e+00	90	28	0	230686720	50	6092
2026-01-17 16:10:57.84	15.43	12.66	-38.5	-39.6	22.4	0.00e+00	37	28	0	232783872	50	6117
2026-01-17 16:10:58.85	15.35	12.75	-38.5	-39.6	22.4	0.00e+00	92	28	0	234881024	50	6113
2026-01-17 16:10:59.86	15.26	12.84	-38.6	-39.6	22.3	0.00e+00	51	28	0	236978176	50	6154
2026-01-17 16:11:00.87	15.18	12.93	-38.6	-39.6	22.4	0.00e+00	49	28	0	238026752	50	6159
2026-01-17 16:11:01.88	15.09	13.01	-38.6	-39.7	22.2	0.00e+00	0	28	0	240123904	50	6182
2026-01-17 16:11:02.89	15.01	13.10	-38.7	-39.7	22.2	0.00e+00	2	28	0	242221056	50	6212
2026-01-17 16:11:03.90	14.92	13.19	-38.6	-39.6	22.4	0.00e+00	90	28	0	244318208	50	6117
2026-01-17 16:11:04.90	14.84	13.28	-38.6	-39.7	22.3	0.00e+00	0	28	0	246415360	50	6189
2026-01-17 16:11:05.91	14.75	13.37	-38.8	-39.8	22.2	0.00e+00	92	28	0	248512512	50	6301
2026-01-17 16:11:06.92	14.66	13.46	-38.6	-39.6	22.4	0.00e+00	0	28	0	249561088	50	6136
2026-01-17 16:11:07.93	14.57	13.56	-38.7	-39.8	22.2	0.00e+00	0	28	0	251658240	50	6250
2026-01-17 16:11:08.94	14.48	13.65	-38.6	-39.6	22.4	0.00e+00	31	28	0	253755392	50	6141
2026-01-17 16:11:09.95	14.40	13.74	-38.7	-39.7	22.2	0.00e+00	38	28	0	255852544	50	6238
2026-01-17 16:11:10.96	14.31	13.83	-38.7	-39.8	22.2	0.00e+00	0	28	0	257949696	50	6280
2026-01-17 16:11:11.97	14.22	13.92	-38.6	-39.7	22.3	0.00e+00	0	28	0	258998272	50	6187
2026-01-17 16:11:12.98	14.12	14.01	-38.7	-39.7	22.3	0.00e+00	92	28	0	261095424	50	6221
2026-01-17 16:11:13.99	14.03	14.11	-38.7	-39.7	22.3	0.00e+00	0	28	0	263192576	50	6237
2026-01-17 16:11:15.00	13.94	14.20	-38.6	-39.7	22.4	0.00e+00	24	28	0	265289728	50	6197
2026-01-17 16:11:16.01	13.85	14.29	-38.7	-39.7	22.3	0.00e+00	51	28	0	267386880	50	6237
2026-01-17 16:11:17.02	13.76	14.39	-38.6	-39.6	22.5	0.00e+00	32	28	0	268435456	50	6131
2026-01-17 16:11:18.03	13.66	14.48	-38.6	-39.7	22.4	0.00e+00	31	28	0	270532608	50	6189
2026-01-17 16:11:19.04	13.57	14.57	-38.6	-39.7	22.4	0.00e+00	38	28	0	272629760	50	6183
2026-01-17 16:11:20.05	13.47	14.67	-38.7	-39.8	22.3	0.00e+00	92	28	0	274726912	50	6255
2026-01-17 16:11:21.06	13.38	14.76	-38.8	-39.8	22.2	0.00e+00	3	28	0	276824064	50	6315
2026-01-17 16:11:22.06	13.28	14.86	-38.7	-39.7	22.3	0.00e+00	92	28	0	277872640	50	6227
2026-01-17 16:11:23.07	13.18	14.95	-38.8	-39.8	22.3	0.00e+00	0	28	0	279969792	50	6302
2026-01-17 16:11:24.08	13.09	15.05	-38.8	-39.8	22.3	0.00e+00	50	28	0	282066944	50	6301
2026-01-17 16:11:25.09	12.99	15.14	-38.8	-39.9	22.2	0.00e+00	0	28	0	284164096	50	6353
2026-01-17 16:11:26.11	12.89	15.24	-38.7	-39.8	22.3	0.00e+00	0	28	0	286261248	50	6273
2026-01-17 16:11:27.11	12.79	15.33	-38.7	-39.7	22.4	0.00e+00	90	28	0	287309824	50	6216
2026-01-17 16:11:28.12	12.69	15.43	-38.6	-39.6	22.5	0.00e+00	0	28	0	289406976	50	6160
2026-01-17 16:11:29.13	12.59	15.53	-38.7	-39.8	22.4	0.00e+00	90	28	0	291504128	50	6266
2026-01-17 16:11:30.14	12.49	15.63	-38.7	-39.7	22.4	0.00e+00	0	28	0	293601280	50	6245
2026-01-17 16:11:31.15	12.38	15.72	-38.5	-39.5	22.6	0.00e+00	0	28	0	295698432	50	6061
2026-01-17 16:11:32.16	12.28	15.82	-38.6	-39.6	22.4	0.00e+00	32	28	0	296747008	50	6158
2026-01-17 16:11:33.17	12.18	15.92	-38.8	-39.8	22.3	0.00e+00	0	28	0	298844160	50	6297
2026-01-17 16:11:34.18	12.07	16.02	-38.8	-39.9	22.2	0.00e+00	0	28	0	300941312	50	6320
2026-01-17 16:11:35.19	11.97	16.12	-38.6	-39.6	22.5	0.00e+00	0	28	0	303038464	50	6138
2026-01-17 16:11:36.20	11.86	16.21	-38.6	-39.6	22.5	0.00e+00	92	28	0	305135616	50	6132
2026-01-17 16:11:37.21	11.75	16.31	-38.5	-39.5	22.7	0.00e+00	42	28	0	306184192	50	6084
2026-01-17 16:11:38.22	11.65	16.41	-38.3	-39.3	22.8	0.00e+00	92	28	0	308281344	50	5900
2026-01-17 16:11:39.23	11.54	16.51	-38.3	-39.3	22.8	0.00e+00	0	28	0	310378496	50	5935
2026-01-17 16:11:40.24	11.43	16.61	-38.4	-39.4	22.7	0.00e+00	33	28	0	312475648	50	5979
2026-01-17 16:11:41.25	11.32	16.71	-38.3	-39.3	22.8	0.00e+00	50	28	0	314572800	50	5921
2026-01-17 16:11:42.26	11.21	16.81	-38.5	-39.4	22.7	0.00e+00	2	28	0	316669952	50	6031
2026-01-17 16:11:43.26	11.10	16.91	-38.3	-39.3	22.7	0.00e+00	92	28	0	317718528	50	5939
2026-01-17 16:11:44.27	10.99	17.02	-38.4	-39.4	22.8	0.00e+00	42	28	0	319815680	50	5974
2026-01-17 16:11:45.28	10.88	17.12	-38.4	-39.4	22.7	0.00e+00	92	28	0	321912832	50	6004
2026-01-17 16:11:46.29	10.76	17.22	-38.3	-39.3	22.6	0.00e+00	0	28	0	324009984	50	5912
2026-01-17 16:11:47.30	10.65	17.32	-38.4	-39.4	22.5	0.00e+00	0	28	0	326107136	50	5991
2026-01-17 16:11:48.31	10.53	17.42	-38.3	-39.3	22.7	0.00e+00	0	28	0	327155712	50	5899
2026-01-17 16:11:49.32	10.42	17.53	-38.3	-39.2	22.8	0.00e+00	0	28	0	329252864	50	5895
2026-01-17 16:11:50.33	10.30	17.63	-38.3	-39.2	22.9	0.00e+00	91	28	0	331350016	50	5891
2026-01-17 16:11:51.34	10.18	17.73	-38.3	-39.3	22.8	0.00e+00	38	28	0	333447168	50	5929
2026-01-17 16:11:52.35	10.06	17.84	-38.2	-39.2	22.9	0.00e+00	90	28	0	335544320	50	5861
2026-01-17 16:11:53.36	9.95	17.94	-38.3	-39.3	22.8	0.00e+00	0	28	0	336592896	50	5948
2026-01-17 16:11:54.37	9.82	18.05	-38.4	-39.4	22.7	0.00e+00	2	28	0	338690048	50	6003
2026-01-17 16:11:55.38	9.70	18.15	-38.4	-39.3	22.8	0.00e+00	0	28	0	340787200	50	5954
2026-01-17 16:11:56.39	9.58	18.25	-38.5	-39.5	22.8	0.00e+00	50	28	0	342884352	50	6042
2026-01-17 16:11:57.40	9.46	18.36	-38.4	-39.3	22.8	0.00e+00	28	28	0	344981504	50	5951
2026-01-17 16:11:58.41	9.34	18.47	-38.3	-39.3	22.9	0.00e+00	37	28	0	346030080	50	5939
2026-01-17 16:11:59.42	9.21	18.57	-38.3	-39.3	22.9	0.00e+00	90	28	0	348127232	50	5935
2026-01-17 16:12:00.43	9.09	18.68	-38.3	-39.3	22.7	0.00e+00	43	28	0	350224384	50	5922
2026-01-17 16:12:01.44	8.96	18.78	-38.4	-39.3	22.9	0.00e+00	90	28	0	352321536	50	5959
2026-01-17 16:12:02.45	8.83	18.89	-38.3	-39.3	22.9	0.00e+00	8	28	0	354418688	50	5924
2026-01-17 16:12:03.45	8.71	19.00	-38.4	-39.3	22.9	0.00e+00	0	28	0	355467264	50	5961
2026-01-17 16:12:04.46	8.58	19.10	-38.4	-39.4	22.8	0.00e+00	0	28	0	357564416	50	6007
2026-01-17 16:12:05.47	8.45	19.21	-38.4	-39.4	22.9	0.00e+00	5	28	0	359661568	50	5976
2026-01-17 16:12:06.49	8.32	19.32	-38.3	-39.3	22.8	0.00e+00	92	28	0	361758720	50	5916
2026-01-17 16:12:07.50	8.18	19.43	-38.3	-39.3	22.9	0.00e+00	0	28	0	363855872	50	5916
2026-01-17 16:12:08.50	8.05	19.54	-38.2	-39.2	22.9	0.00e+00	92	28	0	364904448	50	5868
2026-01-17 16:12:09.52	7.92	19.65	-38.3	-39.2	22.9	0.00e+00	0	28	0	367001600	50	5884
2026-01-17 16:12:10.52	7.78	19.76	-38.4	-39.4	22.8	0.00e+00	0	28	0	369098752	50	5981
2026-01-17 16:12:11.53	7.65	19.87	-38.6	-39.6	22.5	0.00e+00	0	28	0	371195904	50	6113
2026-01-17 16:12:12.54	7.51	19.98	-38.6	-39.6	22.7	0.00e+00	31	28	0	373293056	50	6130
2026-01-17 16:12:13.55	7.37	20.09	-38.4	-39.4	22.9	0.00e+00	87	28	0	374341632	50	5980
2026-01-17 16:12:14.56	7.24	20.20	-38.4	-39.3	22.9	0.00e+00	0	28	0	376438784	50	5961
2026-01-17 16:12:15.57	7.10	20.31	-38.3	-39.3	22.8	0.00e+00	92	28	0	378535936	50	5935
2026-01-17 16:12:16.58	6.96	20.42	-38.2	-39.2	23.0	0.00e+00	39	28	0	380633088	50	5852
2026-01-17 16:12:17.59	6.81	20.53	-38.3	-39.2	23.0	0.00e+00	5	28	0	382730240	50	5886
2026-01-17 16:12:18.60	6.67	20.64	-38.2	-39.2	23.0	0.00e+00	48	28	0	384827392	50	5861
2026-01-17 16:12:19.61	6.53	20.75	-38.3	-39.3	23.0	0.00e+00	32	28	0	385875968	50	5909
2026-01-17 16:12:20.62	6.38	20.87	-38.3	-39.3	22.9	0.00e+00	0	28	0	387973120	50	5932
2026-01-17 16:12:21.63	6.24	20.98	-38.4	-39.4	22.8	0.00e+00	52	28	0	390070272	50	6017
2026-01-17 16:12:22.64	6.09	21.09	-38.3	-39.3	22.9	0.00e+00	92	28	0	392167424	50	5935
2026-01-17 16:12:23.65	5.94	21.21	-38.5	-39.5	22.8	0.00e+00	6	28	0	394264576	50	6060
2026-01-17 16:12:24.66	5.79	21.32	-38.5	-39.5	22.7	0.00e+00	92	28	0	395313152	50	6082
2026-01-17 16:12:25.67	5.64	21.43	-38.7	-39.7	22.6	0.00e+00	0	28	0	397410304	50	6240
2026-01-17 16:12:26.68	5.49	21.55	-38.7	-39.7	22.6	0.00e+00	48	28	0	399507456	50	6221
2026-01-17 16:12:27.69	5.34	21.66	-38.7	-39.8	22.6	0.00e+00	56	28	0	401604608	50	6260
2026-01-17 16:12:28.69	5.18	21.78	-38.7	-39.7	22.7	0.00e+00	0	28	0	403701760	50	6192
2026-01-17 16:12:29.70	5.03	21.89	-38.8	-39.9	22.5	0.00e+00	92	28	0	404750336	50	6333
2026-01-17 16:12:30.71	4.87	22.01	-38.7	-39.7	22.6	0.00e+00	7	28	0	406847488	50	6214
2026-01-17 16:12:31.72	4.71	22.12	-38.8	-39.8	22.5	0.00e+00	91	28	0	408944640	50	6316
2026-01-17 16:12:32.73	4.55	22.24	-38.8	-39.8	22.5	0.00e+00	7	28	0	411041792	50	6288
2026-01-17 16:12:33.74	4.39	22.35	-38.8	-39.8	22.5	0.00e+00	38	28	0	413138944	50	6287
2026-01-17 16:12:34.75	4.23	22.47	-38.9	-39.9	22.4	0.00e+00	0	28	0	414187520	50	6337
2026-01-17 16:12:35.76	4.07	22.59	-38.9	-39.9	22.4	0.00e+00	34	28	0	416284672	50	6366
2026-01-17 16:12:36.77	3.91	22.70	-38.9	-39.9	22.3	0.00e+00	50	28	0	418381824	50	6388
2026-01-17 16:12:37.78	3.74	22.82	-38.9	-39.9	22.5	0.00e+00	0	28	0	420478976	50	6352
2026-01-17 16:12:38.79	3.58	22.94	-39.0	-40.0	22.2	0.00e+00	92	28	0	422576128	50	6444
2026-01-17 16:12:39.80	3.41	23.06	-39.1	-40.2	22.2	0.00e+00	43	28	0	423624704	50	6544
2026-01-17 16:12:40.81	3.24	23.18	-39.1	-40.2	22.1	0.00e+00	51	28	0	425721856	50	6561
2026-01-17 16:12:41.82	3.07	23.29	-39.1	-40.2	22.2	0.00e+00	44	28	0	427819008	50	6561
2026-01-17 16:12:42.82	2.90	23.41	-39.0	-40.1	22.3	0.00e+00	40	28	0	429916160	50	6495
2026-01-17 16:12:43.84	2.73	23.53	-38.9	-39.9	22.4	0.00e+00	0	28	0	432013312	50	6386
2026-01-17 16:12:44.84	2.55	23.65	-39.0	-40.1	22.3	0.00e+00	47	28	0	433061888	50	6487
2026-01-17 16:12:45.85	2.38	23.77	-38.8	-39.8	22.5	0.00e+00	91	28	0	435159040	50	6304
2026-01-17 16:12:46.86	2.20	23.89	-38.8	-39.8	22.5	0.00e+00	0	28	0	437256192	50	6277
2026-01-17 16:12:47.87	2.02	24.01	-38.8	-39.8	22.5	0.00e+00	92	28	0	439353344	50	6291
2026-01-17 16:12:48.88	1.84	24.13	-38.9	-40.0	22.3	0.00e+00	42	28	0	441450496	50	6420
2026-01-17 16:12:49.89	1.66	24.25	-38.7	-39.7	22.6	0.00e+00	2	28	0	442499072	50	6191
2026-01-17 16:12:50.90	1.48	24.37	-38.7	-39.7	22.5	0.00e+00	2	28	0	444596224	50	6205
2026-01-17 16:12:51.91	1.30	24.49	-38.6	-39.6	21.9	0.00e+00	0	28	0	446693376	50	6153
2026-01-17 16:12:52.92	1.11	24.61	-38.5	-39.4	22.8	0.00e+00	92	28	0	448790528	50	6025
2026-01-17 16:12:53.93	0.92	24.74	-38.5	-39.5	22.7	0.00e+00	0	28	0	450887680	50	6071
2026-01-17 16:12:54.94	0.74	24.86	-38.6	-39.6	22.7	0.00e+00	92	28	0	451936256	50	6144
2026-01-17 16:12:55.95	0.55	24.98	-38.6	-39.6	22.7	0.00e+00	0	28	0	454033408	50	6138
2026-01-17 16:12:56.96	0.35	25.10	-38.7	-39.7	22.6	0.00e+00	27	28	0	456130560	50	6207
2026-01-17 16:12:57.97	0.16	25.22	-38.7	-39.7	22.6	0.00e+00	40	28	0	458227712	50	6195
2026-01-17 16:12:58.98	359.97	25.35	-38.7	-39.6	22.7	0.00e+00	4	28	0	460324864	50	6166
2026-01-17 16:12:59.99	359.77	25.47	-38.9	-39.9	22.5	0.00e+00	33	28	0	461373440	50	6363
2026-01-17 16:13:00.99	359.58	25.59	-38.9	-39.9	22.5	0.00e+00	48	28	0	463470592	50	6365
2026-01-17 16:13:02.01	359.38	25.72	-38.9	-39.9	22.4	0.00e+00	92	28	0	465567744	50	6377
2026-01-17 16:13:03.01	359.18	25.84	-39.1	-40.2	22.2	0.00e+00	40	28	0	467664896	50	6567
2026-01-17 16:13:04.02	358.98	25.96	-38.9	-39.9	22.4	0.00e+00	90	28	0	469762048	50	6372
2026-01-17 16:13:05.03	358.77	26.08	-39.0	-40.0	22.4	0.00e+00	41	28	0	470810624	50	6448
2026-01-17 16:13:06.04	358.57	26.21	-39.1	-40.2	22.2	0.00e+00	45	28	0	472907776	50	6554
2026-01-17 16:13:07.05	358.36	26.33	-39.2	-40.3	22.3	0.00e+00	0	28	0	475004928	50	6644
2026-01-17 16:13:08.06	358.15	26.46	-39.3	-40.3	22.0	0.00e+00	47	28	0	477102080	50	6676
2026-01-17 16:13:09.07	357.94	26.58	-39.4	-40.5	21.9	0.00e+00	90	28	0	479199232	50	6821
2026-01-17 16:13:10.08	357.73	26.71	-39.5	-40.6	21.9	0.00e+00	0	28	0	481296384	50	6856
2026-01-17 16:13:11.09	357.51	26.83	-39.9	-41.0	21.4	0.00e+00	92	28	0	482344960	52	6455
2026-01-17 16:13:12.10	357.30	26.95	-40.0	-41.2	21.4	0.00e+00	0	28	0	484442112	52	6569
2026-01-17 16:13:13.10	357.08	27.08	-40.0	-41.2	21.3	0.00e+00	0	28	0	486539264	52	6585
2026-01-17 16:13:14.11	356.87	27.20	-40.1	-41.3	21.2	0.00e+00	2	28	0	488636416	52	6632
2026-01-17 16:13:15.12	356.65	27.33	-40.2	-41.3	21.2	0.00e+00	0	28	0	490733568	52	6669
2026-01-17 16:13:16.13	356.42	27.45	-40.4	-41.6	20.8	0.00e+00	91	28	0	491782144	52	6926
2026-01-17 16:13:17.14	356.20	27.58	-40.9	-42.2	20.4	0.00e+00	0	28	0	493879296	54	6564
2026-01-17 16:13:18.15	355.97	27.70	-41.1	-42.4	20.2	0.00e+00	91	28	0	495976448	54	6751
2026-01-17 16:13:19.16	355.75	27.83	-41.2	-42.5	20.1	0.00e+00	0	28	0	498073600	54	6840
2026-01-17 16:13:20.17	355.52	27.95	-40.9	-42.2	20.3	0.00e+00	41	28	0	500170752	54	6586
2026-01-17 16:13:21.18	355.28	28.08	-41.0	-42.4	20.2	0.00e+00	39	28	0	501219328	54	6697
2026-01-17 16:13:22.18	355.05	28.20	-40.9	-42.3	20.3	0.00e+00	0	28	0	503316480	54	6631
2026-01-17 16:13:23.19	354.82	28.33	-40.9	-42.2	20.3	0.00e+00	91	28	0	505413632	54	6579
2026-01-17 16:13:24.20	354.58	28.46	-40.9	-42.2	20.4	0.00e+00	35	28	0	507510784	54	6575
2026-01-17 16:13:25.21	354.34	28.58	-40.8	-42.1	20.4	0.00e+00	91	28	0	509607936	54	6506
2026-01-17 16:13:26.22	354.10	28.71	-41.1	-42.5	20.2	0.00e+00	40	28	0	510656512	54	6781
2026-01-17 16:13:27.23	353.86	28.83	-41.1	-42.5	20.0	0.00e+00	92	28	0	512753664	54	6811
2026-01-17 16:13:28.24	353.62	28.96	-41.2	-42.5	20.1	0.00e+00	41	28	0	514850816	54	6837
2026-01-17 16:13:29.25	353.37	29.08	-41.1	-42.4	20.2	0.00e+00	0	28	0	516947968	54	6734
2026-01-17 16:13:30.26	353.12	29.21	-40.9	-42.2	20.3	0.00e+00	0	28	0	519045120	54	6584
2026-01-17 16:13:31.27	352.87	29.33	-40.9	-42.2	20.4	0.00e+00	0	28	0	520093696	54	6605
2026-01-17 16:13:32.28	352.62	29.46	-40.9	-42.2	20.3	0.00e+00	90	28	0	522190848	54	6613
2026-01-17 16:13:33.29	352.36	29.58	-40.9	-42.2	20.1	0.00e+00	46	28	0	524288000	54	6596
2026-01-17 16:13:34.30	352.11	29.71	-41.0	-42.3	20.3	0.00e+00	92	28	0	526385152	54	6671
2026-01-17 16:13:35.31	351.85	29.83	-41.0	-42.4	20.2	0.00e+00	0	28	0	528482304	54	6724
2026-01-17 16:13:36.32	351.59	29.96	-41.0	-42.4	20.1	0.00e+00	0	28	0	529530880	54	6714
2026-01-17 16:13:37.33	351.33	30.08	-41.2	-42.6	19.9	0.00e+00	2	28	0	531628032	54	6920
2026-01-17 16:13:38.34	351.06	30.21	-41.4	-42.9	19.7	0.00e+00	0	28	0	533725184	54	7118
2026-01-17 16:13:39.35	350.80	30.33	-41.6	-43.1	19.6	0.00e+00	92	28	0	535822336	54	7299
2026-01-17 16:13:40.36	350.53	30.46	-41.7	-43.2	19.5	0.00e+00	34	28	0	537919488	54	7393
2026-01-17 16:13:41.37	350.26	30.58	-41.9	-43.4	19.4	0.00e+00	92	28	0	538968064	56	6707
2026-01-17 16:13:42.38	349.98	30.71	-41.8	-43.3	19.6	0.00e+00	0	28	0	541065216	56	6630
2026-01-17 16:13:43.38	349.71	30.83	-41.7	-43.2	19.6	0.00e+00	45	28	0	543162368	56	6552
2026-01-17 16:13:44.40	349.43	30.95	-41.5	-43.0	19.7	0.00e+00	40	28	0	545259520	56	6399
2026-01-17 16:13:45.41	349.15	31.08	-41.4	-42.8	19.8	0.00e+00	38	28	0	547356672	56	6305
2026-01-17 16:13:46.41	348.87	31.20	-41.3	-42.6	20.1	0.00e+00	26	28	0	549453824	56	6150
2026-01-17 16:13:47.42	348.59	31.32	-41.1	-42.5	20.1	0.00e+00	2	28	0	550502400	56	6035
2026-01-17 16:13:48.43	348.30	31.44	-41.1	-42.4	20.3	0.00e+00	91	28	0	552599552	56	6002
2026-01-17 16:13:49.44	348.02	31.57	-40.6	-41.8	20.8	0.00e+00	42	28	0	554696704	54	6270
2026-01-17 16:13:50.45	347.73	31.69	-40.4	-41.6	21.0	0.00e+00	18	28	0	556793856	54	6135
2026-01-17 16:13:51.46	347.43	31.81	-40.4	-41.6	21.0	0.00e+00	42	28	0	558891008	54	6150
2026-01-17 16:13:52.47	347.14	31.93	-40.4	-41.7	21.0	0.00e+00	5	28	0	559939584	54	6176
2026-01-17 16:13:53.48	346.84	32.05	-40.6	-41.8	20.9	0.00e+00	0	28	0	562036736	54	6289
2026-01-17 16:13:54.49	346.54	32.17	-40.6	-41.8	20.7	0.00e+00	0	28	0	564133888	54	6312
2026-01-17 16:13:55.50	346.24	32.29	-40.6	-41.9	20.7	0.00e+00	91	28	0	566231040	54	6338
2026-01-17 16:13:56.51	345.94	32.41	-40.5	-41.7	20.9	0.00e+00	0	28	0	568328192	54	6211
2026-01-17 16:13:57.52	345.63	32.53	-40.6	-41.8	20.7	0.00e+00	92	28	0	569376768	54	6314
2026-01-17 16:13:58.53	345.32	32.65	-40.8	-42.1	20.6	0.00e+00	6	28	0	571473920	54	6516
2026-01-17 16:13:59.54	345.01	32.77	-41.0	-42.4	20.3	0.00e+00	5	28	0	573571072	54	6698
2026-01-17 16:14:00.55	344.70	32.89	-41.3	-42.6	20.0	0.00e+00	24	28	0	575668224	54	6927
2026-01-17 16:14:01.56	344.39	33.00	-41.3	-42.7	19.9	0.00e+00	5	28	0	577765376	54	6969
2026-01-17 16:14:02.57	344.07	33.12	-41.4	-42.8	19.8	0.00e+00	25	28	0	578813952	54	7034
2026-01-17 16:14:03.57	343.75	33.23	-41.3	-42.7	19.9	0.00e+00	36	28	0	580911104	54	6980
2026-01-17 16:14:04.58	343.43	33.35	-41.6	-43.1	19.6	0.00e+00	90	28	0	583008256	54	7282
2026-01-17 16:14:05.60	343.10	33.47	-41.6	-43.0	19.7	0.00e+00	39	28	0	585105408	54	7217
2026-01-17 16:14:06.61	342.78	33.58	-41.7	-43.2	19.6	0.00e+00	39	28	0	587202560	54	7345
2026-01-17 16:14:07.62	342.45	33.69	-41.7	-43.1	19.5	0.00e+00	46	28	0	588251136	54	7327
2026-01-17 16:14:08.62	342.12	33.81	-41.6	-43.0	19.6	0.00e+00	45	28	0	590348288	54	7223
2026-01-17 16:14:09.64	341.78	33.92	-41.7	-43.2	19.5	0.00e+00	0	28	0	592445440	54	7359
2026-01-17 16:14:10.65	341.45	34.03	-42.1	-43.6	19.2	0.00e+00	46	28	0	594542592	56	6915
2026-01-17 16:14:11.66	341.11	34.14	-42.3	-43.9	18.9	0.00e+00	91	28	0	596639744	56	7104
2026-01-17 16:14:12.66	340.77	34.25	-42.2	-43.7	19.1	0.00e+00	47	28	0	597688320	56	6991
2026-01-17 16:14:13.67	340.43	34.36	-42.3	-44.0	18.6	0.00e+00	92	28	0	599785472	56	7179
2026-01-17 16:14:14.68	340.09	34.47	-42.5	-44.2	18.5	0.00e+00	6	28	0	601882624	56	7380
2026-01-17 16:14:15.69	339.74	34.58	-42.9	-44.7	18.2	0.00e+00	0	28	0	603979776	58	6935
2026-01-17 16:14:16.70	339.39	34.68	-42.9	-44.7	18.1	0.00e+00	5	28	0	606076928	58	7003
2026-01-17 16:14:17.71	339.04	34.79	-43.0	-44.9	17.8	0.00e+00	7	28	0	607125504	58	7120
2026-01-17 16:14:18.72	338.68	34.89	-43.0	-44.9	17.9	0.00e+00	92	28	0	609222656	58	7110
2026-01-17 16:14:19.73	338.33	35.00	-42.8	-44.5	18.2	0.00e+00	0	28	0	611319808	58	6840
2026-01-17 16:14:20.74	337.97	35.10	-42.5	-44.2	18.7	0.00e+00	92	28	0	613416960	58	6558
2026-01-17 16:14:21.75	337.61	35.20	-42.4	-44.0	18.8	0.00e+00	0	28	0	615514112	58	6427
2026-01-17 16:14:22.76	337.24	35.31	-41.9	-43.5	19.3	0.00e+00	0	28	0	617611264	58	6038
2026-01-17 16:14:23.77	336.88	35.41	-41.4	-42.8	20.0	0.00e+00	37	28	0	618659840	56	6266
2026-01-17 16:14:24.78	336.51	35.51	-41.4	-42.8	20.0	0.00e+00	0	28	0	620756992	56	6299
2026-01-17 16:14:25.79	336.14	35.60	-41.4	-42.8	19.9	0.00e+00	92	28	0	622854144	56	6258
2026-01-17 16:14:26.80	335.77	35.70	-41.5	-42.9	19.9	0.00e+00	41	28	0	624951296	56	6390
2026-01-17 16:14:27.81	335.39	35.80	-41.7	-43.2	19.6	0.00e+00	92	28	0	627048448	56	6540
2026-01-17 16:14:28.82	335.02	35.89	-41.3	-42.7	20.0	0.00e+00	41	28	0	628097024	56	6206
2026-01-17 16:14:29.82	334.64	35.98	-41.3	-42.7	19.9	0.00e+00	78	28	0	630194176	56	6177
2026-01-17 16:14:30.83	334.26	36.08	-41.3	-42.7	20.0	0.00e+00	46	28	0	632291328	56	6199
2026-01-17 16:14:31.84	333.87	36.17	-41.3	-42.7	20.1	0.00e+00	46	28	0	634388480	56	6221
2026-01-17 16:14:32.86	333.49	36.26	-41.2	-42.5	20.2	0.00e+00	68	28	0	636485632	56	6091
2026-01-17 16:14:33.87	333.10	36.35	-40.5	-41.8	20.9	0.00e+00	0	28	0	637534208	54	6275
2026-01-17 16:14:34.88	332.71	36.44	-40.4	-41.7	21.0	0.00e+00	92	28	0	639631360	54	6176
2026-01-17 16:14:35.89	332.32	36.52	-39.9	-41.0	21.6	0.00e+00	2	28	0	641728512	54	5740
2026-01-17 16:14:36.90	331.92	36.61	-39.7	-40.8	21.8	0.00e+00	92	28	0	643825664	52	6294
2026-01-17 16:14:37.91	331.53	36.69	-39.6	-40.7	21.8	0.00e+00	0	28	0	645922816	52	6229
2026-01-17 16:14:38.92	331.13	36.77	-39.5	-40.6	22.0	0.00e+00	0	28	0	646971392	52	6133
2026-01-17 16:14:39.93	330.73	36.86	-39.3	-40.3	22.2	0.00e+00	0	28	0	649068544	52	5951
2026-01-17 16:14:40.94	330.32	36.94	-38.9	-40.0	22.6	0.00e+00	0	28	0	651165696	52	5697
2026-01-17 16:14:41.95	329.92	37.01	-38.9	-39.9	22.7	0.00e+00	92	28	0	653262848	52	5655
2026-01-17 16:14:42.95	329.52	37.09	-38.6	-39.5	22.9	0.00e+00	0	28	0	655360000	50	6086
2026-01-17 16:14:43.96	329.11	37.16	-38.4	-39.3	23.1	0.00e+00	92	28	0	656408576	50	5931
2026-01-17 16:14:44.97	328.70	37.24	-38.3	-39.3	23.1	0.00e+00	0	28	0	658505728	50	5916
2026-01-17 16:14:45.98	328.29	37.31	-38.0	-38.9	23.4	0.00e+00	40	28	0	660602880	50	5683
2026-01-17 16:14:46.99	327.87	37.38	-38.1	-39.0	23.4	0.00e+00	41	28	0	662700032	50	5735
2026-01-17 16:14:48.01	327.46	37.45	-38.2	-39.1	23.4	0.00e+00	40	28	0	664797184	50	5800
2026-01-17 16:14:49.02	327.04	37.52	-38.0	-38.9	23.5	0.00e+00	51	28	0	665845760	50	5664
2026-01-17 16:14:50.02	326.62	37.58	-38.0	-38.9	23.6	0.00e+00	40	28	0	667942912	50	5687
2026-01-17 16:14:51.03	326.20	37.65	-37.8	-38.7	23.7	0.00e+00	92	28	0	670040064	50	5527
2026-01-17 16:14:52.04	325.78	37.71	-38.1	-39.0	23.4	0.00e+00	41	28	0	672137216	50	5751
2026-01-17 16:14:53.05	325.36	37.77	-38.2	-39.1	23.2	0.00e+00	62	28	0	674234368	50	5815
2026-01-17 16:14:54.06	324.93	37.83	-38.2	-39.1	23.4	0.00e+00	40	28	0	675282944	50	5804
2026-01-17 16:14:55.07	324.50	37.89	-38.4	-39.3	23.2	0.00e+00	42	28	0	677380096	50	5939
2026-01-17 16:14:56.08	324.08	37.95	-37.6	-38.5	23.9	0.00e+00	35	28	0	679477248	48	6039
2026-01-17 16:14:57.08	323.65	38.00	-37.6	-38.4	24.0	0.00e+00	2	28	0	681574400	48	6023
2026-01-17 16:14:58.09	323.22	38.05	-37.7	-38.6	23.8	0.00e+00	91	28	0	683671552	48	6134
2026-01-17 16:14:59.10	322.79	38.10	-37.5	-38.3	24.0	0.00e+00	0	28	0	685768704	48	5962
2026-01-17 16:15:00.11	322.35	38.15	-37.1	-37.9	24.2	0.00e+00	35	28	0	686817280	48	5675
2026-01-17 16:15:01.12	321.92	38.20	-37.2	-38.0	24.2	0.00e+00	0	28	0	688914432	48	5729
2026-01-17 16:15:02.13	321.48	38.24	-37.3	-38.2	24.1	0.00e+00	0	28	0	691011584	48	5865
2026-01-17 16:15:03.14	321.04	38.29	-37.4	-38.2	24.1	0.00e+00	0	28	0	693108736	48	5883
2026-01-17 16:15:04.15	320.60	38.33	-37.5	-38.3	24.0	0.00e+00	35	28	0	695205888	48	5957
2026-01-17 16:15:05.16	320.16	38.37	-37.3	-38.2	24.1	0.00e+00	91	28	0	696254464	48	5844
2026-01-17 16:15:06.17	319.72	38.41	-37.4	-38.2	24.1	0.00e+00	0	28	0	698351616	48	5893
2026-01-17 16:15:07.18	319.28	38.44	-37.6	-38.5	23.9	0.00e+00	92	28	0	700448768	48	6034
2026-01-17 16:15:08.19	318.84	38.47	-37.3	-38.2	24.3	0.00e+00	0	28	0	702545920	48	5830
2026-01-17 16:15:09.20	318.39	38.51	-37.1	-38.0	24.4	0.00e+00	40	28	0	704643072	48	5700
2026-01-17 16:15:10.21	317.95	38.54	-36.9	-37.7	24.6	0.00e+00	40	28	0	705691648	48	5549
2026-01-17 16:15:11.22	317.50	38.57	-36.7	-37.5	24.8	0.00e+00	40	28	0	707788800	46	6039
2026-01-17 16:15:12.23	317.05	38.59	-36.9	-37.7	24.5	0.00e+00	42	28	0	709885952	46	6219
2026-01-17 16:15:13.24	316.61	38.62	-37.0	-37.8	24.6	0.00e+00	40	28	0	711983104	46	6299
2026-01-17 16:15:14.25	316.16	38.64	-36.9	-37.8	24.5	0.00e+00	92	28	0	714080256	46	6269
2026-01-17 16:15:15.26	315.71	38.66	-37.1	-37.9	24.4	0.00e+00	0	28	0	715128832	46	6382
2026-01-17 16:15:16.27	315.26	38.68	-37.1	-38.0	24.4	0.00e+00	2	28	0	717225984	46	6411
2026-01-17 16:15:17.27	314.82	38.69	-37.3	-38.1	24.3	0.00e+00	40	28	0	719323136	46	6539
2026-01-17 16:15:18.28	314.37	38.71	-37.4	-38.3	24.1	0.00e+00	39	28	0	721420288	46	6645
2026-01-17 16:15:19.30	313.91	38.72	-37.5	-38.4	24.0	0.00e+00	0	28	0	723517440	46	6720
2026-01-17 16:15:20.31	313.46	38.73	-37.7	-38.6	23.8	0.00e+00	0	28	0	724566016	46	6855
2026-01-17 16:15:21.32	313.01	38.74	-37.7	-38.6	23.7	0.00e+00	92	28	0	726663168	48	6137
2026-01-17 16:15:22.32	312.56	38.74	-37.9	-38.8	23.7	0.00e+00	0	28	0	728760320	48	6264
2026-01-17 16:15:23.33	312.11	38.75	-38.1	-39.0	23.5	0.00e+00	2	28	0	730857472	48	6461
2026-01-17 16:15:24.34	311.66	38.75	-38.2	-39.2	23.3	0.00e+00	39	28	0	732954624	48	6557
2026-01-17 16:15:25.35	311.21	38.75	-38.4	-39.3	23.1	0.00e+00	0	28	0	734003200	48	6672
2026-01-17 16:15:26.36	310.76	38.75	-38.5	-39.5	23.1	0.00e+00	0	28	0	736100352	48	6821
2026-01-17 16:15:27.37	310.31	38.74	-38.7	-39.7	22.9	0.00e+00	40	28	0	738197504	48	6929
2026-01-17 16:15:28.38	309.86	38.74	-39.0	-40.0	22.6	0.00e+00	92	28	0	740294656	50	6430
2026-01-17 16:15:29.39	309.40	38.73	-39.3	-40.4	22.3	0.00e+00	34	28	0	742391808	50	6735
2026-01-17 16:15:30.40	308.95	38.72	-39.6	-40.7	22.0	0.00e+00	92	28	0	743440384	50	6987
2026-01-17 16:15:31.41	308.50	38.71	-39.6	-40.7	21.9	0.00e+00	0	28	0	745537536	50	6989
2026-01-17 16:15:32.42	308.05	38.69	-39.5	-40.5	22.1	0.00e+00	47	28	0	747634688	50	6819
2026-01-17 16:15:33.42	307.61	38.68	-39.2	-40.3	22.4	0.00e+00	36	28	0	749731840	50	6631
2026-01-17 16:15:34.43	307.16	38.66	-39.3	-40.4	22.3	0.00e+00	33	28	0	751828992	50	6698
2026-01-17 16:15:35.44	306.71	38.64	-39.1	-40.1	22.4	0.00e+00	35	28	0	752877568	50	6491
2026-01-17 16:15:36.45	306.26	38.62	-39.4	-40.4	22.1	0.00e+00	46	28	0	754974720	50	6733
2026-01-17 16:15:37.46	305.81	38.59	-39.5	-40.6	22.0	0.00e+00	92	28	0	757071872	50	6896
2026-01-17 16:15:38.47	305.37	38.57	-39.4	-40.4	22.2	0.00e+00	0	28	0	759169024	50	6730
2026-01-17 16:15:39.48	304.92	38.54	-39.6	-40.6	22.0	0.00e+00	0	28	0	761266176	50	6907
2026-01-17 16:15:40.49	304.48	38.51	-39.7	-40.8	21.9	0.00e+00	42	28	0	762314752	50	7022
2026-01-17 16:15:41.50	304.03	38.48	-40.0	-41.1	21.5	0.00e+00	5	28	0	764411904	52	6499
2026-01-17 16:15:42.51	303.59	38.44	-40.2	-41.4	21.4	0.00e+00	2	28	0	766509056	52	6733
2026-01-17 16:15:43.52	303.15	38.41	-40.1	-41.3	21.4	0.00e+00	5	28	0	768606208	52	6635
2026-01-17 16:15:44.53	302.70	38.37	-40.3	-41.4	21.4	0.00e+00	90	28	0	770703360	52	6765
2026-01-17 16:15:45.54	302.26	38.33	-40.3	-41.4	21.3	0.00e+00	0	28	0	771751936	52	6764
2026-01-17 16:15:46.55	301.82	38.29	-40.5	-41.6	21.2	0.00e+00	0	28	0	773849088	52	6900
2026-01-17 16:15:47.55	301.39	38.25	-40.5	-41.7	21.1	0.00e+00	37	28	0	775946240	52	6939
2026-01-17 16:15:48.56	300.95	38.20	-40.3	-41.5	21.3	0.00e+00	0	28	0	778043392	52	6777
2026-01-17 16:15:49.57	300.52	38.16	-40.4	-41.6	21.2	0.00e+00	0	28	0	780140544	52	6858
2026-01-17 16:15:50.58	300.08	38.11	-40.6	-41.8	20.9	0.00e+00	0	28	0	782237696	52	7019
2026-01-17 16:15:51.59	299.65	38.06	-40.8	-42.0	20.7	0.00e+00	90	28	0	783286272	52	7204
2026-01-17 16:15:52.60	299.22	38.00	-41.0	-42.2	20.6	0.00e+00	46	28	0	785383424	54	6596
2026-01-17 16:15:53.61	298.79	37.95	-41.2	-42.6	20.1	0.00e+00	91	28	0	787480576	54	6875
2026-01-17 16:15:54.62	298.36	37.89	-41.4	-42.7	20.0	0.00e+00	39	28	0	789577728	54	6981
2026-01-17 16:15:55.63	297.93	37.84	-41.0	-42.3	20.4	0.00e+00	50	28	0	791674880	54	6654
2026-01-17 16:15:56.64	297.50	37.78	-40.9	-42.1	20.6	0.00e+00	39	28	0	792723456	54	6519
2026-01-17 16:15:57.65	297.08	37.72	-40.7	-41.9	20.9	0.00e+00	6	28	0	794820608	54	6367
2026-01-17 16:15:58.66	296.66	37.65	-40.5	-41.7	21.1	0.00e+00	91	28	0	796917760	54	6210
2026-01-17 16:15:59.66	296.24	37.59	-40.5	-41.7	21.1	0.00e+00	53	28	0	799014912	54	6201
2026-01-17 16:16:00.67	295.82	37.52	-40.4	-41.6	21.1	0.00e+00	92	28	0	801112064	54	6142
2026-01-17 16:16:01.68	295.40	37.46	-40.3	-41.5	21.2	0.00e+00	8	28	0	802160640	54	6040
2026-01-17 16:16:02.69	294.99	37.39	-40.3	-41.5	21.2	0.00e+00	6	28	0	804257792	54	6070
2026-01-17 16:16:03.70	294.57	37.32	-39.9	-40.9	21.8	0.00e+00	0	28	0	806354944	54	5690
2026-01-17 16:16:04.71	294.16	37.24	-39.8	-40.9	21.3	0.00e+00	7	28	0	808452096	54	5661
2026-01-17 16:16:05.72	293.75	37.17	-39.8	-40.9	21.8	0.00e+00	0	28	0	810549248	52	6387
2026-01-17 16:16:06.73	293.34	37.10	-39.9	-41.0	21.9	0.00e+00	8	28	0	811597824	52	6426
2026-01-17 16:16:07.74	292.93	37.02	-39.1	-40.1	22.5	0.00e+00	92	28	0	813694976	52	5824
2026-01-17 16:16:08.75	292.53	36.94	-38.8	-39.8	22.7	0.00e+00	0	28	0	815792128	52	5615
2026-01-17 16:16:09.76	292.12	36.86	-38.7	-39.7	22.8	0.00e+00	92	28	0	817889280	50	6194
2026-01-17 16:16:10.77	291.72	36.78	-38.5	-39.4	23.1	0.00e+00	0	28	0	819986432	50	6008
2026-01-17 16:16:11.78	291.32	36.70	-38.1	-39.1	23.4	0.00e+00	0	28	0	821035008	50	5768
2026-01-17 16:16:12.79	290.93	36.61	-38.0	-38.8	23.7	0.00e+00	55	28	0	823132160	50	5626
2026-01-17 16:16:13.80	290.53	36.53	-37.9	-38.8	23.7	0.00e+00	42	28	0	825229312	50	5610
2026-01-17 16:16:14.81	290.14	36.44	-37.9	-38.7	23.7	0.00e+00	92	28	0	827326464	50	5560
2026-01-17 16:16:15.82	289.75	36.35	-38.0	-39.0	23.5	0.00e+00	38	28	0	829423616	50	5701
2026-01-17 16:16:16.83	289.36	36.27	-37.9	-38.8	23.7	0.00e+00	92	28	0	830472192	50	5577
2026-01-17 16:16:17.84	288.97	36.17	-37.8	-38.6	23.8	0.00e+00	42	28	0	832569344	48	6167
2026-01-17 16:16:18.85	288.59	36.08	-37.5	-38.4	23.9	0.00e+00	41	28	0	834666496	48	5982
2026-01-17 16:16:19.86	288.21	35.99	-37.4	-38.3	24.0	0.00e+00	43	28	0	836763648	48	5915
2026-01-17 16:16:20.87	287.83	35.90	-37.1	-37.9	24.2	0.00e+00	2	28	0	838860800	48	5691
2026-01-17 16:16:21.88	287.45	35.80	-37.4	-38.3	24.0	0.00e+00	88	28	0	839909376	48	5917
2026-01-17 16:16:22.89	287.07	35.71	-37.8	-38.7	23.7	0.00e+00	2	28	0	842006528	48	6227
2026-01-17 16:16:23.90	286.70	35.61	-38.1	-39.0	23.4	0.00e+00	92	28	0	844103680	48	6447
2026-01-17 16:16:24.91	286.33	35.51	-38.2	-39.1	23.4	0.00e+00	0	28	0	846200832	48	6504
2026-01-17 16:16:25.91	285.96	35.41	-38.3	-39.3	23.2	0.00e+00	0	28	0	848297984	48	6616
2026-01-17 16:16:26.92	285.60	35.31	-38.6	-39.5	22.9	0.00e+00	0	28	0	850395136	48	6830
2026-01-17 16:16:27.93	285.23	35.21	-38.5	-39.4	23.0	0.00e+00	0	28	0	851443712	48	6767
2026-01-17 16:16:28.94	284.87	35.11	-38.6	-39.5	22.9	0.00e+00	2	28	0	853540864	48	6826
2026-01-17 16:16:29.95	284.51	35.00	-38.7	-39.7	22.8	0.00e+00	34	28	0	855638016	48	6988
2026-01-17 16:16:30.96	284.15	34.90	-39.1	-40.1	22.5	0.00e+00	92	28	0	857735168	50	6529
2026-01-17 16:16:31.97	283.80	34.79	-39.1	-40.1	22.5	0.00e+00	0	28	0	859832320	50	6482
2026-01-17 16:16:32.98	283.45	34.69	-39.0	-40.0	22.5	0.00e+00	90	28	0	860880896	50	6456
2026-01-17 16:16:33.98	283.10	34.58	-39.0	-40.0	22.6	0.00e+00	33	28	0	862978048	50	6445
2026-01-17 16:16:34.99	282.75	34.47	-39.2	-40.2	22.4	0.00e+00	0	28	0	865075200	50	6609
2026-01-17 16:16:36.00	282.40	34.37	-39.1	-40.1	22.5	0.00e+00	32	28	0	867172352	50	6518
2026-01-17 16:16:37.01	282.06	34.26	-39.2	-40.2	22.4	0.00e+00	47	28	0	869269504	50	6584
2026-01-17 16:16:38.02	281.72	34.15	-39.1	-40.0	22.5	0.00e+00	72	28	0	870318080	50	6463
2026-01-17 16:16:39.03	281.38	34.03	-39.1	-40.1	22.5	0.00e+00	39	28	0	872415232	50	6537
2026-01-17 16:16:40.04	281.04	33.92	-39.2	-40.2	22.4	0.00e+00	92	28	0	874512384	50	6606
2026-01-17 16:16:41.05	280.71	33.81	-39.4	-40.4	22.2	0.00e+00	47	28	0	876609536	50	6752
2026-01-17 16:16:42.05	280.38	33.70	-39.4	-40.5	22.1	0.00e+00	2	28	0	878706688	50	6792
2026-01-17 16:16:43.06	280.05	33.58	-39.7	-40.8	21.9	0.00e+00	0	28	0	879755264	50	7008
2026-01-17 16:16:44.08	279.72	33.47	-39.8	-40.9	21.7	0.00e+00	44	28	0	881852416	52	6376
2026-01-17 16:16:45.08	279.40	33.35	-39.7	-40.8	21.8	0.00e+00	24	28	0	883949568	52	6297
2026-01-17 16:16:46.09	279.08	33.24	-39.7	-40.7	21.9	0.00e+00	0	28	0	886046720	52	6245
2026-01-17 16:16:47.10	278.76	33.12	-39.6	-40.7	22.0	0.00e+00	90	28	0	888143872	52	6212
2026-01-17 16:16:48.11	278.44	33.01	-39.5	-40.6	22.0	0.00e+00	0	28	0	889192448	52	6121
2026-01-17 16:16:49.12	278.12	32.89	-39.4	-40.4	22.1	0.00e+00	92	28	0	891289600	52	6020
2026-01-17 16:16:50.13	277.81	32.77	-39.4	-40.5	22.2	0.00e+00	0	28	0	893386752	52	6056
2026-01-17 16:16:51.14	277.50	32.65	-39.7	-40.8	21.9	0.00e+00	2	28	0	895483904	52	6254
2026-01-17 16:16:52.15	277.19	32.53	-39.7	-40.8	21.8	0.00e+00	0	28	0	897581056	52	6247
2026-01-17 16:16:53.16	276.88	32.41	-39.7	-40.8	21.9	0.00e+00	39	28	0	898629632	52	6289
2026-01-17 16:16:54.17	276.58	32.29	-40.0	-41.1	21.6	0.00e+00	92	28	0	900726784	52	6535
2026-01-17 16:16:55.18	276.27	32.17	-40.3	-41.5	21.3	0.00e+00	0	28	0	902823936	52	6774
2026-01-17 16:16:56.19	275.97	32.05	-40.5	-41.7	21.1	0.00e+00	90	28	0	904921088	52	6957
2026-01-17 16:16:57.20	275.68	31.93	-40.5	-41.7	21.0	0.00e+00	40	28	0	907018240	52	6962
2026-01-17 16:16:58.21	275.38	31.81	-40.2	-41.4	21.4	0.00e+00	0	28	0	908066816	52	6742
2026-01-17 16:16:59.22	275.09	31.69	-40.3	-41.5	21.2	0.00e+00	0	28	0	910163968	52	6815
2026-01-17 16:17:00.23	274.80	31.57	-40.3	-41.5	21.2	0.00e+00	49	28	0	912261120	52	6777
2026-01-17 16:17:01.24	274.51	31.44	-40.5	-41.7	21.0	0.00e+00	33	28	0	914358272	52	6981
2026-01-17 16:17:02.24	274.22	31.32	-40.7	-41.9	20.9	0.00e+00	48	28	0	916455424	52	7139
2026-01-17 16:17:03.26	273.94	31.20	-40.7	-41.9	20.8	0.00e+00	92	28	0	918552576	52	7166
2026-01-17 16:17:04.26	273.66	31.07	-40.6	-41.8	20.8	0.00e+00	0	28	0	919601152	54	6310
2026-01-17 16:17:05.27	273.38	30.95	-40.6	-41.8	20.9	0.00e+00	92	28	0	921698304	54	6312
2026-01-17 16:17:06.28	273.10	30.83	-40.4	-41.6	20.9	0.00e+00	2	28	0	923795456	54	6171
2026-01-17 16:17:07.29	272.82	30.70	-40.5	-41.7	21.0	0.00e+00	0	28	0	925892608	54	6179
2026-01-17 16:17:08.30	272.55	30.58	-40.2	-41.4	21.3	0.00e+00	0	28	0	927989760	54	6015
2026-01-17 16:17:09.31	272.28	30.45	-40.3	-41.5	21.3	0.00e+00	0	28	0	929038336	54	6049
2026-01-17 16:17:10.32	272.01	30.33	-40.3	-41.4	21.2	0.00e+00	92	28	0	931135488	54	6031
2026-01-17 16:17:11.33	271.74	30.20	-40.3	-41.4	21.3	0.00e+00	2	28	0	933232640	54	6018
2026-01-17 16:17:12.34	271.47	30.08	-40.0	-41.1	21.5	0.00e+00	69	28	0	935329792	54	5825
2026-01-17 16:17:13.35	271.21	29.95	-39.7	-40.7	21.9	0.00e+00	37	28	0	937426944	52	6230
2026-01-17 16:17:14.36	270.95	29.83	-39.5	-40.6	22.0	0.00e+00	2	28	0	938475520	52	6120
2026-01-17 16:17:15.37	270.69	29.70	-39.4	-40.5	22.1	0.00e+00	0	28	0	940572672	52	6062
2026-01-17 16:17:16.37	270.43	29.58	-39.5	-40.5	22.1	0.00e+00	35	28	0	942669824	52	6083
2026-01-17 16:17:17.38	270.18	29.45	-39.5	-40.5	22.1	0.00e+00	90	28	0	944766976	52	6090
2026-01-17 16:17:18.39	269.93	29.33	-39.5	-40.6	22.0	0.00e+00	0	28	0	946864128	52	6107
2026-01-17 16:17:19.40	269.68	29.20	-39.3	-40.4	22.2	0.00e+00	90	28	0	947912704	52	5978
2026-01-17 16:17:20.41	269.43	29.08	-39.4	-40.4	22.2	0.00e+00	38	28	0	950009856	52	6018
2026-01-17 16:17:21.41	269.18	28.95	-39.1	-40.1	22.5	0.00e+00	46	28	0	952107008	52	5797
2026-01-17 16:17:22.42	268.94	28.83	-39.2	-40.2	22.4	0.00e+00	0	28	0	954204160	52	5841
2026-01-17 16:17:23.43	268.69	28.70	-39.0	-40.0	22.6	0.00e+00	0	28	0	956301312	52	5727
2026-01-17 16:17:24.44	268.45	28.57	-39.1	-40.1	22.4	0.00e+00	92	28	0	957349888	52	5788
2026-01-17 16:17:25.45	268.21	28.45	-38.7	-39.7	23.0	0.00e+00	5	28	0	959447040	50	6177
2026-01-17 16:17:26.46	267.97	28.32	-38.7	-39.7	22.8	0.00e+00	92	28	0	961544192	50	6200
2026-01-17 16:17:27.47	267.74	28.20	-38.5	-39.5	22.9	0.00e+00	6	28	0	963641344	50	6050
2026-01-17 16:17:28.48	267.50	28.07	-38.6	-39.5	23.0	0.00e+00	69	28	0	965738496	50	6084
2026-01-17 16:17:29.49	267.27	27.94	-38.5	-39.4	23.0	0.00e+00	6	28	0	966787072	50	6010
2026-01-17 16:17:30.50	267.04	27.82	-38.5	-39.4	23.1	0.00e+00	7	28	0	968884224	50	6006
2026-01-17 16:17:31.51	266.81	27.69	-38.4	-39.4	23.0	0.00e+00	0	28	0	970981376	50	5979
2026-01-17 16:17:32.52	266.59	27.57	-38.3	-39.2	23.2	0.00e+00	0	28	0	973078528	50	5888
2026-01-17 16:17:33.53	266.36	27.44	-38.1	-39.1	23.3	0.00e+00	92	28	0	975175680	50	5772
2026-01-17 16:17:34.54	266.14	27.32	-38.2	-39.1	23.3	0.00e+00	7	28	0	976224256	50	5815
2026-01-17 16:17:35.54	265.92	27.19	-38.2	-39.1	23.3	0.00e+00	92	28	0	978321408	50	5821
2026-01-17 16:17:36.55	265.70	27.07	-38.2	-39.1	23.3	0.00e+00	0	28	0	980418560	50	5813
2026-01-17 16:17:37.56	265.48	26.94	-38.1	-39.1	23.4	0.00e+00	5	28	0	982515712	50	5773
2026-01-17 16:17:38.57	265.26	26.82	-38.0	-38.9	23.4	0.00e+00	0	28	0	984612864	50	5692
2026-01-17 16:17:39.58	265.05	26.69	-37.8	-38.7	23.7	0.00e+00	0	28	0	985661440	50	5557
2026-01-17 16:17:40.59	264.84	26.57	-38.0	-38.9	23.5	0.00e+00	92	28	0	987758592	50	5649
2026-01-17 16:17:41.60	264.63	26.44	-38.1	-39.0	23.4	0.00e+00	49	28	0	989855744	50	5704
2026-01-17 16:17:42.61	264.42	26.32	-37.9	-38.8	23.5	0.00e+00	92	28	0	991952896	50	5628
2026-01-17 16:17:43.62	264.21	26.19	-38.0	-38.9	23.0	0.00e+00	37	28	0	994050048	50	5654
2026-01-17 16:17:44.63	264.00	26.07	-38.1	-39.1	23.4	0.00e+00	50	28	0	995098624	50	5763
2026-01-17 16:17:45.64	263.80	25.94	-38.0	-39.0	23.4	0.00e+00	7	28	0	997195776	50	5698
2026-01-17 16:17:46.65	263.59	25.82	-38.0	-39.0	23.6	0.00e+00	6	28	0	999292928	50	5701
2026-01-17 16:17:47.65	263.40	25.70	-37.9	-38.8	23.5	0.00e+00	6	28	0	1001390080	50	5619
2026-01-17 16:17:48.66	263.20	25.57	-38.1	-39.0	23.4	0.00e+00	7	28	0	1003487232	50	5711
2026-01-17 16:17:49.68	263.00	25.45	-38.0	-38.9	23.4	0.00e+00	90	28	0	1004535808	50	5686
2026-01-17 16:17:50.68	262.80	25.33	-37.8	-38.6	23.7	0.00e+00	52	28	0	1006632960	50	5500
2026-01-17 16:17:51.69	262.61	25.20	-37.9	-38.8	23.6	0.00e+00	92	28	0	1008730112	48	6254
2026-01-17 16:17:52.70	262.41	25.08	-37.9	-38.8	23.6	0.00e+00	7	28	0	1010827264	48	6292
2026-01-17 16:17:53.71	262.22	24.96	-38.0	-38.9	23.5	0.00e+00	8	28	0	1012924416	48	6361
2026-01-17 16:17:54.72	262.03	24.84	-38.0	-38.9	23.4	0.00e+00	0	28	0	1015021568	48	6379
2026-01-17 16:17:55.72	261.84	24.72	-38.2	-39.1	23.3	0.00e+00	0	28	0	1016070144	48	6495
2026-01-17 16:17:56.74	261.65	24.59	-38.1	-39.1	23.2	0.00e+00	92	28	0	1018167296	48	6471
2026-01-17 16:17:57.75	261.47	24.47	-38.1	-39.0	23.3	0.00e+00	36	28	0	1020264448	48	6457
2026-01-17 16:17:58.75	261.28	24.35	-38.2	-39.2	23.2	0.00e+00	92	28	0	1022361600	48	6560
2026-01-17 16:17:59.76	261.10	24.23	-38.1	-39.0	23.3	0.00e+00	0	28	0	1024458752	48	6458
2026-01-17 16:18:00.77	260.92	24.11	-38.0	-38.9	23.5	0.00e+00	0	28	0	1025507328	48	6328
2026-01-17 16:18:01.78	260.74	23.99	-38.1	-39.1	23.2	0.00e+00	0	28	0	1027604480	48	6475
2026-01-17 16:18:02.79	260.56	23.87	-38.1	-39.0	23.3	0.00e+00	32	28	0	1029701632	48	6441
2026-01-17 16:18:03.80	260.38	23.75	-38.1	-39.0	23.4	0.00e+00	91	28	0	1031798784	48	6413
2026-01-17 16:18:04.81	260.21	23.63	-38.2	-39.1	23.3	0.00e+00	51	28	0	1033895936	48	6498
2026-01-17 16:18:05.82	260.03	23.51	-38.1	-39.0	23.3	0.00e+00	91	28	0	1034944512	48	6428
2026-01-17 16:18:06.83	259.86	23.39	-38.0	-38.9	23.5	0.00e+00	31	28	0	1037041664	48	6351
2026-01-17 16:18:07.83	259.69	23.27	-38.2	-39.1	23.3	0.00e+00	44	28	0	1039138816	48	6522
2026-01-17 16:18:08.85	259.51	23.15	-38.2	-39.2	23.3	0.00e+00	0	28	0	1041235968	48	6551
2026-01-17 16:18:09.85	259.35	23.03	-38.2	-39.1	23.2	0.00e+00	47	28	0	1043333120	48	6533
2026-01-17 16:18:10.86	259.18	22.91	-38.3	-39.2	23.3	0.00e+00	88	28	0	1044381696	48	6597
2026-01-17 16:18:11.87	259.01	22.80	-38.4	-39.3	23.0	0.00e+00	46	28	0	1046478848	48	6681
2026-01-17 16:18:12.88	258.84	22.68	-38.6	-39.6	22.7	0.00e+00	92	28	0	1048576000	48	6879
2026-01-17 16:18:13.89	258.68	22.56	-38.7	-39.6	22.8	0.00e+00	0	28	0	1050673152	50	6171
2026-01-17 16:18:14.90	258.52	22.44	-38.8	-39.8	22.6	0.00e+00	90	28	0	1052770304	50	6282
2026-01-17 16:18:15.91	258.36	22.33	-38.8	-39.8	22.7	0.00e+00	0	28	0	1053818880	50	6264
2026-01-17 16:18:16.92	258.19	22.21	-38.7	-39.7	22.7	0.00e+00	0	28	0	1055916032	50	6234
2026-01-17 16:18:17.93	258.03	22.09	-38.9	-39.9	22.6	0.00e+00	2	28	0	1058013184	50	6367
2026-01-17 16:18:18.94	257.88	21.98	-38.9	-39.9	22.6	0.00e+00	0	28	0	1060110336	50	6370
2026-01-17 16:18:19.95	257.72	21.86	-38.8	-39.9	22.5	0.00e+00	92	28	0	1062207488	50	6327
2026-01-17 16:18:20.96	257.56	21.75	-38.9	-39.9	22.6	0.00e+00	0	28	0	1063256064	50	6345
2026-01-17 16:18:21.97	257.41	21.63	-39.1	-40.1	22.3	0.00e+00	92	28	0	1065353216	50	6532
2026-01-17 16:18:22.98	257.26	21.52	-39.2	-40.3	22.1	0.00e+00	0	28	0	1067450368	50	6631
2026-01-17 16:18:23.99	257.10	21.40	-39.5	-40.5	21.9	0.00e+00	46	28	0	1069547520	50	6836
2026-01-17 16:18:25.00	256.95	21.29	-39.5	-40.6	21.8	0.00e+00	57	28	0	1071644672	50	6915
2026-01-17 16:18:26.01	256.80	21.17	-39.8	-40.9	21.7	0.00e+00	34	28	0	1072693248	52	6354
2026-01-17 16:18:27.02	256.65	21.06	-39.8	-40.9	21.6	0.00e+00	88	28	0	1074790400	52	6336
2026-01-17 16:18:28.03	256.50	20.95	-39.9	-41.1	21.5	0.00e+00	35	28	0	1076887552	52	6468
2026-01-17 16:18:29.05	256.36	20.83	-39.7	-40.8	21.7	0.00e+00	92	28	0	1078984704	52	6259
2026-01-17 16:18:30.06	256.21	20.72	-39.8	-40.9	21.6	0.00e+00	51	28	0	1081081856	52	6358
2026-01-17 16:18:31.07	256.07	20.61	-39.6	-40.6	21.9	0.00e+00	53	28	0	1083179008	52	6169
2026-01-17 16:18:32.08	255.92	20.49	-39.3	-40.3	22.1	0.00e+00	51	28	0	1084227584	52	5954
2026-01-17 16:18:33.09	255.78	20.38	-39.2	-40.2	22.2	0.00e+00	0	28	0	1086324736	52	5874
2026-01-17 16:18:34.10	255.64	20.27	-39.2	-40.3	22.2	0.00e+00	92	28	0	1088421888	52	5921
2026-01-17 16:18:35.11	255.50	20.16	-39.2	-40.2	22.2	0.00e+00	0	28	0	1090519040	52	5878
2026-01-17 16:18:36.12	255.36	20.05	-39.3	-40.4	22.0	0.00e+00	90	28	0	1092616192	52	5997
2026-01-17 16:18:37.13	255.22	19.94	-39.5	-40.6	21.9	0.00e+00	0	28	0	1093664768	52	6133
2026-01-17 16:18:38.14	255.08	19.83	-39.6	-40.7	21.7	0.00e+00	92	28	0	1095761920	52	6230
2026-01-17 16:18:39.15	254.95	19.72	-39.7	-40.8	21.7	0.00e+00	0	28	0	1097859072	52	6256
2026-01-17 16:18:40.16	254.81	19.61	-39.8	-40.9	21.6	0.00e+00	36	28	0	1099956224	52	6350
2026-01-17 16:18:41.17	254.68	19.50	-39.8	-40.9	21.6	0.00e+00	0	28	0	1102053376	52	6332
2026-01-17 16:18:42.18	254.54	19.39	-39.7	-40.8	21.7	0.00e+00	0	28	0	1103101952	52	6314
2026-01-17 16:18:43.19	254.41	19.28	-39.8	-41.0	21.5	0.00e+00	92	28	0	1105199104	52	6412
2026-01-17 16:18:44.20	254.28	19.17	-39.8	-40.9	21.6	0.00e+00	35	28	0	1107296256	52	6346
2026-01-17 16:18:45.21	254.15	19.06	-39.9	-41.0	21.5	0.00e+00	92	28	0	1109393408	52	6459
2026-01-17 16:18:46.22	254.02	18.96	-39.8	-41.0	21.6	0.00e+00	46	28	0	1111490560	52	6397
2026-01-17 16:18:47.23	253.89	18.85	-39.6	-40.7	21.9	0.00e+00	34	28	0	1112539136	52	6216
2026-01-17 16:18:48.24	253.76	18.74	-39.7	-40.8	21.6	0.00e+00	35	28	0	1114636288	52	6292
2026-01-17 16:18:49.25	253.63	18.64	-39.2	-40.3	22.2	0.00e+00	49	28	0	1116733440	52	5906
2026-01-17 16:18:50.26	253.51	18.53	-39.2	-40.2	22.2	0.00e+00	92	28	0	1118830592	52	5891
2026-01-17 16:18:51.27	253.38	18.42	-39.2	-40.2	22.2	0.00e+00	0	28	0	1120927744	52	5865
2026-01-17 16:18:52.28	253.26	18.32	-39.2	-40.3	22.0	0.00e+00	92	28	0	1121976320	52	5928
2026-01-17 16:18:53.29	253.14	18.21	-39.3	-40.4	22.0	0.00e+00	47	28	0	1124073472	52	6006
2026-01-17 16:18:54.30	253.01	18.11	-39.4	-40.4	22.0	0.00e+00	19	28	0	1126170624	52	6013
2026-01-17 16:18:55.30	252.89	18.00	-39.4	-40.5	21.9	0.00e+00	0	28	0	1128267776	52	6043
2026-01-17 16:18:56.31	252.77	17.90	-39.4	-40.5	21.9	0.00e+00	0	28	0	1130364928	52	6044
2026-01-17 16:18:57.32	252.65	17.79	-39.5	-40.5	21.9	0.00e+00	79	28	0	1131413504	52	6093
2026-01-17 16:18:58.33	252.53	17.69	-39.5	-40.6	21.8	0.00e+00	0	28	0	1133510656	52	6106
2026-01-17 16:18:59.34	252.42	17.58	-39.6	-40.7	21.7	0.00e+00	92	28	0	1135607808	52	6190
2026-01-17 16:19:00.35	252.30	17.48	-39.4	-40.4	22.1	0.00e+00	26	28	0	1137704960	52	6019
2026-01-17 16:19:01.36	252.18	17.38	-39.4	-40.5	22.0	0.00e+00	43	28	0	1139802112	52	6049
2026-01-17 16:19:02.37	252.07	17.28	-39.4	-40.5	21.8	0.00e+00	0	28	0	1140850688	52	6082
2026-01-17 16:19:03.38	251.95	17.17	-39.4	-40.4	22.0	0.00e+00	0	28	0	1142947840	52	6011
2026-01-17 16:19:04.39	251.84	17.07	-39.1	-40.2	22.1	0.00e+00	0	28	0	1145044992	52	5853
2026-01-17 16:19:05.40	251.72	16.97	-39.2	-40.2	22.1	0.00e+00	55	28	0	1147142144	52	5871
2026-01-17 16:19:06.41	251.61	16.87	-39.1	-40.2	22.2	0.00e+00	92	28	0	1149239296	52	5842
2026-01-17 16:19:07.42	251.50	16.77	-39.2	-40.3	22.1	0.00e+00	0	28	0	1151336448	52	5906
2026-01-17 16:19:08.43	251.39	16.66	-39.3	-40.4	22.0	0.00e+00	92	28	0	1152385024	52	5967
2026-01-17 16:19:09.44	251.28	16.56	-39.3	-40.4	22.0	0.00e+00	32	28	0	1154482176	52	5972
2026-01-17 16:19:10.45	251.17	16.46	-39.3	-40.4	21.9	0.00e+00	50	28	0	1156579328	52	5991
2026-01-17 16:19:11.46	251.06	16.36	-39.3	-40.4	22.0	0.00e+00	0	28	0	1158676480	52	6001
2026-01-17 16:19:12.47	250.95	16.26	-39.5	-40.5	21.9	0.00e+00	48	28	0	1160773632	52	6099
2026-01-17 16:19:13.48	250.84	16.16	-39.4	-40.5	21.9	0.00e+00	92	28	0	1161822208	52	6043
2026-01-17 16:19:14.49	250.74	16.06	-39.6	-40.7	21.7	0.00e+00	5	28	0	1163919360	52	6210
2026-01-17 16:19:15.50	250.63	15.97	-39.6	-40.7	21.8	0.00e+00	92	28	0	1166016512	52	6203
2026-01-17 16:19:16.51	250.53	15.87	-39.4	-40.5	21.9	0.00e+00	0	28	0	1168113664	52	6071
2026-01-17 16:19:17.52	250.42	15.77	-39.5	-40.6	21.7	0.00e+00	55	28	0	1170210816	52	6159
2026-01-17 16:19:18.53	250.32	15.67	-39.5	-40.6	21.9	0.00e+00	0	28	0	1171259392	52	6106
2026-01-17 16:19:19.53	250.22	15.57	-39.6	-40.7	21.8	0.00e+00	0	28	0	1173356544	52	6178
2026-01-17 16:19:20.54	250.11	15.48	-39.5	-40.6	21.8	0.00e+00	16	28	0	1175453696	52	6127
2026-01-17 16:19:21.55	250.01	15.38	-39.4	-40.5	21.9	0.00e+00	6	28	0	1177550848	52	6043
2026-01-17 16:19:22.56	249.91	15.28	-39.5	-40.6	21.7	0.00e+00	90	28	0	1179648000	52	6126
2026-01-17 16:19:23.57	249.81	15.19	-39.3	-40.4	21.9	0.00e+00	0	28	0	1180696576	52	6008
2026-01-17 16:19:24.59	249.71	15.09	-39.4	-40.5	21.8	0.00e+00	76	28	0	1182793728	52	6085
2026-01-17 16:19:25.60	249.61	14.99	-39.3	-40.3	22.0	0.00e+00	32	28	0	1184890880	52	5957
2026-01-17 16:19:26.60	249.51	14.90	-39.2	-40.2	22.1	0.00e+00	55	28	0	1186988032	52	5881
2026-01-17 16:19:27.62	249.41	14.80	-39.3	-40.3	22.0	0.00e+00	0	28	0	1189085184	52	5941
2026-01-17 16:19:28.63	249.32	14.71	-39.3	-40.3	22.0	0.00e+00	54	28	0	1190133760	52	5960
2026-01-17 16:19:29.64	249.22	14.61	-39.2	-40.3	22.0	0.00e+00	92	28	0	1192230912	52	5906
2026-01-17 16:19:30.65	249.13	14.52	-39.3	-40.4	21.9	0.00e+00	6	28	0	1194328064	52	6001
2026-01-17 16:19:31.66	249.03	14.42	-39.3	-40.4	21.9	0.00e+00	91	28	0	1196425216	52	6010
2026-01-17 16:19:32.67	248.94	14.33	-39.4	-40.4	21.9	0.00e+00	6	28	0	1198522368	52	6033
2026-01-17 16:19:33.68	248.84	14.24	-39.4	-40.5	21.8	0.00e+00	59	28	0	1199570944	52	6067
2026-01-17 16:19:34.69	248.75	14.14	-39.4	-40.5	21.8	0.00e+00	61	28	0	1201668096	52	6084
