passes_logs/2026/01/17/R4.6S_Anadyr/R4.6S_Anadyr__20260117_234906_JILIN-1_GAOFEN_03D18_rec.log

#Pass ID: 20260117_234906_JILIN-1 GAOFEN 03D18
#Satellite: JILIN-1 GAOFEN 03D18
#Configuration: 03D_900M
#almurnet v.1.7.20251203
#Start time: 2026-01-17 23:49:09

#Version: 2.2.20231116
#Station: R4.6S_Anadyr
#Location: 177.4865 lon 64.73178 lat
#TLE: 1 51844U 22019W   26017.59127602  .00085436  00000+0  92630-3 0  9992
#TLE: 2 51844  97.3771 107.1960 0006063 299.7401  60.3254 15.63238229216335

#Time	Az	El	Level	Level2	SNR	BER	BlckErr	Temp	State	Recorded	gain1	gain2
2026-01-17 23:49:09.74	20.74	0.24	-49.0	-61.5	3.5	1.51e+00	0	31	0	0	60	41823
2026-01-17 23:49:10.71	20.78	0.30	-45.7	-48.0	6.1	0.00e+00	0	32	104	0	60	30942
2026-01-17 23:49:11.69	20.83	0.36	-45.8	-48.2	6.1	0.00e+00	0	32	104	0	60	31343
2026-01-17 23:49:12.67	20.88	0.43	-45.6	-48.0	6.1	0.00e+00	0	32	104	0	60	30728
2026-01-17 23:49:13.65	20.92	0.49	-45.6	-48.0	6.1	0.00e+00	0	32	104	0	60	30856
2026-01-17 23:49:14.62	20.97	0.55	-45.7	-48.0	6.1	0.00e+00	0	32	104	0	60	30766
2026-01-17 23:49:15.60	21.02	0.62	-45.6	-47.9	6.1	0.00e+00	0	32	104	0	60	30508
2026-01-17 23:49:16.58	21.06	0.68	-45.0	-47.5	6.1	0.00e+00	0	32	104	0	60	29167
2026-01-17 23:49:17.55	21.11	0.75	-45.3	-47.7	6.1	0.00e+00	0	32	104	0	60	29669
2026-01-17 23:49:18.53	21.16	0.81	-44.5	-46.9	6.1	0.00e+00	0	32	104	0	60	27218
2026-01-17 23:49:19.51	21.21	0.87	-45.0	-47.4	6.1	0.00e+00	0	32	104	0	60	28735
2026-01-17 23:49:20.48	21.26	0.94	-44.9	-47.3	6.1	0.00e+00	0	32	104	0	60	28260
2026-01-17 23:49:21.46	21.31	1.00	-44.4	-46.8	6.1	0.00e+00	0	32	104	0	60	26696
2026-01-17 23:49:22.44	21.36	1.07	-44.3	-46.6	6.1	0.00e+00	0	32	104	0	60	26309
2026-01-17 23:49:23.41	21.41	1.13	-44.3	-46.7	6.1	0.00e+00	0	32	104	0	60	26403
2026-01-17 23:49:24.39	21.46	1.20	-44.2	-46.6	6.1	0.00e+00	0	32	104	0	60	26280
2026-01-17 23:49:25.36	21.51	1.27	-44.2	-46.6	6.1	0.00e+00	0	32	104	0	60	26262
2026-01-17 23:49:26.34	21.56	1.33	-44.2	-46.6	6.1	0.00e+00	0	32	104	0	60	26311
2026-01-17 23:49:27.32	21.61	1.40	-44.2	-46.6	6.1	0.00e+00	0	32	104	0	60	26123
2026-01-17 23:49:28.30	21.66	1.46	-44.2	-46.6	6.1	0.00e+00	0	32	104	0	60	26164
2026-01-17 23:49:29.28	21.71	1.53	-44.2	-46.5	6.1	0.00e+00	0	33	104	0	60	26017
2026-01-17 23:49:30.25	21.76	1.60	-44.2	-46.6	6.1	0.00e+00	0	33	104	0	60	26115
2026-01-17 23:49:31.23	21.81	1.66	-44.2	-46.6	6.1	0.00e+00	0	33	104	0	60	26093
2026-01-17 23:49:32.20	21.87	1.73	-44.2	-46.5	6.1	0.00e+00	0	33	104	0	60	25968
2026-01-17 23:49:33.18	21.92	1.80	-44.2	-46.6	6.1	0.00e+00	0	32	104	0	60	26081
2026-01-17 23:49:34.16	21.97	1.87	-44.2	-46.6	6.1	0.00e+00	0	33	104	0	60	26040
2026-01-17 23:49:35.14	22.03	1.93	-44.2	-46.6	6.1	0.00e+00	0	33	104	0	60	26110
2026-01-17 23:49:36.11	22.08	2.00	-44.1	-46.5	6.1	0.00e+00	0	33	104	0	60	25865
2026-01-17 23:49:37.09	22.13	2.07	-44.1	-46.5	6.1	0.00e+00	0	33	104	0	60	25989
2026-01-17 23:49:38.06	22.19	2.14	-44.1	-46.5	6.1	0.00e+00	0	33	104	0	60	26005
2026-01-17 23:49:39.04	22.24	2.21	-44.1	-46.5	6.0	0.00e+00	0	33	104	0	60	26001
2026-01-17 23:49:40.01	22.30	2.28	-44.1	-46.5	6.1	0.00e+00	0	33	104	0	60	26014
2026-01-17 23:49:40.99	22.35	2.35	-44.1	-46.5	6.1	0.00e+00	0	33	104	0	60	25908
2026-01-17 23:49:41.97	22.41	2.42	-44.1	-46.5	6.1	0.00e+00	0	33	104	0	60	25840
2026-01-17 23:49:42.95	22.46	2.49	-44.1	-46.5	6.1	0.00e+00	0	33	104	0	60	25922
2026-01-17 23:49:43.93	22.52	2.56	-44.1	-46.5	6.1	0.00e+00	0	33	104	0	60	25925
2026-01-17 23:49:44.91	22.58	2.63	-44.1	-46.5	6.1	0.00e+00	0	33	104	0	60	25816
2026-01-17 23:49:45.88	22.63	2.70	-44.1	-46.5	6.1	0.00e+00	0	33	104	0	60	25941
2026-01-17 23:49:46.86	22.69	2.77	-44.1	-46.5	6.0	0.00e+00	0	33	104	0	60	25976
2026-01-17 23:49:47.83	22.75	2.84	-44.1	-46.5	6.1	0.00e+00	0	33	104	0	60	25961
2026-01-17 23:49:48.81	22.81	2.91	-44.1	-46.5	6.1	0.00e+00	0	33	104	0	60	25966
2026-01-17 23:49:49.79	22.87	2.98	-44.1	-46.5	6.1	0.00e+00	0	33	104	0	60	26002
2026-01-17 23:49:50.76	22.93	3.05	-44.1	-46.5	6.1	0.00e+00	0	33	104	0	60	25917
2026-01-17 23:49:51.74	22.99	3.13	-44.1	-46.5	6.0	0.00e+00	0	33	104	0	60	25874
2026-01-17 23:49:52.72	23.05	3.20	-44.1	-46.5	6.1	0.00e+00	0	33	104	0	60	25883
2026-01-17 23:49:53.70	23.11	3.27	-44.1	-46.5	6.1	0.00e+00	0	33	104	0	60	25835
2026-01-17 23:49:54.68	23.17	3.35	-44.1	-46.5	6.1	0.00e+00	0	33	104	0	60	25995
2026-01-17 23:49:55.65	23.23	3.42	-44.1	-46.5	6.1	0.00e+00	0	33	104	0	60	25902
2026-01-17 23:49:56.63	23.29	3.49	-44.1	-46.5	6.1	0.00e+00	0	33	104	0	60	25855
2026-01-17 23:49:57.60	23.35	3.56	-44.1	-46.5	6.1	0.00e+00	0	33	104	0	60	25799
2026-01-17 23:49:58.58	23.41	3.64	-44.1	-46.5	6.1	0.00e+00	0	33	104	0	60	25978
2026-01-17 23:49:59.56	23.48	3.71	-44.1	-46.4	6.1	0.00e+00	0	33	104	0	60	25708
2026-01-17 23:50:00.53	23.54	3.79	-44.1	-46.5	6.1	0.00e+00	0	33	104	0	60	25915
2026-01-17 23:50:01.51	23.60	3.86	-44.1	-46.5	6.1	0.00e+00	0	33	104	0	60	25830
2026-01-17 23:50:02.48	23.67	3.94	-44.1	-46.5	6.1	0.00e+00	0	33	104	0	60	25870
2026-01-17 23:50:03.46	23.73	4.01	-44.1	-46.5	6.1	0.00e+00	0	33	104	0	60	25861
2026-01-17 23:50:04.44	23.80	4.09	-44.3	-46.7	6.1	0.00e+00	0	33	104	0	60	26353
2026-01-17 23:50:05.41	23.86	4.17	-44.2	-46.7	6.1	0.00e+00	0	33	104	0	60	26403
2026-01-17 23:50:06.38	23.93	4.24	-44.1	-46.5	6.1	0.00e+00	0	33	104	0	60	26028
2026-01-17 23:50:07.36	23.99	4.32	-44.2	-46.6	6.1	0.00e+00	0	33	104	0	60	26084
2026-01-17 23:50:08.33	24.06	4.40	-44.2	-46.6	6.1	0.00e+00	0	33	104	0	60	26114
2026-01-17 23:50:09.32	24.13	4.47	-44.4	-46.7	6.1	0.00e+00	0	33	104	0	60	26628
2026-01-17 23:50:10.29	24.19	4.55	-44.3	-46.7	6.1	0.00e+00	0	33	104	0	60	26493
2026-01-17 23:50:11.26	24.26	4.63	-44.2	-46.6	6.1	0.00e+00	0	33	104	0	60	26097
2026-01-17 23:50:12.24	24.33	4.71	-44.2	-46.6	6.1	0.00e+00	0	33	104	0	60	26096
2026-01-17 23:50:13.22	24.40	4.79	-44.4	-46.8	6.1	0.00e+00	0	33	104	0	60	26704
2026-01-17 23:50:14.20	24.47	4.87	-44.4	-46.7	6.1	0.00e+00	0	33	104	0	60	26629
2026-01-17 23:50:15.18	24.54	4.95	-44.1	-46.5	6.1	0.00e+00	0	33	104	0	60	25832
2026-01-17 23:50:16.16	24.61	5.03	-44.3	-46.7	6.1	0.00e+00	0	33	104	0	60	26380
2026-01-17 23:50:17.13	24.68	5.11	-44.4	-46.8	6.1	0.00e+00	0	33	104	0	60	26759
2026-01-17 23:50:18.11	24.76	5.19	-44.4	-46.8	6.1	0.00e+00	0	33	104	0	60	26655
2026-01-17 23:50:19.09	24.83	5.27	-44.3	-46.8	6.1	0.00e+00	0	34	104	0	60	26645
2026-01-17 23:50:20.07	24.90	5.35	-44.2	-46.6	6.1	0.00e+00	0	33	104	0	60	26240
2026-01-17 23:50:21.05	24.97	5.43	-44.5	-46.9	6.1	0.00e+00	0	33	104	0	60	27106
2026-01-17 23:50:22.02	25.05	5.51	-44.4	-46.8	6.1	0.00e+00	0	33	104	0	60	26815
2026-01-17 23:50:23.00	25.12	5.60	-44.4	-46.7	6.1	0.00e+00	0	33	104	0	60	26571
2026-01-17 23:50:23.98	25.20	5.68	-44.2	-46.7	6.1	0.00e+00	0	33	104	0	60	26348
2026-01-17 23:50:24.96	25.27	5.76	-44.6	-46.9	6.1	0.00e+00	0	34	104	0	60	27247
2026-01-17 23:50:25.93	25.35	5.84	-44.4	-46.8	6.1	0.00e+00	0	33	104	0	60	26762
2026-01-17 23:50:26.91	25.43	5.93	-44.4	-46.8	6.1	0.00e+00	0	34	104	0	60	26836
2026-01-17 23:50:27.89	25.51	6.01	-44.2	-46.6	6.1	0.00e+00	0	33	104	0	60	26217
2026-01-17 23:50:28.86	25.58	6.10	-44.6	-46.9	6.1	0.00e+00	0	33	104	0	60	27134
2026-01-17 23:50:29.84	25.66	6.18	-44.5	-46.9	6.1	0.00e+00	0	33	104	0	60	27193
2026-01-17 23:50:30.82	25.74	6.27	-44.4	-46.8	6.1	0.00e+00	0	33	104	0	60	26710
2026-01-17 23:50:31.80	25.82	6.35	-44.4	-46.8	6.1	0.00e+00	0	33	104	0	60	26778
2026-01-17 23:50:32.78	25.90	6.44	-44.6	-47.0	6.1	0.00e+00	0	33	104	0	60	27372
2026-01-17 23:50:33.76	25.98	6.53	-44.5	-46.9	6.1	0.00e+00	0	34	104	0	60	27262
2026-01-17 23:50:34.73	26.07	6.61	-44.5	-46.8	6.1	0.00e+00	0	34	104	0	60	26926
2026-01-17 23:50:35.71	26.15	6.70	-44.4	-46.8	6.1	0.00e+00	0	34	104	0	60	26832
2026-01-17 23:50:36.69	26.23	6.79	-44.5	-46.9	6.1	0.00e+00	0	34	104	0	60	27160
2026-01-17 23:50:37.66	26.32	6.88	-44.6	-47.0	6.1	0.00e+00	0	34	104	0	60	27398
2026-01-17 23:50:38.64	26.40	6.97	-44.5	-46.9	6.1	0.00e+00	0	34	104	0	60	27071
2026-01-17 23:50:39.62	26.49	7.06	-44.6	-46.9	6.1	0.00e+00	0	33	104	0	60	27224
2026-01-17 23:50:40.60	26.57	7.15	-44.6	-47.0	6.1	0.00e+00	0	34	104	0	60	27410
2026-01-17 23:50:41.58	26.66	7.24	-44.4	-46.9	6.1	0.00e+00	0	34	104	0	60	27054
2026-01-17 23:50:42.56	26.75	7.33	-44.7	-47.0	6.1	0.00e+00	0	34	104	0	60	27431
2026-01-17 23:50:43.53	26.83	7.42	-44.2	-46.7	6.1	0.00e+00	0	33	104	0	60	26396
2026-01-17 23:50:44.51	26.92	7.51	-44.6	-47.0	6.1	0.00e+00	0	34	104	0	60	27318
2026-01-17 23:50:45.48	27.01	7.60	-44.7	-47.1	6.1	0.00e+00	0	34	104	0	60	27693
2026-01-17 23:50:46.46	27.10	7.69	-44.6	-47.0	6.1	0.00e+00	0	34	104	0	60	27423
2026-01-17 23:50:47.43	27.19	7.79	-44.6	-47.0	6.1	0.00e+00	0	34	104	0	60	27296
2026-01-17 23:50:48.41	27.29	7.88	-44.6	-47.0	6.1	0.00e+00	0	34	104	0	60	27271
2026-01-17 23:50:49.39	27.38	7.98	-44.7	-47.1	6.1	0.00e+00	0	34	104	0	60	27608
2026-01-17 23:50:50.37	27.47	8.07	-44.5	-47.0	6.1	0.00e+00	0	34	104	0	60	27314
2026-01-17 23:50:51.35	27.57	8.17	-44.7	-47.1	6.1	0.00e+00	0	34	104	0	60	27633
2026-01-17 23:50:52.32	27.66	8.26	-44.6	-47.0	6.1	0.00e+00	0	34	104	0	60	27375
2026-01-17 23:50:53.29	27.76	8.36	-44.7	-47.1	6.1	0.00e+00	0	34	104	0	60	27807
2026-01-17 23:50:54.27	27.86	8.45	-44.5	-46.9	6.1	0.00e+00	0	34	104	0	60	27143
2026-01-17 23:50:55.24	27.95	8.55	-44.6	-47.1	6.1	0.00e+00	0	34	104	0	60	27673
2026-01-17 23:50:56.22	28.05	8.65	-44.6	-47.0	6.1	0.00e+00	0	34	104	0	60	27525
2026-01-17 23:50:57.19	28.15	8.74	-44.5	-47.0	6.1	0.00e+00	0	34	104	0	60	27387
2026-01-17 23:50:58.17	28.25	8.84	-44.8	-47.1	6.1	0.00e+00	0	34	104	0	60	27831
2026-01-17 23:50:59.15	28.35	8.94	-44.8	-47.1	6.1	0.00e+00	0	34	104	0	60	27785
2026-01-17 23:51:00.13	28.45	9.04	-44.5	-46.9	6.1	0.00e+00	0	34	104	0	60	27201
2026-01-17 23:51:01.10	28.56	9.14	-44.7	-47.1	6.1	0.00e+00	0	34	104	0	60	27853
2026-01-17 23:51:02.08	28.66	9.24	-44.6	-47.0	6.1	0.00e+00	0	34	104	0	60	27484
2026-01-17 23:51:03.06	28.77	9.35	-44.8	-47.2	6.1	0.00e+00	0	34	104	0	60	27913
2026-01-17 23:51:04.04	28.87	9.45	-44.8	-47.2	6.1	0.00e+00	0	34	104	0	60	27999
2026-01-17 23:51:05.01	28.98	9.55	-44.7	-47.1	6.1	0.00e+00	0	34	104	0	60	27824
2026-01-17 23:51:05.99	29.09	9.65	-44.7	-47.1	6.1	0.00e+00	0	34	104	0	60	27749
2026-01-17 23:51:06.97	29.20	9.76	-44.6	-47.0	6.1	0.00e+00	0	34	104	0	60	27496
2026-01-17 23:51:07.95	29.31	9.86	-43.1	-45.7	6.1	0.00e+00	0	34	104	0	60	23508
2026-01-17 23:51:08.92	29.42	9.97	-44.7	-47.1	6.1	0.00e+00	0	34	104	0	60	27852
2026-01-17 23:51:09.89	29.53	10.07	-43.4	-46.0	6.1	0.00e+00	0	34	104	0	60	24437
2026-01-17 23:51:10.87	29.64	10.18	-43.0	-45.6	6.1	0.00e+00	0	34	104	0	60	23452
2026-01-17 23:51:11.85	29.76	10.29	-43.4	-46.1	6.1	0.00e+00	0	34	104	0	60	24641
2026-01-17 23:51:12.83	29.87	10.39	-44.2	-46.7	6.1	0.00e+00	0	34	104	0	60	26558
2026-01-17 23:51:13.80	29.99	10.50	-44.6	-47.0	6.1	0.00e+00	0	34	104	0	60	27463
2026-01-17 23:51:14.78	30.11	10.61	-44.7	-47.1	6.1	0.00e+00	0	34	104	0	60	27701
2026-01-17 23:51:15.76	30.23	10.72	-44.8	-47.2	6.1	0.00e+00	0	34	104	0	60	27974
2026-01-17 23:51:16.73	30.34	10.83	-43.7	-46.3	6.1	0.00e+00	0	34	104	0	60	25327
2026-01-17 23:51:17.71	30.47	10.94	-44.4	-46.9	6.1	0.00e+00	0	34	104	0	60	27005
2026-01-17 23:51:18.69	30.59	11.05	-43.6	-46.2	6.1	0.00e+00	0	34	104	0	60	25062
2026-01-17 23:51:19.67	30.71	11.16	-43.0	-45.7	6.1	0.00e+00	0	34	104	0	60	23528
2026-01-17 23:51:20.64	30.84	11.28	-43.4	-46.0	6.1	0.00e+00	0	34	104	0	60	24420
2026-01-17 23:51:21.62	30.96	11.39	-44.0	-46.5	6.1	0.00e+00	0	34	104	0	60	25922
2026-01-17 23:51:22.60	31.09	11.51	-44.3	-46.7	6.1	0.00e+00	0	34	104	0	60	26638
2026-01-17 23:51:23.58	31.22	11.62	-44.5	-46.9	6.1	0.00e+00	0	34	104	0	60	27253
2026-01-17 23:51:24.55	31.35	11.74	-44.9	-47.2	6.1	0.00e+00	0	34	104	0	60	28216
2026-01-17 23:51:25.53	31.48	11.85	-44.8	-47.2	6.1	0.00e+00	0	34	104	0	60	28054
2026-01-17 23:51:26.50	31.61	11.97	-44.0	-46.6	6.1	0.00e+00	0	34	104	0	60	26087
2026-01-17 23:51:27.48	31.75	12.09	-43.9	-46.5	6.1	0.00e+00	0	34	104	0	60	25866
2026-01-17 23:51:28.46	31.88	12.21	-44.6	-47.1	6.1	0.00e+00	0	34	104	0	60	27653
2026-01-17 23:51:29.44	32.02	12.33	-44.8	-47.2	6.1	0.00e+00	0	34	104	0	60	28041
2026-01-17 23:51:30.41	32.16	12.45	-45.0	-47.4	6.1	0.00e+00	0	34	104	0	60	28710
2026-01-17 23:51:31.39	32.30	12.57	-45.0	-47.4	6.1	0.00e+00	0	34	104	0	60	28761
2026-01-17 23:51:32.36	32.44	12.69	-44.9	-47.3	6.1	0.00e+00	0	34	104	0	60	28425
2026-01-17 23:51:33.33	32.58	12.81	-44.9	-47.3	6.1	0.00e+00	0	34	104	0	60	28433
2026-01-17 23:51:34.31	32.72	12.93	-44.7	-47.3	6.1	0.00e+00	0	34	104	0	60	28407
2026-01-17 23:51:35.28	32.87	13.06	-44.5	-47.0	6.1	0.00e+00	0	34	104	0	60	27298
2026-01-17 23:51:36.26	33.02	13.18	-43.5	-46.1	6.1	0.00e+00	0	34	104	0	60	24702
2026-01-17 23:51:37.24	33.17	13.31	-45.1	-47.5	6.1	0.00e+00	0	34	104	0	60	28894
2026-01-17 23:51:38.22	33.32	13.44	-44.2	-46.8	6.1	0.00e+00	0	34	104	0	60	26827
2026-01-17 23:51:39.19	33.47	13.56	-44.3	-46.8	6.1	0.00e+00	0	34	104	0	60	26791
2026-01-17 23:51:40.17	33.62	13.69	-44.8	-47.2	6.1	0.00e+00	0	34	104	0	60	28172
2026-01-17 23:51:41.15	33.78	13.82	-45.0	-47.4	6.1	0.00e+00	0	34	104	0	60	28636
2026-01-17 23:51:42.13	33.94	13.95	-44.3	-46.9	6.1	0.00e+00	0	34	104	0	60	27162
2026-01-17 23:51:43.10	34.09	14.08	-44.6	-47.0	6.1	0.00e+00	0	34	104	0	60	27567
2026-01-17 23:51:44.08	34.26	14.22	-44.8	-47.3	6.1	0.00e+00	0	34	104	0	60	28412
2026-01-17 23:51:45.06	34.42	14.35	-45.1	-47.5	6.1	0.00e+00	0	34	104	0	60	28884
2026-01-17 23:51:46.04	34.58	14.48	-44.9	-47.3	6.1	0.00e+00	0	34	104	0	60	28275
2026-01-17 23:51:47.02	34.75	14.62	-45.0	-47.4	6.1	0.00e+00	0	34	104	0	60	28808
2026-01-17 23:51:47.99	34.92	14.75	-45.1	-47.5	6.1	0.00e+00	0	34	104	0	60	28992
2026-01-17 23:51:48.97	35.09	14.89	-45.1	-47.5	6.1	0.00e+00	0	34	104	0	60	29067
2026-01-17 23:51:49.94	35.26	15.03	-45.1	-47.5	6.1	0.00e+00	0	34	104	0	60	29085
2026-01-17 23:51:50.92	35.44	15.17	-45.0	-47.4	6.1	0.00e+00	0	34	104	0	60	28711
2026-01-17 23:51:51.90	35.61	15.31	-45.0	-47.4	6.1	0.00e+00	0	34	104	0	60	28742
2026-01-17 23:51:52.87	35.79	15.45	-44.7	-47.2	6.1	0.00e+00	0	34	104	0	60	28004
2026-01-17 23:51:53.85	35.97	15.59	-45.0	-47.5	6.1	0.00e+00	0	34	104	0	60	28981
2026-01-17 23:51:54.82	36.15	15.73	-45.2	-47.5	6.1	0.00e+00	0	34	104	0	60	29127
2026-01-17 23:51:55.80	36.34	15.87	-45.2	-47.5	6.1	0.00e+00	0	34	104	0	60	29202
2026-01-17 23:51:56.77	36.52	16.02	-44.8	-47.3	6.1	0.00e+00	0	34	104	0	60	28300
2026-01-17 23:51:57.75	36.71	16.16	-44.9	-47.5	6.1	0.00e+00	0	34	104	0	60	29046
2026-01-17 23:51:58.72	36.90	16.31	-44.6	-47.1	6.1	0.00e+00	0	34	104	0	60	27735
2026-01-17 23:51:59.70	37.10	16.46	-45.0	-47.4	6.1	0.00e+00	0	34	104	0	60	28779
2026-01-17 23:52:00.68	37.30	16.61	-44.1	-46.7	6.1	0.00e+00	0	34	104	0	60	26587
2026-01-17 23:52:01.66	37.50	16.76	-44.5	-47.0	6.1	0.00e+00	0	34	104	0	60	27402
2026-01-17 23:52:02.64	37.70	16.91	-43.0	-45.7	6.2	0.00e+00	0	34	104	0	60	23564
2026-01-17 23:52:03.61	37.90	17.06	-42.5	-45.1	6.2	0.00e+00	0	34	104	0	60	22139
2026-01-17 23:52:04.59	38.11	17.21	-43.9	-46.5	6.1	0.00e+00	0	34	104	0	60	25856
2026-01-17 23:52:05.57	38.32	17.37	-45.0	-47.4	6.1	0.00e+00	0	34	104	0	60	28793
2026-01-17 23:52:06.55	38.53	17.52	-45.1	-47.5	6.1	0.00e+00	0	34	104	0	60	29026
2026-01-17 23:52:07.52	38.74	17.68	-45.1	-47.5	6.0	0.00e+00	0	34	104	0	60	29134
2026-01-17 23:52:08.50	38.96	17.84	-45.0	-47.4	6.0	0.00e+00	0	34	104	0	60	28612
2026-01-17 23:52:09.48	39.18	18.00	-44.8	-47.3	6.0	0.00e+00	0	34	104	0	60	28538
2026-01-17 23:52:10.45	39.40	18.15	-44.6	-47.2	6.1	0.00e+00	0	34	104	0	60	27941
2026-01-17 23:52:11.43	39.63	18.32	-44.6	-47.2	6.1	0.00e+00	0	34	104	0	60	28001
2026-01-17 23:52:12.41	39.86	18.48	-44.7	-47.2	6.1	0.00e+00	0	34	104	0	60	27992
2026-01-17 23:52:13.38	40.09	18.64	-44.6	-47.1	6.1	0.00e+00	0	34	104	0	60	27793
2026-01-17 23:52:14.35	40.32	18.80	-45.1	-47.6	6.1	0.00e+00	0	34	104	0	60	29221
2026-01-17 23:52:15.33	40.56	18.97	-45.1	-47.5	6.1	0.00e+00	0	34	104	0	60	29157
2026-01-17 23:52:16.30	40.80	19.13	-44.6	-47.0	6.1	0.00e+00	0	34	104	0	60	27546
2026-01-17 23:52:17.28	41.04	19.30	-44.9	-47.3	6.1	0.00e+00	0	34	104	0	60	28542
2026-01-17 23:52:18.26	41.29	19.47	-45.2	-47.6	6.1	0.00e+00	0	34	104	0	60	29271
2026-01-17 23:52:19.23	41.54	19.64	-45.2	-47.6	6.1	0.00e+00	0	34	104	0	60	29443
2026-01-17 23:52:20.21	41.79	19.81	-45.1	-47.5	6.1	0.00e+00	0	34	104	0	60	29111
2026-01-17 23:52:21.18	42.05	19.98	-45.2	-47.7	6.1	0.00e+00	0	34	104	0	60	29627
2026-01-17 23:52:22.15	42.31	20.16	-45.3	-47.7	6.1	0.00e+00	0	34	104	0	60	29694
2026-01-17 23:52:23.14	42.58	20.33	-44.8	-47.4	6.1	0.00e+00	0	34	104	0	60	28651
2026-01-17 23:52:24.11	42.84	20.51	-45.0	-47.4	6.1	0.00e+00	0	34	104	0	60	28587
2026-01-17 23:52:25.09	43.11	20.69	-45.3	-47.7	6.1	0.00e+00	0	34	104	0	60	29789
2026-01-17 23:52:26.07	43.39	20.87	-44.6	-47.5	6.1	0.00e+00	0	34	104	0	60	29100
2026-01-17 23:52:27.05	43.67	21.05	-44.7	-47.5	6.1	0.00e+00	0	34	104	0	60	28959
2026-01-17 23:52:28.03	43.96	21.23	-44.9	-47.6	6.1	0.00e+00	0	34	104	0	60	29330
2026-01-17 23:52:29.00	44.24	21.41	-44.5	-47.2	6.1	0.00e+00	0	34	104	0	60	27905
2026-01-17 23:52:29.98	44.53	21.59	-44.9	-47.3	6.1	0.00e+00	0	34	104	0	60	28515
2026-01-17 23:52:30.96	44.83	21.78	-44.3	-46.9	6.1	0.00e+00	0	34	104	0	60	27146
2026-01-17 23:52:31.94	45.13	21.96	-45.2	-47.6	6.1	0.00e+00	0	34	104	0	60	29525
2026-01-17 23:52:32.92	45.43	22.15	-45.3	-47.7	6.1	0.00e+00	0	34	104	0	60	29737
2026-01-17 23:52:33.90	45.74	22.34	-45.1	-47.6	6.1	0.00e+00	0	34	104	0	60	29249
2026-01-17 23:52:34.87	46.05	22.53	-44.4	-47.2	6.1	0.00e+00	0	34	104	0	60	27932
2026-01-17 23:52:35.85	46.37	22.72	-43.3	-46.2	6.1	0.00e+00	0	34	104	0	60	25006
2026-01-17 23:52:36.83	46.70	22.91	-44.7	-47.4	6.1	0.00e+00	0	34	104	0	60	28810
2026-01-17 23:52:37.81	47.02	23.11	-45.1	-47.6	6.1	0.00e+00	0	34	104	0	60	29547
2026-01-17 23:52:38.79	47.36	23.30	-45.0	-47.5	6.1	0.00e+00	0	34	104	0	60	28878
2026-01-17 23:52:39.77	47.69	23.50	-45.3	-47.7	6.1	0.00e+00	0	34	104	0	60	29846
2026-01-17 23:52:40.75	48.03	23.69	-45.0	-47.5	6.1	0.00e+00	0	34	104	0	60	29063
2026-01-17 23:52:41.73	48.38	23.89	-44.6	-47.1	6.1	0.00e+00	0	34	104	0	60	27693
2026-01-17 23:52:42.70	48.73	24.09	-45.0	-47.6	6.1	0.00e+00	0	34	104	0	60	29228
2026-01-17 23:52:43.68	49.09	24.29	-45.0	-47.7	6.1	0.00e+00	0	34	104	0	60	29878
2026-01-17 23:52:44.66	49.45	24.49	-45.5	-48.0	6.1	0.00e+00	0	34	104	0	60	30658
2026-01-17 23:52:45.64	49.82	24.69	-43.5	-46.1	6.1	0.00e+00	0	34	104	0	60	24846
2026-01-17 23:52:46.62	50.19	24.89	-43.6	-46.2	6.1	0.00e+00	0	34	104	0	60	25130
2026-01-17 23:52:47.59	50.57	25.09	-44.3	-47.1	6.1	0.00e+00	0	34	104	0	60	27679
2026-01-17 23:52:48.57	50.95	25.30	-43.9	-46.8	6.1	0.00e+00	0	34	104	0	60	26784
2026-01-17 23:52:49.54	51.34	25.50	-44.4	-47.1	6.1	0.00e+00	0	34	104	0	60	27844
2026-01-17 23:52:50.53	51.74	25.71	-45.3	-47.8	6.1	0.00e+00	0	34	104	0	60	30125
2026-01-17 23:52:51.51	52.14	25.92	-44.6	-47.3	6.1	0.00e+00	0	34	104	0	60	28318
2026-01-17 23:52:52.48	52.55	26.13	-45.0	-47.5	6.1	0.00e+00	0	34	104	0	60	28999
2026-01-17 23:52:53.46	52.96	26.34	-45.3	-47.8	6.1	0.00e+00	0	34	104	0	60	29929
2026-01-17 23:52:54.43	53.38	26.54	-45.2	-47.7	6.1	0.00e+00	0	34	104	0	60	29643
2026-01-17 23:52:55.41	53.81	26.75	-45.0	-47.6	6.1	0.00e+00	0	34	104	0	60	29432
2026-01-17 23:52:56.38	54.24	26.96	-45.1	-47.8	6.1	0.00e+00	0	34	104	0	60	29933
2026-01-17 23:52:57.36	54.68	27.17	-42.6	-45.5	6.2	0.00e+00	0	34	104	0	60	22979
2026-01-17 23:52:58.33	55.12	27.38	-42.8	-45.6	6.2	0.00e+00	0	34	104	0	60	23284
2026-01-17 23:52:59.31	55.57	27.60	-41.5	-44.3	6.4	0.00e+00	0	34	104	0	56	25159
2026-01-17 23:53:00.29	56.03	27.81	-45.4	-47.8	6.1	0.00e+00	0	34	104	0	60	29951
2026-01-17 23:53:01.26	56.50	28.02	-43.7	-46.3	6.1	0.00e+00	0	34	104	0	60	25197
2026-01-17 23:53:02.24	56.97	28.23	-45.4	-47.8	6.1	0.00e+00	0	34	104	0	60	30079
2026-01-17 23:53:03.21	57.45	28.45	-45.2	-47.7	6.1	0.00e+00	0	34	104	0	60	29558
2026-01-17 23:53:04.19	57.94	28.66	-45.4	-47.8	6.1	0.00e+00	0	34	104	0	60	30124
2026-01-17 23:53:05.17	58.44	28.87	-45.1	-47.6	6.1	0.00e+00	0	34	104	0	60	29256
2026-01-17 23:53:06.15	58.94	29.09	-45.4	-47.8	6.1	0.00e+00	0	34	104	0	60	30140
2026-01-17 23:53:07.12	59.45	29.30	-45.4	-47.8	6.1	0.00e+00	0	34	104	0	60	29923
2026-01-17 23:53:08.10	59.97	29.51	-42.7	-45.4	6.2	0.00e+00	0	34	104	0	60	22810
2026-01-17 23:53:09.08	60.49	29.73	-41.8	-44.6	6.4	0.00e+00	0	34	104	0	60	20737
2026-01-17 23:53:10.05	61.02	29.94	-43.7	-46.4	6.1	0.00e+00	0	34	104	0	60	25549
2026-01-17 23:53:11.03	61.56	30.15	-45.0	-47.6	6.1	0.00e+00	0	34	104	0	60	29431
2026-01-17 23:53:12.01	62.12	30.36	-44.9	-47.6	6.1	0.00e+00	0	34	104	0	60	29403
2026-01-17 23:53:12.99	62.67	30.58	-45.3	-47.8	6.1	0.00e+00	0	34	104	0	60	30151
2026-01-17 23:53:13.96	63.24	30.78	-45.0	-47.6	6.1	0.00e+00	0	34	104	0	60	29381
2026-01-17 23:53:14.94	63.81	30.99	-45.2	-47.7	6.1	0.00e+00	0	34	104	0	60	29804
2026-01-17 23:53:15.92	64.39	31.20	-45.0	-47.6	6.1	0.00e+00	0	34	104	0	60	29375
2026-01-17 23:53:16.90	64.99	31.41	-45.1	-47.5	6.1	0.00e+00	0	34	104	0	60	29116
2026-01-17 23:53:17.88	65.59	31.62	-45.3	-47.7	6.1	0.00e+00	0	34	104	0	60	29744
2026-01-17 23:53:18.86	66.20	31.82	-44.9	-47.4	6.1	0.00e+00	0	34	104	0	60	28727
2026-01-17 23:53:19.84	66.81	32.03	-45.0	-47.6	6.1	0.00e+00	0	34	104	0	60	29506
2026-01-17 23:53:20.81	67.43	32.23	-45.3	-47.7	6.1	0.00e+00	0	34	104	0	60	29642
2026-01-17 23:53:21.79	68.07	32.43	-45.2	-47.7	6.1	0.00e+00	0	34	104	0	60	29583
2026-01-17 23:53:22.76	68.70	32.62	-45.1	-47.6	6.1	0.00e+00	0	34	104	0	60	29416
2026-01-17 23:53:23.74	69.36	32.82	-44.8	-47.5	6.1	0.00e+00	0	34	104	0	60	29087
2026-01-17 23:53:24.71	70.01	33.01	-44.9	-47.6	6.1	0.00e+00	0	34	104	0	60	29401
2026-01-17 23:53:25.69	70.68	33.21	-45.2	-47.7	6.1	0.00e+00	0	34	104	0	60	29716
2026-01-17 23:53:26.67	71.36	33.39	-45.1	-47.7	6.1	0.00e+00	0	34	104	0	60	29608
2026-01-17 23:53:27.64	72.03	33.58	-45.3	-47.8	6.1	0.00e+00	0	34	104	0	60	30174
2026-01-17 23:53:28.62	72.73	33.76	-45.5	-47.9	6.1	0.00e+00	0	34	104	0	60	30368
2026-01-17 23:53:29.60	73.43	33.94	-45.1	-47.8	6.1	0.00e+00	0	34	104	0	60	29931
2026-01-17 23:53:30.58	74.14	34.12	-44.6	-47.5	6.1	0.00e+00	0	34	104	0	60	28996
2026-01-17 23:53:31.56	74.87	34.30	-44.7	-47.4	6.1	0.00e+00	0	34	104	0	60	28569
2026-01-17 23:53:32.54	75.59	34.47	-44.9	-47.4	6.1	0.00e+00	0	34	104	0	60	28822
2026-01-17 23:53:33.52	76.33	34.63	-45.2	-47.8	6.1	0.00e+00	0	34	104	0	60	30172
2026-01-17 23:53:34.49	77.07	34.80	-45.4	-47.8	6.1	0.00e+00	0	34	104	0	60	29961
2026-01-17 23:53:35.47	77.82	34.96	-45.4	-47.8	6.1	0.00e+00	0	34	104	0	60	30165
2026-01-17 23:53:36.45	78.58	35.11	-45.5	-47.8	6.1	0.00e+00	0	34	104	0	60	30197
2026-01-17 23:53:37.43	79.35	35.26	-45.2	-47.7	6.1	0.00e+00	0	34	104	0	60	29630
2026-01-17 23:53:38.40	80.12	35.41	-44.8	-47.3	6.1	0.00e+00	0	34	104	0	60	28528
2026-01-17 23:53:39.38	80.90	35.55	-45.5	-47.8	6.1	0.00e+00	0	34	104	0	60	30214
2026-01-17 23:53:40.36	81.70	35.69	-45.4	-47.8	6.0	0.00e+00	0	34	104	0	60	29986
2026-01-17 23:53:41.34	82.49	35.82	-45.4	-47.8	6.1	0.00e+00	0	34	104	0	60	30159
2026-01-17 23:53:42.31	83.29	35.94	-45.0	-47.5	6.1	0.00e+00	0	34	104	0	60	29039
2026-01-17 23:53:43.29	84.10	36.06	-43.7	-46.3	6.1	0.00e+00	0	34	104	0	60	25321
2026-01-17 23:53:44.27	84.92	36.18	-43.5	-46.3	6.1	0.00e+00	0	34	104	0	60	25248
2026-01-17 23:53:45.25	85.75	36.29	-44.1	-46.7	6.1	0.00e+00	0	34	104	0	60	26590
2026-01-17 23:53:46.23	86.58	36.40	-44.6	-47.2	6.1	0.00e+00	0	34	104	0	60	27991
2026-01-17 23:53:47.21	87.41	36.50	-45.4	-47.8	6.1	0.00e+00	0	34	104	0	60	30084
2026-01-17 23:53:48.19	88.26	36.59	-43.6	-46.2	6.2	0.00e+00	0	34	104	0	60	25122
2026-01-17 23:53:49.17	89.10	36.67	-44.5	-47.1	6.1	0.00e+00	0	34	104	0	60	27583
2026-01-17 23:53:50.15	89.95	36.76	-45.5	-47.9	6.1	0.00e+00	0	34	104	0	60	30393
2026-01-17 23:53:51.13	90.81	36.83	-45.3	-47.8	6.1	0.00e+00	0	34	104	0	60	30195
2026-01-17 23:53:52.11	91.67	36.90	-45.4	-47.8	6.1	0.00e+00	0	34	104	0	60	30222
2026-01-17 23:53:53.09	92.53	36.96	-45.5	-47.9	6.1	0.00e+00	0	34	104	0	60	30585
2026-01-17 23:53:54.07	93.40	37.01	-45.4	-47.8	6.1	0.00e+00	0	34	104	0	60	30007
2026-01-17 23:53:55.05	94.27	37.06	-45.0	-47.6	6.1	0.00e+00	0	34	104	0	60	29328
2026-01-17 23:53:56.03	95.14	37.10	-45.3	-47.7	6.1	0.00e+00	0	34	104	0	60	29716
2026-01-17 23:53:57.00	96.01	37.13	-45.1	-47.5	6.1	0.00e+00	0	34	104	0	60	29198
2026-01-17 23:53:57.99	96.89	37.16	-45.1	-47.5	6.1	0.00e+00	0	34	104	0	60	29049
2026-01-17 23:53:58.97	97.77	37.18	-45.5	-48.0	6.1	0.00e+00	0	34	104	0	60	30749
2026-01-17 23:53:59.95	98.65	37.19	-45.6	-48.0	6.1	0.00e+00	0	34	104	0	60	30624
2026-01-17 23:54:00.94	99.54	37.20	-45.4	-47.8	6.1	0.00e+00	0	34	104	0	60	30214
2026-01-17 23:54:01.93	100.43	37.20	-45.3	-47.7	6.1	0.00e+00	0	34	104	0	60	29655
2026-01-17 23:54:02.91	101.31	37.19	-45.4	-47.9	6.1	0.00e+00	0	34	104	0	60	30474
2026-01-17 23:54:03.90	102.20	37.17	-45.6	-48.0	6.1	0.00e+00	0	34	104	0	60	30745
2026-01-17 23:54:04.88	103.07	37.15	-45.2	-47.7	6.1	0.00e+00	0	34	104	0	60	29715
2026-01-17 23:54:05.86	103.95	37.12	-45.5	-47.9	6.1	0.00e+00	0	34	104	0	60	30557
2026-01-17 23:54:06.84	104.82	37.09	-45.3	-47.8	6.1	0.00e+00	0	34	104	0	60	30148
2026-01-17 23:54:07.82	105.70	37.04	-45.4	-47.9	6.1	0.00e+00	0	34	104	0	60	30427
2026-01-17 23:54:08.81	106.57	36.99	-45.4	-47.9	6.1	0.00e+00	0	34	104	0	60	30412
2026-01-17 23:54:09.79	107.44	36.94	-45.6	-48.0	6.1	0.00e+00	0	34	104	0	60	30689
2026-01-17 23:54:10.77	108.30	36.87	-45.5	-47.9	6.1	0.00e+00	0	34	104	0	60	30565
2026-01-17 23:54:11.76	109.17	36.80	-45.6	-48.0	6.1	0.00e+00	0	34	104	0	60	30931
2026-01-17 23:54:12.74	110.03	36.72	-45.7	-48.1	6.1	0.00e+00	0	34	104	0	60	31105
2026-01-17 23:54:13.72	110.88	36.64	-45.6	-48.0	6.1	0.00e+00	0	34	104	0	60	30833
2026-01-17 23:54:14.70	111.72	36.55	-45.3	-47.7	6.1	0.00e+00	0	34	104	0	60	29844
2026-01-17 23:54:15.67	112.56	36.46	-45.2	-47.7	6.1	0.00e+00	0	34	104	0	60	29640
2026-01-17 23:54:16.67	113.41	36.36	-45.4	-47.9	6.1	0.00e+00	0	34	104	0	60	30246
2026-01-17 23:54:17.66	114.25	36.25	-45.4	-47.9	6.1	0.00e+00	0	34	104	0	60	30551
2026-01-17 23:54:18.66	115.09	36.13	-45.5	-48.0	6.1	0.00e+00	0	34	104	0	60	30661
2026-01-17 23:54:19.66	115.92	36.01	-45.5	-47.9	6.1	0.00e+00	0	34	104	0	60	30367
2026-01-17 23:54:20.65	116.74	35.88	-45.4	-47.8	6.1	0.00e+00	0	34	104	0	60	30133
2026-01-17 23:54:21.64	117.55	35.75	-45.7	-48.1	6.1	0.00e+00	0	34	104	0	60	31243
2026-01-17 23:54:22.64	118.37	35.62	-45.7	-48.2	6.1	0.00e+00	0	34	104	0	60	31326
2026-01-17 23:54:23.63	119.17	35.47	-45.7	-48.2	6.1	0.00e+00	0	34	104	0	60	31386
2026-01-17 23:54:24.63	119.96	35.33	-45.6	-48.0	6.1	0.00e+00	0	34	104	0	60	30936
2026-01-17 23:54:25.64	120.76	35.17	-45.5	-48.0	6.0	0.00e+00	0	34	104	0	60	30762
2026-01-17 23:54:26.64	121.54	35.02	-45.7	-48.1	6.1	0.00e+00	0	34	104	0	60	31243
2026-01-17 23:54:27.65	122.33	34.85	-45.6	-48.0	6.1	0.00e+00	0	34	104	0	60	30784
2026-01-17 23:54:28.66	123.10	34.68	-45.5	-47.9	6.1	0.00e+00	0	34	104	0	60	30498
2026-01-17 23:54:29.66	123.86	34.51	-45.6	-48.0	6.1	0.00e+00	0	34	104	0	60	30717
2026-01-17 23:54:30.67	124.61	34.34	-45.6	-47.9	6.1	0.00e+00	0	34	104	0	60	30551
2026-01-17 23:54:31.67	125.35	34.16	-45.6	-48.0	6.1	0.00e+00	0	34	104	0	60	30902
2026-01-17 23:54:32.67	126.08	33.98	-45.6	-48.1	6.1	0.00e+00	0	34	104	0	60	30944
2026-01-17 23:54:33.67	126.80	33.79	-45.6	-47.9	6.1	0.00e+00	0	34	104	0	60	30507
2026-01-17 23:54:34.66	127.51	33.61	-45.5	-47.9	6.1	0.00e+00	0	34	104	0	60	30509
2026-01-17 23:54:35.66	128.21	33.42	-45.4	-47.9	6.1	0.00e+00	0	34	104	0	60	30261
2026-01-17 23:54:36.65	128.90	33.23	-45.5	-47.8	6.1	0.00e+00	0	34	104	0	60	30139
2026-01-17 23:54:37.65	129.59	33.03	-45.6	-47.9	6.1	0.00e+00	0	34	104	0	60	30551
2026-01-17 23:54:38.64	130.26	32.83	-45.5	-47.9	6.1	0.00e+00	0	34	104	0	60	30390
2026-01-17 23:54:39.64	130.93	32.63	-45.6	-47.9	6.1	0.00e+00	0	34	104	0	60	30466
2026-01-17 23:54:40.64	131.59	32.43	-45.6	-48.0	6.1	0.00e+00	0	34	104	0	60	30756
2026-01-17 23:54:41.64	132.24	32.22	-45.1	-47.6	6.1	0.00e+00	0	34	104	0	60	29297
2026-01-17 23:54:42.63	132.87	32.02	-45.2	-47.6	6.1	0.00e+00	0	35	104	0	60	29433
2026-01-17 23:54:43.62	133.50	31.81	-45.6	-48.0	6.0	0.00e+00	0	34	104	0	60	30596
2026-01-17 23:54:44.62	134.12	31.60	-45.6	-48.0	6.1	0.00e+00	0	35	104	0	60	30631
2026-01-17 23:54:45.61	134.73	31.39	-45.5	-47.9	6.1	0.00e+00	0	34	104	0	60	30448
2026-01-17 23:54:46.61	135.34	31.18	-45.5	-47.9	6.1	0.00e+00	0	34	104	0	60	30249
2026-01-17 23:54:47.61	135.93	30.96	-45.2	-47.6	6.1	0.00e+00	0	34	104	0	60	29484
2026-01-17 23:54:48.60	136.52	30.75	-45.6	-48.0	6.1	0.00e+00	0	34	104	0	60	30743
2026-01-17 23:54:49.60	137.10	30.53	-45.6	-48.0	6.1	0.00e+00	0	34	104	0	60	30728
2026-01-17 23:54:50.59	137.66	30.32	-45.7	-48.1	6.1	0.00e+00	0	34	104	0	60	31026
2026-01-17 23:54:51.60	138.23	30.10	-45.6	-47.9	6.1	0.00e+00	0	34	104	0	60	30500
2026-01-17 23:54:52.61	138.79	29.88	-45.6	-47.9	6.1	0.00e+00	0	34	104	0	60	30480
2026-01-17 23:54:53.62	139.34	29.66	-45.6	-48.0	6.1	0.00e+00	0	34	104	0	60	30791
2026-01-17 23:54:54.63	139.89	29.43	-45.6	-48.0	6.1	0.00e+00	0	34	104	0	60	30708
2026-01-17 23:54:55.64	140.42	29.21	-45.6	-48.0	6.1	0.00e+00	0	34	104	0	60	30639
2026-01-17 23:54:56.65	140.95	28.99	-45.6	-47.9	6.1	0.00e+00	0	34	104	0	60	30541
2026-01-17 23:54:57.66	141.47	28.77	-45.6	-48.0	6.1	0.00e+00	0	34	104	0	60	30713
2026-01-17 23:54:58.67	141.98	28.55	-45.6	-47.9	6.1	0.00e+00	0	34	104	0	60	30566
2026-01-17 23:54:59.68	142.48	28.32	-45.5	-47.8	6.1	0.00e+00	0	34	104	0	60	30230
2026-01-17 23:55:00.69	142.98	28.10	-45.5	-47.9	6.1	0.00e+00	0	34	104	0	60	30244
2026-01-17 23:55:01.70	143.47	27.88	-45.5	-47.9	6.1	0.00e+00	0	34	104	0	60	30386
2026-01-17 23:55:02.71	143.95	27.66	-45.3	-47.6	6.1	0.00e+00	0	34	104	0	60	29548
2026-01-17 23:55:03.71	144.42	27.44	-45.4	-47.8	6.1	0.00e+00	0	34	104	0	60	30124
2026-01-17 23:55:04.72	144.88	27.22	-45.5	-47.8	6.1	0.00e+00	0	34	104	0	60	30091
2026-01-17 23:55:05.73	145.34	27.00	-45.4	-47.8	6.0	0.00e+00	0	34	104	0	60	30130
2026-01-17 23:55:06.74	145.79	26.78	-45.4	-47.9	6.1	0.00e+00	0	34	104	0	60	30280
2026-01-17 23:55:07.74	146.23	26.56	-45.4	-47.8	6.1	0.00e+00	0	34	104	0	60	30089
2026-01-17 23:55:08.75	146.67	26.35	-45.4	-47.8	6.1	0.00e+00	0	34	104	0	60	29912
2026-01-17 23:55:09.76	147.10	26.13	-45.4	-47.8	6.1	0.00e+00	0	34	104	0	60	30027
2026-01-17 23:55:10.77	147.52	25.91	-45.4	-47.8	6.1	0.00e+00	0	34	104	0	60	29905
2026-01-17 23:55:11.78	147.94	25.70	-45.3	-47.7	6.1	0.00e+00	0	34	104	0	60	29819
2026-01-17 23:55:12.79	148.35	25.48	-45.4	-47.8	6.1	0.00e+00	0	34	104	0	60	30108
2026-01-17 23:55:13.80	148.76	25.27	-45.4	-47.7	6.1	0.00e+00	0	34	104	0	60	29723
2026-01-17 23:55:14.81	149.16	25.06	-45.4	-47.7	6.1	0.00e+00	0	34	104	0	60	29665
2026-01-17 23:55:15.82	149.55	24.85	-45.4	-47.7	6.1	0.00e+00	0	34	104	0	60	29843
2026-01-17 23:55:16.83	149.94	24.64	-45.4	-47.7	6.1	0.00e+00	0	34	104	0	60	29853
2026-01-17 23:55:17.84	150.32	24.43	-45.2	-47.6	6.1	0.00e+00	0	34	104	0	60	29505
2026-01-17 23:55:18.85	150.69	24.22	-45.2	-47.6	6.1	0.00e+00	0	34	104	0	60	29517
2026-01-17 23:55:19.86	151.06	24.01	-45.3	-47.7	6.1	0.00e+00	0	34	104	0	60	29766
2026-01-17 23:55:20.87	151.43	23.80	-45.3	-47.7	6.1	0.00e+00	0	34	104	0	60	29715
2026-01-17 23:55:21.88	151.78	23.60	-45.3	-47.7	6.1	0.00e+00	0	34	104	0	60	29574
2026-01-17 23:55:22.89	152.14	23.39	-45.2	-47.6	6.1	0.00e+00	0	34	104	0	60	29503
2026-01-17 23:55:23.90	152.49	23.19	-45.3	-47.7	6.1	0.00e+00	0	34	104	0	60	29613
2026-01-17 23:55:24.91	152.83	22.99	-45.2	-47.6	6.1	0.00e+00	0	34	104	0	60	29494
2026-01-17 23:55:25.92	153.17	22.79	-45.3	-47.6	6.1	0.00e+00	0	35	104	0	60	29463
2026-01-17 23:55:26.93	153.50	22.59	-45.1	-47.5	6.1	0.00e+00	0	34	104	0	60	29093
2026-01-17 23:55:27.94	153.83	22.39	-45.2	-47.5	6.0	0.00e+00	0	34	104	0	60	29135
2026-01-17 23:55:28.95	154.15	22.20	-45.3	-47.6	6.1	0.00e+00	0	34	104	0	60	29519
2026-01-17 23:55:29.96	154.47	22.00	-45.3	-47.6	6.1	0.00e+00	0	34	104	0	60	29385
2026-01-17 23:55:30.97	154.78	21.81	-45.3	-47.6	6.1	0.00e+00	0	34	104	0	60	29454
2026-01-17 23:55:31.97	155.09	21.62	-45.1	-47.5	6.1	0.00e+00	0	34	104	0	60	29172
2026-01-17 23:55:32.98	155.39	21.43	-45.2	-47.6	6.1	0.00e+00	0	34	104	0	60	29255
2026-01-17 23:55:33.99	155.69	21.23	-45.3	-47.7	6.1	0.00e+00	0	34	104	0	60	29630
2026-01-17 23:55:35.00	155.99	21.05	-45.3	-47.6	6.1	0.00e+00	0	34	104	0	60	29453
2026-01-17 23:55:36.01	156.28	20.86	-45.1	-47.4	6.1	0.00e+00	0	34	104	0	60	28854
2026-01-17 23:55:37.02	156.57	20.67	-45.2	-47.7	6.1	0.00e+00	0	34	104	0	60	29609
2026-01-17 23:55:38.03	156.85	20.49	-45.1	-47.5	6.1	0.00e+00	0	34	104	0	60	28940
2026-01-17 23:55:39.04	157.13	20.30	-45.2	-47.6	6.1	0.00e+00	0	34	104	0	60	29403
2026-01-17 23:55:40.05	157.40	20.12	-45.2	-47.6	6.1	0.00e+00	0	34	104	0	60	29524
2026-01-17 23:55:41.06	157.67	19.94	-45.1	-47.6	6.1	0.00e+00	0	34	104	0	60	29238
2026-01-17 23:55:42.06	157.94	19.76	-45.1	-47.6	6.1	0.00e+00	0	34	104	0	60	29282
2026-01-17 23:55:43.07	158.20	19.58	-45.1	-47.5	6.1	0.00e+00	0	34	104	0	60	29007
2026-01-17 23:55:44.08	158.46	19.41	-45.2	-47.6	6.1	0.00e+00	0	34	104	0	60	29246
2026-01-17 23:55:45.09	158.72	19.23	-45.2	-47.6	6.1	0.00e+00	0	34	104	0	60	29354
2026-01-17 23:55:46.10	158.97	19.06	-45.1	-47.5	6.1	0.00e+00	0	34	104	0	60	29071
2026-01-17 23:55:47.11	159.22	18.88	-45.2	-47.5	6.1	0.00e+00	0	34	104	0	60	29031
2026-01-17 23:55:48.12	159.47	18.71	-45.2	-47.5	6.1	0.00e+00	0	34	104	0	60	29191
2026-01-17 23:55:49.12	159.71	18.54	-45.2	-47.5	6.1	0.00e+00	0	34	104	0	60	29069
2026-01-17 23:55:50.14	159.95	18.37	-44.9	-47.3	6.1	0.00e+00	0	34	104	0	60	28320
2026-01-17 23:55:51.15	160.19	18.20	-44.9	-46.6	6.1	0.00e+00	0	34	104	0	60	26057
2026-01-17 23:55:52.15	160.42	18.04	-45.0	-47.4	6.1	0.00e+00	0	34	104	0	60	28770
2026-01-17 23:55:53.16	160.65	17.87	-45.1	-47.5	6.1	0.00e+00	0	34	104	0	60	29083
2026-01-17 23:55:54.17	160.88	17.70	-45.1	-47.5	6.1	0.00e+00	0	34	104	0	60	29156
2026-01-17 23:55:55.18	161.10	17.54	-45.0	-47.4	6.1	0.00e+00	0	34	104	0	60	28701
2026-01-17 23:55:56.19	161.32	17.38	-45.2	-47.5	6.1	0.00e+00	0	34	104	0	60	29124
2026-01-17 23:55:57.20	161.54	17.22	-45.2	-47.6	6.1	0.00e+00	0	34	104	0	60	29414
2026-01-17 23:55:58.21	161.76	17.06	-45.1	-47.5	6.1	0.00e+00	0	34	104	0	60	29104
2026-01-17 23:55:59.22	161.97	16.90	-45.1	-47.5	6.1	0.00e+00	0	34	104	0	60	29021
2026-01-17 23:56:00.23	162.18	16.74	-44.9	-47.3	6.1	0.00e+00	0	34	104	0	60	28544
2026-01-17 23:56:01.24	162.39	16.59	-45.0	-47.4	6.1	0.00e+00	0	34	104	0	60	28801
2026-01-17 23:56:02.25	162.59	16.43	-45.0	-47.4	6.1	0.00e+00	0	35	104	0	60	28666
2026-01-17 23:56:03.26	162.80	16.28	-45.0	-47.4	6.1	0.00e+00	0	34	104	0	60	28612
2026-01-17 23:56:04.27	163.00	16.12	-44.9	-47.4	6.1	0.00e+00	0	34	104	0	60	28548
2026-01-17 23:56:05.27	163.19	15.97	-45.0	-47.4	6.1	0.00e+00	0	34	104	0	60	28851
2026-01-17 23:56:06.29	163.39	15.82	-45.0	-47.5	6.1	0.00e+00	0	34	104	0	60	28886
2026-01-17 23:56:07.29	163.58	15.67	-44.9	-47.4	6.1	0.00e+00	0	34	104	0	60	28641
2026-01-17 23:56:08.30	163.77	15.52	-45.0	-47.4	6.1	0.00e+00	0	34	104	0	60	28854
2026-01-17 23:56:09.31	163.96	15.38	-45.1	-47.6	6.1	0.00e+00	0	34	104	0	60	29298
2026-01-17 23:56:10.32	164.14	15.23	-45.1	-47.5	6.1	0.00e+00	0	35	104	0	60	29059
2026-01-17 23:56:11.33	164.33	15.08	-45.1	-47.5	6.1	0.00e+00	0	34	104	0	60	28924
2026-01-17 23:56:12.34	164.51	14.94	-45.1	-47.5	6.1	0.00e+00	0	34	104	0	60	29032
2026-01-17 23:56:13.35	164.69	14.80	-45.0	-47.4	6.1	0.00e+00	0	34	104	0	60	28856
2026-01-17 23:56:14.36	164.86	14.65	-45.0	-47.4	6.1	0.00e+00	0	34	104	0	60	28824
2026-01-17 23:56:15.37	165.04	14.51	-45.1	-47.5	6.1	0.00e+00	0	34	104	0	60	28996
2026-01-17 23:56:16.38	165.21	14.37	-45.0	-47.4	6.1	0.00e+00	0	34	104	0	60	28841
2026-01-17 23:56:17.39	165.38	14.23	-44.9	-47.3	6.1	0.00e+00	0	34	104	0	60	28474
2026-01-17 23:56:18.40	165.55	14.10	-45.0	-47.4	6.1	0.00e+00	0	35	104	0	60	28701
2026-01-17 23:56:19.41	165.72	13.96	-44.9	-47.3	6.1	0.00e+00	0	35	104	0	60	28454
2026-01-17 23:56:20.42	165.88	13.82	-45.0	-47.5	6.1	0.00e+00	0	35	104	0	60	28879
2026-01-17 23:56:21.43	166.04	13.69	-45.1	-47.5	6.1	0.00e+00	0	34	104	0	60	29083
2026-01-17 23:56:22.43	166.20	13.55	-45.1	-47.5	6.1	0.00e+00	0	34	104	0	60	28883
2026-01-17 23:56:23.44	166.36	13.42	-45.0	-47.4	6.1	0.00e+00	0	34	104	0	60	28604
2026-01-17 23:56:24.45	166.52	13.29	-45.1	-47.5	6.1	0.00e+00	0	34	104	0	60	29005
2026-01-17 23:56:25.46	166.67	13.16	-45.0	-47.5	6.1	0.00e+00	0	34	104	0	60	28916
2026-01-17 23:56:26.47	166.83	13.02	-45.0	-47.4	6.1	0.00e+00	0	35	104	0	60	28810
2026-01-17 23:56:27.48	166.98	12.89	-45.1	-47.4	6.1	0.00e+00	0	35	104	0	60	28791
2026-01-17 23:56:28.49	167.13	12.77	-45.0	-47.4	6.1	0.00e+00	0	35	104	0	60	28661
2026-01-17 23:56:29.50	167.28	12.64	-44.9	-47.4	6.1	0.00e+00	0	34	104	0	60	28695
2026-01-17 23:56:30.51	167.42	12.51	-44.8	-47.3	6.1	0.00e+00	0	35	104	0	60	28420
2026-01-17 23:56:31.51	167.57	12.39	-44.9	-47.3	6.1	0.00e+00	0	34	104	0	60	28535
2026-01-17 23:56:32.52	167.71	12.26	-44.7	-47.2	6.1	0.00e+00	0	35	104	0	60	27912
2026-01-17 23:56:33.53	167.85	12.14	-45.0	-47.4	6.1	0.00e+00	0	35	104	0	60	28690
2026-01-17 23:56:34.54	168.00	12.01	-44.8	-47.2	6.1	0.00e+00	0	34	104	0	60	28181
2026-01-17 23:56:35.55	168.13	11.89	-44.9	-47.3	6.1	0.00e+00	0	35	104	0	60	28358
2026-01-17 23:56:36.56	168.27	11.77	-45.1	-47.5	6.1	0.00e+00	0	35	104	0	60	28960
2026-01-17 23:56:37.57	168.41	11.65	-45.0	-47.4	6.1	0.00e+00	0	34	104	0	60	28703
2026-01-17 23:56:38.57	168.54	11.53	-45.0	-47.4	6.1	0.00e+00	0	35	104	0	60	28565
2026-01-17 23:56:39.58	168.68	11.41	-44.8	-47.2	6.1	0.00e+00	0	35	104	0	60	28189
2026-01-17 23:56:40.59	168.81	11.29	-45.1	-47.5	6.1	0.00e+00	0	34	104	0	60	28960
2026-01-17 23:56:41.60	168.94	11.17	-45.0	-47.4	6.1	0.00e+00	0	34	104	0	60	28667
2026-01-17 23:56:42.61	169.07	11.05	-45.0	-47.4	6.1	0.00e+00	0	35	104	0	60	28554
2026-01-17 23:56:43.62	169.20	10.93	-44.8	-47.2	6.1	0.00e+00	0	34	104	0	60	28128
2026-01-17 23:56:44.63	169.32	10.82	-45.0	-47.4	6.1	0.00e+00	0	35	104	0	60	28702
2026-01-17 23:56:45.64	169.45	10.70	-44.9	-47.3	6.1	0.00e+00	0	35	104	0	60	28319
2026-01-17 23:56:46.65	169.57	10.59	-44.9	-47.2	6.1	0.00e+00	0	34	104	0	60	28217
2026-01-17 23:56:47.66	169.69	10.48	-44.9	-47.3	6.1	0.00e+00	0	34	104	0	60	28430
2026-01-17 23:56:48.66	169.81	10.36	-44.9	-47.3	6.1	0.00e+00	0	35	104	0	60	28400
2026-01-17 23:56:49.67	169.93	10.25	-44.8	-47.2	6.0	0.00e+00	0	35	104	0	60	27973
2026-01-17 23:56:50.68	170.05	10.14	-44.9	-47.3	6.1	0.00e+00	0	34	104	0	60	28304
2026-01-17 23:56:51.69	170.17	10.03	-44.9	-47.3	6.0	0.00e+00	0	34	104	0	60	28248
2026-01-17 23:56:52.70	170.29	9.92	-44.8	-47.2	6.1	0.00e+00	0	34	104	0	60	28046
2026-01-17 23:56:53.71	170.40	9.81	-44.7	-47.1	6.1	0.00e+00	0	35	104	0	60	27723
2026-01-17 23:56:54.72	170.52	9.70	-44.9	-47.3	6.1	0.00e+00	0	35	104	0	60	28313
2026-01-17 23:56:55.73	170.63	9.59	-44.8	-47.1	6.1	0.00e+00	0	34	104	0	60	27796
2026-01-17 23:56:56.74	170.74	9.48	-44.7	-47.2	6.1	0.00e+00	0	34	104	0	60	27940
2026-01-17 23:56:57.74	170.85	9.38	-44.7	-47.1	6.1	0.00e+00	0	34	104	0	60	27810
2026-01-17 23:56:58.76	170.97	9.27	-44.6	-47.0	6.1	0.00e+00	0	34	104	0	60	27526
2026-01-17 23:56:59.76	171.07	9.17	-44.6	-47.0	6.1	0.00e+00	0	34	104	0	60	27458
2026-01-17 23:57:00.77	171.18	9.06	-44.7	-47.2	6.1	0.00e+00	0	34	104	0	60	27927
2026-01-17 23:57:01.78	171.29	8.96	-44.7	-47.1	6.1	0.00e+00	0	34	104	0	60	27748
2026-01-17 23:57:02.79	171.39	8.85	-44.8	-47.2	6.1	0.00e+00	0	34	104	0	60	28024
2026-01-17 23:57:03.80	171.50	8.75	-44.4	-46.9	6.1	0.00e+00	0	35	104	0	60	26965
2026-01-17 23:57:04.81	171.60	8.65	-44.8	-47.2	6.1	0.00e+00	0	34	104	0	60	28069
2026-01-17 23:57:05.82	171.71	8.54	-44.7	-47.2	6.1	0.00e+00	0	34	104	0	60	27967
2026-01-17 23:57:06.83	171.81	8.44	-44.7	-47.0	6.1	0.00e+00	0	35	104	0	60	27500
2026-01-17 23:57:07.84	171.91	8.34	-44.7	-47.1	6.1	0.00e+00	0	34	104	0	60	27747
2026-01-17 23:57:08.85	172.01	8.24	-44.6	-47.1	6.1	0.00e+00	0	34	104	0	60	27659
2026-01-17 23:57:09.86	172.11	8.14	-44.7	-47.1	6.1	0.00e+00	0	34	104	0	60	27607
2026-01-17 23:57:10.87	172.21	8.04	-44.6	-47.0	6.1	0.00e+00	0	34	104	0	60	27465
2026-01-17 23:57:11.87	172.30	7.94	-44.5	-46.9	6.1	0.00e+00	0	35	104	0	60	26952
2026-01-17 23:57:12.88	172.40	7.85	-44.6	-47.0	6.1	0.00e+00	0	35	104	0	60	27475
2026-01-17 23:57:13.90	172.50	7.75	-44.4	-46.9	6.1	0.00e+00	0	35	104	0	60	26975
2026-01-17 23:57:14.91	172.59	7.65	-44.7	-47.1	6.1	0.00e+00	0	34	104	0	60	27685
2026-01-17 23:57:15.92	172.69	7.55	-44.4	-46.8	6.1	0.00e+00	0	35	104	0	60	26947
2026-01-17 23:57:16.93	172.78	7.46	-44.7	-47.1	6.1	0.00e+00	0	34	104	0	60	27622
2026-01-17 23:57:17.94	172.87	7.36	-44.4	-46.8	6.1	0.00e+00	0	35	104	0	60	26857
2026-01-17 23:57:18.95	172.96	7.27	-44.3	-46.8	6.1	0.00e+00	0	34	104	0	60	26688
2026-01-17 23:57:19.95	173.05	7.17	-44.3	-46.7	6.1	0.00e+00	0	34	104	0	60	26523
2026-01-17 23:57:20.96	173.14	7.08	-44.5	-46.9	6.1	0.00e+00	0	34	104	0	60	27200
2026-01-17 23:57:21.97	173.23	6.98	-44.6	-46.9	6.1	0.00e+00	0	34	104	0	60	27178
2026-01-17 23:57:22.98	173.32	6.89	-44.7	-47.0	6.1	0.00e+00	0	34	104	0	60	27556
2026-01-17 23:57:23.99	173.41	6.80	-44.6	-47.0	6.1	0.00e+00	0	34	104	0	60	27307
2026-01-17 23:57:25.00	173.50	6.71	-44.7	-47.1	6.1	0.00e+00	0	35	104	0	60	27696
2026-01-17 23:57:26.01	173.58	6.62	-44.4	-46.7	6.1	0.00e+00	0	35	104	0	60	26523
2026-01-17 23:57:27.02	173.67	6.52	-44.5	-47.0	6.1	0.00e+00	0	35	104	0	60	27338
2026-01-17 23:57:28.03	173.75	6.43	-44.4	-46.8	6.1	0.00e+00	0	34	104	0	60	26778
2026-01-17 23:57:29.04	173.84	6.34	-44.7	-47.1	6.1	0.00e+00	0	34	104	0	60	27760
2026-01-17 23:57:30.05	173.92	6.25	-44.2	-46.6	6.0	0.00e+00	0	34	104	0	60	26099
2026-01-17 23:57:31.06	174.00	6.16	-44.7	-47.1	6.1	0.00e+00	0	34	104	0	60	27811
2026-01-17 23:57:32.07	174.09	6.07	-44.3	-46.6	6.1	0.00e+00	0	34	104	0	60	26215
2026-01-17 23:57:33.08	174.17	5.99	-44.5	-46.9	6.1	0.00e+00	0	34	104	0	60	27147
2026-01-17 23:57:34.09	174.25	5.90	-42.5	-44.9	6.1	0.00e+00	0	35	104	0	60	21513
2026-01-17 23:57:35.09	174.33	5.81	-44.4	-46.8	6.1	0.00e+00	0	34	104	0	60	26781
2026-01-17 23:57:36.10	174.41	5.72	-42.5	-44.9	6.1	0.00e+00	0	34	104	0	60	21609
2026-01-17 23:57:37.11	174.49	5.64	-40.1	-42.6	6.1	0.00e+00	0	34	104	0	56	20744
2026-01-17 23:57:38.12	174.56	5.55	-34.6	-37.0	6.1	0.00e+00	0	34	104	0	46	19385
2026-01-17 23:57:39.13	174.64	5.47	-29.9	-32.3	6.1	0.00e+00	0	35	104	0	36	20118
2026-01-17 23:57:40.14	174.72	5.38	-31.2	-33.7	6.1	0.00e+00	0	34	104	0	36	23510
2026-01-17 23:57:41.15	174.79	5.29	-30.7	-33.2	6.1	0.00e+00	0	35	104	0	34	24890
2026-01-17 23:57:42.16	174.87	5.21	-42.7	-45.2	6.1	0.00e+00	0	35	104	0	60	22248
2026-01-17 23:57:43.17	174.95	5.13	-33.1	-35.5	6.1	0.00e+00	0	35	104	0	42	20607
2026-01-17 23:57:44.18	175.02	5.04	-43.3	-45.7	6.1	0.00e+00	0	35	104	0	60	23612
2026-01-17 23:57:45.19	175.09	4.96	-36.3	-38.7	6.1	0.00e+00	0	35	104	0	48	21045
2026-01-17 23:57:46.20	175.17	4.87	-38.9	-41.3	6.1	0.00e+00	0	35	104	0	50	25391
2026-01-17 23:57:47.20	175.24	4.79	-41.4	-43.8	6.1	0.00e+00	0	34	104	0	56	23874
2026-01-17 23:57:48.21	175.31	4.71	-42.3	-44.7	6.1	0.00e+00	0	34	104	0	58	23483
2026-01-17 23:57:49.22	175.38	4.63	-43.6	-46.0	6.1	0.00e+00	0	35	104	0	60	24317
2026-01-17 23:57:50.23	175.45	4.55	-43.2	-45.6	6.1	0.00e+00	0	34	104	0	60	23221
2026-01-17 23:57:51.24	175.53	4.46	-30.3	-32.7	6.1	0.00e+00	0	34	104	0	36	21073
2026-01-17 23:57:52.25	175.60	4.38	-32.4	-34.8	6.1	0.00e+00	0	35	104	0	42	19036
2026-01-17 23:57:53.26	175.66	4.30	-42.7	-45.1	6.1	0.00e+00	0	34	104	0	60	21931
2026-01-17 23:57:54.27	175.73	4.22	-36.4	-38.8	6.1	0.00e+00	0	35	104	0	48	21267
2026-01-17 23:57:55.28	175.80	4.14	-39.3	-41.7	6.1	0.00e+00	0	35	104	0	52	23616
2026-01-17 23:57:56.29	175.87	4.06	-41.4	-43.8	6.1	0.00e+00	0	35	104	0	56	23950
2026-01-17 23:57:57.30	175.94	3.98	-42.4	-44.8	6.1	0.00e+00	0	35	104	0	58	23836
2026-01-17 23:57:58.31	176.00	3.90	-43.4	-45.8	6.1	0.00e+00	0	34	104	0	60	23767
2026-01-17 23:57:59.32	176.07	3.83	-43.7	-46.2	6.1	0.00e+00	0	34	104	0	60	24908
2026-01-17 23:58:00.33	176.14	3.75	-44.5	-46.8	6.1	0.00e+00	0	35	104	0	60	26936
2026-01-17 23:58:01.33	176.20	3.67	-44.3	-46.7	6.1	0.00e+00	0	35	104	0	60	26453
2026-01-17 23:58:02.35	176.27	3.59	-43.9	-46.4	6.1	0.00e+00	0	34	104	0	60	25534
2026-01-17 23:58:03.35	176.33	3.51	-43.7	-46.2	6.1	0.00e+00	0	34	104	0	60	24938
2026-01-17 23:58:04.36	176.40	3.44	-43.7	-46.1	6.1	0.00e+00	0	34	104	0	60	24846
2026-01-17 23:58:05.37	176.46	3.36	-43.7	-46.1	6.1	0.00e+00	0	35	104	0	60	24740
2026-01-17 23:58:06.38	176.52	3.28	-43.6	-46.1	6.1	0.00e+00	0	35	104	0	60	24584
2026-01-17 23:58:07.39	176.59	3.21	-43.6	-46.0	6.1	0.00e+00	0	34	104	0	60	24476
2026-01-17 23:58:08.40	176.65	3.13	-43.7	-46.1	6.1	0.00e+00	0	34	104	0	60	24680
2026-01-17 23:58:09.40	176.71	3.06	-43.5	-46.0	6.1	0.00e+00	0	34	104	0	60	24352
2026-01-17 23:58:10.41	176.77	2.98	-43.5	-45.9	6.1	0.00e+00	0	35	104	0	60	24182
2026-01-17 23:58:11.42	176.83	2.91	-44.3	-46.7	6.1	0.00e+00	0	34	104	0	60	26519
2026-01-17 23:58:12.43	176.89	2.83	-44.6	-47.1	6.1	0.00e+00	0	35	104	0	60	27646
2026-01-17 23:58:13.44	176.95	2.76	-45.1	-47.5	6.1	0.00e+00	0	35	104	0	60	29189
2026-01-17 23:58:14.45	177.01	2.68	-44.9	-47.3	6.1	0.00e+00	0	35	104	0	60	28504
2026-01-17 23:58:15.47	177.07	2.61	-44.8	-47.2	6.1	0.00e+00	0	35	104	0	60	28133
2026-01-17 23:58:16.48	177.13	2.54	-44.9	-47.4	6.1	0.00e+00	0	35	104	0	60	28776
2026-01-17 23:58:17.49	177.19	2.46	-44.8	-47.3	6.1	0.00e+00	0	34	104	0	60	28528
2026-01-17 23:58:18.50	177.25	2.39	-44.8	-47.3	6.1	0.00e+00	0	35	104	0	60	28295
2026-01-17 23:58:19.51	177.31	2.32	-45.0	-47.5	6.1	0.00e+00	0	34	104	0	60	29000
2026-01-17 23:58:20.52	177.36	2.24	-45.2	-47.7	6.1	0.00e+00	0	35	104	0	60	29734
2026-01-17 23:58:21.53	177.42	2.17	-45.4	-47.8	6.1	0.00e+00	0	35	104	0	60	30138
2026-01-17 23:58:22.54	177.48	2.10	-45.5	-47.9	6.1	0.00e+00	0	35	104	0	60	30255
2026-01-17 23:58:23.55	177.53	2.03	-45.4	-47.8	6.1	0.00e+00	0	35	104	0	60	30218
2026-01-17 23:58:24.56	177.59	1.96	-45.3	-47.8	6.1	0.00e+00	0	35	104	0	60	30035
2026-01-17 23:58:25.57	177.65	1.89	-45.6	-48.0	6.1	0.00e+00	0	35	104	0	60	30754
2026-01-17 23:58:26.58	177.70	1.82	-45.7	-48.0	6.1	0.00e+00	0	35	104	0	60	30808
2026-01-17 23:58:27.58	177.75	1.75	-45.3	-47.8	6.1	0.00e+00	0	35	104	0	60	29904
2026-01-17 23:58:28.60	177.81	1.67	-45.4	-47.9	6.1	0.00e+00	0	35	104	0	60	30409
2026-01-17 23:58:29.61	177.86	1.60	-45.4	-47.8	6.1	0.00e+00	0	35	104	0	60	29955
2026-01-17 23:58:30.62	177.92	1.53	-45.5	-48.0	6.1	0.00e+00	0	35	104	0	60	30652
2026-01-17 23:58:31.63	177.97	1.46	-45.4	-47.9	6.1	0.00e+00	0	35	104	0	60	30407
2026-01-17 23:58:32.64	178.02	1.40	-45.6	-48.0	6.1	0.00e+00	0	35	104	0	60	30801
2026-01-17 23:58:33.65	178.08	1.33	-45.5	-47.9	6.1	0.00e+00	0	35	104	0	60	30269
2026-01-17 23:58:34.66	178.13	1.26	-45.6	-48.0	6.1	0.00e+00	0	34	104	0	60	30881
2026-01-17 23:58:35.67	178.18	1.19	-45.9	-48.2	6.1	0.00e+00	0	35	104	0	60	31628
2026-01-17 23:58:36.68	178.23	1.12	-45.7	-48.1	6.0	0.00e+00	0	34	104	0	60	31037
2026-01-17 23:58:37.69	178.28	1.05	-45.8	-48.2	6.1	0.00e+00	0	34	104	0	60	31537
2026-01-17 23:58:38.70	178.34	0.98	-45.7	-48.1	6.1	0.00e+00	0	35	104	0	60	30944
2026-01-17 23:58:39.71	178.39	0.92	-45.9	-48.3	6.0	0.00e+00	0	35	104	0	60	32024
2026-01-17 23:58:40.72	178.44	0.85	-45.7	-48.2	6.1	0.00e+00	0	35	104	0	60	31423
2026-01-17 23:58:41.73	178.49	0.78	-45.7	-48.1	6.1	0.00e+00	0	35	104	0	60	31125
2026-01-17 23:58:42.73	178.54	0.71	-45.6	-48.1	6.1	0.00e+00	0	35	104	0	60	30986
2026-01-17 23:58:43.75	178.59	0.65	-45.6	-48.0	6.1	0.00e+00	0	35	104	0	60	30840
2026-01-17 23:58:44.75	178.63	0.58	-45.7	-48.0	6.1	0.00e+00	0	35	104	0	60	30917
2026-01-17 23:58:45.76	178.68	0.51	-45.4	-47.8	6.1	0.00e+00	0	35	104	0	60	30075
2026-01-17 23:58:46.77	178.73	0.45	-45.6	-48.0	6.1	0.00e+00	0	35	104	0	60	30744
2026-01-17 23:58:47.78	178.78	0.38	-45.4	-47.8	6.1	0.00e+00	0	35	104	0	60	30054
2026-01-17 23:58:48.79	178.83	0.32	-45.7	-48.1	6.1	0.00e+00	0	35	104	0	60	31015
2026-01-17 23:58:49.80	178.88	0.25	-45.7	-48.1	6.1	0.00e+00	0	35	104	0	60	30997
2026-01-17 23:58:50.81	178.92	0.19	-45.6	-48.1	6.1	0.00e+00	0	34	104	0	60	31082
2026-01-17 23:58:51.82	178.97	0.12	-45.7	-48.0	6.1	0.00e+00	0	35	104	0	60	30924
2026-01-17 23:58:52.82	179.02	0.06	-45.9	-48.3	6.1	0.00e+00	0	35	104	0	60	31769
2026-01-17 23:58:53.84	179.06	-0.01	-45.7	-48.1	6.1	0.00e+00	0	35	104	0	60	31124

#Closed at: 2026-01-17 23:58:54
#Recorded file [0 MB]: D:/lorett/data/35029_260118_114909.dat