passes_logs/2026/01/17/R4.6S_Anadyr/R4.6S_Anadyr__20260117_231145_AQUA_rec.log

#Pass ID: 20260117_231145_AQUA
#Satellite: AQUA
#Configuration: AQUA
#almurnet v.1.7.20251203
#Start time: 2026-01-17 23:11:50

#Version: 2.2.20231116
#Station: R4.6S_Anadyr
#Location: 177.4865 lon 64.73178 lat
#TLE: 1 27424U 02022A   26017.62394888  .00000781  00000+0  16630-3 0  9993
#TLE: 2 27424  98.4086 344.0954 0002010  75.0132 339.4723 14.61825944261279

#Time	Az	El	Level	Level2	SNR	BER	BlckErr	Temp	State	Recorded	gain1	gain2
2026-01-17 23:11:50.70	87.49	0.25	-49.2	-50.8	5.7	0.00e+00	0	29	0	0	60	42485
2026-01-17 23:11:51.67	87.42	0.30	-49.4	-67.3	3.5	7.66e-01	0	30	104	0	60	89056
2026-01-17 23:11:52.65	87.34	0.35	-49.3	-67.2	3.5	7.66e-01	0	31	104	0	60	88089
2026-01-17 23:11:53.63	87.27	0.40	-49.3	-67.2	3.5	7.66e-01	0	31	104	0	60	87700
2026-01-17 23:11:54.61	87.19	0.46	-49.2	-67.1	3.5	7.66e-01	0	31	104	0	60	87051
2026-01-17 23:11:55.59	87.11	0.51	-49.2	-67.2	3.5	7.66e-01	0	31	104	0	60	88028
2026-01-17 23:11:56.56	87.04	0.56	-49.2	-67.1	3.5	7.66e-01	0	31	104	0	60	87613
2026-01-17 23:11:57.54	86.96	0.61	-49.2	-67.1	3.5	7.66e-01	0	31	104	0	60	87233
2026-01-17 23:11:58.52	86.89	0.66	-47.1	-67.0	3.5	7.66e-01	0	31	104	0	60	86060
2026-01-17 23:11:59.50	86.81	0.72	-48.6	-67.0	3.5	7.66e-01	0	31	104	0	60	85990
2026-01-17 23:12:00.48	86.73	0.77	-47.8	-66.9	3.5	7.66e-01	0	31	104	0	60	85356
2026-01-17 23:12:01.46	86.65	0.82	-48.8	-66.8	3.5	7.66e-01	0	31	104	0	60	84042
2026-01-17 23:12:02.44	86.58	0.87	-47.8	-66.6	3.5	7.66e-01	0	31	104	0	60	82119
2026-01-17 23:12:03.42	86.50	0.93	-47.6	-66.3	3.5	7.66e-01	0	31	104	0	60	79226
2026-01-17 23:12:04.39	86.42	0.98	-45.2	-65.9	3.5	7.66e-01	0	31	104	0	60	75597
2026-01-17 23:12:05.37	86.34	1.03	-45.5	-65.5	3.5	7.66e-01	0	31	104	0	60	72482
2026-01-17 23:12:06.35	86.26	1.08	-45.5	-65.5	3.5	7.66e-01	0	31	104	0	60	72694
2026-01-17 23:12:07.32	86.18	1.14	-45.4	-65.5	3.5	7.66e-01	0	31	104	0	60	72733
2026-01-17 23:12:08.30	86.10	1.19	-45.5	-65.6	3.5	7.66e-01	0	31	104	0	60	73054
2026-01-17 23:12:09.28	86.02	1.24	-45.6	-65.5	3.5	7.66e-01	0	31	104	0	60	72305
2026-01-17 23:12:10.26	85.94	1.29	-45.5	-65.5	3.5	7.66e-01	0	31	104	0	60	72772
2026-01-17 23:12:11.24	85.86	1.35	-45.6	-65.5	3.5	7.66e-01	0	31	104	0	60	72517
2026-01-17 23:12:12.21	85.78	1.40	-45.5	-65.5	3.5	7.66e-01	0	31	104	0	60	72617
2026-01-17 23:12:13.19	85.70	1.45	-45.5	-65.5	3.5	7.66e-01	0	31	104	0	60	72512
2026-01-17 23:12:14.16	85.62	1.50	-45.4	-65.5	3.5	7.66e-01	0	31	104	0	60	72103
2026-01-17 23:12:15.14	85.54	1.56	-45.4	-65.5	3.5	7.66e-01	0	31	104	0	60	72485
2026-01-17 23:12:16.12	85.45	1.61	-45.5	-65.5	3.5	7.66e-01	0	31	104	0	60	72288
2026-01-17 23:12:17.10	85.37	1.66	-45.5	-65.5	3.5	7.66e-01	0	31	104	0	60	72440
2026-01-17 23:12:18.07	85.29	1.72	-45.5	-65.5	3.5	7.66e-01	0	31	104	0	60	72150
2026-01-17 23:12:19.04	85.21	1.77	-45.5	-65.4	3.5	7.66e-01	0	31	104	0	60	71946
2026-01-17 23:12:20.02	85.12	1.82	-45.5	-65.5	3.5	7.66e-01	0	31	104	0	60	72204
2026-01-17 23:12:20.99	85.04	1.88	-45.5	-65.4	3.5	7.66e-01	0	31	104	0	60	72009
2026-01-17 23:12:21.97	84.96	1.93	-45.5	-65.5	3.5	7.66e-01	0	31	104	0	60	72190
2026-01-17 23:12:22.95	84.87	1.98	-45.5	-65.4	3.5	7.66e-01	0	31	104	0	60	71697
2026-01-17 23:12:23.93	84.79	2.04	-45.5	-65.4	3.5	7.66e-01	0	31	104	0	60	72028
2026-01-17 23:12:24.91	84.70	2.09	-45.5	-65.4	3.5	7.66e-01	0	31	104	0	60	71951
2026-01-17 23:12:25.88	84.61	2.14	-45.5	-65.4	3.5	7.66e-01	0	31	104	0	60	71497
2026-01-17 23:12:26.86	84.53	2.20	-45.4	-65.2	3.5	7.66e-01	0	31	104	0	60	70268
2026-01-17 23:12:27.84	84.44	2.25	-45.4	-65.1	3.5	7.66e-01	0	31	104	0	60	69331
2026-01-17 23:12:28.82	84.36	2.30	-45.5	-65.1	3.5	7.66e-01	0	31	104	0	60	68870
2026-01-17 23:12:29.79	84.27	2.36	-45.4	-65.0	3.5	7.66e-01	0	31	104	0	60	68784
2026-01-17 23:12:30.77	84.18	2.41	-45.5	-65.2	3.5	7.66e-01	0	31	104	0	60	70252
2026-01-17 23:12:31.75	84.09	2.47	-45.4	-65.4	3.5	7.66e-01	0	31	104	0	60	71787
2026-01-17 23:12:32.73	84.00	2.52	-45.5	-65.5	3.5	7.66e-01	0	31	104	0	60	72359
2026-01-17 23:12:33.71	83.92	2.57	-45.5	-65.3	3.5	7.66e-01	0	31	104	0	60	71151
2026-01-17 23:12:34.69	83.83	2.63	-45.5	-65.4	3.5	7.66e-01	0	31	104	0	60	71568
2026-01-17 23:12:35.66	83.74	2.68	-45.4	-65.4	3.5	7.66e-01	0	31	104	0	60	71853
2026-01-17 23:12:36.64	83.65	2.74	-45.5	-65.4	3.5	7.66e-01	0	31	104	0	60	71766
2026-01-17 23:12:37.62	83.56	2.79	-45.5	-64.9	3.5	7.66e-01	0	31	104	0	60	68001
2026-01-17 23:12:38.59	83.47	2.85	-45.4	-64.5	3.5	7.66e-01	0	31	104	0	60	64320
2026-01-17 23:12:39.57	83.38	2.90	-45.4	-64.6	3.5	7.66e-01	0	31	104	0	60	65050
2026-01-17 23:12:40.55	83.29	2.95	-45.4	-65.1	3.5	7.66e-01	0	31	104	0	60	69091
2026-01-17 23:12:41.53	83.19	3.01	-45.3	-64.4	3.5	7.66e-01	0	31	104	0	60	64123
2026-01-17 23:12:42.51	83.10	3.06	-44.9	-61.3	3.5	7.66e-01	0	31	104	0	60	44767
2026-01-17 23:12:43.49	83.01	3.12	-43.2	-56.5	3.5	7.66e-01	0	31	104	0	60	25673
2026-01-17 23:12:44.46	82.92	3.17	-41.3	-53.3	3.5	7.66e-01	0	31	104	0	58	19887
2026-01-17 23:12:45.44	82.82	3.23	-44.5	-58.6	3.4	7.66e-01	0	31	104	0	56	41211
2026-01-17 23:12:46.42	82.73	3.28	-47.4	-65.8	3.5	7.66e-01	0	31	104	0	60	75137
2026-01-17 23:12:47.39	82.64	3.34	-40.1	-51.2	3.5	7.66e-01	0	31	104	0	58	15694
2026-01-17 23:12:48.37	82.54	3.39	-47.3	-65.3	3.5	7.66e-01	0	31	104	0	60	70487
2026-01-17 23:12:49.34	82.45	3.45	-45.7	-60.3	3.6	7.66e-01	0	31	104	0	60	39699
2026-01-17 23:12:50.32	82.35	3.50	-42.0	-54.2	3.5	7.66e-01	0	31	104	0	58	22195
2026-01-17 23:12:51.30	82.26	3.56	-41.0	-52.4	3.5	7.66e-01	0	31	104	0	58	17962
2026-01-17 23:12:52.28	82.16	3.61	-41.1	-52.4	3.5	7.66e-01	0	31	104	0	56	20188
2026-01-17 23:12:53.26	82.07	3.67	-40.5	-51.4	3.6	7.66e-01	0	31	104	0	56	18084
2026-01-17 23:12:54.24	81.97	3.72	-40.7	-51.7	3.5	7.66e-01	0	31	104	0	56	18630
2026-01-17 23:12:55.22	81.87	3.78	-39.0	-49.8	3.5	7.66e-01	0	31	104	0	52	18746
2026-01-17 23:12:56.20	81.77	3.83	-42.6	-54.2	3.5	7.66e-01	0	31	104	0	58	22161
2026-01-17 23:12:57.17	81.68	3.89	-45.4	-64.9	3.5	7.66e-01	0	31	104	0	60	67299
2026-01-17 23:12:58.15	81.58	3.94	-42.1	-54.4	3.5	7.66e-01	0	31	104	0	60	20123
2026-01-17 23:12:59.13	81.48	4.00	-46.6	-65.2	3.5	7.66e-01	0	31	104	0	60	70356
2026-01-17 23:13:00.10	81.38	4.05	-40.3	-51.5	3.5	7.66e-01	0	31	104	0	56	18309
2026-01-17 23:13:01.07	81.28	4.11	-40.2	-51.5	3.5	7.66e-01	0	31	104	0	56	18274
2026-01-17 23:13:02.05	81.18	4.17	-39.1	-50.2	3.6	7.66e-01	0	31	104	0	52	19804
2026-01-17 23:13:03.03	81.08	4.22	-39.5	-50.8	3.6	7.66e-01	0	31	104	0	52	21041
2026-01-17 23:13:04.01	80.98	4.28	-45.1	-64.2	3.5	7.66e-01	0	31	104	0	60	62298
2026-01-17 23:13:04.98	80.88	4.33	-42.6	-54.5	3.5	7.66e-01	0	31	104	0	58	23030
2026-01-17 23:13:05.96	80.78	4.39	-45.7	-65.6	3.5	7.66e-01	0	31	104	0	60	73061
2026-01-17 23:13:06.94	80.67	4.44	-47.6	-65.3	3.5	7.66e-01	0	31	104	0	60	70730
2026-01-17 23:13:07.92	80.57	4.50	-37.9	-48.7	3.5	7.66e-01	0	31	104	0	50	18722
2026-01-17 23:13:08.90	80.47	4.56	-38.3	-49.0	3.5	7.66e-01	0	31	104	0	50	19289
2026-01-17 23:13:09.88	80.36	4.61	-38.5	-49.2	3.5	7.66e-01	0	31	104	0	50	19799
2026-01-17 23:13:10.86	80.26	4.67	-38.6	-49.2	3.5	7.66e-01	0	31	104	0	50	19658
2026-01-17 23:13:11.83	80.16	4.72	-38.5	-49.0	3.5	7.66e-01	0	31	104	0	52	17169
2026-01-17 23:13:12.80	80.05	4.78	-40.0	-50.7	3.5	7.66e-01	0	31	104	0	52	20910
2026-01-17 23:13:13.78	79.95	4.84	-41.0	-52.0	3.5	7.66e-01	0	31	104	0	54	21712
2026-01-17 23:13:14.76	79.84	4.89	-45.4	-58.5	3.5	7.66e-01	0	31	104	0	60	32389
2026-01-17 23:13:15.74	79.73	4.95	-43.2	-54.8	3.5	7.66e-01	0	31	104	0	60	21230
2026-01-17 23:13:16.71	79.63	5.01	-43.0	-54.5	3.4	7.66e-01	0	31	104	0	52	32347
2026-01-17 23:13:17.69	79.52	5.06	-44.5	-56.6	3.5	7.66e-01	0	31	104	0	60	26104
2026-01-17 23:13:18.67	79.41	5.12	-40.0	-50.7	3.5	7.66e-01	0	31	104	0	54	18736
2026-01-17 23:13:19.65	79.30	5.18	-39.8	-50.5	3.5	7.66e-01	0	31	104	0	54	18274
2026-01-17 23:13:20.62	79.20	5.23	-39.1	-49.7	3.5	7.66e-01	0	31	104	0	54	16660
2026-01-17 23:13:21.60	79.09	5.29	-44.2	-56.2	3.5	7.66e-01	0	31	104	0	56	31112
2026-01-17 23:13:22.57	78.98	5.34	-44.8	-57.2	3.5	7.66e-01	0	31	104	0	60	27733
2026-01-17 23:13:23.55	78.87	5.40	-39.1	-49.8	3.5	7.66e-01	0	31	104	0	54	16732
2026-01-17 23:13:24.53	78.76	5.46	-44.8	-57.9	3.5	7.66e-01	0	31	104	0	60	30227
2026-01-17 23:13:25.50	78.65	5.51	-38.5	-49.2	3.5	7.66e-01	0	31	104	0	52	17502
2026-01-17 23:13:26.48	78.54	5.57	-46.3	-62.2	3.5	7.66e-01	0	31	104	0	60	49460
2026-01-17 23:13:27.46	78.42	5.63	-39.8	-50.7	3.5	7.66e-01	0	31	104	0	54	18572
2026-01-17 23:13:28.43	78.31	5.68	-38.9	-49.6	3.5	7.66e-01	0	32	104	0	54	16503
2026-01-17 23:13:29.42	78.20	5.74	-39.2	-49.9	3.5	7.66e-01	0	31	104	0	52	19080
2026-01-17 23:13:30.39	78.08	5.80	-38.4	-49.0	3.5	7.66e-01	0	31	104	0	52	17125
2026-01-17 23:13:31.37	77.97	5.86	-43.4	-55.4	3.5	7.66e-01	0	31	104	0	60	22542
2026-01-17 23:13:32.35	77.86	5.91	-40.8	-51.7	3.5	7.66e-01	0	31	104	0	60	14739
2026-01-17 23:13:33.33	77.74	5.97	-47.5	-65.9	3.5	7.66e-01	0	31	104	0	60	75570
2026-01-17 23:13:34.30	77.63	6.03	-47.5	-65.1	3.5	7.66e-01	0	32	104	0	60	69050
2026-01-17 23:13:35.27	77.51	6.08	-43.7	-56.3	3.5	7.66e-01	0	31	104	0	60	25012
2026-01-17 23:13:36.25	77.39	6.14	-42.4	-54.3	3.6	7.66e-01	0	32	104	0	60	19868
2026-01-17 23:13:37.22	77.28	6.20	-42.1	-53.6	3.5	7.66e-01	0	31	104	0	60	18521
2026-01-17 23:13:38.20	77.16	6.25	-40.3	-51.1	3.6	7.66e-01	0	31	104	0	56	17451
2026-01-17 23:13:39.18	77.04	6.31	-38.7	-49.2	3.5	7.66e-01	0	32	104	0	52	17618
2026-01-17 23:13:40.15	76.92	6.37	-37.5	-48.0	3.5	7.66e-01	0	32	104	0	50	17194
2026-01-17 23:13:41.13	76.81	6.43	-40.2	-51.0	3.5	7.66e-01	0	31	104	0	52	21660
2026-01-17 23:13:42.11	76.69	6.48	-46.0	-65.6	3.5	7.66e-01	0	32	104	0	60	73440
2026-01-17 23:13:43.08	76.57	6.54	-43.7	-55.9	3.5	7.66e-01	0	32	104	0	60	24060
2026-01-17 23:13:44.06	76.45	6.60	-46.2	-65.9	3.5	7.66e-01	0	32	104	0	60	75795
2026-01-17 23:13:45.03	76.33	6.66	-39.9	-50.9	3.5	7.66e-01	0	32	104	0	56	17069
2026-01-17 23:13:46.01	76.20	6.71	-39.0	-49.8	3.5	7.66e-01	0	32	104	0	54	16862
2026-01-17 23:13:46.99	76.08	6.77	-39.2	-50.1	3.6	7.66e-01	0	32	104	0	52	19465
2026-01-17 23:13:47.97	75.96	6.83	-39.1	-49.8	3.5	7.66e-01	0	32	104	0	52	18853
2026-01-17 23:13:48.94	75.84	6.89	-44.8	-57.4	3.5	7.66e-01	0	31	104	0	60	28576
2026-01-17 23:13:49.92	75.71	6.94	-38.6	-49.3	3.5	7.66e-01	0	32	104	0	50	20000
2026-01-17 23:13:50.89	75.59	7.00	-47.0	-61.9	3.5	7.66e-01	0	32	104	0	60	47937
2026-01-17 23:13:51.87	75.46	7.06	-43.4	-55.1	3.5	7.66e-01	0	32	104	0	60	21953
2026-01-17 23:13:52.85	75.34	7.12	-47.5	-63.8	3.5	7.66e-01	0	32	104	0	60	59885
2026-01-17 23:13:53.82	75.21	7.17	-44.0	-55.9	3.6	7.66e-01	0	31	104	0	60	23882
2026-01-17 23:13:54.80	75.09	7.23	-42.6	-53.9	3.5	7.66e-01	0	31	104	0	60	19063
2026-01-17 23:13:55.78	74.96	7.29	-41.5	-52.6	3.5	7.66e-01	0	32	104	0	58	18317
2026-01-17 23:13:56.76	74.83	7.35	-41.5	-52.4	3.5	7.66e-01	0	31	104	0	58	18020
2026-01-17 23:13:57.73	74.70	7.40	-39.4	-50.1	3.5	7.66e-01	0	32	104	0	54	17324
2026-01-17 23:13:58.71	74.57	7.46	-46.0	-59.4	3.4	7.66e-01	0	32	104	0	60	35886
2026-01-17 23:13:59.68	74.45	7.52	-39.1	-49.8	3.5	7.66e-01	0	31	104	0	54	16827
2026-01-17 23:14:00.66	74.32	7.58	-44.6	-60.9	3.5	7.66e-01	0	32	104	0	60	42708
2026-01-17 23:14:01.63	74.19	7.63	-39.5	-50.7	3.6	7.66e-01	0	32	104	0	60	13160
2026-01-17 23:14:02.61	74.06	7.69	-37.2	-47.9	3.5	7.66e-01	0	31	104	0	50	17027
2026-01-17 23:14:03.59	73.92	7.75	-37.2	-47.8	3.5	7.66e-01	0	32	104	0	48	18894
2026-01-17 23:14:04.56	73.79	7.81	-36.7	-47.3	3.5	7.66e-01	0	32	104	0	48	17808
2026-01-17 23:14:05.54	73.66	7.87	-36.6	-47.2	3.5	7.66e-01	0	32	104	0	48	17566
2026-01-17 23:14:06.52	73.53	7.92	-36.2	-46.9	3.5	7.66e-01	0	32	104	0	48	17059
2026-01-17 23:14:07.49	73.39	7.98	-36.3	-47.3	3.5	7.66e-01	0	32	104	0	48	17758
2026-01-17 23:14:08.47	73.26	8.04	-37.3	-48.8	3.5	7.66e-01	0	32	104	0	50	18911
2026-01-17 23:14:09.45	73.12	8.10	-44.2	-61.0	3.5	7.66e-01	0	32	104	0	60	42948
2026-01-17 23:14:10.43	72.99	8.16	-37.6	-49.5	3.5	7.66e-01	0	31	104	0	52	18226
2026-01-17 23:14:11.40	72.85	8.21	-43.6	-66.1	3.5	7.66e-01	0	32	104	0	60	77657
2026-01-17 23:14:12.38	72.71	8.27	-41.2	-54.1	3.5	7.66e-01	0	32	104	0	58	21809
2026-01-17 23:14:13.36	72.58	8.33	-40.6	-54.0	3.5	7.66e-01	0	32	104	0	56	24283
2026-01-17 23:14:14.34	72.44	8.39	-40.6	-54.3	3.5	7.66e-01	0	32	104	0	56	25035
2026-01-17 23:14:15.32	72.30	8.45	-40.9	-53.5	3.5	7.66e-01	0	32	104	0	56	22919
2026-01-17 23:14:16.29	72.16	8.50	-41.1	-52.1	3.5	7.66e-01	0	32	104	0	56	19400
2026-01-17 23:14:17.27	72.02	8.56	-45.3	-65.8	3.5	7.66e-01	0	32	104	0	60	74693
2026-01-17 23:14:18.25	71.88	8.62	-44.6	-57.4	3.5	7.66e-01	0	32	104	0	60	28558
2026-01-17 23:14:19.22	71.74	8.68	-47.5	-66.1	3.5	7.66e-01	0	32	104	0	60	77521
2026-01-17 23:14:20.20	71.60	8.73	-37.9	-48.4	3.5	7.66e-01	0	32	104	0	50	18035
2026-01-17 23:14:21.18	71.45	8.79	-37.5	-48.0	3.5	7.66e-01	0	32	104	0	50	17169
2026-01-17 23:14:22.16	71.31	8.85	-37.4	-47.9	3.6	7.66e-01	0	32	104	0	50	16916
2026-01-17 23:14:23.13	71.17	8.91	-37.4	-47.9	3.5	7.66e-01	0	32	104	0	50	16911
2026-01-17 23:14:24.11	71.02	8.97	-37.2	-47.6	3.5	7.66e-01	0	32	104	0	50	16401
2026-01-17 23:14:25.09	70.88	9.02	-38.5	-49.0	3.5	7.66e-01	0	32	104	0	50	19226
2026-01-17 23:14:26.07	70.73	9.08	-39.1	-49.8	3.6	7.66e-01	0	32	104	0	50	21039
2026-01-17 23:14:27.04	70.59	9.14	-47.5	-65.9	3.5	7.66e-01	0	32	104	0	60	75773
2026-01-17 23:14:28.01	70.44	9.20	-42.6	-54.0	3.5	7.66e-01	0	32	104	0	58	21741
2026-01-17 23:14:28.99	70.29	9.25	-47.8	-65.3	3.5	7.66e-01	0	32	104	0	60	70655
2026-01-17 23:14:29.97	70.14	9.31	-41.6	-52.4	3.5	7.66e-01	0	32	104	0	60	16099
2026-01-17 23:14:30.95	70.00	9.37	-41.5	-52.3	3.5	7.66e-01	0	32	104	0	56	20016
2026-01-17 23:14:31.93	69.85	9.43	-41.2	-52.0	3.5	7.66e-01	0	32	104	0	56	19383
2026-01-17 23:14:32.91	69.70	9.49	-38.9	-49.7	3.5	7.66e-01	0	32	104	0	52	18625
2026-01-17 23:14:33.88	69.55	9.54	-37.3	-48.6	3.5	7.66e-01	0	32	104	0	50	18402
2026-01-17 23:14:34.86	69.39	9.60	-37.1	-48.1	3.5	7.66e-01	0	32	104	0	48	19418
2026-01-17 23:14:35.84	69.24	9.66	-42.7	-63.4	3.5	7.66e-01	0	32	104	0	58	63916
2026-01-17 23:14:36.81	69.09	9.71	-40.3	-52.7	3.5	7.66e-01	0	32	104	0	56	20813
2026-01-17 23:14:37.79	68.94	9.77	-42.1	-57.3	3.5	7.66e-01	0	32	104	0	52	44481
2026-01-17 23:14:38.77	68.78	9.83	-38.1	-49.7	3.5	7.66e-01	0	32	104	0	54	16671
2026-01-17 23:14:39.75	68.63	9.89	-36.8	-47.8	3.5	7.66e-01	0	32	104	0	48	18878
2026-01-17 23:14:40.73	68.47	9.95	-36.8	-47.5	3.5	7.66e-01	0	32	104	0	48	18273
2026-01-17 23:14:41.70	68.32	10.00	-36.4	-47.0	3.5	7.66e-01	0	32	104	0	48	17128
2026-01-17 23:14:42.68	68.16	10.06	-38.5	-49.9	3.5	7.66e-01	0	32	104	0	48	23890
2026-01-17 23:14:43.65	68.00	10.12	-36.0	-46.7	3.5	7.66e-01	0	32	104	0	48	16574
2026-01-17 23:14:44.63	67.84	10.17	-38.3	-50.2	3.5	7.66e-01	0	32	104	0	48	24985
2026-01-17 23:14:45.61	67.69	10.23	-42.6	-56.7	3.5	7.66e-01	0	32	104	0	60	26304
2026-01-17 23:14:46.59	67.53	10.29	-39.2	-50.4	3.5	7.66e-01	0	32	104	0	50	22787
2026-01-17 23:14:47.57	67.37	10.35	-43.5	-59.5	3.6	7.66e-01	0	32	104	0	60	36431
2026-01-17 23:14:48.55	67.20	10.40	-38.0	-49.1	3.5	7.66e-01	0	32	104	0	50	19483
2026-01-17 23:14:49.52	67.04	10.46	-39.1	-50.1	3.6	7.66e-01	0	32	104	0	52	19503
2026-01-17 23:14:50.50	66.88	10.52	-39.1	-49.8	3.5	7.66e-01	0	32	104	0	52	18749
2026-01-17 23:14:51.47	66.72	10.57	-39.4	-50.0	3.5	7.66e-01	0	32	104	0	52	19344
2026-01-17 23:14:52.45	66.56	10.63	-46.3	-59.5	3.5	7.66e-01	0	32	104	0	60	36239
2026-01-17 23:14:53.43	66.39	10.69	-39.4	-49.9	3.5	7.66e-01	0	32	104	0	56	15201
2026-01-17 23:14:54.40	66.23	10.74	-45.7	-66.2	3.5	7.66e-01	0	32	104	0	60	78869
2026-01-17 23:14:55.38	66.06	10.80	-47.7	-63.5	3.6	7.66e-01	0	32	104	0	60	57590
2026-01-17 23:14:56.36	65.89	10.85	-41.9	-53.1	3.5	7.66e-01	0	32	104	0	56	21837
2026-01-17 23:14:57.34	65.73	10.91	-40.5	-51.3	3.5	7.66e-01	0	32	104	0	56	17715
2026-01-17 23:14:58.31	65.56	10.97	-39.2	-49.8	3.5	7.66e-01	0	32	104	0	54	16764
2026-01-17 23:14:59.29	65.39	11.02	-39.5	-50.1	3.6	7.66e-01	0	32	104	0	54	17378
2026-01-17 23:15:00.27	65.22	11.08	-38.4	-48.8	3.5	7.66e-01	0	32	104	0	52	16799
2026-01-17 23:15:01.25	65.05	11.14	-37.7	-48.1	3.5	7.66e-01	0	32	104	0	50	17399
2026-01-17 23:15:02.22	64.88	11.19	-38.0	-48.4	3.5	7.66e-01	0	32	104	0	50	17958
2026-01-17 23:15:03.20	64.71	11.25	-48.0	-66.1	3.5	7.66e-01	0	32	104	0	60	77541
2026-01-17 23:15:04.17	64.54	11.30	-41.3	-52.4	3.6	7.66e-01	0	32	104	0	58	17910
2026-01-17 23:15:05.15	64.37	11.36	-45.6	-65.8	3.5	7.66e-01	0	32	104	0	60	74742
2026-01-17 23:15:06.13	64.19	11.41	-37.0	-47.3	3.5	7.66e-01	0	32	104	0	50	15937
2026-01-17 23:15:07.11	64.02	11.47	-37.2	-47.6	3.5	7.66e-01	0	32	104	0	48	18446
2026-01-17 23:15:08.09	63.84	11.52	-36.3	-46.8	3.5	7.66e-01	0	32	104	0	48	16733
2026-01-17 23:15:09.06	63.67	11.58	-36.3	-46.9	3.5	7.66e-01	0	32	104	0	48	16981
2026-01-17 23:15:10.04	63.49	11.63	-44.9	-61.9	3.5	7.66e-01	0	32	104	0	60	48113
2026-01-17 23:15:11.01	63.32	11.69	-42.4	-58.6	3.5	7.66e-01	0	32	104	0	60	32934
2026-01-17 23:15:11.98	63.14	11.74	-41.1	-66.3	3.5	7.66e-01	0	32	104	0	56	99976
2026-01-17 23:15:12.96	62.96	11.80	-42.9	-64.7	3.5	7.66e-01	0	32	104	0	60	66093
2026-01-17 23:15:13.94	62.78	11.85	-39.0	-51.5	3.5	7.66e-01	0	32	104	0	52	22826
2026-01-17 23:15:14.91	62.60	11.91	-39.7	-51.5	3.5	7.66e-01	0	32	104	0	52	22860
2026-01-17 23:15:15.89	62.42	11.96	-40.0	-51.2	3.5	7.66e-01	0	32	104	0	54	19794
2026-01-17 23:15:16.87	62.24	12.02	-39.3	-51.3	3.5	7.66e-01	0	32	104	0	54	19907
2026-01-17 23:15:17.85	62.06	12.07	-38.8	-51.3	3.5	7.66e-01	0	32	104	0	54	20013
2026-01-17 23:15:18.82	61.88	12.12	-41.2	-56.6	3.5	7.66e-01	0	32	104	0	54	36724
2026-01-17 23:15:19.80	61.69	12.18	-37.7	-49.4	3.5	7.66e-01	0	32	104	0	50	20115
2026-01-17 23:15:20.78	61.51	12.23	-46.1	-60.4	3.5	7.66e-01	0	32	104	0	60	40243
2026-01-17 23:15:21.76	61.32	12.28	-40.2	-53.0	3.5	7.66e-01	0	32	104	0	56	21689
2026-01-17 23:15:22.74	61.14	12.34	-40.7	-51.9	3.5	7.66e-01	0	32	104	0	48	30170
2026-01-17 23:15:23.72	60.95	12.39	-40.2	-50.8	3.5	7.66e-01	0	32	104	0	60	13381
2026-01-17 23:15:24.70	60.76	12.44	-36.9	-47.3	3.5	7.66e-01	0	32	104	0	48	17795
2026-01-17 23:15:25.67	60.58	12.50	-36.5	-46.8	3.5	7.66e-01	0	32	104	0	48	16843
2026-01-17 23:15:26.65	60.39	12.55	-36.6	-47.0	3.5	7.66e-01	0	32	104	0	48	17202
2026-01-17 23:15:27.63	60.20	12.60	-38.1	-48.6	3.5	7.66e-01	0	32	104	0	48	20634
2026-01-17 23:15:28.60	60.01	12.66	-37.2	-47.7	3.5	7.66e-01	0	32	104	0	52	14877
2026-01-17 23:15:29.58	59.82	12.71	-37.7	-48.1	3.5	7.66e-01	0	32	104	0	48	19505
2026-01-17 23:15:30.56	59.63	12.76	-45.4	-58.8	3.5	7.66e-01	0	32	104	0	60	33406
2026-01-17 23:15:31.54	59.43	12.81	-37.9	-48.4	3.5	7.66e-01	0	32	104	0	52	16133
2026-01-17 23:15:32.52	59.24	12.86	-46.5	-62.6	3.5	7.66e-01	0	32	104	0	60	51760
2026-01-17 23:15:33.49	59.05	12.91	-41.2	-52.2	3.5	7.66e-01	0	32	104	0	58	17583
2026-01-17 23:15:34.47	58.85	12.97	-41.6	-52.4	3.5	7.66e-01	0	32	104	0	56	20235
2026-01-17 23:15:35.44	58.66	13.02	-39.9	-51.0	3.4	7.66e-01	0	32	104	0	56	17098
2026-01-17 23:15:36.42	58.46	13.07	-39.1	-50.2	3.5	7.66e-01	0	32	104	0	54	17564
2026-01-17 23:15:37.40	58.27	13.12	-39.0	-49.5	3.5	7.66e-01	0	32	104	0	52	18286
2026-01-17 23:15:38.38	58.07	13.17	-46.5	-62.1	3.6	7.66e-01	0	32	104	0	60	48818
2026-01-17 23:15:39.35	57.87	13.22	-45.0	-57.3	3.5	7.66e-01	0	32	104	0	60	28159
2026-01-17 23:15:40.33	57.67	13.27	-47.8	-65.4	3.5	7.66e-01	0	32	104	0	60	71261
2026-01-17 23:15:41.31	57.47	13.32	-37.6	-48.1	3.5	7.66e-01	0	32	104	0	48	19522
2026-01-17 23:15:42.28	57.27	13.37	-37.2	-47.5	3.5	7.66e-01	0	32	104	0	48	18285
2026-01-17 23:15:43.26	57.07	13.42	-36.8	-47.2	3.5	7.66e-01	0	32	104	0	48	17556
2026-01-17 23:15:44.23	56.87	13.47	-36.4	-46.7	3.5	7.66e-01	0	32	104	0	48	16665
2026-01-17 23:15:45.21	56.67	13.52	-36.5	-46.8	3.5	7.66e-01	0	32	104	0	48	16850
2026-01-17 23:15:46.19	56.47	13.57	-37.9	-48.4	3.6	7.66e-01	0	32	104	0	48	20174
2026-01-17 23:15:47.17	56.26	13.61	-37.7	-48.2	3.5	7.66e-01	0	32	104	0	50	17523
2026-01-17 23:15:48.15	56.06	13.66	-46.7	-66.0	3.5	7.66e-01	0	32	104	0	60	76560
2026-01-17 23:15:49.13	55.85	13.71	-42.9	-54.3	3.5	7.66e-01	0	32	104	0	58	22395
2026-01-17 23:15:50.10	55.65	13.76	-47.1	-65.9	3.5	7.66e-01	0	32	104	0	60	76290
2026-01-17 23:15:51.08	55.44	13.81	-39.9	-50.6	3.5	7.66e-01	0	32	104	0	54	18521
2026-01-17 23:15:52.05	55.23	13.85	-39.6	-50.2	3.5	7.66e-01	0	32	104	0	54	17518
2026-01-17 23:15:53.03	55.02	13.90	-39.3	-49.9	3.5	7.66e-01	0	32	104	0	54	16938
2026-01-17 23:15:54.01	54.81	13.95	-39.4	-49.9	3.5	7.66e-01	0	32	104	0	54	17039
2026-01-17 23:15:54.99	54.60	13.99	-37.1	-47.4	3.5	7.66e-01	0	32	104	0	48	18103
2026-01-17 23:15:55.97	54.39	14.04	-37.2	-47.6	3.5	7.66e-01	0	32	104	0	48	18324
2026-01-17 23:15:56.95	54.18	14.09	-45.0	-66.1	3.5	7.66e-01	0	32	104	0	60	78056
2026-01-17 23:15:57.92	53.97	14.13	-42.7	-54.2	3.5	7.66e-01	0	32	104	0	58	22130
2026-01-17 23:15:58.90	53.76	14.18	-46.6	-61.5	3.5	7.66e-01	0	32	104	0	60	45512
2026-01-17 23:15:59.88	53.54	14.22	-37.2	-48.0	3.5	7.66e-01	0	32	104	0	50	17137
2026-01-17 23:16:00.85	53.33	14.27	-36.1	-46.5	3.5	7.66e-01	0	32	104	0	48	16234
2026-01-17 23:16:01.84	53.11	14.31	-36.1	-46.4	3.5	7.66e-01	0	32	104	0	48	16113
2026-01-17 23:16:02.81	52.90	14.36	-36.3	-46.6	3.6	7.66e-01	0	32	104	0	48	16405
2026-01-17 23:16:03.79	52.68	14.40	-44.6	-57.3	3.5	7.66e-01	0	32	104	0	60	28298
2026-01-17 23:16:04.77	52.47	14.45	-35.9	-46.2	3.5	7.66e-01	0	32	104	0	46	17548
2026-01-17 23:16:05.75	52.25	14.49	-44.0	-55.6	3.5	7.66e-01	0	32	104	0	54	32918
2026-01-17 23:16:06.72	52.03	14.53	-41.9	-53.0	3.5	7.66e-01	0	32	104	0	60	17120
2026-01-17 23:16:07.70	51.81	14.58	-42.0	-52.9	3.3	7.66e-01	0	32	104	0	48	34101
2026-01-17 23:16:08.68	51.59	14.62	-42.3	-53.3	3.7	7.66e-01	0	32	104	0	60	17814
2026-01-17 23:16:09.65	51.38	14.66	-36.5	-46.8	3.5	7.66e-01	0	32	104	0	48	16761
2026-01-17 23:16:10.63	51.15	14.70	-36.2	-46.5	3.5	7.66e-01	0	32	104	0	48	16312
2026-01-17 23:16:11.61	50.93	14.74	-36.2	-46.5	3.5	7.66e-01	0	32	104	0	48	16257
2026-01-17 23:16:12.58	50.71	14.78	-37.8	-48.2	3.5	7.66e-01	0	32	104	0	48	19631
2026-01-17 23:16:13.56	50.49	14.83	-37.3	-47.7	3.5	7.66e-01	0	32	104	0	52	14718
2026-01-17 23:16:14.54	50.26	14.87	-37.9	-48.4	3.5	7.66e-01	0	32	104	0	48	20093
2026-01-17 23:16:15.51	50.04	14.91	-45.0	-57.8	3.5	7.66e-01	0	32	104	0	60	29721
2026-01-17 23:16:16.49	49.82	14.95	-38.0	-48.5	3.5	7.66e-01	0	32	104	0	54	14381
2026-01-17 23:16:17.46	49.59	14.99	-47.3	-65.0	3.5	7.66e-01	0	32	104	0	60	68128
2026-01-17 23:16:18.44	49.37	15.02	-42.1	-53.2	3.5	7.66e-01	0	32	104	0	58	19650
2026-01-17 23:16:19.42	49.14	15.06	-40.7	-51.4	3.5	7.66e-01	0	32	104	0	56	18053
2026-01-17 23:16:20.40	48.91	15.10	-39.6	-50.1	3.5	7.66e-01	0	32	104	0	54	17368
2026-01-17 23:16:21.38	48.68	15.14	-38.9	-49.4	3.5	7.66e-01	0	32	104	0	52	18104
2026-01-17 23:16:22.35	48.46	15.18	-44.2	-55.9	3.5	7.66e-01	0	32	104	0	60	23914
2026-01-17 23:16:23.33	48.23	15.22	-42.0	-53.0	3.6	7.66e-01	0	32	104	0	60	17104
2026-01-17 23:16:24.31	48.00	15.25	-48.1	-66.4	3.5	7.66e-01	0	32	104	0	60	80175
2026-01-17 23:16:25.28	47.77	15.29	-48.0	-64.4	3.5	7.66e-01	0	32	104	0	60	63658
2026-01-17 23:16:26.26	47.54	15.33	-37.3	-47.7	3.5	7.66e-01	0	32	104	0	48	18679
2026-01-17 23:16:27.24	47.31	15.36	-36.4	-46.8	3.5	7.66e-01	0	32	104	0	48	16740
2026-01-17 23:16:28.21	47.07	15.40	-36.0	-46.3	3.5	7.66e-01	0	32	104	0	48	15898
2026-01-17 23:16:29.19	46.84	15.43	-36.0	-46.3	3.6	7.66e-01	0	32	104	0	46	17893
2026-01-17 23:16:30.17	46.61	15.47	-36.2	-46.5	3.5	7.66e-01	0	32	104	0	46	18224
2026-01-17 23:16:31.14	46.38	15.50	-37.3	-47.7	3.6	7.66e-01	0	32	104	0	48	18730
2026-01-17 23:16:32.11	46.14	15.53	-37.6	-47.9	3.5	7.66e-01	0	32	104	0	48	19127
2026-01-17 23:16:33.10	45.91	15.57	-48.4	-65.8	3.5	7.66e-01	0	32	104	0	60	75030
2026-01-17 23:16:34.07	45.67	15.60	-45.3	-57.3	3.5	7.66e-01	0	32	104	0	60	28226
2026-01-17 23:16:35.05	45.43	15.63	-48.3	-66.3	3.5	7.66e-01	0	32	104	0	60	79895
2026-01-17 23:16:36.03	45.20	15.67	-42.1	-53.1	3.5	7.66e-01	0	32	104	0	60	17455
2026-01-17 23:16:37.01	44.96	15.70	-42.0	-53.0	3.5	7.66e-01	0	32	104	0	58	19382
2026-01-17 23:16:37.99	44.72	15.73	-41.7	-52.7	3.5	7.66e-01	0	32	104	0	58	18615
2026-01-17 23:16:38.97	44.48	15.76	-42.4	-53.6	3.5	7.66e-01	0	32	104	0	58	20565
2026-01-17 23:16:39.95	44.24	15.79	-47.1	-66.4	3.5	7.66e-01	0	32	104	0	60	80198
2026-01-17 23:16:40.93	44.00	15.82	-45.7	-66.1	3.5	7.66e-01	0	32	104	0	60	77333
2026-01-17 23:16:41.90	43.77	15.85	-43.0	-54.2	3.5	7.66e-01	0	32	104	0	54	27867
2026-01-17 23:16:42.88	43.52	15.88	-48.3	-66.2	3.5	7.66e-01	0	32	104	0	60	78837
2026-01-17 23:16:43.86	43.28	15.91	-37.1	-47.3	3.6	7.66e-01	0	32	104	0	50	15902
2026-01-17 23:16:44.83	43.04	15.94	-37.4	-47.7	3.6	7.66e-01	0	32	104	0	50	16561
2026-01-17 23:16:45.81	42.80	15.96	-37.4	-39.1	23.7	7.66e-01	0	32	104	0	50	6142
2026-01-17 23:16:46.78	42.56	15.99	-37.8	-39.2	26.7	7.66e-01	0	32	0	1048576	50	6255
2026-01-17 23:16:47.76	42.32	16.02	-38.2	-39.7	26.2	7.66e-01	0	32	0	3145728	50	6597
2026-01-17 23:16:48.73	42.08	16.04	-38.5	-40.0	26.1	7.66e-01	0	32	0	4718592	50	6849
2026-01-17 23:16:49.71	41.83	16.07	-37.3	-38.6	27.2	7.66e-01	0	32	0	6815744	50	5840
2026-01-17 23:16:50.68	41.59	16.10	-36.6	-37.9	27.9	7.66e-01	0	32	0	8388608	48	6047
2026-01-17 23:16:51.66	41.34	16.12	-36.6	-38.0	27.6	7.66e-01	0	32	0	10485760	48	6070
2026-01-17 23:16:52.64	41.10	16.15	-37.0	-38.3	27.4	7.66e-01	0	32	0	12058624	48	6350
2026-01-17 23:16:53.61	40.86	16.17	-36.7	-38.2	27.5	7.66e-01	0	32	0	14155776	48	6218
2026-01-17 23:16:54.59	40.61	16.19	-36.4	-37.8	28.0	7.66e-01	0	32	0	15728640	48	5986
2026-01-17 23:16:55.56	40.37	16.22	-35.7	-37.1	28.5	7.66e-01	0	32	0	17825792	46	6182
2026-01-17 23:16:56.54	40.12	16.24	-35.5	-36.9	28.7	7.66e-01	0	32	0	19398656	46	6021
2026-01-17 23:16:57.52	39.87	16.26	-35.7	-37.0	28.6	7.66e-01	0	32	0	21495808	46	6101
2026-01-17 23:16:58.49	39.63	16.28	-35.7	-37.0	28.6	7.66e-01	0	32	0	23068672	46	6113
2026-01-17 23:16:59.47	39.38	16.30	-35.7	-37.0	28.5	7.66e-01	0	32	0	25165824	46	6128
2026-01-17 23:17:00.45	39.13	16.32	-35.9	-37.2	28.4	7.66e-01	0	32	0	26738688	46	6268
2026-01-17 23:17:01.42	38.88	16.34	-35.8	-37.1	28.5	7.66e-01	0	32	0	28835840	46	6149
2026-01-17 23:17:02.40	38.63	16.36	-35.8	-37.2	28.4	7.66e-01	0	32	0	30408704	46	6240
2026-01-17 23:17:03.38	38.38	16.38	-35.6	-36.9	28.7	7.66e-01	0	32	0	32505856	46	6058
2026-01-17 23:17:04.36	38.13	16.40	-35.6	-37.0	28.6	7.66e-01	0	32	0	34078720	46	6078
2026-01-17 23:17:05.34	37.88	16.42	-35.7	-36.9	28.7	7.66e-01	0	32	0	36175872	46	6060
2026-01-17 23:17:06.31	37.63	16.44	-35.6	-36.8	28.8	7.66e-01	0	32	0	37748736	46	5974
2026-01-17 23:17:07.29	37.38	16.45	-35.4	-36.7	28.9	7.66e-01	0	32	0	39845888	46	5859
2026-01-17 23:17:08.26	37.13	16.47	-35.5	-36.8	28.8	7.66e-01	0	32	0	41418752	46	5936
2026-01-17 23:17:09.24	36.88	16.49	-35.7	-37.0	28.7	7.66e-01	0	32	0	43515904	46	6067
2026-01-17 23:17:10.22	36.63	16.50	-35.7	-36.9	28.7	7.66e-01	0	32	0	45088768	46	6055
2026-01-17 23:17:11.19	36.38	16.52	-35.8	-37.1	28.5	7.66e-01	0	32	0	47185920	46	6169
2026-01-17 23:17:12.17	36.13	16.53	-35.8	-37.0	28.6	7.66e-01	0	32	0	48758784	46	6094
2026-01-17 23:17:13.15	35.88	16.55	-35.6	-36.9	28.8	7.66e-01	0	32	0	50855936	46	6023
2026-01-17 23:17:14.12	35.63	16.56	-35.9	-37.1	28.4	7.66e-01	0	32	0	52428800	46	6179
2026-01-17 23:17:15.10	35.37	16.57	-35.5	-36.8	28.8	7.66e-01	0	32	0	54525952	46	5969
2026-01-17 23:17:16.08	35.12	16.58	-35.6	-36.9	28.7	7.66e-01	0	32	0	56098816	46	6010
2026-01-17 23:17:17.06	34.86	16.60	-35.7	-36.9	28.7	7.66e-01	0	32	0	58195968	46	6054
2026-01-17 23:17:18.03	34.61	16.61	-35.8	-37.0	28.5	7.66e-01	0	32	0	59768832	46	6128
2026-01-17 23:17:19.01	34.36	16.62	-35.7	-36.9	28.7	7.66e-01	0	32	0	61865984	46	6042
2026-01-17 23:17:19.99	34.11	16.63	-35.7	-37.0	28.7	7.66e-01	0	32	0	63438848	46	6068
2026-01-17 23:17:20.97	33.85	16.64	-35.7	-36.9	28.6	7.66e-01	0	32	0	65536000	46	6062
2026-01-17 23:17:21.95	33.60	16.65	-35.7	-37.0	28.7	7.66e-01	0	32	0	67108864	46	6079
2026-01-17 23:17:22.92	33.34	16.66	-35.6	-36.8	28.8	7.66e-01	0	32	0	69206016	46	5967
2026-01-17 23:17:23.90	33.09	16.66	-35.7	-37.0	28.7	7.66e-01	0	32	0	70778880	46	6081
2026-01-17 23:17:24.88	32.83	16.67	-35.7	-37.0	28.6	7.66e-01	0	32	0	72876032	46	6068
2026-01-17 23:17:25.85	32.58	16.68	-35.7	-37.0	28.6	7.66e-01	0	32	0	74448896	46	6090
2026-01-17 23:17:26.83	32.33	16.68	-35.8	-37.0	28.6	7.66e-01	0	32	0	76546048	46	6119
2026-01-17 23:17:27.80	32.07	16.69	-35.7	-37.0	28.7	7.66e-01	0	32	0	78118912	46	6093
2026-01-17 23:17:28.78	31.82	16.70	-35.6	-36.8	28.8	7.66e-01	0	32	0	80216064	46	5959
2026-01-17 23:17:29.75	31.57	16.70	-35.6	-36.8	28.8	7.66e-01	0	32	0	81788928	46	5976
2026-01-17 23:17:30.73	31.31	16.70	-35.7	-36.9	28.7	7.66e-01	0	32	0	83886080	46	6062
2026-01-17 23:17:31.71	31.05	16.71	-35.9	-37.2	28.5	7.66e-01	0	32	0	85458944	46	6211
2026-01-17 23:17:32.68	30.80	16.71	-35.9	-37.1	28.5	7.66e-01	0	32	0	87556096	46	6192
2026-01-17 23:17:33.66	30.55	16.71	-35.8	-37.1	28.5	7.66e-01	0	32	0	89128960	46	6168
2026-01-17 23:17:34.64	30.29	16.72	-35.6	-36.8	28.8	7.66e-01	0	32	0	91226112	46	5974
2026-01-17 23:17:35.61	30.04	16.72	-35.6	-36.8	28.8	7.66e-01	0	32	0	92798976	46	5994
2026-01-17 23:17:36.59	29.78	16.72	-35.7	-36.9	28.7	7.66e-01	0	32	0	94896128	46	6041
2026-01-17 23:17:37.56	29.53	16.72	-35.7	-37.0	28.6	7.66e-01	0	32	0	96468992	46	6101
2026-01-17 23:17:38.54	29.27	16.72	-35.9	-37.1	28.5	7.66e-01	0	32	0	98566144	46	6198
2026-01-17 23:17:39.52	29.02	16.72	-35.9	-37.2	28.4	7.66e-01	0	32	0	100139008	46	6235
2026-01-17 23:17:40.50	28.76	16.72	-35.6	-36.9	28.8	7.66e-01	0	32	0	102236160	46	6006
2026-01-17 23:17:41.48	28.50	16.71	-35.6	-36.8	28.9	7.66e-01	0	32	0	103809024	46	5942
2026-01-17 23:17:42.46	28.25	16.71	-35.6	-36.8	28.8	7.66e-01	0	32	0	105381888	46	5972
2026-01-17 23:17:43.44	27.99	16.71	-35.7	-36.9	28.8	7.66e-01	0	32	0	107479040	46	6034
2026-01-17 23:17:44.42	27.74	16.71	-35.7	-36.9	28.7	7.66e-01	0	32	0	109576192	46	6050
2026-01-17 23:17:45.40	27.48	16.70	-35.9	-37.2	28.5	7.66e-01	0	32	0	111149056	46	6209
2026-01-17 23:17:46.37	27.23	16.70	-35.8	-37.1	28.6	7.66e-01	0	32	0	113246208	46	6161
2026-01-17 23:17:47.34	26.98	16.69	-35.9	-37.2	28.4	7.66e-01	0	32	0	114819072	46	6235
2026-01-17 23:17:48.32	26.72	16.69	-35.9	-37.2	28.5	7.66e-01	0	32	0	116916224	46	6228
2026-01-17 23:17:49.29	26.47	16.68	-35.7	-37.0	28.6	7.66e-01	0	32	0	118489088	46	6089
2026-01-17 23:17:50.28	26.21	16.67	-35.8	-37.1	28.5	7.66e-01	0	32	0	120586240	46	6135
2026-01-17 23:17:51.25	25.96	16.67	-35.8	-37.0	28.6	7.66e-01	0	32	0	122159104	46	6123
2026-01-17 23:17:52.23	25.70	16.66	-35.9	-37.2	28.6	7.66e-01	0	32	0	124256256	46	6222
2026-01-17 23:17:53.21	25.45	16.65	-35.8	-37.1	28.6	7.66e-01	0	32	0	125829120	46	6157
2026-01-17 23:17:54.18	25.20	16.64	-35.9	-37.2	28.5	7.66e-01	0	32	0	127401984	46	6231
2026-01-17 23:17:55.16	24.94	16.63	-35.8	-37.1	28.6	7.66e-01	0	32	0	129499136	46	6171
2026-01-17 23:17:56.14	24.69	16.62	-35.8	-37.1	28.6	7.66e-01	0	32	0	131072000	46	6148
2026-01-17 23:17:57.11	24.44	16.61	-35.8	-37.1	28.6	7.66e-01	0	32	0	133169152	46	6135
2026-01-17 23:17:58.08	24.19	16.60	-35.9	-37.2	28.4	7.66e-01	0	32	0	134742016	46	6228
2026-01-17 23:17:59.06	23.93	16.59	-35.8	-37.1	28.6	7.66e-01	0	32	0	136839168	46	6137
2026-01-17 23:18:00.04	23.68	16.58	-35.9	-37.2	28.5	7.66e-01	0	32	0	138412032	46	6208
2026-01-17 23:18:01.02	23.43	16.56	-36.0	-37.2	28.5	7.66e-01	0	32	0	140509184	46	6266
2026-01-17 23:18:02.00	23.17	16.55	-35.9	-37.2	28.5	7.66e-01	0	32	0	142082048	46	6242
2026-01-17 23:18:02.97	22.92	16.54	-36.0	-37.2	28.4	7.66e-01	0	32	0	144179200	46	6268
2026-01-17 23:18:03.95	22.67	16.52	-36.1	-37.4	28.3	7.66e-01	0	32	0	145752064	46	6351
2026-01-17 23:18:04.93	22.42	16.51	-35.9	-37.1	28.6	7.66e-01	0	32	0	147849216	46	6177
2026-01-17 23:18:05.91	22.17	16.49	-35.8	-37.1	28.6	7.66e-01	0	32	0	149422080	46	6135
2026-01-17 23:18:06.89	21.91	16.48	-35.8	-37.0	28.6	7.66e-01	0	32	0	151519232	46	6102
2026-01-17 23:18:07.87	21.66	16.46	-35.8	-37.0	28.6	7.66e-01	0	32	0	153092096	46	6131
2026-01-17 23:18:08.84	21.41	16.44	-35.7	-37.0	28.5	7.66e-01	0	32	0	155189248	46	6094
2026-01-17 23:18:09.82	21.16	16.43	-35.9	-37.1	28.4	7.66e-01	0	32	0	156762112	46	6185
2026-01-17 23:18:10.80	20.91	16.41	-35.7	-36.9	28.7	7.66e-01	0	32	0	158859264	46	6031
2026-01-17 23:18:11.78	20.66	16.39	-35.8	-37.1	28.6	7.66e-01	0	32	0	160432128	46	6157
2026-01-17 23:18:12.75	20.42	16.37	-35.6	-36.8	28.8	7.66e-01	0	32	0	162529280	46	5962
2026-01-17 23:18:13.73	20.17	16.35	-35.7	-36.9	28.7	7.66e-01	0	32	0	164102144	46	6037
2026-01-17 23:18:14.71	19.92	16.33	-35.7	-36.9	28.6	7.66e-01	0	32	0	166199296	46	6051
2026-01-17 23:18:15.68	19.67	16.31	-35.7	-37.0	28.7	7.66e-01	0	32	0	167772160	46	6089
2026-01-17 23:18:16.66	19.42	16.29	-35.7	-37.0	28.7	7.66e-01	0	32	0	169869312	46	6075
2026-01-17 23:18:17.64	19.18	16.27	-35.8	-37.0	28.6	7.66e-01	0	32	0	171442176	46	6107
2026-01-17 23:18:18.62	18.93	16.25	-35.8	-37.0	28.6	7.66e-01	0	32	0	173539328	46	6103
2026-01-17 23:18:19.59	18.68	16.22	-35.8	-37.1	28.5	7.66e-01	0	32	0	175112192	46	6153
2026-01-17 23:18:20.57	18.44	16.20	-35.6	-36.8	28.8	7.66e-01	0	32	0	177209344	46	5994
2026-01-17 23:18:21.55	18.19	16.18	-35.7	-37.0	28.6	7.66e-01	0	32	0	178782208	46	6096
2026-01-17 23:18:22.53	17.95	16.15	-35.7	-37.0	28.6	7.66e-01	0	32	0	180879360	46	6096
2026-01-17 23:18:23.51	17.70	16.13	-35.9	-37.1	28.5	7.66e-01	0	32	0	182452224	46	6197
2026-01-17 23:18:24.49	17.46	16.10	-35.8	-37.0	28.6	7.66e-01	0	32	0	184549376	46	6132
2026-01-17 23:18:25.47	17.21	16.08	-35.8	-37.1	28.5	7.66e-01	0	32	0	186122240	46	6154
2026-01-17 23:18:26.45	16.97	16.05	-35.7	-36.9	28.7	7.66e-01	0	32	0	188219392	46	6063
2026-01-17 23:18:27.43	16.72	16.03	-35.7	-37.0	28.6	7.66e-01	0	32	0	189792256	46	6084
2026-01-17 23:18:28.40	16.48	16.00	-35.8	-37.0	28.7	7.66e-01	0	32	0	191889408	46	6098
2026-01-17 23:18:29.38	16.24	15.97	-35.7	-36.9	28.7	7.66e-01	0	32	0	193462272	46	6052
2026-01-17 23:18:30.36	16.00	15.94	-35.8	-37.1	28.6	7.66e-01	0	32	0	195559424	46	6160
2026-01-17 23:18:31.33	15.76	15.92	-35.7	-36.9	28.7	7.66e-01	0	32	0	197132288	46	6040
2026-01-17 23:18:32.31	15.52	15.89	-35.7	-37.0	28.6	7.66e-01	0	32	0	199229440	46	6093
2026-01-17 23:18:33.29	15.28	15.86	-35.7	-37.0	28.6	7.66e-01	0	32	0	200802304	46	6086
2026-01-17 23:18:34.26	15.04	15.83	-35.9	-37.1	28.5	7.66e-01	0	32	0	202899456	46	6195
2026-01-17 23:18:35.24	14.80	15.80	-35.8	-37.0	28.7	7.66e-01	0	32	0	204472320	46	6129
2026-01-17 23:18:36.22	14.56	15.77	-35.7	-37.0	28.7	7.66e-01	0	32	0	206569472	46	6091
2026-01-17 23:18:37.20	14.32	15.74	-35.8	-37.1	28.6	7.66e-01	0	32	0	208142336	46	6162
2026-01-17 23:18:38.17	14.09	15.71	-35.7	-37.0	28.7	7.66e-01	0	32	0	210239488	46	6084
2026-01-17 23:18:39.15	13.85	15.68	-35.8	-37.1	28.6	7.66e-01	0	32	0	211812352	46	6141
2026-01-17 23:18:40.12	13.61	15.64	-35.8	-37.0	28.6	7.66e-01	0	32	0	213909504	46	6112
2026-01-17 23:18:41.10	13.38	15.61	-35.7	-37.0	28.7	7.66e-01	0	32	0	215482368	46	6083
2026-01-17 23:18:42.08	13.14	15.58	-35.7	-37.0	28.7	7.66e-01	0	32	0	217579520	46	6084
2026-01-17 23:18:43.05	12.91	15.55	-35.8	-37.0	28.6	7.66e-01	0	32	0	219152384	46	6120
2026-01-17 23:18:44.02	12.68	15.51	-35.8	-37.0	28.7	7.66e-01	0	32	0	221249536	46	6104
2026-01-17 23:18:45.00	12.44	15.48	-35.8	-37.0	28.6	7.66e-01	0	32	0	222822400	46	6119
2026-01-17 23:18:45.97	12.21	15.44	-35.8	-37.1	28.6	7.66e-01	0	32	0	224919552	46	6135
2026-01-17 23:18:46.95	11.98	15.41	-35.7	-37.0	28.6	7.66e-01	0	32	0	226492416	46	6084
2026-01-17 23:18:47.92	11.75	15.37	-35.8	-37.0	28.6	7.66e-01	0	32	0	228589568	46	6123
2026-01-17 23:18:48.90	11.52	15.34	-35.7	-37.0	28.7	7.66e-01	0	32	0	230162432	46	6071
2026-01-17 23:18:49.88	11.28	15.30	-35.8	-37.0	28.6	7.66e-01	0	32	0	232259584	46	6105
2026-01-17 23:18:50.85	11.06	15.27	-35.9	-37.1	28.5	7.66e-01	0	32	0	233832448	46	6194
2026-01-17 23:18:51.83	10.83	15.23	-35.7	-36.9	28.7	7.66e-01	0	32	0	235929600	46	6045
2026-01-17 23:18:52.81	10.60	15.19	-35.6	-36.9	28.7	7.66e-01	0	32	0	237502464	46	6017
2026-01-17 23:18:53.79	10.37	15.15	-35.8	-37.0	28.6	7.66e-01	0	32	0	239599616	46	6131
2026-01-17 23:18:54.77	10.14	15.12	-35.8	-37.1	28.5	7.66e-01	0	32	0	241172480	46	6153
2026-01-17 23:18:55.74	9.91	15.08	-35.9	-37.1	28.5	7.66e-01	0	32	0	243269632	46	6186
2026-01-17 23:18:56.71	9.69	15.04	-35.9	-37.1	28.5	7.66e-01	0	32	0	244842496	46	6190
2026-01-17 23:18:57.69	9.46	15.00	-35.8	-37.1	28.5	7.66e-01	0	32	0	246939648	46	6142
2026-01-17 23:18:58.67	9.24	14.96	-35.9	-37.1	28.5	7.66e-01	0	32	0	248512512	46	6196
2026-01-17 23:18:59.65	9.01	14.92	-35.9	-37.2	28.4	7.66e-01	0	32	0	250609664	46	6242
2026-01-17 23:19:00.63	8.79	14.88	-36.2	-37.4	28.3	7.66e-01	0	32	0	252182528	46	6408
2026-01-17 23:19:01.61	8.57	14.84	-36.0	-37.2	28.4	7.66e-01	0	32	0	254279680	46	6276
2026-01-17 23:19:02.58	8.34	14.80	-35.7	-37.0	28.6	7.66e-01	0	32	0	255852544	46	6080
2026-01-17 23:19:03.56	8.12	14.76	-35.9	-37.2	28.5	7.66e-01	0	32	0	257949696	46	6227
2026-01-17 23:19:04.54	7.90	14.72	-35.9	-37.2	28.4	7.66e-01	0	32	0	259522560	46	6227
2026-01-17 23:19:05.52	7.68	14.68	-35.7	-36.9	28.7	7.66e-01	0	32	0	261619712	46	6024
2026-01-17 23:19:06.50	7.46	14.63	-35.6	-36.8	28.7	7.66e-01	0	32	0	263192576	46	5975
2026-01-17 23:19:07.48	7.24	14.59	-35.8	-37.1	28.6	7.66e-01	0	32	0	265289728	46	6137
2026-01-17 23:19:08.45	7.02	14.55	-35.8	-37.1	28.6	7.66e-01	0	32	0	266862592	46	6148
2026-01-17 23:19:09.42	6.81	14.51	-35.9	-37.1	28.4	7.66e-01	0	32	0	268959744	46	6202
2026-01-17 23:19:10.40	6.59	14.46	-35.8	-37.1	28.5	7.66e-01	0	32	0	270532608	46	6163
2026-01-17 23:19:11.38	6.37	14.42	-35.9	-37.1	28.5	7.66e-01	0	32	0	272629760	46	6196
2026-01-17 23:19:12.36	6.16	14.37	-35.8	-37.1	28.6	7.66e-01	0	32	0	274202624	46	6147
2026-01-17 23:19:13.33	5.94	14.33	-35.6	-36.9	28.7	7.66e-01	0	32	0	276299776	46	6011
2026-01-17 23:19:14.31	5.73	14.29	-35.7	-37.0	28.7	7.66e-01	0	32	0	277872640	46	6089
2026-01-17 23:19:15.29	5.51	14.24	-36.0	-37.2	28.5	7.66e-01	0	32	0	279969792	46	6249
2026-01-17 23:19:16.27	5.30	14.20	-35.7	-36.9	28.7	7.66e-01	0	32	0	281542656	46	6043
2026-01-17 23:19:17.24	5.09	14.15	-35.7	-36.9	28.8	7.66e-01	0	32	0	283639808	46	6018
2026-01-17 23:19:18.22	4.88	14.11	-35.8	-37.1	28.6	7.66e-01	0	32	0	285212672	46	6176
2026-01-17 23:19:19.20	4.67	14.06	-36.1	-37.3	28.4	7.66e-01	0	32	0	286785536	46	6345
2026-01-17 23:19:20.17	4.46	14.01	-36.0	-37.3	28.4	7.66e-01	0	32	0	288882688	46	6294
2026-01-17 23:19:21.15	4.25	13.97	-36.0	-37.3	28.4	7.66e-01	0	32	0	290455552	46	6304
2026-01-17 23:19:22.13	4.04	13.92	-35.8	-37.1	28.6	7.66e-01	0	32	0	292552704	46	6159
2026-01-17 23:19:23.11	3.83	13.87	-35.6	-36.9	28.8	7.66e-01	0	32	0	294125568	46	6006
2026-01-17 23:19:24.09	3.62	13.83	-35.8	-37.1	28.7	7.66e-01	0	32	0	296222720	46	6137
2026-01-17 23:19:25.06	3.42	13.78	-35.8	-37.1	28.6	7.66e-01	0	32	0	298319872	46	6162
2026-01-17 23:19:26.04	3.21	13.73	-35.9	-37.2	28.6	7.66e-01	0	32	0	299892736	46	6210
2026-01-17 23:19:27.01	3.01	13.68	-35.9	-37.2	28.5	7.66e-01	0	32	0	301989888	46	6258
2026-01-17 23:19:27.99	2.80	13.63	-36.0	-37.3	28.5	7.66e-01	0	32	0	303562752	46	6288
2026-01-17 23:19:28.97	2.60	13.59	-35.8	-37.0	28.6	7.66e-01	0	32	0	305659904	46	6134
2026-01-17 23:19:29.94	2.40	13.54	-35.9	-37.1	28.5	7.66e-01	0	32	0	307232768	46	6185
2026-01-17 23:19:30.92	2.20	13.49	-35.9	-37.2	28.4	7.66e-01	0	32	0	309329920	46	6214
2026-01-17 23:19:31.89	2.00	13.44	-35.7	-37.0	28.6	7.66e-01	0	32	0	310902784	46	6093
2026-01-17 23:19:32.87	1.79	13.39	-35.7	-37.0	28.6	7.66e-01	0	32	0	312475648	46	6088
2026-01-17 23:19:33.85	1.59	13.34	-35.9	-37.1	28.6	7.66e-01	0	32	0	314572800	46	6191
2026-01-17 23:19:34.83	1.39	13.29	-36.1	-37.4	28.4	7.66e-01	0	32	0	316145664	46	6363
2026-01-17 23:19:35.80	1.20	13.24	-36.0	-37.2	28.5	7.66e-01	0	32	0	318242816	46	6268
2026-01-17 23:19:36.77	1.00	13.19	-36.0	-37.3	28.4	7.66e-01	0	32	0	319815680	46	6287
2026-01-17 23:19:37.75	0.80	13.14	-35.8	-37.0	28.7	7.66e-01	0	32	0	321912832	46	6085
2026-01-17 23:19:38.73	0.61	13.09	-35.8	-37.1	28.5	7.66e-01	0	32	0	323485696	46	6165
2026-01-17 23:19:39.71	0.41	13.04	-36.2	-37.4	28.3	7.66e-01	0	32	0	325582848	46	6405
2026-01-17 23:19:40.69	0.22	12.99	-36.1	-37.3	28.4	7.66e-01	0	32	0	327155712	46	6341
2026-01-17 23:19:41.67	0.02	12.94	-36.1	-37.4	28.3	7.66e-01	0	32	0	329252864	46	6352
2026-01-17 23:19:42.65	359.83	12.89	-35.9	-37.2	28.5	7.66e-01	0	32	0	330825728	46	6234
2026-01-17 23:19:43.62	359.64	12.83	-35.9	-37.2	28.4	7.66e-01	0	32	0	332922880	46	6240
2026-01-17 23:19:44.60	359.44	12.78	-36.2	-37.5	28.2	7.66e-01	0	32	0	334495744	46	6463
2026-01-17 23:19:45.58	359.25	12.73	-35.9	-37.2	28.5	7.66e-01	0	32	0	336592896	46	6229
2026-01-17 23:19:46.56	359.06	12.68	-36.0	-37.3	28.4	7.66e-01	0	32	0	338165760	46	6288
2026-01-17 23:19:47.53	358.87	12.63	-35.9	-37.1	28.5	7.66e-01	0	32	0	340262912	46	6197
2026-01-17 23:19:48.51	358.68	12.57	-36.1	-37.3	28.3	7.66e-01	0	32	0	341835776	46	6338
2026-01-17 23:19:49.49	358.49	12.52	-36.0	-37.2	28.4	7.66e-01	0	32	0	343932928	46	6252
2026-01-17 23:19:50.46	358.31	12.47	-35.8	-37.1	28.5	7.66e-01	0	32	0	345505792	46	6155
2026-01-17 23:19:51.44	358.12	12.42	-35.9	-37.2	28.5	7.66e-01	0	32	0	347602944	46	6227
2026-01-17 23:19:52.42	357.93	12.36	-36.1	-37.3	28.4	7.66e-01	0	32	0	349175808	46	6346
2026-01-17 23:19:53.40	357.75	12.31	-36.0	-37.3	28.3	7.66e-01	0	32	0	351272960	46	6332
2026-01-17 23:19:54.38	357.56	12.26	-36.0	-37.2	28.4	7.66e-01	0	32	0	352845824	46	6271
2026-01-17 23:19:55.36	357.38	12.20	-36.1	-37.3	28.3	7.66e-01	0	32	0	354942976	46	6346
2026-01-17 23:19:56.33	357.20	12.15	-36.3	-37.6	28.0	7.66e-01	0	32	0	356515840	46	6560
2026-01-17 23:19:57.31	357.01	12.10	-36.0	-37.3	28.3	7.66e-01	0	32	0	358612992	46	6279
2026-01-17 23:19:58.29	356.83	12.04	-36.2	-37.5	28.2	7.66e-01	0	32	0	360185856	46	6453
2026-01-17 23:19:59.27	356.65	11.99	-36.3	-37.5	28.2	7.66e-01	0	32	0	362283008	46	6466
2026-01-17 23:20:00.25	356.47	11.93	-36.4	-37.7	27.9	7.66e-01	0	32	0	363855872	46	6618
2026-01-17 23:20:01.23	356.29	11.88	-36.4	-37.7	27.9	7.66e-01	0	32	0	365953024	46	6595
2026-01-17 23:20:02.21	356.11	11.82	-36.6	-37.9	28.0	7.66e-01	0	32	0	367525888	46	6765
2026-01-17 23:20:03.18	355.93	11.77	-36.4	-37.6	27.9	7.66e-01	0	32	0	369623040	46	6559
2026-01-17 23:20:04.16	355.76	11.72	-36.3	-37.6	28.0	7.66e-01	0	32	0	371195904	46	6525
2026-01-17 23:20:05.14	355.58	11.66	-36.5	-37.8	28.0	7.66e-01	0	32	0	373293056	46	6651
2026-01-17 23:20:06.11	355.41	11.61	-36.3	-37.6	28.1	7.66e-01	0	32	0	374865920	46	6541
2026-01-17 23:20:07.09	355.23	11.55	-36.4	-37.7	27.9	7.66e-01	0	32	0	376963072	46	6619
2026-01-17 23:20:08.07	355.06	11.50	-36.1	-37.3	28.3	7.66e-01	0	32	0	378535936	46	6337
2026-01-17 23:20:09.04	354.88	11.44	-36.1	-37.4	28.1	7.66e-01	0	32	0	380633088	46	6377
2026-01-17 23:20:10.02	354.71	11.39	-36.1	-37.4	28.2	7.66e-01	0	32	0	382205952	46	6379
2026-01-17 23:20:11.00	354.54	11.33	-36.1	-37.4	28.1	7.66e-01	0	32	0	384303104	46	6396
2026-01-17 23:20:11.97	354.37	11.27	-36.0	-37.3	28.3	7.66e-01	0	32	0	385875968	46	6284
2026-01-17 23:20:12.95	354.20	11.22	-36.4	-37.6	28.0	7.66e-01	0	32	0	387973120	46	6572
2026-01-17 23:20:13.93	354.02	11.16	-36.3	-37.6	28.1	7.66e-01	0	32	0	389545984	46	6564
2026-01-17 23:20:14.90	353.86	11.11	-36.5	-37.7	27.8	7.66e-01	0	32	0	391643136	46	6631
2026-01-17 23:20:15.88	353.69	11.05	-36.6	-38.0	27.7	7.66e-01	0	32	0	393216000	46	6809
2026-01-17 23:20:16.86	353.52	11.00	-36.4	-37.6	28.0	7.66e-01	0	32	0	395313152	46	6572
2026-01-17 23:20:17.84	353.35	10.94	-36.5	-37.9	27.8	7.66e-01	0	32	0	396886016	46	6736
2026-01-17 23:20:18.81	353.19	10.88	-36.3	-37.6	28.0	7.66e-01	0	32	0	398983168	46	6527
2026-01-17 23:20:19.78	353.02	10.83	-36.6	-37.9	27.8	7.66e-01	0	32	0	400556032	46	6764
2026-01-17 23:20:20.77	352.85	10.77	-36.5	-37.7	27.9	7.66e-01	0	32	0	402653184	46	6645
2026-01-17 23:20:21.74	352.69	10.71	-36.5	-37.8	27.7	7.66e-01	0	32	0	404226048	46	6688
2026-01-17 23:20:22.72	352.53	10.66	-36.6	-37.9	27.8	7.66e-01	0	32	0	406323200	46	6785
2026-01-17 23:20:23.70	352.36	10.60	-36.4	-37.7	27.8	7.66e-01	0	32	0	407896064	46	6623
2026-01-17 23:20:24.68	352.20	10.54	-35.9	-37.1	28.4	7.66e-01	0	32	0	409993216	46	6169
2026-01-17 23:20:25.65	352.04	10.49	-36.3	-37.6	27.9	7.66e-01	0	32	0	411566080	46	6555
2026-01-17 23:20:26.63	351.88	10.43	-36.4	-37.7	27.8	7.66e-01	0	32	0	413663232	46	6623
2026-01-17 23:20:27.61	351.72	10.37	-36.4	-37.7	27.9	7.66e-01	0	32	0	415236096	46	6586
2026-01-17 23:20:28.59	351.56	10.32	-36.7	-38.1	27.5	7.66e-01	0	32	0	417333248	46	6889
2026-01-17 23:20:29.56	351.40	10.26	-36.3	-37.6	27.9	7.66e-01	0	32	0	418906112	46	6509
2026-01-17 23:20:30.54	351.24	10.20	-36.6	-38.0	27.6	7.66e-01	0	32	0	421003264	46	6832
2026-01-17 23:20:31.52	351.08	10.15	-36.1	-37.3	28.1	7.66e-01	0	32	0	422576128	46	6321
2026-01-17 23:20:32.49	350.93	10.09	-36.5	-37.9	27.7	7.66e-01	0	32	0	424673280	46	6751
2026-01-17 23:20:33.47	350.77	10.03	-36.1	-37.4	28.0	7.66e-01	0	32	0	426246144	46	6373
2026-01-17 23:20:34.45	350.61	9.98	-37.0	-38.3	27.2	7.66e-01	0	32	0	428343296	46	7112
2026-01-17 23:20:35.42	350.46	9.92	-36.5	-37.8	27.7	7.66e-01	0	32	0	429916160	48	5945
2026-01-17 23:20:36.40	350.31	9.86	-37.2	-38.5	27.1	7.66e-01	0	32	0	432013312	48	6490
2026-01-17 23:20:37.38	350.15	9.80	-36.7	-38.0	27.6	7.66e-01	0	32	0	433586176	48	6075
2026-01-17 23:20:38.36	350.00	9.75	-36.9	-38.3	27.3	7.66e-01	0	32	0	435683328	48	6294
2026-01-17 23:20:39.34	349.85	9.69	-36.9	-38.2	27.5	7.66e-01	0	32	0	437256192	48	6218
2026-01-17 23:20:40.32	349.69	9.63	-37.1	-38.5	27.2	7.66e-01	0	32	0	439353344	48	6434
2026-01-17 23:20:41.29	349.54	9.57	-36.9	-38.2	27.6	7.66e-01	0	32	0	440926208	48	6230
2026-01-17 23:20:42.27	349.39	9.52	-37.1	-38.4	27.1	7.66e-01	0	32	0	443023360	48	6423
2026-01-17 23:20:43.25	349.24	9.46	-37.0	-38.4	27.2	7.66e-01	0	32	0	444596224	48	6380
2026-01-17 23:20:44.23	349.09	9.40	-37.0	-38.4	27.2	7.66e-01	0	32	0	446693376	48	6351
2026-01-17 23:20:45.21	348.95	9.34	-36.8	-38.1	27.3	7.66e-01	0	32	0	448266240	48	6190
2026-01-17 23:20:46.19	348.80	9.29	-36.9	-38.3	27.3	7.66e-01	0	32	0	450363392	48	6291
2026-01-17 23:20:47.16	348.65	9.23	-36.9	-38.3	27.4	7.66e-01	0	32	0	451936256	48	6287
2026-01-17 23:20:48.15	348.50	9.17	-37.1	-38.5	27.1	7.66e-01	0	32	0	454033408	48	6456
2026-01-17 23:20:49.12	348.36	9.11	-36.8	-38.1	27.5	7.66e-01	0	32	0	455606272	48	6199
2026-01-17 23:20:50.10	348.21	9.06	-37.3	-38.6	27.0	7.66e-01	0	32	0	457703424	48	6560
2026-01-17 23:20:51.08	348.07	9.00	-36.8	-38.1	27.5	7.66e-01	0	32	0	459276288	48	6174
2026-01-17 23:20:52.05	347.93	8.94	-37.0	-38.3	27.2	7.66e-01	0	32	0	461373440	48	6348
2026-01-17 23:20:53.03	347.78	8.88	-36.8	-38.1	27.4	7.66e-01	0	32	0	462946304	48	6179
2026-01-17 23:20:54.01	347.64	8.83	-36.8	-38.1	27.2	7.66e-01	0	32	0	465043456	48	6167
2026-01-17 23:20:54.99	347.50	8.77	-37.4	-38.9	26.5	7.66e-01	0	32	0	466616320	48	6749
2026-01-17 23:20:55.96	347.36	8.71	-36.5	-37.8	27.6	7.66e-01	0	32	0	468713472	48	5941
2026-01-17 23:20:56.94	347.21	8.65	-37.3	-38.7	26.9	7.66e-01	0	32	0	470286336	48	6635
2026-01-17 23:20:57.92	347.07	8.59	-37.0	-38.4	27.0	7.66e-01	0	32	0	472383488	48	6363
2026-01-17 23:20:58.90	346.93	8.54	-36.8	-38.1	27.4	7.66e-01	0	32	0	473956352	48	6173
2026-01-17 23:20:59.88	346.80	8.48	-37.1	-38.5	27.0	7.66e-01	0	32	0	476053504	48	6472
2026-01-17 23:21:00.85	346.66	8.42	-37.0	-38.3	27.2	7.66e-01	0	32	0	477626368	48	6320
2026-01-17 23:21:01.82	346.52	8.36	-37.3	-38.7	26.9	7.66e-01	0	32	0	479723520	48	6611
2026-01-17 23:21:02.80	346.38	8.31	-37.5	-39.0	26.6	7.66e-01	0	32	0	481296384	48	6806
2026-01-17 23:21:03.78	346.25	8.25	-37.2	-38.5	27.0	7.66e-01	0	32	0	483393536	48	6445
2026-01-17 23:21:04.76	346.11	8.19	-37.7	-39.1	26.5	7.66e-01	0	32	0	484966400	48	6914
2026-01-17 23:21:05.73	345.98	8.13	-37.3	-38.7	26.8	7.66e-01	0	32	0	487063552	48	6585
2026-01-17 23:21:06.71	345.84	8.08	-37.5	-38.8	26.6	7.66e-01	0	32	0	488636416	48	6722
2026-01-17 23:21:07.69	345.71	8.02	-37.9	-39.3	26.2	7.66e-01	0	32	0	490733568	50	6326
2026-01-17 23:21:08.67	345.57	7.96	-37.1	-38.4	27.2	7.66e-01	0	32	0	492306432	50	5667
2026-01-17 23:21:09.65	345.44	7.90	-37.5	-38.9	26.6	7.66e-01	0	32	0	493879296	50	6025
2026-01-17 23:21:10.63	345.31	7.84	-37.6	-39.0	26.6	7.66e-01	0	32	0	495976448	50	6095
2026-01-17 23:21:11.60	345.18	7.79	-37.2	-38.5	26.9	7.66e-01	0	32	0	497549312	50	5775
2026-01-17 23:21:12.58	345.05	7.73	-37.6	-39.0	26.6	7.66e-01	0	32	0	499646464	50	6099
2026-01-17 23:21:13.56	344.91	7.67	-37.4	-38.8	26.7	7.66e-01	0	32	0	501743616	50	5971
2026-01-17 23:21:14.54	344.78	7.61	-37.6	-39.0	26.4	7.66e-01	0	32	0	503316480	50	6126
2026-01-17 23:21:15.52	344.65	7.55	-37.8	-39.2	26.4	7.66e-01	0	32	0	505413632	50	6239
2026-01-17 23:21:16.49	344.53	7.50	-37.5	-38.9	26.6	7.66e-01	0	32	0	506986496	50	5995
2026-01-17 23:21:17.47	344.40	7.44	-38.1	-39.6	26.0	7.66e-01	0	32	0	509083648	50	6528
2026-01-17 23:21:18.45	344.27	7.38	-38.3	-39.7	25.7	7.66e-01	0	32	0	510656512	50	6636
2026-01-17 23:21:19.42	344.14	7.32	-37.8	-39.2	26.3	7.66e-01	0	32	0	512753664	50	6246
2026-01-17 23:21:20.40	344.02	7.27	-38.5	-40.1	25.6	7.66e-01	0	32	0	514326528	50	6927
2026-01-17 23:21:21.38	343.89	7.21	-37.9	-39.3	26.3	7.66e-01	0	32	0	516423680	50	6325
2026-01-17 23:21:22.35	343.77	7.15	-37.3	-38.6	26.7	7.66e-01	0	32	0	517996544	50	5839
2026-01-17 23:21:23.32	343.64	7.10	-38.0	-39.5	25.9	7.66e-01	0	32	0	519569408	50	6481
2026-01-17 23:21:24.30	343.52	7.04	-37.5	-38.9	26.3	7.66e-01	0	32	0	521666560	50	6050
2026-01-17 23:21:25.28	343.39	6.98	-37.3	-38.6	26.6	7.66e-01	0	32	0	523239424	50	5820
2026-01-17 23:21:26.26	343.27	6.92	-38.3	-39.9	25.5	7.66e-01	0	32	0	525336576	50	6780
2026-01-17 23:21:27.24	343.15	6.86	-37.7	-39.1	25.9	7.66e-01	0	32	0	526909440	50	6178
2026-01-17 23:21:28.22	343.02	6.81	-37.2	-38.5	26.6	7.66e-01	0	32	0	529006592	50	5753
2026-01-17 23:21:29.19	342.90	6.75	-38.7	-40.3	25.2	7.66e-01	0	32	0	530579456	50	7081
2026-01-17 23:21:30.17	342.78	6.69	-38.3	-39.8	25.1	7.66e-01	0	32	0	532676608	50	6703
2026-01-17 23:21:31.15	342.66	6.64	-37.9	-39.2	26.0	7.66e-01	0	32	0	534249472	50	6273
2026-01-17 23:21:32.12	342.54	6.58	-38.7	-40.2	25.1	7.66e-01	0	32	0	536346624	50	7037
2026-01-17 23:21:33.10	342.42	6.52	-38.6	-40.2	24.9	7.66e-01	0	32	0	537919488	52	6232
2026-01-17 23:21:34.08	342.30	6.46	-37.4	-38.7	26.5	7.66e-01	0	32	0	540016640	50	5910
2026-01-17 23:21:35.06	342.18	6.41	-37.9	-39.3	25.8	7.66e-01	0	32	0	541589504	50	6308
2026-01-17 23:21:36.03	342.07	6.35	-38.4	-40.0	25.2	7.66e-01	0	32	0	543686656	50	6838
2026-01-17 23:21:37.01	341.95	6.29	-38.1	-39.6	25.5	7.66e-01	0	32	0	545259520	50	6541
2026-01-17 23:21:37.98	341.83	6.24	-38.2	-39.7	25.2	7.66e-01	0	32	0	547356672	50	6633
2026-01-17 23:21:38.96	341.72	6.18	-39.4	-41.2	24.1	7.66e-01	0	32	0	548929536	52	7025
2026-01-17 23:21:39.94	341.60	6.12	-39.1	-40.8	24.3	7.66e-01	0	32	0	551026688	52	6653
2026-01-17 23:21:40.92	341.48	6.06	-39.0	-40.6	24.5	7.66e-01	0	32	0	552599552	52	6561
2026-01-17 23:21:41.90	341.37	6.01	-39.5	-41.3	23.6	7.66e-01	0	32	0	554696704	52	7054
2026-01-17 23:21:42.88	341.25	5.95	-39.4	-41.1	23.7	7.66e-01	0	32	0	556269568	52	6961
2026-01-17 23:21:43.86	341.14	5.89	-38.2	-39.7	25.4	7.66e-01	0	32	0	558366720	52	5887
2026-01-17 23:21:44.83	341.03	5.84	-38.3	-39.8	25.0	7.66e-01	0	32	0	559939584	52	5993
2026-01-17 23:21:45.81	340.91	5.78	-39.3	-41.0	24.2	7.66e-01	0	32	0	562036736	52	6866
2026-01-17 23:21:46.79	340.80	5.72	-38.9	-40.5	24.4	7.66e-01	0	32	0	563609600	52	6427
2026-01-17 23:21:47.76	340.69	5.67	-39.0	-40.6	24.2	7.66e-01	0	32	0	565706752	52	6532
2026-01-17 23:21:48.74	340.58	5.61	-39.4	-41.2	23.6	7.66e-01	0	32	0	567279616	52	7002
2026-01-17 23:21:49.72	340.47	5.55	-39.6	-41.5	23.4	7.66e-01	0	32	0	569376768	52	7234
2026-01-17 23:21:50.69	340.36	5.50	-39.3	-41.0	23.8	7.66e-01	0	32	0	570949632	52	6824
2026-01-17 23:21:51.67	340.25	5.44	-39.5	-41.3	23.5	7.66e-01	0	32	0	573046784	52	7073
2026-01-17 23:21:52.65	340.14	5.38	-40.1	-42.1	22.7	7.66e-01	0	32	0	574619648	54	6921
2026-01-17 23:21:53.63	340.03	5.33	-40.3	-42.3	22.4	7.66e-01	0	32	0	576716800	54	7086
2026-01-17 23:21:54.61	339.92	5.27	-40.2	-42.1	22.7	7.66e-01	0	32	0	578289664	54	6930
2026-01-17 23:21:55.59	339.81	5.21	-40.3	-42.2	22.4	7.66e-01	0	32	0	580386816	54	7022
2026-01-17 23:21:56.56	339.70	5.16	-40.9	-43.1	21.5	7.66e-01	0	32	0	581959680	54	7749
2026-01-17 23:21:57.54	339.60	5.10	-41.1	-43.3	21.5	7.66e-01	0	32	0	584056832	56	7062
2026-01-17 23:21:58.51	339.49	5.05	-40.9	-43.0	21.6	7.66e-01	0	32	0	585629696	56	6844
2026-01-17 23:21:59.49	339.38	4.99	-40.9	-43.1	21.4	7.66e-01	0	32	0	587726848	56	6943
2026-01-17 23:22:00.47	339.28	4.93	-41.6	-44.0	20.6	7.66e-01	0	32	0	589299712	56	7702
2026-01-17 23:22:01.45	339.17	4.88	-41.6	-44.1	20.3	7.66e-01	0	32	0	591396864	56	7753
2026-01-17 23:22:02.43	339.07	4.82	-41.7	-44.3	20.0	7.66e-01	0	32	0	592969728	56	7955
2026-01-17 23:22:03.40	338.96	4.76	-42.0	-44.8	19.4	7.66e-01	0	32	0	595066880	56	8394
2026-01-17 23:22:04.39	338.86	4.71	-42.4	-45.5	18.6	7.66e-01	0	32	0	596639744	58	8108
2026-01-17 23:22:05.37	338.75	4.65	-42.5	-45.7	18.1	7.66e-01	0	32	0	598736896	58	8295
2026-01-17 23:22:06.35	338.65	4.60	-42.5	-45.9	17.4	7.66e-01	0	32	0	600309760	58	8532
2026-01-17 23:22:07.32	338.55	4.54	-42.8	-46.5	16.7	7.66e-01	0	32	0	602406912	58	9137
2026-01-17 23:22:08.30	338.45	4.48	-43.4	-47.9	15.3	7.66e-01	0	32	0	603979776	60	9526
2026-01-17 23:22:09.28	338.34	4.43	-43.6	-48.7	14.2	7.66e-01	0	32	0	606076928	60	10522
2026-01-17 23:22:10.26	338.24	4.37	-43.8	-49.1	13.8	7.66e-01	0	32	0	607649792	60	10921
2026-01-17 23:22:11.24	338.14	4.32	-44.0	-50.0	12.5	7.66e-01	0	32	0	609746944	60	12113
2026-01-17 23:22:12.21	338.04	4.26	-44.3	-51.2	11.4	7.66e-01	0	32	0	611319808	60	13910
2026-01-17 23:22:13.19	337.94	4.21	-44.4	-52.0	10.3	7.66e-01	0	32	0	613416960	60	15261
2026-01-17 23:22:14.17	337.84	4.15	-44.5	-53.1	8.7	7.66e-01	3	32	0	614989824	60	17402
2026-01-17 23:22:15.14	337.74	4.10	-44.6	-54.0	7.5	7.66e-01	90	32	0	617086976	60	19251
2026-01-17 23:22:16.12	337.64	4.04	-44.6	-55.2	6.0	7.66e-01	91	32	0	618659840	60	22102
2026-01-17 23:22:17.10	337.55	3.98	-44.6	-56.8	5.7	7.66e-01	92	32	104	619708416	60	26669
2026-01-17 23:22:18.07	337.45	3.93	-44.7	-58.2	3.7	7.66e-01	0	32	104	619708416	60	31194
2026-01-17 23:22:19.05	337.35	3.87	-44.7	-59.3	4.1	7.66e-01	0	32	104	619708416	60	35510
2026-01-17 23:22:20.03	337.25	3.82	-44.6	-59.9	3.9	7.66e-01	0	32	104	619708416	60	37924
2026-01-17 23:22:21.00	337.16	3.76	-44.6	-60.6	3.7	7.66e-01	0	32	104	619708416	60	41420
2026-01-17 23:22:21.98	337.06	3.71	-44.7	-61.1	3.5	7.66e-01	0	32	104	619708416	60	43528
2026-01-17 23:22:22.96	336.97	3.65	-44.7	-62.5	3.5	7.66e-01	0	32	104	619708416	60	51192
2026-01-17 23:22:23.94	336.87	3.60	-44.7	-62.6	3.5	7.66e-01	0	32	104	619708416	60	51806
2026-01-17 23:22:24.92	336.78	3.54	-44.7	-61.1	3.5	7.66e-01	0	32	104	619708416	60	43916
2026-01-17 23:22:25.90	336.68	3.49	-44.7	-61.5	3.5	7.66e-01	0	32	104	619708416	60	45570
2026-01-17 23:22:26.87	336.59	3.43	-44.7	-61.7	3.5	7.66e-01	0	32	104	619708416	60	46846
2026-01-17 23:22:27.85	336.49	3.38	-44.7	-62.0	3.5	7.66e-01	0	32	104	619708416	60	48418
2026-01-17 23:22:28.82	336.40	3.32	-44.7	-62.1	3.5	7.66e-01	0	32	104	619708416	60	48870
2026-01-17 23:22:29.80	336.31	3.27	-44.8	-62.4	3.5	7.66e-01	0	32	104	619708416	60	50678
2026-01-17 23:22:30.77	336.21	3.22	-44.7	-62.6	3.5	7.66e-01	0	32	104	619708416	60	51689
2026-01-17 23:22:31.75	336.12	3.16	-44.6	-62.5	3.5	7.66e-01	0	32	104	619708416	60	51451
2026-01-17 23:22:32.72	336.03	3.11	-44.6	-62.5	3.5	7.66e-01	0	32	104	619708416	60	51351
2026-01-17 23:22:33.70	335.94	3.05	-44.6	-62.5	3.5	7.66e-01	0	32	104	619708416	60	51422
2026-01-17 23:22:34.68	335.85	3.00	-44.7	-62.6	3.5	7.66e-01	0	32	104	619708416	60	51648
2026-01-17 23:22:35.66	335.76	2.94	-48.5	-66.4	3.5	7.66e-01	0	32	104	619708416	60	80026
2026-01-17 23:22:36.64	335.67	2.89	-48.5	-66.6	3.5	7.66e-01	0	32	104	619708416	60	82662
2026-01-17 23:22:37.62	335.58	2.83	-49.0	-66.9	3.5	7.66e-01	0	32	104	619708416	60	85572
2026-01-17 23:22:38.59	335.49	2.78	-49.2	-67.0	3.5	7.66e-01	0	32	104	619708416	60	86432
2026-01-17 23:22:39.57	335.40	2.73	-49.0	-67.1	3.5	7.66e-01	0	32	104	619708416	60	87447
2026-01-17 23:22:40.54	335.31	2.67	-48.9	-67.2	3.5	7.66e-01	0	32	104	619708416	60	88084
2026-01-17 23:22:41.52	335.22	2.62	-49.3	-67.3	3.5	7.66e-01	0	32	104	619708416	60	88745
2026-01-17 23:22:42.50	335.13	2.56	-49.0	-67.2	3.5	7.66e-01	0	32	104	619708416	60	88320
2026-01-17 23:22:43.48	335.05	2.51	-48.7	-67.2	3.5	7.66e-01	0	32	104	619708416	60	88340
2026-01-17 23:22:44.45	334.96	2.46	-49.1	-67.2	3.5	7.66e-01	0	32	104	619708416	60	88338
2026-01-17 23:22:45.43	334.87	2.40	-48.7	-67.1	3.5	7.66e-01	0	32	104	619708416	60	87443
2026-01-17 23:22:46.41	334.79	2.35	-48.7	-67.1	3.5	7.66e-01	0	32	104	619708416	60	87010
2026-01-17 23:22:47.39	334.70	2.30	-48.9	-67.1	3.5	7.66e-01	0	32	104	619708416	60	87436
2026-01-17 23:22:48.37	334.61	2.24	-49.2	-67.1	3.5	7.66e-01	0	32	104	619708416	60	86809
2026-01-17 23:22:49.34	334.53	2.19	-48.1	-67.1	3.5	7.66e-01	0	32	104	619708416	60	87275
2026-01-17 23:22:50.32	334.44	2.13	-49.3	-67.3	3.5	7.66e-01	0	32	104	619708416	60	88772
2026-01-17 23:22:51.30	334.36	2.08	-49.3	-67.2	3.5	7.66e-01	0	32	104	619708416	60	88158
2026-01-17 23:22:52.27	334.27	2.03	-49.3	-67.2	3.5	7.66e-01	0	32	104	619708416	60	88403
2026-01-17 23:22:53.25	334.19	1.97	-49.3	-67.2	3.5	7.66e-01	0	32	104	619708416	60	88345
2026-01-17 23:22:54.23	334.11	1.92	-49.2	-67.1	3.5	7.66e-01	0	32	104	619708416	60	87298
2026-01-17 23:22:55.21	334.02	1.87	-49.2	-67.1	3.5	7.66e-01	0	32	104	619708416	60	87336
2026-01-17 23:22:56.18	333.94	1.81	-49.3	-67.2	3.5	7.66e-01	0	32	104	619708416	60	87699
2026-01-17 23:22:57.16	333.86	1.76	-49.3	-67.1	3.5	7.66e-01	0	32	104	619708416	60	87417
2026-01-17 23:22:58.13	333.77	1.71	-49.3	-67.2	3.5	7.66e-01	0	32	104	619708416	60	87975
2026-01-17 23:22:59.11	333.69	1.66	-49.3	-67.2	3.5	7.66e-01	0	32	104	619708416	60	87911
2026-01-17 23:23:00.08	333.61	1.60	-49.3	-67.2	3.5	7.66e-01	0	32	104	619708416	60	87694
2026-01-17 23:23:01.06	333.53	1.55	-49.3	-67.3	3.5	7.66e-01	0	32	104	619708416	60	88793
2026-01-17 23:23:02.04	333.45	1.50	-49.4	-67.3	3.5	7.66e-01	0	32	104	619708416	60	88759
2026-01-17 23:23:03.02	333.37	1.44	-49.3	-67.2	3.5	7.66e-01	0	32	104	619708416	60	88061
2026-01-17 23:23:04.00	333.29	1.39	-49.4	-67.3	3.5	7.66e-01	0	32	104	619708416	60	88741
2026-01-17 23:23:04.98	333.21	1.34	-49.3	-67.2	3.5	7.66e-01	0	32	104	619708416	60	88585
2026-01-17 23:23:05.96	333.13	1.29	-49.4	-67.2	3.5	7.66e-01	0	32	104	619708416	60	88133
2026-01-17 23:23:06.93	333.05	1.23	-49.3	-67.2	3.5	7.66e-01	0	32	104	619708416	60	88606
2026-01-17 23:23:07.91	332.97	1.18	-49.4	-67.3	3.5	7.66e-01	0	32	104	619708416	60	88683
2026-01-17 23:23:08.89	332.89	1.13	-49.4	-67.3	3.5	7.66e-01	0	32	104	619708416	60	88749
2026-01-17 23:23:09.86	332.81	1.08	-49.4	-67.3	3.5	7.66e-01	0	32	104	619708416	60	88834
2026-01-17 23:23:10.84	332.73	1.02	-49.3	-67.2	3.5	7.66e-01	0	32	104	619708416	60	88194
2026-01-17 23:23:11.82	332.65	0.97	-49.3	-67.2	3.5	7.66e-01	0	32	104	619708416	60	88054
2026-01-17 23:23:12.80	332.58	0.92	-49.3	-67.2	3.5	7.66e-01	0	32	104	619708416	60	87765
2026-01-17 23:23:13.77	332.50	0.87	-49.5	-67.4	3.5	7.66e-01	0	32	104	619708416	60	90187
2026-01-17 23:23:14.75	332.42	0.82	-49.3	-67.2	3.5	7.66e-01	0	32	104	619708416	60	87663
2026-01-17 23:23:15.73	332.35	0.76	-49.3	-67.2	3.5	7.66e-01	0	32	104	619708416	60	88253
2026-01-17 23:23:16.71	332.27	0.71	-49.6	-67.4	3.5	7.66e-01	0	32	104	619708416	60	90659
2026-01-17 23:23:17.69	332.19	0.66	-49.6	-67.5	3.5	7.66e-01	0	32	104	619708416	60	90791
2026-01-17 23:23:18.67	332.12	0.61	-49.4	-67.3	3.5	7.66e-01	0	32	104	619708416	60	89153
2026-01-17 23:23:19.64	332.04	0.56	-49.6	-67.4	3.5	7.66e-01	0	32	104	619708416	60	90562
2026-01-17 23:23:20.62	331.97	0.50	-49.3	-67.2	3.5	7.66e-01	0	32	104	619708416	60	88350
2026-01-17 23:23:21.60	331.89	0.45	-49.5	-67.4	3.5	7.66e-01	0	32	104	619708416	60	90321
2026-01-17 23:23:22.58	331.82	0.40	-49.3	-67.2	3.5	7.66e-01	0	32	104	619708416	60	87983
2026-01-17 23:23:23.55	331.75	0.35	-49.3	-67.2	3.5	7.66e-01	0	32	104	619708416	60	88517
2026-01-17 23:23:24.53	331.67	0.30	-49.4	-67.3	3.5	7.66e-01	0	32	104	619708416	60	89123
2026-01-17 23:23:25.51	331.60	0.25	-49.4	-67.2	3.5	7.66e-01	0	32	104	619708416	60	88228
2026-01-17 23:23:26.49	331.52	0.19	-49.4	-67.3	3.5	7.66e-01	0	32	104	619708416	60	89220
2026-01-17 23:23:27.46	331.45	0.14	-49.3	-67.2	3.5	7.66e-01	0	32	104	619708416	60	88175
