passes_logs/2026/01/17/R4.6S_Anadyr/R4.6S_Anadyr__20260117_032435_AQUA_rec.log

#Pass ID: 20260117_032435_AQUA
#Satellite: AQUA
#Configuration: AQUA
#almurnet v.1.7.20251203
#Start time: 2026-01-17 03:24:37

#Version: 2.2.20231116
#Station: R4.6S_Anadyr
#Location: 177.4865 lon 64.73178 lat
#TLE: 1 27424U 02022A   26016.59833233  .00000670  00000+0  14410-3 0  9991
#TLE: 2 27424  98.4084 343.0525 0002018  76.3524 343.9424 14.61823666261128

#Time	Az	El	Level	Level2	SNR	BER	BlckErr	Temp	State	Recorded	gain1	gain2
2026-01-17 03:24:37.04	195.58	0.09	-48.1	-59.7	3.5	8.46e-01	0	26	0	0	60	34922
2026-01-17 03:24:38.05	195.63	0.14	-48.3	-66.7	3.5	3.02e+01	0	27	104	0	60	83211
2026-01-17 03:24:39.06	195.69	0.20	-48.3	-66.4	3.5	3.02e+01	0	28	104	0	60	80737
2026-01-17 03:24:40.07	195.74	0.26	-48.4	-66.4	3.5	3.02e+01	0	28	104	0	60	80578
2026-01-17 03:24:41.08	195.80	0.32	-48.2	-66.4	3.5	3.02e+01	0	28	104	0	60	80411
2026-01-17 03:24:42.09	195.86	0.38	-48.0	-66.5	3.5	3.02e+01	0	28	104	0	60	81061
2026-01-17 03:24:43.10	195.91	0.44	-48.4	-66.3	3.5	3.02e+01	0	28	104	0	60	79901
2026-01-17 03:24:44.11	195.97	0.49	-48.4	-66.4	3.5	3.02e+01	0	28	104	0	60	80663
2026-01-17 03:24:45.12	196.03	0.55	-48.4	-66.3	3.5	3.02e+01	0	28	104	0	60	79894
2026-01-17 03:24:46.13	196.08	0.61	-48.4	-66.4	3.5	3.02e+01	0	28	104	0	60	80023
2026-01-17 03:24:47.14	196.14	0.67	-48.3	-66.3	3.5	3.02e+01	0	28	104	0	60	79544
2026-01-17 03:24:48.15	196.20	0.73	-48.2	-66.2	3.5	3.02e+01	0	28	104	0	60	78439
2026-01-17 03:24:49.16	196.26	0.79	-48.1	-66.0	3.5	3.02e+01	0	28	104	0	60	76908
2026-01-17 03:24:50.17	196.32	0.85	-47.9	-65.9	3.5	3.02e+01	0	28	104	0	60	75477
2026-01-17 03:24:51.18	196.37	0.91	-47.6	-65.6	3.5	3.02e+01	0	28	104	0	60	72991
2026-01-17 03:24:52.18	196.43	0.97	-47.4	-64.7	3.5	3.02e+01	0	28	104	0	60	66432
2026-01-17 03:24:53.19	196.49	1.03	-47.2	-64.9	3.5	3.02e+01	0	28	104	0	60	67497
2026-01-17 03:24:54.20	196.55	1.09	-47.2	-64.9	3.5	3.02e+01	0	28	104	0	60	67649
2026-01-17 03:24:55.21	196.61	1.15	-47.2	-64.9	3.5	3.02e+01	0	28	104	0	60	67856
2026-01-17 03:24:56.22	196.67	1.21	-47.2	-64.9	3.5	3.02e+01	0	28	104	0	60	67299
2026-01-17 03:24:57.23	196.73	1.27	-47.1	-64.5	3.5	3.02e+01	0	28	104	0	60	64844
2026-01-17 03:24:58.24	196.79	1.33	-47.2	-64.6	3.5	3.02e+01	0	28	104	0	60	65493
2026-01-17 03:24:59.26	196.85	1.39	-47.2	-64.2	3.5	3.02e+01	0	28	104	0	60	62110
2026-01-17 03:25:00.27	196.91	1.45	-47.2	-64.3	3.5	3.02e+01	0	28	104	0	60	63002
2026-01-17 03:25:01.28	196.97	1.51	-47.1	-64.2	3.5	3.02e+01	0	28	104	0	60	62375
2026-01-17 03:25:02.29	197.03	1.57	-47.1	-64.4	3.5	3.02e+01	0	28	104	0	60	64157
2026-01-17 03:25:03.30	197.09	1.63	-47.2	-64.8	3.5	3.02e+01	0	28	104	0	60	67078
2026-01-17 03:25:04.30	197.15	1.69	-47.2	-64.9	3.5	3.02e+01	0	28	104	0	60	68016
2026-01-17 03:25:05.31	197.22	1.75	-47.2	-65.0	3.5	3.02e+01	0	28	104	0	60	68330
2026-01-17 03:25:06.32	197.28	1.81	-47.1	-65.0	3.5	3.02e+01	0	28	104	0	60	68469
2026-01-17 03:25:07.33	197.34	1.87	-47.2	-65.0	3.5	3.02e+01	0	28	104	0	60	68294
2026-01-17 03:25:08.34	197.40	1.93	-47.2	-65.0	3.5	3.02e+01	0	28	104	0	60	68382
2026-01-17 03:25:09.35	197.47	2.00	-47.1	-64.9	3.5	3.02e+01	0	28	104	0	60	67653
2026-01-17 03:25:10.36	197.53	2.06	-47.1	-64.6	3.5	3.02e+01	0	28	104	0	60	65265
2026-01-17 03:25:11.37	197.59	2.12	-47.1	-64.5	3.5	3.02e+01	0	28	104	0	60	64305
2026-01-17 03:25:12.38	197.66	2.18	-47.1	-64.5	3.5	3.02e+01	0	28	104	0	60	64404
2026-01-17 03:25:13.39	197.72	2.24	-47.1	-64.7	3.5	3.02e+01	0	28	104	0	60	66183
2026-01-17 03:25:14.40	197.79	2.30	-47.1	-64.8	3.5	3.02e+01	0	28	104	0	60	66718
2026-01-17 03:25:15.41	197.85	2.37	-47.1	-64.9	3.5	3.02e+01	0	28	104	0	60	67294
2026-01-17 03:25:16.42	197.91	2.43	-47.2	-64.8	3.5	3.02e+01	0	28	104	0	60	66498
2026-01-17 03:25:17.43	197.98	2.49	-47.2	-64.8	3.5	3.02e+01	0	28	104	0	60	67197
2026-01-17 03:25:18.44	198.05	2.55	-47.2	-65.0	3.5	3.02e+01	0	28	104	0	60	68271
2026-01-17 03:25:19.45	198.11	2.62	-47.1	-64.7	3.5	3.02e+01	0	28	104	0	60	65902
2026-01-17 03:25:20.46	198.18	2.68	-47.1	-62.8	3.6	3.02e+01	0	28	104	0	60	53391
2026-01-17 03:25:21.47	198.24	2.74	-47.0	-61.0	4.2	3.02e+01	0	28	104	0	60	43406
2026-01-17 03:25:22.47	198.31	2.80	-47.0	-59.7	5.1	3.02e+01	0	28	0	0	60	36981
2026-01-17 03:25:23.48	198.38	2.87	-47.0	-60.6	4.8	3.02e+01	0	28	104	0	60	41084
2026-01-17 03:25:24.49	198.44	2.93	-47.1	-62.3	3.9	3.02e+01	0	28	104	0	60	49977
2026-01-17 03:25:25.50	198.51	2.99	-47.0	-61.1	3.6	3.02e+01	0	28	104	0	60	43879
2026-01-17 03:25:26.51	198.58	3.06	-46.2	-53.9	10.6	3.02e+01	92	28	0	524288	60	19020
2026-01-17 03:25:27.52	198.65	3.12	-44.7	-49.0	15.7	3.02e+01	91	28	0	2097152	60	10801
2026-01-17 03:25:28.53	198.72	3.19	-42.8	-45.8	18.9	3.02e+01	92	28	0	4194304	60	7470
2026-01-17 03:25:29.54	198.78	3.25	-40.9	-43.1	21.6	3.02e+01	91	28	0	5767168	58	6147
2026-01-17 03:25:30.55	198.85	3.31	-39.8	-41.6	22.7	3.02e+01	92	28	0	7864320	54	6555
2026-01-17 03:25:31.56	198.92	3.38	-38.7	-40.4	24.0	3.02e+01	91	28	0	9961472	52	6409
2026-01-17 03:25:32.57	198.99	3.44	-38.7	-40.4	24.0	3.02e+01	92	28	0	11534336	52	6390
2026-01-17 03:25:33.58	199.06	3.51	-38.8	-40.5	23.7	3.02e+01	91	28	0	13631488	52	6450
2026-01-17 03:25:34.59	199.13	3.57	-40.2	-42.2	22.3	3.02e+01	91	28	0	15204352	54	6999
2026-01-17 03:25:35.60	199.20	3.64	-38.9	-40.6	16.3	3.02e+01	91	28	0	17301504	50	7331
2026-01-17 03:25:36.61	199.27	3.70	-40.0	-41.8	23.0	3.02e+01	92	28	0	19398656	56	5990
2026-01-17 03:25:37.62	199.35	3.77	-43.7	-47.4	15.1	3.02e+01	92	28	0	20971520	56	11307
2026-01-17 03:25:38.63	199.42	3.83	-46.5	-56.5	4.3	3.02e+01	0	28	104	21495808	60	25580
2026-01-17 03:25:39.64	199.49	3.90	-37.3	-39.1	23.0	3.02e+01	92	28	104	21495808	50	6165
2026-01-17 03:25:40.65	199.56	3.96	-38.9	-40.6	24.1	3.02e+01	92	28	0	23068672	54	5807
2026-01-17 03:25:41.65	199.63	4.03	-38.0	-39.6	24.9	3.02e+01	92	28	0	24641536	52	5812
2026-01-17 03:25:42.66	199.71	4.09	-38.0	-39.5	25.0	3.02e+01	92	28	0	26738688	50	6484
2026-01-17 03:25:43.67	199.78	4.16	-37.6	-39.1	25.3	3.02e+01	90	28	0	28835840	50	6179
2026-01-17 03:25:44.68	199.85	4.23	-37.9	-39.5	25.0	3.02e+01	89	28	0	30408704	50	6432
2026-01-17 03:25:45.69	199.93	4.29	-37.7	-39.2	25.3	3.02e+01	92	28	0	32505856	50	6245
2026-01-17 03:25:46.70	200.00	4.36	-37.9	-39.5	25.2	3.02e+01	92	28	0	34078720	50	6458
2026-01-17 03:25:47.71	200.08	4.43	-37.5	-39.0	25.6	3.02e+01	92	28	0	36175872	50	6103
2026-01-17 03:25:48.72	200.15	4.49	-37.4	-38.8	25.8	3.02e+01	92	28	0	38273024	50	5990
2026-01-17 03:25:49.72	200.23	4.56	-37.5	-39.0	25.6	3.02e+01	90	28	0	39845888	50	6084
2026-01-17 03:25:50.73	200.30	4.63	-37.1	-38.6	26.0	3.02e+01	92	28	0	41943040	50	5817
2026-01-17 03:25:51.74	200.38	4.69	-37.5	-39.0	25.6	3.02e+01	92	28	0	43515904	50	6090
2026-01-17 03:25:52.76	200.46	4.76	-37.4	-38.9	25.8	3.02e+01	92	28	0	45613056	50	6038
2026-01-17 03:25:53.77	200.53	4.83	-37.5	-38.9	25.7	3.02e+01	90	28	0	47710208	50	6059
2026-01-17 03:25:54.78	200.61	4.90	-37.5	-39.0	25.7	3.02e+01	92	28	0	49283072	50	6098
2026-01-17 03:25:55.78	200.69	4.96	-37.5	-39.0	25.6	3.02e+01	92	28	0	51380224	50	6117
2026-01-17 03:25:56.80	200.76	5.03	-37.3	-38.7	25.7	3.02e+01	92	28	0	52953088	50	5908
2026-01-17 03:25:57.81	200.84	5.10	-36.9	-38.3	26.2	3.02e+01	92	28	0	55050240	48	6298
2026-01-17 03:25:58.81	200.92	5.17	-37.1	-38.6	26.0	3.02e+01	90	28	0	57147392	48	6520
2026-01-17 03:25:59.83	201.00	5.24	-37.0	-38.4	26.2	3.02e+01	92	28	0	58720256	48	6412
2026-01-17 03:26:00.84	201.08	5.30	-37.0	-38.4	26.1	3.02e+01	92	28	0	60817408	48	6405
2026-01-17 03:26:01.84	201.16	5.37	-36.9	-38.3	26.3	3.02e+01	92	28	0	62390272	48	6328
2026-01-17 03:26:02.85	201.24	5.44	-37.0	-38.5	26.2	3.02e+01	92	28	0	64487424	48	6443
2026-01-17 03:26:03.86	201.32	5.51	-37.3	-38.7	26.1	3.02e+01	85	28	0	66584576	48	6619
2026-01-17 03:26:04.87	201.40	5.58	-37.2	-38.6	26.1	3.02e+01	89	28	0	68157440	48	6571
2026-01-17 03:26:05.88	201.48	5.65	-37.0	-38.4	26.4	3.02e+01	88	28	0	70254592	48	6363
2026-01-17 03:26:06.89	201.57	5.72	-36.8	-38.2	26.5	3.02e+01	90	28	0	72351744	48	6273
2026-01-17 03:26:07.90	201.65	5.79	-37.1	-38.5	26.2	3.02e+01	92	28	0	73924608	48	6466
2026-01-17 03:26:08.91	201.73	5.86	-36.9	-38.3	26.4	3.02e+01	91	28	0	76021760	48	6302
2026-01-17 03:26:09.92	201.81	5.93	-36.8	-38.2	26.5	3.02e+01	91	28	0	77594624	48	6218
2026-01-17 03:26:10.93	201.90	6.00	-36.9	-38.2	26.5	3.02e+01	91	28	0	79691776	48	6273
2026-01-17 03:26:11.94	201.98	6.07	-37.1	-38.5	26.3	3.02e+01	90	28	0	81788928	48	6445
2026-01-17 03:26:12.95	202.07	6.14	-36.6	-38.0	26.7	3.02e+01	92	28	0	83361792	48	6116
2026-01-17 03:26:13.96	202.15	6.21	-36.6	-38.0	26.7	3.02e+01	90	28	0	85458944	48	6117
2026-01-17 03:26:14.97	202.24	6.28	-36.9	-38.3	26.5	3.02e+01	91	28	0	87031808	48	6334
2026-01-17 03:26:15.98	202.32	6.35	-36.5	-37.9	26.8	3.02e+01	92	28	0	89128960	48	6040
2026-01-17 03:26:16.99	202.41	6.42	-36.6	-38.0	26.7	3.02e+01	92	28	0	91226112	48	6116
2026-01-17 03:26:18.00	202.49	6.49	-36.9	-38.3	26.6	3.02e+01	92	28	0	92798976	48	6298
2026-01-17 03:26:19.00	202.58	6.56	-36.6	-38.0	26.7	3.02e+01	92	28	0	94896128	48	6107
2026-01-17 03:26:20.02	202.67	6.64	-36.5	-37.9	26.8	3.02e+01	92	28	0	96993280	48	6019
2026-01-17 03:26:21.02	202.75	6.71	-36.7	-38.1	26.8	3.02e+01	90	28	0	98566144	48	6153
2026-01-17 03:26:22.03	202.84	6.78	-36.6	-38.0	26.8	3.02e+01	92	28	0	100663296	48	6120
2026-01-17 03:26:23.04	202.93	6.85	-36.9	-38.3	26.6	3.02e+01	92	28	0	102236160	48	6299
2026-01-17 03:26:24.05	203.02	6.92	-36.8	-38.2	26.6	3.02e+01	92	28	0	104333312	48	6234
2026-01-17 03:26:25.06	203.11	7.00	-36.8	-38.2	26.7	3.02e+01	90	28	0	106430464	48	6238
2026-01-17 03:26:26.07	203.20	7.07	-36.5	-37.8	26.9	3.02e+01	90	28	0	108003328	48	5981
2026-01-17 03:26:27.08	203.29	7.14	-36.6	-37.9	26.9	3.02e+01	90	28	0	110100480	48	6054
2026-01-17 03:26:28.09	203.38	7.22	-36.5	-37.9	26.9	3.02e+01	91	28	0	111673344	48	6034
2026-01-17 03:26:29.10	203.47	7.29	-36.8	-38.1	26.8	3.02e+01	90	28	0	113770496	48	6196
2026-01-17 03:26:30.11	203.57	7.36	-36.4	-37.8	27.0	3.02e+01	92	28	0	115867648	48	5967
2026-01-17 03:26:31.12	203.66	7.44	-36.4	-37.7	27.0	3.02e+01	92	28	0	117440512	48	5922
2026-01-17 03:26:32.13	203.75	7.51	-36.3	-37.6	27.2	3.02e+01	92	28	0	119537664	48	5829
2026-01-17 03:26:33.14	203.85	7.58	-36.3	-37.7	27.1	3.02e+01	90	28	0	121110528	48	5876
2026-01-17 03:26:34.15	203.94	7.66	-36.3	-37.6	27.1	3.02e+01	92	28	0	123207680	48	5851
2026-01-17 03:26:35.16	204.03	7.73	-36.4	-37.8	27.1	3.02e+01	92	28	0	125304832	48	5930
2026-01-17 03:26:36.17	204.13	7.81	-36.3	-37.6	27.2	3.02e+01	92	28	0	126877696	48	5858
2026-01-17 03:26:37.18	204.22	7.88	-36.4	-37.7	27.2	3.02e+01	92	28	0	128974848	48	5883
2026-01-17 03:26:38.19	204.32	7.96	-36.5	-37.8	27.1	3.02e+01	92	28	0	130547712	48	5990
2026-01-17 03:26:39.20	204.42	8.03	-36.6	-37.9	27.0	3.02e+01	90	28	0	132644864	48	6051
2026-01-17 03:26:40.21	204.51	8.11	-36.5	-37.8	27.1	3.02e+01	92	28	0	134742016	48	5982
2026-01-17 03:26:41.22	204.61	8.18	-36.2	-37.6	27.3	3.02e+01	92	28	0	136314880	48	5800
2026-01-17 03:26:42.23	204.71	8.26	-36.2	-37.6	27.3	3.02e+01	92	28	0	138412032	48	5800
2026-01-17 03:26:43.24	204.81	8.33	-36.2	-37.5	27.4	3.02e+01	90	28	0	140509184	48	5774
2026-01-17 03:26:44.24	204.91	8.41	-36.1	-37.4	27.5	3.02e+01	92	28	0	142082048	48	5677
2026-01-17 03:26:45.25	205.01	8.48	-36.0	-37.3	27.5	3.02e+01	92	28	0	144179200	48	5648
2026-01-17 03:26:46.26	205.11	8.56	-35.9	-37.2	27.7	3.02e+01	92	28	0	145752064	48	5592
2026-01-17 03:26:47.27	205.21	8.64	-36.1	-37.4	27.7	3.02e+01	90	28	0	147849216	46	6369
2026-01-17 03:26:48.28	205.31	8.71	-36.2	-37.5	27.5	3.02e+01	92	28	0	149946368	46	6447
2026-01-17 03:26:49.29	205.41	8.79	-36.1	-37.4	27.6	3.02e+01	92	28	0	151519232	46	6370
2026-01-17 03:26:50.30	205.51	8.87	-36.1	-37.4	27.6	3.02e+01	92	28	0	153616384	46	6419
2026-01-17 03:26:51.31	205.62	8.94	-36.3	-37.6	27.4	3.02e+01	92	28	0	155189248	46	6546
2026-01-17 03:26:52.32	205.72	9.02	-36.0	-37.3	27.7	3.02e+01	90	28	0	157286400	46	6279
2026-01-17 03:26:53.33	205.82	9.10	-36.0	-37.3	27.7	3.02e+01	92	28	0	159383552	46	6322
2026-01-17 03:26:54.34	205.93	9.18	-35.9	-37.3	27.7	3.02e+01	90	28	0	160956416	46	6286
2026-01-17 03:26:55.35	206.03	9.26	-36.1	-37.4	27.7	3.02e+01	92	28	0	163053568	46	6375
2026-01-17 03:26:56.36	206.14	9.33	-36.0	-37.3	27.7	3.02e+01	92	28	0	165150720	46	6349
2026-01-17 03:26:57.36	206.25	9.41	-35.9	-37.2	27.8	3.02e+01	89	28	0	166723584	46	6229
2026-01-17 03:26:58.37	206.35	9.49	-36.0	-37.3	27.8	3.02e+01	92	28	0	168820736	46	6302
2026-01-17 03:26:59.38	206.46	9.57	-35.9	-37.2	27.8	3.02e+01	89	28	0	170393600	46	6273
2026-01-17 03:27:00.39	206.57	9.65	-36.0	-37.3	27.9	3.02e+01	90	28	0	172490752	46	6283
2026-01-17 03:27:01.40	206.68	9.73	-36.0	-37.3	27.7	3.02e+01	92	28	0	174063616	46	6349
2026-01-17 03:27:02.41	206.79	9.81	-35.8	-37.1	27.9	3.02e+01	91	28	0	176160768	46	6143
2026-01-17 03:27:03.42	206.90	9.89	-35.7	-37.0	27.9	3.02e+01	91	28	0	178257920	46	6125
2026-01-17 03:27:04.43	207.01	9.97	-35.7	-37.0	28.0	3.02e+01	91	28	0	179830784	46	6104
2026-01-17 03:27:05.44	207.12	10.05	-35.7	-36.9	28.1	3.02e+01	90	28	0	181927936	46	6063
2026-01-17 03:27:06.45	207.23	10.13	-35.8	-37.1	28.0	3.02e+01	89	28	0	183500800	46	6161
2026-01-17 03:27:07.46	207.35	10.21	-35.7	-37.0	28.1	3.02e+01	89	28	0	185597952	46	6134
2026-01-17 03:27:08.47	207.46	10.29	-35.7	-37.0	28.0	3.02e+01	92	28	0	187695104	46	6120
2026-01-17 03:27:09.48	207.57	10.37	-35.7	-37.0	28.1	3.02e+01	91	28	0	189267968	46	6076
2026-01-17 03:27:10.49	207.69	10.45	-35.6	-36.9	28.1	3.02e+01	92	28	0	191365120	46	6002
2026-01-17 03:27:11.50	207.80	10.53	-35.6	-36.9	28.2	3.02e+01	92	28	0	193462272	46	6023
2026-01-17 03:27:12.50	207.92	10.61	-35.7	-37.0	28.2	3.02e+01	90	28	0	195035136	46	6067
2026-01-17 03:27:13.51	208.03	10.69	-35.7	-37.0	28.0	3.02e+01	91	28	0	197132288	46	6132
2026-01-17 03:27:14.53	208.15	10.78	-35.6	-36.9	28.1	3.02e+01	92	28	0	198705152	46	6060
2026-01-17 03:27:15.54	208.27	10.86	-35.7	-37.0	28.1	3.02e+01	92	28	0	200802304	46	6088
2026-01-17 03:27:16.55	208.39	10.94	-35.5	-36.7	28.3	3.02e+01	90	28	0	202899456	46	5923
2026-01-17 03:27:17.56	208.51	11.02	-35.5	-36.8	28.3	3.02e+01	92	28	0	204472320	46	5936
2026-01-17 03:27:18.57	208.63	11.10	-35.5	-36.7	28.3	3.02e+01	91	28	0	206569472	46	5903
2026-01-17 03:27:19.58	208.75	11.19	-35.4	-36.7	28.3	3.02e+01	92	28	0	208666624	46	5905
2026-01-17 03:27:20.59	208.87	11.27	-35.4	-36.6	28.3	3.02e+01	90	28	0	210239488	46	5849
2026-01-17 03:27:21.60	208.99	11.35	-35.3	-36.6	28.4	3.02e+01	92	28	0	212336640	46	5820
2026-01-17 03:27:22.60	209.12	11.44	-35.5	-36.8	28.3	3.02e+01	89	28	0	213909504	46	5947
2026-01-17 03:27:23.61	209.24	11.52	-35.5	-36.8	28.1	3.02e+01	92	28	0	216006656	46	5968
2026-01-17 03:27:24.62	209.36	11.60	-35.5	-36.8	28.2	3.02e+01	91	28	0	218103808	46	5927
2026-01-17 03:27:25.63	209.49	11.69	-35.2	-36.4	28.5	3.02e+01	92	28	0	219676672	46	5718
2026-01-17 03:27:26.65	209.62	11.77	-35.3	-36.5	28.4	3.02e+01	88	28	0	221773824	46	5788
2026-01-17 03:27:27.66	209.74	11.86	-35.2	-36.5	28.5	3.02e+01	92	28	0	223346688	46	5746
2026-01-17 03:27:28.66	209.87	11.94	-35.4	-36.6	28.4	3.02e+01	92	28	0	225443840	46	5841
2026-01-17 03:27:29.67	210.00	12.03	-35.3	-36.6	28.5	3.02e+01	92	28	0	227540992	46	5809
2026-01-17 03:27:30.68	210.13	12.11	-35.3	-36.5	28.5	3.02e+01	92	28	0	229113856	46	5791
2026-01-17 03:27:31.69	210.26	12.20	-35.2	-36.5	28.6	3.02e+01	92	28	0	231211008	46	5726
2026-01-17 03:27:32.70	210.39	12.28	-35.2	-36.4	28.7	3.02e+01	92	28	0	232783872	46	5724
2026-01-17 03:27:33.71	210.52	12.37	-35.2	-36.5	28.7	3.02e+01	92	28	0	234881024	46	5735
2026-01-17 03:27:34.72	210.65	12.45	-35.2	-36.5	28.7	3.02e+01	90	28	0	236978176	46	5738
2026-01-17 03:27:35.73	210.78	12.54	-35.3	-36.6	28.6	3.02e+01	92	28	0	238551040	46	5827
2026-01-17 03:27:36.74	210.92	12.63	-35.2	-36.5	28.6	3.02e+01	92	28	0	240648192	46	5728
2026-01-17 03:27:37.75	211.05	12.71	-35.2	-36.4	28.7	3.02e+01	92	28	0	242221056	46	5713
2026-01-17 03:27:38.76	211.19	12.80	-35.5	-36.7	28.4	3.02e+01	90	28	0	244318208	46	5912
2026-01-17 03:27:39.77	211.32	12.89	-35.3	-36.6	28.5	3.02e+01	92	28	0	246415360	46	5810
2026-01-17 03:27:40.78	211.46	12.97	-35.3	-36.5	28.7	3.02e+01	92	28	0	247988224	46	5770
2026-01-17 03:27:41.79	211.60	13.06	-35.3	-36.6	28.5	3.02e+01	90	28	0	250085376	46	5824
2026-01-17 03:27:42.80	211.74	13.15	-35.1	-36.4	28.8	3.02e+01	92	28	0	251658240	46	5692
2026-01-17 03:27:43.81	211.88	13.24	-35.1	-36.3	28.8	3.02e+01	92	28	0	253755392	46	5632
2026-01-17 03:27:44.82	212.02	13.33	-35.2	-36.5	28.7	3.02e+01	92	28	0	255852544	46	5739
2026-01-17 03:27:45.83	212.16	13.41	-35.1	-36.3	28.8	3.02e+01	88	28	0	257425408	46	5631
2026-01-17 03:27:46.84	212.30	13.50	-35.1	-36.4	28.7	3.02e+01	90	28	0	259522560	46	5671
2026-01-17 03:27:47.85	212.44	13.59	-35.1	-36.3	28.7	3.02e+01	92	28	0	261619712	46	5643
2026-01-17 03:27:48.86	212.59	13.68	-35.1	-36.4	28.7	3.02e+01	88	28	0	263192576	46	5684
2026-01-17 03:27:49.87	212.73	13.77	-35.0	-36.2	28.8	3.02e+01	92	28	0	265289728	46	5592
2026-01-17 03:27:50.88	212.88	13.86	-35.1	-36.3	28.8	3.02e+01	90	28	0	266862592	44	6325
2026-01-17 03:27:51.89	213.03	13.95	-34.9	-36.2	28.8	3.02e+01	92	28	0	268959744	44	6217
2026-01-17 03:27:52.90	213.17	14.04	-35.1	-36.4	28.7	3.02e+01	91	28	0	271056896	44	6364
2026-01-17 03:27:53.91	213.32	14.13	-35.2	-36.4	28.7	3.02e+01	85	28	0	272629760	44	6420
2026-01-17 03:27:54.92	213.47	14.22	-34.9	-36.2	28.9	3.02e+01	90	28	0	274726912	44	6241
2026-01-17 03:27:55.93	213.62	14.31	-35.0	-36.2	28.9	3.02e+01	90	28	0	276824064	44	6261
2026-01-17 03:27:56.94	213.77	14.40	-34.9	-36.2	28.9	3.02e+01	92	28	0	278396928	44	6219
2026-01-17 03:27:57.95	213.93	14.49	-34.9	-36.2	28.9	3.02e+01	90	28	0	280494080	44	6223
2026-01-17 03:27:58.96	214.08	14.58	-34.9	-36.1	28.9	3.02e+01	91	28	0	282066944	44	6188
2026-01-17 03:27:59.97	214.23	14.67	-34.9	-36.2	28.8	3.02e+01	92	28	0	284164096	44	6215
2026-01-17 03:28:00.98	214.39	14.76	-35.0	-36.2	28.9	3.02e+01	92	28	0	286261248	44	6266
2026-01-17 03:28:01.99	214.55	14.85	-34.9	-36.2	28.9	3.02e+01	92	28	0	287834112	44	6208
2026-01-17 03:28:03.00	214.70	14.95	-34.9	-36.2	28.9	3.02e+01	92	28	0	289931264	44	6209
2026-01-17 03:28:04.01	214.86	15.04	-34.8	-36.1	28.9	3.02e+01	91	28	0	291504128	44	6156
2026-01-17 03:28:05.02	215.02	15.13	-34.9	-36.1	28.9	3.02e+01	92	28	0	293601280	44	6189
2026-01-17 03:28:06.03	215.18	15.22	-34.7	-36.0	29.0	3.02e+01	92	28	0	295698432	44	6101
2026-01-17 03:28:07.04	215.34	15.31	-34.8	-36.1	28.9	3.02e+01	90	28	0	297271296	44	6168
2026-01-17 03:28:08.05	215.50	15.41	-34.7	-36.0	29.0	3.02e+01	89	28	0	299368448	44	6078
2026-01-17 03:28:09.06	215.67	15.50	-34.8	-36.0	29.0	3.02e+01	89	28	0	301465600	44	6108
2026-01-17 03:28:10.07	215.83	15.59	-34.7	-35.9	29.1	3.02e+01	89	28	0	303038464	44	6050
2026-01-17 03:28:11.08	216.00	15.69	-34.7	-35.9	29.1	3.02e+01	92	28	0	305135616	44	6018
2026-01-17 03:28:12.09	216.16	15.78	-34.6	-35.9	29.2	3.02e+01	90	28	0	306708480	44	6008
2026-01-17 03:28:13.10	216.33	15.87	-34.7	-36.0	29.0	3.02e+01	90	28	0	308805632	44	6069
2026-01-17 03:28:14.11	216.50	15.97	-34.8	-36.1	29.0	3.02e+01	92	28	0	310902784	44	6146
2026-01-17 03:28:15.12	216.67	16.06	-35.0	-36.2	28.9	3.02e+01	92	28	0	312475648	44	6244
2026-01-17 03:28:16.13	216.84	16.15	-34.9	-36.1	29.0	3.02e+01	92	28	0	314572800	44	6187
2026-01-17 03:28:17.14	217.01	16.25	-34.8	-36.1	29.1	3.02e+01	90	28	0	316145664	44	6155
2026-01-17 03:28:18.14	217.19	16.34	-34.6	-35.9	29.2	3.02e+01	90	28	0	318242816	44	6015
2026-01-17 03:28:19.16	217.36	16.44	-34.7	-35.9	29.1	3.02e+01	92	28	0	319815680	44	6047
2026-01-17 03:28:20.17	217.54	16.53	-34.8	-36.0	29.1	3.02e+01	90	28	0	321912832	44	6129
2026-01-17 03:28:21.18	217.71	16.63	-34.7	-36.0	29.1	3.02e+01	92	28	0	324009984	44	6099
2026-01-17 03:28:22.19	217.89	16.72	-34.8	-36.0	29.0	3.02e+01	92	28	0	325582848	44	6113
2026-01-17 03:28:23.20	218.07	16.82	-34.8	-36.0	29.1	3.02e+01	92	28	0	327680000	44	6084
2026-01-17 03:28:24.20	218.25	16.91	-34.5	-35.7	29.3	3.02e+01	92	28	0	329777152	44	5876
2026-01-17 03:28:25.21	218.43	17.01	-34.6	-35.8	29.2	3.02e+01	92	28	0	331350016	44	5946
2026-01-17 03:28:26.23	218.61	17.10	-34.6	-35.9	29.2	3.02e+01	93	28	0	333447168	44	6008
2026-01-17 03:28:27.24	218.80	17.20	-34.8	-36.0	29.2	3.02e+01	92	28	0	335020032	44	6089
2026-01-17 03:28:28.25	218.98	17.30	-34.6	-35.8	29.2	3.02e+01	92	28	0	337117184	44	5994
2026-01-17 03:28:29.26	219.17	17.39	-34.6	-35.8	29.3	3.02e+01	92	28	0	339214336	44	5949
2026-01-17 03:28:30.27	219.36	17.49	-34.5	-35.8	29.3	3.02e+01	92	28	0	340787200	44	5938
2026-01-17 03:28:31.28	219.55	17.58	-34.5	-35.7	29.3	3.02e+01	92	28	0	342884352	44	5920
2026-01-17 03:28:32.29	219.74	17.68	-34.7	-35.9	29.2	3.02e+01	92	28	0	344981504	44	6057
2026-01-17 03:28:33.30	219.93	17.78	-34.7	-35.9	29.3	3.02e+01	92	28	0	346554368	44	6037
2026-01-17 03:28:34.31	220.12	17.87	-34.6	-35.9	29.2	3.02e+01	90	28	0	348651520	44	6002
2026-01-17 03:28:35.32	220.31	17.97	-34.6	-35.9	29.2	3.02e+01	90	28	0	350224384	44	6006
2026-01-17 03:28:36.33	220.51	18.07	-34.6	-35.8	29.3	3.02e+01	92	28	0	352321536	44	5944
2026-01-17 03:28:37.34	220.70	18.16	-34.5	-35.8	29.3	3.02e+01	90	28	0	354418688	44	5947
2026-01-17 03:28:38.35	220.90	18.26	-34.5	-35.7	29.3	3.02e+01	92	28	0	355991552	44	5901
2026-01-17 03:28:39.36	221.10	18.36	-34.6	-35.8	29.2	3.02e+01	92	28	0	358088704	44	5983
2026-01-17 03:28:40.37	221.30	18.46	-34.7	-35.9	29.2	3.02e+01	91	28	0	359661568	44	6059
2026-01-17 03:28:41.38	221.50	18.55	-34.5	-35.8	29.4	3.02e+01	92	28	0	361758720	44	5938
2026-01-17 03:28:42.39	221.70	18.65	-34.6	-35.8	29.3	3.02e+01	92	28	0	363855872	44	5985
2026-01-17 03:28:43.40	221.91	18.75	-34.5	-35.7	29.3	3.02e+01	92	28	0	365428736	44	5911
2026-01-17 03:28:44.41	222.11	18.85	-34.6	-35.9	29.3	3.02e+01	92	28	0	367525888	44	5999
2026-01-17 03:28:45.42	222.32	18.94	-34.6	-35.8	29.3	3.02e+01	91	28	0	369623040	44	5973
2026-01-17 03:28:46.43	222.53	19.04	-34.6	-35.9	29.3	3.02e+01	86	28	0	371195904	44	6008
2026-01-17 03:28:47.44	222.74	19.14	-34.6	-35.8	29.3	3.02e+01	92	28	0	373293056	44	5976
2026-01-17 03:28:48.45	222.95	19.24	-34.7	-35.9	29.2	3.02e+01	92	28	0	374865920	44	6043
2026-01-17 03:28:49.46	223.16	19.34	-34.7	-36.0	29.2	3.02e+01	92	28	0	376963072	44	6071
2026-01-17 03:28:50.47	223.38	19.43	-34.8	-36.0	29.2	3.02e+01	90	28	0	379060224	44	6117
2026-01-17 03:28:51.48	223.59	19.53	-34.7	-35.9	29.3	3.02e+01	92	28	0	380633088	44	6035
2026-01-17 03:28:52.49	223.81	19.63	-34.9	-36.1	29.0	3.02e+01	92	28	0	382730240	44	6190
2026-01-17 03:28:53.50	224.03	19.73	-34.7	-35.9	29.2	3.02e+01	90	28	0	384303104	44	6028
2026-01-17 03:28:54.51	224.25	19.83	-34.7	-35.9	29.2	3.02e+01	92	28	0	386400256	44	6039
2026-01-17 03:28:55.52	224.47	19.93	-34.6	-35.9	29.2	3.02e+01	92	28	0	388497408	44	6018
2026-01-17 03:28:56.53	224.69	20.02	-34.6	-35.8	29.3	3.02e+01	92	28	0	390070272	44	5989
2026-01-17 03:28:57.54	224.91	20.12	-34.7	-35.9	29.2	3.02e+01	92	28	0	392167424	44	6027
2026-01-17 03:28:58.55	225.14	20.22	-34.8	-36.1	29.1	3.02e+01	92	28	0	393740288	44	6157
2026-01-17 03:28:59.56	225.36	20.32	-34.8	-36.0	29.1	3.02e+01	91	28	0	395837440	44	6093
2026-01-17 03:29:00.57	225.59	20.42	-34.7	-35.9	29.2	3.02e+01	92	28	0	397934592	44	6019
2026-01-17 03:29:01.58	225.82	20.52	-34.7	-36.0	29.2	3.02e+01	91	28	0	399507456	44	6066
2026-01-17 03:29:02.59	226.05	20.61	-34.8	-36.0	29.2	3.02e+01	91	28	0	401604608	44	6094
2026-01-17 03:29:03.60	226.29	20.71	-34.7	-36.0	29.2	3.02e+01	90	28	0	403177472	44	6075
2026-01-17 03:29:04.61	226.52	20.81	-34.8	-36.0	29.1	3.02e+01	92	28	0	405274624	44	6083
2026-01-17 03:29:05.61	226.76	20.91	-34.6	-35.9	29.3	3.02e+01	92	28	0	407371776	44	5998
2026-01-17 03:29:06.63	227.00	21.01	-34.8	-36.1	29.1	3.02e+01	92	28	0	408944640	44	6144
2026-01-17 03:29:07.64	227.23	21.11	-34.8	-36.1	29.1	3.02e+01	92	28	0	411041792	44	6140
2026-01-17 03:29:08.65	227.48	21.20	-34.8	-36.0	29.1	3.02e+01	92	28	0	413138944	44	6130
2026-01-17 03:29:09.66	227.72	21.30	-34.7	-36.0	29.2	3.02e+01	92	28	0	414711808	44	6080
2026-01-17 03:29:10.67	227.96	21.40	-34.9	-36.1	29.0	3.02e+01	92	28	0	416808960	44	6197
2026-01-17 03:29:11.68	228.21	21.50	-34.8	-36.0	29.1	3.02e+01	92	28	0	418381824	44	6127
2026-01-17 03:29:12.69	228.45	21.60	-34.6	-35.8	29.4	3.02e+01	92	28	0	420478976	44	5938
2026-01-17 03:29:13.70	228.70	21.69	-34.7	-35.9	29.2	3.02e+01	90	28	0	422576128	44	6063
2026-01-17 03:29:14.71	228.95	21.79	-34.9	-36.1	29.0	3.02e+01	92	28	0	424148992	44	6191
2026-01-17 03:29:15.72	229.20	21.89	-35.0	-36.2	29.0	3.02e+01	92	28	0	426246144	44	6257
2026-01-17 03:29:16.73	229.46	21.98	-34.9	-36.1	29.1	3.02e+01	92	28	0	427819008	44	6171
2026-01-17 03:29:17.74	229.71	22.08	-34.8	-36.1	29.1	3.02e+01	92	28	0	429916160	44	6137
2026-01-17 03:29:18.75	229.97	22.18	-34.9	-36.1	29.1	3.02e+01	92	28	0	432013312	44	6199
2026-01-17 03:29:19.76	230.23	22.28	-34.9	-36.1	29.1	3.02e+01	92	28	0	433586176	44	6169
2026-01-17 03:29:20.77	230.49	22.37	-34.9	-36.1	29.0	3.02e+01	92	28	0	435683328	44	6165
2026-01-17 03:29:21.78	230.75	22.47	-34.8	-36.0	29.1	3.02e+01	92	28	0	437780480	44	6132
2026-01-17 03:29:22.79	231.01	22.56	-34.9	-36.1	29.0	3.02e+01	90	28	0	439353344	44	6179
2026-01-17 03:29:23.80	231.28	22.66	-35.0	-36.2	29.0	3.02e+01	92	28	0	441450496	44	6275
2026-01-17 03:29:24.81	231.54	22.76	-34.9	-36.1	29.1	3.02e+01	92	28	0	443023360	44	6174
2026-01-17 03:29:25.82	231.81	22.85	-35.0	-36.2	29.0	3.02e+01	92	28	0	445120512	44	6245
2026-01-17 03:29:26.83	232.08	22.95	-35.0	-36.2	28.9	3.02e+01	92	28	0	447217664	44	6268
2026-01-17 03:29:27.83	232.35	23.04	-34.9	-36.1	29.1	3.02e+01	92	28	0	448790528	44	6180
2026-01-17 03:29:28.85	232.63	23.14	-34.9	-36.2	29.1	3.02e+01	92	28	0	450887680	44	6206
2026-01-17 03:29:29.86	232.90	23.23	-35.0	-36.3	29.0	3.02e+01	92	28	0	452984832	44	6281
2026-01-17 03:29:30.87	233.18	23.33	-35.1	-36.3	29.0	3.02e+01	92	28	0	454557696	44	6331
2026-01-17 03:29:31.87	233.46	23.42	-35.0	-36.2	29.1	3.02e+01	92	28	0	456654848	44	6262
2026-01-17 03:29:32.88	233.74	23.51	-35.0	-36.3	29.0	3.02e+01	91	28	0	458227712	44	6296
2026-01-17 03:29:33.89	234.02	23.61	-35.2	-36.4	28.9	3.02e+01	90	28	0	460324864	44	6404
2026-01-17 03:29:34.90	234.30	23.70	-35.1	-36.4	28.8	3.02e+01	92	28	0	461897728	44	6355
2026-01-17 03:29:35.91	234.59	23.79	-35.1	-36.4	29.0	3.02e+01	91	28	0	463994880	44	6368
2026-01-17 03:29:36.92	234.87	23.88	-35.2	-36.4	28.8	3.02e+01	89	28	0	466092032	44	6402
2026-01-17 03:29:37.92	235.16	23.98	-35.1	-36.3	28.9	3.02e+01	92	28	0	467664896	44	6313
2026-01-17 03:29:38.93	235.45	24.07	-35.0	-36.2	29.0	3.02e+01	90	28	0	469762048	44	6263
2026-01-17 03:29:39.94	235.74	24.16	-35.1	-36.4	28.9	3.02e+01	90	28	0	471334912	44	6372
2026-01-17 03:29:40.95	236.04	24.25	-35.1	-36.4	28.9	3.02e+01	92	28	0	473432064	44	6372
2026-01-17 03:29:41.96	236.33	24.34	-35.1	-36.3	28.9	3.02e+01	92	28	0	475529216	44	6336
2026-01-17 03:29:42.97	236.63	24.43	-35.2	-36.5	28.9	3.02e+01	91	28	0	477102080	44	6429
2026-01-17 03:29:43.98	236.93	24.52	-35.2	-36.4	28.8	3.02e+01	91	28	0	479199232	44	6412
2026-01-17 03:29:44.99	237.23	24.61	-35.0	-36.3	28.9	3.02e+01	91	28	0	481296384	44	6303
2026-01-17 03:29:46.00	237.53	24.70	-35.1	-36.3	28.9	3.02e+01	91	28	0	482869248	44	6299
2026-01-17 03:29:47.01	237.84	24.79	-35.2	-36.5	28.8	3.02e+01	90	28	0	484966400	44	6426
2026-01-17 03:29:48.02	238.14	24.87	-35.1	-36.3	28.9	3.02e+01	90	28	0	486539264	44	6313
2026-01-17 03:29:49.03	238.45	24.96	-35.1	-36.4	28.8	3.02e+01	92	28	0	488636416	44	6371
2026-01-17 03:29:50.04	238.76	25.05	-35.1	-36.3	28.9	3.02e+01	91	28	0	490733568	44	6319
2026-01-17 03:29:51.05	239.07	25.13	-35.2	-36.4	28.8	3.02e+01	92	28	0	492306432	44	6387
2026-01-17 03:29:52.06	239.39	25.22	-35.0	-36.3	28.9	3.02e+01	91	28	0	494403584	44	6301
2026-01-17 03:29:53.07	239.70	25.30	-35.0	-36.2	28.9	3.02e+01	92	28	0	495976448	44	6271
2026-01-17 03:29:54.08	240.02	25.39	-35.1	-36.4	28.9	3.02e+01	92	28	0	498073600	44	6360
2026-01-17 03:29:55.09	240.34	25.47	-35.1	-36.3	28.8	3.02e+01	91	28	0	500170752	44	6309
2026-01-17 03:29:56.10	240.66	25.55	-35.0	-36.2	28.9	3.02e+01	90	28	0	501743616	44	6272
2026-01-17 03:29:57.11	240.98	25.64	-35.0	-36.3	28.9	3.02e+01	92	28	0	503840768	44	6291
2026-01-17 03:29:58.12	241.30	25.72	-35.0	-36.3	28.9	3.02e+01	91	28	0	505937920	44	6297
2026-01-17 03:29:59.13	241.63	25.80	-35.0	-36.2	29.0	3.02e+01	92	28	0	507510784	44	6260
2026-01-17 03:30:00.14	241.95	25.88	-35.0	-36.3	28.9	3.02e+01	92	28	0	509607936	44	6294
2026-01-17 03:30:01.15	242.28	25.96	-35.1	-36.3	28.9	3.02e+01	92	28	0	511180800	44	6299
2026-01-17 03:30:02.16	242.61	26.04	-35.1	-36.4	28.9	3.02e+01	92	28	0	513277952	44	6366
2026-01-17 03:30:03.17	242.94	26.12	-35.2	-36.5	28.8	3.02e+01	92	28	0	515375104	44	6433
2026-01-17 03:30:04.17	243.27	26.19	-35.0	-36.3	28.9	3.02e+01	92	28	0	516947968	44	6298
2026-01-17 03:30:05.19	243.61	26.27	-35.1	-36.3	28.9	3.02e+01	92	28	0	519045120	44	6350
2026-01-17 03:30:06.19	243.95	26.35	-35.0	-36.3	28.9	3.02e+01	92	28	0	520617984	44	6288
2026-01-17 03:30:07.20	244.28	26.42	-35.2	-36.4	28.8	3.02e+01	92	28	0	522715136	44	6403
2026-01-17 03:30:08.21	244.62	26.50	-35.1	-36.3	28.9	3.02e+01	92	28	0	524812288	44	6336
2026-01-17 03:30:09.22	244.97	26.57	-35.0	-36.3	28.9	3.02e+01	91	28	0	526385152	44	6294
2026-01-17 03:30:10.23	245.31	26.64	-35.1	-36.4	28.8	3.02e+01	91	28	0	528482304	44	6368
2026-01-17 03:30:11.24	245.65	26.72	-35.0	-36.3	28.9	3.02e+01	92	28	0	530055168	44	6301
2026-01-17 03:30:12.25	246.00	26.79	-34.9	-36.2	29.0	3.02e+01	92	28	0	532152320	44	6224
2026-01-17 03:30:13.26	246.35	26.86	-35.1	-36.3	28.8	3.02e+01	91	28	0	534249472	44	6340
2026-01-17 03:30:14.27	246.70	26.93	-35.0	-36.2	29.0	3.02e+01	91	28	0	535822336	44	6231
2026-01-17 03:30:15.28	247.05	26.99	-34.9	-36.1	29.0	3.02e+01	91	28	0	537919488	44	6148
2026-01-17 03:30:16.29	247.40	27.06	-35.0	-36.2	28.9	3.02e+01	91	28	0	539492352	44	6246
2026-01-17 03:30:17.29	247.75	27.13	-35.0	-36.2	28.9	3.02e+01	92	28	0	541589504	44	6261
2026-01-17 03:30:18.30	248.11	27.19	-35.1	-36.3	28.8	3.02e+01	92	28	0	543686656	44	6301
2026-01-17 03:30:19.31	248.47	27.26	-34.9	-36.1	29.1	3.02e+01	91	28	0	545259520	44	6183
2026-01-17 03:30:20.32	248.82	27.32	-35.0	-36.2	28.9	3.02e+01	91	28	0	547356672	44	6266
2026-01-17 03:30:21.33	249.18	27.39	-35.0	-36.2	29.0	3.02e+01	92	28	0	549453824	44	6232
2026-01-17 03:30:22.34	249.55	27.45	-35.1	-36.3	28.9	3.02e+01	92	28	0	551026688	44	6303
2026-01-17 03:30:23.35	249.91	27.51	-34.9	-36.2	29.0	3.02e+01	92	28	0	553123840	44	6206
2026-01-17 03:30:24.36	250.27	27.57	-35.1	-36.3	28.8	3.02e+01	92	28	0	554696704	44	6343
2026-01-17 03:30:25.37	250.64	27.63	-35.0	-36.2	29.0	3.02e+01	86	28	0	556793856	44	6229
2026-01-17 03:30:26.38	251.01	27.68	-34.9	-36.2	29.0	3.02e+01	91	28	0	558891008	44	6224
2026-01-17 03:30:27.39	251.37	27.74	-34.7	-35.9	29.2	3.02e+01	91	28	0	560463872	44	6020
2026-01-17 03:30:28.40	251.74	27.80	-34.8	-36.0	29.2	3.02e+01	90	28	0	562561024	44	6120
2026-01-17 03:30:29.41	252.11	27.85	-34.8	-36.0	29.1	3.02e+01	91	28	0	564133888	44	6120
2026-01-17 03:30:30.42	252.49	27.90	-34.8	-36.0	29.2	3.02e+01	91	28	0	566231040	44	6105
2026-01-17 03:30:31.43	252.86	27.95	-34.8	-36.0	29.1	3.02e+01	90	28	0	568328192	44	6124
2026-01-17 03:30:32.44	253.23	28.00	-35.0	-36.2	29.0	3.02e+01	92	28	0	569901056	44	6251
2026-01-17 03:30:33.45	253.61	28.05	-34.8	-36.1	29.1	3.02e+01	92	28	0	571998208	44	6135
2026-01-17 03:30:34.46	253.99	28.10	-34.7	-35.9	29.2	3.02e+01	92	27	0	574095360	44	6061
2026-01-17 03:30:35.47	254.37	28.15	-34.6	-35.8	29.2	3.02e+01	92	28	0	575668224	44	5949
2026-01-17 03:30:36.48	254.74	28.20	-34.7	-35.9	29.2	3.02e+01	92	28	0	577765376	44	6014
2026-01-17 03:30:37.49	255.12	28.24	-34.8	-36.0	29.2	3.02e+01	92	28	0	579338240	44	6101
2026-01-17 03:30:38.50	255.51	28.28	-34.7	-35.9	29.3	3.02e+01	92	28	0	581435392	44	6030
2026-01-17 03:30:39.51	255.89	28.33	-34.8	-36.0	29.2	3.02e+01	92	28	0	583532544	44	6089
2026-01-17 03:30:40.52	256.27	28.37	-34.6	-35.8	29.3	3.02e+01	92	27	0	585105408	44	5942
2026-01-17 03:30:41.53	256.66	28.41	-34.6	-35.8	29.4	3.02e+01	92	28	0	587202560	44	5939
2026-01-17 03:30:42.54	257.04	28.45	-34.5	-35.8	29.4	3.02e+01	91	28	0	588775424	44	5928
2026-01-17 03:30:43.55	257.43	28.48	-34.5	-35.7	29.3	3.02e+01	90	28	0	590872576	44	5893
2026-01-17 03:30:44.56	257.81	28.52	-34.6	-35.8	29.4	3.02e+01	92	28	0	592969728	44	5936
2026-01-17 03:30:45.57	258.20	28.55	-34.6	-35.8	29.4	3.02e+01	89	28	0	594542592	44	5955
2026-01-17 03:30:46.58	258.59	28.59	-34.7	-36.0	29.2	3.02e+01	92	28	0	596639744	44	6065
2026-01-17 03:30:47.59	258.98	28.62	-34.4	-35.7	29.5	3.02e+01	91	28	0	598212608	44	5860
2026-01-17 03:30:48.60	259.37	28.65	-34.4	-35.6	29.4	3.02e+01	92	28	0	600309760	44	5852
2026-01-17 03:30:49.61	259.76	28.68	-34.6	-35.8	29.4	3.02e+01	91	28	0	602406912	44	5961
2026-01-17 03:30:50.61	260.15	28.71	-34.5	-35.7	29.4	3.02e+01	92	28	0	603979776	44	5898
2026-01-17 03:30:51.62	260.54	28.73	-34.5	-35.8	29.3	3.02e+01	92	28	0	606076928	44	5933
2026-01-17 03:30:52.64	260.94	28.76	-34.6	-35.8	29.3	3.02e+01	92	27	0	607649792	44	5981
2026-01-17 03:30:53.64	261.33	28.78	-34.7	-35.9	29.3	3.02e+01	90	28	0	609746944	44	6015
2026-01-17 03:30:54.65	261.72	28.80	-34.4	-35.6	29.4	3.02e+01	92	28	0	611844096	44	5858
2026-01-17 03:30:55.66	262.12	28.82	-34.4	-35.6	29.5	3.02e+01	92	28	0	613416960	44	5817
2026-01-17 03:30:56.67	262.51	28.84	-34.4	-35.6	29.5	3.02e+01	92	28	0	615514112	44	5843
2026-01-17 03:30:57.68	262.91	28.86	-34.4	-35.6	29.5	3.02e+01	92	28	0	617611264	44	5812
2026-01-17 03:30:58.69	263.31	28.88	-34.5	-35.7	29.4	3.02e+01	92	28	0	619184128	44	5920
2026-01-17 03:30:59.70	263.70	28.89	-34.4	-35.6	29.5	3.02e+01	92	28	0	621281280	44	5804
2026-01-17 03:31:00.72	264.10	28.91	-34.4	-35.6	29.5	3.02e+01	92	28	0	622854144	44	5826
2026-01-17 03:31:01.73	264.50	28.92	-34.3	-35.5	29.6	3.02e+01	92	28	0	624951296	44	5768
2026-01-17 03:31:02.74	264.90	28.93	-34.3	-35.5	29.7	3.02e+01	92	28	0	627048448	44	5741
2026-01-17 03:31:03.75	265.30	28.94	-34.3	-35.5	29.6	3.02e+01	92	28	0	628621312	44	5739
2026-01-17 03:31:04.76	265.69	28.95	-34.2	-35.4	29.6	3.02e+01	90	28	0	630718464	44	5718
2026-01-17 03:31:05.77	266.09	28.95	-34.1	-35.3	29.8	3.02e+01	92	28	0	632291328	44	5629
2026-01-17 03:31:06.78	266.49	28.96	-34.0	-35.2	29.8	3.02e+01	92	28	0	634388480	44	5563
2026-01-17 03:31:07.78	266.88	28.96	-34.3	-35.5	29.5	3.02e+01	92	27	0	636485632	44	5784
2026-01-17 03:31:08.80	267.29	28.97	-34.3	-35.5	29.5	3.02e+01	92	27	0	638058496	44	5756
2026-01-17 03:31:09.81	267.69	28.97	-34.0	-35.2	29.8	3.02e+01	91	28	0	640155648	44	5549
2026-01-17 03:31:10.82	268.08	28.97	-34.2	-35.4	29.6	3.02e+01	91	27	0	642252800	44	5707
2026-01-17 03:31:11.83	268.48	28.96	-34.2	-35.4	29.6	3.02e+01	91	27	0	643825664	44	5699
2026-01-17 03:31:12.84	268.88	28.96	-34.2	-35.4	29.7	3.02e+01	92	27	0	645922816	44	5688
2026-01-17 03:31:13.85	269.28	28.96	-34.1	-35.3	29.8	3.02e+01	92	28	0	647495680	44	5643
2026-01-17 03:31:14.86	269.68	28.95	-34.1	-35.3	29.8	3.02e+01	91	28	0	649592832	44	5603
2026-01-17 03:31:15.87	270.07	28.94	-34.0	-35.2	29.8	3.02e+01	91	28	0	651689984	44	5559
2026-01-17 03:31:16.88	270.47	28.93	-34.1	-35.2	29.8	3.02e+01	90	28	0	653262848	44	5588
2026-01-17 03:31:17.89	270.87	28.92	-34.1	-35.3	29.8	3.02e+01	91	28	0	655360000	44	5629
2026-01-17 03:31:18.90	271.27	28.91	-34.0	-35.2	29.8	3.02e+01	88	28	0	656932864	44	5562
2026-01-17 03:31:19.91	271.66	28.90	-34.1	-35.3	29.8	3.02e+01	89	28	0	659030016	44	5601
2026-01-17 03:31:20.92	272.06	28.88	-34.0	-35.2	29.8	3.02e+01	91	28	0	661127168	42	6232
2026-01-17 03:31:21.93	272.46	28.87	-34.2	-35.4	29.7	3.02e+01	92	27	0	662700032	42	6371
2026-01-17 03:31:22.94	272.85	28.85	-34.0	-35.1	29.9	3.02e+01	87	27	0	664797184	42	6199
2026-01-17 03:31:23.95	273.25	28.83	-33.9	-35.1	29.8	3.02e+01	90	28	0	666370048	42	6193
2026-01-17 03:31:24.96	273.64	28.81	-34.0	-35.2	29.8	3.02e+01	92	28	0	668467200	42	6250
2026-01-17 03:31:25.97	274.03	28.79	-34.0	-35.2	29.9	3.02e+01	92	28	0	670564352	42	6227
2026-01-17 03:31:26.98	274.43	28.76	-33.9	-35.1	29.9	3.02e+01	92	27	0	672137216	42	6190
2026-01-17 03:31:27.99	274.82	28.74	-33.9	-35.1	29.9	3.02e+01	90	28	0	674234368	42	6158
2026-01-17 03:31:29.00	275.21	28.71	-33.9	-35.1	29.9	3.02e+01	92	28	0	675807232	42	6168
2026-01-17 03:31:30.01	275.60	28.68	-34.1	-35.3	29.7	3.02e+01	90	28	0	677904384	42	6279
2026-01-17 03:31:31.02	276.00	28.66	-34.1	-35.2	29.8	3.02e+01	92	27	0	680001536	42	6276
2026-01-17 03:31:32.03	276.39	28.63	-34.2	-35.4	29.6	3.02e+01	90	28	0	681574400	42	6416
2026-01-17 03:31:33.04	276.77	28.59	-34.4	-35.6	29.6	3.02e+01	90	28	0	683671552	42	6509
2026-01-17 03:31:34.05	277.16	28.56	-34.1	-35.3	29.6	3.02e+01	90	28	0	685768704	42	6300
2026-01-17 03:31:35.06	277.55	28.53	-34.6	-35.8	29.6	3.02e+01	92	27	0	687341568	42	6670
2026-01-17 03:31:36.07	277.94	28.49	-34.6	-35.8	29.1	3.02e+01	92	27	0	689438720	42	6695
2026-01-17 03:31:37.08	278.32	28.45	-34.8	-36.0	29.5	3.02e+01	91	27	0	691011584	42	6874
2026-01-17 03:31:38.09	278.71	28.42	-34.6	-35.8	29.3	3.02e+01	91	28	0	693108736	42	6711
2026-01-17 03:31:39.10	279.09	28.38	-34.7	-35.9	29.3	3.02e+01	91	27	0	695205888	44	6064
2026-01-17 03:31:40.11	279.48	28.34	-34.5	-35.7	29.4	3.02e+01	90	27	0	696778752	44	5923
2026-01-17 03:31:41.12	279.86	28.29	-34.8	-36.0	29.2	3.02e+01	91	27	0	698875904	44	6095
2026-01-17 03:31:42.13	280.24	28.25	-35.1	-36.3	28.9	3.02e+01	86	28	0	700448768	44	6322
2026-01-17 03:31:43.14	280.62	28.21	-34.8	-36.0	29.3	3.02e+01	92	27	0	702545920	44	6101
2026-01-17 03:31:44.15	281.00	28.16	-34.4	-35.6	29.5	3.02e+01	92	27	0	704643072	44	5856
2026-01-17 03:31:45.16	281.37	28.11	-34.7	-36.0	29.2	3.02e+01	92	28	0	706215936	44	6082
2026-01-17 03:31:46.17	281.75	28.07	-34.1	-35.3	29.7	3.02e+01	92	27	0	708313088	44	5638
2026-01-17 03:31:47.18	282.13	28.02	-34.0	-35.2	29.8	3.02e+01	92	28	0	710410240	44	5571
2026-01-17 03:31:48.19	282.50	27.97	-34.0	-35.2	29.9	3.02e+01	90	27	0	711983104	42	6207
2026-01-17 03:31:49.20	282.87	27.92	-34.0	-35.2	29.8	3.02e+01	91	27	0	714080256	42	6272
2026-01-17 03:31:50.21	283.24	27.86	-33.9	-35.1	29.9	3.02e+01	92	27	0	715653120	42	6178
2026-01-17 03:31:51.22	283.61	27.81	-33.9	-35.1	29.9	3.02e+01	91	28	0	717750272	42	6181
2026-01-17 03:31:52.23	283.98	27.75	-33.9	-35.1	29.9	3.02e+01	92	28	0	719847424	42	6172
2026-01-17 03:31:53.24	284.35	27.70	-33.9	-35.1	29.9	3.02e+01	91	28	0	721420288	42	6170
2026-01-17 03:31:54.24	284.71	27.64	-34.0	-35.2	29.9	3.02e+01	91	27	0	723517440	42	6251
2026-01-17 03:31:55.25	285.08	27.58	-34.2	-35.4	29.7	3.02e+01	91	27	0	725090304	42	6366
2026-01-17 03:31:56.26	285.44	27.53	-34.2	-35.4	29.7	3.02e+01	92	28	0	727187456	42	6417
2026-01-17 03:31:57.27	285.81	27.47	-34.4	-35.5	29.5	3.02e+01	92	27	0	729284608	42	6497
2026-01-17 03:31:58.28	286.17	27.40	-34.4	-35.6	29.7	3.02e+01	92	27	0	730857472	42	6530
2026-01-17 03:31:59.29	286.53	27.34	-34.3	-35.5	29.7	3.02e+01	92	27	0	732954624	42	6442
2026-01-17 03:32:00.30	286.88	27.28	-34.3	-35.5	29.5	3.02e+01	92	27	0	734527488	42	6430
2026-01-17 03:32:01.31	287.24	27.21	-34.3	-35.5	29.6	3.02e+01	85	27	0	736624640	42	6467
2026-01-17 03:32:02.32	287.60	27.15	-34.1	-35.3	29.8	3.02e+01	90	28	0	738721792	42	6340
2026-01-17 03:32:03.33	287.95	27.08	-34.2	-35.3	29.7	3.02e+01	92	27	0	740294656	42	6349
2026-01-17 03:32:04.34	288.30	27.02	-34.2	-35.4	29.8	3.02e+01	91	28	0	742391808	42	6361
2026-01-17 03:32:05.35	288.65	26.95	-34.3	-35.5	29.6	3.02e+01	92	27	0	743964672	42	6431
2026-01-17 03:32:06.36	289.00	26.88	-34.1	-35.3	29.9	3.02e+01	90	27	0	746061824	42	6283
2026-01-17 03:32:07.37	289.35	26.81	-34.1	-35.3	29.8	3.02e+01	91	27	0	748158976	42	6324
2026-01-17 03:32:08.38	289.69	26.74	-33.7	-34.9	30.1	3.02e+01	91	27	0	749731840	42	6003
2026-01-17 03:32:09.39	290.04	26.67	-33.9	-35.1	30.0	3.02e+01	92	27	0	751828992	42	6145
2026-01-17 03:32:10.40	290.38	26.59	-34.1	-35.3	29.8	3.02e+01	89	27	0	753926144	42	6293
2026-01-17 03:32:11.41	290.72	26.52	-34.0	-35.2	29.9	3.02e+01	92	27	0	755499008	42	6241
2026-01-17 03:32:12.42	291.06	26.45	-34.0	-35.2	29.9	3.02e+01	89	27	0	757596160	42	6245
2026-01-17 03:32:13.43	291.40	26.37	-33.9	-35.1	29.9	3.02e+01	91	27	0	759169024	42	6191
2026-01-17 03:32:14.44	291.73	26.30	-33.9	-35.0	29.9	3.02e+01	90	27	0	761266176	42	6127
2026-01-17 03:32:15.45	292.07	26.22	-34.0	-35.2	29.9	3.02e+01	91	27	0	763363328	42	6234
2026-01-17 03:32:16.46	292.40	26.14	-34.0	-35.2	29.8	3.02e+01	90	27	0	764936192	42	6211
2026-01-17 03:32:17.47	292.73	26.07	-34.0	-35.2	29.9	3.02e+01	92	27	0	767033344	42	6250
2026-01-17 03:32:18.48	293.06	25.99	-34.0	-35.2	29.9	3.02e+01	92	27	0	768606208	42	6211
2026-01-17 03:32:19.49	293.39	25.91	-34.1	-35.3	29.8	3.02e+01	92	27	0	770703360	42	6309
2026-01-17 03:32:20.50	293.72	25.83	-34.1	-35.3	29.8	3.02e+01	92	27	0	772800512	42	6290
2026-01-17 03:32:21.51	294.04	25.75	-34.1	-35.3	29.8	3.02e+01	90	27	0	774373376	42	6290
2026-01-17 03:32:22.52	294.36	25.67	-34.1	-35.3	29.8	3.02e+01	92	27	0	776470528	42	6280
2026-01-17 03:32:23.53	294.69	25.58	-34.0	-35.2	29.8	3.02e+01	90	27	0	778567680	42	6237
2026-01-17 03:32:24.54	295.00	25.50	-34.0	-35.2	29.8	3.02e+01	92	27	0	780140544	42	6265
2026-01-17 03:32:25.55	295.32	25.42	-34.3	-35.5	29.6	3.02e+01	90	27	0	782237696	42	6486
2026-01-17 03:32:26.56	295.64	25.34	-34.1	-35.3	29.7	3.02e+01	91	27	0	783810560	42	6294
2026-01-17 03:32:27.57	295.95	25.25	-34.0	-35.2	29.8	3.02e+01	92	27	0	785907712	42	6249
2026-01-17 03:32:28.58	296.26	25.17	-34.2	-35.4	29.7	3.02e+01	89	27	0	788004864	42	6415
2026-01-17 03:32:29.59	296.58	25.08	-34.2	-35.4	29.7	3.02e+01	91	27	0	789577728	42	6423
2026-01-17 03:32:30.60	296.88	24.99	-34.1	-35.3	29.8	3.02e+01	90	27	0	791674880	42	6309
2026-01-17 03:32:31.61	297.19	24.91	-34.0	-35.2	29.8	3.02e+01	92	27	0	793772032	42	6250
2026-01-17 03:32:32.62	297.50	24.82	-34.0	-35.2	29.9	3.02e+01	91	27	0	795344896	42	6215
2026-01-17 03:32:33.63	297.80	24.73	-34.0	-35.2	29.7	3.02e+01	92	27	0	797442048	42	6261
2026-01-17 03:32:34.64	298.10	24.65	-34.1	-35.3	29.7	3.02e+01	90	27	0	799014912	42	6340
2026-01-17 03:32:35.65	298.40	24.56	-34.3	-35.5	29.6	3.02e+01	92	27	0	801112064	42	6457
2026-01-17 03:32:36.66	298.70	24.47	-34.2	-35.4	29.6	3.02e+01	90	27	0	803209216	42	6389
2026-01-17 03:32:37.67	299.00	24.38	-34.1	-35.3	29.7	3.02e+01	92	27	0	804782080	42	6329
2026-01-17 03:32:38.68	299.29	24.29	-33.9	-35.1	29.9	3.02e+01	50	27	0	806879232	42	6138
2026-01-17 03:32:39.69	299.59	24.20	-34.0	-35.2	29.9	3.02e+01	56	27	0	808452096	42	6226
2026-01-17 03:32:40.70	299.88	24.11	-33.9	-35.1	30.0	3.02e+01	59	27	0	810549248	42	6142
2026-01-17 03:32:41.71	300.17	24.02	-34.1	-35.3	29.7	3.02e+01	59	27	0	812646400	42	6302
2026-01-17 03:32:42.72	300.46	23.93	-34.3	-35.5	29.5	3.02e+01	54	27	0	814219264	42	6464
2026-01-17 03:32:43.73	300.74	23.83	-34.2	-35.4	29.6	3.02e+01	43	27	0	816316416	42	6396
2026-01-17 03:32:44.74	301.03	23.74	-34.1	-35.3	29.7	3.02e+01	61	27	0	817889280	42	6288
2026-01-17 03:32:45.75	301.31	23.65	-34.0	-35.2	29.7	3.02e+01	52	27	0	819986432	42	6246
2026-01-17 03:32:46.76	301.59	23.56	-33.9	-35.1	29.9	3.02e+01	48	27	0	822083584	42	6143
2026-01-17 03:32:47.77	301.87	23.46	-33.8	-35.0	29.9	3.02e+01	60	27	0	823656448	42	6125
2026-01-17 03:32:48.78	302.15	23.37	-34.0	-35.2	29.8	3.02e+01	53	27	0	825753600	42	6240
2026-01-17 03:32:49.79	302.43	23.28	-33.9	-35.1	29.9	3.02e+01	59	27	0	827326464	42	6174
2026-01-17 03:32:50.80	302.70	23.18	-33.9	-35.1	30.0	3.02e+01	60	27	0	829423616	42	6140
2026-01-17 03:32:51.81	302.97	23.09	-34.1	-35.3	29.7	3.02e+01	54	27	0	831520768	42	6312
2026-01-17 03:32:52.82	303.24	22.99	-34.3	-35.5	29.5	3.02e+01	61	27	0	833093632	42	6497
2026-01-17 03:32:53.83	303.51	22.90	-34.1	-35.3	29.7	3.02e+01	59	27	0	835190784	42	6340
2026-01-17 03:32:54.84	303.78	22.81	-34.1	-35.3	29.6	3.02e+01	58	27	0	836763648	42	6305
2026-01-17 03:32:55.85	304.05	22.71	-34.0	-35.1	29.8	3.02e+01	63	27	0	838860800	42	6203
2026-01-17 03:32:56.86	304.31	22.62	-33.7	-34.9	30.0	3.02e+01	51	27	0	840957952	42	6024
2026-01-17 03:32:57.87	304.57	22.52	-33.8	-35.0	29.9	3.02e+01	59	27	0	842530816	42	6119
2026-01-17 03:32:58.87	304.83	22.42	-33.9	-35.1	29.8	3.02e+01	59	27	0	844627968	42	6188
2026-01-17 03:32:59.88	305.09	22.33	-33.9	-35.1	29.9	3.02e+01	44	27	0	846725120	42	6196
2026-01-17 03:33:00.89	305.35	22.23	-33.9	-35.1	29.9	3.02e+01	57	27	0	848297984	42	6149
2026-01-17 03:33:01.90	305.61	22.14	-33.9	-35.1	29.8	3.02e+01	59	27	0	850395136	42	6180
2026-01-17 03:33:02.91	305.86	22.04	-33.8	-35.0	29.9	3.02e+01	58	27	0	851968000	42	6129
2026-01-17 03:33:03.92	306.11	21.94	-33.9	-35.1	29.9	3.02e+01	58	27	0	854065152	42	6172
2026-01-17 03:33:04.93	306.36	21.85	-34.0	-35.2	29.7	3.02e+01	58	27	0	856162304	42	6218
2026-01-17 03:33:05.94	306.61	21.75	-34.1	-35.3	29.6	3.02e+01	59	27	0	857735168	42	6332
2026-01-17 03:33:06.95	306.86	21.65	-33.8	-35.0	30.0	3.02e+01	56	27	0	859832320	42	6078
2026-01-17 03:33:07.96	307.11	21.56	-33.8	-35.0	30.0	3.02e+01	51	27	0	861405184	42	6125
2026-01-17 03:33:08.97	307.35	21.46	-33.9	-35.1	29.8	3.02e+01	61	27	0	863502336	42	6188
2026-01-17 03:33:09.98	307.60	21.36	-33.8	-35.0	29.9	3.02e+01	57	27	0	865599488	42	6117
2026-01-17 03:33:10.99	307.84	21.26	-33.7	-34.8	30.1	3.02e+01	58	27	0	867172352	42	5982
2026-01-17 03:33:12.00	308.08	21.17	-33.9	-35.1	29.9	3.02e+01	60	27	0	869269504	42	6139
2026-01-17 03:33:13.01	308.32	21.07	-34.0	-35.2	29.8	3.02e+01	50	27	0	871366656	42	6268
2026-01-17 03:33:14.02	308.55	20.97	-34.0	-35.2	29.8	3.02e+01	58	27	0	872939520	42	6219
2026-01-17 03:33:15.03	308.79	20.87	-33.9	-35.1	29.8	3.02e+01	61	27	0	875036672	42	6193
2026-01-17 03:33:16.04	309.02	20.78	-33.9	-35.1	29.8	3.02e+01	44	27	0	876609536	42	6169
2026-01-17 03:33:17.05	309.26	20.68	-34.1	-35.3	29.6	3.02e+01	59	27	0	878706688	42	6343
2026-01-17 03:33:18.06	309.49	20.58	-33.7	-34.9	30.0	3.02e+01	59	27	0	880803840	42	6044
2026-01-17 03:33:19.07	309.72	20.48	-33.6	-34.8	30.0	3.02e+01	61	27	0	882376704	42	5967
2026-01-17 03:33:20.08	309.94	20.39	-33.8	-35.0	29.9	3.02e+01	58	27	0	884473856	42	6091
2026-01-17 03:33:21.09	310.17	20.29	-33.8	-35.0	29.9	3.02e+01	49	27	0	886046720	42	6117
2026-01-17 03:33:22.10	310.40	20.19	-33.9	-35.1	29.8	3.02e+01	57	27	0	888143872	42	6179
2026-01-17 03:33:23.11	310.62	20.09	-33.8	-35.0	29.9	3.02e+01	57	27	0	890241024	42	6098
2026-01-17 03:33:24.12	310.84	20.00	-33.7	-34.9	30.0	3.02e+01	61	27	0	891813888	42	6048
2026-01-17 03:33:25.13	311.06	19.90	-33.7	-34.9	30.0	3.02e+01	58	27	0	893911040	42	6048
2026-01-17 03:33:26.14	311.28	19.80	-33.7	-34.9	30.0	3.02e+01	58	27	0	895483904	42	6005
2026-01-17 03:33:27.15	311.50	19.70	-33.8	-35.0	29.9	3.02e+01	59	27	0	897581056	42	6068
2026-01-17 03:33:28.16	311.71	19.61	-33.7	-34.9	29.9	3.02e+01	59	27	0	899678208	42	6038
2026-01-17 03:33:29.16	311.93	19.51	-33.7	-34.9	30.0	3.02e+01	45	27	0	901251072	42	6060
2026-01-17 03:33:30.17	312.14	19.41	-33.7	-34.9	29.9	3.02e+01	59	27	0	903348224	42	6031
2026-01-17 03:33:31.18	312.35	19.31	-33.8	-34.9	29.8	3.02e+01	59	27	0	904921088	42	6064
2026-01-17 03:33:32.19	312.56	19.22	-33.6	-34.8	30.0	3.02e+01	61	27	0	907018240	42	5956
2026-01-17 03:33:33.20	312.77	19.12	-33.7	-34.9	30.0	3.02e+01	60	27	0	909115392	42	5997
2026-01-17 03:33:34.21	312.98	19.02	-33.7	-34.9	29.9	3.02e+01	45	27	0	910688256	42	6062
2026-01-17 03:33:35.22	313.19	18.93	-33.9	-35.1	29.9	3.02e+01	59	27	0	912785408	42	6160
2026-01-17 03:33:36.23	313.39	18.83	-33.9	-35.1	29.8	3.02e+01	59	27	0	914882560	42	6150
2026-01-17 03:33:37.24	313.60	18.73	-33.8	-35.0	29.8	3.02e+01	44	27	0	916455424	42	6070
2026-01-17 03:33:38.25	313.80	18.63	-33.8	-35.0	29.9	3.02e+01	57	27	0	918552576	42	6096
2026-01-17 03:33:39.26	314.00	18.54	-33.9	-35.1	29.7	3.02e+01	60	27	0	920125440	42	6184
2026-01-17 03:33:40.27	314.20	18.44	-33.8	-35.0	29.9	3.02e+01	59	27	0	922222592	42	6066
2026-01-17 03:33:41.28	314.40	18.34	-33.6	-34.8	30.0	3.02e+01	56	27	0	924319744	42	5968
2026-01-17 03:33:42.29	314.60	18.25	-33.7	-34.9	29.9	3.02e+01	58	27	0	925892608	42	6038
2026-01-17 03:33:43.30	314.79	18.15	-33.7	-34.9	30.0	3.02e+01	56	27	0	927989760	42	6008
2026-01-17 03:33:44.31	314.99	18.06	-33.6	-34.8	30.0	3.02e+01	59	27	0	929562624	42	5973
2026-01-17 03:33:45.32	315.18	17.96	-33.7	-34.9	29.9	3.02e+01	45	27	0	931659776	42	6043
2026-01-17 03:33:46.33	315.37	17.86	-33.6	-34.8	30.0	3.02e+01	63	27	0	933756928	42	5945
2026-01-17 03:33:47.34	315.56	17.77	-33.7	-34.9	30.0	3.02e+01	61	27	0	935329792	42	6061
2026-01-17 03:33:48.35	315.75	17.67	-33.6	-34.8	30.1	3.02e+01	57	27	0	937426944	42	5977
2026-01-17 03:33:49.36	315.94	17.58	-33.8	-35.0	29.9	3.02e+01	57	27	0	939524096	42	6097
2026-01-17 03:33:50.37	316.13	17.48	-33.9	-35.1	29.8	3.02e+01	46	27	0	941096960	42	6200
2026-01-17 03:33:51.38	316.31	17.38	-33.7	-34.9	29.9	3.02e+01	58	27	0	943194112	42	6050
2026-01-17 03:33:52.39	316.50	17.29	-33.8	-35.0	29.8	3.02e+01	60	27	0	944766976	42	6133
2026-01-17 03:33:53.39	316.68	17.20	-33.6	-34.8	30.0	3.02e+01	44	27	0	946864128	42	5940
2026-01-17 03:33:54.40	316.86	17.10	-33.7	-34.8	30.0	3.02e+01	60	27	0	948436992	42	5987
2026-01-17 03:33:55.41	317.04	17.01	-33.6	-34.8	30.0	3.02e+01	59	27	0	950534144	42	5955
2026-01-17 03:33:56.43	317.22	16.91	-33.6	-34.7	30.0	3.02e+01	62	27	0	952631296	42	5912
2026-01-17 03:33:57.43	317.40	16.82	-33.5	-34.7	30.0	3.02e+01	63	27	0	954204160	42	5898
2026-01-17 03:33:58.44	317.58	16.72	-33.7	-34.9	29.9	3.02e+01	54	27	0	956301312	42	5998
2026-01-17 03:33:59.45	317.76	16.63	-33.6	-34.8	30.1	3.02e+01	56	27	0	957874176	42	5955
2026-01-17 03:34:00.46	317.93	16.53	-33.6	-34.7	30.1	3.02e+01	58	27	0	959971328	42	5918
2026-01-17 03:34:01.47	318.11	16.44	-33.6	-34.8	30.0	3.02e+01	58	27	0	962068480	42	5935
2026-01-17 03:34:02.49	318.28	16.34	-33.7	-34.9	29.9	3.02e+01	57	27	0	963641344	42	6003
2026-01-17 03:34:03.49	318.45	16.25	-33.6	-34.8	29.9	3.02e+01	43	27	0	965738496	42	5982
2026-01-17 03:34:04.50	318.62	16.16	-33.8	-35.0	29.8	3.02e+01	58	27	0	967835648	42	6077
2026-01-17 03:34:05.51	318.79	16.07	-33.7	-34.9	29.9	3.02e+01	58	27	0	969408512	42	6012
2026-01-17 03:34:06.52	318.96	15.97	-33.8	-35.0	29.8	3.02e+01	49	27	0	971505664	42	6088
2026-01-17 03:34:07.53	319.13	15.88	-33.9	-35.1	29.8	3.02e+01	62	27	0	973078528	42	6173
2026-01-17 03:34:08.54	319.29	15.79	-33.9	-35.1	29.8	3.02e+01	59	27	0	975175680	42	6156
2026-01-17 03:34:09.55	319.46	15.69	-33.8	-35.0	29.8	3.02e+01	60	27	0	977272832	42	6103
2026-01-17 03:34:10.56	319.62	15.60	-33.8	-35.0	29.7	3.02e+01	58	27	0	978845696	42	6122
2026-01-17 03:34:11.57	319.79	15.51	-33.9	-35.1	29.7	3.02e+01	47	27	0	980942848	42	6166
2026-01-17 03:34:12.58	319.95	15.42	-33.6	-34.8	29.9	3.02e+01	56	27	0	983040000	42	5983
2026-01-17 03:34:13.59	320.11	15.33	-33.8	-35.0	29.9	3.02e+01	61	27	0	984612864	42	6068
2026-01-17 03:34:14.59	320.27	15.24	-33.6	-34.8	30.0	3.02e+01	45	27	0	986710016	42	5982
2026-01-17 03:34:15.61	320.43	15.14	-33.7	-34.8	30.0	3.02e+01	61	27	0	988282880	42	5988
2026-01-17 03:34:16.61	320.59	15.05	-33.8	-35.0	29.8	3.02e+01	59	27	0	990380032	42	6086
2026-01-17 03:34:17.62	320.74	14.96	-33.8	-35.0	29.8	3.02e+01	57	27	0	992477184	42	6069
2026-01-17 03:34:18.63	320.90	14.87	-33.8	-35.0	29.8	3.02e+01	59	27	0	994050048	42	6089
2026-01-17 03:34:19.64	321.06	14.78	-33.9	-35.1	29.7	3.02e+01	56	27	0	996147200	42	6182
2026-01-17 03:34:20.65	321.21	14.69	-33.8	-35.0	29.7	3.02e+01	57	27	0	997720064	42	6118
2026-01-17 03:34:21.66	321.36	14.60	-33.9	-35.1	29.8	3.02e+01	48	27	0	999817216	42	6155
2026-01-17 03:34:22.67	321.52	14.51	-33.9	-35.1	29.7	3.02e+01	44	27	0	1001914368	42	6177
2026-01-17 03:34:23.68	321.67	14.42	-33.9	-35.1	29.7	3.02e+01	60	27	0	1003487232	42	6182
2026-01-17 03:34:24.69	321.82	14.33	-34.1	-35.3	29.5	3.02e+01	58	27	0	1005584384	42	6322
2026-01-17 03:34:25.70	321.97	14.24	-33.9	-35.1	29.6	3.02e+01	58	27	0	1007157248	42	6179
2026-01-17 03:34:26.71	322.12	14.15	-33.9	-35.1	29.7	3.02e+01	60	27	0	1009254400	42	6154
2026-01-17 03:34:27.72	322.26	14.06	-33.9	-35.1	29.7	3.02e+01	46	27	0	1011351552	42	6158
2026-01-17 03:34:28.73	322.41	13.97	-33.8	-35.0	29.7	3.02e+01	60	27	0	1012924416	42	6081
2026-01-17 03:34:29.74	322.56	13.88	-33.9	-35.1	29.7	3.02e+01	60	27	0	1015021568	42	6146
2026-01-17 03:34:30.75	322.70	13.80	-33.9	-35.1	29.7	3.02e+01	43	27	0	1016594432	42	6140
2026-01-17 03:34:31.76	322.85	13.71	-34.0	-35.2	29.6	3.02e+01	61	27	0	1018691584	42	6230
2026-01-17 03:34:32.77	322.99	13.62	-34.0	-35.2	29.6	3.02e+01	58	27	0	1020788736	42	6258
2026-01-17 03:34:33.78	323.13	13.53	-34.0	-35.2	29.5	3.02e+01	61	27	0	1022361600	42	6273
2026-01-17 03:34:34.79	323.27	13.44	-34.2	-35.4	29.4	3.02e+01	61	27	0	1024458752	42	6388
2026-01-17 03:34:35.80	323.41	13.36	-34.1	-35.3	29.5	3.02e+01	53	27	0	1026031616	42	6346
2026-01-17 03:34:36.81	323.55	13.27	-34.2	-35.4	29.4	3.02e+01	61	27	0	1028128768	42	6400
2026-01-17 03:34:37.82	323.69	13.18	-34.3	-35.5	29.4	3.02e+01	58	27	0	1030225920	42	6450
2026-01-17 03:34:38.82	323.83	13.10	-34.2	-35.4	29.3	3.02e+01	59	27	0	1031798784	42	6402
2026-01-17 03:34:39.83	323.97	13.01	-34.2	-35.4	29.4	3.02e+01	58	27	0	1033895936	42	6390
2026-01-17 03:34:40.84	324.10	12.92	-34.3	-35.5	29.3	3.02e+01	46	27	0	1035993088	42	6487
2026-01-17 03:34:41.85	324.24	12.84	-34.3	-35.6	29.3	3.02e+01	61	27	0	1037565952	42	6500
2026-01-17 03:34:42.86	324.37	12.75	-34.3	-35.6	29.2	3.02e+01	57	27	0	1039663104	42	6501
2026-01-17 03:34:43.87	324.51	12.66	-34.5	-35.7	29.3	3.02e+01	36	27	0	1041235968	42	6610
2026-01-17 03:34:44.88	324.64	12.58	-34.3	-35.5	29.2	3.02e+01	59	27	0	1043333120	42	6479
2026-01-17 03:34:45.89	324.77	12.49	-34.5	-35.7	29.1	3.02e+01	60	27	0	1045430272	42	6611
2026-01-17 03:34:46.90	324.90	12.41	-34.5	-35.7	29.0	3.02e+01	59	27	0	1047003136	42	6642
2026-01-17 03:34:47.91	325.03	12.32	-34.7	-35.9	28.9	3.02e+01	59	27	0	1049100288	42	6795
2026-01-17 03:34:48.92	325.16	12.24	-34.5	-35.7	29.1	3.02e+01	51	27	0	1051197440	42	6606
2026-01-17 03:34:49.93	325.29	12.15	-34.8	-36.0	28.8	3.02e+01	62	27	0	1052770304	42	6873
2026-01-17 03:34:50.93	325.42	12.07	-34.9	-36.1	28.8	3.02e+01	59	27	0	1054867456	44	6153
2026-01-17 03:34:51.95	325.55	11.99	-34.5	-35.7	29.0	3.02e+01	50	27	0	1056440320	44	5915
2026-01-17 03:34:52.96	325.68	11.90	-34.8	-36.0	28.6	3.02e+01	58	27	0	1058537472	44	6110
2026-01-17 03:34:53.97	325.80	11.82	-34.9	-36.1	28.8	3.02e+01	57	27	0	1060634624	44	6180
2026-01-17 03:34:54.98	325.93	11.73	-34.8	-36.0	28.5	3.02e+01	59	27	0	1062207488	44	6119
2026-01-17 03:34:55.99	326.05	11.65	-35.0	-36.2	28.6	3.02e+01	59	27	0	1064304640	44	6257
2026-01-17 03:34:57.00	326.18	11.57	-34.7	-36.0	28.7	3.02e+01	54	27	0	1065877504	44	6098
2026-01-17 03:34:58.01	326.30	11.48	-34.5	-35.8	29.0	3.02e+01	59	27	0	1067974656	44	5939
2026-01-17 03:34:59.02	326.42	11.40	-34.6	-35.8	28.9	3.02e+01	59	27	0	1070071808	44	5960
2026-01-17 03:35:00.03	326.54	11.32	-34.7	-36.0	28.7	3.02e+01	45	27	0	1071644672	44	6069
2026-01-17 03:35:01.04	326.67	11.24	-34.5	-35.7	28.9	3.02e+01	59	27	0	1073741824	44	5913
2026-01-17 03:35:02.05	326.79	11.15	-34.4	-35.6	29.0	3.02e+01	62	27	0	1075314688	44	5833
2026-01-17 03:35:03.06	326.91	11.07	-34.6	-35.8	28.8	3.02e+01	59	27	0	1077411840	44	5958
2026-01-17 03:35:04.07	327.03	10.99	-34.6	-35.8	28.9	3.02e+01	58	27	0	1079508992	44	5960
2026-01-17 03:35:05.08	327.14	10.91	-34.6	-35.8	28.8	3.02e+01	48	27	0	1081081856	44	5994
2026-01-17 03:35:06.09	327.26	10.83	-34.8	-36.0	28.7	3.02e+01	60	27	0	1083179008	44	6122
2026-01-17 03:35:07.10	327.38	10.75	-34.8	-36.0	28.6	3.02e+01	56	27	0	1084751872	44	6102
2026-01-17 03:35:08.11	327.49	10.67	-34.8	-36.1	28.7	3.02e+01	49	27	0	1086849024	44	6156
2026-01-17 03:35:09.12	327.61	10.58	-34.7	-35.9	28.7	3.02e+01	63	27	0	1088946176	44	6039
2026-01-17 03:35:10.13	327.73	10.50	-34.8	-36.1	28.6	3.02e+01	46	27	0	1090519040	44	6136
2026-01-17 03:35:11.14	327.84	10.42	-34.8	-36.0	28.6	3.02e+01	60	27	0	1092616192	44	6109
2026-01-17 03:35:12.15	327.95	10.34	-34.9	-36.1	28.6	3.02e+01	57	27	0	1094189056	44	6197
2026-01-17 03:35:13.16	328.07	10.26	-34.8	-36.0	28.6	3.02e+01	53	27	0	1096286208	44	6112
2026-01-17 03:35:14.17	328.18	10.18	-34.9	-36.1	28.5	3.02e+01	61	27	0	1098383360	44	6186
2026-01-17 03:35:15.18	328.29	10.10	-34.9	-36.2	28.6	3.02e+01	59	27	0	1099956224	44	6208
2026-01-17 03:35:16.19	328.40	10.03	-34.8	-36.1	28.6	3.02e+01	59	27	0	1102053376	44	6154
2026-01-17 03:35:17.20	328.51	9.95	-34.9	-36.2	28.4	3.02e+01	61	27	0	1104150528	44	6227
2026-01-17 03:35:18.21	328.62	9.87	-34.9	-36.1	28.5	3.02e+01	55	27	0	1105723392	44	6192
2026-01-17 03:35:19.22	328.73	9.79	-34.8	-36.0	28.7	3.02e+01	59	27	0	1107820544	44	6117
2026-01-17 03:35:20.23	328.84	9.71	-34.8	-36.1	28.6	3.02e+01	59	27	0	1109393408	44	6149
2026-01-17 03:35:21.24	328.95	9.63	-34.8	-36.1	28.6	3.02e+01	45	27	0	1111490560	44	6150
2026-01-17 03:35:22.25	329.06	9.55	-34.9	-36.1	28.4	3.02e+01	61	27	0	1113587712	44	6203
2026-01-17 03:35:23.26	329.16	9.48	-35.0	-36.3	28.3	3.02e+01	61	27	0	1115160576	44	6313
2026-01-17 03:35:24.27	329.27	9.40	-35.0	-36.3	28.4	3.02e+01	61	27	0	1117257728	44	6330
2026-01-17 03:35:25.28	329.37	9.32	-35.0	-36.3	28.3	3.02e+01	61	27	0	1119354880	44	6307
2026-01-17 03:35:26.29	329.48	9.24	-35.2	-36.5	28.2	3.02e+01	62	27	0	1120927744	44	6446
2026-01-17 03:35:27.30	329.58	9.17	-35.0	-36.3	28.2	3.02e+01	57	27	0	1123024896	44	6286
2026-01-17 03:35:28.31	329.69	9.09	-35.1	-36.4	28.1	3.02e+01	63	27	0	1124597760	44	6386
2026-01-17 03:35:29.32	329.79	9.01	-35.1	-36.4	28.2	3.02e+01	52	27	0	1126694912	44	6361
2026-01-17 03:35:30.34	329.90	8.93	-35.3	-36.6	28.0	3.02e+01	59	27	0	1128792064	44	6514
2026-01-17 03:35:31.34	330.00	8.86	-35.4	-36.7	27.9	3.02e+01	59	27	0	1130364928	44	6633
2026-01-17 03:35:32.35	330.10	8.78	-35.5	-36.8	27.9	3.02e+01	59	27	0	1132462080	44	6681
2026-01-17 03:35:33.36	330.20	8.71	-35.1	-36.4	28.1	3.02e+01	59	27	0	1134034944	44	6418
2026-01-17 03:35:34.37	330.30	8.63	-35.6	-45.9	3.4	3.02e+01	0	27	104	1135607808	44	19143
2026-01-17 03:35:35.38	330.40	8.55	-35.7	-45.9	3.4	3.02e+01	0	27	104	1135607808	44	19168
2026-01-17 03:35:36.39	330.50	8.48	-35.6	-46.0	3.6	3.02e+01	0	27	104	1135607808	44	19225
2026-01-17 03:35:37.40	330.60	8.40	-35.7	-45.9	3.6	3.02e+01	0	27	104	1135607808	44	19130
2026-01-17 03:35:38.41	330.70	8.33	-35.9	-46.2	3.6	3.02e+01	0	27	104	1135607808	44	19625
2026-01-17 03:35:39.42	330.80	8.25	-35.6	-45.8	3.6	3.02e+01	0	27	104	1135607808	46	16737
2026-01-17 03:35:40.43	330.89	8.18	-46.1	-60.1	3.5	3.02e+01	0	27	104	1135607808	60	39102
2026-01-17 03:35:41.44	330.99	8.10	-37.8	-48.2	3.6	3.02e+01	0	27	104	1135607808	54	14050
2026-01-17 03:35:42.45	331.09	8.03	-39.6	-50.2	3.6	3.02e+01	0	27	104	1135607808	56	15707
2026-01-17 03:35:43.46	331.18	7.96	-36.9	-47.1	3.6	3.02e+01	0	27	104	1135607808	48	17364
2026-01-17 03:35:44.47	331.28	7.88	-36.4	-46.6	3.6	3.02e+01	0	27	104	1135607808	48	16369
2026-01-17 03:35:45.48	331.37	7.81	-36.3	-46.5	3.6	3.02e+01	0	27	104	1135607808	48	16291
2026-01-17 03:35:46.49	331.47	7.73	-36.1	-46.4	3.4	3.02e+01	0	27	104	1135607808	48	15995
2026-01-17 03:35:47.50	331.56	7.66	-38.5	-48.9	3.6	3.02e+01	0	27	104	1135607808	50	19084
2026-01-17 03:35:48.51	331.66	7.59	-36.1	-46.3	3.6	3.02e+01	0	27	104	1135607808	48	15907
2026-01-17 03:35:49.51	331.75	7.52	-46.7	-61.9	3.5	3.02e+01	0	27	104	1135607808	60	47709
2026-01-17 03:35:50.52	331.84	7.44	-41.2	-52.1	3.4	3.02e+01	0	27	104	1135607808	60	15517
2026-01-17 03:35:51.54	331.93	7.37	-42.2	-53.3	3.4	3.02e+01	0	27	104	1135607808	60	17856
2026-01-17 03:35:52.54	332.02	7.30	-40.7	-51.4	4.0	3.02e+01	0	27	104	1135607808	56	18084
2026-01-17 03:35:53.55	332.12	7.22	-40.8	-51.4	4.0	3.02e+01	0	27	104	1135607808	56	18104
2026-01-17 03:35:54.56	332.21	7.15	-41.2	-52.0	4.0	3.02e+01	0	27	104	1135607808	56	19203
2026-01-17 03:35:55.57	332.30	7.08	-40.9	-51.6	3.7	3.02e+01	0	27	104	1135607808	56	18477
2026-01-17 03:35:56.58	332.39	7.01	-39.1	-49.5	3.4	3.02e+01	0	27	104	1135607808	52	18285
2026-01-17 03:35:57.59	332.47	6.94	-38.7	-49.1	3.7	3.02e+01	0	27	104	1135607808	48	21849
2026-01-17 03:35:58.60	332.56	6.86	-46.7	-62.2	3.5	3.02e+01	0	27	104	1135607808	60	49696
2026-01-17 03:35:59.61	332.65	6.79	-37.2	-47.6	3.5	3.02e+01	0	27	104	1135607808	54	12976
2026-01-17 03:36:00.60	332.74	6.72	-38.6	-49.0	3.4	3.02e+01	0	27	104	1135607808	54	15375
2026-01-17 03:36:01.61	332.83	6.65	-37.6	-47.9	3.5	3.02e+01	0	27	104	1135607808	50	17010
2026-01-17 03:36:02.62	332.91	6.58	-37.2	-47.4	3.5	3.02e+01	0	27	104	1135607808	50	16128
2026-01-17 03:36:03.63	333.00	6.51	-37.5	-47.8	3.5	3.02e+01	0	27	104	1135607808	50	16824
2026-01-17 03:36:04.64	333.09	6.44	-37.8	-48.2	3.5	3.02e+01	0	27	104	1135607808	50	17642
