passes_logs/2026/01/17/R4.6S_Anadyr/R4.6S_Anadyr__20260117_142736_NOAA_20_JPSS-1_rec.log

#Pass ID: 20260117_142736_NOAA 20 (JPSS-1)
#Satellite: NOAA 20 (JPSS-1)
#Configuration: NOAA 20
#almurnet v.1.7.20251203
#Start time: 2026-01-17 14:27:37

#Version: 2.2.20231116
#Station: R4.6S_Anadyr
#Location: 177.4865 lon 64.73178 lat
#TLE: 1 43013U 17073A   26016.52825843  .00000039  00000+0  39346-4 0  9991
#TLE: 2 43013  98.7637 317.4515 0001446  37.2648 322.8628 14.19536276422951

#Time	Az	El	Level	Level2	SNR	BER	BlckErr	Temp	State	Recorded	gain1	gain2
2026-01-17 14:27:37.42	20.01	0.04	-48.4	-63.4	3.5	1.51e+00	0	25	0	0	60	53427
2026-01-17 14:27:38.43	20.02	0.10	-48.7	-63.8	3.6	1.51e+00	0	26	104	0	60	56152
2026-01-17 14:27:39.44	20.03	0.16	-48.6	-63.8	3.6	1.51e+00	0	26	104	0	60	56013
2026-01-17 14:27:40.45	20.05	0.22	-48.6	-63.8	3.6	1.51e+00	0	26	104	0	60	56047
2026-01-17 14:27:41.46	20.06	0.28	-48.6	-63.8	3.6	1.51e+00	0	26	104	0	60	55822
2026-01-17 14:27:42.47	20.07	0.34	-48.6	-63.8	3.6	1.51e+00	0	26	104	0	60	55925
2026-01-17 14:27:43.48	20.08	0.40	-48.6	-63.8	3.6	1.51e+00	0	26	104	0	60	55967
2026-01-17 14:27:44.49	20.10	0.47	-48.6	-63.8	3.6	1.51e+00	0	26	104	0	60	55773
2026-01-17 14:27:45.50	20.11	0.53	-48.5	-63.7	3.6	1.51e+00	0	26	104	0	60	55515
2026-01-17 14:27:46.51	20.12	0.59	-48.5	-63.7	3.6	1.51e+00	0	26	104	0	60	55079
2026-01-17 14:27:47.52	20.13	0.65	-48.4	-63.6	3.6	1.51e+00	0	26	104	0	60	54515
2026-01-17 14:27:48.54	20.15	0.71	-48.3	-63.5	3.6	1.51e+00	0	26	104	0	60	53853
2026-01-17 14:27:49.54	20.16	0.77	-48.2	-63.3	3.6	1.51e+00	0	26	104	0	60	52959
2026-01-17 14:27:50.56	20.17	0.83	-47.9	-63.0	3.6	1.51e+00	0	27	104	0	60	51211
2026-01-17 14:27:51.57	20.18	0.89	-47.7	-62.8	3.6	1.51e+00	0	26	104	0	60	49982
2026-01-17 14:27:52.58	20.20	0.96	-47.5	-62.6	3.6	1.51e+00	0	26	104	0	60	48527
2026-01-17 14:27:53.59	20.21	1.02	-47.1	-62.2	3.6	1.51e+00	0	27	104	0	60	46341
2026-01-17 14:27:54.60	20.22	1.08	-47.0	-62.1	3.6	1.51e+00	0	27	104	0	60	45848
2026-01-17 14:27:55.61	20.24	1.14	-47.0	-62.0	3.6	1.51e+00	0	27	104	0	60	45535
2026-01-17 14:27:56.62	20.25	1.20	-47.0	-62.0	3.6	1.51e+00	0	27	104	0	60	45423
2026-01-17 14:27:57.63	20.26	1.27	-47.0	-62.1	3.6	1.51e+00	0	27	104	0	60	45918
2026-01-17 14:27:58.64	20.28	1.33	-47.0	-62.1	3.6	1.51e+00	0	27	104	0	60	45836
2026-01-17 14:27:59.65	20.29	1.39	-47.0	-61.9	3.6	1.51e+00	0	27	104	0	60	45187
2026-01-17 14:28:00.66	20.30	1.46	-47.0	-62.0	3.6	1.51e+00	0	27	104	0	60	45697
2026-01-17 14:28:01.67	20.31	1.52	-47.0	-62.1	3.6	1.51e+00	0	27	104	0	60	45967
2026-01-17 14:28:02.68	20.33	1.58	-47.0	-62.1	3.6	1.51e+00	0	27	104	0	60	46139
2026-01-17 14:28:03.69	20.34	1.64	-47.0	-62.1	3.6	1.51e+00	0	27	104	0	60	46215
2026-01-17 14:28:04.70	20.35	1.71	-47.0	-62.1	3.6	1.51e+00	0	27	104	0	60	46149
2026-01-17 14:28:05.71	20.37	1.77	-47.0	-62.1	3.6	1.51e+00	0	27	104	0	60	46036
2026-01-17 14:28:06.72	20.38	1.84	-47.0	-62.1	3.6	1.51e+00	0	27	104	0	60	46033
2026-01-17 14:28:07.74	20.39	1.90	-47.0	-62.1	3.6	1.51e+00	0	27	104	0	60	46015
2026-01-17 14:28:08.75	20.41	1.96	-47.0	-62.1	3.6	1.51e+00	0	27	104	0	60	46229
2026-01-17 14:28:09.76	20.42	2.03	-47.0	-62.1	3.6	1.51e+00	0	27	104	0	60	46121
2026-01-17 14:28:10.77	20.43	2.09	-47.0	-62.0	3.6	1.51e+00	0	27	104	0	60	45354
2026-01-17 14:28:11.78	20.45	2.16	-47.0	-61.8	3.6	1.51e+00	0	27	104	0	60	44507
2026-01-17 14:28:12.79	20.46	2.22	-46.9	-61.2	3.5	1.51e+00	0	27	104	0	60	41681
2026-01-17 14:28:13.80	20.47	2.29	-46.9	-60.3	3.6	1.51e+00	0	27	104	0	60	37213
2026-01-17 14:28:14.81	20.49	2.35	-46.9	-59.9	3.7	1.50e+00	0	27	104	0	60	35695
2026-01-17 14:28:15.82	20.50	2.42	-46.9	-59.7	3.8	1.50e+00	0	27	104	0	60	34814
2026-01-17 14:28:16.83	20.52	2.48	-46.9	-59.8	3.7	1.50e+00	0	27	104	0	60	35483
2026-01-17 14:28:17.84	20.53	2.55	-46.9	-59.7	3.7	1.50e+00	0	27	104	0	60	34836
2026-01-17 14:28:18.85	20.54	2.61	-46.9	-59.9	3.7	1.50e+00	0	27	104	0	60	35856
2026-01-17 14:28:19.86	20.56	2.68	-46.8	-58.7	4.0	1.50e+00	0	27	104	0	60	30987
2026-01-17 14:28:20.87	20.57	2.74	-46.7	-56.2	4.4	1.24e+00	78	27	0	0	60	23418
2026-01-17 14:28:21.88	20.58	2.81	-46.4	-53.9	6.4	3.06e-01	68	27	0	2097152	60	17976
2026-01-17 14:28:22.89	20.60	2.87	-45.9	-51.8	8.8	5.64e-02	0	27	0	4194304	60	14132
2026-01-17 14:28:23.90	20.61	2.94	-45.0	-49.3	11.5	2.92e-03	92	27	0	6291456	60	10527
2026-01-17 14:28:24.91	20.63	3.01	-44.2	-47.5	13.8	1.98e-04	0	27	0	8388608	60	8610
2026-01-17 14:28:25.92	20.64	3.07	-43.4	-46.1	15.3	3.80e-06	76	27	0	9437184	60	7330
2026-01-17 14:28:26.93	20.65	3.14	-43.1	-45.7	15.4	0.00e+00	0	27	0	11534336	60	6991
2026-01-17 14:28:27.95	20.67	3.21	-42.1	-44.2	16.9	0.00e+00	2	27	0	13631488	58	6576
2026-01-17 14:28:28.96	20.68	3.27	-42.5	-44.8	16.3	0.00e+00	2	27	0	15728640	58	7024
2026-01-17 14:28:29.96	20.70	3.34	-41.8	-43.7	17.4	0.00e+00	0	27	0	17825792	56	6982
2026-01-17 14:28:30.98	20.71	3.41	-42.1	-44.2	16.9	0.00e+00	89	27	0	18874368	56	7384
2026-01-17 14:28:31.99	20.73	3.48	-42.4	-44.6	16.5	0.00e+00	0	27	0	20971520	56	7717
2026-01-17 14:28:33.00	20.74	3.54	-42.9	-45.4	15.6	0.00e+00	92	27	0	23068672	58	7512
2026-01-17 14:28:34.01	20.75	3.61	-43.4	-46.2	14.8	0.00e+00	81	27	0	25165824	58	8270
2026-01-17 14:28:35.02	20.77	3.68	-44.4	-48.0	12.9	2.20e-06	4	27	0	27262976	60	9101
2026-01-17 14:28:36.03	20.78	3.75	-41.1	-42.7	18.7	3.00e-06	82	27	0	29360128	56	6232
2026-01-17 14:28:37.04	20.80	3.82	-45.1	-49.8	10.4	4.88e-05	81	27	0	30408704	60	11170
2026-01-17 14:28:38.05	20.81	3.88	-46.9	-58.5	3.6	1.57e-02	0	27	104	32505856	60	30357
2026-01-17 14:28:39.06	20.83	3.95	-44.8	-48.8	12.7	5.24e-01	0	27	104	32505856	60	10011
2026-01-17 14:28:40.07	20.84	4.02	-46.9	-61.4	3.6	1.10e+00	0	27	104	33554432	60	42277
2026-01-17 14:28:41.08	20.86	4.09	-44.9	-49.1	12.3	1.33e+00	0	27	104	33554432	60	10316
2026-01-17 14:28:42.09	20.87	4.16	-45.2	-49.5	11.6	6.32e-04	0	27	0	33554432	60	10844
2026-01-17 14:28:43.10	20.89	4.23	-44.3	-47.8	13.6	1.33e-04	0	27	0	35651584	60	8832
2026-01-17 14:28:44.11	20.90	4.30	-43.1	-45.6	15.8	0.00e+00	0	27	0	37748736	60	6878
2026-01-17 14:28:45.12	20.92	4.37	-43.6	-46.4	15.1	0.00e+00	0	27	0	39845888	60	7546
2026-01-17 14:28:46.13	20.93	4.44	-43.3	-45.9	15.4	0.00e+00	0	27	0	41943040	60	7157
2026-01-17 14:28:47.14	20.95	4.51	-43.2	-45.7	15.8	0.00e+00	92	27	0	42991616	60	6980
2026-01-17 14:28:48.15	20.96	4.58	-42.5	-44.7	16.4	0.00e+00	0	27	0	45088768	58	6968
2026-01-17 14:28:49.16	20.98	4.65	-42.8	-45.1	16.4	0.00e+00	5	27	0	47185920	58	7267
2026-01-17 14:28:50.16	20.99	4.72	-42.8	-45.1	16.1	0.00e+00	2	27	0	49283072	58	7322
2026-01-17 14:28:51.18	21.01	4.79	-43.2	-45.7	15.8	0.00e+00	0	27	0	51380224	58	7838
2026-01-17 14:28:52.18	21.02	4.86	-42.9	-45.3	16.0	0.00e+00	2	27	0	52428800	58	7433
2026-01-17 14:28:53.19	21.04	4.93	-43.6	-46.4	15.8	0.00e+00	5	27	0	54525952	58	8446
2026-01-17 14:28:54.20	21.05	5.00	-43.1	-45.6	15.6	0.00e+00	92	27	0	56623104	58	7720
2026-01-17 14:28:55.22	21.07	5.08	-42.4	-44.5	16.8	0.00e+00	5	27	0	58720256	58	6803
2026-01-17 14:28:56.22	21.08	5.15	-42.2	-44.1	17.8	0.00e+00	92	27	0	60817408	58	6520
2026-01-17 14:28:57.23	21.10	5.22	-41.8	-43.6	17.5	0.00e+00	77	27	0	61865984	56	6885
2026-01-17 14:28:58.24	21.11	5.29	-42.1	-44.0	17.5	0.00e+00	0	27	0	63963136	56	7181
2026-01-17 14:28:59.25	21.13	5.36	-42.2	-44.2	17.4	0.00e+00	0	27	0	66060288	56	7405
2026-01-17 14:29:00.25	21.14	5.44	-41.9	-43.8	17.9	0.00e+00	0	27	0	68157440	56	7048
2026-01-17 14:29:01.26	21.16	5.51	-41.1	-42.7	18.8	0.00e+00	0	27	0	70254592	56	6206
2026-01-17 14:29:02.27	21.18	5.58	-41.1	-42.7	18.7	0.00e+00	81	27	0	71303168	56	6196
2026-01-17 14:29:03.28	21.19	5.65	-41.0	-42.5	19.1	0.00e+00	91	27	0	73400320	56	6092
2026-01-17 14:29:04.29	21.21	5.73	-40.6	-42.1	19.5	0.00e+00	0	27	0	75497472	54	6465
2026-01-17 14:29:05.30	21.22	5.80	-40.7	-42.2	19.2	0.00e+00	0	27	0	77594624	54	6547
2026-01-17 14:29:06.31	21.24	5.88	-40.9	-42.5	19.1	0.00e+00	0	27	0	79691776	54	6784
2026-01-17 14:29:07.32	21.26	5.95	-40.6	-42.1	19.3	0.00e+00	0	27	0	80740352	54	6507
2026-01-17 14:29:08.33	21.27	6.02	-40.3	-41.7	19.8	0.00e+00	0	27	0	82837504	54	6232
2026-01-17 14:29:09.34	21.29	6.10	-40.3	-41.7	19.9	0.00e+00	0	27	0	84934656	54	6232
2026-01-17 14:29:10.35	21.30	6.17	-40.3	-41.7	19.7	0.00e+00	92	27	0	87031808	54	6185
2026-01-17 14:29:11.36	21.32	6.25	-40.1	-41.5	20.0	0.00e+00	3	27	0	89128960	54	6038
2026-01-17 14:29:12.37	21.34	6.32	-40.1	-41.5	20.1	0.00e+00	92	27	0	90177536	54	6039
2026-01-17 14:29:13.37	21.35	6.40	-40.0	-41.3	20.3	0.00e+00	2	27	0	92274688	52	6689
2026-01-17 14:29:14.38	21.37	6.47	-39.7	-40.9	20.6	0.00e+00	2	27	0	94371840	52	6374
2026-01-17 14:29:15.39	21.39	6.55	-39.7	-41.0	20.5	0.00e+00	0	27	0	96468992	52	6453
2026-01-17 14:29:16.40	21.40	6.62	-40.0	-41.3	20.2	0.00e+00	4	27	0	98566144	52	6680
2026-01-17 14:29:17.41	21.42	6.70	-40.0	-41.3	20.5	0.00e+00	92	27	0	99614720	52	6655
2026-01-17 14:29:18.43	21.44	6.78	-39.8	-41.1	20.5	0.00e+00	77	27	0	101711872	52	6488
2026-01-17 14:29:19.44	21.45	6.85	-39.9	-41.2	20.3	0.00e+00	92	27	0	103809024	52	6585
2026-01-17 14:29:20.45	21.47	6.93	-39.8	-41.1	20.3	0.00e+00	77	27	0	105906176	52	6515
2026-01-17 14:29:21.46	21.49	7.01	-40.1	-41.5	20.1	0.00e+00	79	27	0	108003328	52	6774
2026-01-17 14:29:22.47	21.50	7.08	-40.1	-41.5	20.1	0.00e+00	0	27	0	110100480	52	6780
2026-01-17 14:29:23.48	21.52	7.16	-40.2	-41.5	20.2	0.00e+00	0	27	0	111149056	52	6819
2026-01-17 14:29:24.49	21.54	7.24	-39.9	-41.2	20.4	0.00e+00	0	27	0	113246208	52	6588
2026-01-17 14:29:25.50	21.56	7.32	-39.5	-40.7	21.0	0.00e+00	0	27	0	115343360	52	6215
2026-01-17 14:29:26.51	21.57	7.40	-39.4	-40.6	21.0	0.00e+00	90	27	0	117440512	52	6117
2026-01-17 14:29:27.52	21.59	7.47	-39.6	-40.8	20.8	0.00e+00	0	27	0	119537664	52	6280
2026-01-17 14:29:28.53	21.61	7.55	-39.4	-40.6	21.0	0.00e+00	92	27	0	120586240	52	6156
2026-01-17 14:29:29.54	21.63	7.63	-39.2	-40.4	21.2	0.00e+00	5	27	0	122683392	52	6014
2026-01-17 14:29:30.55	21.64	7.71	-39.3	-40.5	21.1	0.00e+00	5	27	0	124780544	52	6044
2026-01-17 14:29:31.56	21.66	7.79	-39.5	-40.7	20.9	0.00e+00	0	27	0	126877696	52	6208
2026-01-17 14:29:32.57	21.68	7.87	-39.4	-40.6	21.0	0.00e+00	5	27	0	128974848	52	6107
2026-01-17 14:29:33.58	21.70	7.95	-39.4	-40.6	21.0	0.00e+00	92	27	0	130023424	52	6166
2026-01-17 14:29:34.59	21.71	8.03	-39.4	-40.7	21.0	0.00e+00	3	27	0	132120576	52	6177
2026-01-17 14:29:35.60	21.73	8.11	-39.1	-40.3	21.4	0.00e+00	92	27	0	134217728	52	5899
2026-01-17 14:29:36.61	21.75	8.19	-39.1	-40.3	21.3	0.00e+00	80	27	0	136314880	52	5924
2026-01-17 14:29:37.62	21.77	8.27	-39.1	-40.3	21.3	0.00e+00	4	27	0	138412032	52	5918
2026-01-17 14:29:38.63	21.79	8.35	-39.1	-40.2	21.4	0.00e+00	0	27	0	139460608	52	5877
2026-01-17 14:29:39.64	21.80	8.44	-39.1	-40.3	21.4	0.00e+00	0	27	0	141557760	52	5919
2026-01-17 14:29:40.65	21.82	8.52	-39.1	-40.2	21.5	0.00e+00	90	27	0	143654912	52	5868
2026-01-17 14:29:41.66	21.84	8.60	-38.8	-40.0	21.7	0.00e+00	79	27	0	145752064	52	5697
2026-01-17 14:29:42.67	21.86	8.68	-39.2	-40.3	21.4	0.00e+00	92	27	0	147849216	52	5940
2026-01-17 14:29:43.68	21.88	8.76	-38.9	-40.0	21.6	0.00e+00	81	27	0	148897792	52	5759
2026-01-17 14:29:44.70	21.90	8.85	-39.1	-40.2	21.5	0.00e+00	7	27	0	150994944	52	5876
2026-01-17 14:29:45.71	21.92	8.93	-38.9	-40.0	21.5	0.00e+00	0	27	0	153092096	52	5761
2026-01-17 14:29:46.71	21.93	9.01	-39.2	-40.3	21.5	0.00e+00	0	27	0	155189248	52	5956
2026-01-17 14:29:47.72	21.95	9.10	-38.9	-40.0	21.7	0.00e+00	61	27	0	157286400	52	5737
2026-01-17 14:29:48.73	21.97	9.18	-38.9	-40.0	21.7	0.00e+00	6	27	0	158334976	52	5738
2026-01-17 14:29:49.74	21.99	9.26	-39.1	-40.2	21.6	0.00e+00	92	27	0	160432128	52	5858
2026-01-17 14:29:50.75	22.01	9.35	-38.8	-39.9	21.8	0.00e+00	6	27	0	162529280	52	5676
2026-01-17 14:29:51.76	22.03	9.43	-38.7	-39.7	22.0	0.00e+00	69	27	0	164626432	52	5564
2026-01-17 14:29:52.77	22.05	9.52	-38.9	-40.0	21.7	0.00e+00	6	27	0	166723584	50	6435
2026-01-17 14:29:53.79	22.07	9.61	-38.8	-39.8	21.9	0.00e+00	8	27	0	167772160	50	6308
2026-01-17 14:29:54.80	22.09	9.69	-38.8	-39.8	21.9	0.00e+00	0	27	0	169869312	50	6305
2026-01-17 14:29:55.80	22.11	9.78	-38.9	-40.0	21.9	0.00e+00	81	27	0	171966464	50	6394
2026-01-17 14:29:56.81	22.13	9.86	-38.7	-39.8	22.0	0.00e+00	92	27	0	174063616	50	6280
2026-01-17 14:29:57.82	22.15	9.95	-38.7	-39.8	21.9	0.00e+00	75	27	0	176160768	50	6299
2026-01-17 14:29:58.83	22.17	10.04	-38.7	-39.8	21.9	0.00e+00	92	27	0	178257920	50	6271
2026-01-17 14:29:59.84	22.19	10.12	-38.5	-39.5	22.2	0.00e+00	0	27	0	179306496	50	6089
2026-01-17 14:30:00.85	22.21	10.21	-38.4	-39.5	22.3	0.00e+00	0	27	0	181403648	50	6056
2026-01-17 14:30:01.86	22.23	10.30	-38.6	-39.7	22.1	0.00e+00	0	27	0	183500800	50	6197
2026-01-17 14:30:02.87	22.25	10.39	-38.6	-39.6	22.1	0.00e+00	0	27	0	185597952	50	6148
2026-01-17 14:30:03.88	22.27	10.47	-38.6	-39.7	22.1	0.00e+00	92	27	0	187695104	50	6213
2026-01-17 14:30:04.89	22.29	10.56	-38.6	-39.6	22.2	0.00e+00	0	27	0	188743680	50	6163
2026-01-17 14:30:05.90	22.31	10.65	-38.4	-39.5	22.3	0.00e+00	92	27	0	190840832	50	6039
2026-01-17 14:30:06.91	22.33	10.74	-38.5	-39.5	22.3	0.00e+00	0	27	0	192937984	50	6101
2026-01-17 14:30:07.92	22.35	10.83	-38.7	-39.8	22.1	0.00e+00	0	27	0	195035136	50	6272
2026-01-17 14:30:08.93	22.37	10.92	-38.5	-39.5	22.3	0.00e+00	0	27	0	197132288	50	6089
2026-01-17 14:30:09.94	22.39	11.01	-38.9	-40.0	21.8	0.00e+00	0	27	0	198180864	50	6445
2026-01-17 14:30:10.95	22.41	11.10	-38.4	-39.5	22.4	0.00e+00	84	27	0	200278016	50	6038
2026-01-17 14:30:11.96	22.43	11.19	-38.3	-39.3	22.5	0.00e+00	6	27	0	202375168	50	5948
2026-01-17 14:30:12.96	22.45	11.28	-38.6	-39.6	22.3	0.00e+00	92	27	0	204472320	50	6148
2026-01-17 14:30:13.97	22.47	11.37	-38.4	-39.4	22.3	0.00e+00	7	27	0	206569472	50	6032
2026-01-17 14:30:14.98	22.50	11.47	-38.7	-39.7	22.3	0.00e+00	7	27	0	207618048	50	6210
2026-01-17 14:30:15.99	22.52	11.56	-38.5	-39.6	22.1	0.00e+00	76	27	0	209715200	50	6110
2026-01-17 14:30:17.00	22.54	11.65	-38.9	-40.0	22.3	0.00e+00	7	27	0	211812352	50	6394
2026-01-17 14:30:18.01	22.56	11.74	-38.4	-39.4	22.2	0.00e+00	0	27	0	213909504	50	5986
2026-01-17 14:30:19.02	22.58	11.84	-38.4	-39.4	22.6	0.00e+00	1	27	0	216006656	50	5996
2026-01-17 14:30:20.03	22.60	11.93	-38.1	-39.1	22.6	0.00e+00	92	27	0	217055232	50	5815
2026-01-17 14:30:21.04	22.63	12.03	-38.1	-39.1	22.7	0.00e+00	0	27	0	219152384	50	5804
2026-01-17 14:30:22.05	22.65	12.12	-38.0	-39.0	22.8	0.00e+00	35	27	0	221249536	50	5747
2026-01-17 14:30:23.06	22.67	12.22	-38.1	-39.1	22.8	0.00e+00	74	27	0	223346688	50	5770
2026-01-17 14:30:24.07	22.69	12.31	-37.9	-38.8	23.0	0.00e+00	73	27	0	225443840	48	6311
2026-01-17 14:30:25.08	22.71	12.41	-37.8	-38.7	23.1	0.00e+00	75	27	0	226492416	48	6231
2026-01-17 14:30:26.09	22.74	12.50	-37.8	-38.8	23.0	0.00e+00	0	27	0	228589568	48	6255
2026-01-17 14:30:27.10	22.76	12.60	-37.9	-38.8	23.0	0.00e+00	92	27	0	230686720	48	6312
2026-01-17 14:30:28.11	22.78	12.70	-38.0	-39.0	23.0	0.00e+00	0	27	0	232783872	48	6402
2026-01-17 14:30:29.12	22.81	12.79	-37.7	-38.7	23.1	0.00e+00	92	27	0	234881024	48	6183
2026-01-17 14:30:30.13	22.83	12.89	-37.5	-38.5	23.4	0.00e+00	0	27	0	235929600	48	6052
2026-01-17 14:30:31.14	22.85	12.99	-37.7	-38.6	23.2	0.00e+00	0	27	0	238026752	48	6167
2026-01-17 14:30:32.15	22.88	13.09	-37.7	-38.6	23.2	0.00e+00	0	27	0	240123904	48	6168
2026-01-17 14:30:33.16	22.90	13.18	-37.6	-38.6	23.2	0.00e+00	1	27	0	242221056	48	6110
2026-01-17 14:30:34.16	22.92	13.28	-37.8	-38.7	23.1	0.00e+00	92	27	0	244318208	48	6227
2026-01-17 14:30:35.17	22.95	13.38	-37.7	-38.6	23.2	0.00e+00	0	27	0	246415360	48	6154
2026-01-17 14:30:36.18	22.97	13.48	-37.7	-38.7	23.1	0.00e+00	92	27	0	247463936	48	6192
2026-01-17 14:30:37.19	22.99	13.58	-37.5	-38.5	23.4	0.00e+00	75	27	0	249561088	48	6039
2026-01-17 14:30:38.20	23.02	13.68	-37.7	-38.6	23.3	0.00e+00	74	27	0	251658240	48	6129
2026-01-17 14:30:39.21	23.04	13.78	-37.7	-38.6	23.3	0.00e+00	7	27	0	253755392	48	6143
2026-01-17 14:30:40.22	23.07	13.89	-37.6	-38.5	23.4	0.00e+00	9	27	0	255852544	48	6062
2026-01-17 14:30:41.23	23.09	13.99	-37.6	-38.6	23.2	0.00e+00	0	27	0	256901120	48	6122
2026-01-17 14:30:42.24	23.12	14.09	-37.7	-38.7	23.2	0.00e+00	0	27	0	258998272	48	6197
2026-01-17 14:30:43.25	23.14	14.19	-37.7	-38.6	23.3	0.00e+00	92	27	0	261095424	48	6134
2026-01-17 14:30:44.26	23.17	14.30	-37.8	-38.8	23.2	0.00e+00	76	27	0	263192576	48	6247
2026-01-17 14:30:45.27	23.19	14.40	-37.6	-38.5	23.3	0.00e+00	91	27	0	265289728	48	6097
2026-01-17 14:30:46.28	23.22	14.50	-37.8	-38.7	23.2	0.00e+00	0	27	0	266338304	48	6211
2026-01-17 14:30:47.29	23.24	14.61	-37.7	-38.6	23.4	0.00e+00	2	27	0	268435456	48	6126
2026-01-17 14:30:48.30	23.27	14.71	-37.7	-38.7	23.2	0.00e+00	0	27	0	270532608	48	6189
2026-01-17 14:30:49.31	23.29	14.82	-37.7	-38.6	23.3	0.00e+00	0	27	0	272629760	48	6163
2026-01-17 14:30:50.32	23.32	14.92	-37.7	-38.7	23.2	0.00e+00	90	27	0	274726912	48	6187
2026-01-17 14:30:51.33	23.34	15.03	-37.8	-38.8	23.2	0.00e+00	0	27	0	275775488	48	6263
2026-01-17 14:30:52.34	23.37	15.14	-38.0	-39.0	23.0	0.00e+00	92	27	0	277872640	48	6391
2026-01-17 14:30:53.35	23.40	15.24	-37.8	-38.8	23.1	0.00e+00	8	27	0	279969792	48	6264
2026-01-17 14:30:54.36	23.42	15.35	-37.8	-38.7	23.1	0.00e+00	5	27	0	282066944	48	6236
2026-01-17 14:30:55.37	23.45	15.46	-37.9	-38.9	23.1	0.00e+00	6	27	0	284164096	48	6333
2026-01-17 14:30:56.38	23.48	15.57	-38.0	-38.9	23.1	0.00e+00	8	27	0	285212672	48	6356
2026-01-17 14:30:57.39	23.50	15.68	-38.1	-39.1	22.9	0.00e+00	60	27	0	287309824	48	6506
2026-01-17 14:30:58.40	23.53	15.79	-38.1	-39.0	23.0	0.00e+00	1	27	0	289406976	48	6452
2026-01-17 14:30:59.41	23.56	15.90	-38.1	-39.1	22.9	0.00e+00	91	27	0	291504128	48	6496
2026-01-17 14:31:00.42	23.58	16.01	-38.1	-39.1	23.0	0.00e+00	76	27	0	293601280	48	6483
2026-01-17 14:31:01.43	23.61	16.12	-38.1	-39.1	22.9	0.00e+00	74	27	0	294649856	48	6468
2026-01-17 14:31:02.44	23.64	16.23	-38.1	-39.1	22.9	0.00e+00	76	27	0	296747008	48	6498
2026-01-17 14:31:03.45	23.67	16.34	-38.2	-39.2	22.8	0.00e+00	74	27	0	298844160	48	6550
2026-01-17 14:31:04.46	23.70	16.46	-38.3	-39.3	22.7	0.00e+00	78	27	0	300941312	48	6651
2026-01-17 14:31:05.47	23.72	16.57	-38.2	-39.2	22.9	0.00e+00	81	27	0	303038464	48	6563
2026-01-17 14:31:06.48	23.75	16.68	-38.3	-39.3	22.7	0.00e+00	92	27	0	304087040	48	6633
2026-01-17 14:31:07.49	23.78	16.80	-38.5	-39.5	22.7	0.00e+00	0	27	0	306184192	48	6807
2026-01-17 14:31:08.50	23.81	16.91	-38.4	-39.4	22.6	0.00e+00	92	27	0	308281344	48	6728
2026-01-17 14:31:09.51	23.84	17.03	-38.4	-39.4	22.7	0.00e+00	5	27	0	310378496	48	6736
2026-01-17 14:31:10.52	23.87	17.14	-38.4	-39.4	22.7	0.00e+00	7	27	0	312475648	48	6711
2026-01-17 14:31:11.53	23.90	17.26	-38.6	-39.6	22.5	0.00e+00	0	27	0	314572800	48	6874
2026-01-17 14:31:12.54	23.93	17.38	-38.7	-39.7	22.4	0.00e+00	6	27	0	315621376	48	6957
2026-01-17 14:31:13.55	23.96	17.50	-38.9	-39.9	22.1	0.00e+00	92	27	0	317718528	50	6373
2026-01-17 14:31:14.56	23.99	17.61	-38.8	-39.8	22.3	0.00e+00	2	27	0	319815680	50	6294
2026-01-17 14:31:15.57	24.02	17.73	-38.6	-39.6	22.5	0.00e+00	91	27	0	321912832	50	6167
2026-01-17 14:31:16.58	24.05	17.85	-38.8	-39.8	22.3	0.00e+00	8	27	0	324009984	50	6296
2026-01-17 14:31:17.59	24.08	17.97	-38.7	-39.7	22.4	0.00e+00	7	27	0	325058560	50	6224
2026-01-17 14:31:18.60	24.11	18.09	-38.8	-39.8	22.4	0.00e+00	8	27	0	327155712	50	6288
2026-01-17 14:31:19.62	24.14	18.21	-38.9	-39.9	22.2	0.00e+00	80	27	0	329252864	50	6366
2026-01-17 14:31:20.62	24.17	18.33	-39.0	-40.0	22.1	0.00e+00	92	27	0	331350016	50	6452
2026-01-17 14:31:21.63	24.20	18.46	-38.9	-39.9	22.2	0.00e+00	1	27	0	333447168	50	6355
2026-01-17 14:31:22.64	24.23	18.58	-38.9	-39.9	22.2	0.00e+00	92	27	0	334495744	50	6376
2026-01-17 14:31:23.65	24.27	18.70	-38.9	-40.0	22.2	0.00e+00	86	27	0	336592896	50	6426
2026-01-17 14:31:24.66	24.30	18.83	-39.1	-40.1	22.1	0.00e+00	81	27	0	338690048	50	6527
2026-01-17 14:31:25.67	24.33	18.95	-39.0	-40.1	22.1	0.00e+00	78	27	0	340787200	50	6474
2026-01-17 14:31:26.68	24.36	19.08	-38.9	-40.0	22.2	0.00e+00	80	27	0	342884352	50	6419
2026-01-17 14:31:27.69	24.40	19.20	-39.0	-40.1	22.1	0.00e+00	12	27	0	343932928	50	6481
2026-01-17 14:31:28.69	24.43	19.33	-39.0	-40.1	22.1	0.00e+00	0	27	0	346030080	50	6507
2026-01-17 14:31:29.70	24.46	19.46	-39.0	-40.1	22.0	0.00e+00	92	27	0	348127232	50	6499
2026-01-17 14:31:30.71	24.50	19.58	-39.1	-40.1	22.1	0.00e+00	6	27	0	350224384	50	6535
2026-01-17 14:31:31.72	24.53	19.71	-39.0	-40.1	22.1	0.00e+00	71	27	0	352321536	50	6503
2026-01-17 14:31:32.73	24.56	19.84	-39.1	-40.2	22.1	0.00e+00	0	27	0	353370112	50	6546
2026-01-17 14:31:33.74	24.60	19.97	-39.3	-40.3	21.9	0.00e+00	6	27	0	355467264	50	6690
2026-01-17 14:31:34.76	24.63	20.10	-39.1	-40.1	22.1	0.00e+00	0	27	0	357564416	50	6526
2026-01-17 14:31:35.76	24.67	20.23	-39.2	-40.2	22.1	0.00e+00	7	27	0	359661568	50	6599
2026-01-17 14:31:36.77	24.70	20.36	-39.2	-40.2	21.9	0.00e+00	90	27	0	361758720	50	6608
2026-01-17 14:31:37.78	24.74	20.50	-39.2	-40.3	22.0	0.00e+00	4	27	0	362807296	50	6628
2026-01-17 14:31:38.79	24.77	20.63	-39.2	-40.3	21.9	0.00e+00	92	27	0	364904448	50	6616
2026-01-17 14:31:39.80	24.81	20.76	-39.0	-40.1	22.2	0.00e+00	78	27	0	367001600	50	6501
2026-01-17 14:31:40.81	24.85	20.90	-39.1	-40.1	22.1	0.00e+00	8	27	0	369098752	50	6532
2026-01-17 14:31:41.82	24.88	21.03	-39.1	-40.2	22.1	0.00e+00	72	27	0	371195904	50	6545
2026-01-17 14:31:42.84	24.92	21.17	-39.0	-40.1	22.1	0.00e+00	8	27	0	372244480	50	6494
2026-01-17 14:31:43.85	24.96	21.31	-39.1	-40.1	22.2	0.00e+00	92	27	0	374341632	50	6504
2026-01-17 14:31:44.86	24.99	21.45	-39.0	-40.1	22.2	0.00e+00	0	27	0	376438784	50	6487
2026-01-17 14:31:45.87	25.03	21.58	-39.2	-40.3	21.9	0.00e+00	91	27	0	378535936	50	6673
2026-01-17 14:31:46.87	25.07	21.72	-39.1	-40.2	22.1	0.00e+00	0	27	0	380633088	50	6574
2026-01-17 14:31:47.89	25.11	21.86	-38.9	-40.0	22.3	0.00e+00	0	27	0	382730240	50	6419
2026-01-17 14:31:48.90	25.15	22.00	-39.0	-40.1	22.2	0.00e+00	0	27	0	383778816	50	6485
2026-01-17 14:31:49.90	25.18	22.14	-38.9	-39.9	22.3	0.00e+00	0	27	0	385875968	50	6379
2026-01-17 14:31:50.91	25.22	22.29	-38.8	-39.8	22.4	0.00e+00	0	27	0	387973120	50	6311
2026-01-17 14:31:51.92	25.26	22.43	-38.9	-40.0	22.3	0.00e+00	0	27	0	390070272	50	6407
2026-01-17 14:31:52.93	25.30	22.57	-39.0	-40.1	22.2	0.00e+00	92	27	0	392167424	50	6471
2026-01-17 14:31:53.94	25.34	22.72	-38.8	-39.9	22.4	0.00e+00	3	27	0	393216000	50	6338
2026-01-17 14:31:54.95	25.38	22.86	-38.7	-39.7	22.5	0.00e+00	91	27	0	395313152	50	6232
2026-01-17 14:31:55.96	25.42	23.01	-38.8	-39.8	22.5	0.00e+00	2	27	0	397410304	50	6264
2026-01-17 14:31:56.97	25.46	23.16	-38.8	-39.8	22.4	0.00e+00	9	27	0	399507456	50	6315
2026-01-17 14:31:57.98	25.51	23.30	-38.7	-39.7	22.6	0.00e+00	2	27	0	401604608	50	6198
2026-01-17 14:31:58.99	25.55	23.45	-38.7	-39.7	22.6	0.00e+00	9	27	0	402653184	50	6195
2026-01-17 14:32:00.00	25.59	23.60	-38.6	-39.5	22.6	0.00e+00	91	27	0	404750336	50	6103
2026-01-17 14:32:01.01	25.63	23.75	-38.6	-39.7	22.6	0.00e+00	9	27	0	406847488	50	6182
2026-01-17 14:32:02.02	25.67	23.90	-38.5	-39.5	22.7	0.00e+00	92	27	0	408944640	50	6068
2026-01-17 14:32:03.03	25.72	24.05	-38.5	-39.4	22.8	0.00e+00	0	28	0	411041792	50	6030
2026-01-17 14:32:04.04	25.76	24.21	-38.5	-39.5	22.7	0.00e+00	74	27	0	412090368	50	6036
2026-01-17 14:32:05.05	25.81	24.36	-38.4	-39.4	22.8	0.00e+00	0	27	0	414187520	50	6007
2026-01-17 14:32:06.06	25.85	24.52	-38.4	-39.4	22.9	0.00e+00	0	27	0	416284672	50	5989
2026-01-17 14:32:07.07	25.90	24.67	-38.5	-39.5	22.8	0.00e+00	0	27	0	418381824	50	6058
2026-01-17 14:32:08.08	25.94	24.83	-38.6	-39.6	22.7	0.00e+00	0	27	0	420478976	50	6115
2026-01-17 14:32:09.09	25.99	24.99	-38.5	-39.5	22.7	0.00e+00	92	27	0	421527552	50	6092
2026-01-17 14:32:10.09	26.03	25.14	-38.4	-39.4	22.8	0.00e+00	0	27	0	423624704	50	6002
2026-01-17 14:32:11.10	26.08	25.30	-38.4	-39.3	22.9	0.00e+00	0	27	0	425721856	50	5950
2026-01-17 14:32:12.11	26.12	25.46	-38.4	-39.4	22.9	0.00e+00	0	27	0	427819008	50	5973
2026-01-17 14:32:13.12	26.17	25.62	-38.4	-39.4	22.9	0.00e+00	0	27	0	429916160	50	6003
2026-01-17 14:32:14.13	26.22	25.79	-38.5	-39.5	22.7	0.00e+00	0	27	0	430964736	50	6055
2026-01-17 14:32:15.14	26.27	25.95	-38.5	-39.5	22.7	0.00e+00	2	27	0	433061888	50	6084
2026-01-17 14:32:16.15	26.32	26.11	-38.7	-39.7	22.6	0.00e+00	92	27	0	435159040	50	6216
2026-01-17 14:32:17.16	26.37	26.28	-38.7	-39.7	22.6	0.00e+00	10	28	0	437256192	50	6194
2026-01-17 14:32:18.17	26.42	26.44	-38.9	-39.9	22.5	0.00e+00	92	27	0	439353344	50	6340
2026-01-17 14:32:19.18	26.47	26.61	-38.7	-39.7	22.5	0.00e+00	0	27	0	440401920	50	6216
2026-01-17 14:32:20.19	26.52	26.78	-39.0	-40.0	22.3	0.00e+00	74	27	0	442499072	50	6418
2026-01-17 14:32:21.20	26.57	26.95	-39.0	-40.1	22.2	0.00e+00	70	27	0	444596224	50	6475
2026-01-17 14:32:22.21	26.62	27.12	-39.2	-40.2	22.2	0.00e+00	10	27	0	446693376	50	6598
2026-01-17 14:32:23.22	26.67	27.29	-39.2	-40.3	22.0	0.00e+00	92	27	0	448790528	50	6660
2026-01-17 14:32:24.23	26.72	27.46	-39.2	-40.3	22.0	0.00e+00	10	27	0	450887680	50	6644
2026-01-17 14:32:25.24	26.78	27.64	-39.3	-40.4	22.0	0.00e+00	92	27	0	451936256	50	6722
2026-01-17 14:32:26.25	26.83	27.81	-39.4	-40.5	21.8	0.00e+00	0	27	0	454033408	50	6820
2026-01-17 14:32:27.26	26.88	27.99	-39.4	-40.5	21.7	0.00e+00	0	27	0	456130560	50	6775
2026-01-17 14:32:28.27	26.94	28.16	-39.6	-40.7	21.6	0.00e+00	0	27	0	458227712	50	6959
2026-01-17 14:32:29.28	26.99	28.34	-39.5	-40.6	21.7	0.00e+00	0	27	0	460324864	50	6905
2026-01-17 14:32:30.29	27.05	28.52	-39.6	-40.7	21.7	0.00e+00	0	27	0	461373440	50	6970
2026-01-17 14:32:31.30	27.11	28.70	-39.6	-40.7	21.7	0.00e+00	2	27	0	463470592	50	6962
2026-01-17 14:32:32.31	27.16	28.88	-39.7	-40.8	21.5	0.00e+00	92	27	0	465567744	50	7069
2026-01-17 14:32:33.32	27.22	29.07	-39.8	-41.0	21.4	0.00e+00	2	27	0	467664896	52	6419
2026-01-17 14:32:34.33	27.28	29.25	-40.0	-41.2	21.2	0.00e+00	0	27	0	469762048	52	6556
2026-01-17 14:32:35.34	27.34	29.43	-39.8	-40.9	21.4	0.00e+00	0	27	0	470810624	52	6385
2026-01-17 14:32:36.35	27.40	29.62	-40.3	-41.5	21.0	0.00e+00	10	27	0	472907776	52	6843
2026-01-17 14:32:37.36	27.46	29.81	-40.3	-41.5	20.9	0.00e+00	2	27	0	475004928	52	6800
2026-01-17 14:32:38.37	27.52	30.00	-40.7	-42.0	20.6	0.00e+00	0	27	0	477102080	52	7176
2026-01-17 14:32:39.38	27.58	30.18	-40.3	-41.5	20.9	0.00e+00	92	28	0	479199232	52	6815
2026-01-17 14:32:40.39	27.64	30.38	-40.6	-41.9	20.4	0.00e+00	11	27	0	480247808	54	6385
2026-01-17 14:32:41.40	27.71	30.57	-40.6	-41.9	20.6	0.00e+00	92	27	0	482344960	54	6347
2026-01-17 14:32:42.41	27.77	30.76	-40.7	-42.0	20.4	0.00e+00	2	27	0	484442112	54	6431
2026-01-17 14:32:43.42	27.83	30.96	-40.8	-42.1	20.4	0.00e+00	0	27	0	486539264	54	6518
2026-01-17 14:32:44.43	27.90	31.15	-40.8	-42.1	20.5	0.00e+00	80	27	0	488636416	54	6493
2026-01-17 14:32:45.44	27.96	31.35	-40.5	-41.8	20.6	0.00e+00	70	27	0	489684992	54	6285
2026-01-17 14:32:46.45	28.03	31.55	-40.7	-42.0	20.6	0.00e+00	92	27	0	491782144	54	6432
2026-01-17 14:32:47.46	28.10	31.75	-40.5	-41.8	20.8	0.00e+00	70	27	0	493879296	54	6295
2026-01-17 14:32:48.47	28.17	31.95	-40.1	-41.3	21.2	0.00e+00	92	27	0	495976448	54	5924
2026-01-17 14:32:49.48	28.23	32.15	-40.1	-41.3	21.1	0.00e+00	6	27	0	498073600	54	5917
2026-01-17 14:32:50.49	28.30	32.35	-40.2	-41.4	20.9	0.00e+00	0	27	0	499122176	54	5983
2026-01-17 14:32:51.50	28.37	32.56	-40.0	-41.1	21.1	0.00e+00	5	27	0	501219328	54	5815
2026-01-17 14:32:52.50	28.45	32.76	-40.0	-41.2	21.2	0.00e+00	0	28	0	503316480	54	5875
2026-01-17 14:32:53.52	28.52	32.97	-39.9	-41.1	21.4	0.00e+00	90	28	0	505413632	54	5764
2026-01-17 14:32:54.53	28.59	33.18	-39.8	-41.0	21.4	0.00e+00	0	27	0	507510784	54	5715
2026-01-17 14:32:55.53	28.66	33.39	-39.8	-40.9	21.5	0.00e+00	92	27	0	508559360	54	5667
2026-01-17 14:32:56.54	28.74	33.60	-39.9	-41.0	21.4	0.00e+00	11	27	0	510656512	52	6448
2026-01-17 14:32:57.55	28.81	33.82	-39.6	-40.7	21.8	0.00e+00	11	27	0	512753664	52	6230
2026-01-17 14:32:58.56	28.89	34.03	-39.6	-40.7	21.8	0.00e+00	10	28	0	514850816	52	6187
2026-01-17 14:32:59.57	28.97	34.25	-39.5	-40.5	21.9	0.00e+00	5	27	0	516947968	52	6091
2026-01-17 14:33:00.58	29.05	34.47	-39.3	-40.3	22.1	0.00e+00	0	28	0	519045120	52	5957
2026-01-17 14:33:01.59	29.13	34.69	-39.2	-40.3	22.1	0.00e+00	6	27	0	520093696	52	5912
2026-01-17 14:33:02.59	29.21	34.91	-39.0	-40.0	22.4	0.00e+00	92	27	0	522190848	52	5735
2026-01-17 14:33:03.60	29.29	35.13	-39.1	-40.2	22.3	0.00e+00	4	27	0	524288000	52	5842
2026-01-17 14:33:04.61	29.37	35.35	-39.1	-40.1	22.2	0.00e+00	92	27	0	526385152	52	5828
2026-01-17 14:33:05.62	29.46	35.58	-39.1	-40.2	22.2	0.00e+00	0	27	0	528482304	52	5849
2026-01-17 14:33:06.63	29.54	35.80	-38.8	-39.8	22.6	0.00e+00	80	27	0	529530880	52	5612
2026-01-17 14:33:07.64	29.63	36.03	-38.7	-39.7	22.7	0.00e+00	0	27	0	531628032	50	6182
2026-01-17 14:33:08.65	29.71	36.26	-38.8	-39.8	22.5	0.00e+00	77	27	0	533725184	50	6313
2026-01-17 14:33:09.66	29.80	36.50	-39.0	-40.0	22.4	0.00e+00	90	27	0	535822336	50	6452
2026-01-17 14:33:10.67	29.89	36.73	-39.1	-40.1	22.2	0.00e+00	0	27	0	537919488	50	6534
2026-01-17 14:33:11.68	29.98	36.96	-39.2	-40.2	22.2	0.00e+00	92	27	0	538968064	50	6597
2026-01-17 14:33:12.69	30.08	37.20	-39.2	-40.3	22.1	0.00e+00	6	28	0	541065216	50	6645
2026-01-17 14:33:13.70	30.17	37.44	-39.4	-40.5	22.0	0.00e+00	0	27	0	543162368	50	6819
2026-01-17 14:33:14.71	30.26	37.68	-39.4	-40.5	22.0	0.00e+00	0	27	0	545259520	50	6793
2026-01-17 14:33:15.72	30.36	37.92	-39.2	-40.3	22.1	0.00e+00	0	27	0	547356672	50	6660
2026-01-17 14:33:16.73	30.46	38.16	-39.3	-40.4	22.0	0.00e+00	86	27	0	548405248	50	6728
2026-01-17 14:33:17.74	30.56	38.41	-39.6	-40.7	21.8	0.00e+00	6	27	0	550502400	50	6962
2026-01-17 14:33:18.75	30.66	38.65	-39.2	-40.3	22.1	0.00e+00	92	27	0	552599552	50	6649
2026-01-17 14:33:19.76	30.76	38.90	-39.4	-40.5	22.0	0.00e+00	10	27	0	554696704	50	6805
2026-01-17 14:33:20.77	30.86	39.15	-39.7	-40.8	21.6	0.00e+00	11	28	0	556793856	50	7067
2026-01-17 14:33:21.78	30.97	39.40	-39.8	-41.0	21.5	0.00e+00	8	27	0	557842432	52	6399
2026-01-17 14:33:22.79	31.07	39.66	-39.9	-41.1	21.4	0.00e+00	69	27	0	559939584	52	6468
2026-01-17 14:33:23.80	31.18	39.91	-40.1	-41.2	21.2	0.00e+00	0	27	0	562036736	52	6596
2026-01-17 14:33:24.81	31.29	40.17	-40.4	-41.6	20.8	0.00e+00	70	28	0	564133888	52	6878
2026-01-17 14:33:25.82	31.40	40.43	-40.6	-41.9	20.7	0.00e+00	91	27	0	566231040	52	7103
2026-01-17 14:33:26.83	31.52	40.69	-40.6	-41.8	20.8	0.00e+00	11	27	0	567279616	54	6309
2026-01-17 14:33:27.84	31.63	40.95	-40.6	-41.8	20.7	0.00e+00	92	27	0	569376768	54	6309
2026-01-17 14:33:28.85	31.75	41.22	-40.2	-41.4	21.2	0.00e+00	70	27	0	571473920	54	5987
2026-01-17 14:33:29.85	31.86	41.48	-40.2	-41.4	21.2	0.00e+00	74	27	0	573571072	54	5976
2026-01-17 14:33:30.87	31.99	41.75	-40.0	-41.1	21.4	0.00e+00	75	27	0	575668224	54	5827
2026-01-17 14:33:31.87	32.11	42.02	-40.1	-41.2	21.4	0.00e+00	75	28	0	576716800	54	5889
2026-01-17 14:33:32.89	32.23	42.29	-40.0	-41.2	21.3	0.00e+00	92	28	0	578813952	54	5864
2026-01-17 14:33:33.89	32.36	42.56	-40.2	-41.4	21.2	0.00e+00	0	28	0	580911104	54	6026
2026-01-17 14:33:34.90	32.49	42.84	-40.2	-41.4	21.1	0.00e+00	92	28	0	583008256	54	5985
2026-01-17 14:33:35.91	32.62	43.12	-39.8	-41.0	21.5	0.00e+00	0	28	0	585105408	54	5697
2026-01-17 14:33:36.92	32.75	43.39	-40.0	-41.2	21.0	0.00e+00	46	27	0	587202560	52	6540
2026-01-17 14:33:37.93	32.89	43.68	-40.0	-41.2	21.1	0.00e+00	0	28	0	588251136	52	6575
2026-01-17 14:33:38.95	33.03	43.96	-39.7	-40.8	21.7	0.00e+00	3	28	0	590348288	52	6287
2026-01-17 14:33:39.95	33.16	44.24	-39.7	-40.8	21.6	0.00e+00	75	28	0	592445440	52	6313
2026-01-17 14:33:40.96	33.31	44.53	-39.8	-40.9	21.6	0.00e+00	12	27	0	594542592	52	6376
2026-01-17 14:33:41.97	33.45	44.82	-40.0	-41.1	21.3	0.00e+00	91	28	0	596639744	52	6507
2026-01-17 14:33:42.98	33.60	45.11	-40.3	-41.5	21.1	0.00e+00	0	28	0	597688320	52	6844
2026-01-17 14:33:43.99	33.75	45.40	-40.2	-41.4	21.1	0.00e+00	70	28	0	599785472	52	6756
2026-01-17 14:33:45.00	33.90	45.70	-40.2	-41.4	21.1	0.00e+00	11	28	0	601882624	52	6748
2026-01-17 14:33:46.01	34.06	45.99	-40.2	-41.4	21.1	0.00e+00	11	28	0	603979776	52	6738
2026-01-17 14:33:47.02	34.22	46.29	-40.3	-41.5	21.1	0.00e+00	0	28	0	606076928	52	6785
2026-01-17 14:33:48.03	34.38	46.59	-40.7	-42.0	20.6	0.00e+00	11	28	0	607125504	52	7241
2026-01-17 14:33:49.04	34.54	46.89	-41.1	-42.4	20.1	0.00e+00	91	27	0	609222656	54	6739
2026-01-17 14:33:50.05	34.71	47.20	-40.6	-41.9	20.4	0.00e+00	0	27	0	611319808	54	6348
2026-01-17 14:33:51.06	34.88	47.50	-40.9	-42.2	20.3	0.00e+00	92	27	0	613416960	54	6578
2026-01-17 14:33:52.07	35.06	47.81	-40.8	-42.1	20.5	0.00e+00	0	28	0	615514112	54	6525
2026-01-17 14:33:53.08	35.23	48.12	-40.8	-42.1	20.5	0.00e+00	72	27	0	616562688	54	6509
2026-01-17 14:33:54.09	35.41	48.43	-40.3	-41.6	21.1	0.00e+00	0	28	0	618659840	54	6110
2026-01-17 14:33:55.10	35.60	48.75	-39.5	-40.5	21.9	0.00e+00	0	27	0	620756992	52	6085
2026-01-17 14:33:56.11	35.79	49.06	-39.1	-40.2	22.3	0.00e+00	92	28	0	622854144	52	5847
2026-01-17 14:33:57.12	35.98	49.38	-39.1	-40.1	22.5	0.00e+00	0	28	0	624951296	52	5789
2026-01-17 14:33:58.13	36.18	49.70	-38.8	-39.8	22.6	0.00e+00	92	27	0	625999872	50	6302
2026-01-17 14:33:59.14	36.38	50.02	-38.8	-39.8	22.6	0.00e+00	7	28	0	628097024	50	6259
2026-01-17 14:34:00.15	36.58	50.35	-38.1	-39.1	23.2	0.00e+00	8	27	0	630194176	50	5769
2026-01-17 14:34:01.16	36.79	50.67	-37.7	-38.6	23.6	0.00e+00	2	27	0	632291328	50	5497
2026-01-17 14:34:02.17	37.01	51.00	-37.4	-38.2	23.9	0.00e+00	2	28	0	634388480	48	5883
2026-01-17 14:34:03.18	37.22	51.33	-36.9	-37.7	24.3	0.00e+00	30	27	0	635437056	48	5538
2026-01-17 14:34:04.19	37.45	51.66	-36.5	-37.4	24.6	0.00e+00	7	27	0	637534208	46	5967
2026-01-17 14:34:05.20	37.67	51.99	-36.4	-37.2	24.8	0.00e+00	92	28	0	639631360	46	5839
2026-01-17 14:34:06.21	37.91	52.33	-36.6	-37.5	24.3	0.00e+00	75	27	0	641728512	46	6046
2026-01-17 14:34:07.22	38.15	52.67	-36.0	-36.8	25.1	0.00e+00	74	27	0	643825664	46	5587
2026-01-17 14:34:08.23	38.39	53.00	-35.9	-36.6	25.3	0.00e+00	67	28	0	644874240	46	5490
2026-01-17 14:34:09.24	38.64	53.34	-35.5	-36.3	25.6	0.00e+00	13	27	0	646971392	44	5921
2026-01-17 14:34:10.25	38.89	53.69	-35.6	-36.4	25.5	0.00e+00	0	27	0	649068544	44	5965
2026-01-17 14:34:11.26	39.16	54.03	-35.3	-36.0	25.8	0.00e+00	2	27	0	651165696	44	5744
2026-01-17 14:34:12.27	39.42	54.38	-35.1	-35.9	25.9	0.00e+00	92	28	0	653262848	44	5642
2026-01-17 14:34:13.27	39.69	54.72	-35.0	-35.8	26.0	0.00e+00	0	28	0	655360000	44	5588
2026-01-17 14:34:14.29	39.98	55.07	-35.2	-35.9	25.9	0.00e+00	92	28	0	656408576	44	5661
2026-01-17 14:34:15.30	40.27	55.42	-35.8	-36.6	25.4	0.00e+00	0	28	0	658505728	44	6133
2026-01-17 14:34:16.31	40.56	55.78	-36.2	-37.0	25.0	0.00e+00	0	28	0	660602880	44	6433
2026-01-17 14:34:17.32	40.86	56.13	-36.5	-37.4	24.8	0.00e+00	0	28	0	662700032	44	6703
2026-01-17 14:34:18.33	41.17	56.49	-36.7	-37.5	24.6	0.00e+00	0	28	0	664797184	44	6800
2026-01-17 14:34:19.34	41.49	56.84	-36.7	-37.5	24.5	0.00e+00	76	27	0	665845760	46	6085
2026-01-17 14:34:20.35	41.82	57.20	-36.7	-37.5	24.6	0.00e+00	11	28	0	667942912	46	6069
2026-01-17 14:34:21.36	42.15	57.56	-36.5	-37.3	24.7	0.00e+00	90	28	0	670040064	46	5948
2026-01-17 14:34:22.37	42.49	57.92	-36.6	-37.4	24.6	0.00e+00	11	27	0	672137216	46	6013
2026-01-17 14:34:23.38	42.85	58.28	-36.2	-37.0	25.0	0.00e+00	0	28	0	674234368	46	5716
2026-01-17 14:34:24.39	43.21	58.65	-36.0	-36.8	25.2	0.00e+00	12	28	0	675282944	46	5579
2026-01-17 14:34:25.40	43.58	59.01	-35.5	-36.2	25.7	0.00e+00	72	28	0	677380096	44	5896
2026-01-17 14:34:26.41	43.96	59.38	-35.1	-35.8	25.9	0.00e+00	11	28	0	679477248	44	5620
2026-01-17 14:34:27.42	44.36	59.75	-35.0	-35.7	26.0	0.00e+00	0	28	0	681574400	44	5541
2026-01-17 14:34:28.43	44.76	60.11	-34.9	-35.6	26.0	0.00e+00	92	28	0	683671552	44	5454
2026-01-17 14:34:29.44	45.18	60.48	-34.5	-35.2	26.4	0.00e+00	0	28	0	684720128	42	5869
2026-01-17 14:34:30.45	45.61	60.85	-34.3	-35.1	26.5	0.00e+00	13	28	0	686817280	42	5767
2026-01-17 14:34:31.46	46.05	61.22	-34.2	-34.9	26.6	0.00e+00	0	27	0	688914432	42	5691
2026-01-17 14:34:32.47	46.50	61.59	-34.3	-35.0	26.5	0.00e+00	76	27	0	691011584	42	5699
2026-01-17 14:34:33.48	46.97	61.96	-34.2	-34.9	26.6	0.00e+00	76	27	0	693108736	42	5654
2026-01-17 14:34:34.49	47.45	62.34	-34.3	-35.0	26.1	0.00e+00	7	28	0	695205888	42	5739
2026-01-17 14:34:35.50	47.95	62.71	-34.6	-35.3	26.4	0.00e+00	92	28	0	696254464	42	5913
2026-01-17 14:34:36.51	48.46	63.08	-34.9	-35.6	26.0	0.00e+00	6	27	0	698351616	42	6172
2026-01-17 14:34:37.52	48.99	63.45	-35.1	-35.8	26.0	0.00e+00	92	28	0	700448768	42	6283
2026-01-17 14:34:38.53	49.54	63.82	-34.9	-35.7	26.0	0.00e+00	0	28	0	702545920	42	6204
2026-01-17 14:34:39.54	50.10	64.20	-34.7	-35.4	26.2	0.00e+00	6	28	0	704643072	42	5981
2026-01-17 14:34:40.55	50.68	64.57	-34.8	-35.6	25.7	0.00e+00	5	28	0	705691648	42	6120
2026-01-17 14:34:41.56	51.29	64.94	-35.3	-36.0	25.7	0.00e+00	7	27	0	707788800	42	6454
2026-01-17 14:34:42.57	51.91	65.31	-36.0	-36.8	25.0	0.00e+00	90	28	0	709885952	44	6284
2026-01-17 14:34:43.58	52.55	65.68	-37.0	-37.9	24.1	0.00e+00	5	27	0	711983104	46	6337
2026-01-17 14:34:44.59	53.21	66.05	-38.0	-39.0	23.2	0.00e+00	92	28	0	714080256	48	6413
2026-01-17 14:34:45.60	53.90	66.41	-38.5	-39.5	22.8	0.00e+00	12	28	0	715128832	48	6807
2026-01-17 14:34:46.61	54.61	66.78	-38.7	-39.7	22.3	0.00e+00	74	28	0	717225984	48	6938
2026-01-17 14:34:47.62	55.34	67.14	-38.5	-39.5	22.7	0.00e+00	76	28	0	719323136	48	6781
2026-01-17 14:34:48.63	56.10	67.51	-38.8	-39.8	22.5	0.00e+00	75	28	0	721420288	48	7032
2026-01-17 14:34:49.64	56.89	67.87	-39.4	-40.5	22.0	0.00e+00	92	28	0	723517440	50	6770
2026-01-17 14:34:50.65	57.71	68.22	-39.5	-40.6	21.9	0.00e+00	75	28	0	724566016	50	6856
2026-01-17 14:34:51.66	58.55	68.58	-39.2	-40.3	22.0	0.00e+00	92	28	0	726663168	50	6629
2026-01-17 14:34:52.67	59.43	68.93	-38.7	-39.7	22.7	0.00e+00	75	28	0	728760320	50	6187
2026-01-17 14:34:53.68	60.33	69.28	-38.6	-39.5	23.0	0.00e+00	75	28	0	730857472	50	6084
2026-01-17 14:34:54.69	61.28	69.62	-38.6	-39.6	22.7	0.00e+00	6	28	0	732954624	50	6117
2026-01-17 14:34:55.70	62.25	69.96	-38.9	-40.0	22.2	0.00e+00	5	28	0	734003200	50	6398
2026-01-17 14:34:56.71	63.26	70.30	-39.1	-40.1	22.4	0.00e+00	0	27	0	736100352	50	6516
2026-01-17 14:34:57.72	64.31	70.63	-39.0	-40.1	22.2	0.00e+00	8	28	0	738197504	50	6491
2026-01-17 14:34:58.73	65.39	70.96	-38.9	-39.9	22.5	0.00e+00	90	27	0	740294656	50	6345
2026-01-17 14:34:59.74	66.52	71.28	-39.1	-40.2	22.1	0.00e+00	7	27	0	742391808	50	6555
2026-01-17 14:35:00.75	67.69	71.59	-40.0	-41.2	21.0	0.00e+00	92	28	0	743440384	52	6588
2026-01-17 14:35:01.76	68.90	71.90	-40.1	-41.3	21.3	0.00e+00	7	27	0	745537536	52	6677
2026-01-17 14:35:02.77	70.15	72.20	-39.3	-40.4	22.0	0.00e+00	8	27	0	747634688	52	5980
2026-01-17 14:35:03.78	71.45	72.49	-39.2	-40.2	22.1	0.00e+00	7	27	0	749731840	52	5885
2026-01-17 14:35:04.79	72.79	72.78	-39.3	-40.4	22.0	0.00e+00	7	28	0	751828992	52	5988
2026-01-17 14:35:05.80	74.18	73.06	-39.3	-40.4	22.1	0.00e+00	90	27	0	752877568	52	5968
2026-01-17 14:35:06.81	75.62	73.32	-39.2	-40.2	22.3	0.00e+00	74	27	0	754974720	52	5866
2026-01-17 14:35:07.81	77.09	73.58	-39.4	-40.5	21.9	0.00e+00	90	27	0	757071872	52	6045
2026-01-17 14:35:08.82	78.63	73.83	-39.5	-40.6	21.7	0.00e+00	68	27	0	759169024	52	6134
2026-01-17 14:35:09.83	80.21	74.07	-39.7	-40.8	21.6	0.00e+00	68	28	0	761266176	52	6316
2026-01-17 14:35:10.84	81.84	74.29	-39.4	-40.5	21.9	0.00e+00	70	27	0	763363328	52	6072
2026-01-17 14:35:11.85	83.52	74.51	-39.4	-40.5	22.0	0.00e+00	0	27	0	764411904	52	6036
2026-01-17 14:35:12.86	85.25	74.71	-39.0	-40.1	22.2	0.00e+00	88	27	0	766509056	52	5796
2026-01-17 14:35:13.87	87.03	74.89	-39.0	-40.0	22.5	0.00e+00	0	27	0	768606208	52	5740
2026-01-17 14:35:14.88	88.84	75.07	-38.9	-39.9	22.6	0.00e+00	90	27	0	770703360	52	5641
2026-01-17 14:35:15.89	90.71	75.23	-39.0	-40.1	22.5	0.00e+00	0	27	0	772800512	52	5776
2026-01-17 14:35:16.90	92.61	75.37	-38.7	-39.7	22.6	0.00e+00	69	28	0	773849088	50	6186
2026-01-17 14:35:17.91	94.54	75.50	-38.7	-39.7	22.8	0.00e+00	0	27	0	775946240	50	6232
2026-01-17 14:35:18.92	96.52	75.61	-38.9	-40.0	22.4	0.00e+00	0	27	0	778043392	50	6401
2026-01-17 14:35:19.93	98.52	75.71	-39.0	-40.0	22.4	0.00e+00	0	27	0	780140544	50	6458
2026-01-17 14:35:20.94	100.54	75.78	-39.0	-40.1	22.2	0.00e+00	0	27	0	782237696	50	6479
2026-01-17 14:35:21.95	102.59	75.85	-39.5	-40.6	21.8	0.00e+00	92	27	0	783286272	50	6869
2026-01-17 14:35:22.96	104.66	75.89	-39.9	-41.0	21.4	0.00e+00	0	27	0	785383424	52	6437
2026-01-17 14:35:23.97	106.73	75.92	-40.0	-41.2	21.3	0.00e+00	92	27	0	787480576	52	6604
2026-01-17 14:35:24.97	108.79	75.92	-39.4	-40.5	21.9	0.00e+00	2	27	0	789577728	52	6043
2026-01-17 14:35:25.98	110.87	75.91	-39.4	-40.4	21.9	0.00e+00	0	28	0	791674880	52	6029
2026-01-17 14:35:27.00	112.96	75.89	-40.1	-41.3	20.6	0.00e+00	79	27	0	792723456	52	6647
2026-01-17 14:35:28.01	115.02	75.84	-41.3	-42.7	19.7	0.00e+00	11	27	0	794820608	54	6952
2026-01-17 14:35:29.02	117.07	75.78	-41.1	-42.5	20.1	0.00e+00	92	27	0	796917760	54	6774
2026-01-17 14:35:30.03	119.10	75.70	-40.5	-41.7	20.9	0.00e+00	6	27	0	799014912	54	6181
2026-01-17 14:35:31.04	121.10	75.60	-40.8	-42.1	20.2	0.00e+00	92	28	0	801112064	54	6537
2026-01-17 14:35:32.05	123.07	75.49	-42.5	-44.2	18.5	0.00e+00	75	28	0	802160640	56	7368
2026-01-17 14:35:33.05	124.98	75.36	-42.1	-43.8	19.0	0.00e+00	0	27	0	804257792	56	7023
2026-01-17 14:35:34.06	126.88	75.22	-41.5	-42.9	19.7	0.00e+00	0	28	0	806354944	56	6357
2026-01-17 14:35:35.07	128.74	75.06	-41.9	-43.4	19.3	0.00e+00	0	27	0	808452096	56	6763
2026-01-17 14:35:36.08	130.56	74.88	-42.1	-43.7	18.9	0.00e+00	0	28	0	810549248	56	6944
2026-01-17 14:35:37.09	132.33	74.69	-41.6	-43.1	19.6	0.00e+00	0	28	0	811597824	56	6478
2026-01-17 14:35:38.10	134.06	74.49	-41.1	-42.5	20.3	0.00e+00	92	28	0	813694976	56	6047
2026-01-17 14:35:39.11	135.74	74.28	-40.5	-41.8	20.7	0.00e+00	0	28	0	815792128	54	6260
2026-01-17 14:35:40.12	137.37	74.05	-40.7	-41.9	20.6	0.00e+00	91	28	0	817889280	54	6388
2026-01-17 14:35:41.13	138.95	73.81	-40.7	-41.9	20.6	0.00e+00	0	28	0	819986432	54	6390
2026-01-17 14:35:42.14	140.48	73.56	-40.2	-41.4	21.2	0.00e+00	13	28	0	821035008	54	5997
2026-01-17 14:35:43.15	141.97	73.30	-39.7	-40.8	21.8	0.00e+00	2	28	0	823132160	52	6249
2026-01-17 14:35:44.16	143.40	73.04	-39.6	-40.7	21.8	0.00e+00	0	28	0	825229312	52	6182
2026-01-17 14:35:45.17	144.79	72.76	-39.8	-40.9	21.5	0.00e+00	91	28	0	827326464	52	6382
2026-01-17 14:35:46.18	146.13	72.47	-39.1	-40.1	22.4	0.00e+00	0	28	0	829423616	52	5816
2026-01-17 14:35:47.19	147.43	72.18	-38.5	-39.4	22.9	0.00e+00	92	27	0	830472192	50	6001
2026-01-17 14:35:48.20	148.68	71.87	-38.2	-39.1	23.2	0.00e+00	13	28	0	832569344	50	5790
2026-01-17 14:35:49.21	149.88	71.57	-38.6	-39.6	23.0	0.00e+00	70	28	0	834666496	50	6117
2026-01-17 14:35:50.21	151.04	71.25	-38.2	-39.2	23.3	0.00e+00	79	28	0	836763648	50	5852
2026-01-17 14:35:51.22	152.16	70.93	-37.7	-38.6	23.7	0.00e+00	68	28	0	838860800	48	6138
2026-01-17 14:35:52.23	153.25	70.60	-37.4	-38.3	23.9	0.00e+00	92	28	0	839909376	48	5917
2026-01-17 14:35:53.24	154.29	70.27	-38.1	-39.1	23.1	0.00e+00	69	28	0	842006528	48	6485
2026-01-17 14:35:54.25	155.30	69.93	-38.6	-39.6	22.7	0.00e+00	92	28	0	844103680	48	6914
2026-01-17 14:35:55.26	156.27	69.59	-38.0	-39.0	23.5	0.00e+00	0	28	0	846200832	48	6402
2026-01-17 14:35:56.27	157.21	69.25	-37.5	-38.4	23.9	0.00e+00	0	28	0	848297984	48	6001
2026-01-17 14:35:57.28	158.12	68.90	-38.3	-39.2	22.9	0.00e+00	69	28	0	849346560	48	6588
2026-01-17 14:35:58.29	158.99	68.55	-39.8	-41.0	21.5	0.00e+00	0	27	0	851443712	52	6441
2026-01-17 14:35:59.30	159.84	68.19	-39.6	-40.7	21.8	0.00e+00	92	28	0	853540864	52	6211
2026-01-17 14:36:00.32	160.66	67.83	-38.8	-39.8	22.7	0.00e+00	0	28	0	855638016	50	6260
2026-01-17 14:36:01.33	161.45	67.47	-38.5	-39.5	22.8	0.00e+00	90	27	0	857735168	50	6037
2026-01-17 14:36:02.34	162.20	67.11	-39.4	-40.5	21.9	0.00e+00	0	28	0	859832320	50	6799
2026-01-17 14:36:03.34	162.93	66.75	-40.0	-41.1	21.4	0.00e+00	0	27	0	860880896	52	6537
2026-01-17 14:36:04.35	163.64	66.38	-38.8	-39.8	22.6	0.00e+00	6	28	0	862978048	52	5614
2026-01-17 14:36:05.36	164.32	66.01	-38.6	-39.6	22.9	0.00e+00	7	28	0	865075200	50	6110
2026-01-17 14:36:06.37	164.99	65.64	-37.1	-37.9	24.4	0.00e+00	2	28	0	867172352	48	5667
2026-01-17 14:36:07.38	165.63	65.27	-36.6	-37.4	24.7	0.00e+00	5	28	0	869269504	46	5991
2026-01-17 14:36:08.39	166.25	64.90	-36.7	-37.6	24.6	0.00e+00	92	28	0	870318080	46	6131
2026-01-17 14:36:09.40	166.85	64.53	-36.0	-36.8	25.2	0.00e+00	9	28	0	872415232	46	5586
2026-01-17 14:36:10.41	167.43	64.16	-35.2	-35.9	25.8	0.00e+00	92	28	0	874512384	44	5690
2026-01-17 14:36:11.40	167.98	63.79	-34.5	-35.2	26.5	0.00e+00	0	28	0	876609536	42	5851
2026-01-17 14:36:12.41	168.53	63.42	-34.4	-35.1	26.5	0.00e+00	71	28	0	878706688	42	5779
2026-01-17 14:36:13.42	169.06	63.04	-34.7	-35.5	26.3	0.00e+00	0	28	0	879755264	42	6036
2026-01-17 14:36:14.43	169.57	62.67	-34.2	-34.9	26.6	0.00e+00	71	28	0	881852416	42	5668
2026-01-17 14:36:15.44	170.06	62.30	-34.2	-34.9	26.6	0.00e+00	90	27	0	883949568	42	5659
2026-01-17 14:36:16.44	170.54	61.93	-34.6	-35.3	26.4	0.00e+00	0	28	0	886046720	42	5956
2026-01-17 14:36:17.45	171.01	61.56	-35.2	-35.9	25.9	0.00e+00	91	28	0	888143872	42	6361
2026-01-17 14:36:18.46	171.46	61.19	-35.4	-36.2	25.7	0.00e+00	0	27	0	889192448	42	6549
2026-01-17 14:36:19.47	171.91	60.81	-36.0	-36.7	25.2	0.00e+00	5	28	0	891289600	44	6230
2026-01-17 14:36:20.48	172.33	60.44	-36.5	-37.4	24.6	0.00e+00	5	28	0	893386752	44	6699
2026-01-17 14:36:21.49	172.75	60.07	-36.5	-37.3	24.7	0.00e+00	0	28	0	895483904	44	6684
2026-01-17 14:36:22.50	173.15	59.71	-37.2	-38.0	24.1	0.00e+00	89	28	0	897581056	46	6448
2026-01-17 14:36:23.51	173.55	59.34	-38.6	-39.6	22.8	0.00e+00	0	28	0	898629632	48	6880
2026-01-17 14:36:24.52	173.93	58.97	-39.6	-40.7	21.8	0.00e+00	92	28	0	900726784	50	6965
2026-01-17 14:36:25.53	174.30	58.61	-39.5	-40.6	21.9	0.00e+00	5	28	0	902823936	50	6901
2026-01-17 14:36:26.54	174.66	58.24	-39.1	-40.1	22.3	0.00e+00	6	28	0	904921088	50	6511
2026-01-17 14:36:27.55	175.02	57.88	-38.5	-39.4	22.8	0.00e+00	5	28	0	907018240	50	6013
2026-01-17 14:36:28.56	175.36	57.52	-38.3	-39.3	23.1	0.00e+00	5	28	0	908066816	50	5908
2026-01-17 14:36:29.57	175.69	57.15	-38.6	-39.6	22.7	0.00e+00	0	28	0	910163968	50	6143
2026-01-17 14:36:30.58	176.02	56.80	-38.5	-39.5	22.8	0.00e+00	82	28	0	912261120	50	6074
2026-01-17 14:36:31.59	176.34	56.44	-38.2	-39.1	23.2	0.00e+00	92	28	0	914358272	50	5828
2026-01-17 14:36:32.60	176.65	56.08	-37.2	-38.1	24.0	0.00e+00	80	27	0	916455424	48	5806
2026-01-17 14:36:33.61	176.95	55.73	-36.6	-37.4	24.8	0.00e+00	90	28	0	917504000	46	5983
2026-01-17 14:36:34.62	177.24	55.37	-36.7	-37.5	24.5	0.00e+00	0	28	0	919601152	46	6067
2026-01-17 14:36:35.63	177.53	55.02	-35.8	-36.6	25.3	0.00e+00	0	28	0	921698304	46	5459
2026-01-17 14:36:36.64	177.81	54.67	-35.7	-36.5	25.3	0.00e+00	81	28	0	923795456	44	6058
2026-01-17 14:36:37.65	178.09	54.32	-36.2	-37.0	24.9	0.00e+00	81	28	0	925892608	44	6460
2026-01-17 14:36:38.66	178.35	53.98	-35.6	-36.4	25.5	0.00e+00	92	27	0	927989760	44	5966
2026-01-17 14:36:39.67	178.61	53.63	-35.4	-36.1	25.7	0.00e+00	7	28	0	929038336	44	5820
2026-01-17 14:36:40.68	178.87	53.29	-35.0	-35.8	25.8	0.00e+00	92	27	0	931135488	44	5569
2026-01-17 14:36:41.69	179.12	52.95	-35.1	-35.9	25.9	0.00e+00	6	28	0	933232640	44	5656
2026-01-17 14:36:42.70	179.36	52.61	-35.5	-36.3	25.5	0.00e+00	0	28	0	935329792	44	5912
2026-01-17 14:36:43.71	179.60	52.27	-36.1	-36.9	25.0	0.00e+00	8	27	0	937426944	44	6389
2026-01-17 14:36:44.72	179.83	51.93	-37.4	-38.3	23.9	0.00e+00	10	28	0	938475520	46	6646
2026-01-17 14:36:45.73	180.06	51.60	-38.9	-39.9	22.4	0.00e+00	0	28	0	940572672	48	7166
2026-01-17 14:36:46.75	180.29	51.26	-40.1	-41.3	21.2	0.00e+00	7	28	0	942669824	52	6676
2026-01-17 14:36:47.75	180.50	50.94	-40.2	-41.4	21.2	0.00e+00	92	28	0	944766976	52	6721
2026-01-17 14:36:48.77	180.72	50.61	-39.9	-41.0	21.5	0.00e+00	11	28	0	946864128	52	6418
2026-01-17 14:36:49.78	180.93	50.28	-40.7	-41.9	20.6	0.00e+00	72	28	0	947912704	52	7160
2026-01-17 14:36:50.79	181.13	49.95	-42.4	-44.1	18.6	0.00e+00	9	27	0	950009856	56	7333
2026-01-17 14:36:51.80	181.33	49.63	-42.9	-44.7	17.8	0.00e+00	72	27	0	952107008	58	6984
2026-01-17 14:36:52.80	181.52	49.31	-42.3	-43.9	18.7	0.00e+00	4	28	0	954204160	58	6383
2026-01-17 14:36:53.81	181.72	49.00	-41.7	-43.1	19.5	0.00e+00	10	28	0	956301312	56	6521
2026-01-17 14:36:54.82	181.90	48.68	-41.6	-43.0	19.7	0.00e+00	91	28	0	957349888	56	6439
2026-01-17 14:36:55.83	182.09	48.36	-42.3	-43.9	18.8	0.00e+00	72	28	0	959447040	56	7165
2026-01-17 14:36:56.84	182.27	48.05	-42.3	-44.0	18.7	0.00e+00	91	28	0	961544192	56	7225
2026-01-17 14:36:57.85	182.45	47.74	-40.9	-42.2	20.6	0.00e+00	0	27	0	963641344	56	5879
2026-01-17 14:36:58.86	182.62	47.43	-39.9	-41.0	21.5	0.00e+00	71	27	0	965738496	54	5729
2026-01-17 14:36:59.87	182.79	47.12	-38.9	-39.9	22.2	0.00e+00	2	28	0	967835648	52	5680
2026-01-17 14:37:00.88	182.96	46.82	-38.8	-39.8	22.5	0.00e+00	0	27	0	968884224	50	6294
2026-01-17 14:37:01.89	183.12	46.52	-39.4	-40.5	21.9	0.00e+00	92	27	0	970981376	50	6834
2026-01-17 14:37:02.89	183.28	46.22	-40.1	-41.3	21.0	0.00e+00	2	28	0	973078528	52	6674
2026-01-17 14:37:03.90	183.44	45.92	-40.3	-41.5	21.1	0.00e+00	92	27	0	975175680	52	6829
2026-01-17 14:37:04.91	183.60	45.62	-39.8	-41.0	21.6	0.00e+00	0	28	0	976224256	52	6403
2026-01-17 14:37:05.93	183.75	45.32	-39.1	-40.2	22.3	0.00e+00	0	27	0	978321408	52	5852
2026-01-17 14:37:06.94	183.90	45.03	-38.9	-40.0	22.6	0.00e+00	3	28	0	980418560	52	5720
2026-01-17 14:37:07.95	184.05	44.74	-37.9	-38.8	23.5	0.00e+00	9	27	0	982515712	50	5609
2026-01-17 14:37:08.96	184.19	44.45	-36.9	-37.8	24.4	0.00e+00	0	28	0	984612864	48	5586
2026-01-17 14:37:09.97	184.34	44.16	-37.0	-37.9	24.3	0.00e+00	0	28	0	985661440	48	5636
2026-01-17 14:37:10.98	184.48	43.88	-36.5	-37.3	24.8	0.00e+00	92	27	0	987758592	46	5897
2026-01-17 14:37:11.99	184.61	43.59	-36.8	-37.6	24.6	0.00e+00	9	27	0	989855744	46	6122
2026-01-17 14:37:13.00	184.75	43.31	-37.1	-38.0	24.1	0.00e+00	91	27	0	991952896	46	6437
2026-01-17 14:37:14.01	184.88	43.03	-38.3	-39.3	23.0	0.00e+00	8	27	0	994050048	48	6661
2026-01-17 14:37:15.02	185.01	42.75	-39.4	-40.6	21.9	0.00e+00	0	28	0	996147200	50	6857
2026-01-17 14:37:16.03	185.14	42.48	-39.6	-40.8	21.7	0.00e+00	1	28	0	997195776	50	7039
2026-01-17 14:37:17.04	185.27	42.20	-39.0	-40.1	22.4	0.00e+00	74	28	0	999292928	50	6508
2026-01-17 14:37:18.05	185.39	41.93	-38.5	-39.5	22.9	0.00e+00	92	28	0	1001390080	50	6089
2026-01-17 14:37:19.06	185.51	41.66	-37.5	-38.4	24.1	0.00e+00	74	27	0	1003487232	48	5976
2026-01-17 14:37:20.07	185.63	41.39	-36.1	-36.8	25.1	0.00e+00	92	28	0	1005584384	46	5605
2026-01-17 14:37:21.08	185.75	41.12	-36.1	-36.8	25.2	0.00e+00	0	27	0	1006632960	46	5605
2026-01-17 14:37:22.08	185.87	40.86	-36.3	-37.1	24.9	0.00e+00	0	28	0	1008730112	46	5765
2026-01-17 14:37:23.09	185.98	40.60	-37.0	-37.9	24.2	0.00e+00	0	27	0	1010827264	46	6347
2026-01-17 14:37:24.10	186.09	40.34	-38.0	-39.0	23.3	0.00e+00	0	28	0	1012924416	48	6408
2026-01-17 14:37:25.11	186.20	40.08	-39.1	-40.2	22.1	0.00e+00	65	27	0	1015021568	50	6594
2026-01-17 14:37:26.12	186.31	39.82	-39.9	-41.1	21.3	0.00e+00	0	27	0	1016070144	52	6534
2026-01-17 14:37:27.13	186.42	39.56	-40.1	-41.4	21.1	0.00e+00	92	27	0	1018167296	52	6744
2026-01-17 14:37:28.14	186.53	39.31	-40.0	-41.3	21.3	0.00e+00	2	27	0	1020264448	52	6640
2026-01-17 14:37:29.15	186.63	39.06	-39.6	-40.7	21.7	0.00e+00	68	27	0	1022361600	52	6231
2026-01-17 14:37:30.16	186.74	38.81	-39.1	-40.2	22.3	0.00e+00	2	27	0	1024458752	52	5831
2026-01-17 14:37:31.17	186.84	38.56	-38.1	-39.0	23.5	0.00e+00	0	27	0	1025507328	50	5717
2026-01-17 14:37:32.18	186.94	38.31	-37.8	-38.7	23.6	0.00e+00	90	27	0	1027604480	50	5521
2026-01-17 14:37:33.19	187.04	38.06	-37.5	-38.4	23.8	0.00e+00	78	27	0	1029701632	48	5993
2026-01-17 14:37:34.20	187.13	37.82	-37.6	-38.5	23.7	0.00e+00	92	27	0	1031798784	48	6053
2026-01-17 14:37:35.21	187.23	37.58	-38.1	-39.1	23.3	0.00e+00	3	27	0	1033895936	48	6477
2026-01-17 14:37:36.21	187.32	37.34	-39.0	-40.0	22.3	0.00e+00	90	27	0	1034944512	50	6458
2026-01-17 14:37:37.22	187.42	37.10	-40.1	-41.3	21.2	0.00e+00	79	27	0	1037041664	52	6636
2026-01-17 14:37:38.23	187.51	36.86	-40.3	-41.6	21.0	0.00e+00	2	27	0	1039138816	52	6879
2026-01-17 14:37:39.24	187.60	36.63	-40.6	-41.9	20.7	0.00e+00	0	27	0	1041235968	52	7170
2026-01-17 14:37:40.25	187.69	36.39	-40.2	-41.5	21.1	0.00e+00	73	27	0	1043333120	52	6771
2026-01-17 14:37:41.25	187.78	36.16	-39.8	-41.0	21.5	0.00e+00	92	27	0	1044381696	52	6438
2026-01-17 14:37:42.26	187.86	35.93	-39.4	-40.5	22.0	0.00e+00	72	27	0	1046478848	52	6044
2026-01-17 14:37:43.27	187.95	35.70	-39.1	-40.1	22.3	0.00e+00	92	27	0	1048576000	52	5812
2026-01-17 14:37:44.28	188.03	35.48	-39.1	-40.1	22.4	0.00e+00	0	27	0	1050673152	52	5810
2026-01-17 14:37:45.29	188.12	35.25	-38.9	-39.9	22.5	0.00e+00	0	27	0	1052770304	52	5643
2026-01-17 14:37:46.30	188.20	35.03	-39.0	-40.0	22.4	0.00e+00	0	27	0	1053818880	52	5752
2026-01-17 14:37:47.31	188.28	34.80	-38.6	-39.6	22.8	0.00e+00	0	27	0	1055916032	50	6112
2026-01-17 14:37:48.32	188.36	34.58	-38.5	-39.5	22.8	0.00e+00	90	27	0	1058013184	50	6049
2026-01-17 14:37:49.33	188.44	34.36	-38.6	-39.6	22.8	0.00e+00	0	27	0	1060110336	50	6154
2026-01-17 14:37:50.34	188.52	34.14	-38.9	-39.9	22.4	0.00e+00	92	27	0	1062207488	50	6384
2026-01-17 14:37:51.35	188.60	33.93	-39.5	-40.6	21.9	0.00e+00	7	28	0	1064304640	50	6905
2026-01-17 14:37:52.36	188.67	33.71	-40.0	-41.2	21.2	0.00e+00	87	28	0	1065353216	52	6589
2026-01-17 14:37:53.37	188.75	33.50	-40.5	-41.8	20.7	0.00e+00	74	27	0	1067450368	52	7087
2026-01-17 14:37:54.38	188.82	33.28	-40.9	-42.2	20.2	0.00e+00	0	27	0	1069547520	54	6595
2026-01-17 14:37:55.39	188.90	33.07	-41.1	-42.5	20.0	0.00e+00	2	27	0	1071644672	54	6802
2026-01-17 14:37:56.40	188.97	32.86	-41.0	-42.4	20.1	0.00e+00	76	28	0	1073741824	54	6747
2026-01-17 14:37:57.41	189.04	32.65	-41.0	-42.4	20.2	0.00e+00	92	27	0	1074790400	54	6707
2026-01-17 14:37:58.42	189.11	32.45	-40.9	-42.3	20.1	0.00e+00	0	27	0	1076887552	54	6638
2026-01-17 14:37:59.43	189.18	32.24	-40.6	-41.9	20.7	0.00e+00	91	28	0	1078984704	54	6373
2026-01-17 14:38:00.43	189.25	32.04	-40.7	-42.1	20.4	0.00e+00	0	27	0	1081081856	54	6475
2026-01-17 14:38:01.44	189.32	31.83	-40.8	-42.1	20.4	0.00e+00	0	27	0	1083179008	54	6517
2026-01-17 14:38:02.44	189.38	31.63	-40.9	-42.3	20.4	0.00e+00	0	28	0	1084227584	54	6630
2026-01-17 14:38:03.45	189.45	31.43	-40.3	-41.5	21.0	0.00e+00	0	28	0	1086324736	54	6099
2026-01-17 14:38:04.46	189.52	31.24	-40.3	-41.5	20.9	0.00e+00	90	28	0	1088421888	54	6088
2026-01-17 14:38:05.47	189.58	31.04	-40.1	-41.3	21.2	0.00e+00	5	28	0	1090519040	54	5949
2026-01-17 14:38:06.48	189.65	30.84	-40.0	-41.2	21.3	0.00e+00	90	28	0	1092616192	54	5870
2026-01-17 14:38:07.49	189.71	30.65	-40.0	-41.2	21.4	0.00e+00	7	27	0	1093664768	54	5837
2026-01-17 14:38:08.50	189.77	30.45	-39.7	-40.8	21.6	0.00e+00	80	28	0	1095761920	52	6314
2026-01-17 14:38:09.51	189.84	30.26	-39.4	-40.5	22.0	0.00e+00	3	28	0	1097859072	52	6073
2026-01-17 14:38:10.52	189.90	30.07	-39.4	-40.4	22.0	0.00e+00	5	27	0	1099956224	52	6033
2026-01-17 14:38:11.53	189.96	29.88	-39.1	-40.1	22.4	0.00e+00	83	27	0	1102053376	52	5820
2026-01-17 14:38:12.54	190.02	29.69	-38.6	-39.6	22.7	0.00e+00	4	27	0	1103101952	50	6119
2026-01-17 14:38:13.55	190.08	29.50	-38.5	-39.4	22.9	0.00e+00	92	28	0	1105199104	50	6033
2026-01-17 14:38:14.56	190.14	29.31	-38.4	-39.3	22.9	0.00e+00	4	28	0	1107296256	50	5958
2026-01-17 14:38:15.56	190.20	29.13	-38.4	-39.4	22.9	0.00e+00	92	27	0	1109393408	50	5998
2026-01-17 14:38:16.57	190.26	28.95	-38.4	-39.3	23.0	0.00e+00	6	28	0	1111490560	50	5943
2026-01-17 14:38:17.58	190.31	28.76	-38.5	-39.5	22.9	0.00e+00	0	27	0	1112539136	50	6061
2026-01-17 14:38:18.59	190.37	28.58	-38.4	-39.3	23.0	0.00e+00	0	27	0	1114636288	50	5949
2026-01-17 14:38:19.60	190.42	28.40	-38.4	-39.4	23.0	0.00e+00	82	28	0	1116733440	50	5978
2026-01-17 14:38:20.61	190.48	28.22	-38.5	-39.5	22.9	0.00e+00	92	28	0	1118830592	50	6060
2026-01-17 14:38:21.61	190.53	28.05	-38.4	-39.3	22.9	0.00e+00	4	27	0	1120927744	50	5959
2026-01-17 14:38:22.63	190.59	27.87	-38.2	-39.2	23.0	0.00e+00	92	27	0	1121976320	50	5855
2026-01-17 14:38:23.64	190.64	27.69	-38.1	-39.1	23.1	0.00e+00	0	27	0	1124073472	50	5777
2026-01-17 14:38:24.65	190.70	27.52	-38.2	-39.1	23.2	0.00e+00	82	27	0	1126170624	50	5798
2026-01-17 14:38:25.65	190.75	27.34	-37.9	-38.9	23.4	0.00e+00	0	27	0	1128267776	50	5640
2026-01-17 14:38:26.66	190.80	27.17	-37.8	-38.7	23.6	0.00e+00	79	28	0	1130364928	50	5532
2026-01-17 14:38:27.67	190.85	27.00	-37.4	-38.3	23.8	0.00e+00	92	27	0	1132462080	48	5950
2026-01-17 14:38:28.68	190.90	26.83	-37.5	-38.4	23.8	0.00e+00	7	27	0	1133510656	48	6004
2026-01-17 14:38:29.69	190.95	26.66	-37.5	-38.4	23.8	0.00e+00	92	27	0	1135607808	48	5991
2026-01-17 14:38:30.70	191.00	26.49	-37.4	-38.3	23.9	0.00e+00	0	27	0	1137704960	48	5918
2026-01-17 14:38:31.71	191.05	26.32	-37.4	-38.3	23.8	0.00e+00	92	27	0	1139802112	48	5950
2026-01-17 14:38:32.72	191.10	26.16	-37.6	-38.5	23.7	0.00e+00	6	27	0	1141899264	48	6048
2026-01-17 14:38:33.73	191.15	25.99	-37.6	-38.5	23.7	0.00e+00	0	27	0	1142947840	48	6040
2026-01-17 14:38:34.74	191.20	25.82	-37.5	-38.4	23.7	0.00e+00	71	28	0	1145044992	48	6028
2026-01-17 14:38:35.75	191.25	25.66	-37.6	-38.5	23.7	0.00e+00	0	28	0	1147142144	48	6052
2026-01-17 14:38:36.77	191.30	25.50	-37.7	-38.6	23.5	0.00e+00	92	28	0	1149239296	48	6133
2026-01-17 14:38:37.78	191.34	25.34	-37.7	-38.6	23.6	0.00e+00	5	28	0	1151336448	48	6149
2026-01-17 14:38:38.79	191.39	25.17	-37.5	-38.4	23.7	0.00e+00	78	27	0	1152385024	48	6023
2026-01-17 14:38:39.79	191.43	25.02	-37.6	-38.5	23.6	0.00e+00	77	28	0	1154482176	48	6087
2026-01-17 14:38:40.80	191.48	24.86	-37.4	-38.3	23.9	0.00e+00	74	27	0	1156579328	48	5936
2026-01-17 14:38:41.81	191.53	24.70	-37.4	-38.3	23.8	0.00e+00	0	27	0	1158676480	48	5948
2026-01-17 14:38:42.82	191.57	24.54	-37.2	-38.1	24.0	0.00e+00	2	27	0	1160773632	48	5771
2026-01-17 14:38:43.83	191.61	24.39	-37.2	-38.1	24.1	0.00e+00	92	27	0	1161822208	48	5785
2026-01-17 14:38:44.84	191.66	24.23	-36.9	-37.8	24.2	0.00e+00	0	27	0	1163919360	48	5583
2026-01-17 14:38:45.85	191.70	24.08	-37.0	-37.9	24.2	0.00e+00	92	27	0	1166016512	48	5664
2026-01-17 14:38:46.86	191.75	23.92	-36.7	-37.5	24.4	0.00e+00	77	27	0	1168113664	46	6074
2026-01-17 14:38:47.87	191.79	23.77	-36.7	-37.5	24.4	0.00e+00	12	27	0	1170210816	46	6057
2026-01-17 14:38:48.88	191.83	23.62	-36.6	-37.4	24.4	0.00e+00	0	27	0	1171259392	46	6000
2026-01-17 14:38:49.89	191.87	23.47	-36.4	-37.2	24.7	0.00e+00	2	27	0	1173356544	46	5884
2026-01-17 14:38:50.90	191.91	23.32	-36.5	-37.3	24.7	0.00e+00	90	28	0	1175453696	46	5948
2026-01-17 14:38:51.91	191.96	23.17	-36.5	-37.3	24.7	0.00e+00	2	28	0	1177550848	46	5934
2026-01-17 14:38:52.92	192.00	23.02	-36.3	-37.1	24.8	0.00e+00	92	28	0	1179648000	46	5825
2026-01-17 14:38:53.93	192.04	22.87	-36.4	-37.2	24.7	0.00e+00	2	28	0	1180696576	46	5871
2026-01-17 14:38:54.94	192.08	22.73	-36.4	-37.2	24.8	0.00e+00	4	27	0	1182793728	46	5855
2026-01-17 14:38:55.95	192.12	22.58	-36.4	-37.2	24.7	0.00e+00	0	27	0	1184890880	46	5871
2026-01-17 14:38:56.96	192.16	22.44	-36.4	-37.2	24.6	0.00e+00	2	27	0	1186988032	46	5896
2026-01-17 14:38:57.97	192.20	22.29	-36.5	-37.3	24.8	0.00e+00	47	27	0	1189085184	46	5917
2026-01-17 14:38:58.98	192.23	22.15	-36.5	-37.3	24.3	0.00e+00	0	27	0	1190133760	46	5957
2026-01-17 14:38:59.99	192.27	22.01	-36.7	-37.5	24.5	0.00e+00	92	28	0	1192230912	46	6061
2026-01-17 14:39:01.00	192.31	21.87	-36.7	-37.6	24.4	0.00e+00	0	28	0	1194328064	46	6104
2026-01-17 14:39:02.01	192.35	21.72	-36.8	-37.6	24.3	0.00e+00	92	28	0	1196425216	46	6150
2026-01-17 14:39:03.02	192.39	21.58	-36.8	-37.7	24.4	0.00e+00	81	27	0	1198522368	46	6198
2026-01-17 14:39:04.03	192.42	21.45	-37.0	-37.8	24.2	0.00e+00	82	28	0	1200619520	46	6291
2026-01-17 14:39:05.04	192.46	21.31	-36.9	-37.8	24.3	0.00e+00	78	27	0	1201668096	46	6271
2026-01-17 14:39:06.05	192.50	21.17	-37.0	-37.8	24.3	0.00e+00	0	27	0	1203765248	46	6296
2026-01-17 14:39:07.06	192.54	21.03	-37.0	-37.8	24.2	0.00e+00	92	27	0	1205862400	46	6316
2026-01-17 14:39:08.07	192.57	20.90	-37.0	-37.9	24.2	0.00e+00	0	27	0	1207959552	46	6352
2026-01-17 14:39:09.08	192.61	20.76	-37.1	-37.9	24.2	0.00e+00	92	27	0	1210056704	46	6373
2026-01-17 14:39:10.09	192.64	20.62	-37.1	-38.0	24.1	0.00e+00	0	27	0	1211105280	46	6401
2026-01-17 14:39:11.10	192.68	20.49	-37.0	-37.9	24.2	0.00e+00	25	27	0	1213202432	46	6350
2026-01-17 14:39:12.11	192.71	20.36	-37.1	-37.9	24.1	0.00e+00	0	27	0	1215299584	46	6368
2026-01-17 14:39:13.12	192.75	20.22	-37.1	-37.9	24.1	0.00e+00	0	27	0	1217396736	46	6368
