passes_logs/2026/01/17/R4.6S_Anadyr/R4.6S_Anadyr__20260117_224522_TY-42_rec.log

#Pass ID: 20260117_224522_TY-42
#Satellite: TY-42
#Configuration: TY-42_900M
#almurnet v.1.7.20251203
#Start time: 2026-01-17 22:45:54

#Version: 2.2.20231116
#Station: R4.6S_Anadyr
#Location: 177.4865 lon 64.73178 lat
#TLE: 1 64048U 25103A   26017.54141204  .00008008  00000-0  38191-3 0 09991
#TLE: 2 64048 097.4124 092.9111 0001919 092.8629 297.5859 15.19160543 37202

#Time	Az	El	Level	Level2	SNR	BER	BlckErr	Temp	State	Recorded	gain1	gain2
2026-01-17 22:45:54.59	20.55	2.05	-48.8	-63.6	3.5	1.51e+00	0	29	0	0	60	55004
2026-01-17 22:45:55.59	20.60	2.11	-47.7	-50.2	6.1	0.00e+00	0	31	104	0	60	39505
2026-01-17 22:45:56.60	20.65	2.18	-47.7	-50.2	6.1	0.00e+00	0	31	104	0	60	39600
2026-01-17 22:45:57.61	20.70	2.25	-47.7	-50.2	6.1	0.00e+00	0	31	104	0	60	39654
2026-01-17 22:45:58.62	20.74	2.32	-47.7	-50.2	6.1	0.00e+00	0	31	104	0	60	39595
2026-01-17 22:45:59.63	20.79	2.39	-47.7	-50.2	6.1	0.00e+00	0	31	104	0	60	39460
2026-01-17 22:46:00.64	20.84	2.46	-47.7	-50.2	6.1	0.00e+00	0	31	104	0	60	39532
2026-01-17 22:46:01.65	20.89	2.52	-47.7	-50.2	6.1	0.00e+00	0	31	104	0	60	39549
2026-01-17 22:46:02.66	20.94	2.59	-47.7	-50.2	6.1	0.00e+00	0	31	104	0	60	39491
2026-01-17 22:46:03.67	21.00	2.66	-47.7	-50.2	6.1	0.00e+00	0	31	104	0	60	39639
2026-01-17 22:46:04.68	21.05	2.73	-47.7	-50.2	6.1	0.00e+00	0	31	104	0	60	39701
2026-01-17 22:46:05.69	21.10	2.80	-47.7	-50.2	6.1	0.00e+00	0	31	104	0	60	39553
2026-01-17 22:46:06.70	21.15	2.87	-47.7	-50.2	6.1	0.00e+00	0	31	104	0	60	39547
2026-01-17 22:46:07.71	21.20	2.94	-47.7	-50.2	6.1	0.00e+00	0	31	104	0	60	39586
2026-01-17 22:46:08.72	21.25	3.01	-47.7	-50.2	6.0	0.00e+00	0	31	104	0	60	39602
2026-01-17 22:46:09.73	21.30	3.08	-47.7	-50.2	6.1	0.00e+00	0	31	104	0	60	39722
2026-01-17 22:46:10.74	21.36	3.16	-47.7	-50.2	6.1	0.00e+00	0	31	104	0	60	39730
2026-01-17 22:46:11.75	21.41	3.23	-47.7	-50.2	6.1	0.00e+00	0	31	104	0	60	39710
2026-01-17 22:46:12.76	21.46	3.30	-47.7	-50.2	6.1	0.00e+00	0	31	104	0	60	39639
2026-01-17 22:46:13.77	21.52	3.37	-47.7	-50.2	6.1	0.00e+00	0	31	104	0	60	39722
2026-01-17 22:46:14.78	21.57	3.44	-32.1	-32.5	12.4	0.00e+00	3558	31	104	0	40	16261
2026-01-17 22:46:15.79	21.63	3.51	-30.4	-30.8	14.6	0.00e+00	0	31	0	50331648	36	16891
2026-01-17 22:46:16.80	21.68	3.59	-29.2	-29.6	15.0	6.99e-02	0	31	0	167772160	34	16556
2026-01-17 22:46:17.81	21.73	3.66	-29.2	-29.6	15.0	6.99e-02	0	32	0	276824064	34	16486
2026-01-17 22:46:18.82	21.79	3.73	-29.2	-29.6	15.0	4.51e-03	0	32	0	394264576	34	16580
2026-01-17 22:46:19.83	21.84	3.81	-30.5	-30.9	14.5	4.51e-03	0	32	0	503316480	34	19099
2026-01-17 22:46:20.84	21.90	3.88	-31.9	-32.2	13.9	6.52e-03	0	32	0	620756992	38	17781
2026-01-17 22:46:21.85	21.96	3.95	-34.7	-35.1	12.3	2.97e-02	0	32	0	738197504	42	19614
2026-01-17 22:46:22.86	22.01	4.03	-31.3	-31.7	14.1	2.97e-02	0	32	0	847249408	38	16699
2026-01-17 22:46:23.87	22.07	4.10	-29.2	-29.5	15.1	5.26e-02	0	32	0	964689920	34	16419
2026-01-17 22:46:24.88	22.13	4.18	-47.4	-49.7	6.1	5.26e-02	0	32	104	1048576000	60	37311
2026-01-17 22:46:25.89	22.18	4.25	-38.9	-39.4	9.5	0.00e+00	0	32	104	1048576000	54	16152
2026-01-17 22:46:26.90	22.24	4.32	-35.9	-36.3	9.9	0.00e+00	5514	32	0	1107296256	40	25175
2026-01-17 22:46:27.91	22.30	4.40	-30.4	-30.7	12.9	0.00e+00	1326	32	104	1124073472	38	14841
2026-01-17 22:46:28.92	22.36	4.48	-30.0	-30.4	15.0	0.00e+00	0	32	0	1224736768	36	16173
2026-01-17 22:46:29.93	22.42	4.55	-29.7	-30.1	14.8	5.02e-02	0	32	0	1333788672	34	17405
2026-01-17 22:46:30.94	22.48	4.63	-29.4	-29.8	15.2	5.02e-02	0	32	0	1451229184	34	16993
2026-01-17 22:46:31.95	22.54	4.70	-29.7	-30.1	15.0	5.83e-03	0	32	0	1568669696	34	17545
2026-01-17 22:46:32.96	22.60	4.78	-29.5	-29.9	15.1	5.83e-03	0	32	0	1677721600	34	17166
2026-01-17 22:46:33.97	22.66	4.86	-29.1	-29.5	15.2	5.50e-03	0	32	0	1795162112	34	16416
2026-01-17 22:46:34.98	22.72	4.93	-29.3	-29.7	15.2	4.77e-03	0	32	0	1904214016	34	16684
2026-01-17 22:46:35.99	22.78	5.01	-28.9	-29.3	15.3	4.77e-03	0	32	0	2013265920	34	15945
2026-01-17 22:46:36.99	22.84	5.09	-29.1	-29.5	15.3	4.27e-03	0	32	0	2130706432	32	18293
2026-01-17 22:46:38.00	22.90	5.17	-29.3	-29.7	15.3	4.27e-03	0	32	0	2248146944	32	18676
2026-01-17 22:46:39.02	22.96	5.24	-29.2	-29.6	15.2	3.80e-03	0	32	0	2357198848	32	18462
2026-01-17 22:46:40.02	23.02	5.32	-28.8	-29.2	15.4	3.80e-03	0	32	0	2474639360	32	17659
2026-01-17 22:46:41.03	23.09	5.40	-28.7	-29.1	15.5	3.13e-03	0	32	0	2583691264	32	17447
2026-01-17 22:46:42.04	23.15	5.48	-28.5	-28.9	15.6	3.13e-03	0	32	0	2701131776	32	17035
2026-01-17 22:46:43.05	23.21	5.56	-28.2	-28.6	15.7	2.04e-03	0	32	0	2818572288	32	16573
2026-01-17 22:46:44.06	23.28	5.64	-28.2	-28.5	15.7	2.04e-03	0	32	0	2927624192	32	16402
2026-01-17 22:46:45.07	23.34	5.72	-28.3	-28.6	15.6	1.24e-03	0	32	0	3045064704	32	16580
2026-01-17 22:46:46.08	23.41	5.80	-28.1	-28.5	15.7	1.45e-03	0	32	0	3154116608	32	16350
2026-01-17 22:46:47.09	23.47	5.88	-28.1	-28.5	15.8	1.45e-03	0	33	0	3263168512	32	16258
2026-01-17 22:46:48.10	23.54	5.96	-28.0	-28.3	15.8	1.08e-03	0	32	0	3380609024	32	16024
2026-01-17 22:46:49.11	23.61	6.04	-27.8	-28.1	15.8	1.08e-03	0	33	0	3498049536	32	15663
2026-01-17 22:46:50.11	23.67	6.12	-27.7	-28.1	15.8	9.97e-04	0	33	0	3607101440	30	17514
2026-01-17 22:46:51.12	23.74	6.20	-27.7	-28.1	15.9	9.97e-04	0	32	0	3724541952	30	17541
2026-01-17 22:46:52.13	23.81	6.28	-27.8	-28.1	15.9	8.88e-04	0	32	0	3833593856	30	17598
2026-01-17 22:46:53.14	23.87	6.37	-27.8	-28.2	15.9	8.88e-04	0	32	0	3942645760	30	17632
2026-01-17 22:46:54.15	23.94	6.45	-27.7	-28.0	16.0	6.54e-04	0	33	0	4068474880	30	17381
2026-01-17 22:46:55.16	24.01	6.53	-27.6	-28.0	16.0	6.54e-04	0	33	0	4177526784	30	17301
2026-01-17 22:46:56.17	24.08	6.62	-27.6	-28.0	15.9	5.50e-04	0	33	0	4286578688	30	17270
2026-01-17 22:46:57.18	24.15	6.70	-27.6	-27.9	16.0	5.50e-04	0	33	0	4404019200	30	17087
2026-01-17 22:46:58.19	24.22	6.78	-27.6	-27.9	16.0	5.01e-04	0	33	0	4513071104	30	17129
2026-01-17 22:46:59.20	24.29	6.87	-27.4	-27.8	16.1	5.01e-04	0	33	0	4630511616	30	16895
2026-01-17 22:47:00.21	24.36	6.95	-27.4	-27.8	16.0	5.12e-04	0	33	0	4747952128	30	16935
2026-01-17 22:47:01.22	24.43	7.04	-27.6	-27.9	16.0	5.12e-04	0	33	0	4857004032	30	17194
2026-01-17 22:47:02.23	24.51	7.12	-27.6	-28.0	16.0	3.87e-04	0	33	0	4974444544	30	17240
2026-01-17 22:47:03.24	24.58	7.21	-27.4	-27.8	16.0	4.85e-04	0	33	0	5083496448	30	16883
2026-01-17 22:47:04.25	24.65	7.29	-27.5	-27.8	16.0	4.85e-04	0	33	0	5192548352	30	16989
2026-01-17 22:47:05.26	24.73	7.38	-27.1	-27.4	16.1	4.58e-04	0	33	0	5309988864	30	16182
2026-01-17 22:47:06.27	24.80	7.47	-27.2	-27.6	16.1	4.58e-04	0	33	0	5427429376	30	16463
2026-01-17 22:47:07.28	24.87	7.56	-27.1	-27.5	16.2	3.00e-04	0	33	0	5536481280	30	16335
2026-01-17 22:47:08.28	24.95	7.64	-27.1	-27.4	16.2	3.00e-04	0	33	0	5653921792	30	16181
2026-01-17 22:47:09.29	25.02	7.73	-27.1	-27.5	16.2	2.29e-04	0	33	0	5762973696	30	16360
2026-01-17 22:47:10.30	25.10	7.82	-27.0	-27.4	16.2	2.29e-04	0	33	0	5880414208	30	16066
2026-01-17 22:47:11.31	25.18	7.91	-26.9	-27.3	16.2	2.02e-04	0	33	0	5997854720	30	15954
2026-01-17 22:47:12.32	25.26	8.00	-26.8	-27.2	16.3	2.02e-04	0	33	0	6106906624	30	15695
2026-01-17 22:47:13.33	25.33	8.09	-26.6	-27.0	16.3	2.62e-04	0	33	0	6215958528	28	17243
2026-01-17 22:47:14.34	25.41	8.17	-26.8	-27.2	16.3	2.62e-04	0	33	0	6333399040	28	17684
2026-01-17 22:47:15.35	25.49	8.26	-26.7	-27.1	16.2	1.85e-04	0	33	0	6450839552	28	17506
2026-01-17 22:47:16.36	25.57	8.36	-26.7	-27.1	16.3	1.85e-04	0	33	0	6559891456	28	17465
2026-01-17 22:47:17.37	25.65	8.45	-26.6	-27.0	16.3	1.80e-04	0	33	0	6677331968	28	17220
2026-01-17 22:47:18.38	25.73	8.54	-26.6	-27.0	16.3	1.80e-04	0	33	0	6786383872	28	17338
2026-01-17 22:47:19.39	25.81	8.63	-26.6	-27.0	16.3	1.36e-04	0	33	0	6903824384	28	17269
2026-01-17 22:47:20.40	25.89	8.72	-26.3	-26.7	16.4	1.09e-04	0	33	0	7021264896	28	16654
2026-01-17 22:47:21.41	25.98	8.81	-26.4	-26.8	16.4	1.09e-04	0	33	0	7130316800	28	16912
2026-01-17 22:47:22.42	26.06	8.91	-26.4	-26.8	16.4	8.17e-05	0	33	0	7239368704	28	16844
2026-01-17 22:47:23.43	26.14	9.00	-26.3	-26.7	16.4	8.17e-05	0	33	0	7356809216	28	16734
2026-01-17 22:47:24.44	26.23	9.09	-26.1	-26.5	16.5	3.81e-05	0	33	0	7465861120	28	16356
2026-01-17 22:47:25.45	26.31	9.19	-26.1	-26.5	16.5	3.81e-05	0	33	0	7583301632	28	16323
2026-01-17 22:47:26.46	26.40	9.28	-26.0	-26.4	16.5	5.44e-05	0	33	0	7700742144	28	16129
2026-01-17 22:47:27.47	26.49	9.38	-26.1	-26.5	16.5	5.44e-05	0	33	0	7809794048	28	16351
2026-01-17 22:47:28.48	26.57	9.47	-26.2	-26.6	16.4	5.99e-05	0	33	0	7927234560	28	16530
2026-01-17 22:47:29.49	26.66	9.57	-25.9	-26.3	16.5	9.80e-05	0	33	0	8036286464	28	15947
2026-01-17 22:47:30.50	26.75	9.67	-25.9	-26.3	16.5	9.80e-05	0	33	0	8145338368	28	15897
2026-01-17 22:47:31.51	26.84	9.76	-25.8	-26.3	16.5	5.99e-05	0	33	0	8262778880	28	15883
2026-01-17 22:47:32.52	26.93	9.86	-25.8	-26.2	16.5	5.99e-05	0	33	0	8380219392	28	15694
2026-01-17 22:47:33.53	27.02	9.96	-25.8	-26.2	16.6	4.90e-05	0	33	0	8489271296	28	15771
2026-01-17 22:47:34.54	27.11	10.06	-25.6	-26.1	16.6	4.90e-05	0	33	0	8606711808	26	17414
2026-01-17 22:47:35.55	27.20	10.16	-25.7	-26.1	16.6	5.99e-05	0	33	0	8724152320	26	17464
2026-01-17 22:47:36.56	27.29	10.25	-25.5	-25.9	16.6	5.99e-05	0	33	0	8833204224	26	17153
2026-01-17 22:47:37.57	27.39	10.35	-25.5	-25.9	16.6	2.72e-05	0	33	0	8950644736	26	17201
2026-01-17 22:47:38.58	27.48	10.45	-25.5	-25.9	16.5	4.35e-05	0	33	0	9059696640	26	17075
2026-01-17 22:47:39.59	27.58	10.55	-25.5	-25.9	16.5	4.35e-05	0	34	0	9168748544	26	17107
2026-01-17 22:47:40.60	27.67	10.66	-25.4	-25.9	16.5	4.35e-05	0	33	0	9294577664	26	17015
2026-01-17 22:47:41.61	27.77	10.76	-25.5	-25.9	16.5	2.72e-05	0	33	0	9403629568	26	17047
2026-01-17 22:47:42.62	27.87	10.86	-25.4	-25.8	16.6	2.72e-05	0	33	0	9512681472	26	16823
2026-01-17 22:47:43.64	27.96	10.96	-25.3	-25.7	16.6	3.81e-05	0	34	0	9630121984	26	16718
2026-01-17 22:47:44.64	28.06	11.07	-25.4	-25.8	16.6	3.81e-05	0	34	0	9739173888	26	16984
2026-01-17 22:47:45.65	28.16	11.17	-25.1	-25.5	16.7	1.63e-05	0	34	0	9856614400	26	16421
2026-01-17 22:47:46.66	28.26	11.27	-25.1	-25.5	16.7	0.00e+00	0	34	0	9974054912	26	16392
2026-01-17 22:47:47.67	28.36	11.38	-25.1	-25.5	16.7	0.00e+00	0	34	0	10083106816	26	16389
2026-01-17 22:47:48.68	28.47	11.48	-25.2	-25.6	16.7	0.00e+00	0	33	0	10192158720	26	16488
2026-01-17 22:47:49.69	28.57	11.59	-24.9	-25.3	16.7	1.08e-05	0	33	0	10309599232	26	15959
2026-01-17 22:47:50.70	28.67	11.69	-25.0	-25.4	16.6	5.40e-06	0	34	0	10427039744	26	16219
2026-01-17 22:47:51.71	28.78	11.80	-25.1	-25.5	16.6	5.40e-06	0	34	0	10536091648	26	16367
2026-01-17 22:47:52.72	28.88	11.91	-25.0	-25.4	16.6	1.08e-05	0	34	0	10653532160	26	16067
2026-01-17 22:47:53.73	28.99	12.02	-25.0	-25.4	16.6	1.08e-05	0	34	0	10762584064	26	16078
2026-01-17 22:47:54.74	29.10	12.13	-24.9	-25.3	16.6	1.08e-05	0	34	0	10880024576	26	15894
2026-01-17 22:47:55.75	29.20	12.23	-24.7	-25.1	16.6	1.08e-05	0	34	0	10997465088	24	17510
2026-01-17 22:47:56.76	29.31	12.34	-24.7	-25.1	16.7	3.26e-05	0	34	0	11106516992	24	17544
2026-01-17 22:47:57.77	29.42	12.45	-24.7	-25.1	16.8	3.26e-05	0	34	0	11223957504	24	17564
2026-01-17 22:47:58.79	29.54	12.57	-24.8	-25.2	16.7	2.72e-05	0	34	0	11333009408	24	17768
2026-01-17 22:47:59.79	29.65	12.68	-24.6	-25.0	16.7	2.72e-05	0	34	0	11442061312	24	17288
2026-01-17 22:48:00.80	29.76	12.79	-24.6	-25.0	16.8	5.40e-06	0	34	0	11559501824	24	17215
2026-01-17 22:48:01.81	29.87	12.90	-24.6	-25.0	16.8	5.40e-06	0	34	0	11676942336	24	17272
2026-01-17 22:48:02.83	29.99	13.01	-24.5	-24.9	16.8	5.40e-06	0	34	0	11785994240	24	17157
2026-01-17 22:48:03.84	30.11	13.13	-24.4	-24.8	16.9	5.40e-06	0	34	0	11903434752	24	16957
2026-01-17 22:48:04.84	30.22	13.24	-24.4	-24.8	16.9	0.00e+00	0	34	0	12012486656	24	16821
2026-01-17 22:48:05.86	30.34	13.36	-24.4	-24.7	16.9	0.00e+00	0	34	0	12129927168	24	16809
2026-01-17 22:48:06.87	30.46	13.47	-24.4	-24.8	16.9	0.00e+00	0	34	0	12247367680	24	16862
2026-01-17 22:48:07.87	30.58	13.59	-24.4	-24.8	16.9	0.00e+00	0	34	0	12356419584	24	16851
2026-01-17 22:48:08.88	30.70	13.70	-24.4	-24.8	16.9	0.00e+00	0	34	0	12465471488	24	16954
2026-01-17 22:48:09.89	30.82	13.82	-24.4	-24.8	16.9	0.00e+00	0	34	0	12582912000	24	16930
2026-01-17 22:48:10.90	30.95	13.94	-24.5	-24.9	16.9	0.00e+00	0	34	0	12700352512	24	17072
2026-01-17 22:48:11.91	31.07	14.06	-24.4	-24.8	16.9	0.00e+00	0	34	0	12809404416	24	16891
2026-01-17 22:48:12.92	31.20	14.18	-24.1	-24.5	16.9	0.00e+00	0	34	0	12926844928	24	16406
2026-01-17 22:48:13.94	31.32	14.30	-23.9	-24.3	16.9	1.08e-05	0	34	0	13035896832	24	15999
2026-01-17 22:48:14.95	31.45	14.42	-24.1	-24.5	16.9	1.08e-05	0	34	0	13153337344	24	16294
2026-01-17 22:48:15.95	31.58	14.54	-23.8	-24.2	16.9	5.40e-06	0	34	0	13270777856	24	15856
2026-01-17 22:48:16.96	31.71	14.66	-23.8	-24.2	17.0	5.40e-06	0	34	0	13379829760	22	17740
2026-01-17 22:48:17.97	31.84	14.78	-23.7	-24.1	17.0	0.00e+00	0	34	0	13488881664	22	17584
2026-01-17 22:48:18.98	31.98	14.91	-23.8	-24.2	17.0	5.40e-06	0	34	0	13606322176	22	17645
2026-01-17 22:48:19.99	32.11	15.03	-23.7	-24.2	17.0	5.40e-06	0	34	0	13715374080	22	17614
2026-01-17 22:48:21.01	32.25	15.16	-23.7	-24.1	17.0	0.00e+00	0	34	0	13832814592	22	17515
2026-01-17 22:48:22.01	32.38	15.28	-23.7	-24.1	17.0	0.00e+00	0	34	0	13950255104	22	17465
2026-01-17 22:48:23.02	32.52	15.41	-23.7	-24.1	17.0	0.00e+00	0	34	0	14059307008	22	17578
2026-01-17 22:48:24.04	32.66	15.54	-23.7	-24.1	17.0	0.00e+00	0	34	0	14176747520	22	17430
2026-01-17 22:48:25.05	32.80	15.66	-23.7	-24.1	17.1	0.00e+00	0	34	0	14285799424	22	17434
2026-01-17 22:48:26.06	32.95	15.79	-23.6	-24.0	17.1	0.00e+00	0	34	0	14403239936	22	17371
2026-01-17 22:48:27.07	33.09	15.92	-23.6	-24.0	17.1	0.00e+00	0	34	0	14512291840	22	17312
2026-01-17 22:48:28.08	33.23	16.05	-23.6	-24.0	17.0	0.00e+00	0	34	0	14629732352	22	17239
2026-01-17 22:48:29.09	33.38	16.18	-23.5	-23.9	17.0	0.00e+00	0	34	0	14738784256	22	17059
2026-01-17 22:48:30.10	33.53	16.31	-23.4	-23.8	17.1	0.00e+00	0	34	0	14856224768	22	16910
2026-01-17 22:48:31.11	33.68	16.44	-23.6	-24.0	17.0	0.00e+00	0	34	0	14973665280	22	17267
2026-01-17 22:48:32.12	33.83	16.58	-23.3	-23.7	17.0	0.00e+00	0	34	0	15082717184	22	16682
2026-01-17 22:48:33.13	33.98	16.71	-23.1	-23.6	17.1	0.00e+00	0	34	0	15200157696	22	16431
2026-01-17 22:48:34.14	34.14	16.84	-23.1	-23.5	17.1	0.00e+00	0	34	0	15309209600	22	16405
2026-01-17 22:48:35.15	34.29	16.98	-23.0	-23.4	17.1	0.00e+00	0	34	0	15426650112	22	16155
2026-01-17 22:48:36.16	34.45	17.12	-23.0	-23.4	17.1	0.00e+00	0	34	0	15544090624	22	16141
2026-01-17 22:48:37.17	34.61	17.25	-22.9	-23.3	17.0	0.00e+00	0	34	0	15653142528	22	15974
2026-01-17 22:48:38.18	34.77	17.39	-22.9	-23.3	17.0	0.00e+00	0	34	0	15762194432	22	16008
2026-01-17 22:48:39.19	34.93	17.53	-22.9	-23.3	16.9	0.00e+00	0	34	0	15879634944	20	17849
2026-01-17 22:48:40.21	35.10	17.67	-22.8	-23.2	16.9	0.00e+00	0	34	0	15997075456	20	17791
2026-01-17 22:48:41.22	35.26	17.81	-22.8	-23.2	17.0	0.00e+00	0	34	0	16106127360	20	17805
2026-01-17 22:48:42.23	35.43	17.95	-22.9	-23.3	17.0	0.00e+00	0	34	0	16223567872	20	18008
2026-01-17 22:48:43.24	35.60	18.09	-22.8	-23.2	17.1	0.00e+00	0	34	0	16332619776	20	17724
2026-01-17 22:48:44.25	35.77	18.23	-22.5	-22.9	17.2	0.00e+00	0	34	0	16441671680	20	17059
2026-01-17 22:48:45.26	35.94	18.38	-22.4	-22.8	17.2	0.00e+00	0	34	0	16567500800	20	16935
2026-01-17 22:48:46.27	36.12	18.52	-22.6	-23.0	17.1	0.00e+00	0	34	0	16676552704	20	17272
2026-01-17 22:48:47.28	36.29	18.66	-22.3	-22.8	17.1	0.00e+00	0	34	0	16785604608	20	16842
2026-01-17 22:48:48.29	36.47	18.81	-22.4	-22.8	17.1	0.00e+00	0	34	0	16903045120	20	16987
2026-01-17 22:48:49.30	36.65	18.96	-22.5	-22.9	17.1	0.00e+00	0	34	0	17012097024	20	17146
2026-01-17 22:48:50.31	36.83	19.10	-22.2	-22.6	17.2	0.00e+00	0	34	0	17129537536	20	16563
2026-01-17 22:48:51.32	37.02	19.25	-22.2	-22.7	17.2	0.00e+00	0	34	0	17246978048	20	16682
2026-01-17 22:48:52.33	37.20	19.40	-22.0	-22.4	17.2	0.00e+00	0	34	0	17356029952	20	16239
2026-01-17 22:48:53.34	37.39	19.55	-21.9	-22.3	17.3	0.00e+00	0	34	0	17473470464	20	16011
2026-01-17 22:48:54.35	37.58	19.70	-22.0	-22.4	17.3	0.00e+00	0	34	0	17590910976	20	16160
2026-01-17 22:48:55.36	37.77	19.85	-21.9	-22.3	17.2	0.00e+00	0	34	0	17699962880	20	16040
2026-01-17 22:48:56.37	37.97	20.01	-21.9	-22.4	17.2	0.00e+00	0	34	0	17809014784	20	16079
2026-01-17 22:48:57.38	38.17	20.16	-21.9	-22.4	17.3	0.00e+00	0	34	0	17926455296	20	16057
2026-01-17 22:48:58.39	38.36	20.31	-21.9	-22.3	17.3	0.00e+00	0	34	0	18035507200	20	15978
2026-01-17 22:48:59.40	38.57	20.47	-21.8	-22.3	17.3	0.00e+00	0	34	0	18152947712	20	15895
2026-01-17 22:49:00.41	38.77	20.63	-21.8	-22.3	17.3	0.00e+00	0	34	0	18270388224	20	15902
2026-01-17 22:49:01.42	38.98	20.78	-21.7	-22.2	17.3	0.00e+00	0	34	0	18379440128	18	17656
2026-01-17 22:49:02.43	39.18	20.94	-21.8	-22.3	17.2	0.00e+00	0	34	0	18496880640	18	17814
2026-01-17 22:49:03.44	39.39	21.10	-21.5	-21.9	17.3	0.00e+00	0	34	0	18605932544	18	17106
2026-01-17 22:49:04.46	39.61	21.26	-21.6	-22.0	17.3	0.00e+00	0	34	0	18723373056	18	17370
2026-01-17 22:49:05.46	39.82	21.42	-21.4	-21.8	17.3	0.00e+00	0	34	0	18832424960	18	16957
2026-01-17 22:49:06.48	40.04	21.58	-21.3	-21.7	17.3	0.00e+00	0	34	0	18949865472	18	16760
2026-01-17 22:49:07.48	40.26	21.74	-21.2	-21.7	17.2	0.00e+00	0	34	0	19058917376	18	16712
2026-01-17 22:49:08.49	40.48	21.91	-21.2	-21.6	17.3	0.00e+00	0	34	0	19176357888	18	16523
2026-01-17 22:49:09.50	40.71	22.07	-21.1	-21.6	17.2	0.00e+00	0	34	0	19293798400	18	16474
2026-01-17 22:49:10.51	40.94	22.24	-21.3	-21.7	17.3	0.00e+00	0	34	0	19402850304	18	16702
2026-01-17 22:49:11.53	41.17	22.41	-21.0	-21.5	17.3	0.00e+00	0	34	0	19520290816	18	16313
2026-01-17 22:49:12.53	41.40	22.57	-21.1	-21.5	17.3	0.00e+00	0	34	0	19629342720	18	16349
2026-01-17 22:49:13.55	41.64	22.74	-21.0	-21.5	17.3	0.00e+00	0	34	0	19738394624	18	16268
2026-01-17 22:49:14.56	41.88	22.91	-21.0	-21.4	17.3	0.00e+00	0	34	0	19864223744	18	16190
2026-01-17 22:49:15.57	42.12	23.08	-21.0	-21.5	17.3	0.00e+00	0	34	0	19973275648	18	16294
2026-01-17 22:49:16.58	42.37	23.25	-20.7	-21.2	17.3	0.00e+00	0	34	0	20082327552	18	15731
2026-01-17 22:49:17.59	42.62	23.42	-20.6	-21.1	17.4	0.00e+00	0	34	0	20199768064	16	17452
2026-01-17 22:49:18.60	42.87	23.59	-20.5	-21.0	17.4	0.00e+00	0	34	0	20317208576	16	17231
2026-01-17 22:49:19.61	43.12	23.77	-20.6	-21.0	17.4	0.00e+00	0	34	0	20426260480	16	17285
2026-01-17 22:49:20.62	43.38	23.94	-20.5	-20.9	17.4	0.00e+00	0	34	0	20543700992	16	17153
2026-01-17 22:49:21.63	43.64	24.12	-20.5	-21.0	17.4	0.00e+00	0	34	0	20652752896	16	17260
2026-01-17 22:49:22.64	43.90	24.29	-20.4	-20.9	17.4	0.00e+00	0	34	0	20761804800	16	17007
2026-01-17 22:49:23.65	44.17	24.47	-20.6	-21.0	17.3	0.00e+00	0	34	0	20887633920	16	17374
2026-01-17 22:49:24.66	44.44	24.65	-20.4	-20.8	17.4	0.00e+00	0	34	0	20996685824	16	17002
2026-01-17 22:49:25.67	44.71	24.83	-20.1	-20.6	17.4	0.00e+00	0	34	0	21105737728	16	16477
2026-01-17 22:49:26.68	44.99	25.01	-20.0	-20.5	17.4	0.00e+00	0	34	0	21223178240	16	16282
2026-01-17 22:49:27.69	45.27	25.19	-19.9	-20.4	17.4	0.00e+00	0	34	0	21332230144	16	16073
2026-01-17 22:49:28.70	45.56	25.37	-20.0	-20.4	17.4	0.00e+00	0	34	0	21449670656	16	16171
2026-01-17 22:49:29.71	45.84	25.55	-19.9	-20.3	17.4	0.00e+00	0	34	0	21567111168	16	15943
2026-01-17 22:49:30.72	46.13	25.73	-19.9	-20.3	17.4	0.00e+00	0	34	0	21676163072	16	16038
2026-01-17 22:49:31.73	46.43	25.92	-19.8	-20.2	17.4	0.00e+00	0	34	0	21793603584	16	15858
2026-01-17 22:49:32.74	46.73	26.10	-19.7	-20.1	17.4	0.00e+00	0	34	0	21902655488	14	17514
2026-01-17 22:49:33.75	47.03	26.29	-19.7	-20.2	17.4	0.00e+00	0	34	0	22020096000	14	17634
2026-01-17 22:49:34.76	47.34	26.47	-19.6	-20.1	17.4	0.00e+00	0	34	0	22129147904	14	17425
2026-01-17 22:49:35.77	47.65	26.66	-19.4	-19.9	17.4	0.00e+00	0	34	0	22246588416	14	17012
2026-01-17 22:49:36.78	47.96	26.85	-19.3	-19.7	17.4	0.00e+00	0	34	0	22355640320	14	16782
2026-01-17 22:49:37.79	48.28	27.04	-19.2	-19.7	17.5	0.00e+00	0	34	0	22473080832	14	16718
2026-01-17 22:49:38.81	48.60	27.23	-19.4	-19.9	17.5	0.00e+00	0	34	0	22590521344	14	17024
2026-01-17 22:49:39.82	48.93	27.42	-19.2	-19.6	17.5	0.00e+00	0	34	0	22699573248	14	16601
2026-01-17 22:49:40.83	49.26	27.61	-19.0	-19.4	17.5	0.00e+00	0	34	0	22817013760	14	16163
2026-01-17 22:49:41.84	49.60	27.80	-19.0	-19.4	17.5	0.00e+00	0	34	0	22926065664	14	16228
2026-01-17 22:49:42.85	49.94	27.99	-18.9	-19.3	17.4	0.00e+00	0	34	0	23043506176	14	16040
2026-01-17 22:49:43.86	50.28	28.18	-18.8	-19.3	17.5	0.00e+00	0	34	0	23152558080	14	15920
2026-01-17 22:49:44.87	50.63	28.38	-18.8	-19.2	17.5	0.00e+00	0	34	0	23269998592	12	17726
2026-01-17 22:49:45.88	50.98	28.57	-18.8	-19.2	17.5	0.00e+00	0	34	0	23379050496	12	17714
2026-01-17 22:49:46.89	51.34	28.76	-18.8	-19.2	17.5	0.00e+00	0	34	0	23496491008	12	17803
2026-01-17 22:49:47.90	51.70	28.96	-18.5	-19.0	17.5	0.00e+00	0	34	0	23605542912	12	17262
2026-01-17 22:49:48.91	52.07	29.15	-18.6	-19.0	17.5	0.00e+00	0	34	0	23722983424	12	17310
2026-01-17 22:49:49.92	52.44	29.35	-18.4	-18.8	17.5	0.00e+00	0	34	0	23840423936	12	16984
2026-01-17 22:49:50.93	52.82	29.54	-18.4	-18.9	17.5	0.00e+00	0	34	0	23949475840	12	17072
2026-01-17 22:49:51.94	53.20	29.74	-18.3	-18.7	17.5	0.00e+00	0	34	0	24058527744	12	16726
2026-01-17 22:49:52.95	53.58	29.93	-18.2	-18.7	17.5	0.00e+00	0	35	0	24175968256	12	16696
2026-01-17 22:49:53.96	53.98	30.13	-18.2	-18.6	17.4	0.00e+00	0	35	0	24293408768	12	16576
2026-01-17 22:49:54.96	54.37	30.33	-18.2	-18.6	17.5	0.00e+00	0	34	0	24402460672	12	16526
2026-01-17 22:49:55.97	54.77	30.52	-18.1	-18.5	17.5	0.00e+00	0	35	0	24519901184	12	16395
2026-01-17 22:49:56.98	55.18	30.72	-18.1	-18.6	17.5	0.00e+00	0	35	0	24628953088	12	16521
2026-01-17 22:49:57.99	55.59	30.92	-18.0	-18.5	17.5	0.00e+00	0	35	0	24746393600	12	16288
2026-01-17 22:49:59.00	56.01	31.11	-17.8	-18.2	17.6	0.00e+00	0	35	0	24863834112	10	17756
2026-01-17 22:50:00.01	56.43	31.31	-17.8	-18.2	17.5	0.00e+00	0	34	0	24972886016	10	17688
2026-01-17 22:50:01.02	56.86	31.51	-17.6	-18.1	17.5	0.00e+00	0	34	0	25081937920	10	17444
2026-01-17 22:50:02.03	57.30	31.71	-17.5	-17.9	17.6	0.00e+00	0	34	0	25199378432	10	17167
2026-01-17 22:50:03.04	57.74	31.90	-17.6	-18.0	17.6	0.00e+00	0	34	0	25308430336	10	17327
2026-01-17 22:50:04.05	58.18	32.10	-17.4	-17.8	17.5	0.00e+00	0	35	0	25425870848	10	16948
2026-01-17 22:50:05.07	58.64	32.30	-17.3	-17.8	17.5	0.00e+00	0	34	0	25543311360	10	16835
2026-01-17 22:50:06.07	59.09	32.49	-17.4	-17.8	17.5	0.00e+00	0	34	0	25652363264	10	16965
2026-01-17 22:50:07.08	59.55	32.69	-17.3	-17.8	17.5	0.00e+00	0	34	0	25769803776	10	16851
2026-01-17 22:50:08.09	60.02	32.88	-17.3	-17.8	17.5	0.00e+00	0	35	0	25878855680	10	16814
2026-01-17 22:50:09.09	60.49	33.08	-17.3	-17.7	17.6	0.00e+00	0	34	0	25987907584	10	16783
2026-01-17 22:50:10.10	60.98	33.27	-17.1	-17.6	17.6	0.00e+00	0	34	0	26113736704	10	16501
2026-01-17 22:50:11.11	61.46	33.46	-17.4	-17.8	17.6	0.00e+00	0	35	0	26222788608	10	16956
2026-01-17 22:50:12.12	61.96	33.66	-17.2	-17.7	17.6	0.00e+00	0	34	0	26331840512	10	16621
2026-01-17 22:50:13.13	62.46	33.85	-17.1	-17.5	17.6	0.00e+00	0	34	0	26449281024	10	16418
2026-01-17 22:50:14.14	62.96	34.04	-17.0	-17.5	17.6	0.00e+00	0	34	0	26558332928	10	16305
2026-01-17 22:50:15.15	63.48	34.23	-17.0	-17.4	17.6	0.00e+00	0	35	0	26675773440	10	16194
2026-01-17 22:50:16.16	63.99	34.42	-16.9	-17.4	17.6	0.00e+00	0	35	0	26793213952	10	16117
2026-01-17 22:50:17.17	64.52	34.60	-16.9	-17.4	17.6	0.00e+00	0	35	0	26902265856	10	16104
2026-01-17 22:50:18.18	65.05	34.79	-16.8	-17.2	17.7	0.00e+00	0	34	0	27011317760	8	17739
2026-01-17 22:50:19.19	65.59	34.98	-16.8	-17.3	17.6	0.00e+00	0	35	0	27128758272	8	17808
2026-01-17 22:50:20.20	66.13	35.16	-16.7	-17.2	17.7	0.00e+00	0	35	0	27237810176	8	17633
2026-01-17 22:50:21.21	66.68	35.34	-16.8	-17.2	17.6	0.00e+00	0	34	0	27355250688	8	17756
2026-01-17 22:50:22.22	67.24	35.52	-16.6	-17.1	17.7	0.00e+00	0	35	0	27472691200	8	17494
2026-01-17 22:50:23.23	67.81	35.70	-16.6	-17.0	17.7	0.00e+00	0	34	0	27581743104	8	17345
2026-01-17 22:50:24.24	68.38	35.88	-16.7	-17.1	17.7	0.00e+00	0	35	0	27699183616	8	17511
2026-01-17 22:50:25.25	68.95	36.05	-16.7	-17.1	17.7	0.00e+00	0	35	0	27816624128	8	17539
2026-01-17 22:50:26.26	69.54	36.23	-16.5	-16.9	17.7	0.00e+00	0	35	0	27925676032	8	17163
2026-01-17 22:50:27.27	70.13	36.40	-16.4	-16.8	17.7	0.00e+00	0	35	0	28043116544	8	17002
2026-01-17 22:50:28.28	70.72	36.57	-16.4	-16.8	17.6	0.00e+00	0	35	0	28152168448	8	16980
2026-01-17 22:50:29.29	71.33	36.73	-16.3	-16.8	17.6	0.00e+00	0	35	0	28261220352	8	16831
2026-01-17 22:50:30.30	71.94	36.90	-16.3	-16.8	17.6	0.00e+00	0	34	0	28378660864	8	16880
2026-01-17 22:50:31.31	72.55	37.06	-16.3	-16.8	17.6	0.00e+00	0	35	0	28496101376	8	16862
2026-01-17 22:50:32.32	73.17	37.22	-16.2	-16.6	17.6	0.00e+00	0	34	0	28605153280	8	16512
2026-01-17 22:50:33.33	73.80	37.37	-16.3	-16.8	17.7	0.00e+00	0	35	0	28722593792	8	16859
2026-01-17 22:50:34.34	74.44	37.53	-16.1	-16.6	17.7	0.00e+00	0	35	0	28831645696	8	16429
2026-01-17 22:50:35.35	75.08	37.68	-16.1	-16.5	17.7	0.00e+00	0	34	0	28949086208	8	16341
2026-01-17 22:50:36.36	75.72	37.82	-16.0	-16.5	17.7	0.00e+00	0	34	0	29066526720	8	16277
2026-01-17 22:50:37.37	76.38	37.97	-16.1	-16.5	17.7	0.00e+00	0	35	0	29175578624	8	16348
2026-01-17 22:50:38.38	77.04	38.11	-16.0	-16.5	17.7	0.00e+00	0	35	0	29284630528	8	16242
2026-01-17 22:50:39.39	77.70	38.25	-16.0	-16.4	17.6	0.00e+00	0	35	0	29402071040	8	16163
2026-01-17 22:50:40.40	78.37	38.38	-15.9	-16.3	17.6	0.00e+00	0	34	0	29519511552	8	15959
2026-01-17 22:50:41.41	79.05	38.51	-15.9	-16.4	17.6	0.00e+00	0	35	0	29628563456	8	16062
2026-01-17 22:50:42.42	79.73	38.64	-15.8	-16.3	17.6	0.00e+00	0	35	0	29746003968	8	15895
2026-01-17 22:50:43.43	80.42	38.76	-15.7	-16.1	17.6	0.00e+00	0	35	0	29855055872	6	17531
2026-01-17 22:50:44.45	81.12	38.88	-15.6	-16.1	17.6	0.00e+00	0	35	0	29972496384	6	17443
2026-01-17 22:50:45.46	81.82	38.99	-15.6	-16.1	17.6	0.00e+00	0	35	0	30089936896	6	17448
2026-01-17 22:50:46.47	82.52	39.10	-15.6	-16.1	17.6	0.00e+00	0	35	0	30198988800	6	17476
2026-01-17 22:50:47.48	83.23	39.21	-15.7	-16.1	17.6	0.00e+00	0	35	0	30308040704	6	17546
2026-01-17 22:50:48.49	83.95	39.31	-15.6	-16.1	17.6	0.00e+00	0	35	0	30425481216	6	17432
2026-01-17 22:50:49.50	84.66	39.41	-15.6	-16.0	17.6	0.00e+00	0	35	0	30534533120	6	17274
2026-01-17 22:50:50.51	85.39	39.50	-15.4	-15.8	17.6	0.00e+00	0	35	0	30651973632	6	16939
2026-01-17 22:50:51.52	86.11	39.59	-15.5	-15.9	17.6	0.00e+00	0	35	0	30769414144	6	17121
2026-01-17 22:50:52.53	86.84	39.67	-15.5	-16.0	17.6	0.00e+00	0	35	0	30878466048	6	17217
2026-01-17 22:50:53.54	87.58	39.75	-15.4	-15.8	17.6	0.00e+00	0	35	0	30995906560	6	16930
2026-01-17 22:50:54.55	88.32	39.83	-15.5	-15.9	17.6	0.00e+00	0	35	0	31104958464	6	17123
2026-01-17 22:50:55.56	89.06	39.90	-15.4	-15.9	17.6	0.00e+00	0	35	0	31222398976	6	17016
2026-01-17 22:50:56.57	89.80	39.96	-15.4	-15.9	17.6	0.00e+00	0	35	0	31331450880	6	17042
2026-01-17 22:50:57.58	90.55	40.02	-15.3	-15.8	17.5	0.00e+00	0	35	0	31448891392	6	16857
2026-01-17 22:50:58.59	91.30	40.07	-15.4	-15.8	17.6	0.00e+00	0	35	0	31557943296	6	16887
2026-01-17 22:50:59.60	92.05	40.12	-15.4	-15.8	17.5	0.00e+00	0	35	0	31675383808	6	16956
2026-01-17 22:51:00.61	92.81	40.17	-15.3	-15.8	17.5	0.00e+00	0	35	0	31792824320	6	16816
2026-01-17 22:51:01.62	93.56	40.20	-15.3	-15.7	17.5	0.00e+00	0	35	0	31901876224	6	16738
2026-01-17 22:51:02.63	94.32	40.24	-15.5	-15.9	17.5	0.00e+00	0	35	0	32019316736	6	17196
2026-01-17 22:51:03.64	95.08	40.26	-15.4	-15.9	17.5	0.00e+00	0	35	0	32128368640	6	17019
2026-01-17 22:51:04.65	95.85	40.29	-15.3	-15.7	17.5	0.00e+00	0	35	0	32237420544	6	16805
2026-01-17 22:51:05.66	96.61	40.30	-15.4	-15.8	17.5	0.00e+00	0	35	0	32354861056	6	16925
2026-01-17 22:51:06.67	97.37	40.31	-15.5	-15.9	17.5	0.00e+00	0	35	0	32472301568	6	17110
2026-01-17 22:51:07.68	98.14	40.32	-15.4	-15.8	17.5	0.00e+00	0	35	0	32581353472	6	16941
2026-01-17 22:51:08.69	98.90	40.32	-15.4	-15.8	17.5	0.00e+00	0	35	0	32698793984	6	16986
2026-01-17 22:51:09.70	99.66	40.32	-15.6	-16.0	17.5	0.00e+00	0	35	0	32816234496	6	17270
2026-01-17 22:51:10.71	100.43	40.31	-15.5	-15.9	17.5	0.00e+00	0	35	0	32925286400	6	17029
2026-01-17 22:51:11.72	101.19	40.29	-15.5	-15.9	17.5	0.00e+00	0	35	0	33042726912	6	17167
2026-01-17 22:51:12.73	101.95	40.27	-15.5	-15.9	17.5	0.00e+00	0	35	0	33151778816	6	17078
2026-01-17 22:51:13.74	102.71	40.24	-15.5	-15.9	17.5	0.00e+00	0	35	0	33260830720	6	17192
2026-01-17 22:51:14.75	103.47	40.21	-15.7	-16.1	17.5	0.00e+00	0	35	0	33378271232	6	17532
2026-01-17 22:51:15.76	104.23	40.17	-15.6	-16.0	17.5	0.00e+00	0	35	0	33495711744	6	17392
2026-01-17 22:51:16.77	104.99	40.13	-15.6	-16.0	17.5	0.00e+00	0	35	0	33604763648	6	17284
2026-01-17 22:51:17.78	105.74	40.08	-15.6	-16.0	17.5	0.00e+00	0	35	0	33722204160	6	17286
2026-01-17 22:51:18.79	106.49	40.03	-15.5	-16.0	17.5	0.00e+00	0	35	0	33831256064	6	17213
2026-01-17 22:51:19.80	107.24	39.97	-15.5	-16.0	17.5	0.00e+00	0	35	0	33948696576	6	17205
2026-01-17 22:51:20.81	107.99	39.91	-15.6	-16.0	17.5	0.00e+00	0	35	0	34066137088	6	17302
2026-01-17 22:51:21.82	108.73	39.84	-15.5	-15.9	17.5	0.00e+00	0	35	0	34175188992	6	17188
2026-01-17 22:51:22.83	109.47	39.77	-15.5	-15.9	17.5	0.00e+00	0	35	0	34284240896	6	17129
2026-01-17 22:51:23.84	110.21	39.69	-15.5	-15.9	17.6	0.00e+00	0	35	0	34401681408	6	17165
2026-01-17 22:51:24.85	110.94	39.61	-15.5	-15.9	17.5	0.00e+00	0	35	0	34519121920	6	17021
2026-01-17 22:51:25.86	111.67	39.52	-15.5	-15.8	17.6	0.00e+00	0	35	0	34628173824	6	16990
2026-01-17 22:51:26.87	112.39	39.43	-15.6	-16.0	17.5	0.00e+00	0	35	0	34745614336	6	17266
2026-01-17 22:51:27.88	113.11	39.33	-15.5	-15.9	17.6	0.00e+00	0	35	0	34854666240	6	17171
2026-01-17 22:51:28.89	113.83	39.23	-15.6	-16.0	17.5	0.00e+00	0	35	0	34972106752	6	17247
2026-01-17 22:51:29.90	114.54	39.12	-15.7	-16.1	17.5	0.00e+00	0	35	0	35089547264	6	17426
2026-01-17 22:51:30.91	115.24	39.01	-15.6	-16.0	17.5	0.00e+00	0	35	0	35198599168	6	17386
2026-01-17 22:51:31.92	115.94	38.90	-15.6	-16.0	17.5	0.00e+00	0	35	0	35316039680	6	17218
2026-01-17 22:51:32.93	116.64	38.78	-49.2	-51.6	6.1	0.00e+00	0	34	104	35357982720	60	46634
2026-01-17 22:51:33.94	117.33	38.66	-49.1	-51.6	6.1	0.00e+00	0	34	104	35357982720	60	46482
2026-01-17 22:51:34.95	118.01	38.53	-49.0	-51.5	6.1	0.00e+00	0	34	104	35357982720	60	46149
2026-01-17 22:51:35.96	118.69	38.40	-49.0	-51.5	6.1	0.00e+00	0	34	104	35357982720	60	46131
2026-01-17 22:51:36.97	119.37	38.27	-49.1	-51.5	6.1	0.00e+00	0	34	104	35357982720	60	46241
2026-01-17 22:51:37.98	120.04	38.13	-48.9	-51.4	6.1	0.00e+00	0	34	104	35357982720	60	45554
2026-01-17 22:51:38.99	120.70	37.99	-49.1	-51.6	6.1	0.00e+00	0	34	104	35357982720	60	46384
2026-01-17 22:51:40.00	121.35	37.85	-48.9	-51.4	6.1	0.00e+00	0	34	104	35357982720	60	45531
2026-01-17 22:51:41.01	122.00	37.70	-48.6	-51.2	6.1	0.00e+00	0	35	104	35357982720	60	44497
2026-01-17 22:51:42.02	122.65	37.55	-48.7	-51.3	6.1	0.00e+00	0	34	104	35357982720	60	44973
2026-01-17 22:51:43.03	123.29	37.40	-48.9	-51.4	6.1	0.00e+00	0	34	104	35357982720	60	45641
2026-01-17 22:51:44.04	123.92	37.24	-49.0	-51.5	6.1	0.00e+00	0	34	104	35357982720	60	46209
2026-01-17 22:51:45.05	124.54	37.08	-49.0	-51.4	6.1	0.00e+00	0	34	104	35357982720	60	45693
2026-01-17 22:51:46.06	125.16	36.92	-48.9	-51.3	6.1	0.00e+00	0	35	104	35357982720	60	45218
2026-01-17 22:51:47.07	125.77	36.76	-49.1	-51.6	6.1	0.00e+00	0	34	104	35357982720	60	46513
2026-01-17 22:51:48.08	126.38	36.59	-49.1	-51.6	6.1	0.00e+00	0	34	104	35357982720	60	46786
2026-01-17 22:51:49.08	126.97	36.42	-48.8	-51.4	6.1	0.00e+00	0	34	104	35357982720	60	45362
2026-01-17 22:51:50.09	127.57	36.25	-48.6	-51.2	6.1	0.00e+00	0	34	104	35357982720	60	44455
2026-01-17 22:51:51.10	128.15	36.08	-48.9	-51.4	6.1	0.00e+00	0	34	104	35357982720	60	45634
2026-01-17 22:51:52.12	128.74	35.90	-48.9	-51.4	6.1	0.00e+00	0	34	104	35357982720	60	45416
2026-01-17 22:51:53.13	129.31	35.72	-49.0	-51.5	6.1	0.00e+00	0	34	104	35357982720	60	45895
2026-01-17 22:51:54.14	129.88	35.55	-49.1	-51.6	6.1	0.00e+00	0	34	104	35357982720	60	46343
2026-01-17 22:51:55.14	130.43	35.37	-49.1	-51.5	6.1	0.00e+00	0	34	104	35357982720	60	46091
2026-01-17 22:51:56.15	130.99	35.18	-49.0	-51.5	6.1	0.00e+00	0	34	104	35357982720	60	46022
2026-01-17 22:51:57.16	131.53	35.00	-48.9	-51.4	6.1	0.00e+00	0	34	104	35357982720	60	45291
2026-01-17 22:51:58.17	132.07	34.81	-49.1	-51.6	6.1	0.00e+00	0	34	104	35357982720	60	46346
2026-01-17 22:51:59.18	132.61	34.63	-49.1	-51.6	6.1	0.00e+00	0	34	104	35357982720	60	46454
2026-01-17 22:52:00.19	133.14	34.44	-49.1	-51.6	6.0	0.00e+00	0	34	104	35357982720	60	46763
2026-01-17 22:52:01.20	133.66	34.25	-49.1	-51.6	6.1	0.00e+00	0	34	104	35357982720	60	46430
2026-01-17 22:52:02.21	134.17	34.06	-49.1	-51.6	6.1	0.00e+00	0	34	104	35357982720	60	46299
2026-01-17 22:52:03.22	134.68	33.87	-49.0	-51.5	6.1	0.00e+00	0	34	104	35357982720	60	45986
2026-01-17 22:52:04.23	135.19	33.67	-49.1	-51.6	6.1	0.00e+00	0	35	104	35357982720	60	46458
2026-01-17 22:52:05.24	135.68	33.48	-48.9	-51.4	6.1	0.00e+00	0	34	104	35357982720	60	45578
2026-01-17 22:52:06.25	136.17	33.29	-48.9	-51.4	6.1	0.00e+00	0	35	104	35357982720	60	45529
2026-01-17 22:52:07.26	136.66	33.09	-48.9	-51.4	6.1	0.00e+00	0	34	104	35357982720	60	45470
2026-01-17 22:52:08.27	137.13	32.90	-49.0	-51.5	6.1	0.00e+00	0	34	104	35357982720	60	46068
2026-01-17 22:52:09.28	137.61	32.70	-49.0	-51.5	6.1	0.00e+00	0	34	104	35357982720	60	45873
2026-01-17 22:52:10.29	138.07	32.50	-49.0	-51.5	6.1	0.00e+00	0	34	104	35357982720	60	45903
2026-01-17 22:52:11.30	138.53	32.31	-49.1	-51.5	6.1	0.00e+00	0	34	104	35357982720	60	46231
2026-01-17 22:52:12.31	138.99	32.11	-49.0	-51.6	6.1	0.00e+00	0	34	104	35357982720	60	46351
2026-01-17 22:52:13.32	139.44	31.91	-49.0	-51.5	6.1	0.00e+00	0	34	104	35357982720	60	45880
2026-01-17 22:52:14.33	139.88	31.71	-49.1	-51.5	6.1	0.00e+00	0	34	104	35357982720	60	46143
2026-01-17 22:52:15.34	140.32	31.51	-49.1	-51.5	6.1	0.00e+00	0	34	104	35357982720	60	45956
2026-01-17 22:52:16.35	140.75	31.32	-49.0	-51.5	6.1	0.00e+00	0	34	104	35357982720	60	46199
2026-01-17 22:52:17.36	141.17	31.12	-48.9	-51.4	6.0	0.00e+00	0	34	104	35357982720	60	45469
2026-01-17 22:52:18.37	141.59	30.92	-49.0	-51.5	6.1	0.00e+00	0	34	104	35357982720	60	46274
2026-01-17 22:52:19.38	142.01	30.72	-48.9	-51.4	6.1	0.00e+00	0	34	104	35357982720	60	45612
2026-01-17 22:52:20.39	142.42	30.52	-49.0	-51.5	6.1	0.00e+00	0	34	104	35357982720	60	45807
2026-01-17 22:52:21.40	142.82	30.32	-49.0	-51.5	6.1	0.00e+00	0	34	104	35357982720	60	46002
2026-01-17 22:52:22.41	143.22	30.13	-49.0	-51.5	6.1	0.00e+00	0	34	104	35357982720	60	45933
2026-01-17 22:52:23.42	143.61	29.93	-49.0	-51.4	6.1	0.00e+00	0	34	104	35357982720	60	45753
2026-01-17 22:52:24.43	144.00	29.73	-49.0	-51.4	6.1	0.00e+00	0	34	104	35357982720	60	45589
2026-01-17 22:52:25.44	144.39	29.53	-48.9	-51.4	6.1	0.00e+00	0	34	104	35357982720	60	45640
2026-01-17 22:52:26.45	144.76	29.34	-49.0	-51.4	6.1	0.00e+00	0	34	104	35357982720	60	45731
2026-01-17 22:52:27.46	145.14	29.14	-49.0	-51.5	6.1	0.00e+00	0	34	104	35357982720	60	45873
2026-01-17 22:52:28.47	145.51	28.95	-49.0	-51.5	6.1	0.00e+00	0	34	104	35357982720	60	45860
2026-01-17 22:52:29.48	145.87	28.75	-48.9	-51.4	6.1	0.00e+00	0	34	104	35357982720	60	45419
2026-01-17 22:52:30.49	146.23	28.55	-49.0	-51.5	6.1	0.00e+00	0	34	104	35357982720	60	45802
2026-01-17 22:52:31.51	146.59	28.36	-49.0	-51.4	6.1	0.00e+00	0	34	104	35357982720	60	45642
2026-01-17 22:52:32.52	146.94	28.16	-48.9	-51.3	6.1	0.00e+00	0	34	104	35357982720	60	45241
2026-01-17 22:52:33.52	147.28	27.97	-49.0	-51.4	6.1	0.00e+00	0	34	104	35357982720	60	45540
2026-01-17 22:52:34.53	147.62	27.78	-49.0	-51.4	6.1	0.00e+00	0	34	104	35357982720	60	45477
2026-01-17 22:52:35.55	147.96	27.59	-48.9	-51.4	6.1	0.00e+00	0	34	104	35357982720	60	45288
2026-01-17 22:52:36.56	148.30	27.39	-48.9	-51.4	6.1	0.00e+00	0	34	104	35357982720	60	45396
2026-01-17 22:52:37.57	148.62	27.20	-48.8	-51.3	6.1	0.00e+00	0	34	104	35357982720	60	45129
2026-01-17 22:52:38.58	148.95	27.01	-48.9	-51.4	6.0	0.00e+00	0	34	104	35357982720	60	45695
2026-01-17 22:52:39.59	149.27	26.82	-48.8	-51.3	6.1	0.00e+00	0	34	104	35357982720	60	45061
2026-01-17 22:52:40.60	149.58	26.63	-48.9	-51.4	6.1	0.00e+00	0	34	104	35357982720	60	45442
2026-01-17 22:52:41.61	149.90	26.45	-48.8	-51.4	6.1	0.00e+00	0	34	104	35357982720	60	45334
2026-01-17 22:52:42.62	150.20	26.26	-48.9	-51.4	6.1	0.00e+00	0	34	104	35357982720	60	45313
2026-01-17 22:52:43.63	150.51	26.07	-48.9	-51.4	6.1	0.00e+00	0	34	104	35357982720	60	45505
2026-01-17 22:52:44.64	150.81	25.89	-48.9	-51.4	6.1	0.00e+00	0	34	104	35357982720	60	45468
2026-01-17 22:52:45.65	151.10	25.70	-48.7	-51.3	6.1	0.00e+00	0	34	104	35357982720	60	44846
2026-01-17 22:52:46.65	151.39	25.52	-48.9	-51.4	6.0	0.00e+00	0	34	104	35357982720	60	45287
2026-01-17 22:52:47.66	151.68	25.34	-48.9	-51.3	6.1	0.00e+00	0	34	104	35357982720	60	45170
2026-01-17 22:52:48.67	151.97	25.15	-48.9	-51.4	6.1	0.00e+00	0	34	104	35357982720	60	45361
2026-01-17 22:52:49.68	152.25	24.97	-48.9	-51.3	6.1	0.00e+00	0	34	104	35357982720	60	45138
2026-01-17 22:52:50.70	152.53	24.79	-48.8	-51.3	6.1	0.00e+00	0	34	104	35357982720	60	44774
2026-01-17 22:52:51.71	152.81	24.61	-48.9	-51.4	6.1	0.00e+00	0	34	104	35357982720	60	45364
2026-01-17 22:52:52.72	153.08	24.43	-48.7	-51.2	6.1	0.00e+00	0	34	104	35357982720	60	44306
2026-01-17 22:52:53.73	153.35	24.25	-48.8	-51.3	6.1	0.00e+00	0	34	104	35357982720	60	44976
2026-01-17 22:52:54.73	153.61	24.08	-48.9	-51.4	6.1	0.00e+00	0	34	104	35357982720	60	45256
2026-01-17 22:52:55.74	153.87	23.90	-48.7	-51.2	6.1	0.00e+00	0	34	104	35357982720	60	44314
2026-01-17 22:52:56.75	154.13	23.72	-48.8	-51.2	6.1	0.00e+00	0	34	104	35357982720	60	44582
2026-01-17 22:52:57.76	154.38	23.55	-48.7	-51.2	6.1	0.00e+00	0	34	104	35357982720	60	44539
2026-01-17 22:52:58.77	154.64	23.38	-48.8	-51.3	6.1	0.00e+00	0	34	104	35357982720	60	45125
2026-01-17 22:52:59.78	154.89	23.20	-48.8	-51.2	6.1	0.00e+00	0	34	104	35357982720	60	44675
2026-01-17 22:53:00.79	155.13	23.03	-48.8	-51.3	6.1	0.00e+00	0	34	104	35357982720	60	44921
2026-01-17 22:53:01.80	155.37	22.86	-48.8	-51.3	6.1	0.00e+00	0	34	104	35357982720	60	44747
2026-01-17 22:53:02.81	155.62	22.69	-48.7	-51.2	6.1	0.00e+00	0	34	104	35357982720	60	44307
2026-01-17 22:53:03.82	155.85	22.52	-48.8	-51.3	6.1	0.00e+00	0	34	104	35357982720	60	44843
2026-01-17 22:53:04.83	156.09	22.35	-48.7	-51.2	6.1	0.00e+00	0	34	104	35357982720	60	44219
2026-01-17 22:53:05.84	156.32	22.19	-48.8	-51.2	6.1	0.00e+00	0	34	104	35357982720	60	44725
2026-01-17 22:53:06.85	156.55	22.02	-48.7	-51.2	6.1	0.00e+00	0	34	104	35357982720	60	44343
2026-01-17 22:53:07.86	156.78	21.85	-48.7	-51.2	6.1	0.00e+00	0	34	104	35357982720	60	44625
2026-01-17 22:53:08.86	157.00	21.69	-48.7	-51.2	6.1	0.00e+00	0	34	104	35357982720	60	44553
2026-01-17 22:53:09.87	157.22	21.53	-48.8	-51.2	6.1	0.00e+00	0	34	104	35357982720	60	44700
2026-01-17 22:53:10.88	157.44	21.36	-48.7	-51.2	6.1	0.00e+00	0	34	104	35357982720	60	44294
2026-01-17 22:53:11.89	157.65	21.20	-48.8	-51.3	6.1	0.00e+00	0	34	104	35357982720	60	44924
2026-01-17 22:53:12.90	157.87	21.04	-48.6	-51.1	6.1	0.00e+00	0	34	104	35357982720	60	44124
2026-01-17 22:53:13.91	158.08	20.88	-48.6	-51.2	6.1	0.00e+00	0	34	104	35357982720	60	44273
2026-01-17 22:53:14.92	158.29	20.72	-48.6	-51.1	6.1	0.00e+00	0	34	104	35357982720	60	44004
2026-01-17 22:53:15.92	158.49	20.57	-48.5	-51.1	6.1	0.00e+00	0	34	104	35357982720	60	43734
2026-01-17 22:53:16.93	158.70	20.41	-48.6	-51.1	6.1	0.00e+00	0	34	104	35357982720	60	43796
2026-01-17 22:53:17.94	158.90	20.25	-48.6	-51.2	6.1	0.00e+00	0	34	104	35357982720	60	44305
2026-01-17 22:53:18.95	159.10	20.10	-48.6	-51.1	6.1	0.00e+00	0	34	104	35357982720	60	44016
2026-01-17 22:53:19.96	159.30	19.94	-48.7	-51.1	6.1	0.00e+00	0	34	104	35357982720	60	43979
2026-01-17 22:53:20.97	159.49	19.79	-48.7	-51.1	6.1	0.00e+00	0	34	104	35357982720	60	44205
2026-01-17 22:53:21.98	159.68	19.64	-48.5	-51.0	6.1	0.00e+00	0	34	104	35357982720	60	43494
2026-01-17 22:53:22.99	159.87	19.48	-48.7	-51.2	6.1	0.00e+00	0	34	104	35357982720	60	44377
2026-01-17 22:53:24.00	160.06	19.33	-48.7	-51.2	6.1	0.00e+00	0	34	104	35357982720	60	44439
2026-01-17 22:53:25.01	160.25	19.18	-48.7	-51.2	6.1	0.00e+00	0	34	104	35357982720	60	44345
2026-01-17 22:53:26.02	160.44	19.03	-48.8	-51.1	6.1	0.00e+00	0	34	104	35357982720	60	44160
2026-01-17 22:53:27.03	160.62	18.89	-48.4	-51.0	6.1	0.00e+00	0	34	104	35357982720	60	43269
2026-01-17 22:53:28.03	160.80	18.74	-48.7	-51.2	6.1	0.00e+00	0	34	104	35357982720	60	44506
2026-01-17 22:53:29.04	160.98	18.59	-48.6	-51.1	6.1	0.00e+00	0	34	104	35357982720	60	44106
2026-01-17 22:53:30.05	161.15	18.45	-48.7	-51.2	6.1	0.00e+00	0	34	104	35357982720	60	44409
2026-01-17 22:53:31.06	161.33	18.30	-48.6	-51.0	6.1	0.00e+00	0	34	104	35357982720	60	43602
2026-01-17 22:53:32.07	161.50	18.16	-48.5	-51.0	6.1	0.00e+00	0	34	104	35357982720	60	43601
2026-01-17 22:53:33.08	161.67	18.01	-48.4	-50.9	6.1	0.00e+00	0	34	104	35357982720	60	42832
2026-01-17 22:53:34.09	161.84	17.87	-48.6	-51.1	6.1	0.00e+00	0	34	104	35357982720	60	44010
2026-01-17 22:53:35.10	162.01	17.73	-48.4	-50.9	6.1	0.00e+00	0	34	104	35357982720	60	42961
2026-01-17 22:53:36.11	162.18	17.59	-48.6	-51.1	6.1	0.00e+00	0	34	104	35357982720	60	43963
2026-01-17 22:53:37.12	162.34	17.45	-48.3	-50.9	6.1	0.00e+00	0	34	104	35357982720	60	42766
2026-01-17 22:53:38.13	162.50	17.31	-48.4	-50.9	6.1	0.00e+00	0	34	104	35357982720	60	42857
2026-01-17 22:53:39.13	162.66	17.17	-48.3	-50.8	6.1	0.00e+00	0	34	104	35357982720	60	42573
2026-01-17 22:53:40.14	162.82	17.04	-48.6	-51.1	6.1	0.00e+00	0	34	104	35357982720	60	43847
2026-01-17 22:53:41.15	162.98	16.90	-48.7	-51.2	6.1	0.00e+00	0	34	104	35357982720	60	44257
2026-01-17 22:53:42.16	163.14	16.76	-48.4	-50.9	6.1	0.00e+00	0	34	104	35357982720	60	43104
2026-01-17 22:53:43.17	163.29	16.63	-48.5	-51.0	6.1	0.00e+00	0	34	104	35357982720	60	43416
2026-01-17 22:53:44.18	163.44	16.49	-48.6	-51.1	6.1	0.00e+00	0	34	104	35357982720	60	44026
2026-01-17 22:53:45.19	163.59	16.36	-48.6	-51.1	6.1	0.00e+00	0	34	104	35357982720	60	44126
2026-01-17 22:53:46.20	163.74	16.23	-48.7	-51.1	6.1	0.00e+00	0	34	104	35357982720	60	44063
2026-01-17 22:53:47.21	163.89	16.10	-48.7	-51.1	6.1	0.00e+00	0	34	104	35357982720	60	44111
2026-01-17 22:53:48.22	164.04	15.96	-48.3	-50.9	6.1	0.00e+00	0	34	104	35357982720	60	43133
2026-01-17 22:53:49.23	164.18	15.83	-48.3	-50.9	6.1	0.00e+00	0	34	104	35357982720	60	42729
2026-01-17 22:53:50.24	164.33	15.70	-48.6	-51.1	6.1	0.00e+00	0	34	104	35357982720	60	43912
2026-01-17 22:53:51.25	164.47	15.58	-48.5	-51.0	6.1	0.00e+00	0	34	104	35357982720	60	43352
2026-01-17 22:53:52.26	164.61	15.45	-48.7	-51.1	6.1	0.00e+00	0	34	104	35357982720	60	44116
2026-01-17 22:53:53.27	164.75	15.32	-48.4	-50.9	6.1	0.00e+00	0	34	104	35357982720	60	43189
2026-01-17 22:53:54.28	164.89	15.19	-48.4	-50.9	6.1	0.00e+00	0	34	104	35357982720	60	42822
2026-01-17 22:53:55.29	165.03	15.07	-48.3	-50.9	6.1	0.00e+00	0	34	104	35357982720	60	42758
2026-01-17 22:53:56.30	165.16	14.94	-48.7	-51.1	6.1	0.00e+00	0	34	104	35357982720	60	44143
2026-01-17 22:53:57.30	165.30	14.82	-48.7	-51.1	6.1	0.00e+00	0	34	104	35357982720	60	44019
2026-01-17 22:53:58.31	165.43	14.69	-48.4	-51.0	6.1	0.00e+00	0	34	104	35357982720	60	43370
2026-01-17 22:53:59.32	165.56	14.57	-48.5	-51.0	6.1	0.00e+00	0	34	104	35357982720	60	43354
2026-01-17 22:54:00.33	165.69	14.45	-48.6	-51.1	6.1	0.00e+00	0	34	104	35357982720	60	43721
2026-01-17 22:54:01.34	165.82	14.32	-48.5	-51.0	6.1	0.00e+00	0	34	104	35357982720	60	43404
2026-01-17 22:54:02.35	165.95	14.20	-48.6	-51.1	6.1	0.00e+00	0	34	104	35357982720	60	43957
2026-01-17 22:54:03.36	166.08	14.08	-48.6	-51.2	6.1	0.00e+00	0	34	104	35357982720	60	44231
2026-01-17 22:54:04.37	166.20	13.96	-48.4	-51.0	6.1	0.00e+00	0	34	104	35357982720	60	43249
2026-01-17 22:54:05.38	166.33	13.84	-48.2	-50.8	6.1	0.00e+00	0	34	104	35357982720	60	42292
2026-01-17 22:54:06.39	166.45	13.72	-48.5	-50.9	6.1	0.00e+00	0	34	104	35357982720	60	43203
2026-01-17 22:54:07.40	166.58	13.61	-48.4	-50.9	6.1	0.00e+00	0	34	104	35357982720	60	42850
2026-01-17 22:54:08.41	166.70	13.49	-48.4	-50.9	6.1	0.00e+00	0	34	104	35357982720	60	42878
2026-01-17 22:54:09.42	166.82	13.37	-48.3	-50.8	6.1	0.00e+00	0	34	104	35357982720	60	42345
2026-01-17 22:54:10.43	166.94	13.26	-48.4	-51.0	6.1	0.00e+00	0	34	104	35357982720	60	43231
2026-01-17 22:54:11.44	167.06	13.14	-48.2	-50.7	6.1	0.00e+00	0	34	104	35357982720	60	42215
2026-01-17 22:54:12.45	167.17	13.03	-48.6	-51.0	6.1	0.00e+00	0	34	104	35357982720	60	43677
2026-01-17 22:54:13.46	167.29	12.91	-48.5	-51.0	6.1	0.00e+00	0	34	104	35357982720	60	43282
2026-01-17 22:54:14.47	167.40	12.80	-48.2	-50.8	6.1	0.00e+00	0	34	104	35357982720	60	42382
2026-01-17 22:54:15.48	167.52	12.68	-48.4	-50.9	6.1	0.00e+00	0	34	104	35357982720	60	43056
2026-01-17 22:54:16.49	167.63	12.57	-48.6	-51.1	6.1	0.00e+00	0	34	104	35357982720	60	43939
2026-01-17 22:54:17.50	167.74	12.46	-48.6	-51.0	6.1	0.00e+00	0	34	104	35357982720	60	43675
2026-01-17 22:54:18.51	167.85	12.35	-48.4	-50.9	6.1	0.00e+00	0	34	104	35357982720	60	43131
2026-01-17 22:54:19.52	167.96	12.24	-48.6	-51.0	6.1	0.00e+00	0	34	104	35357982720	60	43573
2026-01-17 22:54:20.53	168.07	12.13	-48.6	-51.1	6.1	0.00e+00	0	34	104	35357982720	60	43837
2026-01-17 22:54:21.54	168.18	12.02	-48.4	-50.9	6.1	0.00e+00	0	34	104	35357982720	60	42940
2026-01-17 22:54:22.55	168.29	11.91	-48.6	-51.0	6.1	0.00e+00	0	34	104	35357982720	60	43602
2026-01-17 22:54:23.56	168.39	11.80	-48.5	-50.9	6.1	0.00e+00	0	34	104	35357982720	60	43108
2026-01-17 22:54:24.57	168.50	11.69	-48.4	-50.9	6.0	0.00e+00	0	34	104	35357982720	60	43006
2026-01-17 22:54:25.58	168.60	11.59	-48.4	-50.9	6.1	0.00e+00	0	34	104	35357982720	60	42887
2026-01-17 22:54:26.59	168.71	11.48	-48.3	-50.8	6.1	0.00e+00	0	34	104	35357982720	60	42594
2026-01-17 22:54:27.60	168.81	11.37	-48.3	-50.8	6.1	0.00e+00	0	34	104	35357982720	60	42639
2026-01-17 22:54:28.61	168.91	11.27	-48.5	-51.0	6.1	0.00e+00	0	34	104	35357982720	60	43321
2026-01-17 22:54:29.62	169.01	11.16	-48.3	-50.8	6.1	0.00e+00	0	34	104	35357982720	60	42596
2026-01-17 22:54:30.63	169.11	11.06	-48.0	-50.5	6.1	0.00e+00	0	34	104	35357982720	60	41232
2026-01-17 22:54:31.64	169.21	10.95	-48.4	-50.9	6.1	0.00e+00	0	34	104	35357982720	60	42991
2026-01-17 22:54:32.65	169.31	10.85	-48.5	-50.9	6.1	0.00e+00	0	34	104	35357982720	60	43095
2026-01-17 22:54:33.66	169.41	10.75	-48.0	-50.6	6.1	0.00e+00	0	34	104	35357982720	60	41276
2026-01-17 22:54:34.67	169.51	10.64	-47.9	-50.5	6.1	0.00e+00	0	34	104	35357982720	60	41119
2026-01-17 22:54:35.68	169.60	10.54	-48.0	-50.5	6.1	0.00e+00	0	34	104	35357982720	60	41068
2026-01-17 22:54:36.69	169.70	10.44	-48.4	-50.9	6.1	0.00e+00	0	34	104	35357982720	60	42992
2026-01-17 22:54:37.70	169.79	10.34	-48.0	-50.5	6.1	0.00e+00	0	34	104	35357982720	60	41244
2026-01-17 22:54:38.71	169.89	10.24	-48.5	-50.9	6.1	0.00e+00	0	34	104	35357982720	60	42945
2026-01-17 22:54:39.72	169.98	10.14	-48.1	-50.6	6.1	0.00e+00	0	34	104	35357982720	60	41639
2026-01-17 22:54:40.73	170.07	10.04	-48.4	-50.9	6.1	0.00e+00	0	34	104	35357982720	60	42968
2026-01-17 22:54:41.74	170.17	9.94	-48.3	-50.8	6.1	0.00e+00	0	34	104	35357982720	60	42470
2026-01-17 22:54:42.74	170.26	9.84	-48.1	-50.7	6.1	0.00e+00	0	34	104	35357982720	60	41820
2026-01-17 22:54:43.75	170.35	9.74	-48.0	-50.6	6.1	0.00e+00	0	34	104	35357982720	60	41335
2026-01-17 22:54:44.76	170.44	9.64	-48.3	-50.8	6.1	0.00e+00	0	34	104	35357982720	60	42537
2026-01-17 22:54:45.77	170.52	9.55	-47.7	-50.3	6.1	0.00e+00	0	34	104	35357982720	60	40110
2026-01-17 22:54:46.78	170.61	9.45	-47.8	-50.4	6.1	0.00e+00	0	34	104	35357982720	60	40731
2026-01-17 22:54:47.79	170.70	9.35	-48.0	-50.5	6.1	0.00e+00	0	34	104	35357982720	60	41210
2026-01-17 22:54:48.80	170.79	9.26	-47.9	-50.4	6.1	0.00e+00	0	34	104	35357982720	60	40571
2026-01-17 22:54:49.81	170.87	9.16	-48.1	-50.6	6.1	0.00e+00	0	34	104	35357982720	60	41618
2026-01-17 22:54:50.82	170.96	9.07	-48.1	-50.6	6.1	0.00e+00	0	34	104	35357982720	60	41346
2026-01-17 22:54:51.82	171.04	8.97	-47.8	-50.4	6.1	0.00e+00	0	34	104	35357982720	60	40545
2026-01-17 22:54:52.83	171.13	8.88	-47.8	-50.4	6.1	0.00e+00	0	34	104	35357982720	60	40372
2026-01-17 22:54:53.84	171.21	8.78	-48.2	-50.7	6.1	0.00e+00	0	34	104	35357982720	60	42050
2026-01-17 22:54:54.85	171.29	8.69	-48.2	-50.7	6.1	0.00e+00	0	34	104	35357982720	60	41939
2026-01-17 22:54:55.86	171.38	8.60	-48.0	-50.5	6.1	0.00e+00	0	34	104	35357982720	60	41253
2026-01-17 22:54:56.87	171.46	8.51	-47.9	-50.5	6.1	0.00e+00	0	34	104	35357982720	60	40802
2026-01-17 22:54:57.88	171.54	8.41	-47.9	-50.5	6.1	0.00e+00	0	34	104	35357982720	60	40903
2026-01-17 22:54:58.88	171.62	8.32	-47.8	-50.4	6.1	0.00e+00	0	34	104	35357982720	60	40362
2026-01-17 22:54:59.89	171.70	8.23	-47.9	-50.5	6.1	0.00e+00	0	34	104	35357982720	60	40933
2026-01-17 22:55:00.90	171.78	8.14	-48.0	-50.6	6.1	0.00e+00	0	34	104	35357982720	60	41508
2026-01-17 22:55:01.91	171.86	8.05	-47.7	-50.3	6.1	0.00e+00	0	34	104	35357982720	60	39885
2026-01-17 22:55:02.92	171.93	7.96	-48.0	-50.5	6.1	0.00e+00	0	34	104	35357982720	60	41077
2026-01-17 22:55:03.93	172.01	7.87	-47.8	-50.4	6.1	0.00e+00	0	34	104	35357982720	60	40433
2026-01-17 22:55:04.94	172.09	7.78	-47.9	-50.5	6.1	0.00e+00	0	34	104	35357982720	60	40925
2026-01-17 22:55:05.95	172.17	7.69	-47.9	-50.4	6.1	0.00e+00	0	34	104	35357982720	60	40694
2026-01-17 22:55:06.96	172.24	7.60	-48.0	-50.6	6.1	0.00e+00	0	34	104	35357982720	60	41326
2026-01-17 22:55:07.97	172.32	7.51	-47.8	-50.4	6.1	0.00e+00	0	34	104	35357982720	60	40346
2026-01-17 22:55:08.98	172.39	7.43	-47.9	-50.4	6.1	0.00e+00	0	34	104	35357982720	60	40646
2026-01-17 22:55:09.99	172.47	7.34	-47.8	-50.3	6.1	0.00e+00	0	34	104	35357982720	60	40238
2026-01-17 22:55:11.00	172.54	7.25	-47.9	-50.4	6.1	0.00e+00	0	34	104	35357982720	60	40705
2026-01-17 22:55:12.01	172.61	7.16	-47.8	-50.3	6.1	0.00e+00	0	34	104	35357982720	60	39931
2026-01-17 22:55:13.02	172.69	7.08	-48.0	-50.6	6.1	0.00e+00	0	34	104	35357982720	60	41289
2026-01-17 22:55:14.03	172.76	6.99	-47.9	-50.4	6.1	0.00e+00	0	34	104	35357982720	60	40469
2026-01-17 22:55:15.04	172.83	6.91	-48.0	-50.5	6.1	0.00e+00	0	34	104	35357982720	60	41208
2026-01-17 22:55:16.04	172.90	6.82	-47.6	-50.1	6.1	0.00e+00	0	34	104	35357982720	60	39356
2026-01-17 22:55:17.06	172.97	6.73	-47.9	-50.4	6.1	0.00e+00	0	34	104	35357982720	60	40394
2026-01-17 22:55:18.07	173.04	6.65	-47.8	-50.4	6.1	0.00e+00	0	34	104	35357982720	60	40398
2026-01-17 22:55:19.08	173.11	6.57	-47.7	-50.2	6.1	0.00e+00	0	34	104	35357982720	60	39761
2026-01-17 22:55:20.09	173.18	6.48	-47.5	-50.1	6.1	0.00e+00	0	34	104	35357982720	60	39269
2026-01-17 22:55:21.10	173.25	6.40	-47.9	-50.4	6.1	0.00e+00	0	34	104	35357982720	60	40653
2026-01-17 22:55:22.11	173.32	6.31	-47.8	-50.3	6.1	0.00e+00	0	34	104	35357982720	60	40057
2026-01-17 22:55:23.11	173.39	6.23	-47.8	-50.3	6.1	0.00e+00	0	34	104	35357982720	60	40152
2026-01-17 22:55:24.12	173.45	6.15	-47.4	-50.0	6.1	0.00e+00	0	34	104	35357982720	60	38692
2026-01-17 22:55:25.13	173.52	6.07	-48.1	-50.5	6.1	0.00e+00	0	34	104	35357982720	60	41210
2026-01-17 22:55:26.14	173.59	5.98	-47.9	-50.4	6.1	0.00e+00	0	34	104	35357982720	60	40335
2026-01-17 22:55:27.15	173.65	5.90	-47.9	-50.4	6.1	0.00e+00	0	34	104	35357982720	60	40786
2026-01-17 22:55:28.16	173.72	5.82	-47.8	-50.3	6.1	0.00e+00	0	34	104	35357982720	60	39958
2026-01-17 22:55:29.17	173.79	5.74	-48.0	-50.5	6.1	0.00e+00	0	34	104	35357982720	60	41147
2026-01-17 22:55:30.18	173.85	5.66	-47.8	-50.3	6.1	0.00e+00	0	34	104	35357982720	60	39959
2026-01-17 22:55:31.19	173.91	5.58	-47.8	-50.2	6.1	0.00e+00	0	34	104	35357982720	60	39737
2026-01-17 22:55:32.20	173.98	5.50	-47.8	-50.2	6.1	0.00e+00	0	34	104	35357982720	60	39848
2026-01-17 22:55:33.21	174.04	5.42	-47.9	-50.4	6.1	0.00e+00	0	34	104	35357982720	60	40727
2026-01-17 22:55:34.22	174.11	5.34	-47.6	-50.1	6.1	0.00e+00	0	34	104	35357982720	60	39224
2026-01-17 22:55:35.23	174.17	5.26	-47.9	-50.4	6.1	0.00e+00	0	34	104	35357982720	60	40753
2026-01-17 22:55:36.24	174.23	5.18	-47.8	-50.3	6.1	0.00e+00	0	34	104	35357982720	60	39863
2026-01-17 22:55:37.24	174.29	5.10	-47.7	-50.2	6.1	0.00e+00	0	34	104	35357982720	60	39522
2026-01-17 22:55:38.25	174.35	5.02	-47.6	-50.1	6.1	0.00e+00	0	34	104	35357982720	60	39179
2026-01-17 22:55:39.26	174.41	4.95	-47.9	-50.4	6.1	0.00e+00	0	34	104	35357982720	60	40346
2026-01-17 22:55:40.27	174.48	4.87	-47.7	-50.2	6.1	0.00e+00	0	34	104	35357982720	60	39640
2026-01-17 22:55:41.29	174.54	4.79	-47.4	-50.0	6.1	0.00e+00	0	34	104	35357982720	60	38583
2026-01-17 22:55:42.29	174.60	4.71	-47.5	-50.1	6.1	0.00e+00	0	34	104	35357982720	60	39019
2026-01-17 22:55:43.30	174.66	4.64	-47.8	-50.3	6.1	0.00e+00	0	34	104	35357982720	60	40047
2026-01-17 22:55:44.31	174.72	4.56	-47.6	-50.1	6.1	0.00e+00	0	34	104	35357982720	60	39248
2026-01-17 22:55:45.32	174.77	4.48	-47.5	-50.1	6.1	0.00e+00	0	34	104	35357982720	60	38969
2026-01-17 22:55:46.33	174.83	4.41	-47.6	-50.1	6.1	0.00e+00	0	34	104	35357982720	60	39129
2026-01-17 22:55:47.34	174.89	4.33	-47.6	-50.1	6.1	0.00e+00	0	34	104	35357982720	60	39225
2026-01-17 22:55:48.35	174.95	4.25	-47.5	-50.0	6.1	0.00e+00	0	34	104	35357982720	60	38744
2026-01-17 22:55:49.36	175.01	4.18	-47.8	-50.3	6.0	0.00e+00	0	34	104	35357982720	60	39897
2026-01-17 22:55:50.37	175.06	4.10	-47.6	-50.1	6.1	0.00e+00	0	34	104	35357982720	60	39144
2026-01-17 22:55:51.38	175.12	4.03	-47.6	-50.1	6.1	0.00e+00	0	34	104	35357982720	60	39392
2026-01-17 22:55:52.39	175.18	3.95	-47.5	-49.9	6.1	0.00e+00	0	34	104	35357982720	60	38486
2026-01-17 22:55:53.39	175.23	3.88	-47.8	-50.3	6.1	0.00e+00	0	34	104	35357982720	60	40048
2026-01-17 22:55:54.41	175.29	3.81	-47.6	-50.1	6.1	0.00e+00	0	34	104	35357982720	60	39285
2026-01-17 22:55:55.41	175.34	3.73	-47.7	-50.2	6.1	0.00e+00	0	34	104	35357982720	60	39759
2026-01-17 22:55:56.42	175.40	3.66	-47.6	-50.1	6.1	0.00e+00	0	34	104	35357982720	60	39118
2026-01-17 22:55:57.43	175.45	3.59	-47.5	-50.1	6.1	0.00e+00	0	34	104	35357982720	60	39041
2026-01-17 22:55:58.44	175.51	3.51	-47.5	-50.0	6.1	0.00e+00	0	34	104	35357982720	60	38822
2026-01-17 22:55:59.45	175.56	3.44	-47.6	-50.1	6.1	0.00e+00	0	34	104	35357982720	60	39278
2026-01-17 22:56:00.46	175.62	3.37	-47.4	-49.9	6.1	0.00e+00	0	34	104	35357982720	60	38082
2026-01-17 22:56:01.47	175.67	3.29	-47.5	-50.0	6.1	0.00e+00	0	34	104	35357982720	60	38647
2026-01-17 22:56:02.48	175.72	3.22	-47.5	-50.0	6.1	0.00e+00	0	34	104	35357982720	60	38698
2026-01-17 22:56:03.49	175.78	3.15	-47.4	-50.0	6.1	0.00e+00	0	34	104	35357982720	60	38622
2026-01-17 22:56:04.50	175.83	3.08	-47.3	-49.8	6.1	0.00e+00	0	34	104	35357982720	60	37816
2026-01-17 22:56:05.51	175.88	3.01	-47.6	-50.1	6.1	0.00e+00	0	34	104	35357982720	60	39364
2026-01-17 22:56:06.52	175.93	2.93	-48.2	-50.8	6.1	0.00e+00	0	34	104	35357982720	60	42418
2026-01-17 22:56:07.53	175.98	2.86	-48.1	-50.7	6.1	0.00e+00	0	34	104	35357982720	60	41883
2026-01-17 22:56:08.54	176.04	2.79	-48.0	-50.6	6.1	0.00e+00	0	34	104	35357982720	60	41437
2026-01-17 22:56:09.55	176.09	2.72	-48.9	-51.4	6.1	0.00e+00	0	34	104	35357982720	60	45275
2026-01-17 22:56:10.56	176.14	2.65	-48.8	-51.3	6.1	0.00e+00	0	34	104	35357982720	60	45070
2026-01-17 22:56:11.57	176.19	2.58	-48.9	-51.4	6.1	0.00e+00	0	34	104	35357982720	60	45632
2026-01-17 22:56:12.58	176.24	2.51	-48.9	-51.4	6.1	0.00e+00	0	34	104	35357982720	60	45489
2026-01-17 22:56:13.59	176.29	2.44	-49.1	-51.5	6.1	0.00e+00	0	34	104	35357982720	60	46261
2026-01-17 22:56:14.60	176.34	2.37	-49.1	-51.6	6.1	0.00e+00	0	34	104	35357982720	60	46383
2026-01-17 22:56:15.61	176.39	2.30	-48.9	-51.4	6.1	0.00e+00	0	34	104	35357982720	60	45361
2026-01-17 22:56:16.62	176.44	2.23	-49.0	-51.5	6.1	0.00e+00	0	34	104	35357982720	60	45916
2026-01-17 22:56:17.63	176.49	2.16	-49.1	-51.5	6.1	0.00e+00	0	34	104	35357982720	60	46135
2026-01-17 22:56:18.64	176.53	2.10	-48.9	-51.4	6.1	0.00e+00	0	34	104	35357982720	60	45586
2026-01-17 22:56:19.65	176.58	2.03	-48.9	-51.4	6.1	0.00e+00	0	34	104	35357982720	60	45283
2026-01-17 22:56:20.66	176.63	1.96	-48.9	-51.4	6.1	0.00e+00	0	34	104	35357982720	60	45355
2026-01-17 22:56:21.67	176.68	1.89	-49.0	-51.6	6.1	0.00e+00	0	34	104	35357982720	60	46326
2026-01-17 22:56:22.68	176.73	1.82	-49.1	-51.5	6.1	0.00e+00	0	34	104	35357982720	60	46284
2026-01-17 22:56:23.69	176.77	1.75	-49.1	-51.6	6.1	0.00e+00	0	34	104	35357982720	60	46477
2026-01-17 22:56:24.70	176.82	1.69	-49.2	-51.6	6.1	0.00e+00	0	34	104	35357982720	60	46651
2026-01-17 22:56:25.71	176.87	1.62	-49.1	-51.6	6.1	0.00e+00	0	34	104	35357982720	60	46448
2026-01-17 22:56:26.72	176.91	1.55	-49.1	-51.6	6.1	0.00e+00	0	34	104	35357982720	60	46526
2026-01-17 22:56:27.73	176.96	1.49	-49.1	-51.5	6.1	0.00e+00	0	34	104	35357982720	60	46123
2026-01-17 22:56:28.74	177.01	1.42	-49.0	-51.5	6.1	0.00e+00	0	34	104	35357982720	60	46212
2026-01-17 22:56:29.75	177.05	1.35	-49.0	-51.5	6.1	0.00e+00	0	34	104	35357982720	60	45865
2026-01-17 22:56:30.76	177.10	1.29	-49.0	-51.5	6.1	0.00e+00	0	34	104	35357982720	60	45999
2026-01-17 22:56:31.77	177.14	1.22	-49.0	-51.5	6.1	0.00e+00	0	34	104	35357982720	60	45909
2026-01-17 22:56:32.79	177.19	1.15	-49.1	-51.6	6.1	0.00e+00	0	34	104	35357982720	60	46382
2026-01-17 22:56:33.79	177.23	1.09	-49.1	-51.6	6.1	0.00e+00	0	34	104	35357982720	60	46443
2026-01-17 22:56:34.81	177.28	1.02	-49.1	-51.5	6.1	0.00e+00	0	34	104	35357982720	60	46237
2026-01-17 22:56:35.82	177.32	0.96	-49.1	-51.6	6.1	0.00e+00	0	34	104	35357982720	60	46423
2026-01-17 22:56:36.83	177.37	0.89	-49.1	-51.6	6.1	0.00e+00	0	34	104	35357982720	60	46568
2026-01-17 22:56:37.84	177.41	0.83	-49.1	-51.6	6.1	0.00e+00	0	34	104	35357982720	60	46488
2026-01-17 22:56:38.85	177.45	0.76	-49.1	-51.6	6.1	0.00e+00	0	34	104	35357982720	60	46349
2026-01-17 22:56:39.86	177.50	0.70	-49.2	-51.6	6.1	0.00e+00	0	34	104	35357982720	60	46819
2026-01-17 22:56:40.87	177.54	0.63	-49.1	-51.5	6.1	0.00e+00	0	34	104	35357982720	60	46215
2026-01-17 22:56:41.88	177.58	0.57	-49.1	-51.6	6.1	0.00e+00	0	34	104	35357982720	60	46428
2026-01-17 22:56:42.88	177.63	0.50	-49.0	-51.5	6.1	0.00e+00	0	34	104	35357982720	60	46040
2026-01-17 22:56:43.90	177.67	0.44	-49.1	-51.6	6.1	0.00e+00	0	34	104	35357982720	60	46619
2026-01-17 22:56:44.90	177.71	0.37	-49.1	-51.6	6.1	0.00e+00	0	34	104	35357982720	60	46653
2026-01-17 22:56:45.92	177.75	0.31	-49.1	-51.6	6.1	0.00e+00	0	34	104	35357982720	60	46596
2026-01-17 22:56:46.92	177.80	0.25	-49.2	-51.6	6.1	0.00e+00	0	34	104	35357982720	60	46731
2026-01-17 22:56:47.94	177.84	0.18	-49.1	-51.6	6.1	0.00e+00	0	34	104	35357982720	60	46426
2026-01-17 22:56:48.94	177.88	0.12	-49.1	-51.6	6.1	0.00e+00	0	34	104	35357982720	60	46707
2026-01-17 22:56:49.96	177.92	0.06	-49.1	-51.6	6.1	0.00e+00	0	34	104	35357982720	60	46580
2026-01-17 22:56:50.97	177.96	-0.01	-49.1	-51.5	6.1	0.00e+00	0	34	104	35357982720	60	46268

#Closed at: 2026-01-17 22:56:51
#Recorded file [35357 MB]: D:/lorett/data/35029_260118_104554.dat