passes_logs/2026/01/04/T1/T1__20260104_022227_FENGYUN_3D_rec.log

#Pass ID: 20260104_022227_FENGYUN 3D
#Satellite: FENGYUN 3D
#Configuration: FENGYUN 3D
#almurnet v.1.7.20251203
#Start time: 2026-01-04 02:22:29

#Version: 2.0.20230620
#Station: T1
#Location: 37.570604 lon 55.790049 lat
#TLE: 1 43010U 17072A   26003.51579816  .00000092  00000+0  65324-4 0  9992
#TLE: 2 43010  98.9912 335.1548 0001916 128.4619 231.6729 14.19692074421623

#Time	Az	El	Level	Level2	SNR	BER	BlckErr	Temp	State	Recorded	gain1	gain2
2026-01-04 02:22:29.82	12.86	5.11	-53.3	-67.1	3.8	8.46e-01	0	36	0	0	78	17377
2026-01-04 02:22:30.82	12.83	5.18	-53.2	-67.0	3.8	8.47e-01	0	36	104	0	77	18203
2026-01-04 02:22:31.82	12.80	5.25	-53.2	-67.0	3.8	8.47e-01	0	36	104	0	77	18271
2026-01-04 02:22:32.83	12.77	5.32	-53.2	-67.0	3.8	8.47e-01	0	36	104	0	77	18156
2026-01-04 02:22:33.83	12.74	5.39	-53.3	-67.0	3.8	8.47e-01	0	36	104	0	77	18200
2026-01-04 02:22:34.83	12.71	5.47	-53.2	-67.0	3.8	8.46e-01	0	36	104	0	77	18157
2026-01-04 02:22:35.84	12.68	5.54	-53.2	-67.0	3.8	8.48e-01	0	37	104	0	77	18149
2026-01-04 02:22:36.84	12.65	5.61	-53.2	-66.9	3.8	8.47e-01	0	36	104	0	77	18086
2026-01-04 02:22:37.85	12.62	5.68	-53.3	-67.0	3.8	8.47e-01	0	37	104	0	77	18205
2026-01-04 02:22:38.85	12.59	5.75	-53.2	-67.0	3.8	8.47e-01	0	37	104	0	77	18096
2026-01-04 02:22:39.86	12.56	5.82	-53.2	-67.0	3.8	8.48e-01	0	36	104	0	77	18106
2026-01-04 02:22:40.86	12.53	5.90	-53.3	-66.9	3.8	8.46e-01	0	37	104	0	77	18092
2026-01-04 02:22:41.86	12.50	5.97	-53.2	-66.9	3.8	8.47e-01	0	37	104	0	77	18047
2026-01-04 02:22:42.87	12.46	6.04	-53.2	-66.9	3.8	8.47e-01	0	37	104	0	77	17921
2026-01-04 02:22:43.87	12.43	6.11	-53.2	-66.8	3.8	8.47e-01	0	37	104	0	77	17830
2026-01-04 02:22:44.88	12.40	6.19	-53.2	-66.6	3.8	8.47e-01	0	37	104	0	77	17467
2026-01-04 02:22:45.88	12.37	6.26	-53.2	-66.5	3.8	8.47e-01	0	37	104	0	77	17206
2026-01-04 02:22:46.88	12.34	6.33	-53.2	-66.3	3.8	8.47e-01	0	37	104	0	77	16824
2026-01-04 02:22:47.89	12.30	6.41	-53.1	-66.1	3.8	8.47e-01	0	37	104	0	77	16366
2026-01-04 02:22:48.89	12.27	6.48	-53.1	-65.8	3.8	8.45e-01	0	37	104	0	77	15850
2026-01-04 02:22:49.90	12.24	6.56	-53.1	-65.5	3.8	8.46e-01	0	37	104	0	77	15370
2026-01-04 02:22:50.90	12.21	6.63	-53.1	-65.4	3.8	8.45e-01	0	37	104	0	77	15092
2026-01-04 02:22:51.90	12.17	6.70	-53.1	-65.0	3.8	8.46e-01	0	37	104	0	77	14503
2026-01-04 02:22:52.91	12.14	6.78	-53.0	-64.9	3.8	8.46e-01	0	37	104	0	77	14254
2026-01-04 02:22:53.91	12.11	6.85	-53.0	-64.7	4.0	8.45e-01	0	37	104	0	77	13910
2026-01-04 02:22:54.92	12.07	6.93	-53.0	-64.6	4.0	8.45e-01	0	37	104	0	77	13812
2026-01-04 02:22:55.92	12.04	7.00	-53.0	-64.8	3.9	8.44e-01	0	37	104	0	77	14076
2026-01-04 02:22:56.92	12.00	7.08	-53.0	-64.9	3.9	8.46e-01	0	37	104	0	77	14312
2026-01-04 02:22:57.92	11.97	7.16	-53.1	-65.2	3.8	8.45e-01	0	37	104	0	77	14853
2026-01-04 02:22:58.93	11.93	7.23	-53.1	-65.5	3.8	8.47e-01	0	37	104	0	77	15357
2026-01-04 02:22:59.93	11.90	7.31	-53.1	-65.8	3.8	8.47e-01	0	37	104	0	77	15940
2026-01-04 02:23:00.93	11.87	7.38	-53.1	-66.1	3.8	8.47e-01	0	37	104	0	77	16482
2026-01-04 02:23:01.94	11.83	7.46	-53.2	-66.4	3.8	8.47e-01	0	37	104	0	77	16923
2026-01-04 02:23:02.94	11.79	7.54	-53.2	-66.5	3.8	8.48e-01	0	37	104	0	77	17201
2026-01-04 02:23:03.94	11.76	7.61	-53.2	-66.5	3.8	8.48e-01	0	37	104	0	77	17123
2026-01-04 02:23:04.94	11.72	7.69	-53.1	-66.2	3.8	8.46e-01	0	37	104	0	77	16535
2026-01-04 02:23:05.95	11.69	7.77	-53.1	-65.4	3.8	8.47e-01	0	37	104	0	77	15084
2026-01-04 02:23:06.95	11.65	7.85	-53.0	-64.3	4.0	8.46e-01	0	37	104	0	77	13322
2026-01-04 02:23:07.95	11.62	7.92	-52.8	-62.8	4.4	8.34e-01	0	37	0	0	77	11270
2026-01-04 02:23:08.96	11.58	8.00	-52.5	-61.4	5.0	7.96e-01	0	38	0	0	77	9583
2026-01-04 02:23:09.96	11.54	8.08	-52.3	-60.1	5.9	7.15e-01	0	37	0	1048576	76	8699
2026-01-04 02:23:10.96	11.50	8.16	-51.9	-58.6	7.1	2.00e-01	0	37	0	6291456	75	7749
2026-01-04 02:23:11.97	11.47	8.24	-51.6	-57.7	8.0	1.06e-01	0	38	0	11534336	75	6961
2026-01-04 02:23:12.97	11.43	8.32	-51.1	-56.4	9.2	3.29e-02	0	38	0	17825792	74	6405
2026-01-04 02:23:13.97	11.39	8.40	-50.8	-55.8	10.0	1.51e-02	0	38	0	23068672	73	6295
2026-01-04 02:23:14.98	11.35	8.48	-50.5	-55.2	10.6	5.42e-03	0	38	0	29360128	73	5861
2026-01-04 02:23:15.98	11.32	8.56	-50.3	-54.8	11.0	2.88e-03	0	38	0	34603008	72	5927
2026-01-04 02:23:16.98	11.28	8.64	-50.2	-54.5	11.2	1.79e-03	0	38	0	39845888	72	5784
2026-01-04 02:23:17.99	11.24	8.72	-50.1	-54.4	11.4	1.44e-03	0	38	0	46137344	72	5665
2026-01-04 02:23:18.99	11.20	8.80	-50.2	-54.5	11.2	1.89e-03	0	38	0	51380224	72	5787
2026-01-04 02:23:20.00	11.16	8.88	-50.4	-54.9	10.8	2.66e-03	0	38	0	57671680	72	6061
2026-01-04 02:23:21.00	11.12	8.96	-50.6	-55.4	10.3	4.86e-03	0	38	0	62914560	72	6359
2026-01-04 02:23:22.00	11.08	9.04	-51.0	-56.2	9.6	1.33e-02	0	38	0	68157440	72	6970
2026-01-04 02:23:23.01	11.04	9.12	-51.8	-58.1	7.6	4.92e-02	0	38	0	74448896	74	7800
2026-01-04 02:23:24.01	11.00	9.20	-50.2	-54.4	11.4	3.21e-03	0	38	0	79691776	72	5717
2026-01-04 02:23:25.01	10.96	9.28	-52.7	-61.9	4.7	1.88e-01	0	38	0	84934656	75	11407
2026-01-04 02:23:26.02	10.92	9.37	-52.9	-64.3	4.0	8.38e-01	0	38	0	84934656	76	14154
2026-01-04 02:23:27.02	10.88	9.45	-46.8	-49.5	16.2	5.03e-05	0	38	0	87031808	65	4846
2026-01-04 02:23:28.02	10.84	9.53	-46.8	-49.5	16.2	0.00e+00	0	38	0	92274688	65	4850
2026-01-04 02:23:29.02	10.80	9.61	-46.2	-48.8	17.0	0.00e+00	0	38	0	97517568	64	4720
2026-01-04 02:23:30.03	10.76	9.70	-45.7	-48.1	17.7	0.00e+00	0	38	0	103809024	63	4645
2026-01-04 02:23:31.03	10.71	9.78	-45.5	-47.8	18.0	0.00e+00	0	38	0	109051904	63	4483
2026-01-04 02:23:32.03	10.67	9.87	-45.6	-47.9	17.9	0.00e+00	0	38	0	114294784	62	4799
2026-01-04 02:23:33.03	10.63	9.95	-45.5	-47.9	18.0	0.00e+00	0	38	0	120586240	62	4774
2026-01-04 02:23:34.03	10.59	10.03	-45.5	-47.9	18.0	0.00e+00	0	38	0	125829120	62	4781
2026-01-04 02:23:35.04	10.54	10.12	-45.3	-47.6	18.3	0.00e+00	0	38	0	131072000	62	4614
2026-01-04 02:23:36.04	10.50	10.20	-45.4	-47.7	18.2	0.00e+00	0	38	0	137363456	62	4656
2026-01-04 02:23:37.04	10.46	10.29	-45.2	-47.5	18.3	0.00e+00	0	38	0	142606336	62	4583
2026-01-04 02:23:38.04	10.41	10.37	-45.2	-47.5	18.3	0.00e+00	0	38	0	148897792	62	4589
2026-01-04 02:23:39.05	10.37	10.46	-45.2	-47.4	18.4	0.00e+00	0	38	0	154140672	62	4535
2026-01-04 02:23:40.05	10.33	10.55	-45.2	-47.4	18.4	0.00e+00	0	38	0	159383552	62	4541
2026-01-04 02:23:41.05	10.28	10.63	-45.1	-47.3	18.5	0.00e+00	0	38	0	165675008	62	4474
2026-01-04 02:23:42.06	10.24	10.72	-45.1	-47.3	18.5	0.00e+00	0	38	0	170917888	62	4469
2026-01-04 02:23:43.15	10.19	10.81	-45.2	-47.4	18.5	0.00e+00	0	38	0	177209344	62	4521
2026-01-04 02:23:44.04	10.15	10.89	-45.0	-47.2	18.7	0.00e+00	0	38	0	182452224	62	4428
2026-01-04 02:23:45.19	10.09	10.99	-44.8	-47.0	18.8	0.00e+00	0	38	0	188743680	61	4579
2026-01-04 02:23:46.11	10.05	11.07	-44.8	-47.0	18.9	0.00e+00	0	38	0	193986560	61	4553
2026-01-04 02:23:47.29	10.00	11.17	-44.8	-47.0	18.8	0.00e+00	0	38	0	200278016	61	4576
2026-01-04 02:23:48.15	9.96	11.25	-44.8	-46.9	18.9	0.00e+00	0	38	0	205520896	61	4535
2026-01-04 02:23:49.52	9.89	11.37	-44.7	-46.8	19.0	0.00e+00	0	38	0	212860928	61	4486
2026-01-04 02:23:50.24	9.86	11.44	-44.7	-46.9	19.0	0.00e+00	0	38	0	217055232	61	4525
2026-01-04 02:23:51.75	9.79	11.57	-44.7	-46.8	19.0	0.00e+00	0	38	0	225443840	61	4482
2026-01-04 02:23:52.47	9.75	11.63	-44.7	-46.8	19.0	0.00e+00	0	38	0	229638144	61	4481
2026-01-04 02:23:53.75	9.69	11.75	-44.7	-46.8	19.0	0.00e+00	0	38	0	236978176	61	4478
2026-01-04 02:23:54.47	9.66	11.81	-44.8	-46.9	19.0	0.00e+00	0	38	0	241172480	61	4518
2026-01-04 02:23:55.76	9.59	11.93	-44.7	-46.8	19.0	0.00e+00	0	38	0	248512512	61	4487
2026-01-04 02:23:56.48	9.56	12.00	-44.7	-46.8	19.1	0.00e+00	0	38	0	252706816	61	4449
2026-01-04 02:23:57.76	9.49	12.11	-44.7	-46.9	19.0	0.00e+00	0	38	0	258998272	61	4497
2026-01-04 02:23:58.48	9.46	12.18	-44.6	-46.7	19.2	0.00e+00	0	38	0	263192576	61	4409
2026-01-04 02:23:59.77	9.39	12.30	-44.6	-46.7	19.2	0.00e+00	0	38	0	270532608	61	4403
2026-01-04 02:24:00.57	9.35	12.37	-44.5	-46.6	19.3	0.00e+00	0	38	0	274726912	61	4355
2026-01-04 02:24:01.71	9.29	12.47	-44.5	-46.6	19.3	0.00e+00	0	38	0	281018368	61	4345
2026-01-04 02:24:02.57	9.25	12.55	-44.5	-46.5	19.3	0.00e+00	0	38	0	286261248	61	4333
2026-01-04 02:24:03.72	9.19	12.66	-44.5	-46.5	19.4	0.00e+00	0	38	0	292552704	60	4575
2026-01-04 02:24:04.58	9.15	12.74	-44.6	-46.6	19.4	0.00e+00	0	38	0	297795584	60	4616
2026-01-04 02:24:05.72	9.09	12.85	-44.7	-46.7	19.3	0.00e+00	0	38	0	304087040	60	4688
2026-01-04 02:24:06.58	9.04	12.93	-44.6	-46.6	19.4	0.00e+00	0	38	0	309329920	60	4643
2026-01-04 02:24:07.73	8.98	13.04	-44.6	-46.6	19.4	0.00e+00	0	38	0	315621376	60	4638
2026-01-04 02:24:08.59	8.93	13.12	-44.6	-46.6	19.3	0.00e+00	0	38	0	319815680	60	4642
2026-01-04 02:24:09.73	8.87	13.23	-44.6	-46.6	19.4	0.00e+00	0	38	0	327155712	60	4632
2026-01-04 02:24:10.59	8.83	13.31	-44.4	-46.4	19.6	0.00e+00	0	38	0	331350016	60	4524
2026-01-04 02:24:11.74	8.76	13.42	-44.5	-46.5	19.5	0.00e+00	0	38	0	337641472	60	4556
2026-01-04 02:24:12.60	8.72	13.50	-44.5	-46.4	19.6	0.00e+00	0	38	0	342884352	60	4537
2026-01-04 02:24:13.75	8.65	13.61	-44.4	-46.4	19.7	0.00e+00	0	38	0	349175808	60	4500
2026-01-04 02:24:14.71	8.60	13.70	-44.4	-46.3	19.8	0.00e+00	0	38	0	354418688	60	4478
2026-01-04 02:24:15.87	8.53	13.82	-44.4	-46.3	19.7	0.00e+00	0	38	0	360710144	60	4486
2026-01-04 02:24:16.76	8.48	13.90	-44.3	-46.2	19.8	0.00e+00	0	38	0	365953024	60	4440
2026-01-04 02:24:18.00	8.41	14.03	-44.3	-46.2	19.9	0.00e+00	0	38	0	373293056	60	4398
2026-01-04 02:24:18.86	8.36	14.11	-44.2	-46.1	19.9	0.00e+00	0	38	0	377487360	60	4386
2026-01-04 02:24:20.15	8.29	14.24	-44.2	-46.1	20.0	0.00e+00	0	38	0	384827392	60	4365
2026-01-04 02:24:21.28	8.22	14.35	-44.2	-46.1	19.9	0.00e+00	0	38	0	392167424	60	4381
2026-01-04 02:24:22.43	8.16	14.46	-44.3	-46.2	19.9	0.00e+00	0	38	0	398458880	60	4432
2026-01-04 02:24:23.28	8.11	14.55	-44.4	-46.3	19.8	0.00e+00	0	38	0	402653184	60	4457
2026-01-04 02:24:24.43	8.04	14.66	-44.2	-46.1	19.9	0.00e+00	0	38	0	409993216	60	4380
2026-01-04 02:24:25.29	7.99	14.75	-44.3	-46.2	19.9	0.00e+00	0	39	0	414187520	60	4398
2026-01-04 02:24:26.44	7.92	14.87	-44.4	-46.3	19.8	1.10e-06	0	38	0	420478976	60	4445
2026-01-04 02:24:27.30	7.86	14.95	-44.3	-46.2	19.9	0.00e+00	0	38	0	425721856	60	4415
2026-01-04 02:24:28.44	7.79	15.07	-44.4	-46.3	19.8	0.00e+00	0	38	0	432013312	60	4454
2026-01-04 02:24:29.30	7.74	15.16	-44.4	-46.3	19.8	0.00e+00	0	38	0	437256192	60	4465
2026-01-04 02:24:30.45	7.67	15.28	-44.4	-46.3	19.9	0.00e+00	0	38	0	443547648	60	4443
2026-01-04 02:24:31.31	7.62	15.36	-44.3	-46.2	19.9	0.00e+00	0	38	0	447741952	60	4424
2026-01-04 02:24:32.58	7.53	15.50	-44.4	-46.3	19.8	0.00e+00	0	38	0	455081984	60	4481
2026-01-04 02:24:33.31	7.49	15.57	-44.4	-46.3	19.9	0.00e+00	0	38	0	459276288	60	4455
2026-01-04 02:24:34.60	7.41	15.71	-44.3	-46.1	20.0	0.00e+00	0	38	0	466616320	60	4387
2026-01-04 02:24:35.32	7.36	15.78	-44.1	-46.0	20.2	0.00e+00	0	38	0	470810624	60	4310
2026-01-04 02:24:36.61	7.28	15.92	-44.1	-46.0	20.2	0.00e+00	0	38	0	478150656	60	4292
2026-01-04 02:24:37.33	7.23	15.99	-44.2	-46.1	20.1	0.00e+00	0	39	0	482344960	60	4341
2026-01-04 02:24:38.62	7.14	16.13	-44.0	-45.8	20.2	0.00e+00	0	39	0	488636416	59	4473
2026-01-04 02:24:39.33	7.10	16.20	-43.9	-45.7	20.3	0.00e+00	0	38	0	492830720	59	4422
2026-01-04 02:24:40.62	7.01	16.34	-43.8	-45.6	20.4	0.00e+00	0	39	0	500170752	59	4368
2026-01-04 02:24:41.50	6.95	16.44	-43.8	-45.7	20.3	0.00e+00	0	39	0	505413632	59	4394
2026-01-04 02:24:42.64	6.87	16.56	-43.7	-45.5	20.5	0.00e+00	0	38	0	511705088	59	4330
2026-01-04 02:24:43.50	6.81	16.65	-43.6	-45.5	20.5	0.00e+00	0	39	0	516947968	59	4296
2026-01-04 02:24:44.64	6.73	16.78	-43.6	-45.4	20.5	0.00e+00	0	38	0	523239424	59	4284
2026-01-04 02:24:45.81	6.65	16.90	-43.5	-45.3	20.7	0.00e+00	0	38	0	529530880	59	4228
2026-01-04 02:24:46.84	6.58	17.02	-43.4	-45.2	20.7	0.00e+00	0	38	0	535822336	58	4420
2026-01-04 02:24:47.84	6.51	17.13	-43.2	-45.0	20.8	0.00e+00	0	38	0	541065216	58	4333
2026-01-04 02:24:48.84	6.44	17.24	-43.3	-45.1	20.8	0.00e+00	0	38	0	546308096	58	4376
2026-01-04 02:24:49.85	6.36	17.35	-43.2	-45.0	20.9	0.00e+00	0	39	0	552599552	58	4322
2026-01-04 02:24:50.85	6.29	17.46	-43.2	-45.0	20.9	0.00e+00	0	38	0	557842432	58	4324
2026-01-04 02:24:51.85	6.22	17.57	-43.1	-44.9	21.1	0.00e+00	0	39	0	563085312	58	4254
2026-01-04 02:24:52.85	6.14	17.68	-43.1	-44.9	21.0	0.00e+00	0	38	0	569376768	58	4250
2026-01-04 02:24:53.85	6.07	17.80	-43.2	-44.9	21.1	0.00e+00	0	38	0	574619648	58	4287
2026-01-04 02:24:54.86	5.99	17.91	-43.1	-44.8	21.1	0.00e+00	0	38	0	580911104	58	4241
2026-01-04 02:24:55.86	5.92	18.03	-43.0	-44.7	21.1	0.00e+00	0	39	0	586153984	58	4190
2026-01-04 02:24:56.89	5.84	18.14	-43.1	-44.8	21.1	0.00e+00	0	39	0	592445440	58	4238
2026-01-04 02:24:57.89	5.76	18.26	-43.1	-44.8	21.1	0.00e+00	0	39	0	597688320	58	4237
2026-01-04 02:24:58.96	5.68	18.38	-43.2	-45.0	20.9	0.00e+00	0	38	0	603979776	58	4303
2026-01-04 02:24:59.81	5.61	18.48	-43.2	-45.1	20.9	0.00e+00	0	38	0	608174080	58	4343
2026-01-04 02:25:00.96	5.52	18.61	-43.1	-44.9	21.0	0.00e+00	0	38	0	614465536	58	4283
2026-01-04 02:25:01.82	5.46	18.71	-43.2	-44.9	21.0	0.00e+00	0	38	0	619708416	58	4289
2026-01-04 02:25:02.96	5.36	18.85	-43.2	-45.0	20.9	0.00e+00	0	39	0	625999872	58	4337
2026-01-04 02:25:03.82	5.30	18.95	-43.2	-45.0	20.9	0.00e+00	0	38	0	631242752	58	4333
2026-01-04 02:25:04.96	5.20	19.08	-43.2	-45.0	21.0	0.00e+00	0	38	0	637534208	58	4316
2026-01-04 02:25:05.82	5.13	19.18	-43.3	-45.1	20.9	0.00e+00	0	39	0	642777088	58	4359
2026-01-04 02:25:06.97	5.04	19.32	-43.3	-45.2	20.9	0.00e+00	0	38	0	648019968	58	4393
2026-01-04 02:25:07.83	4.97	19.42	-43.1	-44.9	21.1	0.00e+00	0	38	0	653262848	58	4263
2026-01-04 02:25:09.02	4.87	19.57	-43.1	-44.9	21.1	0.00e+00	0	38	0	660602880	58	4243
2026-01-04 02:25:09.88	4.79	19.67	-43.0	-44.8	21.1	0.00e+00	0	38	0	664797184	58	4226
2026-01-04 02:25:11.09	4.69	19.82	-43.0	-44.8	21.2	0.00e+00	0	38	0	672137216	58	4222
2026-01-04 02:25:11.95	4.62	19.92	-43.1	-44.9	21.2	0.00e+00	0	38	0	676331520	58	4244
2026-01-04 02:25:13.10	4.52	20.06	-43.1	-44.8	21.2	0.00e+00	0	38	0	682622976	58	4241
2026-01-04 02:25:13.96	4.44	20.17	-43.1	-44.8	21.3	0.00e+00	0	39	0	687865856	58	4220
2026-01-04 02:25:15.10	4.34	20.31	-43.0	-44.8	21.3	0.00e+00	0	39	0	694157312	58	4199
2026-01-04 02:25:15.96	4.26	20.42	-43.0	-44.7	21.3	0.00e+00	0	39	0	699400192	57	4423
2026-01-04 02:25:17.10	4.16	20.56	-43.0	-44.8	21.2	0.00e+00	0	38	0	705691648	57	4458
2026-01-04 02:25:18.15	4.07	20.69	-42.9	-44.7	21.4	0.00e+00	0	38	0	711983104	57	4395
2026-01-04 02:25:19.04	3.98	20.80	-42.9	-44.7	21.4	0.00e+00	0	39	0	716177408	57	4406
2026-01-04 02:25:20.18	3.88	20.94	-43.0	-44.7	21.3	0.00e+00	0	39	0	723517440	57	4425
2026-01-04 02:25:21.05	3.80	21.05	-43.0	-44.7	21.3	0.00e+00	0	39	0	727711744	57	4414
2026-01-04 02:25:22.19	3.69	21.20	-43.1	-44.8	21.2	0.00e+00	0	39	0	734003200	57	4493
2026-01-04 02:25:23.05	3.61	21.31	-43.1	-44.8	21.2	0.00e+00	0	38	0	739246080	57	4486
2026-01-04 02:25:24.20	3.50	21.46	-42.9	-44.6	21.4	0.00e+00	0	39	0	745537536	57	4391
2026-01-04 02:25:25.06	3.42	21.57	-42.9	-44.6	21.4	0.00e+00	0	39	0	750780416	57	4363
2026-01-04 02:25:26.20	3.31	21.72	-42.9	-44.7	21.4	0.00e+00	0	38	0	757071872	57	4394
2026-01-04 02:25:27.06	3.22	21.83	-42.8	-44.5	21.5	0.00e+00	0	39	0	761266176	57	4325
2026-01-04 02:25:28.30	3.10	21.99	-42.7	-44.5	21.5	0.00e+00	0	39	0	768606208	57	4306
2026-01-04 02:25:29.16	3.02	22.10	-42.6	-44.3	21.6	0.00e+00	0	39	0	773849088	57	4236
2026-01-04 02:25:30.30	2.90	22.25	-42.5	-44.3	21.7	0.00e+00	0	39	0	780140544	57	4201
2026-01-04 02:25:31.16	2.81	22.37	-42.5	-44.2	21.7	0.00e+00	0	39	0	784334848	57	4192
2026-01-04 02:25:32.31	2.70	22.52	-42.4	-44.1	21.8	0.00e+00	0	39	0	790626304	56	4364
2026-01-04 02:25:33.17	2.61	22.63	-42.3	-44.0	21.9	0.00e+00	0	38	0	795869184	56	4333
2026-01-04 02:25:34.32	2.49	22.79	-42.3	-44.0	21.9	0.00e+00	0	38	0	802160640	56	4318
2026-01-04 02:25:35.18	2.40	22.91	-42.1	-43.8	21.9	0.00e+00	0	39	0	807403520	55	4467
2026-01-04 02:25:36.33	2.27	23.06	-42.2	-43.9	21.9	0.00e+00	0	39	0	813694976	55	4501
2026-01-04 02:25:37.18	2.18	23.18	-42.1	-43.8	21.9	0.00e+00	0	39	0	818937856	55	4469
2026-01-04 02:25:38.33	2.06	23.33	-42.2	-43.9	21.9	0.00e+00	0	39	0	825229312	55	4498
2026-01-04 02:25:39.19	1.97	23.45	-42.1	-43.8	21.9	0.00e+00	0	39	0	830472192	55	4462
2026-01-04 02:25:40.34	1.84	23.61	-42.1	-43.8	22.0	0.00e+00	0	39	0	836763648	55	4468
2026-01-04 02:25:41.19	1.74	23.73	-42.2	-43.9	21.9	0.00e+00	0	38	0	840957952	55	4519
2026-01-04 02:25:42.34	1.62	23.89	-42.2	-43.8	21.9	1.10e-06	0	38	0	847249408	55	4493
2026-01-04 02:25:43.19	1.52	24.01	-42.1	-43.8	22.0	0.00e+00	0	39	0	852492288	55	4482
2026-01-04 02:25:44.42	1.38	24.18	-42.1	-43.8	22.0	0.00e+00	0	38	0	859832320	55	4467
2026-01-04 02:25:45.28	1.28	24.30	-42.0	-43.7	22.1	0.00e+00	0	39	0	864026624	55	4425
2026-01-04 02:25:46.49	1.14	24.47	-42.1	-43.8	22.0	0.00e+00	0	39	0	871366656	55	4461
2026-01-04 02:25:47.34	1.04	24.59	-42.2	-43.8	22.0	0.00e+00	0	38	0	875560960	55	4493
2026-01-04 02:25:48.49	0.90	24.76	-42.0	-43.7	22.1	0.00e+00	0	39	0	881852416	55	4434
2026-01-04 02:25:49.35	0.80	24.88	-42.0	-43.7	22.1	0.00e+00	0	39	0	887095296	55	4417
2026-01-04 02:25:50.49	0.66	25.05	-42.1	-43.8	22.0	0.00e+00	0	38	0	893386752	55	4451
2026-01-04 02:25:51.35	0.56	25.17	-42.0	-43.7	22.1	0.00e+00	0	39	0	898629632	55	4412
2026-01-04 02:25:52.71	0.39	25.37	-42.0	-43.7	22.1	0.00e+00	0	39	0	905969664	55	4420
2026-01-04 02:25:53.42	0.30	25.47	-42.0	-43.7	22.1	0.00e+00	0	39	0	910163968	55	4425
2026-01-04 02:25:54.71	0.14	25.66	-42.1	-43.8	22.0	0.00e+00	0	39	0	917504000	55	4481
2026-01-04 02:25:55.43	0.05	25.77	-42.1	-43.8	22.0	0.00e+00	0	39	0	921698304	55	4453
2026-01-04 02:25:56.71	359.88	25.96	-41.9	-43.6	22.2	0.00e+00	0	39	0	927989760	55	4363
2026-01-04 02:25:57.43	359.79	26.07	-41.9	-43.6	22.2	0.00e+00	0	39	0	932184064	55	4381
2026-01-04 02:25:58.72	359.62	26.26	-42.0	-43.7	22.1	0.00e+00	0	39	0	939524096	55	4409
2026-01-04 02:25:59.50	359.52	26.38	-41.9	-43.6	22.2	0.00e+00	0	39	0	943718400	55	4353
2026-01-04 02:26:00.78	359.35	26.57	-41.9	-43.5	22.3	0.00e+00	0	39	0	951058432	55	4331
2026-01-04 02:26:01.50	359.25	26.68	-41.8	-43.5	22.3	0.00e+00	0	38	0	955252736	55	4315
2026-01-04 02:26:02.79	359.08	26.88	-41.8	-43.5	22.3	0.00e+00	0	39	0	962592768	55	4299
2026-01-04 02:26:03.51	358.98	26.99	-41.8	-43.5	22.3	0.00e+00	0	39	0	966787072	55	4297
2026-01-04 02:26:04.79	358.80	27.19	-41.9	-43.5	22.2	0.00e+00	0	38	0	974127104	55	4332
2026-01-04 02:26:05.51	358.70	27.30	-42.0	-43.6	22.2	0.00e+00	0	39	0	978321408	55	4383
2026-01-04 02:26:06.79	358.52	27.50	-41.9	-43.5	22.3	0.00e+00	0	38	0	985661440	55	4334
2026-01-04 02:26:07.51	358.41	27.61	-41.9	-43.6	22.3	0.00e+00	0	38	0	988807168	55	4341
2026-01-04 02:26:08.80	358.23	27.81	-41.8	-43.5	22.2	0.00e+00	0	39	0	996147200	55	4324
2026-01-04 02:26:09.51	358.13	27.92	-41.9	-43.6	22.2	0.00e+00	0	38	0	1000341504	55	4362
2026-01-04 02:26:10.80	357.94	28.13	-41.8	-43.5	22.3	0.00e+00	0	39	0	1007681536	55	4307
2026-01-04 02:26:11.52	357.83	28.24	-41.8	-43.4	22.3	0.00e+00	0	39	0	1011875840	55	4285
2026-01-04 02:26:12.81	357.63	28.45	-41.7	-43.4	22.3	0.00e+00	0	39	0	1019215872	55	4273
2026-01-04 02:26:13.52	357.53	28.56	-41.7	-43.4	22.4	0.00e+00	0	38	0	1023410176	55	4257
2026-01-04 02:26:14.81	357.33	28.77	-41.6	-43.3	22.4	0.00e+00	0	38	0	1029701632	55	4210
2026-01-04 02:26:15.53	357.22	28.88	-41.7	-43.4	22.4	0.00e+00	0	38	0	1034944512	55	4263
2026-01-04 02:26:16.82	357.01	29.09	-41.9	-43.6	22.3	0.00e+00	0	39	0	1041235968	55	4349
2026-01-04 02:26:17.66	356.88	29.23	-41.9	-43.6	22.3	0.00e+00	0	38	0	1046478848	55	4361
2026-01-04 02:26:19.12	356.65	29.47	-41.8	-43.5	22.4	0.00e+00	0	38	0	1054867456	55	4309
2026-01-04 02:26:19.84	356.53	29.59	-41.9	-43.6	22.3	0.00e+00	0	39	0	1059061760	55	4372
2026-01-04 02:26:21.13	356.32	29.80	-41.7	-43.4	22.4	0.00e+00	0	38	0	1066401792	55	4271
2026-01-04 02:26:21.86	356.20	29.92	-41.7	-43.4	22.5	0.00e+00	0	38	0	1069547520	55	4247
2026-01-04 02:26:23.14	355.99	30.13	-41.5	-43.2	22.6	0.00e+00	0	39	0	1076887552	55	4166
2026-01-04 02:26:23.94	355.85	30.27	-41.5	-43.2	22.6	0.00e+00	0	38	0	1082130432	55	4154
2026-01-04 02:26:25.08	355.66	30.46	-41.5	-43.1	22.7	0.00e+00	0	39	0	1088421888	54	4372
2026-01-04 02:26:26.22	355.46	30.65	-41.3	-43.0	22.7	0.00e+00	0	39	0	1094713344	54	4307
2026-01-04 02:26:27.25	355.28	30.83	-41.4	-43.1	22.7	0.00e+00	0	38	0	1099956224	54	4341
2026-01-04 02:26:28.25	355.10	31.00	-41.4	-43.0	22.8	0.00e+00	0	39	0	1106247680	54	4317
2026-01-04 02:26:29.25	354.92	31.17	-41.2	-42.8	22.9	0.00e+00	0	39	0	1111490560	54	4234
2026-01-04 02:26:30.26	354.74	31.34	-41.2	-42.9	22.9	0.00e+00	0	38	0	1116733440	54	4248
2026-01-04 02:26:31.26	354.56	31.51	-41.4	-43.0	22.7	0.00e+00	0	39	0	1123024896	54	4334
2026-01-04 02:26:32.27	354.37	31.69	-41.4	-43.0	22.7	0.00e+00	0	39	0	1128267776	54	4333
2026-01-04 02:26:33.27	354.18	31.86	-41.3	-43.0	22.8	0.00e+00	0	39	0	1134559232	54	4308
2026-01-04 02:26:34.27	353.99	32.04	-41.2	-42.9	22.9	0.00e+00	0	38	0	1139802112	54	4248
2026-01-04 02:26:35.27	353.80	32.21	-41.2	-42.8	22.9	0.00e+00	0	38	0	1145044992	54	4223
2026-01-04 02:26:36.28	353.61	32.39	-41.1	-42.7	23.0	0.00e+00	0	39	0	1151336448	54	4188
2026-01-04 02:26:37.28	353.41	32.57	-41.0	-42.7	23.0	0.00e+00	0	39	0	1156579328	54	4148
2026-01-04 02:26:38.30	353.21	32.75	-41.0	-42.7	23.0	0.00e+00	0	39	0	1162870784	54	4159
2026-01-04 02:26:39.30	353.01	32.92	-41.2	-42.8	22.9	0.00e+00	0	39	0	1168113664	54	4233
2026-01-04 02:26:40.36	352.80	33.11	-41.3	-42.9	22.8	0.00e+00	0	39	0	1174405120	54	4270
2026-01-04 02:26:41.25	352.62	33.27	-41.4	-43.0	22.7	0.00e+00	0	38	0	1178599424	54	4333
2026-01-04 02:26:42.39	352.38	33.48	-41.3	-43.0	22.8	0.00e+00	0	39	0	1185939456	54	4292
2026-01-04 02:26:43.25	352.20	33.63	-41.3	-43.0	22.8	0.00e+00	0	39	0	1190133760	54	4303
2026-01-04 02:26:44.40	351.96	33.84	-41.3	-42.9	22.8	0.00e+00	0	39	0	1196425216	54	4277
2026-01-04 02:26:45.26	351.78	34.00	-41.1	-42.8	22.9	0.00e+00	0	39	0	1201668096	54	4204
2026-01-04 02:26:46.40	351.53	34.20	-40.9	-42.5	23.1	0.00e+00	0	39	0	1207959552	53	4331
2026-01-04 02:26:47.27	351.34	34.36	-40.9	-42.5	23.1	0.00e+00	0	39	0	1213202432	53	4324
2026-01-04 02:26:48.41	351.09	34.57	-40.9	-42.5	23.1	0.00e+00	0	39	0	1219493888	53	4315
2026-01-04 02:26:49.27	350.90	34.73	-41.0	-42.6	23.0	0.00e+00	0	39	0	1224736768	53	4391
2026-01-04 02:26:50.42	350.64	34.94	-41.3	-42.9	22.8	0.00e+00	0	39	0	1229979648	53	4545
2026-01-04 02:26:51.28	350.44	35.10	-41.3	-43.0	22.8	0.00e+00	0	39	0	1235222528	53	4548
2026-01-04 02:26:52.52	350.15	35.33	-41.1	-42.8	22.9	0.00e+00	0	39	0	1242562560	53	4445
2026-01-04 02:26:53.38	349.95	35.49	-41.1	-42.8	22.9	0.00e+00	0	39	0	1247805440	53	4443
2026-01-04 02:26:54.59	349.66	35.72	-41.0	-42.6	23.1	0.00e+00	0	39	0	1254096896	53	4374
2026-01-04 02:26:55.45	349.46	35.88	-40.9	-42.6	23.1	0.00e+00	0	39	0	1259339776	53	4350
2026-01-04 02:26:56.60	349.18	36.10	-41.0	-42.7	23.0	0.00e+00	0	39	0	1265631232	53	4400
2026-01-04 02:26:57.45	348.97	36.26	-41.1	-42.7	23.0	0.00e+00	0	39	0	1269825536	53	4427
2026-01-04 02:26:58.60	348.68	36.47	-41.0	-42.7	23.0	0.00e+00	0	39	0	1276116992	53	4392
2026-01-04 02:26:59.55	348.44	36.65	-41.2	-42.9	22.8	0.00e+00	0	39	0	1282408448	53	4511
2026-01-04 02:27:00.56	348.19	36.84	-41.1	-42.8	22.9	0.00e+00	0	39	0	1287651328	53	4449
2026-01-04 02:27:01.56	347.93	37.03	-41.2	-42.9	22.9	0.00e+00	0	39	0	1292894208	53	4497
2026-01-04 02:27:02.56	347.67	37.23	-41.1	-42.8	22.9	0.00e+00	0	39	0	1299185664	53	4465
2026-01-04 02:27:03.56	347.40	37.42	-41.1	-42.7	23.0	0.00e+00	0	39	0	1304428544	53	4438
2026-01-04 02:27:04.57	347.13	37.61	-40.9	-42.6	23.1	0.00e+00	0	38	0	1309671424	53	4359
2026-01-04 02:27:05.57	346.86	37.80	-41.1	-42.7	23.1	0.00e+00	0	38	0	1315962880	53	4440
2026-01-04 02:27:06.58	346.59	38.00	-41.3	-43.0	22.8	0.00e+00	0	39	0	1321205760	53	4558
2026-01-04 02:27:07.58	346.31	38.19	-41.3	-42.9	22.8	0.00e+00	0	39	0	1327497216	53	4540
2026-01-04 02:27:08.58	346.03	38.38	-41.1	-42.7	23.0	0.00e+00	0	39	0	1332740096	53	4438
2026-01-04 02:27:09.58	345.75	38.58	-41.2	-42.8	23.0	0.00e+00	0	39	0	1337982976	53	4460
2026-01-04 02:27:10.58	345.46	38.77	-41.2	-42.8	22.9	0.00e+00	0	39	0	1344274432	53	4492
2026-01-04 02:27:11.58	345.17	38.96	-41.3	-43.0	22.8	0.00e+00	0	39	0	1349517312	53	4566
2026-01-04 02:27:12.58	344.87	39.16	-41.5	-43.1	22.8	0.00e+00	0	39	0	1355808768	53	4630
2026-01-04 02:27:13.58	344.58	39.35	-41.4	-43.0	22.3	0.00e+00	0	39	0	1361051648	53	4578
2026-01-04 02:27:14.59	344.27	39.55	-41.3	-42.9	22.9	0.00e+00	0	39	0	1366294528	53	4515
2026-01-04 02:27:15.59	343.97	39.74	-41.3	-43.0	22.8	0.00e+00	0	38	0	1372585984	53	4560
2026-01-04 02:27:16.77	343.60	39.97	-41.3	-42.9	22.9	0.00e+00	0	39	0	1378877440	53	4545
2026-01-04 02:27:17.66	343.33	40.15	-41.3	-42.9	22.9	0.00e+00	0	39	0	1384120320	53	4530
2026-01-04 02:27:18.80	342.96	40.37	-41.3	-43.0	22.9	0.00e+00	0	39	0	1390411776	53	4547
2026-01-04 02:27:19.66	342.69	40.54	-41.2	-42.9	22.9	0.00e+00	0	39	0	1394606080	53	4505
2026-01-04 02:27:20.81	342.31	40.76	-41.2	-42.8	22.9	0.00e+00	0	39	0	1401946112	53	4492
2026-01-04 02:27:21.67	342.03	40.93	-41.2	-42.9	22.9	0.00e+00	0	39	0	1406140416	53	4511
2026-01-04 02:27:22.81	341.65	41.15	-41.3	-42.9	22.9	0.00e+00	0	39	0	1412431872	53	4545
2026-01-04 02:27:23.67	341.36	41.32	-41.5	-43.2	22.7	0.00e+00	0	39	0	1417674752	53	4672
2026-01-04 02:27:24.82	340.97	41.54	-41.6	-43.3	22.5	0.00e+00	0	39	0	1423966208	53	4731
2026-01-04 02:27:25.67	340.68	41.71	-41.5	-43.1	22.7	0.00e+00	0	39	0	1429209088	53	4629
2026-01-04 02:27:26.82	340.28	41.93	-41.5	-43.2	22.7	0.00e+00	0	38	0	1435500544	53	4666
2026-01-04 02:27:27.68	339.97	42.10	-41.5	-43.1	22.7	0.00e+00	0	39	0	1440743424	53	4651
2026-01-04 02:27:28.82	339.56	42.32	-41.3	-43.0	22.8	0.00e+00	0	39	0	1447034880	53	4551
2026-01-04 02:27:29.68	339.25	42.49	-41.4	-43.0	22.8	0.00e+00	0	39	0	1451229184	53	4576
2026-01-04 02:27:30.83	338.83	42.71	-41.2	-42.9	22.9	0.00e+00	0	38	0	1457520640	53	4516
2026-01-04 02:27:31.70	338.51	42.88	-41.3	-42.9	22.9	0.00e+00	0	39	0	1462763520	53	4538
2026-01-04 02:27:33.03	338.01	43.14	-41.3	-43.0	22.8	0.00e+00	0	39	0	1470103552	53	4564
2026-01-04 02:27:33.74	337.74	43.27	-41.3	-42.9	22.9	0.00e+00	0	38	0	1474297856	53	4527
2026-01-04 02:27:35.03	337.24	43.52	-41.3	-42.9	22.8	0.00e+00	0	39	0	1481637888	53	4530
2026-01-04 02:27:35.75	336.96	43.66	-41.3	-42.9	22.9	0.00e+00	0	39	0	1485832192	53	4535
2026-01-04 02:27:37.03	336.45	43.90	-41.2	-42.9	22.9	0.00e+00	0	39	0	1493172224	53	4508
2026-01-04 02:27:37.74	336.17	44.04	-41.3	-42.9	22.8	0.00e+00	0	39	0	1496317952	53	4512
2026-01-04 02:27:39.03	335.65	44.28	-41.2	-42.9	22.9	0.00e+00	0	39	0	1503657984	53	4495
2026-01-04 02:27:39.75	335.35	44.42	-41.0	-42.6	23.1	0.00e+00	0	39	0	1507852288	53	4357
2026-01-04 02:27:41.03	334.82	44.66	-41.0	-42.7	23.0	0.00e+00	0	39	0	1515192320	53	4402
2026-01-04 02:27:41.75	334.52	44.80	-41.3	-42.9	22.9	0.00e+00	0	38	0	1519386624	53	4524
2026-01-04 02:27:43.04	333.97	45.04	-41.5	-43.2	22.6	0.00e+00	0	39	0	1526726656	53	4663
2026-01-04 02:27:43.76	333.66	45.17	-41.4	-43.1	22.7	0.00e+00	0	39	0	1530920960	53	4612
2026-01-04 02:27:45.16	333.05	45.43	-41.3	-42.9	22.8	0.00e+00	0	39	0	1538260992	53	4522
2026-01-04 02:27:45.88	332.74	45.56	-41.3	-43.0	22.8	0.00e+00	0	39	0	1542455296	53	4567
2026-01-04 02:27:47.16	332.17	45.80	-41.3	-42.9	22.8	0.00e+00	0	39	0	1549795328	53	4541
2026-01-04 02:27:48.22	331.69	45.99	-41.4	-43.0	22.6	0.00e+00	0	39	0	1556086784	53	4587
2026-01-04 02:27:49.46	331.12	46.21	-41.8	-43.5	22.4	0.00e+00	0	39	0	1562378240	54	4569
2026-01-04 02:27:50.31	330.72	46.36	-41.7	-43.4	22.5	0.00e+00	0	39	0	1567621120	54	4510
2026-01-04 02:27:51.46	330.19	46.57	-41.6	-43.3	22.6	0.00e+00	0	39	0	1573912576	54	4468
2026-01-04 02:27:52.32	329.78	46.72	-41.8	-43.4	22.6	0.00e+00	0	39	0	1579155456	54	4519
2026-01-04 02:27:53.46	329.23	46.92	-41.9	-43.6	22.4	0.00e+00	0	38	0	1585446912	54	4603
2026-01-04 02:27:54.32	328.81	47.07	-41.8	-43.5	22.4	0.00e+00	0	39	0	1589641216	54	4569
2026-01-04 02:27:55.46	328.26	47.26	-41.7	-43.3	22.5	0.00e+00	0	39	0	1595932672	54	4482
2026-01-04 02:27:56.32	327.83	47.41	-41.7	-43.4	22.5	0.00e+00	0	39	0	1601175552	54	4496
2026-01-04 02:27:57.47	327.25	47.60	-41.8	-43.4	22.5	2.40e-05	0	39	0	1607467008	54	4542
2026-01-04 02:27:58.33	326.82	47.74	-42.0	-43.7	22.1	0.00e+00	0	39	0	1612709888	54	4654
2026-01-04 02:27:59.48	326.23	47.93	-41.9	-43.5	22.3	0.00e+00	0	39	0	1619001344	54	4598
2026-01-04 02:28:00.34	325.78	48.07	-41.9	-43.5	22.3	2.20e-06	0	39	0	1624244224	54	4596
2026-01-04 02:28:01.49	325.18	48.26	-41.8	-43.5	22.5	2.20e-06	0	39	0	1630535680	54	4546
2026-01-04 02:28:02.35	324.73	48.39	-41.7	-43.3	22.5	0.00e+00	0	38	0	1634729984	54	4483
2026-01-04 02:28:03.49	324.12	48.57	-42.0	-43.7	22.3	1.10e-06	0	39	0	1642070016	54	4670
2026-01-04 02:28:04.35	323.65	48.71	-42.2	-43.9	22.0	1.10e-06	0	39	0	1646264320	55	4522
2026-01-04 02:28:05.50	323.03	48.88	-42.2	-43.9	22.0	0.00e+00	0	39	0	1652555776	55	4528
2026-01-04 02:28:06.36	322.55	49.01	-42.2	-43.8	22.1	0.00e+00	0	39	0	1657798656	55	4487
2026-01-04 02:28:07.51	321.91	49.18	-41.9	-43.6	22.3	0.00e+00	0	39	0	1664090112	55	4353
2026-01-04 02:28:08.37	321.43	49.30	-41.8	-43.5	22.4	0.00e+00	0	39	0	1669332992	55	4311
2026-01-04 02:28:09.53	320.78	49.47	-42.0	-43.7	22.2	0.00e+00	0	39	0	1675624448	55	4402
2026-01-04 02:28:10.39	320.28	49.59	-42.2	-43.9	22.1	0.00e+00	0	38	0	1680867328	55	4496
2026-01-04 02:28:11.60	319.58	49.75	-42.1	-43.8	22.1	2.20e-06	0	39	0	1687158784	55	4486
2026-01-04 02:28:12.46	319.08	49.87	-41.9	-43.5	22.3	0.00e+00	0	39	0	1692401664	55	4337
2026-01-04 02:28:13.60	318.41	50.02	-42.0	-43.6	22.3	0.00e+00	0	38	0	1698693120	55	4370
2026-01-04 02:28:14.46	317.90	50.13	-42.2	-43.9	22.1	0.00e+00	0	39	0	1702887424	55	4504
2026-01-04 02:28:15.61	317.21	50.27	-42.2	-43.9	22.0	0.00e+00	0	39	0	1710227456	55	4525
2026-01-04 02:28:16.46	316.70	50.38	-42.2	-43.9	22.0	0.00e+00	0	39	0	1714421760	55	4500
2026-01-04 02:28:17.61	316.00	50.52	-42.1	-43.8	22.0	0.00e+00	0	39	0	1720713216	55	4446
2026-01-04 02:28:18.47	315.48	50.62	-42.3	-43.9	22.0	0.00e+00	0	39	0	1725956096	55	4534
2026-01-04 02:28:19.61	314.77	50.75	-42.2	-43.9	22.0	0.00e+00	0	39	0	1732247552	55	4524
2026-01-04 02:28:20.63	314.14	50.86	-42.4	-44.1	21.8	0.00e+00	0	38	0	1738539008	55	4646
2026-01-04 02:28:21.63	313.51	50.96	-42.5	-44.2	21.8	0.00e+00	0	39	0	1743781888	55	4677
2026-01-04 02:28:22.64	312.87	51.07	-42.6	-44.3	21.7	0.00e+00	0	39	0	1749024768	55	4729
2026-01-04 02:28:23.64	312.24	51.17	-42.1	-43.8	22.1	0.00e+00	0	38	0	1755316224	55	4455
2026-01-04 02:28:24.95	311.40	51.29	-42.0	-43.6	22.3	0.00e+00	0	39	0	1762656256	55	4375
2026-01-04 02:28:25.69	310.92	51.36	-42.0	-43.7	22.1	0.00e+00	0	39	0	1766850560	55	4426
2026-01-04 02:28:26.98	310.08	51.47	-42.1	-43.8	22.0	0.00e+00	0	39	0	1774190592	55	4442
2026-01-04 02:28:27.70	309.61	51.53	-42.0	-43.6	22.1	0.00e+00	0	39	0	1777336320	55	4390
2026-01-04 02:28:28.99	308.77	51.64	-41.8	-43.4	22.3	0.00e+00	0	39	0	1784676352	55	4278
2026-01-04 02:28:29.70	308.30	51.69	-41.7	-43.4	22.4	0.00e+00	0	39	0	1788870656	55	4246
2026-01-04 02:28:30.99	307.44	51.78	-41.9	-43.6	22.2	0.00e+00	0	39	0	1796210688	55	4367
2026-01-04 02:28:31.71	306.96	51.83	-41.9	-43.6	22.2	0.00e+00	0	39	0	1800404992	55	4342
2026-01-04 02:28:33.06	306.06	51.92	-41.7	-43.4	22.4	0.00e+00	0	39	0	1807745024	55	4250
2026-01-04 02:28:34.07	305.38	51.98	-41.7	-43.3	22.4	0.00e+00	0	39	0	1812987904	55	4235
2026-01-04 02:28:35.39	304.49	52.05	-41.9	-43.6	22.2	0.00e+00	0	39	0	1821376512	55	4358
2026-01-04 02:28:36.10	304.01	52.09	-41.8	-43.4	22.3	0.00e+00	0	39	0	1824522240	55	4287
2026-01-04 02:28:37.75	302.88	52.17	-41.8	-43.4	22.3	0.00e+00	0	39	0	1833959424	55	4280
2026-01-04 02:28:38.32	302.49	52.19	-41.9	-43.6	22.2	0.00e+00	0	39	0	1838153728	55	4356
2026-01-04 02:28:39.90	301.41	52.25	-42.0	-43.7	22.1	0.00e+00	0	39	0	1846542336	55	4406
2026-01-04 02:28:40.51	300.99	52.27	-41.8	-43.5	22.3	0.00e+00	0	39	0	1849688064	55	4324
2026-01-04 02:28:42.09	299.90	52.31	-41.6	-43.2	22.5	0.00e+00	0	39	0	1859125248	55	4163
2026-01-04 02:28:42.74	299.46	52.33	-41.5	-43.2	22.5	0.00e+00	0	39	0	1862270976	55	4153
2026-01-04 02:28:44.18	298.46	52.35	-41.7	-43.3	22.4	0.00e+00	0	39	0	1870659584	55	4241
2026-01-04 02:28:44.97	297.91	52.36	-41.7	-43.3	22.3	0.00e+00	0	39	0	1874853888	55	4238
2026-01-04 02:28:46.12	297.12	52.38	-41.7	-43.4	22.3	0.00e+00	0	39	0	1881145344	55	4258
2026-01-04 02:28:47.22	296.36	52.38	-41.7	-43.3	22.4	0.00e+00	0	39	0	1887436800	55	4224
2026-01-04 02:28:48.25	295.64	52.38	-41.9	-43.6	22.1	0.00e+00	0	39	0	1893728256	55	4374
2026-01-04 02:28:49.25	294.95	52.38	-41.6	-43.3	22.4	0.00e+00	0	38	0	1898971136	55	4224
2026-01-04 02:28:50.46	294.11	52.36	-41.5	-43.1	22.6	0.00e+00	0	39	0	1905262592	54	4352
2026-01-04 02:28:51.32	293.52	52.35	-41.7	-43.3	22.4	0.00e+00	0	39	0	1910505472	54	4472
2026-01-04 02:28:52.70	292.56	52.33	-41.9	-43.6	22.1	0.00e+00	0	39	0	1918894080	54	4606
2026-01-04 02:28:53.42	292.07	52.31	-41.9	-43.5	22.2	0.00e+00	0	39	0	1923088384	54	4597
2026-01-04 02:28:54.71	291.18	52.28	-41.7	-43.4	22.3	0.00e+00	0	39	0	1929379840	54	4520
2026-01-04 02:28:55.43	290.68	52.25	-41.7	-43.4	22.2	0.00e+00	0	39	0	1933574144	54	4524
2026-01-04 02:28:56.72	289.80	52.21	-41.5	-43.1	22.5	0.00e+00	0	39	0	1940914176	54	4387
2026-01-04 02:28:57.48	289.28	52.18	-41.5	-43.2	22.5	0.00e+00	0	39	0	1945108480	54	4404
2026-01-04 02:28:58.77	288.40	52.12	-41.6	-43.3	22.4	0.00e+00	0	39	0	1952448512	54	4473
2026-01-04 02:28:59.49	287.91	52.08	-41.6	-43.2	22.4	0.00e+00	0	39	0	1956642816	54	4433
2026-01-04 02:29:00.78	287.03	52.01	-41.5	-43.2	22.5	0.00e+00	0	39	0	1963982848	54	4405
2026-01-04 02:29:01.49	286.55	51.97	-41.5	-43.2	22.4	0.00e+00	0	38	0	1968177152	54	4405
2026-01-04 02:29:02.78	285.69	51.90	-41.3	-42.9	22.7	0.00e+00	0	39	0	1975517184	54	4285
2026-01-04 02:29:03.72	285.06	51.83	-41.2	-42.9	22.7	0.00e+00	0	39	0	1980760064	54	4249
2026-01-04 02:29:04.72	284.39	51.76	-41.4	-43.0	22.6	0.00e+00	0	39	0	1986002944	54	4331
2026-01-04 02:29:05.72	283.73	51.69	-41.5	-43.2	22.5	0.00e+00	0	39	0	1992294400	54	4396
2026-01-04 02:29:06.73	283.06	51.61	-41.6	-43.3	22.4	0.00e+00	0	39	0	1997537280	54	4442
2026-01-04 02:29:07.73	282.40	51.53	-41.5	-43.1	22.5	0.00e+00	0	39	0	2002780160	54	4364
2026-01-04 02:29:08.76	281.73	51.45	-41.4	-43.0	22.6	0.00e+00	0	39	0	2009071616	54	4340
2026-01-04 02:29:09.79	281.06	51.35	-41.5	-43.1	22.5	0.00e+00	0	39	0	2014314496	54	4369
2026-01-04 02:29:10.84	280.39	51.26	-41.7	-43.3	22.3	0.00e+00	0	39	0	2020605952	54	4487
2026-01-04 02:29:11.81	279.76	51.16	-41.6	-43.3	22.4	0.00e+00	0	39	0	2025848832	54	4464
2026-01-04 02:29:12.81	279.13	51.06	-41.5	-43.1	22.5	0.00e+00	0	38	0	2031091712	54	4366
2026-01-04 02:29:13.81	278.50	50.96	-41.4	-43.0	22.6	0.00e+00	0	38	0	2037383168	54	4301
2026-01-04 02:29:14.82	277.86	50.85	-41.4	-43.0	22.6	0.00e+00	0	39	0	2042626048	54	4336
2026-01-04 02:29:15.82	277.24	50.74	-41.6	-43.3	22.3	0.00e+00	0	39	0	2048917504	54	4470
2026-01-04 02:29:16.82	276.62	50.63	-41.6	-43.3	22.3	0.00e+00	0	39	0	2054160384	54	4459
2026-01-04 02:29:17.82	276.00	50.51	-41.4	-43.1	22.5	0.00e+00	0	39	0	2059403264	54	4356
2026-01-04 02:29:18.82	275.40	50.39	-41.5	-43.2	22.4	0.00e+00	0	39	0	2065694720	54	4400
2026-01-04 02:29:19.83	274.79	50.27	-41.6	-43.2	22.4	0.00e+00	0	39	0	2070937600	54	4435
2026-01-04 02:29:20.83	274.19	50.15	-41.6	-43.2	22.4	0.00e+00	0	38	0	2077229056	54	4436
2026-01-04 02:29:21.83	273.59	50.02	-41.8	-43.4	22.2	0.00e+00	0	39	0	2082471936	54	4537
2026-01-04 02:29:22.85	272.99	49.88	-41.7	-43.4	22.3	0.00e+00	0	39	0	2087714816	54	4499
2026-01-04 02:29:23.87	272.39	49.75	-41.6	-43.3	22.4	0.00e+00	0	39	0	2094006272	54	4449
2026-01-04 02:29:24.89	271.80	49.61	-41.6	-43.3	22.4	0.00e+00	0	39	0	2099249152	54	4447
2026-01-04 02:29:25.91	271.22	49.46	-41.4	-43.1	22.5	0.00e+00	0	39	0	2105540608	54	4356
2026-01-04 02:29:26.91	270.65	49.32	-41.1	-42.7	22.8	0.00e+00	0	39	0	2110783488	54	4185
2026-01-04 02:29:27.98	270.05	49.16	-41.2	-42.8	22.8	0.00e+00	0	39	0	2117074944	54	4210
2026-01-04 02:29:28.87	269.55	49.03	-41.3	-42.9	22.7	0.00e+00	0	39	0	2121269248	54	4271
2026-01-04 02:29:30.01	268.92	48.86	-41.1	-42.8	22.7	0.00e+00	0	39	0	2128609280	54	4206
2026-01-04 02:29:30.88	268.45	48.73	-41.2	-42.8	22.8	0.00e+00	0	39	0	2132803584	54	4222
2026-01-04 02:29:32.02	267.83	48.55	-41.3	-42.9	22.6	0.00e+00	0	38	0	2140143616	54	4281
2026-01-04 02:29:32.88	267.37	48.42	-41.2	-42.9	22.7	0.00e+00	0	39	0	2144337920	54	4245
2026-01-04 02:29:34.03	266.76	48.24	-41.3	-42.9	22.6	0.00e+00	0	38	0	2150629376	54	4274
2026-01-04 02:29:34.88	266.32	48.10	-41.4	-43.1	22.5	0.00e+00	0	39	0	2155872256	54	4363
2026-01-04 02:29:36.03	265.72	47.91	-41.3	-43.0	22.5	0.00e+00	0	39	0	2162163712	54	4308
2026-01-04 02:29:36.89	265.28	47.77	-41.3	-43.0	22.6	0.00e+00	0	39	0	2167406592	54	4313
2026-01-04 02:29:38.03	264.70	47.58	-41.2	-42.8	22.6	0.00e+00	0	39	0	2173698048	54	4242
2026-01-04 02:29:38.89	264.26	47.43	-41.3	-42.9	22.6	0.00e+00	0	39	0	2177892352	54	4288
2026-01-04 02:29:40.04	263.69	47.24	-40.8	-42.4	23.0	0.00e+00	0	39	0	2185232384	53	4288
2026-01-04 02:29:40.90	263.27	47.09	-40.8	-42.4	23.0	0.00e+00	0	39	0	2189426688	53	4261
2026-01-04 02:29:42.17	262.65	46.87	-40.6	-42.2	23.1	0.00e+00	0	39	0	2196766720	53	4188
2026-01-04 02:29:42.89	262.31	46.74	-40.7	-42.3	23.1	0.00e+00	0	39	0	2200961024	53	4211
2026-01-04 02:29:44.17	261.70	46.52	-40.8	-42.4	23.0	0.00e+00	0	39	0	2208301056	53	4277
2026-01-04 02:29:44.89	261.36	46.39	-40.8	-42.4	23.0	0.00e+00	0	39	0	2212495360	53	4289
2026-01-04 02:29:46.18	260.76	46.16	-40.8	-42.5	23.0	0.00e+00	0	39	0	2219835392	53	4294
2026-01-04 02:29:46.89	260.43	46.03	-41.0	-42.6	22.8	0.00e+00	0	39	0	2222981120	53	4383
2026-01-04 02:29:48.18	259.85	45.80	-41.0	-42.7	22.7	0.00e+00	0	39	0	2230321152	53	4416
2026-01-04 02:29:48.97	259.49	45.65	-41.0	-42.6	22.8	0.00e+00	0	39	0	2234515456	53	4389
2026-01-04 02:29:50.16	258.97	45.43	-40.8	-42.4	23.1	0.00e+00	0	39	0	2241855488	53	4256
2026-01-04 02:29:51.21	258.51	45.24	-40.8	-42.4	23.1	0.00e+00	0	39	0	2247098368	53	4246
2026-01-04 02:29:52.26	258.05	45.04	-40.7	-42.4	23.1	0.00e+00	0	38	0	2253389824	53	4244
2026-01-04 02:29:53.17	257.66	44.87	-40.7	-42.4	23.1	0.00e+00	0	39	0	2258632704	53	4250
2026-01-04 02:29:54.17	257.24	44.68	-40.7	-42.3	23.1	0.00e+00	0	39	0	2263875584	53	4212
2026-01-04 02:29:55.18	256.82	44.49	-40.5	-42.2	23.2	0.00e+00	0	39	0	2270167040	53	4146
2026-01-04 02:29:56.18	256.41	44.30	-40.5	-42.1	23.3	0.00e+00	0	39	0	2275409920	53	4118
2026-01-04 02:29:57.55	255.85	44.04	-40.6	-42.2	23.2	0.00e+00	0	39	0	2282749952	52	4415
2026-01-04 02:29:58.28	255.56	43.90	-40.6	-42.2	23.2	0.00e+00	0	39	0	2286944256	52	4410
2026-01-04 02:29:59.57	255.05	43.66	-40.6	-42.2	23.2	0.00e+00	0	39	0	2294284288	52	4434
2026-01-04 02:30:00.29	254.76	43.52	-40.4	-42.1	23.2	0.00e+00	0	39	0	2298478592	52	4342
2026-01-04 02:30:01.57	254.27	43.27	-40.4	-42.1	23.3	0.00e+00	0	39	0	2305818624	52	4347
2026-01-04 02:30:02.29	253.99	43.13	-40.5	-42.1	23.3	0.00e+00	0	39	0	2310012928	52	4373
2026-01-04 02:30:03.58	253.50	42.88	-40.7	-42.3	23.2	0.00e+00	0	39	0	2317352960	52	4469
2026-01-04 02:30:04.30	253.24	42.74	-40.5	-42.1	23.3	0.00e+00	0	39	0	2321547264	52	4356
2026-01-04 02:30:05.58	252.76	42.49	-40.4	-42.0	23.3	0.00e+00	0	39	0	2328887296	52	4312
2026-01-04 02:30:06.30	252.50	42.35	-40.3	-41.9	23.4	0.00e+00	0	39	0	2332033024	52	4267
2026-01-04 02:30:07.59	252.04	42.10	-40.4	-42.0	23.3	0.00e+00	0	39	0	2339373056	52	4311
2026-01-04 02:30:08.30	251.78	41.96	-40.4	-42.0	23.3	0.00e+00	0	39	0	2343567360	52	4311
2026-01-04 02:30:09.59	251.33	41.71	-40.4	-42.0	23.3	0.00e+00	0	39	0	2350907392	52	4333
2026-01-04 02:30:10.31	251.08	41.57	-40.5	-42.2	23.2	0.00e+00	0	39	0	2355101696	52	4396
2026-01-04 02:30:11.77	250.58	41.28	-40.6	-42.3	23.1	0.00e+00	0	39	0	2363490304	52	4442
2026-01-04 02:30:12.49	250.34	41.14	-40.6	-42.2	23.1	0.00e+00	0	39	0	2367684608	52	4439
2026-01-04 02:30:13.77	249.91	40.89	-40.7	-42.3	23.1	0.00e+00	0	39	0	2375024640	52	4461
2026-01-04 02:30:14.49	249.67	40.75	-40.8	-42.4	23.0	0.00e+00	0	39	0	2378170368	52	4525
2026-01-04 02:30:15.78	249.25	40.50	-40.6	-42.2	23.1	0.00e+00	0	39	0	2385510400	52	4413
2026-01-04 02:30:16.50	249.02	40.36	-40.6	-42.2	23.1	0.00e+00	0	39	0	2389704704	52	4411
2026-01-04 02:30:17.78	248.61	40.10	-40.5	-42.2	23.1	0.00e+00	0	39	0	2397044736	52	4395
2026-01-04 02:30:18.50	248.39	39.96	-40.5	-42.1	23.1	0.00e+00	0	39	0	2401239040	52	4387
2026-01-04 02:30:19.79	247.99	39.71	-40.5	-42.1	23.2	0.00e+00	0	39	0	2408579072	52	4371
2026-01-04 02:30:20.50	247.77	39.57	-40.4	-42.0	23.3	0.00e+00	0	39	0	2412773376	52	4337
2026-01-04 02:30:21.80	247.38	39.32	-40.3	-41.9	23.3	0.00e+00	0	39	0	2419064832	52	4286
2026-01-04 02:30:22.67	247.12	39.15	-40.3	-41.9	23.4	0.00e+00	0	39	0	2424307712	52	4260
2026-01-04 02:30:24.13	246.68	38.86	-40.4	-42.0	23.3	0.00e+00	0	39	0	2432696320	52	4326
2026-01-04 02:30:24.85	246.48	38.72	-40.4	-42.0	23.3	0.00e+00	0	39	0	2436890624	52	4332
2026-01-04 02:30:26.14	246.10	38.47	-40.5	-42.1	23.2	0.00e+00	0	39	0	2444230656	52	4354
2026-01-04 02:30:26.86	245.90	38.33	-40.4	-42.0	23.2	0.00e+00	0	39	0	2448424960	52	4339
2026-01-04 02:30:28.15	245.54	38.08	-40.4	-42.0	23.3	0.00e+00	0	39	0	2455764992	52	4323
2026-01-04 02:30:28.88	245.34	37.94	-40.4	-42.0	23.2	0.00e+00	0	39	0	2459959296	52	4311
2026-01-04 02:30:30.17	244.98	37.69	-40.5	-42.2	23.1	0.00e+00	0	39	0	2466250752	52	4399
2026-01-04 02:30:30.98	244.76	37.54	-40.6	-42.2	23.1	0.00e+00	0	39	0	2471493632	52	4424
2026-01-04 02:30:32.12	244.46	37.32	-40.6	-42.2	23.1	0.00e+00	0	39	0	2477785088	52	4421
2026-01-04 02:30:33.22	244.17	37.11	-40.4	-42.1	23.2	0.00e+00	0	39	0	2484076544	52	4344
2026-01-04 02:30:34.26	243.90	36.91	-40.3	-42.0	23.3	0.00e+00	0	39	0	2489319424	52	4302
2026-01-04 02:30:35.46	243.59	36.68	-40.4	-42.0	23.3	0.00e+00	0	39	0	2496659456	52	4301
2026-01-04 02:30:36.32	243.37	36.51	-40.3	-42.0	23.3	0.00e+00	0	39	0	2501902336	52	4293
2026-01-04 02:30:37.47	243.08	36.30	-40.3	-41.9	23.3	0.00e+00	0	39	0	2508193792	52	4261
2026-01-04 02:30:38.33	242.87	36.13	-40.3	-41.9	23.2	0.00e+00	0	39	0	2512388096	52	4284
2026-01-04 02:30:39.48	242.59	35.92	-40.2	-41.8	23.3	0.00e+00	0	39	0	2518679552	52	4223
2026-01-04 02:30:40.34	242.38	35.75	-40.3	-41.8	23.3	0.00e+00	0	39	0	2523922432	52	4242
2026-01-04 02:30:41.48	242.10	35.54	-40.2	-41.8	23.4	0.00e+00	0	39	0	2530213888	52	4223
2026-01-04 02:30:42.34	241.90	35.38	-40.3	-41.9	23.4	0.00e+00	0	39	0	2535456768	52	4253
2026-01-04 02:30:43.49	241.63	35.16	-40.3	-41.9	23.3	0.00e+00	0	39	0	2541748224	52	4274
2026-01-04 02:30:44.35	241.43	35.00	-40.2	-41.9	23.3	0.00e+00	0	39	0	2545942528	52	4257
2026-01-04 02:30:45.49	241.17	34.79	-40.1	-41.7	23.5	0.00e+00	0	39	0	2553282560	52	4166
2026-01-04 02:30:46.35	240.98	34.63	-40.0	-41.6	23.6	0.00e+00	0	39	0	2557476864	52	4131
2026-01-04 02:30:47.50	240.72	34.42	-40.0	-41.6	23.5	0.00e+00	0	39	0	2563768320	52	4124
2026-01-04 02:30:48.36	240.53	34.26	-40.1	-41.7	23.5	0.00e+00	0	39	0	2569011200	52	4172
2026-01-04 02:30:49.63	240.25	34.03	-40.1	-41.6	23.6	0.00e+00	0	39	0	2576351232	51	4391
2026-01-04 02:30:50.35	240.10	33.90	-40.1	-41.7	23.5	0.00e+00	0	39	0	2580545536	51	4429
2026-01-04 02:30:51.63	239.82	33.66	-40.2	-41.8	23.4	0.00e+00	0	39	0	2587885568	51	4491
2026-01-04 02:30:52.35	239.67	33.53	-40.2	-41.8	23.4	0.00e+00	0	39	0	2591031296	51	4490
2026-01-04 02:30:53.64	239.40	33.30	-40.3	-41.9	23.4	0.00e+00	0	39	0	2598371328	51	4517
2026-01-04 02:30:54.35	239.26	33.17	-40.3	-41.9	23.3	0.00e+00	0	39	0	2602565632	51	4540
2026-01-04 02:30:55.64	238.99	32.94	-40.4	-42.1	23.2	0.00e+00	0	39	0	2609905664	51	4602
2026-01-04 02:30:56.50	238.82	32.79	-40.5	-42.2	23.1	0.00e+00	0	39	0	2615148544	51	4665
2026-01-04 02:30:57.65	238.59	32.58	-40.6	-42.3	23.1	0.00e+00	0	39	0	2621440000	51	4707
2026-01-04 02:30:58.51	238.42	32.43	-40.5	-42.2	23.1	0.00e+00	0	39	0	2625634304	51	4673
2026-01-04 02:30:59.65	238.20	32.23	-40.5	-42.2	23.1	0.00e+00	0	39	0	2632974336	51	4668
2026-01-04 02:31:00.85	237.97	32.02	-40.3	-41.9	23.4	0.00e+00	0	39	0	2639265792	51	4512
2026-01-04 02:31:01.70	237.81	31.87	-40.2	-41.8	23.4	0.00e+00	0	39	0	2644508672	51	4489
2026-01-04 02:31:02.85	237.59	31.67	-40.2	-41.8	23.4	0.00e+00	0	39	0	2650800128	51	4479
2026-01-04 02:31:03.71	237.43	31.52	-40.4	-42.0	23.3	0.00e+00	0	39	0	2654994432	51	4586
2026-01-04 02:31:04.85	237.22	31.32	-40.5	-42.2	23.1	0.00e+00	0	39	0	2661285888	51	4660
2026-01-04 02:31:05.71	237.06	31.17	-40.7	-42.3	23.0	0.00e+00	0	39	0	2666528768	52	4473
2026-01-04 02:31:06.91	236.85	30.96	-40.7	-42.3	22.9	0.00e+00	0	39	0	2672820224	52	4491
2026-01-04 02:31:07.77	236.69	30.82	-40.8	-42.5	22.8	0.00e+00	0	39	0	2678063104	52	4573
2026-01-04 02:31:09.01	236.47	30.60	-40.9	-42.6	22.8	0.00e+00	0	39	0	2685403136	52	4602
2026-01-04 02:31:09.86	236.33	30.46	-40.9	-42.5	22.9	0.00e+00	0	39	0	2689597440	52	4570
2026-01-04 02:31:11.01	236.13	30.27	-40.9	-42.5	22.9	0.00e+00	0	39	0	2695888896	52	4569
2026-01-04 02:31:11.86	235.98	30.12	-40.9	-42.5	22.9	0.00e+00	0	39	0	2701131776	52	4575
2026-01-04 02:31:13.01	235.79	29.93	-40.9	-42.5	22.8	0.00e+00	0	39	0	2707423232	52	4576
2026-01-04 02:31:13.87	235.65	29.79	-41.1	-42.7	22.7	0.00e+00	0	39	0	2712666112	52	4684
2026-01-04 02:31:15.02	235.45	29.59	-41.0	-42.6	22.7	0.00e+00	0	39	0	2718957568	52	4649
2026-01-04 02:31:15.88	235.31	29.45	-40.9	-42.6	22.8	0.00e+00	0	39	0	2724200448	52	4613
2026-01-04 02:31:17.02	235.13	29.26	-41.0	-42.7	22.7	0.00e+00	0	39	0	2730491904	52	4658
2026-01-04 02:31:17.88	234.99	29.12	-41.0	-42.6	22.7	0.00e+00	0	39	0	2734686208	52	4651
2026-01-04 02:31:19.02	234.81	28.94	-41.1	-42.8	22.6	0.00e+00	0	39	0	2742026240	52	4722
2026-01-04 02:31:19.88	234.68	28.80	-41.2	-42.8	22.6	0.00e+00	0	39	0	2746220544	53	4467
2026-01-04 02:31:21.03	234.50	28.61	-41.2	-42.8	22.6	0.00e+00	0	39	0	2752512000	53	4467
2026-01-04 02:31:21.88	234.37	28.47	-41.1	-42.8	22.6	0.00e+00	0	39	0	2757754880	53	4461
2026-01-04 02:31:23.03	234.19	28.29	-41.1	-42.8	22.6	0.00e+00	0	39	0	2764046336	53	4464
2026-01-04 02:31:23.89	234.06	28.15	-41.1	-42.8	22.6	0.00e+00	0	38	0	2769289216	53	4446
2026-01-04 02:31:25.03	233.89	27.97	-41.1	-42.7	22.6	0.00e+00	0	39	0	2775580672	53	4441
2026-01-04 02:31:25.89	233.76	27.83	-41.1	-42.8	22.6	0.00e+00	0	39	0	2779774976	53	4443
2026-01-04 02:31:27.03	233.60	27.65	-41.2	-42.9	22.5	0.00e+00	0	39	0	2787115008	53	4494
2026-01-04 02:31:27.94	233.47	27.51	-41.2	-42.8	22.5	0.00e+00	0	39	0	2791309312	53	4487
2026-01-04 02:31:28.95	233.32	27.35	-41.1	-42.8	22.5	0.00e+00	0	39	0	2797600768	53	4475
2026-01-04 02:31:29.95	233.18	27.20	-41.1	-42.8	22.5	0.00e+00	0	39	0	2802843648	53	4465
2026-01-04 02:31:31.25	233.00	26.99	-41.2	-42.9	22.4	0.00e+00	0	39	0	2810183680	53	4535
2026-01-04 02:31:32.00	232.89	26.88	-41.2	-42.9	22.5	0.00e+00	0	39	0	2814377984	53	4516
2026-01-04 02:31:33.29	232.72	26.68	-41.1	-42.8	22.5	0.00e+00	0	39	0	2821718016	53	4460
2026-01-04 02:31:34.00	232.62	26.57	-40.9	-42.6	22.7	0.00e+00	0	39	0	2825912320	53	4344
2026-01-04 02:31:35.29	232.44	26.38	-41.0	-42.7	22.6	0.00e+00	0	39	0	2833252352	53	4408
2026-01-04 02:31:36.01	232.35	26.27	-41.0	-42.6	22.6	0.00e+00	0	39	0	2837446656	53	4390
2026-01-04 02:31:37.30	232.18	26.07	-40.9	-42.5	22.7	0.00e+00	0	39	0	2843738112	53	4340
2026-01-04 02:31:38.02	232.08	25.96	-40.9	-42.6	22.6	0.00e+00	0	39	0	2847932416	53	4343
2026-01-04 02:31:39.31	231.92	25.77	-41.0	-42.6	22.6	0.00e+00	0	39	0	2855272448	53	4386
2026-01-04 02:31:40.02	231.82	25.67	-41.0	-42.6	22.6	0.00e+00	0	39	0	2859466752	53	4372
2026-01-04 02:31:41.31	231.66	25.47	-41.1	-42.8	22.5	0.00e+00	0	39	0	2866806784	53	4443
2026-01-04 02:31:42.03	231.57	25.37	-41.2	-42.8	22.5	0.00e+00	0	39	0	2871001088	53	4493
2026-01-04 02:31:43.32	231.41	25.18	-41.1	-42.8	22.5	0.00e+00	0	39	0	2878341120	53	4466
2026-01-04 02:31:44.03	231.32	25.07	-41.1	-42.7	22.6	0.00e+00	0	39	0	2882535424	53	4425
2026-01-04 02:31:45.32	231.16	24.89	-41.1	-42.8	22.5	0.00e+00	0	39	0	2889875456	53	4467
2026-01-04 02:31:46.07	231.07	24.78	-41.3	-42.9	22.5	0.00e+00	0	39	0	2893021184	53	4540
2026-01-04 02:31:47.70	230.88	24.54	-41.2	-42.9	22.5	0.00e+00	0	39	0	2902458368	53	4515
2026-01-04 02:31:48.28	230.81	24.46	-41.2	-42.9	22.5	0.00e+00	0	39	0	2906652672	53	4513
2026-01-04 02:31:49.86	230.62	24.23	-41.3	-43.0	22.4	0.00e+00	0	39	0	2915041280	53	4556
2026-01-04 02:31:50.49	230.55	24.15	-41.2	-42.9	22.4	0.00e+00	0	39	0	2918187008	53	4517
2026-01-04 02:31:51.96	230.38	23.94	-41.3	-43.0	22.4	0.00e+00	0	39	0	2926575616	53	4571
2026-01-04 02:31:52.68	230.30	23.84	-41.3	-43.0	22.4	0.00e+00	0	39	0	2930769920	53	4572
2026-01-04 02:31:53.97	230.15	23.66	-41.5	-43.2	22.2	0.00e+00	0	39	0	2938109952	53	4687
2026-01-04 02:31:54.69	230.07	23.56	-41.4	-43.1	22.3	0.00e+00	0	39	0	2942304256	53	4635
2026-01-04 02:31:56.09	229.91	23.36	-41.4	-43.1	22.3	0.00e+00	0	39	0	2949644288	53	4613
2026-01-04 02:31:56.80	229.84	23.26	-41.4	-43.1	22.3	0.00e+00	0	39	0	2953838592	53	4612
2026-01-04 02:31:58.09	229.70	23.09	-41.5	-43.1	22.3	0.00e+00	0	39	0	2961178624	53	4634
2026-01-04 02:31:59.17	229.58	22.94	-41.4	-43.1	22.3	0.00e+00	0	39	0	2967470080	53	4607
2026-01-04 02:32:00.35	229.45	22.78	-41.4	-43.0	22.3	0.00e+00	0	39	0	2973761536	53	4591
2026-01-04 02:32:01.21	229.36	22.66	-41.4	-43.0	22.3	0.00e+00	0	39	0	2979004416	53	4580
2026-01-04 02:32:02.36	229.24	22.51	-41.2	-42.9	22.4	0.00e+00	0	39	0	2985295872	53	4508
2026-01-04 02:32:03.22	229.15	22.39	-41.2	-42.8	22.4	0.00e+00	0	39	0	2989490176	53	4490
2026-01-04 02:32:04.36	229.03	22.24	-41.2	-42.8	22.5	0.00e+00	0	39	0	2996830208	53	4481
2026-01-04 02:32:05.22	228.95	22.12	-41.2	-42.8	22.5	0.00e+00	0	39	0	3001024512	53	4474
2026-01-04 02:32:06.36	228.83	21.97	-41.2	-42.9	22.4	0.00e+00	0	39	0	3007315968	53	4495
2026-01-04 02:32:07.22	228.74	21.86	-41.2	-42.8	22.4	0.00e+00	0	39	0	3012558848	53	4484
2026-01-04 02:32:08.37	228.63	21.71	-41.1	-42.7	22.5	0.00e+00	0	39	0	3018850304	53	4437
2026-01-04 02:32:09.23	228.55	21.60	-41.2	-42.8	22.5	0.00e+00	0	39	0	3024093184	53	4481
2026-01-04 02:32:10.37	228.43	21.45	-41.2	-42.9	22.4	0.00e+00	0	39	0	3030384640	53	4514
2026-01-04 02:32:11.23	228.35	21.34	-41.3	-42.9	22.4	0.00e+00	0	39	0	3035627520	53	4523
2026-01-04 02:32:12.38	228.24	21.19	-41.3	-43.0	22.3	0.00e+00	0	39	0	3041918976	53	4557
2026-01-04 02:32:13.32	228.15	21.07	-41.3	-43.0	22.3	0.00e+00	0	39	0	3047161856	53	4559
2026-01-04 02:32:14.49	228.04	20.92	-41.4	-43.1	22.2	0.00e+00	0	39	0	3053453312	53	4601
2026-01-04 02:32:15.35	227.96	20.81	-41.5	-43.1	22.1	0.00e+00	0	39	0	3058696192	53	4648
2026-01-04 02:32:16.71	227.83	20.64	-41.6	-43.3	22.0	0.00e+00	0	39	0	3066036224	53	4709
2026-01-04 02:32:17.42	227.77	20.55	-41.7	-43.3	22.0	0.00e+00	0	39	0	3070230528	53	4754
2026-01-04 02:32:18.70	227.65	20.39	-41.8	-43.5	21.9	0.00e+00	0	39	0	3077570560	54	4551
2026-01-04 02:32:19.42	227.59	20.30	-41.9	-43.5	21.8	0.00e+00	0	39	0	3080716288	54	4597
2026-01-04 02:32:20.71	227.47	20.14	-41.9	-43.6	21.7	0.00e+00	0	39	0	3088056320	54	4631
2026-01-04 02:32:21.42	227.41	20.05	-41.9	-43.7	21.7	0.00e+00	0	39	0	3092250624	54	4652
2026-01-04 02:32:22.72	227.29	19.89	-42.1	-43.8	21.5	0.00e+00	0	39	0	3099590656	54	4748
2026-01-04 02:32:23.53	227.22	19.79	-42.1	-43.8	21.5	0.00e+00	0	39	0	3104833536	54	4752
2026-01-04 02:32:24.67	227.12	19.65	-42.1	-43.8	21.5	0.00e+00	0	39	0	3111124992	54	4752
2026-01-04 02:32:25.53	227.05	19.55	-42.1	-43.9	21.5	0.00e+00	0	39	0	3115319296	54	4764
2026-01-04 02:32:26.68	226.95	19.41	-42.1	-43.8	21.5	0.00e+00	0	39	0	3121610752	54	4746
2026-01-04 02:32:27.54	226.88	19.30	-42.2	-43.9	21.4	0.00e+00	0	39	0	3126853632	55	4524
2026-01-04 02:32:28.69	226.78	19.17	-42.2	-43.9	21.4	0.00e+00	0	39	0	3133145088	55	4522
2026-01-04 02:32:29.94	226.68	19.02	-42.2	-43.9	21.4	0.00e+00	0	39	0	3140485120	55	4517
2026-01-04 02:32:30.66	226.62	18.93	-42.2	-44.0	21.4	0.00e+00	0	39	0	3144679424	55	4550
2026-01-04 02:32:31.95	226.51	18.78	-42.3	-44.0	21.4	0.00e+00	0	39	0	3152019456	55	4598
2026-01-04 02:32:32.67	226.45	18.69	-42.3	-44.0	21.4	0.00e+00	0	39	0	3155165184	55	4572
2026-01-04 02:32:34.01	226.35	18.54	-42.3	-44.0	21.4	0.00e+00	0	39	0	3163553792	55	4561
2026-01-04 02:32:34.73	226.29	18.45	-42.4	-44.1	21.3	0.00e+00	0	39	0	3167748096	55	4617
2026-01-04 02:32:36.02	226.19	18.30	-42.4	-44.1	21.3	0.00e+00	0	39	0	3175088128	55	4648
2026-01-04 02:32:36.74	226.13	18.22	-42.4	-44.1	21.3	0.00e+00	0	39	0	3178233856	55	4612
2026-01-04 02:32:38.02	226.03	18.07	-42.3	-44.0	21.3	0.00e+00	0	39	0	3185573888	55	4592
2026-01-04 02:32:38.74	225.98	17.99	-42.4	-44.1	21.3	0.00e+00	0	39	0	3189768192	55	4619
2026-01-04 02:32:40.03	225.88	17.84	-42.3	-44.0	21.3	0.00e+00	0	39	0	3197108224	55	4596
2026-01-04 02:32:40.74	225.82	17.76	-42.4	-44.1	21.2	0.00e+00	0	39	0	3201302528	55	4633
2026-01-04 02:32:42.03	225.72	17.61	-42.5	-44.2	21.2	0.00e+00	0	39	0	3208642560	55	4677
2026-01-04 02:32:42.75	225.67	17.53	-42.4	-44.1	21.3	0.00e+00	0	39	0	3212836864	55	4626
2026-01-04 02:32:44.04	225.57	17.39	-42.5	-44.2	21.2	0.00e+00	0	39	0	3220176896	55	4664
2026-01-04 02:32:44.76	225.52	17.31	-42.5	-44.2	21.2	0.00e+00	0	39	0	3223322624	55	4678
2026-01-04 02:32:46.04	225.43	17.16	-42.5	-44.2	21.2	0.00e+00	0	39	0	3230662656	55	4661
2026-01-04 02:32:46.76	225.38	17.08	-42.6	-44.3	21.1	0.00e+00	0	39	0	3234856960	55	4729
2026-01-04 02:32:48.05	225.28	16.94	-42.5	-44.2	21.2	0.00e+00	0	39	0	3242196992	55	4697
2026-01-04 02:32:48.77	225.23	16.86	-42.5	-44.2	21.1	0.00e+00	0	39	0	3246391296	55	4698
2026-01-04 02:32:50.07	225.14	16.72	-42.6	-44.3	21.1	0.00e+00	0	39	0	3253731328	55	4723
2026-01-04 02:32:50.79	225.09	16.64	-42.6	-44.3	21.0	0.00e+00	0	39	0	3257925632	55	4749
2026-01-04 02:32:52.16	224.99	16.49	-42.9	-44.7	20.9	0.00e+00	0	39	0	3265265664	56	4659
2026-01-04 02:32:52.87	224.94	16.41	-43.0	-44.7	20.9	0.00e+00	0	39	0	3269459968	56	4677
2026-01-04 02:32:54.24	224.85	16.27	-43.0	-44.7	20.8	0.00e+00	0	39	0	3276800000	56	4682
2026-01-04 02:32:54.95	224.80	16.19	-43.0	-44.7	20.8	0.00e+00	0	39	0	3280994304	56	4688
2026-01-04 02:32:56.27	224.71	16.05	-43.2	-44.9	20.7	0.00e+00	0	39	0	3288334336	56	4799
2026-01-04 02:32:56.99	224.66	15.97	-43.3	-45.0	20.6	0.00e+00	0	39	0	3292528640	57	4576
2026-01-04 02:32:58.28	224.58	15.83	-43.4	-45.1	20.5	0.00e+00	0	39	0	3299868672	57	4651
2026-01-04 02:32:58.99	224.53	15.76	-43.4	-45.1	20.5	0.00e+00	0	39	0	3304062976	57	4644
2026-01-04 02:33:00.28	224.44	15.62	-43.4	-45.2	20.4	0.00e+00	0	39	0	3311403008	57	4700
2026-01-04 02:33:00.99	224.40	15.55	-43.4	-45.2	20.4	0.00e+00	0	39	0	3314548736	57	4697
2026-01-04 02:33:02.28	224.31	15.41	-43.6	-45.4	20.2	0.00e+00	0	39	0	3321888768	57	4777
2026-01-04 02:33:02.99	224.27	15.34	-43.5	-45.3	20.3	0.00e+00	0	39	0	3326083072	57	4737
2026-01-04 02:33:04.28	224.18	15.21	-43.6	-45.4	20.2	0.00e+00	0	39	0	3333423104	57	4785
2026-01-04 02:33:05.03	224.14	15.13	-43.7	-45.5	20.1	0.00e+00	0	39	0	3337617408	57	4844
2026-01-04 02:33:06.32	224.06	15.00	-43.7	-45.5	20.1	0.00e+00	0	39	0	3344957440	58	4588
2026-01-04 02:33:07.03	224.01	14.92	-43.7	-45.5	20.1	0.00e+00	0	39	0	3349151744	58	4596
2026-01-04 02:33:08.32	223.93	14.79	-43.7	-45.6	20.0	0.00e+00	0	39	0	3356491776	58	4605
2026-01-04 02:33:09.04	223.89	14.72	-43.6	-45.5	20.1	0.00e+00	0	39	0	3360686080	58	4553
2026-01-04 02:33:10.33	223.81	14.59	-43.7	-45.5	20.1	0.00e+00	0	39	0	3368026112	58	4593
2026-01-04 02:33:11.04	223.76	14.52	-43.6	-45.4	20.2	0.00e+00	0	39	0	3371171840	58	4527
2026-01-04 02:33:12.33	223.69	14.39	-43.5	-45.3	20.2	0.00e+00	0	39	0	3378511872	58	4493
2026-01-04 02:33:13.04	223.64	14.32	-43.5	-45.3	20.2	0.00e+00	0	39	0	3382706176	58	4456
2026-01-04 02:33:14.33	223.57	14.19	-43.5	-45.2	20.3	0.00e+00	0	39	0	3390046208	58	4439
2026-01-04 02:33:15.05	223.52	14.12	-43.4	-45.2	20.3	0.00e+00	0	39	0	3394240512	58	4422
2026-01-04 02:33:16.34	223.45	13.99	-43.4	-45.2	20.3	0.00e+00	0	39	0	3401580544	58	4411
2026-01-04 02:33:17.05	223.41	13.92	-43.4	-45.2	20.3	0.00e+00	0	39	0	3405774848	58	4424
2026-01-04 02:33:18.34	223.33	13.79	-43.4	-45.2	20.3	0.00e+00	0	39	0	3413114880	58	4417
2026-01-04 02:33:19.06	223.29	13.72	-43.5	-45.3	20.2	0.00e+00	0	39	0	3416260608	58	4466
2026-01-04 02:33:20.35	223.22	13.59	-43.5	-45.3	20.2	0.00e+00	0	39	0	3423600640	58	4453
2026-01-04 02:33:21.17	223.17	13.52	-43.5	-45.3	20.2	0.00e+00	0	39	0	3428843520	58	4476
2026-01-04 02:33:22.64	223.09	13.37	-43.5	-45.2	20.2	0.00e+00	0	39	0	3437232128	58	4438
2026-01-04 02:33:23.35	223.05	13.30	-43.5	-45.3	20.2	0.00e+00	0	39	0	3440377856	58	4447
2026-01-04 02:33:24.64	222.98	13.18	-43.5	-45.2	20.2	0.00e+00	0	39	0	3447717888	58	4432
2026-01-04 02:33:25.36	222.94	13.11	-43.6	-45.4	20.1	0.00e+00	0	39	0	3451912192	58	4502
2026-01-04 02:33:26.65	222.87	12.99	-43.6	-45.4	20.1	0.00e+00	0	39	0	3459252224	58	4526
2026-01-04 02:33:27.37	222.83	12.92	-43.6	-45.4	20.0	0.00e+00	0	39	0	3463446528	58	4533
2026-01-04 02:33:28.66	222.76	12.80	-43.7	-45.5	20.0	0.00e+00	0	39	0	3470786560	58	4570
2026-01-04 02:33:29.37	222.72	12.73	-43.8	-45.6	19.9	0.00e+00	0	39	0	3474980864	58	4623
2026-01-04 02:33:30.66	222.65	12.61	-43.8	-45.6	19.9	0.00e+00	0	39	0	3482320896	58	4605
2026-01-04 02:33:31.58	222.60	12.52	-43.8	-45.6	19.9	0.00e+00	0	39	0	3487563776	58	4648
2026-01-04 02:33:32.59	222.55	12.43	-43.9	-45.7	19.7	0.00e+00	0	39	0	3492806656	58	4694
2026-01-04 02:33:33.59	222.50	12.34	-44.0	-45.8	19.7	0.00e+00	0	39	0	3498049536	58	4737
2026-01-04 02:33:34.60	222.44	12.24	-44.0	-45.8	19.7	0.00e+00	0	39	0	3504340992	58	4719
2026-01-04 02:33:35.60	222.39	12.15	-43.9	-45.8	19.7	0.00e+00	0	39	0	3509583872	58	4712
2026-01-04 02:33:36.60	222.34	12.06	-44.0	-45.8	19.6	0.00e+00	0	39	0	3514826752	58	4732
2026-01-04 02:33:37.60	222.29	11.97	-44.1	-45.9	19.6	0.00e+00	0	39	0	3521118208	58	4784
2026-01-04 02:33:38.60	222.24	11.88	-44.1	-45.9	19.5	0.00e+00	0	39	0	3526361088	58	4811
2026-01-04 02:33:39.61	222.19	11.78	-44.3	-46.2	19.4	0.00e+00	0	39	0	3532652544	59	4653
2026-01-04 02:33:40.75	222.13	11.68	-44.2	-46.0	19.5	0.00e+00	0	39	0	3538944000	59	4593
2026-01-04 02:33:41.64	222.09	11.60	-44.1	-46.0	19.6	0.00e+00	0	39	0	3544186880	59	4566
2026-01-04 02:33:42.79	222.03	11.50	-44.3	-46.1	19.4	0.00e+00	0	39	0	3550478336	59	4644
2026-01-04 02:33:43.65	221.99	11.42	-44.3	-46.1	19.4	0.00e+00	0	39	0	3554672640	59	4648
2026-01-04 02:33:45.01	221.92	11.30	-44.5	-46.4	19.2	0.00e+00	0	39	0	3563061248	59	4765
2026-01-04 02:33:45.73	221.89	11.23	-44.4	-46.3	19.2	0.00e+00	0	39	0	3567255552	59	4749
2026-01-04 02:33:47.24	221.82	11.10	-44.4	-46.3	19.2	0.00e+00	0	39	0	3575644160	59	4730
2026-01-04 02:33:47.95	221.78	11.04	-44.4	-46.2	19.3	0.00e+00	0	39	0	3578789888	59	4697
2026-01-04 02:33:49.24	221.72	10.92	-44.5	-46.4	19.2	0.00e+00	0	39	0	3586129920	59	4778
2026-01-04 02:33:49.96	221.69	10.86	-44.5	-46.3	19.2	0.00e+00	0	39	0	3590324224	59	4750
2026-01-04 02:33:51.25	221.63	10.75	-44.4	-46.3	19.2	0.00e+00	0	39	0	3597664256	59	4734
2026-01-04 02:33:51.96	221.59	10.69	-44.4	-46.2	19.2	0.00e+00	0	39	0	3601858560	59	4692
2026-01-04 02:33:53.25	221.53	10.57	-44.6	-46.4	19.1	0.00e+00	0	39	0	3609198592	59	4809
2026-01-04 02:33:53.98	221.50	10.51	-44.5	-46.4	19.2	0.00e+00	0	39	0	3613392896	59	4788
2026-01-04 02:33:55.27	221.44	10.40	-44.5	-46.4	19.1	0.00e+00	0	39	0	3620732928	59	4797
2026-01-04 02:33:56.08	221.41	10.33	-44.5	-46.5	19.0	0.00e+00	0	39	0	3624927232	59	4832
2026-01-04 02:33:57.54	221.34	10.21	-44.5	-46.5	19.0	0.00e+00	0	39	0	3633315840	59	4838
2026-01-04 02:33:58.26	221.31	10.14	-44.4	-46.4	19.1	0.00e+00	0	39	0	3637510144	59	4774
2026-01-04 02:33:59.74	221.24	10.02	-44.5	-46.4	19.1	0.00e+00	0	39	0	3645898752	59	4782
2026-01-04 02:34:00.46	221.21	9.96	-44.6	-46.5	19.0	0.00e+00	0	39	0	3649044480	59	4825
2026-01-04 02:34:01.79	221.15	9.84	-44.5	-46.4	19.0	0.00e+00	0	39	0	3657433088	59	4791
2026-01-04 02:34:02.50	221.12	9.78	-44.5	-46.4	19.0	0.00e+00	0	39	0	3660578816	59	4786
2026-01-04 02:34:03.79	221.07	9.68	-44.6	-46.5	18.9	0.00e+00	0	39	0	3667918848	59	4819
2026-01-04 02:34:04.51	221.04	9.62	-44.6	-46.5	18.9	0.00e+00	0	39	0	3672113152	59	4830
2026-01-04 02:34:05.80	220.98	9.51	-44.6	-46.5	18.8	0.00e+00	0	39	0	3679453184	59	4838
2026-01-04 02:34:06.51	220.95	9.45	-44.7	-46.6	18.8	0.00e+00	0	39	0	3683647488	60	4650
2026-01-04 02:34:07.81	220.90	9.34	-44.7	-46.7	18.8	0.00e+00	0	39	0	3690987520	60	4663
