passes_logs/2026/01/04/T1/T1__20260104_090239_NOAA_21_JPSS-2_rec.log

#Pass ID: 20260104_090239_NOAA 21 (JPSS-2)
#Satellite: NOAA 21 (JPSS-2)
#Configuration: NOAA 21
#almurnet v.1.7.20251203
#Start time: 2026-01-04 09:02:39

#Version: 2.0.20230620
#Station: T1
#Location: 37.570604 lon 55.790049 lat
#TLE: 1 54234U 22150A   26003.94651505  .00000183  00000+0  10759-3 0  9990
#TLE: 2 54234  98.7488 304.9806 0001136 345.9488  14.1656 14.19531852163244

#Time	Az	El	Level	Level2	SNR	BER	BlckErr	Temp	State	Recorded	gain1	gain2
2026-01-04 09:02:39.19	132.67	4.98	-53.7	-66.6	3.8	1.49e+00	0	38	0	0	79	15561
2026-01-04 09:02:40.19	132.62	5.05	-53.7	-66.7	3.8	1.49e+00	0	38	104	0	79	15594
2026-01-04 09:02:41.19	132.58	5.12	-53.7	-66.7	3.8	1.49e+00	0	38	104	0	79	15698
2026-01-04 09:02:42.20	132.53	5.19	-53.8	-66.8	3.8	1.49e+00	0	38	104	0	79	15892
2026-01-04 09:02:43.20	132.48	5.26	-53.8	-66.8	3.8	1.49e+00	0	38	104	0	79	15912
2026-01-04 09:02:44.21	132.44	5.33	-53.8	-66.8	3.8	1.49e+00	0	39	104	0	79	15894
2026-01-04 09:02:45.21	132.39	5.40	-54.2	-67.1	3.8	1.49e+00	0	38	104	0	79	16481
2026-01-04 09:02:46.22	132.34	5.47	-54.2	-67.2	3.8	1.49e+00	0	39	104	0	79	16557
2026-01-04 09:02:47.22	132.30	5.54	-54.1	-67.1	3.8	1.49e+00	0	38	104	0	79	16382
2026-01-04 09:02:48.23	132.25	5.61	-53.7	-66.7	3.8	1.49e+00	0	38	104	0	79	15669
2026-01-04 09:02:49.23	132.20	5.68	-53.9	-66.8	3.8	1.49e+00	0	38	104	0	79	15895
2026-01-04 09:02:50.23	132.15	5.75	-54.0	-66.8	3.8	1.49e+00	0	39	104	0	79	15834
2026-01-04 09:02:51.24	132.11	5.82	-54.0	-66.7	3.8	1.49e+00	0	39	104	0	79	15703
2026-01-04 09:02:52.24	132.06	5.89	-53.9	-66.5	3.8	1.49e+00	0	39	104	0	79	15296
2026-01-04 09:02:53.25	132.01	5.96	-53.6	-65.9	3.8	1.49e+00	0	38	104	0	79	14348
2026-01-04 09:02:54.25	131.96	6.04	-53.6	-65.9	3.8	1.49e+00	0	39	104	0	79	14266
2026-01-04 09:02:55.25	131.91	6.11	-53.7	-65.9	3.8	1.49e+00	0	39	104	0	79	14300
2026-01-04 09:02:56.26	131.86	6.18	-53.9	-66.0	3.8	1.49e+00	0	39	104	0	79	14428
2026-01-04 09:02:57.26	131.81	6.25	-53.9	-66.0	3.8	1.49e+00	0	39	104	0	79	14435
2026-01-04 09:02:58.27	131.76	6.32	-54.1	-66.1	3.8	1.49e+00	0	39	104	0	79	14634
2026-01-04 09:02:59.27	131.71	6.39	-54.2	-66.2	3.8	1.49e+00	0	39	104	0	79	14873
2026-01-04 09:03:00.27	131.66	6.47	-54.1	-66.4	3.8	1.49e+00	0	39	104	0	79	15138
2026-01-04 09:03:01.27	131.61	6.54	-54.2	-66.6	3.8	1.49e+00	0	39	104	0	79	15548
2026-01-04 09:03:02.28	131.56	6.61	-54.3	-67.0	3.8	1.49e+00	0	39	104	0	79	16279
2026-01-04 09:03:03.29	131.51	6.68	-54.0	-66.9	3.8	1.49e+00	0	39	104	0	79	16060
2026-01-04 09:03:04.29	131.46	6.76	-54.1	-67.1	3.8	1.49e+00	0	39	104	0	79	16450
2026-01-04 09:03:05.29	131.41	6.83	-53.8	-66.7	3.8	1.49e+00	0	39	104	0	79	15593
2026-01-04 09:03:06.30	131.35	6.90	-53.8	-66.3	3.8	1.49e+00	0	39	104	0	79	14900
2026-01-04 09:03:07.30	131.30	6.98	-53.6	-65.7	3.8	1.49e+00	0	39	104	0	79	13902
2026-01-04 09:03:08.30	131.25	7.05	-53.6	-64.9	3.8	1.49e+00	0	39	104	0	78	13568
2026-01-04 09:03:09.31	131.20	7.12	-53.6	-64.4	3.9	1.48e+00	0	39	104	0	78	12757
2026-01-04 09:03:10.31	131.14	7.20	-53.5	-63.3	4.2	1.46e+00	0	39	104	0	78	11185
2026-01-04 09:03:11.32	131.09	7.27	-53.4	-62.4	4.5	1.45e+00	0	39	104	0	78	10073
2026-01-04 09:03:12.32	131.04	7.35	-53.3	-61.5	4.9	9.43e-01	0	39	104	0	78	9163
2026-01-04 09:03:13.33	130.98	7.42	-52.4	-59.9	5.5	5.57e-01	0	39	0	0	76	8496
2026-01-04 09:03:14.33	130.93	7.50	-52.7	-59.0	6.7	2.43e-01	0	39	0	0	76	7705
2026-01-04 09:03:15.33	130.87	7.57	-51.5	-56.9	8.1	8.04e-02	0	39	0	0	75	6370
2026-01-04 09:03:16.34	130.82	7.65	-51.6	-56.3	9.3	2.26e-02	0	40	0	0	74	6280
2026-01-04 09:03:17.34	130.76	7.72	-50.3	-54.2	10.8	4.49e-03	0	39	0	0	72	5591
2026-01-04 09:03:18.35	130.71	7.80	-49.7	-53.1	12.0	6.68e-04	0	39	0	0	71	5190
2026-01-04 09:03:19.35	130.65	7.87	-48.9	-51.9	13.3	4.11e-05	0	39	0	0	69	5076
2026-01-04 09:03:20.35	130.60	7.95	-48.3	-51.1	14.0	1.22e-05	0	39	0	0	68	4909
2026-01-04 09:03:21.36	130.54	8.03	-48.1	-50.7	14.5	2.20e-06	0	39	0	0	68	4692
2026-01-04 09:03:22.36	130.48	8.10	-47.5	-50.0	15.0	0.00e+00	0	39	0	0	66	4859
2026-01-04 09:03:23.36	130.43	8.18	-47.3	-49.8	15.3	0.00e+00	0	40	0	0	66	4709
2026-01-04 09:03:24.37	130.37	8.26	-47.4	-49.9	15.1	7.00e-07	0	40	0	0	66	4800
2026-01-04 09:03:25.37	130.31	8.33	-47.6	-50.2	14.8	0.00e+00	0	39	0	0	66	4947
2026-01-04 09:03:26.38	130.26	8.41	-48.0	-50.7	14.4	0.00e+00	0	40	0	0	66	5243
2026-01-04 09:03:27.38	130.20	8.49	-48.5	-51.4	13.6	2.20e-06	0	39	0	0	67	5362
2026-01-04 09:03:28.39	130.14	8.57	-49.3	-52.5	12.7	5.03e-05	0	40	0	0	69	5406
2026-01-04 09:03:29.39	130.08	8.65	-50.1	-53.8	11.4	3.71e-04	0	40	0	0	70	5977
2026-01-04 09:03:30.40	130.02	8.72	-50.8	-55.1	9.9	4.43e-03	0	40	0	0	72	6198
2026-01-04 09:03:31.40	129.96	8.80	-51.5	-56.8	8.2	3.32e-02	0	40	0	0	73	7091
2026-01-04 09:03:32.40	129.90	8.88	-52.1	-58.7	6.4	1.78e-01	0	40	0	0	74	8352
2026-01-04 09:03:33.41	129.84	8.96	-52.6	-60.7	5.1	5.68e-01	0	40	0	0	75	9858
2026-01-04 09:03:34.41	129.78	9.04	-52.2	-59.0	6.0	1.07e+00	0	40	104	0	76	7710
2026-01-04 09:03:35.42	129.72	9.12	-50.0	-53.7	11.6	2.59e-05	0	40	0	0	70	5858
2026-01-04 09:03:36.42	129.66	9.20	-52.8	-62.8	3.9	1.47e+00	0	40	104	0	76	11869
2026-01-04 09:03:37.44	129.60	9.28	-51.9	-57.9	7.0	1.26e+00	0	40	0	0	75	7156
2026-01-04 09:03:38.44	129.53	9.36	-52.7	-60.7	5.2	7.47e-02	0	40	0	0	75	9903
2026-01-04 09:03:39.56	129.47	9.45	-52.9	-62.3	4.1	1.48e+00	0	40	104	0	77	10614
2026-01-04 09:03:40.42	129.41	9.52	-50.9	-55.5	9.5	2.71e-02	0	40	0	0	73	6120
2026-01-04 09:03:41.56	129.34	9.61	-50.2	-54.3	10.9	2.75e-03	0	40	0	0	72	5609
2026-01-04 09:03:42.42	129.29	9.68	-49.9	-53.9	11.2	1.45e-03	0	40	0	0	72	5378
2026-01-04 09:03:43.57	129.21	9.77	-49.5	-53.2	12.0	6.71e-04	0	40	0	0	71	5261
2026-01-04 09:03:44.43	129.16	9.84	-49.1	-52.2	13.0	6.56e-05	0	40	0	0	70	4931
2026-01-04 09:03:45.57	129.09	9.93	-48.5	-51.3	13.9	9.10e-06	0	40	0	0	68	5024
2026-01-04 09:03:46.43	129.03	10.00	-48.1	-50.8	14.4	0.00e+00	0	40	0	0	68	4759
2026-01-04 09:03:47.58	128.95	10.10	-47.8	-50.4	14.7	0.00e+00	0	40	0	0	67	4770
2026-01-04 09:03:48.44	128.90	10.17	-47.3	-49.8	15.3	7.00e-07	0	40	0	0	66	4711
2026-01-04 09:03:49.59	128.82	10.26	-46.9	-49.3	15.7	0.00e+00	0	40	0	0	65	4736
2026-01-04 09:03:50.44	128.77	10.33	-47.0	-49.5	15.5	0.00e+00	0	40	0	0	65	4855
2026-01-04 09:03:51.62	128.69	10.43	-46.6	-48.9	16.1	0.00e+00	0	40	0	0	65	4515
2026-01-04 09:03:52.48	128.63	10.50	-46.3	-48.6	16.5	0.00e+00	0	40	0	0	64	4602
2026-01-04 09:03:53.63	128.55	10.60	-46.2	-48.5	16.5	0.00e+00	0	40	0	0	64	4584
2026-01-04 09:03:54.49	128.50	10.67	-45.9	-48.1	16.9	0.00e+00	0	40	0	0	63	4650
2026-01-04 09:03:55.63	128.42	10.76	-46.0	-48.2	17.0	0.00e+00	0	40	0	0	63	4665
2026-01-04 09:03:56.49	128.36	10.83	-45.7	-47.9	17.2	0.00e+00	0	40	0	0	63	4509
2026-01-04 09:03:57.63	128.28	10.93	-45.4	-47.5	17.5	0.00e+00	0	40	0	0	62	4570
2026-01-04 09:03:58.49	128.22	11.00	-45.4	-47.5	17.6	0.00e+00	0	40	0	0	62	4590
2026-01-04 09:03:59.64	128.14	11.10	-45.4	-47.4	17.7	0.00e+00	0	40	0	0	62	4535
2026-01-04 09:04:00.50	128.08	11.17	-45.2	-47.3	17.8	0.00e+00	0	40	0	0	62	4444
2026-01-04 09:04:01.65	128.00	11.27	-45.1	-47.2	17.9	0.00e+00	0	40	0	0	62	4395
2026-01-04 09:04:02.75	127.92	11.36	-45.0	-47.0	18.0	0.00e+00	0	40	0	0	62	4335
2026-01-04 09:04:03.60	127.86	11.44	-45.1	-47.1	17.9	0.00e+00	0	40	0	0	62	4367
2026-01-04 09:04:05.08	127.75	11.56	-45.1	-47.1	18.0	0.00e+00	0	40	0	0	62	4353
2026-01-04 09:04:05.80	127.70	11.63	-45.1	-47.0	18.0	0.00e+00	0	40	0	0	62	4336
2026-01-04 09:04:07.28	127.59	11.75	-44.8	-46.7	18.3	0.00e+00	0	40	0	0	61	4424
2026-01-04 09:04:08.25	127.52	11.84	-44.8	-46.7	18.4	0.00e+00	0	40	0	0	61	4395
2026-01-04 09:04:09.26	127.45	11.93	-44.8	-46.8	18.3	0.00e+00	0	40	0	0	61	4442
2026-01-04 09:04:10.26	127.37	12.01	-44.7	-46.6	18.4	0.00e+00	0	40	0	0	61	4364
2026-01-04 09:04:11.26	127.30	12.10	-44.8	-46.6	18.3	0.00e+00	0	40	0	0	61	4388
2026-01-04 09:04:12.26	127.22	12.19	-44.7	-46.6	18.4	0.00e+00	0	40	0	0	61	4357
2026-01-04 09:04:13.26	127.15	12.28	-44.7	-46.6	18.4	0.00e+00	0	40	0	0	61	4358
2026-01-04 09:04:14.26	127.07	12.37	-44.8	-46.7	18.4	0.00e+00	0	40	0	0	61	4403
2026-01-04 09:04:15.27	127.00	12.46	-44.9	-46.7	18.3	0.00e+00	0	40	0	0	61	4425
2026-01-04 09:04:16.35	126.91	12.55	-44.8	-46.7	18.3	0.00e+00	0	40	0	0	61	4431
2026-01-04 09:04:17.24	126.84	12.63	-44.9	-46.7	18.3	0.00e+00	0	40	0	0	61	4431
2026-01-04 09:04:18.39	126.75	12.73	-44.8	-46.7	18.3	0.00e+00	0	40	0	0	61	4393
2026-01-04 09:04:19.25	126.69	12.81	-44.7	-46.6	18.4	0.00e+00	0	40	0	0	61	4356
2026-01-04 09:04:20.39	126.60	12.91	-44.7	-46.6	18.4	0.00e+00	0	40	0	0	61	4351
2026-01-04 09:04:21.25	126.53	12.99	-44.7	-46.5	18.5	0.00e+00	0	40	0	0	61	4325
2026-01-04 09:04:22.40	126.44	13.10	-44.8	-46.7	18.4	0.00e+00	0	40	0	0	61	4398
2026-01-04 09:04:23.26	126.37	13.17	-44.6	-46.5	18.5	0.00e+00	0	40	0	0	61	4320
2026-01-04 09:04:24.41	126.27	13.28	-44.8	-46.7	18.4	0.00e+00	0	40	0	0	61	4417
2026-01-04 09:04:25.27	126.20	13.36	-44.7	-46.6	18.5	0.00e+00	0	40	0	0	61	4371
2026-01-04 09:04:26.41	126.11	13.46	-44.8	-46.6	18.4	0.00e+00	0	40	0	0	61	4379
2026-01-04 09:04:27.27	126.04	13.54	-44.7	-46.6	18.5	0.00e+00	0	40	0	0	61	4349
2026-01-04 09:04:28.50	125.94	13.65	-44.7	-46.6	18.5	0.00e+00	0	40	0	0	61	4349
2026-01-04 09:04:29.36	125.86	13.73	-44.6	-46.5	18.6	0.00e+00	0	40	0	0	61	4304
2026-01-04 09:04:30.50	125.77	13.84	-44.5	-46.4	18.6	0.00e+00	0	40	0	0	61	4269
2026-01-04 09:04:31.36	125.69	13.92	-44.6	-46.4	18.6	0.00e+00	0	40	0	0	61	4281
2026-01-04 09:04:32.51	125.60	14.03	-44.6	-46.5	18.5	0.00e+00	0	40	0	0	61	4318
2026-01-04 09:04:33.40	125.52	14.11	-44.7	-46.5	18.7	0.00e+00	0	40	0	0	61	4314
2026-01-04 09:04:34.54	125.42	14.22	-44.7	-46.6	18.6	0.00e+00	0	40	0	0	61	4359
2026-01-04 09:04:35.40	125.35	14.30	-44.6	-46.5	18.7	0.00e+00	0	40	0	0	61	4298
2026-01-04 09:04:36.55	125.25	14.41	-44.7	-46.5	18.7	0.00e+00	0	40	0	0	61	4314
2026-01-04 09:04:37.40	125.17	14.49	-44.7	-46.5	18.7	0.00e+00	0	40	0	0	61	4308
2026-01-04 09:04:38.55	125.07	14.60	-44.6	-46.4	18.7	0.00e+00	0	40	0	0	61	4286
2026-01-04 09:04:39.41	124.99	14.68	-44.6	-46.4	18.7	0.00e+00	0	40	0	0	61	4281
2026-01-04 09:04:40.56	124.89	14.79	-44.7	-46.5	18.6	0.00e+00	0	40	0	0	61	4319
2026-01-04 09:04:41.42	124.81	14.88	-44.8	-46.6	18.5	0.00e+00	0	40	0	0	61	4382
2026-01-04 09:04:42.57	124.70	14.99	-44.8	-46.7	18.5	0.00e+00	0	40	0	0	61	4395
2026-01-04 09:04:43.42	124.63	15.07	-44.6	-46.4	18.7	0.00e+00	0	40	0	0	61	4275
2026-01-04 09:04:44.57	124.52	15.18	-44.7	-46.6	18.6	0.00e+00	0	40	0	0	61	4349
2026-01-04 09:04:45.43	124.44	15.26	-44.9	-46.7	18.4	0.00e+00	0	40	0	0	61	4437
2026-01-04 09:04:46.62	124.33	15.38	-44.7	-46.6	18.6	0.00e+00	0	40	0	0	61	4342
2026-01-04 09:04:47.48	124.25	15.47	-44.6	-46.4	18.7	0.00e+00	0	40	0	0	61	4280
2026-01-04 09:04:48.63	124.14	15.58	-44.7	-46.5	18.6	0.00e+00	0	40	0	0	61	4330
2026-01-04 09:04:49.49	124.06	15.66	-44.7	-46.5	18.6	0.00e+00	0	40	0	0	61	4340
2026-01-04 09:04:50.63	123.95	15.78	-44.8	-46.7	18.5	0.00e+00	0	40	0	0	61	4421
2026-01-04 09:04:51.49	123.86	15.86	-44.7	-46.7	18.5	0.00e+00	0	40	0	0	61	4405
2026-01-04 09:04:52.64	123.75	15.98	-44.7	-46.6	18.6	0.00e+00	0	40	0	0	61	4390
2026-01-04 09:04:53.50	123.67	16.06	-44.8	-46.7	18.5	0.00e+00	0	40	0	0	61	4416
2026-01-04 09:04:54.65	123.55	16.18	-44.6	-46.6	18.6	0.00e+00	0	40	0	0	61	4345
2026-01-04 09:04:55.70	123.45	16.28	-44.6	-46.4	18.7	0.00e+00	0	41	0	0	61	4291
2026-01-04 09:04:56.78	123.34	16.39	-44.7	-46.5	18.6	0.00e+00	0	40	0	0	61	4320
2026-01-04 09:04:57.64	123.25	16.48	-44.7	-46.6	18.6	0.00e+00	0	41	0	0	61	4345
2026-01-04 09:04:59.09	123.10	16.63	-44.6	-46.5	18.7	0.00e+00	0	40	0	0	61	4314
2026-01-04 09:04:59.81	123.03	16.70	-44.7	-46.6	18.6	0.00e+00	0	41	0	0	61	4354
2026-01-04 09:05:01.10	122.90	16.83	-44.7	-46.6	18.6	0.00e+00	0	40	0	0	61	4342
2026-01-04 09:05:01.82	122.82	16.91	-44.7	-46.6	18.7	0.00e+00	0	40	0	0	61	4350
2026-01-04 09:05:03.10	122.69	17.04	-44.8	-46.6	18.6	0.00e+00	0	40	0	0	61	4364
2026-01-04 09:05:03.87	122.61	17.12	-44.8	-46.6	18.6	0.00e+00	0	40	0	0	61	4361
2026-01-04 09:05:05.16	122.47	17.25	-44.8	-46.7	18.5	0.00e+00	0	40	0	0	61	4410
2026-01-04 09:05:05.97	122.38	17.34	-44.8	-46.6	18.5	0.00e+00	0	40	0	0	61	4388
2026-01-04 09:05:07.11	122.26	17.46	-44.8	-46.6	18.6	0.00e+00	0	41	0	0	61	4373
2026-01-04 09:05:08.21	122.14	17.57	-44.8	-46.6	18.6	0.00e+00	0	40	0	0	61	4373
2026-01-04 09:05:09.25	122.03	17.68	-44.8	-46.7	18.5	0.00e+00	0	41	0	0	61	4420
2026-01-04 09:05:10.25	121.91	17.79	-44.9	-46.7	18.4	0.00e+00	0	41	0	0	61	4437
2026-01-04 09:05:11.46	121.78	17.92	-45.0	-46.9	18.4	0.00e+00	0	40	0	0	61	4509
2026-01-04 09:05:12.35	121.68	18.01	-44.9	-46.8	18.4	0.00e+00	0	40	0	0	61	4450
2026-01-04 09:05:13.49	121.55	18.13	-44.8	-46.7	18.5	0.00e+00	0	40	0	0	61	4399
2026-01-04 09:05:14.40	121.45	18.23	-44.8	-46.6	18.6	0.00e+00	0	40	0	0	61	4375
2026-01-04 09:05:15.40	121.33	18.34	-44.8	-46.7	18.5	0.00e+00	0	40	0	0	61	4405
2026-01-04 09:05:16.40	121.22	18.45	-44.7	-46.5	18.7	0.00e+00	0	40	0	0	61	4338
2026-01-04 09:05:17.41	121.10	18.55	-44.5	-46.3	18.8	0.00e+00	0	41	0	0	61	4231
2026-01-04 09:05:18.41	120.98	18.66	-44.5	-46.3	18.8	0.00e+00	0	40	0	0	61	4237
2026-01-04 09:05:19.41	120.87	18.77	-44.5	-46.3	18.8	0.00e+00	0	40	0	0	61	4240
2026-01-04 09:05:20.42	120.75	18.88	-44.4	-46.2	18.9	0.00e+00	0	40	0	0	60	4400
2026-01-04 09:05:21.42	120.63	18.99	-44.2	-46.0	19.1	0.00e+00	0	41	0	0	60	4326
2026-01-04 09:05:22.42	120.51	19.10	-44.3	-46.0	19.2	0.00e+00	0	40	0	0	60	4333
2026-01-04 09:05:23.42	120.38	19.21	-44.3	-46.1	19.1	0.00e+00	0	40	0	0	60	4367
2026-01-04 09:05:24.44	120.26	19.32	-44.2	-46.0	19.2	0.00e+00	0	41	0	0	60	4319
2026-01-04 09:05:25.48	120.13	19.44	-44.3	-46.1	19.0	0.00e+00	0	40	0	0	60	4362
2026-01-04 09:05:26.48	120.01	19.55	-44.3	-46.1	19.0	0.00e+00	0	41	0	0	60	4369
2026-01-04 09:05:27.48	119.88	19.66	-44.4	-46.1	19.0	0.00e+00	0	40	0	0	60	4386
2026-01-04 09:05:28.48	119.76	19.77	-44.5	-46.3	18.9	0.00e+00	0	41	0	0	60	4464
2026-01-04 09:05:29.49	119.63	19.89	-44.4	-46.2	19.0	0.00e+00	0	40	0	0	60	4397
2026-01-04 09:05:30.49	119.50	20.00	-44.3	-46.1	19.1	0.00e+00	0	40	0	0	60	4382
2026-01-04 09:05:31.49	119.37	20.11	-44.4	-46.2	19.1	0.00e+00	0	40	0	0	60	4413
2026-01-04 09:05:32.50	119.24	20.23	-44.2	-46.0	19.2	0.00e+00	0	40	0	0	60	4335
2026-01-04 09:05:33.50	119.11	20.34	-44.1	-45.9	19.3	0.00e+00	0	40	0	0	60	4269
2026-01-04 09:05:34.50	118.98	20.46	-44.1	-45.9	19.3	0.00e+00	0	40	0	0	60	4271
2026-01-04 09:05:35.50	118.84	20.57	-44.2	-46.0	19.3	0.00e+00	0	40	0	0	60	4302
2026-01-04 09:05:36.51	118.71	20.69	-44.1	-45.9	19.4	0.00e+00	0	41	0	0	60	4255
2026-01-04 09:05:37.51	118.57	20.80	-43.9	-45.7	19.4	0.00e+00	0	40	0	0	59	4415
2026-01-04 09:05:38.52	118.44	20.92	-44.0	-45.8	19.3	0.00e+00	0	40	0	0	59	4453
2026-01-04 09:05:39.52	118.30	21.04	-44.0	-45.7	19.3	0.00e+00	0	41	0	0	59	4431
2026-01-04 09:05:40.52	118.16	21.15	-43.8	-45.6	19.4	0.00e+00	0	41	0	0	59	4345
2026-01-04 09:05:41.53	118.02	21.27	-43.8	-45.6	19.4	0.00e+00	0	41	0	0	59	4341
2026-01-04 09:05:42.55	117.88	21.39	-43.7	-45.4	19.6	0.00e+00	0	41	0	0	59	4268
2026-01-04 09:05:43.55	117.74	21.51	-43.7	-45.5	19.5	0.00e+00	0	41	0	0	59	4292
2026-01-04 09:05:44.55	117.59	21.62	-43.7	-45.5	19.6	0.00e+00	0	41	0	0	59	4295
2026-01-04 09:05:45.56	117.45	21.74	-43.8	-45.6	19.4	0.00e+00	0	41	0	0	59	4357
2026-01-04 09:05:46.56	117.30	21.86	-43.9	-45.6	19.4	0.00e+00	0	40	0	0	59	4382
2026-01-04 09:05:47.56	117.16	21.98	-43.8	-45.5	19.5	0.00e+00	0	40	0	0	59	4312
2026-01-04 09:05:48.57	117.01	22.10	-43.6	-45.3	19.7	0.00e+00	0	40	0	0	59	4222
2026-01-04 09:05:49.57	116.86	22.22	-43.5	-45.2	19.7	0.00e+00	0	41	0	0	59	4181
2026-01-04 09:05:50.57	116.71	22.34	-43.6	-45.3	19.8	0.00e+00	0	41	0	0	59	4207
2026-01-04 09:05:51.57	116.56	22.46	-43.5	-45.2	19.8	0.00e+00	0	41	0	0	59	4185
2026-01-04 09:05:52.57	116.41	22.58	-43.4	-45.1	19.9	0.00e+00	0	40	0	0	58	4371
2026-01-04 09:05:53.58	116.26	22.70	-43.5	-45.2	19.9	0.00e+00	0	41	0	0	58	4409
2026-01-04 09:05:54.58	116.10	22.83	-43.5	-45.2	19.9	0.00e+00	0	41	0	0	58	4402
2026-01-04 09:05:55.58	115.95	22.95	-43.5	-45.2	19.8	0.00e+00	0	40	0	0	58	4400
2026-01-04 09:05:56.59	115.79	23.07	-43.6	-45.3	19.7	0.00e+00	0	40	0	0	58	4461
2026-01-04 09:05:57.59	115.63	23.19	-43.5	-45.2	19.8	0.00e+00	0	40	0	0	58	4430
2026-01-04 09:05:58.59	115.47	23.32	-43.5	-45.2	19.8	0.00e+00	0	41	0	0	58	4411
2026-01-04 09:05:59.59	115.31	23.44	-43.5	-45.2	19.8	0.00e+00	0	40	0	0	58	4396
2026-01-04 09:06:00.59	115.15	23.56	-43.4	-45.1	19.9	0.00e+00	0	40	0	0	58	4366
2026-01-04 09:06:01.60	114.99	23.69	-43.5	-45.2	19.8	0.00e+00	0	40	0	0	58	4402
2026-01-04 09:06:02.60	114.82	23.81	-43.5	-45.2	19.8	0.00e+00	0	41	0	0	58	4438
2026-01-04 09:06:03.60	114.66	23.94	-43.4	-45.1	19.8	0.00e+00	0	40	0	0	58	4378
2026-01-04 09:06:04.60	114.49	24.06	-43.5	-45.2	19.7	0.00e+00	0	40	0	0	58	4426
2026-01-04 09:06:05.61	114.32	24.19	-43.6	-45.3	19.7	0.00e+00	0	40	0	0	58	4460
2026-01-04 09:06:06.95	114.09	24.35	-43.6	-45.4	19.7	0.00e+00	0	41	0	0	58	4501
2026-01-04 09:06:07.69	113.97	24.45	-43.6	-45.3	19.8	0.00e+00	0	40	0	0	58	4461
2026-01-04 09:06:08.98	113.74	24.61	-43.4	-45.1	19.9	0.00e+00	0	40	0	0	58	4379
2026-01-04 09:06:09.70	113.62	24.70	-43.6	-45.3	19.8	0.00e+00	0	41	0	0	58	4466
2026-01-04 09:06:10.99	113.39	24.87	-43.6	-45.3	19.7	0.00e+00	0	41	0	0	58	4473
2026-01-04 09:06:11.70	113.27	24.96	-43.7	-45.4	19.7	0.00e+00	0	41	0	0	58	4509
2026-01-04 09:06:12.99	113.04	25.12	-43.8	-45.5	19.5	0.00e+00	0	40	0	0	58	4585
2026-01-04 09:06:13.71	112.91	25.21	-43.9	-45.6	19.5	0.00e+00	0	40	0	0	58	4633
2026-01-04 09:06:15.00	112.67	25.38	-43.8	-45.6	19.5	0.00e+00	0	40	0	0	58	4600
2026-01-04 09:06:15.72	112.54	25.47	-44.0	-45.8	19.4	0.00e+00	0	40	0	0	58	4721
2026-01-04 09:06:17.08	112.29	25.64	-44.2	-46.0	19.3	0.00e+00	0	40	0	0	58	4817
2026-01-04 09:06:18.06	112.11	25.77	-44.2	-46.0	19.3	0.00e+00	0	40	0	0	59	4560
2026-01-04 09:06:19.35	111.87	25.94	-44.3	-46.1	19.2	0.00e+00	0	40	0	0	59	4648
2026-01-04 09:06:20.06	111.73	26.03	-44.4	-46.2	19.1	0.00e+00	0	40	0	0	59	4684
2026-01-04 09:06:21.75	111.41	26.25	-44.4	-46.2	19.1	0.00e+00	0	40	0	0	59	4681
2026-01-04 09:06:22.32	111.30	26.32	-44.4	-46.3	19.0	0.00e+00	0	41	0	0	59	4710
2026-01-04 09:06:23.90	110.99	26.53	-44.2	-46.0	19.2	0.00e+00	0	40	0	0	59	4569
2026-01-04 09:06:24.66	110.84	26.63	-44.1	-45.9	19.3	0.00e+00	0	40	0	0	59	4511
2026-01-04 09:06:25.95	110.59	26.80	-44.2	-45.9	19.2	0.00e+00	0	40	0	0	59	4532
2026-01-04 09:06:26.67	110.44	26.89	-44.1	-45.9	19.2	0.00e+00	0	41	0	0	59	4510
2026-01-04 09:06:27.96	110.18	27.06	-44.1	-45.9	19.2	0.00e+00	0	41	0	0	59	4510
2026-01-04 09:06:28.67	110.04	27.16	-44.2	-46.0	19.1	0.00e+00	0	40	0	0	59	4550
2026-01-04 09:06:30.09	109.75	27.34	-44.3	-46.1	19.0	0.00e+00	0	40	0	0	59	4611
2026-01-04 09:06:31.07	109.54	27.47	-44.4	-46.2	19.0	0.00e+00	0	41	0	0	59	4668
2026-01-04 09:06:32.39	109.27	27.65	-44.3	-46.1	19.1	0.00e+00	0	41	0	0	59	4621
2026-01-04 09:06:33.13	109.11	27.75	-44.4	-46.2	19.1	0.00e+00	0	41	0	0	59	4658
2026-01-04 09:06:34.42	108.84	27.92	-44.2	-46.0	19.2	0.00e+00	0	40	0	0	59	4569
2026-01-04 09:06:35.14	108.68	28.01	-44.3	-46.1	19.1	0.00e+00	0	40	0	0	59	4620
2026-01-04 09:06:36.81	108.32	28.24	-44.2	-46.0	19.2	0.00e+00	0	40	0	0	59	4567
2026-01-04 09:06:37.38	108.20	28.31	-44.3	-46.1	19.1	0.00e+00	0	40	0	0	59	4625
2026-01-04 09:06:38.98	107.84	28.53	-44.4	-46.2	19.0	0.00e+00	0	40	0	0	59	4672
2026-01-04 09:06:39.55	107.72	28.60	-44.4	-46.2	19.0	0.00e+00	0	40	0	0	59	4704
2026-01-04 09:06:41.16	107.35	28.82	-44.6	-46.4	18.8	0.00e+00	0	41	0	0	59	4807
2026-01-04 09:06:41.73	107.22	28.90	-44.5	-46.3	18.9	0.00e+00	0	41	0	0	59	4755
2026-01-04 09:06:43.37	106.85	29.12	-44.6	-46.4	18.9	0.00e+00	0	40	0	0	59	4760
2026-01-04 09:06:43.94	106.72	29.19	-44.6	-46.4	18.9	0.00e+00	0	41	0	0	59	4761
2026-01-04 09:06:45.58	106.33	29.41	-44.6	-46.4	18.9	0.00e+00	0	40	0	0	60	4528
2026-01-04 09:06:46.15	106.20	29.49	-44.4	-46.2	19.1	0.00e+00	0	41	0	0	60	4430
2026-01-04 09:06:47.75	105.82	29.71	-44.4	-46.2	19.0	0.00e+00	0	40	0	0	60	4435
2026-01-04 09:06:48.32	105.68	29.78	-44.5	-46.3	18.9	0.00e+00	0	41	0	0	60	4486
2026-01-04 09:06:49.89	105.30	30.00	-44.3	-46.1	19.1	0.00e+00	0	40	0	0	60	4379
2026-01-04 09:06:50.49	105.16	30.08	-44.3	-46.1	19.2	0.00e+00	0	40	0	0	60	4351
2026-01-04 09:06:52.07	104.77	30.29	-44.3	-46.1	19.2	0.00e+00	0	40	0	0	60	4352
2026-01-04 09:06:52.82	104.58	30.39	-44.2	-46.0	19.3	0.00e+00	0	40	0	0	60	4299
2026-01-04 09:06:54.11	104.26	30.57	-44.4	-46.2	19.1	0.00e+00	0	40	0	0	60	4399
2026-01-04 09:06:54.82	104.08	30.66	-44.4	-46.1	19.1	0.00e+00	0	41	0	0	60	4380
2026-01-04 09:06:56.11	103.75	30.84	-44.3	-46.1	19.2	0.00e+00	0	40	0	0	60	4372
2026-01-04 09:06:56.83	103.56	30.93	-44.4	-46.2	19.1	0.00e+00	0	40	0	0	60	4400
2026-01-04 09:06:58.16	103.21	31.11	-44.7	-46.5	19.1	7.00e-07	0	40	0	0	60	4574
2026-01-04 09:06:58.87	103.03	31.21	-44.6	-46.4	19.2	0.00e+00	0	40	0	0	60	4507
2026-01-04 09:07:00.26	102.66	31.40	-44.8	-46.6	19.1	0.00e+00	0	41	0	0	60	4609
2026-01-04 09:07:00.98	102.47	31.49	-44.8	-46.6	19.0	0.00e+00	0	40	0	0	60	4625
2026-01-04 09:07:02.26	102.12	31.67	-44.9	-46.7	19.0	0.00e+00	0	40	0	0	60	4682
2026-01-04 09:07:02.98	101.93	31.76	-44.7	-46.5	18.9	7.00e-07	0	40	0	0	60	4595
2026-01-04 09:07:04.27	101.58	31.94	-44.8	-46.6	18.9	0.00e+00	0	41	0	0	60	4617
2026-01-04 09:07:04.99	101.38	32.03	-44.6	-46.4	19.0	0.00e+00	0	40	0	0	60	4536
2026-01-04 09:07:06.28	101.02	32.21	-44.6	-46.4	19.0	0.00e+00	0	40	0	0	60	4497
2026-01-04 09:07:06.99	100.82	32.30	-44.7	-46.6	18.8	0.00e+00	0	41	0	0	60	4600
2026-01-04 09:07:08.28	100.46	32.48	-44.8	-46.6	18.8	0.00e+00	0	41	0	0	60	4643
2026-01-04 09:07:09.00	100.25	32.57	-44.8	-46.7	18.7	0.00e+00	0	41	0	0	60	4656
2026-01-04 09:07:10.29	99.88	32.74	-44.8	-46.7	18.7	0.00e+00	0	41	0	0	60	4666
2026-01-04 09:07:11.00	99.67	32.84	-45.0	-46.9	18.6	0.00e+00	0	41	0	0	60	4763
2026-01-04 09:07:12.29	99.30	33.01	-45.1	-47.0	18.4	0.00e+00	0	40	0	0	61	4589
2026-01-04 09:07:13.01	99.08	33.11	-45.3	-47.2	18.2	0.00e+00	0	41	0	0	61	4691
2026-01-04 09:07:14.30	98.70	33.28	-45.4	-47.3	18.2	0.00e+00	0	40	0	0	61	4740
2026-01-04 09:07:15.02	98.49	33.37	-45.4	-47.3	18.2	0.00e+00	0	41	0	0	61	4736
2026-01-04 09:07:16.31	98.10	33.54	-45.1	-47.0	18.4	0.00e+00	0	40	0	0	61	4578
2026-01-04 09:07:17.02	97.88	33.64	-45.1	-47.0	18.4	0.00e+00	0	40	0	0	61	4575
2026-01-04 09:07:18.31	97.48	33.81	-45.1	-47.0	18.4	0.00e+00	0	40	0	0	61	4553
2026-01-04 09:07:19.03	97.26	33.90	-45.0	-46.9	18.5	0.00e+00	0	40	0	0	61	4512
2026-01-04 09:07:20.32	96.86	34.07	-45.4	-47.3	18.5	0.00e+00	0	40	0	0	61	4713
2026-01-04 09:07:21.03	96.63	34.16	-45.6	-47.5	18.2	0.00e+00	0	40	0	0	61	4835
2026-01-04 09:07:22.32	96.23	34.33	-45.7	-47.6	18.2	0.00e+00	0	40	0	0	61	4885
2026-01-04 09:07:23.12	95.97	34.43	-45.6	-47.5	18.3	0.00e+00	0	40	0	0	61	4818
2026-01-04 09:07:24.26	95.60	34.58	-45.3	-47.2	18.2	0.00e+00	0	40	0	0	62	4438
2026-01-04 09:07:25.12	95.32	34.69	-45.7	-47.6	18.2	0.00e+00	0	40	0	0	62	4625
2026-01-04 09:07:26.27	94.95	34.83	-45.7	-47.7	18.0	0.00e+00	0	40	0	0	62	4659
2026-01-04 09:07:27.13	94.66	34.94	-45.9	-47.9	17.8	0.00e+00	0	40	0	0	62	4774
2026-01-04 09:07:28.71	94.14	35.14	-45.8	-47.8	17.7	0.00e+00	0	41	0	0	62	4722
2026-01-04 09:07:29.28	93.95	35.21	-45.8	-47.7	17.8	0.00e+00	0	40	0	0	62	4697
2026-01-04 09:07:30.86	93.41	35.41	-45.7	-47.7	17.8	0.00e+00	0	41	0	0	62	4659
2026-01-04 09:07:31.44	93.21	35.48	-45.7	-47.6	17.9	0.00e+00	0	40	0	0	62	4638
2026-01-04 09:07:33.02	92.67	35.68	-45.7	-47.6	17.9	0.00e+00	0	40	0	0	62	4636
2026-01-04 09:07:33.63	92.46	35.75	-45.7	-47.7	17.8	0.00e+00	0	40	0	0	62	4679
2026-01-04 09:07:35.36	91.85	35.96	-45.7	-47.7	17.8	0.00e+00	0	40	0	0	62	4679
2026-01-04 09:07:35.93	91.65	36.03	-45.7	-47.7	17.8	0.00e+00	0	40	0	0	62	4665
2026-01-04 09:07:37.51	91.09	36.22	-45.6	-47.5	18.0	0.00e+00	0	40	0	0	62	4582
2026-01-04 09:07:38.11	90.87	36.29	-45.5	-47.5	18.0	0.00e+00	0	41	0	0	62	4554
2026-01-04 09:07:39.69	90.30	36.48	-45.4	-47.4	18.1	0.00e+00	0	40	0	0	62	4498
2026-01-04 09:07:40.28	90.09	36.55	-45.3	-47.3	18.2	0.00e+00	0	41	0	0	62	4451
2026-01-04 09:07:42.09	89.42	36.76	-45.6	-47.6	18.0	0.00e+00	0	40	0	0	62	4626
2026-01-04 09:07:42.67	89.21	36.83	-45.5	-47.5	18.1	0.00e+00	0	40	0	0	62	4550
2026-01-04 09:07:44.27	88.61	37.01	-45.5	-47.5	18.1	0.00e+00	0	40	0	0	62	4554
2026-01-04 09:07:44.85	88.39	37.07	-45.5	-47.4	18.2	0.00e+00	0	40	0	0	62	4541
2026-01-04 09:07:46.42	87.79	37.25	-45.4	-47.3	18.1	0.00e+00	0	41	0	0	62	4487
2026-01-04 09:07:47.01	87.57	37.31	-45.4	-47.3	18.2	0.00e+00	0	40	0	0	62	4469
2026-01-04 09:07:48.59	86.96	37.49	-45.8	-47.9	17.6	0.00e+00	0	40	0	0	62	4779
2026-01-04 09:07:49.18	86.73	37.55	-45.9	-48.0	17.4	0.00e+00	0	40	0	0	62	4855
2026-01-04 09:07:50.96	86.04	37.74	-46.0	-48.1	17.5	0.00e+00	0	41	0	0	62	4903
2026-01-04 09:07:51.53	85.81	37.80	-45.9	-48.0	17.5	0.00e+00	0	40	0	0	62	4861
2026-01-04 09:07:53.13	85.18	37.97	-45.9	-48.0	17.6	0.00e+00	0	40	0	0	62	4830
2026-01-04 09:07:54.13	84.78	38.07	-45.8	-47.8	17.7	0.00e+00	0	40	0	0	62	4751
2026-01-04 09:07:55.13	84.38	38.17	-45.8	-47.8	17.8	0.00e+00	0	40	0	0	62	4736
2026-01-04 09:07:56.13	83.97	38.27	-45.7	-47.7	17.8	0.00e+00	0	40	0	0	62	4673
2026-01-04 09:07:57.16	83.55	38.37	-45.7	-47.6	17.9	0.00e+00	0	40	0	0	62	4639
2026-01-04 09:07:58.17	83.14	38.47	-45.4	-47.4	18.2	0.00e+00	0	40	0	0	62	4499
2026-01-04 09:07:59.21	82.71	38.57	-45.4	-47.4	18.1	0.00e+00	0	41	0	0	62	4521
2026-01-04 09:08:00.25	82.28	38.66	-45.6	-47.6	18.0	0.00e+00	0	40	0	0	62	4603
2026-01-04 09:08:01.21	81.88	38.75	-45.8	-47.8	17.7	0.00e+00	0	40	0	0	62	4721
2026-01-04 09:08:02.21	81.46	38.84	-46.1	-48.1	17.3	0.00e+00	0	41	0	0	62	4923
2026-01-04 09:08:03.21	81.04	38.93	-45.9	-48.0	17.6	0.00e+00	0	40	0	0	62	4818
2026-01-04 09:08:04.21	80.61	39.02	-45.8	-47.8	17.6	0.00e+00	0	40	0	0	62	4724
2026-01-04 09:08:05.22	80.18	39.11	-46.0	-48.0	17.5	0.00e+00	0	40	0	0	62	4836
2026-01-04 09:08:06.22	79.75	39.19	-46.2	-48.2	17.3	0.00e+00	0	40	0	0	62	4979
2026-01-04 09:08:07.22	79.32	39.28	-46.4	-48.5	17.1	0.00e+00	0	40	0	0	63	4820
2026-01-04 09:08:08.23	78.88	39.36	-46.5	-48.6	17.0	0.00e+00	0	41	0	0	63	4897
2026-01-04 09:08:09.53	78.32	39.46	-46.5	-48.6	17.0	0.00e+00	0	41	0	0	63	4890
2026-01-04 09:08:10.25	78.00	39.52	-46.5	-48.6	17.0	0.00e+00	0	40	0	0	63	4880
2026-01-04 09:08:11.53	77.44	39.62	-46.5	-48.7	16.9	0.00e+00	0	40	0	0	63	4936
2026-01-04 09:08:12.25	77.12	39.67	-46.2	-48.3	17.2	0.00e+00	0	40	0	0	63	4741
2026-01-04 09:08:13.54	76.55	39.76	-45.6	-47.6	17.8	0.00e+00	0	40	0	0	63	4378
2026-01-04 09:08:14.25	76.23	39.81	-45.6	-47.6	17.8	0.00e+00	0	40	0	0	63	4357
2026-01-04 09:08:15.55	75.65	39.90	-45.7	-47.7	17.8	0.00e+00	0	40	0	0	63	4405
2026-01-04 09:08:16.26	75.33	39.95	-45.7	-47.7	17.7	0.00e+00	0	41	0	0	63	4406
2026-01-04 09:08:17.62	74.72	40.04	-46.2	-48.3	17.2	0.00e+00	0	40	0	0	63	4711
2026-01-04 09:08:18.33	74.40	40.08	-46.3	-48.4	17.0	0.00e+00	0	41	0	0	63	4791
2026-01-04 09:08:19.62	73.81	40.16	-46.2	-48.2	17.3	0.00e+00	0	40	0	0	63	4695
2026-01-04 09:08:20.70	73.32	40.23	-46.1	-48.1	17.4	0.00e+00	0	40	0	0	63	4620
2026-01-04 09:08:21.56	72.92	40.27	-46.2	-48.3	17.3	0.00e+00	0	40	0	0	63	4725
2026-01-04 09:08:22.71	72.39	40.34	-46.2	-48.3	17.3	0.00e+00	0	41	0	0	63	4706
2026-01-04 09:08:23.57	72.00	40.38	-46.2	-48.3	17.2	0.00e+00	0	40	0	0	63	4728
2026-01-04 09:08:24.72	71.46	40.44	-46.5	-48.6	17.0	0.00e+00	0	40	0	0	63	4906
2026-01-04 09:08:25.58	71.06	40.48	-46.4	-48.5	17.1	0.00e+00	0	40	0	0	63	4857
2026-01-04 09:08:26.72	70.53	40.54	-46.6	-48.7	17.0	0.00e+00	0	40	0	0	63	4960
2026-01-04 09:08:27.59	70.13	40.57	-46.7	-48.8	16.7	0.00e+00	0	40	0	0	64	4750
2026-01-04 09:08:28.92	69.50	40.63	-46.9	-49.1	16.5	0.00e+00	0	40	0	0	64	4871
2026-01-04 09:08:29.64	69.16	40.66	-46.8	-49.0	16.6	0.00e+00	0	40	0	0	64	4820
2026-01-04 09:08:30.93	68.56	40.71	-46.6	-48.7	16.8	0.00e+00	0	40	0	0	64	4665
2026-01-04 09:08:31.64	68.22	40.73	-46.4	-48.5	17.0	0.00e+00	0	41	0	0	64	4588
2026-01-04 09:08:32.93	67.61	40.78	-46.4	-48.5	17.0	0.00e+00	0	41	0	0	64	4574
2026-01-04 09:08:33.65	67.27	40.80	-46.5	-48.6	16.9	0.00e+00	0	40	0	0	64	4632
2026-01-04 09:08:34.94	66.66	40.84	-46.7	-48.9	16.7	0.00e+00	0	40	0	0	64	4771
2026-01-04 09:08:35.65	66.32	40.86	-46.7	-48.9	16.6	0.00e+00	0	40	0	0	64	4806
2026-01-04 09:08:36.94	65.71	40.89	-46.8	-49.0	16.4	0.00e+00	0	41	0	0	64	4867
2026-01-04 09:08:37.66	65.36	40.90	-46.8	-49.0	16.5	0.00e+00	0	40	0	0	64	4851
2026-01-04 09:08:38.95	64.75	40.93	-46.7	-48.9	16.7	0.00e+00	0	41	0	0	64	4770
2026-01-04 09:08:39.66	64.41	40.94	-46.6	-48.7	16.9	0.00e+00	0	40	0	0	64	4664
2026-01-04 09:08:41.06	63.74	40.96	-46.9	-49.2	16.5	0.00e+00	0	40	0	0	64	4942
2026-01-04 09:08:41.78	63.39	40.97	-47.1	-49.3	16.3	0.00e+00	0	40	0	0	64	5006
2026-01-04 09:08:43.12	62.75	40.99	-47.2	-49.5	16.0	0.00e+00	0	40	0	0	65	4842
2026-01-04 09:08:43.84	62.40	40.99	-47.3	-49.7	15.8	0.00e+00	0	40	0	0	65	4929
2026-01-04 09:08:45.13	61.78	41.00	-47.2	-49.5	15.9	0.00e+00	0	40	0	0	65	4815
2026-01-04 09:08:46.18	61.28	41.00	-47.0	-49.2	16.2	0.00e+00	0	40	0	0	65	4700
2026-01-04 09:08:47.05	60.86	41.01	-46.9	-49.1	16.4	0.00e+00	0	40	0	0	65	4621
2026-01-04 09:08:48.20	60.31	41.00	-46.7	-48.9	16.6	0.00e+00	0	40	0	0	65	4515
2026-01-04 09:08:49.06	59.90	41.00	-46.7	-48.9	16.6	0.00e+00	0	40	0	0	65	4531
2026-01-04 09:08:50.20	59.35	41.00	-47.0	-49.3	16.1	0.00e+00	0	41	0	0	65	4744
2026-01-04 09:08:51.06	58.94	40.99	-47.3	-49.7	15.8	0.00e+00	0	40	0	0	65	4941
2026-01-04 09:08:52.20	58.39	40.98	-47.5	-49.9	15.5	0.00e+00	0	41	0	0	65	5053
2026-01-04 09:08:53.06	57.98	40.97	-47.3	-49.6	15.8	0.00e+00	0	40	0	0	65	4901
2026-01-04 09:08:54.43	57.32	40.95	-46.7	-48.8	16.6	0.00e+00	0	40	0	0	65	4492
2026-01-04 09:08:55.15	56.98	40.93	-46.5	-48.7	16.8	0.00e+00	0	41	0	0	64	4667
2026-01-04 09:08:56.44	56.36	40.91	-46.2	-48.3	17.2	0.00e+00	0	40	0	0	64	4451
2026-01-04 09:08:57.15	56.02	40.89	-46.3	-48.4	17.1	0.00e+00	0	40	0	0	64	4536
2026-01-04 09:08:58.44	55.41	40.86	-46.5	-48.6	16.8	0.00e+00	0	40	0	0	64	4613
2026-01-04 09:08:59.16	55.07	40.84	-46.6	-48.7	16.7	0.00e+00	0	40	0	0	64	4695
2026-01-04 09:09:00.78	54.30	40.80	-46.4	-48.5	16.9	0.00e+00	0	40	0	0	64	4576
2026-01-04 09:09:01.36	54.02	40.78	-46.3	-48.4	17.0	0.00e+00	0	40	0	0	64	4512
2026-01-04 09:09:02.93	53.28	40.73	-46.1	-48.1	17.2	0.00e+00	0	40	0	0	64	4378
2026-01-04 09:09:03.56	52.99	40.70	-46.0	-48.0	17.3	0.00e+00	0	40	0	0	64	4337
2026-01-04 09:09:05.01	52.30	40.65	-46.4	-48.5	16.9	0.00e+00	0	40	0	0	63	4844
2026-01-04 09:09:05.72	51.97	40.62	-46.6	-48.7	16.8	0.00e+00	0	40	0	0	63	4954
2026-01-04 09:09:07.01	51.37	40.56	-47.2	-49.6	15.9	0.00e+00	0	40	0	0	65	4871
2026-01-04 09:09:07.73	51.03	40.53	-47.4	-49.8	15.7	0.00e+00	0	40	0	0	65	5004
2026-01-04 09:09:09.08	50.40	40.47	-47.1	-49.4	16.3	0.00e+00	0	40	0	0	65	4778
2026-01-04 09:09:09.80	50.07	40.43	-47.0	-49.2	16.4	0.00e+00	0	40	0	0	65	4668
2026-01-04 09:09:11.15	49.45	40.36	-46.5	-48.6	17.0	0.00e+00	0	40	0	0	64	4602
2026-01-04 09:09:11.86	49.12	40.33	-46.1	-48.0	17.5	0.00e+00	0	40	0	0	63	4596
2026-01-04 09:09:13.23	48.49	40.25	-46.0	-48.0	17.6	0.00e+00	0	40	0	0	63	4562
2026-01-04 09:09:13.95	48.16	40.21	-46.3	-48.3	17.2	0.00e+00	0	40	0	0	63	4759
2026-01-04 09:09:15.27	47.56	40.13	-46.6	-48.8	16.6	0.00e+00	0	40	0	0	64	4736
2026-01-04 09:09:15.98	47.24	40.09	-46.9	-49.2	16.3	0.00e+00	0	40	0	0	64	4929
2026-01-04 09:09:17.31	46.64	40.00	-47.0	-49.3	16.2	0.00e+00	0	40	0	0	64	4988
2026-01-04 09:09:18.02	46.32	39.96	-46.9	-49.2	16.3	0.00e+00	0	41	0	0	64	4932
2026-01-04 09:09:19.31	45.74	39.87	-46.8	-49.0	16.4	0.00e+00	0	40	0	0	64	4861
2026-01-04 09:09:20.02	45.42	39.82	-46.8	-49.0	16.5	0.00e+00	0	41	0	0	64	4853
2026-01-04 09:09:21.31	44.85	39.73	-46.4	-48.6	16.8	0.00e+00	0	40	0	0	64	4605
2026-01-04 09:09:22.03	44.53	39.68	-46.4	-48.4	16.9	0.00e+00	0	40	0	0	64	4544
2026-01-04 09:09:23.31	43.97	39.58	-46.6	-48.7	16.6	0.00e+00	0	40	0	0	64	4694
2026-01-04 09:09:24.03	43.65	39.53	-46.5	-48.7	16.7	0.00e+00	0	41	0	0	64	4662
2026-01-04 09:09:25.32	43.09	39.43	-46.5	-48.7	16.7	0.00e+00	0	40	0	0	64	4661
2026-01-04 09:09:26.12	42.74	39.36	-46.6	-48.7	16.6	0.00e+00	0	41	0	0	64	4705
2026-01-04 09:09:27.26	42.25	39.27	-46.8	-49.0	16.5	0.00e+00	0	41	0	0	64	4864
2026-01-04 09:09:28.12	41.88	39.20	-47.1	-49.4	16.2	0.00e+00	0	40	0	0	64	5053
2026-01-04 09:09:29.27	41.39	39.10	-47.3	-49.6	16.0	0.00e+00	0	40	0	0	65	4902
2026-01-04 09:09:30.13	41.02	39.03	-47.2	-49.5	16.1	0.00e+00	0	40	0	0	65	4821
2026-01-04 09:09:31.27	40.54	38.93	-46.8	-49.0	16.4	0.00e+00	0	40	0	0	65	4590
2026-01-04 09:09:32.13	40.18	38.85	-46.5	-48.7	16.6	0.00e+00	0	40	0	0	65	4417
2026-01-04 09:09:33.30	39.69	38.74	-45.8	-47.8	17.6	0.00e+00	0	40	0	0	63	4472
2026-01-04 09:09:34.16	39.33	38.66	-45.5	-47.4	18.0	0.00e+00	0	40	0	0	62	4508
2026-01-04 09:09:35.31	38.85	38.56	-45.7	-47.7	17.9	0.00e+00	0	41	0	0	62	4655
2026-01-04 09:09:36.17	38.50	38.47	-46.0	-48.0	17.5	0.00e+00	0	40	0	0	62	4870
2026-01-04 09:09:37.32	38.03	38.36	-46.5	-48.6	17.0	0.00e+00	0	40	0	0	63	4895
2026-01-04 09:09:38.18	37.68	38.28	-46.7	-48.8	16.7	0.00e+00	0	41	0	0	63	5022
2026-01-04 09:09:39.51	37.14	38.15	-46.4	-48.5	16.8	0.00e+00	0	40	0	0	63	4865
2026-01-04 09:09:40.22	36.86	38.07	-46.0	-48.1	17.3	0.00e+00	0	40	0	0	63	4605
2026-01-04 09:09:41.51	36.35	37.94	-45.6	-47.5	17.8	0.00e+00	0	41	0	0	63	4335
2026-01-04 09:09:42.22	36.07	37.87	-45.6	-47.5	17.9	0.00e+00	0	40	0	0	63	4327
2026-01-04 09:09:43.78	35.45	37.71	-46.0	-48.0	17.4	0.00e+00	0	40	0	0	63	4588
2026-01-04 09:09:44.49	35.18	37.63	-46.3	-48.3	17.2	0.00e+00	0	40	0	0	63	4743
2026-01-04 09:09:45.86	34.64	37.48	-46.7	-48.8	16.8	0.00e+00	0	40	0	0	64	4746
2026-01-04 09:09:46.58	34.37	37.41	-46.5	-48.6	16.9	0.00e+00	0	40	0	0	64	4617
2026-01-04 09:09:47.86	33.88	37.26	-45.7	-47.7	17.7	0.00e+00	0	40	0	0	63	4411
2026-01-04 09:09:48.58	33.61	37.19	-45.5	-47.5	17.9	0.00e+00	0	40	0	0	63	4317
2026-01-04 09:09:49.87	33.12	37.04	-45.7	-47.7	17.7	0.00e+00	0	40	0	0	63	4422
2026-01-04 09:09:50.59	32.85	36.96	-46.1	-48.2	17.3	0.00e+00	0	40	0	0	63	4660
2026-01-04 09:09:51.88	32.37	36.81	-46.6	-48.9	16.6	0.00e+00	0	40	0	0	64	4767
2026-01-04 09:09:52.59	32.11	36.73	-46.9	-49.2	16.3	7.00e-07	0	40	0	0	64	4938
2026-01-04 09:09:53.88	31.64	36.58	-46.4	-48.6	16.8	0.00e+00	0	40	0	0	64	4604
2026-01-04 09:09:54.60	31.37	36.50	-45.8	-47.8	17.6	0.00e+00	0	40	0	0	63	4476
2026-01-04 09:09:55.89	30.91	36.35	-45.0	-46.9	18.5	0.00e+00	0	41	0	0	62	4255
2026-01-04 09:09:56.60	30.65	36.26	-45.0	-46.9	18.5	0.00e+00	0	41	0	0	61	4521
2026-01-04 09:09:57.89	30.20	36.11	-44.8	-46.6	18.8	0.00e+00	0	40	0	0	61	4363
2026-01-04 09:09:58.61	29.94	36.02	-44.9	-46.7	18.7	0.00e+00	0	40	0	0	61	4433
2026-01-04 09:09:59.90	29.49	35.87	-45.8	-47.9	17.7	0.00e+00	0	40	0	0	62	4764
2026-01-04 09:10:00.62	29.24	35.78	-46.1	-48.2	17.4	0.00e+00	0	40	0	0	62	4951
2026-01-04 09:10:02.02	28.76	35.61	-45.9	-47.9	17.3	0.00e+00	0	40	0	0	63	4540
2026-01-04 09:10:02.73	28.51	35.52	-45.6	-47.6	17.6	0.00e+00	0	40	0	0	63	4359
2026-01-04 09:10:04.08	28.05	35.35	-45.4	-47.3	18.0	0.00e+00	0	40	0	0	62	4469
2026-01-04 09:10:05.07	27.72	35.23	-45.0	-46.9	18.4	0.00e+00	0	40	0	0	62	4255
2026-01-04 09:10:06.39	27.28	35.07	-45.0	-46.8	18.6	0.00e+00	0	40	0	0	61	4491
2026-01-04 09:10:07.11	27.04	34.97	-45.5	-47.5	17.9	0.00e+00	0	40	0	0	61	4855
2026-01-04 09:10:08.75	26.50	34.77	-46.1	-48.3	17.2	0.00e+00	0	40	0	0	62	5001
2026-01-04 09:10:09.32	26.32	34.70	-46.4	-48.6	17.0	0.00e+00	0	40	0	0	63	4880
2026-01-04 09:10:10.97	25.79	34.48	-45.8	-47.9	17.6	0.00e+00	0	40	0	0	63	4495
2026-01-04 09:10:11.54	25.61	34.41	-45.3	-47.3	18.1	0.00e+00	0	40	0	0	62	4453
2026-01-04 09:10:13.13	25.10	34.21	-44.8	-46.7	18.7	0.00e+00	0	40	0	0	61	4401
2026-01-04 09:10:13.70	24.92	34.13	-44.7	-46.6	18.8	0.00e+00	0	40	0	0	61	4345
2026-01-04 09:10:15.28	24.43	33.93	-44.5	-46.4	19.0	0.00e+00	0	40	0	0	61	4253
2026-01-04 09:10:15.87	24.25	33.85	-44.7	-46.6	18.8	0.00e+00	0	41	0	0	61	4372
2026-01-04 09:10:17.44	23.77	33.65	-45.0	-47.0	18.5	0.00e+00	0	40	0	0	61	4549
2026-01-04 09:10:18.07	23.58	33.56	-45.1	-47.1	18.3	0.00e+00	0	41	0	0	61	4628
2026-01-04 09:10:19.74	23.08	33.34	-45.1	-47.2	18.1	0.00e+00	0	40	0	0	61	4654
2026-01-04 09:10:20.32	22.90	33.27	-45.0	-47.0	18.2	0.00e+00	0	40	0	0	61	4571
2026-01-04 09:10:21.96	22.42	33.05	-44.9	-46.8	18.3	0.00e+00	0	40	0	0	61	4449
2026-01-04 09:10:22.53	22.25	32.98	-44.7	-46.5	18.6	0.00e+00	0	40	0	0	61	4331
2026-01-04 09:10:24.12	21.79	32.77	-44.2	-46.0	19.2	0.00e+00	0	40	0	0	60	4314
2026-01-04 09:10:25.08	21.52	32.64	-44.6	-46.4	19.0	0.00e+00	0	40	0	0	60	4526
2026-01-04 09:10:26.08	21.23	32.50	-44.9	-46.7	18.7	0.00e+00	0	40	0	0	60	4703
2026-01-04 09:10:27.08	20.95	32.37	-45.0	-46.9	18.4	0.00e+00	0	40	0	0	60	4812
2026-01-04 09:10:28.08	20.67	32.24	-45.0	-46.9	18.5	0.00e+00	0	40	0	0	60	4790
2026-01-04 09:10:29.10	20.39	32.10	-44.7	-46.6	18.7	0.00e+00	0	40	0	0	60	4619
2026-01-04 09:10:30.10	20.11	31.97	-44.5	-46.3	18.9	0.00e+00	0	40	0	0	60	4486
2026-01-04 09:10:31.18	19.82	31.82	-44.5	-46.3	19.0	0.00e+00	0	40	0	0	60	4452
2026-01-04 09:10:32.04	19.59	31.71	-44.6	-46.4	18.9	0.00e+00	0	40	0	0	60	4522
2026-01-04 09:10:33.19	19.28	31.55	-44.6	-46.5	18.9	0.00e+00	0	40	0	0	60	4560
2026-01-04 09:10:34.05	19.05	31.44	-44.8	-46.7	18.7	0.00e+00	0	40	0	0	60	4670
2026-01-04 09:10:35.19	18.75	31.28	-45.1	-47.0	18.4	0.00e+00	0	40	0	0	60	4826
2026-01-04 09:10:36.23	18.48	31.14	-45.2	-47.1	18.2	0.00e+00	0	40	0	0	60	4888
2026-01-04 09:10:37.40	18.18	30.99	-45.2	-47.1	18.2	0.00e+00	0	40	0	0	61	4634
2026-01-04 09:10:38.26	17.95	30.87	-45.1	-47.1	18.2	0.00e+00	0	40	0	0	61	4601
2026-01-04 09:10:39.62	17.61	30.69	-44.8	-46.7	18.6	0.00e+00	0	40	0	0	61	4400
2026-01-04 09:10:40.33	17.43	30.59	-44.5	-46.4	18.8	0.00e+00	0	40	0	0	61	4260
2026-01-04 09:10:41.62	17.11	30.42	-44.4	-46.2	19.1	0.00e+00	0	40	0	0	60	4412
2026-01-04 09:10:42.33	16.93	30.32	-44.2	-46.0	19.2	0.00e+00	0	40	0	0	60	4309
2026-01-04 09:10:43.62	16.62	30.15	-44.0	-45.8	19.4	0.00e+00	0	40	0	0	60	4241
2026-01-04 09:10:44.34	16.44	30.05	-43.9	-45.7	19.4	0.00e+00	0	40	0	0	59	4433
2026-01-04 09:10:45.62	16.13	29.88	-44.2	-46.0	19.2	0.00e+00	0	40	0	0	59	4594
2026-01-04 09:10:46.44	15.93	29.77	-44.3	-46.1	19.1	0.00e+00	0	41	0	0	59	4600
2026-01-04 09:10:47.58	15.66	29.62	-44.2	-46.0	19.1	0.00e+00	0	40	0	0	59	4573
2026-01-04 09:10:48.44	15.46	29.50	-44.2	-46.0	19.0	0.00e+00	0	40	0	0	59	4555
2026-01-04 09:10:49.59	15.19	29.35	-43.7	-45.4	19.4	0.00e+00	0	40	0	0	59	4269
2026-01-04 09:10:50.45	14.99	29.23	-43.5	-45.2	19.6	0.00e+00	0	40	0	0	58	4402
2026-01-04 09:10:51.59	14.73	29.08	-43.2	-44.9	19.9	0.00e+00	0	40	0	0	58	4273
2026-01-04 09:10:52.45	14.54	28.97	-43.3	-45.0	19.9	0.00e+00	0	40	0	0	58	4319
2026-01-04 09:10:53.60	14.28	28.81	-43.6	-45.3	19.8	0.00e+00	0	41	0	0	58	4467
2026-01-04 09:10:54.86	14.00	28.64	-43.9	-45.7	19.4	0.00e+00	0	40	0	0	58	4672
2026-01-04 09:10:55.60	13.83	28.55	-44.2	-45.9	19.2	0.00e+00	0	40	0	0	58	4812
2026-01-04 09:10:56.89	13.55	28.37	-44.5	-46.3	18.9	0.00e+00	0	40	0	0	59	4752
2026-01-04 09:10:57.60	13.39	28.28	-44.6	-46.4	18.8	0.00e+00	0	40	0	0	59	4805
2026-01-04 09:10:58.90	13.11	28.11	-44.7	-46.6	18.9	0.00e+00	0	40	0	0	60	4615
2026-01-04 09:10:59.61	12.96	28.01	-44.6	-46.5	18.9	0.00e+00	0	40	0	0	60	4546
2026-01-04 09:11:00.90	12.69	27.84	-44.4	-46.3	19.1	0.00e+00	0	40	0	0	60	4452
2026-01-04 09:11:01.62	12.53	27.75	-44.5	-46.3	19.0	0.00e+00	0	40	0	0	60	4483
2026-01-04 09:11:02.91	12.27	27.58	-44.4	-46.3	19.0	0.00e+00	0	40	0	0	60	4445
2026-01-04 09:11:03.62	12.12	27.48	-44.4	-46.3	19.0	0.00e+00	0	40	0	0	60	4464
2026-01-04 09:11:05.19	11.80	27.28	-44.3	-46.2	19.0	0.00e+00	0	40	0	0	60	4397
2026-01-04 09:11:06.08	11.62	27.16	-44.3	-46.2	19.1	0.00e+00	0	40	0	0	60	4395
2026-01-04 09:11:07.64	11.30	26.96	-44.4	-46.2	19.0	0.00e+00	0	40	0	0	60	4436
2026-01-04 09:11:08.35	11.16	26.86	-44.5	-46.3	18.9	0.00e+00	0	40	0	0	60	4482
2026-01-04 09:11:09.64	10.91	26.69	-44.4	-46.3	19.0	0.00e+00	0	40	0	0	60	4449
2026-01-04 09:11:10.36	10.77	26.60	-44.3	-46.1	19.1	0.00e+00	0	41	0	0	60	4364
2026-01-04 09:11:11.65	10.52	26.43	-44.2	-46.0	19.2	0.00e+00	0	40	0	0	60	4300
2026-01-04 09:11:12.36	10.38	26.34	-44.2	-46.0	19.2	0.00e+00	0	40	0	0	60	4320
2026-01-04 09:11:13.65	10.13	26.17	-44.1	-45.8	19.3	0.00e+00	0	40	0	0	60	4242
2026-01-04 09:11:14.37	10.00	26.08	-44.1	-45.9	19.3	0.00e+00	0	40	0	0	60	4247
2026-01-04 09:11:15.66	9.75	25.92	-43.5	-45.2	19.8	0.00e+00	0	40	0	0	59	4185
2026-01-04 09:11:16.37	9.62	25.82	-43.4	-45.0	19.9	0.00e+00	0	40	0	0	58	4339
2026-01-04 09:11:17.68	9.38	25.66	-43.4	-45.0	19.9	0.00e+00	0	40	0	0	58	4338
2026-01-04 09:11:18.39	9.25	25.57	-43.3	-45.0	19.9	0.00e+00	0	40	0	0	58	4321
2026-01-04 09:11:19.75	9.00	25.39	-43.5	-45.1	19.8	0.00e+00	0	40	0	0	58	4385
2026-01-04 09:11:20.46	8.87	25.30	-43.6	-45.3	19.7	0.00e+00	0	40	0	0	58	4493
2026-01-04 09:11:21.75	8.64	25.14	-43.9	-45.6	19.5	0.00e+00	0	40	0	0	58	4625
2026-01-04 09:11:22.47	8.52	25.05	-43.9	-45.7	19.5	0.00e+00	0	40	0	0	58	4663
2026-01-04 09:11:23.76	8.29	24.88	-44.0	-45.8	19.3	0.00e+00	0	40	0	0	58	4734
2026-01-04 09:11:24.47	8.17	24.79	-44.0	-45.8	19.3	0.00e+00	0	40	0	0	58	4728
2026-01-04 09:11:25.76	7.94	24.63	-44.0	-45.8	19.4	0.00e+00	0	40	0	0	58	4711
2026-01-04 09:11:26.48	7.82	24.54	-44.0	-45.7	19.3	0.00e+00	0	40	0	0	58	4701
2026-01-04 09:11:27.77	7.60	24.38	-44.1	-45.9	19.2	0.00e+00	0	40	0	0	58	4783
2026-01-04 09:11:28.49	7.48	24.29	-44.1	-45.9	19.2	0.00e+00	0	40	0	0	58	4810
2026-01-04 09:11:29.78	7.26	24.13	-44.1	-46.0	19.1	0.00e+00	0	40	0	0	58	4828
2026-01-04 09:11:30.49	7.15	24.04	-44.1	-46.0	19.1	0.00e+00	0	40	0	0	58	4838
2026-01-04 09:11:31.78	6.93	23.88	-44.2	-46.1	19.0	0.00e+00	0	40	0	0	59	4611
2026-01-04 09:11:32.50	6.82	23.79	-44.3	-46.2	19.0	0.00e+00	0	40	0	0	59	4666
2026-01-04 09:11:33.79	6.61	23.63	-44.4	-46.3	18.9	0.00e+00	0	40	0	0	59	4708
2026-01-04 09:11:34.66	6.47	23.53	-44.3	-46.2	18.9	0.00e+00	0	40	0	0	59	4686
2026-01-04 09:11:36.13	6.23	23.35	-44.3	-46.2	18.9	0.00e+00	0	40	0	0	59	4693
2026-01-04 09:11:37.25	6.06	23.21	-44.2	-46.1	19.0	0.00e+00	0	40	0	0	59	4623
2026-01-04 09:11:38.44	5.87	23.07	-44.1	-46.0	19.0	0.00e+00	0	40	0	0	59	4592
2026-01-04 09:11:39.30	5.74	22.96	-44.1	-46.0	19.1	0.00e+00	0	40	0	0	59	4560
2026-01-04 09:11:40.45	5.56	22.82	-44.1	-45.9	19.0	0.00e+00	0	40	0	0	59	4544
2026-01-04 09:11:41.31	5.43	22.72	-44.1	-45.9	19.1	0.00e+00	0	40	0	0	59	4532
2026-01-04 09:11:42.45	5.26	22.58	-44.1	-45.9	19.0	0.00e+00	0	40	0	0	59	4516
2026-01-04 09:11:43.31	5.13	22.48	-44.0	-45.8	19.1	0.00e+00	0	40	0	0	59	4480
2026-01-04 09:11:44.46	4.96	22.34	-44.0	-45.8	19.2	0.00e+00	0	40	0	0	59	4444
2026-01-04 09:11:45.32	4.83	22.24	-44.0	-45.8	19.2	0.00e+00	0	40	0	0	59	4467
2026-01-04 09:11:46.55	4.65	22.09	-44.1	-45.9	19.0	0.00e+00	0	40	0	0	59	4529
2026-01-04 09:11:47.40	4.53	21.99	-44.1	-45.9	19.0	0.00e+00	0	40	0	0	59	4541
2026-01-04 09:11:48.63	4.35	21.85	-44.1	-46.0	18.9	0.00e+00	0	40	0	0	59	4561
2026-01-04 09:11:49.49	4.23	21.74	-44.3	-46.2	18.8	0.00e+00	0	40	0	0	59	4664
2026-01-04 09:11:50.63	4.07	21.61	-44.3	-46.2	18.8	0.00e+00	0	40	0	0	59	4669
2026-01-04 09:11:51.49	3.95	21.51	-44.2	-46.1	18.9	0.00e+00	0	40	0	0	59	4631
2026-01-04 09:11:52.64	3.79	21.38	-44.1	-45.9	19.0	0.00e+00	0	40	0	0	59	4538
2026-01-04 09:11:53.49	3.67	21.28	-44.0	-45.9	19.2	0.00e+00	0	40	0	0	59	4505
2026-01-04 09:11:54.64	3.51	21.14	-44.1	-45.9	19.1	0.00e+00	0	40	0	0	59	4528
2026-01-04 09:11:55.50	3.39	21.05	-44.1	-46.0	19.1	0.00e+00	0	40	0	0	59	4556
2026-01-04 09:11:56.65	3.24	20.91	-44.0	-45.9	19.2	0.00e+00	0	40	0	0	59	4499
2026-01-04 09:11:57.51	3.12	20.81	-44.0	-45.8	19.2	0.00e+00	0	40	0	0	59	4484
2026-01-04 09:11:58.65	2.97	20.68	-43.9	-45.7	19.4	0.00e+00	0	40	0	0	59	4416
2026-01-04 09:11:59.74	2.83	20.56	-43.9	-45.7	19.4	0.00e+00	0	40	0	0	59	4415
2026-01-04 09:12:00.77	2.69	20.44	-43.8	-45.6	19.5	0.00e+00	0	40	0	0	59	4347
2026-01-04 09:12:01.95	2.54	20.31	-43.7	-45.5	19.6	0.00e+00	0	40	0	0	59	4310
2026-01-04 09:12:02.82	2.43	20.21	-43.8	-45.6	19.5	0.00e+00	0	40	0	0	59	4347
2026-01-04 09:12:04.13	2.26	20.06	-43.9	-45.6	19.5	0.00e+00	0	40	0	0	59	4386
2026-01-04 09:12:04.84	2.17	19.98	-43.9	-45.6	19.5	0.00e+00	0	40	0	0	59	4383
2026-01-04 09:12:06.31	1.98	19.82	-43.9	-45.7	19.4	0.00e+00	0	40	0	0	59	4424
2026-01-04 09:12:07.02	1.89	19.74	-44.0	-45.8	19.3	0.00e+00	0	40	0	0	59	4449
2026-01-04 09:12:08.31	1.73	19.60	-44.0	-45.8	19.3	0.00e+00	0	40	0	0	59	4465
2026-01-04 09:12:09.03	1.65	19.52	-44.0	-45.8	19.3	0.00e+00	0	40	0	0	59	4476
2026-01-04 09:12:10.32	1.49	19.37	-44.0	-45.9	19.1	0.00e+00	0	40	0	0	59	4495
2026-01-04 09:12:11.04	1.40	19.29	-44.0	-45.8	19.1	0.00e+00	0	40	0	0	59	4473
2026-01-04 09:12:12.33	1.25	19.15	-43.9	-45.7	19.2	0.00e+00	0	40	0	0	59	4422
2026-01-04 09:12:13.05	1.16	19.07	-43.9	-45.7	19.2	0.00e+00	0	40	0	0	59	4404
2026-01-04 09:12:14.33	1.01	18.94	-43.9	-45.7	19.2	0.00e+00	0	40	0	0	59	4403
2026-01-04 09:12:15.05	0.92	18.86	-43.9	-45.7	19.2	0.00e+00	0	40	0	0	59	4409
2026-01-04 09:12:16.34	0.77	18.72	-43.7	-45.4	19.4	0.00e+00	0	40	0	0	59	4282
2026-01-04 09:12:17.22	0.67	18.62	-43.5	-45.2	19.5	0.00e+00	0	40	0	0	59	4178
2026-01-04 09:12:18.36	0.54	18.50	-43.5	-45.3	19.5	0.00e+00	0	40	0	0	59	4201
2026-01-04 09:12:19.22	0.44	18.41	-43.4	-45.1	19.6	0.00e+00	0	40	0	0	58	4365
2026-01-04 09:12:20.37	0.31	18.28	-43.4	-45.1	19.7	0.00e+00	0	40	0	0	58	4370
2026-01-04 09:12:21.23	0.21	18.19	-43.5	-45.2	19.7	0.00e+00	0	40	0	0	58	4405
2026-01-04 09:12:22.37	0.09	18.07	-43.6	-45.3	19.7	0.00e+00	0	40	0	0	58	4460
2026-01-04 09:12:23.23	359.99	17.98	-43.7	-45.5	19.6	0.00e+00	0	40	0	0	58	4555
2026-01-04 09:12:24.38	359.86	17.86	-43.8	-45.5	19.6	0.00e+00	0	40	0	0	58	4577
2026-01-04 09:12:25.24	359.77	17.77	-43.9	-45.7	19.5	0.00e+00	0	40	0	0	58	4663
2026-01-04 09:12:26.38	359.65	17.65	-44.0	-45.8	19.3	0.00e+00	0	40	0	0	58	4713
2026-01-04 09:12:27.24	359.55	17.56	-44.1	-45.9	19.1	0.00e+00	0	40	0	0	58	4808
2026-01-04 09:12:28.39	359.43	17.44	-44.3	-46.1	18.9	0.00e+00	0	40	0	0	59	4626
2026-01-04 09:12:29.25	359.34	17.35	-44.4	-46.3	18.8	0.00e+00	0	40	0	0	59	4713
2026-01-04 09:12:30.39	359.22	17.23	-44.5	-46.4	18.8	0.00e+00	0	40	0	0	59	4775
2026-01-04 09:12:31.25	359.13	17.14	-44.6	-46.5	18.6	0.00e+00	0	40	0	0	59	4850
2026-01-04 09:12:32.40	359.01	17.03	-44.6	-46.5	18.6	0.00e+00	0	40	0	0	59	4860
2026-01-04 09:12:33.26	358.92	16.94	-44.5	-46.6	18.5	0.00e+00	0	40	0	0	59	4871
2026-01-04 09:12:34.40	358.80	16.82	-44.5	-46.6	18.3	0.00e+00	0	40	0	0	59	4903
2026-01-04 09:12:35.26	358.72	16.73	-44.4	-46.5	18.3	0.00e+00	0	40	0	0	59	4861
2026-01-04 09:12:36.41	358.60	16.62	-44.4	-46.5	18.3	0.00e+00	0	40	0	0	59	4834
2026-01-04 09:12:37.27	358.51	16.53	-44.5	-46.6	18.2	0.00e+00	0	40	0	0	59	4872
2026-01-04 09:12:38.41	358.40	16.42	-44.4	-46.4	18.4	0.00e+00	0	40	0	0	59	4802
2026-01-04 09:12:39.27	358.31	16.33	-44.4	-46.3	18.5	0.00e+00	0	40	0	0	59	4755
2026-01-04 09:12:40.42	358.20	16.21	-44.5	-46.4	18.6	0.00e+00	0	40	0	0	59	4775
2026-01-04 09:12:41.28	358.12	16.13	-44.6	-46.4	18.6	0.00e+00	0	40	0	0	59	4799
2026-01-04 09:12:42.52	358.00	16.01	-44.6	-46.4	18.6	0.00e+00	0	40	0	0	59	4787
2026-01-04 09:12:43.38	357.91	15.92	-44.7	-46.5	18.6	0.00e+00	0	40	0	0	59	4838
2026-01-04 09:12:44.52	357.81	15.81	-44.8	-46.6	18.6	0.00e+00	0	40	0	0	60	4637
2026-01-04 09:12:45.38	357.72	15.72	-44.7	-46.6	18.6	0.00e+00	0	40	0	0	60	4607
2026-01-04 09:12:46.66	357.60	15.60	-44.7	-46.5	18.6	0.00e+00	0	40	0	0	60	4597
2026-01-04 09:12:47.37	357.54	15.53	-44.7	-46.6	18.5	0.00e+00	0	40	0	0	60	4650
2026-01-04 09:12:48.66	357.42	15.40	-44.7	-46.6	18.5	0.00e+00	0	40	0	0	60	4640
2026-01-04 09:12:49.38	357.35	15.33	-44.8	-46.7	18.5	0.00e+00	0	40	0	0	60	4686
2026-01-04 09:12:50.66	357.23	15.21	-44.9	-46.8	18.4	0.00e+00	0	40	0	0	60	4759
2026-01-04 09:12:51.38	357.17	15.14	-44.9	-46.9	18.4	0.00e+00	0	40	0	0	60	4764
2026-01-04 09:12:52.67	357.05	15.01	-44.9	-46.9	18.4	0.00e+00	0	40	0	0	60	4775
2026-01-04 09:12:53.39	356.99	14.95	-45.0	-46.9	18.2	0.00e+00	0	40	0	0	60	4811
2026-01-04 09:12:54.68	356.87	14.82	-45.0	-47.0	18.1	0.00e+00	0	40	0	0	60	4850
2026-01-04 09:12:55.60	356.79	14.73	-45.1	-47.1	18.1	0.00e+00	0	40	0	0	60	4907
2026-01-04 09:12:56.60	356.70	14.64	-45.1	-47.1	18.0	0.00e+00	0	41	0	0	60	4915
2026-01-04 09:12:57.96	356.58	14.51	-45.1	-47.2	18.1	0.00e+00	0	40	0	0	60	4929
2026-01-04 09:12:58.71	356.52	14.44	-45.2	-47.2	18.0	0.00e+00	0	40	0	0	61	4686
2026-01-04 09:13:00.00	356.41	14.32	-45.1	-47.0	18.2	0.00e+00	0	40	0	0	61	4592
2026-01-04 09:13:00.71	356.34	14.25	-45.1	-47.2	18.1	0.00e+00	0	40	0	0	61	4654
2026-01-04 09:13:02.00	356.24	14.13	-45.2	-47.2	18.1	0.00e+00	0	40	0	0	61	4683
2026-01-04 09:13:02.72	356.17	14.06	-45.2	-47.2	18.1	0.00e+00	0	40	0	0	61	4667
2026-01-04 09:13:04.01	356.07	13.94	-45.2	-47.2	18.0	0.00e+00	0	40	0	0	61	4689
2026-01-04 09:13:04.73	356.01	13.88	-45.2	-47.2	18.0	0.00e+00	0	40	0	0	61	4685
2026-01-04 09:13:06.02	355.90	13.76	-45.3	-47.3	17.9	0.00e+00	0	40	0	0	61	4744
2026-01-04 09:13:06.73	355.84	13.69	-45.2	-47.3	17.9	0.00e+00	0	40	0	0	61	4723
2026-01-04 09:13:08.17	355.72	13.56	-45.2	-47.3	17.9	0.00e+00	0	40	0	0	61	4714
2026-01-04 09:13:08.88	355.67	13.50	-45.3	-47.4	17.8	0.00e+00	0	40	0	0	61	4788
2026-01-04 09:13:10.17	355.56	13.38	-45.3	-47.5	17.7	0.00e+00	0	40	0	0	61	4842
2026-01-04 09:13:11.23	355.48	13.28	-45.3	-47.5	17.7	0.00e+00	0	40	0	0	61	4823
2026-01-04 09:13:12.09	355.41	13.20	-45.2	-47.4	17.8	0.00e+00	0	40	0	0	61	4778
2026-01-04 09:13:13.23	355.32	13.10	-45.3	-47.5	17.8	0.00e+00	0	40	0	0	61	4831
2026-01-04 09:13:14.09	355.25	13.02	-45.3	-47.6	17.6	0.00e+00	0	40	0	0	61	4892
2026-01-04 09:13:15.32	355.15	12.91	-45.2	-47.5	17.7	0.00e+00	0	40	0	0	61	4855
2026-01-04 09:13:16.17	355.09	12.84	-45.3	-47.6	17.7	0.00e+00	0	40	0	0	61	4883
2026-01-04 09:13:17.32	355.00	12.74	-45.4	-47.7	17.6	0.00e+00	0	40	0	0	61	4928
2026-01-04 09:13:18.18	354.93	12.66	-45.3	-47.6	17.6	0.00e+00	0	40	0	0	61	4891
2026-01-04 09:13:19.33	354.85	12.56	-45.2	-47.5	17.7	0.00e+00	0	40	0	0	61	4832
2026-01-04 09:13:20.19	354.78	12.48	-45.3	-47.6	17.6	0.00e+00	0	40	0	0	61	4882
2026-01-04 09:13:21.55	354.68	12.36	-45.3	-47.5	17.6	0.00e+00	0	40	0	0	61	4868
2026-01-04 09:13:22.26	354.63	12.30	-45.2	-47.4	17.7	0.00e+00	0	40	0	0	61	4807
2026-01-04 09:13:23.76	354.52	12.17	-45.3	-47.4	17.6	0.00e+00	0	40	0	0	61	4809
2026-01-04 09:13:24.75	354.44	12.08	-45.3	-47.4	17.7	0.00e+00	0	40	0	0	61	4792
2026-01-04 09:13:25.75	354.37	11.99	-45.3	-47.4	17.7	0.00e+00	0	40	0	0	61	4789
2026-01-04 09:13:26.75	354.30	11.91	-45.3	-47.4	17.7	0.00e+00	0	40	0	0	61	4792
2026-01-04 09:13:27.76	354.22	11.82	-45.3	-47.5	17.6	0.00e+00	0	40	0	0	61	4851
2026-01-04 09:13:28.76	354.15	11.73	-45.3	-47.5	17.7	0.00e+00	0	40	0	0	61	4836
2026-01-04 09:13:29.76	354.08	11.65	-45.2	-47.5	17.6	0.00e+00	0	40	0	0	61	4870
2026-01-04 09:13:30.77	354.01	11.56	-45.3	-47.7	17.6	0.00e+00	0	40	0	0	61	4949
2026-01-04 09:13:31.77	353.94	11.48	-45.2	-47.6	17.6	0.00e+00	0	40	0	0	61	4901
2026-01-04 09:13:32.78	353.87	11.39	-45.2	-47.6	17.6	0.00e+00	0	40	0	0	61	4914
2026-01-04 09:13:33.78	353.80	11.31	-45.2	-47.7	17.5	0.00e+00	0	40	0	0	61	4971
2026-01-04 09:13:34.78	353.73	11.22	-45.1	-47.7	17.6	0.00e+00	0	40	0	0	61	4958
2026-01-04 09:13:35.96	353.65	11.12	-45.1	-47.7	17.6	0.00e+00	0	40	0	0	61	4938
2026-01-04 09:13:36.85	353.59	11.05	-45.1	-47.8	17.5	0.00e+00	0	40	0	0	61	4997
2026-01-04 09:13:38.00	353.51	10.95	-45.2	-47.9	17.4	0.00e+00	0	40	0	0	61	5076
2026-01-04 09:13:38.86	353.45	10.88	-45.1	-47.9	17.3	0.00e+00	0	40	0	0	61	5074
2026-01-04 09:13:40.00	353.38	10.78	-45.3	-48.0	17.2	0.00e+00	0	40	0	0	61	5121
2026-01-04 09:13:40.86	353.32	10.71	-45.3	-48.1	17.1	0.00e+00	0	40	0	0	61	5181
2026-01-04 09:13:42.01	353.24	10.62	-45.3	-48.1	17.1	0.00e+00	0	40	0	0	61	5202
2026-01-04 09:13:42.86	353.19	10.55	-45.4	-48.2	17.1	0.00e+00	0	40	0	0	61	5230
2026-01-04 09:13:44.01	353.11	10.45	-45.5	-48.3	17.0	0.00e+00	0	40	0	0	61	5319
2026-01-04 09:13:44.87	353.06	10.38	-45.6	-48.3	16.9	0.00e+00	0	40	0	0	61	5332
2026-01-04 09:13:46.01	352.98	10.29	-45.7	-48.4	16.9	0.00e+00	0	40	0	0	62	5067
2026-01-04 09:13:46.87	352.93	10.22	-45.7	-48.4	16.9	0.00e+00	0	40	0	0	62	5059
2026-01-04 09:13:48.02	352.85	10.13	-45.9	-48.6	16.7	0.00e+00	0	40	0	0	62	5171
2026-01-04 09:13:48.88	352.80	10.06	-45.9	-48.6	16.7	0.00e+00	0	40	0	0	62	5195
2026-01-04 09:13:50.02	352.73	9.96	-46.0	-48.7	16.6	0.00e+00	0	40	0	0	62	5255
2026-01-04 09:13:50.88	352.67	9.89	-45.9	-48.7	16.5	0.00e+00	0	40	0	0	62	5259
2026-01-04 09:13:52.16	352.59	9.79	-45.9	-48.7	16.6	0.00e+00	0	40	0	0	62	5241
2026-01-04 09:13:52.87	352.55	9.73	-46.0	-48.8	16.4	0.00e+00	0	40	0	0	62	5314
2026-01-04 09:13:54.16	352.47	9.63	-45.9	-48.6	16.6	0.00e+00	0	40	0	0	62	5215
2026-01-04 09:13:54.89	352.42	9.57	-46.0	-48.8	16.4	0.00e+00	0	40	0	0	62	5291
2026-01-04 09:13:56.18	352.35	9.47	-46.0	-48.8	16.4	0.00e+00	0	40	0	0	62	5285
2026-01-04 09:13:56.90	352.30	9.41	-46.0	-48.8	16.4	0.00e+00	0	40	0	0	62	5281
2026-01-04 09:13:58.18	352.23	9.31	-46.0	-48.7	16.4	0.00e+00	0	40	0	0	62	5274
2026-01-04 09:13:58.90	352.18	9.25	-45.9	-48.8	16.3	0.00e+00	0	40	0	0	62	5322
2026-01-04 09:14:00.19	352.11	9.15	-45.7	-48.8	16.3	0.00e+00	0	40	0	0	62	5322
2026-01-04 09:14:00.91	352.06	9.10	-45.6	-48.8	16.4	0.00e+00	0	40	0	0	62	5284
2026-01-04 09:14:02.20	351.99	9.00	-45.4	-48.6	16.5	0.00e+00	0	40	0	0	62	5201
2026-01-04 09:14:02.92	351.95	8.94	-50.6	-57.4	8.2	5.03e-05	0	40	0	0	71	8484
2026-01-04 09:14:04.21	351.87	8.84	-52.7	-66.8	3.8	1.49e+00	0	40	104	0	76	18875
2026-01-04 09:14:05.29	351.81	8.76	-53.0	-66.8	3.8	1.49e+00	0	40	104	0	77	17862
2026-01-04 09:14:06.47	351.74	8.66	-53.8	-66.9	3.8	1.49e+00	0	40	104	0	78	17012
2026-01-04 09:14:07.33	351.69	8.60	-53.6	-67.0	3.8	1.49e+00	0	40	104	0	78	17125
2026-01-04 09:14:08.48	351.63	8.51	-53.7	-67.0	3.8	1.49e+00	0	40	104	0	78	17180
2026-01-04 09:14:09.34	351.58	8.44	-53.9	-67.0	3.8	1.49e+00	0	40	104	0	78	17253
2026-01-04 09:14:10.48	351.51	8.36	-53.8	-67.0	3.8	1.49e+00	0	40	104	0	78	17209
2026-01-04 09:14:11.34	351.47	8.29	-53.5	-67.1	3.8	1.49e+00	0	40	104	0	78	17303
2026-01-04 09:14:12.49	351.40	8.20	-53.4	-67.1	3.8	1.49e+00	0	40	104	0	78	17353
2026-01-04 09:14:13.35	351.35	8.14	-54.2	-67.4	3.8	1.49e+00	0	40	104	0	79	16957
2026-01-04 09:14:14.53	351.29	8.05	-54.1	-67.4	3.8	1.49e+00	0	40	104	0	79	16986
2026-01-04 09:14:15.39	351.24	7.98	-54.1	-67.4	3.8	1.49e+00	0	40	104	0	79	17078
2026