passes_logs/2026/01/04/T1/T1__20260104_121255_FENGYUN_3D_rec.log

#Pass ID: 20260104_121255_FENGYUN 3D
#Satellite: FENGYUN 3D
#Configuration: FENGYUN 3D
#almurnet v.1.7.20251203
#Start time: 2026-01-04 12:12:56

#Version: 2.0.20230620
#Station: T1
#Location: 37.570604 lon 55.790049 lat
#TLE: 1 43010U 17072A   26003.93866112 -.00000029  00000+0  82070-5 0  9995
#TLE: 2 43010  98.9913 335.5841 0001959 128.6134 231.5217 14.19691935421687

#Time	Az	El	Level	Level2	SNR	BER	BlckErr	Temp	State	Recorded	gain1	gain2
2026-01-04 12:12:56.13	168.42	5.07	-51.8	-65.6	3.8	8.46e-01	0	41	0	0	75	17393
2026-01-04 12:12:57.13	168.43	5.14	-50.2	-65.3	3.8	8.46e-01	0	41	104	0	71	21219
2026-01-04 12:12:58.13	168.45	5.21	-50.1	-65.3	3.8	8.47e-01	0	41	104	0	71	21076
2026-01-04 12:12:59.14	168.47	5.29	-50.2	-65.2	3.8	8.46e-01	0	41	104	0	71	20875
2026-01-04 12:13:00.14	168.48	5.36	-50.2	-65.2	3.8	8.46e-01	0	41	104	0	71	20875
2026-01-04 12:13:01.15	168.50	5.43	-50.2	-65.3	3.8	8.48e-01	0	41	104	0	71	21141
2026-01-04 12:13:02.15	168.52	5.50	-50.2	-65.3	3.8	8.48e-01	0	41	104	0	71	21114
2026-01-04 12:13:03.15	168.53	5.58	-50.2	-65.4	3.8	8.46e-01	0	41	104	0	71	21383
2026-01-04 12:13:04.16	168.55	5.65	-50.2	-65.5	3.8	8.47e-01	0	41	104	0	71	21548
2026-01-04 12:13:05.16	168.57	5.72	-50.3	-65.6	3.8	8.48e-01	0	41	104	0	71	21838
2026-01-04 12:13:06.16	168.59	5.80	-50.1	-65.6	3.8	8.46e-01	0	41	104	0	71	21908
2026-01-04 12:13:07.17	168.60	5.87	-50.0	-65.5	3.8	8.48e-01	0	41	104	0	71	21722
2026-01-04 12:13:08.17	168.62	5.95	-50.2	-65.5	3.8	8.47e-01	0	41	104	0	71	21607
2026-01-04 12:13:09.17	168.64	6.02	-50.2	-65.1	3.8	8.48e-01	0	41	104	0	71	20627
2026-01-04 12:13:10.18	168.66	6.10	-50.0	-64.5	3.8	8.47e-01	0	41	104	0	71	19309
2026-01-04 12:13:11.19	168.67	6.17	-50.0	-64.0	3.8	8.47e-01	0	41	104	0	71	18305
2026-01-04 12:13:12.19	168.69	6.25	-49.8	-63.6	3.8	8.46e-01	0	41	104	0	71	17397
2026-01-04 12:13:13.19	168.71	6.32	-49.9	-63.3	3.9	8.46e-01	0	42	104	0	71	16862
2026-01-04 12:13:14.20	168.73	6.40	-50.3	-63.4	4.0	8.44e-01	0	42	104	0	71	17076
2026-01-04 12:13:15.20	168.75	6.47	-50.1	-63.1	4.0	8.44e-01	0	42	104	0	71	16474
2026-01-04 12:13:16.20	168.76	6.55	-50.1	-63.2	3.9	8.43e-01	0	42	104	0	71	16550
2026-01-04 12:13:17.21	168.78	6.62	-50.0	-63.3	4.0	8.45e-01	0	42	104	0	71	16793
2026-01-04 12:13:18.21	168.80	6.70	-50.0	-63.5	3.8	8.45e-01	0	42	104	0	71	17275
2026-01-04 12:13:19.21	168.82	6.78	-50.0	-63.8	3.8	8.46e-01	0	42	104	0	71	17815
2026-01-04 12:13:20.22	168.84	6.85	-50.0	-64.3	3.8	8.48e-01	0	42	104	0	71	18873
2026-01-04 12:13:21.22	168.86	6.93	-50.0	-64.7	3.8	8.47e-01	0	42	104	0	71	19808
2026-01-04 12:13:22.23	168.88	7.01	-50.1	-64.9	3.8	8.47e-01	0	42	104	0	71	20178
2026-01-04 12:13:23.23	168.89	7.09	-50.0	-64.8	3.8	8.46e-01	0	42	104	0	71	19852
2026-01-04 12:13:24.23	168.91	7.16	-50.0	-64.4	3.8	8.47e-01	0	42	104	0	71	19121
2026-01-04 12:13:25.24	168.93	7.24	-50.0	-64.0	3.8	8.47e-01	0	42	104	0	71	18229
2026-01-04 12:13:26.24	168.95	7.32	-50.0	-63.3	3.8	8.46e-01	0	42	104	0	71	16876
2026-01-04 12:13:27.24	168.97	7.40	-50.0	-62.3	4.1	8.42e-01	0	42	0	0	71	15043
2026-01-04 12:13:28.25	168.99	7.48	-49.8	-61.4	4.3	8.36e-01	0	42	0	0	71	13425
2026-01-04 12:13:29.25	169.01	7.56	-49.6	-60.2	4.8	8.02e-01	0	42	0	0	71	11770
2026-01-04 12:13:30.25	169.03	7.63	-49.5	-59.4	5.3	7.63e-01	0	42	0	0	70	11339
2026-01-04 12:13:31.25	169.05	7.71	-49.6	-58.5	6.0	3.95e-01	0	42	0	3145728	70	10257
2026-01-04 12:13:32.26	169.07	7.79	-49.2	-57.3	6.8	2.45e-01	0	42	0	8388608	70	8952
2026-01-04 12:13:33.26	169.09	7.87	-49.0	-56.5	7.6	1.32e-01	0	42	0	13631488	69	8607
2026-01-04 12:13:34.26	169.11	7.95	-48.8	-55.8	8.3	6.93e-02	0	42	0	19922944	69	7932
2026-01-04 12:13:35.26	169.13	8.03	-48.8	-55.3	9.0	3.77e-02	0	42	0	25165824	69	7466
2026-01-04 12:13:36.26	169.15	8.11	-48.6	-54.7	9.5	1.77e-02	0	42	0	30408704	69	7015
2026-01-04 12:13:37.26	169.17	8.19	-48.4	-54.4	9.8	1.33e-02	0	42	0	36700160	68	7168
2026-01-04 12:13:38.27	169.19	8.28	-48.3	-54.3	9.8	1.12e-02	0	42	0	41943040	68	7065
2026-01-04 12:13:39.27	169.21	8.36	-48.3	-54.4	9.7	1.31e-02	0	42	0	47185920	68	7155
2026-01-04 12:13:40.27	169.23	8.44	-48.5	-54.6	9.5	1.55e-02	0	42	0	53477376	68	7342
2026-01-04 12:13:41.27	169.25	8.52	-48.6	-55.0	9.1	2.45e-02	0	42	0	58720256	68	7681
2026-01-04 12:13:42.27	169.27	8.60	-48.9	-55.9	8.3	4.63e-02	0	42	0	65011712	68	8513
2026-01-04 12:13:43.28	169.29	8.68	-49.0	-56.6	7.5	1.05e-01	0	42	0	70254592	68	9201
2026-01-04 12:13:44.28	169.31	8.77	-49.3	-57.8	6.5	2.14e-01	0	42	0	75497472	69	9981
2026-01-04 12:13:45.28	169.33	8.85	-49.5	-59.1	5.5	6.33e-01	0	43	0	80740352	69	11666
2026-01-04 12:13:46.28	169.35	8.93	-49.8	-60.6	4.7	7.86e-01	0	43	0	81788928	70	13067
2026-01-04 12:13:47.28	169.37	9.02	-50.2	-62.0	4.2	8.34e-01	0	42	0	81788928	71	14403
2026-01-04 12:13:48.28	169.39	9.10	-50.1	-62.4	4.1	8.39e-01	0	42	0	81788928	71	15076
2026-01-04 12:13:49.34	169.42	9.19	-50.0	-62.5	4.1	8.40e-01	0	43	0	81788928	71	15324
2026-01-04 12:13:50.32	169.44	9.27	-49.9	-62.9	3.8	8.47e-01	0	42	104	81788928	71	16067
2026-01-04 12:13:51.32	169.46	9.36	-49.9	-56.4	7.7	3.21e-01	0	43	0	83886080	71	7612
2026-01-04 12:13:52.45	169.48	9.45	-49.7	-55.8	8.6	4.50e-06	0	42	0	90177536	69	7932
2026-01-04 12:13:53.34	169.50	9.53	-50.7	-61.8	4.2	8.36e-01	0	43	0	91226112	72	13354
2026-01-04 12:13:54.48	169.53	9.62	-50.2	-57.6	6.8	2.42e-01	0	43	0	95420416	72	8193
2026-01-04 12:13:55.40	169.55	9.70	-50.0	-56.5	7.9	1.05e-01	0	43	0	100663296	71	7719
2026-01-04 12:13:56.40	169.57	9.79	-49.7	-55.9	8.4	6.80e-02	0	43	0	105906176	71	7141
2026-01-04 12:13:57.41	169.59	9.88	-49.2	-54.9	9.2	5.93e-02	0	43	0	111149056	70	6784
2026-01-04 12:13:58.41	169.61	9.96	-48.6	-53.5	10.9	5.39e-03	0	43	0	117440512	68	6452
2026-01-04 12:13:59.41	169.63	10.05	-48.5	-53.4	10.7	6.53e-03	0	43	0	122683392	68	6405
2026-01-04 12:14:00.41	169.66	10.14	-48.1	-52.5	11.8	1.97e-03	0	43	0	128974848	68	5766
2026-01-04 12:14:01.41	169.68	10.22	-47.8	-51.9	12.3	5.54e-04	0	43	0	134217728	67	5721
2026-01-04 12:14:02.41	169.70	10.31	-47.6	-51.5	12.8	2.66e-04	0	43	0	139460608	66	5736
2026-01-04 12:14:03.41	169.73	10.40	-47.6	-51.6	12.8	2.09e-04	0	43	0	145752064	66	5813
2026-01-04 12:14:04.42	169.75	10.49	-47.7	-51.6	12.7	1.69e-04	0	43	0	150994944	66	5850
2026-01-04 12:14:05.42	169.77	10.58	-48.0	-52.1	12.2	1.76e-04	0	43	0	156237824	66	6149
2026-01-04 12:14:06.42	169.79	10.67	-47.3	-50.9	13.4	4.11e-05	0	43	0	162529280	66	5357
2026-01-04 12:14:07.42	169.82	10.76	-47.1	-50.5	13.6	1.37e-05	0	43	0	167772160	66	5143
2026-01-04 12:14:08.47	169.84	10.85	-47.1	-50.3	14.0	3.40e-06	0	43	0	174063616	65	5334
2026-01-04 12:14:09.39	169.86	10.93	-46.9	-50.0	14.3	0.00e+00	0	43	0	179306496	65	5156
2026-01-04 12:14:10.39	169.89	11.02	-46.9	-50.2	14.1	2.20e-06	0	43	0	184549376	65	5235
2026-01-04 12:14:11.39	169.91	11.11	-46.1	-49.0	15.3	0.00e+00	0	43	0	190840832	63	5121
2026-01-04 12:14:12.39	169.94	11.20	-45.8	-48.6	15.6	0.00e+00	0	43	0	196083712	63	4884
2026-01-04 12:14:13.39	169.96	11.30	-45.8	-48.6	15.7	0.00e+00	0	43	0	201326592	63	4878
2026-01-04 12:14:14.39	169.98	11.39	-45.8	-48.7	15.5	0.00e+00	0	43	0	207618048	63	4941
2026-01-04 12:14:15.39	170.01	11.48	-45.9	-48.8	15.4	0.00e+00	0	43	0	212860928	62	5327
2026-01-04 12:14:16.39	170.03	11.57	-45.9	-48.7	15.7	0.00e+00	0	43	0	218103808	62	5257
2026-01-04 12:14:17.39	170.06	11.66	-45.4	-48.0	16.3	0.00e+00	0	43	0	224395264	62	4834
2026-01-04 12:14:18.39	170.08	11.76	-45.1	-47.6	16.7	0.00e+00	0	43	0	229638144	62	4649
2026-01-04 12:14:19.40	170.11	11.85	-45.2	-47.7	16.6	0.00e+00	0	43	0	234881024	62	4697
2026-01-04 12:14:20.40	170.13	11.94	-44.6	-46.9	17.1	0.00e+00	0	43	0	241172480	61	4527
2026-01-04 12:14:21.39	170.16	12.04	-44.5	-46.9	17.3	0.00e+00	0	43	0	246415360	60	4773
2026-01-04 12:14:22.40	170.18	12.13	-44.8	-47.2	17.0	0.00e+00	0	43	0	252706816	60	4948
2026-01-04 12:14:23.40	170.21	12.23	-44.8	-47.1	17.1	0.00e+00	0	43	0	257949696	60	4920
2026-01-04 12:14:24.40	170.23	12.32	-45.0	-47.4	16.8	0.00e+00	0	43	0	263192576	60	5078
2026-01-04 12:14:25.40	170.26	12.42	-44.7	-47.0	17.2	0.00e+00	0	43	0	269484032	60	4838
2026-01-04 12:14:26.40	170.28	12.51	-44.6	-46.8	17.4	0.00e+00	0	43	0	274726912	60	4748
2026-01-04 12:14:27.40	170.31	12.61	-44.4	-46.6	17.7	0.00e+00	0	43	0	279969792	60	4613
2026-01-04 12:14:28.41	170.34	12.71	-44.0	-46.1	18.1	0.00e+00	0	43	0	286261248	60	4376
2026-01-04 12:14:29.41	170.36	12.81	-43.6	-45.7	18.4	0.00e+00	0	43	0	291504128	59	4397
2026-01-04 12:14:30.41	170.39	12.90	-43.6	-45.7	18.3	0.00e+00	0	43	0	296747008	58	4686
2026-01-04 12:14:31.41	170.42	13.00	-43.2	-45.3	18.6	0.00e+00	0	43	0	303038464	58	4446
2026-01-04 12:14:32.42	170.44	13.10	-43.1	-45.1	18.8	0.00e+00	0	43	0	308281344	58	4388
2026-01-04 12:14:33.41	170.47	13.20	-43.0	-45.0	18.8	0.00e+00	0	43	0	314572800	58	4308
2026-01-04 12:14:34.42	170.50	13.30	-42.8	-44.8	19.1	0.00e+00	0	43	0	319815680	57	4453
2026-01-04 12:14:35.42	170.52	13.40	-42.6	-44.6	19.2	0.00e+00	0	43	0	325058560	57	4346
2026-01-04 12:14:36.42	170.55	13.50	-42.5	-44.4	19.3	0.00e+00	0	43	0	331350016	56	4530
2026-01-04 12:14:37.41	170.58	13.60	-42.6	-44.6	19.2	0.00e+00	0	43	0	336592896	56	4601
2026-01-04 12:14:38.42	170.61	13.70	-42.4	-44.3	19.4	0.00e+00	0	43	0	341835776	56	4493
2026-01-04 12:14:39.47	170.64	13.80	-42.4	-44.4	19.4	0.00e+00	0	43	0	348127232	56	4507
2026-01-04 12:14:40.42	170.66	13.90	-42.4	-44.3	19.4	0.00e+00	0	43	0	353370112	56	4493
2026-01-04 12:14:41.42	170.69	14.00	-42.4	-44.4	19.4	0.00e+00	0	43	0	358612992	56	4501
2026-01-04 12:14:42.56	170.72	14.12	-42.7	-44.6	19.4	0.00e+00	0	43	0	365953024	56	4639
2026-01-04 12:14:43.42	170.75	14.21	-42.8	-44.7	19.4	0.00e+00	0	43	0	370147328	56	4689
2026-01-04 12:14:44.56	170.78	14.32	-42.5	-44.5	19.5	0.00e+00	0	43	0	376438784	56	4569
2026-01-04 12:14:45.42	170.81	14.41	-42.6	-44.6	19.4	0.00e+00	0	43	0	381681664	56	4611
2026-01-04 12:14:46.57	170.84	14.53	-42.5	-44.4	19.5	0.00e+00	0	43	0	387973120	56	4539
2026-01-04 12:14:47.43	170.87	14.62	-42.4	-44.3	19.7	0.00e+00	0	43	0	393216000	56	4461
2026-01-04 12:14:48.57	170.90	14.74	-42.4	-44.3	19.7	0.00e+00	0	43	0	399507456	56	4453
2026-01-04 12:14:49.43	170.92	14.83	-42.3	-44.2	19.8	0.00e+00	0	43	0	404750336	56	4416
2026-01-04 12:14:50.58	170.96	14.95	-42.4	-44.3	19.7	0.00e+00	0	43	0	411041792	56	4458
2026-01-04 12:14:51.44	170.98	15.05	-42.3	-44.2	19.8	0.00e+00	0	43	0	415236096	56	4398
2026-01-04 12:14:52.59	171.02	15.17	-42.4	-44.3	19.6	0.00e+00	0	43	0	422576128	56	4463
2026-01-04 12:14:53.44	171.05	15.26	-42.4	-44.4	19.6	0.00e+00	0	43	0	426770432	56	4496
2026-01-04 12:14:54.59	171.08	15.38	-42.0	-43.9	19.9	0.00e+00	0	43	0	433061888	56	4276
2026-01-04 12:14:55.45	171.11	15.48	-42.2	-44.1	19.9	0.00e+00	0	43	0	438304768	56	4390
2026-01-04 12:14:56.60	171.14	15.60	-42.1	-44.0	20.0	0.00e+00	0	43	0	444596224	56	4332
2026-01-04 12:14:57.50	171.17	15.70	-42.0	-43.9	20.1	0.00e+00	0	43	0	449839104	56	4258
2026-01-04 12:14:58.54	171.20	15.81	-41.8	-43.6	20.2	0.00e+00	0	43	0	455081984	55	4380
2026-01-04 12:14:59.45	171.23	15.91	-41.8	-43.6	20.1	0.00e+00	0	43	0	460324864	55	4390
2026-01-04 12:15:00.50	171.27	16.03	-41.7	-43.5	20.2	0.00e+00	0	43	0	466616320	55	4326
2026-01-04 12:15:01.37	171.29	16.13	-41.7	-43.5	20.3	0.00e+00	0	43	0	471859200	55	4336
2026-01-04 12:15:02.52	171.33	16.25	-41.8	-43.7	20.1	0.00e+00	0	43	0	478150656	55	4402
2026-01-04 12:15:03.38	171.36	16.35	-41.8	-43.6	20.2	0.00e+00	0	43	0	482344960	55	4376
2026-01-04 12:15:04.52	171.40	16.48	-41.5	-43.4	20.3	0.00e+00	0	43	0	488636416	55	4243
2026-01-04 12:15:05.38	171.43	16.58	-41.4	-43.3	20.3	0.00e+00	0	43	0	493879296	54	4464
2026-01-04 12:15:06.53	171.46	16.71	-41.6	-43.4	20.2	0.00e+00	0	43	0	500170752	54	4520
2026-01-04 12:15:07.38	171.49	16.80	-41.4	-43.3	20.3	0.00e+00	0	43	0	505413632	54	4454
2026-01-04 12:15:08.61	171.53	16.95	-41.4	-43.3	20.2	0.00e+00	0	43	0	511705088	54	4465
2026-01-04 12:15:09.47	171.56	17.04	-41.5	-43.4	20.1	0.00e+00	0	43	0	516947968	54	4523
2026-01-04 12:15:10.61	171.60	17.18	-41.5	-43.3	20.3	0.00e+00	0	43	0	523239424	54	4475
2026-01-04 12:15:11.47	171.63	17.28	-41.5	-43.4	20.2	0.00e+00	0	43	0	528482304	54	4504
2026-01-04 12:15:12.61	171.67	17.41	-41.6	-43.4	20.2	0.00e+00	0	43	0	534773760	54	4528
2026-01-04 12:15:13.47	171.70	17.51	-41.8	-43.6	20.2	0.00e+00	0	43	0	538968064	54	4641
2026-01-04 12:15:14.62	171.74	17.65	-41.7	-43.6	20.3	0.00e+00	0	43	0	546308096	54	4617
2026-01-04 12:15:15.47	171.77	17.75	-41.7	-43.6	20.2	0.00e+00	0	43	0	550502400	54	4613
2026-01-04 12:15:16.62	171.81	17.88	-41.6	-43.5	20.3	0.00e+00	0	43	0	556793856	54	4550
2026-01-04 12:15:17.48	171.84	17.99	-41.7	-43.5	20.3	0.00e+00	0	43	0	562036736	54	4580
2026-01-04 12:15:18.63	171.89	18.13	-41.3	-43.2	20.5	0.00e+00	0	43	0	568328192	54	4405
2026-01-04 12:15:19.49	171.92	18.23	-41.3	-43.1	20.5	0.00e+00	0	43	0	573571072	54	4384
2026-01-04 12:15:20.63	171.96	18.37	-41.2	-43.0	20.6	0.00e+00	0	43	0	579862528	54	4316
2026-01-04 12:15:21.79	172.00	18.51	-41.1	-42.9	20.7	0.00e+00	0	43	0	586153984	54	4263
2026-01-04 12:15:22.83	172.04	18.64	-41.1	-43.0	20.6	0.00e+00	0	43	0	592445440	54	4299
2026-01-04 12:15:23.83	172.08	18.76	-41.1	-42.9	20.7	0.00e+00	0	43	0	597688320	54	4267
2026-01-04 12:15:24.83	172.12	18.88	-40.9	-42.7	20.8	0.00e+00	0	43	0	602931200	53	4422
2026-01-04 12:15:25.83	172.15	19.01	-40.9	-42.7	20.8	0.00e+00	0	43	0	609222656	53	4437
2026-01-04 12:15:26.83	172.19	19.13	-41.1	-43.0	20.8	0.00e+00	0	43	0	614465536	53	4558
2026-01-04 12:15:27.84	172.23	19.26	-41.2	-43.0	20.8	0.00e+00	0	43	0	620756992	53	4574
2026-01-04 12:15:28.84	172.27	19.39	-41.1	-42.9	20.8	0.00e+00	0	43	0	625999872	53	4514
2026-01-04 12:15:29.84	172.31	19.51	-41.1	-42.9	20.8	0.00e+00	0	43	0	631242752	53	4531
2026-01-04 12:15:30.84	172.35	19.64	-41.2	-43.0	20.7	0.00e+00	0	43	0	637534208	53	4568
2026-01-04 12:15:31.84	172.39	19.77	-40.9	-42.7	21.0	0.00e+00	0	43	0	642777088	53	4403
2026-01-04 12:15:32.84	172.43	19.90	-40.9	-42.7	20.9	0.00e+00	0	43	0	649068544	53	4401
2026-01-04 12:15:33.84	172.47	20.03	-40.8	-42.6	21.0	0.00e+00	0	43	0	654311424	53	4387
2026-01-04 12:15:34.84	172.51	20.16	-40.8	-42.6	21.0	0.00e+00	0	43	0	659554304	53	4343
2026-01-04 12:15:35.84	172.55	20.29	-40.8	-42.6	20.9	0.00e+00	0	43	0	665845760	53	4372
2026-01-04 12:15:36.85	172.60	20.42	-40.7	-42.5	21.0	0.00e+00	0	43	0	671088640	53	4320
2026-01-04 12:15:37.85	172.64	20.56	-40.4	-42.2	21.1	0.00e+00	0	43	0	676331520	52	4433
2026-01-04 12:15:38.85	172.68	20.69	-40.5	-42.3	21.2	0.00e+00	0	43	0	682622976	52	4479
2026-01-04 12:15:39.85	172.72	20.82	-40.6	-42.4	21.1	0.00e+00	0	43	0	687865856	52	4536
2026-01-04 12:15:40.86	172.77	20.96	-40.6	-42.4	21.1	0.00e+00	0	43	0	693108736	52	4535
2026-01-04 12:15:41.85	172.81	21.09	-40.6	-42.4	21.0	0.00e+00	0	43	0	699400192	52	4519
2026-01-04 12:15:42.85	172.85	21.23	-40.5	-42.3	21.1	0.00e+00	0	43	0	704643072	52	4476
2026-01-04 12:15:43.86	172.90	21.37	-40.8	-42.6	21.1	0.00e+00	0	43	0	710934528	52	4631
2026-01-04 12:15:44.86	172.94	21.51	-40.8	-42.6	21.1	0.00e+00	0	43	0	716177408	52	4618
2026-01-04 12:15:45.86	172.99	21.64	-40.7	-42.5	21.1	0.00e+00	0	43	0	721420288	52	4566
2026-01-04 12:15:46.86	173.03	21.78	-40.7	-42.5	21.1	0.00e+00	0	43	0	727711744	52	4560
2026-01-04 12:15:47.86	173.08	21.92	-40.6	-42.3	21.2	0.00e+00	0	43	0	732954624	52	4493
2026-01-04 12:15:48.86	173.12	22.06	-40.6	-42.4	21.1	0.00e+00	0	43	0	738197504	52	4496
2026-01-04 12:15:49.87	173.17	22.20	-40.5	-42.3	21.2	0.00e+00	0	43	0	744488960	52	4447
2026-01-04 12:15:50.96	173.22	22.36	-40.5	-42.3	21.2	0.00e+00	0	43	0	750780416	52	4484
2026-01-04 12:15:51.82	173.26	22.48	-40.5	-42.3	21.2	0.00e+00	0	43	0	754974720	52	4489
2026-01-04 12:15:52.97	173.32	22.65	-40.6	-42.4	21.3	0.00e+00	0	43	0	761266176	52	4504
2026-01-04 12:15:53.83	173.36	22.77	-40.5	-42.3	21.3	0.00e+00	0	43	0	766509056	52	4451
2026-01-04 12:15:54.97	173.41	22.94	-40.5	-42.3	21.3	0.00e+00	0	43	0	772800512	52	4442
2026-01-04 12:15:55.83	173.45	23.06	-40.3	-42.1	21.3	0.00e+00	0	43	0	778043392	52	4386
2026-01-04 12:15:56.98	173.51	23.23	-40.2	-41.9	21.5	0.00e+00	0	43	0	784334848	52	4289
2026-01-04 12:15:57.83	173.55	23.36	-40.0	-41.8	21.6	0.00e+00	0	43	0	789577728	52	4211
2026-01-04 12:15:58.98	173.61	23.53	-40.1	-41.9	21.6	0.00e+00	0	43	0	795869184	52	4253
2026-01-04 12:15:59.84	173.65	23.66	-40.0	-41.8	21.6	0.00e+00	0	43	0	800063488	52	4207
2026-01-04 12:16:01.02	173.71	23.83	-40.0	-41.8	21.7	0.00e+00	0	43	0	807403520	52	4204
2026-01-04 12:16:01.87	173.76	23.96	-39.9	-41.6	21.8	0.00e+00	0	43	0	811597824	51	4368
2026-01-04 12:16:03.08	173.82	24.14	-39.9	-41.7	21.8	0.00e+00	0	43	0	818937856	51	4398
2026-01-04 12:16:03.94	173.87	24.28	-39.9	-41.7	21.8	0.00e+00	0	43	0	823132160	51	4397
2026-01-04 12:16:05.08	173.93	24.45	-39.9	-41.6	21.8	0.00e+00	0	43	0	830472192	51	4378
2026-01-04 12:16:05.94	173.97	24.58	-40.1	-41.9	21.8	0.00e+00	0	43	0	834666496	51	4494
2026-01-04 12:16:07.08	174.03	24.76	-40.1	-41.8	21.8	0.00e+00	0	43	0	840957952	51	4461
2026-01-04 12:16:07.94	174.08	24.90	-40.1	-41.8	21.8	0.00e+00	0	43	0	846200832	51	4481
2026-01-04 12:16:09.09	174.14	25.08	-40.0	-41.8	21.8	0.00e+00	0	44	0	852492288	51	4448
2026-01-04 12:16:10.10	174.20	25.24	-39.8	-41.5	22.0	0.00e+00	0	43	0	857735168	51	4310
2026-01-04 12:16:11.28	174.26	25.42	-39.8	-41.5	21.9	0.00e+00	0	43	0	865075200	51	4337
2026-01-04 12:16:12.14	174.31	25.56	-39.8	-41.6	21.9	0.00e+00	0	43	0	869269504	51	4352
2026-01-04 12:16:13.49	174.39	25.78	-40.0	-41.7	21.7	0.00e+00	0	43	0	877658112	51	4413
2026-01-04 12:16:14.21	174.43	25.90	-40.0	-41.7	21.8	0.00e+00	0	44	0	880803840	51	4420
2026-01-04 12:16:15.49	174.51	26.11	-39.9	-41.6	21.8	0.00e+00	0	43	0	888143872	51	4390
2026-01-04 12:16:16.21	174.55	26.22	-40.0	-41.7	21.6	0.00e+00	0	43	0	892338176	51	4436
2026-01-04 12:16:17.50	174.63	26.44	-40.0	-41.8	21.6	0.00e+00	0	43	0	899678208	51	4474
2026-01-04 12:16:18.25	174.67	26.56	-40.4	-42.2	21.5	0.00e+00	0	43	0	903872512	51	4655
2026-01-04 12:16:19.54	174.75	26.78	-40.2	-42.0	21.6	0.00e+00	0	43	0	911212544	51	4567
2026-01-04 12:16:20.26	174.79	26.90	-40.2	-42.0	21.5	0.00e+00	0	43	0	915406848	51	4587
2026-01-04 12:16:21.54	174.87	27.11	-40.2	-42.0	21.6	0.00e+00	0	43	0	922746880	51	4569
2026-01-04 12:16:22.26	174.92	27.24	-40.1	-41.8	21.7	0.00e+00	0	43	0	926941184	51	4489
2026-01-04 12:16:23.54	175.00	27.46	-40.2	-42.0	21.7	0.00e+00	0	43	0	933232640	51	4560
2026-01-04 12:16:24.26	175.04	27.58	-40.2	-42.0	21.7	0.00e+00	0	43	0	937426944	51	4548
2026-01-04 12:16:25.54	175.13	27.80	-40.2	-42.0	21.6	0.00e+00	0	43	0	944766976	51	4553
2026-01-04 12:16:26.26	175.17	27.93	-40.1	-41.9	21.7	0.00e+00	0	43	0	948961280	51	4511
2026-01-04 12:16:27.55	175.26	28.15	-40.1	-41.9	21.7	0.00e+00	0	43	0	956301312	51	4499
2026-01-04 12:16:28.27	175.31	28.28	-40.0	-41.7	21.8	0.00e+00	0	43	0	960495616	51	4414
2026-01-04 12:16:29.56	175.39	28.51	-39.9	-41.6	21.9	0.00e+00	0	43	0	967835648	51	4357
2026-01-04 12:16:30.27	175.44	28.64	-40.0	-41.7	21.8	0.00e+00	0	43	0	970981376	51	4408
2026-01-04 12:16:31.56	175.53	28.87	-39.8	-41.5	22.0	0.00e+00	0	44	0	978321408	51	4317
2026-01-04 12:16:32.28	175.58	29.00	-40.0	-41.7	21.9	0.00e+00	0	43	0	982515712	51	4427
2026-01-04 12:16:33.57	175.67	29.23	-39.9	-41.7	21.9	0.00e+00	0	44	0	989855744	51	4401
2026-01-04 12:16:34.28	175.72	29.36	-40.0	-41.8	21.8	0.00e+00	0	43	0	994050048	51	4454
2026-01-04 12:16:35.57	175.81	29.60	-40.2	-42.0	21.6	0.00e+00	0	43	0	1001390080	51	4561
2026-01-04 12:16:36.29	175.87	29.74	-40.1	-41.9	21.6	0.00e+00	0	43	0	1005584384	51	4522
2026-01-04 12:16:37.58	175.96	29.98	-40.1	-41.9	21.6	0.00e+00	0	43	0	1012924416	51	4503
2026-01-04 12:16:38.30	176.01	30.11	-40.0	-41.8	21.6	0.00e+00	0	44	0	1017118720	51	4478
2026-01-04 12:16:39.57	176.11	30.35	-40.3	-42.0	21.7	0.00e+00	0	43	0	1024458752	51	4587
2026-01-04 12:16:40.56	176.18	30.54	-40.2	-42.0	21.7	0.00e+00	0	43	0	1029701632	51	4567
2026-01-04 12:16:41.56	176.26	30.73	-40.0	-41.8	21.8	0.00e+00	0	43	0	1034944512	51	4452
2026-01-04 12:16:42.56	176.34	30.93	-39.9	-41.7	21.9	0.00e+00	0	43	0	1040187392	51	4406
2026-01-04 12:16:43.56	176.42	31.12	-39.8	-41.6	22.0	0.00e+00	0	43	0	1046478848	51	4353
2026-01-04 12:16:44.56	176.50	31.31	-39.8	-41.6	22.0	0.00e+00	0	44	0	1051721728	51	4354
2026-01-04 12:16:45.57	176.58	31.51	-39.8	-41.5	22.0	0.00e+00	0	43	0	1058013184	51	4322
2026-01-04 12:16:46.57	176.66	31.71	-39.6	-41.4	22.1	0.00e+00	0	44	0	1063256064	51	4253
2026-01-04 12:16:47.57	176.74	31.91	-39.5	-41.2	22.3	0.00e+00	0	43	0	1068498944	51	4183
2026-01-04 12:16:48.57	176.82	32.11	-39.7	-41.4	22.1	0.00e+00	0	43	0	1074790400	51	4260
2026-01-04 12:16:49.64	176.91	32.33	-39.8	-41.5	22.0	0.00e+00	0	43	0	1080033280	51	4328
2026-01-04 12:16:50.50	176.99	32.50	-39.8	-41.5	22.0	0.00e+00	0	44	0	1085276160	51	4305
2026-01-04 12:16:51.65	177.09	32.74	-39.9	-41.6	21.9	0.00e+00	0	43	0	1091567616	51	4381
2026-01-04 12:16:52.51	177.16	32.91	-39.9	-41.7	21.8	0.00e+00	0	43	0	1096810496	51	4392
2026-01-04 12:16:53.65	177.26	33.15	-39.9	-41.6	21.9	0.00e+00	0	43	0	1103101952	51	4380
2026-01-04 12:16:54.68	177.35	33.36	-39.9	-41.7	21.8	0.00e+00	0	43	0	1109393408	51	4394
2026-01-04 12:16:55.84	177.46	33.61	-39.7	-41.4	22.0	0.00e+00	0	43	0	1115684864	51	4270
2026-01-04 12:16:56.72	177.54	33.79	-39.8	-41.6	22.0	0.00e+00	0	44	0	1120927744	51	4341
2026-01-04 12:16:58.02	177.66	34.07	-39.8	-41.5	22.1	0.00e+00	0	44	0	1128267776	51	4314
2026-01-04 12:16:58.74	177.73	34.23	-39.6	-41.3	22.3	0.00e+00	0	44	0	1131413504	51	4235
2026-01-04 12:17:00.02	177.85	34.50	-39.1	-40.8	22.6	0.00e+00	0	44	0	1138753536	50	4224
2026-01-04 12:17:00.74	177.92	34.66	-39.0	-40.6	22.7	0.00e+00	0	43	0	1142947840	49	4391
2026-01-04 12:17:02.03	178.05	34.94	-39.1	-40.8	22.6	0.00e+00	0	43	0	1150287872	49	4470
2026-01-04 12:17:02.74	178.12	35.10	-39.3	-41.0	22.5	0.00e+00	0	44	0	1154482176	49	4558
2026-01-04 12:17:04.03	178.25	35.38	-39.4	-41.1	22.4	0.00e+00	0	44	0	1161822208	49	4602
2026-01-04 12:17:04.75	178.32	35.54	-39.5	-41.2	22.3	0.00e+00	0	43	0	1164967936	49	4662
2026-01-04 12:17:06.03	178.45	35.83	-39.5	-41.2	22.3	0.00e+00	0	43	0	1172307968	49	4679
2026-01-04 12:17:06.75	178.53	35.99	-39.4	-41.1	22.3	0.00e+00	0	44	0	1176502272	49	4629
2026-01-04 12:17:08.04	178.67	36.29	-39.1	-40.9	22.5	0.00e+00	0	44	0	1183842304	49	4497
2026-01-04 12:17:08.76	178.74	36.45	-39.3	-41.0	22.4	0.00e+00	0	43	0	1188036608	49	4587
2026-01-04 12:17:10.09	178.89	36.76	-39.2	-40.9	22.4	0.00e+00	0	43	0	1195376640	49	4523
2026-01-04 12:17:10.81	178.97	36.92	-39.3	-41.0	22.4	0.00e+00	0	43	0	1199570944	49	4589
2026-01-04 12:17:12.13	179.12	37.23	-39.4	-41.1	22.4	0.00e+00	0	43	0	1206910976	49	4606
2026-01-04 12:17:12.84	179.20	37.40	-39.4	-41.1	22.5	0.00e+00	0	44	0	1211105280	49	4622
2026-01-04 12:17:14.13	179.35	37.71	-39.4	-41.1	22.4	0.00e+00	0	43	0	1218445312	49	4648
2026-01-04 12:17:14.85	179.43	37.88	-39.4	-41.1	22.4	0.00e+00	0	44	0	1222639616	49	4631
2026-01-04 12:17:16.21	179.59	38.20	-39.5	-41.2	22.4	0.00e+00	0	43	0	1229979648	49	4695
2026-01-04 12:17:16.93	179.68	38.38	-39.4	-41.1	22.4	0.00e+00	0	43	0	1234173952	49	4638
2026-01-04 12:17:18.21	179.84	38.69	-39.4	-41.1	22.3	0.00e+00	0	43	0	1241513984	49	4635
2026-01-04 12:17:18.93	179.92	38.87	-39.4	-41.1	22.3	0.00e+00	0	43	0	1245708288	49	4630
2026-01-04 12:17:20.22	180.09	39.18	-39.3	-41.1	22.4	0.00e+00	0	43	0	1253048320	49	4599
2026-01-04 12:17:20.94	180.18	39.36	-39.4	-41.1	22.3	0.00e+00	0	43	0	1256194048	49	4645
2026-01-04 12:17:22.22	180.35	39.68	-39.6	-41.3	22.2	0.00e+00	0	43	0	1263534080	49	4745
2026-01-04 12:17:22.94	180.44	39.86	-39.7	-41.4	22.1	0.00e+00	0	43	0	1267728384	50	4544
2026-01-04 12:17:24.23	180.61	40.19	-40.0	-41.7	22.0	0.00e+00	0	43	0	1275068416	50	4671
2026-01-04 12:17:24.94	180.71	40.37	-40.0	-41.7	22.0	0.00e+00	0	43	0	1279262720	50	4704
2026-01-04 12:17:26.23	180.89	40.70	-39.6	-41.3	22.3	0.00e+00	0	43	0	1286602752	50	4458
2026-01-04 12:17:27.06	181.00	40.91	-39.4	-41.1	22.4	0.00e+00	0	44	0	1290797056	50	4369
2026-01-04 12:17:28.53	181.21	41.30	-39.7	-41.4	22.3	0.00e+00	0	43	0	1299185664	50	4541
2026-01-04 12:17:29.25	181.32	41.49	-40.0	-41.7	22.1	0.00e+00	0	43	0	1303379968	50	4683
2026-01-04 12:17:30.54	181.51	41.83	-40.0	-41.7	22.0	0.00e+00	0	44	0	1310720000	50	4677
2026-01-04 12:17:31.25	181.62	42.01	-40.1	-41.9	21.9	0.00e+00	0	43	0	1314914304	50	4770
2026-01-04 12:17:32.54	181.81	42.36	-40.1	-41.9	21.8	0.00e+00	0	43	0	1322254336	51	4522
2026-01-04 12:17:33.25	181.92	42.55	-40.1	-41.9	21.8	0.00e+00	0	43	0	1325400064	51	4528
2026-01-04 12:17:34.54	182.12	42.90	-40.1	-41.9	21.9	0.00e+00	0	43	0	1332740096	51	4519
2026-01-04 12:17:35.26	182.24	43.09	-40.2	-41.9	21.9	0.00e+00	0	43	0	1336934400	51	4531
2026-01-04 12:17:36.55	182.45	43.45	-39.9	-41.7	22.0	0.00e+00	0	43	0	1344274432	51	4393
2026-01-04 12:17:37.26	182.57	43.64	-40.1	-41.9	21.8	0.00e+00	0	43	0	1348468736	51	4496
2026-01-04 12:17:38.55	182.78	44.00	-40.2	-41.9	21.8	0.00e+00	0	43	0	1355808768	51	4535
2026-01-04 12:17:39.26	182.91	44.20	-39.9	-41.7	22.0	0.00e+00	0	43	0	1360003072	51	4396
2026-01-04 12:17:40.55	183.13	44.56	-40.0	-41.8	21.9	0.00e+00	0	43	0	1367343104	51	4447
2026-01-04 12:17:41.27	183.26	44.76	-40.1	-41.8	21.8	0.00e+00	0	43	0	1371537408	51	4478
2026-01-04 12:17:42.62	183.50	45.15	-40.5	-42.2	21.4	0.00e+00	0	43	0	1378877440	51	4702
2026-01-04 12:17:43.34	183.63	45.35	-40.6	-42.4	21.3	0.00e+00	0	43	0	1383071744	51	4801
2026-01-04 12:17:44.69	183.89	45.74	-40.5	-42.2	21.6	0.00e+00	0	43	0	1390411776	52	4416
2026-01-04 12:17:45.66	184.07	46.02	-40.0	-41.7	22.0	0.00e+00	0	43	0	1395654656	52	4191
2026-01-04 12:17:46.66	184.27	46.32	-39.9	-41.6	22.2	0.00e+00	0	44	0	1400897536	51	4375
2026-01-04 12:17:47.67	184.47	46.61	-40.0	-41.7	22.1	0.00e+00	0	43	0	1407188992	51	4432
2026-01-04 12:17:48.67	184.67	46.91	-40.0	-41.7	22.0	0.00e+00	0	43	0	1412431872	51	4428
2026-01-04 12:17:49.67	184.87	47.20	-39.4	-41.1	22.2	0.00e+00	0	43	0	1418723328	50	4351
2026-01-04 12:17:50.68	185.09	47.50	-39.4	-41.1	22.2	0.00e+00	0	43	0	1423966208	50	4391
2026-01-04 12:17:51.67	185.30	47.80	-39.5	-41.2	22.3	0.00e+00	0	43	0	1429209088	50	4395
2026-01-04 12:17:52.74	185.53	48.12	-39.6	-41.3	22.2	0.00e+00	0	43	0	1435500544	50	4460
2026-01-04 12:17:53.65	185.73	48.40	-39.6	-41.3	22.1	0.00e+00	0	43	0	1440743424	50	4477
2026-01-04 12:17:54.66	185.96	48.71	-39.8	-41.6	21.9	0.00e+00	0	43	0	1445986304	50	4600
2026-01-04 12:17:55.84	186.23	49.07	-40.4	-42.2	21.6	0.00e+00	0	43	0	1453326336	51	4673
2026-01-04 12:17:56.70	186.44	49.34	-40.7	-42.5	21.5	0.00e+00	0	43	0	1457520640	52	4550
2026-01-04 12:17:58.08	186.77	49.77	-40.5	-42.3	21.6	0.00e+00	0	44	0	1465909248	52	4463
2026-01-04 12:17:58.79	186.94	49.99	-40.6	-42.4	21.5	0.00e+00	0	43	0	1469054976	52	4497
2026-01-04 12:18:00.08	187.27	50.39	-40.4	-42.2	21.7	0.00e+00	0	43	0	1476395008	52	4411
2026-01-04 12:18:00.80	187.45	50.62	-40.5	-42.3	21.6	0.00e+00	0	44	0	1480589312	52	4452
2026-01-04 12:18:02.08	187.79	51.02	-40.7	-42.5	21.3	0.00e+00	0	43	0	1487929344	52	4578
2026-01-04 12:18:02.79	187.98	51.25	-40.7	-42.4	21.4	0.00e+00	0	43	0	1492123648	52	4527
2026-01-04 12:18:04.08	188.33	51.66	-40.5	-42.3	21.4	0.00e+00	0	43	0	1499463680	52	4465
2026-01-04 12:18:04.80	188.53	51.89	-40.6	-42.3	21.3	0.00e+00	0	43	0	1503657984	52	4479
2026-01-04 12:18:06.09	188.90	52.31	-40.7	-42.5	21.1	0.00e+00	0	44	0	1510998016	52	4594
2026-01-04 12:18:06.82	189.11	52.55	-40.7	-42.5	21.1	0.00e+00	0	43	0	1515192320	52	4583
2026-01-04 12:18:08.11	189.49	52.97	-40.8	-42.7	20.9	0.00e+00	0	43	0	1521483776	52	4662
2026-01-04 12:18:08.82	189.71	53.20	-40.9	-42.7	21.0	0.00e+00	0	43	0	1525678080	52	4672
2026-01-04 12:18:10.14	190.12	53.63	-40.6	-42.3	21.3	0.00e+00	0	43	0	1533018112	52	4481
2026-01-04 12:18:10.85	190.34	53.87	-40.5	-42.2	21.4	0.00e+00	0	43	0	1537212416	52	4417
2026-01-04 12:18:12.14	190.76	54.29	-40.4	-42.1	21.6	0.00e+00	0	44	0	1544552448	52	4359
2026-01-04 12:18:12.86	191.00	54.53	-40.4	-42.1	21.5	0.00e+00	0	43	0	1548746752	52	4383
2026-01-04 12:18:14.28	191.49	55.01	-41.0	-42.8	21.1	0.00e+00	0	43	0	1557135360	52	4745
2026-01-04 12:18:14.99	191.74	55.24	-41.3	-43.1	20.9	0.00e+00	0	43	0	1560281088	53	4627
2026-01-04 12:18:16.28	192.20	55.68	-41.4	-43.3	20.7	0.00e+00	0	43	0	1567621120	53	4714
2026-01-04 12:18:16.99	192.46	55.92	-41.1	-42.8	21.1	0.00e+00	0	43	0	1571815424	53	4493
2026-01-04 12:18:18.28	192.94	56.35	-40.7	-42.5	21.5	0.00e+00	0	44	0	1579155456	53	4293
2026-01-04 12:18:18.99	193.22	56.59	-40.6	-42.3	21.5	0.00e+00	0	43	0	1583349760	53	4224
2026-01-04 12:18:20.28	193.73	57.03	-40.7	-42.5	21.3	0.00e+00	0	43	0	1590689792	53	4315
2026-01-04 12:18:20.99	194.01	57.27	-40.9	-42.7	21.1	0.00e+00	0	43	0	1594884096	53	4413
2026-01-04 12:18:22.28	194.55	57.71	-40.5	-42.3	21.3	0.00e+00	0	43	0	1602224128	53	4221
2026-01-04 12:18:23.00	194.85	57.95	-40.4	-42.1	21.5	0.00e+00	0	43	0	1605369856	52	4373
2026-01-04 12:18:24.28	195.41	58.39	-40.0	-41.7	21.9	0.00e+00	0	43	0	1612709888	51	4406
2026-01-04 12:18:25.00	195.73	58.64	-39.9	-41.6	21.9	0.00e+00	0	43	0	1616904192	51	4387
2026-01-04 12:18:26.29	196.32	59.08	-40.0	-41.7	21.9	0.00e+00	0	43	0	1624244224	51	4410
2026-01-04 12:18:27.01	196.66	59.33	-39.9	-41.6	22.1	0.00e+00	0	44	0	1628438528	51	4355
2026-01-04 12:18:28.29	197.28	59.76	-39.7	-41.4	22.4	0.00e+00	0	43	0	1635778560	51	4248
2026-01-04 12:18:29.01	197.64	60.01	-40.2	-41.9	22.0	0.00e+00	0	43	0	1638924288	51	4510
2026-01-04 12:18:30.30	198.29	60.45	-40.3	-42.0	21.8	0.00e+00	0	43	0	1646264320	51	4585
2026-01-04 12:18:31.02	198.67	60.70	-39.8	-41.5	22.3	0.00e+00	0	43	0	1650458624	51	4308
2026-01-04 12:18:32.31	199.36	61.14	-39.2	-40.9	22.7	0.00e+00	0	43	0	1657798656	50	4272
2026-01-04 12:18:33.03	199.76	61.39	-39.5	-41.2	22.6	0.00e+00	0	43	0	1661992960	50	4409
2026-01-04 12:18:34.31	200.48	61.82	-39.3	-41.0	22.7	0.00e+00	0	43	0	1669332992	50	4322
2026-01-04 12:18:35.03	200.90	62.07	-39.3	-41.0	22.7	0.00e+00	0	43	0	1673527296	50	4303
2026-01-04 12:18:36.31	201.67	62.50	-39.7	-41.4	22.4	0.00e+00	0	43	0	1680867328	50	4521
2026-01-04 12:18:37.06	202.13	62.76	-39.8	-41.6	22.1	0.00e+00	0	43	0	1685061632	50	4624
2026-01-04 12:18:38.67	203.16	63.30	-39.2	-40.9	22.7	0.00e+00	0	43	0	1693450240	50	4281
2026-01-04 12:18:39.26	203.55	63.50	-39.3	-41.0	22.6	0.00e+00	0	43	0	1696595968	50	4305
2026-01-04 12:18:41.02	204.74	64.08	-39.3	-41.1	22.5	0.00e+00	0	43	0	1707081728	50	4344
2026-01-04 12:18:41.60	205.15	64.28	-39.2	-40.9	22.6	0.00e+00	0	43	0	1710227456	50	4277
2026-01-04 12:18:43.20	206.31	64.80	-39.4	-41.1	22.5	0.00e+00	0	43	0	1719664640	50	4356
2026-01-04 12:18:43.78	206.74	64.99	-39.1	-40.8	22.8	0.00e+00	0	43	0	1722810368	50	4203
2026-01-04 12:18:45.39	207.99	65.51	-39.1	-40.8	22.7	0.00e+00	0	43	0	1731198976	49	4471
2026-01-04 12:18:45.97	208.45	65.70	-39.2	-40.9	22.6	0.00e+00	0	43	0	1735393280	49	4511
2026-01-04 12:18:47.60	209.79	66.22	-39.2	-40.9	22.7	0.00e+00	0	43	0	1743781888	49	4532
2026-01-04 12:18:48.17	210.27	66.40	-39.6	-41.3	22.3	0.00e+00	0	43	0	1746927616	49	4729
2026-01-04 12:18:49.83	211.73	66.91	-39.4	-41.1	22.4	0.00e+00	0	43	0	1756364800	50	4377
2026-01-04 12:18:50.41	212.25	67.09	-39.4	-41.1	22.5	0.00e+00	0	43	0	1759510528	50	4360
2026-01-04 12:18:52.00	213.74	67.57	-39.6	-41.4	22.3	0.00e+00	0	43	0	1768947712	50	4509
2026-01-04 12:18:52.57	214.29	67.73	-39.5	-41.2	22.5	0.00e+00	0	43	0	1772093440	50	4437
2026-01-04 12:18:54.16	215.87	68.20	-39.2	-40.9	22.9	0.00e+00	0	43	0	1780482048	50	4244
2026-01-04 12:18:54.76	216.49	68.37	-39.4	-41.1	22.7	0.00e+00	0	43	0	1784676352	50	4359
2026-01-04 12:18:56.33	218.15	68.80	-39.7	-41.4	22.4	0.00e+00	0	43	0	1793064960	50	4512
2026-01-04 12:18:56.93	218.80	68.97	-39.7	-41.4	22.4	0.00e+00	0	43	0	1796210688	50	4510
2026-01-04 12:18:58.50	220.56	69.38	-39.4	-41.1	22.6	0.00e+00	0	43	0	1805647872	50	4367
2026-01-04 12:18:59.11	221.27	69.54	-39.1	-40.8	22.9	0.00e+00	0	43	0	1808793600	50	4211
2026-01-04 12:19:00.74	223.21	69.95	-39.0	-40.7	22.9	0.00e+00	0	43	0	1818230784	49	4409
2026-01-04 12:19:01.31	223.91	70.09	-39.1	-40.8	22.9	0.00e+00	0	43	0	1821376512	49	4449
2026-01-04 12:19:02.94	225.96	70.46	-38.6	-40.3	23.2	0.00e+00	0	43	0	1830813696	49	4212
2026-01-04 12:19:03.51	226.70	70.59	-38.4	-40.1	23.2	0.00e+00	0	43	0	1833959424	48	4356
2026-01-04 12:19:05.18	228.93	70.95	-38.5	-40.1	23.3	0.00e+00	0	43	0	1843396608	48	4390
2026-01-04 12:19:05.75	229.70	71.06	-38.4	-40.1	23.4	0.00e+00	0	43	0	1846542336	48	4366
2026-01-04 12:19:07.61	232.31	71.41	-38.8	-40.6	23.0	0.00e+00	0	43	0	1857028096	48	4602
2026-01-04 12:19:08.18	233.13	71.52	-38.8	-40.5	23.0	0.00e+00	0	43	0	1860173824	48	4558
2026-01-04 12:19:09.83	235.56	71.79	-38.8	-40.5	23.0	0.00e+00	0	43	0	1869611008	48	4579
2026-01-04 12:19:10.40	236.41	71.88	-38.8	-40.6	22.9	0.00e+00	0	43	0	1872756736	48	4604
2026-01-04 12:19:12.00	238.86	72.10	-38.6	-40.3	23.3	0.00e+00	0	43	0	1881145344	48	4469
2026-01-04 12:19:12.59	239.77	72.17	-38.4	-40.1	23.2	0.00e+00	0	43	0	1884291072	48	4372
2026-01-04 12:19:14.16	242.25	72.35	-38.5	-40.2	23.1	0.00e+00	0	43	0	1893728256	48	4412
2026-01-04 12:19:14.75	243.20	72.41	-38.4	-40.1	23.1	0.00e+00	0	43	0	1896873984	48	4357
2026-01-04 12:19:16.36	245.80	72.55	-38.2	-39.9	23.2	0.00e+00	0	43	0	1905262592	48	4287
2026-01-04 12:19:16.93	246.74	72.59	-37.9	-39.6	23.3	0.00e+00	0	43	0	1909456896	47	4341
2026-01-04 12:19:18.58	249.46	72.68	-38.2	-39.9	22.9	0.00e+00	0	43	0	1918894080	47	4522
2026-01-04 12:19:19.48	250.96	72.72	-38.2	-39.9	22.8	0.00e+00	0	43	0	1923088384	47	4528
2026-01-04 12:19:20.50	252.66	72.74	-38.1	-39.8	23.0	0.00e+00	0	43	0	1929379840	47	4442
2026-01-04 12:19:21.50	254.33	72.75	-38.3	-40.0	22.7	0.00e+00	0	43	0	1934622720	47	4585
2026-01-04 12:19:22.50	256.00	72.75	-38.2	-40.0	22.7	0.00e+00	0	43	0	1939865600	47	4549
2026-01-04 12:19:23.50	257.67	72.73	-38.2	-39.9	22.9	0.00e+00	0	43	0	1946157056	47	4541
2026-01-04 12:19:24.50	259.34	72.70	-38.0	-39.8	22.8	0.00e+00	0	43	0	1951399936	47	4456
2026-01-04 12:19:25.51	261.01	72.66	-38.0	-39.7	22.8	0.00e+00	0	43	0	1957691392	47	4423
2026-01-04 12:19:26.51	262.66	72.60	-37.7	-39.4	23.1	0.00e+00	0	43	0	1962934272	47	4265
2026-01-04 12:19:27.51	264.30	72.53	-37.8	-39.5	23.0	0.00e+00	0	43	0	1968177152	47	4315
2026-01-04 12:19:28.51	265.92	72.44	-37.9	-39.6	23.2	0.00e+00	0	43	0	1974468608	47	4365
2026-01-04 12:19:29.51	267.52	72.35	-38.2	-39.9	22.9	0.00e+00	0	43	0	1979711488	47	4502
2026-01-04 12:19:30.51	269.10	72.24	-38.3	-40.0	22.9	0.00e+00	0	43	0	1984954368	47	4590
2026-01-04 12:19:31.51	270.66	72.11	-38.3	-40.0	22.9	0.00e+00	0	43	0	1991245824	47	4570
2026-01-04 12:19:32.51	272.20	71.98	-38.3	-40.0	22.8	0.00e+00	0	43	0	1996488704	47	4579
2026-01-04 12:19:33.51	273.71	71.83	-38.3	-39.9	23.0	0.00e+00	0	43	0	2001731584	47	4530
2026-01-04 12:19:34.51	275.20	71.67	-38.3	-40.0	23.0	0.00e+00	0	43	0	2008023040	47	4587
2026-01-04 12:19:35.52	276.67	71.50	-38.3	-40.0	23.0	0.00e+00	0	43	0	2013265920	47	4580
2026-01-04 12:19:36.52	278.10	71.32	-38.3	-40.0	23.1	0.00e+00	0	43	0	2019557376	47	4561
2026-01-04 12:19:37.52	279.50	71.13	-38.3	-40.0	23.0	0.00e+00	0	43	0	2024800256	47	4593
2026-01-04 12:19:38.52	280.86	70.93	-38.4	-40.0	23.0	0.00e+00	0	43	0	2031091712	47	4589
2026-01-04 12:19:39.53	282.22	70.72	-38.3	-40.0	22.9	0.00e+00	0	43	0	2036334592	47	4550
2026-01-04 12:19:40.53	283.52	70.50	-38.4	-40.2	22.7	0.00e+00	0	43	0	2041577472	47	4669
2026-01-04 12:19:41.53	284.80	70.27	-38.3	-40.0	22.8	0.00e+00	0	43	0	2047868928	47	4598
2026-01-04 12:19:42.53	286.04	70.03	-38.3	-40.0	22.8	0.00e+00	0	43	0	2053111808	47	4584
2026-01-04 12:19:43.53	287.25	69.79	-38.2	-39.9	22.8	0.00e+00	0	43	0	2058354688	47	4509
2026-01-04 12:19:44.53	288.43	69.54	-38.3	-40.0	22.9	0.00e+00	0	43	0	2064646144	47	4557
2026-01-04 12:19:45.53	289.58	69.28	-38.9	-40.7	22.9	0.00e+00	0	43	0	2069889024	48	4652
2026-01-04 12:19:46.53	290.69	69.01	-39.1	-40.9	22.7	0.00e+00	0	43	0	2075131904	48	4773
2026-01-04 12:19:47.54	291.79	68.74	-39.0	-40.7	22.8	0.00e+00	0	43	0	2081423360	48	4657
2026-01-04 12:19:48.54	292.85	68.46	-39.0	-40.7	22.8	0.00e+00	0	43	0	2086666240	48	4691
2026-01-04 12:19:49.54	293.88	68.18	-39.2	-40.9	22.8	0.00e+00	0	43	0	2092957696	49	4514
2026-01-04 12:19:50.55	294.89	67.88	-39.2	-40.9	22.7	0.00e+00	0	43	0	2098200576	49	4508
2026-01-04 12:19:51.55	295.86	67.59	-39.3	-41.0	22.7	0.00e+00	0	43	0	2103443456	49	4580
2026-01-04 12:19:52.55	296.80	67.29	-39.1	-40.8	22.8	0.00e+00	0	43	0	2109734912	49	4477
2026-01-04 12:19:53.56	297.73	66.99	-38.9	-40.6	22.9	0.00e+00	0	43	0	2114977792	49	4348
2026-01-04 12:19:54.56	298.62	66.68	-38.8	-40.5	23.0	0.00e+00	0	43	0	2120220672	49	4320
2026-01-04 12:19:55.56	299.48	66.37	-39.0	-40.7	22.8	0.00e+00	0	43	0	2126512128	49	4404
2026-01-04 12:19:56.57	300.33	66.05	-39.3	-41.0	22.7	0.00e+00	0	43	0	2131755008	49	4558
2026-01-04 12:19:57.56	301.14	65.74	-39.1	-40.7	22.8	0.00e+00	0	43	0	2136997888	49	4440
2026-01-04 12:19:58.56	301.93	65.42	-39.0	-40.7	22.8	0.00e+00	0	43	0	2143289344	49	4410
2026-01-04 12:19:59.56	302.70	65.09	-39.3	-41.0	22.6	3.40e-06	0	43	0	2148532224	49	4566
2026-01-04 12:20:00.56	303.45	64.77	-39.6	-41.3	22.5	0.00e+00	0	43	0	2154823680	49	4724
2026-01-04 12:20:01.56	304.18	64.44	-39.6	-41.3	22.6	0.00e+00	0	43	0	2160066560	49	4719
2026-01-04 12:20:02.56	304.88	64.11	-39.5	-41.2	22.6	0.00e+00	0	43	0	2165309440	49	4677
2026-01-04 12:20:03.56	305.57	63.78	-39.3	-41.0	22.6	0.00e+00	0	43	0	2171600896	49	4587
2026-01-04 12:20:04.57	306.24	63.44	-39.1	-40.8	22.7	0.00e+00	0	43	0	2176843776	49	4479
2026-01-04 12:20:05.57	306.89	63.11	-39.1	-40.8	22.6	0.00e+00	0	43	0	2183135232	49	4489
2026-01-04 12:20:06.57	307.52	62.77	-39.0	-40.7	22.7	0.00e+00	0	43	0	2188378112	49	4413
2026-01-04 12:20:07.76	308.25	62.37	-38.8	-40.5	22.8	0.00e+00	0	43	0	2194669568	49	4309
2026-01-04 12:20:08.65	308.78	62.07	-39.3	-41.0	22.8	0.00e+00	0	43	0	2199912448	49	4571
2026-01-04 12:20:09.98	309.55	61.61	-39.7	-41.4	22.4	0.00e+00	0	43	0	2207252480	50	4535
2026-01-04 12:20:10.69	309.95	61.37	-39.8	-41.5	22.3	0.00e+00	0	43	0	2211446784	50	4598
2026-01-04 12:20:12.22	310.78	60.85	-39.9	-41.6	22.3	0.00e+00	0	43	0	2219835392	50	4637
2026-01-04 12:20:12.94	311.16	60.60	-39.9	-41.6	22.4	0.00e+00	0	43	0	2224029696	50	4608
2026-01-04 12:20:14.29	311.85	60.14	-40.2	-41.9	22.1	0.00e+00	0	43	0	2231369728	51	4523
2026-01-04 12:20:15.00	312.20	59.90	-40.3	-42.1	21.8	0.00e+00	0	43	0	2235564032	51	4622
2026-01-04 12:20:16.28	312.83	59.46	-40.2	-41.9	21.9	0.00e+00	0	43	0	2242904064	51	4542
2026-01-04 12:20:17.00	313.17	59.22	-40.1	-41.8	21.9	0.00e+00	0	43	0	2247098368	51	4483
2026-01-04 12:20:18.29	313.76	58.78	-39.9	-41.6	22.0	0.00e+00	0	43	0	2254438400	51	4381
2026-01-04 12:20:19.00	314.08	58.54	-40.1	-41.8	22.0	0.00e+00	0	43	0	2258632704	51	4471
2026-01-04 12:20:20.29	314.65	58.10	-40.2	-41.9	21.9	0.00e+00	0	43	0	2265972736	51	4542
2026-01-04 12:20:21.01	314.96	57.85	-40.2	-41.9	22.0	0.00e+00	0	43	0	2269118464	51	4520
2026-01-04 12:20:22.30	315.50	57.41	-40.1	-41.9	21.9	0.00e+00	0	43	0	2276458496	51	4501
2026-01-04 12:20:23.01	315.79	57.17	-40.2	-41.9	21.9	0.00e+00	0	43	0	2280652800	51	4522
2026-01-04 12:20:24.30	316.30	56.74	-40.5	-42.3	21.7	0.00e+00	0	43	0	2287992832	51	4708
2026-01-04 12:20:25.03	316.58	56.49	-40.6	-42.3	21.6	0.00e+00	0	43	0	2292187136	51	4739
2026-01-04 12:20:26.31	317.06	56.06	-40.6	-42.4	21.5	0.00e+00	0	43	0	2299527168	51	4768
2026-01-04 12:20:27.03	317.33	55.82	-40.5	-42.3	21.6	0.00e+00	0	43	0	2303721472	51	4730
2026-01-04 12:20:28.31	317.79	55.39	-40.6	-42.3	21.5	0.00e+00	0	43	0	2310012928	51	4744
2026-01-04 12:20:29.02	318.04	55.15	-40.5	-42.2	21.6	0.00e+00	0	43	0	2314207232	51	4686
2026-01-04 12:20:30.31	318.49	54.72	-40.5	-42.2	21.6	0.00e+00	0	43	0	2321547264	51	4690
2026-01-04 12:20:31.03	318.73	54.48	-40.5	-42.3	21.4	0.00e+00	0	43	0	2325741568	52	4452
2026-01-04 12:20:32.32	319.15	54.06	-40.9	-42.6	21.7	0.00e+00	0	43	0	2333081600	52	4631
2026-01-04 12:20:33.03	319.38	53.83	-40.9	-42.6	21.7	0.00e+00	0	43	0	2337275904	52	4650
2026-01-04 12:20:34.31	319.78	53.41	-40.8	-42.5	21.8	0.00e+00	0	43	0	2344615936	52	4557
2026-01-04 12:20:35.03	320.00	53.17	-40.7	-42.4	21.8	0.00e+00	0	43	0	2348810240	52	4536
2026-01-04 12:20:36.31	320.39	52.75	-40.7	-42.4	21.8	0.00e+00	0	43	0	2355101696	52	4519
2026-01-04 12:20:37.09	320.62	52.50	-40.7	-42.4	21.9	0.00e+00	0	43	0	2360344576	52	4504
2026-01-04 12:20:38.38	320.99	52.09	-40.4	-42.1	22.0	0.00e+00	0	43	0	2367684608	52	4375
2026-01-04 12:20:39.09	321.19	51.86	-40.4	-42.1	22.1	0.00e+00	0	43	0	2370830336	52	4352
2026-01-04 12:20:40.38	321.54	51.45	-40.1	-41.8	22.3	0.00e+00	0	43	0	2378170368	52	4200
2026-01-04 12:20:41.10	321.74	51.22	-40.2	-41.8	22.2	0.00e+00	0	43	0	2382364672	52	4227
2026-01-04 12:20:42.39	322.08	50.81	-40.2	-41.9	22.2	0.00e+00	0	43	0	2389704704	52	4270
2026-01-04 12:20:43.10	322.26	50.59	-40.1	-41.7	22.3	0.00e+00	0	43	0	2393899008	51	4440
2026-01-04 12:20:44.45	322.60	50.16	-39.9	-41.6	22.5	0.00e+00	0	43	0	2401239040	51	4356
2026-01-04 12:20:45.17	322.78	49.94	-39.6	-41.3	22.8	0.00e+00	0	43	0	2405433344	51	4200
2026-01-04 12:20:46.45	323.09	49.54	-39.4	-41.0	23.1	0.00e+00	0	43	0	2412773376	50	4332
2026-01-04 12:20:47.17	323.27	49.32	-39.4	-41.1	23.0	0.00e+00	0	43	0	2416967680	50	4344
2026-01-04 12:20:48.56	323.59	48.89	-39.8	-41.4	22.8	0.00e+00	0	43	0	2424307712	50	4523
2026-01-04 12:20:49.28	323.75	48.67	-40.0	-41.6	22.6	0.00e+00	0	43	0	2428502016	50	4634
2026-01-04 12:20:50.63	324.06	48.26	-39.9	-41.6	22.6	0.00e+00	0	43	0	2435842048	50	4608
2026-01-04 12:20:51.34	324.21	48.05	-40.0	-41.6	22.5	0.00e+00	0	43	0	2440036352	50	4640
2026-01-04 12:20:52.63	324.49	47.66	-39.9	-41.6	22.5	0.00e+00	0	43	0	2447376384	50	4607
2026-01-04 12:20:53.66	324.71	47.36	-40.0	-41.7	22.4	0.00e+00	0	43	0	2452619264	50	4676
2026-01-04 12:20:54.66	324.91	47.06	-40.3	-42.0	22.3	0.00e+00	0	43	0	2458910720	51	4547
2026-01-04 12:20:55.66	325.12	46.77	-40.4	-42.1	22.3	0.00e+00	0	43	0	2464153600	51	4600
2026-01-04 12:20:56.66	325.32	46.47	-40.3	-42.0	22.4	0.00e+00	0	43	0	2470445056	51	4551
2026-01-04 12:20:57.66	325.51	46.18	-40.1	-41.8	22.5	0.00e+00	0	43	0	2475687936	51	4455
2026-01-04 12:20:58.66	325.70	45.89	-40.0	-41.7	22.5	0.00e+00	0	43	0	2480930816	51	4413
2026-01-04 12:20:59.67	325.90	45.60	-40.0	-41.6	22.5	0.00e+00	0	43	0	2487222272	51	4377
2026-01-04 12:21:00.73	326.09	45.30	-39.6	-41.3	22.6	0.00e+00	0	43	0	2493513728	51	4209
2026-01-04 12:21:01.62	326.25	45.05	-39.8	-41.5	22.6	0.00e+00	0	43	0	2497708032	51	4310
2026-01-04 12:21:02.76	326.46	44.73	-39.8	-41.5	22.5	0.00e+00	0	43	0	2503999488	51	4314
2026-01-04 12:21:03.62	326.61	44.48	-39.8	-41.4	22.5	0.00e+00	0	43	0	2509242368	51	4289
2026-01-04 12:21:04.99	326.85	44.10	-39.7	-41.4	22.6	0.00e+00	0	43	0	2516582400	51	4258
2026-01-04 12:21:05.71	326.97	43.90	-39.7	-41.3	22.8	0.00e+00	0	43	0	2520776704	51	4237
2026-01-04 12:21:06.99	327.18	43.55	-39.4	-41.1	22.9	0.00e+00	0	43	0	2528116736	50	4343
2026-01-04 12:21:07.71	327.30	43.35	-39.4	-41.0	23.0	0.00e+00	0	43	0	2532311040	50	4334
2026-01-04 12:21:08.99	327.51	43.01	-39.2	-40.8	23.1	0.00e+00	0	43	0	2539651072	50	4226
2026-01-04 12:21:09.71	327.62	42.81	-39.3	-40.9	23.1	0.00e+00	0	43	0	2543845376	50	4254
2026-01-04 12:21:11.00	327.82	42.47	-39.3	-40.9	23.0	0.00e+00	0	43	0	2550136832	50	4250
2026-01-04 12:21:11.71	327.93	42.28	-39.2	-40.9	23.0	0.00e+00	0	43	0	2554331136	50	4243
2026-01-04 12:21:12.99	328.12	41.94	-39.4	-41.0	23.0	0.00e+00	0	43	0	2561671168	50	4324
2026-01-04 12:21:13.71	328.23	41.75	-39.4	-41.0	23.0	0.00e+00	0	43	0	2565865472	50	4328
2026-01-04 12:21:15.00	328.42	41.41	-39.2	-40.8	23.1	0.00e+00	0	43	0	2573205504	50	4227
2026-01-04 12:21:15.71	328.52	41.23	-39.2	-40.8	23.0	0.00e+00	0	43	0	2577399808	50	4218
2026-01-04 12:21:17.16	328.73	40.85	-39.0	-40.7	23.1	0.00e+00	0	43	0	2584739840	50	4151
2026-01-04 12:21:17.87	328.83	40.67	-39.1	-40.7	23.1	0.00e+00	0	43	0	2588934144	50	4177
2026-01-04 12:21:19.23	329.01	40.32	-39.1	-40.8	23.0	0.00e+00	0	43	0	2597322752	50	4218
2026-01-04 12:21:19.94	329.11	40.14	-39.2	-40.9	23.0	0.00e+00	0	43	0	2600468480	50	4243
2026-01-04 12:21:21.23	329.28	39.82	-39.4	-41.0	22.9	0.00e+00	0	43	0	2607808512	50	4324
2026-01-04 12:21:21.95	329.37	39.64	-39.4	-41.1	22.9	0.00e+00	0	43	0	2612002816	50	4343
2026-01-04 12:21:23.23	329.54	39.32	-39.6	-41.2	22.8	0.00e+00	0	43	0	2619342848	50	4438
2026-01-04 12:21:23.95	329.63	39.15	-39.6	-41.3	22.8	0.00e+00	0	43	0	2623537152	50	4458
2026-01-04 12:21:25.24	329.79	38.83	-39.6	-41.3	22.8	0.00e+00	0	43	0	2630877184	50	4451
2026-01-04 12:21:25.95	329.88	38.66	-39.4	-41.1	22.9	0.00e+00	0	43	0	2635071488	50	4353
2026-01-04 12:21:27.24	330.04	38.35	-39.4	-41.0	23.0	0.00e+00	0	43	0	2642411520	50	4322
2026-01-04 12:21:27.96	330.12	38.17	-39.4	-41.0	23.0	0.00e+00	0	43	0	2645557248	50	4319
2026-01-04 12:21:29.25	330.28	37.87	-39.4	-41.1	22.9	0.00e+00	0	43	0	2652897280	50	4348
2026-01-04 12:21:29.96	330.36	37.70	-39.6	-41.3	22.8	0.00e+00	0	43	0	2657091584	50	4455
2026-01-04 12:21:31.25	330.51	37.40	-39.6	-41.3	22.8	0.00e+00	0	43	0	2664431616	50	4448
2026-01-04 12:21:31.96	330.59	37.23	-39.5	-41.2	22.7	0.00e+00	0	43	0	2668625920	50	4416
2026-01-04 12:21:33.25	330.73	36.93	-39.5	-41.2	22.7	0.00e+00	0	43	0	2675965952	50	4429
2026-01-04 12:21:33.97	330.81	36.76	-39.7	-41.4	22.6	0.00e+00	0	43	0	2680160256	50	4530
2026-01-04 12:21:35.30	330.96	36.46	-39.6	-41.3	22.6	0.00e+00	0	43	0	2687500288	50	4469
2026-01-04 12:21:36.02	331.03	36.30	-39.2	-40.9	22.9	0.00e+00	0	43	0	2691694592	50	4260
2026-01-04 12:21:37.30	331.17	36.01	-39.2	-40.8	23.0	0.00e+00	0	43	0	2699034624	50	4217
2026-01-04 12:21:38.02	331.24	35.84	-39.0	-40.6	23.0	0.00e+00	0	43	0	2703228928	50	4137
2026-01-04 12:21:39.30	331.38	35.56	-39.0	-40.6	23.0	0.00e+00	0	43	0	2709520384	49	4359
2026-01-04 12:21:40.02	331.45	35.40	-39.0	-40.6	23.0	0.00e+00	0	43	0	2713714688	49	4391
2026-01-04 12:21:41.31	331.58	35.12	-39.3	-41.0	22.9	0.00e+00	0	43	0	2721054720	49	4552
2026-01-04 12:21:42.02	331.65	34.96	-39.3	-41.0	22.9	0.00e+00	0	43	0	2725249024	49	4554
2026-01-04 12:21:43.31	331.78	34.68	-39.5	-41.2	22.8	0.00e+00	0	43	0	2732589056	49	4667
2026-01-04 12:21:44.03	331.85	34.52	-39.5	-41.2	22.8	0.00e+00	0	43	0	2736783360	49	4671
2026-01-04 12:21:45.31	331.97	34.25	-39.5	-41.2	22.7	0.00e+00	0	43	0	2743074816	49	4671
2026-01-04 12:21:46.03	332.04	34.10	-39.5	-41.1	22.8	0.00e+00	0	43	0	2748317696	49	4639
2026-01-04 12:21:47.31	332.15	33.83	-39.5	-41.1	22.8	0.00e+00	0	43	0	2754609152	49	4639
2026-01-04 12:21:48.03	332.22	33.67	-39.5	-41.1	22.8	0.00e+00	0	43	0	2758803456	49	4647
2026-01-04 12:21:49.32	332.34	33.41	-39.3	-41.0	22.8	0.00e+00	0	43	0	2766143488	49	4585
2026-01-04 12:21:50.03	332.40	33.26	-39.3	-41.0	22.8	0.00e+00	0	43	0	2770337792	49	4552
2026-01-04 12:21:51.32	332.52	32.99	-39.2	-40.9	22.8	0.00e+00	0	43	0	2777677824	49	4517
2026-01-04 12:21:52.03	332.58	32.85	-39.3	-40.9	22.8	0.00e+00	0	43	0	2781872128	49	4536
2026-01-04 12:21:53.32	332.69	32.58	-39.2	-40.9	22.9	0.00e+00	0	43	0	2789212160	49	4510
2026-01-04 12:21:54.03	332.75	32.44	-39.3	-41.0	22.8	0.00e+00	0	43	0	2792357888	49	4554
2026-01-04 12:21:55.32	332.86	32.18	-39.2	-40.9	22.9	0.00e+00	0	43	0	2799697920	49	4521
2026-01-04 12:21:56.06	332.92	32.03	-39.2	-40.9	22.9	0.00e+00	0	43	0	2803892224	49	4502
2026-01-04 12:21:57.66	333.05	31.72	-39.4	-41.0	22.8	0.00e+00	0	43	0	2813329408	49	4577
2026-01-04 12:21:58.51	333.12	31.55	-39.5	-41.2	22.7	0.00e+00	0	43	0	2817523712	49	4655
2026-01-04 12:21:59.66	333.21	31.33	-39.8	-41.5	22.6	0.00e+00	0	43	0	2823815168	50	4550
2026-01-04 12:22:00.82	333.31	31.10	-39.9	-41.5	22.6	0.00e+00	0	43	0	2831155200	50	4594
2026-01-04 12:22:01.83	333.39	30.91	-40.0	-41.6	22.5	0.00e+00	0	43	0	2836398080	50	4646
2026-01-04 12:22:02.99	333.47	30.68	-40.0	-41.7	22.4	0.00e+00	0	43	0	2842689536	50	4675
2026-01-04 12:22:03.85	333.54	30.52	-40.0	-41.7	22.5	0.00e+00	0	43	0	2847932416	50	4655
2026-01-04 12:22:05.00	333.63	30.30	-39.9	-41.5	22.6	0.00e+00	0	43	0	2854223872	50	4597
2026-01-04 12:22:05.86	333.69	30.14	-39.8	-41.4	22.7	0.00e+00	0	43	0	2859466752	50	4532
2026-01-04 12:22:07.00	333.78	29.93	-39.7	-41.3	22.7	0.00e+00	0	43	0	2865758208	50	4480
2026-01-04 12:22:07.86	333.84	29.77	-39.6	-41.3	22.7	0.00e+00	0	43	0	2869952512	50	4470
2026-01-04 12:22:09.00	333.92	29.56	-39.4	-41.0	22.8	0.00e+00	0	43	0	2877292544	50	4337
2026-01-04 12:22:09.86	333.98	29.40	-39.2	-40.9	22.8	0.00e+00	0	43	0	2881486848	50	4253
2026-01-04 12:22:11.01	334.06	29.19	-39.3	-41.0	22.8	0.00e+00	0	43	0	2887778304	50	4314
2026-01-04 12:22:11.87	334.12	29.04	-39.3	-40.9	22.8	0.00e+00	0	43	0	2893021184	50	4275
2026-01-04 12:22:13.01	334.20	28.83	-39.3	-41.0	22.8	0.00e+00	0	43	0	2899312640	50	4294
2026-01-04 12:22:13.87	334.26	28.68	-39.3	-41.0	22.8	0.00e+00	0	43	0	2904555520	50	4308
2026-01-04 12:22:15.11	334.35	28.46	-39.4	-41.1	22.7	0.00e+00	0	43	0	2910846976	50	4367
2026-01-04 12:22:15.97	334.40	28.31	-39.5	-41.2	22.6	0.00e+00	0	43	0	2916089856	50	4426
2026-01-04 12:22:17.11	334.48	28.11	-39.7	-41.3	22.6	0.00e+00	0	43	0	2922381312	50	4485
2026-01-04 12:22:17.97	334.54	27.96	-39.7	-41.4	22.5	0.00e+00	0	43	0	2927624192	50	4537
2026-01-04 12:22:19.12	334.61	27.76	-39.7	-41.4	22.5	0.00e+00	0	43	0	2933915648	50	4536
2026-01-04 12:22:19.98	334.67	27.61	-39.7	-41.4	22.5	0.00e+00	0	43	0	2939158528	50	4543
2026-01-04 12:22:21.38	334.76	27.37	-39.7	-41.4	22.5	0.00e+00	0	43	0	2946498560	50	4537
2026-01-04 12:22:22.09	334.80	27.25	-39.7	-41.4	22.5	0.00e+00	0	43	0	2950692864	50	4511
2026-01-04 12:22:23.38	334.88	27.04	-39.7	-41.4	22.5	0.00e+00	0	43	0	2958032896	50	4527
2026-01-04 12:22:24.10	334.93	26.92	-39.7	-41.4	22.6	0.00e+00	0	43	0	2962227200	50	4518
2026-01-04 12:22:25.65	335.02	26.66	-39.8	-41.5	22.6	0.00e+00	0	43	0	2970615808	50	4563
2026-01-04 12:22:26.65	335.08	26.49	-39.8	-41.4	22.6	0.00e+00	0	43	0	2975858688	50	4538
2026-01-04 12:22:27.97	335.16	26.28	-39.8	-41.4	22.7	0.00e+00	0	43	0	2984247296	50	4527
2026-01-04 12:22:28.69	335.20	26.16	-39.8	-41.4	22.6	0.00e+00	0	43	0	2987393024	50	4532
2026-01-04 12:22:29.98	335.28	25.95	-39.7	-41.3	22.7	0.00e+00	0	43	0	2994733056	50	4478
2026-01-04 12:22:30.69	335.32	25.84	-39.7	-41.3	22.7	0.00e+00	0	43	0	2998927360	50	4481
2026-01-04 12:22:31.98	335.39	25.63	-39.6	-41.3	22.6	0.00e+00	0	43	0	3006267392	50	4469
2026-01-04 12:22:32.70	335.43	25.51	-39.7	-41.3	22.5	0.00e+00	0	43	0	3010461696	50	4483
2026-01-04 12:22:33.98	335.51	25.31	-39.6	-41.3	22.5	0.00e+00	0	43	0	3017801728	50	4446
2026-01-04 12:22:34.70	335.55	25.20	-39.7	-41.4	22.4	0.00e+00	0	43	0	3020947456	50	4521
2026-01-04 12:22:36.06	335.62	24.99	-39.8	-41.5	22.3	0.00e+00	0	43	0	3029336064	50	4562
2026-01-04 12:22:37.06	335.68	24.83	-39.8	-41.5	22.2	0.00e+00	0	43	0	3034578944	50	4563
2026-01-04 12:22:38.38	335.75	24.63	-39.8	-41.5	22.2	0.00e+00	0	43	0	3041918976	50	4548
2026-01-04 12:22:39.10	335.79	24.52	-40.0	-41.7	22.1	0.00e+00	0	43	0	3046113280	50	4661
2026-01-04 12:22:40.75	335.87	24.26	-40.1	-41.8	22.1	0.00e+00	0	43	0	3055550464	50	4714
2026-01-04 12:22:41.32	335.90	24.18	-40.2	-42.0	22.0	0.00e+00	0	43	0	3058696192	51	4548
2026-01-04 12:22:43.18	336.00	23.90	-39.9	-41.6	22.0	0.00e+00	0	42	0	3069181952	51	4381
2026-01-04 12:22:43.75	336.03	23.81	-40.0	-41.7	21.9	0.00e+00	0	43	0	3072327680	51	4401
2026-01-04 12:22:45.33	336.11	23.58	-40.4	-42.1	21.9	0.00e+00	0	43	0	3081764864	51	4651
2026-01-04 12:22:45.95	336.14	23.49	-40.4	-42.1	21.9	0.00e+00	0	43	0	3084910592	51	4640
2026-01-04 12:22:47.53	336.22	23.26	-40.5	-42.2	21.8	0.00e+00	0	42	0	3093299200	51	4691
2026-01-04 12:22:48.15	336.25	23.17	-40.4	-42.2	21.9	0.00e+00	0	43	0	3097493504	51	4659
2026-01-04 12:22:49.72	336.33	22.94	-40.4	-42.1	21.8	0.00e+00	0	43	0	3105882112	51	4629
2026-01-04 12:22:50.30	336.36	22.85	-40.3	-42.1	21.8	0.00e+00	0	43	0	3109027840	51	4618
2026-01-04 12:22:51.91	336.43	22.62	-40.5	-42.2	21.8	0.00e+00	0	43	0	3118465024	51	4705
2026-01-04 12:22:52.48	336.46	22.54	-40.5	-42.3	21.8	0.00e+00	0	43	0	3121610752	51	4710
2026-01-04 12:22:54.07	336.54	22.32	-40.5	-42.2	21.9	0.00e+00	0	43	0	3131047936	51	4683
2026-01-04 12:22:55.07	336.58	22.18	-40.7	-42.4	21.7	0.00e+00	0	43	0	3136290816	51	4810
2026-01-04 12:22:56.07	336.63	22.04	-40.7	-42.4	21.6	0.00e+00	0	43	0	3141533696	52	4525
2026-01-04 12:22:57.08	336.68	21.90	-40.6	-42.3	21.7	0.00e+00	0	43	0	3147825152	52	4481
2026-01-04 12:22:58.08	336.72	21.76	-40.6	-42.4	21.7	0.00e+00	0	43	0	3153068032	52	4516
2026-01-04 12:22:59.08	336.77	21.62	-40.6	-42.4	21.7	0.00e+00	0	43	0	3158310912	52	4515
2026-01-04 12:23:00.15	336.82	21.47	-40.6	-42.4	21.6	0.00e+00	0	43	0	3164602368	52	4496
2026-01-04 12:23:01.04	336.86	21.35	-40.7	-42.4	21.6	0.00e+00	0	43	0	3169845248	52	4537
2026-01-04 12:23:02.18	336.91	21.20	-40.6	-42.3	21.6	0.00e+00	0	43	0	3176136704	52	4475
2026-01-04 12:23:03.11	336.95	21.07	-40.6	-42.4	21.5	0.00e+00	0	43	0	3181379584	52	4521
2026-01-04 12:23:04.29	337.00	20.92	-40.6	-42.4	21.4	0.00e+00	0	43	0	3187671040	52	4521
2026-01-04 12:23:05.15	337.04	20.80	-40.5	-42.3	21.4	0.00e+00	0	43	0	3192913920	52	4444
2026-01-04 12:23:06.50	337.09	20.62	-40.5	-42.3	21.4	0.00e+00	0	43	0	3200253952	52	4479
2026-01-04 12:23:07.22	337.12	20.53	-40.6	-42.4	21.3	0.00e+00	0	43	0	3204448256	52	4524
2026-01-04 12:23:08.51	337.18	20.36	-40.6	-42.4	21.3	0.00e+00	0	43	0	3211788288	52	4522
2026-01-04 12:23:09.22	337.21	20.27	-40.6	-42.5	21.3	0.00e+00	0	43	0	3215982592	52	4559
2026-01-04 12:23:10.51	337.26	20.10	-40.6	-42.5	21.3	0.00e+00	0	43	0	3223322624	52	4556
2026-01-04 12:23:11.23	337.29	20.01	-40.7	-42.6	21.2	0.00e+00	0	43	0	3227516928	52	4620
2026-01-04 12:23:12.81	337.36	19.80	-40.9	-42.7	21.2	0.00e+00	0	43	0	3235905536	52	4682
2026-01-04 12:23:13.44	337.38	19.72	-41.0	-42.8	21.1	0.00e+00	0	43	0	3239051264	52	4727
2026-01-04 12:23:14.89	337.44	19.54	-41.1	-42.9	21.1	0.00e+00	0	43	0	3247439872	52	4760
2026-01-04 12:23:15.60	337.47	19.45	-41.0	-42.7	21.2	0.00e+00	0	43	0	3251634176	52	4697
2026-01-04 12:23:16.89	337.52	19.29	-41.2	-43.0	21.1	0.00e+00	0	43	0	3258974208	53	4565
2026-01-04 12:23:17.61	337.55	19.20	-41.3	-43.1	20.9	0.00e+00	0	43	0	3263168512	53	4608
2026-01-04 12:23:18.89	337.60	19.04	-41.2	-42.9	21.0	0.00e+00	0	43	0	3270508544	53	4521
2026-01-04 12:23:19.61	337.62	18.95	-41.4	-43.2	20.9	0.00e+00	0	43	0	3273654272	53	4681
2026-01-04 12:23:21.17	337.68	18.76	-41.3	-43.0	21.1	0.00e+00	0	43	0	3283091456	53	4577
2026-01-04 12:23:22.06	337.72	18.65	-41.3	-43.0	21.1	0.00e+00	0	43	0	3287285760	53	4597
2026-01-04 12:23:23.61	337.78	18.46	-41.2	-43.0	21.1	0.00e+00	0	43	0	3296722944	53	4568
2026-01-04 12:23:24.33	337.80	18.37	-41.3	-43.1	21.0	0.00e+00	0	43	0	3300917248	53	4613
2026-01-04 12:23:25.80	337.86	18.20	-41.1	-42.9	21.1	0.00e+00	0	43	0	3309305856	53	4514
2026-01-04 12:23:26.52	337.88	18.11	-41.1	-42.9	21.0	0.00e+00	0	43	0	3313500160	53	4521
2026-01-04 12:23:27.81	337.93	17.96	-41.1	-42.9	20.9	0.00e+00	0	43	0	3319791616	53	4507
2026-01-04 12:23:28.52	337.96	17.87	-41.0	-42.8	21.0	0.00e+00	0	43	0	3323985920	53	4457
2026-01-04 12:23:29.81	338.00	17.72	-41.1	-42.9	20.9	0.00e+00	0	43	0	3331325952	53	4512
2026-01-04 12:23:30.53	338.03	17.64	-41.1	-42.9	20.9	0.00e+00	0	43	0	3335520256	53	4520
2026-01-04 12:23:31.82	338.08	17.49	-41.2	-42.9	20.9	0.00e+00	0	43	0	3342860288	53	4539
2026-01-04 12:23:32.53	338.10	17.41	-41.1	-42.8	20.9	0.00e+00	0	43	0	3347054592	53	4493
2026-01-04 12:23:33.82	338.15	17.26	-41.1	-42.8	20.8	0.00e+00	0	43	0	3354394624	53	4489
2026-01-04 12:23:34.55	338.17	17.17	-41.2	-42.9	20.7	0.00e+00	0	43	0	3358588928	53	4541
2026-01-04 12:23:35.83	338.22	17.03	-41.2	-42.9	20.7	0.00e+00	0	43	0	3365928960	53	4529
2026-01-04 12:23:36.55	338.24	16.94	-41.2	-43.0	20.6	0.00e+00	0	43	0	3369074688	53	4554
2026-01-04 12:23:37.84	338.28	16.80	-41.2	-43.0	20.6	0.00e+00	0	43	0	3376414720	53	4549
2026-01-04 12:23:38.56	338.31	16.72	-41.1	-42.9	20.6	0.00e+00	0	43	0	3380609024	53	4532
2026-01-04 12:23:39.85	338.35	16.57	-41.3	-43.1	20.6	0.00e+00	0	43	0	3387949056	53	4624
2026-01-04 12:23:40.56	338.38	16.49	-41.5	-43.3	20.5	0.00e+00	0	42	0	3392143360	53	4742
2026-01-04 12:23:41.85	338.42	16.35	-41.8	-43.7	20.5	1.10e-06	0	43	0	3399483392	54	4662
2026-01-04 12:23:42.57	338.44	16.27	-41.8	-43.7	20.4	0.00e+00	0	42	0	3403677696	54	4673
2026-01-04 12:23:43.85	338.49	16.13	-42.0	-43.9	20.3	0.00e+00	0	43	0	3409969152	54	4794
2026-01-04 12:23:44.57	338.51	16.05	-41.9	-43.8	20.3	0.00e+00	0	43	0	3414163456	54	4752
2026-01-04 12:23:45.86	338.55	15.91	-41.9	-43.8	20.3	0.00e+00	0	43	0	3421503488	54	4746
2026-01-04 12:23:46.59	338.57	15.83	-41.9	-43.8	20.2	0.00e+00	0	43	0	3425697792	54	4745
2026-01-04 12:23:47.88	338.62	15.69	-41.9	-43.9	20.2	0.00e+00	0	43	0	3433037824	54	4789
2026-01-04 12:23:48.60	338.64	15.61	-41.7	-43.7	20.2	0.00e+00	0	43	0	3437232128	54	4684
2026-01-04 12:23:49.89	338.68	15.47	-41.7	-43.7	20.1	0.00e+00	0	43	0	3444572160	54	4686
2026-01-04 12:23:50.60	338.70	15.39	-41.8	-43.8	20.1	0.00e+00	0	43	0	3448766464	54	4715
2026-01-04 12:23:51.89	338.74	15.26	-41.8	-43.7	20.1	0.00e+00	0	43	0	3456106496	54	4676
2026-01-04 12:23:52.60	338.76	15.18	-41.8	-43.8	20.0	0.00e+00	0	42	0	3459252224	54	4719
2026-01-04 12:23:53.89	338.80	15.04	-41.8	-43.8	20.1	0.00e+00	0	43	0	3466592256	54	4712
2026-01-04 12:23:54.61	338.83	14.97	-42.0	-44.0	20.0	0.00e+00	0	43	0	3470786560	54	4816
2026-01-04 12:23:56.05	338.87	14.82	-42.1	-44.0	20.0	0.00e+00	0	43	0	3479175168	55	4582
2026-01-04 12:23:56.77	338.89	14.74	-42.2	-44.1	19.9	0.00e+00	0	43	0	3483369472	55	4643
2026-01-04 12:23:58.12	338.93	14.60	-42.1	-44.1	20.0	0.00e+00	0	43	0	3490709504	55	4599
2026-01-04 12:23:58.83	338.95	14.53	-42.3	-44.3	19.9	0.00e+00	0	43	0	3494903808	55	4714
2026-01-04 12:24:00.12	338.99	14.40	-42.3	-44.3	19.7	0.00e+00	0	43	0	3502243840	55	4738
2026-01-04 12:24:01.19	339.02	14.29	-42.3	-44.3	19.7	0.00e+00	0	42	0	3507486720	55	4738
2026-01-04 12:24:02.05	339.05	14.20	-42.5	-44.5	19.6	0.00e+00	0	43	0	3512729600	55	4861
2026-01-04 12:24:03.19	339.08	14.08	-42.4	-44.4	19.8	0.00e+00	0	43	0	3519021056	55	4795
2026-01-04 12:24:04.05	339.11	14.00	-42.3	-44.3	19.9	0.00e+00	0	43	0	3524263936	55	4719
2026-01-04 12:24:05.19	339.14	13.88	-42.2	-44.2	19.8	0.00e+00	0	43	0	3530555392	55	4701
2026-01-04 12:24:06.05	339.16	13.79	-42.2	-44.3	19.7	0.00e+00	0	43	0	3535798272	55	4722
2026-01-04 12:24:07.20	339.20	13.68	-42.2	-44.3	19.6	0.00e+00	0	43	0	3542089728	55	4733
2026-01-04 12:24:08.05	339.22	13.60	-42.2	-44.2	19.7	0.00e+00	0	43	0	3546284032	55	4676
2026-01-04 12:24:09.20	339.25	13.48	-42.0	-44.0	19.8	0.00e+00	0	43	0	3552575488	55	4578
2026-01-04 12:24:10.20	339.28	13.38	-42.2	-44.2	19.6	0.00e+00	0	43	0	3558866944	55	4673
2026-01-04 12:24:11.38	339.31	13.27	-42.1	-44.0	19.7	0.00e+00	0	42	0	3565158400	55	4593
2026-01-04 12:24:12.24	339.34	13.18	-42.2	-44.1	19.7	0.00e+00	0	42	0	3570401280	55	4636
2026-01-04 12:24:13.59	339.38	13.05	-42.2	-44.1	19.7	0.00e+00	0	43	0	3577741312	55	4647
2026-01-04 12:24:14.31	339.39	12.98	-42.3	-44.2	19.6	0.00e+00	0	43	0	3581935616	55	4673
2026-01-04 12:24:15.60	339.43	12.86	-42.4	-44.3	19.6	0.00e+00	0	43	0	3589275648	55	4738
2026-01-04 12:24:16.31	339.45	12.79	-42.5	-44.4	19.4	0.00e+00	0	43	0	3592421376	55	4780
2026-01-04 12:24:17.59	339.48	12.67	-42.7	-44.5	19.6	0.00e+00	0	42	0	3599761408	56	4591
2026-01-04 12:24:18.31	339.50	12.60	-42.7	-44.6	19.6	0.00e+00	0	43	0	3603955712	56	4630
2026-01-04 12:24:19.60	339.54	12.47	-42.6	-44.5	19.6	0.00e+00	0	43	0	3611295744	56	4581
2026-01-04 12:24:20.32	339.56	12.41	-42.8	-44.8	19.5	0.00e+00	0	43	0	3615490048	56	4715
2026-01-04 12:24:21.62	339.59	12.28	-42.7	-44.7	19.5	0.00e+00	0	43	0	3622830080	56	4663
2026-01-04 12:24:22.47	339.61	12.20	-42.9	-44.9	19.4	0.00e+00	0	43	0	3628072960	56	4760
2026-01-04 12:24:23.61	339.64	12.10	-42.8	-44.8	19.4	0.00e+00	0	42	0	3634364416	56	4728
2026-01-04 12:24:24.47	339.66	12.02	-42.8	-44.8	19.4	0.00e+00	0	42	0	3638558720	56	4711
2026-01-04 12:24:25.61	339.69	11.91	-42.8	-44.7	19.4	0.00e+00	0	43	0	3644850176	56	4699
2026-01-04 12:24:26.47	339.72	11.83	-42.8	-44.8	19.3	0.00e+00	0	43	0	3650093056	56	4723
2026-01-04 12:24:27.62	339.75	11.72	-42.7	-44.7	19.3	0.00e+00	0	42	0	3656384512	56	4692
2026-01-04 12:24:28.83	339.78	11.61	-42.6	-44.6	19.3	0.00e+00	0	42	0	3663724544	56	4645
2026-01-04 12:24:29.69	339.80	11.53	-42.7	-44.7	19.3	0.00e+00	0	42	0	3667918848	56	4669
2026-01-04 12:24:30.84	339.83	11.43	-42.8	-44.8	19.1	0.00e+00	0	43	0	3675258880	56	4741
2026-01-04 12:24:31.69	339.85	11.35	-42.6	-44.6	19.2	0.00e+00	0	43	0	3679453184	56	4639
2026-01-04 12:24:32.84	339.88	11.25	-42.7	-44.7	19.1	0.00e+00	0	43	0	3685744640	56	4665
