passes_logs/2026/01/04/T1/T1__20260104_111250_SUOMI_NPP_rec.log

#Pass ID: 20260104_111250_SUOMI NPP
#Satellite: SUOMI NPP
#Configuration: NPP
#almurnet v.1.7.20251203
#Start time: 2026-01-04 11:12:51

#Version: 2.0.20230620
#Station: T1
#Location: 37.570604 lon 55.790049 lat
#TLE: 1 37849U 11061A   26001.07732418  .00000182  00000+0  10735-3 0  9990
#TLE: 2 37849  98.7795 303.2470 0002580  87.2016 272.9455 14.19520779734739

#Time	Az	El	Level	Level2	SNR	BER	BlckErr	Temp	State	Recorded	gain1	gain2
2026-01-04 11:12:51.87	199.68	5.10	-47.7	-62.8	3.8	1.49e+00	0	40	0	0	67	19888
2026-01-04 11:12:52.87	199.75	5.17	-47.5	-62.6	3.8	1.49e+00	0	40	104	0	67	19519
2026-01-04 11:12:53.87	199.82	5.23	-47.5	-62.6	3.8	1.49e+00	0	40	104	0	66	20559
2026-01-04 11:12:54.88	199.89	5.30	-47.4	-62.4	3.8	1.49e+00	0	40	104	0	66	20290
2026-01-04 11:12:55.88	199.96	5.36	-47.4	-62.5	3.8	1.49e+00	0	40	104	0	66	20423
2026-01-04 11:12:56.89	200.03	5.43	-47.3	-62.4	3.8	1.49e+00	0	40	104	0	66	20294
2026-01-04 11:12:57.89	200.10	5.49	-47.3	-62.3	3.8	1.49e+00	0	40	104	0	66	20031
2026-01-04 11:12:58.90	200.17	5.56	-47.2	-62.3	3.8	1.49e+00	0	40	104	0	66	19998
2026-01-04 11:12:59.90	200.24	5.63	-47.2	-62.3	3.8	1.49e+00	0	41	104	0	66	19975
2026-01-04 11:13:00.90	200.31	5.69	-47.1	-62.2	3.8	1.49e+00	0	40	104	0	66	19796
2026-01-04 11:13:01.91	200.39	5.76	-47.1	-62.2	3.8	1.49e+00	0	41	104	0	66	19632
2026-01-04 11:13:02.91	200.46	5.82	-47.1	-62.1	3.8	1.49e+00	0	41	104	0	66	19522
2026-01-04 11:13:03.92	200.53	5.89	-47.0	-62.0	3.8	1.49e+00	0	41	104	0	66	19290
2026-01-04 11:13:04.92	200.61	5.95	-46.9	-61.9	3.8	1.49e+00	0	41	104	0	65	20274
2026-01-04 11:13:05.93	200.68	6.02	-46.8	-61.9	3.8	1.49e+00	0	41	104	0	65	20078
2026-01-04 11:13:06.93	200.75	6.09	-46.8	-61.8	3.8	1.49e+00	0	41	104	0	65	20071
2026-01-04 11:13:07.93	200.83	6.15	-46.8	-61.7	3.8	1.49e+00	0	41	104	0	65	19703
2026-01-04 11:13:08.94	200.90	6.22	-46.8	-61.8	3.8	1.49e+00	0	41	104	0	65	19917
2026-01-04 11:13:09.94	200.98	6.29	-46.7	-61.7	3.8	1.49e+00	0	41	104	0	65	19672
2026-01-04 11:13:10.95	201.05	6.35	-46.7	-61.7	3.8	1.49e+00	0	41	104	0	65	19718
2026-01-04 11:13:11.95	201.13	6.42	-46.6	-61.6	3.8	1.49e+00	0	41	104	0	65	19558
2026-01-04 11:13:12.96	201.21	6.49	-46.6	-61.6	3.8	1.49e+00	0	41	104	0	65	19397
2026-01-04 11:13:13.96	201.28	6.56	-46.5	-61.5	3.8	1.49e+00	0	41	104	0	65	19207
2026-01-04 11:13:14.97	201.36	6.62	-46.5	-61.4	3.8	1.49e+00	0	41	104	0	65	19036
2026-01-04 11:13:15.97	201.44	6.69	-46.5	-61.3	3.8	1.49e+00	0	41	104	0	65	18857
2026-01-04 11:13:16.97	201.51	6.76	-46.4	-61.3	3.8	1.49e+00	0	41	104	0	64	19896
2026-01-04 11:13:17.98	201.59	6.83	-46.4	-61.2	3.8	1.49e+00	0	41	104	0	64	19797
2026-01-04 11:13:18.99	201.67	6.90	-46.3	-61.2	3.8	1.49e+00	0	41	104	0	64	19787
2026-01-04 11:13:19.99	201.75	6.96	-46.3	-61.1	3.8	1.49e+00	0	41	104	0	64	19599
2026-01-04 11:13:20.99	201.83	7.03	-46.3	-61.2	3.8	1.49e+00	0	41	104	0	64	19804
2026-01-04 11:13:22.00	201.91	7.10	-46.3	-61.2	3.8	1.49e+00	0	41	104	0	64	19697
2026-01-04 11:13:23.00	201.98	7.17	-46.1	-61.1	3.8	1.49e+00	0	41	104	0	64	19425
2026-01-04 11:13:24.01	202.06	7.24	-46.1	-61.0	3.8	1.49e+00	0	41	104	0	64	19337
2026-01-04 11:13:25.01	202.14	7.31	-46.2	-61.0	3.8	1.49e+00	0	41	104	0	64	19240
2026-01-04 11:13:26.01	202.22	7.38	-46.1	-60.9	3.8	1.49e+00	0	42	104	0	64	19031
2026-01-04 11:13:27.02	202.31	7.44	-46.1	-60.9	3.8	1.49e+00	0	41	104	0	64	18956
2026-01-04 11:13:28.02	202.39	7.51	-46.0	-60.9	3.8	1.49e+00	0	41	104	0	63	20143
2026-01-04 11:13:29.03	202.47	7.58	-45.9	-60.9	3.8	1.49e+00	0	41	104	0	63	20162
2026-01-04 11:13:30.03	202.55	7.65	-45.8	-60.8	3.8	1.49e+00	0	41	104	0	63	19949
2026-01-04 11:13:31.04	202.63	7.72	-45.9	-60.8	3.8	1.49e+00	0	41	104	0	63	19887
2026-01-04 11:13:32.04	202.72	7.79	-45.9	-60.3	3.8	1.49e+00	0	41	104	0	63	18939
2026-01-04 11:13:33.04	202.80	7.86	-45.7	-59.2	3.8	1.49e+00	0	41	104	0	63	16645
2026-01-04 11:13:34.05	202.88	7.93	-45.6	-57.9	4.0	1.49e+00	0	42	104	0	63	14261
2026-01-04 11:13:35.05	202.97	8.00	-45.4	-56.0	4.6	1.34e+00	0	42	0	0	62	12185
2026-01-04 11:13:36.06	203.05	8.07	-45.1	-54.6	5.3	6.18e-01	0	42	0	2097152	62	10295
2026-01-04 11:13:37.06	203.14	8.14	-44.9	-53.5	5.9	4.30e-01	0	41	0	4194304	61	9694
2026-01-04 11:13:38.07	203.22	8.22	-44.7	-52.7	6.5	2.74e-01	0	42	0	6291456	61	8794
2026-01-04 11:13:39.07	203.31	8.29	-44.5	-52.3	6.8	1.90e-01	0	42	0	7340032	61	8412
2026-01-04 11:13:40.08	203.39	8.36	-44.6	-52.2	7.0	1.55e-01	0	42	0	9437184	60	8848
2026-01-04 11:13:41.08	203.48	8.43	-44.5	-52.4	6.7	1.71e-01	0	42	0	11534336	60	9034
2026-01-04 11:13:42.08	203.56	8.50	-44.6	-52.7	6.5	1.89e-01	0	42	0	13631488	60	9343
2026-01-04 11:13:43.09	203.65	8.57	-44.7	-53.3	6.0	2.94e-01	0	42	0	15728640	60	9983
2026-01-04 11:13:44.09	203.74	8.64	-44.8	-54.1	5.4	4.29e-01	0	42	0	16777216	60	10951
2026-01-04 11:13:45.09	203.83	8.71	-44.9	-54.8	4.9	6.04e-01	0	42	0	18874368	60	11937
2026-01-04 11:13:46.10	203.92	8.79	-45.0	-55.9	4.4	1.01e+00	0	42	0	20971520	60	13556
2026-01-04 11:13:47.10	204.00	8.86	-45.0	-56.9	4.1	1.39e+00	0	42	0	22020096	60	15212
2026-01-04 11:13:48.11	204.09	8.93	-45.0	-57.9	3.8	1.48e+00	0	42	104	22020096	60	16951
2026-01-04 11:13:49.11	204.18	9.00	-45.0	-58.4	3.8	1.49e+00	0	42	104	22020096	60	18011
2026-01-04 11:13:50.11	204.27	9.07	-45.1	-58.9	3.8	1.49e+00	0	42	104	22020096	60	19063
2026-01-04 11:13:51.12	204.36	9.15	-43.5	-57.5	3.8	1.49e+00	0	42	104	22020096	58	18193
2026-01-04 11:13:52.41	204.48	9.24	-46.5	-59.0	4.0	5.41e-01	0	42	0	22020096	65	14428
2026-01-04 11:13:53.17	204.55	9.30	-45.3	-59.6	3.8	1.49e+00	0	42	104	22020096	61	19538
2026-01-04 11:13:54.78	204.70	9.41	-48.9	-59.9	4.5	1.46e+00	0	42	0	22020096	69	12669
2026-01-04 11:13:55.35	204.75	9.46	-49.6	-60.5	4.5	1.24e+00	0	42	0	23068672	69	13651
2026-01-04 11:13:56.95	204.90	9.57	-51.6	-59.9	6.6	3.94e-01	0	42	0	26214400	73	10117
2026-01-04 11:13:57.52	204.95	9.61	-51.7	-60.2	6.4	2.13e-01	0	42	0	27262976	74	9937
2026-01-04 11:13:59.12	205.10	9.73	-51.6	-59.6	7.0	1.63e-01	0	42	0	30408704	74	9181
2026-01-04 11:13:59.69	205.15	9.77	-51.2	-57.7	8.8	9.38e-02	0	42	0	31457280	74	7396
2026-01-04 11:14:01.37	205.31	9.90	-52.0	-62.3	4.9	9.28e-01	0	42	0	34603008	75	11842
2026-01-04 11:14:01.95	205.37	9.94	-52.2	-65.3	3.8	1.03e+00	0	42	104	34603008	75	16729
2026-01-04 11:14:03.53	205.52	10.06	-52.3	-63.6	4.5	1.67e-01	0	42	0	35651584	75	13756
2026-01-04 11:14:04.11	205.58	10.10	-52.0	-65.0	3.8	1.43e+00	0	42	104	36700160	75	16171
2026-01-04 11:14:06.01	205.76	10.24	-52.2	-60.5	6.7	1.52e-01	0	42	0	38797312	75	9655
2026-01-04 11:14:06.58	205.81	10.29	-52.1	-60.0	7.3	1.79e-01	0	42	0	39845888	75	9085
2026-01-04 11:14:08.19	205.97	10.41	-51.9	-58.7	8.5	6.84e-02	0	42	0	41943040	75	7873
2026-01-04 11:14:08.76	206.03	10.45	-51.7	-58.1	9.2	4.06e-02	0	42	0	42991616	75	7303
2026-01-04 11:14:10.34	206.18	10.57	-51.4	-57.1	10.2	7.53e-03	0	42	0	46137344	74	6913
2026-01-04 11:14:10.93	206.24	10.61	-51.4	-57.0	10.4	6.83e-03	0	42	0	47185920	74	6815
2026-01-04 11:14:12.50	206.40	10.73	-51.2	-56.5	10.9	2.12e-03	0	42	0	50331648	74	6482
2026-01-04 11:14:13.11	206.46	10.78	-51.0	-56.1	11.3	2.08e-03	0	42	0	51380224	73	6518
2026-01-04 11:14:14.68	206.62	10.90	-50.8	-55.7	11.6	9.65e-04	0	42	0	54525952	73	6258
2026-01-04 11:14:15.28	206.68	10.94	-50.7	-55.5	11.8	6.97e-04	0	42	0	55574528	73	6123
2026-01-04 11:14:16.86	206.84	11.06	-50.7	-55.5	11.9	3.39e-04	0	42	0	58720256	73	6094
2026-01-04 11:14:17.45	206.90	11.11	-50.8	-55.8	11.8	4.40e-04	0	42	0	59768832	73	6288
2026-01-04 11:14:19.02	207.06	11.23	-50.7	-55.5	12.0	3.09e-04	0	42	0	62914560	73	6080
2026-01-04 11:14:19.63	207.13	11.28	-50.6	-55.4	12.1	2.25e-04	0	42	0	63963136	72	6357
2026-01-04 11:14:21.20	207.29	11.40	-50.4	-55.0	12.3	3.49e-04	0	42	0	67108864	72	6101
2026-01-04 11:14:21.78	207.35	11.44	-50.2	-54.5	12.9	1.58e-04	0	42	0	68157440	72	5730
2026-01-04 11:14:23.40	207.52	11.57	-49.3	-52.8	14.7	0.00e+00	0	42	0	71303168	70	5286
2026-01-04 11:14:23.97	207.58	11.61	-49.1	-52.4	15.0	0.00e+00	0	42	0	72351744	70	5097
2026-01-04 11:14:25.55	207.75	11.73	-49.1	-52.5	14.9	0.00e+00	0	42	0	74448896	70	5122
2026-01-04 11:14:26.15	207.82	11.78	-49.0	-52.3	15.1	0.00e+00	0	42	0	76546048	70	5020
2026-01-04 11:14:27.82	208.00	11.91	-48.5	-51.6	15.9	0.00e+00	0	42	0	79691776	69	4880
2026-01-04 11:14:28.40	208.06	11.96	-48.5	-51.5	16.0	0.00e+00	0	42	0	80740352	68	5146
2026-01-04 11:14:29.97	208.23	12.08	-48.5	-51.5	16.0	0.00e+00	0	42	0	82837504	68	5159
2026-01-04 11:14:30.56	208.30	12.13	-48.2	-51.1	16.4	0.00e+00	0	42	0	83886080	68	4912
2026-01-04 11:14:32.14	208.47	12.25	-48.0	-50.8	16.7	0.00e+00	0	42	0	87031808	68	4738
2026-01-04 11:14:33.06	208.57	12.32	-48.2	-51.0	16.4	0.00e+00	0	42	0	89128960	67	5146
2026-01-04 11:14:34.49	208.73	12.44	-47.7	-50.4	17.0	0.00e+00	0	42	0	91226112	67	4801
2026-01-04 11:14:35.21	208.81	12.49	-47.4	-50.0	17.4	0.00e+00	0	42	0	93323264	66	4863
2026-01-04 11:14:36.85	209.00	12.62	-47.3	-49.9	17.6	0.00e+00	0	42	0	96468992	66	4780
2026-01-04 11:14:37.42	209.06	12.67	-47.2	-49.8	17.6	0.00e+00	0	42	0	97517568	66	4736
2026-01-04 11:14:39.01	209.25	12.80	-47.1	-49.7	17.7	0.00e+00	0	43	0	100663296	66	4677
2026-01-04 11:14:39.59	209.31	12.84	-47.4	-50.1	17.3	0.00e+00	0	42	0	101711872	66	4891
2026-01-04 11:14:41.16	209.49	12.97	-47.2	-49.9	17.5	0.00e+00	0	42	0	103809024	66	4766
2026-01-04 11:14:41.75	209.56	13.02	-47.2	-49.8	17.6	0.00e+00	0	42	0	104857600	66	4757
2026-01-04 11:14:43.36	209.75	13.15	-47.5	-50.2	17.2	0.00e+00	0	42	0	108003328	66	4977
2026-01-04 11:14:43.95	209.82	13.19	-47.5	-50.2	17.3	0.00e+00	0	42	0	109051904	66	4944
2026-01-04 11:14:45.53	210.01	13.32	-47.8	-50.5	17.0	0.00e+00	0	42	0	112197632	66	5149
2026-01-04 11:14:46.11	210.08	13.37	-47.7	-50.5	17.0	0.00e+00	0	42	0	113246208	66	5116
2026-01-04 11:14:48.05	210.31	13.53	-47.8	-50.6	16.9	0.00e+00	0	42	0	117440512	66	5189
2026-01-04 11:14:48.63	210.38	13.57	-47.8	-50.6	16.9	0.00e+00	0	42	0	118489088	66	5184
2026-01-04 11:14:50.25	210.58	13.70	-47.9	-50.6	16.8	0.00e+00	0	42	0	121634816	66	5213
2026-01-04 11:14:50.82	210.64	13.75	-48.0	-50.8	16.7	0.00e+00	0	43	0	122683392	66	5290
2026-01-04 11:14:52.43	210.84	13.88	-47.8	-50.5	17.0	0.00e+00	0	43	0	125829120	66	5114
2026-01-04 11:14:53.00	210.91	13.93	-47.8	-50.5	17.0	0.00e+00	0	42	0	126877696	66	5123
2026-01-04 11:14:54.59	211.11	14.06	-47.7	-50.4	17.1	0.00e+00	0	42	0	128974848	66	5084
2026-01-04 11:14:55.17	211.18	14.11	-47.7	-50.4	17.1	0.00e+00	0	42	0	130023424	66	5055
2026-01-04 11:14:56.98	211.41	14.26	-47.5	-50.1	17.3	0.00e+00	0	42	0	134217728	66	4915
2026-01-04 11:14:57.55	211.48	14.31	-47.5	-50.1	17.3	0.00e+00	0	43	0	135266304	66	4917
2026-01-04 11:14:59.17	211.69	14.44	-47.5	-50.1	17.4	0.00e+00	0	43	0	138412032	66	4896
2026-01-04 11:14:59.75	211.76	14.49	-47.6	-50.2	17.3	0.00e+00	0	42	0	139460608	66	4945
2026-01-04 11:15:01.33	211.97	14.62	-47.6	-50.3	17.2	0.00e+00	0	42	0	142606336	66	5004
2026-01-04 11:15:01.94	212.05	14.67	-47.8	-50.5	17.0	0.00e+00	0	43	0	143654912	66	5123
2026-01-04 11:15:03.52	212.25	14.80	-47.8	-50.6	16.9	0.00e+00	0	42	0	145752064	66	5185
2026-01-04 11:15:04.11	212.33	14.85	-47.9	-50.7	16.8	0.00e+00	0	42	0	146800640	66	5247
2026-01-04 11:15:05.76	212.55	14.99	-47.9	-50.7	16.7	0.00e+00	0	42	0	149946368	66	5279
2026-01-04 11:15:06.34	212.62	15.04	-47.9	-50.7	16.8	0.00e+00	0	42	0	150994944	66	5266
2026-01-04 11:15:07.93	212.84	15.17	-47.9	-50.8	16.8	0.00e+00	0	42	0	154140672	66	5293
2026-01-04 11:15:08.50	212.91	15.22	-47.9	-50.8	16.8	0.00e+00	0	42	0	155189248	66	5283
2026-01-04 11:15:10.08	213.13	15.36	-47.7	-50.4	17.1	0.00e+00	0	42	0	158334976	66	5096
2026-01-04 11:15:11.03	213.26	15.44	-47.8	-50.5	17.1	0.00e+00	0	42	0	160432128	66	5147
2026-01-04 11:15:12.03	213.39	15.52	-47.6	-50.3	17.2	0.00e+00	0	42	0	162529280	66	5025
2026-01-04 11:15:13.04	213.53	15.61	-47.6	-50.3	17.2	0.00e+00	0	42	0	163577856	66	5003
2026-01-04 11:15:14.04	213.67	15.69	-47.7	-50.4	17.1	0.00e+00	0	42	0	165675008	66	5064
2026-01-04 11:15:15.04	213.81	15.78	-47.6	-50.3	17.2	0.00e+00	0	42	0	167772160	66	4997
2026-01-04 11:15:16.04	213.95	15.86	-47.8	-50.5	17.1	0.00e+00	0	42	0	169869312	66	5109
2026-01-04 11:15:17.04	214.09	15.95	-48.1	-50.9	16.7	0.00e+00	0	42	0	171966464	66	5357
2026-01-04 11:15:18.05	214.23	16.04	-48.0	-50.7	16.8	0.00e+00	0	42	0	173015040	66	5279
2026-01-04 11:15:19.05	214.37	16.12	-48.0	-50.7	16.8	0.00e+00	0	42	0	175112192	67	4975
2026-01-04 11:15:20.18	214.54	16.22	-48.0	-50.8	16.7	0.00e+00	0	43	0	177209344	67	5026
2026-01-04 11:15:21.09	214.67	16.30	-48.1	-51.0	16.6	0.00e+00	0	42	0	179306496	67	5118
2026-01-04 11:15:22.28	214.84	16.40	-48.4	-51.4	16.3	0.00e+00	0	43	0	181403648	67	5365
2026-01-04 11:15:23.14	214.97	16.48	-48.4	-51.4	16.1	0.00e+00	0	42	0	182452224	67	5381
2026-01-04 11:15:24.50	215.16	16.59	-48.4	-51.4	16.2	0.00e+00	0	43	0	185597952	67	5388
2026-01-04 11:15:25.21	215.27	16.66	-48.3	-51.2	16.3	0.00e+00	0	43	0	186646528	67	5278
2026-01-04 11:15:26.50	215.46	16.77	-48.2	-51.1	16.5	0.00e+00	0	43	0	188743680	67	5209
2026-01-04 11:15:27.22	215.57	16.83	-48.4	-51.4	16.3	0.00e+00	0	42	0	190840832	67	5350
2026-01-04 11:15:28.51	215.76	16.94	-48.3	-51.3	16.3	0.00e+00	0	43	0	192937984	67	5299
2026-01-04 11:15:29.23	215.87	17.01	-48.5	-51.5	16.2	0.00e+00	0	42	0	193986560	67	5412
2026-01-04 11:15:30.52	216.06	17.12	-48.3	-51.2	16.4	0.00e+00	0	42	0	197132288	67	5260
2026-01-04 11:15:31.24	216.17	17.18	-48.1	-51.0	16.7	0.00e+00	0	42	0	198180864	67	5124
2026-01-04 11:15:32.53	216.37	17.30	-47.7	-50.4	17.2	0.00e+00	0	42	0	200278016	67	4813
2026-01-04 11:15:33.24	216.48	17.36	-47.9	-50.6	17.0	0.00e+00	0	42	0	202375168	67	4917
2026-01-04 11:15:34.53	216.68	17.47	-47.9	-50.7	16.9	0.00e+00	0	43	0	204472320	67	4927
2026-01-04 11:15:35.25	216.79	17.53	-47.9	-50.6	17.0	0.00e+00	0	43	0	205520896	67	4918
2026-01-04 11:15:36.54	217.00	17.65	-47.8	-50.5	17.1	0.00e+00	0	43	0	207618048	67	4821
2026-01-04 11:15:37.25	217.11	17.71	-47.8	-50.5	17.1	0.00e+00	0	42	0	209715200	67	4844
2026-01-04 11:15:38.54	217.31	17.83	-47.5	-50.1	17.5	0.00e+00	0	42	0	211812352	66	4914
2026-01-04 11:15:39.26	217.43	17.89	-47.6	-50.2	17.4	0.00e+00	0	42	0	212860928	66	4956
2026-01-04 11:15:40.55	217.64	18.00	-47.5	-50.0	17.5	0.00e+00	0	42	0	216006656	66	4863
2026-01-04 11:15:41.26	217.75	18.07	-47.4	-49.9	17.6	0.00e+00	0	43	0	217055232	66	4809
2026-01-04 11:15:42.74	217.99	18.20	-47.3	-49.9	17.7	0.00e+00	0	42	0	220200960	66	4771
2026-01-04 11:15:43.73	218.15	18.29	-47.2	-49.8	17.8	0.00e+00	0	42	0	221249536	66	4708
2026-01-04 11:15:44.73	218.32	18.38	-47.3	-49.9	17.7	0.00e+00	0	42	0	223346688	66	4788
2026-01-04 11:15:45.74	218.48	18.47	-47.3	-49.9	17.6	0.00e+00	0	43	0	225443840	66	4778
2026-01-04 11:15:46.74	218.65	18.55	-47.3	-49.9	17.7	0.00e+00	0	43	0	227540992	66	4781
2026-01-04 11:15:47.74	218.82	18.64	-47.3	-49.9	17.7	0.00e+00	0	43	0	228589568	66	4772
2026-01-04 11:15:48.75	218.99	18.73	-47.4	-50.0	17.5	0.00e+00	0	42	0	230686720	66	4867
2026-01-04 11:15:49.75	219.16	18.82	-47.2	-49.8	17.7	0.00e+00	0	42	0	232783872	66	4725
2026-01-04 11:15:50.75	219.33	18.91	-47.2	-49.7	17.8	0.00e+00	0	43	0	234881024	66	4676
2026-01-04 11:15:51.76	219.50	19.00	-47.2	-49.7	17.7	0.00e+00	0	42	0	236978176	66	4697
2026-01-04 11:15:52.94	219.70	19.11	-47.3	-49.8	17.7	0.00e+00	0	43	0	239075328	66	4745
2026-01-04 11:15:53.83	219.86	19.19	-47.2	-49.7	17.9	0.00e+00	0	42	0	240123904	66	4672
2026-01-04 11:15:54.97	220.06	19.29	-47.1	-49.6	18.0	0.00e+00	0	43	0	242221056	66	4602
2026-01-04 11:15:55.83	220.21	19.37	-47.1	-49.6	18.0	0.00e+00	0	43	0	244318208	66	4601
2026-01-04 11:15:56.98	220.41	19.47	-47.0	-49.5	18.1	0.00e+00	0	43	0	246415360	65	4831
2026-01-04 11:15:57.84	220.56	19.55	-47.1	-49.6	17.9	0.00e+00	0	43	0	248512512	65	4923
2026-01-04 11:15:58.99	220.77	19.65	-46.9	-49.4	18.1	0.00e+00	0	42	0	250609664	65	4768
2026-01-04 11:15:59.84	220.92	19.73	-46.9	-49.4	18.1	0.00e+00	0	43	0	251658240	65	4764
2026-01-04 11:16:00.99	221.13	19.84	-46.9	-49.4	18.1	0.00e+00	0	43	0	253755392	65	4793
2026-01-04 11:16:01.85	221.28	19.91	-46.7	-49.1	18.3	0.00e+00	0	43	0	255852544	65	4633
2026-01-04 11:16:03.00	221.49	20.02	-46.8	-49.2	18.3	0.00e+00	0	43	0	257949696	65	4702
2026-01-04 11:16:03.86	221.65	20.09	-46.8	-49.2	18.3	0.00e+00	0	43	0	258998272	65	4694
2026-01-04 11:16:05.09	221.88	20.21	-46.8	-49.3	18.2	0.00e+00	0	43	0	262144000	65	4722
2026-01-04 11:16:05.95	222.04	20.28	-46.7	-49.1	18.4	0.00e+00	0	43	0	263192576	65	4647
2026-01-04 11:16:07.13	222.26	20.39	-46.6	-49.0	18.5	0.00e+00	0	43	0	265289728	65	4567
2026-01-04 11:16:07.99	222.42	20.47	-46.6	-48.9	18.6	0.00e+00	0	43	0	267386880	64	4813
2026-01-04 11:16:09.13	222.64	20.57	-46.5	-48.8	18.6	0.00e+00	0	43	0	269484032	64	4755
2026-01-04 11:16:09.99	222.80	20.65	-46.5	-48.8	18.7	0.00e+00	0	43	0	270532608	64	4716
2026-01-04 11:16:11.14	223.02	20.75	-46.5	-48.9	18.6	0.00e+00	0	43	0	272629760	64	4761
2026-01-04 11:16:12.00	223.18	20.83	-46.5	-48.8	18.7	0.00e+00	0	43	0	274726912	64	4724
2026-01-04 11:16:13.14	223.41	20.93	-46.5	-48.9	18.6	0.00e+00	0	43	0	276824064	64	4792
2026-01-04 11:16:14.06	223.58	21.02	-46.4	-48.7	18.7	0.00e+00	0	42	0	278921216	64	4695
2026-01-04 11:16:15.25	223.82	21.13	-46.6	-49.0	18.6	0.00e+00	0	43	0	281018368	64	4815
2026-01-04 11:16:16.11	223.99	21.20	-46.5	-48.9	18.6	0.00e+00	0	43	0	282066944	64	4780
2026-01-04 11:16:17.26	224.21	21.31	-46.3	-48.6	18.9	0.00e+00	0	43	0	284164096	64	4616
2026-01-04 11:16:18.12	224.39	21.39	-46.3	-48.6	18.9	0.00e+00	0	43	0	286261248	64	4617
2026-01-04 11:16:19.27	224.62	21.49	-46.3	-48.6	18.9	0.00e+00	0	43	0	288358400	64	4610
2026-01-04 11:16:20.13	224.79	21.57	-46.4	-48.7	18.8	0.00e+00	0	43	0	289406976	64	4678
2026-01-04 11:16:21.28	225.02	21.67	-46.4	-48.7	18.8	0.00e+00	0	42	0	291504128	64	4669
2026-01-04 11:16:22.14	225.20	21.75	-46.5	-48.9	18.7	0.00e+00	0	43	0	293601280	64	4767
2026-01-04 11:16:23.28	225.43	21.85	-46.3	-48.6	18.9	0.00e+00	0	43	0	295698432	64	4628
2026-01-04 11:16:24.14	225.61	21.93	-46.8	-49.2	18.5	0.00e+00	0	43	0	297795584	64	4959
2026-01-04 11:16:25.29	225.85	22.03	-46.8	-49.2	18.6	0.00e+00	0	43	0	299892736	64	4949
2026-01-04 11:16:26.15	226.03	22.11	-47.0	-49.4	18.4	0.00e+00	0	43	0	300941312	64	5071
2026-01-04 11:16:27.30	226.27	22.22	-47.2	-49.7	18.2	0.00e+00	0	43	0	303038464	65	4931
2026-01-04 11:16:28.16	226.45	22.29	-47.1	-49.6	18.2	0.00e+00	0	43	0	305135616	65	4890
2026-01-04 11:16:29.30	226.69	22.40	-47.3	-49.7	18.1	0.00e+00	0	43	0	307232768	65	4982
2026-01-04 11:16:30.16	226.87	22.47	-47.5	-50.1	17.8	0.00e+00	0	43	0	308281344	65	5172
2026-01-04 11:16:31.53	227.17	22.60	-47.5	-50.0	17.8	0.00e+00	0	43	0	311427072	65	5154
2026-01-04 11:16:32.25	227.32	22.66	-47.5	-50.0	17.9	0.00e+00	0	43	0	312475648	65	5134
2026-01-04 11:16:33.54	227.60	22.78	-47.5	-50.0	17.9	0.00e+00	0	43	0	314572800	65	5145
2026-01-04 11:16:34.25	227.76	22.84	-47.2	-49.7	18.1	0.00e+00	0	43	0	316669952	65	4957
2026-01-04 11:16:35.54	228.04	22.96	-47.2	-49.6	18.2	0.00e+00	0	43	0	318767104	65	4917
2026-01-04 11:16:36.26	228.20	23.02	-47.2	-49.6	18.2	0.00e+00	0	43	0	319815680	65	4911
2026-01-04 11:16:37.55	228.49	23.13	-47.0	-49.3	18.5	0.00e+00	0	43	0	322961408	65	4748
2026-01-04 11:16:38.28	228.65	23.20	-47.0	-49.4	18.5	0.00e+00	0	43	0	324009984	65	4795
2026-01-04 11:16:39.56	228.94	23.31	-47.0	-49.4	18.6	0.00e+00	0	43	0	326107136	65	4772
2026-01-04 11:16:40.27	229.10	23.38	-46.9	-49.3	18.5	0.00e+00	0	43	0	327155712	65	4711
2026-01-04 11:16:41.56	229.39	23.49	-47.0	-49.3	18.5	0.00e+00	0	43	0	330301440	65	4746
2026-01-04 11:16:42.46	229.60	23.57	-46.8	-49.2	18.6	0.00e+00	0	43	0	331350016	65	4675
2026-01-04 11:16:43.60	229.86	23.67	-47.1	-49.5	18.3	0.00e+00	0	43	0	333447168	65	4865
2026-01-04 11:16:44.46	230.06	23.75	-46.9	-49.3	18.5	0.00e+00	0	43	0	335544320	65	4707
2026-01-04 11:16:45.61	230.33	23.85	-46.9	-49.2	18.6	0.00e+00	0	43	0	337641472	65	4687
2026-01-04 11:16:46.74	230.59	23.95	-46.9	-49.2	18.6	0.00e+00	0	43	0	339738624	65	4696
2026-01-04 11:16:47.60	230.79	24.02	-46.9	-49.3	18.6	0.00e+00	0	43	0	340787200	65	4723
2026-01-04 11:16:48.74	231.06	24.12	-46.7	-49.0	18.8	0.00e+00	0	43	0	343932928	65	4570
2026-01-04 11:16:49.81	231.32	24.21	-46.7	-49.0	18.9	0.00e+00	0	43	0	346030080	65	4555
2026-01-04 11:16:50.85	231.56	24.31	-46.6	-48.9	18.8	0.00e+00	0	43	0	347078656	64	4791
2026-01-04 11:16:51.84	231.80	24.39	-46.5	-48.8	19.0	0.00e+00	0	43	0	349175808	64	4741
2026-01-04 11:16:52.84	232.04	24.48	-46.5	-48.8	19.0	0.00e+00	0	43	0	351272960	64	4707
2026-01-04 11:16:53.84	232.29	24.56	-46.6	-48.9	18.9	0.00e+00	0	43	0	353370112	64	4762
2026-01-04 11:16:54.85	232.53	24.65	-46.7	-49.0	18.7	0.00e+00	0	43	0	354418688	64	4854
2026-01-04 11:16:55.85	232.78	24.74	-46.7	-49.0	18.8	0.00e+00	0	43	0	356515840	64	4861
2026-01-04 11:16:56.85	233.03	24.82	-46.9	-49.3	18.6	0.00e+00	0	43	0	358612992	64	4990
2026-01-04 11:16:57.85	233.27	24.91	-47.0	-49.4	18.4	0.00e+00	0	43	0	360710144	65	4795
2026-01-04 11:16:58.85	233.52	24.99	-47.3	-49.8	18.0	0.00e+00	0	43	0	362807296	65	5021
2026-01-04 11:16:59.86	233.78	25.08	-47.4	-49.9	18.0	0.00e+00	0	43	0	363855872	65	5093
2026-01-04 11:17:00.86	234.03	25.16	-47.6	-50.2	17.8	0.00e+00	0	43	0	365953024	65	5242
2026-01-04 11:17:01.93	234.30	25.25	-47.1	-49.5	18.3	0.00e+00	0	43	0	368050176	65	4851
2026-01-04 11:17:02.82	234.53	25.32	-47.2	-49.6	18.2	0.00e+00	0	42	0	370147328	65	4922
2026-01-04 11:17:03.96	234.82	25.42	-47.2	-49.6	18.3	0.00e+00	0	43	0	372244480	65	4923
2026-01-04 11:17:04.82	235.04	25.49	-47.0	-49.4	18.5	0.00e+00	0	43	0	373293056	65	4764
2026-01-04 11:17:05.97	235.34	25.59	-47.1	-49.5	18.4	0.00e+00	0	42	0	375390208	65	4834
2026-01-04 11:17:06.83	235.56	25.66	-47.3	-49.7	18.2	0.00e+00	0	43	0	377487360	65	4948
2026-01-04 11:17:07.97	235.86	25.75	-47.3	-49.8	18.1	0.00e+00	0	43	0	379584512	65	4997
2026-01-04 11:17:08.82	236.08	25.82	-47.2	-49.6	18.2	0.00e+00	0	43	0	380633088	65	4909
2026-01-04 11:17:09.97	236.39	25.91	-47.3	-49.7	18.3	0.00e+00	0	43	0	383778816	65	4953
2026-01-04 11:17:10.83	236.62	25.98	-47.2	-49.6	18.3	0.00e+00	0	43	0	384827392	65	4925
2026-01-04 11:17:11.98	236.92	26.07	-47.2	-49.6	18.3	0.00e+00	0	43	0	386924544	65	4895
2026-01-04 11:17:12.84	237.15	26.14	-47.1	-49.4	18.5	0.00e+00	0	43	0	389021696	65	4814
2026-01-04 11:17:14.01	237.47	26.23	-47.0	-49.4	18.6	0.00e+00	0	43	0	391118848	65	4763
2026-01-04 11:17:14.87	237.70	26.30	-46.7	-49.0	18.9	0.00e+00	0	43	0	392167424	65	4548
2026-01-04 11:17:16.09	238.03	26.40	-46.7	-49.0	18.9	0.00e+00	0	43	0	394264576	65	4574
2026-01-04 11:17:16.94	238.27	26.46	-46.8	-49.1	18.8	0.00e+00	0	43	0	396361728	65	4610
2026-01-04 11:17:18.09	238.58	26.55	-46.7	-49.0	18.8	0.00e+00	0	43	0	398458880	65	4589
2026-01-04 11:17:18.95	238.82	26.62	-46.9	-49.3	18.6	0.00e+00	0	43	0	400556032	65	4707
2026-01-04 11:17:20.10	239.14	26.71	-47.2	-49.7	18.3	0.00e+00	0	43	0	402653184	65	4943
2026-01-04 11:17:21.00	239.39	26.78	-47.4	-49.9	18.0	0.00e+00	0	43	0	403701760	65	5087
2026-01-04 11:17:22.02	239.68	26.85	-47.7	-50.2	17.8	0.00e+00	0	43	0	405798912	66	4981
2026-01-04 11:17:23.03	239.96	26.93	-47.6	-50.1	17.8	0.00e+00	0	43	0	407896064	66	4915
2026-01-04 11:17:24.03	240.24	27.00	-47.7	-50.2	17.8	0.00e+00	0	43	0	409993216	66	4950
2026-01-04 11:17:25.03	240.53	27.08	-47.6	-50.1	17.8	0.00e+00	0	43	0	411041792	66	4899
2026-01-04 11:17:26.04	240.81	27.15	-47.3	-49.8	18.2	0.00e+00	0	43	0	413138944	66	4725
2026-01-04 11:17:27.04	241.10	27.22	-47.2	-49.6	18.3	0.00e+00	0	43	0	415236096	66	4612
2026-01-04 11:17:28.04	241.39	27.30	-47.1	-49.5	18.4	0.00e+00	0	43	0	417333248	66	4554
2026-01-04 11:17:29.04	241.68	27.37	-47.1	-49.5	18.4	0.00e+00	0	43	0	419430400	65	4829
2026-01-04 11:17:30.05	241.97	27.44	-46.9	-49.3	18.6	0.00e+00	0	43	0	420478976	65	4733
2026-01-04 11:17:31.07	242.27	27.51	-47.0	-49.4	18.5	0.00e+00	0	43	0	422576128	65	4766
2026-01-04 11:17:32.07	242.56	27.58	-46.9	-49.3	18.6	0.00e+00	0	43	0	424673280	65	4707
2026-01-04 11:17:33.17	242.88	27.66	-47.1	-49.5	18.3	0.00e+00	0	43	0	426770432	65	4848
2026-01-04 11:17:34.03	243.14	27.72	-47.2	-49.6	18.4	0.00e+00	0	43	0	428867584	65	4880
2026-01-04 11:17:35.17	243.48	27.80	-47.8	-50.3	17.7	0.00e+00	0	43	0	430964736	66	5030
2026-01-04 11:17:36.03	243.73	27.85	-48.1	-50.8	17.2	0.00e+00	0	43	0	432013312	67	5005
2026-01-04 11:17:37.18	244.08	27.93	-48.3	-51.0	17.0	0.00e+00	0	43	0	434110464	67	5146
2026-01-04 11:17:38.04	244.34	27.99	-48.1	-50.8	17.2	0.00e+00	0	43	0	436207616	67	4996
2026-01-04 11:17:39.18	244.68	28.06	-47.8	-50.3	17.7	0.00e+00	0	43	0	438304768	67	4722
2026-01-04 11:17:40.04	244.94	28.12	-47.4	-49.8	18.2	0.00e+00	0	43	0	439353344	66	4713
2026-01-04 11:17:41.19	245.29	28.19	-47.1	-49.5	18.4	0.00e+00	0	43	0	441450496	66	4560
2026-01-04 11:17:42.05	245.55	28.24	-46.8	-49.1	18.8	0.00e+00	0	43	0	443547648	65	4635
2026-01-04 11:17:43.20	245.90	28.32	-47.2	-49.6	18.3	0.00e+00	0	43	0	445644800	65	4884
2026-01-04 11:17:44.06	246.17	28.37	-47.4	-49.9	18.0	0.00e+00	0	43	0	446693376	65	5058
2026-01-04 11:17:45.22	246.53	28.44	-47.8	-50.4	17.7	0.00e+00	0	43	0	449839104	66	5050
2026-01-04 11:17:46.08	246.79	28.49	-48.0	-50.6	17.4	0.00e+00	0	43	0	450887680	66	5160
2026-01-04 11:17:47.29	247.17	28.56	-47.9	-50.4	17.6	0.00e+00	0	43	0	452984832	66	5098
2026-01-04 11:17:48.15	247.44	28.61	-47.9	-50.4	17.6	0.00e+00	0	43	0	455081984	66	5091
2026-01-04 11:17:49.29	247.79	28.68	-48.0	-50.6	17.5	0.00e+00	0	43	0	457179136	67	4882
2026-01-04 11:17:50.15	248.07	28.73	-48.0	-50.6	17.4	0.00e+00	0	43	0	458227712	67	4912
2026-01-04 11:17:51.30	248.43	28.79	-48.0	-50.7	17.4	0.00e+00	0	43	0	460324864	67	4948
2026-01-04 11:17:52.16	248.70	28.84	-47.9	-50.5	17.5	0.00e+00	0	43	0	462422016	67	4819
2026-01-04 11:17:53.31	249.07	28.90	-47.9	-50.4	17.6	0.00e+00	0	43	0	464519168	67	4794
2026-01-04 11:17:54.17	249.34	28.95	-47.8	-50.4	17.6	0.00e+00	0	43	0	466616320	67	4780
2026-01-04 11:17:55.32	249.71	29.01	-48.4	-51.2	16.9	0.00e+00	0	43	0	468713472	67	5225
2026-01-04 11:17:56.30	250.02	29.06	-49.0	-51.9	16.4	0.00e+00	0	43	0	469762048	68	5386
2026-01-04 11:17:57.30	250.34	29.11	-49.1	-52.1	16.2	0.00e+00	0	43	0	471859200	69	5190
2026-01-04 11:17:58.31	250.67	29.16	-49.1	-52.1	16.2	0.00e+00	0	43	0	473956352	69	5190
2026-01-04 11:17:59.31	250.99	29.21	-49.0	-52.0	16.2	0.00e+00	0	43	0	476053504	69	5121
2026-01-04 11:18:00.31	251.32	29.26	-48.9	-51.8	16.5	0.00e+00	0	43	0	478150656	69	5013
2026-01-04 11:18:01.31	251.64	29.31	-49.1	-52.1	16.2	0.00e+00	0	43	0	479199232	69	5180
2026-01-04 11:18:02.32	251.97	29.36	-49.3	-52.2	16.1	0.00e+00	0	43	0	481296384	69	5277
2026-01-04 11:18:03.32	252.30	29.40	-49.6	-52.7	15.5	0.00e+00	0	43	0	483393536	69	5582
2026-01-04 11:18:04.33	252.63	29.45	-50.0	-53.4	14.9	0.00e+00	0	43	0	485490688	70	5670
2026-01-04 11:18:05.33	252.96	29.49	-50.3	-53.9	14.4	1.50e-06	0	43	0	487587840	71	5716
2026-01-04 11:18:06.33	253.29	29.53	-50.3	-53.9	14.5	1.50e-06	0	43	0	488636416	71	5679
2026-01-04 11:18:07.37	253.64	29.58	-49.7	-53.1	15.3	0.00e+00	0	43	0	490733568	71	5176
2026-01-04 11:18:08.37	253.97	29.62	-49.0	-52.1	16.1	0.00e+00	0	43	0	492830720	70	4891
2026-01-04 11:18:09.43	254.32	29.66	-48.4	-51.3	16.9	0.00e+00	0	43	0	494927872	68	5018
2026-01-04 11:18:10.32	254.62	29.70	-48.4	-51.4	16.9	0.00e+00	0	43	0	495976448	68	5050
2026-01-04 11:18:11.33	254.95	29.73	-48.4	-51.3	16.9	0.00e+00	0	43	0	498073600	68	4995
2026-01-04 11:18:12.33	255.29	29.77	-49.1	-52.4	16.0	0.00e+00	0	43	0	500170752	68	5657
2026-01-04 11:18:13.33	255.63	29.81	-49.2	-52.4	15.9	0.00e+00	0	43	0	502267904	69	5380
2026-01-04 11:18:14.34	255.96	29.84	-49.1	-52.2	16.1	0.00e+00	0	43	0	504365056	69	5251
2026-01-04 11:18:15.34	256.30	29.88	-49.0	-52.1	16.2	0.00e+00	0	43	0	505413632	69	5165
2026-01-04 11:18:16.34	256.64	29.91	-49.2	-52.3	16.0	0.00e+00	0	43	0	507510784	69	5284
2026-01-04 11:18:17.35	256.98	29.94	-49.6	-52.8	15.6	0.00e+00	0	43	0	509607936	69	5611
2026-01-04 11:18:18.35	257.32	29.97	-49.6	-52.8	15.6	0.00e+00	0	43	0	511705088	70	5328
2026-01-04 11:18:19.36	257.66	30.00	-49.2	-52.2	16.1	0.00e+00	0	43	0	513802240	70	4963
2026-01-04 11:18:20.36	258.00	30.03	-48.9	-51.8	16.5	0.00e+00	0	43	0	514850816	69	4990
2026-01-04 11:18:21.38	258.35	30.06	-48.2	-50.9	17.2	0.00e+00	0	43	0	516947968	68	4785
2026-01-04 11:18:22.38	258.69	30.08	-47.8	-50.4	17.7	0.00e+00	0	43	0	519045120	67	4770
2026-01-04 11:18:23.46	259.06	30.11	-48.2	-50.9	17.2	0.00e+00	0	43	0	521142272	67	5054
2026-01-04 11:18:24.35	259.37	30.13	-48.5	-51.3	16.7	0.00e+00	0	43	0	522190848	67	5309
2026-01-04 11:18:25.50	259.76	30.16	-48.5	-51.4	16.8	0.00e+00	0	43	0	525336576	68	5060
2026-01-04 11:18:26.36	260.06	30.18	-48.2	-50.9	17.3	0.00e+00	0	43	0	526385152	68	4788
2026-01-04 11:18:27.50	260.45	30.20	-47.6	-50.1	17.9	0.00e+00	0	43	0	528482304	67	4627
2026-01-04 11:18:28.36	260.75	30.22	-47.6	-50.2	18.0	0.00e+00	0	43	0	530579456	66	4934
2026-01-04 11:18:29.51	261.14	30.24	-47.9	-50.6	17.4	0.00e+00	0	43	0	532676608	66	5210
2026-01-04 11:18:30.37	261.44	30.26	-48.2	-51.0	17.1	0.00e+00	0	43	0	533725184	67	5116
2026-01-04 11:18:31.52	261.84	30.28	-47.9	-50.5	17.6	0.00e+00	0	43	0	535822336	67	4841
2026-01-04 11:18:32.38	262.13	30.29	-47.5	-49.9	18.0	0.00e+00	0	43	0	537919488	66	4813
2026-01-04 11:18:33.52	262.53	30.31	-47.0	-49.4	18.6	0.00e+00	0	43	0	540016640	66	4505
2026-01-04 11:18:34.38	262.83	30.32	-47.2	-49.6	18.4	0.00e+00	0	43	0	541065216	66	4614
2026-01-04 11:18:35.53	263.23	30.33	-47.0	-49.3	18.6	0.00e+00	0	43	0	544210944	65	4754
2026-01-04 11:18:36.39	263.52	30.34	-47.1	-49.6	18.3	0.00e+00	0	43	0	545259520	65	4897
2026-01-04 11:18:37.54	263.92	30.35	-47.4	-49.8	18.1	0.00e+00	0	43	0	547356672	65	5041
2026-01-04 11:18:38.40	264.22	30.36	-47.2	-49.7	18.2	0.00e+00	0	43	0	549453824	65	4944
2026-01-04 11:18:39.54	264.62	30.37	-47.3	-49.8	18.2	0.00e+00	0	43	0	551550976	65	4984
2026-01-04 11:18:40.40	264.92	30.37	-47.7	-50.2	17.9	0.00e+00	0	43	0	552599552	66	4955
2026-01-04 11:18:41.55	265.32	30.38	-47.9	-50.5	17.6	0.00e+00	0	43	0	554696704	67	4825
2026-01-04 11:18:42.41	265.62	30.38	-48.4	-51.1	17.0	0.00e+00	0	43	0	556793856	67	5174
2026-01-04 11:18:43.55	266.01	30.39	-48.9	-51.8	16.5	0.00e+00	0	43	0	558891008	68	5287
2026-01-04 11:18:44.41	266.31	30.39	-49.1	-52.1	16.2	0.00e+00	0	43	0	559939584	68	5478
2026-01-04 11:18:45.56	266.71	30.39	-49.1	-52.0	16.3	0.00e+00	0	43	0	562036736	69	5117
2026-01-04 11:18:46.42	267.01	30.39	-49.0	-51.8	16.5	0.00e+00	0	43	0	564133888	69	5009
2026-01-04 11:18:47.57	267.41	30.39	-48.5	-51.2	17.0	0.00e+00	0	43	0	566231040	69	4691
2026-01-04 11:18:48.42	267.71	30.39	-48.5	-51.2	17.0	0.00e+00	0	43	0	568328192	69	4663
2026-01-04 11:18:49.57	268.11	30.38	-48.7	-51.5	16.7	0.00e+00	0	43	0	570425344	68	5157
2026-01-04 11:18:50.43	268.41	30.38	-48.6	-51.4	16.9	0.00e+00	0	43	0	571473920	68	5077
2026-01-04 11:18:51.57	268.80	30.37	-48.2	-50.9	17.3	0.00e+00	0	43	0	573571072	68	4785
2026-01-04 11:18:52.43	269.10	30.36	-47.7	-50.2	17.8	0.00e+00	0	43	0	575668224	67	4672
2026-01-04 11:18:53.58	269.50	30.35	-47.5	-50.0	18.0	0.00e+00	0	43	0	577765376	66	4827
2026-01-04 11:18:54.44	269.80	30.35	-47.5	-50.1	18.0	0.00e+00	0	43	0	578813952	66	4871
2026-01-04 11:18:55.59	270.20	30.33	-47.8	-50.3	17.6	0.00e+00	0	43	0	580911104	66	5039
2026-01-04 11:18:56.44	270.49	30.32	-48.3	-50.9	17.1	0.00e+00	0	43	0	583008256	67	5088
2026-01-04 11:18:57.59	270.89	30.31	-48.5	-51.2	16.8	0.00e+00	0	43	0	585105408	67	5252
2026-01-04 11:18:58.45	271.19	30.30	-48.4	-51.1	16.9	0.00e+00	0	43	0	586153984	67	5168
2026-01-04 11:18:59.59	271.58	30.28	-48.2	-50.9	17.2	0.00e+00	0	43	0	589299712	67	5044
2026-01-04 11:19:00.74	271.98	30.26	-48.1	-50.7	17.3	0.00e+00	0	43	0	591396864	67	4961
2026-01-04 11:19:01.77	272.33	30.24	-48.4	-51.1	16.9	0.00e+00	0	43	0	592445440	67	5194
2026-01-04 11:19:02.95	272.74	30.22	-49.2	-52.2	16.1	0.00e+00	0	43	0	595591168	68	5529
2026-01-04 11:19:03.83	273.04	30.20	-49.3	-52.3	15.9	0.00e+00	0	43	0	596639744	69	5313
2026-01-04 11:19:04.98	273.44	30.18	-49.3	-52.3	16.1	0.00e+00	0	43	0	598736896	69	5321
2026-01-04 11:19:05.84	273.73	30.16	-48.8	-51.6	16.6	0.00e+00	0	43	0	600834048	69	4894
2026-01-04 11:19:07.21	274.20	30.13	-48.7	-51.5	16.8	0.00e+00	0	43	0	602931200	69	4840
2026-01-04 11:19:07.92	274.45	30.11	-48.9	-51.8	16.5	0.00e+00	0	43	0	603979776	69	5005
2026-01-04 11:19:09.21	274.89	30.08	-49.6	-52.8	15.6	0.00e+00	0	43	0	607125504	69	5600
2026-01-04 11:19:09.94	275.13	30.06	-49.6	-52.8	15.5	0.00e+00	0	43	0	608174080	70	5324
2026-01-04 11:19:11.23	275.57	30.02	-49.4	-52.4	15.9	0.00e+00	0	43	0	610271232	70	5072
2026-01-04 11:19:12.04	275.85	30.00	-49.1	-51.9	16.5	0.00e+00	0	43	0	612368384	69	5098
2026-01-04 11:19:13.51	276.35	29.95	-48.9	-51.7	16.6	0.00e+00	0	43	0	614465536	69	4941
2026-01-04 11:19:14.23	276.59	29.93	-48.9	-51.7	16.5	0.00e+00	0	43	0	616562688	69	4978
2026-01-04 11:19:15.51	277.02	29.89	-49.3	-52.3	16.0	0.00e+00	0	43	0	618659840	69	5320
2026-01-04 11:19:16.23	277.27	29.87	-49.2	-52.2	16.2	0.00e+00	0	43	0	619708416	69	5226
2026-01-04 11:19:17.52	277.70	29.82	-49.1	-52.0	16.3	0.00e+00	0	43	0	622854144	69	5140
2026-01-04 11:19:18.24	277.94	29.80	-49.1	-52.0	16.2	0.00e+00	0	43	0	623902720	69	5145
2026-01-04 11:19:19.52	278.37	29.75	-49.6	-52.7	15.7	0.00e+00	0	43	0	625999872	69	5568
2026-01-04 11:19:20.24	278.61	29.72	-49.7	-52.9	15.4	0.00e+00	0	43	0	627048448	70	5399
2026-01-04 11:19:21.53	279.04	29.67	-49.9	-53.3	15.1	0.00e+00	0	43	0	630194176	70	5609
2026-01-04 11:19:22.25	279.28	29.65	-49.8	-53.2	15.0	0.00e+00	0	43	0	631242752	70	5529
2026-01-04 11:19:23.54	279.71	29.59	-49.9	-53.3	15.1	0.00e+00	0	43	0	633339904	70	5594
2026-01-04 11:19:24.25	279.94	29.57	-49.8	-53.1	15.2	0.00e+00	0	43	0	635437056	70	5524
2026-01-04 11:19:25.55	280.37	29.51	-50.1	-53.4	14.9	0.00e+00	0	43	0	637534208	70	5705
2026-01-04 11:19:26.27	280.61	29.48	-50.1	-53.5	14.8	0.00e+00	0	43	0	638582784	71	5439
2026-01-04 11:19:27.61	281.05	29.42	-50.3	-53.8	14.5	0.00e+00	0	43	0	641728512	71	5624
2026-01-04 11:19:28.33	281.28	29.39	-50.3	-53.8	14.6	0.00e+00	0	43	0	642777088	71	5641
2026-01-04 11:19:29.73	281.74	29.32	-49.8	-53.0	15.3	0.00e+00	0	43	0	644874240	71	5123
2026-01-04 11:19:30.45	281.97	29.29	-49.9	-53.1	15.2	0.00e+00	0	43	0	646971392	71	5201
2026-01-04 11:19:31.73	282.39	29.23	-50.7	-54.4	13.9	7.00e-07	0	43	0	649068544	72	5681
2026-01-04 11:19:32.45	282.62	29.19	-51.4	-55.6	12.7	1.67e-05	0	43	0	650117120	73	6175
2026-01-04 11:19:33.74	283.04	29.13	-52.3	-57.7	10.7	1.66e-03	0	43	0	653262848	75	6979
2026-01-04 11:19:34.46	283.27	29.09	-51.9	-56.8	11.3	2.53e-03	0	43	0	654311424	75	6332
2026-01-04 11:19:35.75	283.68	29.03	-51.2	-55.3	13.0	3.19e-04	0	43	0	656408576	74	5651
2026-01-04 11:19:36.46	283.91	28.99	-50.5	-54.1	14.1	2.82e-05	0	43	0	658505728	72	5492
2026-01-04 11:19:37.75	284.32	28.92	-50.0	-53.5	14.9	0.00e+00	0	43	0	660602880	71	5406
2026-01-04 11:19:38.47	284.55	28.88	-50.0	-53.5	14.8	0.00e+00	0	43	0	661651456	71	5411
2026-01-04 11:19:39.76	284.96	28.81	-49.6	-52.9	15.4	0.00e+00	0	43	0	663748608	71	5049
2026-01-04 11:19:40.48	285.18	28.77	-49.8	-53.1	15.1	0.00e+00	0	43	0	665845760	71	5182
2026-01-04 11:19:41.77	285.59	28.70	-49.5	-52.6	15.7	0.00e+00	0	43	0	667942912	70	5180
2026-01-04 11:19:42.48	285.81	28.66	-49.2	-52.2	16.1	0.00e+00	0	43	0	668991488	70	4962
2026-01-04 11:19:43.77	286.21	28.58	-48.9	-51.7	16.6	0.00e+00	0	43	0	672137216	69	4973
2026-01-04 11:19:44.68	286.49	28.53	-48.9	-51.7	16.5	0.00e+00	0	43	0	673185792	69	4950
2026-01-04 11:19:45.70	286.81	28.47	-49.0	-51.8	16.5	0.00e+00	0	43	0	675282944	69	5019
2026-01-04 11:19:46.70	287.12	28.41	-49.2	-52.1	16.3	0.00e+00	0	43	0	677380096	69	5174
2026-01-04 11:19:47.70	287.43	28.35	-49.4	-52.4	15.9	0.00e+00	0	43	0	679477248	69	5370
2026-01-04 11:19:48.71	287.73	28.28	-49.4	-52.4	16.0	0.00e+00	0	43	0	680525824	69	5369
2026-01-04 11:19:49.71	288.04	28.22	-49.0	-51.9	16.4	0.00e+00	0	43	0	682622976	69	5052
2026-01-04 11:19:50.71	288.34	28.16	-48.9	-51.7	16.6	0.00e+00	0	43	0	684720128	69	4947
2026-01-04 11:19:51.71	288.65	28.09	-48.9	-51.7	16.5	0.00e+00	0	43	0	686817280	69	4954
2026-01-04 11:19:52.74	288.96	28.03	-48.8	-51.6	16.7	0.00e+00	0	43	0	688914432	69	4882
2026-01-04 11:19:53.77	289.26	27.96	-49.2	-52.1	16.1	0.00e+00	0	43	0	689963008	69	5190
2026-01-04 11:19:54.77	289.56	27.89	-49.1	-52.0	16.3	0.00e+00	0	43	0	692060160	69	5108
2026-01-04 11:19:55.84	289.88	27.82	-49.0	-51.9	16.3	0.00e+00	0	43	0	694157312	69	5066
2026-01-04 11:19:56.73	290.15	27.76	-48.9	-51.7	16.6	0.00e+00	0	43	0	696254464	69	4964
2026-01-04 11:19:57.88	290.48	27.68	-49.1	-52.0	16.3	0.00e+00	0	43	0	698351616	69	5137
2026-01-04 11:19:58.74	290.74	27.63	-49.3	-52.2	16.0	0.00e+00	0	43	0	699400192	69	5277
2026-01-04 11:19:59.88	291.07	27.55	-50.0	-53.0	15.8	0.00e+00	0	43	0	701497344	70	5460
2026-01-04 11:20:00.74	291.32	27.49	-50.2	-53.4	15.4	0.00e+00	0	43	0	703594496	71	5387
2026-01-04 11:20:01.89	291.65	27.41	-50.3	-53.6	15.2	0.00e+00	0	43	0	705691648	71	5482
2026-01-04 11:20:02.75	291.90	27.34	-50.3	-53.5	15.3	0.00e+00	0	43	0	706740224	71	5460
2026-01-04 11:20:03.90	292.23	27.26	-50.0	-53.0	16.0	0.00e+00	0	43	0	709885952	71	5104
2026-01-04 11:20:04.75	292.48	27.20	-50.1	-53.1	15.8	0.00e+00	0	43	0	710934528	71	5208
2026-01-04 11:20:05.90	292.80	27.12	-50.4	-53.6	15.3	0.00e+00	0	43	0	713031680	71	5467
2026-01-04 11:20:06.76	293.05	27.05	-50.9	-54.4	14.5	0.00e+00	0	43	0	715128832	72	5663
2026-01-04 11:20:07.91	293.37	26.97	-51.3	-55.1	13.8	3.80e-06	0	43	0	717225984	73	5790
2026-01-04 11:20:08.76	293.61	26.91	-51.4	-55.2	13.7	7.60e-06	0	43	0	718274560	73	5886
2026-01-04 11:20:09.91	293.93	26.82	-50.8	-54.3	14.6	1.50e-06	0	43	0	720371712	73	5294
2026-01-04 11:20:10.77	294.17	26.76	-50.3	-53.5	15.3	0.00e+00	0	43	0	722468864	72	5127
2026-01-04 11:20:12.03	294.52	26.66	-50.0	-53.1	15.8	0.00e+00	0	43	0	724566016	71	5167
2026-01-04 11:20:12.79	294.73	26.60	-50.1	-53.2	15.7	0.00e+00	0	43	0	725614592	71	5226
2026-01-04 11:20:14.08	295.08	26.50	-50.2	-53.3	15.6	0.00e+00	0	43	0	728760320	71	5302
2026-01-04 11:20:14.80	295.28	26.45	-50.6	-53.9	15.0	0.00e+00	0	43	0	729808896	71	5721
2026-01-04 11:20:16.08	295.63	26.35	-50.5	-53.8	15.1	0.00e+00	0	43	0	731906048	72	5305
2026-01-04 11:20:16.87	295.84	26.29	-50.3	-53.5	15.3	0.00e+00	0	43	0	734003200	72	5114
2026-01-04 11:20:18.04	296.16	26.19	-50.0	-53.0	15.8	0.00e+00	0	43	0	736100352	71	5127
2026-01-04 11:20:19.11	296.44	26.11	-50.0	-52.9	16.0	0.00e+00	0	43	0	738197504	71	5078
2026-01-04 11:20:19.97	296.67	26.04	-50.3	-53.4	15.4	0.00e+00	0	43	0	739246080	71	5383
2026-01-04 11:20:21.12	296.98	25.95	-50.5	-53.7	15.1	0.00e+00	0	43	0	741343232	72	5258
2026-01-04 11:20:21.98	297.20	25.88	-50.6	-54.0	14.9	0.00e+00	0	43	0	743440384	72	5424
2026-01-04 11:20:23.12	297.50	25.79	-50.5	-53.9	14.9	0.00e+00	0	43	0	745537536	72	5373
2026-01-04 11:20:24.32	297.82	25.69	-50.2	-53.3	15.4	0.00e+00	0	43	0	747634688	72	5041
2026-01-04 11:20:25.18	298.04	25.62	-49.7	-52.6	16.1	0.00e+00	0	43	0	749731840	71	4925
2026-01-04 11:20:26.32	298.33	25.53	-49.3	-52.1	16.7	0.00e+00	0	43	0	751828992	70	4888
2026-01-04 11:20:27.18	298.55	25.46	-49.2	-51.9	16.9	0.00e+00	0	43	0	752877568	70	4809
2026-01-04 11:20:28.33	298.85	25.36	-49.1	-51.9	16.8	0.00e+00	0	43	0	754974720	70	4795
2026-01-04 11:20:29.19	299.07	25.29	-49.0	-51.8	16.9	0.00e+00	0	43	0	757071872	70	4726
2026-01-04 11:20:30.33	299.35	25.19	-49.3	-52.2	16.6	0.00e+00	0	43	0	759169024	70	4962
2026-01-04 11:20:31.19	299.57	25.12	-49.1	-51.9	16.9	0.00e+00	0	43	0	760217600	70	4796
2026-01-04 11:20:32.34	299.86	25.03	-49.0	-51.7	16.9	0.00e+00	0	43	0	762314752	69	4972
2026-01-04 11:20:33.20	300.07	24.95	-48.9	-51.5	17.2	0.00e+00	0	43	0	764411904	69	4865
2026-01-04 11:20:34.35	300.36	24.86	-48.6	-51.2	17.2	0.00e+00	0	43	0	766509056	68	4972
2026-01-04 11:20:35.21	300.57	24.78	-48.8	-51.5	16.9	0.00e+00	0	43	0	767557632	68	5152
2026-01-04 11:20:36.35	300.85	24.69	-49.2	-52.0	16.6	0.00e+00	0	43	0	770703360	69	5125
2026-01-04 11:20:37.21	301.06	24.61	-49.3	-52.1	16.6	0.00e+00	0	43	0	771751936	69	5208
2026-01-04 11:20:38.36	301.34	24.52	-49.0	-51.8	17.0	0.00e+00	0	43	0	773849088	69	4991
2026-01-04 11:20:39.22	301.54	24.44	-48.7	-51.3	17.3	0.00e+00	0	43	0	775946240	69	4725
2026-01-04 11:20:40.36	301.82	24.34	-47.8	-50.3	18.1	0.00e+00	0	43	0	778043392	67	4712
2026-01-04 11:20:41.22	302.02	24.27	-47.3	-49.7	18.5	0.00e+00	0	43	0	779091968	66	4652
2026-01-04 11:20:42.37	302.29	24.17	-47.2	-49.5	18.7	0.00e+00	0	43	0	781189120	66	4576
2026-01-04 11:20:43.23	302.50	24.10	-47.6	-49.9	18.5	0.00e+00	0	43	0	783286272	66	4795
2026-01-04 11:20:44.37	302.76	24.00	-47.9	-50.3	18.1	0.00e+00	0	43	0	785383424	66	5005
2026-01-04 11:20:45.24	302.97	23.92	-48.2	-50.7	17.8	0.00e+00	0	43	0	786432000	67	4966
2026-01-04 11:20:46.38	303.23	23.82	-48.5	-51.0	17.3	0.00e+00	0	43	0	789577728	67	5157
2026-01-04 11:20:47.24	303.43	23.75	-48.5	-51.1	17.4	0.00e+00	0	43	0	790626304	67	5178
2026-01-04 11:20:48.50	303.72	23.64	-48.1	-50.6	17.7	0.00e+00	0	43	0	792723456	67	4886
2026-01-04 11:20:49.23	303.89	23.57	-48.0	-50.5	17.9	0.00e+00	0	43	0	794820608	67	4816
2026-01-04 11:20:50.52	304.18	23.46	-47.9	-50.3	18.0	0.00e+00	0	43	0	796917760	67	4747
2026-01-04 11:20:51.24	304.34	23.40	-48.1	-50.6	17.7	0.00e+00	0	43	0	797966336	67	4916
2026-01-04 11:20:52.53	304.63	23.28	-48.1	-50.7	17.6	0.00e+00	0	43	0	800063488	67	4965
2026-01-04 11:20:53.24	304.79	23.22	-48.4	-51.0	17.3	0.00e+00	0	43	0	802160640	67	5154
2026-01-04 11:20:54.54	305.08	23.11	-48.2	-50.8	17.5	0.00e+00	0	43	0	804257792	67	4993
2026-01-04 11:20:55.25	305.24	23.04	-48.1	-50.6	17.7	0.00e+00	0	43	0	805306368	67	4911
2026-01-04 11:20:56.54	305.52	22.93	-47.5	-49.9	18.2	7.00e-07	0	43	0	808452096	67	4533
2026-01-04 11:20:57.26	305.68	22.86	-47.0	-49.3	18.7	0.00e+00	0	43	0	809500672	66	4460
2026-01-04 11:20:58.55	305.96	22.75	-47.1	-49.4	18.7	0.00e+00	0	43	0	811597824	65	4789
2026-01-04 11:20:59.26	306.11	22.69	-47.7	-50.1	18.2	0.00e+00	0	43	0	813694976	66	4906
2026-01-04 11:21:00.55	306.39	22.57	-48.1	-50.7	17.6	0.00e+00	0	43	0	815792128	66	5241
2026-01-04 11:21:01.27	306.54	22.51	-48.6	-51.3	17.0	0.00e+00	0	43	0	816840704	67	5311
2026-01-04 11:21:02.56	306.81	22.39	-49.3	-52.3	16.2	0.00e+00	0	43	0	818937856	69	5286
2026-01-04 11:21:03.28	306.97	22.33	-49.3	-52.3	16.2	0.00e+00	0	43	0	821035008	69	5287
2026-01-04 11:21:04.57	307.24	22.21	-49.0	-51.8	16.7	0.00e+00	0	43	0	823132160	69	5034
2026-01-04 11:21:05.28	307.38	22.15	-48.6	-51.3	17.1	0.00e+00	0	43	0	824180736	69	4758
2026-01-04 11:21:06.57	307.65	22.03	-47.8	-50.3	17.9	0.00e+00	0	43	0	827326464	67	4707
2026-01-04 11:21:07.35	307.81	21.96	-47.4	-49.8	18.4	0.00e+00	0	43	0	828375040	66	4721
2026-01-04 11:21:08.64	308.08	21.85	-47.4	-49.8	18.3	0.00e+00	0	43	0	830472192	66	4757
2026-01-04 11:21:09.36	308.22	21.78	-47.6	-50.0	18.2	0.00e+00	0	43	0	832569344	66	4833
2026-01-04 11:21:10.65	308.49	21.67	-47.9	-50.5	17.8	0.00e+00	0	43	0	834666496	66	5112
2026-01-04 11:21:11.36	308.63	21.60	-48.0	-50.6	17.6	0.00e+00	0	43	0	835715072	66	5191
2026-01-04 11:21:12.66	308.89	21.49	-47.7	-50.1	18.0	0.00e+00	0	43	0	837812224	66	4922
2026-01-04 11:21:13.59	309.07	21.40	-47.7	-50.1	18.0	0.00e+00	0	43	0	839909376	66	4924
2026-01-04 11:21:14.92	309.34	21.28	-47.9	-50.4	17.8	0.00e+00	0	43	0	843055104	66	5071
2026-01-04 11:21:15.67	309.49	21.22	-48.0	-50.6	17.5	0.00e+00	0	43	0	844103680	66	5189
2026-01-04 11:21:17.26	309.80	21.07	-49.0	-51.8	16.8	0.00e+00	0	43	0	847249408	68	5315
2026-01-04 11:21:18.13	309.96	21.00	-49.7	-52.8	15.6	0.00e+00	0	43	0	848297984	70	5338
2026-01-04 11:21:19.72	310.27	20.85	-50.1	-53.7	14.9	0.00e+00	0	43	0	851443712	71	5554
2026-01-04 11:21:20.29	310.38	20.80	-50.2	-53.9	14.6	0.00e+00	0	43	0	852492288	71	5674
2026-01-04 11:21:21.87	310.68	20.66	-49.8	-53.3	15.1	1.50e-06	0	43	0	855638016	71	5335
2026-01-04 11:21:22.49	310.80	20.60	-49.6	-52.9	15.5	0.00e+00	0	43	0	856686592	70	5392
2026-01-04 11:21:24.07	311.10	20.46	-48.8	-51.8	16.5	0.00e+00	0	43	0	859832320	69	5015
2026-01-04 11:21:24.70	311.21	20.41	-49.1	-52.2	16.3	0.00e+00	0	43	0	860880896	69	5233
2026-01-04 11:21:26.27	311.50	20.26	-49.0	-51.9	16.5	7.00e-07	0	43	0	864026624	69	5100
2026-01-04 11:21:26.88	311.62	20.21	-50.0	-53.3	15.7	0.00e+00	0	43	0	865075200	70	5614
2026-01-04 11:21:28.47	311.91	20.07	-49.5	-52.5	16.2	0.00e+00	0	43	0	868220928	70	5132
2026-01-04 11:21:29.04	312.01	20.02	-49.0	-51.8	16.5	0.00e+00	0	43	0	869269504	69	5038
2026-01-04 11:21:30.64	312.30	19.87	-48.6	-51.6	16.1	7.00e-07	0	43	0	872415232	69	4918
2026-01-04 11:21:31.64	312.48	19.78	-48.6	-51.4	16.8	0.00e+00	0	43	0	873463808	69	4767
2026-01-04 11:21:32.64	312.66	19.69	-47.6	-50.1	17.9	0.00e+00	0	43	0	875560960	67	4601
2026-01-04 11:21:33.65	312.84	19.60	-47.4	-49.8	18.2	0.00e+00	0	43	0	877658112	66	4752
2026-01-04 11:21:34.65	313.02	19.51	-47.5	-50.0	18.1	0.00e+00	0	43	0	879755264	66	4824
2026-01-04 11:21:35.65	313.19	19.42	-47.3	-49.7	18.3	0.00e+00	0	43	0	881852416	66	4698
2026-01-04 11:21:36.65	313.37	19.34	-47.4	-49.9	18.1	0.00e+00	0	43	0	882900992	66	4778
2026-01-04 11:21:37.66	313.54	19.25	-47.9	-50.5	17.7	0.00e+00	0	43	0	884998144	66	5133
2026-01-04 11:21:38.66	313.72	19.16	-47.9	-50.5	17.6	0.00e+00	0	43	0	887095296	67	4856
2026-01-04 11:21:39.84	313.92	19.05	-47.9	-50.5	17.5	0.00e+00	0	43	0	889192448	67	4837
2026-01-04 11:21:40.73	314.07	18.97	-47.7	-50.3	17.7	0.00e+00	0	43	0	891289600	67	4759
2026-01-04 11:21:41.87	314.26	18.87	-47.8	-50.5	17.5	0.00e+00	0	43	0	893386752	67	4858
2026-01-04 11:21:42.80	314.42	18.79	-47.8	-50.4	17.6	0.00e+00	0	43	0	894435328	67	4801
2026-01-04 11:21:43.98	314.62	18.68	-47.5	-50.0	18.0	0.00e+00	0	43	0	896532480	66	4866
2026-01-04 11:21:44.84	314.76	18.61	-47.7	-50.3	17.7	0.00e+00	0	43	0	898629632	66	5019
2026-01-04 11:21:45.99	314.95	18.51	-47.7	-50.4	17.5	0.00e+00	0	43	0	900726784	66	5065
2026-01-04 11:21:46.84	315.09	18.43	-48.3	-51.2	17.0	0.00e+00	0	43	0	902823936	67	5234
2026-01-04 11:21:47.99	315.28	18.33	-48.8	-51.8	16.7	0.00e+00	0	43	0	904921088	68	5288
2026-01-04 11:21:48.85	315.42	18.25	-48.8	-51.8	16.6	0.00e+00	0	43	0	905969664	68	5287
2026-01-04 11:21:49.99	315.60	18.15	-48.8	-51.8	16.5	0.00e+00	0	43	0	908066816	68	5291
2026-01-04 11:21:50.85	315.74	18.08	-48.6	-51.6	16.7	0.00e+00	0	43	0	910163968	68	5172
2026-01-04 11:21:52.00	315.93	17.98	-48.5	-51.3	16.9	0.00e+00	0	43	0	912261120	68	5035
2026-01-04 11:21:52.86	316.06	17.90	-48.0	-50.7	17.4	0.00e+00	0	43	0	913309696	68	4699
2026-01-04 11:21:54.00	316.24	17.80	-47.7	-50.3	17.7	0.00e+00	0	43	0	915406848	67	4714
2026-01-04 11:21:54.87	316.38	17.72	-47.5	-50.0	18.0	0.00e+00	0	43	0	917504000	66	4834
2026-01-04 11:21:56.01	316.56	17.62	-47.5	-50.0	18.2	0.00e+00	0	43	0	919601152	66	4815
2026-01-04 11:21:56.87	316.69	17.55	-47.4	-49.9	18.2	0.00e+00	0	43	0	921698304	66	4765
2026-01-04 11:21:58.02	316.87	17.45	-47.4	-49.9	18.3	0.00e+00	0	43	0	923795456	66	4773
2026-01-04 11:21:58.88	317.00	17.37	-47.2	-49.7	18.3	0.00e+00	0	43	0	924844032	66	4652
2026-01-04 11:22:00.02	317.18	17.28	-47.0	-49.4	18.5	0.00e+00	0	43	0	926941184	66	4543
2026-01-04 11:22:00.88	317.31	17.20	-46.9	-49.3	18.6	0.00e+00	0	43	0	929038336	65	4723
2026-01-04 11:22:02.03	317.48	17.10	-46.8	-49.2	18.7	0.00e+00	0	43	0	931135488	65	4702
2026-01-04 11:22:02.89	317.61	17.03	-46.9	-49.3	18.6	0.00e+00	0	43	0	932184064	65	4749
2026-01-04 11:22:04.04	317.79	16.93	-46.9	-49.3	18.6	0.00e+00	0	43	0	934281216	65	4744
2026-01-04 11:22:04.90	317.91	16.85	-47.1	-49.5	18.4	0.00e+00	0	43	0	936378368	65	4850
2026-01-04 11:22:06.14	318.10	16.75	-47.0	-49.4	18.6	0.00e+00	0	43	0	938475520	65	4791
2026-01-04 11:22:06.99	318.22	16.67	-47.0	-49.4	18.3	0.00e+00	0	43	0	940572672	65	4813
2026-01-04 11:22:08.14	318.39	16.57	-47.1	-49.6	18.0	7.00e-07	0	43	0	942669824	65	4904
2026-01-04 11:22:09.00	318.52	16.50	-47.1	-49.6	18.3	0.00e+00	0	43	0	943718400	65	4915
2026-01-04 11:22:10.15	318.68	16.40	-47.2	-49.8	18.3	0.00e+00	0	43	0	945815552	65	4987
2026-01-04 11:22:11.03	318.81	16.33	-47.3	-49.9	18.0	0.00e+00	0	43	0	947912704	65	5043
2026-01-04 11:22:12.18	318.97	16.23	-47.4	-50.1	17.7	0.00e+00	0	43	0	950009856	65	5175
2026-01-04 11:22:13.04	319.10	16.15	-47.6	-50.4	17.4	0.00e+00	0	43	0	951058432	66	5069
2026-01-04 11:22:14.18	319.26	16.06	-47.8	-50.6	17.3	0.00e+00	0	43	0	953155584	66	5193
2026-01-04 11:22:15.05	319.38	15.98	-47.9	-50.7	17.2	0.00e+00	0	43	0	955252736	66	5272
2026-01-04 11:22:16.19	319.54	15.89	-47.8	-50.6	17.3	0.00e+00	0	43	0	957349888	66	5215
2026-01-04 11:22:17.05	319.66	15.81	-47.7	-50.5	17.4	0.00e+00	0	43	0	959447040	66	5132
2026-01-04 11:22:18.20	319.82	15.72	-47.6	-50.4	17.6	0.00e+00	0	43	0	961544192	66	5044
2026-01-04 11:22:19.06	319.94	15.64	-47.8	-50.6	17.4	0.00e+00	0	43	0	962592768	66	5177
2026-01-04 11:22:20.21	320.09	15.55	-47.7	-50.3	17.6	0.00e+00	0	43	0	964689920	66	5041
2026-01-04 11:22:21.07	320.21	15.47	-48.0	-50.8	17.5	0.00e+00	0	43	0	966787072	67	4991
2026-01-04 11:22:22.21	320.37	15.38	-47.7	-50.4	17.7	0.00e+00	0	43	0	968884224	67	4787
2026-01-04 11:22:23.07	320.48	15.31	-47.7	-50.4	17.7	0.00e+00	0	43	0	969932800	67	4764
2026-01-04 11:22:24.22	320.64	15.21	-47.8	-50.5	17.7	0.00e+00	0	43	0	972029952	67	4823
2026-01-04 11:22:25.08	320.75	15.14	-47.7	-50.3	17.7	0.00e+00	0	43	0	974127104	67	4741
2026-01-04 11:22:26.33	320.92	15.03	-47.8	-50.4	17.7	0.00e+00	0	43	0	976224256	67	4799
2026-01-04 11:22:27.07	321.01	14.97	-47.9	-50.6	17.6	0.00e+00	0	43	0	978321408	67	4881
2026-01-04 11:22:28.35	321.18	14.87	-47.3	-49.9	18.0	0.00e+00	0	43	0	980418560	66	4806
2026-01-04 11:22:29.07	321.27	14.81	-47.5	-50.1	17.9	0.00e+00	0	43	0	981467136	66	4903
2026-01-04 11:22:30.64	321.48	14.68	-47.2	-49.9	17.9	0.00e+00	0	43	0	984612864	66	4806
2026-01-04 11:22:31.26	321.56	14.62	-47.2	-50.0	17.8	0.00e+00	0	43	0	985661440	66	4817
2026-01-04 11:22:32.83	321.76	14.49	-47.1	-49.7	18.1	0.00e+00	0	43	0	988807168	66	4667
2026-01-04 11:22:33.58	321.85	14.43	-46.9	-49.5	18.1	0.00e+00	0	43	0	989855744	65	4815
2026-01-04 11:22:35.27	322.07	14.29	-47.0	-49.6	18.2	0.00e+00	0	43	0	993001472	65	4892
2026-01-04 11:22:35.84	322.14	14.25	-47.4	-49.9	18.3	0.00e+00	0	43	0	994050048	65	5064
2026-01-04 11:22:37.44	322.34	14.12	-47.3	-49.7	18.3	0.00e+00	0	43	0	997195776	65	4979
2026-01-04 11:22:38.02	322.41	14.07	-47.1	-49.6	18.3	0.00e+00	0	43	0	998244352	65	4878
2026-01-04 11:22:39.60	322.61	13.94	-47.2	-49.7	18.3	0.00e+00	0	43	0	1001390080	65	4934
2026-01-04 11:22:40.33	322.70	13.88	-47.4	-49.8	18.2	0.00e+00	0	43	0	1002438656	65	5032
2026-01-04 11:22:41.62	322.85	13.78	-47.6	-50.0	17.9	0.00e+00	0	43	0	1005584384	65	5144
2026-01-04 11:22:42.33	322.94	13.72	-47.8	-50.3	17.8	0.00e+00	0	43	0	1006632960	66	5038
2026-01-04 11:22:43.62	323.10	13.62	-48.0	-50.7	17.5	0.00e+00	0	43	0	1008730112	66	5223
2026-01-04 11:22:44.34	323.18	13.56	-48.1	-50.8	17.2	0.00e+00	0	43	0	1009778688	67	5001
2026-01-04 11:22:45.63	323.34	13.45	-48.2	-50.9	17.1	0.00e+00	0	43	0	1012924416	67	5097
2026-01-04 11:22:46.35	323.42	13.40	-48.2	-51.0	17.1	0.00e+00	0	43	0	1013972992	67	5102
2026-01-04 11:22:47.75	323.59	13.28	-48.1	-51.0	16.9	0.00e+00	0	43	0	1016070144	67	5128
2026-01-04 11:22:48.46	323.67	13.23	-48.2	-51.2	16.9	0.00e+00	0	43	0	1018167296	67	5221
2026-01-04 11:22:49.75	323.82	13.12	-48.2	-51.1	16.9	0.00e+00	0	43	0	1020264448	67	5208
2026-01-04 11:22:50.47	323.91	13.07	-48.2	-51.1	17.0	0.00e+00	0	43	0	1021313024	67	5211
2026-01-04 11:22:51.76	324.06	12.96	-48.0	-51.0	17.1	0.00e+00	0	43	0	1024458752	67	5105
2026-01-04 11:22:52.47	324.14	12.91	-48.0	-51.0	17.1	0.00e+00	0	43	0	1025507328	67	5104
2026-01-04 11:22:53.76	324.28	12.81	-48.0	-51.0	17.1	0.00e+00	0	43	0	1027604480	67	5109
2026-01-04 11:22:54.47	324.37	12.75	-48.0	-51.0	17.1	0.00e+00	0	43	0	1029701632	67	5113
2026-01-04 11:22:55.76	324.51	12.65	-48.2	-51.2	17.0	0.00e+00	0	43	0	1031798784	67	5223
2026-01-04 11:22:56.48	324.59	12.59	-48.1	-51.1	16.9	0.00e+00	0	43	0	1032847360	67	5176
2026-01-04 11:22:57.77	324.74	12.49	-48.2	-51.4	16.6	0.00e+00	0	43	0	1034944512	67	5354
2026-01-04 11:22:58.66	324.84	12.42	-48.2	-51.3	16.7	0.00e+00	0	43	0	1037041664	67	5338
2026-01-04 11:23:00.14	325.00	12.30	-48.8	-52.3	16.1	0.00e+00	0	43	0	1040187392	68	5598
2026-01-04 11:23:00.86	325.08	12.25	-48.8	-52.3	16.0	0.00e+00	0	43	0	1041235968	68	5606
2026-01-04 11:23:02.14	325.22	12.15	-48.7	-52.1	16.2	0.00e+00	0	43	0	1043333120	68	5501
2026-01-04 11:23:02.86	325.30	12.09	-48.9	-52.5	15.8	0.00e+00	0	43	0	1045430272	68	5783
2026-01-04 11:23:04.15	325.44	11.99	-48.9	-52.5	15.9	0.00e+00	0	43	0	1047527424	68	5770
2026-01-04 11:23:04.87	325.52	11.94	-48.9	-52.5	15.8	0.00e+00	0	43	0	1048576000	68	5748
2026-01-04 11:23:06.16	325.66	11.84	-49.0	-52.7	15.6	0.00e+00	0	43	0	1050673152	68	5878
2026-01-04 11:23:06.97	325.74	11.77	-48.9	-52.5	15.8	0.00e+00	0	43	0	1052770304	68	5747
2026-01-04 11:23:08.11	325.87	11.69	-48.8	-52.3	16.0	0.00e+00	0	43	0	1054867456	68	5627
2026-01-04 11:23:08.97	325.96	11.62	-48.7	-52.0	16.2	0.00e+00	0	43	0	1055916032	68	5437
2026-01-04 11:23:10.12	326.08	11.53	-48.6	-51.8	16.5	0.00e+00	0	43	0	1059061760	68	5294
2026-01-04 11:23:11.33	326.20	11.44	-48.8	-52.0	16.3	0.00e+00	0	43	0	1061158912	68	5437
2026-01-04 11:23:12.19	326.29	11.37	-48.6	-51.8	16.5	0.00e+00	0	43	0	1062207488	68	5295
2026-01-04 11:23:13.33	326.41	11.29	-48.8	-52.1	16.2	0.00e+00	0	43	0	1064304640	68	5468
2026-01-04 11:23:14.19	326.50	11.22	-48.9	-52.2	16.1	0.00e+00	0	43	0	1066401792	68	5557
2026-01-04 11:23:15.34	326.62	11.14	-48.8	-52.0	16.3	0.00e+00	0	43	0	1068498944	68	5426
2026-01-04 11:23:16.20	326.71	11.07	-49.3	-52.7	15.7	0.00e+00	0	43	0	1069547520	69	5555
2026-01-04 11:23:17.34	326.82	10.98	-49.1	-52.4	15.9	0.00e+00	0	43	0	1071644672	69	5356
2026-01-04 11:23:18.20	326.91	10.92	-49.3	-52.6	15.8	0.00e+00	0	43	0	1073741824	69	5479
2026-01-04 11:23:19.35	327.03	10.83	-49.5	-53.0	15.3	0.00e+00	0	43	0	1075838976	69	5759
2026-01-04 11:23:20.21	327.11	10.77	-49.6	-52.9	15.4	0.00e+00	0	43	0	1077936128	69	5716
2026-01-04 11:23:21.36	327.23	10.68	-49.3	-52.6	15.4	0.00e+00	0	43	0	1080033280	69	5492
2026-01-04 11:23:22.22	327.31	10.62	-49.5	-52.9	15.1	7.00e-07	0	43	0	1081081856	69	5679
2026-01-04 11:23:23.36	327.42	10.53	-49.2	-52.4	15.7	0.00e+00	0	43	0	1083179008	69	5358
2026-01-04 11:23:24.22	327.51	10.47	-49.2	-52.5	15.7	0.00e+00	0	43	0	1085276160	69	5407
2026-01-04 11:23:25.37	327.62	10.38	-49.1	-52.2	16.0	0.00e+00	0	43	0	1087373312	69	5247
2026-01-04 11:23:26.23	327.71	10.32	-49.0	-52.1	16.1	0.00e+00	0	43	0	1088421888	69	5165
2026-01-04 11:23:27.37	327.82	10.24	-48.9	-51.9	16.2	0.00e+00	0	43	0	1090519040	69	5089
2026-01-04 11:23:28.23	327.90	10.17	-49.1	-52.2	16.2	0.00e+00	0	43	0	1092616192	69	5224
2026-01-04 11:23:29.38	328.01	10.09	-48.8	-51.9	16.3	0.00e+00	0	43	0	1094713344	69	5044
2026-01-04 11:23:30.24	328.09	10.02	-48.8	-51.8	16.2	0.00e+00	0	43	0	1095761920	69	5032
2026-01-04 11:23:31.39	328.20	9.94	-48.7	-51.7	16.5	0.00e+00	0	43	0	1098907648	69	4940
2026-01-04 11:23:32.24	328.28	9.88	-49.0	-52.1	16.1	0.00e+00	0	43	0	1099956224	69	5183
2026-01-04 11:23:33.39	328.39	9.79	-48.9	-51.9	16.2	0.00e+00	0	43	0	1102053376	69	5088
2026-01-04 11:23:34.25	328.47	9.73	-48.8	-51.8	16.3	0.00e+00	0	43	0	1104150528	69	5040
2026-01-04 11:23:35.39	328.58	9.65	-49.2	-52.4	15.8	0.00e+00	0	43	0	1106247680	69	5371
2026-01-04 11:23:36.26	328.66	9.59	-49.4	-52.6	15.8	0.00e+00	0	43	0	1107296256	69	5486
2026-01-04 11:23:37.40	328.76	9.50	-49.4	-52.7	15.5	0.00e+00	0	43	0	1109393408	69	5548
2026-01-04 11:23:38.26	328.84	9.44	-49.8	-53.1	15.4	0.00e+00	0	43	0	1111490560	70	5501
2026-01-04 11:23:39.66	328.97	9.34	-49.8	-53.2	15.0	0.00e+00	0	43	0	1113587712	70	5561
2026-01-04 11:23:40.38	329.03	9.29	-50.0	-53.7	14.5	0.00e+00	0	43	0	1115684864	70	5900
2026-01-04 11:23:41.67	329.15	9.20	-50.0	-53.7	14.5	0.00e+00	0	43	0	1117782016	70	5867
2026-01-04 11:23:42.38	329.22	9.15	-50.1	-53.8	14.4	0.00e+00	0	43	0	1118830592	70	5962
2026-01-04 11:23:43.68	329.33	9.05	-49.9	-53.7	14.3	2.20e-06	0	43	0	1121976320	71	5564
2026-01-04 11:23:44.39	329.40	9.00	-50.1	-54.0	14.2	2.20e-06	0	43	0	1123024896	71	5775
2026-01-04 11:23:45.68	329.51	8.91	-53.8	-69.5	3.8	1.49e+00	0	43	104	1124073472	78	22979
2026-01-04 11:23:46.40	329.57	8.86	-52.8	-69.4	3.8	1.49e+00	0	43	104	1124073472	77	23907
2026-01-04 11:23:47.69	329.69	8.77	-54.0	-69.7	3.8	1.49e+00	0	43	104	1124073472	79	22262
2026-01-04 11:23:48.40	329.75	8.72	-54.0	-69.5	3.8	1.49e+00	0	43	104	1124073472	79	21659
2026-01-04 11:23:49.70	329.86	8.63	-54.0	-69.7	3.8	1.49e+00	0	43	104	1124073472	78	23555
2026-01-04 11:23:50.41	329.92	8.58	-53.7	-69.7	3.8	1.49e+00	0	43	104	1124073472	79	22175
2026-01-04 11:23:51.74	330.04	8.48	-53.5	-69.7	3.8	1.49e+00	0	43	104	1124073472	79	22215
2026-01-04 11:23:52.45	330.10	8.43	-54.6	-69.8	3.8	1.49e+00	0	43	104	1124073472	79	22390
2026-01-04 11:23:53.84	330.22	8.34	-54.7	-69.9	3.8	1.49e+00	0	43	104	1124073472	80	21426
2026-01-04 11:23:54.56	330.28	8.28	-54.5	-69.9	3.8	1.49e+00	0	43	104	1124073472	80	21464
2026-01-04 11:23:55.85	330.39	8.19	-54.7	-69.8	3.8	1.49e+00	0	43	104	1124073472	80	21256
2026-01-04 11:23:56.57	330.45	8.14	-54.8	-70.1	3.8	1.49e+00	0	43	104	1124073472	80	21825
2026-01-04 11:23:57.86	330.56	8.06	-54.4	-69.8	3.8	1.49e+00	0	43	104	1124073472	80	21100
2026-01-04 11:23:58.58	330.62	8.01	-54.6	-69.8	3.8	1.49e+00	0	43	104	1124073472	80	21246
2026-01-04 11:23:59.87	330.73	7.92	-54.5	-69.7	3.8	1.49e+00	0	43	104	1124073472	80	20997
2026-01-04 11:24:00.59	330.79	7.87	-54.7	-69.8	3.8	1.49e+00	0	43	104	1124073472	80	21204
2026-01-04 11:24:01.87	330.89	7.78	-54.6	-69.8	3.8	1.49e+00	0	43	104	1124073472	80	21027
2026-01-04 11:24:02.59	330.95	7.73	-54.6	-69.8	3.8	1.49e+00	0	43	104	1124073472	80	21242
2026-01-04 11:24:03.88	331.06	7.64	-54.5	-69.7	3.8	1.49e+00	0	43	104	1124073472	80	20992
2026-01-04 11:24:04.60	331.12	7.59	-54.5	-69.7	3.8	1.49e+00	0	43	104	1124073472	80	20933
2026-01-04 11:24:05.89	331.22	7.50	-54.5	-69.8	3.8	1.49e+00	0	43	104	1124073472	80	21130
2026-01-04 11:24:06.61	331.28	7.45	-54.6	-69.8	3.8	1.49e+00	0	43	104	1124073472	80	21207
2026-01-04 11:24:07.90	331.38	7.37	-54.4	-69.9	3.8	1.49e+00	0	43	104	1124073472	80	21307
2026-01-04 11:24:08.62	331.44	7.32	-54.3	-69.8	3.8	1.49e+00	0	43	104	1124073472	80	21047
2026-01-04 11:24:09.91	331.54	7.23	-54.4	-69.8	3.8	1.49e+00	0	43	104	1124073472	80	21211
2026-01-04 11:24:10.63	331.60	7.18	-54.4	-69.8	3.8	1.49e+00	0	43	104	1124073472	80	21120
2026-01-04 11:24:11.92	331.70	7.09	-54.4	-69.8	3.8	1.49e+00	0	43	104	1124073472	80	21213
2026-01-04 11:24:12.64	331.76	7.05	-54.4	-69.8	3.8	1.49e+00	0	43	104	1124073472	80	21141
2026-01-04 11:24:13.93	331.86	6.96	-54.3	-69.8	3.8	1.49e+00	0	43	104	1124073472	80	21035
2026-01-04 11:24:14.64	331.92	6.91	-54.3	-69.8	3.8	1.49e+00	0	43	104	1124073472	80	21135
2026-01-04 11:24:15.94	332.02	6.82	-54.4	-69.8	3.8	1.49e+00	0	43	104	1124073472	80	21106
2026-01-04 11:24:16.65	332.07	6.78	-54.4	-69.8	3.8	1.49e+00	0	43	104	1124073472	80	21093
2026-01-04 11:24:17.94	332.17	6.69	-54.3	-69.7	3.8	1.49e+00	0	43	104	1124073472	80	20866
2026-01-04 11:24:18.66	332.23	6.64	-54.5	-69.9	3.8	1.49e+00	0	43	104	1124073472	80	21408
2026-01-04 11:24:19.95	332.32	6.56	-54.5	-69.9	3.8	1.49e+00	0	43	104	1124073472	80	21293
2026-01-04 11:24:20.67	332.38	6.51	-54.4	-69.8	3.8	1.49e+00	0	43	104	1124073472	80	21212
2026-01-04 11:24:21.96	332.48	6.42	-54.4	-69.9	3.8	1.49e+00	0	43	104	1124073472	80	21278
2026-01-04 11:24:22.68	332.53	6.38	-54.4	-69.8	3.8	1.49e+00	0	43	104	1124073472	80	21238
2026-01-04 11:24:23.97	332.63	6.29	-54.6	-70.0	3.8	1.49e+00	0	43	104	1124073472	80	21608
2026-01-04 11:24:24.69	332.68	6.25	-54.5	-69.9	3.8	1.49e+00	0	43	104	1124073472	80	21390
2026-01-04 11:24:25.98	332.78	6.16	-54.7	-70.1	3.8	1.49e+00	0	43	104	1124073472	80	21964
2026-01-04 11:24:26.69	332.83	6.11	-54.5	-69.9	3.8	1.49e+00	0	43	104	1124073472	80	21487
2026-01-04 11:24:27.99	332.93	6.03	-54.5	-70.0	3.8	1.49e+00	0	43	104	1124073472	80	21556
2026-01-04 11:24:28.70	332.98	5.98	-54.7	-70.1	3.8	1.49e+00	0	43	104	1124073472	80	21914
2026-01-04 11:24:29.99	333.07	5.90	-54.5	-70.0	3.8	1.49e+00	0	43	104	1124073472	80	21514
2026-01-04 11:24:30.71	333.12	5.85	-54.5	-70.0	3.8	1.49e+00	0	43	104	1124073472	80	21593
2026-01-04 11:24:32.00	333.22	5.77	-54.7	-70.1	3.8	1.49e+00	0	43	104	1124073472	80	21917
2026-01-04 11:24:32.72	333.27	5.72	-54.5	-70.0	3.8	1.49e+00	0	43	104	1124073472	80	21524
2026-01-04 11:24:34.01	333.36	5.64	-54.5	-70.0	3.8	1.49e+00	0	43	104	1124073472	80	21537
2026-01-04 11:24:34.73	333.41	5.59	-54.5	-69.9	3.8	1.49e+00	0	43	104	1124073472	80	21466
2026-01-04 11:24:36.02	333.51	5.51	-54.7	-70.1	3.8	1.49e+00	0	43	104	1124073472	80	21849
