passes_logs/2026/01/04/T1/T1__20260104_025902_FENGYUN_3G_rec.log

#Pass ID: 20260104_025902_FENGYUN 3G
#Satellite: FENGYUN 3G
#Configuration: FENGYUN 3G
#almurnet v.1.7.20251203
#Start time: 2026-01-04 02:59:01

#Version: 2.0.20230620
#Station: T1
#Location: 37.570604 lon 55.790049 lat
#TLE: 1 56232U 23055A   26003.53327032  .00047684  00000+0  75687-3 0  9993
#TLE: 2 56232  49.9936 115.0642 0004181 334.2418  25.8340 15.52822756154418

#Time	Az	El	Level	Level2	SNR	BER	BlckErr	Temp	State	Recorded	gain1	gain2
2026-01-04 02:59:01.88	233.40	5.04	-54.3	-73.2	3.8	8.47e-01	0	38	0	0	79	33298
2026-01-04 02:59:02.88	233.30	5.11	-54.2	-73.3	3.8	8.39e-01	0	38	104	0	79	33528
2026-01-04 02:59:03.88	233.21	5.19	-54.2	-73.4	3.8	8.47e-01	0	38	104	0	79	33757
2026-01-04 02:59:04.89	233.11	5.26	-54.2	-73.4	3.8	8.48e-01	0	38	104	0	79	33788
2026-01-04 02:59:05.89	233.02	5.34	-54.0	-73.5	3.8	8.48e-01	0	38	104	0	79	34149
2026-01-04 02:59:06.90	232.92	5.42	-54.2	-73.4	3.8	8.47e-01	0	39	104	0	79	33998
2026-01-04 02:59:07.90	232.82	5.49	-54.3	-73.5	3.8	8.47e-01	0	38	104	0	79	34323
2026-01-04 02:59:08.90	232.72	5.57	-54.2	-73.5	3.8	8.47e-01	0	38	104	0	79	34256
2026-01-04 02:59:09.91	232.62	5.64	-54.3	-73.4	3.8	8.48e-01	0	38	104	0	79	33970
2026-01-04 02:59:10.91	232.52	5.72	-54.3	-73.4	3.8	8.47e-01	0	38	104	0	79	33922
2026-01-04 02:59:11.92	232.42	5.80	-54.1	-73.4	3.8	8.47e-01	0	39	104	0	79	33853
2026-01-04 02:59:12.92	232.32	5.88	-54.3	-73.3	3.8	8.47e-01	0	39	104	0	79	33646
2026-01-04 02:59:13.93	232.22	5.95	-54.1	-73.4	3.8	8.47e-01	0	39	104	0	79	33743
2026-01-04 02:59:14.93	232.11	6.03	-54.3	-73.3	3.8	8.47e-01	0	38	104	0	79	33571
2026-01-04 02:59:15.94	232.01	6.11	-54.1	-73.2	3.8	8.47e-01	0	39	104	0	79	33281
2026-01-04 02:59:16.94	231.90	6.19	-54.1	-73.2	3.8	8.48e-01	0	39	104	0	79	33251
2026-01-04 02:59:17.94	231.80	6.27	-54.2	-73.2	3.8	8.47e-01	0	39	104	0	79	33164
2026-01-04 02:59:18.95	231.69	6.35	-54.1	-73.1	3.8	8.47e-01	0	39	104	0	79	32630
2026-01-04 02:59:19.95	231.58	6.42	-54.3	-72.9	3.8	8.47e-01	0	39	104	0	79	32077
2026-01-04 02:59:20.96	231.48	6.50	-54.3	-73.1	3.8	8.48e-01	0	39	104	0	79	32588
2026-01-04 02:59:21.96	231.37	6.58	-54.1	-72.9	3.8	8.48e-01	0	39	104	0	79	32032
2026-01-04 02:59:22.97	231.26	6.66	-54.1	-72.7	3.8	8.46e-01	0	39	104	0	79	31375
2026-01-04 02:59:23.97	231.15	6.74	-54.0	-72.6	3.8	8.47e-01	0	39	104	0	79	31002
2026-01-04 02:59:24.98	231.03	6.83	-54.2	-72.6	3.8	8.47e-01	0	39	104	0	79	30921
2026-01-04 02:59:25.98	230.92	6.91	-54.2	-72.8	3.8	8.48e-01	0	39	104	0	79	31582
2026-01-04 02:59:26.98	230.81	6.99	-54.1	-72.9	3.8	8.47e-01	0	39	104	0	79	31964
2026-01-04 02:59:27.99	230.69	7.07	-54.0	-72.9	3.8	8.47e-01	0	39	104	0	79	31923
2026-01-04 02:59:28.99	230.58	7.15	-54.2	-73.2	3.8	8.47e-01	0	39	104	0	79	33052
2026-01-04 02:59:30.00	230.46	7.23	-54.2	-73.3	3.8	8.47e-01	0	39	104	0	79	33638
2026-01-04 02:59:31.00	230.35	7.32	-54.2	-73.3	3.8	8.48e-01	0	39	104	0	79	33453
2026-01-04 02:59:32.01	230.23	7.40	-54.1	-73.4	3.8	8.48e-01	0	39	104	0	79	33949
2026-01-04 02:59:33.01	230.11	7.48	-54.2	-73.3	3.8	8.47e-01	0	39	104	0	79	33485
2026-01-04 02:59:34.01	229.99	7.57	-54.1	-73.1	3.8	8.47e-01	0	39	104	0	79	32600
2026-01-04 02:59:35.02	229.87	7.65	-54.1	-72.6	3.8	8.47e-01	0	39	104	0	79	30845
2026-01-04 02:59:36.02	229.75	7.73	-54.0	-71.8	3.8	8.47e-01	0	39	104	0	79	28237
2026-01-04 02:59:37.03	229.62	7.82	-54.1	-70.9	3.8	8.46e-01	0	39	104	0	79	25278
2026-01-04 02:59:38.03	229.50	7.90	-54.0	-70.1	4.2	8.46e-01	0	39	0	0	79	23234
2026-01-04 02:59:39.03	229.38	7.99	-54.1	-69.7	4.2	8.42e-01	0	39	0	0	79	22193
2026-01-04 02:59:40.04	229.25	8.07	-54.1	-70.1	4.1	8.36e-01	0	40	0	0	79	23195
2026-01-04 02:59:41.04	229.12	8.16	-54.0	-71.1	3.8	8.36e-01	0	39	104	0	79	26109
2026-01-04 02:59:42.05	228.99	8.25	-54.1	-71.8	3.8	8.42e-01	0	39	104	0	79	28123
2026-01-04 02:59:43.05	228.87	8.33	-54.1	-71.7	3.8	8.45e-01	0	40	104	0	79	27707
2026-01-04 02:59:44.05	228.74	8.42	-54.1	-71.2	3.8	8.45e-01	0	40	104	0	79	26252
2026-01-04 02:59:45.06	228.60	8.51	-54.2	-71.5	3.8	8.46e-01	0	39	104	0	79	27190
2026-01-04 02:59:46.06	228.47	8.59	-54.2	-72.3	3.8	8.47e-01	0	40	104	0	79	29803
2026-01-04 02:59:47.07	228.34	8.68	-54.2	-71.8	3.8	8.46e-01	0	40	104	0	79	28177
2026-01-04 02:59:48.07	228.20	8.77	-54.0	-69.0	4.5	8.46e-01	0	40	0	0	79	20441
2026-01-04 02:59:49.07	228.07	8.86	-53.9	-66.2	6.0	8.29e-01	0	40	0	0	79	14776
2026-01-04 02:59:50.08	227.93	8.95	-53.6	-64.0	7.9	3.64e-01	0	40	0	0	78	12211
2026-01-04 02:59:51.08	227.79	9.04	-53.3	-62.4	9.7	3.64e-01	0	40	0	0	78	10091
2026-01-04 02:59:52.08	227.66	9.13	-52.8	-59.6	12.6	3.48e-02	0	39	0	0	77	7740
2026-01-04 02:59:53.09	227.51	9.22	-54.1	-66.6	5.7	2.15e-02	0	40	0	0	79	15520
2026-01-04 02:59:54.17	227.36	9.32	-53.1	-61.2	10.7	2.15e-02	0	40	0	0	78	8766
2026-01-04 02:59:55.09	227.23	9.40	-53.8	-63.7	8.3	1.46e-01	0	40	0	0	78	11729
2026-01-04 02:59:56.27	227.06	9.51	-54.0	-65.7	6.6	6.35e-02	0	40	0	0	78	14757
2026-01-04 02:59:57.13	226.94	9.58	-53.8	-64.2	7.8	6.35e-02	0	40	0	0	78	12488
2026-01-04 02:59:58.49	226.74	9.71	-53.6	-63.0	9.1	2.04e-01	0	40	0	0	78	10835
2026-01-04 02:59:59.20	226.64	9.77	-53.6	-62.9	9.1	4.29e-02	0	40	0	0	78	10760
2026-01-04 03:00:00.49	226.44	9.89	-53.6	-63.1	8.9	3.33e-02	0	40	0	0	78	11019
2026-01-04 03:00:01.21	226.34	9.96	-53.5	-63.4	8.8	3.33e-02	0	40	0	0	78	11303
2026-01-04 03:00:02.76	226.10	10.10	-53.8	-64.2	7.6	4.27e-02	0	40	0	0	78	12448
2026-01-04 03:00:03.47	225.99	10.17	-53.7	-63.5	8.8	6.41e-02	0	40	0	0	78	11531
2026-01-04 03:00:04.76	225.79	10.29	-53.3	-60.7	11.5	4.17e-02	0	40	0	0	78	8280
2026-01-04 03:00:05.48	225.68	10.36	-52.7	-59.1	13.1	4.17e-02	0	40	0	0	77	7321
2026-01-04 03:00:06.76	225.48	10.48	-51.5	-56.3	15.9	5.92e-04	0	40	0	0	75	5931
2026-01-04 03:00:07.48	225.37	10.55	-51.2	-55.4	16.9	0.00e+00	0	40	0	0	74	5720
2026-01-04 03:00:08.77	225.16	10.67	-51.0	-55.1	17.2	0.00e+00	0	40	0	0	73	5815
2026-01-04 03:00:09.48	225.05	10.74	-50.9	-55.0	17.3	0.00e+00	0	40	0	0	73	5748
2026-01-04 03:00:10.77	224.84	10.86	-50.8	-54.8	17.7	0.00e+00	0	40	0	0	72	5934
2026-01-04 03:00:11.49	224.72	10.93	-50.9	-55.0	17.3	0.00e+00	0	40	0	0	72	6085
2026-01-04 03:00:12.78	224.51	11.06	-50.2	-53.8	18.5	0.00e+00	0	40	0	0	72	5329
2026-01-04 03:00:13.61	224.37	11.14	-49.2	-52.5	19.7	0.00e+00	0	40	0	0	70	5150
2026-01-04 03:00:14.76	224.18	11.25	-48.6	-51.5	20.7	0.00e+00	0	40	0	0	69	4821
2026-01-04 03:00:15.62	224.03	11.34	-48.5	-51.3	21.0	0.00e+00	0	40	0	0	68	4996
2026-01-04 03:00:16.76	223.83	11.45	-47.6	-50.2	21.8	0.00e+00	0	40	0	0	67	4705
2026-01-04 03:00:17.62	223.69	11.53	-47.4	-50.0	22.0	0.00e+00	0	40	0	0	66	4850
2026-01-04 03:00:18.77	223.48	11.65	-47.9	-50.6	21.6	0.00e+00	0	40	0	0	66	5161
2026-01-04 03:00:19.63	223.33	11.73	-47.8	-50.5	21.5	0.00e+00	0	40	0	0	66	5122
2026-01-04 03:00:20.78	223.13	11.85	-47.5	-50.2	21.9	0.00e+00	0	40	0	0	66	4934
2026-01-04 03:00:21.64	222.97	11.94	-47.0	-49.4	22.5	0.00e+00	0	40	0	0	65	4797
2026-01-04 03:00:22.79	222.77	12.05	-47.1	-49.6	22.3	0.00e+00	0	40	0	0	65	4902
2026-01-04 03:00:23.64	222.61	12.14	-47.0	-49.5	22.5	0.00e+00	0	40	0	0	65	4855
2026-01-04 03:00:24.79	222.40	12.26	-46.1	-48.4	23.4	0.00e+00	0	40	0	0	64	4526
2026-01-04 03:00:25.65	222.24	12.34	-45.9	-48.1	23.7	0.00e+00	0	40	0	0	63	4651
2026-01-04 03:00:26.80	222.02	12.46	-45.7	-47.9	24.0	0.00e+00	0	40	0	0	63	4529
2026-01-04 03:00:27.80	221.83	12.56	-45.5	-47.7	24.2	0.00e+00	0	40	0	0	63	4426
2026-01-04 03:00:28.98	221.61	12.69	-45.2	-47.3	24.5	0.00e+00	0	40	0	0	62	4468
2026-01-04 03:00:29.83	221.44	12.77	-45.3	-47.5	24.4	0.00e+00	0	40	0	0	62	4564
2026-01-04 03:00:30.98	221.22	12.89	-44.8	-46.9	24.8	0.00e+00	0	40	0	0	61	4516
2026-01-04 03:00:31.84	221.05	12.98	-44.7	-46.8	24.9	0.00e+00	0	40	0	0	61	4488
2026-01-04 03:00:32.99	220.82	13.10	-44.8	-46.9	24.8	0.00e+00	0	40	0	0	61	4522
2026-01-04 03:00:33.85	220.65	13.19	-44.8	-46.9	24.8	0.00e+00	0	40	0	0	61	4523
2026-01-04 03:00:34.99	220.42	13.32	-44.8	-47.0	24.8	0.00e+00	0	40	0	0	61	4554
2026-01-04 03:00:35.85	220.24	13.41	-44.9	-47.0	24.7	0.00e+00	0	40	0	0	61	4581
2026-01-04 03:00:37.00	220.01	13.53	-44.8	-47.0	24.8	0.00e+00	0	40	0	0	61	4547
2026-01-04 03:00:37.86	219.83	13.62	-44.8	-46.9	24.8	0.00e+00	0	40	0	0	61	4533
2026-01-04 03:00:39.01	219.59	13.74	-44.5	-46.6	25.1	0.00e+00	0	40	0	0	61	4381
2026-01-04 03:00:39.86	219.41	13.84	-44.7	-46.8	24.9	0.00e+00	0	40	0	0	61	4449
2026-01-04 03:00:41.01	219.16	13.96	-44.9	-47.0	24.8	0.00e+00	0	41	0	0	61	4569
2026-01-04 03:00:41.87	218.97	14.05	-44.9	-47.0	24.7	0.00e+00	0	41	0	0	61	4590
2026-01-04 03:00:43.01	218.73	14.18	-45.2	-47.3	24.5	0.00e+00	0	40	0	0	61	4753
2026-01-04 03:00:43.87	218.54	14.27	-45.0	-47.1	24.7	0.00e+00	0	40	0	0	61	4651
2026-01-04 03:00:45.02	218.28	14.40	-44.9	-47.1	24.6	0.00e+00	0	40	0	0	61	4638
2026-01-04 03:00:45.88	218.09	14.49	-44.5	-46.6	25.0	0.00e+00	0	40	0	0	61	4383
2026-01-04 03:00:47.03	217.83	14.62	-44.5	-46.6	25.2	0.00e+00	0	40	0	0	60	4610
2026-01-04 03:00:47.89	217.63	14.71	-44.4	-46.5	25.2	0.00e+00	0	41	0	0	60	4571
2026-01-04 03:00:49.05	217.36	14.84	-44.4	-46.5	25.2	0.00e+00	0	41	0	0	60	4576
2026-01-04 03:00:49.91	217.16	14.94	-44.6	-46.7	25.0	0.00e+00	0	40	0	0	60	4682
2026-01-04 03:00:51.14	216.87	15.07	-44.6	-46.7	25.1	0.00e+00	0	40	0	0	60	4670
2026-01-04 03:00:52.00	216.67	15.17	-44.4	-46.5	25.2	0.00e+00	0	40	0	0	60	4546
2026-01-04 03:00:53.14	216.39	15.30	-43.9	-45.9	25.6	0.00e+00	0	40	0	0	59	4516
2026-01-04 03:00:54.00	216.18	15.39	-43.6	-45.6	25.9	0.00e+00	0	40	0	0	59	4357
2026-01-04 03:00:55.15	215.90	15.52	-43.7	-45.7	25.8	0.00e+00	0	40	0	0	59	4428
2026-01-04 03:00:56.06	215.68	15.63	-43.8	-45.9	25.7	0.00e+00	0	41	0	0	59	4497
2026-01-04 03:00:57.06	215.43	15.74	-43.9	-45.9	25.6	0.00e+00	0	40	0	0	59	4508
2026-01-04 03:00:58.07	215.17	15.86	-44.4	-46.5	25.2	0.00e+00	0	40	0	0	59	4842
2026-01-04 03:00:59.06	214.92	15.97	-44.2	-46.3	25.4	0.00e+00	0	41	0	0	59	4735
2026-01-04 03:01:00.34	214.59	16.12	-44.2	-46.3	25.3	0.00e+00	0	41	0	0	59	4737
2026-01-04 03:01:01.10	214.40	16.20	-43.7	-45.7	25.9	0.00e+00	0	41	0	0	59	4395
2026-01-04 03:01:02.69	213.98	16.39	-43.7	-45.7	25.9	0.00e+00	0	41	0	0	58	4678
2026-01-04 03:01:03.52	213.76	16.48	-43.6	-45.6	25.9	0.00e+00	0	40	0	0	58	4642
2026-01-04 03:01:04.66	213.45	16.61	-43.7	-45.7	25.9	0.00e+00	0	41	0	0	58	4673
2026-01-04 03:01:05.52	213.22	16.71	-43.6	-45.6	25.9	0.00e+00	0	40	0	0	58	4646
2026-01-04 03:01:06.69	212.90	16.85	-43.8	-45.8	25.8	0.00e+00	0	40	0	0	58	4717
2026-01-04 03:01:07.55	212.66	16.95	-43.7	-45.7	25.9	0.00e+00	0	41	0	0	58	4690
2026-01-04 03:01:08.69	212.34	17.08	-43.7	-45.7	25.8	0.00e+00	0	40	0	0	58	4705
2026-01-04 03:01:09.55	212.10	17.18	-43.7	-45.7	25.9	0.00e+00	0	41	0	0	58	4686
2026-01-04 03:01:10.70	211.77	17.32	-43.8	-45.8	25.8	0.00e+00	0	40	0	0	58	4732
2026-01-04 03:01:11.56	211.53	17.42	-43.5	-45.5	26.1	0.00e+00	0	41	0	0	58	4555
2026-01-04 03:01:12.70	211.20	17.55	-43.6	-45.6	26.0	0.00e+00	0	41	0	0	58	4610
2026-01-04 03:01:13.64	210.92	17.66	-43.2	-45.2	26.3	0.00e+00	0	41	0	0	58	4417
2026-01-04 03:01:14.64	210.63	17.78	-43.3	-45.2	26.3	0.00e+00	0	40	0	0	58	4431
2026-01-04 03:01:15.85	210.27	17.92	-43.1	-45.0	26.5	0.00e+00	0	41	0	0	57	4566
2026-01-04 03:01:16.74	210.00	18.03	-43.4	-45.3	26.2	0.00e+00	0	41	0	0	57	4735
2026-01-04 03:01:17.79	209.68	18.15	-43.4	-45.4	26.2	0.00e+00	0	41	0	0	57	4783
2026-01-04 03:01:18.84	209.35	18.27	-43.3	-45.3	26.2	0.00e+00	0	41	0	0	57	4710
2026-01-04 03:01:19.92	209.02	18.40	-43.2	-45.2	26.3	0.00e+00	0	40	0	0	57	4671
2026-01-04 03:01:20.78	208.75	18.50	-43.0	-44.9	26.5	0.00e+00	0	40	0	0	57	4544
2026-01-04 03:01:21.93	208.38	18.64	-43.2	-45.2	26.2	0.00e+00	0	41	0	0	57	4655
2026-01-04 03:01:22.79	208.11	18.74	-43.3	-45.3	26.1	0.00e+00	0	40	0	0	57	4710
2026-01-04 03:01:23.93	207.74	18.87	-43.5	-45.4	26.2	0.00e+00	0	41	0	0	57	4805
2026-01-04 03:01:24.79	207.46	18.98	-43.3	-45.2	26.3	0.00e+00	0	41	0	0	57	4696
2026-01-04 03:01:25.94	207.08	19.11	-42.8	-44.7	26.6	0.00e+00	0	41	0	0	57	4429
2026-01-04 03:01:26.80	206.80	19.21	-42.7	-44.6	26.8	0.00e+00	0	41	0	0	57	4365
2026-01-04 03:01:27.94	206.42	19.35	-42.7	-44.7	26.7	0.00e+00	0	41	0	0	57	4406
2026-01-04 03:01:28.80	206.13	19.45	-43.1	-45.0	26.5	0.00e+00	0	41	0	0	57	4578
2026-01-04 03:01:29.95	205.73	19.58	-43.2	-45.2	26.4	0.00e+00	0	41	0	0	57	4660
2026-01-04 03:01:30.81	205.44	19.69	-43.3	-45.4	26.2	0.00e+00	0	41	0	0	57	4766
2026-01-04 03:01:31.96	205.04	19.82	-43.3	-45.2	26.3	0.00e+00	0	41	0	0	57	4699
2026-01-04 03:01:32.90	204.71	19.93	-43.3	-45.3	26.3	0.00e+00	0	41	0	0	57	4728
2026-01-04 03:01:33.90	204.35	20.05	-43.2	-45.2	26.4	0.00e+00	0	40	0	0	57	4658
2026-01-04 03:01:34.91	203.99	20.17	-42.9	-44.8	26.6	0.00e+00	0	41	0	0	57	4488
2026-01-04 03:01:35.91	203.63	20.28	-42.9	-44.9	26.6	0.00e+00	0	41	0	0	57	4499
2026-01-04 03:01:36.91	203.27	20.40	-42.9	-44.8	26.6	0.00e+00	0	40	0	0	57	4460
2026-01-04 03:01:37.91	202.90	20.51	-42.5	-44.4	26.9	0.00e+00	0	41	0	0	57	4260
2026-01-04 03:01:38.91	202.53	20.63	-42.3	-44.2	27.0	0.00e+00	0	41	0	0	56	4417
2026-01-04 03:01:39.92	202.15	20.75	-42.4	-44.3	27.0	0.00e+00	0	41	0	0	56	4472
2026-01-04 03:01:40.92	201.77	20.86	-42.5	-44.5	26.8	0.00e+00	0	41	0	0	56	4549
2026-01-04 03:01:41.92	201.39	20.98	-42.6	-44.5	26.8	0.00e+00	0	41	0	0	56	4577
2026-01-04 03:01:42.94	201.00	21.09	-42.8	-44.7	26.7	0.00e+00	0	41	0	0	56	4701
2026-01-04 03:01:43.98	200.59	21.21	-42.8	-44.8	26.6	0.00e+00	0	41	0	0	56	4712
2026-01-04 03:01:44.98	200.20	21.32	-42.8	-44.7	26.7	0.00e+00	0	41	0	0	56	4679
2026-01-04 03:01:45.98	199.81	21.43	-42.8	-44.7	26.7	0.00e+00	0	41	0	0	56	4685
2026-01-04 03:01:46.98	199.41	21.55	-42.6	-44.6	26.8	0.00e+00	0	41	0	0	56	4605
2026-01-04 03:01:47.98	199.01	21.66	-42.7	-44.7	26.7	0.00e+00	0	41	0	0	56	4670
2026-01-04 03:01:48.98	198.60	21.77	-42.4	-44.3	26.9	0.00e+00	0	40	0	0	56	4473
2026-01-04 03:01:49.98	198.19	21.88	-42.6	-44.5	26.9	0.00e+00	0	41	0	0	56	4556
2026-01-04 03:01:50.98	197.78	21.99	-42.4	-44.3	27.0	0.00e+00	0	41	0	0	56	4451
2026-01-04 03:01:51.99	197.36	22.10	-42.3	-44.2	27.1	0.00e+00	0	41	0	0	56	4400
2026-01-04 03:01:52.99	196.94	22.20	-42.3	-44.1	27.1	0.00e+00	0	41	0	0	56	4387
2026-01-04 03:01:53.99	196.52	22.31	-42.1	-44.0	27.2	0.00e+00	0	41	0	0	56	4336
2026-01-04 03:01:54.99	196.10	22.42	-42.2	-44.1	27.1	0.00e+00	0	40	0	0	56	4365
2026-01-04 03:01:56.00	195.66	22.52	-42.3	-44.2	27.0	0.00e+00	0	41	0	0	56	4399
2026-01-04 03:01:57.00	195.23	22.63	-42.5	-44.4	26.9	0.00e+00	0	41	0	0	56	4543
2026-01-04 03:01:58.00	194.79	22.73	-42.7	-44.6	26.7	0.00e+00	0	41	0	0	56	4611
2026-01-04 03:01:59.00	194.35	22.83	-42.5	-44.4	26.9	0.00e+00	0	41	0	0	56	4539
2026-01-04 03:02:00.01	193.91	22.93	-42.6	-44.5	27.0	0.00e+00	0	41	0	0	56	4557
2026-01-04 03:02:01.01	193.46	23.03	-42.6	-44.5	26.9	0.00e+00	0	41	0	0	56	4569
2026-01-04 03:02:02.01	193.01	23.13	-42.6	-44.5	26.9	0.00e+00	0	41	0	0	56	4576
2026-01-04 03:02:03.02	192.55	23.23	-42.2	-44.1	27.2	0.00e+00	0	41	0	0	56	4385
2026-01-04 03:02:04.02	192.10	23.33	-42.2	-44.1	27.2	0.00e+00	0	41	0	0	56	4352
2026-01-04 03:02:05.02	191.64	23.42	-42.5	-44.4	26.9	0.00e+00	0	41	0	0	56	4522
2026-01-04 03:02:06.03	191.17	23.52	-42.5	-44.4	27.0	0.00e+00	0	41	0	0	56	4507
2026-01-04 03:02:07.03	190.71	23.61	-41.3	-43.3	26.6	0.00e+00	0	41	0	0	54	4452
2026-01-04 03:02:08.03	190.24	23.70	-42.0	-43.9	27.1	0.00e+00	0	41	0	0	54	4803
2026-01-04 03:02:09.04	189.76	23.79	-42.1	-44.0	27.0	3.40e-06	0	41	0	0	55	4563
2026-01-04 03:02:10.04	189.28	23.88	-41.6	-43.4	27.4	0.00e+00	0	41	0	0	55	4281
2026-01-04 03:02:11.04	188.81	23.97	-41.3	-43.2	27.5	0.00e+00	0	41	0	0	54	4400
2026-01-04 03:02:12.05	188.32	24.05	-41.5	-43.4	27.4	0.00e+00	0	41	0	0	54	4515
2026-01-04 03:02:13.05	187.83	24.14	-41.9	-43.8	27.2	0.00e+00	0	41	0	0	54	4734
2026-01-04 03:02:14.05	187.35	24.22	-41.7	-43.6	27.3	0.00e+00	0	41	0	0	54	4651
2026-01-04 03:02:15.05	186.86	24.30	-41.7	-43.6	27.4	0.00e+00	0	41	0	0	54	4609
2026-01-04 03:02:16.06	186.36	24.38	-42.1	-44.0	27.1	0.00e+00	0	41	0	0	54	4856
2026-01-04 03:02:17.35	185.72	24.48	-41.9	-43.8	27.2	0.00e+00	0	41	0	0	54	4732
2026-01-04 03:02:18.09	185.35	24.53	-41.6	-43.5	27.3	0.00e+00	0	41	0	0	54	4585
2026-01-04 03:02:19.38	184.70	24.63	-41.7	-43.5	27.4	0.00e+00	0	41	0	0	54	4597
2026-01-04 03:02:20.17	184.30	24.69	-41.8	-43.7	27.3	0.00e+00	0	41	0	0	54	4672
2026-01-04 03:02:21.66	183.54	24.79	-41.7	-43.5	27.4	0.00e+00	0	41	0	0	54	4594
2026-01-04 03:02:22.38	183.18	24.84	-41.6	-43.5	27.4	0.00e+00	0	41	0	0	54	4569
2026-01-04 03:02:23.67	182.51	24.92	-41.5	-43.4	27.5	0.00e+00	0	41	0	0	54	4515
2026-01-04 03:02:24.39	182.14	24.97	-41.5	-43.3	27.3	0.00e+00	0	41	0	0	54	4479
2026-01-04 03:02:25.68	181.47	25.04	-41.7	-43.6	27.3	0.00e+00	0	41	0	0	54	4601
2026-01-04 03:02:26.39	181.10	25.09	-41.9	-43.8	27.3	0.00e+00	0	41	0	0	54	4736
2026-01-04 03:02:27.68	180.43	25.16	-41.6	-43.4	27.5	0.00e+00	0	41	0	0	54	4525
2026-01-04 03:02:28.40	180.05	25.20	-41.8	-43.7	27.2	0.00e+00	0	41	0	0	54	4687
2026-01-04 03:02:29.69	179.37	25.27	-42.0	-43.9	27.1	0.00e+00	0	41	0	0	54	4770
2026-01-04 03:02:30.41	178.99	25.30	-41.5	-43.3	27.6	0.00e+00	0	41	0	0	54	4479
2026-01-04 03:02:31.70	178.31	25.36	-41.0	-42.8	27.9	0.00e+00	0	41	0	0	54	4230
2026-01-04 03:02:32.41	177.93	25.40	-41.2	-43.0	27.7	0.00e+00	0	41	0	0	54	4325
2026-01-04 03:02:33.75	177.21	25.46	-41.0	-42.8	27.9	0.00e+00	0	41	0	0	54	4226
2026-01-04 03:02:34.46	176.83	25.48	-41.1	-43.0	27.8	0.00e+00	0	41	0	0	54	4308
2026-01-04 03:02:35.76	176.14	25.53	-41.0	-42.8	27.8	0.00e+00	0	41	0	0	54	4224
2026-01-04 03:02:36.47	175.75	25.56	-40.8	-42.6	27.9	0.00e+00	0	41	0	0	53	4379
2026-01-04 03:02:37.76	175.06	25.60	-41.1	-43.0	27.7	0.00e+00	0	41	0	0	53	4557
2026-01-04 03:02:38.48	174.67	25.63	-41.4	-43.3	27.5	0.00e+00	0	41	0	0	53	4716
2026-01-04 03:02:39.76	173.97	25.66	-41.4	-43.3	27.6	0.00e+00	0	41	0	0	53	4721
2026-01-04 03:02:40.48	173.58	25.68	-41.6	-43.5	27.4	0.00e+00	0	41	0	0	53	4848
2026-01-04 03:02:41.77	172.88	25.71	-42.1	-43.9	27.1	0.00e+00	0	41	0	0	54	4811
2026-01-04 03:02:42.49	172.48	25.73	-41.8	-43.7	27.2	0.00e+00	0	41	0	0	54	4683
2026-01-04 03:02:43.78	171.78	25.75	-41.8	-43.6	27.2	0.00e+00	0	41	0	0	54	4642
2026-01-04 03:02:44.61	171.33	25.77	-42.0	-43.9	27.1	0.00e+00	0	41	0	0	54	4807
2026-01-04 03:02:46.09	170.51	25.79	-41.9	-43.8	27.2	0.00e+00	0	41	0	0	54	4712
2026-01-04 03:02:46.80	170.13	25.80	-42.0	-43.9	27.1	0.00e+00	0	41	0	0	54	4797
2026-01-04 03:02:48.09	169.42	25.81	-42.4	-44.3	26.7	0.00e+00	0	41	0	0	55	4754
2026-01-04 03:02:48.81	169.02	25.81	-42.1	-44.0	27.1	0.00e+00	0	41	0	0	55	4571
2026-01-04 03:02:50.10	168.31	25.81	-41.7	-43.6	27.4	0.00e+00	0	41	0	0	55	4371
2026-01-04 03:02:50.82	167.92	25.81	-41.6	-43.4	27.4	0.00e+00	0	41	0	0	55	4284
2026-01-04 03:02:52.10	167.22	25.81	-41.3	-43.2	27.6	0.00e+00	0	41	0	0	54	4400
2026-01-04 03:02:52.82	166.82	25.81	-41.5	-43.3	27.6	0.00e+00	0	41	0	0	54	4477
2026-01-04 03:02:54.11	166.11	25.80	-41.5	-43.3	27.5	0.00e+00	0	41	0	0	54	4491
2026-01-04 03:02:55.11	165.56	25.79	-41.4	-43.3	27.6	0.00e+00	0	41	0	0	54	4448
2026-01-04 03:02:56.43	164.84	25.77	-41.3	-43.1	27.6	0.00e+00	0	41	0	0	54	4388
2026-01-04 03:02:57.21	164.41	25.76	-41.4	-43.3	27.6	0.00e+00	0	41	0	0	54	4449
2026-01-04 03:02:58.84	163.52	25.73	-41.7	-43.5	27.4	0.00e+00	0	41	0	0	53	4869
2026-01-04 03:02:59.41	163.21	25.72	-41.8	-43.7	27.2	0.00e+00	0	41	0	0	54	4664
2026-01-04 03:03:00.99	162.35	25.68	-41.8	-43.7	27.3	0.00e+00	0	41	0	0	54	4653
2026-01-04 03:03:01.58	162.03	25.66	-41.7	-43.6	27.4	0.00e+00	0	41	0	0	54	4611
2026-01-04 03:03:03.15	161.18	25.62	-41.6	-43.5	27.4	0.00e+00	0	41	0	0	54	4589
2026-01-04 03:03:03.87	160.79	25.60	-41.5	-43.4	27.4	0.00e+00	0	41	0	0	54	4526
2026-01-04 03:03:05.16	160.10	25.55	-41.6	-43.5	27.4	0.00e+00	0	41	0	0	54	4547
2026-01-04 03:03:06.08	159.60	25.52	-41.5	-43.3	27.4	0.00e+00	0	41	0	0	54	4477
2026-01-04 03:03:07.40	158.89	25.46	-41.3	-43.2	27.6	0.00e+00	0	41	0	0	54	4394
2026-01-04 03:03:08.12	158.51	25.43	-41.4	-43.3	27.5	0.00e+00	0	41	0	0	54	4473
2026-01-04 03:03:09.41	157.82	25.38	-41.4	-43.2	27.6	0.00e+00	0	41	0	0	54	4424
2026-01-04 03:03:10.12	157.44	25.34	-41.3	-43.2	27.5	0.00e+00	0	41	0	0	54	4419
2026-01-04 03:03:11.41	156.76	25.28	-41.4	-43.3	27.5	0.00e+00	0	41	0	0	54	4456
2026-01-04 03:03:12.13	156.38	25.24	-41.6	-43.4	27.4	0.00e+00	0	41	0	0	54	4534
2026-01-04 03:03:13.42	155.70	25.18	-41.8	-43.6	27.1	0.00e+00	0	41	0	0	54	4650
2026-01-04 03:03:14.13	155.33	25.14	-41.8	-43.7	27.2	0.00e+00	0	41	0	0	54	4687
2026-01-04 03:03:15.45	154.64	25.06	-41.6	-43.5	27.4	0.00e+00	0	41	0	0	54	4589
2026-01-04 03:03:16.17	154.27	25.02	-41.7	-43.6	27.3	0.00e+00	0	41	0	0	54	4608
2026-01-04 03:03:17.46	153.60	24.94	-41.3	-43.2	27.5	0.00e+00	0	41	0	0	54	4409
2026-01-04 03:03:18.18	153.23	24.89	-41.3	-43.2	27.7	0.00e+00	0	41	0	0	54	4398
2026-01-04 03:03:19.47	152.58	24.81	-41.5	-43.4	27.5	0.00e+00	0	41	0	0	54	4528
2026-01-04 03:03:20.18	152.21	24.76	-41.4	-43.3	27.5	0.00e+00	0	41	0	0	54	4442
2026-01-04 03:03:21.66	151.46	24.65	-41.2	-43.1	27.7	0.00e+00	0	41	0	0	54	4353
2026-01-04 03:03:22.38	151.10	24.60	-41.3	-43.2	27.6	0.00e+00	0	41	0	0	54	4399
2026-01-04 03:03:23.73	150.43	24.50	-41.7	-43.6	27.4	0.00e+00	0	41	0	0	54	4616
2026-01-04 03:03:24.45	150.07	24.45	-41.9	-43.8	27.1	0.00e+00	0	41	0	0	54	4736
2026-01-04 03:03:25.74	149.43	24.35	-41.8	-43.8	27.2	0.00e+00	0	41	0	0	54	4707
2026-01-04 03:03:26.46	149.08	24.29	-41.8	-43.7	27.3	0.00e+00	0	41	0	0	54	4683
2026-01-04 03:03:27.74	148.45	24.19	-41.6	-43.4	27.4	0.00e+00	0	41	0	0	54	4545
2026-01-04 03:03:28.46	148.10	24.13	-41.4	-43.2	27.5	0.00e+00	0	41	0	0	54	4440
2026-01-04 03:03:29.75	147.48	24.02	-41.2	-43.1	27.6	0.00e+00	0	41	0	0	54	4358
2026-01-04 03:03:30.48	147.13	23.96	-41.3	-43.2	27.6	0.00e+00	0	41	0	0	54	4403
2026-01-04 03:03:31.77	146.51	23.85	-41.1	-42.9	27.7	0.00e+00	0	41	0	0	54	4281
2026-01-04 03:03:32.49	146.17	23.78	-41.1	-43.0	27.7	0.00e+00	0	41	0	0	54	4302
2026-01-04 03:03:33.77	145.57	23.67	-41.5	-43.3	27.5	0.00e+00	0	41	0	0	54	4491
2026-01-04 03:03:34.49	145.23	23.60	-41.6	-43.5	27.4	0.00e+00	0	41	0	0	54	4582
2026-01-04 03:03:35.78	144.63	23.48	-41.5	-43.3	27.5	0.00e+00	0	41	0	0	54	4482
2026-01-04 03:03:36.67	144.23	23.40	-41.5	-43.4	27.4	0.00e+00	0	41	0	0	54	4508
2026-01-04 03:03:38.15	143.55	23.26	-41.5	-43.4	27.4	0.00e+00	0	41	0	0	54	4518
2026-01-04 03:03:38.86	143.23	23.19	-41.5	-43.4	27.4	0.00e+00	0	41	0	0	54	4519
2026-01-04 03:03:40.15	142.65	23.06	-41.6	-43.5	27.3	0.00e+00	0	41	0	0	54	4562
2026-01-04 03:03:40.87	142.33	22.99	-41.6	-43.5	27.3	0.00e+00	0	41	0	0	54	4590
2026-01-04 03:03:42.16	141.75	22.86	-41.6	-43.5	27.4	0.00e+00	0	41	0	0	54	4547
2026-01-04 03:03:42.87	141.44	22.79	-41.6	-43.5	27.3	0.00e+00	0	41	0	0	54	4575
2026-01-04 03:03:44.17	140.88	22.65	-41.8	-43.7	27.3	0.00e+00	0	41	0	0	54	4660
2026-01-04 03:03:44.98	140.53	22.57	-42.0	-43.9	27.0	0.00e+00	0	41	0	0	54	4779
2026-01-04 03:03:46.12	140.04	22.45	-42.0	-43.9	27.0	0.00e+00	0	41	0	0	54	4794
2026-01-04 03:03:47.22	139.57	22.33	-41.8	-43.7	27.2	0.00e+00	0	41	0	0	54	4652
2026-01-04 03:03:48.26	139.13	22.22	-41.5	-43.4	27.3	0.00e+00	0	41	0	0	54	4528
2026-01-04 03:03:49.26	138.71	22.12	-41.8	-43.6	27.2	0.00e+00	0	41	0	0	54	4650
2026-01-04 03:03:50.26	138.30	22.01	-42.0	-43.9	27.0	0.00e+00	0	41	0	0	54	4804
2026-01-04 03:03:51.26	137.89	21.90	-42.0	-43.9	27.0	0.00e+00	0	41	0	0	54	4793
2026-01-04 03:03:52.27	137.47	21.79	-41.9	-43.8	27.1	0.00e+00	0	41	0	0	54	4728
2026-01-04 03:03:53.27	137.07	21.68	-41.9	-43.8	27.2	0.00e+00	0	41	0	0	54	4724
2026-01-04 03:03:54.27	136.67	21.57	-41.9	-43.8	27.1	0.00e+00	0	41	0	0	54	4755
2026-01-04 03:03:55.28	136.27	21.46	-42.1	-44.0	27.0	0.00e+00	0	41	0	0	54	4822
2026-01-04 03:03:56.28	135.87	21.35	-42.3	-44.2	26.9	0.00e+00	0	41	0	0	55	4703
2026-01-04 03:03:57.28	135.48	21.23	-42.3	-44.2	26.9	0.00e+00	0	41	0	0	55	4663
2026-01-04 03:03:58.29	135.09	21.12	-42.3	-44.2	26.8	0.00e+00	0	41	0	0	55	4702
2026-01-04 03:03:59.29	134.71	21.01	-42.1	-44.0	27.0	0.00e+00	0	41	0	0	55	4559
2026-01-04 03:04:00.29	134.32	20.89	-42.1	-44.0	27.0	0.00e+00	0	41	0	0	55	4580
2026-01-04 03:04:01.36	133.92	20.77	-42.2	-44.2	26.9	0.00e+00	0	41	0	0	55	4654
2026-01-04 03:04:02.25	133.59	20.67	-42.5	-44.4	26.8	0.00e+00	0	41	0	0	55	4806
2026-01-04 03:04:03.29	133.20	20.55	-42.9	-44.9	26.6	0.00e+00	0	41	0	0	56	4768
2026-01-04 03:04:04.28	132.84	20.43	-42.8	-44.7	26.7	0.00e+00	0	41	0	0	56	4684
2026-01-04 03:04:05.28	132.48	20.32	-42.8	-44.7	26.7	0.00e+00	0	41	0	0	56	4700
2026-01-04 03:04:06.29	132.11	20.20	-43.0	-45.0	26.5	0.00e+00	0	41	0	0	56	4841
2026-01-04 03:04:07.29	131.75	20.08	-43.1	-45.1	26.4	0.00e+00	0	41	0	0	56	4904
2026-01-04 03:04:08.29	131.40	19.97	-43.3	-45.3	26.2	0.00e+00	0	41	0	0	57	4721
2026-01-04 03:04:09.29	131.05	19.85	-43.1	-45.1	26.3	0.00e+00	0	41	0	0	57	4626
2026-01-04 03:04:10.29	130.70	19.73	-42.7	-44.6	26.7	0.00e+00	0	41	0	0	57	4367
2026-01-04 03:04:11.29	130.36	19.62	-42.5	-44.4	26.8	0.00e+00	0	41	0	0	56	4526
2026-01-04 03:04:12.30	130.01	19.50	-42.6	-44.5	26.7	0.00e+00	0	41	0	0	56	4595
2026-01-04 03:04:13.30	129.68	19.38	-42.8	-44.8	26.6	0.00e+00	0	41	0	0	56	4709
2026-01-04 03:04:14.30	129.34	19.26	-42.9	-44.8	26.6	0.00e+00	0	41	0	0	56	4723
2026-01-04 03:04:15.30	129.01	19.15	-42.8	-44.8	26.5	0.00e+00	0	41	0	0	56	4709
2026-01-04 03:04:16.30	128.68	19.03	-42.7	-44.7	26.6	0.00e+00	0	41	0	0	56	4664
2026-01-04 03:04:17.31	128.35	18.91	-42.9	-44.8	26.5	0.00e+00	0	41	0	0	56	4739
2026-01-04 03:04:18.31	128.03	18.79	-43.1	-45.1	26.3	0.00e+00	0	41	0	0	56	4881
2026-01-04 03:04:19.32	127.71	18.67	-43.3	-45.3	26.1	0.00e+00	0	41	0	0	57	4741
2026-01-04 03:04:20.32	127.39	18.55	-43.4	-45.4	26.1	0.00e+00	0	41	0	0	57	4781
2026-01-04 03:04:21.33	127.07	18.44	-43.4	-45.4	26.1	0.00e+00	0	41	0	0	57	4808
2026-01-04 03:04:22.33	126.76	18.32	-43.3	-45.2	26.1	0.00e+00	0	41	0	0	57	4701
2026-01-04 03:04:23.33	126.46	18.20	-43.2	-45.2	26.2	0.00e+00	0	41	0	0	57	4686
2026-01-04 03:04:24.34	126.15	18.08	-43.2	-45.2	26.2	0.00e+00	0	41	0	0	57	4687
2026-01-04 03:04:25.34	125.85	17.96	-43.3	-45.3	26.1	0.00e+00	0	41	0	0	57	4728
2026-01-04 03:04:26.34	125.55	17.85	-43.6	-45.7	25.9	0.00e+00	0	41	0	0	57	4934
2026-01-04 03:04:27.34	125.25	17.73	-43.8	-45.8	25.8	0.00e+00	0	41	0	0	58	4754
2026-01-04 03:04:28.35	124.96	17.61	-43.8	-45.8	25.7	0.00e+00	0	41	0	0	58	4748
2026-01-04 03:04:29.35	124.67	17.50	-43.4	-45.5	26.0	0.00e+00	0	41	0	0	58	4555
2026-01-04 03:04:30.35	124.38	17.38	-43.2	-45.2	26.2	0.00e+00	0	41	0	0	58	4402
2026-01-04 03:04:31.35	124.10	17.26	-43.1	-45.1	26.2	0.00e+00	0	41	0	0	58	4356
2026-01-04 03:04:32.35	123.81	17.15	-43.2	-45.2	26.2	0.00e+00	0	41	0	0	58	4428
2026-01-04 03:04:33.36	123.53	17.03	-43.2	-45.2	26.2	0.00e+00	0	41	0	0	58	4395
2026-01-04 03:04:34.36	123.26	16.91	-43.4	-45.4	26.1	0.00e+00	0	41	0	0	58	4518
2026-01-04 03:04:35.36	122.98	16.80	-43.4	-45.4	26.0	0.00e+00	0	41	0	0	58	4528
2026-01-04 03:04:36.37	122.71	16.68	-43.5	-45.5	26.0	0.00e+00	0	41	0	0	58	4560
2026-01-04 03:04:37.37	122.44	16.56	-43.5	-45.5	25.9	0.00e+00	0	41	0	0	58	4586
2026-01-04 03:04:38.37	122.17	16.45	-43.5	-45.5	26.0	0.00e+00	0	41	0	0	58	4576
2026-01-04 03:04:39.38	121.91	16.33	-43.7	-45.7	25.8	0.00e+00	0	41	0	0	58	4678
2026-01-04 03:04:40.38	121.65	16.22	-43.8	-45.8	25.7	0.00e+00	0	41	0	0	58	4751
2026-01-04 03:04:41.38	121.39	16.11	-44.1	-46.2	25.4	0.00e+00	0	41	0	0	58	4953
2026-01-04 03:04:42.39	121.13	15.99	-44.2	-46.3	25.4	0.00e+00	0	41	0	0	59	4718
2026-01-04 03:04:43.39	120.88	15.88	-44.5	-46.6	25.1	0.00e+00	0	41	0	0	59	4887
2026-01-04 03:04:44.39	120.63	15.76	-44.5	-46.5	25.1	0.00e+00	0	41	0	0	59	4870
2026-01-04 03:04:45.40	120.37	15.65	-44.3	-46.4	25.3	0.00e+00	0	41	0	0	59	4765
2026-01-04 03:04:46.46	120.11	15.53	-44.2	-46.3	25.3	0.00e+00	0	41	0	0	59	4747
2026-01-04 03:04:47.36	119.89	15.43	-44.1	-46.2	25.4	0.00e+00	0	41	0	0	59	4691
2026-01-04 03:04:48.36	119.65	15.32	-44.1	-46.2	25.5	0.00e+00	0	41	0	0	59	4662
2026-01-04 03:04:49.36	119.41	15.20	-44.0	-46.1	25.5	0.00e+00	0	41	0	0	59	4605
2026-01-04 03:04:50.37	119.17	15.09	-44.1	-46.1	25.5	0.00e+00	0	41	0	0	59	4646
2026-01-04 03:04:51.37	118.94	14.98	-44.1	-46.2	25.4	0.00e+00	0	41	0	0	59	4673
2026-01-04 03:04:52.37	118.71	14.87	-44.2	-46.2	25.3	0.00e+00	0	41	0	0	59	4696
2026-01-04 03:04:53.38	118.47	14.76	-44.3	-46.4	25.2	0.00e+00	0	41	0	0	59	4788
2026-01-04 03:04:54.38	118.25	14.65	-44.6	-46.7	25.0	0.00e+00	0	41	0	0	59	4960
2026-01-04 03:04:55.38	118.02	14.54	-44.7	-46.9	24.9	0.00e+00	0	41	0	0	60	4784
2026-01-04 03:04:56.39	117.79	14.43	-44.9	-47.0	24.8	0.00e+00	0	41	0	0	60	4859
2026-01-04 03:04:57.39	117.57	14.32	-44.9	-47.0	24.8	0.00e+00	0	41	0	0	60	4827
2026-01-04 03:04:58.39	117.35	14.21	-44.9	-47.1	24.7	0.00e+00	0	41	0	0	60	4872
2026-01-04 03:04:59.39	117.14	14.10	-45.0	-47.1	24.8	0.00e+00	0	41	0	0	60	4891
2026-01-04 03:05:00.40	116.92	13.99	-44.9	-47.0	24.8	0.00e+00	0	41	0	0	60	4829
2026-01-04 03:05:01.40	116.70	13.88	-44.8	-47.0	24.8	0.00e+00	0	41	0	0	60	4824
2026-01-04 03:05:02.48	116.48	13.77	-44.9	-47.0	24.8	0.00e+00	0	41	0	0	60	4864
2026-01-04 03:05:03.34	116.30	13.68	-45.1	-47.2	24.6	0.00e+00	0	41	0	0	60	4962
2026-01-04 03:05:04.49	116.06	13.55	-45.1	-47.2	24.5	0.00e+00	0	41	0	0	61	4698
2026-01-04 03:05:05.35	115.88	13.46	-45.3	-47.4	24.4	0.00e+00	0	41	0	0	61	4807
2026-01-04 03:05:06.49	115.65	13.34	-45.6	-47.8	24.1	0.00e+00	0	41	0	0	61	4994
2026-01-04 03:05:07.36	115.47	13.25	-45.6	-47.8	24.2	0.00e+00	0	41	0	0	61	4990
2026-01-04 03:05:08.51	115.24	13.13	-45.7	-47.9	24.0	0.00e+00	0	41	0	0	61	5057
2026-01-04 03:05:09.37	115.07	13.04	-45.7	-47.9	24.1	0.00e+00	0	41	0	0	62	4777
2026-01-04 03:05:10.51	114.85	12.92	-45.5	-47.7	24.1	0.00e+00	0	41	0	0	62	4700
2026-01-04 03:05:11.37	114.68	12.83	-45.5	-47.7	24.1	0.00e+00	0	41	0	0	62	4688
2026-01-04 03:05:12.52	114.46	12.71	-45.5	-47.8	24.1	0.00e+00	0	41	0	0	62	4718
2026-01-04 03:05:13.38	114.30	12.63	-45.3	-47.5	24.3	0.00e+00	0	41	0	0	62	4570
2026-01-04 03:05:14.53	114.08	12.51	-45.3	-47.4	24.4	0.00e+00	0	41	0	0	62	4539
2026-01-04 03:05:15.39	113.92	12.42	-45.2	-47.4	24.5	0.00e+00	0	41	0	0	62	4495
2026-01-04 03:05:16.54	113.70	12.30	-45.3	-47.5	24.3	0.00e+00	0	41	0	0	62	4563
2026-01-04 03:05:17.40	113.55	12.22	-45.5	-47.7	24.1	0.00e+00	0	41	0	0	62	4685
2026-01-04 03:05:18.70	113.31	12.08	-45.7	-47.9	23.9	0.00e+00	0	41	0	0	62	4795
2026-01-04 03:05:19.42	113.18	12.01	-45.8	-48.1	23.8	0.00e+00	0	41	0	0	62	4884
2026-01-04 03:05:20.71	112.95	11.88	-46.1	-48.4	23.5	0.00e+00	0	41	0	0	62	5074
2026-01-04 03:05:21.43	112.82	11.81	-46.1	-48.5	23.4	0.00e+00	0	41	0	0	62	5107
2026-01-04 03:05:22.72	112.59	11.68	-46.2	-48.6	23.3	0.00e+00	0	41	0	0	63	4875
2026-01-04 03:05:23.44	112.47	11.61	-46.1	-48.4	23.5	0.00e+00	0	41	0	0	63	4770
2026-01-04 03:05:24.73	112.25	11.48	-45.8	-48.1	23.8	0.00e+00	0	41	0	0	63	4619
2026-01-04 03:05:25.52	112.11	11.41	-45.8	-48.0	23.8	0.00e+00	0	41	0	0	63	4597
2026-01-04 03:05:26.67	111.92	11.29	-45.7	-47.9	23.9	0.00e+00	0	41	0	0	63	4545
2026-01-04 03:05:27.53	111.77	11.21	-45.8	-48.0	23.8	0.00e+00	0	41	0	0	63	4590
2026-01-04 03:05:28.68	111.58	11.10	-45.8	-48.0	23.8	0.00e+00	0	41	0	0	63	4591
2026-01-04 03:05:29.81	111.39	10.99	-45.9	-48.2	23.7	0.00e+00	0	41	0	0	63	4659
2026-01-04 03:05:30.84	111.23	10.89	-46.2	-48.5	23.4	0.00e+00	0	41	0	0	63	4848
2026-01-04 03:05:31.83	111.07	10.79	-46.3	-48.6	23.3	0.00e+00	0	41	0	0	63	4924
2026-01-04 03:05:32.84	110.90	10.70	-46.5	-48.9	23.0	0.00e+00	0	41	0	0	63	5069
2026-01-04 03:05:33.84	110.75	10.60	-46.5	-48.9	23.0	0.00e+00	0	41	0	0	63	5087
2026-01-04 03:05:34.84	110.59	10.51	-46.6	-49.0	22.8	0.00e+00	0	41	0	0	64	4853
2026-01-04 03:05:35.84	110.43	10.41	-46.9	-49.4	22.6	0.00e+00	0	41	0	0	64	5043
2026-01-04 03:05:36.84	110.28	10.32	-46.8	-49.3	22.6	0.00e+00	0	41	0	0	64	4991
2026-01-04 03:05:37.85	110.12	10.23	-46.7	-49.1	22.7	0.00e+00	0	41	0	0	64	4919
2026-01-04 03:05:38.85	109.97	10.13	-46.7	-49.1	22.7	0.00e+00	0	41	0	0	64	4919
2026-01-04 03:05:39.85	109.82	10.04	-46.7	-49.1	22.7	0.00e+00	0	41	0	0	64	4911
2026-01-04 03:05:40.89	109.66	9.94	-46.8	-49.2	22.6	0.00e+00	0	41	0	0	64	4961
2026-01-04 03:05:41.89	109.52	9.85	-46.8	-49.2	22.6	0.00e+00	0	41	0	0	64	4967
2026-01-04 03:05:42.95	109.36	9.75	-46.6	-49.0	22.8	0.00e+00	0	41	0	0	64	4842
2026-01-04 03:05:43.84	109.23	9.67	-46.5	-49.0	22.8	0.00e+00	0	41	0	0	64	4839
2026-01-04 03:05:44.92	109.07	9.57	-46.5	-48.9	22.9	0.00e+00	0	41	0	0	64	4766
2026-01-04 03:05:45.78	108.95	9.50	-46.4	-48.8	22.9	0.00e+00	0	41	0	0	64	4742
2026-01-04 03:05:46.93	108.79	9.39	-46.3	-48.7	23.0	0.00e+00	0	41	0	0	64	4687
2026-01-04 03:05:47.79	108.67	9.31	-46.3	-48.7	23.0	0.00e+00	0	41	0	0	64	4680
2026-01-04 03:05:48.93	108.51	9.21	-46.5	-48.9	22.9	0.00e+00	0	41	0	0	64	4765
2026-01-04 03:05:49.79	108.39	9.14	-46.5	-48.8	22.9	0.00e+00	0	41	0	0	64	4757
2026-01-04 03:05:50.94	108.23	9.03	-46.8	-49.2	22.6	0.00e+00	0	41	0	0	64	4959
2026-01-04 03:05:51.80	108.11	8.96	-52.7	-58.5	16.0	0.00e+00	0	41	0	0	75	7688
2026-01-04 03:05:52.95	107.96	8.86	-54.9	-72.9	3.9	4.59e-01	0	42	104	0	80	30306
2026-01-04 03:05:53.81	107.84	8.78	-54.9	-73.7	3.8	4.59e-01	0	41	104	0	80	33061
2026-01-04 03:05:54.96	107.69	8.68	-55.0	-73.8	3.8	8.47e-01	0	41	104	0	80	33467
2026-01-04 03:05:55.82	107.58	8.60	-55.0	-73.9	3.8	8.47e-01	0	41	104	0	80	33749
2026-01-04 03:05:56.96	107.43	8.51	-55.0	-73.9	3.8	8.47e-01	0	41	104	0	80	34019
2026-01-04 03:05:57.82	107.32	8.43	-55.0	-73.9	3.8	8.46e-01	0	41	104	0	80	34050
2026-01-04 03:05:58.97	107.17	8.33	-54.8	-74.0	3.8	8.47e-01	0	41	104	0	80	34301
2026-01-04 03:05:59.83	107.06	8.26	-54.9	-74.1	3.8	8.47e-01	0	41	104	0	80	34589
2026-01-04 03:06:00.98	106.91	8.16	-54.9	-74.1	3.8	8.46e-01	0	41	104	0	80	34486
2026-01-04 03:06:01.84	106.81	8.09	-54.9	-74.1	3.8	8.47e-01	0	41	104	0	80	34549
2026-01-04 03:06:02.99	106.66	7.99	-55.1	-74.1	3.8	8.46e-01	0	41	104	0	80	34710
2026-01-04 03:06:03.85	106.56	7.92	-55.0	-74.2	3.8	8.46e-01	0	41	104	0	80	34913
2026-01-04 03:06:05.00	106.42	7.82	-55.1	-74.1	3.8	8.46e-01	0	41	104	0	80	34710
2026-01-04 03:06:05.86	106.31	7.75	-55.2	-74.2	3.8	8.47e-01	0	41	104	0	80	35028
2026-01-04 03:06:07.01	106.17	7.65	-55.1	-74.1	3.8	8.47e-01	0	41	104	0	80	34796
2026-01-04 03:06:07.87	106.07	7.58	-55.1	-74.1	3.8	8.47e-01	0	41	104	0	80	34740
2026-01-04 03:06:09.01	105.94	7.49	-55.0	-74.1	3.8	8.46e-01	0	41	104	0	80	34772
2026-01-04 03:06:09.87	105.83	7.42	-55.0	-74.1	3.8	8.46e-01	0	41	104	0	80	34778
2026-01-04 03:06:11.02	105.70	7.32	-55.0	-74.2	3.8	8.47e-01	0	41	104	0	80	34920
2026-01-04 03:06:11.88	105.60	7.25	-55.0	-74.1	3.8	8.46e-01	0	41	104	0	80	34872
2026-01-04 03:06:13.03	105.47	7.16	-55.0	-74.2	3.8	8.46e-01	0	41	104	0	80	34967
2026-01-04 03:06:13.89	105.37	7.09	-55.0	-74.1	3.8	8.47e-01	0	41	104	0	80	34620
2026-01-04 03:06:15.04	105.24	6.99	-55.0	-74.1	3.8	8.47e-01	0	42	104	0	80	34750
2026-01-04 03:06:15.90	105.14	6.92	-55.0	-74.1	3.8	8.47e-01	0	41	104	0	80	34746
2026-01-04 03:06:17.05	105.02	6.83	-55.0	-74.1	3.8	8.48e-01	0	41	104	0	80	34636
2026-01-04 03:06:17.91	104.92	6.76	-55.0	-74.1	3.8	8.46e-01	0	41	104	0	80	34556
2026-01-04 03:06:19.06	104.80	6.67	-55.0	-74.1	3.8	8.47e-01	0	41	104	0	80	34595
2026-01-04 03:06:19.92	104.70	6.60	-55.0	-74.0	3.8	8.47e-01	0	41	104	0	80	34390
2026-01-04 03:06:21.07	104.58	6.51	-55.0	-74.0	3.8	8.48e-01	0	41	104	0	80	34440
2026-01-04 03:06:21.93	104.49	6.44	-55.0	-74.0	3.8	8.47e-01	0	42	104	0	80	34246
2026-01-04 03:06:23.07	104.37	6.35	-55.0	-74.0	3.8	8.47e-01	0	41	104	0	80	34403
2026-01-04 03:06:23.94	104.27	6.29	-55.0	-74.0	3.8	8.47e-01	0	41	104	0	80	34457
2026-01-04 03:06:25.08	104.16	6.20	-54.9	-74.0	3.8	8.46e-01	0	41	104	0	80	34268
2026-01-04 03:06:25.94	104.07	6.13	-54.9	-74.0	3.8	8.46e-01	0	41	104	0	80	34426
2026-01-04 03:06:27.09	103.95	6.04	-55.0	-74.1	3.8	8.47e-01	0	42	104	0	80	34844
2026-01-04 03:06:27.95	103.86	5.98	-55.0	-74.1	3.8	8.48e-01	0	41	104	0	80	34623
2026-01-04 03:06:29.10	103.74	5.89	-55.0	-74.1	3.8	8.48e-01	0	41	104	0	80	34509
2026-01-04 03:06:29.96	103.66	5.82	-55.0	-74.1	3.8	8.47e-01	0	41	104	0	80	34575
2026-01-04 03:06:31.11	103.54	5.73	-55.0	-74.1	3.8	8.46e-01	0	42	104	0	80	34589
2026-01-04 03:06:31.97	103.46	5.67	-55.0	-74.1	3.8	8.46e-01	0	41	104	0	80	34519
2026-01-04 03:06:33.12	103.34	5.58	-55.0	-74.1	3.8	8.48e-01	0	41	104	0	80	34555
2026-01-04 03:06:33.98	103.26	5.52	-55.0	-74.1	3.8	8.48e-01	0	41	104	0	80	34584
2026-01-04 03:06:35.13	103.15	5.43	-55.0	-74.1	3.8	8.47e-01	0	41	104	0	80	34801
2026-01-04 03:06:35.99	103.07	5.36	-55.0	-74.1	3.8	8.47e-01	0	41	104	0	80	34542
2026-01-04 03:06:37.14	102.96	5.28	-55.0	-74.1	3.8	8.46e-01	0	41	104	0	80	34598
2026-01-04 03:06:38.00	102.87	5.21	-55.0	-74.1	3.8	8.46e-01	0	42	104	0	80	34555
2026-01-04 03:06:39.15	102.77	5.13	-55.0	-74.1	3.8	8.46e-01	0	41	104	0	80	34494
2026-01-04 03:06:40.01	102.69	5.07	-55.0	-74.0	3.8	8.47e-01	0	41	104	0	80	34430
2026-01-04 03:06:41.16	102.58	4.98	-55.0	-74.1	3.8	8.47e-01	0	41	104	0	80	34488
2026-01-04 03:06:42.02	102.50	4.92	-55.0	-74.1	3.8	8.47e-01	0	41	104	0	80	34613
2026-01-04 03:06:43.16	102.40	4.83	-55.0	-74.0	3.8	8.48e-01	0	41	104	0	80	34397

#Closed at: 2026-01-04 03:06:44
#Recorded file [0 MB]: D:/Data/31040_260104_055901.dat