passes_logs/2026/01/04/T1/T1__20260104_040920_FENGYUN_3E_rec.log

#Pass ID: 20260104_040920_FENGYUN 3E
#Satellite: FENGYUN 3E
#Configuration: FENGYUN 3E
#almurnet v.1.7.20251203
#Start time: 2026-01-04 04:09:20

#Version: 2.0.20230620
#Station: T1
#Location: 37.570604 lon 55.790049 lat
#TLE: 1 49008U 21062A   26003.51942929 -.00000034  00000+0  45519-5 0  9990
#TLE: 2 49008  98.7472   8.7829 0001426 160.7926 199.3304 14.19883272233213

#Time	Az	El	Level	Level2	SNR	BER	BlckErr	Temp	State	Recorded	gain1	gain2
2026-01-04 04:09:20.21	15.09	4.98	-52.8	-65.2	3.8	8.45e-01	0	40	0	0	76	14698
2026-01-04 04:09:21.21	15.09	5.05	-52.9	-65.1	3.8	8.47e-01	0	41	104	0	75	15294
2026-01-04 04:09:22.21	15.08	5.12	-52.8	-65.1	3.8	8.48e-01	0	41	104	0	75	15233
2026-01-04 04:09:23.22	15.07	5.19	-52.7	-65.0	3.8	8.47e-01	0	41	104	0	75	15159
2026-01-04 04:09:24.22	15.07	5.27	-52.8	-65.2	3.8	8.47e-01	0	41	104	0	75	15484
2026-01-04 04:09:25.23	15.06	5.34	-52.7	-65.1	3.8	8.47e-01	0	41	104	0	75	15352
2026-01-04 04:09:26.23	15.05	5.41	-52.7	-65.0	3.8	8.47e-01	0	41	104	0	75	15128
2026-01-04 04:09:27.23	15.05	5.48	-52.8	-65.1	3.8	8.48e-01	0	41	104	0	75	15240
2026-01-04 04:09:28.24	15.04	5.56	-52.8	-65.1	3.8	8.47e-01	0	41	104	0	75	15275
2026-01-04 04:09:29.24	15.03	5.63	-52.8	-65.0	3.8	8.46e-01	0	41	104	0	75	15159
2026-01-04 04:09:30.25	15.03	5.70	-52.7	-64.9	3.8	8.47e-01	0	41	104	0	75	14932
2026-01-04 04:09:31.25	15.02	5.78	-52.7	-64.8	3.8	8.48e-01	0	41	104	0	75	14816
2026-01-04 04:09:32.26	15.01	5.85	-52.7	-64.8	3.8	8.47e-01	0	41	104	0	75	14715
2026-01-04 04:09:33.26	15.01	5.92	-52.7	-64.7	3.8	8.46e-01	0	41	104	0	75	14696
2026-01-04 04:09:34.26	15.00	6.00	-52.7	-64.8	3.8	8.46e-01	0	41	104	0	75	14743
2026-01-04 04:09:35.27	14.99	6.07	-52.7	-64.8	3.8	8.48e-01	0	42	104	0	75	14825
2026-01-04 04:09:36.27	14.99	6.15	-52.7	-64.8	3.8	8.47e-01	0	41	104	0	75	14841
2026-01-04 04:09:37.28	14.98	6.22	-52.7	-64.9	3.8	8.46e-01	0	41	104	0	75	14982
2026-01-04 04:09:38.28	14.97	6.30	-52.8	-65.0	3.8	8.47e-01	0	42	104	0	75	15091
2026-01-04 04:09:39.29	14.96	6.37	-52.9	-65.1	3.8	8.47e-01	0	41	104	0	75	15307
2026-01-04 04:09:40.29	14.96	6.45	-52.9	-65.1	3.8	8.47e-01	0	42	104	0	75	15321
2026-01-04 04:09:41.30	14.95	6.52	-52.9	-65.1	3.8	8.48e-01	0	42	104	0	75	15277
2026-01-04 04:09:42.30	14.94	6.60	-52.9	-64.9	3.8	8.47e-01	0	42	104	0	75	14954
2026-01-04 04:09:43.31	14.93	6.67	-53.0	-64.8	3.8	8.48e-01	0	42	104	0	75	14776
2026-01-04 04:09:44.31	14.93	6.75	-52.9	-64.5	3.8	8.46e-01	0	42	104	0	75	14368
2026-01-04 04:09:45.31	14.92	6.83	-53.0	-64.4	3.8	8.46e-01	0	42	104	0	75	14063
2026-01-04 04:09:46.32	14.91	6.90	-53.0	-64.3	3.8	8.47e-01	0	42	104	0	75	13936
2026-01-04 04:09:47.32	14.90	6.98	-53.0	-64.1	3.8	8.46e-01	0	42	104	0	75	13669
2026-01-04 04:09:48.33	14.90	7.06	-52.9	-63.9	3.8	8.46e-01	0	42	104	0	75	13381
2026-01-04 04:09:49.33	14.89	7.13	-53.0	-63.9	3.8	8.47e-01	0	42	104	0	75	13277
2026-01-04 04:09:50.34	14.88	7.21	-52.9	-63.6	3.8	8.46e-01	0	42	104	0	75	12874
2026-01-04 04:09:51.34	14.87	7.29	-52.9	-63.6	3.8	8.47e-01	0	42	104	0	75	12816
2026-01-04 04:09:52.35	14.86	7.37	-52.9	-63.3	3.8	8.46e-01	0	42	104	0	75	12473
2026-01-04 04:09:53.35	14.86	7.44	-52.9	-63.0	4.0	8.44e-01	0	42	104	0	75	12017
2026-01-04 04:09:54.35	14.85	7.52	-52.8	-62.6	4.0	8.44e-01	0	42	104	0	75	11516
2026-01-04 04:09:55.36	14.84	7.60	-52.7	-62.3	4.1	8.41e-01	0	42	0	0	75	11076
2026-01-04 04:09:56.36	14.83	7.68	-52.7	-61.9	4.2	8.37e-01	0	42	0	0	75	10550
2026-01-04 04:09:57.37	14.82	7.76	-52.6	-61.5	4.3	8.34e-01	0	42	0	0	75	10123
2026-01-04 04:09:58.37	14.81	7.84	-52.4	-60.8	4.5	8.23e-01	0	42	0	0	75	9381
2026-01-04 04:09:59.37	14.80	7.92	-52.3	-60.3	4.7	8.05e-01	0	42	0	0	75	8786
2026-01-04 04:10:00.37	14.80	8.00	-52.2	-59.8	5.0	7.70e-01	0	42	0	0	75	8290
2026-01-04 04:10:01.38	14.79	8.08	-52.0	-58.9	5.5	7.19e-01	0	42	0	0	74	7938
2026-01-04 04:10:02.38	14.78	8.16	-51.9	-58.5	5.8	4.75e-01	0	42	0	3145728	74	7603
2026-01-04 04:10:03.39	14.77	8.24	-51.7	-57.7	6.4	2.69e-01	0	42	0	10485760	74	6944
2026-01-04 04:10:04.39	14.76	8.32	-51.6	-57.4	6.7	2.13e-01	0	42	0	17825792	74	6663
2026-01-04 04:10:05.39	14.75	8.40	-51.4	-56.8	7.3	1.41e-01	0	42	0	25165824	73	6580
2026-01-04 04:10:06.40	14.74	8.48	-51.1	-56.2	7.7	9.72e-02	0	42	0	31457280	73	6199
2026-01-04 04:10:07.40	14.73	8.57	-51.1	-56.1	7.9	7.16e-02	0	42	0	38797312	73	6071
2026-01-04 04:10:08.40	14.72	8.65	-51.0	-55.9	8.1	5.71e-02	0	42	0	46137344	72	6284
2026-01-04 04:10:09.40	14.71	8.73	-51.0	-55.7	8.2	5.29e-02	0	42	0	53477376	72	6197
2026-01-04 04:10:10.40	14.71	8.81	-50.8	-55.4	8.5	4.26e-02	0	43	0	60817408	72	5970
2026-01-04 04:10:11.40	14.70	8.89	-50.9	-55.5	8.5	3.64e-02	0	43	0	68157440	72	6014
2026-01-04 04:10:12.40	14.69	8.98	-50.9	-55.5	8.4	4.34e-02	0	42	0	75497472	72	6059
2026-01-04 04:10:13.40	14.68	9.06	-51.3	-56.7	7.3	5.78e-02	0	43	0	82837504	72	6907
2026-01-04 04:10:14.40	14.67	9.14	-51.6	-57.5	6.6	4.39e-01	0	42	0	88080384	73	7127
2026-01-04 04:10:15.40	14.66	9.23	-50.6	-54.9	9.2	3.41e-02	0	43	0	95420416	72	5623
2026-01-04 04:10:16.40	14.65	9.31	-52.0	-60.3	4.7	7.98e-01	0	43	0	98566144	73	9888
2026-01-04 04:10:17.45	14.64	9.40	-51.5	-57.6	6.2	8.46e-01	0	42	104	99614720	74	6875
2026-01-04 04:10:18.36	14.63	9.48	-46.5	-48.1	16.0	0.00e+00	0	43	0	104857600	63	4334
2026-01-04 04:10:19.36	14.62	9.56	-46.0	-47.5	16.7	0.00e+00	0	43	0	112197632	62	4244
2026-01-04 04:10:20.36	14.61	9.65	-44.8	-46.1	18.0	0.00e+00	0	43	0	119537664	60	4065
2026-01-04 04:10:21.37	14.60	9.73	-44.1	-45.2	18.6	0.00e+00	0	43	0	126877696	58	4124
2026-01-04 04:10:22.37	14.59	9.82	-44.0	-45.2	18.6	0.00e+00	0	43	0	133169152	58	4127
2026-01-04 04:10:23.37	14.58	9.90	-43.9	-45.0	19.0	0.00e+00	0	43	0	140509184	58	4013
2026-01-04 04:10:24.37	14.57	9.99	-44.0	-45.2	18.8	0.00e+00	0	43	0	147849216	58	4107
2026-01-04 04:10:25.37	14.56	10.08	-44.0	-45.2	18.8	0.00e+00	0	43	0	155189248	58	4100
2026-01-04 04:10:26.37	14.54	10.16	-43.9	-45.1	18.9	0.00e+00	0	43	0	162529280	58	4055
2026-01-04 04:10:27.37	14.53	10.25	-44.0	-45.2	18.9	0.00e+00	0	43	0	169869312	58	4100
2026-01-04 04:10:28.37	14.52	10.34	-43.8	-44.9	19.1	0.00e+00	0	43	0	177209344	58	3977
2026-01-04 04:10:29.37	14.51	10.43	-44.0	-45.1	18.8	0.00e+00	0	43	0	184549376	58	4085
2026-01-04 04:10:30.37	14.50	10.51	-43.9	-45.0	18.9	0.00e+00	0	43	0	191889408	58	4042
2026-01-04 04:10:31.38	14.49	10.60	-43.8	-45.0	18.9	0.00e+00	0	43	0	198180864	58	4023
2026-01-04 04:10:32.46	14.48	10.70	-43.8	-44.9	19.0	0.00e+00	0	43	0	206569472	58	3995
2026-01-04 04:10:33.36	14.47	10.78	-43.8	-44.9	19.1	0.00e+00	0	43	0	212860928	58	3995
2026-01-04 04:10:34.38	14.46	10.87	-43.7	-44.8	19.2	0.00e+00	0	43	0	220200960	58	3943
2026-01-04 04:10:35.38	14.44	10.96	-43.8	-44.9	19.1	0.00e+00	0	43	0	227540992	58	3981
2026-01-04 04:10:36.38	14.43	11.05	-43.6	-44.8	19.2	0.00e+00	0	43	0	234881024	58	3919
2026-01-04 04:10:37.38	14.42	11.14	-43.8	-44.9	19.0	0.00e+00	0	43	0	242221056	58	4003
2026-01-04 04:10:38.38	14.41	11.23	-43.8	-45.0	19.0	0.00e+00	0	43	0	249561088	58	4020
2026-01-04 04:10:39.38	14.40	11.32	-44.0	-45.1	18.9	0.00e+00	0	43	0	255852544	58	4087
2026-01-04 04:10:40.38	14.39	11.41	-43.7	-44.8	19.2	0.00e+00	0	43	0	263192576	58	3928
2026-01-04 04:10:41.39	14.37	11.50	-43.4	-44.5	19.4	0.00e+00	0	43	0	270532608	57	4038
2026-01-04 04:10:42.39	14.36	11.60	-43.3	-44.4	19.5	0.00e+00	0	43	0	277872640	57	3984
2026-01-04 04:10:43.39	14.35	11.69	-43.3	-44.3	19.5	0.00e+00	0	43	0	285212672	57	3951
2026-01-04 04:10:44.45	14.34	11.79	-43.4	-44.5	19.4	0.00e+00	0	43	0	292552704	57	4051
2026-01-04 04:10:45.38	14.32	11.87	-43.2	-44.3	19.6	0.00e+00	0	43	0	299892736	57	3949
2026-01-04 04:10:46.39	14.31	11.97	-43.1	-44.2	19.8	0.00e+00	0	43	0	307232768	56	4103
2026-01-04 04:10:47.39	14.30	12.06	-43.1	-44.2	19.8	0.00e+00	0	43	0	314572800	56	4106
2026-01-04 04:10:48.39	14.29	12.16	-43.1	-44.2	19.8	0.00e+00	0	43	0	320864256	56	4111
2026-01-04 04:10:49.39	14.27	12.25	-43.2	-44.3	19.7	0.00e+00	0	43	0	328204288	56	4146
2026-01-04 04:10:50.40	14.26	12.35	-42.9	-43.9	20.0	0.00e+00	0	43	0	335544320	56	4001
2026-01-04 04:10:51.39	14.25	12.44	-43.0	-44.1	19.9	0.00e+00	0	43	0	342884352	56	4069
2026-01-04 04:10:52.40	14.23	12.54	-42.9	-43.9	20.0	0.00e+00	0	43	0	350224384	56	3990
2026-01-04 04:10:53.40	14.22	12.63	-42.9	-43.9	20.0	0.00e+00	0	43	0	357564416	56	3996
2026-01-04 04:10:54.40	14.21	12.73	-43.0	-44.0	20.0	0.00e+00	0	43	0	364904448	56	4024
2026-01-04 04:10:55.40	14.19	12.83	-43.0	-44.0	20.0	0.00e+00	0	43	0	372244480	56	4045
2026-01-04 04:10:56.40	14.18	12.92	-43.0	-44.1	19.9	0.00e+00	0	43	0	379584512	56	4068
2026-01-04 04:10:57.40	14.16	13.02	-42.7	-43.7	20.2	0.00e+00	0	43	0	385875968	56	3912
2026-01-04 04:10:58.39	14.15	13.12	-42.7	-43.7	20.3	0.00e+00	0	43	0	393216000	56	3901
2026-01-04 04:10:59.39	14.14	13.22	-42.4	-43.4	20.4	0.00e+00	0	43	0	400556032	55	3998
2026-01-04 04:11:00.39	14.12	13.31	-42.5	-43.5	20.3	0.00e+00	0	43	0	407896064	55	4049
2026-01-04 04:11:01.40	14.11	13.41	-42.4	-43.5	20.4	0.00e+00	0	43	0	415236096	55	4009
2026-01-04 04:11:02.48	14.09	13.52	-42.5	-43.5	20.3	0.00e+00	0	43	0	423624704	55	4033
2026-01-04 04:11:03.34	14.08	13.61	-42.4	-43.4	20.4	0.00e+00	0	43	0	428867584	55	3994
2026-01-04 04:11:04.48	14.06	13.72	-42.5	-43.5	20.3	0.00e+00	0	43	0	437256192	55	4048
2026-01-04 04:11:05.34	14.05	13.81	-42.5	-43.5	20.3	0.00e+00	0	43	0	443547648	55	4036
2026-01-04 04:11:06.49	14.03	13.93	-42.4	-43.4	20.4	0.00e+00	0	43	0	451936256	55	3981
2026-01-04 04:11:07.35	14.02	14.01	-42.4	-43.4	20.3	0.00e+00	0	43	0	458227712	55	3977
2026-01-04 04:11:08.49	14.00	14.13	-42.3	-43.3	20.5	0.00e+00	0	43	0	466616320	55	3953
2026-01-04 04:11:09.34	13.99	14.22	-42.4	-43.5	20.4	0.00e+00	0	43	0	472907776	55	4007
2026-01-04 04:11:10.49	13.97	14.33	-42.0	-43.0	20.7	0.00e+00	0	43	0	481296384	54	4051
2026-01-04 04:11:11.34	13.96	14.42	-42.1	-43.2	20.6	0.00e+00	0	43	0	486539264	54	4103
2026-01-04 04:11:12.48	13.94	14.54	-42.0	-43.1	20.7	0.00e+00	0	43	0	494927872	54	4066
2026-01-04 04:11:13.34	13.93	14.63	-42.0	-43.0	20.7	0.00e+00	0	43	0	501219328	54	4043
2026-01-04 04:11:14.49	13.91	14.75	-42.4	-43.4	20.6	0.00e+00	0	43	0	509607936	54	4227
2026-01-04 04:11:15.35	13.89	14.84	-42.5	-43.6	20.4	0.00e+00	0	43	0	515899392	54	4305
2026-01-04 04:11:16.59	13.87	14.97	-42.5	-43.5	20.6	0.00e+00	0	43	0	525336576	54	4254
2026-01-04 04:11:17.44	13.86	15.06	-42.1	-43.1	20.8	0.00e+00	0	43	0	530579456	54	4094
2026-01-04 04:11:18.58	13.84	15.18	-42.2	-43.2	20.8	0.00e+00	0	43	0	538968064	54	4101
2026-01-04 04:11:19.44	13.83	15.28	-42.1	-43.1	20.8	0.00e+00	0	43	0	545259520	54	4070
2026-01-04 04:11:20.59	13.81	15.40	-42.1	-43.1	20.8	0.00e+00	0	43	0	553648128	54	4060
2026-01-04 04:11:21.44	13.79	15.49	-42.1	-43.1	20.8	0.00e+00	0	43	0	559939584	54	4079
2026-01-04 04:11:22.59	13.77	15.62	-42.0	-42.9	21.0	0.00e+00	0	43	0	568328192	54	4000
2026-01-04 04:11:23.45	13.76	15.71	-42.1	-43.1	20.8	0.00e+00	0	43	0	574619648	54	4067
2026-01-04 04:11:24.59	13.74	15.83	-42.0	-43.0	20.9	0.00e+00	0	43	0	583008256	54	4023
2026-01-04 04:11:25.45	13.72	15.93	-41.9	-42.9	21.1	0.00e+00	0	43	0	589299712	54	3971
2026-01-04 04:11:26.59	13.70	16.05	-42.0	-43.0	21.0	0.00e+00	0	43	0	596639744	54	4008
2026-01-04 04:11:27.71	13.68	16.18	-41.9	-42.9	21.1	0.00e+00	0	43	0	605028352	54	3961
2026-01-04 04:11:28.74	13.66	16.29	-42.0	-43.0	21.0	0.00e+00	0	43	0	612368384	54	4009
2026-01-04 04:11:29.74	13.64	16.40	-42.0	-43.0	20.9	0.00e+00	0	43	0	619708416	54	4023
2026-01-04 04:11:30.95	13.62	16.54	-41.8	-42.7	21.1	0.00e+00	0	43	0	628097024	54	3897
2026-01-04 04:11:31.85	13.60	16.64	-42.0	-42.9	21.0	0.00e+00	0	43	0	635437056	54	3998
2026-01-04 04:11:32.87	13.59	16.76	-41.9	-42.8	21.1	0.00e+00	0	43	0	642777088	54	3939
2026-01-04 04:11:33.87	13.57	16.87	-41.8	-42.8	21.1	0.00e+00	0	43	0	650117120	54	3918
2026-01-04 04:11:34.87	13.55	16.99	-41.8	-42.7	21.1	0.00e+00	0	43	0	657457152	54	3885
2026-01-04 04:11:35.87	13.53	17.10	-41.8	-42.7	21.2	0.00e+00	0	43	0	663748608	54	3899
2026-01-04 04:11:36.87	13.51	17.22	-41.6	-42.6	21.3	0.00e+00	0	43	0	671088640	54	3829
2026-01-04 04:11:37.87	13.49	17.33	-41.5	-42.5	21.4	0.00e+00	0	43	0	678428672	53	4005
2026-01-04 04:11:38.87	13.47	17.45	-41.6	-42.5	21.4	0.00e+00	0	43	0	685768704	53	4009
2026-01-04 04:11:39.87	13.45	17.57	-41.6	-42.5	21.3	0.00e+00	0	43	0	693108736	53	4016
2026-01-04 04:11:40.87	13.43	17.69	-41.5	-42.4	21.4	0.00e+00	0	43	0	700448768	53	3983
2026-01-04 04:11:41.88	13.41	17.81	-41.5	-42.4	21.3	0.00e+00	0	43	0	707788800	53	4002
2026-01-04 04:11:42.88	13.39	17.93	-41.5	-42.4	21.5	0.00e+00	0	43	0	715128832	53	3968
2026-01-04 04:11:43.90	13.36	18.05	-41.5	-42.4	21.4	0.00e+00	0	43	0	722468864	53	3978
2026-01-04 04:11:44.97	13.34	18.18	-41.6	-42.5	21.3	0.00e+00	0	43	0	729808896	53	4015
2026-01-04 04:11:45.82	13.32	18.28	-41.3	-42.2	21.5	0.00e+00	0	43	0	736100352	53	3899
2026-01-04 04:11:46.96	13.30	18.42	-41.2	-42.1	21.5	0.00e+00	0	44	0	744488960	53	3863
2026-01-04 04:11:47.82	13.28	18.52	-41.4	-42.3	21.4	0.00e+00	0	43	0	750780416	53	3944
2026-01-04 04:11:48.97	13.25	18.66	-41.2	-42.1	21.6	0.00e+00	0	43	0	759169024	53	3842
2026-01-04 04:11:49.83	13.24	18.77	-41.2	-42.1	21.7	0.00e+00	0	43	0	764411904	53	3836
2026-01-04 04:11:50.97	13.21	18.91	-41.1	-42.0	21.7	0.00e+00	0	43	0	772800512	52	4008
2026-01-04 04:11:51.83	13.19	19.02	-41.2	-42.1	21.6	0.00e+00	0	43	0	779091968	52	4067
2026-01-04 04:11:52.97	13.16	19.16	-41.1	-42.0	21.7	0.00e+00	0	43	0	787480576	52	4032
2026-01-04 04:11:53.83	13.14	19.27	-41.3	-42.2	21.6	0.00e+00	0	43	0	793772032	52	4122
2026-01-04 04:11:54.98	13.12	19.41	-41.2	-42.1	21.7	0.00e+00	0	43	0	802160640	52	4067
2026-01-04 04:11:55.84	13.10	19.52	-41.2	-42.1	21.7	0.00e+00	0	44	0	808452096	52	4057
2026-01-04 04:11:56.98	13.07	19.67	-41.2	-42.1	21.6	0.00e+00	0	44	0	816840704	52	4070
2026-01-04 04:11:57.84	13.05	19.78	-41.2	-42.1	21.7	0.00e+00	0	44	0	823132160	52	4069
2026-01-04 04:11:58.99	13.02	19.93	-41.1	-42.0	21.8	0.00e+00	0	43	0	830472192	52	4028
2026-01-04 04:11:59.84	13.00	20.04	-41.1	-42.0	21.7	0.00e+00	0	44	0	836763648	52	4016
2026-01-04 04:12:00.99	12.97	20.19	-41.1	-41.9	21.8	0.00e+00	0	43	0	845152256	52	4004
2026-01-04 04:12:01.85	12.95	20.30	-41.2	-42.1	21.6	0.00e+00	0	43	0	851443712	52	4078
2026-01-04 04:12:02.99	12.92	20.45	-41.4	-42.3	21.5	0.00e+00	0	43	0	859832320	52	4148
2026-01-04 04:12:03.85	12.90	20.56	-41.1	-42.0	21.7	0.00e+00	0	43	0	866123776	52	4037
2026-01-04 04:12:05.03	12.87	20.72	-41.2	-42.1	21.6	0.00e+00	0	43	0	874512384	52	4076
2026-01-04 04:12:05.89	12.85	20.84	-41.1	-41.9	21.7	0.00e+00	0	43	0	880803840	52	4001
2026-01-04 04:12:07.10	12.82	21.00	-41.0	-41.9	21.8	0.00e+00	0	44	0	889192448	52	3960
2026-01-04 04:12:07.96	12.79	21.12	-40.9	-41.8	21.8	0.00e+00	0	43	0	895483904	52	3938
2026-01-04 04:12:09.10	12.76	21.27	-41.1	-41.9	21.7	0.00e+00	0	43	0	903872512	52	3996
2026-01-04 04:12:09.96	12.74	21.39	-41.2	-42.0	21.8	0.00e+00	0	43	0	910163968	52	4043
2026-01-04 04:12:11.11	12.71	21.55	-41.2	-42.1	21.7	0.00e+00	0	44	0	918552576	52	4073
2026-01-04 04:12:12.01	12.68	21.67	-41.3	-42.1	21.9	0.00e+00	0	43	0	924844032	52	4088
2026-01-04 04:12:13.02	12.65	21.81	-41.3	-42.2	21.8	0.00e+00	0	43	0	932184064	52	4108
2026-01-04 04:12:14.02	12.63	21.95	-41.1	-42.0	21.9	0.00e+00	0	43	0	939524096	52	4009
2026-01-04 04:12:15.02	12.60	22.09	-41.1	-42.0	21.9	0.00e+00	0	43	0	946864128	52	4017
2026-01-04 04:12:16.02	12.57	22.23	-41.1	-42.0	21.9	0.00e+00	0	44	0	954204160	52	4015
2026-01-04 04:12:17.02	12.54	22.38	-41.0	-41.9	22.0	0.00e+00	0	44	0	961544192	52	3974
2026-01-04 04:12:18.02	12.51	22.52	-40.9	-41.8	22.0	0.00e+00	0	43	0	968884224	52	3914
2026-01-04 04:12:19.02	12.48	22.66	-41.1	-42.0	21.9	0.00e+00	0	43	0	976224256	52	4016
2026-01-04 04:12:20.02	12.45	22.81	-41.1	-41.9	21.9	0.00e+00	0	43	0	982515712	52	3997
2026-01-04 04:12:21.02	12.42	22.95	-41.1	-42.0	21.9	0.00e+00	0	43	0	989855744	52	4022
2026-01-04 04:12:22.02	12.39	23.10	-41.3	-42.1	21.8	0.00e+00	0	43	0	997195776	52	4087
2026-01-04 04:12:23.02	12.36	23.25	-41.1	-41.9	22.0	0.00e+00	0	44	0	1004535808	52	3997
2026-01-04 04:12:24.02	12.33	23.39	-41.0	-41.8	22.0	0.00e+00	0	43	0	1011875840	52	3957
2026-01-04 04:12:25.02	12.30	23.54	-40.8	-41.7	22.2	0.00e+00	0	43	0	1019215872	52	3880
2026-01-04 04:12:26.03	12.26	23.69	-40.8	-41.6	22.1	0.00e+00	0	43	0	1026555904	52	3858
2026-01-04 04:12:27.02	12.23	23.84	-40.7	-41.5	22.2	0.00e+00	0	43	0	1033895936	52	3822
2026-01-04 04:12:28.02	12.20	23.99	-40.8	-41.7	22.1	0.00e+00	0	43	0	1040187392	52	3882
2026-01-04 04:12:29.03	12.17	24.15	-40.9	-41.7	22.1	0.00e+00	0	43	0	1047527424	52	3896
2026-01-04 04:12:30.02	12.13	24.30	-40.9	-41.7	22.1	0.00e+00	0	44	0	1054867456	52	3909
2026-01-04 04:12:31.03	12.10	24.45	-40.7	-41.5	22.3	0.00e+00	0	44	0	1062207488	52	3818
2026-01-04 04:12:32.03	12.06	24.61	-40.7	-41.6	22.3	0.00e+00	0	44	0	1069547520	52	3844
2026-01-04 04:12:33.03	12.03	24.76	-40.6	-41.4	22.3	0.00e+00	0	44	0	1076887552	52	3776
2026-01-04 04:12:34.03	11.99	24.92	-40.6	-41.4	22.4	0.00e+00	0	44	0	1084227584	51	3984
2026-01-04 04:12:35.04	11.96	25.08	-40.6	-41.4	22.4	0.00e+00	0	43	0	1091567616	51	3984
2026-01-04 04:12:36.04	11.92	25.24	-40.5	-41.3	22.4	0.00e+00	0	43	0	1098907648	51	3932
2026-01-04 04:12:37.04	11.89	25.40	-40.4	-41.2	22.5	0.00e+00	0	44	0	1105199104	51	3887
2026-01-04 04:12:38.04	11.85	25.56	-40.5	-41.4	22.5	0.00e+00	0	44	0	1112539136	51	3959
2026-01-04 04:12:39.04	11.81	25.72	-40.4	-41.2	22.6	0.00e+00	0	43	0	1119879168	51	3897
2026-01-04 04:12:40.04	11.78	25.88	-40.3	-41.1	22.6	0.00e+00	0	43	0	1127219200	51	3863
2026-01-04 04:12:41.05	11.74	26.05	-40.4	-41.3	22.5	0.00e+00	0	43	0	1134559232	51	3928
2026-01-04 04:12:42.05	11.70	26.21	-40.4	-41.2	22.5	0.00e+00	0	43	0	1141899264	51	3900
2026-01-04 04:12:43.05	11.66	26.38	-40.4	-41.2	22.5	0.00e+00	0	43	0	1149239296	51	3908
2026-01-04 04:12:44.05	11.62	26.54	-40.4	-41.2	22.5	0.00e+00	0	43	0	1156579328	51	3912
2026-01-04 04:12:45.05	11.58	26.71	-40.4	-41.3	22.4	0.00e+00	0	43	0	1163919360	51	3938
2026-01-04 04:12:46.06	11.54	26.88	-40.5	-41.3	22.4	0.00e+00	0	43	0	1170210816	51	3940
2026-01-04 04:12:47.06	11.50	27.05	-40.7	-41.5	22.3	0.00e+00	0	44	0	1178599424	51	4035
2026-01-04 04:12:48.06	11.46	27.22	-40.7	-41.5	22.3	0.00e+00	0	44	0	1185939456	51	4042
2026-01-04 04:12:49.06	11.42	27.39	-40.6	-41.5	22.4	0.00e+00	0	43	0	1192230912	51	4025
2026-01-04 04:12:50.06	11.38	27.56	-40.8	-41.6	22.2	0.00e+00	0	44	0	1199570944	51	4080
2026-01-04 04:12:51.06	11.34	27.74	-40.6	-41.4	22.4	0.00e+00	0	43	0	1206910976	51	3988
2026-01-04 04:12:52.16	11.29	27.93	-40.4	-41.2	22.6	0.00e+00	0	43	0	1214251008	51	3888
2026-01-04 04:12:53.02	11.25	28.08	-40.4	-41.2	22.5	0.00e+00	0	44	0	1221591040	51	3893
2026-01-04 04:12:54.16	11.20	28.28	-40.3	-41.1	22.6	0.00e+00	0	44	0	1229979648	51	3849
2026-01-04 04:12:55.02	11.16	28.44	-40.4	-41.3	22.6	0.00e+00	0	43	0	1235222528	51	3915
2026-01-04 04:12:56.17	11.11	28.64	-40.3	-41.1	22.7	0.00e+00	0	43	0	1243611136	51	3852
2026-01-04 04:12:57.03	11.07	28.80	-40.3	-41.1	22.7	0.00e+00	0	44	0	1249902592	51	3841
2026-01-04 04:12:58.17	11.02	29.00	-40.2	-41.0	22.7	0.00e+00	0	43	0	1258291200	51	3804
2026-01-04 04:12:59.30	10.97	29.21	-40.1	-40.9	22.8	0.00e+00	0	43	0	1266679808	50	3986
2026-01-04 04:13:00.33	10.92	29.40	-40.2	-41.0	22.7	0.00e+00	0	44	0	1274019840	50	4042
2026-01-04 04:13:01.51	10.86	29.62	-40.1	-41.0	22.8	0.00e+00	0	43	0	1282408448	50	4005
2026-01-04 04:13:02.36	10.82	29.78	-40.2	-41.0	22.8	0.00e+00	0	44	0	1288699904	50	4023
2026-01-04 04:13:03.51	10.76	29.99	-40.2	-41.0	22.8	0.00e+00	0	44	0	1297088512	50	4027
2026-01-04 04:13:04.36	10.72	30.15	-40.3	-41.1	22.8	0.00e+00	0	43	0	1303379968	50	4064
2026-01-04 04:13:05.51	10.66	30.37	-40.3	-41.2	22.7	0.00e+00	0	43	0	1310720000	50	4105
2026-01-04 04:13:06.37	10.62	30.54	-40.2	-41.0	22.8	0.00e+00	0	43	0	1318060032	50	4030
2026-01-04 04:13:07.51	10.56	30.76	-40.2	-41.1	22.8	0.00e+00	0	43	0	1325400064	50	4060
2026-01-04 04:13:08.37	10.52	30.92	-40.3	-41.2	22.7	0.00e+00	0	43	0	1331691520	50	4106
2026-01-04 04:13:09.51	10.45	31.15	-40.4	-41.2	22.7	0.00e+00	0	43	0	1340080128	50	4125
2026-01-04 04:13:10.37	10.41	31.32	-40.5	-41.3	22.7	0.00e+00	0	43	0	1346371584	50	4184
2026-01-04 04:13:11.51	10.35	31.54	-40.5	-41.3	22.7	0.00e+00	0	43	0	1354760192	50	4167
2026-01-04 04:13:12.37	10.30	31.71	-40.5	-41.4	22.6	0.00e+00	0	43	0	1361051648	50	4203
2026-01-04 04:13:13.52	10.23	31.94	-40.6	-41.5	22.5	0.00e+00	0	44	0	1369440256	50	4255
2026-01-04 04:13:14.38	10.19	32.12	-40.8	-41.6	22.4	0.00e+00	0	43	0	1375731712	50	4325
2026-01-04 04:13:15.53	10.12	32.35	-40.7	-41.6	22.4	0.00e+00	0	43	0	1383071744	50	4297
2026-01-04 04:13:16.39	10.07	32.53	-40.7	-41.6	22.3	0.00e+00	0	43	0	1389363200	50	4321
2026-01-04 04:13:17.53	10.00	32.76	-40.8	-41.7	22.3	0.00e+00	0	44	0	1397751808	51	4117
2026-01-04 04:13:18.39	9.95	32.94	-40.7	-41.5	22.4	0.00e+00	0	44	0	1404043264	51	4050
2026-01-04 04:13:19.53	9.88	33.18	-40.6	-41.4	22.5	0.00e+00	0	44	0	1412431872	51	4004
2026-01-04 04:13:20.39	9.83	33.36	-40.6	-41.5	22.5	0.00e+00	0	44	0	1418723328	51	4022
2026-01-04 04:13:21.54	9.76	33.60	-40.5	-41.4	22.5	0.00e+00	0	44	0	1427111936	51	3971
2026-01-04 04:13:22.39	9.70	33.79	-40.7	-41.6	22.4	0.00e+00	0	44	0	1433403392	51	4055
2026-01-04 04:13:23.53	9.63	34.03	-40.7	-41.5	22.4	0.00e+00	0	43	0	1441792000	51	4037
2026-01-04 04:13:24.39	9.57	34.22	-40.4	-41.3	22.7	0.00e+00	0	44	0	1447034880	51	3925
2026-01-04 04:13:25.54	9.50	34.47	-40.4	-41.2	22.7	0.00e+00	0	43	0	1455423488	51	3891
2026-01-04 04:13:26.40	9.44	34.65	-40.3	-41.1	22.7	0.00e+00	0	44	0	1461714944	51	3866
2026-01-04 04:13:27.55	9.36	34.91	-40.3	-41.2	22.7	0.00e+00	0	44	0	1470103552	51	3875
2026-01-04 04:13:28.41	9.30	35.10	-40.2	-41.0	22.8	0.00e+00	0	43	0	1476395008	51	3803
2026-01-04 04:13:29.55	9.22	35.35	-40.2	-41.0	22.8	0.00e+00	0	44	0	1484783616	51	3799
2026-01-04 04:13:30.41	9.16	35.55	-40.2	-41.0	22.8	0.00e+00	0	44	0	1491075072	50	4039
2026-01-04 04:13:31.56	9.08	35.81	-40.2	-41.0	22.8	0.00e+00	0	43	0	1499463680	50	4051
2026-01-04 04:13:32.42	9.02	36.00	-40.2	-41.0	22.8	0.00e+00	0	43	0	1505755136	50	4038
2026-01-04 04:13:33.56	8.93	36.27	-40.3	-41.1	22.7	0.00e+00	0	43	0	1514143744	50	4064
2026-01-04 04:13:34.42	8.87	36.47	-40.3	-41.1	22.7	0.00e+00	0	44	0	1520435200	50	4076
2026-01-04 04:13:35.56	8.78	36.73	-40.3	-41.1	22.7	0.00e+00	0	44	0	1528823808	50	4089
2026-01-04 04:13:36.42	8.71	36.93	-40.3	-41.1	22.8	0.00e+00	0	44	0	1534066688	50	4073
2026-01-04 04:13:37.57	8.62	37.20	-40.1	-40.9	22.8	0.00e+00	0	43	0	1542455296	50	4000
2026-01-04 04:13:38.43	8.55	37.41	-40.0	-40.8	22.9	0.00e+00	0	44	0	1548746752	50	3957
2026-01-04 04:13:39.57	8.46	37.68	-40.0	-40.9	22.8	0.00e+00	0	44	0	1557135360	50	3959
2026-01-04 04:13:40.43	8.39	37.89	-40.0	-40.8	22.9	0.00e+00	0	44	0	1563426816	50	3945
2026-01-04 04:13:41.57	8.30	38.17	-39.9	-40.7	23.0	0.00e+00	0	44	0	1571815424	50	3912
2026-01-04 04:13:42.43	8.22	38.38	-39.9	-40.7	23.1	0.00e+00	0	44	0	1578106880	50	3893
2026-01-04 04:13:43.58	8.12	38.66	-39.9	-40.7	23.0	0.00e+00	0	44	0	1586495488	50	3908
2026-01-04 04:13:44.44	8.05	38.87	-40.0	-40.8	23.1	0.00e+00	0	44	0	1591738368	50	3928
2026-01-04 04:13:45.63	7.94	39.17	-40.0	-40.8	23.0	0.00e+00	0	43	0	1601175552	50	3935
2026-01-04 04:13:46.49	7.86	39.39	-40.1	-40.9	22.9	0.00e+00	0	43	0	1607467008	50	3983
2026-01-04 04:13:47.64	7.76	39.68	-40.1	-41.0	22.8	0.00e+00	0	44	0	1614807040	50	4006
2026-01-04 04:13:48.49	7.68	39.90	-40.3	-41.1	22.6	0.00e+00	0	44	0	1621098496	50	4088
2026-01-04 04:13:49.64	7.57	40.19	-40.3	-41.1	22.7	0.00e+00	0	44	0	1629487104	50	4091
2026-01-04 04:13:50.50	7.49	40.42	-40.4	-41.3	22.5	0.00e+00	0	44	0	1635778560	50	4152
2026-01-04 04:13:51.64	7.37	40.71	-40.5	-41.3	22.5	0.00e+00	0	44	0	1644167168	50	4169
2026-01-04 04:13:52.62	7.28	40.97	-40.5	-41.3	22.5	0.00e+00	0	44	0	1651507200	50	4170
2026-01-04 04:13:53.78	7.16	41.28	-40.5	-41.3	22.5	0.00e+00	0	44	0	1659895808	50	4173
2026-01-04 04:13:54.64	7.07	41.51	-40.6	-41.4	22.4	0.00e+00	0	44	0	1666187264	50	4217
2026-01-04 04:13:56.01	6.92	41.87	-40.5	-41.3	22.6	0.00e+00	0	43	0	1675624448	50	4191
2026-01-04 04:13:56.73	6.85	42.07	-40.5	-41.3	22.6	0.00e+00	0	44	0	1680867328	50	4169
2026-01-04 04:13:58.01	6.71	42.42	-40.5	-41.3	22.7	0.00e+00	0	44	0	1690304512	50	4165
2026-01-04 04:13:58.73	6.63	42.61	-40.2	-41.0	22.8	0.00e+00	0	44	0	1695547392	50	4051
2026-01-04 04:14:00.28	6.45	43.04	-40.2	-41.0	22.8	0.00e+00	0	43	0	1707081728	50	4044
2026-01-04 04:14:00.99	6.37	43.24	-40.1	-40.9	22.9	0.00e+00	0	43	0	1711276032	50	3998
2026-01-04 04:14:02.28	6.21	43.60	-40.4	-41.3	22.6	0.00e+00	0	44	0	1720713216	50	4153
2026-01-04 04:14:03.00	6.13	43.81	-40.4	-41.3	22.6	0.00e+00	0	43	0	1725956096	50	4147
2026-01-04 04:14:04.29	5.97	44.17	-40.7	-41.5	22.3	0.00e+00	0	44	0	1735393280	51	4039
2026-01-04 04:14:05.00	5.88	44.38	-40.8	-41.7	22.2	0.00e+00	0	43	0	1740636160	51	4100
2026-01-04 04:14:06.29	5.72	44.75	-40.7	-41.6	22.3	0.00e+00	0	43	0	1750073344	51	4056
2026-01-04 04:14:07.00	5.63	44.95	-40.7	-41.6	22.3	0.00e+00	0	44	0	1755316224	51	4052
2026-01-04 04:14:08.29	5.45	45.33	-40.8	-41.7	22.3	0.00e+00	0	43	0	1764753408	51	4117
2026-01-04 04:14:09.09	5.35	45.57	-40.8	-41.6	22.4	0.00e+00	0	44	0	1769996288	51	4088
2026-01-04 04:14:10.26	5.19	45.91	-40.9	-41.8	22.3	0.00e+00	0	44	0	1778384896	51	4146
2026-01-04 04:14:11.12	5.07	46.17	-41.0	-41.9	22.2	0.00e+00	0	44	0	1784676352	51	4200
2026-01-04 04:14:12.27	4.90	46.51	-41.2	-42.1	22.1	0.00e+00	0	44	0	1793064960	51	4304
2026-01-04 04:14:13.13	4.78	46.77	-41.2	-42.1	22.0	0.00e+00	0	44	0	1799356416	52	4081
2026-01-04 04:14:14.28	4.61	47.12	-41.1	-42.0	22.2	0.00e+00	0	43	0	1807745024	52	4007
2026-01-04 04:14:15.14	4.48	47.39	-41.6	-42.4	21.8	0.00e+00	0	44	0	1814036480	52	4241
2026-01-04 04:14:16.28	4.30	47.74	-41.8	-42.7	21.5	0.00e+00	0	44	0	1822425088	53	4104
2026-01-04 04:14:17.14	4.16	48.01	-41.8	-42.6	21.6	0.00e+00	0	44	0	1828716544	53	4088
2026-01-04 04:14:18.33	3.97	48.38	-41.9	-42.8	21.4	0.00e+00	0	44	0	1837105152	53	4169
2026-01-04 04:14:19.19	3.83	48.65	-41.9	-42.8	21.4	0.00e+00	0	44	0	1843396608	53	4146
2026-01-04 04:14:20.40	3.63	49.03	-41.8	-42.7	21.4	0.00e+00	0	44	0	1851785216	53	4129
2026-01-04 04:14:21.26	3.48	49.30	-41.8	-42.7	21.5	0.00e+00	0	44	0	1858076672	53	4106
2026-01-04 04:14:22.40	3.28	49.67	-41.9	-42.8	21.3	0.00e+00	0	44	0	1866465280	53	4165
2026-01-04 04:14:23.26	3.12	49.95	-41.8	-42.6	21.4	0.00e+00	0	44	0	1872756736	53	4097
2026-01-04 04:14:24.40	2.92	50.32	-41.8	-42.7	21.4	0.00e+00	0	44	0	1880096768	53	4125
2026-01-04 04:14:25.26	2.75	50.60	-41.8	-42.6	21.5	0.00e+00	0	44	0	1887436800	53	4078
2026-01-04 04:14:26.41	2.53	50.98	-41.7	-42.6	21.6	0.00e+00	0	44	0	1894776832	53	4064
2026-01-04 04:14:27.31	2.36	51.27	-41.8	-42.7	21.5	0.00e+00	0	43	0	1902116864	53	4136
2026-01-04 04:14:28.49	2.12	51.67	-41.6	-42.5	21.7	0.00e+00	0	44	0	1910505472	53	4026
2026-01-04 04:14:29.35	1.94	51.95	-41.6	-42.5	21.6	0.00e+00	0	44	0	1916796928	53	4026
2026-01-04 04:14:30.72	1.65	52.41	-41.8	-42.7	21.4	0.00e+00	0	44	0	1926234112	53	4111
2026-01-04 04:14:31.44	1.50	52.66	-41.8	-42.7	21.4	0.00e+00	0	44	0	1931476992	53	4121
2026-01-04 04:14:32.73	1.21	53.10	-41.9	-42.8	21.2	0.00e+00	0	44	0	1940914176	53	4178
2026-01-04 04:14:33.44	1.05	53.34	-42.0	-42.9	21.2	0.00e+00	0	44	0	1946157056	53	4218
2026-01-04 04:14:34.73	0.75	53.79	-42.1	-43.0	21.1	0.00e+00	0	44	0	1955594240	54	4019
2026-01-04 04:14:35.46	0.58	54.04	-41.8	-42.7	21.3	0.00e+00	0	43	0	1960837120	53	4134
2026-01-04 04:14:36.75	0.27	54.49	-42.0	-42.9	21.2	0.00e+00	0	44	0	1969225728	53	4222
2026-01-04 04:14:37.47	0.09	54.74	-41.8	-42.7	21.3	0.00e+00	0	44	0	1975517184	53	4103
2026-01-04 04:14:38.76	359.75	55.19	-41.6	-42.5	21.6	0.00e+00	0	44	0	1983905792	53	4012
2026-01-04 04:14:39.47	359.57	55.44	-41.4	-42.2	21.8	0.00e+00	0	44	0	1989148672	53	3908
2026-01-04 04:14:40.76	359.22	55.90	-41.8	-42.7	21.4	0.00e+00	0	44	0	1998585856	53	4119
2026-01-04 04:14:41.47	359.02	56.16	-41.7	-42.6	21.4	0.00e+00	0	44	0	2003828736	53	4078
2026-01-04 04:14:42.76	358.66	56.62	-42.0	-42.9	21.1	0.00e+00	0	44	0	2013265920	53	4235
2026-01-04 04:14:43.48	358.45	56.88	-42.3	-43.2	20.9	0.00e+00	0	44	0	2018508800	54	4140
2026-01-04 04:14:44.77	358.06	57.35	-42.2	-43.1	21.1	0.00e+00	0	44	0	2027945984	54	4095
2026-01-04 04:14:45.48	357.84	57.60	-42.4	-43.3	21.1	0.00e+00	0	43	0	2033188864	54	4153
2026-01-04 04:14:46.77	357.43	58.07	-41.8	-42.7	21.6	0.00e+00	0	44	0	2042626048	54	3876
2026-01-04 04:14:47.48	357.20	58.33	-41.9	-42.8	21.6	0.00e+00	0	44	0	2047868928	54	3915
2026-01-04 04:14:48.77	356.77	58.81	-42.1	-43.0	21.4	0.00e+00	0	43	0	2056257536	54	4014
2026-01-04 04:14:49.56	356.50	59.10	-42.0	-42.9	21.4	0.00e+00	0	44	0	2062548992	54	3961
2026-01-04 04:14:50.71	356.09	59.53	-41.9	-42.7	21.4	0.00e+00	0	44	0	2070937600	54	3905
2026-01-04 04:14:51.57	355.78	59.85	-42.3	-43.2	21.1	0.00e+00	0	44	0	2077229056	54	4111
2026-01-04 04:14:52.71	355.35	60.27	-41.7	-42.6	21.5	0.00e+00	0	44	0	2085617664	54	3852
2026-01-04 04:14:53.57	355.02	60.59	-41.8	-42.6	21.5	0.00e+00	0	44	0	2090860544	53	4090
2026-01-04 04:14:54.72	354.56	61.02	-41.4	-42.3	21.8	0.00e+00	0	44	0	2099249152	53	3917
2026-01-04 04:14:55.57	354.22	61.34	-41.4	-42.3	21.8	0.00e+00	0	44	0	2105540608	52	4179
2026-01-04 04:14:56.72	353.73	61.78	-41.3	-42.1	21.9	0.00e+00	0	44	0	2113929216	52	4084
2026-01-04 04:14:57.57	353.36	62.10	-41.8	-42.7	21.5	0.00e+00	0	44	0	2120220672	53	4120
2026-01-04 04:14:58.72	352.84	62.53	-41.7	-42.6	21.5	0.00e+00	0	44	0	2128609280	53	4085
2026-01-04 04:14:59.58	352.44	62.86	-41.2	-42.1	22.0	0.00e+00	0	44	0	2134900736	53	3839
2026-01-04 04:15:00.91	351.80	63.36	-41.2	-42.0	22.0	0.00e+00	0	44	0	2144337920	52	4041
2026-01-04 04:15:01.63	351.45	63.63	-41.1	-41.9	22.2	0.00e+00	0	44	0	2149580800	51	4223
2026-01-04 04:15:02.92	350.78	64.12	-40.9	-41.7	22.4	0.00e+00	0	44	0	2159017984	51	4131
2026-01-04 04:15:03.63	350.41	64.39	-41.0	-41.8	22.5	0.00e+00	0	44	0	2164260864	51	4186
2026-01-04 04:15:04.92	349.70	64.88	-41.0	-41.8	22.5	0.00e+00	0	44	0	2173698048	51	4192
2026-01-04 04:15:05.64	349.29	65.15	-40.9	-41.8	22.5	0.00e+00	0	44	0	2177892352	51	4168
2026-01-04 04:15:06.93	348.53	65.64	-40.6	-41.4	22.8	0.00e+00	0	44	0	2187329536	51	3978
2026-01-04 04:15:07.64	348.10	65.91	-40.3	-41.1	22.9	0.00e+00	0	44	0	2192572416	51	3849
2026-01-04 04:15:08.93	347.29	66.40	-40.3	-41.2	22.8	0.00e+00	0	44	0	2202009600	51	3872
2026-01-04 04:15:09.64	346.82	66.66	-40.4	-41.3	22.7	0.00e+00	0	44	0	2207252480	51	3916
2026-01-04 04:15:10.93	345.95	67.15	-40.3	-41.1	22.9	0.00e+00	0	44	0	2216689664	51	3830
2026-01-04 04:15:11.65	345.45	67.42	-40.1	-41.0	22.8	0.00e+00	0	43	0	2221932544	50	4008
2026-01-04 04:15:12.93	344.52	67.89	-40.1	-40.9	23.0	0.00e+00	0	44	0	2231369728	50	3967
2026-01-04 04:15:13.65	343.97	68.16	-40.0	-40.8	23.1	0.00e+00	0	44	0	2236612608	50	3933
2026-01-04 04:15:14.94	342.96	68.63	-40.3	-41.2	22.8	0.00e+00	0	44	0	2245001216	50	4112
2026-01-04 04:15:15.65	342.39	68.89	-40.5	-41.3	22.6	0.00e+00	0	44	0	2250244096	50	4185
2026-01-04 04:15:17.27	341.01	69.48	-40.7	-41.6	22.4	0.00e+00	0	44	0	2262827008	51	4064
2026-01-04 04:15:18.12	340.26	69.79	-40.9	-41.7	22.3	0.00e+00	0	44	0	2269118464	51	4119
2026-01-04 04:15:19.26	339.20	70.19	-41.1	-42.0	22.1	0.00e+00	0	44	0	2276458496	51	4252
2026-01-04 04:15:20.12	338.38	70.50	-41.2	-42.1	22.0	0.00e+00	0	44	0	2282749952	51	4316
2026-01-04 04:15:21.31	337.19	70.91	-41.2	-42.1	21.8	0.00e+00	0	44	0	2291138560	52	4078
2026-01-04 04:15:22.16	336.31	71.20	-40.8	-41.6	22.3	0.00e+00	0	44	0	2297430016	52	3861
2026-01-04 04:15:23.39	334.98	71.62	-40.4	-41.2	22.8	0.00e+00	0	44	0	2306867200	51	3885
2026-01-04 04:15:24.25	334.01	71.90	-40.1	-40.9	22.9	0.00e+00	0	44	0	2312110080	50	3983
2026-01-04 04:15:25.39	332.68	72.27	-40.3	-41.1	22.8	0.00e+00	0	44	0	2320498688	50	4088
2026-01-04 04:15:26.25	331.63	72.55	-40.5	-41.3	22.6	0.00e+00	0	44	0	2326790144	50	4180
2026-01-04 04:15:27.40	330.18	72.91	-40.1	-40.8	23.0	0.00e+00	0	44	0	2335178752	50	3956
2026-01-04 04:15:28.25	329.07	73.17	-40.2	-41.1	22.9	0.00e+00	0	44	0	2341470208	50	4059
2026-01-04 04:15:29.40	327.50	73.51	-40.3	-41.1	22.9	0.00e+00	0	44	0	2349858816	50	4082
2026-01-04 04:15:30.42	326.05	73.81	-40.3	-41.1	22.9	0.00e+00	0	44	0	2357198848	50	4083
2026-01-04 04:15:31.42	324.58	74.09	-40.2	-41.0	22.9	0.00e+00	0	44	0	2364538880	50	4047
2026-01-04 04:15:32.42	323.05	74.35	-40.2	-41.1	22.9	0.00e+00	0	44	0	2371878912	50	4054
2026-01-04 04:15:33.42	321.47	74.61	-40.0	-40.8	23.0	0.00e+00	0	44	0	2379218944	50	3953
2026-01-04 04:15:34.42	319.83	74.86	-40.1	-40.9	23.0	0.00e+00	0	44	0	2386558976	50	3985
2026-01-04 04:15:35.42	318.14	75.10	-40.3	-41.1	22.9	0.00e+00	0	44	0	2393899008	50	4081
2026-01-04 04:15:36.42	316.39	75.32	-40.3	-41.2	22.8	0.00e+00	0	44	0	2400190464	50	4102
2026-01-04 04:15:37.42	314.59	75.53	-39.9	-40.7	23.1	0.00e+00	0	44	0	2407530496	50	3890
2026-01-04 04:15:38.42	312.73	75.73	-39.8	-40.6	23.2	0.00e+00	0	44	0	2414870528	50	3851
2026-01-04 04:15:39.42	310.82	75.91	-40.0	-40.8	23.2	0.00e+00	0	44	0	2422210560	50	3944
2026-01-04 04:15:40.43	308.85	76.07	-40.3	-41.2	23.0	0.00e+00	0	44	0	2429550592	50	4100
2026-01-04 04:15:41.43	306.84	76.22	-39.9	-40.7	23.4	0.00e+00	0	44	0	2436890624	50	3894
2026-01-04 04:15:42.43	304.80	76.36	-39.5	-40.2	23.7	0.00e+00	0	44	0	2444230656	49	3906
2026-01-04 04:15:43.47	302.63	76.48	-39.5	-40.3	23.6	0.00e+00	0	44	0	2451570688	49	3920
2026-01-04 04:15:44.42	300.61	76.57	-39.6	-40.4	23.6	0.00e+00	0	44	0	2458910720	49	3968
2026-01-04 04:15:45.42	298.46	76.65	-39.7	-40.5	23.4	0.00e+00	0	44	0	2465202176	49	4032
2026-01-04 04:15:46.42	296.29	76.71	-39.6	-40.4	23.5	0.00e+00	0	44	0	2472542208	49	3999
2026-01-04 04:15:47.42	294.10	76.76	-39.8	-40.6	23.5	0.00e+00	0	44	0	2479882240	49	4083
2026-01-04 04:15:48.42	291.90	76.78	-39.9	-40.6	23.1	0.00e+00	0	44	0	2487222272	49	4089
2026-01-04 04:15:49.42	289.69	76.79	-40.0	-40.8	23.2	0.00e+00	0	44	0	2494562304	49	4158
2026-01-04 04:15:50.42	287.48	76.77	-39.9	-40.7	23.2	0.00e+00	0	44	0	2501902336	49	4113
2026-01-04 04:15:51.42	285.28	76.74	-39.6	-40.4	23.4	0.00e+00	0	44	0	2509242368	49	3992
2026-01-04 04:15:52.43	283.08	76.69	-39.7	-40.5	23.3	0.00e+00	0	44	0	2516582400	49	4022
2026-01-04 04:15:53.43	280.91	76.62	-39.6	-40.4	23.4	0.00e+00	0	44	0	2523922432	49	4002
2026-01-04 04:15:54.43	278.78	76.53	-39.5	-40.3	23.5	0.00e+00	0	44	0	2530213888	49	3945
2026-01-04 04:15:55.43	276.67	76.42	-39.5	-40.3	23.5	0.00e+00	0	44	0	2537553920	49	3938
2026-01-04 04:15:56.45	274.56	76.29	-39.8	-40.6	23.3	0.00e+00	0	44	0	2544893952	49	4082
2026-01-04 04:15:57.48	272.47	76.15	-40.1	-40.9	23.1	0.00e+00	0	44	0	2552233984	49	4232
2026-01-04 04:15:58.48	270.49	75.99	-40.0	-40.8	23.2	0.00e+00	0	44	0	2559574016	49	4161
2026-01-04 04:15:59.48	268.56	75.82	-39.8	-40.6	23.4	0.00e+00	0	44	0	2566914048	49	4089
2026-01-04 04:16:00.48	266.68	75.63	-39.6	-40.4	23.5	0.00e+00	0	44	0	2574254080	49	3991
2026-01-04 04:16:01.49	264.83	75.42	-39.9	-40.7	23.3	0.00e+00	0	44	0	2581594112	49	4107
2026-01-04 04:16:02.49	263.05	75.21	-40.2	-41.0	23.1	0.00e+00	0	44	0	2588934144	50	4029
2026-01-04 04:16:03.49	261.33	74.98	-40.2	-41.0	23.1	0.00e+00	0	44	0	2596274176	50	4032
2026-01-04 04:16:04.49	259.67	74.73	-40.3	-41.1	23.0	0.00e+00	0	44	0	2603614208	50	4057
2026-01-04 04:16:05.50	258.04	74.48	-40.5	-41.3	22.8	0.00e+00	0	44	0	2609905664	50	4191
2026-01-04 04:16:06.50	256.49	74.21	-40.5	-41.4	22.7	0.00e+00	0	44	0	2617245696	50	4203
2026-01-04 04:16:07.50	254.99	73.94	-40.8	-41.7	22.4	0.00e+00	0	44	0	2624585728	51	4109
2026-01-04 04:16:08.50	253.54	73.65	-40.8	-41.6	22.4	0.00e+00	0	44	0	2631925760	51	4095
2026-01-04 04:16:09.50	252.15	73.36	-40.8	-41.6	22.3	0.00e+00	0	44	0	2639265792	51	4091
2026-01-04 04:16:10.51	250.79	73.05	-40.8	-41.6	22.5	0.00e+00	0	44	0	2646605824	51	4093
2026-01-04 04:16:11.51	249.50	72.74	-40.7	-41.6	22.6	0.00e+00	0	44	0	2653945856	51	4066
2026-01-04 04:16:12.51	248.26	72.43	-40.4	-41.2	22.9	0.00e+00	0	43	0	2661285888	51	3913
2026-01-04 04:16:13.51	247.06	72.10	-40.3	-41.1	22.9	0.00e+00	0	44	0	2668625920	51	3864
2026-01-04 04:16:14.57	245.84	71.75	-40.3	-41.1	22.8	0.00e+00	0	44	0	2675965952	51	3848
2026-01-04 04:16:15.43	244.89	71.47	-40.5	-41.3	22.7	0.00e+00	0	44	0	2682257408	51	3948
2026-01-04 04:16:16.57	243.67	71.08	-41.0	-41.8	22.4	0.00e+00	0	44	0	2690646016	51	4185
2026-01-04 04:16:17.43	242.79	70.78	-40.9	-41.8	22.3	0.00e+00	0	44	0	2696937472	51	4167
2026-01-04 04:16:18.57	241.67	70.38	-40.5	-41.4	22.7	0.00e+00	0	44	0	2705326080	51	3964
2026-01-04 04:16:19.43	240.85	70.08	-40.3	-41.1	23.0	0.00e+00	0	43	0	2711617536	51	3825
2026-01-04 04:16:20.57	239.81	69.67	-40.5	-41.3	22.9	0.00e+00	0	44	0	2718957568	51	3934
2026-01-04 04:16:21.43	239.05	69.36	-40.8	-41.6	22.5	0.00e+00	0	44	0	2725249024	51	4067
2026-01-04 04:16:22.57	238.09	68.95	-41.1	-41.9	22.4	0.00e+00	0	44	0	2733637632	51	4233
2026-01-04 04:16:23.43	237.38	68.63	-41.0	-41.8	22.1	0.00e+00	0	44	0	2739929088	51	4169
2026-01-04 04:16:24.57	236.49	68.21	-40.8	-41.7	22.5	0.00e+00	0	44	0	2748317696	51	4105
2026-01-04 04:16:25.43	235.84	67.89	-40.8	-41.6	22.5	0.00e+00	0	44	0	2754609152	51	4082
2026-01-04 04:16:26.58	235.00	67.46	-40.8	-41.7	22.0	0.00e+00	0	44	0	2762997760	51	4108
2026-01-04 04:16:27.44	234.39	67.14	-40.7	-41.6	22.4	0.00e+00	0	44	0	2769289216	51	4062
2026-01-04 04:16:28.58	233.62	66.71	-40.7	-41.5	22.7	0.00e+00	0	44	0	2776629248	51	4046
2026-01-04 04:16:29.44	233.05	66.39	-40.5	-41.4	22.8	0.00e+00	0	44	0	2782920704	51	3962
2026-01-04 04:16:30.59	232.33	65.95	-40.7	-41.6	22.6	0.00e+00	0	44	0	2791309312	51	4057
2026-01-04 04:16:31.60	231.71	65.57	-40.9	-41.7	22.4	0.00e+00	0	44	0	2798649344	51	4118
2026-01-04 04:16:32.80	231.01	65.11	-41.0	-41.8	22.4	0.00e+00	0	44	0	2807037952	51	4189
2026-01-04 04:16:33.65	230.53	64.79	-40.9	-41.7	22.5	0.00e+00	0	44	0	2813329408	51	4122
2026-01-04 04:16:35.00	229.79	64.28	-40.9	-41.7	22.3	0.00e+00	0	44	0	2823815168	51	4138
2026-01-04 04:16:35.72	229.41	64.00	-41.0	-41.8	22.4	0.00e+00	0	44	0	2829058048	51	4191
2026-01-04 04:16:37.23	228.64	63.43	-41.1	-42.0	22.2	0.00e+00	0	44	0	2839543808	52	4011
2026-01-04 04:16:37.94	228.29	63.16	-41.1	-41.9	22.2	0.00e+00	0	44	0	2844786688	52	3978
2026-01-04 04:16:39.22	227.69	62.67	-41.3	-42.2	22.0	0.00e+00	0	44	0	2854223872	52	4121
2026-01-04 04:16:39.93	227.36	62.40	-41.4	-42.2	21.9	0.00e+00	0	44	0	2859466752	52	4139
2026-01-04 04:16:41.22	226.79	61.92	-41.6	-42.5	21.8	0.00e+00	0	44	0	2868903936	52	4256
2026-01-04 04:16:41.93	226.48	61.65	-41.6	-42.5	21.9	0.00e+00	0	44	0	2873098240	52	4259
2026-01-04 04:16:43.22	225.94	61.16	-41.7	-42.5	21.7	0.00e+00	0	44	0	2882535424	52	4290
2026-01-04 04:16:43.93	225.65	60.89	-41.4	-42.3	21.9	0.00e+00	0	44	0	2887778304	52	4168
2026-01-04 04:16:45.22	225.14	60.41	-41.9	-42.8	21.5	0.00e+00	0	44	0	2897215488	53	4169
2026-01-04 04:16:45.93	224.87	60.14	-42.0	-42.9	21.2	0.00e+00	0	44	0	2902458368	53	4226
2026-01-04 04:16:47.22	224.39	59.66	-42.3	-43.2	21.1	0.00e+00	0	44	0	2911895552	54	4125
2026-01-04 04:16:48.06	224.09	59.35	-42.3	-43.2	21.1	0.00e+00	0	44	0	2918187008	54	4121
2026-01-04 04:16:49.52	223.58	58.81	-42.0	-42.9	21.3	0.00e+00	0	44	0	2928672768	54	3963
2026-01-04 04:16:50.24	223.33	58.54	-42.0	-42.9	21.4	0.00e+00	0	44	0	2933915648	54	4002
2026-01-04 04:16:51.53	222.91	58.07	-42.2	-43.1	21.2	0.00e+00	0	44	0	2942304256	54	4067
2026-01-04 04:16:52.24	222.68	57.80	-42.1	-43.0	21.1	0.00e+00	0	44	0	2948595712	54	4050
2026-01-04 04:16:53.53	222.28	57.33	-41.7	-42.6	21.5	0.00e+00	0	44	0	2956984320	54	3840
2026-01-04 04:16:54.25	222.06	57.07	-41.5	-42.4	21.7	0.00e+00	0	44	0	2962227200	53	3973
2026-01-04 04:16:55.53	221.68	56.61	-41.5	-42.3	21.8	0.00e+00	0	44	0	2971664384	53	3958
2026-01-04 04:16:56.25	221.48	56.35	-41.5	-42.3	21.7	0.00e+00	0	44	0	2976907264	53	3949
2026-01-04 04:16:57.54	221.12	55.89	-41.7	-42.6	21.5	0.00e+00	0	44	0	2986344448	53	4054
2026-01-04 04:16:58.25	220.92	55.63	-41.6	-42.5	21.5	0.00e+00	0	44	0	2991587328	53	4045
2026-01-04 04:16:59.53	220.58	55.18	-41.6	-42.4	21.6	0.00e+00	0	44	0	3001024512	53	4004
2026-01-04 04:17:00.25	220.40	54.92	-41.3	-42.2	21.8	0.00e+00	0	44	0	3006267392	53	3901
2026-01-04 04:17:01.53	220.07	54.47	-41.1	-42.0	22.0	0.00e+00	0	44	0	3014656000	52	4022
2026-01-04 04:17:02.25	219.90	54.22	-41.1	-41.9	22.0	0.00e+00	0	44	0	3019898880	52	4003
2026-01-04 04:17:03.63	219.56	53.74	-41.4	-42.2	21.8	0.00e+00	0	44	0	3030384640	52	4139
2026-01-04 04:17:04.35	219.40	53.49	-41.7	-42.6	21.5	0.00e+00	0	44	0	3035627520	52	4292
2026-01-04 04:17:05.71	219.08	53.02	-41.8	-42.7	21.3	0.00e+00	0	44	0	3045064704	53	4131
2026-01-04 04:17:06.43	218.92	52.77	-41.8	-42.7	21.4	0.00e+00	0	44	0	3050307584	53	4116
2026-01-04 04:17:07.72	218.64	52.34	-41.8	-42.7	21.4	0.00e+00	0	44	0	3059744768	53	4126
2026-01-04 04:17:08.43	218.49	52.10	-41.9	-42.8	21.3	0.00e+00	0	44	0	3064987648	53	4148
2026-01-04 04:17:09.72	218.22	51.66	-42.1	-43.0	21.1	0.00e+00	0	44	0	3074424832	53	4258
2026-01-04 04:17:10.43	218.08	51.42	-42.1	-43.0	21.1	0.00e+00	0	44	0	3079667712	53	4285
2026-01-04 04:17:11.73	217.82	50.99	-42.4	-43.3	21.0	0.00e+00	0	44	0	3089104896	54	4171
2026-01-04 04:17:12.45	217.68	50.75	-42.2	-43.1	21.0	0.00e+00	0	44	0	3094347776	54	4093
2026-01-04 04:17:13.74	217.44	50.33	-42.0	-42.9	21.3	0.00e+00	0	44	0	3102736384	54	3986
2026-01-04 04:17:14.55	217.29	50.06	-41.9	-42.8	21.4	0.00e+00	0	44	0	3109027840	54	3951
2026-01-04 04:17:15.69	217.08	49.69	-41.7	-42.6	21.5	0.00e+00	0	44	0	3117416448	54	3848
2026-01-04 04:17:16.74	216.89	49.36	-41.6	-42.4	21.6	0.00e+00	0	44	0	3124756480	53	3999
2026-01-04 04:17:17.66	216.73	49.06	-41.6	-42.5	21.6	0.00e+00	0	44	0	3132096512	53	4026
2026-01-04 04:17:18.66	216.56	48.74	-41.7	-42.5	21.6	0.00e+00	0	44	0	3138387968	53	4048
2026-01-04 04:17:19.66	216.40	48.43	-41.7	-42.5	21.7	0.00e+00	0	44	0	3145728000	53	4040
2026-01-04 04:17:20.66	216.23	48.11	-41.6	-42.4	21.8	0.00e+00	0	44	0	3153068032	53	3983
2026-01-04 04:17:21.67	216.07	47.80	-41.5	-42.3	21.9	0.00e+00	0	44	0	3160408064	53	3958
2026-01-04 04:17:22.67	215.92	47.49	-41.3	-42.2	21.9	0.00e+00	0	44	0	3167748096	53	3880
2026-01-04 04:17:23.67	215.76	47.18	-41.2	-42.0	22.1	0.00e+00	0	44	0	3175088128	53	3800
2026-01-04 04:17:24.67	215.61	46.87	-41.2	-42.0	22.1	0.00e+00	0	44	0	3182428160	52	4034
2026-01-04 04:17:25.75	215.45	46.54	-41.2	-42.1	22.0	0.00e+00	0	44	0	3189768192	52	4077
2026-01-04 04:17:26.64	215.33	46.27	-41.4	-42.2	22.0	0.00e+00	0	44	0	3196059648	52	4135
2026-01-04 04:17:27.78	215.16	45.93	-40.9	-41.8	21.9	0.00e+00	0	44	0	3204448256	52	3914
2026-01-04 04:17:28.64	215.04	45.67	-41.1	-41.9	22.2	0.00e+00	0	44	0	3210739712	52	3986
2026-01-04 04:17:30.01	214.86	45.27	-40.8	-41.6	22.5	0.00e+00	0	44	0	3221225472	52	3848
2026-01-04 04:17:30.73	214.76	45.06	-40.6	-41.4	22.6	0.00e+00	0	44	0	3225419776	52	3754
2026-01-04 04:17:32.01	214.59	44.68	-40.7	-41.5	22.6	0.00e+00	0	44	0	3234856960	51	4021
2026-01-04 04:17:32.73	214.50	44.47	-40.6	-41.4	22.6	0.00e+00	0	44	0	3240099840	51	3991
2026-01-04 04:17:34.03	214.34	44.10	-40.5	-41.4	22.6	0.00e+00	0	44	0	3249537024	51	3970
2026-01-04 04:17:34.74	214.25	43.90	-40.6	-41.4	22.6	0.00e+00	0	44	0	3254779904	51	4003
2026-01-04 04:17:36.03	214.09	43.53	-40.5	-41.4	22.6	0.00e+00	0	44	0	3264217088	51	3959
2026-01-04 04:17:36.74	214.01	43.33	-40.6	-41.5	22.6	0.00e+00	0	44	0	3269459968	51	4005
2026-01-04 04:17:38.03	213.86	42.97	-40.6	-41.4	22.5	0.00e+00	0	44	0	3278897152	51	3972
2026-01-04 04:17:38.74	213.78	42.77	-40.4	-41.2	22.7	0.00e+00	0	44	0	3284140032	51	3897
2026-01-04 04:17:40.03	213.63	42.41	-40.4	-41.2	22.7	0.00e+00	0	44	0	3292528640	51	3884
2026-01-04 04:17:40.74	213.55	42.22	-40.3	-41.2	22.7	0.00e+00	0	44	0	3298820096	51	3874
2026-01-04 04:17:42.03	213.41	41.87	-40.5	-41.3	22.7	0.00e+00	0	44	0	3307208704	51	3938
2026-01-04 04:17:42.74	213.33	41.67	-40.6	-41.4	22.6	0.00e+00	0	44	0	3312451584	51	3983
2026-01-04 04:17:44.03	213.20	41.33	-40.7	-41.6	22.5	0.00e+00	0	44	0	3321888768	51	4060
2026-01-04 04:17:44.75	213.12	41.13	-40.8	-41.6	22.5	0.00e+00	0	44	0	3327131648	51	4095
2026-01-04 04:17:46.03	212.99	40.80	-40.9	-41.8	22.3	0.00e+00	0	44	0	3336568832	51	4168
2026-01-04 04:17:46.74	212.92	40.61	-41.0	-41.8	22.2	0.00e+00	0	44	0	3341811712	51	4185
2026-01-04 04:17:48.03	212.79	40.27	-40.9	-41.7	21.8	0.00e+00	0	44	0	3350200320	51	4131
2026-01-04 04:17:48.75	212.72	40.08	-41.0	-41.9	22.1	0.00e+00	0	44	0	3356491776	51	4195
2026-01-04 04:17:50.03	212.60	39.75	-41.1	-41.9	22.2	0.00e+00	0	44	0	3364880384	51	4234
2026-01-04 04:17:50.75	212.53	39.57	-40.9	-41.8	22.2	0.00e+00	0	44	0	3370123264	51	4171
2026-01-04 04:17:52.03	212.42	39.24	-40.8	-41.6	22.5	0.00e+00	0	44	0	3379560448	51	4081
2026-01-04 04:17:52.77	212.35	39.06	-40.6	-41.4	22.5	0.00e+00	0	44	0	3384803328	51	4001
2026-01-04 04:17:54.06	212.23	38.73	-40.6	-41.5	22.6	0.00e+00	0	44	0	3394240512	51	4012
2026-01-04 04:17:55.16	212.14	38.46	-40.6	-41.5	22.7	0.00e+00	0	44	0	3402629120	51	4016
2026-01-04 04:17:56.34	212.03	38.17	-40.6	-41.4	22.5	0.00e+00	0	44	0	3411017728	51	3989
2026-01-04 04:17:57.20	211.96	37.96	-40.4	-41.2	22.7	0.00e+00	0	44	0	3417309184	51	3902
2026-01-04 04:17:58.34	211.87	37.68	-40.5	-41.4	22.0	0.00e+00	0	44	0	3424649216	51	3977
2026-01-04 04:17:59.20	211.80	37.47	-40.5	-41.4	22.6	0.00e+00	0	44	0	3431989248	51	3977
2026-01-04 04:18:00.34	211.70	37.20	-40.7	-41.6	22.5	0.00e+00	0	44	0	3439329280	51	4052
2026-01-04 04:18:01.20	211.63	36.99	-40.5	-41.4	22.5	0.00e+00	0	44	0	3445620736	51	3973
2026-01-04 04:18:02.35	211.54	36.72	-40.6	-41.4	22.6	0.00e+00	0	44	0	3454009344	51	3987
2026-01-04 04:18:03.21	211.48	36.52	-40.6	-41.4	22.5	0.00e+00	0	44	0	3460300800	51	3990
2026-01-04 04:18:04.35	211.39	36.25	-40.7	-41.6	22.2	0.00e+00	0	44	0	3468689408	51	4058
2026-01-04 04:18:05.21	211.33	36.06	-40.4	-41.2	22.7	0.00e+00	0	44	0	3474980864	51	3907
2026-01-04 04:18:06.36	211.24	35.79	-40.3	-41.1	22.8	0.00e+00	0	44	0	3483369472	51	3845
2026-01-04 04:18:07.22	211.18	35.59	-40.3	-41.1	22.9	0.00e+00	0	44	0	3489660928	51	3856
2026-01-04 04:18:08.36	211.10	35.34	-40.3	-41.1	23.0	0.00e+00	0	44	0	3498049536	51	3860
2026-01-04 04:18:09.28	211.03	35.13	-40.3	-41.1	22.9	0.00e+00	0	44	0	3504340992	51	3865
2026-01-04 04:18:10.46	210.95	34.86	-40.3	-41.1	22.9	0.00e+00	0	44	0	3512729600	51	3857
2026-01-04 04:18:11.31	210.89	34.67	-40.3	-41.1	23.0	0.00e+00	0	44	0	3519021056	51	3856
2026-01-04 04:18:12.46	210.81	34.42	-40.0	-40.8	23.1	0.00e+00	0	44	0	3527409664	50	3923
2026-01-04 04:18:13.32	210.75	34.23	-40.0	-40.8	23.2	0.00e+00	0	44	0	3533701120	50	3947
2026-01-04 04:18:14.46	210.68	33.98	-39.8	-40.6	23.2	0.00e+00	0	44	0	3542089728	50	3855
2026-01-04 04:18:15.32	210.62	33.80	-39.9	-40.7	23.2	0.00e+00	0	44	0	3547332608	50	3879
2026-01-04 04:18:16.46	210.55	33.55	-40.1	-40.9	23.1	0.00e+00	0	44	0	3555721216	50	3970
2026-01-04 04:18:17.32	210.49	33.37	-40.1	-40.9	23.1	0.00e+00	0	44	0	3562012672	50	3995
2026-01-04 04:18:18.47	210.42	33.13	-40.2	-41.0	23.0	0.00e+00	0	44	0	3570401280	50	4050
2026-01-04 04:18:19.32	210.37	32.95	-40.3	-41.1	22.6	0.00e+00	0	44	0	3576692736	50	4076
2026-01-04 04:18:20.47	210.30	32.71	-40.5	-41.3	22.8	0.00e+00	0	44	0	3585081344	50	4184
2026-01-04 04:18:21.33	210.25	32.53	-40.5	-41.4	22.7	0.00e+00	0	44	0	3591372800	50	4199
2026-01-04 04:18:22.47	210.18	32.29	-40.4	-41.3	22.8	0.00e+00	0	44	0	3599761408	50	4151
2026-01-04 04:18:23.33	210.13	32.12	-40.5	-41.3	22.8	0.00e+00	0	44	0	3605004288	50	4186
2026-01-04 04:18:24.47	210.07	31.89	-40.5	-41.3	22.8	0.00e+00	0	44	0	3613392896	50	4177
2026-01-04 04:18:25.32	210.02	31.71	-40.4	-41.3	22.8	0.00e+00	0	44	0	3619684352	50	4150
2026-01-04 04:18:26.47	209.95	31.48	-40.4	-41.2	22.8	0.00e+00	0	44	0	3628072960	50	4128
2026-01-04 04:18:27.33	209.90	31.31	-40.3	-41.2	22.8	0.00e+00	0	44	0	3634364416	50	4103
2026-01-04 04:18:28.47	209.84	31.09	-40.3	-41.1	22.9	0.00e+00	0	44	0	3642753024	50	4058
2026-01-04 04:18:29.33	209.80	30.92	-40.1	-40.9	23.0	0.00e+00	0	44	0	3649044480	50	3980
2026-01-04 04:18:30.70	209.72	30.65	-40.1	-40.9	23.0	0.00e+00	0	44	0	3658481664	50	3980
2026-01-04 04:18:31.41	209.69	30.51	-40.3	-41.1	22.9	0.00e+00	0	44	0	3663724544	50	4091
2026-01-04 04:18:32.70	209.62	30.26	-40.5	-41.3	22.8	0.00e+00	0	44	0	3673161728	50	4191
2026-01-04 04:18:33.42	209.58	30.13	-40.6	-41.5	22.7	0.00e+00	0	44	0	3678404608	50	4244
2026-01-04 04:18:34.70	209.52	29.88	-40.9	-41.7	22.5	0.00e+00	0	44	0	3687841792	51	4127
2026-01-04 04:18:35.42	209.48	29.75	-40.8	-41.6	22.5	0.00e+00	0	44	0	3693084672	51	4096
2026-01-04 04:18:36.70	209.42	29.51	-40.8	-41.6	22.6	0.00e+00	0	44	0	3702521856	51	4071
2026-01-04 04:18:37.42	209.38	29.37	-40.8	-41.7	22.5	0.00e+00	0	44	0	3707764736	51	4107
2026-01-04 04:18:38.70	209.32	29.13	-40.5	-41.4	22.5	0.00e+00	0	44	0	3716153344	51	3965
2026-01-04 04:18:39.42	209.29	29.00	-40.6	-41.5	22.5	0.00e+00	0	44	0	3721396224	51	4016
2026-01-04 04:18:40.71	209.23	28.76	-40.6	-41.5	22.5	0.00e+00	0	44	0	3730833408	51	4020
2026-01-04 04:18:41.43	209.19	28.63	-40.6	-41.4	22.5	0.00e+00	0	44	0	3736076288	51	4001
2026-01-04 04:18:42.78	209.13	28.39	-40.7	-41.5	22.5	0.00e+00	0	44	0	3745513472	51	4031
2026-01-04 04:18:43.49	209.10	28.26	-40.8	-41.6	22.5	0.00e+00	0	44	0	3751804928	51	4087
2026-01-04 04:18:44.78	209.04	28.03	-40.8	-41.7	22.5	0.00e+00	0	44	0	3760193536	51	4106
2026-01-04 04:18:45.49	209.01	27.91	-40.9	-41.7	22.4	0.00e+00	0	44	0	3765436416	51	4124
2026-01-04 04:18:46.78	208.95	27.68	-40.9	-41.7	22.4	0.00e+00	0	44	0	3774873600	51	4123
2026-01-04 04:18:47.50	208.92	27.55	-40.8	-41.7	22.5	0.00e+00	0	44	0	3780116480	51	4115
2026-01-04 04:18:48.79	208.87	27.33	-40.9	-41.8	22.4	0.00e+00	0	44	0	3789553664	51	4162
2026-01-04 04:18:49.50	208.84	27.21	-40.9	-41.7	22.5	0.00e+00	0	44	0	3794796544	51	4135
2026-01-04 04:18:50.79	208.78	26.98	-40.6	-41.4	22.4	0.00e+00	0	44	0	3803185152	51	4004
2026-01-04 04:18:51.58	208.75	26.85	-40.7	-41.5	22.4	0.00e+00	0	44	0	3809476608	51	4039
2026-01-04 04:18:52.73	208.70	26.66	-40.7	-41.5	22.4	0.00e+00	0	44	0	3817865216	51	4027
2026-01-04 04:18:53.79	208.66	26.48	-40.7	-41.5	22.4	0.00e+00	0	44	0	3825205248	51	4039
2026-01-04 04:18:54.83	208.62	26.30	-40.7	-41.5	22.4	0.00e+00	0	44	0	3832545280	51	4051
2026-01-04 04:18:55.82	208.58	26.14	-40.8	-41.7	22.3	0.00e+00	0	44	0	3839885312	51	4116
2026-01-04 04:18:56.83	208.54	25.97	-41.0	-41.8	22.3	0.00e+00	0	44	0	3847225344	51	4181
2026-01-04 04:18:57.82	208.50	25.81	-41.0	-41.9	22.2	0.00e+00	0	44	0	3854565376	51	4220
2026-01-04 04:18:58.83	208.46	25.64	-41.2	-42.0	22.2	0.00e+00	0	44	0	3861905408	52	4050
2026-01-04 04:18:59.83	208.43	25.48	-41.4	-42.2	22.0	0.00e+00	0	44	0	3869245440	52	4144
2026-01-04 04:19:00.83	208.39	25.32	-41.3	-42.2	22.0	0.00e+00	0	44	0	3876585472	52	4119
2026-01-04 04:19:01.83	208.35	25.16	-41.3	-42.2	22.1	0.00e+00	0	44	0	3882876928	52	4102
2026-01-04 04:19:02.83	208.32	25.00	-41.1	-42.0	22.0	0.00e+00	0	44	0	3890216960	52	4028
2026-01-04 04:19:03.84	208.28	24.84	-41.3	-42.2	22.0	0.00e+00	0	44	0	3897556992	52	4111
2026-01-04 04:19:04.84	208.24	24.68	-41.2	-42.0	22.0	0.00e+00	0	44	0	3904897024	52	4032
2026-01-04 04:19:05.84	208.21	24.52	-41.2	-42.0	22.1	0.00e+00	0	44	0	3912237056	52	4042
2026-01-04 04:19:06.85	208.17	24.37	-41.3	-42.2	22.0	0.00e+00	0	44	0	3919577088	52	4104
2026-01-04 04:19:07.85	208.14	24.21	-41.3	-42.2	22.0	0.00e+00	0	44	0	3926917120	52	4099
2026-01-04 04:19:08.84	208.10	24.06	-41.4	-42.2	21.9	0.00e+00	0	44	0	3934257152	52	4139
2026-01-04 04:19:09.85	208.07	23.91	-41.3	-42.2	22.0	0.00e+00	0	44	0	3941597184	52	4107
2026-01-04 04:19:10.85	208.04	23.75	-41.2	-42.0	22.1	0.00e+00	0	44	0	3948937216	52	4047
2026-01-04 04:19:11.84	208.00	23.60	-41.1	-41.9	22.2	0.00e+00	0	44	0	3956277248	52	3990
2026-01-04 04:19:12.84	207.97	23.45	-41.1	-42.0	22.2	0.00e+00	0	44	0	3963617280	52	4007
2026-01-04 04:19:13.84	207.94	23.30	-41.2	-42.0	22.1	0.00e+00	0	44	0	3969908736	52	4030
2026-01-04 04:19:14.85	207.91	23.15	-41.1	-42.0	22.2	0.00e+00	0	44	0	3977248768	52	4012
2026-01-04 04:19:15.85	207.87	23.01	-41.2	-42.1	22.1	0.00e+00	0	44	0	3984588800	52	4056
2026-01-04 04:19:16.84	207.84	22.86	-41.1	-42.0	22.2	0.00e+00	0	44	0	3991928832	52	4020
2026-01-04 04:19:17.84	207.81	22.71	-41.1	-42.0	22.2	0.00e+00	0	44	0	3999268864	52	4008
2026-01-04 04:19:18.84	207.78	22.57	-41.2	-42.0	22.2	0.00e+00	0	44	0	4006608896	52	4025
2026-01-04 04:19:19.84	207.75	22.42	-41.2	-42.0	22.2	0.00e+00	0	44	0	4013948928	52	4038
2026-01-04 04:19:20.84	207.72	22.28	-41.1	-42.0	22.2	0.00e+00	0	44	0	4021288960	52	4025
2026-01-04 04:19:21.85	207.69	22.14	-41.2	-42.1	22.1	0.00e+00	0	44	0	4028628992	52	4070
2026-01-04 04:19:22.85	207.66	21.99	-41.1	-42.0	22.1	0.00e+00	0	44	0	4034920448	52	4020
2026-01-04 04:19:23.85	207.63	21.85	-41.2	-42.1	22.0	0.00e+00	0	44	0	4042260480	52	4063
2026-01-04 04:19:24.86	207.60	21.71	-41.2	-42.0	22.1	0.00e+00	0	44	0	4049600512	52	4039
2026-01-04 04:19:25.86	207.57	21.57	-41.1	-42.0	22.0	0.00e+00	0	44	0	4056940544	52	4012
2026-01-04 04:19:26.86	207.54	21.43	-41.3	-42.2	21.9	0.00e+00	0	44	0	4064280576	52	4111
2026-01-04 04:19:27.87	207.52	21.29	-41.3	-42.1	22.1	0.00e+00	0	44	0	4071620608	52	4083
2026-01-04 04:19:28.93	207.49	21.15	-41.3	-42.2	22.0	0.00e+00	0	44	0	4078960640	52	4122
2026-01-04 04:19:29.82	207.46	21.02	-41.4	-42.3	21.9	0.00e+00	0	44	0	4085252096	52	4157
2026-01-04 04:19:31.10	207.43	20.85	-41.2	-42.1	21.9	0.00e+00	0	44	0	4094689280	52	4079
2026-01-04 04:19:31.82	207.41	20.75	-41.3	-42.2	21.9	0.00e+00	0	44	0	4099932160	52	4121
2026-01-04 04:19:33.11	207.37	20.58	-41.3	-42.1	22.0	0.00e+00	0	44	0	4109369344	52	4091
2026-01-04 04:19:33.83	207.35	20.48	-41.4	-42.2	21.9	0.00e+00	0	44	0	4114612224	52	4140
2026-01-04 04:19:35.11	207.32	20.31	-41.4	-42.3	21.9	0.00e+00	0	44	0	4124049408	52	4167
2026-01-04 04:19:35.84	207.30	20.22	-41.4	-42.3	21.9	0.00e+00	0	44	0	4129292288	52	4164
2026-01-04 04:19:37.13	207.27	20.05	-41.6	-42.4	21.8	0.00e+00	0	44	0	4137680896	52	4236
2026-01-04 04:19:37.84	207.25	19.95	-41.5	-42.3	21.9	0.00e+00	0	44	0	4143972352	52	4184
2026-01-04 04:19:39.13	207.22	19.78	-41.5	-42.3	21.8	0.00e+00	0	44	0	4152360960	52	4187
2026-01-04 04:19:39.85	207.20	19.69	-41.5	-42.4	21.8	0.00e+00	0	44	0	4157603840	52	4197
2026-01-04 04:19:41.13	207.17	19.53	-41.4	-42.3	21.8	0.00e+00	0	44	0	4167041024	52	4161
2026-01-04 04:19:41.85	207.15	19.43	-41.5	-42.3	21.7	0.00e+00	0	44	0	4172283904	52	4193
2026-01-04 04:19:43.14	207.12	19.27	-41.6	-42.4	21.7	0.00e+00	0	44	0	4181721088	52	4241
2026-01-04 04:19:43.85	207.10	19.18	-41.6	-42.4	21.7	0.00e+00	0	44	0	4186963968	52	4231
2026-01-04 04:19:45.14	207.07	19.01	-41.7	-42.6	21.6	0.00e+00	0	44	0	4196401152	52	4311
2026-01-04 04:19:45.85	207.05	18.93	-41.7	-42.6	21.7	0.00e+00	0	44	0	4201644032	53	4070
2026-01-04 04:19:47.14	207.02	18.76	-41.7	-42.6	21.6	0.00e+00	0	44	0	4211081216	53	4063
2026-01-04 04:19:47.87	207.01	18.67	-41.7	-42.6	21.6	0.00e+00	0	44	0	4215275520	53	4061
2026-01-04 04:19:49.16	206.98	18.51	-42.0	-42.9	21.4	0.00e+00	0	44	0	4224712704	53	4196
2026-01-04 04:19:49.97	206.96	18.41	-41.9	-42.8	21.4	0.00e+00	0	44	0	4231004160	53	4177
2026-01-04 04:19:51.12	206.93	18.27	-42.1	-43.0	21.2	0.00e+00	0	44	0	4239392768	53	4287
2026-01-04 04:19:51.98	206.91	18.17	-42.2	-43.1	21.0	0.00e+00	0	44	0	4245684224	53	4304
2026-01-04 04:19:53.12	206.89	18.03	-42.2	-43.0	21.2	0.00e+00	0	44	0	4254072832	53	4291
2026-01-04 04:19:53.98	206.87	17.92	-42.1	-43.0	21.2	0.00e+00	0	44	0	4259315712	53	4250
2026-01-04 04:19:55.12	206.84	17.79	-42.0	-42.9	21.2	0.00e+00	0	44	0	4267704320	53	4233
2026-01-04 04:19:55.98	206.82	17.68	-42.2	-43.1	21.2	0.00e+00	0	44	0	4273995776	53	4322
2026-01-04 04:19:57.12	206.80	17.55	-42.3	-43.2	21.2	0.00e+00	0	44	0	4282384384	54	4121
2026-01-04 04:19:57.98	206.78	17.45	-42.4	-43.3	21.1	0.00e+00	0	44	0	4288675840	54	4155
2026-01-04 04:19:59.13	206.76	17.31	-42.3	-43.2	21.1	0.00e+00	0	44	0	4297064448	54	4114
2026-01-04 04:19:59.99	206.74	17.21	-42.3	-43.2	21.0	0.00e+00	0	44	0	4303355904	54	4143
2026-01-04 04:20:01.13	206.72	17.08	-42.6	-43.5	20.9	0.00e+00	0	44	0	4311744512	54	4250
2026-01-04 04:20:02.04	206.70	16.97	-42.6	-43.5	20.9	0.00e+00	0	44	0	4318035968	54	4279
2026-01-04 04:20:03.04	206.68	16.86	-42.7	-43.6	20.7	0.00e+00	0	44	0	4325376000	54	4319
2026-01-04 04:20:04.04	206.66	16.74	-42.6	-43.5	20.7	0.00e+00	0	44	0	4332716032	54	4260
2026-01-04 04:20:05.04	206.64	16.63	-42.6	-43.5	20.8	0.00e+00	0	44	0	4340056064	54	4280
2026-01-04 04:20:06.04	206.62	16.51	-42.7	-43.6	20.7	0.00e+00	0	44	0	4346347520	54	4334
2026-01-04 04:20:07.04	206.60	16.40	-42.9	-43.8	20.6	0.00e+00	0	44	0	4354736128	55	4165
2026-01-04 04:20:08.05	206.58	16.28	-42.7	-43.6	20.7	0.00e+00	0	44	0	4362076160	55	4090
2026-01-04 04:20:09.45	206.55	16.13	-42.7	-43.6	20.7	0.00e+00	0	44	0	4371513344	55	4073
2026-01-04 04:20:10.19	206.54	16.04	-42.7	-43.6	20.7	0.00e+00	0	44	0	4376756224	55	4080
2026-01-04 04:20:11.48	206.51	15.90	-42.7	-43.7	20.7	0.00e+00	0	44	0	4386193408	55	4103
2026-01-04 04:20:12.20	206.50	15.82	-42.7	-43.6	20.6	0.00e+00	0	44	0	4391436288	55	4096
2026-01-04 04:20:13.48	206.47	15.68	-42.8	-43.7	20.6	0.00e+00	0	44	0	4400873472	55	4145
2026-01-04 04:20:14.20	206.46	15.60	-42.9	-43.8	20.5	0.00e+00	0	44	0	4406116352	55	4179
2026-01-04 04:20:15.49	206.44	15.46	-42.9	-43.9	20.5	0.00e+00	0	44	0	4415553536	55	4196
2026-01-04 04:20:16.20	206.42	15.38	-43.0	-44.0	20.4	0.00e+00	0	44	0	4420796416	55	4256
2026-01-04 04:20:17.49	206.40	15.24	-43.1	-44.0	20.4	0.00e+00	0	44	0	4429185024	55	4291
2026-01-04 04:20:18.20	206.39	15.16	-43.0	-44.0	20.4	0.00e+00	0	44	0	4434427904	55	4254
2026-01-04 04:20:19.56	206.36	15.02	-42.8	-43.7	20.6	0.00e+00	0	44	0	4444913664	55	4142
2026-01-04 04:20:20.27	206.35	14.94	-42.9	-43.8	20.5	0.00e+00	0	44	0	4450156544	55	4175
2026-01-04 04:20:21.62	206.33	14.80	-43.0	-43.9	20.4	0.00e+00	0	44	0	4459593728	55	4221
2026-01-04 04:20:22.34	206.32	14.72	-42.9	-43.8	20.4	0.00e+00	0	44	0	4464836608	55	4185
2026-01-04 04:20:23.63	206.29	14.59	-42.9	-43.8	20.4	0.00e+00	0	44	0	4474273792	55	4179
2026-01-04 04:20:24.34	206.28	14.51	-43.1	-44.1	20.3	0.00e+00	0	44	0	4479516672	55	4303
2026-01-04 04:20:25.76	206.26	14.36	-42.4	-43.3	20.4	0.00e+00	0	44	0	4488953856	55	3954
2026-01-04 04:20:26.48	206.25	14.29	-42.7	-43.7	20.5	3.40e-06	0	44	0	4494196736	55	4104
2026-01-04 04:20:27.77	206.22	14.15	-42.9	-43.8	20.3	1.60e-05	0	44	0	4503633920	55	4178
2026-01-04 04:20:28.48	206.21	14.08	-42.8	-43.8	20.4	1.10e-06	0	44	0	4508876800	55	4149
2026-01-04 04:20:29.77	206.19	13.95	-42.7	-43.6	20.5	0.00e+00	0	44	0	4518313984	55	4078
2026-01-04 04:20:30.48	206.18	13.88	-42.8	-43.8	20.4	0.00e+00	0	44	0	4523556864	55	4157
2026-01-04 04:20:31.77	206.16	13.74	-42.9	-43.8	20.3	0.00e+00	0	44	0	4532994048	55	4188
2026-01-04 04:20:32.48	206.15	13.67	-42.9	-43.8	20.3	0.00e+00	0	44	0	4538236928	55	4191
2026-01-04 04:20:33.77	206.13	13.54	-42.9	-43.9	20.3	0.00e+00	0	44	0	4546625536	55	4198
2026-01-04 04:20:34.49	206.12	13.47	-42.9	-43.9	20.3	0.00e+00	0	44	0	4551868416	55	4195
2026-01-04 04:20:35.78	206.10	13.34	-42.9	-43.9	20.2	0.00e+00	0	44	0	4561305600	55	4212
2026-01-04 04:20:36.65	206.08	13.25	-42.9	-43.9	20.3	0.00e+00	0	44	0	4567597056	55	4194
2026-01-04 04:20:38.13	206.06	13.11	-43.0	-44.0	20.2	0.00e+00	0	44	0	4578082816	55	4245
2026-01-04 04:20:39.26	206.04	12.99	-42.8	-43.7	20.3	0.00e+00	0	44	0	4586471424	55	4135
2026-01-04 04:20:40.11	206.03	12.91	-43.1	-44.1	20.2	0.00e+00	0	44	0	4592762880	55	4305
2026-01-04 04:20:41.26	206.01	12.80	-43.0	-44.0	20.2	0.00e+00	0	44	0	4601151488	55	4271
2026-01-04 04:20:42.11	206.00	12.71	-43.0	-43.9	20.1	0.00e+00	0	44	0	4607442944	55	4237
2026-01-04 04:20:43.32	205.98	12.60	-43.0	-44.0	20.0	0.00e+00	0	44	0	4615831552	55	4252
2026-01-04 04:20:44.18	205.97	12.51	-43.1	-44.1	20.1	0.00e+00	0	44	0	4622123008	55	4336
2026-01-04 04:20:45.39	205.95	12.40	-43.1	-44.1	20.1	0.00e+00	0	44	0	4630511616	55	4328
2026-01-04 04:20:46.25	205.94	12.31	-43.0	-44.0	20.1	0.00e+00	0	44	0	4637851648	55	4276
2026-01-04 04:20:47.39	205.93	12.20	-43.0	-44.0	20.1	0.00e+00	0	44	0	4645191680	55	4269
2026-01-04 04:20:48.25	205.91	12.12	-43.0	-44.0	20.1	0.00e+00	0	44	0	4651483136	55	4265
2026-01-04 04:20:49.39	205.90	12.01	-43.1	-44.1	20.0	0.00e+00	0	44	0	4659871744	55	4308
2026-01-04 04:20:50.25	205.89	11.93	-43.1	-44.1	20.0	0.00e+00	0	44	0	4666163200	55	4330
2026-01-04 04:20:51.54	205.87	11.81	-43.2	-44.2	19.9	0.00e+00	0	44	0	4675600384	55	4346
2026-01-04 04:20:52.25	205.86	11.74	-43.2	-44.2	19.9	0.00e+00	0	44	0	4680843264	55	4382
2026-01-04 04:20:53.74	205.84	11.61	-43.4	-44.4	19.9	0.00e+00	0	44	0	4691329024	56	4225
