passes_logs/2026/01/04/T1/T1__20260104_093150_SUOMI_NPP_rec.log

#Pass ID: 20260104_093150_SUOMI NPP
#Satellite: SUOMI NPP
#Configuration: NPP
#almurnet v.1.7.20251203
#Start time: 2026-01-04 09:31:51

#Version: 2.0.20230620
#Station: T1
#Location: 37.570604 lon 55.790049 lat
#TLE: 1 37849U 11061A   26001.07732418  .00000182  00000+0  10735-3 0  9990
#TLE: 2 37849  98.7795 303.2470 0002580  87.2016 272.9455 14.19520779734739

#Time	Az	El	Level	Level2	SNR	BER	BlckErr	Temp	State	Recorded	gain1	gain2
2026-01-04 09:31:51.84	145.63	5.06	-53.1	-68.3	3.8	1.49e+00	0	36	0	0	78	20006
2026-01-04 09:31:52.84	145.61	5.13	-53.1	-68.2	3.8	1.49e+00	0	37	104	0	78	19777
2026-01-04 09:31:53.85	145.59	5.21	-53.1	-68.2	3.8	1.49e+00	0	37	104	0	78	19653
2026-01-04 09:31:54.85	145.56	5.28	-53.1	-68.2	3.8	1.49e+00	0	37	104	0	78	19750
2026-01-04 09:31:55.85	145.54	5.35	-53.1	-68.3	3.8	1.49e+00	0	37	104	0	78	19966
2026-01-04 09:31:56.86	145.51	5.42	-53.1	-68.4	3.8	1.49e+00	0	37	104	0	78	20159
2026-01-04 09:31:57.86	145.49	5.49	-53.2	-68.5	3.8	1.49e+00	0	37	104	0	78	20410
2026-01-04 09:31:58.86	145.46	5.57	-53.2	-68.5	3.8	1.49e+00	0	37	104	0	78	20401
2026-01-04 09:31:59.87	145.44	5.64	-53.2	-68.4	3.8	1.49e+00	0	37	104	0	78	20143
2026-01-04 09:32:00.87	145.41	5.71	-53.1	-68.2	3.8	1.49e+00	0	37	104	0	78	19742
2026-01-04 09:32:01.87	145.39	5.79	-53.1	-67.9	3.8	1.49e+00	0	37	104	0	78	19076
2026-01-04 09:32:02.88	145.36	5.86	-53.1	-67.7	3.8	1.49e+00	0	37	104	0	78	18626
2026-01-04 09:32:03.88	145.34	5.93	-53.1	-67.4	3.8	1.49e+00	0	37	104	0	78	18035
2026-01-04 09:32:04.89	145.31	6.01	-53.1	-67.2	3.8	1.49e+00	0	37	104	0	78	17531
2026-01-04 09:32:05.89	145.29	6.08	-53.0	-67.0	3.8	1.49e+00	0	37	104	0	78	17196
2026-01-04 09:32:06.90	145.26	6.16	-53.0	-66.9	3.8	1.49e+00	0	37	104	0	77	18053
2026-01-04 09:32:07.90	145.24	6.23	-53.0	-67.0	3.8	1.49e+00	0	37	104	0	77	18135
2026-01-04 09:32:08.91	145.21	6.31	-52.9	-67.1	3.8	1.49e+00	0	37	104	0	77	18370
2026-01-04 09:32:09.91	145.18	6.38	-53.0	-67.4	3.8	1.49e+00	0	37	104	0	77	18958
2026-01-04 09:32:10.91	145.16	6.45	-52.9	-67.5	3.8	1.49e+00	0	37	104	0	77	19387
2026-01-04 09:32:11.92	145.13	6.53	-53.0	-67.9	3.8	1.49e+00	0	37	104	0	77	20099
2026-01-04 09:32:12.92	145.10	6.61	-52.9	-68.0	3.8	1.49e+00	0	37	104	0	77	20523
2026-01-04 09:32:13.93	145.08	6.68	-52.9	-68.2	3.8	1.49e+00	0	37	104	0	77	20844
2026-01-04 09:32:14.93	145.05	6.76	-52.9	-68.0	3.8	1.49e+00	0	37	104	0	77	20313
2026-01-04 09:32:15.94	145.02	6.83	-53.0	-67.6	3.8	1.49e+00	0	38	104	0	77	19602
2026-01-04 09:32:16.94	145.00	6.91	-53.1	-67.1	3.8	1.49e+00	0	38	104	0	77	18450
2026-01-04 09:32:17.95	144.97	6.99	-53.0	-66.5	3.8	1.49e+00	0	38	104	0	77	17160
2026-01-04 09:32:18.95	144.94	7.06	-53.0	-66.0	3.8	1.48e+00	0	38	104	0	77	16243
2026-01-04 09:32:19.95	144.91	7.14	-53.0	-65.6	3.9	1.45e+00	0	38	104	0	77	15412
2026-01-04 09:32:20.96	144.89	7.22	-52.9	-64.8	4.2	1.40e+00	0	38	0	0	77	14099
2026-01-04 09:32:21.96	144.86	7.30	-52.8	-64.0	4.5	1.33e+00	0	38	0	0	77	12919
2026-01-04 09:32:22.97	144.83	7.37	-52.7	-63.0	4.9	8.22e-01	0	38	0	2097152	77	11492
2026-01-04 09:32:23.97	144.80	7.45	-52.5	-62.2	5.5	5.63e-01	0	38	0	4194304	77	10419
2026-01-04 09:32:24.97	144.77	7.53	-52.4	-60.9	6.4	3.63e-01	0	38	0	6291456	76	9569
2026-01-04 09:32:25.98	144.74	7.61	-52.1	-59.8	7.4	1.41e-01	0	38	0	8388608	76	8396
2026-01-04 09:32:26.98	144.71	7.69	-51.8	-58.5	8.6	6.53e-02	0	38	0	9437184	75	7707
2026-01-04 09:32:27.98	144.69	7.76	-51.5	-57.6	9.5	2.22e-02	0	38	0	11534336	74	7328
2026-01-04 09:32:28.99	144.66	7.84	-51.0	-56.4	10.7	7.15e-03	0	38	0	13631488	74	6417
2026-01-04 09:32:29.99	144.63	7.92	-50.6	-55.5	11.7	1.18e-03	0	38	0	15728640	73	6088
2026-01-04 09:32:31.00	144.60	8.00	-50.3	-54.9	12.3	3.17e-04	0	38	0	17825792	72	5996
2026-01-04 09:32:32.00	144.57	8.08	-50.0	-54.2	13.0	7.85e-05	0	38	0	18874368	72	5589
2026-01-04 09:32:33.00	144.54	8.16	-49.8	-53.8	13.5	5.30e-06	0	38	0	20971520	71	5593
2026-01-04 09:32:34.01	144.51	8.24	-49.8	-53.7	13.6	1.14e-05	0	38	0	23068672	71	5554
2026-01-04 09:32:35.01	144.48	8.32	-49.7	-53.5	13.8	5.30e-06	0	38	0	25165824	71	5424
2026-01-04 09:32:36.02	144.45	8.41	-49.8	-53.8	13.5	7.60e-06	0	38	0	27262976	71	5610
2026-01-04 09:32:37.02	144.42	8.49	-50.1	-54.3	13.0	1.75e-05	0	38	0	28311552	71	5948
2026-01-04 09:32:38.02	144.39	8.57	-50.4	-54.9	12.4	9.61e-05	0	38	0	30408704	71	6385
2026-01-04 09:32:39.03	144.35	8.65	-50.7	-55.7	11.5	3.35e-04	0	38	0	32505856	72	6572
2026-01-04 09:32:40.03	144.32	8.73	-51.3	-57.1	10.0	4.09e-03	0	38	0	34603008	73	7310
2026-01-04 09:32:41.03	144.29	8.81	-51.7	-58.4	8.6	1.90e-02	0	38	0	36700160	74	8077
2026-01-04 09:32:42.04	144.26	8.90	-52.2	-60.0	7.2	6.72e-02	0	38	0	37748736	74	9620
2026-01-04 09:32:43.04	144.23	8.98	-52.5	-61.6	5.9	2.89e-01	0	38	0	39845888	75	10961
2026-01-04 09:32:44.05	144.20	9.06	-52.7	-63.4	4.7	6.37e-01	0	38	0	41943040	76	12722
2026-01-04 09:32:45.05	144.16	9.14	-50.2	-54.7	12.7	1.05e-01	0	38	0	44040192	72	5867
2026-01-04 09:32:46.50	144.12	9.27	-52.6	-63.7	4.6	1.42e+00	0	39	104	45088768	76	13155
2026-01-04 09:32:47.22	144.09	9.33	-52.6	-62.1	5.5	6.51e-01	0	38	0	46137344	76	10916
2026-01-04 09:32:48.50	144.05	9.43	-52.5	-62.2	5.9	2.10e-04	0	38	0	48234496	75	11789
2026-01-04 09:32:49.22	144.03	9.49	-53.0	-67.8	3.8	1.49e+00	0	38	104	48234496	76	21111
2026-01-04 09:32:50.51	143.99	9.60	-50.0	-54.0	13.3	8.69e-05	0	38	0	48234496	71	5773
2026-01-04 09:32:51.23	143.96	9.66	-49.2	-52.8	14.7	3.80e-06	0	39	0	50331648	70	5280
2026-01-04 09:32:52.51	143.92	9.77	-49.0	-52.4	15.0	0.00e+00	0	38	0	52428800	70	5042
2026-01-04 09:32:53.23	143.89	9.83	-49.2	-52.7	14.7	7.00e-07	0	38	0	53477376	69	5532
2026-01-04 09:32:54.52	143.85	9.94	-48.5	-51.7	15.6	0.00e+00	0	39	0	56623104	69	4972
2026-01-04 09:32:55.23	143.83	10.00	-48.4	-51.5	15.8	0.00e+00	0	38	0	57671680	68	5133
2026-01-04 09:32:56.53	143.78	10.12	-48.2	-51.2	16.2	0.00e+00	0	38	0	59768832	68	4931
2026-01-04 09:32:57.24	143.76	10.18	-48.1	-51.0	16.3	0.00e+00	0	39	0	61865984	68	4869
2026-01-04 09:32:58.53	143.71	10.29	-47.4	-50.1	17.1	0.00e+00	0	38	0	63963136	66	4904
2026-01-04 09:32:59.25	143.69	10.35	-47.2	-49.8	17.4	0.00e+00	0	38	0	65011712	66	4734
2026-01-04 09:33:00.53	143.64	10.46	-47.0	-49.6	17.5	0.00e+00	0	38	0	67108864	66	4633
2026-01-04 09:33:01.25	143.62	10.53	-46.9	-49.5	17.7	0.00e+00	0	38	0	69206016	65	4820
2026-01-04 09:33:02.54	143.57	10.64	-47.0	-49.5	17.6	0.00e+00	0	38	0	71303168	65	4864
2026-01-04 09:33:03.25	143.54	10.70	-46.9	-49.5	17.6	0.00e+00	0	38	0	72351744	65	4860
2026-01-04 09:33:04.54	143.50	10.82	-46.8	-49.4	17.7	0.00e+00	0	39	0	74448896	65	4773
2026-01-04 09:33:05.25	143.47	10.88	-47.1	-49.8	17.4	0.00e+00	0	38	0	76546048	65	5010
2026-01-04 09:33:06.54	143.43	10.99	-47.2	-50.0	17.2	0.00e+00	0	38	0	78643200	65	5116
2026-01-04 09:33:07.26	143.40	11.06	-47.4	-50.2	17.0	0.00e+00	0	38	0	79691776	65	5274
2026-01-04 09:33:08.55	143.35	11.17	-47.5	-50.4	16.9	0.00e+00	0	38	0	82837504	65	5352
2026-01-04 09:33:09.27	143.32	11.24	-47.7	-50.7	16.6	0.00e+00	0	39	0	83886080	66	5238
2026-01-04 09:33:10.55	143.28	11.35	-47.8	-50.7	16.6	0.00e+00	0	38	0	85983232	66	5241
2026-01-04 09:33:11.27	143.25	11.42	-47.7	-50.6	16.7	0.00e+00	0	38	0	88080384	66	5217
2026-01-04 09:33:12.56	143.20	11.54	-47.7	-50.6	16.7	0.00e+00	0	39	0	90177536	66	5161
2026-01-04 09:33:13.28	143.17	11.60	-47.6	-50.4	16.9	0.00e+00	0	39	0	91226112	66	5060
2026-01-04 09:33:14.84	143.11	11.75	-47.3	-49.9	17.3	0.00e+00	0	39	0	94371840	66	4805
2026-01-04 09:33:15.43	143.09	11.80	-47.0	-49.6	17.6	0.00e+00	0	38	0	95420416	66	4601
2026-01-04 09:33:17.01	143.03	11.95	-46.5	-48.9	18.3	0.00e+00	0	39	0	98566144	64	4794
2026-01-04 09:33:17.59	143.00	12.00	-46.5	-48.9	18.3	0.00e+00	0	39	0	99614720	64	4771
2026-01-04 09:33:19.17	142.94	12.15	-46.2	-48.5	18.6	0.00e+00	0	39	0	102760448	64	4582
2026-01-04 09:33:19.82	142.91	12.21	-46.2	-48.5	18.6	0.00e+00	0	39	0	103809024	64	4563
2026-01-04 09:33:21.25	142.86	12.34	-46.3	-48.6	18.5	0.00e+00	0	38	0	105906176	64	4634
2026-01-04 09:33:21.97	142.83	12.41	-46.5	-48.8	18.4	0.00e+00	0	39	0	108003328	64	4736
2026-01-04 09:33:23.25	142.77	12.53	-46.9	-49.4	17.9	0.00e+00	0	39	0	110100480	64	5079
2026-01-04 09:33:23.97	142.75	12.60	-46.9	-49.4	17.8	0.00e+00	0	39	0	111149056	64	5081
2026-01-04 09:33:25.26	142.69	12.72	-47.2	-49.9	17.4	0.00e+00	0	39	0	114294784	65	5044
2026-01-04 09:33:25.98	142.66	12.79	-47.4	-50.1	17.2	0.00e+00	0	39	0	115343360	65	5201
2026-01-04 09:33:27.27	142.61	12.91	-47.5	-50.3	17.0	0.00e+00	0	39	0	117440512	65	5282
2026-01-04 09:33:27.98	142.58	12.98	-47.4	-50.1	17.2	0.00e+00	0	39	0	118489088	65	5214
2026-01-04 09:33:29.27	142.52	13.11	-47.4	-50.1	17.2	0.00e+00	0	39	0	121634816	65	5171
2026-01-04 09:33:29.99	142.49	13.18	-47.2	-49.9	17.3	0.00e+00	0	39	0	122683392	65	5073
2026-01-04 09:33:31.28	142.44	13.30	-46.7	-49.2	18.0	0.00e+00	0	39	0	124780544	65	4672
2026-01-04 09:33:31.99	142.40	13.37	-46.4	-48.7	18.5	0.00e+00	0	39	0	126877696	64	4683
2026-01-04 09:33:33.28	142.35	13.50	-46.1	-48.3	18.9	0.00e+00	0	39	0	128974848	63	4731
2026-01-04 09:33:34.00	142.32	13.57	-45.9	-48.1	19.1	0.00e+00	0	38	0	130023424	63	4616
2026-01-04 09:33:35.28	142.26	13.70	-45.6	-47.7	19.4	0.00e+00	0	38	0	132120576	63	4428
2026-01-04 09:33:36.11	142.22	13.78	-45.6	-47.8	19.3	0.00e+00	0	39	0	134217728	63	4455
2026-01-04 09:33:37.59	142.15	13.93	-45.9	-48.1	19.1	0.00e+00	0	39	0	137363456	63	4606
2026-01-04 09:33:38.31	142.12	14.00	-45.9	-48.1	19.1	0.00e+00	0	39	0	138412032	63	4624
2026-01-04 09:33:39.60	142.06	14.13	-46.3	-48.7	18.5	0.00e+00	0	39	0	140509184	63	4969
2026-01-04 09:33:40.32	142.03	14.20	-46.6	-49.0	18.1	0.00e+00	0	39	0	142606336	64	4857
2026-01-04 09:33:41.61	141.97	14.33	-46.9	-49.5	17.7	0.00e+00	0	39	0	144703488	64	5159
2026-01-04 09:33:42.32	141.94	14.41	-47.1	-49.7	17.6	0.00e+00	0	39	0	145752064	64	5279
2026-01-04 09:33:43.61	141.87	14.54	-47.1	-49.7	17.6	0.00e+00	0	39	0	147849216	65	4962
2026-01-04 09:33:44.42	141.84	14.62	-46.9	-49.6	17.7	0.00e+00	0	39	0	149946368	65	4881
2026-01-04 09:33:45.57	141.78	14.74	-46.9	-49.5	17.8	0.00e+00	0	39	0	152043520	65	4827
2026-01-04 09:33:46.43	141.74	14.83	-46.7	-49.1	18.1	0.00e+00	0	39	0	153092096	65	4643
2026-01-04 09:33:47.58	141.68	14.95	-46.4	-48.8	18.4	0.00e+00	0	39	0	155189248	64	4744
2026-01-04 09:33:48.43	141.64	15.04	-46.2	-48.5	18.7	0.00e+00	0	39	0	157286400	64	4572
2026-01-04 09:33:49.58	141.59	15.16	-46.0	-48.2	19.1	0.00e+00	0	39	0	159383552	63	4673
2026-01-04 09:33:50.44	141.54	15.25	-46.0	-48.2	19.0	0.00e+00	0	39	0	161480704	63	4689
2026-01-04 09:33:51.60	141.48	15.37	-46.0	-48.2	19.1	0.00e+00	0	39	0	163577856	63	4653
2026-01-04 09:33:52.46	141.44	15.46	-45.9	-48.1	19.1	0.00e+00	0	39	0	164626432	63	4644
2026-01-04 09:33:53.61	141.38	15.58	-46.1	-48.4	18.8	0.00e+00	0	39	0	166723584	63	4797
2026-01-04 09:33:54.47	141.34	15.68	-46.3	-48.6	18.7	0.00e+00	0	39	0	168820736	63	4882
2026-01-04 09:33:55.61	141.28	15.80	-46.6	-49.1	18.3	0.00e+00	0	39	0	170917888	63	5163
2026-01-04 09:33:56.47	141.23	15.89	-46.6	-49.0	18.2	0.00e+00	0	39	0	171966464	64	4839
2026-01-04 09:33:57.62	141.17	16.02	-46.7	-49.1	18.1	0.00e+00	0	39	0	174063616	64	4911
2026-01-04 09:33:58.47	141.13	16.11	-46.5	-48.9	18.3	0.00e+00	0	39	0	176160768	64	4812
2026-01-04 09:33:59.62	141.07	16.23	-46.3	-48.6	18.6	0.00e+00	0	39	0	178257920	64	4631
2026-01-04 09:34:00.48	141.02	16.33	-46.2	-48.5	18.7	0.00e+00	0	39	0	180355072	64	4567
2026-01-04 09:34:01.62	140.96	16.46	-46.2	-48.4	18.7	0.00e+00	0	39	0	182452224	64	4544
2026-01-04 09:34:02.48	140.91	16.55	-45.8	-48.0	19.3	0.00e+00	0	39	0	183500800	63	4546
2026-01-04 09:34:03.63	140.85	16.68	-45.9	-48.1	19.1	0.00e+00	0	39	0	185597952	63	4640
2026-01-04 09:34:04.49	140.80	16.77	-46.0	-48.3	19.0	0.00e+00	0	39	0	187695104	63	4720
2026-01-04 09:34:05.63	140.74	16.90	-46.0	-48.3	18.9	0.00e+00	0	39	0	189792256	63	4739
2026-01-04 09:34:06.49	140.69	17.00	-46.3	-48.7	18.6	0.00e+00	0	39	0	190840832	63	4934
2026-01-04 09:34:07.64	140.63	17.13	-46.5	-49.0	18.2	0.00e+00	0	39	0	192937984	64	4854
2026-01-04 09:34:08.49	140.58	17.23	-46.8	-49.3	18.0	0.00e+00	0	39	0	195035136	64	5032
2026-01-04 09:34:09.64	140.51	17.36	-47.0	-49.7	17.7	0.00e+00	0	39	0	197132288	64	5221
2026-01-04 09:34:10.50	140.46	17.46	-47.0	-49.6	17.8	0.00e+00	0	39	0	199229440	65	4894
2026-01-04 09:34:11.65	140.39	17.59	-47.0	-49.7	17.7	0.00e+00	0	39	0	201326592	65	4945
2026-01-04 09:34:12.60	140.34	17.70	-46.8	-49.3	18.1	0.00e+00	0	39	0	202375168	65	4708
2026-01-04 09:34:13.78	140.27	17.84	-46.6	-49.0	18.3	0.00e+00	0	39	0	204472320	64	4838
2026-01-04 09:34:14.64	140.22	17.94	-46.3	-48.6	18.6	0.00e+00	0	39	0	206569472	64	4628
2026-01-04 09:34:15.99	140.13	18.09	-46.0	-48.2	19.1	0.00e+00	0	39	0	208666624	63	4696
2026-01-04 09:34:16.71	140.09	18.18	-46.3	-48.5	18.8	0.00e+00	0	39	0	210763776	63	4865
2026-01-04 09:34:18.00	140.01	18.33	-46.3	-48.6	18.6	0.00e+00	0	39	0	212860928	63	4923
2026-01-04 09:34:18.72	139.97	18.42	-46.1	-48.4	18.9	0.00e+00	0	39	0	213909504	63	4791
2026-01-04 09:34:20.01	139.89	18.57	-46.4	-48.8	18.5	0.00e+00	0	39	0	217055232	63	5041
2026-01-04 09:34:20.72	139.84	18.66	-46.6	-49.1	18.2	0.00e+00	0	39	0	218103808	64	4883
2026-01-04 09:34:22.01	139.76	18.81	-46.7	-49.2	18.2	0.00e+00	0	39	0	220200960	64	4958
2026-01-04 09:34:22.72	139.71	18.90	-46.7	-49.2	18.2	0.00e+00	0	39	0	221249536	64	4952
2026-01-04 09:34:24.01	139.63	19.06	-46.7	-49.2	18.2	0.00e+00	0	39	0	224395264	64	4941
2026-01-04 09:34:24.73	139.58	19.14	-46.8	-49.2	18.1	0.00e+00	0	39	0	225443840	64	4981
2026-01-04 09:34:26.02	139.50	19.30	-46.3	-48.7	18.6	0.00e+00	0	39	0	227540992	64	4659
2026-01-04 09:34:26.73	139.45	19.39	-46.1	-48.4	18.9	0.00e+00	0	39	0	228589568	63	4784
2026-01-04 09:34:28.03	139.36	19.55	-46.1	-48.4	19.0	0.00e+00	0	39	0	231735296	63	4781
2026-01-04 09:34:28.74	139.32	19.64	-46.1	-48.3	19.1	0.00e+00	0	39	0	232783872	63	4738
2026-01-04 09:34:30.03	139.23	19.80	-46.2	-48.4	18.9	0.00e+00	0	39	0	234881024	63	4795
2026-01-04 09:34:30.75	139.18	19.89	-46.4	-48.7	18.7	0.00e+00	0	39	0	236978176	63	4938
2026-01-04 09:34:32.04	139.09	20.06	-46.4	-48.7	18.7	0.00e+00	0	39	0	239075328	63	4958
2026-01-04 09:34:32.75	139.04	20.15	-46.6	-49.0	18.3	0.00e+00	0	39	0	240123904	64	4869
2026-01-04 09:34:34.04	138.95	20.31	-46.8	-49.2	18.2	0.00e+00	0	39	0	243269632	64	4958
2026-01-04 09:34:34.76	138.90	20.40	-46.7	-49.2	18.2	0.00e+00	0	39	0	244318208	64	4927
2026-01-04 09:34:36.05	138.81	20.57	-46.7	-49.1	18.3	0.00e+00	0	39	0	246415360	64	4882
2026-01-04 09:34:36.76	138.75	20.66	-46.5	-48.8	18.5	0.00e+00	0	39	0	247463936	64	4753
2026-01-04 09:34:38.05	138.66	20.83	-46.4	-48.7	18.6	0.00e+00	0	39	0	250609664	64	4684
2026-01-04 09:34:38.77	138.61	20.92	-46.4	-48.8	18.5	0.00e+00	0	39	0	251658240	64	4708
2026-01-04 09:34:40.17	138.50	21.11	-46.5	-48.8	18.4	0.00e+00	0	39	0	254803968	64	4744
2026-01-04 09:34:41.16	138.43	21.24	-46.6	-48.9	18.4	0.00e+00	0	39	0	255852544	64	4794
2026-01-04 09:34:42.48	138.33	21.41	-46.7	-49.1	18.2	0.00e+00	0	39	0	258998272	64	4894
2026-01-04 09:34:43.20	138.27	21.51	-46.9	-49.3	18.0	0.00e+00	0	39	0	260046848	64	5032
2026-01-04 09:34:44.49	138.18	21.68	-47.0	-49.4	17.9	0.00e+00	0	39	0	262144000	64	5094
2026-01-04 09:34:45.20	138.12	21.78	-46.9	-49.4	18.0	0.00e+00	0	39	0	264241152	65	4784
2026-01-04 09:34:46.50	138.02	21.95	-46.9	-49.3	18.0	0.00e+00	0	39	0	266338304	65	4748
2026-01-04 09:34:47.21	137.96	22.05	-46.9	-49.3	18.1	0.00e+00	0	39	0	267386880	65	4726
2026-01-04 09:34:48.50	137.86	22.23	-47.0	-49.4	18.0	0.00e+00	0	39	0	269484032	65	4797
2026-01-04 09:34:49.21	137.80	22.33	-47.0	-49.4	18.0	0.00e+00	0	39	0	271581184	65	4803
2026-01-04 09:34:50.52	137.69	22.51	-46.5	-48.8	18.5	0.00e+00	0	39	0	273678336	65	4464
2026-01-04 09:34:51.24	137.64	22.61	-46.9	-49.3	18.1	0.00e+00	0	39	0	274726912	65	4741
2026-01-04 09:34:52.64	137.52	22.80	-47.1	-49.6	17.8	0.00e+00	0	39	0	277872640	65	4897
2026-01-04 09:34:53.36	137.46	22.90	-47.1	-49.6	17.9	0.00e+00	0	39	0	278921216	65	4898
2026-01-04 09:34:54.71	137.35	23.09	-47.5	-50.1	17.4	0.00e+00	0	39	0	282066944	65	5204
2026-01-04 09:34:55.43	137.28	23.20	-47.6	-50.3	17.2	0.00e+00	0	39	0	283115520	65	5304
2026-01-04 09:34:56.83	137.16	23.40	-47.4	-49.9	17.6	0.00e+00	0	39	0	285212672	66	4805
2026-01-04 09:34:57.54	137.10	23.50	-47.3	-49.8	17.7	0.00e+00	0	39	0	287309824	66	4734
2026-01-04 09:34:58.83	136.99	23.68	-47.4	-49.9	17.6	0.00e+00	0	39	0	289406976	66	4783
2026-01-04 09:34:59.55	136.92	23.79	-47.4	-50.0	17.6	0.00e+00	0	39	0	290455552	66	4823
2026-01-04 09:35:00.84	136.81	23.98	-47.5	-50.0	17.5	0.00e+00	0	39	0	292552704	66	4860
2026-01-04 09:35:01.55	136.74	24.08	-47.6	-50.2	17.3	0.00e+00	0	39	0	294649856	66	4976
2026-01-04 09:35:02.84	136.63	24.27	-47.6	-50.2	17.3	0.00e+00	0	39	0	296747008	66	4965
2026-01-04 09:35:03.56	136.56	24.38	-47.8	-50.6	17.1	0.00e+00	0	39	0	297795584	66	5161
2026-01-04 09:35:04.85	136.44	24.57	-47.8	-50.4	17.1	0.00e+00	0	39	0	300941312	66	5097
2026-01-04 09:35:05.61	136.37	24.68	-47.8	-50.5	17.0	0.00e+00	0	39	0	301989888	66	5130
2026-01-04 09:35:06.90	136.24	24.87	-47.8	-50.5	17.0	0.00e+00	0	39	0	304087040	66	5141
2026-01-04 09:35:07.62	136.18	24.98	-47.8	-50.4	17.1	0.00e+00	0	39	0	306184192	66	5100
2026-01-04 09:35:08.91	136.05	25.18	-47.8	-50.5	17.0	0.00e+00	0	39	0	308281344	66	5142
2026-01-04 09:35:09.74	135.97	25.30	-47.6	-50.3	17.2	0.00e+00	0	39	0	309329920	66	5006
2026-01-04 09:35:10.88	135.86	25.48	-47.9	-50.6	17.0	0.00e+00	0	39	0	311427072	66	5214
2026-01-04 09:35:11.74	135.77	25.61	-47.6	-50.2	17.2	0.00e+00	0	39	0	313524224	66	4964
2026-01-04 09:35:12.88	135.66	25.79	-47.7	-50.5	17.1	0.00e+00	0	39	0	315621376	66	5101
2026-01-04 09:35:13.74	135.57	25.92	-47.6	-50.2	17.3	0.00e+00	0	39	0	317718528	66	4977
2026-01-04 09:35:14.89	135.45	26.10	-47.5	-50.1	17.4	0.00e+00	0	39	0	319815680	66	4885
2026-01-04 09:35:15.75	135.36	26.24	-47.4	-50.0	17.5	0.00e+00	0	39	0	320864256	66	4816
2026-01-04 09:35:16.89	135.24	26.42	-47.8	-50.5	17.1	0.00e+00	0	39	0	322961408	66	5109
2026-01-04 09:35:17.75	135.15	26.55	-47.6	-50.2	17.3	0.00e+00	0	39	0	325058560	66	4943
2026-01-04 09:35:19.03	135.01	26.76	-48.0	-50.7	16.8	0.00e+00	0	39	0	327155712	66	5259
2026-01-04 09:35:19.76	134.93	26.88	-47.9	-50.7	16.8	0.00e+00	0	39	0	328204288	67	4963
2026-01-04 09:35:21.05	134.79	27.08	-48.4	-51.3	16.3	0.00e+00	0	39	0	331350016	67	5281
2026-01-04 09:35:21.76	134.71	27.20	-48.2	-51.1	16.5	0.00e+00	0	39	0	332398592	67	5172
2026-01-04 09:35:23.05	134.57	27.41	-48.2	-51.1	16.5	0.00e+00	0	39	0	334495744	67	5173
2026-01-04 09:35:23.77	134.49	27.53	-48.1	-50.9	16.7	0.00e+00	0	39	0	335544320	67	5056
2026-01-04 09:35:25.06	134.34	27.74	-47.8	-50.5	16.9	0.00e+00	0	39	0	338690048	67	4845
2026-01-04 09:35:25.77	134.26	27.86	-47.9	-50.6	16.9	0.00e+00	0	39	0	339738624	67	4873
2026-01-04 09:35:27.06	134.11	28.07	-47.9	-50.5	17.1	0.00e+00	0	39	0	341835776	67	4858
2026-01-04 09:35:27.78	134.02	28.19	-47.8	-50.5	17.1	0.00e+00	0	39	0	343932928	67	4832
2026-01-04 09:35:29.07	133.87	28.41	-48.4	-51.2	16.4	0.00e+00	0	39	0	346030080	67	5257
2026-01-04 09:35:30.02	133.75	28.57	-48.5	-51.4	16.3	0.00e+00	0	39	0	348127232	67	5384
2026-01-04 09:35:31.03	133.63	28.75	-48.9	-51.9	15.9	0.00e+00	0	39	0	349175808	68	5376
2026-01-04 09:35:32.03	133.51	28.92	-48.8	-51.8	16.0	0.00e+00	0	39	0	351272960	68	5286
2026-01-04 09:35:33.03	133.38	29.09	-48.4	-51.2	16.6	0.00e+00	0	39	0	353370112	68	4931
2026-01-04 09:35:34.04	133.25	29.26	-48.5	-51.3	16.5	0.00e+00	0	39	0	355467264	68	4989
2026-01-04 09:35:35.04	133.13	29.44	-48.5	-51.4	16.3	0.00e+00	0	39	0	357564416	68	5070
2026-01-04 09:35:36.04	133.00	29.61	-48.1	-50.8	16.8	0.00e+00	0	39	0	358612992	67	5005
2026-01-04 09:35:37.04	132.87	29.79	-48.2	-51.0	16.6	0.00e+00	0	39	0	360710144	67	5157
2026-01-04 09:35:38.04	132.74	29.96	-48.1	-50.9	16.7	0.00e+00	0	39	0	362807296	67	5056
2026-01-04 09:35:39.05	132.60	30.14	-48.0	-50.9	16.7	0.00e+00	0	39	0	364904448	67	5050
2026-01-04 09:35:40.05	132.47	30.32	-47.8	-50.6	17.0	0.00e+00	0	39	0	367001600	67	4878
2026-01-04 09:35:41.05	132.33	30.50	-47.5	-50.2	17.3	0.00e+00	0	39	0	368050176	67	4670
2026-01-04 09:35:42.06	132.19	30.68	-47.8	-50.6	17.0	0.00e+00	0	39	0	370147328	66	5173
2026-01-04 09:35:43.06	132.05	30.86	-47.6	-50.3	17.2	0.00e+00	0	39	0	372244480	66	5029
2026-01-04 09:35:44.44	131.86	31.12	-47.6	-50.4	17.2	0.00e+00	0	39	0	375390208	66	5047
2026-01-04 09:35:45.19	131.75	31.25	-47.8	-50.5	17.1	0.00e+00	0	39	0	376438784	66	5158
2026-01-04 09:35:46.48	131.56	31.49	-47.3	-49.9	17.6	0.00e+00	0	39	0	378535936	66	4765
2026-01-04 09:35:47.19	131.46	31.62	-47.8	-50.4	17.1	0.00e+00	0	39	0	379584512	66	5077
2026-01-04 09:35:48.48	131.27	31.86	-47.9	-50.6	16.9	0.00e+00	0	39	0	382730240	66	5200
2026-01-04 09:35:49.20	131.16	32.00	-47.5	-50.0	17.6	0.00e+00	0	39	0	383778816	66	4833
2026-01-04 09:35:50.48	130.97	32.24	-48.3	-51.1	16.5	0.00e+00	0	39	0	385875968	67	5215
2026-01-04 09:35:51.20	130.86	32.38	-48.5	-51.4	16.1	0.00e+00	0	39	0	387973120	67	5382
2026-01-04 09:35:52.49	130.66	32.62	-49.4	-52.6	15.2	0.00e+00	0	39	0	390070272	69	5499
2026-01-04 09:35:53.20	130.54	32.76	-49.3	-52.6	15.2	0.00e+00	0	39	0	391118848	69	5495
2026-01-04 09:35:54.49	130.34	33.00	-48.8	-51.7	16.0	0.00e+00	0	39	0	393216000	69	4970
2026-01-04 09:35:55.21	130.22	33.14	-49.3	-52.5	15.3	0.00e+00	0	39	0	395313152	69	5440
2026-01-04 09:35:56.50	130.01	33.39	-49.4	-52.6	15.2	0.00e+00	0	39	0	397410304	69	5504
2026-01-04 09:35:57.21	129.90	33.53	-48.7	-51.6	16.3	0.00e+00	0	39	0	398458880	69	4900
2026-01-04 09:35:58.74	129.64	33.83	-49.1	-52.1	15.8	0.00e+00	0	39	0	401604608	69	5200
2026-01-04 09:35:59.46	129.52	33.97	-49.1	-52.2	15.6	0.00e+00	0	39	0	402653184	69	5228
2026-01-04 09:36:00.75	129.30	34.23	-49.2	-52.3	15.6	0.00e+00	0	39	0	405798912	69	5292
2026-01-04 09:36:01.47	129.17	34.37	-49.0	-52.0	15.8	0.00e+00	0	39	0	406847488	69	5154
2026-01-04 09:36:02.76	128.94	34.63	-49.1	-52.1	15.8	0.00e+00	0	39	0	408944640	69	5189
2026-01-04 09:36:03.47	128.82	34.77	-49.3	-52.5	15.4	0.00e+00	0	39	0	409993216	69	5414
2026-01-04 09:36:04.76	128.59	35.03	-49.4	-52.6	15.4	0.00e+00	0	39	0	413138944	69	5472
2026-01-04 09:36:05.48	128.45	35.18	-49.4	-52.6	15.3	0.00e+00	0	39	0	414187520	69	5479
2026-01-04 09:36:06.77	128.22	35.44	-49.6	-52.9	15.0	0.00e+00	0	39	0	416284672	69	5703
2026-01-04 09:36:07.52	128.07	35.60	-49.9	-53.4	14.7	0.00e+00	0	39	0	418381824	70	5687
2026-01-04 09:36:08.81	127.83	35.86	-50.1	-53.7	14.2	0.00e+00	0	39	0	420478976	71	5571
2026-01-04 09:36:09.52	127.69	36.01	-50.4	-54.2	13.8	1.50e-06	0	39	0	421527552	71	5864
2026-01-04 09:36:10.81	127.44	36.28	-50.9	-55.2	12.8	1.29e-05	0	39	0	424673280	72	6234
2026-01-04 09:36:11.53	127.30	36.43	-51.0	-55.5	12.2	4.10e-04	0	39	0	425721856	73	6105
2026-01-04 09:36:12.82	127.04	36.70	-51.3	-55.9	11.9	3.56e-04	0	39	0	427819008	73	6409
2026-01-04 09:36:13.53	126.90	36.85	-51.1	-55.5	12.3	1.36e-04	0	39	0	428867584	73	6124
2026-01-04 09:36:14.82	126.63	37.12	-50.6	-54.5	13.3	5.56e-05	0	39	0	432013312	73	5449
2026-01-04 09:36:15.53	126.49	37.27	-50.2	-53.8	13.8	6.80e-06	0	39	0	433061888	72	5304
2026-01-04 09:36:16.82	126.21	37.55	-49.7	-53.1	14.8	0.00e+00	0	39	0	435159040	71	5201
2026-01-04 09:36:17.53	126.06	37.70	-49.5	-52.7	15.3	0.00e+00	0	39	0	437256192	70	5261
2026-01-04 09:36:18.83	125.78	37.98	-49.3	-52.3	15.6	0.00e+00	0	39	0	439353344	70	5026
2026-01-04 09:36:19.54	125.63	38.13	-49.0	-52.1	15.7	0.00e+00	0	39	0	440401920	70	4881
2026-01-04 09:36:20.83	125.34	38.41	-48.9	-51.9	16.1	0.00e+00	0	39	0	443547648	69	5043
2026-01-04 09:36:21.55	125.18	38.57	-48.9	-52.0	15.9	0.00e+00	0	39	0	444596224	69	5102
2026-01-04 09:36:22.84	124.88	38.85	-49.3	-52.5	15.6	0.00e+00	0	39	0	446693376	69	5411
2026-01-04 09:36:23.55	124.72	39.01	-49.4	-52.7	15.2	0.00e+00	0	39	0	447741952	69	5530
2026-01-04 09:36:24.84	124.41	39.29	-49.7	-53.1	14.8	0.00e+00	0	39	0	450887680	70	5482
2026-01-04 09:36:25.56	124.24	39.45	-49.7	-53.0	15.0	0.00e+00	0	39	0	451936256	70	5448
2026-01-04 09:36:26.85	123.93	39.74	-50.0	-53.5	14.4	4.50e-06	0	39	0	454033408	71	5438
2026-01-04 09:36:27.56	123.76	39.90	-50.2	-53.8	14.1	2.20e-06	0	39	0	456130560	71	5626
2026-01-04 09:36:28.85	123.44	40.19	-50.3	-53.9	14.0	1.50e-06	0	39	0	458227712	71	5693
2026-01-04 09:36:29.57	123.26	40.35	-50.2	-53.9	14.0	8.30e-06	0	39	0	459276288	71	5712
2026-01-04 09:36:30.86	122.93	40.64	-50.8	-54.8	13.2	2.36e-05	0	39	0	461373440	72	5987
2026-01-04 09:36:31.58	122.74	40.80	-50.8	-54.9	13.2	1.38e-04	0	39	0	463470592	73	5705
2026-01-04 09:36:32.87	122.40	41.10	-51.1	-55.4	12.5	5.03e-05	0	39	0	465567744	73	6021
2026-01-04 09:36:33.58	122.21	41.26	-51.4	-56.0	12.1	1.65e-04	0	39	0	466616320	73	6436
2026-01-04 09:36:35.06	121.81	41.60	-51.1	-55.5	12.5	8.54e-05	0	39	0	469762048	73	6077
2026-01-04 09:36:35.78	121.62	41.76	-51.3	-55.9	12.0	1.66e-04	0	39	0	470810624	73	6413
2026-01-04 09:36:37.10	121.25	42.07	-50.9	-55.2	12.6	3.17e-04	0	39	0	473956352	73	5890
2026-01-04 09:36:37.82	121.04	42.23	-50.9	-55.2	12.7	1.50e-04	0	39	0	475004928	73	5885
2026-01-04 09:36:39.15	120.66	42.54	-50.8	-55.0	12.8	6.86e-05	0	39	0	477102080	73	5731
2026-01-04 09:36:39.87	120.45	42.71	-50.3	-54.0	13.8	4.65e-05	0	39	0	479199232	72	5445
2026-01-04 09:36:41.16	120.07	43.01	-50.0	-53.5	14.4	7.00e-07	0	39	0	481296384	71	5426
2026-01-04 09:36:42.21	119.76	43.25	-50.3	-54.1	13.9	7.00e-07	0	39	0	483393536	71	5811
2026-01-04 09:36:43.10	119.48	43.46	-49.9	-53.5	14.4	1.50e-06	0	39	0	484442112	71	5445
2026-01-04 09:36:44.69	118.99	43.83	-49.0	-52.1	15.8	0.00e+00	0	39	0	487587840	70	4901
2026-01-04 09:36:45.26	118.81	43.97	-48.9	-52.0	15.9	0.00e+00	0	39	0	488636416	69	5105
2026-01-04 09:36:46.91	118.28	44.35	-48.9	-51.9	15.9	0.00e+00	0	39	0	491782144	69	5087
2026-01-04 09:36:47.48	118.09	44.49	-48.9	-51.9	15.9	0.00e+00	0	39	0	492830720	69	5061
2026-01-04 09:36:49.09	117.56	44.87	-48.5	-51.2	16.7	0.00e+00	0	39	0	495976448	69	4699
2026-01-04 09:36:49.87	117.30	45.05	-48.6	-51.4	16.5	0.00e+00	0	39	0	497025024	69	4796
2026-01-04 09:36:51.16	116.85	45.36	-49.0	-52.0	15.7	0.00e+00	0	39	0	500170752	69	5136
2026-01-04 09:36:51.88	116.60	45.53	-49.2	-52.4	15.5	0.00e+00	0	39	0	501219328	69	5354
2026-01-04 09:36:53.16	116.15	45.83	-49.3	-52.6	15.2	1.50e-06	0	39	0	503316480	69	5491
2026-01-04 09:36:54.14	115.80	46.07	-49.0	-52.1	15.6	0.00e+00	0	39	0	505413632	69	5161
2026-01-04 09:36:55.47	115.31	46.38	-48.9	-51.9	15.9	0.00e+00	0	39	0	507510784	69	5071
2026-01-04 09:36:56.19	115.05	46.55	-48.9	-51.9	16.0	0.00e+00	0	39	0	509607936	69	5044
2026-01-04 09:36:57.48	114.56	46.86	-48.0	-50.6	17.1	0.00e+00	0	39	0	511705088	67	4907
2026-01-04 09:36:58.29	114.25	47.05	-47.6	-50.2	17.4	0.00e+00	0	39	0	512753664	67	4671
2026-01-04 09:36:59.44	113.80	47.33	-47.7	-50.3	17.2	0.00e+00	0	39	0	515899392	66	5012
2026-01-04 09:37:00.30	113.46	47.53	-48.4	-51.2	16.5	0.00e+00	0	39	0	516947968	67	5251
2026-01-04 09:37:01.44	113.00	47.80	-48.6	-51.4	16.3	0.00e+00	0	39	0	519045120	68	5072
2026-01-04 09:37:02.30	112.65	48.00	-48.7	-51.6	16.3	0.00e+00	0	39	0	521142272	68	5179
2026-01-04 09:37:03.44	112.18	48.27	-49.5	-52.8	15.2	0.00e+00	0	39	0	523239424	69	5614
2026-01-04 09:37:04.30	111.82	48.48	-49.5	-52.8	15.0	0.00e+00	0	39	0	524288000	70	5287
2026-01-04 09:37:05.45	111.33	48.75	-48.8	-51.8	15.9	0.00e+00	0	39	0	526385152	69	5028
2026-01-04 09:37:06.31	110.96	48.95	-48.5	-51.4	16.3	0.00e+00	0	39	0	528482304	68	5053
2026-01-04 09:37:07.46	110.45	49.22	-48.5	-51.4	16.2	0.00e+00	0	39	0	530579456	68	5087
2026-01-04 09:37:08.31	110.07	49.42	-49.1	-52.4	15.4	0.00e+00	0	39	0	531628032	68	5682
2026-01-04 09:37:09.46	109.55	49.69	-48.6	-52.0	15.6	0.00e+00	0	39	0	534773760	69	5153
2026-01-04 09:37:10.32	109.15	49.89	-47.7	-50.8	16.6	0.00e+00	0	39	0	535822336	67	4997
2026-01-04 09:37:11.47	108.61	50.15	-47.1	-49.9	17.3	0.00e+00	0	39	0	537919488	66	4808
2026-01-04 09:37:12.33	108.20	50.35	-47.1	-50.0	17.3	0.00e+00	0	39	0	540016640	65	5109
2026-01-04 09:37:13.48	107.65	50.62	-47.4	-50.4	16.9	0.00e+00	0	39	0	542113792	65	5370
2026-01-04 09:37:14.33	107.23	50.81	-47.2	-50.1	17.2	0.00e+00	0	39	0	543162368	65	5190
2026-01-04 09:37:15.48	106.66	51.07	-46.7	-49.4	17.8	0.00e+00	0	39	0	545259520	65	4812
2026-01-04 09:37:16.40	106.19	51.28	-46.6	-49.2	18.0	0.00e+00	0	39	0	547356672	65	4689
2026-01-04 09:37:17.40	105.68	51.51	-46.3	-48.8	18.4	0.00e+00	0	39	0	549453824	64	4752
2026-01-04 09:37:18.41	105.16	51.73	-46.4	-48.9	18.5	0.00e+00	0	39	0	551550976	64	4797
2026-01-04 09:37:19.41	104.63	51.96	-46.3	-49.0	18.1	0.00e+00	0	39	0	552599552	64	4849
2026-01-04 09:37:20.41	104.09	52.18	-46.2	-48.8	18.3	0.00e+00	0	39	0	554696704	64	4730
2026-01-04 09:37:21.42	103.54	52.40	-46.0	-48.5	18.7	0.00e+00	0	39	0	556793856	63	4839
2026-01-04 09:37:22.42	102.99	52.61	-46.2	-48.7	18.6	0.00e+00	0	39	0	558891008	63	4949
2026-01-04 09:37:23.42	102.43	52.83	-46.6	-49.3	18.1	0.00e+00	0	39	0	559939584	64	4989
2026-01-04 09:37:24.42	101.86	53.04	-47.0	-49.8	17.6	0.00e+00	0	39	0	562036736	64	5280
2026-01-04 09:37:25.43	101.27	53.26	-47.4	-50.3	17.1	0.00e+00	0	39	0	564133888	65	5299
2026-01-04 09:37:26.43	100.69	53.47	-47.8	-51.0	16.4	0.00e+00	0	39	0	566231040	66	5424
2026-01-04 09:37:27.43	100.09	53.67	-48.0	-51.1	16.3	0.00e+00	0	39	0	568328192	66	5527
2026-01-04 09:37:28.45	99.48	53.88	-47.6	-50.6	16.8	0.00e+00	0	39	0	569376768	66	5198
2026-01-04 09:37:29.49	98.84	54.09	-47.6	-50.6	16.8	0.00e+00	0	39	0	571473920	66	5170
2026-01-04 09:37:30.49	98.22	54.29	-48.1	-51.4	16.0	0.00e+00	0	39	0	573571072	66	5693
2026-01-04 09:37:31.49	97.59	54.49	-47.4	-50.4	16.9	0.00e+00	0	39	0	575668224	66	5085
2026-01-04 09:37:32.49	96.95	54.68	-46.7	-49.3	18.0	0.00e+00	0	39	0	577765376	65	4715
2026-01-04 09:37:33.50	96.30	54.88	-46.3	-48.7	18.6	0.00e+00	0	39	0	579862528	63	4965
2026-01-04 09:37:34.50	95.64	55.06	-46.2	-48.7	18.5	0.00e+00	0	39	0	580911104	63	4983
2026-01-04 09:37:35.50	94.98	55.25	-47.6	-50.8	16.8	0.00e+00	0	39	0	583008256	65	5609
2026-01-04 09:37:36.50	94.30	55.43	-47.5	-50.6	16.8	0.00e+00	0	39	0	585105408	65	5476
2026-01-04 09:37:37.51	93.61	55.61	-47.3	-50.1	17.3	0.00e+00	0	39	0	587202560	65	5214
2026-01-04 09:37:38.51	92.92	55.79	-46.9	-49.6	17.7	0.00e+00	0	39	0	588251136	65	4883
2026-01-04 09:37:39.51	92.22	55.96	-47.5	-50.5	16.8	0.00e+00	0	39	0	590348288	65	5454
2026-01-04 09:37:40.52	91.51	56.13	-47.9	-51.1	16.2	0.00e+00	0	39	0	592445440	66	5496
2026-01-04 09:37:41.52	90.79	56.29	-48.4	-51.8	15.7	0.00e+00	0	39	0	594542592	67	5650
2026-01-04 09:37:42.52	90.07	56.45	-48.6	-52.2	15.3	0.00e+00	0	39	0	596639744	67	5894
2026-01-04 09:37:43.52	89.33	56.60	-48.7	-52.4	15.3	0.00e+00	0	39	0	597688320	68	5675
2026-01-04 09:37:44.52	88.59	56.76	-47.1	-50.0	17.2	0.00e+00	0	39	0	599785472	66	4853
2026-01-04 09:37:45.56	87.81	56.91	-46.3	-49.0	18.1	0.00e+00	0	39	0	601882624	64	4860
2026-01-04 09:37:46.56	87.06	57.05	-45.9	-48.5	18.6	0.00e+00	0	39	0	603979776	63	4856
2026-01-04 09:37:47.56	86.29	57.19	-46.3	-49.0	18.3	0.00e+00	0	39	0	606076928	63	5123
2026-01-04 09:37:48.56	85.52	57.32	-46.7	-49.6	17.7	0.00e+00	0	39	0	607125504	64	5162
2026-01-04 09:37:49.57	84.73	57.45	-46.8	-49.8	17.4	0.00e+00	0	39	0	609222656	64	5289
2026-01-04 09:37:50.57	83.94	57.58	-46.3	-49.0	18.2	0.00e+00	0	39	0	611319808	64	4857
2026-01-04 09:37:51.57	83.14	57.70	-46.0	-48.5	19.0	0.00e+00	0	39	0	613416960	63	4835
2026-01-04 09:37:52.58	82.33	57.81	-45.5	-48.0	19.2	7.00e-07	0	39	0	615514112	62	4818
2026-01-04 09:37:53.58	81.53	57.92	-45.3	-47.7	19.4	0.00e+00	0	39	0	616562688	62	4676
2026-01-04 09:37:54.58	80.71	58.02	-45.5	-48.0	19.1	0.00e+00	0	39	0	618659840	62	4831
2026-01-04 09:37:55.87	79.65	58.15	-46.7	-49.5	17.8	0.00e+00	0	39	0	620756992	64	5155
2026-01-04 09:37:56.62	79.03	58.22	-46.7	-49.8	17.4	0.00e+00	0	39	0	622854144	64	5281
2026-01-04 09:37:57.91	77.95	58.33	-47.0	-50.1	17.0	0.00e+00	0	39	0	624951296	65	5216
2026-01-04 09:37:58.69	77.30	58.39	-46.8	-49.9	17.3	0.00e+00	0	39	0	625999872	65	5050
2026-01-04 09:38:00.30	75.94	58.51	-45.5	-48.0	19.1	0.00e+00	0	39	0	629145600	63	4566
2026-01-04 09:38:00.87	75.45	58.55	-45.0	-47.3	19.7	0.00e+00	0	39	0	630194176	62	4474
2026-01-04 09:38:02.49	74.07	58.65	-45.0	-47.3	19.7	0.00e+00	0	39	0	633339904	61	4738
2026-01-04 09:38:03.06	73.58	58.68	-45.5	-47.9	19.2	0.00e+00	0	39	0	634388480	61	5076
2026-01-04 09:38:04.75	72.12	58.76	-45.8	-48.3	19.0	0.00e+00	0	39	0	637534208	62	5001
2026-01-04 09:38:05.32	71.63	58.78	-45.3	-47.7	19.5	0.00e+00	0	39	0	638582784	62	4664
2026-01-04 09:38:06.89	70.27	58.84	-44.4	-46.5	20.4	0.00e+00	0	39	0	641728512	60	4594
2026-01-04 09:38:07.49	69.75	58.85	-44.4	-46.5	20.4	0.00e+00	0	39	0	642777088	60	4586
2026-01-04 09:38:09.07	68.37	58.89	-44.3	-46.4	20.5	0.00e+00	0	39	0	645922816	60	4537
2026-01-04 09:38:09.64	67.87	58.89	-44.4	-46.5	20.5	0.00e+00	0	39	0	646971392	60	4587
2026-01-04 09:38:11.55	66.20	58.91	-44.3	-46.4	20.6	0.00e+00	0	39	0	651165696	60	4509
2026-01-04 09:38:12.13	65.69	58.91	-44.4	-46.6	20.3	0.00e+00	0	39	0	652214272	60	4622
2026-01-04 09:38:13.72	64.30	58.90	-45.2	-47.6	19.6	0.00e+00	0	39	0	654311424	60	5161
2026-01-04 09:38:14.29	63.81	58.89	-45.4	-47.9	19.1	0.00e+00	0	39	0	655360000	61	5062
2026-01-04 09:38:15.88	62.42	58.85	-44.3	-46.4	20.5	0.00e+00	0	39	0	658505728	60	4528
2026-01-04 09:38:16.46	61.92	58.84	-44.4	-46.5	20.5	0.00e+00	0	39	0	659554304	60	4590
2026-01-04 09:38:18.04	60.54	58.79	-44.5	-46.7	20.4	0.00e+00	0	39	0	662700032	60	4671
2026-01-04 09:38:18.63	60.03	58.76	-44.7	-46.9	20.2	0.00e+00	0	39	0	663748608	60	4769
2026-01-04 09:38:20.21	58.67	58.69	-45.1	-47.3	19.8	0.00e+00	0	39	0	666894336	60	5039
2026-01-04 09:38:20.89	58.09	58.65	-44.9	-47.1	19.9	0.00e+00	0	39	0	667942912	60	4900
2026-01-04 09:38:22.33	56.86	58.56	-44.1	-46.3	20.6	0.00e+00	0	39	0	671088640	60	4445
2026-01-04 09:38:23.05	56.24	58.52	-43.8	-45.9	20.8	0.00e+00	0	39	0	672137216	59	4494
2026-01-04 09:38:24.33	55.16	58.42	-44.4	-46.6	20.3	0.00e+00	0	39	0	674234368	59	4879
2026-01-04 09:38:25.05	54.56	58.37	-44.9	-47.2	19.8	0.00e+00	0	39	0	676331520	60	4964
2026-01-04 09:38:26.34	53.48	58.26	-45.8	-48.3	18.9	0.00e+00	0	39	0	678428672	62	5008
2026-01-04 09:38:27.23	52.74	58.18	-46.4	-49.0	18.2	0.00e+00	0	39	0	680525824	63	5152
2026-01-04 09:38:28.37	51.80	58.07	-46.7	-49.4	17.7	0.00e+00	0	39	0	682622976	64	5082
2026-01-04 09:38:29.23	51.10	57.99	-46.9	-49.8	17.4	0.00e+00	0	39	0	683671552	64	5311
2026-01-04 09:38:30.38	50.16	57.87	-46.4	-49.1	18.0	0.00e+00	0	39	0	685768704	64	4910
2026-01-04 09:38:31.24	49.47	57.77	-46.5	-49.2	17.9	0.00e+00	0	39	0	687865856	64	4972
2026-01-04 09:38:32.39	48.55	57.64	-46.2	-48.7	18.4	0.00e+00	0	39	0	689963008	64	4693
2026-01-04 09:38:33.24	47.88	57.53	-46.6	-49.2	18.1	0.00e+00	0	39	0	691011584	64	4927
2026-01-04 09:38:34.39	46.98	57.39	-46.4	-48.9	18.2	0.00e+00	0	39	0	693108736	64	4810
2026-01-04 09:38:35.25	46.31	57.28	-46.4	-48.9	18.5	0.00e+00	0	39	0	695205888	64	4767
2026-01-04 09:38:36.49	45.36	57.11	-46.8	-49.4	18.1	0.00e+00	0	39	0	697303040	64	5061
2026-01-04 09:38:37.34	44.71	56.99	-47.0	-49.7	17.8	0.00e+00	0	39	0	699400192	65	4946
2026-01-04 09:38:38.49	43.85	56.82	-46.6	-49.0	18.5	0.00e+00	0	39	0	701497344	65	4575
2026-01-04 09:38:39.35	43.21	56.70	-47.3	-50.0	17.5	0.00e+00	0	39	0	702545920	65	5122
2026-01-04 09:38:40.62	42.27	56.50	-47.5	-50.3	17.2	0.00e+00	0	39	0	704643072	66	5011
2026-01-04 09:38:41.34	41.75	56.39	-46.5	-48.8	18.5	0.00e+00	0	39	0	706740224	64	4741
2026-01-04 09:38:42.62	40.83	56.18	-45.7	-47.9	19.4	0.00e+00	0	39	0	708837376	63	4518
2026-01-04 09:38:43.34	40.32	56.06	-45.7	-47.9	19.4	0.00e+00	0	39	0	709885952	63	4523
2026-01-04 09:38:44.63	39.41	55.84	-45.5	-47.7	19.7	0.00e+00	0	39	0	713031680	62	4666
2026-01-04 09:38:45.35	38.91	55.72	-45.1	-47.3	20.0	0.00e+00	0	39	0	714080256	62	4470
2026-01-04 09:38:46.64	38.03	55.49	-45.2	-47.4	19.9	0.00e+00	0	39	0	716177408	62	4517
2026-01-04 09:38:47.50	37.45	55.34	-45.0	-47.1	20.1	0.00e+00	0	39	0	718274560	61	4647
2026-01-04 09:38:48.64	36.69	55.13	-45.4	-47.7	19.6	0.00e+00	0	39	0	720371712	61	4951
2026-01-04 09:38:49.69	36.00	54.93	-46.8	-49.3	18.7	0.00e+00	0	39	0	722468864	64	5006
2026-01-04 09:38:50.80	35.28	54.72	-47.0	-49.5	18.6	0.00e+00	0	39	0	724566016	64	5106
2026-01-04 09:38:51.72	34.69	54.54	-47.3	-49.9	18.0	0.00e+00	0	39	0	725614592	65	5088
2026-01-04 09:38:52.89	33.95	54.31	-47.9	-50.7	17.5	0.00e+00	0	39	0	727711744	66	5247
2026-01-04 09:38:53.77	33.41	54.14	-47.8	-50.4	17.7	0.00e+00	0	39	0	729808896	66	5078
2026-01-04 09:38:55.10	32.59	53.87	-48.1	-50.9	17.2	0.00e+00	0	39	0	731906048	66	5365
2026-01-04 09:38:55.82	32.16	53.72	-48.2	-51.1	17.0	0.00e+00	0	39	0	734003200	67	5160
2026-01-04 09:38:57.11	31.39	53.46	-47.8	-50.5	17.6	0.00e+00	0	39	0	736100352	67	4855
2026-01-04 09:38:57.82	30.98	53.31	-48.1	-51.0	16.9	0.00e+00	0	39	0	737148928	67	5156
2026-01-04 09:38:59.12	30.23	53.04	-49.2	-52.5	15.8	0.00e+00	0	39	0	740294656	69	5453
2026-01-04 09:38:59.88	29.79	52.87	-49.5	-52.9	15.4	0.00e+00	0	39	0	741343232	69	5707
2026-01-04 09:39:01.17	29.07	52.60	-48.9	-52.1	16.2	0.00e+00	0	39	0	743440384	69	5192
2026-01-04 09:39:01.98	28.62	52.42	-49.1	-52.3	16.0	0.00e+00	0	39	0	745537536	69	5315
2026-01-04 09:39:03.12	28.00	52.17	-48.1	-50.9	17.2	0.00e+00	0	39	0	747634688	68	4778
2026-01-04 09:39:03.98	27.54	51.98	-48.0	-50.9	17.3	0.00e+00	0	39	0	748683264	67	5047
2026-01-04 09:39:05.13	26.94	51.73	-46.9	-49.5	18.2	7.00e-07	0	39	0	750780416	65	4857
2026-01-04 09:39:05.99	26.49	51.54	-47.5	-50.3	17.6	0.00e+00	0	39	0	752877568	65	5330
2026-01-04 09:39:07.13	25.91	51.28	-48.3	-51.4	16.5	0.00e+00	0	39	0	754974720	67	5380
2026-01-04 09:39:08.36	25.29	51.00	-47.6	-50.4	17.4	0.00e+00	0	39	0	757071872	67	4766
2026-01-04 09:39:09.22	24.86	50.81	-46.6	-49.0	18.6	0.00e+00	0	39	0	759169024	65	4577
2026-01-04 09:39:10.37	24.30	50.54	-46.3	-48.6	19.1	0.00e+00	0	39	0	761266176	63	4916
2026-01-04 09:39:11.23	23.89	50.35	-47.2	-49.8	18.0	0.00e+00	0	39	0	762314752	64	5300
2026-01-04 09:39:12.37	23.35	50.08	-47.8	-50.6	17.2	0.00e+00	0	39	0	764411904	66	5205
2026-01-04 09:39:13.23	22.95	49.89	-48.6	-51.7	16.2	0.00e+00	0	39	0	766509056	67	5588
2026-01-04 09:39:14.40	22.41	49.61	-48.8	-52.1	15.8	0.00e+00	0	39	0	768606208	68	5522
2026-01-04 09:39:15.25	22.03	49.42	-48.7	-51.9	16.2	0.00e+00	0	39	0	769654784	68	5344
2026-01-04 09:39:16.40	21.52	49.15	-48.8	-52.0	16.2	0.00e+00	0	39	0	772800512	68	5427
2026-01-04 09:39:17.26	21.14	48.95	-48.9	-52.2	16.0	0.00e+00	0	39	0	773849088	68	5536
2026-01-04 09:39:18.40	20.65	48.68	-48.9	-52.1	16.1	0.00e+00	0	39	0	775946240	69	5180
2026-01-04 09:39:19.31	20.27	48.47	-49.5	-52.9	15.3	0.00e+00	0	39	0	778043392	69	5674
2026-01-04 09:39:20.50	19.77	48.18	-50.9	-55.6	12.6	4.50e-06	0	39	0	780140544	72	6533
2026-01-04 09:39:21.36	19.42	47.98	-51.5	-57.3	10.8	3.24e-03	0	39	0	781189120	74	7095
2026-01-04 09:39:22.51	18.95	47.71	-50.8	-55.6	12.8	2.14e-03	0	39	0	783286272	73	6198
2026-01-04 09:39:23.37	18.61	47.51	-50.0	-53.9	14.3	2.67e-05	0	39	0	785383424	71	5705
2026-01-04 09:39:24.51	18.16	47.24	-49.6	-53.2	15.0	0.00e+00	0	39	0	787480576	71	5255
2026-01-04 09:39:25.37	17.83	47.03	-50.1	-54.0	14.4	0.00e+00	0	39	0	789577728	71	5772
2026-01-04 09:39:26.51	17.40	46.76	-50.0	-53.8	14.5	0.00e+00	0	39	0	791674880	71	5603
2026-01-04 09:39:27.37	17.08	46.56	-50.0	-53.8	14.6	7.00e-07	0	39	0	792723456	71	5602
2026-01-04 09:39:28.52	16.65	46.29	-50.1	-53.9	14.3	7.00e-07	0	39	0	794820608	71	5682
2026-01-04 09:39:29.38	16.34	46.08	-49.5	-52.9	15.3	0.00e+00	0	39	0	796917760	71	5100
2026-01-04 09:39:30.52	15.93	45.82	-48.9	-52.0	16.2	0.00e+00	0	39	0	799014912	69	5110
2026-01-04 09:39:31.38	15.63	45.61	-48.6	-51.7	16.2	0.00e+00	0	39	0	800063488	69	4953
2026-01-04 09:39:32.53	15.23	45.34	-48.4	-51.3	16.6	3.00e-06	0	39	0	802160640	68	5016
2026-01-04 09:39:33.38	14.94	45.14	-48.5	-51.5	16.2	2.80e-03	0	39	0	804257792	68	5113
2026-01-04 09:39:34.56	14.54	44.86	-49.3	-52.7	15.5	1.92e-03	0	39	0	806354944	69	5543
2026-01-04 09:39:35.42	14.25	44.66	-50.3	-54.4	13.5	2.11e-03	0	39	0	807403520	71	6042
2026-01-04 09:39:36.65	13.85	44.37	-50.5	-54.9	12.9	1.33e-02	0	39	0	810549248	72	6042
2026-01-04 09:39:37.51	13.58	44.17	-50.1	-54.0	14.1	4.77e-03	0	39	0	811597824	71	5747
2026-01-04 09:39:38.72	13.19	43.89	-49.5	-52.9	15.2	2.74e-05	0	39	0	813694976	70	5365
2026-01-04 09:39:39.58	12.93	43.68	-49.4	-52.9	14.9	2.28e-05	0	39	0	815792128	70	5358
2026-01-04 09:39:40.72	12.58	43.42	-49.3	-52.8	15.2	6.95e-03	0	39	0	817889280	70	5325
2026-01-04 09:39:41.58	12.31	43.22	-49.6	-53.0	15.2	5.87e-05	0	39	0	818937856	70	5425
2026-01-04 09:39:42.73	11.97	42.95	-49.7	-53.1	15.0	0.00e+00	0	39	0	822083584	70	5528
2026-01-04 09:39:43.63	11.71	42.74	-49.6	-53.1	15.2	0.00e+00	0	39	0	823132160	70	5480
2026-01-04 09:39:44.64	11.41	42.51	-49.3	-52.5	15.8	0.00e+00	0	39	0	825229312	70	5126
2026-01-04 09:39:45.85	11.07	42.23	-48.8	-51.8	16.4	0.00e+00	0	39	0	827326464	69	5000
2026-01-04 09:39:46.74	10.82	42.03	-48.6	-51.5	16.8	0.00e+00	0	39	0	829423616	69	4824
2026-01-04 09:39:47.76	10.54	41.79	-49.1	-52.2	16.1	0.00e+00	0	39	0	831520768	69	5256
2026-01-04 09:39:48.76	10.26	41.56	-49.5	-52.9	15.3	0.00e+00	0	39	0	832569344	69	5709
2026-01-04 09:39:49.77	9.99	41.33	-49.6	-53.1	15.1	0.00e+00	0	39	0	834666496	70	5491
2026-01-04 09:39:50.77	9.73	41.11	-49.9	-53.7	14.7	0.00e+00	0	39	0	836763648	70	5866
2026-01-04 09:39:51.77	9.47	40.88	-50.6	-54.8	13.5	0.00e+00	0	39	0	838860800	71	6341
2026-01-04 09:39:52.78	9.20	40.65	-50.9	-55.5	12.8	1.60e-05	0	39	0	840957952	72	6443
2026-01-04 09:39:53.78	8.95	40.43	-51.0	-55.4	12.8	5.64e-05	0	39	0	842006528	72	6404
2026-01-04 09:39:54.78	8.70	40.21	-50.3	-54.0	14.2	1.60e-05	0	39	0	844103680	72	5454
2026-01-04 09:39:55.79	8.45	39.98	-50.2	-53.9	14.4	0.00e+00	0	39	0	846200832	71	5703
2026-01-04 09:39:56.79	8.21	39.76	-50.2	-53.9	14.4	7.00e-07	0	39	0	848297984	71	5660
2026-01-04 09:39:57.79	7.97	39.54	-50.3	-54.1	14.2	0.00e+00	0	39	0	849346560	71	5840
2026-01-04 09:39:58.79	7.73	39.32	-50.4	-54.1	14.2	2.20e-06	0	39	0	851443712	71	5854
2026-01-04 09:39:59.84	7.48	39.08	-50.7	-54.6	13.6	4.50e-06	0	39	0	853540864	72	5851
2026-01-04 09:40:00.73	7.28	38.89	-50.6	-54.5	13.8	6.10e-06	0	39	0	855638016	72	5769
2026-01-04 09:40:02.10	6.97	38.59	-50.5	-54.5	13.7	1.44e-05	0	39	0	857735168	72	5770
2026-01-04 09:40:02.82	6.80	38.44	-50.5	-54.3	14.2	4.50e-06	0	39	0	858783744	72	5648
2026-01-04 09:40:04.11	6.52	38.16	-50.2	-54.0	14.2	7.00e-07	0	39	0	861929472	72	5460
2026-01-04 09:40:04.82	6.36	38.00	-50.2	-53.8	14.8	2.20e-06	0	39	0	862978048	72	5332
2026-01-04 09:40:06.11	6.09	37.73	-49.7	-53.0	15.3	0.00e+00	0	39	0	865075200	71	5112
2026-01-04 09:40:06.83	5.93	37.57	-49.6	-52.9	15.5	0.00e+00	0	39	0	867172352	70	5399
2026-01-04 09:40:08.12	5.66	37.30	-50.2	-54.1	14.2	7.00e-07	0	39	0	869269504	71	5789
2026-01-04 09:40:08.84	5.52	37.15	-50.6	-54.7	13.8	9.10e-06	0	39	0	870318080	71	6220
2026-01-04 09:40:10.12	5.25	36.88	-50.5	-55.0	13.1	9.15e-05	0	39	0	873463808	71	6426
2026-01-04 09:40:10.84	5.11	36.73	-50.9	-55.7	12.7	1.14e-04	0	39	0	874512384	72	6574
2026-01-04 09:40:12.13	4.85	36.46	-50.6	-55.3	12.8	1.16e-04	0	39	0	876609536	72	6335
2026-01-04 09:40:12.85	4.71	36.31	-50.5	-55.1	12.7	9.00e-05	0	39	0	877658112	72	6136
2026-01-04 09:40:14.17	4.46	36.03	-50.9	-55.9	12.3	8.85e-05	0	39	0	880803840	72	6764
2026-01-04 09:40:14.88	4.32	35.89	-50.9	-56.4	11.5	3.58e-04	0	39	0	881852416	73	6749
2026-01-04 09:40:16.24	4.06	35.61	-51.1	-56.8	11.3	1.05e-03	0	39	0	883949568	73	7042
2026-01-04 09:40:16.95	3.93	35.47	-50.4	-55.0	13.0	4.70e-04	0	39	0	886046720	72	6079
2026-01-04 09:40:18.24	3.69	35.20	-49.7	-53.6	14.4	2.20e-06	0	39	0	888143872	70	5833
2026-01-04 09:40:18.95	3.57	35.06	-49.5	-53.2	14.8	1.50e-06	0	39	0	889192448	70	5540
2026-01-04 09:40:20.24	3.34	34.80	-49.5	-53.1	14.9	1.50e-06	0	39	0	892338176	70	5491
2026-01-04 09:40:20.96	3.21	34.66	-49.9	-53.8	14.1	0.00e+00	0	39	0	893386752	70	5959
2026-01-04 09:40:22.25	2.98	34.40	-50.7	-55.5	12.2	1.75e-05	0	39	0	895483904	72	6479
2026-01-04 09:40:22.97	2.86	34.26	-50.6	-55.3	12.6	1.23e-04	0	39	0	897581056	72	6332
2026-01-04 09:40:24.26	2.64	34.00	-50.0	-54.1	13.9	1.37e-05	0	39	0	899678208	72	5505
2026-01-04 09:40:24.98	2.52	33.86	-49.9	-53.8	14.1	5.30e-06	0	39	0	900726784	71	5645
2026-01-04 09:40:26.27	2.30	33.61	-49.8	-53.8	14.1	2.20e-06	0	39	0	902823936	71	5646
2026-01-04 09:40:26.99	2.18	33.47	-50.1	-54.4	13.4	3.80e-06	0	39	0	904921088	71	6027
2026-01-04 09:40:28.27	1.98	33.22	-50.1	-54.7	13.2	1.60e-05	0	39	0	907018240	71	6210
2026-01-04 09:40:29.16	1.83	33.05	-50.1	-54.8	13.0	3.28e-05	0	39	0	909115392	71	6302
2026-01-04 09:40:30.63	1.60	32.77	-49.3	-53.1	14.7	1.50e-06	0	39	0	911212544	70	5487
2026-01-04 09:40:31.35	1.49	32.63	-49.2	-52.8	15.1	0.00e+00	0	39	0	913309696	70	5290
2026-01-04 09:40:32.84	1.26	32.35	-48.8	-52.1	15.7	0.00e+00	0	39	0	915406848	69	5188
2026-01-04 09:40:33.56	1.15	32.22	-48.7	-52.0	15.8	0.00e+00	0	39	0	916455424	69	5149
2026-01-04 09:40:34.85	0.96	31.98	-49.1	-52.6	15.2	0.00e+00	0	39	0	919601152	69	5524
2026-01-04 09:40:35.57	0.85	31.84	-49.4	-53.1	14.7	0.00e+00	0	39	0	920649728	69	5849
2026-01-04 09:40:36.86	0.66	31.60	-48.8	-52.2	15.7	0.00e+00	0	39	0	922746880	69	5240
2026-01-04 09:40:37.58	0.56	31.47	-48.6	-51.8	16.0	0.00e+00	0	39	0	924844032	69	5013
2026-01-04 09:40:38.86	0.38	31.24	-48.4	-51.4	16.3	0.00e+00	0	39	0	926941184	68	5091
2026-01-04 09:40:39.58	0.27	31.11	-48.8	-52.0	15.9	0.00e+00	0	39	0	927989760	68	5455
2026-01-04 09:40:40.87	0.09	30.87	-49.3	-52.8	15.1	0.00e+00	0	39	0	931135488	69	5600
2026-01-04 09:40:41.58	359.99	30.74	-49.6	-53.3	14.5	0.00e+00	0	39	0	932184064	69	5985
2026-01-04 09:40:42.87	359.82	30.51	-50.0	-54.0	13.8	6.80e-06	0	39	0	934281216	71	5739
2026-01-04 09:40:43.64	359.71	30.38	-49.8	-53.6	14.2	1.50e-06	0	39	0	935329792	71	5519
2026-01-04 09:40:45.26	359.50	30.09	-48.6	-51.7	16.0	0.00e+00	0	39	0	938475520	69	4971
2026-01-04 09:40:45.84	359.42	29.99	-48.8	-51.9	16.0	0.00e+00	0	39	0	939524096	69	5049
2026-01-04 09:40:47.43	359.22	29.71	-47.6	-50.3	17.3	0.00e+00	0	39	0	942669824	66	5026
2026-01-04 09:40:48.00	359.14	29.61	-47.6	-50.4	17.2	0.00e+00	0	39	0	943718400	66	5042
2026-01-04 09:40:49.62	358.94	29.33	-48.1	-51.0	16.6	0.00e+00	0	39	0	946864128	66	5459
2026-01-04 09:40:50.28	358.85	29.21	-48.1	-51.1	16.5	0.00e+00	0	39	0	947912704	67	5178
2026-01-04 09:40:51.71	358.68	28.97	-48.5	-51.6	16.0	0.00e+00	0	39	0	951058432	67	5471
2026-01-04 09:40:52.42	358.59	28.85	-48.5	-51.5	16.1	0.00e+00	0	39	0	952107008	67	5454
2026-01-04 09:40:53.71	358.43	28.63	-48.2	-51.2	16.4	0.00e+00	0	39	0	954204160	67	5249
2026-01-04 09:40:54.57	358.33	28.48	-48.2	-51.1	16.4	0.00e+00	0	39	0	956301312	67	5208
2026-01-04 09:40:55.72	358.19	28.29	-48.5	-51.6	16.0	0.00e+00	0	39	0	958398464	67	5501
2026-01-04 09:40:56.58	358.09	28.15	-48.6	-51.8	15.9	0.00e+00	0	39	0	960495616	68	5315
2026-01-04 09:40:57.72	357.96	27.96	-49.2	-52.7	15.1	0.00e+00	0	39	0	962592768	69	5581
2026-01-04 09:40:58.58	357.86	27.82	-49.7	-53.5	14.3	0.00e+00	0	39	0	963641344	70	5758
2026-01-04 09:40:59.73	357.73	27.63	-50.2	-54.3	13.6	9.90e-06	0	39	0	965738496	71	5966
2026-01-04 09:41:00.59	357.64	27.49	-50.3	-54.4	13.4	2.21e-05	0	39	0	967835648	71	6035
2026-01-04 09:41:01.73	357.51	27.30	-50.2	-54.2	13.6	2.05e-05	0	39	0	969932800	71	5912
2026-01-04 09:41:02.59	357.41	27.16	-50.0	-53.8	14.0	1.22e-05	0	39	0	970981376	71	5618
2026-01-04 09:41:03.74	357.29	26.98	-49.6	-53.2	14.5	0.00e+00	0	39	0	973078528	71	5252
2026-01-04 09:41:04.60	357.20	26.84	-49.4	-52.8	14.9	0.00e+00	0	39	0	975175680	70	5338
2026-01-04 09:41:05.74	357.07	26.66	-49.2	-52.6	15.1	0.00e+00	0	39	0	977272832	70	5206
2026-01-04 09:41:06.60	356.98	26.52	-49.1	-52.6	15.2	0.00e+00	0	39	0	979369984	70	5165
2026-01-04 09:41:07.91	356.85	26.32	-48.8	-52.2	15.5	0.00e+00	0	39	0	981467136	69	5263
2026-01-04 09:41:08.63	356.77	26.20	-48.7	-52.0	15.8	0.00e+00	0	39	0	982515712	69	5127
2026-01-04 09:41:09.92	356.64	26.00	-48.3	-51.4	16.4	0.00e+00	0	39	0	984612864	68	5054
2026-01-04 09:41:10.63	356.57	25.89	-48.4	-51.5	16.3	0.00e+00	0	39	0	986710016	68	5124
2026-01-04 09:41:11.92	356.44	25.69	-48.2	-51.1	16.7	0.00e+00	0	39	0	988807168	68	4894
2026-01-04 09:41:12.64	356.37	25.58	-48.0	-50.8	16.9	0.00e+00	0	39	0	989855744	68	4733
2026-01-04 09:41:14.29	356.21	25.33	-47.8	-50.6	17.0	0.00e+00	0	39	0	993001472	67	4911
2026-01-04 09:41:15.14	356.13	25.20	-48.0	-50.8	16.7	0.00e+00	0	39	0	995098624	67	5020
2026-01-04 09:41:16.28	356.02	25.03	-48.2	-51.1	16.5	0.00e+00	0	39	0	997195776	67	5189
2026-01-04 09:41:17.14	355.93	24.90	-48.5	-51.6	16.1	0.00e+00	0	39	0	998244352	67	5505
2026-01-04 09:41:18.29	355.83	24.73	-49.1	-52.5	15.4	0.00e+00	0	39	0	1000341504	68	5742
2026-01-04 09:41:19.15	355.75	24.60	-49.0	-52.5	15.4	0.00e+00	0	39	0	1002438656	68	5761
2026-01-04 09:41:20.30	355.64	24.43	-48.9	-52.5	15.3	0.00e+00	0	39	0	1004535808	68	5785
2026-01-04 09:41:21.15	355.56	24.31	-48.6	-52.2	15.6	0.00e+00	0	39	0	1006632960	68	5577
2026-01-04 09:41:22.43	355.45	24.12	-48.2	-51.6	16.1	0.00e+00	0	39	0	1008730112	68	5212
2026-01-04 09:41:23.14	355.38	24.02	-47.7	-51.0	16.6	0.00e+00	0	39	0	1009778688	67	5124
2026-01-04 09:41:24.43	355.27	23.83	-47.8	-51.1	16.5	0.00e+00	0	39	0	1011875840	67	5161
2026-01-04 09:41:25.15	355.21	23.73	-47.7	-50.9	16.7	0.00e+00	0	39	0	1013972992	67	5045
2026-01-04 09:41:26.44	355.09	23.54	-47.8	-50.9	16.6	0.00e+00	0	39	0	1016070144	67	5098
2026-01-04 09:41:27.17	355.03	23.44	-48.1	-51.3	16.3	0.00e+00	0	39	0	1017118720	67	5316
2026-01-04 09:41:28.77	354.90	23.21	-48.8	-52.2	15.5	0.00e+00	0	39	0	1020264448	68	5546
2026-01-04 09:41:29.60	354.83	23.10	-49.2	-52.7	15.0	0.00e+00	0	39	0	1022361600	69	5570
2026-01-04 09:41:30.75	354.73	22.93	-49.9	-54.0	13.8	0.00e+00	0	39	0	1024458752	70	6066
2026-01-04 09:41:31.61	354.66	22.81	-50.0	-54.2	13.5	9.10e-06	0	39	0	1025507328	70	6252
2026-01-04 09:41:32.75	354.57	22.66	-50.3	-54.7	13.0	1.83e-05	0	39	0	1027604480	71	6273
2026-01-04 09:41:33.61	354.50	22.54	-50.3	-54.9	12.9	7.70e-05	0	39	0	1029701632	71	6386
2026-01-04 09:41:34.76	354.40	22.38	-49.9	-54.2	13.6	2.89e-05	0	39	0	1031798784	71	5913
2026-01-04 09:41:35.61	354.34	22.26	-49.5	-53.5	14.3	1.14e-05	0	39	0	1032847360	70	5736
2026-01-04 09:41:36.76	354.25	22.11	-48.9	-52.6	15.2	0.00e+00	0	39	0	1034944512	69	5502
2026-01-04 09:41:37.62	354.18	21.99	-48.5	-51.9	15.8	0.00e+00	0	39	0	1037041664	69	5082
2026-01-04 09:41:39.01	354.07	21.80	-48.3	-51.6	16.1	0.00e+00	0	39	0	1039138816	68	5203
2026-01-04 09:41:39.72	354.02	21.71	-48.1	-51.3	16.4	0.00e+00	0	39	0	1041235968	68	4997
2026-01-04 09:41:41.01	353.92	21.54	-47.5	-50.4	17.1	0.00e+00	0	39	0	1043333120	66	5078
2026-01-04 09:41:41.73	353.86	21.44	-47.6	-50.4	17.1	0.00e+00	0	39	0	1044381696	66	5092
2026-01-04 09:41:43.02	353.77	21.27	-47.8	-50.7	16.9	0.00e+00	0	39	0	1047527424	66	5236
2026-01-04 09:41:43.73	353.72	21.18	-47.6	-50.4	17.1	0.00e+00	0	39	0	1048576000	66	5092
2026-01-04 09:41:45.03	353.62	21.01	-47.6	-50.5	17.1	0.00e+00	0	39	0	1050673152	66	5107
2026-01-04 09:41:45.74	353.57	20.91	-47.7	-50.5	17.0	0.00e+00	0	39	0	1052770304	66	5122
2026-01-04 09:41:47.03	353.48	20.75	-47.6	-50.3	17.2	0.00e+00	0	39	0	1054867456	66	5035
2026-01-04 09:41:47.75	353.43	20.65	-47.7	-50.5	17.0	0.00e+00	0	39	0	1055916032	66	5140
2026-01-04 09:41:49.05	353.33	20.49	-47.7	-50.5	17.0	0.00e+00	0	39	0	1058013184	66	5106
2026-01-04 09:41:49.77	353.28	20.40	-47.6	-50.4	17.1	0.00e+00	0	39	0	1060110336	66	5075
2026-01-04 09:41:51.06	353.19	20.23	-47.6	-50.3	17.1	0.00e+00	0	39	0	1062207488	66	5038
2026-01-04 09:41:51.77	353.14	20.14	-47.7	-50.5	17.0	0.00e+00	0	39	0	1063256064	66	5112
2026-01-04 09:41:53.16	353.05	19.97	-47.6	-50.5	17.0	0.00e+00	0	39	0	1066401792	66	5121
2026-01-04 09:41:53.87	353.00	19.88	-47.6	-50.5	16.9	0.00e+00	0	39	0	1067450368	66	5129
2026-01-04 09:41:55.16	352.92	19.72	-47.8	-50.8	16.6	0.00e+00	0	39	0	1069547520	66	5336
2026-01-04 09:41:55.88	352.87	19.63	-47.8	-50.8	16.7	0.00e+00	0	39	0	1071644672	66	5281
2026-01-04 09:41:57.30	352.77	19.45	-48.1	-51.3	16.2	0.00e+00	0	39	0	1073741824	66	5629
2026-01-04 09:41:58.02	352.73	19.37	-48.1	-51.5	16.1	0.00e+00	0	39	0	1074790400	67	5424
2026-01-04 09:41:59.30	352.64	19.21	-48.0	-51.2	16.3	0.00e+00	0	39	0	1077936128	67	5274
2026-01-04 09:42:00.02	352.60	19.12	-48.1	-51.4	16.1	0.00e+00	0	39	0	1078984704	67	5380
2026-01-04 09:42:01.31	352.52	18.97	-48.2	-51.6	15.9	0.00e+00	0	39	0	1081081856	67	5490
2026-01-04 09:42:02.02	352.47	18.88	-48.3	-51.7	15.9	0.00e+00	0	39	0	1083179008	67	5564
2026-01-04 09:42:03.31	352.39	18.72	-48.2	-51.6	15.9	0.00e+00	0	39	0	1085276160	67	5523
2026-01-04 09:42:04.05	352.35	18.64	-48.3	-51.8	15.8	0.00e+00	0	39	0	1086324736	67	5621
2026-01-04 09:42:05.34	352.27	18.48	-48.2	-51.6	16.1	0.00e+00	0	39	0	1089470464	67	5475
2026-01-04 09:42:06.06	352.22	18.40	-48.1	-51.5	16.0	0.00e+00	0	39	0	1090519040	67	5445
2026-01-04 09:42:07.35	352.14	18.25	-48.3	-51.9	15.7	0.00e+00	0	39	0	1092616192	67	5666
2026-01-04 09:42:08.07	352.10	18.16	-48.2	-51.9	15.7	0.00e+00	0	39	0	1093664768	67	5692
2026-01-04 09:42:09.35	352.02	18.01	-48.3	-52.0	15.6	0.00e+00	0	39	0	1096810496	67	5731
2026-01-04 09:42:10.07	351.98	17.93	-48.2	-52.0	15.5	0.00e+00	0	39	0	1097859072	67	5753
2026-01-04 09:42:11.36	351.91	17.78	-48.5	-52.5	15.0	0.00e+00	0	39	0	1099956224	67	6101
2026-01-04 09:42:12.08	351.86	17.70	-48.6	-52.7	14.9	0.00e+00	0	39	0	1102053376	67	6224
2026-01-04 09:42:13.48	351.78	17.54	-48.9	-53.0	14.8	7.00e-07	0	39	0	1104150528	68	6062
2026-01-04 09:42:14.19	351.74	17.45	-49.1	-53.3	14.4	7.00e-07	0	39	0	1105199104	68	6314
2026-01-04 09:42:15.48	351.67	17.31	-49.1	-53.3	14.4	7.00e-07	0	39	0	1108344832	69	5928
2026-01-04 09:42:16.20	351.63	17.23	-49.2	-53.2	14.5	1.50e-06	0	39	0	1109393408	69	5893
2026-01-04 09:42:17.49	351.56	17.08	-49.2	-53.2	14.4	0.00e+00	0	39	0	1111490560	69	5923
2026-01-04 09:42:18.20	351.52	17.00	-49.3	-53.3	14.4	7.00e-07	0	39	0	1113587712	69	5970
2026-01-04 09:42:19.49	351.45	16.86	-49.1	-52.9	14.7	0.00e+00	0	39	0	1115684864	69	5690
2026-01-04 09:42:20.21	351.41	16.78	-49.2	-53.0	14.9	0.00e+00	0	39	0	1116733440	69	5735
2026-01-04 09:42:21.50	351.34	16.63	-48.9	-52.5	15.4	0.00e+00	0	39	0	1118830592	69	5439
2026-01-04 09:42:22.21	351.30	16.56	-48.5	-51.8	16.0	0.00e+00	0	39	0	1120927744	69	5036
2026-01-04 09:42:23.50	351.23	16.41	-48.2	-51.5	16.4	0.00e+00	0	39	0	1123024896	68	5123
2026-01-04 09:42:24.22	351.20	16.34	-48.2	-51.4	16.4	0.00e+00	0	39	0	1124073472	68	5097
2026-01-04 09:42:25.51	351.13	16.20	-47.7	-50.8	16.9	0.00e+00	0	39	0	1127219200	67	4999
2026-01-04 09:42:26.23	351.09	16.12	-47.4	-50.5	17.0	0.00e+00	0	39	0	1128267776	67	4843
2026-01-04 09:42:27.52	351.02	15.98	-47.4	-50.4	17.2	0.00e+00	0	39	0	1130364928	66	5052
2026-01-04 09:42:28.23	350.99	15.90	-47.4	-50.4	17.2	0.00e+00	0	39	0	1131413504	66	5063
2026-01-04 09:42:29.52	350.92	15.76	-47.6	-50.5	17.1	0.00e+00	0	39	0	1134559232	66	5146
2026-01-04 09:42:30.24	350.89	15.69	-47.4	-50.3	17.3	0.00e+00	0	39	0	1135607808	66	4994
2026-01-04 09:42:31.63	350.82	15.54	-47.7	-50.7	17.0	0.00e+00	0	39	0	1138753536	66	5219
2026-01-04 09:42:32.34	350.78	15.46	-47.8	-50.7	16.9	0.00e+00	0	39	0	1139802112	66	5274
2026-01-04 09:42:33.69	350.72	15.32	-48.0	-51.1	16.6	0.00e+00	0	39	0	1141899264	66	5499
2026-01-04 09:42:34.69	350.67	15.22	-48.1	-51.2	16.5	0.00e+00	0	39	0	1143996416	67	5228
2026-01-04 09:42:36.01	350.60	15.08	-48.3	-51.5	16.1	0.00e+00	0	39	0	1146093568	67	5451
2026-01-04 09:42:36.73	350.57	15.01	-48.3	-51.6	16.0	0.00e+00	0	39	0	1148190720	67	5482
2026-01-04 09:42:38.02	350.51	14.87	-48.4	-51.8	15.9	0.00e+00	0	39	0	1150287872	67	5593
2026-01-04 09:42:38.74	350.47	14.80	-48.5	-52.0	15.6	0.00e+00	0	39	0	1151336448	67	5767
2026-01-04 09:42:40.02	350.41	14.67	-48.6	-52.2	15.4	1.50e-06	0	39	0	1154482176	68	5584
2026-01-04 09:42:40.74	350.38	14.59	-48.7	-52.3	15.3	0.00e+00	0	39	0	1155530752	68	5634
2026-01-04 09:42:42.03	350.32	14.46	-48.9	-52.7	15.1	0.00e+00	0	39	0	1157627904	68	5862
2026-01-04 09:42:42.75	350.29	14.39	-48.9	-52.6	15.3	0.00e+00	0	39	0	1158676480	68	5814
2026-01-04 09:42:44.09	350.23	14.25	-49.0	-52.7	15.2	0.00e+00	0	39	0	1161822208	68	5865
2026-01-04 09:42:45.06	350.18	14.16	-49.0	-52.7	15.2	0.00e+00	0	39	0	1163919360	68	5876
2026-01-04 09:42:46.06	350.14	14.06	-49.0	-52.6	15.2	0.00e+00	0	39	0	1164967936	68	5817
2026-01-04 09:42:47.06	350.09	13.96	-48.9	-52.5	15.5	0.00e+00	0	39	0	1167065088	68	5754
2026-01-04 09:42:48.06	350.05	13.86	-48.9	-52.4	15.5	0.00e+00	0	39	0	1169162240	68	5677
2026-01-04 09:42:49.06	350.01	13.76	-48.9	-52.4	15.5	0.00e+00	0	39	0	1171259392	68	5700
2026-01-04 09:42:50.07	349.96	13.66	-49.0	-52.5	15.5	0.00e+00	0	39	0	1173356544	68	5737
2026-01-04 09:42:51.10	349.92	13.56	-48.9	-52.4	15.5	0.00e+00	0	39	0	1174405120	68	5706
2026-01-04 09:42:52.10	349.88	13.46	-48.8	-52.2	15.7	0.00e+00	0	39	0	1176502272	68	5562
2026-01-04 09:42:53.17	349.83	13.36	-48.7	-52.1	15.8	0.00e+00	0	39	0	1178599424	68	5495
2026-01-04 09:42:54.06	349.79	13.27	-48.6	-52.1	15.7	0.00e+00	0	39	0	1180696576	68	5525
2026-01-04 09:42:55.21	349.74	13.16	-48.5	-52.0	15.8	0.00e+00	0	39	0	1182793728	68	5455
2026-01-04 09:42:56.07	349.71	13.08	-48.5	-52.2	15.7	0.00e+00	0	39	0	1183842304	68	5560
2026-01-04 09:42:57.22	349.66	12.97	-48.2	-52.0	15.7	0.00e+00	0	39	0	1185939456	68	5428
2026-01-04 09:42:58.07	349.63	12.89	-48.3	-52.0	15.8	0.00e+00	0	39	0	1188036608	68	5463
2026-01-04 09:42:59.22	349.58	12.78	-48.3	-52.1	15.7	0.00e+00	0	39	0	1190133760	68	5513
2026-01-04 09:43:00.08	349.54	12.69	-48.2	-52.0	15.8	0.00e+00	0	39	0	1191182336	68	5440
2026-01-04 09:43:01.22	349.50	12.59	-48.4	-52.1	15.7	0.00e+00	0	39	0	1193279488	68	5527
2026-01-04 09:43:02.08	349.46	12.51	-48.4	-52.2	15.7	0.00e+00	0	39	0	1195376640	68	5530
2026-01-04 09:43:03.23	349.42	12.40	-48.6	-52.4	15.4	0.00e+00	0	39	0	1197473792	68	5696
2026-01-04 09:43:04.09	349.39	12.32	-48.7	-52.5	15.3	0.00e+00	0	39	0	1199570944	68	5774
2026-01-04 09:43:05.23	349.34	12.21	-48.7	-52.4	15.4	0.00e+00	0	39	0	1201668096	68	5696
2026-01-04 09:43:06.09	349.31	12.13	-48.7	-52.5	15.4	0.00e+00	0	39	0	1202716672	68	5730
2026-01-04 09:43:07.24	349.26	12.03	-48.8	-52.5	15.2	0.00e+00	0	39	0	1204813824	68	5774
2026-01-04 09:43:08.10	349.23	11.95	-48.9	-52.5	15.3	0.00e+00	0	39	0	1206910976	68	5773
2026-01-04 09:43:09.25	349.19	11.84	-48.8	-52.6	15.1	0.00e+00	0	39	0	1209008128	68	5801
2026-01-04 09:43:10.10	349.16	11.76	-48.9	-52.8	15.0	0.00e+00	0	39	0	1210056704	68	5981
2026-01-04 09:43:11.36	349.11	11.65	-48.8	-52.7	15.0	0.00e+00	0	39	0	1213202432	68	5887
2026-01-04 09:43:12.08	349.08	11.58	-48.4	-52.4	15.3	7.00e-07	0	39	0	1214251008	68	5666
2026-01-04 09:43:13.37	349.03	11.47	-48.5	-52.7	15.2	7.00e-07	0	39	0	1216348160	68	5905
2026-01-04 09:43:14.08	349.01	11.40	-48.5	-52.9	15.0	7.00e-07	0	39	0	1217396736	68	6016
2026-01-04 09:43:15.64	348.95	11.26	-48.3	-52.9	15.0	0.00e+00	0	39	0	1220542464	68	6031
2026-01-04 09:43:16.35	348.93	11.20	-48.4	-53.1	14.8	7.00e-07	0	39	0	1222639616	68	6190
2026-01-04 09:43:17.64	348.88	11.09	-48.3	-53.0	15.0	0.00e+00	0	39	0	1224736768	68	6072
2026-01-04 09:43:18.36	348.85	11.02	-48.3	-53.0	15.0	0.00e+00	0	39	0	1225785344	68	6110
2026-01-04 09:43:19.79	348.80	10.90	-48.1	-52.8	15.0	0.00e+00	0	39	0	1228931072	67	6333
2026-01-04 09:43:20.51	348.78	10.83	-48.1	-52.9	14.9	0.00e+00	0	39	0	1229979648	67	6381
2026-01-04 09:43:21.80	348.73	10.72	-47.8	-52.5	15.1	0.00e+00	0	39	0	1232076800	67	6091
2026-01-04 09:43:22.51	348.71	10.66	-47.9	-52.6	15.1	0.00e+00	0	39	0	1234173952	67	6195
2026-01-04 09:43:23.80	348.66	10.54	-48.1	-52.8	15.0	0.00e+00	0	39	0	1236271104	67	6333
2026-01-04 09:43:24.52	348.64	10.48	-48.1	-52.7	15.2	1.50e-06	0	39	0	1237319680	67	6233
2026-01-04 09:43:25.81	348.60	10.37	-48.1	-52.6	15.3	0.00e+00	0	39	0	1239416832	67	6190
2026-01-04 09:43:26.52	348.57	10.31	-48.0	-52.6	15.3	0.00e+00	0	39	0	1241513984	67	6152
2026-01-04 09:43:27.81	348.53	10.20	-47.8	-52.5	15.2	3.00e-06	0	39	0	1243611136	67	6091
2026-01-04 09:43:28.62	348.50	10.13	-48.1	-52.8	15.2	3.00e-06	0	39	0	1244659712	67	6303
2026-01-04 09:43:29.77	348.46	10.03	-48.2	-53.0	15.0	3.80e-06	0	39	0	1247805440	67	6425
2026-01-04 09:43:30.63	348.43	9.96	-48.4	-53.1	14.9	1.50e-06	0	39	0	1248854016	67	6513
2026-01-04 09:43:31.78	348.40	9.86	-48.3	-52.5	15.4	1.50e-06	0	39	0	1250951168	67	6108
2026-01-04 09:43:32.64	348.37	9.79	-48.4	-52.7	15.3	0.00e+00	0	39	0	1253048320	67	6210
2026-01-04 09:43:33.78	348.33	9.69	-48.6	-52.9	15.1	0.00e+00	0	39	0	1255145472	68	6045
2026-01-04 09:43:34.64	348.31	9.62	-48.7	-52.9	15.1	0.00e+00	0	39	0	1256194048	68	6059
