passes_logs/2026/01/04/T1/T1__20260104_015514_AQUA_rec.log

#Pass ID: 20260104_015514_AQUA
#Satellite: AQUA
#Configuration: AQUA
#almurnet v.1.7.20251203
#Start time: 2026-01-04 01:55:14

#Version: 2.0.20230620
#Station: T1
#Location: 37.570604 lon 55.790049 lat
#TLE: 1 27424U 02022A   25365.92641127  .00002078  00000+0  42628-3 0  9999
#TLE: 2 27424  98.4058 327.1196 0001962  94.7781 340.6230 14.61783896258835

#Time	Az	El	Level	Level2	SNR	BER	BlckErr	Temp	State	Recorded	gain1	gain2
2026-01-04 01:55:14.62	10.91	5.05	-55.3	-76.8	3.8	7.47e-01	0	37	0	0	81	44677
2026-01-04 01:55:15.62	10.87	5.12	-50.9	-76.1	3.6	7.53e-01	0	37	104	0	73	65535
2026-01-04 01:55:16.62	10.84	5.19	-51.0	-76.1	3.6	7.52e-01	0	37	104	0	73	65534
2026-01-04 01:55:17.63	10.80	5.27	-51.0	-76.1	3.6	7.51e-01	0	37	104	0	73	65534
2026-01-04 01:55:18.63	10.77	5.34	-51.0	-76.1	3.6	7.51e-01	0	37	104	0	73	65535
2026-01-04 01:55:19.64	10.73	5.42	-51.0	-76.1	3.6	7.51e-01	0	37	104	0	73	65535
2026-01-04 01:55:20.64	10.70	5.49	-51.0	-76.1	3.7	7.52e-01	0	37	104	0	73	65534
2026-01-04 01:55:21.64	10.66	5.57	-51.0	-76.1	3.6	7.52e-01	0	37	104	0	73	65533
2026-01-04 01:55:22.65	10.62	5.64	-51.1	-76.1	3.6	7.53e-01	0	38	104	0	73	65535
2026-01-04 01:55:23.65	10.59	5.72	-51.0	-76.1	3.7	7.53e-01	0	38	104	0	73	65535
2026-01-04 01:55:24.65	10.55	5.79	-51.0	-76.1	3.6	7.54e-01	0	38	104	0	73	65535
2026-01-04 01:55:25.65	10.52	5.87	-51.0	-76.1	3.7	7.54e-01	0	38	104	0	73	65535
2026-01-04 01:55:26.66	10.48	5.95	-51.1	-76.1	3.6	7.56e-01	0	38	104	0	73	65535
2026-01-04 01:55:27.66	10.44	6.02	-51.1	-76.1	3.6	7.52e-01	0	38	104	0	73	65535
2026-01-04 01:55:28.66	10.40	6.10	-51.0	-76.1	3.6	7.51e-01	0	38	104	0	73	65535
2026-01-04 01:55:29.67	10.37	6.17	-51.1	-76.1	3.6	7.53e-01	0	38	104	0	73	65535
2026-01-04 01:55:30.67	10.33	6.25	-51.1	-76.1	3.6	7.52e-01	0	38	104	0	73	65535
2026-01-04 01:55:31.67	10.29	6.33	-51.1	-76.1	3.6	7.52e-01	0	38	104	0	73	65534
2026-01-04 01:55:32.68	10.25	6.41	-51.1	-76.1	3.7	7.50e-01	0	38	104	0	73	65535
2026-01-04 01:55:33.68	10.21	6.48	-51.1	-76.1	3.6	7.48e-01	0	38	104	0	73	65535
2026-01-04 01:55:34.69	10.17	6.56	-51.1	-76.1	3.7	7.52e-01	0	38	104	0	73	65534
2026-01-04 01:55:35.69	10.13	6.64	-51.1	-76.1	3.7	7.48e-01	0	38	104	0	73	65534
2026-01-04 01:55:36.69	10.09	6.72	-51.0	-76.1	3.8	7.45e-01	0	38	104	0	73	65533
2026-01-04 01:55:37.70	10.05	6.80	-51.0	-76.1	3.8	7.46e-01	0	38	104	0	73	65375
2026-01-04 01:55:38.71	10.01	6.88	-51.0	-75.9	3.8	7.46e-01	0	38	104	0	73	64154
2026-01-04 01:55:39.71	9.97	6.96	-51.0	-75.8	3.8	7.44e-01	0	38	104	0	73	63140
2026-01-04 01:55:40.71	9.93	7.04	-51.0	-75.6	3.8	7.45e-01	0	38	104	0	73	61959
2026-01-04 01:55:41.72	9.89	7.12	-51.0	-75.7	3.8	7.48e-01	0	38	104	0	73	62108
2026-01-04 01:55:42.72	9.85	7.20	-51.0	-75.7	3.8	7.42e-01	0	38	104	0	73	62281
2026-01-04 01:55:43.73	9.81	7.28	-51.0	-75.7	3.8	7.45e-01	0	38	104	0	73	62362
2026-01-04 01:55:44.73	9.77	7.36	-51.0	-75.8	3.8	7.47e-01	0	38	104	0	73	63359
2026-01-04 01:55:45.74	9.73	7.44	-51.0	-76.0	3.8	7.47e-01	0	38	104	0	73	64432
2026-01-04 01:55:46.74	9.68	7.52	-51.1	-76.1	3.8	7.48e-01	0	38	104	0	73	65534
2026-01-04 01:55:47.74	9.64	7.60	-51.1	-76.1	3.8	7.47e-01	0	38	104	0	73	65533
2026-01-04 01:55:48.75	9.60	7.68	-51.1	-76.1	3.8	7.49e-01	0	38	104	0	73	65532
2026-01-04 01:55:49.75	9.56	7.76	-51.1	-76.1	3.8	7.47e-01	0	38	104	0	73	65534
2026-01-04 01:55:50.76	9.51	7.85	-51.1	-76.0	3.8	7.48e-01	0	38	104	0	73	64818
2026-01-04 01:55:51.76	9.47	7.93	-51.1	-75.6	3.8	7.45e-01	0	38	104	0	73	61856
2026-01-04 01:55:52.76	9.43	8.01	-51.0	-75.0	3.8	7.48e-01	0	38	104	0	73	57681
2026-01-04 01:55:53.77	9.38	8.10	-51.0	-74.2	3.8	7.47e-01	0	39	104	0	73	52587
2026-01-04 01:55:54.77	9.34	8.18	-50.9	-73.2	3.8	7.45e-01	0	38	104	0	73	47003
2026-01-04 01:55:55.78	9.29	8.26	-50.8	-72.4	3.8	7.47e-01	0	38	104	0	73	42464
2026-01-04 01:55:56.78	9.25	8.35	-50.7	-71.4	3.8	7.42e-01	0	38	104	0	73	37881
2026-01-04 01:55:57.79	9.20	8.43	-50.6	-70.5	3.8	7.44e-01	0	39	104	0	73	34466
2026-01-04 01:55:58.79	9.16	8.52	-50.6	-70.0	3.8	7.44e-01	0	38	104	0	73	32183
2026-01-04 01:55:59.80	9.11	8.60	-50.5	-69.4	3.8	7.50e-01	0	38	104	0	73	30330
2026-01-04 01:56:00.80	9.06	8.69	-50.4	-69.3	3.8	7.44e-01	0	39	104	0	72	31530
2026-01-04 01:56:01.80	9.02	8.77	-50.4	-69.2	3.8	7.45e-01	0	38	104	0	72	31439
2026-01-04 01:56:02.80	8.97	8.86	-50.4	-69.5	3.8	7.47e-01	0	38	104	0	72	32251
2026-01-04 01:56:03.81	8.92	8.94	-50.5	-69.9	3.8	7.44e-01	0	39	104	0	72	33962
2026-01-04 01:56:04.81	8.87	9.03	-50.6	-70.6	3.8	7.48e-01	0	39	104	0	72	36663
2026-01-04 01:56:05.81	8.83	9.12	-50.7	-71.4	3.8	7.49e-01	0	39	104	0	72	40209
2026-01-04 01:56:06.81	8.78	9.20	-50.9	-75.6	3.8	7.50e-01	0	39	104	0	72	65535
2026-01-04 01:56:07.82	8.73	9.29	-50.0	-66.7	3.9	7.44e-01	0	39	104	0	72	23380
2026-01-04 01:56:08.82	8.68	9.38	-49.8	-64.1	3.8	7.48e-01	0	38	104	0	71	18372
2026-01-04 01:56:09.82	8.63	9.46	-50.9	-70.7	3.7	7.48e-01	0	38	104	0	72	37359
2026-01-04 01:56:10.83	8.58	9.55	-50.0	-64.5	3.8	7.45e-01	0	39	104	0	71	19185
2026-01-04 01:56:11.83	8.53	9.64	-50.0	-64.0	3.8	7.48e-01	0	39	104	0	71	18299
2026-01-04 01:56:12.83	8.48	9.73	-49.9	-63.8	3.8	7.44e-01	0	39	104	0	71	17877
2026-01-04 01:56:13.84	8.43	9.82	-49.8	-63.7	3.8	7.45e-01	0	39	104	0	71	17625
2026-01-04 01:56:14.84	8.38	9.91	-49.6	-63.2	3.8	7.43e-01	0	39	104	0	71	16677
2026-01-04 01:56:15.84	8.33	10.00	-50.4	-64.8	3.8	7.43e-01	0	39	104	0	71	20044
2026-01-04 01:56:16.84	8.28	10.09	-51.9	-75.9	3.7	7.46e-01	0	39	104	0	74	59988
2026-01-04 01:56:17.85	8.22	10.18	-50.5	-64.8	3.8	7.46e-01	0	39	104	0	73	17751
2026-01-04 01:56:18.85	8.17	10.27	-52.0	-70.1	3.7	7.46e-01	0	39	104	0	74	31021
2026-01-04 01:56:19.85	8.12	10.36	-50.2	-63.9	3.8	7.44e-01	0	39	104	0	72	17079
2026-01-04 01:56:20.85	8.06	10.45	-50.0	-63.5	3.8	7.45e-01	0	39	104	0	72	16269
2026-01-04 01:56:21.85	8.01	10.55	-50.2	-63.7	3.8	7.45e-01	0	39	104	0	71	17629
2026-01-04 01:56:22.86	7.96	10.64	-50.1	-63.5	3.8	7.45e-01	0	39	104	0	71	17153
2026-01-04 01:56:23.87	7.90	10.73	-50.1	-63.2	3.8	7.43e-01	0	39	104	0	71	16603
2026-01-04 01:56:24.88	7.85	10.83	-50.6	-64.3	3.8	7.46e-01	0	39	104	0	71	18854
2026-01-04 01:56:25.93	7.79	10.92	-53.0	-76.1	3.8	7.49e-01	0	39	104	0	76	54828
2026-01-04 01:56:26.85	7.74	11.01	-53.5	-75.7	3.8	7.48e-01	0	39	104	0	77	49638
2026-01-04 01:56:27.85	7.68	11.10	-52.7	-75.9	3.8	7.44e-01	0	39	104	0	77	50746
2026-01-04 01:56:28.86	7.62	11.20	-53.8	-76.0	3.8	7.45e-01	0	39	104	0	78	48151
2026-01-04 01:56:29.86	7.57	11.29	-53.8	-75.7	3.8	7.45e-01	0	39	104	0	78	46925
2026-01-04 01:56:30.86	7.51	11.39	-53.8	-75.3	3.8	7.46e-01	0	39	104	0	78	44925
2026-01-04 01:56:31.87	7.45	11.49	-53.8	-75.1	3.8	7.45e-01	0	39	104	0	78	43664
2026-01-04 01:56:32.87	7.39	11.58	-53.9	-75.0	3.8	7.43e-01	0	39	104	0	78	43354
2026-01-04 01:56:33.87	7.34	11.68	-53.7	-70.8	3.9	7.44e-01	0	39	104	0	78	26537
2026-01-04 01:56:34.88	7.28	11.78	-54.0	-72.7	3.8	7.45e-01	0	39	104	0	78	33257
2026-01-04 01:56:35.88	7.22	11.87	-54.0	-76.3	3.8	7.47e-01	0	39	104	0	79	47253
2026-01-04 01:56:36.88	7.16	11.97	-50.6	-63.5	3.8	7.46e-01	0	39	104	0	73	15386
2026-01-04 01:56:37.88	7.10	12.07	-50.2	-63.0	3.8	7.46e-01	0	39	104	0	72	15364
2026-01-04 01:56:38.95	7.03	12.17	-49.7	-62.3	3.8	7.46e-01	0	39	104	0	71	15010
2026-01-04 01:56:39.85	6.98	12.26	-49.4	-61.8	3.8	7.46e-01	0	39	104	0	70	15034
2026-01-04 01:56:40.87	6.91	12.36	-49.4	-61.7	3.8	7.48e-01	0	39	104	0	70	14864
2026-01-04 01:56:41.88	6.85	12.46	-49.2	-61.6	3.8	7.44e-01	0	39	104	0	70	14553
2026-01-04 01:56:42.88	6.79	12.56	-50.4	-63.2	3.8	7.45e-01	0	39	104	0	71	16511
2026-01-04 01:56:43.88	6.72	12.66	-53.9	-76.0	3.7	7.44e-01	0	39	104	0	78	48543
2026-01-04 01:56:44.88	6.66	12.76	-51.2	-64.2	3.8	7.43e-01	0	39	104	0	74	15625
2026-01-04 01:56:45.88	6.60	12.87	-52.9	-67.7	3.8	7.48e-01	0	39	104	0	76	20794
2026-01-04 01:56:46.89	6.53	12.97	-50.5	-63.3	3.8	7.49e-01	0	39	104	0	72	15920
2026-01-04 01:56:47.89	6.47	13.07	-50.7	-63.6	3.8	7.47e-01	0	39	104	0	72	16446
2026-01-04 01:56:48.89	6.40	13.17	-50.6	-63.4	3.8	7.46e-01	0	39	104	0	72	15953
2026-01-04 01:56:49.96	6.33	13.28	-50.5	-63.3	3.8	7.43e-01	0	39	104	0	72	15857
2026-01-04 01:56:50.82	6.27	13.37	-50.2	-62.8	3.8	7.43e-01	0	39	104	0	71	15806
2026-01-04 01:56:51.96	6.19	13.49	-50.1	-62.6	3.8	7.44e-01	0	39	104	0	71	15490
2026-01-04 01:56:52.82	6.14	13.58	-54.2	-75.3	3.7	7.49e-01	0	39	104	0	79	42102
2026-01-04 01:56:53.97	6.06	13.70	-51.2	-64.4	3.8	7.47e-01	0	39	104	0	74	15953
2026-01-04 01:56:54.83	6.00	13.79	-52.1	-65.7	3.8	7.45e-01	0	39	104	0	74	18636
2026-01-04 01:56:55.97	5.92	13.91	-50.1	-62.6	3.8	7.44e-01	0	39	104	0	72	14601
2026-01-04 01:56:56.83	5.86	14.00	-50.0	-62.4	3.8	7.45e-01	0	39	104	0	71	15219
2026-01-04 01:56:57.98	5.78	14.13	-49.5	-62.0	3.8	7.47e-01	0	39	104	0	71	14381
2026-01-04 01:56:58.84	5.72	14.22	-49.4	-61.7	3.8	7.47e-01	0	39	104	0	70	14862
2026-01-04 01:56:59.99	5.63	14.34	-49.6	-62.0	3.8	7.48e-01	0	39	104	0	70	15241
2026-01-04 01:57:00.85	5.57	14.43	-50.2	-62.6	3.8	7.46e-01	0	39	104	0	70	16404
2026-01-04 01:57:02.14	5.48	14.57	-54.9	-76.2	3.8	7.45e-01	0	39	104	0	80	44137
2026-01-04 01:57:02.85	5.42	14.65	-52.0	-65.3	3.8	7.46e-01	0	39	104	0	76	15856
2026-01-04 01:57:04.14	5.33	14.79	-52.8	-66.7	3.7	7.49e-01	0	39	104	0	76	18580
2026-01-04 01:57:04.86	5.27	14.87	-50.4	-62.8	3.8	7.41e-01	0	39	104	0	72	14954
2026-01-04 01:57:06.15	5.18	15.02	-49.8	-52.9	22.8	6.04e-01	0	39	0	1048576	71	5072
2026-01-04 01:57:06.87	5.12	15.10	-49.7	-52.8	22.9	6.05e-01	0	39	0	2621440	71	5002
2026-01-04 01:57:08.16	5.02	15.24	-49.8	-52.7	23.0	6.00e-01	0	39	0	4718592	71	4974
2026-01-04 01:57:08.88	4.97	15.32	-49.5	-52.4	23.3	6.02e-01	0	39	0	6291456	70	5057
2026-01-04 01:57:10.16	4.87	15.46	-49.3	-52.1	23.5	6.02e-01	0	39	0	8388608	70	4912
2026-01-04 01:57:10.88	4.81	15.55	-49.5	-52.3	23.4	6.03e-01	0	39	0	9961472	70	5006
2026-01-04 01:57:12.17	4.71	15.69	-49.2	-51.9	23.6	6.01e-01	0	39	0	12582912	70	4780
2026-01-04 01:57:12.88	4.65	15.77	-49.1	-51.8	23.7	6.00e-01	0	39	0	13631488	70	4728
2026-01-04 01:57:14.17	4.55	15.92	-49.2	-51.9	23.6	6.04e-01	0	39	0	16252928	70	4810
2026-01-04 01:57:14.89	4.49	16.01	-49.3	-52.0	23.6	6.02e-01	0	39	0	17301504	70	4855
2026-01-04 01:57:16.18	4.38	16.15	-49.3	-52.0	23.8	6.02e-01	0	39	0	19922944	70	4833
2026-01-04 01:57:16.90	4.32	16.24	-49.1	-51.9	23.8	6.03e-01	0	39	0	21495808	70	4761
2026-01-04 01:57:18.19	4.21	16.39	-48.8	-51.4	24.1	6.03e-01	0	39	0	23592960	69	4800
2026-01-04 01:57:18.97	4.15	16.48	-48.7	-51.3	24.3	6.02e-01	0	39	0	25165824	69	4720
2026-01-04 01:57:20.25	4.04	16.63	-48.5	-51.1	24.4	6.03e-01	0	39	0	27787264	69	4646
2026-01-04 01:57:21.07	3.97	16.73	-48.6	-51.2	24.4	6.03e-01	0	39	0	28835840	69	4679
2026-01-04 01:57:22.53	3.84	16.90	-48.7	-51.2	24.3	6.05e-01	0	39	0	31981568	69	4700
2026-01-04 01:57:23.25	3.78	16.99	-48.7	-51.2	24.3	6.00e-01	0	39	0	33030144	69	4685
2026-01-04 01:57:24.54	3.67	17.15	-48.7	-51.2	24.3	6.02e-01	0	39	0	35651584	69	4700
2026-01-04 01:57:25.25	3.60	17.23	-48.7	-51.3	24.3	6.00e-01	0	39	0	36700160	69	4732
2026-01-04 01:57:26.54	3.49	17.39	-48.9	-51.4	24.0	5.99e-01	0	39	0	39321600	69	4809
2026-01-04 01:57:27.27	3.42	17.48	-48.8	-51.4	24.2	6.00e-01	0	39	0	40894464	69	4776
2026-01-04 01:57:28.57	3.30	17.64	-48.7	-51.3	24.3	6.02e-01	0	39	0	42991616	69	4712
2026-01-04 01:57:29.28	3.24	17.73	-48.7	-51.4	24.2	6.00e-01	0	39	0	44564480	69	4763
2026-01-04 01:57:30.57	3.11	17.89	-48.6	-51.3	24.2	6.03e-01	0	39	0	46661632	69	4752
2026-01-04 01:57:31.29	3.05	17.98	-48.6	-51.4	24.1	6.01e-01	0	39	0	48234496	69	4772
2026-01-04 01:57:32.58	2.92	18.14	-48.8	-51.5	24.0	6.02e-01	0	39	0	50855936	69	4852
2026-01-04 01:57:33.29	2.86	18.23	-48.8	-51.5	24.1	6.02e-01	0	39	0	51904512	69	4862
2026-01-04 01:57:34.58	2.73	18.39	-48.8	-51.6	24.1	6.00e-01	0	39	0	54525952	69	4873
2026-01-04 01:57:35.30	2.66	18.48	-48.7	-51.5	24.1	6.01e-01	0	39	0	55574528	69	4824
2026-01-04 01:57:36.63	2.53	18.66	-48.7	-51.5	24.2	6.04e-01	0	39	0	58195968	69	4829
2026-01-04 01:57:37.34	2.46	18.75	-48.7	-51.4	24.2	6.02e-01	0	39	0	59768832	69	4805
2026-01-04 01:57:38.63	2.33	18.91	-48.8	-51.5	24.1	6.03e-01	0	39	0	61865984	69	4832
2026-01-04 01:57:39.35	2.26	19.01	-48.7	-51.4	24.2	6.03e-01	0	39	0	63438848	69	4784
2026-01-04 01:57:40.64	2.12	19.18	-48.8	-51.4	24.3	6.01e-01	0	39	0	66060288	69	4801
2026-01-04 01:57:41.36	2.05	19.27	-48.7	-51.4	24.2	6.02e-01	0	39	0	67108864	69	4770
2026-01-04 01:57:42.64	1.92	19.44	-48.8	-51.4	24.2	6.01e-01	0	39	0	69730304	69	4787
2026-01-04 01:57:43.36	1.84	19.54	-48.7	-51.3	24.3	6.00e-01	0	39	0	70778880	69	4724
2026-01-04 01:57:44.65	1.70	19.71	-48.7	-51.2	24.3	6.04e-01	0	39	0	73400320	69	4701
2026-01-04 01:57:45.37	1.63	19.80	-48.7	-51.2	24.4	6.01e-01	0	39	0	74448896	69	4669
2026-01-04 01:57:46.66	1.49	19.98	-48.8	-51.3	24.3	6.04e-01	0	39	0	77070336	69	4727
2026-01-04 01:57:47.37	1.41	20.07	-48.7	-51.2	24.4	6.00e-01	0	39	0	78118912	69	4689
2026-01-04 01:57:48.66	1.27	20.25	-48.7	-51.3	24.4	6.01e-01	0	39	0	80740352	69	4721
2026-01-04 01:57:49.67	1.15	20.39	-48.7	-51.3	24.3	6.01e-01	0	39	0	82837504	69	4708
2026-01-04 01:57:50.99	1.00	20.57	-48.7	-51.3	24.3	6.03e-01	0	39	0	85458944	69	4749
2026-01-04 01:57:51.70	0.92	20.67	-48.7	-51.3	24.3	6.04e-01	0	39	0	86507520	69	4730
2026-01-04 01:57:52.99	0.77	20.85	-48.8	-51.4	24.2	6.03e-01	0	39	0	89128960	69	4805
2026-01-04 01:57:53.71	0.69	20.95	-48.8	-51.5	24.2	6.02e-01	0	39	0	90177536	69	4821
2026-01-04 01:57:54.99	0.54	21.13	-48.9	-51.6	24.1	6.03e-01	0	39	0	92798976	69	4907
2026-01-04 01:57:55.71	0.45	21.23	-49.0	-51.7	24.0	6.02e-01	0	39	0	93847552	69	4945
2026-01-04 01:57:57.00	0.30	21.42	-49.1	-51.8	23.9	6.02e-01	0	39	0	96468992	69	4995
2026-01-04 01:57:57.71	0.21	21.52	-49.0	-51.7	24.0	6.03e-01	0	39	0	97517568	69	4947
2026-01-04 01:57:59.00	0.06	21.70	-49.0	-51.6	24.0	6.01e-01	0	39	0	100139008	69	4888
2026-01-04 01:57:59.72	359.97	21.81	-49.1	-51.7	23.9	6.01e-01	0	39	0	101711872	69	4959
2026-01-04 01:58:01.25	359.77	22.03	-49.0	-51.5	24.1	6.01e-01	0	39	0	104333312	69	4843
2026-01-04 01:58:01.97	359.68	22.14	-49.0	-51.5	24.1	6.00e-01	0	39	0	105906176	69	4849
2026-01-04 01:58:03.26	359.52	22.33	-49.1	-51.6	24.1	6.03e-01	0	39	0	108003328	69	4881
2026-01-04 01:58:03.97	359.43	22.43	-49.0	-51.5	24.1	6.02e-01	0	39	0	109576192	69	4835
2026-01-04 01:58:05.26	359.26	22.62	-49.0	-51.5	24.2	6.04e-01	0	39	0	112197632	69	4826
2026-01-04 01:58:05.98	359.16	22.73	-49.0	-51.5	24.1	6.02e-01	0	39	0	113246208	69	4840
2026-01-04 01:58:07.27	358.99	22.92	-49.1	-51.7	24.0	6.02e-01	0	39	0	115867648	69	4931
2026-01-04 01:58:07.98	358.90	23.03	-49.0	-51.6	24.1	6.01e-01	0	39	0	116916224	69	4900
2026-01-04 01:58:09.27	358.72	23.23	-49.0	-51.7	24.0	6.03e-01	0	39	0	119537664	69	4953
2026-01-04 01:58:09.99	358.62	23.34	-49.0	-51.7	24.0	5.99e-01	0	39	0	120586240	69	4972
2026-01-04 01:58:11.28	358.44	23.53	-49.1	-51.9	23.8	6.04e-01	0	39	0	123207680	69	5091
2026-01-04 01:58:12.14	358.32	23.67	-49.1	-52.0	23.8	5.99e-01	0	39	0	124780544	69	5110
2026-01-04 01:58:13.64	358.11	23.90	-48.9	-51.8	23.8	6.02e-01	0	39	0	127926272	69	5012
2026-01-04 01:58:14.35	358.01	24.01	-49.0	-51.9	23.8	6.03e-01	0	39	0	128974848	69	5076
2026-01-04 01:58:15.65	357.82	24.22	-49.0	-51.7	23.9	6.03e-01	0	39	0	131596288	69	4981
2026-01-04 01:58:16.36	357.71	24.33	-48.9	-51.6	24.1	6.03e-01	0	39	0	132644864	69	4907
2026-01-04 01:58:17.65	357.52	24.53	-48.9	-51.5	24.1	6.02e-01	0	39	0	135266304	69	4837
2026-01-04 01:58:18.37	357.41	24.65	-48.9	-51.4	24.2	6.01e-01	0	39	0	136314880	69	4793
2026-01-04 01:58:19.65	357.22	24.85	-48.9	-51.5	24.2	6.01e-01	0	39	0	138936320	69	4816
2026-01-04 01:58:20.37	357.11	24.97	-48.9	-51.4	24.2	6.01e-01	0	39	0	140509184	69	4806
2026-01-04 01:58:21.65	356.91	25.18	-49.0	-51.5	24.2	6.00e-01	0	39	0	142606336	69	4846
2026-01-04 01:58:22.56	356.77	25.32	-49.1	-51.7	24.0	6.01e-01	0	39	0	144179200	69	4932
2026-01-04 01:58:23.56	356.61	25.49	-49.0	-51.5	24.2	6.04e-01	0	39	0	146276352	69	4848
2026-01-04 01:58:24.57	356.45	25.66	-48.9	-51.5	24.2	6.04e-01	0	39	0	148373504	69	4816
2026-01-04 01:58:25.57	356.28	25.82	-48.9	-51.4	24.3	6.01e-01	0	39	0	149946368	69	4793
2026-01-04 01:58:26.57	356.12	25.99	-48.8	-51.3	24.3	6.02e-01	0	39	0	152043520	69	4756
2026-01-04 01:58:27.57	355.95	26.15	-48.7	-51.3	24.4	6.02e-01	0	39	0	153616384	69	4729
2026-01-04 01:58:28.57	355.79	26.32	-48.6	-51.2	24.5	6.03e-01	0	39	0	155713536	69	4667
2026-01-04 01:58:29.58	355.62	26.49	-48.8	-51.4	24.3	6.02e-01	0	39	0	157810688	69	4774
2026-01-04 01:58:30.58	355.44	26.66	-48.9	-51.4	24.3	6.01e-01	0	39	0	159383552	69	4799
2026-01-04 01:58:31.58	355.27	26.83	-48.9	-51.5	24.2	6.03e-01	0	39	0	161480704	69	4821
2026-01-04 01:58:32.59	355.09	27.01	-49.0	-51.6	24.1	6.00e-01	0	39	0	163053568	69	4901
2026-01-04 01:58:33.59	354.92	27.18	-48.9	-51.4	24.3	6.02e-01	0	39	0	165150720	69	4779
2026-01-04 01:58:34.75	354.71	27.38	-48.9	-51.3	24.4	6.03e-01	0	39	0	167247872	69	4743
2026-01-04 01:58:35.61	354.55	27.53	-48.9	-51.3	24.3	6.02e-01	0	39	0	168820736	69	4742
2026-01-04 01:58:36.76	354.34	27.73	-48.7	-51.1	24.6	6.04e-01	0	39	0	170917888	69	4610
2026-01-04 01:58:37.70	354.16	27.90	-48.7	-51.0	24.6	6.05e-01	0	39	0	173015040	69	4590
2026-01-04 01:58:38.88	353.94	28.11	-48.6	-50.9	24.7	6.04e-01	0	39	0	175112192	69	4537
2026-01-04 01:58:39.73	353.78	28.26	-48.7	-51.1	24.6	6.03e-01	0	39	0	176685056	69	4627
2026-01-04 01:58:41.09	353.51	28.50	-48.6	-51.0	24.6	6.03e-01	0	39	0	179306496	69	4583
2026-01-04 01:58:41.80	353.38	28.63	-48.6	-51.1	24.6	6.03e-01	0	39	0	180355072	69	4611
2026-01-04 01:58:43.09	353.12	28.87	-48.6	-51.1	24.6	6.03e-01	0	39	0	182976512	69	4611
2026-01-04 01:58:43.81	352.98	29.00	-48.5	-50.9	24.7	6.01e-01	0	39	0	184025088	69	4517
2026-01-04 01:58:45.10	352.71	29.23	-48.6	-51.0	24.7	6.02e-01	0	39	0	186646528	69	4551
2026-01-04 01:58:45.81	352.57	29.36	-48.5	-50.8	24.7	6.03e-01	0	39	0	188219392	69	4480
2026-01-04 01:58:47.10	352.30	29.60	-48.5	-50.8	24.8	6.03e-01	0	39	0	190316544	69	4488
2026-01-04 01:58:47.82	352.15	29.73	-48.5	-50.9	24.8	6.02e-01	0	39	0	191889408	68	4781
2026-01-04 01:58:49.11	351.87	29.97	-48.3	-50.8	24.8	6.01e-01	0	39	0	193986560	68	4738
2026-01-04 01:58:49.82	351.72	30.11	-48.3	-50.8	24.7	6.00e-01	0	39	0	195559424	68	4757
2026-01-04 01:58:51.13	351.43	30.35	-48.2	-50.7	24.9	6.00e-01	0	39	0	198180864	68	4656
2026-01-04 01:58:51.84	351.28	30.49	-48.1	-50.6	25.0	6.00e-01	0	39	0	199229440	68	4616
2026-01-04 01:58:53.13	350.99	30.73	-48.1	-50.5	25.0	6.01e-01	0	39	0	201850880	68	4587
2026-01-04 01:58:53.85	350.83	30.87	-48.1	-50.5	25.1	6.01e-01	0	39	0	202899456	68	4598
2026-01-04 01:58:55.27	350.50	31.14	-48.2	-50.6	25.0	6.02e-01	0	39	0	205520896	68	4619
2026-01-04 01:58:55.98	350.34	31.28	-48.4	-50.8	24.9	6.02e-01	0	39	0	207093760	68	4720
2026-01-04 01:58:57.27	350.03	31.53	-48.4	-50.8	24.8	6.00e-01	0	39	0	209190912	68	4724
2026-01-04 01:58:57.98	349.86	31.67	-48.4	-50.8	24.7	6.04e-01	0	39	0	210763776	68	4753
2026-01-04 01:58:59.27	349.55	31.92	-48.4	-50.8	24.7	6.02e-01	0	39	0	213385216	68	4758
2026-01-04 01:58:59.99	349.37	32.06	-48.4	-50.9	24.7	6.01e-01	0	39	0	214433792	68	4784
2026-01-04 01:59:01.28	349.06	32.31	-48.4	-50.9	24.5	6.02e-01	0	39	0	217055232	68	4811
2026-01-04 01:59:02.00	348.87	32.45	-48.6	-51.1	24.6	6.03e-01	0	39	0	218103808	68	4887
2026-01-04 01:59:03.29	348.55	32.71	-48.6	-51.1	24.6	6.01e-01	0	39	0	220725248	68	4882
2026-01-04 01:59:04.00	348.36	32.85	-48.6	-51.1	24.5	6.03e-01	0	39	0	222298112	68	4914
2026-01-04 01:59:05.29	348.03	33.11	-48.4	-50.9	24.8	5.99e-01	0	39	0	224395264	68	4784
2026-01-04 01:59:06.01	347.84	33.25	-48.4	-50.9	24.8	6.05e-01	0	39	0	225968128	68	4793
2026-01-04 01:59:07.29	347.50	33.51	-48.6	-51.2	24.5	6.01e-01	0	39	0	228065280	68	4941
2026-01-04 01:59:08.01	347.30	33.65	-48.7	-51.3	24.4	6.03e-01	0	39	0	229638144	68	5031
2026-01-04 01:59:09.30	346.95	33.92	-48.8	-51.5	24.2	6.00e-01	0	39	0	232259584	68	5123
2026-01-04 01:59:10.02	346.75	34.06	-48.8	-51.5	24.2	6.01e-01	0	39	0	233308160	68	5156
2026-01-04 01:59:11.31	346.38	34.32	-48.8	-51.4	24.2	6.03e-01	0	39	0	235929600	68	5064
2026-01-04 01:59:12.02	346.18	34.47	-48.8	-51.4	24.3	6.01e-01	0	39	0	236978176	68	5064
2026-01-04 01:59:13.31	345.81	34.73	-49.1	-51.7	24.1	5.98e-01	0	39	0	239599616	68	5250
2026-01-04 01:59:14.03	345.60	34.88	-49.1	-51.8	24.0	6.00e-01	0	39	0	241172480	68	5303
2026-01-04 01:59:15.32	345.21	35.15	-49.1	-51.8	23.9	6.02e-01	0	39	0	243269632	68	5321
2026-01-04 01:59:16.03	345.00	35.30	-49.3	-52.0	23.8	5.98e-01	0	39	0	244842496	69	5135
2026-01-04 01:59:17.32	344.61	35.56	-49.4	-52.1	23.7	6.01e-01	0	39	0	246939648	69	5198
2026-01-04 01:59:18.04	344.39	35.71	-49.4	-52.2	22.8	6.05e-01	0	39	0	248512512	69	5235
2026-01-04 01:59:19.33	343.98	35.98	-49.6	-52.4	23.4	6.03e-01	0	39	0	251133952	69	5349
2026-01-04 01:59:20.04	343.76	36.13	-49.7	-52.5	23.2	5.99e-01	0	39	0	252182528	70	5130
2026-01-04 01:59:21.34	343.34	36.40	-49.7	-52.5	23.3	6.01e-01	0	39	0	254803968	70	5150
2026-01-04 01:59:22.05	343.11	36.55	-49.7	-52.5	23.3	6.07e-01	0	39	0	255852544	70	5151
2026-01-04 01:59:23.34	342.68	36.82	-49.7	-52.7	23.1	6.02e-01	0	39	0	258473984	70	5276
2026-01-04 01:59:24.05	342.44	36.97	-49.8	-52.8	23.0	6.00e-01	0	39	0	259522560	70	5325
2026-01-04 01:59:25.34	342.01	37.24	-49.9	-53.1	22.8	6.00e-01	0	39	0	262144000	70	5490
2026-01-04 01:59:26.06	341.76	37.40	-50.1	-53.2	22.6	6.01e-01	0	39	0	263192576	70	5579
2026-01-04 01:59:27.62	341.22	37.73	-50.4	-53.3	22.6	6.01e-01	0	39	0	266338304	71	5323
2026-01-04 01:59:28.33	340.96	37.88	-49.9	-52.7	23.2	6.03e-01	0	39	0	267911168	71	4934
2026-01-04 01:59:29.67	340.48	38.16	-49.9	-52.6	23.3	6.01e-01	0	39	0	270008320	71	4883
2026-01-04 01:59:30.67	340.12	38.37	-50.3	-53.0	22.9	6.00e-01	0	39	0	272105472	71	5130
2026-01-04 01:59:31.99	339.63	38.65	-50.7	-53.5	22.5	6.00e-01	0	39	0	274726912	71	5447
2026-01-04 01:59:32.70	339.36	38.80	-50.7	-53.6	22.3	6.01e-01	0	39	0	275775488	72	5193
2026-01-04 01:59:33.99	338.87	39.08	-50.5	-53.4	22.5	6.01e-01	0	39	0	278396928	72	5072
2026-01-04 01:59:34.71	338.60	39.23	-50.7	-53.5	22.4	5.98e-01	0	39	0	279445504	72	5158
2026-01-04 01:59:36.00	338.09	39.50	-50.4	-53.3	22.6	6.02e-01	0	39	0	282066944	72	4997
2026-01-04 01:59:36.72	337.81	39.65	-50.2	-53.1	22.8	6.02e-01	0	39	0	283639808	72	4903
2026-01-04 01:59:38.01	337.29	39.93	-50.4	-53.4	22.5	6.03e-01	0	39	0	285736960	72	5068
2026-01-04 01:59:38.72	337.00	40.08	-50.5	-53.5	22.4	6.02e-01	0	39	0	287309824	72	5107
2026-01-04 01:59:40.08	336.44	40.36	-50.4	-53.2	22.7	6.03e-01	0	39	0	289931264	72	4970
2026-01-04 01:59:40.79	336.14	40.51	-50.4	-53.2	22.7	6.00e-01	0	39	0	290979840	72	4945
2026-01-04 01:59:42.15	335.56	40.80	-50.1	-52.9	23.0	6.02e-01	0	39	0	293601280	72	4792
2026-01-04 01:59:42.87	335.25	40.95	-50.1	-52.9	22.9	6.00e-01	0	39	0	295174144	72	4784
2026-01-04 01:59:44.23	334.66	41.24	-50.2	-53.2	22.7	5.99e-01	0	39	0	297795584	72	4971
2026-01-04 01:59:44.95	334.34	41.39	-50.2	-53.3	22.6	6.01e-01	0	39	0	298844160	72	5002
2026-01-04 01:59:46.27	333.75	41.66	-49.9	-52.9	23.0	6.00e-01	0	39	0	301465600	71	5061
2026-01-04 01:59:46.99	333.42	41.81	-49.8	-52.7	23.2	6.03e-01	0	39	0	302514176	71	4938
2026-01-04 01:59:48.28	332.83	42.08	-49.8	-52.7	23.2	6.01e-01	0	39	0	305135616	71	4933
2026-01-04 01:59:49.00	332.49	42.22	-50.0	-52.9	23.0	6.03e-01	0	39	0	306708480	71	5073
2026-01-04 01:59:50.29	331.88	42.49	-50.0	-52.9	23.0	6.01e-01	0	39	0	308805632	71	5044
2026-01-04 01:59:51.00	331.54	42.63	-49.8	-52.6	23.2	6.02e-01	0	39	0	310378496	71	4906
2026-01-04 01:59:52.29	330.92	42.89	-49.8	-52.5	23.3	6.03e-01	0	39	0	312475648	71	4829
2026-01-04 01:59:53.02	330.56	43.04	-49.9	-52.6	23.3	6.01e-01	0	39	0	314048512	71	4874
2026-01-04 01:59:54.31	329.92	43.30	-50.0	-52.8	23.1	6.03e-01	0	39	0	316145664	71	4991
2026-01-04 01:59:55.03	329.55	43.44	-49.8	-52.5	23.3	6.02e-01	0	39	0	317718528	71	4830
2026-01-04 01:59:56.32	328.89	43.70	-49.9	-52.5	23.3	6.03e-01	0	39	0	320339968	71	4857
2026-01-04 01:59:57.16	328.46	43.86	-49.7	-52.3	23.5	6.01e-01	0	39	0	321912832	71	4733
2026-01-04 01:59:58.63	327.69	44.14	-49.6	-52.2	23.6	6.01e-01	0	39	0	324534272	71	4654
2026-01-04 01:59:59.34	327.31	44.28	-49.7	-52.3	23.5	6.03e-01	0	39	0	326107136	71	4737
2026-01-04 02:00:00.64	326.61	44.53	-49.9	-52.6	23.3	6.01e-01	0	39	0	328204288	71	4877
2026-01-04 02:00:01.35	326.22	44.66	-49.6	-52.2	23.6	6.03e-01	0	39	0	329777152	71	4678
2026-01-04 02:00:02.64	325.51	44.90	-49.7	-52.3	23.6	6.02e-01	0	39	0	331874304	71	4742
2026-01-04 02:00:03.35	325.11	45.03	-49.8	-52.4	23.5	6.00e-01	0	39	0	333447168	71	4784
2026-01-04 02:00:04.64	324.39	45.27	-49.8	-52.4	23.5	5.99e-01	0	39	0	336068608	71	4795
2026-01-04 02:00:05.36	323.97	45.40	-50.0	-52.7	23.1	6.03e-01	0	39	0	337117184	71	4931
2026-01-04 02:00:06.65	323.23	45.63	-49.9	-52.5	23.2	6.01e-01	0	39	0	339738624	71	4857
2026-01-04 02:00:07.36	322.81	45.75	-50.0	-52.7	23.2	6.01e-01	0	39	0	340787200	71	4953
2026-01-04 02:00:08.65	322.05	45.97	-49.7	-52.4	23.5	6.02e-01	0	39	0	343408640	71	4783
2026-01-04 02:00:09.70	321.42	46.15	-49.7	-52.5	23.4	6.02e-01	0	39	0	345505792	70	5125
2026-01-04 02:00:10.61	320.87	46.30	-49.6	-52.4	23.5	6.01e-01	0	39	0	347078656	70	5055
2026-01-04 02:00:11.61	320.26	46.47	-49.7	-52.5	23.3	6.01e-01	0	39	0	348651520	70	5139
2026-01-04 02:00:12.61	319.64	46.63	-49.7	-52.4	23.5	6.04e-01	0	39	0	350748672	70	5059
2026-01-04 02:00:13.61	319.01	46.79	-49.4	-52.0	23.8	6.02e-01	0	39	0	352845824	70	4815
2026-01-04 02:00:14.62	318.37	46.94	-49.9	-52.5	23.4	6.00e-01	0	39	0	354418688	70	5149
2026-01-04 02:00:15.62	317.74	47.10	-49.9	-52.6	23.3	6.03e-01	0	39	0	356515840	71	4885
2026-01-04 02:00:16.62	317.09	47.24	-50.0	-52.7	23.1	6.02e-01	0	39	0	358088704	71	4963
2026-01-04 02:00:17.71	316.38	47.40	-49.7	-52.4	23.4	6.02e-01	0	39	0	360185856	71	4763
2026-01-04 02:00:18.57	315.82	47.52	-49.9	-52.7	23.1	6.01e-01	0	39	0	361758720	70	5267
2026-01-04 02:00:19.72	315.05	47.68	-50.1	-52.9	23.0	5.99e-01	0	39	0	363855872	71	5071
2026-01-04 02:00:20.67	314.42	47.81	-50.2	-52.9	23.0	6.01e-01	0	39	0	365953024	71	5084
2026-01-04 02:00:21.87	313.61	47.97	-49.7	-52.3	23.5	6.04e-01	0	39	0	368050176	71	4746
2026-01-04 02:00:22.76	313.00	48.08	-50.1	-52.9	23.1	5.98e-01	0	39	0	369623040	71	5056
2026-01-04 02:00:24.11	312.07	48.24	-49.8	-52.5	23.4	6.00e-01	0	39	0	372244480	71	4843
2026-01-04 02:00:24.83	311.57	48.33	-49.9	-52.6	23.3	6.00e-01	0	39	0	373817344	71	4895
2026-01-04 02:00:26.12	310.67	48.47	-49.7	-52.4	23.6	6.01e-01	0	39	0	375914496	71	4764
2026-01-04 02:00:26.84	310.17	48.55	-49.6	-52.3	23.6	6.04e-01	0	39	0	377487360	71	4709
2026-01-04 02:00:28.13	309.25	48.69	-50.2	-53.0	23.0	5.99e-01	0	39	0	380108800	71	5104
2026-01-04 02:00:28.84	308.75	48.76	-50.1	-52.8	23.2	6.02e-01	0	39	0	381157376	71	5000
2026-01-04 02:00:30.13	307.82	48.88	-50.6	-53.5	22.6	5.99e-01	0	39	0	383778816	71	5412
2026-01-04 02:00:30.84	307.31	48.94	-49.9	-52.4	23.5	6.01e-01	0	39	0	384827392	71	4800
2026-01-04 02:00:32.13	306.37	49.05	-51.0	-54.1	21.9	6.03e-01	0	39	0	387448832	72	5512
2026-01-04 02:00:32.85	305.84	49.11	-49.6	-52.1	23.6	6.00e-01	0	39	0	388497408	70	4925
2026-01-04 02:00:34.22	304.84	49.22	-51.0	-54.2	21.7	6.03e-01	0	39	0	391118848	72	5563
2026-01-04 02:00:34.93	304.31	49.27	-49.9	-52.5	23.2	6.02e-01	0	39	0	392691712	70	5134
2026-01-04 02:00:36.22	303.36	49.35	-51.8	-55.3	20.8	6.01e-01	0	39	0	394788864	74	5646
2026-01-04 02:00:36.93	302.83	49.40	-49.7	-52.3	23.5	6.05e-01	0	39	0	396361728	70	5015
2026-01-04 02:00:38.22	301.86	49.47	-50.2	-53.0	22.8	6.01e-01	0	39	0	398458880	70	5404
2026-01-04 02:00:38.93	301.33	49.50	-48.9	-51.2	24.4	6.02e-01	0	39	0	400031744	69	4700
2026-01-04 02:00:40.22	300.36	49.56	-49.4	-51.9	23.7	6.00e-01	0	39	0	402653184	69	5091
2026-01-04 02:00:40.97	299.79	49.59	-49.1	-51.6	23.6	6.01e-01	0	39	0	403701760	70	4622
2026-01-04 02:00:42.26	298.81	49.64	-48.5	-50.9	24.7	6.04e-01	0	39	0	406323200	68	4775
2026-01-04 02:00:43.07	298.20	49.66	-49.4	-51.9	23.2	6.04e-01	0	39	0	407896064	70	4766
2026-01-04 02:00:44.22	297.32	49.69	-49.6	-52.1	23.4	6.01e-01	0	39	0	409993216	71	4644
2026-01-04 02:00:45.08	296.67	49.70	-50.5	-53.4	22.3	6.01e-01	0	39	0	411566080	71	5385
2026-01-04 02:00:46.23	295.79	49.72	-50.5	-53.3	22.5	5.99e-01	0	39	0	413663232	71	5286
2026-01-04 02:00:47.09	295.14	49.73	-50.6	-53.5	22.5	6.03e-01	0	39	0	415236096	71	5424
2026-01-04 02:00:48.23	294.27	49.73	-50.3	-53.1	22.8	6.01e-01	0	39	0	417333248	71	5217
2026-01-04 02:00:49.09	293.61	49.73	-49.1	-51.6	24.1	6.02e-01	0	39	0	418906112	70	4629
2026-01-04 02:00:50.24	292.73	49.72	-48.8	-51.3	24.4	6.03e-01	0	39	0	421527552	69	4711
2026-01-04 02:00:51.10	292.08	49.71	-48.4	-51.1	23.9	6.02e-01	0	39	0	423100416	69	4605
2026-01-04 02:00:52.35	291.12	49.68	-49.4	-51.9	23.6	6.01e-01	0	39	0	425197568	70	4814
2026-01-04 02:00:53.10	290.55	49.66	-50.1	-52.8	23.2	6.02e-01	0	39	0	426770432	70	5289
2026-01-04 02:00:54.38	289.58	49.63	-49.6	-52.1	23.7	6.01e-01	0	39	0	428867584	70	4894
2026-01-04 02:00:55.10	289.04	49.60	-49.1	-51.5	24.2	6.02e-01	0	39	0	430440448	70	4596
2026-01-04 02:00:56.39	288.06	49.55	-49.4	-51.8	23.9	6.02e-01	0	39	0	433061888	70	4746
2026-01-04 02:00:57.10	287.53	49.52	-49.8	-52.5	23.4	6.03e-01	0	39	0	434110464	70	5107
2026-01-04 02:00:58.39	286.56	49.45	-49.8	-52.5	23.3	6.01e-01	0	39	0	436731904	70	5156
2026-01-04 02:00:59.17	285.97	49.41	-49.4	-52.0	23.8	6.02e-01	0	39	0	437780480	70	4823
2026-01-04 02:01:00.77	284.78	49.31	-49.7	-52.2	23.6	6.02e-01	0	39	0	440926208	71	4692
2026-01-04 02:01:01.34	284.36	49.27	-49.6	-52.2	23.6	6.01e-01	0	39	0	441974784	71	4690
2026-01-04 02:01:02.92	283.19	49.15	-49.8	-52.5	23.3	6.02e-01	0	39	0	445120512	70	5148
2026-01-04 02:01:03.52	282.75	49.11	-49.6	-52.1	23.6	6.03e-01	0	39	0	446169088	70	4915
2026-01-04 02:01:05.10	281.60	48.97	-49.3	-51.7	24.0	6.01e-01	0	39	0	449314816	70	4703
2026-01-04 02:01:05.83	281.07	48.91	-49.6	-52.1	23.6	6.01e-01	0	39	0	450363392	70	4918
2026-01-04 02:01:07.12	280.14	48.79	-49.3	-51.9	23.9	6.01e-01	0	39	0	452984832	70	4783
2026-01-04 02:01:08.04	279.48	48.70	-49.5	-52.2	23.5	5.99e-01	0	39	0	454557696	70	4973
2026-01-04 02:01:09.04	278.77	48.59	-49.0	-51.4	24.3	6.02e-01	0	39	0	456654848	69	4803
2026-01-04 02:01:10.04	278.07	48.49	-48.9	-51.3	24.3	6.02e-01	0	39	0	458227712	69	4755
2026-01-04 02:01:11.05	277.36	48.37	-49.4	-51.9	23.9	6.03e-01	0	39	0	460324864	69	5063
2026-01-04 02:01:12.05	276.66	48.26	-49.3	-51.8	24.0	6.04e-01	0	39	0	462422016	69	4992
2026-01-04 02:01:13.05	275.97	48.14	-49.0	-51.5	24.2	6.01e-01	0	39	0	463994880	69	4843
2026-01-04 02:01:14.05	275.29	48.01	-49.0	-51.5	24.3	6.05e-01	0	39	0	466092032	69	4831
2026-01-04 02:01:15.06	274.60	47.88	-49.4	-51.9	23.9	6.02e-01	0	39	0	467664896	69	5097
2026-01-04 02:01:16.06	273.93	47.75	-49.3	-51.7	24.0	6.02e-01	0	39	0	469762048	69	4975
2026-01-04 02:01:17.06	273.26	47.61	-49.1	-51.6	24.1	5.99e-01	0	39	0	471334912	69	4908
2026-01-04 02:01:18.06	272.60	47.48	-49.0	-51.4	24.3	6.05e-01	0	39	0	473432064	69	4811
2026-01-04 02:01:19.07	271.94	47.33	-49.3	-51.9	23.9	6.04e-01	0	39	0	475529216	69	5053
2026-01-04 02:01:20.07	271.29	47.18	-49.0	-51.5	24.2	6.04e-01	0	39	0	477102080	69	4819
2026-01-04 02:01:21.07	270.65	47.03	-49.3	-51.9	23.9	5.98e-01	0	39	0	479199232	69	5083
2026-01-04 02:01:22.08	270.00	46.88	-48.8	-51.3	24.4	6.02e-01	0	39	0	480772096	69	4716
2026-01-04 02:01:23.08	269.37	46.72	-49.1	-51.6	24.0	6.03e-01	0	39	0	482869248	69	4914
2026-01-04 02:01:24.08	268.75	46.56	-49.1	-51.6	24.1	6.02e-01	0	39	0	484966400	69	4880
2026-01-04 02:01:25.09	268.13	46.40	-49.0	-51.5	24.2	6.04e-01	0	39	0	486539264	69	4838
2026-01-04 02:01:26.09	267.51	46.23	-49.0	-51.4	24.3	6.02e-01	0	39	0	488636416	69	4786
2026-01-04 02:01:27.09	266.91	46.06	-49.0	-51.4	24.3	6.00e-01	0	39	0	490209280	69	4780
2026-01-04 02:01:28.17	266.26	45.88	-49.1	-51.6	24.1	6.01e-01	0	39	0	492306432	69	4908
2026-01-04 02:01:29.06	265.74	45.72	-48.8	-51.3	24.4	6.00e-01	0	39	0	493879296	69	4711
2026-01-04 02:01:30.21	265.07	45.52	-48.8	-51.2	24.4	6.02e-01	0	39	0	495976448	69	4696
2026-01-04 02:01:31.07	264.57	45.37	-49.0	-51.5	24.1	5.99e-01	0	39	0	497549312	70	4575
2026-01-04 02:01:32.21	263.92	45.16	-49.1	-51.6	24.1	5.99e-01	0	39	0	500170752	69	4914
2026-01-04 02:01:33.07	263.43	45.00	-48.7	-51.1	24.5	5.98e-01	0	39	0	501743616	69	4631
2026-01-04 02:01:34.22	262.79	44.79	-49.0	-51.4	24.3	6.00e-01	0	39	0	503840768	69	4807
2026-01-04 02:01:35.30	262.20	44.58	-49.2	-51.7	24.0	6.03e-01	0	39	0	505937920	69	4932
2026-01-04 02:01:36.33	261.64	44.39	-49.1	-51.6	24.1	6.00e-01	0	39	0	507510784	69	4905
2026-01-04 02:01:37.33	261.10	44.20	-48.9	-51.4	24.2	6.01e-01	0	39	0	509607936	69	4772
2026-01-04 02:01:38.33	260.57	44.00	-48.7	-51.2	24.5	6.03e-01	0	39	0	511705088	69	4676
2026-01-04 02:01:39.34	260.04	43.81	-49.0	-51.6	24.0	6.01e-01	0	39	0	513277952	69	4911
2026-01-04 02:01:40.34	259.53	43.61	-49.3	-51.9	23.8	6.02e-01	0	39	0	515375104	69	5090
2026-01-04 02:01:41.34	259.02	43.41	-49.2	-51.6	24.1	6.01e-01	0	39	0	516947968	69	4926
2026-01-04 02:01:42.34	258.51	43.21	-49.0	-51.5	24.2	6.01e-01	0	39	0	519045120	69	4820
2026-01-04 02:01:43.35	258.01	43.01	-49.2	-51.8	24.0	6.03e-01	0	39	0	520617984	69	4990
2026-01-04 02:01:44.35	257.52	42.81	-49.0	-51.5	24.2	6.03e-01	0	39	0	522715136	69	4869
2026-01-04 02:01:45.35	257.03	42.60	-49.2	-51.7	23.9	5.99e-01	0	39	0	524812288	69	4966
2026-01-04 02:01:46.35	256.55	42.40	-49.3	-51.8	23.9	6.02e-01	0	39	0	526385152	69	4985
2026-01-04 02:01:47.35	256.08	42.19	-49.4	-51.9	23.8	6.00e-01	0	39	0	528482304	69	5084
2026-01-04 02:01:48.36	255.61	41.98	-49.6	-52.1	23.6	6.04e-01	0	39	0	530055168	69	5207
2026-01-04 02:01:49.45	255.11	41.76	-49.4	-52.0	23.7	5.99e-01	0	39	0	532152320	69	5132
2026-01-04 02:01:50.34	254.70	41.57	-49.9	-52.6	23.2	6.02e-01	0	39	0	534249472	70	5200
2026-01-04 02:01:51.49	254.19	41.33	-49.8	-52.5	23.3	6.01e-01	0	39	0	536346624	70	5104
2026-01-04 02:01:52.34	253.81	41.15	-49.5	-52.1	23.6	6.03e-01	0	39	0	537919488	70	4899
2026-01-04 02:01:53.49	253.31	40.91	-49.7	-52.2	23.6	6.05e-01	0	39	0	540016640	70	4953
2026-01-04 02:01:54.35	252.94	40.73	-49.8	-52.3	23.5	6.02e-01	0	39	0	541589504	70	5019
2026-01-04 02:01:55.49	252.46	40.49	-49.7	-52.3	23.5	6.02e-01	0	39	0	543686656	70	5000
2026-01-04 02:01:56.35	252.10	40.31	-49.9	-52.5	23.3	6.01e-01	0	39	0	545259520	70	5155
2026-01-04 02:01:57.50	251.62	40.07	-50.1	-52.8	23.0	6.02e-01	0	39	0	547356672	70	5334
2026-01-04 02:01:58.36	251.27	39.88	-50.0	-52.7	23.0	6.02e-01	0	39	0	548929536	70	5249
2026-01-04 02:01:59.50	250.81	39.64	-50.0	-52.6	23.2	6.03e-01	0	39	0	551026688	70	5192
2026-01-04 02:02:00.36	250.47	39.46	-50.4	-53.1	22.7	6.02e-01	0	39	0	552599552	71	5196
2026-01-04 02:02:01.51	250.02	39.21	-50.6	-53.4	22.5	6.02e-01	0	39	0	554696704	71	5362
2026-01-04 02:02:02.37	249.68	39.03	-50.3	-53.1	22.8	6.02e-01	0	39	0	556269568	71	5173
2026-01-04 02:02:03.52	249.24	38.78	-50.2	-53.0	22.8	6.01e-01	0	39	0	558891008	71	5125
2026-01-04 02:02:04.38	248.92	38.60	-50.3	-53.2	22.7	6.04e-01	0	39	0	560463872	71	5224
2026-01-04 02:02:05.52	248.50	38.36	-50.4	-53.3	22.6	6.00e-01	0	39	0	562561024	71	5300
2026-01-04 02:02:06.38	248.18	38.17	-50.4	-53.1	22.7	6.03e-01	0	39	0	564133888	71	5218
2026-01-04 02:02:07.52	247.77	37.93	-50.3	-53.1	22.7	6.02e-01	0	39	0	566231040	71	5170
2026-01-04 02:02:08.38	247.46	37.75	-50.8	-53.7	22.2	6.02e-01	0	39	0	567803904	72	5250
2026-01-04 02:02:09.53	247.06	37.51	-50.8	-53.7	22.1	6.03e-01	0	39	0	569901056	72	5266
2026-01-04 02:02:10.38	246.76	37.32	-50.8	-53.7	22.2	6.00e-01	0	39	0	571473920	72	5235
2026-01-04 02:02:11.53	246.37	37.08	-51.0	-54.0	21.8	6.02e-01	0	39	0	573571072	72	5441
2026-01-04 02:02:12.39	246.08	36.90	-50.8	-53.7	22.1	6.02e-01	0	39	0	575143936	72	5253
2026-01-04 02:02:13.54	245.69	36.66	-50.7	-53.6	22.3	6.01e-01	0	39	0	577241088	72	5162
2026-01-04 02:02:14.40	245.41	36.47	-50.6	-53.5	22.3	6.02e-01	0	39	0	579338240	72	5131
2026-01-04 02:02:15.64	245.01	36.21	-50.5	-53.3	22.5	6.00e-01	0	39	0	581435392	72	5025
2026-01-04 02:02:16.49	244.73	36.03	-50.7	-53.6	22.3	6.04e-01	0	39	0	583008256	72	5212
2026-01-04 02:02:17.64	244.37	35.79	-50.2	-52.9	23.0	6.02e-01	0	39	0	585105408	72	4798
2026-01-04 02:02:18.50	244.10	35.61	-50.0	-52.6	23.4	6.02e-01	0	39	0	586678272	71	4897
2026-01-04 02:02:19.64	243.75	35.38	-50.3	-53.0	22.9	6.01e-01	0	39	0	588775424	71	5140
2026-01-04 02:02:20.61	243.46	35.17	-50.5	-53.4	22.5	6.01e-01	0	39	0	590872576	71	5360
2026-01-04 02:02:21.79	243.10	34.93	-50.0	-52.7	23.2	6.02e-01	0	39	0	592969728	71	4948
2026-01-04 02:02:22.65	242.85	34.75	-49.8	-52.4	23.4	6.03e-01	0	39	0	594542592	71	4797
2026-01-04 02:02:24.00	242.46	34.47	-50.1	-52.7	23.1	6.01e-01	0	39	0	597164032	71	4975
2026-01-04 02:02:24.72	242.25	34.33	-50.0	-52.7	23.1	6.04e-01	0	39	0	598212608	71	4960
2026-01-04 02:02:26.01	241.88	34.06	-49.8	-52.3	23.5	5.99e-01	0	39	0	600834048	71	4744
2026-01-04 02:02:26.73	241.68	33.91	-49.7	-52.2	23.5	6.03e-01	0	39	0	602406912	71	4697
2026-01-04 02:02:28.02	241.33	33.65	-49.7	-52.3	23.4	6.01e-01	0	39	0	604504064	71	4725
2026-01-04 02:02:28.73	241.13	33.51	-49.6	-52.2	23.5	6.01e-01	0	39	0	606076928	71	4691
2026-01-04 02:02:30.02	240.78	33.25	-49.5	-52.0	23.7	6.01e-01	0	39	0	608174080	70	4869
2026-01-04 02:02:30.74	240.59	33.10	-49.6	-52.1	23.6	5.99e-01	0	39	0	609746944	70	4905
2026-01-04 02:02:32.02	240.26	32.84	-50.1	-52.8	23.1	6.03e-01	0	39	0	612368384	70	5280
2026-01-04 02:02:32.74	240.07	32.70	-50.2	-52.9	23.0	6.02e-01	0	39	0	613416960	71	5075
2026-01-04 02:02:34.03	239.74	32.44	-50.0	-52.7	23.3	6.03e-01	0	39	0	616038400	71	4928
2026-01-04 02:02:34.74	239.56	32.30	-49.6	-52.1	23.7	6.02e-01	0	39	0	617086976	71	4632
2026-01-04 02:02:36.16	239.21	32.02	-49.5	-52.1	23.7	6.02e-01	0	39	0	619708416	71	4605
2026-01-04 02:02:36.88	239.03	31.88	-49.6	-52.1	23.7	6.01e-01	0	39	0	621281280	71	4639
2026-01-04 02:02:38.17	238.72	31.63	-49.4	-51.9	23.9	6.02e-01	0	39	0	623378432	70	4776
2026-01-04 02:02:39.21	238.47	31.43	-49.2	-51.7	24.1	6.03e-01	0	39	0	625475584	70	4655
2026-01-04 02:02:40.12	238.25	31.25	-49.2	-51.7	24.1	5.99e-01	0	39	0	627048448	70	4676
2026-01-04 02:02:41.12	238.02	31.06	-49.4	-52.0	23.8	6.03e-01	0	39	0	629145600	70	4826
2026-01-04 02:02:42.12	237.79	30.86	-49.7	-52.3	23.6	6.00e-01	0	39	0	631242752	70	4995
2026-01-04 02:02:43.18	237.55	30.66	-49.4	-51.9	23.8	6.03e-01	0	39	0	633339904	70	4792
2026-01-04 02:02:44.13	237.33	30.48	-49.3	-51.8	24.0	6.00e-01	0	39	0	634912768	70	4724
2026-01-04 02:02:45.27	237.08	30.26	-49.2	-51.7	24.1	6.00e-01	0	39	0	637009920	70	4684
2026-01-04 02:02:46.13	236.89	30.10	-49.4	-52.0	23.7	6.04e-01	0	39	0	638582784	70	4830
2026-01-04 02:02:47.50	236.60	29.84	-49.3	-51.8	23.9	6.01e-01	0	39	0	641204224	70	4756
2026-01-04 02:02:48.21	236.44	29.71	-49.1	-51.6	24.0	6.01e-01	0	39	0	642252800	70	4642
2026-01-04 02:02:49.50	236.17	29.47	-49.1	-51.6	24.1	6.01e-01	0	39	0	644874240	70	4636
2026-01-04 02:02:50.22	236.02	29.34	-49.1	-51.6	24.1	6.01e-01	0	39	0	646447104	70	4640
2026-01-04 02:02:51.51	235.76	29.10	-49.4	-52.0	23.8	5.99e-01	0	39	0	648544256	70	4834
2026-01-04 02:02:52.23	235.61	28.97	-49.4	-52.0	23.7	6.01e-01	0	39	0	650117120	70	4826
2026-01-04 02:02:53.52	235.35	28.73	-49.3	-51.9	23.8	6.02e-01	0	39	0	652214272	70	4783
2026-01-04 02:02:54.24	235.21	28.60	-49.2	-51.7	23.9	6.01e-01	0	39	0	653787136	70	4684
2026-01-04 02:02:55.53	234.95	28.37	-49.2	-51.7	23.9	6.03e-01	0	39	0	656408576	70	4681
2026-01-04 02:02:56.24	234.81	28.24	-49.2	-51.8	23.9	6.00e-01	0	39	0	657457152	70	4711
2026-01-04 02:02:57.53	234.57	28.01	-49.3	-51.9	23.8	6.03e-01	0	39	0	660078592	70	4772
2026-01-04 02:02:58.25	234.43	27.88	-49.2	-51.8	23.8	6.02e-01	0	39	0	661127168	70	4727
2026-01-04 02:02:59.58	234.18	27.64	-49.3	-51.9	23.8	6.02e-01	0	39	0	663748608	70	4765
2026-01-04 02:03:00.30	234.05	27.52	-49.2	-51.7	23.9	6.02e-01	0	39	0	665321472	70	4700
2026-01-04 02:03:01.58	233.81	27.29	-49.1	-51.6	23.9	6.02e-01	0	39	0	667418624	70	4651
2026-01-04 02:03:02.30	233.68	27.17	-49.2	-51.8	23.7	6.02e-01	0	39	0	668991488	70	4740
2026-01-04 02:03:03.59	233.45	26.94	-49.5	-52.1	23.5	6.02e-01	0	39	0	671088640	70	4911
2026-01-04 02:03:04.31	233.32	26.82	-49.6	-52.2	23.5	6.01e-01	0	39	0	672661504	70	4974
2026-01-04 02:03:05.75	233.07	26.57	-49.4	-52.0	23.7	6.01e-01	0	39	0	675282944	70	4835
2026-01-04 02:03:06.47	232.95	26.45	-49.2	-51.8	23.8	6.02e-01	0	39	0	676855808	70	4743
2026-01-04 02:03:07.76	232.73	26.23	-49.3	-51.9	23.7	6.00e-01	0	39	0	678952960	70	4770
2026-01-04 02:03:08.48	232.61	26.11	-49.4	-52.0	23.6	5.99e-01	0	39	0	680525824	70	4834
2026-01-04 02:03:09.76	232.39	25.89	-49.5	-52.2	23.4	6.01e-01	0	39	0	682622976	70	4936
2026-01-04 02:03:10.48	232.27	25.77	-49.6	-52.3	23.4	6.02e-01	0	39	0	684195840	70	4984
2026-01-04 02:03:11.76	232.06	25.56	-49.6	-52.3	23.4	6.01e-01	0	39	0	686817280	70	4996
2026-01-04 02:03:12.48	231.95	25.44	-49.6	-52.3	23.4	6.02e-01	0	39	0	687865856	70	4988
2026-01-04 02:03:13.77	231.74	25.23	-49.4	-52.0	23.7	6.02e-01	0	39	0	690487296	70	4829
2026-01-04 02:03:14.48	231.63	25.11	-49.6	-52.2	23.6	5.98e-01	0	39	0	691535872	70	4948
2026-01-04 02:03:15.77	231.43	24.90	-49.7	-52.2	23.6	6.01e-01	0	39	0	694157312	70	4982
2026-01-04 02:03:16.60	231.30	24.76	-49.6	-52.2	23.6	6.04e-01	0	39	0	695730176	70	4936
2026-01-04 02:03:17.75	231.13	24.58	-49.7	-52.3	23.4	5.99e-01	0	39	0	697827328	70	5005
2026-01-04 02:03:18.81	230.97	24.41	-49.8	-52.4	23.3	6.01e-01	0	39	0	699924480	70	5089
2026-01-04 02:03:19.83	230.81	24.25	-49.9	-52.6	23.2	6.02e-01	0	39	0	702021632	70	5168
2026-01-04 02:03:20.83	230.67	24.09	-49.8	-52.5	23.2	6.01e-01	0	39	0	703594496	70	5108
2026-01-04 02:03:21.84	230.52	23.93	-49.9	-52.6	23.1	6.02e-01	0	39	0	705691648	70	5168
2026-01-04 02:03:22.84	230.37	23.77	-49.6	-52.2	23.5	6.01e-01	0	39	0	707264512	70	4972
2026-01-04 02:03:23.84	230.23	23.62	-49.6	-52.1	23.5	6.01e-01	0	39	0	709361664	70	4926
2026-01-04 02:03:24.84	230.09	23.46	-49.7	-52.3	23.4	6.02e-01	0	39	0	710934528	70	5009
2026-01-04 02:03:25.85	229.95	23.31	-49.6	-52.2	23.5	6.02e-01	0	39	0	713031680	70	4940
2026-01-04 02:03:26.85	229.81	23.15	-49.6	-52.2	23.5	6.03e-01	0	39	0	715128832	70	4941
2026-01-04 02:03:27.85	229.67	23.00	-49.5	-52.1	23.6	6.01e-01	0	39	0	716701696	70	4875
2026-01-04 02:03:28.85	229.54	22.85	-49.4	-52.0	23.6	6.00e-01	0	39	0	718798848	70	4837
2026-01-04 02:03:29.85	229.40	22.70	-49.5	-52.1	23.5	6.01e-01	0	39	0	720371712	70	4892
2026-01-04 02:03:30.86	229.27	22.54	-49.6	-52.2	23.5	6.05e-01	0	39	0	722468864	70	4966
2026-01-04 02:03:31.86	229.14	22.39	-49.7	-52.3	23.4	5.99e-01	0	39	0	724566016	70	5029
2026-01-04 02:03:32.86	229.01	22.25	-49.9	-52.5	23.2	6.03e-01	0	39	0	726138880	70	5145
2026-01-04 02:03:33.86	228.88	22.10	-50.0	-52.7	22.8	6.01e-01	0	39	0	728236032	70	5250
2026-01-04 02:03:34.87	228.75	21.95	-49.9	-52.5	23.3	6.02e-01	0	39	0	729808896	70	5128
2026-01-04 02:03:35.87	228.62	21.80	-49.7	-52.4	23.4	6.02e-01	0	39	0	731906048	70	5046
2026-01-04 02:03:36.87	228.50	21.66	-49.7	-52.3	23.4	6.02e-01	0	39	0	733478912	70	5008
2026-01-04 02:03:37.87	228.37	21.51	-49.7	-52.3	23.3	6.02e-01	0	39	0	735576064	70	5041
2026-01-04 02:03:38.87	228.25	21.37	-49.6	-52.2	23.4	6.00e-01	0	39	0	737673216	70	4947
2026-01-04 02:03:39.88	228.13	21.22	-49.6	-52.3	23.3	6.00e-01	0	39	0	739246080	70	5013
2026-01-04 02:03:40.88	228.01	21.08	-49.7	-52.4	23.2	6.00e-01	0	39	0	741343232	70	5068
2026-01-04 02:03:41.88	227.89	20.94	-49.8	-52.5	23.2	6.02e-01	0	39	0	742916096	70	5101
2026-01-04 02:03:42.90	227.77	20.80	-49.6	-52.2	23.4	6.01e-01	0	39	0	745013248	70	4954
2026-01-04 02:03:43.90	227.65	20.65	-49.5	-52.1	23.5	6.02e-01	0	39	0	747110400	70	4896
2026-01-04 02:03:44.90	227.54	20.52	-49.5	-52.1	23.6	6.01e-01	0	39	0	748683264	70	4903
2026-01-04 02:03:45.98	227.41	20.37	-49.4	-52.0	23.7	6.02e-01	0	39	0	750780416	70	4815
2026-01-04 02:03:46.87	227.31	20.24	-49.4	-52.0	23.6	6.03e-01	0	39	0	752353280	70	4826
2026-01-04 02:03:48.02	227.18	20.08	-49.4	-52.0	23.6	6.03e-01	0	39	0	754450432	70	4849
2026-01-04 02:03:48.88	227.09	19.97	-49.6	-52.1	23.5	6.03e-01	0	39	0	756023296	70	4922
2026-01-04 02:03:50.02	226.96	19.81	-49.6	-52.3	23.4	6.04e-01	0	39	0	758120448	70	4995
2026-01-04 02:03:50.88	226.87	19.70	-49.7	-52.3	23.3	6.01e-01	0	39	0	760217600	70	5009
2026-01-04 02:03:52.03	226.74	19.54	-49.7	-52.3	23.3	6.02e-01	0	39	0	762314752	70	5009
2026-01-04 02:03:52.89	226.65	19.43	-49.6	-52.3	23.3	6.01e-01	0	39	0	763887616	70	5002
2026-01-04 02:03:54.03	226.53	19.27	-49.7	-52.3	23.4	6.02e-01	0	39	0	765984768	70	5041
2026-01-04 02:03:54.89	226.44	19.16	-49.7	-52.3	23.4	6.04e-01	0	39	0	767557632	70	5036
2026-01-04 02:03:56.04	226.32	19.01	-49.7	-52.3	23.4	6.01e-01	0	39	0	769654784	70	5035
2026-01-04 02:03:56.90	226.23	18.90	-49.7	-52.3	23.5	6.02e-01	0	39	0	771227648	70	4994
2026-01-04 02:03:58.04	226.12	18.75	-49.6	-52.2	23.5	6.01e-01	0	39	0	773324800	70	4975
2026-01-04 02:03:58.90	226.03	18.64	-49.7	-52.3	23.4	6.02e-01	0	39	0	774897664	70	5007
2026-01-04 02:04:00.19	225.90	18.47	-49.7	-52.3	23.4	6.02e-01	0	39	0	777519104	70	5028
2026-01-04 02:04:00.91	225.83	18.38	-49.7	-52.3	23.4	5.99e-01	0	39	0	778567680	70	5036
2026-01-04 02:04:02.20	225.70	18.21	-49.7	-52.3	23.4	6.00e-01	0	39	0	781189120	70	5036
2026-01-04 02:04:02.91	225.63	18.12	-49.7	-52.3	23.4	6.03e-01	0	39	0	782761984	70	5006
2026-01-04 02:04:04.21	225.51	17.96	-49.8	-52.4	23.3	6.01e-01	0	39	0	784859136	70	5073
2026-01-04 02:04:04.95	225.44	17.86	-49.8	-52.5	23.3	6.00e-01	0	39	0	786432000	70	5105
2026-01-04 02:04:06.24	225.31	17.70	-49.6	-52.3	23.4	5.99e-01	0	39	0	789053440	70	4988
2026-01-04 02:04:07.08	225.24	17.60	-49.6	-52.2	23.4	6.00e-01	0	39	0	790626304	70	4967
2026-01-04 02:04:08.55	225.10	17.41	-49.6	-52.2	23.4	6.00e-01	0	39	0	793247744	70	4966
2026-01-04 02:04:09.26	225.03	17.33	-49.6	-52.3	23.4	6.03e-01	0	39	0	794296320	70	4984
2026-01-04 02:04:10.56	224.91	17.17	-49.7	-52.3	23.3	6.03e-01	0	39	0	796917760	70	5027
2026-01-04 02:04:11.27	224.85	17.08	-49.8	-52.4	23.2	6.01e-01	0	39	0	797966336	70	5081
2026-01-04 02:04:12.56	224.74	16.92	-49.8	-52.5	23.2	6.03e-01	0	39	0	800587776	70	5102
2026-01-04 02:04:13.28	224.67	16.84	-49.7	-52.4	23.3	6.00e-01	0	39	0	802160640	70	5050
2026-01-04 02:04:14.57	224.56	16.68	-49.6	-52.3	23.3	6.01e-01	0	39	0	804257792	70	4986
2026-01-04 02:04:15.29	224.49	16.60	-49.7	-52.3	23.3	6.01e-01	0	39	0	805830656	70	5025
2026-01-04 02:04:16.58	224.38	16.44	-49.7	-52.3	23.4	6.00e-01	0	39	0	808452096	70	4997
2026-01-04 02:04:17.29	224.32	16.36	-49.7	-52.4	23.3	6.00e-01	0	39	0	809500672	70	5056
2026-01-04 02:04:18.58	224.21	16.21	-49.6	-52.2	23.4	6.01e-01	0	39	0	812122112	70	4978
2026-01-04 02:04:19.29	224.15	16.12	-49.6	-52.3	23.3	6.03e-01	0	39	0	813170688	70	4984
2026-01-04 02:04:20.58	224.05	15.97	-49.6	-52.3	23.2	6.04e-01	0	39	0	815792128	70	5011
2026-01-04 02:04:21.30	223.99	15.89	-49.7	-52.3	23.0	6.01e-01	0	39	0	816840704	70	5018
2026-01-04 02:04:22.59	223.88	15.74	-49.6	-52.2	23.3	6.00e-01	0	39	0	819462144	70	4962
2026-01-04 02:04:23.31	223.82	15.66	-49.6	-52.3	23.3	6.02e-01	0	39	0	820510720	70	4996
2026-01-04 02:04:24.84	223.70	15.48	-49.6	-52.3	23.3	6.02e-01	0	39	0	823656448	70	4993
2026-01-04 02:04:25.56	223.64	15.40	-49.6	-52.2	23.3	6.02e-01	0	39	0	825229312	70	4974
2026-01-04 02:04:26.85	223.54	15.25	-49.6	-52.3	23.3	6.00e-01	0	39	0	827326464	70	4999
2026-01-04 02:04:27.56	223.48	15.17	-49.6	-52.3	23.3	6.00e-01	0	39	0	828899328	70	4990
2026-01-04 02:04:28.85	223.38	15.03	-49.6	-52.3	23.2	6.03e-01	0	39	0	830996480	70	4991
2026-01-04 02:04:29.57	223.33	14.95	-49.6	-52.3	23.3	6.00e-01	0	39	0	832569344	70	4991
2026-01-04 02:04:30.86	223.23	14.80	-49.6	-52.2	23.2	5.99e-01	0	39	0	834666496	70	4965
2026-01-04 02:04:31.57	223.17	14.73	-49.6	-52.2	23.2	5.99e-01	0	39	0	836239360	70	4958
2026-01-04 02:04:32.86	223.08	14.58	-49.6	-52.2	23.3	6.02e-01	0	39	0	838860800	70	4968
2026-01-04 02:04:33.58	223.02	14.50	-49.6	-52.3	23.3	6.02e-01	0	39	0	839909376	70	4999
2026-01-04 02:04:34.87	222.93	14.36	-49.7	-52.3	23.2	6.03e-01	0	39	0	842530816	70	5033
2026-01-04 02:04:35.71	222.86	14.27	-49.7	-52.4	23.2	6.02e-01	0	39	0	844103680	70	5048
2026-01-04 02:04:36.86	222.78	14.15	-49.7	-52.3	23.3	6.05e-01	0	39	0	846200832	70	5033
2026-01-04 02:04:37.72	222.72	14.06	-49.8	-52.4	23.2	6.02e-01	0	39	0	847773696	70	5091
2026-01-04 02:04:38.86	222.64	13.93	-49.7	-52.4	23.2	6.03e-01	0	39	0	849870848	70	5058
2026-01-04 02:04:39.72	222.57	13.84	-49.8	-52.4	23.1	6.02e-01	0	39	0	851443712	70	5079
2026-01-04 02:04:40.87	222.49	13.72	-49.8	-52.5	23.2	6.01e-01	0	39	0	853540864	70	5122
2026-01-04 02:04:41.73	222.43	13.63	-49.7	-52.4	23.2	6.01e-01	0	39	0	855113728	70	5067
2026-01-04 02:04:42.91	222.35	13.50	-49.7	-52.4	23.2	6.01e-01	0	39	0	857735168	70	5068
2026-01-04 02:04:43.77	222.29	13.41	-49.8	-52.5	23.1	6.03e-01	0	39	0	859308032	70	5103
2026-01-04 02:04:44.91	222.21	13.29	-49.7	-52.4	23.2	6.03e-01	0	39	0	861405184	70	5074
2026-01-04 02:04:45.78	222.15	13.20	-49.8	-52.5	23.1	6.03e-01	0	39	0	862978048	70	5103
2026-01-04 02:04:47.05	222.07	13.07	-49.8	-52.5	23.0	6.01e-01	0	39	0	865075200	70	5148
2026-01-04 02:04:47.78	222.02	13.00	-49.8	-52.5	23.0	6.01e-01	0	39	0	866648064	70	5140
2026-01-04 02:04:49.07	221.93	12.86	-49.8	-52.5	23.1	6.00e-01	0	39	0	869269504	70	5121
2026-01-04 02:04:50.22	221.86	12.75	-49.8	-52.6	23.0	6.01e-01	0	39	0	871366656	70	5161
2026-01-04 02:04:51.43	221.78	12.62	-49.9	-52.7	22.9	6.02e-01	0	39	0	873463808	70	5224
2026-01-04 02:04:52.29	221.72	12.54	-49.9	-52.6	22.9	6.02e-01	0	39	0	875036672	70	5209
2026-01-04 02:04:53.43	221.65	12.42	-49.8	-52.6	23.0	6.02e-01	0	39	0	877133824	70	5166
2026-01-04 02:04:54.29	221.60	12.34	-49.8	-52.6	22.9	6.04e-01	0	39	0	878706688	70	5177
2026-01-04 02:04:55.44	221.52	12.22	-50.0	-52.8	22.7	6.02e-01	0	39	0	880803840	70	5299
2026-01-04 02:04:56.30	221.47	12.14	-49.9	-52.7	22.9	6.01e-01	0	39	0	882900992	70	5245
2026-01-04 02:04:57.44	221.40	12.02	-49.9	-52.7	22.8	6.01e-01	0	39	0	884998144	70	5256
2026-01-04 02:04:58.30	221.35	11.94	-50.0	-52.8	22.7	6.01e-01	0	39	0	886571008	70	5302
2026-01-04 02:04:59.45	221.28	11.83	-50.1	-52.9	22.7	6.01e-01	0	39	0	888668160	70	5380
2026-01-04 02:05:00.31	221.22	11.74	-49.9	-52.8	22.8	6.03e-01	0	39	0	890241024	70	5295
2026-01-04 02:05:01.46	221.15	11.63	-50.0	-52.8	22.7	6.02e-01	0	39	0	892338176	70	5322
2026-01-04 02:05:02.32	221.10	11.55	-50.1	-52.9	22.6	6.04e-01	0	39	0	893911040	70	5394
2026-01-04 02:05:03.46	221.04	11.44	-50.0	-52.9	22.6	6.00e-01	0	39	0	896008192	70	5368
2026-01-04 02:05:04.32	220.98	11.35	-50.0	-52.9	22.7	6.03e-01	0	39	0	897581056	70	5343
2026-01-04 02:05:05.47	220.92	11.24	-50.0	-52.8	22.7	6.01e-01	0	39	0	899678208	70	5312
2026-01-04 02:05:06.32	220.87	11.16	-50.0	-52.9	22.6	6.01e-01	0	39	0	901251072	70	5356
2026-01-04 02:05:07.47	220.80	11.05	-50.0	-52.9	22.6	6.02e-01	0	39	0	903348224	70	5352
2026-01-04 02:05:08.33	220.75	10.97	-50.0	-53.0	22.5	6.01e-01	0	39	0	905445376	70	5419
2026-01-04 02:05:09.47	220.69	10.86	-49.9	-53.0	22.5	6.03e-01	0	39	0	907542528	70	5417
2026-01-04 02:05:10.33	220.64	10.78	-49.8	-52.9	22.6	5.99e-01	0	39	0	909115392	70	5359
2026-01-04 02:05:11.48	220.57	10.68	-49.7	-53.0	22.5	6.00e-01	0	39	0	911212544	70	5412
2026-01-04 02:05:12.34	220.53	10.60	-49.7	-52.9	22.5	6.05e-01	0	39	0	912785408	70	5356
2026-01-04 02:05:13.50	220.46	10.49	-49.7	-52.8	22.6	6.01e-01	0	39	0	914882560	70	5332
2026-01-04 02:05:14.36	220.41	10.41	-49.6	-52.8	22.6	5.99e-01	0	39	0	916455424	70	5299
2026-01-04 02:05:15.60	220.35	10.30	-49.8	-53.0	22.5	6.02e-01	0	39	0	919076864	70	5403
2026-01-04 02:05:16.46	220.30	10.22	-49.7	-52.8	22.6	6.01e-01	0	39	0	920649728	70	5323
2026-01-04 02:05:17.61	220.24	10.11	-49.8	-52.9	22.6	6.01e-01	0	39	0	922746880	70	5384
2026-01-04 02:05:18.46	220.19	10.03	-49.8	-52.8	22.5	5.99e-01	0	39	0	924319744	70	5338
2026-01-04 02:05:19.61	220.13	9.93	-49.8	-52.9	22.5	6.01e-01	0	39	0	926416896	70	5374
2026-01-04 02:05:20.47	220.09	9.85	-49.9	-53.0	22.3	6.05e-01	0	39	0	927989760	70	5456
2026-01-04 02:05:21.61	220.03	9.75	-50.1	-53.1	22.4	6.02e-01	0	39	0	930086912	70	5504
2026-01-04 02:05:22.47	219.98	9.67	-50.1	-53.1	22.3	6.00e-01	0	39	0	931659776	70	5501
2026-01-04 02:05:23.61	219.92	9.57	-50.2	-53.3	22.2	5.99e-01	0	39	0	933756928	71	5283
2026-01-04 02:05:24.47	219.88	9.49	-50.1	-53.2	22.2	6.02e-01	0	39	0	935329792	71	5270
2026-01-04 02:05:25.62	219.82	9.39	-50.3	-53.5	22.1	6.02e-01	0	39	0	937426944	71	5409
2026-01-04 02:05:26.73	219.77	9.30	-50.0	-53.4	22.0	6.00e-01	0	39	0	939524096	71	5362
2026-01-04 02:05:27.77	219.71	9.20	-49.5	-53.3	22.0	6.01e-01	0	39	0	941621248	71	5322
2026-01-04 02:05:28.76	219.67	9.12	-48.9	-53.3	22.1	6.04e-01	0	39	0	943718400	69	5928
2026-01-04 02:05:29.97	219.61	9.01	-48.6	-53.2	22.0	6.03e-01	0	39	0	945815552	69	5918
2026-01-04 02:05:30.87	219.56	8.93	-55.8	-71.2	7.0	7.22e-01	0	39	0	947388416	82	22186
2026-01-04 02:05:32.01	219.51	8.84	-56.9	-76.9	3.8	7.45e-01	0	39	104	947388416	84	38226
2026-01-04 02:05:32.87	219.46	8.76	-56.9	-77.1	3.8	7.45e-01	0	39	104	947388416	84	38784
2026-01-04 02:05:34.02	219.41	8.66	-57.1	-77.4	3.8	7.47e-01	0	39	104	947388416	84	40304
2026-01-04 02:05:34.88	219.37	8.59	-57.2	-77.5	3.8	7.45e-01	0	39	104	947388416	85	38453
2026-01-04 02:05:36.03	219.31	8.49	-57.4	-77.6	3.8	7.44e-01	0	39	104	947388416	85	38795
2026-01-04 02:05:36.89	219.27	8.42	-57.0	-77.6	3.8	7.46e-01	0	39	104	947388416	85	38810
2026-01-04 02:05:38.03	219.22	8.32	-56.9	-77.5	3.8	7.44e-01	0	39	104	947388416	85	38575
2026-01-04 02:05:38.89	219.18	8.25	-57.4	-77.4	3.8	7.47e-01	0	39	104	947388416	85	38077
2026-01-04 02:05:40.04	219.13	8.15	-57.4	-77.6	3.8	7.47e-01	0	39	104	947388416	85	38746
2026-01-04 02:05:40.90	219.09	8.08	-56.9	-77.6	3.8	7.45e-01	0	39	104	947388416	85	38788
2026-01-04 02:05:42.05	219.04	7.98	-57.3	-77.6	3.8	7.48e-01	0	39	104	947388416	85	38718
2026-01-04 02:05:42.91	219.00	7.91	-57.3	-77.5	3.8	7.47e-01	0	39	104	947388416	85	38292
2026-01-04 02:05:44.05	218.95	7.82	-57.2	-77.5	3.8	7.47e-01	0	39	104	947388416	85	38414
2026-01-04 02:05:44.91	218.91	7.75	-57.3	-77.5	3.8	7.48e-01	0	39	104	947388416	85	38481
2026-01-04 02:05:46.06	218.86	7.65	-56.6	-77.4	3.8	7.46e-01	0	39	104	947388416	85	38197
2026-01-04 02:05:46.93	218.82	7.58	-57.1	-77.5	3.8	7.45e-01	0	39	104	947388416	85	38300
2026-01-04 02:05:48.07	218.77	7.49	-57.2	-77.7	3.8	7.41e-01	0	39	104	947388416	85	39382
2026-01-04 02:05:48.93	218.73	7.42	-57.0	-77.5	3.8	7.41e-01	0	39	104	947388416	85	38641
2026-01-04 02:05:50.08	218.68	7.32	-56.9	-77.5	3.8	7.45e-01	0	39	104	947388416	85	38301
2026-01-04 02:05:50.94	218.64	7.25	-56.7	-77.5	3.8	7.45e-01	0	39	104	947388416	85	38273
2026-01-04 02:05:52.09	218.60	7.16	-56.6	-77.6	3.8	7.49e-01	0	39	104	947388416	85	38803
2026-01-04 02:05:52.95	218.56	7.09	-56.6	-77.5	3.8	7.47e-01	0	39	104	947388416	85	38509
2026-01-04 02:05:54.10	218.51	7.00	-56.5	-77.5	3.8	7.47e-01	0	39	104	947388416	85	38329
2026-01-04 02:05:54.96	218.47	6.93	-56.5	-77.4	3.8	7.46e-01	0	39	104	947388416	85	38217
2026-01-04 02:05:56.11	218.43	6.84	-56.5	-77.4	3.8	7.45e-01	0	39	104	947388416	85	38210
2026-01-04 02:05:56.97	218.39	6.77	-56.5	-77.4	3.8	7.45e-01	0	39	104	947388416	85	38111
2026-01-04 02:05:58.12	218.34	6.68	-56.5	-77.4	3.8	7.43e-01	0	39	104	947388416	85	38133
2026-01-04 02:05:58.98	218.31	6.61	-56.6	-77.5	3.8	7.43e-01	0	39	104	947388416	85	38570
2026-01-04 02:06:00.12	218.26	6.52	-56.6	-77.5	3.8	7.43e-01	0	39	104	947388416	85	38637
2026-01-04 02:06:00.99	218.23	6.46	-56.6	-77.5	3.8	7.45e-01	0	39	104	947388416	85	38657
2026-01-04 02:06:02.13	218.18	6.37	-56.4	-77.4	3.8	7.45e-01	0	39	104	947388416	84	40094
2026-01-04 02:06:02.99	218.15	6.30	-56.5	-77.4	3.8	7.44e-01	0	39	104	947388416	84	40178
2026-01-04 02:06:04.14	218.10	6.21	-56.5	-77.4	3.8	7.47e-01	0	39	104	947388416	84	40209
2026-01-04 02:06:05.00	218.07	6.15	-56.5	-77.4	3.8	7.46e-01	0	39	104	947388416	84	40160
2026-01-04 02:06:06.15	218.02	6.06	-56.5	-77.4	3.8	7.46e-01	0	39	104	947388416	84	40291
2026-01-04 02:06:07.01	217.99	5.99	-56.5	-77.4	3.8	7.44e-01	0	39	104	947388416	84	40188
2026-01-04 02:06:08.16	217.95	5.90	-56.5	-77.4	3.8	7.45e-01	0	39	104	947388416	84	40462
2026-01-04 02:06:09.02	217.91	5.84	-56.5	-77.3	3.8	7.42e-01	0	39	104	947388416	84	39998
2026-01-04 02:06:10.17	217.87	5.75	-56.6	-77.5	3.8	7.47e-01	0	39	104	947388416	84	40785
2026-01-04 02:06:11.03	217.84	5.68	-56.5	-77.4	3.8	7.45e-01	0	39	104	947388416	84	40401
2026-01-04 02:06:12.18	217.79	5.60	-56.5	-77.4	3.8	7.44e-01	0	39	104	947388416	84	40202
2026-01-04 02:06:13.04	217.76	5.53	-56.4	-77.4	3.8	7.45e-01	0	39	104	947388416	84	40173
2026-01-04 02:06:14.19	217.72	5.45	-56.5	-77.5	3.8	7.44e-01	0	39	104	947388416	84	40678
2026-01-04 02:06:15.05	217.69	5.38	-56.5	-77.4	3.8	7.46e-01	0	39	104	947388416	84	40161
2026-01-04 02:06:16.20	217.65	5.30	-56.5	-77.4	3.8	7.46e-01	0	39	104	947388416	84	40183
2026-01-04 02:06:17.06	217.61	5.23	-56.5	-77.4	3.8	7.44e-01	0	39	104	947388416	84	40372
2026-01-04 02:06:18.20	217.57	5.15	-56.5	-77.4	3.8	7.44e-01	0	39	104	947388416	84	40311
2026-01-04 02:06:19.06	217.54	5.08	-56.4	-77.4	3.8	7.48e-01	0	39	104	947388416	84	40225
2026-01-04 02:06:20.21	217.50	5.00	-56.6	-77.5	3.8	7.44e-01	0	39	104	947388416	84	40858

#Closed at: 2026-01-04 02:06:21
#Recorded file [947 MB]: D:/Data/31040_260104_045514.dat