passes_logs/2026/01/04/T1/T1__20260104_225249_NOAA_21_JPSS-2_rec.log

#Pass ID: 20260104_225249_NOAA 21 (JPSS-2)
#Satellite: NOAA 21 (JPSS-2)
#Configuration: NOAA 21
#almurnet v.1.7.20251203
#Start time: 2026-01-04 22:52:51

#Version: 2.0.20230620
#Station: T1
#Location: 37.570604 lon 55.790049 lat
#TLE: 1 54234U 22150A   26004.22845673  .00000174  00000+0  10347-3 0  9996
#TLE: 2 54234  98.7489 305.2591 0001115 345.0884  15.0259 14.19531906163281

#Time	Az	El	Level	Level2	SNR	BER	BlckErr	Temp	State	Recorded	gain1	gain2
2026-01-04 22:52:51.58	22.43	5.13	-53.0	-66.2	3.8	1.49e+00	0	40	0	0	77	16625
2026-01-04 22:52:52.58	22.48	5.20	-52.5	-66.1	3.8	1.49e+00	0	41	104	0	77	16435
2026-01-04 22:52:53.59	22.53	5.27	-52.3	-66.1	3.8	1.49e+00	0	41	104	0	76	17346
2026-01-04 22:52:54.59	22.58	5.33	-52.0	-65.9	3.8	1.49e+00	0	41	104	0	76	16903
2026-01-04 22:52:55.59	22.62	5.40	-51.8	-65.6	3.8	1.49e+00	0	41	104	0	75	17342
2026-01-04 22:52:56.60	22.67	5.47	-51.8	-65.6	3.8	1.49e+00	0	41	104	0	75	17294
2026-01-04 22:52:57.61	22.72	5.54	-51.8	-65.5	3.8	1.49e+00	0	41	104	0	75	17230
2026-01-04 22:52:58.61	22.77	5.61	-51.8	-65.5	3.8	1.49e+00	0	41	104	0	75	17275
2026-01-04 22:52:59.61	22.82	5.68	-51.8	-65.5	3.8	1.49e+00	0	41	104	0	75	17257
2026-01-04 22:53:00.62	22.87	5.75	-51.8	-65.6	3.8	1.49e+00	0	41	104	0	75	17300
2026-01-04 22:53:01.62	22.93	5.82	-51.8	-65.6	3.8	1.49e+00	0	41	104	0	75	17460
2026-01-04 22:53:02.62	22.98	5.89	-51.8	-65.7	3.8	1.49e+00	0	41	104	0	75	17495
2026-01-04 22:53:03.63	23.03	5.96	-51.8	-65.7	3.8	1.49e+00	0	41	104	0	75	17642
2026-01-04 22:53:04.63	23.08	6.03	-51.8	-65.7	3.8	1.49e+00	0	41	104	0	75	17659
2026-01-04 22:53:05.64	23.13	6.10	-51.8	-65.8	3.8	1.49e+00	0	41	104	0	75	17779
2026-01-04 22:53:06.64	23.18	6.17	-51.8	-65.8	3.8	1.49e+00	0	42	104	0	75	17800
2026-01-04 22:53:07.65	23.23	6.24	-51.8	-65.8	3.8	1.49e+00	0	41	104	0	75	17839
2026-01-04 22:53:08.65	23.29	6.31	-51.8	-65.8	3.8	1.49e+00	0	42	104	0	75	17748
2026-01-04 22:53:09.66	23.34	6.38	-51.8	-65.8	3.8	1.49e+00	0	41	104	0	75	17806
2026-01-04 22:53:10.66	23.39	6.45	-51.8	-65.8	3.8	1.49e+00	0	41	104	0	75	17722
2026-01-04 22:53:11.66	23.44	6.52	-51.8	-65.7	3.8	1.49e+00	0	42	104	0	75	17593
2026-01-04 22:53:12.67	23.50	6.59	-51.7	-65.6	3.8	1.49e+00	0	42	104	0	75	17381
2026-01-04 22:53:13.67	23.55	6.67	-51.7	-65.5	3.8	1.49e+00	0	42	104	0	75	17136
2026-01-04 22:53:14.68	23.60	6.74	-51.7	-65.3	3.8	1.49e+00	0	42	104	0	75	16886
2026-01-04 22:53:15.68	23.66	6.81	-51.7	-65.3	3.8	1.49e+00	0	42	104	0	75	16818
2026-01-04 22:53:16.68	23.71	6.88	-51.7	-65.2	3.8	1.49e+00	0	42	104	0	75	16689
2026-01-04 22:53:17.69	23.76	6.95	-51.7	-65.3	3.8	1.49e+00	0	42	104	0	75	16806
2026-01-04 22:53:18.69	23.82	7.03	-51.8	-65.4	3.8	1.49e+00	0	42	104	0	75	17072
2026-01-04 22:53:19.69	23.87	7.10	-51.7	-65.6	3.8	1.49e+00	0	42	104	0	75	17314
2026-01-04 22:53:20.70	23.93	7.17	-51.8	-65.7	3.8	1.49e+00	0	42	104	0	75	17558
2026-01-04 22:53:21.71	23.98	7.25	-51.8	-65.8	3.8	1.49e+00	0	42	104	0	75	17747
2026-01-04 22:53:22.71	24.04	7.32	-51.8	-65.7	3.8	1.49e+00	0	42	104	0	75	17683
2026-01-04 22:53:23.71	24.10	7.39	-51.7	-65.6	3.8	1.49e+00	0	42	104	0	75	17392
2026-01-04 22:53:24.72	24.15	7.47	-51.7	-65.3	3.8	1.49e+00	0	42	104	0	75	16814
2026-01-04 22:53:25.72	24.21	7.54	-51.7	-65.0	3.8	1.49e+00	0	42	104	0	75	16229
2026-01-04 22:53:26.73	24.26	7.61	-51.7	-64.7	3.8	1.49e+00	0	42	104	0	75	15667
2026-01-04 22:53:27.73	24.32	7.69	-51.6	-64.5	3.8	1.49e+00	0	42	104	0	75	15244
2026-01-04 22:53:28.74	24.38	7.76	-51.6	-64.3	3.8	1.49e+00	0	42	104	0	75	14991
2026-01-04 22:53:29.74	24.44	7.84	-51.6	-64.3	3.8	1.49e+00	0	42	104	0	75	15041
2026-01-04 22:53:30.74	24.49	7.91	-51.6	-64.5	3.8	1.49e+00	0	42	104	0	75	15285
2026-01-04 22:53:31.75	24.55	7.99	-51.7	-64.6	3.8	1.49e+00	0	42	104	0	75	15489
2026-01-04 22:53:32.75	24.61	8.06	-51.7	-64.7	3.8	1.49e+00	0	42	104	0	75	15709
2026-01-04 22:53:33.76	24.67	8.14	-51.7	-64.8	3.8	1.49e+00	0	42	104	0	75	15854
2026-01-04 22:53:34.76	24.73	8.21	-51.7	-64.7	3.8	1.49e+00	0	42	104	0	75	15738
2026-01-04 22:53:35.77	24.79	8.29	-51.7	-64.5	3.8	1.49e+00	0	42	104	0	75	15309
2026-01-04 22:53:36.77	24.84	8.36	-51.6	-64.2	3.8	1.49e+00	0	42	104	0	75	14752
2026-01-04 22:53:37.77	24.90	8.44	-51.6	-63.9	3.8	1.49e+00	0	42	104	0	75	14232
2026-01-04 22:53:38.78	24.96	8.52	-51.5	-63.1	4.0	1.48e+00	0	42	104	0	75	13064
2026-01-04 22:53:39.78	25.02	8.59	-51.5	-62.8	4.1	1.47e+00	0	42	104	0	75	12573
2026-01-04 22:53:40.79	25.08	8.67	-51.5	-62.3	4.2	1.46e+00	0	42	104	0	74	12647
2026-01-04 22:53:41.79	25.15	8.75	-51.4	-61.7	4.4	1.45e+00	0	42	104	0	74	11802
2026-01-04 22:53:42.80	25.21	8.83	-51.3	-60.7	4.5	1.02e+00	0	42	104	0	74	10513
2026-01-04 22:53:43.80	25.27	8.90	-51.1	-59.7	5.3	6.00e-01	0	42	0	0	74	9286
2026-01-04 22:53:44.81	25.33	8.98	-50.8	-58.2	6.4	2.93e-01	0	42	0	0	73	8333
2026-01-04 22:53:45.81	25.39	9.06	-50.5	-57.0	7.5	1.45e-01	0	42	0	0	72	7646
2026-01-04 22:53:46.81	25.45	9.14	-49.6	-54.6	10.0	1.68e-02	0	42	0	0	71	6143
2026-01-04 22:53:47.81	25.52	9.21	-51.3	-60.7	4.8	1.27e-01	0	42	0	0	73	11126
2026-01-04 22:53:48.82	25.58	9.29	-49.0	-53.2	11.4	3.75e-02	0	42	0	0	70	5577
2026-01-04 22:53:49.82	25.64	9.37	-51.2	-58.4	6.4	1.06e-01	0	42	0	0	72	8991
2026-01-04 22:53:50.82	25.71	9.45	-46.4	-49.2	15.2	1.29e-05	0	42	0	0	64	4955
2026-01-04 22:53:51.82	25.77	9.53	-45.9	-48.5	16.0	0.00e+00	0	42	0	0	63	4836
2026-01-04 22:53:52.86	25.84	9.61	-45.6	-48.0	16.5	0.00e+00	0	42	0	0	63	4574
2026-01-04 22:53:53.89	25.90	9.69	-45.6	-48.0	16.5	0.00e+00	0	42	0	0	62	4852
2026-01-04 22:53:54.94	25.97	9.78	-45.3	-47.6	16.8	0.00e+00	0	42	0	0	62	4619
2026-01-04 22:53:55.86	26.03	9.85	-45.4	-47.7	16.7	0.00e+00	0	43	0	0	62	4693
2026-01-04 22:53:56.86	26.09	9.93	-45.2	-47.5	17.0	0.00e+00	0	42	0	0	62	4556
2026-01-04 22:53:57.87	26.16	10.01	-45.3	-47.5	16.9	0.00e+00	0	43	0	0	62	4596
2026-01-04 22:53:58.87	26.23	10.09	-45.2	-47.5	17.0	0.00e+00	0	43	0	0	62	4549
2026-01-04 22:53:59.87	26.29	10.17	-44.9	-47.0	17.4	0.00e+00	0	43	0	0	61	4590
2026-01-04 22:54:00.87	26.36	10.25	-44.8	-46.9	17.5	0.00e+00	0	43	0	0	61	4503
2026-01-04 22:54:01.87	26.43	10.34	-44.8	-46.9	17.5	0.00e+00	0	42	0	0	61	4515
2026-01-04 22:54:02.88	26.49	10.42	-44.7	-46.7	17.6	0.00e+00	0	42	0	0	61	4437
2026-01-04 22:54:03.88	26.56	10.50	-44.7	-46.7	17.6	0.00e+00	0	43	0	0	61	4429
2026-01-04 22:54:04.88	26.63	10.58	-44.6	-46.6	17.8	0.00e+00	0	43	0	0	61	4357
2026-01-04 22:54:05.88	26.70	10.66	-44.5	-46.5	17.9	0.00e+00	0	42	0	0	60	4550
2026-01-04 22:54:06.89	26.77	10.75	-44.4	-46.4	18.0	0.00e+00	0	43	0	0	60	4522
2026-01-04 22:54:07.93	26.84	10.83	-44.5	-46.5	18.0	0.00e+00	0	43	0	0	60	4548
2026-01-04 22:54:08.89	26.91	10.91	-44.4	-46.3	18.0	0.00e+00	0	43	0	0	60	4492
2026-01-04 22:54:09.89	26.98	11.00	-44.4	-46.3	18.1	0.00e+00	0	43	0	0	60	4488
2026-01-04 22:54:10.89	27.05	11.08	-44.4	-46.3	18.1	0.00e+00	0	43	0	0	60	4477
2026-01-04 22:54:11.90	27.12	11.16	-44.5	-46.5	18.0	0.00e+00	0	43	0	0	60	4557
2026-01-04 22:54:12.90	27.19	11.25	-44.3	-46.2	18.2	0.00e+00	0	43	0	0	60	4435
2026-01-04 22:54:13.90	27.26	11.33	-44.4	-46.3	18.1	0.00e+00	0	43	0	0	60	4475
2026-01-04 22:54:14.90	27.33	11.42	-44.4	-46.3	18.1	0.00e+00	0	43	0	0	60	4482
2026-01-04 22:54:15.90	27.40	11.50	-44.4	-46.4	18.0	0.00e+00	0	43	0	0	60	4515
2026-01-04 22:54:16.90	27.47	11.59	-44.4	-46.3	18.1	0.00e+00	0	43	0	0	60	4493
2026-01-04 22:54:17.91	27.55	11.67	-44.2	-46.2	18.2	0.00e+00	0	43	0	0	60	4407
2026-01-04 22:54:18.91	27.62	11.76	-44.3	-46.3	18.1	0.00e+00	0	43	0	0	60	4458
2026-01-04 22:54:19.92	27.70	11.85	-44.4	-46.4	18.1	0.00e+00	0	43	0	0	60	4500
2026-01-04 22:54:20.92	27.77	11.93	-44.2	-46.2	18.2	0.00e+00	0	43	0	0	60	4401
2026-01-04 22:54:21.96	27.85	12.02	-44.2	-46.2	18.2	0.00e+00	0	43	0	0	60	4411
2026-01-04 22:54:22.98	27.92	12.11	-44.2	-46.1	18.3	0.00e+00	0	43	0	0	60	4363
2026-01-04 22:54:23.99	28.00	12.20	-44.2	-46.1	18.3	0.00e+00	0	43	0	0	60	4388
2026-01-04 22:54:24.99	28.08	12.28	-44.0	-46.0	18.4	0.00e+00	0	43	0	0	60	4298
2026-01-04 22:54:26.00	28.15	12.37	-44.0	-46.0	18.4	0.00e+00	0	43	0	0	60	4304
2026-01-04 22:54:27.00	28.23	12.46	-44.1	-46.1	18.4	0.00e+00	0	43	0	0	60	4343
2026-01-04 22:54:28.00	28.31	12.55	-44.2	-46.2	18.3	0.00e+00	0	43	0	0	60	4400
2026-01-04 22:54:29.00	28.38	12.64	-44.2	-46.2	18.3	0.00e+00	0	43	0	0	60	4400
2026-01-04 22:54:30.00	28.46	12.72	-44.0	-46.0	18.4	0.00e+00	0	43	0	0	60	4322
2026-01-04 22:54:31.01	28.54	12.81	-44.1	-46.1	18.4	0.00e+00	0	43	0	0	60	4353
2026-01-04 22:54:32.01	28.62	12.90	-44.0	-45.9	18.5	0.00e+00	0	43	0	0	59	4514
2026-01-04 22:54:33.01	28.70	12.99	-43.9	-45.9	18.5	0.00e+00	0	43	0	0	59	4506
2026-01-04 22:54:34.02	28.78	13.08	-43.9	-45.8	18.6	0.00e+00	0	43	0	0	59	4468
2026-01-04 22:54:35.02	28.86	13.17	-43.9	-45.8	18.5	0.00e+00	0	43	0	0	59	4465
2026-01-04 22:54:36.02	28.94	13.26	-44.0	-45.8	18.5	0.00e+00	0	43	0	0	59	4493
2026-01-04 22:54:37.02	29.02	13.35	-43.9	-45.8	18.5	0.00e+00	0	43	0	0	59	4482
2026-01-04 22:54:38.04	29.10	13.45	-43.9	-45.8	18.6	0.00e+00	0	43	0	0	59	4448
2026-01-04 22:54:39.05	29.19	13.54	-43.8	-45.7	18.7	0.00e+00	0	43	0	0	59	4414
2026-01-04 22:54:40.05	29.27	13.63	-43.9	-45.7	18.7	0.00e+00	0	43	0	0	59	4412
2026-01-04 22:54:41.05	29.35	13.72	-43.9	-45.7	18.6	0.00e+00	0	43	0	0	59	4436
2026-01-04 22:54:42.05	29.44	13.81	-43.9	-45.8	18.6	0.00e+00	0	43	0	0	59	4442
2026-01-04 22:54:43.25	29.54	13.92	-43.8	-45.7	18.7	0.00e+00	0	43	0	0	59	4406
2026-01-04 22:54:44.14	29.61	14.01	-44.0	-45.8	18.6	0.00e+00	0	43	0	0	59	4473
2026-01-04 22:54:45.14	29.70	14.10	-44.0	-45.8	18.6	0.00e+00	0	43	0	0	59	4490
2026-01-04 22:54:46.15	29.78	14.19	-44.0	-45.9	18.5	0.00e+00	0	43	0	0	59	4513
2026-01-04 22:54:47.15	29.87	14.29	-44.0	-45.9	18.6	0.00e+00	0	43	0	0	59	4494
2026-01-04 22:54:48.15	29.96	14.38	-44.0	-45.8	18.5	0.00e+00	0	43	0	0	59	4490
2026-01-04 22:54:49.16	30.04	14.48	-43.9	-45.8	18.6	0.00e+00	0	43	0	0	59	4445
2026-01-04 22:54:50.16	30.13	14.57	-44.0	-45.9	18.5	0.00e+00	0	43	0	0	59	4498
2026-01-04 22:54:51.16	30.22	14.66	-43.9	-45.7	18.6	0.00e+00	0	43	0	0	59	4436
2026-01-04 22:54:52.16	30.31	14.76	-43.9	-45.7	18.7	0.00e+00	0	43	0	0	59	4411
2026-01-04 22:54:53.17	30.40	14.86	-43.9	-45.7	18.7	0.00e+00	0	43	0	0	59	4421
2026-01-04 22:54:54.17	30.49	14.95	-43.9	-45.7	18.7	0.00e+00	0	43	0	0	59	4416
2026-01-04 22:54:55.17	30.58	15.05	-43.9	-45.7	18.6	0.00e+00	0	43	0	0	59	4434
2026-01-04 22:54:56.19	30.67	15.15	-43.8	-45.7	18.7	0.00e+00	0	43	0	0	59	4402
2026-01-04 22:54:57.20	30.76	15.24	-43.9	-45.8	18.6	0.00e+00	0	43	0	0	59	4458
2026-01-04 22:54:58.20	30.86	15.34	-43.9	-45.7	18.7	0.00e+00	0	43	0	0	59	4438
2026-01-04 22:54:59.20	30.95	15.44	-43.9	-45.8	18.7	0.00e+00	0	43	0	0	59	4444
2026-01-04 22:55:00.21	31.04	15.54	-44.0	-45.8	18.6	0.00e+00	0	43	0	0	59	4482
2026-01-04 22:55:01.21	31.14	15.63	-44.0	-45.9	18.6	0.00e+00	0	43	0	0	59	4503
2026-01-04 22:55:02.21	31.23	15.73	-44.0	-45.9	18.5	0.00e+00	0	43	0	0	59	4536
2026-01-04 22:55:03.44	31.35	15.85	-44.1	-46.0	18.5	0.00e+00	0	43	0	0	59	4560
2026-01-04 22:55:04.33	31.43	15.94	-44.1	-46.0	18.5	0.00e+00	0	43	0	0	59	4552
2026-01-04 22:55:05.48	31.54	16.06	-44.1	-46.1	18.4	0.00e+00	0	43	0	0	59	4613
2026-01-04 22:55:06.34	31.63	16.14	-44.2	-46.1	18.4	0.00e+00	0	43	0	0	59	4645
2026-01-04 22:55:07.48	31.74	16.26	-44.2	-46.2	18.3	0.00e+00	0	43	0	0	59	4653
2026-01-04 22:55:08.34	31.82	16.34	-44.3	-46.2	18.3	0.00e+00	0	43	0	0	59	4679
2026-01-04 22:55:09.49	31.94	16.46	-44.3	-46.2	18.2	0.00e+00	0	43	0	0	59	4693
2026-01-04 22:55:10.35	32.02	16.54	-44.3	-46.2	18.3	0.00e+00	0	43	0	0	59	4698
2026-01-04 22:55:11.49	32.14	16.66	-44.3	-46.2	18.3	0.00e+00	0	43	0	0	59	4689
2026-01-04 22:55:12.36	32.22	16.75	-44.3	-46.2	18.2	0.00e+00	0	43	0	0	59	4702
2026-01-04 22:55:13.50	32.34	16.86	-44.2	-46.1	18.4	0.00e+00	0	43	0	0	59	4614
2026-01-04 22:55:14.36	32.43	16.95	-44.3	-46.2	18.2	0.00e+00	0	43	0	0	59	4702
2026-01-04 22:55:15.51	32.55	17.07	-44.4	-46.3	18.2	0.00e+00	0	43	0	0	59	4728
2026-01-04 22:55:16.37	32.63	17.16	-44.2	-46.1	18.3	0.00e+00	0	43	0	0	59	4643
2026-01-04 22:55:17.62	32.76	17.29	-44.4	-46.2	18.2	0.00e+00	0	43	0	0	59	4704
2026-01-04 22:55:18.34	32.84	17.36	-44.5	-46.4	18.1	0.00e+00	0	43	0	0	59	4776
2026-01-04 22:55:19.63	32.98	17.50	-44.4	-46.3	18.2	0.00e+00	0	43	0	0	59	4738
2026-01-04 22:55:20.35	33.05	17.57	-44.4	-46.3	18.1	0.00e+00	0	43	0	0	59	4738
2026-01-04 22:55:21.64	33.19	17.71	-44.4	-46.3	18.2	0.00e+00	0	43	0	0	59	4731
2026-01-04 22:55:22.35	33.27	17.78	-44.3	-46.2	18.2	0.00e+00	0	43	0	0	59	4702
2026-01-04 22:55:23.65	33.41	17.92	-44.4	-46.3	18.2	0.00e+00	0	43	0	0	59	4744
2026-01-04 22:55:24.36	33.48	18.00	-44.4	-46.4	18.1	0.00e+00	0	43	0	0	59	4783
2026-01-04 22:55:25.65	33.63	18.13	-44.4	-46.4	18.1	0.00e+00	0	43	0	0	59	4763
2026-01-04 22:55:26.37	33.71	18.21	-44.4	-46.4	18.1	0.00e+00	0	43	0	0	59	4761
2026-01-04 22:55:27.66	33.85	18.35	-44.4	-46.4	18.2	0.00e+00	0	43	0	0	59	4760
2026-01-04 22:55:28.37	33.93	18.42	-44.4	-46.4	18.1	0.00e+00	0	43	0	0	59	4772
2026-01-04 22:55:29.67	34.08	18.56	-44.4	-46.3	18.2	0.00e+00	0	43	0	0	59	4754
2026-01-04 22:55:30.38	34.16	18.64	-44.4	-46.3	18.2	0.00e+00	0	43	0	0	59	4739
2026-01-04 22:55:31.78	34.32	18.79	-44.4	-46.3	18.2	0.00e+00	0	43	0	0	59	4759
2026-01-04 22:55:32.50	34.40	18.87	-44.4	-46.3	18.2	0.00e+00	0	43	0	0	59	4720
2026-01-04 22:55:33.86	34.56	19.02	-44.3	-46.1	18.4	0.00e+00	0	43	0	0	59	4643
2026-01-04 22:55:34.57	34.64	19.10	-44.3	-46.1	18.4	0.00e+00	0	43	0	0	59	4636
2026-01-04 22:55:35.86	34.79	19.24	-44.2	-46.1	18.4	0.00e+00	0	43	0	0	59	4603
2026-01-04 22:55:36.58	34.88	19.32	-44.1	-46.0	18.5	0.00e+00	0	43	0	0	59	4559
2026-01-04 22:55:37.87	35.03	19.46	-44.2	-46.1	18.4	0.00e+00	0	43	0	0	59	4604
2026-01-04 22:55:38.58	35.12	19.54	-44.1	-45.9	18.5	0.00e+00	0	43	0	0	59	4538
2026-01-04 22:55:39.87	35.27	19.69	-44.1	-45.9	18.5	0.00e+00	0	43	0	0	59	4526
2026-01-04 22:55:40.59	35.36	19.77	-44.1	-46.0	18.5	0.00e+00	0	43	0	0	59	4549
2026-01-04 22:55:41.88	35.52	19.91	-44.0	-45.8	18.6	0.00e+00	0	43	0	0	59	4482
2026-01-04 22:55:42.60	35.61	19.99	-44.0	-45.9	18.5	0.00e+00	0	43	0	0	59	4502
2026-01-04 22:55:43.89	35.77	20.14	-43.9	-45.7	18.7	0.00e+00	0	43	0	0	59	4425
2026-01-04 22:55:44.60	35.86	20.22	-43.8	-45.6	18.8	0.00e+00	0	43	0	0	59	4353
2026-01-04 22:55:45.89	36.02	20.37	-43.8	-45.6	18.8	0.00e+00	0	43	0	0	59	4376
2026-01-04 22:55:46.61	36.11	20.45	-43.7	-45.5	18.9	0.00e+00	0	43	0	0	59	4337
2026-01-04 22:55:47.90	36.28	20.60	-43.7	-45.5	18.9	0.00e+00	0	43	0	0	59	4310
2026-01-04 22:55:48.61	36.37	20.68	-43.7	-45.5	18.9	0.00e+00	0	43	0	0	59	4316
2026-01-04 22:55:50.06	36.56	20.85	-43.7	-45.4	19.0	0.00e+00	0	43	0	0	59	4288
2026-01-04 22:55:50.78	36.65	20.93	-43.6	-45.4	19.0	0.00e+00	0	43	0	0	59	4263
2026-01-04 22:55:52.11	36.83	21.08	-43.5	-45.3	19.0	0.00e+00	0	43	0	0	59	4227
2026-01-04 22:55:52.82	36.92	21.17	-43.5	-45.3	19.0	0.00e+00	0	43	0	0	59	4226
2026-01-04 22:55:54.12	37.10	21.32	-43.4	-45.1	19.2	0.00e+00	0	43	0	0	58	4387
2026-01-04 22:55:55.20	37.24	21.45	-43.5	-45.3	19.1	0.00e+00	0	43	0	0	58	4445
2026-01-04 22:55:56.06	37.36	21.55	-43.5	-45.2	19.1	0.00e+00	0	43	0	0	58	4429
2026-01-04 22:55:57.20	37.52	21.68	-43.4	-45.1	19.3	0.00e+00	0	43	0	0	58	4362
2026-01-04 22:55:58.06	37.64	21.79	-43.4	-45.2	19.2	0.00e+00	0	43	0	0	58	4401
2026-01-04 22:55:59.20	37.79	21.92	-43.4	-45.1	19.2	0.00e+00	0	43	0	0	58	4377
2026-01-04 22:56:00.06	37.92	22.02	-43.3	-45.0	19.3	0.00e+00	0	43	0	0	58	4319
2026-01-04 22:56:01.31	38.09	22.17	-43.3	-45.1	19.3	0.00e+00	0	43	0	0	58	4342
2026-01-04 22:56:02.16	38.21	22.28	-43.3	-45.0	19.3	0.00e+00	0	43	0	0	58	4328
2026-01-04 22:56:03.31	38.38	22.42	-43.2	-45.0	19.4	0.00e+00	0	43	0	0	58	4308
2026-01-04 22:56:04.17	38.50	22.52	-43.2	-45.0	19.4	0.00e+00	0	43	0	0	58	4294
2026-01-04 22:56:05.44	38.69	22.67	-43.0	-44.8	19.6	0.00e+00	0	43	0	0	58	4202
2026-01-04 22:56:06.16	38.79	22.76	-43.1	-44.9	19.5	0.00e+00	0	43	0	0	58	4253
2026-01-04 22:56:07.45	38.99	22.92	-43.0	-44.7	19.6	0.00e+00	0	43	0	0	58	4189
2026-01-04 22:56:08.17	39.09	23.01	-43.0	-44.7	19.6	0.00e+00	0	43	0	0	57	4418
2026-01-04 22:56:09.46	39.29	23.17	-43.0	-44.7	19.6	0.00e+00	0	43	0	0	57	4425
2026-01-04 22:56:10.17	39.39	23.26	-43.1	-44.8	19.5	0.00e+00	0	43	0	0	57	4480
2026-01-04 22:56:11.46	39.59	23.42	-42.9	-44.7	19.7	0.00e+00	0	43	0	0	57	4396
2026-01-04 22:56:12.18	39.70	23.50	-42.9	-44.6	19.7	0.00e+00	0	43	0	0	57	4378
2026-01-04 22:56:13.47	39.90	23.67	-42.9	-44.6	19.7	0.00e+00	0	43	0	0	57	4388
2026-01-04 22:56:14.18	40.01	23.75	-42.9	-44.6	19.8	0.00e+00	0	43	0	0	57	4348
2026-01-04 22:56:15.49	40.22	23.92	-43.0	-44.7	19.7	0.00e+00	0	43	0	0	57	4425
2026-01-04 22:56:16.21	40.33	24.01	-42.9	-44.7	19.8	0.00e+00	0	43	0	0	57	4400
2026-01-04 22:56:17.50	40.54	24.17	-43.0	-44.7	19.7	0.00e+00	0	43	0	0	57	4416
2026-01-04 22:56:18.21	40.66	24.26	-43.1	-44.9	19.6	0.00e+00	0	43	0	0	57	4494
2026-01-04 22:56:19.50	40.87	24.43	-43.1	-44.8	19.7	0.00e+00	0	43	0	0	57	4474
2026-01-04 22:56:20.22	40.98	24.52	-42.9	-44.7	19.8	0.00e+00	0	43	0	0	57	4393
2026-01-04 22:56:21.51	41.20	24.68	-43.0	-44.7	19.8	0.00e+00	0	43	0	0	57	4413
2026-01-04 22:56:22.22	41.32	24.78	-43.0	-44.8	19.7	0.00e+00	0	43	0	0	57	4447
2026-01-04 22:56:23.77	41.58	24.97	-43.1	-44.8	19.7	0.00e+00	0	43	0	0	57	4492
2026-01-04 22:56:24.48	41.70	25.07	-43.1	-44.8	19.7	0.00e+00	0	43	0	0	57	4472
2026-01-04 22:56:25.77	41.92	25.23	-43.2	-44.9	19.6	0.00e+00	0	43	0	0	57	4523
2026-01-04 22:56:26.49	42.04	25.33	-43.2	-44.9	19.6	0.00e+00	0	43	0	0	57	4510
2026-01-04 22:56:27.78	42.26	25.50	-43.2	-44.9	19.6	0.00e+00	0	43	0	0	57	4513
2026-01-04 22:56:28.50	42.39	25.59	-43.3	-45.0	19.5	0.00e+00	0	43	0	0	57	4574
2026-01-04 22:56:29.78	42.62	25.76	-43.3	-45.1	19.5	0.00e+00	0	43	0	0	57	4599
2026-01-04 22:56:30.50	42.75	25.85	-43.3	-45.0	19.5	0.00e+00	0	43	0	0	57	4577
2026-01-04 22:56:31.79	42.98	26.02	-43.3	-45.1	19.4	0.00e+00	0	43	0	0	57	4610
2026-01-04 22:56:32.50	43.11	26.12	-43.4	-45.1	19.3	0.00e+00	0	43	0	0	57	4651
2026-01-04 22:56:33.79	43.34	26.29	-43.6	-45.4	19.2	0.00e+00	0	43	0	0	57	4763
2026-01-04 22:56:34.67	43.50	26.40	-43.6	-45.4	19.1	0.00e+00	0	43	0	0	57	4801
2026-01-04 22:56:36.13	43.77	26.60	-43.9	-45.7	18.8	0.00e+00	0	43	0	0	58	4700
2026-01-04 22:56:37.23	43.98	26.75	-44.1	-45.9	18.7	0.00e+00	0	43	0	0	58	4791
2026-01-04 22:56:38.09	44.14	26.86	-44.2	-46.0	18.6	0.00e+00	0	43	0	0	59	4586
2026-01-04 22:56:39.23	44.36	27.01	-44.2	-46.1	18.5	0.00e+00	0	43	0	0	59	4637
2026-01-04 22:56:40.09	44.53	27.13	-44.3	-46.2	18.4	0.00e+00	0	43	0	0	59	4681
2026-01-04 22:56:41.30	44.76	27.29	-44.4	-46.3	18.4	0.00e+00	0	43	0	0	59	4718
2026-01-04 22:56:42.16	44.93	27.41	-44.4	-46.3	18.4	0.00e+00	0	43	0	0	59	4712
2026-01-04 22:56:43.30	45.15	27.57	-44.3	-46.2	18.5	0.00e+00	0	43	0	0	59	4657
2026-01-04 22:56:44.16	45.33	27.68	-44.5	-46.4	18.3	0.00e+00	0	43	0	0	59	4776
2026-01-04 22:56:45.31	45.56	27.84	-44.5	-46.4	18.3	0.00e+00	0	44	0	0	59	4777
2026-01-04 22:56:46.20	45.74	27.96	-44.4	-46.3	18.4	0.00e+00	0	43	0	0	59	4751
2026-01-04 22:56:47.41	45.98	28.13	-44.5	-46.5	18.3	0.00e+00	0	43	0	0	59	4815
2026-01-04 22:56:48.27	46.16	28.25	-44.5	-46.4	18.2	0.00e+00	0	43	0	0	59	4806
2026-01-04 22:56:49.61	46.44	28.43	-44.4	-46.3	18.3	0.00e+00	0	43	0	0	59	4734
2026-01-04 22:56:50.33	46.59	28.53	-44.5	-46.4	18.3	0.00e+00	0	43	0	0	59	4774
2026-01-04 22:56:51.61	46.86	28.71	-44.5	-46.4	18.3	0.00e+00	0	43	0	0	59	4785
2026-01-04 22:56:52.33	47.01	28.81	-44.5	-46.4	18.3	0.00e+00	0	43	0	0	59	4762
2026-01-04 22:56:53.61	47.29	28.98	-44.3	-46.2	18.4	0.00e+00	0	43	0	0	59	4655
2026-01-04 22:56:54.33	47.45	29.08	-44.2	-46.1	18.5	0.00e+00	0	43	0	0	59	4626
2026-01-04 22:56:55.62	47.73	29.26	-44.3	-46.2	18.5	0.00e+00	0	44	0	0	59	4652
2026-01-04 22:56:56.33	47.89	29.36	-44.2	-46.0	18.6	0.00e+00	0	43	0	0	59	4571
2026-01-04 22:56:57.62	48.17	29.54	-44.1	-46.0	18.7	0.00e+00	0	43	0	0	59	4558
2026-01-04 22:56:58.56	48.38	29.68	-44.1	-45.9	18.7	0.00e+00	0	43	0	0	59	4537
2026-01-04 22:56:59.57	48.61	29.82	-44.0	-45.8	18.8	0.00e+00	0	43	0	0	59	4485
2026-01-04 22:57:00.57	48.84	29.96	-44.0	-45.8	18.8	0.00e+00	0	43	0	0	59	4483
2026-01-04 22:57:01.58	49.07	30.10	-44.1	-45.9	18.7	0.00e+00	0	43	0	0	59	4518
2026-01-04 22:57:02.58	49.31	30.24	-44.0	-45.8	18.8	0.00e+00	0	43	0	0	59	4474
2026-01-04 22:57:03.58	49.54	30.38	-43.9	-45.7	18.9	0.00e+00	0	43	0	0	59	4441
2026-01-04 22:57:04.58	49.78	30.52	-43.9	-45.7	18.9	0.00e+00	0	43	0	0	59	4398
2026-01-04 22:57:05.59	50.02	30.67	-43.8	-45.5	19.0	0.00e+00	0	43	0	0	59	4338
2026-01-04 22:57:06.59	50.26	30.81	-43.6	-45.3	19.2	0.00e+00	0	43	0	0	59	4226
2026-01-04 22:57:07.64	50.51	30.96	-43.5	-45.3	19.3	0.00e+00	0	43	0	0	59	4204
2026-01-04 22:57:08.57	50.74	31.09	-43.7	-45.4	19.2	0.00e+00	0	43	0	0	59	4286
2026-01-04 22:57:09.58	50.99	31.23	-43.8	-45.5	19.1	0.00e+00	0	43	0	0	59	4338
2026-01-04 22:57:10.58	51.24	31.38	-43.8	-45.6	19.0	0.00e+00	0	43	0	0	59	4374
2026-01-04 22:57:11.58	51.49	31.52	-43.8	-45.6	19.0	0.00e+00	0	43	0	0	59	4391
2026-01-04 22:57:12.76	51.79	31.69	-43.8	-45.6	19.0	0.00e+00	0	43	0	0	59	4360
2026-01-04 22:57:13.65	52.02	31.81	-43.8	-45.6	19.0	0.00e+00	0	43	0	0	59	4358
2026-01-04 22:57:14.80	52.32	31.98	-43.8	-45.6	18.9	0.00e+00	0	43	0	0	59	4385
2026-01-04 22:57:15.70	52.55	32.11	-43.9	-45.7	18.9	0.00e+00	0	43	0	0	59	4412
2026-01-04 22:57:16.87	52.86	32.27	-44.0	-45.9	18.7	0.00e+00	0	43	0	0	59	4497
2026-01-04 22:57:17.76	53.09	32.40	-44.1	-45.9	18.7	0.00e+00	0	43	0	0	59	4530
2026-01-04 22:57:18.90	53.40	32.56	-44.2	-46.1	18.5	0.00e+00	0	43	0	0	59	4610
2026-01-04 22:57:19.82	53.65	32.69	-44.3	-46.1	18.4	0.00e+00	0	44	0	0	59	4630
2026-01-04 22:57:21.00	53.97	32.86	-44.3	-46.1	18.5	0.00e+00	0	43	0	0	59	4644
2026-01-04 22:57:21.85	54.20	32.98	-44.2	-46.1	18.6	0.00e+00	0	43	0	0	59	4606
2026-01-04 22:57:23.00	54.52	33.15	-44.3	-46.1	18.5	0.00e+00	0	43	0	0	59	4628
2026-01-04 22:57:23.86	54.76	33.27	-44.3	-46.2	18.5	0.00e+00	0	43	0	0	59	4656
2026-01-04 22:57:25.00	55.08	33.43	-44.4	-46.3	18.4	0.00e+00	0	43	0	0	59	4710
2026-01-04 22:57:25.86	55.33	33.56	-44.3	-46.2	18.4	0.00e+00	0	43	0	0	59	4675
2026-01-04 22:57:27.00	55.65	33.72	-44.5	-46.3	18.2	0.00e+00	0	43	0	0	59	4758
2026-01-04 22:57:27.87	55.91	33.84	-44.6	-46.5	18.1	0.00e+00	0	43	0	0	59	4852
2026-01-04 22:57:29.01	56.24	34.00	-44.7	-46.6	17.9	0.00e+00	0	43	0	0	59	4885
2026-01-04 22:57:29.87	56.49	34.13	-44.7	-46.6	18.0	0.00e+00	0	43	0	0	60	4644
2026-01-04 22:57:31.02	56.83	34.29	-44.7	-46.6	18.1	0.00e+00	0	44	0	0	60	4612
2026-01-04 22:57:31.87	57.09	34.41	-44.7	-46.7	18.0	0.00e+00	0	43	0	0	60	4665
2026-01-04 22:57:33.02	57.44	34.57	-44.7	-46.6	18.0	0.00e+00	0	43	0	0	60	4624
2026-01-04 22:57:33.87	57.69	34.69	-44.8	-46.8	17.9	0.00e+00	0	43	0	0	60	4734
2026-01-04 22:57:35.02	58.05	34.85	-45.0	-47.0	17.8	0.00e+00	0	43	0	0	60	4818
2026-01-04 22:57:35.88	58.31	34.97	-45.1	-47.1	17.7	0.00e+00	0	43	0	0	60	4884
2026-01-04 22:57:37.13	58.71	35.15	-45.2	-47.2	17.6	0.00e+00	0	43	0	0	61	4688
2026-01-04 22:57:37.87	58.94	35.25	-45.3	-47.3	17.5	0.00e+00	0	43	0	0	61	4759
2026-01-04 22:57:39.15	59.35	35.43	-45.2	-47.2	17.6	0.00e+00	0	43	0	0	61	4694
2026-01-04 22:57:39.87	59.58	35.53	-45.2	-47.2	17.7	0.00e+00	0	43	0	0	61	4652
2026-01-04 22:57:41.16	59.99	35.71	-45.1	-47.0	17.7	0.00e+00	0	43	0	0	61	4566
2026-01-04 22:57:41.89	60.23	35.81	-45.0	-46.9	17.9	0.00e+00	0	43	0	0	61	4515
2026-01-04 22:57:43.18	60.66	35.99	-45.1	-47.1	17.7	0.00e+00	0	43	0	0	61	4621
2026-01-04 22:57:43.98	60.92	36.10	-45.3	-47.3	17.5	0.00e+00	0	43	0	0	61	4722
2026-01-04 22:57:45.12	61.30	36.26	-45.3	-47.3	17.5	0.00e+00	0	43	0	0	61	4717
2026-01-04 22:57:46.22	61.68	36.41	-45.3	-47.3	17.5	0.00e+00	0	43	0	0	61	4740
2026-01-04 22:57:47.26	62.03	36.55	-45.2	-47.2	17.6	0.00e+00	0	43	0	0	61	4681
2026-01-04 22:57:48.25	62.37	36.68	-45.0	-46.9	17.8	0.00e+00	0	43	0	0	61	4545
2026-01-04 22:57:49.26	62.72	36.82	-44.9	-46.8	18.0	0.00e+00	0	44	0	0	61	4482
2026-01-04 22:57:50.26	63.07	36.95	-44.9	-46.8	18.0	0.00e+00	0	43	0	0	61	4483
2026-01-04 22:57:51.51	63.51	37.12	-44.9	-46.9	17.9	0.00e+00	0	43	0	0	61	4510
2026-01-04 22:57:52.32	63.80	37.23	-44.9	-46.9	17.9	0.00e+00	0	44	0	0	61	4498
2026-01-04 22:57:53.47	64.21	37.38	-45.0	-46.9	17.9	0.00e+00	0	43	0	0	61	4545
2026-01-04 22:57:54.33	64.52	37.49	-45.1	-47.1	17.7	0.00e+00	0	43	0	0	61	4610
2026-01-04 22:57:55.48	64.94	37.64	-45.2	-47.2	17.7	0.00e+00	0	43	0	0	61	4701
2026-01-04 22:57:56.33	65.25	37.75	-45.5	-47.6	17.4	0.00e+00	0	43	0	0	61	4876
2026-01-04 22:57:57.48	65.68	37.90	-45.6	-47.7	17.2	0.00e+00	0	43	0	0	61	4928
2026-01-04 22:57:58.34	66.00	38.01	-45.4	-47.4	17.5	0.00e+00	0	43	0	0	61	4805
2026-01-04 22:57:59.49	66.43	38.16	-45.3	-47.3	17.6	0.00e+00	0	43	0	0	61	4715
2026-01-04 22:58:00.35	66.76	38.27	-45.3	-47.3	17.6	0.00e+00	0	43	0	0	61	4757
2026-01-04 22:58:01.50	67.20	38.41	-45.3	-47.3	17.6	0.00e+00	0	43	0	0	61	4728
2026-01-04 22:58:02.36	67.53	38.52	-45.5	-47.5	17.4	0.00e+00	0	43	0	0	61	4849
2026-01-04 22:58:03.50	67.97	38.66	-45.8	-48.0	17.0	0.00e+00	0	43	0	0	62	4818
2026-01-04 22:58:04.36	68.30	38.77	-45.9	-48.1	16.9	0.00e+00	0	43	0	0	62	4876
2026-01-04 22:58:05.51	68.76	38.91	-46.0	-48.2	16.7	0.00e+00	0	43	0	0	62	4942
2026-01-04 22:58:06.37	69.10	39.01	-46.1	-48.2	16.7	0.00e+00	0	43	0	0	62	4962
2026-01-04 22:58:07.52	69.56	39.15	-46.1	-48.3	16.7	0.00e+00	0	43	0	0	62	5015
2026-01-04 22:58:08.37	69.90	39.25	-46.1	-48.3	16.7	0.00e+00	0	43	0	0	62	4985
2026-01-04 22:58:09.52	70.36	39.39	-46.1	-48.2	16.7	0.00e+00	0	43	0	0	62	4961
2026-01-04 22:58:10.38	70.71	39.49	-46.0	-48.2	16.7	0.00e+00	0	43	0	0	62	4946
2026-01-04 22:58:11.52	71.18	39.62	-46.2	-48.4	16.4	0.00e+00	0	43	0	0	63	4812
2026-01-04 22:58:12.38	71.54	39.71	-46.4	-48.6	16.3	0.00e+00	0	43	0	0	63	4906
2026-01-04 22:58:13.53	72.02	39.84	-46.3	-48.6	16.4	0.00e+00	0	43	0	0	63	4877
2026-01-04 22:58:14.39	72.38	39.94	-46.3	-48.5	16.5	0.00e+00	0	43	0	0	63	4815
2026-01-04 22:58:15.54	72.86	40.06	-46.1	-48.3	16.7	0.00e+00	0	43	0	0	63	4709
2026-01-04 22:58:16.40	73.23	40.16	-46.2	-48.4	16.6	0.00e+00	0	43	0	0	63	4770
2026-01-04 22:58:17.55	73.72	40.28	-46.2	-48.5	16.5	0.00e+00	0	43	0	0	63	4817
2026-01-04 22:58:18.40	74.09	40.37	-46.3	-48.5	16.4	0.00e+00	0	43	0	0	63	4865
2026-01-04 22:58:19.55	74.59	40.49	-46.3	-48.5	16.5	0.00e+00	0	43	0	0	63	4853
2026-01-04 22:58:20.41	74.96	40.58	-46.3	-48.5	16.4	0.00e+00	0	43	0	0	63	4847
2026-01-04 22:58:21.69	75.52	40.71	-46.4	-48.7	16.3	0.00e+00	0	43	0	0	63	4931
2026-01-04 22:58:22.40	75.84	40.78	-46.3	-48.6	16.3	0.00e+00	0	43	0	0	63	4918
2026-01-04 22:58:23.69	76.41	40.90	-46.5	-48.8	16.1	0.00e+00	0	43	0	0	63	4987
2026-01-04 22:58:24.41	76.73	40.97	-46.2	-48.5	16.4	0.00e+00	0	43	0	0	63	4828
2026-01-04 22:58:25.70	77.31	41.09	-45.8	-47.9	16.9	0.00e+00	0	43	0	0	63	4531
2026-01-04 22:58:26.41	77.63	41.16	-45.8	-47.9	17.0	0.00e+00	0	43	0	0	63	4504
2026-01-04 22:58:27.70	78.22	41.28	-46.0	-48.1	16.7	0.00e+00	0	43	0	0	63	4635
2026-01-04 22:58:28.42	78.55	41.34	-46.2	-48.4	16.4	0.00e+00	0	43	0	0	63	4795
2026-01-04 22:58:29.71	79.14	41.45	-46.4	-48.6	16.3	0.00e+00	0	44	0	0	63	4900
2026-01-04 22:58:30.42	79.47	41.51	-46.2	-48.5	16.4	0.00e+00	0	43	0	0	63	4830
2026-01-04 22:58:31.71	80.07	41.62	-46.0	-48.2	16.6	0.00e+00	0	43	0	0	63	4662
2026-01-04 22:58:32.43	80.41	41.68	-45.8	-48.0	16.7	0.00e+00	0	43	0	0	63	4552
2026-01-04 22:58:33.72	81.02	41.78	-45.9	-48.1	16.5	0.00e+00	0	43	0	0	63	4629
2026-01-04 22:58:34.44	81.36	41.84	-46.0	-48.2	16.6	0.00e+00	0	43	0	0	63	4662
2026-01-04 22:58:35.73	81.97	41.94	-46.1	-48.3	16.6	0.00e+00	0	44	0	0	63	4722
2026-01-04 22:58:36.44	82.31	41.99	-45.9	-48.1	16.7	0.00e+00	0	43	0	0	63	4644
2026-01-04 22:58:37.76	82.94	42.08	-45.7	-47.8	17.0	0.00e+00	0	43	0	0	63	4474
2026-01-04 22:58:38.48	83.28	42.13	-45.6	-47.7	17.1	0.00e+00	0	43	0	0	63	4414
2026-01-04 22:58:39.77	83.91	42.22	-45.8	-47.9	16.8	0.00e+00	0	43	0	0	63	4539
2026-01-04 22:58:40.48	84.25	42.27	-46.0	-48.2	16.7	0.00e+00	0	43	0	0	63	4670
2026-01-04 22:58:41.77	84.88	42.35	-45.9	-48.0	16.9	0.00e+00	0	44	0	0	63	4597
2026-01-04 22:58:42.49	85.23	42.39	-45.8	-47.9	17.0	0.00e+00	0	43	0	0	63	4541
2026-01-04 22:58:43.78	85.86	42.47	-45.9	-48.1	16.8	0.00e+00	0	44	0	0	63	4614
2026-01-04 22:58:44.49	86.21	42.51	-46.1	-48.4	16.6	0.00e+00	0	44	0	0	63	4764
2026-01-04 22:58:45.78	86.85	42.58	-46.4	-48.7	16.2	0.00e+00	0	43	0	0	63	4940
2026-01-04 22:58:46.50	87.21	42.62	-46.3	-48.5	16.4	0.00e+00	0	43	0	0	63	4867
2026-01-04 22:58:47.79	87.85	42.68	-46.0	-48.2	16.8	0.00e+00	0	43	0	0	63	4655
2026-01-04 22:58:48.51	88.21	42.72	-45.8	-48.0	16.9	0.00e+00	0	43	0	0	63	4573
2026-01-04 22:58:49.80	88.85	42.77	-45.7	-47.8	17.0	0.00e+00	0	43	0	0	63	4469
2026-01-04 22:58:50.51	89.21	42.80	-45.6	-47.8	17.1	0.00e+00	0	43	0	0	63	4445
2026-01-04 22:58:51.80	89.86	42.86	-45.8	-48.0	17.0	0.00e+00	0	43	0	0	63	4555
2026-01-04 22:58:52.51	90.21	42.88	-45.8	-47.9	17.0	0.00e+00	0	43	0	0	63	4506
2026-01-04 22:58:53.80	90.86	42.93	-45.9	-48.0	16.9	0.00e+00	0	43	0	0	63	4557
2026-01-04 22:58:54.51	91.22	42.95	-45.7	-47.8	17.1	0.00e+00	0	43	0	0	63	4475
2026-01-04 22:58:55.80	91.88	42.99	-45.7	-47.8	17.1	0.00e+00	0	44	0	0	63	4449
2026-01-04 22:58:56.52	92.24	43.01	-45.9	-48.0	16.9	0.00e+00	0	43	0	0	63	4560
2026-01-04 22:58:57.81	92.90	43.05	-46.2	-48.4	16.5	0.00e+00	0	43	0	0	63	4812
2026-01-04 22:58:58.52	93.26	43.06	-46.2	-48.4	16.5	0.00e+00	0	43	0	0	63	4796
2026-01-04 22:58:59.81	93.92	43.09	-45.9	-48.0	16.8	0.00e+00	0	43	0	0	63	4577
2026-01-04 22:59:00.53	94.29	43.10	-46.0	-48.2	16.6	0.00e+00	0	43	0	0	63	4674
2026-01-04 22:59:01.82	94.95	43.12	-46.1	-48.3	16.5	0.00e+00	0	43	0	0	63	4714
2026-01-04 22:59:02.53	95.31	43.13	-45.9	-48.1	16.7	0.00e+00	0	43	0	0	63	4631
2026-01-04 22:59:03.82	95.98	43.15	-45.7	-47.8	17.0	0.00e+00	0	43	0	0	63	4488
2026-01-04 22:59:04.64	96.40	43.16	-45.8	-47.9	17.0	0.00e+00	0	43	0	0	63	4512
2026-01-04 22:59:06.12	97.16	43.16	-45.6	-47.6	17.2	0.00e+00	0	43	0	0	63	4373
2026-01-04 22:59:06.83	97.52	43.17	-45.6	-47.7	17.1	0.00e+00	0	44	0	0	63	4415
2026-01-04 22:59:08.12	98.18	43.17	-45.7	-47.8	17.0	0.00e+00	0	43	0	0	63	4455
2026-01-04 22:59:08.83	98.55	43.16	-45.6	-47.7	17.1	0.00e+00	0	44	0	0	63	4427
2026-01-04 22:59:10.12	99.21	43.16	-45.7	-47.9	16.9	0.00e+00	0	44	0	0	63	4508
2026-01-04 22:59:10.84	99.58	43.15	-45.9	-48.0	16.7	0.00e+00	0	43	0	0	63	4580
2026-01-04 22:59:12.13	100.24	43.14	-46.3	-48.5	16.3	0.00e+00	0	43	0	0	63	4817
2026-01-04 22:59:12.97	100.67	43.13	-46.4	-48.7	16.1	0.00e+00	0	43	0	0	63	4958
2026-01-04 22:59:14.12	101.26	43.11	-46.4	-48.7	16.1	0.00e+00	0	43	0	0	63	4953
2026-01-04 22:59:14.98	101.70	43.10	-46.2	-48.4	16.5	0.00e+00	0	43	0	0	63	4809
2026-01-04 22:59:16.12	102.28	43.07	-46.1	-48.3	16.5	0.00e+00	0	43	0	0	63	4724
2026-01-04 22:59:16.98	102.72	43.06	-46.2	-48.4	16.4	0.00e+00	0	44	0	0	63	4762
2026-01-04 22:59:18.13	103.31	43.03	-46.1	-48.3	16.5	0.00e+00	0	43	0	0	63	4721
2026-01-04 22:59:19.35	103.93	42.99	-46.0	-48.1	16.7	0.00e+00	0	44	0	0	63	4627
2026-01-04 22:59:20.21	104.37	42.97	-46.0	-48.2	16.6	0.00e+00	0	44	0	0	63	4672
2026-01-04 22:59:21.36	104.95	42.93	-46.5	-48.9	16.0	0.00e+00	0	43	0	0	63	5087
2026-01-04 22:59:22.22	105.38	42.90	-46.7	-49.1	15.7	0.00e+00	0	43	0	0	64	4895
2026-01-04 22:59:23.36	105.96	42.86	-46.6	-49.0	15.9	0.00e+00	0	43	0	0	64	4840
2026-01-04 22:59:24.22	106.39	42.82	-46.3	-48.6	16.4	0.00e+00	0	43	0	0	64	4600
2026-01-04 22:59:25.37	106.97	42.77	-46.3	-48.5	16.4	0.00e+00	0	43	0	0	64	4596
2026-01-04 22:59:26.22	107.39	42.73	-46.3	-48.6	16.3	0.00e+00	0	43	0	0	64	4607
2026-01-04 22:59:27.40	107.98	42.68	-46.3	-48.5	16.3	0.00e+00	0	43	0	0	64	4595
2026-01-04 22:59:28.26	108.41	42.64	-46.0	-48.2	16.8	0.00e+00	0	43	0	0	63	4652
2026-01-04 22:59:29.41	108.98	42.58	-45.7	-47.7	17.2	0.00e+00	0	44	0	0	63	4434
2026-01-04 22:59:30.27	109.41	42.53	-45.9	-48.0	17.0	0.00e+00	0	43	0	0	63	4559
2026-01-04 22:59:31.41	109.97	42.47	-46.0	-48.2	16.8	0.00e+00	0	43	0	0	63	4664
2026-01-04 22:59:32.27	110.39	42.42	-46.2	-48.4	16.5	0.00e+00	0	43	0	0	63	4804
2026-01-04 22:59:33.61	111.05	42.33	-45.9	-48.1	16.9	0.00e+00	0	43	0	0	63	4617
2026-01-04 22:59:34.33	111.40	42.29	-45.8	-47.9	17.0	0.00e+00	0	43	0	0	63	4514
2026-01-04 22:59:35.61	112.02	42.20	-45.6	-47.6	17.2	0.00e+00	0	43	0	0	63	4378
2026-01-04 22:59:36.33	112.37	42.16	-45.6	-47.6	17.2	0.00e+00	0	44	0	0	63	4390
2026-01-04 22:59:37.62	112.99	42.07	-45.7	-47.7	17.2	0.00e+00	0	43	0	0	63	4434
2026-01-04 22:59:38.34	113.34	42.01	-45.9	-48.1	16.9	0.00e+00	0	43	0	0	63	4604
2026-01-04 22:59:39.63	113.95	41.92	-46.5	-48.7	16.3	0.00e+00	0	43	0	0	63	4974
2026-01-04 22:59:40.44	114.34	41.86	-46.6	-48.9	16.0	0.00e+00	0	43	0	0	63	5065
2026-01-04 22:59:41.58	114.88	41.77	-46.6	-49.0	15.8	0.00e+00	0	44	0	0	64	4829
2026-01-04 22:59:42.45	115.29	41.70	-46.4	-48.7	16.1	0.00e+00	0	44	0	0	64	4677
2026-01-04 22:59:43.59	115.82	41.61	-46.3	-48.5	16.2	0.00e+00	0	44	0	0	64	4597
2026-01-04 22:59:44.74	116.35	41.51	-46.1	-48.3	16.4	0.00e+00	0	44	0	0	64	4470
2026-01-04 22:59:45.60	116.75	41.44	-45.9	-48.0	16.8	0.00e+00	0	44	0	0	63	4563
2026-01-04 22:59:47.10	117.44	41.30	-46.0	-48.1	16.7	0.00e+00	0	44	0	0	63	4635
2026-01-04 22:59:47.81	117.77	41.24	-46.0	-48.1	16.7	0.00e+00	0	44	0	0	63	4642
2026-01-04 22:59:49.10	118.36	41.12	-46.6	-49.0	15.9	0.00e+00	0	44	0	0	63	5112
2026-01-04 22:59:49.82	118.68	41.05	-46.9	-49.3	15.5	0.00e+00	0	43	0	0	64	5012
2026-01-04 22:59:51.11	119.26	40.93	-46.2	-48.5	16.3	0.00e+00	0	44	0	0	64	4547
2026-01-04 22:59:51.83	119.58	40.86	-46.1	-48.2	16.6	0.00e+00	0	44	0	0	63	4701
2026-01-04 22:59:53.12	120.16	40.73	-46.0	-48.1	16.6	0.00e+00	0	44	0	0	63	4627
2026-01-04 22:59:53.93	120.52	40.65	-46.0	-48.1	16.7	0.00e+00	0	43	0	0	63	4633
2026-01-04 22:59:55.07	121.02	40.54	-46.0	-48.2	16.7	0.00e+00	0	44	0	0	63	4661
2026-01-04 22:59:56.17	121.50	40.42	-46.4	-48.6	16.2	0.00e+00	0	44	0	0	63	4926
2026-01-04 22:59:57.22	121.95	40.31	-46.7	-49.1	15.7	0.00e+00	0	43	0	0	64	4878
2026-01-04 22:59:58.31	122.42	40.20	-46.5	-48.9	15.9	0.00e+00	0	44	0	0	64	4784
2026-01-04 22:59:59.17	122.79	40.10	-46.5	-48.8	15.9	0.00e+00	0	43	0	0	64	4756
2026-01-04 23:00:00.61	123.40	39.95	-46.1	-48.3	16.5	0.00e+00	0	43	0	0	64	4442
2026-01-04 23:00:01.32	123.70	39.87	-45.7	-47.7	17.1	0.00e+00	0	43	0	0	63	4426
2026-01-04 23:00:02.61	124.24	39.72	-45.3	-47.3	17.4	0.00e+00	0	44	0	0	62	4466
2026-01-04 23:00:03.32	124.53	39.64	-45.5	-47.5	17.2	0.00e+00	0	44	0	0	62	4586
2026-01-04 23:00:04.61	125.06	39.49	-45.6	-47.7	17.2	0.00e+00	0	43	0	0	62	4662
2026-01-04 23:00:05.33	125.36	39.41	-45.8	-47.9	17.0	0.00e+00	0	44	0	0	62	4785
2026-01-04 23:00:06.62	125.88	39.26	-45.9	-48.1	16.8	0.00e+00	0	43	0	0	62	4895
2026-01-04 23:00:07.33	126.17	39.17	-45.7	-47.8	17.1	0.00e+00	0	43	0	0	62	4716
2026-01-04 23:00:08.62	126.69	39.02	-45.6	-47.7	17.0	0.00e+00	0	43	0	0	62	4688
2026-01-04 23:00:09.48	127.03	38.91	-45.8	-47.9	16.8	0.00e+00	0	43	0	0	62	4808
2026-01-04 23:00:10.63	127.48	38.77	-46.0	-48.1	16.7	0.00e+00	0	44	0	0	62	4919
2026-01-04 23:00:11.49	127.82	38.67	-45.9	-48.0	16.8	0.00e+00	0	44	0	0	62	4870
2026-01-04 23:00:12.63	128.26	38.52	-45.8	-47.9	17.0	0.00e+00	0	43	0	0	62	4781
2026-01-04 23:00:13.49	128.60	38.42	-46.0	-48.2	16.7	0.00e+00	0	44	0	0	62	4940
2026-01-04 23:00:14.64	129.04	38.27	-46.2	-48.4	16.4	0.00e+00	0	43	0	0	63	4812
2026-01-04 23:00:15.82	129.48	38.12	-46.0	-48.2	16.7	0.00e+00	0	43	0	0	63	4665
2026-01-04 23:00:16.85	129.87	37.99	-45.8	-47.9	16.9	0.00e+00	0	43	0	0	63	4525
2026-01-04 23:00:17.85	130.25	37.86	-45.5	-47.6	17.2	0.00e+00	0	43	0	0	63	4365
2026-01-04 23:00:18.85	130.62	37.73	-45.2	-47.2	17.5	0.00e+00	0	43	0	0	62	4418
2026-01-04 23:00:19.85	130.98	37.60	-45.2	-47.2	17.5	0.00e+00	0	43	0	0	62	4426
2026-01-04 23:00:20.86	131.35	37.47	-45.1	-47.1	17.7	0.00e+00	0	43	0	0	62	4366
2026-01-04 23:00:21.86	131.71	37.33	-45.0	-46.9	17.8	0.00e+00	0	43	0	0	62	4289
2026-01-04 23:00:22.86	132.07	37.20	-45.0	-47.0	17.7	0.00e+00	0	43	0	0	61	4584
2026-01-04 23:00:23.87	132.43	37.07	-45.1	-47.1	17.7	0.00e+00	0	43	0	0	61	4619
2026-01-04 23:00:24.87	132.79	36.93	-45.1	-47.1	17.6	0.00e+00	0	44	0	0	61	4633
2026-01-04 23:00:25.88	133.14	36.80	-45.3	-47.3	17.5	0.00e+00	0	44	0	0	61	4727
2026-01-04 23:00:26.88	133.49	36.66	-45.2	-47.2	17.5	0.00e+00	0	44	0	0	61	4664
2026-01-04 23:00:27.88	133.83	36.52	-44.9	-46.9	17.8	0.00e+00	0	43	0	0	61	4513
2026-01-04 23:00:28.98	134.21	36.37	-44.8	-46.8	17.8	0.00e+00	0	44	0	0	61	4442
2026-01-04 23:00:29.87	134.51	36.25	-44.8	-46.7	17.9	0.00e+00	0	43	0	0	61	4439
2026-01-04 23:00:31.02	134.90	36.09	-45.0	-46.9	17.7	0.00e+00	0	43	0	0	61	4544
2026-01-04 23:00:31.87	135.18	35.97	-44.9	-46.9	17.9	0.00e+00	0	43	0	0	61	4512
2026-01-04 23:00:33.02	135.56	35.81	-45.0	-47.0	17.7	0.00e+00	0	43	0	0	61	4578
2026-01-04 23:00:33.88	135.84	35.69	-45.0	-47.0	17.8	0.00e+00	0	43	0	0	61	4550
2026-01-04 23:00:35.02	136.21	35.54	-45.0	-47.0	17.7	0.00e+00	0	43	0	0	61	4581
2026-01-04 23:00:35.87	136.49	35.42	-45.1	-47.1	17.6	0.00e+00	0	44	0	0	61	4633
2026-01-04 23:00:37.02	136.85	35.25	-45.2	-47.2	17.5	0.00e+00	0	43	0	0	61	4698
2026-01-04 23:00:37.88	137.13	35.13	-45.1	-47.1	17.6	0.00e+00	0	43	0	0	61	4613
2026-01-04 23:00:39.02	137.48	34.97	-45.0	-47.0	17.7	0.00e+00	0	43	0	0	61	4568
2026-01-04 23:00:39.88	137.75	34.85	-45.1	-47.1	17.6	0.00e+00	0	43	0	0	61	4608
2026-01-04 23:00:41.14	138.14	34.67	-45.0	-47.0	17.7	0.00e+00	0	43	0	0	61	4576
2026-01-04 23:00:41.92	138.38	34.56	-45.0	-47.0	17.7	0.00e+00	0	44	0	0	61	4573
2026-01-04 23:00:43.21	138.77	34.38	-45.0	-47.0	17.7	0.00e+00	0	43	0	0	61	4565
2026-01-04 23:00:43.94	138.99	34.27	-44.9	-46.9	17.9	0.00e+00	0	44	0	0	61	4502
2026-01-04 23:00:45.22	139.37	34.09	-44.9	-46.8	17.9	0.00e+00	0	43	0	0	61	4487
2026-01-04 23:00:45.94	139.58	33.99	-44.8	-46.7	18.0	0.00e+00	0	43	0	0	61	4431
2026-01-04 23:00:47.23	139.96	33.80	-44.5	-46.5	18.2	0.00e+00	0	44	0	0	61	4297
2026-01-04 23:00:47.96	140.17	33.70	-44.5	-46.4	18.2	0.00e+00	0	43	0	0	60	4535
2026-01-04 23:00:49.25	140.55	33.52	-44.3	-46.2	18.5	0.00e+00	0	43	0	0	60	4417
2026-01-04 23:00:49.97	140.75	33.41	-44.3	-46.1	18.6	0.00e+00	0	44	0	0	60	4391
2026-01-04 23:00:51.25	141.11	33.23	-44.3	-46.2	18.5	0.00e+00	0	43	0	0	60	4405
2026-01-04 23:00:51.97	141.32	33.13	-44.4	-46.3	18.5	0.00e+00	0	43	0	0	60	4463
2026-01-04 23:00:53.26	141.67	32.94	-44.0	-45.8	18.8	0.00e+00	0	43	0	0	59	4447
2026-01-04 23:00:53.97	141.87	32.84	-43.9	-45.7	18.9	0.00e+00	0	43	0	0	59	4416
2026-01-04 23:00:55.26	142.22	32.65	-43.8	-45.6	19.0	0.00e+00	0	43	0	0	59	4359
2026-01-04 23:00:55.98	142.42	32.55	-43.7	-45.5	19.1	0.00e+00	0	44	0	0	59	4326
2026-01-04 23:00:57.27	142.76	32.36	-43.6	-45.4	19.2	0.00e+00	0	43	0	0	59	4254
2026-01-04 23:00:57.98	142.95	32.26	-43.6	-45.4	19.2	0.00e+00	0	43	0	0	59	4255
2026-01-04 23:00:59.27	143.29	32.08	-43.4	-45.2	19.4	0.00e+00	0	43	0	0	58	4396
2026-01-04 23:00:59.99	143.48	31.97	-43.4	-45.1	19.4	0.00e+00	0	43	0	0	58	4389
2026-01-04 23:01:01.28	143.82	31.79	-43.1	-44.8	19.6	0.00e+00	0	43	0	0	58	4238
2026-01-04 23:01:01.99	144.00	31.69	-43.3	-45.0	19.6	0.00e+00	0	43	0	0	58	4307
2026-01-04 23:01:03.28	144.33	31.50	-43.2	-45.0	19.5	0.00e+00	0	43	0	0	58	4298
2026-01-04 23:01:04.13	144.54	31.38	-43.2	-44.9	19.5	0.00e+00	0	43	0	0	58	4257
2026-01-04 23:01:05.61	144.91	31.17	-43.3	-45.1	19.3	0.00e+00	0	44	0	0	58	4350
2026-01-04 23:01:06.32	145.09	31.07	-43.2	-45.0	19.3	0.00e+00	0	43	0	0	58	4298
2026-01-04 23:01:07.61	145.41	30.88	-43.3	-45.0	19.3	0.00e+00	0	43	0	0	58	4316
2026-01-04 23:01:08.33	145.58	30.78	-43.3	-45.0	19.3	0.00e+00	0	43	0	0	58	4334
2026-01-04 23:01:09.61	145.89	30.60	-43.4	-45.2	19.2	0.00e+00	0	43	0	0	58	4402
2026-01-04 23:01:10.39	146.08	30.48	-43.3	-45.0	19.4	0.00e+00	0	44	0	0	58	4321
2026-01-04 23:01:11.68	146.38	30.30	-43.2	-44.9	19.4	0.00e+00	0	43	0	0	58	4286
2026-01-04 23:01:12.40	146.55	30.20	-43.2	-45.0	19.4	0.00e+00	0	43	0	0	58	4304
2026-01-04 23:01:13.68	146.85	30.02	-43.4	-45.1	19.3	0.00e+00	0	43	0	0	58	4377
2026-01-04 23:01:14.40	147.02	29.91	-43.5	-45.2	19.2	0.00e+00	0	44	0	0	58	4441
2026-01-04 23:01:15.69	147.31	29.73	-43.5	-45.3	19.2	0.00e+00	0	44	0	0	58	4460
2026-01-04 23:01:16.40	147.47	29.63	-43.6	-45.4	19.1	0.00e+00	0	44	0	0	58	4494
2026-01-04 23:01:17.69	147.76	29.45	-43.5	-45.3	19.2	0.00e+00	0	43	0	0	58	4460
2026-01-04 23:01:18.41	147.92	29.35	-43.6	-45.4	19.1	0.00e+00	0	43	0	0	58	4511
2026-01-04 23:01:19.76	148.22	29.16	-43.6	-45.5	19.1	0.00e+00	0	43	0	0	58	4548
2026-01-04 23:01:20.74	148.44	29.02	-43.8	-45.6	18.9	0.00e+00	0	43	0	0	58	4648
2026-01-04 23:01:21.74	148.65	28.88	-43.9	-45.7	18.8	0.00e+00	0	43	0	0	58	4697
2026-01-04 23:01:22.75	148.87	28.74	-44.0	-45.9	18.6	0.00e+00	0	44	0	0	58	4767
2026-01-04 23:01:23.75	149.09	28.60	-43.9	-45.8	18.7	0.00e+00	0	43	0	0	58	4716
2026-01-04 23:01:24.75	149.30	28.46	-44.0	-45.8	18.7	0.00e+00	0	43	0	0	58	4730
2026-01-04 23:01:25.75	149.51	28.32	-43.9	-45.7	18.8	0.00e+00	0	44	0	0	58	4681
2026-01-04 23:01:26.75	149.71	28.18	-43.9	-45.7	18.8	0.00e+00	0	44	0	0	58	4691
2026-01-04 23:01:27.79	149.93	28.04	-44.0	-45.8	18.7	0.00e+00	0	43	0	0	58	4741
2026-01-04 23:01:28.79	150.13	27.90	-43.9	-45.8	18.7	0.00e+00	0	43	0	0	58	4730
2026-01-04 23:01:29.84	150.35	27.76	-43.9	-45.8	18.7	0.00e+00	0	43	0	0	58	4732
2026-01-04 23:01:30.79	150.54	27.63	-43.8	-45.7	18.9	0.00e+00	0	43	0	0	58	4656
2026-01-04 23:01:31.96	150.77	27.47	-43.8	-45.6	18.9	0.00e+00	0	43	0	0	58	4651
2026-01-04 23:01:32.84	150.95	27.35	-43.8	-45.6	18.9	0.00e+00	0	44	0	0	58	4636
2026-01-04 23:01:33.99	151.17	27.19	-43.8	-45.7	18.9	0.00e+00	0	43	0	0	58	4660
2026-01-04 23:01:34.85	151.34	27.07	-43.9	-45.8	18.8	0.00e+00	0	43	0	0	58	4717
2026-01-04 23:01:36.00	151.56	26.92	-43.8	-45.6	18.9	0.00e+00	0	44	0	0	58	4640
2026-01-04 23:01:36.86	151.72	26.80	-43.8	-45.6	18.8	0.00e+00	0	43	0	0	58	4651
2026-01-04 23:01:38.00	151.94	26.64	-43.8	-45.6	18.8	0.00e+00	0	43	0	0	58	4631
2026-01-04 23:01:38.86	152.10	26.53	-43.7	-45.5	18.9	0.00e+00	0	43	0	0	58	4590
2026-01-04 23:01:40.01	152.32	26.37	-43.7	-45.6	18.9	0.00e+00	0	43	0	0	58	4619
2026-01-04 23:01:40.87	152.47	26.26	-43.6	-45.4	19.0	0.00e+00	0	44	0	0	58	4532
2026-01-04 23:01:42.01	152.68	26.11	-43.5	-45.3	19.1	0.00e+00	0	44	0	0	58	4481
2026-01-04 23:01:42.87	152.84	25.99	-43.5	-45.3	19.2	0.00e+00	0	43	0	0	58	4464
2026-01-04 23:01:44.11	153.06	25.83	-43.2	-45.0	19.4	0.00e+00	0	44	0	0	58	4317
2026-01-04 23:01:44.97	153.22	25.71	-43.3	-45.0	19.3	0.00e+00	0	44	0	0	58	4323
2026-01-04 23:01:46.11	153.42	25.56	-43.3	-45.0	19.3	0.00e+00	0	43	0	0	58	4335
2026-01-04 23:01:46.97	153.57	25.45	-43.2	-45.0	19.4	0.00e+00	0	43	0	0	58	4319
2026-01-04 23:01:48.12	153.77	25.30	-43.1	-44.9	19.5	0.00e+00	0	43	0	0	58	4246
2026-01-04 23:01:49.02	153.93	25.18	-43.1	-44.9	19.5	0.00e+00	0	43	0	0	58	4264
2026-01-04 23:01:50.06	154.11	25.04	-43.3	-45.0	19.4	0.00e+00	0	44	0	0	58	4337
2026-01-04 23:01:51.05	154.27	24.92	-43.4	-45.2	19.3	0.00e+00	0	43	0	0	58	4406
2026-01-04 23:01:52.06	154.45	24.78	-43.6	-45.4	19.1	0.00e+00	0	43	0	0	58	4509
2026-01-04 23:01:53.06	154.61	24.65	-43.5	-45.3	19.2	0.00e+00	0	43	0	0	58	4480
2026-01-04 23:01:54.06	154.78	24.53	-43.5	-45.3	19.2	0.00e+00	0	43	0	0	58	4445
2026-01-04 23:01:55.07	154.95	24.40	-43.5	-45.3	19.2	0.00e+00	0	44	0	0	58	4479
2026-01-04 23:01:56.07	155.11	24.27	-43.5	-45.3	19.2	0.00e+00	0	44	0	0	58	4448
2026-01-04 23:01:57.43	155.33	24.09	-43.5	-45.3	19.1	0.00e+00	0	43	0	0	58	4458
2026-01-04 23:01:58.19	155.45	24.00	-43.4	-45.2	19.2	0.00e+00	0	43	0	0	58	4412
2026-01-04 23:01:59.80	155.71	23.79	-43.3	-45.1	19.2	0.00e+00	0	43	0	0	58	4373
2026-01-04 23:02:00.37	155.80	23.72	-43.3	-45.0	19.3	0.00e+00	0	43	0	0	58	4317
2026-01-04 23:02:01.95	156.05	23.52	-43.3	-45.1	19.2	0.00e+00	0	43	0	0	58	4358
2026-01-04 23:02:02.54	156.14	23.45	-43.3	-45.0	19.2	0.00e+00	0	44	0	0	58	4329
2026-01-04 23:02:04.11	156.38	23.25	-43.3	-45.1	19.1	0.00e+00	0	44	0	0	58	4368
2026-01-04 23:02:04.69	156.47	23.18	-43.4	-45.2	19.1	0.00e+00	0	43	0	0	58	4404
2026-01-04 23:02:06.32	156.71	22.98	-43.4	-45.1	19.2	0.00e+00	0	43	0	0	58	4378
2026-01-04 23:02:06.90	156.80	22.90	-43.4	-45.1	19.2	0.00e+00	0	44	0	0	58	4369
2026-01-04 23:02:08.48	157.04	22.71	-43.4	-45.1	19.3	0.00e+00	0	43	0	0	58	4382
2026-01-04 23:02:09.12	157.13	22.63	-43.3	-45.1	19.3	0.00e+00	0	44	0	0	58	4359
2026-01-04 23:02:10.56	157.34	22.45	-43.5	-45.2	19.2	0.00e+00	0	44	0	0	58	4426
2026-01-04 23:02:11.27	157.44	22.37	-43.5	-45.3	19.1	0.00e+00	0	43	0	0	58	4464
2026-01-04 23:02:12.56	157.63	22.21	-43.6	-45.4	19.0	0.00e+00	0	43	0	0	58	4518
2026-01-04 23:02:13.28	157.73	22.12	-43.5	-45.3	19.1	0.00e+00	0	43	0	0	58	4464
2026-01-04 23:02:14.56	157.91	21.97	-43.5	-45.3	19.0	0.00e+00	0	43	0	0	58	4479
2026-01-04 23:02:15.28	158.02	21.88	-43.5	-45.3	19.0	0.00e+00	0	43	0	0	58	4468
2026-01-04 23:02:16.57	158.20	21.72	-43.5	-45.3	19.0	0.00e+00	0	44	0	0	58	4446
2026-01-04 23:02:17.29	158.30	21.64	-43.5	-45.3	19.0	0.00e+00	0	43	0	0	58	4456
2026-01-04 23:02:18.57	158.47	21.49	-43.6	-45.3	18.9	0.00e+00	0	44	0	0	58	4491
2026-01-04 23:02:19.29	158.57	21.40	-43.5	-45.3	19.0	0.00e+00	0	43	0	0	58	4472
2026-01-04 23:02:20.58	158.75	21.25	-43.5	-45.3	19.0	0.00e+00	0	43	0	0	58	4479
2026-01-04 23:02:21.30	158.84	21.16	-43.5	-45.3	19.0	0.00e+00	0	43	0	0	58	4475
2026-01-04 23:02:22.59	159.02	21.01	-43.4	-45.2	19.1	0.00e+00	0	44	0	0	58	4403
2026-01-04 23:02:23.50	159.14	20.90	-43.4	-45.1	19.2	0.00e+00	0	43	0	0	58	4390
2026-01-04 23:02:24.51	159.27	20.78	-43.3	-45.0	19.3	0.00e+00	0	43	0	0	58	4324
2026-01-04 23:02:25.52	159.40	20.67	-43.3	-45.1	19.2	0.00e+00	0	43	0	0	58	4349
2026-01-04 23:02:26.52	159.53	20.55	-43.3	-45.1	19.3	0.00e+00	0	44	0	0	58	4344
2026-01-04 23:02:27.52	159.66	20.43	-43.4	-45.2	19.2	0.00e+00	0	43	0	0	58	4392
2026-01-04 23:02:28.53	159.79	20.32	-43.4	-45.2	19.2	0.00e+00	0	44	0	0	58	4395
2026-01-04 23:02:29.53	159.92	20.20	-43.4	-45.2	19.2	0.00e+00	0	43	0	0	58	4412
2026-01-04 23:02:30.55	160.04	20.09	-43.5	-45.3	19.1	0.00e+00	0	43	0	0	58	4478
2026-01-04 23:02:31.58	160.17	19.97	-43.5	-45.3	19.1	0.00e+00	0	44	0	0	58	4487
2026-01-04 23:02:32.58	160.30	19.85	-43.6	-45.4	19.0	0.00e+00	0	43	0	0	58	4514
2026-01-04 23:02:33.58	160.42	19.74	-43.7	-45.6	18.9	0.00e+00	0	43	0	0	58	4603
2026-01-04 23:02:34.58	160.54	19.63	-43.7	-45.5	18.9	0.00e+00	0	43	0	0	58	4585
2026-01-04 23:02:35.59	160.66	19.51	-43.7	-45.5	18.9	0.00e+00	0	44	0	0	58	4577
2026-01-04 23:02:36.59	160.79	19.40	-43.7	-45.5	18.9	0.00e+00	0	44	0	0	58	4598
2026-01-04 23:02:37.59	160.91	19.29	-43.7	-45.6	18.8	0.00e+00	0	44	0	0	58	4600
2026-01-04 23:02:38.85	161.05	19.15	-43.7	-45.5	18.9	4.88e-05	0	44	0	0	58	4564
2026-01-04 23:02:39.64	161.15	19.06	-43.7	-45.5	18.8	0.00e+00	0	43	0	0	58	4578
2026-01-04 23:02:41.06	161.31	18.91	-43.6	-45.4	18.9	0.00e+00	0	43	0	0	58	4529
2026-01-04 23:02:41.78	161.40	18.83	-43.5	-45.3	18.9	0.00e+00	0	43	0	0	58	4474
2026-01-04 23:02:43.27	161.57	18.66	-43.6	-45.4	18.8	0.00e+00	0	43	0	0	58	4545
2026-01-04 23:02:43.99	161.65	18.58	-43.6	-45.4	18.8	0.00e+00	0	43	0	0	58	4507
2026-01-04 23:02:45.28	161.80	18.44	-43.6	-45.5	18.7	0.00e+00	0	44	0	0	58	4553
2026-01-04 23:02:45.99	161.88	18.37	-43.6	-45.5	18.7	0.00e+00	0	43	0	0	58	4559
2026-01-04 23:02:47.28	162.02	18.23	-43.7	-45.6	18.7	0.00e+00	0	43	0	0	58	4611
2026-01-04 23:02:48.00	162.10	18.15	-43.7	-45.5	18.7	0.00e+00	0	43	0	0	58	4570
2026-01-04 23:02:49.29	162.25	18.01	-43.7	-45.5	18.8	0.00e+00	0	43	0	0	58	4571
2026-01-04 23:02:50.02	162.33	17.93	-43.5	-45.3	18.9	0.00e+00	0	43	0	0	58	4485
2026-01-04 23:02:51.31	162.47	17.79	-43.4	-45.2	19.1	0.00e+00	0	43	0	0	58	4414
2026-01-04 23:02:52.12	162.55	17.71	-43.4	-45.2	19.1	0.00e+00	0	44	0	0	58	4402
2026-01-04 23:02:53.27	162.68	17.59	-43.5	-45.3	19.0	0.00e+00	0	43	0	0	58	4489
2026-01-04 23:02:54.13	162.77	17.49	-43.5	-45.3	19.0	0.00e+00	0	43	0	0	58	4466
2026-01-04 23:02:55.28	162.89	17.37	-43.7	-45.5	18.8	0.00e+00	0	44	0	0	58	4565
2026-01-04 23:02:56.42	163.01	17.25	-43.6	-45.4	19.0	0.00e+00	0	44	0	0	58	4510
2026-01-04 23:02:57.28	163.10	17.16	-43.6	-45.5	18.9	0.00e+00	0	44	0	0	58	4550
2026-01-04 23:02:58.43	163.22	17.04	-43.7	-45.6	18.8	0.00e+00	0	43	0	0	58	4604
2026-01-04 23:02:59.29	163.31	16.96	-43.8	-45.7	18.7	0.00e+00	0	43	0	0	58	4679
2026-01-04 23:03:00.43	163.43	16.84	-44.0	-45.9	18.5	0.00e+00	0	43	0	0	58	4771
2026-01-04 23:03:01.29	163.51	16.75	-44.1	-46.0	18.4	0.00e+00	0	43	0	0	58	4852
2026-01-04 23:03:02.44	163.63	16.63	-44.2	-46.1	18.3	0.00e+00	0	43	0	0	59	4599
2026-01-04 23:03:03.30	163.72	16.54	-44.2	-46.1	18.3	0.00e+00	0	43	0	0	59	4621
2026-01-04 23:03:04.45	163.83	16.42	-44.3	-46.3	18.2	0.00e+00	0	43	0	0	59	4713
2026-01-04 23:03:05.31	163.92	16.34	-44.4	-46.4	18.1	0.00e+00	0	43	0	0	59	4764
2026-01-04 23:03:06.53	164.04	16.21	-44.4	-46.4	18.0	0.00e+00	0	43	0	0	59	4786
2026-01-04 23:03:07.39	164.12	16.13	-44.5	-46.5	18.0	0.00e+00	0	43	0	0	59	4830
2026-01-04 23:03:08.60	164.24	16.01	-44.5	-46.5	17.9	0.00e+00	0	43	0	0	59	4862
2026-01-04 23:03:09.46	164.32	15.92	-44.6	-46.6	17.9	0.00e+00	0	44	0	0	59	4881
2026-01-04 23:03:10.60	164.43	15.80	-44.6	-46.6	17.8	0.00e+00	0	43	0	0	59	4919
2026-01-04 23:03:11.46	164.51	15.72	-44.6	-46.7	17.8	0.00e+00	0	43	0	0	59	4928
2026-01-04 23:03:12.61	164.62	15.61	-44.4	-46.4	18.0	0.00e+00	0	43	0	0	59	4794
2026-01-04 23:03:13.47	164.70	15.52	-44.4	-46.4	18.0	0.00e+00	0	43	0	0	59	4778
2026-01-04 23:03:14.61	164.81	15.41	-44.5	-46.4	17.9	0.00e+00	0	43	0	0	59	4801
2026-01-04 23:03:15.61	164.90	15.31	-44.4	-46.4	17.9	0.00e+00	0	43	0	0	59	4789
2026-01-04 23:03:16.79	165.01	15.19	-44.4	-46.3	17.9	0.00e+00	0	44	0	0	59	4744
2026-01-04 23:03:17.65	165.09	15.11	-44.4	-46.3	17.9	0.00e+00	0	44	0	0	59	4747
2026-01-04 23:03:19.00	165.21	14.98	-44.4	-46.3	18.0	0.00e+00	0	43	0	0	59	4725
2026-01-04 23:03:19.72	165.28	14.91	-44.4	-46.4	17.9	0.00e+00	0	43	0	0	59	4773
2026-01-04 23:03:21.01	165.39	14.78	-44.5	-46.5	17.8	0.00e+00	0	44	0	0	59	4829
2026-01-04 23:03:21.74	165.46	14.71	-44.4	-46.4	17.9	0.00e+00	0	43	0	0	59	4782
2026-01-04 23:03:23.29	165.60	14.57	-44.3	-46.3	18.0	0.00e+00	0	43	0	0	59	4732
2026-01-04 23:03:24.00	165.66	14.50	-44.4	-46.3	18.0	0.00e+00	0	43	0	0	59	4759
2026-01-04 23:03:25.29	165.77	14.37	-44.5	-46.4	17.9	0.00e+00	0	43	0	0	59	4800
2026-01-04 23:03:26.00	165.83	14.31	-44.4	-46.3	18.0	0.00e+00	0	43	0	0	59	4737
2026-01-04 23:03:27.29	165.94	14.19	-44.4	-46.3	18.0	0.00e+00	0	43	0	0	59	4753
2026-01-04 23:03:28.01	166.01	14.12	-44.3	-46.3	18.1	1.76e-03	0	44	0	0	59	4721
2026-01-04 23:03:29.30	166.12	14.00	-44.2	-46.1	18.3	0.00e+00	0	44	0	0	59	4637
2026-01-04 23:03:30.01	166.18	13.93	-44.3	-46.2	18.1	0.00e+00	0	43	0	0	59	4701
2026-01-04 23:03:31.30	166.28	13.81	-44.3	-46.3	18.1	0.00e+00	0	44	0	0	59	4706
2026-01-04 23:03:32.02	166.35	13.74	-44.2	-46.1	18.2	0.00e+00	0	43	0	0	59	4645
2026-01-04 23:03:33.30	166.45	13.62	-44.4	-46.3	18.1	0.00e+00	0	44	0	0	59	4751
2026-01-04 23:03:34.10	166.52	13.55	-44.4	-46.3	18.1	0.00e+00	0	44	0	0	59	4733
2026-01-04 23:03:35.25	166.61	13.44	-44.4	-46.3	18.1	0.00e+00	0	43	0	0	59	4753
2026-01-04 23:03:36.33	166.70	13.34	-44.4	-46.3	18.0	0.00e+00	0	44	0	0	59	4749
2026-01-04 23:03:37.36	166.78	13.25	-44.4	-46.4	18.0	0.00e+00	0	43	0	0	59	4772
2026-01-04 23:03:38.36	166.87	13.16	-44.6	-46.6	17.8	0.00e+00	0	43	0	0	59	4893
2026-01-04 23:03:39.37	166.95	13.07	-44.6	-46.5	17.8	0.00e+00	0	44	0	0	59	4868
2026-01-04 23:03:40.37	167.03	12.98	-44.6	-46.6	17.8	0.00e+00	0	44	0	0	59	4887
2026-01-04 23:03:41.37	167.11	12.89	-44.6	-46.6	17.8	0.00e+00	0	43	0	0	59	4901
2026-01-04 23:03:42.37	167.18	12.80	-44.7	-46.7	17.8	0.00e+00	0	43	0	0	60	4673
2026-01-04 23:03:43.37	167.26	12.71	-44.7	-46.7	17.7	0.00e+00	0	43	0	0	60	4705
2026-01-04 23:03:44.38	167.34	12.62	-44.7	-46.8	17.7	0.00e+00	0	44	0	0	60	4721
2026-01-04 23:03:45.38	167.42	12.53	-44.7	-46.7	17.7	0.00e+00	0	43	0	0	60	4701
2026-01-04 23:03:46.39	167.50	12.44	-44.8	-46.9	17.6	0.00e+00	0	44	0	0	60	4764
2026-01-04 23:03:47.39	167.57	12.35	-44.8	-46.8	17.6	0.00e+00	0	44	0	0	60	4737
2026-01-04 23:03:48.39	167.65	12.26	-44.8	-46.9	17.6	0.00e+00	0	43	0	0	60	4771
2026-01-04 23:03:49.40	167.73	12.17	-44.8	-46.9	17.6	0.00e+00	0	43	0	0	60	4783
2026-01-04 23:03:50.48	167.81	12.08	-44.8	-46.9	17.5	0.00e+00	0	44	0	0	60	4786
2026-01-04 23:03:51.38	167.88	12.00	-44.8	-46.9	17.6	0.00e+00	0	43	0	0	60	4785
2026-01-04 23:03:52.43	167.95	11.91	-44.8	-46.9	17.6	0.00e+00	0	43	0	0	60	4778
2026-01-04 23:03:53.34	168.02	11.83	-44.8	-46.8	17.6	0.00e+00	0	43	0	0	60	4758
2026-01-04 23:03:54.35	168.10	11.74	-44.7	-46.8	17.6	0.00e+00	0	44	0	0	60	4757
2026-01-04 23:03:55.35	168.17	11.65	-44.7	-46.8	17.7	0.00e+00	0	43	0	0	60	4726
2026-01-04 23:03:56.35	168.24	11.57	-44.7	-46.9	17.6	0.00e+00	0	44	0	0	60	4766
2026-01-04 23:03:57.35	168.31	11.48	-44.6	-46.8	17.7	0.00e+00	0	44	0	0	60	4715
2026-01-04 23:03:58.36	168.39	11.39	-44.7	-46.8	17.6	0.00e+00	0	43	0	0	60	4758
2026-01-04 23:03:59.36	168.46	11.31	-44.7	-46.8	17.6	0.00e+00	0	43	0	0	60	4754
2026-01-04 23:04:00.36	168.53	11.22	-44.7	-46.9	17.5	0.00e+00	0	43	0	0	60	4779
2026-01-04 23:04:01.36	168.60	11.14	-44.7	-47.0	17.4	0.00e+00	0	43	0	0	60	4833
2026-01-04 23:04:02.37	168.67	11.05	-44.6	-46.8	17.6	0.00e+00	0	43	0	0	60	4738
2026-01-04 23:04:03.37	168.74	10.97	-44.7	-46.9	17.5	0.00e+00	0	44	0	0	60	4811
2026-01-04 23:04:04.47	168.82	10.88	-44.7	-47.0	17.4	0.00e+00	0	44	0	0	60	4822
2026-01-04 23:04:05.33	168.88	10.80	-44.7	-47.1	17.3	0.00e+00	0	43	0	0	60	4902
2026-01-04 23:04:06.47	168.96	10.71	-44.7	-47.1	17.3	0.00e+00	0	43	0	0	60	4887
2026-01-04 23:04:07.33	169.02	10.64	-44.8	-47.2	17.2	0.00e+00	0	43	0	0	60	4955
2026-01-04 23:04:08.47	169.09	10.54	-44.8	-47.2	17.1	0.00e+00	0	44	0	0	60	4978
2026-01-04 23:04:09.33	169.15	10.47	-44.9	-47.3	17.0	0.00e+00	0	43	0	0	60	5032
2026-01-04 23:04:10.48	169.23	10.38	-44.9	-47.3	17.0	0.00e+00	0	43	0	0	60	5036
2026-01-04 23:04:11.34	169.29	10.30	-44.9	-47.4	17.0	0.00e+00	0	44	0	0	60	5067
2026-01-04 23:04:12.48	169.36	10.21	-45.0	-47.5	16.9	0.00e+00	0	44	0	0	60	5124
2026-01-04 23:04:13.35	169.42	10.14	-45.0	-47.4	16.9	0.00e+00	0	43	0	0	60	5096
2026-01-04 23:04:14.49	169.50	10.05	-45.0	-47.4	17.0	0.00e+00	0	44	0	0	60	5066
2026-01-04 23:04:15.35	169.55	9.98	-45.0	-47.5	16.8	0.00e+00	0	43	0	0	60	5122
2026-01-04 23:04:16.50	169.63	9.88	-44.9	-47.3	17.0	0.00e+00	0	43	0	0	60	5033
2026-01-04 23:04:17.36	169.68	9.81	-44.9	-47.4	16.9	0.00e+00	0	44	0	0	60	5062
2026-01-04 23:04:18.50	169.76	9.72	-44.9	-47.5	16.8	0.00e+00	0	43	0	0	60	5135
2026-01-04 23:04:19.41	169.82	9.65	-44.9	-47.5	16.8	0.00e+00	0	44	0	0	60	5145
2026-01-04 23:04:20.43	169.88	9.57	-44.9	-47.6	16.7	0.00e+00	0	43	0	0	60	5197
2026-01-04 23:04:21.43	169.94	9.49	-45.0	-47.7	16.6	0.00e+00	0	44	0	0	60	5237
2026-01-04 23:04:22.43	170.01	9.41	-44.9	-47.6	16.7	0.00e+00	0	43	0	0	60	5179
2026-01-04 23:04:23.43	170.07	9.33	-44.9	-47.7	16.6	0.00e+00	0	44	0	0	60	5228
2026-01-04 23:04:24.44	170.13	9.25	-44.9	-47.6	16.6	0.00e+00	0	44	0	0	60	5218
2026-01-04 23:04:25.43	170.20	9.17	-44.8	-47.5	16.7	0.00e+00	0	44	0	0	60	5155
2026-01-04 23:04:26.43	170.26	9.09	-45.0	-47.8	16.5	0.00e+00	0	44	0	0	60	5288
2026-01-04 23:04:27.44	170.32	9.01	-45.3	-48.2	16.2	0.00e+00	0	44	0	0	61	5228
2026-01-04 23:04:28.44	170.38	8.93	-51.4	-64.9	3.8	1.49e+00	0	43	104	0	73	17915
2026-01-04 23:04:29.45	170.44	8.85	-52.6	-65.9	3.8	1.49e+00	0	44	104	0	75	17912
2026-01-04 23:04:30.45	170.50	8.77	-52.8	-66.0	3.8	1.49e+00	0	44	104	0	76	17271
2026-01-04 23:04:31.52	170.57	8.69	-52.9	-66.1	3.8	1.49e+00	0	43	104	0	76	17417
2026-01-04 23:04:32.43	170.62	8.62	-53.1	-66.2	3.8	1.49e+00	0	44	104	0	76	17541
2026-01-04 23:04:33.60	170.69	8.53	-53.2	-66.2	3.8	1.49e+00	0	44	104	0	77	16611
2026-01-04 23:04:34.47	170.74	8.46	-53.2	-66.2	3.8	1.49e+00	0	44	104	0	77	16573
2026-01-04 23:04:35.62	170.81	8.37	-53.1	-66.2	3.8	1.49e+00	0	44	104	0	77	16642
2026-01-04 23:04:36.48	170.86	8.31	-53.2	-66.2	3.8	1.49e+00	0	44	104	0	77	16691
2026-01-04 23:04:37.62	170.93	8.22	-53.3	-66.2	3.8	1.49e+00	0	44	104	0	77	16667
2026-01-04 23:04:38.48	170.98	8.16	-53.3	-66.3	3.8	1.49e+00	0	44	104	0	77	16727
2026-01-04 23:04:39.63	171.05	8.07	-53.3	-66.3	3.8	1.49e+00	0	43	104	0	77	16750
2026-01-04 23:04:40.49	171.10	8.00	-53.3	-66.3	3.8	1.49e+00	0	43	104	0	77	16777
2026-01-04 23:04:41.64	171.16	7.92	-53.2	-66.3	3.8	1.49e+00	0	43	104	0	77	16817
2026-01-04 23:04:42.50	171.21	7.85	-53.3	-66.3	3.8	1.49e+00	0	44	104	0	77	16852
2026-01-04 23:04:43.65	171.28	7.76	-53.2	-66.3	3.8	1.49e+00	0	43	104	0	77	16794
2026-01-04 23:04:44.51	171.33	7.70	-53.4	-66.3	3.8	1.49e+00	0	44	104	0	77	16725
2026-01-04 23:04:45.66	171.39	7.61	-53.3	-66.3	3.8	1.49e+00	0	43	104	0	77	16778
2026-01-04 23:04:46.52	171.44	7.55	-53.3	-66.4	3.8	1.49e+00	0	43	104	0	77	16902
2026-01-04 23:04:47.67	171.50	7.46	-53.2	-66.3	3.8	1.49e+00	0	43	104	0	77	16817
2026-01-04 23:04:48.53	171.55	7.40	-53.4	-66.3	3.8	1.49e+00	0	44	104	0	77	16871
2026-01-04 23:04:49.68	171.61	7.32	-53.4	-66.3	3.8	1.49e+00	0	44	104	0	77	16827
2026-01-04 23:04:50.54	171.66	7.25	-53.2	-66.3	3.8	1.49e+00	0	44	104	0	77	16874
2026-01-04 23:04:51.69	171.72	7.17	-53.4	-66.3	3.8	1.49e+00	0	44	104	0	77	16870
2026-01-04 23:04:52.55	171.77	7.10	-53.4	-66.4	3.8	1.49e+00	0	44	104	0	77	16920
2026-01-04 23:04:53.70	171.83	7.02	-53.3	-66.3	3.8	1.49e+00	0	44	104	0	77	16817
2026-01-04 23:04:54.56	171.88	6.96	-53.2	-66.3	3.8	1.49e+00	0	44	104	0	77	16878
2026-01-04 23:04:55.70	171.94	6.87	-53.0	-66.3	3.8	1.49e+00	0	44	104	0	77	16844
2026-01-04 23:04:56.57	171.99	6.81	-53.0	-66.3	3.8	1.49e+00	0	44	104	0	77	16789
2026-01-04 23:04:57.71	172.05	6.73	-53.0	-66.3	3.8	1.49e+00	0	44	104	0	77	16801
2026-01-04 23:04:58.57	172.09	6.67	-53.0	-66.3	3.8	1.49e+00	0	44	104	0	77	16764
2026-01-04 23:04:59.72	172.15	6.58	-53.0	-66.3	3.8	1.49e+00	0	44	104	0	77	16715
2026-01-04 23:05:00.58	172.20	6.52	-53.0	-66.3	3.8	1.49e+00	0	44	104	0	77	16759
2026-01-04 23:05:01.73	172.26	6.44	-53.0	-66.3	3.8	1.49e+00	0	44	104	0	77	16813
2026-01-04 23:05:02.59	172.30	6.38	-52.9	-66.3	3.8	1.49e+00	0	44	104	0	77	16721
2026-01-04 23:05:03.74	172.36	6.29	-52.9	-66.3	3.8	1.49e+00	0	44	104	0	77	16756
2026-01-04 23:05:04.60	172.41	6.23	-52.9	-66.3	3.8	1.49e+00	0	44	104	0	77	16737
2026-01-04 23:05:05.75	172.47	6.15	-52.9	-66.3	3.8	1.49e+00	0	44	104	0	77	16740
2026-01-04 23:05:06.61	172.51	6.09	-52.9	-66.3	3.8	1.49e+00	0	44	104	0	77	16715
2026-01-04 23:05:07.76	172.57	6.01	-52.9	-66.3	3.8	1.49e+00	0	44	104	0	77	16711
2026-01-04 23:05:08.62	172.61	5.95	-52.9	-66.3	3.8	1.49e+00	0	44	104	0	77	16778
2026-01-04 23:05:09.77	172.67	5.87	-52.9	-66.3	3.8	1.49e+00	0	43	104	0	77	16796
2026-01-04 23:05:10.63	172.71	5.81	-52.9	-66.3	3.8	1.49e+00	0	44	104	0	77	16784
2026-01-04 23:05:11.78	172.77	5.73	-52.9	-66.3	3.8	1.49e+00	0	43	104	0	77	16761
2026-01-04 23:05:12.64	172.81	5.67	-52.9	-66.3	3.8	1.49e+00	0	44	104	0	77	16735
2026-01-04 23:05:13.78	172.87	5.59	-52.9	-66.3	3.8	1.49e+00	0	44	104	0	77	16720
2026-01-04 23:05:14.64	172.91	5.53	-52.9	-66.2	3.8	1.49e+00	0	44	104	0	77	16688
2026-01-04 23:05:15.79	172.97	5.45	-52.9	-66.2	3.8	1.49e+00	0	44	104	0	77	16641
2026-01-04 23:05:16.65	173.01	5.39	-52.9	-66.2	3.8	1.49e+00	0	43	104	0	77	16673
2026-01-04 23:05:17.80	173.07	5.31	-52.9	-66.2	3.8	1.49e+00	0	44	104	0	77	16660
2026-01-04 23:05:18.66	173.11	5.25	-52.9	-66.3	3.8	1.49e+00	0	44	104	0	77	16696
2026-01-04 23:05:19.81	173.16	5.17	-52.9	-66.3	3.8	1.49e+00	0	44	104	0	77	16712
2026-01-04 23:05:20.67	173.20	5.11	-52.9	-66.2	3.8	1.49e+00	0	44	104	0	77	16669
2026-01-04 23:05:21.82	173.26	5.03	-52.9	-66.2	3.8	1.49e+00	0	44	104	0	77	16681
2026-01-04 23:05:22.68	173.30	4.97	-52.9	-66.2	3.8	1.49e+00	0	44	104	0	77	16688

#Closed at: 2026-01-04 23:05:23
#Recorded file [0 MB]: D:/Data/31040_260105_015251.dat