passes_logs/2026/01/04/T1/T1__20260104_232219_SUOMI_NPP_rec.log

#Pass ID: 20260104_232219_SUOMI NPP
#Satellite: SUOMI NPP
#Configuration: NPP
#almurnet v.1.7.20251203
#Start time: 2026-01-04 23:22:21

#Version: 2.0.20230620
#Station: T1
#Location: 37.570604 lon 55.790049 lat
#TLE: 1 37849U 11061A   26003.96724563  .00000164  00000+0  98899-4 0  9990
#TLE: 2 37849  98.7800 306.1116 0002573  82.3190 277.8279 14.19522066735141

#Time	Az	El	Level	Level2	SNR	BER	BlckErr	Temp	State	Recorded	gain1	gain2
2026-01-04 23:22:21.37	19.16	5.13	-50.8	-67.9	3.8	1.49e+00	0	41	0	0	73	25289
2026-01-04 23:22:22.36	19.19	5.20	-50.8	-67.7	3.8	1.49e+00	0	41	104	0	72	26311
2026-01-04 23:22:23.37	19.21	5.27	-50.8	-67.6	3.8	1.49e+00	0	41	104	0	72	26115
2026-01-04 23:22:24.38	19.24	5.34	-50.8	-67.6	3.8	1.49e+00	0	41	104	0	72	26028
2026-01-04 23:22:25.38	19.27	5.41	-50.8	-67.6	3.8	1.49e+00	0	41	104	0	72	25901
2026-01-04 23:22:26.38	19.29	5.48	-50.8	-67.5	3.8	1.49e+00	0	41	104	0	72	25698
2026-01-04 23:22:27.39	19.32	5.55	-50.8	-67.5	3.8	1.49e+00	0	41	104	0	72	25652
2026-01-04 23:22:28.39	19.34	5.63	-50.8	-67.5	3.8	1.49e+00	0	41	104	0	72	25716
2026-01-04 23:22:29.40	19.37	5.70	-50.8	-67.4	3.8	1.49e+00	0	41	104	0	72	25516
2026-01-04 23:22:30.40	19.40	5.77	-50.7	-67.5	3.8	1.49e+00	0	41	104	0	72	25844
2026-01-04 23:22:31.41	19.42	5.84	-50.8	-67.5	3.8	1.49e+00	0	41	104	0	72	25825
2026-01-04 23:22:32.41	19.45	5.92	-50.8	-67.6	3.8	1.49e+00	0	41	104	0	72	25892
2026-01-04 23:22:33.42	19.48	5.99	-50.8	-67.6	3.8	1.49e+00	0	41	104	0	72	26093
2026-01-04 23:22:34.42	19.50	6.06	-50.8	-67.6	3.8	1.49e+00	0	41	104	0	72	26070
2026-01-04 23:22:35.42	19.53	6.14	-50.7	-67.6	3.8	1.49e+00	0	41	104	0	72	26071
2026-01-04 23:22:36.43	19.56	6.21	-50.8	-67.7	3.8	1.49e+00	0	41	104	0	72	26281
2026-01-04 23:22:37.43	19.58	6.28	-50.8	-67.7	3.8	1.49e+00	0	41	104	0	72	26273
2026-01-04 23:22:38.44	19.61	6.36	-50.8	-67.7	3.8	1.49e+00	0	41	104	0	72	26331
2026-01-04 23:22:39.44	19.64	6.43	-50.8	-67.8	3.8	1.49e+00	0	42	104	0	72	26526
2026-01-04 23:22:40.45	19.67	6.51	-50.8	-67.8	3.8	1.49e+00	0	42	104	0	72	26564
2026-01-04 23:22:41.45	19.69	6.58	-50.8	-67.8	3.8	1.49e+00	0	42	104	0	72	26674
2026-01-04 23:22:42.46	19.72	6.66	-50.8	-67.9	3.8	1.49e+00	0	42	104	0	72	26841
2026-01-04 23:22:43.46	19.75	6.73	-50.8	-67.9	3.8	1.49e+00	0	42	104	0	72	26795
2026-01-04 23:22:44.46	19.78	6.81	-50.8	-67.8	3.8	1.49e+00	0	42	104	0	72	26616
2026-01-04 23:22:45.47	19.81	6.88	-50.8	-67.7	3.8	1.49e+00	0	42	104	0	72	26275
2026-01-04 23:22:46.47	19.83	6.96	-50.8	-67.5	3.8	1.49e+00	0	42	104	0	72	25586
2026-01-04 23:22:47.48	19.86	7.03	-50.8	-67.2	3.8	1.49e+00	0	42	104	0	72	24765
2026-01-04 23:22:48.48	19.89	7.11	-50.8	-66.8	3.8	1.49e+00	0	42	104	0	72	23717
2026-01-04 23:22:49.49	19.92	7.19	-50.7	-66.5	3.8	1.49e+00	0	42	104	0	72	22993
2026-01-04 23:22:50.49	19.95	7.26	-50.7	-66.2	3.8	1.49e+00	0	42	104	0	72	22014
2026-01-04 23:22:51.50	19.98	7.34	-50.7	-65.8	3.8	1.49e+00	0	42	104	0	72	21175
2026-01-04 23:22:52.50	20.01	7.42	-50.7	-65.5	4.0	1.48e+00	0	42	104	0	72	20347
2026-01-04 23:22:53.50	20.04	7.49	-50.7	-65.3	4.0	1.48e+00	0	42	104	0	72	20057
2026-01-04 23:22:54.51	20.06	7.57	-50.7	-65.3	3.9	1.48e+00	0	42	104	0	72	19967
2026-01-04 23:22:55.51	20.09	7.65	-50.6	-65.3	3.9	1.48e+00	0	42	104	0	72	20063
2026-01-04 23:22:56.52	20.12	7.73	-50.7	-65.4	3.8	1.48e+00	0	42	104	0	72	20234
2026-01-04 23:22:57.52	20.15	7.80	-50.7	-65.5	3.8	1.48e+00	0	42	104	0	72	20427
2026-01-04 23:22:58.53	20.18	7.88	-50.7	-65.5	3.9	1.48e+00	0	42	104	0	72	20504
2026-01-04 23:22:59.53	20.21	7.96	-50.7	-65.6	3.8	1.49e+00	0	42	104	0	72	20742
2026-01-04 23:23:00.54	20.24	8.04	-50.7	-65.7	3.8	1.49e+00	0	42	104	0	72	20802
2026-01-04 23:23:01.54	20.27	8.12	-50.7	-65.7	3.8	1.49e+00	0	42	104	0	72	20777
2026-01-04 23:23:02.54	20.30	8.20	-50.7	-65.6	3.8	1.48e+00	0	42	104	0	72	20641
2026-01-04 23:23:03.55	20.33	8.28	-50.7	-65.4	4.0	1.48e+00	0	42	104	0	72	20105
2026-01-04 23:23:04.55	20.36	8.36	-50.7	-65.1	3.9	1.47e+00	0	42	104	0	72	19477
2026-01-04 23:23:05.56	20.40	8.44	-50.6	-64.7	3.9	1.47e+00	0	42	104	0	72	18623
2026-01-04 23:23:06.56	20.43	8.52	-50.7	-64.4	4.1	1.42e+00	0	42	0	0	72	18060
2026-01-04 23:23:07.57	20.46	8.60	-50.6	-63.7	4.3	1.37e+00	0	42	0	0	72	16654
2026-01-04 23:23:08.57	20.49	8.68	-50.6	-63.2	4.5	1.05e+00	0	42	0	1048576	72	15651
2026-01-04 23:23:09.57	20.52	8.76	-50.5	-62.4	4.9	8.33e-01	0	42	0	3145728	72	14304
2026-01-04 23:23:10.58	20.55	8.84	-50.4	-61.4	5.5	6.04e-01	0	42	0	5242880	72	12800
2026-01-04 23:23:11.58	20.58	8.93	-50.3	-60.7	6.0	4.17e-01	0	42	0	7340032	72	11810
2026-01-04 23:23:12.59	20.62	9.01	-50.2	-59.9	6.6	2.45e-01	0	42	0	9437184	72	10759
2026-01-04 23:23:13.59	20.65	9.09	-50.3	-59.9	6.7	1.56e-01	0	42	0	10485760	72	10686
2026-01-04 23:23:14.59	20.68	9.17	-50.6	-63.3	4.6	2.27e-01	0	42	0	12582912	72	15830
2026-01-04 23:23:15.90	20.72	9.28	-48.9	-55.0	11.5	7.38e-01	0	42	0	14680064	70	6825
2026-01-04 23:23:16.61	20.74	9.34	-50.0	-57.6	9.2	1.28e-03	0	43	0	15728640	70	9197
2026-01-04 23:23:18.25	20.80	9.48	-47.7	-52.2	14.2	1.50e-06	0	43	0	18874368	67	5908
2026-01-04 23:23:18.83	20.82	9.52	-47.7	-52.3	14.1	7.00e-07	0	42	0	19922944	67	5965
2026-01-04 23:23:20.42	20.87	9.66	-47.5	-51.9	14.5	1.50e-06	0	43	0	23068672	67	5680
2026-01-04 23:23:20.99	20.89	9.70	-47.6	-52.0	14.5	0.00e+00	0	42	0	24117248	67	5787
2026-01-04 23:23:22.75	20.95	9.85	-47.8	-52.2	14.2	0.00e+00	0	43	0	27262976	66	6266
2026-01-04 23:23:23.33	20.97	9.90	-47.4	-51.5	15.0	7.00e-07	0	43	0	28311552	66	5746
2026-01-04 23:23:24.91	21.02	10.04	-47.3	-51.2	15.3	0.00e+00	0	43	0	31457280	66	5570
2026-01-04 23:23:25.54	21.04	10.09	-47.4	-51.3	15.2	0.00e+00	0	43	0	32505856	66	5642
2026-01-04 23:23:26.97	21.09	10.21	-47.3	-51.2	15.2	0.00e+00	0	43	0	34603008	66	5577
2026-01-04 23:23:27.69	21.11	10.27	-47.4	-51.4	15.0	0.00e+00	0	43	0	36700160	66	5682
2026-01-04 23:23:29.17	21.16	10.40	-47.2	-51.1	15.3	0.00e+00	0	43	0	38797312	66	5488
2026-01-04 23:23:29.88	21.19	10.46	-47.2	-51.1	15.3	0.00e+00	0	43	0	40894464	66	5500
2026-01-04 23:23:31.24	21.24	10.58	-47.1	-50.8	15.7	0.00e+00	0	43	0	42991616	66	5292
2026-01-04 23:23:31.95	21.26	10.64	-47.1	-50.7	15.7	0.00e+00	0	43	0	44040192	66	5279
2026-01-04 23:23:33.24	21.31	10.76	-46.9	-50.4	16.0	0.00e+00	0	43	0	47185920	65	5401
2026-01-04 23:23:33.96	21.33	10.82	-46.8	-50.3	16.1	0.00e+00	0	43	0	48234496	65	5301
2026-01-04 23:23:35.25	21.38	10.93	-46.7	-50.1	16.3	0.00e+00	0	43	0	50331648	65	5196
2026-01-04 23:23:35.97	21.40	11.00	-46.7	-50.0	16.4	0.00e+00	0	43	0	51380224	65	5140
2026-01-04 23:23:37.26	21.45	11.11	-46.8	-50.0	16.4	0.00e+00	0	43	0	54525952	65	5154
2026-01-04 23:23:37.97	21.48	11.17	-46.6	-49.8	16.6	0.00e+00	0	43	0	55574528	65	5027
2026-01-04 23:23:39.26	21.52	11.29	-46.7	-49.8	16.6	0.00e+00	0	43	0	57671680	65	5026
2026-01-04 23:23:40.07	21.55	11.36	-46.6	-49.7	16.8	0.00e+00	0	43	0	59768832	65	4930
2026-01-04 23:23:41.54	21.61	11.49	-46.6	-49.6	16.8	0.00e+00	0	43	0	61865984	65	4919
2026-01-04 23:23:42.26	21.63	11.56	-46.5	-49.5	17.0	0.00e+00	0	43	0	63963136	65	4849
2026-01-04 23:23:43.55	21.68	11.68	-46.4	-49.3	17.1	0.00e+00	0	43	0	66060288	64	5021
2026-01-04 23:23:44.26	21.71	11.74	-46.7	-49.6	16.8	0.00e+00	0	43	0	67108864	64	5209
2026-01-04 23:23:45.81	21.77	11.88	-46.8	-49.8	16.8	0.00e+00	0	43	0	70254592	64	5296
2026-01-04 23:23:46.52	21.79	11.95	-46.7	-49.7	16.8	0.00e+00	0	43	0	71303168	64	5229
2026-01-04 23:23:47.80	21.84	12.06	-46.7	-49.6	16.9	0.00e+00	0	43	0	74448896	64	5196
2026-01-04 23:23:48.52	21.87	12.13	-46.5	-49.4	17.1	0.00e+00	0	43	0	75497472	64	5043
2026-01-04 23:23:49.81	21.92	12.25	-46.5	-49.4	17.1	0.00e+00	0	43	0	77594624	64	5049
2026-01-04 23:23:50.52	21.95	12.32	-46.6	-49.4	17.1	0.00e+00	0	43	0	79691776	64	5063
2026-01-04 23:23:51.81	22.00	12.44	-46.4	-49.2	17.3	0.00e+00	0	43	0	81788928	64	4937
2026-01-04 23:23:52.53	22.02	12.51	-46.5	-49.2	17.2	0.00e+00	0	43	0	82837504	64	4967
2026-01-04 23:23:53.82	22.07	12.63	-46.4	-49.2	17.3	0.00e+00	0	43	0	84934656	64	4935
2026-01-04 23:23:54.54	22.10	12.69	-46.4	-49.1	17.3	0.00e+00	0	43	0	87031808	64	4891
2026-01-04 23:23:55.83	22.15	12.82	-46.4	-49.0	17.4	0.00e+00	0	43	0	89128960	64	4863
2026-01-04 23:23:56.65	22.19	12.90	-46.4	-49.1	17.4	0.00e+00	0	43	0	90177536	64	4883
2026-01-04 23:23:58.12	22.25	13.04	-46.3	-48.9	17.6	0.00e+00	0	43	0	93323264	64	4805
2026-01-04 23:23:58.84	22.28	13.11	-46.4	-49.1	17.4	0.00e+00	0	43	0	94371840	64	4885
2026-01-04 23:24:00.12	22.33	13.23	-46.2	-48.8	17.7	0.00e+00	0	43	0	97517568	64	4710
2026-01-04 23:24:00.84	22.36	13.30	-46.2	-48.8	17.6	0.00e+00	0	43	0	98566144	64	4740
2026-01-04 23:24:02.13	22.41	13.42	-46.4	-49.0	17.5	0.00e+00	0	43	0	100663296	64	4836
2026-01-04 23:24:02.85	22.44	13.49	-46.2	-48.7	17.8	0.00e+00	0	43	0	102760448	64	4665
2026-01-04 23:24:04.13	22.49	13.62	-46.2	-48.7	17.7	0.00e+00	0	43	0	104857600	64	4702
2026-01-04 23:24:04.85	22.52	13.69	-46.3	-48.8	17.6	0.00e+00	0	43	0	105906176	64	4748
2026-01-04 23:24:06.14	22.58	13.82	-46.3	-48.8	17.7	0.00e+00	0	43	0	108003328	64	4734
2026-01-04 23:24:06.85	22.61	13.89	-46.2	-48.8	17.7	0.00e+00	0	43	0	110100480	64	4713
2026-01-04 23:24:08.14	22.66	14.02	-46.2	-48.7	17.8	0.00e+00	0	43	0	112197632	64	4694
2026-01-04 23:24:08.86	22.69	14.09	-46.0	-48.5	17.9	0.00e+00	0	43	0	113246208	64	4593
2026-01-04 23:24:10.24	22.75	14.23	-46.2	-48.7	17.7	0.00e+00	0	43	0	116391936	64	4698
2026-01-04 23:24:10.96	22.79	14.30	-46.1	-48.6	17.9	0.00e+00	0	43	0	117440512	64	4614
2026-01-04 23:24:12.25	22.84	14.43	-46.1	-48.7	17.9	0.00e+00	0	43	0	119537664	63	4937
2026-01-04 23:24:12.96	22.87	14.50	-46.3	-48.9	17.7	0.00e+00	0	43	0	121634816	63	5064
2026-01-04 23:24:14.25	22.93	14.63	-46.3	-48.9	17.7	0.00e+00	0	43	0	123731968	63	5051
2026-01-04 23:24:14.97	22.96	14.71	-46.1	-48.6	18.0	0.00e+00	0	43	0	124780544	63	4901
2026-01-04 23:24:16.26	23.02	14.84	-46.0	-48.6	18.0	0.00e+00	0	43	0	126877696	63	4879
2026-01-04 23:24:16.98	23.05	14.92	-46.1	-48.7	17.9	0.00e+00	0	43	0	128974848	63	4932
2026-01-04 23:24:18.27	23.11	15.05	-46.3	-48.9	17.7	0.00e+00	0	43	0	131072000	63	5078
2026-01-04 23:24:18.98	23.14	15.12	-46.2	-48.8	17.8	0.00e+00	0	43	0	132120576	63	5019
2026-01-04 23:24:20.27	23.20	15.26	-46.2	-48.8	17.8	0.00e+00	0	43	0	135266304	63	5021
2026-01-04 23:24:21.12	23.24	15.35	-46.2	-48.8	17.8	0.00e+00	0	43	0	136314880	63	5007
2026-01-04 23:24:22.26	23.30	15.47	-46.2	-48.8	17.7	0.00e+00	0	43	0	138412032	63	5037
2026-01-04 23:24:23.12	23.34	15.56	-46.2	-48.9	17.6	0.00e+00	0	43	0	140509184	63	5085
2026-01-04 23:24:24.68	23.41	15.72	-46.4	-49.1	17.5	0.00e+00	0	43	0	143654912	63	5206
2026-01-04 23:24:25.39	23.45	15.80	-46.2	-49.0	17.6	0.00e+00	0	43	0	144703488	63	5110
2026-01-04 23:24:26.68	23.51	15.94	-46.3	-49.1	17.5	0.00e+00	0	43	0	146800640	63	5176
2026-01-04 23:24:27.40	23.54	16.02	-46.4	-49.1	17.5	0.00e+00	0	43	0	147849216	63	5188
2026-01-04 23:24:28.69	23.61	16.16	-46.3	-49.0	17.6	0.00e+00	0	43	0	150994944	63	5131
2026-01-04 23:24:29.49	23.64	16.24	-46.4	-49.2	17.4	0.00e+00	0	43	0	152043520	63	5239
2026-01-04 23:24:30.63	23.70	16.37	-46.3	-48.9	17.6	0.00e+00	0	43	0	154140672	63	5086
2026-01-04 23:24:31.70	23.75	16.49	-46.4	-49.1	17.5	0.00e+00	0	43	0	156237824	63	5164
2026-01-04 23:24:32.75	23.81	16.60	-46.3	-49.0	17.6	0.00e+00	0	43	0	158334976	63	5111
2026-01-04 23:24:33.83	23.86	16.72	-46.3	-49.0	17.6	0.00e+00	0	43	0	160432128	63	5109
2026-01-04 23:24:34.85	23.91	16.84	-46.4	-49.1	17.6	0.00e+00	0	43	0	162529280	63	5178
2026-01-04 23:24:35.85	23.96	16.95	-46.4	-49.1	17.5	0.00e+00	0	43	0	164626432	63	5173
2026-01-04 23:24:36.86	24.02	17.06	-46.3	-48.9	17.8	0.00e+00	0	43	0	165675008	63	5056
2026-01-04 23:24:37.86	24.07	17.17	-46.5	-49.1	17.5	0.00e+00	0	43	0	167772160	63	5202
2026-01-04 23:24:38.87	24.12	17.29	-46.4	-49.1	17.6	0.00e+00	0	43	0	169869312	63	5164
2026-01-04 23:24:39.87	24.17	17.40	-46.5	-49.1	17.5	0.00e+00	0	43	0	171966464	63	5215
2026-01-04 23:24:40.87	24.23	17.52	-46.5	-49.1	17.6	0.00e+00	0	43	0	173015040	63	5176
2026-01-04 23:24:41.87	24.28	17.63	-46.6	-49.3	17.2	0.00e+00	0	43	0	175112192	64	5018
2026-01-04 23:24:42.87	24.33	17.75	-46.6	-49.3	17.3	0.00e+00	0	43	0	177209344	64	5020
2026-01-04 23:24:43.87	24.39	17.86	-46.5	-49.2	17.3	0.00e+00	0	43	0	179306496	64	4958
2026-01-04 23:24:44.94	24.45	17.99	-46.5	-49.2	17.3	0.00e+00	0	43	0	181403648	64	4973
2026-01-04 23:24:45.82	24.49	18.09	-46.6	-49.3	17.3	0.00e+00	0	43	0	182452224	64	5017
2026-01-04 23:24:47.14	24.57	18.25	-46.6	-49.4	17.2	0.00e+00	0	43	0	185597952	64	5085
2026-01-04 23:24:48.27	24.63	18.38	-46.7	-49.6	17.1	0.00e+00	0	43	0	187695104	64	5169
2026-01-04 23:24:49.13	24.68	18.48	-46.8	-49.7	17.0	0.00e+00	0	43	0	188743680	64	5223
2026-01-04 23:24:50.28	24.74	18.62	-46.7	-49.6	17.0	0.00e+00	0	43	0	190840832	64	5187
2026-01-04 23:24:51.13	24.79	18.72	-46.6	-49.5	17.0	0.00e+00	0	43	0	192937984	64	5159
2026-01-04 23:24:52.34	24.86	18.87	-46.6	-49.5	17.1	0.00e+00	0	43	0	195035136	64	5153
2026-01-04 23:24:53.20	24.91	18.97	-46.7	-49.7	16.9	0.00e+00	0	43	0	197132288	64	5221
2026-01-04 23:24:54.35	24.98	19.11	-46.7	-49.7	16.9	0.00e+00	0	43	0	199229440	64	5238
2026-01-04 23:24:55.21	25.03	19.22	-46.8	-49.8	16.8	0.00e+00	0	43	0	200278016	64	5338
2026-01-04 23:24:56.48	25.10	19.37	-46.7	-49.7	16.9	0.00e+00	0	43	0	202375168	64	5275
2026-01-04 23:24:57.20	25.15	19.46	-46.6	-49.7	16.9	0.00e+00	0	43	0	204472320	64	5219
2026-01-04 23:24:58.49	25.22	19.62	-46.7	-49.8	16.8	0.00e+00	0	43	0	206569472	64	5292
2026-01-04 23:24:59.20	25.27	19.71	-46.7	-49.8	16.8	0.00e+00	0	43	0	207618048	64	5328
2026-01-04 23:25:00.76	25.36	19.91	-46.9	-50.1	16.6	0.00e+00	0	43	0	210763776	64	5476
2026-01-04 23:25:01.47	25.41	20.00	-47.0	-50.2	16.5	0.00e+00	0	43	0	211812352	64	5533
2026-01-04 23:25:02.76	25.49	20.16	-46.9	-50.0	16.7	0.00e+00	0	43	0	214958080	64	5417
2026-01-04 23:25:03.48	25.53	20.25	-47.0	-50.1	16.6	0.00e+00	0	43	0	216006656	64	5510
2026-01-04 23:25:04.77	25.61	20.42	-47.0	-50.1	16.5	0.00e+00	0	43	0	218103808	64	5528
2026-01-04 23:25:05.48	25.66	20.51	-46.9	-50.0	16.6	0.00e+00	0	43	0	220200960	64	5448
2026-01-04 23:25:06.77	25.74	20.68	-47.0	-50.2	16.5	0.00e+00	0	43	0	222298112	64	5537
2026-01-04 23:25:07.49	25.79	20.77	-46.7	-49.6	17.0	0.00e+00	0	43	0	223346688	64	5214
2026-01-04 23:25:08.78	25.87	20.94	-46.7	-49.7	17.0	0.00e+00	0	43	0	225443840	64	5252
2026-01-04 23:25:09.50	25.92	21.03	-46.6	-49.6	17.1	0.00e+00	0	43	0	227540992	64	5161
2026-01-04 23:25:10.78	26.00	21.20	-46.4	-49.3	17.4	0.00e+00	0	43	0	229638144	64	4988
2026-01-04 23:25:11.66	26.06	21.32	-46.4	-49.2	17.4	0.00e+00	0	43	0	231735296	64	4946
2026-01-04 23:25:13.14	26.16	21.52	-46.4	-49.2	17.5	0.00e+00	0	43	0	233832448	64	4928
2026-01-04 23:25:13.86	26.21	21.61	-46.2	-48.9	17.7	0.00e+00	0	43	0	234881024	64	4773
2026-01-04 23:25:15.15	26.30	21.79	-46.2	-48.8	17.8	0.00e+00	0	43	0	238026752	64	4743
2026-01-04 23:25:15.86	26.35	21.88	-46.1	-48.6	18.0	0.00e+00	0	43	0	239075328	64	4618
2026-01-04 23:25:17.14	26.44	22.06	-46.2	-48.7	17.9	0.00e+00	0	43	0	241172480	64	4665
2026-01-04 23:25:17.86	26.49	22.16	-46.2	-48.7	17.8	0.00e+00	0	43	0	243269632	64	4696
2026-01-04 23:25:19.15	26.58	22.33	-46.1	-48.6	18.0	0.00e+00	0	43	0	245366784	64	4614
2026-01-04 23:25:19.88	26.63	22.43	-46.3	-48.8	17.8	0.00e+00	0	43	0	246415360	63	5025
2026-01-04 23:25:21.18	26.72	22.61	-46.0	-48.5	18.2	0.00e+00	0	43	0	249561088	63	4820
2026-01-04 23:25:21.99	26.78	22.73	-46.0	-48.4	18.2	0.00e+00	0	43	0	250609664	63	4810
2026-01-04 23:25:23.13	26.87	22.89	-46.1	-48.6	18.1	0.00e+00	0	43	0	252706816	63	4889
2026-01-04 23:25:23.99	26.93	23.01	-45.8	-48.2	18.4	0.00e+00	0	43	0	254803968	63	4689
2026-01-04 23:25:25.14	27.02	23.17	-45.9	-48.3	18.4	0.00e+00	0	43	0	256901120	63	4721
2026-01-04 23:25:26.00	27.08	23.30	-45.7	-48.1	18.5	0.00e+00	0	43	0	257949696	63	4605
2026-01-04 23:25:27.14	27.17	23.46	-45.7	-48.0	18.6	0.00e+00	0	43	0	260046848	63	4598
2026-01-04 23:25:28.37	27.26	23.64	-45.8	-48.2	18.4	0.00e+00	0	43	0	262144000	63	4672
2026-01-04 23:25:29.42	27.34	23.79	-45.7	-48.1	18.5	0.00e+00	0	43	0	264241152	63	4624
2026-01-04 23:25:30.31	27.41	23.92	-45.8	-48.2	18.5	0.00e+00	0	43	0	266338304	63	4674
2026-01-04 23:25:31.46	27.50	24.09	-45.8	-48.2	18.4	0.00e+00	0	43	0	268435456	63	4682
2026-01-04 23:25:32.32	27.57	24.22	-45.7	-48.1	18.6	0.00e+00	0	43	0	270532608	63	4611
2026-01-04 23:25:33.46	27.66	24.38	-45.7	-48.1	18.6	0.00e+00	0	43	0	272629760	63	4603
2026-01-04 23:25:34.32	27.73	24.51	-45.8	-48.3	18.4	0.00e+00	0	43	0	273678336	63	4712
2026-01-04 23:25:35.47	27.83	24.68	-45.9	-48.3	18.3	0.00e+00	0	43	0	275775488	63	4731
2026-01-04 23:25:36.33	27.90	24.81	-45.6	-48.0	18.6	0.00e+00	0	43	0	277872640	63	4570
2026-01-04 23:25:37.51	27.99	24.99	-45.8	-48.2	18.5	0.00e+00	0	43	0	279969792	63	4659
2026-01-04 23:25:38.37	28.07	25.12	-45.8	-48.2	18.4	0.00e+00	0	43	0	281018368	63	4684
2026-01-04 23:25:39.58	28.17	25.31	-45.7	-48.1	18.6	0.00e+00	0	43	0	284164096	63	4616
2026-01-04 23:25:40.44	28.24	25.44	-45.8	-48.2	18.5	0.00e+00	0	43	0	285212672	63	4690
2026-01-04 23:25:41.58	28.34	25.62	-45.9	-48.3	18.4	0.00e+00	0	43	0	287309824	63	4716
2026-01-04 23:25:42.44	28.42	25.75	-45.9	-48.3	18.4	0.00e+00	0	43	0	289406976	63	4736
2026-01-04 23:25:43.59	28.52	25.93	-45.9	-48.3	18.4	0.00e+00	0	44	0	291504128	63	4715
2026-01-04 23:25:44.45	28.59	26.07	-46.0	-48.4	18.3	0.00e+00	0	43	0	292552704	63	4801
2026-01-04 23:25:45.60	28.70	26.25	-46.0	-48.4	18.3	0.00e+00	0	43	0	294649856	63	4789
2026-01-04 23:25:46.45	28.77	26.39	-46.0	-48.4	18.3	0.00e+00	0	43	0	296747008	63	4802
2026-01-04 23:25:47.60	28.88	26.57	-45.9	-48.3	18.3	0.00e+00	0	43	0	298844160	63	4758
2026-01-04 23:25:48.46	28.96	26.71	-45.9	-48.3	18.4	0.00e+00	0	43	0	299892736	63	4717
2026-01-04 23:25:49.61	29.07	26.90	-45.7	-48.1	18.6	0.00e+00	0	43	0	301989888	63	4619
2026-01-04 23:25:50.73	29.17	27.08	-45.6	-48.0	18.7	0.00e+00	0	43	0	304087040	63	4558
2026-01-04 23:25:51.59	29.25	27.22	-45.5	-47.8	18.8	0.00e+00	0	43	0	306184192	62	4751
2026-01-04 23:25:53.10	29.40	27.47	-45.5	-47.8	18.8	0.00e+00	0	43	0	309329920	62	4751
2026-01-04 23:25:53.82	29.47	27.59	-45.5	-47.9	18.8	0.00e+00	0	43	0	310378496	62	4772
2026-01-04 23:25:55.11	29.60	27.80	-45.5	-47.8	18.8	0.00e+00	0	43	0	312475648	62	4754
2026-01-04 23:25:55.82	29.67	27.92	-45.7	-48.1	18.7	0.00e+00	0	43	0	314572800	62	4898
2026-01-04 23:25:57.11	29.80	28.14	-45.7	-48.0	18.7	0.00e+00	0	43	0	316669952	62	4838
2026-01-04 23:25:57.88	29.87	28.27	-45.7	-48.0	18.7	0.00e+00	0	43	0	317718528	62	4851
2026-01-04 23:25:59.16	30.00	28.49	-45.8	-48.2	18.5	0.00e+00	0	43	0	319815680	62	4935
2026-01-04 23:25:59.97	30.09	28.63	-45.9	-48.3	18.4	0.00e+00	0	43	0	321912832	62	5010
2026-01-04 23:26:01.12	30.21	28.83	-45.9	-48.4	18.2	0.00e+00	0	43	0	324009984	62	5061
2026-01-04 23:26:02.22	30.32	29.02	-46.0	-48.5	18.2	0.00e+00	0	43	0	326107136	62	5154
2026-01-04 23:26:03.25	30.44	29.20	-46.4	-49.0	17.8	0.00e+00	0	44	0	328204288	63	5118
2026-01-04 23:26:04.25	30.54	29.38	-46.3	-48.9	17.9	0.00e+00	0	43	0	330301440	63	5058
2026-01-04 23:26:05.26	30.65	29.55	-46.4	-49.1	17.8	0.00e+00	0	43	0	331350016	63	5160
2026-01-04 23:26:06.26	30.76	29.73	-46.6	-49.2	17.5	0.00e+00	0	43	0	333447168	64	4977
2026-01-04 23:26:07.26	30.88	29.91	-46.6	-49.3	17.5	0.00e+00	0	43	0	335544320	64	5001
2026-01-04 23:26:08.26	30.99	30.09	-47.1	-50.0	16.9	0.00e+00	0	43	0	337641472	64	5410
2026-01-04 23:26:09.27	31.10	30.27	-47.2	-50.0	16.8	0.00e+00	0	43	0	339738624	65	5142
2026-01-04 23:26:10.27	31.22	30.46	-47.1	-49.9	16.8	0.00e+00	0	43	0	340787200	65	5095
2026-01-04 23:26:11.27	31.34	30.64	-47.7	-50.7	16.2	0.00e+00	0	43	0	342884352	66	5238
2026-01-04 23:26:12.28	31.46	30.83	-47.8	-50.8	16.0	0.00e+00	0	43	0	344981504	66	5317
2026-01-04 23:26:13.28	31.57	31.01	-48.2	-51.4	15.5	0.00e+00	0	43	0	347078656	67	5341
2026-01-04 23:26:14.28	31.70	31.20	-48.5	-51.9	15.0	0.00e+00	0	43	0	349175808	67	5686
2026-01-04 23:26:15.28	31.82	31.38	-49.1	-52.7	14.4	7.00e-07	0	43	0	350224384	68	5893
2026-01-04 23:26:16.35	31.95	31.59	-49.0	-52.5	14.5	0.00e+00	0	43	0	352321536	69	5447
2026-01-04 23:26:17.24	32.06	31.75	-49.3	-53.0	14.1	0.00e+00	0	43	0	354418688	69	5755
2026-01-04 23:26:18.39	32.20	31.97	-49.2	-52.8	14.2	7.00e-07	0	43	0	356515840	69	5624
2026-01-04 23:26:19.25	32.31	32.14	-49.0	-52.4	14.7	1.50e-06	0	44	0	357564416	69	5362
2026-01-04 23:26:20.39	32.46	32.36	-49.2	-52.8	14.3	0.00e+00	0	43	0	359661568	69	5600
2026-01-04 23:26:21.26	32.58	32.53	-49.1	-52.6	14.5	0.00e+00	0	43	0	361758720	69	5484
2026-01-04 23:26:22.40	32.73	32.75	-48.9	-52.3	14.7	0.00e+00	0	43	0	363855872	69	5318
2026-01-04 23:26:23.26	32.84	32.92	-49.1	-52.7	14.4	0.00e+00	0	43	0	365953024	69	5557
2026-01-04 23:26:24.41	33.00	33.15	-48.5	-51.8	15.3	0.00e+00	0	43	0	368050176	68	5291
2026-01-04 23:26:25.27	33.11	33.32	-48.5	-51.8	15.3	0.00e+00	0	43	0	369098752	68	5282
2026-01-04 23:26:26.41	33.27	33.54	-48.2	-51.2	15.9	0.00e+00	0	43	0	371195904	68	4965
2026-01-04 23:26:27.27	33.39	33.72	-47.9	-50.9	16.0	0.00e+00	0	43	0	373293056	67	5074
2026-01-04 23:26:28.42	33.56	33.95	-47.8	-50.8	16.0	0.00e+00	0	43	0	375390208	67	4988
2026-01-04 23:26:29.28	33.68	34.12	-47.6	-50.5	16.4	0.00e+00	0	43	0	376438784	67	4836
2026-01-04 23:26:30.42	33.85	34.36	-47.6	-50.5	16.3	0.00e+00	0	43	0	378535936	67	4851
2026-01-04 23:26:31.28	33.97	34.53	-47.6	-50.5	16.4	0.00e+00	0	43	0	380633088	67	4828
2026-01-04 23:26:32.54	34.16	34.79	-47.6	-50.6	16.2	0.00e+00	0	43	0	382730240	67	4876
2026-01-04 23:26:33.33	34.28	34.96	-47.6	-50.5	16.4	0.00e+00	0	43	0	384827392	67	4827
2026-01-04 23:26:34.49	34.46	35.20	-48.0	-51.1	15.9	0.00e+00	0	43	0	386924544	67	5200
2026-01-04 23:26:35.35	34.59	35.38	-48.1	-51.2	15.7	0.00e+00	0	43	0	387973120	67	5251
2026-01-04 23:26:36.71	34.80	35.67	-48.3	-51.6	15.4	0.00e+00	0	43	0	391118848	67	5470
2026-01-04 23:26:37.43	34.92	35.82	-48.5	-51.8	15.1	0.00e+00	0	43	0	392167424	67	5601
2026-01-04 23:26:38.72	35.13	36.10	-48.4	-51.7	15.3	0.00e+00	0	43	0	394264576	67	5543
2026-01-04 23:26:39.44	35.24	36.25	-48.8	-52.1	14.9	0.00e+00	0	43	0	396361728	68	5493
2026-01-04 23:26:40.73	35.46	36.53	-48.9	-52.2	14.9	0.00e+00	0	44	0	398458880	68	5571
2026-01-04 23:26:41.45	35.58	36.69	-48.7	-52.0	15.1	0.00e+00	0	43	0	399507456	68	5417
2026-01-04 23:26:42.74	35.80	36.97	-48.0	-50.9	16.1	0.00e+00	0	43	0	401604608	68	4787
2026-01-04 23:26:43.45	35.92	37.13	-48.0	-51.1	15.9	0.00e+00	0	43	0	403701760	67	5162
2026-01-04 23:26:44.74	36.14	37.41	-48.3	-51.4	15.5	0.00e+00	0	44	0	405798912	67	5395
2026-01-04 23:26:45.46	36.27	37.57	-48.1	-51.2	15.7	0.00e+00	0	44	0	406847488	67	5269
2026-01-04 23:26:46.74	36.50	37.86	-48.4	-51.7	15.2	0.00e+00	0	43	0	409993216	67	5574
2026-01-04 23:26:47.46	36.63	38.02	-48.6	-51.9	15.1	0.00e+00	0	43	0	411041792	67	5697
2026-01-04 23:26:48.75	36.87	38.31	-48.9	-52.3	14.9	7.00e-07	0	43	0	413138944	69	5308
2026-01-04 23:26:49.47	37.00	38.47	-48.5	-51.8	15.4	0.00e+00	0	43	0	415236096	68	5291
2026-01-04 23:26:50.76	37.24	38.77	-48.6	-51.8	15.2	0.00e+00	0	43	0	417333248	68	5335
2026-01-04 23:26:51.47	37.38	38.93	-48.1	-51.2	15.9	0.00e+00	0	43	0	418381824	68	4929
2026-01-04 23:26:52.76	37.63	39.23	-48.3	-51.4	15.6	0.00e+00	0	43	0	420478976	68	5086
2026-01-04 23:26:53.47	37.77	39.39	-48.1	-51.1	16.0	0.00e+00	0	44	0	422576128	68	4891
2026-01-04 23:26:54.77	38.03	39.70	-48.6	-51.9	15.2	0.00e+00	0	43	0	424673280	68	5364
2026-01-04 23:26:55.50	38.18	39.87	-48.7	-52.0	15.0	1.50e-06	0	44	0	425721856	68	5423
2026-01-04 23:26:56.79	38.44	40.17	-48.6	-51.8	15.3	0.00e+00	0	44	0	428867584	68	5326
2026-01-04 23:26:57.57	38.61	40.35	-48.5	-51.7	15.4	0.00e+00	0	43	0	429916160	68	5265
2026-01-04 23:26:58.85	38.88	40.66	-48.5	-51.8	15.3	0.00e+00	0	43	0	432013312	68	5293
2026-01-04 23:26:59.57	39.03	40.83	-48.6	-51.9	15.3	0.00e+00	0	43	0	434110464	68	5374
2026-01-04 23:27:00.86	39.31	41.14	-48.0	-51.0	16.0	0.00e+00	0	44	0	436207616	68	4837
2026-01-04 23:27:01.70	39.50	41.34	-48.1	-51.1	16.0	0.00e+00	0	44	0	437256192	68	4924
2026-01-04 23:27:02.85	39.76	41.62	-47.5	-50.3	16.6	0.00e+00	0	43	0	439353344	66	4996
2026-01-04 23:27:03.71	39.95	41.83	-47.3	-50.0	16.8	0.00e+00	0	43	0	441450496	66	4867
2026-01-04 23:27:04.85	40.22	42.11	-47.3	-50.1	16.8	0.00e+00	0	43	0	443547648	66	4882
2026-01-04 23:27:05.71	40.42	42.32	-47.5	-50.3	16.6	0.00e+00	0	43	0	444596224	66	5007
2026-01-04 23:27:06.86	40.69	42.61	-47.9	-50.8	16.1	0.00e+00	0	44	0	447741952	66	5308
2026-01-04 23:27:07.72	40.90	42.82	-48.1	-51.2	15.7	0.00e+00	0	44	0	448790528	67	5251
2026-01-04 23:27:08.86	41.18	43.11	-49.0	-52.6	14.8	0.00e+00	0	43	0	450887680	68	5804
2026-01-04 23:27:09.72	41.40	43.32	-48.9	-52.4	14.8	7.00e-07	0	43	0	452984832	68	5658
2026-01-04 23:27:10.87	41.69	43.61	-48.6	-51.9	15.3	0.00e+00	0	43	0	455081984	68	5367
2026-01-04 23:27:11.73	41.91	43.83	-48.6	-51.8	15.3	0.00e+00	0	44	0	456130560	68	5319
2026-01-04 23:27:12.88	42.21	44.12	-48.5	-51.7	15.4	0.00e+00	0	44	0	458227712	68	5234
2026-01-04 23:27:13.73	42.44	44.34	-48.3	-51.4	15.6	0.00e+00	0	44	0	460324864	68	5064
2026-01-04 23:27:14.88	42.75	44.63	-48.5	-51.6	15.6	0.00e+00	0	43	0	462422016	68	5206
2026-01-04 23:27:15.74	42.98	44.85	-48.3	-51.4	15.7	0.00e+00	0	43	0	463470592	68	5051
2026-01-04 23:27:16.89	43.30	45.15	-48.4	-51.5	15.5	0.00e+00	0	43	0	465567744	68	5115
2026-01-04 23:27:17.75	43.55	45.37	-48.7	-52.0	15.2	7.00e-07	0	44	0	467664896	68	5405
2026-01-04 23:27:18.89	43.88	45.67	-48.1	-51.1	16.0	0.00e+00	0	44	0	469762048	68	4894
2026-01-04 23:27:19.75	44.13	45.89	-48.0	-51.1	16.0	0.00e+00	0	44	0	471859200	67	5165
2026-01-04 23:27:20.89	44.47	46.19	-47.7	-50.6	16.3	0.00e+00	0	43	0	473956352	66	5203
2026-01-04 23:27:21.75	44.73	46.41	-47.5	-50.3	16.6	0.00e+00	0	44	0	475004928	66	5031
2026-01-04 23:27:23.02	45.12	46.75	-47.1	-49.7	17.2	0.00e+00	0	43	0	477102080	66	4677
2026-01-04 23:27:23.74	45.34	46.94	-47.0	-49.6	17.2	0.00e+00	0	44	0	479199232	65	4919
2026-01-04 23:27:25.28	45.83	47.34	-47.1	-49.7	17.1	0.00e+00	0	43	0	482344960	65	4981
2026-01-04 23:27:25.99	46.07	47.53	-47.3	-50.1	16.7	0.00e+00	0	44	0	483393536	65	5172
2026-01-04 23:27:27.28	46.49	47.88	-47.4	-50.2	16.8	0.00e+00	0	43	0	485490688	65	5226
2026-01-04 23:27:28.00	46.73	48.07	-47.7	-50.6	16.4	0.00e+00	0	43	0	486539264	65	5466
2026-01-04 23:27:29.28	47.17	48.41	-47.7	-50.6	16.3	0.00e+00	0	43	0	489684992	66	5180
2026-01-04 23:27:30.00	47.42	48.60	-47.7	-50.6	16.3	0.00e+00	0	44	0	490733568	66	5192
2026-01-04 23:27:31.29	47.88	48.95	-47.3	-50.1	16.9	0.00e+00	0	43	0	492830720	66	4873
2026-01-04 23:27:32.01	48.14	49.14	-47.5	-50.3	16.6	0.00e+00	0	43	0	494927872	66	4999
2026-01-04 23:27:33.30	48.61	49.49	-47.2	-49.9	16.9	0.00e+00	0	43	0	497025024	66	4780
2026-01-04 23:27:34.02	48.88	49.68	-46.6	-49.1	17.6	0.00e+00	0	43	0	498073600	65	4625
2026-01-04 23:27:35.31	49.37	50.03	-46.5	-48.9	17.9	0.00e+00	0	44	0	500170752	64	4782
2026-01-04 23:27:36.02	49.64	50.22	-46.6	-49.1	17.7	0.00e+00	0	44	0	502267904	64	4902
2026-01-04 23:27:37.31	50.15	50.57	-46.5	-48.9	17.8	0.00e+00	0	43	0	504365056	64	4809
2026-01-04 23:27:38.03	50.44	50.77	-46.7	-49.2	17.6	0.00e+00	0	43	0	505413632	64	4961
2026-01-04 23:27:39.32	50.96	51.12	-47.2	-50.0	16.8	0.00e+00	0	43	0	508559360	65	5107
2026-01-04 23:27:40.03	51.26	51.31	-47.2	-49.9	17.0	0.00e+00	0	43	0	509607936	65	5077
2026-01-04 23:27:41.32	51.80	51.66	-46.9	-49.6	17.2	0.00e+00	0	43	0	511705088	65	4886
2026-01-04 23:27:42.04	52.11	51.86	-46.5	-49.0	17.8	0.00e+00	0	43	0	512753664	64	4825
2026-01-04 23:27:43.33	52.68	52.20	-46.4	-48.9	17.9	0.00e+00	0	44	0	515899392	64	4770
2026-01-04 23:27:44.04	53.00	52.40	-46.5	-49.0	17.8	0.00e+00	0	43	0	516947968	64	4847
2026-01-04 23:27:45.33	53.58	52.75	-47.0	-49.7	17.2	0.00e+00	0	43	0	519045120	64	5258
2026-01-04 23:27:46.05	53.92	52.94	-47.1	-49.8	17.0	0.00e+00	0	44	0	521142272	65	5016
2026-01-04 23:27:47.34	54.52	53.29	-47.0	-49.6	17.2	0.00e+00	0	44	0	523239424	65	4922
2026-01-04 23:27:48.05	54.86	53.48	-46.5	-49.0	17.8	0.00e+00	0	44	0	524288000	64	4868
2026-01-04 23:27:49.34	55.50	53.82	-46.3	-48.7	18.2	0.00e+00	0	44	0	527433728	63	4929
2026-01-04 23:27:50.06	55.85	54.02	-46.1	-48.4	18.3	0.00e+00	0	43	0	528482304	63	4801
2026-01-04 23:27:51.34	56.50	54.36	-46.5	-49.0	17.9	0.00e+00	0	43	0	530579456	63	5102
2026-01-04 23:27:52.06	56.88	54.55	-46.4	-48.9	18.0	0.00e+00	0	43	0	531628032	63	5070
2026-01-04 23:27:53.35	57.55	54.89	-46.2	-48.6	18.2	0.00e+00	0	43	0	534773760	63	4910
2026-01-04 23:27:54.06	57.93	55.08	-45.9	-48.3	18.5	0.00e+00	0	43	0	535822336	63	4732
2026-01-04 23:27:55.35	58.64	55.42	-45.8	-48.1	18.7	0.00e+00	0	43	0	537919488	62	4900
2026-01-04 23:27:56.07	59.04	55.61	-46.2	-48.6	18.3	0.00e+00	0	44	0	540016640	62	5186
2026-01-04 23:27:57.45	59.82	55.97	-46.8	-49.4	17.5	0.00e+00	0	43	0	542113792	64	5083
2026-01-04 23:27:58.16	60.23	56.15	-47.0	-49.8	17.1	0.00e+00	0	44	0	543162368	64	5314
2026-01-04 23:27:59.53	61.04	56.50	-46.0	-48.4	18.5	0.00e+00	0	43	0	546308096	63	4781
2026-01-04 23:28:00.25	61.47	56.69	-46.0	-48.3	18.5	0.00e+00	0	43	0	547356672	63	4756
2026-01-04 23:28:01.54	62.26	57.01	-45.8	-48.1	18.6	0.00e+00	0	43	0	549453824	63	4635
2026-01-04 23:28:02.26	62.71	57.19	-45.7	-48.1	18.8	0.00e+00	0	43	0	551550976	62	4880
2026-01-04 23:28:03.67	63.61	57.54	-46.4	-48.8	18.0	0.00e+00	0	43	0	553648128	63	5027
2026-01-04 23:28:04.39	64.08	57.72	-46.4	-48.9	18.0	0.00e+00	0	43	0	554696704	63	5046
2026-01-04 23:28:05.78	65.00	58.06	-46.6	-49.2	17.6	0.00e+00	0	43	0	557842432	64	4935
2026-01-04 23:28:06.49	65.47	58.23	-46.5	-49.0	17.8	0.00e+00	0	43	0	558891008	64	4835
2026-01-04 23:28:07.85	66.41	58.56	-46.3	-48.7	18.0	0.00e+00	0	43	0	562036736	64	4667
2026-01-04 23:28:08.56	66.90	58.72	-46.0	-48.3	18.5	0.00e+00	0	43	0	563085312	63	4732
2026-01-04 23:28:09.85	67.82	59.02	-46.2	-48.6	18.3	0.00e+00	0	43	0	565182464	63	4879
2026-01-04 23:28:10.57	68.34	59.19	-46.4	-48.8	18.0	0.00e+00	0	43	0	567279616	63	5005
2026-01-04 23:28:11.86	69.29	59.48	-46.3	-48.7	18.2	0.00e+00	0	44	0	569376768	63	4967
2026-01-04 23:28:12.58	69.83	59.64	-46.0	-48.4	18.4	0.00e+00	0	43	0	570425344	63	4770
2026-01-04 23:28:13.86	70.81	59.92	-46.6	-49.2	17.6	0.00e+00	0	43	0	572522496	64	4975
2026-01-04 23:28:14.58	71.36	60.07	-47.0	-49.7	17.2	0.00e+00	0	43	0	574619648	64	5233
2026-01-04 23:28:15.87	72.38	60.34	-47.1	-49.9	17.0	0.00e+00	0	44	0	576716800	65	5056
2026-01-04 23:28:16.59	72.96	60.49	-46.6	-49.1	17.6	0.00e+00	0	44	0	577765376	65	4648
2026-01-04 23:28:17.88	74.01	60.75	-46.5	-49.0	17.7	0.00e+00	0	43	0	580911104	64	4831
2026-01-04 23:28:18.59	74.59	60.89	-46.2	-48.6	18.1	0.00e+00	0	43	0	581959680	64	4620
2026-01-04 23:28:19.88	75.68	61.14	-45.6	-47.9	18.9	0.00e+00	0	43	0	584056832	63	4502
2026-01-04 23:28:20.60	76.29	61.28	-45.4	-47.6	19.1	0.00e+00	0	43	0	585105408	62	4631
2026-01-04 23:28:21.89	77.41	61.52	-45.8	-48.2	18.6	0.00e+00	0	43	0	588251136	62	4956
2026-01-04 23:28:22.60	78.03	61.64	-45.9	-48.3	18.5	0.00e+00	0	43	0	589299712	62	4998
2026-01-04 23:28:23.95	79.23	61.87	-45.9	-48.3	18.5	0.00e+00	0	43	0	591396864	62	5008
2026-01-04 23:28:24.67	79.88	61.99	-45.8	-48.2	18.6	0.00e+00	0	43	0	593494016	62	4945
2026-01-04 23:28:26.04	81.14	62.22	-45.6	-47.8	18.9	0.00e+00	0	44	0	595591168	62	4751
2026-01-04 23:28:26.76	81.81	62.33	-45.3	-47.5	19.3	0.00e+00	0	43	0	596639744	62	4578
2026-01-04 23:28:28.05	83.02	62.52	-44.9	-47.1	19.5	0.00e+00	0	43	0	599785472	61	4618
2026-01-04 23:28:28.76	83.70	62.62	-45.0	-47.2	19.5	0.00e+00	0	43	0	600834048	61	4701
2026-01-04 23:28:30.05	84.94	62.79	-44.9	-47.1	19.5	0.00e+00	0	43	0	602931200	61	4618
2026-01-04 23:28:30.77	85.64	62.89	-45.2	-47.5	19.3	0.00e+00	0	43	0	605028352	61	4837
2026-01-04 23:28:32.05	86.90	63.04	-45.7	-48.0	18.7	0.00e+00	0	44	0	607125504	62	4854
2026-01-04 23:28:32.77	87.62	63.13	-45.3	-47.6	19.1	0.00e+00	0	43	0	608174080	62	4621
2026-01-04 23:28:34.06	88.91	63.27	-45.4	-47.7	19.1	0.00e+00	0	44	0	610271232	62	4678
2026-01-04 23:28:34.87	89.73	63.35	-46.0	-48.4	18.3	0.00e+00	0	44	0	612368384	62	5098
2026-01-04 23:28:36.02	90.90	63.46	-46.3	-48.8	18.0	0.00e+00	0	43	0	614465536	63	5035
2026-01-04 23:28:36.88	91.79	63.53	-45.3	-47.6	19.2	0.00e+00	0	43	0	616562688	62	4606
2026-01-04 23:28:38.02	92.97	63.62	-45.2	-47.4	19.3	0.00e+00	0	43	0	618659840	61	4777
2026-01-04 23:28:38.88	93.87	63.69	-46.0	-48.5	18.3	0.00e+00	0	43	0	619708416	62	5116
2026-01-04 23:28:40.03	95.07	63.76	-47.2	-49.9	17.0	0.00e+00	0	44	0	621805568	64	5365
2026-01-04 23:28:40.89	95.98	63.81	-47.4	-50.2	16.7	0.00e+00	0	44	0	623902720	65	5224
2026-01-04 23:28:42.04	97.20	63.86	-46.6	-49.2	17.6	0.00e+00	0	44	0	625999872	65	4653
2026-01-04 23:28:42.90	98.11	63.90	-46.4	-49.0	17.8	0.00e+00	0	43	0	627048448	64	4835
2026-01-04 23:28:44.11	99.40	63.94	-46.3	-48.9	17.9	0.00e+00	0	43	0	629145600	64	4776
2026-01-04 23:28:44.97	100.32	63.96	-45.5	-47.8	18.9	0.00e+00	0	43	0	631242752	63	4487
2026-01-04 23:28:46.11	101.55	63.98	-44.9	-47.1	19.6	0.00e+00	0	44	0	633339904	61	4611
2026-01-04 23:28:46.98	102.48	63.98	-44.8	-47.0	19.7	0.00e+00	0	44	0	635437056	61	4561
2026-01-04 23:28:48.12	103.70	63.98	-44.7	-46.8	19.7	0.00e+00	0	43	0	637534208	61	4491
2026-01-04 23:28:49.02	104.67	63.98	-44.1	-46.1	20.3	0.00e+00	0	43	0	638582784	60	4378
2026-01-04 23:28:50.03	105.75	63.96	-44.4	-46.4	20.1	0.00e+00	0	43	0	640679936	60	4543
2026-01-04 23:28:51.03	106.82	63.94	-44.7	-46.8	19.8	0.00e+00	0	44	0	642777088	60	4736
2026-01-04 23:28:52.03	107.89	63.91	-44.9	-47.0	19.6	0.00e+00	0	43	0	644874240	60	4861
2026-01-04 23:28:53.03	108.95	63.87	-44.5	-46.6	19.9	0.00e+00	0	43	0	645922816	60	4636
2026-01-04 23:28:54.03	110.01	63.82	-44.5	-46.6	19.9	0.00e+00	0	43	0	648019968	60	4646
2026-01-04 23:28:55.04	111.08	63.76	-44.8	-47.0	19.6	0.00e+00	0	43	0	650117120	60	4850
2026-01-04 23:28:56.04	112.13	63.70	-44.9	-47.1	19.5	0.00e+00	0	43	0	652214272	60	4896
2026-01-04 23:28:57.04	113.17	63.63	-44.5	-46.6	20.0	0.00e+00	0	43	0	654311424	60	4612
2026-01-04 23:28:58.05	114.22	63.55	-45.1	-47.3	19.4	0.00e+00	0	43	0	655360000	60	5025
2026-01-04 23:28:59.05	115.25	63.46	-46.2	-48.7	18.2	0.00e+00	0	43	0	657457152	63	4950
2026-01-04 23:29:00.05	116.27	63.37	-46.0	-48.4	18.4	0.00e+00	0	44	0	659554304	63	4780
2026-01-04 23:29:01.06	117.30	63.26	-44.9	-47.0	19.6	0.00e+00	0	44	0	661651456	61	4579
2026-01-04 23:29:02.17	118.41	63.14	-45.3	-47.5	19.3	0.00e+00	0	43	0	663748608	61	4842
2026-01-04 23:29:03.04	119.28	63.04	-46.2	-48.6	18.2	0.00e+00	0	43	0	664797184	63	4909
2026-01-04 23:29:04.19	120.41	62.90	-46.2	-48.7	18.1	0.00e+00	0	43	0	666894336	64	4652
2026-01-04 23:29:05.05	121.25	62.79	-45.0	-47.1	19.5	0.00e+00	0	44	0	668991488	61	4650
2026-01-04 23:29:06.20	122.36	62.64	-45.0	-47.2	19.3	0.00e+00	0	44	0	671088640	61	4698
2026-01-04 23:29:07.06	123.18	62.51	-46.1	-48.5	18.4	0.00e+00	0	44	0	672137216	62	5113
2026-01-04 23:29:08.20	124.25	62.34	-46.7	-49.3	17.5	0.00e+00	0	44	0	675282944	64	5020
2026-01-04 23:29:09.06	125.05	62.21	-45.4	-47.6	19.0	0.00e+00	0	44	0	676331520	62	4651
2026-01-04 23:29:10.21	126.11	62.03	-44.3	-46.4	20.2	0.00e+00	0	44	0	678428672	60	4496
2026-01-04 23:29:11.07	126.89	61.88	-44.6	-46.7	20.0	0.00e+00	0	44	0	680525824	60	4662
2026-01-04 23:29:12.21	127.91	61.69	-45.6	-47.9	18.9	0.00e+00	0	43	0	682622976	61	5049
2026-01-04 23:29:13.07	128.66	61.54	-45.7	-48.0	18.8	0.00e+00	0	44	0	683671552	62	4836
2026-01-04 23:29:14.30	129.73	61.31	-45.2	-47.5	19.3	0.00e+00	0	44	0	685768704	62	4547
2026-01-04 23:29:15.16	130.47	61.15	-45.3	-47.6	19.2	0.00e+00	0	44	0	687865856	61	4875
2026-01-04 23:29:16.35	131.47	60.92	-45.3	-47.6	19.1	0.00e+00	0	44	0	689963008	61	4911
2026-01-04 23:29:17.21	132.18	60.75	-44.6	-46.7	19.9	0.00e+00	0	43	0	692060160	61	4406
2026-01-04 23:29:18.42	133.17	60.50	-43.6	-45.6	20.7	0.00e+00	0	43	0	694157312	59	4370
2026-01-04 23:29:19.27	133.85	60.33	-44.9	-47.1	19.6	0.00e+00	0	43	0	695205888	60	4884
2026-01-04 23:29:20.42	134.76	60.09	-45.6	-47.8	18.9	0.00e+00	0	43	0	697303040	62	4759
2026-01-04 23:29:21.28	135.43	59.90	-45.5	-47.7	19.0	0.00e+00	0	44	0	699400192	62	4689
2026-01-04 23:29:22.43	136.30	59.65	-45.0	-47.2	19.4	0.00e+00	0	43	0	701497344	62	4435
2026-01-04 23:29:23.28	136.94	59.46	-45.7	-48.0	18.7	0.00e+00	0	43	0	703594496	62	4869
2026-01-04 23:29:24.65	137.95	59.15	-44.8	-47.0	19.6	0.00e+00	0	44	0	705691648	61	4565
2026-01-04 23:29:25.36	138.46	58.98	-44.3	-46.3	20.2	0.00e+00	0	43	0	706740224	60	4490
2026-01-04 23:29:26.65	139.38	58.68	-44.0	-45.9	20.4	0.00e+00	0	43	0	709885952	59	4545
2026-01-04 23:29:27.37	139.88	58.51	-44.4	-46.4	20.0	0.00e+00	0	43	0	710934528	59	4805
2026-01-04 23:29:28.65	140.76	58.21	-43.9	-45.9	20.4	0.00e+00	0	44	0	713031680	59	4508
2026-01-04 23:29:29.37	141.25	58.03	-43.7	-45.7	20.7	0.00e+00	0	43	0	714080256	59	4401
2026-01-04 23:29:30.66	142.10	57.72	-43.6	-45.6	20.7	0.00e+00	0	43	0	717225984	59	4352
2026-01-04 23:29:31.37	142.56	57.54	-43.7	-45.7	20.7	0.00e+00	0	43	0	718274560	59	4395
2026-01-04 23:29:32.66	143.38	57.22	-43.7	-45.8	20.6	0.00e+00	0	44	0	720371712	59	4449
2026-01-04 23:29:33.38	143.83	57.04	-44.7	-47.0	19.6	0.00e+00	0	44	0	722468864	60	4860
2026-01-04 23:29:34.67	144.63	56.71	-45.0	-47.2	19.4	0.00e+00	0	43	0	724566016	61	4703
2026-01-04 23:29:35.38	145.06	56.53	-45.1	-47.3	19.4	0.00e+00	0	43	0	725614592	61	4731
2026-01-04 23:29:36.67	145.82	56.20	-44.4	-46.5	20.1	0.00e+00	0	44	0	727711744	60	4566
2026-01-04 23:29:37.39	146.24	56.01	-44.7	-46.8	19.8	0.00e+00	0	43	0	729808896	60	4750
2026-01-04 23:29:38.78	147.03	55.65	-44.5	-46.6	19.9	0.00e+00	0	44	0	731906048	60	4617
2026-01-04 23:29:39.49	147.43	55.46	-44.5	-46.5	20.1	0.00e+00	0	44	0	732954624	60	4590
2026-01-04 23:29:40.78	148.14	55.12	-44.1	-46.1	20.3	0.00e+00	0	44	0	736100352	60	4389
2026-01-04 23:29:41.49	148.52	54.94	-44.1	-46.1	20.2	0.00e+00	0	44	0	737148928	59	4599
2026-01-04 23:29:42.78	149.21	54.59	-44.1	-46.1	20.3	0.00e+00	0	43	0	739246080	59	4635
2026-01-04 23:29:43.50	149.58	54.40	-45.0	-47.2	19.6	0.00e+00	0	44	0	741343232	60	4934
2026-01-04 23:29:44.78	150.23	54.06	-46.2	-48.6	18.3	0.00e+00	0	44	0	743440384	62	5186
2026-01-04 23:29:45.50	150.59	53.86	-46.2	-48.7	18.2	0.00e+00	0	44	0	744488960	63	4947
2026-01-04 23:29:46.79	151.23	53.52	-45.0	-47.2	19.5	0.00e+00	0	44	0	747634688	62	4409
2026-01-04 23:29:47.57	151.61	53.31	-45.6	-47.8	18.9	0.00e+00	0	44	0	748683264	62	4744
2026-01-04 23:29:48.86	152.22	52.96	-46.5	-49.0	17.9	0.00e+00	0	44	0	750780416	63	5145
2026-01-04 23:29:49.61	152.56	52.76	-46.8	-49.3	17.4	0.00e+00	0	43	0	752877568	64	5032
2026-01-04 23:29:50.90	153.15	52.41	-46.6	-49.1	17.8	0.00e+00	0	44	0	754974720	64	4873
2026-01-04 23:29:51.64	153.48	52.20	-46.6	-49.1	17.7	0.00e+00	0	44	0	756023296	64	4916
2026-01-04 23:29:53.25	154.19	51.77	-47.4	-50.2	16.7	0.00e+00	0	43	0	759169024	65	5255
2026-01-04 23:29:53.83	154.44	51.61	-47.3	-50.0	16.9	0.00e+00	0	43	0	760217600	65	5109
2026-01-04 23:29:55.40	155.10	51.18	-45.7	-47.9	18.7	0.00e+00	0	43	0	763363328	63	4518
2026-01-04 23:29:56.01	155.35	51.02	-45.7	-48.0	18.8	0.00e+00	0	43	0	764411904	63	4547
2026-01-04 23:29:57.58	155.99	50.59	-46.2	-48.6	18.2	0.00e+00	0	44	0	767557632	63	4907
2026-01-04 23:29:58.19	156.23	50.42	-46.3	-48.8	18.1	0.00e+00	0	44	0	768606208	63	5010
2026-01-04 23:29:59.76	156.84	50.00	-46.3	-48.7	18.1	0.00e+00	0	44	0	771751936	63	4968
2026-01-04 23:30:00.38	157.08	49.83	-46.3	-48.7	18.1	0.00e+00	0	44	0	772800512	63	4967
2026-01-04 23:30:01.95	157.67	49.40	-45.8	-48.1	18.6	0.00e+00	0	44	0	775946240	63	4651
2026-01-04 23:30:02.59	157.90	49.23	-46.2	-48.6	18.2	0.00e+00	0	44	0	776994816	63	4900
2026-01-04 23:30:04.02	158.42	48.84	-46.8	-49.4	17.4	0.00e+00	0	44	0	779091968	64	5077
2026-01-04 23:30:04.74	158.68	48.65	-47.2	-50.0	17.0	0.00e+00	0	44	0	781189120	64	5410
2026-01-04 23:30:06.17	159.17	48.26	-45.8	-48.1	18.7	0.00e+00	0	44	0	783286272	63	4621
2026-01-04 23:30:06.88	159.42	48.07	-45.1	-47.3	19.3	0.00e+00	0	44	0	784334848	62	4476
2026-01-04 23:30:08.24	159.87	47.71	-45.9	-48.2	18.6	0.00e+00	0	44	0	787480576	62	4946
2026-01-04 23:30:08.95	160.11	47.52	-46.7	-49.2	17.8	0.00e+00	0	44	0	788529152	63	5229
2026-01-04 23:30:10.24	160.53	47.18	-48.1	-51.2	16.0	0.00e+00	0	44	0	790626304	66	5545
2026-01-04 23:30:10.96	160.76	46.99	-48.3	-51.5	15.4	0.00e+00	0	44	0	792723456	67	5442
2026-01-04 23:30:12.25	161.16	46.64	-47.4	-50.2	16.7	0.00e+00	0	43	0	794820608	66	4945
2026-01-04 23:30:12.96	161.38	46.46	-46.6	-49.1	17.7	0.00e+00	0	44	0	795869184	65	4600
2026-01-04 23:30:14.26	161.77	46.11	-46.6	-49.0	17.8	0.00e+00	0	44	0	799014912	64	4864
2026-01-04 23:30:14.97	161.99	45.93	-47.1	-49.7	17.2	0.00e+00	0	44	0	800063488	64	5231
2026-01-04 23:30:16.26	162.36	45.59	-47.3	-50.0	16.8	0.00e+00	0	44	0	802160640	65	5132
2026-01-04 23:30:16.98	162.57	45.40	-46.9	-49.6	17.2	0.00e+00	0	44	0	804257792	65	4896
2026-01-04 23:30:18.27	162.94	45.07	-45.9	-48.2	18.5	0.00e+00	0	44	0	806354944	63	4692
2026-01-04 23:30:18.99	163.14	44.88	-45.4	-47.6	19.1	0.00e+00	0	44	0	807403520	62	4637
2026-01-04 23:30:20.28	163.50	44.55	-45.2	-47.4	19.4	0.00e+00	0	43	0	809500672	62	4496
2026-01-04 23:30:20.99	163.69	44.37	-45.9	-48.2	18.6	0.00e+00	0	44	0	811597824	62	4964
2026-01-04 23:30:22.28	164.03	44.04	-46.8	-49.4	17.4	0.00e+00	0	43	0	813694976	64	5082
2026-01-04 23:30:23.00	164.22	43.85	-47.8	-50.7	16.2	0.00e+00	0	44	0	814743552	66	5244
2026-01-04 23:30:24.29	164.55	43.52	-49.9	-54.0	13.1	0.00e+00	0	44	0	817889280	70	6087
2026-01-04 23:30:25.00	164.73	43.35	-50.6	-55.7	11.4	2.09e-04	0	44	0	818937856	71	7003
2026-01-04 23:30:26.29	165.06	43.02	-49.0	-52.6	14.4	5.41e-05	0	44	0	821035008	70	5197
2026-01-04 23:30:27.01	165.23	42.84	-47.1	-49.8	16.9	7.00e-07	0	44	0	822083584	66	4727
2026-01-04 23:30:28.30	165.55	42.52	-45.9	-48.2	18.6	0.00e+00	0	44	0	825229312	63	4665
2026-01-04 23:30:29.02	165.72	42.34	-45.4	-47.5	19.2	0.00e+00	0	44	0	826277888	62	4594
2026-01-04 23:30:30.30	166.02	42.02	-45.7	-47.9	18.8	0.00e+00	0	44	0	828375040	62	4796
2026-01-04 23:30:31.02	166.19	41.85	-46.3	-48.7	18.1	0.00e+00	0	43	0	830472192	63	4950
2026-01-04 23:30:32.31	166.48	41.53	-47.2	-50.0	16.9	0.00e+00	0	44	0	832569344	65	5103
2026-01-04 23:30:33.03	166.64	41.35	-47.1	-49.9	16.9	0.00e+00	0	44	0	833617920	65	5062
2026-01-04 23:30:34.32	166.93	41.04	-46.0	-48.5	18.2	0.00e+00	0	44	0	835715072	64	4578
2026-01-04 23:30:35.16	167.11	40.84	-45.7	-48.1	18.6	0.00e+00	0	44	0	837812224	63	4611
2026-01-04 23:30:36.63	167.43	40.49	-45.2	-47.4	19.3	0.00e+00	0	44	0	840957952	62	4536
2026-01-04 23:30:37.34	167.58	40.32	-45.8	-48.1	18.6	0.00e+00	0	44	0	842006528	62	4910
2026-01-04 23:30:38.63	167.85	40.01	-46.8	-49.3	17.5	0.00e+00	0	44	0	844103680	64	5037
2026-01-04 23:30:39.35	168.00	39.84	-46.7	-49.2	17.5	0.00e+00	0	44	0	846200832	64	4977
2026-01-04 23:30:40.64	168.26	39.54	-47.3	-50.1	16.7	0.00e+00	0	44	0	848297984	65	5204
2026-01-04 23:30:41.36	168.40	39.37	-47.8	-50.7	16.1	0.00e+00	0	44	0	849346560	66	5275
2026-01-04 23:30:42.65	168.66	39.07	-47.6	-50.6	16.4	0.00e+00	0	43	0	851443712	66	5161
2026-01-04 23:30:43.46	168.81	38.88	-47.3	-50.2	16.8	0.00e+00	0	44	0	853540864	66	4934
2026-01-04 23:30:44.61	169.03	38.61	-46.7	-49.3	17.5	0.00e+00	0	44	0	855638016	65	4743
2026-01-04 23:30:45.47	169.19	38.42	-46.1	-48.5	18.3	0.00e+00	0	44	0	857735168	63	4839
2026-01-04 23:30:46.61	169.41	38.16	-45.5	-47.7	19.0	0.00e+00	0	43	0	858783744	62	4698
2026-01-04 23:30:47.74	169.61	37.90	-45.0	-47.2	19.5	0.00e+00	0	44	0	861929472	62	4395
2026-01-04 23:30:48.60	169.77	37.71	-45.1	-47.3	19.3	0.00e+00	0	44	0	862978048	62	4476
2026-01-04 23:30:50.10	170.04	37.37	-45.8	-48.2	18.5	0.00e+00	0	44	0	866123776	62	4957
2026-01-04 23:30:50.82	170.16	37.21	-46.0	-48.4	18.4	0.00e+00	0	44	0	867172352	62	5068
2026-01-04 23:30:52.11	170.39	36.93	-46.6	-49.2	17.6	0.00e+00	0	43	0	869269504	64	4935
2026-01-04 23:30:52.83	170.51	36.77	-47.0	-49.7	17.2	0.00e+00	0	43	0	871366656	64	5228
2026-01-04 23:30:54.12	170.73	36.48	-47.0	-49.8	17.0	0.00e+00	0	43	0	873463808	65	4992
2026-01-04 23:30:54.87	170.85	36.32	-46.7	-49.4	17.4	0.00e+00	0	43	0	874512384	65	4767
2026-01-04 23:30:56.15	171.06	36.04	-46.7	-49.3	17.5	0.00e+00	0	43	0	877658112	65	4706
2026-01-04 23:30:56.87	171.18	35.89	-46.5	-49.1	17.6	0.00e+00	0	43	0	878706688	65	4599
2026-01-04 23:30:58.16	171.38	35.61	-46.0	-48.4	18.3	0.00e+00	0	44	0	880803840	63	4774
2026-01-04 23:30:58.88	171.50	35.46	-46.2	-48.6	18.2	0.00e+00	0	43	0	881852416	63	4884
2026-01-04 23:31:00.17	171.70	35.19	-45.6	-47.8	18.8	0.00e+00	0	44	0	884998144	63	4480
2026-01-04 23:31:00.88	171.81	35.04	-45.6	-47.9	18.9	0.00e+00	0	43	0	886046720	63	4511
2026-01-04 23:31:02.18	172.00	34.76	-45.5	-47.9	18.9	0.00e+00	0	43	0	888143872	63	4495
2026-01-04 23:31:03.18	172.15	34.56	-46.2	-48.7	18.1	0.00e+00	0	43	0	890241024	63	4945
2026-01-04 23:31:04.50	172.35	34.28	-47.0	-49.7	17.1	0.00e+00	0	43	0	892338176	64	5254
2026-01-04 23:31:05.22	172.45	34.14	-47.5	-50.4	16.4	0.00e+00	0	43	0	894435328	65	5388
2026-01-04 23:31:06.84	172.69	33.80	-48.3	-51.6	15.3	0.00e+00	0	44	0	897581056	67	5512
2026-01-04 23:31:07.42	172.77	33.69	-48.9	-52.4	14.7	0.00e+00	0	44	0	898629632	68	5710
2026-01-04 23:31:09.04	173.00	33.36	-49.3	-53.0	14.0	2.20e-06	0	44	0	901775360	69	5737
2026-01-04 23:31:09.61	173.07	33.25	-49.0	-52.4	14.6	2.20e-06	0	44	0	902823936	69	5382
2026-01-04 23:31:11.31	173.31	32.91	-48.7	-52.1	14.9	7.00e-07	0	44	0	905969664	69	5200
2026-01-04 23:31:11.88	173.38	32.79	-48.4	-51.5	15.4	0.00e+00	0	44	0	907018240	68	5157
2026-01-04 23:31:13.48	173.59	32.48	-47.2	-50.0	16.8	0.00e+00	0	44	0	910163968	66	4832
2026-01-04 23:31:14.05	173.67	32.37	-46.9	-49.5	17.3	0.00e+00	0	44	0	911212544	65	4833
2026-01-04 23:31:15.63	173.87	32.06	-46.0	-48.3	18.3	0.00e+00	0	44	0	913309696	64	4489
2026-01-04 23:31:16.23	173.95	31.95	-46.0	-48.4	18.3	0.00e+00	0	44	0	914358272	63	4775
2026-01-04 23:31:18.03	174.18	31.60	-45.9	-48.2	18.5	0.00e+00	0	44	0	918552576	63	4702
2026-01-04 23:31:18.60	174.25	31.49	-45.6	-47.8	18.8	0.00e+00	0	43	0	919601152	63	4482
2026-01-04 23:31:20.21	174.45	31.19	-46.0	-48.4	18.3	0.00e+00	0	44	0	922746880	62	5078
2026-01-04 23:31:20.78	174.51	31.08	-46.2	-48.6	18.1	0.00e+00	0	44	0	923795456	63	4880
2026-01-04 23:31:22.39	174.71	30.78	-46.9	-49.5	17.3	0.00e+00	0	43	0	925892608	64	5131
2026-01-04 23:31:22.96	174.78	30.68	-47.1	-49.8	17.0	0.00e+00	0	44	0	926941184	64	5329
2026-01-04 23:31:24.55	174.96	30.38	-47.2	-50.0	16.7	0.00e+00	0	44	0	930086912	65	5106
2026-01-04 23:31:25.14	175.03	30.27	-47.7	-50.6	16.2	0.00e+00	0	43	0	931135488	65	5514
2026-01-04 23:31:26.72	175.21	29.99	-47.9	-51.0	15.8	0.00e+00	0	44	0	934281216	66	5454
2026-01-04 23:31:27.50	175.30	29.84	-48.0	-51.1	15.7	0.00e+00	0	43	0	936378368	66	5508
2026-01-04 23:31:28.79	175.44	29.61	-48.3	-51.5	15.4	0.00e+00	0	43	0	938475520	67	5427
2026-01-04 23:31:29.50	175.52	29.49	-48.1	-51.3	15.5	0.00e+00	0	43	0	939524096	67	5295
2026-01-04 23:31:30.79	175.66	29.26	-48.3	-51.6	15.3	0.00e+00	0	43	0	942669824	67	5479
2026-01-04 23:31:31.51	175.74	29.13	-48.1	-51.2	15.5	0.00e+00	0	43	0	943718400	67	5274
2026-01-04 23:31:32.86	175.88	28.89	-47.9	-50.9	15.9	0.00e+00	0	44	0	945815552	67	5092
2026-01-04 23:31:33.58	175.96	28.77	-47.7	-50.6	16.2	0.00e+00	0	44	0	947912704	67	4909
2026-01-04 23:31:34.87	176.09	28.54	-47.7	-50.6	16.3	0.00e+00	0	44	0	950009856	67	4884
2026-01-04 23:31:35.59	176.17	28.42	-47.1	-49.8	16.9	0.00e+00	0	44	0	951058432	66	4741
2026-01-04 23:31:36.87	176.30	28.20	-46.7	-49.3	17.4	0.00e+00	0	44	0	953155584	65	4709
2026-01-04 23:31:37.59	176.37	28.07	-46.4	-48.8	17.8	0.00e+00	0	44	0	955252736	64	4752
2026-01-04 23:31:38.88	176.50	27.85	-45.5	-47.7	18.9	0.00e+00	0	44	0	957349888	63	4433
2026-01-04 23:31:39.59	176.57	27.73	-45.4	-47.6	19.0	0.00e+00	0	44	0	958398464	62	4644
2026-01-04 23:31:40.89	176.70	27.52	-45.0	-47.2	19.4	0.00e+00	0	44	0	961544192	62	4392
2026-01-04 23:31:41.60	176.77	27.40	-44.8	-46.9	19.6	0.00e+00	0	44	0	962592768	61	4540
2026-01-04 23:31:42.89	176.89	27.18	-45.0	-47.2	19.4	0.00e+00	0	44	0	964689920	61	4668
2026-01-04 23:31:43.61	176.96	27.06	-45.1	-47.3	19.3	0.00e+00	0	44	0	965738496	61	4726
2026-01-04 23:31:44.90	177.08	26.85	-45.8	-48.1	18.6	0.00e+00	0	44	0	968884224	62	4889
2026-01-04 23:31:45.62	177.15	26.73	-45.9	-48.3	18.5	0.00e+00	0	44	0	969932800	62	4989
2026-01-04 23:31:46.90	177.27	26.53	-46.0	-48.4	18.3	0.00e+00	0	44	0	972029952	62	5079
2026-01-04 23:31:47.62	177.33	26.41	-46.3	-48.7	18.0	0.00e+00	0	44	0	974127104	63	4975
2026-01-04 23:31:48.91	177.45	26.20	-46.4	-49.0	17.6	0.00e+00	0	44	0	976224256	63	5136
2026-01-04 23:31:49.62	177.52	26.09	-46.3	-48.9	17.8	0.00e+00	0	44	0	977272832	63	5058
2026-01-04 23:31:50.91	177.63	25.89	-46.5	-49.1	17.7	0.00e+00	0	44	0	979369984	63	5178
2026-01-04 23:31:51.63	177.69	25.77	-46.4	-49.0	17.7	0.00e+00	0	43	0	981467136	63	5129
2026-01-04 23:31:53.25	177.84	25.52	-46.2	-48.6	18.1	0.00e+00	0	44	0	984612864	63	4921
2026-01-04 23:31:53.83	177.89	25.43	-46.2	-48.7	18.0	0.00e+00	0	44	0	985661440	63	4953
2026-01-04 23:31:55.43	178.02	25.18	-46.4	-48.9	17.8	0.00e+00	0	44	0	988807168	63	5085
2026-01-04 23:31:56.01	178.07	25.09	-46.4	-48.9	17.8	0.00e+00	0	44	0	989855744	63	5091
2026-01-04 23:31:57.61	178.20	24.84	-46.4	-49.0	17.7	0.00e+00	0	44	0	991952896	64	4853
2026-01-04 23:31:58.18	178.25	24.76	-46.5	-49.1	17.6	0.00e+00	0	44	0	993001472	64	4874
2026-01-04 23:31:59.76	178.38	24.52	-46.6	-49.2	17.5	0.00e+00	0	44	0	996147200	64	4978
2026-01-04 23:32:00.38	178.43	24.42	-46.3	-48.9	17.8	0.00e+00	0	44	0	997195776	64	4762
2026-01-04 23:32:01.95	178.56	24.19	-46.2	-48.7	17.9	0.00e+00	0	44	0	1000341504	64	4697
2026-01-04 23:32:02.59	178.61	24.09	-46.4	-49.0	17.7	0.00e+00	0	44	0	1001390080	64	4828
2026-01-04 23:32:04.05	178.72	23.88	-46.0	-48.5	18.2	0.00e+00	0	44	0	1004535808	63	4818
2026-01-04 23:32:04.77	178.78	23.77	-45.9	-48.3	18.4	0.00e+00	0	44	0	1005584384	63	4742
2026-01-04 23:32:06.25	178.89	23.55	-45.7	-48.1	18.5	0.00e+00	0	44	0	1008730112	63	4647
2026-01-04 23:32:06.96	178.95	23.45	-45.6	-48.0	18.7	0.00e+00	0	44	0	1009778688	63	4555
2026-01-04 23:32:08.25	179.05	23.26	-45.4	-47.7	18.9	0.00e+00	0	44	0	1011875840	62	4705
2026-01-04 23:32:08.97	179.10	23.16	-45.4	-47.7	18.9	0.00e+00	0	44	0	1013972992	62	4683
2026-01-04 23:32:10.26	179.20	22.98	-45.4	-47.7	18.9	0.00e+00	0	44	0	1016070144	62	4703
2026-01-04 23:32:10.97	179.25	22.88	-45.4	-47.8	18.8	0.00e+00	0	44	0	1017118720	62	4729
2026-01-04 23:32:12.26	179.34	22.69	-45.4	-47.7	18.9	0.00e+00	0	44	0	1020264448	62	4701
2026-01-04 23:32:13.03	179.40	22.58	-45.2	-47.4	19.1	0.00e+00	0	44	0	1021313024	62	4543
2026-01-04 23:32:14.32	179.49	22.40	-45.2	-47.4	19.1	0.00e+00	0	43	0	1023410176	62	4533
2026-01-04 23:32:15.13	179.55	22.29	-45.2	-47.5	19.2	0.00e+00	0	44	0	1025507328	62	4547
2026-01-04 23:32:16.27	179.63	22.13	-45.0	-47.2	19.4	0.00e+00	0	44	0	1027604480	62	4427
2026-01-04 23:32:17.14	179.69	22.01	-45.0	-47.2	19.3	0.00e+00	0	43	0	1028653056	61	4678
2026-01-04 23:32:18.28	179.77	21.86	-44.9	-47.1	19.4	0.00e+00	0	43	0	1030750208	61	4620
2026-01-04 23:32:19.14	179.83	21.74	-44.9	-47.2	19.4	0.00e+00	0	43	0	1032847360	61	4653
2026-01-04 23:32:20.29	179.91	21.58	-45.2	-47.5	19.0	0.00e+00	0	44	0	1034944512	61	4853
2026-01-04 23:32:21.14	179.97	21.47	-45.2	-47.5	19.1	0.00e+00	0	44	0	1037041664	61	4850
2026-01-04 23:32:22.32	180.05	21.31	-45.5	-47.8	18.7	0.00e+00	0	44	0	1039138816	61	5041
2026-01-04 23:32:23.18	180.10	21.19	-45.5	-47.9	18.8	0.00e+00	0	44	0	1040187392	61	5046
2026-01-04 23:32:24.33	180.18	21.04	-45.8	-48.3	18.4	0.00e+00	0	44	0	1042284544	62	4992
2026-01-04 23:32:25.19	180.24	20.93	-45.9	-48.3	18.4	0.00e+00	0	44	0	1044381696	62	5016
2026-01-04 23:32:26.34	180.31	20.77	-45.8	-48.2	18.5	0.00e+00	0	44	0	1046478848	62	4948
2026-01-04 23:32:27.21	180.37	20.66	-46.0	-48.4	18.2	0.00e+00	0	44	0	1047527424	62	5100
2026-01-04 23:32:28.53	180.45	20.49	-46.0	-48.5	18.1	0.00e+00	0	44	0	1050673152	62	5153
2026-01-04 23:32:29.25	180.50	20.39	-46.1	-48.6	18.1	0.00e+00	0	44	0	1051721728	62	5177
2026-01-04 23:32:30.74	180.59	20.20	-46.1	-48.6	18.1	0.00e+00	0	43	0	1054867456	63	4876
2026-01-04 23:32:31.46	180.64	20.11	-45.9	-48.4	18.3	0.00e+00	0	43	0	1055916032	63	4780
2026-01-04 23:32:32.75	180.72	19.94	-45.8	-48.2	18.4	0.00e+00	0	44	0	1058013184	63	4701
2026-01-04 23:32:33.46	180.76	19.85	-45.7	-48.2	18.5	0.00e+00	0	44	0	1060110336	63	4657
2026-01-04 23:32:34.76	180.84	19.69	-45.4	-47.8	18.8	0.00e+00	0	44	0	1062207488	62	4740
2026-01-04 23:32:35.47	180.88	19.60	-45.4	-47.8	18.8	0.00e+00	0	44	0	1063256064	62	4733
2026-01-04 23:32:36.76	180.96	19.44	-45.4	-47.7	18.9	0.00e+00	0	43	0	1065353216	62	4677
2026-01-04 23:32:37.48	181.00	19.35	-45.3	-47.6	19.0	0.00e+00	0	44	0	1067450368	62	4644
2026-01-04 23:32:38.77	181.08	19.19	-45.4	-47.7	18.9	0.00e+00	0	43	0	1069547520	62	4686
2026-01-04 23:32:39.52	181.12	19.10	-45.4	-47.7	18.9	0.00e+00	0	44	0	1070596096	62	4698
2026-01-04 23:32:40.81	181.20	18.94	-45.4	-47.7	18.9	0.00e+00	0	44	0	1073741824	62	4674
2026-01-04 23:32:41.53	181.24	18.85	-45.3	-47.7	18.9	0.00e+00	0	44	0	1074790400	62	4652
2026-01-04 23:32:42.82	181.31	18.69	-45.6	-48.0	18.6	0.00e+00	0	44	0	1076887552	62	4826
2026-01-04 23:32:43.53	181.35	18.61	-45.7	-48.1	18.5	0.00e+00	0	44	0	1078984704	62	4873
2026-01-04 23:32:44.82	181.42	18.45	-45.9	-48.3	18.3	0.00e+00	0	44	0	1081081856	62	5028
2026-01-04 23:32:45.54	181.46	18.36	-45.9	-48.3	18.2	0.00e+00	0	43	0	1082130432	62	5037
2026-01-04 23:32:46.83	181.54	18.21	-45.7	-48.1	18.5	0.00e+00	0	44	0	1084227584	62	4919
2026-01-04 23:32:47.55	181.58	18.12	-45.8	-48.2	18.6	0.00e+00	0	44	0	1086324736	62	4935
2026-01-04 23:32:48.83	181.65	17.97	-45.8	-48.2	18.4	0.00e+00	0	44	0	1088421888	62	4963
2026-01-04 23:32:49.55	181.69	17.89	-45.9	-48.4	18.3	0.00e+00	0	44	0	1089470464	62	5043
2026-01-04 23:32:50.84	181.75	17.74	-45.8	-48.2	18.4	0.00e+00	0	43	0	1092616192	62	4932
2026-01-04 23:32:51.55	181.79	17.65	-45.8	-48.2	18.4	0.00e+00	0	43	0	1093664768	62	4967
2026-01-04 23:32:52.84	181.86	17.50	-45.8	-48.2	18.4	0.00e+00	0	44	0	1095761920	62	4936
2026-01-04 23:32:53.56	181.90	17.42	-45.7	-48.1	18.4	0.00e+00	0	44	0	1096810496	62	4911
2026-01-04 23:32:54.85	181.97	17.27	-45.5	-47.8	18.8	0.00e+00	0	44	0	1099956224	62	4751
2026-01-04 23:32:55.61	182.01	17.19	-45.5	-47.9	18.6	0.00e+00	0	43	0	1101004800	62	4770
2026-01-04 23:32:57.23	182.09	17.00	-45.5	-47.8	18.8	0.00e+00	0	44	0	1104150528	62	4718
2026-01-04 23:32:57.81	182.12	16.94	-45.5	-47.8	18.8	0.00e+00	0	44	0	1105199104	62	4711
2026-01-04 23:32:59.41	182.20	16.75	-45.6	-47.9	18.6	0.00e+00	0	44	0	1108344832	62	4784
2026-01-04 23:32:59.99	182.23	16.69	-45.4	-47.7	18.8	0.00e+00	0	44	0	1109393408	62	4673
2026-01-04 23:33:01.58	182.31	16.51	-45.6	-48.0	18.1	0.00e+00	0	44	0	1112539136	62	4847
2026-01-04 23:33:02.15	182.34	16.45	-45.6	-48.0	18.6	0.00e+00	0	44	0	1113587712	62	4832
2026-01-04 23:33:03.79	182.42	16.27	-45.7	-48.1	18.4	0.00e+00	0	44	0	1116733440	62	4898
2026-01-04 23:33:04.36	182.45	16.20	-45.7	-48.2	18.4	0.00e+00	0	44	0	1117782016	62	4942
2026-01-04 23:33:05.95	182.52	16.03	-45.8	-48.2	18.4	0.00e+00	0	44	0	1120927744	62	4943
2026-01-04 23:33:06.54	182.55	15.96	-45.7	-48.1	18.4	0.00e+00	0	44	0	1121976320	62	4915
2026-01-04 23:33:08.11	182.63	15.79	-45.9	-48.3	18.3	0.00e+00	0	44	0	1124073472	62	5026
2026-01-04 23:33:08.70	182.65	15.73	-45.9	-48.4	18.2	0.00e+00	0	44	0	1126170624	62	5064
2026-01-04 23:33:10.28	182.73	15.56	-46.1	-48.6	18.0	0.00e+00	0	44	0	1128267776	62	5200
2026-01-04 23:33:11.09	182.77	15.47	-46.2	-48.8	17.8	0.00e+00	0	44	0	1130364928	63	5025
2026-01-04 23:33:12.24	182.82	15.35	-46.3	-49.0	17.6	0.00e+00	0	44	0	1132462080	63	5101
2026-01-04 23:33:13.10	182.86	15.26	-46.3	-49.0	17.4	0.00e+00	0	44	0	1133510656	63	5116
2026-01-04 23:33:14.25	182.91	15.14	-46.4	-49.1	17.5	0.00e+00	0	44	0	1135607808	63	5205
2026-01-04 23:33:15.10	182.95	15.05	-46.6	-49.3	17.3	0.00e+00	0	44	0	1137704960	63	5320
2026-01-04 23:33:16.41	183.01	14.91	-46.4	-49.1	17.5	0.00e+00	0	44	0	1139802112	63	5207
2026-01-04 23:33:17.13	183.04	14.84	-46.6	-49.3	17.3	0.00e+00	0	43	0	1141899264	63	5339
2026-01-04 23:33:18.42	183.10	14.70	-46.6	-49.4	17.2	0.00e+00	0	44	0	1143996416	64	5053
2026-01-04 23:33:19.16	183.13	14.63	-46.8	-49.6	16.9	0.00e+00	0	44	0	1145044992	64	5218
2026-01-04 23:33:20.76	183.20	14.46	-47.0	-49.9	16.7	0.00e+00	0	44	0	1148190720	64	5373
2026-01-04 23:33:21.34	183.23	14.40	-47.0	-49.9	16.7	0.00e+00	0	44	0	1149239296	64	5379
2026-01-04 23:33:22.92	183.30	14.24	-47.1	-50.2	16.4	0.00e+00	0	43	0	1152385024	65	5235
2026-01-04 23:33:23.52	183.32	14.18	-47.1	-50.1	16.4	0.00e+00	0	44	0	1153433600	65	5218
2026-01-04 23:33:25.10	183.39	14.02	-47.2	-50.3	16.3	0.00e+00	0	44	0	1156579328	65	5288
2026-01-04 23:33:25.77	183.42	13.95	-47.4	-50.6	16.0	0.00e+00	0	44	0	1157627904	65	5490
2026-01-04 23:33:27.20	183.48	13.81	-47.4	-50.6	16.0	0.00e+00	0	44	0	1160773632	65	5522
2026-01-04 23:33:27.99	183.51	13.73	-47.5	-50.7	15.9	0.00e+00	0	44	0	1161822208	65	5586
2026-01-04 23:33:29.14	183.56	13.61	-47.5	-50.8	15.7	0.00e+00	0	44	0	1163919360	65	5645
2026-01-04 23:33:30.24	183.61	13.51	-47.8	-51.3	15.3	0.00e+00	0	44	0	1166016512	66	5634
2026-01-04 23:33:31.10	183.64	13.42	-47.8	-51.3	15.3	0.00e+00	0	44	0	1168113664	66	5618
2026-01-04 23:33:32.60	183.70	13.27	-47.7	-51.1	15.5	0.00e+00	0	44	0	1170210816	66	5527
2026-01-04 23:33:33.31	183.73	13.20	-48.0	-51.5	15.1	0.00e+00	0	44	0	1172307968	66	5773
2026-01-04 23:33:34.61	183.78	13.08	-47.9	-51.3	15.3	0.00e+00	0	44	0	1174405120	66	5636
2026-01-04 23:33:35.32	183.81	13.01	-48.0	-51.6	15.1	0.00e+00	0	44	0	1175453696	66	5795
2026-01-04 23:33:36.61	183.86	12.88	-48.2	-51.8	14.8	0.00e+00	0	44	0	1177550848	67	5606
2026-01-04 23:33:37.33	183.89	12.81	-48.1	-51.7	14.9	0.00e+00	0	44	0	1179648000	67	5562
2026-01-04 23:33:38.62	183.94	12.69	-48.1	-51.6	15.0	7.00e-07	0	44	0	1181745152	67	5498
2026-01-04 23:33:39.47	183.98	12.61	-48.1	-51.7	14.9	0.00e+00	0	44	0	1183842304	67	5534
2026-01-04 23:33:40.61	184.02	12.50	-48.1	-51.6	15.1	0.00e+00	0	44	0	1185939456	67	5476
2026-01-04 23:33:41.47	184.05	12.42	-48.0	-51.4	15.1	0.00e+00	0	44	0	1186988032	67	5401
2026-01-04 23:33:42.62	184.10	12.31	-47.8	-51.1	15.5	0.00e+00	0	44	0	1189085184	67	5209
2026-01-04 23:33:43.75	184.14	12.20	-47.8	-51.2	15.3	0.00e+00	0	44	0	1191182336	67	5252
2026-01-04 23:33:44.61	184.17	12.12	-47.7	-51.0	15.5	0.00e+00	0	44	0	1193279488	67	5138
2026-01-04 23:33:46.11	184.23	11.98	-47.7	-50.9	15.6	0.00e+00	0	44	0	1195376640	67	5087
2026-01-04 23:33:46.83	184.26	11.92	-47.6	-50.9	15.6	0.00e+00	0	44	0	1197473792	67	5094
2026-01-04 23:33:48.12	184.30	11.80	-47.4	-50.6	15.9	0.00e+00	0	44	0	1199570944	66	5166
2026-01-04 23:33:48.84	184.33	11.73	-47.4	-50.6	15.8	0.00e+00	0	44	0	1200619520	66	5189
2026-01-04 23:33:50.13	184.38	11.61	-47.5	-50.6	16.0	0.00e+00	0	43	0	1203765248	66	5213
2026-01-04 23:33:50.88	184.41	11.54	-47.3	-50.3	16.1	0.00e+00	0	44	0	1204813824	66	5039
2026-01-04 23:33:52.16	184.45	11.43	-47.1	-50.1	16.3	0.00e+00	0	44	0	1206910976	66	4922
2026-01-04 23:33:52.88	184.48	11.36	-47.1	-50.1	16.4	0.00e+00	0	44	0	1209008128	66	4906
2026-01-04 23:33:54.17	184.52	11.25	-46.8	-49.7	16.7	0.00e+00	0	44	0	1211105280	65	4961
2026-01-04 23:33:54.89	184.55	11.18	-46.9	-49.8	16.7	0.00e+00	0	44	0	1212153856	65	5010
2026-01-04 23:33:56.18	184.60	11.06	-46.8	-49.7	16.7	0.00e+00	0	44	0	1214251008	65	4952
2026-01-04 23:33:56.89	184.62	11.00	-46.8	-49.8	16.7	0.00e+00	0	44	0	1216348160	65	4998
2026-01-04 23:33:58.18	184.67	10.89	-46.6	-49.4	16.9	0.00e+00	0	44	0	1218445312	65	4800
2026-01-04 23:33:58.90	184.69	10.82	-46.4	-49.2	17.1	0.00e+00	0	44	0	1219493888	64	4978
2026-01-04 23:34:00.24	184.74	10.70	-46.6	-49.5	16.9	0.00e+00	0	44	0	1222639616	64	5125
2026-01-04 23:34:00.96	184.76	10.64	-46.5	-49.3	17.0	0.00e+00	0	44	0	1223688192	64	5037
2026-01-04 23:34:02.25	184.81	10.53	-46.4	-49.3	17.1	0.00e+00	0	44	0	1225785344	64	4992
2026-01-04 23:34:02.96	184.83	10.46	-46.5	-49.3	17.0	0.00e+00	0	44	0	1227882496	64	5030
2026-01-04 23:34:04.25	184.88	10.35	-46.3	-49.1	17.2	0.00e+00	0	44	0	1229979648	64	4923
2026-01-04 23:34:04.97	184.90	10.29	-46.4	-49.2	17.2	0.00e+00	0	44	0	1231028224	64	4961
2026-01-04 23:34:06.26	184.94	10.18	-46.3	-49.2	17.2	0.00e+00	0	44	0	1233125376	64	4927
2026-01-04 23:34:06.98	184.97	10.11	-46.3	-49.1	17.2	0.00e+00	0	44	0	1235222528	64	4924
2026-01-04 23:34:08.27	185.01	10.00	-46.3	-49.2	17.2	0.00e+00	0	44	0	1237319680	64	4947
2026-01-04 23:34:08.98	185.03	9.94	-46.4	-49.2	17.2	0.00e+00	0	44	0	1238368256	64	4947
2026-01-04 23:34:10.27	185.08	9.83	-46.3	-49.2	17.2	0.00e+00	0	44	0	1241513984	64	4937
2026-01-04 23:34:10.99	185.10	9.77	-46.4	-49.2	17.1	0.00e+00	0	44	0	1242562560	64	4971
