passes_logs/2026/01/04/T1/T1__20260104_061147_FENGYUN_3G_rec.log

#Pass ID: 20260104_061147_FENGYUN 3G
#Satellite: FENGYUN 3G
#Configuration: FENGYUN 3G
#almurnet v.1.7.20251203
#Start time: 2026-01-04 06:11:48

#Version: 2.0.20230620
#Station: T1
#Location: 37.570604 lon 55.790049 lat
#TLE: 1 56232U 23055A   26003.79066800  .00042102  00000+0  66914-3 0  9997
#TLE: 2 56232  49.9936 113.7380 0004218 335.3621  24.7144 15.52842034154456

#Time	Az	El	Level	Level2	SNR	BER	BlckErr	Temp	State	Recorded	gain1	gain2
2026-01-04 06:11:48.38	257.76	5.04	-53.3	-72.6	3.8	8.45e-01	0	36	0	0	78	32571
2026-01-04 06:11:49.38	257.62	5.10	-53.1	-72.4	3.8	8.39e-01	0	36	104	0	78	31821
2026-01-04 06:11:50.38	257.47	5.16	-53.2	-72.4	3.8	8.47e-01	0	36	104	0	78	32042
2026-01-04 06:11:51.39	257.32	5.23	-53.3	-72.5	3.8	8.46e-01	0	36	104	0	78	32308
2026-01-04 06:11:52.39	257.18	5.29	-53.6	-72.7	3.8	8.46e-01	0	36	104	0	78	33120
2026-01-04 06:11:53.40	257.03	5.35	-53.5	-72.7	3.8	8.46e-01	0	37	104	0	78	33259
2026-01-04 06:11:54.40	256.88	5.42	-53.5	-72.7	3.8	8.45e-01	0	36	104	0	78	33227
2026-01-04 06:11:55.40	256.73	5.48	-53.3	-72.6	3.8	8.45e-01	0	36	104	0	78	32588
2026-01-04 06:11:56.41	256.58	5.54	-53.3	-72.6	3.8	8.46e-01	0	36	104	0	78	32610
2026-01-04 06:11:57.41	256.43	5.61	-53.6	-72.7	3.8	8.46e-01	0	37	104	0	78	33233
2026-01-04 06:11:58.42	256.27	5.67	-53.4	-72.6	3.8	8.46e-01	0	37	104	0	78	32907
2026-01-04 06:11:59.42	256.12	5.74	-53.3	-72.6	3.8	8.46e-01	0	36	104	0	78	32804
2026-01-04 06:12:00.43	255.97	5.80	-53.6	-72.6	3.8	8.46e-01	0	37	104	0	77	34692
2026-01-04 06:12:01.43	255.81	5.86	-53.6	-72.5	3.8	8.47e-01	0	37	104	0	78	32256
2026-01-04 06:12:02.43	255.66	5.93	-53.6	-72.4	3.8	8.47e-01	0	37	104	0	78	31987
2026-01-04 06:12:03.44	255.50	5.99	-53.4	-72.2	3.8	8.46e-01	0	37	104	0	78	31406
2026-01-04 06:12:04.44	255.34	6.06	-53.4	-72.4	3.8	8.46e-01	0	37	104	0	78	31906
2026-01-04 06:12:05.45	255.18	6.12	-53.3	-72.4	3.8	8.46e-01	0	37	104	0	78	32130
2026-01-04 06:12:06.45	255.02	6.19	-53.5	-72.6	3.8	8.46e-01	0	37	104	0	78	32620
2026-01-04 06:12:07.46	254.86	6.25	-53.4	-72.6	3.8	8.47e-01	0	37	104	0	78	32618
2026-01-04 06:12:08.46	254.70	6.32	-53.4	-72.6	3.8	8.47e-01	0	37	104	0	78	32568
2026-01-04 06:12:09.47	254.53	6.38	-53.4	-72.5	3.8	8.47e-01	0	37	104	0	78	32463
2026-01-04 06:12:10.47	254.37	6.45	-53.2	-72.4	3.8	8.47e-01	0	37	104	0	78	32019
2026-01-04 06:12:11.47	254.20	6.51	-53.4	-72.5	3.8	8.47e-01	0	37	104	0	78	32269
2026-01-04 06:12:12.48	254.04	6.58	-53.5	-72.5	3.8	8.48e-01	0	37	104	0	78	32261
2026-01-04 06:12:13.48	253.87	6.64	-53.4	-72.5	3.8	8.46e-01	0	37	104	0	78	32262
2026-01-04 06:12:14.48	253.70	6.71	-53.4	-72.5	3.8	8.46e-01	0	37	104	0	78	32331
2026-01-04 06:12:15.49	253.53	6.78	-53.3	-72.5	3.8	8.47e-01	0	37	104	0	78	32298
2026-01-04 06:12:16.49	253.36	6.84	-53.4	-72.6	3.8	8.47e-01	0	37	104	0	78	32672
2026-01-04 06:12:17.50	253.19	6.91	-53.4	-72.5	3.8	8.46e-01	0	37	104	0	78	32506
2026-01-04 06:12:18.50	253.01	6.97	-53.3	-72.4	3.8	8.46e-01	0	37	104	0	78	32084
2026-01-04 06:12:19.51	252.84	7.04	-53.4	-72.4	3.8	8.47e-01	0	37	104	0	77	33941
2026-01-04 06:12:20.51	252.66	7.10	-53.4	-72.4	3.8	8.47e-01	0	37	104	0	77	33850
2026-01-04 06:12:21.51	252.49	7.17	-53.3	-72.4	3.8	8.47e-01	0	37	104	0	77	33888
2026-01-04 06:12:22.52	252.31	7.24	-53.4	-72.4	3.8	8.47e-01	0	37	104	0	77	34029
2026-01-04 06:12:23.52	252.13	7.30	-53.3	-72.4	3.8	8.47e-01	0	37	104	0	77	33898
2026-01-04 06:12:24.53	251.95	7.37	-53.3	-72.4	3.8	8.47e-01	0	37	104	0	77	34004
2026-01-04 06:12:25.53	251.77	7.43	-53.6	-72.7	3.8	8.47e-01	0	37	104	0	77	35180
2026-01-04 06:12:26.53	251.59	7.50	-53.6	-72.8	3.8	8.47e-01	0	37	104	0	77	35615
2026-01-04 06:12:27.54	251.41	7.57	-53.6	-72.8	3.9	8.47e-01	0	37	104	0	78	33499
2026-01-04 06:12:28.54	251.22	7.63	-53.4	-72.7	3.8	8.47e-01	0	37	104	0	78	32995
2026-01-04 06:12:29.55	251.04	7.70	-53.5	-72.7	3.8	8.47e-01	0	37	104	0	78	33310
2026-01-04 06:12:30.55	250.85	7.76	-53.5	-72.7	3.8	8.46e-01	0	37	104	0	78	33164
2026-01-04 06:12:31.56	250.66	7.83	-53.5	-72.7	3.8	8.46e-01	0	37	104	0	78	33164
2026-01-04 06:12:32.56	250.47	7.90	-53.4	-72.5	3.8	8.49e-01	0	38	104	0	78	32232
2026-01-04 06:12:33.56	250.28	7.96	-53.5	-72.2	3.8	8.47e-01	0	38	104	0	78	31373
2026-01-04 06:12:34.57	250.09	8.03	-53.5	-72.1	3.8	8.47e-01	0	38	104	0	78	30791
2026-01-04 06:12:35.57	249.90	8.10	-53.5	-72.1	3.8	8.46e-01	0	38	104	0	78	30840
2026-01-04 06:12:36.58	249.71	8.16	-53.5	-72.4	3.8	8.48e-01	0	38	104	0	78	32018
2026-01-04 06:12:37.58	249.51	8.23	-53.5	-72.5	3.8	8.48e-01	0	38	104	0	78	32538
2026-01-04 06:12:38.59	249.31	8.30	-53.5	-72.5	3.8	8.47e-01	0	38	104	0	78	32495
2026-01-04 06:12:39.59	249.12	8.36	-53.4	-72.3	3.8	8.46e-01	0	38	104	0	78	31616
2026-01-04 06:12:40.60	248.92	8.43	-53.5	-72.2	3.8	8.46e-01	0	38	104	0	78	31246
2026-01-04 06:12:41.60	248.72	8.50	-53.4	-72.1	3.8	8.48e-01	0	38	104	0	78	30915
2026-01-04 06:12:42.61	248.52	8.56	-53.3	-72.1	3.8	8.47e-01	0	38	104	0	78	30948
2026-01-04 06:12:43.61	248.31	8.63	-53.4	-72.4	3.8	8.47e-01	0	38	104	0	78	31967
2026-01-04 06:12:44.61	248.11	8.70	-53.4	-72.5	3.8	8.47e-01	0	38	104	0	78	32470
2026-01-04 06:12:45.62	247.90	8.76	-53.5	-71.8	3.8	8.47e-01	0	38	104	0	78	29883
2026-01-04 06:12:46.62	247.70	8.83	-53.6	-69.8	3.9	8.46e-01	0	38	104	0	78	23826
2026-01-04 06:12:47.63	247.49	8.90	-53.4	-67.0	5.1	8.46e-01	0	38	0	0	78	17165
2026-01-04 06:12:48.63	247.28	8.96	-53.1	-64.2	7.2	7.57e-01	0	38	0	0	78	12420
2026-01-04 06:12:49.63	247.07	9.03	-52.7	-61.5	9.9	1.32e-01	0	38	0	0	77	9629
2026-01-04 06:12:50.64	246.86	9.10	-50.9	-56.3	14.9	1.32e-01	0	38	0	0	73	6693
2026-01-04 06:12:51.64	246.65	9.16	-50.6	-55.6	16.1	3.90e-03	0	38	0	0	71	6937
2026-01-04 06:12:52.64	246.44	9.23	-52.9	-62.9	9.7	0.00e+00	0	38	0	0	76	12056
2026-01-04 06:12:53.65	246.22	9.30	-52.1	-62.0	9.1	0.00e+00	0	38	0	0	76	10891
2026-01-04 06:12:54.65	246.00	9.36	-50.2	-55.0	15.9	2.55e-01	0	38	0	0	72	6098
2026-01-04 06:12:55.70	245.77	9.43	-48.5	-52.0	19.6	3.82e-02	0	38	0	0	68	5412
2026-01-04 06:12:56.66	245.56	9.50	-47.8	-50.9	20.2	3.82e-02	0	38	0	0	67	5099
2026-01-04 06:12:57.79	245.32	9.57	-47.3	-50.2	20.9	0.00e+00	0	38	0	0	66	4966
2026-01-04 06:12:58.65	245.13	9.63	-46.7	-49.5	21.5	0.00e+00	0	38	0	0	65	4825
2026-01-04 06:13:00.01	244.82	9.72	-46.5	-49.1	22.0	0.00e+00	0	38	0	0	64	4921
2026-01-04 06:13:00.72	244.66	9.76	-46.3	-48.9	22.2	0.00e+00	0	38	0	0	64	4799
2026-01-04 06:13:02.20	244.33	9.86	-47.0	-49.7	21.9	0.00e+00	0	38	0	0	64	5242
2026-01-04 06:13:02.92	244.16	9.91	-46.8	-49.4	22.1	0.00e+00	0	38	0	0	64	5084
2026-01-04 06:13:04.29	243.85	10.00	-46.4	-49.0	22.2	0.00e+00	0	38	0	0	64	4834
2026-01-04 06:13:05.00	243.69	10.04	-46.3	-48.9	22.2	0.00e+00	0	38	0	0	64	4812
2026-01-04 06:13:06.29	243.39	10.13	-46.0	-48.6	22.7	0.00e+00	0	38	0	0	63	4874
2026-01-04 06:13:07.01	243.22	10.18	-46.0	-48.5	22.8	0.00e+00	0	38	0	0	63	4867
2026-01-04 06:13:08.30	242.92	10.26	-45.8	-48.4	22.9	0.00e+00	0	38	0	0	63	4774
2026-01-04 06:13:09.01	242.75	10.31	-45.6	-48.1	23.2	0.00e+00	0	38	0	0	62	4900
2026-01-04 06:13:10.30	242.44	10.39	-45.4	-47.9	23.4	0.00e+00	0	38	0	0	62	4782
2026-01-04 06:13:11.02	242.27	10.44	-45.3	-47.8	23.6	0.00e+00	0	38	0	0	62	4718
2026-01-04 06:13:12.31	241.96	10.52	-45.6	-48.0	23.4	0.00e+00	0	38	0	0	62	4836
2026-01-04 06:13:13.10	241.77	10.57	-45.7	-48.2	23.3	0.00e+00	0	38	0	0	62	4929
2026-01-04 06:13:14.25	241.49	10.64	-45.9	-48.4	23.2	0.00e+00	0	38	0	0	62	5043
2026-01-04 06:13:15.11	241.28	10.70	-45.6	-48.1	23.1	0.00e+00	0	38	0	0	62	4875
2026-01-04 06:13:16.25	241.00	10.77	-45.9	-48.3	23.2	0.00e+00	0	38	0	0	62	4984
2026-01-04 06:13:17.11	240.79	10.83	-45.8	-48.2	23.3	0.00e+00	0	38	0	0	62	4962
2026-01-04 06:13:18.26	240.50	10.90	-46.0	-48.4	23.1	0.00e+00	0	38	0	0	62	5078
2026-01-04 06:13:19.12	240.29	10.96	-46.0	-48.4	23.1	0.00e+00	0	38	0	0	62	5057
2026-01-04 06:13:20.31	239.99	11.03	-46.0	-48.4	23.1	0.00e+00	0	38	0	0	62	5069
2026-01-04 06:13:21.17	239.77	11.09	-45.7	-48.0	23.3	0.00e+00	0	38	0	0	62	4855
2026-01-04 06:13:22.39	239.46	11.16	-45.3	-47.6	23.8	0.00e+00	0	38	0	0	61	4871
2026-01-04 06:13:23.25	239.24	11.22	-45.2	-47.4	23.8	6.80e-06	0	38	0	0	61	4792
2026-01-04 06:13:24.40	238.94	11.29	-45.5	-47.8	23.4	6.80e-06	0	38	0	0	61	4994
2026-01-04 06:13:25.26	238.72	11.34	-45.5	-47.8	23.6	3.31e-05	0	38	0	0	61	4998
2026-01-04 06:13:26.40	238.42	11.41	-45.5	-47.8	23.5	2.74e-05	0	38	0	0	61	5030
2026-01-04 06:13:27.27	238.19	11.47	-45.5	-47.8	23.5	2.74e-05	0	38	0	0	61	5038
2026-01-04 06:13:28.60	237.84	11.55	-45.6	-47.9	23.6	0.00e+00	0	38	0	0	61	5077
2026-01-04 06:13:29.32	237.65	11.59	-45.6	-47.9	23.5	0.00e+00	0	38	0	0	61	5075
2026-01-04 06:13:30.85	237.24	11.69	-45.2	-47.5	23.2	0.00e+00	0	38	0	0	61	4855
2026-01-04 06:13:31.56	237.05	11.73	-45.4	-47.7	23.7	0.00e+00	0	38	0	0	61	4980
2026-01-04 06:13:32.85	236.71	11.81	-45.6	-47.9	23.8	0.00e+00	0	38	0	0	61	5056
2026-01-04 06:13:33.57	236.51	11.85	-45.6	-47.9	23.8	0.00e+00	0	38	0	0	62	4802
2026-01-04 06:13:34.86	236.16	11.93	-45.4	-47.7	23.8	0.00e+00	0	38	0	0	62	4659
2026-01-04 06:13:35.57	235.96	11.97	-45.4	-47.7	23.9	0.00e+00	0	38	0	0	62	4662
2026-01-04 06:13:36.86	235.61	12.05	-45.4	-47.7	23.8	0.00e+00	0	38	0	0	62	4659
2026-01-04 06:13:37.58	235.41	12.09	-45.6	-47.8	23.6	0.00e+00	0	38	0	0	62	4757
2026-01-04 06:13:38.87	235.05	12.17	-45.7	-48.1	23.5	0.00e+00	0	38	0	0	62	4874
2026-01-04 06:13:39.68	234.82	12.22	-45.7	-48.1	23.5	0.00e+00	0	38	0	0	62	4888
2026-01-04 06:13:41.14	234.41	12.30	-45.8	-48.2	23.3	0.00e+00	0	38	0	0	62	4948
2026-01-04 06:13:41.86	234.20	12.34	-45.3	-47.6	23.8	0.00e+00	0	38	0	0	62	4648
2026-01-04 06:13:43.15	233.84	12.42	-44.7	-47.0	24.3	0.00e+00	0	38	0	0	61	4559
2026-01-04 06:13:43.86	233.63	12.46	-44.6	-46.8	24.4	0.00e+00	0	38	0	0	61	4487
2026-01-04 06:13:45.15	233.26	12.53	-44.3	-46.6	24.3	0.00e+00	0	38	0	0	59	4873
2026-01-04 06:13:45.88	233.05	12.57	-44.2	-46.4	24.2	0.00e+00	0	38	0	0	59	4805
2026-01-04 06:13:47.17	232.67	12.65	-44.7	-47.0	24.0	0.00e+00	0	38	0	0	60	4832
2026-01-04 06:13:47.89	232.46	12.69	-44.8	-47.1	23.8	0.00e+00	0	38	0	0	60	4915
2026-01-04 06:13:49.17	232.09	12.76	-44.9	-47.2	23.7	0.00e+00	0	38	0	0	60	4977
2026-01-04 06:13:49.89	231.87	12.80	-44.9	-47.2	23.7	0.00e+00	0	38	0	0	60	4927
2026-01-04 06:13:51.18	231.49	12.87	-44.9	-47.2	23.8	0.00e+00	0	38	0	0	60	4929
2026-01-04 06:13:51.90	231.28	12.90	-44.8	-47.1	23.9	0.00e+00	0	38	0	0	60	4872
2026-01-04 06:13:53.24	230.87	12.98	-44.7	-46.9	24.0	0.00e+00	0	38	0	0	60	4805
2026-01-04 06:13:53.95	230.66	13.01	-44.5	-46.8	24.1	0.00e+00	0	38	0	0	60	4714
2026-01-04 06:13:55.24	230.27	13.08	-44.5	-46.8	24.0	0.00e+00	0	38	0	0	60	4719
2026-01-04 06:13:55.96	230.05	13.12	-44.6	-46.8	24.0	0.00e+00	0	38	0	0	60	4751
2026-01-04 06:13:57.25	229.66	13.19	-44.6	-46.8	24.0	0.00e+00	0	38	0	0	60	4742
2026-01-04 06:13:57.96	229.44	13.22	-44.7	-47.0	23.9	0.00e+00	0	38	0	0	60	4825
2026-01-04 06:13:59.25	229.04	13.29	-44.7	-47.0	23.9	0.00e+00	0	38	0	0	60	4837
2026-01-04 06:13:59.97	228.82	13.32	-44.5	-46.8	24.0	0.00e+00	0	38	0	0	60	4731
2026-01-04 06:14:01.26	228.42	13.39	-44.8	-47.1	23.8	0.00e+00	0	38	0	0	60	4874
2026-01-04 06:14:02.07	228.16	13.43	-44.5	-46.8	24.0	0.00e+00	0	38	0	0	60	4711
2026-01-04 06:14:03.53	227.71	13.50	-44.7	-47.0	23.9	0.00e+00	0	38	0	0	60	4830
2026-01-04 06:14:04.25	227.48	13.53	-44.4	-46.6	24.2	0.00e+00	0	38	0	0	60	4634
2026-01-04 06:14:05.73	227.01	13.60	-44.4	-46.6	24.3	0.00e+00	0	38	0	0	60	4608
2026-01-04 06:14:06.45	226.78	13.64	-44.1	-46.2	24.6	0.00e+00	0	38	0	0	60	4405
2026-01-04 06:14:07.85	226.33	13.70	-44.2	-46.3	24.5	0.00e+00	0	38	0	0	59	4755
2026-01-04 06:14:08.56	226.11	13.73	-44.1	-46.2	24.6	0.00e+00	0	38	0	0	59	4703
2026-01-04 06:14:09.86	225.69	13.79	-44.2	-46.4	24.5	0.00e+00	0	38	0	0	59	4797
2026-01-04 06:14:10.57	225.46	13.82	-44.3	-46.5	24.5	0.00e+00	0	38	0	0	59	4824
2026-01-04 06:14:11.86	225.04	13.88	-43.9	-46.1	24.5	0.00e+00	0	38	0	0	59	4612
2026-01-04 06:14:12.58	224.80	13.91	-43.9	-46.1	24.6	0.00e+00	0	38	0	0	59	4615
2026-01-04 06:14:13.86	224.39	13.96	-43.8	-45.9	24.7	0.00e+00	0	38	0	0	59	4526
2026-01-04 06:14:14.58	224.15	13.99	-43.7	-45.8	24.8	0.00e+00	0	38	0	0	59	4463
2026-01-04 06:14:16.19	223.62	14.06	-43.4	-45.5	25.0	0.00e+00	0	38	0	0	58	4546
2026-01-04 06:14:16.76	223.43	14.08	-43.7	-45.8	25.0	0.00e+00	0	38	0	0	58	4721
2026-01-04 06:14:18.56	222.83	14.15	-44.0	-46.1	24.8	0.00e+00	0	38	0	0	58	4914
2026-01-04 06:14:19.13	222.64	14.17	-43.6	-45.8	24.8	0.00e+00	0	38	0	0	58	4717
2026-01-04 06:14:20.72	222.11	14.23	-43.9	-46.1	24.6	0.00e+00	0	38	0	0	58	4882
2026-01-04 06:14:21.30	221.91	14.26	-44.1	-46.3	24.5	0.00e+00	0	39	0	0	58	4993
2026-01-04 06:14:22.92	221.37	14.31	-43.9	-46.1	24.6	0.00e+00	0	38	0	0	59	4614
2026-01-04 06:14:23.49	221.17	14.33	-43.8	-46.0	24.7	0.00e+00	0	38	0	0	59	4566
2026-01-04 06:14:25.08	220.63	14.39	-43.8	-45.9	24.8	0.00e+00	0	38	0	0	59	4521
2026-01-04 06:14:25.83	220.38	14.41	-43.8	-45.9	24.8	0.00e+00	0	38	0	0	59	4515
2026-01-04 06:14:27.12	219.94	14.46	-43.8	-45.9	24.6	0.00e+00	0	38	0	0	59	4535
2026-01-04 06:14:28.06	219.62	14.49	-43.6	-45.7	24.9	0.00e+00	0	38	0	0	59	4405
2026-01-04 06:14:29.38	219.16	14.53	-43.6	-45.6	25.3	0.00e+00	0	38	0	0	58	4619
2026-01-04 06:14:30.12	218.91	14.55	-43.7	-45.8	25.1	0.00e+00	0	38	0	0	58	4712
2026-01-04 06:14:31.73	218.35	14.60	-44.2	-46.4	24.7	0.00e+00	0	38	0	0	59	4767
2026-01-04 06:14:32.31	218.15	14.62	-44.2	-46.3	24.7	0.00e+00	0	38	0	0	59	4759
2026-01-04 06:14:34.14	217.51	14.67	-44.1	-46.3	24.8	0.00e+00	0	38	0	0	59	4713
2026-01-04 06:14:34.71	217.31	14.68	-44.0	-46.1	24.8	0.00e+00	0	38	0	0	59	4628
2026-01-04 06:14:36.34	216.74	14.72	-44.0	-46.1	24.6	0.00e+00	0	38	0	0	59	4632
2026-01-04 06:14:36.91	216.55	14.74	-43.9	-46.0	24.7	0.00e+00	0	38	0	0	59	4592
2026-01-04 06:14:38.50	215.99	14.78	-43.4	-45.5	25.0	0.00e+00	0	38	0	0	58	4576
2026-01-04 06:14:39.07	215.79	14.79	-43.4	-45.5	25.0	1.10e-06	0	38	0	0	58	4594
2026-01-04 06:14:40.91	215.14	14.83	-43.9	-46.0	24.9	0.00e+00	0	38	0	0	58	4832
2026-01-04 06:14:41.49	214.93	14.84	-43.5	-45.7	24.8	0.00e+00	0	38	0	0	58	4655
2026-01-04 06:14:43.06	214.38	14.87	-43.6	-45.7	25.1	0.00e+00	0	38	0	0	58	4663
2026-01-04 06:14:43.65	214.17	14.88	-43.6	-45.6	25.1	0.00e+00	0	38	0	0	58	4649
2026-01-04 06:14:45.23	213.60	14.91	-43.4	-45.4	25.3	0.00e+00	0	38	0	0	58	4534
2026-01-04 06:14:46.13	213.28	14.93	-43.3	-45.3	25.4	0.00e+00	0	38	0	0	58	4476
2026-01-04 06:14:47.15	212.92	14.94	-43.3	-45.3	25.4	0.00e+00	0	38	0	0	58	4480
2026-01-04 06:14:48.15	212.56	14.96	-43.3	-45.4	25.3	0.00e+00	0	38	0	0	58	4521
2026-01-04 06:14:49.16	212.20	14.97	-43.4	-45.5	25.2	0.00e+00	0	38	0	0	58	4561
2026-01-04 06:14:50.16	211.84	14.99	-43.4	-45.5	25.3	0.00e+00	0	38	0	0	58	4569
2026-01-04 06:14:51.18	211.48	15.00	-43.2	-45.3	25.4	0.00e+00	0	38	0	0	58	4462
2026-01-04 06:14:52.18	211.12	15.01	-43.3	-45.3	25.4	0.00e+00	0	38	0	0	58	4490
2026-01-04 06:14:53.24	210.74	15.02	-43.3	-45.4	25.3	0.00e+00	0	38	0	0	58	4517
2026-01-04 06:14:54.14	210.41	15.03	-42.9	-44.9	25.6	0.00e+00	0	39	0	0	57	4544
2026-01-04 06:14:55.20	210.03	15.04	-43.0	-45.0	25.6	0.00e+00	0	38	0	0	57	4595
2026-01-04 06:14:56.06	209.72	15.05	-43.4	-45.5	25.3	0.00e+00	0	38	0	0	57	4841
2026-01-04 06:14:57.21	209.31	15.06	-43.7	-45.8	24.9	0.00e+00	0	39	0	0	58	4738
2026-01-04 06:14:58.31	208.91	15.06	-43.4	-45.5	25.2	0.00e+00	0	38	0	0	58	4574
2026-01-04 06:14:59.34	208.54	15.07	-43.3	-45.4	25.3	0.00e+00	0	39	0	0	58	4495
2026-01-04 06:15:00.34	208.18	15.07	-43.2	-45.2	25.4	0.00e+00	0	38	0	0	58	4428
2026-01-04 06:15:01.34	207.82	15.08	-43.3	-45.3	25.3	0.00e+00	0	38	0	0	58	4475
2026-01-04 06:15:02.34	207.46	15.08	-43.2	-45.2	25.4	0.00e+00	0	38	0	0	58	4434
2026-01-04 06:15:03.35	207.09	15.08	-42.9	-45.0	25.6	0.00e+00	0	38	0	0	57	4554
2026-01-04 06:15:04.35	206.73	15.08	-43.2	-45.2	25.4	0.00e+00	0	39	0	0	57	4676
2026-01-04 06:15:05.36	206.37	15.08	-43.5	-45.6	25.1	0.00e+00	0	39	0	0	57	4885
2026-01-04 06:15:06.36	206.01	15.08	-43.7	-45.7	25.0	0.00e+00	0	38	0	0	57	4978
2026-01-04 06:15:07.37	205.64	15.08	-43.5	-45.5	25.1	0.00e+00	0	39	0	0	58	4590
2026-01-04 06:15:08.37	205.28	15.07	-43.4	-45.4	25.2	0.00e+00	0	39	0	0	58	4534
2026-01-04 06:15:09.39	204.91	15.07	-43.6	-45.7	25.1	0.00e+00	0	38	0	0	58	4676
2026-01-04 06:15:10.39	204.55	15.06	-43.7	-45.8	24.9	0.00e+00	0	38	0	0	58	4729
2026-01-04 06:15:11.46	204.17	15.06	-43.5	-45.6	25.1	0.00e+00	0	38	0	0	58	4599
2026-01-04 06:15:12.31	203.86	15.05	-43.5	-45.5	25.4	0.00e+00	0	38	0	0	58	4579
2026-01-04 06:15:13.65	203.38	15.04	-43.7	-45.8	25.1	0.00e+00	0	38	0	0	58	4713
2026-01-04 06:15:14.37	203.12	15.03	-43.9	-46.0	24.9	0.00e+00	0	38	0	0	58	4857
2026-01-04 06:15:15.66	202.65	15.02	-43.7	-45.8	25.1	0.00e+00	0	38	0	0	58	4710
2026-01-04 06:15:16.39	202.39	15.01	-43.1	-45.1	25.5	0.00e+00	0	38	0	0	58	4370
2026-01-04 06:15:17.68	201.93	15.00	-42.9	-44.9	25.6	0.00e+00	0	38	0	0	57	4514
2026-01-04 06:15:18.39	201.67	14.99	-42.9	-45.0	25.6	0.00e+00	0	39	0	0	57	4555
2026-01-04 06:15:19.68	201.21	14.97	-42.8	-44.8	25.7	0.00e+00	0	38	0	0	57	4465
2026-01-04 06:15:20.40	200.95	14.96	-42.6	-44.6	25.9	0.00e+00	0	38	0	0	57	4356
2026-01-04 06:15:21.69	200.49	14.94	-42.6	-44.5	25.9	0.00e+00	0	38	0	0	56	4588
2026-01-04 06:15:22.41	200.24	14.93	-42.8	-44.8	25.7	0.00e+00	0	38	0	0	56	4756
2026-01-04 06:15:23.69	199.78	14.91	-43.0	-45.1	25.5	0.00e+00	0	38	0	0	56	4887
2026-01-04 06:15:24.64	199.44	14.89	-43.1	-45.2	25.5	0.00e+00	0	38	0	0	56	4929
2026-01-04 06:15:25.96	198.97	14.87	-43.1	-45.1	25.5	0.00e+00	0	38	0	0	56	4897
2026-01-04 06:15:26.71	198.71	14.85	-43.3	-45.4	25.3	0.00e+00	0	38	0	0	57	4778
2026-01-04 06:15:28.00	198.25	14.82	-43.6	-45.7	25.1	0.00e+00	0	38	0	0	57	4968
2026-01-04 06:15:28.71	198.00	14.81	-43.5	-45.6	25.1	0.00e+00	0	38	0	0	57	4910
2026-01-04 06:15:30.00	197.54	14.78	-43.6	-45.7	25.0	0.00e+00	0	38	0	0	57	4939
2026-01-04 06:15:30.71	197.29	14.76	-43.5	-45.6	25.1	0.00e+00	0	38	0	0	57	4889
2026-01-04 06:15:32.00	196.84	14.73	-43.9	-46.0	24.8	0.00e+00	0	38	0	0	58	4867
2026-01-04 06:15:32.72	196.59	14.71	-44.0	-46.2	24.7	0.00e+00	0	39	0	0	58	4959
2026-01-04 06:15:34.01	196.14	14.68	-43.8	-45.9	24.9	0.00e+00	0	38	0	0	58	4792
2026-01-04 06:15:34.72	195.89	14.66	-43.6	-45.7	25.0	0.00e+00	0	38	0	0	58	4698
2026-01-04 06:15:36.19	195.38	14.62	-43.6	-45.7	25.0	0.00e+00	0	38	0	0	58	4678
2026-01-04 06:15:36.91	195.13	14.60	-43.3	-45.3	25.2	0.00e+00	0	38	0	0	58	4473
2026-01-04 06:15:38.28	194.65	14.56	-43.3	-45.3	25.3	0.00e+00	0	38	0	0	58	4490
2026-01-04 06:15:38.99	194.41	14.54	-43.3	-45.4	25.3	0.00e+00	0	38	0	0	58	4503
2026-01-04 06:15:40.28	193.96	14.50	-43.6	-45.7	25.0	0.00e+00	0	38	0	0	58	4671
2026-01-04 06:15:41.00	193.72	14.47	-44.0	-46.1	24.7	0.00e+00	0	38	0	0	58	4926
2026-01-04 06:15:42.29	193.27	14.43	-43.9	-46.1	24.7	0.00e+00	0	38	0	0	58	4907
2026-01-04 06:15:43.01	193.03	14.41	-43.6	-45.7	24.9	0.00e+00	0	39	0	0	58	4697
2026-01-04 06:15:44.29	192.59	14.37	-43.6	-45.7	25.0	0.00e+00	0	38	0	0	58	4683
2026-01-04 06:15:45.01	192.35	14.34	-43.7	-45.8	24.9	0.00e+00	0	38	0	0	58	4731
2026-01-04 06:15:46.30	191.91	14.29	-44.0	-46.2	24.6	0.00e+00	0	38	0	0	58	4961
2026-01-04 06:15:47.08	191.65	14.27	-44.2	-46.4	24.5	0.00e+00	0	38	0	0	58	5055
2026-01-04 06:15:48.68	191.11	14.21	-44.2	-46.4	24.4	0.00e+00	0	39	0	0	59	4769
2026-01-04 06:15:49.25	190.92	14.18	-44.3	-46.5	24.4	0.00e+00	0	38	0	0	59	4849
2026-01-04 06:15:51.07	190.31	14.11	-44.4	-46.6	24.4	0.00e+00	0	38	0	0	59	4897
2026-01-04 06:15:51.64	190.12	14.09	-44.2	-46.4	24.5	0.00e+00	0	39	0	0	59	4776
2026-01-04 06:15:53.23	189.60	14.03	-43.7	-45.8	25.0	0.00e+00	0	39	0	0	59	4483
2026-01-04 06:15:53.81	189.40	14.00	-43.7	-45.9	25.0	0.00e+00	0	38	0	0	59	4505
2026-01-04 06:15:55.40	188.88	13.94	-43.3	-45.4	24.9	0.00e+00	0	38	0	0	58	4531
2026-01-04 06:15:55.98	188.69	13.91	-43.5	-45.7	24.8	0.00e+00	0	38	0	0	58	4661
2026-01-04 06:15:57.56	188.18	13.84	-44.2	-46.4	24.4	0.00e+00	0	38	0	0	59	4808
2026-01-04 06:15:58.15	187.99	13.82	-44.0	-46.2	24.6	0.00e+00	0	38	0	0	59	4691
2026-01-04 06:15:59.83	187.44	13.74	-43.5	-45.7	25.0	0.00e+00	0	38	0	0	59	4400
2026-01-04 06:16:00.41	187.26	13.72	-43.5	-45.6	25.0	0.00e+00	0	38	0	0	59	4389
2026-01-04 06:16:02.00	186.75	13.64	-43.6	-45.7	24.9	0.00e+00	0	39	0	0	59	4407
2026-01-04 06:16:02.57	186.56	13.62	-43.6	-45.7	24.9	0.00e+00	0	38	0	0	59	4441
2026-01-04 06:16:04.17	186.06	13.54	-44.0	-46.1	24.5	0.00e+00	0	38	0	0	59	4645
2026-01-04 06:16:05.07	185.77	13.50	-44.3	-46.5	24.3	0.00e+00	0	38	0	0	59	4866
2026-01-04 06:16:06.08	185.45	13.45	-44.6	-46.8	24.1	0.00e+00	0	38	0	0	59	5026
2026-01-04 06:16:07.08	185.14	13.40	-44.5	-46.7	24.2	0.00e+00	0	38	0	0	60	4684
2026-01-04 06:16:08.08	184.83	13.35	-44.4	-46.6	24.3	0.00e+00	0	39	0	0	60	4622
2026-01-04 06:16:09.15	184.50	13.30	-44.2	-46.4	24.4	0.00e+00	0	38	0	0	60	4535
2026-01-04 06:16:10.04	184.22	13.25	-44.2	-46.4	24.3	0.00e+00	0	38	0	0	60	4527
2026-01-04 06:16:11.10	183.89	13.20	-44.0	-46.2	24.5	0.00e+00	0	38	0	0	59	4655
2026-01-04 06:16:12.11	183.58	13.15	-43.8	-46.0	24.7	0.00e+00	0	38	0	0	59	4578
2026-01-04 06:16:13.28	183.23	13.09	-43.9	-46.0	24.7	0.00e+00	0	38	0	0	59	4586
2026-01-04 06:16:14.14	182.97	13.04	-44.1	-46.2	24.5	0.00e+00	0	38	0	0	59	4705
2026-01-04 06:16:15.50	182.55	12.97	-44.3	-46.6	24.2	0.00e+00	0	38	0	0	59	4879
2026-01-04 06:16:16.21	182.34	12.93	-44.5	-46.7	24.2	0.00e+00	0	38	0	0	59	4958
2026-01-04 06:16:17.50	181.95	12.86	-44.3	-46.5	24.3	0.00e+00	0	38	0	0	59	4855
2026-01-04 06:16:18.22	181.74	12.82	-44.2	-46.4	24.4	0.00e+00	0	38	0	0	59	4794
2026-01-04 06:16:19.78	181.28	12.74	-44.4	-46.6	24.3	0.00e+00	0	38	0	0	59	4887
2026-01-04 06:16:20.48	181.07	12.70	-44.4	-46.6	24.3	0.00e+00	0	38	0	0	59	4886
2026-01-04 06:16:21.77	180.69	12.63	-44.4	-46.7	24.2	0.00e+00	0	38	0	0	59	4960
2026-01-04 06:16:22.49	180.48	12.59	-44.7	-46.9	23.8	0.00e+00	0	38	0	0	59	5100
2026-01-04 06:16:23.78	180.11	12.51	-44.6	-46.8	24.0	0.00e+00	0	38	0	0	60	4759
2026-01-04 06:16:24.49	179.90	12.47	-44.4	-46.7	24.1	0.00e+00	0	38	0	0	60	4655
2026-01-04 06:16:25.78	179.53	12.40	-44.6	-46.8	24.1	0.00e+00	0	38	0	0	60	4732
2026-01-04 06:16:26.50	179.33	12.36	-44.6	-46.8	24.2	0.00e+00	0	38	0	0	60	4740
2026-01-04 06:16:27.78	178.96	12.28	-44.4	-46.6	24.3	0.00e+00	0	38	0	0	60	4645
2026-01-04 06:16:28.50	178.76	12.24	-44.5	-46.7	24.3	0.00e+00	0	38	0	0	60	4675
2026-01-04 06:16:29.79	178.40	12.17	-44.5	-46.7	24.2	0.00e+00	0	39	0	0	60	4665
2026-01-04 06:16:30.62	178.16	12.12	-44.5	-46.7	24.2	0.00e+00	0	38	0	0	60	4690
2026-01-04 06:16:31.77	177.84	12.05	-44.5	-46.7	24.2	0.00e+00	0	39	0	0	60	4699
2026-01-04 06:16:32.62	177.61	12.00	-44.7	-46.9	24.2	0.00e+00	0	38	0	0	60	4798
2026-01-04 06:16:33.77	177.29	11.93	-45.0	-47.3	24.0	0.00e+00	0	38	0	0	60	4984
2026-01-04 06:16:34.90	176.98	11.86	-44.6	-46.9	24.0	0.00e+00	0	38	0	0	60	4781
2026-01-04 06:16:35.76	176.75	11.81	-44.4	-46.6	24.1	0.00e+00	0	38	0	0	60	4647
2026-01-04 06:16:36.91	176.44	11.74	-44.6	-46.9	23.5	0.00e+00	0	38	0	0	60	4764
2026-01-04 06:16:37.77	176.20	11.69	-44.4	-46.7	24.0	0.00e+00	0	38	0	0	60	4672
2026-01-04 06:16:38.91	175.90	11.62	-44.7	-46.9	24.0	0.00e+00	0	39	0	0	60	4813
2026-01-04 06:16:39.75	175.67	11.57	-44.6	-47.0	23.8	0.00e+00	0	39	0	0	60	4815
2026-01-04 06:16:40.89	175.37	11.50	-44.5	-46.9	23.8	0.00e+00	0	39	0	0	60	4780
2026-01-04 06:16:41.75	175.15	11.44	-44.6	-47.0	23.7	0.00e+00	0	39	0	0	60	4833
2026-01-04 06:16:42.90	174.84	11.37	-44.8	-47.2	23.6	0.00e+00	0	38	0	0	60	4969
2026-01-04 06:16:43.76	174.62	11.32	-44.8	-47.3	23.6	0.00e+00	0	38	0	0	60	4989
2026-01-04 06:16:45.01	174.30	11.24	-44.6	-47.1	23.8	0.00e+00	0	39	0	0	60	4884
2026-01-04 06:16:45.75	174.11	11.19	-44.5	-47.0	23.9	0.00e+00	0	38	0	0	60	4836
2026-01-04 06:16:47.03	173.78	11.11	-44.6	-47.0	23.9	0.00e+00	0	38	0	0	60	4854
2026-01-04 06:16:47.75	173.59	11.07	-44.5	-47.0	23.9	0.00e+00	0	39	0	0	60	4835
2026-01-04 06:16:49.04	173.27	10.98	-44.4	-46.8	24.0	0.00e+00	0	38	0	0	60	4741
2026-01-04 06:16:49.76	173.09	10.94	-44.5	-46.9	24.0	0.00e+00	0	39	0	0	60	4773
2026-01-04 06:16:51.04	172.77	10.86	-44.4	-46.9	24.0	0.00e+00	0	39	0	0	60	4762
2026-01-04 06:16:51.86	172.56	10.80	-44.3	-46.7	24.0	0.00e+00	0	38	0	0	60	4692
2026-01-04 06:16:53.00	172.28	10.73	-44.4	-46.8	24.0	0.00e+00	0	38	0	0	60	4733
2026-01-04 06:16:53.86	172.07	10.67	-44.4	-46.8	23.9	0.00e+00	0	39	0	0	60	4732
2026-01-04 06:16:55.00	171.79	10.60	-44.5	-47.0	23.8	0.00e+00	0	38	0	0	60	4827
2026-01-04 06:16:55.87	171.58	10.54	-44.7	-47.2	23.6	0.00e+00	0	39	0	0	60	4928
2026-01-04 06:16:57.01	171.30	10.47	-44.8	-47.3	23.6	0.00e+00	0	39	0	0	60	5011
2026-01-04 06:16:57.87	171.10	10.41	-44.9	-47.4	23.5	0.00e+00	0	39	0	0	60	5071
2026-01-04 06:16:59.01	170.82	10.34	-44.8	-47.3	23.5	0.00e+00	0	39	0	0	60	5012
2026-01-04 06:16:59.88	170.62	10.28	-44.9	-47.5	23.5	0.00e+00	0	38	0	0	60	5117
2026-01-04 06:17:01.02	170.35	10.21	-44.8	-47.3	23.3	0.00e+00	0	39	0	0	60	5035
2026-01-04 06:17:01.88	170.15	10.15	-45.4	-47.9	23.3	0.00e+00	0	38	0	0	61	5079
2026-01-04 06:17:03.03	169.88	10.08	-45.8	-48.5	22.9	0.00e+00	0	39	0	0	62	5137
2026-01-04 06:17:03.89	169.68	10.02	-45.8	-48.5	22.8	0.00e+00	0	38	0	0	62	5143
2026-01-04 06:17:05.03	169.42	9.95	-45.7	-48.3	22.9	0.00e+00	0	39	0	0	62	5030
2026-01-04 06:17:05.89	169.22	9.89	-45.7	-48.4	22.9	0.00e+00	0	38	0	0	62	5045
2026-01-04 06:17:07.03	168.96	9.82	-45.7	-48.3	22.9	0.00e+00	0	39	0	0	62	5027
2026-01-04 06:17:07.89	168.77	9.76	-45.6	-48.2	22.9	0.00e+00	0	39	0	0	62	4954
2026-01-04 06:17:09.04	168.51	9.68	-45.4	-48.0	23.2	1.45e-04	0	39	0	0	62	4817
2026-01-04 06:17:09.90	168.31	9.63	-45.3	-47.8	23.3	1.45e-04	0	38	0	0	61	5023
2026-01-04 06:17:11.04	168.06	9.55	-45.2	-47.7	23.1	1.10e-06	0	39	0	0	61	4963
2026-01-04 06:17:11.90	167.87	9.49	-44.9	-47.5	23.0	1.90e-03	0	39	0	0	61	4864
2026-01-04 06:17:13.05	167.62	9.42	-45.5	-48.2	23.0	1.90e-03	0	39	0	0	61	5224
2026-01-04 06:17:13.92	167.43	9.36	-45.4	-48.0	23.1	0.00e+00	0	39	0	0	61	5145
2026-01-04 06:17:15.06	167.18	9.28	-45.2	-47.9	23.0	1.01e-04	0	39	0	0	61	5057
2026-01-04 06:17:15.99	166.98	9.22	-45.3	-48.0	22.9	1.01e-04	0	38	0	0	61	5140
2026-01-04 06:17:16.99	166.77	9.16	-45.3	-47.9	23.0	1.10e-06	0	38	0	0	61	5095
2026-01-04 06:17:17.99	166.56	9.09	-45.2	-47.8	23.2	0.00e+00	0	38	0	0	61	5027
2026-01-04 06:17:18.99	166.34	9.02	-45.1	-47.7	23.2	0.00e+00	0	39	0	0	61	4929
2026-01-04 06:17:20.00	166.13	8.96	-52.1	-63.3	10.1	0.00e+00	0	38	0	0	74	14060
2026-01-04 06:17:21.00	165.92	8.89	-53.7	-71.9	3.8	2.63e-01	0	39	104	0	78	30072
2026-01-04 06:17:22.01	165.71	8.82	-53.6	-72.2	3.9	8.46e-01	0	39	104	0	78	31091
2026-01-04 06:17:23.01	165.51	8.76	-54.1	-72.6	3.8	8.46e-01	0	39	104	0	79	31027
2026-01-04 06:17:24.02	165.30	8.69	-53.8	-72.5	3.8	8.46e-01	0	39	104	0	79	30598
2026-01-04 06:17:25.02	165.10	8.62	-54.2	-72.9	3.8	8.48e-01	0	38	104	0	79	31980
2026-01-04 06:17:26.02	164.89	8.56	-54.2	-72.9	3.8	8.48e-01	0	39	104	0	79	32128
2026-01-04 06:17:27.03	164.69	8.49	-54.3	-73.0	3.8	8.47e-01	0	39	104	0	79	32502
2026-01-04 06:17:28.03	164.49	8.42	-54.3	-73.1	3.8	8.47e-01	0	38	104	0	79	32692
2026-01-04 06:17:29.04	164.29	8.36	-54.3	-73.1	3.8	8.47e-01	0	38	104	0	79	32680
2026-01-04 06:17:30.04	164.09	8.29	-54.3	-73.0	3.8	8.47e-01	0	39	104	0	79	32528
2026-01-04 06:17:31.05	163.90	8.22	-54.3	-73.1	3.8	8.48e-01	0	39	104	0	79	32652
2026-01-04 06:17:32.05	163.70	8.16	-54.3	-73.0	3.8	8.48e-01	0	39	104	0	79	32508
2026-01-04 06:17:33.05	163.51	8.09	-54.4	-73.1	3.8	8.46e-01	0	38	104	0	79	32782
2026-01-04 06:17:34.06	163.31	8.02	-54.5	-73.3	3.8	8.47e-01	0	39	104	0	79	33445
2026-01-04 06:17:35.06	163.12	7.96	-54.6	-73.4	3.8	8.47e-01	0	39	104	0	79	33791
2026-01-04 06:17:36.07	162.93	7.89	-54.5	-73.3	3.8	8.47e-01	0	38	104	0	79	33356
2026-01-04 06:17:37.07	162.74	7.82	-54.5	-73.2	3.8	8.47e-01	0	38	104	0	79	33031
2026-01-04 06:17:38.08	162.55	7.75	-54.3	-73.2	3.8	8.47e-01	0	38	104	0	79	33066
2026-01-04 06:17:39.08	162.36	7.69	-54.2	-73.1	3.8	8.47e-01	0	39	104	0	79	32816
2026-01-04 06:17:40.08	162.18	7.62	-54.4	-73.2	3.8	8.47e-01	0	39	104	0	79	33057
2026-01-04 06:17:41.09	161.99	7.56	-54.4	-73.2	3.8	8.47e-01	0	39	104	0	79	33134
2026-01-04 06:17:42.09	161.81	7.49	-54.0	-72.9	3.8	8.47e-01	0	39	104	0	79	31839
2026-01-04 06:17:43.10	161.63	7.42	-54.5	-73.2	3.8	8.48e-01	0	39	104	0	79	33261
2026-01-04 06:17:44.10	161.44	7.36	-54.4	-73.2	3.8	8.47e-01	0	39	104	0	79	33267
2026-01-04 06:17:45.11	161.26	7.29	-54.2	-73.2	3.8	8.47e-01	0	39	104	0	79	32954
2026-01-04 06:17:46.11	161.09	7.22	-54.2	-73.2	3.8	8.46e-01	0	39	104	0	79	33113
2026-01-04 06:17:47.11	160.91	7.16	-53.9	-73.1	3.8	8.46e-01	0	39	104	0	79	32920
2026-01-04 06:17:48.12	160.73	7.09	-54.1	-73.1	3.8	8.46e-01	0	39	104	0	79	32870
2026-01-04 06:17:49.12	160.55	7.03	-54.0	-73.0	3.8	8.46e-01	0	39	104	0	79	32519
2026-01-04 06:17:50.13	160.38	6.96	-53.8	-72.9	3.8	8.47e-01	0	38	104	0	78	33706
2026-01-04 06:17:51.13	160.21	6.89	-53.9	-73.0	3.8	8.47e-01	0	39	104	0	78	34227
2026-01-04 06:17:52.14	160.03	6.83	-53.9	-73.0	3.8	8.47e-01	0	39	104	0	78	34354
2026-01-04 06:17:53.14	159.86	6.76	-54.0	-73.1	3.8	8.48e-01	0	39	104	0	78	34489
2026-01-04 06:17:54.15	159.69	6.70	-53.9	-73.0	3.8	8.47e-01	0	39	104	0	78	34347
2026-01-04 06:17:55.15	159.52	6.63	-53.9	-73.0	3.8	8.47e-01	0	38	104	0	78	34228
2026-01-04 06:17:56.15	159.35	6.57	-54.0	-73.1	3.8	8.46e-01	0	39	104	0	78	34501
2026-01-04 06:17:57.16	159.19	6.50	-53.9	-73.0	3.8	8.48e-01	0	39	104	0	78	34435
2026-01-04 06:17:58.16	159.02	6.44	-54.0	-73.1	3.8	8.48e-01	0	39	104	0	78	34532
2026-01-04 06:17:59.17	158.85	6.37	-54.0	-73.1	3.8	8.47e-01	0	39	104	0	78	34507
2026-01-04 06:18:00.17	158.69	6.31	-53.9	-73.0	3.8	8.48e-01	0	39	104	0	78	34267
2026-01-04 06:18:01.18	158.53	6.24	-53.9	-73.0	3.8	8.48e-01	0	39	104	0	78	34414
2026-01-04 06:18:02.18	158.36	6.17	-54.0	-73.0	3.8	8.48e-01	0	39	104	0	78	34441
2026-01-04 06:18:03.19	158.20	6.11	-53.9	-73.0	3.8	8.48e-01	0	39	104	0	78	34411
2026-01-04 06:18:04.19	158.04	6.04	-53.9	-73.0	3.8	8.48e-01	0	39	104	0	78	34299
2026-01-04 06:18:05.20	157.88	5.98	-53.9	-73.0	3.8	8.47e-01	0	39	104	0	78	34300
2026-01-04 06:18:06.20	157.73	5.92	-53.9	-72.9	3.8	8.46e-01	0	39	104	0	78	33916
2026-01-04 06:18:07.20	157.57	5.85	-53.8	-72.9	3.8	8.46e-01	0	39	104	0	78	33935
2026-01-04 06:18:08.21	157.41	5.79	-53.8	-72.9	3.8	8.46e-01	0	39	104	0	78	34019
2026-01-04 06:18:09.21	157.26	5.72	-53.8	-72.9	3.8	8.47e-01	0	39	104	0	78	33802
2026-01-04 06:18:10.22	157.10	5.66	-53.8	-72.9	3.8	8.47e-01	0	38	104	0	78	33721
2026-01-04 06:18:11.22	156.95	5.59	-53.8	-72.9	3.8	8.47e-01	0	39	104	0	78	33723
2026-01-04 06:18:12.23	156.80	5.53	-53.8	-72.9	3.8	8.48e-01	0	38	104	0	78	33792
2026-01-04 06:18:13.23	156.65	5.46	-53.8	-72.9	3.8	8.46e-01	0	39	104	0	78	33864
2026-01-04 06:18:14.23	156.50	5.40	-53.8	-72.9	3.8	8.46e-01	0	39	104	0	78	33828
2026-01-04 06:18:15.24	156.35	5.34	-53.9	-72.9	3.8	8.47e-01	0	39	104	0	78	33892
2026-01-04 06:18:16.25	156.20	5.27	-53.8	-72.9	3.8	8.47e-01	0	39	104	0	78	33929
2026-01-04 06:18:17.25	156.05	5.21	-53.8	-72.9	3.8	8.47e-01	0	39	104	0	78	33835
2026-01-04 06:18:18.25	155.90	5.15	-54.1	-73.2	3.8	8.46e-01	0	39	104	0	78	34937
2026-01-04 06:18:19.26	155.76	5.08	-54.1	-73.2	3.8	8.46e-01	0	39	104	0	78	35038
2026-01-04 06:18:20.26	155.61	5.02	-54.0	-73.0	3.8	8.47e-01	0	39	104	0	78	34437

#Closed at: 2026-01-04 06:18:21
#Recorded file [0 MB]: D:/Data/31040_260104_091148.dat