passes_logs/2026/01/04/T1/T1__20260104_112852_AQUA_rec.log

#Pass ID: 20260104_112852_AQUA
#Satellite: AQUA
#Configuration: AQUA
#almurnet v.1.7.20251203
#Start time: 2026-01-04 11:28:55

#Version: 2.0.20230620
#Station: T1
#Location: 37.570604 lon 55.790049 lat
#TLE: 1 27424U 02022A   26003.93831471  .00001925  00000+0  39553-3 0  9996
#TLE: 2 27424  98.4067 330.1809 0002002  92.1714 343.8415 14.61796291259276

#Time	Az	El	Level	Level2	SNR	BER	BlckErr	Temp	State	Recorded	gain1	gain2
2026-01-04 11:28:55.26	155.18	5.18	-55.4	-75.8	3.8	7.47e-01	0	40	0	0	82	37598
2026-01-04 11:28:56.26	155.17	5.25	-55.3	-74.3	3.9	7.43e-01	0	41	104	0	81	33379
2026-01-04 11:28:57.27	155.16	5.33	-55.2	-73.9	3.9	7.43e-01	0	41	104	0	81	32068
2026-01-04 11:28:58.27	155.15	5.40	-55.3	-74.6	3.8	7.47e-01	0	41	104	0	81	34846
2026-01-04 11:28:59.27	155.14	5.48	-55.3	-74.8	3.8	7.46e-01	0	41	104	0	81	35647
2026-01-04 11:29:00.28	155.13	5.56	-55.3	-75.2	3.8	7.45e-01	0	41	104	0	81	37021
2026-01-04 11:29:01.28	155.12	5.64	-55.3	-75.6	3.8	7.46e-01	0	41	104	0	81	38944
2026-01-04 11:29:02.29	155.11	5.71	-55.4	-75.7	3.8	7.47e-01	0	41	104	0	81	39315
2026-01-04 11:29:03.29	155.09	5.79	-55.4	-75.4	3.8	7.45e-01	0	41	104	0	81	38105
2026-01-04 11:29:04.30	155.08	5.87	-55.3	-74.8	3.8	7.43e-01	0	41	104	0	81	35439
2026-01-04 11:29:05.30	155.07	5.95	-55.3	-73.9	4.0	7.45e-01	0	41	104	0	81	32096
2026-01-04 11:29:06.30	155.06	6.03	-55.4	-72.5	4.3	7.31e-01	0	41	104	0	81	27320
2026-01-04 11:29:07.31	155.05	6.11	-55.3	-71.7	4.6	7.21e-01	0	41	104	0	81	24723
2026-01-04 11:29:08.31	155.04	6.19	-55.2	-70.8	5.0	7.07e-01	0	41	0	0	81	22291
2026-01-04 11:29:09.32	155.03	6.27	-55.2	-70.5	5.2	7.05e-01	0	41	0	0	81	21556
2026-01-04 11:29:10.32	155.01	6.34	-55.2	-70.2	5.3	6.99e-01	0	41	104	0	81	20968
2026-01-04 11:29:11.32	155.00	6.42	-55.3	-70.5	5.2	7.06e-01	0	41	0	0	81	21542
2026-01-04 11:29:12.33	154.99	6.51	-55.3	-71.0	4.9	7.14e-01	0	41	0	0	81	22789
2026-01-04 11:29:13.33	154.98	6.59	-55.3	-71.9	3.9	7.40e-01	0	41	104	0	81	25512
2026-01-04 11:29:14.34	154.97	6.67	-55.3	-72.4	4.3	7.29e-01	0	41	104	0	81	27039
2026-01-04 11:29:15.34	154.95	6.75	-55.4	-73.5	4.0	7.40e-01	0	41	104	0	81	30492
2026-01-04 11:29:16.35	154.94	6.83	-55.3	-74.3	3.8	7.46e-01	0	41	104	0	81	33648
2026-01-04 11:29:17.35	154.93	6.91	-55.4	-74.3	3.8	7.42e-01	0	41	104	0	81	33396
2026-01-04 11:29:18.35	154.92	6.99	-55.3	-73.0	4.1	7.34e-01	0	41	104	0	81	28991
2026-01-04 11:29:19.36	154.90	7.08	-55.3	-71.6	4.4	7.22e-01	0	42	104	0	81	24570
2026-01-04 11:29:20.36	154.89	7.16	-55.4	-70.6	5.2	7.06e-01	0	41	0	0	81	21848
2026-01-04 11:29:21.37	154.88	7.24	-55.2	-69.3	5.9	6.87e-01	0	41	0	524288	81	18902
2026-01-04 11:29:22.37	154.87	7.32	-55.1	-68.0	7.0	6.63e-01	0	42	0	2621440	81	16222
2026-01-04 11:29:23.37	154.85	7.41	-55.1	-67.2	7.9	6.46e-01	0	42	0	4718592	81	14748
2026-01-04 11:29:24.38	154.84	7.49	-54.9	-65.7	9.3	6.31e-01	0	42	0	6291456	81	12435
2026-01-04 11:29:25.38	154.83	7.58	-54.7	-64.7	10.3	6.25e-01	0	42	0	8388608	81	11084
2026-01-04 11:29:26.39	154.81	7.66	-54.6	-63.7	11.4	6.15e-01	0	42	0	9961472	81	9869
2026-01-04 11:29:27.39	154.80	7.75	-54.3	-62.4	12.8	6.10e-01	0	41	0	12058624	80	8996
2026-01-04 11:29:28.40	154.79	7.83	-54.1	-61.5	13.8	6.08e-01	0	42	0	13631488	80	8093
2026-01-04 11:29:29.40	154.77	7.92	-54.0	-60.9	14.4	6.07e-01	0	42	0	15728640	79	8044
2026-01-04 11:29:30.40	154.76	8.00	-53.8	-60.2	15.1	6.06e-01	0	42	0	17825792	79	7421
2026-01-04 11:29:31.41	154.74	8.09	-53.6	-59.6	15.7	6.09e-01	0	42	0	19398656	79	6942
2026-01-04 11:29:32.41	154.73	8.17	-53.4	-59.3	16.0	6.09e-01	0	42	0	21495808	78	7077
2026-01-04 11:29:33.41	154.72	8.26	-53.5	-59.3	16.0	6.06e-01	0	42	0	23068672	78	7086
2026-01-04 11:29:34.42	154.70	8.35	-53.5	-59.5	15.9	6.08e-01	0	42	0	25165824	78	7215
2026-01-04 11:29:35.42	154.69	8.44	-53.6	-59.8	15.6	6.07e-01	0	42	0	27262976	78	7471
2026-01-04 11:29:36.43	154.67	8.52	-53.8	-60.3	15.0	6.08e-01	0	42	0	28835840	78	7962
2026-01-04 11:29:37.43	154.66	8.61	-54.1	-61.1	14.3	6.07e-01	0	42	0	30932992	78	8746
2026-01-04 11:29:38.44	154.64	8.70	-54.4	-62.1	13.2	6.11e-01	0	42	0	32505856	79	9243
2026-01-04 11:29:39.44	154.63	8.79	-54.6	-63.2	12.2	6.13e-01	0	42	0	34603008	79	10441
2026-01-04 11:29:40.45	154.61	8.88	-54.8	-64.6	10.7	6.21e-01	0	42	0	36700160	80	11594
2026-01-04 11:29:41.45	154.60	8.97	-55.0	-66.1	9.1	6.33e-01	0	42	0	38273024	80	13772
2026-01-04 11:29:42.45	154.59	9.06	-54.4	-63.6	11.0	6.15e-01	0	42	0	40370176	81	9796
2026-01-04 11:29:43.57	154.57	9.16	-53.3	-58.5	17.2	6.07e-01	0	42	0	42467328	77	6876
2026-01-04 11:29:44.43	154.55	9.24	-55.0	-65.1	11.1	6.21e-01	0	42	0	44040192	80	12288
2026-01-04 11:29:45.58	154.54	9.34	-55.4	-67.3	7.3	6.54e-01	0	42	0	44564480	82	14186
2026-01-04 11:29:46.43	154.52	9.42	-54.7	-62.3	12.4	6.11e-01	0	42	0	46137344	81	8443
2026-01-04 11:29:47.58	154.51	9.52	-52.1	-56.0	19.4	6.06e-01	0	42	0	48234496	76	5451
2026-01-04 11:29:48.44	154.49	9.60	-51.8	-55.6	19.8	6.09e-01	0	42	0	49807360	75	5483
2026-01-04 11:29:49.59	154.47	9.71	-51.5	-55.1	20.3	6.08e-01	0	42	0	51904512	75	5181
2026-01-04 11:29:50.65	154.46	9.80	-51.2	-54.6	20.7	6.05e-01	0	42	0	54001664	74	5182
2026-01-04 11:29:51.72	154.44	9.90	-51.2	-54.6	20.2	6.07e-01	0	42	0	56098816	73	5468
2026-01-04 11:29:52.76	154.42	10.00	-51.1	-54.4	20.9	6.07e-01	0	42	0	58195968	73	5360
2026-01-04 11:29:53.93	154.40	10.11	-51.0	-54.2	21.1	6.08e-01	0	42	0	60293120	73	5272
2026-01-04 11:29:54.82	154.39	10.19	-51.0	-54.3	21.1	6.07e-01	0	42	0	61865984	73	5305
2026-01-04 11:29:55.90	154.37	10.30	-50.4	-53.5	21.8	6.06e-01	0	42	0	63963136	72	5142
2026-01-04 11:29:56.76	154.36	10.38	-49.9	-52.9	22.4	6.06e-01	0	42	0	65536000	71	5044
2026-01-04 11:29:57.91	154.34	10.49	-49.9	-52.9	22.4	6.07e-01	0	42	0	67633152	71	5066
2026-01-04 11:29:58.77	154.32	10.57	-49.9	-52.9	21.0	6.07e-01	0	42	0	69206016	71	5061
2026-01-04 11:29:59.92	154.30	10.68	-49.8	-52.7	22.7	6.06e-01	0	42	0	71303168	71	4943
2026-01-04 11:30:00.78	154.29	10.76	-49.7	-52.6	22.7	6.09e-01	0	42	0	72876032	71	4919
2026-01-04 11:30:01.92	154.27	10.87	-49.6	-52.5	22.7	6.08e-01	0	42	0	74973184	71	4835
2026-01-04 11:30:02.78	154.25	10.96	-49.7	-52.6	22.8	6.07e-01	0	42	0	77070336	71	4906
2026-01-04 11:30:03.93	154.23	11.07	-49.5	-52.4	22.9	6.06e-01	0	42	0	79167488	71	4789
2026-01-04 11:30:04.79	154.22	11.16	-49.5	-52.5	22.8	6.08e-01	0	42	0	80740352	71	4821
2026-01-04 11:30:05.93	154.20	11.27	-49.4	-52.4	22.9	6.08e-01	0	42	0	82837504	70	5053
2026-01-04 11:30:06.79	154.18	11.35	-49.5	-52.4	23.0	6.05e-01	0	42	0	84410368	70	5071
2026-01-04 11:30:07.93	154.16	11.47	-49.5	-52.4	23.0	6.07e-01	0	43	0	86507520	70	5093
2026-01-04 11:30:08.79	154.14	11.55	-49.6	-52.6	22.9	6.07e-01	0	42	0	88080384	70	5170
2026-01-04 11:30:09.94	154.12	11.67	-49.7	-52.6	22.9	6.06e-01	0	42	0	90177536	70	5205
2026-01-04 11:30:10.80	154.11	11.76	-49.7	-52.6	23.0	6.06e-01	0	42	0	91750400	70	5199
2026-01-04 11:30:11.94	154.08	11.87	-49.6	-52.5	23.1	6.07e-01	0	43	0	93847552	70	5118
2026-01-04 11:30:12.80	154.07	11.96	-49.6	-52.4	23.1	6.07e-01	0	42	0	95420416	70	5089
2026-01-04 11:30:13.95	154.05	12.08	-49.5	-52.4	23.1	6.06e-01	0	42	0	97517568	70	5053
2026-01-04 11:30:14.81	154.03	12.17	-49.4	-52.3	22.1	6.07e-01	0	42	0	99090432	70	4985
2026-01-04 11:30:15.99	154.01	12.29	-49.4	-52.2	23.2	6.05e-01	0	42	0	101711872	70	4978
2026-01-04 11:30:16.84	153.99	12.38	-49.2	-52.0	23.4	6.05e-01	0	42	0	103284736	70	4862
2026-01-04 11:30:18.02	153.96	12.50	-49.3	-52.2	23.2	6.07e-01	0	42	0	105381888	70	4948
2026-01-04 11:30:18.88	153.95	12.59	-49.2	-52.1	23.3	6.06e-01	0	42	0	106954752	70	4881
2026-01-04 11:30:20.03	153.92	12.71	-49.3	-52.1	23.3	6.04e-01	0	43	0	109051904	70	4891
2026-01-04 11:30:20.89	153.91	12.80	-49.2	-52.0	23.5	6.07e-01	0	42	0	110624768	70	4817
2026-01-04 11:30:22.03	153.88	12.92	-49.2	-52.0	23.5	6.09e-01	0	42	0	112721920	70	4816
2026-01-04 11:30:22.89	153.86	13.01	-49.2	-51.9	23.5	6.07e-01	0	43	0	114294784	70	4802
2026-01-04 11:30:24.04	153.84	13.14	-49.1	-51.8	23.6	6.08e-01	0	42	0	116916224	70	4741
2026-01-04 11:30:24.90	153.82	13.23	-49.0	-51.7	23.6	6.09e-01	0	42	0	118489088	70	4696
2026-01-04 11:30:26.04	153.80	13.35	-49.0	-51.7	23.7	6.07e-01	0	42	0	120586240	69	4966
2026-01-04 11:30:26.90	153.78	13.45	-49.1	-51.8	23.6	6.07e-01	0	42	0	122159104	69	5020
2026-01-04 11:30:28.05	153.75	13.57	-49.0	-51.7	23.7	6.05e-01	0	42	0	124256256	69	4928
2026-01-04 11:30:29.21	153.73	13.70	-49.0	-51.7	23.5	6.06e-01	0	43	0	126353408	69	4976
2026-01-04 11:30:30.07	153.71	13.80	-48.6	-51.3	23.7	6.07e-01	0	43	0	127926272	69	4736
2026-01-04 11:30:31.22	153.68	13.93	-48.9	-51.6	23.6	6.07e-01	0	42	0	130023424	69	4913
2026-01-04 11:30:32.08	153.66	14.02	-48.7	-51.5	23.6	6.07e-01	0	43	0	131596288	69	4821
2026-01-04 11:30:33.22	153.64	14.15	-48.9	-51.6	23.6	6.07e-01	0	43	0	133693440	69	4884
2026-01-04 11:30:34.08	153.62	14.25	-48.8	-51.6	23.7	6.07e-01	0	43	0	135266304	69	4872
2026-01-04 11:30:35.23	153.59	14.38	-48.9	-51.7	23.6	6.08e-01	0	42	0	137887744	69	4929
2026-01-04 11:30:36.09	153.57	14.48	-48.9	-51.6	23.6	6.06e-01	0	43	0	139460608	69	4887
2026-01-04 11:30:37.31	153.54	14.62	-48.7	-51.4	23.6	6.07e-01	0	43	0	141557760	68	5094
2026-01-04 11:30:38.17	153.52	14.72	-49.1	-51.8	23.6	6.06e-01	0	42	0	143130624	68	5286
2026-01-04 11:30:39.38	153.49	14.86	-48.9	-51.6	23.6	6.09e-01	0	43	0	145227776	68	5216
2026-01-04 11:30:40.24	153.47	14.96	-48.5	-51.3	23.6	6.07e-01	0	43	0	146800640	68	4985
2026-01-04 11:30:41.48	153.44	15.10	-48.7	-51.4	23.6	6.05e-01	0	43	0	149422080	68	5062
2026-01-04 11:30:42.33	153.42	15.20	-48.8	-51.5	23.6	6.07e-01	0	42	0	150994944	68	5110
2026-01-04 11:30:43.48	153.39	15.34	-48.7	-51.4	23.7	6.05e-01	0	42	0	153092096	68	5052
2026-01-04 11:30:44.34	153.37	15.44	-48.7	-51.3	23.8	6.09e-01	0	42	0	154664960	68	5026
2026-01-04 11:30:45.63	153.33	15.60	-48.6	-51.3	23.7	6.05e-01	0	42	0	157286400	68	5027
2026-01-04 11:30:46.35	153.31	15.68	-48.6	-51.4	23.7	6.08e-01	0	42	0	158334976	68	5052
2026-01-04 11:30:47.64	153.28	15.84	-48.7	-51.4	23.7	6.08e-01	0	42	0	160956416	68	5081
2026-01-04 11:30:48.35	153.26	15.93	-48.7	-51.4	23.7	6.08e-01	0	43	0	162004992	68	5052
2026-01-04 11:30:49.64	153.23	16.08	-48.7	-51.4	23.7	6.08e-01	0	43	0	164626432	68	5048
2026-01-04 11:30:50.35	153.21	16.17	-48.7	-51.3	23.8	6.05e-01	0	43	0	166199296	68	5017
2026-01-04 11:30:51.64	153.17	16.33	-48.7	-51.4	23.7	6.07e-01	0	43	0	168296448	68	5075
2026-01-04 11:30:52.47	153.15	16.44	-48.7	-51.4	23.8	6.07e-01	0	43	0	169869312	68	5081
2026-01-04 11:30:53.62	153.12	16.58	-48.7	-51.3	23.8	6.06e-01	0	43	0	171966464	68	5035
2026-01-04 11:30:54.72	153.09	16.72	-48.8	-51.5	23.7	6.05e-01	0	43	0	174063616	68	5115
2026-01-04 11:30:55.58	153.06	16.83	-48.8	-51.4	23.7	6.04e-01	0	43	0	175636480	68	5089
2026-01-04 11:30:56.72	153.03	16.97	-48.8	-51.4	23.7	6.06e-01	0	43	0	177733632	68	5090
2026-01-04 11:30:57.58	153.01	17.08	-48.9	-51.6	23.6	6.07e-01	0	43	0	179306496	68	5170
2026-01-04 11:30:58.72	152.97	17.23	-48.8	-51.4	23.7	6.08e-01	0	42	0	181927936	68	5078
2026-01-04 11:30:59.58	152.95	17.34	-48.7	-51.4	23.8	6.07e-01	0	42	0	183500800	68	5055
2026-01-04 11:31:00.73	152.91	17.49	-48.8	-51.4	23.7	6.06e-01	0	42	0	185597952	68	5081
2026-01-04 11:31:01.58	152.89	17.61	-48.9	-51.5	23.7	6.08e-01	0	43	0	187170816	68	5123
2026-01-04 11:31:02.73	152.85	17.76	-48.8	-51.4	23.7	6.08e-01	0	42	0	189267968	68	5069
2026-01-04 11:31:03.59	152.83	17.87	-48.8	-51.4	23.7	6.06e-01	0	42	0	190840832	68	5054
2026-01-04 11:31:04.73	152.79	18.02	-48.8	-51.4	23.8	6.05e-01	0	43	0	192937984	68	5057
2026-01-04 11:31:05.59	152.76	18.14	-48.8	-51.3	23.8	6.07e-01	0	43	0	194510848	68	5037
2026-01-04 11:31:06.93	152.72	18.32	-48.8	-51.3	23.8	6.05e-01	0	43	0	197132288	68	5024
2026-01-04 11:31:07.65	152.70	18.42	-48.8	-51.4	23.8	6.07e-01	0	42	0	198180864	68	5069
2026-01-04 11:31:09.16	152.65	18.63	-48.8	-51.3	23.8	6.07e-01	0	43	0	201326592	68	5013
2026-01-04 11:31:09.87	152.63	18.72	-48.8	-51.4	23.8	6.06e-01	0	43	0	202375168	68	5052
2026-01-04 11:31:11.23	152.58	18.91	-48.8	-51.4	23.8	6.08e-01	0	43	0	204996608	68	5068
2026-01-04 11:31:11.94	152.56	19.01	-48.8	-51.3	23.8	6.07e-01	0	43	0	206569472	68	5041
2026-01-04 11:31:13.23	152.51	19.19	-48.9	-51.6	23.7	6.06e-01	0	43	0	208666624	68	5163
2026-01-04 11:31:13.94	152.49	19.30	-48.9	-51.5	23.7	6.08e-01	0	42	0	210239488	68	5145
2026-01-04 11:31:15.23	152.44	19.48	-48.9	-51.5	23.6	6.08e-01	0	43	0	212860928	68	5127
2026-01-04 11:31:15.95	152.42	19.58	-49.0	-51.5	23.7	6.07e-01	0	43	0	213909504	68	5147
2026-01-04 11:31:17.23	152.37	19.77	-48.9	-51.4	23.8	6.07e-01	0	42	0	216530944	68	5088
2026-01-04 11:31:17.95	152.35	19.87	-48.9	-51.5	23.6	6.07e-01	0	43	0	217579520	68	5135
2026-01-04 11:31:19.24	152.30	20.06	-49.0	-51.5	23.7	6.08e-01	0	43	0	220200960	68	5148
2026-01-04 11:31:19.96	152.27	20.17	-48.9	-51.5	23.6	6.07e-01	0	43	0	221249536	68	5158
2026-01-04 11:31:21.25	152.23	20.36	-49.0	-51.6	23.6	6.05e-01	0	43	0	223870976	68	5188
2026-01-04 11:31:22.07	152.20	20.48	-49.0	-51.6	23.6	6.05e-01	0	43	0	225443840	68	5180
2026-01-04 11:31:23.53	152.14	20.70	-48.8	-51.4	23.7	6.06e-01	0	42	0	228065280	68	5070
2026-01-04 11:31:24.25	152.11	20.81	-48.9	-51.5	23.6	6.07e-01	0	43	0	229638144	68	5142
2026-01-04 11:31:25.74	152.06	21.03	-48.8	-51.4	23.8	6.05e-01	0	43	0	232259584	68	5066
2026-01-04 11:31:26.46	152.03	21.14	-48.7	-51.3	23.8	6.06e-01	0	42	0	233832448	68	5029
2026-01-04 11:31:27.75	151.98	21.34	-48.8	-51.3	23.9	6.07e-01	0	43	0	235929600	68	5030
2026-01-04 11:31:28.47	151.95	21.46	-48.8	-51.4	23.8	6.08e-01	0	43	0	237502464	68	5081
2026-01-04 11:31:29.75	151.90	21.66	-48.8	-51.5	23.7	6.06e-01	0	43	0	239599616	68	5106
2026-01-04 11:31:30.47	151.87	21.77	-48.9	-51.5	23.7	6.06e-01	0	43	0	241172480	68	5125
2026-01-04 11:31:31.76	151.81	21.97	-48.8	-51.4	23.8	6.02e-01	0	43	0	243793920	68	5070
2026-01-04 11:31:32.47	151.78	22.09	-48.9	-51.5	23.8	6.06e-01	0	43	0	244842496	68	5105
2026-01-04 11:31:33.76	151.73	22.29	-48.9	-51.6	23.7	6.06e-01	0	43	0	247463936	68	5160
2026-01-04 11:31:34.48	151.70	22.41	-48.9	-51.5	23.6	6.07e-01	0	43	0	248512512	68	5128
2026-01-04 11:31:35.76	151.64	22.62	-48.9	-51.6	23.6	6.06e-01	0	43	0	251133952	68	5177
2026-01-04 11:31:36.48	151.61	22.74	-48.9	-51.5	23.7	6.05e-01	0	43	0	252706816	68	5128
2026-01-04 11:31:37.77	151.55	22.95	-49.0	-51.7	23.6	6.08e-01	0	43	0	254803968	68	5225
2026-01-04 11:31:38.61	151.51	23.09	-49.0	-51.6	23.6	6.08e-01	0	43	0	256376832	68	5214
2026-01-04 11:31:40.11	151.45	23.34	-49.1	-51.8	23.5	6.07e-01	0	42	0	258998272	68	5286
2026-01-04 11:31:40.83	151.41	23.46	-49.2	-51.9	23.3	6.09e-01	0	43	0	260571136	69	5070
2026-01-04 11:31:42.11	151.35	23.68	-49.3	-52.0	23.3	6.05e-01	0	43	0	263192576	69	5107
2026-01-04 11:31:42.83	151.32	23.80	-49.3	-52.0	23.3	6.07e-01	0	43	0	264241152	69	5105
2026-01-04 11:31:44.11	151.26	24.03	-49.2	-51.9	23.4	6.07e-01	0	43	0	266862592	69	5058
2026-01-04 11:31:44.83	151.22	24.15	-49.1	-51.8	23.4	6.05e-01	0	43	0	267911168	69	5019
2026-01-04 11:31:46.11	151.16	24.37	-49.0	-51.8	23.4	6.07e-01	0	43	0	270532608	69	4987
2026-01-04 11:31:46.96	151.12	24.52	-49.2	-51.9	23.3	6.08e-01	0	43	0	272105472	69	5099
2026-01-04 11:31:48.10	151.06	24.73	-49.1	-51.8	23.5	6.04e-01	0	43	0	274202624	69	5026
2026-01-04 11:31:49.20	151.00	24.92	-48.9	-51.6	23.6	6.05e-01	0	43	0	276299776	69	4912
2026-01-04 11:31:50.23	150.95	25.11	-49.0	-51.7	23.5	6.07e-01	0	43	0	278396928	69	4951
2026-01-04 11:31:51.23	150.90	25.29	-49.1	-51.8	23.3	6.05e-01	0	43	0	279969792	69	5022
2026-01-04 11:31:52.23	150.84	25.48	-49.1	-51.9	23.4	6.09e-01	0	43	0	282066944	69	5048
2026-01-04 11:31:53.23	150.79	25.66	-49.1	-51.9	23.3	6.05e-01	0	43	0	284164096	69	5087
2026-01-04 11:31:54.23	150.74	25.85	-48.9	-51.7	23.4	6.09e-01	0	43	0	285736960	69	4981
2026-01-04 11:31:55.24	150.68	26.03	-48.9	-51.8	23.4	6.07e-01	0	43	0	287834112	69	5024
2026-01-04 11:31:56.24	150.62	26.22	-48.8	-51.7	23.6	6.06e-01	0	43	0	289406976	69	4946
2026-01-04 11:31:57.24	150.57	26.41	-48.7	-51.6	23.6	6.06e-01	0	43	0	291504128	69	4881
2026-01-04 11:31:58.24	150.51	26.60	-48.9	-51.8	23.5	6.05e-01	0	43	0	293076992	69	4994
2026-01-04 11:31:59.24	150.45	26.80	-48.8	-51.7	23.5	6.06e-01	0	43	0	295174144	69	4957
2026-01-04 11:32:00.24	150.39	26.99	-48.6	-51.3	23.9	6.07e-01	0	43	0	297271296	69	4750
2026-01-04 11:32:01.24	150.33	27.19	-48.5	-51.3	24.0	6.07e-01	0	43	0	298844160	68	4988
2026-01-04 11:32:02.24	150.27	27.39	-48.4	-51.1	24.1	6.07e-01	0	43	0	300941312	68	4875
2026-01-04 11:32:03.25	150.21	27.59	-48.4	-51.1	24.0	6.06e-01	0	43	0	302514176	68	4890
2026-01-04 11:32:04.36	150.14	27.81	-48.3	-51.0	24.2	6.05e-01	0	43	0	304611328	68	4826
2026-01-04 11:32:05.25	150.08	27.99	-48.4	-51.0	24.2	6.07e-01	0	43	0	306184192	68	4829
2026-01-04 11:32:06.40	150.01	28.22	-48.5	-51.2	24.0	6.05e-01	0	43	0	308805632	68	4938
2026-01-04 11:32:07.26	149.95	28.40	-48.5	-51.2	24.0	6.09e-01	0	43	0	310378496	68	4938
2026-01-04 11:32:08.62	149.86	28.68	-48.7	-51.3	23.9	6.06e-01	0	43	0	312999936	68	5005
2026-01-04 11:32:09.34	149.82	28.83	-48.6	-51.1	24.0	6.07e-01	0	43	0	314048512	68	4925
2026-01-04 11:32:10.63	149.73	29.10	-48.4	-50.9	24.1	6.09e-01	0	43	0	316669952	68	4806
2026-01-04 11:32:11.34	149.68	29.25	-48.5	-51.0	24.2	6.08e-01	0	43	0	317718528	68	4838
2026-01-04 11:32:12.62	149.59	29.53	-48.3	-50.8	24.3	6.07e-01	0	43	0	320339968	68	4757
2026-01-04 11:32:13.33	149.54	29.68	-48.3	-50.8	24.3	6.08e-01	0	43	0	321388544	68	4754
2026-01-04 11:32:14.62	149.45	29.96	-48.4	-50.9	24.3	6.05e-01	0	43	0	324009984	68	4770
2026-01-04 11:32:15.33	149.40	30.11	-48.2	-50.7	24.5	6.06e-01	0	43	0	325582848	68	4659
2026-01-04 11:32:16.62	149.30	30.40	-48.2	-50.7	24.5	6.07e-01	0	43	0	327680000	68	4660
2026-01-04 11:32:17.33	149.25	30.56	-48.4	-50.9	24.3	6.06e-01	0	43	0	329252864	68	4788
2026-01-04 11:32:18.62	149.15	30.85	-48.4	-50.9	24.2	6.05e-01	0	43	0	331350016	68	4775
2026-01-04 11:32:19.34	149.09	31.01	-48.4	-51.0	24.3	6.05e-01	0	43	0	332922880	68	4816
2026-01-04 11:32:20.65	148.99	31.31	-48.6	-51.1	24.1	6.07e-01	0	43	0	335544320	68	4896
2026-01-04 11:32:21.66	148.91	31.54	-48.6	-51.0	24.1	6.06e-01	0	43	0	337117184	68	4870
2026-01-04 11:32:22.98	148.80	31.85	-48.7	-51.1	24.1	6.04e-01	0	43	0	339738624	68	4908
2026-01-04 11:32:23.69	148.74	32.01	-48.6	-51.1	24.1	6.06e-01	0	43	0	340787200	68	4885
2026-01-04 11:32:24.97	148.64	32.31	-48.6	-51.1	24.2	6.05e-01	0	42	0	343408640	68	4898
2026-01-04 11:32:25.69	148.57	32.48	-48.5	-51.1	24.1	6.06e-01	0	43	0	344981504	68	4873
2026-01-04 11:32:26.97	148.46	32.79	-48.7	-51.3	24.0	6.07e-01	0	43	0	347078656	68	5013
2026-01-04 11:32:27.69	148.40	32.97	-48.8	-51.4	23.9	6.04e-01	0	43	0	348651520	68	5044
2026-01-04 11:32:28.97	148.29	33.28	-48.8	-51.3	24.0	6.08e-01	0	43	0	350748672	68	5014
2026-01-04 11:32:29.68	148.22	33.45	-48.8	-51.4	23.9	6.06e-01	0	43	0	352321536	68	5044
2026-01-04 11:32:31.09	148.09	33.80	-48.9	-51.5	23.8	6.06e-01	0	43	0	354942976	68	5111
2026-01-04 11:32:31.80	148.03	33.98	-49.0	-51.5	23.7	6.07e-01	0	43	0	355991552	68	5144
2026-01-04 11:32:33.12	147.90	34.31	-49.1	-51.7	23.6	6.05e-01	0	43	0	358612992	68	5227
2026-01-04 11:32:33.84	147.83	34.49	-49.2	-51.8	23.5	6.07e-01	0	43	0	360185856	69	5028
2026-01-04 11:32:35.23	147.69	34.85	-49.2	-51.9	23.4	6.05e-01	0	43	0	362807296	69	5050
2026-01-04 11:32:35.95	147.62	35.04	-49.2	-51.8	23.5	6.06e-01	0	43	0	363855872	69	4991
2026-01-04 11:32:37.24	147.49	35.37	-49.2	-51.8	23.4	6.07e-01	0	43	0	366477312	69	5032
2026-01-04 11:32:37.95	147.41	35.56	-49.4	-52.1	23.3	6.08e-01	0	43	0	367525888	69	5161
2026-01-04 11:32:39.24	147.28	35.90	-49.9	-52.6	22.8	6.04e-01	0	43	0	370147328	70	5191
2026-01-04 11:32:39.95	147.20	36.09	-50.1	-52.9	22.5	6.06e-01	0	43	0	371720192	70	5359
2026-01-04 11:32:41.24	147.06	36.44	-50.1	-52.9	22.4	6.08e-01	0	43	0	373817344	71	5096
2026-01-04 11:32:41.95	146.98	36.63	-50.1	-52.9	22.5	6.08e-01	0	43	0	375390208	71	5059
2026-01-04 11:32:43.24	146.83	36.99	-49.9	-52.6	22.8	6.08e-01	0	43	0	377487360	71	4903
2026-01-04 11:32:43.95	146.75	37.19	-50.1	-52.9	22.6	6.05e-01	0	43	0	379060224	71	5051
2026-01-04 11:32:45.24	146.60	37.55	-50.3	-53.2	22.3	6.07e-01	0	43	0	381157376	71	5246
2026-01-04 11:32:45.95	146.52	37.75	-50.5	-53.4	22.1	6.08e-01	0	43	0	382730240	71	5356
2026-01-04 11:32:47.24	146.36	38.11	-50.8	-53.9	21.5	6.06e-01	0	43	0	385351680	72	5376
2026-01-04 11:32:47.96	146.27	38.32	-50.8	-53.9	21.5	6.07e-01	0	43	0	386400256	72	5367
2026-01-04 11:32:49.26	146.11	38.69	-50.4	-53.4	21.9	6.04e-01	0	43	0	389021696	72	5067
2026-01-04 11:32:49.97	146.01	38.90	-50.3	-53.2	22.1	6.07e-01	0	43	0	390070272	72	4953
2026-01-04 11:32:51.26	145.85	39.28	-50.1	-52.9	22.4	6.08e-01	0	43	0	392691712	72	4814
2026-01-04 11:32:51.97	145.75	39.49	-50.4	-53.3	22.0	6.07e-01	0	43	0	394264576	72	5038
2026-01-04 11:32:53.25	145.58	39.87	-50.6	-53.6	21.8	6.06e-01	0	43	0	396361728	72	5194
2026-01-04 11:32:53.97	145.48	40.09	-50.3	-53.2	22.1	6.07e-01	0	43	0	397934592	72	4981
2026-01-04 11:32:55.26	145.29	40.48	-50.1	-52.9	22.4	6.08e-01	0	43	0	400031744	72	4812
2026-01-04 11:32:55.97	145.19	40.70	-50.0	-52.8	22.5	6.08e-01	0	43	0	401604608	72	4743
2026-01-04 11:32:57.26	145.00	41.09	-50.2	-53.1	22.3	6.04e-01	0	43	0	403701760	72	4894
2026-01-04 11:32:57.97	144.89	41.32	-50.0	-52.8	22.5	6.10e-01	0	43	0	405274624	71	5014
2026-01-04 11:32:59.26	144.70	41.72	-49.6	-52.3	23.0	6.08e-01	0	43	0	407896064	71	4747
2026-01-04 11:32:59.97	144.59	41.95	-49.7	-52.4	22.9	6.10e-01	0	43	0	408944640	71	4810
2026-01-04 11:33:01.26	144.38	42.36	-49.8	-52.5	22.8	6.08e-01	0	43	0	411566080	71	4866
2026-01-04 11:33:02.16	144.23	42.65	-49.6	-52.2	23.1	6.07e-01	0	43	0	413138944	71	4690
2026-01-04 11:33:03.51	144.01	43.09	-49.2	-51.8	23.5	6.07e-01	0	43	0	415760384	70	4729
2026-01-04 11:33:04.23	143.88	43.32	-49.3	-51.9	23.4	6.08e-01	0	43	0	416808960	70	4807
2026-01-04 11:33:05.84	143.60	43.85	-49.2	-52.0	23.3	6.05e-01	0	43	0	419954688	70	4822
2026-01-04 11:33:06.42	143.50	44.05	-49.2	-52.0	23.2	6.08e-01	0	43	0	421003264	70	4833
2026-01-04 11:33:08.05	143.20	44.60	-48.9	-51.6	23.6	6.04e-01	0	43	0	424148992	69	4872
2026-01-04 11:33:08.62	143.09	44.79	-48.9	-51.4	23.8	6.08e-01	0	43	0	425197568	69	4783
2026-01-04 11:33:10.32	142.77	45.37	-49.1	-51.7	23.6	6.08e-01	0	43	0	428343296	69	4935
2026-01-04 11:33:10.89	142.65	45.57	-49.2	-51.8	23.4	6.08e-01	0	43	0	429391872	69	5020
2026-01-04 11:33:12.55	142.32	46.15	-49.0	-51.6	23.7	6.07e-01	0	43	0	432537600	69	4873
2026-01-04 11:33:13.12	142.20	46.35	-48.9	-51.5	23.8	6.05e-01	0	43	0	433586176	69	4826
2026-01-04 11:33:14.74	141.85	46.93	-48.9	-51.4	23.8	6.08e-01	0	43	0	436731904	69	4790
2026-01-04 11:33:15.32	141.73	47.13	-48.9	-51.4	23.8	6.07e-01	0	43	0	437780480	69	4812
2026-01-04 11:33:17.00	141.35	47.74	-49.2	-51.9	23.4	6.07e-01	0	43	0	440926208	69	5059
2026-01-04 11:33:17.57	141.22	47.95	-49.3	-51.9	23.4	6.08e-01	0	43	0	441974784	69	5064
2026-01-04 11:33:19.23	140.82	48.56	-49.2	-51.8	23.5	6.05e-01	0	43	0	445120512	69	5008
2026-01-04 11:33:19.81	140.68	48.77	-49.0	-51.6	23.7	6.07e-01	0	43	0	446169088	69	4877
2026-01-04 11:33:21.45	140.27	49.38	-49.3	-51.9	23.4	6.04e-01	0	43	0	449314816	69	5075
2026-01-04 11:33:22.02	140.12	49.60	-49.4	-52.1	23.3	6.08e-01	0	43	0	450363392	69	5191
2026-01-04 11:33:23.68	139.68	50.23	-48.8	-51.3	23.9	6.05e-01	0	43	0	453509120	69	4737
2026-01-04 11:33:24.25	139.53	50.45	-48.8	-51.3	23.9	6.07e-01	0	43	0	454557696	69	4744
2026-01-04 11:33:25.91	139.06	51.09	-48.9	-51.5	23.8	6.06e-01	0	43	0	457703424	69	4840
2026-01-04 11:33:26.48	138.90	51.31	-48.6	-51.1	24.1	6.09e-01	0	43	0	458752000	69	4626
2026-01-04 11:33:28.18	138.39	51.97	-47.9	-50.2	24.7	6.05e-01	0	43	0	461897728	67	4699
2026-01-04 11:33:28.92	138.16	52.26	-48.1	-50.5	24.6	6.06e-01	0	43	0	463470592	67	4841
2026-01-04 11:33:30.20	137.76	52.77	-48.3	-50.8	24.4	6.06e-01	0	43	0	465567744	67	5013
2026-01-04 11:33:30.93	137.52	53.06	-47.9	-50.3	24.7	6.07e-01	0	43	0	467140608	67	4748
2026-01-04 11:33:32.23	137.09	53.58	-48.0	-50.4	24.7	6.06e-01	0	43	0	469762048	67	4788
2026-01-04 11:33:32.94	136.84	53.87	-47.9	-50.2	24.8	6.06e-01	0	43	0	470810624	67	4705
2026-01-04 11:33:34.23	136.39	54.39	-48.2	-50.7	24.4	6.07e-01	0	43	0	473432064	67	4931
2026-01-04 11:33:34.95	136.13	54.68	-48.3	-50.7	24.3	6.07e-01	0	43	0	474480640	67	4962
2026-01-04 11:33:36.23	135.65	55.21	-48.0	-50.4	24.6	6.09e-01	0	43	0	477102080	67	4784
2026-01-04 11:33:36.95	135.37	55.51	-48.4	-50.8	24.2	6.07e-01	0	43	0	478150656	67	5031
2026-01-04 11:33:38.23	134.86	56.04	-48.8	-51.3	23.9	6.07e-01	0	43	0	480772096	68	5025
2026-01-04 11:33:38.98	134.55	56.35	-49.0	-51.6	23.7	6.07e-01	0	43	0	482344960	68	5173
2026-01-04 11:33:40.26	134.01	56.88	-48.6	-51.3	23.9	6.07e-01	0	43	0	484442112	68	4993
2026-01-04 11:33:40.98	133.69	57.18	-48.9	-51.6	23.6	6.08e-01	0	43	0	486014976	68	5216
2026-01-04 11:33:42.27	133.11	57.73	-49.1	-51.8	23.5	6.07e-01	0	43	0	488636416	68	5320
2026-01-04 11:33:42.98	132.78	58.03	-49.2	-51.9	23.3	6.07e-01	0	43	0	489684992	69	5099
2026-01-04 11:33:44.27	132.16	58.57	-49.1	-51.8	23.5	6.07e-01	0	43	0	492306432	69	5007
2026-01-04 11:33:44.98	131.81	58.87	-49.2	-51.9	23.3	6.07e-01	0	43	0	493355008	69	5060
2026-01-04 11:33:46.26	131.16	59.42	-49.6	-52.4	22.8	6.05e-01	0	43	0	495976448	70	5077
2026-01-04 11:33:46.98	130.78	59.73	-49.4	-52.1	23.1	6.06e-01	0	43	0	497025024	70	4889
2026-01-04 11:33:48.26	130.08	60.27	-49.5	-52.2	23.2	6.06e-01	0	43	0	499646464	70	4948
2026-01-04 11:33:48.98	129.67	60.58	-50.0	-52.8	22.6	6.06e-01	0	43	0	500695040	70	5301
2026-01-04 11:33:50.27	128.91	61.13	-50.0	-52.7	22.6	6.07e-01	0	43	0	503316480	71	4974
2026-01-04 11:33:50.98	128.48	61.44	-49.9	-52.6	22.7	6.06e-01	0	43	0	504889344	71	4912
2026-01-04 11:33:52.27	127.67	61.99	-50.5	-53.4	22.1	6.06e-01	0	43	0	506986496	71	5374
2026-01-04 11:33:53.03	127.18	62.32	-50.5	-53.4	22.0	6.07e-01	0	43	0	508559360	71	5380
2026-01-04 11:33:54.32	126.31	62.87	-50.2	-53.1	22.3	6.08e-01	0	43	0	511180800	71	5182
2026-01-04 11:33:55.04	125.81	63.18	-50.6	-53.7	21.8	6.06e-01	0	43	0	512229376	72	5231
2026-01-04 11:33:56.33	124.87	63.72	-51.2	-54.4	21.0	6.08e-01	0	43	0	514850816	72	5719
2026-01-04 11:33:57.04	124.34	64.03	-50.7	-53.8	21.6	6.07e-01	0	43	0	515899392	72	5289
2026-01-04 11:33:58.32	123.34	64.57	-50.9	-54.2	21.3	6.05e-01	0	43	0	518520832	72	5531
2026-01-04 11:33:59.04	122.75	64.87	-51.1	-54.5	20.9	6.07e-01	0	43	0	519569408	72	5770
2026-01-04 11:34:00.33	121.67	65.41	-51.0	-54.2	21.2	6.07e-01	0	43	0	522190848	73	5230
2026-01-04 11:34:01.05	121.04	65.71	-50.9	-54.0	21.4	6.06e-01	0	43	0	523763712	73	5140
2026-01-04 11:34:02.33	119.88	66.24	-51.6	-55.2	20.3	6.07e-01	0	43	0	525860864	73	5862
2026-01-04 11:34:03.06	119.19	66.54	-51.6	-55.1	20.3	6.08e-01	0	43	0	527433728	73	5827
2026-01-04 11:34:04.34	117.93	67.06	-52.0	-55.7	19.8	6.06e-01	0	43	0	529530880	74	5859
2026-01-04 11:34:05.06	117.20	67.34	-52.2	-55.9	19.6	6.07e-01	0	43	0	531103744	75	5671
2026-01-04 11:34:06.63	115.53	67.97	-52.1	-55.7	19.8	6.07e-01	0	43	0	534249472	75	5539
2026-01-04 11:34:07.25	114.84	68.21	-52.3	-56.0	19.5	6.08e-01	0	43	0	535298048	75	5724
2026-01-04 11:34:08.83	113.01	68.81	-52.5	-56.4	19.2	6.05e-01	0	43	0	537919488	75	6022
2026-01-04 11:34:09.60	112.07	69.10	-52.0	-55.6	19.8	6.08e-01	0	43	0	539492352	75	5501
2026-01-04 11:34:10.89	110.44	69.57	-52.4	-56.3	19.3	6.07e-01	0	43	0	542113792	75	5961
2026-01-04 11:34:11.61	109.50	69.83	-52.3	-56.0	19.5	6.05e-01	0	43	0	543162368	75	5727
2026-01-04 11:34:12.90	107.74	70.28	-52.3	-56.1	19.5	6.04e-01	0	43	0	545783808	75	5844
2026-01-04 11:34:13.61	106.74	70.52	-51.7	-55.4	20.0	6.08e-01	0	43	0	546832384	75	5383
2026-01-04 11:34:14.89	104.86	70.94	-51.4	-54.9	20.5	6.07e-01	0	43	0	549453824	74	5375
2026-01-04 11:34:15.61	103.77	71.17	-51.8	-55.5	19.9	6.07e-01	0	43	0	551026688	74	5731
2026-01-04 11:34:16.89	101.75	71.57	-51.3	-54.5	21.0	6.07e-01	0	43	0	553123840	74	5124
2026-01-04 11:34:17.61	100.57	71.78	-51.9	-55.4	20.1	6.08e-01	0	43	0	554696704	74	5711
2026-01-04 11:34:18.97	98.28	72.16	-51.2	-54.7	20.7	6.07e-01	0	43	0	557318144	74	5266
2026-01-04 11:34:19.69	97.02	72.35	-51.2	-54.8	20.6	6.05e-01	0	43	0	558366720	74	5336
2026-01-04 11:34:20.97	94.71	72.66	-51.7	-55.3	20.1	6.06e-01	0	43	0	560988160	74	5653
2026-01-04 11:34:21.69	93.38	72.83	-51.6	-55.0	20.5	6.07e-01	0	43	0	562036736	74	5460
2026-01-04 11:34:23.05	90.78	73.12	-51.4	-54.9	20.6	6.07e-01	0	43	0	564658176	74	5357
2026-01-04 11:34:23.77	89.37	73.26	-51.9	-55.9	19.6	6.08e-01	0	43	0	566231040	74	6013
2026-01-04 11:34:25.15	86.60	73.51	-51.3	-54.9	20.6	6.05e-01	0	43	0	568852480	74	5382
2026-01-04 11:34:25.87	85.12	73.62	-51.5	-55.1	20.3	6.05e-01	0	43	0	569901056	74	5474
2026-01-04 11:34:27.15	82.45	73.79	-51.4	-54.7	20.6	6.08e-01	0	43	0	572522496	74	5249
2026-01-04 11:34:27.87	80.92	73.88	-51.1	-54.3	21.1	6.07e-01	0	43	0	574095360	74	5014
2026-01-04 11:34:29.15	78.16	73.99	-51.7	-55.2	20.4	6.07e-01	0	43	0	576192512	74	5531
2026-01-04 11:34:29.86	76.61	74.04	-51.2	-54.4	21.0	6.08e-01	0	43	0	577765376	74	5079
2026-01-04 11:34:31.14	73.81	74.11	-51.8	-55.4	20.1	6.06e-01	0	43	0	579862528	74	5706
2026-01-04 11:34:31.86	72.22	74.13	-51.8	-55.2	20.3	6.08e-01	0	43	0	581435392	74	5581
2026-01-04 11:34:33.15	69.37	74.13	-52.2	-55.8	19.8	6.06e-01	0	43	0	583532544	74	5939
2026-01-04 11:34:33.90	67.71	74.12	-52.3	-55.9	19.5	6.07e-01	0	43	0	585105408	75	5706
2026-01-04 11:34:35.19	64.88	74.06	-52.3	-56.1	19.5	6.07e-01	0	43	0	587726848	75	5822
2026-01-04 11:34:35.94	63.24	74.01	-51.8	-55.2	20.3	6.05e-01	0	43	0	588775424	75	5279
2026-01-04 11:34:37.22	60.48	73.90	-51.9	-55.6	19.9	6.06e-01	0	43	0	591396864	75	5492
2026-01-04 11:34:38.05	58.71	73.81	-51.8	-55.3	20.2	6.07e-01	0	43	0	592969728	75	5321
2026-01-04 11:34:39.19	56.32	73.66	-52.0	-55.5	20.1	6.05e-01	0	43	0	595066880	75	5455
2026-01-04 11:34:40.05	54.55	73.53	-52.0	-55.6	19.9	6.08e-01	0	43	0	596639744	75	5506
2026-01-04 11:34:41.19	52.24	73.34	-51.8	-55.4	20.1	6.07e-01	0	43	0	598736896	75	5366
2026-01-04 11:34:42.05	50.55	73.17	-51.9	-55.4	20.0	6.09e-01	0	43	0	600309760	75	5388
2026-01-04 11:34:43.20	48.33	72.93	-51.7	-55.0	20.5	6.08e-01	0	43	0	602406912	74	5453
2026-01-04 11:34:44.06	46.72	72.74	-52.2	-55.9	19.7	6.07e-01	0	43	0	603979776	75	5707
2026-01-04 11:34:45.20	44.65	72.46	-51.9	-55.6	19.9	6.07e-01	0	43	0	606076928	75	5465
2026-01-04 11:34:46.06	43.13	72.24	-51.8	-55.4	20.2	6.05e-01	0	43	0	607649792	75	5350
2026-01-04 11:34:47.20	41.18	71.93	-52.2	-56.0	19.4	6.05e-01	0	43	0	610271232	75	5768
2026-01-04 11:34:48.06	39.76	71.68	-52.1	-55.7	19.9	6.06e-01	0	43	0	611844096	75	5541
2026-01-04 11:34:49.32	37.75	71.30	-52.5	-56.2	19.3	6.06e-01	0	43	0	613941248	76	5566
2026-01-04 11:34:50.05	36.62	71.07	-52.2	-55.8	19.7	6.07e-01	0	43	0	615514112	76	5325
2026-01-04 11:34:51.33	34.72	70.66	-52.7	-56.7	18.9	6.09e-01	0	43	0	617611264	76	5864
2026-01-04 11:34:52.05	33.68	70.42	-52.4	-56.2	19.4	6.06e-01	0	43	0	619184128	76	5532
2026-01-04 11:34:53.34	31.90	69.97	-53.3	-57.6	17.9	6.06e-01	0	43	0	621805568	77	6184
2026-01-04 11:34:54.06	30.94	69.72	-52.5	-56.2	19.3	6.08e-01	0	43	0	622854144	77	5237
2026-01-04 11:34:55.35	29.29	69.25	-52.8	-56.9	18.6	6.05e-01	0	43	0	625475584	76	6035
2026-01-04 11:34:56.06	28.42	68.99	-53.2	-57.7	17.9	6.08e-01	0	43	0	626524160	77	6205
2026-01-04 11:34:57.75	26.43	68.35	-52.8	-56.9	18.7	6.08e-01	0	43	0	629669888	77	5675
2026-01-04 11:34:58.32	25.79	68.13	-52.5	-56.3	19.2	6.08e-01	0	43	0	630718464	77	5337
2026-01-04 11:34:59.91	24.07	67.50	-53.3	-57.8	17.8	6.07e-01	0	43	0	633864192	77	6276
2026-01-04 11:35:00.48	23.48	67.27	-53.1	-57.5	18.0	6.08e-01	0	43	0	634912768	77	6123
2026-01-04 11:35:02.09	21.88	66.63	-52.8	-57.1	18.5	6.08e-01	0	43	0	638058496	77	5796
2026-01-04 11:35:02.80	21.21	66.34	-53.2	-57.4	18.3	6.07e-01	0	43	0	639107072	77	6060
2026-01-04 11:35:04.08	20.04	65.81	-53.2	-57.3	18.3	6.07e-01	0	43	0	641728512	77	5979
2026-01-04 11:35:04.80	19.41	65.51	-52.5	-56.2	19.4	6.06e-01	0	43	0	643301376	77	5271
2026-01-04 11:35:06.08	18.32	64.98	-52.1	-55.7	19.8	6.07e-01	0	43	0	645398528	76	5253
2026-01-04 11:35:06.80	17.73	64.68	-52.2	-55.9	19.6	6.05e-01	0	43	0	646971392	76	5368
2026-01-04 11:35:08.17	16.66	64.10	-51.1	-54.2	21.1	6.08e-01	0	43	0	649592832	74	4983
2026-01-04 11:35:08.88	16.12	63.80	-50.9	-54.1	21.3	6.06e-01	0	43	0	650641408	73	5179
2026-01-04 11:35:10.23	15.14	63.22	-50.7	-53.8	21.6	6.05e-01	0	43	0	653262848	73	5018
2026-01-04 11:35:10.94	14.64	62.92	-51.0	-54.2	21.3	6.08e-01	0	43	0	654835712	73	5233
2026-01-04 11:35:12.23	13.77	62.37	-50.4	-53.3	22.1	6.08e-01	0	43	0	656932864	72	5015
2026-01-04 11:35:12.94	13.31	62.07	-50.3	-53.2	22.2	6.05e-01	0	43	0	658505728	72	4933
2026-01-04 11:35:14.24	12.49	61.51	-50.7	-53.7	21.8	6.08e-01	0	43	0	660602880	72	5227
2026-01-04 11:35:14.95	12.06	61.21	-50.5	-53.5	21.9	6.05e-01	0	43	0	662175744	72	5109
2026-01-04 11:35:16.24	11.30	60.66	-50.2	-53.1	22.2	6.06e-01	0	43	0	664272896	72	4896
2026-01-04 11:35:16.95	10.90	60.36	-50.2	-53.1	22.2	6.07e-01	0	43	0	665845760	72	4885
2026-01-04 11:35:18.24	10.19	59.81	-50.1	-52.8	22.5	6.09e-01	0	43	0	668467200	72	4753
2026-01-04 11:35:18.97	9.80	59.50	-50.4	-53.2	22.2	6.08e-01	0	43	0	669515776	72	4966
2026-01-04 11:35:20.26	9.14	58.95	-50.1	-53.0	22.3	6.09e-01	0	43	0	672137216	72	4819
2026-01-04 11:35:21.07	8.74	58.61	-49.8	-52.6	22.9	6.08e-01	0	43	0	673710080	71	4871
2026-01-04 11:35:22.54	8.04	57.98	-49.6	-52.3	23.1	6.07e-01	0	43	0	676331520	71	4726
2026-01-04 11:35:23.25	7.71	57.69	-49.5	-52.1	23.2	6.06e-01	0	43	0	677904384	70	4889
2026-01-04 11:35:24.75	7.04	57.06	-49.0	-51.6	23.8	6.09e-01	0	43	0	680525824	70	4603
2026-01-04 11:35:25.46	6.74	56.76	-49.0	-51.6	23.8	6.08e-01	0	43	0	681574400	70	4609
2026-01-04 11:35:26.75	6.20	56.23	-48.4	-50.7	24.5	6.05e-01	0	43	0	684195840	68	4691
2026-01-04 11:35:27.47	5.91	55.93	-48.3	-50.7	24.5	6.07e-01	0	43	0	685768704	68	4696
2026-01-04 11:35:28.76	5.40	55.40	-48.2	-50.7	24.5	6.10e-01	0	43	0	687865856	68	4663
2026-01-04 11:35:29.47	5.13	55.11	-48.3	-50.9	24.3	6.07e-01	0	43	0	689438720	68	4769
2026-01-04 11:35:30.76	4.65	54.58	-47.9	-50.4	24.7	6.06e-01	0	43	0	691535872	67	4761
2026-01-04 11:35:31.48	4.39	54.29	-47.9	-50.3	24.8	6.06e-01	0	43	0	693108736	67	4721
2026-01-04 11:35:32.76	3.94	53.77	-47.8	-50.1	25.0	6.08e-01	0	43	0	695730176	67	4633
2026-01-04 11:35:33.48	3.70	53.48	-48.0	-50.3	24.7	6.06e-01	0	43	0	696778752	67	4749
2026-01-04 11:35:34.77	3.27	52.97	-48.4	-50.9	24.2	6.06e-01	0	43	0	699400192	67	5052
2026-01-04 11:35:35.57	3.01	52.65	-48.4	-50.8	24.4	6.05e-01	0	43	0	700973056	67	5011
2026-01-04 11:35:36.71	2.66	52.20	-48.4	-50.8	24.2	6.08e-01	0	43	0	703070208	67	5002
2026-01-04 11:35:37.83	2.32	51.76	-47.9	-50.3	24.8	6.07e-01	0	43	0	705167360	67	4713
2026-01-04 11:35:38.86	2.01	51.36	-48.3	-50.8	24.4	6.09e-01	0	43	0	706740224	67	5013
2026-01-04 11:35:39.86	1.73	50.98	-48.2	-50.7	24.3	6.06e-01	0	43	0	708837376	67	4952
2026-01-04 11:35:40.86	1.45	50.59	-48.5	-51.0	24.1	6.07e-01	0	43	0	710410240	67	5123
2026-01-04 11:35:41.86	1.18	50.21	-48.9	-51.5	23.9	6.08e-01	0	43	0	712507392	68	5108
2026-01-04 11:35:42.86	0.91	49.83	-49.1	-51.7	23.5	6.07e-01	0	43	0	714604544	68	5228
2026-01-04 11:35:43.87	0.65	49.46	-48.9	-51.6	23.6	6.07e-01	0	43	0	716177408	68	5182
2026-01-04 11:35:44.87	0.40	49.08	-48.7	-51.3	23.9	6.05e-01	0	43	0	718274560	68	5041
2026-01-04 11:35:45.87	0.15	48.71	-48.6	-51.1	24.1	6.05e-01	0	43	0	720371712	68	4923
2026-01-04 11:35:46.88	359.91	48.34	-48.5	-51.0	24.1	6.06e-01	0	43	0	721944576	68	4868
2026-01-04 11:35:47.88	359.67	47.98	-48.7	-51.3	24.0	6.05e-01	0	43	0	724041728	68	4987
2026-01-04 11:35:48.93	359.43	47.60	-49.2	-51.8	23.4	6.07e-01	0	43	0	725614592	68	5331
2026-01-04 11:35:49.90	359.22	47.25	-49.3	-52.0	23.4	6.06e-01	0	43	0	727711744	69	5113
2026-01-04 11:35:50.91	359.00	46.89	-48.8	-51.4	23.8	6.06e-01	0	43	0	729284608	69	4798
2026-01-04 11:35:51.91	358.79	46.53	-48.8	-51.4	23.9	6.07e-01	0	43	0	731381760	69	4791
2026-01-04 11:35:52.91	358.58	46.18	-48.8	-51.4	23.9	6.04e-01	0	43	0	733478912	69	4765
2026-01-04 11:35:53.91	358.37	45.83	-48.6	-51.3	24.0	6.08e-01	0	43	0	735051776	69	4708
2026-01-04 11:35:54.92	358.17	45.49	-48.3	-51.0	24.2	6.08e-01	0	43	0	737148928	68	4859
2026-01-04 11:35:55.92	357.98	45.14	-48.4	-51.2	24.1	6.04e-01	0	43	0	738721792	68	4936
2026-01-04 11:35:56.92	357.79	44.80	-48.7	-51.5	23.8	6.05e-01	0	43	0	740818944	68	5132
2026-01-04 11:35:57.92	357.60	44.46	-48.8	-51.5	23.7	6.09e-01	0	43	0	742916096	68	5149
2026-01-04 11:35:58.93	357.42	44.13	-49.0	-51.7	23.6	6.07e-01	0	43	0	744488960	68	5237
2026-01-04 11:35:59.93	357.24	43.79	-49.1	-51.7	23.6	6.08e-01	0	43	0	746586112	68	5245
2026-01-04 11:36:00.92	357.07	43.47	-49.1	-51.7	23.6	6.06e-01	0	43	0	748158976	69	4960
2026-01-04 11:36:01.98	356.89	43.12	-48.8	-51.3	23.9	6.09e-01	0	43	0	750256128	69	4750
2026-01-04 11:36:02.85	356.74	42.84	-48.8	-51.3	23.9	6.08e-01	0	43	0	751828992	69	4751
2026-01-04 11:36:03.99	356.56	42.47	-49.1	-51.8	23.5	6.06e-01	0	43	0	753926144	69	5001
2026-01-04 11:36:04.85	356.42	42.20	-49.2	-51.9	23.4	6.05e-01	0	43	0	755499008	69	5072
2026-01-04 11:36:06.00	356.24	41.84	-49.5	-52.3	23.1	6.07e-01	0	43	0	757596160	69	5296
2026-01-04 11:36:06.86	356.11	41.57	-49.8	-52.6	22.7	6.06e-01	0	43	0	759169024	70	5204
2026-01-04 11:36:08.00	355.93	41.21	-50.1	-53.0	22.4	6.07e-01	0	43	0	761790464	70	5410
2026-01-04 11:36:08.86	355.81	40.95	-50.2	-53.1	22.4	6.06e-01	0	43	0	763363328	71	5171
2026-01-04 11:36:10.01	355.64	40.59	-50.2	-53.1	22.3	6.06e-01	0	43	0	765460480	71	5212
2026-01-04 11:36:10.87	355.52	40.33	-50.2	-53.1	22.3	6.07e-01	0	43	0	767033344	71	5181
2026-01-04 11:36:12.01	355.36	39.99	-50.2	-53.1	22.3	6.07e-01	0	43	0	769130496	71	5211
2026-01-04 11:36:12.87	355.24	39.73	-50.3	-53.2	22.2	6.05e-01	0	43	0	770703360	71	5243
2026-01-04 11:36:14.02	355.09	39.39	-50.3	-53.2	22.2	6.06e-01	0	43	0	772800512	71	5260
2026-01-04 11:36:14.88	354.98	39.14	-50.3	-53.3	22.2	6.06e-01	0	43	0	774373376	71	5282
2026-01-04 11:36:16.16	354.81	38.77	-50.2	-53.5	21.9	6.08e-01	0	43	0	776994816	71	5455
2026-01-04 11:36:16.87	354.72	38.57	-50.0	-53.4	22.0	6.09e-01	0	43	0	778043392	71	5365
2026-01-04 11:36:18.16	354.56	38.20	-49.7	-53.2	22.2	6.06e-01	0	43	0	780664832	71	5225
2026-01-04 11:36:18.88	354.47	37.99	-49.6	-53.0	22.4	6.07e-01	0	43	0	782237696	71	5101
2026-01-04 11:36:20.17	354.32	37.63	-49.7	-52.9	22.4	6.06e-01	0	43	0	784334848	71	5092
2026-01-04 11:36:20.88	354.24	37.43	-49.8	-53.0	22.4	6.07e-01	0	43	0	785907712	71	5129
2026-01-04 11:36:22.17	354.09	37.08	-49.9	-52.9	22.5	6.05e-01	0	43	0	788004864	71	5057
2026-01-04 11:36:22.89	354.01	36.88	-50.0	-52.9	22.4	6.07e-01	0	43	0	789577728	71	5087
2026-01-04 11:36:24.18	353.86	36.53	-49.7	-52.6	22.7	6.08e-01	0	43	0	792199168	71	4875
2026-01-04 11:36:25.10	353.76	36.28	-49.6	-52.5	22.9	6.06e-01	0	43	0	793772032	71	4830
2026-01-04 11:36:26.11	353.65	36.01	-49.4	-52.2	23.0	6.08e-01	0	43	0	795344896	70	4945
2026-01-04 11:36:27.46	353.51	35.65	-49.2	-52.0	23.3	6.06e-01	0	43	0	797966336	70	4847
2026-01-04 11:36:28.20	353.43	35.46	-49.1	-51.9	23.5	6.07e-01	0	43	0	799539200	70	4760
2026-01-04 11:36:29.50	353.30	35.12	-49.1	-51.8	23.5	6.07e-01	0	43	0	801636352	70	4707
2026-01-04 11:36:30.29	353.22	34.92	-49.1	-51.8	23.5	6.05e-01	0	43	0	803209216	70	4740
2026-01-04 11:36:31.44	353.11	34.63	-49.1	-51.9	23.4	6.06e-01	0	43	0	805306368	70	4809
2026-01-04 11:36:32.30	353.03	34.41	-48.9	-51.7	23.5	6.06e-01	0	43	0	806879232	69	4971
2026-01-04 11:36:33.44	352.92	34.12	-48.5	-51.3	23.9	6.08e-01	0	43	0	809500672	69	4750
2026-01-04 11:36:34.30	352.84	33.91	-48.4	-51.1	24.0	6.09e-01	0	43	0	811073536	68	4909
2026-01-04 11:36:35.44	352.73	33.62	-48.2	-50.9	24.3	6.09e-01	0	43	0	813170688	68	4764
2026-01-04 11:36:36.30	352.66	33.41	-48.1	-50.7	24.4	6.07e-01	0	43	0	814743552	68	4691
2026-01-04 11:36:37.45	352.55	33.13	-48.2	-50.8	24.4	6.06e-01	0	43	0	816840704	68	4722
2026-01-04 11:36:38.31	352.48	32.93	-48.3	-50.8	24.3	6.08e-01	0	43	0	818413568	68	4750
2026-01-04 11:36:39.46	352.38	32.65	-48.4	-51.1	24.1	6.07e-01	0	43	0	820510720	68	4875
2026-01-04 11:36:40.31	352.31	32.45	-48.3	-50.9	24.2	6.06e-01	0	43	0	822083584	68	4797
2026-01-04 11:36:41.46	352.21	32.18	-48.3	-50.9	24.3	6.07e-01	0	43	0	824180736	68	4762
2026-01-04 11:36:42.32	352.14	31.98	-48.3	-50.8	24.3	6.05e-01	0	43	0	825753600	68	4741
2026-01-04 11:36:43.47	352.05	31.71	-48.4	-50.9	24.3	6.06e-01	0	43	0	828375040	68	4803
2026-01-04 11:36:44.33	351.98	31.51	-48.3	-50.8	24.3	6.07e-01	0	43	0	829947904	68	4719
2026-01-04 11:36:45.47	351.89	31.26	-48.2	-50.6	24.5	6.07e-01	0	43	0	832045056	68	4650
2026-01-04 11:36:46.33	351.82	31.06	-48.2	-50.6	24.6	6.08e-01	0	43	0	833617920	68	4607
2026-01-04 11:36:47.48	351.73	30.80	-48.2	-50.6	24.5	6.07e-01	0	43	0	835715072	68	4613
2026-01-04 11:36:48.34	351.67	30.61	-48.0	-50.4	24.6	6.09e-01	0	43	0	837287936	68	4543
2026-01-04 11:36:49.49	351.58	30.36	-47.9	-50.3	24.7	6.08e-01	0	43	0	839385088	67	4755
2026-01-04 11:36:50.35	351.52	30.17	-47.8	-50.3	24.7	6.06e-01	0	43	0	840957952	67	4707
2026-01-04 11:36:51.49	351.44	29.92	-47.9	-50.3	24.7	6.04e-01	0	43	0	843055104	67	4730
2026-01-04 11:36:52.35	351.38	29.74	-48.0	-50.4	24.7	6.04e-01	0	43	0	844627968	67	4783
2026-01-04 11:36:53.50	351.30	29.49	-48.0	-50.4	24.6	6.07e-01	0	43	0	846725120	67	4804
2026-01-04 11:36:54.36	351.24	29.31	-48.0	-50.4	24.6	6.06e-01	0	43	0	848297984	67	4805
2026-01-04 11:36:55.50	351.16	29.07	-48.0	-50.4	24.5	6.07e-01	0	43	0	850395136	67	4808
2026-01-04 11:36:56.36	351.10	28.89	-48.0	-50.5	24.5	6.06e-01	0	43	0	851968000	67	4824
2026-01-04 11:36:57.51	351.03	28.65	-48.1	-50.6	24.4	6.07e-01	0	43	0	854589440	67	4905
2026-01-04 11:36:58.37	350.97	28.48	-48.0	-50.6	24.4	6.06e-01	0	43	0	856162304	67	4894
2026-01-04 11:36:59.52	350.90	28.24	-48.2	-50.8	24.2	6.06e-01	0	43	0	858259456	67	5006
2026-01-04 11:37:00.37	350.84	28.07	-48.1	-50.7	24.2	6.06e-01	0	43	0	859832320	67	4944
2026-01-04 11:37:01.52	350.77	27.84	-48.3	-50.9	24.1	6.08e-01	0	43	0	861929472	67	5044
2026-01-04 11:37:02.38	350.72	27.67	-48.3	-50.9	24.1	6.07e-01	0	43	0	863502336	67	5044
2026-01-04 11:37:03.52	350.65	27.44	-48.4	-50.9	24.1	6.05e-01	0	43	0	865599488	67	5083
2026-01-04 11:37:04.38	350.60	27.27	-48.5	-51.1	24.0	6.06e-01	0	43	0	867172352	67	5182
2026-01-04 11:37:05.53	350.53	27.05	-48.6	-51.2	23.8	6.06e-01	0	43	0	869269504	67	5257
2026-01-04 11:37:06.39	350.48	26.88	-48.8	-51.5	23.7	6.05e-01	0	43	0	870842368	68	5106
2026-01-04 11:37:07.54	350.42	26.66	-48.7	-51.3	23.8	6.03e-01	0	43	0	873463808	68	5022
2026-01-04 11:37:08.40	350.37	26.50	-48.7	-51.4	23.8	6.02e-01	0	43	0	875036672	68	5083
2026-01-04 11:37:09.64	350.30	26.26	-48.8	-51.5	23.6	5.98e-01	0	43	0	877133824	68	5154
2026-01-04 11:37:10.49	350.25	26.10	-48.7	-51.5	23.7	6.02e-01	0	43	0	878706688	68	5120
2026-01-04 11:37:11.72	350.18	25.88	-48.8	-51.6	23.6	6.02e-01	0	43	0	881328128	68	5164
2026-01-04 11:37:12.58	350.14	25.72	-48.7	-51.5	23.7	6.03e-01	0	43	0	882900992	68	5118
2026-01-04 11:37:13.73	350.08	25.51	-48.8	-51.5	23.6	6.02e-01	0	43	0	884998144	68	5147
2026-01-04 11:37:14.59	350.03	25.35	-48.7	-51.4	23.7	6.03e-01	0	43	0	886571008	68	5092
2026-01-04 11:37:15.74	349.97	25.14	-48.9	-51.5	23.7	6.00e-01	0	43	0	888668160	68	5142
2026-01-04 11:37:16.63	349.93	24.98	-48.8	-51.4	23.7	6.02e-01	0	43	0	890241024	68	5094
2026-01-04 11:37:17.84	349.87	24.77	-48.8	-51.4	23.7	6.05e-01	0	43	0	892338176	68	5088
2026-01-04 11:37:18.70	349.82	24.61	-48.8	-51.5	23.6	6.00e-01	0	43	0	893911040	68	5132
2026-01-04 11:37:20.02	349.76	24.38	-48.7	-51.7	23.5	6.02e-01	0	43	0	896532480	68	5230
2026-01-04 11:37:20.74	349.72	24.26	-48.5	-51.6	23.5	6.02e-01	0	43	0	898105344	68	5194
2026-01-04 11:37:22.24	349.65	24.00	-48.4	-51.7	23.4	6.02e-01	0	43	0	900726784	68	5253
2026-01-04 11:37:22.96	349.62	23.88	-48.4	-51.8	23.4	6.03e-01	0	43	0	902299648	68	5281
2026-01-04 11:37:24.25	349.56	23.66	-48.5	-51.8	23.4	6.00e-01	0	43	0	904396800	68	5332
2026-01-04 11:37:24.96	349.53	23.54	-48.5	-51.8	23.4	6.01e-01	0	43	0	905969664	68	5331
2026-01-04 11:37:26.25	349.47	23.32	-48.7	-51.8	23.4	6.00e-01	0	43	0	908066816	68	5317
2026-01-04 11:37:26.97	349.43	23.20	-48.8	-51.8	23.3	6.03e-01	0	43	0	909639680	68	5337
2026-01-04 11:37:28.25	349.38	22.99	-49.0	-51.8	23.3	6.02e-01	0	43	0	912261120	68	5323
2026-01-04 11:37:28.97	349.35	22.87	-49.1	-51.9	23.3	6.01e-01	0	43	0	913309696	68	5353
2026-01-04 11:37:30.26	349.29	22.66	-49.2	-51.9	23.2	6.01e-01	0	43	0	915931136	69	5072
2026-01-04 11:37:30.98	349.26	22.54	-49.2	-51.9	23.2	6.03e-01	0	43	0	916979712	69	5088
2026-01-04 11:37:32.27	349.21	22.34	-49.0	-51.7	23.4	6.01e-01	0	43	0	919601152	69	4960
2026-01-04 11:37:32.98	349.18	22.22	-48.9	-51.7	23.4	6.03e-01	0	43	0	921174016	69	4937
2026-01-04 11:37:34.27	349.12	22.02	-48.9	-51.8	23.4	6.02e-01	0	43	0	923271168	69	5031
2026-01-04 11:37:34.99	349.09	21.90	-48.9	-51.8	23.5	5.99e-01	0	43	0	924844032	69	4998
2026-01-04 11:37:36.28	349.04	21.70	-48.8	-51.7	23.5	6.03e-01	0	43	0	926941184	69	4978
2026-01-04 11:37:36.99	349.01	21.59	-48.8	-51.7	23.5	6.01e-01	0	43	0	928514048	69	4932
2026-01-04 11:37:38.28	348.96	21.39	-49.0	-51.8	23.4	6.03e-01	0	43	0	930611200	69	5036
2026-01-04 11:37:39.00	348.93	21.28	-48.8	-51.7	23.5	6.04e-01	0	43	0	932184064	69	4928
2026-01-04 11:37:40.29	348.89	21.09	-48.9	-51.6	23.6	6.03e-01	0	43	0	934805504	69	4900
2026-01-04 11:37:41.01	348.86	20.98	-49.0	-51.7	23.6	6.04e-01	0	43	0	935854080	69	4930
2026-01-04 11:37:42.30	348.81	20.78	-49.0	-51.6	23.7	6.03e-01	0	43	0	938475520	69	4899
2026-01-04 11:37:43.01	348.78	20.68	-49.0	-51.6	23.7	6.04e-01	0	43	0	939524096	69	4904
2026-01-04 11:37:44.30	348.74	20.48	-48.9	-51.6	23.6	6.02e-01	0	43	0	942145536	69	4917
2026-01-04 11:37:45.08	348.71	20.37	-49.0	-51.7	23.6	6.02e-01	0	43	0	943718400	69	4976
2026-01-04 11:37:46.58	348.65	20.15	-48.9	-51.7	23.6	6.02e-01	0	43	0	946339840	69	4970
2026-01-04 11:37:47.29	348.63	20.05	-48.9	-51.7	23.6	6.01e-01	0	43	0	947912704	69	4967
2026-01-04 11:37:48.58	348.58	19.86	-49.0	-51.9	23.4	5.98e-01	0	43	0	950009856	69	5064
2026-01-04 11:37:49.30	348.56	19.76	-48.8	-51.7	23.5	6.04e-01	0	43	0	951582720	69	4933
2026-01-04 11:37:50.59	348.51	19.57	-48.8	-51.7	23.6	6.01e-01	0	43	0	953679872	69	4936
2026-01-04 11:37:51.31	348.49	19.47	-48.9	-51.8	23.5	6.01e-01	0	43	0	955252736	69	5013
2026-01-04 11:37:52.60	348.45	19.29	-48.8	-51.7	23.6	6.01e-01	0	43	0	957874176	69	4953
2026-01-04 11:37:53.31	348.42	19.19	-48.8	-51.7	23.6	6.00e-01	0	43	0	958922752	69	4946
2026-01-04 11:37:54.60	348.38	19.01	-48.8	-51.8	23.5	6.00e-01	0	43	0	961544192	69	4993
2026-01-04 11:37:55.46	348.35	18.89	-48.7	-51.6	23.7	6.01e-01	0	43	0	963117056	69	4914
2026-01-04 11:37:56.60	348.32	18.73	-48.7	-51.7	23.6	6.02e-01	0	43	0	965214208	69	4928
2026-01-04 11:37:57.47	348.29	18.61	-48.4	-51.6	23.7	6.02e-01	0	43	0	966787072	68	5166
2026-01-04 11:37:58.61	348.25	18.46	-48.4	-51.6	23.7	6.01e-01	0	43	0	968884224	68	5171
2026-01-04 11:37:59.74	348.22	18.31	-48.2	-51.5	23.7	6.00e-01	0	43	0	970981376	68	5150
2026-01-04 11:38:00.59	348.19	18.19	-48.0	-51.6	23.6	6.03e-01	0	43	0	972554240	68	5188
2026-01-04 11:38:02.09	348.15	17.99	-47.7	-51.4	23.7	6.01e-01	0	43	0	975699968	67	5375
2026-01-04 11:38:02.81	348.12	17.90	-47.7	-51.5	23.6	5.99e-01	0	43	0	976748544	67	5419
2026-01-04 11:38:04.10	348.09	17.73	-47.7	-51.5	23.7	6.00e-01	0	43	0	979369984	67	5443
2026-01-04 11:38:04.81	348.07	17.63	-47.7	-51.6	23.5	6.01e-01	0	43	0	980418560	67	5520
2026-01-04 11:38:06.10	348.03	17.47	-47.8	-51.6	23.5	5.99e-01	0	43	0	983040000	67	5501
2026-01-04 11:38:06.91	348.00	17.36	-47.9	-51.7	23.4	6.00e-01	0	43	0	984612864	67	5545
2026-01-04 11:38:08.06	347.97	17.21	-48.2	-51.7	23.3	6.01e-01	0	43	0	986710016	67	5559
2026-01-04 11:38:09.16	347.94	17.07	-48.3	-51.7	23.4	6.02e-01	0	43	0	988807168	67	5559
2026-01-04 11:38:10.01	347.92	16.96	-48.4	-51.8	23.4	6.01e-01	0	43	0	990380032	67	5599
2026-01-04 11:38:11.16	347.89	16.82	-48.5	-51.7	23.4	6.02e-01	0	43	0	992477184	67	5579
2026-01-04 11:38:12.02	347.86	16.71	-48.6	-51.8	23.4	5.99e-01	0	43	0	994050048	67	5599
2026-01-04 11:38:13.17	347.83	16.57	-48.6	-51.8	23.3	6.03e-01	0	43	0	996147200	67	5616
2026-01-04 11:38:14.03	347.81	16.46	-48.7	-51.9	23.3	6.03e-01	0	43	0	997720064	68	5377
2026-01-04 11:38:15.17	347.78	16.32	-48.6	-51.9	23.3	6.00e-01	0	43	0	999817216	68	5346
2026-01-04 11:38:16.03	347.76	16.21	-48.6	-51.8	23.3	6.02e-01	0	43	0	1001390080	68	5336
2026-01-04 11:38:17.18	347.73	16.07	-48.5	-51.8	23.4	6.02e-01	0	43	0	1004011520	68	5310
2026-01-04 11:38:18.04	347.70	15.97	-48.4	-51.8	23.4	6.03e-01	0	43	0	1005584384	68	5300
2026-01-04 11:38:19.18	347.67	15.83	-48.4	-51.8	23.4	6.01e-01	0	43	0	1007681536	68	5295
2026-01-04 11:38:20.12	347.65	15.72	-48.4	-51.8	23.3	6.03e-01	0	43	0	1009254400	68	5340
2026-01-04 11:38:21.30	347.62	15.58	-48.4	-51.8	23.2	6.01e-01	0	43	0	1011351552	68	5326
2026-01-04 11:38:22.16	347.60	15.47	-48.5	-51.8	23.3	6.04e-01	0	43	0	1012924416	68	5333
2026-01-04 11:38:23.52	347.57	15.31	-48.5	-51.8	23.3	6.01e-01	0	43	0	1015545856	68	5331
2026-01-04 11:38:24.23	347.55	15.23	-48.5	-51.8	23.3	6.04e-01	0	43	0	1017118720	68	5305
2026-01-04 11:38:25.52	347.52	15.08	-48.7	-51.9	23.3	6.01e-01	0	43	0	1019215872	68	5368
2026-01-04 11:38:26.24	347.50	15.00	-48.7	-51.9	23.3	6.03e-01	0	43	0	1020788736	68	5370
2026-01-04 11:38:27.53	347.47	14.85	-48.8	-51.9	23.3	5.99e-01	0	43	0	1023410176	68	5366
2026-01-04 11:38:28.24	347.45	14.77	-48.8	-51.9	23.2	6.00e-01	0	43	0	1024458752	68	5385
2026-01-04 11:38:29.84	347.42	14.58	-49.0	-52.0	23.2	6.02e-01	0	43	0	1027604480	68	5438
2026-01-04 11:38:30.41	347.41	14.52	-48.8	-51.9	23.2	6.00e-01	0	43	0	1028653056	68	5341
2026-01-04 11:38:32.03	347.37	14.33	-48.9	-51.9	23.2	6.03e-01	0	43	0	1031798784	68	5377
2026-01-04 11:38:32.61	347.36	14.27	-48.8	-51.9	23.2	6.00e-01	0	43	0	1032847360	68	5383
2026-01-04 11:38:34.36	347.32	14.07	-48.7	-51.9	23.3	6.02e-01	0	43	0	1035993088	68	5355
2026-01-04 11:38:34.93	347.30	14.01	-48.6	-51.8	23.3	6.03e-01	0	43	0	1037041664	68	5315
2026-01-04 11:38:36.52	347.27	13.83	-48.5	-51.8	23.4	6.01e-01	0	43	0	1040187392	68	5298
2026-01-04 11:38:37.09	347.26	13.77	-48.5	-51.8	23.3	6.04e-01	0	43	0	1041235968	68	5324
2026-01-04 11:38:38.70	347.22	13.60	-48.3	-51.6	23.5	6.00e-01	0	43	0	1043857408	68	5198
2026-01-04 11:38:39.27	347.21	13.53	-48.4	-51.7	23.5	6.04e-01	0	43	0	1045430272	68	5222
2026-01-04 11:38:40.87	347.18	13.36	-48.5	-51.7	23.4	6.03e-01	0	43	0	1048051712	68	5270
2026-01-04 11:38:41.44	347.17	13.30	-48.4	-51.7	23.5	5.99e-01	0	43	0	1049100288	68	5224
2026-01-04 11:38:43.04	347.14	13.13	-48.4	-51.6	23.5	6.03e-01	0	43	0	1052246016	68	5167
2026-01-04 11:38:43.62	347.12	13.07	-48.5	-51.6	23.5	6.01e-01	0	43	0	1053294592	68	5184
2026-01-04 11:38:45.19	347.09	12.90	-48.7	-51.7	23.5	6.03e-01	0	43	0	1056440320	68	5241
2026-01-04 11:38:45.81	347.08	12.83	-48.7	-51.7	23.4	6.02e-01	0	43	0	1057488896	68	5263
2026-01-04 11:38:47.44	347.05	12.66	-48.7	-51.6	23.5	6.00e-01	0	43	0	1060634624	68	5188
2026-01-04 11:38:48.01	347.04	12.60	-48.7	-51.6	23.5	6.03e-01	0	43	0	1061683200	68	5167
2026-01-04 11:38:49.58	347.01	12.44	-48.6	-51.6	23.5	6.00e-01	0	43	0	1064304640	68	5176
2026-01-04 11:38:50.17	347.00	12.38	-48.5	-51.6	23.5	6.03e-01	0	43	0	1065877504	68	5183
2026-01-04 11:38:51.75	346.97	12.22	-48.4	-51.7	23.3	6.00e-01	0	43	0	1068498944	68	5270
2026-01-04 11:38:52.32	346.96	12.16	-48.5	-51.8	23.3	6.04e-01	0	43	0	1069547520	68	5312
2026-01-04 11:38:54.17	346.92	11.97	-48.3	-51.9	23.3	6.01e-01	0	43	0	1073217536	68	5365
2026-01-04 11:38:54.74	346.91	11.91	-48.2	-51.9	23.2	6.02e-01	0	43	0	1074266112	68	5386
2026-01-04 11:38:56.38	346.88	11.75	-48.1	-51.9	23.2	6.02e-01	0	43	0	1077411840	68	5382
2026-01-04 11:38:56.95	346.87	11.69	-47.8	-51.8	23.3	6.02e-01	0	43	0	1078460416	67	5597
2026-01-04 11:38:58.56	346.84	11.53	-47.7	-51.9	23.1	6.05e-01	0	43	0	1081081856	67	5672
2026-01-04 11:38:59.13	346.83	11.48	-47.6	-51.8	23.2	6.01e-01	0	43	0	1082654720	67	5623
2026-01-04 11:39:00.85	346.80	11.31	-47.5	-51.8	23.1	6.03e-01	0	43	0	1085800448	67	5623
2026-01-04 11:39:01.43	346.79	11.25	-47.5	-51.9	23.0	6.03e-01	0	43	0	1086849024	67	5666
2026-01-04 11:39:03.00	346.77	11.10	-47.5	-51.9	23.1	6.03e-01	0	43	0	1089470464	66	6022
2026-01-04 11:39:03.58	346.76	11.04	-47.5	-51.9	23.0	6.03e-01	0	43	0	1091043328	66	6056
2026-01-04 11:39:05.17	346.73	10.89	-47.5	-52.2	22.8	6.02e-01	0	43	0	1093664768	66	6226
2026-01-04 11:39:06.06	346.72	10.80	-47.4	-52.0	22.9	6.02e-01	0	43	0	1095237632	66	6080
2026-01-04 11:39:07.56	346.69	10.66	-47.4	-52.1	22.8	5.98e-01	0	43	0	1098383360	66	6189
2026-01-04 11:39:08.28	346.68	10.59	-47.3	-52.1	22.8	6.02e-01	0	43	0	1099431936	66	6153
2026-01-04 11:39:09.57	346.66	10.47	-47.1	-52.2	22.7	6.05e-01	0	43	0	1102053376	66	6221
2026-01-04 11:39:10.28	346.65	10.40	-46.8	-52.1	22.7	6.00e-01	0	43	0	1103626240	65	6507
2026-01-04 11:39:11.57	346.63	10.28	-46.8	-52.5	22.5	6.00e-01	0	43	0	1105723392	65	6813
2026-01-04 11:39:12.29	346.62	10.21	-46.7	-52.3	22.6	6.02e-01	0	43	0	1107296256	65	6653
2026-01-04 11:39:13.58	346.60	10.09	-46.9	-52.7	22.3	6.02e-01	0	43	0	1109393408	65	7017
2026-01-04 11:39:14.30	346.59	10.02	-46.7	-52.4	22.6	6.02e-01	0	43	0	1110966272	65	6728
2026-01-04 11:39:15.59	346.57	9.90	-46.8	-52.4	22.5	6.01e-01	0	43	0	1113063424	65	6768
2026-01-04 11:39:16.30	346.56	9.84	-46.8	-52.5	22.4	6.03e-01	0	43	0	1114636288	65	6846
2026-01-04 11:39:17.68	346.54	9.71	-46.8	-52.4	22.5	6.02e-01	0	43	0	1117257728	65	6766
2026-01-04 11:39:18.67	346.52	9.62	-46.7	-52.3	22.6	6.02e-01	0	43	0	1119354880	65	6660
2026-01-04 11:39:19.99	346.50	9.50	-46.8	-52.3	22.5	5.99e-01	0	43	0	1121452032	65	6720
2026-01-04 11:39:20.71	346.49	9.44	-46.8	-52.2	22.7	6.03e-01	0	43	0	1123024896	65	6623
2026-01-04 11:39:22.00	346.47	9.32	-46.9	-52.2	22.7	6.01e-01	0	43	0	1125122048	65	6614
2026-01-04 11:39:22.71	346.46	9.26	-47.0	-52.3	22.5	6.02e-01	0	43	0	1126694912	65	6713
2026-01-04 11:39:24.00	346.45	9.14	-46.9	-52.3	22.5	6.00e-01	0	43	0	1128792064	65	6675
2026-01-04 11:39:24.72	346.44	9.08	-47.0	-52.2	22.6	6.05e-01	0	43	0	1130364928	65	6599
2026-01-04 11:39:26.06	346.42	8.96	-49.0	-68.8	6.4	6.78e-01	0	43	0	1132986368	68	37399
2026-01-04 11:39:26.77	346.41	8.90	-53.5	-76.2	3.8	7.50e-01	0	43	104	1132986368	77	52749
2026-01-04 11:39:28.06	346.39	8.78	-53.2	-76.4	3.8	7.49e-01	0	43	104	1132986368	78	50772
2026-01-04 11:39:28.78	346.38	8.72	-53.7	-76.5	3.7	7.45e-01	0	43	104	1132986368	78	51562
2026-01-04 11:39:30.07	346.36	8.61	-54.6	-76.7	3.8	7.45e-01	0	43	104	1132986368	80	46810
2026-01-04 11:39:30.79	346.35	8.55	-54.3	-77.0	3.8	7.46e-01	0	43	104	1132986368	79	51534
2026-01-04 11:39:32.08	346.34	8.43	-55.6	-76.9	3.8	7.46e-01	0	43	104	1132986368	82	42567
2026-01-04 11:39:32.80	346.33	8.37	-55.7	-76.9	3.8	7.48e-01	0	43	104	1132986368	83	40210
2026-01-04 11:39:34.09	346.31	8.26	-55.9	-76.9	3.8	7.47e-01	0	43	104	1132986368	82	42681
2026-01-04 11:39:34.81	346.30	8.20	-54.5	-76.9	3.8	7.49e-01	0	43	104	1132986368	81	45090
2026-01-04 11:39:36.10	346.28	8.09	-56.2	-76.9	3.8	7.43e-01	0	43	104	1132986368	83	40328
2026-01-04 11:39:36.82	346.28	8.03	-56.2	-77.0	3.8	7.45e-01	0	43	104	1132986368	83	40578
2026-01-04 11:39:38.11	346.26	7.92	-56.6	-76.9	3.8	7.44e-01	0	43	104	1132986368	83	40439
2026-01-04 11:39:38.83	346.25	7.86	-56.4	-76.9	3.8	7.47e-01	0	43	104	1132986368	83	40485
2026-01-04 11:39:40.12	346.24	7.75	-56.5	-77.1	3.8	7.46e-01	0	43	104	1132986368	84	38798
2026-01-04 11:39:40.83	346.23	7.69	-56.0	-77.1	3.8	7.49e-01	0	43	104	1132986368	84	38742
2026-01-04 11:39:42.13	346.21	7.58	-56.9	-77.1	3.8	7.44e-01	0	43	104	1132986368	84	38767
2026-01-04 11:39:42.84	346.20	7.52	-57.0	-77.1	3.8	7.50e-01	0	43	104	1132986368	84	38899
2026-01-04 11:39:44.13	346.19	7.42	-56.8	-77.0	3.8	7.47e-01	0	43	104	1132986368	84	38523
2026-01-04 11:39:44.87	346.18	7.36	-56.6	-77.0	3.8	7.47e-01	0	43	104	1132986368	84	38653
2026-01-04 11:39:46.16	346.16	7.25	-56.9	-77.1	3.8	7.46e-01	0	43	104	1132986368	84	38938
2026-01-04 11:39:46.94	346.15	7.19	-56.8	-77.0	3.8	7.45e-01	0	43	104	1132986368	84	38670
2026-01-04 11:39:48.23	346.14	7.08	-56.8	-77.0	3.8	7.47e-01	0	43	104	1132986368	84	38567
2026-01-04 11:39:49.02	346.13	7.02	-56.6	-77.0	3.8	7.44e-01	0	43	104	1132986368	84	38475
2026-01-04 11:39:50.17	346.12	6.92	-56.6	-77.0	3.8	7.47e-01	0	43	104	1132986368	84	38532
2026-01-04 11:39:51.23	346.11	6.84	-56.6	-77.0	3.8	7.42e-01	0	43	104	1132986368	84	38650
2026-01-04 11:39:52.34	346.09	6.75	-56.4	-77.0	3.8	7.50e-01	0	43	104	1132986368	84	38622
2026-01-04 11:39:53.33	346.08	6.67	-56.2	-77.0	3.8	7.48e-01	0	43	104	1132986368	84	38662
2026-01-04 11:39:54.51	346.07	6.57	-56.0	-77.0	3.8	7.46e-01	0	43	104	1132986368	84	38591
2026-01-04 11:39:55.40	346.06	6.50	-56.0	-77.0	3.8	7.45e-01	0	43	104	1132986368	84	38565
2026-01-04 11:39:56.54	346.05	6.41	-56.1	-77.1	3.8	7.46e-01	0	43	104	1132986368	84	38729
2026-01-04 11:39:57.41	346.04	6.35	-56.1	-77.0	3.8	7.48e-01	0	43	104	1132986368	84	38621
2026-01-04 11:39:58.55	346.03	6.26	-56.1	-77.1	3.8	7.46e-01	0	43	104	1132986368	84	38760
2026-01-04 11:39:59.41	346.02	6.19	-56.1	-77.0	3.8	7.47e-01	0	43	104	1132986368	84	38640
2026-01-04 11:40:00.56	346.01	6.10	-56.1	-77.0	3.8	7.45e-01	0	43	104	1132986368	84	38651
2026-01-04 11:40:01.42	346.00	6.03	-56.1	-77.0	3.8	7.46e-01	0	43	104	1132986368	84	38535
2026-01-04 11:40:02.57	345.99	5.94	-56.2	-77.1	3.8	7.49e-01	0	43	104	1132986368	84	38839
2026-01-04 11:40:03.43	345.98	5.88	-56.1	-77.0	3.8	7.48e-01	0	43	104	1132986368	84	38604
2026-01-04 11:40:04.58	345.96	5.79	-56.1	-77.0	3.8	7.46e-01	0	43	104	1132986368	84	38598
2026-01-04 11:40:05.44	345.96	5.72	-56.1	-77.0	3.8	7.46e-01	0	43	104	1132986368	84	38474
2026-01-04 11:40:06.59	345.94	5.63	-56.0	-77.0	3.8	7.50e-01	0	43	104	1132986368	84	38388
2026-01-04 11:40:07.45	345.94	5.57	-56.1	-77.1	3.8	7.47e-01	0	43	104	1132986368	84	38746
2026-01-04 11:40:08.59	345.93	5.48	-56.1	-77.1	3.8	7.47e-01	0	43	104	1132986368	84	38982
2026-01-04 11:40:09.45	345.92	5.41	-56.1	-77.1	3.8	7.44e-01	0	43	104	1132986368	84	38745
2026-01-04 11:40:10.60	345.91	5.33	-56.1	-77.1	3.8	7.49e-01	0	43	104	1132986368	84	38758
2026-01-04 11:40:11.46	345.90	5.26	-56.2	-77.1	3.8	7.48e-01	0	43	104	1132986368	84	39016
2026-01-04 11:40:12.61	345.89	5.18	-56.2	-77.1	3.8	7.45e-01	0	43	104	1132986368	84	39107
2026-01-04 11:40:13.47	345.88	5.11	-56.1	-77.0	3.8	7.45e-01	0	43	104	1132986
