passes_logs/2026/01/04/T1/T1__20260104_075819_KHAYYAM_rec.log

#Pass ID: 20260104_075819_KHAYYAM
#Satellite: KHAYYAM
#Configuration: KHAYYAM_480M
#almurnet v.1.7.20251203
#Start time: 2026-01-04 07:58:20

#Version: 2.0.20230620
#Station: T1
#Location: 37.570604 lon 55.790049 lat
#TLE: 1 53370U 22096A   26003.99696618  .00009512  00000+0  38724-3 0  9995
#TLE: 2 53370  97.3569 271.2030 0001229  84.9746 275.1632 15.24705684189563

#Time	Az	El	Level	Level2	SNR	BER	BlckErr	Temp	State	Recorded	gain1	gain2
2026-01-04 07:58:20.27	168.05	5.03	-56.8	-61.7	3.5	0.00e+00	0	45	0	0	85	25021
2026-01-04 07:58:21.27	168.06	5.11	-51.6	-56.8	3.7	0.00e+00	0	45	104	0	74	26859
2026-01-04 07:58:22.28	168.08	5.19	-51.5	-56.7	3.7	0.00e+00	0	45	104	0	74	26571
2026-01-04 07:58:23.28	168.09	5.28	-51.5	-56.8	3.7	0.00e+00	0	45	104	0	74	26731
2026-01-04 07:58:24.29	168.11	5.36	-51.6	-56.8	3.7	0.00e+00	0	45	104	0	74	26601
2026-01-04 07:58:25.29	168.12	5.44	-51.8	-57.0	3.7	0.00e+00	0	46	104	0	74	27338
2026-01-04 07:58:26.29	168.13	5.53	-51.7	-56.9	3.7	0.00e+00	0	46	104	0	74	27130
2026-01-04 07:58:27.29	168.15	5.61	-51.4	-56.7	3.7	0.00e+00	0	46	104	0	74	26380
2026-01-04 07:58:28.30	168.16	5.70	-51.4	-56.6	3.7	0.00e+00	0	46	104	0	74	26254
2026-01-04 07:58:29.31	168.18	5.78	-51.4	-56.6	3.7	0.00e+00	0	46	104	0	74	26188
2026-01-04 07:58:30.31	168.19	5.87	-51.7	-57.0	3.7	0.00e+00	0	46	104	0	74	27257
2026-01-04 07:58:31.31	168.21	5.95	-51.3	-56.5	3.7	0.00e+00	0	46	104	0	74	25820
2026-01-04 07:58:32.32	168.22	6.04	-51.4	-56.7	3.7	0.00e+00	0	46	104	0	74	26365
2026-01-04 07:58:33.32	168.24	6.13	-51.1	-56.5	3.7	0.00e+00	0	46	104	0	74	25753
2026-01-04 07:58:34.32	168.25	6.21	-51.2	-56.6	3.7	0.00e+00	0	46	104	0	74	25980
2026-01-04 07:58:35.33	168.27	6.30	-51.3	-56.6	3.7	0.00e+00	0	47	104	0	74	26236
2026-01-04 07:58:36.34	168.28	6.39	-51.4	-56.7	3.7	0.00e+00	0	47	104	0	74	26579
2026-01-04 07:58:37.34	168.30	6.48	-51.4	-56.5	3.7	0.00e+00	0	47	104	0	74	25954
2026-01-04 07:58:38.35	168.31	6.57	-51.3	-56.5	3.7	0.00e+00	0	47	104	0	74	25858
2026-01-04 07:58:39.35	168.33	6.65	-51.6	-56.9	3.7	0.00e+00	0	47	104	0	74	27120
2026-01-04 07:58:40.35	168.34	6.74	-51.2	-56.6	3.7	0.00e+00	0	47	104	0	74	25988
2026-01-04 07:58:41.36	168.36	6.83	-51.5	-56.7	3.7	0.00e+00	0	47	104	0	74	26472
2026-01-04 07:58:42.36	168.38	6.92	-51.4	-56.7	3.7	0.00e+00	0	47	104	0	74	26362
2026-01-04 07:58:43.37	168.39	7.02	-51.4	-56.7	3.7	0.00e+00	0	47	104	0	74	26284
2026-01-04 07:58:44.37	168.41	7.11	-51.5	-56.9	3.7	0.00e+00	0	47	104	0	74	26912
2026-01-04 07:58:45.37	168.42	7.20	-51.4	-56.8	3.7	0.00e+00	0	47	104	0	74	26687
2026-01-04 07:58:46.37	168.44	7.29	-51.5	-56.7	3.7	0.00e+00	0	47	104	0	74	26394
2026-01-04 07:58:47.38	168.46	7.38	-51.7	-57.1	3.7	0.00e+00	0	48	104	0	74	27518
2026-01-04 07:58:48.38	168.47	7.47	-51.5	-56.8	3.7	0.00e+00	0	47	104	0	74	26699
2026-01-04 07:58:49.39	168.49	7.57	-51.5	-56.7	3.7	0.00e+00	0	48	104	0	74	26519
2026-01-04 07:58:50.39	168.51	7.66	-51.6	-56.8	3.7	0.00e+00	0	48	104	0	74	26801
2026-01-04 07:58:51.40	168.52	7.76	-51.4	-56.7	3.7	0.00e+00	0	48	104	0	74	26421
2026-01-04 07:58:52.40	168.54	7.85	-51.8	-57.0	3.7	0.00e+00	0	48	104	0	74	27489
2026-01-04 07:58:53.40	168.56	7.95	-51.4	-56.7	3.7	0.00e+00	0	48	104	0	74	26520
2026-01-04 07:58:54.40	168.57	8.04	-51.0	-56.4	3.7	0.00e+00	0	48	104	0	74	25592
2026-01-04 07:58:55.41	168.59	8.14	-51.3	-56.5	3.7	0.00e+00	0	48	104	0	74	25939
2026-01-04 07:58:56.42	168.61	8.24	-51.5	-56.6	3.7	0.00e+00	0	48	104	0	74	26258
2026-01-04 07:58:57.42	168.63	8.33	-51.2	-56.5	3.7	0.00e+00	0	48	104	0	74	25763
2026-01-04 07:58:58.42	168.64	8.43	-51.4	-56.5	3.7	0.00e+00	0	48	104	0	74	25914
2026-01-04 07:58:59.43	168.66	8.53	-51.3	-56.6	3.7	0.00e+00	0	48	104	0	74	26122
2026-01-04 07:59:00.43	168.68	8.63	-51.3	-56.5	3.7	0.00e+00	0	48	104	0	74	25730
2026-01-04 07:59:01.43	168.70	8.73	-51.2	-56.5	3.7	0.00e+00	0	48	104	0	74	25800
2026-01-04 07:59:02.44	168.72	8.83	-51.3	-56.5	3.7	0.00e+00	0	48	104	0	73	27499
2026-01-04 07:59:03.44	168.74	8.93	-51.2	-56.4	3.7	0.00e+00	0	48	104	0	73	27123
2026-01-04 07:59:04.44	168.75	9.03	-51.3	-56.6	3.7	0.00e+00	0	48	104	0	73	27584
2026-01-04 07:59:05.45	168.77	9.13	-51.5	-56.8	3.7	0.00e+00	0	48	104	0	73	28200
2026-01-04 07:59:06.45	168.79	9.23	-51.8	-56.9	3.7	0.00e+00	0	48	104	0	74	27195
2026-01-04 07:59:07.49	168.81	9.34	-51.7	-56.9	3.7	0.00e+00	0	48	104	0	74	26954
2026-01-04 07:59:08.52	168.83	9.44	-51.8	-57.0	3.7	0.00e+00	0	49	104	0	74	27506
2026-01-04 07:59:09.51	168.85	9.55	-52.0	-57.2	3.7	0.00e+00	0	48	104	0	74	28127
2026-01-04 07:59:10.52	168.87	9.65	-52.1	-57.5	3.7	0.00e+00	0	49	104	0	74	28899
2026-01-04 07:59:11.52	168.89	9.76	-52.0	-57.3	3.7	0.00e+00	0	49	104	0	74	28233
2026-01-04 07:59:12.52	168.91	9.86	-52.0	-57.3	3.7	0.00e+00	0	49	104	0	74	28227
2026-01-04 07:59:13.52	168.93	9.97	-52.1	-57.4	3.7	0.00e+00	0	49	104	0	75	26967
2026-01-04 07:59:14.53	168.95	10.07	-52.4	-57.7	3.7	0.00e+00	0	49	104	0	75	27845
2026-01-04 07:59:15.53	168.97	10.18	-52.5	-57.8	3.7	0.00e+00	0	49	104	0	75	28251
2026-01-04 07:59:16.53	168.99	10.29	-52.2	-57.5	3.7	0.00e+00	0	49	104	0	75	27290
2026-01-04 07:59:17.54	169.01	10.40	-51.9	-57.2	3.7	0.00e+00	0	49	104	0	75	26316
2026-01-04 07:59:18.54	169.03	10.51	-52.1	-57.4	3.7	0.00e+00	0	49	104	0	75	27077
2026-01-04 07:59:19.55	169.05	10.62	-52.3	-57.6	3.7	0.00e+00	0	49	104	0	75	27669
2026-01-04 07:59:20.55	169.07	10.73	-52.1	-57.4	3.7	0.00e+00	0	49	104	0	75	26966
2026-01-04 07:59:21.55	169.09	10.84	-52.2	-57.5	3.7	0.00e+00	0	49	104	0	75	27450
2026-01-04 07:59:22.55	169.11	10.95	-52.4	-57.7	3.7	0.00e+00	0	49	104	0	75	27904
2026-01-04 07:59:23.56	169.13	11.07	-52.6	-57.9	3.7	0.00e+00	0	49	104	0	76	26915
2026-01-04 07:59:24.56	169.15	11.18	-52.7	-57.9	3.7	0.00e+00	0	49	104	0	76	27176
2026-01-04 07:59:25.56	169.18	11.29	-53.2	-58.5	3.7	0.00e+00	0	49	104	0	77	27383
2026-01-04 07:59:26.56	169.20	11.41	-53.3	-58.6	3.7	0.00e+00	0	49	104	0	77	27643
2026-01-04 07:59:27.57	169.22	11.52	-53.4	-58.6	3.7	0.00e+00	0	49	104	0	77	27690
2026-01-04 07:59:28.57	169.24	11.64	-53.4	-58.6	3.7	0.00e+00	0	49	104	0	77	27571
2026-01-04 07:59:29.57	169.26	11.76	-53.0	-58.1	3.7	0.00e+00	0	49	104	0	77	26234
2026-01-04 07:59:30.57	169.29	11.87	-53.5	-58.6	3.7	0.00e+00	0	49	104	0	77	27798
2026-01-04 07:59:31.58	169.31	11.99	-53.4	-58.6	3.7	0.00e+00	0	49	104	0	77	27567
2026-01-04 07:59:32.86	169.34	12.14	-53.2	-58.4	3.7	0.00e+00	0	49	104	0	77	27066
2026-01-04 07:59:33.58	169.36	12.23	-53.3	-58.5	3.7	0.00e+00	0	49	104	0	77	27514
2026-01-04 07:59:35.26	169.39	12.43	-54.7	-59.6	3.7	0.00e+00	0	49	104	0	80	25991
2026-01-04 07:59:35.83	169.41	12.50	-55.6	-60.4	3.7	0.00e+00	0	49	104	0	81	27077
2026-01-04 07:59:37.42	169.45	12.70	-54.1	-59.2	3.7	0.00e+00	0	49	104	0	80	24881
2026-01-04 07:59:37.99	169.46	12.77	-54.2	-59.2	3.7	0.00e+00	0	49	104	0	80	24889
2026-01-04 07:59:39.62	169.50	12.97	-54.4	-59.3	3.7	0.00e+00	0	49	104	0	80	25265
2026-01-04 07:59:40.19	169.51	13.04	-54.4	-59.4	3.7	0.00e+00	0	50	104	0	80	25476
2026-01-04 07:59:41.83	169.55	13.25	-55.0	-59.9	3.7	0.00e+00	0	50	104	0	80	27085
2026-01-04 07:59:42.40	169.57	13.32	-55.0	-59.9	3.7	0.00e+00	0	50	104	0	80	27041
2026-01-04 07:59:43.99	169.61	13.53	-56.6	-61.5	3.7	0.00e+00	0	49	104	0	83	27206
2026-01-04 07:59:44.57	169.62	13.60	-55.8	-60.8	3.7	0.00e+00	0	50	104	0	83	25314
2026-01-04 07:59:46.16	169.66	13.81	-56.1	-61.0	3.7	0.00e+00	0	50	104	0	82	27326
2026-01-04 07:59:46.73	169.68	13.88	-55.7	-60.8	3.7	0.00e+00	0	49	104	0	83	25142
2026-01-04 07:59:48.32	169.72	14.09	-56.2	-61.1	3.7	0.00e+00	0	50	104	0	83	26043
2026-01-04 07:59:48.90	169.74	14.17	-56.2	-61.1	3.7	0.00e+00	0	50	104	0	83	26038
2026-01-04 07:59:50.47	169.78	14.38	-56.4	-61.2	3.7	0.00e+00	0	50	104	0	83	26365
2026-01-04 07:59:51.06	169.79	14.46	-56.6	-61.3	3.7	0.00e+00	0	50	104	0	83	26762
2026-01-04 07:59:52.77	169.84	14.69	-56.4	-61.3	3.7	0.00e+00	0	50	104	0	84	25152
2026-01-04 07:59:53.34	169.86	14.77	-56.3	-61.2	3.7	0.00e+00	0	50	104	0	84	24923
2026-01-04 07:59:54.93	169.90	14.99	-56.5	-61.4	3.7	0.00e+00	0	50	104	0	84	25584
2026-01-04 07:59:55.51	169.92	15.07	-56.7	-61.5	3.7	0.00e+00	0	50	104	0	84	25924
2026-01-04 07:59:57.13	169.97	15.30	-56.5	-61.4	3.7	0.00e+00	0	50	104	0	84	25609
2026-01-04 07:59:57.96	169.99	15.42	-56.6	-61.5	3.7	0.00e+00	0	50	104	0	84	25919
2026-01-04 07:59:59.10	170.02	15.58	-56.7	-61.6	3.7	0.00e+00	0	50	104	0	84	26029
2026-01-04 07:59:59.96	170.05	15.71	-56.6	-61.5	3.7	0.00e+00	0	50	104	0	84	25970
2026-01-04 08:00:01.15	170.08	15.88	-56.6	-61.4	3.7	0.00e+00	0	50	104	0	84	25542
2026-01-04 08:00:02.42	170.12	16.07	-56.5	-61.4	3.7	0.00e+00	0	50	104	0	84	25625
2026-01-04 08:00:03.15	170.14	16.18	-56.5	-61.4	3.7	0.00e+00	0	50	104	0	84	25576
2026-01-04 08:00:04.44	170.18	16.37	-56.5	-61.3	3.7	0.00e+00	0	50	104	0	84	25320
2026-01-04 08:00:05.16	170.21	16.48	-56.5	-61.4	3.7	0.00e+00	0	50	104	0	84	25639
2026-01-04 08:00:06.46	170.25	16.67	-56.5	-61.3	3.6	0.00e+00	0	50	104	0	84	25144
2026-01-04 08:00:07.18	170.27	16.78	-56.5	-61.4	3.7	0.00e+00	0	50	104	0	84	25422
2026-01-04 08:00:08.47	170.31	16.98	-56.3	-61.0	3.7	0.00e+00	0	50	104	0	84	24523
2026-01-04 08:00:09.18	170.34	17.09	-56.6	-61.5	3.7	0.00e+00	0	50	104	0	84	25770
2026-01-04 08:00:10.47	170.38	17.30	-56.4	-61.2	3.7	0.00e+00	0	50	104	0	84	24851
2026-01-04 08:00:11.19	170.40	17.41	-56.4	-61.2	3.7	0.00e+00	0	50	104	0	84	24814
2026-01-04 08:00:12.67	170.45	17.65	-56.6	-61.3	3.7	0.00e+00	0	50	104	0	84	25342
2026-01-04 08:00:13.38	170.48	17.76	-56.8	-61.5	3.7	0.00e+00	0	50	104	0	84	25873
2026-01-04 08:00:14.68	170.52	17.97	-56.9	-61.5	3.7	0.00e+00	0	50	104	0	84	25680
2026-01-04 08:00:15.39	170.55	18.09	-56.9	-61.5	3.7	0.00e+00	0	50	104	0	84	25791
2026-01-04 08:00:16.68	170.59	18.30	-57.2	-61.8	3.7	0.00e+00	0	50	104	0	85	25107
2026-01-04 08:00:17.40	170.62	18.42	-57.3	-61.8	3.7	0.00e+00	0	50	104	0	85	25333
2026-01-04 08:00:18.69	170.67	18.64	-57.3	-61.9	3.7	0.00e+00	0	50	104	0	85	25493
2026-01-04 08:00:19.40	170.69	18.76	-57.3	-61.8	3.7	0.00e+00	0	50	104	0	85	25258
2026-01-04 08:00:20.70	170.74	18.98	-57.1	-61.7	3.7	0.00e+00	0	50	104	0	85	24919
2026-01-04 08:00:21.41	170.77	19.10	-57.1	-61.7	3.7	0.00e+00	0	50	104	0	85	25012
2026-01-04 08:00:22.70	170.82	19.33	-57.2	-61.8	3.7	0.00e+00	0	50	104	0	85	25381
2026-01-04 08:00:23.56	170.85	19.48	-57.2	-61.7	3.7	0.00e+00	0	50	104	0	85	24921
2026-01-04 08:00:24.71	170.89	19.68	-57.2	-61.7	3.7	0.00e+00	0	50	104	0	85	24874
2026-01-04 08:00:25.57	170.93	19.84	-57.1	-61.6	3.7	0.00e+00	0	50	104	0	85	24536
2026-01-04 08:00:26.72	170.97	20.05	-57.0	-61.7	3.7	0.00e+00	0	50	104	0	85	24851
2026-01-04 08:00:27.57	171.01	20.20	-57.2	-61.6	3.7	0.00e+00	0	50	104	0	85	24758
2026-01-04 08:00:28.72	171.05	20.41	-56.9	-61.6	3.7	0.00e+00	0	50	104	0	85	24546
2026-01-04 08:00:29.58	171.09	20.57	-57.1	-61.6	3.7	0.00e+00	0	50	104	0	85	24795
2026-01-04 08:00:30.73	171.14	20.79	-57.1	-61.8	3.7	0.00e+00	0	50	104	0	85	25257
2026-01-04 08:00:31.58	171.18	20.95	-56.9	-61.5	3.7	0.00e+00	0	50	104	0	85	24480
2026-01-04 08:00:32.73	171.22	21.17	-56.9	-61.5	3.7	0.00e+00	0	50	104	0	85	24283
2026-01-04 08:00:33.60	171.26	21.34	-57.0	-61.6	3.7	0.00e+00	0	50	104	0	85	24668
2026-01-04 08:00:34.91	171.32	21.59	-56.8	-61.5	3.7	0.00e+00	0	50	104	0	85	24425
2026-01-04 08:00:35.63	171.35	21.73	-56.9	-61.5	3.7	0.00e+00	0	50	104	0	85	24263
2026-01-04 08:00:37.09	171.42	22.02	-56.3	-61.1	3.7	0.00e+00	0	50	104	0	84	24738
2026-01-04 08:00:37.81	171.45	22.17	-56.8	-61.5	3.7	0.00e+00	0	50	104	0	84	25712
2026-01-04 08:00:39.23	171.52	22.46	-56.3	-61.2	3.7	0.00e+00	0	51	104	0	84	25035
2026-01-04 08:00:39.95	171.55	22.61	-56.1	-61.0	3.7	0.00e+00	0	50	104	0	84	24465
2026-01-04 08:00:41.24	171.62	22.87	-56.6	-61.3	3.7	0.00e+00	0	50	104	0	84	25277
2026-01-04 08:00:41.95	171.65	23.02	-56.3	-61.1	3.7	0.00e+00	0	50	104	0	84	24766
2026-01-04 08:00:43.24	171.72	23.30	-56.7	-61.5	3.7	0.00e+00	0	50	104	0	84	25724
2026-01-04 08:00:43.96	171.75	23.45	-56.6	-61.3	3.7	0.00e+00	0	50	104	0	84	25330
2026-01-04 08:00:45.25	171.82	23.73	-57.0	-61.8	3.7	0.00e+00	0	50	104	0	84	26637
2026-01-04 08:00:45.98	171.86	23.89	-56.6	-61.4	3.7	0.00e+00	0	51	104	0	84	25454
2026-01-04 08:00:47.27	171.92	24.17	-57.0	-61.8	3.7	0.00e+00	0	50	104	0	84	26817
2026-01-04 08:00:47.98	171.96	24.33	-57.3	-61.9	3.7	0.00e+00	0	50	104	0	85	25678
2026-01-04 08:00:49.27	172.03	24.62	-57.3	-61.9	3.7	0.00e+00	0	51	104	0	85	25634
2026-01-04 08:00:49.99	172.07	24.79	-57.3	-62.0	3.7	0.00e+00	0	50	104	0	85	25758
2026-01-04 08:00:51.28	172.14	25.08	-57.3	-61.9	3.7	0.00e+00	0	51	104	0	85	25529
2026-01-04 08:00:52.00	172.19	25.25	-57.3	-61.9	3.7	0.00e+00	0	50	104	0	85	25470
2026-01-04 08:00:53.29	172.26	25.55	-57.3	-61.9	3.7	0.00e+00	0	50	104	0	85	25633
2026-01-04 08:00:54.00	172.30	25.72	-57.3	-62.0	3.7	0.00e+00	0	50	104	0	85	25774
2026-01-04 08:00:55.30	172.38	26.04	-57.2	-61.9	3.7	0.00e+00	0	51	104	0	85	25497
2026-01-04 08:00:56.01	172.42	26.21	-57.1	-61.9	3.7	0.00e+00	0	50	104	0	85	25456
2026-01-04 08:00:57.30	172.50	26.53	-57.3	-61.9	3.7	0.00e+00	0	50	104	0	85	25546
2026-01-04 08:00:58.02	172.55	26.70	-57.3	-62.1	3.7	0.00e+00	0	51	104	0	85	26041
2026-01-04 08:00:59.31	172.63	27.03	-57.3	-61.9	3.7	0.00e+00	0	51	104	0	85	25642
2026-01-04 08:01:00.07	172.68	27.22	-57.5	-62.1	3.7	0.00e+00	0	50	104	0	85	26176
2026-01-04 08:01:01.68	172.78	27.64	-57.4	-62.1	3.7	0.00e+00	0	51	104	0	85	26132
2026-01-04 08:01:02.52	172.84	27.86	-57.6	-62.1	3.7	0.00e+00	0	50	104	0	85	26273
2026-01-04 08:01:03.67	172.92	28.16	-57.7	-62.3	3.7	0.00e+00	0	50	104	0	86	25273
2026-01-04 08:01:04.53	172.98	28.39	-57.7	-62.2	3.7	0.00e+00	0	50	104	0	86	25090
2026-01-04 08:01:05.67	173.06	28.70	-57.7	-62.2	3.7	0.00e+00	0	51	104	0	86	25089
2026-01-04 08:01:06.53	173.12	28.93	-57.5	-62.2	3.7	0.00e+00	0	51	104	0	86	24860
2026-01-04 08:01:07.68	173.21	29.25	-57.7	-62.3	3.7	0.00e+00	0	50	104	0	86	25273
2026-01-04 08:01:08.54	173.27	29.49	-57.6	-62.2	3.7	0.00e+00	0	50	104	0	86	25073
2026-01-04 08:01:09.69	173.36	29.82	-57.6	-62.2	3.7	0.00e+00	0	51	104	0	86	24945
2026-01-04 08:01:10.55	173.43	30.06	-57.7	-62.3	3.7	0.00e+00	0	50	104	0	86	25295
2026-01-04 08:01:11.70	173.52	30.40	-57.8	-62.4	3.7	0.00e+00	0	50	104	0	86	25539
2026-01-04 08:01:12.55	173.59	30.65	-57.8	-62.4	3.7	0.00e+00	0	51	104	0	86	25540
2026-01-04 08:01:13.70	173.68	30.99	-57.7	-62.3	3.7	0.00e+00	0	51	104	0	86	25194
2026-01-04 08:01:14.72	173.77	31.29	-57.4	-62.2	3.7	0.00e+00	0	50	104	0	86	24853
2026-01-04 08:01:15.89	173.87	31.65	-57.6	-62.4	3.7	0.00e+00	0	51	104	0	86	25387
2026-01-04 08:01:16.80	173.95	31.93	-57.5	-62.3	3.7	0.00e+00	0	50	104	0	86	25131
2026-01-04 08:01:17.99	174.05	32.30	-57.7	-62.4	3.7	0.00e+00	0	51	104	0	86	25486
2026-01-04 08:01:18.84	174.13	32.57	-57.5	-62.1	3.7	0.00e+00	0	51	104	0	86	24634
2026-01-04 08:01:19.99	174.24	32.94	-57.5	-62.1	3.7	0.00e+00	0	51	104	0	86	24646
2026-01-04 08:01:20.85	174.32	33.22	-57.6	-62.2	3.7	0.00e+00	0	50	104	0	86	24971
2026-01-04 08:01:22.00	174.43	33.60	-57.8	-62.4	3.7	0.00e+00	0	50	104	0	86	25623
2026-01-04 08:01:22.86	174.52	33.88	-57.6	-62.2	3.7	0.00e+00	0	51	104	0	86	24937
2026-01-04 08:01:24.00	174.63	34.27	-57.7	-62.2	3.7	0.00e+00	0	51	104	0	86	24940
2026-01-04 08:01:24.86	174.72	34.56	-57.5	-62.0	3.7	0.00e+00	0	51	104	0	86	24460
2026-01-04 08:01:26.01	174.84	34.96	-57.7	-62.2	3.7	0.00e+00	0	51	104	0	86	24925
2026-01-04 08:01:26.87	174.93	35.26	-57.7	-62.3	3.7	0.00e+00	0	51	104	0	86	25148
2026-01-04 08:01:28.01	175.06	35.66	-57.5	-62.1	3.7	0.00e+00	0	51	104	0	86	24660
2026-01-04 08:01:28.87	175.16	35.97	-57.7	-62.2	3.7	0.00e+00	0	51	104	0	86	24854
2026-01-04 08:01:30.02	175.29	36.39	-57.8	-62.3	3.7	0.00e+00	0	51	104	0	86	25376
2026-01-04 08:01:30.88	175.39	36.70	-57.6	-62.1	3.7	0.00e+00	0	51	104	0	86	24759
2026-01-04 08:01:32.03	175.53	37.13	-57.8	-62.4	3.7	0.00e+00	0	51	104	0	86	25406
2026-01-04 08:01:32.89	175.64	37.46	-57.7	-62.2	3.7	0.00e+00	0	51	104	0	86	24997
2026-01-04 08:01:34.03	175.78	37.89	-57.5	-62.1	3.7	0.00e+00	0	51	104	0	86	24687
2026-01-04 08:01:34.89	175.89	38.22	-57.3	-61.8	3.7	0.00e+00	0	51	104	0	86	23913
2026-01-04 08:01:36.04	176.05	38.68	-57.3	-61.9	3.7	0.00e+00	0	51	104	0	86	23968
2026-01-04 08:01:36.90	176.16	39.02	-57.1	-61.7	3.7	0.00e+00	0	51	104	0	86	23672
2026-01-04 08:01:38.04	176.32	39.48	-57.5	-62.0	3.7	0.00e+00	0	51	104	0	86	24368
2026-01-04 08:01:38.90	176.45	39.83	-57.5	-62.1	3.7	0.00e+00	0	51	104	0	86	24764
2026-01-04 08:01:40.05	176.62	40.30	-57.7	-62.2	3.7	0.00e+00	0	51	104	0	86	24982
2026-01-04 08:01:40.91	176.75	40.66	-57.6	-62.1	3.7	0.00e+00	0	51	104	0	86	24673
2026-01-04 08:01:42.15	176.94	41.19	-57.6	-62.1	3.7	0.00e+00	0	51	104	0	86	24524
2026-01-04 08:01:43.41	177.14	41.73	-57.7	-62.2	3.7	0.00e+00	0	51	104	0	86	24933
2026-01-04 08:01:44.13	177.26	42.04	-57.9	-62.4	3.7	0.00e+00	0	51	104	0	86	25610
2026-01-04 08:01:45.42	177.48	42.62	-57.9	-62.4	3.7	0.00e+00	0	51	104	0	86	25406
2026-01-04 08:01:46.14	177.61	42.94	-57.8	-62.3	3.7	0.00e+00	0	51	104	0	86	25286
2026-01-04 08:01:47.47	177.85	43.54	-57.9	-62.4	3.7	0.00e+00	0	51	104	0	86	25456
2026-01-04 08:01:48.19	177.98	43.87	-57.8	-62.3	3.7	0.00e+00	0	51	104	0	86	25341
2026-01-04 08:01:49.56	178.24	44.51	-57.8	-62.3	3.7	0.00e+00	0	51	104	0	86	25252
2026-01-04 08:01:50.28	178.39	44.85	-57.8	-62.3	3.7	0.00e+00	0	51	104	0	86	25249
2026-01-04 08:01:51.56	178.65	45.46	-57.8	-62.3	3.7	0.00e+00	0	51	104	0	86	25150
2026-01-04 08:01:52.28	178.80	45.81	-57.7	-62.3	3.7	0.00e+00	0	51	104	0	86	25162
2026-01-04 08:01:53.73	179.11	46.52	-57.7	-62.3	3.7	0.00e+00	0	51	104	0	86	25119
2026-01-04 08:01:54.44	179.27	46.88	-57.7	-62.3	3.7	0.00e+00	0	51	104	0	86	25143
2026-01-04 08:01:55.73	179.57	47.53	-57.7	-62.0	3.7	0.00e+00	0	51	104	0	86	24374
2026-01-04 08:01:56.45	179.75	47.89	-57.7	-62.0	3.7	0.00e+00	0	51	104	0	86	24464
2026-01-04 08:01:57.74	180.07	48.56	-57.8	-62.2	3.7	0.00e+00	0	51	104	0	86	24889
2026-01-04 08:01:58.45	180.25	48.93	-57.5	-61.9	3.7	0.00e+00	0	51	104	0	86	24015
2026-01-04 08:01:59.74	180.59	49.61	-57.6	-62.0	3.7	0.00e+00	0	51	104	0	86	24416
2026-01-04 08:02:00.45	180.79	50.00	-57.5	-62.0	3.7	0.00e+00	0	51	104	0	86	24385
2026-01-04 08:02:01.74	181.16	50.69	-57.6	-62.0	3.7	0.00e+00	0	51	104	0	86	24369
2026-01-04 08:02:02.46	181.37	51.09	-57.6	-62.1	3.7	0.00e+00	0	51	104	0	86	24799
2026-01-04 08:02:03.75	181.77	51.80	-57.9	-62.4	3.7	0.00e+00	0	51	104	0	86	25444
2026-01-04 08:02:04.59	182.04	52.28	-57.9	-62.4	3.7	0.00e+00	0	51	104	0	86	25446
2026-01-04 08:02:05.73	182.42	52.92	-57.8	-62.4	3.7	0.00e+00	0	51	104	0	86	25527
2026-01-04 08:02:06.59	182.71	53.42	-57.9	-62.4	3.7	0.00e+00	0	51	104	0	86	25606
2026-01-04 08:02:07.74	183.13	54.08	-57.4	-62.1	3.7	0.00e+00	0	51	104	0	86	24542
2026-01-04 08:02:08.60	183.45	54.59	-57.4	-62.1	3.7	0.00e+00	0	51	104	0	86	24604
2026-01-04 08:02:09.74	183.90	55.26	-57.1	-61.9	3.7	0.00e+00	0	51	104	0	86	24129
2026-01-04 08:02:10.60	184.25	55.78	-57.3	-62.1	3.7	0.00e+00	0	51	104	0	86	24655
2026-01-04 08:02:11.75	184.74	56.47	-58.0	-62.4	3.7	0.00e+00	0	51	104	0	86	25603
2026-01-04 08:02:12.60	185.12	56.99	-58.0	-62.5	3.7	0.00e+00	0	51	104	0	86	25685
2026-01-04 08:02:13.75	185.66	57.70	-57.8	-62.4	3.7	0.00e+00	0	51	104	0	86	25472
2026-01-04 08:02:14.61	186.08	58.23	-57.8	-62.3	3.7	0.00e+00	0	51	104	0	86	25108
2026-01-04 08:02:15.76	186.67	58.95	-57.8	-62.3	3.7	0.00e+00	0	51	104	0	86	25203
2026-01-04 08:02:16.62	187.13	59.49	-57.8	-62.3	3.7	0.00e+00	0	51	104	0	86	25163
2026-01-04 08:02:17.76	187.77	60.22	-57.6	-62.2	3.7	0.00e+00	0	51	104	0	86	24846
2026-01-04 08:02:18.62	188.28	60.77	-57.6	-62.3	3.7	0.00e+00	0	51	104	0	86	25363
2026-01-04 08:02:19.77	189.00	61.51	-58.0	-62.6	3.7	0.00e+00	0	51	104	0	86	26027
2026-01-04 08:02:20.63	189.57	62.07	-58.0	-62.6	3.7	0.00e+00	0	51	104	0	86	26091
2026-01-04 08:02:21.77	190.36	62.81	-58.2	-62.7	3.7	0.00e+00	0	51	104	0	87	24971
2026-01-04 08:02:22.63	190.99	63.37	-57.9	-62.4	3.7	0.00e+00	0	51	104	0	87	24216
2026-01-04 08:02:23.78	191.89	64.13	-57.6	-62.3	3.7	0.00e+00	0	51	104	0	87	23841
2026-01-04 08:02:24.64	192.60	64.70	-57.5	-62.3	3.7	0.00e+00	0	51	104	0	87	23815
2026-01-04 08:02:25.78	193.59	65.45	-57.8	-62.4	3.7	0.00e+00	0	51	104	0	87	24181
2026-01-04 08:02:26.65	194.40	66.02	-57.8	-62.5	3.7	0.00e+00	0	51	104	0	87	24257
2026-01-04 08:02:27.79	195.52	66.78	-57.5	-62.3	3.7	0.00e+00	0	51	104	0	86	25351
2026-01-04 08:02:28.78	196.56	67.43	-57.5	-62.4	3.7	0.00e+00	0	51	104	0	86	25415
2026-01-04 08:02:29.97	197.90	68.21	-58.1	-62.6	3.7	0.00e+00	0	51	104	0	86	26262
2026-01-04 08:02:30.83	198.94	68.78	-58.1	-62.6	3.7	0.00e+00	0	51	104	0	86	26127
2026-01-04 08:02:31.98	200.43	69.53	-58.2	-62.7	3.7	0.00e+00	0	50	104	0	86	26417
2026-01-04 08:02:32.84	201.61	70.08	-58.1	-62.6	3.7	0.00e+00	0	51	104	0	87	24802
2026-01-04 08:02:33.98	203.30	70.81	-58.0	-62.6	3.7	0.00e+00	0	51	104	0	87	24571
2026-01-04 08:02:34.84	204.67	71.35	-57.8	-62.5	3.7	0.00e+00	0	51	104	0	87	24305
2026-01-04 08:02:35.99	206.63	72.06	-57.9	-62.4	3.7	0.00e+00	0	51	104	0	87	24190
2026-01-04 08:02:36.85	208.21	72.58	-57.9	-62.5	3.7	0.00e+00	0	51	104	0	87	24295
2026-01-04 08:02:38.00	210.48	73.27	-57.2	-62.1	3.7	0.00e+00	0	51	104	0	86	24635
2026-01-04 08:02:38.86	212.31	73.76	-58.0	-62.6	3.7	0.00e+00	0	51	104	0	86	25990
2026-01-04 08:02:40.00	214.92	74.39	-57.7	-62.4	3.7	0.00e+00	0	51	104	0	86	25406
2026-01-04 08:02:40.86	217.03	74.85	-57.7	-62.3	3.7	0.00e+00	0	51	104	0	86	25357
2026-01-04 08:02:42.01	220.07	75.43	-57.9	-62.3	3.7	0.00e+00	0	51	104	0	86	25236
2026-01-04 08:02:42.87	222.50	75.84	-57.7	-62.4	3.7	0.00e+00	0	51	104	0	86	25392
2026-01-04 08:02:44.02	225.99	76.35	-58.1	-62.6	3.7	0.00e+00	0	51	104	0	86	26088
2026-01-04 08:02:44.88	228.77	76.69	-58.0	-62.6	3.7	0.00e+00	0	51	104	0	86	26042
2026-01-04 08:02:46.02	232.68	77.11	-57.5	-62.2	3.7	0.00e+00	0	51	104	0	86	24983
2026-01-04 08:02:46.88	235.79	77.38	-57.7	-62.2	3.7	0.00e+00	0	51	104	0	86	25001
2026-01-04 08:02:48.03	240.15	77.68	-57.4	-62.2	3.7	0.00e+00	0	51	104	0	86	25012
2026-01-04 08:02:48.89	243.54	77.86	-57.4	-62.2	3.7	0.00e+00	0	51	104	0	86	25065
2026-01-04 08:02:50.04	248.22	78.03	-57.6	-62.2	3.7	0.00e+00	0	51	104	0	86	25078
2026-01-04 08:02:50.90	251.79	78.11	-57.5	-61.9	3.7	0.00e+00	0	51	104	0	86	24176
2026-01-04 08:02:52.04	256.57	78.14	-57.1	-61.9	3.7	0.00e+00	0	51	104	0	86	24216
2026-01-04 08:02:52.90	260.18	78.11	-57.2	-62.0	3.7	0.00e+00	0	51	104	0	86	24284
2026-01-04 08:02:54.05	264.95	78.01	-57.6	-62.2	3.7	0.00e+00	0	51	104	0	86	24867
2026-01-04 08:02:54.91	268.44	77.87	-57.5	-61.8	3.7	0.00e+00	0	51	104	0	86	23780
2026-01-04 08:02:56.15	273.31	77.61	-57.6	-62.0	3.7	0.00e+00	0	51	104	0	86	24306
2026-01-04 08:02:57.42	278.05	77.25	-57.5	-61.9	3.7	0.00e+00	0	51	104	0	86	24143
2026-01-04 08:02:58.14	280.60	77.01	-57.6	-62.1	3.7	0.00e+00	0	51	104	0	86	24795
2026-01-04 08:02:59.43	284.93	76.53	-57.4	-61.8	3.7	0.00e+00	0	51	104	0	86	23787
2026-01-04 08:03:00.14	287.18	76.23	-57.5	-61.9	3.7	0.00e+00	0	51	104	0	86	24130
2026-01-04 08:03:01.49	291.16	75.62	-57.5	-61.9	3.7	0.00e+00	0	51	104	0	86	24194
2026-01-04 08:03:02.21	293.14	75.27	-57.5	-62.0	3.7	0.00e+00	0	51	104	0	86	24404
2026-01-04 08:03:03.50	296.45	74.60	-57.9	-62.4	3.7	0.00e+00	0	51	104	0	86	25499
2026-01-04 08:03:04.21	298.15	74.22	-57.7	-62.4	3.7	0.00e+00	0	51	104	0	86	25399
2026-01-04 08:03:05.63	301.28	73.42	-57.6	-62.3	3.7	0.00e+00	0	51	104	0	86	25172
2026-01-04 08:03:06.35	302.75	73.00	-57.7	-62.4	3.7	0.00e+00	0	51	104	0	86	25469
2026-01-04 08:03:07.63	305.18	72.23	-57.5	-62.2	3.7	0.00e+00	0	51	104	0	86	24941
2026-01-04 08:03:08.35	306.45	71.79	-57.7	-62.3	3.7	0.00e+00	0	51	104	0	86	25227
2026-01-04 08:03:09.76	308.76	70.91	-58.0	-62.4	3.7	0.00e+00	0	51	104	0	86	25515
2026-01-04 08:03:10.48	309.85	70.45	-57.4	-61.8	3.7	0.00e+00	0	51	104	0	86	23877
2026-01-04 08:03:11.77	311.68	69.63	-57.8	-62.0	3.7	0.00e+00	0	51	104	0	86	24396
2026-01-04 08:03:12.49	312.63	69.16	-57.7	-62.0	3.7	0.00e+00	0	51	104	0	86	24288
2026-01-04 08:03:13.77	314.21	68.32	-57.6	-62.0	3.7	0.00e+00	0	51	104	0	86	24334
2026-01-04 08:03:14.49	315.04	67.85	-57.7	-61.9	3.7	0.00e+00	0	51	104	0	86	24230
2026-01-04 08:03:15.78	316.44	67.00	-57.9	-62.2	3.7	0.00e+00	0	51	104	0	86	25057
2026-01-04 08:03:16.50	317.17	66.53	-57.9	-62.2	3.7	0.00e+00	0	51	104	0	86	24869
2026-01-04 08:03:17.78	318.39	65.69	-57.6	-62.1	3.7	0.00e+00	0	51	104	0	86	24658
2026-01-04 08:03:18.56	319.09	65.17	-57.6	-62.2	3.7	0.00e+00	0	51	104	0	86	25028
2026-01-04 08:03:19.85	320.18	64.32	-57.9	-62.5	3.7	0.00e+00	0	51	104	0	86	25733
2026-01-04 08:03:20.60	320.78	63.83	-57.8	-62.4	3.7	0.00e+00	0	51	104	0	86	25532
2026-01-04 08:03:21.89	321.75	62.99	-57.7	-62.3	3.7	0.00e+00	0	51	104	0	86	25226
2026-01-04 08:03:22.67	322.31	62.48	-57.1	-61.9	3.7	0.00e+00	0	51	104	0	86	24053
2026-01-04 08:03:24.19	323.32	61.50	-57.9	-62.4	3.7	0.00e+00	0	51	104	0	86	25597
2026-01-04 08:03:24.90	323.77	61.04	-57.7	-62.4	3.7	0.00e+00	0	51	104	0	86	25495
2026-01-04 08:03:26.19	324.54	60.22	-57.7	-62.3	3.7	0.00e+00	0	51	104	0	86	25361
2026-01-04 08:03:26.91	324.95	59.76	-57.7	-62.4	3.7	0.00e+00	0	51	104	0	86	25571
2026-01-04 08:03:28.19	325.64	58.95	-57.8	-62.4	3.7	0.00e+00	0	51	104	0	86	25505
2026-01-04 08:03:28.91	326.01	58.50	-57.7	-62.4	3.7	0.00e+00	0	51	104	0	86	25507
2026-01-04 08:03:30.20	326.65	57.70	-58.0	-62.5	3.7	0.00e+00	0	51	104	0	86	25705
2026-01-04 08:03:30.98	327.01	57.23	-57.9	-62.5	3.7	0.00e+00	0	51	104	0	86	25914
2026-01-04 08:03:32.27	327.59	56.44	-57.9	-62.5	3.7	0.00e+00	0	51	104	0	86	25906
2026-01-04 08:03:33.08	327.94	55.95	-57.9	-62.5	3.7	0.00e+00	0	51	104	0	86	25760
2026-01-04 08:03:34.54	328.53	55.08	-57.7	-62.4	3.7	0.00e+00	0	51	104	0	86	25467
2026-01-04 08:03:35.26	328.81	54.66	-57.7	-62.3	3.7	0.00e+00	0	51	104	0	86	25296
2026-01-04 08:03:36.55	329.29	53.91	-58.0	-62.5	3.7	0.00e+00	0	51	104	0	86	25963
2026-01-04 08:03:37.27	329.55	53.49	-58.0	-62.6	3.7	0.00e+00	0	51	104	0	86	25983
2026-01-04 08:03:38.56	330.00	52.76	-57.4	-62.2	3.7	0.00e+00	0	51	104	0	86	24823
2026-01-04 08:03:39.27	330.23	52.36	-57.3	-62.2	3.7	0.00e+00	0	51	104	0	86	24865
2026-01-04 08:03:40.56	330.64	51.64	-57.8	-62.5	3.7	0.00e+00	0	51	104	0	86	25730
2026-01-04 08:03:41.28	330.86	51.24	-57.8	-62.5	3.7	0.00e+00	0	51	104	0	86	25713
2026-01-04 08:03:42.56	331.24	50.54	-57.7	-62.4	3.7	0.00e+00	0	51	104	0	86	25615
2026-01-04 08:03:43.28	331.44	50.15	-57.1	-62.1	3.7	0.00e+00	0	51	104	0	86	24659
2026-01-04 08:03:44.57	331.80	49.47	-57.0	-62.0	3.7	0.00e+00	0	51	104	0	85	25811
2026-01-04 08:03:45.29	331.99	49.09	-57.0	-62.0	3.7	0.00e+00	0	51	104	0	85	25845
2026-01-04 08:03:46.64	332.33	48.38	-57.9	-62.5	3.7	0.00e+00	0	51	104	0	86	25748
2026-01-04 08:03:47.36	332.51	48.02	-58.0	-62.6	3.7	0.00e+00	0	51	104	0	86	26017
2026-01-04 08:03:48.64	332.82	47.37	-58.0	-62.6	3.7	0.00e+00	0	51	104	0	86	26022
2026-01-04 08:03:49.70	333.06	46.84	-57.9	-62.5	3.7	0.00e+00	0	51	104	0	86	25860
2026-01-04 08:03:50.56	333.25	46.41	-57.9	-62.5	3.7	0.00e+00	0	51	104	0	86	25906
2026-01-04 08:03:51.70	333.50	45.86	-57.6	-62.4	3.7	0.00e+00	0	51	104	0	86	25402
2026-01-04 08:03:52.56	333.68	45.44	-57.4	-62.3	3.7	0.00e+00	0	51	104	0	86	25262
2026-01-04 08:03:53.71	333.91	44.89	-57.2	-62.1	3.7	0.00e+00	0	51	104	0	86	24660
2026-01-04 08:03:54.57	334.08	44.49	-57.4	-62.2	3.7	0.00e+00	0	51	104	0	86	24920
2026-01-04 08:03:55.72	334.30	43.96	-57.4	-62.2	3.7	0.00e+00	0	51	104	0	86	24855
2026-01-04 08:03:56.57	334.46	43.57	-57.3	-62.1	3.7	0.00e+00	0	51	104	0	86	24786
2026-01-04 08:03:57.72	334.66	43.05	-57.0	-62.0	3.7	0.00e+00	0	51	104	0	85	25900
2026-01-04 08:03:58.66	334.83	42.63	-57.3	-62.2	3.7	0.00e+00	0	51	104	0	85	26531
2026-01-04 08:03:59.66	335.00	42.19	-57.2	-62.1	3.7	0.00e+00	0	51	104	0	85	26233
2026-01-04 08:04:00.67	335.17	41.75	-57.2	-62.2	3.7	0.00e+00	0	51	104	0	85	26288
2026-01-04 08:04:01.67	335.33	41.32	-56.8	-61.9	3.7	0.00e+00	0	51	104	0	85	25584
2026-01-04 08:04:02.67	335.48	40.90	-57.1	-62.1	3.7	0.00e+00	0	51	104	0	85	26243
2026-01-04 08:04:03.67	335.64	40.48	-56.9	-62.1	3.7	0.00e+00	0	51	104	0	85	26041
2026-01-04 08:04:04.68	335.79	40.06	-57.4	-62.3	3.7	0.00e+00	0	51	104	0	85	26725
2026-01-04 08:04:05.68	335.93	39.66	-57.6	-62.4	3.7	0.00e+00	0	51	104	0	85	26980
2026-01-04 08:04:06.68	336.07	39.25	-57.3	-62.2	3.7	0.00e+00	0	51	104	0	85	26313
2026-01-04 08:04:07.69	336.21	38.85	-57.4	-62.2	3.7	0.00e+00	0	51	104	0	85	26463
2026-01-04 08:04:08.69	336.35	38.46	-57.3	-62.2	3.7	0.00e+00	0	51	104	0	85	26407
2026-01-04 08:04:09.69	336.48	38.08	-57.6	-62.3	3.7	0.00e+00	0	51	104	0	85	26872
2026-01-04 08:04:10.77	336.61	37.66	-57.7	-62.5	3.7	0.00e+00	0	51	104	0	86	25763
2026-01-04 08:04:11.67	336.73	37.32	-57.8	-62.5	3.7	0.00e+00	0	51	104	0	86	25857
2026-01-04 08:04:12.98	336.89	36.84	-57.6	-62.5	3.7	0.00e+00	0	51	104	0	86	25692
2026-01-04 08:04:13.70	336.97	36.57	-57.7	-62.5	3.7	0.00e+00	0	51	104	0	86	25684
2026-01-04 08:04:14.99	337.12	36.11	-57.0	-61.9	3.7	0.00e+00	0	51	104	0	86	24157
2026-01-04 08:04:15.71	337.20	35.85	-57.6	-62.3	3.7	0.00e+00	0	51	104	0	86	25237
2026-01-04 08:04:17.00	337.34	35.39	-56.6	-61.6	3.7	0.00e+00	0	51	104	0	85	24807
2026-01-04 08:04:17.72	337.42	35.14	-56.2	-61.5	3.7	0.00e+00	0	51	104	0	84	25750
2026-01-04 08:04:19.00	337.56	34.70	-56.6	-61.7	3.7	0.00e+00	0	51	104	0	84	26491
2026-01-04 08:04:19.72	337.63	34.46	-56.1	-61.5	3.7	0.00e+00	0	51	104	0	84	25742
2026-01-04 08:04:21.01	337.76	34.02	-56.5	-61.4	3.7	0.00e+00	0	51	104	0	83	26949
2026-01-04 08:04:21.73	337.84	33.78	-57.2	-62.1	3.7	0.00e+00	0	51	104	0	85	26052
2026-01-04 08:04:23.02	337.96	33.36	-57.1	-61.9	3.7	0.00e+00	0	51	104	0	85	25503
2026-01-04 08:04:23.74	338.03	33.13	-57.1	-61.8	3.7	0.00e+00	0	51	104	0	85	25162
2026-01-04 08:04:25.02	338.15	32.72	-57.0	-61.8	3.7	0.00e+00	0	51	104	0	85	25232
2026-01-04 08:04:25.74	338.22	32.49	-56.9	-61.7	3.7	0.00e+00	0	51	104	0	85	24933
2026-01-04 08:04:27.03	338.33	32.09	-56.7	-61.5	3.7	0.00e+00	0	51	104	0	85	24452
2026-01-04 08:04:27.74	338.39	31.87	-56.5	-61.3	3.7	0.00e+00	0	51	104	0	85	23858
2026-01-04 08:04:29.03	338.51	31.48	-55.7	-60.8	3.7	0.00e+00	0	51	104	0	83	25298
2026-01-04 08:04:29.75	338.57	31.26	-55.4	-60.7	3.7	0.00e+00	0	51	104	0	82	26417
2026-01-04 08:04:31.04	338.67	30.88	-55.4	-60.6	3.7	0.00e+00	0	51	104	0	82	26165
2026-01-04 08:04:31.75	338.73	30.67	-56.0	-61.0	3.7	0.00e+00	0	51	104	0	82	27219
2026-01-04 08:04:33.04	338.84	30.30	-55.4	-60.5	3.7	0.00e+00	0	51	104	0	82	25715
2026-01-04 08:04:33.76	338.89	30.09	-55.9	-60.8	3.7	0.00e+00	0	51	104	0	82	26789
2026-01-04 08:04:35.05	338.99	29.72	-56.2	-61.0	3.7	0.00e+00	0	51	104	0	83	25957
2026-01-04 08:04:35.77	339.05	29.52	-56.6	-61.3	3.7	0.00e+00	0	51	104	0	83	26805
2026-01-04 08:04:37.05	339.14	29.17	-56.3	-61.1	3.7	0.00e+00	0	51	104	0	83	26087
2026-01-04 08:04:37.77	339.19	28.97	-56.4	-61.0	3.7	0.00e+00	0	51	104	0	83	25716
2026-01-04 08:04:39.06	339.29	28.62	-57.0	-61.6	3.7	0.00e+00	0	51	104	0	84	26262
2026-01-04 08:04:39.78	339.34	28.43	-57.1	-61.2	3.7	0.00e+00	0	51	104	0	84	24995
2026-01-04 08:04:41.07	339.43	28.09	-56.8	-61.1	3.7	0.00e+00	0	51	104	0	84	24760
2026-01-04 08:04:41.84	339.48	27.89	-57.1	-61.2	3.7	0.00e+00	0	51	104	0	84	24884
2026-01-04 08:04:43.12	339.56	27.56	-56.8	-61.1	3.7	0.00e+00	0	51	104	0	84	24689
2026-01-04 08:04:43.84	339.61	27.37	-56.7	-61.1	3.7	0.00e+00	0	51	104	0	84	24579
2026-01-04 08:04:45.13	339.70	27.05	-56.3	-60.9	3.7	0.00e+00	0	51	104	0	84	24240
2026-01-04 08:04:45.84	339.74	26.87	-56.5	-61.2	3.7	0.00e+00	0	51	104	0	84	24957
2026-01-04 08:04:47.13	339.82	26.55	-56.3	-61.1	3.7	0.00e+00	0	51	104	0	84	24753
2026-01-04 08:04:48.11	339.88	26.31	-56.6	-61.0	3.7	0.00e+00	0	51	104	0	84	24400
2026-01-04 08:04:49.42	339.96	26.00	-56.9	-61.2	3.7	0.00e+00	0	51	104	0	84	24969
2026-01-04 08:04:50.14	340.00	25.82	-56.6	-61.0	3.7	0.00e+00	0	51	104	0	84	24291
2026-01-04 08:04:51.78	340.10	25.44	-56.5	-60.9	3.7	0.00e+00	0	51	104	0	84	24121
2026-01-04 08:04:52.35	340.13	25.31	-56.2	-60.8	3.7	0.00e+00	0	51	104	0	84	23853
2026-01-04 08:04:53.96	340.22	24.94	-56.3	-60.8	3.7	0.00e+00	0	51	104	0	83	25269
2026-01-04 08:04:54.54	340.26	24.80	-55.8	-60.6	3.7	0.00e+00	0	51	104	0	83	24560
2026-01-04 08:04:56.13	340.34	24.45	-55.9	-60.7	3.7	0.00e+00	0	51	104	0	83	24971
2026-01-04 08:04:56.83	340.38	24.29	-56.1	-60.9	3.7	0.00e+00	0	51	104	0	83	25453
2026-01-04 08:04:58.12	340.45	24.01	-56.4	-61.1	3.7	0.00e+00	0	51	104	0	83	26160
2026-01-04 08:04:59.08	340.50	23.80	-56.6	-61.3	3.7	0.00e+00	0	51	104	0	83	26597
2026-01-04 08:05:00.40	340.57	23.52	-57.0	-61.6	3.7	0.00e+00	0	51	104	0	84	26108
2026-01-04 08:05:01.11	340.60	23.37	-57.1	-62.0	3.7	0.00e+00	0	51	104	0	84	27495
2026-01-04 08:05:02.75	340.68	23.02	-57.0	-61.7	3.7	0.00e+00	0	51	104	0	84	26384
2026-01-04 08:05:03.33	340.71	22.90	-57.0	-61.7	3.7	0.00e+00	0	51	104	0	84	26539
2026-01-04 08:05:04.90	340.79	22.58	-55.6	-60.7	3.7	0.00e+00	0	51	104	0	83	24976
2026-01-04 08:05:05.48	340.82	22.46	-55.0	-60.5	3.7	0.00e+00	0	51	104	0	82	25799
2026-01-04 08:05:07.05	340.89	22.15	-55.6	-60.7	3.7	0.00e+00	0	51	104	0	81	28064
2026-01-04 08:05:07.64	340.92	22.03	-54.9	-60.4	3.7	0.00e+00	0	51	104	0	81	26997
2026-01-04 08:05:09.22	340.99	21.72	-55.7	-61.0	3.7	0.00e+00	0	51	104	0	81	29025
2026-01-04 08:05:09.81	341.02	21.60	-56.0	-61.2	3.7	0.00e+00	0	51	104	0	82	28037
2026-01-04 08:05:11.39	341.09	21.30	-57.1	-61.9	3.7	0.00e+00	0	51	104	0	85	25445
2026-01-04 08:05:11.98	341.11	21.19	-57.2	-61.9	3.7	0.00e+00	0	51	104	0	85	25522
2026-01-04 08:05:13.55	341.18	20.89	-57.2	-62.0	3.7	0.00e+00	0	51	104	0	85	25933
2026-01-04 08:05:14.14	341.20	20.78	-57.2	-62.1	3.7	0.00e+00	0	51	104	0	85	26090
2026-01-04 08:05:16.08	341.29	20.42	-56.9	-61.7	3.7	0.00e+00	0	51	104	0	84	26493
2026-01-04 08:05:16.66	341.31	20.32	-55.0	-60.6	3.7	0.00e+00	0	51	104	0	82	26099
2026-01-04 08:05:18.23	341.37	20.03	-56.1	-61.4	3.7	0.00e+00	0	51	104	0	82	28640
2026-01-04 08:05:18.81	341.40	19.93	-56.4	-61.6	3.7	0.00e+00	0	51	104	0	83	27676
2026-01-04 08:05:20.38	341.46	19.65	-57.4	-62.3	3.7	0.00e+00	0	51	104	0	85	26662
2026-01-04 08:05:20.96	341.48	19.55	-57.5	-62.3	3.7	0.00e+00	0	51	104	0	85	26824
2026-01-04 08:05:22.55	341.54	19.27	-57.4	-62.2	3.7	0.00e+00	0	51	104	0	85	26359
2026-01-04 08:05:23.12	341.56	19.17	-56.2	-61.6	3.7	0.00e+00	0	51	104	0	84	26016
2026-01-04 08:05:24.97	341.63	18.86	-57.5	-62.3	3.7	0.00e+00	0	51	104	0	85	26701
2026-01-04 08:05:25.54	341.65	18.76	-57.4	-62.2	3.7	0.00e+00	0	51	104	0	85	26406
2026-01-04 08:05:27.12	341.71	18.50	-57.6	-62.4	3.7	0.00e+00	0	51	104	0	85	26956
2026-01-04 08:05:27.72	341.73	18.40	-57.6	-62.4	3.7	0.00e+00	0	51	104	0	85	26924
2026-01-04 08:05:29.30	341.79	18.14	-57.4	-62.2	3.7	0.00e+00	0	51	104	0	85	26305
2026-01-04 08:05:29.89	341.81	18.04	-57.2	-62.1	3.7	0.00e+00	0	51	104	0	85	26043
2026-01-04 08:05:31.46	341.87	17.79	-56.5	-61.7	3.7	0.00e+00	0	51	104	0	84	26342
2026-01-04 08:05:32.06	341.89	17.70	-56.8	-62.0	3.7	0.00e+00	0	51	104	0	84	27298
2026-01-04 08:05:33.77	341.94	17.43	-56.9	-62.0	3.7	0.00e+00	0	51	104	0	84	27445
2026-01-04 08:05:34.34	341.96	17.34	-57.0	-62.1	3.7	0.00e+00	0	51	104	0	84	27675
2026-01-04 08:05:35.93	342.02	17.09	-56.7	-61.9	3.7	0.00e+00	0	51	104	0	84	26970
2026-01-04 08:05:36.51	342.04	17.00	-56.8	-61.9	3.7	0.00e+00	0	51	104	0	84	27155
2026-01-04 08:05:38.11	342.09	16.76	-56.0	-61.5	3.7	0.00e+00	0	51	104	0	84	25685
2026-01-04 08:05:38.69	342.11	16.67	-55.5	-61.0	3.7	0.00e+00	0	51	104	0	83	25963
2026-01-04 08:05:40.28	342.16	16.43	-55.1	-60.7	3.7	0.00e+00	0	51	104	0	82	26420
2026-01-04 08:05:41.08	342.18	16.31	-55.0	-60.7	3.7	0.00e+00	0	51	104	0	82	26425
2026-01-04 08:05:42.22	342.22	16.15	-55.2	-60.9	3.7	0.00e+00	0	51	104	0	82	27006
2026-01-04 08:05:43.08	342.24	16.02	-55.4	-61.0	3.7	0.00e+00	0	51	104	0	82	27362
2026-01-04 08:05:44.23	342.28	15.85	-55.8	-61.3	3.7	0.00e+00	0	51	104	0	82	28168
2026-01-04 08:05:45.09	342.30	15.73	-55.4	-61.0	3.7	0.00e+00	0	51	104	0	82	27307
2026-01-04 08:05:46.35	342.34	15.55	-57.1	-62.2	3.7	0.00e+00	0	51	104	0	85	26341
2026-01-04 08:05:47.09	342.36	15.44	-55.3	-60.9	3.7	0.00e+00	0	51	104	0	82	27076
2026-01-04 08:05:48.62	342.41	15.23	-55.6	-61.2	3.7	0.00e+00	0	51	104	0	82	28032
2026-01-04 08:05:49.34	342.43	15.13	-55.5	-61.1	3.7	0.00e+00	0	51	104	0	82	27699
2026-01-04 08:05:50.63	342.47	14.95	-56.0	-61.5	3.7	0.00e+00	0	51	104	0	82	28828
2026-01-04 08:05:51.70	342.50	14.81	-56.5	-61.8	3.7	0.00e+00	0	51	104	0	83	28296
2026-01-04 08:05:52.56	342.52	14.69	-57.1	-62.2	3.7	0.00e+00	0	51	104	0	84	28117
2026-01-04 08:05:53.71	342.55	14.53	-54.9	-60.7	3.7	0.00e+00	0	51	104	0	81	27894
2026-01-04 08:05:54.57	342.58	14.42	-54.7	-60.5	3.7	0.00e+00	0	51	104	0	81	27394
2026-01-04 08:05:55.71	342.61	14.27	-54.7	-60.7	3.7	0.00e+00	0	51	104	0	81	27936
2026-01-04 08:05:56.57	342.63	14.15	-54.8	-60.7	3.7	0.00e+00	0	51	104	0	81	28119
2026-01-04 08:05:57.72	342.66	14.00	-55.0	-60.9	3.7	0.00e+00	0	51	104	0	81	28518
2026-01-04 08:05:58.63	342.69	13.88	-55.0	-60.9	3.7	0.00e+00	0	51	104	0	81	28601
2026-01-04 08:05:59.81	342.72	13.73	-54.9	-60.8	3.7	0.00e+00	0	51	104	0	81	28313
2026-01-04 08:06:00.72	342.74	13.61	-54.5	-60.4	3.7	0.00e+00	0	51	104	0	81	27059
2026-01-04 08:06:01.91	342.77	13.46	-54.3	-60.2	3.7	0.00e+00	0	51	104	0	80	27913
2026-01-04 08:06:02.77	342.79	13.35	-54.8	-60.7	3.7	0.00e+00	0	51	104	0	80	29647
2026-01-04 08:06:04.11	342.83	13.19	-54.8	-60.6	3.7	0.00e+00	0	51	104	0	80	29431
2026-01-04 08:06:04.83	342.84	13.10	-54.8	-60.8	3.7	0.00e+00	0	51	104	0	80	29994
2026-01-04 08:06:06.12	342.88	12.94	-54.9	-60.8	3.7	0.00e+00	0	51	104	0	80	30100
2026-01-04 08:06:06.83	342.89	12.85	-54.9	-60.7	3.7	0.00e+00	0	51	104	0	80	29823
2026-01-04 08:06:08.12	342.93	12.69	-54.6	-60.6	3.7	0.00e+00	0	51	104	0	80	29157
2026-01-04 08:06:08.87	342.94	12.60	-54.4	-60.3	3.7	0.00e+00	0	51	104	0	80	28245
2026-01-04 08:06:10.16	342.97	12.45	-54.1	-60.0	3.7	0.00e+00	0	51	104	0	79	28849
2026-01-04 08:06:10.97	342.99	12.35	-54.0	-60.0	3.7	0.00e+00	0	51	104	0	79	29114
2026-01-04 08:06:12.12	343.02	12.21	-54.8	-60.7	3.7	0.00e+00	0	51	104	0	80	29711
2026-01-04 08:06:12.98	343.04	12.11	-54.0	-59.9	3.7	0.00e+00	0	52	104	0	80	27194
2026-01-04 08:06:14.12	343.07	11.98	-54.4	-60.3	3.7	0.00e+00	0	51	104	0	80	28235
2026-01-04 08:06:14.99	343.09	11.88	-54.3	-60.2	3.7	0.00e+00	0	51	104	0	80	27909
2026-01-04 08:06:16.13	343.11	11.74	-54.6	-60.4	3.7	0.00e+00	0	51	104	0	80	28767
2026-01-04 08:06:16.99	343.13	11.64	-54.7	-60.5	3.7	0.00e+00	0	51	104	0	80	29036
2026-01-04 08:06:18.14	343.16	11.51	-54.8	-60.6	3.7	0.00e+00	0	51	104	0	80	29352
2026-01-04 08:06:19.00	343.18	11.42	-54.6	-60.6	3.7	0.00e+00	0	51	104	0	80	29226
2026-01-04 08:06:20.14	343.20	11.29	-54.7	-60.6	3.7	0.00e+00	0	51	104	0	80	29463
2026-01-04 08:06:21.01	343.22	11.19	-53.8	-59.9	3.7	0.00e+00	0	51	104	0	79	28612
2026-01-04 08:06:22.15	343.25	11.06	-53.9	-59.8	3.7	0.00e+00	0	51	104	0	79	28317
2026-01-04 08:06:23.09	343.27	10.96	-53.7	-59.9	3.7	0.00e+00	0	51	104	0	79	28532
2026-01-04 08:06:24.29	343.29	10.83	-53.7	-59.8	3.7	0.00e+00	0	51	104	0	79	28273
2026-01-04 08:06:25.15	343.31	10.73	-53.7	-59.9	3.7	0.00e+00	0	51	104	0	79	28508
2026-01-04 08:06:26.52	343.34	10.58	-53.5	-59.7	3.7	0.00e+00	0	51	104	0	79	28090
2026-01-04 08:06:27.24	343.36	10.50	-53.4	-59.6	3.7	0.00e+00	0	51	104	0	78	29409
2026-01-04 08:06:28.53	343.38	10.37	-53.2	-59.5	3.7	0.00e+00	0	51	104	0	78	29123
2026-01-04 08:06:29.24	343.40	10.29	-53.2	-59.6	3.7	0.00e+00	0	51	104	0	78	29171
2026-01-04 08:06:30.53	343.42	10.15	-53.7	-59.8	3.7	0.00e+00	0	51	104	0	78	30130
2026-01-04 08:06:31.25	343.44	10.08	-53.6	-59.9	3.7	0.00e+00	0	51	104	0	78	30334
2026-01-04 08:06:32.54	343.47	9.94	-52.5	-59.0	3.7	0.00e+00	0	51	104	0	77	29027
2026-01-04 08:06:33.25	343.48	9.87	-52.2	-58.8	3.8	0.00e+00	0	51	104	0	75	31655
2026-01-04 08:06:34.54	343.51	9.73	-53.1	-59.7	3.7	0.00e+00	0	51	104	0	78	29546
2026-01-04 08:06:35.26	343.52	9.66	-52.0	-58.6	3.8	0.00e+00	0	51	104	0	76	29420
2026-01-04 08:06:36.59	343.55	9.52	-51.3	-58.0	3.9	0.00e+00	0	51	104	0	74	30673
2026-01-04 08:06:37.57	343.57	9.42	-51.0	-57.8	3.9	0.00e+00	0	51	104	0	74	29963
2026-01-04 08:06:38.57	343.58	9.32	-51.0	-57.8	3.9	0.00e+00	0	51	104	0	74	29934
2026-01-04 08:06:39.58	343.60	9.22	-50.9	-57.7	3.9	0.00e+00	0	51	104	0	73	31306
2026-01-04 08:06:40.58	343.62	9.12	-50.8	-57.6	3.9	0.00e+00	0	51	104	0	73	31187
2026-01-04 08:06:41.58	343.64	9.02	-51.1	-57.8	3.9	0.00e+00	0	51	104	0	73	31846
2026-01-04 08:06:42.59	343.66	8.92	-55.0	-60.9	3.7	0.00e+00	0	51	104	0	80	30461
2026-01-04 08:06:43.59	343.68	8.82	-56.5	-61.8	3.7	0.00e+00	0	51	104	0	84	26740
2026-01-04 08:06:44.59	343.70	8.72	-56.4	-61.6	3.7	0.00e+00	0	51	104	0	83	27725
2026-01-04 08:06:45.60	343.72	8.62	-56.7	-61.8	3.7	0.00e+00	0	52	104	0	85	25192
2026-01-04 08:06:46.60	343.74	8.53	-56.2	-61.3	3.7	0.00e+00	0	51	104	0	83	26748
2026-01-04 08:06:47.61	343.75	8.43	-56.5	-61.5	3.7	0.00e+00	0	51	104	0	85	24319
2026-01-04 08:06:48.61	343.77	8.33	-56.2	-61.2	3.7	0.00e+00	0	51	104	0	84	24922
2026-01-04 08:06:49.61	343.79	8.24	-57.4	-62.2	3.7	0.00e+00	0	51	104	0	85	26465
2026-01-04 08:06:50.61	343.81	8.14	-57.8	-62.4	3.7	0.00e+00	0	51	104	0	86	25661
2026-01-04 08:06:51.62	343.83	8.05	-57.7	-62.4	3.7	0.00e+00	0	51	104	0	86	25539
2026-01-04 08:06:52.62	343.84	7.95	-57.8	-62.6	3.7	0.00e+00	0	51	104	0	86	26135
2026-01-04 08:06:53.63	343.86	7.86	-57.9	-62.6	3.7	0.00e+00	0	51	104	0	86	26174
2026-01-04 08:06:54.63	343.88	7.76	-58.2	-62.8	3.7	0.00e+00	0	51	104	0	87	25319
2026-01-04 08:06:55.63	343.90	7.67	-58.0	-62.5	3.7	0.00e+00	0	51	104	0	87	24344
2026-01-04 08:06:56.64	343.91	7.58	-58.1	-62.6	3.7	0.00e+00	0	52	104	0	87	24736
2026-01-04 08:06:57.64	343.93	7.49	-57.9	-62.5	3.7	0.00e+00	0	51	104	0	87	24474
2026-01-04 08:06:58.64	343.95	7.39	-58.0	-62.6	3.7	0.00e+00	0	51	104	0	87	24777
2026-01-04 08:06:59.65	343.97	7.30	-57.7	-62.7	3.7	0.00e+00	0	51	104	0	87	24820
2026-01-04 08:07:00.65	343.98	7.21	-58.1	-62.8	3.7	0.00e+00	0	51	104	0	87	25132
2026-01-04 08:07:01.66	344.00	7.12	-58.3	-62.9	3.7	0.00e+00	0	51	104	0	87	25593
2026-01-04 08:07:02.66	344.02	7.03	-58.1	-62.8	3.7	0.00e+00	0	51	104	0	87	25138
2026-01-04 08:07:03.67	344.03	6.94	-58.1	-62.7	3.7	0.00e+00	0	51	104	0	87	24898
2026-01-04 08:07:04.67	344.05	6.85	-58.0	-62.6	3.7	0.00e+00	0	51	104	0	87	24636
2026-01-04 08:07:05.68	344.07	6.76	-57.9	-62.5	3.7	0.00e+00	0	51	104	0	87	24339
2026-01-04 08:07:06.68	344.08	6.67	-58.0	-62.3	3.7	0.00e+00	0	51	104	0	87	23836
2026-01-04 08:07:07.68	344.10	6.59	-57.8	-62.2	3.7	0.00e+00	0	51	104	0	86	24946
2026-01-04 08:07:08.69	344.11	6.50	-57.3	-62.0	3.7	0.00e+00	0	51	104	0	86	24358
2026-01-04 08:07:09.69	344.13	6.41	-57.2	-61.9	3.7	0.00e+00	0	51	104	0	86	24125
2026-01-04 08:07:10.69	344.15	6.33	-57.2	-61.9	3.7	0.00e+00	0	51	104	0	86	24151
2026-01-04 08:07:11.70	344.16	6.24	-57.2	-61.9	3.6	0.00e+00	0	51	104	0	86	24105
2026-01-04 08:07:12.70	344.18	6.15	-57.2	-61.9	3.7	0.00e+00	0	51	104	0	86	24096
2026-01-04 08:07:13.71	344.19	6.07	-57.2	-61.9	3.7	0.00e+00	0	51	104	0	86	24072
2026-01-04 08:07:14.71	344.21	5.98	-57.2	-61.8	3.7	0.00e+00	0	51	104	0	86	23955
2026-01-04 08:07:15.72	344.22	5.90	-57.2	-61.9	3.7	0.00e+00	0	51	104	0	86	24186
2026-01-04 08:07:16.72	344.24	5.81	-57.2	-61.9	3.7	0.00e+00	0	51	104	0	86	24090
2026-01-04 08:07:17.72	344.26	5.73	-57.2	-61.9	3.7	0.00e+00	0	51	104	0	86	24127
2026-01-04 08:07:18.73	344.27	5.64	-57.2	-61.9	3.7	0.00e+00	0	51	104	0	86	24157
2026-01-04 08:07:19.73	344.29	5.56	-57.2	-61.9	3.7	0.00e+00	0	51	104	0	86	24091
2026-01-04 08:07:20.74	344.30	5.48	-57.2	-61.9	3.7	0.00e+00	0	51	104	0	86	23983
2026-01-04 08:07:21.74	344.32	5.40	-57.2	-61.9	3.7	0.00e+00	0	51	104	0	86	24074
2026-01-04 08:07:22.75	344.33	5.31	-57.2	-61.9	3.7	0.00e+00	0	51	104	0	86	24119
2026-01-04 08:07:23.75	344.35	5.23	-57.2	-61.8	3.7	0.00e+00	0	51	104	0	86	23964
2026-01-04 08:07:24.76	344.36	5.15	-57.2	-61.9	3.7	0.00e+00	0	51	104	0	86	24096
2026-01-04 08:07:25.76	344.38	5.07	-57.2	-61.9	3.7	0.00e+00	0	51	104	0	86	24142
2026-01-04 08:07:26.76	344.39	4.99	-57.2	-61.9	3.7	0.00e+00	0	51	104	0	86	24072

#Closed at: 2026-01-04 08:07:27
#Recorded file [0 MB]: D:/Data/31040_260104_105820.dat