passes_logs/2026/01/04/T1/T1__20260104_081359_NOAA_20_JPSS-1_rec.log

#Pass ID: 20260104_081359_NOAA 20 (JPSS-1)
#Satellite: NOAA 20 (JPSS-1)
#Configuration: NOAA 20
#almurnet v.1.7.20251203
#Start time: 2026-01-04 08:14:00

#Version: 2.0.20230620
#Station: T1
#Location: 37.570604 lon 55.790049 lat
#TLE: 1 43013U 17073A   26003.91140107  .00000139  00000+0  86966-4 0  9994
#TLE: 2 43013  98.7625 304.9685 0001869  55.4713 304.6639 14.19532967421166

#Time	Az	El	Level	Level2	SNR	BER	BlckErr	Temp	State	Recorded	gain1	gain2
2026-01-04 08:14:00.95	106.34	5.07	-54.1	-69.2	3.8	1.49e+00	0	41	0	0	80	19652
2026-01-04 08:14:01.94	106.26	5.13	-54.1	-69.3	3.8	1.49e+00	0	41	104	0	80	19845
2026-01-04 08:14:02.95	106.17	5.19	-54.1	-69.2	3.8	1.49e+00	0	41	104	0	80	19742
2026-01-04 08:14:03.95	106.09	5.25	-54.1	-69.1	3.8	1.49e+00	0	41	104	0	80	19545
2026-01-04 08:14:04.96	106.00	5.31	-54.2	-69.2	3.8	1.49e+00	0	41	104	0	80	19721
2026-01-04 08:14:05.96	105.91	5.37	-54.1	-69.2	3.8	1.49e+00	0	41	104	0	80	19717
2026-01-04 08:14:06.97	105.82	5.43	-54.2	-69.2	3.8	1.49e+00	0	41	104	0	80	19790
2026-01-04 08:14:07.97	105.74	5.49	-54.1	-69.2	3.8	1.49e+00	0	41	104	0	80	19803
2026-01-04 08:14:08.97	105.65	5.55	-54.2	-69.2	3.8	1.49e+00	0	41	104	0	80	19721
2026-01-04 08:14:09.98	105.56	5.61	-54.2	-69.3	3.8	1.49e+00	0	41	104	0	80	19874
2026-01-04 08:14:10.98	105.47	5.67	-54.1	-69.2	3.8	1.49e+00	0	41	104	0	80	19765
2026-01-04 08:14:11.98	105.38	5.73	-54.2	-69.3	3.8	1.49e+00	0	41	104	0	80	19845
2026-01-04 08:14:12.99	105.29	5.79	-54.1	-69.2	3.8	1.49e+00	0	41	104	0	80	19737
2026-01-04 08:14:13.99	105.20	5.85	-54.1	-69.2	3.8	1.49e+00	0	42	104	0	80	19816
2026-01-04 08:14:15.00	105.11	5.92	-54.1	-69.3	3.8	1.49e+00	0	41	104	0	80	19881
2026-01-04 08:14:16.00	105.02	5.98	-54.2	-69.2	3.8	1.49e+00	0	42	104	0	80	19713
2026-01-04 08:14:17.00	104.93	6.04	-54.1	-69.2	3.8	1.49e+00	0	41	104	0	80	19671
2026-01-04 08:14:18.01	104.84	6.10	-54.1	-69.2	3.8	1.49e+00	0	42	104	0	80	19634
2026-01-04 08:14:19.01	104.75	6.16	-54.1	-69.1	3.8	1.49e+00	0	42	104	0	80	19613
2026-01-04 08:14:20.02	104.66	6.22	-54.2	-69.1	3.8	1.49e+00	0	42	104	0	80	19524
2026-01-04 08:14:21.02	104.57	6.28	-54.1	-69.1	3.8	1.49e+00	0	42	104	0	80	19508
2026-01-04 08:14:22.03	104.47	6.35	-54.1	-69.2	3.8	1.49e+00	0	42	104	0	80	19643
2026-01-04 08:14:23.03	104.38	6.41	-54.2	-69.1	3.8	1.49e+00	0	42	104	0	80	19563
2026-01-04 08:14:24.04	104.28	6.47	-54.1	-69.2	3.8	1.49e+00	0	42	104	0	80	19693
2026-01-04 08:14:25.04	104.19	6.53	-54.2	-69.2	3.8	1.49e+00	0	42	104	0	80	19717
2026-01-04 08:14:26.04	104.10	6.59	-54.2	-69.2	3.8	1.49e+00	0	42	104	0	80	19777
2026-01-04 08:14:27.05	104.00	6.65	-54.2	-69.2	3.8	1.49e+00	0	42	104	0	80	19671
2026-01-04 08:14:28.05	103.91	6.72	-54.1	-69.2	3.8	1.49e+00	0	42	104	0	80	19729
2026-01-04 08:14:29.06	103.81	6.78	-54.1	-69.2	3.8	1.49e+00	0	42	104	0	80	19619
2026-01-04 08:14:30.06	103.71	6.84	-54.2	-69.2	3.8	1.49e+00	0	42	104	0	80	19712
2026-01-04 08:14:31.07	103.62	6.90	-54.1	-69.2	3.8	1.49e+00	0	42	104	0	80	19793
2026-01-04 08:14:32.07	103.52	6.96	-54.2	-69.1	3.8	1.49e+00	0	42	104	0	80	19439
2026-01-04 08:14:33.07	103.42	7.03	-54.1	-69.0	3.8	1.49e+00	0	42	104	0	80	19384
2026-01-04 08:14:34.08	103.32	7.09	-54.1	-69.0	3.8	1.49e+00	0	42	104	0	80	19317
2026-01-04 08:14:35.08	103.23	7.15	-54.1	-69.0	3.8	1.49e+00	0	42	104	0	80	19251
2026-01-04 08:14:36.09	103.13	7.21	-54.2	-69.1	3.8	1.49e+00	0	42	104	0	80	19482
2026-01-04 08:14:37.09	103.03	7.28	-54.1	-69.1	3.8	1.49e+00	0	42	104	0	80	19509
2026-01-04 08:14:38.09	102.93	7.34	-54.2	-69.1	3.8	1.49e+00	0	42	104	0	80	19554
2026-01-04 08:14:39.10	102.83	7.40	-54.1	-69.1	3.8	1.49e+00	0	42	104	0	80	19547
2026-01-04 08:14:40.10	102.73	7.47	-54.1	-69.1	3.8	1.49e+00	0	42	104	0	80	19538
2026-01-04 08:14:41.11	102.63	7.53	-54.2	-69.1	3.8	1.49e+00	0	42	104	0	80	19431
2026-01-04 08:14:42.11	102.53	7.59	-54.2	-68.9	3.8	1.49e+00	0	42	104	0	80	19114
2026-01-04 08:14:43.12	102.42	7.65	-54.1	-68.7	3.8	1.49e+00	0	42	104	0	80	18674
2026-01-04 08:14:44.12	102.32	7.72	-54.1	-68.5	3.8	1.49e+00	0	42	104	0	80	18098
2026-01-04 08:14:45.12	102.22	7.78	-54.1	-68.4	3.8	1.49e+00	0	42	104	0	80	17965
2026-01-04 08:14:46.13	102.12	7.84	-54.1	-68.5	3.8	1.49e+00	0	42	104	0	80	18119
2026-01-04 08:14:47.13	102.01	7.91	-54.2	-68.9	3.8	1.49e+00	0	42	104	0	80	19014
2026-01-04 08:14:48.14	101.91	7.97	-54.2	-69.0	3.8	1.49e+00	0	42	104	0	80	19280
2026-01-04 08:14:49.14	101.80	8.03	-54.1	-68.0	3.8	1.49e+00	0	42	104	0	80	17210
2026-01-04 08:14:50.15	101.70	8.10	-54.0	-65.6	4.2	1.48e+00	0	42	0	0	79	13791
2026-01-04 08:14:51.15	101.59	8.16	-53.6	-62.7	5.7	8.61e-01	0	42	0	1048576	79	9846
2026-01-04 08:14:52.16	101.49	8.23	-53.0	-60.0	7.9	1.31e-01	0	42	0	3145728	78	7659
2026-01-04 08:14:53.16	101.38	8.29	-52.4	-58.0	10.0	2.08e-02	0	42	0	5242880	76	6838
2026-01-04 08:14:54.16	101.27	8.35	-51.7	-56.4	11.6	2.69e-03	0	42	0	7340032	75	6016
2026-01-04 08:14:55.17	101.17	8.42	-51.2	-55.4	12.7	1.14e-04	0	42	0	8388608	74	5680
2026-01-04 08:14:56.17	101.06	8.48	-50.7	-54.6	13.5	2.13e-05	0	42	0	10485760	73	5489
2026-01-04 08:14:57.18	100.95	8.55	-50.7	-54.6	13.6	1.14e-05	0	43	0	12582912	73	5476
2026-01-04 08:14:58.18	100.84	8.61	-50.8	-54.7	13.4	7.60e-06	0	43	0	14680064	73	5576
2026-01-04 08:14:59.18	100.73	8.67	-51.2	-55.4	12.7	3.73e-05	0	43	0	16777216	73	6042
2026-01-04 08:15:00.19	100.62	8.74	-51.7	-56.4	11.7	3.00e-04	0	43	0	17825792	73	6758
2026-01-04 08:15:01.19	100.51	8.80	-52.2	-57.7	10.3	1.83e-03	0	42	0	19922944	75	7016
2026-01-04 08:15:02.20	100.40	8.87	-52.9	-59.6	8.3	2.85e-02	0	43	0	22020096	76	8233
2026-01-04 08:15:03.20	100.29	8.93	-53.4	-61.7	6.3	1.40e-01	0	43	0	24117248	77	9931
2026-01-04 08:15:04.21	100.18	9.00	-53.9	-64.5	4.6	5.16e-01	0	43	0	26214400	78	12887
2026-01-04 08:15:05.21	100.06	9.06	-54.1	-66.8	3.9	1.46e+00	0	43	104	26214400	78	16730
2026-01-04 08:15:06.21	99.95	9.12	-54.1	-65.9	4.2	1.34e+00	0	43	0	26214400	78	15122
2026-01-04 08:15:07.21	99.84	9.19	-54.1	-65.8	4.2	1.33e+00	0	43	0	26214400	78	14957
2026-01-04 08:15:08.22	99.72	9.25	-54.3	-68.8	3.8	1.47e+00	0	43	104	26214400	79	19869
2026-01-04 08:15:09.29	99.60	9.32	-53.2	-60.5	7.7	3.41e-02	0	43	0	26214400	77	8615
2026-01-04 08:15:10.15	99.50	9.38	-54.2	-68.6	3.8	1.49e+00	0	43	104	27262976	79	19505
2026-01-04 08:15:11.50	99.35	9.47	-52.8	-59.0	9.1	2.84e-02	0	43	0	28311552	77	7273
2026-01-04 08:15:12.21	99.27	9.51	-52.2	-57.4	10.7	5.17e-03	0	43	0	29360128	76	6368
2026-01-04 08:15:13.50	99.12	9.59	-51.5	-55.9	12.3	2.17e-04	0	43	0	31457280	75	5722
2026-01-04 08:15:14.22	99.03	9.64	-51.1	-55.0	13.2	9.38e-05	0	43	0	32505856	74	5459
2026-01-04 08:15:15.51	98.88	9.72	-50.6	-54.3	14.0	4.50e-06	0	43	0	35651584	73	5333
2026-01-04 08:15:16.22	98.80	9.77	-50.5	-54.3	13.9	5.30e-06	0	43	0	36700160	73	5286
2026-01-04 08:15:17.51	98.65	9.85	-50.4	-53.9	14.3	2.20e-06	0	43	0	38797312	72	5397
2026-01-04 08:15:18.23	98.56	9.90	-50.3	-53.8	14.5	0.00e+00	0	43	0	40894464	72	5288
2026-01-04 08:15:19.52	98.41	9.99	-50.3	-53.7	14.6	7.00e-07	0	43	0	42991616	72	5266
2026-01-04 08:15:20.23	98.32	10.03	-50.3	-53.7	14.6	7.00e-07	0	43	0	44040192	72	5272
2026-01-04 08:15:21.52	98.17	10.12	-50.1	-53.5	14.8	0.00e+00	0	43	0	47185920	72	5150
2026-01-04 08:15:22.24	98.08	10.16	-50.3	-53.7	14.8	0.00e+00	0	43	0	48234496	72	5246
2026-01-04 08:15:23.52	97.92	10.25	-50.0	-53.4	15.0	0.00e+00	0	43	0	50331648	72	5068
2026-01-04 08:15:24.24	97.83	10.29	-50.0	-53.4	15.0	0.00e+00	0	43	0	51380224	71	5347
2026-01-04 08:15:25.53	97.68	10.38	-49.8	-53.0	15.3	0.00e+00	0	43	0	54525952	71	5156
2026-01-04 08:15:26.24	97.59	10.42	-49.8	-53.1	15.3	0.00e+00	0	43	0	55574528	71	5167
2026-01-04 08:15:27.74	97.40	10.52	-49.8	-53.1	15.3	0.00e+00	0	43	0	58720256	71	5180
2026-01-04 08:15:28.46	97.31	10.57	-49.9	-53.1	15.3	0.00e+00	0	43	0	59768832	71	5216
2026-01-04 08:15:29.75	97.15	10.65	-49.8	-53.0	15.5	0.00e+00	0	43	0	61865984	71	5119
2026-01-04 08:15:30.47	97.06	10.70	-49.7	-52.8	15.6	0.00e+00	0	43	0	63963136	71	5013
2026-01-04 08:15:31.75	96.90	10.79	-49.8	-52.9	15.5	0.00e+00	0	43	0	66060288	71	5068
2026-01-04 08:15:32.47	96.81	10.83	-49.6	-52.7	15.6	0.00e+00	0	43	0	67108864	71	4964
2026-01-04 08:15:33.76	96.65	10.92	-49.7	-53.0	15.4	0.00e+00	0	43	0	69206016	71	5105
2026-01-04 08:15:34.47	96.55	10.96	-49.9	-53.1	15.2	0.00e+00	0	43	0	71303168	71	5204
2026-01-04 08:15:35.76	96.39	11.05	-49.8	-53.0	15.2	0.00e+00	0	43	0	73400320	71	5157
2026-01-04 08:15:36.48	96.30	11.10	-49.7	-53.0	15.4	0.00e+00	0	43	0	74448896	71	5111
2026-01-04 08:15:37.77	96.13	11.18	-49.6	-52.7	15.7	0.00e+00	0	43	0	77594624	71	4974
2026-01-04 08:15:38.58	96.02	11.23	-49.5	-52.6	15.7	0.00e+00	0	43	0	78643200	71	4918
2026-01-04 08:15:40.05	95.83	11.33	-49.6	-52.8	15.6	0.00e+00	0	43	0	81788928	71	4987
2026-01-04 08:15:40.76	95.74	11.38	-49.7	-52.9	15.5	0.00e+00	0	43	0	82837504	71	5063
2026-01-04 08:15:42.05	95.57	11.46	-49.8	-52.9	15.5	0.00e+00	0	43	0	84934656	71	5100
2026-01-04 08:15:42.76	95.47	11.51	-49.7	-52.8	15.6	0.00e+00	0	43	0	87031808	71	5041
2026-01-04 08:15:44.06	95.30	11.60	-49.7	-52.9	15.5	0.00e+00	0	43	0	89128960	71	5072
2026-01-04 08:15:44.82	95.20	11.65	-49.7	-52.7	15.7	0.00e+00	0	43	0	90177536	71	4968
2026-01-04 08:15:46.11	95.02	11.73	-49.7	-52.7	15.8	0.00e+00	0	43	0	93323264	71	4948
2026-01-04 08:15:46.89	94.92	11.78	-49.7	-52.7	15.8	0.00e+00	0	43	0	94371840	71	4974
2026-01-04 08:15:48.18	94.74	11.87	-49.8	-52.9	15.6	0.00e+00	0	43	0	96468992	71	5074
2026-01-04 08:15:49.00	94.63	11.92	-49.9	-53.1	15.5	0.00e+00	0	43	0	98566144	71	5183
2026-01-04 08:15:50.14	94.47	12.00	-49.9	-53.0	15.5	0.00e+00	0	43	0	100663296	71	5155
2026-01-04 08:15:51.24	94.32	12.07	-49.9	-53.1	15.5	0.00e+00	0	43	0	102760448	71	5180
2026-01-04 08:15:52.10	94.20	12.13	-49.9	-53.0	15.5	0.00e+00	0	43	0	103809024	71	5148
2026-01-04 08:15:53.25	94.04	12.20	-49.9	-53.0	15.5	7.00e-07	0	43	0	105906176	71	5127
2026-01-04 08:15:54.11	93.92	12.26	-49.9	-53.0	15.5	0.00e+00	0	43	0	108003328	71	5146
2026-01-04 08:15:55.25	93.76	12.34	-49.7	-52.8	15.7	0.00e+00	0	43	0	110100480	71	5014
2026-01-04 08:15:56.11	93.64	12.39	-49.8	-52.9	15.6	0.00e+00	0	43	0	111149056	71	5099
2026-01-04 08:15:57.26	93.48	12.47	-49.8	-52.9	15.7	0.00e+00	0	43	0	113246208	71	5062
2026-01-04 08:15:58.12	93.36	12.53	-49.8	-52.9	15.6	0.00e+00	0	43	0	115343360	71	5067
2026-01-04 08:15:59.33	93.18	12.61	-49.7	-52.7	15.8	0.00e+00	0	43	0	117440512	71	4982
2026-01-04 08:16:00.19	93.06	12.66	-49.8	-53.0	15.5	0.00e+00	0	43	0	119537664	71	5112
2026-01-04 08:16:01.40	92.88	12.74	-49.9	-53.2	15.3	0.00e+00	0	43	0	121634816	71	5254
2026-01-04 08:16:02.26	92.76	12.80	-49.9	-53.1	15.4	0.00e+00	0	43	0	122683392	71	5210
2026-01-04 08:16:03.40	92.59	12.88	-50.0	-53.2	15.3	0.00e+00	0	43	0	124780544	71	5276
2026-01-04 08:16:04.27	92.47	12.94	-49.9	-53.1	15.4	0.00e+00	0	43	0	126877696	71	5178
2026-01-04 08:16:05.41	92.30	13.01	-49.9	-53.1	15.5	0.00e+00	0	43	0	128974848	71	5180
2026-01-04 08:16:06.27	92.17	13.07	-49.8	-52.9	15.6	0.00e+00	0	43	0	131072000	71	5092
2026-01-04 08:16:07.41	92.00	13.14	-49.8	-53.0	15.5	0.00e+00	0	43	0	133169152	71	5138
2026-01-04 08:16:08.27	91.87	13.20	-49.8	-53.0	15.5	0.00e+00	0	43	0	134217728	71	5104
2026-01-04 08:16:09.42	91.70	13.28	-49.8	-52.8	15.7	7.00e-07	0	43	0	136314880	71	5039
2026-01-04 08:16:10.28	91.57	13.33	-49.8	-52.9	15.7	0.00e+00	0	43	0	138412032	71	5058
2026-01-04 08:16:11.42	91.40	13.41	-49.8	-53.0	15.6	0.00e+00	0	43	0	140509184	71	5115
2026-01-04 08:16:12.28	91.27	13.47	-49.8	-53.0	15.5	0.00e+00	0	43	0	141557760	71	5114
2026-01-04 08:16:13.43	91.09	13.54	-49.8	-53.0	15.5	0.00e+00	0	43	0	143654912	71	5121
2026-01-04 08:16:14.29	90.96	13.60	-49.8	-52.9	15.5	0.00e+00	0	43	0	145752064	71	5094
2026-01-04 08:16:15.44	90.79	13.67	-49.8	-52.9	15.6	0.00e+00	0	43	0	147849216	71	5090
2026-01-04 08:16:16.30	90.65	13.73	-49.8	-53.0	15.6	0.00e+00	0	43	0	148897792	71	5113
2026-01-04 08:16:17.46	90.47	13.81	-49.9	-53.1	15.5	0.00e+00	0	43	0	152043520	71	5196
2026-01-04 08:16:18.32	90.34	13.87	-50.0	-53.2	15.4	0.00e+00	0	43	0	153092096	71	5270
2026-01-04 08:16:19.54	90.15	13.95	-49.9	-53.2	15.4	0.00e+00	0	43	0	155189248	71	5251
2026-01-04 08:16:20.40	90.01	14.00	-50.0	-53.4	15.2	0.00e+00	0	43	0	157286400	71	5354
2026-01-04 08:16:21.55	89.83	14.08	-50.1	-53.4	15.3	0.00e+00	0	43	0	159383552	71	5358
2026-01-04 08:16:22.41	89.69	14.14	-50.0	-53.3	15.3	0.00e+00	0	43	0	160432128	71	5307
2026-01-04 08:16:23.55	89.51	14.21	-50.0	-53.4	15.2	0.00e+00	0	43	0	162529280	71	5358
2026-01-04 08:16:24.41	89.37	14.27	-50.1	-53.5	15.1	0.00e+00	0	43	0	164626432	71	5418
2026-01-04 08:16:25.56	89.19	14.34	-50.1	-53.5	15.1	0.00e+00	0	43	0	166723584	71	5420
2026-01-04 08:16:26.42	89.05	14.40	-50.1	-53.4	15.2	0.00e+00	0	43	0	168820736	71	5397
2026-01-04 08:16:27.57	88.86	14.47	-50.0	-53.3	15.3	0.00e+00	0	43	0	170917888	71	5319
2026-01-04 08:16:28.43	88.72	14.53	-50.1	-53.4	15.3	0.00e+00	0	43	0	171966464	71	5353
2026-01-04 08:16:29.57	88.53	14.61	-50.0	-53.2	15.5	0.00e+00	0	43	0	174063616	71	5252
2026-01-04 08:16:30.43	88.39	14.66	-50.1	-53.4	15.3	0.00e+00	0	43	0	176160768	71	5361
2026-01-04 08:16:31.58	88.20	14.74	-50.1	-53.3	15.4	0.00e+00	0	43	0	178257920	71	5326
2026-01-04 08:16:32.44	88.06	14.79	-49.9	-53.1	15.6	0.00e+00	0	43	0	179306496	71	5190
2026-01-04 08:16:33.58	87.87	14.87	-49.9	-53.1	15.6	0.00e+00	0	43	0	181403648	71	5197
2026-01-04 08:16:34.44	87.72	14.92	-49.8	-53.0	15.5	0.00e+00	0	43	0	183500800	71	5152
2026-01-04 08:16:35.58	87.53	15.00	-49.8	-53.0	15.5	0.00e+00	0	43	0	185597952	71	5141
2026-01-04 08:16:36.44	87.39	15.05	-49.8	-53.1	15.5	0.00e+00	0	43	0	186646528	71	5164
2026-01-04 08:16:37.59	87.19	15.13	-49.7	-52.9	15.7	0.00e+00	0	43	0	189792256	71	5056
2026-01-04 08:16:38.45	87.04	15.18	-49.7	-52.8	15.8	0.00e+00	0	43	0	190840832	71	5015
2026-01-04 08:16:39.58	86.85	15.26	-49.7	-52.8	15.9	0.00e+00	0	43	0	192937984	71	5026
2026-01-04 08:16:40.44	86.70	15.31	-49.7	-52.8	16.0	0.00e+00	0	43	0	195035136	71	4992
2026-01-04 08:16:41.59	86.50	15.39	-49.5	-52.6	16.0	7.00e-07	0	43	0	197132288	71	4914
2026-01-04 08:16:42.45	86.35	15.44	-49.4	-52.5	16.1	7.00e-07	0	43	0	198180864	70	5149
2026-01-04 08:16:43.59	86.16	15.52	-49.2	-52.3	16.2	0.00e+00	0	43	0	200278016	70	5010
2026-01-04 08:16:44.45	86.00	15.57	-49.2	-52.2	16.4	0.00e+00	0	43	0	202375168	70	4980
2026-01-04 08:16:45.60	85.80	15.65	-49.1	-52.0	16.5	0.00e+00	0	43	0	204472320	70	4850
2026-01-04 08:16:46.46	85.65	15.70	-49.0	-51.9	16.6	0.00e+00	0	43	0	205520896	70	4792
2026-01-04 08:16:47.60	85.45	15.77	-49.1	-52.0	16.5	0.00e+00	0	43	0	207618048	70	4863
2026-01-04 08:16:48.47	85.29	15.83	-49.0	-52.0	16.6	0.00e+00	0	43	0	209715200	70	4828
2026-01-04 08:16:49.63	85.08	15.90	-49.1	-52.0	16.5	0.00e+00	0	43	0	211812352	70	4846
2026-01-04 08:16:50.49	84.93	15.96	-49.0	-51.9	16.6	0.00e+00	0	43	0	213909504	70	4804
2026-01-04 08:16:51.63	84.72	16.03	-49.0	-52.0	16.6	0.00e+00	0	43	0	216006656	69	5113
2026-01-04 08:16:52.49	84.57	16.09	-49.1	-52.1	16.4	0.00e+00	0	43	0	217055232	69	5208
2026-01-04 08:16:53.64	84.36	16.16	-48.8	-51.8	16.7	0.00e+00	0	43	0	219152384	69	4996
2026-01-04 08:16:54.54	84.19	16.22	-48.9	-51.9	16.7	0.00e+00	0	43	0	221249536	69	5048
2026-01-04 08:16:55.56	84.01	16.28	-48.9	-51.8	16.9	0.00e+00	0	43	0	223346688	69	5006
2026-01-04 08:16:56.57	83.82	16.34	-48.8	-51.6	17.1	0.00e+00	0	43	0	224395264	69	4901
2026-01-04 08:16:57.57	83.64	16.41	-48.8	-51.6	17.1	0.00e+00	0	43	0	226492416	69	4889
2026-01-04 08:16:58.57	83.45	16.47	-48.9	-51.7	17.0	0.00e+00	0	43	0	228589568	69	4959
2026-01-04 08:16:59.57	83.26	16.53	-48.7	-51.5	17.2	0.00e+00	0	43	0	230686720	69	4833
2026-01-04 08:17:00.58	83.07	16.59	-48.4	-51.1	17.5	0.00e+00	0	43	0	232783872	68	4895
2026-01-04 08:17:01.93	82.82	16.68	-48.2	-50.8	17.7	0.00e+00	0	43	0	234881024	68	4752
2026-01-04 08:17:02.68	82.68	16.73	-48.2	-50.8	17.7	0.00e+00	0	43	0	235929600	68	4757
2026-01-04 08:17:03.97	82.43	16.80	-48.2	-50.8	17.8	0.00e+00	0	43	0	239075328	68	4712
2026-01-04 08:17:04.68	82.29	16.85	-48.1	-50.7	17.9	0.00e+00	0	43	0	240123904	68	4667
2026-01-04 08:17:05.97	82.05	16.93	-47.8	-50.4	18.0	0.00e+00	0	43	0	242221056	67	4775
2026-01-04 08:17:06.69	81.91	16.97	-47.9	-50.4	18.0	0.00e+00	0	43	0	244318208	67	4803
2026-01-04 08:17:07.98	81.66	17.05	-47.6	-50.2	18.1	0.00e+00	0	43	0	246415360	67	4663
2026-01-04 08:17:08.69	81.52	17.09	-47.6	-50.1	18.2	0.00e+00	0	43	0	247463936	67	4615
2026-01-04 08:17:09.98	81.27	17.17	-47.7	-50.2	18.2	0.00e+00	0	43	0	250609664	67	4661
2026-01-04 08:17:10.70	81.13	17.22	-47.6	-50.1	18.3	0.00e+00	0	43	0	251658240	67	4624
2026-01-04 08:17:11.99	80.88	17.29	-47.7	-50.1	18.2	0.00e+00	0	43	0	253755392	67	4633
2026-01-04 08:17:12.71	80.73	17.34	-47.7	-50.1	18.3	0.00e+00	0	43	0	254803968	67	4631
2026-01-04 08:17:13.99	80.48	17.41	-47.6	-50.0	18.3	0.00e+00	0	43	0	257949696	67	4566
2026-01-04 08:17:14.71	80.34	17.46	-47.7	-50.1	18.3	0.00e+00	0	43	0	258998272	67	4621
2026-01-04 08:17:16.00	80.08	17.53	-47.6	-50.1	18.3	0.00e+00	0	43	0	261095424	67	4612
2026-01-04 08:17:16.71	79.94	17.58	-47.6	-50.1	18.3	0.00e+00	0	43	0	263192576	67	4607
2026-01-04 08:17:18.00	79.68	17.65	-47.6	-50.0	18.3	0.00e+00	0	43	0	265289728	67	4589
2026-01-04 08:17:18.72	79.53	17.69	-47.7	-50.2	18.2	0.00e+00	0	43	0	266338304	67	4667
2026-01-04 08:17:20.01	79.27	17.77	-47.6	-50.1	18.3	0.00e+00	0	43	0	268435456	67	4608
2026-01-04 08:17:20.72	79.13	17.81	-47.6	-50.0	18.3	0.00e+00	0	43	0	270532608	67	4572
2026-01-04 08:17:22.01	78.86	17.89	-47.5	-49.9	18.5	0.00e+00	0	43	0	272629760	66	4766
2026-01-04 08:17:22.73	78.71	17.93	-47.5	-49.8	18.5	0.00e+00	0	43	0	273678336	66	4758
2026-01-04 08:17:24.02	78.45	18.00	-47.6	-49.9	18.5	0.00e+00	0	43	0	276824064	66	4814
2026-01-04 08:17:24.74	78.30	18.04	-47.6	-50.0	18.4	0.00e+00	0	43	0	277872640	66	4842
2026-01-04 08:17:26.03	78.03	18.12	-47.6	-49.9	18.4	0.00e+00	0	43	0	279969792	66	4813
2026-01-04 08:17:26.74	77.88	18.16	-47.6	-50.0	18.4	0.00e+00	0	43	0	281018368	66	4846
2026-01-04 08:17:28.03	77.61	18.23	-47.7	-50.1	18.2	0.00e+00	0	43	0	284164096	66	4897
2026-01-04 08:17:28.74	77.46	18.27	-47.8	-50.2	18.1	0.00e+00	0	43	0	285212672	66	4982
2026-01-04 08:17:30.03	77.19	18.34	-47.9	-50.3	18.1	0.00e+00	0	43	0	287309824	66	5040
2026-01-04 08:17:30.75	77.04	18.38	-47.8	-50.3	18.1	0.00e+00	0	43	0	289406976	66	5023
2026-01-04 08:17:32.05	76.76	18.46	-47.8	-50.3	18.1	0.00e+00	0	43	0	291504128	66	4992
2026-01-04 08:17:33.04	76.55	18.51	-47.8	-50.2	18.2	0.00e+00	0	44	0	293601280	66	4974
2026-01-04 08:17:34.04	76.34	18.57	-47.8	-50.3	18.1	0.00e+00	0	43	0	295698432	66	5026
2026-01-04 08:17:35.04	76.12	18.62	-47.9	-50.4	18.0	0.00e+00	0	43	0	296747008	66	5070
2026-01-04 08:17:36.46	75.82	18.70	-48.1	-50.6	18.0	0.00e+00	0	43	0	299892736	67	4886
2026-01-04 08:17:37.18	75.66	18.74	-48.2	-50.6	18.0	0.00e+00	0	43	0	300941312	67	4918
2026-01-04 08:17:38.47	75.38	18.81	-47.9	-50.4	18.0	0.00e+00	0	43	0	303038464	67	4774
2026-01-04 08:17:39.19	75.22	18.85	-47.9	-50.4	18.0	0.00e+00	0	43	0	305135616	67	4807
2026-01-04 08:17:40.48	74.94	18.91	-48.0	-50.4	18.0	0.00e+00	0	44	0	307232768	67	4799
2026-01-04 08:17:41.19	74.79	18.95	-47.8	-50.3	18.2	0.00e+00	0	43	0	308281344	67	4721
2026-01-04 08:17:42.48	74.50	19.02	-47.9	-50.3	18.2	0.00e+00	0	43	0	311427072	67	4739
2026-01-04 08:17:43.19	74.34	19.06	-47.9	-50.3	18.2	0.00e+00	0	43	0	312475648	67	4743
2026-01-04 08:17:44.48	74.06	19.12	-47.6	-50.0	18.3	0.00e+00	0	43	0	314572800	67	4581
2026-01-04 08:17:45.20	73.90	19.16	-47.5	-49.9	18.4	0.00e+00	0	43	0	315621376	67	4519
2026-01-04 08:17:46.66	73.57	19.23	-47.8	-50.2	18.2	0.00e+00	0	43	0	318767104	67	4696
2026-01-04 08:17:47.65	73.35	19.28	-47.4	-49.7	18.6	0.00e+00	0	43	0	320864256	66	4696
2026-01-04 08:17:48.97	73.05	19.35	-47.2	-49.5	18.9	0.00e+00	0	43	0	322961408	66	4564
2026-01-04 08:17:49.69	72.89	19.39	-47.3	-49.6	19.0	0.00e+00	0	43	0	325058560	66	4602
2026-01-04 08:17:50.98	72.60	19.45	-47.2	-49.4	19.1	0.00e+00	0	43	0	327155712	66	4528
2026-01-04 08:17:51.70	72.43	19.49	-47.2	-49.5	19.0	0.00e+00	0	43	0	328204288	66	4571
2026-01-04 08:17:52.98	72.14	19.55	-47.0	-49.3	19.0	0.00e+00	0	44	0	330301440	66	4476
2026-01-04 08:17:53.69	71.98	19.58	-47.1	-49.3	19.0	0.00e+00	0	43	0	332398592	66	4492
2026-01-04 08:17:54.98	71.68	19.64	-47.1	-49.3	19.0	0.00e+00	0	43	0	334495744	66	4489
2026-01-04 08:17:55.70	71.52	19.68	-47.3	-49.6	18.9	0.00e+00	0	43	0	335544320	66	4605
2026-01-04 08:17:57.04	71.21	19.74	-47.3	-49.6	18.8	0.00e+00	0	43	0	338690048	66	4623
2026-01-04 08:17:57.75	71.04	19.77	-47.4	-49.7	18.8	0.00e+00	0	43	0	339738624	66	4664
2026-01-04 08:17:59.12	70.72	19.84	-47.3	-49.6	18.8	0.00e+00	0	43	0	341835776	66	4611
2026-01-04 08:17:59.84	70.55	19.87	-47.2	-49.4	18.9	0.00e+00	0	43	0	343932928	66	4537
2026-01-04 08:18:01.16	70.25	19.93	-47.1	-49.4	19.0	0.00e+00	0	43	0	346030080	66	4495
2026-01-04 08:18:02.14	70.02	19.97	-47.0	-49.3	19.0	0.00e+00	0	43	0	348127232	66	4470
2026-01-04 08:18:03.46	69.70	20.03	-47.1	-49.4	19.0	0.00e+00	0	43	0	350224384	66	4495
2026-01-04 08:18:04.18	69.53	20.06	-47.2	-49.4	19.1	0.00e+00	0	43	0	351272960	66	4538
2026-01-04 08:18:05.47	69.23	20.12	-46.9	-49.1	19.2	0.00e+00	0	43	0	354418688	65	4642
2026-01-04 08:18:06.18	69.06	20.15	-47.0	-49.3	19.1	0.00e+00	0	43	0	355467264	65	4720
2026-01-04 08:18:07.47	68.75	20.21	-47.1	-49.4	19.0	0.00e+00	0	43	0	357564416	65	4795
2026-01-04 08:18:08.19	68.58	20.24	-47.0	-49.2	19.1	0.00e+00	0	43	0	359661568	65	4703
2026-01-04 08:18:09.48	68.27	20.29	-47.0	-49.3	19.1	0.00e+00	0	43	0	361758720	65	4736
2026-01-04 08:18:10.20	68.10	20.32	-47.1	-49.3	19.0	0.00e+00	0	43	0	362807296	65	4753
2026-01-04 08:18:11.53	67.78	20.38	-47.4	-49.7	18.8	0.00e+00	0	43	0	365953024	65	4973
2026-01-04 08:18:12.25	67.60	20.40	-47.5	-49.8	18.8	0.00e+00	0	43	0	367001600	65	5007
2026-01-04 08:18:13.60	67.28	20.46	-47.4	-49.7	18.9	0.00e+00	0	44	0	369098752	65	4982
2026-01-04 08:18:14.31	67.10	20.49	-47.4	-49.8	18.9	0.00e+00	0	43	0	371195904	65	4989
2026-01-04 08:18:15.71	66.76	20.54	-47.3	-49.7	18.8	0.00e+00	0	43	0	373293056	65	4928
2026-01-04 08:18:16.43	66.59	20.57	-47.4	-49.7	18.7	0.00e+00	0	43	0	374341632	65	4962
2026-01-04 08:18:17.72	66.27	20.62	-47.5	-49.9	18.6	0.00e+00	0	43	0	377487360	65	5044
2026-01-04 08:18:18.44	66.09	20.64	-47.5	-49.9	18.6	0.00e+00	0	43	0	378535936	66	4796
2026-01-04 08:18:19.73	65.78	20.69	-47.4	-49.7	18.8	0.00e+00	0	43	0	380633088	66	4675
2026-01-04 08:18:20.44	65.60	20.72	-47.5	-49.9	18.7	0.00e+00	0	43	0	382730240	66	4773
2026-01-04 08:18:21.73	65.28	20.76	-47.6	-49.9	18.5	0.00e+00	0	43	0	384827392	66	4813
2026-01-04 08:18:22.44	65.11	20.79	-47.7	-50.1	18.5	0.00e+00	0	43	0	385875968	66	4901
2026-01-04 08:18:23.73	64.79	20.83	-47.8	-50.2	18.4	0.00e+00	0	43	0	387973120	66	4939
2026-01-04 08:18:24.56	64.58	20.86	-48.0	-50.4	18.2	0.00e+00	0	44	0	390070272	66	5092
2026-01-04 08:18:25.70	64.30	20.90	-47.8	-50.3	18.2	0.00e+00	0	43	0	392167424	66	4994
2026-01-04 08:18:26.78	64.03	20.94	-48.0	-50.5	18.1	0.00e+00	0	43	0	394264576	66	5113
2026-01-04 08:18:27.80	63.77	20.97	-48.1	-50.6	17.9	0.00e+00	0	43	0	396361728	66	5171
2026-01-04 08:18:28.97	63.48	21.01	-48.3	-50.8	17.9	0.00e+00	0	43	0	398458880	67	5035
2026-01-04 08:18:29.84	63.26	21.03	-48.2	-50.6	18.0	0.00e+00	0	43	0	399507456	67	4919
2026-01-04 08:18:30.98	62.97	21.07	-48.3	-50.8	17.9	0.00e+00	0	43	0	401604608	67	5002
2026-01-04 08:18:31.84	62.75	21.10	-48.4	-51.0	17.7	0.00e+00	0	43	0	403701760	67	5105
2026-01-04 08:18:32.99	62.46	21.13	-48.5	-51.1	17.6	0.00e+00	0	43	0	405798912	67	5175
2026-01-04 08:18:33.85	62.24	21.15	-48.4	-51.0	17.6	0.00e+00	0	43	0	406847488	67	5117
2026-01-04 08:18:35.00	61.95	21.19	-48.4	-51.0	17.6	0.00e+00	0	43	0	409993216	67	5103
2026-01-04 08:18:35.86	61.73	21.21	-48.3	-50.9	17.7	0.00e+00	0	43	0	411041792	67	5071
2026-01-04 08:18:37.00	61.44	21.24	-48.4	-50.9	17.7	0.00e+00	0	43	0	413138944	67	5090
2026-01-04 08:18:37.86	61.22	21.27	-48.4	-51.0	17.6	0.00e+00	0	43	0	415236096	67	5144
2026-01-04 08:18:39.01	60.93	21.30	-48.6	-51.2	17.4	0.00e+00	0	43	0	417333248	67	5243
2026-01-04 08:18:39.87	60.70	21.32	-48.5	-51.2	17.4	0.00e+00	0	43	0	418381824	67	5229
2026-01-04 08:18:41.02	60.41	21.35	-48.6	-51.3	17.3	0.00e+00	0	43	0	420478976	67	5285
2026-01-04 08:18:41.87	60.19	21.37	-48.9	-51.7	17.1	0.00e+00	0	43	0	422576128	68	5244
2026-01-04 08:18:43.02	59.89	21.40	-49.0	-51.8	17.0	0.00e+00	0	43	0	424673280	68	5306
2026-01-04 08:18:43.88	59.67	21.42	-49.0	-51.8	16.9	0.00e+00	0	43	0	425721856	68	5331
2026-01-04 08:18:45.03	59.38	21.44	-49.0	-51.7	17.0	0.00e+00	0	43	0	427819008	68	5256
2026-01-04 08:18:45.88	59.16	21.46	-49.0	-51.7	17.1	0.00e+00	0	44	0	429916160	68	5244
2026-01-04 08:18:47.03	58.86	21.49	-49.0	-51.8	17.0	0.00e+00	0	43	0	432013312	68	5280
2026-01-04 08:18:47.89	58.63	21.50	-49.1	-51.8	16.9	0.00e+00	0	43	0	434110464	68	5337
2026-01-04 08:18:49.03	58.34	21.53	-48.9	-51.6	17.1	0.00e+00	0	43	0	436207616	68	5216
2026-01-04 08:18:49.89	58.11	21.55	-49.0	-51.7	17.1	0.00e+00	0	43	0	437256192	68	5253
2026-01-04 08:18:51.04	57.81	21.57	-48.9	-51.6	17.2	0.00e+00	0	43	0	439353344	68	5195
2026-01-04 08:18:51.89	57.59	21.58	-48.8	-51.5	17.3	0.00e+00	0	43	0	441450496	68	5127
2026-01-04 08:18:53.07	57.28	21.60	-48.9	-51.6	17.2	0.00e+00	0	43	0	443547648	68	5166
2026-01-04 08:18:53.93	57.06	21.62	-48.8	-51.4	17.3	0.00e+00	0	43	0	444596224	68	5091
2026-01-04 08:18:55.11	56.75	21.64	-48.7	-51.3	17.5	0.00e+00	0	44	0	446693376	68	5009
2026-01-04 08:18:56.40	56.41	21.66	-48.8	-51.5	17.3	0.00e+00	0	43	0	449839104	68	5105
2026-01-04 08:18:57.11	56.23	21.67	-48.8	-51.5	17.3	0.00e+00	0	43	0	450887680	68	5118
2026-01-04 08:18:58.39	55.89	21.69	-49.1	-51.8	17.0	0.00e+00	0	43	0	452984832	68	5323
2026-01-04 08:18:59.11	55.70	21.70	-49.1	-51.9	16.8	0.00e+00	0	43	0	455081984	69	5087
2026-01-04 08:19:00.48	55.34	21.72	-49.0	-51.8	17.0	0.00e+00	0	43	0	457179136	69	5001
2026-01-04 08:19:01.19	55.15	21.73	-49.1	-51.9	16.9	0.00e+00	0	43	0	458227712	69	5061
2026-01-04 08:19:02.49	54.81	21.74	-49.0	-51.7	17.1	0.00e+00	0	43	0	461373440	69	4962
2026-01-04 08:19:03.20	54.62	21.75	-49.0	-51.7	17.1	0.00e+00	0	43	0	462422016	69	4970
2026-01-04 08:19:04.63	54.25	21.77	-49.2	-51.9	16.8	0.00e+00	0	43	0	465567744	69	5088
2026-01-04 08:19:05.35	54.06	21.77	-49.1	-51.8	16.9	0.00e+00	0	43	0	466616320	69	5040
2026-01-04 08:19:06.63	53.72	21.78	-49.1	-51.8	16.9	0.00e+00	0	43	0	468713472	69	5038
2026-01-04 08:19:07.35	53.53	21.79	-49.0	-51.7	17.0	0.00e+00	0	43	0	469762048	69	4981
2026-01-04 08:19:08.63	53.19	21.80	-48.8	-51.5	17.3	0.00e+00	0	43	0	472907776	69	4836
2026-01-04 08:19:09.35	53.00	21.81	-48.8	-51.5	17.3	0.00e+00	0	43	0	473956352	69	4816
2026-01-04 08:19:10.64	52.66	21.82	-49.0	-51.7	17.1	0.00e+00	0	43	0	476053504	69	4940
2026-01-04 08:19:11.36	52.46	21.82	-48.9	-51.6	17.2	0.00e+00	0	43	0	478150656	69	4899
2026-01-04 08:19:12.64	52.13	21.83	-49.1	-51.8	17.2	0.00e+00	0	43	0	480247808	69	4991
2026-01-04 08:19:13.47	51.91	21.83	-48.9	-51.5	17.5	0.00e+00	0	43	0	481296384	69	4860
2026-01-04 08:19:14.61	51.60	21.84	-48.7	-51.3	17.5	0.00e+00	0	43	0	483393536	69	4715
2026-01-04 08:19:15.47	51.38	21.84	-48.8	-51.4	17.5	0.00e+00	0	43	0	485490688	69	4808
2026-01-04 08:19:16.62	51.07	21.84	-48.9	-51.6	17.4	0.00e+00	0	43	0	487587840	69	4893
2026-01-04 08:19:17.48	50.84	21.84	-48.9	-51.5	17.5	0.00e+00	0	44	0	488636416	69	4837
2026-01-04 08:19:18.62	50.54	21.85	-48.6	-51.2	17.8	0.00e+00	0	43	0	490733568	69	4668
2026-01-04 08:19:19.48	50.31	21.85	-48.6	-51.1	17.9	0.00e+00	0	43	0	492830720	69	4619
2026-01-04 08:19:20.62	50.01	21.85	-48.4	-50.9	18.0	0.00e+00	0	43	0	494927872	68	4785
2026-01-04 08:19:21.48	49.78	21.85	-48.4	-50.9	18.0	0.00e+00	0	43	0	497025024	68	4802
2026-01-04 08:19:22.62	49.48	21.85	-48.4	-50.9	18.1	0.00e+00	0	44	0	499122176	68	4773
2026-01-04 08:19:23.48	49.25	21.84	-48.4	-50.9	18.1	0.00e+00	0	43	0	500170752	68	4788
2026-01-04 08:19:24.63	48.94	21.84	-48.4	-50.9	18.1	0.00e+00	0	43	0	502267904	68	4785
2026-01-04 08:19:25.49	48.72	21.84	-48.3	-50.8	18.2	0.00e+00	0	43	0	504365056	68	4715
2026-01-04 08:19:26.63	48.41	21.83	-48.0	-50.5	18.5	0.00e+00	0	43	0	506462208	68	4552
2026-01-04 08:19:27.49	48.19	21.83	-48.0	-50.4	18.5	0.00e+00	0	43	0	507510784	68	4538
2026-01-04 08:19:28.64	47.88	21.82	-48.0	-50.4	18.5	0.00e+00	0	43	0	509607936	68	4510
2026-01-04 08:19:29.74	47.59	21.82	-48.0	-50.4	18.5	0.00e+00	0	43	0	511705088	68	4524
2026-01-04 08:19:30.79	47.31	21.81	-48.1	-50.5	18.4	0.00e+00	0	44	0	513802240	68	4557
2026-01-04 08:19:31.87	47.03	21.80	-47.8	-50.2	18.5	0.00e+00	0	43	0	515899392	67	4693
2026-01-04 08:19:32.82	46.77	21.80	-47.8	-50.1	18.6	0.00e+00	0	43	0	517996544	67	4649
2026-01-04 08:19:33.82	46.51	21.79	-47.4	-49.8	18.9	0.00e+00	0	44	0	520093696	66	4706
2026-01-04 08:19:34.83	46.24	21.78	-47.4	-49.6	19.0	0.00e+00	0	43	0	521142272	66	4648
2026-01-04 08:19:35.83	45.98	21.77	-47.5	-49.8	18.9	0.00e+00	0	43	0	523239424	66	4746
2026-01-04 08:19:36.83	45.72	21.76	-47.4	-49.7	18.9	0.00e+00	0	43	0	525336576	66	4676
2026-01-04 08:19:37.84	45.45	21.75	-47.3	-49.5	19.2	0.00e+00	0	43	0	527433728	66	4592
2026-01-04 08:19:38.84	45.19	21.74	-47.1	-49.3	19.3	0.00e+00	0	43	0	529530880	66	4480
2026-01-04 08:19:39.84	44.92	21.72	-46.8	-49.0	19.6	0.00e+00	0	43	0	530579456	65	4563
2026-01-04 08:19:40.85	44.66	21.71	-46.5	-48.6	19.7	0.00e+00	0	43	0	532676608	64	4650
2026-01-04 08:19:41.85	44.39	21.70	-46.7	-48.9	19.5	0.00e+00	0	43	0	534773760	64	4789
2026-01-04 08:19:42.86	44.13	21.68	-46.7	-48.9	19.4	0.00e+00	0	43	0	536870912	64	4802
2026-01-04 08:19:43.87	43.86	21.67	-46.8	-49.0	19.5	0.00e+00	0	43	0	538968064	64	4847
2026-01-04 08:19:44.93	43.59	21.65	-46.7	-49.0	19.4	0.00e+00	0	43	0	541065216	64	4823
2026-01-04 08:19:45.84	43.35	21.64	-46.8	-49.0	19.3	0.00e+00	0	43	0	542113792	64	4868
2026-01-04 08:19:46.84	43.09	21.62	-46.2	-48.4	19.5	0.00e+00	0	43	0	544210944	64	4545
2026-01-04 08:19:47.84	42.83	21.60	-46.2	-48.4	19.5	0.00e+00	0	43	0	546308096	64	4534
2026-01-04 08:19:48.85	42.56	21.59	-46.2	-48.5	19.6	0.00e+00	0	43	0	548405248	64	4552
2026-01-04 08:19:49.85	42.30	21.57	-46.3	-48.5	19.6	0.00e+00	0	43	0	549453824	64	4549
2026-01-04 08:19:50.85	42.04	21.55	-46.3	-48.5	19.6	0.00e+00	0	43	0	551550976	64	4566
2026-01-04 08:19:51.86	41.78	21.53	-46.2	-48.4	19.7	0.00e+00	0	43	0	553648128	64	4494
2026-01-04 08:19:52.86	41.52	21.51	-46.3	-48.5	19.6	0.00e+00	0	43	0	555745280	64	4547
2026-01-04 08:19:53.86	41.26	21.49	-46.7	-48.9	19.5	0.00e+00	0	43	0	557842432	64	4760
2026-01-04 08:19:54.86	41.00	21.46	-46.7	-48.8	19.5	0.00e+00	0	43	0	558891008	64	4755
2026-01-04 08:19:55.87	40.74	21.44	-46.6	-48.8	19.5	0.00e+00	0	43	0	560988160	64	4746
2026-01-04 08:19:56.93	40.47	21.42	-46.6	-48.8	19.5	0.00e+00	0	43	0	563085312	64	4753
2026-01-04 08:19:57.82	40.24	21.40	-46.7	-48.9	19.5	0.00e+00	0	43	0	565182464	64	4772
2026-01-04 08:19:58.90	39.96	21.37	-46.6	-48.8	19.5	0.00e+00	0	43	0	567279616	64	4740
2026-01-04 08:19:59.76	39.74	21.35	-46.7	-48.9	19.5	0.00e+00	0	43	0	568328192	64	4762
2026-01-04 08:20:00.90	39.45	21.32	-46.8	-49.0	19.3	0.00e+00	0	43	0	570425344	64	4870
2026-01-04 08:20:01.76	39.23	21.30	-46.9	-49.1	19.3	0.00e+00	0	43	0	572522496	64	4904
2026-01-04 08:20:02.91	38.93	21.27	-47.0	-49.3	19.0	0.00e+00	0	43	0	574619648	64	5022
2026-01-04 08:20:03.77	38.71	21.25	-47.0	-49.2	19.1	0.00e+00	0	43	0	575668224	64	4980
2026-01-04 08:20:04.92	38.42	21.21	-47.1	-49.3	19.0	0.00e+00	0	43	0	577765376	64	5039
2026-01-04 08:20:05.78	38.20	21.19	-47.3	-49.6	18.8	0.00e+00	0	43	0	579862528	65	4902
2026-01-04 08:20:06.97	37.90	21.16	-47.3	-49.7	18.7	0.00e+00	0	43	0	581959680	65	4933
2026-01-04 08:20:07.83	37.68	21.13	-47.4	-49.8	18.6	0.00e+00	0	43	0	584056832	65	4993
2026-01-04 08:20:09.09	37.36	21.09	-47.5	-50.0	18.5	0.00e+00	0	43	0	586153984	65	5107
2026-01-04 08:20:09.85	37.17	21.07	-47.6	-50.0	18.5	0.00e+00	0	43	0	587202560	65	5119
2026-01-04 08:20:11.14	36.85	21.03	-47.6	-50.0	18.5	0.00e+00	0	43	0	589299712	66	4845
2026-01-04 08:20:11.85	36.67	21.01	-47.6	-50.1	18.4	0.00e+00	0	44	0	591396864	66	4881
2026-01-04 08:20:13.15	36.34	20.97	-47.7	-50.1	18.3	0.00e+00	0	43	0	593494016	66	4922
2026-01-04 08:20:13.86	36.16	20.94	-47.7	-50.2	18.3	0.00e+00	0	43	0	594542592	66	4930
2026-01-04 08:20:15.15	35.84	20.90	-47.8	-50.3	18.2	0.00e+00	0	43	0	597688320	66	4994
2026-01-04 08:20:15.88	35.66	20.88	-47.8	-50.3	18.1	0.00e+00	0	43	0	598736896	66	5028
2026-01-04 08:20:17.17	35.34	20.83	-47.9	-50.5	18.0	0.00e+00	0	43	0	600834048	66	5129
2026-01-04 08:20:17.97	35.14	20.81	-48.0	-50.5	17.9	0.00e+00	0	43	0	602931200	66	5150
2026-01-04 08:20:19.11	34.86	20.76	-48.2	-50.7	17.7	0.00e+00	0	43	0	605028352	67	4966
2026-01-04 08:20:19.97	34.65	20.73	-48.2	-50.8	17.7	0.00e+00	0	43	0	606076928	67	5015
2026-01-04 08:20:21.12	34.36	20.69	-48.3	-50.8	17.7	0.00e+00	0	43	0	608174080	67	5037
2026-01-04 08:20:21.97	34.16	20.66	-48.3	-50.9	17.6	0.00e+00	0	43	0	610271232	67	5043
2026-01-04 08:20:23.12	33.87	20.62	-48.2	-50.8	17.8	0.00e+00	0	44	0	612368384	67	4985
2026-01-04 08:20:23.98	33.66	20.59	-48.1	-50.8	17.7	0.00e+00	0	43	0	613416960	67	4995
2026-01-04 08:20:25.12	33.39	20.54	-48.1	-50.7	17.7	0.00e+00	0	43	0	615514112	67	4968
2026-01-04 08:20:25.98	33.18	20.51	-48.2	-50.8	17.7	0.00e+00	0	43	0	617611264	67	5033
2026-01-04 08:20:27.12	32.90	20.47	-48.3	-51.0	17.6	0.00e+00	0	43	0	619708416	67	5116
2026-01-04 08:20:28.03	32.68	20.43	-48.3	-51.0	17.5	0.00e+00	0	43	0	621805568	67	5132
2026-01-04 08:20:29.05	32.43	20.39	-48.4	-51.2	17.3	0.00e+00	0	43	0	622854144	67	5224
2026-01-04 08:20:30.04	32.20	20.35	-48.5	-51.2	17.2	0.00e+00	0	44	0	624951296	67	5265
2026-01-04 08:20:31.05	31.95	20.31	-48.5	-51.3	17.2	1.50e-06	0	43	0	627048448	67	5286
2026-01-04 08:20:32.34	31.64	20.25	-48.7	-51.5	17.2	0.00e+00	0	43	0	629145600	68	5101
2026-01-04 08:20:33.09	31.47	20.22	-48.7	-51.4	17.2	0.00e+00	0	43	0	631242752	68	5099
2026-01-04 08:20:34.37	31.16	20.17	-48.7	-51.3	17.4	0.00e+00	0	43	0	633339904	68	5016
2026-01-04 08:20:35.15	30.98	20.13	-48.6	-51.3	17.4	2.20e-06	0	43	0	634388480	68	4990
2026-01-04 08:20:36.76	30.60	20.06	-48.7	-51.3	17.3	0.00e+00	0	43	0	637534208	68	5037
2026-01-04 08:20:37.33	30.46	20.04	-48.6	-51.3	17.4	0.00e+00	0	43	0	638582784	68	5013
2026-01-04 08:20:39.19	30.03	19.96	-48.5	-51.1	17.5	0.00e+00	0	44	0	642777088	68	4902
2026-01-04 08:20:39.76	29.89	19.93	-48.4	-51.1	17.6	0.00e+00	0	43	0	643825664	68	4874
2026-01-04 08:20:41.38	29.51	19.86	-48.5	-51.1	17.7	0.00e+00	0	44	0	646971392	68	4922
2026-01-04 08:20:41.95	29.38	19.83	-48.4	-51.0	17.7	0.00e+00	0	43	0	648019968	68	4856
2026-01-04 08:20:43.55	29.01	19.76	-48.5	-51.2	17.4	0.00e+00	0	43	0	650117120	68	4963
2026-01-04 08:20:44.12	28.88	19.73	-48.7	-51.4	17.3	0.00e+00	0	43	0	651165696	68	5056
2026-01-04 08:20:45.73	28.51	19.65	-48.6	-51.3	17.4	2.05e-05	0	43	0	654311424	68	5012
2026-01-04 08:20:46.43	28.35	19.62	-48.6	-51.3	17.4	6.80e-06	0	43	0	655360000	68	5017
2026-01-04 08:20:47.72	28.05	19.56	-48.6	-51.3	17.4	0.00e+00	0	43	0	658505728	68	5003
2026-01-04 08:20:48.64	27.84	19.51	-48.5	-51.1	17.6	0.00e+00	0	43	0	660602880	68	4906
2026-01-04 08:20:49.97	27.54	19.45	-48.5	-51.1	17.6	0.00e+00	0	43	0	662700032	68	4907
2026-01-04 08:20:50.68	27.38	19.41	-48.3	-51.0	17.7	0.00e+00	0	43	0	663748608	68	4840
2026-01-04 08:20:51.97	27.09	19.35	-48.5	-51.2	17.6	0.00e+00	0	43	0	665845760	68	4959
2026-01-04 08:20:52.69	26.93	19.31	-48.2	-50.9	17.6	7.00e-07	0	43	0	667942912	68	4792
2026-01-04 08:20:53.98	26.64	19.25	-48.5	-51.3	17.5	0.00e+00	0	43	0	670040064	68	5029
2026-01-04 08:20:54.69	26.48	19.21	-48.4	-51.3	17.4	0.00e+00	0	43	0	671088640	68	5021
2026-01-04 08:20:55.98	26.20	19.15	-48.4	-51.4	17.3	0.00e+00	0	43	0	674234368	68	5096
2026-01-04 08:20:56.69	26.04	19.11	-48.3	-51.3	17.3	0.00e+00	0	43	0	675282944	68	4999
2026-01-04 08:20:57.98	25.75	19.04	-48.3	-51.3	17.3	0.00e+00	0	43	0	677380096	68	5013
2026-01-04 08:20:58.70	25.60	19.01	-48.1	-51.1	17.4	5.30e-06	0	43	0	678428672	67	5167
2026-01-04 08:20:59.99	25.31	18.94	-48.0	-51.0	17.4	3.00e-06	0	43	0	681574400	67	5135
2026-01-04 08:21:00.70	25.16	18.90	-47.7	-50.7	17.4	0.00e+00	0	43	0	682622976	67	4969
2026-01-04 08:21:01.99	24.88	18.83	-48.2	-51.1	17.4	0.00e+00	0	43	0	684720128	67	5178
2026-01-04 08:21:02.71	24.72	18.80	-48.1	-50.9	17.4	0.00e+00	0	43	0	686817280	67	5099
2026-01-04 08:21:04.00	24.44	18.73	-47.9	-50.6	17.5	0.00e+00	0	44	0	688914432	67	4901
2026-01-04 08:21:04.71	24.29	18.69	-48.0	-50.8	17.4	0.00e+00	0	43	0	689963008	67	4984
2026-01-04 08:21:06.00	24.01	18.62	-48.4	-51.0	17.5	0.00e+00	0	43	0	693108736	67	5144
2026-01-04 08:21:06.72	23.86	18.58	-48.3	-51.0	17.4	0.00e+00	0	43	0	694157312	67	5138
2026-01-04 08:21:08.01	23.58	18.51	-48.3	-50.9	17.4	0.00e+00	0	43	0	696254464	67	5100
2026-01-04 08:21:08.72	23.43	18.47	-48.2	-50.9	17.5	0.00e+00	0	43	0	697303040	67	5083
2026-01-04 08:21:10.01	23.16	18.40	-48.1	-50.8	17.5	0.00e+00	0	43	0	700448768	67	5036
2026-01-04 08:21:10.72	23.01	18.36	-48.2	-51.0	17.4	0.00e+00	0	43	0	701497344	67	5111
2026-01-04 08:21:12.13	22.71	18.28	-47.9	-50.6	17.4	0.00e+00	0	43	0	704643072	67	4912
2026-01-04 08:21:12.85	22.56	18.24	-47.9	-50.7	17.4	0.00e+00	0	43	0	705691648	67	4959
2026-01-04 08:21:14.17	22.29	18.16	-47.9	-50.6	17.5	0.00e+00	0	44	0	707788800	67	4889
2026-01-04 08:21:15.14	22.09	18.11	-48.2	-50.9	17.5	0.00e+00	0	43	0	709885952	67	5049
2026-01-04 08:21:16.45	21.82	18.03	-48.2	-50.9	17.3	0.00e+00	0	43	0	711983104	67	5079
2026-01-04 08:21:17.16	21.67	17.99	-48.0	-50.7	17.6	0.00e+00	0	44	0	713031680	67	4928
2026-01-04 08:21:18.83	21.33	17.90	-47.9	-50.5	17.8	0.00e+00	0	44	0	716177408	67	4856
2026-01-04 08:21:19.40	21.21	17.86	-47.9	-50.5	17.8	0.00e+00	0	44	0	718274560	67	4827
2026-01-04 08:21:20.99	20.89	17.77	-47.9	-50.5	17.8	0.00e+00	0	43	0	720371712	67	4870
2026-01-04 08:21:21.57	20.77	17.74	-48.4	-51.0	17.7	0.00e+00	0	43	0	721420288	67	5150
2026-01-04 08:21:23.16	20.45	17.65	-48.3	-51.0	17.4	0.00e+00	0	43	0	724566016	67	5150
2026-01-04 08:21:23.89	20.31	17.60	-48.4	-51.1	17.4	0.00e+00	0	43	0	726663168	67	5188
2026-01-04 08:21:25.18	20.05	17.53	-48.2	-50.9	17.4	0.00e+00	0	43	0	728760320	67	5063
2026-01-04 08:21:25.89	19.91	17.48	-48.3	-51.1	17.3	0.00e+00	0	43	0	729808896	67	5169
2026-01-04 08:21:27.18	19.65	17.41	-48.3	-51.1	17.3	0.00e+00	0	43	0	731906048	67	5193
2026-01-04 08:21:27.90	19.51	17.36	-48.3	-51.1	17.3	0.00e+00	0	43	0	734003200	67	5199
2026-01-04 08:21:29.27	19.24	17.28	-48.6	-51.4	17.2	0.00e+00	0	43	0	736100352	67	5370
2026-01-04 08:21:29.98	19.10	17.24	-48.4	-51.2	17.2	0.00e+00	0	44	0	737148928	67	5268
2026-01-04 08:21:31.27	18.85	17.16	-48.3	-51.3	17.2	0.00e+00	0	43	0	740294656	67	5283
2026-01-04 08:21:31.99	18.71	17.12	-48.3	-51.3	17.2	0.00e+00	0	43	0	741343232	67	5282
2026-01-04 08:21:33.27	18.46	17.04	-48.4	-51.3	17.1	0.00e+00	0	43	0	743440384	67	5332
2026-01-04 08:21:33.99	18.33	17.00	-48.4	-51.4	17.0	0.00e+00	0	43	0	745537536	67	5342
2026-01-04 08:21:35.28	18.08	16.92	-48.7	-51.5	17.2	0.00e+00	0	43	0	747634688	68	5154
2026-01-04 08:21:36.05	17.93	16.87	-48.9	-51.7	17.0	0.00e+00	0	43	0	748683264	68	5257
2026-01-04 08:21:37.66	17.63	16.77	-48.9	-51.5	17.2	0.00e+00	0	43	0	751828992	68	5152
2026-01-04 08:21:38.51	17.47	16.72	-48.8	-51.5	17.2	0.00e+00	0	43	0	753926144	68	5102
2026-01-04 08:21:39.65	17.25	16.65	-48.8	-51.5	17.2	0.00e+00	0	43	0	756023296	68	5149
2026-01-04 08:21:40.51	17.09	16.59	-48.9	-51.6	17.1	0.00e+00	0	43	0	757071872	68	5202
2026-01-04 08:21:41.66	16.88	16.52	-48.9	-51.6	17.1	0.00e+00	0	44	0	759169024	68	5197
2026-01-04 08:21:42.51	16.72	16.47	-48.9	-51.6	17.1	0.00e+00	0	43	0	761266176	68	5193
2026-01-04 08:21:43.66	16.51	16.40	-48.9	-51.6	17.0	0.00e+00	0	43	0	763363328	68	5215
2026-01-04 08:21:44.52	16.35	16.34	-48.9	-51.7	16.9	0.00e+00	0	43	0	764411904	69	4952
2026-01-04 08:21:45.67	16.14	16.27	-48.8	-51.6	17.1	0.00e+00	0	43	0	766509056	69	4876
2026-01-04 08:21:46.53	15.98	16.22	-48.8	-51.5	17.1	0.00e+00	0	43	0	768606208	69	4865
2026-01-04 08:21:47.67	15.77	16.15	-48.5	-51.3	17.2	0.00e+00	0	43	0	770703360	68	5004
2026-01-04 08:21:48.53	15.62	16.09	-48.4	-51.3	17.2	0.00e+00	0	44	0	772800512	68	4990
2026-01-04 08:21:49.68	15.41	16.02	-48.4	-51.3	17.1	0.00e+00	0	43	0	774897664	68	4996
2026-01-04 08:21:50.53	15.26	15.97	-48.3	-51.2	17.2	0.00e+00	0	44	0	775946240	68	4951
2026-01-04 08:21:51.68	15.05	15.89	-48.1	-51.1	17.2	0.00e+00	0	44	0	778043392	68	4874
2026-01-04 08:21:52.81	14.85	15.82	-47.7	-50.6	17.5	0.00e+00	0	43	0	780140544	67	4897
2026-01-04 08:21:53.83	14.67	15.76	-47.7	-50.6	17.5	0.00e+00	0	44	0	782237696	67	4886
2026-01-04 08:21:54.99	14.47	15.68	-47.5	-50.5	17.6	0.00e+00	0	44	0	784334848	67	4836
2026-01-04 08:21:55.84	14.32	15.63	-47.5	-50.5	17.6	0.00e+00	0	43	0	786432000	67	4838
2026-01-04 08:21:56.98	14.12	15.55	-47.4	-50.4	17.7	0.00e+00	0	44	0	788529152	66	5042
2026-01-04 08:21:57.84	13.97	15.50	-47.3	-50.3	17.7	0.00e+00	0	44	0	789577728	66	5010
2026-01-04 08:21:58.99	13.77	15.43	-47.3	-50.3	17.7	0.00e+00	0	44	0	791674880	66	5033
2026-01-04 08:21:59.85	13.62	15.37	-47.4	-50.4	17.6	0.00e+00	0	44	0	793772032	66	5076
2026-01-04 08:22:00.99	13.43	15.30	-47.3	-50.3	17.7	0.00e+00	0	44	0	795869184	66	5040
2026-01-04 08:22:01.86	13.28	15.24	-47.2	-50.2	17.8	0.00e+00	0	43	0	796917760	66	4958
2026-01-04 08:22:03.00	13.08	15.17	-47.3	-50.2	17.8	0.00e+00	0	44	0	799014912	66	4938
2026-01-04 08:22:03.86	12.94	15.11	-47.4	-50.2	17.9	0.00e+00	0	43	0	801112064	66	4973
2026-01-04 08:22:05.00	12.75	15.04	-47.4	-50.1	18.0	0.00e+00	0	43	0	803209216	66	4897
2026-01-04 08:22:05.86	12.60	14.98	-47.3	-50.0	18.0	0.00e+00	0	43	0	805306368	66	4842
2026-01-04 08:22:07.01	12.41	14.91	-47.4	-50.0	18.0	0.00e+00	0	43	0	807403520	66	4848
2026-01-04 08:22:07.87	12.27	14.85	-47.3	-49.8	18.2	1.50e-06	0	43	0	808452096	66	4740
2026-01-04 08:22:09.01	12.08	14.78	-47.1	-49.7	18.4	3.00e-06	0	43	0	810549248	66	4658
2026-01-04 08:22:09.87	11.94	14.72	-47.1	-49.6	18.4	0.00e+00	0	43	0	812646400	66	4629
2026-01-04 08:22:11.02	11.75	14.65	-47.8	-50.4	18.2	0.00e+00	0	44	0	814743552	66	5088
2026-01-04 08:22:11.87	11.61	14.59	-47.8	-50.4	18.2	0.00e+00	0	43	0	815792128	66	5082
2026-01-04 08:22:13.02	11.42	14.51	-47.6	-50.2	18.4	0.00e+00	0	43	0	817889280	66	4982
2026-01-04 08:22:13.88	11.28	14.46	-47.6	-50.3	18.3	0.00e+00	0	43	0	819986432	66	4995
2026-01-04 08:22:15.02	11.10	14.38	-47.6	-50.2	18.3	0.00e+00	0	44	0	822083584	66	4965
2026-01-04 08:22:15.88	10.96	14.33	-47.5	-50.2	18.3	0.00e+00	0	43	0	823132160	66	4944
2026-01-04 08:22:17.03	10.78	14.25	-47.6	-50.3	18.2	0.00e+00	0	43	0	825229312	66	5013
2026-01-04 08:22:17.89	10.64	14.20	-47.7	-50.3	18.2	0.00e+00	0	44	0	827326464	66	5038
2026-01-04 08:22:19.13	10.45	14.11	-47.5	-50.2	18.3	0.00e+00	0	43	0	829423616	66	4933
2026-01-04 08:22:20.40	10.25	14.03	-47.2	-50.0	18.3	0.00e+00	0	43	0	832569344	66	4834
2026-01-04 08:22:21.11	10.13	13.98	-46.8	-49.6	18.3	0.00e+00	0	44	0	833617920	65	4886
2026-01-04 08:22:22.40	9.93	13.90	-46.6	-49.4	18.4	0.00e+00	0	44	0	835715072	65	4809
2026-01-04 08:22:23.12	9.82	13.85	-46.6	-49.5	18.4	0.00e+00	0	44	0	836763648	65	4838
2026-01-04 08:22:24.47	9.61	13.76	-46.8	-49.7	18.3	0.00e+00	0	44	0	839909376	65	4936
2026-01-04 08:22:25.18	9.50	13.72	-47.2	-50.1	18.3	0.00e+00	0	43	0	840957952	65	5190
2026-01-04 08:22:26.57	9.29	13.63	-47.3	-50.1	18.4	0.00e+00	0	44	0	844103680	65	5169
2026-01-04 08:22:27.28	9.18	13.58	-47.4	-50.2	18.2	0.00e+00	0	43	0	845152256	65	5244
2026-01-04 08:22:28.57	8.99	13.49	-47.4	-50.1	18.4	0.00e+00	0	43	0	847249408	65	5176
2026-01-04 08:22:29.29	8.88	13.45	-47.3	-50.0	18.3	0.00e+00	0	44	0	848297984	65	5147
2026-01-04 08:22:30.74	8.66	13.35	-47.1	-50.0	18.2	0.00e+00	0	43	0	851443712	65	5110
2026-01-04 08:22:31.45	8.56	13.30	-47.3	-50.2	18.1	0.00e+00	0	43	0	852492288	65	5257
2026-01-04 08:22:32.74	8.36	13.22	-47.4	-50.4	18.0	0.00e+00	0	43	0	855638016	65	5377
2026-01-04 08:22:33.46	8.26	13.17	-47.3	-50.4	18.1	0.00e+00	0	43	0	856686592	65	5359
2026-01-04 08:22:34.75	8.07	13.09	-47.2	-50.3	17.9	0.00e+00	0	43	0	858783744	65	5302
2026-01-04 08:22:35.46	7.96	13.04	-47.2	-50.2	18.0	0.00e+00	0	44	0	859832320	65	5265
2026-01-04 08:22:36.75	7.77	12.95	-47.4	-50.3	17.9	0.00e+00	0	44	0	862978048	65	5314
2026-01-04 08:22:37.48	7.67	12.91	-47.9	-50.8	17.8	0.00e+00	0	43	0	864026624	66	5313
2026-01-04 08:22:38.77	7.48	12.82	-47.8	-50.6	17.8	0.00e+00	0	43	0	866123776	66	5191
2026-01-04 08:22:39.55	7.37	12.77	-47.9	-50.8	17.8	0.00e+00	0	43	0	868220928	66	5284
2026-01-04 08:22:40.84	7.18	12.68	-47.9	-50.8	17.5	0.00e+00	0	43	0	870318080	66	5287
2026-01-04 08:22:41.55	7.08	12.64	-47.9	-50.7	17.6	0.00e+00	0	43	0	871366656	66	5245
2026-01-04 08:22:42.84	6.90	12.55	-48.0	-50.8	17.5	0.00e+00	0	44	0	874512384	66	5307
2026-01-04 08:22:43.68	6.78	12.50	-47.9	-50.8	17.6	0.00e+00	0	43	0	875560960	66	5283
2026-01-04 08:22:44.83	6.62	12.42	-47.9	-50.8	17.5	0.00e+00	0	43	0	877658112	66	5302
2026-01-04 08:22:45.69	6.50	12.36	-48.0	-50.9	17.5	0.00e+00	0	43	0	879755264	66	5350
2026-01-04 08:22:46.83	6.34	12.29	-48.0	-50.8	17.5	0.00e+00	0	44	0	881852416	66	5334
2026-01-04 08:22:47.69	6.22	12.23	-48.0	-50.8	17.5	0.00e+00	0	44	0	882900992	66	5313
2026-01-04 08:22:48.84	6.06	12.16	-47.8	-50.6	17.7	0.00e+00	0	44	0	884998144	66	5186
2026-01-04 08:22:49.70	5.94	12.10	-48.0	-51.0	17.6	0.00e+00	0	43	0	887095296	66	5416
2026-01-04 08:22:50.85	5.79	12.02	-47.7	-50.7	17.7	0.00e+00	0	43	0	889192448	66	5267
2026-01-04 08:22:51.70	5.67	11.97	-47.7	-50.7	17.7	0.00e+00	0	44	0	891289600	66	5251
2026-01-04 08:22:52.85	5.52	11.89	-47.7	-50.8	17.7	0.00e+00	0	43	0	893386752	66	5315
2026-01-04 08:22:53.71	5.40	11.83	-47.7	-50.9	17.6	0.00e+00	0	43	0	894435328	66	5347
2026-01-04 08:22:54.86	5.24	11.76	-47.8	-50.9	17.5	0.00e+00	0	44	0	896532480	66	5388
2026-01-04 08:22:55.72	5.13	11.70	-47.9	-51.0	17.4	0.00e+00	0	43	0	898629632	66	5410
2026-01-04 08:22:56.86	4.98	11.63	-48.2	-51.3	17.2	0.00e+00	0	43	0	900726784	66	5635
2026-01-04 08:22:57.72	4.86	11.57	-48.2	-51.3	17.1	0.00e+00	0	44	0	901775360	67	5293
2026-01-04 08:22:58.86	4.71	11.50	-48.2	-51.3	17.1	0.00e+00	0	43	0	903872512	67	5334
2026-01-04 08:22:59.72	4.60	11.44	-48.2	-51.4	17.0	0.00e+00	0	44	0	905969664	67	5385
2026-01-04 08:23:00.87	4.45	11.36	-48.2	-51.4	17.0	0.00e+00	0	43	0	908066816	67	5398
2026-01-04 08:23:01.72	4.34	11.31	-48.3	-51.5	16.9	0.00e+00	0	43	0	909115392	67	5448
2026-01-04 08:23:02.87	4.19	11.23	-48.3	-51.5	16.9	0.00e+00	0	43	0	911212544	67	5444
2026-01-04 08:23:03.73	4.08	11.18	-48.4	-51.7	16.7	0.00e+00	0	43	0	913309696	67	5560
2026-01-04 08:23:05.00	3.92	11.09	-48.2	-51.5	16.9	0.00e+00	0	44	0	915406848	67	5426
2026-01-04 08:23:05.72	3.83	11.04	-48.2	-51.5	16.9	0.00e+00	0	43	0	917504000	67	5443
2026-01-04 08:23:07.01	3.66	10.96	-48.2	-51.4	16.9	0.00e+00	0	43	0	919601152	67	5397
2026-01-04 08:23:07.73	3.57	10.91	-48.3	-51.6	16.9	0.00e+00	0	43	0	920649728	67	5484
2026-01-04 08:23:09.02	3.41	10.83	-48.4	-51.7	16.7	0.00e+00	0	44	0	922746880	67	5553
2026-01-04 08:23:09.73	3.32	10.78	-48.4	-51.6	16.8	0.00e+00	0	43	0	924844032	67	5502
2026-01-04 08:23:11.02	3.16	10.70	-48.9	-51.9	16.7	0.00e+00	0	44	0	926941184	68	5391
2026-01-04 08:23:11.74	3.07	10.65	-49.0	-51.9	16.7	0.00e+00	0	43	0	927989760	68	5364
2026-01-04 08:23:13.03	2.91	10.57	-49.0	-51.9	16.7	0.00e+00	0	44	0	931135488	69	5055
2026-01-04 08:23:13.74	2.82	10.52	-49.0	-51.9	16.7	0.00e+00	0	44	0	932184064	69	5094
2026-01-04 08:23:15.03	2.66	10.44	-48.8	-52.0	16.6	0.00e+00	0	43	0	934281216	69	5133
2026-01-04 08:23:15.75	2.58	10.39	-48.8	-52.0	16.5	0.00e+00	0	43	0	936378368	69	5157
2026-01-04 08:23:17.04	2.42	10.31	-48.8	-52.1	16.5	0.00e+00	0	43	0	938475520	69	5208
2026-01-04 08:23:17.75	2.33	10.26	-48.8	-52.1	16.4	0.00e+00	0	44	0	939524096	69	5211
2026-01-04 08:23:19.04	2.18	10.18	-49.0	-52.3	16.2	0.00e+00	0	43	0	941621248	69	5332
2026-01-04 08:23:19.75	2.09	10.13	-49.1	-52.3	16.2	0.00e+00	0	43	0	943718400	69	5326
2026-01-04 08:23:21.04	1.94	10.05	-49.1	-52.3	16.2	0.00e+00	0	44	0	945815552	69	5296
2026-01-04 08:23:21.75	1.86	10.00	-49.1	-52.3	16.1	0.00e+00	0	44	0	946864128	69	5340
2026-01-04 08:23:23.04	1.70	9.92	-49.0	-52.4	16.1	0.00e+00	0	44	0	950009856	69	5384
2026-01-04 08:23:23.75	1.62	9.87	-48.9	-52.4	16.1	0.00e+00	0	43	0	951058432	69	5380
2026-01-04 08:23:25.04	1.47	9.79	-48.7	-52.6	15.8	0.00e+00	0	43	0	953155584	69	5484
2026-01-04 08:23:25.76	1.39	9.74	-48.7	-52.5	15.9	0.00e+00	0	43	0	954204160	69	5433
2026-01-04 08:23:27.05	1.24	9.66	-48.6	-52.5	16.0	0.00e+00	0	44	0	957349888	69	5421
2026-01-04 08:23:27.76	1.15	9.61	-48.7	-52.6	15.9	0.00e+00	0	44	0	958398464	69	5470
2026-01-04 08:23:29.05	1.01	9.53	-48.7	-52.4	16.1	0.00e+00	0	43	0	960495616	69	5377
2026-01-04 08:23:29.77	0.92	9.48	-48.8	-52.4	16.1	0.00e+00	0	43	0	962592768	69	5359
2026-01-04 08:23:31.05	0.78	9.40	-48.9	-52.4	16.1	0.00e+00	0	43	0	964689920	69	5388
2026-01-04 08:23:31.77	0.70	9.35	-49.1	-52.5	16.2	0.00e+00	0	43	0	965738496	69	5456
2026-01-04 08:23:33.06	0.55	9.27	-49.3	-52.7	16.1	0.00e+00	0	43	0	967835648	69	5579
2026-01-04 08:23:33.77	0.47	9.22	-49.1	-52.6	16.1	1.90e-05	0	44	0	969932800	69	5482
2026-01-04 08:23:35.06	0.33	9.14	-49.4	-52.9	15.9	0.00e+00	0	44	0	972029952	69	5700
2026-01-04 08:23:35.78	0.25	9.10	-49.4	-53.0	15.9	0.00e+00	0	43	0	973078528	69	5723
2026-01-04 08:23:37.12	0.10	9.01	-49.4	-53.0	15.8	0.00e+00	0	43	0	976224256	69	5767
2026-01-04 08:23:37.84	0.02	8.96	-52.4	-59.8	9.3	0.00e+00	0	43	0	977272832	75	8877
2026-01-04 08:23:39.13	359.88	8.88	-54.5	-70.1	3.8	1.49e+00	0	44	104	977272832	79	23241
2026-01-04 08:23:39.85	359.80	8.83	-54.3	-70.2	3.8	1.49e+00	0	44	104	977272832	80	22193
2026-01-04 08:23:41.14	359.66	8.75	-54.8	-70.3	3.8	1.49e+00	0	44	104	977272832	80	22341
2026-01-04 08:23:41.86	359.58	8.71	-54.4	-70.4	3.8	1.49e+00	0	43	104	977272832	80	22572
2026-01-04 08:23:43.15	359.44	8.62	-55.1	-70.3	3.8	1.49e+00	0	43	104	977272832	81	21148
2026-01-04 08:23:43.88	359.36	8.58	-55.2	-70.4	3.8	1.49e+00	0	44	104	977272832	81	21279
2026-01-04 08:23:45.17	359.23	8.50	-55.2	-70.3	3.8	1.49e+00	0	44	104	977272832	81	21178
2026-01-04 08:23:45.92	359.15	8.45	-54.9	-70.3	3.8	1.49e+00	0	43	104	977272832	81	21116
2026-01-04 08:23:47.21	359.01	8.37	-54.9	-70.3	3.8	1.49e+00	0	43	104	977272832	81	21027
2026-01-04 08:23:47.99	358.93	8.32	-55.2	-70.5	3.8	1.49e+00	0	43	104	977272832	81	21620
2026-01-04 08:23:49.27	358.79	8.24	-55.3	-70.5	3.8	1.49e+00	0	44	104	977272832	81	21604
2026-01-04 08:23:50.01	358.72	8.19	-55.0	-70.5	3.8	1.49e+00	0	44	104	977272832	81	21708
2026-01-04 08:23:51.30	358.58	8.11	-55.1	-70.3	3.8	1.49e+00	0	43	104	977272832	81	21226
2026-01-04 08:23:52.08	358.50	8.06	-55.3	-70.5	3.8	1.49e+00	0	43	104	977272832	81	21588
2026-01-04 08:23:53.24	358.38	7.99	-55.2	-70.5	3.8	1.49e+00	0	43	104	977272832	81	21704
2026-01-04 08:23:54.25	358.28	7.92	-55.3	-70.5	3.8	1.49e+00	0	43	104	977272832	81	21623
2026-01-04 08:23:55.25	358.18	7.86	-55.4	-70.6	3.8	1.49e+00	0	44	104	977272832	81	21795
2026-01-04 08:23:56.26	358.08	7.80	-55.5	-70.6	3.8	1.49e+00	0	44	104	977272832	81	21939
2026-01-04 08:23:57.26	357.97	7.73	-55.5	-70.5	3.8	1.49e+00	0	43	104	977272832	81	21690
2026-01-04 08:23:58.27	357.87	7.67	-55.4	-70.5	3.8	1.49e+00	0	44	104	977272832	81	21516
2026-01-04 08:23:59.27	357.77	7.61	-55.3	-70.5	3.8	1.49e+00	0	43	104	977272832	81	21557
2026-01-04 08:24:00.27	357.67	7.55	-55.3	-70.4	3.8	1.49e+00	0	44	104	977272832	81	21482
2026-01-04 08:24:01.28	357.57	7.48	-55.3	-70.5	3.8	1.49e+00	0	44	104	977272832	81	21587
2026-01-04 08:24:02.28	357.47	7.42	-55.0	-70.2	3.8	1.49e+00	0	44	104	977272832	81	21011
2026-01-04 08:24:03.34	357.37	7.35	-55.2	-70.2	3.8	1.49e+00	0	44	104	977272832	81	20939
2026-01-04 08:24:04.24	357.28	7.30	-55.2	-70.2	3.8	1.49e+00	0	44	104	977272832	81	20953
2026-01-04 08:24:05.41	357.17	7.23	-54.8	-70.0	3.8	1.49e+00	0	44	104	977272832	81	20536
2026-01-04 08:24:06.32	357.08	7.17	-54.8	-70.1	3.8	1.49e+00	0	43	104	977272832	81	20683
2026-01-04 08:24:07.51	356.96	7.10	-54.7	-70.1	3.8	1.49e+00	0	43	104	977272832	81	20545
2026-01-04 08:24:08.39	356.88	7.04	-54.9	-70.4	3.8	1.49e+00	0	44	104	977272832	80	22636
2026-01-04 08:24:09.53	356.77	6.97	-55.0	-70.4	3.8	1.49e+00	0	43	104	977272832	80	22606
2026-01-04 08:24:10.40	356.69	6.92	-55.0	-70.4	3.8	1.49e+00	0	44	104	977272832	80	22641
2026-01-04 08:24:11.54	356.58	6.85	-55.0	-70.4	3.8	1.49e+00	0	44	104	977272832	80	22635
2026-01-04 08:24:12.40	356.50	6.79	-54.9	-70.4	3.8	1.49e+00	0	43	104	977272832	80	22617
2026-01-04 08:24:13.55	356.39	6.72	-55.0	-70.4	3.8	1.49e+00	0	43	104	977272832	80	22689
2026-01-04 08:24:14.41	356.31	6.67	-54.9	-70.3	3.8	1.49e+00	0	44	104	977272832	80	22327
2026-01-04 08:24:15.56	356.20	6.60	-54.6	-70.0	3.8	1.49e+00	0	44	104	977272832	80	21619
2026-01-04 08:24:16.42	356.12	6.55	-54.7	-70.0	3.8	1.49e+00	0	43	104	977272832	80	21754
2026-01-04 08:24:17.57	356.02	6.48	-54.6	-70.0	3.8	1.49e+00	0	43	104	977272832	80	21625
2026-01-04 08:24:18.43	355.94	6.42	-54.7	-70.2	3.8	1.49e+00	0	43	104	977272832	80	22031
2026-01-04 08:24:19.57	355.83	6.35	-54.8	-70.2	3.8	1.49e+00	0	44	104	977272832	80	22244
2026-01-04 08:24:20.43	355.75	6.30	-54.7	-70.1	3.8	1.49e+00	0	44	104	977272832	80	21956
2026-01-04 08:24:21.58	355.65	6.23	-54.8	-70.2	3.8	1.49e+00	0	44	104	977272832	80	22119
2026-01-04 08:24:22.44	355.57	6.18	-54.8	-70.2	3.8	1.49e+00	0	44	104	977272832	80	22133
2026-01-04 08:24:23.59	355.47	6.11	-54.8	-70.2	3.8	1.49e+00	0	44	104	977272832	80	22050
2026-01-04 08:24:24.45	355.39	6.06	-54.7	-70.1	3.8	1.49e+00	0	44	104	977272832	80	21968
2026-01-04 08:24:25.59	355.29	5.99	-54.8	-70.2	3.8	1.49e+00	0	44	104	977272832	80	22019
2026-01-04 08:24:26.45	355.21	5.93	-54.6	-70.0	3.8	1.49e+00	0	44	104	977272832	80	21517
2026-01-04 08:24:27.60	355.11	5.87	-54.5	-70.0	3.8	1.49e+00	0	43	104	977272832	80	21530
2026-01-04 08:24:28.46	355.04	5.81	-54.5	-69.9	3.8	1.49e+00	0	44	104	977272832	80	21472
2026-01-04 08:24:29.61	354.94	5.74	-54.5	-69.9	3.8	1.49e+00	0	43	104	977272832	80	21271
2026-01-04 08:24:30.47	354.86	5.69	-54.5	-69.9	3.8	1.49e+00	0	44	104	977272832	80	21441
2026-01-04 08:24:31.62	354.76	5.62	-54.5	-69.9	3.8	1.49e+00	0	44	104	977272832	80	21438
2026-01-04 08:24:32.48	354.69	5.57	-54.5	-69.9	3.8	1.49e+00	0	44	104	977272832	80	21445
2026-01-04 08:24:33.63	354.59	5.50	-54.5	-69.9	3.8	1.49e+00	0	44	104	977272832	80	21383
2026-01-04 08:24:34.49	354.51	5.45	-54.4	-69.9	3.8	1.49e+00	0	43	104	977272832	80	21319
2026-01-04 08:24:35.64	354.41	5.38	-54.4	-69.8	3.8	1.49e+00	0	44	104	977272832	80	21195
2026-01-04 08:24:36.50	354.34	5.33	-54.5	-69.9	3.8	1.49e+00	0	44	104	977272832	80	21459
2026-01-04 08:24:37.64	354.24	5.26	-54.5	-69.9	3.8	1.49e+00	0	44	104	977272832	80	21368
2026-01-04 08:24:38.50	354.17	5.21	-54.5	-69.8	3.8	1.49e+00	0	44	104	977272832	80	21254
2026-01-04 08:24:39.65	354.08	5.14	-54.6	-70.0	3.8	1.49e+00	0	43	104	977272832	80	21626
2026-01-04 08:24:40.51	354.00	5.09	-54.5	-69.9	3.8	1.49e+00	0	44	104	977272832	80	21493
2026-01-04 08:24:41.66	353.91	5.02	-54.4	-69.8	3.8	1.49e+00	0	44	104	977272832	79	22349
2026-01-04 08:24:42.52	353.84	4.97	-54.6	-70.1	3.8	1.49e+00	0	44	104	977272832	79	23081

#Closed at: 2026-01-04 08:24:43
#Recorded file [977 MB]: D:/Data/31040_260104_111400.dat