passes_logs/2026/01/04/T1/T1__20260104_104244_NOAA_21_JPSS-2_rec.log

#Pass ID: 20260104_104244_NOAA 21 (JPSS-2)
#Satellite: NOAA 21 (JPSS-2)
#Configuration: NOAA 21
#almurnet v.1.7.20251203
#Start time: 2026-01-04 10:42:45

#Version: 2.0.20230620
#Station: T1
#Location: 37.570604 lon 55.790049 lat
#TLE: 1 54234U 22150A   26003.94651505  .00000183  00000+0  10759-3 0  9990
#TLE: 2 54234  98.7488 304.9806 0001136 345.9488  14.1656 14.19531852163244

#Time	Az	El	Level	Level2	SNR	BER	BlckErr	Temp	State	Recorded	gain1	gain2
2026-01-04 10:42:45.86	185.34	5.07	-53.9	-67.4	3.8	1.49e+00	0	39	0	0	79	16994
2026-01-04 10:42:46.86	185.38	5.14	-53.6	-67.1	3.8	1.49e+00	0	39	104	0	78	17395
2026-01-04 10:42:47.86	185.43	5.21	-53.7	-67.1	3.8	1.49e+00	0	39	104	0	78	17329
2026-01-04 10:42:48.87	185.48	5.28	-53.5	-66.9	3.8	1.49e+00	0	39	104	0	78	16996
2026-01-04 10:42:49.87	185.52	5.35	-53.5	-66.8	3.8	1.49e+00	0	39	104	0	78	16880
2026-01-04 10:42:50.87	185.57	5.42	-53.5	-66.8	3.8	1.49e+00	0	39	104	0	78	16873
2026-01-04 10:42:51.88	185.62	5.49	-53.5	-66.9	3.8	1.49e+00	0	39	104	0	78	16907
2026-01-04 10:42:52.88	185.66	5.56	-53.4	-66.8	3.8	1.49e+00	0	39	104	0	78	16799
2026-01-04 10:42:53.88	185.71	5.63	-53.4	-66.9	3.8	1.49e+00	0	39	104	0	78	16892
2026-01-04 10:42:54.89	185.76	5.70	-53.3	-66.8	3.8	1.49e+00	0	39	104	0	78	16799
2026-01-04 10:42:55.89	185.80	5.77	-53.2	-66.7	3.8	1.49e+00	0	39	104	0	78	16648
2026-01-04 10:42:56.90	185.85	5.84	-53.2	-66.6	3.8	1.49e+00	0	39	104	0	78	16441
2026-01-04 10:42:57.90	185.90	5.92	-53.2	-66.5	3.8	1.49e+00	0	39	104	0	78	16194
2026-01-04 10:42:58.90	185.95	5.99	-53.3	-66.4	3.8	1.49e+00	0	40	104	0	78	16039
2026-01-04 10:42:59.91	186.00	6.06	-53.2	-66.2	3.8	1.49e+00	0	39	104	0	78	15691
2026-01-04 10:43:00.92	186.04	6.13	-53.1	-66.1	3.8	1.49e+00	0	40	104	0	78	15548
2026-01-04 10:43:01.92	186.09	6.20	-53.2	-66.2	3.8	1.49e+00	0	40	104	0	78	15658
2026-01-04 10:43:02.92	186.14	6.27	-53.3	-66.3	3.8	1.49e+00	0	40	104	0	78	15878
2026-01-04 10:43:03.93	186.19	6.35	-53.3	-66.4	3.8	1.49e+00	0	40	104	0	78	16031
2026-01-04 10:43:04.93	186.24	6.42	-53.3	-66.6	3.8	1.49e+00	0	40	104	0	78	16354
2026-01-04 10:43:05.94	186.29	6.49	-53.2	-66.6	3.8	1.49e+00	0	40	104	0	78	16445
2026-01-04 10:43:06.94	186.34	6.56	-53.2	-66.6	3.8	1.49e+00	0	40	104	0	78	16356
2026-01-04 10:43:07.94	186.39	6.64	-53.4	-66.4	3.8	1.49e+00	0	40	104	0	78	16101
2026-01-04 10:43:08.95	186.44	6.71	-53.4	-66.1	3.8	1.49e+00	0	40	104	0	78	15437
2026-01-04 10:43:09.96	186.49	6.78	-53.4	-65.5	3.8	1.49e+00	0	40	104	0	78	14514
2026-01-04 10:43:10.96	186.54	6.86	-53.3	-64.9	3.9	1.49e+00	0	40	104	0	78	13549
2026-01-04 10:43:11.96	186.59	6.93	-53.7	-65.5	3.9	1.49e+00	0	40	104	0	78	14428
2026-01-04 10:43:12.97	186.65	7.00	-53.5	-65.4	3.8	1.49e+00	0	40	104	0	78	14356
2026-01-04 10:43:13.97	186.70	7.08	-53.6	-66.0	3.8	1.49e+00	0	40	104	0	78	15372
2026-01-04 10:43:14.98	186.75	7.15	-53.7	-66.9	3.8	1.49e+00	0	40	104	0	78	16941
2026-01-04 10:43:15.98	186.80	7.23	-53.6	-67.0	3.8	1.49e+00	0	40	104	0	78	17235
2026-01-04 10:43:16.98	186.85	7.30	-53.4	-65.6	3.8	1.49e+00	0	40	104	0	78	14597
2026-01-04 10:43:17.99	186.91	7.38	-52.9	-62.3	4.6	1.47e+00	0	40	104	0	77	10651
2026-01-04 10:43:18.99	186.96	7.45	-52.3	-59.5	6.4	4.11e-01	0	40	0	0	76	8107
2026-01-04 10:43:20.00	187.01	7.53	-51.7	-57.5	8.2	6.82e-02	0	40	0	0	75	6829
2026-01-04 10:43:21.00	187.07	7.60	-50.7	-55.3	10.5	4.95e-03	0	40	0	0	73	5930
2026-01-04 10:43:22.01	187.12	7.68	-49.6	-53.1	12.7	4.65e-04	0	40	0	0	71	5183
2026-01-04 10:43:23.01	187.17	7.75	-48.7	-51.8	14.0	8.30e-06	0	40	0	0	69	5020
2026-01-04 10:43:24.01	187.23	7.83	-48.2	-51.0	14.8	7.00e-07	0	41	0	0	68	4816
2026-01-04 10:43:25.02	187.28	7.91	-47.5	-50.0	15.6	0.00e+00	0	40	0	0	66	4855
2026-01-04 10:43:26.02	187.34	7.98	-47.1	-49.5	16.1	0.00e+00	0	41	0	0	66	4569
2026-01-04 10:43:27.03	187.39	8.06	-47.0	-49.4	16.2	0.00e+00	0	40	0	0	65	4781
2026-01-04 10:43:28.03	187.45	8.14	-46.8	-49.2	16.3	0.00e+00	0	40	0	0	65	4667
2026-01-04 10:43:29.04	187.50	8.21	-47.2	-49.7	16.0	0.00e+00	0	40	0	0	65	4962
2026-01-04 10:43:30.04	187.56	8.29	-47.6	-50.2	15.6	0.00e+00	0	40	0	0	65	5243
2026-01-04 10:43:31.05	187.61	8.37	-48.1	-50.9	15.0	0.00e+00	0	41	0	0	66	5362
2026-01-04 10:43:32.05	187.67	8.45	-49.1	-52.1	13.9	1.50e-06	0	40	0	0	68	5514
2026-01-04 10:43:33.05	187.73	8.52	-49.8	-53.3	12.7	5.79e-05	0	41	0	0	70	5646
2026-01-04 10:43:34.06	187.78	8.60	-50.4	-54.4	11.7	2.78e-04	0	41	0	0	71	6002
2026-01-04 10:43:35.06	187.84	8.68	-51.2	-56.0	9.9	3.75e-03	0	41	0	0	72	6837
2026-01-04 10:43:36.07	187.90	8.76	-51.7	-57.2	8.7	2.29e-02	0	41	0	0	74	7021
2026-01-04 10:43:37.07	187.96	8.84	-52.0	-58.4	7.4	9.39e-02	0	41	0	0	74	8026
2026-01-04 10:43:38.07	188.01	8.92	-52.4	-59.6	6.3	2.12e-01	0	41	0	0	75	8707
2026-01-04 10:43:39.08	188.07	9.00	-52.5	-60.6	5.5	4.38e-01	0	41	0	0	75	9812
2026-01-04 10:43:40.08	188.13	9.08	-52.7	-61.4	5.1	6.04e-01	0	41	0	0	76	10118
2026-01-04 10:43:41.09	188.19	9.16	-52.9	-62.6	4.0	7.00e-01	0	41	104	0	76	11571
2026-01-04 10:43:42.27	188.26	9.25	-53.2	-63.0	4.1	1.46e+00	0	41	104	0	77	11499
2026-01-04 10:43:43.16	188.31	9.32	-53.4	-62.8	4.5	1.38e+00	0	41	104	0	77	11238
2026-01-04 10:43:44.30	188.38	9.41	-53.1	-61.7	5.0	5.18e-01	0	41	0	0	77	9915
2026-01-04 10:43:45.16	188.43	9.48	-53.3	-64.0	4.1	1.47e+00	0	41	104	0	77	12938
2026-01-04 10:43:46.51	188.52	9.59	-53.0	-60.7	5.7	3.95e-01	0	41	0	0	77	8779
2026-01-04 10:43:47.23	188.56	9.65	-52.9	-60.6	5.8	4.32e-01	0	41	0	0	77	8669
2026-01-04 10:43:48.76	188.65	9.77	-52.8	-60.2	6.0	3.05e-01	0	41	0	0	77	8323
2026-01-04 10:43:49.47	188.70	9.83	-52.8	-60.0	6.1	2.93e-01	0	41	0	0	77	8151
2026-01-04 10:43:50.76	188.78	9.94	-51.6	-56.6	9.4	9.75e-02	0	41	0	0	75	6159
2026-01-04 10:43:51.48	188.82	10.00	-53.0	-61.0	5.5	8.99e-02	0	41	0	0	76	9717
2026-01-04 10:43:52.77	188.90	10.10	-52.9	-61.0	5.4	7.56e-01	0	41	0	0	77	9136
2026-01-04 10:43:53.49	188.95	10.16	-51.8	-56.8	9.0	1.50e-01	0	41	0	0	75	6300
2026-01-04 10:43:54.78	189.03	10.27	-51.0	-55.1	11.0	2.21e-03	0	41	0	0	73	5831
2026-01-04 10:43:55.49	189.07	10.33	-51.1	-55.2	10.8	2.35e-03	0	41	0	0	73	5918
2026-01-04 10:43:56.78	189.16	10.44	-50.9	-54.9	11.1	9.84e-04	0	41	0	0	73	5688
2026-01-04 10:43:57.50	189.20	10.50	-51.1	-55.2	10.9	1.52e-03	0	41	0	0	73	5889
2026-01-04 10:43:58.78	189.28	10.60	-50.7	-54.5	11.5	5.45e-04	0	41	0	0	72	5759
2026-01-04 10:43:59.50	189.33	10.66	-50.3	-53.9	12.2	2.33e-04	0	41	0	0	72	5360
2026-01-04 10:44:00.79	189.42	10.77	-49.5	-52.6	13.6	2.36e-05	0	41	0	0	71	4872
2026-01-04 10:44:01.51	189.46	10.83	-48.9	-51.6	14.6	3.00e-06	0	41	0	0	69	4926
2026-01-04 10:44:02.80	189.55	10.94	-48.1	-50.7	15.4	0.00e+00	0	41	0	0	68	4668
2026-01-04 10:44:03.51	189.60	11.00	-47.6	-50.1	15.9	0.00e+00	0	41	0	0	67	4620
2026-01-04 10:44:04.80	189.68	11.11	-46.8	-49.0	16.9	0.00e+00	0	41	0	0	65	4575
2026-01-04 10:44:05.52	189.73	11.17	-46.4	-48.5	17.4	0.00e+00	0	41	0	0	64	4575
2026-01-04 10:44:06.81	189.82	11.29	-46.0	-48.1	17.8	0.00e+00	0	41	0	0	64	4368
2026-01-04 10:44:07.52	189.86	11.35	-46.0	-48.1	17.8	0.00e+00	0	41	0	0	63	4624
2026-01-04 10:44:08.81	189.95	11.46	-46.1	-48.2	17.7	0.00e+00	0	41	0	0	63	4665
2026-01-04 10:44:09.53	190.00	11.52	-46.1	-48.2	17.7	0.00e+00	0	41	0	0	63	4683
2026-01-04 10:44:10.82	190.09	11.63	-45.7	-47.8	17.9	0.00e+00	0	41	0	0	63	4467
2026-01-04 10:44:11.54	190.14	11.70	-45.7	-47.8	18.0	0.00e+00	0	41	0	0	63	4462
2026-01-04 10:44:12.83	190.23	11.81	-45.6	-47.6	18.1	0.00e+00	0	41	0	0	63	4372
2026-01-04 10:44:13.68	190.29	11.88	-45.5	-47.6	18.0	0.00e+00	0	41	0	0	63	4345
2026-01-04 10:44:14.83	190.37	11.98	-45.5	-47.5	18.1	0.00e+00	0	41	0	0	62	4579
2026-01-04 10:44:15.69	190.43	12.06	-45.6	-47.6	18.1	0.00e+00	0	41	0	0	62	4639
2026-01-04 10:44:16.84	190.52	12.16	-45.7	-47.7	18.1	0.00e+00	0	41	0	0	62	4660
2026-01-04 10:44:17.70	190.58	12.24	-45.6	-47.6	18.2	0.00e+00	0	41	0	0	62	4617
2026-01-04 10:44:18.85	190.66	12.34	-45.6	-47.6	18.2	0.00e+00	0	41	0	0	62	4627
2026-01-04 10:44:19.70	190.72	12.42	-45.8	-47.8	18.0	0.00e+00	0	41	0	0	62	4730
2026-01-04 10:44:20.90	190.81	12.52	-45.5	-47.5	18.2	0.00e+00	0	41	0	0	62	4566
2026-01-04 10:44:21.76	190.87	12.60	-45.6	-47.6	18.2	0.00e+00	0	41	0	0	62	4607
2026-01-04 10:44:22.99	190.96	12.71	-45.8	-47.8	18.1	0.00e+00	0	41	0	0	62	4727
2026-01-04 10:44:23.84	191.03	12.79	-45.8	-47.7	18.2	0.00e+00	0	41	0	0	62	4687
2026-01-04 10:44:24.99	191.11	12.90	-45.8	-47.7	18.2	0.00e+00	0	41	0	0	62	4697
2026-01-04 10:44:25.85	191.18	12.97	-45.8	-47.8	18.2	0.00e+00	0	41	0	0	62	4741
2026-01-04 10:44:27.12	191.27	13.09	-45.8	-47.8	18.1	0.00e+00	0	41	0	0	62	4746
2026-01-04 10:44:27.84	191.33	13.16	-45.8	-47.7	18.2	0.00e+00	0	41	0	0	62	4697
2026-01-04 10:44:29.13	191.43	13.28	-45.8	-47.8	18.2	0.00e+00	0	41	0	0	62	4708
2026-01-04 10:44:29.86	191.49	13.34	-45.8	-47.7	18.1	0.00e+00	0	41	0	0	62	4701
2026-01-04 10:44:31.15	191.59	13.46	-45.9	-47.8	18.2	0.00e+00	0	41	0	0	62	4754
2026-01-04 10:44:31.96	191.65	13.54	-45.9	-47.8	18.2	0.00e+00	0	41	0	0	62	4733
2026-01-04 10:44:33.11	191.74	13.65	-45.9	-47.9	18.1	0.00e+00	0	41	0	0	62	4772
2026-01-04 10:44:34.21	191.83	13.75	-45.7	-47.6	18.2	0.00e+00	0	41	0	0	62	4641
2026-01-04 10:44:35.25	191.91	13.85	-45.6	-47.6	18.3	0.00e+00	0	41	0	0	62	4606
2026-01-04 10:44:36.24	191.99	13.94	-45.8	-47.7	18.3	0.00e+00	0	41	0	0	62	4691
2026-01-04 10:44:37.46	192.09	14.06	-45.8	-47.8	18.3	0.00e+00	0	41	0	0	62	4719
2026-01-04 10:44:38.34	192.16	14.14	-45.9	-47.8	18.2	0.00e+00	0	41	0	0	62	4750
2026-01-04 10:44:39.49	192.25	14.25	-45.8	-47.7	18.3	0.00e+00	0	42	0	0	62	4701
2026-01-04 10:44:40.40	192.33	14.34	-45.9	-47.9	18.3	0.00e+00	0	41	0	0	62	4775
2026-01-04 10:44:41.42	192.41	14.43	-45.9	-47.8	18.4	0.00e+00	0	41	0	0	62	4755
2026-01-04 10:44:42.42	192.49	14.53	-45.9	-47.9	18.3	0.00e+00	0	41	0	0	62	4776
2026-01-04 10:44:43.43	192.58	14.63	-45.8	-47.8	18.3	0.00e+00	0	41	0	0	62	4716
2026-01-04 10:44:44.43	192.66	14.73	-45.7	-47.7	18.4	0.00e+00	0	42	0	0	62	4653
2026-01-04 10:44:45.43	192.75	14.82	-45.9	-47.8	18.2	0.00e+00	0	41	0	0	62	4751
2026-01-04 10:44:46.43	192.83	14.92	-45.8	-47.8	18.2	0.00e+00	0	41	0	0	62	4717
2026-01-04 10:44:47.43	192.92	15.02	-45.7	-47.7	18.3	0.00e+00	0	41	0	0	62	4664
2026-01-04 10:44:48.43	193.01	15.12	-45.8	-47.7	18.2	0.00e+00	0	42	0	0	62	4683
2026-01-04 10:44:49.43	193.09	15.22	-45.8	-47.8	18.3	0.00e+00	0	41	0	0	62	4711
2026-01-04 10:44:50.43	193.18	15.32	-45.7	-47.6	18.3	0.00e+00	0	42	0	0	62	4634
2026-01-04 10:44:51.44	193.27	15.42	-45.8	-47.8	18.2	0.00e+00	0	41	0	0	62	4708
2026-01-04 10:44:52.44	193.36	15.52	-45.7	-47.6	18.3	0.00e+00	0	41	0	0	62	4616
2026-01-04 10:44:53.47	193.45	15.62	-45.6	-47.5	18.4	0.00e+00	0	41	0	0	62	4596
2026-01-04 10:44:54.47	193.54	15.72	-45.8	-47.7	18.3	0.00e+00	0	41	0	0	62	4685
2026-01-04 10:44:55.52	193.64	15.83	-45.8	-47.7	18.2	0.00e+00	0	41	0	0	62	4684
2026-01-04 10:44:56.46	193.72	15.92	-45.7	-47.6	18.3	0.00e+00	0	41	0	0	62	4643
2026-01-04 10:44:57.46	193.81	16.02	-45.6	-47.5	18.4	0.00e+00	0	41	0	0	62	4556
2026-01-04 10:44:58.46	193.91	16.13	-45.6	-47.5	18.4	0.00e+00	0	41	0	0	62	4563
2026-01-04 10:44:59.46	194.00	16.23	-45.7	-47.6	18.5	0.00e+00	0	41	0	0	62	4606
2026-01-04 10:45:00.47	194.09	16.33	-45.7	-47.6	18.5	0.00e+00	0	41	0	0	62	4603
2026-01-04 10:45:01.47	194.19	16.43	-45.7	-47.6	18.4	0.00e+00	0	41	0	0	62	4636
2026-01-04 10:45:02.47	194.28	16.54	-45.8	-47.7	18.4	0.00e+00	0	42	0	0	62	4681
2026-01-04 10:45:03.48	194.38	16.64	-45.8	-47.8	18.3	0.00e+00	0	41	0	0	62	4719
2026-01-04 10:45:04.48	194.47	16.75	-45.9	-47.9	18.2	0.00e+00	0	42	0	0	62	4767
2026-01-04 10:45:05.48	194.57	16.85	-46.2	-48.2	18.2	0.00e+00	0	41	0	0	63	4656
2026-01-04 10:45:06.49	194.67	16.96	-45.9	-47.9	18.1	0.00e+00	0	41	0	0	63	4526
2026-01-04 10:45:07.49	194.77	17.06	-46.0	-48.0	18.1	0.00e+00	0	42	0	0	63	4551
2026-01-04 10:45:08.49	194.86	17.17	-45.9	-47.9	18.2	0.00e+00	0	41	0	0	63	4504
2026-01-04 10:45:09.54	194.97	17.28	-45.9	-47.9	18.1	0.00e+00	0	41	0	0	63	4532
2026-01-04 10:45:10.45	195.06	17.38	-45.9	-47.9	18.1	0.00e+00	0	41	0	0	63	4539
2026-01-04 10:45:11.46	195.16	17.48	-46.0	-48.0	18.1	0.00e+00	0	41	0	0	63	4575
2026-01-04 10:45:12.47	195.26	17.59	-45.9	-47.8	18.1	0.00e+00	0	41	0	0	63	4483
2026-01-04 10:45:13.47	195.37	17.70	-45.7	-47.7	18.2	0.00e+00	0	42	0	0	63	4396
2026-01-04 10:45:14.47	195.47	17.81	-45.6	-47.5	18.3	0.00e+00	0	41	0	0	63	4321
2026-01-04 10:45:15.47	195.57	17.92	-45.8	-47.7	18.2	0.00e+00	0	42	0	0	63	4420
2026-01-04 10:45:16.48	195.68	18.03	-45.6	-47.5	18.3	0.00e+00	0	42	0	0	63	4314
2026-01-04 10:45:17.48	195.78	18.14	-45.6	-47.4	18.3	0.00e+00	0	41	0	0	63	4291
2026-01-04 10:45:18.48	195.89	18.25	-45.5	-47.5	18.3	0.00e+00	0	41	0	0	63	4300
2026-01-04 10:45:19.49	196.00	18.36	-45.6	-47.5	18.3	0.00e+00	0	42	0	0	63	4315
2026-01-04 10:45:20.49	196.10	18.47	-45.6	-47.5	18.3	0.00e+00	0	41	0	0	63	4333
2026-01-04 10:45:21.49	196.21	18.58	-45.6	-47.5	18.3	0.00e+00	0	41	0	0	63	4330
2026-01-04 10:45:22.52	196.32	18.69	-45.8	-47.7	18.2	0.00e+00	0	41	0	0	63	4427
2026-01-04 10:45:23.52	196.43	18.80	-45.8	-47.7	18.3	0.00e+00	0	41	0	0	63	4407
2026-01-04 10:45:24.52	196.54	18.92	-45.8	-47.7	18.3	0.00e+00	0	42	0	0	63	4416
2026-01-04 10:45:25.53	196.65	19.03	-45.7	-47.6	18.5	0.00e+00	0	41	0	0	63	4353
2026-01-04 10:45:26.53	196.77	19.14	-45.7	-47.5	18.6	0.00e+00	0	41	0	0	63	4327
2026-01-04 10:45:27.53	196.88	19.26	-45.7	-47.5	18.6	0.00e+00	0	42	0	0	63	4320
2026-01-04 10:45:28.53	196.99	19.37	-45.6	-47.4	18.6	0.00e+00	0	42	0	0	63	4280
2026-01-04 10:45:29.53	197.11	19.48	-45.5	-47.3	18.7	0.00e+00	0	42	0	0	62	4491
2026-01-04 10:45:30.54	197.22	19.60	-45.3	-47.1	18.8	0.00e+00	0	42	0	0	62	4387
2026-01-04 10:45:31.54	197.34	19.71	-45.4	-47.3	18.7	0.00e+00	0	42	0	0	62	4467
2026-01-04 10:45:32.54	197.45	19.83	-45.4	-47.2	18.8	0.00e+00	0	42	0	0	62	4418
2026-01-04 10:45:33.54	197.57	19.95	-45.1	-46.9	19.0	0.00e+00	0	42	0	0	62	4280
2026-01-04 10:45:34.55	197.69	20.06	-45.0	-46.8	19.2	0.00e+00	0	42	0	0	62	4239
2026-01-04 10:45:35.55	197.81	20.18	-45.0	-46.8	19.1	0.00e+00	0	42	0	0	61	4489
2026-01-04 10:45:36.55	197.93	20.30	-45.0	-46.8	19.1	0.00e+00	0	42	0	0	61	4464
2026-01-04 10:45:37.55	198.05	20.41	-45.0	-46.8	19.1	0.00e+00	0	42	0	0	61	4471
2026-01-04 10:45:38.55	198.17	20.53	-45.0	-46.8	19.1	0.00e+00	0	42	0	0	61	4493
2026-01-04 10:45:39.56	198.30	20.65	-45.0	-46.8	19.2	0.00e+00	0	42	0	0	61	4445
2026-01-04 10:45:40.56	198.42	20.77	-45.0	-46.8	19.1	0.00e+00	0	42	0	0	61	4453
2026-01-04 10:45:41.56	198.55	20.89	-44.8	-46.5	19.3	0.00e+00	0	42	0	0	61	4340
2026-01-04 10:45:42.57	198.67	21.01	-44.7	-46.5	19.3	0.00e+00	0	42	0	0	61	4321
2026-01-04 10:45:43.57	198.80	21.13	-44.8	-46.6	19.2	0.00e+00	0	42	0	0	61	4354
2026-01-04 10:45:44.58	198.93	21.25	-44.8	-46.6	19.2	0.00e+00	0	42	0	0	61	4352
2026-01-04 10:45:45.58	199.06	21.37	-44.4	-46.2	19.4	0.00e+00	0	42	0	0	60	4399
2026-01-04 10:45:46.59	199.19	21.49	-44.5	-46.2	19.3	0.00e+00	0	42	0	0	60	4439
2026-01-04 10:45:47.59	199.32	21.62	-44.3	-46.1	19.4	0.00e+00	0	42	0	0	60	4362
2026-01-04 10:45:48.59	199.45	21.74	-44.2	-45.9	19.5	0.00e+00	0	42	0	0	60	4291
2026-01-04 10:45:49.59	199.58	21.86	-44.2	-45.9	19.5	0.00e+00	0	42	0	0	60	4289
2026-01-04 10:45:50.60	199.72	21.99	-44.1	-45.9	19.6	0.00e+00	0	42	0	0	60	4256
2026-01-04 10:45:51.60	199.85	22.11	-44.1	-45.9	19.6	0.00e+00	0	42	0	0	60	4248
2026-01-04 10:45:52.70	200.00	22.25	-44.1	-45.9	19.6	0.00e+00	0	42	0	0	60	4245
2026-01-04 10:45:53.56	200.12	22.35	-44.1	-45.8	19.6	0.00e+00	0	42	0	0	60	4225
2026-01-04 10:45:54.71	200.28	22.50	-44.1	-45.9	19.6	0.00e+00	0	42	0	0	60	4250
2026-01-04 10:45:55.57	200.40	22.60	-44.1	-45.8	19.7	0.00e+00	0	41	0	0	60	4209
2026-01-04 10:45:56.71	200.56	22.75	-44.1	-45.8	19.7	0.00e+00	0	42	0	0	60	4224
2026-01-04 10:45:57.57	200.68	22.86	-44.1	-45.8	19.6	0.00e+00	0	42	0	0	60	4231
2026-01-04 10:45:58.72	200.84	23.00	-44.2	-45.9	19.5	0.00e+00	0	42	0	0	60	4280
2026-01-04 10:45:59.57	200.96	23.11	-44.2	-46.0	19.6	0.00e+00	0	41	0	0	60	4295
2026-01-04 10:46:00.72	201.13	23.26	-44.1	-45.9	19.6	0.00e+00	0	42	0	0	60	4244
2026-01-04 10:46:01.58	201.26	23.37	-44.0	-45.7	19.8	0.00e+00	0	42	0	0	60	4182
2026-01-04 10:46:02.73	201.42	23.51	-44.1	-45.8	19.7	0.00e+00	0	42	0	0	60	4214
2026-01-04 10:46:03.59	201.55	23.63	-44.1	-45.9	19.6	0.00e+00	0	42	0	0	60	4246
2026-01-04 10:46:04.80	201.73	23.78	-43.9	-45.6	19.7	0.00e+00	0	42	0	0	59	4384
2026-01-04 10:46:05.65	201.86	23.89	-44.0	-45.7	19.7	0.00e+00	0	41	0	0	59	4417
2026-01-04 10:46:06.80	202.03	24.04	-44.0	-45.7	19.7	0.00e+00	0	42	0	0	59	4433
2026-01-04 10:46:07.66	202.17	24.16	-44.0	-45.7	19.7	0.00e+00	0	42	0	0	59	4416
2026-01-04 10:46:08.81	202.34	24.31	-44.1	-45.8	19.6	0.00e+00	0	42	0	0	59	4456
2026-01-04 10:46:09.66	202.48	24.42	-44.0	-45.8	19.6	0.00e+00	0	42	0	0	59	4445
2026-01-04 10:46:11.03	202.69	24.60	-44.1	-45.8	19.6	0.00e+00	0	42	0	0	59	4452
2026-01-04 10:46:11.75	202.80	24.69	-44.0	-45.7	19.7	0.00e+00	0	42	0	0	59	4429
2026-01-04 10:46:13.04	203.01	24.87	-43.9	-45.6	19.7	0.00e+00	0	41	0	0	59	4378
2026-01-04 10:46:13.76	203.13	24.96	-44.0	-45.8	19.7	0.00e+00	0	42	0	0	59	4442
2026-01-04 10:46:15.04	203.33	25.13	-44.1	-45.8	19.7	0.00e+00	0	42	0	0	59	4465
2026-01-04 10:46:15.76	203.45	25.23	-44.1	-45.9	19.6	0.00e+00	0	42	0	0	59	4513
2026-01-04 10:46:17.05	203.66	25.40	-44.2	-45.9	19.6	0.00e+00	0	42	0	0	59	4521
2026-01-04 10:46:17.76	203.78	25.50	-44.3	-46.1	19.5	0.00e+00	0	42	0	0	59	4600
2026-01-04 10:46:19.05	204.00	25.68	-44.3	-46.0	19.5	0.00e+00	0	42	0	0	59	4590
2026-01-04 10:46:19.98	204.16	25.80	-44.3	-46.0	19.5	0.00e+00	0	42	0	0	59	4598
2026-01-04 10:46:20.98	204.33	25.94	-44.4	-46.1	19.4	0.00e+00	0	42	0	0	59	4620
2026-01-04 10:46:21.98	204.50	26.08	-44.4	-46.1	19.4	0.00e+00	0	42	0	0	59	4635
2026-01-04 10:46:22.99	204.67	26.22	-44.3	-46.1	19.5	0.00e+00	0	42	0	0	59	4606
2026-01-04 10:46:23.99	204.85	26.35	-44.8	-46.5	19.4	0.00e+00	0	42	0	0	60	4596
2026-01-04 10:46:24.99	205.03	26.49	-44.6	-46.4	19.3	0.00e+00	0	42	0	0	60	4520
2026-01-04 10:46:25.99	205.20	26.63	-44.6	-46.4	19.3	0.00e+00	0	42	0	0	60	4529
2026-01-04 10:46:27.00	205.38	26.77	-44.6	-46.4	19.3	0.00e+00	0	42	0	0	60	4509
2026-01-04 10:46:28.00	205.57	26.91	-44.7	-46.5	19.1	0.00e+00	0	42	0	0	60	4565
2026-01-04 10:46:29.00	205.75	27.05	-44.8	-46.6	19.1	0.00e+00	0	42	0	0	60	4608
2026-01-04 10:46:30.01	205.93	27.19	-45.0	-46.8	19.1	0.00e+00	0	42	0	0	60	4723
2026-01-04 10:46:31.01	206.12	27.33	-45.1	-46.9	19.1	0.00e+00	0	42	0	0	60	4787
2026-01-04 10:46:32.01	206.31	27.48	-44.9	-46.8	18.9	0.00e+00	0	42	0	0	60	4707
2026-01-04 10:46:33.02	206.50	27.62	-45.0	-46.8	18.8	0.00e+00	0	42	0	0	60	4750
2026-01-04 10:46:34.02	206.69	27.76	-45.0	-46.8	18.9	0.00e+00	0	42	0	0	60	4741
2026-01-04 10:46:35.02	206.88	27.90	-45.0	-46.9	18.8	0.00e+00	0	42	0	0	60	4774
2026-01-04 10:46:36.02	207.08	28.05	-45.0	-46.9	18.8	0.00e+00	0	42	0	0	60	4771
2026-01-04 10:46:37.02	207.27	28.19	-45.1	-47.0	18.7	0.00e+00	0	42	0	0	60	4837
2026-01-04 10:46:38.03	207.47	28.33	-45.0	-46.9	18.8	0.00e+00	0	42	0	0	61	4504
2026-01-04 10:46:39.03	207.67	28.48	-45.1	-46.9	18.7	0.00e+00	0	42	0	0	61	4541
2026-01-04 10:46:40.01	207.87	28.62	-45.0	-46.8	18.8	0.00e+00	0	42	0	0	61	4491
2026-01-04 10:46:41.01	208.07	28.77	-45.0	-46.8	18.9	0.00e+00	0	42	0	0	61	4453
2026-01-04 10:46:42.02	208.28	28.91	-45.2	-47.0	18.9	0.00e+00	0	42	0	0	61	4573
2026-01-04 10:46:43.01	208.48	29.06	-45.1	-46.9	18.9	0.00e+00	0	42	0	0	61	4529
2026-01-04 10:46:44.02	208.69	29.20	-45.1	-47.0	18.7	0.00e+00	0	42	0	0	61	4560
2026-01-04 10:46:45.02	208.90	29.35	-45.0	-46.9	18.8	0.00e+00	0	42	0	0	61	4501
2026-01-04 10:46:46.02	209.11	29.50	-44.8	-46.6	19.0	0.00e+00	0	42	0	0	61	4388
2026-01-04 10:46:47.02	209.33	29.64	-44.9	-46.7	19.0	0.00e+00	0	42	0	0	61	4426
2026-01-04 10:46:48.02	209.54	29.79	-44.9	-46.7	19.0	0.00e+00	0	42	0	0	61	4424
2026-01-04 10:46:49.03	209.76	29.94	-44.7	-46.5	19.1	0.00e+00	0	42	0	0	61	4332
2026-01-04 10:46:50.03	209.98	30.09	-44.9	-46.7	19.0	0.00e+00	0	42	0	0	61	4394
2026-01-04 10:46:51.03	210.20	30.24	-44.7	-46.5	19.2	0.00e+00	0	42	0	0	61	4306
2026-01-04 10:46:52.03	210.43	30.38	-44.7	-46.4	19.2	0.00e+00	0	42	0	0	61	4281
2026-01-04 10:46:53.03	210.65	30.53	-44.7	-46.4	19.2	0.00e+00	0	42	0	0	61	4282
2026-01-04 10:46:54.03	210.88	30.68	-44.7	-46.5	19.2	0.00e+00	0	42	0	0	61	4298
2026-01-04 10:46:55.04	211.11	30.83	-44.6	-46.4	19.3	0.00e+00	0	42	0	0	61	4285
2026-01-04 10:46:56.25	211.39	31.01	-44.6	-46.4	19.3	0.00e+00	0	42	0	0	61	4260
2026-01-04 10:46:57.14	211.60	31.15	-44.6	-46.4	19.2	0.00e+00	0	42	0	0	61	4270
2026-01-04 10:46:58.28	211.87	31.32	-44.8	-46.5	19.2	0.00e+00	0	42	0	0	61	4336
2026-01-04 10:46:59.14	212.08	31.45	-44.7	-46.5	19.2	0.00e+00	0	42	0	0	61	4335
2026-01-04 10:47:00.51	212.41	31.66	-44.8	-46.6	19.2	0.00e+00	0	42	0	0	61	4352
2026-01-04 10:47:01.22	212.58	31.76	-44.7	-46.5	19.2	0.00e+00	0	42	0	0	61	4329
2026-01-04 10:47:02.51	212.90	31.96	-45.2	-46.9	19.1	0.00e+00	0	42	0	0	61	4545
2026-01-04 10:47:03.23	213.08	32.07	-45.3	-47.1	18.9	0.00e+00	0	42	0	0	61	4629
2026-01-04 10:47:04.52	213.40	32.26	-45.3	-47.1	18.7	0.00e+00	0	42	0	0	61	4632
2026-01-04 10:47:05.23	213.58	32.37	-45.4	-47.3	18.5	0.00e+00	0	42	0	0	61	4710
2026-01-04 10:47:06.52	213.91	32.57	-45.4	-47.3	18.4	0.00e+00	0	42	0	0	61	4716
2026-01-04 10:47:07.24	214.09	32.68	-45.5	-47.4	18.3	0.00e+00	0	42	0	0	61	4780
2026-01-04 10:47:08.52	214.43	32.87	-45.6	-47.5	18.1	0.00e+00	0	42	0	0	61	4846
2026-01-04 10:47:09.24	214.61	32.98	-45.6	-47.5	18.2	0.00e+00	0	42	0	0	61	4859
2026-01-04 10:47:10.52	214.95	33.18	-45.7	-47.6	18.2	0.00e+00	0	42	0	0	62	4615
2026-01-04 10:47:11.24	215.14	33.29	-45.7	-47.6	18.1	0.00e+00	0	42	0	0	62	4638
2026-01-04 10:47:12.53	215.49	33.48	-46.0	-47.9	18.1	0.00e+00	0	42	0	0	62	4803
2026-01-04 10:47:13.25	215.69	33.59	-46.0	-47.9	18.1	0.00e+00	0	42	0	0	62	4792
2026-01-04 10:47:14.61	216.06	33.80	-45.9	-47.8	18.2	0.00e+00	0	42	0	0	62	4745
2026-01-04 10:47:15.33	216.26	33.91	-45.8	-47.7	18.3	0.00e+00	0	42	0	0	62	4687
2026-01-04 10:47:16.71	216.65	34.12	-46.0	-47.9	18.1	0.00e+00	0	42	0	0	62	4798
2026-01-04 10:47:17.42	216.85	34.23	-46.1	-48.0	17.9	0.00e+00	0	42	0	0	63	4593
2026-01-04 10:47:18.71	217.21	34.43	-45.9	-47.8	18.0	0.00e+00	0	42	0	0	63	4484
2026-01-04 10:47:19.43	217.42	34.54	-45.8	-47.7	18.1	0.00e+00	0	42	0	0	63	4399
2026-01-04 10:47:20.72	217.80	34.73	-45.7	-47.6	18.2	0.00e+00	0	42	0	0	63	4371
2026-01-04 10:47:21.44	218.01	34.84	-45.6	-47.5	18.3	0.00e+00	0	42	0	0	63	4303
2026-01-04 10:47:22.73	218.39	35.04	-45.9	-47.8	18.2	0.00e+00	0	42	0	0	63	4492
2026-01-04 10:47:23.44	218.60	35.15	-46.0	-48.0	18.1	0.00e+00	0	42	0	0	63	4556
2026-01-04 10:47:24.73	218.99	35.34	-46.2	-48.2	17.9	0.00e+00	0	42	0	0	63	4675
2026-01-04 10:47:25.54	219.24	35.47	-46.3	-48.3	17.9	0.00e+00	0	42	0	0	63	4727
2026-01-04 10:47:26.69	219.59	35.64	-46.4	-48.4	17.8	0.00e+00	0	42	0	0	63	4775
2026-01-04 10:47:27.74	219.92	35.80	-46.5	-48.5	17.6	0.00e+00	0	42	0	0	63	4853
2026-01-04 10:47:28.61	220.19	35.93	-46.5	-48.6	17.6	0.00e+00	0	42	0	0	63	4875
2026-01-04 10:47:29.76	220.55	36.11	-46.6	-48.6	17.4	0.00e+00	0	42	0	0	63	4922
2026-01-04 10:47:30.62	220.82	36.24	-46.6	-48.6	17.4	0.00e+00	0	42	0	0	64	4645
2026-01-04 10:47:31.77	221.19	36.41	-46.7	-48.8	17.2	0.00e+00	0	42	0	0	64	4746
2026-01-04 10:47:32.62	221.47	36.54	-46.7	-48.8	17.1	0.00e+00	0	42	0	0	64	4750
2026-01-04 10:47:33.77	221.85	36.71	-46.9	-49.0	17.0	0.00e+00	0	42	0	0	64	4846
2026-01-04 10:47:34.63	222.13	36.84	-47.1	-49.2	16.8	0.00e+00	0	42	0	0	64	4976
2026-01-04 10:47:35.77	222.51	37.01	-47.1	-49.2	16.9	0.00e+00	0	42	0	0	64	4946
2026-01-04 10:47:36.63	222.80	37.14	-47.0	-49.1	16.9	0.00e+00	0	42	0	0	64	4885
2026-01-04 10:47:37.78	223.19	37.31	-47.0	-49.2	16.8	0.00e+00	0	42	0	0	64	4934
2026-01-04 10:47:38.64	223.49	37.44	-47.0	-49.2	16.8	0.00e+00	0	42	0	0	64	4963
2026-01-04 10:47:39.79	223.88	37.61	-47.2	-49.4	16.8	0.00e+00	0	42	0	0	65	4783
2026-01-04 10:47:40.81	224.24	37.76	-47.2	-49.4	16.8	0.00e+00	0	42	0	0	65	4805
2026-01-04 10:47:41.98	224.65	37.93	-47.1	-49.3	16.9	0.00e+00	0	42	0	0	65	4737
2026-01-04 10:47:42.84	224.96	38.06	-46.9	-49.0	17.1	0.00e+00	0	42	0	0	65	4562
2026-01-04 10:47:43.99	225.37	38.22	-46.5	-48.6	17.4	0.00e+00	0	42	0	0	65	4342
2026-01-04 10:47:44.85	225.68	38.35	-46.3	-48.2	17.7	0.00e+00	0	42	0	0	64	4441
2026-01-04 10:47:46.00	226.10	38.51	-46.2	-48.2	17.8	0.00e+00	0	42	0	0	64	4411
2026-01-04 10:47:46.86	226.42	38.64	-46.1	-48.1	17.9	0.00e+00	0	42	0	0	64	4364
2026-01-04 10:47:48.00	226.84	38.80	-46.2	-48.2	17.7	0.00e+00	0	42	0	0	64	4427
2026-01-04 10:47:48.86	227.16	38.92	-46.5	-48.4	17.6	0.00e+00	0	42	0	0	64	4544
2026-01-04 10:47:50.01	227.60	39.08	-46.4	-48.4	17.6	0.00e+00	0	42	0	0	64	4502
2026-01-04 10:47:50.86	227.92	39.20	-46.4	-48.4	17.6	0.00e+00	0	42	0	0	64	4514
2026-01-04 10:47:52.01	228.36	39.36	-46.3	-48.3	17.7	0.00e+00	0	42	0	0	64	4470
2026-01-04 10:47:52.87	228.70	39.48	-46.4	-48.3	17.8	0.00e+00	0	42	0	0	64	4478
2026-01-04 10:47:54.11	229.18	39.65	-46.6	-48.6	17.5	0.00e+00	0	42	0	0	64	4644
2026-01-04 10:47:55.38	229.68	39.83	-46.7	-48.7	17.4	0.00e+00	0	42	0	0	64	4664
2026-01-04 10:47:56.29	230.05	39.95	-46.7	-48.7	17.3	0.00e+00	0	42	0	0	64	4694
2026-01-04 10:47:57.30	230.45	40.08	-46.9	-48.9	17.1	0.00e+00	0	42	0	0	64	4804
2026-01-04 10:47:58.31	230.86	40.22	-46.8	-48.9	17.2	0.00e+00	0	42	0	0	64	4789
2026-01-04 10:47:59.31	231.27	40.35	-46.9	-49.0	17.1	0.00e+00	0	42	0	0	64	4858
2026-01-04 10:48:00.31	231.68	40.48	-46.9	-49.0	17.1	0.00e+00	0	42	0	0	64	4849
2026-01-04 10:48:01.32	232.10	40.61	-46.7	-48.8	17.3	0.00e+00	0	42	0	0	64	4737
2026-01-04 10:48:02.32	232.52	40.74	-46.8	-49.0	17.1	0.00e+00	0	42	0	0	64	4833
2026-01-04 10:48:03.32	232.94	40.87	-47.0	-49.2	16.8	0.00e+00	0	42	0	0	64	4930
2026-01-04 10:48:04.32	233.37	41.00	-47.1	-49.4	16.6	0.00e+00	0	42	0	0	64	5043
2026-01-04 10:48:05.33	233.80	41.12	-47.0	-49.1	16.8	0.00e+00	0	42	0	0	65	4620
2026-01-04 10:48:06.33	234.23	41.25	-47.0	-49.1	16.8	0.00e+00	0	42	0	0	65	4615
2026-01-04 10:48:07.33	234.67	41.37	-46.8	-48.8	17.0	0.00e+00	0	42	0	0	65	4483
2026-01-04 10:48:08.34	235.11	41.49	-46.7	-48.7	17.2	0.00e+00	0	42	0	0	65	4425
2026-01-04 10:48:09.34	235.55	41.61	-46.8	-48.9	17.0	0.00e+00	0	42	0	0	65	4535
2026-01-04 10:48:10.35	236.00	41.73	-47.1	-49.2	16.7	0.00e+00	0	42	0	0	65	4700
2026-01-04 10:48:11.35	236.45	41.84	-47.3	-49.4	16.7	0.00e+00	0	42	0	0	65	4795
2026-01-04 10:48:12.35	236.90	41.96	-47.4	-49.6	16.5	0.00e+00	0	42	0	0	65	4918
2026-01-04 10:48:13.35	237.35	42.07	-47.5	-49.8	16.3	0.00e+00	0	42	0	0	65	4987
2026-01-04 10:48:14.35	237.81	42.18	-47.5	-49.7	16.5	0.00e+00	0	42	0	0	65	4951
2026-01-04 10:48:15.36	238.27	42.29	-47.5	-49.7	16.4	0.00e+00	0	42	0	0	65	4936
2026-01-04 10:48:16.36	238.74	42.40	-47.8	-50.1	16.1	0.00e+00	0	42	0	0	66	4892
2026-01-04 10:48:17.37	239.21	42.51	-48.1	-50.5	15.7	0.00e+00	0	42	0	0	66	5139
2026-01-04 10:48:18.37	239.68	42.61	-48.0	-50.3	15.8	0.00e+00	0	42	0	0	66	5019
2026-01-04 10:48:19.37	240.15	42.72	-48.0	-50.3	15.7	0.00e+00	0	42	0	0	66	5037
2026-01-04 10:48:20.37	240.63	42.82	-47.6	-49.9	16.1	0.00e+00	0	42	0	0	66	4775
2026-01-04 10:48:21.37	241.10	42.92	-47.4	-49.6	16.5	0.00e+00	0	42	0	0	66	4606
2026-01-04 10:48:22.38	241.59	43.01	-47.4	-49.6	16.3	0.00e+00	0	42	0	0	66	4635
2026-01-04 10:48:23.38	242.07	43.11	-47.4	-49.7	16.2	0.00e+00	0	42	0	0	66	4657
2026-01-04 10:48:24.38	242.56	43.20	-47.5	-49.8	16.2	0.00e+00	0	42	0	0	66	4719
2026-01-04 10:48:25.38	243.05	43.29	-47.4	-49.7	16.5	0.00e+00	0	42	0	0	66	4659
2026-01-04 10:48:26.38	243.54	43.38	-47.1	-49.2	17.0	0.00e+00	0	42	0	0	66	4416
2026-01-04 10:48:27.38	244.04	43.47	-46.9	-49.0	17.2	0.00e+00	0	42	0	0	65	4579
2026-01-04 10:48:28.39	244.54	43.55	-47.2	-49.4	16.7	0.00e+00	0	42	0	0	65	4779
2026-01-04 10:48:29.38	245.04	43.63	-47.6	-49.9	16.1	0.00e+00	0	42	0	0	65	5043
2026-01-04 10:48:30.39	245.54	43.72	-47.8	-50.1	16.1	0.00e+00	0	42	0	0	66	4890
2026-01-04 10:48:31.39	246.05	43.79	-47.6	-49.9	16.2	0.00e+00	0	42	0	0	66	4807
2026-01-04 10:48:32.39	246.56	43.87	-47.3	-49.4	16.6	0.00e+00	0	42	0	0	66	4536
2026-01-04 10:48:33.39	247.07	43.94	-47.4	-49.6	16.4	0.00e+00	0	42	0	0	66	4637
2026-01-04 10:48:34.39	247.58	44.01	-47.8	-50.1	15.9	0.00e+00	0	42	0	0	66	4919
2026-01-04 10:48:35.46	248.13	44.09	-48.1	-50.6	15.5	0.00e+00	0	42	0	0	66	5162
2026-01-04 10:48:36.32	248.57	44.14	-48.1	-50.5	15.4	0.00e+00	0	42	0	0	66	5148
2026-01-04 10:48:37.47	249.17	44.22	-48.0	-50.5	15.5	0.00e+00	0	42	0	0	66	5124
2026-01-04 10:48:38.33	249.62	44.27	-47.7	-50.0	16.0	0.00e+00	0	42	0	0	66	4842
2026-01-04 10:48:39.47	250.21	44.33	-47.1	-49.2	16.7	0.00e+00	0	42	0	0	66	4412
2026-01-04 10:48:40.33	250.66	44.38	-47.2	-49.4	16.4	0.00e+00	0	42	0	0	66	4514
2026-01-04 10:48:41.47	251.26	44.44	-47.3	-49.5	16.5	0.00e+00	0	42	0	0	66	4590
2026-01-04 10:48:42.33	251.72	44.49	-47.3	-49.5	16.6	0.00e+00	0	42	0	0	66	4573
2026-01-04 10:48:43.48	252.33	44.54	-47.5	-49.7	16.5	0.00e+00	0	42	0	0	66	4692
2026-01-04 10:48:44.34	252.78	44.58	-47.5	-49.6	16.6	0.00e+00	0	42	0	0	66	4643
2026-01-04 10:48:45.48	253.39	44.63	-47.3	-49.4	16.8	0.00e+00	0	42	0	0	66	4518
2026-01-04 10:48:46.34	253.85	44.67	-47.2	-49.4	16.7	0.00e+00	0	42	0	0	66	4513
2026-01-04 10:48:47.51	254.47	44.71	-47.3	-49.4	16.7	0.00e+00	0	42	0	0	66	4544
2026-01-04 10:48:48.36	254.93	44.74	-47.1	-49.2	16.9	0.00e+00	0	42	0	0	66	4421
2026-01-04 10:48:49.51	255.55	44.78	-47.3	-49.5	16.5	0.00e+00	0	42	0	0	66	4557
2026-01-04 10:48:50.37	256.01	44.80	-47.5	-49.7	16.3	0.00e+00	0	42	0	0	66	4699
2026-01-04 10:48:51.52	256.63	44.83	-47.4	-49.6	16.5	0.00e+00	0	42	0	0	66	4651
2026-01-04 10:48:52.37	257.09	44.85	-47.3	-49.5	16.6	0.00e+00	0	42	0	0	66	4578
2026-01-04 10:48:53.52	257.71	44.88	-47.4	-49.6	16.4	0.00e+00	0	42	0	0	66	4642
2026-01-04 10:48:54.38	258.18	44.90	-47.5	-49.8	16.3	0.00e+00	0	42	0	0	66	4722
2026-01-04 10:48:55.52	258.80	44.91	-47.8	-50.1	16.0	0.00e+00	0	42	0	0	66	4876
2026-01-04 10:48:56.38	259.26	44.92	-47.7	-50.1	16.1	0.00e+00	0	42	0	0	66	4871
2026-01-04 10:48:57.53	259.89	44.94	-47.4	-49.7	16.4	0.00e+00	0	42	0	0	66	4661
2026-01-04 10:48:58.38	260.35	44.94	-47.3	-49.6	16.6	0.00e+00	0	42	0	0	66	4600
2026-01-04 10:48:59.53	260.97	44.95	-47.4	-49.7	16.4	0.00e+00	0	42	0	0	66	4671
2026-01-04 10:49:00.39	261.44	44.95	-47.4	-49.6	16.5	0.00e+00	0	42	0	0	66	4619
2026-01-04 10:49:01.54	262.07	44.95	-47.2	-49.4	16.6	0.00e+00	0	42	0	0	66	4512
2026-01-04 10:49:02.40	262.53	44.94	-47.2	-49.3	16.7	0.00e+00	0	42	0	0	66	4481
2026-01-04 10:49:03.54	263.15	44.94	-47.2	-49.3	16.7	0.00e+00	0	42	0	0	66	4489
2026-01-04 10:49:04.40	263.62	44.93	-47.0	-49.1	16.9	0.00e+00	0	42	0	0	65	4634
2026-01-04 10:49:05.67	264.31	44.91	-46.9	-49.0	16.9	0.00e+00	0	42	0	0	65	4566
2026-01-04 10:49:06.39	264.70	44.90	-47.1	-49.2	16.7	0.00e+00	0	42	0	0	65	4705
2026-01-04 10:49:07.68	265.40	44.88	-47.1	-49.3	16.6	0.00e+00	0	42	0	0	65	4751
2026-01-04 10:49:08.40	265.79	44.87	-47.2	-49.4	16.5	0.00e+00	0	42	0	0	65	4798
2026-01-04 10:49:09.69	266.48	44.83	-47.3	-49.5	16.4	0.00e+00	0	42	0	0	65	4832
2026-01-04 10:49:10.40	266.87	44.82	-47.1	-49.3	16.6	0.00e+00	0	42	0	0	65	4723
2026-01-04 10:49:11.70	267.57	44.78	-46.9	-49.0	16.8	0.00e+00	0	42	0	0	65	4583
2026-01-04 10:49:12.41	267.95	44.76	-46.9	-48.9	17.0	0.00e+00	0	42	0	0	65	4542
2026-01-04 10:49:13.70	268.64	44.71	-46.8	-48.9	17.1	0.00e+00	0	42	0	0	65	4509
2026-01-04 10:49:14.42	269.02	44.69	-46.8	-48.9	17.1	0.00e+00	0	42	0	0	65	4509
2026-01-04 10:49:15.84	269.78	44.63	-46.8	-48.9	17.2	0.00e+00	0	42	0	0	65	4494
2026-01-04 10:49:16.55	270.16	44.60	-46.9	-49.0	17.1	0.00e+00	0	42	0	0	65	4567
2026-01-04 10:49:17.84	270.84	44.54	-47.1	-49.3	16.7	7.00e-07	0	42	0	0	65	4716
2026-01-04 10:49:18.56	271.22	44.51	-47.1	-49.2	16.8	0.00e+00	0	42	0	0	65	4687
2026-01-04 10:49:19.85	271.91	44.44	-46.6	-48.7	17.0	0.00e+00	0	42	0	0	65	4424
2026-01-04 10:49:20.57	272.28	44.40	-46.6	-48.7	17.0	0.00e+00	0	42	0	0	65	4422
2026-01-04 10:49:21.86	272.96	44.33	-47.1	-49.3	16.5	0.00e+00	0	42	0	0	65	4750
2026-01-04 10:49:22.57	273.33	44.29	-47.2	-49.4	16.5	0.00e+00	0	42	0	0	65	4763
2026-01-04 10:49:23.86	274.00	44.21	-47.5	-49.8	16.1	0.00e+00	0	42	0	0	65	4996
2026-01-04 10:49:24.64	274.40	44.16	-47.6	-49.8	16.3	1.50e-06	0	42	0	0	65	5040
2026-01-04 10:49:26.25	275.23	44.06	-47.4	-49.6	16.3	0.00e+00	0	42	0	0	65	4909
2026-01-04 10:49:26.83	275.53	44.02	-47.1	-49.3	16.6	0.00e+00	0	42	0	0	65	4739
2026-01-04 10:49:28.41	276.34	43.90	-47.0	-49.2	16.6	0.00e+00	0	42	0	0	65	4665
2026-01-04 10:49:29.04	276.66	43.86	-46.9	-49.0	16.8	0.00e+00	0	42	0	0	65	4580
2026-01-04 10:49:30.49	277.39	43.75	-47.3	-49.5	16.5	0.00e+00	0	42	0	0	65	4837
2026-01-04 10:49:31.20	277.75	43.69	-47.5	-49.8	16.2	0.00e+00	0	42	0	0	65	5019
2026-01-04 10:49:32.49	278.39	43.59	-47.7	-50.1	16.0	0.00e+00	0	42	0	0	66	4896
2026-01-04 10:49:33.21	278.75	43.53	-47.7	-50.1	16.0	0.00e+00	0	42	0	0	66	4908
2026-01-04 10:49:34.50	279.39	43.42	-47.3	-49.5	16.5	0.00e+00	0	42	0	0	66	4560
2026-01-04 10:49:35.21	279.74	43.35	-47.1	-49.2	16.7	0.00e+00	0	42	0	0	66	4422
2026-01-04 10:49:36.50	280.37	43.24	-47.0	-49.1	17.0	0.00e+00	0	42	0	0	65	4633
2026-01-04 10:49:37.22	280.73	43.17	-46.7	-48.8	17.3	0.00e+00	0	42	0	0	65	4472
2026-01-04 10:49:38.51	281.35	43.05	-46.8	-48.9	17.2	0.00e+00	0	42	0	0	65	4533
2026-01-04 10:49:39.22	281.69	42.99	-47.2	-49.4	16.7	0.00e+00	0	42	0	0	65	4793
2026-01-04 10:49:40.51	282.31	42.86	-47.9	-50.3	15.8	0.00e+00	0	42	0	0	66	5026
2026-01-04 10:49:41.23	282.65	42.79	-48.0	-50.4	15.7	0.00e+00	0	42	0	0	66	5068
2026-01-04 10:49:42.52	283.26	42.66	-47.8	-50.1	16.0	0.00e+00	0	42	0	0	67	4623
2026-01-04 10:49:43.23	283.60	42.58	-47.3	-49.5	16.4	0.00e+00	0	42	0	0	66	4571
2026-01-04 10:49:44.52	284.20	42.45	-46.9	-49.0	16.7	0.00e+00	0	42	0	0	65	4573
2026-01-04 10:49:45.24	284.53	42.37	-46.9	-49.1	16.6	0.00e+00	0	42	0	0	65	4609
2026-01-04 10:49:46.53	285.13	42.23	-46.8	-48.9	16.9	0.00e+00	0	42	0	0	65	4518
2026-01-04 10:49:47.24	285.45	42.15	-46.8	-48.9	17.0	0.00e+00	0	42	0	0	65	4501
2026-01-04 10:49:48.53	286.04	42.01	-47.3	-49.5	16.4	0.00e+00	0	42	0	0	65	4820
2026-01-04 10:49:49.25	286.36	41.93	-47.4	-49.7	16.1	0.00e+00	0	42	0	0	65	4943
2026-01-04 10:49:50.63	286.98	41.77	-47.8	-50.2	15.6	0.00e+00	0	42	0	0	66	4967
2026-01-04 10:49:51.35	287.30	41.69	-47.8	-50.2	15.6	0.00e+00	0	42	0	0	66	4962
2026-01-04 10:49:52.64	287.87	41.53	-47.3	-49.5	16.5	0.00e+00	0	42	0	0	66	4553
2026-01-04 10:49:53.35	288.18	41.45	-47.1	-49.2	16.6	0.00e+00	0	42	0	0	66	4428
2026-01-04 10:49:54.77	288.80	41.28	-47.3	-49.5	16.3	0.00e+00	0	42	0	0	66	4558
2026-01-04 10:49:55.48	289.10	41.19	-47.4	-49.6	16.3	0.00e+00	0	42	0	0	66	4622
2026-01-04 10:49:56.77	289.66	41.03	-47.5	-49.8	16.1	0.00e+00	0	42	0	0	66	4717
2026-01-04 10:49:57.49	289.96	40.94	-47.5	-49.8	16.1	0.00e+00	0	42	0	0	66	4718
2026-01-04 10:49:58.78	290.51	40.78	-47.5	-49.8	16.1	0.00e+00	0	42	0	0	66	4734
2026-01-04 10:49:59.50	290.81	40.68	-47.3	-49.6	16.3	0.00e+00	0	42	0	0	66	4602
2026-01-04 10:50:00.78	291.34	40.52	-46.9	-49.0	16.9	0.00e+00	0	42	0	0	65	4595
2026-01-04 10:50:01.50	291.64	40.43	-46.6	-48.6	17.3	0.00e+00	0	42	0	0	65	4390
2026-01-04 10:50:02.79	292.16	40.26	-46.2	-48.1	17.7	0.00e+00	0	42	0	0	64	4385
2026-01-04 10:50:03.58	292.48	40.15	-46.3	-48.3	17.6	0.00e+00	0	42	0	0	64	4474
2026-01-04 10:50:04.73	292.94	40.00	-46.5	-48.6	17.3	0.00e+00	0	42	0	0	64	4633
2026-01-04 10:50:05.59	293.29	39.88	-46.8	-48.9	17.1	0.00e+00	0	42	0	0	64	4783
2026-01-04 10:50:06.74	293.74	39.73	-47.0	-49.2	16.8	0.00e+00	0	42	0	0	64	4961
2026-01-04 10:50:07.60	294.08	39.61	-46.7	-48.8	17.2	0.00e+00	0	42	0	0	64	4754
2026-01-04 10:50:08.74	294.52	39.45	-46.5	-48.5	17.4	0.00e+00	0	42	0	0	64	4587
2026-01-04 10:50:09.60	294.85	39.33	-46.3	-48.3	17.6	0.00e+00	0	42	0	0	64	4469
2026-01-04 10:50:10.78	295.30	39.17	-46.7	-48.9	17.0	0.00e+00	0	42	0	0	64	4765
2026-01-04 10:50:11.64	295.63	39.05	-47.0	-49.2	16.8	0.00e+00	0	42	0	0	64	4938
2026-01-04 10:50:12.78	296.06	38.89	-47.0	-49.1	16.9	0.00e+00	0	42	0	0	64	4924
2026-01-04 10:50:13.64	296.38	38.77	-47.0	-49.1	16.9	0.00e+00	0	42	0	0	64	4915
2026-01-04 10:50:14.78	296.80	38.61	-47.1	-49.3	16.7	0.00e+00	0	42	0	0	64	4995
2026-01-04 10:50:15.66	297.12	38.48	-47.3	-49.5	16.6	0.00e+00	0	42	0	0	65	4836
2026-01-04 10:50:16.98	297.60	38.29	-47.1	-49.3	16.7	0.00e+00	0	42	0	0	65	4731
2026-01-04 10:50:17.70	297.86	38.19	-47.0	-49.1	16.9	0.00e+00	0	42	0	0	65	4637
2026-01-04 10:50:19.23	298.40	37.97	-46.8	-48.9	17.0	0.00e+00	0	42	0	0	65	4539
2026-01-04 10:50:19.94	298.65	37.86	-46.6	-48.7	17.2	0.00e+00	0	42	0	0	65	4421
2026-01-04 10:50:21.23	299.10	37.67	-46.6	-48.6	17.4	0.00e+00	0	42	0	0	65	4385
2026-01-04 10:50:21.95	299.35	37.57	-46.6	-48.6	17.2	0.00e+00	0	42	0	0	65	4385
2026-01-04 10:50:23.24	299.79	37.38	-46.2	-48.2	17.7	0.00e+00	0	42	0	0	64	4416
2026-01-04 10:50:23.95	300.04	37.27	-46.2	-48.1	17.8	0.00e+00	0	42	0	0	64	4365
2026-01-04 10:50:25.24	300.47	37.08	-46.3	-48.3	17.6	0.00e+00	0	42	0	0	64	4457
2026-01-04 10:50:25.99	300.72	36.97	-46.3	-48.3	17.6	0.00e+00	0	42	0	0	64	4471
2026-01-04 10:50:27.28	301.15	36.78	-46.3	-48.4	17.5	0.00e+00	0	42	0	0	64	4497
2026-01-04 10:50:28.04	301.40	36.67	-46.3	-48.3	17.6	0.00e+00	0	42	0	0	64	4457
2026-01-04 10:50:29.65	301.92	36.43	-46.1	-48.0	17.8	0.00e+00	0	42	0	0	63	4583
2026-01-04 10:50:30.22	302.10	36.34	-46.1	-48.0	17.8	0.00e+00	0	42	0	0	63	4589
2026-01-04 10:50:32.05	302.68	36.07	-46.2	-48.1	17.8	0.00e+00	0	42	0	0	63	4632
2026-01-04 10:50:33.07	303.00	35.91	-46.2	-48.1	17.9	0.00e+00	0	42	0	0	63	4646
2026-01-04 10:50:34.07	303.31	35.76	-46.2	-48.2	17.8	0.00e+00	0	42	0	0	63	4665
2026-01-04 10:50:35.08	303.62	35.61	-46.3	-48.3	17.8	0.00e+00	0	42	0	0	63	4731
2026-01-04 10:50:36.08	303.93	35.46	-46.4	-48.5	17.5	0.00e+00	0	42	0	0	63	4847
2026-01-04 10:50:37.16	304.25	35.29	-46.4	-48.5	17.6	0.00e+00	0	42	0	0	63	4831
2026-01-04 10:50:38.05	304.52	35.16	-46.4	-48.5	17.5	0.00e+00	0	42	0	0	63	4841
2026-01-04 10:50:39.19	304.86	34.99	-46.5	-48.6	17.4	0.00e+00	0	42	0	0	63	4871
2026-01-04 10:50:40.05	305.11	34.86	-46.3	-48.4	17.6	0.00e+00	0	42	0	0	63	4776
2026-01-04 10:50:41.42	305.51	34.65	-46.2	-48.1	17.8	0.00e+00	0	42	0	0	63	4646
2026-01-04 10:50:42.14	305.72	34.54	-46.1	-48.0	17.9	0.00e+00	0	42	0	0	63	4576
2026-01-04 10:50:43.65	306.15	34.31	-46.0	-48.0	18.0	0.00e+00	0	42	0	0	63	4558
2026-01-04 10:50:44.37	306.35	34.20	-46.0	-48.0	17.9	0.00e+00	0	42	0	0	63	4594
2026-01-04 10:50:45.72	306.73	34.00	-46.0	-47.9	18.0	0.00e+00	0	42	0	0	63	4544
2026-01-04 10:50:46.44	306.93	33.89	-45.8	-47.8	18.2	0.00e+00	0	42	0	0	63	4442
2026-01-04 10:50:47.72	307.28	33.69	-45.6	-47.5	18.4	0.00e+00	0	42	0	0	63	4336
2026-01-04 10:50:48.44	307.47	33.58	-45.6	-47.5	18.3	0.00e+00	0	42	0	0	63	4321
2026-01-04 10:50:49.73	307.82	33.39	-45.7	-47.6	18.3	0.00e+00	0	42	0	0	63	4363
2026-01-04 10:50:50.45	308.01	33.28	-45.5	-47.3	18.5	0.00e+00	0	42	0	0	62	4488
2026-01-04 10:50:51.73	308.35	33.08	-45.2	-47.0	18.8	0.00e+00	0	42	0	0	62	4300
2026-01-04 10:50:52.45	308.54	32.98	-45.2	-47.1	18.8	0.00e+00	0	42	0	0	62	4350
2026-01-04 10:50:53.74	308.88	32.78	-44.9	-46.7	19.1	0.00e+00	0	42	0	0	61	4424
2026-01-04 10:50:54.45	309.06	32.67	-44.9	-46.7	19.1	0.00e+00	0	42	0	0	61	4412
2026-01-04 10:50:55.74	309.39	32.48	-44.9	-46.7	19.1	0.00e+00	0	42	0	0	61	4392
2026-01-04 10:50:56.46	309.57	32.37	-44.9	-46.7	19.2	0.00e+00	0	42	0	0	61	4425
2026-01-04 10:50:57.74	309.89	32.18	-44.6	-46.4	19.4	0.00e+00	0	42	0	0	61	4248
2026-01-04 10:50:58.46	310.07	32.07	-44.6	-46.4	19.4	0.00e+00	0	42	0	0	61	4253
2026-01-04 10:50:59.75	310.39	31.88	-44.7	-46.4	19.3	0.00e+00	0	42	0	0	61	4283
2026-01-04 10:51:00.47	310.56	31.77	-44.6	-46.4	19.3	0.00e+00	0	42	0	0	61	4273
2026-01-04 10:51:01.76	310.87	31.57	-44.6	-46.3	19.4	0.00e+00	0	42	0	0	61	4242
2026-01-04 10:51:02.47	311.04	31.47	-44.5	-46.2	19.4	0.00e+00	0	42	0	0	60	4432
2026-01-04 10:51:03.76	311.35	31.28	-44.4	-46.1	19.4	0.00e+00	0	42	0	0	60	4390
2026-01-04 10:51:04.48	311.52	31.17	-44.4	-46.1	19.4	0.00e+00	0	42	0	0	60	4383
2026-01-04 10:51:05.77	311.82	30.98	-44.3	-46.0	19.5	0.00e+00	0	42	0	0	60	4319
2026-01-04 10:51:06.48	311.98	30.87	-44.3	-46.1	19.4	0.00e+00	0	42	0	0	60	4353
2026-01-04 10:51:07.78	312.28	30.68	-44.5	-46.2	19.5	0.00e+00	0	42	0	0	60	4418
2026-01-04 10:51:08.49	312.44	30.57	-44.4	-46.1	19.5	0.00e+00	0	42	0	0	60	4385
2026-01-04 10:51:09.78	312.73	30.38	-44.4	-46.1	19.5	0.00e+00	0	42	0	0	60	4391
2026-01-04 10:51:10.64	312.92	30.26	-44.6	-46.3	19.4	0.00e+00	0	42	0	0	60	4467
2026-01-04 10:51:12.11	313.24	30.04	-44.7	-46.5	19.2	0.00e+00	0	42	0	0	60	4549
2026-01-04 10:51:12.82	313.40	29.93	-44.7	-46.5	19.2	0.00e+00	0	42	0	0	60	4579
2026-01-04 10:51:14.11	313.68	29.75	-44.8	-46.6	19.2	0.00e+00	0	42	0	0	60	4632
2026-01-04 10:51:14.83	313.83	29.64	-44.7	-46.4	19.3	0.00e+00	0	42	0	0	60	4542
2026-01-04 10:51:16.12	314.10	29.45	-44.6	-46.4	19.2	0.00e+00	0	42	0	0	60	4531
2026-01-04 10:51:16.84	314.25	29.35	-44.7	-46.6	19.0	0.00e+00	0	42	0	0	60	4606
2026-01-04 10:51:18.12	314.52	29.16	-44.7	-46.6	19.0	0.00e+00	0	42	0	0	60	4600
2026-01-04 10:51:18.84	314.67	29.06	-44.7	-46.6	19.0	0.00e+00	0	42	0	0	60	4616
2026-01-04 10:51:20.13	314.93	28.87	-44.7	-46.7	19.0	0.00e+00	0	42	0	0	60	4661
2026-01-04 10:51:20.85	315.08	28.77	-44.6	-46.6	19.1	0.00e+00	0	42	0	0	60	4607
2026-01-04 10:51:22.14	315.34	28.58	-44.9	-46.8	19.0	0.00e+00	0	42	0	0	60	4728
2026-01-04 10:51:23.19	315.55	28.43	-44.8	-46.7	19.1	0.00e+00	0	42	0	0	60	4682
2026-01-04 10:51:24.11	315.73	28.30	-44.7	-46.6	19.1	0.00e+00	0	42	0	0	60	4630
2026-01-04 10:51:25.54	316.01	28.10	-44.9	-46.7	19.0	0.00e+00	0	42	0	0	60	4692
2026-01-04 10:51:26.26	316.15	28.00	-45.0	-46.8	18.9	0.00e+00	0	42	0	0	60	4739
2026-01-04 10:51:27.54	316.39	27.81	-45.1	-46.9	19.0	0.00e+00	0	42	0	0	60	4809
2026-01-04 10:51:28.26	316.53	27.71	-45.1	-46.9	19.0	0.00e+00	0	42	0	0	60	4780
2026-01-04 10:51:29.55	316.78	27.53	-45.1	-47.0	18.8	0.00e+00	0	42	0	0	60	4831
2026-01-04 10:51:30.27	316.91	27.43	-44.9	-46.8	18.9	0.00e+00	0	42	0	0	60	4706
2026-01-04 10:51:31.56	317.15	27.25	-45.0	-46.9	18.9	0.00e+00	0	42	0	0	60	4781
2026-01-04 10:51:32.27	317.28	27.15	-45.0	-46.8	19.0	0.00e+00	0	42	0	0	60	4751
2026-01-04 10:51:33.64	317.53	26.96	-44.7	-46.5	19.3	0.00e+00	0	42	0	0	60	4572
2026-01-04 10:51:34.36	317.66	26.86	-44.7	-46.5	19.3	0.00e+00	0	42	0	0	60	4587
2026-01-04 10:51:35.65	317.89	26.68	-44.6	-46.4	19.4	0.00e+00	0	42	0	0	60	4504
2026-01-04 10:51:36.67	318.07	26.54	-44.4	-46.2	19.6	0.00e+00	0	42	0	0	60	4406
2026-01-04 10:51:37.67	318.25	26.41	-44.3	-46.1	19.7	0.00e+00	0	42	0	0	60	4363
2026-01-04 10:51:38.67	318.42	26.27	-44.3	-46.2	19.6	0.00e+00	0	42	0	0	60	4392
2026-01-04 10:51:39.67	318.59	26.13	-44.2	-46.0	19.7	0.00e+00	0	42	0	0	60	4326
2026-01-04 10:51:40.67	318.76	26.00	-44.3	-46.0	19.8	0.00e+00	0	42	0	0	60	4336
2026-01-04 10:51:41.68	318.94	25.86	-44.3	-46.1	19.8	0.00e+00	0	42	0	0	60	4351
2026-01-04 10:51:42.68	319.11	25.72	-44.3	-46.0	19.8	0.00e+00	0	42	0	0	60	4331
2026-01-04 10:51:43.68	319.27	25.59	-44.3	-46.1	19.6	0.00e+00	0	42	0	0	60	4353
2026-01-04 10:51:44.75	319.45	25.45	-44.2	-46.0	19.6	0.00e+00	0	42	0	0	60	4323
2026-01-04 10:51:45.64	319.60	25.33	-44.3	-46.1	19.5	0.00e+00	0	42	0	0	60	4372
2026-01-04 10:51:46.98	319.81	25.15	-44.4	-46.2	19.4	0.00e+00	0	42	0	0	60	4400
2026-01-04 10:51:47.69	319.93	25.05	-44.5	-46.3	19.4	0.00e+00	0	42	0	0	60	4454
2026-01-04 10:51:48.98	320.14	24.88	-44.5	-46.4	19.3	0.00e+00	0	42	0	0	60	4496
2026-01-04 10:51:49.70	320.25	24.79	-44.5	-46.3	19.4	0.00e+00	0	42	0	0	60	4474
2026-01-04 10:51:50.99	320.45	24.62	-44.5	-46.3	19.4	0.00e+00	0	42	0	0	60	4474
2026-01-04 10:51:51.71	320.57	24.52	-44.5	-46.4	19.3	0.00e+00	0	42	0	0	60	4505
2026-01-04 10:51:53.00	320.77	24.36	-44.5	-46.4	19.3	0.00e+00	0	42	0	0	60	4495
2026-01-04 10:51:53.71	320.88	24.26	-44.3	-46.2	19.5	0.00e+00	0	42	0	0	60	4393
2026-01-04 10:51:55.00	321.07	24.10	-44.1	-46.0	19.6	0.00e+00	0	42	0	0	60	4294
2026-01-04 10:51:55.72	321.18	24.00	-44.4	-46.2	19.4	0.00e+00	0	42	0	0	60	4426
2026-01-04 10:51:57.01	321.37	23.84	-44.4	-46.2	19.4	0.00e+00	0	42	0	0	60	4421
2026-01-04 10:51:57.72	321.48	23.74	-44.5	-46.3	19.4	0.00e+00	0	42	0	0	60	4463
2026-01-04 10:51:59.12	321.69	23.57	-44.6	-46.4	19.3	0.00e+00	0	42	0	0	60	4524
2026-01-04 10:51:59.84	321.79	23.47	-44.7	-46.5	19.2	0.00e+00	0	42	0	0	60	4591
2026-01-04 10:52:01.16	321.98	23.31	-44.6	-46.5	19.3	0.00e+00	0	42	0	0	60	4562
2026-01-04 10:52:01.87	322.09	23.22	-44.5	-46.4	19.4	0.00e+00	0	42	0	0	60	4509
2026-01-04 10:52:03.16	322.27	23.05	-44.5	-46.4	19.3	0.00e+00	0	42	0	0	60	4509
2026-01-04 10:52:03.88	322.37	22.96	-44.5	-46.3	19.3	0.00e+00	0	42	0	0	60	4491
2026-01-04 10:52:05.26	322.57	22.79	-44.4	-46.3	19.3	0.00e+00	0	42	0	0	60	4468
2026-01-04 10:52:06.25	322.71	22.67	-44.5	-46.3	19.3	0.00e+00	0	42	0	0	60	4486
2026-01-04 10:52:07.25	322.84	22.54	-44.6	-46.4	19.2	0.00e+00	0	42	0	0	60	4539
2026-01-04 10:52:08.26	322.98	22.42	-44.5	-46.4	19.2	0.00e+00	0	42	0	0	60	4510
2026-01-04 10:52:09.26	323.12	22.29	-44.7	-46.5	19.2	0.00e+00	0	42	0	0	60	4574
2026-01-04 10:52:10.26	323.25	22.17	-44.9	-46.7	19.1	0.00e+00	0	42	0	0	60	4705
2026-01-04 10:52:11.26	323.39	22.05	-44.9	-46.8	19.0	0.00e+00	0	42	0	0	60	4714
2026-01-04 10:52:12.26	323.52	21.93	-45.0	-46.9	18.9	0.00e+00	0	42	0	0	60	4767
2026-01-04 10:52:13.27	323.66	21.80	-45.1	-47.0	18.9	0.00e+00	0	42	0	0	61	4550
2026-01-04 10:52:14.33	323.79	21.68	-44.9	-46.7	19.1	0.00e+00	0	42	0	0	61	4434
2026-01-04 10:52:15.22	323.91	21.57	-44.8	-46.7	19.1	0.00e+00	0	42	0	0	61	4401
2026-01-04 10:52:16.37	324.06	21.43	-44.8	-46.6	19.1	0.00e+00	0	42	0	0	61	4356
2026-01-04 10:52:17.29	324.18	21.32	-44.6	-46.4	19.3	0.00e+00	0	42	0	0	61	4280
2026-01-04 10:52:18.47	324.33	21.18	-44.6	-46.4	19.3	0.00e+00	0	42	0	0	61	4289
2026-01-04 10:52:19.36	324.44	21.07	-44.6	-46.4	19.3	0.00e+00	0	42	0	0	61	4287
2026-01-04 10:52:20.50	324.58	20.94	-44.6	-46.4	19.3	0.00e+00	0	42	0	0	61	4278
2026-01-04 10:52:21.36	324.69	20.84	-44.5	-46.4	19.3	0.00e+00	0	42	0	0	61	4269
2026-01-04 10:52:22.51	324.83	20.70	-44.5	-46.4	19.3	0.00e+00	0	42	0	0	61	4263
2026-01-04 10:52:23.37	324.94	20.60	-44.5	-46.4	19.3	0.00e+00	0	42	0	0	61	4265
2026-01-04 10:52:24.51	325.07	20.47	-44.5	-46.4	19.3	0.00e+00	0	42	0	0	60	4502
2026-01-04 10:52:25.37	325.18	20.37	-44.5	-46.4	19.3	0.00e+00	0	42	0	0	60	4499
2026-01-04 10:52:26.52	325.32	20.23	-44.5	-46.4	19.3	0.00e+00	0	42	0	0	60	4513
2026-01-04 10:52:27.38	325.42	20.13	-44.6	-46.4	19.3	0.00e+00	0	42	0	0	60	4517
2026-01-04 10:52:28.52	325.55	20.00	-44.6	-46.5	19.3	0.00e+00	0	42	0	0	60	4549
2026-01-04 10:52:29.39	325.65	19.90	-44.5	-46.3	19.4	0.00e+00	0	42	0	0	60	4481
2026-01-04 10:52:30.53	325.79	19.77	-44.4	-46.2	19.4	0.00e+00	0	42	0	0	60	4426
2026-01-04 10:52:31.39	325.89	19.67	-44.5	-46.3	19.3	0.00e+00	0	42	0	0	60	4451
2026-01-04 10:52:32.59	326.02	19.54	-44.5	-46.2	19.4	0.00e+00	0	42	0	0	60	4438
2026-01-04 10:52:33.45	326.12	19.44	-44.4	-46.2	19.4	0.00e+00	0	42	0	0	60	4428
2026-01-04 10:52:34.69	326.26	19.30	-44.4	-46.2	19.4	0.00e+00	0	42	0	0	60	4394
2026-01-04 10:52:35.54	326.36	19.21	-44.4	-46.2	19.5	0.00e+00	0	42	0	0	60	4399
2026-01-04 10:52:36.68	326.49	19.08	-44.4	-46.2	19.4	0.00e+00	0	42	0	0	60	4405
2026-01-04 10:52:37.54	326.58	18.98	-44.3	-46.1	19.4	0.00e+00	0	42	0	0	60	4370
2026-01-04 10:52:38.69	326.71	18.86	-44.5	-46.3	19.3	0.00e+00	0	42	0	0	60	4458
2026-01-04 10:52:39.59	326.80	18.76	-44.4	-46.3	19.2	0.00e+00	0	42	0	0	60	4445
2026-01-04 10:52:40.76	326.93	18.63	-44.4	-46.2	19.3	0.00e+00	0	42	0	0	60	4421
2026-01-04 10:52:41.63	327.03	18.53	-44.5	-46.3	19.2	0.00e+00	0	42	0	0	60	4492
2026-01-04 10:52:42.94	327.16	18.39	-44.6	-46.5	19.1	0.00e+00	0	42	0	0	60	4569
2026-01-04 10:52:43.65	327.24	18.31	-44.7	-46.6	18.9	0.00e+00	0	42	0	0	60	4651
2026-01-04 10:52:44.94	327.38	18.17	-44.5	-46.4	19.1	0.00e+00	0	42	0	0	60	4532
2026-01-04 10:52:45.66	327.45	18.09	-44.6	-46.6	19.0	0.00e+00	0	42	0	0	60	4602
2026-01-04 10:52:47.23	327.61	17.92	-44.8	-46.8	18.9	0.00e+00	0	42	0	0	60	4721
2026-01-04 10:52:47.81	327.67	17.86	-44.8	-46.8	18.9	0.00e+00	0	42	0	0	60	4738
2026-01-04 10:52:49.40	327.84	17.69	-45.0	-47.0	18.7	0.00e+00	0	42	0	0	60	4866
2026-01-04 10:52:49.97	327.89	17.63	-45.0	-47.1	18.6	0.00e+00	0	42	0	0	60	4883
2026-01-04 10:52:51.56	328.05	17.46	-44.9	-46.9	18.7	0.00e+00	0	42	0	0	60	4814
2026-01-04 10:52:52.13	328.11	17.40	-45.1	-47.2	18.7	0.00e+00	0	42	0	0	60	4938
2026-01-04 10:52:53.76	328.27	17.23	-45.1	-47.2	18.6	0.00e+00	0	42	0	0	60	4951
2026-01-04 10:52:54.33	328.33	17.17	-45.2	-47.2	18.6	0.00e+00	0	42	0	0	60	4965
2026-01-04 10:52:55.92	328.48	17.01	-45.2	-47.2	18.6	0.00e+00	0	42	0	0	61	4674
2026-01-04 10:52:56.50	328.54	16.95	-45.3	-47.3	18.5	0.00e+00	0	42	0	0	61	4712
2026-01-04 10:52:58.07	328.69	16.78	-45.4	-47.4	18.4	0.00e+00	0	42	0	0	61	4769
2026-01-04 10:52:59.09	328.79	16.68	-45.4	-47.3	18.4	0.00e+00	0	42	0	0	61	4741
2026-01-04 10:53:00.09	328.89	16.58	-45.5	-47.5	18.3	0.00e+00	0	42	0	0	61	4827
2026-01-04 10:53:01.09	328.98	16.47	-45.6	-47.6	18.1	0.00e+00	0	42	0	0	61	4884
2026-01-04 10:53:02.09	329.07	16.37	-45.6	-47.6	18.1	0.00e+00	0	42	0	0	62	4610
2026-01-04 10:53:03.09	329.17	16.27	-45.6	-47.5	18.1	0.00e+00	0	42	0	0	62	4577
2026-01-04 10:53:04.14	329.26	16.16	-45.6	-47.6	18.1	0.00e+00	0	42	0	0	62	4609
2026-01-04 10:53:05.08	329.35	16.07	-45.5	-47.4	18.3	0.00e+00	0	42	0	0	62	4533
2026-01-04 10:53:06.24	329.46	15.95	-45.7	-47.7	18.2	0.00e+00	0	42	0	0	62	4652
2026-01-04 10:53:07.11	329.54	15.86	-45.5	-47.4	18.3	0.00e+00	0	42	0	0	62	4527
2026-01-04 10:53:08.26	329.64	15.75	-45.5	-47.4	18.3	0.00e+00	0	42	0	0	62	4498
2026-01-04 10:53:09.12	329.72	15.66	-45.5	-47.4	18.2	0.00e+00	0	42	0	0	62	4522
2026-01-04 10:53:10.26	329.82	15.55	-45.4	-47.2	18.2	0.00e+00	0	42	0	0	62	4440
2026-01-04 10:53:11.12	329.89	15.47	-45.4	-47.3	18.2	0.00e+00	0	42	0	0	62	4477
2026-01-04 10:53:12.27	330.00	15.35	-45.5	-47.5	18.1	0.00e+00	0	42	0	0	62	4546
2026-01-04 10:53:13.13	330.07	15.27	-45.4	-47.4	18.2	0.00e+00	0	42	0	0	62	4509
2026-01-04 10:53:14.28	330.17	15.16	-45.4	-47.3	18.3	0.00e+00	0	42	0	0	62	4472
2026-01-04 10:53:15.37	330.26	15.05	-45.5	-47.5	18.1	0.00e+00	0	42	0	0	62	4555
2026-01-04 10:53:16.41	330.35	14.95	-45.5	-47.5	18.1	0.00e+00	0	42	0	0	62	4575
2026-01-04 10:53:17.41	330.44	14.85	-45.5	-47.5	18.0	0.00e+00	0	42	0	0	62	4592
2026-01-04 10:53:18.41	330.52	14.76	-45.5	-47.5	18.1	0.00e+00	0	42	0	0	62	4591
2026-01-04 10:53:19.41	330.61	14.66	-45.8	-47.8	18.0	0.00e+00	0	42	0	0	62	4746
2026-01-04 10:53:20.42	330.69	14.56	-45.6	-47.6	18.1	0.00e+00	0	42	0	0	62	4617
2026-01-04 10:53:21.42	330.77	14.47	-45.8	-47.8	18.0	0.00e+00	0	42	0	0	62	4711
2026-01-04 10:53:22.42	330.86	14.37	-45.7	-47.7	18.0	0.00e+00	0	42	0	0	62	4679
2026-01-04 10:53:23.42	330.94	14.28	-45.9	-47.9	18.0	0.00e+00	0	42	0	0	62	4789
2026-01-04 10:53:24.43	331.02	14.18	-45.8	-47.8	18.1	0.00e+00	0	42	0	0	62	4731
2026-01-04 10:53:25.43	331.10	14.09	-45.8	-47.9	18.0	0.00e+00	0	42	0	0	62	4764
2026-01-04 10:53:26.43	331.18	13.99	-45.9	-47.9	18.0	0.00e+00	0	42	0	0	62	4803
2026-01-04 10:53:27.43	331.26	13.90	-45.8	-47.8	18.0	0.00e+00	0	42	0	0	62	4751
2026-01-04 10:53:28.47	331.35	13.80	-45.8	-47.8	18.0	0.00e+00	0	42	0	0	62	4727
2026-01-04 10:53:29.47	331.43	13.71	-45.9	-48.0	17.8	0.00e+00	0	42	0	0	62	4833
2026-01-04 10:53:30.47	331.50	13.62	-46.0	-48.1	17.7	0.00e+00	0	42	0	0	62	4893
2026-01-04 10:53:31.47	331.58	13.53	-46.1	-48.2	17.7	0.00e+00	0	42	0	0	62	4956
2026-01-04 10:53:32.48	331.66	13.43	-46.0	-48.1	17.6	0.00e+00	0	42	0	0	62	4902
2026-01-04 10:53:33.48	331.74	13.34	-46.1	-48.2	17.5	7.00e-07	0	42	0	0	63	4674
2026-01-04 10:53:34.48	331.82	13.25	-46.1	-48.1	17.6	0.00e+00	0	42	0	0	63	4641
2026-01-04 10:53:35.48	331.89	13.16	-46.0	-48.1	17.5	0.00e+00	0	42	0	0	63	4624
2026-01-04 10:53:36.48	331.97	13.07	-46.0	-48.1	17.4	0.00e+00	0	42	0	0	63	4605
2026-01-04 10:53:37.49	332.04	12.98	-46.1	-48.2	17.1	0.00e+00	0	42	0	0	63	4692
2026-01-04 10:53:38.49	332.12	12.89	-46.3	-48.4	17.1	0.00e+00	0	42	0	0	63	4773
2026-01-04 10:53:39.49	332.19	12.80	-46.2	-48.3	17.2	0.00e+00	0	42	0	0	63	4742
2026-01-04 10:53:40.49	332.27	12.71	-46.2	-48.4	17.1	0.00e+00	0	42	0	0	63	4766
2026-01-04 10:53:41.50	332.34	12.62	-46.3	-48.4	17.0	0.00e+00	0	42	0	0	63	4809
2026-01-04 10:53:42.50	332.42	12.53	-46.2	-48.4	17.0	0.00e+00	0	42	0	0	63	4795
2026-01-04 10:53:43.50	332.49	12.44	-46.3	-48.5	17.1	0.00e+00	0	42	0	0	63	4846
2026-01-04 10:53:44.53	332.56	12.35	-46.4	-48.6	16.9	0.00e+00	0	42	0	0	63	4914
2026-01-04 10:53:45.53	332.64	12.26	-46.4	-48.6	16.4	0.00e+00	0	42	0	0	63	4921
2026-01-04 10:53:46.53	332.71	12.17	-46.5	-48.7	16.2	0.00e+00	0	42	0	0	63	4957
2026-01-04 10:53:47.54	332.78	12.08	-46.5	-48.7	16.3	0.00e+00	0	42	0	0	63	4973
2026-01-04 10:53:48.54	332.85	12.00	-46.4	-48.6	16.7	0.00e+00	0	42	0	0	63	4902
2026-01-04 10:53:49.54	332.92	11.91	-46.4	-48.5	16.9	0.00e+00	0	42	0	0	63	4865
2026-01-04 10:53:50.54	332.99	11.82	-46.4	-48.5	17.0	0.00e+00	0	42	0	0	63	4864
2026-01-04 10:53:51.55	333.06	11.74	-46.3	-48.4	17.1	0.00e+00	0	42	0	0	63	4800
2026-01-04 10:53:52.55	333.13	11.65	-46.3	-48.4	17.0	0.00e+00	0	42	0	0	63	4786
2026-01-04 10:53:53.55	333.20	11.56	-46.3	-48.4	16.8	0.00e+00	0	42	0	0	63	4800
2026-01-04 10:53:54.56	333.27	11.48	-46.4	-48.5	16.8	0.00e+00	0	42	0	0	63	4862
2026-01-04 10:53:55.56	333.34	11.39	-46.3	-48.5	16.9	0.00e+00	0	42	0	0	63	4826
2026-01-04 10:53:56.57	333.41	11.31	-46.2	-48.3	17.1	0.00e+00	0	42	0	0	63	4726
2026-01-04 10:53:57.57	333.47	11.22	-46.2	-48.3	17.2	0.00e+00	0	42	0	0	63	4756
2026-01-04 10:53:58.57	333.54	11.14	-46.3	-48.4	17.2	0.00e+00	0	42	0	0	63	4787
2026-01-04 10:53:59.57	333.61	11.05	-46.2	-48.4	17.2	0.00e+00	0	42	0	0	63	4781
2026-01-04 10:54:00.57	333.67	10.97	-46.3	-48.4	17.1	0.00e+00	0	42	0	0	63	4805
2026-01-04 10:54:01.58	333.74	10.88	-46.3	-48.5	17.1	0.00e+00	0	42	0	0	63	4843
2026-01-04 10:54:02.58	333.81	10.80	-46.3	-48.5	17.0	0.00e+00	0	42	0	0	63	4859
2026-01-04 10:54:03.58	333.87	10.72	-46.4	-48.6	17.0	0.00e+00	0	42	0	0	63	4909
2026-01-04 10:54:04.59	333.94	10.63	-46.3	-48.5	17.0	0.00e+00	0	42	0	0	63	4837
2026-01-04 10:54:05.59	334.00	10.55	-46.3	-48.4	17.1	0.00e+00	0	42	0	0	63	4805
2026-01-04 10:54:06.59	334.07	10.47	-46.3	-48.5	17.1	0.00e+00	0	42	0	0	63	4819
2026-01-04 10:54:07.59	334.13	10.39	-46.3	-48.5	17.1	0.00e+00	0	42	0	0	63	4848
2026-01-04 10:54:08.60	334.20	10.30	-46.3	-48.5	17.1	0.00e+00	0	42	0	0	63	4841
2026-01-04 10:54:09.60	334.26	10.22	-46.3	-48.5	17.1	0.00e+00	0	42	0	0	63	4833
2026-01-04 10:54:10.60	334.32	10.14	-46.2	-48.4	17.2	0.00e+00	0	42	0	0	63	4784
2026-01-04 10:54:11.60	334.39	10.06	-46.4	-48.6	17.0	0.00e+00	0	42	0	0	63	4895
2026-01-04 10:54:12.61	334.45	9.98	-46.3	-48.5	17.2	0.00e+00	0	42	0	0	63	4828
2026-01-04 10:54:13.61	334.51	9.90	-46.2	-48.4	17.2	0.00e+00	0	42	0	0	63	4806
2026-01-04 10:54:14.62	334.57	9.81	-46.2	-48.4	17.2	0.00e+00	0	42	0	0	63	4796
2026-01-04 10:54:15.68	334.64	9.73	-46.3	-48.6	17.0	0.00e+00	0	42	0	0	63	4907
2026-01-04 10:54:16.54	334.69	9.66	-46.3	-48.6	17.0	0.00e+00	0	42	0	0	63	4872
2026-01-04 10:54:17.69	334.76	9.57	-46.3	-48.5	17.1	0.00e+00	0	42	0	0	63	4845
2026-01-04 10:54:18.64	334.82	9.49	-46.4	-48.7	17.0	0.00e+00	0	42	0	0	63	4950
2026-01-04 10:54:19.84	334.89	9.40	-46.3	-48.6	17.0	0.00e+00	0	42	0	0	63	4923
2026-01-04 10:54:20.71	334.94	9.33	-46.4	-48.8	16.8	0.00e+00	0	42	0	0	63	5008
2026-01-04 10:54:22.02	335.02	9.23	-46.4	-48.8	16.9	0.00e+00	0	42	0	0	63	4987
2026-01-04 10:54:22.74	335.06	9.17	-46.5	-48.9	16.8	0.00e+00	0	42	0	0	63	5047
2026-01-04 10:54:24.03	335.14	9.07	-46.5	-49.0	16.5	3.00e-06	0	42	0	0	63	5131
2026-01-04 10:54:24.74	335.18	9.01	-50.6	-55.3	10.8	7.70e-05	0	42	0	0	71	6696
2026-01-04 10:54:26.03	335.26	8.91	-53.3	-66.8	3.8	1.49e+00	0	42	104	0	77	17831
2026-01-04 10:54:26.75	335.30	8.85	-53.5	-67.1	3.8	1.49e+00	0	42	104	0	77	18359
2026-01-04 10:54:28.04	335.37	8.75	-53.2	-67.4	3.8	1.49e+00	0	42	104	0	78	18037
2026-01-04 10:54:28.76	335.41	8.70	-54.0	-67.5	3.8	1.49e+00	0	42	104	0	78	18133
2026-01-04 10:54:30.05	335.49	8.60	-54.3	-67.6	3.8	1.49e+00	0	42	104	0	79	17340
2026-01-04 10:54:30.77	335.53	8.54	-53.4	-67.6	3.8	1.49e+00	0	42	104	0	78	18358
2026-01-04 10:54:32.06	335.60	8.45	-53.8	-67.7	3.8	1.49e+00	0	42	104	0	79	17494
2026-01-04 10:54:32.78	335.64	8.39	-54.6	-67.7	3.8	1.49e+00	0	42	104	0	79	17643
2026-01-04 10:54:34.07	335.71	8.29	-54.7	-67.7	3.8	1.49e+00	0	42	104	0	79	17517
2026-01-04 10:54:34.78	335.75	8.24	-54.1	-67.6	3.8	1.49e+00	0	42	104	0	80	16360
2026-01-04 10:54:36.08	335.83	8.14	-54.4	-67.6	3.8	1.49e+00	0	42	104	0	80	16383
2026-01-04 10:54:36.79	335.87	8.09	-54.4	-67.6	3.8	1.49e+00	0	42	104	0	80	16357
2026-01-04 10:54:38.08	335.94	7.99	-54.4	-67.5	3.8	1.49e+00	0	42	104	0	80	16167
2026-01-04 10:54:38.80	335.98	7.93	-54.5	-67.4	3.8	1.49e+00	0	42	104	0	80	16073
2026-01-04 10:54:40.09	336.05	7.84	-54.5	-67.5	3.8	1.49e+00	0	42	104	0	80	16145
2026-01-04 10:54:40.80	336.08	7.78	-54.5	-67.5	3.8	1.49e+00	0	42	104	0	80	16233
2026-01-04 10:54:42.10	336.15	7.69	-54.8	-67.7	3.8	1.49e+00	0	42	104	0	80	16689
2026-01-04 10:54:42.81	336.19	7.63	-54.7	-67.6	3.8	1.49e+00	0	42	104	0	80	16493
2026-01-04 10:54:44.10	336.26	7.54	-54.5	-67.4	3.8	1.49e+00	0	42	104	0	80	16111
2026-01-04 10:54:44.82	336.30	7.49	-54.4	-67.4	3.8	1.49e+00	0	42	104	0	80	16086
2026-01-04 10:54:46.11	336.37	7.39	-54.6	-67.6	3.8	1.49e+00	0	42	104	0	80	16463
2026-01-04 10:54:46.83	336.41	7.34	-54.5	-67.6	3.8	1.49e+00	0	42	104	0	80	16387
2026-01-04 10:54:48.12	336.47	7.24	-54.6	-67.7	3.8	1.49e+00	0	42	104	0	80	16566
2026-01-04 10:54:48.83	336.51	7.19	-54.5	-67.6	3.8	1.49e+00	0	42	104	0	80	16428
2026-01-04 10:54:50.13	336.58	7.10	-54.1	-67.4	3.8	1.49e+00	0	42	104	0	80	16078
2026-01-04 10:54:51.07	336.63	7.03	-54.3	-67.6	3.8	1.49e+00	0	42	104	0	80	16356
2026-01-04 10:54:52.07	336.68	6.95	-54.3	-67.6	3.8	1.49e+00	0	42	104	0	80	16473
2026-01-04 10:54:53.07	336.73	6.88	-54.2	-67.5	3.8	1.49e+00	0	42	104	0	80	16277
2026-01-04 10:54:54.08	336.78	6.81	-54.3	-67.6	3.8	1.49e+00	0	42	104	0	80	16402
2026-01-04 10:54:55.08	336.83	6.74	-54.3	-67.6	3.8	1.49e+00	0	42	104	0	80	16349
2026-01-04 10:54:56.09	336.88	6.66	-54.2	-67.6	3.8	1.49e+00	0	42	104	0	80	16340
2026-01-04 10:54:57.09	336.93	6.59	-54.2	-67.5	3.8	1.49e+00	0	42	104	0	80	16285
2026-01-04 10:54:58.10	336.99	6.52	-54.2	-67.5	3.8	1.49e+00	0	42	104	0	80	16281
2026-01-04 10:54:59.10	337.04	6.45	-54.2	-67.6	3.8	1.49e+00	0	42	104	0	80	16389
2026-01-04 10:55:00.11	337.09	6.38	-54.1	-67.5	3.8	1.49e+00	0	43	104	0	80	16138
2026-01-04 10:55:01.11	337.14	6.31	-54.1	-67.5	3.8	1.49e+00	0	43	104	0	80	16192
2026-01-04 10:55:02.11	337.18	6.23	-54.2	-67.5	3.8	1.49e+00	0	42	104	0	80	16274
2026-01-04 10:55:03.12	337.23	6.16	-54.3	-67.6	3.8	1.49e+00	0	42	104	0	80	16372
2026-01-04 10:55:04.12	337.28	6.09	-54.2	-67.6	3.8	1.49e+00	0	42	104	0	80	16317
2026-01-04 10:55:05.13	337.33	6.02	-54.1	-67.4	3.8	1.49e+00	0	42	104	0	80	16046
2026-01-04 10:55:06.13	337.38	5.95	-54.1	-67.5	3.8	1.49e+00	0	42	104	0	80	16189
2026-01-04 10:55:07.13	337.43	5.88	-54.2	-67.6	3.8	1.49e+00	0	42	104	0	80	16350
2026-01-04 10:55:08.14	337.48	5.81	-54.2	-67.5	3.8	1.49e+00	0	42	104	0	80	16193
2026-01-04 10:55:09.14	337.52	5.74	-54.2	-67.6	3.8	1.49e+00	0	42	104	0	80	16338
2026-01-04 10:55:10.15	337.57	5.67	-54.2	-67.6	3.8	1.49e+00	0	42	104	0	80	16383
2026-01-04 10:55:11.15	337.62	5.60	-54.2	-67.5	3.8	1.49e+00	0	42	104	0	80	16279
2026-01-04 10:55:12.16	337.67	5.53	-54.1	-67.5	3.8	1.49e+00	0	42	104	0	80	16185
2026-01-04 10:55:13.16	337.72	5.46	-54.1	-67.4	3.8	1.49e+00	0	42	104	0	80	16021
2026-01-04 10:55:14.16	337.76	5.40	-54.1	-67.4	3.8	1.49e+00	0	42	104	0	80	15996
2026-01-04 10:55:15.17	337.81	5.33	-54.1	-67.4	3.8	1.49e+00	0	42	104	0	80	16053
2026-01-04 10:55:16.17	337.86	5.26	-54.1	-67.4	3.8	1.49e+00	0	42	104	0	80	16029
2026-01-04 10:55:17.18	337.90	5.19	-54.2	-67.5	3.8	1.49e+00	0	42	104	0	80	16197
2026-01-04 10:55:18.18	337.95	5.12	-54.2	-67.6	3.8	1.49e+00	0	42	104	0	80	16336
2026-01-04 10:55:19.18	337.99	5.05	-54.2	-67.6	3.8	1.49e+00	0	42	104	0	80	16319
2026-01-04 10:55:20.19	338.04	4.98	-54.3	-67.6	3.8	1.49e+00	0	42	104	0	80	16415

#Closed at: 2026-01-04 10:55:21
#Recorded file [0 MB]: D:/Data/31040_260104_134245.dat