passes_logs/2026/01/04/T1/T1__20260104_033331_AQUA_rec.log

#Pass ID: 20260104_033331_AQUA
#Satellite: AQUA
#Configuration: AQUA
#almurnet v.1.7.20251203
#Start time: 2026-01-04 03:33:33

#Version: 2.0.20230620
#Station: T1
#Location: 37.570604 lon 55.790049 lat
#TLE: 1 27424U 02022A   25365.92641127  .00002078  00000+0  42628-3 0  9999
#TLE: 2 27424  98.4058 327.1196 0001962  94.7781 340.6230 14.61783896258835

#Time	Az	El	Level	Level2	SNR	BER	BlckErr	Temp	State	Recorded	gain1	gain2
2026-01-04 03:33:33.21	356.24	5.10	-49.9	-74.6	3.4	7.67e-01	0	40	0	0	70	65535
2026-01-04 03:33:34.21	356.11	5.15	-50.0	-74.6	3.4	7.66e-01	0	40	104	0	70	65535
2026-01-04 03:33:35.21	355.98	5.20	-50.0	-74.6	3.4	7.66e-01	0	40	104	0	70	65535
2026-01-04 03:33:36.22	355.85	5.25	-50.0	-74.6	3.4	7.68e-01	0	40	104	0	70	65535
2026-01-04 03:33:37.22	355.72	5.30	-50.0	-74.6	3.4	7.65e-01	0	40	104	0	70	65535
2026-01-04 03:33:38.22	355.59	5.35	-50.1	-74.6	3.3	7.65e-01	0	40	104	0	70	65535
2026-01-04 03:33:39.23	355.45	5.40	-50.0	-74.6	3.4	7.66e-01	0	40	104	0	70	65535
2026-01-04 03:33:40.23	355.32	5.44	-50.0	-74.6	3.4	7.64e-01	0	40	104	0	70	65534
2026-01-04 03:33:41.24	355.19	5.49	-50.0	-74.6	3.4	7.65e-01	0	40	104	0	70	65535
2026-01-04 03:33:42.24	355.05	5.54	-50.0	-74.6	3.4	7.63e-01	0	40	104	0	70	65535
2026-01-04 03:33:43.25	354.92	5.59	-50.0	-74.6	3.3	7.64e-01	0	40	104	0	70	65535
2026-01-04 03:33:44.25	354.78	5.64	-50.1	-74.6	3.3	7.72e-01	0	40	104	0	70	65535
2026-01-04 03:33:45.26	354.65	5.69	-50.2	-74.6	3.4	7.67e-01	0	41	104	0	70	65535
2026-01-04 03:33:46.26	354.51	5.74	-50.2	-75.1	3.5	7.62e-01	0	40	104	0	71	65535
2026-01-04 03:33:47.26	354.37	5.79	-50.2	-75.1	3.4	7.62e-01	0	40	104	0	71	65535
2026-01-04 03:33:48.27	354.24	5.84	-50.2	-75.1	3.4	7.60e-01	0	41	104	0	71	65535
2026-01-04 03:33:49.27	354.10	5.88	-50.2	-75.1	3.4	7.64e-01	0	41	104	0	71	65535
2026-01-04 03:33:50.28	353.96	5.93	-50.2	-75.1	3.4	7.61e-01	0	41	104	0	71	65534
2026-01-04 03:33:51.28	353.82	5.98	-50.2	-75.1	3.4	7.58e-01	0	41	104	0	71	65535
2026-01-04 03:33:52.29	353.68	6.03	-50.2	-75.1	3.4	7.59e-01	0	41	104	0	71	65535
2026-01-04 03:33:53.29	353.54	6.08	-50.2	-75.1	3.4	7.63e-01	0	40	104	0	71	65535
2026-01-04 03:33:54.29	353.40	6.13	-50.2	-75.1	3.4	7.62e-01	0	41	104	0	71	65535
2026-01-04 03:33:55.30	353.26	6.17	-50.3	-75.1	3.4	7.62e-01	0	41	104	0	71	65535
2026-01-04 03:33:56.30	353.12	6.22	-50.2	-75.1	3.4	7.61e-01	0	41	104	0	71	65535
2026-01-04 03:33:57.30	352.98	6.27	-50.2	-75.1	3.4	7.61e-01	0	41	104	0	71	65535
2026-01-04 03:33:58.31	352.84	6.32	-50.2	-75.1	3.4	7.62e-01	0	41	104	0	71	65535
2026-01-04 03:33:59.31	352.69	6.37	-50.2	-75.1	3.5	7.62e-01	0	41	104	0	71	65535
2026-01-04 03:34:00.32	352.55	6.42	-50.2	-75.1	3.5	7.63e-01	0	41	104	0	71	65535
2026-01-04 03:34:01.32	352.41	6.46	-50.1	-75.1	3.4	7.63e-01	0	41	104	0	71	65535
2026-01-04 03:34:02.32	352.26	6.51	-50.1	-75.1	3.5	7.59e-01	0	41	104	0	71	65534
2026-01-04 03:34:03.33	352.12	6.56	-50.1	-75.1	3.5	7.61e-01	0	41	104	0	71	65535
2026-01-04 03:34:04.33	351.97	6.61	-50.1	-75.1	3.5	7.59e-01	0	41	104	0	71	65535
2026-01-04 03:34:05.34	351.83	6.65	-50.1	-75.1	3.4	7.61e-01	0	41	104	0	71	65535
2026-01-04 03:34:06.34	351.68	6.70	-50.2	-75.1	3.5	7.59e-01	0	41	104	0	71	65535
2026-01-04 03:34:07.34	351.53	6.75	-50.2	-75.1	3.5	7.59e-01	0	41	104	0	71	65535
2026-01-04 03:34:08.35	351.38	6.80	-50.2	-75.1	3.4	7.60e-01	0	41	104	0	71	65535
2026-01-04 03:34:09.35	351.24	6.84	-50.2	-75.1	3.5	7.59e-01	0	41	104	0	71	65535
2026-01-04 03:34:10.36	351.09	6.89	-50.1	-75.1	3.5	7.57e-01	0	41	104	0	71	65535
2026-01-04 03:34:11.36	350.94	6.94	-50.2	-75.1	3.5	7.59e-01	0	41	104	0	71	65535
2026-01-04 03:34:12.37	350.79	6.99	-50.2	-75.1	3.5	7.58e-01	0	41	104	0	71	65535
2026-01-04 03:34:13.37	350.64	7.03	-50.2	-75.1	3.4	7.62e-01	0	41	104	0	71	65535
2026-01-04 03:34:14.38	350.49	7.08	-50.1	-75.1	3.5	7.63e-01	0	41	104	0	71	65535
2026-01-04 03:34:15.38	350.34	7.13	-50.1	-75.1	3.5	7.60e-01	0	41	104	0	71	65535
2026-01-04 03:34:16.38	350.18	7.18	-50.0	-75.1	3.4	7.58e-01	0	41	104	0	71	65535
2026-01-04 03:34:17.39	350.03	7.22	-50.0	-75.1	3.4	7.64e-01	0	41	104	0	71	65535
2026-01-04 03:34:18.39	349.88	7.27	-50.0	-75.1	3.4	7.58e-01	0	41	104	0	71	65535
2026-01-04 03:34:19.40	349.72	7.32	-50.0	-75.1	3.4	7.59e-01	0	41	104	0	71	65535
2026-01-04 03:34:20.40	349.57	7.36	-50.1	-75.1	3.4	7.60e-01	0	41	104	0	71	65535
2026-01-04 03:34:21.41	349.41	7.41	-50.1	-75.1	3.4	7.63e-01	0	41	104	0	71	65535
2026-01-04 03:34:22.41	349.26	7.46	-50.1	-75.1	3.5	7.61e-01	0	42	104	0	71	65535
2026-01-04 03:34:23.42	349.10	7.50	-50.1	-75.1	3.5	7.60e-01	0	42	104	0	71	65534
2026-01-04 03:34:24.42	348.95	7.55	-50.1	-75.1	3.5	7.61e-01	0	42	104	0	71	65535
2026-01-04 03:34:25.42	348.79	7.59	-50.1	-75.1	3.5	7.59e-01	0	42	104	0	71	65535
2026-01-04 03:34:26.43	348.63	7.64	-50.1	-75.1	3.5	7.57e-01	0	42	104	0	71	65535
2026-01-04 03:34:27.43	348.47	7.69	-50.1	-75.1	3.6	7.55e-01	0	41	104	0	71	65535
2026-01-04 03:34:28.44	348.31	7.73	-50.1	-75.1	3.7	7.51e-01	0	42	104	0	71	65535
2026-01-04 03:34:29.44	348.16	7.78	-50.1	-75.1	3.7	7.49e-01	0	42	104	0	71	65533
2026-01-04 03:34:30.45	348.00	7.82	-50.1	-75.1	3.7	7.47e-01	0	42	104	0	71	65534
2026-01-04 03:34:31.45	347.84	7.87	-50.1	-75.1	3.7	7.50e-01	0	42	104	0	71	65533
2026-01-04 03:34:32.46	347.67	7.91	-50.0	-75.1	3.6	7.55e-01	0	41	104	0	71	65534
2026-01-04 03:34:33.46	347.51	7.96	-50.1	-75.1	3.5	7.55e-01	0	42	104	0	71	65535
2026-01-04 03:34:34.46	347.35	8.00	-50.1	-75.1	3.5	7.55e-01	0	42	104	0	71	65535
2026-01-04 03:34:35.47	347.19	8.05	-50.1	-75.1	3.5	7.62e-01	0	42	104	0	71	65535
2026-01-04 03:34:36.47	347.03	8.09	-50.1	-75.1	3.4	7.57e-01	0	42	104	0	71	65534
2026-01-04 03:34:37.48	346.86	8.14	-50.1	-75.1	3.5	7.61e-01	0	42	104	0	71	65535
2026-01-04 03:34:38.48	346.70	8.18	-50.1	-75.1	3.6	7.56e-01	0	42	104	0	71	65535
2026-01-04 03:34:39.48	346.53	8.23	-50.1	-75.1	3.6	7.59e-01	0	41	104	0	71	65535
2026-01-04 03:34:40.49	346.37	8.27	-50.1	-75.1	3.5	7.57e-01	0	42	104	0	71	65534
2026-01-04 03:34:41.49	346.20	8.32	-50.1	-75.1	3.5	7.58e-01	0	42	104	0	71	65535
2026-01-04 03:34:42.49	346.04	8.36	-50.1	-75.1	3.6	7.52e-01	0	42	104	0	71	65534
2026-01-04 03:34:43.50	345.87	8.41	-50.1	-75.1	3.8	7.45e-01	0	42	104	0	71	65439
2026-01-04 03:34:44.50	345.70	8.45	-50.1	-74.9	3.8	7.45e-01	0	42	104	0	71	64138
2026-01-04 03:34:45.51	345.53	8.49	-50.1	-75.1	3.7	7.51e-01	0	42	104	0	71	65535
2026-01-04 03:34:46.51	345.36	8.54	-50.1	-75.1	3.5	7.56e-01	0	42	104	0	71	65535
2026-01-04 03:34:47.52	345.19	8.58	-50.1	-75.1	3.8	7.44e-01	0	42	104	0	71	65518
2026-01-04 03:34:48.52	345.03	8.62	-50.0	-73.2	4.1	7.36e-01	0	42	104	0	71	52210
2026-01-04 03:34:49.52	344.86	8.67	-50.0	-72.1	3.9	7.40e-01	0	42	104	0	71	46278
2026-01-04 03:34:50.53	344.68	8.71	-50.1	-71.9	4.4	7.43e-01	0	42	104	0	71	45028
2026-01-04 03:34:51.53	344.51	8.75	-50.1	-71.9	4.5	7.23e-01	0	42	104	0	71	45015
2026-01-04 03:34:52.54	344.34	8.80	-50.1	-72.5	4.4	7.30e-01	0	42	104	0	71	48410
2026-01-04 03:34:53.54	344.17	8.84	-50.1	-72.8	3.8	7.41e-01	0	42	104	0	71	50112
2026-01-04 03:34:54.55	343.99	8.88	-50.0	-71.4	4.6	7.20e-01	0	42	104	0	71	42422
2026-01-04 03:34:55.55	343.82	8.92	-50.0	-69.0	6.1	6.79e-01	0	42	0	0	71	32207
2026-01-04 03:34:56.55	343.65	8.97	-49.9	-65.2	9.7	6.23e-01	0	42	0	2097152	71	20828
2026-01-04 03:34:57.56	343.47	9.01	-49.6	-61.3	13.8	6.05e-01	0	42	0	3670016	71	13372
2026-01-04 03:34:58.56	343.30	9.05	-49.7	-59.8	15.7	6.06e-01	0	42	0	5767168	70	11895
2026-01-04 03:34:59.57	343.12	9.09	-51.3	-66.0	10.0	6.30e-01	0	42	0	7864320	73	20398
2026-01-04 03:35:00.57	342.94	9.13	-50.4	-59.4	15.4	6.04e-01	0	42	0	7864320	72	10082
2026-01-04 03:35:01.57	342.77	9.17	-51.0	-62.5	12.9	6.05e-01	0	42	0	9961472	72	14425
2026-01-04 03:35:02.57	342.59	9.22	-50.1	-57.6	16.9	6.03e-01	0	42	0	11534336	72	8240
2026-01-04 03:35:03.58	342.41	9.26	-48.8	-54.1	21.0	6.04e-01	0	42	0	13631488	69	6513
2026-01-04 03:35:04.58	342.23	9.30	-48.6	-53.6	21.3	6.05e-01	0	42	0	15204352	69	6140
2026-01-04 03:35:05.69	342.04	9.34	-48.3	-52.8	22.1	6.04e-01	0	42	0	17301504	68	5989
2026-01-04 03:35:06.55	341.88	9.38	-48.3	-52.7	22.3	6.04e-01	0	42	0	18874368	68	5890
2026-01-04 03:35:07.69	341.68	9.42	-48.3	-52.5	22.2	6.04e-01	0	42	0	21495808	68	5776
2026-01-04 03:35:08.65	341.50	9.46	-48.4	-52.5	22.4	6.06e-01	0	42	0	23068672	68	5741
2026-01-04 03:35:09.86	341.28	9.51	-48.4	-52.3	22.7	6.01e-01	0	42	0	25165824	68	5640
2026-01-04 03:35:10.75	341.12	9.54	-48.6	-52.4	22.6	6.03e-01	0	42	0	26738688	68	5715
2026-01-04 03:35:12.15	340.87	9.60	-49.0	-52.5	22.6	6.03e-01	0	42	0	29360128	68	5732
2026-01-04 03:35:12.86	340.74	9.63	-49.0	-52.4	22.6	6.04e-01	0	42	0	30932992	68	5706
2026-01-04 03:35:14.15	340.50	9.68	-49.2	-52.4	22.7	6.03e-01	0	42	0	33554432	69	5360
2026-01-04 03:35:14.87	340.37	9.71	-49.3	-52.3	22.7	6.02e-01	0	42	0	34603008	69	5309
2026-01-04 03:35:16.16	340.13	9.76	-49.5	-52.4	22.6	6.05e-01	0	42	0	37224448	69	5384
2026-01-04 03:35:16.87	340.00	9.78	-49.5	-52.4	22.7	6.04e-01	0	42	0	38273024	69	5367
2026-01-04 03:35:18.16	339.76	9.83	-49.5	-52.4	22.8	6.05e-01	0	42	0	40894464	69	5366
2026-01-04 03:35:18.88	339.63	9.86	-49.5	-52.4	22.7	6.04e-01	0	42	0	42467328	69	5390
2026-01-04 03:35:20.17	339.39	9.91	-49.4	-52.3	22.8	6.04e-01	0	42	0	44564480	69	5332
2026-01-04 03:35:20.89	339.25	9.94	-49.5	-52.4	22.6	6.03e-01	0	42	0	46137344	69	5348
2026-01-04 03:35:22.17	339.01	9.98	-49.5	-52.4	22.6	6.05e-01	0	42	0	48234496	69	5365
2026-01-04 03:35:22.89	338.88	10.01	-49.4	-52.4	22.6	6.04e-01	0	42	0	49807360	69	5400
2026-01-04 03:35:24.18	338.63	10.06	-49.2	-52.4	22.8	6.02e-01	0	42	0	52428800	69	5355
2026-01-04 03:35:24.89	338.50	10.08	-49.1	-52.4	22.7	6.05e-01	0	42	0	53477376	69	5401
2026-01-04 03:35:26.18	338.26	10.13	-49.0	-52.5	22.6	6.04e-01	0	42	0	56098816	69	5429
2026-01-04 03:35:26.90	338.12	10.16	-49.0	-52.6	22.4	6.01e-01	0	42	0	57147392	69	5514
2026-01-04 03:35:28.19	337.87	10.20	-48.8	-52.4	22.7	6.05e-01	0	42	0	59768832	69	5345
2026-01-04 03:35:28.91	337.74	10.23	-48.8	-52.3	22.8	6.00e-01	0	42	0	60817408	69	5328
2026-01-04 03:35:30.20	337.49	10.27	-48.6	-52.2	22.7	6.03e-01	0	42	0	63438848	69	5223
2026-01-04 03:35:30.91	337.35	10.30	-48.7	-52.3	22.6	6.04e-01	0	42	0	65011712	69	5317
2026-01-04 03:35:32.20	337.10	10.34	-48.5	-52.3	22.6	6.04e-01	0	42	0	67108864	69	5329
2026-01-04 03:35:32.92	336.96	10.37	-48.4	-52.4	22.5	6.04e-01	0	42	0	68681728	68	5663
2026-01-04 03:35:34.24	336.71	10.42	-48.4	-52.3	22.6	6.04e-01	0	42	0	71303168	68	5634
2026-01-04 03:35:34.96	336.57	10.44	-48.3	-52.2	22.8	6.03e-01	0	42	0	72351744	68	5557
2026-01-04 03:35:36.25	336.32	10.48	-48.4	-52.2	22.6	6.03e-01	0	42	0	74973184	68	5569
2026-01-04 03:35:36.96	336.18	10.51	-48.5	-52.2	22.6	6.04e-01	0	42	0	76021760	68	5553
2026-01-04 03:35:38.25	335.93	10.55	-48.8	-52.4	22.4	6.05e-01	0	42	0	78643200	68	5663
2026-01-04 03:35:38.97	335.79	10.58	-48.7	-52.2	22.3	6.03e-01	0	42	0	80216064	68	5587
2026-01-04 03:35:40.26	335.53	10.62	-48.8	-52.3	22.1	6.03e-01	0	42	0	82313216	68	5593
2026-01-04 03:35:40.97	335.39	10.64	-48.8	-52.2	22.4	6.02e-01	0	42	0	83886080	68	5574
2026-01-04 03:35:42.26	335.14	10.68	-49.0	-52.3	22.8	6.03e-01	0	42	0	85983232	68	5638
2026-01-04 03:35:42.98	334.99	10.71	-48.9	-52.2	22.5	6.02e-01	0	42	0	87556096	68	5535
2026-01-04 03:35:44.26	334.74	10.75	-49.1	-52.2	22.0	6.06e-01	0	42	0	89653248	68	5587
2026-01-04 03:35:44.98	334.60	10.77	-49.1	-52.2	22.4	6.05e-01	0	42	0	91226112	68	5578
2026-01-04 03:35:46.27	334.34	10.81	-49.2	-52.2	22.9	6.03e-01	0	42	0	93847552	68	5572
2026-01-04 03:35:47.19	334.16	10.84	-49.1	-52.2	22.8	6.02e-01	0	42	0	95420416	69	5249
2026-01-04 03:35:48.19	333.96	10.87	-49.2	-52.2	22.9	6.02e-01	0	42	0	96993280	69	5272
2026-01-04 03:35:49.54	333.68	10.91	-49.2	-52.2	22.6	6.05e-01	0	42	0	99614720	69	5272
2026-01-04 03:35:50.26	333.54	10.93	-49.2	-52.2	22.1	6.03e-01	0	42	0	101187584	69	5240
2026-01-04 03:35:51.55	333.28	10.97	-49.3	-52.2	21.7	6.05e-01	0	42	0	103284736	69	5248
2026-01-04 03:35:52.26	333.13	10.99	-49.3	-52.2	21.6	6.03e-01	0	42	0	104857600	69	5243
2026-01-04 03:35:53.55	332.87	11.03	-49.3	-52.3	21.5	6.04e-01	0	42	0	107479040	69	5314
2026-01-04 03:35:54.26	332.73	11.05	-49.3	-52.3	21.8	6.04e-01	0	42	0	108527616	69	5300
2026-01-04 03:35:55.55	332.47	11.09	-49.2	-52.2	22.5	6.03e-01	0	42	0	111149056	69	5271
2026-01-04 03:35:56.27	332.32	11.11	-49.2	-52.2	22.6	6.06e-01	0	42	0	112197632	69	5241
2026-01-04 03:35:57.56	332.05	11.15	-49.3	-52.3	22.4	6.04e-01	0	42	0	114819072	69	5286
2026-01-04 03:35:58.28	331.91	11.17	-49.4	-52.2	22.5	6.04e-01	0	42	0	116391936	69	5265
2026-01-04 03:35:59.57	331.64	11.20	-49.4	-52.2	22.9	6.03e-01	0	42	0	118489088	69	5254
2026-01-04 03:36:00.31	331.49	11.22	-49.3	-52.2	22.8	6.02e-01	0	42	0	120061952	69	5256
2026-01-04 03:36:01.60	331.22	11.26	-49.3	-52.2	22.8	6.05e-01	0	42	0	122159104	69	5278
2026-01-04 03:36:02.32	331.07	11.28	-49.4	-52.4	22.7	6.03e-01	0	42	0	123731968	69	5343
2026-01-04 03:36:03.60	330.81	11.31	-49.5	-52.4	22.6	6.02e-01	0	42	0	125829120	69	5341
2026-01-04 03:36:04.32	330.66	11.33	-49.4	-52.3	22.7	6.03e-01	0	42	0	127401984	69	5296
2026-01-04 03:36:05.61	330.39	11.36	-49.4	-52.3	22.8	6.05e-01	0	42	0	130023424	69	5318
2026-01-04 03:36:06.44	330.22	11.38	-49.4	-52.3	22.7	6.04e-01	0	42	0	131596288	69	5330
2026-01-04 03:36:07.58	329.98	11.41	-49.2	-52.1	22.9	6.03e-01	0	42	0	133693440	69	5211
2026-01-04 03:36:08.62	329.76	11.44	-49.1	-52.0	23.0	6.05e-01	0	42	0	135790592	69	5137
2026-01-04 03:36:09.77	329.52	11.47	-49.1	-52.1	23.0	6.02e-01	0	42	0	137887744	69	5201
2026-01-04 03:36:10.65	329.34	11.49	-49.1	-52.2	22.9	6.02e-01	0	42	0	139460608	69	5251
2026-01-04 03:36:11.79	329.10	11.51	-49.1	-52.1	22.8	6.04e-01	0	42	0	141557760	69	5209
2026-01-04 03:36:12.71	328.90	11.54	-49.2	-52.2	22.9	6.04e-01	0	42	0	143130624	69	5233
2026-01-04 03:36:13.89	328.65	11.56	-49.2	-52.1	23.0	6.03e-01	0	42	0	145227776	69	5193
2026-01-04 03:36:14.86	328.45	11.59	-49.2	-52.1	22.9	6.04e-01	0	42	0	147324928	69	5185
2026-01-04 03:36:15.86	328.24	11.61	-49.1	-52.0	23.1	6.03e-01	0	42	0	148897792	69	5131
2026-01-04 03:36:16.86	328.02	11.63	-49.1	-52.0	23.1	6.04e-01	0	42	0	150994944	69	5116
2026-01-04 03:36:17.86	327.81	11.65	-49.2	-52.1	22.8	6.03e-01	0	42	0	152567808	69	5188
2026-01-04 03:36:18.86	327.60	11.67	-49.2	-52.1	22.8	6.06e-01	0	42	0	154664960	69	5170
2026-01-04 03:36:19.86	327.38	11.69	-49.4	-52.2	22.7	6.04e-01	0	42	0	156762112	69	5244
2026-01-04 03:36:20.86	327.17	11.71	-49.4	-52.2	22.8	6.05e-01	0	42	0	158334976	69	5232
2026-01-04 03:36:21.86	326.96	11.73	-49.4	-52.3	22.7	6.03e-01	0	42	0	160432128	69	5289
2026-01-04 03:36:22.85	326.74	11.75	-49.2	-52.0	23.0	6.05e-01	0	42	0	162004992	69	5157
2026-01-04 03:36:23.86	326.53	11.77	-48.9	-51.8	23.2	6.03e-01	0	42	0	164102144	69	5032
2026-01-04 03:36:24.97	326.29	11.80	-48.9	-51.9	23.1	6.01e-01	0	42	0	166199296	69	5053
2026-01-04 03:36:25.86	326.10	11.81	-49.0	-52.0	23.0	6.06e-01	0	42	0	167772160	69	5142
2026-01-04 03:36:27.00	325.85	11.83	-48.8	-52.0	23.1	6.03e-01	0	42	0	169869312	69	5135
2026-01-04 03:36:27.86	325.67	11.85	-48.8	-52.1	23.0	6.05e-01	0	42	0	171442176	69	5209
2026-01-04 03:36:29.00	325.42	11.87	-48.8	-52.2	22.8	6.06e-01	0	42	0	173539328	69	5265
2026-01-04 03:36:29.86	325.23	11.89	-48.6	-52.1	22.8	6.05e-01	0	42	0	175112192	69	5202
2026-01-04 03:36:31.00	324.99	11.90	-48.5	-52.1	22.9	6.05e-01	0	42	0	177209344	69	5160
2026-01-04 03:36:31.86	324.80	11.92	-48.5	-52.0	23.0	6.01e-01	0	42	0	179306496	69	5134
2026-01-04 03:36:33.00	324.55	11.94	-48.7	-52.1	23.0	6.05e-01	0	42	0	181403648	69	5164
2026-01-04 03:36:33.85	324.37	11.95	-48.8	-52.0	23.0	6.04e-01	0	42	0	182976512	69	5142
2026-01-04 03:36:35.00	324.12	11.97	-48.9	-52.2	23.0	6.03e-01	0	42	0	185073664	69	5229
2026-01-04 03:36:35.85	323.93	11.98	-48.9	-52.1	23.0	6.03e-01	0	42	0	186646528	69	5210
2026-01-04 03:36:37.09	323.66	12.00	-48.8	-52.1	22.9	6.06e-01	0	42	0	188743680	69	5203
2026-01-04 03:36:37.94	323.47	12.01	-48.9	-52.2	22.9	6.03e-01	0	43	0	190316544	69	5260
2026-01-04 03:36:39.09	323.22	12.03	-48.9	-52.1	23.0	6.05e-01	0	42	0	192413696	69	5164
2026-01-04 03:36:39.95	323.03	12.04	-49.0	-52.0	23.1	6.03e-01	0	42	0	193986560	69	5129
2026-01-04 03:36:41.09	322.78	12.06	-49.3	-52.1	23.0	6.03e-01	0	42	0	196608000	69	5202
2026-01-04 03:36:42.01	322.58	12.07	-49.3	-52.0	23.1	6.03e-01	0	42	0	198180864	69	5120
2026-01-04 03:36:43.01	322.36	12.08	-49.4	-52.1	22.9	6.03e-01	0	42	0	200278016	69	5213
2026-01-04 03:36:44.02	322.14	12.09	-49.5	-52.2	22.9	6.01e-01	0	43	0	201850880	69	5249
2026-01-04 03:36:45.02	321.92	12.11	-49.3	-52.0	23.0	6.03e-01	0	42	0	203948032	69	5136
2026-01-04 03:36:46.02	321.70	12.12	-49.4	-52.3	22.7	6.03e-01	0	42	0	205520896	69	5301
2026-01-04 03:36:47.02	321.48	12.13	-49.1	-51.9	23.0	6.04e-01	0	42	0	207618048	69	5089
2026-01-04 03:36:48.02	321.26	12.14	-49.2	-52.1	23.0	6.05e-01	0	42	0	209190912	69	5167
2026-01-04 03:36:49.03	321.03	12.15	-49.1	-52.0	23.1	6.02e-01	0	42	0	211288064	69	5128
2026-01-04 03:36:50.03	320.81	12.16	-49.1	-52.0	23.0	6.06e-01	0	42	0	213385216	69	5135
2026-01-04 03:36:51.03	320.59	12.17	-49.1	-52.2	22.9	6.03e-01	0	42	0	214958080	69	5221
2026-01-04 03:36:52.03	320.37	12.18	-49.0	-52.0	23.0	6.02e-01	0	43	0	217055232	69	5149
2026-01-04 03:36:53.03	320.15	12.19	-49.2	-52.4	22.7	6.04e-01	0	43	0	218628096	69	5352
2026-01-04 03:36:54.03	319.93	12.20	-49.0	-51.9	22.6	6.05e-01	0	42	0	220725248	69	5090
2026-01-04 03:36:55.03	319.71	12.20	-49.3	-52.2	22.9	6.03e-01	0	42	0	222298112	69	5255
2026-01-04 03:36:56.03	319.48	12.21	-49.1	-51.9	23.2	6.04e-01	0	42	0	224395264	69	5064
2026-01-04 03:36:57.03	319.26	12.22	-49.3	-52.2	23.0	6.04e-01	0	42	0	226492416	69	5243
2026-01-04 03:36:58.03	319.04	12.22	-49.5	-52.5	22.7	6.04e-01	0	43	0	228065280	69	5412
2026-01-04 03:36:59.03	318.82	12.23	-49.2	-52.1	23.0	6.01e-01	0	42	0	230162432	69	5175
2026-01-04 03:37:00.03	318.60	12.24	-49.6	-52.6	22.5	6.04e-01	0	42	0	231735296	69	5489
2026-01-04 03:37:01.03	318.37	12.24	-48.9	-51.8	23.2	6.04e-01	0	42	0	233832448	69	5001
2026-01-04 03:37:02.03	318.15	12.25	-49.3	-52.4	22.7	6.04e-01	0	42	0	235929600	69	5351
2026-01-04 03:37:03.03	317.93	12.25	-49.0	-52.0	23.0	6.01e-01	0	42	0	237502464	69	5120
2026-01-04 03:37:04.03	317.70	12.26	-49.2	-52.2	22.8	6.03e-01	0	42	0	239599616	69	5237
2026-01-04 03:37:05.03	317.48	12.26	-49.5	-52.6	22.4	6.02e-01	0	43	0	241172480	69	5500
2026-01-04 03:37:06.03	317.26	12.26	-49.1	-52.1	22.9	6.07e-01	0	42	0	243269632	69	5212
2026-01-04 03:37:07.03	317.04	12.27	-49.6	-52.8	22.3	6.04e-01	0	42	0	244842496	69	5649
2026-01-04 03:37:08.03	316.81	12.27	-49.4	-52.3	22.6	6.03e-01	0	42	0	246939648	69	5321
2026-01-04 03:37:09.03	316.59	12.27	-49.8	-52.8	22.2	6.05e-01	0	42	0	249036800	70	5330
2026-01-04 03:37:10.03	316.37	12.28	-49.5	-52.3	21.8	6.04e-01	0	42	0	250609664	70	5024
2026-01-04 03:37:11.03	316.14	12.28	-49.5	-52.2	22.8	6.04e-01	0	42	0	252706816	70	4981
2026-01-04 03:37:12.03	315.92	12.28	-49.5	-52.3	22.8	6.02e-01	0	42	0	254279680	70	4993
2026-01-04 03:37:13.03	315.70	12.28	-49.3	-52.1	23.0	6.03e-01	0	42	0	256376832	70	4880
2026-01-04 03:37:14.03	315.47	12.28	-49.5	-52.5	22.7	6.06e-01	0	42	0	257949696	70	5111
2026-01-04 03:37:15.03	315.25	12.28	-49.4	-52.4	22.8	6.05e-01	0	43	0	260046848	70	5042
2026-01-04 03:37:16.03	315.03	12.28	-49.6	-52.5	22.7	6.02e-01	0	42	0	262144000	70	5157
2026-01-04 03:37:17.03	314.80	12.28	-49.8	-52.9	22.3	6.01e-01	0	43	0	263716864	70	5384
2026-01-04 03:37:18.03	314.58	12.28	-49.5	-52.4	22.7	6.02e-01	0	43	0	265814016	70	5086
2026-01-04 03:37:19.03	314.36	12.28	-50.0	-53.1	22.1	6.04e-01	0	42	0	267386880	70	5491
2026-01-04 03:37:20.04	314.13	12.27	-49.7	-52.7	22.5	6.04e-01	0	43	0	269484032	70	5224
2026-01-04 03:37:21.04	313.91	12.27	-49.9	-53.0	22.3	6.04e-01	0	43	0	271056896	70	5431
2026-01-04 03:37:22.04	313.69	12.27	-49.4	-52.6	22.6	6.06e-01	0	43	0	273154048	70	5180
2026-01-04 03:37:23.04	313.46	12.27	-49.1	-52.3	22.8	6.08e-01	0	42	0	275251200	70	5037
2026-01-04 03:37:24.04	313.24	12.26	-49.3	-52.5	22.7	6.04e-01	0	42	0	276824064	70	5134
2026-01-04 03:37:25.04	313.02	12.26	-49.3	-52.4	22.7	6.04e-01	0	42	0	278921216	70	5079
2026-01-04 03:37:26.04	312.79	12.25	-49.5	-52.6	22.6	6.05e-01	0	42	0	280494080	70	5197
2026-01-04 03:37:27.04	312.57	12.25	-49.6	-52.7	22.5	6.05e-01	0	42	0	282591232	70	5235
2026-01-04 03:37:28.04	312.35	12.24	-49.4	-52.3	22.8	6.05e-01	0	42	0	284164096	70	5023
2026-01-04 03:37:29.05	312.12	12.24	-49.8	-52.7	22.4	6.01e-01	0	42	0	286261248	70	5275
2026-01-04 03:37:30.04	311.90	12.23	-49.3	-52.0	23.1	6.04e-01	0	42	0	288358400	70	4865
2026-01-04 03:37:31.04	311.68	12.23	-49.7	-52.7	22.4	5.98e-01	0	42	0	289931264	70	5240
2026-01-04 03:37:32.04	311.46	12.22	-49.4	-52.3	22.8	6.04e-01	0	42	0	292028416	70	5007
2026-01-04 03:37:33.04	311.24	12.21	-49.5	-52.4	22.7	6.00e-01	0	42	0	293601280	70	5074
2026-01-04 03:37:34.04	311.01	12.20	-49.9	-52.9	22.2	6.01e-01	0	42	0	295698432	70	5372
2026-01-04 03:37:35.05	310.79	12.20	-49.5	-52.4	22.7	6.04e-01	0	43	0	297795584	70	5076
2026-01-04 03:37:36.05	310.57	12.19	-50.2	-53.3	21.7	6.05e-01	0	42	0	299368448	71	5327
2026-01-04 03:37:37.05	310.35	12.18	-50.1	-53.0	22.1	6.04e-01	0	42	0	301465600	71	5134
2026-01-04 03:37:38.04	310.13	12.17	-50.4	-53.5	21.7	6.03e-01	0	43	0	303038464	71	5434
2026-01-04 03:37:39.04	309.91	12.16	-49.8	-52.7	22.3	6.04e-01	0	43	0	305135616	71	4967
2026-01-04 03:37:40.04	309.68	12.15	-49.9	-52.9	22.2	6.03e-01	0	42	0	306708480	71	5081
2026-01-04 03:37:41.05	309.46	12.14	-49.9	-53.0	22.2	6.05e-01	0	42	0	308805632	71	5145
2026-01-04 03:37:42.05	309.24	12.13	-50.2	-53.4	21.9	6.01e-01	0	43	0	310902784	71	5343
2026-01-04 03:37:43.05	309.02	12.12	-50.0	-53.0	22.3	6.03e-01	0	43	0	312475648	71	5113
2026-01-04 03:37:44.05	308.80	12.11	-50.1	-53.2	22.1	6.04e-01	0	42	0	314572800	71	5221
2026-01-04 03:37:45.05	308.58	12.10	-50.0	-53.0	22.2	6.01e-01	0	42	0	316145664	71	5155
2026-01-04 03:37:46.05	308.36	12.08	-49.7	-52.7	22.5	6.03e-01	0	42	0	318242816	71	4959
2026-01-04 03:37:47.05	308.14	12.07	-49.8	-52.8	22.4	6.03e-01	0	43	0	319815680	71	5012
2026-01-04 03:37:48.05	307.92	12.06	-49.9	-53.0	22.2	6.02e-01	0	42	0	321912832	71	5101
2026-01-04 03:37:49.05	307.70	12.04	-49.8	-52.7	22.4	6.01e-01	0	42	0	324009984	71	4950
2026-01-04 03:37:50.05	307.48	12.03	-50.0	-52.9	22.2	6.01e-01	0	43	0	325582848	71	5042
2026-01-04 03:37:51.05	307.26	12.02	-49.7	-52.5	22.6	6.05e-01	0	42	0	327680000	71	4842
2026-01-04 03:37:52.05	307.04	12.00	-49.9	-52.7	22.5	6.05e-01	0	42	0	329252864	71	4960
2026-01-04 03:37:53.05	306.82	11.99	-50.1	-53.0	22.1	6.01e-01	0	42	0	331350016	71	5150
2026-01-04 03:37:54.05	306.60	11.97	-49.9	-52.9	22.3	6.03e-01	0	42	0	332922880	71	5044
2026-01-04 03:37:55.04	306.39	11.96	-49.9	-52.9	22.2	6.05e-01	0	42	0	335020032	71	5075
2026-01-04 03:37:56.05	306.17	11.94	-50.0	-52.9	22.2	6.04e-01	0	43	0	337117184	71	5075
2026-01-04 03:37:57.05	305.95	11.92	-50.2	-53.1	22.1	6.06e-01	0	42	0	338690048	71	5188
2026-01-04 03:37:58.05	305.73	11.91	-49.6	-52.3	22.8	6.04e-01	0	42	0	340787200	71	4726
2026-01-04 03:37:59.05	305.51	11.89	-50.1	-53.0	22.2	6.03e-01	0	42	0	342360064	71	5120
2026-01-04 03:38:00.05	305.30	11.87	-49.8	-52.6	22.5	6.02e-01	0	42	0	344457216	71	4894
2026-01-04 03:38:01.04	305.08	11.85	-50.1	-53.0	22.1	6.04e-01	0	42	0	346554368	71	5156
2026-01-04 03:38:02.04	304.87	11.84	-49.8	-52.7	22.5	6.04e-01	0	43	0	348127232	71	4940
2026-01-04 03:38:03.04	304.65	11.82	-50.3	-53.4	21.8	6.04e-01	0	42	0	350224384	71	5387
2026-01-04 03:38:04.04	304.43	11.80	-50.1	-53.1	22.1	6.01e-01	0	43	0	351797248	71	5187
2026-01-04 03:38:05.04	304.22	11.78	-49.8	-52.7	22.4	6.06e-01	0	42	0	353894400	71	4962
2026-01-04 03:38:06.04	304.00	11.76	-50.5	-53.8	21.5	6.04e-01	0	42	0	355467264	71	5598
2026-01-04 03:38:07.04	303.79	11.74	-50.1	-53.1	22.0	6.07e-01	0	43	0	357564416	71	5198
2026-01-04 03:38:08.05	303.57	11.72	-50.0	-52.9	22.2	6.04e-01	0	42	0	359661568	71	5056
2026-01-04 03:38:09.05	303.36	11.70	-50.7	-53.8	21.4	6.05e-01	0	42	0	361234432	71	5638
2026-01-04 03:38:10.04	303.15	11.68	-50.4	-53.5	21.6	6.04e-01	0	43	0	363331584	72	5114
2026-01-04 03:38:11.04	302.93	11.66	-49.7	-52.5	22.5	6.04e-01	0	43	0	364904448	71	4840
2026-01-04 03:38:12.04	302.72	11.64	-50.4	-53.4	21.7	6.04e-01	0	42	0	367001600	71	5345
2026-01-04 03:38:13.05	302.50	11.61	-50.5	-53.6	21.5	6.04e-01	0	42	0	368574464	72	5215
2026-01-04 03:38:14.05	302.29	11.59	-49.9	-52.7	22.3	6.06e-01	0	42	0	370671616	71	4977
2026-01-04 03:38:15.04	302.08	11.57	-49.7	-52.5	22.5	6.02e-01	0	42	0	372768768	71	4838
2026-01-04 03:38:16.04	301.87	11.55	-50.1	-52.9	22.2	6.04e-01	0	42	0	374341632	71	5086
2026-01-04 03:38:17.04	301.66	11.52	-50.6	-53.7	21.5	6.03e-01	0	43	0	376438784	71	5555
2026-01-04 03:38:18.04	301.45	11.50	-49.8	-52.6	22.5	6.03e-01	0	42	0	378011648	71	4898
2026-01-04 03:38:19.04	301.24	11.47	-50.0	-52.8	22.3	6.02e-01	0	42	0	380108800	71	5022
2026-01-04 03:38:20.04	301.03	11.45	-51.0	-54.3	20.9	6.05e-01	0	42	0	381681664	72	5649
2026-01-04 03:38:21.04	300.82	11.43	-50.2	-53.1	22.0	6.04e-01	0	42	0	383778816	72	4881
2026-01-04 03:38:22.04	300.61	11.40	-49.9	-52.7	22.5	6.04e-01	0	42	0	385875968	71	4957
2026-01-04 03:38:23.04	300.40	11.38	-50.3	-53.3	21.9	6.02e-01	0	42	0	387448832	71	5319
2026-01-04 03:38:24.04	300.19	11.35	-50.4	-53.4	21.7	6.05e-01	0	42	0	389545984	71	5369
2026-01-04 03:38:25.04	299.98	11.32	-50.2	-53.2	22.0	6.01e-01	0	42	0	391118848	71	5229
2026-01-04 03:38:26.04	299.77	11.30	-50.0	-52.9	22.3	6.03e-01	0	43	0	393216000	71	5067
2026-01-04 03:38:27.04	299.56	11.27	-50.1	-53.2	22.1	6.03e-01	0	42	0	394788864	71	5221
2026-01-04 03:38:28.04	299.36	11.24	-50.6	-53.7	21.5	6.02e-01	0	43	0	396886016	71	5570
2026-01-04 03:38:29.04	299.15	11.22	-50.3	-53.2	22.0	6.03e-01	0	42	0	398983168	71	5230
2026-01-04 03:38:30.05	298.94	11.19	-49.9	-52.7	22.5	6.04e-01	0	42	0	400556032	71	4927
2026-01-04 03:38:31.04	298.74	11.16	-50.6	-53.7	21.5	6.05e-01	0	43	0	402653184	71	5587
2026-01-04 03:38:32.04	298.53	11.13	-50.7	-53.9	21.3	6.02e-01	0	42	0	404226048	72	5373
2026-01-04 03:38:33.05	298.32	11.10	-50.0	-52.9	22.3	6.03e-01	0	42	0	406323200	72	4775
2026-01-04 03:38:34.05	298.12	11.08	-50.3	-53.2	22.0	6.03e-01	0	43	0	408420352	71	5268
2026-01-04 03:38:35.05	297.92	11.05	-50.6	-53.7	21.4	6.05e-01	0	43	0	409993216	71	5586
2026-01-04 03:38:36.05	297.71	11.02	-50.4	-53.4	21.8	6.03e-01	0	42	0	412090368	71	5344
2026-01-04 03:38:37.05	297.51	10.99	-50.3	-53.2	22.0	6.05e-01	0	43	0	413663232	71	5274
2026-01-04 03:38:38.05	297.31	10.96	-50.4	-53.3	21.9	6.06e-01	0	43	0	415760384	71	5317
2026-01-04 03:38:39.05	297.10	10.93	-50.5	-53.5	21.8	6.04e-01	0	42	0	417333248	71	5421
2026-01-04 03:38:40.05	296.90	10.90	-50.8	-53.9	21.3	6.02e-01	0	42	0	419430400	72	5398
2026-01-04 03:38:41.04	296.70	10.87	-50.3	-53.3	21.8	6.02e-01	0	43	0	421527552	72	5024
2026-01-04 03:38:42.04	296.50	10.84	-49.8	-52.7	22.5	6.04e-01	0	42	0	423100416	71	4938
2026-01-04 03:38:43.04	296.30	10.81	-50.0	-52.9	22.2	6.03e-01	0	42	0	425197568	71	5100
2026-01-04 03:38:44.04	296.10	10.77	-50.4	-53.5	21.7	6.03e-01	0	42	0	426770432	71	5412
2026-01-04 03:38:45.04	295.90	10.74	-50.3	-53.3	21.8	6.03e-01	0	42	0	428867584	71	5329
2026-01-04 03:38:46.04	295.70	10.71	-50.4	-53.4	21.7	6.05e-01	0	43	0	430440448	71	5399
2026-01-04 03:38:47.04	295.50	10.68	-50.6	-53.6	21.6	6.02e-01	0	43	0	432537600	71	5470
2026-01-04 03:38:48.04	295.30	10.64	-50.2	-53.0	22.1	6.02e-01	0	42	0	434634752	71	5141
2026-01-04 03:38:49.04	295.11	10.61	-50.4	-53.2	21.9	6.03e-01	0	42	0	436207616	71	5277
2026-01-04 03:38:50.04	294.91	10.58	-50.7	-53.8	21.4	6.05e-01	0	43	0	438304768	72	5304
2026-01-04 03:38:51.04	294.71	10.55	-50.4	-53.4	21.7	6.04e-01	0	43	0	439877632	72	5067
2026-01-04 03:38:52.04	294.51	10.51	-50.2	-53.1	21.9	6.03e-01	0	42	0	441974784	72	4917
2026-01-04 03:38:53.04	294.32	10.48	-50.5	-53.5	21.7	6.05e-01	0	42	0	443547648	72	5115
2026-01-04 03:38:54.04	294.12	10.44	-50.7	-53.8	21.4	6.07e-01	0	42	0	445644800	72	5331
2026-01-04 03:38:55.04	293.93	10.41	-50.4	-53.5	21.6	6.03e-01	0	43	0	447741952	72	5108
2026-01-04 03:38:56.04	293.73	10.37	-50.3	-53.3	21.8	6.03e-01	0	43	0	449314816	72	5005
2026-01-04 03:38:57.04	293.54	10.34	-50.3	-53.2	21.9	6.06e-01	0	43	0	451411968	72	4974
2026-01-04 03:38:58.05	293.34	10.30	-50.3	-53.3	21.8	6.05e-01	0	43	0	452984832	72	5003
2026-01-04 03:38:59.04	293.15	10.27	-50.3	-53.3	21.8	6.01e-01	0	43	0	455081984	72	4996
2026-01-04 03:39:00.04	292.96	10.23	-50.4	-53.3	21.7	6.04e-01	0	43	0	457179136	72	5035
2026-01-04 03:39:01.04	292.77	10.20	-50.4	-53.5	21.6	6.01e-01	0	43	0	458752000	72	5122
2026-01-04 03:39:02.04	292.58	10.16	-50.4	-53.4	21.6	6.02e-01	0	42	0	460849152	72	5083
2026-01-04 03:39:03.04	292.39	10.13	-50.2	-53.1	21.9	6.02e-01	0	43	0	462422016	72	4917
2026-01-04 03:39:04.04	292.20	10.09	-50.0	-52.9	22.1	6.03e-01	0	43	0	464519168	72	4806
2026-01-04 03:39:05.04	292.01	10.05	-50.2	-53.1	22.0	6.01e-01	0	43	0	466092032	71	5192
2026-01-04 03:39:06.04	291.82	10.02	-50.3	-53.3	21.8	6.03e-01	0	43	0	468189184	71	5295
2026-01-04 03:39:07.04	291.63	9.98	-50.4	-53.5	21.6	6.04e-01	0	42	0	470286336	71	5427
2026-01-04 03:39:08.04	291.44	9.94	-50.3	-53.4	21.8	6.05e-01	0	43	0	471859200	71	5356
2026-01-04 03:39:09.04	291.25	9.90	-50.2	-53.2	21.9	6.03e-01	0	42	0	473956352	71	5249
2026-01-04 03:39:10.04	291.07	9.87	-50.2	-53.1	22.0	6.06e-01	0	42	0	475529216	71	5176
2026-01-04 03:39:11.04	290.88	9.83	-50.2	-53.1	21.9	6.04e-01	0	42	0	477626368	71	5200
2026-01-04 03:39:12.04	290.69	9.79	-50.3	-53.3	21.8	6.03e-01	0	43	0	479199232	71	5297
2026-01-04 03:39:13.04	290.51	9.75	-50.2	-53.3	21.8	6.05e-01	0	43	0	481296384	71	5287
2026-01-04 03:39:14.04	290.32	9.71	-50.2	-53.2	21.9	6.04e-01	0	43	0	483393536	71	5237
2026-01-04 03:39:15.04	290.14	9.67	-50.2	-53.2	21.9	6.05e-01	0	43	0	484966400	71	5239
2026-01-04 03:39:16.05	289.95	9.63	-50.2	-53.3	21.8	6.02e-01	0	43	0	487063552	71	5300
2026-01-04 03:39:17.05	289.77	9.59	-50.3	-53.5	21.6	6.03e-01	0	43	0	488636416	71	5411
2026-01-04 03:39:18.05	289.59	9.56	-50.3	-53.4	21.6	6.05e-01	0	43	0	490733568	71	5387
2026-01-04 03:39:19.05	289.40	9.52	-50.2	-53.3	21.7	6.02e-01	0	43	0	492306432	71	5309
2026-01-04 03:39:20.06	289.22	9.48	-50.3	-53.4	21.7	6.03e-01	0	43	0	494403584	71	5353
2026-01-04 03:39:21.06	289.04	9.44	-50.3	-53.4	21.6	6.05e-01	0	42	0	496500736	71	5372
2026-01-04 03:39:22.05	288.86	9.40	-50.3	-53.4	21.7	6.04e-01	0	43	0	498073600	71	5361
2026-01-04 03:39:23.05	288.68	9.36	-50.2	-53.3	21.7	6.04e-01	0	43	0	500170752	71	5338
2026-01-04 03:39:24.05	288.50	9.31	-50.2	-53.4	21.7	6.04e-01	0	42	0	501743616	71	5397
2026-01-04 03:39:25.06	288.32	9.27	-50.2	-53.5	21.6	6.06e-01	0	43	0	503840768	71	5405
2026-01-04 03:39:26.06	288.14	9.23	-50.1	-53.3	21.7	6.03e-01	0	43	0	505413632	71	5334
2026-01-04 03:39:27.06	287.96	9.19	-50.1	-53.3	21.8	6.02e-01	0	43	0	507510784	71	5288
2026-01-04 03:39:28.06	287.78	9.15	-50.2	-53.5	21.6	6.05e-01	0	43	0	509607936	71	5409
2026-01-04 03:39:29.07	287.61	9.11	-50.2	-53.4	21.7	6.04e-01	0	43	0	511180800	71	5371
2026-01-04 03:39:30.07	287.43	9.07	-50.1	-53.3	21.8	6.03e-01	0	43	0	513277952	71	5303
2026-01-04 03:39:31.07	287.25	9.03	-50.1	-53.2	21.9	6.01e-01	0	43	0	515375104	71	5249
2026-01-04 03:39:32.07	287.08	8.98	-55.9	-75.8	3.6	7.55e-01	0	43	104	516947968	82	37515
2026-01-04 03:39:33.07	286.90	8.94	-56.5	-76.4	3.8	7.46e-01	0	43	104	516947968	83	38220
2026-01-04 03:39:34.08	286.73	8.90	-56.4	-76.6	3.8	7.49e-01	0	43	104	516947968	83	39045
2026-01-04 03:39:35.08	286.55	8.86	-56.5	-76.8	3.8	7.42e-01	0	43	104	516947968	83	39829
2026-01-04 03:39:36.08	286.38	8.81	-56.6	-76.8	3.8	7.48e-01	0	43	104	516947968	83	39815
2026-01-04 03:39:37.09	286.21	8.77	-56.5	-77.0	3.8	7.48e-01	0	43	104	516947968	84	38495
2026-01-04 03:39:38.09	286.03	8.73	-56.3	-77.0	3.8	7.48e-01	0	43	104	516947968	84	38563
2026-01-04 03:39:39.10	285.86	8.68	-56.5	-77.0	3.8	7.45e-01	0	43	104	516947968	84	38651
2026-01-04 03:39:40.10	285.69	8.64	-56.8	-77.0	3.8	7.44e-01	0	42	104	516947968	84	38396
2026-01-04 03:39:41.10	285.52	8.60	-56.8	-77.0	3.8	7.48e-01	0	43	104	516947968	84	38677
2026-01-04 03:39:42.11	285.35	8.55	-56.8	-77.0	3.8	7.44e-01	0	43	104	516947968	84	38627
2026-01-04 03:39:43.11	285.18	8.51	-56.7	-77.1	3.8	7.47e-01	0	43	104	516947968	84	38727
2026-01-04 03:39:44.55	284.94	8.45	-56.9	-77.1	3.8	7.44e-01	0	43	104	516947968	84	38867
2026-01-04 03:39:45.29	284.81	8.42	-56.7	-77.1	3.8	7.43e-01	0	43	104	516947968	84	39020
2026-01-04 03:39:46.59	284.59	8.36	-56.7	-77.0	3.8	7.44e-01	0	43	104	516947968	84	38644
2026-01-04 03:39:47.30	284.48	8.33	-56.7	-77.0	3.8	7.47e-01	0	43	104	516947968	84	38590
2026-01-04 03:39:48.59	284.26	8.27	-56.8	-77.1	3.8	7.45e-01	0	43	104	516947968	84	38719
2026-01-04 03:39:49.31	284.14	8.24	-56.7	-77.0	3.8	7.45e-01	0	42	104	516947968	84	38636
2026-01-04 03:39:50.60	283.93	8.18	-56.7	-77.0	3.8	7.42e-01	0	43	104	516947968	84	38596
2026-01-04 03:39:51.32	283.81	8.15	-56.6	-77.0	3.8	7.47e-01	0	43	104	516947968	84	38508
2026-01-04 03:39:52.61	283.60	8.09	-56.4	-77.0	3.8	7.46e-01	0	43	104	516947968	84	38505
2026-01-04 03:39:53.33	283.48	8.06	-56.1	-77.0	3.8	7.43e-01	0	43	104	516947968	84	38515
2026-01-04 03:39:54.71	283.26	8.00	-56.1	-77.0	3.8	7.45e-01	0	43	104	516947968	84	38630
2026-01-04 03:39:55.43	283.14	7.96	-56.1	-77.0	3.8	7.50e-01	0	43	104	516947968	84	38555
2026-01-04 03:39:56.72	282.93	7.91	-56.1	-77.0	3.8	7.44e-01	0	43	104	516947968	84	38381
2026-01-04 03:39:57.44	282.82	7.87	-56.1	-77.0	3.8	7.45e-01	0	43	104	516947968	84	38451
2026-01-04 03:39:58.73	282.61	7.81	-56.0	-76.9	3.8	7.45e-01	0	43	104	516947968	84	38207
2026-01-04 03:39:59.45	282.49	7.78	-56.0	-77.0	3.8	7.46e-01	0	43	104	516947968	84	38282
2026-01-04 03:40:00.74	282.29	7.72	-56.1	-77.0	3.8	7.47e-01	0	43	104	516947968	84	38267
2026-01-04 03:40:01.46	282.17	7.69	-56.0	-76.9	3.8	7.47e-01	0	43	104	516947968	84	38166
2026-01-04 03:40:02.75	281.97	7.63	-56.0	-76.9	3.8	7.46e-01	0	43	104	516947968	84	37979
2026-01-04 03:40:03.47	281.85	7.60	-56.0	-76.9	3.8	7.45e-01	0	43	104	516947968	84	37899
2026-01-04 03:40:04.76	281.65	7.54	-55.9	-76.8	3.8	7.45e-01	0	43	104	516947968	83	39664
2026-01-04 03:40:05.47	281.54	7.50	-55.9	-76.8	3.8	7.43e-01	0	43	104	516947968	83	39621
2026-01-04 03:40:06.77	281.34	7.44	-55.9	-76.8	3.8	7.42e-01	0	43	104	516947968	83	39741
2026-01-04 03:40:07.48	281.23	7.41	-55.9	-76.8	3.8	7.47e-01	0	43	104	516947968	83	39721
2026-01-04 03:40:08.77	281.03	7.35	-55.8	-76.8	3.8	7.46e-01	0	43	104	516947968	83	39591
2026-01-04 03:40:09.49	280.91	7.32	-55.9	-76.8	3.8	7.47e-01	0	43	104	516947968	83	39700
2026-01-04 03:40:10.78	280.72	7.26	-55.8	-76.8	3.8	7.46e-01	0	43	104	516947968	83	39620
2026-01-04 03:40:11.50	280.61	7.22	-55.8	-76.7	3.8	7.45e-01	0	43	104	516947968	83	39551
2026-01-04 03:40:12.79	280.41	7.16	-55.9	-76.8	3.8	7.47e-01	0	43	104	516947968	83	39685
2026-01-04 03:40:13.51	280.30	7.13	-55.8	-76.8	3.8	7.44e-01	0	43	104	516947968	83	39591
2026-01-04 03:40:14.80	280.10	7.07	-55.8	-76.8	3.8	7.46e-01	0	43	104	516947968	83	39647
2026-01-04 03:40:15.52	279.99	7.04	-55.8	-76.7	3.8	7.47e-01	0	43	104	516947968	83	39573
2026-01-04 03:40:16.81	279.80	6.98	-55.9	-76.8	3.8	7.49e-01	0	43	104	516947968	83	39772
2026-01-04 03:40:17.52	279.69	6.94	-55.9	-76.8	3.8	7.45e-01	0	43	104	516947968	83	39649
2026-01-04 03:40:18.82	279.50	6.88	-55.9	-76.8	3.8	7.46e-01	0	43	104	516947968	83	39747
2026-01-04 03:40:19.54	279.39	6.85	-55.9	-76.8	3.8	7.47e-01	0	43	104	516947968	83	39703
2026-01-04 03:40:20.83	279.20	6.79	-55.9	-76.8	3.8	7.45e-01	0	43	104	516947968	83	39612
2026-01-04 03:40:21.54	279.09	6.75	-55.9	-76.8	3.8	7.46e-01	0	43	104	516947968	83	39726
2026-01-04 03:40:22.83	278.90	6.69	-55.8	-76.7	3.8	7.45e-01	0	43	104	516947968	83	39578
2026-01-04 03:40:23.55	278.80	6.66	-55.8	-76.7	3.8	7.43e-01	0	43	104	516947968	83	39530
2026-01-04 03:40:24.84	278.61	6.59	-55.9	-76.8	3.8	7.46e-01	0	43	104	516947968	83	39746
2026-01-04 03:40:25.56	278.50	6.56	-55.9	-76.8	3.8	7.45e-01	0	43	104	516947968	83	39681
2026-01-04 03:40:26.85	278.32	6.50	-55.8	-76.8	3.8	7.45e-01	0	43	104	516947968	83	39687
2026-01-04 03:40:27.57	278.21	6.46	-55.8	-76.7	3.8	7.45e-01	0	43	104	516947968	83	39580
2026-01-04 03:40:28.86	278.02	6.40	-55.9	-76.9	3.8	7.45e-01	0	43	104	516947968	83	40146
2026-01-04 03:40:29.57	277.92	6.37	-55.9	-76.8	3.8	7.47e-01	0	43	104	516947968	83	39857
2026-01-04 03:40:30.87	277.74	6.31	-55.9	-76.8	3.8	7.47e-01	0	43	104	516947968	83	39772
2026-01-04 03:40:31.58	277.63	6.27	-55.8	-76.7	3.8	7.46e-01	0	43	104	516947968	83	39547
2026-01-04 03:40:32.88	277.45	6.21	-55.8	-76.7	3.8	7.45e-01	0	43	104	516947968	83	39519
2026-01-04 03:40:33.59	277.35	6.17	-55.8	-76.7	3.8	7.47e-01	0	43	104	516947968	83	39385
2026-01-04 03:40:34.89	277.17	6.11	-55.8	-76.7	3.8	7.45e-01	0	43	104	516947968	83	39500
2026-01-04 03:40:35.60	277.07	6.08	-55.8	-76.7	3.8	7.44e-01	0	43	104	516947968	83	39345
2026-01-04 03:40:36.89	276.88	6.02	-55.9	-76.8	3.8	7.47e-01	0	43	104	516947968	83	39627
2026-01-04 03:40:37.61	276.78	5.98	-55.8	-76.8	3.8	7.43e-01	0	43	104	516947968	83	39646
2026-01-04 03:40:38.90	276.60	5.92	-55.8	-76.7	3.8	7.49e-01	0	43	104	516947968	83	39429
2026-01-04 03:40:39.62	276.50	5.88	-55.8	-76.7	3.8	7.44e-01	0	43	104	516947968	83	39524
2026-01-04 03:40:40.91	276.33	5.82	-55.8	-76.8	3.8	7.46e-01	0	43	104	516947968	83	39716
2026-01-04 03:40:41.63	276.23	5.79	-55.8	-76.7	3.8	7.43e-01	0	43	104	516947968	83	39580
2026-01-04 03:40:42.92	276.05	5.72	-55.8	-76.7	3.8	7.49e-01	0	43	104	516947968	83	39387
2026-01-04 03:40:43.64	275.95	5.69	-55.8	-76.7	3.8	7.43e-01	0	43	104	516947968	83	39448
2026-01-04 03:40:44.93	275.78	5.62	-55.9	-76.8	3.8	7.44e-01	0	43	104	516947968	83	39757
2026-01-04 03:40:45.64	275.68	5.59	-55.9	-76.8	3.8	7.46e-01	0	43	104	516947968	83	39977
2026-01-04 03:40:46.94	275.50	5.53	-55.9	-76.8	3.8	7.45e-01	0	43	104	516947968	83	40014
2026-01-04 03:40:47.65	275.41	5.49	-55.9	-76.8	3.8	7.46e-01	0	43	104	516947968	83	39907
2026-01-04 03:40:48.94	275.24	5.43	-55.9	-76.8	3.8	7.47e-01	0	43	104	516947968	83	39929
2026-01-04 03:40:49.66	275.14	5.39	-55.9	-76.8	3.8	7.46e-01	0	43	104	516947968	83	39865
2026-01-04 03:40:50.95	274.97	5.33	-55.9	-76.9	3.8	7.46e-01	0	43	104	516947968	83	40060
2026-01-04 03:40:51.67	274.87	5.30	-55.9	-76.8	3.8	7.45e-01	0	43	104	516947968	83	39897
2026-01-04 03:40:52.96	274.70	5.23	-55.9	-76.8	3.8	7.43e-01	0	43	104	516947968	83	40019
2026-01-04 03:40:53.68	274.61	5.20	-55.9	-76.8	3.8	7.46e-01	0	43	104	516947968	83	39981
2026-01-04 03:40:54.97	274.44	5.13	-55.9	-76.8	3.8	7.46e-01	0	43	104	516947968	83	39887
2026-01-04 03:40:55.69	274.34	5.10	-55.9	-76.8	3.8	7.45e-01	0	43	104	516947968	83	39877
2026-01-04 03:40:56.98	274.18	5.03	-55.9	-76.8	3.8	7.47e-01	0	43	104	516947968	83	39750
2026-01-04 03:40:57.69	274.08	5.00	-55.9	-76.8	3.8	7.46e-01	0	43	104	516947968	83	40042

#Closed at: 2026-01-04 03:40:58
#Recorded file [516 MB]: D:/Data/31040_260104_063333.dat