passes_logs/2026/01/04/T1/T1__20260104_222613_KHAYYAM_rec.log

#Pass ID: 20260104_222613_KHAYYAM
#Satellite: KHAYYAM
#Configuration: KHAYYAM_480M
#almurnet v.1.7.20251203
#Start time: 2026-01-04 22:26:16

#Version: 2.0.20230620
#Station: T1
#Location: 37.570604 lon 55.790049 lat
#TLE: 1 53370U 22096A   26004.25948006  .00009070  00000+0  36935-3 0  9997
#TLE: 2 53370  97.3569 271.4608 0001229  85.3250 274.8128 15.24710400189604

#Time	Az	El	Level	Level2	SNR	BER	BlckErr	Temp	State	Recorded	gain1	gain2
2026-01-04 22:26:16.22	358.73	5.14	-51.2	-57.8	3.6	0.00e+00	0	45	0	0	72	33663
2026-01-04 22:26:17.22	358.62	5.21	-52.2	-58.3	3.7	0.00e+00	0	45	104	0	75	29896
2026-01-04 22:26:18.22	358.52	5.28	-52.2	-58.2	3.7	0.00e+00	0	45	104	0	75	29775
2026-01-04 22:26:19.23	358.41	5.36	-52.2	-58.2	3.7	0.00e+00	0	46	104	0	75	29538
2026-01-04 22:26:20.23	358.30	5.43	-52.2	-58.2	3.7	0.00e+00	0	46	104	0	75	29753
2026-01-04 22:26:21.23	358.19	5.50	-52.2	-58.2	3.7	0.00e+00	0	46	104	0	75	29642
2026-01-04 22:26:22.24	358.08	5.57	-52.3	-58.3	3.7	0.00e+00	0	46	104	0	75	30066
2026-01-04 22:26:23.24	357.97	5.64	-52.2	-58.3	3.7	0.00e+00	0	46	104	0	75	29910
2026-01-04 22:26:24.24	357.86	5.71	-52.2	-58.3	3.7	0.00e+00	0	46	104	0	75	29852
2026-01-04 22:26:25.25	357.75	5.79	-52.2	-58.2	3.7	0.00e+00	0	46	104	0	75	29770
2026-01-04 22:26:26.25	357.63	5.86	-52.2	-58.3	3.7	0.00e+00	0	46	104	0	75	30055
2026-01-04 22:26:27.26	357.52	5.93	-52.2	-58.3	3.7	0.00e+00	0	46	104	0	75	29855
2026-01-04 22:26:28.26	357.41	6.01	-52.2	-58.2	3.7	0.00e+00	0	46	104	0	75	29764
2026-01-04 22:26:29.27	357.29	6.08	-52.2	-58.3	3.7	0.00e+00	0	46	104	0	75	30053
2026-01-04 22:26:30.27	357.18	6.15	-52.3	-58.2	3.7	0.00e+00	0	46	104	0	75	29799
2026-01-04 22:26:31.28	357.06	6.23	-52.2	-58.3	3.7	0.00e+00	0	46	104	0	75	29949
2026-01-04 22:26:32.28	356.94	6.30	-52.2	-58.2	3.7	0.00e+00	0	47	104	0	75	29752
2026-01-04 22:26:33.28	356.83	6.37	-52.2	-58.2	3.7	0.00e+00	0	47	104	0	75	29755
2026-01-04 22:26:34.29	356.71	6.45	-52.2	-58.2	3.7	0.00e+00	0	46	104	0	75	29767
2026-01-04 22:26:35.29	356.59	6.52	-52.3	-58.3	3.7	0.00e+00	0	47	104	0	75	30106
2026-01-04 22:26:36.30	356.47	6.60	-52.3	-58.3	3.7	0.00e+00	0	47	104	0	75	30112
2026-01-04 22:26:37.30	356.35	6.67	-52.2	-58.3	3.7	0.00e+00	0	47	104	0	75	29959
2026-01-04 22:26:38.30	356.22	6.75	-52.2	-58.3	3.7	0.00e+00	0	47	104	0	75	29898
2026-01-04 22:26:39.31	356.10	6.82	-52.2	-58.3	3.7	0.00e+00	0	47	104	0	75	29932
2026-01-04 22:26:40.31	355.98	6.90	-52.2	-58.2	3.7	0.00e+00	0	47	104	0	75	29808
2026-01-04 22:26:41.32	355.85	6.97	-52.2	-58.3	3.7	0.00e+00	0	47	104	0	75	29903
2026-01-04 22:26:42.32	355.73	7.05	-52.2	-58.3	3.7	0.00e+00	0	47	104	0	75	29840
2026-01-04 22:26:43.33	355.60	7.13	-52.3	-58.3	3.7	0.00e+00	0	47	104	0	75	30001
2026-01-04 22:26:44.33	355.47	7.20	-52.3	-58.3	3.7	0.00e+00	0	47	104	0	75	29978
2026-01-04 22:26:45.34	355.35	7.28	-52.3	-58.3	3.7	0.00e+00	0	47	104	0	75	30084
2026-01-04 22:26:46.34	355.22	7.35	-52.4	-58.4	3.7	0.00e+00	0	48	104	0	75	30219
2026-01-04 22:26:47.34	355.09	7.43	-52.3	-58.3	3.7	0.00e+00	0	48	104	0	75	30113
2026-01-04 22:26:48.35	354.96	7.51	-52.3	-58.3	3.7	0.00e+00	0	48	104	0	75	30100
2026-01-04 22:26:49.35	354.83	7.58	-52.3	-58.3	3.7	0.00e+00	0	48	104	0	75	30019
2026-01-04 22:26:50.36	354.69	7.66	-52.3	-58.4	3.7	0.00e+00	0	48	104	0	75	30186
2026-01-04 22:26:51.36	354.56	7.74	-52.3	-58.3	3.7	0.00e+00	0	48	104	0	75	29950
2026-01-04 22:26:52.37	354.43	7.82	-52.3	-58.3	3.7	0.00e+00	0	48	104	0	75	29937
2026-01-04 22:26:53.37	354.29	7.90	-52.3	-58.3	3.7	0.00e+00	0	48	104	0	75	30148
2026-01-04 22:26:54.38	354.15	7.97	-52.3	-58.3	3.7	0.00e+00	0	48	104	0	75	30109
2026-01-04 22:26:55.38	354.02	8.05	-52.3	-58.3	3.7	0.00e+00	0	48	104	0	75	30110
2026-01-04 22:26:56.38	353.88	8.13	-52.3	-58.4	3.7	0.00e+00	0	48	104	0	75	30243
2026-01-04 22:26:57.39	353.74	8.21	-52.3	-58.3	3.7	0.00e+00	0	48	104	0	75	29993
2026-01-04 22:26:58.39	353.60	8.29	-52.3	-58.3	3.7	0.00e+00	0	48	104	0	75	29841
2026-01-04 22:26:59.40	353.46	8.37	-52.3	-58.3	3.7	0.00e+00	0	48	104	0	75	29991
2026-01-04 22:27:00.40	353.32	8.45	-52.3	-58.3	3.7	0.00e+00	0	48	104	0	75	29950
2026-01-04 22:27:01.41	353.17	8.53	-52.3	-58.3	3.7	0.00e+00	0	48	104	0	75	29921
2026-01-04 22:27:02.41	353.03	8.61	-52.3	-58.3	3.7	0.00e+00	0	48	104	0	75	29927
2026-01-04 22:27:03.42	352.89	8.69	-52.3	-58.3	3.7	0.00e+00	0	48	104	0	75	30113
2026-01-04 22:27:04.42	352.74	8.77	-52.3	-58.3	3.7	0.00e+00	0	48	104	0	75	30169
2026-01-04 22:27:05.42	352.59	8.85	-52.3	-58.3	3.7	0.00e+00	0	48	104	0	75	30036
2026-01-04 22:27:06.43	352.45	8.93	-52.3	-58.4	3.7	0.00e+00	0	48	104	0	75	30178
2026-01-04 22:27:07.43	352.30	9.01	-52.3	-58.3	3.7	0.00e+00	0	48	104	0	75	30141
2026-01-04 22:27:08.44	352.15	9.09	-52.3	-58.4	3.7	0.00e+00	0	49	104	0	75	30192
2026-01-04 22:27:09.44	352.00	9.17	-52.4	-58.4	3.7	0.00e+00	0	49	104	0	75	30312
2026-01-04 22:27:10.44	351.84	9.25	-52.3	-58.4	3.7	0.00e+00	0	49	104	0	75	30224
2026-01-04 22:27:11.44	351.69	9.33	-52.0	-58.1	3.7	0.00e+00	0	49	104	0	75	29475
2026-01-04 22:27:12.45	351.54	9.41	-51.5	-57.8	3.8	0.00e+00	0	49	104	0	73	31838
2026-01-04 22:27:13.45	351.38	9.49	-52.3	-58.3	3.7	0.00e+00	0	49	104	0	76	28357
2026-01-04 22:27:14.46	351.22	9.58	-50.4	-56.9	3.9	0.00e+00	0	49	104	0	72	30340
2026-01-04 22:27:15.46	351.07	9.66	-50.2	-56.8	3.8	0.00e+00	0	49	104	0	72	29954
2026-01-04 22:27:16.47	350.91	9.74	-50.2	-56.7	3.9	0.00e+00	0	49	104	0	72	29520
2026-01-04 22:27:17.47	350.75	9.82	-50.0	-56.6	3.9	0.00e+00	0	49	104	0	71	31055
2026-01-04 22:27:18.47	350.59	9.91	-50.1	-56.6	3.9	0.00e+00	0	49	104	0	71	31148
2026-01-04 22:27:19.47	350.43	9.99	-50.0	-56.5	3.9	0.00e+00	0	49	104	0	71	30828
2026-01-04 22:27:20.47	350.26	10.07	-50.2	-56.5	3.8	0.00e+00	0	49	104	0	72	29044
2026-01-04 22:27:21.54	350.09	10.16	-50.0	-56.6	3.9	0.00e+00	0	49	104	0	71	31021
2026-01-04 22:27:22.40	349.95	10.23	-50.0	-56.6	3.9	0.00e+00	0	49	104	0	71	31207
2026-01-04 22:27:23.55	349.75	10.33	-50.0	-56.3	3.8	0.00e+00	0	49	104	0	71	29851
2026-01-04 22:27:24.41	349.61	10.40	-49.9	-56.1	3.8	0.00e+00	0	49	104	0	71	29357
2026-01-04 22:27:25.56	349.42	10.49	-49.9	-55.7	3.7	0.00e+00	0	49	104	0	71	28064
2026-01-04 22:27:26.41	349.27	10.57	-49.9	-55.5	3.7	0.00e+00	0	49	104	0	71	27469
2026-01-04 22:27:27.56	349.08	10.66	-50.3	-56.3	3.7	0.00e+00	0	49	104	0	71	30122
2026-01-04 22:27:28.42	348.93	10.74	-50.3	-56.5	3.7	0.00e+00	0	49	104	0	71	30593
2026-01-04 22:27:29.57	348.73	10.83	-50.7	-56.1	3.7	0.00e+00	0	49	104	0	72	27677
2026-01-04 22:27:30.43	348.58	10.90	-50.7	-56.4	3.7	0.00e+00	0	49	104	0	72	28609
2026-01-04 22:27:31.57	348.38	11.00	-49.8	-56.2	3.9	0.00e+00	0	49	104	0	71	29733
2026-01-04 22:27:32.43	348.22	11.07	-49.9	-56.5	3.9	0.00e+00	0	50	104	0	71	30634
2026-01-04 22:27:33.58	348.02	11.17	-50.2	-56.8	3.8	0.00e+00	0	49	104	0	71	31850
2026-01-04 22:27:34.44	347.86	11.25	-50.4	-57.0	3.8	0.00e+00	0	49	104	0	71	32420
2026-01-04 22:27:35.59	347.65	11.34	-50.5	-57.1	3.8	0.00e+00	0	50	104	0	71	32940
2026-01-04 22:27:36.45	347.50	11.42	-50.6	-57.1	3.8	0.00e+00	0	50	104	0	71	33012
2026-01-04 22:27:37.59	347.29	11.52	-52.5	-58.5	3.7	0.00e+00	0	49	104	0	75	30530
2026-01-04 22:27:38.45	347.13	11.59	-54.0	-59.6	3.7	0.00e+00	0	50	104	0	78	29200
2026-01-04 22:27:39.60	346.91	11.69	-52.2	-58.3	3.7	0.00e+00	0	49	104	0	76	28186
2026-01-04 22:27:40.60	346.72	11.77	-51.5	-57.8	3.8	0.00e+00	0	49	104	0	74	30141
2026-01-04 22:27:41.78	346.50	11.88	-51.7	-57.9	3.7	0.00e+00	0	49	104	0	74	30393
2026-01-04 22:27:42.63	346.34	11.95	-51.8	-58.0	3.7	0.00e+00	0	49	104	0	74	30667
2026-01-04 22:27:43.97	346.08	12.07	-52.6	-58.6	3.7	0.00e+00	0	49	104	0	75	31188
2026-01-04 22:27:44.68	345.94	12.13	-52.9	-58.9	3.7	0.00e+00	0	50	104	0	76	30301
2026-01-04 22:27:45.98	345.69	12.24	-53.2	-59.2	3.7	0.00e+00	0	50	104	0	77	29688
2026-01-04 22:27:46.69	345.55	12.30	-53.5	-59.3	3.7	0.00e+00	0	50	104	0	77	30053
2026-01-04 22:27:47.98	345.29	12.41	-54.0	-59.7	3.7	0.00e+00	0	49	104	0	78	29747
2026-01-04 22:27:48.70	345.15	12.48	-53.5	-59.3	3.7	0.00e+00	0	50	104	0	78	28218
2026-01-04 22:27:49.99	344.89	12.59	-54.0	-59.7	3.7	0.00e+00	0	50	104	0	78	29676
2026-01-04 22:27:50.70	344.74	12.65	-54.0	-59.8	3.7	0.00e+00	0	50	104	0	78	29952
2026-01-04 22:27:52.00	344.48	12.77	-53.9	-59.8	3.7	0.00e+00	0	50	104	0	78	30076
2026-01-04 22:27:52.71	344.33	12.83	-53.9	-59.8	3.7	0.00e+00	0	50	104	0	78	30032
2026-01-04 22:27:54.00	344.06	12.94	-53.6	-59.5	3.7	0.00e+00	0	50	104	0	78	28984
2026-01-04 22:27:54.72	343.91	13.00	-53.7	-59.5	3.7	0.00e+00	0	50	104	0	78	29034
2026-01-04 22:27:56.01	343.64	13.12	-54.0	-59.8	3.7	0.00e+00	0	50	104	0	78	29844
2026-01-04 22:27:56.72	343.49	13.18	-53.8	-59.8	3.7	0.00e+00	0	50	104	0	78	30067
2026-01-04 22:27:58.28	343.16	13.32	-53.6	-59.6	3.7	0.00e+00	0	50	104	0	78	29230
2026-01-04 22:27:58.99	343.00	13.38	-53.6	-59.6	3.7	0.00e+00	0	50	104	0	78	29255
2026-01-04 22:28:00.28	342.72	13.50	-52.9	-59.0	3.6	0.00e+00	0	50	104	0	77	28949
2026-01-04 22:28:01.00	342.57	13.56	-53.0	-59.0	3.7	0.00e+00	0	50	104	0	77	28983
2026-01-04 22:28:02.29	342.28	13.67	-53.8	-59.4	3.7	0.00e+00	0	50	104	0	78	28698
2026-01-04 22:28:03.00	342.12	13.74	-54.6	-60.0	3.7	0.00e+00	0	50	104	0	80	27235
2026-01-04 22:28:04.29	341.83	13.85	-54.7	-60.0	3.7	0.00e+00	0	50	104	0	80	27292
2026-01-04 22:28:05.01	341.67	13.91	-53.8	-59.4	3.7	0.00e+00	0	50	104	0	79	27054
2026-01-04 22:28:06.30	341.38	14.03	-54.7	-60.0	3.7	0.00e+00	0	50	104	0	80	27502
2026-01-04 22:28:07.01	341.22	14.09	-54.2	-59.7	3.7	0.00e+00	0	50	104	0	80	26315
2026-01-04 22:28:08.30	340.92	14.21	-54.9	-60.2	3.7	0.00e+00	0	50	104	0	80	28130
2026-01-04 22:28:09.02	340.75	14.27	-54.5	-60.1	3.7	0.00e+00	0	50	104	0	80	27675
2026-01-04 22:28:10.31	340.45	14.39	-52.6	-58.8	3.7	0.00e+00	0	50	104	0	77	28321
2026-01-04 22:28:11.23	340.23	14.47	-51.9	-58.2	3.7	0.00e+00	0	50	104	0	75	29704
2026-01-04 22:28:12.24	339.99	14.56	-51.9	-58.0	3.7	0.00e+00	0	50	104	0	75	28960
2026-01-04 22:28:13.24	339.75	14.65	-52.7	-58.6	3.7	0.00e+00	0	50	104	0	76	29324
2026-01-04 22:28:14.24	339.51	14.74	-53.2	-59.1	3.7	0.00e+00	0	50	104	0	77	29471
2026-01-04 22:28:15.25	339.27	14.83	-52.9	-58.9	3.7	0.00e+00	0	50	104	0	77	28530
2026-01-04 22:28:16.25	339.02	14.91	-53.4	-59.2	3.7	0.00e+00	0	50	104	0	77	29673
2026-01-04 22:28:17.25	338.78	15.00	-52.9	-58.7	3.7	0.00e+00	0	50	104	0	77	27976
2026-01-04 22:28:18.26	338.53	15.09	-53.5	-59.2	3.7	0.00e+00	0	50	104	0	77	29668
2026-01-04 22:28:19.26	338.28	15.18	-54.6	-59.9	3.7	0.00e+00	0	50	104	0	79	28669
2026-01-04 22:28:20.26	338.03	15.27	-55.3	-60.4	3.7	0.00e+00	0	50	104	0	81	27075
2026-01-04 22:28:21.27	337.77	15.36	-55.7	-60.9	3.7	0.00e+00	0	50	104	0	82	26898
2026-01-04 22:28:22.27	337.52	15.45	-55.8	-60.8	3.7	0.00e+00	0	50	104	0	82	26885
2026-01-04 22:28:23.27	337.26	15.54	-54.9	-60.0	3.7	0.00e+00	0	50	104	0	81	25733
2026-01-04 22:28:24.27	337.00	15.63	-54.9	-60.2	3.7	0.00e+00	0	50	104	0	81	26418
2026-01-04 22:28:25.28	336.74	15.72	-54.8	-60.0	3.7	0.00e+00	0	50	104	0	81	25825
2026-01-04 22:28:26.28	336.47	15.80	-55.2	-60.3	3.7	0.00e+00	0	50	104	0	80	28224
2026-01-04 22:28:27.28	336.21	15.89	-55.3	-60.4	3.7	0.00e+00	0	50	104	0	81	26965
2026-01-04 22:28:28.28	335.94	15.98	-55.4	-60.4	3.7	0.00e+00	0	50	104	0	81	27191
2026-01-04 22:28:29.28	335.67	16.07	-55.2	-60.3	3.7	0.00e+00	0	50	104	0	81	26778
2026-01-04 22:28:30.29	335.40	16.16	-54.8	-60.0	3.7	0.00e+00	0	50	104	0	81	25957
2026-01-04 22:28:31.29	335.13	16.24	-54.8	-60.0	3.7	0.00e+00	0	50	104	0	81	25857
2026-01-04 22:28:32.29	334.86	16.33	-53.5	-59.2	3.7	0.00e+00	0	50	104	0	78	27958
2026-01-04 22:28:33.29	334.58	16.42	-54.0	-59.5	3.7	0.00e+00	0	50	104	0	79	27289
2026-01-04 22:28:34.29	334.30	16.51	-53.7	-59.3	3.7	0.00e+00	0	50	104	0	78	28481
2026-01-04 22:28:35.30	334.02	16.59	-54.3	-59.9	3.7	0.00e+00	0	50	104	0	79	28566
2026-01-04 22:28:36.36	333.72	16.69	-54.7	-60.1	3.7	0.00e+00	0	50	104	0	80	27530
2026-01-04 22:28:37.24	333.47	16.76	-54.7	-60.1	3.7	0.00e+00	0	50	104	0	80	27541
2026-01-04 22:28:38.38	333.14	16.86	-54.4	-59.8	3.7	0.00e+00	0	50	104	0	80	26720
2026-01-04 22:28:39.24	332.90	16.93	-54.2	-59.6	3.7	0.00e+00	0	50	104	0	80	26249
2026-01-04 22:28:40.39	332.56	17.03	-54.0	-59.5	3.7	0.00e+00	0	50	104	0	79	27421
2026-01-04 22:28:41.25	332.31	17.11	-54.9	-60.0	3.7	0.00e+00	0	50	104	0	80	27295
2026-01-04 22:28:42.39	331.98	17.20	-55.5	-60.5	3.7	0.00e+00	0	50	104	0	81	27328
2026-01-04 22:28:43.25	331.73	17.28	-56.0	-60.8	3.7	0.00e+00	0	50	104	0	82	26780
2026-01-04 22:28:44.40	331.38	17.37	-56.1	-60.7	3.7	0.00e+00	0	50	104	0	82	26527
2026-01-04 22:28:45.26	331.13	17.45	-56.1	-60.8	3.7	0.00e+00	0	50	104	0	82	26696
2026-01-04 22:28:46.41	330.78	17.54	-56.1	-60.8	3.7	0.00e+00	0	50	104	0	82	26783
2026-01-04 22:28:47.27	330.52	17.61	-55.7	-60.5	3.7	0.00e+00	0	50	104	0	82	25975
2026-01-04 22:28:48.43	330.16	17.71	-55.9	-60.7	3.7	0.00e+00	0	50	104	0	82	26328
2026-01-04 22:28:49.29	329.90	17.78	-54.2	-59.7	3.7	0.00e+00	0	50	104	0	79	28133
2026-01-04 22:28:50.44	329.54	17.88	-53.9	-59.5	3.7	0.00e+00	0	50	104	0	79	27491
2026-01-04 22:28:51.30	329.28	17.95	-53.3	-59.1	3.7	0.00e+00	0	50	104	0	78	27823
2026-01-04 22:28:52.44	328.92	18.04	-53.5	-59.3	3.7	0.00e+00	0	50	104	0	78	28168
2026-01-04 22:28:53.30	328.65	18.11	-53.6	-59.3	3.7	0.00e+00	0	50	104	0	78	28480
2026-01-04 22:28:54.64	328.22	18.22	-54.1	-59.4	3.7	0.00e+00	0	50	104	0	78	28803
2026-01-04 22:28:55.36	327.99	18.28	-54.3	-59.6	3.7	0.00e+00	0	50	104	0	79	27524
2026-01-04 22:28:56.85	327.51	18.39	-53.9	-59.3	3.7	0.00e+00	0	50	104	0	79	26689
2026-01-04 22:28:57.57	327.28	18.45	-54.4	-59.4	3.7	0.00e+00	0	50	104	0	79	27108
2026-01-04 22:28:58.86	326.86	18.55	-54.2	-59.3	3.7	0.00e+00	0	50	104	0	80	25328
2026-01-04 22:28:59.58	326.62	18.61	-54.8	-59.8	3.7	0.00e+00	0	50	104	0	80	26668
2026-01-04 22:29:00.87	326.20	18.71	-55.7	-60.4	3.7	0.00e+00	0	50	104	0	81	27039
2026-01-04 22:29:01.59	325.96	18.76	-56.0	-60.6	3.7	0.00e+00	0	50	104	0	82	26113
2026-01-04 22:29:02.88	325.53	18.86	-55.8	-60.4	3.7	0.00e+00	0	50	104	0	82	25584
2026-01-04 22:29:03.59	325.29	18.92	-55.5	-60.2	3.7	0.00e+00	0	50	104	0	82	25051
2026-01-04 22:29:04.88	324.85	19.01	-54.5	-59.8	3.7	0.00e+00	0	50	104	0	81	25248
2026-01-04 22:29:05.59	324.61	19.07	-54.4	-59.5	3.7	0.00e+00	0	50	104	0	80	25858
2026-01-04 22:29:06.89	324.17	19.16	-55.8	-60.6	3.7	0.00e+00	0	50	104	0	82	26041
2026-01-04 22:29:07.66	323.90	19.22	-55.4	-60.2	3.7	0.00e+00	0	50	104	0	82	25026
2026-01-04 22:29:08.95	323.45	19.31	-55.7	-60.4	3.7	0.00e+00	0	50	104	0	82	25457
2026-01-04 22:29:09.67	323.20	19.36	-55.9	-60.7	3.7	0.00e+00	0	50	104	0	82	26562
2026-01-04 22:29:10.96	322.75	19.46	-55.9	-60.7	3.7	0.00e+00	0	50	104	0	82	26550
2026-01-04 22:29:11.69	322.50	19.51	-55.9	-60.8	3.7	0.00e+00	0	50	104	0	82	26604
2026-01-04 22:29:12.98	322.04	19.60	-55.9	-60.7	3.7	0.00e+00	0	50	104	0	82	26545
2026-01-04 22:29:13.70	321.78	19.65	-55.9	-60.7	3.7	0.00e+00	0	50	104	0	82	26557
2026-01-04 22:29:14.99	321.32	19.73	-55.9	-60.7	3.7	0.00e+00	0	50	104	0	82	26507
2026-01-04 22:29:15.70	321.07	19.78	-55.9	-60.7	3.7	0.00e+00	0	51	104	0	82	26551
2026-01-04 22:29:17.00	320.60	19.87	-55.9	-60.7	3.7	0.00e+00	0	50	104	0	82	26564
2026-01-04 22:29:17.71	320.34	19.92	-55.9	-60.7	3.7	0.00e+00	0	50	104	0	82	26577
2026-01-04 22:29:19.00	319.87	20.00	-55.9	-60.7	3.7	0.00e+00	0	51	104	0	82	26570
2026-01-04 22:29:19.72	319.61	20.04	-55.9	-60.7	3.7	0.00e+00	0	50	104	0	82	26567
2026-01-04 22:29:21.01	319.13	20.13	-55.9	-60.7	3.7	0.00e+00	0	50	104	0	82	26568
2026-01-04 22:29:21.73	318.87	20.17	-55.9	-60.7	3.7	0.00e+00	0	50	104	0	82	26580
2026-01-04 22:29:23.02	318.39	20.25	-55.9	-60.8	3.7	0.00e+00	0	51	104	0	82	26638
2026-01-04 22:29:23.74	318.12	20.29	-55.9	-60.7	3.7	0.00e+00	0	51	104	0	82	26520
2026-01-04 22:29:25.03	317.63	20.37	-55.9	-60.7	3.7	0.00e+00	0	50	104	0	82	26495
2026-01-04 22:29:25.74	317.37	20.41	-55.9	-60.7	3.7	0.00e+00	0	51	104	0	82	26442
2026-01-04 22:29:27.03	316.88	20.48	-55.9	-60.7	3.7	0.00e+00	0	51	104	0	82	26524
2026-01-04 22:29:27.75	316.60	20.52	-55.9	-60.7	3.7	0.00e+00	0	50	104	0	82	26524
2026-01-04 22:29:29.04	316.11	20.60	-55.9	-60.7	3.7	0.00e+00	0	50	104	0	82	26573
2026-01-04 22:29:29.76	315.84	20.63	-55.9	-60.7	3.7	0.00e+00	0	50	104	0	82	26554
2026-01-04 22:29:31.05	315.34	20.70	-55.9	-60.7	3.7	0.00e+00	0	50	104	0	82	26539
2026-01-04 22:29:31.77	315.06	20.74	-55.9	-60.8	3.7	0.00e+00	0	50	104	0	82	26601
2026-01-04 22:29:33.06	314.56	20.81	-55.9	-60.7	3.7	0.00e+00	0	50	104	0	82	26524
2026-01-04 22:29:33.78	314.28	20.84	-55.9	-60.7	3.7	0.00e+00	0	50	104	0	82	26516
2026-01-04 22:29:35.07	313.78	20.91	-55.9	-60.7	3.7	0.00e+00	0	51	104	0	82	26538
2026-01-04 22:29:35.78	313.50	20.94	-55.9	-60.7	3.7	0.00e+00	0	50	104	0	82	26484
2026-01-04 22:29:37.07	312.99	21.00	-55.9	-60.7	3.7	0.00e+00	0	50	104	0	82	26548
2026-01-04 22:29:37.79	312.71	21.03	-55.9	-60.7	3.7	0.00e+00	0	50	104	0	82	26490
2026-01-04 22:29:39.08	312.19	21.09	-55.9	-60.7	3.7	0.00e+00	0	50	104	0	82	26377
2026-01-04 22:29:39.80	311.91	21.12	-55.9	-60.7	3.7	0.00e+00	0	51	104	0	82	26467
2026-01-04 22:29:41.09	311.39	21.17	-55.9	-60.7	3.7	0.00e+00	0	50	104	0	82	26510
2026-01-04 22:29:41.81	311.11	21.20	-55.9	-60.7	3.7	0.00e+00	0	51	104	0	82	26493
2026-01-04 22:29:43.10	310.59	21.25	-55.8	-60.7	3.7	0.00e+00	0	51	104	0	82	26361
2026-01-04 22:29:43.82	310.30	21.28	-55.7	-60.7	3.7	0.00e+00	0	51	104	0	82	26407
2026-01-04 22:29:45.11	309.78	21.33	-55.5	-60.7	3.7	0.00e+00	0	50	104	0	82	26369
2026-01-04 22:29:45.82	309.49	21.35	-55.5	-60.7	3.7	0.00e+00	0	51	104	0	82	26455
2026-01-04 22:29:47.12	308.96	21.40	-55.6	-60.7	3.7	0.00e+00	0	51	104	0	82	26377
2026-01-04 22:29:47.83	308.67	21.42	-55.7	-60.7	3.7	0.00e+00	0	51	104	0	82	26447
2026-01-04 22:29:49.12	308.15	21.46	-55.9	-60.7	3.7	0.00e+00	0	50	104	0	82	26475
2026-01-04 22:29:49.84	307.85	21.48	-55.8	-60.7	3.7	0.00e+00	0	50	104	0	82	26458
2026-01-04 22:29:51.13	307.32	21.52	-55.9	-60.7	3.7	0.00e+00	0	51	104	0	82	26417
2026-01-04 22:29:51.85	307.03	21.54	-55.9	-60.7	3.7	0.00e+00	0	51	104	0	82	26476
2026-01-04 22:29:53.14	306.50	21.57	-55.9	-60.7	3.7	0.00e+00	0	51	104	0	82	26523
2026-01-04 22:29:53.86	306.20	21.59	-55.9	-60.7	3.7	0.00e+00	0	51	104	0	82	26488
2026-01-04 22:29:55.15	305.67	21.62	-55.9	-60.7	3.7	0.00e+00	0	51	104	0	82	26446
2026-01-04 22:29:55.87	305.37	21.63	-55.9	-60.7	3.7	0.00e+00	0	51	104	0	82	26564
2026-01-04 22:29:57.16	304.84	21.66	-55.9	-60.7	3.7	0.00e+00	0	51	104	0	82	26432
2026-01-04 22:29:57.87	304.54	21.67	-55.9	-60.7	3.7	0.00e+00	0	51	104	0	82	26362
2026-01-04 22:29:59.17	304.00	21.70	-55.9	-60.7	3.7	0.00e+00	0	50	104	0	82	26433
2026-01-04 22:29:59.88	303.71	21.71	-55.9	-60.7	3.7	0.00e+00	0	51	104	0	82	26482
2026-01-04 22:30:01.18	303.17	21.73	-55.9	-60.7	3.7	0.00e+00	0	50	104	0	82	26453
2026-01-04 22:30:01.89	302.87	21.74	-55.9	-60.7	3.7	0.00e+00	0	51	104	0	82	26442
2026-01-04 22:30:03.18	302.33	21.75	-55.9	-60.7	3.7	0.00e+00	0	50	104	0	82	26528
2026-01-04 22:30:03.90	302.03	21.76	-55.9	-60.7	3.7	0.00e+00	0	51	104	0	82	26445
2026-01-04 22:30:05.19	301.49	21.77	-55.9	-60.7	3.7	0.00e+00	0	50	104	0	82	26463
2026-01-04 22:30:05.91	301.19	21.78	-55.9	-60.7	3.7	0.00e+00	0	51	104	0	82	26448
2026-01-04 22:30:07.20	300.65	21.78	-55.9	-60.7	3.7	0.00e+00	0	50	104	0	82	26446
2026-01-04 22:30:07.92	300.35	21.79	-55.9	-60.7	3.7	0.00e+00	0	51	104	0	82	26499
2026-01-04 22:30:09.21	299.81	21.79	-55.9	-60.7	3.7	0.00e+00	0	51	104	0	82	26493
2026-01-04 22:30:09.93	299.51	21.79	-55.9	-60.7	3.7	0.00e+00	0	50	104	0	82	26463
2026-01-04 22:30:11.22	298.97	21.79	-55.9	-60.7	3.7	0.00e+00	0	50	104	0	82	26490
2026-01-04 22:30:11.93	298.67	21.79	-55.9	-60.7	3.7	0.00e+00	0	51	104	0	82	26484
2026-01-04 22:30:13.23	298.12	21.79	-55.9	-60.7	3.7	0.00e+00	0	51	104	0	82	26475
2026-01-04 22:30:13.94	297.83	21.79	-55.9	-60.7	3.7	0.00e+00	0	51	104	0	82	26404
2026-01-04 22:30:15.23	297.29	21.78	-55.9	-60.7	3.7	0.00e+00	0	50	104	0	82	26466
2026-01-04 22:30:15.95	296.99	21.77	-55.9	-60.7	3.7	0.00e+00	0	51	104	0	82	26436
2026-01-04 22:30:17.24	296.45	21.76	-55.9	-60.7	3.7	0.00e+00	0	51	104	0	82	26490
2026-01-04 22:30:17.96	296.14	21.76	-55.9	-60.7	3.7	0.00e+00	0	51	104	0	82	26491
2026-01-04 22:30:19.25	295.61	21.74	-55.9	-60.7	3.7	0.00e+00	0	50	104	0	82	26480
2026-01-04 22:30:19.97	295.31	21.73	-55.9	-60.7	3.7	0.00e+00	0	51	104	0	82	26409
2026-01-04 22:30:21.26	294.77	21.71	-55.9	-60.7	3.7	0.00e+00	0	51	104	0	82	26453
2026-01-04 22:30:21.98	294.47	21.70	-55.9	-60.7	3.7	0.00e+00	0	51	104	0	82	26442
2026-01-04 22:30:23.27	293.93	21.68	-55.9	-60.7	3.7	0.00e+00	0	51	104	0	82	26461
2026-01-04 22:30:23.99	293.63	21.67	-55.9	-60.7	3.7	0.00e+00	0	50	104	0	82	26401
2026-01-04 22:30:25.28	293.10	21.64	-55.8	-60.7	3.7	0.00e+00	0	51	104	0	82	26357
2026-01-04 22:30:26.00	292.80	21.62	-55.8	-60.7	3.7	0.00e+00	0	51	104	0	82	26332
2026-01-04 22:30:27.29	292.26	21.59	-55.9	-60.7	3.7	0.00e+00	0	50	104	0	82	26378
2026-01-04 22:30:28.00	291.97	21.58	-55.9	-60.7	3.7	0.00e+00	0	51	104	0	82	26455
2026-01-04 22:30:29.29	291.44	21.54	-55.9	-60.7	3.7	0.00e+00	0	51	104	0	82	26366
2026-01-04 22:30:30.01	291.14	21.53	-55.9	-60.7	3.7	0.00e+00	0	51	104	0	82	26402
2026-01-04 22:30:31.30	290.61	21.49	-55.9	-60.7	3.7	0.00e+00	0	51	104	0	82	26391
2026-01-04 22:30:32.02	290.32	21.47	-55.9	-60.7	3.7	0.00e+00	0	51	104	0	82	26378
2026-01-04 22:30:33.31	289.79	21.43	-55.9	-60.7	3.7	0.00e+00	0	51	104	0	82	26383
2026-01-04 22:30:34.02	289.50	21.40	-55.9	-60.7	3.7	0.00e+00	0	51	104	0	82	26385
2026-01-04 22:30:35.32	288.97	21.36	-55.9	-60.7	3.7	0.00e+00	0	51	104	0	82	26371
2026-01-04 22:30:36.03	288.68	21.34	-55.9	-60.7	3.7	0.00e+00	0	51	104	0	82	26377
2026-01-04 22:30:37.32	288.16	21.29	-55.9	-60.7	3.7	0.00e+00	0	51	104	0	82	26368
2026-01-04 22:30:38.04	287.87	21.26	-55.9	-60.7	3.7	0.00e+00	0	51	104	0	82	26410
2026-01-04 22:30:39.33	287.35	21.21	-55.9	-60.7	3.7	0.00e+00	0	51	104	0	82	26437
2026-01-04 22:30:40.05	287.06	21.18	-55.9	-60.7	3.7	0.00e+00	0	51	104	0	82	26392
2026-01-04 22:30:41.34	286.55	21.13	-55.9	-60.7	3.7	0.00e+00	0	51	104	0	82	26473
2026-01-04 22:30:42.06	286.26	21.10	-55.9	-60.7	3.7	0.00e+00	0	51	104	0	82	26423
2026-01-04 22:30:43.35	285.75	21.04	-55.9	-60.7	3.7	0.00e+00	0	51	104	0	82	26366
2026-01-04 22:30:44.07	285.46	21.01	-55.9	-60.7	3.7	0.00e+00	0	51	104	0	82	26367
2026-01-04 22:30:45.36	284.95	20.95	-55.9	-60.7	3.7	0.00e+00	0	51	104	0	82	26395
2026-01-04 22:30:46.08	284.67	20.92	-55.9	-60.7	3.7	0.00e+00	0	51	104	0	82	26362
2026-01-04 22:30:47.37	284.16	20.85	-55.9	-60.7	3.7	0.00e+00	0	51	104	0	82	26435
2026-01-04 22:30:48.08	283.88	20.82	-55.9	-60.7	3.7	0.00e+00	0	51	104	0	82	26392
2026-01-04 22:30:49.38	283.38	20.75	-55.9	-60.7	3.7	0.00e+00	0	51	104	0	82	26387
2026-01-04 22:30:50.09	283.10	20.72	-55.9	-60.7	3.7	0.00e+00	0	51	104	0	82	26434
2026-01-04 22:30:51.38	282.60	20.65	-55.9	-60.7	3.7	0.00e+00	0	51	104	0	82	26395
2026-01-04 22:30:52.10	282.33	20.61	-55.9	-60.7	3.7	0.00e+00	0	51	104	0	82	26357
2026-01-04 22:30:53.39	281.83	20.54	-55.9	-60.7	3.7	0.00e+00	0	51	104	0	82	26458
2026-01-04 22:30:54.11	281.56	20.50	-55.9	-60.7	3.7	0.00e+00	0	51	104	0	82	26421
2026-01-04 22:30:55.40	281.07	20.42	-55.9	-60.7	3.7	0.00e+00	0	51	104	0	82	26346
2026-01-04 22:30:56.12	280.79	20.38	-55.9	-60.7	3.7	0.00e+00	0	51	104	0	82	26313
2026-01-04 22:30:57.41	280.31	20.30	-55.9	-60.7	3.7	0.00e+00	0	51	104	0	82	26503
2026-01-04 22:30:58.13	280.04	20.26	-55.9	-60.7	3.7	0.00e+00	0	50	104	0	82	26396
2026-01-04 22:30:59.42	279.56	20.18	-55.8	-60.7	3.7	0.00e+00	0	51	104	0	82	26293
2026-01-04 22:31:00.13	279.29	20.14	-55.9	-60.7	3.7	0.00e+00	0	51	104	0	82	26504
2026-01-04 22:31:01.43	278.81	20.06	-55.8	-60.7	3.7	0.00e+00	0	51	104	0	82	26356
2026-01-04 22:31:02.14	278.55	20.01	-55.9	-60.7	3.7	0.00e+00	0	51	104	0	82	26435
2026-01-04 22:31:03.43	278.08	19.93	-55.9	-60.7	3.7	0.00e+00	0	51	104	0	82	26423
2026-01-04 22:31:04.15	277.81	19.88	-55.9	-60.7	3.7	0.00e+00	0	51	104	0	82	26361
2026-01-04 22:31:05.44	277.35	19.79	-55.8	-60.7	3.7	0.00e+00	0	51	104	0	82	26422
2026-01-04 22:31:06.16	277.09	19.75	-55.8	-60.7	3.7	0.00e+00	0	51	104	0	82	26337
2026-01-04 22:31:07.45	276.62	19.66	-55.8	-60.7	3.7	0.00e+00	0	51	104	0	82	26357
2026-01-04 22:31:08.17	276.37	19.61	-55.8	-60.7	3.7	0.00e+00	0	51	104	0	82	26380
2026-01-04 22:31:09.46	275.91	19.52	-55.8	-60.7	3.7	0.00e+00	0	51	104	0	82	26387
2026-01-04 22:31:10.17	275.66	19.47	-55.8	-60.7	3.7	0.00e+00	0	51	104	0	82	26321
2026-01-04 22:31:11.47	275.20	19.38	-55.8	-60.7	3.7	0.00e+00	0	51	104	0	82	26361
2026-01-04 22:31:12.18	274.95	19.32	-55.9	-60.7	3.7	0.00e+00	0	51	104	0	82	26435
2026-01-04 22:31:13.47	274.50	19.23	-55.9	-60.7	3.7	0.00e+00	0	51	104	0	82	26420
2026-01-04 22:31:14.19	274.25	19.18	-55.9	-60.7	3.7	0.00e+00	0	51	104	0	82	26360
2026-01-04 22:31:15.48	273.81	19.08	-55.8	-60.7	3.7	0.00e+00	0	51	104	0	82	26349
2026-01-04 22:31:16.20	273.56	19.03	-55.8	-60.7	3.7	0.00e+00	0	51	104	0	82	26351
2026-01-04 22:31:17.49	273.12	18.93	-55.8	-60.7	3.7	0.00e+00	0	51	104	0	82	26370
2026-01-04 22:31:18.21	272.88	18.88	-55.8	-60.7	3.7	0.00e+00	0	51	104	0	82	26395
2026-01-04 22:31:19.50	272.45	18.78	-55.9	-60.7	3.7	0.00e+00	0	50	104	0	82	26430
2026-01-04 22:31:20.22	272.21	18.72	-55.9	-60.7	3.7	0.00e+00	0	51	104	0	82	26386
2026-01-04 22:31:21.51	271.78	18.62	-55.9	-60.7	3.7	0.00e+00	0	51	104	0	82	26398
2026-01-04 22:31:22.22	271.54	18.57	-55.9	-60.7	3.7	0.00e+00	0	50	104	0	82	26463
2026-01-04 22:31:23.52	271.12	18.46	-55.9	-60.7	3.7	0.00e+00	0	51	104	0	82	26461
2026-01-04 22:31:24.23	270.88	18.41	-55.9	-60.7	3.7	0.00e+00	0	51	104	0	82	26482
2026-01-04 22:31:25.53	270.46	18.30	-55.9	-60.7	3.7	0.00e+00	0	51	104	0	82	26409
2026-01-04 22:31:26.24	270.23	18.25	-55.9	-60.7	3.7	0.00e+00	0	51	104	0	82	26464
2026-01-04 22:31:27.53	269.82	18.14	-55.9	-60.7	3.7	0.00e+00	0	51	104	0	82	26409
2026-01-04 22:31:28.25	269.59	18.08	-55.9	-60.7	3.7	0.00e+00	0	50	104	0	82	26344
2026-01-04 22:31:29.54	269.18	17.98	-55.8	-60.7	3.7	0.00e+00	0	51	104	0	82	26444
2026-01-04 22:31:30.26	268.96	17.92	-55.8	-60.7	3.6	0.00e+00	0	51	104	0	82	26328
2026-01-04 22:31:31.55	268.55	17.81	-55.8	-60.7	3.7	0.00e+00	0	51	104	0	82	26360
2026-01-04 22:31:32.27	268.33	17.75	-55.8	-60.7	3.7	0.00e+00	0	51	104	0	82	26446
2026-01-04 22:31:33.56	267.93	17.64	-55.8	-60.7	3.7	0.00e+00	0	51	104	0	82	26316
2026-01-04 22:31:34.28	267.71	17.58	-55.8	-60.7	3.7	0.00e+00	0	51	104	0	82	26397
2026-01-04 22:31:35.57	267.32	17.48	-55.8	-60.7	3.7	0.00e+00	0	51	104	0	82	26361
2026-01-04 22:31:36.29	267.10	17.41	-55.8	-60.7	3.7	0.00e+00	0	51	104	0	82	26352
2026-01-04 22:31:37.58	266.71	17.31	-55.8	-60.7	3.7	0.00e+00	0	51	104	0	82	26344
2026-01-04 22:31:38.30	266.50	17.24	-55.8	-60.7	3.7	0.00e+00	0	51	104	0	82	26395
2026-01-04 22:31:39.59	266.12	17.13	-55.8	-60.7	3.7	0.00e+00	0	51	104	0	82	26333
2026-01-04 22:31:40.30	265.91	17.07	-55.8	-60.7	3.7	0.00e+00	0	51	104	0	82	26356
2026-01-04 22:31:41.60	265.53	16.96	-55.8	-60.7	3.7	0.00e+00	0	51	104	0	82	26347
2026-01-04 22:31:42.31	265.32	16.90	-55.8	-60.7	3.7	0.00e+00	0	51	104	0	82	26371
2026-01-04 22:31:43.60	264.95	16.79	-55.8	-60.7	3.7	0.00e+00	0	51	104	0	82	26326
2026-01-04 22:31:44.32	264.74	16.73	-55.8	-60.7	3.7	0.00e+00	0	51	104	0	82	26376
2026-01-04 22:31:45.61	264.37	16.61	-55.8	-60.7	3.7	0.00e+00	0	51	104	0	82	26299
2026-01-04 22:31:46.33	264.17	16.55	-55.8	-60.7	3.7	0.00e+00	0	51	104	0	82	26318
2026-01-04 22:31:47.62	263.81	16.44	-55.8	-60.7	3.7	0.00e+00	0	51	104	0	82	26364
2026-01-04 22:31:48.34	263.61	16.37	-55.8	-60.7	3.7	0.00e+00	0	51	104	0	82	26440
2026-01-04 22:31:49.63	263.25	16.26	-55.8	-60.7	3.7	0.00e+00	0	51	104	0	82	26348
2026-01-04 22:31:50.35	263.05	16.20	-55.8	-60.7	3.7	0.00e+00	0	51	104	0	82	26368
2026-01-04 22:31:51.64	262.70	16.08	-55.8	-60.7	3.7	0.00e+00	0	51	104	0	82	26335
2026-01-04 22:31:52.35	262.51	16.02	-55.8	-60.6	3.7	0.00e+00	0	51	104	0	82	26266
2026-01-04 22:31:53.65	262.16	15.91	-55.8	-60.7	3.7	0.00e+00	0	51	104	0	82	26334
2026-01-04 22:31:54.36	261.97	15.84	-55.8	-60.7	3.7	0.00e+00	0	51	104	0	82	26289
2026-01-04 22:31:55.66	261.62	15.73	-55.8	-60.7	3.7	0.00e+00	0	51	104	0	82	26375
2026-01-04 22:31:56.37	261.44	15.66	-55.8	-60.7	3.7	0.00e+00	0	51	104	0	82	26371
2026-01-04 22:31:57.66	261.10	15.55	-55.8	-60.7	3.7	0.00e+00	0	51	104	0	82	26346
2026-01-04 22:31:58.38	260.91	15.49	-55.8	-60.7	3.7	0.00e+00	0	51	104	0	82	26285
2026-01-04 22:31:59.67	260.58	15.37	-55.8	-60.7	3.7	0.00e+00	0	51	104	0	82	26319
2026-01-04 22:32:00.39	260.39	15.31	-55.8	-60.7	3.7	0.00e+00	0	51	104	0	82	26306
2026-01-04 22:32:01.68	260.07	15.19	-55.8	-60.7	3.7	0.00e+00	0	51	104	0	82	26299
2026-01-04 22:32:02.40	259.88	15.13	-55.8	-60.7	3.7	0.00e+00	0	51	104	0	82	26339
2026-01-04 22:32:03.69	259.56	15.01	-55.8	-60.7	3.7	0.00e+00	0	51	104	0	82	26409
2026-01-04 22:32:04.41	259.38	14.95	-55.8	-60.7	3.7	0.00e+00	0	51	104	0	82	26338
2026-01-04 22:32:05.70	259.06	14.83	-55.8	-60.7	3.7	0.00e+00	0	51	104	0	82	26324
2026-01-04 22:32:06.42	258.89	14.77	-55.8	-60.7	3.7	0.00e+00	0	51	104	0	82	26331
2026-01-04 22:32:07.71	258.57	14.65	-55.8	-60.6	3.7	0.00e+00	0	51	104	0	82	26267
2026-01-04 22:32:08.43	258.40	14.59	-55.8	-60.6	3.7	0.00e+00	0	51	104	0	82	26252
2026-01-04 22:32:09.72	258.09	14.47	-55.8	-60.7	3.7	0.00e+00	0	51	104	0	82	26299
2026-01-04 22:32:10.43	257.92	14.41	-55.8	-60.7	3.7	0.00e+00	0	51	104	0	82	26375
2026-01-04 22:32:11.73	257.61	14.29	-55.8	-60.7	3.7	0.00e+00	0	51	104	0	82	26349
2026-01-04 22:32:12.44	257.44	14.23	-55.8	-60.7	3.7	0.00e+00	0	51	104	0	82	26361
2026-01-04 22:32:13.73	257.14	14.11	-55.8	-60.7	3.7	0.00e+00	0	51	104	0	82	26326
2026-01-04 22:32:14.45	256.98	14.05	-55.8	-60.7	3.7	0.00e+00	0	51	104	0	82	26374
2026-01-04 22:32:15.74	256.68	13.93	-55.8	-60.7	3.7	0.00e+00	0	51	104	0	82	26347
2026-01-04 22:32:16.46	256.52	13.87	-55.8	-60.7	3.7	0.00e+00	0	51	104	0	82	26282
2026-01-04 22:32:17.75	256.22	13.75	-55.8	-60.7	3.7	0.00e+00	0	51	104	0	82	26358
2026-01-04 22:32:18.47	256.06	13.69	-55.8	-60.7	3.7	0.00e+00	0	51	104	0	82	26460
2026-01-04 22:32:19.76	255.77	13.57	-55.8	-60.7	3.7	0.00e+00	0	51	104	0	82	26357
2026-01-04 22:32:20.48	255.61	13.51	-55.8	-60.7	3.7	0.00e+00	0	51	104	0	82	26431
2026-01-04 22:32:21.76	255.33	13.40	-55.8	-60.7	3.7	0.00e+00	0	51	104	0	82	26334
2026-01-04 22:32:22.48	255.18	13.33	-55.8	-60.7	3.7	0.00e+00	0	51	104	0	82	26483
2026-01-04 22:32:23.78	254.89	13.22	-55.8	-60.7	3.7	0.00e+00	0	51	104	0	82	26364
2026-01-04 22:32:24.49	254.74	13.15	-55.9	-60.7	3.7	0.00e+00	0	51	104	0	82	26396
2026-01-04 22:32:25.78	254.47	13.04	-55.8	-60.7	3.7	0.00e+00	0	51	104	0	82	26352
2026-01-04 22:32:26.50	254.31	12.98	-55.8	-60.7	3.7	0.00e+00	0	51	104	0	82	26384
2026-01-04 22:32:27.79	254.04	12.86	-55.8	-60.7	3.7	0.00e+00	0	51	104	0	82	26360
2026-01-04 22:32:28.51	253.89	12.80	-55.8	-60.7	3.7	0.00e+00	0	51	104	0	82	26349
2026-01-04 22:32:29.80	253.62	12.68	-55.8	-60.7	3.7	0.00e+00	0	51	104	0	82	26402
2026-01-04 22:32:30.52	253.48	12.62	-55.8	-60.7	3.7	0.00e+00	0	51	104	0	82	26393
2026-01-04 22:32:31.81	253.21	12.51	-55.8	-60.7	3.7	0.00e+00	0	51	104	0	82	26426
2026-01-04 22:32:32.53	253.07	12.44	-55.8	-60.7	3.7	0.00e+00	0	51	104	0	82	26314
2026-01-04 22:32:33.82	252.81	12.33	-55.8	-60.7	3.7	0.00e+00	0	51	104	0	82	26341
2026-01-04 22:32:34.53	252.66	12.27	-55.9	-60.6	3.7	0.00e+00	0	51	104	0	82	26228
2026-01-04 22:32:35.82	252.41	12.15	-55.9	-60.7	3.7	0.00e+00	0	51	104	0	82	26410
2026-01-04 22:32:36.54	252.27	12.09	-55.8	-60.7	3.7	0.00e+00	0	51	104	0	82	26375
2026-01-04 22:32:37.83	252.01	11.98	-55.8	-60.7	3.7	0.00e+00	0	51	104	0	82	26393
2026-01-04 22:32:38.55	251.87	11.92	-55.9	-60.7	3.7	0.00e+00	0	51	104	0	82	26432
2026-01-04 22:32:39.84	251.63	11.80	-55.9	-60.7	3.7	0.00e+00	0	51	104	0	82	26337
2026-01-04 22:32:40.56	251.49	11.74	-55.8	-60.7	3.7	0.00e+00	0	51	104	0	82	26400
2026-01-04 22:32:41.85	251.24	11.63	-55.8	-60.7	3.7	0.00e+00	0	51	104	0	82	26452
2026-01-04 22:32:42.56	251.11	11.57	-55.8	-60.7	3.7	0.00e+00	0	51	104	0	82	26379
2026-01-04 22:32:43.86	250.87	11.46	-55.9	-60.7	3.7	0.00e+00	0	51	104	0	82	26385
2026-01-04 22:32:44.57	250.73	11.39	-55.8	-60.7	3.7	0.00e+00	0	51	104	0	82	26340
2026-01-04 22:32:45.86	250.50	11.28	-55.8	-60.7	3.7	0.00e+00	0	51	104	0	82	26468
2026-01-04 22:32:46.58	250.36	11.22	-55.8	-60.7	3.7	0.00e+00	0	51	104	0	82	26399
2026-01-04 22:32:47.87	250.13	11.11	-55.8	-60.7	3.7	0.00e+00	0	51	104	0	82	26349
2026-01-04 22:32:48.59	250.00	11.05	-55.9	-60.7	3.7	0.00e+00	0	51	104	0	82	26401
2026-01-04 22:32:49.88	249.77	10.94	-55.9	-60.7	3.7	0.00e+00	0	51	104	0	82	26386
2026-01-04 22:32:50.60	249.64	10.88	-55.9	-60.7	3.7	0.00e+00	0	51	104	0	82	26360
2026-01-04 22:32:51.89	249.41	10.77	-55.8	-60.7	3.7	0.00e+00	0	51	104	0	82	26343
2026-01-04 22:32:52.61	249.29	10.71	-55.9	-60.7	3.7	0.00e+00	0	51	104	0	82	26326
2026-01-04 22:32:53.90	249.06	10.60	-55.9	-60.7	3.7	0.00e+00	0	51	104	0	82	26458
2026-01-04 22:32:54.62	248.94	10.54	-55.9	-60.7	3.7	0.00e+00	0	51	104	0	82	26398
2026-01-04 22:32:55.91	248.72	10.43	-55.9	-60.7	3.7	0.00e+00	0	51	104	0	82	26476
2026-01-04 22:32:56.63	248.59	10.37	-55.9	-60.7	3.7	0.00e+00	0	51	104	0	82	26431
2026-01-04 22:32:57.92	248.38	10.26	-55.9	-60.7	3.7	0.00e+00	0	51	104	0	82	26384
2026-01-04 22:32:58.63	248.26	10.20	-55.9	-60.7	3.7	0.00e+00	0	51	104	0	82	26484
2026-01-04 22:32:59.93	248.04	10.09	-55.9	-60.7	3.7	0.00e+00	0	51	104	0	82	26531
2026-01-04 22:33:00.64	247.92	10.03	-55.9	-60.7	3.7	0.00e+00	0	51	104	0	82	26493
2026-01-04 22:33:01.94	247.71	9.92	-55.9	-60.7	3.7	0.00e+00	0	51	104	0	82	26508
2026-01-04 22:33:02.65	247.59	9.86	-55.9	-60.7	3.7	0.00e+00	0	51	104	0	82	26460
2026-01-04 22:33:03.94	247.38	9.76	-55.8	-60.7	3.7	0.00e+00	0	51	104	0	82	26346
2026-01-04 22:33:04.66	247.27	9.70	-55.9	-60.7	3.7	0.00e+00	0	51	104	0	82	26348
2026-01-04 22:33:05.95	247.06	9.59	-55.9	-60.7	3.7	0.00e+00	0	51	104	0	82	26377
2026-01-04 22:33:06.67	246.95	9.53	-55.9	-60.7	3.7	0.00e+00	0	51	104	0	82	26397
2026-01-04 22:33:07.96	246.75	9.43	-55.8	-60.7	3.7	0.00e+00	0	51	104	0	82	26422
2026-01-04 22:33:08.68	246.63	9.37	-55.9	-60.7	3.7	0.00e+00	0	51	104	0	82	26396
2026-01-04 22:33:09.97	246.43	9.26	-55.9	-60.7	3.7	0.00e+00	0	51	104	0	82	26339
2026-01-04 22:33:10.69	246.32	9.20	-55.8	-60.7	3.7	0.00e+00	0	51	104	0	82	26384
2026-01-04 22:33:11.98	246.12	9.10	-55.9	-60.7	3.7	0.00e+00	0	51	104	0	82	26354
2026-01-04 22:33:12.70	246.02	9.04	-55.8	-60.7	3.7	0.00e+00	0	51	104	0	82	26439
2026-01-04 22:33:13.99	245.82	8.93	-55.9	-60.7	3.7	0.00e+00	0	51	104	0	82	26327
2026-01-04 22:33:14.71	245.71	8.88	-55.9	-60.7	3.7	0.00e+00	0	51	104	0	82	26293
2026-01-04 22:33:16.00	245.52	8.77	-55.8	-60.6	3.7	0.00e+00	0	51	104	0	82	26255
2026-01-04 22:33:16.71	245.42	8.72	-55.9	-60.7	3.7	0.00e+00	0	51	104	0	82	26354
2026-01-04 22:33:18.01	245.23	8.61	-55.8	-60.7	3.7	0.00e+00	0	51	104	0	82	26344
2026-01-04 22:33:18.72	245.12	8.55	-55.8	-60.7	3.7	0.00e+00	0	51	104	0	82	26332
2026-01-04 22:33:20.01	244.94	8.45	-55.8	-60.6	3.7	0.00e+00	0	51	104	0	82	26259
2026-01-04 22:33:20.73	244.83	8.39	-55.8	-60.7	3.7	0.00e+00	0	51	104	0	82	26357
2026-01-04 22:33:22.02	244.65	8.29	-55.8	-60.7	3.7	0.00e+00	0	51	104	0	82	26290
2026-01-04 22:33:22.74	244.55	8.23	-55.8	-60.7	3.7	0.00e+00	0	51	104	0	82	26360
2026-01-04 22:33:24.03	244.36	8.13	-55.8	-60.7	3.7	0.00e+00	0	51	104	0	82	26337
2026-01-04 22:33:24.74	244.27	8.08	-55.8	-60.6	3.7	0.00e+00	0	51	104	0	82	26241
2026-01-04 22:33:26.04	244.08	7.97	-55.8	-60.7	3.7	0.00e+00	0	51	104	0	82	26331
2026-01-04 22:33:26.75	243.99	7.92	-55.8	-60.7	3.7	0.00e+00	0	51	104	0	82	26316
2026-01-04 22:33:28.04	243.81	7.82	-55.8	-60.7	3.7	0.00e+00	0	51	104	0	82	26336
2026-01-04 22:33:28.76	243.71	7.76	-55.8	-60.7	3.7	0.00e+00	0	51	104	0	82	26314
2026-01-04 22:33:30.05	243.54	7.66	-55.8	-60.6	3.7	0.00e+00	0	51	104	0	82	26273
2026-01-04 22:33:30.77	243.44	7.61	-55.8	-60.7	3.7	0.00e+00	0	51	104	0	82	26288
2026-01-04 22:33:32.06	243.27	7.51	-55.8	-60.7	3.7	0.00e+00	0	51	104	0	82	26338
2026-01-04 22:33:32.78	243.18	7.45	-55.8	-60.7	3.7	0.00e+00	0	51	104	0	82	26291
2026-01-04 22:33:34.07	243.01	7.35	-55.8	-60.7	3.7	0.00e+00	0	51	104	0	82	26309
2026-01-04 22:33:34.79	242.91	7.30	-55.8	-60.7	3.7	0.00e+00	0	51	104	0	82	26326
2026-01-04 22:33:36.08	242.74	7.20	-55.8	-60.6	3.7	0.00e+00	0	51	104	0	82	26253
2026-01-04 22:33:36.80	242.65	7.14	-55.8	-60.6	3.7	0.00e+00	0	51	104	0	82	26208
2026-01-04 22:33:38.09	242.49	7.04	-55.8	-60.6	3.7	0.00e+00	0	51	104	0	82	26250
2026-01-04 22:33:38.81	242.40	6.99	-55.8	-60.7	3.7	0.00e+00	0	51	104	0	82	26286
2026-01-04 22:33:40.09	242.23	6.89	-55.8	-60.6	3.7	0.00e+00	0	51	104	0	82	26246
2026-01-04 22:33:40.81	242.14	6.84	-55.8	-60.6	3.7	0.00e+00	0	51	104	0	82	26236
2026-01-04 22:33:42.11	241.98	6.74	-55.8	-60.7	3.7	0.00e+00	0	51	104	0	82	26371
2026-01-04 22:33:42.82	241.89	6.69	-55.8	-60.6	3.7	0.00e+00	0	51	104	0	82	26242
2026-01-04 22:33:44.11	241.74	6.59	-55.8	-60.6	3.7	0.00e+00	0	51	104	0	82	26273
2026-01-04 22:33:44.83	241.65	6.53	-55.8	-60.6	3.7	0.00e+00	0	51	104	0	82	26126
2026-01-04 22:33:46.12	241.49	6.44	-55.8	-60.6	3.7	0.00e+00	0	51	104	0	82	26188
2026-01-04 22:33:46.84	241.41	6.38	-55.8	-60.6	3.7	0.00e+00	0	51	104	0	82	26194
2026-01-04 22:33:48.13	241.25	6.29	-55.8	-60.6	3.7	0.00e+00	0	51	104	0	82	26155
2026-01-04 22:33:48.85	241.17	6.24	-55.8	-60.6	3.7	0.00e+00	0	51	104	0	82	26187
2026-01-04 22:33:50.14	241.01	6.14	-55.8	-60.7	3.7	0.00e+00	0	51	104	0	82	26278
2026-01-04 22:33:50.86	240.93	6.09	-55.8	-60.7	3.7	0.00e+00	0	51	104	0	82	26365
2026-01-04 22:33:52.15	240.78	5.99	-55.8	-60.6	3.7	0.00e+00	0	51	104	0	82	26181
2026-01-04 22:33:52.86	240.70	5.94	-55.8	-60.6	3.7	0.00e+00	0	51	104	0	82	26207
2026-01-04 22:33:54.16	240.55	5.85	-55.8	-60.6	3.7	0.00e+00	0	51	104	0	82	26195
2026-01-04 22:33:54.87	240.47	5.79	-55.8	-60.6	3.7	0.00e+00	0	51	104	0	82	26249
2026-01-04 22:33:56.17	240.32	5.70	-55.8	-60.6	3.7	0.00e+00	0	51	104	0	82	26186
2026-01-04 22:33:56.88	240.24	5.65	-55.8	-60.6	3.7	0.00e+00	0	51	104	0	82	26154
2026-01-04 22:33:58.17	240.09	5.55	-55.8	-60.6	3.7	0.00e+00	0	51	104	0	82	26209
2026-01-04 22:33:58.89	240.01	5.50	-55.8	-60.7	3.7	0.00e+00	0	51	104	0	82	26279
2026-01-04 22:34:00.18	239.87	5.41	-55.8	-60.6	3.7	0.00e+00	0	51	104	0	82	26248
2026-01-04 22:34:00.90	239.79	5.36	-55.8	-60.6	3.7	0.00e+00	0	51	104	0	82	26261
2026-01-04 22:34:02.19	239.65	5.27	-55.8	-60.6	3.7	0.00e+00	0	51	104	0	82	26249
2026-01-04 22:34:02.91	239.57	5.21	-55.8	-60.6	3.7	0.00e+00	0	51	104	0	82	26237
2026-01-04 22:34:04.20	239.43	5.12	-55.8	-60.6	3.7	0.00e+00	0	51	104	0	82	26202
2026-01-04 22:34:04.91	239.36	5.07	-55.8	-60.6	3.7	0.00e+00	0	51	104	0	82	26212
2026-01-04 22:34:06.20	239.22	4.98	-55.8	-60.6	3.7	0.00e+00	0	51	104	0	82	26272

#Closed at: 2026-01-04 22:34:06
#Recorded file [0 MB]: D:/Data/31040_260105_012616.dat