passes_logs/2026/01/04/T1/T1__20260104_220316_NOAA_20_JPSS-1_rec.log

#Pass ID: 20260104_220316_NOAA 20 (JPSS-1)
#Satellite: NOAA 20 (JPSS-1)
#Configuration: NOAA 20
#almurnet v.1.7.20251203
#Start time: 2026-01-04 22:03:18

#Version: 2.0.20230620
#Station: T1
#Location: 37.570604 lon 55.790049 lat
#TLE: 1 43013U 17073A   26004.47528369  .00000132  00000+0  83671-4 0  9999
#TLE: 2 43013  98.7626 305.5264 0001854  54.5883 305.5466 14.19533142421242

#Time	Az	El	Level	Level2	SNR	BER	BlckErr	Temp	State	Recorded	gain1	gain2
2026-01-04 22:03:18.76	31.35	5.10	-52.2	-67.7	3.8	1.49e+00	0	40	0	0	75	22167
2026-01-04 22:03:19.76	31.45	5.16	-52.2	-67.8	3.8	1.49e+00	0	40	104	0	75	22316
2026-01-04 22:03:20.76	31.54	5.22	-52.2	-67.7	3.8	1.49e+00	0	40	104	0	75	22175
2026-01-04 22:03:21.77	31.64	5.27	-52.2	-67.7	3.8	1.49e+00	0	40	104	0	75	22121
2026-01-04 22:03:22.77	31.73	5.33	-52.2	-67.7	3.8	1.49e+00	0	40	104	0	75	22163
2026-01-04 22:03:23.77	31.83	5.38	-52.2	-67.8	3.8	1.49e+00	0	40	104	0	75	22295
2026-01-04 22:03:24.78	31.93	5.44	-52.2	-67.7	3.8	1.49e+00	0	40	104	0	75	22049
2026-01-04 22:03:25.78	32.02	5.50	-52.2	-67.7	3.8	1.49e+00	0	40	104	0	75	22080
2026-01-04 22:03:26.78	32.12	5.55	-52.2	-67.7	3.8	1.49e+00	0	40	104	0	75	22230
2026-01-04 22:03:27.79	32.22	5.61	-52.2	-67.7	3.8	1.49e+00	0	40	104	0	75	22178
2026-01-04 22:03:28.79	32.32	5.67	-52.2	-67.7	3.8	1.49e+00	0	40	104	0	75	22118
2026-01-04 22:03:29.80	32.41	5.72	-52.2	-67.7	3.8	1.49e+00	0	40	104	0	75	22050
2026-01-04 22:03:30.80	32.51	5.78	-52.2	-67.7	3.8	1.49e+00	0	40	104	0	75	22066
2026-01-04 22:03:31.81	32.61	5.84	-52.2	-67.7	3.8	1.49e+00	0	40	104	0	75	22012
2026-01-04 22:03:32.81	32.71	5.89	-52.2	-67.7	3.8	1.49e+00	0	40	104	0	75	22182
2026-01-04 22:03:33.81	32.81	5.95	-52.2	-67.7	3.8	1.49e+00	0	40	104	0	75	22140
2026-01-04 22:03:34.81	32.91	6.01	-52.2	-67.7	3.8	1.49e+00	0	40	104	0	75	22045
2026-01-04 22:03:35.82	33.01	6.07	-52.2	-67.7	3.8	1.49e+00	0	41	104	0	75	22227
2026-01-04 22:03:36.82	33.11	6.12	-52.2	-67.7	3.8	1.49e+00	0	41	104	0	75	22096
2026-01-04 22:03:37.83	33.21	6.18	-52.2	-67.7	3.8	1.49e+00	0	41	104	0	75	22134
2026-01-04 22:03:38.83	33.31	6.24	-52.2	-67.7	3.8	1.49e+00	0	40	104	0	75	22109
2026-01-04 22:03:39.83	33.42	6.29	-52.2	-67.7	3.8	1.49e+00	0	41	104	0	75	22072
2026-01-04 22:03:40.83	33.52	6.35	-52.2	-67.7	3.8	1.49e+00	0	41	104	0	75	22060
2026-01-04 22:03:41.84	33.62	6.41	-52.2	-67.7	3.8	1.49e+00	0	40	104	0	75	22169
2026-01-04 22:03:42.84	33.72	6.47	-52.2	-67.6	3.8	1.49e+00	0	41	104	0	75	21970
2026-01-04 22:03:43.84	33.83	6.52	-52.1	-67.6	3.8	1.49e+00	0	41	104	0	75	21908
2026-01-04 22:03:44.85	33.93	6.58	-52.1	-67.6	3.8	1.49e+00	0	41	104	0	75	21821
2026-01-04 22:03:45.85	34.04	6.64	-52.2	-67.6	3.8	1.49e+00	0	41	104	0	75	21795
2026-01-04 22:03:46.85	34.14	6.69	-52.2	-67.6	3.8	1.49e+00	0	41	104	0	75	21781
2026-01-04 22:03:47.86	34.25	6.75	-52.2	-67.6	3.8	1.49e+00	0	41	104	0	75	21892
2026-01-04 22:03:48.86	34.35	6.81	-52.2	-67.6	3.8	1.49e+00	0	41	104	0	75	21873
2026-01-04 22:03:49.86	34.46	6.87	-52.2	-67.6	3.8	1.49e+00	0	41	104	0	75	21979
2026-01-04 22:03:50.86	34.56	6.93	-52.2	-67.7	3.8	1.49e+00	0	41	104	0	75	22048
2026-01-04 22:03:51.87	34.67	6.98	-52.2	-67.7	3.8	1.49e+00	0	41	104	0	75	22043
2026-01-04 22:03:52.87	34.78	7.04	-52.2	-67.7	3.8	1.49e+00	0	41	104	0	75	22011
2026-01-04 22:03:53.87	34.88	7.10	-52.2	-67.7	3.8	1.49e+00	0	41	104	0	75	22139
2026-01-04 22:03:54.88	34.99	7.16	-52.2	-67.6	3.8	1.49e+00	0	41	104	0	75	21993
2026-01-04 22:03:55.88	35.10	7.22	-52.2	-67.7	3.8	1.49e+00	0	41	104	0	75	22158
2026-01-04 22:03:56.89	35.21	7.27	-52.2	-67.6	3.8	1.49e+00	0	41	104	0	75	21958
2026-01-04 22:03:57.89	35.32	7.33	-52.2	-67.6	3.8	1.49e+00	0	41	104	0	75	21777
2026-01-04 22:03:58.89	35.43	7.39	-52.2	-67.5	3.8	1.49e+00	0	41	104	0	75	21735
2026-01-04 22:03:59.89	35.54	7.45	-52.2	-67.5	3.8	1.49e+00	0	41	104	0	75	21638
2026-01-04 22:04:00.90	35.65	7.51	-52.2	-67.6	3.8	1.49e+00	0	41	104	0	75	21845
2026-01-04 22:04:01.90	35.76	7.56	-52.2	-67.6	3.8	1.49e+00	0	41	104	0	75	21991
2026-01-04 22:04:02.91	35.87	7.62	-52.2	-67.7	3.8	1.49e+00	0	41	104	0	75	22146
2026-01-04 22:04:03.91	35.98	7.68	-52.2	-67.7	3.8	1.49e+00	0	41	104	0	75	22056
2026-01-04 22:04:04.91	36.09	7.74	-52.2	-67.6	3.8	1.49e+00	0	41	104	0	75	21809
2026-01-04 22:04:05.92	36.21	7.80	-52.2	-67.5	3.8	1.49e+00	0	41	104	0	75	21582
2026-01-04 22:04:06.92	36.32	7.86	-52.2	-67.3	3.8	1.49e+00	0	41	104	0	75	21240
2026-01-04 22:04:07.93	36.43	7.92	-52.2	-67.3	3.8	1.49e+00	0	41	104	0	75	21148
2026-01-04 22:04:08.93	36.55	7.97	-52.1	-67.3	3.8	1.49e+00	0	41	104	0	75	21124
2026-01-04 22:04:09.94	36.66	8.03	-52.1	-67.3	3.8	1.49e+00	0	41	104	0	75	21216
2026-01-04 22:04:10.94	36.78	8.09	-52.2	-67.4	3.8	1.49e+00	0	41	104	0	75	21497
2026-01-04 22:04:11.94	36.89	8.15	-52.2	-67.5	3.8	1.49e+00	0	41	104	0	75	21649
2026-01-04 22:04:12.95	37.01	8.21	-52.2	-67.5	3.8	1.49e+00	0	42	104	0	75	21636
2026-01-04 22:04:13.95	37.12	8.27	-52.2	-67.5	3.8	1.49e+00	0	41	104	0	75	21635
2026-01-04 22:04:14.96	37.24	8.33	-52.2	-67.6	3.8	1.49e+00	0	41	104	0	75	21854
2026-01-04 22:04:15.96	37.36	8.39	-52.2	-67.7	3.8	1.49e+00	0	41	104	0	75	22141
2026-01-04 22:04:16.97	37.47	8.44	-52.2	-67.7	3.8	1.49e+00	0	41	104	0	75	22150
2026-01-04 22:04:17.97	37.59	8.50	-52.2	-67.5	3.8	1.49e+00	0	41	104	0	75	21710
2026-01-04 22:04:18.97	37.71	8.56	-52.2	-67.2	3.8	1.49e+00	0	41	104	0	75	20885
2026-01-04 22:04:19.98	37.83	8.62	-52.1	-66.7	3.8	1.49e+00	0	41	104	0	75	19791
2026-01-04 22:04:20.98	37.95	8.68	-52.1	-66.2	3.8	1.49e+00	0	42	104	0	75	18554
2026-01-04 22:04:21.99	38.07	8.74	-52.1	-65.9	3.8	1.49e+00	0	42	104	0	75	17965
2026-01-04 22:04:22.99	38.19	8.80	-52.0	-65.6	3.8	1.49e+00	0	41	104	0	75	17328
2026-01-04 22:04:23.99	38.31	8.86	-52.0	-65.4	3.8	1.49e+00	0	41	104	0	75	16888
2026-01-04 22:04:25.00	38.43	8.92	-52.0	-64.5	4.1	1.46e+00	0	42	0	0	75	15295
2026-01-04 22:04:26.00	38.55	8.98	-51.8	-63.0	4.6	1.36e+00	0	41	0	0	75	12816
2026-01-04 22:04:27.00	38.67	9.04	-51.6	-60.8	5.8	4.82e-01	0	42	0	2097152	75	10059
2026-01-04 22:04:28.01	38.80	9.10	-52.5	-66.6	3.8	1.48e+00	0	42	104	3145728	75	19545
2026-01-04 22:04:29.06	38.93	9.16	-52.3	-65.3	3.8	1.49e+00	0	42	104	3145728	75	16760
2026-01-04 22:04:29.98	39.04	9.21	-50.4	-56.3	9.9	1.33e+00	0	42	0	3145728	72	7057
2026-01-04 22:04:30.98	39.16	9.27	-52.1	-64.7	4.0	7.85e-01	0	42	0	4194304	74	16654
2026-01-04 22:04:31.98	39.29	9.33	-49.4	-53.6	13.0	1.54e-01	0	42	0	4194304	70	5851
2026-01-04 22:04:32.98	39.41	9.39	-49.6	-53.8	12.8	4.42e-05	0	42	0	6291456	70	5955
2026-01-04 22:04:33.99	39.54	9.45	-49.4	-53.4	13.3	3.66e-05	0	42	0	8388608	70	5681
2026-01-04 22:04:34.99	39.66	9.51	-49.0	-52.8	13.8	5.30e-06	0	42	0	9437184	70	5327
2026-01-04 22:04:35.99	39.79	9.57	-48.7	-52.3	14.4	1.50e-06	0	42	0	11534336	69	5313
2026-01-04 22:04:36.99	39.92	9.63	-48.5	-52.0	14.7	0.00e+00	0	42	0	13631488	69	5105
2026-01-04 22:04:37.99	40.04	9.69	-48.0	-51.3	15.4	0.00e+00	0	42	0	15728640	68	4987
2026-01-04 22:04:38.99	40.17	9.75	-47.7	-50.9	15.6	0.00e+00	0	42	0	17825792	67	5068
2026-01-04 22:04:40.00	40.30	9.81	-47.7	-50.8	15.6	0.00e+00	0	42	0	18874368	67	5041
2026-01-04 22:04:41.00	40.43	9.87	-47.7	-50.9	15.6	0.00e+00	0	42	0	20971520	67	5087
2026-01-04 22:04:42.00	40.56	9.92	-47.6	-50.9	15.6	0.00e+00	0	42	0	23068672	67	5045
2026-01-04 22:04:43.00	40.69	9.98	-47.7	-50.9	15.5	0.00e+00	0	42	0	25165824	67	5084
2026-01-04 22:04:44.00	40.82	10.04	-47.7	-51.0	15.5	0.00e+00	0	42	0	27262976	67	5126
2026-01-04 22:04:45.00	40.95	10.10	-47.7	-51.0	15.5	0.00e+00	0	42	0	28311552	67	5111
2026-01-04 22:04:46.01	41.08	10.16	-47.8	-51.0	15.4	0.00e+00	0	42	0	30408704	67	5155
2026-01-04 22:04:47.01	41.21	10.22	-47.8	-51.1	15.4	0.00e+00	0	42	0	32505856	67	5183
2026-01-04 22:04:48.01	41.34	10.28	-47.9	-51.1	15.4	0.00e+00	0	42	0	34603008	67	5204
2026-01-04 22:04:49.01	41.48	10.34	-47.9	-51.1	15.5	0.00e+00	0	42	0	36700160	67	5166
2026-01-04 22:04:50.01	41.61	10.40	-47.9	-51.1	15.5	0.00e+00	0	42	0	37748736	67	5163
2026-01-04 22:04:51.01	41.74	10.46	-47.7	-50.9	15.6	0.00e+00	0	42	0	39845888	67	5071
2026-01-04 22:04:52.01	41.88	10.52	-47.6	-50.7	15.8	0.00e+00	0	42	0	41943040	67	4959
2026-01-04 22:04:53.01	42.01	10.58	-47.7	-50.8	15.7	0.00e+00	0	42	0	44040192	67	5006
2026-01-04 22:04:54.02	42.15	10.64	-47.6	-50.7	15.8	0.00e+00	0	42	0	46137344	67	4944
2026-01-04 22:04:55.02	42.28	10.70	-47.5	-50.7	15.8	0.00e+00	0	42	0	47185920	67	4938
2026-01-04 22:04:56.02	42.42	10.76	-47.5	-50.7	15.8	0.00e+00	0	42	0	49283072	67	4938
2026-01-04 22:04:57.02	42.56	10.82	-47.5	-50.6	15.9	0.00e+00	0	42	0	51380224	66	5171
2026-01-04 22:04:58.03	42.70	10.88	-47.5	-50.6	15.9	0.00e+00	0	42	0	53477376	66	5200
2026-01-04 22:04:59.03	42.83	10.94	-47.6	-50.7	15.8	0.00e+00	0	42	0	54525952	66	5230
2026-01-04 22:05:00.03	42.97	11.00	-47.5	-50.6	16.0	0.00e+00	0	42	0	56623104	66	5178
2026-01-04 22:05:01.03	43.11	11.06	-47.6	-50.7	15.9	0.00e+00	0	42	0	58720256	66	5222
2026-01-04 22:05:02.03	43.25	11.12	-47.7	-50.8	15.8	0.00e+00	0	42	0	60817408	66	5289
2026-01-04 22:05:03.04	43.39	11.18	-47.6	-50.7	15.9	0.00e+00	0	42	0	62914560	66	5231
2026-01-04 22:05:04.04	43.53	11.24	-47.7	-50.8	15.8	0.00e+00	0	42	0	63963136	66	5300
2026-01-04 22:05:05.04	43.67	11.30	-47.5	-50.6	16.0	0.00e+00	0	42	0	66060288	66	5182
2026-01-04 22:05:06.05	43.82	11.36	-47.7	-50.8	15.8	0.00e+00	0	42	0	68157440	66	5284
2026-01-04 22:05:07.05	43.96	11.42	-47.5	-50.5	16.0	0.00e+00	0	42	0	70254592	66	5156
2026-01-04 22:05:08.05	44.10	11.48	-47.5	-50.6	16.0	0.00e+00	0	42	0	72351744	66	5163
2026-01-04 22:05:09.06	44.25	11.54	-47.4	-50.4	16.1	0.00e+00	0	42	0	73400320	66	5082
2026-01-04 22:05:10.06	44.39	11.60	-47.3	-50.3	16.3	0.00e+00	0	42	0	75497472	66	5003
2026-01-04 22:05:11.06	44.54	11.66	-47.4	-50.4	16.2	0.00e+00	0	42	0	77594624	66	5070
2026-01-04 22:05:12.45	44.74	11.74	-47.4	-50.3	16.2	0.00e+00	0	42	0	79691776	66	5023
2026-01-04 22:05:13.20	44.85	11.78	-47.3	-50.3	16.3	0.00e+00	0	42	0	81788928	66	5000
2026-01-04 22:05:14.48	45.03	11.86	-47.3	-50.3	16.3	0.00e+00	0	42	0	83886080	66	4997
2026-01-04 22:05:15.20	45.14	11.90	-47.4	-50.4	16.2	0.00e+00	0	42	0	84934656	66	5054
2026-01-04 22:05:16.49	45.33	11.98	-47.2	-50.1	16.4	0.00e+00	0	42	0	88080384	66	4915
2026-01-04 22:05:17.20	45.44	12.02	-47.2	-50.1	16.5	0.00e+00	0	42	0	89128960	66	4898
2026-01-04 22:05:18.49	45.63	12.10	-47.3	-50.3	16.3	0.00e+00	0	42	0	91226112	66	4988
2026-01-04 22:05:19.21	45.74	12.14	-47.3	-50.2	16.4	0.00e+00	0	42	0	93323264	66	4931
2026-01-04 22:05:20.50	45.93	12.22	-47.1	-50.0	16.6	0.00e+00	0	42	0	95420416	66	4841
2026-01-04 22:05:21.21	46.04	12.26	-47.1	-50.0	16.6	0.00e+00	0	42	0	96468992	66	4824
2026-01-04 22:05:22.50	46.23	12.34	-47.0	-49.9	16.7	0.00e+00	0	42	0	98566144	66	4761
2026-01-04 22:05:23.22	46.34	12.38	-47.0	-49.8	16.7	0.00e+00	0	42	0	100663296	66	4738
2026-01-04 22:05:24.58	46.55	12.46	-47.0	-49.8	16.7	0.00e+00	0	42	0	102760448	66	4750
2026-01-04 22:05:25.55	46.70	12.52	-47.0	-49.8	16.8	0.00e+00	0	42	0	104857600	66	4725
2026-01-04 22:05:26.56	46.85	12.58	-46.9	-49.7	16.9	0.00e+00	0	42	0	106954752	65	4948
2026-01-04 22:05:27.56	47.01	12.63	-46.9	-49.7	16.9	0.00e+00	0	42	0	109051904	65	4931
2026-01-04 22:05:28.56	47.16	12.69	-47.0	-49.8	16.8	0.00e+00	0	42	0	110100480	65	5011
2026-01-04 22:05:29.56	47.32	12.75	-46.8	-49.6	17.0	0.00e+00	0	42	0	112197632	65	4894
2026-01-04 22:05:30.57	47.47	12.81	-46.7	-49.4	17.1	0.00e+00	0	42	0	114294784	65	4795
2026-01-04 22:05:31.57	47.63	12.87	-46.8	-49.6	17.0	0.00e+00	0	42	0	116391936	65	4877
2026-01-04 22:05:32.57	47.79	12.93	-46.7	-49.4	17.1	0.00e+00	0	42	0	117440512	65	4811
2026-01-04 22:05:33.58	47.95	12.99	-46.7	-49.4	17.2	0.00e+00	0	42	0	119537664	65	4762
2026-01-04 22:05:34.58	48.11	13.05	-46.7	-49.3	17.2	0.00e+00	0	42	0	121634816	65	4750
2026-01-04 22:05:35.58	48.27	13.11	-46.7	-49.4	17.2	0.00e+00	0	42	0	123731968	65	4783
2026-01-04 22:05:36.76	48.45	13.18	-46.6	-49.3	17.3	0.00e+00	0	42	0	125829120	65	4708
2026-01-04 22:05:37.62	48.59	13.23	-46.7	-49.4	17.2	0.00e+00	0	42	0	126877696	65	4797
2026-01-04 22:05:38.99	48.81	13.31	-46.6	-49.2	17.3	0.00e+00	0	42	0	130023424	65	4700
2026-01-04 22:05:39.70	48.93	13.35	-46.6	-49.2	17.4	0.00e+00	0	42	0	131072000	65	4668
2026-01-04 22:05:41.23	49.18	13.44	-46.6	-49.3	17.3	0.00e+00	0	42	0	134217728	65	4733
2026-01-04 22:05:41.94	49.29	13.48	-46.6	-49.3	17.3	0.00e+00	0	42	0	135266304	65	4709
2026-01-04 22:05:43.24	49.50	13.55	-46.4	-49.0	17.5	0.00e+00	0	42	0	138412032	64	4869
2026-01-04 22:05:43.95	49.62	13.60	-46.4	-49.0	17.6	0.00e+00	0	42	0	139460608	64	4843
2026-01-04 22:05:45.24	49.83	13.67	-46.4	-49.0	17.6	0.00e+00	0	42	0	141557760	64	4823
2026-01-04 22:05:45.96	49.95	13.71	-46.5	-49.2	17.4	0.00e+00	0	42	0	142606336	64	4942
2026-01-04 22:05:47.24	50.17	13.79	-46.3	-48.9	17.7	0.00e+00	0	42	0	145752064	64	4762
2026-01-04 22:05:47.96	50.29	13.83	-46.3	-48.9	17.7	0.00e+00	0	42	0	146800640	64	4768
2026-01-04 22:05:49.25	50.50	13.90	-46.3	-48.9	17.7	0.00e+00	0	42	0	148897792	64	4782
2026-01-04 22:05:49.96	50.62	13.94	-46.4	-49.0	17.6	0.00e+00	0	42	0	150994944	64	4852
2026-01-04 22:05:51.25	50.84	14.02	-46.4	-49.0	17.6	0.00e+00	0	42	0	153092096	64	4835
2026-01-04 22:05:51.96	50.96	14.06	-46.4	-49.0	17.6	0.00e+00	0	42	0	154140672	64	4817
2026-01-04 22:05:53.25	51.18	14.13	-46.3	-48.9	17.7	0.00e+00	0	42	0	156237824	64	4800
2026-01-04 22:05:53.96	51.30	14.17	-46.3	-48.9	17.7	0.00e+00	0	42	0	158334976	64	4763
2026-01-04 22:05:55.25	51.52	14.25	-46.4	-49.1	17.5	0.00e+00	0	42	0	160432128	64	4879
2026-01-04 22:05:55.98	51.65	14.29	-46.4	-49.0	17.6	0.00e+00	0	42	0	161480704	64	4853
2026-01-04 22:05:57.27	51.87	14.36	-46.4	-49.0	17.6	0.00e+00	0	42	0	164626432	64	4846
2026-01-04 22:05:57.98	51.99	14.40	-46.4	-49.0	17.6	0.00e+00	0	42	0	165675008	64	4849
2026-01-04 22:05:59.27	52.22	14.48	-46.3	-48.9	17.7	0.00e+00	0	42	0	167772160	64	4769
2026-01-04 22:05:59.99	52.34	14.52	-46.3	-48.8	17.8	0.00e+00	0	42	0	168820736	64	4723
2026-01-04 22:06:01.28	52.57	14.59	-46.2	-48.8	17.8	0.00e+00	0	42	0	171966464	64	4707
2026-01-04 22:06:02.08	52.71	14.63	-46.3	-48.8	17.8	0.00e+00	0	42	0	173015040	64	4733
2026-01-04 22:06:03.22	52.91	14.70	-46.3	-48.9	17.7	0.00e+00	0	42	0	175112192	64	4781
2026-01-04 22:06:04.32	53.11	14.76	-46.5	-49.1	17.6	0.00e+00	0	42	0	177209344	64	4881
2026-01-04 22:06:05.37	53.30	14.82	-46.5	-49.2	17.4	0.00e+00	0	42	0	179306496	64	4931
2026-01-04 22:06:06.24	53.45	14.87	-46.5	-49.2	17.4	0.00e+00	0	42	0	181403648	64	4944
2026-01-04 22:06:07.39	53.66	14.93	-46.6	-49.3	17.3	0.00e+00	0	42	0	183500800	64	5002
2026-01-04 22:06:08.25	53.81	14.98	-46.6	-49.3	17.3	0.00e+00	0	42	0	184549376	64	5017
2026-01-04 22:06:09.39	54.02	15.04	-46.6	-49.3	17.3	0.00e+00	0	42	0	186646528	64	5036
2026-01-04 22:06:10.25	54.17	15.09	-46.6	-49.3	17.4	0.00e+00	0	42	0	188743680	64	4992
2026-01-04 22:06:11.39	54.38	15.15	-46.6	-49.3	17.4	0.00e+00	0	42	0	190840832	64	4985
2026-01-04 22:06:12.25	54.54	15.20	-46.6	-49.3	17.3	0.00e+00	0	42	0	191889408	64	5016
2026-01-04 22:06:13.39	54.75	15.26	-46.7	-49.4	17.3	0.00e+00	0	42	0	193986560	64	5050
2026-01-04 22:06:14.25	54.91	15.31	-46.7	-49.4	17.2	0.00e+00	0	42	0	196083712	64	5068
2026-01-04 22:06:15.53	55.14	15.38	-46.8	-49.6	17.1	0.00e+00	0	42	0	198180864	64	5162
2026-01-04 22:06:16.24	55.27	15.42	-46.8	-49.6	17.1	0.00e+00	0	42	0	200278016	64	5180
2026-01-04 22:06:17.53	55.51	15.49	-46.9	-49.7	17.0	0.00e+00	0	42	0	202375168	64	5241
2026-01-04 22:06:18.24	55.65	15.53	-47.0	-49.8	16.9	0.00e+00	0	42	0	203423744	64	5285
2026-01-04 22:06:19.53	55.89	15.60	-47.1	-49.9	16.8	0.00e+00	0	42	0	205520896	64	5348
2026-01-04 22:06:20.25	56.02	15.64	-47.0	-49.9	16.8	0.00e+00	0	42	0	207618048	64	5347
2026-01-04 22:06:21.54	56.27	15.71	-47.1	-49.9	16.7	0.00e+00	0	42	0	209715200	64	5387
2026-01-04 22:06:22.26	56.40	15.74	-47.1	-49.9	16.8	0.00e+00	0	42	0	210763776	64	5359
2026-01-04 22:06:23.54	56.65	15.81	-47.1	-49.9	16.7	0.00e+00	0	42	0	213909504	64	5392
2026-01-04 22:06:24.26	56.78	15.85	-47.2	-50.0	16.7	0.00e+00	0	42	0	214958080	64	5407
2026-01-04 22:06:25.55	57.03	15.92	-47.2	-50.0	16.7	0.00e+00	0	42	0	217055232	64	5412
2026-01-04 22:06:26.27	57.17	15.96	-47.2	-50.0	16.7	0.00e+00	0	42	0	218103808	65	5123
2026-01-04 22:06:27.56	57.42	16.03	-47.2	-50.1	16.6	0.00e+00	0	42	0	221249536	65	5172
2026-01-04 22:06:28.27	57.56	16.06	-47.2	-50.0	16.7	0.00e+00	0	42	0	222298112	65	5150
2026-01-04 22:06:29.56	57.81	16.13	-47.2	-50.1	16.6	0.00e+00	0	42	0	224395264	65	5165
2026-01-04 22:06:30.28	57.95	16.17	-47.2	-50.1	16.6	0.00e+00	0	42	0	226492416	65	5183
2026-01-04 22:06:31.56	58.20	16.23	-47.3	-50.3	16.4	0.00e+00	0	42	0	228589568	65	5280
2026-01-04 22:06:32.28	58.34	16.27	-47.3	-50.2	16.5	0.00e+00	0	42	0	229638144	65	5257
2026-01-04 22:06:33.57	58.59	16.34	-47.3	-50.2	16.5	0.00e+00	0	42	0	232783872	65	5264
2026-01-04 22:06:34.29	58.73	16.37	-47.4	-50.3	16.4	0.00e+00	0	42	0	233832448	65	5331
2026-01-04 22:06:35.58	58.99	16.44	-47.5	-50.4	16.3	0.00e+00	0	42	0	235929600	65	5370
2026-01-04 22:06:36.29	59.13	16.48	-47.5	-50.5	16.3	0.00e+00	0	42	0	236978176	65	5416
2026-01-04 22:06:37.58	59.39	16.54	-47.5	-50.4	16.3	0.00e+00	0	42	0	240123904	65	5376
2026-01-04 22:06:38.30	59.53	16.58	-47.5	-50.5	16.3	0.00e+00	0	42	0	241172480	65	5405
2026-01-04 22:06:39.59	59.79	16.64	-47.6	-50.6	16.1	0.00e+00	0	42	0	243269632	65	5477
2026-01-04 22:06:40.30	59.93	16.68	-47.7	-50.7	16.0	0.00e+00	0	42	0	245366784	65	5546
2026-01-04 22:06:41.59	60.19	16.74	-47.8	-50.9	15.9	0.00e+00	0	42	0	247463936	66	5344
2026-01-04 22:06:42.31	60.34	16.78	-47.8	-50.9	15.8	0.00e+00	0	42	0	248512512	66	5396
2026-01-04 22:06:43.64	60.61	16.84	-47.9	-51.0	15.7	0.00e+00	0	42	0	251658240	66	5419
2026-01-04 22:06:44.63	60.81	16.89	-47.9	-51.0	15.7	0.00e+00	0	42	0	252706816	66	5458
2026-01-04 22:06:45.94	61.08	16.95	-47.9	-51.1	15.7	0.00e+00	0	43	0	255852544	66	5465
2026-01-04 22:06:46.70	61.23	16.99	-47.9	-51.1	15.7	0.00e+00	0	42	0	256901120	66	5466
2026-01-04 22:06:48.00	61.50	17.05	-47.9	-50.9	15.8	0.00e+00	0	42	0	258998272	66	5401
2026-01-04 22:06:48.71	61.65	17.09	-47.8	-50.9	15.9	0.00e+00	0	42	0	261095424	66	5354
2026-01-04 22:06:50.00	61.92	17.15	-47.6	-50.6	16.1	0.00e+00	0	43	0	263192576	66	5179
2026-01-04 22:06:50.72	62.07	17.18	-47.5	-50.4	16.3	0.00e+00	0	42	0	264241152	66	5099
2026-01-04 22:06:52.01	62.34	17.24	-47.4	-50.3	16.4	0.00e+00	0	42	0	267386880	66	5035
2026-01-04 22:06:52.73	62.49	17.28	-47.4	-50.3	16.4	0.00e+00	0	42	0	268435456	66	5036
2026-01-04 22:06:54.02	62.76	17.34	-47.4	-50.4	16.4	0.00e+00	0	43	0	270532608	66	5048
2026-01-04 22:06:54.73	62.91	17.37	-47.4	-50.3	16.4	0.00e+00	0	42	0	271581184	66	5017
2026-01-04 22:06:56.02	63.18	17.43	-47.6	-50.5	16.2	0.00e+00	0	42	0	274726912	66	5126
2026-01-04 22:06:56.74	63.33	17.46	-47.5	-50.4	16.3	0.00e+00	0	42	0	275775488	66	5100
2026-01-04 22:06:58.23	63.65	17.53	-47.5	-50.5	16.2	0.00e+00	0	42	0	278921216	66	5117
2026-01-04 22:06:58.95	63.80	17.56	-47.6	-50.5	16.2	0.00e+00	0	42	0	279969792	66	5127
2026-01-04 22:07:00.27	64.08	17.62	-47.6	-50.5	16.2	0.00e+00	0	42	0	282066944	66	5144
2026-01-04 22:07:00.98	64.24	17.65	-47.5	-50.4	16.3	0.00e+00	0	43	0	284164096	66	5062
2026-01-04 22:07:02.27	64.51	17.71	-47.4	-50.2	16.5	0.00e+00	0	42	0	286261248	66	4981
2026-01-04 22:07:02.99	64.67	17.74	-47.2	-50.1	16.7	0.00e+00	0	42	0	287309824	66	4877
2026-01-04 22:07:04.28	64.95	17.80	-47.2	-50.0	16.8	0.00e+00	0	43	0	289406976	66	4824
2026-01-04 22:07:04.99	65.10	17.83	-47.1	-49.9	16.9	0.00e+00	0	42	0	291504128	66	4760
2026-01-04 22:07:06.29	65.39	17.88	-47.1	-49.8	16.9	0.00e+00	0	42	0	293601280	66	4751
2026-01-04 22:07:07.00	65.54	17.91	-47.0	-49.8	16.9	0.00e+00	0	42	0	294649856	66	4717
2026-01-04 22:07:08.29	65.82	17.97	-46.9	-49.6	17.1	0.00e+00	0	42	0	297795584	65	4919
2026-01-04 22:07:09.01	65.98	18.00	-46.9	-49.7	17.1	0.00e+00	0	42	0	298844160	65	4931
2026-01-04 22:07:10.30	66.26	18.05	-47.0	-49.7	17.0	0.00e+00	0	42	0	300941312	65	4964
2026-01-04 22:07:11.01	66.42	18.08	-47.0	-49.7	17.0	0.00e+00	0	43	0	303038464	65	4983
2026-01-04 22:07:12.30	66.71	18.13	-47.0	-49.7	17.0	0.00e+00	0	42	0	305135616	65	4956
2026-01-04 22:07:13.02	66.87	18.16	-47.0	-49.7	17.0	0.00e+00	0	43	0	306184192	65	4963
2026-01-04 22:07:14.31	67.15	18.21	-47.0	-49.8	17.0	0.00e+00	0	42	0	308281344	65	5005
2026-01-04 22:07:15.02	67.31	18.24	-47.0	-49.7	17.0	0.00e+00	0	42	0	310378496	65	4981
2026-01-04 22:07:16.31	67.60	18.29	-47.1	-49.9	16.9	0.00e+00	0	42	0	312475648	65	5044
2026-01-04 22:07:17.02	67.76	18.32	-47.2	-50.0	16.8	0.00e+00	0	42	0	313524224	65	5121
2026-01-04 22:07:18.31	68.05	18.37	-47.1	-49.9	16.8	0.00e+00	0	42	0	316669952	65	5056
2026-01-04 22:07:19.02	68.21	18.40	-47.2	-49.9	16.8	0.00e+00	0	42	0	317718528	65	5099
2026-01-04 22:07:20.31	68.50	18.44	-47.2	-50.0	16.7	0.00e+00	0	42	0	319815680	65	5157
2026-01-04 22:07:21.03	68.66	18.47	-47.2	-50.0	16.7	0.00e+00	0	42	0	320864256	65	5115
2026-01-04 22:07:22.32	68.95	18.52	-47.2	-50.0	16.7	0.00e+00	0	42	0	324009984	65	5137
2026-01-04 22:07:23.03	69.12	18.55	-47.2	-49.9	16.8	0.00e+00	0	42	0	325058560	65	5085
2026-01-04 22:07:24.32	69.41	18.59	-47.1	-49.8	16.9	0.00e+00	0	42	0	327155712	65	5034
2026-01-04 22:07:25.04	69.57	18.62	-47.1	-49.8	16.9	0.00e+00	0	43	0	329252864	65	5024
2026-01-04 22:07:26.33	69.87	18.66	-47.0	-49.8	17.0	0.00e+00	0	42	0	331350016	65	4991
2026-01-04 22:07:27.05	70.04	18.69	-47.0	-49.8	17.0	0.00e+00	0	42	0	332398592	65	4987
2026-01-04 22:07:28.34	70.33	18.73	-47.1	-49.9	16.9	0.00e+00	0	42	0	334495744	65	5054
2026-01-04 22:07:29.05	70.50	18.76	-47.0	-49.7	17.0	0.00e+00	0	43	0	336592896	65	4960
2026-01-04 22:07:30.34	70.79	18.80	-47.1	-49.9	16.9	0.00e+00	0	42	0	338690048	65	5074
2026-01-04 22:07:31.06	70.96	18.83	-47.0	-49.7	17.1	0.00e+00	0	43	0	339738624	65	4927
2026-01-04 22:07:32.44	71.28	18.87	-47.0	-49.7	17.0	0.00e+00	0	43	0	342884352	65	4964
2026-01-04 22:07:33.16	71.45	18.90	-47.0	-49.7	17.0	0.00e+00	0	43	0	343932928	65	4963
2026-01-04 22:07:34.45	71.75	18.94	-47.1	-49.9	16.9	0.00e+00	0	42	0	346030080	65	5042
2026-01-04 22:07:35.16	71.91	18.96	-47.1	-49.9	16.9	0.00e+00	0	42	0	348127232	65	5068
2026-01-04 22:07:36.58	72.25	19.01	-47.1	-49.8	16.9	0.00e+00	0	42	0	350224384	65	5010
2026-01-04 22:07:37.29	72.41	19.03	-47.1	-49.8	17.0	0.00e+00	0	42	0	351272960	65	5013
2026-01-04 22:07:38.68	72.74	19.07	-47.0	-49.7	17.0	0.00e+00	0	42	0	354418688	65	4977
2026-01-04 22:07:39.68	72.98	19.10	-47.0	-49.7	17.0	0.00e+00	0	42	0	356515840	65	4963
2026-01-04 22:07:40.98	73.28	19.14	-46.8	-49.5	17.3	0.00e+00	0	43	0	358612992	65	4817
2026-01-04 22:07:41.70	73.45	19.16	-46.8	-49.4	17.3	0.00e+00	0	42	0	359661568	65	4808
2026-01-04 22:07:42.99	73.76	19.20	-46.9	-49.6	17.1	0.00e+00	0	42	0	362807296	65	4921
2026-01-04 22:07:43.70	73.93	19.22	-47.1	-49.8	17.0	0.00e+00	0	42	0	363855872	65	5005
2026-01-04 22:07:44.99	74.24	19.25	-47.1	-49.8	17.0	0.00e+00	0	42	0	365953024	65	5007
2026-01-04 22:07:45.70	74.40	19.27	-47.1	-49.9	16.9	0.00e+00	0	42	0	367001600	65	5051
2026-01-04 22:07:46.99	74.71	19.31	-46.9	-49.6	17.1	0.00e+00	0	43	0	370147328	65	4919
2026-01-04 22:07:47.71	74.88	19.32	-46.9	-49.5	17.2	0.00e+00	0	43	0	371195904	65	4861
2026-01-04 22:07:49.00	75.19	19.36	-46.8	-49.5	17.3	0.00e+00	0	42	0	373293056	65	4823
2026-01-04 22:07:49.71	75.36	19.38	-46.7	-49.4	17.3	0.00e+00	0	42	0	375390208	65	4775
2026-01-04 22:07:51.00	75.67	19.41	-46.7	-49.3	17.4	0.00e+00	0	42	0	377487360	65	4733
2026-01-04 22:07:51.72	75.85	19.43	-46.7	-49.3	17.4	0.00e+00	0	42	0	378535936	65	4720
2026-01-04 22:07:53.29	76.23	19.46	-46.8	-49.5	17.3	0.00e+00	0	43	0	381681664	65	4839
2026-01-04 22:07:53.93	76.38	19.48	-46.9	-49.6	17.2	0.00e+00	0	42	0	382730240	65	4885
2026-01-04 22:07:55.36	76.73	19.51	-47.0	-49.8	16.9	0.00e+00	0	42	0	385875968	65	5035
2026-01-04 22:07:56.07	76.90	19.53	-47.2	-50.0	16.8	0.00e+00	0	43	0	386924544	65	5147
2026-01-04 22:07:57.46	77.24	19.56	-47.3	-50.2	16.5	0.00e+00	0	42	0	390070272	65	5275
2026-01-04 22:07:58.18	77.41	19.57	-47.4	-50.3	16.4	0.00e+00	0	42	0	391118848	65	5325
2026-01-04 22:07:59.46	77.72	19.60	-47.5	-50.5	16.3	0.00e+00	0	42	0	393216000	65	5409
2026-01-04 22:08:00.18	77.90	19.61	-47.5	-50.4	16.4	0.00e+00	0	42	0	394264576	65	5353
2026-01-04 22:08:01.47	78.21	19.64	-47.3	-50.2	16.6	0.00e+00	0	42	0	397410304	65	5239
2026-01-04 22:08:02.19	78.39	19.65	-47.3	-50.2	16.6	0.00e+00	0	42	0	398458880	65	5223
2026-01-04 22:08:03.48	78.71	19.68	-47.1	-49.9	16.9	0.00e+00	0	42	0	400556032	65	5047
2026-01-04 22:08:04.20	78.88	19.69	-47.0	-49.8	17.0	0.00e+00	0	42	0	402653184	65	5018
2026-01-04 22:08:05.78	79.27	19.72	-47.0	-49.7	17.0	0.00e+00	0	43	0	404750336	65	4972
2026-01-04 22:08:06.35	79.41	19.73	-46.9	-49.7	17.1	0.00e+00	0	42	0	405798912	65	4972
2026-01-04 22:08:07.93	79.80	19.76	-47.1	-49.9	16.9	0.00e+00	0	42	0	408944640	65	5061
2026-01-04 22:08:08.52	79.94	19.76	-47.2	-50.0	16.8	0.00e+00	0	42	0	409993216	65	5120
2026-01-04 22:08:10.09	80.33	19.79	-47.2	-50.0	16.7	0.00e+00	0	42	0	413138944	65	5138
2026-01-04 22:08:10.72	80.49	19.80	-47.2	-50.1	16.7	0.00e+00	0	43	0	414187520	65	5162
2026-01-04 22:08:12.22	80.86	19.82	-47.2	-50.1	16.7	0.00e+00	0	42	0	417333248	65	5174
2026-01-04 22:08:12.93	81.03	19.83	-47.2	-50.0	16.7	0.00e+00	0	42	0	418381824	65	5120
2026-01-04 22:08:14.22	81.35	19.85	-47.1	-50.0	16.7	0.00e+00	0	42	0	421527552	65	5123
2026-01-04 22:08:14.93	81.53	19.86	-47.1	-49.9	16.9	0.00e+00	0	42	0	422576128	65	5072
2026-01-04 22:08:16.23	81.85	19.87	-47.1	-50.0	16.7	0.00e+00	0	43	0	424673280	65	5154
2026-01-04 22:08:16.94	82.03	19.88	-47.2	-50.1	16.7	0.00e+00	0	42	0	425721856	65	5194
2026-01-04 22:08:18.23	82.35	19.90	-47.4	-50.4	16.4	0.00e+00	0	43	0	428867584	65	5383
2026-01-04 22:08:18.95	82.53	19.90	-47.4	-50.4	16.3	0.00e+00	0	43	0	429916160	65	5390
2026-01-04 22:08:20.23	82.84	19.92	-47.5	-50.6	16.2	0.00e+00	0	43	0	432013312	65	5473
2026-01-04 22:08:20.95	83.02	19.92	-47.6	-50.7	16.1	0.00e+00	0	42	0	434110464	65	5551
2026-01-04 22:08:22.24	83.34	19.94	-47.8	-50.9	15.9	0.00e+00	0	42	0	436207616	66	5377
2026-01-04 22:08:22.95	83.52	19.94	-47.8	-50.9	15.9	0.00e+00	0	43	0	437256192	66	5368
2026-01-04 22:08:24.24	83.84	19.95	-47.8	-51.0	15.9	0.00e+00	0	43	0	439353344	66	5404
2026-01-04 22:08:24.96	84.02	19.96	-47.7	-50.8	16.0	0.00e+00	0	43	0	441450496	66	5339
2026-01-04 22:08:26.24	84.34	19.97	-47.6	-50.7	16.1	0.00e+00	0	42	0	443547648	66	5230
2026-01-04 22:08:26.96	84.52	19.97	-47.6	-50.7	16.1	0.00e+00	0	42	0	444596224	66	5247
2026-01-04 22:08:28.24	84.84	19.98	-47.5	-50.5	16.2	0.00e+00	0	42	0	447741952	66	5158
2026-01-04 22:08:28.96	85.02	19.98	-47.5	-50.5	16.3	0.00e+00	0	42	0	448790528	66	5113
2026-01-04 22:08:30.26	85.35	19.99	-47.4	-50.4	16.4	0.00e+00	0	42	0	450887680	66	5079
2026-01-04 22:08:30.98	85.53	19.99	-47.4	-50.4	16.4	0.00e+00	0	42	0	451936256	66	5066
2026-01-04 22:08:32.26	85.85	20.00	-47.1	-49.9	16.9	0.00e+00	0	42	0	455081984	66	4804
2026-01-04 22:08:32.99	86.03	20.00	-47.0	-49.8	17.0	0.00e+00	0	42	0	456130560	66	4744
2026-01-04 22:08:34.28	86.35	20.00	-46.9	-49.7	17.0	0.00e+00	0	43	0	458227712	65	4963
2026-01-04 22:08:34.99	86.53	20.01	-46.8	-49.6	17.2	0.00e+00	0	42	0	460324864	65	4874
2026-01-04 22:08:36.29	86.86	20.01	-46.8	-49.5	17.2	0.00e+00	0	42	0	462422016	65	4860
2026-01-04 22:08:37.00	87.03	20.01	-46.7	-49.5	17.2	0.00e+00	0	42	0	463470592	65	4845
2026-01-04 22:08:38.29	87.36	20.01	-46.9	-49.6	17.1	0.00e+00	0	42	0	466616320	65	4926
2026-01-04 22:08:39.07	87.55	20.01	-47.0	-49.8	16.9	0.00e+00	0	42	0	467664896	65	5001
2026-01-04 22:08:40.68	87.95	20.01	-47.2	-50.1	16.7	0.00e+00	0	42	0	470810624	65	5183
2026-01-04 22:08:41.25	88.10	20.01	-47.3	-50.2	16.6	0.00e+00	0	42	0	471859200	65	5225
2026-01-04 22:08:43.10	88.56	20.00	-47.3	-50.1	16.6	0.00e+00	0	42	0	475004928	65	5213
2026-01-04 22:08:43.67	88.70	20.00	-47.2	-50.1	16.7	0.00e+00	0	42	0	476053504	65	5193
2026-01-04 22:08:45.27	89.10	20.00	-47.2	-50.1	16.6	0.00e+00	0	43	0	479199232	65	5204
2026-01-04 22:08:45.84	89.25	20.00	-47.3	-50.1	16.6	0.00e+00	0	42	0	480247808	65	5214
2026-01-04 22:08:47.50	89.66	19.99	-47.2	-50.1	16.6	0.00e+00	0	43	0	483393536	65	5208
2026-01-04 22:08:48.07	89.80	19.99	-47.3	-50.2	16.6	0.00e+00	0	42	0	484442112	65	5234
2026-01-04 22:08:49.77	90.23	19.98	-47.4	-50.3	16.5	0.00e+00	0	43	0	487587840	65	5323
2026-01-04 22:08:50.35	90.37	19.97	-47.5	-50.4	16.3	0.00e+00	0	42	0	488636416	65	5395
2026-01-04 22:08:51.98	90.78	19.96	-47.4	-50.3	16.5	0.00e+00	0	42	0	491782144	65	5289
2026-01-04 22:08:52.55	90.92	19.96	-47.4	-50.3	16.5	0.00e+00	0	43	0	492830720	65	5304
2026-01-04 22:08:54.16	91.33	19.94	-47.4	-50.3	16.4	0.00e+00	0	43	0	495976448	65	5314
2026-01-04 22:08:54.73	91.47	19.94	-47.4	-50.3	16.4	0.00e+00	0	42	0	497025024	65	5310
2026-01-04 22:08:56.32	91.86	19.93	-47.3	-50.1	16.6	0.00e+00	0	42	0	500170752	65	5213
2026-01-04 22:08:57.05	92.05	19.92	-47.2	-50.0	16.7	0.00e+00	0	42	0	501219328	65	5127
2026-01-04 22:08:58.34	92.37	19.91	-47.0	-49.7	16.9	0.00e+00	0	42	0	503316480	65	4981
2026-01-04 22:08:59.25	92.59	19.90	-46.9	-49.6	17.2	0.00e+00	0	43	0	505413632	65	4892
2026-01-04 22:09:00.25	92.84	19.88	-46.8	-49.4	17.3	0.00e+00	0	43	0	507510784	65	4797
2026-01-04 22:09:01.25	93.09	19.87	-46.7	-49.3	17.4	0.00e+00	0	43	0	509607936	65	4743
2026-01-04 22:09:02.26	93.34	19.86	-46.7	-49.3	17.4	0.00e+00	0	42	0	510656512	65	4733
2026-01-04 22:09:03.26	93.59	19.85	-46.7	-49.4	17.4	0.00e+00	0	42	0	512753664	65	4763
2026-01-04 22:09:04.26	93.84	19.83	-46.9	-49.6	17.1	0.00e+00	0	43	0	514850816	65	4905
2026-01-04 22:09:05.26	94.08	19.82	-47.1	-49.8	16.9	0.00e+00	0	42	0	516947968	65	5030
2026-01-04 22:09:06.26	94.33	19.81	-47.2	-50.0	16.7	0.00e+00	0	42	0	519045120	65	5133
2026-01-04 22:09:07.26	94.58	19.79	-47.1	-49.9	16.8	0.00e+00	0	42	0	520093696	65	5099
2026-01-04 22:09:08.26	94.83	19.77	-47.0	-49.7	17.0	0.00e+00	0	43	0	522190848	65	4972
2026-01-04 22:09:09.34	95.09	19.76	-46.9	-49.6	17.1	0.00e+00	0	42	0	524288000	65	4921
2026-01-04 22:09:10.23	95.31	19.74	-46.8	-49.5	17.3	0.00e+00	0	43	0	526385152	65	4817
2026-01-04 22:09:11.38	95.59	19.72	-46.7	-49.3	17.4	0.00e+00	0	43	0	528482304	65	4748
2026-01-04 22:09:12.24	95.81	19.71	-46.6	-49.2	17.5	0.00e+00	0	42	0	529530880	65	4686
2026-01-04 22:09:13.39	96.09	19.69	-46.5	-49.1	17.6	0.00e+00	0	43	0	531628032	65	4610
2026-01-04 22:09:14.25	96.30	19.67	-46.5	-49.1	17.6	0.00e+00	0	42	0	533725184	64	4897
2026-01-04 22:09:15.40	96.58	19.65	-46.5	-49.1	17.7	0.00e+00	0	43	0	535822336	64	4887
2026-01-04 22:09:16.25	96.79	19.63	-46.4	-49.0	17.7	0.00e+00	0	43	0	536870912	64	4822
2026-01-04 22:09:17.40	97.07	19.61	-46.3	-48.8	17.8	0.00e+00	0	42	0	538968064	64	4748
2026-01-04 22:09:18.26	97.28	19.59	-46.2	-48.7	18.0	0.00e+00	0	42	0	541065216	64	4680
2026-01-04 22:09:19.40	97.56	19.57	-46.3	-48.8	17.9	0.00e+00	0	42	0	543162368	64	4717
2026-01-04 22:09:20.26	97.77	19.55	-46.4	-48.9	17.8	0.00e+00	0	43	0	545259520	64	4795
2026-01-04 22:09:21.41	98.05	19.52	-46.6	-49.2	17.5	0.00e+00	0	43	0	547356672	64	4983
2026-01-04 22:09:22.26	98.25	19.51	-46.8	-49.4	17.3	0.00e+00	0	43	0	548405248	64	5085
2026-01-04 22:09:23.41	98.53	19.48	-46.8	-49.5	17.2	0.00e+00	0	42	0	550502400	64	5150
2026-01-04 22:09:24.27	98.74	19.46	-46.9	-49.6	17.1	0.00e+00	0	43	0	552599552	64	5211
2026-01-04 22:09:25.62	99.07	19.43	-46.7	-49.3	17.4	0.00e+00	0	43	0	554696704	64	5007
2026-01-04 22:09:26.33	99.24	19.41	-46.5	-49.1	17.6	0.00e+00	0	43	0	555745280	64	4925
2026-01-04 22:09:27.83	99.60	19.37	-46.5	-49.1	17.6	0.00e+00	0	43	0	558891008	64	4899
2026-01-04 22:09:28.55	99.77	19.35	-46.6	-49.2	17.6	0.00e+00	0	43	0	559939584	64	4937
2026-01-04 22:09:29.83	100.08	19.32	-46.5	-49.0	17.7	0.00e+00	0	43	0	563085312	64	4856
2026-01-04 22:09:30.55	100.25	19.30	-46.5	-49.0	17.7	0.00e+00	0	43	0	564133888	64	4863
2026-01-04 22:09:31.84	100.56	19.27	-46.2	-48.7	18.0	0.00e+00	0	42	0	566231040	64	4669
2026-01-04 22:09:32.56	100.73	19.25	-46.2	-48.6	18.1	0.00e+00	0	43	0	568328192	64	4634
2026-01-04 22:09:33.85	101.04	19.21	-46.0	-48.4	18.3	0.00e+00	0	43	0	570425344	63	4810
2026-01-04 22:09:34.57	101.21	19.19	-45.8	-48.2	18.5	0.00e+00	0	42	0	571473920	63	4683
2026-01-04 22:09:35.85	101.52	19.15	-45.7	-48.1	18.6	0.00e+00	0	43	0	573571072	63	4605
2026-01-04 22:09:36.57	101.69	19.13	-45.8	-48.2	18.5	0.00e+00	0	42	0	575668224	63	4683
2026-01-04 22:09:37.86	101.99	19.09	-45.9	-48.3	18.4	0.00e+00	0	42	0	577765376	63	4728
2026-01-04 22:09:38.70	102.19	19.07	-46.0	-48.4	18.3	0.00e+00	0	43	0	579862528	63	4809
2026-01-04 22:09:39.85	102.46	19.03	-46.0	-48.5	18.3	0.00e+00	0	42	0	581959680	63	4837
2026-01-04 22:09:40.71	102.67	19.01	-46.1	-48.6	18.2	0.00e+00	0	43	0	583008256	63	4886
2026-01-04 22:09:41.85	102.93	18.97	-46.2	-48.7	18.1	0.00e+00	0	42	0	585105408	63	4973
2026-01-04 22:09:42.71	103.14	18.94	-46.2	-48.7	18.0	0.00e+00	0	43	0	587202560	63	4965
2026-01-04 22:09:43.85	103.40	18.91	-46.3	-48.8	17.9	0.00e+00	0	43	0	589299712	63	5022
2026-01-04 22:09:44.71	103.60	18.88	-46.2	-48.7	18.0	0.00e+00	0	43	0	590348288	63	4982
2026-01-04 22:09:45.86	103.87	18.84	-46.0	-48.4	18.3	0.00e+00	0	42	0	592445440	63	4803
2026-01-04 22:09:46.72	104.07	18.81	-45.9	-48.3	18.4	0.00e+00	0	43	0	594542592	63	4751
2026-01-04 22:09:47.86	104.33	18.77	-45.8	-48.2	18.5	0.00e+00	0	43	0	596639744	63	4696
2026-01-04 22:09:48.72	104.53	18.74	-45.8	-48.2	18.5	0.00e+00	0	43	0	598736896	63	4665
2026-01-04 22:09:50.10	104.85	18.69	-45.5	-47.9	18.8	0.00e+00	0	42	0	600834048	63	4506
2026-01-04 22:09:50.82	105.02	18.67	-45.5	-47.8	18.9	0.00e+00	0	42	0	601882624	63	4476
2026-01-04 22:09:52.11	105.31	18.62	-45.4	-47.7	19.0	0.00e+00	0	43	0	605028352	62	4673
2026-01-04 22:09:53.27	105.58	18.58	-45.4	-47.7	19.0	0.00e+00	0	43	0	607125504	62	4653
2026-01-04 22:09:54.12	105.78	18.55	-45.2	-47.5	19.2	0.00e+00	0	42	0	608174080	62	4573
2026-01-04 22:09:55.27	106.04	18.51	-45.2	-47.4	19.2	0.00e+00	0	42	0	610271232	62	4542
2026-01-04 22:09:56.13	106.23	18.48	-45.3	-47.5	19.1	0.00e+00	0	43	0	612368384	62	4595
2026-01-04 22:09:57.34	106.51	18.43	-45.2	-47.5	19.2	0.00e+00	0	42	0	614465536	62	4585
2026-01-04 22:09:58.20	106.70	18.40	-45.3	-47.6	19.1	0.00e+00	0	42	0	615514112	62	4629
2026-01-04 22:09:59.34	106.96	18.35	-45.3	-47.6	19.0	0.00e+00	0	42	0	617611264	62	4641
2026-01-04 22:10:00.20	107.15	18.32	-45.4	-47.7	19.0	0.00e+00	0	42	0	619708416	62	4690
2026-01-04 22:10:01.35	107.41	18.27	-45.6	-47.9	18.8	0.00e+00	0	43	0	621805568	62	4793
2026-01-04 22:10:02.20	107.60	18.24	-45.6	-48.0	18.7	0.00e+00	0	42	0	623902720	62	4846
2026-01-04 22:10:03.58	107.91	18.19	-45.8	-48.2	18.5	0.00e+00	0	43	0	625999872	62	4936
2026-01-04 22:10:04.30	108.07	18.16	-45.8	-48.2	18.5	0.00e+00	0	42	0	627048448	62	4961
2026-01-04 22:10:05.80	108.41	18.10	-45.8	-48.2	18.5	0.00e+00	0	42	0	630194176	62	4945
2026-01-04 22:10:06.51	108.56	18.07	-45.7	-48.1	18.6	0.00e+00	0	43	0	631242752	62	4923
2026-01-04 22:10:07.87	108.86	18.01	-45.8	-48.2	18.5	0.00e+00	0	43	0	634388480	62	4973
2026-01-04 22:10:08.58	109.02	17.98	-45.9	-48.3	18.4	0.00e+00	0	43	0	635437056	62	5004
2026-01-04 22:10:09.87	109.30	17.93	-46.1	-48.6	18.2	0.00e+00	0	43	0	637534208	62	5167
2026-01-04 22:10:10.59	109.46	17.90	-46.3	-48.8	17.9	0.00e+00	0	42	0	639631360	63	5020
2026-01-04 22:10:11.88	109.74	17.84	-46.4	-48.9	17.8	0.00e+00	0	43	0	641728512	63	5066
2026-01-04 22:10:12.59	109.90	17.81	-46.4	-48.9	17.8	0.00e+00	0	43	0	642777088	63	5063
2026-01-04 22:10:14.07	110.22	17.74	-46.2	-48.7	18.0	0.00e+00	0	42	0	645922816	63	4968
2026-01-04 22:10:15.06	110.43	17.70	-46.3	-48.8	18.0	0.00e+00	0	43	0	648019968	63	4992
2026-01-04 22:10:16.06	110.65	17.66	-46.4	-48.9	17.8	0.00e+00	0	43	0	649068544	63	5060
2026-01-04 22:10:17.45	110.95	17.59	-46.6	-49.1	17.6	0.00e+00	0	43	0	652214272	63	5215
2026-01-04 22:10:18.19	111.11	17.56	-46.6	-49.2	17.5	0.00e+00	0	43	0	653262848	63	5239
2026-01-04 22:10:19.48	111.38	17.50	-46.7	-49.4	17.3	0.00e+00	0	43	0	655360000	64	5056
2026-01-04 22:10:20.20	111.54	17.47	-46.6	-49.3	17.4	0.00e+00	0	43	0	657457152	64	4999
2026-01-04 22:10:21.49	111.81	17.41	-46.7	-49.4	17.3	0.00e+00	0	43	0	659554304	64	5075
2026-01-04 22:10:22.21	111.97	17.38	-46.7	-49.4	17.3	0.00e+00	0	43	0	660602880	64	5043
2026-01-04 22:10:23.49	112.24	17.32	-46.5	-49.2	17.5	0.00e+00	0	43	0	663748608	64	4946
2026-01-04 22:10:24.21	112.39	17.29	-46.5	-49.2	17.5	0.00e+00	0	42	0	664797184	64	4946
2026-01-04 22:10:25.58	112.68	17.22	-46.6	-49.3	17.4	0.00e+00	0	43	0	666894336	64	4992
2026-01-04 22:10:26.29	112.83	17.19	-46.7	-49.4	17.3	0.00e+00	0	43	0	668991488	64	5070
2026-01-04 22:10:27.69	113.12	17.12	-46.8	-49.4	17.2	0.00e+00	0	43	0	671088640	64	5095
2026-01-04 22:10:28.67	113.32	17.07	-46.9	-49.7	17.0	0.00e+00	0	43	0	673185792	64	5255
2026-01-04 22:10:29.67	113.53	17.03	-47.0	-49.9	16.8	0.00e+00	0	42	0	675282944	64	5342
2026-01-04 22:10:30.68	113.74	16.98	-47.2	-50.0	16.7	0.00e+00	0	43	0	677380096	65	5153
2026-01-04 22:10:31.68	113.94	16.93	-47.2	-50.0	16.6	0.00e+00	0	43	0	678428672	65	5152
2026-01-04 22:10:32.68	114.15	16.88	-47.1	-49.9	16.8	0.00e+00	0	43	0	680525824	65	5060
2026-01-04 22:10:33.68	114.35	16.83	-47.1	-49.8	16.9	0.00e+00	0	43	0	682622976	65	5013
2026-01-04 22:10:34.68	114.56	16.78	-46.9	-49.6	17.1	0.00e+00	0	43	0	684720128	65	4874
2026-01-04 22:10:35.68	114.76	16.73	-46.8	-49.5	17.2	0.00e+00	0	42	0	685768704	65	4836
2026-01-04 22:10:36.69	114.97	16.68	-46.8	-49.4	17.2	0.00e+00	0	42	0	687865856	65	4791
2026-01-04 22:10:37.69	115.17	16.63	-46.9	-49.6	17.1	0.00e+00	0	43	0	689963008	65	4892
2026-01-04 22:10:38.77	115.39	16.58	-46.8	-49.5	17.1	0.00e+00	0	43	0	692060160	65	4856
2026-01-04 22:10:39.66	115.57	16.53	-47.0	-49.7	17.0	0.00e+00	0	42	0	694157312	65	4962
2026-01-04 22:10:41.02	115.84	16.46	-47.1	-49.8	16.8	0.00e+00	0	43	0	696254464	65	5032
2026-01-04 22:10:41.73	115.98	16.42	-47.1	-49.8	16.9	0.00e+00	0	43	0	697303040	65	5026
2026-01-04 22:10:43.24	116.28	16.35	-47.1	-49.9	16.8	0.00e+00	0	43	0	700448768	65	5071
2026-01-04 22:10:43.96	116.42	16.31	-47.2	-50.1	16.6	0.00e+00	0	43	0	701497344	65	5179
2026-01-04 22:10:45.25	116.68	16.24	-47.2	-50.0	16.6	0.00e+00	0	43	0	704643072	65	5140
2026-01-04 22:10:45.96	116.82	16.21	-47.1	-49.9	16.8	0.00e+00	0	43	0	705691648	65	5048
2026-01-04 22:10:47.25	117.07	16.14	-47.0	-49.7	16.9	0.00e+00	0	43	0	707788800	65	4952
2026-01-04 22:10:47.96	117.21	16.10	-46.8	-49.5	17.2	0.00e+00	0	42	0	708837376	65	4819
2026-01-04 22:10:49.25	117.46	16.03	-46.6	-49.3	17.3	0.00e+00	0	43	0	711983104	65	4723
2026-01-04 22:10:49.97	117.60	16.00	-46.5	-49.1	17.5	0.00e+00	0	43	0	713031680	64	4908
2026-01-04 22:10:51.25	117.85	15.93	-46.3	-48.9	17.7	0.00e+00	0	43	0	715128832	64	4783
2026-01-04 22:10:52.07	118.00	15.88	-46.3	-48.9	17.8	0.00e+00	0	43	0	717225984	64	4770
2026-01-04 22:10:53.51	118.28	15.81	-46.3	-48.9	17.7	0.00e+00	0	43	0	719323136	64	4780
2026-01-04 22:10:54.23	118.42	15.77	-46.4	-49.0	17.6	0.00e+00	0	43	0	721420288	64	4856
2026-01-04 22:10:55.77	118.71	15.69	-46.3	-48.9	17.7	0.00e+00	0	43	0	723517440	64	4804
2026-01-04 22:10:56.48	118.85	15.65	-46.4	-49.0	17.6	0.00e+00	0	43	0	725614592	64	4867
2026-01-04 22:10:57.77	119.09	15.58	-46.4	-49.1	17.5	0.00e+00	0	42	0	727711744	64	4910
2026-01-04 22:10:58.49	119.23	15.54	-46.6	-49.2	17.4	0.00e+00	0	43	0	728760320	64	4961
2026-01-04 22:10:59.78	119.47	15.47	-46.7	-49.6	17.1	0.00e+00	0	43	0	731906048	64	5195
2026-01-04 22:11:00.49	119.60	15.43	-46.8	-49.8	16.8	0.00e+00	0	42	0	732954624	64	5309
2026-01-04 22:11:01.78	119.84	15.36	-47.4	-50.3	16.3	0.00e+00	0	43	0	735051776	65	5338
2026-01-04 22:11:02.49	119.97	15.32	-47.4	-50.5	16.1	0.00e+00	0	43	0	736100352	65	5442
2026-01-04 22:11:03.79	120.21	15.25	-47.7	-50.7	16.0	0.00e+00	0	43	0	739246080	65	5555
2026-01-04 22:11:04.50	120.34	15.21	-47.7	-50.7	15.9	0.00e+00	0	43	0	740294656	66	5268
2026-01-04 22:11:05.79	120.58	15.14	-47.5	-50.7	15.9	0.00e+00	0	43	0	742391808	66	5225
2026-01-04 22:11:06.62	120.73	15.09	-47.4	-50.3	16.3	0.00e+00	0	42	0	744488960	66	5006
2026-01-04 22:11:07.77	120.94	15.03	-47.3	-50.2	16.5	0.00e+00	0	43	0	746586112	66	4946
2026-01-04 22:11:08.63	121.10	14.98	-47.2	-50.0	16.6	0.00e+00	0	42	0	747634688	66	4860
2026-01-04 22:11:09.78	121.31	14.91	-46.7	-49.4	17.2	0.00e+00	0	43	0	749731840	65	4802
2026-01-04 22:11:10.64	121.46	14.86	-46.7	-49.4	17.2	0.00e+00	0	43	0	751828992	65	4804
2026-01-04 22:11:11.78	121.67	14.80	-46.8	-49.5	17.2	0.00e+00	0	43	0	753926144	65	4824
2026-01-04 22:11:12.64	121.82	14.75	-46.9	-49.6	17.0	0.00e+00	0	43	0	756023296	65	4908
2026-01-04 22:11:13.78	122.02	14.69	-46.7	-49.7	16.9	0.00e+00	0	43	0	758120448	65	4954
2026-01-04 22:11:14.64	122.18	14.64	-46.7	-49.7	17.0	0.00e+00	0	43	0	759169024	65	4938
2026-01-04 22:11:15.87	122.40	14.57	-46.9	-49.6	16.9	0.00e+00	0	43	0	761266176	65	4926
2026-01-04 22:11:16.73	122.55	14.52	-46.6	-49.6	17.1	0.00e+00	0	43	0	763363328	65	4879
2026-01-04 22:11:17.95	122.76	14.45	-46.6	-49.5	17.1	0.00e+00	0	42	0	765460480	65	4835
2026-01-04 22:11:18.81	122.91	14.40	-46.4	-49.2	17.4	0.00e+00	0	43	0	767557632	64	4933
2026-01-04 22:11:19.95	123.11	14.33	-46.5	-49.2	17.4	0.00e+00	0	43	0	769654784	64	4968
2026-01-04 22:11:20.81	123.26	14.29	-46.6	-49.3	17.3	0.00e+00	0	43	0	770703360	64	5021
2026-01-04 22:11:21.96	123.46	14.22	-46.7	-49.6	16.6	0.00e+00	0	43	0	772800512	64	5178
2026-01-04 22:11:22.82	123.61	14.17	-46.8	-49.7	16.9	7.94e-04	0	43	0	774897664	64	5231
2026-01-04 22:11:23.96	123.80	14.10	-46.8	-49.7	16.8	1.80e-04	0	43	0	776994816	64	5277
2026-01-04 22:11:24.82	123.95	14.05	-46.8	-49.8	16.6	3.96e-05	0	43	0	778043392	64	5283
2026-01-04 22:11:25.96	124.14	13.99	-46.7	-49.5	16.7	2.47e-03	0	43	0	780140544	64	5143
2026-01-04 22:11:26.82	124.29	13.94	-46.5	-49.5	16.9	5.57e-04	0	43	0	782237696	64	5138
2026-01-04 22:11:27.97	124.48	13.87	-46.6	-49.5	16.6	7.15e-03	0	43	0	784334848	64	5140
2026-01-04 22:11:28.83	124.63	13.82	-46.6	-49.6	16.5	8.69e-03	0	43	0	785383424	64	5187
2026-01-04 22:11:29.97	124.82	13.75	-46.2	-49.1	16.9	6.60e-03	0	43	0	788529152	64	4926
2026-01-04 22:11:30.84	124.97	13.70	-46.4	-49.3	16.8	9.74e-03	0	43	0	789577728	64	5032
2026-01-04 22:11:31.98	125.16	13.64	-46.4	-49.5	16.7	9.04e-03	0	43	0	791674880	64	5104
2026-01-04 22:11:32.84	125.30	13.59	-46.4	-49.6	16.5	8.37e-03	0	43	0	793772032	64	5191
2026-01-04 22:11:33.99	125.49	13.52	-46.5	-49.8	16.3	8.55e-03	0	43	0	795869184	64	5314
2026-01-04 22:11:34.85	125.63	13.47	-46.5	-49.8	16.3	8.86e-03	0	43	0	796917760	64	5297
2026-01-04 22:11:36.00	125.82	13.40	-46.5	-49.8	16.3	8.99e-03	0	43	0	799014912	64	5330
2026-01-04 22:11:36.85	125.96	13.35	-46.5	-49.7	16.4	8.77e-03	0	42	0	801112064	64	5226
2026-01-04 22:11:38.00	126.15	13.28	-45.9	-49.3	16.8	8.68e-03	0	42	0	803209216	63	5303
2026-01-04 22:11:38.86	126.28	13.23	-45.9	-49.2	16.9	8.93e-03	0	42	0	804257792	63	5233
2026-01-04 22:11:40.00	126.47	13.16	-45.9	-49.1	16.9	8.64e-03	0	42	0	806354944	63	5183
2026-01-04 22:11:40.86	126.61	13.11	-45.8	-49.1	16.9	8.68e-03	0	43	0	808452096	63	5185
2026-01-04 22:11:42.00	126.79	13.05	-46.1	-49.3	16.8	8.47e-03	0	42	0	810549248	63	5295
2026-01-04 22:11:42.86	126.93	13.00	-46.1	-49.5	16.7	8.37e-03	0	43	0	812646400	63	5441
2026-01-04 22:11:44.00	127.11	12.93	-46.2	-49.7	16.5	5.36e-03	0	42	0	814743552	63	5565
2026-01-04 22:11:44.86	127.24	12.88	-46.3	-50.0	16.2	7.93e-03	0	42	0	815792128	63	5755
2026-01-04 22:11:46.03	127.43	12.81	-46.4	-50.1	16.2	5.51e-03	0	43	0	817889280	63	5802
2026-01-04 22:11:46.89	127.56	12.76	-46.4	-50.1	16.1	7.74e-03	0	43	0	819986432	64	5465
2026-01-04 22:11:48.08	127.75	12.69	-46.8	-50.2	16.0	8.13e-03	0	43	0	822083584	64	5529
2026-01-04 22:11:48.94	127.88	12.63	-46.5	-49.9	16.3	6.18e-03	0	43	0	823132160	64	5342
2026-01-04 22:11:50.08	128.06	12.57	-46.3	-49.7	16.4	4.92e-03	0	43	0	825229312	64	5273
2026-01-04 22:11:50.94	128.19	12.51	-46.4	-49.6	16.5	6.25e-03	0	43	0	827326464	64	5218
2026-01-04 22:11:52.09	128.37	12.45	-46.4	-49.8	16.3	5.85e-03	0	43	0	829423616	64	5325
2026-01-04 22:11:52.95	128.50	12.39	-46.6	-50.0	16.1	8.48e-03	0	43	0	831520768	64	5456
2026-01-04 22:11:54.09	128.68	12.33	-46.7	-50.1	16.0	7.09e-03	0	43	0	833617920	64	5501
2026-01-04 22:11:54.95	128.81	12.27	-46.5	-50.2	15.9	8.21e-03	0	43	0	834666496	64	5578
2026-01-04 22:11:56.09	128.98	12.21	-46.6	-50.3	15.8	8.40e-03	0	43	0	836763648	64	5651
2026-01-04 22:11:57.21	129.15	12.14	-46.6	-50.3	15.8	5.70e-03	0	43	0	838860800	64	5641
2026-01-04 22:11:58.24	129.31	12.08	-47.2	-50.2	16.4	0.00e+00	0	43	0	840957952	65	5262
2026-01-04 22:11:59.24	129.45	12.02	-47.1	-50.0	16.6	0.00e+00	0	43	0	843055104	65	5134
2026-01-04 22:12:00.45	129.64	11.95	-47.2	-50.1	16.5	0.00e+00	0	43	0	845152256	65	5185
2026-01-04 22:12:01.34	129.77	11.89	-47.0	-49.8	16.8	0.00e+00	0	43	0	847249408	65	5002
2026-01-04 22:12:02.48	129.94	11.82	-46.8	-49.6	17.0	0.00e+00	0	43	0	849346560	65	4875
2026-01-04 22:12:03.34	130.06	11.77	-46.8	-49.6	17.0	0.00e+00	0	43	0	850395136	65	4886
2026-01-04 22:12:04.48	130.23	11.70	-46.9	-49.7	16.8	0.00e+00	0	43	0	852492288	65	4953
2026-01-04 22:12:05.34	130.36	11.65	-47.0	-49.8	16.8	0.00e+00	0	43	0	854589440	65	4993
2026-01-04 22:12:06.49	130.52	11.58	-47.2	-50.1	16.4	0.00e+00	0	43	0	856686592	65	5178
2026-01-04 22:12:07.35	130.65	11.53	-47.3	-50.3	16.2	0.00e+00	0	43	0	857735168	65	5309
2026-01-04 22:12:08.50	130.81	11.46	-47.5	-50.5	16.0	7.00e-07	0	43	0	859832320	65	5456
2026-01-04 22:12:09.36	130.94	11.41	-47.4	-50.5	16.0	0.00e+00	0	43	0	861929472	65	5457
2026-01-04 22:12:10.50	131.10	11.34	-47.6	-50.7	15.9	0.00e+00	0	43	0	864026624	65	5529
2026-01-04 22:12:11.36	131.22	11.29	-47.6	-50.6	15.9	0.00e+00	0	43	0	866123776	65	5513
2026-01-04 22:12:12.50	131.38	11.22	-47.5	-50.6	15.9	0.00e+00	0	42	0	868220928	65	5498
2026-01-04 22:12:13.37	131.51	11.17	-47.4	-50.6	15.9	0.00e+00	0	43	0	869269504	65	5469
2026-01-04 22:12:14.51	131.67	11.10	-47.4	-50.6	15.9	7.00e-07	0	43	0	871366656	65	5469
2026-01-04 22:12:15.37	131.79	11.05	-47.3	-50.4	16.1	0.00e+00	0	43	0	873463808	65	5377
2026-01-04 22:12:16.51	131.95	10.98	-47.3	-50.3	16.2	7.00e-07	0	43	0	875560960	65	5295
2026-01-04 22:12:17.37	132.07	10.93	-47.2	-50.2	16.2	0.00e+00	0	43	0	876609536	65	5261
2026-01-04 22:12:18.72	132.26	10.85	-47.4	-50.5	16.0	0.00e+00	0	43	0	879755264	65	5450
2026-01-04 22:12:19.44	132.35	10.80	-47.5	-50.5	16.0	0.00e+00	0	43	0	880803840	65	5463
2026-01-04 22:12:20.72	132.53	10.73	-47.6	-50.7	15.9	0.00e+00	0	42	0	882900992	65	5538
2026-01-04 22:12:21.44	132.63	10.68	-47.6	-50.7	15.8	0.00e+00	0	43	0	884998144	65	5562
2026-01-04 22:12:22.73	132.81	10.60	-47.7	-50.8	15.8	0.00e+00	0	43	0	887095296	66	5283
2026-01-04 22:12:23.44	132.90	10.56	-47.8	-51.0	15.6	0.00e+00	0	43	0	888143872	66	5410
2026-01-04 22:12:24.73	133.08	10.48	-47.5	-50.4	16.1	0.00e+00	0	43	0	890241024	66	5099
2026-01-04 22:12:25.45	133.17	10.44	-47.6	-50.6	16.0	0.00e+00	0	43	0	892338176	66	5174
2026-01-04 22:12:26.73	133.35	10.36	-47.7	-50.7	15.8	0.00e+00	0	43	0	894435328	66	5258
2026-01-04 22:12:27.45	133.44	10.32	-47.7	-50.8	15.8	0.00e+00	0	43	0	895483904	66	5281
2026-01-04 22:12:28.74	133.61	10.24	-47.7	-50.8	15.7	0.00e+00	0	43	0	898629632	66	5315
2026-01-04 22:12:29.45	133.71	10.20	-47.8	-50.9	15.6	0.00e+00	0	43	0	899678208	66	5375
2026-01-04 22:12:30.78	133.88	10.12	-47.9	-51.1	15.5	0.00e+00	0	43	0	901775360	66	5467
2026-01-04 22:12:31.49	133.98	10.08	-47.9	-51.1	15.4	0.00e+00	0	43	0	903872512	66	5528
2026-01-04 22:12:32.78	134.15	10.00	-48.1	-51.4	15.1	0.00e+00	0	42	0	905969664	66	5711
2026-01-04 22:12:33.50	134.24	9.96	-48.2	-51.6	14.9	0.00e+00	0	43	0	907018240	67	5488
2026-01-04 22:12:34.79	134.41	9.88	-48.4	-51.9	14.6	7.00e-07	0	43	0	909115392	67	5686
2026-01-04 22:12:35.50	134.50	9.84	-48.3	-51.8	14.7	0.00e+00	0	43	0	911212544	67	5634
2026-01-04 22:12:36.79	134.67	9.76	-48.3	-51.7	14.8	7.00e-07	0	43	0	913309696	67	5569
2026-01-04 22:12:37.51	134.76	9.72	-48.3	-51.7	14.7	0.00e+00	0	43	0	914358272	67	5566
2026-01-04 22:12:38.80	134.92	9.64	-48.2	-51.6	14.8	0.00e+00	0	42	0	917504000	67	5524
2026-01-04 22:12:39.60	135.03	9.59	-48.0	-51.3	15.1	0.00e+00	0	43	0	918552576	67	5329
2026-01-04 22:12:41.10	135.22	9.50	-47.9	-51.2	15.3	0.00e+00	0	43	0	921698304	67	5236
2026-01-04 22:12:41.81	135.31	9.46	-47.8	-50.9	15.5	0.00e+00	0	43	0	922746880	67	5093
2026-01-04 22:12:43.10	135.47	9.38	-47.6	-50.7	15.7	0.00e+00	0	43	0	924844032	67	4983
2026-01-04 22:12:43.82	135.56	9.34	-47.7	-50.8	15.7	0.00e+00	0	43	0	926941184	67	5011
2026-01-04 22:12:45.10	135.72	9.26	-47.7	-50.9	15.5	0.00e+00	0	43	0	929038336	67	5065
2026-01-04 22:12:45.82	135.81	9.22	-47.9	-51.1	15.4	0.00e+00	0	43	0	930086912	67	5175
2026-01-04 22:12:47.11	135.97	9.14	-47.9	-51.2	15.3	0.00e+00	0	43	0	932184064	67	5248
2026-01-04 22:12:47.82	136.06	9.10	-48.0	-51.3	15.2	0.00e+00	0	43	0	934281216	67	5310
2026-01-04 22:12:49.11	136.21	9.02	-48.1	-51.6	14.8	0.00e+00	0	43	0	936378368	67	5494
2026-01-04 22:12:49.83	136.30	8.98	-51.8	-60.1	7.2	3.00e-06	0	43	0	937426944	74	9818
2026-01-04 22:12:51.12	136.46	8.90	-52.8	-68.1	3.8	1.49e+00	0	43	104	938475520	76	21855
2026-01-04 22:12:51.83	136.55	8.86	-52.7	-68.1	3.8	1.49e+00	0	42	104	938475520	76	21982
2026-01-04 22:12:53.12	136.70	8.78	-53.1	-68.2	3.8	1.49e+00	0	43	104	938475520	76	22101
2026-01-04 22:12:53.84	136.79	8.74	-52.9	-68.2	3.8	1.49e+00	0	43	104	938475520	76	22238
2026-01-04 22:12:55.13	136.94	8.66	-53.1	-68.2	3.8	1.49e+00	0	43	104	938475520	76	22216
2026-01-04 22:12:55.90	137.03	8.62	-53.1	-68.3	3.8	1.49e+00	0	43	104	938475520	76	22294
2026-01-04 22:12:57.18	137.19	8.54	-53.1	-68.3	3.8	1.49e+00	0	43	104	938475520	76	22406
2026-01-04 22:12:57.95	137.28	8.49	-53.2	-68.4	3.8	1.49e+00	0	43	104	938475520	77	21271
2026-01-04 22:12:59.24	137.43	8.42	-53.0	-68.3	3.8	1.49e+00	0	43	104	938475520	77	21201
2026-01-04 22:12:59.97	137.52	8.37	-53.3	-68.4	3.8	1.49e+00	0	43	104	938475520	77	21318
2026-01-04 22:13:01.26	137.67	8.30	-53.2	-68.4	3.8	1.49e+00	0	43	104	938475520	77	21296
2026-01-04 22:13:01.98	137.75	8.26	-53.1	-68.4	3.8	1.49e+00	0	43	104	938475520	77	21314
2026-01-04 22:13:03.27	137.90	8.18	-53.3	-68.4	3.8	1.49e+00	0	43	104	938475520	77	21305
2026-01-04 22:13:03.99	137.98	8.14	-53.2	-68.4	3.8	1.49e+00	0	43	104	938475520	77	21394
2026-01-04 22:13:05.28	138.13	8.06	-53.1	-68.4	3.8	1.49e+00	0	43	104	938475520	77	21348
2026-01-04 22:13:06.00	138.22	8.02	-52.9	-68.4	3.8	1.49e+00	0	43	104	938475520	77	21408
2026-01-04 22:13:07.29	138.36	7.94	-52.8	-68.4	3.8	1.49e+00	0	43	104	938475520	77	21359
2026-01-04 22:13:08.00	138.44	7.90	-52.8	-68.4	3.8	1.49e+00	0	43	104	938475520	77	21420
2026-01-04 22:13:09.29	138.59	7.82	-52.9	-68.4	3.8	1.49e+00	0	43	104	938475520	77	21384
2026-01-04 22:13:10.01	138.67	7.78	-52.9	-68.4	3.8	1.49e+00	0	43	104	938475520	77	21445
2026-01-04 22:13:11.30	138.82	7.70	-52.9	-68.4	3.8	1.49e+00	0	43	104	938475520	77	21388
2026-01-04 22:13:12.02	138.90	7.66	-52.9	-68.4	3.8	1.49e+00	0	43	104	938475520	77	21384
2026-01-04 22:13:13.31	139.04	7.59	-52.9	-68.4	3.8	1.49e+00	0	43	104	938475520	77	21333
2026-01-04 22:13:14.03	139.12	7.54	-52.9	-68.4	3.8	1.49e+00	0	43	104	938475520	77	21292
2026-01-04 22:13:15.32	139.27	7.47	-52.9	-68.4	3.8	1.49e+00	0	43	104	938475520	77	21331
2026-01-04 22:13:16.04	139.35	7.43	-52.9	-68.4	3.8	1.49e+00	0	43	104	938475520	77	21322
2026-01-04 22:13:17.33	139.49	7.35	-52.9	-68.4	3.8	1.49e+00	0	43	104	938475520	77	21355
2026-01-04 22:13:18.04	139.56	7.31	-52.9	-68.4	3.8	1.49e+00	0	43	104	938475520	77	21287
2026-01-04 22:13:19.34	139.71	7.23	-52.9	-68.4	3.8	1.49e+00	0	43	104	938475520	77	21334
2026-01-04 22:13:20.05	139.78	7.19	-52.9	-68.4	3.8	1.49e+00	0	43	104	938475520	77	21331
2026-01-04 22:13:21.34	139.92	7.12	-52.9	-68.3	3.8	1.49e+00	0	43	104	938475520	77	21247
2026-01-04 22:13:22.06	140.00	7.07	-52.9	-68.4	3.8	1.49e+00	0	43	104	938475520	77	21291
2026-01-04 22:13:23.35	140.14	7.00	-52.9	-68.4	3.8	1.49e+00	0	43	104	938475520	77	21332
2026-01-04 22:13:24.07	140.22	6.96	-52.9	-68.4	3.8	1.49e+00	0	43	104	938475520	77	21359
2026-01-04 22:13:25.36	140.35	6.88	-52.9	-68.4	3.8	1.49e+00	0	43	104	938475520	77	21333
2026-01-04 22:13:26.08	140.43	6.84	-52.9	-68.4	3.8	1.49e+00	0	43	104	938475520	77	21329
2026-01-04 22:13:27.37	140.57	6.76	-52.9	-68.3	3.8	1.49e+00	0	43	104	938475520	77	21227
2026-01-04 22:13:28.09	140.64	6.72	-52.9	-68.4	3.8	1.49e+00	0	43	104	938475520	77	21276
2026-01-04 22:13:29.38	140.78	6.65	-52.9	-68.4	3.8	1.49e+00	0	43	104	938475520	77	21300
2026-01-04 22:13:30.09	140.85	6.61	-52.9	-68.4	3.8	1.49e+00	0	43	104	938475520	77	21329
2026-01-04 22:13:31.39	140.99	6.53	-52.9	-68.4	3.8	1.49e+00	0	43	104	938475520	77	21357
2026-01-04 22:13:32.10	141.06	6.49	-52.9	-68.3	3.8	1.49e+00	0	43	104	938475520	77	21251
2026-01-04 22:13:33.40	141.20	6.41	-52.9	-68.3	3.8	1.49e+00	0	43	104	938475520	77	21218
2026-01-04 22:13:34.11	141.27	6.37	-52.9	-68.3	3.8	1.49e+00	0	43	104	938475520	77	21237
2026-01-04 22:13:35.41	141.40	6.30	-52.9	-68.4	3.8	1.49e+00	0	43	104	938475520	77	21326
2026-01-04 22:13:36.12	141.48	6.26	-52.9	-68.4	3.8	1.49e+00	0	43	104	938475520	77	21298
2026-01-04 22:13:37.41	141.61	6.18	-52.9	-68.3	3.8	1.49e+00	0	43	104	938475520	77	21256
2026-01-04 22:13:38.13	141.68	6.14	-52.9	-68.4	3.8	1.49e+00	0	43	104	938475520	77	21304
2026-01-04 22:13:39.42	141.81	6.07	-52.9	-68.4	3.8	1.49e+00	0	43	104	938475520	77	21338
2026-01-04 22:13:40.14	141.88	6.03	-52.9	-68.4	3.8	1.49e+00	0	43	104	938475520	77	21310
2026-01-04 22:13:41.43	142.01	5.95	-52.9	-68.4	3.8	1.49e+00	0	43	104	938475520	77	21261
2026-01-04 22:13:42.15	142.08	5.91	-52.9	-68.4	3.8	1.49e+00	0	43	104	938475520	77	21347
2026-01-04 22:13:43.44	142.21	5.84	-52.9	-68.4	3.8	1.49e+00	0	43	104	938475520	77	21277
2026-01-04 22:13:44.15	142.28	5.80	-52.9	-68.4	3.8	1.49e+00	0	43	104	938475520	77	21302
2026-01-04 22:13:45.44	142.41	5.72	-52.9	-68.3	3.8	1.49e+00	0	43	104	938475520	77	21231
2026-01-04 22:13:46.16	142.48	5.68	-52.9	-68.4	3.8	1.49e+00	0	43	104	938475520	77	21403
2026-01-04 22:13:47.45	142.61	5.61	-52.9	-68.3	3.8	1.49e+00	0	43	104	938475520	77	21244
2026-01-04 22:13:48.17	142.68	5.57	-52.9	-68.4	3.8	1.49e+00	0	43	104	938475520	77	21365
2026-01-04 22:13:49.46	142.80	5.49	-52.9	-68.4	3.8	1.49e+00	0	43	104	938475520	77	21275
2026-01-04 22:13:50.18	142.87	5.45	-52.9	-68.3	3.8	1.49e+00	0	43	104	938475520	77	21245
2026-01-04 22:13:51.47	143.00	5.38	-52.9	-68.4	3.8	1.49e+00	0	43	104	938475520	77	21332
2026-01-04 22:13:52.19	143.07	5.34	-52.9	-68.4	3.8	1.49e+00	0	43	104	938475520	77	21293
2026-01-04 22:13:53.48	143.19	5.26	-52.9	-68.4	3.8	1.49e+00	0	43	104	938475520	77	21378
2026-01-04 22:13:54.19	143.26	5.22	-52.9	-68.3	3.8	1.49e+00	0	43	104	938475520	77	21247
2026-01-04 22:13:55.49	143.38	5.15	-52.9	-68.4	3.8	1.49e+00	0	43	104	938475520	77	21359
2026-01-04 22:13:56.20	143.45	5.11	-52.9	-68.4	3.8	1.49e+00	0	43	104	938475520	77	21346
2026-01-04 22:13:57.49	143.57	5.04	-52.9	-68.4	3.8	1.49e+00	0	43	104	938475520	77	21351
2026-01-04 22:13:58.21	143.64	5.00	-52.9	-68.4	3.8	1.49e+00	0	43	104	938475520	77	21350

#Closed at: 2026-01-04 22:13:59
#Recorded file [938 MB]: D:/Data/31040_260105_010318.dat