passes_logs/2026/01/04/T1/T1__20260104_154121_FENGYUN_3E_rec.log

#Pass ID: 20260104_154121_FENGYUN 3E
#Satellite: FENGYUN 3E
#Configuration: FENGYUN 3E
#almurnet v.1.7.20251203
#Start time: 2026-01-04 15:41:22

#Version: 2.0.20230620
#Station: T1
#Location: 37.570604 lon 55.790049 lat
#TLE: 1 49008U 21062A   26004.01270550 -.00000256  00000+0 -10014-3 0  9997
#TLE: 2 49008  98.7472   9.2701 0001499 161.2681 198.8551 14.19882497233285

#Time	Az	El	Level	Level2	SNR	BER	BlckErr	Temp	State	Recorded	gain1	gain2
2026-01-04 15:41:22.20	208.90	5.06	-53.7	-65.0	3.8	8.47e-01	0	41	0	0	78	12711
2026-01-04 15:41:23.19	208.98	5.11	-53.7	-65.0	3.8	8.46e-01	0	41	104	0	78	12745
2026-01-04 15:41:24.20	209.07	5.18	-53.7	-65.0	3.8	8.48e-01	0	41	104	0	78	12690
2026-01-04 15:41:25.20	209.15	5.24	-53.7	-64.9	3.8	8.47e-01	0	41	104	0	78	12646
2026-01-04 15:41:26.21	209.24	5.30	-53.7	-64.9	3.8	8.47e-01	0	41	104	0	78	12601
2026-01-04 15:41:27.21	209.32	5.36	-53.6	-64.9	3.8	8.48e-01	0	41	104	0	78	12544
2026-01-04 15:41:28.22	209.41	5.42	-53.6	-64.8	3.8	8.46e-01	0	41	104	0	78	12492
2026-01-04 15:41:29.22	209.49	5.48	-53.7	-64.8	3.8	8.47e-01	0	41	104	0	78	12457
2026-01-04 15:41:30.22	209.58	5.54	-53.6	-64.8	3.8	8.46e-01	0	41	104	0	78	12409
2026-01-04 15:41:31.23	209.66	5.60	-53.6	-64.7	3.8	8.47e-01	0	41	104	0	78	12362
2026-01-04 15:41:32.23	209.75	5.66	-53.6	-64.7	3.8	8.46e-01	0	41	104	0	78	12246
2026-01-04 15:41:33.24	209.84	5.73	-53.6	-64.6	3.8	8.47e-01	0	42	104	0	78	12216
2026-01-04 15:41:34.24	209.93	5.79	-53.6	-64.6	3.8	8.46e-01	0	42	104	0	78	12102
2026-01-04 15:41:35.24	210.01	5.85	-53.6	-64.6	3.8	8.46e-01	0	42	104	0	78	12130
2026-01-04 15:41:36.25	210.10	5.91	-53.6	-64.8	3.8	8.47e-01	0	42	104	0	78	12442
2026-01-04 15:41:37.25	210.19	5.97	-53.6	-64.8	3.8	8.47e-01	0	42	104	0	78	12437
2026-01-04 15:41:38.26	210.28	6.04	-53.6	-64.9	3.8	8.48e-01	0	42	104	0	78	12572
2026-01-04 15:41:39.26	210.37	6.10	-53.7	-64.9	3.8	8.47e-01	0	42	104	0	78	12574
2026-01-04 15:41:40.27	210.46	6.16	-53.7	-64.9	3.8	8.46e-01	0	42	104	0	78	12640
2026-01-04 15:41:41.27	210.55	6.22	-53.7	-65.0	3.8	8.47e-01	0	42	104	0	78	12688
2026-01-04 15:41:42.27	210.64	6.28	-53.6	-64.9	3.8	8.46e-01	0	42	104	0	78	12610
2026-01-04 15:41:43.28	210.73	6.35	-53.7	-64.8	3.8	8.47e-01	0	42	104	0	78	12468
2026-01-04 15:41:44.28	210.82	6.41	-53.6	-64.7	3.8	8.48e-01	0	42	104	0	78	12330
2026-01-04 15:41:45.29	210.91	6.47	-53.6	-64.4	3.8	8.48e-01	0	42	104	0	78	11881
2026-01-04 15:41:46.29	211.01	6.53	-53.6	-64.3	3.8	8.47e-01	0	42	104	0	78	11699
2026-01-04 15:41:47.29	211.10	6.60	-53.5	-64.2	3.8	8.47e-01	0	42	104	0	77	12260
2026-01-04 15:41:48.29	211.19	6.66	-53.5	-64.1	3.8	8.46e-01	0	42	104	0	77	12212
2026-01-04 15:41:49.30	211.28	6.72	-53.5	-64.2	3.8	8.47e-01	0	42	104	0	77	12292
2026-01-04 15:41:50.30	211.38	6.78	-53.6	-64.2	3.8	8.47e-01	0	42	104	0	77	12366
2026-01-04 15:41:51.31	211.47	6.85	-53.5	-64.1	3.8	8.47e-01	0	42	104	0	77	12233
2026-01-04 15:41:52.31	211.56	6.91	-53.5	-63.8	3.8	8.47e-01	0	42	104	0	77	11803
2026-01-04 15:41:53.32	211.66	6.98	-53.5	-63.7	3.8	8.46e-01	0	42	104	0	77	11562
2026-01-04 15:41:54.32	211.75	7.04	-53.4	-63.3	3.8	8.47e-01	0	42	104	0	77	11058
2026-01-04 15:41:55.32	211.85	7.10	-53.4	-63.2	3.8	8.46e-01	0	42	104	0	77	10977
2026-01-04 15:41:56.32	211.94	7.16	-53.4	-63.1	3.8	8.47e-01	0	42	104	0	77	10890
2026-01-04 15:41:57.33	212.04	7.23	-53.4	-63.3	3.8	8.46e-01	0	43	104	0	77	11078
2026-01-04 15:41:58.33	212.14	7.29	-53.5	-63.8	3.8	8.46e-01	0	43	104	0	77	11692
2026-01-04 15:41:59.34	212.24	7.36	-53.5	-64.2	3.8	8.46e-01	0	42	104	0	77	12268
2026-01-04 15:42:00.34	212.33	7.42	-53.6	-64.7	3.8	8.47e-01	0	42	104	0	77	12995
2026-01-04 15:42:01.34	212.43	7.48	-53.6	-64.5	3.8	8.47e-01	0	43	104	0	77	12700
2026-01-04 15:42:02.35	212.53	7.55	-53.5	-63.8	3.8	8.46e-01	0	43	104	0	77	11817
2026-01-04 15:42:03.35	212.63	7.61	-53.5	-63.2	3.8	8.46e-01	0	43	104	0	77	11021
2026-01-04 15:42:04.36	212.73	7.68	-53.4	-62.9	3.9	8.46e-01	0	43	104	0	77	10612
2026-01-04 15:42:05.36	212.83	7.74	-53.5	-63.4	3.8	8.47e-01	0	43	104	0	77	11172
2026-01-04 15:42:06.36	212.93	7.81	-53.6	-64.4	3.8	8.48e-01	0	43	104	0	77	12554
2026-01-04 15:42:07.37	213.03	7.87	-53.5	-64.1	3.8	8.46e-01	0	42	104	0	77	12108
2026-01-04 15:42:08.37	213.13	7.93	-53.0	-60.7	4.4	8.40e-01	0	43	0	0	76	8716
2026-01-04 15:42:09.37	213.23	8.00	-52.0	-56.9	6.9	3.44e-01	0	43	0	2097152	74	6302
2026-01-04 15:42:10.38	213.33	8.06	-50.6	-53.8	10.0	1.47e-02	0	43	0	9437184	71	5243
2026-01-04 15:42:11.38	213.43	8.13	-49.0	-51.3	12.6	2.77e-04	0	43	0	16777216	68	4680
2026-01-04 15:42:12.38	213.53	8.19	-47.4	-49.1	14.7	2.20e-06	0	43	0	24117248	65	4337
2026-01-04 15:42:13.39	213.64	8.26	-46.6	-48.2	15.7	0.00e+00	0	43	0	31457280	63	4351
2026-01-04 15:42:14.39	213.74	8.32	-45.8	-47.2	16.7	0.00e+00	0	43	0	38797312	62	4103
2026-01-04 15:42:15.39	213.85	8.39	-45.4	-46.7	17.2	0.00e+00	0	43	0	46137344	61	4113
2026-01-04 15:42:16.39	213.95	8.45	-45.4	-46.7	17.1	0.00e+00	0	43	0	53477376	61	4144
2026-01-04 15:42:17.39	214.05	8.52	-45.7	-47.0	16.9	0.00e+00	0	43	0	59768832	61	4282
2026-01-04 15:42:18.40	214.16	8.59	-46.0	-47.5	16.4	0.00e+00	0	43	0	67108864	61	4504
2026-01-04 15:42:19.40	214.26	8.65	-47.2	-48.8	15.1	0.00e+00	0	43	0	74448896	63	4693
2026-01-04 15:42:20.40	214.37	8.72	-48.2	-50.2	13.7	4.50e-06	0	43	0	81788928	65	4873
2026-01-04 15:42:21.41	214.48	8.78	-49.3	-51.7	12.0	1.19e-04	0	43	0	89128960	67	5187
2026-01-04 15:42:22.41	214.58	8.85	-50.5	-53.6	10.2	4.33e-03	0	43	0	96468992	70	5450
2026-01-04 15:42:23.42	214.69	8.91	-51.4	-55.3	8.4	3.00e-02	0	43	0	103809024	72	5919
2026-01-04 15:42:24.42	214.80	8.98	-51.8	-56.5	7.3	1.17e-01	0	43	0	111149056	73	6364
2026-01-04 15:42:25.42	214.91	9.05	-51.6	-55.8	8.0	2.11e-01	0	43	0	118489088	73	5888
2026-01-04 15:42:26.42	215.02	9.11	-49.5	-52.0	12.0	7.54e-03	0	43	0	125829120	69	4786
2026-01-04 15:42:27.42	215.13	9.18	-51.5	-55.6	8.2	8.85e-03	0	43	0	133169152	72	6114
2026-01-04 15:42:28.43	215.24	9.25	-52.6	-58.8	5.4	7.73e-01	0	43	0	135266304	75	7381
2026-01-04 15:42:29.43	215.35	9.31	-51.3	-55.3	8.3	2.37e-01	0	43	0	139460608	73	5552
2026-01-04 15:42:30.43	215.46	9.38	-50.5	-53.6	10.4	7.74e-03	0	43	0	146800640	71	5109
2026-01-04 15:42:31.44	215.57	9.45	-50.4	-53.3	10.6	3.36e-03	0	43	0	154140672	71	4955
2026-01-04 15:42:32.44	215.68	9.51	-50.2	-53.0	10.9	2.70e-03	0	43	0	161480704	71	4783
2026-01-04 15:42:33.45	215.79	9.58	-50.2	-53.0	11.1	1.82e-03	0	43	0	168820736	71	4770
2026-01-04 15:42:34.48	215.91	9.65	-49.3	-51.5	12.5	2.77e-04	0	43	0	176160768	69	4520
2026-01-04 15:42:35.48	216.02	9.71	-48.6	-50.4	13.6	1.60e-05	0	43	0	183500800	68	4240
2026-01-04 15:42:36.48	216.14	9.78	-48.5	-50.4	13.6	1.25e-05	0	43	0	190840832	67	4453
2026-01-04 15:42:37.48	216.25	9.85	-48.6	-50.6	13.4	2.17e-05	0	43	0	198180864	67	4552
2026-01-04 15:42:38.48	216.37	9.92	-47.5	-49.2	14.8	3.40e-06	0	43	0	205520896	66	4117
2026-01-04 15:42:39.49	216.48	9.98	-46.7	-48.2	15.8	0.00e+00	0	43	0	212860928	64	4116
2026-01-04 15:42:40.49	216.60	10.05	-46.6	-48.0	16.0	0.00e+00	0	43	0	219152384	63	4277
2026-01-04 15:42:41.49	216.71	10.12	-46.5	-47.9	16.2	0.00e+00	0	43	0	226492416	63	4200
2026-01-04 15:42:42.49	216.83	10.19	-46.4	-47.8	16.3	0.00e+00	0	43	0	233832448	63	4162
2026-01-04 15:42:43.50	216.95	10.25	-46.6	-48.0	16.0	0.00e+00	0	43	0	241172480	63	4273
2026-01-04 15:42:44.50	217.07	10.32	-46.5	-47.9	16.2	0.00e+00	0	43	0	248512512	63	4205
2026-01-04 15:42:45.50	217.18	10.39	-45.8	-47.1	17.0	0.00e+00	0	43	0	255852544	62	4068
2026-01-04 15:42:46.50	217.30	10.46	-45.4	-46.6	17.5	0.00e+00	0	43	0	263192576	61	4064
2026-01-04 15:42:47.50	217.42	10.52	-44.9	-46.0	18.0	0.00e+00	0	43	0	270532608	60	4043
2026-01-04 15:42:48.50	217.54	10.59	-44.6	-45.7	18.3	0.00e+00	0	43	0	277872640	60	3913
2026-01-04 15:42:49.54	217.67	10.66	-44.8	-45.9	18.1	0.00e+00	0	43	0	285212672	60	3995
2026-01-04 15:42:50.54	217.79	10.73	-44.6	-45.7	18.3	0.00e+00	0	43	0	292552704	60	3893
2026-01-04 15:42:51.54	217.91	10.80	-44.3	-45.3	18.5	0.00e+00	0	43	0	299892736	59	3945
2026-01-04 15:42:52.54	218.03	10.87	-44.2	-45.3	18.6	0.00e+00	0	43	0	306184192	59	3927
2026-01-04 15:42:53.54	218.15	10.93	-44.0	-45.0	18.8	0.00e+00	0	43	0	313524224	58	4042
2026-01-04 15:42:54.55	218.28	11.00	-43.8	-44.8	19.1	0.00e+00	0	43	0	320864256	58	3930
2026-01-04 15:42:55.55	218.40	11.07	-43.7	-44.8	19.1	0.00e+00	0	43	0	328204288	58	3918
2026-01-04 15:42:56.55	218.53	11.14	-43.7	-44.8	19.1	0.00e+00	0	43	0	335544320	58	3927
2026-01-04 15:42:57.55	218.65	11.21	-43.7	-44.8	19.0	0.00e+00	0	43	0	342884352	58	3931
2026-01-04 15:42:58.55	218.78	11.28	-43.9	-44.9	18.9	0.00e+00	0	43	0	350224384	58	3987
2026-01-04 15:42:59.55	218.90	11.35	-44.0	-45.1	18.8	0.00e+00	0	43	0	357564416	58	4075
2026-01-04 15:43:00.56	219.03	11.42	-43.9	-45.0	18.9	0.00e+00	0	43	0	364904448	58	4008
2026-01-04 15:43:01.56	219.16	11.48	-44.0	-45.1	18.8	0.00e+00	0	43	0	372244480	58	4058
2026-01-04 15:43:02.56	219.28	11.55	-44.1	-45.2	18.7	0.00e+00	0	43	0	379584512	58	4100
2026-01-04 15:43:03.56	219.41	11.62	-44.1	-45.1	18.8	0.00e+00	0	43	0	385875968	58	4094
2026-01-04 15:43:04.56	219.54	11.69	-44.0	-45.1	18.8	0.00e+00	0	43	0	393216000	58	4079
2026-01-04 15:43:05.56	219.67	11.76	-44.0	-45.1	18.8	0.00e+00	0	43	0	400556032	58	4070
2026-01-04 15:43:06.56	219.80	11.83	-44.0	-45.1	18.8	0.00e+00	0	43	0	407896064	58	4063
2026-01-04 15:43:07.56	219.93	11.90	-44.0	-45.0	18.8	0.00e+00	0	43	0	415236096	58	4050
2026-01-04 15:43:08.57	220.06	11.97	-43.9	-45.0	18.9	0.00e+00	0	43	0	422576128	58	4009
2026-01-04 15:43:09.57	220.19	12.04	-43.8	-44.9	19.0	0.00e+00	0	43	0	429916160	58	3970
2026-01-04 15:43:10.57	220.33	12.11	-43.8	-44.9	19.0	0.00e+00	0	43	0	437256192	58	3977
2026-01-04 15:43:11.57	220.46	12.18	-43.8	-44.9	19.0	0.00e+00	0	43	0	444596224	58	3987
2026-01-04 15:43:12.57	220.59	12.25	-43.7	-44.8	19.1	0.00e+00	0	43	0	450887680	58	3926
2026-01-04 15:43:13.57	220.73	12.32	-43.9	-44.9	19.0	0.00e+00	0	43	0	458227712	58	3983
2026-01-04 15:43:14.57	220.86	12.39	-43.8	-44.9	19.1	0.00e+00	0	44	0	465567744	58	3970
2026-01-04 15:43:15.58	221.00	12.46	-43.7	-44.8	19.1	0.00e+00	0	43	0	472907776	58	3921
2026-01-04 15:43:16.58	221.13	12.53	-43.7	-44.7	19.2	0.00e+00	0	43	0	480247808	58	3898
2026-01-04 15:43:17.58	221.27	12.59	-43.7	-44.7	19.1	0.00e+00	0	43	0	487587840	58	3906
2026-01-04 15:43:18.58	221.41	12.66	-43.6	-44.6	19.2	0.00e+00	0	44	0	494927872	58	3857
2026-01-04 15:43:19.58	221.55	12.73	-43.5	-44.6	19.3	0.00e+00	0	43	0	502267904	57	4058
2026-01-04 15:43:20.58	221.68	12.80	-43.6	-44.6	19.3	0.00e+00	0	43	0	509607936	57	4063
2026-01-04 15:43:21.59	221.83	12.88	-43.4	-44.4	19.5	0.00e+00	0	43	0	515899392	57	3988
2026-01-04 15:43:22.59	221.97	12.95	-43.4	-44.4	19.5	0.00e+00	0	44	0	523239424	57	3993
2026-01-04 15:43:23.59	222.11	13.02	-43.4	-44.5	19.4	0.00e+00	0	44	0	530579456	57	4007
2026-01-04 15:43:24.84	222.28	13.10	-43.4	-44.4	19.5	0.00e+00	0	44	0	540016640	57	3994
2026-01-04 15:43:25.64	222.40	13.16	-43.3	-44.3	19.5	0.00e+00	0	44	0	545259520	57	3958
2026-01-04 15:43:27.05	222.60	13.26	-43.3	-44.3	19.6	0.00e+00	0	43	0	555745280	57	3932
2026-01-04 15:43:28.16	222.76	13.34	-43.3	-44.3	19.6	0.00e+00	0	44	0	564133888	57	3942
2026-01-04 15:43:29.33	222.92	13.42	-43.3	-44.3	19.6	0.00e+00	0	44	0	572522496	57	3925
2026-01-04 15:43:30.19	223.05	13.48	-43.2	-44.2	19.7	0.00e+00	0	44	0	578813952	57	3897
2026-01-04 15:43:31.34	223.22	13.56	-43.2	-44.2	19.7	0.00e+00	0	44	0	587202560	57	3889
2026-01-04 15:43:32.19	223.34	13.62	-43.1	-44.1	19.8	0.00e+00	0	44	0	592445440	57	3841
2026-01-04 15:43:33.34	223.51	13.70	-43.2	-44.2	19.7	0.00e+00	0	44	0	600834048	57	3881
2026-01-04 15:43:34.20	223.64	13.76	-43.3	-44.2	19.7	0.00e+00	0	44	0	607125504	57	3901
2026-01-04 15:43:35.34	223.81	13.84	-43.3	-44.2	19.6	0.00e+00	0	44	0	615514112	57	3913
2026-01-04 15:43:36.19	223.93	13.90	-43.2	-44.1	19.8	0.00e+00	0	44	0	621805568	57	3859
2026-01-04 15:43:37.34	224.10	13.98	-43.1	-44.0	19.9	0.00e+00	0	44	0	630194176	56	4039
2026-01-04 15:43:38.20	224.23	14.04	-43.1	-44.1	19.8	0.00e+00	0	43	0	636485632	56	4070
2026-01-04 15:43:39.34	224.41	14.12	-43.2	-44.1	19.8	0.00e+00	0	44	0	644874240	56	4087
2026-01-04 15:43:40.20	224.54	14.18	-43.1	-44.1	19.9	0.00e+00	0	43	0	651165696	56	4060
2026-01-04 15:43:41.35	224.71	14.27	-43.2	-44.1	19.8	0.00e+00	0	43	0	658505728	56	4098
2026-01-04 15:43:42.21	224.84	14.33	-43.1	-44.1	19.8	0.00e+00	0	43	0	665845760	56	4068
2026-01-04 15:43:43.35	225.02	14.41	-43.0	-44.0	19.9	0.00e+00	0	44	0	673185792	56	4006
2026-01-04 15:43:44.20	225.15	14.47	-43.0	-43.9	20.0	0.00e+00	0	44	0	679477248	56	3998
2026-01-04 15:43:45.35	225.33	14.55	-43.0	-44.0	19.9	0.00e+00	0	43	0	687865856	56	4027
2026-01-04 15:43:46.21	225.46	14.61	-42.9	-43.8	20.1	0.00e+00	0	43	0	694157312	56	3951
2026-01-04 15:43:47.35	225.64	14.69	-42.9	-43.8	20.1	0.00e+00	0	44	0	702545920	56	3946
2026-01-04 15:43:48.21	225.78	14.75	-42.8	-43.7	20.2	0.00e+00	0	43	0	708837376	56	3899
2026-01-04 15:43:49.36	225.96	14.83	-42.8	-43.8	20.1	0.00e+00	0	43	0	717225984	56	3931
2026-01-04 15:43:50.22	226.10	14.89	-42.7	-43.6	20.3	0.00e+00	0	43	0	723517440	56	3868
2026-01-04 15:43:51.42	226.29	14.98	-42.7	-43.6	20.3	0.00e+00	0	44	0	731906048	56	3844
2026-01-04 15:43:52.28	226.42	15.04	-42.6	-43.5	20.4	0.00e+00	0	44	0	738197504	56	3821
2026-01-04 15:43:53.49	226.62	15.12	-42.3	-43.2	20.5	0.00e+00	0	44	0	746586112	55	3910
2026-01-04 15:43:54.35	226.76	15.19	-42.3	-43.2	20.5	0.00e+00	0	44	0	752877568	55	3885
2026-01-04 15:43:55.49	226.94	15.27	-42.2	-43.1	20.6	0.00e+00	0	44	0	761266176	55	3834
2026-01-04 15:43:56.35	227.08	15.33	-42.2	-43.1	20.6	0.00e+00	0	44	0	767557632	55	3843
2026-01-04 15:43:57.49	227.27	15.41	-42.3	-43.2	20.5	0.00e+00	0	44	0	775946240	55	3890
2026-01-04 15:43:58.35	227.41	15.47	-42.3	-43.2	20.5	0.00e+00	0	43	0	782237696	55	3875
2026-01-04 15:43:59.50	227.60	15.55	-42.3	-43.2	20.5	0.00e+00	0	43	0	789577728	55	3874
2026-01-04 15:44:00.36	227.75	15.61	-42.3	-43.3	20.5	0.00e+00	0	43	0	796917760	55	3917
2026-01-04 15:44:01.50	227.94	15.69	-42.4	-43.4	20.4	0.00e+00	0	43	0	804257792	55	3968
2026-01-04 15:44:02.36	228.08	15.75	-42.5	-43.4	20.3	0.00e+00	0	43	0	810549248	55	3990
2026-01-04 15:44:03.51	228.28	15.83	-42.4	-43.4	20.4	0.00e+00	0	44	0	818937856	55	3970
2026-01-04 15:44:04.37	228.42	15.89	-42.6	-43.5	20.2	0.00e+00	0	44	0	825229312	55	4048
2026-01-04 15:44:05.51	228.62	15.97	-42.6	-43.6	20.2	0.00e+00	0	44	0	833617920	55	4080
2026-01-04 15:44:06.36	228.76	16.03	-42.5	-43.5	20.3	0.00e+00	0	43	0	839909376	55	4006
2026-01-04 15:44:07.51	228.96	16.11	-42.5	-43.4	20.3	0.00e+00	0	44	0	848297984	55	3994
2026-01-04 15:44:08.36	229.11	16.17	-42.3	-43.2	20.5	0.00e+00	0	43	0	854589440	55	3912
2026-01-04 15:44:09.51	229.31	16.26	-42.2	-43.1	20.6	0.00e+00	0	43	0	862978048	55	3843
2026-01-04 15:44:10.37	229.46	16.32	-42.2	-43.2	20.5	0.00e+00	0	44	0	868220928	55	3879
2026-01-04 15:44:11.51	229.66	16.40	-42.3	-43.2	20.5	0.00e+00	0	44	0	876609536	55	3886
2026-01-04 15:44:12.37	229.81	16.46	-42.2	-43.1	20.6	0.00e+00	0	44	0	882900992	55	3846
2026-01-04 15:44:13.63	230.03	16.55	-42.1	-43.1	20.6	0.00e+00	0	44	0	892338176	55	3830
2026-01-04 15:44:14.40	230.17	16.60	-42.3	-43.2	20.5	0.00e+00	0	44	0	897581056	55	3897
2026-01-04 15:44:15.69	230.40	16.69	-42.5	-43.4	20.3	0.00e+00	0	44	0	907018240	55	3990
2026-01-04 15:44:16.40	230.52	16.74	-42.6	-43.6	20.2	0.00e+00	0	44	0	912261120	55	4052
2026-01-04 15:44:17.69	230.76	16.83	-42.4	-43.4	20.4	0.00e+00	0	44	0	921698304	55	3973
2026-01-04 15:44:18.40	230.88	16.88	-42.3	-43.2	20.5	0.00e+00	0	44	0	926941184	55	3894
2026-01-04 15:44:19.69	231.12	16.97	-42.0	-43.0	20.7	0.00e+00	0	44	0	935329792	54	4015
2026-01-04 15:44:20.41	231.25	17.02	-42.0	-42.9	20.8	0.00e+00	0	44	0	941621248	54	3975
2026-01-04 15:44:21.70	231.49	17.11	-42.0	-42.9	20.8	0.00e+00	0	44	0	951058432	54	3985
2026-01-04 15:44:22.42	231.62	17.16	-42.0	-42.9	20.8	0.00e+00	0	43	0	955252736	54	3976
2026-01-04 15:44:23.71	231.86	17.25	-41.9	-42.8	20.9	0.00e+00	0	44	0	964689920	54	3938
2026-01-04 15:44:24.69	232.04	17.32	-41.9	-42.8	20.9	0.00e+00	0	44	0	972029952	54	3934
2026-01-04 15:44:25.70	232.23	17.39	-41.9	-42.8	20.9	0.00e+00	0	44	0	979369984	54	3921
2026-01-04 15:44:26.69	232.41	17.45	-41.9	-42.9	20.8	0.00e+00	0	44	0	986710016	54	3960
2026-01-04 15:44:27.69	232.60	17.52	-42.1	-43.0	20.7	0.00e+00	0	44	0	993001472	54	4043
2026-01-04 15:44:28.70	232.79	17.59	-42.2	-43.2	20.6	0.00e+00	0	44	0	1000341504	54	4102
2026-01-04 15:44:29.69	232.98	17.66	-42.1	-43.0	20.7	0.00e+00	0	44	0	1007681536	54	4043
2026-01-04 15:44:30.70	233.17	17.73	-42.1	-43.1	20.7	0.00e+00	0	44	0	1015021568	54	4056
2026-01-04 15:44:31.77	233.38	17.80	-42.0	-43.0	20.8	0.00e+00	0	44	0	1023410176	54	4018
2026-01-04 15:44:32.66	233.55	17.87	-42.0	-42.9	20.8	0.00e+00	0	44	0	1029701632	54	3987
2026-01-04 15:44:33.80	233.77	17.94	-42.0	-43.0	20.8	0.00e+00	0	44	0	1037041664	54	4005
2026-01-04 15:44:34.66	233.94	18.00	-42.1	-43.0	20.7	0.00e+00	0	44	0	1044381696	54	4050
2026-01-04 15:44:36.06	234.21	18.10	-41.9	-42.8	21.0	0.00e+00	0	44	0	1053818880	54	3929
2026-01-04 15:44:36.78	234.35	18.15	-41.9	-42.8	20.9	0.00e+00	0	44	0	1059061760	54	3936
2026-01-04 15:44:38.06	234.61	18.23	-41.9	-42.8	20.9	0.00e+00	0	44	0	1068498944	54	3934
2026-01-04 15:44:38.78	234.75	18.28	-41.9	-42.8	21.0	0.00e+00	0	44	0	1073741824	54	3945
2026-01-04 15:44:40.07	235.00	18.37	-41.8	-42.7	21.0	0.00e+00	0	43	0	1083179008	54	3908
2026-01-04 15:44:40.86	235.16	18.42	-41.9	-42.8	21.0	0.00e+00	0	44	0	1088421888	54	3920
2026-01-04 15:44:42.01	235.39	18.50	-41.8	-42.7	21.0	0.00e+00	0	44	0	1096810496	54	3894
2026-01-04 15:44:42.87	235.57	18.56	-41.8	-42.7	21.0	0.00e+00	0	44	0	1103101952	54	3883
2026-01-04 15:44:44.01	235.80	18.63	-41.9	-42.8	21.0	0.00e+00	0	44	0	1111490560	54	3921
2026-01-04 15:44:44.86	235.97	18.69	-41.9	-42.8	20.9	0.00e+00	0	44	0	1117782016	54	3954
2026-01-04 15:44:46.01	236.20	18.77	-41.9	-42.8	20.9	0.00e+00	0	44	0	1126170624	54	3955
2026-01-04 15:44:46.87	236.38	18.82	-41.7	-42.6	21.2	0.00e+00	0	43	0	1132462080	54	3844
2026-01-04 15:44:48.02	236.62	18.90	-41.9	-42.8	20.9	0.00e+00	0	44	0	1140850688	54	3933
2026-01-04 15:44:48.87	236.79	18.96	-41.9	-42.8	20.9	0.00e+00	0	44	0	1146093568	54	3945
2026-01-04 15:44:50.12	237.05	19.04	-41.7	-42.6	21.1	0.00e+00	0	44	0	1155530752	54	3861
2026-01-04 15:44:50.91	237.22	19.09	-41.8	-42.7	21.0	0.00e+00	0	44	0	1161822208	54	3907
2026-01-04 15:44:52.09	237.46	19.17	-41.6	-42.6	21.2	0.00e+00	0	44	0	1169162240	54	3826
2026-01-04 15:44:52.95	237.64	19.22	-41.5	-42.5	21.2	0.00e+00	0	44	0	1176502272	53	4009
2026-01-04 15:44:54.09	237.88	19.30	-41.5	-42.4	21.2	0.00e+00	0	44	0	1183842304	53	3993
2026-01-04 15:44:54.95	238.07	19.35	-41.5	-42.5	21.2	0.00e+00	0	44	0	1190133760	53	4010
2026-01-04 15:44:56.09	238.31	19.43	-41.5	-42.5	21.1	0.00e+00	0	44	0	1198522368	53	4019
2026-01-04 15:44:57.04	238.51	19.49	-41.6	-42.6	21.1	0.00e+00	0	44	0	1205862400	53	4060
2026-01-04 15:44:58.04	238.73	19.55	-41.7	-42.7	21.0	0.00e+00	0	44	0	1212153856	53	4109
2026-01-04 15:44:59.04	238.94	19.62	-41.6	-42.5	21.2	0.00e+00	0	44	0	1219493888	53	4024
2026-01-04 15:45:00.04	239.16	19.68	-41.5	-42.5	21.2	0.00e+00	0	44	0	1226833920	53	4007
2026-01-04 15:45:01.04	239.38	19.74	-41.7	-42.6	21.1	0.00e+00	0	44	0	1234173952	53	4069
2026-01-04 15:45:02.04	239.59	19.81	-41.6	-42.5	21.2	0.00e+00	0	44	0	1241513984	53	4015
2026-01-04 15:45:03.04	239.81	19.87	-41.5	-42.3	21.3	0.00e+00	0	44	0	1248854016	53	3952
2026-01-04 15:45:04.04	240.03	19.93	-41.3	-42.2	21.5	0.00e+00	0	44	0	1256194048	53	3898
2026-01-04 15:45:05.04	240.25	19.99	-41.4	-42.2	21.4	0.00e+00	0	44	0	1263534080	53	3900
2026-01-04 15:45:06.04	240.47	20.06	-41.5	-42.4	21.3	0.00e+00	0	44	0	1269825536	53	3971
2026-01-04 15:45:07.04	240.70	20.12	-41.3	-42.2	21.4	0.00e+00	0	44	0	1277165568	53	3901
2026-01-04 15:45:08.04	240.92	20.18	-41.4	-42.3	21.4	0.00e+00	0	44	0	1284505600	53	3933
2026-01-04 15:45:09.04	241.14	20.24	-41.5	-42.4	21.3	0.00e+00	0	44	0	1291845632	53	3990
2026-01-04 15:45:10.04	241.37	20.30	-41.4	-42.3	21.3	0.00e+00	0	44	0	1299185664	53	3958
2026-01-04 15:45:11.04	241.59	20.36	-41.3	-42.2	21.4	0.00e+00	0	44	0	1306525696	53	3895
2026-01-04 15:45:12.04	241.82	20.42	-41.3	-42.1	21.5	0.00e+00	0	44	0	1313865728	53	3863
2026-01-04 15:45:13.04	242.05	20.48	-41.3	-42.2	21.5	0.00e+00	0	44	0	1321205760	53	3888
2026-01-04 15:45:14.04	242.28	20.54	-41.1	-42.0	21.6	0.00e+00	0	44	0	1328545792	53	3786
2026-01-04 15:45:15.04	242.51	20.60	-41.2	-42.0	21.6	0.00e+00	0	44	0	1334837248	53	3824
2026-01-04 15:45:16.04	242.74	20.66	-41.3	-42.1	21.5	0.00e+00	0	44	0	1342177280	53	3855
2026-01-04 15:45:17.04	242.97	20.72	-41.3	-42.2	21.4	0.00e+00	0	44	0	1349517312	53	3876
2026-01-04 15:45:18.04	243.20	20.78	-41.3	-42.2	21.5	0.00e+00	0	44	0	1356857344	53	3896
2026-01-04 15:45:19.04	243.43	20.84	-41.4	-42.3	21.4	0.00e+00	0	44	0	1364197376	53	3918
2026-01-04 15:45:20.04	243.67	20.89	-41.3	-42.2	21.5	0.00e+00	0	44	0	1371537408	53	3896
2026-01-04 15:45:21.04	243.90	20.95	-41.4	-42.3	21.4	0.00e+00	0	44	0	1378877440	53	3915
2026-01-04 15:45:22.05	244.14	21.01	-41.3	-42.2	21.5	0.00e+00	0	44	0	1386217472	53	3886
2026-01-04 15:45:23.04	244.37	21.07	-41.3	-42.2	21.5	0.00e+00	0	44	0	1393557504	53	3876
2026-01-04 15:45:24.05	244.61	21.12	-41.2	-42.1	21.5	0.00e+00	0	44	0	1399848960	53	3846
2026-01-04 15:45:25.05	244.85	21.18	-41.4	-42.3	21.4	0.00e+00	0	44	0	1407188992	53	3945
2026-01-04 15:45:26.05	245.09	21.23	-41.4	-42.3	21.4	0.00e+00	0	44	0	1415577600	53	3952
2026-01-04 15:45:27.05	245.33	21.29	-41.5	-42.4	21.3	0.00e+00	0	44	0	1421869056	53	3999
2026-01-04 15:45:28.06	245.57	21.35	-41.6	-42.5	21.2	0.00e+00	0	44	0	1429209088	53	4020
2026-01-04 15:45:29.06	245.81	21.40	-41.5	-42.4	21.3	0.00e+00	0	44	0	1436549120	53	3973
2026-01-04 15:45:30.06	246.05	21.45	-41.3	-42.2	21.5	0.00e+00	0	44	0	1443889152	53	3894
2026-01-04 15:45:31.10	246.31	21.51	-41.3	-42.2	21.5	0.00e+00	0	44	0	1451229184	53	3878
2026-01-04 15:45:32.09	246.55	21.56	-41.1	-41.9	21.7	0.00e+00	0	44	0	1458569216	52	3981
2026-01-04 15:45:33.16	246.81	21.62	-41.1	-41.9	21.7	0.00e+00	0	44	0	1465909248	52	3979
2026-01-04 15:45:34.05	247.03	21.67	-41.0	-41.8	21.8	0.00e+00	0	44	0	1472200704	52	3945
2026-01-04 15:45:35.18	247.31	21.73	-41.0	-41.9	21.8	0.00e+00	0	44	0	1480589312	52	3969
2026-01-04 15:45:36.04	247.52	21.77	-41.0	-41.9	21.8	0.00e+00	0	44	0	1486880768	52	3977
2026-01-04 15:45:37.19	247.80	21.83	-41.0	-41.8	21.8	0.00e+00	0	44	0	1495269376	52	3953
2026-01-04 15:45:38.05	248.02	21.87	-41.1	-41.9	21.7	0.00e+00	0	44	0	1501560832	52	3998
2026-01-04 15:45:39.19	248.30	21.93	-41.0	-41.8	21.8	0.00e+00	0	44	0	1509949440	52	3954
2026-01-04 15:45:40.32	248.59	21.99	-41.0	-41.9	21.8	0.00e+00	0	44	0	1518338048	52	3983
2026-01-04 15:45:41.35	248.84	22.04	-41.0	-41.9	21.8	0.00e+00	0	44	0	1525678080	52	3964
2026-01-04 15:45:42.35	249.10	22.09	-41.0	-41.9	21.7	0.00e+00	0	44	0	1531969536	52	3990
2026-01-04 15:45:43.56	249.40	22.14	-41.0	-41.9	21.8	0.00e+00	0	44	0	1541406720	52	3978
2026-01-04 15:45:44.42	249.62	22.19	-41.1	-42.0	21.7	0.00e+00	0	44	0	1547698176	52	4005
2026-01-04 15:45:45.56	249.91	22.24	-41.2	-42.1	21.6	0.00e+00	0	44	0	1556086784	52	4060
2026-01-04 15:45:46.42	250.13	22.28	-41.2	-42.1	21.6	0.00e+00	0	44	0	1562378240	52	4060
2026-01-04 15:45:47.57	250.42	22.33	-41.3	-42.2	21.5	0.00e+00	0	44	0	1570766848	52	4128
2026-01-04 15:45:48.42	250.64	22.37	-41.3	-42.2	21.5	0.00e+00	0	44	0	1576009728	52	4103
2026-01-04 15:45:49.57	250.94	22.42	-41.5	-42.4	21.3	0.00e+00	0	44	0	1584398336	52	4206
2026-01-04 15:45:50.43	251.16	22.46	-41.2	-42.1	21.6	0.00e+00	0	44	0	1590689792	52	4073
2026-01-04 15:45:51.57	251.45	22.51	-41.2	-42.1	21.6	0.00e+00	0	44	0	1599078400	52	4068
2026-01-04 15:45:52.43	251.68	22.55	-41.2	-42.1	21.6	0.00e+00	0	44	0	1605369856	52	4080
2026-01-04 15:45:53.57	251.97	22.60	-41.1	-42.0	21.7	0.00e+00	0	44	0	1613758464	52	4007
2026-01-04 15:45:54.43	252.20	22.64	-41.0	-41.9	21.7	0.00e+00	0	44	0	1620049920	52	3983
2026-01-04 15:45:55.58	252.50	22.69	-41.1	-42.0	21.6	0.00e+00	0	44	0	1628438528	52	4036
2026-01-04 15:45:56.43	252.72	22.72	-41.0	-41.9	21.7	0.00e+00	0	44	0	1633681408	52	3969
2026-01-04 15:45:57.57	253.02	22.77	-40.9	-41.7	21.9	0.00e+00	0	44	0	1642070016	52	3908
2026-01-04 15:45:58.43	253.25	22.80	-40.9	-41.8	21.8	0.00e+00	0	44	0	1648361472	52	3937
2026-01-04 15:45:59.57	253.55	22.85	-40.9	-41.8	21.8	0.00e+00	0	44	0	1656750080	52	3937
2026-01-04 15:46:00.43	253.78	22.88	-41.0	-41.9	21.7	0.00e+00	0	44	0	1663041536	52	3965
2026-01-04 15:46:01.57	254.08	22.93	-41.0	-41.9	21.8	0.00e+00	0	44	0	1671430144	52	3968
2026-01-04 15:46:02.43	254.31	22.96	-41.0	-41.9	21.8	0.00e+00	0	44	0	1677721600	52	3963
2026-01-04 15:46:03.58	254.62	23.00	-40.9	-41.8	21.9	0.00e+00	0	44	0	1686110208	52	3916
2026-01-04 15:46:04.44	254.85	23.04	-40.9	-41.7	21.9	0.00e+00	0	44	0	1692401664	52	3894
2026-01-04 15:46:05.58	255.15	23.08	-40.9	-41.8	21.9	0.00e+00	0	44	0	1699741696	52	3938
2026-01-04 15:46:06.81	255.48	23.12	-40.9	-41.8	21.8	0.00e+00	0	44	0	1709178880	52	3932
2026-01-04 15:46:07.86	255.76	23.16	-40.9	-41.7	21.9	0.00e+00	0	44	0	1716518912	52	3901
2026-01-04 15:46:08.79	256.02	23.19	-40.8	-41.6	22.0	0.00e+00	0	44	0	1722810368	52	3865
2026-01-04 15:46:09.79	256.29	23.22	-40.7	-41.6	22.0	0.00e+00	0	44	0	1730150400	52	3835
2026-01-04 15:46:10.80	256.56	23.26	-40.7	-41.5	22.1	0.00e+00	0	44	0	1737490432	52	3802
2026-01-04 15:46:11.80	256.83	23.29	-40.7	-41.6	22.0	0.00e+00	0	44	0	1744830464	52	3830
2026-01-04 15:46:12.80	257.10	23.32	-40.6	-41.5	22.1	0.00e+00	0	44	0	1752170496	52	3782
2026-01-04 15:46:13.80	257.38	23.35	-40.7	-41.6	22.0	0.00e+00	0	44	0	1759510528	52	3833
2026-01-04 15:46:14.81	257.65	23.39	-40.8	-41.6	22.0	0.00e+00	0	44	0	1766850560	52	3868
2026-01-04 15:46:15.81	257.93	23.42	-40.8	-41.7	22.0	0.00e+00	0	44	0	1774190592	52	3883
2026-01-04 15:46:16.82	258.20	23.45	-40.6	-41.4	22.2	0.00e+00	0	44	0	1781530624	52	3758
2026-01-04 15:46:17.86	258.49	23.48	-40.6	-41.5	22.2	0.00e+00	0	44	0	1788870656	51	4012
2026-01-04 15:46:18.82	258.75	23.50	-40.7	-41.5	22.1	0.00e+00	0	44	0	1796210688	51	4040
2026-01-04 15:46:19.82	259.03	23.53	-40.6	-41.5	22.2	0.00e+00	0	44	0	1803550720	51	4005
2026-01-04 15:46:20.82	259.31	23.56	-40.6	-41.4	22.3	0.00e+00	0	44	0	1809842176	51	3975
2026-01-04 15:46:21.82	259.58	23.59	-40.6	-41.4	22.2	0.00e+00	0	44	0	1817182208	51	3997
2026-01-04 15:46:22.83	259.86	23.61	-40.7	-41.5	22.1	0.00e+00	0	44	0	1824522240	51	4044
2026-01-04 15:46:23.83	260.14	23.64	-40.8	-41.6	22.1	0.00e+00	0	44	0	1831862272	51	4069
2026-01-04 15:46:24.83	260.42	23.66	-40.9	-41.8	21.9	0.00e+00	0	44	0	1839202304	51	4151
2026-01-04 15:46:25.83	260.70	23.68	-40.9	-41.8	21.9	0.00e+00	0	44	0	1846542336	51	4163
2026-01-04 15:46:26.83	260.98	23.71	-41.0	-41.9	21.8	0.00e+00	0	44	0	1853882368	51	4208
2026-01-04 15:46:27.83	261.26	23.73	-41.1	-42.0	21.8	0.00e+00	0	44	0	1861222400	51	4271
2026-01-04 15:46:28.84	261.54	23.75	-41.1	-42.0	21.8	0.00e+00	0	44	0	1867513856	51	4259
2026-01-04 15:46:29.84	261.82	23.77	-40.9	-41.8	22.0	0.00e+00	0	44	0	1874853888	51	4148
2026-01-04 15:46:30.84	262.10	23.79	-40.8	-41.6	22.1	0.00e+00	0	44	0	1882193920	51	4085
2026-01-04 15:46:31.88	262.39	23.81	-40.8	-41.6	22.1	0.00e+00	0	44	0	1889533952	51	4078
2026-01-04 15:46:32.87	262.67	23.83	-40.7	-41.5	22.2	0.00e+00	0	44	0	1896873984	51	4040
2026-01-04 15:46:33.94	262.97	23.85	-40.7	-41.5	22.2	0.00e+00	0	44	0	1905262592	51	4043
2026-01-04 15:46:34.83	263.22	23.87	-40.7	-41.5	22.1	0.00e+00	0	44	0	1911554048	51	4049
2026-01-04 15:46:35.98	263.55	23.89	-40.7	-41.5	22.2	0.00e+00	0	44	0	1919942656	51	4031
2026-01-04 15:46:36.84	263.79	23.90	-40.8	-41.6	22.1	0.00e+00	0	44	0	1926234112	51	4080
2026-01-04 15:46:37.98	264.11	23.92	-40.8	-41.7	22.0	0.00e+00	0	44	0	1933574144	51	4099
2026-01-04 15:46:38.84	264.35	23.93	-40.8	-41.7	22.0	0.00e+00	0	44	0	1939865600	51	4102
2026-01-04 15:46:39.99	264.68	23.95	-40.7	-41.6	22.1	0.00e+00	0	44	0	1948254208	51	4069
2026-01-04 15:46:40.85	264.92	23.96	-40.7	-41.5	22.1	0.00e+00	0	44	0	1954545664	51	4039
2026-01-04 15:46:42.00	265.25	23.97	-40.7	-41.5	22.2	0.00e+00	0	44	0	1962934272	51	4033
2026-01-04 15:46:42.85	265.49	23.98	-40.8	-41.7	22.1	0.00e+00	0	44	0	1969225728	51	4099
2026-01-04 15:46:44.00	265.82	24.00	-40.8	-41.7	22.0	0.00e+00	0	44	0	1977614336	51	4107
2026-01-04 15:46:44.86	266.06	24.01	-40.9	-41.7	22.0	0.00e+00	0	44	0	1983905792	51	4128
2026-01-04 15:46:46.07	266.41	24.02	-41.0	-41.8	21.9	0.00e+00	0	44	0	1992294400	51	4177
2026-01-04 15:46:46.93	266.65	24.02	-41.0	-41.9	21.9	0.00e+00	0	44	0	1998585856	51	4202
2026-01-04 15:46:48.10	266.98	24.03	-41.0	-41.9	21.8	0.00e+00	0	44	0	2006974464	51	4224
2026-01-04 15:46:49.40	267.35	24.04	-41.1	-41.9	21.8	0.00e+00	0	44	0	2016411648	51	4231
2026-01-04 15:46:50.11	267.56	24.05	-40.9	-41.7	22.0	0.00e+00	0	44	0	2021654528	51	4129
2026-01-04 15:46:51.40	267.92	24.06	-40.8	-41.6	22.1	0.00e+00	0	44	0	2031091712	51	4092
2026-01-04 15:46:52.11	268.13	24.06	-40.7	-41.5	22.2	0.00e+00	0	44	0	2036334592	51	4024
2026-01-04 15:46:53.49	268.52	24.07	-40.6	-41.4	22.2	0.00e+00	0	44	0	2046820352	51	3984
2026-01-04 15:46:54.21	268.72	24.07	-40.5	-41.4	22.2	0.00e+00	0	44	0	2051014656	51	3968
2026-01-04 15:46:55.56	269.11	24.07	-40.7	-41.5	22.1	0.00e+00	0	44	0	2061500416	51	4038
2026-01-04 15:46:56.54	269.39	24.07	-40.7	-41.6	22.1	0.00e+00	0	44	0	2068840448	51	4056
2026-01-04 15:46:57.54	269.68	24.07	-40.6	-41.5	22.1	0.00e+00	0	44	0	2075131904	51	4024
2026-01-04 15:46:58.54	269.96	24.08	-40.8	-41.7	22.0	0.00e+00	0	44	0	2082471936	51	4111
2026-01-04 15:46:59.54	270.25	24.08	-40.9	-41.8	21.9	0.00e+00	0	44	0	2089811968	51	4161
2026-01-04 15:47:00.55	270.53	24.07	-40.8	-41.6	22.0	0.00e+00	0	44	0	2097152000	51	4093
2026-01-04 15:47:01.55	270.82	24.07	-40.8	-41.7	22.0	0.00e+00	0	44	0	2104492032	51	4104
2026-01-04 15:47:02.55	271.10	24.07	-40.7	-41.5	22.1	0.00e+00	0	44	0	2111832064	51	4033
2026-01-04 15:47:03.56	271.39	24.07	-40.7	-41.6	22.1	0.00e+00	0	44	0	2119172096	51	4059
2026-01-04 15:47:04.65	271.70	24.06	-40.8	-41.6	22.1	0.00e+00	0	44	0	2126512128	51	4086
2026-01-04 15:47:05.51	271.95	24.06	-41.0	-41.8	21.9	0.00e+00	0	44	0	2132803584	51	4174
2026-01-04 15:47:06.65	272.27	24.05	-40.9	-41.7	22.0	0.00e+00	0	44	0	2141192192	51	4136
2026-01-04 15:47:07.61	272.55	24.05	-41.0	-41.8	21.9	0.00e+00	0	44	0	2148532224	51	4182
2026-01-04 15:47:08.82	272.89	24.04	-40.9	-41.8	21.9	0.00e+00	0	44	0	2156920832	51	4174
2026-01-04 15:47:09.71	273.14	24.03	-40.9	-41.7	22.0	0.00e+00	0	44	0	2163212288	51	4138
2026-01-04 15:47:11.03	273.52	24.02	-40.9	-41.7	22.0	0.00e+00	0	44	0	2172649472	51	4120
2026-01-04 15:47:11.74	273.72	24.01	-40.9	-41.8	22.0	0.00e+00	0	44	0	2177892352	51	4146
2026-01-04 15:47:13.24	274.15	24.00	-40.9	-41.8	22.0	0.00e+00	0	44	0	2188378112	51	4157
2026-01-04 15:47:14.24	274.43	23.99	-40.9	-41.8	21.9	0.00e+00	0	44	0	2195718144	51	4158
2026-01-04 15:47:15.24	274.72	23.98	-40.9	-41.8	21.9	0.00e+00	0	44	0	2203058176	51	4164
2026-01-04 15:47:16.25	275.00	23.96	-40.8	-41.7	22.0	0.00e+00	0	44	0	2210398208	51	4116
2026-01-04 15:47:17.25	275.29	23.95	-40.9	-41.7	22.0	0.00e+00	0	44	0	2217738240	51	4128
2026-01-04 15:47:18.25	275.57	23.94	-40.7	-41.5	22.2	0.00e+00	0	44	0	2225078272	51	4026
2026-01-04 15:47:19.26	275.85	23.92	-40.7	-41.6	22.1	0.00e+00	0	44	0	2232418304	51	4059
2026-01-04 15:47:20.26	276.14	23.91	-40.8	-41.7	22.0	0.00e+00	0	44	0	2239758336	51	4105
2026-01-04 15:47:21.26	276.42	23.89	-41.0	-41.8	21.9	0.00e+00	0	44	0	2247098368	51	4190
2026-01-04 15:47:22.26	276.70	23.87	-40.9	-41.7	21.9	0.00e+00	0	44	0	2253389824	51	4143
2026-01-04 15:47:23.34	277.00	23.86	-40.8	-41.7	22.0	0.00e+00	0	44	0	2261778432	51	4115
2026-01-04 15:47:24.23	277.25	23.84	-40.8	-41.6	22.1	0.00e+00	0	44	0	2268069888	51	4078
2026-01-04 15:47:25.38	277.58	23.82	-40.9	-41.7	22.0	0.00e+00	0	44	0	2276458496	51	4130
2026-01-04 15:47:26.24	277.82	23.80	-40.9	-41.7	22.0	0.00e+00	0	44	0	2282749952	51	4123
2026-01-04 15:47:27.38	278.14	23.78	-40.8	-41.7	22.0	0.00e+00	0	44	0	2291138560	51	4106
2026-01-04 15:47:28.24	278.38	23.76	-40.9	-41.7	21.9	0.00e+00	0	44	0	2297430016	51	4145
2026-01-04 15:47:29.38	278.70	23.74	-41.0	-41.9	21.8	0.00e+00	0	44	0	2305818624	51	4227
2026-01-04 15:47:30.24	278.94	23.72	-41.0	-41.9	21.8	0.00e+00	0	44	0	2312110080	51	4211
2026-01-04 15:47:31.39	279.26	23.69	-41.1	-42.0	21.8	0.00e+00	0	44	0	2319450112	51	4248
2026-01-04 15:47:32.25	279.50	23.67	-41.1	-42.0	21.8	0.00e+00	0	44	0	2325741568	51	4245
2026-01-04 15:47:33.39	279.81	23.64	-41.0	-41.9	21.8	0.00e+00	0	44	0	2334130176	51	4223
2026-01-04 15:47:34.25	280.05	23.62	-41.0	-41.9	21.8	0.00e+00	0	44	0	2340421632	51	4216
2026-01-04 15:47:35.39	280.37	23.59	-40.9	-41.8	21.9	0.00e+00	0	44	0	2348810240	51	4171
2026-01-04 15:47:36.25	280.60	23.57	-40.9	-41.8	21.9	0.00e+00	0	44	0	2355101696	51	4172
2026-01-04 15:47:37.49	280.95	23.54	-41.0	-41.8	21.8	0.00e+00	0	44	0	2363490304	51	4174
2026-01-04 15:47:38.34	281.18	23.51	-41.0	-41.8	21.9	0.00e+00	0	44	0	2369781760	51	4183
2026-01-04 15:47:39.49	281.50	23.48	-40.9	-41.8	22.0	0.00e+00	0	44	0	2378170368	51	4146
2026-01-04 15:47:40.35	281.73	23.46	-41.0	-41.9	21.8	0.00e+00	0	44	0	2384461824	51	4201
2026-01-04 15:47:41.60	282.08	23.42	-41.0	-41.9	21.8	0.00e+00	0	44	0	2393899008	51	4208
2026-01-04 15:47:42.36	282.28	23.40	-41.0	-41.9	21.8	0.00e+00	0	44	0	2399141888	51	4210
2026-01-04 15:47:43.65	282.64	23.36	-41.0	-41.9	21.8	0.00e+00	0	44	0	2408579072	51	4203
2026-01-04 15:47:44.37	282.83	23.33	-41.0	-41.9	21.8	0.00e+00	0	44	0	2413821952	51	4216
2026-01-04 15:47:45.65	283.18	23.29	-41.0	-41.8	21.9	0.00e+00	0	44	0	2423259136	51	4190
2026-01-04 15:47:46.37	283.37	23.27	-41.0	-41.8	21.9	0.00e+00	0	44	0	2427453440	51	4175
2026-01-04 15:47:47.66	283.72	23.23	-40.9	-41.7	22.0	0.00e+00	0	44	0	2436890624	51	4121
2026-01-04 15:47:48.47	283.94	23.20	-41.0	-41.9	21.8	0.00e+00	0	44	0	2443182080	51	4200
2026-01-04 15:47:49.62	284.25	23.16	-41.0	-41.9	21.8	0.00e+00	0	44	0	2451570688	51	4196
2026-01-04 15:47:50.68	284.54	23.12	-41.1	-42.0	21.7	0.00e+00	0	44	0	2458910720	51	4249
2026-01-04 15:47:51.73	284.82	23.09	-41.2	-42.0	21.7	0.00e+00	0	44	0	2467299328	51	4278
2026-01-04 15:47:52.61	285.05	23.05	-41.2	-42.1	21.7	0.00e+00	0	44	0	2472542208	51	4304
2026-01-04 15:47:53.76	285.36	23.01	-41.1	-42.0	21.7	0.00e+00	0	44	0	2480930816	52	4027
2026-01-04 15:47:54.61	285.59	22.98	-41.1	-42.0	21.7	0.00e+00	0	44	0	2487222272	52	4021
2026-01-04 15:47:55.76	285.89	22.94	-41.1	-42.0	21.7	0.00e+00	0	44	0	2495610880	52	4007
2026-01-04 15:47:56.62	286.12	22.90	-41.0	-41.8	21.8	0.00e+00	0	44	0	2501902336	52	3958
2026-01-04 15:47:57.76	286.42	22.86	-41.0	-41.9	21.7	0.00e+00	0	44	0	2510290944	52	3992
2026-01-04 15:47:58.62	286.65	22.82	-41.1	-41.9	21.7	0.00e+00	0	44	0	2516582400	52	4002
2026-01-04 15:47:59.76	286.95	22.78	-41.1	-41.9	21.7	0.00e+00	0	44	0	2524971008	52	3997
2026-01-04 15:48:00.62	287.18	22.74	-41.0	-41.9	21.7	0.00e+00	0	44	0	2530213888	52	3970
2026-01-04 15:48:01.77	287.48	22.70	-41.1	-42.0	21.7	0.00e+00	0	44	0	2538602496	52	4012
2026-01-04 15:48:02.68	287.71	22.66	-41.2	-42.0	21.6	0.00e+00	0	44	0	2545942528	52	4048
2026-01-04 15:48:03.85	288.02	22.61	-41.2	-42.1	21.6	0.00e+00	0	44	0	2554331136	52	4066
2026-01-04 15:48:04.71	288.24	22.57	-41.2	-42.1	21.6	0.00e+00	0	44	0	2560622592	52	4078
2026-01-04 15:48:06.06	288.59	22.51	-41.2	-42.1	21.6	0.00e+00	0	44	0	2570059776	52	4071
2026-01-04 15:48:06.78	288.78	22.48	-41.2	-42.1	21.6	0.00e+00	0	44	0	2575302656	52	4070
2026-01-04 15:48:08.07	289.11	22.42	-41.2	-42.1	21.6	0.00e+00	0	44	0	2584739840	52	4058
2026-01-04 15:48:08.78	289.29	22.39	-41.3	-42.2	21.5	0.00e+00	0	44	0	2589982720	52	4110
2026-01-04 15:48:10.07	289.62	22.33	-41.3	-42.1	21.6	0.00e+00	0	44	0	2599419904	52	4085
2026-01-04 15:48:10.79	289.80	22.30	-41.2	-42.1	21.6	0.00e+00	0	44	0	2604662784	52	4060
2026-01-04 15:48:12.07	290.13	22.24	-41.1	-42.0	21.7	0.00e+00	0	44	0	2613051392	52	4010
2026-01-04 15:48:12.93	290.35	22.20	-41.1	-41.9	21.7	0.00e+00	0	44	0	2619342848	52	3995
2026-01-04 15:48:14.07	290.64	22.14	-41.2	-42.0	21.6	0.00e+00	0	44	0	2627731456	52	4049
2026-01-04 15:48:14.93	290.85	22.10	-41.1	-41.9	21.7	0.00e+00	0	44	0	2634022912	52	3997
2026-01-04 15:48:16.08	291.14	22.05	-41.1	-42.0	21.7	0.00e+00	0	44	0	2642411520	52	4020
2026-01-04 15:48:16.94	291.36	22.00	-41.2	-42.1	21.6	0.00e+00	0	44	0	2648702976	52	4059
2026-01-04 15:48:18.09	291.64	21.95	-41.4	-42.3	21.4	0.00e+00	0	44	0	2657091584	52	4160
2026-01-04 15:48:18.95	291.86	21.91	-41.6	-42.5	21.2	0.00e+00	0	44	0	2663383040	52	4267
2026-01-04 15:48:20.09	292.14	21.85	-41.7	-42.6	21.2	0.00e+00	0	44	0	2671771648	52	4299
2026-01-04 15:48:20.95	292.35	21.80	-41.7	-42.6	21.1	0.00e+00	0	44	0	2678063104	52	4307
2026-01-04 15:48:22.10	292.64	21.75	-41.6	-42.5	21.1	0.00e+00	0	44	0	2685403136	53	4040
2026-01-04 15:48:22.96	292.85	21.70	-41.5	-42.4	21.3	0.00e+00	0	44	0	2691694592	53	3967
2026-01-04 15:48:24.10	293.13	21.64	-41.4	-42.3	21.4	0.00e+00	0	44	0	2700083200	53	3923
2026-01-04 15:48:24.96	293.34	21.60	-41.3	-42.1	21.5	0.00e+00	0	44	0	2706374656	53	3859
2026-01-04 15:48:26.10	293.61	21.54	-41.2	-42.1	21.6	0.00e+00	0	44	0	2714763264	53	3837
2026-01-04 15:48:26.96	293.82	21.49	-41.3	-42.1	21.5	0.00e+00	0	44	0	2721054720	53	3851
2026-01-04 15:48:28.10	294.10	21.43	-41.1	-42.0	21.6	0.00e+00	0	44	0	2729443328	53	3795
2026-01-04 15:48:29.29	294.38	21.36	-41.2	-42.1	21.5	0.00e+00	0	44	0	2737831936	53	3842
2026-01-04 15:48:30.33	294.63	21.31	-41.2	-42.0	21.6	0.00e+00	0	44	0	2745171968	53	3819
2026-01-04 15:48:31.32	294.87	21.25	-41.2	-42.1	21.6	0.00e+00	0	44	0	2752512000	53	3836
2026-01-04 15:48:32.55	295.16	21.19	-41.2	-42.1	21.5	0.00e+00	0	44	0	2760900608	53	3845
2026-01-04 15:48:33.41	295.37	21.14	-41.3	-42.1	21.5	0.00e+00	0	44	0	2767192064	53	3867
2026-01-04 15:48:34.55	295.64	21.07	-41.2	-42.0	21.6	0.00e+00	0	44	0	2775580672	53	3818
2026-01-04 15:48:35.41	295.84	21.03	-41.2	-42.1	21.4	0.00e+00	0	44	0	2781872128	53	3842
2026-01-04 15:48:36.55	296.10	20.96	-41.3	-42.1	21.4	0.00e+00	0	44	0	2790260736	53	3868
2026-01-04 15:48:37.41	296.31	20.91	-41.4	-42.2	21.3	0.00e+00	0	44	0	2796552192	53	3909
2026-01-04 15:48:38.56	296.57	20.85	-41.4	-42.3	21.3	0.00e+00	0	44	0	2804940800	53	3919
2026-01-04 15:48:39.67	296.83	20.78	-41.5	-42.3	21.3	0.00e+00	0	44	0	2812280832	53	3951
2026-01-04 15:48:40.71	297.07	20.72	-41.6	-42.5	21.1	0.00e+00	0	44	0	2820669440	53	4048
2026-01-04 15:48:41.70	297.30	20.66	-41.8	-42.8	20.9	0.00e+00	0	44	0	2826960896	53	4149
2026-01-04 15:48:42.71	297.53	20.60	-42.0	-42.9	20.8	0.00e+00	0	44	0	2834300928	53	4229
2026-01-04 15:48:43.71	297.76	20.54	-42.0	-42.9	20.7	0.00e+00	0	44	0	2841640960	53	4226
2026-01-04 15:48:44.71	297.99	20.48	-41.9	-42.8	20.7	0.00e+00	0	44	0	2848980992	53	4193
2026-01-04 15:48:45.71	298.21	20.43	-41.9	-42.9	20.8	0.00e+00	0	44	0	2856321024	53	4198
2026-01-04 15:48:46.71	298.44	20.37	-41.9	-42.8	20.9	0.00e+00	0	44	0	2863661056	53	4187
2026-01-04 15:48:47.71	298.66	20.30	-41.9	-42.9	20.7	0.00e+00	0	44	0	2871001088	53	4202
2026-01-04 15:48:48.71	298.89	20.24	-41.9	-42.8	20.7	0.00e+00	0	44	0	2878341120	53	4174
2026-01-04 15:48:49.71	299.11	20.18	-41.8	-42.8	20.8	0.00e+00	0	44	0	2884632576	53	4151
2026-01-04 15:48:50.71	299.33	20.12	-41.7	-42.6	21.1	0.00e+00	0	44	0	2891972608	53	4064
2026-01-04 15:48:51.71	299.55	20.06	-41.6	-42.5	21.0	0.00e+00	0	44	0	2899312640	53	4029
2026-01-04 15:48:52.82	299.80	19.99	-41.7	-42.6	21.2	0.00e+00	0	44	0	2907701248	53	4055
2026-01-04 15:48:53.71	299.99	19.94	-41.6	-42.5	21.1	0.00e+00	0	44	0	2913992704	53	4027
2026-01-04 15:48:55.07	300.29	19.85	-41.7	-42.6	21.1	0.00e+00	0	44	0	2923429888	53	4067
2026-01-04 15:48:55.79	300.45	19.81	-41.7	-42.6	21.1	0.00e+00	0	44	0	2928672768	53	4075
2026-01-04 15:48:57.07	300.72	19.73	-41.8	-42.7	21.0	0.00e+00	0	44	0	2938109952	53	4124
2026-01-04 15:48:57.79	300.88	19.68	-41.9	-42.8	20.9	0.00e+00	0	44	0	2943352832	53	4175
2026-01-04 15:48:59.08	301.16	19.60	-41.7	-42.6	21.1	0.00e+00	0	44	0	2952790016	53	4074
2026-01-04 15:48:59.86	301.32	19.55	-41.7	-42.6	21.1	0.00e+00	0	44	0	2958032896	53	4087
2026-01-04 15:49:01.15	301.60	19.47	-41.9	-42.8	20.9	0.00e+00	0	44	0	2967470080	53	4170
2026-01-04 15:49:01.95	301.77	19.42	-42.1	-43.0	20.7	0.00e+00	0	44	0	2973761536	53	4269
2026-01-04 15:49:03.09	302.01	19.34	-42.0	-42.9	20.8	0.00e+00	0	44	0	2982150144	53	4218
2026-01-04 15:49:03.95	302.19	19.29	-41.9	-42.9	20.8	0.00e+00	0	44	0	2988441600	53	4195
2026-01-04 15:49:05.10	302.43	19.21	-42.0	-42.9	20.7	0.00e+00	0	44	0	2995781632	53	4241
2026-01-04 15:49:05.96	302.61	19.16	-42.1	-43.1	20.6	0.00e+00	0	44	0	3002073088	53	4299
2026-01-04 15:49:07.10	302.85	19.08	-42.2	-43.1	20.6	0.00e+00	0	44	0	3010461696	53	4304
2026-01-04 15:49:08.30	303.10	19.01	-42.1	-43.0	20.7	0.00e+00	0	44	0	3019898880	53	4275
2026-01-04 15:49:09.33	303.31	18.94	-42.1	-43.0	20.6	0.00e+00	0	44	0	3027238912	53	4286
2026-01-04 15:49:10.33	303.51	18.87	-42.1	-43.0	20.6	0.00e+00	0	44	0	3034578944	53	4288
2026-01-04 15:49:11.33	303.72	18.81	-42.3	-43.2	20.5	0.00e+00	0	44	0	3041918976	54	4127
2026-01-04 15:49:12.33	303.92	18.74	-42.0	-42.8	20.8	0.00e+00	0	44	0	3048210432	54	3957
2026-01-04 15:49:13.33	304.13	18.68	-42.1	-42.9	20.8	0.00e+00	0	44	0	3055550464	54	4001
2026-01-04 15:49:14.33	304.33	18.61	-42.1	-43.0	20.7	0.00e+00	0	44	0	3062890496	54	4008
2026-01-04 15:49:15.33	304.53	18.54	-42.1	-43.0	20.6	0.00e+00	0	44	0	3070230528	54	4050
2026-01-04 15:49:16.34	304.73	18.48	-42.1	-43.0	20.7	0.00e+00	0	44	0	3077570560	54	4016
2026-01-04 15:49:17.34	304.93	18.41	-42.0	-42.9	20.8	0.00e+00	0	44	0	3084910592	54	3965
2026-01-04 15:49:18.34	305.13	18.34	-42.0	-42.9	20.8	0.00e+00	0	44	0	3092250624	54	3972
2026-01-04 15:49:19.35	305.33	18.27	-42.0	-42.9	20.8	0.00e+00	0	44	0	3099590656	54	3979
2026-01-04 15:49:20.35	305.52	18.21	-42.0	-43.0	20.7	0.00e+00	0	44	0	3105882112	54	4006
2026-01-04 15:49:21.35	305.72	18.14	-42.0	-42.9	20.7	0.00e+00	0	44	0	3113222144	54	3991
2026-01-04 15:49:22.36	305.91	18.07	-42.0	-42.9	20.7	0.00e+00	0	44	0	3120562176	54	3987
2026-01-04 15:49:23.36	306.11	18.00	-42.1	-43.0	20.7	0.00e+00	0	44	0	3127902208	54	4020
2026-01-04 15:49:24.36	306.30	17.94	-42.2	-43.1	20.6	0.00e+00	0	44	0	3135242240	54	4064
2026-01-04 15:49:25.37	306.50	17.87	-42.2	-43.1	20.5	0.00e+00	0	44	0	3142582272	54	4095
2026-01-04 15:49:26.37	306.69	17.80	-42.4	-43.3	20.4	0.00e+00	0	44	0	3149922304	54	4160
2026-01-04 15:49:27.37	306.88	17.73	-42.4	-43.4	20.3	0.00e+00	0	44	0	3157262336	54	4207
2026-01-04 15:49:28.37	307.07	17.66	-42.5	-43.4	20.3	0.00e+00	0	44	0	3164602368	54	4242
2026-01-04 15:49:29.37	307.26	17.59	-42.5	-43.5	20.2	0.00e+00	0	44	0	3170893824	54	4249
2026-01-04 15:49:30.38	307.45	17.53	-42.4	-43.3	20.4	0.00e+00	0	44	0	3179282432	54	4169
2026-01-04 15:49:31.38	307.63	17.46	-42.4	-43.3	20.4	0.00e+00	0	44	0	3186622464	54	4158
2026-01-04 15:49:32.38	307.82	17.39	-42.4	-43.3	20.3	0.00e+00	0	44	0	3192913920	54	4181
2026-01-04 15:49:33.38	308.01	17.32	-42.4	-43.4	20.3	0.00e+00	0	44	0	3200253952	54	4194
2026-01-04 15:49:34.38	308.19	17.25	-42.5	-43.5	20.2	0.00e+00	0	44	0	3207593984	54	4256
2026-01-04 15:49:35.39	308.38	17.18	-42.5	-43.5	20.2	0.00e+00	0	44	0	3214934016	54	4257
2026-01-04 15:49:36.44	308.57	17.11	-42.5	-43.4	20.2	0.00e+00	0	44	0	3222274048	54	4234
2026-01-04 15:49:37.38	308.74	17.04	-42.5	-43.5	20.2	0.00e+00	0	44	0	3229614080	54	4259
2026-01-04 15:49:38.38	308.92	16.98	-42.4	-43.4	20.3	0.00e+00	0	44	0	3236954112	54	4202
2026-01-04 15:49:39.37	309.10	16.91	-42.4	-43.4	20.3	0.00e+00	0	44	0	3243245568	54	4208
2026-01-04 15:49:40.38	309.28	16.84	-42.2	-43.2	20.4	0.00e+00	0	44	0	3251634176	54	4104
2026-01-04 15:49:41.38	309.46	16.77	-42.3	-43.2	20.4	0.00e+00	0	44	0	3257925632	54	4118
2026-01-04 15:49:42.38	309.64	16.70	-42.2	-43.2	20.5	0.00e+00	0	44	0	3265265664	54	4115
2026-01-04 15:49:43.39	309.82	16.63	-42.3	-43.2	20.4	0.00e+00	0	44	0	3272605696	54	4119
2026-01-04 15:49:44.39	309.99	16.56	-42.3	-43.2	20.4	0.00e+00	0	44	0	3279945728	54	4140
2026-01-04 15:49:45.39	310.17	16.49	-42.4	-43.4	20.3	0.00e+00	0	44	0	3287285760	54	4196
2026-01-04 15:49:46.39	310.35	16.42	-42.5	-43.5	20.2	0.00e+00	0	44	0	3294625792	54	4263
2026-01-04 15:49:47.40	310.52	16.35	-42.6	-43.6	20.1	0.00e+00	0	44	0	3301965824	54	4297
2026-01-04 15:49:48.40	310.70	16.28	-42.9	-43.9	19.8	0.00e+00	0	44	0	3309305856	55	4203
2026-01-04 15:49:49.40	310.87	16.21	-43.1	-44.1	19.7	0.00e+00	0	44	0	3315597312	55	4309
2026-01-04 15:49:50.42	311.04	16.14	-43.0	-44.0	19.8	0.00e+00	0	44	0	3322937344	55	4256
2026-01-04 15:49:51.45	311.22	16.07	-43.0	-44.0	19.7	0.00e+00	0	44	0	3331325952	55	4256
2026-01-04 15:49:52.48	311.39	15.99	-43.1	-44.1	19.6	0.00e+00	0	44	0	3338665984	55	4317
2026-01-04 15:49:53.48	311.56	15.92	-43.3	-44.3	19.5	0.00e+00	0	44	0	3346006016	55	4407
2026-01-04 15:49:54.48	311.73	15.85	-43.4	-44.5	19.5	0.00e+00	0	44	0	3353346048	56	4245
2026-01-04 15:49:55.48	311.90	15.78	-43.3	-44.3	19.5	0.00e+00	0	44	0	3359637504	56	4193
2026-01-04 15:49:56.48	312.07	15.71	-43.2	-44.2	19.6	0.00e+00	0	44	0	3366977536	56	4121
2026-01-04 15:49:57.49	312.24	15.64	-42.9	-43.9	19.9	0.00e+00	0	44	0	3374317568	56	3987
2026-01-04 15:49:58.49	312.40	15.57	-42.8	-43.8	20.0	0.00e+00	0	44	0	3381657600	56	3926
2026-01-04 15:49:59.49	312.57	15.50	-42.6	-43.6	20.2	0.00e+00	0	44	0	3388997632	56	3832
2026-01-04 15:50:00.49	312.73	15.43	-42.4	-43.3	20.3	0.00e+00	0	44	0	3396337664	55	3955
2026-01-04 15:50:01.49	312.89	15.36	-42.3	-43.3	20.4	0.00e+00	0	44	0	3403677696	55	3914
2026-01-04 15:50:02.49	313.06	15.29	-42.4	-43.3	20.3	0.00e+00	0	44	0	3411017728	55	3941
2026-01-04 15:50:03.49	313.22	15.22	-42.6	-43.5	20.2	0.00e+00	0	44	0	3418357760	55	4034
2026-01-04 15:50:04.50	313.38	15.15	-42.4	-43.4	20.3	0.00e+00	0	44	0	3424649216	55	3973
2026-01-04 15:50:05.50	313.54	15.08	-42.4	-43.4	20.3	0.00e+00	0	44	0	3431989248	55	3967
2026-01-04 15:50:06.54	313.71	15.01	-42.5	-43.5	20.1	0.00e+00	0	44	0	3440377856	55	4039
2026-01-04 15:50:07.53	313.87	14.94	-42.5	-43.5	20.1	0.00e+00	0	44	0	3446669312	55	4018
2026-01-04 15:50:08.54	314.03	14.87	-42.6	-43.6	20.1	0.00e+00	0	44	0	3454009344	55	4078
2026-01-04 15:50:09.54	314.18	14.80	-42.7	-43.7	20.0	0.00e+00	0	44	0	3461349376	55	4124
2026-01-04 15:50:10.54	314.34	14.73	-42.7	-43.7	19.9	0.00e+00	0	44	0	3468689408	55	4137
2026-01-04 15:50:11.54	314.50	14.66	-42.9	-43.9	19.8	0.00e+00	0	44	0	3476029440	55	4219
2026-01-04 15:50:12.55	314.65	14.59	-43.0	-44.0	19.7	0.00e+00	0	44	0	3483369472	55	4251
2026-01-04 15:50:13.55	314.81	14.52	-43.1	-44.1	19.6	0.00e+00	0	44	0	3490709504	55	4331
2026-01-04 15:50:14.55	314.96	14.45	-43.2	-44.2	19.5	0.00e+00	0	44	0	3498049536	55	4360
2026-01-04 15:50:15.55	315.11	14.38	-43.3	-44.3	19.4	0.00e+00	0	44	0	3504340992	55	4400
2026-01-04 15:50:16.56	315.27	14.31	-43.3	-44.3	19.5	0.00e+00	0	44	0	3511681024	56	4179
2026-01-04 15:50:17.96	315.48	14.21	-43.4	-44.4	19.4	0.00e+00	0	44	0	3522166784	56	4237
2026-01-04 15:50:18.68	315.59	14.16	-43.4	-44.4	19.4	0.00e+00	0	44	0	3527409664	56	4233
2026-01-04 15:50:19.97	315.78	14.07	-43.2	-44.2	19.6	0.00e+00	0	44	0	3536846848	56	4140
2026-01-04 15:50:20.68	315.89	14.02	-43.2	-44.2	19.6	0.00e+00	0	44	0	3542089728	56	4122
2026-01-04 15:50:21.97	316.08	13.93	-43.2	-44.1	19.7	0.00e+00	0	44	0	3551526912	56	4095
2026-01-04 15:50:22.69	316.19	13.88	-43.2	-44.2	19.6	0.00e+00	0	44	0	3556769792	56	4116
2026-01-04 15:50:23.97	316.38	13.79	-43.2	-44.2	19.6	0.00e+00	0	44	0	3565158400	56	4120
2026-01-04 15:50:24.69	316.48	13.74	-43.1	-44.1	19.7	0.00e+00	0	44	0	3570401280	56	4082
2026-01-04 15:50:25.98	316.67	13.65	-42.9	-43.8	19.9	0.00e+00	0	44	0	3579838464	56	3946
2026-01-04 15:50:26.69	316.78	13.60	-42.8	-43.8	19.9	0.00e+00	0	44	0	3585081344	56	3938
2026-01-04 15:50:27.98	316.96	13.51	-42.8	-43.8	20.0	0.00e+00	0	44	0	3594518528	56	3931
2026-01-04 15:50:28.69	317.06	13.46	-42.8	-43.8	20.0	0.00e+00	0	44	0	3599761408	56	3925
2026-01-04 15:50:30.23	317.29	13.35	-42.9	-43.8	19.9	0.00e+00	0	44	0	3611295744	56	3954
2026-01-04 15:50:30.95	317.39	13.30	-42.9	-43.8	19.9	0.00e+00	0	44	0	3615490048	56	3956
2026-01-04 15:50:32.24	317.57	13.21	-43.0	-44.0	19.8	0.00e+00	0	44	0	3624927232	56	4010
2026-01-04 15:50:32.95	317.67	13.16	-43.2	-44.1	19.6	0.00e+00	0	44	0	3630170112	56	4089
2026-01-04 15:50:34.24	317.85	13.07	-43.2	-44.2	19.5	0.00e+00	0	44	0	3639607296	56	4133
2026-01-04 15:50:34.96	317.95	13.02	-43.2	-44.2	19.5	0.00e+00	0	44	0	3644850176	56	4105
2026-01-04 15:50:36.24	318.13	12.94	-43.4	-44.4	19.4	0.00e+00	0	44	0	3654287360	56	4224
2026-01-04 15:50:36.96	318.23	12.89	-43.4	-44.4	19.3	0.00e+00	0	44	0	3659530240	56	4230
2026-01-04 15:50:38.25	318.41	12.80	-43.6	-44.7	19.2	0.00e+00	0	44	0	3668967424	56	4341
2026-01-04 15:50:39.09	318.53	12.74	-43.8	-44.9	18.9	0.00e+00	0	44	0	3675258880	57	4208
2026-01-04 15:50:40.57	318.73	12.64	-44.2	-45.3	18.5	0.00e+00	0	44	0	3685744640	57	4407
2026-01-04 15:50:41.29	318.83	12.59	-44.1	-45.2	18.6	0.00e+00	0	44	0	3690987520	57	4377
2026-01-04 15:50:42.57	319.00	12.50	-43.9	-45.0	18.9	0.00e+00	0	44	0	3699376128	57	4247
2026-01-04 15:50:43.29	319.10	12.45	-43.7	-44.7	19.1	0.00e+00	0	44	0	3705667584	57	4133
2026-01-04 15:50:44.58	319.27	12.36	-43.6	-44.7	19.1	0.00e+00	0	44	0	3714056192	57	4130
2026-01-04 15:50:45.29	319.37	12.31	-43.6	-44.7	19.1	0.00e+00	0	44	0	3719299072	57	4118
2026-01-04 15:50:46.58	319.54	12.22	-43.6	-44.6	19.1	0.00e+00	0	44	0	3728736256	57	4087
2026-01-04 15:50:47.30	319.63	12.17	-43.5	-44.6	19.2	0.00e+00	0	44	0	3733979136	57	4082
2026-01-04 15:50:48.58	319.80	12.08	-43.3	-44.4	19.4	0.00e+00	0	44	0	3743416320	57	3980
2026-01-04 15:50:49.46	319.92	12.02	-43.3	-44.4	19.4	0.00e+00	0	44	0	3749707776	57	3993
2026-01-04 15:50:50.60	320.07	11.95	-43.3	-44.4	19.4	0.00e+00	0	44	0	3758096384	57	3965
2026-01-04 15:50:51.46	320.18	11.89	-43.2	-44.3	19.5	0.00e+00	0	44	0	3764387840	57	3930
2026-01-04 15:50:52.61	320.33	11.81	-43.3	-44.3	19.4	0.00e+00	0	44	0	3772776448	57	3942
2026-01-04 15:50:53.47	320.44	11.75	-43.3	-44.4	19.4	0.00e+00	0	44	0	3778019328	57	3975
2026-01-04 15:50:54.61	320.59	11.67	-43.2	-44.2	19.5	0.00e+00	0	44	0	3786407936	57	3899
2026-01-04 15:50:55.47	320.70	11.61	-43.1	-44.2	19.6	0.00e+00	0	44	0	3792699392	57	3876
2026-01-04 15:50:56.61	320.84	11.54	-43.3	-44.3	19.5	0.00e+00	0	44	0	3801088000	57	3930
2026-01-04 15:50:57.47	320.95	11.48	-43.2	-44.2	19.5	0.00e+00	0	44	0	3807379456	57	3904
2026-01-04 15:50:58.62	321.09	11.40	-43.3	-44.3	19.4	0.00e+00	0	44	0	3815768064	57	3946
2026-01-04 15:50:59.48	321.20	11.34	-43.4	-44.4	19.3	0.00e+00	0	44	0	3822059520	57	3995
2026-01-04 15:51:00.62	321.34	11.26	-43.3	-44.3	19.4	0.00e+00	0	44	0	3830448128	57	3957
2026-01-04 15:51:01.48	321.45	11.20	-43.3	-44.4	19.3	0.00e+00	0	44	0	3836739584	57	3986
2026-01-04 15:51:02.63	321.59	11.13	-43.4	-44.5	19.2	0.00e+00	0	44	0	3845128192	57	4028
2026-01-04 15:51:03.58	321.71	11.06	-43.4	-44.5	19.2	0.00e+00	0	44	0	3851419648	57	4025
2026-01-04 15:51:04.76	321.86	10.98	-43.6	-44.7	19.0	0.00e+00	0	44	0	3859808256	57	4126
2026-01-04 15:51:05.62	321.96	10.92	-43.7	-44.8	19.0	0.00e+00	0	44	0	3866099712	57	4148
2026-01-04 15:51:06.98	322.13	10.83	-43.6	-44.7	19.1	0.00e+00	0	44	0	3876585472	57	4104
2026-01-04 15:51:07.70	322.21	10.78	-43.6	-44.6	19.1	0.00e+00	0	44	0	3880779776	57	4096
2026-01-04 15:51:09.21	322.40	10.68	-43.9	-44.9	18.8	0.00e+00	0	44	0	3892314112	57	4229
2026-01-04 15:51:09.93	322.48	10.63	-43.8	-44.9	18.8	0.00e+00	0	44	0	3897556992	57	4196
2026-01-04 15:51:11.21	322.63	10.55	-43.9	-45.0	18.8	0.00e+00	0	44	0	3906994176	57	4261
2026-01-04 15:51:11.93	322.72	10.50	-43.8	-44.9	18.8	0.00e+00	0	44	0	3912237056	57	4201
2026-01-04 15:51:13.22	322.87	10.41	-43.9	-45.1	18.7	0.00e+00	0	44	0	3920625664	57	4295
2026-01-04 15:51:13.93	322.96	10.37	-44.0	-45.1	18.7	0.00e+00	0	44	0	3926917120	57	4326
2026-01-04 15:51:15.22	323.11	10.28	-44.0	-45.2	18.6	0.00e+00	0	44	0	3935305728	57	4355
2026-01-04 15:51:15.94	323.19	10.23	-44.1	-45.3	18.5	0.00e+00	0	44	0	3940548608	57	4399
2026-01-04 15:51:17.22	323.34	10.15	-44.0	-45.2	18.5	0.00e+00	0	44	0	3949985792	57	4379
2026-01-04 15:51:17.94	323.42	10.10	-44.0	-45.2	18.5	0.00e+00	0	44	0	3955228672	57	4384
2026-01-04 15:51:19.23	323.57	10.01	-44.0	-45.2	18.5	0.00e+00	0	44	0	3964665856	57	4361
2026-01-04 15:51:20.04	323.66	9.96	-44.0	-45.2	18.5	0.00e+00	0	44	0	3970957312	57	4369
2026-01-04 15:51:21.18	323.79	9.88	-44.0	-45.2	18.5	0.00e+00	0	44	0	3978297344	57	4372
2026-01-04 15:51:22.28	323.92	9.81	-43.8	-45.0	18.7	0.00e+00	0	44	0	3986685952	57	4256
2026-01-04 15:51:23.34	324.04	9.74	-44.1	-45.2	18.5	0.00e+00	0	44	0	3994025984	57	4387
2026-01-04 15:51:24.20	324.14	9.68	-44.0	-45.2	18.5	0.00e+00	0	44	0	4000317440	57	4365
2026-01-04 15:51:25.35	324.26	9.61	-44.1	-45.3	18.4	0.00e+00	0	44	0	4008706048	57	4421
2026-01-04 15:51:26.21	324.36	9.55	-43.9	-45.1	18.6	0.00e+00	0	44	0	4014997504	57	4304
2026-01-04 15:51:27.35	324.49	9.48	-44.0	-45.2	18.5	0.00e+00	0	44	0	4023386112	57	4387
2026-01-04 15:51:28.21	324.58	9.42	-44.1	-45.3	18.4	0.00e+00	0	44	0	4029677568	57	4401
2026-01-04 15:51:29.36	324.71	9.34	-44.0	-45.2	18.6	0.00e+00	0	44	0	4038066176	57	4346
2026-01-04 15:51:30.22	324.80	9.29	-44.0	-45.2	18.5	0.00e+00	0	44	0	4043309056	57	4353
2026-01-04 15:51:31.37	324.93	9.21	-43.8	-45.0	18.7	0.00e+00	0	44	0	4051697664	57	4254
2026-01-04 15:51:32.22	325.02	9.16	-44.0	-45.1	18.5	0.00e+00	0	44	0	4057989120	57	4329
2026-01-04 15:51:33.49	325.16	9.07	-44.1	-45.3	18.4	0.00e+00	0	44	0	4067426304	57	4421
2026-01-04 15:51:34.21	325.24	9.03	-44.1	-45.3	18.4	0.00e+00	0	44	0	4072669184	57	4435
2026-01-04 15:51:35.70	325.40	8.93	-54.1	-65.0	3.8	8.47e-01	0	44	104	4076863488	77	13541
2026-01-04 15:51:36.42	325.47	8.88	-53.7	-65.3	3.8	8.47e-01	0	44	104	4076863488	78	13248
2026-01-04 15:51:37.79	325.62	8.80	-54.2	-65.4	3.8	8.47e-01	0	44	104	4076863488	78	13337
2026-01-04 15:51:38.51	325.69	8.75	-54.4	-65.5	3.8	8.47e-01	0	44	104	4076863488	78	13455
2026-01-04 15:51:39.80	325.83	8.66	-54.8	-65.5	3.8	8.46e-01	0	44	104	4076863488	78	13479
2026-01-04 15:51:40.52	325.91	8.62	-53.8	-65.6	3.8	8.47e-01	0	44	104	4076863488	78	13571
2026-01-04 15:51:41.81	326.04	8.54	-54.6	-65.5	3.8	8.47e-01	0	44	104	4076863488	79	12810
2026-01-04 15:51:42.52	326.12	8.49	-54.9	-65.6	3.8	8.46e-01	0	44	104	4076863488	79	12891
2026-01-04 15:51:43.81	326.25	8.41	-54.8	-65.6	3.8	8.47e-01	0	44	104	4076863488	79	12887
2026-01-04 15:51:44.53	326.32	8.36	-54.8	-65.6	3.8	8.46e-01	0	44	104	4076863488	79	12898
2026-01-04 15:51:45.82	326.46	8.28	-54.8	-65.6	3.8	8.48e-01	0	44	104	4076863488	79	12911
2026-01-04 15:51:46.54	326.53	8.23	-54.8	-65.6	3.8	8.47e-01	0	44	104	4076863488	79	12922
2026-01-04 15:51:47.83	326.66	8.15	-54.9	-65.6	3.8	8.47e-01	0	44	104	4076863488	79	12818
2026-01-04 15:51:48.54	326.73	8.10	-54.8	-65.5	3.8	8.46e-01	0	44	104	4076863488	79	12808
2026-01-04 15:51:49.83	326.86	8.02	-55.0	-65.7	3.8	8.46e-01	0	44	104	4076863488	79	13006
2026-01-04 15:51:50.55	326.94	7.97	-54.9	-65.6	3.8	8.46e-01	0	44	104	4076863488	79	12953
2026-01-04 15:51:51.84	327.06	7.89	-54.9	-65.7	3.8	8.46e-01	0	44	104	4076863488	79	13030
2026-01-04 15:51:52.56	327.14	7.85	-54.8	-65.6	3.8	8.46e-01	0	44	104	4076863488	79	12871
2026-01-04 15:51:53.85	327.26	7.76	-54.9	-65.6	3.8	8.47e-01	0	44	104	4076863488	79	12887
2026-01-04 15:51:54.56	327.33	7.72	-54.7	-65.6	3.8	8.47e-01	0	44	104	4076863488	79	12863
2026-01-04 15:51:55.85	327.46	7.64	-54.5	-65.5	3.8	8.47e-01	0	44	104	4076863488	79	12756
2026-01-04 15:51:56.57	327.53	7.59	-54.5	-65.6	3.8	8.46e-01	0	44	104	4076863488	79	12824
2026-01-04 15:51:57.86	327.66	7.51	-54.5	-65.5	3.8	8.47e-01	0	44	104	4076863488	79	12740
2026-01-04 15:51:58.58	327.73	7.47	-54.5	-65.5	3.8	8.48e-01	0	44	104	4076863488	79	12778
2026-01-04 15:51:59.87	327.85	7.38	-54.5	-65.6	3.8	8.46e-01	0	44	104	4076863488	79	12821
2026-01-04 15:52:00.59	327.92	7.34	-54.5	-65.6	3.8	8.48e-01	0	44	104	4076863488	79	12816
2026-01-04 15:52:01.88	328.05	7.26	-54.5	-65.5	3.8	8.48e-01	0	44	104	4076863488	79	12803
2026-01-04 15:52:02.60	328.12	7.21	-54.5	-65.5	3.8	8.47e-01	0	44	104	4076863488	79	12807
2026-01-04 15:52:03.89	328.24	7.13	-54.5	-65.5	3.8	8.47e-01	0	44	104	4076863488	79	12726
2026-01-04 15:52:04.61	328.31	7.09	-54.5	-65.5	3.8	8.46e-01	0	44	104	4076863488	79	12733
2026-01-04 15:52:05.90	328.43	7.01	-54.5	-65.5	3.8	8.47e-01	0	44	104	4076863488	79	12707
2026-01-04 15:52:06.61	328.50	6.96	-54.5	-65.5	3.8	8.46e-01	0	44	104	4076863488	79	12673
2026-01-04 15:52:07.90	328.62	6.88	-54.5	-65.5	3.8	8.47e-01	0	44	104	4076863488	79	12795
2026-01-04 15:52:08.62	328.68	6.84	-54.5	-65.5	3.8	8.46e-01	0	44	104	4076863488	79	12780
2026-01-04 15:52:09.91	328.80	6.76	-54.5	-65.6	3.8	8.47e-01	0	44	104	4076863488	79	12859
2026-01-04 15:52:10.63	328.87	6.71	-54.5	-65.5	3.8	8.46e-01	0	44	104	4076863488	79	12733
2026-01-04 15:52:11.92	328.99	6.63	-54.5	-65.5	3.8	8.48e-01	0	44	104	4076863488	79	12695
2026-01-04 15:52:12.63	329.06	6.59	-54.5	-65.5	3.8	8.47e-01	0	44	104	4076863488	79	12681
2026-01-04 15:52:13.93	329.17	6.51	-54.5	-65.6	3.8	8.47e-01	0	44	104	4076863488	79	12864
2026-01-04 15:52:14.65	329.24	6.46	-54.5	-65.6	3.8	8.45e-01	0	44	104	4076863488	79	12870
2026-01-04 15:52:15.94	329.36	6.39	-54.5	-65.5	3.8	8.47e-01	0	44	104	4076863488	79	12734
2026-01-04 15:52:16.65	329.42	6.34	-54.5	-65.5	3.8	8.47e-01	0	44	104	4076863488	79	12772
2026-01-04 15:52:17.95	329.54	6.26	-54.5	-65.6	3.8	8.47e-01	0	44	104	4076863488	79	12882
2026-01-04 15:52:18.66	329.60	6.22	-54.5	-65.5	3.8	8.47e-01	0	44	104	4076863488	79	12796
2026-01-04 15:52:19.95	329.72	6.14	-54.5	-65.5	3.8	8.46e-01	0	44	104	4076863488	79	12667
2026-01-04 15:52:20.67	329.78	6.10	-54.5	-65.6	3.8	8.47e-01	0	44	104	4076863488	79	12858
2026-01-04 15:52:21.96	329.90	6.02	-54.5	-65.5	3.8	8.47e-01	0	44	104	4076863488	79	12705
2026-01-04 15:52:22.68	329.96	5.97	-54.5	-65.5	3.8	8.46e-01	0	44	104	4076863488	79	12731
2026-01-04 15:52:23.97	330.07	5.89	-54.5	-65.5	3.8	8.47e-01	0	44	104	4076863488	79	12786
2026-01-04 15:52:24.69	330.14	5.85	-54.5	-65.6	3.8	8.47e-01	0	44	104	4076863488	79	12827
2026-01-04 15:52:25.98	330.25	5.77	-54.5	-65.5	3.8	8.48e-01	0	44	104	4076863488	79	12726
2026-01-04 15:52:26.70	330.31	5.73	-54.5	-65.5	3.8	8.47e-01	0	44	104	4076863488	79	12808
2026-01-04 15:52:27.99	330.42	5.65	-54.5	-65.6	3.8	8.47e-01	0	44	104	4076863488	79	12820
2026-01-04 15:52:28.70	330.48	5.61	-54.5	-65.5	3.8	8.48e-01	0	44	104	4076863488	79	12759
2026-01-04 15:52:30.00	330.59	5.53	-54.5	-65.5	3.8	8.46e-01	0	44	104	4076863488	79	12743
2026-01-04 15:52:30.71	330.66	5.49	-54.5	-65.5	3.8	8.47e-01	0	44	104	4076863488	79	12747
2026-01-04 15:52:32.00	330.77	5.41	-54.5	-65.5	3.8	8.47e-01	0	44	104	4076863488	79	12802
2026-01-04 15:52:32.72	330.83	5.37	-54.5	-65.5	3.8	8.46e-01	0	44	104	4076863488	79	12773
2026-01-04 15:52:34.01	330.94	5.29	-54.5	-65.5	3.8	8.47e-01	0	44	104	4076863488	79	12763
2026-01-04 15:52:34.73	331.00	5.25	-54.5	-65.5	3.8	8.48e-01	0	44	104	4076863488	79	12750
2026-01-04 15:52:36.02	331.10	5.17	-54.5	-65.6	3.8	8.47e-01	0	44	104	4076863488	79	12812
2026-01-04 15:52:36.74	331.16	5.13	-54.5	-65.5	3.8	8.45e-01	0	44	104	4076863488	79	12771
2026-01-04 15:52:38.03	331.27	5.05	-54.5	-65.5	3.8	8.47e-01	0	44	104	4076863488	79	12768
2026-01-04 15:52:38.75	331.33	5.01	-54.5	-65.5	3.8	8.47e-01	0	44	104	4076863488	79	12777

#Closed at: 2026-01-04 15:52:40
#Recorded file [4076 MB]: D:/Data/31040_260104_184122.dat