passes_logs/2026/01/04/T1/T1__20260104_001752_AQUA_rec.log

#Pass ID: 20260104_001752_AQUA
#Satellite: AQUA
#Configuration: AQUA
#almurnet v.1.7.20251203
#Start time: 2026-01-04 00:17:52

#Version: 2.0.20230620
#Station: T1
#Location: 37.570604 lon 55.790049 lat
#TLE: 1 27424U 02022A   25365.92641127  .00002078  00000+0  42628-3 0  9999
#TLE: 2 27424  98.4058 327.1196 0001962  94.7781 340.6230 14.61783896258835

#Time	Az	El	Level	Level2	SNR	BER	BlckErr	Temp	State	Recorded	gain1	gain2
2026-01-04 00:17:52.77	26.63	5.00	-54.4	-76.0	3.8	7.51e-01	0	40	0	0	80	43038
2026-01-04 00:17:53.77	26.70	5.06	-54.5	-76.1	3.8	7.47e-01	0	40	104	0	79	46198
2026-01-04 00:17:54.78	26.78	5.13	-54.6	-76.2	3.8	7.46e-01	0	41	104	0	79	46532
2026-01-04 00:17:55.78	26.86	5.20	-54.6	-76.1	3.8	7.47e-01	0	41	104	0	79	46503
2026-01-04 00:17:56.78	26.93	5.27	-54.6	-76.1	3.8	7.44e-01	0	41	104	0	79	46293
2026-01-04 00:17:57.79	27.01	5.34	-54.5	-76.0	3.8	7.44e-01	0	41	104	0	79	45966
2026-01-04 00:17:58.79	27.09	5.40	-54.5	-76.1	3.8	7.47e-01	0	41	104	0	79	46065
2026-01-04 00:17:59.80	27.17	5.47	-54.6	-76.0	3.8	7.46e-01	0	41	104	0	79	45863
2026-01-04 00:18:00.80	27.24	5.54	-54.6	-75.9	3.8	7.48e-01	0	41	104	0	79	45407
2026-01-04 00:18:01.81	27.32	5.61	-54.6	-75.8	3.8	7.48e-01	0	41	104	0	79	44909
2026-01-04 00:18:02.81	27.40	5.68	-54.6	-75.8	3.8	7.50e-01	0	41	104	0	80	42363
2026-01-04 00:18:03.82	27.48	5.75	-54.6	-75.8	3.8	7.50e-01	0	41	104	0	80	41969
2026-01-04 00:18:04.82	27.56	5.82	-54.7	-75.8	3.8	7.46e-01	0	41	104	0	80	42234
2026-01-04 00:18:05.82	27.64	5.88	-54.6	-75.7	3.8	7.46e-01	0	41	104	0	80	41768
2026-01-04 00:18:06.83	27.72	5.95	-54.7	-75.8	3.8	7.45e-01	0	41	104	0	80	42081
2026-01-04 00:18:07.83	27.80	6.02	-54.7	-75.9	3.8	7.44e-01	0	41	104	0	80	42573
2026-01-04 00:18:08.84	27.89	6.09	-54.6	-75.8	3.8	7.46e-01	0	41	104	0	80	42348
2026-01-04 00:18:09.84	27.97	6.16	-54.6	-75.8	3.8	7.43e-01	0	41	104	0	80	42313
2026-01-04 00:18:10.85	28.05	6.23	-54.5	-75.9	3.8	7.44e-01	0	41	104	0	80	42484
2026-01-04 00:18:11.85	28.13	6.30	-54.6	-76.0	3.8	7.44e-01	0	41	104	0	80	42939
2026-01-04 00:18:12.86	28.22	6.37	-54.5	-75.9	3.8	7.50e-01	0	41	104	0	80	42898
2026-01-04 00:18:13.86	28.30	6.44	-54.4	-75.9	3.8	7.44e-01	0	42	104	0	80	42659
2026-01-04 00:18:14.87	28.38	6.51	-54.4	-75.9	3.8	7.47e-01	0	41	104	0	80	42843
2026-01-04 00:18:15.87	28.47	6.58	-54.4	-75.9	3.8	7.44e-01	0	41	104	0	80	42452
2026-01-04 00:18:16.87	28.55	6.66	-54.4	-75.8	3.8	7.43e-01	0	41	104	0	80	42065
2026-01-04 00:18:17.88	28.64	6.73	-54.5	-75.6	3.8	7.48e-01	0	41	104	0	80	41419
2026-01-04 00:18:18.88	28.72	6.80	-54.4	-75.4	3.8	7.43e-01	0	42	104	0	80	40250
2026-01-04 00:18:19.89	28.81	6.87	-54.4	-75.3	3.8	7.44e-01	0	42	104	0	80	40045
2026-01-04 00:18:20.89	28.90	6.94	-54.4	-75.5	3.8	7.44e-01	0	42	104	0	80	40574
2026-01-04 00:18:21.90	28.98	7.01	-54.4	-75.7	3.8	7.43e-01	0	42	104	0	80	41501
2026-01-04 00:18:22.90	29.07	7.09	-54.4	-75.9	3.8	7.45e-01	0	42	104	0	80	42424
2026-01-04 00:18:23.90	29.16	7.16	-54.4	-75.9	3.8	7.47e-01	0	41	104	0	80	42790
2026-01-04 00:18:24.91	29.25	7.23	-54.4	-75.6	3.8	7.44e-01	0	42	104	0	80	41339
2026-01-04 00:18:25.91	29.33	7.30	-54.3	-75.2	3.8	7.46e-01	0	42	104	0	80	39314
2026-01-04 00:18:26.92	29.42	7.38	-54.4	-74.8	3.8	7.45e-01	0	42	104	0	80	37467
2026-01-04 00:18:27.92	29.51	7.45	-54.4	-74.4	3.8	7.46e-01	0	42	104	0	80	36086
2026-01-04 00:18:28.93	29.60	7.52	-54.4	-74.5	3.8	7.44e-01	0	42	104	0	80	36368
2026-01-04 00:18:29.93	29.69	7.59	-54.4	-74.8	3.8	7.44e-01	0	42	104	0	80	37470
2026-01-04 00:18:30.94	29.79	7.67	-54.4	-75.1	3.8	7.47e-01	0	42	104	0	80	39015
2026-01-04 00:18:31.94	29.88	7.74	-54.6	-75.5	3.8	7.43e-01	0	42	104	0	80	40966
2026-01-04 00:18:32.95	29.97	7.82	-54.6	-75.5	3.8	7.48e-01	0	42	104	0	80	40674
2026-01-04 00:18:33.95	30.06	7.89	-54.5	-75.2	3.8	7.44e-01	0	42	104	0	80	39415
2026-01-04 00:18:34.96	30.15	7.96	-54.5	-74.9	3.8	7.48e-01	0	42	104	0	80	38070
2026-01-04 00:18:35.96	30.25	8.04	-54.5	-75.0	3.8	7.45e-01	0	42	104	0	80	38408
2026-01-04 00:18:36.96	30.34	8.11	-54.5	-75.2	3.8	7.45e-01	0	42	104	0	80	39511
2026-01-04 00:18:37.97	30.44	8.19	-54.5	-75.7	3.8	7.49e-01	0	42	104	0	80	41793
2026-01-04 00:18:38.97	30.53	8.26	-54.4	-75.9	3.8	7.46e-01	0	42	104	0	80	42651
2026-01-04 00:18:39.98	30.63	8.34	-54.4	-75.5	3.8	7.44e-01	0	42	104	0	80	40561
2026-01-04 00:18:40.98	30.72	8.41	-54.4	-74.5	3.8	7.45e-01	0	42	104	0	80	36297
2026-01-04 00:18:41.99	30.82	8.49	-54.3	-73.0	3.9	7.37e-01	0	42	104	0	80	30655
2026-01-04 00:18:42.99	30.92	8.56	-54.3	-72.1	4.1	7.31e-01	0	42	104	0	80	27533
2026-01-04 00:18:44.00	31.01	8.64	-54.3	-71.7	3.9	7.38e-01	0	42	104	0	80	26442
2026-01-04 00:18:45.00	31.11	8.72	-54.3	-71.9	4.2	7.40e-01	0	42	104	0	80	26939
2026-01-04 00:18:46.00	31.21	8.79	-54.3	-71.5	4.0	7.39e-01	0	42	104	0	80	25720
2026-01-04 00:18:47.01	31.31	8.87	-54.2	-69.2	5.8	6.91e-01	0	42	0	0	80	19784
2026-01-04 00:18:48.01	31.41	8.95	-54.1	-66.8	7.8	6.48e-01	0	42	0	1572864	80	14961
2026-01-04 00:18:49.01	31.51	9.02	-53.9	-64.2	10.6	6.13e-01	0	42	0	3670016	79	11784
2026-01-04 00:18:50.02	31.61	9.10	-52.7	-62.8	12.1	6.09e-01	0	42	0	5242880	77	11266
2026-01-04 00:18:51.02	31.71	9.18	-53.3	-71.5	4.0	7.40e-01	0	42	104	6815744	77	30715
2026-01-04 00:18:52.02	31.81	9.25	-52.9	-59.8	15.2	6.05e-01	0	42	0	7864320	77	7953
2026-01-04 00:18:53.03	31.92	9.33	-54.1	-73.2	3.9	7.45e-01	0	42	104	8912896	78	35272
2026-01-04 00:18:54.03	32.02	9.41	-50.4	-54.4	20.4	6.02e-01	0	43	0	9961472	72	5674
2026-01-04 00:18:55.04	32.12	9.49	-50.2	-54.4	20.4	6.01e-01	0	42	0	11534336	72	5706
2026-01-04 00:18:56.04	32.23	9.57	-50.1	-54.5	20.5	6.05e-01	0	42	0	13631488	72	5732
2026-01-04 00:18:57.04	32.33	9.64	-50.1	-54.5	20.4	6.02e-01	0	42	0	15728640	71	6106
2026-01-04 00:18:58.05	32.44	9.72	-50.0	-54.2	20.8	6.04e-01	0	42	0	17301504	71	5867
2026-01-04 00:18:59.05	32.54	9.80	-50.1	-54.1	20.9	6.03e-01	0	42	0	19398656	71	5814
2026-01-04 00:19:00.05	32.65	9.88	-50.0	-53.9	21.0	6.01e-01	0	42	0	20971520	71	5680
2026-01-04 00:19:01.06	32.76	9.96	-50.0	-53.7	21.2	6.06e-01	0	42	0	23068672	71	5546
2026-01-04 00:19:02.19	32.88	10.05	-49.6	-53.2	21.2	6.05e-01	0	43	0	25165824	71	5279
2026-01-04 00:19:03.04	32.97	10.12	-49.3	-52.9	21.9	6.03e-01	0	42	0	26738688	70	5347
2026-01-04 00:19:04.19	33.09	10.21	-48.9	-52.8	21.9	6.02e-01	0	42	0	28835840	69	5640
2026-01-04 00:19:05.05	33.19	10.28	-48.9	-52.9	21.9	6.05e-01	0	42	0	30408704	69	5720
2026-01-04 00:19:06.20	33.31	10.37	-48.7	-52.6	22.2	6.02e-01	0	42	0	32505856	69	5487
2026-01-04 00:19:07.06	33.41	10.44	-48.5	-52.4	22.3	6.04e-01	0	43	0	34078720	69	5401
2026-01-04 00:19:08.21	33.54	10.53	-48.8	-52.7	22.3	6.05e-01	0	43	0	36175872	69	5583
2026-01-04 00:19:09.07	33.63	10.60	-48.7	-52.6	22.3	6.03e-01	0	43	0	37748736	69	5512
2026-01-04 00:19:10.21	33.76	10.69	-49.0	-52.6	22.3	6.04e-01	0	42	0	40370176	69	5505
2026-01-04 00:19:11.07	33.86	10.76	-49.3	-52.7	22.2	6.04e-01	0	43	0	41943040	69	5574
2026-01-04 00:19:12.21	33.99	10.85	-49.4	-52.7	22.1	6.03e-01	0	43	0	44040192	69	5553
2026-01-04 00:19:13.07	34.08	10.92	-49.5	-52.7	22.2	6.03e-01	0	42	0	45613056	69	5567
2026-01-04 00:19:14.33	34.23	11.03	-49.2	-52.3	22.5	6.03e-01	0	43	0	47710208	69	5304
2026-01-04 00:19:15.08	34.32	11.09	-49.2	-52.4	22.4	6.03e-01	0	43	0	49283072	69	5385
2026-01-04 00:19:16.55	34.49	11.21	-48.8	-52.4	22.4	6.04e-01	0	43	0	51904512	69	5375
2026-01-04 00:19:17.27	34.57	11.27	-48.6	-52.2	22.6	6.00e-01	0	43	0	53477376	69	5255
2026-01-04 00:19:18.56	34.72	11.37	-48.5	-52.1	22.6	6.03e-01	0	43	0	55574528	69	5216
2026-01-04 00:19:19.27	34.81	11.43	-48.5	-52.1	22.7	6.03e-01	0	42	0	57147392	69	5210
2026-01-04 00:19:20.74	34.98	11.55	-48.7	-52.2	22.7	6.02e-01	0	42	0	59768832	69	5236
2026-01-04 00:19:21.46	35.07	11.61	-48.7	-52.1	22.7	6.01e-01	0	43	0	61341696	69	5177
2026-01-04 00:19:22.75	35.23	11.72	-49.2	-52.3	22.7	6.04e-01	0	43	0	63438848	69	5291
2026-01-04 00:19:23.46	35.31	11.78	-49.3	-52.2	22.7	6.03e-01	0	43	0	65011712	69	5264
2026-01-04 00:19:24.75	35.47	11.89	-49.4	-52.2	22.8	6.04e-01	0	43	0	67633152	69	5247
2026-01-04 00:19:25.47	35.56	11.95	-49.2	-52.0	22.9	6.03e-01	0	43	0	68681728	69	5151
2026-01-04 00:19:26.75	35.72	12.06	-48.9	-51.8	23.0	6.04e-01	0	43	0	71303168	69	5035
2026-01-04 00:19:27.47	35.81	12.12	-48.9	-51.9	22.9	6.04e-01	0	43	0	72351744	69	5094
2026-01-04 00:19:28.76	35.97	12.23	-48.6	-51.9	22.9	6.03e-01	0	43	0	74973184	69	5079
2026-01-04 00:19:29.48	36.06	12.29	-48.6	-51.9	22.9	6.02e-01	0	43	0	76546048	69	5098
2026-01-04 00:19:30.77	36.22	12.40	-48.6	-52.0	22.9	6.04e-01	0	43	0	78643200	69	5119
2026-01-04 00:19:31.49	36.31	12.46	-48.5	-51.8	23.0	6.04e-01	0	43	0	80216064	69	5012
2026-01-04 00:19:32.77	36.48	12.57	-48.6	-52.0	22.9	6.04e-01	0	43	0	82313216	69	5128
2026-01-04 00:19:33.49	36.57	12.63	-48.4	-51.8	23.0	6.03e-01	0	42	0	83886080	68	5292
2026-01-04 00:19:34.78	36.74	12.74	-47.7	-51.6	23.1	6.03e-01	0	43	0	86507520	67	5498
2026-01-04 00:19:35.49	36.83	12.80	-47.3	-51.7	23.1	6.04e-01	0	43	0	87556096	66	5873
2026-01-04 00:19:36.78	37.00	12.91	-46.9	-51.9	23.0	6.04e-01	0	43	0	90177536	65	6356
2026-01-04 00:19:37.50	37.09	12.98	-46.7	-52.1	22.9	6.04e-01	0	43	0	91226112	65	6504
2026-01-04 00:19:38.78	37.26	13.09	-46.6	-51.7	23.1	6.04e-01	0	43	0	93847552	65	6259
2026-01-04 00:19:39.50	37.36	13.15	-46.5	-51.6	23.2	6.02e-01	0	43	0	94896128	65	6167
2026-01-04 00:19:40.79	37.53	13.26	-46.8	-51.7	23.1	6.05e-01	0	43	0	97517568	65	6243
2026-01-04 00:19:41.55	37.64	13.33	-47.1	-51.8	23.0	6.03e-01	0	43	0	99090432	65	6320
2026-01-04 00:19:42.84	37.81	13.44	-47.8	-51.6	23.2	6.03e-01	0	43	0	101187584	66	5855
2026-01-04 00:19:43.66	37.92	13.51	-48.3	-51.8	23.1	6.04e-01	0	43	0	102760448	67	5597
2026-01-04 00:19:45.12	38.13	13.64	-48.4	-51.6	23.2	6.05e-01	0	43	0	105381888	67	5517
2026-01-04 00:19:46.24	38.28	13.74	-48.5	-51.6	23.2	6.05e-01	0	43	0	107479040	67	5511
2026-01-04 00:19:47.10	38.40	13.82	-48.6	-51.7	23.2	6.04e-01	0	43	0	109576192	67	5575
2026-01-04 00:19:48.24	38.56	13.92	-48.3	-51.6	23.2	6.02e-01	0	43	0	111673344	67	5524
2026-01-04 00:19:49.11	38.69	14.00	-48.2	-51.6	23.1	6.05e-01	0	43	0	113246208	67	5522
2026-01-04 00:19:50.31	38.86	14.10	-48.1	-51.6	23.2	6.04e-01	0	43	0	115343360	67	5512
2026-01-04 00:19:51.17	38.98	14.18	-48.0	-51.6	23.2	6.02e-01	0	43	0	116916224	67	5509
2026-01-04 00:19:52.32	39.15	14.28	-47.9	-51.5	23.4	6.03e-01	0	43	0	119013376	67	5417
2026-01-04 00:19:53.18	39.27	14.36	-48.0	-51.5	23.3	6.04e-01	0	43	0	120586240	67	5407
2026-01-04 00:19:54.33	39.44	14.47	-48.1	-51.4	23.4	6.02e-01	0	43	0	122683392	67	5365
2026-01-04 00:19:55.18	39.57	14.54	-48.2	-51.5	23.3	6.05e-01	0	43	0	124256256	67	5429
2026-01-04 00:19:56.33	39.74	14.65	-48.3	-51.5	23.3	6.02e-01	0	43	0	126877696	67	5449
2026-01-04 00:19:57.19	39.86	14.72	-48.4	-51.5	23.3	6.04e-01	0	43	0	128450560	67	5414
2026-01-04 00:19:58.34	40.04	14.83	-48.8	-51.9	23.2	6.03e-01	0	43	0	130547712	68	5343
2026-01-04 00:19:59.20	40.17	14.91	-48.7	-51.7	23.4	6.04e-01	0	43	0	132120576	68	5233
2026-01-04 00:20:00.34	40.34	15.01	-48.6	-51.5	23.5	6.03e-01	0	43	0	134217728	68	5105
2026-01-04 00:20:01.20	40.47	15.09	-48.8	-51.6	23.4	6.03e-01	0	43	0	135790592	68	5164
2026-01-04 00:20:02.35	40.65	15.20	-48.9	-51.6	23.4	6.04e-01	0	43	0	137887744	68	5179
2026-01-04 00:20:03.21	40.78	15.28	-48.9	-51.5	23.4	6.02e-01	0	43	0	139460608	68	5140
2026-01-04 00:20:04.36	40.96	15.38	-49.0	-51.6	23.5	6.03e-01	0	43	0	141557760	68	5206
2026-01-04 00:20:05.22	41.10	15.46	-48.9	-51.5	23.5	6.05e-01	0	43	0	143130624	68	5143
2026-01-04 00:20:06.36	41.28	15.57	-48.7	-51.4	23.6	6.02e-01	0	43	0	145227776	68	5084
2026-01-04 00:20:07.22	41.41	15.65	-48.8	-51.5	23.6	6.03e-01	0	43	0	146800640	68	5114
2026-01-04 00:20:08.36	41.60	15.75	-48.7	-51.4	23.5	6.04e-01	0	43	0	149422080	68	5092
2026-01-04 00:20:09.22	41.74	15.83	-48.8	-51.5	23.4	6.05e-01	0	43	0	150994944	68	5135
2026-01-04 00:20:10.56	41.95	15.96	-48.9	-51.5	23.5	6.05e-01	0	43	0	153092096	68	5131
2026-01-04 00:20:11.28	42.07	16.02	-48.9	-51.6	23.4	6.01e-01	0	43	0	154664960	68	5160
2026-01-04 00:20:12.79	42.32	16.17	-48.8	-51.4	23.5	6.06e-01	0	43	0	157286400	68	5092
2026-01-04 00:20:13.50	42.44	16.23	-48.7	-51.2	23.7	6.04e-01	0	43	0	158859264	68	4976
2026-01-04 00:20:14.79	42.65	16.35	-48.7	-51.2	23.7	6.04e-01	0	43	0	161480704	68	4975
2026-01-04 00:20:15.51	42.77	16.42	-48.7	-51.3	23.6	6.04e-01	0	43	0	162529280	68	5014
2026-01-04 00:20:16.80	42.99	16.54	-48.6	-51.2	23.8	6.02e-01	0	43	0	165150720	68	4949
2026-01-04 00:20:17.51	43.11	16.61	-48.7	-51.2	23.7	6.03e-01	0	43	0	166199296	68	4975
2026-01-04 00:20:18.80	43.33	16.73	-48.6	-51.2	23.8	6.04e-01	0	43	0	168820736	68	4945
2026-01-04 00:20:19.52	43.46	16.80	-48.6	-51.2	23.8	6.03e-01	0	43	0	169869312	68	4951
2026-01-04 00:20:20.81	43.68	16.93	-48.7	-51.4	23.8	6.04e-01	0	43	0	172490752	68	5045
2026-01-04 00:20:21.59	43.82	17.00	-48.7	-51.4	23.7	6.04e-01	0	43	0	174063616	68	5097
2026-01-04 00:20:22.88	44.04	17.12	-48.7	-51.4	23.7	6.05e-01	0	43	0	176685056	68	5087
2026-01-04 00:20:23.66	44.18	17.20	-48.7	-51.4	23.6	6.03e-01	0	43	0	177733632	68	5085
2026-01-04 00:20:25.27	44.47	17.35	-48.6	-51.3	23.7	6.02e-01	0	43	0	180879360	68	4990
2026-01-04 00:20:25.84	44.57	17.41	-48.6	-51.2	23.8	6.03e-01	0	43	0	181927936	68	4962
2026-01-04 00:20:27.44	44.86	17.56	-48.6	-51.2	23.8	6.04e-01	0	43	0	185073664	68	4951
2026-01-04 00:20:28.02	44.97	17.62	-48.6	-51.1	23.8	6.03e-01	0	43	0	186122240	68	4919
2026-01-04 00:20:29.59	45.26	17.77	-48.7	-51.3	23.8	6.03e-01	0	43	0	188743680	68	4984
2026-01-04 00:20:30.21	45.37	17.83	-48.6	-51.1	23.8	6.03e-01	0	43	0	190316544	68	4908
2026-01-04 00:20:31.82	45.67	17.99	-48.6	-51.1	23.9	6.04e-01	0	43	0	192937984	68	4925
2026-01-04 00:20:32.39	45.78	18.04	-48.6	-51.1	23.8	6.03e-01	0	43	0	194510848	68	4922
2026-01-04 00:20:33.97	46.08	18.20	-48.6	-51.2	23.8	6.05e-01	0	43	0	197132288	68	4967
2026-01-04 00:20:34.57	46.19	18.25	-48.6	-51.2	23.8	6.04e-01	0	43	0	198180864	68	4979
2026-01-04 00:20:36.15	46.49	18.41	-48.5	-51.1	23.9	6.02e-01	0	43	0	201326592	68	4917
2026-01-04 00:20:36.75	46.61	18.47	-48.6	-51.2	23.8	6.04e-01	0	43	0	202375168	68	4974
2026-01-04 00:20:38.33	46.92	18.62	-48.7	-51.3	23.7	6.02e-01	0	43	0	205520896	68	5029
2026-01-04 00:20:38.96	47.04	18.68	-48.8	-51.4	23.7	6.06e-01	0	43	0	206569472	68	5057
2026-01-04 00:20:40.41	47.33	18.83	-48.7	-51.3	23.8	6.05e-01	0	43	0	209190912	68	4990
2026-01-04 00:20:41.13	47.47	18.90	-48.5	-51.1	23.9	6.03e-01	0	43	0	210763776	68	4871
2026-01-04 00:20:42.56	47.76	19.04	-48.5	-51.0	23.9	6.03e-01	0	43	0	213385216	68	4858
2026-01-04 00:20:43.27	47.90	19.11	-48.5	-51.0	23.9	6.03e-01	0	43	0	214433792	68	4869
2026-01-04 00:20:44.56	48.16	19.24	-48.6	-51.1	23.8	6.03e-01	0	43	0	217055232	68	4912
2026-01-04 00:20:45.28	48.31	19.31	-48.6	-51.2	23.8	6.04e-01	0	43	0	218628096	68	4938
2026-01-04 00:20:46.57	48.58	19.43	-48.6	-51.1	23.8	6.03e-01	0	43	0	220725248	68	4905
2026-01-04 00:20:47.28	48.72	19.50	-48.6	-51.1	23.8	6.03e-01	0	43	0	222298112	68	4899
2026-01-04 00:20:48.78	49.04	19.65	-48.7	-51.2	23.8	6.04e-01	0	43	0	224919552	68	4947
2026-01-04 00:20:49.50	49.19	19.72	-48.7	-51.2	23.8	6.03e-01	0	43	0	226492416	68	4952
2026-01-04 00:20:50.78	49.46	19.85	-48.7	-51.3	23.7	6.00e-01	0	43	0	228589568	68	5003
2026-01-04 00:20:51.50	49.61	19.92	-48.8	-51.4	23.6	6.02e-01	0	43	0	230162432	68	5079
2026-01-04 00:20:52.79	49.89	20.05	-48.7	-51.2	23.8	6.04e-01	0	43	0	232259584	68	4958
2026-01-04 00:20:53.51	50.04	20.12	-48.7	-51.2	23.8	6.04e-01	0	43	0	233832448	68	4965
2026-01-04 00:20:54.79	50.32	20.25	-48.8	-51.4	23.8	6.04e-01	0	43	0	236453888	68	5086
2026-01-04 00:20:55.51	50.48	20.32	-48.7	-51.4	23.8	6.04e-01	0	43	0	237502464	68	5048
2026-01-04 00:20:56.79	50.76	20.45	-48.8	-51.5	23.6	6.04e-01	0	43	0	240123904	68	5131
2026-01-04 00:20:57.66	50.96	20.54	-48.8	-51.5	23.7	6.01e-01	0	43	0	241696768	68	5112
2026-01-04 00:20:59.12	51.28	20.68	-48.8	-51.5	23.6	6.02e-01	0	43	0	244318208	68	5117
2026-01-04 00:20:59.84	51.45	20.75	-48.7	-51.4	23.7	6.04e-01	0	43	0	245891072	68	5059
2026-01-04 00:21:01.13	51.74	20.88	-48.8	-51.3	23.8	6.04e-01	0	43	0	247988224	68	5036
2026-01-04 00:21:01.86	51.90	20.95	-48.7	-51.3	23.7	6.04e-01	0	43	0	249561088	68	5023
2026-01-04 00:21:03.14	52.20	21.08	-48.7	-51.3	23.7	6.04e-01	0	43	0	251658240	68	5015
2026-01-04 00:21:03.97	52.39	21.16	-48.7	-51.3	23.7	6.02e-01	0	43	0	253231104	68	5027
2026-01-04 00:21:05.12	52.66	21.28	-48.8	-51.3	23.7	6.05e-01	0	43	0	255328256	68	5034
2026-01-04 00:21:05.98	52.86	21.36	-48.8	-51.4	23.7	6.02e-01	0	43	0	257425408	68	5058
2026-01-04 00:21:07.12	53.13	21.48	-48.8	-51.4	23.7	6.05e-01	0	43	0	259522560	68	5073
2026-01-04 00:21:07.98	53.34	21.56	-49.0	-51.6	23.6	6.02e-01	0	43	0	261095424	68	5188
2026-01-04 00:21:09.12	53.61	21.68	-49.0	-51.5	23.6	6.05e-01	0	43	0	263192576	68	5146
2026-01-04 00:21:09.98	53.82	21.76	-48.9	-51.5	23.5	6.05e-01	0	43	0	264765440	68	5115
2026-01-04 00:21:11.15	54.10	21.88	-49.0	-51.6	23.6	6.04e-01	0	43	0	266862592	68	5198
2026-01-04 00:21:12.42	54.41	22.00	-49.1	-51.7	23.4	6.04e-01	0	43	0	269484032	68	5248
2026-01-04 00:21:13.14	54.59	22.08	-48.9	-51.5	23.6	6.04e-01	0	43	0	270532608	68	5109
2026-01-04 00:21:14.43	54.91	22.20	-48.9	-51.4	23.7	6.04e-01	0	43	0	273154048	68	5083
2026-01-04 00:21:15.14	55.09	22.27	-48.9	-51.4	23.7	6.03e-01	0	43	0	274202624	68	5093
2026-01-04 00:21:16.43	55.41	22.40	-48.9	-51.5	23.6	6.03e-01	0	43	0	276824064	68	5125
2026-01-04 00:21:17.14	55.59	22.47	-48.8	-51.3	23.7	6.01e-01	0	43	0	278396928	68	5039
2026-01-04 00:21:18.56	55.95	22.61	-48.9	-51.5	23.6	6.01e-01	0	43	0	281018368	68	5101
2026-01-04 00:21:19.28	56.14	22.68	-49.0	-51.5	23.5	6.02e-01	0	43	0	282066944	68	5157
2026-01-04 00:21:20.57	56.47	22.81	-48.9	-51.5	23.5	6.05e-01	0	43	0	284688384	68	5126
2026-01-04 00:21:21.28	56.65	22.88	-49.0	-51.6	23.5	6.01e-01	0	43	0	285736960	68	5208
2026-01-04 00:21:22.57	56.99	23.00	-49.0	-51.6	23.5	6.02e-01	0	43	0	288358400	68	5179
2026-01-04 00:21:23.29	57.18	23.07	-48.7	-51.4	23.6	6.03e-01	0	43	0	289931264	68	5060
2026-01-04 00:21:24.76	57.57	23.22	-49.2	-51.8	23.5	6.04e-01	0	43	0	292552704	68	5328
2026-01-04 00:21:25.74	57.83	23.31	-49.1	-51.8	23.6	6.04e-01	0	43	0	294125568	68	5314
2026-01-04 00:21:26.74	58.10	23.41	-49.2	-52.0	23.5	6.00e-01	0	43	0	296222720	69	5106
2026-01-04 00:21:27.74	58.37	23.51	-49.1	-51.9	23.5	6.03e-01	0	43	0	297795584	69	5042
2026-01-04 00:21:28.74	58.64	23.60	-49.1	-51.8	23.5	6.03e-01	0	43	0	299892736	69	5039
2026-01-04 00:21:29.74	58.92	23.70	-49.0	-51.7	23.6	6.03e-01	0	43	0	301989888	69	4971
2026-01-04 00:21:30.74	59.19	23.80	-49.1	-51.8	23.6	6.03e-01	0	43	0	303562752	69	5005
2026-01-04 00:21:31.74	59.47	23.89	-49.0	-51.7	23.5	6.02e-01	0	43	0	305659904	69	4943
2026-01-04 00:21:32.75	59.75	23.99	-49.1	-51.7	23.5	6.03e-01	0	43	0	307232768	69	4979
2026-01-04 00:21:33.75	60.03	24.08	-49.1	-51.7	23.4	6.03e-01	0	43	0	309329920	69	4959
2026-01-04 00:21:34.75	60.32	24.18	-49.2	-51.8	23.5	6.01e-01	0	43	0	310902784	69	5023
2026-01-04 00:21:35.76	60.60	24.27	-49.2	-51.8	23.4	6.03e-01	0	43	0	312999936	69	5028
2026-01-04 00:21:36.76	60.89	24.37	-49.1	-51.7	23.5	6.02e-01	0	43	0	315097088	69	4956
2026-01-04 00:21:37.76	61.18	24.46	-49.0	-51.6	23.6	6.04e-01	0	43	0	316669952	69	4918
2026-01-04 00:21:38.77	61.47	24.56	-49.1	-51.7	23.5	6.05e-01	0	43	0	318767104	69	4976
2026-01-04 00:21:39.77	61.76	24.65	-49.2	-51.8	23.4	6.03e-01	0	43	0	320339968	69	5013
2026-01-04 00:21:40.77	62.06	24.74	-49.2	-51.8	23.4	6.01e-01	0	43	0	322437120	69	5038
2026-01-04 00:21:41.77	62.35	24.83	-49.1	-51.7	23.5	6.05e-01	0	43	0	324534272	69	4957
2026-01-04 00:21:42.77	62.65	24.93	-49.1	-51.7	23.5	6.02e-01	0	43	0	326107136	69	4933
2026-01-04 00:21:43.78	62.95	25.02	-49.2	-51.8	23.4	6.02e-01	0	43	0	328204288	69	5016
2026-01-04 00:21:44.78	63.25	25.11	-49.2	-51.9	23.4	6.04e-01	0	43	0	329777152	69	5051
2026-01-04 00:21:45.78	63.55	25.20	-49.1	-51.7	23.5	6.04e-01	0	43	0	331874304	69	4962
2026-01-04 00:21:46.78	63.86	25.29	-49.0	-51.6	23.6	6.02e-01	0	43	0	333971456	69	4875
2026-01-04 00:21:47.78	64.16	25.38	-49.2	-51.8	23.4	6.01e-01	0	43	0	335544320	69	5011
2026-01-04 00:21:48.96	64.53	25.48	-49.1	-51.7	23.5	6.04e-01	0	43	0	337641472	69	4939
2026-01-04 00:21:49.85	64.80	25.56	-49.2	-51.8	23.6	6.03e-01	0	43	0	339214336	69	5005
2026-01-04 00:21:51.00	65.16	25.66	-49.2	-51.8	23.6	6.04e-01	0	43	0	341835776	69	4985
2026-01-04 00:21:51.85	65.43	25.74	-49.2	-51.7	23.6	6.04e-01	0	43	0	343408640	69	4953
2026-01-04 00:21:53.00	65.79	25.84	-49.3	-51.9	23.5	6.02e-01	0	43	0	345505792	69	5059
2026-01-04 00:21:53.86	66.06	25.91	-49.2	-51.7	23.5	6.04e-01	0	43	0	347078656	69	4967
2026-01-04 00:21:55.00	66.43	26.01	-49.2	-51.8	23.5	6.04e-01	0	43	0	349175808	69	5022
2026-01-04 00:21:55.86	66.70	26.08	-49.2	-51.8	23.5	6.02e-01	0	43	0	350748672	69	4996
2026-01-04 00:21:57.01	67.07	26.18	-49.0	-51.5	23.7	6.05e-01	0	43	0	352845824	69	4869
2026-01-04 00:21:57.87	67.35	26.25	-49.0	-51.6	23.4	6.03e-01	0	43	0	354418688	69	4879
2026-01-04 00:21:59.01	67.72	26.35	-49.3	-51.9	23.4	6.06e-01	0	43	0	356515840	69	5054
2026-01-04 00:21:59.88	68.01	26.42	-49.2	-51.7	23.5	6.03e-01	0	43	0	358088704	69	4982
2026-01-04 00:22:01.02	68.38	26.51	-49.1	-51.6	23.5	6.05e-01	0	43	0	360185856	69	4917
2026-01-04 00:22:01.88	68.67	26.58	-49.1	-51.6	23.5	6.00e-01	0	43	0	362283008	69	4906
2026-01-04 00:22:03.03	69.05	26.68	-49.1	-51.6	23.6	6.00e-01	0	43	0	364380160	69	4919
2026-01-04 00:22:03.88	69.33	26.74	-49.3	-51.9	23.5	6.04e-01	0	43	0	365953024	69	5059
2026-01-04 00:22:05.03	69.72	26.83	-49.2	-51.7	23.6	6.02e-01	0	43	0	368050176	69	4964
2026-01-04 00:22:05.89	70.01	26.90	-49.1	-51.7	23.6	6.05e-01	0	43	0	369623040	69	4946
2026-01-04 00:22:07.03	70.40	26.99	-49.1	-51.7	23.5	6.05e-01	0	43	0	371720192	69	4983
2026-01-04 00:22:07.89	70.69	27.06	-49.2	-51.8	23.4	6.03e-01	0	43	0	373293056	69	4990
2026-01-04 00:22:09.04	71.09	27.14	-48.9	-51.5	23.6	6.04e-01	0	43	0	375390208	69	4824
2026-01-04 00:22:09.90	71.38	27.21	-49.0	-51.5	23.6	6.02e-01	0	43	0	376963072	69	4861
2026-01-04 00:22:11.04	71.78	27.29	-49.1	-51.7	23.5	6.06e-01	0	43	0	379060224	69	4970
2026-01-04 00:22:11.90	72.08	27.35	-49.0	-51.6	23.6	6.01e-01	0	43	0	380633088	69	4894
2026-01-04 00:22:13.05	72.48	27.44	-49.1	-51.6	23.5	6.05e-01	0	43	0	382730240	69	4917
2026-01-04 00:22:13.90	72.78	27.50	-49.1	-51.7	23.5	6.01e-01	0	43	0	384827392	69	4952
2026-01-04 00:22:15.05	73.18	27.58	-49.0	-51.5	23.7	6.05e-01	0	43	0	386924544	69	4840
2026-01-04 00:22:15.91	73.49	27.64	-49.0	-51.5	23.7	6.04e-01	0	43	0	388497408	69	4844
2026-01-04 00:22:17.06	73.90	27.72	-49.1	-51.6	23.6	6.04e-01	0	43	0	390594560	69	4915
2026-01-04 00:22:17.91	74.20	27.78	-49.0	-51.5	23.8	6.06e-01	0	43	0	392167424	69	4869
2026-01-04 00:22:19.06	74.62	27.85	-49.1	-51.6	23.7	6.04e-01	0	43	0	394264576	69	4889
2026-01-04 00:22:19.92	74.93	27.91	-49.1	-51.6	23.7	6.05e-01	0	43	0	395837440	69	4896
2026-01-04 00:22:21.07	75.34	27.98	-48.9	-51.4	23.8	6.02e-01	0	43	0	397934592	69	4808
2026-01-04 00:22:21.92	75.65	28.04	-48.8	-51.3	24.0	6.05e-01	0	43	0	399507456	69	4726
2026-01-04 00:22:23.07	76.07	28.11	-48.9	-51.5	23.7	6.02e-01	0	43	0	401604608	69	4845
2026-01-04 00:22:23.93	76.39	28.16	-48.9	-51.6	23.7	6.03e-01	0	43	0	403177472	69	4886
2026-01-04 00:22:25.14	76.83	28.24	-48.9	-51.4	23.8	6.04e-01	0	43	0	405798912	69	4812
2026-01-04 00:22:26.00	77.15	28.29	-48.8	-51.4	23.8	6.04e-01	0	43	0	407371776	69	4796
2026-01-04 00:22:27.15	77.58	28.35	-48.8	-51.4	23.8	6.03e-01	0	43	0	409468928	69	4794
2026-01-04 00:22:28.00	77.89	28.40	-48.9	-51.4	23.8	6.03e-01	0	43	0	411041792	69	4802
2026-01-04 00:22:29.15	78.32	28.47	-48.9	-51.5	23.8	6.05e-01	0	43	0	413138944	69	4822
2026-01-04 00:22:30.04	78.66	28.51	-49.0	-51.5	23.7	6.04e-01	0	43	0	414711808	69	4870
2026-01-04 00:22:31.18	79.09	28.58	-48.8	-51.4	23.8	6.04e-01	0	43	0	416808960	69	4775
2026-01-04 00:22:32.11	79.44	28.62	-48.9	-51.4	23.8	6.03e-01	0	43	0	418906112	69	4788
2026-01-04 00:22:33.29	79.89	28.68	-48.7	-51.2	24.0	6.02e-01	0	43	0	421003264	69	4652
2026-01-04 00:22:34.15	80.21	28.73	-48.8	-51.3	23.9	6.03e-01	0	43	0	422576128	69	4731
2026-01-04 00:22:35.29	80.65	28.78	-48.7	-51.2	24.0	6.04e-01	0	43	0	424673280	69	4682
2026-01-04 00:22:36.15	80.98	28.82	-48.7	-51.3	23.9	6.01e-01	0	43	0	426246144	69	4711
2026-01-04 00:22:37.29	81.42	28.88	-48.6	-51.2	23.9	6.03e-01	0	43	0	428343296	69	4667
2026-01-04 00:22:38.16	81.75	28.92	-48.5	-51.1	23.9	6.02e-01	0	43	0	429916160	69	4646
2026-01-04 00:22:39.30	82.19	28.97	-48.4	-51.0	24.0	6.05e-01	0	43	0	432013312	68	4847
2026-01-04 00:22:40.16	82.52	29.00	-48.6	-51.3	23.8	6.01e-01	0	43	0	433586176	68	4996
2026-01-04 00:22:41.31	82.97	29.05	-48.4	-50.9	24.1	6.03e-01	0	43	0	435683328	68	4803
2026-01-04 00:22:42.16	83.30	29.08	-48.3	-50.9	24.1	6.02e-01	0	43	0	437780480	68	4810
2026-01-04 00:22:43.31	83.75	29.13	-48.6	-51.4	24.0	6.03e-01	0	43	0	439877632	68	5044
2026-01-04 00:22:44.17	84.09	29.16	-48.4	-51.1	24.1	6.07e-01	0	43	0	441450496	68	4880
2026-01-04 00:22:45.31	84.53	29.20	-48.6	-51.2	24.0	6.05e-01	0	43	0	443547648	68	4973
2026-01-04 00:22:46.17	84.87	29.23	-48.6	-51.2	24.1	6.05e-01	0	43	0	445120512	68	4966
2026-01-04 00:22:47.51	85.40	29.27	-48.5	-51.1	24.2	6.05e-01	0	43	0	447741952	68	4873
2026-01-04 00:22:48.22	85.68	29.29	-48.5	-51.1	24.1	6.05e-01	0	43	0	448790528	68	4888
2026-01-04 00:22:49.51	86.19	29.33	-48.4	-51.0	24.2	6.03e-01	0	43	0	451411968	68	4839
2026-01-04 00:22:50.23	86.48	29.35	-48.3	-50.9	24.3	6.05e-01	0	43	0	452984832	68	4805
2026-01-04 00:22:51.52	86.99	29.39	-48.4	-51.0	24.2	6.05e-01	0	43	0	455081984	68	4841
2026-01-04 00:22:52.23	87.27	29.41	-48.3	-50.9	24.2	6.03e-01	0	43	0	456654848	68	4802
2026-01-04 00:22:53.86	87.92	29.45	-48.5	-51.0	24.2	6.04e-01	0	43	0	459276288	68	4853
2026-01-04 00:22:54.43	88.15	29.46	-48.4	-50.9	24.3	6.02e-01	0	43	0	460849152	68	4792
2026-01-04 00:22:56.02	88.78	29.49	-48.4	-50.9	24.2	6.04e-01	0	43	0	463470592	68	4801
2026-01-04 00:22:56.59	89.01	29.50	-48.3	-50.9	24.3	6.03e-01	0	43	0	464519168	68	4767
2026-01-04 00:22:58.19	89.65	29.53	-48.3	-50.8	24.4	6.02e-01	0	43	0	467664896	68	4716
2026-01-04 00:22:58.76	89.88	29.54	-48.5	-51.0	24.1	6.04e-01	0	43	0	468713472	68	4860
2026-01-04 00:23:00.34	90.52	29.56	-48.4	-50.9	24.3	6.02e-01	0	43	0	471859200	68	4784
2026-01-04 00:23:01.00	90.78	29.57	-48.4	-50.9	24.2	6.06e-01	0	43	0	472907776	68	4782
2026-01-04 00:23:02.44	91.36	29.59	-48.3	-50.8	24.3	6.01e-01	0	43	0	475529216	68	4749
2026-01-04 00:23:03.15	91.65	29.60	-48.2	-50.6	24.4	6.04e-01	0	43	0	477102080	68	4636
2026-01-04 00:23:04.77	92.30	29.61	-48.3	-50.8	24.3	6.05e-01	0	43	0	479723520	68	4722
2026-01-04 00:23:05.35	92.54	29.61	-48.3	-50.8	24.2	6.03e-01	0	43	0	481296384	68	4751
2026-01-04 00:23:06.92	93.17	29.62	-47.9	-50.3	24.6	6.04e-01	0	43	0	483917824	67	4746
2026-01-04 00:23:07.51	93.41	29.62	-47.9	-50.3	24.7	6.04e-01	0	43	0	484966400	67	4741
2026-01-04 00:23:09.09	94.05	29.63	-48.4	-50.9	24.2	6.02e-01	0	43	0	488112128	67	5073
2026-01-04 00:23:09.80	94.33	29.63	-48.2	-50.6	24.4	6.03e-01	0	43	0	489160704	67	4894
2026-01-04 00:23:11.09	94.85	29.62	-48.1	-50.6	24.3	6.07e-01	0	43	0	491782144	67	4875
2026-01-04 00:23:11.81	95.14	29.62	-48.3	-50.7	24.1	6.02e-01	0	43	0	493355008	67	4962
2026-01-04 00:23:13.10	95.67	29.62	-48.0	-50.4	24.5	6.04e-01	0	43	0	495452160	67	4799
2026-01-04 00:23:13.81	95.95	29.61	-47.9	-50.3	24.6	6.04e-01	0	43	0	497025024	67	4746
2026-01-04 00:23:15.14	96.49	29.60	-48.2	-50.6	24.5	6.04e-01	0	43	0	499646464	67	4885
2026-01-04 00:23:15.85	96.77	29.59	-48.4	-50.8	24.4	6.02e-01	0	43	0	500695040	67	5017
2026-01-04 00:23:17.14	97.29	29.58	-48.3	-50.7	24.4	6.04e-01	0	43	0	503316480	67	4982
2026-01-04 00:23:17.86	97.58	29.57	-48.4	-50.8	24.3	6.04e-01	0	43	0	504365056	67	5007
2026-01-04 00:23:19.27	98.15	29.55	-48.2	-50.6	24.4	6.02e-01	0	43	0	506986496	67	4889
2026-01-04 00:23:19.99	98.44	29.54	-48.1	-50.5	24.5	6.05e-01	0	43	0	508559360	67	4837
2026-01-04 00:23:21.28	98.96	29.52	-47.9	-50.3	24.6	6.05e-01	0	43	0	511180800	67	4730
2026-01-04 00:23:21.99	99.24	29.51	-47.9	-50.2	24.6	6.06e-01	0	43	0	512229376	67	4704
2026-01-04 00:23:23.28	99.76	29.48	-48.0	-50.5	24.4	6.04e-01	0	43	0	514850816	67	4848
2026-01-04 00:23:24.00	100.05	29.47	-48.0	-50.4	24.5	6.02e-01	0	43	0	515899392	67	4811
2026-01-04 00:23:25.29	100.56	29.44	-47.6	-50.0	24.8	6.03e-01	0	43	0	518520832	67	4578
2026-01-04 00:23:26.02	100.86	29.42	-47.9	-50.3	24.6	6.04e-01	0	43	0	519569408	67	4717
2026-01-04 00:23:27.31	101.37	29.39	-47.9	-50.3	24.6	6.03e-01	0	43	0	522190848	67	4721
2026-01-04 00:23:28.02	101.65	29.37	-47.8	-50.2	24.7	6.02e-01	0	43	0	523763712	67	4656
2026-01-04 00:23:29.31	102.16	29.33	-47.9	-50.2	24.7	6.05e-01	0	43	0	525860864	67	4690
2026-01-04 00:23:30.03	102.45	29.31	-47.9	-50.3	24.6	6.05e-01	0	43	0	527433728	67	4717
2026-01-04 00:23:31.32	102.96	29.27	-47.9	-50.2	24.6	6.03e-01	0	43	0	529530880	67	4679
2026-01-04 00:23:32.04	103.24	29.25	-48.2	-50.6	24.3	6.03e-01	0	43	0	531103744	67	4873
2026-01-04 00:23:33.33	103.75	29.20	-48.1	-50.5	24.3	6.03e-01	0	43	0	533725184	67	4863
2026-01-04 00:23:34.05	104.04	29.18	-48.1	-50.5	23.4	6.02e-01	0	43	0	534773760	67	4848
2026-01-04 00:23:35.34	104.54	29.13	-47.9	-50.3	24.5	6.02e-01	0	43	0	537395200	67	4719
2026-01-04 00:23:36.06	104.82	29.10	-47.7	-50.1	24.7	6.02e-01	0	43	0	538443776	67	4605
2026-01-04 00:23:37.46	105.37	29.05	-48.0	-50.4	24.5	6.02e-01	0	43	0	541065216	67	4776
2026-01-04 00:23:38.18	105.65	29.02	-47.8	-50.2	24.6	6.06e-01	0	43	0	542638080	67	4679
2026-01-04 00:23:39.47	106.15	28.97	-48.1	-50.4	24.6	6.03e-01	0	43	0	544735232	67	4812
2026-01-04 00:23:40.20	106.43	28.93	-47.9	-50.3	24.7	6.05e-01	0	43	0	546308096	67	4718
2026-01-04 00:23:41.49	106.93	28.88	-48.0	-50.4	24.6	6.06e-01	0	43	0	548929536	67	4761
2026-01-04 00:23:42.20	107.21	28.84	-47.9	-50.3	24.6	6.02e-01	0	43	0	549978112	67	4751
2026-01-04 00:23:43.49	107.70	28.78	-47.8	-50.1	24.8	6.05e-01	0	43	0	552599552	67	4645
2026-01-04 00:23:44.21	107.98	28.75	-47.9	-50.3	24.7	6.03e-01	0	43	0	553648128	67	4713
2026-01-04 00:23:45.50	108.47	28.68	-48.1	-50.5	24.4	6.02e-01	0	43	0	556269568	67	4831
2026-01-04 00:23:46.21	108.74	28.65	-48.1	-50.5	24.4	6.02e-01	0	43	0	557842432	67	4826
2026-01-04 00:23:47.50	109.23	28.58	-48.0	-50.3	24.6	6.02e-01	0	43	0	559939584	67	4751
2026-01-04 00:23:48.22	109.50	28.54	-48.0	-50.4	24.5	6.02e-01	0	43	0	561512448	67	4761
2026-01-04 00:23:49.50	109.98	28.47	-47.8	-50.2	24.6	6.04e-01	0	43	0	563609600	67	4675
2026-01-04 00:23:50.22	110.25	28.43	-47.9	-50.3	24.5	6.03e-01	0	43	0	565182464	67	4731
2026-01-04 00:23:51.51	110.73	28.36	-48.0	-50.4	24.4	6.05e-01	0	43	0	567803904	67	4791
2026-01-04 00:23:52.22	111.00	28.32	-48.1	-50.6	24.3	6.03e-01	0	43	0	568852480	67	4872
2026-01-04 00:23:53.58	111.50	28.24	-47.9	-50.4	24.4	6.06e-01	0	43	0	571473920	67	4774
2026-01-04 00:23:54.30	111.77	28.19	-47.8	-50.2	24.6	6.04e-01	0	43	0	573046784	67	4675
2026-01-04 00:23:55.59	112.25	28.11	-47.9	-50.2	24.6	6.04e-01	0	43	0	575143936	67	4705
2026-01-04 00:23:56.67	112.64	28.05	-47.8	-50.2	24.6	6.06e-01	0	43	0	577241088	67	4683
2026-01-04 00:23:57.84	113.07	27.97	-47.7	-50.1	24.6	6.03e-01	0	43	0	579338240	67	4643
2026-01-04 00:23:58.70	113.38	27.92	-47.7	-50.2	24.6	6.03e-01	0	43	0	580911104	67	4662
2026-01-04 00:23:59.85	113.80	27.84	-47.5	-50.0	24.6	6.05e-01	0	43	0	583008256	67	4564
2026-01-04 00:24:00.71	114.11	27.78	-47.6	-50.1	24.5	6.04e-01	0	43	0	584581120	67	4616
2026-01-04 00:24:01.85	114.52	27.70	-47.7	-50.2	24.6	6.01e-01	0	43	0	587202560	67	4657
2026-01-04 00:24:02.71	114.82	27.65	-47.6	-50.0	24.6	6.01e-01	0	43	0	588775424	67	4575
2026-01-04 00:24:03.86	115.23	27.56	-47.8	-50.2	24.5	6.03e-01	0	43	0	590872576	67	4665
2026-01-04 00:24:04.72	115.54	27.50	-47.8	-50.3	24.4	6.04e-01	0	43	0	592445440	67	4710
2026-01-04 00:24:05.87	115.94	27.42	-47.8	-50.2	24.4	6.05e-01	0	43	0	594542592	67	4668
2026-01-04 00:24:06.73	116.24	27.36	-47.9	-50.3	24.4	6.03e-01	0	43	0	596115456	67	4721
2026-01-04 00:24:08.02	116.69	27.26	-47.8	-50.2	24.4	6.03e-01	0	43	0	598736896	67	4684
2026-01-04 00:24:08.73	116.94	27.21	-48.0	-50.3	24.3	6.03e-01	0	43	0	599785472	67	4755
2026-01-04 00:24:10.02	117.39	27.11	-48.3	-50.7	24.3	6.04e-01	0	43	0	602406912	67	4944
2026-01-04 00:24:10.74	117.63	27.06	-48.1	-50.5	24.4	6.04e-01	0	43	0	603455488	67	4847
2026-01-04 00:24:12.03	118.08	26.96	-47.8	-50.2	24.5	6.03e-01	0	43	0	606076928	67	4666
2026-01-04 00:24:12.74	118.32	26.90	-47.9	-50.3	24.4	6.03e-01	0	43	0	607649792	67	4747
2026-01-04 00:24:14.03	118.76	26.80	-47.8	-50.2	24.4	6.05e-01	0	43	0	609746944	67	4702
2026-01-04 00:24:14.74	119.00	26.75	-47.9	-50.4	24.3	6.02e-01	0	43	0	611319808	67	4771
2026-01-04 00:24:16.03	119.43	26.64	-48.0	-50.5	24.2	6.03e-01	0	43	0	613416960	67	4852
2026-01-04 00:24:16.75	119.67	26.58	-48.0	-50.4	24.2	6.06e-01	0	43	0	614989824	67	4801
2026-01-04 00:24:18.04	120.10	26.48	-47.8	-50.2	24.5	6.04e-01	0	43	0	617086976	67	4661
2026-01-04 00:24:18.76	120.33	26.42	-47.8	-50.2	24.5	6.02e-01	0	43	0	618659840	67	4674
2026-01-04 00:24:20.06	120.76	26.31	-48.0	-50.4	24.3	6.02e-01	0	43	0	621281280	67	4791
2026-01-04 00:24:20.78	121.00	26.25	-48.0	-50.4	24.3	6.04e-01	0	43	0	622329856	67	4775
2026-01-04 00:24:22.08	121.42	26.14	-48.1	-50.5	24.3	6.06e-01	0	43	0	624951296	67	4828
2026-01-04 00:24:22.80	121.65	26.08	-47.7	-50.1	24.5	6.03e-01	0	43	0	625999872	67	4623
2026-01-04 00:24:24.09	122.07	25.97	-47.9	-50.2	24.5	6.02e-01	0	43	0	628621312	67	4694
2026-01-04 00:24:24.81	122.30	25.91	-48.0	-50.4	24.4	6.04e-01	0	43	0	630194176	67	4773
2026-01-04 00:24:26.26	122.76	25.78	-48.1	-50.5	24.3	6.05e-01	0	43	0	632815616	67	4823
2026-01-04 00:24:26.97	122.98	25.72	-48.1	-50.5	24.3	6.03e-01	0	43	0	633864192	67	4842
2026-01-04 00:24:28.26	123.39	25.61	-48.2	-50.6	24.3	6.04e-01	0	43	0	636485632	67	4887
2026-01-04 00:24:28.98	123.61	25.54	-48.1	-50.5	24.4	6.03e-01	0	43	0	638058496	67	4836
2026-01-04 00:24:30.27	124.01	25.43	-48.3	-50.7	24.3	6.02e-01	0	43	0	640155648	67	4949
2026-01-04 00:24:30.98	124.23	25.36	-48.2	-50.6	24.3	6.04e-01	0	43	0	641728512	67	4926
2026-01-04 00:24:32.27	124.63	25.25	-48.2	-50.7	24.2	6.03e-01	0	43	0	643825664	67	4936
2026-01-04 00:24:32.99	124.85	25.18	-48.3	-50.7	24.2	6.05e-01	0	43	0	645398528	67	4965
2026-01-04 00:24:34.28	125.24	25.06	-48.0	-50.4	24.4	6.05e-01	0	43	0	648019968	67	4795
2026-01-04 00:24:35.00	125.46	25.00	-48.1	-50.5	24.3	6.01e-01	0	43	0	649068544	67	4856
2026-01-04 00:24:36.29	125.84	24.88	-48.2	-50.7	24.2	6.02e-01	0	43	0	651689984	67	4929
2026-01-04 00:24:37.00	126.06	24.81	-48.0	-50.4	24.3	6.03e-01	0	43	0	652738560	67	4797
2026-01-04 00:24:38.30	126.44	24.69	-48.0	-50.4	24.3	6.02e-01	0	43	0	655360000	67	4772
2026-01-04 00:24:39.01	126.65	24.63	-48.0	-50.4	24.3	6.04e-01	0	43	0	656408576	67	4795
2026-01-04 00:24:40.30	127.03	24.50	-48.1	-50.5	24.2	6.04e-01	0	43	0	659030016	67	4865
2026-01-04 00:24:41.02	127.24	24.44	-48.1	-50.6	24.2	6.03e-01	0	43	0	660602880	67	4881
2026-01-04 00:24:42.31	127.61	24.31	-48.3	-50.8	24.3	6.05e-01	0	43	0	662700032	67	5016
2026-01-04 00:24:43.02	127.81	24.25	-48.1	-50.7	24.4	6.06e-01	0	43	0	664272896	67	4936
2026-01-04 00:24:44.31	128.18	24.12	-48.1	-50.7	24.3	6.03e-01	0	43	0	666370048	67	4935
2026-01-04 00:24:45.03	128.39	24.06	-48.2	-50.8	24.1	6.06e-01	0	43	0	667942912	67	5001
2026-01-04 00:24:46.32	128.75	23.93	-48.3	-50.8	24.0	6.03e-01	0	43	0	670564352	67	5025
2026-01-04 00:24:47.03	128.95	23.86	-48.1	-50.6	24.2	6.03e-01	0	43	0	671612928	67	4908
2026-01-04 00:24:48.32	129.31	23.74	-48.1	-50.5	24.3	6.05e-01	0	43	0	674234368	67	4868
2026-01-04 00:24:49.03	129.50	23.67	-48.1	-50.5	24.4	6.06e-01	0	43	0	675282944	67	4833
2026-01-04 00:24:50.32	129.86	23.54	-48.1	-50.5	24.3	6.03e-01	0	43	0	677904384	67	4857
2026-01-04 00:24:51.28	130.12	23.45	-48.2	-50.6	24.2	6.05e-01	0	43	0	679477248	67	4889
2026-01-04 00:24:52.28	130.39	23.35	-48.2	-50.6	24.2	6.02e-01	0	43	0	681574400	67	4891
2026-01-04 00:24:53.28	130.66	23.26	-48.2	-50.7	23.9	6.05e-01	0	43	0	683671552	67	4957
2026-01-04 00:24:54.29	130.93	23.16	-48.1	-50.6	24.2	6.04e-01	0	43	0	685244416	67	4898
2026-01-04 00:24:55.29	131.20	23.06	-48.3	-50.7	24.2	6.05e-01	0	43	0	687341568	67	4974
2026-01-04 00:24:56.29	131.46	22.96	-48.1	-50.5	24.3	6.02e-01	0	43	0	688914432	67	4863
2026-01-04 00:24:57.29	131.72	22.86	-48.1	-50.6	24.3	6.02e-01	0	43	0	691011584	67	4881
2026-01-04 00:24:58.29	131.98	22.76	-48.1	-50.6	24.3	6.05e-01	0	43	0	692584448	67	4898
2026-01-04 00:24:59.36	132.26	22.66	-48.2	-50.6	24.2	6.02e-01	0	43	0	694681600	67	4921
2026-01-04 00:25:00.24	132.49	22.57	-48.1	-50.5	24.3	6.03e-01	0	43	0	696254464	67	4838
2026-01-04 00:25:01.39	132.78	22.46	-47.9	-50.4	24.4	6.04e-01	0	43	0	698875904	67	4763
2026-01-04 00:25:02.31	133.02	22.36	-47.9	-50.3	24.4	6.01e-01	0	43	0	700448768	67	4757
2026-01-04 00:25:03.49	133.31	22.25	-48.0	-50.4	24.3	6.06e-01	0	43	0	702545920	67	4801
2026-01-04 00:25:04.35	133.53	22.16	-48.0	-50.5	24.2	6.03e-01	0	43	0	704118784	67	4855
2026-01-04 00:25:05.70	133.87	22.03	-48.1	-50.5	24.2	6.04e-01	0	43	0	706740224	67	4870
2026-01-04 00:25:06.42	134.04	21.95	-48.1	-50.6	24.2	6.03e-01	0	43	0	707788800	67	4899
2026-01-04 00:25:07.70	134.36	21.83	-48.1	-50.5	24.2	6.06e-01	0	43	0	710410240	67	4865
2026-01-04 00:25:08.41	134.53	21.76	-48.0	-50.5	24.3	6.02e-01	0	43	0	711983104	67	4825
2026-01-04 00:25:09.70	134.84	21.63	-48.0	-50.5	24.2	6.03e-01	0	43	0	714080256	67	4855
2026-01-04 00:25:10.42	135.02	21.55	-48.0	-50.5	24.2	6.05e-01	0	43	0	715653120	67	4843
2026-01-04 00:25:11.71	135.33	21.42	-47.9	-50.4	24.3	6.04e-01	0	43	0	717750272	67	4775
2026-01-04 00:25:12.52	135.52	21.34	-48.3	-50.7	24.3	6.05e-01	0	43	0	719323136	67	4941
2026-01-04 00:25:13.67	135.79	21.23	-48.4	-50.8	24.2	6.03e-01	0	43	0	721420288	67	5030
2026-01-04 00:25:14.53	135.99	21.14	-48.4	-50.8	24.2	6.03e-01	0	43	0	723517440	67	5024
2026-01-04 00:25:15.68	136.26	21.03	-48.4	-50.8	24.2	6.02e-01	0	43	0	725614592	67	5037
2026-01-04 00:25:16.53	136.45	20.94	-48.3	-50.8	24.2	6.03e-01	0	43	0	727187456	67	5014
2026-01-04 00:25:17.68	136.72	20.83	-48.3	-50.8	24.1	6.03e-01	0	43	0	729284608	67	5010
2026-01-04 00:25:18.85	136.99	20.71	-48.3	-50.8	24.1	6.04e-01	0	43	0	731381760	67	4986
2026-01-04 00:25:19.70	137.18	20.62	-48.1	-50.6	24.2	6.02e-01	0	43	0	732954624	67	4892
2026-01-04 00:25:20.85	137.44	20.51	-48.0	-50.5	24.3	6.04e-01	0	43	0	735051776	67	4820
2026-01-04 00:25:21.71	137.63	20.42	-48.0	-50.5	24.4	6.04e-01	0	43	0	736624640	67	4819
2026-01-04 00:25:22.85	137.88	20.31	-48.2	-50.7	24.2	6.03e-01	0	43	0	738721792	67	4931
2026-01-04 00:25:23.71	138.07	20.22	-48.0	-50.5	24.4	6.02e-01	0	43	0	740294656	67	4825
2026-01-04 00:25:24.86	138.32	20.10	-48.1	-50.6	24.4	6.06e-01	0	43	0	742391808	67	4878
2026-01-04 00:25:25.72	138.51	20.02	-48.2	-50.6	24.3	6.06e-01	0	43	0	743964672	67	4920
2026-01-04 00:25:26.90	138.76	19.90	-48.1	-50.6	24.2	6.03e-01	0	43	0	746586112	67	4900
2026-01-04 00:25:27.76	138.95	19.81	-48.0	-50.4	24.4	6.03e-01	0	43	0	748158976	67	4809
2026-01-04 00:25:28.90	139.19	19.70	-48.0	-50.4	24.4	6.03e-01	0	43	0	750256128	67	4790
2026-01-04 00:25:29.76	139.37	19.61	-48.0	-50.5	24.4	6.05e-01	0	43	0	751828992	67	4820
2026-01-04 00:25:30.91	139.61	19.50	-47.9	-50.4	24.4	6.03e-01	0	43	0	753926144	67	4769
2026-01-04 00:25:31.76	139.79	19.41	-48.0	-50.4	24.5	6.02e-01	0	43	0	755499008	67	4775
2026-01-04 00:25:32.91	140.03	19.30	-47.8	-50.2	24.5	6.04e-01	0	43	0	757596160	67	4701
2026-01-04 00:25:33.77	140.21	19.21	-47.8	-50.3	24.4	6.06e-01	0	43	0	759169024	67	4727
2026-01-04 00:25:34.92	140.44	19.10	-47.9	-50.4	24.3	6.04e-01	0	43	0	761266176	67	4791
2026-01-04 00:25:35.78	140.62	19.01	-47.9	-50.4	24.4	6.02e-01	0	43	0	763363328	67	4770
2026-01-04 00:25:36.92	140.85	18.90	-48.0	-50.5	24.3	6.06e-01	0	43	0	764936192	67	4815
2026-01-04 00:25:37.78	141.02	18.82	-47.9	-50.3	24.4	6.04e-01	0	43	0	767033344	67	4758
2026-01-04 00:25:38.93	141.25	18.70	-48.0	-50.4	24.4	6.06e-01	0	43	0	769130496	67	4776
2026-01-04 00:25:39.79	141.42	18.62	-48.0	-50.4	24.4	6.05e-01	0	43	0	770703360	67	4776
2026-01-04 00:25:40.93	141.64	18.50	-47.9	-50.3	24.4	6.01e-01	0	43	0	772800512	67	4721
2026-01-04 00:25:41.79	141.81	18.42	-47.9	-50.3	24.4	6.04e-01	0	43	0	774373376	67	4729
2026-01-04 00:25:43.08	142.06	18.29	-47.9	-50.3	24.4	6.04e-01	0	43	0	776994816	67	4752
2026-01-04 00:25:43.80	142.20	18.22	-47.9	-50.4	24.4	6.05e-01	0	43	0	778043392	67	4776
2026-01-04 00:25:45.09	142.45	18.09	-47.9	-50.3	24.4	6.03e-01	0	43	0	780664832	67	4758
2026-01-04 00:25:45.81	142.58	18.02	-47.9	-50.4	24.4	6.03e-01	0	43	0	781713408	67	4788
2026-01-04 00:25:47.10	142.83	17.90	-48.0	-50.5	24.4	6.04e-01	0	43	0	784334848	67	4858
2026-01-04 00:25:47.81	142.96	17.83	-48.0	-50.5	24.4	6.02e-01	0	43	0	785383424	67	4849
2026-01-04 00:25:49.10	143.20	17.70	-48.0	-50.5	24.4	6.02e-01	0	43	0	788004864	67	4859
2026-01-04 00:25:49.82	143.33	17.63	-48.1	-50.6	24.5	6.04e-01	0	43	0	789577728	67	4911
2026-01-04 00:25:51.11	143.57	17.51	-48.1	-50.7	24.3	6.05e-01	0	43	0	791674880	67	4942
2026-01-04 00:25:52.06	143.74	17.41	-48.1	-50.6	24.4	6.05e-01	0	43	0	793772032	67	4900
2026-01-04 00:25:53.38	143.98	17.28	-48.2	-50.7	24.3	6.03e-01	0	43	0	795869184	67	4936
2026-01-04 00:25:54.10	144.11	17.21	-48.1	-50.5	24.4	6.03e-01	0	43	0	797442048	67	4858
2026-01-04 00:25:55.74	144.40	17.06	-47.9	-50.4	24.6	6.04e-01	0	43	0	800587776	67	4766
2026-01-04 00:25:56.31	144.50	17.00	-47.9	-50.4	24.5	6.05e-01	0	43	0	801636352	67	4784
2026-01-04 00:25:57.91	144.78	16.85	-48.0	-50.5	23.9	6.06e-01	0	43	0	804782080	67	4832
2026-01-04 00:25:58.48	144.88	16.79	-48.1	-50.6	24.3	6.02e-01	0	43	0	805830656	67	4882
2026-01-04 00:26:00.07	145.16	16.64	-48.1	-50.5	24.3	6.04e-01	0	43	0	808452096	67	4870
2026-01-04 00:26:00.64	145.26	16.58	-48.1	-50.5	24.3	6.03e-01	0	43	0	809500672	67	4868
2026-01-04 00:26:02.25	145.53	16.43	-48.0	-50.5	24.3	6.03e-01	0	43	0	812646400	67	4815
2026-01-04 00:26:02.82	145.63	16.38	-48.0	-50.4	24.2	6.03e-01	0	43	0	813694976	67	4798
2026-01-04 00:26:04.43	145.90	16.22	-48.0	-50.4	24.3	6.04e-01	0	43	0	816840704	67	4797
2026-01-04 00:26:05.00	145.99	16.17	-47.9	-50.4	24.3	6.03e-01	0	43	0	817889280	67	4771
2026-01-04 00:26:06.58	146.26	16.02	-47.8	-50.3	24.3	6.04e-01	0	43	0	821035008	67	4735
2026-01-04 00:26:07.17	146.35	15.96	-48.0	-50.5	24.4	6.04e-01	0	43	0	822083584	67	4844
2026-01-04 00:26:09.03	146.66	15.79	-48.2	-50.7	24.3	6.01e-01	0	43	0	825229312	67	4930
2026-01-04 00:26:09.60	146.75	15.73	-48.1	-50.6	24.3	6.02e-01	0	43	0	826277888	67	4899
2026-01-04 00:26:11.23	147.01	15.58	-48.1	-50.6	24.2	6.02e-01	0	43	0	829423616	67	4888
2026-01-04 00:26:11.80	147.10	15.53	-47.9	-50.4	24.3	6.06e-01	0	43	0	830472192	67	4802
2026-01-04 00:26:13.39	147.35	15.38	-47.9	-50.4	24.3	6.05e-01	0	43	0	833617920	67	4798
2026-01-04 00:26:13.96	147.44	15.33	-47.9	-50.4	23.9	6.03e-01	0	43	0	834666496	67	4804
2026-01-04 00:26:15.55	147.69	15.18	-48.0	-50.5	24.3	6.03e-01	0	43	0	837812224	67	4847
2026-01-04 00:26:16.14	147.78	15.12	-48.0	-50.5	24.2	6.04e-01	0	43	0	838860800	67	4856
2026-01-04 00:26:17.72	148.03	14.98	-48.1	-50.6	24.2	6.02e-01	0	43	0	841482240	67	4881
2026-01-04 00:26:18.29	148.12	14.92	-48.1	-50.6	24.3	6.04e-01	0	43	0	843055104	67	4872
2026-01-04 00:26:20.02	148.38	14.77	-48.1	-50.5	24.2	6.04e-01	0	43	0	846200832	67	4868
2026-01-04 00:26:20.59	148.47	14.71	-48.1	-50.5	24.2	6.02e-01	0	43	0	847249408	67	4860
2026-01-04 00:26:22.19	148.71	14.57	-48.1	-50.6	24.1	6.03e-01	0	43	0	849870848	67	4884
2026-01-04 00:26:22.76	148.79	14.51	-48.0	-50.4	24.3	6.02e-01	0	43	0	850919424	67	4801
2026-01-04 00:26:24.37	149.03	14.37	-48.0	-50.4	24.3	6.04e-01	0	43	0	854065152	67	4806
2026-01-04 00:26:24.94	149.11	14.32	-48.0	-50.5	24.2	6.04e-01	0	43	0	855113728	67	4835
2026-01-04 00:26:26.54	149.35	14.17	-47.9	-50.4	24.3	6.02e-01	0	43	0	858259456	67	4783
2026-01-04 00:26:27.12	149.43	14.12	-47.9	-50.4	24.3	6.04e-01	0	43	0	859308032	67	4782
2026-01-04 00:26:28.87	149.68	13.96	-48.1	-50.6	24.1	6.04e-01	0	43	0	862453760	67	4892
2026-01-04 00:26:29.44	149.76	13.91	-48.0	-50.6	24.1	6.04e-01	0	43	0	863502336	67	4880
2026-01-04 00:26:31.02	149.99	13.77	-48.3	-50.8	24.0	6.05e-01	0	43	0	866648064	67	5033
2026-01-04 00:26:31.62	150.07	13.71	-48.4	-50.9	24.0	6.06e-01	0	43	0	867696640	67	5069
2026-01-04 00:26:33.19	150.29	13.57	-48.2	-50.8	24.0	6.03e-01	0	43	0	870842368	67	5000
2026-01-04 00:26:33.80	150.37	13.52	-48.1	-50.7	24.0	6.00e-01	0	43	0	871890944	67	4945
2026-01-04 00:26:35.37	150.59	13.38	-48.1	-50.7	24.0	6.03e-01	0	43	0	875036672	67	4936
2026-01-04 00:26:36.00	150.68	13.32	-48.1	-50.6	24.0	6.03e-01	0	43	0	876085248	67	4925
2026-01-04 00:26:37.45	150.88	13.20	-48.1	-50.7	24.0	6.04e-01	0	43	0	878706688	67	4969
2026-01-04 00:26:38.17	150.97	13.13	-48.2	-50.8	23.9	6.05e-01	0	43	0	880279552	67	5011
2026-01-04 00:26:39.49	151.15	13.02	-48.0	-50.7	24.0	6.04e-01	0	43	0	882376704	67	4939
2026-01-04 00:26:40.20	151.24	12.95	-48.1	-50.8	23.9	6.01e-01	0	43	0	883949568	67	4998
2026-01-04 00:26:41.48	151.41	12.84	-48.2	-50.8	23.8	6.02e-01	0	43	0	886571008	67	5035
2026-01-04 00:26:42.20	151.51	12.78	-48.1	-50.7	23.9	6.02e-01	0	43	0	887619584	67	4948
2026-01-04 00:26:43.49	151.68	12.67	-48.3	-50.9	23.8	6.04e-01	0	43	0	890241024	67	5051
2026-01-04 00:26:44.21	151.77	12.60	-48.3	-50.8	23.8	6.01e-01	0	43	0	891289600	67	5027
2026-01-04 00:26:45.50	151.94	12.49	-48.2	-50.8	23.9	6.03e-01	0	43	0	893911040	67	4988
2026-01-04 00:26:46.21	152.03	12.43	-48.3	-50.9	23.8	6.04e-01	0	43	0	894959616	67	5047
2026-01-04 00:26:47.50	152.20	12.32	-48.3	-50.8	23.8	6.04e-01	0	43	0	897581056	67	5041
2026-01-04 00:26:48.22	152.29	12.26	-48.1	-50.7	23.9	6.07e-01	0	43	0	898629632	67	4948
2026-01-04 00:26:49.86	152.49	12.12	-48.2	-50.8	23.8	6.04e-01	0	43	0	901775360	67	5024
2026-01-04 00:26:50.43	152.57	12.07	-48.2	-50.9	23.8	6.00e-01	0	43	0	903348224	67	5049
2026-01-04 00:26:52.02	152.76	11.93	-48.2	-50.9	23.8	6.07e-01	0	43	0	905969664	67	5050
2026-01-04 00:26:52.59	152.83	11.89	-48.2	-50.8	23.8	6.03e-01	0	43	0	907018240	67	5006
2026-01-04 00:26:54.19	153.03	11.75	-48.2	-50.8	23.7	6.01e-01	0	43	0	910163968	67	5014
2026-01-04 00:26:54.87	153.11	11.69	-48.3	-50.9	23.7	6.02e-01	0	43	0	911212544	67	5065
2026-01-04 00:26:56.30	153.29	11.57	-48.3	-51.0	23.6	6.03e-01	0	43	0	913833984	67	5120
2026-01-04 00:26:57.10	153.38	11.50	-48.4	-51.1	23.6	6.05e-01	0	43	0	915406848	67	5177
2026-01-04 00:26:58.26	153.52	11.41	-48.3	-51.1	23.6	6.04e-01	0	43	0	917504000	67	5162
2026-01-04 00:26:59.11	153.62	11.34	-48.4	-51.2	23.5	6.03e-01	0	43	0	919076864	67	5242
2026-01-04 00:27:00.26	153.76	11.24	-48.3	-51.1	23.5	6.04e-01	0	43	0	921698304	67	5172
2026-01-04 00:27:01.41	153.90	11.14	-48.2	-51.1	23.4	6.04e-01	0	43	0	923795456	67	5181
2026-01-04 00:27:02.44	154.02	11.06	-48.3	-51.2	23.3	6.05e-01	0	43	0	925368320	67	5244
2026-01-04 00:27:03.44	154.13	10.98	-48.6	-51.5	23.3	6.02e-01	0	43	0	927465472	67	5440
2026-01-04 00:27:04.44	154.25	10.89	-48.5	-51.3	23.4	6.05e-01	0	43	0	929562624	68	5020
2026-01-04 00:27:05.45	154.36	10.81	-48.5	-51.3	23.3	6.03e-01	0	43	0	931135488	68	5041
2026-01-04 00:27:06.45	154.48	10.73	-48.5	-51.3	23.3	6.03e-01	0	43	0	933232640	68	5012
2026-01-04 00:27:07.45	154.59	10.65	-48.6	-51.4	23.2	6.03e-01	0	43	0	934805504	68	5057
2026-01-04 00:27:08.45	154.70	10.57	-48.7	-51.4	23.2	6.05e-01	0	43	0	936902656	68	5082
2026-01-04 00:27:09.45	154.82	10.48	-48.8	-51.5	23.2	6.03e-01	0	43	0	938475520	68	5124
2026-01-04 00:27:10.46	154.93	10.40	-48.9	-51.6	23.1	6.04e-01	0	43	0	940572672	68	5163
2026-01-04 00:27:11.46	155.04	10.32	-48.8	-51.5	23.1	6.01e-01	0	43	0	942669824	68	5106
2026-01-04 00:27:12.46	155.15	10.24	-48.8	-51.5	23.1	6.03e-01	0	43	0	944242688	68	5159
2026-01-04 00:27:13.46	155.26	10.16	-48.9	-51.7	23.0	6.00e-01	0	43	0	946339840	68	5225
2026-01-04 00:27:14.47	155.37	10.08	-48.9	-51.6	23.0	6.05e-01	0	43	0	947912704	68	5178
2026-01-04 00:27:15.47	155.48	10.00	-48.9	-51.7	22.8	6.03e-01	0	43	0	950009856	68	5252
2026-01-04 00:27:16.47	155.58	9.92	-49.0	-51.8	22.7	6.04e-01	0	43	0	951582720	68	5295
2026-01-04 00:27:17.46	155.69	9.84	-48.9	-51.6	23.0	6.03e-01	0	43	0	953679872	68	5212
2026-01-04 00:27:18.47	155.80	9.76	-48.9	-51.7	22.9	6.03e-01	0	43	0	955777024	68	5229
2026-01-04 00:27:19.47	155.90	9.68	-48.9	-51.7	22.8	6.03e-01	0	43	0	957349888	68	5233
2026-01-04 00:27:20.47	156.01	9.60	-49.0	-51.8	22.8	6.03e-01	0	43	0	959447040	68	5319
2026-01-04 00:27:21.47	156.11	9.52	-48.9	-51.6	22.9	6.03e-01	0	43	0	961019904	68	5218
2026-01-04 00:27:22.48	156.22	9.44	-49.1	-51.9	22.7	6.04e-01	0	43	0	963117056	68	5359
2026-01-04 00:27:23.48	156.32	9.36	-49.2	-52.0	22.7	6.03e-01	0	43	0	965214208	69	5113
2026-01-04 00:27:24.48	156.43	9.29	-49.3	-52.1	22.5	6.06e-01	0	43	0	966787072	69	5204
2026-01-04 00:27:25.48	156.53	9.21	-49.1	-51.9	22.8	6.03e-01	0	43	0	968884224	69	5081
2026-01-04 00:27:26.57	156.64	9.12	-49.1	-51.9	22.7	6.02e-01	0	43	0	970981376	69	5061
2026-01-04 00:27:27.43	156.73	9.06	-49.0	-51.8	22.7	6.03e-01	0	43	0	972554240	69	5026
2026-01-04 00:27:28.57	156.84	8.97	-49.5	-52.5	22.3	6.02e-01	0	43	0	974651392	69	5410
2026-01-04 00:27:29.43	156.93	8.90	-55.5	-74.8	3.8	7.46e-01	0	43	104	975175680	81	35360
2026-01-04 00:27:30.58	157.04	8.81	-55.2	-75.1	3.8	7.43e-01	0	43	104	975175680	81	36857
2026-01-04 00:27:31.44	157.13	8.75	-55.6	-76.0	3.8	7.45e-01	0	43	104	975175680	81	40878
2026-01-04 00:27:32.59	157.24	8.66	-55.8	-76.2	3.8	7.44e-01	0	43	104	975175680	82	39318
2026-01-04 00:27:33.45	157.32	8.59	-55.9	-76.3	3.8	7.47e-01	0	43	104	975175680	82	39720
2026-01-04 00:27:34.60	157.44	8.50	-55.6	-76.3	3.8	7.50e-01	0	43	104	975175680	82	39980
2026-01-04 00:27:35.46	157.52	8.44	-56.1	-76.4	3.8	7.47e-01	0	43	104	975175680	82	40429
2026-01-04 00:27:36.61	157.63	8.35	-56.4	-76.7	3.8	7.44e-01	0	43	104	975175680	83	39220
2026-01-04 00:27:37.47	157.71	8.29	-56.6	-76.7	3.8	7.44e-01	0	43	104	975175680	83	39488
2026-01-04 00:27:38.61	157.82	8.20	-56.7	-76.8	3.8	7.45e-01	0	43	104	975175680	84	37692
2026-01-04 00:27:39.47	157.90	8.14	-56.6	-76.8	3.8	7.48e-01	0	43	104	975175680	84	37631
2026-01-04 00:27:40.62	158.01	8.05	-56.7	-76.8	3.8	7.48e-01	0	43	104	975175680	84	37710
2026-01-04 00:27:41.48	158.09	7.98	-56.6	-76.8	3.8	7.48e-01	0	43	104	975175680	84	37623
2026-01-04 00:27:42.63	158.20	7.90	-56.8	-76.8	3.8	7.44e-01	0	43	104	975175680	84	37662
2026-01-04 00:27:43.49	158.28	7.83	-56.6	-76.6	3.8	7.43e-01	0	43	104	975175680	84	36715
2026-01-04 00:27:44.68	158.39	7.75	-56.2	-76.6	3.8	7.44e-01	0	43	104	975175680	83	38783
2026-01-04 00:27:45.54	158.47	7.68	-56.1	-76.6	3.8	7.45e-01	0	43	104	975175680	83	38764
2026-01-04 00:27:46.72	158.57	7.59	-56.6	-76.6	3.8	7.46e-01	0	43	104	975175680	83	38721
2026-01-04 00:27:47.58	158.65	7.53	-56.5	-76.6	3.8	7.48e-01	0	43	104	975175680	83	38708
2026-01-04 00:27:48.73	158.76	7.45	-56.4	-76.5	3.8	7.47e-01	0	43	104	975175680	83	38653
2026-01-04 00:27:49.59	158.83	7.38	-56.2	-76.5	3.8	7.46e-01	0	43	104	975175680	83	38465
2026-01-04 00:27:50.74	158.93	7.30	-55.9	-76.6	3.8	7.50e-01	0	43	104	975175680	83	38846
2026-01-04 00:27:51.60	159.01	7.24	-55.8	-76.5	3.8	7.46e-01	0	43	104	975175680	83	38628
2026-01-04 00:27:52.75	159.11	7.15	-55.3	-76.5	3.8	7.44e-01	0	43	104	975175680	82	40676
2026-01-04 00:27:53.61	159.19	7.09	-55.5	-76.4	3.8	7.48e-01	0	43	104	975175680	82	40340
2026-01-04 00:27:54.76	159.29	7.01	-55.6	-76.5	3.8	7.46e-01	0	43	104	975175680	82	40627
2026-01-04 00:27:55.62	159.36	6.94	-55.6	-76.5	3.8	7.45e-01	0	43	104	975175680	82	40770
2026-01-04 00:27:56.76	159.46	6.86	-55.5	-76.4	3.8	7.46e-01	0	43	104	975175680	82	40373
2026-01-04 00:27:57.63	159.54	6.80	-55.6	-76.5	3.8	7.49e-01	0	43	104	975175680	82	40698
2026-01-04 00:27:58.77	159.63	6.72	-55.6	-76.5	3.8	7.48e-01	0	43	104	975175680	82	40637
2026-01-04 00:27:59.63	159.71	6.65	-55.6	-76.5	3.8	7.46e-01	0	43	104	975175680	82	40576
2026-01-04 00:28:00.78	159.81	6.57	-55.5	-76.4	3.8	7.46e-01	0	43	104	975175680	82	40478
2026-01-04 00:28:01.64	159.88	6.51	-55.5	-76.4	3.8	7.47e-01	0	44	104	975175680	82	40262
2026-01-04 00:28:02.79	159.97	6.43	-55.5	-76.4	3.8	7.48e-01	0	43	104	975175680	82	40328
2026-01-04 00:28:03.65	160.05	6.37	-55.5	-76.4	3.8	7.49e-01	0	43	104	975175680	82	40369
2026-01-04 00:28:04.80	160.14	6.29	-55.5	-76.4	3.8	7.46e-01	0	43	104	975175680	82	40156
2026-01-04 00:28:05.66	160.21	6.23	-55.5	-76.4	3.8	7.44e-01	0	43	104	975175680	82	40157
2026-01-04 00:28:06.81	160.31	6.14	-55.4	-76.4	3.8	7.46e-01	0	43	104	975175680	82	40179
2026-01-04 00:28:07.67	160.38	6.08	-55.5	-76.4	3.8	7.46e-01	0	43	104	975175680	82	40193
2026-01-04 00:28:08.82	160.47	6.00	-55.5	-76.4	3.8	7.41e-01	0	43	104	975175680	82	40429
2026-01-04 00:28:09.68	160.54	5.94	-55.5	-76.4	3.8	7.48e-01	0	43	104	975175680	82	40392
2026-01-04 00:28:10.82	160.63	5.86	-55.6	-76.5	3.8	7.47e-01	0	43	104	975175680	82	40608
2026-01-04 00:28:11.69	160.70	5.80	-55.8	-76.7	3.8	7.41e-01	0	43	104	975175680	82	41670
2026-01-04 00:28:12.84	160.79	5.72	-55.7	-76.6	3.8	7.44e-01	0	43	104	975175680	82	41290
2026-01-04 00:28:13.69	160.86	5.66	-55.7	-76.6	3.8	7.44e-01	0	43	104	975175680	82	41226
2026-01-04 00:28:14.84	160.95	5.58	-55.6	-76.5	3.8	7.43e-01	0	43	104	975175680	82	40958
2026-01-04 00:28:15.71	161.02	5.52	-55.6	-76.5	3.8	7.45e-01	0	44	104	975175680	82	40873
2026-01-04 00:28:16.85	161.11	5.45	-55.6	-76.5	3.8	7.47e-01	0	43	104	975175680	82	40633
2026-01-04 00:28:17.71	161.18	5.39	-55.6	-76.5	3.8	7.48e-01	0	43	104	975175680	82	40877
2026-01-04 00:28:18.86	161.26	5.31	-55.6	-76.5	3.8	7.45e-01	0	43	104	975175680	82	40774
2026-01-04 00:28:19.72	161.33	5.25	-55.6	-76.5	3.8	7.51e-01	0	43	104	975175680	82	40680
2026-01-04 00:28:20.87	161.42	5.17	-55.6	-76.5	3.8	7.45e-01	0	43	104	975175680	82	40845
2026-01-04 00:28:21.73	161.48	5.11	-55.6	-76.5	3.8	7.47e-01	0	43	104	975175680	82	40720
2026-01-04 00:28:22.88	161.57	5.03	-55.6	-76.5	3.8	7.46e-01	0	43	104	975175680	82	40787
2026-01-04 00:28:23.74	161.64	4.98	-55.6	-76.5	3.8	7.45e-01	0	43	104	975175680	82	40917

#Closed at: 2026-01-04 00:28:24
#Recorded file [975 MB]: D:/Data/31040_260104_031752.dat