passes_logs/2026/01/04/T1/T1__20260104_043509_FENGYUN_3G_rec.log

#Pass ID: 20260104_043509_FENGYUN 3G
#Satellite: FENGYUN 3G
#Configuration: FENGYUN 3G
#almurnet v.1.7.20251203
#Start time: 2026-01-04 04:35:11

#Version: 2.0.20230620
#Station: T1
#Location: 37.570604 lon 55.790049 lat
#TLE: 1 56232U 23055A   26003.53327032  .00047684  00000+0  75687-3 0  9993
#TLE: 2 56232  49.9936 115.0642 0004181 334.2418  25.8340 15.52822756154418

#Time	Az	El	Level	Level2	SNR	BER	BlckErr	Temp	State	Recorded	gain1	gain2
2026-01-04 04:35:11.96	254.65	5.27	-54.0	-72.9	3.8	8.47e-01	0	40	0	0	78	33999
2026-01-04 04:35:12.96	254.57	5.34	-53.8	-72.8	3.8	8.38e-01	0	41	104	0	79	31570
2026-01-04 04:35:13.97	254.48	5.42	-53.7	-72.7	3.8	8.47e-01	0	41	104	0	79	31395
2026-01-04 04:35:14.97	254.39	5.50	-53.7	-72.7	3.8	8.47e-01	0	40	104	0	79	31219
2026-01-04 04:35:15.97	254.30	5.57	-53.8	-72.8	3.8	8.47e-01	0	40	104	0	79	31551
2026-01-04 04:35:16.98	254.21	5.65	-53.7	-72.6	3.8	8.46e-01	0	41	104	0	79	31038
2026-01-04 04:35:17.98	254.12	5.73	-53.6	-72.5	3.8	8.47e-01	0	41	104	0	79	30555
2026-01-04 04:35:18.99	254.02	5.81	-53.7	-72.6	3.8	8.47e-01	0	41	104	0	79	30838
2026-01-04 04:35:19.99	253.93	5.88	-53.8	-72.5	3.8	8.47e-01	0	41	104	0	79	30583
2026-01-04 04:35:21.00	253.84	5.96	-53.9	-72.5	3.8	8.46e-01	0	41	104	0	79	30532
2026-01-04 04:35:22.00	253.74	6.04	-53.8	-72.3	3.8	8.46e-01	0	41	104	0	79	29925
2026-01-04 04:35:23.00	253.65	6.12	-53.8	-72.2	3.8	8.47e-01	0	41	104	0	79	29520
2026-01-04 04:35:24.01	253.55	6.20	-53.8	-72.1	3.8	8.47e-01	0	41	104	0	79	29177
2026-01-04 04:35:25.01	253.45	6.28	-53.7	-71.9	3.8	8.47e-01	0	41	104	0	79	28676
2026-01-04 04:35:26.02	253.36	6.36	-53.7	-72.0	3.8	8.47e-01	0	41	104	0	79	28758
2026-01-04 04:35:27.02	253.26	6.44	-53.8	-72.1	3.8	8.47e-01	0	41	104	0	79	29025
2026-01-04 04:35:28.02	253.16	6.52	-53.9	-72.1	3.8	8.47e-01	0	41	104	0	79	29121
2026-01-04 04:35:29.03	253.06	6.60	-53.9	-72.1	3.8	8.47e-01	0	41	104	0	79	29188
2026-01-04 04:35:30.04	252.96	6.69	-53.9	-72.1	3.8	8.47e-01	0	41	104	0	79	29193
2026-01-04 04:35:31.04	252.86	6.77	-53.9	-72.2	3.8	8.48e-01	0	41	104	0	79	29394
2026-01-04 04:35:32.04	252.75	6.85	-53.7	-72.1	3.8	8.48e-01	0	41	104	0	79	29333
2026-01-04 04:35:33.05	252.65	6.93	-53.7	-72.3	3.8	8.46e-01	0	41	104	0	79	29718
2026-01-04 04:35:34.05	252.55	7.02	-53.7	-72.5	3.8	8.46e-01	0	41	104	0	79	30451
2026-01-04 04:35:35.06	252.44	7.10	-53.7	-72.6	3.8	8.46e-01	0	41	104	0	79	30884
2026-01-04 04:35:36.06	252.34	7.18	-53.6	-72.6	3.8	8.46e-01	0	41	104	0	79	31081
2026-01-04 04:35:37.07	252.23	7.27	-53.6	-72.8	3.8	8.47e-01	0	41	104	0	79	31513
2026-01-04 04:35:38.07	252.12	7.35	-53.6	-72.7	3.8	8.47e-01	0	41	104	0	79	31226
2026-01-04 04:35:39.07	252.02	7.43	-53.6	-72.4	3.8	8.48e-01	0	41	104	0	79	30150
2026-01-04 04:35:40.08	251.91	7.52	-53.7	-71.7	3.8	8.47e-01	0	42	104	0	79	27928
2026-01-04 04:35:41.08	251.80	7.61	-53.6	-70.8	3.8	8.46e-01	0	42	104	0	79	25104
2026-01-04 04:35:42.09	251.68	7.69	-53.7	-70.1	3.9	8.46e-01	0	42	104	0	79	23153
2026-01-04 04:35:43.09	251.57	7.78	-53.7	-69.5	4.1	8.46e-01	0	41	0	0	79	21682
2026-01-04 04:35:44.10	251.46	7.86	-53.6	-69.4	4.1	8.40e-01	0	41	0	0	79	21391
2026-01-04 04:35:45.10	251.35	7.95	-53.7	-69.5	4.1	8.40e-01	0	42	0	0	79	21590
2026-01-04 04:35:46.11	251.23	8.04	-53.7	-70.2	4.0	8.40e-01	0	42	0	0	79	23432
2026-01-04 04:35:47.11	251.12	8.12	-53.7	-71.0	3.8	8.45e-01	0	42	104	0	79	25660
2026-01-04 04:35:48.12	251.00	8.21	-53.8	-71.1	3.8	8.45e-01	0	42	104	0	79	26124
2026-01-04 04:35:49.12	250.88	8.30	-53.7	-70.8	3.8	8.46e-01	0	42	104	0	79	25090
2026-01-04 04:35:50.13	250.76	8.39	-53.6	-70.6	3.8	8.46e-01	0	42	104	0	79	24689
2026-01-04 04:35:51.13	250.64	8.48	-53.7	-70.8	3.8	8.46e-01	0	42	104	0	79	25250
2026-01-04 04:35:52.13	250.52	8.57	-53.7	-71.4	3.8	8.46e-01	0	42	104	0	79	26922
2026-01-04 04:35:53.14	250.40	8.66	-53.8	-71.2	3.8	8.46e-01	0	42	104	0	79	26196
2026-01-04 04:35:54.14	250.28	8.75	-53.7	-68.7	4.3	8.46e-01	0	42	0	0	79	19794
2026-01-04 04:35:55.15	250.15	8.84	-53.4	-65.6	5.9	8.44e-01	0	42	0	0	78	14562
2026-01-04 04:35:56.15	250.03	8.93	-53.1	-63.0	8.3	5.47e-01	0	42	0	0	78	10880
2026-01-04 04:35:57.16	249.90	9.02	-52.8	-61.2	10.3	4.82e-02	0	42	0	0	77	9301
2026-01-04 04:35:58.16	249.78	9.11	-52.1	-58.6	12.9	4.82e-02	0	42	0	0	76	7357
2026-01-04 04:35:59.27	249.64	9.21	-51.4	-56.4	15.6	1.57e-03	0	42	0	0	73	6787
2026-01-04 04:36:00.14	249.52	9.29	-53.7	-66.9	5.1	9.48e-02	0	42	0	0	78	16941
2026-01-04 04:36:01.27	249.38	9.40	-53.2	-62.7	8.0	9.48e-02	0	42	0	0	78	10503
2026-01-04 04:36:02.13	249.27	9.48	-51.2	-56.0	15.7	3.36e-01	0	42	0	0	74	6115
2026-01-04 04:36:03.28	249.11	9.59	-51.0	-55.5	16.5	1.37e-05	0	42	0	0	74	5751
2026-01-04 04:36:04.14	249.00	9.67	-50.6	-54.7	17.2	1.37e-05	0	42	0	0	73	5572
2026-01-04 04:36:05.29	248.84	9.77	-49.4	-52.9	19.0	0.00e+00	0	42	0	0	70	5342
2026-01-04 04:36:06.15	248.73	9.86	-48.6	-51.8	20.0	0.00e+00	0	42	0	0	69	5002
2026-01-04 04:36:07.29	248.57	9.96	-48.3	-51.4	20.3	0.00e+00	0	42	0	0	68	5046
2026-01-04 04:36:08.15	248.45	10.05	-47.3	-50.2	21.3	0.00e+00	0	42	0	0	66	4948
2026-01-04 04:36:09.30	248.29	10.16	-47.2	-50.1	21.2	0.00e+00	0	42	0	0	66	4895
2026-01-04 04:36:10.16	248.17	10.24	-47.2	-50.0	21.4	0.00e+00	0	42	0	0	66	4868
2026-01-04 04:36:11.30	248.01	10.35	-46.7	-49.4	22.0	0.00e+00	0	42	0	0	65	4801
2026-01-04 04:36:12.17	247.89	10.43	-46.7	-49.4	21.9	0.00e+00	0	42	0	0	65	4789
2026-01-04 04:36:13.42	247.71	10.56	-46.0	-48.5	22.7	0.00e+00	0	42	0	0	63	4858
2026-01-04 04:36:14.17	247.60	10.63	-46.1	-48.7	22.7	0.00e+00	0	42	0	0	63	4947
2026-01-04 04:36:15.64	247.38	10.77	-46.6	-49.2	22.2	0.00e+00	0	42	0	0	63	5250
2026-01-04 04:36:16.35	247.27	10.84	-46.2	-48.7	22.7	0.00e+00	0	42	0	0	63	4959
2026-01-04 04:36:17.65	247.08	10.97	-46.3	-48.8	22.7	0.00e+00	0	42	0	0	63	5018
2026-01-04 04:36:18.36	246.97	11.04	-45.9	-48.4	22.9	0.00e+00	0	42	0	0	63	4775
2026-01-04 04:36:19.65	246.77	11.17	-45.3	-47.6	23.6	0.00e+00	0	42	0	0	62	4611
2026-01-04 04:36:20.37	246.66	11.25	-45.2	-47.4	23.8	0.00e+00	0	42	0	0	62	4535
2026-01-04 04:36:21.65	246.46	11.38	-45.2	-47.4	23.8	0.00e+00	0	42	0	0	62	4531
2026-01-04 04:36:22.37	246.35	11.45	-44.7	-46.9	24.3	0.00e+00	0	42	0	0	61	4516
2026-01-04 04:36:23.66	246.15	11.58	-44.5	-46.7	24.4	0.00e+00	0	42	0	0	61	4421
2026-01-04 04:36:24.47	246.02	11.66	-44.3	-46.5	24.6	0.00e+00	0	42	0	0	60	4566
2026-01-04 04:36:25.62	245.83	11.78	-44.2	-46.4	24.7	0.00e+00	0	42	0	0	60	4524
2026-01-04 04:36:26.48	245.69	11.87	-44.6	-46.8	24.5	0.00e+00	0	42	0	0	60	4714
2026-01-04 04:36:27.62	245.50	11.99	-44.6	-46.8	24.4	0.00e+00	0	42	0	0	60	4735
2026-01-04 04:36:28.77	245.31	12.11	-44.8	-47.0	24.4	0.00e+00	0	42	0	0	60	4856
2026-01-04 04:36:29.83	245.13	12.22	-45.1	-47.3	24.1	0.00e+00	0	42	0	0	60	5027
2026-01-04 04:36:30.88	244.96	12.33	-44.9	-47.1	24.2	0.00e+00	0	42	0	0	60	4887
2026-01-04 04:36:31.78	244.80	12.43	-44.7	-46.9	24.3	0.00e+00	0	42	0	0	60	4800
2026-01-04 04:36:32.78	244.63	12.53	-44.4	-46.5	24.6	0.00e+00	0	42	0	0	60	4592
2026-01-04 04:36:33.79	244.45	12.64	-44.3	-46.4	24.7	0.00e+00	0	42	0	0	60	4521
2026-01-04 04:36:34.79	244.28	12.75	-44.2	-46.3	24.7	0.00e+00	0	42	0	0	60	4487
2026-01-04 04:36:35.79	244.10	12.86	-44.1	-46.2	24.8	0.00e+00	0	42	0	0	60	4440
2026-01-04 04:36:36.79	243.92	12.97	-44.1	-46.2	24.8	0.00e+00	0	42	0	0	60	4406
2026-01-04 04:36:37.80	243.73	13.08	-44.0	-46.1	24.8	0.00e+00	0	42	0	0	60	4372
2026-01-04 04:36:38.85	243.54	13.19	-44.2	-46.4	24.7	0.00e+00	0	42	0	0	60	4494
2026-01-04 04:36:39.80	243.37	13.30	-44.4	-46.5	24.6	0.00e+00	0	42	0	0	60	4580
2026-01-04 04:36:40.80	243.18	13.41	-44.5	-46.6	24.5	0.00e+00	0	42	0	0	60	4640
2026-01-04 04:36:41.80	242.99	13.52	-44.4	-46.6	24.6	0.00e+00	0	42	0	0	60	4624
2026-01-04 04:36:42.81	242.80	13.63	-44.5	-46.7	24.5	0.00e+00	0	42	0	0	60	4682
2026-01-04 04:36:43.81	242.61	13.74	-44.4	-46.5	24.6	0.00e+00	0	42	0	0	60	4591
2026-01-04 04:36:44.82	242.41	13.85	-44.2	-46.3	24.8	0.00e+00	0	42	0	0	60	4486
2026-01-04 04:36:45.82	242.21	13.97	-44.1	-46.1	24.9	0.00e+00	0	42	0	0	60	4389
2026-01-04 04:36:46.82	242.02	14.08	-44.1	-46.2	24.9	0.00e+00	0	42	0	0	60	4425
2026-01-04 04:36:47.83	241.81	14.20	-44.3	-46.4	24.8	0.00e+00	0	42	0	0	60	4511
2026-01-04 04:36:48.83	241.61	14.31	-44.2	-46.3	24.8	0.00e+00	0	43	0	0	60	4472
2026-01-04 04:36:49.83	241.41	14.42	-44.3	-46.4	24.7	0.00e+00	0	42	0	0	60	4537
2026-01-04 04:36:50.83	241.20	14.54	-44.2	-46.4	24.7	0.00e+00	0	42	0	0	60	4522
2026-01-04 04:36:51.84	240.99	14.66	-44.3	-46.5	24.6	0.00e+00	0	42	0	0	60	4565
2026-01-04 04:36:52.95	240.76	14.79	-44.3	-46.5	24.7	0.00e+00	0	42	0	0	60	4568
2026-01-04 04:36:53.84	240.57	14.89	-44.1	-46.3	24.9	0.00e+00	0	42	0	0	60	4442
2026-01-04 04:36:54.99	240.32	15.02	-43.9	-46.0	25.2	0.00e+00	0	42	0	0	59	4576
2026-01-04 04:36:55.85	240.13	15.13	-43.5	-45.5	25.5	0.00e+00	0	43	0	0	59	4338
2026-01-04 04:36:57.00	239.88	15.26	-43.4	-45.4	25.6	0.00e+00	0	42	0	0	58	4528
2026-01-04 04:36:57.86	239.69	15.36	-43.3	-45.3	25.7	0.00e+00	0	42	0	0	58	4488
2026-01-04 04:36:59.00	239.44	15.50	-43.4	-45.4	25.6	0.00e+00	0	43	0	0	58	4540
2026-01-04 04:36:59.86	239.24	15.60	-43.5	-45.6	25.5	0.00e+00	0	42	0	0	58	4607
2026-01-04 04:37:01.01	238.98	15.74	-43.3	-45.4	25.6	0.00e+00	0	42	0	0	58	4509
2026-01-04 04:37:01.87	238.78	15.84	-43.3	-45.4	25.6	0.00e+00	0	42	0	0	58	4494
2026-01-04 04:37:03.01	238.52	15.98	-43.0	-45.0	25.9	0.00e+00	0	42	0	0	58	4313
2026-01-04 04:37:03.87	238.31	16.09	-42.9	-44.9	26.0	0.00e+00	0	42	0	0	57	4522
2026-01-04 04:37:05.02	238.04	16.23	-42.8	-44.8	26.0	0.00e+00	0	42	0	0	57	4456
2026-01-04 04:37:05.88	237.83	16.33	-43.1	-45.1	25.8	0.00e+00	0	43	0	0	57	4610
2026-01-04 04:37:07.18	237.52	16.49	-43.0	-45.1	25.8	0.00e+00	0	42	0	0	57	4599
2026-01-04 04:37:07.90	237.34	16.58	-43.1	-45.1	25.8	0.00e+00	0	43	0	0	57	4629
2026-01-04 04:37:09.18	237.02	16.74	-43.1	-45.2	25.8	0.00e+00	0	43	0	0	57	4654
2026-01-04 04:37:09.90	236.84	16.83	-43.0	-45.0	25.9	0.00e+00	0	42	0	0	57	4552
2026-01-04 04:37:11.19	236.51	16.99	-43.1	-45.1	25.8	0.00e+00	0	42	0	0	57	4648
2026-01-04 04:37:11.99	236.31	17.09	-43.1	-45.1	25.8	0.00e+00	0	43	0	0	57	4640
2026-01-04 04:37:13.14	236.01	17.23	-43.2	-45.2	25.7	0.00e+00	0	42	0	0	57	4698
2026-01-04 04:37:14.00	235.79	17.34	-43.1	-45.1	25.7	0.00e+00	0	43	0	0	57	4641
2026-01-04 04:37:15.15	235.48	17.49	-43.0	-45.0	25.9	0.00e+00	0	43	0	0	57	4579
2026-01-04 04:37:16.01	235.25	17.60	-42.7	-44.7	26.1	0.00e+00	0	43	0	0	57	4416
2026-01-04 04:37:17.16	234.94	17.74	-42.7	-44.7	26.0	0.00e+00	0	43	0	0	57	4418
2026-01-04 04:37:18.02	234.71	17.85	-42.5	-44.4	26.3	0.00e+00	0	43	0	0	57	4284
2026-01-04 04:37:19.16	234.40	18.00	-42.6	-44.6	26.2	0.00e+00	0	43	0	0	57	4367
2026-01-04 04:37:20.02	234.16	18.11	-42.5	-44.5	26.3	0.00e+00	0	42	0	0	57	4309
2026-01-04 04:37:21.17	233.83	18.25	-42.7	-44.7	26.1	0.00e+00	0	43	0	0	57	4393
2026-01-04 04:37:22.03	233.59	18.37	-42.7	-44.7	26.1	0.00e+00	0	43	0	0	57	4432
2026-01-04 04:37:23.18	233.26	18.51	-42.8	-44.8	26.1	0.00e+00	0	43	0	0	57	4451
2026-01-04 04:37:24.10	232.99	18.63	-42.8	-44.8	26.1	0.00e+00	0	42	0	0	57	4450
2026-01-04 04:37:25.28	232.65	18.79	-42.7	-44.6	26.2	0.00e+00	0	42	0	0	57	4386
2026-01-04 04:37:26.14	232.39	18.90	-42.6	-44.6	26.2	0.00e+00	0	43	0	0	57	4364
2026-01-04 04:37:27.49	231.99	19.07	-42.5	-44.4	26.4	0.00e+00	0	43	0	0	56	4522
2026-01-04 04:37:28.21	231.77	19.17	-42.5	-44.4	26.4	0.00e+00	0	42	0	0	56	4527
2026-01-04 04:37:29.50	231.37	19.34	-42.3	-44.2	26.5	0.00e+00	0	43	0	0	56	4436
2026-01-04 04:37:30.22	231.15	19.43	-42.4	-44.4	26.4	0.00e+00	0	43	0	0	56	4499
2026-01-04 04:37:31.78	230.66	19.64	-42.3	-44.2	26.5	0.00e+00	0	43	0	0	56	4433
2026-01-04 04:37:32.49	230.43	19.73	-42.3	-44.3	26.5	0.00e+00	0	43	0	0	56	4448
2026-01-04 04:37:33.84	230.00	19.91	-42.5	-44.5	26.4	0.00e+00	0	43	0	0	56	4562
2026-01-04 04:37:34.55	229.77	20.00	-42.5	-44.5	26.4	0.00e+00	0	42	0	0	56	4550
2026-01-04 04:37:35.84	229.35	20.17	-42.5	-44.5	26.4	0.00e+00	0	42	0	0	56	4547
2026-01-04 04:37:36.56	229.11	20.27	-42.4	-44.4	26.5	0.00e+00	0	43	0	0	56	4510
2026-01-04 04:37:37.85	228.68	20.44	-42.7	-44.7	26.1	0.00e+00	0	43	0	0	56	4663
2026-01-04 04:37:38.57	228.44	20.53	-42.6	-44.6	26.1	0.00e+00	0	43	0	0	56	4620
2026-01-04 04:37:39.86	228.00	20.70	-42.5	-44.4	26.3	0.00e+00	0	43	0	0	56	4533
2026-01-04 04:37:40.59	227.74	20.80	-42.3	-44.3	26.5	0.00e+00	0	43	0	0	56	4462
2026-01-04 04:37:41.87	227.30	20.97	-42.2	-44.1	26.6	0.00e+00	0	43	0	0	56	4378
2026-01-04 04:37:42.59	227.04	21.06	-42.1	-44.0	26.7	0.00e+00	0	43	0	0	56	4309
2026-01-04 04:37:43.88	226.59	21.23	-42.4	-44.4	26.4	0.00e+00	0	43	0	0	56	4522
2026-01-04 04:37:44.60	226.33	21.33	-42.4	-44.3	26.4	0.00e+00	0	43	0	0	56	4480
2026-01-04 04:37:45.88	225.86	21.50	-42.1	-44.0	26.6	0.00e+00	0	43	0	0	56	4339
2026-01-04 04:37:46.60	225.60	21.59	-42.1	-44.0	26.7	0.00e+00	0	43	0	0	56	4304
2026-01-04 04:37:47.89	225.12	21.76	-42.0	-43.9	26.7	0.00e+00	0	43	0	0	56	4277
2026-01-04 04:37:48.61	224.85	21.86	-41.8	-43.7	26.7	0.00e+00	0	43	0	0	55	4434
2026-01-04 04:37:49.90	224.36	22.03	-41.9	-43.8	26.7	0.00e+00	0	43	0	0	55	4448
2026-01-04 04:37:50.61	224.09	22.12	-42.0	-43.9	26.6	0.00e+00	0	43	0	0	55	4535
2026-01-04 04:37:51.90	223.59	22.29	-41.9	-43.8	26.7	0.00e+00	0	43	0	0	55	4481
2026-01-04 04:37:52.62	223.31	22.38	-41.9	-43.8	26.7	0.00e+00	0	43	0	0	55	4457
2026-01-04 04:37:54.17	222.70	22.58	-41.5	-43.4	27.0	0.00e+00	0	43	0	0	55	4262
2026-01-04 04:37:54.88	222.42	22.67	-41.6	-43.4	27.0	0.00e+00	0	43	0	0	55	4290
2026-01-04 04:37:56.23	221.88	22.85	-41.4	-43.3	27.0	0.00e+00	0	43	0	0	54	4454
2026-01-04 04:37:56.95	221.58	22.94	-41.2	-43.0	27.2	0.00e+00	0	43	0	0	54	4332
2026-01-04 04:37:58.24	221.05	23.11	-41.1	-43.0	27.2	0.00e+00	0	43	0	0	54	4320
2026-01-04 04:37:58.95	220.76	23.20	-41.2	-43.1	27.1	0.00e+00	0	43	0	0	54	4359
2026-01-04 04:38:00.24	220.22	23.36	-41.3	-43.1	27.1	0.00e+00	0	43	0	0	54	4388
2026-01-04 04:38:00.96	219.91	23.45	-41.3	-43.2	27.1	0.00e+00	0	43	0	0	54	4418
2026-01-04 04:38:02.25	219.36	23.61	-41.2	-43.1	27.1	0.00e+00	0	43	0	0	54	4346
2026-01-04 04:38:02.96	219.06	23.70	-41.1	-43.0	27.2	0.00e+00	0	43	0	0	54	4297
2026-01-04 04:38:04.25	218.50	23.86	-41.3	-43.2	27.1	0.00e+00	0	43	0	0	54	4414
2026-01-04 04:38:04.97	218.18	23.95	-41.5	-43.4	27.0	0.00e+00	0	43	0	0	54	4512
2026-01-04 04:38:06.26	217.61	24.11	-41.4	-43.3	27.1	0.00e+00	0	43	0	0	54	4464
2026-01-04 04:38:06.98	217.29	24.20	-41.5	-43.4	27.0	0.00e+00	0	43	0	0	54	4533
2026-01-04 04:38:08.27	216.71	24.35	-41.7	-43.6	26.7	0.00e+00	0	43	0	0	54	4632
2026-01-04 04:38:08.98	216.39	24.44	-41.6	-43.5	26.9	0.00e+00	0	43	0	0	54	4573
2026-01-04 04:38:10.29	215.78	24.60	-41.4	-43.3	27.0	0.00e+00	0	43	0	0	54	4473
2026-01-04 04:38:11.26	215.33	24.71	-41.2	-43.1	27.1	0.00e+00	0	43	0	0	54	4378
2026-01-04 04:38:12.27	214.86	24.83	-41.3	-43.2	27.0	0.00e+00	0	43	0	0	54	4401
2026-01-04 04:38:13.26	214.40	24.94	-41.0	-42.9	27.3	0.00e+00	0	43	0	0	54	4276
2026-01-04 04:38:14.27	213.92	25.06	-41.0	-42.8	27.4	0.00e+00	0	43	0	0	53	4484
2026-01-04 04:38:15.27	213.44	25.17	-40.9	-42.8	27.4	0.00e+00	0	43	0	0	53	4446
2026-01-04 04:38:16.27	212.95	25.28	-41.0	-42.8	27.3	0.00e+00	0	43	0	0	53	4485
2026-01-04 04:38:17.28	212.46	25.39	-40.3	-42.2	27.7	0.00e+00	0	43	0	0	52	4407
2026-01-04 04:38:18.28	211.97	25.50	-40.3	-42.2	27.8	0.00e+00	0	43	0	0	52	4407
2026-01-04 04:38:19.35	211.44	25.62	-40.7	-42.6	27.6	0.00e+00	0	43	0	0	52	4605
2026-01-04 04:38:20.24	210.99	25.71	-40.6	-42.5	27.6	0.00e+00	0	43	0	0	52	4574
2026-01-04 04:38:21.38	210.42	25.83	-40.9	-42.8	27.4	0.00e+00	0	43	0	0	52	4706
2026-01-04 04:38:22.24	209.99	25.92	-41.2	-43.1	27.1	0.00e+00	0	43	0	0	53	4628
2026-01-04 04:38:23.39	209.40	26.03	-41.2	-43.1	27.2	0.00e+00	0	43	0	0	53	4641
2026-01-04 04:38:24.25	208.96	26.12	-40.9	-42.8	27.3	0.00e+00	0	43	0	0	53	4475
2026-01-04 04:38:25.39	208.37	26.23	-40.8	-42.6	27.5	0.00e+00	0	43	0	0	53	4387
2026-01-04 04:38:26.25	207.92	26.31	-40.5	-42.4	27.6	0.00e+00	0	43	0	0	53	4261
2026-01-04 04:38:27.40	207.31	26.42	-40.3	-42.1	27.8	0.00e+00	0	43	0	0	52	4361
2026-01-04 04:38:28.26	206.86	26.50	-40.2	-42.1	27.8	0.00e+00	0	43	0	0	52	4348
2026-01-04 04:38:29.40	206.25	26.60	-40.8	-42.6	27.5	0.00e+00	0	43	0	0	52	4629
2026-01-04 04:38:30.26	205.79	26.67	-40.6	-42.4	27.6	0.00e+00	0	43	0	0	52	4540
2026-01-04 04:38:31.47	205.14	26.78	-40.3	-42.1	27.8	0.00e+00	0	43	0	0	52	4381
2026-01-04 04:38:32.33	204.67	26.85	-40.3	-42.2	27.8	0.00e+00	0	43	0	0	52	4396
2026-01-04 04:38:33.59	203.99	26.95	-40.1	-41.9	27.9	0.00e+00	0	43	0	0	52	4281
2026-01-04 04:38:34.36	203.56	27.01	-40.0	-41.8	27.9	0.00e+00	0	43	0	0	52	4225
2026-01-04 04:38:35.65	202.85	27.11	-40.4	-42.3	27.8	0.00e+00	0	43	0	0	51	4711
2026-01-04 04:38:36.37	202.45	27.16	-40.5	-42.3	27.6	0.00e+00	0	43	0	0	52	4481
2026-01-04 04:38:37.66	201.73	27.25	-40.1	-41.9	27.6	0.00e+00	0	43	0	0	52	4258
2026-01-04 04:38:38.37	201.34	27.30	-40.2	-42.0	27.8	0.00e+00	0	43	0	0	52	4329
2026-01-04 04:38:39.66	200.61	27.39	-40.5	-42.3	27.7	0.00e+00	0	43	0	0	52	4472
2026-01-04 04:38:40.38	200.20	27.43	-40.6	-42.4	27.7	0.00e+00	0	43	0	0	52	4516
2026-01-04 04:38:41.66	199.47	27.51	-40.9	-42.8	27.3	0.00e+00	0	43	0	0	52	4720
2026-01-04 04:38:42.48	199.01	27.56	-41.0	-42.9	27.3	0.00e+00	0	43	0	0	52	4775
2026-01-04 04:38:43.62	198.35	27.62	-41.0	-42.8	27.4	0.00e+00	0	43	0	0	52	4754
2026-01-04 04:38:44.67	197.75	27.68	-40.8	-42.6	27.5	0.00e+00	0	43	0	0	52	4635
2026-01-04 04:38:45.53	197.25	27.72	-40.7	-42.5	27.6	0.00e+00	0	43	0	0	52	4578
2026-01-04 04:38:46.68	196.59	27.77	-40.6	-42.5	27.6	0.00e+00	0	43	0	0	52	4564
2026-01-04 04:38:47.53	196.09	27.81	-40.8	-42.7	27.5	0.00e+00	0	43	0	0	52	4667
2026-01-04 04:38:48.68	195.42	27.86	-41.0	-42.9	27.3	0.00e+00	0	43	0	0	52	4776
2026-01-04 04:38:49.86	194.73	27.91	-41.4	-43.3	27.1	0.00e+00	0	43	0	0	53	4738
2026-01-04 04:38:50.72	194.23	27.94	-41.2	-43.1	27.2	0.00e+00	0	43	0	0	53	4613
2026-01-04 04:38:51.87	193.55	27.97	-40.7	-42.6	27.5	0.00e+00	0	43	0	0	53	4376
2026-01-04 04:38:52.72	193.05	28.00	-40.9	-42.8	27.5	0.00e+00	0	43	0	0	53	4446
2026-01-04 04:38:53.87	192.37	28.03	-40.8	-42.7	27.5	0.00e+00	0	43	0	0	53	4417
2026-01-04 04:38:54.73	191.86	28.05	-40.7	-42.6	27.6	0.00e+00	0	43	0	0	53	4357
2026-01-04 04:38:55.88	191.18	28.07	-40.8	-42.6	27.5	0.00e+00	0	43	0	0	53	4390
2026-01-04 04:38:56.74	190.67	28.09	-40.5	-42.3	27.5	0.00e+00	0	43	0	0	52	4477
2026-01-04 04:38:57.88	189.99	28.10	-40.4	-42.2	27.8	0.00e+00	0	43	0	0	52	4421
2026-01-04 04:38:58.74	189.48	28.11	-40.6	-42.4	27.7	0.00e+00	0	43	0	0	52	4530
2026-01-04 04:39:00.00	188.73	28.12	-40.8	-42.6	27.5	0.00e+00	0	43	0	0	52	4624
2026-01-04 04:39:00.73	188.30	28.13	-40.7	-42.5	27.6	0.00e+00	0	43	0	0	52	4584
2026-01-04 04:39:02.23	187.40	28.13	-40.6	-42.4	27.7	0.00e+00	0	43	0	0	52	4522
2026-01-04 04:39:02.94	186.98	28.13	-40.4	-42.2	27.7	0.00e+00	0	43	0	0	52	4441
2026-01-04 04:39:04.30	186.17	28.12	-40.7	-42.6	27.6	0.00e+00	0	43	0	0	52	4600
2026-01-04 04:39:05.01	185.75	28.12	-40.8	-42.6	27.5	0.00e+00	0	43	0	0	52	4647
2026-01-04 04:39:06.30	184.98	28.10	-40.9	-42.7	27.4	0.00e+00	0	43	0	0	52	4705
2026-01-04 04:39:07.02	184.56	28.09	-41.1	-42.9	27.3	0.00e+00	0	43	0	0	53	4541
2026-01-04 04:39:08.31	183.79	28.07	-40.6	-42.4	27.6	0.00e+00	0	43	0	0	53	4267
2026-01-04 04:39:09.02	183.37	28.05	-40.6	-42.5	27.6	0.00e+00	0	43	0	0	53	4306
2026-01-04 04:39:10.31	182.61	28.02	-41.0	-42.9	27.3	0.00e+00	0	43	0	0	53	4511
2026-01-04 04:39:11.03	182.18	28.00	-40.7	-42.6	27.4	0.00e+00	0	43	0	0	53	4353
2026-01-04 04:39:12.32	181.42	27.97	-40.7	-42.6	27.5	0.00e+00	0	43	0	0	53	4368
2026-01-04 04:39:13.04	181.00	27.94	-40.4	-42.2	27.7	0.00e+00	0	43	0	0	52	4420
2026-01-04 04:39:14.32	180.25	27.90	-40.4	-42.2	27.7	0.00e+00	0	43	0	0	52	4438
2026-01-04 04:39:15.09	179.80	27.87	-40.4	-42.3	27.7	0.00e+00	0	43	0	0	52	4444
2026-01-04 04:39:16.69	178.86	27.80	-40.5	-42.3	27.6	0.00e+00	0	43	0	0	52	4480
2026-01-04 04:39:17.27	178.53	27.77	-40.7	-42.6	27.5	0.00e+00	0	43	0	0	52	4627
2026-01-04 04:39:19.08	177.48	27.69	-41.0	-42.9	27.3	0.00e+00	0	43	0	0	52	4779
2026-01-04 04:39:20.12	176.88	27.63	-41.0	-42.9	27.3	0.00e+00	0	43	0	0	52	4772
2026-01-04 04:39:21.12	176.31	27.58	-41.4	-43.3	26.9	0.00e+00	0	43	0	0	53	4722
2026-01-04 04:39:22.12	175.74	27.52	-41.2	-43.1	27.1	0.00e+00	0	43	0	0	53	4620
2026-01-04 04:39:23.19	175.13	27.46	-40.8	-42.7	27.4	0.00e+00	0	43	0	0	53	4393
2026-01-04 04:39:24.05	174.64	27.40	-40.7	-42.5	27.5	0.00e+00	0	43	0	0	52	4586
2026-01-04 04:39:25.19	174.00	27.33	-40.3	-42.1	27.8	0.00e+00	0	43	0	0	52	4370
2026-01-04 04:39:26.18	173.44	27.26	-40.4	-42.2	27.7	0.00e+00	0	43	0	0	52	4420
2026-01-04 04:39:27.37	172.78	27.18	-40.8	-42.7	27.4	0.00e+00	0	43	0	0	52	4683
2026-01-04 04:39:28.26	172.28	27.11	-41.2	-43.1	27.3	0.00e+00	0	43	0	0	52	4879
2026-01-04 04:39:29.31	171.70	27.03	-41.5	-43.5	26.9	0.00e+00	0	43	0	0	53	4816
2026-01-04 04:39:30.19	171.22	26.96	-41.3	-43.3	27.0	0.00e+00	0	43	0	0	53	4713
2026-01-04 04:39:31.34	170.59	26.87	-40.9	-42.8	27.4	0.00e+00	0	43	0	0	53	4449
2026-01-04 04:39:32.20	170.12	26.80	-40.8	-42.7	27.4	0.00e+00	0	43	0	0	53	4422
2026-01-04 04:39:33.34	169.51	26.70	-40.5	-42.4	27.6	0.00e+00	0	43	0	0	53	4253
2026-01-04 04:39:34.20	169.05	26.63	-40.6	-42.5	27.5	0.00e+00	0	43	0	0	53	4299
2026-01-04 04:39:35.35	168.44	26.53	-40.4	-42.3	27.7	0.00e+00	0	43	0	0	52	4444
2026-01-04 04:39:36.21	167.98	26.45	-40.4	-42.2	27.7	0.00e+00	0	43	0	0	52	4441
2026-01-04 04:39:37.42	167.34	26.34	-40.5	-42.4	27.7	0.00e+00	0	43	0	0	52	4501
2026-01-04 04:39:38.28	166.89	26.26	-40.5	-42.4	27.7	0.00e+00	0	43	0	0	52	4508
2026-01-04 04:39:39.49	166.27	26.14	-40.9	-42.8	27.4	0.00e+00	0	43	0	0	52	4749
2026-01-04 04:39:40.35	165.82	26.05	-40.8	-42.7	27.5	0.00e+00	0	43	0	0	52	4663
2026-01-04 04:39:41.55	165.21	25.93	-41.1	-43.0	27.2	0.00e+00	0	43	0	0	52	4862
2026-01-04 04:39:42.42	164.77	25.84	-41.2	-43.1	27.2	0.00e+00	0	43	0	0	53	4638
2026-01-04 04:39:43.64	164.16	25.72	-40.7	-42.5	27.5	0.00e+00	0	43	0	0	53	4334
2026-01-04 04:39:44.50	163.73	25.63	-40.6	-42.5	27.6	0.00e+00	0	43	0	0	53	4293
2026-01-04 04:39:45.73	163.12	25.49	-40.6	-42.5	27.5	0.00e+00	0	43	0	0	53	4315
2026-01-04 04:39:46.59	162.70	25.40	-41.1	-42.9	27.4	0.00e+00	0	43	0	0	53	4535
2026-01-04 04:39:47.73	162.14	25.28	-40.9	-42.8	27.4	0.00e+00	0	43	0	0	53	4471
2026-01-04 04:39:48.59	161.72	25.18	-40.9	-42.8	27.4	0.00e+00	0	43	0	0	53	4471
2026-01-04 04:39:49.74	161.17	25.05	-40.8	-42.7	27.6	0.00e+00	0	43	0	0	53	4400
2026-01-04 04:39:50.60	160.76	24.95	-40.4	-42.3	27.7	0.00e+00	0	43	0	0	52	4446
2026-01-04 04:39:51.91	160.15	24.80	-40.8	-42.6	27.5	0.00e+00	0	43	0	0	52	4648
2026-01-04 04:39:52.62	159.82	24.72	-40.9	-42.8	27.4	0.00e+00	0	43	0	0	52	4744
2026-01-04 04:39:53.91	159.22	24.57	-40.7	-42.6	27.6	0.00e+00	0	43	0	0	52	4602
2026-01-04 04:39:54.63	158.89	24.48	-40.8	-42.7	27.4	0.00e+00	0	43	0	0	52	4659
2026-01-04 04:39:56.19	158.18	24.29	-41.0	-42.9	27.3	0.00e+00	0	43	0	0	52	4762
2026-01-04 04:39:56.90	157.86	24.21	-40.9	-42.8	27.3	0.00e+00	0	43	0	0	52	4720
2026-01-04 04:39:58.25	157.26	24.04	-40.7	-42.6	27.4	0.00e+00	0	43	0	0	52	4625
2026-01-04 04:39:58.97	156.94	23.96	-40.7	-42.5	27.5	0.00e+00	0	43	0	0	52	4589
2026-01-04 04:40:00.25	156.38	23.80	-40.8	-42.7	27.4	0.00e+00	0	43	0	0	52	4692
2026-01-04 04:40:00.97	156.07	23.71	-41.1	-43.0	27.3	0.00e+00	0	43	0	0	52	4844
2026-01-04 04:40:02.26	155.51	23.55	-41.2	-43.0	27.2	0.00e+00	0	43	0	0	53	4598
2026-01-04 04:40:02.98	155.21	23.46	-41.1	-43.0	27.2	0.00e+00	0	43	0	0	53	4550
2026-01-04 04:40:04.27	154.66	23.29	-40.8	-42.7	27.4	0.00e+00	0	43	0	0	53	4423
2026-01-04 04:40:04.98	154.37	23.20	-40.7	-42.5	27.5	0.00e+00	0	43	0	0	53	4330
2026-01-04 04:40:06.27	153.83	23.04	-40.5	-42.4	27.6	0.00e+00	0	43	0	0	53	4270
2026-01-04 04:40:06.99	153.54	22.94	-40.8	-42.6	27.4	0.00e+00	0	43	0	0	53	4384
2026-01-04 04:40:08.27	153.02	22.78	-41.1	-43.0	27.2	0.00e+00	0	43	0	0	53	4546
2026-01-04 04:40:08.99	152.73	22.69	-41.2	-43.1	27.1	0.00e+00	0	43	0	0	53	4601
2026-01-04 04:40:10.28	152.22	22.52	-41.4	-43.3	27.0	0.00e+00	0	43	0	0	53	4721
2026-01-04 04:40:10.99	151.94	22.43	-41.4	-43.4	27.0	0.00e+00	0	43	0	0	53	4761
2026-01-04 04:40:12.28	151.44	22.26	-41.5	-43.4	26.9	0.00e+00	0	43	0	0	53	4781
2026-01-04 04:40:13.00	151.16	22.17	-41.3	-43.2	27.0	0.00e+00	0	43	0	0	53	4687
2026-01-04 04:40:14.29	150.67	22.00	-41.2	-43.1	27.1	0.00e+00	0	43	0	0	53	4605
2026-01-04 04:40:15.00	150.40	21.90	-41.1	-43.0	27.2	0.00e+00	0	43	0	0	53	4561
2026-01-04 04:40:16.29	149.91	21.73	-41.4	-43.3	26.9	0.00e+00	0	43	0	0	53	4751
2026-01-04 04:40:17.01	149.65	21.64	-41.5	-43.5	26.8	0.00e+00	0	43	0	0	53	4833
2026-01-04 04:40:18.30	149.17	21.47	-41.8	-43.7	26.7	0.00e+00	0	43	0	0	54	4672
2026-01-04 04:40:19.01	148.92	21.38	-41.8	-43.7	26.7	0.00e+00	0	43	0	0	54	4687
2026-01-04 04:40:20.31	148.45	21.20	-41.6	-43.5	26.9	0.00e+00	0	43	0	0	54	4577
2026-01-04 04:40:21.07	148.18	21.10	-41.4	-43.3	27.0	0.00e+00	0	43	0	0	54	4461
2026-01-04 04:40:22.68	147.61	20.89	-41.6	-43.5	26.9	0.00e+00	0	43	0	0	54	4566
2026-01-04 04:40:23.25	147.42	20.82	-41.7	-43.7	26.8	0.00e+00	0	43	0	0	54	4660
2026-01-04 04:40:25.04	146.80	20.58	-42.0	-44.0	26.5	0.00e+00	0	43	0	0	54	4836
2026-01-04 04:40:25.61	146.61	20.50	-42.1	-44.1	26.5	0.00e+00	0	43	0	0	54	4889
2026-01-04 04:40:27.20	146.07	20.29	-42.0	-44.0	26.6	0.00e+00	0	43	0	0	54	4818
2026-01-04 04:40:27.77	145.88	20.22	-41.8	-43.8	26.7	0.00e+00	0	43	0	0	54	4722
2026-01-04 04:40:29.37	145.36	20.01	-41.8	-43.8	26.7	0.00e+00	0	43	0	0	54	4727
2026-01-04 04:40:29.95	145.17	19.93	-41.9	-43.9	26.6	0.00e+00	0	43	0	0	54	4782
2026-01-04 04:40:31.53	144.67	19.72	-42.0	-44.0	26.6	0.00e+00	0	43	0	0	54	4817
2026-01-04 04:40:32.11	144.48	19.65	-41.9	-43.9	26.6	0.00e+00	0	43	0	0	54	4792
2026-01-04 04:40:33.69	143.99	19.44	-42.0	-43.9	26.5	0.00e+00	0	43	0	0	54	4794
2026-01-04 04:40:34.28	143.80	19.36	-41.9	-43.9	26.5	0.00e+00	0	43	0	0	54	4763
2026-01-04 04:40:35.92	143.30	19.15	-42.2	-44.1	26.2	0.00e+00	0	43	0	0	54	4909
2026-01-04 04:40:36.49	143.13	19.07	-42.3	-44.2	26.2	0.00e+00	0	43	0	0	55	4700
2026-01-04 04:40:38.13	142.64	18.86	-42.0	-44.0	26.4	0.00e+00	0	43	0	0	55	4559
2026-01-04 04:40:38.70	142.47	18.79	-42.0	-43.9	26.5	0.00e+00	0	43	0	0	55	4539
2026-01-04 04:40:40.66	141.90	18.53	-41.9	-43.9	26.5	0.00e+00	0	43	0	0	55	4504
2026-01-04 04:40:41.22	141.73	18.46	-41.9	-43.9	26.6	0.00e+00	0	43	0	0	55	4495
2026-01-04 04:40:42.94	141.24	18.24	-42.4	-44.4	26.1	0.00e+00	0	43	0	0	55	4776
2026-01-04 04:40:43.52	141.08	18.16	-42.5	-44.4	26.1	0.00e+00	0	43	0	0	55	4811
2026-01-04 04:40:45.10	140.64	17.96	-42.5	-44.5	26.1	0.00e+00	0	43	0	0	55	4850
2026-01-04 04:40:45.82	140.44	17.87	-42.4	-44.4	26.2	0.00e+00	0	43	0	0	55	4761
2026-01-04 04:40:47.11	140.09	17.71	-42.5	-44.4	26.2	0.00e+00	0	43	0	0	55	4803
2026-01-04 04:40:48.07	139.83	17.58	-42.6	-44.6	26.0	0.00e+00	0	43	0	0	55	4918
2026-01-04 04:40:49.39	139.48	17.42	-42.9	-44.9	25.9	0.00e+00	0	43	0	0	56	4803
2026-01-04 04:40:50.11	139.29	17.33	-43.0	-44.9	25.9	0.00e+00	0	43	0	0	56	4813
2026-01-04 04:40:51.40	138.96	17.16	-42.7	-44.7	26.1	0.00e+00	0	43	0	0	56	4669
2026-01-04 04:40:52.11	138.78	17.08	-42.6	-44.6	26.1	0.00e+00	0	43	0	0	56	4634
2026-01-04 04:40:53.83	138.34	16.86	-42.7	-44.7	26.0	0.00e+00	0	43	0	0	56	4679
2026-01-04 04:40:54.40	138.19	16.79	-42.8	-44.8	25.9	0.00e+00	0	43	0	0	56	4737
2026-01-04 04:40:56.00	137.80	16.59	-43.1	-45.1	25.8	0.00e+00	0	43	0	0	56	4888
2026-01-04 04:40:56.57	137.66	16.52	-43.1	-45.1	25.8	0.00e+00	0	43	0	0	56	4919
2026-01-04 04:40:58.15	137.27	16.33	-42.8	-44.8	25.9	0.00e+00	0	43	0	0	56	4751
2026-01-04 04:40:58.91	137.09	16.24	-42.6	-44.6	26.0	0.00e+00	0	43	0	0	56	4635
2026-01-04 04:41:00.20	136.78	16.08	-42.6	-44.5	26.1	0.00e+00	0	43	0	0	56	4597
2026-01-04 04:41:01.06	136.58	15.97	-42.6	-44.6	26.1	0.00e+00	0	43	0	0	56	4631
2026-01-04 04:41:02.56	136.23	15.79	-43.1	-45.1	25.7	0.00e+00	0	43	0	0	56	4909
2026-01-04 04:41:03.27	136.07	15.71	-43.5	-45.5	25.4	0.00e+00	0	43	0	0	57	4853
2026-01-04 04:41:04.78	135.73	15.53	-44.0	-46.2	24.9	0.00e+00	0	43	0	0	58	4931
2026-01-04 04:41:05.50	135.57	15.44	-44.1	-46.2	24.8	0.00e+00	0	43	0	0	58	4968
2026-01-04 04:41:06.78	135.28	15.29	-44.2	-46.3	24.9	0.00e+00	0	43	0	0	59	4741
2026-01-04 04:41:07.50	135.12	15.20	-44.3	-46.4	25.0	0.00e+00	0	43	0	0	59	4769
2026-01-04 04:41:08.79	134.84	15.05	-44.1	-46.2	25.0	0.00e+00	0	43	0	0	59	4665
2026-01-04 04:41:09.51	134.69	14.97	-44.1	-46.2	25.0	0.00e+00	0	43	0	0	59	4699
2026-01-04 04:41:10.79	134.41	14.82	-43.4	-45.5	25.5	0.00e+00	0	43	0	0	58	4553
2026-01-04 04:41:11.51	134.26	14.73	-43.3	-45.3	25.7	0.00e+00	0	43	0	0	58	4470
2026-01-04 04:41:12.80	133.99	14.58	-43.5	-45.6	25.5	0.00e+00	0	43	0	0	58	4611
2026-01-04 04:41:13.61	133.82	14.49	-43.7	-45.7	25.3	0.00e+00	0	43	0	0	58	4696
2026-01-04 04:41:15.09	133.52	14.32	-44.2	-46.3	24.9	0.00e+00	0	43	0	0	58	4989
2026-01-04 04:41:15.81	133.37	14.24	-44.3	-46.4	24.8	0.00e+00	0	43	0	0	59	4774
2026-01-04 04:41:17.10	133.12	14.09	-44.5	-46.7	24.5	0.00e+00	0	43	0	0	59	4958
2026-01-04 04:41:17.81	132.97	14.01	-44.5	-46.7	24.5	0.00e+00	0	43	0	0	59	4940
2026-01-04 04:41:19.10	132.72	13.87	-44.7	-46.9	24.3	0.00e+00	0	43	0	0	59	5042
2026-01-04 04:41:19.82	132.58	13.78	-44.5	-46.7	24.5	0.00e+00	0	43	0	0	60	4675
2026-01-04 04:41:21.10	132.33	13.64	-44.5	-46.6	24.5	0.00e+00	0	43	0	0	60	4649
2026-01-04 04:41:21.97	132.17	13.54	-44.4	-46.5	24.6	0.00e+00	0	43	0	0	60	4575
2026-01-04 04:41:23.11	131.95	13.42	-44.1	-46.2	24.8	0.00e+00	0	43	0	0	60	4437
2026-01-04 04:41:24.21	131.75	13.30	-44.1	-46.2	24.8	0.00e+00	0	43	0	0	60	4423
2026-01-04 04:41:25.25	131.56	13.18	-44.2	-46.4	24.7	0.00e+00	0	43	0	0	60	4496
2026-01-04 04:41:26.25	131.37	13.07	-44.3	-46.4	24.6	0.00e+00	0	43	0	0	60	4537
2026-01-04 04:41:27.25	131.19	12.97	-44.5	-46.6	24.4	0.00e+00	0	43	0	0	60	4630
2026-01-04 04:41:28.25	131.01	12.86	-44.8	-47.0	24.2	0.00e+00	0	43	0	0	60	4836
2026-01-04 04:41:29.26	130.83	12.75	-45.0	-47.2	24.0	0.00e+00	0	43	0	0	61	4700
2026-01-04 04:41:30.26	130.66	12.64	-45.0	-47.2	24.0	0.00e+00	0	43	0	0	61	4678
2026-01-04 04:41:31.27	130.48	12.53	-45.0	-47.2	24.0	0.00e+00	0	43	0	0	61	4694
2026-01-04 04:41:32.27	130.31	12.43	-44.9	-47.1	24.0	0.00e+00	0	43	0	0	61	4650
2026-01-04 04:41:33.27	130.14	12.32	-45.0	-47.2	24.0	0.00e+00	0	43	0	0	61	4680
2026-01-04 04:41:34.28	129.96	12.21	-45.0	-47.2	23.9	0.00e+00	0	43	0	0	61	4692
2026-01-04 04:41:35.28	129.80	12.11	-45.0	-47.2	23.9	0.00e+00	0	43	0	0	61	4681
2026-01-04 04:41:36.30	129.63	12.00	-45.0	-47.2	24.0	0.00e+00	0	43	0	0	61	4684
2026-01-04 04:41:37.30	129.46	11.90	-45.0	-47.2	24.0	0.00e+00	0	43	0	0	61	4692
2026-01-04 04:41:38.37	129.29	11.79	-45.1	-47.4	23.9	0.00e+00	0	43	0	0	61	4771
2026-01-04 04:41:39.26	129.14	11.70	-45.2	-47.5	23.7	0.00e+00	0	43	0	0	61	4859
2026-01-04 04:41:40.40	128.96	11.58	-45.5	-47.8	23.4	0.00e+00	0	43	0	0	61	5029
2026-01-04 04:41:41.26	128.82	11.49	-45.6	-47.9	23.3	0.00e+00	0	43	0	0	61	5099
2026-01-04 04:41:42.63	128.61	11.35	-45.7	-48.1	23.2	0.00e+00	0	43	0	0	62	4872
2026-01-04 04:41:43.35	128.50	11.28	-45.7	-48.1	23.2	0.00e+00	0	43	0	0	62	4887
2026-01-04 04:41:44.64	128.30	11.15	-45.6	-47.9	23.3	0.00e+00	0	43	0	0	62	4814
2026-01-04 04:41:45.36	128.19	11.08	-45.6	-48.0	23.3	0.00e+00	0	43	0	0	62	4824
2026-01-04 04:41:46.65	127.99	10.95	-45.7	-48.0	23.2	0.00e+00	0	43	0	0	62	4861
2026-01-04 04:41:47.36	127.89	10.88	-45.6	-47.9	23.3	0.00e+00	0	43	0	0	62	4806
2026-01-04 04:41:48.66	127.69	10.75	-45.7	-48.0	23.2	0.00e+00	0	43	0	0	62	4847
2026-01-04 04:41:49.37	127.59	10.68	-45.7	-48.0	23.2	0.00e+00	0	43	0	0	62	4858
2026-01-04 04:41:50.66	127.40	10.55	-45.6	-47.9	23.2	0.00e+00	0	43	0	0	62	4807
2026-01-04 04:41:51.38	127.30	10.48	-45.5	-47.8	23.3	0.00e+00	0	43	0	0	62	4741
2026-01-04 04:41:52.67	127.11	10.36	-45.2	-47.5	23.6	0.00e+00	0	43	0	0	62	4564
2026-01-04 04:41:53.38	127.01	10.29	-45.2	-47.5	23.6	0.00e+00	0	43	0	0	62	4554
2026-01-04 04:41:54.73	126.82	10.16	-45.2	-47.5	23.7	0.00e+00	0	43	0	0	62	4565
2026-01-04 04:41:55.45	126.72	10.09	-45.4	-47.6	23.5	0.00e+00	0	43	0	0	62	4651
2026-01-04 04:41:56.74	126.54	9.97	-45.5	-47.9	23.3	0.00e+00	0	43	0	0	62	4761
2026-01-04 04:41:57.46	126.44	9.90	-45.8	-48.1	23.1	0.00e+00	0	43	0	0	62	4918
2026-01-04 04:41:58.75	126.27	9.78	-46.0	-48.4	22.8	0.00e+00	0	43	0	0	62	5099
2026-01-04 04:41:59.46	126.17	9.71	-46.2	-48.6	22.6	0.00e+00	0	43	0	0	63	4910
2026-01-04 04:42:00.75	126.00	9.59	-46.4	-48.9	22.4	0.00e+00	0	43	0	0	63	5098
2026-01-04 04:42:01.46	125.91	9.52	-46.6	-49.2	22.2	0.00e+00	0	43	0	0	63	5229
2026-01-04 04:42:02.75	125.74	9.40	-46.6	-49.1	22.1	0.00e+00	0	43	0	0	64	4909
2026-01-04 04:42:03.47	125.64	9.34	-46.7	-49.2	22.0	0.00e+00	0	43	0	0	64	4978
2026-01-04 04:42:04.76	125.48	9.22	-46.6	-49.2	22.0	0.00e+00	0	43	0	0	64	4947
2026-01-04 04:42:05.55	125.38	9.14	-46.6	-49.2	22.0	0.00e+00	0	43	0	0	64	4940
2026-01-04 04:42:06.70	125.23	9.04	-46.5	-49.0	22.1	0.00e+00	0	43	0	0	64	4844
2026-01-04 04:42:07.75	125.10	8.94	-50.7	-55.0	18.1	0.00e+00	0	43	0	0	71	6430
2026-01-04 04:42:08.61	124.99	8.87	-54.2	-72.4	3.8	4.02e-01	0	43	104	0	79	30100
2026-01-04 04:42:09.76	124.85	8.76	-54.2	-72.8	3.8	4.02e-01	0	43	104	0	79	31552
2026-01-04 04:42:10.62	124.75	8.69	-54.4	-73.2	3.8	8.48e-01	0	43	104	0	79	33075
2026-01-04 04:42:11.77	124.61	8.58	-54.5	-73.3	3.8	8.46e-01	0	43	104	0	79	33367
2026-01-04 04:42:12.63	124.50	8.51	-54.3	-73.2	3.8	8.46e-01	0	43	104	0	79	33277
2026-01-04 04:42:13.78	124.37	8.40	-54.5	-73.3	3.8	8.47e-01	0	43	104	0	79	33459
2026-01-04 04:42:14.64	124.27	8.33	-54.5	-73.3	3.8	8.46e-01	0	43	104	0	79	33592
2026-01-04 04:42:15.79	124.13	8.23	-54.6	-73.4	3.8	8.46e-01	0	43	104	0	79	33700
2026-01-04 04:42:16.65	124.03	8.15	-54.4	-73.4	3.8	8.47e-01	0	43	104	0	79	33946
2026-01-04 04:42:17.80	123.90	8.05	-54.6	-73.5	3.8	8.46e-01	0	43	104	0	79	34243
2026-01-04 04:42:18.66	123.80	7.98	-54.5	-73.4	3.8	8.46e-01	0	43	104	0	80	32012
2026-01-04 04:42:19.80	123.67	7.88	-54.5	-73.4	3.8	8.47e-01	0	43	104	0	80	32117
2026-01-04 04:42:20.66	123.57	7.81	-54.4	-73.4	3.8	8.47e-01	0	43	104	0	80	32065
2026-01-04 04:42:21.81	123.45	7.71	-54.3	-73.4	3.8	8.47e-01	0	43	104	0	80	32023
2026-01-04 04:42:22.67	123.35	7.63	-54.3	-73.3	3.8	8.47e-01	0	43	104	0	80	31810
2026-01-04 04:42:23.82	123.22	7.54	-54.4	-73.4	3.8	8.46e-01	0	43	104	0	80	32028
2026-01-04 04:42:24.68	123.13	7.46	-54.3	-73.4	3.8	8.47e-01	0	43	104	0	80	32051
2026-01-04 04:42:25.83	123.01	7.37	-54.3	-73.4	3.8	8.47e-01	0	43	104	0	80	32021
2026-01-04 04:42:26.69	122.91	7.29	-54.2	-73.4	3.8	8.47e-01	0	43	104	0	80	32038
2026-01-04 04:42:27.84	122.79	7.20	-54.3	-73.4	3.8	8.47e-01	0	43	104	0	80	32114
2026-01-04 04:42:28.70	122.70	7.13	-54.3	-73.4	3.8	8.47e-01	0	43	104	0	80	31996
2026-01-04 04:42:29.85	122.58	7.03	-54.2	-73.4	3.8	8.47e-01	0	43	104	0	80	32006
2026-01-04 04:42:30.71	122.49	6.96	-54.2	-73.4	3.8	8.48e-01	0	43	104	0	80	31894
2026-01-04 04:42:31.86	122.37	6.87	-54.3	-73.4	3.8	8.48e-01	0	43	104	0	80	31859
2026-01-04 04:42:32.72	122.29	6.80	-54.2	-73.3	3.8	8.48e-01	0	43	104	0	80	31706
2026-01-04 04:42:33.86	122.17	6.70	-54.3	-73.3	3.8	8.49e-01	0	43	104	0	80	31722
2026-01-04 04:42:34.72	122.09	6.63	-54.3	-73.4	3.8	8.49e-01	0	43	104	0	80	31867
2026-01-04 04:42:35.87	121.97	6.54	-54.3	-73.4	3.8	8.47e-01	0	43	104	0	80	32079
2026-01-04 04:42:36.73	121.89	6.47	-54.2	-73.3	3.8	8.47e-01	0	43	104	0	80	31473
2026-01-04 04:42:37.88	121.77	6.38	-54.2	-73.3	3.8	8.46e-01	0	43	104	0	80	31661
2026-01-04 04:42:38.74	121.69	6.31	-54.2	-73.3	3.8	8.46e-01	0	43	104	0	80	31516
2026-01-04 04:42:39.89	121.58	6.22	-54.2	-73.2	3.8	8.47e-01	0	43	104	0	80	31385
2026-01-04 04:42:40.75	121.50	6.15	-54.1	-73.2	3.8	8.47e-01	0	43	104	0	80	31349
2026-01-04 04:42:41.90	121.39	6.06	-54.1	-73.2	3.8	8.47e-01	0	43	104	0	80	31431
2026-01-04 04:42:42.76	121.31	5.99	-54.1	-73.3	3.8	8.47e-01	0	43	104	0	80	31452
2026-01-04 04:42:43.91	121.20	5.90	-54.2	-73.2	3.8	8.47e-01	0	44	104	0	80	31439
2026-01-04 04:42:44.77	121.12	5.83	-54.2	-73.3	3.8	8.47e-01	0	43	104	0	80	31653
2026-01-04 04:42:45.92	121.01	5.74	-54.3	-73.3	3.8	8.47e-01	0	43	104	0	80	31766
2026-01-04 04:42:46.78	120.93	5.68	-54.2	-73.4	3.8	8.47e-01	0	43	104	0	80	31849
2026-01-04 04:42:47.92	120.83	5.59	-54.2	-73.3	3.8	8.47e-01	0	43	104	0	80	31579
2026-01-04 04:42:48.78	120.75	5.52	-54.2	-73.3	3.8	8.47e-01	0	43	104	0	80	31710
2026-01-04 04:42:49.93	120.65	5.44	-54.2	-73.3	3.8	8.46e-01	0	43	104	0	80	31668
2026-01-04 04:42:50.79	120.57	5.37	-54.2	-73.3	3.8	8.46e-01	0	43	104	0	80	31538
2026-01-04 04:42:51.94	120.47	5.28	-54.2	-73.3	3.8	8.47e-01	0	43	104	0	80	31676
2026-01-04 04:42:52.80	120.40	5.22	-54.2	-73.3	3.8	8.47e-01	0	43	104	0	80	31596
2026-01-04 04:42:53.95	120.30	5.13	-54.2	-73.3	3.8	8.46e-01	0	43	104	0	80	31530
2026-01-04 04:42:54.81	120.22	5.07	-54.1	-73.2	3.8	8.46e-01	0	43	104	0	80	31219
2026-01-04 04:42:55.96	120.13	4.98	-54.1	-73.2	3.8	8.46e-01	0	43	104	0	80	31423
2026-01-04 04:42:56.82	120.05	4.92	-54.1	-73.2	3.8	8.45e-01	0	43	104	0	80	31311
2026-01-04 04:42:57.97	119.96	4.83	-54.1	-73.2	3.8	8.45e-01	0	43	104	0	80	31325

#Closed at: 2026-01-04 04:42:58
#Recorded file [0 MB]: D:/Data/31040_260104_073511.dat