passes_logs/2026/01/04/T1/T1__20260104_004216_FENGYUN_3D_rec.log

#Pass ID: 20260104_004216_FENGYUN 3D
#Satellite: FENGYUN 3D
#Configuration: FENGYUN 3D
#almurnet v.1.7.20251203
#Start time: 2026-01-04 00:42:18

#Version: 2.0.20230620
#Station: T1
#Location: 37.570604 lon 55.790049 lat
#TLE: 1 43010U 17072A   26003.51579816  .00000092  00000+0  65324-4 0  9992
#TLE: 2 43010  98.9912 335.1548 0001916 128.4619 231.6729 14.19692074421623

#Time	Az	El	Level	Level2	SNR	BER	BlckErr	Temp	State	Recorded	gain1	gain2
2026-01-04 00:42:18.71	25.10	5.14	-53.5	-66.3	3.8	8.46e-01	0	41	0	0	78	15786
2026-01-04 00:42:19.71	25.17	5.20	-53.2	-66.0	3.8	8.47e-01	0	41	104	0	77	16159
2026-01-04 00:42:20.72	25.23	5.27	-53.2	-66.0	3.8	8.48e-01	0	41	104	0	77	16133
2026-01-04 00:42:21.72	25.29	5.33	-53.3	-66.0	3.8	8.47e-01	0	41	104	0	77	16238
2026-01-04 00:42:22.72	25.35	5.40	-53.2	-66.0	3.8	8.47e-01	0	41	104	0	77	16139
2026-01-04 00:42:23.73	25.42	5.47	-53.2	-66.0	3.8	8.47e-01	0	41	104	0	77	16128
2026-01-04 00:42:24.73	25.48	5.53	-53.2	-66.0	3.8	8.47e-01	0	41	104	0	77	16215
2026-01-04 00:42:25.73	25.54	5.60	-53.2	-66.0	3.8	8.48e-01	0	41	104	0	77	16136
2026-01-04 00:42:26.74	25.61	5.66	-53.2	-66.0	3.8	8.46e-01	0	41	104	0	77	16132
2026-01-04 00:42:27.74	25.67	5.73	-53.1	-65.9	3.8	8.47e-01	0	41	104	0	77	15963
2026-01-04 00:42:28.74	25.74	5.80	-53.2	-65.9	3.8	8.48e-01	0	41	104	0	77	16084
2026-01-04 00:42:29.75	25.80	5.87	-53.2	-65.9	3.8	8.47e-01	0	41	104	0	77	15976
2026-01-04 00:42:30.75	25.87	5.93	-53.1	-65.8	3.8	8.46e-01	0	41	104	0	77	15838
2026-01-04 00:42:31.75	25.93	6.00	-53.1	-65.8	3.8	8.47e-01	0	41	104	0	77	15916
2026-01-04 00:42:32.76	26.00	6.07	-53.1	-65.8	3.8	8.46e-01	0	41	104	0	77	15943
2026-01-04 00:42:33.76	26.07	6.13	-53.2	-65.9	3.8	8.47e-01	0	42	104	0	77	16101
2026-01-04 00:42:34.76	26.13	6.20	-53.2	-66.0	3.8	8.47e-01	0	41	104	0	77	16181
2026-01-04 00:42:35.77	26.20	6.27	-53.2	-66.0	3.8	8.47e-01	0	41	104	0	77	16251
2026-01-04 00:42:36.77	26.26	6.34	-53.2	-66.1	3.8	8.46e-01	0	41	104	0	77	16325
2026-01-04 00:42:37.78	26.33	6.41	-53.2	-66.0	3.8	8.47e-01	0	41	104	0	77	16302
2026-01-04 00:42:38.78	26.40	6.47	-53.2	-66.0	3.8	8.47e-01	0	41	104	0	77	16267
2026-01-04 00:42:39.78	26.47	6.54	-53.2	-66.0	3.8	8.45e-01	0	41	104	0	77	16248
2026-01-04 00:42:40.79	26.54	6.61	-53.2	-66.0	3.8	8.46e-01	0	42	104	0	77	16222
2026-01-04 00:42:41.79	26.60	6.68	-53.2	-66.0	3.8	8.46e-01	0	42	104	0	77	16262
2026-01-04 00:42:42.79	26.67	6.75	-53.3	-66.1	3.8	8.47e-01	0	41	104	0	77	16374
2026-01-04 00:42:43.79	26.74	6.82	-53.2	-66.1	3.8	8.48e-01	0	42	104	0	77	16373
2026-01-04 00:42:44.80	26.81	6.89	-53.2	-66.0	3.8	8.46e-01	0	42	104	0	77	16235
2026-01-04 00:42:45.80	26.88	6.96	-53.3	-66.0	3.8	8.47e-01	0	42	104	0	77	16157
2026-01-04 00:42:46.81	26.95	7.03	-53.2	-65.8	3.8	8.47e-01	0	42	104	0	77	15880
2026-01-04 00:42:47.81	27.02	7.10	-53.2	-65.7	3.8	8.48e-01	0	42	104	0	77	15592
2026-01-04 00:42:48.82	27.09	7.17	-53.1	-65.6	3.8	8.46e-01	0	42	104	0	77	15411
2026-01-04 00:42:49.82	27.16	7.24	-53.0	-65.5	3.8	8.45e-01	0	42	104	0	77	15276
2026-01-04 00:42:50.82	27.23	7.31	-53.0	-65.6	3.8	8.46e-01	0	42	104	0	77	15484
2026-01-04 00:42:51.82	27.30	7.38	-53.0	-65.7	3.8	8.48e-01	0	42	104	0	77	15676
2026-01-04 00:42:52.83	27.38	7.45	-53.0	-65.7	3.8	8.47e-01	0	42	104	0	77	15663
2026-01-04 00:42:53.83	27.45	7.52	-53.0	-65.7	3.8	8.46e-01	0	42	104	0	77	15663
2026-01-04 00:42:54.84	27.52	7.59	-53.0	-65.6	3.8	8.47e-01	0	42	104	0	77	15532
2026-01-04 00:42:55.84	27.59	7.66	-53.0	-65.4	3.8	8.47e-01	0	42	104	0	77	15155
2026-01-04 00:42:56.84	27.67	7.73	-53.0	-65.4	3.8	8.47e-01	0	42	104	0	77	15065
2026-01-04 00:42:57.85	27.74	7.80	-53.0	-65.2	3.8	8.47e-01	0	42	104	0	77	14774
2026-01-04 00:42:58.84	27.81	7.87	-53.0	-65.3	3.8	8.47e-01	0	42	104	0	77	14880
2026-01-04 00:42:59.85	27.89	7.94	-53.0	-65.3	3.8	8.46e-01	0	42	104	0	77	15035
2026-01-04 00:43:00.85	27.96	8.01	-53.0	-65.6	3.8	8.46e-01	0	42	104	0	77	15414
2026-01-04 00:43:01.85	28.04	8.09	-52.9	-65.6	3.8	8.47e-01	0	42	104	0	77	15528
2026-01-04 00:43:02.86	28.11	8.16	-53.0	-65.7	3.8	8.47e-01	0	42	104	0	77	15732
2026-01-04 00:43:03.86	28.19	8.23	-53.0	-65.7	3.8	8.47e-01	0	42	104	0	77	15636
2026-01-04 00:43:04.86	28.26	8.30	-52.9	-65.3	3.8	8.47e-01	0	42	104	0	77	15024
2026-01-04 00:43:05.87	28.34	8.38	-53.2	-65.2	3.8	8.47e-01	0	42	104	0	77	14798
2026-01-04 00:43:06.87	28.42	8.45	-53.2	-64.9	3.8	8.46e-01	0	42	104	0	77	14246
2026-01-04 00:43:07.87	28.49	8.52	-53.0	-64.5	3.8	8.47e-01	0	42	104	0	77	13593
2026-01-04 00:43:08.88	28.57	8.60	-53.0	-64.2	3.9	8.47e-01	0	42	104	0	77	13135
2026-01-04 00:43:09.88	28.65	8.67	-53.0	-63.9	3.8	8.46e-01	0	42	104	0	77	12718
2026-01-04 00:43:10.88	28.73	8.74	-52.9	-63.1	4.0	8.44e-01	0	42	0	0	77	11591
2026-01-04 00:43:11.88	28.81	8.81	-52.6	-61.7	4.4	8.36e-01	0	42	0	0	77	9849
2026-01-04 00:43:12.89	28.89	8.89	-52.3	-60.0	5.2	7.71e-01	0	42	0	0	76	8624
2026-01-04 00:43:13.89	28.96	8.96	-51.7	-58.1	6.5	3.55e-01	0	42	0	3145728	75	7308
2026-01-04 00:43:14.89	29.04	9.04	-51.1	-56.4	8.1	8.35e-02	0	43	0	8388608	74	6374
2026-01-04 00:43:15.90	29.12	9.11	-51.2	-56.7	7.8	8.24e-02	0	42	0	14680064	74	6582
2026-01-04 00:43:16.90	29.20	9.19	-52.9	-63.2	4.0	5.44e-01	0	42	0	17825792	76	12470
2026-01-04 00:43:17.90	29.28	9.26	-48.4	-51.7	12.8	1.73e-02	0	42	0	19922944	69	4947
2026-01-04 00:43:18.95	29.37	9.34	-52.1	-58.1	6.6	1.21e-02	0	43	0	25165824	74	7780
2026-01-04 00:43:19.83	29.44	9.40	-45.8	-48.2	16.5	0.00e+00	0	43	0	30408704	63	4678
2026-01-04 00:43:20.97	29.53	9.49	-45.3	-47.5	17.2	0.00e+00	0	42	0	36700160	62	4589
2026-01-04 00:43:21.83	29.60	9.55	-44.9	-47.0	17.6	0.00e+00	0	43	0	41943040	61	4585
2026-01-04 00:43:22.98	29.70	9.64	-44.7	-46.8	18.0	0.00e+00	0	43	0	48234496	61	4459
2026-01-04 00:43:23.84	29.77	9.71	-44.5	-46.6	18.0	0.00e+00	0	43	0	53477376	60	4600
2026-01-04 00:43:24.98	29.87	9.79	-44.2	-46.3	18.3	0.00e+00	0	43	0	59768832	60	4456
2026-01-04 00:43:25.84	29.94	9.86	-44.4	-46.4	18.3	0.00e+00	0	42	0	63963136	60	4531
2026-01-04 00:43:26.99	30.03	9.94	-44.2	-46.2	18.4	0.00e+00	0	43	0	71303168	60	4407
2026-01-04 00:43:27.85	30.11	10.01	-44.1	-46.0	18.6	0.00e+00	0	43	0	75497472	60	4333
2026-01-04 00:43:28.99	30.20	10.10	-44.0	-45.9	18.5	0.00e+00	0	43	0	81788928	59	4537
2026-01-04 00:43:29.84	30.28	10.16	-43.7	-45.6	18.9	0.00e+00	0	43	0	87031808	58	4620
2026-01-04 00:43:30.99	30.38	10.25	-43.7	-45.6	18.9	0.00e+00	0	43	0	93323264	58	4616
2026-01-04 00:43:31.85	30.45	10.32	-43.6	-45.4	19.2	0.00e+00	0	43	0	98566144	58	4545
2026-01-04 00:43:33.11	30.56	10.41	-43.4	-45.3	19.0	0.00e+00	0	43	0	104857600	58	4467
2026-01-04 00:43:33.85	30.62	10.47	-43.4	-45.3	19.2	0.00e+00	0	43	0	109051904	58	4454
2026-01-04 00:43:35.14	30.74	10.57	-43.4	-45.3	19.1	0.00e+00	0	43	0	116391936	58	4462
2026-01-04 00:43:36.29	30.84	10.66	-43.5	-45.3	19.2	0.00e+00	0	43	0	123731968	58	4493
2026-01-04 00:43:37.15	30.91	10.73	-43.5	-45.5	19.0	0.00e+00	0	43	0	127926272	58	4549
2026-01-04 00:43:38.30	31.02	10.82	-43.5	-45.4	19.1	0.00e+00	0	43	0	134217728	58	4515
2026-01-04 00:43:39.15	31.09	10.88	-43.4	-45.2	19.3	0.00e+00	0	43	0	139460608	58	4438
2026-01-04 00:43:40.35	31.20	10.98	-43.4	-45.4	19.2	0.00e+00	0	43	0	145752064	58	4496
2026-01-04 00:43:41.21	31.28	11.05	-43.3	-45.3	19.1	0.00e+00	0	43	0	150994944	58	4446
2026-01-04 00:43:42.36	31.38	11.14	-43.4	-45.2	19.3	0.00e+00	0	43	0	157286400	58	4440
2026-01-04 00:43:43.21	31.46	11.20	-43.4	-45.3	19.3	5.70e-06	0	43	0	162529280	58	4460
2026-01-04 00:43:44.49	31.58	11.31	-43.2	-45.0	19.4	0.00e+00	0	43	0	169869312	58	4326
2026-01-04 00:43:45.20	31.64	11.36	-43.3	-45.1	19.4	0.00e+00	0	43	0	173015040	58	4381
2026-01-04 00:43:46.49	31.76	11.47	-43.3	-45.2	19.4	0.00e+00	0	43	0	180355072	58	4398
2026-01-04 00:43:47.21	31.83	11.52	-43.1	-45.0	19.5	0.00e+00	0	43	0	184549376	58	4304
2026-01-04 00:43:48.77	31.98	11.65	-43.2	-45.1	19.4	0.00e+00	0	43	0	193986560	58	4365
2026-01-04 00:43:49.48	32.04	11.71	-43.3	-45.2	19.5	0.00e+00	0	43	0	197132288	58	4403
2026-01-04 00:43:50.77	32.17	11.81	-43.3	-45.2	19.5	0.00e+00	0	43	0	204472320	58	4394
2026-01-04 00:43:51.49	32.23	11.87	-43.2	-45.1	19.6	0.00e+00	0	43	0	208666624	58	4370
2026-01-04 00:43:52.78	32.36	11.97	-43.2	-45.1	19.5	0.00e+00	0	43	0	216006656	58	4357
2026-01-04 00:43:53.49	32.43	12.03	-43.5	-45.4	19.5	0.00e+00	0	43	0	220200960	58	4516
2026-01-04 00:43:54.78	32.55	12.13	-43.4	-45.2	19.6	0.00e+00	0	43	0	227540992	58	4439
2026-01-04 00:43:55.50	32.62	12.19	-43.3	-45.1	19.6	0.00e+00	0	43	0	231735296	58	4374
2026-01-04 00:43:56.78	32.75	12.30	-43.1	-45.0	19.8	0.00e+00	0	43	0	239075328	58	4300
2026-01-04 00:43:57.50	32.82	12.36	-43.1	-45.0	19.8	0.00e+00	0	43	0	242221056	58	4300
2026-01-04 00:43:58.79	32.94	12.46	-43.2	-45.0	19.7	0.00e+00	0	43	0	249561088	58	4321
2026-01-04 00:43:59.50	33.02	12.52	-43.2	-45.0	19.7	0.00e+00	0	43	0	253755392	58	4340
2026-01-04 00:44:00.79	33.14	12.63	-43.1	-44.9	19.8	0.00e+00	0	43	0	261095424	57	4514
2026-01-04 00:44:01.51	33.22	12.69	-43.1	-45.0	19.7	0.00e+00	0	43	0	265289728	57	4555
2026-01-04 00:44:02.80	33.35	12.79	-42.8	-44.7	19.8	0.00e+00	0	43	0	272629760	57	4416
2026-01-04 00:44:03.51	33.42	12.85	-42.9	-44.8	19.9	0.00e+00	0	43	0	275775488	57	4446
2026-01-04 00:44:04.80	33.55	12.96	-42.9	-44.8	19.9	0.00e+00	0	43	0	283115520	57	4478
2026-01-04 00:44:05.52	33.63	13.02	-42.9	-44.8	19.8	0.00e+00	0	43	0	287309824	57	4458
2026-01-04 00:44:06.81	33.76	13.13	-42.8	-44.6	20.0	0.00e+00	0	43	0	294649856	57	4374
2026-01-04 00:44:07.52	33.83	13.19	-42.9	-44.7	19.9	0.00e+00	0	43	0	298844160	57	4435
2026-01-04 00:44:08.81	33.97	13.30	-42.8	-44.6	20.0	0.00e+00	0	43	0	306184192	57	4363
2026-01-04 00:44:09.53	34.04	13.36	-42.7	-44.5	20.1	0.00e+00	0	43	0	310378496	57	4322
2026-01-04 00:44:10.81	34.18	13.47	-42.8	-44.6	20.1	0.00e+00	0	43	0	317718528	57	4346
2026-01-04 00:44:11.53	34.25	13.53	-42.6	-44.4	20.0	1.10e-06	0	43	0	321912832	57	4260
2026-01-04 00:44:12.82	34.39	13.64	-42.6	-44.4	20.1	0.00e+00	0	43	0	329252864	57	4288
2026-01-04 00:44:13.54	34.47	13.70	-42.7	-44.5	20.0	0.00e+00	0	43	0	332398592	57	4328
2026-01-04 00:44:14.82	34.61	13.81	-42.7	-44.5	20.0	0.00e+00	0	43	0	339738624	57	4327
2026-01-04 00:44:15.54	34.69	13.87	-42.7	-44.6	20.0	0.00e+00	0	43	0	343932928	57	4348
2026-01-04 00:44:16.83	34.83	13.98	-42.9	-44.7	19.9	0.00e+00	0	43	0	351272960	57	4436
2026-01-04 00:44:17.55	34.91	14.04	-42.8	-44.6	19.9	0.00e+00	0	43	0	355467264	57	4388
2026-01-04 00:44:18.84	35.05	14.16	-42.6	-44.4	20.1	0.00e+00	0	43	0	362807296	57	4285
2026-01-04 00:44:19.57	35.13	14.22	-42.6	-44.4	20.3	0.00e+00	0	43	0	367001600	57	4260
2026-01-04 00:44:20.86	35.27	14.33	-42.8	-44.6	20.2	0.00e+00	0	43	0	374341632	57	4375
2026-01-04 00:44:21.58	35.35	14.39	-42.8	-44.6	20.1	0.00e+00	0	43	0	378535936	57	4381
2026-01-04 00:44:22.86	35.50	14.51	-42.5	-44.4	20.4	0.00e+00	0	43	0	385875968	57	4247
2026-01-04 00:44:23.58	35.58	14.57	-42.5	-44.3	20.4	0.00e+00	0	43	0	389021696	56	4453
2026-01-04 00:44:24.87	35.73	14.68	-42.5	-44.3	20.4	0.00e+00	0	43	0	396361728	56	4461
2026-01-04 00:44:25.58	35.81	14.74	-42.4	-44.2	20.4	0.00e+00	0	43	0	400556032	56	4429
2026-01-04 00:44:26.87	35.96	14.86	-42.4	-44.2	20.4	0.00e+00	0	43	0	407896064	56	4407
2026-01-04 00:44:27.59	36.04	14.92	-42.5	-44.3	20.4	0.00e+00	0	43	0	412090368	56	4478
2026-01-04 00:44:28.88	36.19	15.04	-42.4	-44.2	20.4	0.00e+00	0	43	0	419430400	56	4425
2026-01-04 00:44:29.59	36.28	15.10	-42.4	-44.1	20.6	0.00e+00	0	43	0	422576128	56	4382
2026-01-04 00:44:30.88	36.43	15.21	-42.3	-44.0	20.6	0.00e+00	0	43	0	429916160	56	4335
2026-01-04 00:44:31.60	36.51	15.28	-42.2	-43.9	20.7	0.00e+00	0	43	0	434110464	56	4290
2026-01-04 00:44:32.89	36.67	15.39	-42.5	-44.2	20.5	0.00e+00	0	43	0	441450496	56	4430
2026-01-04 00:44:33.61	36.76	15.46	-42.3	-44.1	20.6	0.00e+00	0	43	0	445644800	56	4374
2026-01-04 00:44:34.89	36.91	15.57	-42.2	-43.9	20.7	0.00e+00	0	43	0	452984832	56	4283
2026-01-04 00:44:35.61	37.00	15.64	-42.1	-43.9	20.7	0.00e+00	0	43	0	457179136	56	4252
2026-01-04 00:44:36.90	37.16	15.75	-42.2	-44.0	20.6	0.00e+00	0	43	0	464519168	56	4305
2026-01-04 00:44:37.61	37.24	15.82	-42.1	-43.8	20.7	0.00e+00	0	43	0	468713472	56	4231
2026-01-04 00:44:39.27	37.45	15.97	-42.1	-43.9	20.7	0.00e+00	0	43	0	478150656	56	4271
2026-01-04 00:44:39.85	37.52	16.02	-42.1	-43.9	20.7	0.00e+00	0	43	0	480247808	56	4262
2026-01-04 00:44:41.44	37.72	16.17	-42.0	-43.8	20.8	0.00e+00	0	43	0	489684992	56	4205
2026-01-04 00:44:42.01	37.79	16.22	-41.8	-43.6	20.8	0.00e+00	0	43	0	492830720	55	4363
2026-01-04 00:44:43.59	37.99	16.37	-42.0	-43.7	20.8	0.00e+00	0	43	0	502267904	55	4424
2026-01-04 00:44:44.19	38.07	16.42	-42.0	-43.7	20.8	0.00e+00	0	43	0	505413632	55	4420
2026-01-04 00:44:45.85	38.28	16.57	-42.0	-43.7	20.7	0.00e+00	0	43	0	514850816	55	4441
2026-01-04 00:44:46.41	38.36	16.63	-41.9	-43.6	20.8	0.00e+00	0	43	0	517996544	55	4376
2026-01-04 00:44:48.13	38.58	16.78	-41.9	-43.6	20.8	0.00e+00	0	43	0	527433728	55	4378
2026-01-04 00:44:48.70	38.66	16.84	-41.9	-43.6	20.8	0.00e+00	0	43	0	530579456	55	4385
2026-01-04 00:44:50.33	38.87	16.99	-42.0	-43.7	20.7	0.00e+00	0	43	0	540016640	55	4430
2026-01-04 00:44:50.90	38.95	17.04	-42.0	-43.7	20.8	0.00e+00	0	43	0	543162368	55	4431
2026-01-04 00:44:52.57	39.17	17.20	-42.0	-43.7	20.8	0.00e+00	0	43	0	552599552	55	4438
2026-01-04 00:44:53.14	39.25	17.25	-41.9	-43.7	20.8	0.00e+00	0	43	0	555745280	55	4399
2026-01-04 00:44:54.72	39.46	17.40	-41.9	-43.7	20.9	0.00e+00	0	43	0	564133888	55	4393
2026-01-04 00:44:55.32	39.55	17.46	-41.9	-43.7	20.9	0.00e+00	0	43	0	568328192	55	4396
2026-01-04 00:44:56.90	39.76	17.61	-41.9	-43.7	20.9	0.00e+00	0	43	0	576716800	55	4394
2026-01-04 00:44:57.49	39.85	17.66	-42.1	-43.9	20.9	0.00e+00	0	43	0	579862528	55	4515
2026-01-04 00:44:59.06	40.07	17.81	-41.9	-43.6	21.1	0.00e+00	0	43	0	588251136	55	4388
2026-01-04 00:44:59.92	40.19	17.90	-41.9	-43.6	21.1	0.00e+00	0	43	0	593494016	55	4361
2026-01-04 00:45:01.06	40.35	18.00	-41.7	-43.5	21.2	0.00e+00	0	43	0	599785472	55	4297
2026-01-04 00:45:02.21	40.51	18.11	-41.5	-43.2	21.4	0.00e+00	0	43	0	606076928	55	4178
2026-01-04 00:45:03.24	40.66	18.21	-41.5	-43.3	21.5	0.00e+00	0	43	0	612368384	55	4194
2026-01-04 00:45:04.24	40.80	18.31	-41.4	-43.1	21.6	0.00e+00	0	43	0	617611264	54	4362
2026-01-04 00:45:05.24	40.95	18.41	-41.4	-43.2	21.5	0.00e+00	0	43	0	623902720	54	4394
2026-01-04 00:45:06.24	41.09	18.50	-41.4	-43.1	21.5	0.00e+00	0	43	0	629145600	54	4370
2026-01-04 00:45:07.25	41.24	18.60	-41.4	-43.1	21.6	0.00e+00	0	43	0	634388480	54	4357
2026-01-04 00:45:08.24	41.39	18.70	-41.5	-43.1	21.5	0.00e+00	0	43	0	640679936	54	4391
2026-01-04 00:45:09.25	41.54	18.80	-41.4	-43.1	21.5	0.00e+00	0	43	0	645922816	54	4378
2026-01-04 00:45:10.25	41.69	18.89	-41.5	-43.2	21.5	0.00e+00	0	43	0	652214272	54	4402
2026-01-04 00:45:11.25	41.84	18.99	-41.6	-43.3	21.4	0.00e+00	0	43	0	657457152	54	4459
2026-01-04 00:45:12.25	41.99	19.09	-41.5	-43.2	21.5	0.00e+00	0	43	0	662700032	54	4395
2026-01-04 00:45:13.26	42.15	19.19	-41.3	-43.0	21.7	0.00e+00	0	43	0	668991488	54	4326
2026-01-04 00:45:14.26	42.30	19.29	-41.4	-43.1	21.6	0.00e+00	0	43	0	674234368	54	4352
2026-01-04 00:45:15.27	42.46	19.39	-41.3	-43.0	21.6	0.00e+00	0	43	0	680525824	54	4340
2026-01-04 00:45:16.27	42.61	19.48	-41.3	-43.0	21.7	0.00e+00	0	43	0	685768704	54	4315
2026-01-04 00:45:17.27	42.77	19.58	-41.4	-43.1	21.6	0.00e+00	0	43	0	691011584	54	4369
2026-01-04 00:45:18.36	42.94	19.69	-41.4	-43.1	21.5	0.00e+00	0	43	0	697303040	54	4383
2026-01-04 00:45:19.22	43.08	19.78	-41.5	-43.2	21.5	0.00e+00	0	43	0	702545920	54	4430
2026-01-04 00:45:20.59	43.30	19.91	-41.5	-43.3	21.5	0.00e+00	0	43	0	709885952	54	4444
2026-01-04 00:45:21.31	43.41	19.98	-41.5	-43.2	21.6	0.00e+00	0	43	0	714080256	54	4394
2026-01-04 00:45:22.59	43.62	20.11	-41.4	-43.1	21.6	0.00e+00	0	43	0	721420288	54	4376
2026-01-04 00:45:23.31	43.73	20.18	-41.4	-43.1	21.6	0.00e+00	0	43	0	725614592	54	4381
2026-01-04 00:45:24.60	43.95	20.31	-41.4	-43.1	21.6	0.00e+00	0	43	0	732954624	54	4357
2026-01-04 00:45:25.32	44.06	20.39	-41.4	-43.1	21.6	0.00e+00	0	43	0	737148928	54	4387
2026-01-04 00:45:26.60	44.28	20.51	-41.3	-43.0	21.6	0.00e+00	0	43	0	743440384	54	4322
2026-01-04 00:45:27.31	44.40	20.59	-41.3	-43.0	21.6	0.00e+00	0	43	0	747634688	54	4312
2026-01-04 00:45:28.60	44.61	20.72	-41.3	-43.0	21.6	0.00e+00	0	43	0	754974720	54	4305
2026-01-04 00:45:29.50	44.76	20.81	-41.2	-42.9	21.8	0.00e+00	0	43	0	760217600	54	4244
2026-01-04 00:45:30.64	44.96	20.92	-41.2	-42.9	21.8	0.00e+00	0	43	0	766509056	54	4247
2026-01-04 00:45:31.73	45.15	21.03	-41.2	-42.9	21.7	0.00e+00	0	43	0	772800512	54	4264
2026-01-04 00:45:32.60	45.30	21.12	-41.4	-43.1	21.6	0.00e+00	0	43	0	776994816	54	4367
2026-01-04 00:45:33.74	45.49	21.24	-41.3	-43.0	21.6	0.00e+00	0	43	0	784334848	54	4330
2026-01-04 00:45:34.60	45.64	21.32	-41.2	-42.9	21.7	0.00e+00	0	43	0	788529152	54	4259
2026-01-04 00:45:35.75	45.85	21.44	-41.1	-42.8	21.8	0.00e+00	0	43	0	794820608	54	4203
2026-01-04 00:45:36.61	46.00	21.53	-41.0	-42.7	22.0	0.00e+00	0	43	0	800063488	54	4155
2026-01-04 00:45:37.75	46.20	21.65	-41.1	-42.7	21.9	0.00e+00	0	43	0	806354944	54	4190
2026-01-04 00:45:38.61	46.36	21.73	-40.9	-42.6	22.0	0.00e+00	0	43	0	811597824	53	4354
2026-01-04 00:45:39.76	46.56	21.85	-40.8	-42.5	22.1	0.00e+00	0	43	0	817889280	53	4320
2026-01-04 00:45:40.62	46.72	21.94	-40.8	-42.5	22.1	0.00e+00	0	43	0	823132160	53	4338
2026-01-04 00:45:41.77	46.93	22.06	-40.8	-42.5	22.2	0.00e+00	0	43	0	829423616	53	4301
2026-01-04 00:45:42.62	47.09	22.15	-40.7	-42.3	22.2	0.00e+00	0	43	0	833617920	53	4235
2026-01-04 00:45:43.77	47.30	22.26	-40.7	-42.4	22.2	0.00e+00	0	43	0	840957952	53	4276
2026-01-04 00:45:44.63	47.46	22.35	-40.7	-42.4	22.2	0.00e+00	0	43	0	845152256	53	4256
2026-01-04 00:45:45.78	47.68	22.47	-41.0	-42.7	22.1	0.00e+00	0	43	0	851443712	53	4422
2026-01-04 00:45:46.64	47.84	22.56	-41.1	-42.8	22.0	0.00e+00	0	43	0	856686592	53	4473
2026-01-04 00:45:47.79	48.06	22.68	-41.2	-42.9	22.0	0.00e+00	0	43	0	862978048	53	4526
2026-01-04 00:45:48.65	48.22	22.77	-41.0	-42.7	22.1	0.00e+00	0	43	0	868220928	53	4397
2026-01-04 00:45:49.79	48.44	22.89	-40.9	-42.6	22.2	0.00e+00	0	43	0	874512384	53	4364
2026-01-04 00:45:50.65	48.61	22.98	-41.0	-42.7	22.1	0.00e+00	0	43	0	878706688	53	4398
2026-01-04 00:45:51.80	48.83	23.10	-40.9	-42.5	22.1	0.00e+00	0	43	0	884998144	53	4330
2026-01-04 00:45:52.65	49.00	23.19	-40.8	-42.5	22.2	0.00e+00	0	43	0	890241024	53	4298
2026-01-04 00:45:53.80	49.23	23.30	-40.8	-42.5	22.2	0.00e+00	0	43	0	896532480	53	4294
2026-01-04 00:45:54.66	49.40	23.39	-40.9	-42.5	22.1	0.00e+00	0	43	0	901775360	53	4340
2026-01-04 00:45:55.95	49.66	23.53	-40.8	-42.4	22.3	0.00e+00	0	43	0	909115392	53	4286
2026-01-04 00:45:56.66	49.80	23.60	-40.7	-42.4	22.3	0.00e+00	0	43	0	912261120	53	4267
2026-01-04 00:45:57.95	50.06	23.74	-40.7	-42.4	22.3	0.00e+00	0	43	0	919601152	53	4252
2026-01-04 00:45:58.67	50.21	23.81	-40.8	-42.4	22.2	0.00e+00	0	43	0	923795456	53	4288
2026-01-04 00:46:00.26	50.54	23.98	-40.6	-42.2	22.4	0.00e+00	0	43	0	933232640	53	4171
2026-01-04 00:46:00.83	50.66	24.04	-40.6	-42.2	22.4	0.00e+00	0	43	0	936378368	53	4172
2026-01-04 00:46:02.45	51.00	24.21	-40.4	-42.1	22.5	0.00e+00	0	43	0	945815552	52	4357
2026-01-04 00:46:03.03	51.12	24.27	-40.5	-42.2	22.5	0.00e+00	0	43	0	948961280	52	4400
2026-01-04 00:46:04.60	51.45	24.43	-40.5	-42.1	22.4	0.00e+00	0	43	0	957349888	52	4389
2026-01-04 00:46:05.36	51.61	24.51	-40.3	-42.0	22.6	0.00e+00	0	43	0	961544192	52	4298
2026-01-04 00:46:06.65	51.89	24.65	-40.4	-42.0	22.6	0.00e+00	0	43	0	968884224	52	4334
2026-01-04 00:46:07.37	52.05	24.72	-40.4	-42.1	22.5	0.00e+00	0	43	0	973078528	52	4369
2026-01-04 00:46:08.66	52.33	24.86	-40.5	-42.1	22.5	0.00e+00	0	43	0	980418560	52	4379
2026-01-04 00:46:09.37	52.48	24.93	-40.4	-42.0	22.6	0.00e+00	0	44	0	984612864	52	4334
2026-01-04 00:46:10.74	52.79	25.08	-40.3	-41.9	22.7	0.00e+00	0	43	0	991952896	52	4286
2026-01-04 00:46:11.46	52.95	25.15	-40.3	-42.0	22.6	0.00e+00	0	43	0	996147200	52	4297
2026-01-04 00:46:12.75	53.24	25.29	-40.2	-41.9	22.2	0.00e+00	0	43	0	1003487232	52	4285
2026-01-04 00:46:13.47	53.40	25.36	-40.2	-41.9	22.2	0.00e+00	0	43	0	1007681536	52	4286
2026-01-04 00:46:14.75	53.69	25.50	-40.2	-41.9	22.2	0.00e+00	0	43	0	1015021568	52	4270
2026-01-04 00:46:15.47	53.85	25.57	-40.1	-41.8	22.3	0.00e+00	0	43	0	1019215872	52	4235
2026-01-04 00:46:16.76	54.15	25.71	-40.3	-42.1	22.1	0.00e+00	0	43	0	1025507328	52	4353
2026-01-04 00:46:17.47	54.31	25.78	-40.2	-42.0	22.2	0.00e+00	0	43	0	1029701632	52	4305
2026-01-04 00:46:18.76	54.61	25.91	-40.2	-42.0	22.3	0.00e+00	0	43	0	1037041664	52	4309
2026-01-04 00:46:19.48	54.78	25.99	-40.1	-41.9	22.4	0.00e+00	0	43	0	1041235968	52	4249
2026-01-04 00:46:20.77	55.09	26.12	-40.0	-41.7	22.5	0.00e+00	0	43	0	1048576000	52	4188
2026-01-04 00:46:21.57	55.28	26.21	-40.0	-41.7	22.5	0.00e+00	0	43	0	1052770304	51	4403
2026-01-04 00:46:22.71	55.55	26.32	-40.1	-41.8	22.4	0.00e+00	0	43	0	1059061760	51	4466
2026-01-04 00:46:23.75	55.80	26.43	-40.2	-41.9	22.3	0.00e+00	0	43	0	1065353216	51	4522
2026-01-04 00:46:24.94	56.09	26.56	-40.4	-42.1	22.2	0.00e+00	0	43	0	1071644672	51	4641
2026-01-04 00:46:25.83	56.30	26.65	-40.5	-42.2	22.1	0.00e+00	0	43	0	1076887552	51	4676
2026-01-04 00:46:26.97	56.58	26.77	-40.4	-42.1	22.2	0.00e+00	0	43	0	1083179008	51	4634
2026-01-04 00:46:27.83	56.79	26.85	-40.3	-42.0	22.2	0.00e+00	0	43	0	1088421888	51	4593
2026-01-04 00:46:28.98	57.08	26.97	-40.1	-41.9	22.4	0.00e+00	0	43	0	1094713344	51	4496
2026-01-04 00:46:29.84	57.30	27.06	-39.9	-41.6	22.6	0.00e+00	0	43	0	1099956224	51	4365
2026-01-04 00:46:30.98	57.58	27.18	-39.8	-41.5	22.7	0.00e+00	0	43	0	1106247680	51	4299
2026-01-04 00:46:31.84	57.80	27.27	-39.7	-41.5	22.7	0.00e+00	0	43	0	1110441984	51	4292
2026-01-04 00:46:32.99	58.09	27.38	-39.7	-41.4	22.7	0.00e+00	0	43	0	1116733440	51	4281
2026-01-04 00:46:33.85	58.31	27.47	-39.8	-41.5	22.7	0.00e+00	0	43	0	1121976320	51	4294
2026-01-04 00:46:34.99	58.61	27.59	-39.8	-41.5	22.6	0.00e+00	0	43	0	1128267776	51	4323
2026-01-04 00:46:35.85	58.83	27.68	-39.8	-41.5	22.6	0.00e+00	0	43	0	1133510656	51	4330
2026-01-04 00:46:36.99	59.13	27.79	-39.9	-41.6	22.6	0.00e+00	0	43	0	1139802112	51	4378
2026-01-04 00:46:37.85	59.36	27.88	-39.9	-41.6	22.6	0.00e+00	0	43	0	1143996416	51	4366
2026-01-04 00:46:38.98	59.66	27.99	-39.7	-41.4	22.7	0.00e+00	0	44	0	1151336448	51	4277
2026-01-04 00:46:39.84	59.89	28.08	-39.8	-41.6	22.7	0.00e+00	0	43	0	1155530752	51	4345
2026-01-04 00:46:40.99	60.19	28.19	-40.1	-41.8	22.6	0.00e+00	0	43	0	1161822208	51	4472
2026-01-04 00:46:41.85	60.43	28.28	-40.1	-41.9	22.6	0.00e+00	0	43	0	1167065088	51	4497
2026-01-04 00:46:42.99	60.73	28.39	-40.0	-41.7	22.7	0.00e+00	0	43	0	1173356544	51	4398
2026-01-04 00:46:43.85	60.97	28.48	-39.9	-41.6	22.7	0.00e+00	0	43	0	1178599424	51	4391
2026-01-04 00:46:45.00	61.29	28.59	-39.9	-41.6	22.6	0.00e+00	0	43	0	1184890880	51	4348
2026-01-04 00:46:45.86	61.52	28.68	-39.7	-41.4	22.8	0.00e+00	0	43	0	1190133760	51	4278
2026-01-04 00:46:47.00	61.84	28.79	-39.6	-41.3	22.9	0.00e+00	0	43	0	1196425216	51	4222
2026-01-04 00:46:47.86	62.08	28.87	-39.6	-41.3	22.9	0.00e+00	0	43	0	1200619520	51	4227
2026-01-04 00:46:49.12	62.44	29.00	-39.8	-41.5	22.7	0.00e+00	0	43	0	1207959552	51	4303
2026-01-04 00:46:49.85	62.64	29.07	-39.9	-41.6	22.5	0.00e+00	0	43	0	1212153856	51	4381
2026-01-04 00:46:51.13	63.01	29.19	-40.1	-41.8	22.4	0.00e+00	0	43	0	1219493888	51	4483
2026-01-04 00:46:51.85	63.21	29.26	-40.1	-41.8	22.4	0.00e+00	0	43	0	1223688192	51	4467
2026-01-04 00:46:53.14	63.59	29.38	-39.9	-41.6	22.6	0.00e+00	0	43	0	1231028224	51	4370
2026-01-04 00:46:53.86	63.79	29.45	-39.7	-41.4	22.7	0.00e+00	0	43	0	1235222528	51	4253
2026-01-04 00:46:55.15	64.17	29.58	-39.8	-41.5	22.7	0.00e+00	0	43	0	1242562560	51	4338
2026-01-04 00:46:55.96	64.41	29.65	-39.9	-41.6	22.8	0.00e+00	0	43	0	1246756864	51	4353
2026-01-04 00:46:57.10	64.74	29.76	-39.8	-41.5	22.8	0.00e+00	0	43	0	1253048320	51	4299
2026-01-04 00:46:58.19	65.07	29.86	-39.9	-41.6	22.8	0.00e+00	0	43	0	1259339776	51	4366
2026-01-04 00:46:59.22	65.38	29.96	-40.0	-41.7	22.7	0.00e+00	0	43	0	1264582656	51	4404
2026-01-04 00:47:00.22	65.68	30.05	-40.0	-41.7	22.6	0.00e+00	0	43	0	1270874112	51	4401
2026-01-04 00:47:01.43	66.04	30.16	-39.9	-41.6	22.6	0.00e+00	0	44	0	1277165568	51	4361
2026-01-04 00:47:02.32	66.31	30.24	-39.9	-41.6	22.5	0.00e+00	0	43	0	1282408448	51	4373
2026-01-04 00:47:03.47	66.67	30.34	-40.0	-41.8	22.5	0.00e+00	0	43	0	1288699904	51	4445
2026-01-04 00:47:04.33	66.93	30.42	-40.0	-41.7	22.6	0.00e+00	0	43	0	1293942784	51	4396
2026-01-04 00:47:05.47	67.28	30.52	-40.1	-41.8	22.5	0.00e+00	0	43	0	1300234240	51	4493
2026-01-04 00:47:06.34	67.55	30.60	-40.0	-41.7	22.6	0.00e+00	0	43	0	1304428544	51	4403
2026-01-04 00:47:07.48	67.91	30.70	-39.8	-41.5	22.6	0.00e+00	0	43	0	1311768576	51	4340
2026-01-04 00:47:08.34	68.18	30.78	-39.9	-41.6	22.6	0.00e+00	0	43	0	1315962880	51	4364
2026-01-04 00:47:09.49	68.54	30.87	-39.8	-41.5	22.6	0.00e+00	0	43	0	1322254336	51	4306
2026-01-04 00:47:10.35	68.82	30.95	-39.7	-41.4	22.7	0.00e+00	0	43	0	1327497216	51	4257
2026-01-04 00:47:11.49	69.18	31.05	-39.5	-41.2	22.8	0.00e+00	0	43	0	1333788672	51	4176
2026-01-04 00:47:12.35	69.46	31.12	-39.6	-41.3	22.8	0.00e+00	0	43	0	1339031552	50	4472
2026-01-04 00:47:13.50	69.83	31.22	-39.6	-41.3	22.7	0.00e+00	0	43	0	1345323008	50	4462
2026-01-04 00:47:14.36	70.11	31.29	-39.6	-41.3	22.7	0.00e+00	0	43	0	1350565888	50	4488
2026-01-04 00:47:15.51	70.48	31.38	-39.8	-41.5	22.6	0.00e+00	0	43	0	1356857344	50	4564
2026-01-04 00:47:16.37	70.76	31.45	-39.6	-41.3	22.7	0.00e+00	0	43	0	1361051648	50	4472
2026-01-04 00:47:17.62	71.18	31.55	-39.4	-41.0	22.9	0.00e+00	0	43	0	1368391680	50	4334
2026-01-04 00:47:18.36	71.42	31.61	-39.3	-40.9	23.0	0.00e+00	0	43	0	1372585984	50	4290
2026-01-04 00:47:19.65	71.85	31.71	-39.4	-41.1	22.9	0.00e+00	0	43	0	1379926016	50	4381
2026-01-04 00:47:20.36	72.09	31.77	-39.6	-41.3	22.7	0.00e+00	0	43	0	1384120320	50	4472
2026-01-04 00:47:21.65	72.52	31.87	-39.8	-41.6	22.5	0.00e+00	0	43	0	1391460352	50	4609
2026-01-04 00:47:22.37	72.76	31.92	-39.9	-41.6	22.5	0.00e+00	0	43	0	1394606080	50	4627
2026-01-04 00:47:23.65	73.20	32.02	-40.2	-41.9	22.6	0.00e+00	0	43	0	1401946112	51	4509
2026-01-04 00:47:24.37	73.44	32.07	-40.1	-41.8	22.6	0.00e+00	0	43	0	1406140416	51	4478
2026-01-04 00:47:25.66	73.89	32.17	-40.1	-41.9	22.5	0.00e+00	0	43	0	1413480448	51	4494
2026-01-04 00:47:26.55	74.19	32.23	-39.6	-41.4	22.7	0.00e+00	0	43	0	1418723328	51	4248
2026-01-04 00:47:27.70	74.59	32.32	-39.8	-41.5	22.7	0.00e+00	0	43	0	1425014784	51	4336
2026-01-04 00:47:28.75	74.95	32.39	-39.6	-41.3	22.8	0.00e+00	0	44	0	1431306240	51	4204
2026-01-04 00:47:29.65	75.27	32.45	-39.7	-41.4	22.8	0.00e+00	0	43	0	1436549120	51	4250
2026-01-04 00:47:30.67	75.62	32.52	-39.8	-41.6	22.6	0.00e+00	0	43	0	1441792000	51	4344
2026-01-04 00:47:31.67	75.98	32.59	-39.7	-41.5	22.7	0.00e+00	0	43	0	1447034880	51	4303
2026-01-04 00:47:32.67	76.33	32.66	-39.6	-41.3	22.8	0.00e+00	0	43	0	1453326336	51	4226
2026-01-04 00:47:33.68	76.69	32.72	-39.5	-41.2	22.8	0.00e+00	0	43	0	1458569216	51	4188
2026-01-04 00:47:34.68	77.04	32.79	-39.5	-41.2	22.8	0.00e+00	0	43	0	1463812096	50	4437
2026-01-04 00:47:35.68	77.40	32.85	-39.7	-41.4	22.6	0.00e+00	0	44	0	1470103552	50	4531
2026-01-04 00:47:36.69	77.76	32.92	-39.7	-41.5	22.6	0.00e+00	0	43	0	1475346432	50	4549
2026-01-04 00:47:37.69	78.12	32.98	-39.8	-41.5	22.6	0.00e+00	0	43	0	1481637888	50	4580
2026-01-04 00:47:38.77	78.51	33.04	-39.5	-41.2	22.8	0.00e+00	0	43	0	1486880768	50	4417
2026-01-04 00:47:39.63	78.82	33.09	-39.4	-41.1	22.9	0.00e+00	0	43	0	1492123648	50	4356
2026-01-04 00:47:40.98	79.31	33.17	-39.4	-41.0	23.0	0.00e+00	0	44	0	1499463680	50	4333
2026-01-04 00:47:41.70	79.58	33.21	-39.3	-40.9	23.1	0.00e+00	0	43	0	1503657984	50	4287
2026-01-04 00:47:42.99	80.05	33.28	-39.5	-41.2	22.9	0.00e+00	0	44	0	1510998016	50	4427
2026-01-04 00:47:43.71	80.31	33.32	-39.6	-41.3	22.8	0.00e+00	0	43	0	1515192320	50	4471
2026-01-04 00:47:45.00	80.79	33.39	-39.6	-41.3	22.7	0.00e+00	0	43	0	1522532352	50	4480
2026-01-04 00:47:45.71	81.05	33.43	-39.6	-41.3	22.8	0.00e+00	0	43	0	1526726656	50	4462
2026-01-04 00:47:47.00	81.53	33.49	-39.4	-41.1	22.9	0.00e+00	0	44	0	1534066688	50	4382
2026-01-04 00:47:47.72	81.80	33.53	-39.4	-41.1	22.9	0.00e+00	0	43	0	1537212416	50	4355
2026-01-04 00:47:49.01	82.28	33.59	-39.4	-41.1	22.9	0.00e+00	0	44	0	1544552448	50	4347
2026-01-04 00:47:49.72	82.55	33.62	-39.7	-41.4	22.8	0.00e+00	0	43	0	1548746752	50	4527
2026-01-04 00:47:51.01	83.03	33.68	-39.6	-41.3	22.7	0.00e+00	0	43	0	1556086784	50	4491
2026-01-04 00:47:51.72	83.30	33.71	-39.7	-41.4	22.8	0.00e+00	0	43	0	1560281088	50	4507
2026-01-04 00:47:53.17	83.85	33.78	-39.6	-41.4	22.7	0.00e+00	0	44	0	1568669696	50	4500
2026-01-04 00:47:53.89	84.12	33.81	-39.2	-40.9	22.8	0.00e+00	0	43	0	1571815424	50	4268
2026-01-04 00:47:55.23	84.63	33.86	-39.1	-40.8	22.9	0.00e+00	0	43	0	1580204032	50	4221
2026-01-04 00:47:55.95	84.91	33.89	-39.2	-40.9	22.9	0.00e+00	0	43	0	1584398336	50	4255
2026-01-04 00:47:57.25	85.40	33.94	-39.5	-41.2	23.0	0.00e+00	0	44	0	1591738368	50	4403
2026-01-04 00:47:57.97	85.68	33.96	-39.5	-41.2	23.0	0.00e+00	0	44	0	1594884096	50	4425
2026-01-04 00:47:59.26	86.17	34.01	-39.5	-41.2	23.0	0.00e+00	0	43	0	1602224128	50	4438
2026-01-04 00:47:59.98	86.45	34.03	-39.6	-41.3	22.9	0.00e+00	0	44	0	1606418432	50	4465
2026-01-04 00:48:01.27	86.95	34.07	-39.7	-41.4	22.9	0.00e+00	0	43	0	1613758464	50	4530
2026-01-04 00:48:01.98	87.22	34.10	-39.6	-41.3	22.9	0.00e+00	0	44	0	1617952768	50	4478
2026-01-04 00:48:03.27	87.72	34.13	-39.6	-41.3	23.0	0.00e+00	0	44	0	1625292800	50	4453
2026-01-04 00:48:03.99	88.00	34.15	-39.6	-41.3	22.9	0.00e+00	0	43	0	1629487104	50	4454
2026-01-04 00:48:05.28	88.50	34.19	-39.3	-41.0	23.1	0.00e+00	0	44	0	1636827136	50	4334
2026-01-04 00:48:05.99	88.77	34.20	-39.3	-41.0	23.1	0.00e+00	0	43	0	1639972864	50	4319
2026-01-04 00:48:07.28	89.28	34.24	-39.4	-41.1	23.0	0.00e+00	0	44	0	1647312896	50	4391
2026-01-04 00:48:08.00	89.56	34.25	-39.6	-41.3	22.9	0.00e+00	0	43	0	1651507200	50	4460
2026-01-04 00:48:09.29	90.06	34.28	-39.8	-41.5	22.9	0.00e+00	0	43	0	1658847232	50	4573
2026-01-04 00:48:10.15	90.40	34.29	-39.7	-41.4	23.0	0.00e+00	0	43	0	1664090112	50	4535
2026-01-04 00:48:11.61	90.97	34.32	-39.5	-41.2	23.0	0.00e+00	0	43	0	1672478720	50	4411
2026-01-04 00:48:12.33	91.25	34.33	-39.4	-41.1	23.0	0.00e+00	0	44	0	1675624448	50	4378
2026-01-04 00:48:13.62	91.76	34.35	-39.6	-41.3	22.8	0.00e+00	0	44	0	1682964480	50	4475
2026-01-04 00:48:14.33	92.03	34.36	-39.7	-41.4	22.8	0.00e+00	0	43	0	1687158784	50	4503
2026-01-04 00:48:15.62	92.54	34.37	-39.6	-41.3	22.8	0.00e+00	0	43	0	1694498816	50	4487
2026-01-04 00:48:16.34	92.82	34.38	-39.4	-41.1	23.0	0.00e+00	0	43	0	1698693120	50	4385
2026-01-04 00:48:17.63	93.33	34.39	-39.4	-41.1	23.0	0.00e+00	0	43	0	1706033152	50	4374
2026-01-04 00:48:18.35	93.61	34.40	-39.6	-41.3	22.9	0.00e+00	0	43	0	1710227456	50	4444
2026-01-04 00:48:19.64	94.12	34.40	-39.6	-41.3	22.8	0.00e+00	0	43	0	1717567488	50	4469
2026-01-04 00:48:20.58	94.49	34.41	-39.5	-41.2	22.9	0.00e+00	0	43	0	1722810368	50	4405
2026-01-04 00:48:21.58	94.89	34.41	-39.3	-41.0	23.0	0.00e+00	0	43	0	1728053248	50	4328
2026-01-04 00:48:22.59	95.28	34.41	-39.4	-41.1	23.0	0.00e+00	0	43	0	1733296128	50	4368
2026-01-04 00:48:23.59	95.68	34.41	-39.6	-41.3	22.8	0.00e+00	0	43	0	1739587584	50	4490
2026-01-04 00:48:24.59	96.07	34.41	-39.7	-41.4	22.8	0.00e+00	0	43	0	1744830464	50	4505
2026-01-04 00:48:25.59	96.46	34.40	-39.5	-41.3	22.9	0.00e+00	0	43	0	1750073344	50	4442
2026-01-04 00:48:26.60	96.86	34.40	-39.3	-41.0	23.1	0.00e+00	0	43	0	1756364800	50	4328
2026-01-04 00:48:27.65	97.28	34.39	-39.4	-41.1	23.1	0.00e+00	0	43	0	1761607680	50	4372
2026-01-04 00:48:28.56	97.63	34.38	-39.6	-41.3	22.9	0.00e+00	0	44	0	1767899136	50	4448
2026-01-04 00:48:29.57	98.03	34.38	-39.9	-41.6	22.7	0.00e+00	0	43	0	1773142016	50	4624
2026-01-04 00:48:30.57	98.42	34.36	-39.9	-41.6	22.7	0.00e+00	0	43	0	1778384896	50	4642
2026-01-04 00:48:31.78	98.90	34.35	-39.9	-41.6	22.6	0.00e+00	0	43	0	1785724928	50	4644
2026-01-04 00:48:32.64	99.24	34.34	-39.9	-41.6	22.6	0.00e+00	0	43	0	1789919232	50	4615
2026-01-04 00:48:33.99	99.77	34.32	-40.1	-41.8	22.5	0.00e+00	0	44	0	1798307840	50	4717
2026-01-04 00:48:34.71	100.05	34.30	-40.0	-41.7	22.5	0.00e+00	0	44	0	1802502144	50	4698
2026-01-04 00:48:35.99	100.55	34.28	-39.9	-41.6	22.7	0.00e+00	0	43	0	1808793600	50	4606
2026-01-04 00:48:36.71	100.83	34.27	-40.1	-41.8	22.5	0.00e+00	0	44	0	1812987904	50	4732
2026-01-04 00:48:38.24	101.43	34.23	-39.8	-41.5	22.9	0.00e+00	0	43	0	1821376512	51	4330
2026-01-04 00:48:38.95	101.70	34.22	-40.0	-41.7	22.7	0.00e+00	0	43	0	1825570816	51	4436
2026-01-04 00:48:40.24	102.20	34.18	-40.0	-41.7	22.7	0.00e+00	0	43	0	1832910848	51	4393
2026-01-04 00:48:40.96	102.48	34.16	-40.0	-41.8	22.5	0.00e+00	0	43	0	1837105152	51	4442
2026-01-04 00:48:42.24	102.98	34.13	-40.0	-41.7	22.6	0.00e+00	0	43	0	1844445184	51	4419
2026-01-04 00:48:42.96	103.26	34.11	-39.7	-41.5	22.7	0.00e+00	0	43	0	1848639488	51	4301
2026-01-04 00:48:44.25	103.76	34.07	-39.7	-41.4	22.7	0.00e+00	0	43	0	1855979520	51	4284
2026-01-04 00:48:44.97	104.04	34.05	-39.6	-41.3	22.8	0.00e+00	0	44	0	1860173824	51	4224
2026-01-04 00:48:46.26	104.53	34.00	-39.6	-41.3	22.8	0.00e+00	0	44	0	1867513856	51	4230
2026-01-04 00:48:46.97	104.81	33.98	-39.8	-41.5	22.7	0.00e+00	0	43	0	1870659584	51	4313
2026-01-04 00:48:48.26	105.30	33.93	-39.9	-41.7	22.6	0.00e+00	0	44	0	1877999616	51	4393
2026-01-04 00:48:48.98	105.58	33.91	-39.8	-41.5	22.6	0.00e+00	0	44	0	1882193920	51	4327
2026-01-04 00:48:50.27	106.07	33.86	-39.8	-41.5	22.7	0.00e+00	0	43	0	1889533952	51	4311
2026-01-04 00:48:50.99	106.34	33.83	-39.7	-41.4	22.7	0.00e+00	0	43	0	1893728256	51	4272
2026-01-04 00:48:52.27	106.83	33.77	-39.8	-41.5	22.6	0.00e+00	0	43	0	1901068288	51	4326
2026-01-04 00:48:52.99	107.10	33.74	-40.1	-41.9	22.3	0.00e+00	0	43	0	1904214016	51	4516
2026-01-04 00:48:54.28	107.59	33.69	-40.1	-41.8	22.3	0.00e+00	0	43	0	1911554048	51	4482
2026-01-04 00:48:55.00	107.86	33.65	-39.8	-41.6	22.5	0.00e+00	0	43	0	1915748352	51	4346
2026-01-04 00:48:56.29	108.34	33.59	-39.5	-41.2	22.9	0.00e+00	0	44	0	1923088384	51	4171
2026-01-04 00:48:57.00	108.61	33.56	-39.5	-41.2	22.9	0.00e+00	0	43	0	1927282688	50	4410
2026-01-04 00:48:58.29	109.09	33.50	-39.2	-40.9	22.9	0.00e+00	0	44	0	1934622720	50	4244
2026-01-04 00:48:59.01	109.36	33.46	-39.4	-41.1	22.7	0.00e+00	0	43	0	1938817024	50	4371
2026-01-04 00:49:00.30	109.84	33.39	-39.3	-41.0	22.8	0.00e+00	0	44	0	1946157056	50	4333
2026-01-04 00:49:01.19	110.17	33.35	-39.1	-40.8	22.9	0.00e+00	0	43	0	1950351360	50	4240
2026-01-04 00:49:02.27	110.57	33.29	-39.2	-40.9	22.9	0.00e+00	0	43	0	1956642816	50	4266
2026-01-04 00:49:03.40	110.98	33.23	-39.3	-41.0	22.8	0.00e+00	0	43	0	1963982848	50	4300
2026-01-04 00:49:04.26	111.30	33.18	-39.4	-41.1	22.7	0.00e+00	0	43	0	1968177152	50	4361
2026-01-04 00:49:05.40	111.72	33.11	-39.8	-41.5	22.7	0.00e+00	0	43	0	1974468608	50	4555
2026-01-04 00:49:06.27	112.03	33.06	-39.7	-41.5	22.7	0.00e+00	0	43	0	1979711488	50	4546
2026-01-04 00:49:07.41	112.45	32.99	-39.7	-41.4	22.6	0.00e+00	0	43	0	1986002944	50	4529
2026-01-04 00:49:08.27	112.76	32.94	-39.8	-41.6	22.5	0.00e+00	0	44	0	1991245824	50	4600
2026-01-04 00:49:09.42	113.17	32.87	-39.9	-41.7	22.3	0.00e+00	0	44	0	1997537280	50	4689
2026-01-04 00:49:10.28	113.48	32.81	-39.9	-41.7	22.3	0.00e+00	0	44	0	2001731584	50	4661
2026-01-04 00:49:11.44	113.89	32.74	-39.9	-41.6	22.4	0.00e+00	0	43	0	2008023040	50	4622
2026-01-04 00:49:12.30	114.20	32.68	-39.7	-41.4	22.6	0.00e+00	0	44	0	2013265920	50	4533
2026-01-04 00:49:13.45	114.61	32.60	-40.1	-41.8	22.4	0.00e+00	0	44	0	2019557376	50	4741
2026-01-04 00:49:14.31	114.91	32.55	-40.0	-41.7	22.4	0.00e+00	0	44	0	2024800256	50	4697
2026-01-04 00:49:15.45	115.31	32.47	-39.8	-41.5	22.5	0.00e+00	0	44	0	2031091712	50	4596
2026-01-04 00:49:16.32	115.61	32.41	-39.8	-41.6	22.4	0.00e+00	0	44	0	2036334592	50	4602
2026-01-04 00:49:17.46	116.01	32.33	-39.7	-41.4	22.6	0.00e+00	0	43	0	2042626048	50	4516
2026-01-04 00:49:18.32	116.31	32.26	-39.7	-41.4	22.6	0.00e+00	0	43	0	2046820352	50	4501
2026-01-04 00:49:19.46	116.70	32.18	-39.8	-41.5	22.5	0.00e+00	0	44	0	2054160384	50	4566
2026-01-04 00:49:20.32	117.00	32.12	-39.8	-41.5	22.5	0.00e+00	0	43	0	2058354688	50	4578
2026-01-04 00:49:21.47	117.39	32.03	-39.9	-41.6	22.4	0.00e+00	0	44	0	2064646144	50	4620
2026-01-04 00:49:22.33	117.69	31.97	-39.8	-41.5	22.5	0.00e+00	0	43	0	2069889024	50	4579
2026-01-04 00:49:23.47	118.07	31.88	-39.8	-41.6	22.4	0.00e+00	0	44	0	2076180480	50	4615
2026-01-04 00:49:24.33	118.36	31.81	-40.0	-41.7	22.4	0.00e+00	0	43	0	2081423360	50	4676
2026-01-04 00:49:25.48	118.75	31.72	-40.0	-41.7	22.4	0.00e+00	0	44	0	2087714816	50	4684
2026-01-04 00:49:26.34	119.04	31.66	-39.9	-41.7	22.4	0.00e+00	0	44	0	2091909120	50	4676
2026-01-04 00:49:27.56	119.44	31.56	-40.0	-41.8	22.3	0.00e+00	0	44	0	2099249152	50	4729
2026-01-04 00:49:28.42	119.73	31.49	-40.1	-41.8	22.2	0.00e+00	0	43	0	2104492032	50	4758
2026-01-04 00:49:29.57	120.11	31.39	-40.0	-41.7	22.3	0.00e+00	0	44	0	2110783488	50	4683
2026-01-04 00:49:30.43	120.39	31.32	-39.9	-41.7	22.3	0.00e+00	0	43	0	2114977792	50	4673
2026-01-04 00:49:31.58	120.77	31.23	-40.0	-41.8	22.3	0.00e+00	0	43	0	2122317824	50	4720
2026-01-04 00:49:32.43	121.04	31.16	-40.1	-41.9	22.2	0.00e+00	0	43	0	2126512128	50	4773
2026-01-04 00:49:33.58	121.41	31.06	-39.9	-41.7	22.4	0.00e+00	0	44	0	2132803584	50	4654
2026-01-04 00:49:34.61	121.74	30.97	-39.9	-41.6	22.3	0.00e+00	0	43	0	2139095040	50	4650
2026-01-04 00:49:35.78	122.12	30.87	-40.4	-42.1	22.3	0.00e+00	0	44	0	2145386496	51	4648
2026-01-04 00:49:36.64	122.39	30.80	-40.4	-42.1	22.2	0.00e+00	0	43	0	2150629376	51	4649
2026-01-04 00:49:38.00	122.82	30.68	-40.3	-42.0	22.2	0.00e+00	0	44	0	2157969408	51	4579
2026-01-04 00:49:38.71	123.04	30.61	-40.1	-41.8	22.3	0.00e+00	0	44	0	2162163712	51	4485
2026-01-04 00:49:40.01	123.45	30.50	-40.0	-41.7	22.5	0.00e+00	0	44	0	2169503744	51	4430
2026-01-04 00:49:40.72	123.67	30.43	-40.1	-41.8	22.4	0.00e+00	0	43	0	2173698048	51	4481
2026-01-04 00:49:42.01	124.07	30.32	-40.2	-41.9	22.4	0.00e+00	0	44	0	2181038080	51	4545
2026-01-04 00:49:42.73	124.29	30.25	-40.2	-42.0	22.3	0.00e+00	0	44	0	2184183808	51	4552
2026-01-04 00:49:44.02	124.68	30.13	-40.0	-41.7	22.6	0.00e+00	0	43	0	2191523840	51	4397
2026-01-04 00:49:44.73	124.90	30.07	-39.8	-41.5	22.7	0.00e+00	0	43	0	2195718144	51	4309
2026-01-04 00:49:46.02	125.29	29.95	-39.9	-41.6	22.6	0.00e+00	0	44	0	2203058176	51	4353
2026-01-04 00:49:46.74	125.50	29.88	-40.0	-41.7	22.6	0.00e+00	0	44	0	2207252480	51	4406
2026-01-04 00:49:48.03	125.89	29.76	-40.1	-41.8	22.4	0.00e+00	0	43	0	2214592512	51	4492
2026-01-04 00:49:48.75	126.10	29.69	-40.2	-41.9	22.3	0.00e+00	0	43	0	2218786816	51	4540
2026-01-04 00:49:50.07	126.49	29.57	-40.2	-42.0	22.2	0.00e+00	0	44	0	2226126848	51	4560
2026-01-04 00:49:51.06	126.78	29.47	-40.2	-41.9	22.3	0.00e+00	0	44	0	2231369728	51	4521
2026-01-04 00:49:52.06	127.08	29.38	-40.1	-41.9	22.3	0.00e+00	0	43	0	2237661184	51	4500
2026-01-04 00:49:53.06	127.37	29.28	-40.0	-41.7	22.5	0.00e+00	0	43	0	2242904064	51	4431
2026-01-04 00:49:54.06	127.65	29.19	-40.0	-41.8	22.4	0.00e+00	0	44	0	2248146944	51	4444
2026-01-04 00:49:55.07	127.94	29.09	-40.0	-41.8	22.4	0.00e+00	0	44	0	2254438400	51	4444
2026-01-04 00:49:56.07	128.23	28.99	-40.0	-41.7	22.4	0.00e+00	0	44	0	2259681280	51	4430
2026-01-04 00:49:57.07	128.51	28.89	-40.0	-41.8	22.4	0.00e+00	0	44	0	2264924160	51	4444
2026-01-04 00:49:58.08	128.79	28.79	-40.1	-41.9	22.4	0.00e+00	0	44	0	2271215616	51	4496
2026-01-04 00:49:59.18	129.10	28.68	-40.2	-41.9	22.3	0.00e+00	0	44	0	2277507072	51	4543
2026-01-04 00:50:00.03	129.34	28.60	-40.2	-41.9	22.3	0.00e+00	0	43	0	2281701376	51	4541
2026-01-04 00:50:01.18	129.66	28.48	-40.2	-41.9	22.3	0.00e+00	0	43	0	2287992832	51	4524
2026-01-04 00:50:02.04	129.89	28.40	-40.2	-41.9	22.3	0.00e+00	0	43	0	2293235712	51	4544
2026-01-04 00:50:03.19	130.21	28.28	-40.3	-42.0	22.3	0.00e+00	0	44	0	2299527168	51	4572
2026-01-04 00:50:04.05	130.44	28.20	-40.3	-42.0	22.2	0.00e+00	0	44	0	2304770048	51	4598
2026-01-04 00:50:05.19	130.75	28.08	-40.7	-42.4	22.2	0.00e+00	0	43	0	2311061504	52	4527
2026-01-04 00:50:06.05	130.98	27.99	-40.5	-42.3	22.2	0.00e+00	0	43	0	2316304384	52	4448
2026-01-04 00:50:07.20	131.28	27.88	-40.6	-42.4	22.2	0.00e+00	0	44	0	2322595840	52	4499
2026-01-04 00:50:08.05	131.51	27.79	-40.4	-42.1	22.1	0.00e+00	0	44	0	2326790144	52	4389
2026-01-04 00:50:09.20	131.81	27.67	-40.3	-42.1	22.1	0.00e+00	0	44	0	2333081600	52	4358
2026-01-04 00:50:10.06	132.04	27.59	-40.4	-42.2	22.1	0.00e+00	0	44	0	2338324480	52	4393
2026-01-04 00:50:11.33	132.37	27.46	-40.3	-42.1	22.2	0.00e+00	0	43	0	2345664512	52	4358
2026-01-04 00:50:12.04	132.55	27.38	-40.1	-41.8	22.3	0.00e+00	0	44	0	2349858816	52	4241
2026-01-04 00:50:13.33	132.88	27.25	-40.0	-41.7	22.5	0.00e+00	0	43	0	2357198848	52	4164
2026-01-04 00:50:14.05	133.06	27.18	-40.1	-41.8	22.4	0.00e+00	0	44	0	2361393152	51	4465
2026-01-04 00:50:15.34	133.39	27.04	-40.2	-42.0	22.3	0.00e+00	0	43	0	2367684608	51	4568
2026-01-04 00:50:16.05	133.57	26.97	-40.3	-42.1	22.2	0.00e+00	0	43	0	2371878912	51	4609
2026-01-04 00:50:17.34	133.89	26.84	-40.5	-42.3	22.0	0.00e+00	0	44	0	2379218944	51	4747
2026-01-04 00:50:18.06	134.07	26.76	-40.6	-42.4	21.9	0.00e+00	0	43	0	2383413248	51	4772
2026-01-04 00:50:19.35	134.39	26.63	-40.6	-42.4	21.9	0.00e+00	0	43	0	2390753280	51	4760
2026-01-04 00:50:20.06	134.56	26.55	-40.6	-42.4	21.9	0.00e+00	0	44	0	2394947584	52	4529
2026-01-04 00:50:21.35	134.87	26.42	-40.5	-42.3	21.8	0.00e+00	0	43	0	2402287616	52	4451
2026-01-04 00:50:22.06	135.05	26.34	-40.7	-42.4	21.9	0.00e+00	0	44	0	2405433344	52	4528
2026-01-04 00:50:23.35	135.36	26.21	-40.6	-42.3	22.0	0.00e+00	0	43	0	2412773376	52	4480
2026-01-04 00:50:24.07	135.53	26.13	-40.5	-42.3	22.0	0.00e+00	0	44	0	2416967680	52	4449
2026-01-04 00:50:25.36	135.83	26.00	-40.6	-42.3	22.0	0.00e+00	0	44	0	2424307712	52	4469
2026-01-04 00:50:26.07	136.00	25.92	-40.5	-42.3	22.0	0.00e+00	0	43	0	2428502016	52	4442
2026-01-04 00:50:27.46	136.33	25.78	-40.4	-42.1	22.1	0.00e+00	0	44	0	2435842048	52	4389
2026-01-04 00:50:28.17	136.49	25.70	-40.4	-42.2	22.1	0.00e+00	0	43	0	2440036352	52	4410
2026-01-04 00:50:29.53	136.81	25.56	-40.3	-42.1	22.1	0.00e+00	0	43	0	2447376384	52	4365
2026-01-04 00:50:30.24	136.97	25.48	-40.4	-42.1	22.1	0.00e+00	0	44	0	2451570688	52	4376
2026-01-04 00:50:31.53	137.26	25.35	-40.1	-41.9	22.3	0.00e+00	0	44	0	2458910720	52	4253
2026-01-04 00:50:32.25	137.43	25.27	-40.2	-41.9	22.2	0.00e+00	0	44	0	2463105024	52	4275
2026-01-04 00:50:33.66	137.74	25.12	-40.3	-42.0	22.2	0.00e+00	0	44	0	2471493632	52	4317
2026-01-04 00:50:34.65	137.97	25.02	-40.2	-41.9	22.2	0.00e+00	0	43	0	2476736512	52	4261
2026-01-04 00:50:35.96	138.26	24.88	-40.1	-41.9	22.3	0.00e+00	0	44	0	2484076544	52	4255
2026-01-04 00:50:36.68	138.41	24.81	-40.5	-42.3	22.2	0.00e+00	0	44	0	2488270848	52	4457
2026-01-04 00:50:37.97	138.70	24.67	-40.5	-42.2	22.1	0.00e+00	0	44	0	2495610880	52	4437
2026-01-04 00:50:38.69	138.85	24.59	-40.5	-42.3	22.1	0.00e+00	0	44	0	2498756608	52	4457
2026-01-04 00:50:39.98	139.13	24.46	-40.7	-42.5	22.0	0.00e+00	0	44	0	2506096640	52	4569
2026-01-04 00:50:40.69	139.28	24.38	-40.7	-42.5	21.9	0.00e+00	0	44	0	2510290944	52	4561
2026-01-04 00:50:42.03	139.57	24.24	-40.8	-42.5	21.7	0.00e+00	0	44	0	2517630976	52	4593
2026-01-04 00:50:42.75	139.72	24.16	-40.8	-42.6	21.8	0.00e+00	0	44	0	2521825280	52	4610
2026-01-04 00:50:44.03	139.99	24.03	-40.7	-42.4	21.9	0.00e+00	0	44	0	2529165312	52	4519
2026-01-04 00:50:44.75	140.14	23.95	-40.7	-42.5	21.9	0.00e+00	0	44	0	2533359616	52	4555
2026-01-04 00:50:46.16	140.43	23.81	-40.7	-42.4	21.9	0.00e+00	0	44	0	2541748224	52	4526
2026-01-04 00:50:46.88	140.58	23.73	-40.6	-42.4	21.9	0.00e+00	0	44	0	2544893952	52	4501
2026-01-04 00:50:48.27	140.86	23.58	-40.8	-42.5	21.8	0.00e+00	0	44	0	2553282560	52	4587
2026-01-04 00:50:48.98	141.01	23.51	-40.9	-42.6	21.7	0.00e+00	0	43	0	2557476864	52	4641
2026-01-04 00:50:50.27	141.27	23.37	-40.8	-42.6	21.7	0.00e+00	0	43	0	2564816896	52	4621
2026-01-04 00:50:50.99	141.41	23.30	-40.8	-42.6	21.7	0.00e+00	0	44	0	2567962624	52	4617
2026-01-04 00:50:52.28	141.67	23.16	-40.9	-42.7	21.6	0.00e+00	0	43	0	2575302656	52	4689
2026-01-04 00:50:52.99	141.81	23.09	-40.9	-42.7	21.6	0.00e+00	0	43	0	2579496960	52	4688
2026-01-04 00:50:54.28	142.06	22.95	-41.0	-42.8	21.6	0.00e+00	0	44	0	2586836992	52	4715
2026-01-04 00:50:55.00	142.20	22.88	-40.9	-42.7	21.6	0.00e+00	0	43	0	2591031296	52	4699
2026-01-04 00:50:56.29	142.45	22.74	-41.1	-42.9	21.4	0.00e+00	0	44	0	2598371328	52	4766
2026-01-04 00:50:57.07	142.60	22.66	-40.9	-42.7	21.6	0.00e+00	0	43	0	2602565632	52	4674
2026-01-04 00:50:58.67	142.91	22.49	-41.0	-42.7	21.6	0.00e+00	0	44	0	2612002816	52	4705
2026-01-04 00:50:59.53	143.07	22.40	-40.9	-42.7	21.7	0.00e+00	0	43	0	2616197120	52	4665
2026-01-04 00:51:00.67	143.29	22.28	-40.9	-42.6	21.7	0.00e+00	0	43	0	2623537152	52	4631
2026-01-04 00:51:01.53	143.45	22.19	-40.9	-42.7	21.7	0.00e+00	0	44	0	2627731456	52	4675
2026-01-04 00:51:02.71	143.67	22.07	-41.3	-43.1	21.7	0.00e+00	0	44	0	2635071488	53	4613
2026-01-04 00:51:03.57	143.83	21.98	-41.5	-43.3	21.6	0.00e+00	0	43	0	2639265792	53	4730
2026-01-04 00:51:04.72	144.04	21.86	-41.7	-43.4	21.5	0.00e+00	0	44	0	2645557248	54	4541
2026-01-04 00:51:05.58	144.19	21.77	-41.0	-42.8	21.5	0.00e+00	0	44	0	2650800128	54	4238
2026-01-04 00:51:06.90	144.43	21.64	-41.2	-43.0	21.4	0.00e+00	0	44	0	2658140160	54	4328
2026-01-04 00:51:07.62	144.56	21.56	-41.2	-43.1	21.4	0.00e+00	0	44	0	2662334464	54	4342
2026-01-04 00:51:09.12	144.83	21.41	-41.2	-43.0	21.4	0.00e+00	0	44	0	2670723072	54	4304
2026-01-04 00:51:09.84	144.96	21.34	-41.2	-43.0	21.4	0.00e+00	0	44	0	2674917376	54	4335
2026-01-04 00:51:11.23	145.20	21.19	-41.1	-42.9	21.4	0.00e+00	0	44	0	2682257408	54	4250
2026-01-04 00:51:11.94	145.33	21.12	-41.0	-42.8	21.5	0.00e+00	0	43	0	2686451712	54	4237
2026-01-04 00:51:13.23	145.55	20.99	-41.1	-42.9	21.3	0.00e+00	0	44	0	2693791744	54	4245
2026-01-04 00:51:13.94	145.67	20.91	-41.0	-42.8	21.5	0.00e+00	0	44	0	2697986048	54	4226
2026-01-04 00:51:15.23	145.89	20.78	-41.1	-42.9	21.4	0.00e+00	0	44	0	2705326080	54	4289
2026-01-04 00:51:15.95	146.02	20.71	-41.2	-42.9	21.4	0.00e+00	0	44	0	2708471808	54	4291
2026-01-04 00:51:17.24	146.24	20.58	-41.3	-43.1	21.2	0.00e+00	0	43	0	2715811840	54	4373
2026-01-04 00:51:17.96	146.36	20.50	-41.4	-43.2	21.2	0.00e+00	0	44	0	2720006144	54	4395
2026-01-04 00:51:19.26	146.57	20.37	-41.5	-43.4	21.0	0.00e+00	0	44	0	2727346176	54	4495
2026-01-04 00:51:20.07	146.71	20.29	-41.5	-43.3	21.0	0.00e+00	0	44	0	2732589056	54	4491
2026-01-04 00:51:21.53	146.95	20.14	-41.5	-43.3	21.1	0.00e+00	0	43	0	2739929088	54	4479
2026-01-04 00:51:22.25	147.07	20.07	-41.6	-43.4	21.0	0.00e+00	0	43	0	2744123392	54	4495
2026-01-04 00:51:23.54	147.28	19.94	-41.6	-43.3	21.0	0.00e+00	0	43	0	2751463424	54	4485
2026-01-04 00:51:24.25	147.39	19.87	-41.6	-43.4	21.0	0.00e+00	0	43	0	2755657728	54	4498
2026-01-04 00:51:25.54	147.60	19.74	-41.6	-43.4	20.9	0.00e+00	0	44	0	2762997760	54	4523
2026-01-04 00:51:26.26	147.71	19.67	-41.6	-43.4	20.9	0.00e+00	0	44	0	2767192064	54	4542
2026-01-04 00:51:27.55	147.92	19.54	-41.7	-43.5	20.9	0.00e+00	0	44	0	2774532096	54	4561
2026-01-04 00:51:28.27	148.03	19.47	-41.8	-43.6	20.8	0.00e+00	0	44	0	2778726400	54	4619
2026-01-04 00:51:29.56	148.23	19.34	-41.9	-43.7	20.7	0.00e+00	0	43	0	2786066432	54	4699
2026-01-04 00:51:30.27	148.34	19.27	-41.9	-43.7	20.7	0.00e+00	0	44	0	2789212160	54	4697
2026-01-04 00:51:31.56	148.54	19.14	-42.0	-43.9	20.6	0.00e+00	0	44	0	2796552192	54	4788
2026-01-04 00:51:32.28	148.65	19.07	-42.1	-44.0	20.5	0.00e+00	0	44	0	2800746496	54	4829
2026-01-04 00:51:33.57	148.85	18.94	-42.1	-43.9	20.6	0.00e+00	0	44	0	2808086528	54	4808
2026-01-04 00:51:34.28	148.96	18.87	-42.0	-43.9	20.6	0.00e+00	0	44	0	2812280832	54	4768
2026-01-04 00:51:35.57	149.15	18.74	-42.6	-44.4	20.6	0.00e+00	0	44	0	2819620864	55	4803
2026-01-04 00:51:36.29	149.26	18.67	-42.5	-44.3	20.6	0.00e+00	0	44	0	2822766592	55	4729
2026-01-04 00:51:37.58	149.45	18.55	-42.2	-44.1	20.5	0.00e+00	0	44	0	2830106624	55	4605
2026-01-04 00:51:38.30	149.56	18.48	-42.2	-44.1	20.5	0.00e+00	0	44	0	2834300928	55	4621
2026-01-04 00:51:39.82	149.78	18.33	-42.1	-44.0	20.6	0.00e+00	0	43	0	2843738112	55	4548
2026-01-04 00:51:40.54	149.88	18.26	-42.1	-43.9	20.6	0.00e+00	0	43	0	2846883840	55	4537
2026-01-04 00:51:41.83	150.07	18.13	-42.2	-44.1	20.5	0.00e+00	0	44	0	2854223872	55	4624
2026-01-04 00:51:42.54	150.17	18.06	-42.2	-44.1	20.5	0.00e+00	0	43	0	2858418176	55	4617
2026-01-04 00:51:43.83	150.36	17.94	-42.3	-44.2	20.4	0.00e+00	0	44	0	2865758208	55	4665
2026-01-04 00:51:44.55	150.46	17.87	-42.4	-44.3	20.3	0.00e+00	0	44	0	2869952512	55	4733
2026-01-04 00:51:45.84	150.64	17.75	-42.4	-44.3	20.3	0.00e+00	0	44	0	2877292544	55	4713
2026-01-04 00:51:46.56	150.74	17.68	-42.4	-44.2	20.3	0.00e+00	0	44	0	2881486848	55	4703
2026-01-04 00:51:47.85	150.92	17.55	-42.3	-44.2	20.3	0.00e+00	0	44	0	2888826880	55	4687
2026-01-04 00:51:48.56	151.02	17.48	-42.4	-44.3	20.3	0.00e+00	0	44	0	2891972608	55	4734
2026-01-04 00:51:49.86	151.20	17.36	-42.4	-44.2	20.3	0.00e+00	0	44	0	2899312640	55	4704
2026-01-04 00:51:50.57	151.30	17.29	-42.3	-44.2	20.4	0.00e+00	0	44	0	2903506944	55	4661
2026-01-04 00:51:51.86	151.47	17.17	-42.3	-44.2	20.4	0.00e+00	0	44	0	2910846976	55	4657
2026-01-04 00:51:52.58	151.57	17.10	-42.2	-44.1	20.4	0.00e+00	0	44	0	2915041280	55	4621
2026-01-04 00:51:53.87	151.74	16.98	-42.3	-44.1	20.4	0.00e+00	0	44	0	2922381312	55	4629
2026-01-04 00:51:54.58	151.84	16.91	-42.3	-44.1	20.4	0.00e+00	0	44	0	2926575616	55	4630
2026-01-04 00:51:55.87	152.01	16.79	-42.9	-44.8	20.4	0.00e+00	0	44	0	2933915648	56	4717
2026-01-04 00:51:56.59	152.10	16.72	-43.0	-44.9	20.2	9.10e-06	0	43	0	2937061376	56	4763
2026-01-04 00:51:58.02	152.29	16.59	-42.8	-44.6	20.3	0.00e+00	0	44	0	2945449984	56	4648
2026-01-04 00:51:58.74	152.39	16.52	-42.6	-44.5	20.3	0.00e+00	0	43	0	2949644288	56	4579
2026-01-04 00:52:00.07	152.56	16.40	-42.7	-44.6	20.2	0.00e+00	0	44	0	2956984320	56	4644
2026-01-04 00:52:00.78	152.65	16.33	-42.6	-44.5	20.3	0.00e+00	0	44	0	2961178624	56	4577
2026-01-04 00:52:02.14	152.82	16.21	-42.6	-44.5	20.2	0.00e+00	0	44	0	2968518656	56	4586
2026-01-04 00:52:02.85	152.91	16.14	-42.8	-44.7	20.1	0.00e+00	0	44	0	2972712960	56	4653
2026-01-04 00:52:04.14	153.08	16.02	-42.6	-44.5	20.3	0.00e+00	0	44	0	2980052992	56	4562
2026-01-04 00:52:04.85	153.17	15.96	-42.7	-44.6	20.2	0.00e+00	0	44	0	2984247296	56	4620
2026-01-04 00:52:06.14	153.33	15.84	-42.7	-44.6	20.1	0.00e+00	0	44	0	2991587328	56	4618
2026-01-04 00:52:06.89	153.42	15.77	-42.7	-44.6	20.2	0.00e+00	0	44	0	2995781632	56	4600
2026-01-04 00:52:08.18	153.58	15.65	-42.6	-44.5	20.2	0.00e+00	0	44	0	3003121664	56	4590
2026-01-04 00:52:08.98	153.68	15.58	-42.7	-44.6	20.2	0.00e+00	0	44	0	3007315968	56	4603
2026-01-04 00:52:10.12	153.82	15.47	-42.6	-44.5	20.2	0.00e+00	0	44	0	3013607424	56	4577
2026-01-04 00:52:11.23	153.95	15.37	-42.7	-44.6	20.1	0.00e+00	0	44	0	3019898880	56	4633
2026-01-04 00:52:12.08	154.05	15.30	-42.7	-44.6	20.1	0.00e+00	0	44	0	3025141760	56	4626
2026-01-04 00:52:13.58	154.23	15.16	-42.8	-44.7	20.0	0.00e+00	0	44	0	3033530368	56	4659
2026-01-04 00:52:14.29	154.32	15.10	-42.9	-44.7	20.0	0.00e+00	0	44	0	3036676096	56	4702
2026-01-04 00:52:15.58	154.47	14.98	-42.8	-44.7	20.0	0.00e+00	0	44	0	3044016128	56	4692
2026-01-04 00:52:16.30	154.55	14.92	-42.9	-44.7	20.0	0.00e+00	0	44	0	3048210432	56	4705
2026-01-04 00:52:17.59	154.70	14.80	-42.9	-44.8	19.9	0.00e+00	0	44	0	3055550464	56	4759
2026-01-04 00:52:18.30	154.79	14.74	-43.0	-44.9	19.9	0.00e+00	0	44	0	3059744768	56	4776
2026-01-04 00:52:19.59	154.94	14.62	-43.1	-45.0	19.7	0.00e+00	0	44	0	3067084800	56	4856
2026-01-04 00:52:20.46	155.04	14.55	-43.0	-44.9	19.8	0.00e+00	0	44	0	3072327680	56	4810
2026-01-04 00:52:21.60	155.17	14.45	-42.9	-44.8	19.8	0.00e+00	0	44	0	3078619136	56	4751
2026-01-04 00:52:22.46	155.26	14.37	-42.9	-44.8	19.9	0.00e+00	0	43	0	3082813440	56	4735
2026-01-04 00:52:23.60	155.39	14.27	-42.9	-44.9	19.8	0.00e+00	0	44	0	3089104896	56	4769
2026-01-04 00:52:24.46	155.49	14.19	-43.0	-44.9	19.8	0.00e+00	0	43	0	3094347776	56	4793
2026-01-04 00:52:25.60	155.62	14.10	-43.4	-45.3	19.7	0.00e+00	0	44	0	3100639232	57	4746
2026-01-04 00:52:26.83	155.75	13.99	-43.7	-45.6	19.7	0.00e+00	0	44	0	3107979264	57	4900
2026-01-04 00:52:27.69	155.85	13.91	-43.8	-45.8	19.6	0.00e+00	0	44	0	3112173568	58	4713
2026-01-04 00:52:28.83	155.97	13.81	-43.3	-45.2	19.7	2.17e-05	0	44	0	3118465024	58	4438
2026-01-04 00:52:29.69	156.06	13.74	-43.3	-45.2	19.6	0.00e+00	0	44	0	3123707904	58	4420
2026-01-04 00:52:30.84	156.19	13.64	-43.3	-45.3	19.5	0.00e+00	0	44	0	3129999360	58	4462
2026-01-04 00:52:31.70	156.28	13.57	-43.4	-45.3	19.5	0.00e+00	0	44	0	3135242240	58	4480
2026-01-04 00:52:32.84	156.40	13.47	-43.4	-45.4	19.4	0.00e+00	0	44	0	3141533696	58	4502
2026-01-04 00:52:33.70	156.49	13.39	-43.4	-45.4	19.4	0.00e+00	0	44	0	3146776576	58	4526
2026-01-04 00:52:34.94	156.63	13.29	-43.6	-45.5	19.3	0.00e+00	0	43	0	3153068032	58	4580
2026-01-04 00:52:35.80	156.72	13.21	-43.7	-45.7	19.1	0.00e+00	0	44	0	3158310912	58	4659
2026-01-04 00:52:36.94	156.84	13.12	-43.7	-45.7	19.2	0.00e+00	0	44	0	3164602368	58	4690
2026-01-04 00:52:37.80	156.93	13.04	-43.6	-45.6	19.2	0.00e+00	0	44	0	3169845248	58	4633
2026-01-04 00:52:38.95	157.04	12.95	-43.8	-45.7	19.1	0.00e+00	0	44	0	3176136704	58	4699
2026-01-04 00:52:39.81	157.13	12.87	-43.8	-45.7	19.1	3.12e-03	0	43	0	3180331008	58	4705
2026-01-04 00:52:40.95	157.25	12.78	-43.8	-45.7	19.1	0.00e+00	0	43	0	3187671040	58	4704
2026-01-04 00:52:41.81	157.34	12.71	-43.8	-45.7	19.1	0.00e+00	0	44	0	3191865344	58	4694
2026-01-04 00:52:42.95	157.45	12.61	-43.7	-45.7	19.1	0.00e+00	0	44	0	3198156800	58	4676
2026-01-04 00:52:43.81	157.54	12.54	-43.8	-45.8	19.1	0.00e+00	0	44	0	3203399680	58	4717
2026-01-04 00:52:44.96	157.65	12.44	-43.7	-45.7	19.1	0.00e+00	0	44	0	3209691136	58	4688
2026-01-04 00:52:45.82	157.74	12.37	-43.8	-45.7	19.1	0.00e+00	0	44	0	3214934016	58	4690
2026-01-04 00:52:46.96	157.85	12.28	-43.8	-45.7	19.1	0.00e+00	0	44	0	3221225472	58	4691
2026-01-04 00:52:47.82	157.94	12.21	-43.8	-45.8	19.1	0.00e+00	0	44	0	3225419776	58	4707
2026-01-04 00:52:49.02	158.05	12.11	-43.8	-45.7	19.1	0.00e+00	0	44	0	3232759808	58	4703
2026-01-04 00:52:49.88	158.14	12.04	-43.9	-45.9	19.0	0.00e+00	0	44	0	3236954112	58	4767
2026-01-04 00:52:51.09	158.25	11.94	-43.8	-45.8	19.0	0.00e+00	0	44	0	3244294144	58	4708
2026-01-04 00:52:51.95	158.34	11.87	-43.9	-45.8	19.0	0.00e+00	0	44	0	3248488448	58	4759
2026-01-04 00:52:53.09	158.45	11.77	-43.9	-45.9	18.9	0.00e+00	0	44	0	3254779904	58	4774
2026-01-04 00:52:53.95	158.53	11.70	-43.9	-45.9	18.9	0.00e+00	0	44	0	3260022784	58	4770
2026-01-04 00:52:55.09	158.64	11.61	-43.8	-45.7	19.0	0.00e+00	0	44	0	3266314240	58	4705
2026-01-04 00:52:56.00	158.72	11.54	-43.9	-45.8	19.0	0.00e+00	0	44	0	3271557120	58	4732
2026-01-04 00:52:57.00	158.82	11.45	-43.9	-45.9	18.9	0.00e+00	0	44	0	3277848576	58	4800
2026-01-04 00:52:58.00	158.91	11.37	-43.9	-45.9	18.9	0.00e+00	0	44	0	3283091456	58	4774
2026-01-04 00:52:59.00	159.00	11.29	-43.9	-45.9	18.9	0.00e+00	0	43	0	3288334336	58	4792
2026-01-04 00:53:00.00	159.09	11.21	-43.9	-45.9	18.8	3.71e-03	0	44	0	3294625792	58	4807
2026-01-04 00:53:01.00	159.19	11.13	-43.9	-45.9	18.8	0.00e+00	0	44	0	3299868672	58	4794
2026-01-04 00:53:02.00	159.28	11.05	-44.4	-46.4	18.8	0.00e+00	0	44	0	3305111552	59	4796
2026-01-04 00:53:03.00	159.37	10.97	-44.6	-46.6	18.9	1.30e-03	0	44	0	3311403008	60	4645
2026-01-04 00:53:04.00	159.46	10.89	-44.5	-46.5	18.9	0.00e+00	0	44	0	3316645888	60	4589
2026-01-04 00:53:05.00	159.55	10.81	-44.0	-46.0	18.9	0.00e+00	0	44	0	3322937344	60	4330
2026-01-04 00:53:06.00	159.64	10.73	-44.1	-46.1	18.8	0.00e+00	0	44	0	3328180224	60	4386
2026-01-04 00:53:07.00	159.73	10.66	-44.1	-46.1	18.8	0.00e+00	0	44	0	3333423104	60	4379
2026-01-04 00:53:08.00	159.81	10.58	-44.1	-46.1	18.8	0.00e+00	0	44	0	3339714560	60	4368
2026-01-04 00:53:09.00	159.90	10.50	-44.1	-46.2	18.8	0.00e+00	0	44	0	3344957440	60	4400
2026-01-04 00:53:10.00	159.99	10.42	-44.1	-46.2	18.8	0.00e+00	0	44	0	3350200320	60	4396
2026-01-04 00:53:11.00	160.08	10.34	-44.2	-46.2	18.7	0.00e+00	0	43	0	3356491776	60	4431
2026-01-04 00:53:12.00	160.16	10.26	-44.3	-46.3	18.7	0.00e+00	0	44	0	3361734656	60	4466
2026-01-04 00:53:13.00	160.25	10.19	-44.2	-46.3	18.6	0.00e+00	0	44	0	3366977536	60	4450
2026-01-04 00:53:14.00	160.34	10.11	-44.4	-46.4	18.5	0.00e+00	0	44	0	3373268992	60	4524
2026-01-04 00:53:15.00	160.42	10.03	-44.3	-46.4	18.6	0.00e+00	0	44	0	3378511872	60	4500
2026-01-04 00:53:16.00	160.51	9.95	-44.3	-46.4	18.5	0.00e+00	0	44	0	3384803328	60	4499
2026-01-04 00:53:17.01	160.59	9.88	-44.4	-46.4	18.5	0.00e+00	0	44	0	3390046208	60	4544
2026-01-04 00:53:18.01	160.68	9.80	-44.4	-46.4	18.4	0.00e+00	0	44	0	3395289088	60	4542
2026-01-04 00:53:19.01	160.76	9.72	-44.4	-46.4	18.4	0.00e+00	0	44	0	3401580544	60	4535
2026-01-04 00:53:20.01	160.84	9.65	-44.3	-46.4	18.4	0.00e+00	0	44	0	3406823424	60	4509
2026-01-04 00:53:21.01	160.93	9.57	-44.3	-46.3	18.5	0.00e+00	0	44	0	3412066304	60	4485
2026-01-04 00:53:22.01	161.01	9.49	-44.3	-46.4	18.4	0.00e+00	0	44	0	3418357760	60	4503
2026-01-04 00:53:23.01	161.09	9.42	-44.3	-46.4	18.5	0.00e+00	0	44	0	3423600640	60	4495
2026-01-04 00:53:24.01	161.17	9.34	-45.0	-47.1	18.3	0.00e+00	0	44	0	3428843520	60	4888
2026-01-04 00:53:25.01	161.25	9.27	-44.5	-46.6	18.4	0.00e+00	0	44	0	3435134976	60	4601
2026-01-04 00:53:26.01	161.33	9.19	-44.6	-46.6	18.3	0.00e+00	0	44	0	3440377856	60	4650
2026-01-04 00:53:27.02	161.41	9.11	-44.6	-46.7	18.3	0.00e+00	0	43	0	3446669312	60	4679
2026-01-04 00:53:28.01	161.49	9.04	-44.8	-46.8	18.1	0.00e+00	0	44	0	3451912192	60	4754
2026-01-04 00:53:29.02	161.57	8.97	-54.0	-63.9	4.1	1.27e-04	0	44	0	3457155072	78	12043
2026-01-04 00:53:30.02	161.65	8.89	-54.3	-65.9	3.8	8.47e-01	0	44	104	3457155072	79	14249
2026-01-04 00:53:31.02	161.73	8.82	-54.4	-66.7	3.8	8.47e-01	0	44	104	3457155072	79	15662
2026-01-04 00:53:32.03	161.81	8.74	-54.6	-66.8	3.8	8.47e-01	0	44	104	3457155072	79	15857
2026-01-04 00:53:33.03	161.89	8.67	-54.7	-66.9	3.8	8.46e-01	0	44	104	3457155072	80	15072
2026-01-04 00:53:34.03	161.97	8.59	-54.7	-66.9	3.8	8.48e-01	0	44	104	3457155072	80	15188
2026-01-04 00:53:35.04	162.05	8.52	-54.6	-67.0	3.8	8.47e-01	0	44	104	3457155072	80	15260
2026-01-04 00:53:36.04	162.12	8.44	-54.7	-67.0	3.8	8.48e-01	0	44	104	3457155072	80	15265
2026-01-04 00:53:37.05	162.20	8.37	-54.8	-67.0	3.8	8.46e-01	0	44	104	3457155072	80	15295
2026-01-04 00:53:38.05	162.28	8.30	-55.0	-67.0	3.8	8.46e-01	0	44	104	3457155072	80	15353
2026-01-04 00:53:39.05	162.35	8.22	-54.8	-67.0	3.8	8.48e-01	0	44	104	3457155072	80	15393
2026-01-04 00:53:40.05	162.43	8.15	-54.9	-67.1	3.8	8.47e-01	0	44	104	3457155072	80	15489
2026-01-04 00:53:41.05	162.50	8.08	-55.2	-67.3	3.8	8.46e-01	0	44	104	3457155072	81	15047
2026-01-04 00:53:42.06	162.58	8.01	-55.2	-67.4	3.8	8.47e-01	0	44	104	3457155072	81	15210
2026-01-04 00:53:43.06	162.65	7.93	-55.3	-67.4	3.8	8.47e-01	0	44	104	3457155072	81	15185
2026-01-04 00:53:44.06	162.73	7.86	-55.2	-67.4	3.8	8.46e-01	0	44	104	3457155072	81	15189
2026-01-04 00:53:45.06	162.80	7.79	-55.1	-67.2	3.8	8.46e-01	0	44	104	3457155072	81	14716
2026-01-04 00:53:46.06	162.87	7.72	-54.9	-67.1	3.8	8.46e-01	0	44	104	3457155072	81	14618
2026-01-04 00:53:47.07	162.95	7.64	-54.9	-67.1	3.8	8.46e-01	0	44	104	3457155072	81	14579
2026-01-04 00:53:48.07	163.02	7.57	-55.1	-67.1	3.8	8.48e-01	0	44	104	3457155072	81	14641
2026-01-04 00:53:49.07	163.09	7.50	-55.0	-67.1	3.8	8.47e-01	0	44	104	3457155072	81	14575
2026-01-04 00:53:50.08	163.16	7.43	-55.0	-67.1	3.8	8.46e-01	0	44	104	3457155072	81	14631
2026-01-04 00:53:51.08	163.24	7.36	-54.9	-67.1	3.8	8.48e-01	0	44	104	3457155072	81	14633
2026-01-04 00:53:52.08	163.31	7.29	-54.8	-67.1	3.8	8.47e-01	0	44	104	3457155072	81	14584
2026-01-04 00:53:53.08	163.38	7.22	-54.8	-67.1	3.8	8.47e-01	0	44	104	3457155072	81	14671
2026-01-04 00:53:54.09	163.45	7.14	-54.5	-67.0	3.8	8.46e-01	0	44	104	3457155072	81	14504
2026-01-04 00:53:55.09	163.52	7.07	-54.6	-67.0	3.8	8.46e-01	0	44	104	3457155072	81	14426
2026-01-04 00:53:56.09	163.59	7.00	-54.6	-67.1	3.8	8.48e-01	0	44	104	3457155072	81	14625
2026-01-04 00:53:57.10	163.66	6.93	-54.6	-67.0	3.8	8.47e-01	0	44	104	3457155072	81	14520
2026-01-04 00:53:58.10	163.73	6.86	-54.6	-67.1	3.8	8.47e-01	0	44	104	3457155072	81	14552
