passes_logs/2026/01/04/T1/T1__20260104_012145_SUOMI_NPP_rec.log

#Pass ID: 20260104_012145_SUOMI NPP
#Satellite: SUOMI NPP
#Configuration: NPP
#almurnet v.1.7.20251203
#Start time: 2026-01-04 01:21:45

#Version: 2.0.20230620
#Station: T1
#Location: 37.570604 lon 55.790049 lat
#TLE: 1 37849U 11061A   26001.07732418  .00000182  00000+0  10735-3 0  9990
#TLE: 2 37849  98.7795 303.2470 0002580  87.2016 272.9455 14.19520779734739

#Time	Az	El	Level	Level2	SNR	BER	BlckErr	Temp	State	Recorded	gain1	gain2
2026-01-04 01:21:45.72	6.95	5.03	-55.0	-70.9	3.8	1.49e+00	0	39	0	0	81	22607
2026-01-04 01:21:46.72	6.88	5.09	-53.9	-70.6	3.8	1.49e+00	0	39	104	0	79	24675
2026-01-04 01:21:47.72	6.80	5.15	-53.8	-70.6	3.8	1.49e+00	0	39	104	0	79	24598
2026-01-04 01:21:48.72	6.72	5.21	-53.8	-70.6	3.8	1.49e+00	0	39	104	0	79	24575
2026-01-04 01:21:49.73	6.64	5.27	-53.8	-70.7	3.8	1.49e+00	0	39	104	0	79	24743
2026-01-04 01:21:50.73	6.57	5.33	-53.9	-70.7	3.8	1.49e+00	0	39	104	0	79	24847
2026-01-04 01:21:51.74	6.49	5.40	-53.8	-70.6	3.8	1.49e+00	0	39	104	0	79	24688
2026-01-04 01:21:52.74	6.41	5.46	-53.8	-70.6	3.8	1.49e+00	0	39	104	0	79	24641
2026-01-04 01:21:53.74	6.33	5.52	-53.8	-70.6	3.8	1.49e+00	0	39	104	0	79	24588
2026-01-04 01:21:54.75	6.25	5.58	-53.8	-70.6	3.8	1.49e+00	0	40	104	0	79	24638
2026-01-04 01:21:55.75	6.17	5.65	-53.9	-70.6	3.8	1.49e+00	0	39	104	0	79	24635
2026-01-04 01:21:56.76	6.09	5.71	-53.9	-70.7	3.8	1.49e+00	0	40	104	0	79	24901
2026-01-04 01:21:57.76	6.01	5.77	-53.9	-70.7	3.8	1.49e+00	0	39	104	0	79	24780
2026-01-04 01:21:58.76	5.93	5.83	-53.8	-70.6	3.8	1.49e+00	0	40	104	0	79	24683
2026-01-04 01:21:59.77	5.84	5.90	-53.8	-70.7	3.8	1.49e+00	0	40	104	0	79	24805
2026-01-04 01:22:00.77	5.76	5.96	-53.8	-70.7	3.8	1.49e+00	0	40	104	0	79	24830
2026-01-04 01:22:01.78	5.68	6.02	-53.8	-70.6	3.8	1.49e+00	0	40	104	0	79	24667
2026-01-04 01:22:02.78	5.60	6.09	-53.7	-70.6	3.8	1.49e+00	0	40	104	0	79	24605
2026-01-04 01:22:03.78	5.51	6.15	-53.7	-70.5	3.8	1.49e+00	0	40	104	0	79	24409
2026-01-04 01:22:04.79	5.43	6.21	-53.7	-70.6	3.8	1.49e+00	0	40	104	0	79	24536
2026-01-04 01:22:05.79	5.35	6.28	-53.7	-70.5	3.8	1.49e+00	0	40	104	0	79	24330
2026-01-04 01:22:06.80	5.26	6.34	-53.8	-70.7	3.8	1.49e+00	0	40	104	0	79	24694
2026-01-04 01:22:07.80	5.18	6.40	-53.9	-70.7	3.8	1.49e+00	0	40	104	0	79	24882
2026-01-04 01:22:08.80	5.09	6.47	-53.9	-70.7	3.8	1.49e+00	0	40	104	0	79	24838
2026-01-04 01:22:09.81	5.01	6.53	-53.8	-70.7	3.8	1.49e+00	0	40	104	0	79	24906
2026-01-04 01:22:10.81	4.92	6.60	-53.9	-70.8	3.8	1.49e+00	0	40	104	0	79	24987
2026-01-04 01:22:11.82	4.83	6.66	-53.8	-70.7	3.8	1.49e+00	0	40	104	0	79	24705
2026-01-04 01:22:12.82	4.75	6.72	-53.7	-70.6	3.8	1.49e+00	0	40	104	0	79	24591
2026-01-04 01:22:13.83	4.66	6.79	-53.8	-70.6	3.8	1.49e+00	0	40	104	0	79	24677
2026-01-04 01:22:14.83	4.57	6.85	-53.8	-70.7	3.8	1.49e+00	0	40	104	0	79	24852
2026-01-04 01:22:15.84	4.49	6.92	-53.8	-70.7	3.8	1.49e+00	0	40	104	0	79	24805
2026-01-04 01:22:16.84	4.40	6.98	-53.8	-70.6	3.8	1.49e+00	0	40	104	0	79	24529
2026-01-04 01:22:17.84	4.31	7.05	-53.7	-70.5	3.8	1.49e+00	0	40	104	0	79	24187
2026-01-04 01:22:18.85	4.22	7.11	-53.7	-70.5	3.8	1.49e+00	0	40	104	0	79	24212
2026-01-04 01:22:19.85	4.13	7.18	-53.8	-70.5	3.8	1.49e+00	0	40	104	0	79	24159
2026-01-04 01:22:20.86	4.04	7.24	-53.7	-70.4	3.8	1.49e+00	0	40	104	0	79	24027
2026-01-04 01:22:21.86	3.95	7.31	-53.7	-70.3	3.8	1.49e+00	0	40	104	0	79	23601
2026-01-04 01:22:22.86	3.86	7.37	-53.7	-70.2	3.8	1.49e+00	0	40	104	0	79	23333
2026-01-04 01:22:23.87	3.77	7.44	-53.7	-70.0	3.8	1.49e+00	0	40	104	0	79	22974
2026-01-04 01:22:24.87	3.68	7.50	-53.7	-69.8	3.8	1.49e+00	0	41	104	0	79	22441
2026-01-04 01:22:25.88	3.58	7.57	-53.7	-69.6	3.8	1.49e+00	0	41	104	0	79	21794
2026-01-04 01:22:26.88	3.49	7.63	-53.7	-69.4	3.8	1.49e+00	0	40	104	0	79	21413
2026-01-04 01:22:27.88	3.40	7.70	-53.7	-69.3	3.8	1.49e+00	0	41	104	0	79	21062
2026-01-04 01:22:28.89	3.31	7.76	-53.7	-69.1	3.8	1.49e+00	0	41	104	0	79	20622
2026-01-04 01:22:29.89	3.21	7.83	-53.6	-68.9	3.8	1.49e+00	0	40	104	0	79	20229
2026-01-04 01:22:30.90	3.12	7.90	-53.6	-69.1	3.8	1.49e+00	0	40	104	0	78	21879
2026-01-04 01:22:31.90	3.02	7.96	-53.6	-69.3	3.8	1.49e+00	0	41	104	0	78	22368
2026-01-04 01:22:32.91	2.93	8.03	-53.6	-69.5	3.8	1.49e+00	0	41	104	0	78	22971
2026-01-04 01:22:33.91	2.83	8.09	-53.7	-70.0	3.8	1.49e+00	0	41	104	0	78	24321
2026-01-04 01:22:34.91	2.74	8.16	-53.7	-70.3	3.8	1.49e+00	0	41	104	0	78	24980
2026-01-04 01:22:35.92	2.64	8.23	-53.7	-70.4	3.8	1.49e+00	0	41	104	0	78	25403
2026-01-04 01:22:36.92	2.54	8.29	-53.6	-70.1	3.8	1.49e+00	0	41	104	0	78	24473
2026-01-04 01:22:37.92	2.45	8.36	-53.5	-69.2	3.8	1.49e+00	0	41	104	0	78	22101
2026-01-04 01:22:38.93	2.35	8.43	-53.5	-67.5	4.1	1.49e+00	0	41	104	0	78	18219
2026-01-04 01:22:39.93	2.25	8.49	-53.5	-65.8	4.7	1.05e+00	0	41	0	0	78	14927
2026-01-04 01:22:40.94	2.15	8.56	-53.3	-63.8	5.8	5.46e-01	0	41	0	2097152	78	11868
2026-01-04 01:22:41.94	2.05	8.63	-53.1	-62.3	7.0	2.34e-01	0	41	0	4194304	78	9998
2026-01-04 01:22:42.94	1.95	8.69	-52.9	-61.1	8.2	9.19e-02	0	41	0	6291456	77	9239
2026-01-04 01:22:43.95	1.85	8.76	-52.7	-60.2	9.2	2.69e-02	0	41	0	7340032	77	8303
2026-01-04 01:22:44.95	1.75	8.83	-52.5	-59.7	9.6	1.57e-02	0	41	0	9437184	77	7851
2026-01-04 01:22:45.96	1.65	8.90	-52.5	-59.8	9.6	1.24e-02	0	41	0	11534336	76	8402
2026-01-04 01:22:46.96	1.55	8.96	-52.5	-59.7	9.6	1.19e-02	0	41	0	13631488	76	8287
2026-01-04 01:22:47.96	1.45	9.03	-52.7	-60.4	8.9	1.83e-02	0	41	0	15728640	76	9045
2026-01-04 01:22:48.97	1.35	9.10	-53.4	-62.6	6.8	7.53e-02	0	41	0	16777216	77	10936
2026-01-04 01:22:49.97	1.24	9.17	-52.2	-59.9	9.5	1.59e-02	0	41	0	18874368	76	8479
2026-01-04 01:22:50.97	1.14	9.23	-53.2	-63.6	5.9	8.07e-02	0	41	0	20971520	77	12362
2026-01-04 01:22:51.98	1.03	9.30	-54.0	-67.5	4.1	7.37e-01	0	41	0	22020096	78	18246
2026-01-04 01:22:52.98	0.93	9.37	-50.3	-54.6	14.7	3.93e-01	0	41	0	24117248	72	5832
2026-01-04 01:22:53.98	0.83	9.44	-50.2	-54.3	14.9	0.00e+00	0	41	0	26214400	72	5633
2026-01-04 01:22:54.99	0.72	9.51	-50.2	-54.2	15.1	0.00e+00	0	41	0	27262976	72	5546
2026-01-04 01:22:55.99	0.61	9.57	-50.3	-54.3	15.0	0.00e+00	0	41	0	29360128	72	5609
2026-01-04 01:22:56.99	0.51	9.64	-50.2	-54.0	15.2	0.00e+00	0	41	0	31457280	72	5418
2026-01-04 01:22:57.99	0.40	9.71	-50.2	-54.1	15.1	0.00e+00	0	41	0	33554432	72	5500
2026-01-04 01:22:58.99	0.29	9.78	-50.2	-54.1	15.1	6.10e-06	0	41	0	35651584	72	5481
2026-01-04 01:22:59.99	0.19	9.85	-50.1	-53.8	15.4	0.00e+00	0	41	0	36700160	72	5303
2026-01-04 01:23:01.00	0.08	9.92	-50.1	-53.7	15.3	7.00e-07	0	41	0	38797312	72	5276
2026-01-04 01:23:01.99	359.97	9.98	-50.4	-54.2	15.2	0.00e+00	0	41	0	40894464	72	5543
2026-01-04 01:23:03.00	359.86	10.05	-50.6	-54.4	14.9	5.87e-05	0	41	0	42991616	72	5694
2026-01-04 01:23:04.00	359.75	10.12	-50.0	-53.8	15.0	0.00e+00	0	41	0	45088768	71	5635
2026-01-04 01:23:05.00	359.64	10.19	-49.9	-53.6	15.2	1.50e-06	0	41	0	46137344	71	5502
2026-01-04 01:23:06.00	359.53	10.26	-49.7	-53.4	15.2	3.00e-06	0	41	0	48234496	71	5391
2026-01-04 01:23:07.00	359.42	10.33	-50.0	-53.6	15.3	0.00e+00	0	41	0	50331648	71	5505
2026-01-04 01:23:08.01	359.30	10.40	-49.9	-53.5	15.5	0.00e+00	0	41	0	52428800	71	5443
2026-01-04 01:23:09.01	359.19	10.47	-49.8	-53.5	15.4	0.00e+00	0	41	0	54525952	71	5406
2026-01-04 01:23:10.01	359.08	10.54	-49.8	-53.4	15.5	0.00e+00	0	41	0	55574528	71	5350
2026-01-04 01:23:11.01	358.96	10.60	-49.7	-53.3	15.6	0.00e+00	0	41	0	57671680	71	5284
2026-01-04 01:23:12.02	358.85	10.67	-49.7	-53.4	15.4	0.00e+00	0	41	0	59768832	71	5352
2026-01-04 01:23:13.02	358.73	10.74	-49.7	-53.4	15.5	3.80e-06	0	41	0	61865984	71	5342
2026-01-04 01:23:14.02	358.62	10.81	-49.7	-53.4	15.5	8.30e-06	0	41	0	63963136	71	5351
2026-01-04 01:23:15.02	358.50	10.88	-49.6	-53.2	15.7	0.00e+00	0	41	0	65011712	71	5227
2026-01-04 01:23:16.02	358.39	10.95	-49.7	-53.3	15.6	0.00e+00	0	41	0	67108864	71	5330
2026-01-04 01:23:17.03	358.27	11.02	-49.8	-53.5	15.4	0.00e+00	0	41	0	69206016	71	5438
2026-01-04 01:23:18.03	358.15	11.09	-49.7	-53.3	15.5	0.00e+00	0	41	0	71303168	71	5327
2026-01-04 01:23:19.03	358.03	11.16	-49.7	-53.4	15.4	0.00e+00	0	41	0	72351744	71	5379
2026-01-04 01:23:20.03	357.91	11.23	-49.8	-53.6	15.1	0.00e+00	0	41	0	74448896	71	5511
2026-01-04 01:23:21.04	357.79	11.30	-49.7	-53.4	15.3	0.00e+00	0	41	0	76546048	71	5378
2026-01-04 01:23:22.04	357.67	11.37	-50.0	-53.7	15.3	0.00e+00	0	41	0	78643200	71	5580
2026-01-04 01:23:23.04	357.55	11.44	-50.1	-53.9	15.4	7.00e-07	0	41	0	80740352	71	5678
2026-01-04 01:23:24.05	357.43	11.52	-50.1	-54.0	15.1	0.00e+00	0	41	0	81788928	71	5751
2026-01-04 01:23:25.05	357.31	11.59	-50.0	-53.9	15.2	0.00e+00	0	41	0	83886080	71	5661
2026-01-04 01:23:26.05	357.18	11.66	-50.1	-54.1	15.0	0.00e+00	0	41	0	85983232	71	5804
2026-01-04 01:23:27.06	357.06	11.73	-50.0	-54.0	14.9	0.00e+00	0	41	0	88080384	71	5780
2026-01-04 01:23:28.06	356.94	11.80	-50.2	-54.3	14.6	0.00e+00	0	41	0	90177536	71	5990
2026-01-04 01:23:29.06	356.81	11.87	-50.3	-54.4	14.5	1.50e-06	0	41	0	91226112	71	6026
2026-01-04 01:23:30.07	356.69	11.94	-50.1	-54.3	14.5	2.20e-06	0	41	0	93323264	71	5965
2026-01-04 01:23:31.07	356.56	12.01	-50.1	-54.2	14.5	0.00e+00	0	41	0	95420416	71	5922
2026-01-04 01:23:32.07	356.44	12.08	-50.2	-54.3	14.5	1.50e-06	0	41	0	97517568	71	5979
2026-01-04 01:23:33.08	356.31	12.15	-50.6	-54.8	14.5	1.67e-05	0	41	0	99614720	71	6283
2026-01-04 01:23:34.08	356.18	12.23	-50.2	-54.4	14.4	1.50e-06	0	41	0	100663296	71	6061
2026-01-04 01:23:35.08	356.05	12.30	-50.1	-54.4	14.5	2.21e-05	0	41	0	102760448	71	6014
2026-01-04 01:23:36.08	355.92	12.37	-50.0	-54.1	14.7	7.60e-06	0	41	0	104857600	71	5817
2026-01-04 01:23:37.09	355.79	12.44	-49.6	-53.5	15.3	7.00e-07	0	41	0	106954752	71	5445
2026-01-04 01:23:38.09	355.66	12.51	-50.1	-53.9	15.4	0.00e+00	0	41	0	109051904	71	5657
2026-01-04 01:23:39.17	355.52	12.59	-49.9	-53.6	15.6	0.00e+00	0	41	0	111149056	71	5504
2026-01-04 01:23:40.07	355.40	12.65	-49.8	-53.4	15.8	0.00e+00	0	41	0	112197632	71	5402
2026-01-04 01:23:41.10	355.27	12.73	-49.5	-53.0	16.1	0.00e+00	0	41	0	114294784	70	5443
2026-01-04 01:23:42.10	355.14	12.80	-49.6	-53.0	16.1	0.00e+00	0	41	0	116391936	70	5464
2026-01-04 01:23:43.10	355.00	12.87	-49.4	-52.8	16.3	0.00e+00	0	41	0	117440512	70	5317
2026-01-04 01:23:44.37	354.83	12.96	-49.1	-52.5	16.4	7.60e-06	0	41	0	120586240	70	5131
2026-01-04 01:23:45.12	354.73	13.01	-49.2	-52.5	16.5	3.80e-06	0	41	0	121634816	70	5154
2026-01-04 01:23:46.41	354.56	13.11	-49.1	-52.4	16.6	0.00e+00	0	41	0	123731968	70	5100
2026-01-04 01:23:47.12	354.46	13.16	-49.1	-52.4	16.6	0.00e+00	0	41	0	125829120	70	5095
2026-01-04 01:23:48.78	354.23	13.28	-49.0	-52.5	16.4	0.00e+00	0	41	0	128974848	70	5104
2026-01-04 01:23:49.35	354.15	13.32	-49.0	-52.4	16.5	0.00e+00	0	41	0	130023424	70	5060
2026-01-04 01:23:50.94	353.93	13.43	-48.9	-52.1	16.7	0.00e+00	0	41	0	133169152	69	5206
2026-01-04 01:23:51.52	353.85	13.47	-48.7	-51.8	16.8	0.00e+00	0	41	0	134217728	69	5037
2026-01-04 01:23:53.09	353.63	13.59	-48.8	-51.9	16.7	0.00e+00	0	41	0	136314880	69	5089
2026-01-04 01:23:53.81	353.53	13.64	-49.0	-52.2	16.7	0.00e+00	0	41	0	138412032	69	5232
2026-01-04 01:23:55.10	353.35	13.73	-48.6	-51.8	16.8	5.12e-04	0	41	0	140509184	68	5288
2026-01-04 01:23:55.81	353.25	13.78	-49.1	-52.3	16.6	6.86e-05	0	42	0	141557760	68	5618
2026-01-04 01:23:57.10	353.07	13.88	-48.9	-52.1	16.5	0.00e+00	0	41	0	144703488	69	5186
2026-01-04 01:23:57.82	352.96	13.93	-48.9	-52.1	16.7	3.80e-06	0	41	0	145752064	69	5188
2026-01-04 01:23:59.17	352.77	14.03	-49.0	-52.2	16.5	0.00e+00	0	41	0	147849216	69	5264
2026-01-04 01:23:59.89	352.66	14.08	-49.1	-52.2	16.6	0.00e+00	0	41	0	149946368	69	5279
2026-01-04 01:24:01.26	352.46	14.18	-49.1	-52.2	16.7	0.00e+00	0	41	0	152043520	69	5232
2026-01-04 01:24:01.97	352.36	14.23	-49.1	-52.2	16.7	0.00e+00	0	41	0	153092096	69	5240
2026-01-04 01:24:03.26	352.17	14.32	-49.4	-52.5	16.7	0.00e+00	0	41	0	156237824	69	5404
2026-01-04 01:24:03.97	352.07	14.37	-49.5	-52.4	16.8	0.00e+00	0	41	0	157286400	69	5380
2026-01-04 01:24:05.26	351.87	14.47	-49.3	-52.1	17.1	0.00e+00	0	41	0	159383552	69	5201
2026-01-04 01:24:05.98	351.77	14.52	-49.5	-52.4	16.9	0.00e+00	0	41	0	160432128	69	5377
2026-01-04 01:24:07.27	351.57	14.61	-49.3	-52.3	16.9	0.00e+00	0	41	0	163577856	69	5280
2026-01-04 01:24:08.00	351.46	14.67	-49.1	-52.0	17.2	0.00e+00	0	41	0	164626432	69	5142
2026-01-04 01:24:09.29	351.27	14.76	-49.1	-52.1	17.0	0.00e+00	0	41	0	166723584	69	5208
2026-01-04 01:24:10.01	351.16	14.81	-49.1	-52.1	17.0	1.50e-06	0	41	0	168820736	69	5210
2026-01-04 01:24:11.29	350.96	14.91	-49.4	-52.5	16.8	0.00e+00	0	41	0	170917888	69	5431
2026-01-04 01:24:12.01	350.85	14.96	-49.3	-52.3	16.9	0.00e+00	0	42	0	171966464	69	5314
2026-01-04 01:24:13.30	350.65	15.05	-49.3	-52.4	17.0	0.00e+00	0	41	0	174063616	69	5343
2026-01-04 01:24:14.01	350.54	15.10	-49.6	-52.7	16.6	0.00e+00	0	41	0	176160768	69	5553
2026-01-04 01:24:15.30	350.34	15.20	-49.6	-52.8	16.5	0.00e+00	0	41	0	178257920	70	5286
2026-01-04 01:24:16.02	350.22	15.25	-49.6	-52.7	16.4	0.00e+00	0	41	0	179306496	70	5276
2026-01-04 01:24:17.30	350.02	15.34	-49.7	-52.9	16.3	1.50e-06	0	41	0	182452224	70	5366
2026-01-04 01:24:18.02	349.91	15.39	-49.6	-52.8	16.4	0.00e+00	0	41	0	183500800	70	5287
2026-01-04 01:24:19.31	349.70	15.49	-49.6	-52.8	16.5	0.00e+00	0	41	0	185597952	70	5290
2026-01-04 01:24:20.03	349.59	15.54	-49.6	-52.8	16.4	0.00e+00	0	42	0	187695104	70	5301
2026-01-04 01:24:21.32	349.38	15.63	-49.5	-52.7	16.2	7.00e-07	0	41	0	189792256	70	5272
2026-01-04 01:24:22.04	349.26	15.69	-49.7	-53.1	15.9	0.00e+00	0	41	0	190840832	70	5475
2026-01-04 01:24:23.33	349.05	15.78	-49.7	-53.1	15.8	3.00e-06	0	41	0	192937984	70	5500
2026-01-04 01:24:24.04	348.94	15.83	-49.8	-53.2	15.8	4.50e-06	0	42	0	195035136	70	5584
2026-01-04 01:24:25.33	348.73	15.92	-49.9	-53.5	15.5	0.00e+00	0	41	0	197132288	70	5724
2026-01-04 01:24:26.19	348.58	15.99	-49.7	-53.3	15.5	0.00e+00	0	42	0	199229440	70	5634
2026-01-04 01:24:27.34	348.39	16.07	-49.8	-53.5	15.5	7.00e-07	0	41	0	201326592	70	5734
2026-01-04 01:24:28.20	348.25	16.13	-50.1	-53.7	15.5	2.20e-06	0	41	0	202375168	70	5883
2026-01-04 01:24:29.34	348.06	16.21	-49.8	-53.4	15.8	0.00e+00	0	41	0	204472320	70	5671
2026-01-04 01:24:30.20	347.91	16.28	-49.7	-53.2	16.0	0.00e+00	0	41	0	206569472	70	5541
2026-01-04 01:24:31.35	347.72	16.36	-49.6	-53.0	16.2	0.00e+00	0	41	0	208666624	70	5409
2026-01-04 01:24:32.21	347.57	16.42	-49.3	-52.7	16.2	0.00e+00	0	42	0	209715200	70	5226
2026-01-04 01:24:33.36	347.38	16.51	-49.4	-52.6	16.2	0.00e+00	0	41	0	211812352	70	5181
2026-01-04 01:24:34.22	347.23	16.57	-49.4	-52.7	16.1	0.00e+00	0	42	0	213909504	70	5246
2026-01-04 01:24:35.36	347.03	16.65	-49.5	-52.7	16.3	4.99e-04	0	41	0	216006656	69	5559
2026-01-04 01:24:36.22	346.88	16.71	-49.7	-53.0	15.8	0.00e+00	0	41	0	218103808	70	5464
2026-01-04 01:24:37.50	346.66	16.80	-49.7	-53.4	15.5	0.00e+00	0	41	0	220200960	70	5670
2026-01-04 01:24:38.23	346.53	16.86	-49.5	-53.2	15.6	2.44e-05	0	42	0	221249536	70	5564
2026-01-04 01:24:39.52	346.30	16.95	-49.3	-53.2	15.6	2.20e-06	0	41	0	223346688	70	5545
2026-01-04 01:24:40.24	346.18	17.00	-48.8	-52.6	15.9	0.00e+00	0	41	0	225443840	69	5510
2026-01-04 01:24:41.52	345.95	17.09	-48.5	-52.2	16.4	0.00e+00	0	41	0	227540992	69	5223
2026-01-04 01:24:42.24	345.82	17.14	-48.3	-51.8	16.6	0.00e+00	0	41	0	228589568	68	5327
2026-01-04 01:24:43.85	345.53	17.26	-48.3	-51.6	16.9	0.00e+00	0	41	0	231735296	68	5202
2026-01-04 01:24:44.42	345.43	17.30	-48.4	-51.7	16.8	0.00e+00	0	41	0	232783872	68	5246
2026-01-04 01:24:46.01	345.14	17.41	-48.6	-51.6	16.8	0.00e+00	0	41	0	235929600	68	5218
2026-01-04 01:24:46.59	345.03	17.45	-48.8	-51.9	16.6	0.00e+00	0	41	0	236978176	68	5392
2026-01-04 01:24:48.17	344.74	17.57	-49.3	-52.5	16.0	0.00e+00	0	41	0	240123904	69	5438
2026-01-04 01:24:48.90	344.61	17.62	-49.6	-52.8	15.7	0.00e+00	0	41	0	241172480	69	5653
2026-01-04 01:24:50.19	344.37	17.71	-49.5	-52.9	15.5	0.00e+00	0	41	0	243269632	69	5683
2026-01-04 01:24:50.91	344.24	17.76	-49.5	-52.9	15.6	0.00e+00	0	41	0	245366784	69	5670
2026-01-04 01:24:52.20	343.99	17.85	-49.2	-52.5	15.9	0.00e+00	0	41	0	247463936	69	5435
2026-01-04 01:24:52.91	343.86	17.90	-48.8	-52.0	16.3	0.00e+00	0	41	0	248512512	69	5157
2026-01-04 01:24:54.23	343.61	18.00	-48.9	-52.1	16.6	0.00e+00	0	41	0	251658240	69	5213
2026-01-04 01:24:54.95	343.47	18.05	-48.8	-51.9	16.7	0.00e+00	0	41	0	252706816	69	5091
2026-01-04 01:24:56.24	343.23	18.14	-49.0	-52.0	16.7	0.00e+00	0	41	0	254803968	69	5122
2026-01-04 01:24:56.95	343.09	18.19	-49.0	-52.0	16.7	0.00e+00	0	41	0	256901120	69	5135
2026-01-04 01:24:58.24	342.84	18.28	-48.9	-51.8	16.8	0.00e+00	0	42	0	258998272	69	4987
2026-01-04 01:24:58.96	342.70	18.33	-49.4	-52.5	16.1	0.00e+00	0	41	0	260046848	69	5415
2026-01-04 01:25:00.24	342.46	18.42	-49.2	-52.2	16.3	1.83e-05	0	41	0	262144000	69	5257
2026-01-04 01:25:00.96	342.31	18.47	-49.4	-52.6	15.9	1.60e-05	0	41	0	264241152	69	5495
2026-01-04 01:25:02.25	342.06	18.56	-49.6	-53.0	15.7	1.37e-05	0	41	0	266338304	70	5405
2026-01-04 01:25:03.06	341.90	18.61	-49.3	-52.6	15.9	4.95e-05	0	41	0	267386880	70	5167
2026-01-04 01:25:04.52	341.61	18.71	-49.1	-52.3	16.2	0.00e+00	0	41	0	270532608	70	5011
2026-01-04 01:25:05.24	341.47	18.76	-48.8	-51.9	16.5	0.00e+00	0	41	0	271581184	69	5056
2026-01-04 01:25:06.74	341.17	18.87	-48.9	-51.9	16.8	0.00e+00	0	41	0	274726912	69	5050
2026-01-04 01:25:07.46	341.02	18.92	-48.8	-51.7	16.9	0.00e+00	0	41	0	275775488	69	4952
2026-01-04 01:25:08.74	340.76	19.00	-49.0	-51.9	17.1	0.00e+00	0	41	0	278921216	68	5346
2026-01-04 01:25:09.46	340.62	19.05	-49.1	-51.9	17.0	0.00e+00	0	41	0	279969792	69	5066
2026-01-04 01:25:10.74	340.36	19.14	-49.2	-52.2	16.7	0.00e+00	0	41	0	282066944	69	5231
2026-01-04 01:25:11.46	340.21	19.19	-49.3	-52.4	16.5	0.00e+00	0	41	0	283115520	69	5353
2026-01-04 01:25:12.75	339.94	19.27	-49.3	-52.4	16.6	3.80e-06	0	42	0	286261248	69	5355
2026-01-04 01:25:13.47	339.80	19.32	-49.2	-52.4	16.5	0.00e+00	0	41	0	287309824	69	5373
2026-01-04 01:25:14.76	339.53	19.41	-48.5	-51.7	16.9	0.00e+00	0	41	0	289406976	69	4927
2026-01-04 01:25:15.47	339.38	19.46	-48.3	-51.5	17.1	0.00e+00	0	41	0	291504128	68	5106
2026-01-04 01:25:16.76	339.11	19.54	-47.9	-50.9	17.5	2.13e-05	0	41	0	293601280	67	5077
2026-01-04 01:25:17.48	338.96	19.59	-47.6	-50.5	17.8	1.06e-05	0	41	0	294649856	66	5127
2026-01-04 01:25:18.77	338.68	19.68	-47.6	-50.3	17.9	0.00e+00	0	41	0	297795584	66	5032
2026-01-04 01:25:19.49	338.53	19.72	-47.5	-50.3	17.9	0.00e+00	0	41	0	298844160	66	5010
2026-01-04 01:25:20.79	338.25	19.81	-47.6	-50.3	18.0	0.00e+00	0	41	0	300941312	66	5010
2026-01-04 01:25:21.51	338.10	19.86	-47.9	-50.6	17.9	0.00e+00	0	41	0	301989888	66	5210
2026-01-04 01:25:22.86	337.81	19.94	-47.8	-50.6	17.8	0.00e+00	0	41	0	305135616	66	5189
2026-01-04 01:25:23.57	337.66	19.99	-47.6	-50.4	18.0	0.00e+00	0	41	0	306184192	66	5056
2026-01-04 01:25:24.87	337.37	20.07	-47.2	-50.0	18.2	0.00e+00	0	41	0	308281344	66	4869
2026-01-04 01:25:25.58	337.22	20.12	-47.1	-50.0	18.2	0.00e+00	0	41	0	310378496	66	4826
2026-01-04 01:25:26.87	336.94	20.20	-47.1	-49.9	18.4	0.00e+00	0	41	0	312475648	65	5078
2026-01-04 01:25:27.59	336.78	20.25	-47.0	-49.8	18.4	0.00e+00	0	41	0	313524224	65	5021
2026-01-04 01:25:29.06	336.45	20.34	-47.1	-49.9	18.3	0.00e+00	0	41	0	316669952	65	5059
2026-01-04 01:25:30.04	336.23	20.40	-47.3	-50.0	18.2	0.00e+00	0	41	0	318767104	65	5145
2026-01-04 01:25:31.04	336.01	20.47	-47.4	-50.1	18.0	0.00e+00	0	41	0	320864256	65	5208
2026-01-04 01:25:32.04	335.79	20.53	-47.5	-50.2	18.0	0.00e+00	0	41	0	321912832	65	5264
2026-01-04 01:25:33.04	335.56	20.59	-47.7	-50.4	17.9	0.00e+00	0	41	0	324009984	66	5093
2026-01-04 01:25:34.05	335.33	20.66	-47.5	-50.3	18.0	0.00e+00	0	41	0	326107136	66	4984
2026-01-04 01:25:35.05	335.11	20.72	-47.5	-50.2	18.2	0.00e+00	0	42	0	328204288	66	4947
2026-01-04 01:25:36.05	334.88	20.78	-47.3	-49.9	18.4	0.00e+00	0	41	0	329252864	66	4792
2026-01-04 01:25:37.05	334.65	20.84	-47.2	-49.8	18.5	0.00e+00	0	41	0	331350016	66	4731
2026-01-04 01:25:38.05	334.42	20.90	-47.1	-49.7	18.6	0.00e+00	0	41	0	333447168	66	4678
2026-01-04 01:25:39.05	334.19	20.96	-47.0	-49.6	18.6	0.00e+00	0	42	0	335544320	65	4885
2026-01-04 01:25:40.06	333.96	21.02	-47.0	-49.5	18.7	0.00e+00	0	41	0	337641472	65	4852
2026-01-04 01:25:41.06	333.73	21.08	-46.9	-49.4	18.7	0.00e+00	0	41	0	338690048	65	4808
2026-01-04 01:25:42.06	333.49	21.14	-47.1	-49.7	18.5	0.00e+00	0	41	0	340787200	65	4965
2026-01-04 01:25:43.07	333.26	21.20	-47.1	-49.7	18.5	0.00e+00	0	41	0	342884352	65	4949
2026-01-04 01:25:44.07	333.02	21.26	-47.1	-49.6	18.5	0.00e+00	0	42	0	344981504	65	4923
2026-01-04 01:25:45.07	332.79	21.32	-47.2	-49.7	18.6	0.00e+00	0	41	0	347078656	65	4936
2026-01-04 01:25:46.07	332.55	21.37	-46.8	-49.2	19.0	0.00e+00	0	41	0	348127232	65	4691
2026-01-04 01:25:47.07	332.31	21.43	-46.6	-48.9	19.2	0.00e+00	0	41	0	350224384	65	4531
2026-01-04 01:25:48.08	332.07	21.49	-46.4	-48.7	19.4	0.00e+00	0	41	0	352321536	64	4699
2026-01-04 01:25:49.08	331.83	21.55	-46.5	-48.9	19.2	0.00e+00	0	41	0	354418688	64	4813
2026-01-04 01:25:50.16	331.57	21.61	-46.5	-49.0	19.1	0.00e+00	0	41	0	356515840	64	4847
2026-01-04 01:25:51.06	331.35	21.66	-46.7	-49.3	18.8	0.00e+00	0	41	0	357564416	64	5005
2026-01-04 01:25:52.20	331.08	21.72	-46.8	-49.4	18.8	0.00e+00	0	41	0	359661568	64	5059
2026-01-04 01:25:53.06	330.87	21.77	-47.0	-49.7	18.5	0.00e+00	0	41	0	361758720	64	5231
2026-01-04 01:25:54.21	330.59	21.83	-46.7	-49.3	18.7	0.00e+00	0	41	0	363855872	64	5022
2026-01-04 01:25:55.07	330.38	21.88	-46.7	-49.2	18.8	0.00e+00	0	41	0	364904448	64	4983
2026-01-04 01:25:56.21	330.10	21.94	-46.6	-49.1	19.0	0.00e+00	0	41	0	367001600	64	4871
2026-01-04 01:25:57.07	329.89	21.98	-46.5	-48.9	19.1	0.00e+00	0	41	0	369098752	64	4766
2026-01-04 01:25:58.21	329.60	22.04	-46.6	-49.0	19.1	0.00e+00	0	41	0	371195904	64	4820
2026-01-04 01:25:59.07	329.39	22.09	-46.8	-49.2	19.1	0.00e+00	0	41	0	373293056	64	4957
2026-01-04 01:26:00.22	329.10	22.15	-47.0	-49.4	19.0	0.00e+00	0	41	0	375390208	64	5069
2026-01-04 01:26:01.08	328.89	22.19	-47.0	-49.4	18.9	0.00e+00	0	41	0	376438784	64	5082
2026-01-04 01:26:02.23	328.60	22.25	-47.1	-49.5	18.7	1.52e-05	0	41	0	378535936	64	5138
2026-01-04 01:26:03.09	328.38	22.29	-46.8	-49.2	18.9	0.00e+00	0	41	0	380633088	64	4965
2026-01-04 01:26:04.23	328.10	22.35	-46.8	-49.2	18.9	0.00e+00	0	41	0	382730240	64	4970
2026-01-04 01:26:05.09	327.88	22.39	-46.6	-48.9	19.2	0.00e+00	0	41	0	383778816	64	4802
2026-01-04 01:26:06.24	327.59	22.45	-46.5	-48.8	19.3	0.00e+00	0	42	0	385875968	64	4727
2026-01-04 01:26:07.10	327.37	22.49	-46.4	-48.8	19.2	0.00e+00	0	41	0	387973120	64	4731
2026-01-04 01:26:08.24	327.08	22.54	-46.4	-48.8	19.2	0.00e+00	0	41	0	390070272	64	4739
2026-01-04 01:26:09.10	326.85	22.58	-46.5	-49.0	19.1	0.00e+00	0	41	0	392167424	64	4843
2026-01-04 01:26:10.25	326.56	22.64	-46.8	-49.4	18.9	0.00e+00	0	41	0	394264576	64	5044
2026-01-04 01:26:11.11	326.34	22.68	-46.9	-49.6	18.7	0.00e+00	0	41	0	395313152	64	5184
2026-01-04 01:26:12.26	326.04	22.73	-47.1	-49.8	18.6	0.00e+00	0	41	0	397410304	64	5318
2026-01-04 01:26:13.12	325.82	22.77	-47.2	-49.9	18.6	1.50e-06	0	41	0	399507456	65	5070
2026-01-04 01:26:14.26	325.52	22.82	-47.1	-49.6	18.8	0.00e+00	0	41	0	401604608	65	4894
2026-01-04 01:26:15.12	325.30	22.86	-46.8	-49.2	19.0	0.00e+00	0	41	0	402653184	65	4699
2026-01-04 01:26:16.27	324.99	22.91	-46.7	-49.1	19.2	0.00e+00	0	41	0	404750336	65	4602
2026-01-04 01:26:17.12	324.77	22.94	-46.7	-49.0	19.2	0.00e+00	0	41	0	406847488	65	4589
2026-01-04 01:26:18.27	324.47	22.99	-47.2	-49.6	19.0	6.10e-06	0	41	0	408944640	65	4872
2026-01-04 01:26:19.13	324.24	23.03	-47.2	-49.6	19.0	3.00e-06	0	41	0	411041792	65	4871
2026-01-04 01:26:20.43	323.90	23.08	-47.2	-49.7	18.8	0.00e+00	0	41	0	413138944	65	4929
2026-01-04 01:26:21.15	323.71	23.11	-47.1	-49.5	18.7	3.00e-06	0	41	0	414187520	65	4856
2026-01-04 01:26:22.65	323.31	23.17	-47.5	-49.9	18.6	0.00e+00	0	41	0	417333248	65	5097
2026-01-04 01:26:23.36	323.12	23.20	-47.1	-49.5	18.9	0.00e+00	0	41	0	418381824	65	4847
2026-01-04 01:26:24.65	322.77	23.25	-46.8	-49.2	19.1	0.00e+00	0	41	0	420478976	65	4675
2026-01-04 01:26:25.37	322.58	23.27	-46.4	-48.7	19.4	0.00e+00	0	41	0	422576128	64	4699
2026-01-04 01:26:26.79	322.20	23.33	-46.3	-48.6	19.6	0.00e+00	0	41	0	424673280	64	4645
2026-01-04 01:26:27.50	322.00	23.35	-46.0	-48.3	19.8	0.00e+00	0	41	0	425721856	63	4725
2026-01-04 01:26:28.79	321.66	23.40	-46.0	-48.3	19.8	2.20e-06	0	41	0	428867584	63	4709
2026-01-04 01:26:29.51	321.46	23.42	-46.0	-48.3	19.8	0.00e+00	0	41	0	429916160	63	4706
2026-01-04 01:26:30.80	321.11	23.47	-46.5	-48.9	19.3	4.50e-06	0	41	0	432013312	63	5052
2026-01-04 01:26:31.51	320.92	23.49	-46.9	-49.3	18.9	2.20e-06	0	41	0	434110464	64	5013
2026-01-04 01:26:32.81	320.56	23.54	-47.2	-49.7	18.5	0.00e+00	0	41	0	436207616	64	5229
2026-01-04 01:26:33.52	320.37	23.56	-47.1	-49.6	18.5	0.00e+00	0	41	0	437256192	65	4924
2026-01-04 01:26:34.81	320.01	23.60	-47.2	-49.7	18.4	0.00e+00	0	41	0	440401920	65	4959
2026-01-04 01:26:35.53	319.82	23.62	-47.1	-49.7	18.4	7.00e-07	0	41	0	441450496	65	4955
2026-01-04 01:26:36.82	319.46	23.66	-47.7	-50.3	18.0	0.00e+00	0	41	0	443547648	66	5035
2026-01-04 01:26:37.53	319.27	23.68	-47.9	-50.7	17.7	1.50e-06	0	41	0	444596224	66	5222
2026-01-04 01:26:38.82	318.91	23.72	-48.4	-51.3	17.1	0.00e+00	0	41	0	447741952	67	5324
2026-01-04 01:26:39.54	318.71	23.74	-48.6	-51.5	16.8	0.00e+00	0	41	0	448790528	67	5457
2026-01-04 01:26:40.83	318.35	23.78	-48.8	-52.0	16.5	1.50e-06	0	41	0	450887680	68	5418
2026-01-04 01:26:41.54	318.16	23.80	-48.9	-52.0	16.5	0.00e+00	0	41	0	452984832	68	5419
2026-01-04 01:26:42.83	317.80	23.83	-48.6	-51.6	16.8	0.00e+00	0	41	0	455081984	68	5206
2026-01-04 01:26:43.55	317.60	23.85	-48.5	-51.5	17.0	0.00e+00	0	41	0	456130560	68	5124
2026-01-04 01:26:44.84	317.24	23.88	-48.4	-51.3	17.2	0.00e+00	0	41	0	458227712	68	5001
2026-01-04 01:26:45.55	317.04	23.90	-48.0	-50.7	17.6	0.00e+00	0	41	0	460324864	68	4685
2026-01-04 01:26:46.84	316.68	23.93	-47.6	-50.3	17.9	0.00e+00	0	41	0	462422016	67	4723
2026-01-04 01:26:47.67	316.44	23.95	-47.6	-50.2	17.9	0.00e+00	0	41	0	464519168	67	4687
2026-01-04 01:26:49.14	316.03	23.98	-47.4	-50.0	18.1	0.00e+00	0	41	0	466616320	66	4854
2026-01-04 01:26:49.85	315.83	23.99	-47.4	-50.0	18.1	0.00e+00	0	41	0	467664896	66	4857
2026-01-04 01:26:51.14	315.47	24.02	-47.5	-50.1	17.9	0.00e+00	0	41	0	470810624	66	4924
2026-01-04 01:26:51.85	315.27	24.03	-47.6	-50.2	17.9	0.00e+00	0	41	0	471859200	66	4947
2026-01-04 01:26:53.14	314.90	24.06	-47.7	-50.4	17.8	0.00e+00	0	41	0	473956352	66	5049
2026-01-04 01:26:53.87	314.70	24.07	-47.6	-50.3	17.8	0.00e+00	0	41	0	476053504	66	4995
2026-01-04 01:26:55.16	314.33	24.10	-47.9	-50.7	17.4	0.00e+00	0	41	0	478150656	66	5243
2026-01-04 01:26:55.97	314.10	24.11	-47.9	-50.7	17.4	0.00e+00	0	41	0	479199232	66	5222
2026-01-04 01:26:57.12	313.78	24.13	-48.1	-50.9	17.3	0.00e+00	0	41	0	481296384	66	5342
2026-01-04 01:26:57.97	313.53	24.14	-48.0	-50.8	17.4	0.00e+00	0	41	0	483393536	66	5289
2026-01-04 01:26:59.12	313.21	24.16	-48.0	-50.8	17.4	0.00e+00	0	41	0	485490688	66	5290
2026-01-04 01:26:59.98	312.96	24.17	-47.9	-50.7	17.4	0.00e+00	0	41	0	487587840	66	5272
2026-01-04 01:27:01.12	312.64	24.18	-48.3	-51.3	17.0	0.00e+00	0	41	0	489684992	67	5281
2026-01-04 01:27:01.99	312.39	24.19	-48.5	-51.6	16.6	0.00e+00	0	41	0	490733568	67	5498
2026-01-04 01:27:03.13	312.07	24.21	-49.0	-52.3	16.1	0.00e+00	0	41	0	492830720	68	5628
2026-01-04 01:27:04.42	311.70	24.22	-49.0	-52.3	16.2	0.00e+00	0	41	0	495976448	68	5620
2026-01-04 01:27:05.13	311.49	24.23	-49.0	-52.3	16.2	0.00e+00	0	41	0	497025024	68	5605
2026-01-04 01:27:06.42	311.13	24.24	-49.1	-52.3	16.1	0.00e+00	0	41	0	499122176	68	5621
2026-01-04 01:27:07.14	310.92	24.24	-48.6	-51.6	16.8	0.00e+00	0	41	0	500170752	68	5172
2026-01-04 01:27:08.50	310.53	24.25	-48.8	-51.7	16.9	0.00e+00	0	41	0	503316480	68	5275
2026-01-04 01:27:09.22	310.32	24.26	-48.9	-51.9	16.7	1.50e-06	0	41	0	504365056	68	5382
2026-01-04 01:27:10.51	309.95	24.27	-49.4	-52.6	16.1	0.00e+00	0	41	0	506462208	69	5490
2026-01-04 01:27:11.22	309.75	24.27	-49.5	-52.7	16.0	0.00e+00	0	41	0	508559360	69	5547
2026-01-04 01:27:12.52	309.38	24.28	-49.6	-52.7	16.0	3.80e-06	0	41	0	510656512	69	5564
2026-01-04 01:27:13.24	309.17	24.28	-49.2	-52.3	16.2	3.05e-05	0	41	0	511705088	70	5001
2026-01-04 01:27:14.73	308.74	24.28	-49.2	-52.2	16.5	7.00e-07	0	41	0	514850816	69	5266
2026-01-04 01:27:15.45	308.54	24.28	-49.1	-52.0	16.7	0.00e+00	0	41	0	515899392	69	5135
2026-01-04 01:27:16.74	308.17	24.28	-49.1	-52.0	16.7	0.00e+00	0	41	0	519045120	69	5151
2026-01-04 01:27:17.46	307.96	24.28	-48.9	-51.8	16.9	0.00e+00	0	41	0	520093696	69	5004
2026-01-04 01:27:18.75	307.59	24.28	-48.2	-50.9	17.5	0.00e+00	0	41	0	522190848	68	4786
2026-01-04 01:27:19.46	307.39	24.28	-47.8	-50.4	17.8	0.00e+00	0	41	0	523239424	67	4795
2026-01-04 01:27:20.74	307.02	24.28	-47.6	-50.2	18.0	0.00e+00	0	41	0	526385152	67	4690
2026-01-04 01:27:21.46	306.81	24.28	-47.5	-50.1	18.1	0.00e+00	0	41	0	527433728	67	4627
2026-01-04 01:27:22.75	306.44	24.27	-47.7	-50.3	17.8	0.00e+00	0	41	0	529530880	67	4750
2026-01-04 01:27:23.46	306.24	24.27	-47.9	-50.6	17.6	7.00e-07	0	41	0	530579456	67	4901
2026-01-04 01:27:24.75	305.87	24.26	-48.0	-50.8	17.4	0.00e+00	0	41	0	533725184	67	5032
2026-01-04 01:27:25.47	305.66	24.26	-48.2	-51.0	17.2	0.00e+00	0	41	0	534773760	67	5139
2026-01-04 01:27:26.76	305.29	24.25	-48.2	-51.1	17.1	1.60e-05	0	41	0	536870912	67	5203
2026-01-04 01:27:27.68	305.03	24.24	-48.3	-51.2	17.1	0.00e+00	0	41	0	538968064	67	5251
2026-01-04 01:27:28.99	304.66	24.23	-48.9	-51.9	16.9	7.00e-07	0	41	0	541065216	68	5355
2026-01-04 01:27:29.70	304.45	24.22	-49.1	-52.0	16.8	0.00e+00	0	41	0	543162368	68	5450
2026-01-04 01:27:30.99	304.08	24.21	-49.0	-51.9	17.0	0.00e+00	0	41	0	545259520	68	5379
2026-01-04 01:27:31.71	303.88	24.20	-49.0	-51.9	17.0	0.00e+00	0	41	0	546308096	68	5367
2026-01-04 01:27:33.00	303.51	24.19	-48.8	-51.6	17.4	0.00e+00	0	41	0	549453824	68	5171
2026-01-04 01:27:33.71	303.31	24.18	-48.6	-51.3	17.5	0.00e+00	0	41	0	550502400	68	5008
2026-01-04 01:27:35.01	302.94	24.16	-48.3	-50.9	17.9	0.00e+00	0	41	0	552599552	68	4788
2026-01-04 01:27:35.72	302.74	24.15	-48.5	-51.0	18.0	0.00e+00	0	41	0	553648128	68	4868
2026-01-04 01:27:37.09	302.35	24.13	-48.0	-50.5	18.2	0.00e+00	0	41	0	556793856	68	4597
2026-01-04 01:27:37.81	302.14	24.12	-47.8	-50.3	18.2	0.00e+00	0	41	0	557842432	67	4747
2026-01-04 01:27:39.14	301.76	24.10	-47.4	-49.8	18.4	3.00e-06	0	41	0	560988160	66	4755
2026-01-04 01:27:39.86	301.56	24.09	-47.4	-49.8	18.5	0.00e+00	0	41	0	562036736	66	4741
2026-01-04 01:27:41.20	301.18	24.06	-47.2	-49.6	18.7	4.11e-05	0	41	0	564133888	66	4641
2026-01-04 01:27:42.18	300.90	24.04	-47.5	-50.1	18.2	0.00e+00	0	41	0	566231040	66	4871
2026-01-04 01:27:43.19	300.62	24.03	-48.0	-50.6	18.1	1.50e-06	0	41	0	568328192	66	5166
2026-01-04 01:27:44.19	300.34	24.00	-47.7	-50.2	18.0	0.00e+00	0	41	0	570425344	66	4982
2026-01-04 01:27:45.19	300.05	23.98	-47.2	-49.5	18.7	0.00e+00	0	41	0	571473920	66	4581
2026-01-04 01:27:46.19	299.77	23.96	-47.1	-49.4	18.9	0.00e+00	0	41	0	573571072	65	4795
2026-01-04 01:27:47.20	299.49	23.94	-46.9	-49.1	19.1	0.00e+00	0	41	0	575668224	65	4626
2026-01-04 01:27:48.20	299.21	23.92	-46.7	-49.0	19.1	0.00e+00	0	41	0	577765376	65	4558
2026-01-04 01:27:49.25	298.91	23.89	-47.0	-49.2	19.1	3.00e-06	0	41	0	579862528	65	4696
2026-01-04 01:27:50.17	298.66	23.87	-46.8	-49.1	19.1	1.50e-06	0	41	0	580911104	65	4609
2026-01-04 01:27:51.17	298.38	23.84	-46.6	-48.8	19.4	0.00e+00	0	41	0	583008256	65	4446
2026-01-04 01:27:52.36	298.05	23.81	-46.2	-48.3	19.8	0.00e+00	0	41	0	585105408	64	4457
2026-01-04 01:27:53.25	297.80	23.79	-46.0	-48.1	19.9	0.00e+00	0	41	0	587202560	64	4365
2026-01-04 01:27:54.31	297.50	23.76	-45.9	-48.0	20.2	0.00e+00	0	41	0	589299712	63	4553
2026-01-04 01:27:55.17	297.27	23.74	-46.2	-48.3	20.0	0.00e+00	0	41	0	590348288	63	4741
2026-01-04 01:27:56.32	296.95	23.70	-46.3	-48.4	19.8	0.00e+00	0	41	0	592445440	63	4812
2026-01-04 01:27:57.18	296.71	23.68	-46.4	-48.5	19.7	0.00e+00	0	41	0	594542592	63	4842
2026-01-04 01:27:58.33	296.39	23.64	-46.3	-48.4	19.9	0.00e+00	0	41	0	596639744	63	4766
2026-01-04 01:27:59.19	296.15	23.62	-46.4	-48.5	19.8	0.00e+00	0	41	0	597688320	63	4829
2026-01-04 01:28:00.33	295.84	23.58	-46.7	-48.9	19.3	7.00e-07	0	41	0	599785472	64	4773
2026-01-04 01:28:01.19	295.61	23.55	-46.8	-48.9	19.4	0.00e+00	0	41	0	601882624	64	4787
2026-01-04 01:28:02.34	295.29	23.51	-46.7	-48.8	19.4	0.00e+00	0	41	0	603979776	64	4747
2026-01-04 01:28:03.20	295.06	23.49	-46.8	-49.0	19.2	0.00e+00	0	41	0	606076928	64	4859
2026-01-04 01:28:04.45	294.72	23.44	-46.8	-49.0	19.2	0.00e+00	0	41	0	608174080	64	4835
2026-01-04 01:28:05.20	294.51	23.42	-46.9	-49.1	19.1	0.00e+00	0	41	0	609222656	64	4921
2026-01-04 01:28:06.68	294.11	23.36	-47.0	-49.3	18.9	0.00e+00	0	41	0	612368384	64	5017
2026-01-04 01:28:07.65	293.85	23.33	-47.0	-49.3	19.0	0.00e+00	0	41	0	614465536	65	4706
2026-01-04 01:28:08.97	293.49	23.28	-46.9	-49.1	19.1	0.00e+00	0	41	0	616562688	65	4610
2026-01-04 01:28:09.72	293.29	23.25	-47.0	-49.2	19.0	0.00e+00	0	41	0	617611264	65	4671
2026-01-04 01:28:11.02	292.94	23.20	-47.8	-50.2	18.4	0.00e+00	0	41	0	620756992	66	4927
2026-01-04 01:28:11.73	292.75	23.17	-47.8	-50.2	18.3	0.00e+00	0	41	0	621805568	66	4935
2026-01-04 01:28:13.02	292.41	23.12	-48.0	-50.4	18.0	0.00e+00	0	41	0	623902720	66	5100
2026-01-04 01:28:13.74	292.22	23.09	-48.0	-50.4	18.0	0.00e+00	0	41	0	624951296	66	5062
2026-01-04 01:28:15.03	291.87	23.04	-47.6	-50.0	18.3	0.00e+00	0	41	0	628097024	66	4825
2026-01-04 01:28:16.00	291.62	23.00	-47.4	-49.7	18.6	7.00e-07	0	41	0	629145600	66	4662
2026-01-04 01:28:17.00	291.35	22.96	-47.4	-49.7	18.6	0.00e+00	0	41	0	631242752	66	4705
2026-01-04 01:28:18.00	291.09	22.92	-47.5	-49.9	18.4	0.00e+00	0	41	0	633339904	66	4803
2026-01-04 01:28:19.01	290.82	22.87	-47.6	-49.9	18.4	0.00e+00	0	41	0	635437056	66	4806
2026-01-04 01:28:20.01	290.56	22.83	-47.6	-50.0	18.2	0.00e+00	0	41	0	637534208	66	4861
2026-01-04 01:28:21.02	290.30	22.78	-47.9	-50.4	17.9	0.00e+00	0	41	0	638582784	66	5048
2026-01-04 01:28:22.02	290.04	22.74	-48.0	-50.5	17.8	0.00e+00	0	41	0	640679936	66	5113
2026-01-04 01:28:23.02	289.78	22.69	-48.1	-50.6	17.7	0.00e+00	0	41	0	642777088	66	5197
2026-01-04 01:28:24.02	289.52	22.65	-48.1	-50.7	17.7	0.00e+00	0	41	0	644874240	67	4930
2026-01-04 01:28:25.02	289.26	22.60	-48.2	-50.8	17.5	0.00e+00	0	41	0	646971392	67	5005
2026-01-04 01:28:26.03	289.00	22.55	-48.3	-50.9	17.5	0.00e+00	0	41	0	648019968	67	5053
2026-01-04 01:28:27.03	288.74	22.51	-48.4	-51.0	17.3	0.00e+00	0	41	0	650117120	67	5156
2026-01-04 01:28:28.03	288.49	22.46	-49.2	-51.9	16.8	0.00e+00	0	41	0	652214272	69	5094
2026-01-04 01:28:29.03	288.23	22.41	-49.1	-51.9	16.7	2.20e-06	0	41	0	654311424	69	5071
2026-01-04 01:28:30.03	287.98	22.36	-49.0	-51.7	16.9	0.00e+00	0	41	0	656408576	69	4970
2026-01-04 01:28:31.04	287.72	22.31	-48.9	-51.6	17.0	0.00e+00	0	41	0	657457152	69	4883
2026-01-04 01:28:32.04	287.47	22.26	-48.8	-51.5	17.0	0.00e+00	0	41	0	659554304	69	4833
2026-01-04 01:28:33.04	287.22	22.21	-48.6	-51.3	17.3	0.00e+00	0	41	0	661651456	69	4707
2026-01-04 01:28:34.04	286.97	22.16	-48.5	-51.0	17.5	0.00e+00	0	41	0	663748608	68	4861
2026-01-04 01:28:35.04	286.72	22.11	-48.4	-51.0	17.5	0.00e+00	0	41	0	665845760	68	4856
2026-01-04 01:28:36.05	286.47	22.05	-48.4	-51.0	17.5	0.00e+00	0	41	0	666894336	68	4848
2026-01-04 01:28:37.05	286.22	22.00	-48.7	-51.4	17.2	0.00e+00	0	41	0	668991488	68	5077
2026-01-04 01:28:38.05	285.97	21.95	-48.9	-51.7	16.9	0.00e+00	0	41	0	671088640	68	5226
2026-01-04 01:28:39.05	285.72	21.89	-48.9	-51.7	16.9	0.00e+00	0	41	0	673185792	68	5249
2026-01-04 01:28:40.05	285.48	21.84	-49.1	-51.9	16.7	0.00e+00	0	41	0	674234368	68	5394
2026-01-04 01:28:41.06	285.23	21.78	-48.9	-51.7	16.9	0.00e+00	0	41	0	676331520	68	5244
2026-01-04 01:28:42.06	284.99	21.73	-48.7	-51.4	17.2	0.00e+00	0	41	0	678428672	68	5062
2026-01-04 01:28:43.06	284.74	21.67	-48.4	-51.0	17.5	0.00e+00	0	41	0	680525824	68	4849
2026-01-04 01:28:44.07	284.50	21.62	-48.3	-50.9	17.6	0.00e+00	0	41	0	682622976	68	4776
2026-01-04 01:28:45.07	284.26	21.56	-48.5	-51.1	17.4	0.00e+00	0	41	0	683671552	68	4872
2026-01-04 01:28:46.07	284.02	21.51	-48.6	-51.2	17.3	0.00e+00	0	41	0	685768704	68	4970
2026-01-04 01:28:47.08	283.77	21.45	-48.5	-51.1	17.4	0.00e+00	0	41	0	687865856	68	4875
2026-01-04 01:28:48.08	283.53	21.39	-48.3	-50.9	17.5	0.00e+00	0	41	0	689963008	68	4794
2026-01-04 01:28:49.09	283.29	21.33	-48.2	-50.8	17.7	0.00e+00	0	41	0	692060160	68	4720
2026-01-04 01:28:50.09	283.06	21.27	-48.5	-51.1	17.4	0.00e+00	0	41	0	693108736	68	4905
2026-01-04 01:28:51.09	282.82	21.22	-48.7	-51.4	17.1	0.00e+00	0	41	0	695205888	68	5068
2026-01-04 01:28:52.10	282.58	21.16	-49.0	-51.9	16.7	0.00e+00	0	41	0	697303040	68	5356
2026-01-04 01:28:53.10	282.35	21.10	-48.9	-51.7	16.8	0.00e+00	0	41	0	699400192	68	5260
2026-01-04 01:28:54.33	282.06	21.02	-49.2	-52.1	16.4	0.00e+00	0	41	0	701497344	69	5193
2026-01-04 01:28:55.23	281.85	20.97	-49.2	-52.1	16.4	0.00e+00	0	41	0	703594496	69	5189
2026-01-04 01:28:56.24	281.62	20.91	-49.1	-51.9	16.7	0.00e+00	0	41	0	704643072	69	5051
2026-01-04 01:28:57.24	281.39	20.85	-48.9	-51.7	16.8	0.00e+00	0	41	0	706740224	69	4945
2026-01-04 01:28:58.24	281.16	20.79	-48.8	-51.5	17.0	0.00e+00	0	41	0	708837376	69	4830
2026-01-04 01:28:59.25	280.93	20.72	-48.8	-51.5	17.0	0.00e+00	0	41	0	710934528	69	4849
2026-01-04 01:29:00.25	280.70	20.66	-48.7	-51.4	17.1	0.00e+00	0	41	0	713031680	69	4793
2026-01-04 01:29:01.25	280.47	20.60	-49.2	-52.1	16.4	0.00e+00	0	41	0	714080256	69	5163
2026-01-04 01:29:02.26	280.25	20.54	-49.5	-52.6	15.9	0.00e+00	0	41	0	716177408	69	5472
2026-01-04 01:29:03.26	280.02	20.47	-49.8	-53.0	15.5	0.00e+00	0	41	0	718274560	70	5442
2026-01-04 01:29:04.26	279.80	20.41	-50.0	-53.2	15.3	0.00e+00	0	41	0	720371712	70	5577
2026-01-04 01:29:05.36	279.55	20.34	-50.0	-53.4	15.2	0.00e+00	0	41	0	722468864	70	5663
2026-01-04 01:29:06.26	279.35	20.28	-49.4	-52.5	15.8	0.00e+00	0	41	0	723517440	70	5109
2026-01-04 01:29:07.47	279.08	20.21	-49.2	-52.1	16.4	0.00e+00	0	41	0	726663168	70	4897
2026-01-04 01:29:08.34	278.89	20.15	-48.9	-51.7	16.8	0.00e+00	0	41	0	727711744	69	4971
2026-01-04 01:29:09.49	278.64	20.08	-48.7	-51.5	17.1	0.00e+00	0	41	0	729808896	69	4826
2026-01-04 01:29:10.34	278.45	20.02	-48.6	-51.3	17.2	0.00e+00	0	41	0	731906048	69	4715
2026-01-04 01:29:11.49	278.20	19.95	-48.5	-51.2	17.3	0.00e+00	0	41	0	734003200	68	4965
2026-01-04 01:29:12.35	278.02	19.89	-48.1	-50.7	17.7	0.00e+00	0	41	0	735051776	68	4685
2026-01-04 01:29:13.50	277.77	19.82	-47.8	-50.4	17.9	0.00e+00	0	41	0	737148928	67	4776
2026-01-04 01:29:14.36	277.58	19.76	-47.6	-50.1	18.1	0.00e+00	0	41	0	739246080	67	4613
2026-01-04 01:29:15.50	277.34	19.68	-47.9	-50.5	17.8	0.00e+00	0	41	0	741343232	67	4817
2026-01-04 01:29:16.36	277.16	19.63	-47.5	-49.9	18.2	0.00e+00	0	41	0	742391808	67	4540
2026-01-04 01:29:17.51	276.91	19.55	-47.3	-49.6	18.5	0.00e+00	0	41	0	744488960	66	4643
2026-01-04 01:29:18.37	276.73	19.49	-47.2	-49.5	18.6	0.00e+00	0	41	0	746586112	66	4571
2026-01-04 01:29:19.52	276.49	19.41	-47.0	-49.2	18.7	0.00e+00	0	41	0	748683264	65	4693
2026-01-04 01:29:20.38	276.31	19.36	-47.0	-49.2	18.8	0.00e+00	0	41	0	750780416	65	4690
2026-01-04 01:29:21.65	276.05	19.27	-46.6	-48.7	19.3	0.00e+00	0	41	0	752877568	65	4430
2026-01-04 01:29:22.37	275.90	19.22	-46.5	-48.6	19.3	0.00e+00	0	41	0	753926144	65	4384
2026-01-04 01:29:23.66	275.63	19.14	-46.5	-48.6	19.4	0.00e+00	0	41	0	756023296	64	4636
2026-01-04 01:29:24.38	275.48	19.09	-46.6	-48.7	19.3	0.00e+00	0	41	0	758120448	64	4702
2026-01-04 01:29:25.67	275.22	19.00	-46.7	-48.9	19.1	0.00e+00	0	41	0	760217600	64	4809
2026-01-04 01:29:26.38	275.08	18.95	-47.0	-49.3	18.8	0.00e+00	0	41	0	761266176	64	5012
2026-01-04 01:29:27.67	274.81	18.86	-47.4	-49.8	18.4	0.00e+00	0	41	0	764411904	65	4984
2026-01-04 01:29:28.56	274.63	18.80	-47.8	-50.2	18.0	0.00e+00	0	41	0	765460480	66	4964
2026-01-04 01:29:29.71	274.40	18.72	-48.2	-50.8	17.5	0.00e+00	0	41	0	767557632	66	5291
2026-01-04 01:29:30.57	274.23	18.66	-48.3	-50.9	17.3	0.00e+00	0	41	0	769654784	67	5060
2026-01-04 01:29:31.71	274.01	18.58	-48.3	-51.0	17.2	0.00e+00	0	41	0	771751936	67	5144
2026-01-04 01:29:32.57	273.84	18.52	-48.6	-51.4	16.9	0.00e+00	0	41	0	772800512	67	5357
2026-01-04 01:29:33.72	273.61	18.44	-48.8	-51.7	16.8	0.00e+00	0	41	0	774897664	68	5237
2026-01-04 01:29:34.58	273.44	18.38	-48.8	-51.7	16.8	0.00e+00	0	41	0	776994816	68	5240
2026-01-04 01:29:35.72	273.22	18.30	-48.8	-51.6	16.8	0.00e+00	0	41	0	779091968	68	5205
2026-01-04 01:29:36.58	273.05	18.24	-48.7	-51.5	17.0	0.00e+00	0	41	0	781189120	68	5101
2026-01-04 01:29:37.73	272.83	18.16	-48.5	-51.2	17.3	0.00e+00	0	41	0	783286272	68	4929
2026-01-04 01:29:38.59	272.66	18.10	-48.2	-50.9	17.5	0.00e+00	0	41	0	784334848	68	4772
2026-01-04 01:29:39.73	272.44	18.02	-48.1	-50.7	17.6	0.00e+00	0	41	0	786432000	68	4688
2026-01-04 01:29:40.59	272.28	17.96	-48.1	-50.7	17.7	0.00e+00	0	41	0	788529152	68	4655
2026-01-04 01:29:41.74	272.06	17.88	-47.7	-50.1	18.0	0.00e+00	0	41	0	790626304	67	4640
2026-01-04 01:29:42.59	271.90	17.82	-47.5	-49.9	18.2	0.00e+00	0	41	0	791674880	66	4775
2026-01-04 01:29:44.10	271.62	17.71	-47.4	-49.7	18.5	0.00e+00	0	41	0	794820608	66	4678
2026-01-04 01:29:44.82	271.48	17.66	-47.3	-49.6	18.6	0.00e+00	0	41	0	795869184	66	4645
2026-01-04 01:29:46.11	271.24	17.57	-47.4	-49.8	18.5	0.00e+00	0	41	0	799014912	66	4718
2026-01-04 01:29:46.83	271.11	17.52	-47.5	-49.9	18.2	0.00e+00	0	41	0	800063488	66	4785
2026-01-04 01:29:48.12	270.87	17.42	-48.1	-50.6	17.8	0.00e+00	0	41	0	802160640	66	5168
2026-01-04 01:29:48.84	270.74	17.37	-48.2	-50.9	17.3	0.00e+00	0	41	0	803209216	67	5047
2026-01-04 01:29:50.13	270.51	17.28	-48.4	-51.0	17.2	0.00e+00	0	41	0	806354944	67	5158
2026-01-04 01:29:50.94	270.36	17.22	-48.3	-51.0	17.3	0.00e+00	0	41	0	807403520	67	5101
2026-01-04 01:29:52.08	270.15	17.14	-48.1	-50.7	17.5	0.00e+00	0	41	0	809500672	67	4939
2026-01-04 01:29:53.18	269.96	17.06	-47.9	-50.4	17.8	0.00e+00	0	41	0	811597824	67	4808
2026-01-04 01:29:54.23	269.77	16.99	-47.8	-50.3	17.9	0.00e+00	0	41	0	813694976	67	4751
2026-01-04 01:29:55.31	269.58	16.91	-47.9	-50.5	17.7	0.00e+00	0	41	0	815792128	67	4836
2026-01-04 01:29:56.17	269.42	16.85	-47.9	-50.5	17.7	0.00e+00	0	41	0	817889280	67	4855
2026-01-04 01:29:57.31	269.22	16.76	-48.2	-50.8	17.5	0.00e+00	0	41	0	819986432	67	5003
2026-01-04 01:29:58.17	269.07	16.70	-48.2	-50.9	17.4	0.00e+00	0	41	0	821035008	67	5053
2026-01-04 01:29:59.32	268.87	16.62	-48.2	-50.8	17.4	0.00e+00	0	41	0	823132160	67	5024
2026-01-04 01:30:00.18	268.72	16.56	-48.1	-50.8	17.4	0.00e+00	0	41	0	825229312	67	5010
2026-01-04 01:30:01.33	268.52	16.47	-48.0	-50.6	17.6	0.00e+00	0	41	0	827326464	67	4926
2026-01-04 01:30:02.19	268.38	16.41	-48.1	-50.8	17.5	0.00e+00	0	41	0	828375040	67	4988
2026-01-04 01:30:03.40	268.17	16.32	-47.8	-50.4	17.8	0.00e+00	0	41	0	831520768	67	4769
2026-01-04 01:30:04.26	268.02	16.26	-47.8	-50.4	17.8	0.00e+00	0	41	0	832569344	67	4761
2026-01-04 01:30:05.41	267.83	16.18	-47.7	-50.2	18.0	0.00e+00	0	41	0	834666496	67	4672
2026-01-04 01:30:06.27	267.68	16.11	-47.6	-50.1	18.1	0.00e+00	0	41	0	836763648	67	4631
2026-01-04 01:30:07.41	267.49	16.03	-47.4	-49.8	18.3	0.00e+00	0	41	0	838860800	66	4752
2026-01-04 01:30:08.27	267.35	15.97	-47.2	-49.5	18.5	0.00e+00	0	41	0	839909376	66	4592
2026-01-04 01:30:09.62	267.12	15.87	-47.2	-49.6	18.5	0.00e+00	0	41	0	843055104	66	4599
2026-01-04 01:30:10.34	267.01	15.82	-47.1	-49.5	18.6	0.00e+00	0	41	0	844103680	66	4554
2026-01-04 01:30:11.63	266.79	15.72	-47.3	-49.6	18.4	0.00e+00	0	41	0	846200832	66	4644
2026-01-04 01:30:12.34	266.68	15.67	-47.4	-49.8	18.3	0.00e+00	0	41	0	848297984	66	4759
2026-01-04 01:30:13.63	266.47	15.58	-47.4	-49.8	18.3	0.00e+00	0	41	0	850395136	66	4745
2026-01-04 01:30:14.35	266.35	15.53	-47.5	-49.9	18.2	0.00e+00	0	41	0	851443712	66	4798
2026-01-04 01:30:15.64	266.14	15.43	-47.3	-49.7	18.4	0.00e+00	0	41	0	853540864	66	4685
2026-01-04 01:30:16.36	266.03	15.38	-47.2	-49.6	18.5	0.00e+00	0	41	0	855638016	66	4607
2026-01-04 01:30:17.64	265.82	15.29	-46.9	-49.2	18.9	0.00e+00	0	41	0	857735168	65	4674
2026-01-04 01:30:18.36	265.71	15.23	-47.0	-49.2	18.8	0.00e+00	0	41	0	858783744	65	4698
2026-01-04 01:30:19.68	265.50	15.14	-46.7	-49.0	19.0	0.00e+00	0	41	0	861929472	65	4565
2026-01-04 01:30:20.65	265.35	15.07	-47.2	-49.5	18.7	0.00e+00	0	41	0	862978048	65	4860
2026-01-04 01:30:21.65	265.19	14.99	-47.0	-49.3	18.8	0.00e+00	0	41	0	865075200	65	4722
2026-01-04 01:30:22.66	265.04	14.92	-46.9	-49.2	18.8	0.00e+00	0	41	0	867172352	65	4682
2026-01-04 01:30:23.66	264.88	14.85	-47.0	-49.3	18.7	0.00e+00	0	41	0	869269504	65	4753
2026-01-04 01:30:24.66	264.73	14.77	-47.2	-49.6	18.5	0.00e+00	0	41	0	871366656	65	4888
2026-01-04 01:30:25.66	264.57	14.70	-47.4	-49.8	18.2	0.00e+00	0	41	0	872415232	65	5006
2026-01-04 01:30:26.67	264.42	14.63	-47.2	-49.6	18.4	0.00e+00	0	41	0	874512384	65	4900
2026-01-04 01:30:27.67	264.27	14.56	-47.5	-49.9	18.2	0.00e+00	0	41	0	876609536	65	5089
2026-01-04 01:30:28.67	264.12	14.48	-47.5	-49.9	18.1	0.00e+00	0	41	0	878706688	65	5089
2026-01-04 01:30:29.68	263.96	14.41	-47.5	-50.0	18.1	0.00e+00	0	41	0	880803840	65	5103
2026-01-04 01:30:30.68	263.82	14.34	-47.5	-50.0	18.0	0.00e+00	0	41	0	881852416	65	5111
2026-01-04 01:30:31.78	263.65	14.26	-47.4	-49.9	18.2	0.00e+00	0	41	0	883949568	65	5047
2026-01-04 01:30:32.67	263.52	14.19	-47.4	-49.9	18.2	0.00e+00	0	41	0	886046720	65	5057
2026-01-04 01:30:33.81	263.35	14.11	-47.2	-49.7	18.4	0.00e+00	0	41	0	888143872	65	4927
2026-01-04 01:30:34.67	263.23	14.05	-47.2	-49.6	18.5	0.00e+00	0	41	0	889192448	65	4878
2026-01-04 01:30:36.04	263.03	13.95	-46.9	-49.2	18.8	0.00e+00	0	41	0	892338176	65	4655
2026-01-04 01:30:36.75	262.92	13.90	-46.8	-49.1	18.9	0.00e+00	0	41	0	893386752	65	4619
2026-01-04 01:30:38.27	262.71	13.79	-47.0	-49.3	18.7	0.00e+00	0	41	0	896532480	65	4736
2026-01-04 01:30:38.98	262.60	13.73	-47.1	-49.5	18.5	0.00e+00	0	41	0	897581056	65	4836
2026-01-04 01:30:40.27	262.42	13.64	-47.5	-49.9	18.1	0.00e+00	0	41	0	899678208	65	5081
2026-01-04 01:30:40.99	262.32	13.59	-47.7	-50.1	17.9	0.00e+00	0	41	0	901775360	65	5213
2026-01-04 01:30:42.28	262.14	13.49	-47.8	-50.4	17.7	0.00e+00	0	41	0	903872512	66	5059
2026-01-04 01:30:42.99	262.04	13.44	-48.0	-50.6	17.5	0.00e+00	0	41	0	904921088	66	5197
2026-01-04 01:30:44.28	261.86	13.35	-48.1	-50.7	17.5	0.00e+00	0	41	0	908066816	66	5248
2026-01-04 01:30:45.00	261.75	13.30	-48.0	-50.7	17.5	0.00e+00	0	41	0	909115392	67	4933
2026-01-04 01:30:46.29	261.58	13.20	-48.1	-50.7	17.5	0.00e+00	0	41	0	911212544	67	4930
2026-01-04 01:30:47.00	261.48	13.15	-48.1	-50.7	17.4	0.00e+00	0	41	0	912261120	67	4951
2026-01-04 01:30:48.29	261.30	13.06	-48.0	-50.6	17.5	0.00e+00	0	41	0	915406848	67	4900
2026-01-04 01:30:49.01	261.20	13.01	-47.8	-50.4	17.7	0.00e+00	0	41	0	916455424	67	4789
2026-01-04 01:30:50.29	261.03	12.92	-47.9	-50.5	17.6	0.00e+00	0	41	0	918552576	67	4841
2026-01-04 01:30:51.01	260.93	12.86	-48.0	-50.5	17.6	0.00e+00	0	41	0	920649728	67	4866
2026-01-04 01:30:52.30	260.76	12.77	-47.9	-50.5	17.7	0.00e+00	0	41	0	922746880	67	4815
2026-01-04 01:30:53.02	260.66	12.72	-47.9	-50.5	17.6	0.00e+00	0	41	0	923795456	67	4819
2026-01-04 01:30:54.31	260.49	12.63	-47.4	-49.9	18.2	0.00e+00	0	41	0	926941184	66	4794
2026-01-04 01:30:55.02	260.40	12.58	-47.3	-49.8	18.3	0.00e+00	0	41	0	927989760	66	4723
2026-01-04 01:30:56.31	260.23	12.48	-47.3	-49.7	18.3	0.00e+00	0	41	0	930086912	66	4700
2026-01-04 01:30:57.02	260.13	12.43	-47.5	-50.0	18.1	0.00e+00	0	41	0	931135488	66	4848
2026-01-04 01:30:58.31	259.97	12.34	-47.2	-49.6	18.4	0.00e+00	0	41	0	934281216	66	4643
2026-01-04 01:30:59.03	259.87	12.29	-47.2	-49.7	18.4	0.00e+00	0	41	0	935329792	66	4654
2026-01-04 01:31:00.31	259.71	12.20	-47.5	-50.0	18.1	0.00e+00	0	41	0	937426944	66	4824
2026-01-04 01:31:01.03	259.62	12.15	-47.6	-50.1	17.9	0.00e+00	0	41	0	939524096	66	4911
2026-01-04 01:31:02.32	259.45	12.06	-48.1	-50.7	17.4	0.00e+00	0	41	0	941621248	66	5278
2026-01-04 01:31:03.03	259.36	12.00	-48.2	-51.0	17.1	0.00e+00	0	41	0	942669824	67	5130
2026-01-04 01:31:04.32	259.20	11.91	-48.5	-51.4	16.8	0.00e+00	0	41	0	944766976	67	5374
2026-01-04 01:31:05.23	259.08	11.85	-48.4	-51.3	16.8	0.00e+00	0	41	0	946864128	67	5323
2026-01-04 01:31:06.24	258.96	11.78	-48.5	-51.4	16.7	0.00e+00	0	41	0	948961280	67	5370
2026-01-04 01:31:07.24	258.83	11.71	-48.2	-51.0	17.1	0.00e+00	0	41	0	951058432	67	5114
2026-01-04 01:31:08.24	258.71	11.64	-48.1	-50.9	17.1	0.00e+00	0	41	0	952107008	67	5095
2026-01-04 01:31:09.24	258.58	11.56	-48.1	-50.8	17.2	0.00e+00	0	41	0	954204160	67	5038
2026-01-04 01:31:10.24	258.46	11.49	-47.9	-50.6	17.6	0.00e+00	0	41	0	956301312	67	4887
2026-01-04 01:31:11.25	258.34	11.42	-47.8	-50.5	17.6	0.00e+00	0	41	0	958398464	67	4822
2026-01-04 01:31:12.25	258.21	11.35	-47.8	-50.4	17.7	0.00e+00	0	41	0	960495616	67	4776
2026-01-04 01:31:13.30	258.09	11.28	-47.9	-50.6	17.5	0.00e+00	0	41	0	961544192	67	4877
2026-01-04 01:31:14.17	257.98	11.22	-47.8	-50.5	17.6	0.00e+00	0	41	0	963641344	67	4824
2026-01-04 01:31:15.32	257.84	11.14	-47.9	-50.5	17.5	0.00e+00	0	41	0	965738496	67	4869
2026-01-04 01:31:16.17	257.74	11.08	-48.0	-50.6	17.4	0.00e+00	0	41	0	967835648	67	4904
2026-01-04 01:31:17.32	257.61	11.00	-47.8	-50.4	17.6	0.00e+00	0	41	0	969932800	67	4786
2026-01-04 01:31:18.17	257.51	10.94	-48.0	-50.7	17.3	0.00e+00	0	41	0	970981376	67	4960
2026-01-04 01:31:19.32	257.37	10.86	-48.1	-50.8	17.3	0.00e+00	0	41	0	973078528	67	4995
2026-01-04 01:31:20.18	257.27	10.80	-48.0	-50.7	17.3	0.00e+00	0	41	0	975175680	67	4948
2026-01-04 01:31:21.33	257.14	10.72	-48.1	-50.8	17.1	0.00e+00	0	41	0	977272832	67	5032
2026-01-04 01:31:22.18	257.04	10.66	-48.1	-50.7	17.3	0.00e+00	0	41	0	978321408	67	4973
2026-01-04 01:31:23.33	256.91	10.58	-48.1	-50.8	17.2	0.00e+00	0	41	0	980418560	67	4998
2026-01-04 01:31:24.19	256.81	10.52	-48.2	-50.9	17.1	0.00e+00	0	41	0	982515712	67	5099
2026-01-04 01:31:25.35	256.67	10.44	-48.4	-51.2	16.8	0.00e+00	0	41	0	984612864	67	5276
2026-01-04 01:31:26.21	256.58	10.38	-48.3	-51.1	16.9	0.00e+00	0	41	0	986710016	67	5214
2026-01-04 01:31:27.42	256.44	10.29	-48.5	-51.3	16.7	0.00e+00	0	41	0	988807168	67	5317
2026-01-04 01:31:28.28	256.34	10.23	-48.5	-51.4	16.7	0.00e+00	0	41	0	989855744	67	5346
2026-01-04 01:31:29.42	256.22	10.15	-48.7	-51.6	16.5	0.00e+00	0	41	0	991952896	67	5490
2026-01-04 01:31:30.28	256.12	10.09	-49.0	-51.9	16.4	0.00e+00	0	41	0	994050048	68	5383
2026-01-04 01:31:31.62	255.97	10.00	-48.9	-51.8	16.4	0.00e+00	0	41	0	996147200	68	5329
2026-01-04 01:31:32.33	255.89	9.95	-48.8	-51.8	16.4	0.00e+00	0	41	0	998244352	68	5301
2026-01-04 01:31:33.62	255.75	9.86	-48.6	-51.5	16.7	0.00e+00	0	41	0	1000341504	68	5155
2026-01-04 01:31:34.33	255.67	9.82	-48.8	-51.8	16.4	0.00e+00	0	41	0	1001390080	68	5319
2026-01-04 01:31:35.62	255.53	9.73	-48.7	-51.7	16.6	0.00e+00	0	41	0	1003487232	68	5236
2026-01-04 01:31:36.39	255.45	9.67	-48.8	-51.8	16.4	0.00e+00	0	41	0	1005584384	68	5333
2026-01-04 01:31:37.67	255.31	9.59	-49.0	-52.1	16.2	0.00e+00	0	41	0	1007681536	68	5509
2026-01-04 01:31:38.39	255.23	9.54	-49.0	-52.2	16.1	0.00e+00	0	41	0	1008730112	68	5545
2026-01-04 01:31:39.68	255.10	9.45	-49.4	-52.7	15.6	0.00e+00	0	41	0	1011875840	69	5549
2026-01-04 01:31:40.53	255.01	9.39	-49.4	-52.7	15.5	0.00e+00	0	41	0	1012924416	69	5571
2026-01-04 01:31:41.67	254.89	9.31	-49.8	-53.3	15.0	0.00e+00	0	41	0	1015021568	70	5600
2026-01-04 01:31:42.53	254.80	9.26	-49.7	-53.2	15.0	0.00e+00	0	41	0	1017118720	70	5545
2026-01-04 01:31:43.67	254.68	9.18	-49.9	-53.4	14.8	0.00e+00	0	41	0	1019215872	70	5707
2026-01-04 01:31:44.54	254.59	9.12	-49.8	-53.3	14.9	0.00e+00	0	41	0	1020264448	70	5598
2026-01-04 01:31:45.68	254.47	9.04	-49.7	-53.2	15.0	0.00e+00	0	41	0	1022361600	70	5548
2026-01-04 01:31:46.54	254.38	8.98	-50.4	-54.2	14.3	0.00e+00	0	41	0	1024458752	71	5863
2026-01-04 01:31:47.68	254.26	8.91	-54.4	-69.5	3.8	1.49e+00	0	41	104	1024458752	79	21712
2026-01-04 01:31:48.54	254.17	8.85	-54.3	-69.7	3.8	1.49e+00	0	41	104	1024458752	79	22169
2026-01-04 01:31:49.69	254.06	8.77	-54.6	-69.9	3.8	1.49e+00	0	41	104	1024458752	79	22534
2026-01-04 01:31:50.55	253.97	8.71	-54.7	-69.8	3.8	1.49e+00	0	41	104	1024458752	80	21236
2026-01-04 01:31:51.70	253.85	8.64	-54.7	-69.9	3.8	1.49e+00	0	41	104	1024458752	80	21378
2026-01-04 01:31:52.56	253.77	8.58	-54.9	-69.9	3.8	1.49e+00	0	41	104	1024458752	80	21451
2026-01-04 01:31:53.71	253.65	8.50	-54.8	-70.0	3.8	1.49e+00	0	41	104	1024458752	80	21551
2026-01-04 01:31:54.57	253.57	8.45	-54.9	-70.0	3.8	1.49e+00	0	41	104	1024458752	80	21636
2026-01-04 01:31:55.72	253.45	8.37	-54.8	-70.0	3.8	1.49e+00	0	41	104	1024458752	80	21627
2026-01-04 01:31:56.58	253.37	8.31	-54.9	-70.0	3.8	1.49e+00	0	41	104	1024458752	80	21569
2026-01-04 01:31:57.72	253.26	8.24	-54.9	-70.0	3.8	1.49e+00	0	41	104	1024458752	80	21535
2026-01-04 01:31:58.58	253.17	8.18	-54.9	-70.0	3.8	1.49e+00	0	41	104	1024458752	80	21701
2026-01-04 01:31:59.73	253.06	8.10	-54.9	-70.0	3.8	1.49e+00	0	41	104	1024458752	80	21704
2026-01-04 01:32:00.59	252.98	8.05	-54.9	-70.1	3.8	1.49e+00	0	41	104	1024458752	80	21851
2026-01-04 01:32:01.74	252.87	7.97	-54.9	-70.0	3.8	1.49e+00	0	41	104	1024458752	80	21716
2026-01-04 01:32:02.60	252.79	7.91	-54.9	-70.0	3.8	1.49e+00	0	41	104	1024458752	80	21745
2026-01-04 01:32:03.75	252.68	7.84	-54.9	-70.0	3.8	1.49e+00	0	41	104	1024458752	80	21632
2026-01-04 01:32:04.61	252.60	7.78	-54.9	-70.0	3.8	1.49e+00	0	41	104	1024458752	80	21742
2026-01-04 01:32:05.76	252.49	7.71	-54.9	-70.1	3.8	1.49e+00	0	41	104	1024458752	80	21834
2026-01-04 01:32:06.62	252.41	7.65	-54.9	-70.0	3.8	1.49e+00	0	41	104	1024458752	80	21748
2026-01-04 01:32:07.76	252.30	7.57	-54.8	-70.0	3.8	1.49e+00	0	41	104	1024458752	80	21715
2026-01-04 01:32:08.63	252.22	7.52	-54.6	-70.0	3.8	1.49e+00	0	41	104	1024458752	80	21551
2026-01-04 01:32:09.77	252.11	7.44	-54.7	-70.0	3.8	1.49e+00	0	41	104	1024458752	80	21668
2026-01-04 01:32:10.63	252.03	7.39	-54.7	-70.0	3.8	1.49e+00	0	41	104	1024458752	80	21701
2026-01-04 01:32:11.78	251.93	7.31	-54.6	-70.0	3.8	1.49e+00	0	41	104	1024458752	80	21542
2026-01-04 01:32:12.64	251.85	7.26	-54.6	-69.9	3.8	1.49e+00	0	41	104	1024458752	80	21485
2026-01-04 01:32:13.79	251.75	7.18	-54.6	-70.0	3.8	1.49e+00	0	41	104	1024458752	80	21595
2026-01-04 01:32:14.65	251.67	7.13	-54.6	-70.0	3.8	1.49e+00	0	41	104	1024458752	80	21550
2026-01-04 01:32:15.80	251.56	7.05	-54.6	-70.0	3.8	1.49e+00	0	41	104	1024458752	80	21536
2026-01-04 01:32:16.66	251.49	7.00	-54.6	-70.0	3.8	1.49e+00	0	41	104	1024458752	80	21570
2026-01-04 01:32:17.81	251.38	6.92	-54.6	-70.0	3.8	1.49e+00	0	41	104	1024458752	80	21604
2026-01-04 01:32:18.66	251.31	6.87	-54.6	-69.9	3.8	1.49e+00	0	41	104	1024458752	80	21438
2026-01-04 01:32:19.81	251.21	6.79	-54.6	-70.0	3.8	1.49e+00	0	41	104	1024458752	80	21576
2026-01-04 01:32:20.68	251.13	6.74	-54.6	-69.9	3.8	1.49e+00	0	41	104	1024458752	80	21404
2026-01-04 01:32:21.82	251.03	6.66	-54.6	-70.0	3.8	1.49e+00	0	41	104	1024458752	80	21518
2026-01-04 01:32:22.68	250.96	6.61	-54.6	-70.0	3.8	1.49e+00	0	41	104	1024458752	80	21545
2026-01-04 01:32:23.83	250.86	6.53	-54.6	-69.9	3.8	1.49e+00	0	41	104	1024458752	80	21470
2026-01-04 01:32:24.69	250.78	6.48	-54.7	-70.0	3.8	1.49e+00	0	41	104	1024458752	80	21735
2026-01-04 01:32:25.84	250.68	6.41	-54.6	-70.0	3.8	1.49e+00	0	41	104	1024458752	80	21509
2026-01-04 01:32:26.70	250.61	6.35	-54.6	-69.9	3.8	1.49e+00	0	41	104	1024458752	80	21481
2026-01-04 01:32:27.85	250.51	6.28	-54.6	-70.0	3.8	1.49e+00	0	41	104	1024458752	80	21583
2026-01-04 01:32:28.71	250.44	6.22	-54.6	-69.9	3.8	1.49e+00	0	41	104	1024458752	80	21452
2026-01-04 01:32:29.86	250.34	6.15	-54.6	-69.9	3.8	1.49e+00	0	41	104	1024458752	80	21458
2026-01-04 01:32:30.72	250.27	6.10	-54.7	-70.0	3.8	1.49e+00	0	41	104	1024458752	80	21688
2026-01-04 01:32:31.87	250.17	6.02	-54.6	-69.9	3.8	1.49e+00	0	41	104	1024458752	80	21418
2026-01-04 01:32:32.73	250.10	5.97	-54.6	-69.9	3.8	1.49e+00	0	41	104	1024458752	80	21488
2026-01-04 01:32:33.87	250.00	5.90	-54.6	-69.9	3.8	1.49e+00	0	41	104	1024458752	80	21458
2026-01-04 01:32:34.73	249.93	5.84	-54.6	-69.9	3.8	1.49e+00	0	41	104	1024458752	80	21479
2026-01-04 01:32:35.88	249.84	5.77	-54.6	-69.9	3.8	1.49e+00	0	41	104	1024458752	80	21321
2026-01-04 01:32:36.74	249.77	5.72	-54.6	-69.9	3.8	1.49e+00	0	41	104	1024458752	80	21432
2026-01-04 01:32:37.89	249.67	5.65	-54.6	-69.9	3.8	1.49e+00	0	41	104	1024458752	80	21344
2026-01-04 01:32:38.75	249.60	5.59	-54.6	-69.9	3.8	1.49e+00	0	41	104	1024458752	80	21383
2026-01-04 01:32:39.90	249.51	5.52	-54.6	-69.9	3.8	1.49e+00	0	41	104	1024458752	80	21449
2026-01-04 01:32:40.76	249.44	5.47	-54.6	-69.9	3.8	1.49e+00	0	41	104	1024458752	80	21438
2026-01-04 01:32:41.91	249.35	5.39	-54.6	-70.0	3.8	1.49e+00	0	41	104	1024458752	80	21550
2026-01-04 01:32:42.76	249.28	5.34	-54.6	-69.9	3.8	1.49e+00	0	41	104	1024458752	80	21422
2026-01-04 01:32:43.91	249.19	5.27	-54.6	-69.9	3.8	1.49e+00	0	41	104	1024458752	80	21383
2026-01-04 01:32:44.77	249.12	5.22	-54.6	-69.9	3.8	1.49e+00	0	41	104	1024458752	80	21353
2026-01-04 01:32:45.92	249.03	5.15	-54.6	-69.9	3.8	1.49e+00	0	41	104	1024458752	80	21446
2026-01-04 01:32:46.78	248.96	5.09	-54.6	-69.9	3.8	1.49e+00	0	41	104	1024458752	80	21343
2026-01-04 01:32:47.93	248.87	5.02	-54.6	-70.0	3.8	1.49e+00	0	41	104	1024458752	80	21529
2026-01-04 01:32:48.79	248.81	4.97	-54.6	-69.9	3.8	1.49e+00	0	41	104	1024458752	80	21470

#Closed at: 2026-01-04 01:32:49
#Recorded file [1024 MB]: D:/Data/31040_260104_042145.dat