passes_logs/2026/01/04/T1/T1__20260104_055004_FENGYUN_3E_rec.log

#Pass ID: 20260104_055004_FENGYUN 3E
#Satellite: FENGYUN 3E
#Configuration: FENGYUN 3E
#almurnet v.1.7.20251203
#Start time: 2026-01-04 05:50:05

#Version: 2.0.20230620
#Station: T1
#Location: 37.570604 lon 55.790049 lat
#TLE: 1 49008U 21062A   26004.01270550 -.00000256  00000+0 -10014-3 0  9997
#TLE: 2 49008  98.7472   9.2701 0001499 161.2681 198.8551 14.19882497233285

#Time	Az	El	Level	Level2	SNR	BER	BlckErr	Temp	State	Recorded	gain1	gain2
2026-01-04 05:50:05.41	5.30	5.07	-53.4	-65.4	3.8	8.46e-01	0	37	0	0	77	14054
2026-01-04 05:50:06.40	5.21	5.12	-53.7	-65.1	3.8	8.47e-01	0	38	104	0	77	13623
2026-01-04 05:50:07.41	5.12	5.18	-53.6	-65.0	3.8	8.47e-01	0	38	104	0	77	13474
2026-01-04 05:50:08.41	5.03	5.24	-53.5	-64.8	3.8	8.47e-01	0	38	104	0	77	13225
2026-01-04 05:50:09.41	4.94	5.30	-53.5	-64.8	3.8	8.47e-01	0	38	104	0	77	13199
2026-01-04 05:50:10.41	4.85	5.36	-53.5	-64.9	3.8	8.47e-01	0	38	104	0	77	13296
2026-01-04 05:50:11.42	4.76	5.42	-53.2	-64.5	3.8	8.47e-01	0	38	104	0	77	12737
2026-01-04 05:50:12.42	4.67	5.47	-53.3	-64.5	3.8	8.48e-01	0	38	104	0	77	12732
2026-01-04 05:50:13.42	4.58	5.53	-53.4	-64.6	3.8	8.46e-01	0	38	104	0	77	12959
2026-01-04 05:50:14.42	4.49	5.59	-53.6	-64.7	3.8	8.47e-01	0	38	104	0	77	13095
2026-01-04 05:50:15.42	4.40	5.65	-53.5	-64.8	3.8	8.47e-01	0	38	104	0	77	13149
2026-01-04 05:50:16.42	4.30	5.71	-53.6	-64.8	3.8	8.48e-01	0	38	104	0	77	13167
2026-01-04 05:50:17.43	4.21	5.77	-53.5	-64.9	3.8	8.47e-01	0	38	104	0	77	13281
2026-01-04 05:50:18.43	4.12	5.82	-53.7	-65.0	3.8	8.45e-01	0	38	104	0	77	13445
2026-01-04 05:50:19.43	4.02	5.88	-53.7	-65.0	3.8	8.47e-01	0	38	104	0	77	13569
2026-01-04 05:50:20.43	3.93	5.94	-53.9	-65.3	3.8	8.47e-01	0	38	104	0	77	13903
2026-01-04 05:50:21.43	3.83	6.00	-53.8	-65.1	3.8	8.46e-01	0	38	104	0	77	13673
2026-01-04 05:50:22.43	3.74	6.06	-54.0	-65.3	3.8	8.46e-01	0	38	104	0	77	13979
2026-01-04 05:50:23.43	3.64	6.12	-53.7	-65.0	3.8	8.47e-01	0	38	104	0	77	13509
2026-01-04 05:50:24.43	3.55	6.18	-53.7	-65.1	3.8	8.47e-01	0	38	104	0	77	13597
2026-01-04 05:50:25.43	3.45	6.24	-53.7	-65.1	3.8	8.47e-01	0	39	104	0	77	13702
2026-01-04 05:50:26.43	3.36	6.29	-53.7	-65.0	3.8	8.48e-01	0	38	104	0	77	13483
2026-01-04 05:50:27.43	3.26	6.35	-53.5	-64.9	3.8	8.46e-01	0	39	104	0	77	13351
2026-01-04 05:50:28.44	3.16	6.41	-53.5	-64.9	3.8	8.47e-01	0	38	104	0	77	13296
2026-01-04 05:50:29.44	3.06	6.47	-53.5	-64.8	3.8	8.47e-01	0	38	104	0	77	13236
2026-01-04 05:50:30.44	2.97	6.53	-53.5	-64.9	3.8	8.47e-01	0	38	104	0	77	13323
2026-01-04 05:50:31.44	2.87	6.59	-53.4	-64.8	3.8	8.47e-01	0	39	104	0	77	13151
2026-01-04 05:50:32.44	2.77	6.65	-53.3	-64.8	3.8	8.46e-01	0	38	104	0	77	13143
2026-01-04 05:50:33.44	2.67	6.71	-53.4	-64.7	3.8	8.48e-01	0	39	104	0	77	13103
2026-01-04 05:50:34.44	2.57	6.77	-53.5	-64.9	3.8	8.48e-01	0	39	104	0	77	13336
2026-01-04 05:50:35.45	2.47	6.83	-53.6	-65.0	3.8	8.47e-01	0	39	104	0	77	13425
2026-01-04 05:50:36.45	2.37	6.89	-53.8	-65.3	3.8	8.47e-01	0	39	104	0	77	13900
2026-01-04 05:50:37.45	2.27	6.95	-53.7	-65.1	3.8	8.47e-01	0	39	104	0	77	13697
2026-01-04 05:50:38.45	2.16	7.01	-53.6	-65.1	3.8	8.48e-01	0	39	104	0	77	13618
2026-01-04 05:50:39.46	2.06	7.07	-53.8	-65.2	3.8	8.47e-01	0	39	104	0	77	13878
2026-01-04 05:50:40.46	1.96	7.13	-53.7	-65.1	3.8	8.47e-01	0	39	104	0	77	13683
2026-01-04 05:50:41.46	1.86	7.19	-53.7	-65.1	3.8	8.46e-01	0	39	104	0	77	13613
2026-01-04 05:50:42.46	1.75	7.25	-53.7	-65.1	3.8	8.47e-01	0	39	104	0	77	13598
2026-01-04 05:50:43.46	1.65	7.31	-53.7	-65.1	3.8	8.47e-01	0	39	104	0	77	13574
2026-01-04 05:50:44.46	1.55	7.37	-53.6	-65.1	3.8	8.49e-01	0	39	104	0	77	13606
2026-01-04 05:50:45.47	1.44	7.43	-53.6	-65.0	3.8	8.46e-01	0	39	104	0	77	13478
2026-01-04 05:50:46.47	1.34	7.49	-53.8	-65.2	3.8	8.47e-01	0	39	104	0	77	13863
2026-01-04 05:50:47.47	1.23	7.55	-53.8	-65.2	3.8	8.47e-01	0	39	104	0	77	13871
2026-01-04 05:50:48.47	1.12	7.61	-53.7	-65.1	3.8	8.46e-01	0	39	104	0	77	13657
2026-01-04 05:50:49.47	1.02	7.67	-53.7	-65.2	3.8	8.46e-01	0	39	104	0	77	13747
2026-01-04 05:50:50.48	0.91	7.73	-53.7	-65.1	3.8	8.47e-01	0	39	104	0	77	13653
2026-01-04 05:50:51.48	0.80	7.79	-53.6	-64.7	3.8	8.45e-01	0	39	104	0	77	13108
2026-01-04 05:50:52.48	0.69	7.85	-53.8	-64.6	3.8	8.47e-01	0	39	104	0	77	12903
2026-01-04 05:50:53.48	0.59	7.91	-53.4	-63.8	3.8	8.47e-01	0	39	104	0	77	11728
2026-01-04 05:50:54.48	0.48	7.97	-54.0	-63.9	3.8	8.47e-01	0	39	104	0	77	11941
2026-01-04 05:50:55.48	0.37	8.03	-53.4	-63.1	3.9	8.45e-01	0	39	104	0	77	10789
2026-01-04 05:50:56.49	0.26	8.09	-53.3	-63.0	3.8	8.46e-01	0	39	104	0	77	10667
2026-01-04 05:50:57.49	0.15	8.15	-53.5	-63.2	3.8	8.45e-01	0	39	104	0	77	10979
2026-01-04 05:50:58.49	0.04	8.21	-53.4	-63.5	3.8	8.46e-01	0	39	104	0	77	11354
2026-01-04 05:50:59.49	359.93	8.27	-53.5	-63.9	3.8	8.45e-01	0	39	104	0	77	11946
2026-01-04 05:51:00.49	359.82	8.34	-53.6	-64.2	3.8	8.45e-01	0	39	104	0	77	12307
2026-01-04 05:51:01.49	359.70	8.40	-53.5	-63.9	3.8	8.46e-01	0	39	104	0	77	11902
2026-01-04 05:51:02.50	359.59	8.46	-53.5	-63.1	3.8	8.46e-01	0	39	104	0	77	10869
2026-01-04 05:51:03.50	359.48	8.52	-53.3	-61.8	4.2	8.41e-01	0	39	0	0	77	9281
2026-01-04 05:51:04.50	359.36	8.58	-52.9	-59.9	4.8	8.10e-01	0	39	0	0	76	7908
2026-01-04 05:51:05.50	359.25	8.64	-52.5	-58.1	6.1	4.35e-01	0	39	0	2097152	75	6820
2026-01-04 05:51:06.51	359.13	8.70	-51.8	-56.3	7.6	1.44e-01	0	40	0	8388608	74	5863
2026-01-04 05:51:07.51	359.02	8.76	-50.8	-54.2	9.5	1.90e-02	0	39	0	15728640	72	5200
2026-01-04 05:51:08.51	358.90	8.82	-50.2	-53.1	10.9	3.46e-03	0	39	0	24117248	70	5153
2026-01-04 05:51:09.51	358.79	8.88	-49.7	-52.2	11.9	4.90e-04	0	39	0	30408704	70	4625
2026-01-04 05:51:10.52	358.67	8.95	-49.2	-51.5	12.6	1.26e-04	0	39	0	37748736	69	4528
2026-01-04 05:51:11.52	358.55	9.01	-49.0	-51.2	13.1	3.66e-05	0	40	0	45088768	68	4621
2026-01-04 05:51:12.52	358.44	9.07	-49.7	-52.4	11.8	1.85e-04	0	39	0	52428800	68	5288
2026-01-04 05:51:13.52	358.32	9.13	-49.7	-52.4	11.6	2.44e-03	0	40	0	59768832	70	4726
2026-01-04 05:51:14.52	358.20	9.19	-49.1	-51.3	12.8	1.88e-04	0	39	0	67108864	68	4683
2026-01-04 05:51:15.52	358.08	9.25	-52.3	-57.7	6.7	1.77e-02	0	40	0	74448896	73	7306
2026-01-04 05:51:16.52	357.96	9.31	-49.0	-51.2	12.5	8.37e-01	0	40	104	74448896	69	4376
2026-01-04 05:51:17.52	357.84	9.38	-44.9	-46.2	17.8	0.00e+00	0	39	0	80740352	60	4139
2026-01-04 05:51:18.51	357.72	9.44	-45.0	-46.4	17.7	0.00e+00	0	40	0	87031808	60	4202
2026-01-04 05:51:19.51	357.60	9.50	-44.8	-46.1	17.9	0.00e+00	0	39	0	94371840	60	4063
2026-01-04 05:51:20.52	357.48	9.56	-44.7	-46.1	17.8	0.00e+00	0	40	0	101711872	60	4060
2026-01-04 05:51:21.52	357.36	9.62	-45.1	-46.4	17.9	0.00e+00	0	39	0	109051904	60	4215
2026-01-04 05:51:22.51	357.23	9.68	-45.0	-46.3	17.8	0.00e+00	0	40	0	116391936	60	4186
2026-01-04 05:51:23.52	357.11	9.74	-44.8	-46.1	18.0	0.00e+00	0	40	0	123731968	60	4095
2026-01-04 05:51:24.52	356.99	9.80	-45.1	-46.5	17.7	0.00e+00	0	40	0	131072000	60	4270
2026-01-04 05:51:25.52	356.86	9.87	-44.8	-46.1	17.8	0.00e+00	0	39	0	138412032	60	4096
2026-01-04 05:51:26.52	356.74	9.93	-44.7	-46.0	18.0	0.00e+00	0	39	0	145752064	60	4027
2026-01-04 05:51:27.52	356.61	9.99	-44.6	-46.0	18.0	0.00e+00	0	40	0	152043520	60	4013
2026-01-04 05:51:28.52	356.49	10.05	-44.6	-45.9	17.9	0.00e+00	0	40	0	159383552	59	4207
2026-01-04 05:51:29.52	356.36	10.11	-44.8	-46.1	17.8	0.00e+00	0	40	0	166723584	59	4333
2026-01-04 05:51:30.52	356.23	10.17	-44.7	-46.0	17.9	0.00e+00	0	40	0	174063616	59	4275
2026-01-04 05:51:31.52	356.10	10.24	-44.5	-45.8	18.0	0.00e+00	0	40	0	181403648	59	4183
2026-01-04 05:51:32.52	355.98	10.30	-44.6	-46.0	17.9	0.00e+00	0	40	0	188743680	59	4267
2026-01-04 05:51:33.51	355.85	10.36	-44.8	-46.1	17.8	0.00e+00	0	40	0	196083712	59	4334
2026-01-04 05:51:34.51	355.72	10.42	-44.9	-46.3	17.8	0.00e+00	0	40	0	203423744	59	4404
2026-01-04 05:51:35.51	355.59	10.48	-44.8	-46.2	17.8	0.00e+00	0	40	0	210763776	59	4349
2026-01-04 05:51:36.51	355.46	10.54	-44.8	-46.2	17.7	0.00e+00	0	40	0	217055232	59	4391
2026-01-04 05:51:37.50	355.33	10.60	-44.9	-46.3	17.6	0.00e+00	0	40	0	224395264	59	4439
2026-01-04 05:51:38.51	355.20	10.67	-44.8	-46.3	17.9	0.00e+00	0	40	0	231735296	59	4393
2026-01-04 05:51:39.50	355.07	10.73	-44.7	-46.2	17.8	0.00e+00	0	39	0	239075328	59	4358
2026-01-04 05:51:40.50	354.93	10.79	-44.5	-45.9	18.0	0.00e+00	0	40	0	246415360	59	4235
2026-01-04 05:51:41.50	354.80	10.85	-44.5	-45.9	18.1	0.00e+00	0	39	0	252706816	59	4234
2026-01-04 05:51:42.50	354.67	10.91	-44.1	-45.6	18.1	0.00e+00	0	40	0	260046848	59	4070
2026-01-04 05:51:43.50	354.53	10.97	-44.5	-45.9	18.1	0.00e+00	0	40	0	267386880	58	4478
2026-01-04 05:51:44.50	354.40	11.04	-44.4	-45.9	18.2	0.00e+00	0	40	0	274726912	58	4448
2026-01-04 05:51:45.50	354.26	11.10	-44.1	-45.5	18.4	0.00e+00	0	40	0	282066944	58	4286
2026-01-04 05:51:46.50	354.13	11.16	-44.1	-45.5	18.4	0.00e+00	0	40	0	289406976	58	4272
2026-01-04 05:51:47.50	353.99	11.22	-43.9	-45.3	18.6	0.00e+00	0	39	0	296747008	58	4182
2026-01-04 05:51:48.50	353.85	11.28	-43.9	-45.3	18.6	0.00e+00	0	40	0	304087040	58	4157
2026-01-04 05:51:49.50	353.72	11.35	-43.8	-45.1	18.8	0.00e+00	0	40	0	311427072	58	4072
2026-01-04 05:51:50.50	353.58	11.41	-43.7	-45.0	19.0	0.00e+00	0	40	0	317718528	58	4023
2026-01-04 05:51:51.50	353.44	11.47	-43.8	-45.1	18.9	0.00e+00	0	40	0	325058560	58	4060
2026-01-04 05:51:52.50	353.30	11.53	-44.1	-45.4	18.8	0.00e+00	0	40	0	332398592	58	4216
2026-01-04 05:51:53.51	353.16	11.59	-44.1	-45.4	18.7	0.00e+00	0	40	0	339738624	58	4217
2026-01-04 05:51:54.51	353.02	11.65	-44.1	-45.4	18.8	0.00e+00	0	39	0	347078656	58	4195
2026-01-04 05:51:55.51	352.87	11.72	-44.0	-45.3	18.6	0.00e+00	0	40	0	354418688	58	4186
2026-01-04 05:51:56.51	352.73	11.78	-44.0	-45.3	18.7	0.00e+00	0	40	0	361758720	58	4157
2026-01-04 05:51:57.51	352.59	11.84	-44.1	-45.4	18.7	0.00e+00	0	40	0	369098752	58	4195
2026-01-04 05:51:58.51	352.45	11.90	-44.2	-45.5	18.5	0.00e+00	0	40	0	376438784	58	4264
2026-01-04 05:51:59.52	352.30	11.96	-44.2	-45.4	18.5	0.00e+00	0	40	0	383778816	58	4241
2026-01-04 05:52:00.51	352.16	12.02	-44.3	-45.6	18.4	0.00e+00	0	40	0	391118848	58	4318
2026-01-04 05:52:01.51	352.01	12.09	-44.3	-45.6	18.4	0.00e+00	0	40	0	398458880	58	4299
2026-01-04 05:52:02.51	351.87	12.15	-44.4	-45.6	18.4	0.00e+00	0	40	0	404750336	58	4321
2026-01-04 05:52:03.51	351.72	12.21	-44.5	-45.8	18.4	0.00e+00	0	40	0	412090368	58	4397
2026-01-04 05:52:04.50	351.58	12.27	-44.5	-45.7	18.3	0.00e+00	0	40	0	419430400	58	4380
2026-01-04 05:52:05.50	351.43	12.33	-44.5	-45.7	18.4	0.00e+00	0	40	0	426770432	58	4350
2026-01-04 05:52:06.50	351.28	12.39	-44.4	-45.5	18.6	0.00e+00	0	40	0	434110464	58	4284
2026-01-04 05:52:07.49	351.13	12.45	-44.3	-45.5	18.6	0.00e+00	0	40	0	440401920	58	4249
2026-01-04 05:52:08.49	350.98	12.51	-44.0	-45.1	18.9	0.00e+00	0	40	0	447741952	58	4093
2026-01-04 05:52:09.49	350.83	12.58	-44.2	-45.3	18.8	0.00e+00	0	40	0	455081984	58	4192
2026-01-04 05:52:10.49	350.68	12.64	-44.0	-45.2	18.9	0.00e+00	0	40	0	462422016	58	4127
2026-01-04 05:52:11.49	350.53	12.70	-43.9	-45.0	18.9	0.00e+00	0	40	0	469762048	58	4048
2026-01-04 05:52:12.49	350.38	12.76	-43.7	-44.9	19.2	0.00e+00	0	40	0	477102080	58	3977
2026-01-04 05:52:13.69	350.19	12.83	-43.9	-45.1	19.1	0.00e+00	0	40	0	485490688	57	4326
2026-01-04 05:52:14.55	350.06	12.88	-44.0	-45.2	19.1	0.00e+00	0	40	0	491782144	57	4359
2026-01-04 05:52:15.69	349.89	12.95	-43.7	-44.8	19.3	0.00e+00	0	40	0	500170752	57	4188
2026-01-04 05:52:16.55	349.75	13.01	-43.8	-44.9	19.3	0.00e+00	0	40	0	506462208	57	4232
2026-01-04 05:52:17.69	349.58	13.08	-43.8	-45.0	19.3	0.00e+00	0	40	0	514850816	57	4267
2026-01-04 05:52:18.55	349.44	13.13	-44.0	-45.1	19.2	0.00e+00	0	40	0	521142272	57	4312
2026-01-04 05:52:19.70	349.26	13.20	-43.8	-44.9	19.3	0.00e+00	0	40	0	528482304	57	4216
2026-01-04 05:52:20.55	349.13	13.25	-44.3	-45.4	19.1	0.00e+00	0	40	0	534773760	57	4445
2026-01-04 05:52:21.69	348.95	13.32	-44.6	-45.7	19.0	0.00e+00	0	40	0	543162368	58	4381
2026-01-04 05:52:22.56	348.81	13.37	-44.6	-45.6	19.1	0.00e+00	0	40	0	549453824	58	4337
2026-01-04 05:52:23.70	348.63	13.44	-44.6	-45.7	19.1	0.00e+00	0	40	0	557842432	58	4380
2026-01-04 05:52:24.56	348.49	13.49	-44.7	-45.8	18.9	0.00e+00	0	40	0	564133888	58	4433
2026-01-04 05:52:25.71	348.31	13.56	-44.8	-45.9	18.8	0.00e+00	0	40	0	572522496	59	4226
2026-01-04 05:52:26.63	348.16	13.62	-44.6	-45.7	19.1	0.00e+00	0	40	0	578813952	59	4118
2026-01-04 05:52:27.81	347.97	13.69	-44.5	-45.7	19.1	0.00e+00	0	40	0	587202560	59	4105
2026-01-04 05:52:28.70	347.82	13.74	-44.5	-45.7	19.1	0.00e+00	0	40	0	593494016	59	4114
2026-01-04 05:52:29.93	347.62	13.81	-44.4	-45.6	19.0	0.00e+00	0	40	0	602931200	59	4077
2026-01-04 05:52:30.78	347.48	13.87	-44.4	-45.6	19.1	0.00e+00	0	40	0	609222656	59	4059
2026-01-04 05:52:31.93	347.29	13.93	-44.3	-45.4	19.1	0.00e+00	0	40	0	617611264	59	4002
2026-01-04 05:52:32.79	347.15	13.99	-44.3	-45.5	19.2	0.00e+00	0	40	0	623902720	59	4023
2026-01-04 05:52:33.94	346.96	14.05	-43.8	-44.9	19.2	0.00e+00	0	40	0	632291328	58	4000
2026-01-04 05:52:34.80	346.81	14.11	-43.9	-45.1	19.1	0.00e+00	0	40	0	637534208	58	4054
2026-01-04 05:52:35.94	346.62	14.17	-43.8	-44.9	19.2	0.00e+00	0	40	0	645922816	58	3961
2026-01-04 05:52:36.79	346.48	14.22	-43.7	-44.8	19.3	0.00e+00	0	40	0	652214272	58	3941
2026-01-04 05:52:37.93	346.29	14.29	-43.8	-44.9	19.3	0.00e+00	0	40	0	660602880	58	4004
2026-01-04 05:52:38.79	346.14	14.34	-43.9	-45.0	19.3	0.00e+00	0	40	0	666894336	58	4028
2026-01-04 05:52:39.94	345.94	14.41	-44.0	-45.1	19.1	0.00e+00	0	40	0	675282944	58	4095
2026-01-04 05:52:40.79	345.80	14.46	-43.8	-45.0	19.2	0.00e+00	0	40	0	681574400	58	4025
2026-01-04 05:52:41.94	345.60	14.53	-43.8	-45.0	19.2	0.00e+00	0	40	0	689963008	58	4047
2026-01-04 05:52:42.80	345.45	14.58	-43.9	-45.1	19.2	0.00e+00	0	40	0	695205888	58	4084
2026-01-04 05:52:43.94	345.25	14.64	-43.6	-44.8	19.3	0.00e+00	0	40	0	703594496	57	4193
2026-01-04 05:52:44.80	345.11	14.70	-43.6	-44.9	19.3	0.00e+00	0	40	0	709885952	57	4212
2026-01-04 05:52:46.13	344.87	14.77	-43.7	-44.9	19.4	0.00e+00	0	40	0	720371712	57	4235
2026-01-04 05:52:46.84	344.75	14.81	-43.7	-45.0	19.3	0.00e+00	0	40	0	724566016	57	4252
2026-01-04 05:52:48.13	344.52	14.89	-43.7	-44.9	19.5	0.00e+00	0	40	0	734003200	57	4206
2026-01-04 05:52:48.84	344.40	14.93	-43.5	-44.7	19.5	0.00e+00	0	40	0	739246080	57	4113
2026-01-04 05:52:50.13	344.17	15.00	-43.5	-44.6	19.7	0.00e+00	0	40	0	748683264	57	4064
2026-01-04 05:52:50.86	344.04	15.05	-43.4	-44.5	19.8	0.00e+00	0	40	0	753926144	57	4032
2026-01-04 05:52:52.15	343.81	15.12	-43.3	-44.4	19.9	0.00e+00	0	40	0	763363328	57	3973
2026-01-04 05:52:52.98	343.66	15.17	-43.2	-44.3	20.0	0.00e+00	0	40	0	769654784	57	3929
2026-01-04 05:52:54.12	343.45	15.23	-43.6	-44.7	19.9	0.00e+00	0	40	0	778043392	57	4122
2026-01-04 05:52:55.22	343.25	15.30	-43.6	-44.6	20.0	0.00e+00	0	40	0	785383424	57	4090
2026-01-04 05:52:56.24	343.07	15.35	-43.8	-44.9	19.9	0.00e+00	0	40	0	792723456	57	4197
2026-01-04 05:52:57.24	342.88	15.41	-43.7	-44.8	19.9	0.00e+00	0	40	0	800063488	57	4181
2026-01-04 05:52:58.25	342.70	15.47	-43.8	-44.9	19.9	0.00e+00	0	40	0	807403520	57	4196
2026-01-04 05:52:59.25	342.51	15.52	-43.3	-44.3	19.9	0.00e+00	0	40	0	814743552	57	3943
2026-01-04 05:53:00.25	342.33	15.58	-43.3	-44.3	20.0	0.00e+00	0	40	0	822083584	57	3947
2026-01-04 05:53:01.26	342.14	15.64	-43.3	-44.2	20.0	0.00e+00	0	40	0	829423616	57	3908
2026-01-04 05:53:02.25	341.96	15.69	-43.2	-44.2	20.1	0.00e+00	0	40	0	835715072	57	3881
2026-01-04 05:53:03.26	341.77	15.75	-43.2	-44.2	20.1	0.00e+00	0	40	0	843055104	57	3878
2026-01-04 05:53:04.25	341.58	15.80	-43.2	-44.3	20.0	0.00e+00	0	40	0	850395136	57	3917
2026-01-04 05:53:05.26	341.39	15.86	-43.2	-44.2	20.1	0.00e+00	0	40	0	857735168	56	4110
2026-01-04 05:53:06.26	341.20	15.91	-43.7	-44.7	20.2	0.00e+00	0	40	0	865075200	56	4381
2026-01-04 05:53:07.27	341.01	15.97	-43.6	-44.7	20.1	0.00e+00	0	40	0	872415232	57	4104
2026-01-04 05:53:08.28	340.82	16.02	-43.0	-44.0	20.4	0.00e+00	0	40	0	879755264	56	4032
2026-01-04 05:53:09.28	340.63	16.08	-42.9	-43.9	20.2	0.00e+00	0	40	0	887095296	56	3981
2026-01-04 05:53:10.36	340.42	16.14	-42.8	-43.8	20.3	0.00e+00	0	40	0	894435328	56	3946
2026-01-04 05:53:11.22	340.26	16.18	-42.9	-43.9	20.4	0.00e+00	0	40	0	900726784	56	3975
2026-01-04 05:53:12.57	340.00	16.26	-43.1	-44.0	20.3	0.00e+00	0	40	0	911212544	56	4035
2026-01-04 05:53:13.28	339.86	16.29	-42.9	-43.8	20.4	0.00e+00	0	40	0	915406848	56	3953
2026-01-04 05:53:14.57	339.61	16.36	-42.9	-43.9	20.3	0.00e+00	0	40	0	924844032	56	3974
2026-01-04 05:53:15.29	339.47	16.40	-42.8	-43.8	20.4	0.00e+00	0	40	0	930086912	56	3943
2026-01-04 05:53:16.57	339.21	16.47	-42.7	-43.7	20.6	0.00e+00	0	40	0	939524096	56	3899
2026-01-04 05:53:17.29	339.07	16.51	-42.8	-43.8	20.5	0.00e+00	0	40	0	944766976	56	3958
2026-01-04 05:53:18.57	338.82	16.57	-43.5	-44.5	20.5	0.00e+00	0	40	0	954204160	56	4248
2026-01-04 05:53:19.29	338.68	16.61	-43.5	-44.5	20.4	0.00e+00	0	40	0	959447040	56	4260
2026-01-04 05:53:20.58	338.42	16.68	-42.9	-43.9	20.5	0.00e+00	0	40	0	968884224	56	3969
2026-01-04 05:53:21.29	338.28	16.72	-43.0	-44.0	20.5	0.00e+00	0	40	0	974127104	56	4023
2026-01-04 05:53:22.58	338.02	16.78	-43.1	-44.1	20.4	0.00e+00	0	40	0	982515712	56	4052
2026-01-04 05:53:23.30	337.88	16.82	-43.1	-44.0	20.4	0.00e+00	0	40	0	987758592	56	4050
2026-01-04 05:53:24.58	337.62	16.88	-43.2	-44.2	20.3	0.00e+00	0	40	0	997195776	56	4119
2026-01-04 05:53:25.30	337.47	16.92	-43.3	-44.2	20.3	0.00e+00	0	40	0	1002438656	56	4145
2026-01-04 05:53:26.59	337.21	16.99	-43.3	-44.2	20.3	0.00e+00	0	40	0	1011875840	56	4143
2026-01-04 05:53:27.30	337.06	17.02	-42.8	-43.7	20.3	5.70e-06	0	40	0	1017118720	56	3907
2026-01-04 05:53:28.59	336.80	17.09	-42.7	-43.7	20.4	0.00e+00	0	40	0	1026555904	56	3877
2026-01-04 05:53:29.36	336.64	17.12	-42.8	-43.8	20.3	0.00e+00	0	40	0	1031798784	56	3932
2026-01-04 05:53:30.64	336.38	17.19	-42.7	-43.7	20.5	0.00e+00	0	40	0	1041235968	56	3869
2026-01-04 05:53:31.36	336.23	17.22	-42.8	-43.8	20.5	0.00e+00	0	40	0	1046478848	55	4154
2026-01-04 05:53:32.65	335.96	17.29	-42.8	-43.8	20.4	0.00e+00	0	40	0	1055916032	55	4150
2026-01-04 05:53:33.48	335.79	17.33	-42.7	-43.6	20.5	0.00e+00	0	40	0	1062207488	55	4084
2026-01-04 05:53:34.62	335.55	17.38	-42.7	-43.6	20.6	0.00e+00	0	40	0	1069547520	55	4076
2026-01-04 05:53:35.48	335.37	17.42	-42.5	-43.5	20.7	0.00e+00	0	40	0	1075838976	55	4024
2026-01-04 05:53:36.63	335.13	17.48	-42.5	-43.4	20.7	0.00e+00	0	40	0	1084227584	55	3984
2026-01-04 05:53:37.49	334.95	17.52	-42.3	-43.2	20.8	0.00e+00	0	40	0	1090519040	55	3899
2026-01-04 05:53:38.63	334.71	17.57	-42.5	-43.5	20.8	0.00e+00	0	40	0	1098907648	55	4025
2026-01-04 05:53:39.82	334.46	17.63	-42.6	-43.6	20.7	0.00e+00	0	40	0	1107296256	55	4086
2026-01-04 05:53:40.68	334.27	17.67	-42.5	-43.5	20.8	0.00e+00	0	40	0	1113587712	55	4007
2026-01-04 05:53:41.83	334.03	17.72	-42.5	-43.5	20.8	0.00e+00	0	40	0	1121976320	55	4016
2026-01-04 05:53:42.68	333.84	17.76	-42.5	-43.5	20.8	0.00e+00	0	40	0	1128267776	55	4020
2026-01-04 05:53:43.83	333.60	17.81	-42.6	-43.6	20.7	0.00e+00	0	40	0	1136656384	55	4075
2026-01-04 05:53:44.69	333.41	17.85	-42.5	-43.5	20.8	0.00e+00	0	40	0	1142947840	55	4013
2026-01-04 05:53:45.83	333.17	17.90	-42.7	-43.6	20.7	0.00e+00	0	40	0	1151336448	55	4094
2026-01-04 05:53:46.69	332.98	17.94	-42.6	-43.5	20.7	0.00e+00	0	40	0	1156579328	55	4046
2026-01-04 05:53:47.83	332.73	17.99	-42.6	-43.6	20.7	0.00e+00	0	40	0	1164967936	55	4061
2026-01-04 05:53:48.69	332.54	18.03	-42.6	-43.6	20.7	0.00e+00	0	40	0	1171259392	55	4062
2026-01-04 05:53:49.84	332.29	18.07	-42.5	-43.5	20.7	0.00e+00	0	40	0	1179648000	55	4018
2026-01-04 05:53:50.69	332.11	18.11	-42.6	-43.6	20.7	0.00e+00	0	40	0	1185939456	55	4080
2026-01-04 05:53:51.84	331.85	18.16	-42.6	-43.6	20.7	0.00e+00	0	40	0	1194328064	55	4056
2026-01-04 05:53:52.70	331.66	18.20	-42.5	-43.4	20.8	0.00e+00	0	40	0	1200619520	55	4002
2026-01-04 05:53:53.84	331.41	18.24	-42.4	-43.3	21.0	0.00e+00	0	40	0	1209008128	55	3947
2026-01-04 05:53:54.70	331.22	18.28	-42.4	-43.3	20.9	0.00e+00	0	40	0	1214251008	55	3934
2026-01-04 05:53:55.85	330.96	18.33	-42.3	-43.2	21.1	0.00e+00	0	40	0	1222639616	55	3900
2026-01-04 05:53:56.71	330.77	18.36	-42.5	-43.4	20.9	0.00e+00	0	40	0	1228931072	55	3995
2026-01-04 05:53:57.85	330.52	18.41	-42.5	-43.4	21.0	0.00e+00	0	40	0	1237319680	55	3977
2026-01-04 05:53:58.71	330.32	18.44	-42.4	-43.3	21.1	0.00e+00	0	40	0	1243611136	55	3926
2026-01-04 05:53:59.85	330.07	18.49	-42.4	-43.3	21.0	0.00e+00	0	40	0	1251999744	55	3956
2026-01-04 05:54:00.71	329.87	18.52	-42.3	-43.2	21.1	0.00e+00	0	40	0	1258291200	55	3873
2026-01-04 05:54:01.99	329.58	18.57	-42.1	-43.0	21.2	0.00e+00	0	40	0	1267728384	55	3806
2026-01-04 05:54:02.71	329.42	18.60	-42.2	-43.1	21.2	0.00e+00	0	40	0	1272971264	54	4098
2026-01-04 05:54:04.00	329.13	18.65	-42.1	-43.1	21.3	0.00e+00	0	40	0	1282408448	54	4068
2026-01-04 05:54:04.71	328.96	18.67	-42.2	-43.1	21.2	0.00e+00	0	40	0	1287651328	54	4089
2026-01-04 05:54:06.00	328.67	18.72	-42.2	-43.2	21.2	0.00e+00	0	40	0	1296039936	54	4111
2026-01-04 05:54:06.71	328.51	18.75	-42.2	-43.2	21.2	0.00e+00	0	40	0	1301282816	54	4105
2026-01-04 05:54:08.00	328.21	18.79	-42.2	-43.1	21.2	0.00e+00	0	40	0	1310720000	54	4096
2026-01-04 05:54:08.71	328.05	18.82	-42.2	-43.1	21.2	0.00e+00	0	40	0	1315962880	54	4096
2026-01-04 05:54:10.00	327.75	18.86	-41.9	-42.9	21.3	0.00e+00	0	40	0	1325400064	54	3962
2026-01-04 05:54:10.72	327.58	18.89	-42.1	-43.1	21.3	0.00e+00	0	40	0	1330642944	54	4065
2026-01-04 05:54:12.00	327.29	18.93	-42.3	-43.2	21.3	0.00e+00	0	40	0	1340080128	54	4125
2026-01-04 05:54:12.72	327.12	18.96	-42.4	-43.3	21.3	0.00e+00	0	40	0	1345323008	54	4180
2026-01-04 05:54:14.07	326.81	19.00	-42.3	-43.2	21.5	0.00e+00	0	40	0	1354760192	54	4140
2026-01-04 05:54:14.79	326.64	19.03	-42.2	-43.1	21.5	0.00e+00	0	40	0	1360003072	54	4085
2026-01-04 05:54:16.20	326.31	19.07	-42.1	-43.0	21.5	0.00e+00	0	40	0	1369440256	54	4029
2026-01-04 05:54:17.16	326.08	19.10	-42.1	-43.0	21.5	0.00e+00	0	40	0	1376780288	54	4039
2026-01-04 05:54:18.55	325.76	19.15	-41.4	-42.3	21.5	0.00e+00	0	40	0	1387266048	53	3944
2026-01-04 05:54:19.27	325.59	19.17	-41.3	-42.1	21.4	0.00e+00	0	40	0	1392508928	53	3866
2026-01-04 05:54:20.56	325.28	19.21	-41.6	-42.5	21.3	0.00e+00	0	40	0	1400897536	53	4017
2026-01-04 05:54:21.27	325.11	19.23	-41.5	-42.4	21.3	0.00e+00	0	40	0	1407188992	53	3977
2026-01-04 05:54:22.56	324.81	19.27	-41.8	-42.8	21.2	0.00e+00	0	40	0	1415577600	53	4147
2026-01-04 05:54:23.27	324.64	19.29	-41.9	-42.8	21.2	0.00e+00	0	40	0	1420820480	53	4175
2026-01-04 05:54:24.56	324.33	19.33	-41.9	-42.8	21.2	0.00e+00	0	40	0	1430257664	53	4164
2026-01-04 05:54:25.28	324.16	19.35	-42.4	-43.3	21.2	0.00e+00	0	40	0	1435500544	54	4170
2026-01-04 05:54:26.57	323.85	19.38	-42.2	-43.1	21.2	0.00e+00	0	40	0	1444937728	54	4088
2026-01-04 05:54:27.29	323.68	19.40	-42.5	-43.5	21.2	0.00e+00	0	40	0	1450180608	54	4248
2026-01-04 05:54:28.77	323.32	19.44	-42.5	-43.5	21.1	0.00e+00	0	40	0	1460666368	54	4250
2026-01-04 05:54:29.48	323.15	19.46	-42.2	-43.1	21.2	0.00e+00	0	40	0	1465909248	54	4057
2026-01-04 05:54:30.77	322.84	19.49	-42.1	-43.0	21.1	0.00e+00	0	40	0	1475346432	54	4017
2026-01-04 05:54:31.48	322.67	19.51	-41.8	-42.7	21.2	0.00e+00	0	40	0	1480589312	54	3894
2026-01-04 05:54:32.77	322.36	19.54	-42.1	-43.0	21.2	0.00e+00	0	40	0	1490026496	54	4012
2026-01-04 05:54:33.49	322.19	19.56	-42.0	-42.9	21.3	0.00e+00	0	40	0	1495269376	54	3965
2026-01-04 05:54:34.78	321.87	19.59	-41.9	-42.8	21.3	0.00e+00	0	40	0	1504706560	54	3946
2026-01-04 05:54:35.49	321.70	19.61	-41.9	-42.8	21.4	0.00e+00	0	40	0	1508900864	54	3922
2026-01-04 05:54:36.78	321.39	19.64	-41.8	-42.7	21.5	0.00e+00	0	40	0	1518338048	54	3884
2026-01-04 05:54:37.61	321.19	19.66	-41.6	-42.5	21.5	0.00e+00	0	40	0	1524629504	53	4033
2026-01-04 05:54:39.11	320.82	19.69	-41.7	-42.6	21.4	0.00e+00	0	40	0	1535115264	53	4070
2026-01-04 05:54:39.82	320.65	19.70	-41.5	-42.4	21.5	0.00e+00	0	40	0	1540358144	53	3991
2026-01-04 05:54:41.11	320.33	19.73	-41.7	-42.6	21.4	0.00e+00	0	40	0	1549795328	53	4070
2026-01-04 05:54:41.83	320.15	19.74	-41.7	-42.7	21.4	0.00e+00	0	40	0	1555038208	53	4103
2026-01-04 05:54:43.11	319.84	19.77	-41.7	-42.6	21.4	0.00e+00	0	40	0	1564475392	53	4085
2026-01-04 05:54:43.83	319.66	19.78	-42.5	-43.4	21.2	0.00e+00	0	40	0	1569718272	54	4201
2026-01-04 05:54:45.11	319.35	19.80	-42.4	-43.3	21.3	0.00e+00	0	40	0	1579155456	54	4193
2026-01-04 05:54:45.92	319.15	19.82	-42.4	-43.3	21.3	0.00e+00	0	40	0	1584398336	54	4160
2026-01-04 05:54:47.07	318.87	19.84	-42.4	-43.3	21.3	0.00e+00	0	40	0	1592786944	54	4159
2026-01-04 05:54:47.92	318.66	19.85	-42.2	-43.1	21.4	0.00e+00	0	40	0	1599078400	54	4092
2026-01-04 05:54:49.07	318.37	19.87	-41.8	-42.7	21.5	0.00e+00	0	40	0	1607467008	54	3913
2026-01-04 05:54:50.23	318.09	19.89	-41.2	-42.2	21.5	0.00e+00	0	40	0	1615855616	53	3875
2026-01-04 05:54:51.27	317.83	19.90	-41.3	-42.2	21.5	0.00e+00	0	40	0	1623195648	53	3892
2026-01-04 05:54:52.26	317.58	19.92	-41.5	-42.4	21.4	0.00e+00	0	40	0	1630535680	53	3976
2026-01-04 05:54:53.26	317.33	19.93	-41.5	-42.4	21.4	0.00e+00	0	40	0	1637875712	53	3990
2026-01-04 05:54:54.27	317.08	19.94	-41.4	-42.3	21.5	0.00e+00	0	40	0	1645215744	53	3955
2026-01-04 05:54:55.27	316.84	19.96	-41.7	-42.6	21.3	0.00e+00	0	40	0	1652555776	53	4058
2026-01-04 05:54:56.27	316.59	19.97	-42.1	-43.0	21.1	0.00e+00	0	40	0	1659895808	53	4250
2026-01-04 05:54:57.27	316.34	19.98	-41.8	-42.7	21.2	0.00e+00	0	40	0	1666187264	53	4117
2026-01-04 05:54:58.27	316.09	19.99	-41.7	-42.6	21.3	0.00e+00	0	40	0	1673527296	53	4073
2026-01-04 05:54:59.27	315.84	20.00	-41.9	-42.8	21.3	0.00e+00	0	40	0	1680867328	53	4174
2026-01-04 05:55:00.27	315.59	20.01	-42.3	-43.3	21.2	0.00e+00	0	40	0	1688207360	54	4146
2026-01-04 05:55:01.28	315.34	20.02	-41.8	-42.7	21.4	0.00e+00	0	40	0	1695547392	54	3908
2026-01-04 05:55:02.28	315.09	20.03	-42.1	-43.0	21.4	0.00e+00	0	40	0	1702887424	54	4043
2026-01-04 05:55:03.28	314.84	20.04	-42.3	-43.2	21.3	0.00e+00	0	40	0	1710227456	54	4141
2026-01-04 05:55:04.35	314.57	20.04	-42.1	-43.0	21.4	0.00e+00	0	40	0	1717567488	54	4044
2026-01-04 05:55:05.26	314.34	20.05	-42.1	-43.0	21.4	0.00e+00	0	40	0	1723858944	54	4033
2026-01-04 05:55:06.26	314.09	20.06	-42.1	-42.9	21.4	0.00e+00	0	40	0	1731198976	54	3998
2026-01-04 05:55:07.26	313.84	20.06	-42.0	-42.9	21.5	0.00e+00	0	40	0	1738539008	54	3964
2026-01-04 05:55:08.27	313.59	20.07	-42.2	-43.1	21.5	0.00e+00	0	40	0	1745879040	54	4053
2026-01-04 05:55:09.27	313.34	20.07	-42.0	-42.8	21.6	0.00e+00	0	40	0	1753219072	54	3952
2026-01-04 05:55:10.27	313.09	20.08	-41.8	-42.7	21.6	0.00e+00	0	40	0	1760559104	54	3898
2026-01-04 05:55:11.27	312.84	20.08	-42.0	-42.9	21.6	0.00e+00	0	40	0	1767899136	54	3974
2026-01-04 05:55:12.27	312.59	20.08	-41.7	-42.6	21.6	0.00e+00	0	40	0	1775239168	54	3829
2026-01-04 05:55:13.28	312.33	20.09	-42.0	-42.9	21.5	0.00e+00	0	40	0	1782579200	54	3986
2026-01-04 05:55:14.28	312.08	20.09	-42.0	-42.9	21.5	0.00e+00	0	40	0	1788870656	54	3961
2026-01-04 05:55:15.28	311.83	20.09	-42.0	-42.8	21.6	0.00e+00	0	40	0	1796210688	54	3955
2026-01-04 05:55:16.28	311.58	20.09	-42.0	-42.8	21.6	0.00e+00	0	40	0	1803550720	54	3956
2026-01-04 05:55:17.28	311.33	20.09	-42.1	-43.0	21.5	0.00e+00	0	40	0	1810890752	54	4032
2026-01-04 05:55:18.34	311.06	20.09	-42.1	-43.0	21.5	0.00e+00	0	40	0	1818230784	54	4019
2026-01-04 05:55:19.23	310.84	20.09	-42.1	-42.9	21.6	0.00e+00	0	40	0	1825570816	54	4001
2026-01-04 05:55:20.54	310.51	20.08	-41.9	-42.8	21.6	0.00e+00	0	40	0	1833959424	54	3948
2026-01-04 05:55:21.25	310.33	20.08	-42.1	-43.0	21.6	0.00e+00	0	40	0	1839202304	54	4017
2026-01-04 05:55:22.54	310.01	20.08	-42.1	-43.0	21.5	0.00e+00	0	40	0	1848639488	54	4031
2026-01-04 05:55:23.26	309.83	20.08	-41.9	-42.9	21.6	0.00e+00	0	40	0	1853882368	54	3964
2026-01-04 05:55:24.82	309.44	20.07	-42.2	-43.0	21.5	0.00e+00	0	40	0	1865416704	54	4051
2026-01-04 05:55:25.53	309.26	20.07	-42.1	-43.0	21.6	0.00e+00	0	40	0	1870659584	54	4007
2026-01-04 05:55:26.81	308.94	20.06	-42.1	-43.0	21.5	0.00e+00	0	40	0	1880096768	54	4012
2026-01-04 05:55:27.53	308.76	20.06	-42.0	-42.8	21.6	0.00e+00	0	40	0	1885339648	54	3947
2026-01-04 05:55:28.81	308.44	20.05	-42.1	-43.0	21.4	0.00e+00	0	40	0	1894776832	54	4021
2026-01-04 05:55:29.53	308.26	20.04	-42.1	-43.0	21.4	0.00e+00	0	40	0	1898971136	54	4009
2026-01-04 05:55:30.81	307.94	20.03	-42.1	-43.0	21.4	0.00e+00	0	40	0	1908408320	54	4010
2026-01-04 05:55:31.53	307.76	20.03	-41.8	-42.6	21.4	0.00e+00	0	40	0	1913651200	54	3864
2026-01-04 05:55:32.82	307.44	20.01	-41.9	-42.8	21.4	0.00e+00	0	40	0	1923088384	54	3935
2026-01-04 05:55:33.57	307.25	20.01	-41.9	-42.8	21.4	0.00e+00	0	40	0	1928331264	54	3924
2026-01-04 05:55:34.85	306.93	19.99	-41.8	-42.7	21.5	0.00e+00	0	40	0	1937768448	54	3869
2026-01-04 05:55:35.67	306.73	19.99	-41.7	-42.6	21.6	0.00e+00	0	40	0	1944059904	54	3851
2026-01-04 05:55:36.81	306.44	19.97	-41.7	-42.5	21.6	0.00e+00	0	40	0	1952448512	54	3822
2026-01-04 05:55:37.67	306.23	19.96	-41.6	-42.4	21.7	0.00e+00	0	40	0	1958739968	53	3994
2026-01-04 05:55:38.82	305.94	19.95	-41.7	-42.5	21.6	0.00e+00	0	40	0	1966080000	53	4043
2026-01-04 05:55:39.68	305.73	19.94	-41.8	-42.6	21.6	0.00e+00	0	40	0	1972371456	53	4093
2026-01-04 05:55:40.82	305.44	19.92	-41.9	-42.8	21.4	0.00e+00	0	40	0	1980760064	53	4170
2026-01-04 05:55:41.67	305.23	19.91	-41.9	-42.8	21.5	0.00e+00	0	40	0	1987051520	53	4154
2026-01-04 05:55:42.81	304.95	19.89	-41.9	-42.8	21.4	0.00e+00	0	40	0	1995440128	53	4149
2026-01-04 05:55:43.67	304.74	19.88	-41.9	-42.8	21.4	0.00e+00	0	40	0	2001731584	53	4183
2026-01-04 05:55:45.02	304.40	19.86	-41.9	-42.7	21.5	0.00e+00	0	40	0	2011168768	53	4145
2026-01-04 05:55:45.74	304.23	19.85	-41.9	-42.8	21.5	0.00e+00	0	40	0	2016411648	53	4149
2026-01-04 05:55:47.24	303.86	19.82	-41.8	-42.7	21.6	0.00e+00	0	40	0	2026897408	53	4114
2026-01-04 05:55:47.95	303.68	19.81	-41.7	-42.6	21.8	0.00e+00	0	40	0	2032140288	53	4062
2026-01-04 05:55:49.29	303.35	19.79	-41.0	-41.9	21.8	1.10e-06	0	40	0	2041577472	52	3970
2026-01-04 05:55:50.00	303.18	19.77	-41.1	-42.0	21.6	0.00e+00	0	40	0	2046820352	52	4024
2026-01-04 05:55:51.30	302.86	19.75	-41.4	-42.3	21.5	0.00e+00	0	40	0	2056257536	52	4170
2026-01-04 05:55:52.01	302.68	19.74	-41.5	-42.4	21.4	0.00e+00	0	40	0	2061500416	52	4209
2026-01-04 05:55:53.30	302.37	19.71	-41.8	-42.7	21.2	0.00e+00	0	40	0	2070937600	53	4108
2026-01-04 05:55:54.02	302.19	19.69	-42.0	-42.8	21.3	0.00e+00	0	40	0	2076180480	53	4190
2026-01-04 05:55:55.30	301.88	19.67	-41.7	-42.6	21.4	0.00e+00	0	40	0	2085617664	53	4082
2026-01-04 05:55:56.02	301.70	19.65	-41.6	-42.4	21.3	0.00e+00	0	40	0	2090860544	53	4001
2026-01-04 05:55:57.31	301.39	19.62	-41.5	-42.4	21.4	0.00e+00	0	40	0	2100297728	53	3990
2026-01-04 05:55:58.03	301.21	19.61	-41.5	-42.3	21.5	0.00e+00	0	40	0	2105540608	53	3957
2026-01-04 05:55:59.31	300.90	19.58	-41.4	-42.2	21.6	0.00e+00	0	40	0	2114977792	53	3912
2026-01-04 05:56:00.03	300.73	19.56	-41.4	-42.3	21.6	0.00e+00	0	40	0	2119172096	53	3930
2026-01-04 05:56:01.32	300.41	19.53	-41.4	-42.2	21.6	0.00e+00	0	40	0	2128609280	53	3911
2026-01-04 05:56:02.04	300.24	19.51	-41.5	-42.3	21.6	0.00e+00	0	40	0	2133852160	53	3957
2026-01-04 05:56:03.33	299.93	19.48	-41.5	-42.4	21.5	0.00e+00	0	40	0	2143289344	53	3976
2026-01-04 05:56:04.04	299.76	19.46	-41.6	-42.5	21.5	0.00e+00	0	40	0	2148532224	53	4005
2026-01-04 05:56:05.33	299.45	19.43	-41.7	-42.6	21.4	0.00e+00	0	40	0	2157969408	53	4062
2026-01-04 05:56:06.05	299.27	19.41	-41.7	-42.5	21.4	0.00e+00	0	40	0	2163212288	53	4049
2026-01-04 05:56:07.34	298.96	19.37	-41.7	-42.5	21.4	0.00e+00	0	40	0	2172649472	53	4049
2026-01-04 05:56:08.06	298.79	19.35	-41.7	-42.5	21.4	0.00e+00	0	40	0	2176843776	53	4045
2026-01-04 05:56:09.35	298.48	19.31	-41.7	-42.6	21.4	0.00e+00	0	40	0	2186280960	53	4066
2026-01-04 05:56:10.06	298.31	19.29	-41.6	-42.5	21.5	0.00e+00	0	40	0	2192572416	53	4026
2026-01-04 05:56:11.35	298.01	19.26	-41.5	-42.4	21.6	0.00e+00	0	40	0	2200961024	53	3986
2026-01-04 05:56:12.07	297.84	19.23	-41.5	-42.4	21.6	0.00e+00	0	40	0	2206203904	53	3994
2026-01-04 05:56:13.36	297.53	19.20	-41.6	-42.5	21.4	0.00e+00	0	40	0	2215641088	53	4035
2026-01-04 05:56:14.08	297.36	19.17	-41.7	-42.6	21.3	0.00e+00	0	40	0	2220883968	53	4087
2026-01-04 05:56:15.36	297.06	19.13	-41.1	-42.0	21.4	0.00e+00	0	40	0	2230321152	52	4027
2026-01-04 05:56:16.08	296.89	19.11	-41.7	-42.6	21.3	0.00e+00	0	40	0	2235564032	52	4315
2026-01-04 05:56:17.37	296.58	19.07	-41.8	-42.6	21.4	0.00e+00	0	40	0	2245001216	53	4098
2026-01-04 05:56:18.09	296.41	19.05	-41.7	-42.6	21.4	0.00e+00	0	40	0	2250244096	53	4084
2026-01-04 05:56:19.37	296.12	19.00	-41.7	-42.6	21.3	0.00e+00	0	40	0	2259681280	53	4077
2026-01-04 05:56:20.09	295.95	18.98	-41.7	-42.6	21.3	0.00e+00	0	40	0	2263875584	53	4080
2026-01-04 05:56:21.59	295.60	18.93	-41.7	-42.6	21.4	0.00e+00	0	40	0	2275409920	53	4070
2026-01-04 05:56:22.57	295.37	18.89	-41.7	-42.6	21.4	0.00e+00	0	40	0	2282749952	53	4079
2026-01-04 05:56:23.58	295.14	18.86	-41.8	-42.6	21.4	0.00e+00	0	40	0	2290089984	53	4094
2026-01-04 05:56:24.58	294.90	18.82	-41.8	-42.7	21.3	0.00e+00	0	40	0	2296381440	53	4115
2026-01-04 05:56:25.58	294.67	18.79	-41.9	-42.8	21.2	0.00e+00	0	40	0	2303721472	53	4157
2026-01-04 05:56:26.58	294.44	18.75	-42.1	-43.0	21.1	0.00e+00	0	40	0	2311061504	53	4255
2026-01-04 05:56:27.59	294.21	18.71	-42.2	-43.1	20.9	0.00e+00	0	40	0	2318401536	54	4070
2026-01-04 05:56:28.59	293.98	18.68	-42.3	-43.2	20.9	0.00e+00	0	40	0	2325741568	54	4140
2026-01-04 05:56:29.59	293.75	18.64	-42.2	-43.1	21.0	1.25e-05	0	40	0	2333081600	54	4093
2026-01-04 05:56:30.60	293.52	18.60	-42.5	-43.4	20.9	4.50e-06	0	40	0	2340421632	54	4211
2026-01-04 05:56:31.71	293.27	18.56	-42.4	-43.4	20.8	0.00e+00	0	40	0	2347761664	54	4197
2026-01-04 05:56:32.57	293.07	18.53	-42.3	-43.2	21.0	0.00e+00	0	40	0	2354053120	54	4132
2026-01-04 05:56:33.71	292.82	18.48	-42.0	-42.4	20.0	2.28e-05	0	40	0	2362441728	52	4204
2026-01-04 05:56:34.67	292.60	18.44	-42.4	-43.3	21.0	0.00e+00	0	40	0	2369781760	54	4184
2026-01-04 05:56:35.88	292.33	18.39	-42.2	-43.1	21.0	7.66e-05	0	40	0	2378170368	53	4321
2026-01-04 05:56:36.74	292.13	18.36	-42.1	-43.0	21.0	7.32e-05	0	40	0	2384461824	53	4273
2026-01-04 05:56:38.09	291.83	18.30	-42.2	-43.1	21.1	3.31e-05	0	40	0	2393899008	53	4300
2026-01-04 05:56:38.81	291.67	18.27	-42.3	-43.2	20.9	0.00e+00	0	40	0	2399141888	54	4112
2026-01-04 05:56:40.09	291.39	18.22	-42.3	-43.2	20.9	0.00e+00	0	40	0	2408579072	54	4115
2026-01-04 05:56:40.81	291.23	18.19	-42.1	-43.0	21.0	0.00e+00	0	40	0	2413821952	54	4025
2026-01-04 05:56:42.10	290.94	18.14	-42.2	-43.1	21.0	0.00e+00	0	40	0	2423259136	54	4075
2026-01-04 05:56:42.87	290.77	18.10	-42.5	-43.4	21.0	0.00e+00	0	40	0	2428502016	54	4200
2026-01-04 05:56:44.16	290.49	18.05	-42.3	-43.2	20.9	0.00e+00	0	40	0	2437939200	54	4113
2026-01-04 05:56:44.97	290.31	18.01	-42.2	-43.1	20.9	0.00e+00	0	40	0	2444230656	54	4060
2026-01-04 05:56:46.11	290.06	17.96	-42.1	-43.0	20.9	0.00e+00	0	40	0	2451570688	54	4021
2026-01-04 05:56:46.97	289.87	17.92	-42.1	-43.0	20.8	0.00e+00	0	40	0	2458910720	53	4258
2026-01-04 05:56:48.12	289.62	17.87	-42.4	-43.3	20.9	0.00e+00	0	40	0	2467299328	54	4171
2026-01-04 05:56:48.97	289.44	17.84	-42.5	-43.4	20.8	0.00e+00	0	40	0	2472542208	54	4223
2026-01-04 05:56:50.12	289.19	17.78	-42.5	-43.4	20.8	0.00e+00	0	40	0	2480930816	54	4235
2026-01-04 05:56:50.98	289.01	17.74	-42.5	-43.5	20.8	0.00e+00	0	40	0	2487222272	54	4244
2026-01-04 05:56:52.13	288.76	17.69	-42.3	-43.2	21.0	0.00e+00	0	40	0	2495610880	54	4127
2026-01-04 05:56:52.99	288.57	17.65	-42.2	-43.1	21.1	0.00e+00	0	40	0	2501902336	54	4069
2026-01-04 05:56:54.13	288.33	17.60	-42.2	-43.1	21.0	0.00e+00	0	40	0	2510290944	54	4085
2026-01-04 05:56:55.02	288.14	17.56	-42.3	-43.2	20.9	0.00e+00	0	40	0	2516582400	54	4121
2026-01-04 05:56:56.16	287.90	17.50	-42.3	-43.2	20.9	0.00e+00	0	40	0	2524971008	54	4136
2026-01-04 05:56:57.12	287.70	17.46	-42.4	-43.3	20.8	0.00e+00	0	40	0	2531262464	54	4185
2026-01-04 05:56:58.30	287.45	17.40	-42.4	-43.3	20.8	0.00e+00	0	40	0	2539651072	54	4164
2026-01-04 05:56:59.16	287.27	17.36	-42.3	-43.2	20.9	0.00e+00	0	40	0	2545942528	54	4125
2026-01-04 05:57:00.52	286.98	17.29	-42.3	-43.3	20.8	0.00e+00	0	40	0	2556428288	54	4147
2026-01-04 05:57:01.24	286.83	17.26	-42.4	-43.2	20.9	0.00e+00	0	40	0	2561671168	54	4126
2026-01-04 05:57:02.53	286.56	17.19	-42.3	-43.2	20.9	0.00e+00	0	40	0	2571108352	54	4124
2026-01-04 05:57:03.24	286.42	17.16	-42.3	-43.2	20.9	0.00e+00	0	40	0	2575302656	54	4106
2026-01-04 05:57:04.53	286.15	17.10	-42.2	-43.1	20.9	0.00e+00	0	40	0	2584739840	54	4070
2026-01-04 05:57:05.25	286.00	17.06	-42.2	-43.1	21.0	0.00e+00	0	40	0	2589982720	54	4060
2026-01-04 05:57:06.54	285.74	17.00	-42.3	-43.2	20.9	0.00e+00	0	40	0	2599419904	54	4130
2026-01-04 05:57:07.25	285.59	16.96	-42.3	-43.2	20.9	0.00e+00	0	40	0	2604662784	54	4128
2026-01-04 05:57:08.54	285.33	16.89	-42.4	-43.3	20.8	0.00e+00	0	40	0	2614099968	54	4190
2026-01-04 05:57:09.26	285.18	16.86	-42.5	-43.4	20.8	0.00e+00	0	40	0	2619342848	54	4232
2026-01-04 05:57:10.59	284.91	16.79	-42.5	-43.4	20.8	0.00e+00	0	40	0	2628780032	54	4240
2026-01-04 05:57:11.58	284.71	16.74	-42.6	-43.5	20.7	0.00e+00	0	40	0	2636120064	54	4279
2026-01-04 05:57:12.58	284.51	16.69	-42.4	-43.3	20.8	0.00e+00	0	40	0	2643460096	55	3923
2026-01-04 05:57:13.58	284.31	16.63	-42.3	-43.2	20.8	0.00e+00	0	40	0	2650800128	55	3906
2026-01-04 05:57:14.59	284.11	16.58	-42.3	-43.3	20.9	0.00e+00	0	40	0	2658140160	55	3917
2026-01-04 05:57:15.59	283.91	16.53	-42.3	-43.2	20.9	0.00e+00	0	40	0	2665480192	55	3907
2026-01-04 05:57:16.59	283.71	16.48	-42.5	-43.4	20.7	0.00e+00	0	40	0	2671771648	55	3992
2026-01-04 05:57:17.59	283.52	16.42	-42.4	-43.3	20.8	0.00e+00	0	40	0	2679111680	55	3932
2026-01-04 05:57:18.60	283.32	16.37	-42.4	-43.3	20.8	1.10e-06	0	40	0	2686451712	54	4193
2026-01-04 05:57:19.60	283.12	16.32	-42.5	-43.5	20.6	0.00e+00	0	40	0	2693791744	54	4246
2026-01-04 05:57:20.60	282.93	16.26	-42.6	-43.5	20.7	0.00e+00	0	40	0	2701131776	54	4253
2026-01-04 05:57:21.61	282.73	16.21	-42.7	-43.6	20.6	0.00e+00	0	40	0	2708471808	54	4327
2026-01-04 05:57:22.61	282.54	16.15	-42.7	-43.7	20.5	0.00e+00	0	40	0	2715811840	55	4100
2026-01-04 05:57:23.61	282.34	16.10	-42.8	-43.8	20.4	0.00e+00	0	40	0	2723151872	55	4176
2026-01-04 05:57:24.62	282.15	16.04	-43.1	-44.1	20.3	0.00e+00	0	40	0	2730491904	56	4072
2026-01-04 05:57:25.62	281.96	15.99	-43.1	-44.1	20.3	0.00e+00	0	40	0	2737831936	56	4067
2026-01-04 05:57:26.62	281.77	15.93	-43.1	-44.1	20.3	0.00e+00	0	40	0	2745171968	56	4063
2026-01-04 05:57:27.62	281.58	15.88	-43.1	-44.1	20.3	0.00e+00	0	40	0	2751463424	56	4057
2026-01-04 05:57:28.63	281.38	15.82	-43.2	-44.2	20.2	0.00e+00	0	40	0	2758803456	56	4114
2026-01-04 05:57:29.63	281.20	15.77	-43.2	-44.2	20.1	0.00e+00	0	40	0	2766143488	56	4107
2026-01-04 05:57:30.63	281.01	15.71	-43.0	-44.0	20.4	0.00e+00	0	40	0	2773483520	56	4009
2026-01-04 05:57:31.62	280.82	15.66	-43.0	-44.0	20.4	0.00e+00	0	40	0	2780823552	56	4022
2026-01-04 05:57:32.63	280.63	15.60	-42.9	-43.8	20.4	0.00e+00	0	40	0	2788163584	56	3940
2026-01-04 05:57:33.71	280.43	15.54	-42.9	-43.8	20.4	0.00e+00	0	40	0	2795503616	56	3945
2026-01-04 05:57:34.62	280.26	15.49	-43.0	-43.9	20.3	0.00e+00	0	40	0	2802843648	56	3983
2026-01-04 05:57:35.79	280.05	15.42	-43.0	-44.0	20.4	0.00e+00	0	40	0	2811232256	56	4014
2026-01-04 05:57:36.67	279.88	15.37	-43.0	-43.9	20.3	0.00e+00	0	40	0	2817523712	56	3999
2026-01-04 05:57:37.81	279.68	15.31	-43.1	-44.1	20.3	0.00e+00	0	40	0	2825912320	56	4065
2026-01-04 05:57:38.67	279.52	15.26	-43.1	-44.0	20.2	0.00e+00	0	40	0	2832203776	56	4045
2026-01-04 05:57:39.82	279.31	15.19	-43.2	-44.1	20.2	0.00e+00	0	40	0	2839543808	56	4080
2026-01-04 05:57:40.68	279.15	15.14	-43.2	-44.2	20.2	0.00e+00	0	40	0	2845835264	56	4113
2026-01-04 05:57:41.82	278.95	15.08	-43.3	-44.2	20.1	0.00e+00	0	40	0	2854223872	56	4140
2026-01-04 05:57:42.68	278.79	15.03	-43.3	-44.3	20.1	0.00e+00	0	40	0	2860515328	56	4157
2026-01-04 05:57:43.83	278.59	14.96	-43.4	-44.4	20.0	0.00e+00	0	40	0	2868903936	56	4207
2026-01-04 05:57:44.69	278.43	14.91	-43.3	-44.3	20.1	0.00e+00	0	40	0	2875195392	56	4174
2026-01-04 05:57:45.83	278.23	14.84	-43.4	-44.4	20.0	0.00e+00	0	40	0	2883584000	56	4199
2026-01-04 05:57:46.68	278.08	14.79	-43.2	-44.2	20.1	0.00e+00	0	40	0	2889875456	56	4116
2026-01-04 05:57:47.83	277.88	14.73	-43.4	-44.3	20.0	0.00e+00	0	40	0	2898264064	56	4177
2026-01-04 05:57:48.69	277.73	14.68	-43.3	-44.2	20.1	0.00e+00	0	40	0	2903506944	56	4138
2026-01-04 05:57:49.83	277.53	14.61	-43.4	-44.3	20.0	0.00e+00	0	40	0	2911895552	56	4186
2026-01-04 05:57:50.71	277.38	14.56	-43.2	-44.2	20.1	0.00e+00	0	40	0	2918187008	56	4121
2026-01-04 05:57:52.03	277.15	14.48	-43.3	-44.3	20.0	0.00e+00	0	40	0	2927624192	56	4159
2026-01-04 05:57:52.74	277.02	14.44	-43.3	-44.3	19.9	0.00e+00	0	40	0	2932867072	56	4155
2026-01-04 05:57:54.24	276.77	14.35	-42.8	-43.8	20.0	0.00e+00	0	40	0	2944401408	56	3943
2026-01-04 05:57:54.96	276.64	14.31	-43.4	-44.4	19.9	0.00e+00	0	40	0	2948595712	56	4210
2026-01-04 05:57:56.24	276.43	14.23	-43.1	-44.1	20.0	0.00e+00	0	40	0	2958032896	56	4080
2026-01-04 05:57:56.96	276.30	14.19	-43.3	-44.2	20.1	9.10e-06	0	40	0	2963275776	56	4143
2026-01-04 05:57:58.24	276.09	14.11	-43.3	-44.3	20.1	0.00e+00	0	40	0	2972712960	56	4155
2026-01-04 05:57:58.96	275.97	14.07	-43.5	-44.5	20.0	3.89e-05	0	40	0	2977955840	56	4261
2026-01-04 05:58:00.25	275.75	13.99	-43.5	-44.5	20.1	4.50e-06	0	40	0	2987393024	56	4250
2026-01-04 05:58:00.97	275.63	13.95	-43.6	-44.6	19.9	0.00e+00	0	40	0	2992635904	56	4302
2026-01-04 05:58:02.25	275.42	13.87	-43.5	-44.5	20.0	0.00e+00	0	40	0	3002073088	56	4267
2026-01-04 05:58:02.97	275.30	13.83	-43.3	-44.3	20.1	0.00e+00	0	40	0	3007315968	56	4165
2026-01-04 05:58:04.26	275.08	13.75	-43.3	-44.3	20.0	0.00e+00	0	40	0	3015704576	56	4154
2026-01-04 05:58:05.09	274.95	13.70	-43.3	-44.3	20.0	0.00e+00	0	40	0	3021996032	56	4178
2026-01-04 05:58:06.55	274.71	13.61	-43.3	-44.3	20.1	0.00e+00	0	40	0	3032481792	56	4146
2026-01-04 05:58:07.27	274.59	13.57	-43.3	-44.3	20.1	0.00e+00	0	40	0	3037724672	56	4172
2026-01-04 05:58:08.56	274.38	13.49	-43.3	-44.3	20.0	0.00e+00	0	40	0	3047161856	56	4159
2026-01-04 05:58:09.28	274.27	13.45	-43.4	-44.4	20.0	0.00e+00	0	40	0	3052404736	56	4195
2026-01-04 05:58:10.85	274.01	13.35	-43.6	-44.5	19.9	0.00e+00	0	40	0	3063939072	56	4277
2026-01-04 05:58:11.45	273.92	13.32	-43.5	-44.5	19.9	0.00e+00	0	40	0	3068133376	56	4246
2026-01-04 05:58:13.03	273.67	13.22	-43.6	-44.5	19.8	0.00e+00	0	40	0	3079667712	56	4288
2026-01-04 05:58:13.63	273.57	13.18	-43.6	-44.6	19.8	0.00e+00	0	40	0	3083862016	56	4293
2026-01-04 05:58:15.21	273.32	13.09	-43.0	-44.0	19.8	1.10e-06	0	40	0	3095396352	56	4007
2026-01-04 05:58:15.78	273.23	13.05	-43.6	-44.6	19.7	8.00e-06	0	40	0	3099590656	56	4326
2026-01-04 05:58:17.42	272.98	12.95	-43.6	-44.6	19.7	0.00e+00	0	40	0	3111124992	57	4061
2026-01-04 05:58:17.99	272.89	12.92	-42.8	-43.8	19.7	1.71e-05	0	40	0	3115319296	56	3949
2026-01-04 05:58:19.60	272.64	12.82	-43.7	-44.7	19.7	0.00e+00	0	40	0	3126853632	57	4104
2026-01-04 05:58:20.55	272.49	12.76	-43.8	-44.8	19.6	0.00e+00	0	40	0	3134193664	57	4147
2026-01-04 05:58:21.56	272.34	12.70	-43.8	-44.8	19.5	0.00e+00	0	40	0	3141533696	57	4177
2026-01-04 05:58:22.56	272.18	12.64	-44.0	-45.0	19.4	0.00e+00	0	40	0	3147825152	57	4273
2026-01-04 05:58:23.56	272.03	12.58	-43.8	-44.9	19.3	0.00e+00	0	40	0	3156213760	57	4200
2026-01-04 05:58:24.57	271.88	12.51	-43.9	-44.9	19.3	0.00e+00	0	40	0	3163553792	57	4212
2026-01-04 05:58:25.56	271.73	12.45	-43.9	-44.9	19.4	0.00e+00	0	40	0	3169845248	57	4229
2026-01-04 05:58:26.56	271.58	12.39	-43.9	-45.0	19.4	0.00e+00	0	40	0	3177185280	57	4244
2026-01-04 05:58:27.57	271.43	12.33	-44.0	-45.0	19.3	0.00e+00	0	40	0	3184525312	57	4276
2026-01-04 05:58:28.57	271.28	12.27	-43.7	-44.7	19.5	2.20e-06	0	40	0	3191865344	57	4123
2026-01-04 05:58:29.57	271.13	12.21	-43.6	-44.6	19.6	0.00e+00	0	40	0	3199205376	57	4092
2026-01-04 05:58:30.57	270.98	12.14	-43.6	-44.6	19.7	0.00e+00	0	40	0	3206545408	56	4301
2026-01-04 05:58:31.58	270.84	12.08	-43.6	-44.6	19.7	0.00e+00	0	40	0	3213885440	56	4292
2026-01-04 05:58:32.58	270.69	12.02	-43.6	-44.6	19.6	0.00e+00	0	40	0	3221225472	56	4321
2026-01-04 05:58:33.58	270.54	11.96	-43.4	-44.4	19.8	0.00e+00	0	40	0	3227516928	56	4226
2026-01-04 05:58:34.58	270.40	11.90	-43.6	-44.5	19.7	0.00e+00	0	40	0	3234856960	56	4287
2026-01-04 05:58:35.58	270.25	11.83	-43.7	-44.7	19.6	0.00e+00	0	40	0	3242196992	56	4353
2026-01-04 05:58:36.58	270.11	11.77	-43.7	-44.7	19.5	0.00e+00	0	40	0	3249537024	57	4136
2026-01-04 05:58:37.58	269.97	11.71	-43.8	-44.8	19.5	0.00e+00	0	40	0	3256877056	57	4153
2026-01-04 05:58:38.59	269.82	11.65	-44.2	-45.2	19.3	0.00e+00	0	40	0	3264217088	58	4131
2026-01-04 05:58:39.59	269.68	11.59	-44.1	-45.1	19.3	0.00e+00	0	40	0	3271557120	58	4069
2026-01-04 05:58:40.77	269.51	11.51	-44.1	-45.2	19.2	0.00e+00	0	40	0	3279945728	58	4111
2026-01-04 05:58:41.68	269.38	11.46	-44.1	-45.2	19.1	0.00e+00	0	40	0	3286237184	58	4109
2026-01-04 05:58:42.87	269.22	11.38	-44.3	-45.3	19.0	0.00e+00	0	40	0	3294625792	58	4193
2026-01-04 05:58:43.76	269.09	11.33	-44.1	-45.2	19.1	0.00e+00	0	40	0	3301965824	57	4358
2026-01-04 05:58:44.91	268.93	11.26	-44.3	-45.3	19.1	0.00e+00	0	40	0	3309305856	58	4168
2026-01-04 05:58:45.77	268.81	11.20	-44.2	-45.2	19.1	5.70e-06	0	40	0	3315597312	58	4120
2026-01-04 05:58:47.13	268.63	11.12	-44.1	-45.2	19.2	0.00e+00	0	40	0	3326083072	58	4103
2026-01-04 05:58:48.26	268.47	11.05	-44.1	-45.2	19.2	0.00e+00	0	40	0	3334471680	58	4113
2026-01-04 05:58:49.44	268.31	10.98	-44.1	-45.1	19.2	0.00e+00	0	40	0	3342860288	58	4068
2026-01-04 05:58:50.30	268.20	10.92	-43.9	-45.0	19.2	0.00e+00	0	40	0	3348103168	58	4017
2026-01-04 05:58:51.44	268.04	10.85	-44.1	-45.1	19.2	0.00e+00	0	40	0	3356491776	58	4081
2026-01-04 05:58:52.30	267.93	10.80	-43.8	-44.9	19.3	0.00e+00	0	40	0	3362783232	57	4205
2026-01-04 05:58:53.45	267.77	10.73	-43.9	-44.9	19.2	0.00e+00	0	40	0	3371171840	57	4209
2026-01-04 05:58:54.31	267.66	10.67	-44.0	-45.0	19.2	0.00e+00	0	40	0	3377463296	57	4270
2026-01-04 05:58:55.45	267.51	10.60	-44.1	-45.1	19.1	0.00e+00	0	40	0	3385851904	57	4324
2026-01-04 05:58:56.31	267.39	10.55	-44.0	-45.0	19.3	0.00e+00	0	40	0	3392143360	57	4254
2026-01-04 05:58:57.46	267.24	10.48	-44.0	-45.0	19.3	0.00e+00	0	40	0	3400531968	58	4016
2026-01-04 05:58:58.32	267.13	10.43	-43.9	-44.9	19.3	1.10e-06	0	40	0	3406823424	58	3987
2026-01-04 05:58:59.46	266.98	10.35	-44.0	-45.0	19.3	0.00e+00	0	40	0	3415212032	57	4265
2026-01-04 05:59:00.32	266.87	10.30	-44.0	-45.0	19.2	0.00e+00	0	40	0	3421503488	57	4270
2026-01-04 05:59:01.47	266.72	10.23	-44.1	-45.1	19.2	0.00e+00	0	40	0	3429892096	57	4337
2026-01-04 05:59:02.32	266.61	10.18	-44.0	-45.0	19.2	0.00e+00	0	40	0	3435134976	57	4271
2026-01-04 05:59:03.47	266.46	10.11	-44.2	-45.2	19.1	0.00e+00	0	40	0	3443523584	57	4377
2026-01-04 05:59:04.33	266.35	10.05	-44.1	-45.1	19.2	0.00e+00	0	40	0	3449815040	57	4329
2026-01-04 05:59:05.47	266.21	9.98	-44.2	-45.3	19.0	0.00e+00	0	40	0	3458203648	58	4163
2026-01-04 05:59:06.33	266.10	9.93	-44.3	-45.3	19.0	1.25e-05	0	40	0	3464495104	58	4177
2026-01-04 05:59:07.48	265.95	9.86	-44.4	-45.4	18.9	0.00e+00	0	40	0	3472883712	58	4234
2026-01-04 05:59:08.34	265.84	9.81	-44.4	-45.5	18.9	0.00e+00	0	40	0	3479175168	58	4249
2026-01-04 05:59:09.48	265.70	9.74	-44.5	-45.6	18.7	0.00e+00	0	40	0	3487563776	58	4333
2026-01-04 05:59:10.35	265.59	9.68	-44.5	-45.6	18.7	0.00e+00	0	40	0	3492806656	58	4323
2026-01-04 05:59:11.49	265.45	9.61	-44.5	-45.6	18.7	0.00e+00	0	40	0	3501195264	58	4310
2026-01-04 05:59:12.35	265.35	9.56	-44.6	-45.7	18.6	0.00e+00	0	40	0	3507486720	58	4360
2026-01-04 05:59:13.49	265.21	9.49	-45.7	-46.9	17.8	0.00e+00	0	40	0	3515875328	60	4450
2026-01-04 05:59:14.35	265.10	9.43	-44.6	-45.8	18.7	0.00e+00	0	40	0	3522166784	60	3919
2026-01-04 05:59:15.50	264.96	9.36	-44.6	-45.7	18.6	1.10e-06	0	40	0	3530555392	59	4118
2026-01-04 05:59:16.36	264.86	9.31	-44.5	-45.6	18.7	0.00e+00	0	40	0	3536846848	59	4098
2026-01-04 05:59:17.68	264.70	9.23	-44.5	-45.6	18.7	0.00e+00	0	40	0	3546284032	59	4066
2026-01-04 05:59:18.39	264.61	9.19	-44.6	-45.7	18.6	0.00e+00	0	40	0	3551526912	59	4139
2026-01-04 05:59:19.68	264.46	9.11	-44.5	-45.6	18.7	0.00e+00	0	40	0	3560964096	59	4094
2026-01-04 05:59:20.39	264.37	9.06	-44.6	-45.8	18.6	0.00e+00	0	40	0	3566206976	59	4148
2026-01-04 05:59:21.68	264.22	8.98	-49.1	-51.1	13.7	0.00e+00	0	40	0	3575644160	67	4869
2026-01-04 05:59:22.40	264.13	8.94	-54.8	-65.1	3.8	8.47e-01	0	40	104	3575644160	79	12101
2026-01-04 05:59:23.69	263.98	8.86	-54.9	-65.9	3.8	8.46e-01	0	40	104	3575644160	80	12568
2026-01-04 05:59:24.41	263.90	8.82	-54.8	-65.9	3.8	8.47e-01	0	40	104	3575644160	80	12581
2026-01-04 05:59:25.70	263.75	8.74	-55.4	-66.2	3.8	8.46e-01	0	40	104	3575644160	80	13026
2026-01-04 05:59:26.41	263.66	8.69	-55.4	-66.2	3.8	8.47e-01	0	40	104	3575644160	80	13030
2026-01-04 05:59:27.72	263.51	8.61	-55.5	-66.3	3.8	8.47e-01	0	40	104	3575644160	80	13138
2026-01-04 05:59:28.44	263.43	8.57	-55.4	-66.3	3.8	8.46e-01	0	40	104	3575644160	80	13113
2026-01-04 05:59:29.79	263.28	8.49	-55.3	-66.3	3.8	8.47e-01	0	40	104	3575644160	80	13260
2026-01-04 05:59:30.51	263.19	8.44	-55.5	-66.4	3.8	8.46e-01	0	40	104	3575644160	80	13316
2026-01-04 05:59:31.86	263.04	8.36	-55.5	-66.4	3.8	8.47e-01	0	40	104	3575644160	80	13321
2026-01-04 05:59:32.58	262.96	8.32	-55.5	-66.3	3.8	8.47e-01	0	40	104	3575644160	80	13256
2026-01-04 05:59:33.87	262.81	8.24	-55.4	-66.2	3.8	8.47e-01	0	40	104	3575644160	80	13088
2026-01-04 05:59:34.59	262.73	8.19	-55.4	-66.3	3.8	8.47e-01	0	40	104	3575644160	80	13160
2026-01-04 05:59:35.88	262.59	8.12	-55.5	-66.4	3.8	8.46e-01	0	40	104	3575644160	80	13340
2026-01-04 05:59:36.60	262.51	8.07	-55.4	-66.2	3.8	8.48e-01	0	40	104	3575644160	81	12265
2026-01-04 05:59:37.88	262.37	7.99	-55.4	-66.2	3.8	8.47e-01	0	40	104	3575644160	81	12338
2026-01-04 05:59:38.60	262.29	7.95	-55.5	-66.3	3.8	8.47e-01	0	40	104	3575644160	81	12426
2026-01-04 05:59:39.89	262.14	7.87	-55.5	-66.3	3.8	8.46e-01	0	40	104	3575644160	81	12378
2026-01-04 05:59:40.60	262.07	7.83	-55.4	-66.3	3.8	8.47e-01	0	40	104	3575644160	81	12519
2026-01-04 05:59:41.89	261.93	7.75	-55.3	-66.2	3.8	8.45e-01	0	40	104	3575644160	81	12331
2026-01-04 05:59:42.61	261.85	7.71	-55.2	-66.3	3.8	8.48e-01	0	40	104	3575644160	81	12405
2026-01-04 05:59:43.90	261.71	7.63	-55.1	-66.1	3.8	8.46e-01	0	40	104	3575644160	80	12955
2026-01-04 05:59:44.62	261.63	7.59	-55.0	-66.1	3.8	8.48e-01	0	40	104	3575644160	80	12874
2026-01-04 05:59:45.91	261.49	7.51	-55.0	-66.1	3.8	8.47e-01	0	40	104	3575644160	79	13661
2026-01-04 05:59:46.63	261.42	7.47	-55.1	-66.1	3.8	8.48e-01	0	40	104	3575644160	79	13684
2026-01-04 05:59:47.92	261.28	7.39	-55.1	-66.2	3.8	8.48e-01	0	40	104	3575644160	79	13761
2026-01-04 05:59:48.64	261.20	7.34	-55.1	-66.2	3.8	8.47e-01	0	40	104	3575644160	79	13846
2026-01-04 05:59:49.92	261.07	7.27	-55.0	-66.1	3.8	8.47e-01	0	40	104	3575644160	80	12930
2026-01-04 05:59:50.64	260.99	7.22	-55.0	-66.1	3.8	8.47e-01	0	40	104	3575644160	80	12816
2026-01-04 05:59:51.93	260.86	7.15	-55.0	-66.1	3.8	8.46e-01	0	40	104	3575644160	80	12880
2026-01-04 05:59:52.65	260.78	7.10	-55.1	-66.1	3.8	8.47e-01	0	40	104	3575644160	80	12953
2026-01-04 05:59:53.94	260.65	7.03	-55.2	-66.4	3.8	8.47e-01	0	40	104	3575644160	80	13300
2026-01-04 05:59:54.66	260.58	6.98	-55.2	-66.4	3.8	8.47e-01	0	40	104	3575644160	80	13275
2026-01-04 05:59:55.95	260.44	6.91	-55.2	-66.3	3.8	8.46e-01	0	40	104	3575644160	80	13243
2026-01-04 05:59:56.67	260.37	6.86	-55.1	-66.3	3.8	8.47e-01	0	40	104	3575644160	80	13252
2026-01-04 05:59:57.96	260.24	6.79	-55.2	-66.3	3.8	8.47e-01	0	40	104	3575644160	80	13163
2026-01-04 05:59:58.68	260.17	6.74	-55.2	-66.2	3.8	8.47e-01	0	40	104	3575644160	80	13085
2026-01-04 05:59:59.97	260.04	6.67	-55.1	-66.3	3.8	8.47e-01	0	40	104	3575644160	80	13114
2026-01-04 06:00:00.69	259.96	6.62	-55.2	-66.4	3.8	8.47e-01	0	40	104	3575644160	80	13270
2026-01-04 06:00:01.98	259.83	6.55	-55.4	-66.4	3.8	8.47e-01	0	40	104	3575644160	80	13403
2026-01-04 06:00:02.69	259.76	6.50	-54.9	-66.0	3.8	8.49e-01	0	40	104	3575644160	80	12766
2026-01-04 06:00:03.99	259.63	6.43	-55.1	-66.2	3.8	8.48e-01	0	40	104	3575644160	80	13076
2026-01-04 06:00:04.70	259.56	6.38	-55.1	-66.1	3.8	8.46e-01	0	40	104	3575644160	80	12954
2026-01-04 06:00:05.99	259.44	6.31	-55.0	-66.1	3.8	8.48e-01	0	40	104	3575644160	80	12829
2026-01-04 06:00:06.71	259.37	6.26	-55.0	-66.1	3.8	8.47e-01	0	40	104	3575644160	80	12824
2026-01-04 06:00:08.00	259.24	6.19	-55.0	-66.1	3.8	8.46e-01	0	40	104	3575644160	80	12834
2026-01-04 06:00:08.72	259.17	6.15	-55.0	-66.1	3.8	8.47e-01	0	40	104	3575644160	80	12885
2026-01-04 06:00:10.01	259.05	6.07	-55.2	-66.3	3.8	8.46e-01	0	40	104	3575644160	80	13123
2026-01-04 06:00:10.73	258.98	6.03	-55.5	-66.6	3.8	8.46e-01	0	40	104	3575644160	80	13638
2026-01-04 06:00:12.02	258.85	5.95	-54.9	-66.0	3.8	8.47e-01	0	40	104	3575644160	80	12808
2026-01-04 06:00:12.74	258.78	5.91	-55.0	-66.1	3.8	8.46e-01	0	40	104	3575644160	80	12838
2026-01-04 06:00:14.03	258.66	5.83	-55.1	-66.2	3.8	8.47e-01	0	40	104	3575644160	80	13091
2026-01-04 06:00:14.74	258.59	5.79	-54.9	-66.0	3.8	8.46e-01	0	40	104	3575644160	80	12775
2026-01-04 06:00:16.04	258.47	5.71	-55.0	-66.0	3.8	8.47e-01	0	40	104	3575644160	79	13565
2026-01-04 06:00:16.75	258.40	5.67	-55.1	-66.2	3.8	8.47e-01	0	40	104	3575644160	79	13750
2026-01-04 06:00:18.04	258.28	5.60	-55.0	-66.1	3.8	8.47e-01	0	40	104	3575644160	80	12857
2026-01-04 06:00:18.76	258.22	5.56	-55.1	-66.2	3.8	8.46e-01	0	40	104	3575644160	80	13016
2026-01-04 06:00:20.05	258.10	5.48	-55.0	-66.1	3.8	8.46e-01	0	40	104	3575644160	80	12857
2026-01-04 06:00:20.77	258.03	5.44	-55.0	-66.1	3.8	8.48e-01	0	40	104	3575644160	80	12819
2026-01-04 06:00:22.06	257.91	5.36	-55.1	-66.2	3.8	8.48e-01	0	40	104	3575644160	80	13051
2026-01-04 06:00:22.78	257.85	5.32	-55.0	-66.1	3.8	8.47e-01	0	40	104	3575644160	80	12913
2026-01-04 06:00:24.07	257.73	5.25	-55.2	-66.3	3.8	8.47e-01	0	40	104	3575644160	80	13185
2026-01-04 06:00:24.79	257.66	5.20	-55.1	-66.2	3.8	8.48e-01	0	40	104	3575644160	80	13016
2026-01-04 06:00:26.08	257.55	5.13	-55.1	-66.3	3.8	8.46e-01	0	40	104	3575644160	80	13145
2026-01-04 06:00:26.80	257.48	5.09	-55.1	-66.3	3.8	8.47e-01	0	40	104	3575644160	80	13235
2026-01-04 06:00:28.09	257.36	5.01	-55.1	-66.3	3.8	8.46e-01	0	40	104	3575644160	80	13154
2026-01-04 06:00:28.80	257.30	4.97	-55.1	-66.3	3.8	8.46e-01	0	40	104	3575644160	80	13205

#Closed at: 2026-01-04 06:00:30
#Recorded file [3575 MB]: D:/Data/31040_260104_085005.dat