passes_logs/2026/01/04/T1/T1__20260104_014242_NOAA_20_JPSS-1_rec.log

#Pass ID: 20260104_014242_NOAA 20 (JPSS-1)
#Satellite: NOAA 20 (JPSS-1)
#Configuration: NOAA 20
#almurnet v.1.7.20251203
#Start time: 2026-01-04 01:42:43

#Version: 2.0.20230620
#Station: T1
#Location: 37.570604 lon 55.790049 lat
#TLE: 1 43013U 17073A   26003.41800368  .00000169  00000+0  10117-3 0  9998
#TLE: 2 43013  98.7624 304.4804 0001884  56.1176 304.0179 14.19532918421092

#Time	Az	El	Level	Level2	SNR	BER	BlckErr	Temp	State	Recorded	gain1	gain2
2026-01-04 01:42:43.56	4.51	5.03	-54.4	-69.8	3.8	1.49e+00	0	37	0	0	79	22273
2026-01-04 01:42:44.56	4.41	5.09	-52.5	-69.5	3.8	1.49e+00	0	37	104	0	76	25599
2026-01-04 01:42:45.57	4.31	5.15	-52.3	-69.4	3.8	1.49e+00	0	37	104	0	76	25513
2026-01-04 01:42:46.57	4.22	5.20	-52.3	-69.4	3.8	1.49e+00	0	37	104	0	76	25514
2026-01-04 01:42:47.58	4.12	5.26	-52.3	-69.5	3.8	1.49e+00	0	38	104	0	76	25570
2026-01-04 01:42:48.58	4.03	5.31	-52.3	-69.4	3.8	1.49e+00	0	37	104	0	76	25508
2026-01-04 01:42:49.59	3.93	5.37	-52.3	-69.4	3.8	1.49e+00	0	38	104	0	76	25447
2026-01-04 01:42:50.59	3.83	5.43	-52.3	-69.4	3.8	1.49e+00	0	38	104	0	76	25425
2026-01-04 01:42:51.59	3.73	5.48	-52.3	-69.4	3.8	1.49e+00	0	37	104	0	76	25407
2026-01-04 01:42:52.60	3.63	5.54	-52.3	-69.4	3.8	1.49e+00	0	38	104	0	76	25532
2026-01-04 01:42:53.60	3.54	5.59	-52.3	-69.4	3.8	1.49e+00	0	38	104	0	76	25395
2026-01-04 01:42:54.60	3.44	5.65	-52.3	-69.5	3.8	1.49e+00	0	38	104	0	76	25575
2026-01-04 01:42:55.61	3.34	5.71	-52.3	-69.4	3.8	1.49e+00	0	38	104	0	76	25499
2026-01-04 01:42:56.61	3.24	5.76	-52.4	-69.5	3.8	1.49e+00	0	38	104	0	76	25805
2026-01-04 01:42:57.62	3.14	5.82	-52.4	-69.5	3.8	1.49e+00	0	38	104	0	76	25747
2026-01-04 01:42:58.62	3.04	5.87	-52.4	-69.5	3.8	1.49e+00	0	38	104	0	76	25684
2026-01-04 01:42:59.63	2.93	5.93	-52.4	-69.4	3.8	1.49e+00	0	38	104	0	76	25548
2026-01-04 01:43:00.63	2.83	5.99	-52.4	-69.5	3.8	1.49e+00	0	38	104	0	76	25676
2026-01-04 01:43:01.64	2.73	6.04	-52.4	-69.5	3.8	1.49e+00	0	38	104	0	76	25730
2026-01-04 01:43:02.64	2.63	6.10	-52.3	-69.5	3.8	1.49e+00	0	38	104	0	76	25823
2026-01-04 01:43:03.64	2.53	6.16	-52.4	-69.5	3.8	1.49e+00	0	38	104	0	76	25772
2026-01-04 01:43:04.65	2.42	6.21	-52.4	-69.5	3.8	1.49e+00	0	38	104	0	76	25766
2026-01-04 01:43:05.65	2.32	6.27	-52.4	-69.5	3.8	1.49e+00	0	38	104	0	76	25610
2026-01-04 01:43:06.65	2.22	6.33	-52.3	-69.5	3.8	1.49e+00	0	38	104	0	76	25647
2026-01-04 01:43:07.66	2.11	6.38	-52.3	-69.5	3.8	1.49e+00	0	38	104	0	76	25727
2026-01-04 01:43:08.66	2.01	6.44	-52.3	-69.5	3.8	1.49e+00	0	38	104	0	76	25666
2026-01-04 01:43:09.67	1.90	6.50	-52.3	-69.5	3.8	1.49e+00	0	38	104	0	76	25678
2026-01-04 01:43:10.67	1.79	6.55	-52.3	-69.6	3.8	1.49e+00	0	38	104	0	76	25868
2026-01-04 01:43:11.68	1.69	6.61	-52.3	-69.5	3.8	1.49e+00	0	38	104	0	76	25833
2026-01-04 01:43:12.68	1.58	6.67	-52.3	-69.5	3.8	1.49e+00	0	38	104	0	76	25768
2026-01-04 01:43:13.68	1.48	6.72	-52.3	-69.5	3.8	1.49e+00	0	38	104	0	76	25804
2026-01-04 01:43:14.69	1.37	6.78	-52.3	-69.5	3.8	1.49e+00	0	38	104	0	76	25757
2026-01-04 01:43:15.69	1.26	6.84	-52.3	-69.4	3.8	1.49e+00	0	39	104	0	76	25550
2026-01-04 01:43:16.69	1.15	6.89	-52.2	-69.4	3.8	1.49e+00	0	38	104	0	76	25552
2026-01-04 01:43:17.70	1.04	6.95	-52.2	-69.5	3.8	1.49e+00	0	39	104	0	76	25561
2026-01-04 01:43:18.70	0.93	7.01	-52.2	-69.4	3.8	1.49e+00	0	39	104	0	76	25504
2026-01-04 01:43:19.71	0.82	7.06	-52.2	-69.4	3.8	1.49e+00	0	39	104	0	76	25515
2026-01-04 01:43:20.71	0.71	7.12	-52.3	-69.4	3.8	1.49e+00	0	38	104	0	76	25532
2026-01-04 01:43:21.71	0.60	7.18	-52.3	-69.4	3.8	1.49e+00	0	38	104	0	76	25377
2026-01-04 01:43:22.72	0.49	7.23	-52.3	-69.5	3.8	1.49e+00	0	39	104	0	76	25580
2026-01-04 01:43:23.72	0.38	7.29	-52.3	-69.4	3.8	1.49e+00	0	39	104	0	76	25519
2026-01-04 01:43:24.73	0.27	7.35	-52.3	-69.4	3.8	1.49e+00	0	39	104	0	76	25506
2026-01-04 01:43:25.73	0.16	7.41	-52.3	-69.4	3.8	1.49e+00	0	39	104	0	76	25548
2026-01-04 01:43:26.73	0.04	7.46	-52.3	-69.4	3.8	1.49e+00	0	39	104	0	76	25536
2026-01-04 01:43:27.74	359.93	7.52	-52.3	-69.5	3.8	1.49e+00	0	39	104	0	76	25682
2026-01-04 01:43:28.74	359.82	7.58	-52.3	-69.5	3.8	1.49e+00	0	39	104	0	76	25637
2026-01-04 01:43:29.75	359.70	7.63	-52.3	-69.5	3.8	1.49e+00	0	39	104	0	76	25683
2026-01-04 01:43:30.75	359.59	7.69	-52.3	-69.5	3.8	1.49e+00	0	39	104	0	76	25722
2026-01-04 01:43:31.76	359.47	7.75	-52.3	-69.5	3.8	1.49e+00	0	39	104	0	76	25653
2026-01-04 01:43:32.76	359.36	7.81	-52.3	-69.5	3.8	1.49e+00	0	39	104	0	76	25564
2026-01-04 01:43:33.77	359.24	7.86	-52.2	-69.4	3.8	1.49e+00	0	39	104	0	76	25521
2026-01-04 01:43:34.77	359.12	7.92	-52.2	-69.4	3.8	1.49e+00	0	39	104	0	76	25269
2026-01-04 01:43:35.78	359.01	7.98	-52.2	-69.3	3.8	1.49e+00	0	39	104	0	76	25078
2026-01-04 01:43:36.78	358.89	8.03	-52.2	-69.1	3.8	1.49e+00	0	39	104	0	76	24658
2026-01-04 01:43:37.78	358.77	8.09	-52.2	-69.0	3.8	1.49e+00	0	39	104	0	76	24158
2026-01-04 01:43:38.79	358.65	8.15	-52.1	-68.7	3.8	1.49e+00	0	39	104	0	75	24746
2026-01-04 01:43:39.79	358.53	8.21	-52.2	-68.6	3.8	1.49e+00	0	39	104	0	75	24586
2026-01-04 01:43:40.80	358.41	8.26	-52.2	-68.5	3.8	1.49e+00	0	39	104	0	75	24351
2026-01-04 01:43:41.80	358.30	8.32	-52.2	-68.6	3.8	1.49e+00	0	39	104	0	75	24623
2026-01-04 01:43:42.81	358.17	8.38	-52.3	-68.7	3.8	1.49e+00	0	39	104	0	75	24977
2026-01-04 01:43:43.81	358.05	8.44	-52.3	-68.8	3.8	1.49e+00	0	39	104	0	75	25009
2026-01-04 01:43:44.81	357.93	8.49	-52.3	-68.6	3.8	1.49e+00	0	39	104	0	75	24620
2026-01-04 01:43:45.82	357.81	8.55	-52.2	-68.0	3.8	1.49e+00	0	39	104	0	75	22819
2026-01-04 01:43:46.82	357.69	8.61	-52.1	-66.9	3.8	1.49e+00	0	39	104	0	75	20265
2026-01-04 01:43:47.83	357.56	8.67	-52.0	-65.1	4.4	1.33e+00	0	39	0	0	75	16451
2026-01-04 01:43:48.83	357.44	8.72	-51.9	-63.4	5.3	7.34e-01	0	39	0	2097152	75	13489
2026-01-04 01:43:49.84	357.32	8.78	-51.6	-61.5	6.6	3.58e-01	0	39	0	3145728	75	10843
2026-01-04 01:43:50.84	357.19	8.84	-51.4	-59.9	8.1	1.39e-01	0	39	0	5242880	74	9605
2026-01-04 01:43:51.85	357.07	8.89	-51.1	-58.7	9.3	2.62e-02	0	39	0	7340032	74	8327
2026-01-04 01:43:52.85	356.94	8.95	-50.8	-57.7	10.3	8.47e-03	0	39	0	9437184	73	7891
2026-01-04 01:43:53.85	356.82	9.01	-50.8	-57.4	10.7	3.43e-03	0	39	0	10485760	73	7591
2026-01-04 01:43:54.86	356.69	9.07	-50.7	-57.5	10.7	2.54e-03	0	39	0	12582912	73	7655
2026-01-04 01:43:55.86	356.56	9.12	-51.2	-59.0	9.1	5.13e-03	0	39	0	14680064	73	9145
2026-01-04 01:43:56.86	356.44	9.18	-51.0	-58.1	10.1	1.00e-02	0	39	0	16777216	73	8224
2026-01-04 01:43:57.86	356.31	9.24	-52.1	-67.3	3.8	3.11e-02	0	39	104	17825792	74	22263
2026-01-04 01:43:58.86	356.18	9.30	-49.3	-55.4	12.7	6.33e-01	0	39	0	17825792	70	7158
2026-01-04 01:43:59.87	356.05	9.35	-51.9	-66.1	4.2	1.78e-02	0	39	0	18874368	74	19408
2026-01-04 01:44:00.87	355.92	9.41	-51.9	-66.9	3.9	1.48e+00	0	39	104	18874368	74	21262
2026-01-04 01:44:01.87	355.79	9.47	-51.8	-66.9	3.9	1.47e+00	0	39	104	18874368	74	21403
2026-01-04 01:44:02.87	355.66	9.52	-51.6	-66.7	4.0	1.47e+00	0	39	104	18874368	74	20798
2026-01-04 01:44:03.87	355.53	9.58	-51.4	-65.8	4.2	1.47e+00	0	39	0	18874368	74	18803
2026-01-04 01:44:04.88	355.40	9.64	-51.2	-60.9	7.3	3.01e-01	0	39	0	19922944	74	10741
2026-01-04 01:44:05.88	355.27	9.70	-50.7	-57.0	11.4	4.98e-03	0	39	0	22020096	73	7213
2026-01-04 01:44:06.88	355.14	9.75	-51.6	-66.3	4.1	1.16e-01	0	39	0	23068672	73	21126
2026-01-04 01:44:07.88	355.01	9.81	-48.4	-52.9	15.4	1.01e+00	0	39	0	23068672	68	5993
2026-01-04 01:44:08.89	354.87	9.87	-48.4	-52.8	15.5	0.00e+00	0	39	0	25165824	68	5984
2026-01-04 01:44:09.89	354.74	9.92	-48.4	-52.9	15.4	0.00e+00	0	39	0	27262976	68	6046
2026-01-04 01:44:10.89	354.60	9.98	-48.3	-52.9	15.4	0.00e+00	0	39	0	28311552	68	6005
2026-01-04 01:44:11.89	354.47	10.04	-48.4	-52.9	15.5	0.00e+00	0	39	0	30408704	68	5995
2026-01-04 01:44:12.90	354.33	10.10	-48.6	-53.0	15.3	0.00e+00	0	40	0	32505856	68	6110
2026-01-04 01:44:13.90	354.20	10.15	-48.6	-53.0	15.3	0.00e+00	0	39	0	34603008	68	6099
2026-01-04 01:44:14.90	354.06	10.21	-48.7	-53.1	15.2	0.00e+00	0	39	0	36700160	68	6168
2026-01-04 01:44:15.97	353.91	10.27	-48.8	-53.3	15.1	0.00e+00	0	39	0	37748736	68	6275
2026-01-04 01:44:16.86	353.79	10.32	-48.8	-53.2	15.2	0.00e+00	0	39	0	39845888	68	6203
2026-01-04 01:44:18.00	353.63	10.39	-48.6	-53.0	15.2	0.00e+00	0	39	0	41943040	68	6129
2026-01-04 01:44:18.86	353.51	10.43	-48.6	-52.9	15.3	0.00e+00	0	40	0	44040192	68	6058
2026-01-04 01:44:20.00	353.36	10.50	-48.6	-53.1	15.2	3.00e-06	0	39	0	46137344	68	6167
2026-01-04 01:44:20.86	353.24	10.55	-48.3	-53.0	15.3	0.00e+00	0	39	0	47185920	68	6113
2026-01-04 01:44:22.01	353.07	10.61	-48.3	-53.0	15.3	0.00e+00	0	39	0	49283072	68	6101
2026-01-04 01:44:22.87	352.95	10.66	-48.2	-53.0	15.3	0.00e+00	0	39	0	51380224	68	6118
2026-01-04 01:44:24.01	352.79	10.73	-48.2	-53.1	15.2	0.00e+00	0	39	0	53477376	68	6164
2026-01-04 01:44:24.87	352.67	10.77	-48.1	-53.1	15.2	0.00e+00	0	39	0	54525952	68	6179
2026-01-04 01:44:26.02	352.51	10.84	-48.1	-53.1	15.2	0.00e+00	0	39	0	56623104	68	6181
2026-01-04 01:44:26.88	352.38	10.89	-48.0	-53.0	15.4	0.00e+00	0	40	0	58720256	68	6077
2026-01-04 01:44:28.09	352.21	10.96	-48.0	-52.9	15.3	0.00e+00	0	39	0	60817408	68	6043
2026-01-04 01:44:28.94	352.09	11.00	-48.0	-53.0	15.4	0.00e+00	0	39	0	62914560	68	6076
2026-01-04 01:44:30.09	351.92	11.07	-48.1	-52.9	15.4	0.00e+00	0	40	0	65011712	68	6045
2026-01-04 01:44:30.95	351.80	11.12	-48.1	-52.8	15.5	0.00e+00	0	39	0	66060288	68	5954
2026-01-04 01:44:32.09	351.63	11.18	-48.2	-52.9	15.5	0.00e+00	0	39	0	68157440	68	6024
2026-01-04 01:44:33.00	351.50	11.23	-48.4	-52.9	15.6	0.00e+00	0	40	0	70254592	68	5993
2026-01-04 01:44:34.00	351.35	11.29	-48.5	-52.8	15.5	0.00e+00	0	39	0	72351744	68	5990
2026-01-04 01:44:35.01	351.20	11.35	-48.5	-53.0	15.3	0.00e+00	0	39	0	73400320	68	6081
2026-01-04 01:44:36.01	351.05	11.40	-48.6	-53.0	15.3	7.00e-07	0	39	0	75497472	68	6119
2026-01-04 01:44:37.01	350.90	11.46	-48.6	-53.1	15.3	0.00e+00	0	40	0	77594624	68	6153
2026-01-04 01:44:38.01	350.75	11.51	-48.6	-53.0	15.3	0.00e+00	0	40	0	79691776	68	6086
2026-01-04 01:44:39.01	350.60	11.57	-48.6	-53.0	15.3	0.00e+00	0	40	0	81788928	68	6106
2026-01-04 01:44:40.02	350.45	11.62	-48.7	-53.0	15.4	0.00e+00	0	39	0	83886080	68	6080
2026-01-04 01:44:41.02	350.30	11.68	-48.9	-53.2	15.3	0.00e+00	0	40	0	84934656	68	6209
2026-01-04 01:44:42.02	350.15	11.74	-49.0	-53.2	15.3	0.00e+00	0	40	0	87031808	68	6233
2026-01-04 01:44:43.02	350.00	11.79	-49.1	-53.3	15.2	7.00e-07	0	39	0	89128960	68	6311
2026-01-04 01:44:44.03	349.84	11.85	-49.3	-53.2	15.2	0.00e+00	0	39	0	91226112	69	5857
2026-01-04 01:44:45.03	349.69	11.90	-49.5	-53.3	15.1	0.00e+00	0	39	0	92274688	69	5981
2026-01-04 01:44:46.03	349.53	11.96	-49.8	-53.4	15.1	0.00e+00	0	40	0	94371840	70	5680
2026-01-04 01:44:47.04	349.38	12.01	-49.9	-53.5	15.0	0.00e+00	0	39	0	96468992	70	5726
2026-01-04 01:44:48.04	349.22	12.07	-49.8	-53.5	15.0	0.00e+00	0	40	0	98566144	70	5736
2026-01-04 01:44:49.05	349.07	12.12	-49.8	-53.6	14.8	1.50e-06	0	40	0	100663296	70	5827
2026-01-04 01:44:50.05	348.91	12.18	-49.7	-53.5	15.0	7.00e-07	0	40	0	101711872	70	5756
2026-01-04 01:44:51.05	348.75	12.23	-49.7	-53.5	15.0	0.00e+00	0	40	0	103809024	70	5751
2026-01-04 01:44:52.06	348.59	12.29	-49.5	-53.3	15.1	7.00e-07	0	40	0	105906176	70	5641
2026-01-04 01:44:53.06	348.43	12.34	-49.4	-53.2	15.3	0.00e+00	0	40	0	108003328	70	5562
2026-01-04 01:44:54.06	348.28	12.40	-49.2	-53.0	15.4	0.00e+00	0	40	0	110100480	70	5444
2026-01-04 01:44:55.06	348.12	12.45	-49.3	-53.2	15.3	0.00e+00	0	40	0	111149056	70	5545
2026-01-04 01:44:56.07	347.95	12.51	-49.3	-53.2	15.3	0.00e+00	0	40	0	113246208	70	5566
2026-01-04 01:44:57.07	347.79	12.56	-49.4	-53.2	15.2	0.00e+00	0	40	0	115343360	70	5563
2026-01-04 01:44:58.07	347.63	12.62	-49.5	-53.4	15.1	7.00e-07	0	40	0	117440512	70	5670
2026-01-04 01:44:59.08	347.47	12.67	-49.8	-53.5	14.9	0.00e+00	0	40	0	119537664	70	5765
2026-01-04 01:45:00.08	347.31	12.72	-49.8	-53.5	15.0	0.00e+00	0	40	0	120586240	70	5725
2026-01-04 01:45:01.08	347.14	12.78	-50.0	-53.5	14.9	7.00e-07	0	40	0	122683392	70	5753
2026-01-04 01:45:02.16	346.97	12.84	-49.9	-53.5	14.9	0.00e+00	0	39	0	124780544	70	5751
2026-01-04 01:45:03.05	346.82	12.88	-49.9	-53.4	15.1	0.00e+00	0	40	0	126877696	70	5689
2026-01-04 01:45:04.20	346.63	12.95	-49.6	-53.0	15.4	0.00e+00	0	40	0	128974848	70	5457
2026-01-04 01:45:05.15	346.47	13.00	-49.6	-53.1	15.2	0.00e+00	0	40	0	130023424	70	5497
2026-01-04 01:45:06.35	346.27	13.06	-49.4	-52.9	15.6	0.00e+00	0	39	0	133169152	70	5348
2026-01-04 01:45:07.24	346.12	13.11	-49.4	-52.8	15.7	0.00e+00	0	39	0	134217728	70	5329
2026-01-04 01:45:08.30	345.95	13.16	-49.4	-52.9	15.7	0.00e+00	0	40	0	136314880	70	5353
2026-01-04 01:45:09.29	345.78	13.22	-49.2	-52.8	15.8	0.00e+00	0	40	0	138412032	70	5285
2026-01-04 01:45:10.50	345.58	13.28	-49.2	-52.7	15.8	0.00e+00	0	40	0	140509184	70	5271
2026-01-04 01:45:11.41	345.42	13.33	-49.1	-52.7	15.9	0.00e+00	0	40	0	142606336	70	5226
2026-01-04 01:45:12.43	345.25	13.38	-49.1	-52.7	15.9	0.00e+00	0	40	0	143654912	70	5247
2026-01-04 01:45:13.43	345.08	13.43	-49.0	-52.6	15.9	0.00e+00	0	40	0	145752064	70	5177
2026-01-04 01:45:14.43	344.91	13.49	-49.1	-52.5	16.0	0.00e+00	0	40	0	147849216	70	5137
2026-01-04 01:45:15.43	344.73	13.54	-49.1	-52.5	16.1	0.00e+00	0	40	0	149946368	70	5110
2026-01-04 01:45:16.43	344.56	13.59	-49.0	-52.4	16.2	0.00e+00	0	40	0	152043520	70	5061
2026-01-04 01:45:17.44	344.39	13.64	-48.8	-52.2	16.3	0.00e+00	0	40	0	153092096	69	5238
2026-01-04 01:45:18.44	344.21	13.69	-48.8	-52.2	16.3	0.00e+00	0	40	0	155189248	69	5253
2026-01-04 01:45:19.44	344.04	13.74	-48.7	-52.1	16.3	5.30e-06	0	40	0	157286400	69	5207
2026-01-04 01:45:20.44	343.86	13.80	-48.6	-52.1	16.3	0.00e+00	0	40	0	159383552	69	5205
2026-01-04 01:45:21.45	343.69	13.85	-48.6	-52.1	16.3	0.00e+00	0	39	0	161480704	69	5216
2026-01-04 01:45:22.45	343.51	13.90	-48.5	-52.0	16.5	0.00e+00	0	40	0	162529280	69	5119
2026-01-04 01:45:23.47	343.33	13.95	-48.4	-51.8	16.7	0.00e+00	0	40	0	164626432	68	5293
2026-01-04 01:45:24.51	343.15	14.00	-48.5	-51.9	16.6	0.00e+00	0	40	0	166723584	68	5342
2026-01-04 01:45:25.50	342.97	14.05	-48.6	-51.7	16.7	0.00e+00	0	40	0	168820736	68	5256
2026-01-04 01:45:26.57	342.78	14.11	-48.6	-51.7	16.7	0.00e+00	0	40	0	170917888	68	5260
2026-01-04 01:45:27.43	342.62	14.15	-48.5	-51.5	17.0	0.00e+00	0	40	0	171966464	68	5127
2026-01-04 01:45:28.58	342.42	14.21	-48.3	-51.3	17.2	0.00e+00	0	40	0	174063616	68	5002
2026-01-04 01:45:29.53	342.25	14.25	-48.3	-51.4	17.1	0.00e+00	0	40	0	176160768	68	5060
2026-01-04 01:45:30.53	342.06	14.30	-48.3	-51.5	17.1	0.00e+00	0	40	0	178257920	68	5106
2026-01-04 01:45:31.54	341.88	14.35	-48.4	-51.5	17.0	0.00e+00	0	40	0	180355072	68	5121
2026-01-04 01:45:32.54	341.70	14.40	-48.2	-51.2	17.2	0.00e+00	0	40	0	181403648	68	4977
2026-01-04 01:45:33.54	341.51	14.45	-48.3	-51.3	17.3	0.00e+00	0	40	0	183500800	68	4986
2026-01-04 01:45:34.54	341.33	14.50	-48.3	-51.3	17.2	0.00e+00	0	40	0	185597952	68	4991
2026-01-04 01:45:35.55	341.14	14.55	-48.2	-51.0	17.4	0.00e+00	0	40	0	187695104	68	4857
2026-01-04 01:45:36.55	340.96	14.60	-48.2	-51.0	17.5	0.00e+00	0	40	0	189792256	68	4815
2026-01-04 01:45:37.56	340.77	14.65	-48.1	-50.7	17.7	0.00e+00	0	40	0	190840832	68	4705
2026-01-04 01:45:38.56	340.59	14.69	-47.8	-50.5	17.8	0.00e+00	0	40	0	192937984	67	4824
2026-01-04 01:45:39.56	340.40	14.74	-47.8	-50.6	17.7	0.00e+00	0	40	0	195035136	67	4901
2026-01-04 01:45:40.56	340.21	14.79	-47.7	-50.6	17.7	0.00e+00	0	40	0	197132288	67	4885
2026-01-04 01:45:41.56	340.02	14.84	-47.6	-50.5	17.8	0.00e+00	0	40	0	198180864	67	4859
2026-01-04 01:45:42.57	339.83	14.88	-47.6	-50.5	17.8	0.00e+00	0	40	0	200278016	67	4848
2026-01-04 01:45:43.57	339.64	14.93	-47.6	-50.5	17.8	0.00e+00	0	40	0	202375168	67	4833
2026-01-04 01:45:44.57	339.45	14.98	-47.6	-50.4	17.9	0.00e+00	0	40	0	204472320	67	4800
2026-01-04 01:45:45.57	339.26	15.02	-47.6	-50.3	17.9	0.00e+00	0	40	0	206569472	67	4758
2026-01-04 01:45:46.58	339.07	15.07	-47.6	-50.4	17.9	0.00e+00	0	40	0	208666624	67	4778
2026-01-04 01:45:47.58	338.88	15.12	-47.5	-50.1	18.2	0.00e+00	0	40	0	209715200	66	4893
2026-01-04 01:45:48.58	338.69	15.16	-47.5	-50.2	18.1	0.00e+00	0	40	0	211812352	66	4944
2026-01-04 01:45:49.91	338.43	15.22	-47.5	-50.2	18.0	0.00e+00	0	40	0	213909504	66	4953
2026-01-04 01:45:50.67	338.28	15.26	-47.6	-50.3	18.0	0.00e+00	0	40	0	216006656	66	5016
2026-01-04 01:45:52.28	337.97	15.33	-47.6	-50.3	17.9	0.00e+00	0	40	0	219152384	66	5027
2026-01-04 01:45:52.85	337.86	15.35	-47.6	-50.4	17.8	0.00e+00	0	40	0	220200960	66	5057
2026-01-04 01:45:54.44	337.55	15.43	-47.8	-50.4	17.8	0.00e+00	0	40	0	223346688	66	5091
2026-01-04 01:45:55.02	337.44	15.45	-47.7	-50.4	17.9	0.00e+00	0	40	0	224395264	66	5064
2026-01-04 01:45:56.59	337.13	15.52	-47.8	-50.4	17.9	0.00e+00	0	40	0	226492416	66	5072
2026-01-04 01:45:57.23	337.00	15.55	-47.9	-50.5	17.9	0.00e+00	0	40	0	228589568	66	5103
2026-01-04 01:45:58.66	336.72	15.61	-48.0	-50.7	17.7	0.00e+00	0	40	0	230686720	66	5221
2026-01-04 01:45:59.38	336.57	15.64	-48.1	-50.8	17.6	0.00e+00	0	40	0	231735296	66	5282
2026-01-04 01:46:00.67	336.32	15.69	-48.1	-50.8	17.5	0.00e+00	0	40	0	234881024	66	5324
2026-01-04 01:46:01.38	336.17	15.72	-48.1	-50.8	17.5	0.00e+00	0	40	0	235929600	66	5321
2026-01-04 01:46:02.67	335.92	15.78	-48.1	-50.9	17.4	0.00e+00	0	40	0	238026752	66	5360
2026-01-04 01:46:03.39	335.77	15.81	-48.0	-50.8	17.5	0.00e+00	0	40	0	240123904	66	5307
2026-01-04 01:46:04.68	335.51	15.86	-47.8	-50.5	17.8	0.00e+00	0	40	0	242221056	66	5137
2026-01-04 01:46:05.39	335.37	15.89	-47.8	-50.4	17.8	0.00e+00	0	40	0	243269632	66	5097
2026-01-04 01:46:06.76	335.09	15.95	-47.8	-50.5	17.8	0.00e+00	0	40	0	246415360	66	5126
2026-01-04 01:46:07.48	334.94	15.98	-47.8	-50.4	17.9	0.00e+00	0	40	0	247463936	66	5072
2026-01-04 01:46:08.77	334.68	16.03	-47.8	-50.4	18.0	0.00e+00	0	40	0	249561088	66	5043
2026-01-04 01:46:09.49	334.53	16.06	-47.9	-50.5	17.8	0.00e+00	0	40	0	250609664	66	5103
2026-01-04 01:46:10.78	334.27	16.11	-47.9	-50.5	17.8	0.00e+00	0	40	0	253755392	66	5124
2026-01-04 01:46:11.49	334.12	16.14	-47.8	-50.5	17.8	0.00e+00	0	40	0	254803968	66	5107
2026-01-04 01:46:12.78	333.86	16.19	-47.8	-50.4	17.9	0.00e+00	0	40	0	256901120	66	5066
2026-01-04 01:46:13.50	333.71	16.22	-47.6	-50.3	18.0	0.00e+00	0	40	0	258998272	66	5016
2026-01-04 01:46:14.78	333.44	16.26	-47.5	-50.2	18.1	0.00e+00	0	40	0	261095424	66	4949
2026-01-04 01:46:15.50	333.29	16.29	-47.4	-50.0	18.2	0.00e+00	0	40	0	262144000	66	4858
2026-01-04 01:46:16.79	333.03	16.34	-47.2	-49.7	18.5	0.00e+00	0	40	0	265289728	66	4701
2026-01-04 01:46:17.66	332.84	16.37	-47.2	-49.7	18.6	0.00e+00	0	40	0	266338304	66	4669
2026-01-04 01:46:19.14	332.53	16.43	-47.3	-49.8	18.5	0.00e+00	0	40	0	269484032	66	4712
2026-01-04 01:46:19.86	332.38	16.45	-47.2	-49.7	18.5	0.00e+00	0	40	0	270532608	66	4705
2026-01-04 01:46:21.15	332.11	16.50	-47.3	-49.8	18.5	0.00e+00	0	40	0	272629760	66	4735
2026-01-04 01:46:21.87	331.96	16.53	-47.3	-49.9	18.4	0.00e+00	0	40	0	274726912	66	4783
2026-01-04 01:46:23.16	331.69	16.57	-47.3	-49.8	18.4	0.00e+00	0	40	0	276824064	66	4744
2026-01-04 01:46:23.89	331.53	16.60	-47.3	-49.8	18.4	0.00e+00	0	40	0	277872640	66	4745
2026-01-04 01:46:25.18	331.26	16.64	-47.2	-49.7	18.6	0.00e+00	0	40	0	281018368	66	4666
2026-01-04 01:46:26.02	331.08	16.67	-47.2	-49.7	18.6	0.00e+00	0	40	0	282066944	66	4667
2026-01-04 01:46:27.17	330.83	16.71	-47.2	-49.7	18.6	0.00e+00	0	40	0	284164096	66	4659
2026-01-04 01:46:28.03	330.65	16.74	-47.3	-49.7	18.6	0.00e+00	0	40	0	286261248	66	4669
2026-01-04 01:46:29.17	330.40	16.78	-47.3	-49.7	18.6	0.00e+00	0	40	0	288358400	66	4693
2026-01-04 01:46:30.03	330.22	16.81	-47.5	-49.9	18.4	0.00e+00	0	40	0	289406976	66	4772
2026-01-04 01:46:31.18	329.97	16.85	-47.4	-49.8	18.4	0.00e+00	0	40	0	291504128	66	4753
2026-01-04 01:46:32.37	329.71	16.88	-47.4	-49.8	18.6	0.00e+00	0	40	0	293601280	66	4710
2026-01-04 01:46:33.43	329.48	16.92	-47.3	-49.7	18.6	0.00e+00	0	40	0	295698432	66	4660
2026-01-04 01:46:34.36	329.28	16.95	-47.2	-49.6	18.7	0.00e+00	0	40	0	297795584	66	4602
2026-01-04 01:46:35.36	329.06	16.98	-47.3	-49.6	18.6	0.00e+00	0	40	0	299892736	66	4646
2026-01-04 01:46:36.36	328.85	17.01	-47.2	-49.5	18.8	0.00e+00	0	40	0	300941312	66	4574
2026-01-04 01:46:37.37	328.63	17.04	-47.2	-49.6	18.6	0.00e+00	0	40	0	303038464	66	4633
2026-01-04 01:46:38.37	328.41	17.07	-47.1	-49.5	18.7	0.00e+00	0	40	0	305135616	66	4583
2026-01-04 01:46:39.35	328.19	17.10	-47.1	-49.6	18.7	0.00e+00	0	40	0	307232768	66	4614
2026-01-04 01:46:40.35	327.97	17.13	-47.1	-49.7	18.6	0.00e+00	0	40	0	309329920	66	4667
2026-01-04 01:46:41.36	327.75	17.16	-47.2	-49.8	18.5	0.00e+00	0	40	0	310378496	66	4734
2026-01-04 01:46:42.36	327.53	17.19	-47.2	-49.9	18.4	0.00e+00	0	40	0	312475648	66	4787
2026-01-04 01:46:43.36	327.31	17.21	-47.3	-50.0	18.3	0.00e+00	0	39	0	314572800	66	4847
2026-01-04 01:46:44.44	327.07	17.24	-47.7	-50.3	18.1	0.00e+00	0	40	0	316669952	66	5040
2026-01-04 01:46:45.33	326.87	17.27	-47.5	-50.2	18.2	0.00e+00	0	40	0	318767104	66	4931
2026-01-04 01:46:46.48	326.62	17.30	-47.6	-50.2	18.2	0.00e+00	0	40	0	320864256	66	4957
2026-01-04 01:46:47.34	326.42	17.32	-47.4	-50.0	18.4	0.00e+00	0	40	0	321912832	66	4834
2026-01-04 01:46:48.48	326.17	17.35	-47.5	-50.1	18.3	0.00e+00	0	40	0	324009984	66	4898
2026-01-04 01:46:49.34	325.98	17.37	-47.4	-49.9	18.4	0.00e+00	0	40	0	326107136	66	4811
2026-01-04 01:46:50.48	325.72	17.40	-47.3	-49.8	18.5	0.00e+00	0	40	0	328204288	66	4742
2026-01-04 01:46:51.34	325.53	17.42	-47.3	-49.9	18.4	0.00e+00	0	40	0	329252864	66	4770
2026-01-04 01:46:52.49	325.27	17.45	-47.4	-50.0	18.4	0.00e+00	0	40	0	331350016	66	4816
2026-01-04 01:46:53.35	325.08	17.47	-47.5	-50.0	18.3	0.00e+00	0	40	0	333447168	66	4842
2026-01-04 01:46:54.50	324.82	17.50	-47.6	-50.1	18.2	0.00e+00	0	39	0	335544320	66	4899
2026-01-04 01:46:55.36	324.62	17.52	-47.6	-50.1	18.2	0.00e+00	0	40	0	337641472	66	4883
2026-01-04 01:46:56.50	324.37	17.54	-47.6	-50.0	18.3	0.00e+00	0	40	0	339738624	66	4854
2026-01-04 01:46:57.36	324.17	17.56	-47.6	-50.1	18.2	0.00e+00	0	40	0	340787200	66	4907
2026-01-04 01:46:58.51	323.91	17.59	-47.6	-50.2	18.2	0.00e+00	0	40	0	342884352	66	4931
2026-01-04 01:46:59.37	323.72	17.60	-47.5	-50.1	18.3	0.00e+00	0	40	0	344981504	66	4880
2026-01-04 01:47:00.67	323.42	17.63	-47.5	-50.2	18.1	0.00e+00	0	40	0	347078656	66	4936
2026-01-04 01:47:01.39	323.26	17.65	-47.7	-50.4	18.0	0.00e+00	0	39	0	348127232	66	5086
2026-01-04 01:47:02.68	322.96	17.67	-47.8	-50.7	17.7	0.00e+00	0	40	0	351272960	66	5237
2026-01-04 01:47:03.39	322.80	17.68	-47.9	-50.7	17.6	0.00e+00	0	40	0	352321536	66	5255
2026-01-04 01:47:04.68	322.51	17.71	-48.1	-50.9	17.5	0.00e+00	0	39	0	354418688	66	5363
2026-01-04 01:47:05.40	322.34	17.72	-48.1	-50.9	17.5	0.00e+00	0	39	0	356515840	66	5380
2026-01-04 01:47:06.69	322.04	17.75	-48.2	-50.9	17.5	0.00e+00	0	40	0	358612992	67	5073
2026-01-04 01:47:07.41	321.88	17.76	-48.2	-50.8	17.5	0.00e+00	0	40	0	359661568	67	5026
2026-01-04 01:47:08.70	321.58	17.78	-48.2	-50.7	17.7	0.00e+00	0	40	0	361758720	67	4969
2026-01-04 01:47:09.41	321.42	17.79	-48.1	-50.7	17.7	0.00e+00	0	40	0	363855872	67	4938
2026-01-04 01:47:10.70	321.12	17.81	-48.0	-50.6	17.8	0.00e+00	0	39	0	365953024	67	4923
2026-01-04 01:47:11.66	320.90	17.83	-48.1	-50.7	17.7	0.00e+00	0	40	0	368050176	67	4960
2026-01-04 01:47:12.99	320.59	17.85	-48.0	-50.7	17.6	0.00e+00	0	40	0	370147328	67	4958
2026-01-04 01:47:13.71	320.43	17.86	-47.9	-50.6	17.7	0.00e+00	0	40	0	371195904	67	4924
2026-01-04 01:47:15.00	320.13	17.88	-48.2	-51.0	17.4	0.00e+00	0	40	0	374341632	67	5150
2026-01-04 01:47:15.72	319.96	17.89	-48.2	-51.1	17.3	0.00e+00	0	40	0	375390208	67	5173
2026-01-04 01:47:17.01	319.66	17.90	-48.2	-51.0	17.3	7.00e-07	0	40	0	377487360	67	5158
2026-01-04 01:47:17.72	319.50	17.91	-48.3	-51.3	17.2	0.00e+00	0	40	0	378535936	67	5282
2026-01-04 01:47:19.03	319.20	17.93	-48.3	-51.2	17.3	0.00e+00	0	40	0	381681664	67	5219
2026-01-04 01:47:19.74	319.03	17.94	-48.3	-51.2	17.2	0.00e+00	0	40	0	382730240	67	5231
2026-01-04 01:47:21.11	318.71	17.95	-48.5	-51.3	17.1	0.00e+00	0	40	0	385875968	67	5328
2026-01-04 01:47:21.83	318.54	17.96	-48.5	-51.3	17.1	0.00e+00	0	40	0	386924544	67	5308
2026-01-04 01:47:23.12	318.24	17.97	-48.6	-51.4	17.0	0.00e+00	0	40	0	389021696	67	5366
2026-01-04 01:47:23.83	318.08	17.98	-48.6	-51.5	17.0	0.00e+00	0	40	0	390070272	67	5412
2026-01-04 01:47:25.25	317.75	17.99	-48.9	-51.8	16.9	0.00e+00	0	40	0	393216000	68	5280
2026-01-04 01:47:25.97	317.58	18.00	-48.7	-51.6	17.0	0.00e+00	0	40	0	394264576	68	5198
2026-01-04 01:47:27.25	317.28	18.01	-48.7	-51.5	17.1	0.00e+00	0	40	0	397410304	68	5146
2026-01-04 01:47:27.97	317.11	18.01	-48.6	-51.5	17.1	0.00e+00	0	40	0	398458880	68	5101
2026-01-04 01:47:29.26	316.81	18.02	-48.6	-51.4	17.2	0.00e+00	0	40	0	400556032	68	5080
2026-01-04 01:47:29.98	316.64	18.03	-48.6	-51.5	17.1	0.00e+00	0	40	0	401604608	68	5116
2026-01-04 01:47:31.27	316.34	18.04	-48.6	-51.5	17.1	0.00e+00	0	40	0	404750336	68	5111
2026-01-04 01:47:32.00	316.17	18.04	-48.5	-51.3	17.3	0.00e+00	0	40	0	405798912	68	4998
2026-01-04 01:47:33.29	315.87	18.05	-48.6	-51.3	17.3	0.00e+00	0	40	0	407896064	68	5017
2026-01-04 01:47:34.10	315.68	18.05	-48.6	-51.3	17.3	0.00e+00	0	40	0	409993216	68	5026
2026-01-04 01:47:35.58	315.33	18.06	-48.5	-51.3	17.3	0.00e+00	0	40	0	412090368	68	5007
2026-01-04 01:47:36.30	315.16	18.06	-48.5	-51.3	17.3	0.00e+00	0	40	0	414187520	68	5008
2026-01-04 01:47:37.59	314.86	18.06	-48.5	-51.3	17.3	0.00e+00	0	40	0	416284672	68	5017
2026-01-04 01:47:38.30	314.69	18.07	-48.5	-51.3	17.3	0.00e+00	0	40	0	417333248	68	5008
2026-01-04 01:47:39.59	314.39	18.07	-48.6	-51.4	17.2	0.00e+00	0	40	0	420478976	68	5043
2026-01-04 01:47:40.31	314.22	18.07	-48.5	-51.3	17.2	0.00e+00	0	40	0	421527552	68	5033
2026-01-04 01:47:41.60	313.92	18.07	-48.6	-51.4	17.1	0.00e+00	0	40	0	423624704	68	5097
2026-01-04 01:47:42.39	313.74	18.07	-48.6	-51.4	17.2	0.00e+00	0	40	0	425721856	68	5072
2026-01-04 01:47:43.55	313.46	18.07	-48.6	-51.4	17.2	0.00e+00	0	40	0	427819008	68	5064
2026-01-04 01:47:44.41	313.26	18.07	-48.7	-51.4	17.1	0.00e+00	0	40	0	428867584	68	5099
2026-01-04 01:47:45.56	312.99	18.07	-48.8	-51.6	17.0	0.00e+00	0	39	0	430964736	68	5165
2026-01-04 01:47:46.66	312.73	18.07	-48.7	-51.4	17.2	0.00e+00	0	40	0	433061888	68	5064
2026-01-04 01:47:47.69	312.49	18.07	-48.8	-51.4	17.1	0.00e+00	0	40	0	435159040	68	5096
2026-01-04 01:47:48.87	312.22	18.06	-48.8	-51.6	17.0	0.00e+00	0	40	0	437256192	68	5169
2026-01-04 01:47:49.78	312.00	18.06	-48.9	-51.7	16.9	0.00e+00	0	40	0	439353344	68	5231
2026-01-04 01:47:50.98	311.72	18.06	-48.9	-51.7	16.9	0.00e+00	0	40	0	441450496	68	5249
2026-01-04 01:47:51.84	311.52	18.05	-48.8	-51.6	17.0	0.00e+00	0	40	0	443547648	68	5193
2026-01-04 01:47:52.99	311.25	18.05	-48.8	-51.5	17.1	0.00e+00	0	40	0	445644800	68	5124
2026-01-04 01:47:53.85	311.05	18.04	-48.7	-51.5	17.1	0.00e+00	0	39	0	446693376	68	5110
2026-01-04 01:47:55.00	310.78	18.04	-48.5	-51.2	17.4	0.00e+00	0	40	0	448790528	68	4930
2026-01-04 01:47:55.86	310.58	18.03	-48.3	-51.0	17.6	0.00e+00	0	40	0	450887680	68	4815
2026-01-04 01:47:57.00	310.31	18.03	-48.2	-50.8	17.7	0.00e+00	0	40	0	452984832	68	4750
2026-01-04 01:47:57.86	310.11	18.02	-48.2	-50.9	17.7	0.00e+00	0	40	0	454033408	68	4765
2026-01-04 01:47:59.00	309.84	18.01	-48.2	-50.9	17.7	0.00e+00	0	40	0	456130560	68	4775
2026-01-04 01:47:59.86	309.64	18.00	-48.2	-50.9	17.6	0.00e+00	0	40	0	458227712	68	4792
2026-01-04 01:48:01.01	309.37	17.99	-48.2	-50.9	17.6	0.00e+00	0	40	0	460324864	68	4772
2026-01-04 01:48:01.87	309.17	17.99	-48.3	-51.0	17.6	0.00e+00	0	40	0	461373440	68	4822
2026-01-04 01:48:03.13	308.88	17.98	-48.3	-51.0	17.5	0.00e+00	0	40	0	464519168	68	4851
2026-01-04 01:48:03.89	308.70	17.97	-48.4	-51.0	17.5	0.00e+00	0	40	0	465567744	68	4868
2026-01-04 01:48:05.18	308.40	17.95	-48.5	-51.2	17.4	0.00e+00	0	39	0	467664896	68	4927
2026-01-04 01:48:05.89	308.24	17.95	-48.5	-51.1	17.5	0.00e+00	0	40	0	469762048	68	4881
2026-01-04 01:48:07.18	307.94	17.93	-48.4	-50.9	17.6	0.00e+00	0	40	0	471859200	68	4795
2026-01-04 01:48:07.90	307.77	17.92	-48.3	-50.9	17.6	0.00e+00	0	40	0	472907776	68	4784
2026-01-04 01:48:09.18	307.47	17.91	-48.3	-50.9	17.6	0.00e+00	0	40	0	475004928	68	4790
2026-01-04 01:48:09.90	307.31	17.90	-48.3	-50.9	17.7	0.00e+00	0	40	0	477102080	68	4780
2026-01-04 01:48:11.19	307.01	17.88	-48.3	-50.8	17.7	0.00e+00	0	40	0	479199232	68	4739
2026-01-04 01:48:11.91	306.84	17.87	-48.2	-50.7	17.8	0.00e+00	0	40	0	480247808	68	4689
2026-01-04 01:48:13.20	306.54	17.85	-48.2	-50.7	17.8	0.00e+00	0	40	0	483393536	68	4696
2026-01-04 01:48:13.92	306.37	17.84	-48.1	-50.6	17.9	0.00e+00	0	40	0	484442112	68	4646
2026-01-04 01:48:15.21	306.08	17.82	-48.1	-50.6	18.0	0.00e+00	0	40	0	486539264	68	4616
2026-01-04 01:48:15.92	305.91	17.81	-48.0	-50.5	18.1	0.00e+00	0	40	0	488636416	68	4574
2026-01-04 01:48:17.21	305.62	17.79	-47.8	-50.3	18.1	0.00e+00	0	40	0	490733568	67	4730
2026-01-04 01:48:17.92	305.45	17.78	-47.8	-50.3	18.1	0.00e+00	0	40	0	491782144	67	4722
2026-01-04 01:48:19.21	305.15	17.76	-47.8	-50.2	18.2	0.00e+00	0	40	0	493879296	67	4698
2026-01-04 01:48:19.93	304.99	17.74	-47.8	-50.2	18.2	0.00e+00	0	40	0	495976448	67	4670
2026-01-04 01:48:21.22	304.69	17.72	-47.7	-50.1	18.3	0.00e+00	0	40	0	498073600	67	4626
2026-01-04 01:48:21.93	304.53	17.71	-47.7	-50.1	18.3	7.00e-07	0	40	0	499122176	67	4622
2026-01-04 01:48:23.22	304.24	17.68	-47.7	-50.1	18.3	0.00e+00	0	40	0	502267904	67	4645
2026-01-04 01:48:23.94	304.07	17.67	-47.7	-50.2	18.3	0.00e+00	0	40	0	503316480	67	4659
2026-01-04 01:48:25.23	303.78	17.64	-47.8	-50.2	18.2	0.00e+00	0	40	0	505413632	67	4676
2026-01-04 01:48:25.94	303.61	17.63	-47.9	-50.3	18.0	0.00e+00	0	40	0	507510784	67	4742
2026-01-04 01:48:27.23	303.32	17.60	-47.7	-50.1	18.2	0.00e+00	0	40	0	509607936	67	4650
2026-01-04 01:48:28.19	303.10	17.58	-47.6	-50.0	18.3	0.00e+00	0	40	0	510656512	67	4581
2026-01-04 01:48:29.19	302.88	17.56	-47.6	-50.0	18.3	0.00e+00	0	40	0	512753664	67	4590
2026-01-04 01:48:30.19	302.65	17.54	-47.5	-49.8	18.4	0.00e+00	0	40	0	514850816	67	4493
2026-01-04 01:48:31.19	302.42	17.52	-47.5	-49.8	18.5	0.00e+00	0	40	0	516947968	66	4746
2026-01-04 01:48:32.20	302.19	17.49	-47.5	-49.8	18.5	0.00e+00	0	40	0	519045120	66	4747
2026-01-04 01:48:33.20	301.97	17.47	-47.5	-49.8	18.5	0.00e+00	0	40	0	521142272	66	4747
2026-01-04 01:48:34.21	301.74	17.45	-47.4	-49.8	18.5	0.00e+00	0	40	0	522190848	66	4729
2026-01-04 01:48:35.21	301.52	17.42	-47.5	-49.9	18.4	0.00e+00	0	40	0	524288000	66	4779
2026-01-04 01:48:36.28	301.28	17.39	-47.5	-50.0	18.3	0.00e+00	0	40	0	526385152	66	4821
2026-01-04 01:48:37.13	301.08	17.37	-47.6	-50.0	18.3	0.00e+00	0	40	0	527433728	66	4833
2026-01-04 01:48:38.49	300.78	17.34	-47.6	-50.1	18.2	0.00e+00	0	39	0	530579456	66	4873
2026-01-04 01:48:39.20	300.62	17.32	-47.7	-50.1	18.2	0.00e+00	0	39	0	531628032	66	4906
2026-01-04 01:48:40.49	300.33	17.29	-47.7	-50.1	18.2	0.00e+00	0	40	0	534773760	66	4923
2026-01-04 01:48:41.21	300.17	17.27	-47.7	-50.1	18.2	0.00e+00	0	40	0	535822336	66	4921
2026-01-04 01:48:42.50	299.89	17.23	-47.8	-50.3	18.1	0.00e+00	0	40	0	537919488	66	4990
2026-01-04 01:48:43.22	299.73	17.21	-47.9	-50.4	18.0	0.00e+00	0	40	0	538968064	66	5048
2026-01-04 01:48:44.50	299.44	17.18	-48.0	-50.5	17.8	0.00e+00	0	40	0	542113792	66	5125
2026-01-04 01:48:45.22	299.28	17.15	-48.0	-50.5	17.8	0.00e+00	0	40	0	543162368	66	5111
2026-01-04 01:48:46.51	299.00	17.12	-48.0	-50.5	17.8	0.00e+00	0	40	0	545259520	66	5147
2026-01-04 01:48:47.23	298.84	17.10	-48.1	-50.6	17.7	0.00e+00	0	40	0	547356672	66	5204
2026-01-04 01:48:48.52	298.56	17.06	-48.0	-50.5	17.8	0.00e+00	0	40	0	549453824	66	5140
2026-01-04 01:48:49.23	298.40	17.04	-48.0	-50.5	17.8	0.00e+00	0	40	0	550502400	66	5130
2026-01-04 01:48:50.52	298.12	17.00	-48.0	-50.5	17.7	0.00e+00	0	40	0	552599552	66	5156
2026-01-04 01:48:51.24	297.96	16.98	-48.0	-50.5	17.8	0.00e+00	0	40	0	554696704	66	5126
2026-01-04 01:48:52.53	297.68	16.94	-48.0	-50.5	17.8	0.00e+00	0	40	0	556793856	66	5136
2026-01-04 01:48:53.25	297.52	16.91	-48.0	-50.5	17.8	0.00e+00	0	40	0	557842432	66	5135
2026-01-04 01:48:54.65	297.22	16.87	-48.1	-50.7	17.7	0.00e+00	0	40	0	560988160	66	5269
2026-01-04 01:48:55.64	297.01	16.84	-48.2	-50.8	17.6	0.00e+00	0	40	0	563085312	67	5018
2026-01-04 01:48:56.96	296.72	16.79	-48.3	-50.9	17.4	0.00e+00	0	40	0	565182464	67	5085
2026-01-04 01:48:57.67	296.57	16.77	-48.3	-51.0	17.4	0.00e+00	0	40	0	566231040	67	5136
2026-01-04 01:48:58.96	296.29	16.72	-48.4	-51.1	17.3	0.00e+00	0	40	0	569376768	67	5166
2026-01-04 01:48:59.68	296.14	16.70	-48.4	-51.0	17.3	0.00e+00	0	40	0	570425344	67	5148
2026-01-04 01:49:00.97	295.86	16.66	-48.4	-51.1	17.3	0.00e+00	0	39	0	572522496	67	5170
2026-01-04 01:49:01.68	295.71	16.63	-48.6	-51.2	17.2	0.00e+00	0	40	0	573571072	67	5255
2026-01-04 01:49:03.02	295.42	16.58	-48.5	-51.1	17.3	0.00e+00	0	40	0	576716800	67	5177
2026-01-04 01:49:03.74	295.27	16.56	-48.5	-51.2	17.3	0.00e+00	0	40	0	577765376	67	5221
2026-01-04 01:49:05.03	295.00	16.51	-48.5	-51.1	17.3	0.00e+00	0	40	0	579862528	67	5213
2026-01-04 01:49:05.74	294.85	16.49	-48.3	-51.0	17.3	0.00e+00	0	40	0	581959680	67	5105
2026-01-04 01:49:07.03	294.58	16.44	-48.3	-50.9	17.4	2.20e-06	0	40	0	584056832	67	5058
2026-01-04 01:49:07.75	294.42	16.41	-48.3	-50.9	17.5	1.50e-06	0	40	0	585105408	67	5062
2026-01-04 01:49:09.04	294.15	16.37	-48.1	-50.7	17.7	0.00e+00	0	39	0	588251136	67	4957
2026-01-04 01:49:09.76	294.00	16.34	-48.1	-50.6	17.6	7.00e-07	0	40	0	589299712	67	4918
2026-01-04 01:49:11.05	293.73	16.29	-48.1	-50.6	17.7	7.00e-07	0	40	0	591396864	67	4924
2026-01-04 01:49:11.76	293.59	16.26	-48.0	-50.6	17.7	0.00e+00	0	40	0	592445440	67	4888
2026-01-04 01:49:13.05	293.32	16.21	-48.2	-50.8	17.6	0.00e+00	0	40	0	595591168	67	4990
2026-01-04 01:49:13.77	293.17	16.18	-48.1	-50.6	17.7	0.00e+00	0	40	0	596639744	67	4918
2026-01-04 01:49:15.06	292.90	16.13	-48.1	-50.7	17.6	0.00e+00	0	40	0	598736896	67	4953
2026-01-04 01:49:15.95	292.72	16.10	-48.2	-50.7	17.6	0.00e+00	0	40	0	600834048	67	4957
2026-01-04 01:49:16.97	292.51	16.06	-48.2	-50.8	17.5	0.00e+00	0	39	0	602931200	67	4987
2026-01-04 01:49:17.97	292.30	16.02	-48.2	-50.8	17.5	0.00e+00	0	40	0	605028352	67	5017
2026-01-04 01:49:18.97	292.10	15.98	-48.3	-50.8	17.5	0.00e+00	0	40	0	606076928	67	5035
2026-01-04 01:49:19.98	291.89	15.94	-48.2	-50.8	17.6	0.00e+00	0	40	0	608174080	67	5013
2026-01-04 01:49:20.98	291.69	15.90	-48.1	-50.7	17.7	0.00e+00	0	40	0	610271232	67	4944
2026-01-04 01:49:21.98	291.49	15.85	-48.0	-50.5	17.8	0.00e+00	0	40	0	612368384	67	4858
2026-01-04 01:49:22.99	291.28	15.81	-48.1	-50.6	17.7	0.00e+00	0	40	0	613416960	67	4899
2026-01-04 01:49:23.99	291.08	15.77	-48.0	-50.6	17.8	0.00e+00	0	40	0	615514112	67	4876
2026-01-04 01:49:24.99	290.88	15.73	-48.0	-50.6	17.7	0.00e+00	0	40	0	617611264	67	4873
2026-01-04 01:49:25.99	290.68	15.69	-48.1	-50.7	17.6	0.00e+00	0	40	0	619708416	67	4931
2026-01-04 01:49:26.99	290.48	15.64	-48.2	-50.8	17.5	0.00e+00	0	40	0	621805568	67	5032
2026-01-04 01:49:27.99	290.28	15.60	-48.2	-50.8	17.5	0.00e+00	0	39	0	622854144	67	5033
2026-01-04 01:49:29.00	290.08	15.56	-48.2	-50.8	17.5	0.00e+00	0	40	0	624951296	67	4994
2026-01-04 01:49:30.00	289.88	15.51	-48.2	-50.8	17.5	0.00e+00	0	40	0	627048448	67	5021
2026-01-04 01:49:31.00	289.68	15.47	-48.2	-50.7	17.6	0.00e+00	0	40	0	629145600	67	4973
2026-01-04 01:49:32.01	289.48	15.43	-48.1	-50.6	17.6	0.00e+00	0	40	0	631242752	67	4925
2026-01-04 01:49:33.01	289.29	15.38	-48.1	-50.7	17.6	0.00e+00	0	40	0	632291328	67	4941
2026-01-04 01:49:34.01	289.09	15.34	-48.2	-50.8	17.5	0.00e+00	0	39	0	634388480	67	5016
2026-01-04 01:49:35.01	288.90	15.29	-48.3	-50.9	17.5	0.00e+00	0	40	0	636485632	67	5055
2026-01-04 01:49:36.02	288.70	15.25	-48.2	-50.8	17.5	0.00e+00	0	40	0	638582784	67	4995
2026-01-04 01:49:37.02	288.51	15.20	-48.3	-50.9	17.5	0.00e+00	0	40	0	640679936	67	5063
2026-01-04 01:49:38.03	288.31	15.15	-48.2	-50.8	17.4	0.00e+00	0	40	0	641728512	67	5034
2026-01-04 01:49:39.03	288.12	15.11	-48.3	-50.9	17.4	0.00e+00	0	40	0	643825664	67	5098
2026-01-04 01:49:40.03	287.93	15.06	-48.4	-51.0	17.3	0.00e+00	0	40	0	645922816	67	5137
2026-01-04 01:49:41.03	287.73	15.02	-48.4	-51.1	17.3	0.00e+00	0	40	0	648019968	67	5173
2026-01-04 01:49:42.03	287.54	14.97	-48.4	-51.0	17.3	0.00e+00	0	40	0	650117120	67	5116
2026-01-04 01:49:43.04	287.35	14.92	-48.4	-51.0	17.3	0.00e+00	0	40	0	651165696	67	5152
2026-01-04 01:49:44.04	287.16	14.88	-48.4	-51.0	17.3	0.00e+00	0	40	0	653262848	67	5159
2026-01-04 01:49:45.04	286.97	14.83	-48.4	-51.1	17.3	0.00e+00	0	40	0	655360000	67	5171
2026-01-04 01:49:46.05	286.78	14.78	-48.5	-51.1	17.3	0.00e+00	0	39	0	657457152	67	5181
2026-01-04 01:49:47.05	286.59	14.73	-48.6	-51.2	17.1	0.00e+00	0	40	0	659554304	67	5276
2026-01-04 01:49:48.06	286.40	14.68	-48.5	-51.1	17.1	0.00e+00	0	40	0	660602880	67	5218
2026-01-04 01:49:49.06	286.22	14.64	-48.5	-51.2	17.1	0.00e+00	0	40	0	662700032	67	5220
2026-01-04 01:49:50.06	286.03	14.59	-48.6	-51.3	17.0	0.00e+00	0	39	0	664797184	67	5305
2026-01-04 01:49:51.07	285.84	14.54	-48.6	-51.3	17.0	0.00e+00	0	40	0	666894336	67	5295
2026-01-04 01:49:52.07	285.66	14.49	-48.5	-51.2	17.1	0.00e+00	0	40	0	667942912	67	5240
2026-01-04 01:49:53.17	285.45	14.44	-48.5	-51.2	17.0	0.00e+00	0	40	0	670040064	67	5249
2026-01-04 01:49:54.03	285.30	14.39	-48.6	-51.3	17.0	0.00e+00	0	40	0	672137216	67	5295
2026-01-04 01:49:55.17	285.09	14.34	-48.7	-51.4	16.9	0.00e+00	0	40	0	674234368	67	5363
2026-01-04 01:49:56.03	284.93	14.30	-48.9	-51.7	16.9	0.00e+00	0	40	0	676331520	68	5220
2026-01-04 01:49:57.18	284.72	14.24	-49.0	-51.8	16.7	0.00e+00	0	40	0	678428672	68	5317
2026-01-04 01:49:58.20	284.54	14.19	-49.1	-51.9	16.6	0.00e+00	0	40	0	679477248	68	5364
2026-01-04 01:49:59.38	284.32	14.13	-49.1	-51.9	16.5	7.00e-07	0	40	0	682622976	68	5376
2026-01-04 01:50:00.24	284.17	14.09	-49.1	-52.0	16.5	0.00e+00	0	40	0	683671552	69	5112
2026-01-04 01:50:01.59	283.93	14.02	-49.2	-52.0	16.5	0.00e+00	0	40	0	686817280	69	5124
2026-01-04 01:50:02.31	283.80	13.98	-49.2	-52.1	16.4	0.00e+00	0	40	0	687865856	69	5179
2026-01-04 01:50:03.60	283.57	13.92	-49.2	-52.0	16.4	0.00e+00	0	40	0	689963008	69	5140
2026-01-04 01:50:04.31	283.44	13.88	-49.2	-52.0	16.5	0.00e+00	0	40	0	691011584	69	5128
2026-01-04 01:50:05.60	283.21	13.81	-49.2	-52.0	16.5	0.00e+00	0	40	0	694157312	69	5159
2026-01-04 01:50:06.32	283.09	13.78	-49.3	-52.2	16.2	0.00e+00	0	40	0	695205888	69	5273
2026-01-04 01:50:07.61	282.86	13.71	-49.4	-52.4	16.0	0.00e+00	0	40	0	697303040	69	5396
2026-01-04 01:50:08.44	282.72	13.67	-49.5	-52.5	15.9	0.00e+00	0	40	0	699400192	69	5428
2026-01-04 01:50:09.59	282.52	13.61	-49.6	-52.7	15.8	0.00e+00	0	40	0	701497344	69	5546
2026-01-04 01:50:10.45	282.37	13.56	-49.7	-52.8	15.7	0.00e+00	0	39	0	702545920	70	5295
2026-01-04 01:50:11.60	282.17	13.50	-49.8	-52.9	15.5	0.00e+00	0	40	0	704643072	70	5397
2026-01-04 01:50:12.72	281.97	13.45	-49.8	-52.9	15.5	0.00e+00	0	40	0	706740224	70	5389
2026-01-04 01:50:13.58	281.83	13.40	-49.7	-52.9	15.6	0.00e+00	0	40	0	708837376	70	5341
2026-01-04 01:50:14.73	281.63	13.34	-49.5	-52.5	15.9	0.00e+00	0	39	0	710934528	70	5158
2026-01-04 01:50:15.59	281.48	13.29	-49.4	-52.4	16.0	0.00e+00	0	39	0	713031680	70	5093
2026-01-04 01:50:16.74	281.29	13.23	-49.3	-52.3	16.1	0.00e+00	0	40	0	715128832	70	5013
2026-01-04 01:50:17.60	281.14	13.19	-49.5	-52.5	16.1	0.00e+00	0	40	0	716177408	70	5129
2026-01-04 01:50:18.74	280.95	13.13	-49.5	-52.5	16.0	0.00e+00	0	40	0	718274560	70	5107
2026-01-04 01:50:19.60	280.81	13.08	-49.6	-52.6	15.9	3.00e-06	0	40	0	720371712	70	5191
2026-01-04 01:50:20.75	280.61	13.02	-49.8	-53.0	15.6	0.00e+00	0	40	0	722468864	70	5410
2026-01-04 01:50:21.61	280.47	12.97	-49.9	-53.1	15.4	0.00e+00	0	40	0	723517440	70	5523
2026-01-04 01:50:22.87	280.26	12.91	-50.2	-53.5	15.0	0.00e+00	0	40	0	726663168	70	5773
2026-01-04 01:50:23.60	280.14	12.87	-50.1	-53.5	15.1	1.50e-06	0	40	0	727711744	71	5419
2026-01-04 01:50:25.08	279.89	12.79	-50.1	-53.5	15.0	7.00e-07	0	40	0	730857472	71	5447
2026-01-04 01:50:25.80	279.78	12.75	-50.2	-53.6	15.0	0.00e+00	0	40	0	731906048	71	5485
2026-01-04 01:50:27.17	279.55	12.68	-50.2	-53.6	15.0	0.00e+00	0	40	0	734003200	71	5501
2026-01-04 01:50:27.88	279.44	12.64	-50.2	-53.5	15.1	7.00e-07	0	40	0	736100352	71	5460
2026-01-04 01:50:29.17	279.23	12.57	-50.1	-53.5	15.1	0.00e+00	0	40	0	738197504	71	5405
2026-01-04 01:50:29.89	279.11	12.53	-50.0	-53.3	15.2	0.00e+00	0	40	0	739246080	71	5332
2026-01-04 01:50:31.27	278.89	12.45	-50.0	-53.3	15.3	0.00e+00	0	40	0	742391808	71	5305
2026-01-04 01:50:32.26	278.73	12.40	-50.0	-53.3	15.3	0.00e+00	0	40	0	743440384	71	5297
2026-01-04 01:50:33.26	278.57	12.34	-50.2	-53.5	15.3	0.00e+00	0	40	0	745537536	71	5407
2026-01-04 01:50:34.27	278.41	12.29	-50.1	-53.4	15.2	0.00e+00	0	40	0	747634688	71	5343
2026-01-04 01:50:35.27	278.25	12.23	-50.0	-53.3	15.1	0.00e+00	0	40	0	749731840	71	5333
2026-01-04 01:50:36.27	278.09	12.18	-50.0	-53.3	15.1	2.20e-06	0	40	0	751828992	71	5335
2026-01-04 01:50:37.28	277.93	12.12	-50.1	-53.5	15.0	0.00e+00	0	40	0	752877568	71	5411
2026-01-04 01:50:38.28	277.78	12.07	-50.1	-53.5	15.0	0.00e+00	0	40	0	754974720	71	5418
2026-01-04 01:50:39.28	277.62	12.01	-50.1	-53.6	14.9	0.00e+00	0	40	0	757071872	71	5478
2026-01-04 01:50:40.29	277.46	11.96	-50.0	-53.3	15.2	7.00e-07	0	40	0	759169024	71	5301
2026-01-04 01:50:41.37	277.30	11.90	-49.9	-53.2	15.3	0.00e+00	0	40	0	761266176	71	5259
2026-01-04 01:50:42.23	277.16	11.85	-49.9	-53.3	15.2	0.00e+00	0	40	0	762314752	71	5280
2026-01-04 01:50:43.57	276.96	11.78	-49.8	-53.0	15.4	0.00e+00	0	40	0	765460480	71	5154
2026-01-04 01:50:44.29	276.85	11.74	-49.8	-53.0	15.4	0.00e+00	0	40	0	766509056	71	5151
2026-01-04 01:50:45.58	276.65	11.66	-49.8	-53.1	15.4	0.00e+00	0	40	0	768606208	71	5174
2026-01-04 01:50:46.29	276.54	11.62	-49.9	-53.2	15.3	0.00e+00	0	40	0	770703360	71	5219
2026-01-04 01:50:47.58	276.35	11.55	-50.1	-53.3	15.2	0.00e+00	0	40	0	772800512	71	5323
2026-01-04 01:50:48.29	276.24	11.51	-50.0	-53.2	15.2	7.00e-07	0	40	0	773849088	71	5279
2026-01-04 01:50:49.58	276.04	11.44	-50.0	-53.2	15.3	0.00e+00	0	39	0	775946240	71	5264
2026-01-04 01:50:50.45	275.91	11.39	-50.0	-53.2	15.3	0.00e+00	0	40	0	778043392	71	5270
2026-01-04 01:50:51.59	275.74	11.33	-49.8	-53.0	15.4	0.00e+00	0	40	0	780140544	71	5136
2026-01-04 01:50:52.45	275.62	11.28	-49.8	-53.0	15.4	0.00e+00	0	40	0	781189120	71	5118
2026-01-04 01:50:53.60	275.45	11.21	-49.8	-53.0	15.5	0.00e+00	0	40	0	784334848	71	5149
2026-01-04 01:50:54.73	275.28	11.15	-49.7	-52.8	15.7	0.00e+00	0	40	0	786432000	71	4997
2026-01-04 01:50:55.78	275.13	11.09	-49.7	-52.8	15.7	0.00e+00	0	39	0	787480576	71	4995
2026-01-04 01:50:56.83	274.97	11.03	-49.6	-52.6	15.9	0.00e+00	0	40	0	789577728	71	4916
2026-01-04 01:50:57.85	274.82	10.97	-49.6	-52.7	15.9	0.00e+00	0	40	0	791674880	71	4945
2026-01-04 01:50:58.98	274.66	10.91	-49.7	-52.7	15.9	0.00e+00	0	39	0	793772032	71	4943
2026-01-04 01:50:59.86	274.53	10.86	-49.7	-52.7	15.9	0.00e+00	0	40	0	795869184	71	4934
2026-01-04 01:51:01.00	274.37	10.80	-49.6	-52.6	15.9	0.00e+00	0	40	0	797966336	71	4908
2026-01-04 01:51:01.86	274.25	10.75	-49.6	-52.6	16.0	0.00e+00	0	40	0	799014912	71	4901
2026-01-04 01:51:03.01	274.08	10.68	-49.6	-52.6	16.0	0.00e+00	0	40	0	801112064	71	4897
2026-01-04 01:51:03.87	273.96	10.63	-49.7	-52.7	16.0	7.00e-07	0	40	0	803209216	71	4929
2026-01-04 01:51:05.01	273.80	10.57	-49.7	-52.8	15.8	0.00e+00	0	40	0	805306368	71	5010
2026-01-04 01:51:05.87	273.68	10.52	-49.8	-52.9	15.8	0.00e+00	0	40	0	806354944	71	5052
2026-01-04 01:51:07.02	273.52	10.45	-49.8	-52.9	15.8	0.00e+00	0	40	0	809500672	71	5070
2026-01-04 01:51:07.87	273.40	10.41	-49.8	-52.9	15.8	0.00e+00	0	40	0	810549248	71	5058
2026-01-04 01:51:09.02	273.24	10.34	-49.9	-53.0	15.8	0.00e+00	0	40	0	812646400	71	5134
2026-01-04 01:51:09.88	273.12	10.29	-49.8	-52.9	15.8	0.00e+00	0	40	0	814743552	71	5077
2026-01-04 01:51:11.03	272.96	10.23	-49.6	-52.6	16.1	0.00e+00	0	40	0	816840704	71	4878
2026-01-04 01:51:11.89	272.84	10.18	-49.4	-52.3	16.3	0.00e+00	0	40	0	817889280	70	5035
2026-01-04 01:51:13.13	272.67	10.11	-49.3	-52.2	16.5	0.00e+00	0	40	0	819986432	70	4937
2026-01-04 01:51:13.98	272.56	10.06	-49.2	-52.2	16.5	0.00e+00	0	40	0	822083584	70	4936
2026-01-04 01:51:15.12	272.40	9.99	-49.0	-51.9	16.7	0.00e+00	0	40	0	824180736	70	4795
2026-01-04 01:51:15.98	272.28	9.94	-49.1	-52.0	16.6	0.00e+00	0	40	0	826277888	70	4829
2026-01-04 01:51:17.13	272.13	9.88	-49.1	-52.1	16.6	0.00e+00	0	40	0	828375040	70	4880
2026-01-04 01:51:18.09	272.00	9.82	-49.2	-52.2	16.5	0.00e+00	0	40	0	829423616	70	4937
2026-01-04 01:51:19.27	271.84	9.76	-49.2	-52.2	16.5	0.00e+00	0	40	0	831520768	70	4950
2026-01-04 01:51:20.13	271.73	9.71	-49.1	-52.1	16.7	0.00e+00	0	40	0	833617920	70	4874
2026-01-04 01:51:21.27	271.58	9.64	-49.1	-52.1	16.6	0.00e+00	0	40	0	835715072	70	4873
2026-01-04 01:51:22.13	271.46	9.59	-49.0	-52.0	16.7	0.00e+00	0	40	0	837812224	70	4827
2026-01-04 01:51:23.28	271.31	9.53	-49.0	-52.0	16.8	0.00e+00	0	40	0	839909376	70	4819
2026-01-04 01:51:24.14	271.20	9.48	-48.9	-51.8	16.9	0.00e+00	0	40	0	840957952	69	5000
2026-01-04 01:51:25.29	271.05	9.41	-49.0	-51.9	16.8	7.00e-07	0	40	0	843055104	69	5049
2026-01-04 01:51:26.15	270.94	9.36	-48.9	-51.7	16.9	0.00e+00	0	40	0	845152256	69	4954
2026-01-04 01:51:27.30	270.79	9.30	-48.8	-51.5	17.0	0.00e+00	0	40	0	847249408	69	4865
2026-01-04 01:51:28.16	270.68	9.25	-48.8	-51.6	17.0	0.00e+00	0	40	0	848297984	69	4879
2026-01-04 01:51:29.30	270.53	9.18	-48.7	-51.4	17.2	0.00e+00	0	40	0	850395136	69	4783
2026-01-04 01:51:30.16	270.42	9.13	-48.7	-51.5	17.1	0.00e+00	0	40	0	852492288	69	4817
2026-01-04 01:51:31.32	270.27	9.07	-48.7	-51.4	17.2	0.00e+00	0	39	0	854589440	69	4798
2026-01-04 01:51:32.18	270.16	9.02	-48.8	-51.5	17.1	0.00e+00	0	40	0	855638016	69	4860
2026-01-04 01:51:33.33	270.02	8.95	-54.7	-68.8	3.8	8.70e-02	0	40	104	857735168	80	18858
2026-01-04 01:51:34.19	269.91	8.90	-54.8	-70.0	3.8	1.49e+00	0	40	104	857735168	80	21582
2026-01-04 01:51:35.34	269.76	8.84	-54.8	-70.1	3.8	1.49e+00	0	40	104	857735168	80	21912
2026-01-04 01:51:36.20	269.66	8.79	-54.9	-70.1	3.8	1.49e+00	0	40	104	857735168	80	21929
2026-01-04 01:51:37.35	269.51	8.72	-54.9	-70.3	3.8	1.49e+00	0	40	104	857735168	80	22342
2026-01-04 01:51:38.21	269.41	8.67	-55.0	-70.3	3.8	1.49e+00	0	40	104	857735168	80	22376
2026-01-04 01:51:39.43	269.26	8.60	-54.9	-70.3	3.8	1.49e+00	0	40	104	857735168	80	22440
2026-01-04 01:51:40.30	269.15	8.55	-54.8	-70.3	3.8	1.49e+00	0	40	104	857735168	80	22289
2026-01-04 01:51:41.49	269.00	8.48	-55.1	-70.4	3.8	1.49e+00	0	40	104	857735168	80	22560
2026-01-04 01:51:42.35	268.90	8.43	-55.2	-70.4	3.8	1.49e+00	0	40	104	857735168	81	21353
2026-01-04 01:51:43.58	268.75	8.36	-55.2	-70.4	3.8	1.49e+00	0	40	104	857735168	81	21457
2026-01-04 01:51:44.44	268.65	8.32	-55.2	-70.3	3.8	1.49e+00	0	40	104	857735168	81	21212
2026-01-04 01:51:45.65	268.50	8.25	-55.3	-70.4	3.8	1.49e+00	0	40	104	857735168	81	21368
2026-01-04 01:51:46.51	268.40	8.20	-55.3	-70.4	3.8	1.49e+00	0	40	104	857735168	81	21480
2026-01-04 01:51:47.66	268.26	8.13	-55.2	-70.4	3.8	1.49e+00	0	40	104	857735168	81	21272
2026-01-04 01:51:48.52	268.16	8.08	-55.2	-70.3	3.8	1.49e+00	0	40	104	857735168	81	21060
2026-01-04 01:51:49.67	268.02	8.02	-55.3	-70.4	3.8	1.49e+00	0	40	104	857735168	81	21350
2026-01-04 01:51:50.53	267.92	7.97	-55.3	-70.3	3.8	1.49e+00	0	40	104	857735168	81	21194
2026-01-04 01:51:51.68	267.78	7.90	-55.3	-70.4	3.8	1.49e+00	0	40	104	857735168	81	21384
2026-01-04 01:51:52.54	267.68	7.85	-55.3	-70.4	3.8	1.49e+00	0	40	104	857735168	81	21423
2026-01-04 01:51:53.69	267.55	7.79	-55.3	-70.5	3.8	1.49e+00	0	40	104	857735168	81	21567
2026-01-04 01:51:54.55	267.45	7.74	-55.3	-70.5	3.8	1.49e+00	0	40	104	857735168	81	21531
2026-01-04 01:51:55.70	267.32	7.67	-55.3	-70.4	3.8	1.49e+00	0	40	104	857735168	81	21472
2026-01-04 01:51:56.56	267.22	7.62	-55.3	-70.4	3.8	1.49e+00	0	40	104	857735168	81	21405
2026-01-04 01:51:57.70	267.09	7.56	-55.3	-70.4	3.8	1.49e+00	0	40	104	857735168	81	21353
2026-01-04 01:51:58.57	266.99	7.51	-55.3	-70.4	3.8	1.49e+00	0	40	104	857735168	81	21380
2026-01-04 01:51:59.71	266.86	7.44	-55.3	-70.4	3.8	1.49e+00	0	40	104	857735168	81	21416
2026-01-04 01:52:00.57	266.76	7.39	-55.3	-70.4	3.8	1.49e+00	0	40	104	857735168	81	21351
2026-01-04 01:52:01.72	266.63	7.33	-55.3	-70.4	3.8	1.49e+00	0	40	104	857735168	81	21334
2026-01-04 01:52:02.58	266.53	7.28	-55.2	-70.3	3.8	1.49e+00	0	40	104	857735168	81	21204
2026-01-04 01:52:03.73	266.41	7.21	-55.2	-70.3	3.8	1.49e+00	0	40	104	857735168	81	21089
2026-01-04 01:52:04.59	266.31	7.16	-55.2	-70.3	3.8	1.49e+00	0	40	104	857735168	81	21104
2026-01-04 01:52:05.74	266.18	7.10	-55.1	-70.4	3.8	1.49e+00	0	40	104	857735168	81	21277
2026-01-04 01:52:06.60	266.09	7.05	-55.1	-70.3	3.8	1.49e+00	0	40	104	857735168	81	21152
2026-01-04 01:52:07.75	265.96	6.99	-55.1	-70.3	3.8	1.49e+00	0	40	104	857735168	81	21235
2026-01-04 01:52:08.61	265.87	6.94	-55.1	-70.4	3.8	1.49e+00	0	40	104	857735168	81	21262
2026-01-04 01:52:09.76	265.74	6.87	-55.0	-70.2	3.8	1.49e+00	0	40	104	857735168	81	21015
2026-01-04 01:52:10.62	265.65	6.82	-54.9	-70.3	3.8	1.49e+00	0	40	104	857735168	81	21068
2026-01-04 01:52:11.76	265.52	6.76	-54.9	-70.3	3.8	1.49e+00	0	40	104	857735168	81	21082
2026-01-04 01:52:12.63	265.43	6.71	-54.9	-70.3	3.8	1.49e+00	0	40	104	857735168	81	21062
2026-01-04 01:52:13.77	265.31	6.64	-54.9	-70.2	3.8	1.49e+00	0	40	104	857735168	81	20957
2026-01-04 01:52:14.63	265.21	6.60	-54.9	-70.2	3.8	1.49e+00	0	40	104	857735168	81	21011
2026-01-04 01:52:15.78	265.09	6.53	-54.9	-70.2	3.8	1.49e+00	0	40	104	857735168	81	20937
2026-01-04 01:52:16.64	265.00	6.48	-54.9	-70.2	3.8	1.49e+00	0	40	104	857735168	81	20928
2026-01-04 01:52:17.79	264.88	6.42	-54.9	-70.2	3.8	1.49e+00	0	40	104	857735168	81	20946
2026-01-04 01:52:18.65	264.79	6.37	-54.9	-70.2	3.8	1.49e+00	0	40	104	857735168	81	20885
2026-01-04 01:52:19.80	264.67	6.30	-54.9	-70.3	3.8	1.49e+00	0	40	104	857735168	81	21140
2026-01-04 01:52:20.66	264.58	6.25	-54.9	-70.3	3.8	1.49e+00	0	40	104	857735168	81	21115
2026-01-04 01:52:21.81	264.46	6.19	-55.0	-70.3	3.8	1.49e+00	0	40	104	857735168	81	21180
2026-01-04 01:52:22.67	264.37	6.14	-54.9	-70.3	3.8	1.49e+00	0	40	104	857735168	81	21135
2026-01-04 01:52:23.82	264.25	6.08	-55.0	-70.3	3.8	1.49e+00	0	40	104	857735168	81	21085
2026-01-04 01:52:24.68	264.16	6.03	-55.0	-70.3	3.8	1.49e+00	0	40	104	857735168	81	21223
2026-01-04 01:52:25.83	264.04	5.96	-55.0	-70.3	3.8	1.49e+00	0	40	104	857735168	81	21157
2026-01-04 01:52:26.69	263.95	5.91	-55.0	-70.4	3.8	1.49e+00	0	40	104	857735168	81	21301
2026-01-04 01:52:27.84	263.84	5.85	-55.0	-70.3	3.8	1.49e+00	0	40	104	857735168	81	21183
2026-01-04 01:52:28.70	263.75	5.80	-54.9	-70.3	3.8	1.49e+00	0	40	104	857735168	81	21047
2026-01-04 01:52:29.84	263.63	5.74	-55.0	-70.4	3.8	1.49e+00	0	40	104	857735168	81	21277
2026-01-04 01:52:30.71	263.55	5.69	-55.0	-70.3	3.8	1.49e+00	0	40	104	857735168	81	21097
2026-01-04 01:52:31.85	263.43	5.63	-55.0	-70.3	3.8	1.49e+00	0	40	104	857735168	81	21132
2026-01-04 01:52:32.71	263.35	5.58	-54.9	-70.2	3.8	1.49e+00	0	40	104	857735168	81	21001
2026-01-04 01:52:33.86	263.23	5.51	-55.0	-70.3	3.8	1.49e+00	0	40	104	857735168	81	21232
2026-01-04 01:52:34.72	263.15	5.46	-55.0	-70.3	3.8	1.49e+00	0	40	104	857735168	81	21161
2026-01-04 01:52:35.87	263.03	5.40	-55.0	-70.3	3.8	1.49e+00	0	40	104	857735168	81	21213
2026-01-04 01:52:36.73	262.95	5.35	-55.0	-70.3	3.8	1.49e+00	0	40	104	857735168	81	21224
2026-01-04 01:52:37.88	262.84	5.29	-55.0	-70.3	3.8	1.49e+00	0	40	104	857735168	81	21058
2026-01-04 01:52:38.74	262.75	5.24	-55.0	-70.3	3.8	1.49e+00	0	40	104	857735168	81	21150
2026-01-04 01:52:39.89	262.64	5.18	-55.0	-70.3	3.8	1.49e+00	0	40	104	857735168	81	21173
2026-01-04 01:52:40.75	262.56	5.13	-55.0	-70.3	3.8	1.49e+00	0	40	104	857735168	81	21189
2026-01-04 01:52:41.90	262.45	5.06	-55.0	-70.3	3.8	1.49e+00	0	39	104	857735168	81	21146
2026-01-04 01:52:42.76	262.36	5.02	-55.0	-70.3	3.8	1.49e+00	0	40	104	857735168	81	21145
2026-01-04 01:52:43.90	262.26	4.95	-54.7	-70.0	3.8	1.49e+00	0	40	104	857735168	81	20455

#Closed at: 2026-01-04 01:52:44
#Recorded file [857 MB]: D:/Data/31040_260104_044243.dat