passes_logs/2026/01/04/T1/T1__20260104_095227_NOAA_20_JPSS-1_rec.log

#Pass ID: 20260104_095227_NOAA 20 (JPSS-1)
#Satellite: NOAA 20 (JPSS-1)
#Configuration: NOAA 20
#almurnet v.1.7.20251203
#Start time: 2026-01-04 09:52:28

#Version: 2.0.20230620
#Station: T1
#Location: 37.570604 lon 55.790049 lat
#TLE: 1 43013U 17073A   26003.91140107  .00000139  00000+0  86966-4 0  9994
#TLE: 2 43013  98.7625 304.9685 0001869  55.4713 304.6639 14.19532967421166

#Time	Az	El	Level	Level2	SNR	BER	BlckErr	Temp	State	Recorded	gain1	gain2
2026-01-04 09:52:28.00	158.64	5.02	-54.1	-69.2	3.8	1.49e+00	0	36	0	0	79	20874
2026-01-04 09:52:29.00	158.64	5.09	-54.0	-69.1	3.8	1.49e+00	0	36	104	0	79	20546
2026-01-04 09:52:30.01	158.64	5.16	-54.0	-69.0	3.8	1.49e+00	0	36	104	0	79	20520
2026-01-04 09:52:31.01	158.64	5.24	-54.0	-69.0	3.8	1.49e+00	0	36	104	0	79	20461
2026-01-04 09:52:32.01	158.63	5.31	-54.1	-69.2	3.8	1.49e+00	0	36	104	0	79	20862
2026-01-04 09:52:33.01	158.63	5.38	-54.0	-69.1	3.8	1.49e+00	0	36	104	0	79	20580
2026-01-04 09:52:34.02	158.63	5.46	-54.1	-69.1	3.8	1.49e+00	0	36	104	0	78	21971
2026-01-04 09:52:35.02	158.63	5.53	-54.1	-69.1	3.8	1.49e+00	0	36	104	0	78	21960
2026-01-04 09:52:36.02	158.63	5.60	-54.0	-69.1	3.8	1.49e+00	0	36	104	0	78	21939
2026-01-04 09:52:37.03	158.63	5.68	-54.0	-69.2	3.8	1.49e+00	0	36	104	0	78	22063
2026-01-04 09:52:38.03	158.63	5.75	-54.1	-69.2	3.8	1.49e+00	0	36	104	0	78	22131
2026-01-04 09:52:39.04	158.63	5.83	-54.1	-69.0	3.8	1.49e+00	0	37	104	0	78	21753
2026-01-04 09:52:40.04	158.62	5.90	-54.1	-68.9	3.8	1.49e+00	0	36	104	0	79	20294
2026-01-04 09:52:41.04	158.62	5.97	-53.5	-68.2	3.8	1.49e+00	0	36	104	0	78	19668
2026-01-04 09:52:42.05	158.62	6.05	-54.1	-68.6	3.8	1.49e+00	0	36	104	0	78	20723
2026-01-04 09:52:43.05	158.62	6.12	-54.1	-68.4	3.8	1.49e+00	0	36	104	0	78	20185
2026-01-04 09:52:44.05	158.62	6.20	-54.0	-68.1	3.8	1.49e+00	0	37	104	0	78	19576
2026-01-04 09:52:45.06	158.62	6.28	-54.2	-68.2	3.8	1.49e+00	0	37	104	0	79	18727
2026-01-04 09:52:46.06	158.61	6.35	-53.4	-67.5	3.8	1.49e+00	0	37	104	0	77	19216
2026-01-04 09:52:47.06	158.61	6.43	-53.9	-68.1	3.8	1.49e+00	0	37	104	0	78	19398
2026-01-04 09:52:48.07	158.61	6.50	-53.9	-68.2	3.8	1.49e+00	0	37	104	0	78	19765
2026-01-04 09:52:49.07	158.61	6.58	-53.6	-68.0	3.8	1.49e+00	0	37	104	0	78	19169
2026-01-04 09:52:50.07	158.61	6.66	-53.4	-68.0	3.8	1.49e+00	0	37	104	0	78	19283
2026-01-04 09:52:51.08	158.61	6.73	-53.7	-68.5	3.8	1.49e+00	0	37	104	0	78	20435
2026-01-04 09:52:52.08	158.60	6.81	-53.5	-68.4	3.8	1.49e+00	0	37	104	0	78	20236
2026-01-04 09:52:53.08	158.60	6.89	-53.5	-68.6	3.8	1.49e+00	0	37	104	0	78	20582
2026-01-04 09:52:54.09	158.60	6.97	-53.6	-68.7	3.8	1.49e+00	0	37	104	0	78	20833
2026-01-04 09:52:55.09	158.60	7.04	-53.3	-68.4	3.8	1.49e+00	0	37	104	0	78	20212
2026-01-04 09:52:56.10	158.60	7.12	-53.4	-68.4	3.8	1.49e+00	0	37	104	0	78	20103
2026-01-04 09:52:57.10	158.60	7.20	-53.4	-68.2	3.8	1.49e+00	0	37	104	0	78	19670
2026-01-04 09:52:58.11	158.59	7.28	-53.4	-67.8	3.8	1.49e+00	0	37	104	0	78	18735
2026-01-04 09:52:59.11	158.59	7.36	-53.5	-67.4	3.8	1.49e+00	0	37	104	0	78	18001
2026-01-04 09:53:00.12	158.59	7.44	-53.6	-67.0	3.8	1.49e+00	0	37	104	0	78	17132
2026-01-04 09:53:01.12	158.59	7.52	-53.5	-66.1	3.9	1.49e+00	0	37	104	0	78	15485
2026-01-04 09:53:02.13	158.59	7.60	-52.9	-65.0	4.2	1.42e+00	0	37	0	0	77	14470
2026-01-04 09:53:03.13	158.58	7.68	-52.9	-64.0	4.5	1.20e+00	0	37	0	0	77	12916
2026-01-04 09:53:04.14	158.58	7.76	-52.8	-63.3	4.8	9.84e-01	0	37	0	2097152	77	11901
2026-01-04 09:53:05.14	158.58	7.84	-52.6	-62.6	5.2	7.13e-01	0	37	0	4194304	77	10951
2026-01-04 09:53:06.14	158.58	7.92	-52.4	-61.1	6.1	3.59e-01	0	37	0	6291456	76	9722
2026-01-04 09:53:07.15	158.58	8.00	-52.3	-60.4	6.9	2.32e-01	0	37	0	8388608	76	9028
2026-01-04 09:53:08.15	158.57	8.08	-52.3	-60.3	6.9	1.84e-01	0	37	0	9437184	76	8865
2026-01-04 09:53:09.16	158.57	8.16	-52.3	-60.1	7.1	1.47e-01	0	37	0	11534336	76	8668
2026-01-04 09:53:10.16	158.57	8.24	-52.2	-59.8	7.4	1.49e-01	0	37	0	13631488	76	8420
2026-01-04 09:53:11.16	158.57	8.32	-52.2	-59.9	7.3	1.16e-01	0	38	0	15728640	76	8520
2026-01-04 09:53:12.17	158.57	8.41	-52.2	-60.0	7.2	1.20e-01	0	37	0	17825792	76	8577
2026-01-04 09:53:13.18	158.56	8.49	-52.3	-60.1	7.1	1.28e-01	0	37	0	18874368	76	8700
2026-01-04 09:53:14.18	158.56	8.57	-52.4	-60.7	6.6	1.83e-01	0	38	0	20971520	76	9343
2026-01-04 09:53:15.18	158.56	8.65	-52.5	-61.1	6.2	2.80e-01	0	38	0	23068672	76	9808
2026-01-04 09:53:16.19	158.56	8.74	-52.6	-61.9	5.6	3.98e-01	0	37	0	25165824	76	10744
2026-01-04 09:53:17.19	158.55	8.82	-52.7	-62.9	5.0	5.78e-01	0	37	0	27262976	76	12067
2026-01-04 09:53:18.20	158.55	8.91	-52.9	-63.9	4.5	8.31e-01	0	38	0	28311552	76	13567
2026-01-04 09:53:19.20	158.55	8.99	-53.0	-65.1	4.2	1.37e+00	0	38	0	29360128	76	15402
2026-01-04 09:53:20.21	158.55	9.07	-53.1	-65.8	4.0	1.47e+00	0	38	104	29360128	76	16822
2026-01-04 09:53:21.21	158.55	9.16	-52.0	-58.8	8.5	2.10e-01	0	38	0	30408704	75	7930
2026-01-04 09:53:22.21	158.54	9.24	-52.7	-61.6	5.9	2.40e-01	0	38	0	32505856	75	10982
2026-01-04 09:53:23.21	158.54	9.33	-53.1	-67.5	3.8	1.49e+00	0	38	104	32505856	76	20501
2026-01-04 09:53:24.28	158.54	9.42	-53.1	-64.4	4.3	1.48e+00	0	38	0	32505856	76	14268
2026-01-04 09:53:25.14	158.54	9.49	-50.9	-55.9	11.5	1.72e-01	0	38	0	33554432	73	6381
2026-01-04 09:53:26.50	158.53	9.61	-50.6	-55.2	12.2	1.56e-02	0	38	0	36700160	73	5883
2026-01-04 09:53:27.22	158.53	9.67	-50.3	-54.5	12.8	1.34e-04	0	38	0	37748736	72	5786
2026-01-04 09:53:28.73	158.53	9.80	-50.0	-54.0	13.3	3.35e-05	0	38	0	39845888	72	5457
2026-01-04 09:53:29.45	158.52	9.87	-50.0	-54.0	13.4	1.84e-02	0	38	0	41943040	71	5749
2026-01-04 09:53:30.84	158.52	9.99	-49.7	-53.5	13.9	5.30e-06	0	38	0	44040192	71	5450
2026-01-04 09:53:31.55	158.52	10.05	-49.5	-53.1	14.4	7.00e-07	0	38	0	45088768	70	5485
2026-01-04 09:53:32.84	158.51	10.16	-49.1	-52.5	15.0	7.00e-07	0	38	0	48234496	70	5148
2026-01-04 09:53:33.56	158.51	10.23	-49.2	-52.6	14.9	0.00e+00	0	38	0	49283072	70	5194
2026-01-04 09:53:34.85	158.51	10.34	-49.2	-52.5	15.0	0.00e+00	0	38	0	51380224	70	5137
2026-01-04 09:53:35.57	158.51	10.40	-49.1	-52.5	15.0	0.00e+00	0	38	0	53477376	70	5140
2026-01-04 09:53:36.86	158.50	10.52	-49.1	-52.5	15.0	0.00e+00	0	38	0	55574528	70	5118
2026-01-04 09:53:37.60	158.50	10.59	-49.1	-52.5	15.0	1.49e-02	0	38	0	56623104	70	5132
2026-01-04 09:53:39.23	158.50	10.73	-49.2	-52.6	14.9	0.00e+00	0	38	0	59768832	70	5205
2026-01-04 09:53:39.80	158.49	10.78	-49.3	-52.7	14.8	0.00e+00	0	38	0	60817408	70	5251
2026-01-04 09:53:41.58	158.49	10.94	-49.2	-52.6	14.9	0.00e+00	0	38	0	63963136	70	5173
2026-01-04 09:53:42.15	158.49	11.00	-49.0	-52.3	15.2	0.00e+00	0	38	0	66060288	70	5010
2026-01-04 09:53:43.75	158.48	11.14	-49.0	-52.3	15.3	1.50e-02	0	38	0	68157440	70	4992
2026-01-04 09:53:44.32	158.48	11.19	-49.0	-52.3	15.3	0.00e+00	0	38	0	69206016	70	5005
2026-01-04 09:53:45.90	158.48	11.34	-49.0	-52.2	15.4	0.00e+00	0	38	0	72351744	70	4958
2026-01-04 09:53:46.49	158.47	11.39	-49.0	-52.2	15.4	1.60e-02	0	38	0	73400320	69	5235
2026-01-04 09:53:48.06	158.47	11.54	-48.9	-52.1	15.5	0.00e+00	0	38	0	76546048	69	5162
2026-01-04 09:53:48.68	158.47	11.60	-48.9	-52.0	15.5	0.00e+00	0	38	0	77594624	69	5156
2026-01-04 09:53:50.25	158.46	11.74	-48.8	-51.9	15.6	0.00e+00	0	38	0	80740352	69	5081
2026-01-04 09:53:51.00	158.46	11.82	-48.8	-51.9	15.6	0.00e+00	0	38	0	81788928	69	5089
2026-01-04 09:53:52.29	158.45	11.94	-48.8	-51.9	15.6	1.39e-02	0	38	0	84934656	69	5079
2026-01-04 09:53:53.01	158.45	12.01	-48.8	-52.0	15.6	0.00e+00	0	38	0	85983232	69	5103
2026-01-04 09:53:54.30	158.45	12.13	-48.9	-52.0	15.6	0.00e+00	0	38	0	88080384	69	5125
2026-01-04 09:53:55.01	158.44	12.20	-48.8	-51.9	15.7	1.23e-02	0	38	0	90177536	69	5070
2026-01-04 09:53:56.30	158.44	12.32	-48.7	-51.8	15.7	0.00e+00	0	38	0	92274688	69	5032
2026-01-04 09:53:57.02	158.44	12.39	-48.7	-51.8	15.8	0.00e+00	0	38	0	93323264	69	4989
2026-01-04 09:53:58.31	158.43	12.51	-48.7	-51.8	15.8	8.68e-03	0	38	0	95420416	69	5024
2026-01-04 09:53:59.02	158.43	12.58	-48.7	-51.8	15.9	0.00e+00	0	38	0	97517568	69	4985
2026-01-04 09:54:00.31	158.42	12.71	-48.6	-51.6	15.9	0.00e+00	0	38	0	99614720	69	4916
2026-01-04 09:54:01.03	158.42	12.78	-48.7	-51.7	15.9	3.75e-03	0	38	0	100663296	69	4965
2026-01-04 09:54:02.32	158.42	12.91	-48.6	-51.6	16.0	0.00e+00	0	38	0	103809024	69	4914
2026-01-04 09:54:03.04	158.41	12.98	-48.6	-51.7	15.9	0.00e+00	0	38	0	104857600	69	4960
2026-01-04 09:54:04.33	158.41	13.10	-48.5	-51.5	16.0	0.00e+00	0	38	0	106954752	69	4865
2026-01-04 09:54:05.04	158.41	13.17	-48.6	-51.7	16.0	0.00e+00	0	38	0	108003328	69	4928
2026-01-04 09:54:06.33	158.40	13.30	-48.5	-51.5	16.0	0.00e+00	0	38	0	111149056	69	4858
2026-01-04 09:54:07.05	158.40	13.38	-48.5	-51.5	16.1	0.00e+00	0	38	0	112197632	69	4857
2026-01-04 09:54:08.34	158.39	13.51	-48.6	-51.6	16.0	0.00e+00	0	38	0	114294784	69	4920
2026-01-04 09:54:09.05	158.39	13.58	-48.5	-51.5	16.1	0.00e+00	0	38	0	116391936	69	4845
2026-01-04 09:54:10.34	158.38	13.71	-48.5	-51.5	16.2	0.00e+00	0	38	0	118489088	68	5122
2026-01-04 09:54:11.06	158.38	13.78	-48.5	-51.5	16.1	0.00e+00	0	38	0	119537664	68	5152
2026-01-04 09:54:12.35	158.37	13.91	-48.9	-51.9	16.3	9.86e-04	0	38	0	121634816	68	5361
2026-01-04 09:54:13.06	158.37	13.99	-48.9	-51.9	16.3	0.00e+00	0	38	0	123731968	68	5351
2026-01-04 09:54:14.35	158.37	14.12	-49.0	-52.0	16.3	0.00e+00	0	38	0	125829120	68	5414
2026-01-04 09:54:15.07	158.36	14.19	-48.9	-51.8	16.4	0.00e+00	0	38	0	126877696	68	5307
2026-01-04 09:54:16.36	158.36	14.33	-48.9	-51.8	16.3	0.00e+00	0	38	0	130023424	68	5336
2026-01-04 09:54:17.07	158.35	14.40	-48.8	-51.7	16.5	0.00e+00	0	38	0	131072000	68	5261
2026-01-04 09:54:18.75	158.35	14.58	-48.8	-51.7	16.5	0.00e+00	0	38	0	134217728	68	5257
2026-01-04 09:54:19.32	158.34	14.64	-48.8	-51.7	16.5	0.00e+00	0	38	0	135266304	68	5240
2026-01-04 09:54:20.92	158.34	14.81	-48.8	-51.7	16.6	0.00e+00	0	38	0	138412032	68	5234
2026-01-04 09:54:21.50	158.33	14.87	-48.7	-51.6	16.6	0.00e+00	0	38	0	139460608	68	5198
2026-01-04 09:54:23.09	158.32	15.04	-48.8	-51.7	16.6	0.00e+00	0	38	0	142606336	68	5221
2026-01-04 09:54:23.79	158.32	15.12	-48.6	-51.4	16.8	0.00e+00	0	38	0	143654912	68	5084
2026-01-04 09:54:25.08	158.31	15.26	-48.6	-51.4	16.7	0.00e+00	0	38	0	145752064	68	5065
2026-01-04 09:54:25.97	158.31	15.35	-48.6	-51.4	16.7	0.00e+00	0	38	0	147849216	68	5094
2026-01-04 09:54:27.12	158.30	15.48	-48.2	-51.2	16.6	0.00e+00	0	38	0	149946368	68	4929
2026-01-04 09:54:28.20	158.30	15.60	-48.4	-51.3	16.7	0.00e+00	0	38	0	152043520	68	4994
2026-01-04 09:54:29.23	158.29	15.71	-48.3	-51.1	16.8	0.00e+00	0	38	0	154140672	68	4915
2026-01-04 09:54:30.44	158.29	15.85	-48.2	-51.1	16.9	0.00e+00	0	38	0	156237824	68	4892
2026-01-04 09:54:31.33	158.28	15.94	-48.4	-51.3	16.8	0.00e+00	0	38	0	157286400	68	5018
2026-01-04 09:54:32.47	158.28	16.07	-48.4	-51.3	16.9	0.00e+00	0	38	0	159383552	68	4989
2026-01-04 09:54:33.33	158.27	16.17	-48.4	-51.3	16.9	0.00e+00	0	38	0	161480704	68	4994
2026-01-04 09:54:34.48	158.26	16.30	-48.4	-51.3	16.9	0.00e+00	0	38	0	163577856	68	4987
2026-01-04 09:54:35.33	158.26	16.40	-48.4	-51.2	17.0	0.00e+00	0	38	0	165675008	68	4944
2026-01-04 09:54:36.48	158.25	16.53	-48.4	-51.2	17.0	0.00e+00	0	38	0	167772160	68	4982
2026-01-04 09:54:37.34	158.25	16.63	-48.4	-51.2	17.1	0.00e+00	0	38	0	168820736	68	4952
2026-01-04 09:54:38.48	158.24	16.76	-48.3	-51.0	17.2	0.00e+00	0	38	0	170917888	68	4868
2026-01-04 09:54:39.34	158.24	16.86	-48.3	-51.1	17.2	0.00e+00	0	38	0	173015040	68	4877
2026-01-04 09:54:40.50	158.23	16.99	-48.3	-51.1	17.2	0.00e+00	0	38	0	175112192	68	4893
2026-01-04 09:54:41.36	158.22	17.09	-48.3	-51.1	17.2	0.00e+00	0	38	0	176160768	68	4891
2026-01-04 09:54:42.50	158.22	17.22	-48.2	-50.9	17.3	0.00e+00	0	38	0	178257920	68	4806
2026-01-04 09:54:43.36	158.21	17.33	-48.3	-51.0	17.2	0.00e+00	0	38	0	180355072	68	4846
2026-01-04 09:54:44.64	158.20	17.48	-48.1	-50.8	17.3	0.00e+00	0	38	0	182452224	67	5012
2026-01-04 09:54:45.35	158.20	17.56	-48.2	-50.9	17.2	0.00e+00	0	38	0	183500800	67	5096
2026-01-04 09:54:46.64	158.19	17.72	-48.1	-50.8	17.2	0.00e+00	0	38	0	186646528	67	5003
2026-01-04 09:54:47.36	158.19	17.80	-48.1	-50.8	17.3	0.00e+00	0	38	0	187695104	67	5038
2026-01-04 09:54:48.66	158.18	17.96	-47.3	-50.0	17.5	0.00e+00	0	38	0	189792256	66	4844
2026-01-04 09:54:49.38	158.17	18.05	-47.4	-50.0	17.5	0.00e+00	0	38	0	191889408	66	4852
2026-01-04 09:54:50.66	158.16	18.20	-47.3	-49.9	17.7	0.00e+00	0	38	0	193986560	66	4795
2026-01-04 09:54:51.38	158.16	18.29	-47.3	-49.9	17.7	0.00e+00	0	38	0	195035136	66	4771
2026-01-04 09:54:52.67	158.15	18.45	-47.4	-50.0	17.6	0.00e+00	0	38	0	198180864	66	4833
2026-01-04 09:54:53.38	158.15	18.54	-47.2	-49.8	17.7	0.00e+00	0	38	0	199229440	66	4739
2026-01-04 09:54:54.67	158.14	18.70	-47.2	-49.7	17.8	0.00e+00	0	38	0	201326592	66	4704
2026-01-04 09:54:55.39	158.13	18.79	-47.2	-49.8	17.8	0.00e+00	0	38	0	202375168	66	4722
2026-01-04 09:54:56.79	158.12	18.97	-47.1	-49.7	17.9	0.00e+00	0	38	0	205520896	66	4664
2026-01-04 09:54:57.50	158.12	19.06	-47.1	-49.7	17.9	0.00e+00	0	38	0	206569472	66	4675
2026-01-04 09:54:58.80	158.11	19.22	-47.2	-49.8	17.7	0.00e+00	0	38	0	209715200	66	4734
2026-01-04 09:54:59.51	158.10	19.31	-47.2	-49.8	17.7	0.00e+00	0	38	0	210763776	66	4719
2026-01-04 09:55:00.80	158.09	19.48	-47.3	-49.9	17.7	0.00e+00	0	38	0	212860928	66	4760
2026-01-04 09:55:01.52	158.09	19.57	-47.2	-49.8	17.7	0.00e+00	0	38	0	213909504	66	4724
2026-01-04 09:55:02.80	158.08	19.74	-47.0	-49.6	17.9	0.00e+00	0	38	0	217055232	66	4607
2026-01-04 09:55:03.52	158.07	19.83	-47.0	-49.5	18.0	0.00e+00	0	38	0	218103808	66	4597
2026-01-04 09:55:04.81	158.06	20.00	-47.0	-49.5	18.0	0.00e+00	0	38	0	220200960	66	4579
2026-01-04 09:55:05.65	158.05	20.11	-47.0	-49.5	18.0	0.00e+00	0	38	0	222298112	65	4852
2026-01-04 09:55:07.12	158.04	20.31	-47.0	-49.5	18.0	0.00e+00	0	38	0	224395264	65	4857
2026-01-04 09:55:07.83	158.04	20.40	-47.0	-49.5	18.0	0.00e+00	0	38	0	226492416	65	4842
2026-01-04 09:55:09.12	158.02	20.57	-47.1	-49.6	17.8	0.00e+00	0	38	0	228589568	65	4919
2026-01-04 09:55:09.84	158.02	20.67	-47.1	-49.7	17.9	0.00e+00	0	38	0	229638144	65	4935
2026-01-04 09:55:11.13	158.01	20.85	-47.0	-49.6	17.9	0.00e+00	0	38	0	232783872	65	4911
2026-01-04 09:55:11.87	158.00	20.95	-47.1	-49.6	17.9	0.00e+00	0	38	0	233832448	65	4917
2026-01-04 09:55:13.17	157.99	21.13	-47.0	-49.6	17.9	0.00e+00	0	38	0	235929600	65	4882
2026-01-04 09:55:13.96	157.98	21.23	-47.0	-49.6	17.9	0.00e+00	0	38	0	238026752	65	4917
2026-01-04 09:55:15.12	157.97	21.40	-47.8	-50.4	17.7	0.00e+00	0	38	0	240123904	66	5094
2026-01-04 09:55:15.98	157.96	21.51	-47.6	-50.2	17.8	0.00e+00	0	38	0	241172480	66	4952
2026-01-04 09:55:17.13	157.95	21.68	-47.5	-50.0	17.8	0.00e+00	0	38	0	243269632	66	4858
2026-01-04 09:55:17.99	157.95	21.80	-47.8	-50.3	17.8	0.00e+00	0	38	0	245366784	66	5025
2026-01-04 09:55:19.13	157.94	21.96	-47.6	-50.1	17.9	0.00e+00	0	38	0	247463936	66	4893
2026-01-04 09:55:19.99	157.93	22.08	-47.5	-50.0	18.0	0.00e+00	0	38	0	248512512	66	4838
2026-01-04 09:55:21.14	157.92	22.25	-47.5	-50.0	18.1	0.00e+00	0	38	0	250609664	66	4818
2026-01-04 09:55:22.00	157.91	22.37	-47.5	-49.9	18.1	0.00e+00	0	39	0	252706816	66	4794
2026-01-04 09:55:23.14	157.90	22.54	-47.1	-49.6	18.0	0.00e+00	0	38	0	254803968	66	4608
2026-01-04 09:55:24.01	157.89	22.66	-47.1	-49.6	18.0	0.00e+00	0	38	0	256901120	66	4606
2026-01-04 09:55:25.16	157.88	22.83	-47.0	-49.5	18.2	0.00e+00	0	38	0	258998272	66	4546
2026-01-04 09:55:26.11	157.87	22.97	-47.1	-49.5	18.1	0.00e+00	0	38	0	260046848	66	4588
2026-01-04 09:55:27.12	157.86	23.12	-47.0	-49.5	18.1	0.00e+00	0	38	0	262144000	66	4562
2026-01-04 09:55:28.12	157.85	23.27	-47.0	-49.4	18.2	0.00e+00	0	38	0	264241152	66	4538
2026-01-04 09:55:29.13	157.84	23.42	-47.0	-49.5	18.1	0.00e+00	0	38	0	266338304	66	4563
2026-01-04 09:55:30.13	157.82	23.57	-47.6	-50.1	18.1	0.00e+00	0	38	0	268435456	66	4898
2026-01-04 09:55:31.13	157.81	23.73	-47.5	-49.9	18.2	0.00e+00	0	39	0	269484032	66	4799
2026-01-04 09:55:32.13	157.80	23.88	-47.2	-49.7	18.1	0.00e+00	0	38	0	271581184	66	4685
2026-01-04 09:55:33.14	157.79	24.03	-47.4	-49.9	17.9	0.00e+00	0	38	0	273678336	66	4804
2026-01-04 09:55:34.14	157.78	24.19	-47.8	-50.3	17.8	0.00e+00	0	38	0	275775488	66	5014
2026-01-04 09:55:35.14	157.77	24.34	-47.4	-50.0	17.9	0.00e+00	0	38	0	277872640	66	4821
2026-01-04 09:55:36.15	157.76	24.50	-47.5	-50.1	17.8	0.00e+00	0	39	0	278921216	66	4876
2026-01-04 09:55:37.15	157.75	24.66	-47.4	-49.9	18.0	0.00e+00	0	38	0	281018368	66	4811
2026-01-04 09:55:38.15	157.73	24.82	-47.5	-50.1	17.9	0.00e+00	0	38	0	283115520	66	4872
2026-01-04 09:55:39.15	157.72	24.98	-47.6	-50.2	17.7	0.00e+00	0	38	0	285212672	66	4940
2026-01-04 09:55:40.25	157.71	25.15	-47.7	-50.2	17.6	0.00e+00	0	38	0	287309824	66	4982
2026-01-04 09:55:41.14	157.70	25.30	-47.9	-50.5	17.4	0.00e+00	0	38	0	288358400	66	5116
2026-01-04 09:55:42.28	157.68	25.48	-47.9	-50.5	17.4	0.00e+00	0	38	0	290455552	66	5129
2026-01-04 09:55:43.21	157.67	25.64	-47.9	-50.5	17.4	0.00e+00	0	38	0	292552704	66	5141
2026-01-04 09:55:44.38	157.66	25.83	-47.8	-50.4	17.6	0.00e+00	0	39	0	294649856	66	5064
2026-01-04 09:55:45.25	157.65	25.97	-47.9	-50.5	17.4	0.00e+00	0	39	0	296747008	66	5122
2026-01-04 09:55:46.60	157.63	26.20	-48.0	-50.6	17.3	0.00e+00	0	38	0	298844160	66	5218
2026-01-04 09:55:47.32	157.62	26.32	-47.9	-50.5	17.4	0.00e+00	0	38	0	299892736	66	5147
2026-01-04 09:55:48.61	157.60	26.54	-47.9	-50.5	17.4	0.00e+00	0	38	0	303038464	66	5112
2026-01-04 09:55:49.32	157.59	26.66	-48.1	-50.7	17.5	0.00e+00	0	38	0	304087040	67	4960
2026-01-04 09:55:50.61	157.57	26.88	-48.1	-50.7	17.4	1.50e-06	0	39	0	306184192	67	4976
2026-01-04 09:55:51.33	157.56	27.00	-48.1	-50.8	17.3	0.00e+00	0	38	0	307232768	67	5004
2026-01-04 09:55:52.62	157.54	27.22	-48.1	-50.7	17.4	0.00e+00	0	38	0	310378496	67	4983
2026-01-04 09:55:53.33	157.53	27.35	-48.2	-50.8	17.3	2.20e-06	0	39	0	311427072	67	5038
2026-01-04 09:55:54.62	157.52	27.57	-48.1	-50.7	17.2	0.00e+00	0	39	0	313524224	67	4980
2026-01-04 09:55:55.34	157.51	27.70	-47.7	-50.4	17.3	0.00e+00	0	38	0	315621376	67	4763
2026-01-04 09:55:56.62	157.49	27.93	-48.3	-50.9	17.2	3.80e-06	0	38	0	317718528	67	5094
2026-01-04 09:55:57.56	157.47	28.10	-48.1	-50.8	17.2	0.00e+00	0	38	0	319815680	67	5026
2026-01-04 09:55:58.57	157.46	28.28	-48.2	-50.9	17.1	0.00e+00	0	38	0	320864256	67	5092
2026-01-04 09:55:59.57	157.44	28.46	-48.5	-51.2	17.0	0.00e+00	0	38	0	322961408	67	5270
2026-01-04 09:56:00.57	157.42	28.64	-48.5	-51.3	17.0	0.00e+00	0	38	0	325058560	67	5293
2026-01-04 09:56:01.58	157.41	28.83	-48.6	-51.4	16.9	0.00e+00	0	38	0	327155712	68	5066
2026-01-04 09:56:02.58	157.39	29.01	-48.7	-51.5	16.7	0.00e+00	0	39	0	329252864	68	5139
2026-01-04 09:56:03.58	157.38	29.20	-48.8	-51.7	16.5	0.00e+00	0	39	0	330301440	68	5259
2026-01-04 09:56:04.58	157.36	29.38	-49.0	-51.9	16.3	0.00e+00	0	38	0	332398592	68	5397
2026-01-04 09:56:05.58	157.34	29.57	-49.1	-52.0	16.3	0.00e+00	0	38	0	334495744	69	5141
2026-01-04 09:56:06.59	157.32	29.76	-49.2	-52.2	16.0	0.00e+00	0	38	0	336592896	69	5267
2026-01-04 09:56:07.59	157.31	29.96	-49.3	-52.4	15.8	0.00e+00	0	38	0	338690048	69	5388
2026-01-04 09:56:08.59	157.29	30.15	-49.4	-52.6	15.6	0.00e+00	0	38	0	339738624	69	5513
2026-01-04 09:56:09.60	157.27	30.34	-49.6	-53.0	15.3	0.00e+00	0	38	0	341835776	70	5432
2026-01-04 09:56:10.60	157.25	30.54	-49.7	-53.1	15.1	0.00e+00	0	39	0	343932928	70	5497
2026-01-04 09:56:11.60	157.24	30.73	-49.9	-53.4	15.0	0.00e+00	0	39	0	346030080	70	5699
2026-01-04 09:56:12.60	157.22	30.93	-49.5	-53.0	14.9	1.50e-06	0	39	0	347078656	70	5462
2026-01-04 09:56:13.60	157.20	31.13	-49.7	-53.3	14.6	0.00e+00	0	38	0	349175808	70	5643
2026-01-04 09:56:14.61	157.18	31.33	-50.0	-53.6	14.6	0.00e+00	0	39	0	351272960	70	5816
2026-01-04 09:56:15.61	157.16	31.53	-50.2	-53.8	14.7	0.00e+00	0	39	0	353370112	71	5632
2026-01-04 09:56:16.62	157.14	31.74	-50.0	-53.6	14.7	0.00e+00	0	39	0	355467264	71	5501
2026-01-04 09:56:17.61	157.12	31.94	-49.7	-53.3	14.6	1.50e-06	0	38	0	356515840	71	5321
2026-01-04 09:56:18.62	157.10	32.15	-49.7	-53.3	14.6	0.00e+00	0	39	0	358612992	71	5307
2026-01-04 09:56:19.62	157.08	32.36	-49.9	-53.5	14.5	7.00e-07	0	38	0	360710144	71	5404
2026-01-04 09:56:20.68	157.06	32.58	-49.9	-53.4	14.6	0.00e+00	0	38	0	362807296	71	5402
2026-01-04 09:56:21.62	157.04	32.78	-50.0	-53.5	14.4	1.50e-06	0	38	0	364904448	71	5457
2026-01-04 09:56:22.80	157.01	33.03	-49.8	-53.2	14.8	0.00e+00	0	39	0	367001600	71	5264
2026-01-04 09:56:23.65	156.99	33.21	-49.7	-53.1	14.9	0.00e+00	0	38	0	368050176	71	5207
2026-01-04 09:56:25.00	156.96	33.50	-49.7	-53.0	15.0	0.00e+00	0	39	0	371195904	71	5141
2026-01-04 09:56:25.72	156.94	33.65	-49.5	-52.8	15.2	0.00e+00	0	39	0	372244480	71	5026
2026-01-04 09:56:27.19	156.91	33.97	-49.4	-52.7	15.3	0.00e+00	0	38	0	375390208	70	5253
2026-01-04 09:56:28.17	156.89	34.19	-49.2	-52.4	15.6	0.00e+00	0	39	0	376438784	70	5067
2026-01-04 09:56:29.17	156.86	34.41	-49.1	-52.2	15.7	0.00e+00	0	38	0	378535936	70	4978
2026-01-04 09:56:30.54	156.83	34.72	-49.0	-51.9	16.1	0.00e+00	0	38	0	381681664	70	4811
2026-01-04 09:56:31.26	156.81	34.88	-48.8	-51.8	16.3	0.00e+00	0	39	0	382730240	69	4997
2026-01-04 09:56:32.54	156.78	35.17	-48.6	-51.5	16.6	0.00e+00	0	38	0	384827392	69	4822
2026-01-04 09:56:33.26	156.76	35.33	-48.3	-51.0	17.0	0.00e+00	0	38	0	385875968	68	4858
2026-01-04 09:56:34.55	156.73	35.63	-48.1	-50.8	17.2	0.00e+00	0	39	0	389021696	68	4726
2026-01-04 09:56:35.26	156.71	35.80	-47.7	-50.3	17.5	0.00e+00	0	39	0	390070272	67	4740
2026-01-04 09:56:36.55	156.68	36.10	-47.5	-50.0	17.8	0.00e+00	0	38	0	392167424	67	4587
2026-01-04 09:56:37.27	156.66	36.27	-47.3	-49.8	18.0	0.00e+00	0	39	0	394264576	66	4737
2026-01-04 09:56:38.66	156.62	36.60	-47.1	-49.5	18.2	0.00e+00	0	39	0	396361728	66	4588
2026-01-04 09:56:39.37	156.60	36.77	-46.9	-49.3	18.4	0.00e+00	0	39	0	397410304	65	4731
2026-01-04 09:56:40.66	156.56	37.08	-46.9	-49.3	18.5	0.00e+00	0	39	0	400556032	65	4720
2026-01-04 09:56:41.38	156.54	37.25	-46.7	-49.0	18.7	0.00e+00	0	39	0	401604608	65	4592
2026-01-04 09:56:42.78	156.50	37.59	-46.6	-48.9	18.8	0.00e+00	0	39	0	403701760	65	4536
2026-01-04 09:56:43.50	156.48	37.77	-46.6	-48.9	18.8	0.00e+00	0	39	0	405798912	65	4513
2026-01-04 09:56:44.79	156.44	38.09	-46.6	-48.9	18.8	0.00e+00	0	39	0	407896064	64	4769
2026-01-04 09:56:45.50	156.42	38.27	-46.6	-48.9	18.8	0.00e+00	0	39	0	408944640	64	4773
2026-01-04 09:56:46.79	156.38	38.59	-46.7	-49.0	18.6	0.00e+00	0	39	0	412090368	64	4857
2026-01-04 09:56:47.51	156.35	38.77	-46.8	-49.1	18.5	0.00e+00	0	39	0	413138944	64	4925
2026-01-04 09:56:48.80	156.31	39.10	-46.9	-49.3	18.4	0.00e+00	0	39	0	415236096	64	5013
2026-01-04 09:56:49.51	156.29	39.29	-46.9	-49.3	18.4	0.00e+00	0	39	0	417333248	64	5012
2026-01-04 09:56:50.80	156.24	39.62	-47.0	-49.5	18.3	0.00e+00	0	39	0	419430400	64	5106
2026-01-04 09:56:51.52	156.22	39.81	-47.1	-49.5	18.2	0.00e+00	0	39	0	420478976	64	5135
2026-01-04 09:56:52.81	156.17	40.15	-47.3	-49.8	18.0	0.00e+00	0	39	0	422576128	65	4986
2026-01-04 09:56:53.70	156.14	40.38	-47.3	-49.8	18.0	0.00e+00	0	39	0	424673280	65	4998
2026-01-04 09:56:54.84	156.10	40.69	-47.6	-50.1	17.7	0.00e+00	0	39	0	426770432	65	5186
2026-01-04 09:56:55.70	156.07	40.92	-47.7	-50.2	17.6	0.00e+00	0	39	0	428867584	66	4957
2026-01-04 09:56:56.85	156.03	41.23	-47.8	-50.4	17.5	0.00e+00	0	39	0	430964736	66	5050
2026-01-04 09:56:57.71	155.99	41.47	-47.9	-50.5	17.3	0.00e+00	0	39	0	432013312	66	5133
2026-01-04 09:56:58.86	155.95	41.78	-48.0	-50.6	17.3	0.00e+00	0	39	0	434110464	66	5176
2026-01-04 09:56:59.71	155.91	42.02	-47.8	-50.4	17.3	0.00e+00	0	38	0	436207616	66	5085
2026-01-04 09:57:00.86	155.87	42.34	-47.8	-50.4	17.3	0.00e+00	0	38	0	438304768	66	5098
2026-01-04 09:57:01.72	155.83	42.58	-47.9	-50.5	17.3	0.00e+00	0	38	0	439353344	66	5116
2026-01-04 09:57:02.87	155.78	42.91	-47.9	-50.5	17.3	0.00e+00	0	39	0	441450496	66	5155
2026-01-04 09:57:03.73	155.75	43.15	-47.9	-50.5	17.3	0.00e+00	0	38	0	443547648	66	5121
2026-01-04 09:57:04.87	155.70	43.48	-48.0	-50.7	17.2	0.00e+00	0	38	0	445644800	66	5245
2026-01-04 09:57:05.73	155.66	43.73	-48.1	-50.8	17.1	0.00e+00	0	39	0	447741952	66	5281
2026-01-04 09:57:06.87	155.61	44.06	-48.2	-50.9	16.9	0.00e+00	0	38	0	449839104	67	5079
2026-01-04 09:57:07.73	155.57	44.32	-48.4	-51.2	16.6	0.00e+00	0	39	0	450887680	67	5265
2026-01-04 09:57:08.88	155.51	44.66	-48.5	-51.3	16.5	0.00e+00	0	39	0	452984832	67	5326
2026-01-04 09:57:09.74	155.47	44.91	-48.4	-51.2	16.6	0.00e+00	0	39	0	455081984	67	5265
2026-01-04 09:57:10.88	155.42	45.26	-48.6	-51.5	16.4	0.00e+00	0	39	0	457179136	67	5421
2026-01-04 09:57:11.74	155.37	45.52	-49.1	-52.1	15.9	0.00e+00	0	38	0	458227712	68	5508
2026-01-04 09:57:12.92	155.31	45.88	-49.4	-52.6	15.4	0.00e+00	0	39	0	460324864	69	5505
2026-01-04 09:57:13.78	155.27	46.14	-49.5	-52.6	15.5	0.00e+00	0	38	0	462422016	69	5510
2026-01-04 09:57:14.99	155.20	46.52	-50.0	-53.4	14.7	0.00e+00	0	38	0	464519168	70	5684
2026-01-04 09:57:15.85	155.15	46.79	-50.0	-53.5	14.6	1.50e-06	0	39	0	466616320	70	5749
2026-01-04 09:57:17.00	155.09	47.15	-50.4	-54.0	14.0	2.20e-06	0	39	0	468713472	71	5779
2026-01-04 09:57:17.85	155.04	47.42	-50.5	-54.2	13.7	2.20e-06	0	39	0	469762048	71	5906
2026-01-04 09:57:19.12	154.97	47.83	-50.5	-54.4	13.7	6.80e-06	0	39	0	471859200	71	6028
2026-01-04 09:57:20.25	154.90	48.19	-50.4	-54.2	13.8	4.50e-06	0	39	0	473956352	71	5864
2026-01-04 09:57:21.11	154.85	48.47	-50.1	-53.7	14.3	7.00e-07	0	39	0	476053504	71	5569
2026-01-04 09:57:22.26	154.78	48.85	-49.7	-53.0	15.0	0.00e+00	0	39	0	478150656	71	5122
2026-01-04 09:57:23.12	154.72	49.13	-49.3	-52.4	15.6	0.00e+00	0	39	0	480247808	70	5051
2026-01-04 09:57:24.33	154.64	49.53	-49.0	-51.9	16.1	0.00e+00	0	39	0	482344960	69	5090
2026-01-04 09:57:25.19	154.58	49.82	-49.0	-51.9	16.1	0.00e+00	0	39	0	483393536	69	5066
2026-01-04 09:57:26.43	154.50	50.24	-48.5	-51.3	16.7	0.00e+00	0	39	0	486539264	69	4743
2026-01-04 09:57:27.28	154.44	50.53	-48.1	-50.8	17.3	0.00e+00	0	38	0	487587840	68	4708
2026-01-04 09:57:28.43	154.36	50.92	-47.7	-50.2	17.6	0.00e+00	0	39	0	489684992	67	4678
2026-01-04 09:57:29.29	154.29	51.22	-47.3	-49.8	18.0	0.00e+00	0	39	0	491782144	66	4722
2026-01-04 09:57:30.60	154.19	51.68	-46.7	-49.0	18.7	0.00e+00	0	39	0	493879296	65	4591
2026-01-04 09:57:31.31	154.14	51.93	-46.4	-48.7	19.1	0.00e+00	0	39	0	494927872	64	4679
2026-01-04 09:57:32.60	154.03	52.38	-46.4	-48.7	19.0	0.00e+00	0	39	0	498073600	64	4668
2026-01-04 09:57:33.32	153.98	52.64	-46.4	-48.7	19.1	0.00e+00	0	38	0	499122176	64	4663
2026-01-04 09:57:34.61	153.87	53.10	-46.3	-48.6	19.1	0.00e+00	0	39	0	501219328	64	4632
2026-01-04 09:57:35.32	153.81	53.35	-46.1	-48.4	19.3	0.00e+00	0	39	0	502267904	64	4498
2026-01-04 09:57:36.61	153.69	53.82	-46.3	-48.6	19.1	0.00e+00	0	39	0	505413632	64	4608
2026-01-04 09:57:37.46	153.62	54.13	-46.4	-48.7	19.1	0.00e+00	0	39	0	506462208	64	4659
2026-01-04 09:57:38.60	153.51	54.55	-46.5	-48.7	19.0	0.00e+00	0	39	0	508559360	64	4699
2026-01-04 09:57:39.46	153.43	54.87	-46.6	-48.9	18.8	0.00e+00	0	39	0	510656512	64	4801
2026-01-04 09:57:40.61	153.31	55.30	-47.2	-49.5	18.6	0.00e+00	0	39	0	512753664	65	4859
2026-01-04 09:57:41.47	153.23	55.62	-47.4	-49.8	18.4	0.00e+00	0	39	0	513802240	65	4990
2026-01-04 09:57:42.61	153.11	56.05	-47.9	-50.4	17.9	0.00e+00	0	39	0	515899392	66	5054
2026-01-04 09:57:43.82	152.98	56.51	-48.5	-51.3	16.9	0.00e+00	0	39	0	519045120	67	5299
2026-01-04 09:57:44.86	152.86	56.91	-49.2	-52.3	15.7	0.00e+00	0	39	0	521142272	69	5318
2026-01-04 09:57:45.86	152.75	57.30	-49.8	-53.3	14.9	0.00e+00	0	39	0	522190848	70	5595
2026-01-04 09:57:46.86	152.63	57.69	-50.4	-54.0	14.2	0.00e+00	0	39	0	524288000	71	5773
2026-01-04 09:57:47.86	152.51	58.08	-50.7	-54.6	13.5	3.00e-06	0	39	0	526385152	72	5808
2026-01-04 09:57:48.87	152.39	58.48	-51.2	-55.4	13.0	5.18e-05	0	39	0	528482304	73	5996
2026-01-04 09:57:49.87	152.26	58.88	-50.7	-54.8	13.1	3.89e-05	0	39	0	529530880	73	5626
2026-01-04 09:57:50.87	152.13	59.27	-50.3	-54.1	13.9	4.50e-06	0	39	0	531628032	72	5472
2026-01-04 09:57:51.87	151.99	59.68	-50.0	-53.5	14.5	1.50e-06	0	39	0	533725184	72	5120
2026-01-04 09:57:52.87	151.85	60.08	-49.4	-52.6	15.4	0.00e+00	0	39	0	535822336	70	5165
2026-01-04 09:57:53.88	151.70	60.49	-49.0	-51.9	16.1	0.00e+00	0	39	0	537919488	69	5088
2026-01-04 09:57:54.88	151.55	60.90	-48.5	-51.4	16.7	0.00e+00	0	39	0	538968064	69	4764
2026-01-04 09:57:55.96	151.38	61.34	-48.3	-51.1	16.9	0.00e+00	0	39	0	541065216	68	4874
2026-01-04 09:57:56.82	151.24	61.70	-47.3	-49.8	18.1	0.00e+00	0	39	0	543162368	66	4715
2026-01-04 09:57:57.96	151.05	62.17	-47.0	-49.4	18.3	0.00e+00	0	39	0	545259520	65	4778
2026-01-04 09:57:58.82	150.90	62.53	-46.6	-49.0	18.7	0.00e+00	0	39	0	546308096	65	4597
2026-01-04 09:57:59.97	150.70	63.02	-46.5	-48.9	18.9	0.00e+00	0	39	0	549453824	64	4770
2026-01-04 09:58:00.83	150.54	63.38	-46.6	-48.9	19.0	0.00e+00	0	39	0	550502400	64	4806
2026-01-04 09:58:01.97	150.32	63.86	-46.6	-48.9	19.0	0.00e+00	0	39	0	552599552	64	4787
2026-01-04 09:58:02.83	150.15	64.23	-46.3	-48.6	19.0	0.00e+00	0	39	0	554696704	64	4651
2026-01-04 09:58:03.98	149.91	64.73	-46.4	-48.6	19.0	0.00e+00	0	38	0	556793856	64	4641
2026-01-04 09:58:04.84	149.72	65.10	-46.9	-49.3	18.5	0.00e+00	0	38	0	557842432	64	4991
2026-01-04 09:58:06.02	149.46	65.61	-47.6	-50.2	17.6	0.00e+00	0	39	0	559939584	65	5227
2026-01-04 09:58:06.88	149.26	65.98	-47.9	-50.6	17.3	0.00e+00	0	39	0	562036736	66	5200
2026-01-04 09:58:08.02	148.98	66.48	-48.2	-51.0	16.9	0.00e+00	0	39	0	564133888	67	5129
2026-01-04 09:58:08.88	148.76	66.86	-48.4	-51.2	16.8	0.00e+00	0	38	0	565182464	67	5234
2026-01-04 09:58:10.02	148.46	67.36	-48.5	-51.2	16.8	0.00e+00	0	39	0	567279616	67	5275
2026-01-04 09:58:10.88	148.22	67.75	-48.3	-51.0	16.9	0.00e+00	0	39	0	569376768	67	5126
2026-01-04 09:58:12.02	147.89	68.25	-48.6	-51.4	16.5	0.00e+00	0	39	0	571473920	67	5383
2026-01-04 09:58:12.88	147.63	68.64	-49.0	-51.9	16.2	0.00e+00	0	39	0	573571072	68	5383
2026-01-04 09:58:14.03	147.27	69.15	-48.7	-51.5	16.5	0.00e+00	0	38	0	575668224	68	5125
2026-01-04 09:58:14.89	146.98	69.54	-48.3	-51.0	17.0	0.00e+00	0	39	0	576716800	68	4826
2026-01-04 09:58:16.03	146.59	70.05	-48.1	-50.8	17.2	0.00e+00	0	38	0	578813952	68	4722
2026-01-04 09:58:16.90	146.27	70.45	-48.1	-50.7	17.3	0.00e+00	0	39	0	580911104	68	4663
2026-01-04 09:58:18.04	145.83	70.97	-48.0	-50.6	17.5	0.00e+00	0	39	0	583008256	68	4613
2026-01-04 09:58:18.90	145.48	71.36	-47.7	-50.3	17.4	0.00e+00	0	39	0	584056832	67	4751
2026-01-04 09:58:20.05	144.99	71.88	-48.2	-51.0	16.9	3.00e-06	0	39	0	586153984	67	5118
2026-01-04 09:58:20.90	144.61	72.27	-47.9	-50.6	17.2	0.00e+00	0	39	0	588251136	67	4884
2026-01-04 09:58:22.14	144.02	72.84	-47.8	-50.5	17.3	0.00e+00	0	39	0	590348288	67	4824
2026-01-04 09:58:23.43	143.36	73.43	-48.1	-50.9	16.9	0.00e+00	0	39	0	592445440	67	5086
2026-01-04 09:58:24.14	142.98	73.76	-48.5	-51.4	16.6	0.00e+00	0	38	0	594542592	67	5375
2026-01-04 09:58:25.43	142.23	74.35	-49.2	-52.4	15.7	0.00e+00	0	39	0	596639744	69	5345
2026-01-04 09:58:26.15	141.79	74.68	-49.4	-52.6	15.4	0.00e+00	0	39	0	597688320	69	5513
2026-01-04 09:58:27.51	140.90	75.31	-48.5	-51.2	16.7	0.00e+00	0	38	0	600834048	69	4695
2026-01-04 09:58:28.23	140.40	75.64	-48.1	-50.7	17.3	0.00e+00	0	39	0	601882624	68	4686
2026-01-04 09:58:29.63	139.35	76.28	-48.2	-51.0	17.1	0.00e+00	0	39	0	605028352	68	4826
2026-01-04 09:58:30.35	138.77	76.61	-48.4	-51.3	16.8	0.00e+00	0	38	0	606076928	68	4990
2026-01-04 09:58:31.64	137.65	77.20	-48.6	-51.4	16.8	0.00e+00	0	39	0	608174080	68	5080
2026-01-04 09:58:32.70	136.65	77.68	-49.0	-52.0	16.0	0.00e+00	0	39	0	610271232	68	5444
2026-01-04 09:58:33.56	135.78	78.07	-49.4	-52.6	15.4	0.00e+00	0	39	0	612368384	69	5486
2026-01-04 09:58:34.71	134.51	78.58	-49.1	-52.2	15.8	0.00e+00	0	39	0	614465536	69	5243
2026-01-04 09:58:35.56	133.50	78.96	-48.8	-51.7	16.3	0.00e+00	0	39	0	615514112	69	4968
2026-01-04 09:58:36.71	132.02	79.47	-47.4	-49.8	17.9	0.00e+00	0	39	0	617611264	66	4759
2026-01-04 09:58:37.57	130.81	79.84	-47.0	-49.3	18.3	0.00e+00	0	39	0	619708416	65	4759
2026-01-04 09:58:38.71	129.06	80.34	-47.1	-49.6	18.2	0.00e+00	0	38	0	621805568	65	4878
2026-01-04 09:58:39.57	127.61	80.70	-47.5	-50.1	17.7	0.00e+00	0	39	0	622854144	65	5170
2026-01-04 09:58:40.72	125.49	81.18	-48.2	-51.0	16.8	0.00e+00	0	39	0	624951296	67	5109
2026-01-04 09:58:41.58	123.75	81.53	-48.3	-51.2	16.6	0.00e+00	0	38	0	627048448	67	5239
2026-01-04 09:58:42.73	121.18	81.99	-48.4	-51.4	16.4	0.00e+00	0	39	0	629145600	67	5368
2026-01-04 09:58:43.59	119.06	82.32	-48.0	-50.8	16.9	0.00e+00	0	39	0	630194176	67	5007
2026-01-04 09:58:44.73	115.96	82.74	-47.9	-50.6	17.4	0.00e+00	0	39	0	633339904	67	4891
2026-01-04 09:58:45.60	113.34	83.04	-47.9	-50.5	17.4	0.00e+00	0	39	0	634388480	67	4855
2026-01-04 09:58:46.74	109.55	83.42	-47.7	-50.2	17.8	0.00e+00	0	38	0	636485632	67	4684
2026-01-04 09:58:47.60	106.40	83.68	-47.4	-49.9	18.1	0.00e+00	0	39	0	638582784	66	4768
2026-01-04 09:58:48.74	101.81	84.00	-46.8	-49.2	18.9	0.00e+00	0	39	0	640679936	65	4705
2026-01-04 09:58:49.60	98.04	84.21	-46.5	-48.7	19.1	0.00e+00	0	38	0	641728512	64	4697
2026-01-04 09:58:50.75	92.57	84.45	-47.0	-49.4	18.6	0.00e+00	0	38	0	643825664	64	5069
2026-01-04 09:58:51.62	88.13	84.60	-48.0	-50.7	17.4	0.00e+00	0	39	0	645922816	67	4946
2026-01-04 09:58:52.77	81.95	84.74	-48.3	-51.0	17.1	0.00e+00	0	39	0	648019968	67	5120
2026-01-04 09:58:53.63	77.14	84.80	-48.3	-51.1	17.0	0.00e+00	0	38	0	649068544	67	5185
2026-01-04 09:58:54.77	70.65	84.83	-48.5	-51.3	16.8	7.00e-07	0	38	0	652214272	68	5032
2026-01-04 09:58:55.63	65.76	84.80	-48.1	-50.8	17.2	0.00e+00	0	39	0	653262848	68	4750
2026-01-04 09:58:56.78	59.35	84.72	-47.9	-50.6	17.3	0.00e+00	0	38	0	655360000	67	4925
2026-01-04 09:58:57.64	54.74	84.61	-47.9	-50.6	17.2	0.00e+00	0	39	0	657457152	67	4886
2026-01-04 09:58:58.78	48.96	84.41	-48.8	-51.8	16.3	0.00e+00	0	38	0	659554304	68	5324
2026-01-04 09:58:59.64	44.89	84.23	-48.5	-51.3	16.7	0.00e+00	0	39	0	660602880	68	5029
2026-01-04 09:59:00.79	39.86	83.95	-48.8	-51.7	16.4	0.00e+00	0	39	0	662700032	68	5242
2026-01-04 09:59:01.65	36.42	83.70	-48.3	-51.0	16.9	0.00e+00	0	39	0	664797184	68	4855
2026-01-04 09:59:02.79	32.27	83.35	-48.6	-51.5	16.6	0.00e+00	0	39	0	666894336	68	5106
2026-01-04 09:59:03.65	29.43	83.07	-49.6	-52.8	15.2	0.00e+00	0	39	0	667942912	70	5328
2026-01-04 09:59:04.79	26.02	82.67	-49.9	-53.4	14.6	0.00e+00	0	38	0	670040064	71	5362
2026-01-04 09:59:05.65	23.69	82.35	-50.1	-53.7	14.3	7.00e-07	0	39	0	672137216	71	5566
2026-01-04 09:59:07.00	20.41	81.83	-50.0	-53.4	14.7	0.00e+00	0	39	0	674234368	71	5388
2026-01-04 09:59:07.72	18.83	81.54	-49.2	-52.2	16.0	7.00e-07	0	39	0	676331520	70	4956
2026-01-04 09:59:09.22	15.88	80.93	-47.8	-50.4	17.5	0.00e+00	0	38	0	678428672	67	4775
2026-01-04 09:59:09.93	14.61	80.63	-47.3	-49.7	18.1	0.00e+00	0	39	0	680525824	66	4701
2026-01-04 09:59:11.27	12.44	80.06	-47.2	-49.7	18.1	0.00e+00	0	39	0	682622976	66	4664
2026-01-04 09:59:11.99	11.38	79.75	-47.0	-49.4	18.4	0.00e+00	0	38	0	683671552	66	4505
2026-01-04 09:59:13.27	9.65	79.19	-47.2	-49.6	18.2	0.00e+00	0	39	0	686817280	65	4903
2026-01-04 09:59:13.99	8.75	78.87	-47.3	-49.8	18.0	0.00e+00	0	39	0	687865856	65	5014
2026-01-04 09:59:15.28	7.27	78.29	-47.5	-50.1	17.7	0.00e+00	0	39	0	689963008	66	4905
2026-01-04 09:59:15.99	6.52	77.97	-47.5	-50.1	17.7	0.00e+00	0	39	0	691011584	66	4906
2026-01-04 09:59:17.28	5.25	77.39	-48.5	-51.3	16.6	0.00e+00	0	39	0	694157312	67	5338
2026-01-04 09:59:18.00	4.59	77.06	-49.2	-52.3	15.8	0.00e+00	0	39	0	695205888	69	5329
2026-01-04 09:59:19.29	3.50	76.47	-48.7	-51.6	16.4	0.00e+00	0	38	0	697303040	69	4903
2026-01-04 09:59:20.08	2.88	76.11	-49.0	-52.0	16.1	0.00e+00	0	38	0	699400192	69	5111
2026-01-04 09:59:21.55	1.81	75.44	-49.4	-52.6	15.6	0.00e+00	0	39	0	701497344	69	5489
2026-01-04 09:59:22.27	1.32	75.11	-49.2	-52.3	15.8	0.00e+00	0	39	0	703594496	69	5289
2026-01-04 09:59:23.56	0.50	74.52	-49.5	-52.7	15.3	0.00e+00	0	39	0	705691648	70	5274
2026-01-04 09:59:24.27	0.07	74.19	-49.6	-52.8	15.2	0.00e+00	0	38	0	706740224	70	5325
2026-01-04 09:59:25.56	359.35	73.60	-48.7	-51.7	16.3	0.00e+00	0	39	0	709885952	69	4964
2026-01-04 09:59:26.28	358.97	73.27	-48.4	-51.2	16.8	0.00e+00	0	39	0	710934528	68	4978
2026-01-04 09:59:27.56	358.32	72.69	-47.7	-50.2	17.6	0.00e+00	0	39	0	713031680	67	4689
2026-01-04 09:59:28.28	357.98	72.36	-47.5	-50.0	17.8	0.00e+00	0	39	0	714080256	67	4580
2026-01-04 09:59:29.57	357.41	71.77	-47.3	-49.8	18.0	0.00e+00	0	38	0	717225984	66	4721
2026-01-04 09:59:30.28	357.11	71.44	-47.2	-49.7	18.1	0.00e+00	0	39	0	718274560	66	4689
2026-01-04 09:59:31.58	356.58	70.85	-47.7	-50.3	17.6	0.00e+00	0	38	0	720371712	66	5008
2026-01-04 09:59:32.29	356.31	70.53	-48.1	-50.9	17.0	0.00e+00	0	38	0	722468864	66	5384
2026-01-04 09:59:33.57	355.84	69.95	-49.1	-52.1	16.0	0.00e+00	0	38	0	724566016	68	5509
2026-01-04 09:59:34.29	355.60	69.63	-49.1	-52.1	16.0	0.00e+00	0	39	0	725614592	69	5196
2026-01-04 09:59:35.58	355.17	69.05	-49.2	-52.2	15.8	0.00e+00	0	39	0	727711744	69	5254
2026-01-04 09:59:36.30	354.94	68.73	-49.6	-52.8	15.3	0.00e+00	0	39	0	729808896	69	5620
2026-01-04 09:59:37.58	354.56	68.16	-50.0	-53.4	14.7	0.00e+00	0	38	0	731906048	70	5709
2026-01-04 09:59:38.30	354.35	67.84	-50.2	-53.8	14.3	7.00e-07	0	39	0	732954624	71	5644
2026-01-04 09:59:39.58	354.00	67.27	-50.0	-53.6	14.5	0.00e+00	0	39	0	736100352	71	5469
2026-01-04 09:59:40.30	353.81	66.95	-49.9	-53.4	14.6	2.20e-06	0	39	0	737148928	71	5385
2026-01-04 09:59:41.59	353.48	66.39	-49.0	-52.1	16.0	0.00e+00	0	39	0	739246080	70	4889
2026-01-04 09:59:42.49	353.26	66.00	-48.8	-51.7	16.4	0.00e+00	0	39	0	741343232	69	4969
2026-01-04 09:59:43.50	353.03	65.56	-48.7	-51.6	16.4	0.00e+00	0	38	0	743440384	69	4891
2026-01-04 09:59:44.50	352.80	65.13	-48.3	-51.0	17.0	0.00e+00	0	39	0	744488960	68	4870
2026-01-04 09:59:45.51	352.59	64.69	-47.2	-49.7	18.2	0.00e+00	0	38	0	746586112	66	4657
2026-01-04 09:59:46.51	352.38	64.26	-46.5	-48.7	19.0	0.00e+00	0	39	0	748683264	64	4686
2026-01-04 09:59:47.51	352.18	63.84	-46.0	-48.1	19.8	0.00e+00	0	38	0	750780416	63	4637
2026-01-04 09:59:48.51	351.99	63.41	-45.9	-48.1	19.7	0.00e+00	0	39	0	752877568	63	4612
2026-01-04 09:59:49.51	351.81	62.99	-45.9	-48.0	19.7	0.00e+00	0	38	0	753926144	63	4590
2026-01-04 09:59:50.52	351.63	62.57	-46.0	-48.1	19.7	0.00e+00	0	39	0	756023296	63	4642
2026-01-04 09:59:51.52	351.45	62.15	-45.6	-47.7	20.1	0.00e+00	0	39	0	758120448	63	4407
2026-01-04 09:59:52.52	351.29	61.74	-45.8	-47.9	19.9	0.00e+00	0	39	0	760217600	63	4512
2026-01-04 09:59:53.52	351.13	61.32	-46.0	-48.1	19.7	0.00e+00	0	39	0	762314752	63	4650
2026-01-04 09:59:54.52	350.97	60.92	-46.6	-49.0	18.9	0.00e+00	0	39	0	763363328	63	5106
2026-01-04 09:59:55.52	350.82	60.51	-47.6	-50.2	17.7	0.00e+00	0	39	0	765460480	65	5220
2026-01-04 09:59:56.52	350.68	60.10	-48.0	-50.7	17.1	0.00e+00	0	39	0	767557632	67	4969
2026-01-04 09:59:57.52	350.54	59.70	-48.9	-51.6	17.1	0.00e+00	0	39	0	769654784	68	5199
2026-01-04 09:59:58.52	350.40	59.30	-48.5	-51.2	17.1	0.00e+00	0	39	0	771751936	68	4971
2026-01-04 09:59:59.53	350.27	58.90	-48.7	-51.6	16.8	0.00e+00	0	39	0	772800512	68	5195
2026-01-04 10:00:00.52	350.14	58.51	-48.5	-51.4	16.7	7.00e-07	0	39	0	774897664	68	5047
2026-01-04 10:00:01.53	350.01	58.11	-48.8	-51.8	16.1	0.00e+00	0	39	0	776994816	68	5340
2026-01-04 10:00:02.53	349.89	57.72	-49.3	-52.6	15.5	0.00e+00	0	38	0	779091968	69	5466
2026-01-04 10:00:03.53	349.78	57.33	-49.6	-53.0	15.0	0.00e+00	0	39	0	780140544	70	5457
2026-01-04 10:00:04.53	349.66	56.95	-49.0	-52.2	15.8	0.00e+00	0	39	0	782237696	70	4940
2026-01-04 10:00:05.53	349.55	56.57	-48.2	-51.0	17.0	0.00e+00	0	39	0	784334848	68	4818
2026-01-04 10:00:06.53	349.44	56.19	-47.5	-50.1	17.7	0.00e+00	0	39	0	786432000	67	4628
2026-01-04 10:00:07.53	349.34	55.81	-47.3	-49.8	18.0	0.00e+00	0	39	0	788529152	66	4743
2026-01-04 10:00:08.54	349.24	55.43	-47.1	-49.6	18.2	0.00e+00	0	39	0	789577728	66	4609
2026-01-04 10:00:09.54	349.14	55.06	-46.8	-49.1	18.6	0.00e+00	0	39	0	791674880	65	4644
2026-01-04 10:00:10.54	349.04	54.69	-46.5	-48.8	18.9	0.00e+00	0	39	0	793772032	65	4481
2026-01-04 10:00:11.55	348.95	54.32	-46.4	-48.6	19.1	0.00e+00	0	39	0	795869184	64	4638
2026-01-04 10:00:12.55	348.86	53.95	-46.4	-48.6	19.1	0.00e+00	0	39	0	797966336	64	4638
2026-01-04 10:00:13.55	348.77	53.59	-46.5	-48.7	19.1	0.00e+00	0	39	0	799014912	64	4705
2026-01-04 10:00:14.55	348.68	53.23	-46.4	-48.7	19.1	0.00e+00	0	39	0	801112064	64	4669
2026-01-04 10:00:15.55	348.60	52.87	-46.3	-48.6	19.2	0.00e+00	0	38	0	803209216	64	4636
2026-01-04 10:00:16.56	348.52	52.51	-46.6	-49.0	18.8	0.00e+00	0	39	0	805306368	64	4848
2026-01-04 10:00:17.56	348.44	52.16	-47.4	-50.0	17.8	0.00e+00	0	39	0	807403520	65	5152
2026-01-04 10:00:18.56	348.36	51.81	-48.4	-51.4	16.5	0.00e+00	0	39	0	808452096	67	5371
2026-01-04 10:00:19.56	348.28	51.46	-49.2	-52.3	15.8	0.00e+00	0	39	0	810549248	68	5627
2026-01-04 10:00:20.57	348.21	51.11	-49.1	-52.1	16.0	0.00e+00	0	38	0	812646400	69	5214
2026-01-04 10:00:21.57	348.13	50.77	-48.8	-51.7	16.4	0.00e+00	0	38	0	814743552	69	4944
2026-01-04 10:00:22.58	348.06	50.43	-48.8	-51.8	16.3	0.00e+00	0	39	0	816840704	69	5001
2026-01-04 10:00:23.58	347.99	50.09	-48.9	-51.9	16.2	0.00e+00	0	39	0	817889280	69	5077
2026-01-04 10:00:24.59	347.92	49.75	-49.1	-52.1	15.9	0.00e+00	0	39	0	819986432	69	5204
2026-01-04 10:00:25.59	347.86	49.42	-49.3	-52.4	15.7	0.00e+00	0	39	0	822083584	69	5387
2026-01-04 10:00:26.59	347.79	49.09	-49.9	-53.4	14.7	0.00e+00	0	39	0	824180736	70	5672
2026-01-04 10:00:27.96	347.71	48.64	-51.1	-55.5	12.5	5.03e-05	0	39	0	826277888	72	6440
2026-01-04 10:00:28.73	347.66	48.39	-51.2	-55.8	12.2	1.67e-04	0	39	0	828375040	73	6326
2026-01-04 10:00:30.02	347.58	47.98	-50.2	-54.0	14.0	4.65e-05	0	39	0	830472192	72	5409
2026-01-04 10:00:30.73	347.54	47.75	-49.6	-53.0	15.0	0.00e+00	0	38	0	831520768	71	5147
2026-01-04 10:00:32.02	347.47	47.34	-49.0	-52.0	16.1	0.00e+00	0	39	0	833617920	69	5146
2026-01-04 10:00:32.74	347.43	47.11	-48.4	-51.2	16.9	0.00e+00	0	39	0	835715072	68	4945
2026-01-04 10:00:34.03	347.36	46.71	-48.2	-51.0	17.1	0.00e+00	0	39	0	837812224	68	4827
2026-01-04 10:00:34.74	347.32	46.49	-48.5	-51.4	16.7	0.00e+00	0	39	0	838860800	68	5068
2026-01-04 10:00:36.04	347.25	46.09	-49.4	-52.8	15.3	0.00e+00	0	39	0	842006528	69	5607
2026-01-04 10:00:36.75	347.21	45.87	-49.7	-53.4	14.9	0.00e+00	0	38	0	843055104	70	5698
2026-01-04 10:00:38.19	347.14	45.43	-50.5	-54.6	13.5	1.44e-05	0	39	0	845152256	71	6158
2026-01-04 10:00:39.16	347.09	45.14	-50.7	-54.9	13.1	2.67e-05	0	39	0	847249408	72	6061
2026-01-04 10:00:40.48	347.03	44.75	-50.0	-53.6	14.3	1.22e-05	0	39	0	850395136	72	5205
2026-01-04 10:00:41.20	346.99	44.53	-49.3	-52.6	15.4	0.00e+00	0	38	0	851443712	70	5203
2026-01-04 10:00:42.49	346.94	44.16	-48.1	-50.9	17.1	0.00e+00	0	38	0	853540864	68	4773
2026-01-04 10:00:43.21	346.90	43.95	-47.5	-50.1	17.6	0.00e+00	0	39	0	854589440	67	4626
2026-01-04 10:00:44.49	346.85	43.58	-47.4	-49.9	17.9	0.00e+00	0	39	0	857735168	66	4790
2026-01-04 10:00:45.21	346.81	43.37	-47.5	-50.0	17.9	0.00e+00	0	39	0	858783744	66	4861
2026-01-04 10:00:46.50	346.76	43.00	-47.9	-50.5	17.3	0.00e+00	0	39	0	860880896	66	5149
2026-01-04 10:00:47.22	346.73	42.80	-48.4	-51.3	16.6	0.00e+00	0	39	0	862978048	67	5309
2026-01-04 10:00:48.53	346.68	42.43	-49.4	-52.8	15.3	0.00e+00	0	38	0	865075200	69	5606
2026-01-04 10:00:49.25	346.65	42.23	-49.8	-53.4	14.7	0.00e+00	0	39	0	866123776	70	5675
2026-01-04 10:00:50.54	346.60	41.87	-50.6	-54.8	13.3	9.90e-06	0	39	0	868220928	71	6317
2026-01-04 10:00:51.26	346.57	41.67	-50.5	-54.6	13.3	1.75e-05	0	38	0	870318080	71	6187
2026-01-04 10:00:52.68	346.51	41.29	-50.2	-54.0	14.0	1.44e-05	0	39	0	872415232	71	5780
2026-01-04 10:00:53.39	346.49	41.10	-49.9	-53.6	14.5	0.00e+00	0	39	0	874512384	71	5465
2026-01-04 10:00:54.75	346.44	40.73	-49.4	-52.6	15.4	0.00e+00	0	39	0	876609536	70	5180
2026-01-04 10:00:55.46	346.41	40.54	-49.2	-52.3	15.8	0.00e+00	0	39	0	877658112	70	4999
2026-01-04 10:00:56.75	346.37	40.20	-49.1	-52.1	15.9	0.00e+00	0	39	0	880803840	70	4913
2026-01-04 10:00:57.47	346.34	40.01	-49.1	-52.2	15.8	0.00e+00	0	39	0	881852416	70	4968
2026-01-04 10:00:58.76	346.30	39.68	-49.1	-52.2	15.8	0.00e+00	0	39	0	883949568	69	5227
2026-01-04 10:00:59.48	346.27	39.49	-49.4	-52.6	15.4	0.00e+00	0	39	0	884998144	69	5499
2026-01-04 10:01:00.76	346.23	39.16	-50.2	-53.8	14.1	0.00e+00	0	39	0	888143872	71	5656
2026-01-04 10:01:01.48	346.21	38.98	-50.5	-54.5	13.5	1.50e-06	0	39	0	889192448	71	6080
2026-01-04 10:01:02.77	346.17	38.65	-50.9	-55.5	12.6	2.97e-05	0	39	0	891289600	72	6426
2026-01-04 10:01:03.48	346.15	38.47	-50.9	-55.6	12.3	1.40e-04	0	39	0	893386752	72	6560
2026-01-04 10:01:04.77	346.11	38.15	-50.8	-55.8	12.2	2.85e-04	0	39	0	895483904	72	6688
2026-01-04 10:01:05.62	346.08	37.94	-50.6	-55.5	12.4	1.63e-04	0	38	0	896532480	72	6428
2026-01-04 10:01:07.10	346.04	37.58	-50.3	-54.7	13.2	3.20e-05	0	39	0	899678208	72	5900
2026-01-04 10:01:07.81	346.02	37.41	-50.1	-54.4	13.6	8.30e-06	0	39	0	900726784	72	5667
2026-01-04 10:01:09.10	345.98	37.10	-49.8	-53.6	14.5	1.50e-06	0	39	0	903872512	71	5474
2026-01-04 10:01:09.82	345.96	36.93	-49.6	-53.2	14.8	0.00e+00	0	39	0	904921088	71	5267
2026-01-04 10:01:11.11	345.92	36.62	-49.4	-52.7	15.3	0.00e+00	0	39	0	907018240	70	5261
2026-01-04 10:01:11.88	345.90	36.44	-49.2	-52.5	15.5	0.00e+00	0	39	0	909115392	70	5123
2026-01-04 10:01:13.17	345.87	36.14	-49.1	-52.4	15.6	0.00e+00	0	39	0	911212544	70	5052
2026-01-04 10:01:13.97	345.85	35.95	-49.3	-52.6	15.4	0.00e+00	0	39	0	912261120	70	5202
2026-01-04 10:01:15.11	345.82	35.69	-49.5	-52.9	15.2	0.00e+00	0	39	0	914358272	70	5354
2026-01-04 10:01:15.97	345.80	35.49	-49.7	-53.2	14.8	0.00e+00	0	39	0	916455424	70	5562
2026-01-04 10:01:17.12	345.77	35.23	-49.9	-53.6	14.4	0.00e+00	0	39	0	918552576	70	5834
2026-01-04 10:01:17.98	345.75	35.03	-50.2	-54.1	13.9	1.50e-06	0	39	0	920649728	70	6136
2026-01-04 10:01:19.12	345.72	34.78	-50.6	-54.8	13.2	1.60e-05	0	39	0	922746880	71	6303
2026-01-04 10:01:19.98	345.70	34.59	-50.8	-55.2	12.7	3.66e-05	0	39	0	923795456	72	6244
2026-01-04 10:01:21.13	345.67	34.33	-51.1	-56.0	12.0	2.20e-04	0	39	0	925892608	72	6803
2026-01-04 10:01:21.99	345.65	34.14	-51.1	-56.1	11.8	3.79e-04	0	39	0	927989760	72	6901
2026-01-04 10:01:23.14	345.63	33.89	-51.1	-56.3	11.6	7.18e-04	0	39	0	930086912	72	7119
2026-01-04 10:01:24.00	345.61	33.71	-51.0	-56.4	11.5	7.93e-04	0	39	0	931135488	72	7128
2026-01-04 10:01:25.14	345.58	33.46	-50.9	-56.2	11.7	7.75e-04	0	39	0	933232640	72	6999
2026-01-04 10:01:26.00	345.56	33.28	-50.9	-56.1	11.8	6.14e-04	0	39	0	935329792	72	6884
2026-01-04 10:01:27.15	345.54	33.03	-50.8	-55.7	12.1	2.43e-04	0	39	0	937426944	72	6636
2026-01-04 10:01:28.01	345.52	32.85	-50.7	-55.4	12.5	1.49e-04	0	39	0	939524096	72	6404
2026-01-04 10:01:29.16	345.50	32.61	-50.2	-54.6	13.4	2.51e-05	0	39	0	941621248	72	5790
2026-01-04 10:01:30.02	345.48	32.43	-50.1	-54.3	13.6	2.13e-05	0	39	0	942669824	72	5607
2026-01-04 10:01:31.16	345.46	32.20	-50.0	-53.7	14.4	1.50e-06	0	39	0	944766976	71	5586
2026-01-04 10:01:32.02	345.44	32.02	-49.7	-53.2	14.8	0.00e+00	0	39	0	946864128	71	5256
2026-01-04 10:01:33.17	345.42	31.79	-49.6	-53.1	14.9	0.00e+00	0	39	0	948961280	71	5194
2026-01-04 10:01:34.42	345.39	31.54	-49.4	-52.8	15.2	0.00e+00	0	38	0	951058432	70	5315
2026-01-04 10:01:35.14	345.38	31.39	-49.3	-52.7	15.3	0.00e+00	0	39	0	952107008	70	5225
2026-01-04 10:01:36.43	345.36	31.14	-49.6	-53.1	14.9	0.00e+00	0	39	0	955252736	70	5502
2026-01-04 10:01:37.14	345.34	31.00	-49.7	-53.1	14.9	0.00e+00	0	39	0	956301312	70	5523
2026-01-04 10:01:38.46	345.32	30.74	-50.1	-53.7	14.3	0.00e+00	0	39	0	958398464	70	5875
2026-01-04 10:01:39.18	345.31	30.60	-50.1	-53.7	14.3	1.50e-06	0	39	0	959447040	70	5918
2026-01-04 10:01:40.47	345.28	30.35	-50.4	-54.2	13.8	1.50e-06	0	38	0	962592768	71	5906
2026-01-04 10:01:41.18	345.27	30.21	-50.4	-54.3	13.7	7.00e-07	0	39	0	963641344	71	5966
2026-01-04 10:01:42.46	345.25	29.97	-50.4	-54.5	13.6	7.60e-06	0	39	0	965738496	71	6068
2026-01-04 10:01:43.18	345.24	29.83	-50.5	-54.6	13.4	1.52e-05	0	39	0	967835648	71	6201
2026-01-04 10:01:44.68	345.21	29.55	-50.3	-54.5	13.5	6.80e-06	0	39	0	969932800	71	6079
2026-01-04 10:01:45.69	345.20	29.36	-50.3	-54.3	13.6	6.80e-06	0	39	0	972029952	71	5973
2026-01-04 10:01:47.01	345.18	29.12	-50.0	-53.9	14.0	9.90e-06	0	39	0	975175680	71	5693
2026-01-04 10:01:47.72	345.16	28.98	-50.0	-53.8	14.1	3.00e-06	0	39	0	976224256	71	5643
2026-01-04 10:01:49.01	345.14	28.75	-49.7	-53.3	14.6	0.00e+00	0	39	0	978321408	71	5305
2026-01-04 10:01:49.73	345.13	28.62	-49.6	-53.2	14.7	0.00e+00	0	39	0	979369984	71	5248
2026-01-04 10:01:51.02	345.11	28.39	-49.3	-52.6	15.3	0.00e+00	0	39	0	982515712	70	5197
2026-01-04 10:01:51.73	345.10	28.26	-49.2	-52.4	15.5	0.00e+00	0	39	0	983564288	70	5086
2026-01-04 10:01:53.04	345.08	28.02	-48.8	-51.9	16.1	0.00e+00	0	39	0	985661440	69	5047
2026-01-04 10:01:53.75	345.07	27.90	-48.5	-51.5	16.4	0.00e+00	0	39	0	987758592	69	4834
2026-01-04 10:01:55.04	345.06	27.67	-48.5	-51.5	16.5	0.00e+00	0	39	0	989855744	68	5108
2026-01-04 10:01:55.76	345.05	27.55	-48.2	-51.1	16.7	0.00e+00	0	39	0	990904320	68	4913
2026-01-04 10:01:57.17	345.03	27.30	-48.6	-51.5	17.0	0.00e+00	0	39	0	994050048	68	5105
2026-01-04 10:01:57.89	345.02	27.18	-48.5	-51.4	16.9	0.00e+00	0	39	0	995098624	68	5068
2026-01-04 10:01:59.29	345.00	26.94	-47.6	-50.4	17.3	0.00e+00	0	39	0	997195776	67	4790
2026-01-04 10:02:00.01	344.99	26.82	-47.4	-50.2	17.5	0.00e+00	0	39	0	999292928	66	4932
2026-01-04 10:02:01.30	344.97	26.60	-47.4	-50.2	17.5	0.00e+00	0	39	0	1001390080	66	4936
2026-01-04 10:02:02.02	344.96	26.48	-47.4	-50.2	17.5	0.00e+00	0	39	0	1002438656	66	4939
2026-01-04 10:02:03.30	344.95	26.26	-47.5	-50.2	17.5	0.00e+00	0	39	0	1005584384	66	4966
2026-01-04 10:02:04.02	344.94	26.14	-47.6	-50.3	17.4	0.00e+00	0	39	0	1006632960	66	5001
2026-01-04 10:02:05.31	344.92	25.93	-47.6	-50.3	17.4	0.00e+00	0	39	0	1008730112	66	5017
2026-01-04 10:02:06.08	344.91	25.80	-47.6	-50.3	17.5	0.00e+00	0	39	0	1010827264	66	4995
2026-01-04 10:02:07.68	344.89	25.54	-47.5	-50.2	17.5	0.00e+00	0	39	0	1012924416	66	4938
2026-01-04 10:02:08.26	344.89	25.45	-47.4	-50.1	17.6	0.00e+00	0	38	0	1015021568	66	4899
2026-01-04 10:02:10.04	344.86	25.17	-47.3	-50.2	17.5	0.00e+00	0	39	0	1018167296	66	4956
2026-01-04 10:02:10.61	344.86	25.07	-47.3	-50.1	17.6	0.00e+00	0	39	0	1019215872	66	4908
2026-01-04 10:02:12.21	344.84	24.82	-47.2	-50.1	17.6	0.00e+00	0	39	0	1022361600	66	4918
2026-01-04 10:02:12.79	344.83	24.73	-47.1	-50.0	17.7	0.00e+00	0	39	0	1023410176	66	4842
2026-01-04 10:02:14.37	344.82	24.48	-47.2	-50.1	17.6	0.00e+00	0	38	0	1025507328	66	4909
2026-01-04 10:02:14.94	344.81	24.40	-47.2	-50.0	17.7	0.00e+00	0	39	0	1026555904	66	4859
2026-01-04 10:02:16.56	344.79	24.15	-47.1	-50.0	17.8	0.00e+00	0	39	0	1029701632	66	4818
2026-01-04 10:02:17.14	344.79	24.06	-47.1	-49.8	17.9	0.00e+00	0	39	0	1030750208	66	4729
2026-01-04 10:02:18.73	344.77	23.81	-47.1	-49.6	18.0	0.00e+00	0	39	0	1033895936	66	4648
2026-01-04 10:02:19.30	344.76	23.73	-47.1	-49.7	17.9	0.00e+00	0	38	0	1034944512	66	4656
2026-01-04 10:02:20.97	344.75	23.48	-46.9	-49.4	18.4	0.00e+00	0	39	0	1038090240	65	4784
2026-01-04 10:02:21.55	344.74	23.39	-46.9	-49.3	18.4	0.00e+00	0	39	0	1039138816	65	4750
2026-01-04 10:02:23.14	344.73	23.16	-46.7	-49.2	18.4	0.00e+00	0	39	0	1042284544	65	4701
2026-01-04 10:02:23.71	344.72	23.07	-46.5	-49.1	18.6	0.00e+00	0	39	0	1043333120	65	4604
2026-01-04 10:02:25.32	344.71	22.84	-46.3	-48.9	18.7	0.00e+00	0	39	0	1046478848	64	4785
2026-01-04 10:02:25.89	344.70	22.75	-46.3	-49.0	18.7	0.00e+00	0	39	0	1047527424	64	4816
2026-01-04 10:02:27.47	344.69	22.52	-46.2	-48.9	18.7	0.00e+00	0	39	0	1050673152	64	4763
2026-01-04 10:02:28.07	344.68	22.44	-46.3	-49.0	18.7	0.00e+00	0	39	0	1051721728	64	4832
2026-01-04 10:02:29.86	344.66	22.18	-46.3	-49.0	18.6	0.00e+00	0	39	0	1054867456	64	4835
2026-01-04 10:02:30.43	344.66	22.10	-46.4	-49.0	18.6	0.00e+00	0	39	0	1055916032	64	4845
2026-01-04 10:02:32.02	344.65	21.88	-46.5	-49.0	18.6	0.00e+00	0	39	0	1059061760	64	4860
2026-01-04 10:02:32.59	344.64	21.80	-46.6	-49.1	18.5	0.00e+00	0	39	0	1060110336	64	4919
2026-01-04 10:02:34.20	344.63	21.57	-46.8	-49.2	18.4	0.00e+00	0	39	0	1063256064	64	4973
2026-01-04 10:02:34.77	344.62	21.49	-46.8	-49.3	18.4	0.00e+00	0	39	0	1064304640	64	4990
2026-01-04 10:02:36.35	344.61	21.28	-46.9	-49.3	18.3	0.00e+00	0	39	0	1067450368	65	4749
2026-01-04 10:02:36.95	344.61	21.19	-47.0	-49.4	18.2	0.00e+00	0	39	0	1068498944	65	4812
2026-01-04 10:02:38.53	344.59	20.98	-46.8	-49.3	18.3	0.00e+00	0	39	0	1071644672	65	4744
2026-01-04 10:02:39.13	344.59	20.90	-46.9	-49.4	18.2	0.00e+00	0	39	0	1072693248	65	4794
2026-01-04 10:02:40.71	344.58	20.68	-46.8	-49.4	18.2	0.00e+00	0	39	0	1075838976	65	4788
2026-01-04 10:02:41.30	344.57	20.61	-46.9	-49.4	18.2	0.00e+00	0	39	0	1076887552	65	4808
2026-01-04 10:02:42.96	344.56	20.38	-46.9	-49.5	18.1	0.00e+00	0	39	0	1080033280	65	4870
2026-01-04 10:02:43.54	344.55	20.31	-47.0	-49.6	18.0	0.00e+00	0	39	0	1081081856	65	4907
2026-01-04 10:02:45.13	344.54	20.10	-46.9	-49.6	18.0	0.00e+00	0	39	0	1083179008	65	4888
2026-01-04 10:02:45.71	344.54	20.02	-47.1	-49.7	17.9	0.00e+00	0	39	0	1084227584	65	4973
2026-01-04 10:02:47.29	344.53	19.82	-47.1	-49.7	17.9	0.00e+00	0	38	0	1087373312	65	4970
2026-01-04 10:02:47.88	344.52	19.74	-47.2	-49.8	17.8	0.00e+00	0	39	0	1088421888	65	5013
2026-01-04 10:02:49.46	344.51	19.54	-47.4	-50.0	17.6	0.00e+00	0	39	0	1091567616	65	5145
2026-01-04 10:02:50.04	344.51	19.46	-47.4	-50.0	17.6	0.00e+00	0	39	0	1092616192	65	5154
2026-01-04 10:02:51.62	344.50	19.26	-47.4	-50.0	17.6	0.00e+00	0	39	0	1095761920	65	5154
2026-01-04 10:02:52.21	344.49	19.19	-47.3	-50.0	17.6	0.00e+00	0	39	0	1096810496	65	5132
2026-01-04 10:02:53.78	344.48	18.99	-47.4	-50.1	17.5	0.00e+00	0	38	0	1099956224	65	5210
2026-01-04 10:02:54.43	344.48	18.91	-47.4	-50.1	17.5	0.00e+00	0	39	0	1101004800	65	5217
2026-01-04 10:02:55.86	344.47	18.73	-47.3	-50.1	17.5	0.00e+00	0	38	0	1104150528	65	5214
2026-01-04 10:02:56.58	344.47	18.64	-47.4	-50.3	17.4	0.00e+00	0	39	0	1105199104	65	5295
2026-01-04 10:02:57.87	344.46	18.49	-47.3	-50.2	17.4	0.00e+00	0	39	0	1107296256	65	5254
2026-01-04 10:02:58.58	344.45	18.40	-47.3	-50.3	17.4	0.00e+00	0	39	0	1108344832	65	5293
2026-01-04 10:02:59.87	344.45	18.24	-47.3	-50.3	17.3	0.00e+00	0	39	0	1111490560	65	5309
2026-01-04 10:03:00.59	344.44	18.15	-47.2	-50.1	17.5	0.00e+00	0	39	0	1112539136	65	5212
2026-01-04 10:03:01.87	344.44	18.00	-47.4	-50.3	17.3	0.00e+00	0	39	0	1114636288	65	5330
2026-01-04 10:03:02.59	344.43	17.91	-47.5	-50.4	17.3	0.00e+00	0	39	0	1116733440	65	5355
2026-01-04 10:03:03.87	344.42	17.76	-47.5	-50.3	17.3	0.00e+00	0	39	0	1118830592	65	5306
2026-01-04 10:03:04.59	344.42	17.68	-47.7	-50.4	17.3	0.00e+00	0	39	0	1119879168	66	5086
2026-01-04 10:03:05.88	344.41	17.52	-47.9	-50.7	17.2	0.00e+00	0	39	0	1123024896	66	5221
2026-01-04 10:03:06.60	344.41	17.44	-47.7	-50.4	17.2	0.00e+00	0	39	0	1124073472	66	5090
2026-01-04 10:03:07.89	344.40	17.29	-47.8	-50.5	17.2	0.00e+00	0	38	0	1126170624	66	5142
2026-01-04 10:03:08.60	344.40	17.20	-47.8	-50.6	17.0	0.00e+00	0	39	0	1127219200	66	5209
2026-01-04 10:03:09.89	344.39	17.06	-47.8	-50.6	17.0	0.00e+00	0	39	0	1130364928	66	5211
2026-01-04 10:03:10.61	344.39	16.97	-48.5	-51.4	16.9	0.00e+00	0	39	0	1131413504	67	5356
2026-01-04 10:03:11.90	344.38	16.82	-48.3	-51.3	16.8	0.00e+00	0	38	0	1133510656	67	5301
2026-01-04 10:03:12.61	344.38	16.74	-48.1	-51.2	16.9	0.00e+00	0	39	0	1135607808	67	5251
2026-01-04 10:03:13.90	344.37	16.60	-48.0	-51.3	16.7	0.00e+00	0	39	0	1137704960	67	5288
2026-01-04 10:03:14.62	344.37	16.51	-47.8	-51.2	16.7	0.00e+00	0	39	0	1138753536	67	5234
2026-01-04 10:03:15.91	344.36	16.37	-47.6	-51.1	16.7	0.00e+00	0	39	0	1140850688	67	5207
2026-01-04 10:03:16.63	344.36	16.29	-47.3	-50.8	16.8	2.20e-06	0	39	0	1142947840	66	5311
2026-01-04 10:03:18.26	344.35	16.11	-47.4	-50.9	16.7	0.00e+00	0	39	0	1146093568	66	5393
2026-01-04 10:03:18.84	344.35	16.04	-47.5	-51.0	16.7	0.00e+00	0	38	0	1147142144	66	5444
2026-01-04 10:03:20.46	344.34	15.86	-48.0	-51.3	16.7	0.00e+00	0	39	0	1150287872	66	5637
2026-01-04 10:03:21.03	344.34	15.80	-48.0	-51.2	16.7	0.00e+00	0	39	0	1151336448	66	5591
2026-01-04 10:03:22.63	344.33	15.62	-47.6	-50.9	16.7	0.00e+00	0	39	0	1153433600	66	5359
2026-01-04 10:03:23.20	344.33	15.56	-47.6	-50.8	16.7	0.00e+00	0	39	0	1154482176	66	5336
2026-01-04 10:03:24.80	344.32	15.39	-47.8	-51.0	16.7	0.00e+00	0	39	0	1157627904	66	5422
2026-01-04 10:03:25.37	344.32	15.33	-47.8	-51.0	16.6	0.00e+00	0	39	0	1158676480	66	5446
2026-01-04 10:03:27.03	344.31	15.15	-47.7	-50.9	16.8	0.00e+00	0	39	0	1161822208	66	5353
2026-01-04 10:03:27.60	344.31	15.09	-47.6	-50.8	16.8	0.00e+00	0	38	0	1162870784	66	5297
2026-01-04 10:03:29.19	344.30	14.92	-47.6	-50.7	16.9	0.00e+00	0	39	0	1166016512	66	5277
2026-01-04 10:03:30.09	344.30	14.82	-47.6	-50.8	16.8	0.00e+00	0	39	0	1168113664	66	5319
2026-01-04 10:03:31.23	344.30	14.71	-47.5	-50.8	16.9	0.00e+00	0	39	0	1170210816	66	5280
2026-01-04 10:03:32.43	344.29	14.58	-47.4	-50.8	16.9	0.00e+00	0	38	0	1172307968	66	5291
2026-01-04 10:03:33.29	344.29	14.49	-47.4	-50.8	16.8	0.00e+00	0	38	0	1173356544	66	5298
2026-01-04 10:03:34.43	344.28	14.37	-47.6	-51.0	16.8	0.00e+00	0	39	0	1176502272	66	5406
2026-01-04 10:03:35.29	344.28	14.28	-47.5	-50.9	16.8	0.00e+00	0	39	0	1177550848	66	5357
2026-01-04 10:03:36.44	344.28	14.16	-47.4	-50.9	16.7	0.00e+00	0	39	0	1179648000	66	5349
2026-01-04 10:03:37.30	344.27	14.08	-47.4	-50.8	16.8	0.00e+00	0	39	0	1181745152	66	5333
2026-01-04 10:03:38.45	344.27	13.96	-47.8	-51.1	16.8	0.00e+00	0	39	0	1183842304	66	5501
2026-01-04 10:03:39.31	344.27	13.87	-48.0	-51.4	16.7	0.00e+00	0	39	0	1184890880	66	5659
2026-01-04 10:03:40.45	344.26	13.76	-47.9	-51.2	16.6	0.00e+00	0	39	0	1186988032	66	5564
2026-01-04 10:03:41.31	344.26	13.67	-47.5	-50.8	16.7	0.00e+00	0	39	0	1189085184	66	5334
2026-01-04 10:03:42.46	344.26	13.55	-47.7	-51.0	16.6	0.00e+00	0	39	0	1191182336	66	5421
2026-01-04 10:03:43.32	344.25	13.47	-47.7	-51.0	16.5	0.00e+00	0	39	0	1192230912	66	5451
2026-01-04 10:03:44.46	344.25	13.35	-47.8	-51.1	16.5	0.00e+00	0	39	0	1195376640	66	5520
2026-01-04 10:03:45.32	344.25	13.27	-47.9	-51.2	16.4	0.00e+00	0	39	0	1196425216	66	5566
2026-01-04 10:03:46.47	344.24	13.16	-48.0	-51.2	16.4	0.00e+00	0	39	0	1198522368	66	5555
2026-01-04 10:03:47.33	344.24	13.07	-48.0	-51.4	16.3	0.00e+00	0	39	0	1200619520	66	5680
2026-01-04 10:03:48.48	344.24	12.96	-48.0	-51.3	16.3	0.00e+00	0	39	0	1202716672	66	5643
2026-01-04 10:03:49.34	344.23	12.88	-47.9	-51.3	16.3	0.00e+00	0	39	0	1203765248	66	5628
2026-01-04 10:03:50.48	344.23	12.76	-47.9	-51.4	16.1	0.00e+00	0	39	0	1205862400	66	5706
2026-01-04 10:03:51.34	344.23	12.68	-47.8	-51.4	16.1	0.00e+00	0	39	0	1207959552	66	5707
2026-01-04 10:03:52.49	344.23	12.57	-47.9	-51.6	16.0	0.00e+00	0	38	0	1210056704	66	5813
2026-01-04 10:03:53.35	344.22	12.49	-47.9	-51.7	15.9	0.00e+00	0	39	0	1211105280	66	5857
2026-01-04 10:03:54.50	344.22	12.38	-47.8	-51.6	16.0	0.00e+00	0	39	0	1213202432	66	5806
2026-01-04 10:03:55.35	344.22	12.30	-47.9	-51.8	15.9	0.00e+00	0	39	0	1215299584	66	5932
2026-01-04 10:03:56.50	344.22	12.19	-47.8	-51.6	15.9	0.00e+00	0	38	0	1217396736	66	5831
2026-01-04 10:03:57.36	344.21	12.11	-47.9	-51.7	15.9	0.00e+00	0	39	0	1219493888	66	5874
2026-01-04 10:03:58.73	344.21	11.98	-48.0	-51.8	15.8	0.00e+00	0	39	0	1221591040	66	5980
2026-01-04 10:03:59.44	344.21	11.91	-48.0	-51.8	15.7	0.00e+00	0	38	0	1222639616	66	5990
2026-01-04 10:04:00.73	344.20	11.79	-48.4	-52.3	15.7	0.00e+00	0	39	0	1225785344	67	5962
2026-01-04 10:04:01.44	344.20	11.73	-48.5	-52.4	15.6	0.00e+00	0	39	0	1226833920	67	6007
2026-01-04 10:04:02.73	344.20	11.61	-48.1	-52.0	15.7	0.00e+00	0	39	0	1228931072	67	5773
2026-01-04 10:04:03.45	344.20	11.54	-48.2	-52.1	15.7	0.00e+00	0	39	0	1229979648	67	5839
2026-01-04 10:04:04.73	344.20	11.42	-48.3	-52.3	15.7	0.00e+00	0	39	0	1233125376	67	5935
2026-01-04 10:04:05.45	344.19	11.36	-48.2	-52.2	15.6	0.00e+00	0	39	0	1234173952	67	5908
2026-01-04 10:04:06.74	344.19	11.24	-48.0	-52.0	15.7	0.00e+00	0	39	0	1236271104	67	5762
2026-01-04 10:04:07.67	344.19	11.15	-48.3	-52.3	15.6	0.00e+00	0	39	0	1238368256	67	5957
2026-01-04 10:04:09.00	344.19	11.03	-48.1	-52.3	15.6	0.00e+00	0	39	0	1240465408	67	5928
2026-01-04 10:04:09.72	344.18	10.97	-48.1	-52.3	15.5	0.00e+00	0	39	0	1242562560	67	5942
2026-01-04 10:04:11.37	344.18	10.82	-47.9	-52.0	15.7	0.00e+00	0	39	0	1245708288	67	5781
2026-01-04 10:04:11.94	344.18	10.77	-47.8	-52.1	15.6	0.00e+00	0	39	0	1246756864	67	5816
