passes_logs/2026/01/04/T1/T1__20260104_130744_AQUA_rec.log

#Pass ID: 20260104_130744_AQUA
#Satellite: AQUA
#Configuration: AQUA
#almurnet v.1.7.20251203
#Start time: 2026-01-04 13:07:45

#Version: 2.0.20230620
#Station: T1
#Location: 37.570604 lon 55.790049 lat
#TLE: 1 27424U 02022A   26003.93831471  .00001925  00000+0  39553-3 0  9996
#TLE: 2 27424  98.4067 330.1809 0002002  92.1714 343.8415 14.61796291259276

#Time	Az	El	Level	Level2	SNR	BER	BlckErr	Temp	State	Recorded	gain1	gain2
2026-01-04 13:07:45.10	213.34	5.07	-51.0	-75.4	3.8	7.45e-01	0	36	0	0	73	60213
2026-01-04 13:07:46.10	213.45	5.13	-50.8	-75.3	3.8	7.47e-01	0	36	104	0	73	59454
2026-01-04 13:07:47.10	213.55	5.19	-50.9	-75.3	3.8	7.45e-01	0	36	104	0	73	59881
2026-01-04 13:07:48.11	213.65	5.25	-50.9	-75.3	3.8	7.46e-01	0	36	104	0	73	59498
2026-01-04 13:07:49.11	213.76	5.31	-50.7	-75.2	3.8	7.47e-01	0	37	104	0	73	59053
2026-01-04 13:07:50.11	213.86	5.37	-50.7	-75.3	3.8	7.46e-01	0	36	104	0	73	59599
2026-01-04 13:07:51.12	213.97	5.43	-50.9	-75.3	3.8	7.45e-01	0	37	104	0	73	59905
2026-01-04 13:07:52.12	214.07	5.49	-51.1	-75.3	3.8	7.46e-01	0	37	104	0	73	59644
2026-01-04 13:07:53.13	214.18	5.56	-51.2	-75.3	3.8	7.48e-01	0	37	104	0	73	59394
2026-01-04 13:07:54.13	214.29	5.62	-51.1	-75.3	3.8	7.45e-01	0	37	104	0	73	59715
2026-01-04 13:07:55.13	214.39	5.68	-50.9	-75.3	3.8	7.44e-01	0	37	104	0	73	59412
2026-01-04 13:07:56.14	214.50	5.74	-51.0	-75.6	3.8	7.45e-01	0	37	104	0	73	61623
2026-01-04 13:07:57.14	214.61	5.80	-51.2	-75.5	3.8	7.47e-01	0	37	104	0	73	61090
2026-01-04 13:07:58.14	214.72	5.87	-51.2	-75.4	3.8	7.45e-01	0	37	104	0	73	60583
2026-01-04 13:07:59.15	214.83	5.93	-51.1	-75.4	3.8	7.47e-01	0	37	104	0	73	60483
2026-01-04 13:08:00.15	214.94	5.99	-50.9	-75.3	3.8	7.47e-01	0	37	104	0	73	59378
2026-01-04 13:08:01.16	215.05	6.05	-50.9	-75.2	3.8	7.44e-01	0	37	104	0	73	58768
2026-01-04 13:08:02.16	215.16	6.12	-51.0	-75.0	3.8	7.45e-01	0	37	104	0	73	57687
2026-01-04 13:08:03.17	215.27	6.18	-50.9	-74.8	3.8	7.43e-01	0	37	104	0	73	56064
2026-01-04 13:08:04.17	215.38	6.24	-50.9	-74.7	3.8	7.44e-01	0	37	104	0	73	55726
2026-01-04 13:08:05.18	215.49	6.30	-50.7	-74.7	3.8	7.44e-01	0	37	104	0	73	55447
2026-01-04 13:08:06.18	215.61	6.37	-50.9	-74.5	3.8	7.48e-01	0	37	104	0	73	54619
2026-01-04 13:08:07.18	215.72	6.43	-50.8	-74.3	3.8	7.50e-01	0	37	104	0	73	53039
2026-01-04 13:08:08.19	215.83	6.49	-50.9	-73.9	3.8	7.46e-01	0	37	104	0	73	50586
2026-01-04 13:08:09.19	215.95	6.56	-51.2	-73.7	3.8	7.46e-01	0	37	104	0	73	49321
2026-01-04 13:08:10.20	216.06	6.62	-50.9	-73.9	3.8	7.47e-01	0	37	104	0	73	50430
2026-01-04 13:08:11.20	216.18	6.68	-50.7	-74.2	3.8	7.44e-01	0	37	104	0	73	52435
2026-01-04 13:08:12.21	216.29	6.75	-50.8	-74.8	3.8	7.46e-01	0	37	104	0	73	55979
2026-01-04 13:08:13.21	216.41	6.81	-51.3	-75.2	3.8	7.48e-01	0	38	104	0	73	58716
2026-01-04 13:08:14.21	216.52	6.87	-51.3	-75.2	3.8	7.47e-01	0	38	104	0	73	59130
2026-01-04 13:08:15.22	216.64	6.94	-51.1	-74.9	3.8	7.46e-01	0	37	104	0	73	56895
2026-01-04 13:08:16.22	216.76	7.00	-50.7	-74.5	3.9	7.44e-01	0	38	104	0	73	54127
2026-01-04 13:08:17.22	216.88	7.06	-50.6	-74.0	3.8	7.47e-01	0	38	104	0	73	51283
2026-01-04 13:08:18.23	217.00	7.13	-50.6	-73.9	3.8	7.46e-01	0	38	104	0	73	50849
2026-01-04 13:08:19.23	217.12	7.19	-51.0	-74.3	3.8	7.43e-01	0	38	104	0	73	52908
2026-01-04 13:08:20.24	217.24	7.25	-51.1	-74.6	3.8	7.44e-01	0	38	104	0	73	54930
2026-01-04 13:08:21.24	217.36	7.32	-51.4	-74.6	3.8	7.45e-01	0	38	104	0	73	55001
2026-01-04 13:08:22.24	217.48	7.38	-51.2	-74.1	3.8	7.45e-01	0	38	104	0	73	52188
2026-01-04 13:08:23.25	217.60	7.45	-51.1	-73.4	3.8	7.44e-01	0	38	104	0	73	47851
2026-01-04 13:08:24.25	217.72	7.51	-50.7	-72.2	4.1	7.38e-01	0	38	104	0	73	41477
2026-01-04 13:08:25.26	217.85	7.58	-51.0	-71.7	4.3	7.33e-01	0	38	104	0	73	39466
2026-01-04 13:08:26.26	217.97	7.64	-51.1	-72.3	3.9	7.43e-01	0	38	104	0	73	42182
2026-01-04 13:08:27.27	218.09	7.71	-51.4	-73.2	3.9	7.46e-01	0	38	104	0	73	46828
2026-01-04 13:08:28.27	218.22	7.77	-51.5	-74.2	3.8	7.48e-01	0	38	104	0	73	52540
2026-01-04 13:08:29.27	218.34	7.83	-51.0	-73.8	3.8	7.41e-01	0	38	104	0	73	50171
2026-01-04 13:08:30.28	218.47	7.90	-51.0	-72.1	3.9	7.39e-01	0	38	104	0	73	41220
2026-01-04 13:08:31.28	218.59	7.96	-50.8	-70.7	3.9	7.39e-01	0	38	104	0	73	34926
2026-01-04 13:08:32.29	218.72	8.03	-50.7	-69.6	5.0	7.09e-01	0	38	0	0	73	30828
2026-01-04 13:08:33.29	218.85	8.09	-51.4	-71.1	4.5	7.27e-01	0	38	104	0	73	36613
2026-01-04 13:08:34.30	218.98	8.16	-51.3	-71.5	4.0	7.27e-01	0	38	104	0	73	38686
2026-01-04 13:08:35.30	219.11	8.22	-51.5	-66.7	7.2	6.56e-01	0	38	0	524288	73	22178
2026-01-04 13:08:36.31	219.24	8.29	-50.8	-61.8	12.3	6.13e-01	0	38	0	2621440	73	12538
2026-01-04 13:08:37.31	219.37	8.35	-50.1	-58.5	15.6	6.10e-01	0	38	0	4194304	72	9091
2026-01-04 13:08:38.31	219.50	8.42	-49.6	-56.3	17.9	6.07e-01	0	38	0	6291456	71	7493
2026-01-04 13:08:39.31	219.63	8.48	-48.9	-54.9	19.2	6.06e-01	0	38	0	7864320	69	7174
2026-01-04 13:08:40.32	219.76	8.55	-48.9	-54.4	19.7	6.06e-01	0	38	0	9961472	69	6751
2026-01-04 13:08:41.32	219.89	8.62	-49.1	-54.5	19.7	6.08e-01	0	38	0	12058624	69	6840
2026-01-04 13:08:42.33	220.02	8.68	-49.4	-55.1	19.1	6.09e-01	0	38	0	13631488	69	7350
2026-01-04 13:08:43.33	220.16	8.75	-50.1	-56.3	18.0	6.07e-01	0	38	0	15728640	71	7490
2026-01-04 13:08:44.33	220.29	8.81	-49.8	-57.9	16.4	6.08e-01	0	38	0	17301504	71	9032
2026-01-04 13:08:45.34	220.43	8.88	-50.2	-59.8	14.4	6.08e-01	0	38	0	19398656	72	10615
2026-01-04 13:08:46.34	220.56	8.94	-51.3	-62.2	12.3	6.12e-01	0	38	0	20971520	73	13183
2026-01-04 13:08:47.35	220.70	9.01	-52.1	-64.0	10.0	6.23e-01	0	38	0	23068672	74	15351
2026-01-04 13:08:48.35	220.84	9.08	-51.6	-64.7	9.4	6.32e-01	0	38	0	25165824	74	16601
2026-01-04 13:08:49.35	220.97	9.14	-50.6	-63.2	10.2	6.16e-01	0	38	0	26738688	72	15603
2026-01-04 13:08:50.39	221.12	9.21	-50.5	-62.8	11.5	6.18e-01	0	38	0	28835840	72	15038
2026-01-04 13:08:51.39	221.25	9.28	-51.7	-67.7	6.2	6.81e-01	0	38	0	30408704	74	23575
2026-01-04 13:08:52.39	221.39	9.34	-51.7	-67.6	6.3	6.79e-01	0	38	0	31457280	75	21897
2026-01-04 13:08:53.52	221.55	9.42	-50.2	-67.5	6.5	6.71e-01	0	38	0	34078720	71	27243
2026-01-04 13:08:54.38	221.67	9.47	-50.7	-66.6	7.4	6.53e-01	0	38	0	35651584	72	23204
2026-01-04 13:08:55.53	221.83	9.55	-51.1	-65.8	8.0	6.45e-01	0	38	0	37748736	73	19990
2026-01-04 13:08:56.39	221.96	9.61	-51.5	-65.8	8.3	6.43e-01	0	38	0	39321600	73	19990
2026-01-04 13:08:57.53	222.12	9.68	-51.2	-66.0	8.1	6.44e-01	0	38	0	41418752	74	19228
2026-01-04 13:08:58.39	222.24	9.74	-51.8	-66.0	8.0	6.45e-01	0	38	0	42991616	74	19364
2026-01-04 13:08:59.54	222.41	9.81	-50.9	-66.5	7.6	6.57e-01	0	38	0	45088768	73	21710
2026-01-04 13:09:00.40	222.53	9.87	-51.8	-66.7	7.5	6.56e-01	0	38	0	46661632	75	19645
2026-01-04 13:09:01.55	222.70	9.95	-52.3	-66.6	7.6	6.55e-01	0	38	0	48758784	75	19503
2026-01-04 13:09:02.41	222.82	10.01	-52.3	-66.3	7.8	6.49e-01	0	38	0	50331648	76	17802
2026-01-04 13:09:03.55	222.99	10.08	-52.9	-66.7	7.4	6.60e-01	0	38	0	52428800	76	18711
2026-01-04 13:09:04.41	223.12	10.14	-53.1	-65.8	8.1	6.48e-01	0	38	0	54001664	76	16884
2026-01-04 13:09:05.62	223.30	10.22	-54.1	-64.3	10.2	6.21e-01	0	38	0	56623104	78	12645
2026-01-04 13:09:06.49	223.43	10.28	-53.6	-61.2	12.4	6.12e-01	0	38	0	58195968	79	8287
2026-01-04 13:09:07.63	223.60	10.35	-52.8	-58.1	16.5	6.08e-01	0	38	0	60293120	77	6554
2026-01-04 13:09:08.49	223.72	10.41	-52.9	-58.4	16.1	6.07e-01	0	38	0	61865984	77	6796
2026-01-04 13:09:09.64	223.90	10.49	-52.6	-57.9	16.9	6.06e-01	0	38	0	63963136	76	6724
2026-01-04 13:09:10.50	224.03	10.54	-52.7	-58.2	16.6	6.07e-01	0	38	0	65536000	76	6981
2026-01-04 13:09:11.64	224.20	10.62	-52.3	-57.1	17.8	6.08e-01	0	38	0	67633152	76	6179
2026-01-04 13:09:12.61	224.35	10.69	-51.7	-56.0	19.0	6.07e-01	0	38	0	69730304	75	5757
2026-01-04 13:09:13.79	224.53	10.76	-51.7	-55.9	18.9	6.08e-01	0	39	0	71827456	75	5679
2026-01-04 13:09:14.65	224.67	10.82	-51.1	-54.8	19.9	6.07e-01	0	38	0	73400320	74	5298
2026-01-04 13:09:16.00	224.88	10.91	-50.6	-54.1	20.7	6.08e-01	0	38	0	76021760	73	5166
2026-01-04 13:09:16.72	224.99	10.96	-50.4	-53.8	20.9	6.08e-01	0	39	0	77070336	72	5296
2026-01-04 13:09:18.20	225.22	11.06	-49.8	-52.9	21.6	6.07e-01	0	39	0	80216064	71	5077
2026-01-04 13:09:18.92	225.33	11.11	-49.5	-52.5	21.9	6.07e-01	0	39	0	81264640	71	4858
2026-01-04 13:09:20.29	225.55	11.20	-49.4	-52.4	22.0	6.06e-01	0	38	0	83886080	70	5069
2026-01-04 13:09:21.00	225.66	11.25	-49.4	-52.4	22.2	6.08e-01	0	38	0	85458944	70	5052
2026-01-04 13:09:22.29	225.87	11.33	-49.3	-52.3	22.2	6.07e-01	0	39	0	87556096	70	5040
2026-01-04 13:09:23.01	225.99	11.38	-49.2	-52.1	22.3	6.09e-01	0	39	0	89128960	70	4925
2026-01-04 13:09:24.30	226.20	11.47	-49.2	-52.2	22.3	6.06e-01	0	39	0	91226112	70	4953
2026-01-04 13:09:25.01	226.31	11.52	-49.2	-52.2	22.4	6.08e-01	0	39	0	92798976	70	4931
2026-01-04 13:09:26.30	226.52	11.60	-49.3	-52.2	22.2	6.06e-01	0	39	0	95420416	70	4977
2026-01-04 13:09:27.02	226.64	11.65	-49.0	-51.9	22.6	6.08e-01	0	38	0	96468992	70	4766
2026-01-04 13:09:28.31	226.85	11.74	-49.1	-51.9	22.5	6.08e-01	0	39	0	99090432	70	4778
2026-01-04 13:09:29.10	226.98	11.79	-49.0	-51.8	22.6	6.08e-01	0	39	0	100663296	70	4726
2026-01-04 13:09:30.25	227.17	11.87	-48.9	-51.7	22.6	6.06e-01	0	39	0	102760448	69	4968
2026-01-04 13:09:31.11	227.32	11.92	-48.9	-51.7	22.6	6.06e-01	0	39	0	104333312	69	4980
2026-01-04 13:09:32.25	227.51	12.00	-49.0	-51.8	22.6	6.09e-01	0	38	0	106430464	69	4986
2026-01-04 13:09:33.11	227.66	12.06	-48.9	-51.7	22.7	6.06e-01	0	39	0	108003328	69	4949
2026-01-04 13:09:34.26	227.85	12.14	-48.8	-51.6	22.8	6.07e-01	0	39	0	110100480	69	4881
2026-01-04 13:09:35.12	228.00	12.19	-48.8	-51.6	22.8	6.08e-01	0	39	0	111673344	69	4877
2026-01-04 13:09:36.26	228.19	12.27	-48.9	-51.7	22.6	6.06e-01	0	39	0	113770496	69	4959
2026-01-04 13:09:37.12	228.34	12.33	-49.1	-51.9	22.5	6.07e-01	0	39	0	115343360	69	5047
2026-01-04 13:09:38.27	228.54	12.40	-49.2	-52.0	22.4	6.07e-01	0	39	0	117964800	69	5108
2026-01-04 13:09:39.13	228.69	12.46	-48.8	-51.6	22.7	6.07e-01	0	39	0	119537664	69	4892
2026-01-04 13:09:40.28	228.89	12.54	-48.7	-51.5	22.9	6.07e-01	0	39	0	121634816	69	4822
2026-01-04 13:09:41.14	229.04	12.60	-48.7	-51.4	22.9	6.07e-01	0	39	0	123207680	69	4811
2026-01-04 13:09:42.51	229.28	12.69	-48.7	-51.5	22.9	6.07e-01	0	39	0	125829120	69	4846
2026-01-04 13:09:43.22	229.41	12.74	-48.8	-51.5	22.8	6.06e-01	0	38	0	126877696	69	4859
2026-01-04 13:09:44.51	229.64	12.82	-48.9	-51.6	22.8	6.07e-01	0	39	0	129499136	69	4908
2026-01-04 13:09:45.23	229.77	12.87	-48.9	-51.7	22.8	6.06e-01	0	39	0	130547712	69	4939
2026-01-04 13:09:46.52	230.00	12.96	-48.8	-51.5	22.9	6.08e-01	0	39	0	133169152	69	4862
2026-01-04 13:09:47.24	230.13	13.00	-48.8	-51.5	22.9	6.07e-01	0	39	0	134742016	69	4849
2026-01-04 13:09:48.86	230.42	13.11	-48.9	-51.7	22.8	6.08e-01	0	39	0	137363456	69	4947
2026-01-04 13:09:49.43	230.53	13.15	-48.8	-51.6	22.8	6.06e-01	0	39	0	138412032	69	4894
2026-01-04 13:09:51.03	230.82	13.26	-48.9	-51.6	22.7	6.08e-01	0	39	0	141557760	69	4922
2026-01-04 13:09:51.60	230.93	13.30	-48.8	-51.6	22.8	6.08e-01	0	39	0	142606336	69	4895
2026-01-04 13:09:53.19	231.22	13.40	-48.7	-51.5	22.9	6.07e-01	0	39	0	145752064	69	4850
2026-01-04 13:09:53.84	231.34	13.44	-48.9	-51.7	22.8	6.07e-01	0	39	0	146800640	69	4952
2026-01-04 13:09:55.27	231.61	13.54	-48.8	-51.6	22.9	6.06e-01	0	39	0	149422080	69	4901
2026-01-04 13:09:55.99	231.74	13.59	-48.7	-51.5	23.0	6.06e-01	0	39	0	150994944	69	4824
2026-01-04 13:09:57.28	231.99	13.67	-48.7	-51.4	23.0	6.06e-01	0	39	0	153092096	69	4810
2026-01-04 13:09:57.99	232.12	13.72	-48.7	-51.5	22.9	6.09e-01	0	39	0	154664960	69	4835
2026-01-04 13:09:59.29	232.37	13.80	-48.9	-51.7	23.0	6.08e-01	0	39	0	157286400	69	4941
2026-01-04 13:10:00.19	232.54	13.86	-49.2	-51.9	22.8	6.09e-01	0	39	0	158859264	69	5087
2026-01-04 13:10:01.21	232.74	13.93	-49.1	-51.9	22.8	6.07e-01	0	38	0	160956416	69	5059
2026-01-04 13:10:02.21	232.93	14.00	-49.1	-51.8	23.0	6.07e-01	0	39	0	162529280	69	5016
2026-01-04 13:10:03.22	233.13	14.06	-49.0	-51.7	23.0	6.09e-01	0	39	0	164626432	69	4957
2026-01-04 13:10:04.22	233.33	14.13	-49.0	-51.7	23.0	6.08e-01	0	39	0	166199296	69	4949
2026-01-04 13:10:05.22	233.52	14.19	-48.9	-51.6	23.1	6.06e-01	0	39	0	168296448	69	4872
2026-01-04 13:10:06.23	233.72	14.26	-48.8	-51.5	23.1	6.05e-01	0	39	0	170393600	69	4856
2026-01-04 13:10:07.24	233.92	14.33	-48.8	-51.5	23.1	6.07e-01	0	39	0	171966464	69	4846
2026-01-04 13:10:08.28	234.13	14.39	-48.8	-51.6	23.1	6.07e-01	0	39	0	174063616	69	4876
2026-01-04 13:10:09.28	234.33	14.46	-48.9	-51.6	22.9	6.06e-01	0	39	0	175636480	69	4925
2026-01-04 13:10:10.36	234.55	14.53	-48.9	-51.6	22.8	6.10e-01	0	39	0	177733632	69	4915
2026-01-04 13:10:11.25	234.73	14.59	-48.8	-51.6	22.9	6.09e-01	0	39	0	179830784	69	4884
2026-01-04 13:10:12.47	234.97	14.67	-48.6	-51.3	23.1	6.07e-01	0	39	0	181927936	69	4750
2026-01-04 13:10:13.34	235.15	14.72	-48.8	-51.6	22.7	6.06e-01	0	39	0	183500800	69	4905
2026-01-04 13:10:14.49	235.39	14.80	-48.7	-51.4	23.0	6.04e-01	0	39	0	185597952	69	4810
2026-01-04 13:10:15.35	235.56	14.85	-48.5	-51.3	23.1	6.09e-01	0	39	0	187170816	69	4720
2026-01-04 13:10:16.49	235.80	14.92	-48.5	-51.2	23.2	6.07e-01	0	39	0	189267968	69	4696
2026-01-04 13:10:17.35	235.98	14.98	-48.4	-51.2	23.3	6.06e-01	0	39	0	190840832	68	4934
2026-01-04 13:10:18.50	236.22	15.05	-48.3	-51.1	23.2	6.06e-01	0	39	0	192937984	68	4913
2026-01-04 13:10:19.36	236.40	15.11	-48.4	-51.2	23.2	6.09e-01	0	39	0	195035136	68	4959
2026-01-04 13:10:20.50	236.64	15.18	-48.3	-51.1	23.2	6.08e-01	0	39	0	197132288	68	4877
2026-01-04 13:10:21.36	236.82	15.23	-48.4	-51.1	23.2	6.07e-01	0	39	0	198705152	68	4894
2026-01-04 13:10:22.51	237.06	15.31	-48.4	-51.1	23.2	6.06e-01	0	39	0	200802304	68	4883
2026-01-04 13:10:23.37	237.25	15.36	-48.5	-51.2	23.2	6.07e-01	0	39	0	202375168	68	4934
2026-01-04 13:10:24.52	237.49	15.43	-48.7	-51.4	23.1	6.08e-01	0	39	0	204472320	68	5095
2026-01-04 13:10:25.38	237.68	15.49	-48.7	-51.4	23.1	6.06e-01	0	39	0	206045184	68	5055
2026-01-04 13:10:26.54	237.93	15.56	-48.7	-51.3	23.2	6.07e-01	0	39	0	208142336	68	5034
2026-01-04 13:10:27.40	238.11	15.61	-48.6	-51.2	23.3	6.06e-01	0	39	0	209715200	68	4967
2026-01-04 13:10:28.54	238.36	15.68	-48.5	-51.1	23.3	6.08e-01	0	39	0	211812352	68	4922
2026-01-04 13:10:29.40	238.55	15.74	-48.4	-51.0	23.3	6.04e-01	0	39	0	213385216	68	4866
2026-01-04 13:10:30.55	238.80	15.81	-48.2	-50.9	23.4	6.06e-01	0	39	0	215482368	68	4776
2026-01-04 13:10:31.40	238.99	15.86	-48.3	-51.1	23.2	6.09e-01	0	39	0	217579520	68	4890
2026-01-04 13:10:32.55	239.24	15.93	-48.4	-51.1	23.3	6.08e-01	0	39	0	219676672	68	4914
2026-01-04 13:10:33.41	239.44	15.98	-48.3	-51.0	23.4	6.07e-01	0	39	0	221249536	68	4855
2026-01-04 13:10:34.56	239.69	16.05	-48.4	-51.1	23.3	6.06e-01	0	39	0	223346688	68	4884
2026-01-04 13:10:35.42	239.89	16.10	-48.4	-51.0	23.3	6.07e-01	0	39	0	224919552	68	4870
2026-01-04 13:10:36.57	240.14	16.17	-48.5	-51.1	23.3	6.08e-01	0	39	0	227016704	68	4893
2026-01-04 13:10:37.43	240.34	16.22	-48.5	-51.1	23.2	6.08e-01	0	39	0	228589568	68	4925
2026-01-04 13:10:38.57	240.60	16.29	-48.5	-51.1	23.3	6.06e-01	0	39	0	230686720	68	4924
2026-01-04 13:10:39.43	240.79	16.34	-48.5	-51.2	23.3	6.09e-01	0	39	0	232259584	68	4939
2026-01-04 13:10:40.58	241.06	16.41	-48.4	-51.0	23.3	6.06e-01	0	39	0	234356736	68	4842
2026-01-04 13:10:41.44	241.26	16.46	-48.4	-51.1	23.4	6.08e-01	0	39	0	235929600	68	4873
2026-01-04 13:10:42.58	241.52	16.53	-48.3	-50.9	23.4	6.05e-01	0	39	0	238026752	68	4804
2026-01-04 13:10:43.44	241.72	16.58	-48.3	-51.0	23.4	6.07e-01	0	39	0	240123904	68	4836
2026-01-04 13:10:44.59	241.99	16.65	-48.4	-51.1	23.3	6.05e-01	0	39	0	242221056	68	4908
2026-01-04 13:10:45.45	242.19	16.70	-48.4	-51.1	23.3	6.08e-01	0	39	0	243793920	68	4914
2026-01-04 13:10:46.59	242.45	16.76	-48.3	-51.0	23.4	6.07e-01	0	39	0	245891072	68	4831
2026-01-04 13:10:47.46	242.66	16.81	-48.3	-50.9	23.5	6.05e-01	0	39	0	247463936	68	4813
2026-01-04 13:10:48.60	242.93	16.88	-48.4	-51.0	23.3	6.06e-01	0	39	0	249561088	68	4863
2026-01-04 13:10:49.46	243.13	16.93	-48.4	-51.0	23.4	6.06e-01	0	39	0	251133952	68	4860
2026-01-04 13:10:50.61	243.41	16.99	-48.4	-51.1	23.3	6.06e-01	0	39	0	253231104	68	4874
2026-01-04 13:10:51.47	243.61	17.04	-48.4	-51.0	23.3	6.05e-01	0	39	0	254803968	68	4864
2026-01-04 13:10:52.62	243.89	17.10	-48.4	-51.1	23.3	6.07e-01	0	39	0	256901120	68	4881
2026-01-04 13:10:53.85	244.19	17.17	-48.5	-51.1	23.2	6.08e-01	0	39	0	259522560	68	4915
2026-01-04 13:10:54.71	244.40	17.22	-48.5	-51.1	23.2	6.06e-01	0	39	0	261095424	68	4899
2026-01-04 13:10:55.85	244.67	17.28	-48.4	-51.0	23.3	6.06e-01	0	39	0	263192576	68	4818
2026-01-04 13:10:56.71	244.88	17.33	-48.3	-50.9	23.4	6.07e-01	0	39	0	264765440	68	4778
2026-01-04 13:10:57.86	245.16	17.39	-48.4	-51.0	23.3	6.06e-01	0	39	0	266862592	68	4834
2026-01-04 13:10:58.71	245.37	17.44	-48.5	-51.1	23.2	6.08e-01	0	39	0	268435456	68	4893
2026-01-04 13:10:59.86	245.66	17.50	-48.3	-51.0	23.3	6.06e-01	0	39	0	270532608	68	4851
2026-01-04 13:11:00.72	245.87	17.54	-48.2	-50.9	23.3	6.09e-01	0	39	0	272105472	68	4809
2026-01-04 13:11:01.94	246.17	17.61	-48.2	-51.0	23.3	6.06e-01	0	39	0	274726912	68	4845
2026-01-04 13:11:02.80	246.39	17.65	-48.2	-51.1	23.2	6.08e-01	0	39	0	276299776	68	4886
2026-01-04 13:11:03.98	246.68	17.71	-48.1	-50.9	23.4	6.06e-01	0	39	0	278396928	68	4797
2026-01-04 13:11:04.84	246.90	17.76	-48.1	-50.8	23.5	6.07e-01	0	39	0	279969792	68	4758
2026-01-04 13:11:06.05	247.21	17.82	-48.2	-50.9	23.4	6.06e-01	0	39	0	282591232	68	4778
2026-01-04 13:11:06.91	247.42	17.86	-48.2	-50.9	23.4	6.06e-01	0	39	0	284164096	68	4804
2026-01-04 13:11:08.06	247.72	17.92	-48.2	-51.0	23.4	6.07e-01	0	39	0	286261248	68	4845
2026-01-04 13:11:08.92	247.93	17.96	-48.3	-51.0	23.4	6.06e-01	0	39	0	287834112	68	4863
2026-01-04 13:11:10.06	248.23	18.02	-48.6	-51.2	23.5	6.06e-01	0	39	0	289931264	68	4983
2026-01-04 13:11:10.92	248.45	18.06	-48.5	-51.2	23.5	6.08e-01	0	39	0	291504128	68	4953
2026-01-04 13:11:12.06	248.74	18.12	-48.7	-51.3	23.4	6.05e-01	0	39	0	293601280	68	5029
2026-01-04 13:11:13.03	248.99	18.16	-48.7	-51.4	23.4	6.08e-01	0	39	0	295174144	68	5048
2026-01-04 13:11:14.03	249.25	18.21	-48.6	-51.3	23.4	6.07e-01	0	39	0	297271296	68	4996
2026-01-04 13:11:15.03	249.51	18.26	-48.6	-51.4	23.3	6.06e-01	0	39	0	299368448	68	5056
2026-01-04 13:11:16.04	249.77	18.30	-48.7	-51.4	23.3	6.07e-01	0	39	0	300941312	68	5078
2026-01-04 13:11:17.04	250.04	18.35	-48.7	-51.4	23.3	6.06e-01	0	39	0	303038464	68	5051
2026-01-04 13:11:18.04	250.30	18.40	-48.6	-51.2	23.4	6.06e-01	0	39	0	304611328	68	4966
2026-01-04 13:11:19.05	250.56	18.44	-48.6	-51.2	23.4	6.07e-01	0	39	0	306708480	68	4967
2026-01-04 13:11:20.05	250.83	18.49	-48.6	-51.3	23.4	6.07e-01	0	39	0	308281344	68	4987
2026-01-04 13:11:21.05	251.09	18.53	-48.5	-51.1	23.4	6.07e-01	0	39	0	310378496	68	4921
2026-01-04 13:11:22.06	251.36	18.57	-48.5	-51.2	23.3	6.08e-01	0	39	0	312475648	68	4952
2026-01-04 13:11:23.15	251.65	18.62	-48.7	-51.4	23.2	6.06e-01	0	39	0	314572800	68	5051
2026-01-04 13:11:24.04	251.89	18.66	-48.5	-51.2	23.3	6.06e-01	0	39	0	316145664	68	4958
2026-01-04 13:11:25.19	252.20	18.71	-48.4	-51.0	23.4	6.08e-01	0	39	0	318242816	68	4865
2026-01-04 13:11:26.11	252.45	18.75	-48.4	-51.1	23.4	6.06e-01	0	39	0	319815680	68	4874
2026-01-04 13:11:27.29	252.77	18.80	-48.5	-51.2	23.3	6.07e-01	0	39	0	321912832	68	4953
2026-01-04 13:11:28.15	253.00	18.83	-48.5	-51.2	23.2	6.05e-01	0	39	0	324009984	68	4981
2026-01-04 13:11:29.50	253.36	18.88	-48.3	-51.1	23.4	6.07e-01	0	39	0	326107136	68	4872
2026-01-04 13:11:30.22	253.56	18.91	-48.4	-51.1	23.3	6.06e-01	0	39	0	327680000	68	4907
2026-01-04 13:11:31.70	253.96	18.97	-48.5	-51.2	23.2	6.07e-01	0	39	0	330301440	68	4972
2026-01-04 13:11:32.41	254.16	19.00	-48.5	-51.3	23.1	6.09e-01	0	39	0	331874304	68	5035
2026-01-04 13:11:33.79	254.54	19.05	-48.4	-51.1	23.4	6.08e-01	0	39	0	334495744	68	4897
2026-01-04 13:11:34.50	254.73	19.08	-48.7	-51.4	23.3	6.07e-01	0	39	0	335544320	68	5093
2026-01-04 13:11:35.79	255.09	19.12	-48.8	-51.5	23.3	6.07e-01	0	39	0	338165760	68	5130
2026-01-04 13:11:36.51	255.29	19.15	-48.7	-51.4	23.4	6.07e-01	0	39	0	339214336	68	5055
2026-01-04 13:11:37.80	255.64	19.19	-48.7	-51.3	23.4	6.07e-01	0	39	0	341835776	68	5004
2026-01-04 13:11:38.51	255.84	19.22	-48.6	-51.3	23.3	6.09e-01	0	39	0	343408640	68	5005
2026-01-04 13:11:39.81	256.20	19.26	-48.7	-51.3	23.3	6.08e-01	0	39	0	345505792	68	5037
2026-01-04 13:11:40.52	256.40	19.29	-48.6	-51.3	23.3	6.07e-01	0	39	0	347078656	68	5003
2026-01-04 13:11:41.81	256.76	19.33	-48.6	-51.3	23.3	6.06e-01	0	39	0	349175808	68	5027
2026-01-04 13:11:42.53	256.96	19.35	-48.6	-51.3	23.2	6.08e-01	0	39	0	350748672	68	5024
2026-01-04 13:11:43.82	257.33	19.39	-48.6	-51.3	23.3	6.06e-01	0	39	0	353370112	68	5015
2026-01-04 13:11:44.71	257.58	19.42	-48.6	-51.3	23.2	6.06e-01	0	39	0	354942976	68	5005
2026-01-04 13:11:45.77	257.88	19.45	-48.6	-51.3	23.3	6.06e-01	0	39	0	357040128	68	5010
2026-01-04 13:11:46.97	258.22	19.49	-48.4	-51.1	23.4	6.07e-01	0	39	0	359137280	68	4910
2026-01-04 13:11:48.00	258.51	19.52	-48.4	-51.1	23.4	6.08e-01	0	39	0	361234432	68	4907
2026-01-04 13:11:49.16	258.84	19.55	-48.5	-51.2	23.3	6.06e-01	0	39	0	363331584	68	4956
2026-01-04 13:11:50.10	259.10	19.58	-48.4	-51.1	23.4	6.07e-01	0	39	0	364904448	68	4888
2026-01-04 13:11:51.28	259.44	19.61	-48.3	-51.0	23.5	6.05e-01	0	39	0	367001600	68	4851
2026-01-04 13:11:52.14	259.69	19.63	-48.4	-51.1	23.4	6.07e-01	0	39	0	368574464	68	4917
2026-01-04 13:11:53.49	260.07	19.67	-48.5	-51.3	23.1	6.04e-01	0	39	0	371195904	68	5015
2026-01-04 13:11:54.21	260.28	19.69	-48.5	-51.3	23.2	6.07e-01	0	39	0	372768768	68	5011
2026-01-04 13:11:55.50	260.65	19.72	-48.5	-51.3	23.1	6.06e-01	0	39	0	374865920	68	5012
2026-01-04 13:11:56.22	260.86	19.74	-48.6	-51.4	23.1	6.08e-01	0	39	0	376438784	68	5044
2026-01-04 13:11:57.78	261.31	19.77	-48.4	-51.1	23.4	6.06e-01	0	39	0	379060224	68	4887
2026-01-04 13:11:58.38	261.48	19.79	-48.4	-51.1	23.4	6.08e-01	0	39	0	380633088	68	4901
2026-01-04 13:11:59.96	261.94	19.82	-48.5	-51.2	23.3	6.05e-01	0	39	0	383254528	68	4927
2026-01-04 13:12:00.59	262.12	19.83	-48.5	-51.2	23.3	6.07e-01	0	39	0	384303104	68	4932
2026-01-04 13:12:02.02	262.53	19.86	-48.6	-51.3	23.0	6.08e-01	0	39	0	387448832	68	5028
2026-01-04 13:12:02.74	262.74	19.88	-48.5	-51.2	23.2	6.07e-01	0	39	0	388497408	68	4937
2026-01-04 13:12:04.03	263.12	19.90	-48.3	-51.0	23.4	6.07e-01	0	39	0	391118848	68	4838
2026-01-04 13:12:04.74	263.32	19.91	-48.3	-51.0	23.3	6.08e-01	0	39	0	392167424	68	4870
2026-01-04 13:12:06.06	263.71	19.94	-48.5	-51.2	23.2	6.07e-01	0	39	0	394788864	68	4973
2026-01-04 13:12:06.78	263.92	19.95	-48.4	-51.1	23.3	6.05e-01	0	39	0	396361728	68	4906
2026-01-04 13:12:08.15	264.32	19.97	-48.4	-51.2	23.3	6.07e-01	0	39	0	398983168	68	4928
2026-01-04 13:12:08.87	264.53	19.98	-48.6	-51.4	23.2	6.05e-01	0	39	0	400031744	68	5082
2026-01-04 13:12:10.20	264.92	20.00	-48.5	-51.3	23.2	6.08e-01	0	39	0	402653184	68	5005
2026-01-04 13:12:10.92	265.13	20.01	-48.5	-51.2	23.3	6.09e-01	0	39	0	403701760	68	4982
2026-01-04 13:12:12.29	265.53	20.03	-48.6	-51.4	23.0	6.07e-01	0	39	0	406323200	68	5045
2026-01-04 13:12:13.25	265.81	20.04	-48.6	-51.3	23.1	6.08e-01	0	39	0	408420352	68	5024
2026-01-04 13:12:14.24	266.10	20.05	-48.7	-51.4	23.2	6.07e-01	0	39	0	409993216	68	5095
2026-01-04 13:12:15.24	266.40	20.06	-48.7	-51.4	23.3	6.08e-01	0	39	0	412090368	68	5096
2026-01-04 13:12:16.25	266.69	20.07	-48.7	-51.4	23.3	6.08e-01	0	39	0	413663232	68	5068
2026-01-04 13:12:17.25	266.99	20.08	-48.6	-51.3	23.4	6.05e-01	0	39	0	415760384	68	4996
2026-01-04 13:12:18.26	267.29	20.09	-48.8	-51.5	23.2	6.08e-01	0	39	0	417857536	68	5128
2026-01-04 13:12:19.28	267.59	20.10	-48.8	-51.5	23.2	6.07e-01	0	39	0	419430400	68	5125
2026-01-04 13:12:20.28	267.88	20.10	-48.8	-51.5	23.2	6.08e-01	0	39	0	421527552	68	5116
2026-01-04 13:12:21.28	268.18	20.11	-48.5	-51.2	23.4	6.07e-01	0	39	0	423100416	68	4947
2026-01-04 13:12:22.36	268.49	20.12	-48.5	-51.2	23.3	6.08e-01	0	39	0	425197568	68	4974
2026-01-04 13:12:23.22	268.75	20.12	-48.5	-51.2	23.3	6.05e-01	0	39	0	426770432	68	4946
2026-01-04 13:12:24.59	269.15	20.13	-48.3	-51.0	23.5	6.07e-01	0	39	0	429391872	68	4839
2026-01-04 13:12:25.31	269.36	20.13	-48.4	-51.1	23.3	6.06e-01	0	39	0	430964736	68	4899
2026-01-04 13:12:26.60	269.75	20.13	-48.4	-51.1	23.4	6.08e-01	0	39	0	433061888	68	4887
2026-01-04 13:12:27.31	269.96	20.13	-48.5	-51.2	23.3	6.07e-01	0	39	0	434634752	68	4931
2026-01-04 13:12:28.60	270.34	20.13	-48.4	-51.0	23.4	6.07e-01	0	39	0	437256192	68	4867
2026-01-04 13:12:29.31	270.55	20.13	-48.4	-51.1	23.4	6.10e-01	0	39	0	438304768	68	4885
2026-01-04 13:12:30.60	270.93	20.13	-48.4	-51.1	23.3	6.06e-01	0	39	0	440926208	68	4896
2026-01-04 13:12:31.32	271.14	20.13	-48.4	-51.1	23.4	6.09e-01	0	39	0	441974784	68	4872
2026-01-04 13:12:32.61	271.52	20.13	-48.6	-51.2	23.3	6.07e-01	0	39	0	444596224	68	4971
2026-01-04 13:12:33.50	271.78	20.13	-48.5	-51.2	23.3	6.08e-01	0	39	0	446169088	68	4942
2026-01-04 13:12:34.65	272.12	20.13	-48.4	-51.1	23.4	6.07e-01	0	39	0	448266240	68	4878
2026-01-04 13:12:35.71	272.44	20.12	-48.4	-51.0	23.4	6.04e-01	0	39	0	450363392	68	4859
2026-01-04 13:12:36.75	272.74	20.12	-48.4	-51.0	23.4	6.07e-01	0	39	0	452460544	68	4857
2026-01-04 13:12:37.75	273.04	20.11	-48.4	-51.0	23.4	6.06e-01	0	39	0	454033408	68	4862
2026-01-04 13:12:38.96	273.39	20.10	-48.4	-51.1	23.3	6.07e-01	0	39	0	456654848	68	4886
2026-01-04 13:12:39.84	273.65	20.10	-48.3	-51.0	23.4	6.05e-01	0	39	0	458227712	68	4823
2026-01-04 13:12:40.98	273.99	20.09	-48.3	-51.0	23.4	6.07e-01	0	39	0	460324864	68	4839
2026-01-04 13:12:41.84	274.24	20.08	-48.3	-51.0	23.4	6.06e-01	0	39	0	461897728	68	4829
2026-01-04 13:12:42.99	274.58	20.07	-48.4	-51.0	23.4	6.08e-01	0	39	0	463994880	68	4838
2026-01-04 13:12:43.84	274.83	20.06	-48.3	-50.9	23.4	6.06e-01	0	39	0	465567744	68	4798
2026-01-04 13:12:44.99	275.17	20.05	-48.5	-51.1	23.4	6.07e-01	0	39	0	467664896	68	4899
2026-01-04 13:12:45.85	275.42	20.04	-48.6	-51.3	23.3	6.06e-01	0	39	0	469237760	68	4995
2026-01-04 13:12:47.00	275.76	20.02	-48.6	-51.2	23.4	6.08e-01	0	39	0	471334912	68	4942
2026-01-04 13:12:47.86	276.01	20.01	-48.6	-51.2	23.3	6.06e-01	0	39	0	473432064	68	4951
2026-01-04 13:12:49.00	276.34	20.00	-48.6	-51.2	23.3	6.06e-01	0	39	0	475529216	68	4959
2026-01-04 13:12:49.86	276.59	19.99	-48.5	-51.1	23.4	6.06e-01	0	39	0	477102080	68	4912
2026-01-04 13:12:51.02	276.93	19.97	-48.6	-51.2	23.3	6.06e-01	0	39	0	479199232	68	4971
2026-01-04 13:12:51.89	277.19	19.95	-48.6	-51.2	23.3	6.08e-01	0	39	0	480772096	68	4970
2026-01-04 13:12:53.09	277.54	19.94	-48.4	-51.0	23.5	6.09e-01	0	39	0	482869248	68	4860
2026-01-04 13:12:53.95	277.79	19.92	-48.4	-51.0	23.4	6.07e-01	0	39	0	484442112	68	4870
2026-01-04 13:12:55.10	278.12	19.90	-48.7	-51.4	23.4	6.05e-01	0	39	0	486539264	68	5050
2026-01-04 13:12:56.44	278.51	19.87	-48.7	-51.3	23.5	6.09e-01	0	39	0	489160704	68	5008
2026-01-04 13:12:57.15	278.71	19.86	-48.6	-51.2	23.4	6.06e-01	0	39	0	490733568	68	4982
2026-01-04 13:12:58.44	279.09	19.84	-48.6	-51.2	23.5	6.08e-01	0	39	0	492830720	68	4953
2026-01-04 13:12:59.16	279.30	19.82	-48.7	-51.3	23.4	6.08e-01	0	39	0	494403584	68	5007
2026-01-04 13:13:00.48	279.68	19.79	-48.8	-51.4	23.3	6.07e-01	0	39	0	497025024	68	5092
2026-01-04 13:13:01.19	279.88	19.78	-48.7	-51.4	23.3	6.06e-01	0	39	0	498073600	68	5049
2026-01-04 13:13:02.48	280.25	19.75	-48.7	-51.3	23.5	6.06e-01	0	39	0	500695040	68	4993
2026-01-04 13:13:03.20	280.46	19.73	-48.5	-51.1	23.6	6.08e-01	0	39	0	501743616	68	4886
2026-01-04 13:13:04.49	280.83	19.70	-48.7	-51.3	23.4	6.06e-01	0	39	0	504365056	68	5003
2026-01-04 13:13:05.21	281.04	19.68	-48.6	-51.3	23.4	6.06e-01	0	39	0	505937920	68	4991
2026-01-04 13:13:06.49	281.40	19.65	-48.5	-51.1	23.5	6.05e-01	0	39	0	508035072	68	4871
2026-01-04 13:13:07.21	281.61	19.63	-48.5	-51.1	23.5	6.08e-01	0	39	0	509607936	68	4891
2026-01-04 13:13:08.50	281.97	19.60	-48.5	-51.1	23.4	6.08e-01	0	39	0	511705088	68	4879
2026-01-04 13:13:09.21	282.18	19.58	-48.4	-51.0	23.4	6.07e-01	0	39	0	513277952	68	4839
2026-01-04 13:13:10.51	282.54	19.54	-48.4	-51.0	23.5	6.05e-01	0	39	0	515899392	68	4870
2026-01-04 13:13:11.22	282.75	19.52	-48.4	-51.1	23.5	6.08e-01	0	39	0	516947968	68	4887
2026-01-04 13:13:12.51	283.11	19.48	-48.5	-51.1	23.6	6.08e-01	0	39	0	519569408	68	4907
2026-01-04 13:13:13.23	283.31	19.46	-48.5	-51.1	23.5	6.06e-01	0	39	0	520617984	68	4926
2026-01-04 13:13:14.52	283.68	19.42	-48.5	-51.0	23.5	6.07e-01	0	39	0	523239424	68	4870
2026-01-04 13:13:15.24	283.88	19.40	-48.5	-51.1	23.5	6.06e-01	0	39	0	524288000	68	4890
2026-01-04 13:13:16.53	284.24	19.36	-48.4	-51.0	23.6	6.08e-01	0	39	0	526909440	68	4844
2026-01-04 13:13:17.24	284.44	19.34	-48.3	-50.9	23.7	6.09e-01	0	39	0	528482304	68	4782
2026-01-04 13:13:18.54	284.80	19.29	-48.3	-50.8	23.6	6.07e-01	0	39	0	530579456	68	4753
2026-01-04 13:13:19.25	285.00	19.27	-48.4	-51.0	23.5	6.07e-01	0	39	0	532152320	68	4856
2026-01-04 13:13:20.54	285.36	19.23	-48.4	-51.0	23.6	6.09e-01	0	39	0	534249472	68	4821
2026-01-04 13:13:21.26	285.56	19.20	-48.4	-51.0	23.5	6.06e-01	0	39	0	535822336	68	4815
2026-01-04 13:13:22.76	285.97	19.15	-48.2	-50.8	23.6	6.06e-01	0	39	0	538443776	68	4733
2026-01-04 13:13:23.47	286.17	19.12	-48.3	-50.8	23.6	6.07e-01	0	39	0	540016640	68	4754
2026-01-04 13:13:24.76	286.52	19.07	-48.4	-51.0	23.4	6.07e-01	0	39	0	542638080	68	4853
2026-01-04 13:13:25.48	286.72	19.05	-48.4	-51.0	23.4	6.07e-01	0	39	0	543686656	68	4866
2026-01-04 13:13:26.77	287.07	19.00	-48.3	-50.9	23.5	6.05e-01	0	39	0	546308096	68	4800
2026-01-04 13:13:27.49	287.27	18.97	-48.4	-50.9	23.5	6.08e-01	0	39	0	547356672	68	4810
2026-01-04 13:13:28.78	287.62	18.92	-48.5	-51.1	23.4	6.06e-01	0	39	0	549978112	68	4911
2026-01-04 13:13:29.49	287.81	18.89	-48.6	-51.2	23.3	6.06e-01	0	39	0	551026688	68	4939
2026-01-04 13:13:30.78	288.16	18.84	-48.4	-50.9	23.5	6.06e-01	0	39	0	553648128	68	4808
2026-01-04 13:13:31.50	288.35	18.81	-48.4	-51.0	23.4	6.06e-01	0	39	0	555220992	68	4857
2026-01-04 13:13:32.78	288.70	18.76	-48.2	-50.8	23.6	6.08e-01	0	39	0	557318144	68	4739
2026-01-04 13:13:33.60	288.92	18.73	-48.2	-50.8	23.7	6.06e-01	0	39	0	558891008	68	4708
2026-01-04 13:13:34.74	289.22	18.68	-48.3	-51.0	23.5	6.07e-01	0	39	0	560988160	68	4823
2026-01-04 13:13:35.81	289.51	18.64	-48.3	-50.9	23.5	6.06e-01	0	39	0	563085312	68	4809
2026-01-04 13:13:36.84	289.78	18.59	-48.3	-50.9	23.5	6.08e-01	0	39	0	565182464	68	4781
2026-01-04 13:13:37.84	290.05	18.55	-48.3	-51.0	23.5	6.09e-01	0	39	0	566755328	68	4818
2026-01-04 13:13:38.84	290.31	18.50	-48.2	-50.7	23.7	6.05e-01	0	39	0	568852480	68	4688
2026-01-04 13:13:39.85	290.58	18.46	-48.3	-50.8	23.6	6.05e-01	0	39	0	570425344	68	4743
2026-01-04 13:13:40.85	290.84	18.41	-48.3	-50.9	23.6	6.05e-01	0	39	0	572522496	68	4761
2026-01-04 13:13:41.85	291.10	18.37	-48.2	-50.8	23.6	6.05e-01	0	39	0	574619648	68	4736
2026-01-04 13:13:42.86	291.37	18.32	-48.2	-50.8	23.6	6.05e-01	0	39	0	576192512	68	4737
2026-01-04 13:13:43.86	291.63	18.28	-48.2	-50.8	23.6	6.06e-01	0	39	0	578289664	68	4756
2026-01-04 13:13:44.86	291.89	18.23	-48.2	-50.9	23.6	6.06e-01	0	39	0	579862528	68	4766
2026-01-04 13:13:45.87	292.15	18.18	-48.3	-50.9	23.5	6.07e-01	0	39	0	581959680	68	4802
2026-01-04 13:13:46.87	292.40	18.14	-48.1	-50.7	23.7	6.07e-01	0	39	0	584056832	68	4702
2026-01-04 13:13:47.87	292.66	18.09	-48.1	-50.7	23.7	6.07e-01	0	39	0	585629696	68	4673
2026-01-04 13:13:48.89	292.92	18.04	-48.1	-50.6	23.7	6.07e-01	0	39	0	587726848	68	4643
2026-01-04 13:13:49.89	293.18	17.99	-48.2	-50.7	23.7	6.09e-01	0	39	0	589299712	68	4685
2026-01-04 13:13:50.98	293.45	17.94	-48.1	-50.7	23.7	6.07e-01	0	39	0	591396864	68	4668
2026-01-04 13:13:51.87	293.68	17.89	-48.3	-50.9	23.5	6.06e-01	0	39	0	592969728	68	4780
2026-01-04 13:13:53.01	293.97	17.83	-48.3	-50.9	23.5	6.08e-01	0	39	0	595591168	68	4770
2026-01-04 13:13:53.87	294.18	17.79	-48.2	-50.7	23.6	6.07e-01	0	39	0	597164032	68	4705
2026-01-04 13:13:55.02	294.47	17.73	-48.2	-50.7	23.6	6.07e-01	0	39	0	599261184	68	4698
2026-01-04 13:13:55.88	294.69	17.69	-48.2	-50.8	23.6	6.06e-01	0	39	0	600834048	68	4708
2026-01-04 13:13:57.02	294.97	17.63	-48.2	-50.7	23.6	6.08e-01	0	39	0	602931200	68	4699
2026-01-04 13:13:57.88	295.18	17.58	-48.3	-50.9	23.4	6.04e-01	0	39	0	604504064	68	4805
2026-01-04 13:13:59.03	295.47	17.52	-48.3	-50.9	23.5	6.07e-01	0	39	0	606601216	68	4763
2026-01-04 13:13:59.89	295.68	17.48	-48.3	-50.9	23.5	6.05e-01	0	39	0	608174080	68	4778
2026-01-04 13:14:01.03	295.96	17.42	-48.3	-50.9	23.4	6.07e-01	0	39	0	610271232	68	4795
2026-01-04 13:14:01.89	296.17	17.37	-48.6	-51.2	23.4	6.06e-01	0	39	0	611844096	68	4939
2026-01-04 13:14:03.10	296.46	17.31	-48.8	-51.4	23.2	6.06e-01	0	39	0	614465536	68	5077
2026-01-04 13:14:03.97	296.67	17.26	-48.6	-51.2	23.5	6.08e-01	0	39	0	616038400	68	4939
2026-01-04 13:14:05.11	296.95	17.20	-48.4	-51.0	23.6	6.07e-01	0	39	0	618135552	68	4830
2026-01-04 13:14:05.97	297.16	17.15	-48.3	-50.9	23.6	6.08e-01	0	39	0	619708416	68	4798
2026-01-04 13:14:07.12	297.43	17.09	-48.4	-51.0	23.5	6.08e-01	0	39	0	621805568	68	4856
2026-01-04 13:14:07.97	297.64	17.04	-48.4	-51.1	23.4	6.08e-01	0	39	0	623378432	68	4892
2026-01-04 13:14:09.12	297.91	16.98	-48.5	-51.2	23.3	6.06e-01	0	39	0	625475584	68	4950
2026-01-04 13:14:10.15	298.15	16.92	-48.3	-51.0	23.4	6.08e-01	0	39	0	627572736	68	4820
2026-01-04 13:14:11.15	298.39	16.86	-48.4	-50.9	23.5	6.06e-01	0	39	0	629669888	68	4812
2026-01-04 13:14:12.15	298.62	16.80	-48.5	-51.1	23.5	6.07e-01	0	39	0	631242752	68	4902
2026-01-04 13:14:13.16	298.86	16.75	-48.5	-51.1	23.4	6.07e-01	0	39	0	633339904	68	4903
2026-01-04 13:14:14.16	299.09	16.69	-48.5	-51.1	23.4	6.05e-01	0	39	0	634912768	68	4894
2026-01-04 13:14:15.16	299.33	16.63	-48.5	-51.2	23.4	6.07e-01	0	39	0	637009920	68	4945
2026-01-04 13:14:16.16	299.56	16.57	-48.5	-51.2	23.4	6.06e-01	0	39	0	638582784	68	4945
2026-01-04 13:14:17.16	299.79	16.52	-48.3	-50.9	23.6	6.07e-01	0	39	0	640679936	68	4797
2026-01-04 13:14:18.17	300.02	16.46	-48.3	-50.9	23.6	6.05e-01	0	39	0	642777088	68	4772
2026-01-04 13:14:19.17	300.25	16.40	-48.4	-51.0	23.5	6.07e-01	0	39	0	644349952	68	4830
2026-01-04 13:14:20.18	300.48	16.34	-48.5	-51.1	23.4	6.08e-01	0	39	0	646447104	68	4885
2026-01-04 13:14:21.18	300.70	16.28	-48.5	-51.1	23.5	6.07e-01	0	39	0	648019968	68	4873
2026-01-04 13:14:22.21	300.94	16.22	-48.4	-51.0	23.5	6.07e-01	0	39	0	650117120	68	4851
2026-01-04 13:14:23.26	301.17	16.16	-48.5	-51.1	23.4	6.04e-01	0	39	0	652214272	68	4898
2026-01-04 13:14:24.18	301.38	16.10	-48.5	-51.2	23.3	6.05e-01	0	39	0	653787136	68	4945
2026-01-04 13:14:25.19	301.60	16.04	-48.5	-51.1	23.4	6.07e-01	0	39	0	655884288	68	4896
2026-01-04 13:14:26.19	301.83	15.98	-48.4	-51.0	23.5	6.06e-01	0	39	0	657457152	68	4870
2026-01-04 13:14:27.19	302.05	15.92	-48.3	-50.9	23.5	6.07e-01	0	39	0	659554304	68	4810
2026-01-04 13:14:28.20	302.27	15.86	-48.3	-50.9	23.5	6.06e-01	0	39	0	661127168	68	4801
2026-01-04 13:14:29.47	302.55	15.78	-48.3	-50.9	23.5	6.07e-01	0	39	0	663748608	68	4801
2026-01-04 13:14:30.22	302.71	15.73	-48.3	-50.9	23.4	6.05e-01	0	39	0	665321472	68	4802
2026-01-04 13:14:31.51	302.99	15.66	-48.3	-50.9	23.5	6.09e-01	0	39	0	667418624	68	4768
2026-01-04 13:14:32.23	303.15	15.61	-48.5	-51.1	23.5	6.08e-01	0	39	0	668991488	68	4878
2026-01-04 13:14:33.51	303.42	15.53	-48.6	-51.2	23.5	6.06e-01	0	39	0	671088640	68	4953
2026-01-04 13:14:34.23	303.58	15.49	-48.6	-51.2	23.5	6.08e-01	0	39	0	672661504	68	4958
2026-01-04 13:14:35.52	303.85	15.41	-48.6	-51.2	23.4	6.06e-01	0	39	0	675282944	68	4969
2026-01-04 13:14:36.23	304.00	15.36	-48.5	-51.2	23.4	6.07e-01	0	39	0	676331520	68	4940
2026-01-04 13:14:37.54	304.28	15.28	-48.5	-51.2	23.4	6.06e-01	0	39	0	678952960	68	4927
2026-01-04 13:14:38.25	304.43	15.24	-48.5	-51.1	23.3	6.07e-01	0	39	0	680001536	68	4912
2026-01-04 13:14:39.55	304.70	15.15	-48.4	-51.0	23.5	6.07e-01	0	39	0	682622976	68	4823
2026-01-04 13:14:40.26	304.85	15.11	-48.4	-51.0	23.4	6.08e-01	0	39	0	684195840	68	4867
2026-01-04 13:14:41.55	305.12	15.03	-48.3	-51.0	23.4	6.06e-01	0	39	0	686292992	68	4826
2026-01-04 13:14:42.27	305.27	14.98	-48.3	-51.0	23.5	6.07e-01	0	39	0	687865856	68	4827
2026-01-04 13:14:43.56	305.53	14.90	-48.3	-51.0	23.4	6.05e-01	0	39	0	689963008	68	4818
2026-01-04 13:14:44.28	305.68	14.86	-48.5	-51.1	23.3	6.04e-01	0	39	0	691535872	68	4923
2026-01-04 13:14:45.57	305.94	14.77	-48.4	-51.1	23.3	6.08e-01	0	39	0	694157312	68	4889
2026-01-04 13:14:46.28	306.09	14.73	-48.5	-51.2	23.2	6.05e-01	0	39	0	695205888	68	4938
2026-01-04 13:14:47.57	306.35	14.65	-48.4	-51.0	23.4	6.06e-01	0	39	0	697827328	68	4844
2026-01-04 13:14:48.29	306.49	14.60	-48.3	-50.9	23.4	6.06e-01	0	39	0	698875904	68	4807
2026-01-04 13:14:49.58	306.75	14.52	-48.3	-50.9	23.4	6.05e-01	0	39	0	701497344	68	4797
2026-01-04 13:14:50.29	306.89	14.47	-48.4	-51.0	23.4	6.06e-01	0	39	0	702545920	68	4845
2026-01-04 13:14:51.59	307.15	14.39	-48.3	-51.0	23.4	6.04e-01	0	39	0	705167360	68	4815
2026-01-04 13:14:52.30	307.29	14.34	-48.3	-51.0	23.4	6.06e-01	0	39	0	706215936	68	4815
2026-01-04 13:14:53.68	307.56	14.25	-48.3	-51.0	23.4	6.09e-01	0	39	0	708837376	68	4832
2026-01-04 13:14:54.40	307.70	14.21	-48.4	-51.0	23.3	6.08e-01	0	39	0	710410240	68	4845
2026-01-04 13:14:55.75	307.97	14.12	-48.4	-51.1	23.2	6.09e-01	0	39	0	713031680	68	4921
2026-01-04 13:14:56.47	308.11	14.07	-48.3	-51.0	23.3	6.06e-01	0	39	0	714604544	68	4851
2026-01-04 13:14:57.76	308.35	13.99	-48.2	-51.0	23.3	6.07e-01	0	39	0	716701696	68	4830
2026-01-04 13:14:58.48	308.49	13.94	-48.2	-51.0	23.3	6.07e-01	0	39	0	718274560	68	4863
2026-01-04 13:14:59.77	308.74	13.86	-48.1	-51.0	23.3	6.07e-01	0	39	0	720371712	68	4815
2026-01-04 13:15:00.48	308.87	13.81	-48.2	-51.0	23.2	6.09e-01	0	39	0	721944576	68	4865
2026-01-04 13:15:01.77	309.12	13.72	-48.3	-51.2	23.1	6.06e-01	0	39	0	724041728	68	4943
2026-01-04 13:15:02.49	309.26	13.68	-48.5	-51.4	22.9	6.09e-01	0	39	0	725614592	68	5094
2026-01-04 13:15:03.78	309.50	13.59	-48.3	-51.1	23.2	6.08e-01	0	39	0	728236032	68	4924
2026-01-04 13:15:04.50	309.63	13.55	-48.3	-51.1	23.2	6.08e-01	0	39	0	729284608	68	4897
2026-01-04 13:15:05.79	309.87	13.46	-48.2	-51.0	23.3	6.06e-01	0	39	0	731906048	68	4816
2026-01-04 13:15:06.50	310.00	13.41	-48.3	-51.0	23.2	6.06e-01	0	39	0	732954624	68	4845
2026-01-04 13:15:07.79	310.24	13.33	-48.3	-51.0	23.3	6.07e-01	0	39	0	735576064	68	4859
2026-01-04 13:15:08.70	310.41	13.27	-48.4	-51.1	23.2	6.08e-01	0	39	0	737148928	68	4895
2026-01-04 13:15:09.70	310.59	13.20	-48.4	-51.1	23.2	6.09e-01	0	39	0	739246080	68	4905
2026-01-04 13:15:10.71	310.77	13.14	-48.5	-51.1	23.2	6.09e-01	0	39	0	740818944	68	4923
2026-01-04 13:15:11.71	310.95	13.07	-48.5	-51.2	23.1	6.07e-01	0	39	0	742916096	68	4960
2026-01-04 13:15:12.71	311.13	13.00	-48.5	-51.2	23.1	6.06e-01	0	39	0	745013248	68	4973
2026-01-04 13:15:13.71	311.31	12.94	-48.6	-51.4	22.9	6.08e-01	0	39	0	746586112	68	5053
2026-01-04 13:15:14.71	311.49	12.87	-48.6	-51.3	23.0	6.06e-01	0	39	0	748683264	68	5013
2026-01-04 13:15:15.75	311.68	12.80	-48.7	-51.4	22.9	6.09e-01	0	39	0	750780416	68	5063
2026-01-04 13:15:16.78	311.86	12.74	-48.6	-51.4	22.9	6.07e-01	0	39	0	752353280	68	5055
2026-01-04 13:15:17.78	312.03	12.67	-48.8	-51.5	23.0	6.07e-01	0	39	0	754450432	68	5113
2026-01-04 13:15:18.85	312.22	12.60	-48.7	-51.5	23.0	6.07e-01	0	39	0	756547584	68	5146
2026-01-04 13:15:19.74	312.38	12.54	-48.6	-51.5	23.0	6.07e-01	0	39	0	758120448	68	5112
2026-01-04 13:15:20.89	312.58	12.46	-48.6	-51.5	23.0	6.06e-01	0	39	0	760217600	68	5118
2026-01-04 13:15:21.75	312.72	12.41	-48.4	-51.4	23.1	6.08e-01	0	39	0	761790464	68	5069
2026-01-04 13:15:22.90	312.92	12.33	-48.5	-51.5	23.0	6.07e-01	0	39	0	763887616	68	5119
2026-01-04 13:15:23.75	313.07	12.27	-48.5	-51.4	23.1	6.08e-01	0	39	0	765460480	68	5091
2026-01-04 13:15:24.90	313.26	12.20	-48.4	-51.4	23.1	6.08e-01	0	39	0	767557632	68	5043
2026-01-04 13:15:25.76	313.41	12.14	-48.5	-51.4	23.0	6.06e-01	0	39	0	769130496	68	5096
2026-01-04 13:15:26.90	313.60	12.06	-48.5	-51.3	23.0	6.04e-01	0	39	0	771227648	68	5039
2026-01-04 13:15:27.76	313.74	12.01	-48.5	-51.3	23.1	6.07e-01	0	39	0	772800512	68	5012
2026-01-04 13:15:28.91	313.94	11.93	-48.5	-51.3	23.0	6.05e-01	0	39	0	775421952	68	5024
2026-01-04 13:15:29.77	314.08	11.87	-48.5	-51.3	23.0	6.06e-01	0	39	0	776994816	68	5004
2026-01-04 13:15:31.01	314.28	11.79	-48.5	-51.3	23.0	6.04e-01	0	39	0	779091968	68	5029
2026-01-04 13:15:31.86	314.42	11.73	-48.6	-51.3	23.0	6.08e-01	0	39	0	780664832	68	5032
2026-01-04 13:15:33.09	314.62	11.65	-48.7	-51.4	22.9	6.09e-01	0	39	0	782761984	68	5095
2026-01-04 13:15:33.95	314.76	11.60	-48.8	-51.6	22.8	6.07e-01	0	39	0	784334848	68	5196
2026-01-04 13:15:35.16	314.96	11.52	-48.6	-51.4	23.0	6.06e-01	0	39	0	786956288	68	5054
2026-01-04 13:15:36.43	315.16	11.43	-48.7	-51.4	22.9	6.08e-01	0	39	0	789053440	68	5095
2026-01-04 13:15:37.15	315.28	11.38	-48.8	-51.5	22.9	6.07e-01	0	39	0	790626304	68	5113
2026-01-04 13:15:38.44	315.49	11.30	-48.7	-51.4	23.0	6.04e-01	0	39	0	793247744	68	5076
2026-01-04 13:15:39.15	315.60	11.25	-48.7	-51.5	22.9	6.08e-01	0	39	0	794296320	68	5109
2026-01-04 13:15:40.44	315.80	11.16	-48.7	-51.4	22.9	6.06e-01	0	39	0	796917760	68	5091
2026-01-04 13:15:41.16	315.91	11.12	-48.6	-51.4	22.9	6.04e-01	0	39	0	797966336	68	5052
2026-01-04 13:15:42.45	316.12	11.03	-48.7	-51.5	22.9	6.04e-01	0	39	0	800587776	68	5124
2026-01-04 13:15:43.16	316.23	10.98	-48.7	-51.5	22.9	6.04e-01	0	39	0	802160640	68	5139
2026-01-04 13:15:44.64	316.46	10.89	-48.7	-51.6	22.8	6.02e-01	0	39	0	804782080	68	5170
2026-01-04 13:15:45.36	316.57	10.84	-48.7	-51.6	22.7	6.04e-01	0	39	0	805830656	68	5191
2026-01-04 13:15:46.65	316.77	10.75	-49.0	-51.9	22.5	6.04e-01	0	39	0	808452096	68	5393
2026-01-04 13:15:47.36	316.87	10.71	-48.9	-51.8	22.7	6.04e-01	0	39	0	810024960	68	5319
2026-01-04 13:15:48.66	317.07	10.62	-49.1	-52.1	22.4	6.03e-01	0	39	0	812122112	68	5484
2026-01-04 13:15:49.37	317.18	10.57	-49.2	-52.1	22.3	6.03e-01	0	39	0	813694976	69	5184
2026-01-04 13:15:50.66	317.37	10.49	-49.4	-52.3	22.3	6.05e-01	0	39	0	815792128	69	5332
2026-01-04 13:15:51.37	317.48	10.44	-49.3	-52.2	22.4	6.03e-01	0	39	0	817364992	69	5228
2026-01-04 13:15:52.66	317.67	10.36	-49.3	-52.2	22.4	6.03e-01	0	39	0	819462144	69	5250
2026-01-04 13:15:53.45	317.79	10.30	-49.2	-52.1	22.5	6.03e-01	0	39	0	821035008	69	5213
2026-01-04 13:15:54.60	317.96	10.23	-49.1	-52.0	22.5	6.02e-01	0	39	0	823132160	69	5155
2026-01-04 13:15:55.72	318.12	10.15	-49.0	-51.9	22.6	6.03e-01	0	39	0	825229312	69	5056
2026-01-04 13:15:56.75	318.27	10.09	-48.9	-51.9	22.6	6.03e-01	0	39	0	827326464	69	5061
2026-01-04 13:15:57.75	318.42	10.02	-48.9	-51.9	22.6	6.05e-01	0	39	0	829423616	69	5051
2026-01-04 13:15:58.75	318.56	9.96	-48.8	-51.8	22.6	6.03e-01	0	39	0	830996480	69	5014
2026-01-04 13:15:59.75	318.71	9.89	-48.8	-51.9	22.5	6.03e-01	0	39	0	833093632	69	5075
2026-01-04 13:16:00.76	318.85	9.82	-48.6	-51.7	22.7	6.05e-01	0	39	0	834666496	69	4943
2026-01-04 13:16:01.76	318.99	9.76	-48.6	-51.8	22.6	6.03e-01	0	39	0	836763648	69	4997
2026-01-04 13:16:02.77	319.14	9.69	-48.6	-51.8	22.5	6.04e-01	0	39	0	838860800	69	5038
2026-01-04 13:16:03.77	319.28	9.63	-48.5	-51.8	22.5	6.05e-01	0	39	0	840433664	69	5030
2026-01-04 13:16:04.77	319.42	9.56	-48.6	-51.9	22.4	6.04e-01	0	39	0	842530816	69	5100
2026-01-04 13:16:05.77	319.56	9.50	-48.7	-52.1	22.3	6.05e-01	0	39	0	844103680	69	5164
2026-01-04 13:16:06.77	319.70	9.43	-48.6	-52.0	22.3	6.03e-01	0	39	0	846200832	69	5138
2026-01-04 13:16:07.77	319.84	9.36	-48.6	-52.0	22.3	6.05e-01	0	39	0	847773696	69	5139
2026-01-04 13:16:08.87	319.99	9.29	-48.6	-52.1	22.2	6.04e-01	0	39	0	849870848	69	5204
2026-01-04 13:16:09.76	320.11	9.24	-48.6	-52.1	22.1	6.03e-01	0	39	0	851968000	69	5200
2026-01-04 13:16:11.06	320.29	9.15	-48.5	-52.1	22.2	6.03e-01	0	39	0	854065152	69	5170
2026-01-04 13:16:11.77	320.39	9.10	-48.5	-52.0	22.2	6.03e-01	0	39	0	855638016	68	5459
2026-01-04 13:16:13.29	320.59	9.01	-48.6	-52.1	22.2	6.06e-01	0	39	0	858259456	68	5513
2026-01-04 13:16:14.01	320.69	8.96	-53.8	-68.4	6.8	6.74e-01	0	39	0	859832320	78	20286
2026-01-04 13:16:15.30	320.86	8.88	-55.6	-75.9	3.8	7.43e-01	0	39	104	859832320	81	40328
2026-01-04 13:16:16.02	320.96	8.83	-55.5	-76.0	3.8	7.47e-01	0	39	104	859832320	81	40814
2026-01-04 13:16:17.31	321.13	8.75	-55.9	-76.1	3.8	7.46e-01	0	39	104	859832320	82	38756
2026-01-04 13:16:18.02	321.22	8.70	-54.0	-76.1	3.7	7.48e-01	0	39	104	859832320	79	46003
2026-01-04 13:16:19.32	321.39	8.62	-55.4	-76.0	3.8	7.47e-01	0	39	104	859832320	82	38672
2026-01-04 13:16:20.03	321.49	8.57	-55.9	-76.1	3.8	7.48e-01	0	39	104	859832320	82	38863
2026-01-04 13:16:21.32	321.66	8.49	-55.7	-76.1	3.8	7.44e-01	0	39	104	859832320	82	38825
2026-01-04 13:16:22.04	321.75	8.44	-55.4	-76.1	3.8	7.48e-01	0	39	104	859832320	82	39027
2026-01-04 13:16:23.33	321.92	8.36	-55.9	-76.1	3.8	7.48e-01	0	39	104	859832320	82	39030
2026-01-04 13:16:24.13	322.02	8.31	-55.7	-76.1	3.8	7.50e-01	0	39	104	859832320	82	39103
2026-01-04 13:16:25.58	322.20	8.21	-56.0	-76.1	3.8	7.47e-01	0	39	104	859832320	82	38941
2026-01-04 13:16:26.30	322.30	8.17	-54.7	-76.9	3.8	7.47e-01	0	39	104	859832320	80	47846
2026-01-04 13:16:27.78	322.48	8.07	-56.1	-76.3	3.8	7.45e-01	0	39	104	859832320	83	37490
2026-01-04 13:16:28.50	322.57	8.03	-56.2	-76.3	3.8	7.47e-01	0	39	104	859832320	83	37486
2026-01-04 13:16:29.87	322.75	7.94	-56.0	-76.2	3.8	7.46e-01	0	39	104	859832320	83	37019
2026-01-04 13:16:30.59	322.83	7.89	-55.9	-76.1	3.8	7.44e-01	0	39	104	859832320	83	36902
2026-01-04 13:16:31.88	323.00	7.81	-55.5	-76.1	3.8	7.45e-01	0	39	104	859832320	83	36615
2026-01-04 13:16:32.60	323.08	7.76	-55.9	-76.1	3.8	7.47e-01	0	39	104	859832320	82	38785
2026-01-04 13:16:33.89	323.24	7.68	-55.1	-76.1	3.8	7.44e-01	0	39	104	859832320	82	38731
2026-01-04 13:16:34.61	323.33	7.64	-55.0	-76.0	3.8	7.45e-01	0	39	104	859832320	82	38581
2026-01-04 13:16:35.90	323.49	7.56	-55.0	-76.0	3.8	7.50e-01	0	39	104	859832320	82	38485
2026-01-04 13:16:36.61	323.57	7.51	-55.0	-76.1	3.8	7.48e-01	0	39	104	859832320	82	38792
2026-01-04 13:16:37.91	323.73	7.43	-55.1	-76.1	3.8	7.45e-01	0	39	104	859832320	82	39058
2026-01-04 13:16:38.62	323.82	7.38	-55.1	-76.1	3.8	7.44e-01	0	39	104	859832320	82	38873
2026-01-04 13:16:39.90	323.97	7.30	-55.1	-76.1	3.8	7.47e-01	0	39	104	859832320	82	38771
2026-01-04 13:16:40.61	324.05	7.26	-55.1	-76.1	3.8	7.41e-01	0	39	104	859832320	82	38974
2026-01-04 13:16:41.90	324.21	7.18	-55.1	-76.1	3.8	7.48e-01	0	39	104	859832320	82	38851
2026-01-04 13:16:42.62	324.29	7.13	-55.0	-76.0	3.8	7.45e-01	0	39	104	859832320	82	38525
2026-01-04 13:16:43.91	324.44	7.05	-55.0	-76.0	3.8	7.50e-01	0	39	104	859832320	82	38583
2026-01-04 13:16:44.63	324.53	7.00	-55.0	-76.0	3.8	7.48e-01	0	39	104	859832320	82	38427
2026-01-04 13:16:45.92	324.68	6.92	-55.0	-76.0	3.8	7.48e-01	0	39	104	859832320	82	38592
2026-01-04 13:16:46.64	324.76	6.88	-55.1	-76.1	3.8	7.47e-01	0	39	104	859832320	82	38915
2026-01-04 13:16:47.93	324.91	6.80	-55.0	-76.0	3.8	7.42e-01	0	39	104	859832320	82	38582
2026-01-04 13:16:48.65	324.99	6.75	-55.0	-76.0	3.8	7.45e-01	0	39	104	859832320	82	38503
2026-01-04 13:16:49.94	325.14	6.67	-55.1	-76.0	3.8	7.45e-01	0	39	104	859832320	82	38557
2026-01-04 13:16:50.66	325.22	6.63	-55.1	-76.1	3.8	7.47e-01	0	39	104	859832320	82	38716
2026-01-04 13:16:51.95	325.37	6.55	-55.0	-76.0	3.8	7.46e-01	0	39	104	859832320	82	38568
2026-01-04 13:16:52.67	325.45	6.50	-55.2	-76.2	3.8	7.48e-01	0	39	104	859832320	82	39260
2026-01-04 13:16:53.96	325.60	6.42	-55.2	-76.1	3.8	7.46e-01	0	39	104	859832320	82	38969
2026-01-04 13:16:54.68	325.68	6.38	-55.1	-76.2	3.8	7.43e-01	0	39	104	859832320	82	39184
2026-01-04 13:16:55.97	325.82	6.30	-55.1	-76.1	3.8	7.42e-01	0	39	104	859832320	82	39037
2026-01-04 13:16:56.68	325.90	6.26	-55.1	-76.1	3.8	7.46e-01	0	39	104	859832320	82	38838
2026-01-04 13:16:57.97	326.04	6.18	-55.2	-76.1	3.8	7.45e-01	0	39	104	859832320	82	39119
2026-01-04 13:16:58.69	326.12	6.13	-55.1	-76.1	3.8	7.47e-01	0	39	104	859832320	82	39029
2026-01-04 13:16:59.98	326.26	6.05	-55.1	-76.1	3.8	7.46e-01	0	39	104	859832320	82	38770
2026-01-04 13:17:00.70	326.34	6.01	-55.1	-76.1	3.8	7.52e-01	0	39	104	859832320	82	38972
2026-01-04 13:17:01.99	326.48	5.93	-55.2	-76.1	3.8	7.47e-01	0	39	104	859832320	82	39053
2026-01-04 13:17:02.71	326.56	5.88	-55.1	-76.1	3.8	7.43e-01	0	39	104	859832320	82	38960
2026-01-04 13:17:04.00	326.70	5.81	-55.1	-76.1	3.8	7.47e-01	0	39	104	859832320	82	38780
2026-01-04 13:17:04.72	326.77	5.76	-55.0	-76.0	3.8	7.47e-01	0	39	104	859832320	82	38683
2026-01-04 13:17:06.01	326.91	5.68	-55.0	-76.0	3.8	7.48e-01	0	39	104	859832320	82	38388
2026-01-04 13:17:06.73	326.99	5.64	-55.1	-76.0	3.8	7.49e-01	0	39	104	859832320	82	38594
2026-01-04 13:17:08.02	327.12	5.56	-55.1	-76.0	3.8	7.47e-01	0	39	104	859832320	82	38613
2026-01-04 13:17:08.73	327.20	5.52	-55.1	-76.0	3.8	7.46e-01	0	39	104	859832320	82	38640
2026-01-04 13:17:10.03	327.33	5.44	-55.1	-76.0	3.8	7.43e-01	0	39	104	859832320	82	38682
2026-01-04 13:17:10.74	327.41	5.40	-55.1	-76.0	3.8	7.45e-01	0	39	104	859832320	82	38606
2026-01-04 13:17:12.03	327.54	5.32	-55.1	-76.1	3.8	7.45e-01	0	39	104	859832320	82	38823
2026-01-04 13:17:12.75	327.62	5.27	-55.0	-76.0	3.8	7.48e-01	0	39	104	859832320	82	38570
2026-01-04 13:17:14.04	327.75	5.20	-55.0	-76.0	3.8	7.44e-01	0	39	104	859832320	82	38502
2026-01-04 13:17:14.76	327.82	5.15	-55.1	-76.1	3.8	7.46e-01	0	39	104	859832320	82	38730
2026-01-04 13:17:16.05	327.95	5.08	-55.0	-76.0	3.8	7.52e-01	0	39	104	859832320	82	38528
2026-01-04 13:17:16.77	328.03	5.03	-55.0	-76.0	3.8	7.46e-01	0	39	104	859832320	82	38398
2026-01-04 13:17:18.06	328.16	4.96	-54.9	-75.9	3.8	7.46e-01	0	39	104	859832320	81	40506

#Closed at: 2026-01-04 13:17:18
#Recorded file [859 MB]: D:/Data/31040_260104_160745.dat