passes_logs/2026/01/04/T1/T1__20260104_234305_NOAA_20_JPSS-1_rec.log

#Pass ID: 20260104_234305_NOAA 20 (JPSS-1)
#Satellite: NOAA 20 (JPSS-1)
#Configuration: NOAA 20
#almurnet v.1.7.20251203
#Start time: 2026-01-04 23:43:07

#Version: 2.0.20230620
#Station: T1
#Location: 37.570604 lon 55.790049 lat
#TLE: 1 43013U 17073A   26004.47528369  .00000132  00000+0  83671-4 0  9999
#TLE: 2 43013  98.7626 305.5264 0001854  54.5883 305.5466 14.19533142421242

#Time	Az	El	Level	Level2	SNR	BER	BlckErr	Temp	State	Recorded	gain1	gain2
2026-01-04 23:43:07.28	16.15	5.13	-52.1	-67.8	3.8	1.49e+00	0	41	0	0	75	22481
2026-01-04 23:43:08.27	16.16	5.20	-52.1	-67.8	3.8	1.49e+00	0	41	104	0	74	23846
2026-01-04 23:43:09.28	16.16	5.27	-52.1	-67.9	3.8	1.49e+00	0	41	104	0	74	23990
2026-01-04 23:43:10.28	16.16	5.34	-52.1	-67.9	3.8	1.49e+00	0	41	104	0	74	23999
2026-01-04 23:43:11.29	16.16	5.41	-52.1	-67.9	3.8	1.49e+00	0	41	104	0	74	24000
2026-01-04 23:43:12.29	16.17	5.49	-52.1	-67.9	3.8	1.49e+00	0	41	104	0	74	23992
2026-01-04 23:43:13.30	16.17	5.56	-52.1	-67.9	3.8	1.49e+00	0	41	104	0	74	23908
2026-01-04 23:43:14.30	16.17	5.63	-52.1	-67.9	3.8	1.49e+00	0	41	104	0	74	23861
2026-01-04 23:43:15.30	16.17	5.70	-52.1	-67.8	3.8	1.49e+00	0	41	104	0	74	23643
2026-01-04 23:43:16.31	16.17	5.78	-52.1	-67.8	3.8	1.49e+00	0	41	104	0	74	23606
2026-01-04 23:43:17.31	16.18	5.85	-52.1	-67.7	3.8	1.49e+00	0	41	104	0	74	23481
2026-01-04 23:43:18.32	16.18	5.93	-52.1	-67.7	3.8	1.49e+00	0	41	104	0	74	23410
2026-01-04 23:43:19.32	16.18	6.00	-52.1	-67.7	3.8	1.49e+00	0	41	104	0	74	23401
2026-01-04 23:43:20.33	16.18	6.07	-52.1	-67.6	3.8	1.49e+00	0	41	104	0	74	23306
2026-01-04 23:43:21.33	16.18	6.15	-52.1	-67.7	3.8	1.49e+00	0	42	104	0	74	23373
2026-01-04 23:43:22.34	16.19	6.22	-52.1	-67.7	3.8	1.49e+00	0	41	104	0	74	23314
2026-01-04 23:43:23.34	16.19	6.30	-52.1	-67.7	3.8	1.49e+00	0	42	104	0	74	23413
2026-01-04 23:43:24.34	16.19	6.37	-52.1	-67.7	3.8	1.49e+00	0	42	104	0	74	23496
2026-01-04 23:43:25.35	16.19	6.45	-52.1	-67.7	3.8	1.49e+00	0	41	104	0	74	23454
2026-01-04 23:43:26.35	16.20	6.52	-52.1	-67.8	3.8	1.49e+00	0	42	104	0	74	23647
2026-01-04 23:43:27.36	16.20	6.60	-52.1	-67.7	3.8	1.49e+00	0	42	104	0	74	23535
2026-01-04 23:43:28.36	16.20	6.68	-52.1	-67.7	3.8	1.49e+00	0	42	104	0	74	23382
2026-01-04 23:43:29.37	16.20	6.75	-52.1	-67.6	3.8	1.49e+00	0	42	104	0	74	23234
2026-01-04 23:43:30.37	16.20	6.83	-52.1	-67.6	3.8	1.49e+00	0	42	104	0	74	23199
2026-01-04 23:43:31.38	16.21	6.91	-52.1	-67.5	3.8	1.49e+00	0	42	104	0	74	22901
2026-01-04 23:43:32.38	16.21	6.98	-52.1	-67.3	3.8	1.49e+00	0	42	104	0	74	22428
2026-01-04 23:43:33.38	16.21	7.06	-52.1	-67.2	3.8	1.49e+00	0	42	104	0	74	22050
2026-01-04 23:43:34.39	16.21	7.14	-52.1	-66.9	3.8	1.49e+00	0	42	104	0	74	21487
2026-01-04 23:43:35.39	16.21	7.21	-52.0	-66.8	3.8	1.49e+00	0	42	104	0	74	21051
2026-01-04 23:43:36.40	16.22	7.29	-52.0	-66.6	3.8	1.49e+00	0	42	104	0	74	20697
2026-01-04 23:43:37.40	16.22	7.37	-52.0	-66.4	3.8	1.49e+00	0	42	104	0	74	20299
2026-01-04 23:43:38.41	16.22	7.45	-52.0	-66.3	3.8	1.49e+00	0	42	104	0	74	20002
2026-01-04 23:43:39.41	16.22	7.53	-52.0	-66.1	3.8	1.49e+00	0	42	104	0	74	19534
2026-01-04 23:43:40.42	16.22	7.61	-52.0	-66.0	3.8	1.49e+00	0	42	104	0	74	19249
2026-01-04 23:43:41.42	16.23	7.69	-52.0	-65.7	3.9	1.48e+00	0	42	104	0	74	18646
2026-01-04 23:43:42.42	16.23	7.77	-52.0	-65.6	3.8	1.48e+00	0	42	104	0	74	18335
2026-01-04 23:43:43.43	16.23	7.85	-51.9	-65.3	3.8	1.49e+00	0	42	104	0	74	17865
2026-01-04 23:43:44.43	16.23	7.92	-51.9	-65.0	4.1	1.48e+00	0	42	0	0	74	17193
2026-01-04 23:43:45.44	16.23	8.01	-51.9	-64.8	4.0	1.47e+00	0	42	104	0	74	16856
2026-01-04 23:43:46.44	16.23	8.09	-51.9	-64.6	4.1	1.43e+00	0	42	0	0	74	16487
2026-01-04 23:43:47.45	16.24	8.17	-51.9	-64.3	4.2	1.41e+00	0	42	0	0	74	15813
2026-01-04 23:43:48.45	16.24	8.25	-51.9	-64.0	4.3	1.36e+00	0	42	0	0	74	15321
2026-01-04 23:43:49.45	16.24	8.33	-51.8	-63.6	4.4	1.29e+00	0	42	0	1048576	74	14699
2026-01-04 23:43:50.46	16.24	8.41	-51.8	-63.3	4.5	1.05e+00	0	42	0	2097152	74	14112
2026-01-04 23:43:51.46	16.24	8.49	-51.8	-62.9	4.7	8.98e-01	0	42	0	4194304	74	13502
2026-01-04 23:43:52.47	16.24	8.57	-51.7	-62.4	5.0	7.80e-01	0	42	0	6291456	74	12670
2026-01-04 23:43:53.47	16.25	8.66	-51.7	-62.0	5.2	6.72e-01	0	42	0	8388608	74	12195
2026-01-04 23:43:54.47	16.25	8.74	-51.6	-61.6	5.4	5.75e-01	0	42	0	10485760	74	11561
2026-01-04 23:43:55.48	16.25	8.82	-51.6	-61.1	5.8	4.30e-01	0	42	0	12582912	74	10952
2026-01-04 23:43:56.48	16.25	8.90	-51.5	-60.9	6.0	3.67e-01	0	42	0	13631488	74	10676
2026-01-04 23:43:57.48	16.25	8.99	-51.4	-60.5	6.2	3.16e-01	0	42	0	15728640	74	10178
2026-01-04 23:43:58.48	16.25	9.07	-51.5	-61.0	5.9	2.82e-01	0	42	0	17825792	74	10783
2026-01-04 23:43:59.49	16.26	9.15	-51.7	-61.8	5.3	4.95e-01	0	43	0	19922944	74	11933
2026-01-04 23:44:00.49	16.26	9.24	-51.6	-60.8	6.0	7.85e-01	0	43	0	20971520	74	10575
2026-01-04 23:44:01.49	16.26	9.32	-51.9	-63.8	4.4	7.81e-01	0	43	0	23068672	74	14960
2026-01-04 23:44:02.50	16.26	9.41	-51.6	-61.2	5.4	1.48e+00	0	43	104	23068672	74	11049
2026-01-04 23:44:03.50	16.26	9.49	-49.7	-54.7	12.0	6.07e-04	0	43	0	24117248	71	6261
2026-01-04 23:44:04.50	16.26	9.58	-49.6	-54.5	12.2	3.28e-04	0	43	0	26214400	71	6089
2026-01-04 23:44:05.50	16.27	9.66	-49.8	-55.0	11.7	2.43e-04	0	42	0	28311552	71	6463
2026-01-04 23:44:06.51	16.27	9.75	-49.5	-54.3	12.3	1.67e-04	0	43	0	29360128	70	6310
2026-01-04 23:44:07.51	16.27	9.83	-49.5	-54.3	12.4	1.78e-04	0	43	0	31457280	70	6321
2026-01-04 23:44:08.51	16.27	9.92	-49.2	-53.8	12.9	5.03e-05	0	43	0	33554432	70	5963
2026-01-04 23:44:09.51	16.27	10.01	-49.0	-53.4	13.3	1.60e-05	0	43	0	35651584	70	5701
2026-01-04 23:44:10.52	16.27	10.09	-48.6	-52.7	14.0	9.10e-06	0	43	0	37748736	69	5586
2026-01-04 23:44:11.52	16.27	10.18	-48.4	-52.4	14.4	4.50e-06	0	43	0	38797312	68	5658
2026-01-04 23:44:12.52	16.28	10.27	-48.3	-52.3	14.5	7.00e-07	0	43	0	40894464	68	5610
2026-01-04 23:44:13.53	16.28	10.36	-48.2	-52.2	14.6	0.00e+00	0	43	0	42991616	68	5541
2026-01-04 23:44:14.53	16.28	10.44	-48.3	-52.2	14.5	0.00e+00	0	43	0	45088768	68	5589
2026-01-04 23:44:15.53	16.28	10.53	-48.3	-52.2	14.6	0.00e+00	0	43	0	47185920	68	5568
2026-01-04 23:44:16.53	16.28	10.62	-48.4	-52.4	14.4	0.00e+00	0	43	0	48234496	68	5657
2026-01-04 23:44:17.54	16.28	10.71	-48.4	-52.3	14.5	0.00e+00	0	43	0	50331648	68	5637
2026-01-04 23:44:18.54	16.28	10.80	-48.5	-52.4	14.4	2.20e-06	0	43	0	52428800	68	5678
2026-01-04 23:44:19.54	16.29	10.89	-48.4	-52.3	14.6	1.50e-06	0	43	0	54525952	68	5607
2026-01-04 23:44:20.54	16.29	10.98	-48.3	-52.0	14.8	7.00e-07	0	43	0	56623104	68	5463
2026-01-04 23:44:21.55	16.29	11.07	-48.3	-52.1	14.7	0.00e+00	0	43	0	57671680	68	5525
2026-01-04 23:44:22.55	16.29	11.16	-48.3	-52.1	14.7	7.00e-07	0	43	0	59768832	68	5520
2026-01-04 23:44:23.55	16.29	11.25	-48.1	-51.9	14.9	0.00e+00	0	43	0	61865984	68	5370
2026-01-04 23:44:24.55	16.29	11.34	-48.1	-51.9	15.0	0.00e+00	0	43	0	63963136	68	5353
2026-01-04 23:44:25.55	16.29	11.44	-48.1	-52.0	14.8	0.00e+00	0	43	0	66060288	68	5424
2026-01-04 23:44:26.55	16.29	11.53	-48.0	-51.7	15.1	0.00e+00	0	43	0	67108864	68	5229
2026-01-04 23:44:27.55	16.30	11.62	-48.0	-51.7	15.2	0.00e+00	0	43	0	69206016	68	5223
2026-01-04 23:44:28.56	16.30	11.71	-48.1	-51.8	15.1	0.00e+00	0	43	0	71303168	68	5296
2026-01-04 23:44:29.56	16.30	11.81	-47.9	-51.6	15.1	0.00e+00	0	43	0	73400320	67	5470
2026-01-04 23:44:30.56	16.30	11.90	-47.8	-51.4	15.3	0.00e+00	0	43	0	74448896	67	5359
2026-01-04 23:44:31.56	16.30	11.99	-47.7	-51.2	15.4	0.00e+00	0	43	0	76546048	67	5273
2026-01-04 23:44:32.56	16.30	12.09	-47.6	-51.1	15.6	0.00e+00	0	43	0	78643200	67	5162
2026-01-04 23:44:33.57	16.30	12.18	-47.6	-51.1	15.6	0.00e+00	0	43	0	80740352	67	5163
2026-01-04 23:44:34.57	16.30	12.28	-47.5	-51.0	15.7	0.00e+00	0	43	0	82837504	67	5130
2026-01-04 23:44:35.57	16.30	12.37	-47.5	-51.0	15.6	0.00e+00	0	43	0	83886080	67	5149
2026-01-04 23:44:36.85	16.31	12.49	-47.5	-51.0	15.7	0.00e+00	0	43	0	87031808	67	5132
2026-01-04 23:44:37.60	16.31	12.57	-47.4	-50.9	15.9	0.00e+00	0	43	0	88080384	66	5348
2026-01-04 23:44:38.88	16.31	12.69	-47.5	-51.0	15.7	0.00e+00	0	43	0	90177536	66	5416
2026-01-04 23:44:39.60	16.31	12.76	-47.5	-50.9	15.8	0.00e+00	0	43	0	92274688	66	5354
2026-01-04 23:44:40.89	16.31	12.89	-47.5	-50.8	15.9	0.00e+00	0	43	0	94371840	66	5331
2026-01-04 23:44:41.61	16.31	12.96	-47.5	-50.8	15.9	0.00e+00	0	43	0	95420416	66	5332
2026-01-04 23:44:42.90	16.31	13.08	-47.4	-50.9	15.9	0.00e+00	0	43	0	98566144	66	5341
2026-01-04 23:44:43.61	16.31	13.15	-47.5	-50.8	15.9	0.00e+00	0	43	0	99614720	66	5309
2026-01-04 23:44:44.90	16.31	13.28	-47.4	-50.7	16.0	0.00e+00	0	43	0	101711872	66	5255
2026-01-04 23:44:45.61	16.31	13.35	-47.4	-50.7	16.0	0.00e+00	0	43	0	102760448	66	5245
2026-01-04 23:44:46.90	16.31	13.48	-47.4	-50.6	16.1	0.00e+00	0	43	0	105906176	66	5204
2026-01-04 23:44:47.62	16.31	13.55	-47.4	-50.6	16.1	0.00e+00	0	43	0	106954752	66	5215
2026-01-04 23:44:49.05	16.32	13.69	-47.5	-50.7	16.0	0.00e+00	0	43	0	110100480	66	5238
2026-01-04 23:44:49.77	16.32	13.77	-47.4	-50.5	16.2	0.00e+00	0	43	0	111149056	66	5155
2026-01-04 23:44:51.06	16.32	13.90	-47.4	-50.5	16.2	0.00e+00	0	43	0	113246208	66	5144
2026-01-04 23:44:52.11	16.32	14.00	-47.4	-50.5	16.2	0.00e+00	0	43	0	115343360	66	5149
2026-01-04 23:44:53.03	16.32	14.10	-47.4	-50.5	16.2	0.00e+00	0	43	0	117440512	66	5130
2026-01-04 23:44:54.03	16.32	14.20	-47.3	-50.4	16.4	0.00e+00	0	43	0	118489088	66	5054
2026-01-04 23:44:55.03	16.32	14.30	-47.3	-50.3	16.5	0.00e+00	0	43	0	120586240	66	5000
2026-01-04 23:44:56.03	16.32	14.41	-47.3	-50.3	16.4	0.00e+00	0	43	0	122683392	66	5034
2026-01-04 23:44:57.03	16.32	14.51	-47.4	-50.4	16.4	0.00e+00	0	43	0	124780544	66	5060
2026-01-04 23:44:58.04	16.32	14.62	-47.2	-50.2	16.6	0.00e+00	0	43	0	126877696	66	4927
2026-01-04 23:44:59.04	16.32	14.72	-47.2	-50.1	16.7	0.00e+00	0	43	0	127926272	66	4872
2026-01-04 23:45:00.04	16.32	14.83	-47.2	-50.1	16.6	0.00e+00	0	43	0	130023424	66	4896
2026-01-04 23:45:01.04	16.32	14.93	-47.2	-50.2	16.6	0.00e+00	0	43	0	132120576	66	4935
2026-01-04 23:45:02.04	16.32	15.04	-47.0	-49.9	16.9	0.00e+00	0	43	0	134217728	66	4766
2026-01-04 23:45:03.04	16.32	15.14	-47.1	-50.0	16.8	0.00e+00	0	43	0	136314880	66	4815
2026-01-04 23:45:04.05	16.32	15.25	-47.1	-50.0	16.8	0.00e+00	0	43	0	137363456	66	4831
2026-01-04 23:45:05.05	16.32	15.36	-47.0	-49.8	16.9	0.00e+00	0	43	0	139460608	66	4734
2026-01-04 23:45:06.05	16.32	15.47	-47.0	-49.8	17.0	0.00e+00	0	43	0	141557760	65	4986
2026-01-04 23:45:07.05	16.32	15.58	-47.0	-49.8	16.9	0.00e+00	0	43	0	143654912	65	5010
2026-01-04 23:45:08.05	16.32	15.69	-47.1	-49.9	16.8	0.00e+00	0	43	0	145752064	65	5067
2026-01-04 23:45:09.05	16.32	15.80	-47.1	-49.9	16.9	0.00e+00	0	43	0	146800640	65	5064
2026-01-04 23:45:10.05	16.32	15.91	-47.0	-49.7	17.0	0.00e+00	0	43	0	148897792	65	4942
2026-01-04 23:45:11.05	16.32	16.02	-46.9	-49.6	17.2	0.00e+00	0	43	0	150994944	65	4875
2026-01-04 23:45:12.15	16.32	16.14	-46.9	-49.6	17.1	0.00e+00	0	43	0	153092096	65	4916
2026-01-04 23:45:13.04	16.32	16.24	-46.9	-49.6	17.1	0.00e+00	0	43	0	154140672	65	4919
2026-01-04 23:45:14.18	16.32	16.37	-46.8	-49.5	17.3	0.00e+00	0	43	0	157286400	65	4819
2026-01-04 23:45:15.04	16.32	16.46	-47.0	-49.7	17.1	0.00e+00	0	43	0	158334976	65	4950
2026-01-04 23:45:16.19	16.32	16.59	-46.9	-49.6	17.1	0.00e+00	0	43	0	160432128	65	4904
2026-01-04 23:45:17.13	16.32	16.70	-47.0	-49.7	17.0	0.00e+00	0	43	0	162529280	65	4966
2026-01-04 23:45:18.13	16.32	16.81	-46.9	-49.7	17.1	0.00e+00	0	43	0	164626432	65	4932
2026-01-04 23:45:19.13	16.32	16.93	-46.8	-49.4	17.3	0.00e+00	0	43	0	165675008	65	4814
2026-01-04 23:45:20.13	16.32	17.04	-46.7	-49.3	17.4	0.00e+00	0	43	0	167772160	65	4758
2026-01-04 23:45:21.14	16.32	17.16	-46.8	-49.4	17.3	0.00e+00	0	43	0	169869312	65	4803
2026-01-04 23:45:22.46	16.32	17.31	-46.8	-49.4	17.3	0.00e+00	0	43	0	171966464	65	4807
2026-01-04 23:45:23.21	16.32	17.40	-46.7	-49.4	17.4	0.00e+00	0	43	0	174063616	65	4770
2026-01-04 23:45:24.49	16.32	17.55	-46.7	-49.3	17.4	0.00e+00	0	43	0	176160768	65	4751
2026-01-04 23:45:25.21	16.32	17.64	-46.7	-49.4	17.4	0.00e+00	0	43	0	177209344	65	4775
2026-01-04 23:45:26.49	16.32	17.79	-46.7	-49.4	17.4	0.00e+00	0	43	0	180355072	65	4781
2026-01-04 23:45:27.21	16.32	17.88	-46.8	-49.4	17.3	0.00e+00	0	43	0	181403648	65	4800
2026-01-04 23:45:28.50	16.32	18.03	-46.6	-49.2	17.5	0.00e+00	0	43	0	183500800	65	4694
2026-01-04 23:45:29.22	16.32	18.12	-46.6	-49.2	17.6	0.00e+00	0	43	0	184549376	65	4672
2026-01-04 23:45:30.55	16.32	18.28	-46.6	-49.1	17.6	0.00e+00	0	43	0	187695104	65	4642
2026-01-04 23:45:31.27	16.32	18.37	-46.5	-49.1	17.6	0.00e+00	0	43	0	188743680	65	4633
2026-01-04 23:45:32.56	16.32	18.52	-46.6	-49.2	17.6	0.00e+00	0	43	0	190840832	65	4664
2026-01-04 23:45:33.29	16.32	18.61	-46.6	-49.2	17.6	0.00e+00	0	43	0	192937984	65	4688
2026-01-04 23:45:34.67	16.32	18.78	-46.5	-49.1	17.7	0.00e+00	0	43	0	195035136	65	4616
2026-01-04 23:45:35.38	16.32	18.87	-46.5	-49.0	17.8	0.00e+00	0	43	0	196083712	64	4838
2026-01-04 23:45:36.75	16.32	19.04	-46.4	-49.0	17.8	0.00e+00	0	43	0	199229440	64	4823
2026-01-04 23:45:37.46	16.32	19.13	-46.5	-49.0	17.7	0.00e+00	0	43	0	200278016	64	4848
2026-01-04 23:45:38.75	16.31	19.30	-46.4	-48.9	17.8	0.00e+00	0	43	0	202375168	64	4791
2026-01-04 23:45:39.47	16.31	19.39	-46.4	-48.9	17.8	0.00e+00	0	43	0	204472320	64	4783
2026-01-04 23:45:40.76	16.31	19.55	-46.4	-48.9	17.8	0.00e+00	0	43	0	206569472	64	4804
2026-01-04 23:45:41.47	16.31	19.64	-46.4	-49.0	17.8	0.00e+00	0	43	0	207618048	64	4843
2026-01-04 23:45:42.76	16.31	19.81	-46.4	-49.0	17.8	0.00e+00	0	43	0	210763776	64	4829
2026-01-04 23:45:43.50	16.31	19.91	-46.3	-48.9	17.9	0.00e+00	0	43	0	211812352	64	4783
2026-01-04 23:45:44.78	16.31	20.07	-46.3	-48.9	17.8	0.00e+00	0	43	0	213909504	64	4805
2026-01-04 23:45:45.50	16.31	20.17	-46.4	-49.0	17.8	0.00e+00	0	43	0	214958080	64	4842
2026-01-04 23:45:46.79	16.31	20.34	-46.2	-48.8	17.9	0.00e+00	0	43	0	218103808	64	4740
2026-01-04 23:45:47.50	16.31	20.43	-46.2	-48.8	18.0	0.00e+00	0	43	0	219152384	64	4719
2026-01-04 23:45:48.79	16.30	20.60	-46.3	-48.9	17.9	0.00e+00	0	43	0	221249536	64	4783
2026-01-04 23:45:49.50	16.30	20.70	-46.3	-48.9	17.9	0.00e+00	0	43	0	223346688	64	4788
2026-01-04 23:45:50.79	16.30	20.87	-46.3	-49.0	17.8	0.00e+00	0	43	0	225443840	64	4824
2026-01-04 23:45:51.51	16.30	20.97	-46.4	-49.0	17.7	0.00e+00	0	43	0	226492416	64	4870
2026-01-04 23:45:52.79	16.30	21.14	-46.2	-48.9	17.9	0.00e+00	0	43	0	229638144	64	4763
2026-01-04 23:45:53.51	16.30	21.24	-46.3	-49.0	17.8	0.00e+00	0	43	0	230686720	64	4823
2026-01-04 23:45:54.79	16.30	21.42	-46.3	-48.9	17.9	0.00e+00	0	43	0	232783872	64	4809
2026-01-04 23:45:55.51	16.29	21.52	-46.2	-48.8	18.0	0.00e+00	0	43	0	233832448	64	4722
2026-01-04 23:45:56.80	16.29	21.70	-46.3	-48.9	17.9	0.00e+00	0	43	0	236978176	64	4762
2026-01-04 23:45:57.52	16.29	21.80	-46.4	-49.0	17.8	0.00e+00	0	43	0	238026752	64	4832
2026-01-04 23:45:58.80	16.29	21.98	-46.2	-48.8	18.0	0.00e+00	0	43	0	240123904	64	4736
2026-01-04 23:45:59.57	16.29	22.09	-46.2	-48.8	18.0	0.00e+00	0	43	0	242221056	64	4731
2026-01-04 23:46:00.85	16.29	22.27	-46.3	-48.9	17.9	0.00e+00	0	43	0	243269632	64	4767
2026-01-04 23:46:01.70	16.28	22.39	-46.4	-48.9	17.9	0.00e+00	0	43	0	245366784	64	4803
2026-01-04 23:46:02.84	16.28	22.55	-46.3	-48.8	18.0	0.00e+00	0	43	0	248512512	64	4738
2026-01-04 23:46:03.70	16.28	22.68	-46.2	-48.7	18.1	0.00e+00	0	44	0	249561088	64	4694
2026-01-04 23:46:04.83	16.28	22.84	-46.2	-48.7	18.1	0.00e+00	0	43	0	251658240	64	4696
2026-01-04 23:46:05.68	16.28	22.97	-46.2	-48.7	18.1	0.00e+00	0	43	0	253755392	64	4682
2026-01-04 23:46:06.83	16.27	23.13	-46.2	-48.8	18.0	0.00e+00	0	43	0	255852544	64	4737
2026-01-04 23:46:07.68	16.27	23.26	-46.3	-48.9	17.9	0.00e+00	0	43	0	256901120	64	4765
2026-01-04 23:46:08.82	16.27	23.43	-46.2	-48.8	18.1	0.00e+00	0	43	0	258998272	64	4710
2026-01-04 23:46:09.68	16.27	23.56	-46.2	-48.8	18.0	0.00e+00	0	43	0	261095424	64	4727
2026-01-04 23:46:10.82	16.26	23.73	-46.3	-48.9	17.9	0.00e+00	0	43	0	263192576	64	4786
2026-01-04 23:46:11.67	16.26	23.86	-46.1	-48.7	18.1	0.00e+00	0	43	0	264241152	64	4685
2026-01-04 23:46:12.81	16.26	24.03	-46.2	-48.8	18.1	0.00e+00	0	43	0	266338304	64	4707
2026-01-04 23:46:13.67	16.26	24.16	-46.3	-49.0	17.9	0.00e+00	0	43	0	268435456	64	4818
2026-01-04 23:46:14.80	16.25	24.34	-46.3	-48.9	18.0	0.00e+00	0	43	0	270532608	64	4780
2026-01-04 23:46:15.66	16.25	24.47	-46.3	-48.9	17.9	0.00e+00	0	43	0	271581184	64	4783
2026-01-04 23:46:16.79	16.25	24.65	-46.4	-49.1	17.8	0.00e+00	0	43	0	273678336	64	4872
2026-01-04 23:46:17.65	16.25	24.78	-46.4	-49.0	17.8	0.00e+00	0	43	0	275775488	64	4858
2026-01-04 23:46:18.79	16.24	24.96	-46.6	-49.2	17.6	0.00e+00	0	44	0	277872640	64	4971
2026-01-04 23:46:19.64	16.24	25.10	-46.5	-49.2	17.7	0.00e+00	0	43	0	279969792	64	4938
2026-01-04 23:46:20.78	16.24	25.28	-46.5	-49.2	17.7	0.00e+00	0	43	0	282066944	64	4947
2026-01-04 23:46:21.64	16.23	25.42	-46.6	-49.3	17.6	0.00e+00	0	43	0	283115520	64	5002
2026-01-04 23:46:22.78	16.23	25.60	-46.7	-49.4	17.5	0.00e+00	0	43	0	285212672	64	5083
2026-01-04 23:46:23.63	16.23	25.74	-46.8	-49.4	17.4	0.00e+00	0	43	0	287309824	64	5095
2026-01-04 23:46:24.77	16.22	25.93	-46.9	-49.7	17.2	0.00e+00	0	43	0	289406976	64	5220
2026-01-04 23:46:25.63	16.22	26.07	-47.0	-49.6	17.3	0.00e+00	0	43	0	290455552	64	5217
2026-01-04 23:46:26.77	16.22	26.26	-47.1	-49.8	17.1	0.00e+00	0	43	0	292552704	64	5322
2026-01-04 23:46:27.63	16.21	26.40	-47.3	-50.0	16.9	0.00e+00	0	43	0	294649856	65	5155
2026-01-04 23:46:28.77	16.21	26.59	-47.4	-50.2	16.7	0.00e+00	0	43	0	296747008	65	5275
2026-01-04 23:46:29.63	16.21	26.74	-47.3	-50.1	16.8	0.00e+00	0	44	0	297795584	65	5214
2026-01-04 23:46:30.77	16.20	26.93	-47.4	-50.2	16.7	0.00e+00	0	43	0	299892736	65	5259
2026-01-04 23:46:31.62	16.20	27.08	-47.4	-50.2	16.7	0.00e+00	0	43	0	301989888	65	5238
2026-01-04 23:46:32.76	16.19	27.27	-47.5	-50.4	16.5	0.00e+00	0	43	0	304087040	65	5394
2026-01-04 23:46:33.62	16.19	27.42	-47.6	-50.6	16.4	0.00e+00	0	43	0	305135616	65	5471
2026-01-04 23:46:34.76	16.19	27.62	-47.7	-50.6	16.3	0.00e+00	0	44	0	308281344	66	5218
2026-01-04 23:46:35.61	16.18	27.77	-47.9	-50.9	16.1	0.00e+00	0	43	0	309329920	66	5374
2026-01-04 23:46:36.75	16.18	27.97	-47.9	-51.0	16.0	0.00e+00	0	44	0	311427072	66	5406
2026-01-04 23:46:37.61	16.17	28.12	-48.1	-51.1	15.9	0.00e+00	0	43	0	313524224	66	5519
2026-01-04 23:46:38.75	16.17	28.33	-48.2	-51.4	15.6	0.00e+00	0	43	0	315621376	67	5347
2026-01-04 23:46:39.60	16.16	28.48	-48.2	-51.3	15.6	0.00e+00	0	44	0	316669952	67	5320
2026-01-04 23:46:40.75	16.16	28.69	-48.4	-51.8	15.2	0.00e+00	0	44	0	318767104	67	5597
2026-01-04 23:46:41.60	16.15	28.84	-48.4	-51.7	15.3	0.00e+00	0	43	0	320864256	67	5541
2026-01-04 23:46:42.74	16.15	29.05	-48.4	-51.8	15.1	0.00e+00	0	43	0	322961408	67	5653
2026-01-04 23:46:43.59	16.15	29.21	-48.6	-52.1	14.8	0.00e+00	0	43	0	324009984	67	5837
2026-01-04 23:46:44.73	16.14	29.42	-48.7	-52.3	14.7	0.00e+00	0	43	0	326107136	67	5934
2026-01-04 23:46:45.57	16.13	29.58	-48.9	-52.5	14.7	7.00e-07	0	44	0	328204288	68	5727
2026-01-04 23:46:46.71	16.13	29.79	-48.9	-52.5	14.7	7.00e-07	0	44	0	330301440	68	5739
2026-01-04 23:46:47.56	16.12	29.95	-48.9	-52.5	14.7	0.00e+00	0	43	0	331350016	68	5768
2026-01-04 23:46:48.70	16.12	30.17	-48.9	-52.6	14.6	0.00e+00	0	43	0	333447168	68	5816
2026-01-04 23:46:49.56	16.11	30.34	-48.9	-52.6	14.6	7.00e-07	0	43	0	335544320	68	5830
2026-01-04 23:46:50.70	16.11	30.56	-49.0	-52.7	14.5	7.00e-07	0	44	0	337641472	68	5892
2026-01-04 23:46:51.54	16.10	30.72	-48.9	-52.7	14.5	7.00e-07	0	44	0	339738624	68	5880
2026-01-04 23:46:52.68	16.10	30.95	-49.0	-52.7	14.5	7.00e-07	0	44	0	341835776	68	5921
2026-01-04 23:46:53.54	16.09	31.12	-48.9	-52.6	14.5	7.00e-07	0	43	0	342884352	68	5836
2026-01-04 23:46:54.68	16.08	31.34	-49.0	-52.7	14.5	0.00e+00	0	43	0	344981504	68	5881
2026-01-04 23:46:55.54	16.08	31.51	-49.0	-52.7	14.5	7.00e-07	0	43	0	347078656	68	5908
2026-01-04 23:46:56.67	16.07	31.74	-49.1	-52.8	14.4	7.00e-07	0	43	0	349175808	68	5934
2026-01-04 23:46:57.53	16.06	31.92	-49.2	-52.9	14.3	0.00e+00	0	44	0	350224384	69	5663
2026-01-04 23:46:58.67	16.06	32.15	-49.1	-52.6	14.6	0.00e+00	0	44	0	352321536	69	5518
2026-01-04 23:46:59.53	16.05	32.33	-49.0	-52.4	14.7	0.00e+00	0	43	0	354418688	69	5402
2026-01-04 23:47:00.67	16.04	32.56	-49.0	-52.5	14.7	0.00e+00	0	44	0	356515840	69	5428
2026-01-04 23:47:01.53	16.04	32.74	-48.9	-52.3	14.8	0.00e+00	0	44	0	357564416	69	5332
2026-01-04 23:47:02.67	16.03	32.98	-48.9	-52.3	14.9	0.00e+00	0	43	0	360710144	69	5282
2026-01-04 23:47:03.53	16.02	33.16	-48.8	-52.1	15.1	0.00e+00	0	43	0	361758720	69	5204
2026-01-04 23:47:04.67	16.01	33.41	-48.7	-52.0	15.2	0.00e+00	0	43	0	363855872	69	5156
2026-01-04 23:47:05.52	16.01	33.59	-48.4	-51.6	15.6	0.00e+00	0	44	0	365953024	68	5164
2026-01-04 23:47:06.67	16.00	33.84	-48.1	-51.2	16.0	0.00e+00	0	44	0	368050176	68	4941
2026-01-04 23:47:07.52	15.99	34.02	-48.1	-51.1	16.1	0.00e+00	0	44	0	369098752	68	4888
2026-01-04 23:47:08.67	15.98	34.27	-47.8	-50.8	16.3	0.00e+00	0	43	0	371195904	67	4998
2026-01-04 23:47:09.53	15.97	34.46	-47.5	-50.3	16.7	0.00e+00	0	44	0	373293056	66	5034
2026-01-04 23:47:10.67	15.96	34.72	-47.2	-49.9	17.1	0.00e+00	0	43	0	375390208	66	4797
2026-01-04 23:47:11.52	15.96	34.91	-46.9	-49.7	17.3	0.00e+00	0	44	0	376438784	65	4928
2026-01-04 23:47:12.66	15.95	35.16	-46.6	-49.2	17.7	0.00e+00	0	43	0	378535936	65	4701
2026-01-04 23:47:13.52	15.94	35.36	-46.6	-49.2	17.7	0.00e+00	0	44	0	380633088	65	4671
2026-01-04 23:47:14.66	15.93	35.62	-46.4	-48.9	17.9	0.00e+00	0	44	0	382730240	64	4802
2026-01-04 23:47:15.52	15.92	35.82	-46.2	-48.8	18.1	0.00e+00	0	43	0	384827392	64	4714
2026-01-04 23:47:16.66	15.91	36.08	-46.1	-48.6	18.4	0.00e+00	0	44	0	385875968	64	4603
2026-01-04 23:47:17.52	15.90	36.28	-46.1	-48.6	18.3	0.00e+00	0	44	0	387973120	64	4648
2026-01-04 23:47:18.66	15.89	36.55	-46.1	-48.6	18.4	0.00e+00	0	44	0	390070272	63	4882
2026-01-04 23:47:19.52	15.88	36.75	-46.1	-48.5	18.4	0.00e+00	0	44	0	392167424	63	4868
2026-01-04 23:47:20.67	15.87	37.03	-45.9	-48.3	18.7	0.00e+00	0	44	0	394264576	63	4718
2026-01-04 23:47:21.52	15.86	37.23	-45.9	-48.3	18.6	0.00e+00	0	44	0	395313152	63	4739
2026-01-04 23:47:22.67	15.85	37.51	-45.7	-48.1	18.8	0.00e+00	0	43	0	397410304	63	4650
2026-01-04 23:47:23.52	15.84	37.72	-45.8	-48.2	18.8	0.00e+00	0	43	0	399507456	63	4680
2026-01-04 23:47:24.67	15.83	38.00	-45.7	-48.1	18.9	0.00e+00	0	43	0	401604608	63	4622
2026-01-04 23:47:25.53	15.82	38.22	-45.6	-48.0	19.0	0.00e+00	0	44	0	402653184	63	4561
2026-01-04 23:47:26.67	15.80	38.50	-45.8	-48.2	18.8	0.00e+00	0	43	0	404750336	63	4670
2026-01-04 23:47:27.53	15.79	38.72	-45.6	-47.9	19.0	0.00e+00	0	43	0	406847488	63	4525
2026-01-04 23:47:28.67	15.78	39.01	-45.6	-47.9	19.1	0.00e+00	0	43	0	408944640	63	4528
2026-01-04 23:47:29.53	15.77	39.23	-45.6	-47.8	19.1	0.00e+00	0	44	0	411041792	63	4491
2026-01-04 23:47:30.68	15.75	39.52	-45.6	-47.9	19.1	0.00e+00	0	44	0	413138944	63	4503
2026-01-04 23:47:31.53	15.74	39.74	-45.5	-47.8	19.1	0.00e+00	0	44	0	414187520	63	4490
2026-01-04 23:47:32.68	15.73	40.04	-45.5	-47.9	19.1	0.00e+00	0	44	0	416284672	62	4766
2026-01-04 23:47:33.53	15.72	40.27	-45.5	-47.8	19.2	0.00e+00	0	44	0	418381824	62	4727
2026-01-04 23:47:34.68	15.70	40.57	-45.5	-47.8	19.2	0.00e+00	0	43	0	420478976	62	4752
2026-01-04 23:47:35.53	15.69	40.80	-45.5	-47.8	19.2	0.00e+00	0	43	0	421527552	62	4743
2026-01-04 23:47:36.67	15.67	41.10	-45.6	-48.0	19.0	0.00e+00	0	44	0	423624704	62	4818
2026-01-04 23:47:37.53	15.66	41.34	-45.8	-48.1	18.9	0.00e+00	0	44	0	425721856	62	4923
2026-01-04 23:47:38.67	15.64	41.65	-45.6	-47.9	19.0	0.00e+00	0	44	0	427819008	62	4812
2026-01-04 23:47:39.53	15.63	41.88	-45.7	-48.0	19.0	0.00e+00	0	43	0	428867584	62	4830
2026-01-04 23:47:40.68	15.61	42.20	-45.7	-48.0	19.0	0.00e+00	0	43	0	430964736	62	4834
2026-01-04 23:47:41.53	15.60	42.44	-45.7	-48.0	19.0	0.00e+00	0	43	0	433061888	62	4820
2026-01-04 23:47:42.67	15.58	42.76	-45.7	-48.0	19.0	0.00e+00	0	44	0	435159040	62	4852
2026-01-04 23:47:43.53	15.56	43.00	-45.7	-48.0	18.9	0.00e+00	0	43	0	437256192	62	4860
2026-01-04 23:47:44.67	15.55	43.33	-45.7	-48.0	19.0	0.00e+00	0	43	0	439353344	62	4846
2026-01-04 23:47:45.53	15.53	43.58	-45.9	-48.2	18.8	0.00e+00	0	43	0	440401920	62	4952
2026-01-04 23:47:46.67	15.51	43.91	-46.2	-48.6	18.4	0.00e+00	0	43	0	442499072	63	4898
2026-01-04 23:47:47.53	15.49	44.16	-46.6	-49.2	17.9	0.00e+00	0	44	0	444596224	63	5231
2026-01-04 23:47:48.67	15.47	44.50	-47.1	-49.7	17.3	0.00e+00	0	44	0	446693376	64	5277
2026-01-04 23:47:49.53	15.46	44.75	-47.4	-50.3	16.9	0.00e+00	0	43	0	447741952	65	5293
2026-01-04 23:47:50.67	15.44	45.09	-47.8	-50.7	16.4	0.00e+00	0	43	0	449839104	66	5255
2026-01-04 23:47:51.53	15.42	45.35	-47.8	-50.8	16.2	0.00e+00	0	43	0	451936256	66	5312
2026-01-04 23:47:52.68	15.39	45.70	-48.1	-51.2	15.9	0.00e+00	0	44	0	454033408	66	5546
2026-01-04 23:47:53.54	15.38	45.96	-48.1	-51.1	16.0	0.00e+00	0	44	0	455081984	66	5507
2026-01-04 23:47:54.68	15.35	46.31	-48.3	-51.4	15.7	0.00e+00	0	43	0	458227712	67	5342
2026-01-04 23:47:55.54	15.33	46.58	-48.1	-51.1	16.0	0.00e+00	0	43	0	459276288	67	5204
2026-01-04 23:47:56.68	15.31	46.94	-48.0	-51.1	16.0	0.00e+00	0	43	0	461373440	67	5164
2026-01-04 23:47:57.54	15.29	47.21	-48.2	-51.3	15.7	0.00e+00	0	44	0	463470592	67	5304
2026-01-04 23:47:58.69	15.26	47.57	-48.2	-51.2	15.8	0.00e+00	0	43	0	465567744	67	5279
2026-01-04 23:47:59.55	15.24	47.85	-48.2	-51.3	15.7	0.00e+00	0	43	0	466616320	67	5333
2026-01-04 23:48:00.69	15.21	48.21	-48.3	-51.4	15.7	0.00e+00	0	43	0	468713472	67	5372
2026-01-04 23:48:01.55	15.19	48.49	-48.2	-51.3	15.8	0.00e+00	0	43	0	470810624	67	5320
2026-01-04 23:48:02.70	15.16	48.87	-48.3	-51.3	15.7	0.00e+00	0	43	0	472907776	67	5327
2026-01-04 23:48:03.56	15.14	49.15	-48.3	-51.4	15.7	0.00e+00	0	44	0	473956352	67	5397
2026-01-04 23:48:04.70	15.11	49.53	-48.3	-51.4	15.7	0.00e+00	0	43	0	476053504	67	5394
2026-01-04 23:48:05.55	15.09	49.82	-48.2	-51.3	15.9	0.00e+00	0	44	0	478150656	67	5316
2026-01-04 23:48:06.70	15.05	50.20	-48.0	-51.0	16.0	0.00e+00	0	43	0	480247808	67	5147
2026-01-04 23:48:07.56	15.03	50.50	-47.8	-50.8	16.3	0.00e+00	0	44	0	481296384	67	5025
2026-01-04 23:48:08.70	14.99	50.89	-47.2	-49.9	17.1	0.00e+00	0	44	0	484442112	66	4807
2026-01-04 23:48:09.56	14.97	51.18	-47.0	-49.7	17.3	0.00e+00	0	44	0	485490688	66	4683
2026-01-04 23:48:10.71	14.93	51.58	-46.3	-48.7	18.3	0.00e+00	0	44	0	487587840	64	4677
2026-01-04 23:48:11.56	14.90	51.88	-46.1	-48.5	18.5	0.00e+00	0	44	0	489684992	63	4868
2026-01-04 23:48:12.70	14.87	52.28	-45.5	-47.8	19.2	0.00e+00	0	44	0	491782144	63	4455
2026-01-04 23:48:13.56	14.84	52.58	-45.2	-47.4	19.6	0.00e+00	0	44	0	492830720	62	4516
2026-01-04 23:48:14.70	14.80	52.99	-45.3	-47.5	19.5	0.00e+00	0	44	0	494927872	62	4580
2026-01-04 23:48:15.56	14.77	53.30	-45.2	-47.4	19.6	0.00e+00	0	43	0	497025024	62	4518
2026-01-04 23:48:16.70	14.73	53.71	-45.1	-47.3	19.6	0.00e+00	0	44	0	499122176	62	4481
2026-01-04 23:48:17.56	14.69	54.03	-45.1	-47.3	19.7	0.00e+00	0	44	0	500170752	62	4458
2026-01-04 23:48:18.71	14.65	54.45	-44.8	-46.9	19.9	0.00e+00	0	43	0	502267904	61	4541
2026-01-04 23:48:19.57	14.61	54.77	-44.6	-46.7	20.2	0.00e+00	0	44	0	504365056	61	4411
2026-01-04 23:48:20.71	14.57	55.19	-45.0	-47.1	19.8	0.00e+00	0	43	0	506462208	61	4649
2026-01-04 23:48:21.57	14.53	55.52	-45.5	-47.8	19.3	0.00e+00	0	43	0	508559360	61	4984
2026-01-04 23:48:22.72	14.48	55.95	-46.2	-48.6	18.5	0.00e+00	0	44	0	510656512	63	4875
2026-01-04 23:48:23.57	14.44	56.28	-46.6	-49.2	17.8	0.00e+00	0	44	0	511705088	64	4935
2026-01-04 23:48:24.72	14.39	56.72	-47.4	-50.1	16.9	0.00e+00	0	44	0	513802240	65	5211
2026-01-04 23:48:25.57	14.35	57.05	-47.9	-50.8	16.3	0.00e+00	0	44	0	515899392	66	5338
2026-01-04 23:48:26.72	14.29	57.49	-48.1	-51.1	15.9	0.00e+00	0	44	0	517996544	67	5212
2026-01-04 23:48:27.58	14.25	57.83	-48.2	-51.2	15.9	0.00e+00	0	43	0	519045120	67	5258
2026-01-04 23:48:28.72	14.19	58.28	-47.9	-50.9	16.2	0.00e+00	0	44	0	521142272	67	5060
2026-01-04 23:48:29.58	14.14	58.62	-47.9	-50.9	16.2	0.00e+00	0	43	0	523239424	67	5059
2026-01-04 23:48:30.72	14.08	59.07	-47.8	-50.6	16.5	0.00e+00	0	44	0	525336576	67	4919
2026-01-04 23:48:31.58	14.03	59.42	-47.5	-50.3	16.7	0.00e+00	0	44	0	527433728	67	4739
2026-01-04 23:48:32.73	13.96	59.89	-47.2	-49.9	17.2	0.00e+00	0	44	0	529530880	66	4790
2026-01-04 23:48:33.58	13.91	60.23	-46.9	-49.5	17.5	0.00e+00	0	43	0	530579456	65	4846
2026-01-04 23:48:34.73	13.83	60.70	-46.3	-48.7	18.2	0.00e+00	0	44	0	532676608	64	4699
2026-01-04 23:48:35.59	13.78	61.06	-46.0	-48.3	18.6	0.00e+00	0	44	0	534773760	64	4488
2026-01-04 23:48:36.74	13.70	61.53	-45.6	-47.8	19.2	0.00e+00	0	44	0	536870912	63	4464
2026-01-04 23:48:37.59	13.64	61.89	-45.2	-47.4	19.6	0.00e+00	0	43	0	537919488	62	4515
2026-01-04 23:48:38.74	13.56	62.37	-44.9	-47.0	19.9	0.00e+00	0	44	0	540016640	61	4576
2026-01-04 23:48:39.60	13.49	62.74	-44.8	-46.9	20.0	0.00e+00	0	44	0	542113792	61	4503
2026-01-04 23:48:40.74	13.40	63.22	-45.0	-47.2	19.7	0.00e+00	0	44	0	544210944	61	4667
2026-01-04 23:48:41.60	13.33	63.59	-45.1	-47.3	19.6	0.00e+00	0	44	0	545259520	61	4740
2026-01-04 23:48:42.74	13.23	64.08	-45.6	-47.9	19.2	0.00e+00	0	43	0	547356672	61	5077
2026-01-04 23:48:43.60	13.16	64.45	-45.8	-48.1	19.0	0.00e+00	0	43	0	549453824	62	4880
2026-01-04 23:48:44.75	13.05	64.95	-46.5	-49.0	18.1	0.00e+00	0	44	0	551550976	63	5107
2026-01-04 23:48:45.61	12.97	65.33	-46.9	-49.5	17.5	0.00e+00	0	44	0	553648128	64	5109
2026-01-04 23:48:46.75	12.85	65.83	-47.0	-49.6	17.4	0.00e+00	0	44	0	555745280	64	5167
2026-01-04 23:48:47.61	12.76	66.21	-47.2	-49.8	17.1	0.00e+00	0	44	0	556793856	65	5034
2026-01-04 23:48:48.75	12.64	66.72	-47.4	-50.1	16.9	0.00e+00	0	44	0	558891008	65	5210
2026-01-04 23:48:49.61	12.54	67.10	-47.6	-50.4	16.6	0.00e+00	0	44	0	560988160	65	5367
2026-01-04 23:48:50.75	12.41	67.62	-47.6	-50.4	16.5	0.00e+00	0	43	0	563085312	66	5067
2026-01-04 23:48:51.61	12.30	68.00	-47.8	-50.7	16.3	0.00e+00	0	44	0	564133888	66	5257
2026-01-04 23:48:52.75	12.15	68.52	-48.1	-51.2	15.8	0.00e+00	0	44	0	566231040	66	5592
2026-01-04 23:48:53.61	12.04	68.92	-48.4	-51.6	15.5	0.00e+00	0	44	0	568328192	67	5494
2026-01-04 23:48:54.76	11.87	69.44	-49.0	-52.4	14.9	0.00e+00	0	44	0	570425344	68	5674
2026-01-04 23:48:55.61	11.75	69.83	-49.3	-52.8	14.5	0.00e+00	0	44	0	571473920	69	5613
2026-01-04 23:48:56.76	11.56	70.37	-49.0	-52.2	15.1	0.00e+00	0	44	0	573571072	69	5268
2026-01-04 23:48:57.61	11.42	70.76	-48.7	-51.9	15.4	0.00e+00	0	43	0	575668224	69	5081
2026-01-04 23:48:58.76	11.22	71.30	-48.2	-51.3	16.0	0.00e+00	0	44	0	577765376	68	4989
2026-01-04 23:48:59.61	11.06	71.70	-48.0	-50.9	16.3	0.00e+00	0	44	0	579862528	68	4800
2026-01-04 23:49:00.76	10.84	72.24	-48.1	-51.1	16.2	0.00e+00	0	44	0	581959680	68	4877
2026-01-04 23:49:01.62	10.66	72.64	-48.7	-51.9	15.4	0.00e+00	0	43	0	583008256	68	5384
2026-01-04 23:49:02.76	10.41	73.19	-49.2	-52.7	14.6	0.00e+00	0	44	0	585105408	69	5554
2026-01-04 23:49:03.62	10.21	73.59	-49.2	-52.7	14.6	0.00e+00	0	44	0	587202560	69	5567
2026-01-04 23:49:04.76	9.93	74.14	-49.5	-53.3	14.0	1.50e-06	0	44	0	589299712	69	5944
2026-01-04 23:49:05.62	9.70	74.55	-49.8	-53.8	13.6	9.90e-06	0	43	0	590348288	70	5972
2026-01-04 23:49:06.76	9.38	75.10	-49.7	-53.6	13.6	1.29e-05	0	44	0	592445440	70	5820
2026-01-04 23:49:07.63	9.12	75.52	-49.8	-53.7	13.7	7.60e-06	0	44	0	594542592	70	5871
2026-01-04 23:49:08.77	8.75	76.07	-49.9	-53.9	13.4	2.13e-05	0	44	0	596639744	70	6014
2026-01-04 23:49:09.63	8.45	76.49	-49.8	-53.6	13.6	1.90e-05	0	43	0	598736896	70	5818
2026-01-04 23:49:10.77	8.02	77.04	-49.8	-53.7	13.5	1.52e-05	0	44	0	600834048	70	5896
2026-01-04 23:49:11.63	7.67	77.46	-50.2	-54.6	12.7	2.82e-05	0	44	0	601882624	71	6147
2026-01-04 23:49:12.77	7.17	78.02	-50.1	-54.4	12.8	1.65e-04	0	44	0	603979776	71	6041
2026-01-04 23:49:13.64	6.75	78.44	-49.8	-53.8	13.4	2.44e-05	0	44	0	606076928	71	5619
2026-01-04 23:49:14.78	6.16	79.00	-49.1	-52.5	14.7	3.00e-06	0	44	0	608174080	70	5151
2026-01-04 23:49:15.64	5.67	79.42	-48.4	-51.4	15.9	0.00e+00	0	44	0	609222656	68	5081
2026-01-04 23:49:16.78	4.95	79.98	-47.9	-50.8	16.2	0.00e+00	0	44	0	611319808	67	5016
2026-01-04 23:49:17.64	4.35	80.40	-47.8	-50.7	16.4	0.00e+00	0	44	0	613416960	67	4962
2026-01-04 23:49:18.78	3.47	80.95	-47.9	-50.8	16.3	0.00e+00	0	44	0	615514112	67	5029
2026-01-04 23:49:19.64	2.73	81.37	-48.6	-51.9	15.2	0.00e+00	0	44	0	616562688	67	5667
2026-01-04 23:49:20.78	1.63	81.93	-49.7	-53.5	13.9	7.00e-07	0	44	0	618659840	69	6084
2026-01-04 23:49:21.64	0.69	82.35	-50.0	-53.9	13.5	1.14e-05	0	44	0	620756992	70	6024
2026-01-04 23:49:22.78	359.27	82.90	-48.7	-51.9	15.3	7.00e-07	0	44	0	622854144	69	5046
2026-01-04 23:49:23.64	358.04	83.31	-48.0	-51.0	16.2	0.00e+00	0	43	0	624951296	68	4855
2026-01-04 23:49:24.79	356.15	83.86	-45.7	-48.1	18.9	0.00e+00	0	44	0	627048448	63	4608
2026-01-04 23:49:25.65	354.49	84.27	-44.7	-46.9	20.0	0.00e+00	0	44	0	628097024	61	4495
2026-01-04 23:49:26.80	351.87	84.80	-44.1	-46.2	20.6	0.00e+00	0	44	0	630194176	60	4396
2026-01-04 23:49:27.65	349.56	85.19	-44.3	-46.4	20.4	0.00e+00	0	43	0	632291328	60	4524
2026-01-04 23:49:28.80	345.78	85.69	-44.9	-47.0	19.8	0.00e+00	0	44	0	634388480	60	4857
2026-01-04 23:49:29.66	342.32	86.06	-45.4	-47.7	19.3	0.00e+00	0	44	0	635437056	61	4956
2026-01-04 23:49:30.80	336.65	86.52	-45.7	-48.0	19.1	0.00e+00	0	43	0	637534208	62	4840
2026-01-04 23:49:31.66	331.32	86.83	-45.9	-48.3	18.8	0.00e+00	0	43	0	639631360	62	4993
2026-01-04 23:49:32.80	322.49	87.20	-46.4	-48.9	18.1	0.00e+00	0	44	0	641728512	63	5047
2026-01-04 23:49:33.66	314.31	87.43	-46.6	-49.2	17.7	0.00e+00	0	44	0	642777088	64	4968
2026-01-04 23:49:34.80	301.46	87.62	-46.5	-49.0	18.0	0.00e+00	0	44	0	645922816	64	4834
2026-01-04 23:49:35.66	290.71	87.69	-46.2	-48.6	18.3	0.00e+00	0	44	0	646971392	64	4644
2026-01-04 23:49:36.80	276.32	87.64	-46.0	-48.3	18.7	0.00e+00	0	43	0	649068544	63	4738
2026-01-04 23:49:37.66	266.29	87.51	-46.1	-48.4	18.6	0.00e+00	0	44	0	651165696	63	4800
2026-01-04 23:49:38.80	254.93	87.23	-46.5	-49.0	17.9	0.00e+00	0	44	0	653262848	64	4866
2026-01-04 23:49:39.66	247.91	86.97	-47.2	-49.9	17.1	0.00e+00	0	44	0	654311424	65	5090
2026-01-04 23:49:40.80	240.44	86.56	-47.4	-50.3	16.8	0.00e+00	0	44	0	656408576	66	4986
2026-01-04 23:49:41.66	235.92	86.22	-46.6	-49.2	17.7	0.00e+00	0	44	0	658505728	65	4705
2026-01-04 23:49:42.80	231.09	85.74	-45.5	-47.8	19.1	0.00e+00	0	44	0	660602880	63	4490
2026-01-04 23:49:43.66	228.13	85.36	-45.5	-47.8	19.1	0.00e+00	0	44	0	661651456	62	4721
2026-01-04 23:49:44.80	224.88	84.85	-45.7	-48.0	19.0	0.00e+00	0	44	0	663748608	62	4866
2026-01-04 23:49:45.66	222.83	84.45	-45.5	-47.7	19.2	0.00e+00	0	44	0	665845760	62	4695
2026-01-04 23:49:46.80	220.54	83.91	-45.8	-48.1	18.9	0.00e+00	0	44	0	667942912	62	4917
2026-01-04 23:49:47.66	219.06	83.50	-46.1	-48.5	18.5	0.00e+00	0	44	0	668991488	62	5124
2026-01-04 23:49:48.80	217.38	82.96	-46.4	-48.8	18.2	0.00e+00	0	44	0	672137216	63	5035
2026-01-04 23:49:49.66	216.27	82.54	-46.8	-49.3	17.6	0.00e+00	0	44	0	673185792	64	5039
2026-01-04 23:49:50.80	214.98	81.99	-47.3	-50.1	16.9	0.00e+00	0	44	0	675282944	65	5166
2026-01-04 23:49:51.66	214.12	81.57	-47.1	-49.8	17.2	0.00e+00	0	44	0	677380096	65	5014
2026-01-04 23:49:52.80	213.11	81.01	-46.5	-49.0	18.0	0.00e+00	0	44	0	679477248	65	4582
2026-01-04 23:49:53.66	212.42	80.59	-46.1	-48.5	18.5	0.00e+00	0	44	0	680525824	64	4563
2026-01-04 23:49:54.80	211.61	80.03	-45.3	-47.5	19.5	0.00e+00	0	43	0	682622976	62	4574
2026-01-04 23:49:55.66	211.05	79.61	-45.5	-47.8	19.2	0.00e+00	0	43	0	684720128	62	4709
2026-01-04 23:49:56.80	210.38	79.05	-45.9	-48.2	18.8	0.00e+00	0	43	0	686817280	62	4939
2026-01-04 23:49:57.66	209.92	78.63	-46.3	-48.7	18.4	0.00e+00	0	44	0	687865856	63	4937
2026-01-04 23:49:58.80	209.37	78.08	-47.2	-49.9	17.2	0.00e+00	0	44	0	689963008	64	5354
2026-01-04 23:49:59.66	208.98	77.66	-48.0	-50.9	16.2	0.00e+00	0	44	0	692060160	66	5366
2026-01-04 23:50:00.80	208.51	77.10	-48.1	-51.1	16.0	0.00e+00	0	44	0	694157312	67	5199
2026-01-04 23:50:01.66	208.18	76.68	-47.7	-50.6	16.4	0.00e+00	0	44	0	696254464	67	4907
2026-01-04 23:50:02.81	207.77	76.12	-48.2	-51.2	15.6	0.00e+00	0	44	0	698351616	67	5279
2026-01-04 23:50:03.67	207.48	75.71	-48.4	-51.6	15.5	0.00e+00	0	44	0	699400192	67	5479
2026-01-04 23:50:04.81	207.13	75.15	-49.0	-52.4	15.0	0.00e+00	0	44	0	701497344	68	5664
2026-01-04 23:50:05.67	206.88	74.74	-49.1	-52.6	14.8	0.00e+00	0	44	0	703594496	68	5793
2026-01-04 23:50:06.81	206.58	74.19	-48.8	-52.1	15.1	0.00e+00	0	44	0	705691648	69	5196
2026-01-04 23:50:07.67	206.36	73.78	-48.5	-51.6	15.7	0.00e+00	0	44	0	706740224	68	5169
2026-01-04 23:50:08.81	206.09	73.24	-47.9	-50.9	16.1	0.00e+00	0	44	0	708837376	67	5090
2026-01-04 23:50:09.68	205.90	72.82	-47.9	-51.0	16.1	0.00e+00	0	44	0	710934528	67	5103
2026-01-04 23:50:10.82	205.66	72.28	-47.6	-50.5	16.5	0.00e+00	0	44	0	713031680	67	4838
2026-01-04 23:50:11.68	205.49	71.88	-47.6	-50.5	16.5	0.00e+00	0	44	0	714080256	67	4842
2026-01-04 23:50:12.82	205.27	71.34	-47.6	-50.5	16.6	0.00e+00	0	44	0	717225984	66	5127
2026-01-04 23:50:13.67	205.12	70.94	-47.5	-50.4	16.7	0.00e+00	0	44	0	718274560	66	5045
2026-01-04 23:50:14.82	204.93	70.41	-47.8	-50.7	16.4	0.00e+00	0	44	0	720371712	66	5224
2026-01-04 23:50:15.67	204.79	70.01	-48.0	-50.9	16.1	0.00e+00	0	44	0	722468864	66	5397
2026-01-04 23:50:16.82	204.62	69.48	-47.9	-50.8	16.3	0.00e+00	0	44	0	724566016	66	5286
2026-01-04 23:50:17.67	204.49	69.09	-47.9	-50.8	16.2	0.00e+00	0	44	0	725614592	66	5339
2026-01-04 23:50:18.82	204.33	68.56	-48.6	-51.8	15.2	0.00e+00	0	44	0	727711744	67	5609
2026-01-04 23:50:19.68	204.22	68.17	-49.1	-52.4	14.8	0.00e+00	0	44	0	729808896	68	5717
2026-01-04 23:50:20.82	204.08	67.65	-50.0	-54.0	13.3	3.00e-06	0	44	0	731906048	70	6064
2026-01-04 23:50:21.68	203.97	67.26	-50.1	-54.1	13.0	4.27e-05	0	44	0	732954624	71	5848
2026-01-04 23:50:22.82	203.84	66.75	-49.2	-52.7	14.6	4.50e-06	0	44	0	735051776	70	5262
2026-01-04 23:50:23.68	203.75	66.37	-48.9	-52.2	15.0	0.00e+00	0	44	0	737148928	69	5242
2026-01-04 23:50:24.83	203.63	65.86	-48.6	-51.7	15.5	7.00e-07	0	44	0	739246080	69	4978
2026-01-04 23:50:25.69	203.54	65.48	-48.1	-51.1	16.1	0.00e+00	0	44	0	741343232	68	4919
2026-01-04 23:50:26.83	203.43	64.98	-47.4	-50.2	16.8	0.00e+00	0	44	0	743440384	66	4934
2026-01-04 23:50:27.68	203.35	64.61	-46.5	-49.1	17.8	0.00e+00	0	44	0	744488960	65	4618
2026-01-04 23:50:28.83	203.25	64.11	-45.5	-47.8	19.2	0.00e+00	0	44	0	746586112	62	4718
2026-01-04 23:50:29.69	203.17	63.73	-45.3	-47.5	19.4	0.00e+00	0	44	0	748683264	62	4589
2026-01-04 23:50:30.83	203.08	63.24	-45.0	-47.2	19.7	0.00e+00	0	43	0	750780416	62	4424
2026-01-04 23:50:31.68	203.01	62.88	-45.1	-47.3	19.6	0.00e+00	0	43	0	751828992	62	4462
2026-01-04 23:50:32.82	202.92	62.40	-45.0	-47.2	19.8	0.00e+00	0	44	0	753926144	62	4399
2026-01-04 23:50:33.68	202.86	62.03	-45.1	-47.3	19.6	0.00e+00	0	44	0	756023296	62	4476
2026-01-04 23:50:34.82	202.78	61.56	-45.3	-47.5	19.4	0.00e+00	0	44	0	758120448	62	4565
2026-01-04 23:50:35.67	202.72	61.20	-45.9	-48.2	18.8	0.00e+00	0	44	0	759169024	62	4981
2026-01-04 23:50:36.82	202.64	60.73	-47.0	-49.7	17.3	0.00e+00	0	44	0	761266176	64	5276
2026-01-04 23:50:37.68	202.59	60.37	-47.7	-50.6	16.4	0.00e+00	0	44	0	763363328	65	5514
2026-01-04 23:50:38.82	202.52	59.91	-47.6	-50.5	16.5	0.00e+00	0	44	0	765460480	66	5117
2026-01-04 23:50:39.67	202.46	59.56	-47.4	-50.2	16.9	0.00e+00	0	44	0	767557632	66	4927
2026-01-04 23:50:40.81	202.40	59.10	-47.3	-50.0	17.0	0.00e+00	0	44	0	769654784	66	4849
2026-01-04 23:50:41.67	202.35	58.75	-47.5	-50.3	16.7	0.00e+00	0	44	0	770703360	66	5007
2026-01-04 23:50:42.81	202.29	58.30	-47.6	-50.4	16.6	0.00e+00	0	44	0	772800512	66	5044
2026-01-04 23:50:43.66	202.24	57.96	-48.1	-51.1	16.0	0.00e+00	0	44	0	774897664	66	5494
2026-01-04 23:50:44.80	202.18	57.51	-48.7	-51.9	15.2	0.00e+00	0	44	0	776994816	67	5698
2026-01-04 23:50:45.66	202.14	57.18	-48.9	-52.2	15.0	0.00e+00	0	44	0	778043392	68	5540
2026-01-04 23:50:46.80	202.09	56.74	-48.3	-51.4	15.9	0.00e+00	0	44	0	780140544	68	5057
2026-01-04 23:50:47.66	202.05	56.40	-47.7	-50.6	16.5	0.00e+00	0	44	0	782237696	67	4881
2026-01-04 23:50:48.80	201.99	55.97	-47.6	-50.4	16.7	0.00e+00	0	44	0	784334848	67	4788
2026-01-04 23:50:49.66	201.96	55.64	-47.2	-49.9	17.1	0.00e+00	0	44	0	785383424	66	4778
2026-01-04 23:50:50.81	201.91	55.21	-46.5	-49.0	17.9	0.00e+00	0	44	0	787480576	65	4580
2026-01-04 23:50:51.66	201.87	54.89	-46.4	-48.9	18.0	0.00e+00	0	44	0	789577728	64	4785
2026-01-04 23:50:52.81	201.82	54.46	-46.1	-48.5	18.4	0.00e+00	0	44	0	791674880	64	4565
2026-01-04 23:50:53.66	201.79	54.15	-46.1	-48.4	18.5	0.00e+00	0	44	0	793772032	64	4534
2026-01-04 23:50:54.81	201.75	53.72	-46.2	-48.6	18.4	0.00e+00	0	44	0	795869184	63	4896
2026-01-04 23:50:55.67	201.71	53.41	-45.8	-48.1	18.9	0.00e+00	0	44	0	796917760	63	4623
2026-01-04 23:50:56.81	201.67	53.00	-46.0	-48.3	18.6	0.00e+00	0	44	0	799014912	63	4750
2026-01-04 23:50:57.67	201.64	52.69	-46.2	-48.6	18.4	0.00e+00	0	44	0	801112064	63	4887
2026-01-04 23:50:58.81	201.60	52.28	-46.6	-49.1	18.0	0.00e+00	0	44	0	803209216	63	5162
2026-01-04 23:50:59.67	201.57	51.98	-47.3	-50.1	16.9	0.00e+00	0	44	0	804257792	65	5196
2026-01-04 23:51:00.81	201.54	51.58	-48.3	-51.4	15.7	0.00e+00	0	44	0	806354944	67	5372
2026-01-04 23:51:01.67	201.51	51.28	-48.2	-51.3	15.7	0.00e+00	0	44	0	808452096	67	5310
2026-01-04 23:51:02.81	201.47	50.88	-47.9	-50.8	16.2	0.00e+00	0	44	0	810549248	67	5034
2026-01-04 23:51:03.66	201.45	50.59	-48.1	-51.0	16.0	0.00e+00	0	44	0	811597824	67	5154
2026-01-04 23:51:04.80	201.41	50.20	-47.9	-50.9	16.2	0.00e+00	0	44	0	813694976	67	5055
2026-01-04 23:51:05.66	201.39	49.91	-48.1	-51.1	15.9	0.00e+00	0	44	0	815792128	67	5203
2026-01-04 23:51:06.80	201.36	49.53	-48.0	-51.1	15.9	0.00e+00	0	44	0	817889280	67	5190
2026-01-04 23:51:07.66	201.33	49.24	-48.2	-51.4	15.7	0.00e+00	0	44	0	819986432	67	5357
2026-01-04 23:51:08.79	201.30	48.86	-48.6	-52.0	15.0	0.00e+00	0	44	0	822083584	67	5786
2026-01-04 23:51:09.65	201.28	48.58	-49.4	-53.2	14.0	1.50e-06	0	44	0	823132160	69	5916
2026-01-04 23:51:10.79	201.25	48.21	-49.5	-53.4	13.8	6.80e-06	0	44	0	825229312	70	5682
2026-01-04 23:51:11.64	201.23	47.93	-49.1	-52.8	14.4	3.00e-06	0	44	0	827326464	70	5284
2026-01-04 23:51:12.78	201.20	47.57	-48.2	-51.3	15.8	0.00e+00	0	44	0	829423616	68	5012
2026-01-04 23:51:13.63	201.18	47.30	-47.9	-50.8	16.3	0.00e+00	0	44	0	830472192	67	5003
2026-01-04 23:51:14.77	201.16	46.93	-47.4	-50.1	16.9	0.00e+00	0	44	0	832569344	66	4914
2026-01-04 23:51:15.63	201.14	46.66	-47.2	-49.9	17.1	0.00e+00	0	44	0	834666496	66	4762
2026-01-04 23:51:16.77	201.11	46.31	-47.7	-50.6	16.4	0.00e+00	0	44	0	836763648	66	5176
2026-01-04 23:51:17.62	201.09	46.04	-48.2	-51.3	15.7	0.00e+00	0	43	0	837812224	66	5616
2026-01-04 23:51:18.77	201.07	45.69	-48.9	-52.3	14.9	0.00e+00	0	44	0	839909376	68	5628
2026-01-04 23:51:19.63	201.05	45.43	-49.1	-52.5	14.6	7.00e-07	0	44	0	842006528	68	5787
2026-01-04 23:51:20.77	201.03	45.08	-49.3	-53.1	14.2	1.50e-06	0	44	0	844103680	69	5790
2026-01-04 23:51:21.63	201.01	44.82	-49.0	-52.5	14.6	7.00e-07	0	44	0	846200832	69	5423
2026-01-04 23:51:22.78	200.99	44.48	-48.5	-51.7	15.4	7.00e-07	0	44	0	848297984	69	4982
2026-01-04 23:51:23.63	200.97	44.23	-48.0	-51.0	16.2	0.00e+00	0	44	0	849346560	68	4827
2026-01-04 23:51:24.77	200.95	43.89	-47.5	-50.3	16.6	0.00e+00	0	44	0	851443712	67	4728
2026-01-04 23:51:25.63	200.93	43.64	-47.2	-49.9	17.1	0.00e+00	0	44	0	853540864	66	4812
2026-01-04 23:51:26.77	200.91	43.31	-46.6	-49.1	17.8	0.00e+00	0	44	0	855638016	65	4632
2026-01-04 23:51:27.63	200.90	43.07	-46.6	-49.1	17.9	0.00e+00	0	44	0	856686592	64	4896
2026-01-04 23:51:28.77	200.88	42.74	-47.2	-50.0	17.0	0.00e+00	0	44	0	858783744	65	5106
2026-01-04 23:51:29.62	200.86	42.50	-47.8	-50.8	16.2	0.00e+00	0	44	0	860880896	66	5284
2026-01-04 23:51:30.76	200.85	42.18	-48.3	-51.5	15.5	0.00e+00	0	44	0	862978048	67	5442
2026-01-04 23:51:31.61	200.83	41.94	-48.9	-52.4	14.8	0.00e+00	0	44	0	864026624	68	5695
2026-01-04 23:51:32.76	200.81	41.62	-49.2	-52.8	14.3	7.00e-07	0	44	0	866123776	69	5640
2026-01-04 23:51:33.61	200.80	41.39	-49.3	-53.1	14.1	1.50e-06	0	44	0	868220928	69	5789
2026-01-04 23:51:34.75	200.78	41.08	-49.3	-53.0	14.1	2.20e-06	0	44	0	870318080	69	5757
2026-01-04 23:51:35.60	200.77	40.85	-49.2	-52.8	14.4	1.50e-06	0	44	0	872415232	69	5603
2026-01-04 23:51:36.74	200.75	40.54	-48.9	-52.2	14.9	0.00e+00	0	44	0	874512384	69	5250
2026-01-04 23:51:37.60	200.74	40.31	-48.6	-51.8	15.4	7.00e-07	0	44	0	875560960	69	4988
2026-01-04 23:51:38.73	200.73	40.01	-48.1	-51.1	16.1	0.00e+00	0	44	0	877658112	68	4896
2026-01-04 23:51:39.58	200.71	39.79	-48.0	-51.0	16.2	0.00e+00	0	44	0	879755264	68	4830
2026-01-04 23:51:40.73	200.70	39.49	-48.0	-51.0	16.0	0.00e+00	0	44	0	881852416	67	5106
2026-01-04 23:51:41.58	200.69	39.27	-48.3	-51.4	15.7	0.00e+00	0	44	0	882900992	67	5378
2026-01-04 23:51:42.72	200.67	38.98	-48.6	-51.9	15.1	0.00e+00	0	44	0	884998144	67	5676
2026-01-04 23:51:43.58	200.66	38.76	-48.9	-52.2	14.9	0.00e+00	0	44	0	887095296	68	5577
2026-01-04 23:51:44.72	200.65	38.47	-49.2	-52.7	14.5	0.00e+00	0	44	0	889192448	68	5912
2026-01-04 23:51:45.58	200.64	38.25	-49.2	-52.9	14.3	0.00e+00	0	44	0	890241024	69	5688
2026-01-04 23:51:46.72	200.62	37.97	-49.3	-53.0	14.2	7.00e-07	0	44	0	892338176	69	5748
2026-01-04 23:51:47.57	200.61	37.76	-49.3	-53.0	14.2	1.50e-06	0	44	0	894435328	69	5730
2026-01-04 23:51:48.71	200.60	37.48	-49.3	-52.9	14.3	1.50e-06	0	44	0	896532480	69	5713
2026-01-04 23:51:49.57	200.59	37.27	-49.1	-52.7	14.4	0.00e+00	0	44	0	898629632	69	5550
2026-01-04 23:51:50.71	200.58	36.99	-48.9	-52.3	14.8	0.00e+00	0	44	0	900726784	69	5339
2026-01-04 23:51:51.56	200.57	36.79	-48.8	-52.1	15.0	0.00e+00	0	44	0	901775360	69	5181
2026-01-04 23:51:52.70	200.56	36.52	-48.6	-51.8	15.4	0.00e+00	0	44	0	903872512	69	5002
2026-01-04 23:51:53.55	200.55	36.32	-48.3	-51.3	15.8	0.00e+00	0	43	0	905969664	68	5020
2026-01-04 23:51:54.69	200.54	36.05	-48.1	-51.1	16.1	0.00e+00	0	44	0	908066816	68	4880
2026-01-04 23:51:55.54	200.53	35.85	-48.0	-50.9	16.2	0.00e+00	0	44	0	909115392	68	4796
2026-01-04 23:51:56.68	200.52	35.58	-48.1	-51.1	16.1	0.00e+00	0	44	0	911212544	68	4873
2026-01-04 23:51:57.54	200.51	35.39	-48.2	-51.2	15.9	0.00e+00	0	44	0	913309696	68	4952
2026-01-04 23:51:58.68	200.50	35.13	-48.4	-51.5	15.7	0.00e+00	0	44	0	915406848	68	5117
2026-01-04 23:51:59.53	200.49	34.93	-48.6	-51.8	15.4	0.00e+00	0	44	0	916455424	68	5291
2026-01-04 23:52:00.67	200.48	34.68	-48.8	-52.1	15.1	0.00e+00	0	44	0	918552576	68	5512
2026-01-04 23:52:01.52	200.47	34.49	-49.1	-52.6	14.6	7.00e-07	0	44	0	920649728	68	5801
2026-01-04 23:52:02.67	200.46	34.23	-49.3	-53.0	14.2	7.00e-07	0	44	0	922746880	69	5735
2026-01-04 23:52:03.52	200.45	34.04	-49.6	-53.4	13.7	3.00e-06	0	44	0	923795456	69	6022
2026-01-04 23:52:04.66	200.44	33.79	-49.8	-53.8	13.4	1.22e-05	0	44	0	925892608	70	5971
2026-01-04 23:52:05.51	200.44	33.61	-49.9	-54.0	13.2	2.44e-05	0	44	0	927989760	70	6079
2026-01-04 23:52:06.66	200.43	33.36	-50.0	-54.2	13.0	3.81e-05	0	44	0	930086912	70	6212
2026-01-04 23:52:07.51	200.42	33.18	-49.9	-54.0	13.1	3.73e-05	0	44	0	932184064	70	6128
2026-01-04 23:52:08.65	200.41	32.94	-49.8	-53.9	13.2	2.21e-05	0	44	0	934281216	70	6022
2026-01-04 23:52:09.50	200.40	32.76	-49.6	-53.6	13.5	2.13e-05	0	44	0	935329792	70	5831
2026-01-04 23:52:10.65	200.40	32.51	-49.5	-53.3	13.8	2.20e-06	0	44	0	937426944	70	5652
2026-01-04 23:52:11.50	200.39	32.34	-49.4	-53.3	13.8	8.30e-06	0	44	0	939524096	70	5621
2026-01-04 23:52:12.64	200.38	32.10	-49.3	-53.0	14.1	2.20e-06	0	44	0	941621248	70	5436
2026-01-04 23:52:13.50	200.37	31.92	-49.1	-52.7	14.4	7.00e-07	0	44	0	942669824	70	5253
2026-01-04 23:52:14.64	200.37	31.69	-48.8	-52.3	14.9	7.00e-07	0	44	0	944766976	69	5285
2026-01-04 23:52:15.49	200.36	31.52	-48.8	-52.2	14.9	0.00e+00	0	44	0	946864128	69	5278
2026-01-04 23:52:16.63	200.35	31.29	-48.6	-51.9	15.2	0.00e+00	0	44	0	948961280	69	5067
2026-01-04 23:52:17.48	200.35	31.12	-48.5	-51.8	15.4	0.00e+00	0	44	0	950009856	68	5290
2026-01-04 23:52:18.63	200.34	30.89	-48.5	-51.7	15.4	0.00e+00	0	44	0	952107008	68	5254
2026-01-04 23:52:19.48	200.33	30.72	-48.5	-51.7	15.4	0.00e+00	0	44	0	954204160	68	5262
2026-01-04 23:52:20.62	200.33	30.50	-48.7	-52.0	15.2	0.00e+00	0	44	0	956301312	68	5420
2026-01-04 23:52:21.47	200.32	30.33	-48.7	-52.0	15.1	0.00e+00	0	44	0	958398464	68	5455
2026-01-04 23:52:22.61	200.31	30.11	-48.8	-52.2	14.9	0.00e+00	0	44	0	960495616	68	5587
2026-01-04 23:52:23.47	200.31	29.95	-48.8	-52.3	14.8	0.00e+00	0	44	0	961544192	68	5645
2026-01-04 23:52:24.60	200.30	29.73	-48.8	-52.3	14.8	0.00e+00	0	44	0	963641344	68	5611
2026-01-04 23:52:25.46	200.30	29.57	-48.8	-52.2	14.9	7.00e-07	0	44	0	965738496	68	5576
2026-01-04 23:52:26.60	200.29	29.35	-48.7	-52.1	15.0	0.00e+00	0	44	0	967835648	68	5493
2026-01-04 23:52:27.45	200.29	29.20	-48.7	-52.1	15.0	7.00e-07	0	44	0	968884224	68	5465
2026-01-04 23:52:28.60	200.28	28.98	-48.7	-52.1	15.0	0.00e+00	0	44	0	970981376	68	5501
2026-01-04 23:52:29.45	200.27	28.83	-48.7	-52.1	15.0	0.00e+00	0	44	0	973078528	68	5486
2026-01-04 23:52:30.59	200.27	28.62	-48.9	-52.4	14.7	0.00e+00	0	44	0	975175680	68	5677
2026-01-04 23:52:31.45	200.26	28.46	-48.7	-52.0	15.1	0.00e+00	0	44	0	976224256	68	5448
2026-01-04 23:52:32.59	200.26	28.25	-48.6	-51.9	15.2	0.00e+00	0	44	0	978321408	68	5397
2026-01-04 23:52:33.44	200.25	28.10	-48.6	-51.9	15.2	0.00e+00	0	44	0	980418560	68	5368
2026-01-04 23:52:34.59	200.25	27.89	-48.5	-51.8	15.3	0.00e+00	0	44	0	982515712	68	5316
2026-01-04 23:52:35.44	200.24	27.74	-48.3	-51.5	15.6	0.00e+00	0	44	0	984612864	68	5124
2026-01-04 23:52:36.58	200.24	27.54	-48.1	-51.2	15.9	0.00e+00	0	44	0	986710016	68	4966
2026-01-04 23:52:37.43	200.23	27.39	-48.0	-51.0	16.1	0.00e+00	0	44	0	987758592	68	4836
2026-01-04 23:52:38.57	200.23	27.19	-47.6	-50.5	16.4	0.00e+00	0	44	0	989855744	67	4848
2026-01-04 23:52:39.43	200.22	27.05	-47.6	-50.5	16.4	0.00e+00	0	44	0	991952896	67	4842
2026-01-04 23:52:40.57	200.22	26.85	-47.4	-50.2	16.7	0.00e+00	0	44	0	994050048	66	4944
2026-01-04 23:52:41.42	200.22	26.70	-47.2	-50.0	16.8	0.00e+00	0	44	0	995098624	66	4849
2026-01-04 23:52:42.56	200.21	26.51	-47.1	-49.9	17.0	0.00e+00	0	44	0	997195776	66	4765
2026-01-04 23:52:43.41	200.21	26.37	-46.9	-49.5	17.3	0.00e+00	0	44	0	999292928	65	4854
2026-01-04 23:52:44.55	200.20	26.18	-46.9	-49.5	17.3	0.00e+00	0	44	0	1001390080	65	4832
2026-01-04 23:52:45.41	200.20	26.03	-46.8	-49.4	17.4	0.00e+00	0	44	0	1002438656	65	4806
2026-01-04 23:52:46.55	200.19	25.84	-46.8	-49.4	17.4	0.00e+00	0	44	0	1004535808	65	4800
2026-01-04 23:52:47.40	200.19	25.70	-46.7	-49.3	17.5	0.00e+00	0	44	0	1006632960	65	4753
2026-01-04 23:52:48.54	200.19	25.52	-46.7	-49.3	17.5	0.00e+00	0	44	0	1008730112	65	4708
2026-01-04 23:52:49.40	200.18	25.38	-46.6	-49.2	17.6	0.00e+00	0	44	0	1009778688	65	4692
2026-01-04 23:52:50.54	200.18	25.19	-46.7	-49.4	17.5	0.00e+00	0	44	0	1012924416	65	4762
2026-01-04 23:52:51.39	200.18	25.06	-46.7	-49.3	17.5	0.00e+00	0	44	0	1013972992	65	4735
2026-01-04 23:52:52.53	200.17	24.87	-46.6	-49.2	17.6	0.00e+00	0	44	0	1016070144	65	4661
2026-01-04 23:52:53.38	200.17	24.74	-46.7	-49.3	17.5	0.00e+00	0	44	0	1018167296	65	4734
2026-01-04 23:52:54.52	200.16	24.56	-46.9	-49.5	17.3	0.00e+00	0	44	0	1020264448	65	4842
2026-01-04 23:52:55.37	200.16	24.43	-46.8	-49.4	17.5	0.00e+00	0	44	0	1021313024	65	4766
2026-01-04 23:52:56.51	200.16	24.25	-46.9	-49.6	17.3	0.00e+00	0	44	0	1023410176	65	4871
2026-01-04 23:52:57.36	200.16	24.12	-46.9	-49.5	17.3	0.00e+00	0	44	0	1025507328	65	4842
2026-01-04 23:52:58.51	200.15	23.94	-46.9	-49.6	17.3	0.00e+00	0	44	0	1027604480	65	4884
2026-01-04 23:52:59.36	200.15	23.81	-46.9	-49.5	17.2	0.00e+00	0	44	0	1028653056	65	4857
2026-01-04 23:53:00.50	200.15	23.64	-46.9	-49.6	17.3	0.00e+00	0	44	0	1030750208	65	4872
2026-01-04 23:53:01.36	200.14	23.51	-46.9	-49.6	17.2	0.00e+00	0	44	0	1032847360	65	4883
2026-01-04 23:53:02.50	200.14	23.33	-46.9	-49.6	17.3	0.00e+00	0	44	0	1034944512	65	4888
2026-01-04 23:53:03.35	200.14	23.21	-47.0	-49.7	17.2	0.00e+00	0	44	0	1035993088	65	4935
2026-01-04 23:53:04.49	200.13	23.04	-46.9	-49.6	17.2	0.00e+00	0	44	0	1038090240	65	4907
2026-01-04 23:53:05.34	200.13	22.91	-46.9	-49.6	17.2	0.00e+00	0	44	0	1040187392	65	4906
2026-01-04 23:53:06.48	200.13	22.74	-47.0	-49.8	17.0	0.00e+00	0	44	0	1042284544	65	5015
2026-01-04 23:53:07.33	200.13	22.62	-46.9	-49.6	17.1	0.00e+00	0	44	0	1044381696	65	4923
2026-01-04 23:53:08.47	200.12	22.45	-47.0	-49.7	17.1	0.00e+00	0	44	0	1046478848	65	4975
2026-01-04 23:53:09.33	200.12	22.33	-47.0	-49.8	17.0	0.00e+00	0	44	0	1047527424	65	5023
2026-01-04 23:53:10.47	200.12	22.17	-47.0	-49.8	17.0	0.00e+00	0	44	0	1049624576	65	5019
2026-01-04 23:53:11.32	200.12	22.04	-46.9	-49.6	17.2	0.00e+00	0	44	0	1051721728	65	4900
2026-01-04 23:53:12.46	200.11	21.88	-46.7	-49.4	17.4	0.00e+00	0	44	0	1053818880	65	4802
2026-01-04 23:53:13.32	200.11	21.76	-46.7	-49.5	17.4	0.00e+00	0	44	0	1054867456	65	4815
2026-01-04 23:53:14.46	200.11	21.60	-46.7	-49.4	17.4	0.00e+00	0	44	0	1056964608	65	4788
2026-01-04 23:53:15.32	200.11	21.48	-46.7	-49.5	17.3	0.00e+00	0	44	0	1059061760	65	4820
2026-01-04 23:53:16.46	200.10	21.32	-46.7	-49.4	17.4	0.00e+00	0	44	0	1061158912	65	4787
2026-01-04 23:53:17.32	200.10	21.20	-46.7	-49.4	17.4	0.00e+00	0	44	0	1062207488	65	4769
2026-01-04 23:53:18.46	200.10	21.04	-46.8	-49.5	17.3	0.00e+00	0	44	0	1064304640	65	4847
2026-01-04 23:53:19.31	200.10	20.93	-46.8	-49.5	17.3	0.00e+00	0	44	0	1066401792	65	4850
2026-01-04 23:53:20.45	200.09	20.77	-46.9	-49.6	17.2	0.00e+00	0	44	0	1068498944	65	4888
2026-01-04 23:53:21.30	200.09	20.66	-46.9	-49.6	17.1	0.00e+00	0	44	0	1070596096	65	4920
2026-01-04 23:53:22.44	200.09	20.50	-47.0	-49.8	17.0	0.00e+00	0	44	0	1072693248	65	4992
2026-01-04 23:53:23.30	200.09	20.39	-47.2	-50.0	16.8	0.00e+00	0	44	0	1073741824	65	5130
2026-01-04 23:53:24.44	200.09	20.24	-47.1	-49.8	16.9	0.00e+00	0	44	0	1075838976	65	5031
2026-01-04 23:53:25.29	200.08	20.13	-47.2	-50.0	16.8	0.00e+00	0	44	0	1077936128	65	5107
2026-01-04 23:53:26.44	200.08	19.97	-47.3	-50.2	16.6	0.00e+00	0	44	0	1080033280	65	5249
2026-01-04 23:53:27.29	200.08	19.86	-47.4	-50.2	16.5	0.00e+00	0	44	0	1081081856	65	5278
2026-01-04 23:53:28.43	200.08	19.71	-47.3	-50.2	16.6	0.00e+00	0	44	0	1083179008	65	5248
2026-01-04 23:53:29.29	200.08	19.60	-47.2	-50.1	16.7	0.00e+00	0	44	0	1085276160	65	5199
2026-01-04 23:53:30.42	200.08	19.46	-47.3	-50.2	16.6	0.00e+00	0	44	0	1087373312	65	5226
2026-01-04 23:53:31.28	200.07	19.35	-47.3	-50.1	16.6	0.00e+00	0	44	0	1088421888	65	5215
2026-01-04 23:53:32.42	200.07	19.20	-47.3	-50.2	16.6	0.00e+00	0	44	0	1090519040	65	5233
2026-01-04 23:53:33.27	200.07	19.09	-47.2	-50.1	16.7	0.00e+00	0	44	0	1092616192	65	5166
2026-01-04 23:53:34.42	200.07	18.95	-47.3	-50.2	16.6	0.00e+00	0	44	0	1094713344	65	5224
2026-01-04 23:53:35.27	200.07	18.84	-47.2	-50.1	16.7	0.00e+00	0	44	0	1096810496	65	5163
2026-01-04 23:53:36.41	200.07	18.70	-47.4	-50.3	16.5	0.00e+00	0	44	0	1098907648	65	5289
2026-01-04 23:53:37.26	200.07	18.59	-47.3	-50.2	16.5	0.00e+00	0	44	0	1099956224	65	5249
2026-01-04 23:53:38.41	200.06	18.45	-47.3	-50.2	16.6	0.00e+00	0	44	0	1102053376	65	5225
2026-01-04 23:53:39.26	200.06	18.34	-47.4	-50.3	16.5	0.00e+00	0	44	0	1104150528	65	5302
2026-01-04 23:53:40.40	200.06	18.20	-47.4	-50.3	16.5	0.00e+00	0	44	0	1106247680	65	5290
2026-01-04 23:53:41.26	200.06	18.10	-47.4	-50.4	16.4	0.00e+00	0	44	0	1107296256	65	5351
2026-01-04 23:53:42.40	200.06	17.96	-47.5	-50.5	16.3	0.00e+00	0	44	0	1109393408	65	5409
2026-01-04 23:53:43.26	200.06	17.86	-47.5	-50.5	16.3	0.00e+00	0	44	0	1111490560	65	5425
2026-01-04 23:53:44.39	200.06	17.72	-47.6	-50.6	16.1	0.00e+00	0	44	0	1113587712	65	5486
2026-01-04 23:53:45.25	200.05	17.62	-47.6	-50.7	16.1	0.00e+00	0	44	0	1114636288	66	5239
2026-01-04 23:53:46.39	200.05	17.48	-47.7	-50.8	16.0	0.00e+00	0	44	0	1116733440	66	5299
2026-01-04 23:53:47.25	200.05	17.38	-47.8	-50.8	16.0	0.00e+00	0	44	0	1118830592	66	5328
2026-01-04 23:53:48.39	200.05	17.25	-47.8	-50.9	15.8	0.00e+00	0	44	0	1120927744	66	5383
2026-01-04 23:53:49.24	200.05	17.15	-47.9	-51.0	15.8	0.00e+00	0	44	0	1123024896	66	5428
2026-01-04 23:53:50.38	200.05	17.01	-47.9	-51.0	15.7	0.00e+00	0	44	0	1125122048	66	5464
2026-01-04 23:53:51.24	200.05	16.91	-48.0	-51.2	15.6	0.00e+00	0	44	0	1126170624	66	5566
2026-01-04 23:53:52.38	200.05	16.78	-47.9	-51.0	15.7	0.00e+00	0	44	0	1128267776	66	5464
2026-01-04 23:53:53.24	200.05	16.68	-47.9	-51.1	15.6	0.00e+00	0	44	0	1130364928	66	5496
2026-01-04 23:53:54.38	200.05	16.55	-48.0	-51.3	15.5	0.00e+00	0	44	0	1132462080	66	5627
2026-01-04 23:53:55.23	200.04	16.45	-48.0	-51.2	15.5	0.00e+00	0	44	0	1133510656	66	5585
2026-01-04 23:53:56.37	200.04	16.32	-48.1	-51.3	15.4	0.00e+00	0	44	0	1135607808	66	5648
2026-01-04 23:53:57.22	200.04	16.23	-48.1	-51.4	15.4	0.00e+00	0	44	0	1137704960	66	5661
2026-01-04 23:53:58.36	200.04	16.10	-48.1	-51.4	15.3	0.00e+00	0	44	0	1139802112	66	5722
2026-01-04 23:53:59.22	200.04	16.00	-48.2	-51.5	15.2	0.00e+00	0	44	0	1140850688	66	5756
2026-01-04 23:54:00.36	200.04	15.88	-48.1	-51.4	15.3	0.00e+00	0	44	0	1142947840	67	5401
2026-01-04 23:54:01.21	200.04	15.78	-48.1	-51.4	15.3	0.00e+00	0	44	0	1145044992	67	5391
2026-01-04 23:54:02.35	200.04	15.66	-48.2	-51.5	15.2	0.00e+00	0	44	0	1147142144	67	5459
2026-01-04 23:54:03.20	200.04	15.56	-48.2	-51.5	15.2	0.00e+00	0	44	0	1148190720	67	5448
2026-01-04 23:54:04.34	200.04	15.44	-48.2	-51.5	15.2	0.00e+00	0	44	0	1151336448	67	5459
2026-01-04 23:54:05.19	200.04	15.35	-48.3	-51.6	15.1	0.00e+00	0	44	0	1152385024	67	5513
2026-01-04 23:54:06.33	200.04	15.22	-48.2	-51.5	15.2	0.00e+00	0	44	0	1154482176	67	5447
2026-01-04 23:54:07.18	200.04	15.13	-48.3	-51.6	15.1	0.00e+00	0	44	0	1156579328	67	5527
2026-01-04 23:54:08.33	200.04	15.01	-48.1	-51.4	15.3	0.00e+00	0	44	0	1158676480	67	5396
2026-01-04 23:54:09.18	200.04	14.91	-48.1	-51.4	15.3	0.00e+00	0	44	0	1159725056	67	5366
2026-01-04 23:54:10.32	200.03	14.79	-48.1	-51.4	15.3	0.00e+00	0	44	0	1161822208	67	5395
2026-01-04 23:54:11.18	200.03	14.70	-48.1	-51.4	15.3	0.00e+00	0	44	0	1163919360	67	5376
2026-01-04 23:54:12.32	200.03	14.58	-48.1	-51.4	15.3	7.00e-07	0	44	0	1166016512	67	5398
2026-01-04 23:54:13.17	200.03	14.49	-48.0	-51.3	15.4	0.00e+00	0	44	0	1167065088	67	5290
2026-01-04 23:54:14.31	200.03	14.37	-48.0	-51.3	15.4	0.00e+00	0	44	0	1169162240	67	5320
2026-01-04 23:54:15.17	200.03	14.28	-48.0	-51.3	15.3	0.00e+00	0	44	0	1171259392	67	5332
2026-01-04 23:54:16.31	200.03	14.16	-48.0	-51.3	15.4	0.00e+00	0	44	0	1173356544	67	5321
2026-01-04 23:54:17.17	200.03	14.08	-48.1	-51.4	15.3	0.00e+00	0	44	0	1174405120	67	5364
2026-01-04 23:54:18.30	200.03	13.96	-48.1	-51.4	15.3	0.00e+00	0	44	0	1176502272	67	5351
2026-01-04 23:54:19.16	200.03	13.87	-48.0	-51.2	15.5	0.00e+00	0	44	0	1178599424	67	5260
2026-01-04 23:54:20.30	200.03	13.75	-48.0	-51.3	15.4	7.00e-07	0	44	0	1180696576	67	5303
2026-01-04 23:54:21.16	200.03	13.67	-48.0	-51.3	15.4	0.00e+00	0	44	0	1182793728	67	5314
2026-01-04 23:54:22.30	200.03	13.55	-48.0	-51.3	15.4	0.00e+00	0	44	0	1184890880	67	5318
2026-01-04 23:54:23.16	200.03	13.46	-48.0	-51.2	15.4	0.00e+00	0	44	0	1185939456	67	5262
2026-01-04 23:54:24.30	200.03	13.35	-48.1	-51.3	15.3	0.00e+00	0	44	0	1188036608	67	5334
2026-01-04 23:54:25.15	200.03	13.26	-48.0	-51.2	15.4	0.00e+00	0	44	0	1190133760	67	5279
2026-01-04 23:54:26.29	200.03	13.15	-48.0	-51.2	15.5	0.00e+00	0	44	0	1192230912	67	5237
2026-01-04 23:54:27.15	200.03	13.07	-48.1	-51.4	15.3	0.00e+00	0	44	0	1193279488	67	5358
2026-01-04 23:54:28.29	200.03	12.95	-48.0	-51.2	15.4	0.00e+00	0	44	0	1195376640	67	5275
2026-01-04 23:54:29.14	200.03	12.87	-48.0	-51.3	15.3	0.00e+00	0	44	0	1197473792	67	5304
2026-01-04 23:54:30.28	200.03	12.76	-48.1	-51.4	15.3	0.00e+00	0	43	0	1199570944	67	5354
2026-01-04 23:54:31.13	200.03	12.67	-48.0	-51.3	15.3	0.00e+00	0	44	0	1200619520	67	5310
2026-01-04 23:54:32.27	200.03	12.56	-48.1	-51.4	15.2	0.00e+00	0	44	0	1202716672	67	5370
2026-01-04 23:54:33.12	200.03	12.48	-48.1	-51.5	15.1	0.00e+00	0	44	0	1204813824	67	5446
2026-01-04 23:54:34.26	200.03	12.37	-48.0	-51.4	15.2	0.00e+00	0	44	0	1206910976	67	5377
2026-01-04 23:54:35.12	200.03	12.29	-48.1	-51.6	15.1	0.00e+00	0	44	0	1209008128	67	5486
2026-01-04 23:54:36.26	200.03	12.18	-48.1	-51.6	15.0	0.00e+00	0	44	0	1211105280	67	5511
2026-01-04 23:54:37.12	200.03	12.10	-48.1	-51.6	15.0	7.00e-07	0	44	0	1212153856	67	5490
2026-01-04 23:54:38.25	200.03	11.99	-48.1	-51.6	15.0	0.00e+00	0	44	0	1214251008	67	5507
