passes_logs/2026/01/04/T1/T1__20260104_214300_SUOMI_NPP_rec.log

#Pass ID: 20260104_214300_SUOMI NPP
#Satellite: SUOMI NPP
#Configuration: NPP
#almurnet v.1.7.20251203
#Start time: 2026-01-04 21:42:59

#Version: 2.0.20230620
#Station: T1
#Location: 37.570604 lon 55.790049 lat
#TLE: 1 37849U 11061A   26003.96724563  .00000164  00000+0  98899-4 0  9990
#TLE: 2 37849  98.7800 306.1116 0002573  82.3190 277.8279 14.19522066735141

#Time	Az	El	Level	Level2	SNR	BER	BlckErr	Temp	State	Recorded	gain1	gain2
2026-01-04 21:42:59.87	37.81	4.97	-52.7	-68.2	3.8	1.49e+00	0	38	0	0	76	22120
2026-01-04 21:43:00.87	37.93	5.02	-52.6	-68.2	3.8	1.49e+00	0	39	104	0	77	20790
2026-01-04 21:43:01.88	38.05	5.07	-52.6	-68.2	3.8	1.49e+00	0	39	104	0	77	20806
2026-01-04 21:43:02.88	38.16	5.11	-52.6	-68.1	3.8	1.49e+00	0	39	104	0	77	20740
2026-01-04 21:43:03.89	38.28	5.16	-52.6	-68.2	3.8	1.49e+00	0	39	104	0	77	20853
2026-01-04 21:43:04.89	38.40	5.20	-52.6	-68.2	3.8	1.49e+00	0	39	104	0	77	20875
2026-01-04 21:43:05.89	38.52	5.25	-52.6	-68.2	3.8	1.49e+00	0	39	104	0	77	20885
2026-01-04 21:43:06.90	38.63	5.29	-52.6	-68.2	3.8	1.49e+00	0	39	104	0	77	20836
2026-01-04 21:43:07.90	38.75	5.34	-52.6	-68.2	3.8	1.49e+00	0	39	104	0	77	20838
2026-01-04 21:43:08.91	38.87	5.39	-52.6	-68.2	3.8	1.49e+00	0	39	104	0	77	20859
2026-01-04 21:43:09.91	38.99	5.43	-52.6	-68.2	3.8	1.49e+00	0	39	104	0	77	20828
2026-01-04 21:43:10.92	39.11	5.48	-52.6	-68.2	3.8	1.49e+00	0	39	104	0	77	20825
2026-01-04 21:43:11.92	39.23	5.52	-52.6	-68.2	3.8	1.49e+00	0	39	104	0	77	20860
2026-01-04 21:43:12.93	39.35	5.57	-52.6	-68.2	3.8	1.49e+00	0	39	104	0	77	20885
2026-01-04 21:43:13.93	39.47	5.61	-52.6	-68.2	3.8	1.49e+00	0	39	104	0	77	20829
2026-01-04 21:43:14.94	39.60	5.66	-52.7	-68.2	3.8	1.49e+00	0	39	104	0	77	20805
2026-01-04 21:43:15.94	39.72	5.70	-52.7	-68.2	3.8	1.49e+00	0	39	104	0	77	20830
2026-01-04 21:43:16.95	39.84	5.75	-52.7	-68.2	3.8	1.49e+00	0	39	104	0	77	20880
2026-01-04 21:43:17.95	39.96	5.79	-52.7	-68.2	3.8	1.49e+00	0	39	104	0	77	20862
2026-01-04 21:43:18.95	40.08	5.84	-52.7	-68.2	3.8	1.49e+00	0	39	104	0	77	20811
2026-01-04 21:43:19.96	40.21	5.89	-52.7	-68.2	3.8	1.49e+00	0	39	104	0	77	20887
2026-01-04 21:43:20.96	40.33	5.93	-52.7	-68.2	3.8	1.49e+00	0	39	104	0	77	20832
2026-01-04 21:43:21.97	40.45	5.98	-52.7	-68.2	3.8	1.49e+00	0	39	104	0	77	20888
2026-01-04 21:43:22.97	40.58	6.02	-52.7	-68.1	3.8	1.49e+00	0	39	104	0	77	20772
2026-01-04 21:43:23.98	40.70	6.07	-52.7	-68.2	3.8	1.49e+00	0	40	104	0	77	20890
2026-01-04 21:43:24.98	40.83	6.11	-52.7	-68.2	3.8	1.49e+00	0	39	104	0	77	20871
2026-01-04 21:43:25.99	40.95	6.16	-52.7	-68.2	3.8	1.49e+00	0	39	104	0	77	20837
2026-01-04 21:43:26.99	41.08	6.20	-52.7	-68.2	3.8	1.49e+00	0	39	104	0	77	20858
2026-01-04 21:43:27.99	41.21	6.25	-52.7	-68.2	3.8	1.49e+00	0	40	104	0	77	20864
2026-01-04 21:43:29.00	41.33	6.29	-52.7	-68.2	3.8	1.49e+00	0	40	104	0	77	20840
2026-01-04 21:43:30.00	41.46	6.34	-52.7	-68.2	3.8	1.49e+00	0	40	104	0	77	20866
2026-01-04 21:43:31.01	41.59	6.38	-52.7	-68.2	3.8	1.49e+00	0	40	104	0	77	20878
2026-01-04 21:43:32.01	41.71	6.43	-52.8	-68.2	3.8	1.49e+00	0	40	104	0	77	20879
2026-01-04 21:43:33.02	41.84	6.47	-52.8	-68.2	3.8	1.49e+00	0	40	104	0	77	20822
2026-01-04 21:43:34.02	41.97	6.52	-52.8	-68.2	3.8	1.49e+00	0	40	104	0	77	20872
2026-01-04 21:43:35.03	42.10	6.56	-52.8	-68.2	3.8	1.49e+00	0	40	104	0	77	20844
2026-01-04 21:43:36.03	42.23	6.61	-52.8	-68.2	3.8	1.49e+00	0	40	104	0	77	20851
2026-01-04 21:43:37.03	42.36	6.65	-52.8	-68.2	3.8	1.49e+00	0	40	104	0	77	20943
2026-01-04 21:43:38.04	42.49	6.70	-52.8	-68.2	3.8	1.49e+00	0	40	104	0	77	20842
2026-01-04 21:43:39.04	42.62	6.74	-52.8	-68.2	3.8	1.49e+00	0	40	104	0	77	20815
2026-01-04 21:43:40.05	42.75	6.79	-52.8	-68.2	3.8	1.49e+00	0	40	104	0	77	20878
2026-01-04 21:43:41.05	42.88	6.83	-52.8	-68.2	3.8	1.49e+00	0	40	104	0	77	20882
2026-01-04 21:43:42.06	43.01	6.87	-52.8	-68.2	3.8	1.49e+00	0	40	104	0	77	20833
2026-01-04 21:43:43.06	43.14	6.92	-52.8	-68.2	3.8	1.49e+00	0	40	104	0	77	20984
2026-01-04 21:43:44.06	43.28	6.96	-52.8	-68.2	3.8	1.49e+00	0	40	104	0	77	20804
2026-01-04 21:43:45.07	43.41	7.01	-52.8	-68.2	3.8	1.49e+00	0	40	104	0	77	20871
2026-01-04 21:43:46.07	43.54	7.05	-52.8	-68.2	3.8	1.49e+00	0	40	104	0	77	20843
2026-01-04 21:43:47.08	43.68	7.10	-52.9	-68.2	3.8	1.49e+00	0	40	104	0	77	20911
2026-01-04 21:43:48.08	43.81	7.14	-52.8	-68.2	3.8	1.49e+00	0	40	104	0	77	20790
2026-01-04 21:43:49.09	43.94	7.19	-52.9	-68.2	3.8	1.49e+00	0	40	104	0	77	20887
2026-01-04 21:43:50.09	44.08	7.23	-52.9	-68.2	3.8	1.49e+00	0	40	104	0	77	20878
2026-01-04 21:43:51.10	44.21	7.27	-52.8	-68.2	3.8	1.49e+00	0	40	104	0	77	20866
2026-01-04 21:43:52.10	44.35	7.32	-52.9	-68.2	3.8	1.49e+00	0	40	104	0	77	20858
2026-01-04 21:43:53.10	44.48	7.36	-52.9	-68.2	3.8	1.49e+00	0	40	104	0	77	20906
2026-01-04 21:43:54.11	44.62	7.41	-52.8	-68.2	3.8	1.49e+00	0	40	104	0	77	20805
2026-01-04 21:43:55.11	44.76	7.45	-52.9	-68.2	3.8	1.49e+00	0	40	104	0	77	20907
2026-01-04 21:43:56.12	44.89	7.49	-52.9	-68.2	3.8	1.49e+00	0	40	104	0	77	20921
2026-01-04 21:43:57.12	45.03	7.54	-52.8	-68.2	3.8	1.49e+00	0	40	104	0	77	20913
2026-01-04 21:43:58.13	45.17	7.58	-52.8	-68.2	3.8	1.49e+00	0	40	104	0	77	20878
2026-01-04 21:43:59.13	45.31	7.62	-52.9	-68.2	3.8	1.49e+00	0	40	104	0	77	20867
2026-01-04 21:44:00.13	45.44	7.67	-52.8	-68.2	3.8	1.49e+00	0	41	104	0	77	20888
2026-01-04 21:44:01.14	45.58	7.71	-52.8	-68.2	3.8	1.49e+00	0	40	104	0	77	20873
2026-01-04 21:44:02.14	45.72	7.75	-52.9	-68.2	3.8	1.49e+00	0	40	104	0	77	20892
2026-01-04 21:44:03.15	45.86	7.80	-52.8	-68.2	3.8	1.49e+00	0	40	104	0	77	20871
2026-01-04 21:44:04.15	46.00	7.84	-52.8	-68.2	3.8	1.49e+00	0	40	104	0	77	20842
2026-01-04 21:44:05.15	46.14	7.88	-52.9	-68.2	3.8	1.49e+00	0	41	104	0	77	20894
2026-01-04 21:44:06.16	46.29	7.93	-52.9	-68.2	3.8	1.49e+00	0	40	104	0	77	20912
2026-01-04 21:44:07.16	46.43	7.97	-52.9	-68.2	3.8	1.49e+00	0	40	104	0	77	20942
2026-01-04 21:44:08.17	46.57	8.01	-52.9	-68.2	3.8	1.49e+00	0	41	104	0	77	20835
2026-01-04 21:44:09.17	46.71	8.06	-52.9	-68.2	3.8	1.49e+00	0	40	104	0	77	20913
2026-01-04 21:44:10.17	46.85	8.10	-52.9	-68.2	3.8	1.49e+00	0	41	104	0	77	20874
2026-01-04 21:44:11.18	47.00	8.14	-52.9	-68.2	3.8	1.49e+00	0	41	104	0	77	20905
2026-01-04 21:44:12.18	47.14	8.18	-52.9	-68.2	3.8	1.49e+00	0	40	104	0	77	20818
2026-01-04 21:44:13.19	47.28	8.23	-52.9	-68.2	3.8	1.49e+00	0	41	104	0	77	20893
2026-01-04 21:44:14.19	47.43	8.27	-52.9	-68.2	3.8	1.49e+00	0	40	104	0	77	20914
2026-01-04 21:44:15.20	47.57	8.31	-52.9	-68.2	3.8	1.49e+00	0	41	104	0	77	20846
2026-01-04 21:44:16.20	47.72	8.35	-52.9	-68.2	3.8	1.49e+00	0	41	104	0	77	20913
2026-01-04 21:44:17.20	47.86	8.40	-52.9	-68.2	3.8	1.49e+00	0	41	104	0	77	20922
2026-01-04 21:44:18.21	48.01	8.44	-52.9	-68.2	3.8	1.49e+00	0	41	104	0	77	20915
2026-01-04 21:44:19.21	48.15	8.48	-53.0	-68.2	3.8	1.49e+00	0	41	104	0	77	20884
2026-01-04 21:44:20.21	48.30	8.52	-52.9	-68.2	3.8	1.49e+00	0	41	104	0	77	20854
2026-01-04 21:44:21.22	48.45	8.56	-52.9	-68.2	3.8	1.49e+00	0	41	104	0	77	20861
2026-01-04 21:44:22.22	48.60	8.60	-52.9	-68.2	3.8	1.49e+00	0	41	104	0	77	20857
2026-01-04 21:44:23.23	48.74	8.65	-52.9	-68.2	3.8	1.49e+00	0	41	104	0	77	20829
2026-01-04 21:44:24.23	48.89	8.69	-52.9	-68.2	3.8	1.49e+00	0	41	104	0	77	20869
2026-01-04 21:44:25.23	49.04	8.73	-52.9	-68.2	3.8	1.49e+00	0	41	104	0	77	20879
2026-01-04 21:44:26.24	49.19	8.77	-52.9	-68.2	3.8	1.49e+00	0	41	104	0	77	20918
2026-01-04 21:44:27.24	49.34	8.81	-52.9	-68.2	3.8	1.49e+00	0	41	104	0	77	20836
2026-01-04 21:44:28.25	49.49	8.85	-52.9	-68.2	3.8	1.49e+00	0	41	104	0	77	20876
2026-01-04 21:44:29.25	49.64	8.89	-52.9	-68.2	3.8	1.49e+00	0	41	104	0	77	20930
2026-01-04 21:44:30.26	49.79	8.94	-52.9	-68.2	3.8	1.49e+00	0	41	104	0	77	20963
2026-01-04 21:44:31.26	49.94	8.98	-52.9	-68.2	3.8	1.49e+00	0	41	104	0	77	20876
2026-01-04 21:44:32.26	50.09	9.02	-52.9	-68.2	3.8	1.49e+00	0	41	104	0	77	20940
2026-01-04 21:44:33.27	50.25	9.06	-53.0	-68.2	3.8	1.49e+00	0	41	104	0	77	20834
2026-01-04 21:44:34.27	50.40	9.10	-53.0	-68.2	3.8	1.49e+00	0	41	104	0	77	20916
2026-01-04 21:44:35.28	50.55	9.14	-52.9	-68.2	3.8	1.49e+00	0	41	104	0	77	20801
2026-01-04 21:44:36.28	50.70	9.18	-52.9	-68.2	3.8	1.49e+00	0	41	104	0	77	20928
2026-01-04 21:44:37.29	50.86	9.22	-53.0	-68.2	3.8	1.49e+00	0	41	104	0	77	20998
2026-01-04 21:44:38.29	51.01	9.26	-52.9	-68.2	3.8	1.49e+00	0	41	104	0	77	20879
2026-01-04 21:44:39.30	51.17	9.30	-52.9	-68.2	3.8	1.49e+00	0	41	104	0	77	20900
2026-01-04 21:44:40.30	51.32	9.34	-53.0	-68.2	3.8	1.49e+00	0	41	104	0	77	20869
2026-01-04 21:44:41.30	51.48	9.38	-53.0	-68.2	3.8	1.49e+00	0	41	104	0	77	20832
2026-01-04 21:44:42.31	51.63	9.42	-53.0	-68.2	3.8	1.49e+00	0	41	104	0	77	20892
2026-01-04 21:44:43.31	51.79	9.46	-52.9	-68.2	3.8	1.49e+00	0	41	104	0	77	20902
2026-01-04 21:44:44.32	51.95	9.50	-53.0	-68.2	3.8	1.49e+00	0	41	104	0	77	20860
2026-01-04 21:44:45.32	52.10	9.54	-52.9	-68.2	3.8	1.49e+00	0	41	104	0	77	20911
2026-01-04 21:44:46.32	52.26	9.58	-52.9	-68.2	3.8	1.49e+00	0	41	104	0	77	20935
2026-01-04 21:44:47.33	52.42	9.62	-52.9	-68.2	3.8	1.49e+00	0	41	104	0	77	20881
2026-01-04 21:44:48.33	52.58	9.65	-53.0	-68.2	3.8	1.49e+00	0	41	104	0	77	20858
2026-01-04 21:44:49.34	52.73	9.69	-52.9	-68.2	3.8	1.49e+00	0	41	104	0	77	20928
2026-01-04 21:44:50.34	52.89	9.73	-53.0	-68.2	3.8	1.49e+00	0	41	104	0	77	20924
2026-01-04 21:44:51.35	53.05	9.77	-53.0	-68.2	3.8	1.49e+00	0	41	104	0	77	20894
2026-01-04 21:44:52.35	53.21	9.81	-52.9	-68.2	3.8	1.49e+00	0	41	104	0	77	20908
2026-01-04 21:44:53.36	53.37	9.85	-53.0	-68.2	3.8	1.49e+00	0	41	104	0	77	20909
2026-01-04 21:44:54.36	53.53	9.89	-53.0	-68.2	3.8	1.49e+00	0	41	104	0	77	20924
2026-01-04 21:44:55.36	53.69	9.92	-53.0	-68.2	3.8	1.49e+00	0	41	104	0	77	20897
2026-01-04 21:44:56.37	53.86	9.96	-53.0	-68.2	3.8	1.49e+00	0	41	104	0	77	20807
2026-01-04 21:44:57.38	54.02	10.00	-53.0	-68.2	3.8	1.49e+00	0	41	104	0	77	20895
2026-01-04 21:44:58.38	54.18	10.04	-53.0	-68.2	3.8	1.49e+00	0	41	104	0	77	20939
2026-01-04 21:44:59.38	54.34	10.07	-53.0	-68.2	3.8	1.49e+00	0	41	104	0	77	20897
2026-01-04 21:45:00.39	54.51	10.11	-53.0	-68.2	3.8	1.49e+00	0	41	104	0	77	20890
2026-01-04 21:45:01.39	54.67	10.15	-53.0	-68.2	3.8	1.49e+00	0	41	104	0	77	20848
2026-01-04 21:45:02.40	54.84	10.19	-53.0	-68.2	3.8	1.49e+00	0	41	104	0	77	20897
2026-01-04 21:45:03.40	55.00	10.22	-53.0	-68.2	3.8	1.49e+00	0	41	104	0	77	20857
2026-01-04 21:45:04.41	55.16	10.26	-53.0	-68.2	3.8	1.49e+00	0	41	104	0	77	20947
2026-01-04 21:45:05.41	55.33	10.30	-53.0	-68.2	3.8	1.49e+00	0	41	104	0	77	20940
2026-01-04 21:45:06.41	55.49	10.33	-53.0	-68.2	3.8	1.49e+00	0	41	104	0	77	20963
2026-01-04 21:45:07.42	55.66	10.37	-53.0	-68.2	3.8	1.49e+00	0	41	104	0	77	20933
2026-01-04 21:45:08.42	55.83	10.40	-53.0	-68.2	3.8	1.49e+00	0	41	104	0	77	20917
2026-01-04 21:45:09.43	55.99	10.44	-53.0	-68.2	3.8	1.49e+00	0	41	104	0	77	20923
2026-01-04 21:45:10.43	56.16	10.48	-53.0	-68.2	3.8	1.49e+00	0	41	104	0	77	20897
2026-01-04 21:45:11.44	56.33	10.51	-53.0	-68.2	3.8	1.49e+00	0	41	104	0	77	20862
2026-01-04 21:45:12.44	56.50	10.55	-53.0	-68.2	3.8	1.49e+00	0	41	104	0	77	20973
2026-01-04 21:45:13.44	56.66	10.58	-53.0	-68.2	3.8	1.49e+00	0	41	104	0	77	20933
2026-01-04 21:45:14.45	56.83	10.62	-53.0	-68.2	3.8	1.49e+00	0	41	104	0	77	20867
2026-01-04 21:45:15.45	57.00	10.65	-53.0	-68.2	3.8	1.49e+00	0	41	104	0	77	21002
2026-01-04 21:45:16.45	57.17	10.69	-53.0	-68.2	3.8	1.49e+00	0	41	104	0	77	20939
2026-01-04 21:45:17.46	57.34	10.72	-53.0	-68.2	3.8	1.49e+00	0	41	104	0	77	20903
2026-01-04 21:45:18.47	57.51	10.76	-53.0	-68.2	3.8	1.49e+00	0	41	104	0	77	20963
2026-01-04 21:45:19.47	57.68	10.79	-53.0	-68.2	3.8	1.49e+00	0	41	104	0	77	20914
2026-01-04 21:45:20.47	57.85	10.83	-53.0	-68.2	3.8	1.49e+00	0	41	104	0	77	20893
2026-01-04 21:45:21.48	58.03	10.86	-53.0	-68.2	3.8	1.49e+00	0	41	104	0	77	20880
2026-01-04 21:45:22.48	58.20	10.89	-53.0	-68.2	3.8	1.49e+00	0	41	104	0	77	20866
2026-01-04 21:45:23.49	58.37	10.93	-53.0	-68.2	3.8	1.49e+00	0	41	104	0	77	20884
2026-01-04 21:45:24.49	58.54	10.96	-53.0	-68.2	3.8	1.49e+00	0	41	104	0	77	20924
2026-01-04 21:45:25.49	58.72	10.99	-53.0	-68.2	3.8	1.49e+00	0	41	104	0	77	20958
2026-01-04 21:45:26.50	58.89	11.03	-53.0	-68.2	3.8	1.49e+00	0	41	104	0	77	20902
2026-01-04 21:45:27.50	59.06	11.06	-53.0	-68.2	3.8	1.49e+00	0	41	104	0	77	20966
2026-01-04 21:45:28.50	59.24	11.09	-53.0	-68.2	3.8	1.49e+00	0	41	104	0	77	20946
2026-01-04 21:45:29.51	59.41	11.12	-53.1	-68.2	3.8	1.49e+00	0	41	104	0	77	20977
2026-01-04 21:45:30.51	59.59	11.16	-53.0	-68.2	3.8	1.49e+00	0	41	104	0	77	20921
2026-01-04 21:45:31.52	59.76	11.19	-53.0	-68.3	3.8	1.49e+00	0	42	104	0	77	21029
2026-01-04 21:45:32.52	59.94	11.22	-53.0	-68.2	3.8	1.49e+00	0	41	104	0	77	20960
2026-01-04 21:45:33.53	60.11	11.25	-53.0	-68.2	3.8	1.49e+00	0	41	104	0	77	20884
2026-01-04 21:45:34.53	60.29	11.28	-53.0	-68.2	3.8	1.49e+00	0	42	104	0	77	20906
2026-01-04 21:45:35.54	60.47	11.31	-53.0	-68.2	3.8	1.49e+00	0	41	104	0	77	20947
2026-01-04 21:45:36.54	60.64	11.34	-53.0	-68.2	3.8	1.49e+00	0	42	104	0	77	20978
2026-01-04 21:45:37.54	60.82	11.38	-53.0	-68.2	3.8	1.49e+00	0	41	104	0	77	20862
2026-01-04 21:45:38.55	61.00	11.41	-53.0	-68.2	3.8	1.49e+00	0	41	104	0	77	20941
2026-01-04 21:45:39.55	61.18	11.44	-53.0	-68.2	3.8	1.49e+00	0	41	104	0	77	20956
2026-01-04 21:45:40.55	61.36	11.47	-53.0	-68.2	3.8	1.49e+00	0	41	104	0	77	20935
2026-01-04 21:45:41.56	61.54	11.50	-53.0	-68.2	3.8	1.49e+00	0	41	104	0	77	20920
2026-01-04 21:45:42.56	61.71	11.53	-53.0	-68.2	3.8	1.49e+00	0	41	104	0	77	20895
2026-01-04 21:45:43.57	61.89	11.56	-53.0	-68.2	3.8	1.49e+00	0	41	104	0	77	20943
2026-01-04 21:45:44.57	62.07	11.59	-53.0	-68.2	3.8	1.49e+00	0	41	104	0	77	20899
2026-01-04 21:45:45.57	62.25	11.61	-53.0	-68.2	3.8	1.49e+00	0	41	104	0	77	20906
2026-01-04 21:45:46.58	62.44	11.64	-53.0	-68.2	3.8	1.49e+00	0	41	104	0	77	20842
2026-01-04 21:45:47.58	62.62	11.67	-53.0	-68.2	3.8	1.49e+00	0	41	104	0	77	20872
2026-01-04 21:45:48.59	62.80	11.70	-53.0	-68.2	3.8	1.49e+00	0	41	104	0	77	20923
2026-01-04 21:45:49.59	62.98	11.73	-53.0	-68.2	3.8	1.49e+00	0	42	104	0	77	20895
2026-01-04 21:45:50.59	63.16	11.76	-53.1	-68.2	3.8	1.49e+00	0	41	104	0	77	20934
2026-01-04 21:45:51.60	63.34	11.78	-53.0	-68.2	3.8	1.49e+00	0	42	104	0	77	20959
2026-01-04 21:45:52.60	63.53	11.81	-53.1	-68.2	3.8	1.49e+00	0	42	104	0	77	20876
2026-01-04 21:45:53.60	63.71	11.84	-53.1	-68.2	3.8	1.49e+00	0	41	104	0	77	20919
2026-01-04 21:45:54.60	63.89	11.87	-53.1	-68.2	3.8	1.49e+00	0	41	104	0	77	20947
2026-01-04 21:45:55.61	64.08	11.89	-53.1	-68.2	3.8	1.49e+00	0	42	104	0	77	20893
2026-01-04 21:45:56.61	64.26	11.92	-53.1	-68.2	3.8	1.49e+00	0	41	104	0	77	20884
2026-01-04 21:45:57.62	64.45	11.95	-53.1	-68.2	3.8	1.49e+00	0	41	104	0	77	20912
2026-01-04 21:45:58.62	64.63	11.97	-53.1	-68.2	3.8	1.49e+00	0	41	104	0	77	20910
2026-01-04 21:45:59.63	64.82	12.00	-53.1	-68.2	3.8	1.49e+00	0	42	104	0	77	20969
2026-01-04 21:46:00.63	65.00	12.02	-53.1	-68.2	3.8	1.49e+00	0	41	104	0	77	20970
2026-01-04 21:46:01.63	65.19	12.05	-53.1	-68.2	3.8	1.49e+00	0	41	104	0	77	21002
2026-01-04 21:46:02.64	65.37	12.08	-53.1	-68.3	3.8	1.49e+00	0	42	104	0	77	21035
2026-01-04 21:46:03.64	65.56	12.10	-53.1	-68.2	3.8	1.49e+00	0	41	104	0	77	20901
2026-01-04 21:46:04.65	65.75	12.12	-53.0	-68.2	3.8	1.49e+00	0	42	104	0	77	20913
2026-01-04 21:46:05.65	65.93	12.15	-53.0	-68.2	3.8	1.49e+00	0	42	104	0	77	20882
2026-01-04 21:46:06.66	66.12	12.17	-53.0	-68.2	3.8	1.49e+00	0	41	104	0	77	21005
2026-01-04 21:46:07.66	66.31	12.20	-53.0	-68.2	3.8	1.49e+00	0	41	104	0	77	20899
2026-01-04 21:46:08.66	66.49	12.22	-53.0	-68.2	3.8	1.49e+00	0	41	104	0	77	20972
2026-01-04 21:46:09.67	66.68	12.24	-53.0	-68.2	3.8	1.49e+00	0	41	104	0	77	20916
2026-01-04 21:46:10.67	66.87	12.27	-53.0	-68.2	3.8	1.49e+00	0	42	104	0	77	20857
2026-01-04 21:46:11.67	67.06	12.29	-53.0	-68.2	3.8	1.49e+00	0	41	104	0	77	20908
2026-01-04 21:46:12.68	67.25	12.31	-53.0	-68.2	3.8	1.49e+00	0	41	104	0	77	20906
2026-01-04 21:46:13.68	67.44	12.34	-52.9	-68.2	3.8	1.49e+00	0	41	104	0	77	20961
2026-01-04 21:46:14.69	67.63	12.36	-52.9	-68.2	3.8	1.49e+00	0	41	104	0	77	20885
2026-01-04 21:46:15.69	67.82	12.38	-52.9	-68.2	3.8	1.49e+00	0	42	104	0	77	20866
2026-01-04 21:46:16.70	68.01	12.40	-52.9	-68.2	3.8	1.49e+00	0	41	104	0	77	20935
2026-01-04 21:46:17.70	68.20	12.42	-52.9	-68.2	3.8	1.49e+00	0	42	104	0	77	20887
2026-01-04 21:46:18.71	68.39	12.44	-52.9	-68.2	3.8	1.49e+00	0	42	104	0	77	20941
2026-01-04 21:46:19.71	68.58	12.46	-52.9	-68.2	3.8	1.49e+00	0	41	104	0	77	20937
2026-01-04 21:46:20.71	68.77	12.49	-52.9	-68.2	3.8	1.49e+00	0	41	104	0	77	20946
2026-01-04 21:46:21.72	68.96	12.51	-52.8	-68.2	3.8	1.49e+00	0	41	104	0	77	20886
2026-01-04 21:46:22.72	69.16	12.53	-52.9	-68.2	3.8	1.49e+00	0	42	104	0	77	20836
2026-01-04 21:46:23.73	69.35	12.55	-52.8	-68.2	3.8	1.49e+00	0	41	104	0	77	20886
2026-01-04 21:46:24.73	69.54	12.56	-52.8	-68.2	3.8	1.49e+00	0	42	104	0	77	20904
2026-01-04 21:46:25.73	69.73	12.58	-52.8	-68.2	3.8	1.49e+00	0	41	104	0	77	20968
2026-01-04 21:46:26.74	69.93	12.60	-52.8	-68.2	3.8	1.49e+00	0	41	104	0	77	20914
2026-01-04 21:46:27.74	70.12	12.62	-52.8	-68.2	3.8	1.49e+00	0	42	104	0	77	20863
2026-01-04 21:46:28.75	70.31	12.64	-52.8	-68.2	3.8	1.49e+00	0	41	104	0	77	20891
2026-01-04 21:46:29.75	70.50	12.66	-52.8	-68.2	3.8	1.49e+00	0	42	104	0	77	20936
2026-01-04 21:46:30.76	70.70	12.68	-52.8	-68.2	3.8	1.49e+00	0	41	104	0	77	20861
2026-01-04 21:46:31.76	70.89	12.69	-52.8	-68.2	3.8	1.49e+00	0	42	104	0	77	20910
2026-01-04 21:46:32.77	71.09	12.71	-52.8	-68.2	3.8	1.49e+00	0	42	104	0	77	20910
2026-01-04 21:46:33.77	71.28	12.73	-52.8	-68.2	3.8	1.49e+00	0	42	104	0	77	20908
2026-01-04 21:46:34.77	71.48	12.74	-52.8	-68.2	3.8	1.49e+00	0	42	104	0	77	20928
2026-01-04 21:46:35.78	71.67	12.76	-52.8	-68.2	3.8	1.49e+00	0	42	104	0	77	20897
2026-01-04 21:46:36.78	71.87	12.78	-52.8	-68.2	3.8	1.49e+00	0	41	104	0	77	20909
2026-01-04 21:46:37.79	72.06	12.79	-52.8	-68.2	3.8	1.49e+00	0	41	104	0	77	20807
2026-01-04 21:46:38.79	72.26	12.81	-52.8	-68.2	3.8	1.49e+00	0	41	104	0	77	20951
2026-01-04 21:46:39.80	72.45	12.82	-52.8	-68.2	3.8	1.49e+00	0	41	104	0	77	20806
2026-01-04 21:46:40.80	72.65	12.84	-52.8	-68.2	3.8	1.49e+00	0	42	104	0	77	20885
2026-01-04 21:46:41.80	72.84	12.85	-52.8	-68.2	3.8	1.49e+00	0	42	104	0	77	20952
2026-01-04 21:46:42.81	73.04	12.87	-52.8	-68.2	3.8	1.49e+00	0	41	104	0	77	20835
2026-01-04 21:46:43.81	73.24	12.88	-52.9	-68.2	3.8	1.49e+00	0	42	104	0	77	20857
2026-01-04 21:46:44.82	73.44	12.89	-52.9	-68.2	3.8	1.49e+00	0	42	104	0	77	20866
2026-01-04 21:46:45.80	73.63	12.91	-52.9	-68.2	3.8	1.49e+00	0	41	104	0	77	20928
2026-01-04 21:46:46.81	73.83	12.92	-52.9	-68.2	3.8	1.49e+00	0	42	104	0	77	20876
2026-01-04 21:46:47.81	74.02	12.93	-52.9	-68.2	3.8	1.49e+00	0	42	104	0	77	20892
2026-01-04 21:46:48.82	74.22	12.95	-52.9	-68.3	3.8	1.49e+00	0	41	104	0	77	21026
2026-01-04 21:46:49.82	74.42	12.96	-52.9	-68.2	3.8	1.49e+00	0	42	104	0	77	20804
2026-01-04 21:46:50.83	74.62	12.97	-52.9	-68.2	3.8	1.49e+00	0	42	104	0	77	20821
2026-01-04 21:46:51.83	74.81	12.98	-52.9	-68.2	3.8	1.49e+00	0	42	104	0	77	20866
2026-01-04 21:46:52.83	75.01	12.99	-52.9	-68.2	3.8	1.49e+00	0	42	104	0	77	20843
2026-01-04 21:46:53.83	75.21	13.00	-52.9	-68.2	3.8	1.49e+00	0	42	104	0	77	20798
2026-01-04 21:46:54.84	75.41	13.01	-52.8	-68.1	3.8	1.49e+00	0	42	104	0	77	20773
2026-01-04 21:46:55.84	75.60	13.03	-52.9	-68.1	3.8	1.49e+00	0	42	104	0	77	20747
2026-01-04 21:46:56.84	75.80	13.04	-52.9	-68.2	3.8	1.49e+00	0	42	104	0	77	20817
2026-01-04 21:46:57.85	76.00	13.05	-52.9	-68.2	3.8	1.49e+00	0	42	104	0	77	20868
2026-01-04 21:46:58.85	76.20	13.05	-52.9	-68.2	3.8	1.49e+00	0	42	104	0	77	20886
2026-01-04 21:46:59.86	76.40	13.06	-52.9	-68.2	3.8	1.49e+00	0	42	104	0	77	20876
2026-01-04 21:47:00.86	76.60	13.07	-52.9	-68.2	3.8	1.49e+00	0	41	104	0	77	20859
2026-01-04 21:47:01.86	76.80	13.08	-52.9	-68.2	3.8	1.49e+00	0	41	104	0	77	20847
2026-01-04 21:47:02.87	77.00	13.09	-52.9	-68.2	3.8	1.49e+00	0	41	104	0	77	20883
2026-01-04 21:47:03.87	77.20	13.10	-52.9	-68.2	3.8	1.49e+00	0	42	104	0	77	20999
2026-01-04 21:47:04.88	77.40	13.10	-52.9	-68.2	3.8	1.49e+00	0	41	104	0	77	20866
2026-01-04 21:47:05.88	77.60	13.11	-52.9	-68.2	3.8	1.49e+00	0	42	104	0	77	20870
2026-01-04 21:47:06.89	77.80	13.12	-52.9	-68.2	3.8	1.49e+00	0	41	104	0	77	20848
2026-01-04 21:47:07.89	78.00	13.13	-52.9	-68.2	3.8	1.49e+00	0	42	104	0	77	20848
2026-01-04 21:47:08.89	78.20	13.13	-52.9	-68.2	3.8	1.49e+00	0	42	104	0	77	20916
2026-01-04 21:47:09.90	78.40	13.14	-52.9	-68.2	3.8	1.49e+00	0	41	104	0	77	20966
2026-01-04 21:47:10.90	78.60	13.14	-52.9	-68.2	3.8	1.49e+00	0	41	104	0	77	20853
2026-01-04 21:47:11.91	78.80	13.15	-52.9	-68.2	3.8	1.49e+00	0	42	104	0	77	20865
2026-01-04 21:47:12.91	79.00	13.15	-53.0	-68.2	3.8	1.49e+00	0	42	104	0	77	20860
2026-01-04 21:47:13.91	79.20	13.16	-52.9	-68.2	3.8	1.49e+00	0	42	104	0	77	20871
2026-01-04 21:47:14.92	79.40	13.16	-52.9	-68.2	3.8	1.49e+00	0	42	104	0	77	20886
2026-01-04 21:47:15.92	79.60	13.17	-52.9	-68.2	3.8	1.49e+00	0	41	104	0	77	20823
2026-01-04 21:47:16.93	79.80	13.17	-52.9	-68.2	3.8	1.49e+00	0	41	104	0	77	20846
2026-01-04 21:47:17.93	80.00	13.17	-52.9	-68.2	3.8	1.49e+00	0	42	104	0	77	20915
2026-01-04 21:47:18.94	80.20	13.18	-53.0	-68.2	3.8	1.49e+00	0	42	104	0	77	20850
2026-01-04 21:47:19.94	80.40	13.18	-52.9	-68.2	3.8	1.49e+00	0	41	104	0	77	20848
2026-01-04 21:47:20.95	80.60	13.18	-52.9	-68.2	3.8	1.49e+00	0	42	104	0	77	20831
2026-01-04 21:47:21.95	80.80	13.19	-53.0	-68.2	3.8	1.49e+00	0	42	104	0	77	20887
2026-01-04 21:47:22.95	81.00	13.19	-53.0	-68.2	3.8	1.49e+00	0	42	104	0	77	20865
2026-01-04 21:47:23.96	81.20	13.19	-53.0	-68.2	3.8	1.49e+00	0	42	104	0	77	20905
2026-01-04 21:47:24.96	81.40	13.19	-53.0	-68.2	3.8	1.49e+00	0	42	104	0	77	20948
2026-01-04 21:47:25.97	81.61	13.19	-53.0	-68.2	3.8	1.49e+00	0	42	104	0	77	20926
2026-01-04 21:47:26.97	81.81	13.19	-53.0	-68.2	3.8	1.49e+00	0	42	104	0	77	20877
2026-01-04 21:47:27.98	82.01	13.19	-53.0	-68.2	3.8	1.49e+00	0	42	104	0	77	20849
2026-01-04 21:47:28.98	82.21	13.19	-53.0	-68.2	3.8	1.49e+00	0	41	104	0	77	20877
2026-01-04 21:47:29.99	82.41	13.19	-53.0	-68.2	3.8	1.49e+00	0	42	104	0	77	20809
2026-01-04 21:47:30.99	82.61	13.19	-53.0	-68.2	3.8	1.49e+00	0	41	104	0	77	20857
2026-01-04 21:47:31.99	82.81	13.19	-53.0	-68.2	3.8	1.49e+00	0	42	104	0	77	20879
2026-01-04 21:47:33.00	83.01	13.19	-53.0	-68.2	3.8	1.49e+00	0	42	104	0	77	20847
2026-01-04 21:47:34.00	83.21	13.19	-53.0	-68.2	3.8	1.49e+00	0	42	104	0	77	20842
2026-01-04 21:47:35.01	83.41	13.18	-53.0	-68.2	3.8	1.49e+00	0	42	104	0	77	20866
2026-01-04 21:47:36.01	83.61	13.18	-53.0	-68.2	3.8	1.49e+00	0	42	104	0	77	20942
2026-01-04 21:47:37.02	83.82	13.18	-53.0	-68.2	3.8	1.49e+00	0	42	104	0	77	20847
2026-01-04 21:47:38.02	84.02	13.18	-53.0	-68.2	3.8	1.49e+00	0	42	104	0	77	20867
2026-01-04 21:47:39.02	84.22	13.17	-53.0	-68.2	3.8	1.49e+00	0	42	104	0	77	20846
2026-01-04 21:47:40.03	84.42	13.17	-53.0	-68.2	3.8	1.49e+00	0	42	104	0	77	20785
2026-01-04 21:47:41.03	84.62	13.17	-53.0	-68.2	3.8	1.49e+00	0	42	104	0	77	20861
2026-01-04 21:47:42.04	84.82	13.16	-53.0	-68.2	3.8	1.49e+00	0	42	104	0	77	20856
2026-01-04 21:47:43.04	85.02	13.16	-53.0	-68.2	3.8	1.49e+00	0	42	104	0	77	20870
2026-01-04 21:47:44.04	85.22	13.15	-53.0	-68.2	3.8	1.49e+00	0	42	104	0	77	20926
2026-01-04 21:47:45.05	85.42	13.15	-53.0	-68.2	3.8	1.49e+00	0	42	104	0	77	20875
2026-01-04 21:47:46.05	85.62	13.14	-53.0	-68.2	3.8	1.49e+00	0	41	104	0	77	20923
2026-01-04 21:47:47.06	85.82	13.14	-53.0	-68.2	3.8	1.49e+00	0	42	104	0	77	20819
2026-01-04 21:47:48.06	86.02	13.13	-53.0	-68.2	3.8	1.49e+00	0	42	104	0	77	20779
2026-01-04 21:47:49.07	86.22	13.12	-53.0	-68.2	3.8	1.49e+00	0	42	104	0	77	20853
2026-01-04 21:47:50.07	86.42	13.12	-53.0	-68.1	3.8	1.49e+00	0	42	104	0	77	20775
2026-01-04 21:47:51.08	86.62	13.11	-53.0	-68.2	3.8	1.49e+00	0	42	104	0	77	20814
2026-01-04 21:47:52.08	86.82	13.10	-53.0	-68.2	3.8	1.49e+00	0	42	104	0	77	20778
2026-01-04 21:47:53.08	87.02	13.09	-53.0	-68.2	3.8	1.49e+00	0	42	104	0	77	20813
2026-01-04 21:47:54.09	87.22	13.09	-53.0	-68.2	3.8	1.49e+00	0	42	104	0	77	20837
2026-01-04 21:47:55.09	87.42	13.08	-53.0	-68.1	3.8	1.49e+00	0	42	104	0	77	20776
2026-01-04 21:47:56.09	87.62	13.07	-53.0	-68.2	3.8	1.49e+00	0	42	104	0	77	20870
2026-01-04 21:47:57.10	87.82	13.06	-53.0	-68.2	3.8	1.49e+00	0	42	104	0	77	20781
2026-01-04 21:47:58.11	88.02	13.05	-53.0	-68.2	3.8	1.49e+00	0	42	104	0	77	20816
2026-01-04 21:47:59.11	88.22	13.04	-53.0	-68.2	3.8	1.49e+00	0	42	104	0	77	20796
2026-01-04 21:48:00.11	88.41	13.03	-53.0	-68.2	3.8	1.49e+00	0	42	104	0	77	20815
2026-01-04 21:48:01.12	88.61	13.02	-53.1	-68.2	3.8	1.49e+00	0	42	104	0	77	20988
2026-01-04 21:48:02.12	88.81	13.01	-53.1	-68.1	3.8	1.49e+00	0	42	104	0	77	20758
2026-01-04 21:48:03.13	89.01	13.00	-53.1	-68.2	3.8	1.49e+00	0	42	104	0	77	20780
2026-01-04 21:48:04.13	89.21	12.99	-53.0	-68.2	3.8	1.49e+00	0	42	104	0	77	20797
2026-01-04 21:48:05.13	89.41	12.98	-53.0	-68.2	3.8	1.49e+00	0	42	104	0	77	20825
2026-01-04 21:48:06.14	89.61	12.96	-53.0	-68.1	3.8	1.49e+00	0	42	104	0	77	20702
2026-01-04 21:48:07.14	89.80	12.95	-53.0	-68.2	3.8	1.49e+00	0	42	104	0	77	20866
2026-01-04 21:48:08.15	90.00	12.94	-53.0	-68.2	3.8	1.49e+00	0	42	104	0	77	20779
2026-01-04 21:48:09.15	90.20	12.93	-53.0	-68.2	3.8	1.49e+00	0	42	104	0	77	20805
2026-01-04 21:48:10.16	90.40	12.91	-53.0	-68.2	3.8	1.49e+00	0	42	104	0	77	20835
2026-01-04 21:48:11.16	90.59	12.90	-53.0	-68.2	3.8	1.49e+00	0	41	104	0	77	20828
2026-01-04 21:48:12.17	90.79	12.89	-53.1	-68.2	3.8	1.49e+00	0	42	104	0	77	20895
2026-01-04 21:48:13.17	90.99	12.87	-53.1	-68.2	3.8	1.49e+00	0	42	104	0	77	20906
2026-01-04 21:48:14.17	91.18	12.86	-53.1	-68.2	3.8	1.49e+00	0	42	104	0	77	20843
2026-01-04 21:48:15.18	91.38	12.84	-53.1	-68.2	3.8	1.49e+00	0	42	104	0	77	20815
2026-01-04 21:48:16.18	91.58	12.83	-53.0	-68.2	3.8	1.49e+00	0	42	104	0	77	20861
2026-01-04 21:48:17.19	91.77	12.81	-53.0	-68.2	3.8	1.49e+00	0	42	104	0	77	20844
2026-01-04 21:48:18.19	91.97	12.80	-53.0	-68.2	3.8	1.49e+00	0	42	104	0	77	20797
2026-01-04 21:48:19.20	92.17	12.78	-53.0	-68.2	3.8	1.49e+00	0	42	104	0	77	20795
2026-01-04 21:48:20.20	92.36	12.77	-53.0	-68.2	3.8	1.49e+00	0	42	104	0	77	20790
2026-01-04 21:48:21.20	92.56	12.75	-53.0	-68.2	3.8	1.49e+00	0	42	104	0	77	20818
2026-01-04 21:48:22.21	92.75	12.73	-53.0	-68.2	3.8	1.49e+00	0	42	104	0	77	20778
2026-01-04 21:48:23.21	92.95	12.72	-53.0	-68.1	3.8	1.49e+00	0	42	104	0	77	20751
2026-01-04 21:48:24.22	93.14	12.70	-53.0	-68.1	3.8	1.49e+00	0	42	104	0	77	20769
2026-01-04 21:48:25.22	93.34	12.68	-53.0	-68.1	3.8	1.49e+00	0	42	104	0	77	20775
2026-01-04 21:48:26.22	93.53	12.67	-53.0	-68.2	3.8	1.49e+00	0	42	104	0	77	20814
2026-01-04 21:48:27.23	93.72	12.65	-53.0	-68.2	3.8	1.49e+00	0	42	104	0	77	20777
2026-01-04 21:48:28.23	93.92	12.63	-53.0	-68.2	3.8	1.49e+00	0	42	104	0	77	20808
2026-01-04 21:48:29.24	94.11	12.61	-53.0	-68.2	3.8	1.49e+00	0	42	104	0	77	20841
2026-01-04 21:48:30.24	94.31	12.59	-53.0	-68.1	3.8	1.49e+00	0	42	104	0	77	20734
2026-01-04 21:48:31.25	94.50	12.57	-53.0	-68.2	3.8	1.49e+00	0	42	104	0	77	20816
2026-01-04 21:48:32.25	94.69	12.55	-53.0	-68.2	3.8	1.49e+00	0	42	104	0	77	20867
2026-01-04 21:48:33.26	94.89	12.53	-53.0	-68.2	3.8	1.49e+00	0	42	104	0	77	20829
2026-01-04 21:48:34.26	95.08	12.51	-53.0	-68.2	3.8	1.49e+00	0	42	104	0	77	20785
2026-01-04 21:48:35.26	95.27	12.49	-53.0	-68.2	3.8	1.49e+00	0	42	104	0	77	20853
2026-01-04 21:48:36.27	95.46	12.47	-53.0	-68.1	3.8	1.49e+00	0	42	104	0	77	20675
2026-01-04 21:48:37.27	95.65	12.45	-53.0	-68.2	3.8	1.49e+00	0	42	104	0	77	20886
2026-01-04 21:48:38.28	95.85	12.43	-53.0	-68.1	3.8	1.49e+00	0	42	104	0	77	20725
2026-01-04 21:48:39.28	96.04	12.41	-53.0	-68.2	3.8	1.49e+00	0	42	104	0	77	20779
2026-01-04 21:48:40.28	96.23	12.39	-53.0	-68.2	3.8	1.49e+00	0	42	104	0	77	20910
2026-01-04 21:48:41.29	96.42	12.37	-53.0	-68.1	3.8	1.49e+00	0	42	104	0	77	20753
2026-01-04 21:48:42.29	96.61	12.34	-53.0	-68.1	3.8	1.49e+00	0	42	104	0	77	20683
2026-01-04 21:48:43.29	96.80	12.32	-53.0	-68.1	3.8	1.49e+00	0	42	104	0	77	20776
2026-01-04 21:48:44.30	96.99	12.30	-53.0	-68.1	3.8	1.49e+00	0	42	104	0	77	20687
2026-01-04 21:48:45.30	97.18	12.28	-53.0	-68.1	3.8	1.49e+00	0	42	104	0	77	20671
2026-01-04 21:48:46.31	97.37	12.25	-53.0	-68.2	3.8	1.49e+00	0	42	104	0	77	20819
2026-01-04 21:48:47.31	97.55	12.23	-53.0	-68.1	3.8	1.49e+00	0	42	104	0	77	20697
2026-01-04 21:48:48.31	97.74	12.21	-53.0	-68.1	3.8	1.49e+00	0	42	104	0	77	20755
2026-01-04 21:48:49.32	97.93	12.18	-53.0	-68.1	3.8	1.49e+00	0	42	104	0	77	20764
2026-01-04 21:48:50.32	98.12	12.16	-53.0	-68.1	3.8	1.49e+00	0	42	104	0	77	20737
2026-01-04 21:48:51.33	98.31	12.13	-53.0	-68.2	3.8	1.49e+00	0	42	104	0	77	20784
2026-01-04 21:48:52.33	98.49	12.11	-53.0	-68.1	3.8	1.49e+00	0	42	104	0	77	20727
2026-01-04 21:48:53.33	98.68	12.08	-53.0	-68.2	3.8	1.49e+00	0	42	104	0	77	20795
2026-01-04 21:48:54.34	98.87	12.06	-53.0	-68.1	3.8	1.49e+00	0	42	104	0	77	20766
2026-01-04 21:48:55.34	99.05	12.03	-53.0	-68.1	3.8	1.49e+00	0	42	104	0	77	20749
2026-01-04 21:48:56.35	99.24	12.01	-53.0	-68.1	3.8	1.49e+00	0	42	104	0	77	20704
2026-01-04 21:48:57.35	99.43	11.98	-53.0	-68.1	3.8	1.49e+00	0	42	104	0	77	20730
2026-01-04 21:48:58.36	99.61	11.96	-53.0	-68.2	3.8	1.49e+00	0	42	104	0	77	20810
2026-01-04 21:48:59.36	99.80	11.93	-53.0	-68.2	3.8	1.49e+00	0	42	104	0	77	20869
2026-01-04 21:49:00.36	99.98	11.90	-53.1	-68.1	3.8	1.49e+00	0	42	104	0	77	20743
2026-01-04 21:49:01.37	100.17	11.88	-53.1	-68.2	3.8	1.49e+00	0	42	104	0	77	20830
2026-01-04 21:49:02.37	100.35	11.85	-53.1	-68.1	3.8	1.49e+00	0	42	104	0	77	20761
2026-01-04 21:49:03.38	100.54	11.82	-53.1	-68.2	3.8	1.49e+00	0	42	104	0	77	20787
2026-01-04 21:49:04.38	100.72	11.79	-53.1	-68.1	3.8	1.49e+00	0	42	104	0	77	20686
2026-01-04 21:49:05.38	100.90	11.77	-53.1	-68.1	3.8	1.49e+00	0	42	104	0	77	20748
2026-01-04 21:49:06.39	101.09	11.74	-53.1	-68.1	3.8	1.49e+00	0	42	104	0	77	20747
2026-01-04 21:49:07.39	101.27	11.71	-53.1	-68.1	3.8	1.49e+00	0	42	104	0	77	20735
2026-01-04 21:49:08.40	101.45	11.68	-53.1	-68.2	3.8	1.49e+00	0	42	104	0	77	20799
2026-01-04 21:49:09.40	101.63	11.65	-53.1	-68.2	3.8	1.49e+00	0	42	104	0	77	20820
2026-01-04 21:49:10.41	101.81	11.62	-53.0	-68.1	3.8	1.49e+00	0	42	104	0	77	20775
2026-01-04 21:49:11.41	102.00	11.59	-53.0	-68.2	3.8	1.49e+00	0	42	104	0	77	20789
2026-01-04 21:49:12.42	102.18	11.56	-53.0	-68.1	3.8	1.49e+00	0	42	104	0	77	20696
2026-01-04 21:49:13.42	102.36	11.53	-53.0	-68.1	3.8	1.49e+00	0	42	104	0	77	20767
2026-01-04 21:49:14.42	102.54	11.50	-53.0	-68.2	3.8	1.49e+00	0	42	104	0	77	20825
2026-01-04 21:49:15.42	102.72	11.47	-53.0	-68.1	3.8	1.49e+00	0	42	104	0	77	20767
2026-01-04 21:49:16.43	102.90	11.44	-53.0	-68.2	3.8	1.49e+00	0	42	104	0	77	20865
2026-01-04 21:49:17.43	103.07	11.41	-53.0	-68.1	3.8	1.49e+00	0	42	104	0	77	20701
2026-01-04 21:49:18.44	103.25	11.38	-53.0	-68.2	3.8	1.49e+00	0	42	104	0	77	20793
2026-01-04 21:49:19.44	103.43	11.35	-53.0	-68.2	3.8	1.49e+00	0	42	104	0	77	20814
2026-01-04 21:49:20.45	103.61	11.32	-53.0	-68.1	3.8	1.49e+00	0	42	104	0	77	20747
2026-01-04 21:49:21.45	103.79	11.29	-53.0	-68.2	3.8	1.49e+00	0	42	104	0	77	20862
2026-01-04 21:49:22.46	103.97	11.26	-53.0	-68.2	3.8	1.49e+00	0	42	104	0	77	20786
2026-01-04 21:49:23.46	104.14	11.23	-53.0	-68.2	3.8	1.49e+00	0	42	104	0	77	20796
2026-01-04 21:49:24.46	104.32	11.19	-53.0	-68.2	3.8	1.49e+00	0	42	104	0	77	20824
2026-01-04 21:49:25.47	104.50	11.16	-53.0	-68.2	3.8	1.49e+00	0	42	104	0	77	20848
2026-01-04 21:49:26.47	104.67	11.13	-53.0	-68.2	3.8	1.49e+00	0	42	104	0	77	20777
2026-01-04 21:49:27.48	104.85	11.10	-53.0	-68.1	3.8	1.49e+00	0	42	104	0	77	20756
2026-01-04 21:49:28.48	105.02	11.06	-53.0	-68.2	3.8	1.49e+00	0	42	104	0	77	20821
2026-01-04 21:49:29.48	105.20	11.03	-53.0	-68.2	3.8	1.49e+00	0	42	104	0	77	20856
2026-01-04 21:49:30.49	105.37	11.00	-53.0	-68.2	3.8	1.49e+00	0	42	104	0	77	20777
2026-01-04 21:49:31.49	105.54	10.96	-53.0	-68.1	3.8	1.49e+00	0	42	104	0	77	20772
2026-01-04 21:49:32.50	105.72	10.93	-53.0	-68.2	3.8	1.49e+00	0	42	104	0	77	20779
2026-01-04 21:49:33.50	105.89	10.90	-53.0	-68.1	3.8	1.49e+00	0	42	104	0	77	20743
2026-01-04 21:49:34.51	106.06	10.86	-53.0	-68.2	3.8	1.49e+00	0	42	104	0	77	20838
2026-01-04 21:49:35.51	106.24	10.83	-53.0	-68.2	3.8	1.49e+00	0	42	104	0	77	20829
2026-01-04 21:49:36.51	106.41	10.79	-53.0	-68.2	3.8	1.49e+00	0	42	104	0	77	20857
2026-01-04 21:49:37.52	106.58	10.76	-53.0	-68.1	3.8	1.49e+00	0	42	104	0	77	20716
2026-01-04 21:49:38.52	106.75	10.73	-53.0	-68.2	3.8	1.49e+00	0	42	104	0	77	20809
2026-01-04 21:49:39.53	106.92	10.69	-53.1	-68.2	3.8	1.49e+00	0	42	104	0	77	20841
2026-01-04 21:49:40.53	107.09	10.66	-53.1	-68.2	3.8	1.49e+00	0	42	104	0	77	20836
2026-01-04 21:49:41.53	107.26	10.62	-53.1	-68.2	3.8	1.49e+00	0	42	104	0	77	20916
2026-01-04 21:49:42.54	107.43	10.59	-53.1	-68.2	3.8	1.49e+00	0	42	104	0	77	20880
2026-01-04 21:49:43.55	107.60	10.55	-53.1	-68.2	3.8	1.49e+00	0	42	104	0	77	20892
2026-01-04 21:49:44.55	107.77	10.51	-53.0	-68.2	3.8	1.49e+00	0	42	104	0	77	20863
2026-01-04 21:49:45.55	107.94	10.48	-53.0	-68.2	3.8	1.49e+00	0	42	104	0	77	20866
2026-01-04 21:49:46.56	108.11	10.44	-53.0	-68.1	3.8	1.49e+00	0	42	104	0	77	20713
2026-01-04 21:49:47.56	108.27	10.41	-53.0	-68.2	3.8	1.49e+00	0	42	104	0	77	20828
2026-01-04 21:49:48.57	108.44	10.37	-53.0	-68.2	3.8	1.49e+00	0	42	104	0	77	20851
2026-01-04 21:49:49.57	108.61	10.33	-53.0	-68.2	3.8	1.49e+00	0	42	104	0	77	20862
2026-01-04 21:49:50.58	108.78	10.30	-53.0	-68.2	3.8	1.49e+00	0	42	104	0	77	20824
2026-01-04 21:49:51.58	108.94	10.26	-53.0	-68.2	3.8	1.49e+00	0	42	104	0	77	20864
2026-01-04 21:49:52.58	109.11	10.22	-53.0	-68.1	3.8	1.49e+00	0	42	104	0	77	20764
2026-01-04 21:49:53.59	109.27	10.19	-53.0	-68.2	3.8	1.49e+00	0	42	104	0	77	20890
2026-01-04 21:49:54.59	109.44	10.15	-53.0	-68.2	3.8	1.49e+00	0	42	104	0	77	20778
2026-01-04 21:49:55.60	109.60	10.11	-53.0	-68.2	3.8	1.49e+00	0	42	104	0	77	20871
2026-01-04 21:49:56.60	109.76	10.07	-53.0	-68.2	3.8	1.49e+00	0	42	104	0	77	20829
2026-01-04 21:49:57.61	109.93	10.04	-53.0	-68.2	3.8	1.49e+00	0	42	104	0	77	20827
2026-01-04 21:49:58.61	110.09	10.00	-53.0	-68.2	3.8	1.49e+00	0	42	104	0	77	20818
2026-01-04 21:49:59.61	110.25	9.96	-53.0	-68.1	3.8	1.49e+00	0	42	104	0	77	20773
2026-01-04 21:50:00.62	110.42	9.92	-53.0	-68.2	3.8	1.49e+00	0	42	104	0	77	20826
2026-01-04 21:50:01.62	110.58	9.88	-53.0	-68.2	3.8	1.49e+00	0	42	104	0	77	20813
2026-01-04 21:50:02.63	110.74	9.84	-53.0	-68.2	3.8	1.49e+00	0	42	104	0	77	20805
2026-01-04 21:50:03.63	110.90	9.81	-53.0	-68.2	3.8	1.49e+00	0	42	104	0	77	20914
2026-01-04 21:50:04.64	111.06	9.77	-53.0	-68.2	3.8	1.49e+00	0	42	104	0	77	20800
2026-01-04 21:50:05.64	111.22	9.73	-53.0	-68.2	3.8	1.49e+00	0	42	104	0	77	20868
2026-01-04 21:50:06.64	111.38	9.69	-53.0	-68.2	3.8	1.49e+00	0	42	104	0	77	20940
2026-01-04 21:50:07.65	111.54	9.65	-53.0	-68.2	3.8	1.49e+00	0	42	104	0	77	20879
2026-01-04 21:50:08.65	111.70	9.61	-53.0	-68.2	3.8	1.49e+00	0	42	104	0	77	20802
2026-01-04 21:50:09.65	111.86	9.57	-53.0	-68.2	3.8	1.49e+00	0	42	104	0	77	20873
2026-01-04 21:50:10.66	112.02	9.53	-53.0	-68.2	3.8	1.49e+00	0	42	104	0	77	20869
2026-01-04 21:50:11.66	112.18	9.49	-53.0	-68.2	3.8	1.49e+00	0	42	104	0	77	20874
2026-01-04 21:50:12.66	112.33	9.45	-53.0	-68.2	3.8	1.49e+00	0	42	104	0	77	20836
2026-01-04 21:50:13.67	112.49	9.41	-53.0	-68.2	3.8	1.49e+00	0	42	104	0	77	20813
2026-01-04 21:50:14.67	112.65	9.37	-53.0	-68.2	3.8	1.49e+00	0	42	104	0	77	20851
2026-01-04 21:50:15.68	112.80	9.33	-53.0	-68.2	3.8	1.49e+00	0	42	104	0	77	20876
2026-01-04 21:50:16.68	112.96	9.29	-53.0	-68.2	3.8	1.49e+00	0	42	104	0	77	20849
2026-01-04 21:50:17.68	113.11	9.25	-53.0	-68.2	3.8	1.49e+00	0	42	104	0	77	20834
2026-01-04 21:50:18.69	113.27	9.21	-53.0	-68.2	3.8	1.49e+00	0	42	104	0	77	20777
2026-01-04 21:50:19.69	113.42	9.17	-53.0	-68.2	3.8	1.49e+00	0	42	104	0	77	20847
2026-01-04 21:50:20.70	113.58	9.13	-53.0	-68.2	3.8	1.49e+00	0	42	104	0	77	20910
2026-01-04 21:50:21.70	113.73	9.09	-53.0	-68.2	3.8	1.49e+00	0	42	104	0	77	20858
2026-01-04 21:50:22.71	113.88	9.05	-53.0	-68.2	3.8	1.49e+00	0	42	104	0	77	20874
2026-01-04 21:50:23.71	114.04	9.01	-53.0	-68.1	3.8	1.49e+00	0	42	104	0	77	20738
2026-01-04 21:50:24.72	114.19	8.97	-53.0	-68.1	3.8	1.49e+00	0	42	104	0	77	20742
2026-01-04 21:50:25.72	114.34	8.93	-53.0	-68.1	3.8	1.49e+00	0	42	104	0	77	20773
2026-01-04 21:50:26.72	114.49	8.88	-53.0	-68.2	3.8	1.49e+00	0	42	104	0	77	20850
2026-01-04 21:50:27.73	114.64	8.84	-53.0	-68.2	3.8	1.49e+00	0	42	104	0	77	20826
2026-01-04 21:50:28.73	114.79	8.80	-53.0	-68.2	3.8	1.49e+00	0	42	104	0	77	20861
2026-01-04 21:50:29.74	114.95	8.76	-53.0	-68.2	3.8	1.49e+00	0	42	104	0	77	20825
2026-01-04 21:50:30.74	115.10	8.72	-52.9	-68.2	3.8	1.49e+00	0	42	104	0	77	20780
2026-01-04 21:50:31.75	115.25	8.68	-53.0	-68.2	3.8	1.49e+00	0	42	104	0	77	20809
2026-01-04 21:50:32.75	115.39	8.63	-53.0	-68.2	3.8	1.49e+00	0	42	104	0	77	20803
2026-01-04 21:50:33.76	115.54	8.59	-53.0	-68.2	3.8	1.49e+00	0	42	104	0	77	20877
2026-01-04 21:50:34.76	115.69	8.55	-53.0	-68.2	3.8	1.49e+00	0	42	104	0	77	20789
2026-01-04 21:50:35.76	115.84	8.51	-53.0	-68.1	3.8	1.49e+00	0	42	104	0	77	20703
2026-01-04 21:50:36.77	115.99	8.46	-53.0	-68.1	3.8	1.49e+00	0	42	104	0	77	20758
2026-01-04 21:50:37.77	116.13	8.42	-53.0	-68.1	3.8	1.49e+00	0	42	104	0	77	20773
2026-01-04 21:50:38.78	116.28	8.38	-53.0	-68.2	3.8	1.49e+00	0	42	104	0	77	20805
2026-01-04 21:50:39.78	116.43	8.34	-53.0	-68.1	3.8	1.49e+00	0	42	104	0	77	20746
2026-01-04 21:50:40.79	116.57	8.29	-53.0	-68.1	3.8	1.49e+00	0	42	104	0	77	20724
2026-01-04 21:50:41.79	116.72	8.25	-53.0	-68.2	3.8	1.49e+00	0	42	104	0	77	20817
2026-01-04 21:50:42.80	116.86	8.21	-53.0	-68.2	3.8	1.49e+00	0	42	104	0	77	20782
2026-01-04 21:50:43.80	117.01	8.17	-53.0	-68.2	3.8	1.49e+00	0	42	104	0	77	20811
2026-01-04 21:50:44.80	117.15	8.12	-53.0	-68.2	3.8	1.49e+00	0	42	104	0	77	20870
2026-01-04 21:50:45.81	117.30	8.08	-53.0	-68.2	3.8	1.49e+00	0	42	104	0	77	20790
2026-01-04 21:50:46.81	117.44	8.04	-53.0	-68.1	3.8	1.49e+00	0	42	104	0	77	20770
2026-01-04 21:50:47.82	117.58	7.99	-53.0	-68.1	3.8	1.49e+00	0	42	104	0	77	20770
2026-01-04 21:50:48.82	117.72	7.95	-53.0	-68.2	3.8	1.49e+00	0	42	104	0	77	20806
2026-01-04 21:50:49.83	117.87	7.91	-53.0	-68.2	3.8	1.49e+00	0	42	104	0	77	20900
2026-01-04 21:50:50.83	118.01	7.86	-53.0	-68.1	3.8	1.49e+00	0	42	104	0	77	20706
2026-01-04 21:50:51.83	118.15	7.82	-53.0	-68.1	3.8	1.49e+00	0	42	104	0	77	20734
2026-01-04 21:50:52.84	118.29	7.77	-53.0	-68.1	3.8	1.49e+00	0	42	104	0	77	20711
2026-01-04 21:50:53.84	118.43	7.73	-53.0	-68.1	3.8	1.49e+00	0	42	104	0	77	20773
2026-01-04 21:50:54.85	118.57	7.69	-53.0	-68.2	3.8	1.49e+00	0	42	104	0	77	20798
2026-01-04 21:50:55.85	118.71	7.64	-53.0	-68.1	3.8	1.49e+00	0	42	104	0	77	20745
2026-01-04 21:50:56.86	118.85	7.60	-53.0	-68.1	3.8	1.49e+00	0	42	104	0	77	20634
2026-01-04 21:50:57.86	118.99	7.56	-53.0	-68.1	3.8	1.49e+00	0	42	104	0	77	20723
2026-01-04 21:50:58.87	119.13	7.51	-53.0	-68.2	3.8	1.49e+00	0	42	104	0	77	20862
2026-01-04 21:50:59.87	119.26	7.47	-53.0	-68.1	3.8	1.49e+00	0	42	104	0	77	20768
2026-01-04 21:51:00.87	119.40	7.42	-53.0	-68.1	3.8	1.49e+00	0	42	104	0	77	20695
2026-01-04 21:51:01.88	119.54	7.38	-53.0	-68.1	3.8	1.49e+00	0	42	104	0	77	20668
2026-01-04 21:51:02.88	119.68	7.33	-53.0	-68.1	3.8	1.49e+00	0	42	104	0	77	20721
2026-01-04 21:51:03.89	119.81	7.29	-53.0	-68.2	3.8	1.49e+00	0	42	104	0	77	20790
2026-01-04 21:51:04.89	119.95	7.25	-53.0	-68.2	3.8	1.49e+00	0	42	104	0	77	20803
2026-01-04 21:51:05.89	120.08	7.20	-53.0	-68.2	3.8	1.49e+00	0	42	104	0	77	20859
2026-01-04 21:51:06.90	120.22	7.16	-53.0	-68.1	3.8	1.49e+00	0	42	104	0	77	20759
2026-01-04 21:51:07.90	120.35	7.11	-52.9	-68.1	3.8	1.49e+00	0	42	104	0	77	20643
2026-01-04 21:51:08.90	120.49	7.07	-53.0	-68.1	3.8	1.49e+00	0	42	104	0	77	20762
2026-01-04 21:51:09.91	120.62	7.02	-53.0	-68.2	3.8	1.49e+00	0	42	104	0	77	20826
2026-01-04 21:51:10.91	120.76	6.98	-53.0	-68.1	3.8	1.49e+00	0	42	104	0	77	20754
2026-01-04 21:51:11.92	120.89	6.93	-53.0	-68.1	3.8	1.49e+00	0	42	104	0	77	20751
2026-01-04 21:51:12.92	121.02	6.89	-53.0	-68.1	3.8	1.49e+00	0	42	104	0	77	20740
2026-01-04 21:51:13.93	121.16	6.84	-53.0	-68.1	3.8	1.49e+00	0	42	104	0	77	20739
2026-01-04 21:51:14.93	121.29	6.80	-53.0	-68.1	3.8	1.49e+00	0	42	104	0	77	20728
2026-01-04 21:51:15.93	121.42	6.75	-53.0	-68.1	3.8	1.49e+00	0	42	104	0	77	20745
2026-01-04 21:51:16.94	121.55	6.71	-53.0	-68.1	3.8	1.49e+00	0	42	104	0	77	20767
2026-01-04 21:51:17.94	121.68	6.66	-53.0	-68.1	3.8	1.49e+00	0	42	104	0	77	20730
2026-01-04 21:51:18.95	121.81	6.62	-53.0	-68.1	3.8	1.49e+00	0	42	104	0	77	20746
2026-01-04 21:51:19.95	121.94	6.57	-53.0	-68.1	3.8	1.49e+00	0	42	104	0	77	20762
2026-01-04 21:51:20.95	122.07	6.53	-53.0	-68.2	3.8	1.49e+00	0	42	104	0	77	20777
2026-01-04 21:51:21.96	122.20	6.48	-53.0	-68.1	3.8	1.49e+00	0	42	104	0	77	20776
2026-01-04 21:51:22.96	122.33	6.44	-53.0	-68.2	3.8	1.49e+00	0	42	104	0	77	20778
2026-01-04 21:51:23.97	122.46	6.39	-53.0	-68.1	3.8	1.49e+00	0	42	104	0	77	20773
2026-01-04 21:51:24.97	122.59	6.35	-53.0	-68.2	3.8	1.49e+00	0	42	104	0	77	20826
2026-01-04 21:51:25.98	122.71	6.30	-53.0	-68.1	3.8	1.49e+00	0	42	104	0	77	20686
2026-01-04 21:51:26.98	122.84	6.25	-53.0	-68.1	3.8	1.49e+00	0	42	104	0	77	20726
2026-01-04 21:51:27.98	122.97	6.21	-53.0	-68.1	3.8	1.49e+00	0	42	104	0	77	20758
2026-01-04 21:51:28.99	123.09	6.16	-53.0	-68.1	3.8	1.49e+00	0	42	104	0	77	20690
2026-01-04 21:51:29.99	123.22	6.12	-53.0	-68.1	3.8	1.49e+00	0	42	104	0	77	20757
2026-01-04 21:51:31.00	123.35	6.07	-53.0	-68.1	3.8	1.49e+00	0	42	104	0	77	20740
2026-01-04 21:51:32.00	123.47	6.03	-53.0	-68.1	3.8	1.49e+00	0	42	104	0	77	20703
2026-01-04 21:51:33.00	123.60	5.98	-53.0	-68.1	3.8	1.49e+00	0	42	104	0	77	20708
2026-01-04 21:51:34.01	123.72	5.93	-53.0	-68.1	3.8	1.49e+00	0	42	104	0	77	20724
2026-01-04 21:51:35.01	123.85	5.89	-53.0	-68.1	3.8	1.49e+00	0	42	104	0	77	20698
2026-01-04 21:51:36.02	123.97	5.84	-53.0	-68.2	3.8	1.49e+00	0	42	104	0	77	20815
2026-01-04 21:51:37.02	124.09	5.80	-53.0	-68.2	3.8	1.49e+00	0	42	104	0	77	20859
2026-01-04 21:51:38.03	124.22	5.75	-53.0	-68.1	3.8	1.49e+00	0	42	104	0	77	20719
2026-01-04 21:51:39.03	124.34	5.71	-53.0	-68.1	3.8	1.49e+00	0	42	104	0	77	20701
2026-01-04 21:51:40.04	124.46	5.66	-53.0	-68.1	3.8	1.49e+00	0	42	104	0	77	20695
2026-01-04 21:51:41.04	124.58	5.61	-53.0	-68.1	3.8	1.49e+00	0	42	104	0	77	20745
2026-01-04 21:51:42.04	124.70	5.57	-53.0	-68.1	3.8	1.49e+00	0	42	104	0	77	20718
2026-01-04 21:51:43.05	124.83	5.52	-53.0	-68.2	3.8	1.49e+00	0	42	104	0	77	20823
2026-01-04 21:51:44.05	124.95	5.48	-53.0	-68.1	3.8	1.49e+00	0	42	104	0	77	20709
2026-01-04 21:51:45.06	125.07	5.43	-53.0	-68.1	3.8	1.49e+00	0	42	104	0	77	20752
2026-01-04 21:51:46.06	125.19	5.38	-53.0	-68.1	3.8	1.49e+00	0	42	104	0	77	20731
2026-01-04 21:51:47.06	125.31	5.34	-53.0	-68.1	3.8	1.49e+00	0	42	104	0	77	20730
2026-01-04 21:51:48.07	125.43	5.29	-53.0	-68.1	3.8	1.49e+00	0	42	104	0	77	20722
2026-01-04 21:51:49.07	125.55	5.24	-53.0	-68.1	3.8	1.49e+00	0	42	104	0	77	20751
2026-01-04 21:51:50.07	125.66	5.20	-53.0	-68.2	3.8	1.49e+00	0	42	104	0	77	20782
2026-01-04 21:51:51.08	125.78	5.15	-53.0	-68.1	3.8	1.49e+00	0	42	104	0	77	20596
2026-01-04 21:51:52.08	125.90	5.11	-53.0	-68.1	3.8	1.49e+00	0	42	104	0	77	20749
2026-01-04 21:51:53.09	126.02	5.06	-53.0	-68.1	3.8	1.49e+00	0	42	104	0	77	20688
2026-01-04 21:51:54.09	126.14	5.01	-53.0	-68.1	3.8	1.49e+00	0	42	104	0	77	20722
2026-01-04 21:51:55.10	126.25	4.97	-53.0	-68.1	3.8	1.49e+00	0	42	104	0	77	20655

#Closed at: 2026-01-04 21:51:56
#Recorded file [0 MB]: D:/Data/31040_260105_004259.dat