passes_logs/2026/01/04/T1/T1__20260104_000154_NOAA_20_JPSS-1_rec.log

#Pass ID: 20260104_000154_NOAA 20 (JPSS-1)
#Satellite: NOAA 20 (JPSS-1)
#Configuration: NOAA 20
#almurnet v.1.7.20251203
#Start time: 2026-01-04 00:01:56

#Version: 2.0.20230620
#Station: T1
#Location: 37.570604 lon 55.790049 lat
#TLE: 1 43013U 17073A   26003.41800368  .00000169  00000+0  10117-3 0  9998
#TLE: 2 43013  98.7624 304.4804 0001884  56.1176 304.0179 14.19532918421092

#Time	Az	El	Level	Level2	SNR	BER	BlckErr	Temp	State	Recorded	gain1	gain2
2026-01-04 00:01:56.18	14.13	5.10	-53.1	-68.7	3.8	1.49e+00	0	40	0	0	77	22218
2026-01-04 00:01:57.18	14.12	5.17	-53.2	-68.8	3.8	1.49e+00	0	40	104	0	78	21051
2026-01-04 00:01:58.18	14.10	5.25	-53.1	-68.7	3.8	1.49e+00	0	40	104	0	78	21005
2026-01-04 00:01:59.19	14.09	5.32	-53.2	-68.7	3.8	1.49e+00	0	40	104	0	78	21003
2026-01-04 00:02:00.19	14.07	5.39	-53.2	-68.8	3.8	1.49e+00	0	40	104	0	78	21023
2026-01-04 00:02:01.19	14.06	5.46	-53.1	-68.8	3.8	1.49e+00	0	40	104	0	78	21069
2026-01-04 00:02:02.20	14.04	5.53	-53.1	-68.8	3.8	1.49e+00	0	41	104	0	78	21060
2026-01-04 00:02:03.20	14.03	5.61	-53.2	-68.8	3.8	1.49e+00	0	41	104	0	78	21144
2026-01-04 00:02:04.21	14.01	5.68	-53.1	-68.8	3.8	1.49e+00	0	40	104	0	78	21029
2026-01-04 00:02:05.21	14.00	5.75	-53.1	-68.8	3.8	1.49e+00	0	41	104	0	78	21259
2026-01-04 00:02:06.22	13.98	5.83	-53.2	-68.8	3.8	1.49e+00	0	41	104	0	78	21082
2026-01-04 00:02:07.22	13.96	5.90	-53.1	-68.8	3.8	1.49e+00	0	41	104	0	78	21060
2026-01-04 00:02:08.23	13.95	5.97	-53.0	-68.6	3.9	1.49e+00	0	41	104	0	77	21764
2026-01-04 00:02:09.23	13.93	6.05	-53.1	-68.6	3.8	1.49e+00	0	41	104	0	77	21932
2026-01-04 00:02:10.23	13.92	6.12	-53.0	-68.6	3.8	1.49e+00	0	41	104	0	77	21862
2026-01-04 00:02:11.24	13.90	6.20	-52.9	-68.4	3.8	1.49e+00	0	41	104	0	77	21477
2026-01-04 00:02:12.24	13.88	6.27	-53.1	-68.6	3.8	1.49e+00	0	41	104	0	77	21756
2026-01-04 00:02:13.25	13.87	6.34	-53.1	-68.5	3.8	1.49e+00	0	41	104	0	77	21596
2026-01-04 00:02:14.25	13.85	6.42	-53.0	-68.4	3.8	1.49e+00	0	41	104	0	77	21362
2026-01-04 00:02:15.26	13.83	6.49	-53.1	-68.4	3.8	1.49e+00	0	41	104	0	77	21366
2026-01-04 00:02:16.26	13.82	6.57	-52.9	-68.2	3.8	1.49e+00	0	41	104	0	77	20990
2026-01-04 00:02:17.27	13.80	6.65	-53.0	-68.2	3.8	1.49e+00	0	41	104	0	77	20966
2026-01-04 00:02:18.27	13.78	6.72	-53.0	-68.1	3.8	1.49e+00	0	41	104	0	77	20557
2026-01-04 00:02:19.28	13.77	6.80	-53.0	-68.0	3.8	1.49e+00	0	41	104	0	77	20463
2026-01-04 00:02:20.28	13.75	6.87	-53.0	-68.0	3.8	1.49e+00	0	41	104	0	77	20511
2026-01-04 00:02:21.28	13.73	6.95	-53.1	-68.1	3.8	1.49e+00	0	41	104	0	77	20660
2026-01-04 00:02:22.29	13.72	7.03	-53.1	-68.1	3.8	1.49e+00	0	41	104	0	77	20723
2026-01-04 00:02:23.30	13.70	7.10	-53.1	-68.1	3.8	1.49e+00	0	41	104	0	77	20744
2026-01-04 00:02:24.30	13.68	7.18	-53.1	-68.2	3.8	1.49e+00	0	41	104	0	77	20853
2026-01-04 00:02:25.30	13.66	7.26	-53.3	-68.5	3.8	1.49e+00	0	42	104	0	77	21541
2026-01-04 00:02:26.31	13.65	7.34	-53.1	-68.2	3.8	1.49e+00	0	41	104	0	77	20841
2026-01-04 00:02:27.31	13.63	7.41	-53.0	-68.1	3.8	1.49e+00	0	41	104	0	77	20760
2026-01-04 00:02:28.32	13.61	7.49	-53.0	-68.0	3.8	1.49e+00	0	41	104	0	77	20401
2026-01-04 00:02:29.32	13.59	7.57	-53.0	-67.8	3.8	1.49e+00	0	41	104	0	77	20053
2026-01-04 00:02:30.32	13.57	7.65	-53.0	-67.7	3.8	1.49e+00	0	42	104	0	77	19715
2026-01-04 00:02:31.33	13.56	7.73	-52.9	-67.2	3.8	1.49e+00	0	41	104	0	77	18575
2026-01-04 00:02:32.33	13.54	7.81	-53.0	-66.7	3.9	1.49e+00	0	41	104	0	77	17546
2026-01-04 00:02:33.34	13.52	7.89	-53.0	-66.3	3.8	1.49e+00	0	42	104	0	77	16742
2026-01-04 00:02:34.34	13.50	7.96	-52.9	-65.4	4.1	1.44e+00	0	42	0	0	77	15102
2026-01-04 00:02:35.34	13.48	8.04	-52.9	-64.6	4.4	1.35e+00	0	42	0	0	77	13845
2026-01-04 00:02:36.35	13.46	8.12	-52.9	-63.8	4.8	1.02e+00	0	41	0	2097152	77	12548
2026-01-04 00:02:37.35	13.44	8.20	-52.8	-63.0	5.2	6.66e-01	0	42	0	4194304	77	11528
2026-01-04 00:02:38.36	13.42	8.29	-52.7	-62.2	5.7	5.16e-01	0	42	0	5242880	77	10418
2026-01-04 00:02:39.36	13.40	8.37	-52.5	-61.5	6.2	3.42e-01	0	42	0	7340032	77	9608
2026-01-04 00:02:40.37	13.38	8.45	-52.4	-60.7	6.8	2.01e-01	0	42	0	9437184	76	9359
2026-01-04 00:02:41.37	13.37	8.53	-52.3	-60.2	7.3	1.47e-01	0	42	0	11534336	76	8776
2026-01-04 00:02:42.37	13.35	8.61	-52.1	-59.7	7.8	1.01e-01	0	42	0	12582912	76	8296
2026-01-04 00:02:43.38	13.33	8.69	-52.1	-59.4	8.0	6.91e-02	0	42	0	14680064	76	8068
2026-01-04 00:02:44.38	13.31	8.77	-51.9	-59.2	8.2	6.38e-02	0	42	0	16777216	74	8780
2026-01-04 00:02:45.39	13.29	8.86	-51.9	-59.0	8.2	5.28e-02	0	42	0	18874368	74	8660
2026-01-04 00:02:46.39	13.26	8.94	-52.0	-59.3	8.1	5.94e-02	0	42	0	20971520	74	8869
2026-01-04 00:02:47.40	13.24	9.02	-52.1	-59.5	7.8	6.81e-02	0	42	0	22020096	74	9171
2026-01-04 00:02:48.40	13.22	9.10	-52.1	-59.8	7.5	8.22e-02	0	42	0	24117248	74	9479
2026-01-04 00:02:49.48	13.20	9.19	-52.8	-64.2	4.6	1.79e-01	0	42	0	26214400	76	14009
2026-01-04 00:02:50.34	13.18	9.27	-52.9	-64.2	4.2	1.45e+00	0	42	104	26214400	77	13234
2026-01-04 00:02:51.49	13.16	9.36	-49.7	-53.7	14.0	2.89e-05	0	42	0	27262976	71	5552
2026-01-04 00:02:52.35	13.14	9.43	-49.5	-53.5	14.1	4.50e-06	0	42	0	29360128	71	5424
2026-01-04 00:02:53.50	13.12	9.53	-50.8	-55.9	11.3	1.09e-01	0	42	0	31457280	73	6407
2026-01-04 00:02:54.36	13.10	9.60	-49.6	-53.5	14.1	5.30e-06	0	42	0	32505856	71	5463
2026-01-04 00:02:55.51	13.07	9.70	-49.4	-53.1	14.6	2.20e-06	0	42	0	34603008	70	5516
2026-01-04 00:02:56.37	13.06	9.77	-48.9	-52.6	14.9	3.00e-06	0	42	0	36700160	69	5478
2026-01-04 00:02:57.51	13.03	9.87	-48.9	-52.4	15.3	0.00e+00	0	42	0	38797312	69	5356
2026-01-04 00:02:58.37	13.01	9.94	-48.8	-52.3	15.4	0.00e+00	0	42	0	39845888	69	5291
2026-01-04 00:02:59.52	12.99	10.04	-48.7	-52.2	15.5	0.00e+00	0	42	0	41943040	69	5220
2026-01-04 00:03:00.38	12.97	10.12	-48.6	-52.0	15.6	0.00e+00	0	42	0	44040192	69	5150
2026-01-04 00:03:01.64	12.94	10.23	-48.7	-52.1	15.5	0.00e+00	0	42	0	46137344	69	5187
2026-01-04 00:03:02.37	12.92	10.29	-48.5	-51.9	15.7	0.00e+00	0	42	0	48234496	69	5052
2026-01-04 00:03:03.66	12.89	10.40	-48.3	-51.5	16.1	0.00e+00	0	42	0	50331648	68	5148
2026-01-04 00:03:04.37	12.88	10.46	-48.2	-51.5	16.1	0.00e+00	0	42	0	51380224	68	5104
2026-01-04 00:03:05.66	12.85	10.58	-48.1	-51.3	16.1	0.00e+00	0	42	0	53477376	68	4996
2026-01-04 00:03:06.38	12.83	10.64	-48.2	-51.4	16.2	7.60e-06	0	42	0	55574528	68	5044
2026-01-04 00:03:07.67	12.80	10.75	-48.1	-51.2	16.2	3.80e-06	0	42	0	57671680	68	4963
2026-01-04 00:03:08.39	12.78	10.82	-48.2	-51.3	16.3	0.00e+00	0	42	0	58720256	68	5004
2026-01-04 00:03:09.68	12.75	10.93	-48.1	-51.2	16.4	0.00e+00	0	42	0	61865984	68	4977
2026-01-04 00:03:10.40	12.74	11.00	-48.1	-51.2	16.4	0.00e+00	0	42	0	62914560	68	4944
2026-01-04 00:03:11.68	12.70	11.11	-48.1	-51.2	16.3	0.00e+00	0	42	0	65011712	68	4981
2026-01-04 00:03:12.61	12.68	11.20	-48.3	-51.5	16.2	0.00e+00	0	42	0	67108864	68	5104
2026-01-04 00:03:13.95	12.65	11.32	-48.3	-51.4	16.2	0.00e+00	0	42	0	69206016	68	5097
2026-01-04 00:03:14.69	12.63	11.38	-48.3	-51.4	16.3	0.00e+00	0	42	0	71303168	68	5071
2026-01-04 00:03:16.30	12.59	11.53	-48.0	-51.0	16.6	0.00e+00	0	42	0	74448896	68	4870
2026-01-04 00:03:16.89	12.58	11.58	-48.0	-51.0	16.6	0.00e+00	0	42	0	75497472	68	4861
2026-01-04 00:03:18.47	12.54	11.73	-47.9	-50.9	16.6	0.00e+00	0	42	0	77594624	67	5050
2026-01-04 00:03:19.04	12.52	11.78	-47.9	-50.9	16.6	0.00e+00	0	42	0	78643200	67	5098
2026-01-04 00:03:20.62	12.48	11.93	-47.9	-50.9	16.7	0.00e+00	0	42	0	81788928	67	5090
2026-01-04 00:03:21.21	12.47	11.98	-47.9	-50.9	16.7	0.00e+00	0	42	0	82837504	67	5098
2026-01-04 00:03:22.85	12.42	12.14	-47.9	-50.9	16.7	0.00e+00	0	42	0	85983232	67	5091
2026-01-04 00:03:23.42	12.41	12.19	-47.8	-50.8	16.8	0.00e+00	0	42	0	87031808	67	4991
2026-01-04 00:03:25.00	12.37	12.34	-47.7	-50.7	16.9	0.00e+00	0	42	0	90177536	67	4954
2026-01-04 00:03:25.58	12.35	12.39	-47.7	-50.7	16.9	0.00e+00	0	42	0	91226112	67	4968
2026-01-04 00:03:27.16	12.31	12.54	-47.6	-50.5	17.1	0.00e+00	0	42	0	94371840	67	4847
2026-01-04 00:03:27.73	12.29	12.60	-47.5	-50.4	17.2	0.00e+00	0	42	0	95420416	67	4786
2026-01-04 00:03:29.31	12.25	12.75	-47.5	-50.4	17.1	0.00e+00	0	42	0	98566144	67	4804
2026-01-04 00:03:29.93	12.23	12.81	-47.6	-50.5	17.1	0.00e+00	0	42	0	99614720	67	4847
2026-01-04 00:03:31.51	12.19	12.96	-47.4	-50.3	17.3	0.00e+00	0	42	0	102760448	66	4987
2026-01-04 00:03:32.10	12.17	13.02	-47.5	-50.4	17.2	0.00e+00	0	42	0	103809024	66	5044
2026-01-04 00:03:33.67	12.13	13.17	-47.3	-50.2	17.4	1.50e-06	0	42	0	106954752	66	4940
2026-01-04 00:03:34.27	12.11	13.23	-47.3	-50.2	17.3	0.00e+00	0	42	0	108003328	66	4944
2026-01-04 00:03:35.85	12.07	13.38	-47.2	-50.1	17.3	2.20e-06	0	42	0	110100480	66	4922
2026-01-04 00:03:36.43	12.05	13.44	-47.3	-50.1	17.5	7.00e-07	0	42	0	112197632	66	4906
2026-01-04 00:03:38.01	12.00	13.60	-47.5	-50.3	17.3	0.00e+00	0	42	0	114294784	66	5040
2026-01-04 00:03:38.60	11.99	13.65	-47.5	-50.4	17.3	2.20e-06	0	42	0	115343360	66	5065
2026-01-04 00:03:40.18	11.94	13.81	-47.4	-50.3	17.3	1.50e-06	0	43	0	118489088	66	5008
2026-01-04 00:03:41.15	11.91	13.91	-47.3	-50.2	17.4	0.00e+00	0	42	0	120586240	66	4945
2026-01-04 00:03:42.15	11.88	14.01	-47.2	-50.0	17.6	0.00e+00	0	43	0	122683392	66	4850
2026-01-04 00:03:43.15	11.85	14.11	-47.2	-50.0	17.6	0.00e+00	0	42	0	124780544	66	4847
2026-01-04 00:03:44.16	11.82	14.21	-47.1	-49.9	17.7	0.00e+00	0	43	0	125829120	66	4774
2026-01-04 00:03:45.17	11.79	14.32	-47.1	-49.9	17.7	0.00e+00	0	42	0	127926272	66	4793
2026-01-04 00:03:46.18	11.76	14.42	-47.0	-49.7	17.8	0.00e+00	0	42	0	130023424	66	4693
2026-01-04 00:03:47.18	11.72	14.52	-47.0	-49.7	17.9	0.00e+00	0	42	0	132120576	65	4954
2026-01-04 00:03:48.18	11.69	14.63	-47.0	-49.7	17.8	0.00e+00	0	43	0	134217728	65	4955
2026-01-04 00:03:49.18	11.66	14.73	-47.0	-49.7	17.9	0.00e+00	0	42	0	135266304	65	4968
2026-01-04 00:03:50.35	11.62	14.85	-47.0	-49.7	17.9	0.00e+00	0	43	0	137363456	65	4973
2026-01-04 00:03:51.23	11.59	14.94	-46.9	-49.7	17.9	0.00e+00	0	42	0	139460608	65	4932
2026-01-04 00:03:52.38	11.56	15.06	-46.9	-49.6	18.0	0.00e+00	0	43	0	141557760	65	4885
2026-01-04 00:03:53.24	11.53	15.15	-46.9	-49.6	18.1	0.00e+00	0	42	0	143654912	65	4878
2026-01-04 00:03:54.38	11.49	15.28	-46.8	-49.5	18.1	0.00e+00	0	42	0	145752064	65	4839
2026-01-04 00:03:55.24	11.46	15.37	-46.7	-49.4	18.2	0.00e+00	0	43	0	146800640	65	4782
2026-01-04 00:03:56.39	11.42	15.49	-46.7	-49.4	18.2	0.00e+00	0	43	0	148897792	65	4779
2026-01-04 00:03:57.25	11.39	15.58	-46.8	-49.4	18.2	0.00e+00	0	42	0	150994944	65	4802
2026-01-04 00:03:58.39	11.36	15.70	-46.7	-49.3	18.3	0.00e+00	0	42	0	153092096	65	4756
2026-01-04 00:03:59.25	11.33	15.80	-46.7	-49.3	18.3	0.00e+00	0	43	0	154140672	65	4726
2026-01-04 00:04:00.40	11.29	15.92	-46.8	-49.3	18.3	0.00e+00	0	42	0	156237824	65	4758
2026-01-04 00:04:01.26	11.26	16.02	-46.8	-49.4	18.2	0.00e+00	0	42	0	158334976	65	4801
2026-01-04 00:04:02.41	11.21	16.14	-46.7	-49.3	18.4	0.00e+00	0	43	0	160432128	65	4745
2026-01-04 00:04:03.27	11.18	16.24	-46.6	-49.1	18.5	0.00e+00	0	42	0	161480704	65	4647
2026-01-04 00:04:04.53	11.14	16.38	-46.7	-49.2	18.5	0.00e+00	0	42	0	164626432	65	4686
2026-01-04 00:04:05.25	11.11	16.46	-46.8	-49.4	18.4	0.00e+00	0	43	0	165675008	65	4797
2026-01-04 00:04:06.74	11.06	16.62	-46.6	-49.1	18.6	0.00e+00	0	43	0	168820736	65	4651
2026-01-04 00:04:07.46	11.03	16.70	-46.6	-49.1	18.6	0.00e+00	0	43	0	169869312	65	4643
2026-01-04 00:04:08.75	10.98	16.85	-46.5	-49.0	18.7	0.00e+00	0	43	0	171966464	65	4596
2026-01-04 00:04:09.47	10.96	16.93	-46.5	-49.0	18.6	0.00e+00	0	42	0	174063616	65	4578
2026-01-04 00:04:10.76	10.91	17.08	-46.5	-49.0	18.7	0.00e+00	0	42	0	176160768	64	4823
2026-01-04 00:04:11.48	10.88	17.16	-46.4	-48.9	18.8	0.00e+00	0	43	0	177209344	64	4761
2026-01-04 00:04:12.76	10.83	17.31	-46.4	-48.8	18.8	0.00e+00	0	42	0	179306496	64	4748
2026-01-04 00:04:13.48	10.80	17.39	-46.5	-48.9	18.8	0.00e+00	0	42	0	181403648	64	4793
2026-01-04 00:04:14.77	10.75	17.54	-46.4	-48.9	18.8	0.00e+00	0	43	0	183500800	64	4784
2026-01-04 00:04:15.49	10.72	17.62	-46.4	-48.8	18.9	0.00e+00	0	43	0	184549376	64	4739
2026-01-04 00:04:16.77	10.67	17.77	-46.4	-48.8	18.9	0.00e+00	0	42	0	187695104	64	4757
2026-01-04 00:04:17.49	10.64	17.86	-46.3	-48.8	18.9	0.00e+00	0	43	0	188743680	64	4715
2026-01-04 00:04:18.78	10.59	18.01	-46.4	-48.8	18.9	0.00e+00	0	42	0	190840832	64	4752
2026-01-04 00:04:19.50	10.56	18.10	-46.3	-48.8	18.9	0.00e+00	0	43	0	192937984	64	4718
2026-01-04 00:04:20.79	10.51	18.25	-46.3	-48.8	19.0	0.00e+00	0	42	0	195035136	64	4716
2026-01-04 00:04:21.50	10.48	18.33	-46.2	-48.6	19.0	0.00e+00	0	43	0	196083712	64	4648
2026-01-04 00:04:22.86	10.42	18.50	-46.3	-48.7	19.0	0.00e+00	0	43	0	199229440	64	4698
2026-01-04 00:04:23.58	10.39	18.59	-46.3	-48.7	19.0	0.00e+00	0	43	0	200278016	64	4701
2026-01-04 00:04:24.87	10.34	18.74	-46.3	-48.8	18.9	0.00e+00	0	43	0	202375168	64	4720
2026-01-04 00:04:25.58	10.31	18.83	-46.2	-48.7	19.0	0.00e+00	0	43	0	203423744	64	4703
2026-01-04 00:04:26.87	10.25	18.99	-46.3	-48.8	18.9	0.00e+00	0	43	0	206569472	64	4706
2026-01-04 00:04:27.59	10.22	19.08	-46.2	-48.6	19.1	0.00e+00	0	43	0	207618048	64	4633
2026-01-04 00:04:28.88	10.16	19.24	-46.1	-48.6	19.1	0.00e+00	0	43	0	209715200	64	4633
2026-01-04 00:04:29.60	10.13	19.32	-46.1	-48.6	19.1	0.00e+00	0	43	0	211812352	64	4624
2026-01-04 00:04:30.89	10.07	19.49	-46.0	-48.5	19.1	0.00e+00	0	43	0	213909504	64	4597
2026-01-04 00:04:31.60	10.04	19.58	-46.0	-48.5	19.1	0.00e+00	0	43	0	214958080	64	4582
2026-01-04 00:04:32.89	9.98	19.74	-46.2	-48.7	19.0	0.00e+00	0	43	0	217055232	64	4663
2026-01-04 00:04:33.61	9.95	19.83	-46.2	-48.7	19.1	0.00e+00	0	43	0	219152384	64	4675
2026-01-04 00:04:34.89	9.89	19.99	-46.1	-48.5	19.2	0.00e+00	0	43	0	221249536	64	4587
2026-01-04 00:04:35.61	9.85	20.09	-46.1	-48.6	19.2	0.00e+00	0	43	0	222298112	64	4611
2026-01-04 00:04:36.90	9.79	20.25	-46.1	-48.6	19.2	0.00e+00	0	42	0	225443840	64	4614
2026-01-04 00:04:37.61	9.76	20.34	-46.0	-48.5	19.2	0.00e+00	0	42	0	226492416	64	4575
2026-01-04 00:04:38.90	9.69	20.51	-46.0	-48.5	19.3	0.00e+00	0	43	0	228589568	64	4549
2026-01-04 00:04:39.62	9.66	20.61	-46.1	-48.6	19.1	0.00e+00	0	43	0	229638144	64	4623
2026-01-04 00:04:40.91	9.60	20.78	-46.1	-48.5	19.2	0.00e+00	0	43	0	232783872	64	4568
2026-01-04 00:04:41.66	9.56	20.87	-46.0	-48.4	19.4	0.00e+00	0	43	0	233832448	64	4509
2026-01-04 00:04:43.25	9.48	21.09	-46.0	-48.3	19.4	0.00e+00	0	43	0	236978176	64	4462
2026-01-04 00:04:43.83	9.45	21.16	-46.0	-48.3	19.4	0.00e+00	0	43	0	238026752	64	4483
2026-01-04 00:04:45.42	9.37	21.38	-46.1	-48.4	19.5	0.00e+00	0	43	0	241172480	63	4767
2026-01-04 00:04:45.99	9.34	21.45	-46.0	-48.3	19.5	0.00e+00	0	43	0	242221056	63	4750
2026-01-04 00:04:47.57	9.26	21.67	-46.1	-48.4	19.4	0.00e+00	0	43	0	245366784	63	4790
2026-01-04 00:04:48.17	9.22	21.75	-46.1	-48.3	19.4	0.00e+00	0	43	0	246415360	63	4759
2026-01-04 00:04:49.78	9.14	21.97	-46.0	-48.3	19.5	0.00e+00	0	43	0	249561088	63	4730
2026-01-04 00:04:50.35	9.11	22.05	-46.1	-48.3	19.5	0.00e+00	0	43	0	250609664	63	4736
2026-01-04 00:04:51.96	9.02	22.28	-46.0	-48.2	19.5	0.00e+00	0	43	0	253755392	63	4678
2026-01-04 00:04:52.53	8.99	22.36	-46.0	-48.3	19.6	0.00e+00	0	43	0	254803968	63	4710
2026-01-04 00:04:54.14	8.90	22.58	-46.1	-48.3	19.6	0.00e+00	0	42	0	256901120	63	4719
2026-01-04 00:04:54.71	8.87	22.66	-46.0	-48.2	19.7	0.00e+00	0	43	0	257949696	63	4660
2026-01-04 00:04:56.54	8.76	22.92	-46.0	-48.2	19.6	0.00e+00	0	43	0	262144000	63	4700
2026-01-04 00:04:57.12	8.73	23.01	-46.2	-48.4	19.5	0.00e+00	0	43	0	263192576	63	4782
2026-01-04 00:04:58.72	8.63	23.24	-46.0	-48.2	19.7	0.00e+00	0	43	0	266338304	63	4683
2026-01-04 00:04:59.30	8.60	23.32	-45.9	-48.1	19.8	0.00e+00	0	42	0	267386880	63	4620
2026-01-04 00:05:00.90	8.50	23.55	-46.0	-48.2	19.6	0.00e+00	0	43	0	270532608	63	4705
2026-01-04 00:05:01.48	8.47	23.64	-46.0	-48.3	19.6	0.00e+00	0	43	0	271581184	63	4718
2026-01-04 00:05:03.05	8.37	23.87	-46.2	-48.4	19.5	0.00e+00	0	43	0	273678336	63	4811
2026-01-04 00:05:03.67	8.34	23.96	-46.1	-48.4	19.5	0.00e+00	0	43	0	274726912	63	4780
2026-01-04 00:05:05.25	8.24	24.20	-46.3	-48.6	19.3	0.00e+00	0	43	0	277872640	63	4912
2026-01-04 00:05:05.97	8.19	24.31	-46.5	-48.8	19.2	0.00e+00	0	43	0	279969792	63	4998
2026-01-04 00:05:07.25	8.11	24.50	-46.5	-48.8	19.2	0.00e+00	0	43	0	282066944	63	4984
2026-01-04 00:05:08.16	8.05	24.64	-46.5	-48.8	19.2	0.00e+00	0	43	0	284164096	63	5023
2026-01-04 00:05:09.48	7.97	24.84	-46.5	-48.8	19.0	0.00e+00	0	43	0	286261248	64	4744
2026-01-04 00:05:10.20	7.92	24.95	-46.5	-48.8	19.1	0.00e+00	0	43	0	287309824	64	4744
2026-01-04 00:05:11.49	7.83	25.15	-46.7	-49.0	18.9	0.00e+00	0	43	0	290455552	64	4841
2026-01-04 00:05:12.20	7.79	25.26	-46.7	-49.1	18.8	7.00e-07	0	43	0	291504128	64	4872
2026-01-04 00:05:13.49	7.70	25.47	-46.9	-49.2	18.6	0.00e+00	0	43	0	293601280	64	4979
2026-01-04 00:05:14.21	7.65	25.58	-46.9	-49.3	18.6	0.00e+00	0	43	0	294649856	64	4988
2026-01-04 00:05:15.50	7.56	25.78	-46.9	-49.3	18.5	0.00e+00	0	43	0	297795584	64	5011
2026-01-04 00:05:16.22	7.51	25.90	-47.0	-49.4	18.4	0.00e+00	0	43	0	298844160	64	5076
2026-01-04 00:05:17.50	7.42	26.10	-47.0	-49.4	18.4	0.00e+00	0	43	0	300941312	64	5083
2026-01-04 00:05:18.22	7.37	26.22	-47.1	-49.5	18.3	0.00e+00	0	43	0	303038464	64	5145
2026-01-04 00:05:19.59	7.27	26.44	-47.3	-49.7	18.2	0.00e+00	0	43	0	305135616	65	4962
2026-01-04 00:05:20.58	7.20	26.60	-47.3	-49.7	18.2	0.00e+00	0	43	0	307232768	65	4957
2026-01-04 00:05:21.58	7.12	26.77	-47.4	-49.8	18.1	0.00e+00	0	43	0	308281344	65	5041
2026-01-04 00:05:22.58	7.05	26.93	-47.5	-50.0	17.9	0.00e+00	0	43	0	310378496	65	5115
2026-01-04 00:05:23.95	6.94	27.16	-47.6	-50.1	17.8	0.00e+00	0	43	0	313524224	65	5179
2026-01-04 00:05:24.72	6.88	27.29	-47.6	-50.1	17.8	0.00e+00	0	43	0	314572800	65	5207
2026-01-04 00:05:26.01	6.78	27.50	-47.7	-50.3	17.7	0.00e+00	0	43	0	316669952	66	4998
2026-01-04 00:05:26.72	6.73	27.62	-47.9	-50.5	17.5	0.00e+00	0	43	0	318767104	66	5118
2026-01-04 00:05:28.01	6.63	27.84	-47.9	-50.6	17.4	0.00e+00	0	43	0	320864256	66	5174
2026-01-04 00:05:28.73	6.57	27.97	-47.9	-50.6	17.4	0.00e+00	0	43	0	321912832	66	5172
2026-01-04 00:05:30.02	6.46	28.19	-48.1	-50.7	17.2	0.00e+00	0	43	0	325058560	66	5273
2026-01-04 00:05:30.73	6.41	28.31	-48.2	-51.0	16.9	0.00e+00	0	43	0	326107136	67	5103
2026-01-04 00:05:32.02	6.30	28.54	-48.3	-51.1	16.9	0.00e+00	0	43	0	328204288	67	5166
2026-01-04 00:05:32.74	6.24	28.66	-48.4	-51.3	16.8	0.00e+00	0	43	0	330301440	67	5283
2026-01-04 00:05:34.16	6.12	28.91	-48.8	-51.7	16.6	0.00e+00	0	43	0	332398592	68	5267
2026-01-04 00:05:34.87	6.06	29.04	-49.0	-51.9	16.3	0.00e+00	0	43	0	333447168	68	5385
2026-01-04 00:05:36.25	5.94	29.28	-49.1	-52.1	16.2	0.00e+00	0	43	0	336592896	68	5490
2026-01-04 00:05:36.96	5.87	29.41	-49.1	-52.2	16.1	0.00e+00	0	43	0	337641472	68	5552
2026-01-04 00:05:38.25	5.76	29.65	-49.2	-52.3	15.9	0.00e+00	0	43	0	339738624	68	5622
2026-01-04 00:05:38.97	5.69	29.78	-49.3	-52.5	15.7	0.00e+00	0	43	0	341835776	69	5413
2026-01-04 00:05:40.26	5.58	30.01	-49.2	-52.4	15.8	0.00e+00	0	43	0	343932928	69	5347
2026-01-04 00:05:40.97	5.51	30.14	-49.3	-52.5	15.7	0.00e+00	0	43	0	344981504	69	5410
2026-01-04 00:05:42.26	5.39	30.38	-49.3	-52.4	15.7	0.00e+00	0	43	0	348127232	69	5382
2026-01-04 00:05:42.97	5.32	30.51	-49.3	-52.4	15.7	0.00e+00	0	43	0	349175808	69	5364
2026-01-04 00:05:44.26	5.20	30.76	-49.3	-52.5	15.7	0.00e+00	0	43	0	351272960	69	5426
2026-01-04 00:05:45.06	5.12	30.91	-49.5	-52.7	15.5	0.00e+00	0	43	0	353370112	69	5563
2026-01-04 00:05:46.52	4.98	31.18	-49.7	-53.0	15.4	0.00e+00	0	43	0	355467264	70	5421
2026-01-04 00:05:47.24	4.91	31.32	-49.8	-53.2	15.2	0.00e+00	0	43	0	356515840	70	5536
2026-01-04 00:05:48.72	4.76	31.60	-50.0	-53.4	14.9	0.00e+00	0	43	0	359661568	70	5704
2026-01-04 00:05:49.44	4.68	31.74	-50.0	-53.5	14.9	0.00e+00	0	43	0	360710144	70	5760
2026-01-04 00:05:50.84	4.54	32.02	-50.0	-53.6	14.6	7.00e-07	0	43	0	363855872	70	5847
2026-01-04 00:05:51.56	4.46	32.16	-50.2	-53.9	14.5	0.00e+00	0	43	0	364904448	71	5662
2026-01-04 00:05:52.85	4.33	32.41	-50.4	-54.1	14.2	7.00e-07	0	43	0	367001600	71	5839
2026-01-04 00:05:53.56	4.25	32.55	-50.4	-54.1	14.1	7.00e-07	0	43	0	369098752	71	5855
2026-01-04 00:05:54.85	4.11	32.81	-50.4	-54.2	14.1	3.00e-06	0	43	0	371195904	71	5860
2026-01-04 00:05:55.57	4.03	32.96	-50.5	-54.2	14.0	0.00e+00	0	43	0	372244480	71	5914
2026-01-04 00:05:56.86	3.89	33.22	-50.4	-54.0	14.3	0.00e+00	0	43	0	375390208	71	5728
2026-01-04 00:05:57.57	3.81	33.36	-50.4	-54.0	14.2	7.00e-07	0	43	0	376438784	71	5732
2026-01-04 00:05:58.86	3.66	33.62	-50.4	-54.1	14.2	7.00e-07	0	43	0	378535936	71	5828
2026-01-04 00:05:59.57	3.57	33.77	-50.5	-54.3	13.9	2.20e-06	0	43	0	379584512	71	5925
2026-01-04 00:06:00.86	3.42	34.04	-50.4	-54.1	14.1	4.50e-06	0	43	0	382730240	71	5831
2026-01-04 00:06:01.57	3.34	34.19	-50.4	-54.2	14.1	2.20e-06	0	43	0	383778816	71	5881
2026-01-04 00:06:02.87	3.18	34.46	-50.2	-54.0	14.1	9.90e-06	0	43	0	385875968	71	5745
2026-01-04 00:06:03.58	3.09	34.61	-50.2	-54.0	14.2	7.00e-07	0	43	0	387973120	71	5732
2026-01-04 00:06:04.87	2.93	34.88	-50.1	-53.7	14.5	3.80e-06	0	43	0	390070272	71	5529
2026-01-04 00:06:05.59	2.84	35.03	-49.9	-53.4	14.7	1.50e-06	0	43	0	391118848	71	5368
2026-01-04 00:06:06.88	2.68	35.31	-49.8	-53.3	14.9	0.00e+00	0	43	0	394264576	71	5286
2026-01-04 00:06:07.59	2.59	35.46	-49.8	-53.2	15.0	0.00e+00	0	43	0	395313152	71	5266
2026-01-04 00:06:08.88	2.42	35.75	-49.8	-53.2	15.1	0.00e+00	0	43	0	397410304	71	5258
2026-01-04 00:06:09.60	2.32	35.90	-49.7	-53.1	15.1	0.00e+00	0	43	0	398458880	71	5175
2026-01-04 00:06:10.89	2.15	36.19	-49.7	-53.1	15.1	0.00e+00	0	43	0	401604608	71	5218
2026-01-04 00:06:11.61	2.05	36.35	-49.8	-53.2	15.0	0.00e+00	0	43	0	402653184	71	5274
2026-01-04 00:06:12.90	1.87	36.63	-50.0	-53.7	14.5	1.50e-06	0	43	0	404750336	71	5568
2026-01-04 00:06:13.61	1.77	36.79	-50.0	-53.8	14.5	7.00e-07	0	43	0	406847488	71	5596
2026-01-04 00:06:15.24	1.54	37.16	-50.4	-54.4	13.8	3.00e-06	0	43	0	409993216	71	5998
2026-01-04 00:06:15.81	1.45	37.29	-50.4	-54.4	13.7	2.20e-06	0	43	0	411041792	71	6050
2026-01-04 00:06:17.40	1.22	37.65	-50.4	-54.4	13.8	9.90e-06	0	43	0	413138944	71	6039
2026-01-04 00:06:17.97	1.13	37.78	-50.5	-54.6	13.6	7.60e-06	0	43	0	414187520	71	6138
2026-01-04 00:06:19.59	0.89	38.16	-50.5	-54.5	13.6	6.10e-06	0	43	0	417333248	71	6068
2026-01-04 00:06:20.17	0.80	38.29	-50.6	-54.4	13.9	7.60e-06	0	43	0	418381824	71	6015
2026-01-04 00:06:21.74	0.55	38.66	-50.7	-54.6	13.6	3.80e-06	0	43	0	421527552	72	5807
2026-01-04 00:06:22.33	0.46	38.80	-50.8	-54.7	13.5	1.22e-05	0	43	0	422576128	72	5896
2026-01-04 00:06:23.91	0.20	39.17	-50.7	-54.6	13.6	1.14e-05	0	43	0	425721856	72	5832
2026-01-04 00:06:24.50	0.10	39.32	-50.7	-54.7	13.5	3.80e-06	0	43	0	426770432	72	5860
2026-01-04 00:06:26.07	359.84	39.69	-50.5	-54.4	13.8	6.10e-06	0	43	0	429916160	72	5660
2026-01-04 00:06:27.06	359.67	39.93	-50.7	-54.5	13.9	1.50e-06	0	43	0	432013312	72	5760
2026-01-04 00:06:28.06	359.50	40.18	-50.5	-54.2	14.3	0.00e+00	0	43	0	433061888	72	5550
2026-01-04 00:06:29.06	359.32	40.42	-50.5	-54.1	14.4	7.00e-07	0	43	0	435159040	72	5469
2026-01-04 00:06:30.06	359.14	40.67	-50.4	-53.9	14.5	7.00e-07	0	43	0	437256192	72	5387
2026-01-04 00:06:31.07	358.96	40.92	-50.4	-53.9	14.4	0.00e+00	0	43	0	439353344	72	5397
2026-01-04 00:06:32.16	358.76	41.19	-50.1	-53.6	14.7	0.00e+00	0	43	0	441450496	72	5195
2026-01-04 00:06:33.05	358.59	41.41	-49.9	-53.2	15.0	0.00e+00	0	43	0	442499072	71	5265
2026-01-04 00:06:34.20	358.37	41.70	-49.7	-53.0	15.3	0.00e+00	0	43	0	444596224	71	5109
2026-01-04 00:06:35.06	358.21	41.92	-49.6	-52.9	15.4	0.00e+00	0	43	0	446693376	71	5057
2026-01-04 00:06:36.43	357.94	42.27	-49.6	-52.9	15.4	0.00e+00	0	43	0	448790528	71	5042
2026-01-04 00:06:37.14	357.79	42.45	-49.6	-52.8	15.4	0.00e+00	0	43	0	450887680	71	5020
2026-01-04 00:06:38.66	357.48	42.84	-49.6	-52.7	15.6	0.00e+00	0	43	0	452984832	71	4953
2026-01-04 00:06:39.37	357.34	43.03	-49.5	-52.6	15.7	0.00e+00	0	43	0	455081984	70	5166
2026-01-04 00:06:40.76	357.04	43.39	-49.4	-52.4	15.9	0.00e+00	0	43	0	457179136	70	5091
2026-01-04 00:06:41.47	356.89	43.57	-49.1	-52.1	16.3	0.00e+00	0	43	0	458227712	70	4872
2026-01-04 00:06:42.77	356.60	43.92	-48.9	-51.8	16.4	0.00e+00	0	43	0	461373440	69	5007
2026-01-04 00:06:43.48	356.45	44.11	-48.7	-51.5	16.7	0.00e+00	0	43	0	462422016	69	4860
2026-01-04 00:06:44.77	356.15	44.45	-48.3	-51.0	17.2	0.00e+00	0	43	0	464519168	68	4870
2026-01-04 00:06:45.49	355.99	44.64	-48.2	-51.0	17.2	0.00e+00	0	43	0	466616320	68	4851
2026-01-04 00:06:46.78	355.69	44.99	-48.4	-51.1	17.1	0.00e+00	0	43	0	468713472	68	4919
2026-01-04 00:06:47.49	355.52	45.18	-48.3	-51.1	17.2	0.00e+00	0	43	0	469762048	68	4884
2026-01-04 00:06:48.78	355.20	45.53	-48.2	-50.9	17.3	0.00e+00	0	43	0	472907776	68	4792
2026-01-04 00:06:49.50	355.03	45.73	-48.2	-50.8	17.4	0.00e+00	0	43	0	473956352	68	4742
2026-01-04 00:06:50.79	354.70	46.08	-48.0	-50.6	17.6	0.00e+00	0	43	0	476053504	68	4600
2026-01-04 00:06:51.60	354.49	46.30	-47.7	-50.2	17.8	0.00e+00	0	43	0	478150656	67	4694
2026-01-04 00:06:52.74	354.20	46.62	-47.9	-50.4	17.7	0.00e+00	0	43	0	480247808	67	4801
2026-01-04 00:06:53.81	353.91	46.91	-47.8	-50.3	17.7	0.00e+00	0	43	0	481296384	67	4747
2026-01-04 00:06:54.86	353.63	47.21	-47.9	-50.4	17.7	0.00e+00	0	43	0	483393536	67	4798
2026-01-04 00:06:55.73	353.39	47.45	-47.9	-50.4	17.7	0.00e+00	0	43	0	485490688	67	4811
2026-01-04 00:06:56.88	353.07	47.77	-47.9	-50.5	17.6	0.00e+00	0	43	0	487587840	67	4827
2026-01-04 00:06:57.74	352.82	48.01	-48.0	-50.6	17.5	0.00e+00	0	43	0	489684992	67	4873
2026-01-04 00:06:58.88	352.49	48.34	-48.0	-50.6	17.5	0.00e+00	0	43	0	491782144	67	4917
2026-01-04 00:06:59.75	352.23	48.58	-48.1	-50.7	17.4	0.00e+00	0	43	0	492830720	67	4944
2026-01-04 00:07:00.89	351.89	48.91	-48.2	-50.8	17.3	0.00e+00	0	43	0	494927872	67	5017
2026-01-04 00:07:01.75	351.62	49.16	-48.0	-50.6	17.5	0.00e+00	0	43	0	497025024	67	4886
2026-01-04 00:07:02.99	351.23	49.51	-47.9	-50.4	17.7	0.00e+00	0	43	0	499122176	67	4787
2026-01-04 00:07:03.85	350.95	49.76	-48.0	-50.5	17.6	0.00e+00	0	43	0	500170752	67	4865
2026-01-04 00:07:05.03	350.57	50.10	-47.8	-50.4	17.8	0.00e+00	0	43	0	502267904	67	4769
2026-01-04 00:07:05.88	350.29	50.35	-47.6	-50.1	18.0	0.00e+00	0	43	0	504365056	67	4627
2026-01-04 00:07:07.03	349.90	50.68	-47.2	-49.5	18.5	0.00e+00	0	43	0	506462208	66	4591
2026-01-04 00:07:07.89	349.60	50.93	-47.0	-49.3	18.8	0.00e+00	0	43	0	508559360	65	4727
2026-01-04 00:07:09.15	349.15	51.30	-46.9	-49.2	18.9	0.00e+00	0	43	0	510656512	65	4656
2026-01-04 00:07:10.33	348.72	51.64	-46.7	-49.0	19.1	0.00e+00	0	43	0	512753664	65	4561
2026-01-04 00:07:11.18	348.41	51.89	-46.6	-48.8	19.2	0.00e+00	0	43	0	514850816	65	4482
2026-01-04 00:07:12.33	347.98	52.23	-46.4	-48.6	19.4	0.00e+00	0	43	0	516947968	64	4617
2026-01-04 00:07:13.19	347.64	52.48	-46.3	-48.5	19.5	0.00e+00	0	43	0	517996544	64	4587
2026-01-04 00:07:14.34	347.19	52.82	-46.4	-48.6	19.4	0.00e+00	0	43	0	520093696	64	4621
2026-01-04 00:07:15.20	346.85	53.08	-46.2	-48.4	19.6	0.00e+00	0	43	0	522190848	64	4534
2026-01-04 00:07:16.42	346.35	53.44	-46.2	-48.4	19.6	0.00e+00	0	43	0	524288000	64	4527
2026-01-04 00:07:17.28	345.99	53.69	-46.4	-48.7	19.3	0.00e+00	0	43	0	525336576	64	4668
2026-01-04 00:07:18.43	345.50	54.03	-46.9	-49.2	18.9	0.00e+00	0	43	0	528482304	64	4951
2026-01-04 00:07:19.29	345.12	54.29	-46.9	-49.3	18.8	0.00e+00	0	43	0	529530880	64	5004
2026-01-04 00:07:20.44	344.61	54.63	-47.2	-49.6	18.6	0.00e+00	0	43	0	531628032	64	5165
2026-01-04 00:07:21.30	344.22	54.88	-47.5	-50.0	18.1	0.00e+00	0	43	0	533725184	65	5150
2026-01-04 00:07:22.44	343.69	55.22	-48.2	-50.9	17.2	0.00e+00	0	43	0	535822336	67	5082
2026-01-04 00:07:23.30	343.28	55.47	-48.3	-51.0	17.1	0.00e+00	0	43	0	536870912	67	5137
2026-01-04 00:07:24.45	342.72	55.81	-48.7	-51.5	16.7	0.00e+00	0	43	0	538968064	67	5450
2026-01-04 00:07:25.31	342.30	56.06	-49.4	-52.5	15.9	0.00e+00	0	43	0	541065216	69	5420
2026-01-04 00:07:26.46	341.72	56.40	-50.0	-53.4	15.1	0.00e+00	0	43	0	543162368	70	5665
2026-01-04 00:07:27.31	341.28	56.65	-50.3	-53.8	14.7	0.00e+00	0	43	0	544210944	71	5621
2026-01-04 00:07:28.46	340.67	56.99	-50.5	-54.1	14.3	1.50e-06	0	43	0	546308096	71	5816
2026-01-04 00:07:29.32	340.21	57.24	-50.4	-54.0	14.4	1.50e-06	0	43	0	548405248	71	5735
2026-01-04 00:07:30.47	339.57	57.57	-50.5	-54.0	14.6	0.00e+00	0	43	0	550502400	71	5773
2026-01-04 00:07:31.33	339.09	57.82	-50.2	-53.4	15.1	1.50e-06	0	43	0	552599552	71	5399
2026-01-04 00:07:32.47	338.43	58.15	-49.8	-52.9	15.6	0.00e+00	0	43	0	554696704	71	5070
2026-01-04 00:07:33.33	337.93	58.40	-49.8	-53.0	15.6	0.00e+00	0	43	0	555745280	71	5110
2026-01-04 00:07:34.61	337.16	58.76	-49.5	-52.6	16.0	0.00e+00	0	43	0	557842432	71	4875
2026-01-04 00:07:35.32	336.72	58.96	-49.4	-52.4	16.2	0.00e+00	0	43	0	559939584	70	5043
2026-01-04 00:07:36.61	335.91	59.33	-49.3	-52.2	16.3	0.00e+00	0	43	0	562036736	70	4952
2026-01-04 00:07:37.33	335.45	59.53	-49.2	-52.1	16.4	0.00e+00	0	43	0	563085312	70	4884
2026-01-04 00:07:38.62	334.60	59.88	-48.5	-51.2	17.2	0.00e+00	0	43	0	566231040	69	4689
2026-01-04 00:07:39.33	334.13	60.08	-48.0	-50.5	17.8	0.00e+00	0	43	0	567279616	68	4592
2026-01-04 00:07:40.62	333.24	60.43	-47.4	-49.8	18.4	0.00e+00	0	43	0	569376768	66	4712
2026-01-04 00:07:41.34	332.74	60.63	-46.9	-49.2	18.8	0.00e+00	0	43	0	570425344	65	4695
2026-01-04 00:07:42.63	331.82	60.97	-46.0	-48.1	19.9	0.00e+00	0	43	0	573571072	63	4640
2026-01-04 00:07:43.34	331.30	61.16	-45.9	-48.0	20.1	0.00e+00	0	43	0	574619648	63	4567
2026-01-04 00:07:44.64	330.33	61.50	-45.8	-47.9	20.2	0.00e+00	0	43	0	576716800	63	4535
2026-01-04 00:07:45.35	329.79	61.68	-45.5	-47.6	20.5	0.00e+00	0	43	0	578813952	63	4345
2026-01-04 00:07:46.64	328.79	62.01	-45.5	-47.6	20.4	0.00e+00	0	43	0	580911104	62	4625
2026-01-04 00:07:47.36	328.21	62.19	-45.6	-47.6	20.4	0.00e+00	0	43	0	581959680	62	4646
2026-01-04 00:07:48.68	327.14	62.52	-46.2	-48.4	19.7	0.00e+00	0	43	0	585105408	63	4785
2026-01-04 00:07:49.40	326.55	62.69	-46.4	-48.6	19.5	0.00e+00	0	43	0	586153984	63	4884
2026-01-04 00:07:50.75	325.41	63.02	-46.2	-48.3	19.8	0.00e+00	0	43	0	588251136	63	4750
2026-01-04 00:07:51.74	324.55	63.25	-46.2	-48.4	19.7	0.00e+00	0	43	0	590348288	63	4768
2026-01-04 00:07:52.74	323.67	63.47	-46.0	-48.2	19.9	0.00e+00	0	43	0	592445440	63	4688
2026-01-04 00:07:53.74	322.77	63.70	-45.7	-47.8	20.1	0.00e+00	0	43	0	594542592	63	4488
2026-01-04 00:07:54.75	321.84	63.92	-45.7	-47.8	20.3	0.00e+00	0	43	0	595591168	63	4451
2026-01-04 00:07:55.75	320.91	64.13	-46.2	-48.3	19.9	0.00e+00	0	43	0	597688320	63	4731
2026-01-04 00:07:56.75	319.95	64.34	-46.2	-48.3	19.8	0.00e+00	0	43	0	599785472	63	4756
2026-01-04 00:07:57.75	318.99	64.54	-46.4	-48.6	19.5	0.00e+00	0	43	0	601882624	63	4888
2026-01-04 00:07:58.75	318.00	64.73	-46.4	-48.6	19.4	0.00e+00	0	43	0	603979776	63	4917
2026-01-04 00:07:59.85	316.90	64.94	-46.6	-48.8	19.2	0.00e+00	0	43	0	606076928	63	5009
2026-01-04 00:08:00.74	315.99	65.10	-46.7	-49.0	19.0	0.00e+00	0	43	0	607125504	64	4840
2026-01-04 00:08:01.89	314.80	65.30	-47.2	-49.6	18.5	0.00e+00	0	43	0	609222656	65	4886
2026-01-04 00:08:02.81	313.83	65.46	-47.8	-50.4	17.8	0.00e+00	0	43	0	611319808	66	5055
2026-01-04 00:08:03.99	312.56	65.65	-48.9	-51.6	17.0	0.00e+00	0	43	0	613416960	68	5188
2026-01-04 00:08:04.85	311.63	65.78	-48.9	-51.6	17.0	0.00e+00	0	43	0	615514112	68	5172
2026-01-04 00:08:05.99	310.38	65.94	-48.6	-51.3	17.3	0.00e+00	0	43	0	617611264	68	4991
2026-01-04 00:08:06.85	309.42	66.06	-48.6	-51.3	17.3	0.00e+00	0	43	0	618659840	68	5015
2026-01-04 00:08:08.00	308.12	66.21	-48.7	-51.4	17.0	0.00e+00	0	43	0	620756992	68	5077
2026-01-04 00:08:08.86	307.14	66.31	-48.7	-51.4	17.0	0.00e+00	0	43	0	622854144	68	5092
2026-01-04 00:08:10.01	305.81	66.44	-48.8	-51.5	16.8	0.00e+00	0	43	0	624951296	68	5154
2026-01-04 00:08:10.86	304.82	66.52	-48.9	-51.7	16.7	0.00e+00	0	43	0	625999872	68	5225
2026-01-04 00:08:12.01	303.47	66.63	-48.7	-51.5	16.8	0.00e+00	0	43	0	628097024	68	5109
2026-01-04 00:08:12.86	302.46	66.70	-48.9	-51.6	16.7	0.00e+00	0	43	0	630194176	68	5206
2026-01-04 00:08:14.01	301.08	66.79	-48.8	-51.6	16.9	0.00e+00	0	43	0	632291328	68	5161
2026-01-04 00:08:14.87	300.05	66.85	-48.7	-51.4	17.0	0.00e+00	0	43	0	633339904	68	5098
2026-01-04 00:08:16.11	298.55	66.92	-48.6	-51.4	17.0	0.00e+00	0	43	0	636485632	68	5051
2026-01-04 00:08:16.97	297.50	66.96	-48.6	-51.3	17.0	0.00e+00	0	43	0	637534208	68	5020
2026-01-04 00:08:18.12	296.09	67.00	-48.6	-51.3	17.1	0.00e+00	0	43	0	639631360	68	5013
2026-01-04 00:08:18.98	295.04	67.02	-48.7	-51.4	16.8	0.00e+00	0	43	0	641728512	68	5092
2026-01-04 00:08:20.12	293.64	67.04	-49.1	-52.1	16.3	0.00e+00	0	43	0	643825664	68	5499
2026-01-04 00:08:20.98	292.58	67.05	-48.7	-51.6	16.7	0.00e+00	0	43	0	644874240	68	5173
2026-01-04 00:08:22.12	291.18	67.05	-48.4	-51.1	17.1	0.00e+00	0	43	0	646971392	68	4912
2026-01-04 00:08:22.99	290.11	67.04	-48.5	-51.3	17.0	0.00e+00	0	43	0	649068544	68	5004
2026-01-04 00:08:24.13	288.71	67.01	-48.7	-51.5	16.8	0.00e+00	0	43	0	651165696	68	5144
2026-01-04 00:08:25.23	287.36	66.98	-48.7	-51.6	16.7	0.00e+00	0	43	0	653262848	68	5179
2026-01-04 00:08:26.27	286.09	66.93	-48.7	-51.5	16.9	0.00e+00	0	43	0	655360000	68	5134
2026-01-04 00:08:27.26	284.89	66.88	-48.7	-51.5	16.8	0.00e+00	0	43	0	657457152	68	5119
2026-01-04 00:08:28.27	283.67	66.82	-48.5	-51.3	17.1	0.00e+00	0	43	0	658505728	68	5002
2026-01-04 00:08:29.27	282.47	66.75	-48.4	-51.0	17.2	0.00e+00	0	43	0	660602880	68	4852
2026-01-04 00:08:30.27	281.28	66.67	-48.3	-50.9	17.4	0.00e+00	0	43	0	662700032	68	4771
2026-01-04 00:08:31.28	280.08	66.58	-48.2	-50.9	17.4	0.00e+00	0	43	0	664797184	68	4784
2026-01-04 00:08:32.28	278.91	66.48	-48.5	-51.2	17.1	0.00e+00	0	43	0	665845760	68	4967
2026-01-04 00:08:33.28	277.75	66.37	-48.4	-51.1	17.1	0.00e+00	0	43	0	667942912	68	4877
2026-01-04 00:08:34.28	276.60	66.26	-48.5	-51.2	17.0	0.00e+00	0	43	0	670040064	68	4951
2026-01-04 00:08:35.28	275.46	66.13	-48.2	-50.9	17.3	0.00e+00	0	43	0	672137216	68	4782
2026-01-04 00:08:36.29	274.33	66.00	-47.8	-50.3	17.8	0.00e+00	0	43	0	674234368	67	4726
2026-01-04 00:08:37.29	273.22	65.86	-47.6	-50.1	17.8	0.00e+00	0	43	0	676331520	67	4648
2026-01-04 00:08:38.31	272.11	65.71	-47.4	-49.9	18.2	0.00e+00	0	43	0	677380096	66	4764
2026-01-04 00:08:39.36	270.97	65.54	-47.2	-49.6	18.4	0.00e+00	0	43	0	679477248	66	4641
2026-01-04 00:08:40.28	270.00	65.39	-47.2	-49.6	18.5	0.00e+00	0	43	0	681574400	66	4608
2026-01-04 00:08:41.28	268.95	65.22	-47.0	-49.3	18.8	0.00e+00	0	43	0	683671552	66	4462
2026-01-04 00:08:42.46	267.73	65.01	-46.4	-48.7	19.3	0.00e+00	0	43	0	685768704	64	4677
2026-01-04 00:08:43.36	266.82	64.84	-46.1	-48.2	19.8	0.00e+00	0	43	0	686817280	63	4680
2026-01-04 00:08:44.50	265.69	64.63	-45.9	-48.0	20.0	0.00e+00	0	43	0	688914432	63	4580
2026-01-04 00:08:45.36	264.85	64.46	-45.9	-48.0	20.1	0.00e+00	0	43	0	691011584	63	4551
2026-01-04 00:08:46.51	263.74	64.22	-45.6	-47.6	20.4	0.00e+00	0	43	0	693108736	63	4381
2026-01-04 00:08:47.36	262.94	64.04	-45.8	-47.8	20.4	0.00e+00	0	43	0	694157312	63	4489
2026-01-04 00:08:48.51	261.87	63.79	-45.7	-47.7	20.6	0.00e+00	0	43	0	697303040	63	4423
2026-01-04 00:08:49.37	261.09	63.60	-45.6	-47.6	20.6	0.00e+00	0	43	0	698351616	63	4387
2026-01-04 00:08:50.51	260.07	63.35	-45.7	-47.8	20.4	0.00e+00	0	43	0	700448768	62	4720
2026-01-04 00:08:51.37	259.32	63.15	-45.8	-47.9	20.3	0.00e+00	0	43	0	702545920	62	4780
2026-01-04 00:08:52.52	258.33	62.88	-46.2	-48.3	19.8	0.00e+00	0	43	0	704643072	62	5025
2026-01-04 00:08:53.38	257.61	62.67	-46.4	-48.7	19.4	0.00e+00	0	43	0	705691648	63	4939
2026-01-04 00:08:54.53	256.66	62.39	-46.8	-49.1	18.9	0.00e+00	0	43	0	707788800	64	4912
2026-01-04 00:08:55.38	255.97	62.18	-46.9	-49.2	18.9	0.00e+00	0	43	0	709885952	64	4977
2026-01-04 00:08:56.53	255.06	61.89	-47.5	-49.9	18.2	0.00e+00	0	43	0	711983104	65	5087
2026-01-04 00:08:57.39	254.40	61.67	-47.9	-50.5	17.7	0.00e+00	0	43	0	713031680	66	5122
2026-01-04 00:08:58.63	253.46	61.34	-48.5	-51.2	16.9	0.00e+00	0	43	0	716177408	67	5267
2026-01-04 00:08:59.48	252.83	61.12	-49.1	-52.0	16.4	0.00e+00	0	43	0	717225984	68	5403
2026-01-04 00:09:00.63	251.99	60.81	-49.4	-52.4	15.9	0.00e+00	0	43	0	719323136	69	5385
2026-01-04 00:09:01.49	251.38	60.58	-49.6	-52.7	15.7	0.00e+00	0	43	0	721420288	69	5551
2026-01-04 00:09:02.63	250.59	60.27	-49.7	-52.9	15.6	0.00e+00	0	43	0	723517440	69	5660
2026-01-04 00:09:03.49	250.00	60.04	-49.7	-52.8	15.6	0.00e+00	0	43	0	724566016	70	5326
2026-01-04 00:09:04.64	249.24	59.72	-49.9	-53.1	15.2	0.00e+00	0	43	0	726663168	70	5498
2026-01-04 00:09:05.50	248.68	59.48	-49.9	-53.1	15.3	0.00e+00	0	43	0	728760320	70	5518
2026-01-04 00:09:06.65	247.94	59.15	-50.3	-53.8	14.6	0.00e+00	0	43	0	730857472	71	5610
2026-01-04 00:09:07.74	247.26	58.85	-50.4	-53.9	14.4	7.00e-07	0	43	0	732954624	71	5681
2026-01-04 00:09:08.60	246.74	58.60	-50.4	-53.9	14.4	7.00e-07	0	43	0	734003200	71	5690
2026-01-04 00:09:10.10	245.85	58.17	-50.1	-53.3	15.0	0.00e+00	0	43	0	737148928	71	5335
2026-01-04 00:09:10.82	245.43	57.96	-50.1	-53.4	14.9	0.00e+00	0	43	0	738197504	71	5375
2026-01-04 00:09:12.11	244.70	57.59	-49.9	-53.2	15.1	7.00e-07	0	43	0	741343232	71	5271
2026-01-04 00:09:12.82	244.30	57.38	-49.6	-52.8	15.5	0.00e+00	0	43	0	742391808	71	5013
2026-01-04 00:09:14.11	243.60	57.01	-49.1	-52.0	16.3	0.00e+00	0	43	0	744488960	70	4819
2026-01-04 00:09:14.83	243.22	56.79	-48.8	-51.6	16.7	0.00e+00	0	43	0	746586112	69	4875
2026-01-04 00:09:16.12	242.54	56.42	-48.1	-50.6	17.6	0.00e+00	0	43	0	748683264	68	4650
2026-01-04 00:09:16.93	242.13	56.18	-47.6	-50.0	18.0	0.00e+00	0	43	0	749731840	67	4591
2026-01-04 00:09:18.07	241.56	55.84	-47.4	-49.8	18.3	0.00e+00	0	43	0	751828992	66	4726
2026-01-04 00:09:19.17	241.03	55.52	-47.3	-49.7	18.4	0.00e+00	0	43	0	753926144	66	4683
2026-01-04 00:09:20.22	240.53	55.21	-47.7	-50.1	18.2	0.00e+00	0	43	0	756023296	66	4893
2026-01-04 00:09:21.29	240.03	54.89	-47.6	-50.0	18.3	0.00e+00	0	43	0	758120448	66	4854
2026-01-04 00:09:22.15	239.63	54.63	-47.6	-50.0	18.2	0.00e+00	0	43	0	760217600	66	4846
2026-01-04 00:09:23.30	239.12	54.29	-47.5	-49.9	18.3	0.00e+00	0	43	0	762314752	66	4782
2026-01-04 00:09:24.36	238.66	53.98	-47.2	-49.5	18.5	0.00e+00	0	43	0	764411904	66	4586
2026-01-04 00:09:25.22	238.29	53.72	-47.2	-49.5	18.5	0.00e+00	0	43	0	765460480	66	4590
2026-01-04 00:09:26.37	237.81	53.38	-47.5	-50.0	18.1	0.00e+00	0	43	0	767557632	66	4854
2026-01-04 00:09:27.23	237.45	53.13	-47.8	-50.5	17.7	0.00e+00	0	43	0	769654784	66	5122
2026-01-04 00:09:28.37	236.99	52.79	-48.2	-50.9	17.2	7.00e-07	0	43	0	771751936	67	5076
2026-01-04 00:09:29.24	236.65	52.53	-48.5	-51.3	16.8	0.00e+00	0	43	0	772800512	67	5325
2026-01-04 00:09:30.38	236.21	52.20	-48.8	-51.6	16.7	0.00e+00	0	43	0	774897664	68	5194
2026-01-04 00:09:31.24	235.88	51.94	-48.5	-51.2	17.0	0.00e+00	0	43	0	776994816	68	4978
2026-01-04 00:09:32.39	235.46	51.60	-48.1	-50.7	17.5	0.00e+00	0	43	0	779091968	68	4683
2026-01-04 00:09:33.25	235.14	51.35	-48.0	-50.6	17.6	0.00e+00	0	43	0	781189120	68	4646
2026-01-04 00:09:34.39	234.74	51.02	-48.0	-50.7	17.3	0.00e+00	0	43	0	783286272	67	4953
2026-01-04 00:09:35.25	234.44	50.76	-48.1	-50.8	17.2	0.00e+00	0	43	0	784334848	67	5017
2026-01-04 00:09:36.40	234.04	50.43	-48.4	-51.1	16.9	0.00e+00	0	43	0	786432000	67	5214
2026-01-04 00:09:37.29	233.74	50.17	-49.0	-51.8	16.4	0.00e+00	0	43	0	788529152	68	5340
2026-01-04 00:09:38.65	233.29	49.78	-49.4	-52.5	15.9	0.00e+00	0	43	0	790626304	69	5405
2026-01-04 00:09:39.36	233.06	49.57	-49.4	-52.5	15.9	0.00e+00	0	43	0	791674880	69	5434
2026-01-04 00:09:40.65	232.65	49.20	-49.4	-52.4	15.9	0.00e+00	0	43	0	794820608	69	5364
2026-01-04 00:09:41.37	232.43	48.99	-49.2	-52.2	16.1	0.00e+00	0	43	0	795869184	69	5231
2026-01-04 00:09:42.66	232.04	48.62	-48.7	-51.5	16.8	0.00e+00	0	43	0	797966336	69	4834
2026-01-04 00:09:43.37	231.83	48.42	-48.6	-51.3	16.9	0.00e+00	0	43	0	800063488	69	4745
2026-01-04 00:09:44.66	231.45	48.05	-48.4	-51.0	17.2	0.00e+00	0	43	0	802160640	68	4862
2026-01-04 00:09:45.38	231.24	47.85	-48.6	-51.3	17.0	0.00e+00	0	43	0	803209216	68	5007
2026-01-04 00:09:46.67	230.87	47.48	-48.7	-51.5	16.8	0.00e+00	0	43	0	806354944	68	5119
2026-01-04 00:09:47.57	230.62	47.23	-48.7	-51.4	16.8	0.00e+00	0	43	0	807403520	68	5081
2026-01-04 00:09:48.58	230.35	46.95	-48.9	-51.8	16.4	0.00e+00	0	43	0	809500672	68	5321
2026-01-04 00:09:49.58	230.08	46.67	-48.9	-51.9	16.3	0.00e+00	0	43	0	811597824	68	5354
2026-01-04 00:09:50.59	229.81	46.39	-48.8	-51.7	16.5	0.00e+00	0	43	0	813694976	68	5277
2026-01-04 00:09:51.59	229.56	46.11	-48.6	-51.5	16.8	0.00e+00	0	43	0	814743552	68	5114
2026-01-04 00:09:52.59	229.30	45.84	-48.6	-51.4	16.8	0.00e+00	0	43	0	816840704	68	5072
2026-01-04 00:09:53.60	229.05	45.56	-48.5	-51.3	16.9	1.50e-06	0	43	0	818937856	68	5037
2026-01-04 00:09:54.60	228.81	45.29	-48.8	-51.6	16.7	0.00e+00	0	43	0	821035008	68	5201
2026-01-04 00:09:55.64	228.55	45.00	-48.8	-51.6	16.6	0.00e+00	0	43	0	823132160	68	5191
2026-01-04 00:09:56.53	228.34	44.76	-49.3	-52.3	15.9	0.00e+00	0	43	0	824180736	69	5335
2026-01-04 00:09:57.68	228.08	44.46	-49.5	-52.6	15.8	0.00e+00	0	43	0	826277888	69	5499
2026-01-04 00:09:58.54	227.88	44.23	-49.5	-52.7	15.6	0.00e+00	0	43	0	828375040	69	5540
2026-01-04 00:09:59.68	227.62	43.92	-49.9	-53.1	15.4	0.00e+00	0	43	0	830472192	70	5519
2026-01-04 00:10:00.55	227.43	43.69	-50.1	-53.4	15.1	0.00e+00	0	43	0	831520768	70	5692
2026-01-04 00:10:01.69	227.18	43.39	-50.3	-53.7	14.9	0.00e+00	0	43	0	833617920	71	5547
2026-01-04 00:10:02.73	226.96	43.12	-50.3	-53.7	14.9	7.00e-07	0	43	0	835715072	71	5535
2026-01-04 00:10:03.90	226.71	42.81	-50.3	-53.7	14.8	0.00e+00	0	43	0	837812224	71	5572
2026-01-04 00:10:04.80	226.53	42.58	-50.4	-53.8	14.7	0.00e+00	0	43	0	839909376	71	5621
2026-01-04 00:10:05.98	226.29	42.28	-50.3	-53.8	14.6	0.00e+00	0	43	0	842006528	71	5606
2026-01-04 00:10:06.84	226.12	42.05	-50.4	-54.0	14.4	0.00e+00	0	43	0	844103680	71	5728
2026-01-04 00:10:07.99	225.89	41.76	-50.4	-54.0	14.4	7.00e-07	0	43	0	846200832	71	5724
2026-01-04 00:10:08.85	225.73	41.54	-50.5	-54.3	14.0	7.00e-07	0	43	0	847249408	71	5925
2026-01-04 00:10:10.00	225.51	41.25	-50.7	-54.6	13.6	4.50e-06	0	43	0	849346560	72	5803
2026-01-04 00:10:10.85	225.35	41.04	-50.8	-54.7	13.4	1.22e-05	0	43	0	851443712	72	5910
2026-01-04 00:10:12.00	225.14	40.75	-51.1	-55.2	12.9	2.51e-05	0	43	0	853540864	72	6251
2026-01-04 00:10:12.86	224.98	40.54	-51.4	-55.7	12.5	1.07e-04	0	43	0	854589440	73	6255
2026-01-04 00:10:14.01	224.78	40.26	-51.2	-55.5	12.7	1.31e-04	0	43	0	856686592	73	6083
2026-01-04 00:10:14.87	224.62	40.04	-51.2	-55.4	12.8	4.04e-05	0	43	0	858783744	73	6003
2026-01-04 00:10:16.01	224.43	39.77	-50.8	-54.6	13.5	1.83e-05	0	43	0	860880896	73	5525
2026-01-04 00:10:16.87	224.28	39.56	-50.6	-54.4	13.8	1.52e-05	0	43	0	862978048	73	5341
2026-01-04 00:10:18.02	224.09	39.28	-50.5	-54.1	14.1	2.20e-06	0	43	0	865075200	72	5495
2026-01-04 00:10:18.88	223.95	39.07	-50.4	-54.1	14.1	2.20e-06	0	43	0	866123776	72	5494
2026-01-04 00:10:20.02	223.76	38.80	-50.5	-54.3	13.9	6.80e-06	0	43	0	868220928	72	5618
2026-01-04 00:10:20.88	223.62	38.60	-50.6	-54.5	13.8	2.20e-06	0	43	0	870318080	72	5743
2026-01-04 00:10:22.03	223.44	38.33	-50.5	-54.4	13.8	3.80e-06	0	43	0	872415232	72	5666
2026-01-04 00:10:22.89	223.30	38.13	-50.5	-54.3	13.8	3.00e-06	0	43	0	873463808	72	5649
2026-01-04 00:10:24.04	223.13	37.86	-50.4	-54.3	13.8	7.00e-07	0	43	0	875560960	72	5597
2026-01-04 00:10:24.90	223.00	37.66	-50.2	-53.8	14.3	7.00e-07	0	43	0	877658112	72	5334
2026-01-04 00:10:26.04	222.83	37.40	-50.1	-53.7	14.4	6.10e-06	0	43	0	879755264	72	5233
2026-01-04 00:10:26.90	222.70	37.20	-49.9	-53.3	14.8	0.00e+00	0	43	0	881852416	71	5290
2026-01-04 00:10:28.05	222.53	36.94	-49.7	-53.0	15.1	0.00e+00	0	43	0	883949568	71	5111
2026-01-04 00:10:28.91	222.41	36.75	-49.8	-53.0	15.2	0.00e+00	0	43	0	884998144	71	5132
2026-01-04 00:10:30.15	222.24	36.47	-49.6	-52.7	15.7	0.00e+00	0	43	0	887095296	71	4962
2026-01-04 00:10:31.40	222.06	36.19	-49.4	-52.4	16.0	0.00e+00	0	43	0	890241024	70	5078
2026-01-04 00:10:32.34	221.94	35.98	-49.6	-52.6	15.9	0.00e+00	0	43	0	891289600	70	5187
2026-01-04 00:10:33.60	221.77	35.70	-49.7	-52.7	15.7	0.00e+00	0	43	0	893386752	70	5277
2026-01-04 00:10:34.36	221.67	35.54	-49.7	-52.9	15.6	0.00e+00	0	43	0	895483904	70	5355
2026-01-04 00:10:35.65	221.50	35.26	-49.8	-53.0	15.5	0.00e+00	0	43	0	897581056	70	5430
2026-01-04 00:10:36.37	221.40	35.10	-49.6	-52.7	15.6	0.00e+00	0	43	0	898629632	70	5266
2026-01-04 00:10:37.66	221.24	34.82	-49.4	-52.5	15.8	0.00e+00	0	43	0	901775360	70	5143
2026-01-04 00:10:38.37	221.15	34.67	-49.2	-52.2	16.0	0.00e+00	0	43	0	902823936	70	4950
2026-01-04 00:10:39.66	220.99	34.40	-49.1	-52.0	16.2	0.00e+00	0	43	0	904921088	70	4870
2026-01-04 00:10:40.38	220.90	34.25	-49.1	-52.0	16.3	0.00e+00	0	43	0	907018240	70	4852
2026-01-04 00:10:41.67	220.75	33.98	-49.2	-52.1	16.3	0.00e+00	0	43	0	909115392	70	4918
2026-01-04 00:10:42.39	220.66	33.83	-49.2	-52.2	16.3	0.00e+00	0	43	0	910163968	70	4932
2026-01-04 00:10:43.75	220.50	33.54	-49.5	-52.6	15.9	0.00e+00	0	43	0	913309696	70	5166
2026-01-04 00:10:44.47	220.42	33.40	-49.6	-52.7	15.7	0.00e+00	0	43	0	914358272	70	5244
2026-01-04 00:10:45.76	220.27	33.13	-49.7	-53.1	15.2	0.00e+00	0	43	0	916455424	70	5472
2026-01-04 00:10:46.48	220.19	32.99	-49.8	-53.3	15.0	7.00e-07	0	43	0	918552576	70	5599
2026-01-04 00:10:47.77	220.05	32.73	-50.1	-53.7	14.5	7.00e-07	0	43	0	920649728	70	5868
2026-01-04 00:10:48.49	219.97	32.58	-50.1	-53.7	14.4	0.00e+00	0	43	0	921698304	71	5576
2026-01-04 00:10:49.78	219.83	32.32	-50.3	-54.0	14.1	9.10e-06	0	43	0	923795456	71	5761
2026-01-04 00:10:50.49	219.75	32.18	-50.2	-53.8	14.4	2.20e-06	0	43	0	925892608	71	5638
2026-01-04 00:10:51.78	219.61	31.93	-50.3	-53.9	14.2	1.50e-06	0	43	0	927989760	71	5700
2026-01-04 00:10:52.62	219.53	31.76	-50.2	-53.9	14.3	3.00e-06	0	43	0	929038336	71	5667
2026-01-04 00:10:54.11	219.37	31.47	-50.2	-53.9	14.2	3.80e-06	0	43	0	932184064	71	5658
2026-01-04 00:10:54.82	219.30	31.34	-50.3	-53.9	14.1	7.00e-07	0	43	0	933232640	71	5709
2026-01-04 00:10:56.11	219.17	31.09	-50.2	-53.8	14.3	2.20e-06	0	43	0	936378368	71	5616
2026-01-04 00:10:56.82	219.10	30.95	-50.5	-54.1	14.3	7.00e-07	0	43	0	937426944	71	5801
2026-01-04 00:10:58.11	218.97	30.71	-50.5	-54.0	14.5	0.00e+00	0	43	0	939524096	71	5758
2026-01-04 00:10:58.83	218.90	30.57	-50.6	-54.2	14.4	7.00e-07	0	43	0	941621248	71	5878
2026-01-04 00:11:00.12	218.78	30.33	-50.5	-54.0	14.5	7.00e-07	0	43	0	943718400	71	5774
2026-01-04 00:11:00.93	218.70	30.18	-50.5	-54.1	14.3	7.00e-07	0	43	0	944766976	71	5797
2026-01-04 00:11:02.07	218.60	29.97	-50.5	-54.1	14.2	0.00e+00	0	43	0	946864128	71	5821
2026-01-04 00:11:03.17	218.50	29.77	-50.5	-54.2	14.0	2.20e-06	0	43	0	948961280	71	5868
2026-01-04 00:11:04.22	218.40	29.58	-50.7	-54.6	13.7	2.20e-06	0	43	0	951058432	71	6169
2026-01-04 00:11:05.29	218.30	29.38	-50.7	-54.7	13.5	7.60e-06	0	43	0	953155584	72	5861
2026-01-04 00:11:06.15	218.23	29.23	-50.7	-54.7	13.4	6.80e-06	0	43	0	955252736	72	5913
2026-01-04 00:11:07.30	218.13	29.02	-50.8	-54.9	13.2	1.67e-05	0	43	0	957349888	72	6032
2026-01-04 00:11:08.15	218.05	28.87	-50.7	-54.8	13.3	1.83e-05	0	43	0	958398464	72	5935
2026-01-04 00:11:09.30	217.95	28.66	-50.8	-54.9	13.3	3.20e-05	0	43	0	960495616	72	5993
2026-01-04 00:11:10.16	217.88	28.51	-50.7	-54.7	13.4	1.44e-05	0	43	0	962592768	72	5910
2026-01-04 00:11:11.31	217.78	28.31	-50.6	-54.4	13.7	6.80e-06	0	43	0	964689920	72	5702
2026-01-04 00:11:12.17	217.71	28.16	-50.4	-54.1	14.0	5.30e-06	0	43	0	965738496	72	5487
2026-01-04 00:11:13.31	217.62	27.96	-49.8	-53.2	14.9	0.00e+00	0	43	0	967835648	71	5243
2026-01-04 00:11:14.17	217.55	27.82	-49.6	-52.7	15.3	0.00e+00	0	43	0	969932800	71	4977
2026-01-04 00:11:15.32	217.46	27.62	-49.4	-52.5	15.6	0.00e+00	0	43	0	972029952	70	5142
2026-01-04 00:11:16.18	217.39	27.47	-49.3	-52.3	15.8	0.00e+00	0	43	0	974127104	70	5040
2026-01-04 00:11:17.33	217.30	27.28	-49.2	-52.1	16.0	0.00e+00	0	43	0	976224256	70	4923
2026-01-04 00:11:18.19	217.23	27.13	-49.2	-52.2	16.0	0.00e+00	0	43	0	977272832	70	4938
2026-01-04 00:11:19.33	217.14	26.94	-49.2	-52.2	16.0	0.00e+00	0	43	0	979369984	70	4935
2026-01-04 00:11:20.19	217.08	26.80	-49.3	-52.3	15.9	0.00e+00	0	43	0	981467136	70	5039
2026-01-04 00:11:21.33	216.99	26.61	-49.4	-52.5	15.6	0.00e+00	0	43	0	983564288	70	5151
2026-01-04 00:11:22.20	216.93	26.47	-49.6	-52.7	15.4	0.00e+00	0	43	0	984612864	70	5275
2026-01-04 00:11:23.34	216.84	26.28	-49.6	-52.9	15.3	0.00e+00	0	43	0	986710016	70	5350
2026-01-04 00:11:24.20	216.78	26.14	-49.8	-53.1	15.0	0.00e+00	0	43	0	988807168	70	5514
2026-01-04 00:11:25.35	216.70	25.96	-49.9	-53.3	14.8	0.00e+00	0	43	0	990904320	70	5633
2026-01-04 00:11:26.21	216.63	25.82	-49.8	-53.3	14.7	0.00e+00	0	43	0	993001472	70	5648
2026-01-04 00:11:27.35	216.55	25.64	-50.1	-53.6	14.7	0.00e+00	0	43	0	995098624	71	5499
2026-01-04 00:11:28.22	216.49	25.50	-49.9	-53.3	15.0	0.00e+00	0	43	0	996147200	71	5319
2026-01-04 00:11:29.36	216.41	25.32	-49.9	-53.3	15.1	7.00e-07	0	43	0	998244352	71	5285
2026-01-04 00:11:30.22	216.36	25.18	-49.8	-53.2	15.0	0.00e+00	0	43	0	1000341504	71	5230
2026-01-04 00:11:31.37	216.28	25.00	-49.6	-52.9	15.2	0.00e+00	0	43	0	1002438656	71	5096
2026-01-04 00:11:32.23	216.22	24.87	-49.4	-52.6	15.5	0.00e+00	0	43	0	1003487232	70	5214
2026-01-04 00:11:33.38	216.14	24.69	-49.2	-52.3	15.9	0.00e+00	0	43	0	1005584384	70	4993
2026-01-04 00:11:34.24	216.09	24.56	-49.0	-52.0	16.1	0.00e+00	0	43	0	1007681536	70	4868
2026-01-04 00:11:35.38	216.01	24.39	-48.8	-51.7	16.3	0.00e+00	0	43	0	1009778688	69	4981
2026-01-04 00:11:36.24	215.96	24.25	-48.8	-51.7	16.3	0.00e+00	0	43	0	1011875840	69	4966
2026-01-04 00:11:37.39	215.88	24.08	-48.7	-51.5	16.5	0.00e+00	0	43	0	1013972992	69	4846
2026-01-04 00:11:38.25	215.83	23.95	-48.7	-51.5	16.5	0.00e+00	0	43	0	1015021568	69	4861
2026-01-04 00:11:39.39	215.76	23.78	-48.7	-51.5	16.7	0.00e+00	0	43	0	1017118720	69	4834
2026-01-04 00:11:40.25	215.71	23.65	-48.7	-51.5	16.6	0.00e+00	0	43	0	1019215872	69	4844
2026-01-04 00:11:41.40	215.64	23.48	-48.6	-51.4	16.8	0.00e+00	0	43	0	1021313024	69	4772
2026-01-04 00:11:42.26	215.58	23.36	-48.6	-51.3	16.8	0.00e+00	0	43	0	1022361600	69	4757
2026-01-04 00:11:43.45	215.51	23.18	-48.5	-51.3	16.8	0.00e+00	0	43	0	1024458752	69	4734
2026-01-04 00:11:44.31	215.46	23.06	-48.5	-51.2	16.9	0.00e+00	0	43	0	1026555904	69	4700
2026-01-04 00:11:45.46	215.39	22.89	-48.5	-51.2	16.9	0.00e+00	0	43	0	1028653056	68	4957
2026-01-04 00:11:46.32	215.34	22.77	-48.5	-51.2	16.9	0.00e+00	0	43	0	1029701632	68	4956
2026-01-04 00:11:47.47	215.28	22.60	-48.4	-51.1	17.0	0.00e+00	0	43	0	1032847360	68	4919
2026-01-04 00:11:48.32	215.23	22.48	-48.4	-51.2	16.9	0.00e+00	0	43	0	1033895936	68	4959
2026-01-04 00:11:49.47	215.16	22.32	-48.3	-51.1	17.0	0.00e+00	0	43	0	1035993088	68	4887
2026-01-04 00:11:50.42	215.11	22.19	-48.1	-50.7	17.3	0.00e+00	0	43	0	1038090240	68	4705
2026-01-04 00:11:51.43	215.05	22.05	-48.1	-50.8	17.4	0.00e+00	0	43	0	1040187392	68	4712
2026-01-04 00:11:52.43	215.00	21.91	-48.0	-50.7	17.4	0.00e+00	0	43	0	1041235968	68	4656
2026-01-04 00:11:53.43	214.94	21.77	-47.8	-50.4	17.5	0.00e+00	0	43	0	1043333120	67	4765
2026-01-04 00:11:54.43	214.89	21.63	-47.8	-50.3	17.6	0.00e+00	0	43	0	1045430272	67	4750
2026-01-04 00:11:55.44	214.83	21.49	-47.8	-50.4	17.5	0.00e+00	0	43	0	1047527424	67	4782
2026-01-04 00:11:56.44	214.78	21.36	-47.7	-50.3	17.6	0.00e+00	0	43	0	1049624576	67	4738
2026-01-04 00:11:57.44	214.73	21.22	-47.7	-50.3	17.6	0.00e+00	0	43	0	1050673152	67	4753
2026-01-04 00:11:58.44	214.68	21.09	-48.1	-50.8	17.4	0.00e+00	0	43	0	1052770304	67	5011
2026-01-04 00:11:59.44	214.63	20.95	-48.2	-50.8	17.4	0.00e+00	0	43	0	1054867456	67	5024
2026-01-04 00:12:00.45	214.57	20.82	-48.2	-50.8	17.3	0.00e+00	0	43	0	1056964608	67	5036
2026-01-04 00:12:01.45	214.52	20.68	-48.3	-51.0	17.2	0.00e+00	0	43	0	1059061760	67	5125
2026-01-04 00:12:02.50	214.47	20.54	-48.1	-50.9	17.1	0.00e+00	0	43	0	1060110336	67	5043
2026-01-04 00:12:03.39	214.43	20.43	-48.2	-51.0	17.0	0.00e+00	0	43	0	1062207488	67	5103
2026-01-04 00:12:04.54	214.37	20.28	-48.3	-51.1	16.9	0.00e+00	0	43	0	1064304640	67	5187
2026-01-04 00:12:05.40	214.33	20.16	-48.3	-51.1	16.8	0.00e+00	0	43	0	1066401792	67	5188
2026-01-04 00:12:06.54	214.27	20.02	-48.3	-51.2	16.8	0.00e+00	0	43	0	1068498944	67	5236
2026-01-04 00:12:07.40	214.23	19.91	-48.4	-51.3	16.7	0.00e+00	0	43	0	1069547520	67	5280
2026-01-04 00:12:08.54	214.18	19.76	-48.4	-51.3	16.7	0.00e+00	0	43	0	1071644672	67	5327
2026-01-04 00:12:09.40	214.14	19.65	-48.4	-51.3	16.6	0.00e+00	0	43	0	1073741824	67	5328
2026-01-04 00:12:10.55	214.08	19.50	-48.3	-51.2	16.7	0.00e+00	0	43	0	1075838976	67	5233
2026-01-04 00:12:11.40	214.04	19.40	-48.3	-51.2	16.7	0.00e+00	0	43	0	1076887552	67	5261
2026-01-04 00:12:12.55	213.99	19.25	-48.3	-51.2	16.7	0.00e+00	0	43	0	1078984704	67	5276
2026-01-04 00:12:13.41	213.95	19.14	-48.4	-51.3	16.6	0.00e+00	0	43	0	1081081856	67	5310
2026-01-04 00:12:14.56	213.90	19.00	-48.3	-51.2	16.6	0.00e+00	0	43	0	1083179008	67	5266
2026-01-04 00:12:15.41	213.86	18.90	-48.3	-51.2	16.6	0.00e+00	0	43	0	1085276160	67	5226
2026-01-04 00:12:16.56	213.81	18.75	-48.1	-51.0	16.8	0.00e+00	0	43	0	1087373312	67	5108
2026-01-04 00:12:17.42	213.77	18.65	-48.2	-51.0	16.8	0.00e+00	0	43	0	1088421888	67	5139
2026-01-04 00:12:18.57	213.72	18.51	-48.2	-51.0	16.9	0.00e+00	0	43	0	1090519040	67	5126
2026-01-04 00:12:19.43	213.68	18.40	-48.2	-51.0	16.9	0.00e+00	0	43	0	1092616192	67	5115
2026-01-04 00:12:20.57	213.64	18.27	-47.9	-50.6	17.1	0.00e+00	0	43	0	1094713344	67	4926
2026-01-04 00:12:21.43	213.60	18.16	-47.9	-50.6	17.1	0.00e+00	0	43	0	1095761920	67	4922
2026-01-04 00:12:22.58	213.55	18.02	-47.9	-50.6	17.2	0.00e+00	0	43	0	1097859072	67	4899
2026-01-04 00:12:23.44	213.51	17.92	-47.8	-50.5	17.2	0.00e+00	0	43	0	1099956224	67	4857
2026-01-04 00:12:24.59	213.47	17.79	-47.8	-50.5	17.2	0.00e+00	0	43	0	1102053376	67	4835
2026-01-04 00:12:25.45	213.43	17.68	-47.7	-50.4	17.3	0.00e+00	0	43	0	1103101952	67	4770
2026-01-04 00:12:26.59	213.39	17.55	-47.7	-50.3	17.3	0.00e+00	0	43	0	1106247680	67	4748
2026-01-04 00:12:27.69	213.34	17.42	-47.8	-50.5	17.1	0.00e+00	0	43	0	1108344832	67	4854
2026-01-04 00:12:28.74	213.30	17.30	-47.8	-50.5	17.1	0.00e+00	0	43	0	1109393408	67	4848
2026-01-04 00:12:29.64	213.26	17.20	-48.0	-50.7	17.0	0.00e+00	0	43	0	1111490560	67	4936
2026-01-04 00:12:30.64	213.22	17.08	-47.9	-50.6	17.0	0.00e+00	0	43	0	1113587712	67	4913
2026-01-04 00:12:31.65	213.18	16.96	-47.9	-50.6	17.1	0.00e+00	0	43	0	1115684864	67	4910
2026-01-04 00:12:32.65	213.15	16.85	-48.3	-51.0	16.9	0.00e+00	0	43	0	1116733440	67	5121
2026-01-04 00:12:33.65	213.11	16.74	-48.3	-51.1	16.9	0.00e+00	0	43	0	1118830592	67	5173
2026-01-04 00:12:34.66	213.07	16.62	-48.5	-51.3	16.8	0.00e+00	0	43	0	1120927744	67	5326
2026-01-04 00:12:35.66	213.03	16.51	-48.6	-51.4	16.6	0.00e+00	0	43	0	1123024896	67	5373
2026-01-04 00:12:36.66	212.99	16.40	-48.6	-51.5	16.6	0.00e+00	0	43	0	1125122048	67	5410
2026-01-04 00:12:37.76	212.95	16.27	-48.6	-51.4	16.5	0.00e+00	0	43	0	1126170624	67	5402
2026-01-04 00:12:38.65	212.92	16.17	-48.9	-51.8	16.4	0.00e+00	0	43	0	1128267776	68	5318
2026-01-04 00:12:39.80	212.88	16.05	-48.8	-51.7	16.4	0.00e+00	0	43	0	1130364928	68	5252
2026-01-04 00:12:40.72	212.84	15.95	-48.8	-51.7	16.3	0.00e+00	0	43	0	1132462080	68	5273
2026-01-04 00:12:41.72	212.81	15.84	-48.8	-51.9	16.2	0.00e+00	0	43	0	1134559232	68	5351
2026-01-04 00:12:42.96	212.76	15.70	-48.8	-51.8	16.2	0.00e+00	0	43	0	1136656384	68	5306
2026-01-04 00:12:43.82	212.73	15.61	-48.8	-51.8	16.2	0.00e+00	0	43	0	1137704960	68	5327
2026-01-04 00:12:44.97	212.69	15.48	-48.8	-51.9	16.1	0.00e+00	0	43	0	1139802112	68	5377
2026-01-04 00:12:45.82	212.66	15.39	-48.8	-51.8	16.2	0.00e+00	0	43	0	1141899264	68	5333
2026-01-04 00:12:46.97	212.62	15.27	-48.9	-52.0	16.0	0.00e+00	0	43	0	1143996416	68	5442
2026-01-04 00:12:47.83	212.59	15.18	-48.8	-51.9	16.1	0.00e+00	0	43	0	1146093568	68	5365
2026-01-04 00:12:48.98	212.55	15.05	-49.0	-52.0	16.2	0.00e+00	0	43	0	1148190720	68	5425
2026-01-04 00:12:49.84	212.52	14.96	-49.0	-52.1	16.1	0.00e+00	0	43	0	1149239296	68	5487
2026-01-04 00:12:50.98	212.49	14.84	-48.9	-52.0	16.1	0.00e+00	0	43	0	1151336448	68	5413
2026-01-04 00:12:51.84	212.46	14.75	-49.0	-52.0	16.0	0.00e+00	0	43	0	1153433600	68	5456
2026-01-04 00:12:52.98	212.42	14.63	-48.9	-51.9	16.1	0.00e+00	0	43	0	1155530752	68	5359
2026-01-04 00:12:53.84	212.39	14.54	-48.9	-52.0	16.1	0.00e+00	0	43	0	1156579328	68	5410
2026-01-04 00:12:55.02	212.35	14.42	-48.9	-51.9	16.1	0.00e+00	0	43	0	1158676480	68	5401
2026-01-04 00:12:55.88	212.32	14.33	-48.9	-51.9	16.1	0.00e+00	0	43	0	1160773632	68	5384
2026-01-04 00:12:57.03	212.29	14.21	-48.9	-52.0	16.1	0.00e+00	0	43	0	1162870784	68	5416
2026-01-04 00:12:57.89	212.26	14.13	-49.1	-52.2	15.9	0.00e+00	0	43	0	1164967936	68	5537
2026-01-04 00:12:59.16	212.22	14.00	-49.1	-52.3	15.7	0.00e+00	0	43	0	1167065088	68	5609
2026-01-04 00:12:59.88	212.20	13.92	-49.0	-52.1	15.9	0.00e+00	0	43	0	1168113664	68	5497
2026-01-04 00:13:01.16	212.16	13.79	-48.8	-51.8	16.1	0.00e+00	0	43	0	1170210816	68	5326
2026-01-04 00:13:01.88	212.14	13.72	-48.9	-52.0	16.0	0.00e+00	0	43	0	1172307968	68	5436
2026-01-04 00:13:03.17	212.10	13.59	-49.0	-52.1	15.9	0.00e+00	0	43	0	1174405120	68	5515
2026-01-04 00:13:03.90	212.07	13.52	-49.0	-52.2	15.9	0.00e+00	0	43	0	1175453696	68	5532
2026-01-04 00:13:05.19	212.03	13.39	-49.2	-52.5	15.6	0.00e+00	0	43	0	1178599424	69	5408
2026-01-04 00:13:05.97	212.01	13.31	-49.1	-52.2	15.8	0.00e+00	0	43	0	1179648000	69	5252
2026-01-04 00:13:07.26	211.97	13.19	-49.2	-52.3	15.7	0.00e+00	0	43	0	1181745152	69	5330
2026-01-04 00:13:08.07	211.95	13.11	-49.3	-52.5	15.7	0.00e+00	0	43	0	1183842304	69	5431
2026-01-04 00:13:09.53	211.91	12.96	-49.2	-52.4	15.8	0.00e+00	0	43	0	1185939456	69	5341
2026-01-04 00:13:10.25	211.88	12.89	-49.3	-52.4	15.8	0.00e+00	0	43	0	1188036608	69	5355
2026-01-04 00:13:11.75	211.84	12.75	-49.3	-52.5	15.8	0.00e+00	0	43	0	1190133760	69	5403
2026-01-04 00:13:12.47	211.82	12.68	-49.4	-52.5	15.7	0.00e+00	0	43	0	1192230912	69	5456
2026-01-04 00:13:13.76	211.78	12.55	-49.2	-52.3	15.7	0.00e+00	0	43	0	1194328064	69	5326
2026-01-04 00:13:14.47	211.76	12.49	-49.2	-52.4	15.7	0.00e+00	0	43	0	1195376640	69	5352
2026-01-04 00:13:15.76	211.73	12.36	-49.3	-52.5	15.5	0.00e+00	0	43	0	1197473792	69	5406
2026-01-04 00:13:16.48	211.71	12.29	-49.2	-52.4	15.6	0.00e+00	0	43	0	1199570944	69	5373
2026-01-04 00:13:17.77	211.67	12.17	-49.3	-52.5	15.6	0.00e+00	0	43	0	1201668096	69	5419
2026-01-04 00:13:18.48	211.65	12.11	-49.3	-52.5	15.5	0.00e+00	0	43	0	1202716672	69	5463
2026-01-04 00:13:19.77	211.62	11.98	-49.4	-52.7	15.3	0.00e+00	0	43	0	1205862400	69	5562
2026-01-04 00:13:20.50	211.60	11.92	-49.4	-52.7	15.3	0.00e+00	0	43	0	1206910976	69	5565
2026-01-04 00:13:21.79	211.56	11.80	-49.3	-52.6	15.4	0.00e+00	0	43	0	1209008128	69	5476
2026-01-04 00:13:22.57	211.54	11.72	-49.3	-52.6	15.4	0.00e+00	0	43	0	1211105280	69	5476
2026-01-04 00:13:23.86	211.51	11.60	-49.3	-52.6	15.3	0.00e+00	0	43	0	1213202432	69	5506
2026-01-04 00:13:24.67	211.49	11.53	-49.4	-52.8	15.2	0.00e+00	0	43	0	1214251008	69	5610
2026-01-04 00:13:26.12	211.45	11.40	-49.5	-52.9	15.1	0.00e+00	0	43	0	1217396736	69	5663
2026-01-04 00:13:26.84	211.43	11.33	-49.5	-52.8	15.1	0.00e+00	0	43	0	1218445312	69	5650
2026-01-04 00:13:28.13	211.40	11.21	-49.5	-52.9	15.0	0.00e+00	0	43	0	1221591040	69	5721
2026-01-04 00:13:28.84	211.38	11.15	-49.5	-52.9	15.0	0.00e+00	0	43	0	1222639616	69	5708
2026-01-04 00:13:30.13	211.35	11.03	-49.5	-53.0	15.0	0.00e+00	0	43	0	1224736768	69	5732
2026-01-04 00:13:30.90	211.33	10.96	-49.4	-52.9	15.0	0.00e+00	0	43	0	1226833920	69	5662
2026-01-04 00:13:32.19	211.29	10.85	-49.6	-53.1	14.9	7.00e-07	0	43	0	1228931072	69	5826
2026-01-04 00:13:32.90	211.28	10.78	-49.7	-53.2	14.7	7.00e-07	0	43	0	1229979648	69	5894
2026-01-04 00:13:34.19	211.25	10.67	-49.8	-53.3	14.8	0.00e+00	0	43	0	1232076800	70	5618
2026-01-04 00:13:35.03	211.22	10.59	-49.7	-53.3	14.7	0.00e+00	0	43	0	1234173952	70	5619
2026-01-04 00:13:36.18	211.20	10.49	-49.8	-53.4	14.6	7.00e-07	0	43	0	1236271104	70	5678
2026-01-04 00:13:37.04	211.18	10.42	-49.7	-53.3	14.6	0.00e+00	0	43	0	1238368256	70	5611
2026-01-04 00:13:38.18	211.15	10.31	-49.7	-53.2	14.7	0.00e+00	0	43	0	1240465408	70	5586
2026-01-04 00:13:39.04	211.13	10.24	-49.7	-53.2	14.8	0.00e+00	0	43	0	1241513984	70	5555
2026-01-04 00:13:40.19	211.10	10.14	-49.8	-53.4	14.6	7.00e-07	0	43	0	1243611136	70	5720
2026-01-04 00:13:41.05	211.08	10.06	-50.0	-53.7	14.5	0.00e+00	0	43	0	1245708288	70	5858
2026-01-04 00:13:42.20	211.05	9.96	-49.9	-53.5	14.6	0.00e+00	0	43	0	1247805440	70	5749
