passes_logs/2026/01/04/T1/T1__20260104_135947_FENGYUN_3E_rec.log

#Pass ID: 20260104_135947_FENGYUN 3E
#Satellite: FENGYUN 3E
#Configuration: FENGYUN 3E
#almurnet v.1.7.20251203
#Start time: 2026-01-04 13:59:48

#Version: 2.0.20230620
#Station: T1
#Location: 37.570604 lon 55.790049 lat
#TLE: 1 49008U 21062A   26004.01270550 -.00000256  00000+0 -10014-3 0  9997
#TLE: 2 49008  98.7472   9.2701 0001499 161.2681 198.8551 14.19882497233285

#Time	Az	El	Level	Level2	SNR	BER	BlckErr	Temp	State	Recorded	gain1	gain2
2026-01-04 13:59:48.11	153.68	5.04	-53.7	-64.5	3.8	8.46e-01	0	38	0	0	78	11995
2026-01-04 13:59:49.11	153.67	5.11	-53.6	-63.8	3.8	8.48e-01	0	39	104	0	78	11109
2026-01-04 13:59:50.11	153.66	5.19	-53.7	-63.8	3.8	8.47e-01	0	39	104	0	78	11047
2026-01-04 13:59:51.12	153.65	5.26	-53.6	-63.8	3.8	8.46e-01	0	39	104	0	78	11107
2026-01-04 13:59:52.12	153.64	5.33	-53.6	-63.8	3.8	8.47e-01	0	39	104	0	78	11136
2026-01-04 13:59:53.13	153.63	5.40	-53.6	-64.0	3.8	8.46e-01	0	39	104	0	78	11355
2026-01-04 13:59:54.13	153.62	5.48	-53.6	-64.1	3.8	8.47e-01	0	39	104	0	78	11489
2026-01-04 13:59:55.14	153.61	5.55	-53.6	-64.4	3.8	8.47e-01	0	39	104	0	77	12555
2026-01-04 13:59:56.14	153.59	5.62	-53.6	-64.4	3.8	8.47e-01	0	39	104	0	77	12521
2026-01-04 13:59:57.15	153.58	5.70	-53.7	-64.4	3.8	8.48e-01	0	39	104	0	77	12523
2026-01-04 13:59:58.15	153.57	5.77	-53.6	-64.2	3.8	8.48e-01	0	39	104	0	77	12256
2026-01-04 13:59:59.15	153.56	5.85	-53.6	-63.7	3.8	8.46e-01	0	39	104	0	77	11663
2026-01-04 14:00:00.16	153.55	5.92	-53.5	-63.4	3.8	8.48e-01	0	39	104	0	77	11228
2026-01-04 14:00:01.16	153.54	6.00	-53.5	-62.9	3.8	8.45e-01	0	39	104	0	77	10636
2026-01-04 14:00:02.17	153.53	6.07	-53.4	-62.6	3.8	8.47e-01	0	39	104	0	77	10224
2026-01-04 14:00:03.17	153.52	6.15	-53.3	-62.2	3.8	8.46e-01	0	39	104	0	77	9786
2026-01-04 14:00:04.18	153.51	6.22	-53.2	-62.0	4.0	8.44e-01	0	39	104	0	77	9563
2026-01-04 14:00:05.18	153.50	6.30	-53.3	-62.2	3.9	8.44e-01	0	39	104	0	77	9776
2026-01-04 14:00:06.19	153.49	6.37	-53.3	-62.1	4.0	8.46e-01	0	39	104	0	77	9622
2026-01-04 14:00:07.19	153.48	6.45	-53.3	-62.4	3.8	8.45e-01	0	39	104	0	77	10039
2026-01-04 14:00:08.20	153.46	6.52	-53.4	-62.9	3.8	8.46e-01	0	39	104	0	77	10563
2026-01-04 14:00:09.20	153.45	6.60	-53.4	-63.1	3.8	8.46e-01	0	39	104	0	77	10848
2026-01-04 14:00:10.20	153.44	6.68	-53.5	-63.6	3.8	8.48e-01	0	39	104	0	77	11424
2026-01-04 14:00:11.21	153.43	6.75	-53.6	-63.7	3.8	8.47e-01	0	39	104	0	77	11652
2026-01-04 14:00:12.21	153.42	6.83	-53.6	-63.8	3.8	8.47e-01	0	39	104	0	77	11734
2026-01-04 14:00:13.22	153.41	6.91	-53.5	-63.6	3.8	8.47e-01	0	39	104	0	77	11479
2026-01-04 14:00:14.22	153.40	6.99	-53.5	-63.3	3.8	8.47e-01	0	40	104	0	77	11129
2026-01-04 14:00:15.23	153.38	7.06	-53.4	-62.6	3.8	8.47e-01	0	39	104	0	77	10289
2026-01-04 14:00:16.23	153.37	7.14	-53.2	-61.9	3.9	8.46e-01	0	40	104	0	77	9495
2026-01-04 14:00:17.23	153.36	7.22	-53.2	-61.4	4.1	8.41e-01	0	40	0	0	77	8949
2026-01-04 14:00:18.24	153.35	7.30	-53.0	-60.5	4.3	8.32e-01	0	40	0	0	76	8548
2026-01-04 14:00:19.24	153.34	7.38	-52.8	-59.8	4.6	8.20e-01	0	40	0	0	76	7887
2026-01-04 14:00:20.25	153.32	7.46	-52.5	-58.8	5.1	7.73e-01	0	40	0	0	75	7389
2026-01-04 14:00:21.25	153.31	7.54	-52.2	-57.9	5.7	6.34e-01	0	40	0	1048576	75	6658
2026-01-04 14:00:22.25	153.30	7.61	-51.9	-56.9	6.5	2.57e-01	0	40	0	7340032	74	6303
2026-01-04 14:00:23.26	153.29	7.69	-51.5	-56.0	7.3	1.48e-01	0	40	0	14680064	73	6013
2026-01-04 14:00:24.26	153.27	7.77	-51.0	-55.0	8.3	7.56e-02	0	40	0	22020096	72	5681
2026-01-04 14:00:25.27	153.26	7.85	-50.6	-54.3	8.9	3.07e-02	0	40	0	29360128	72	5245
2026-01-04 14:00:26.27	153.25	7.93	-50.2	-53.5	9.7	1.34e-02	0	40	0	36700160	71	5086
2026-01-04 14:00:27.27	153.24	8.02	-49.7	-52.8	10.5	5.20e-03	0	40	0	44040192	70	4959
2026-01-04 14:00:28.28	153.22	8.10	-49.3	-52.2	11.2	2.18e-03	0	40	0	51380224	69	4871
2026-01-04 14:00:29.28	153.21	8.18	-49.4	-52.4	10.9	2.20e-03	0	40	0	58720256	69	5010
2026-01-04 14:00:30.29	153.20	8.26	-49.2	-52.1	11.3	1.45e-03	0	40	0	66060288	69	4850
2026-01-04 14:00:31.29	153.18	8.34	-49.1	-52.0	11.4	1.06e-03	0	40	0	73400320	69	4779
2026-01-04 14:00:32.29	153.17	8.42	-49.2	-52.0	11.3	1.28e-03	0	40	0	80740352	68	5096
2026-01-04 14:00:33.30	153.16	8.50	-49.3	-52.2	11.2	1.34e-03	0	40	0	88080384	68	5181
2026-01-04 14:00:34.30	153.14	8.59	-49.9	-53.1	10.2	6.60e-03	0	40	0	94371840	69	5431
2026-01-04 14:00:35.31	153.13	8.67	-50.2	-53.5	9.8	7.86e-03	0	40	0	101711872	69	5698
2026-01-04 14:00:36.31	153.12	8.75	-50.8	-54.6	8.7	3.41e-02	0	40	0	109051904	71	5760
2026-01-04 14:00:37.32	153.10	8.84	-51.3	-55.5	7.7	7.38e-02	0	40	0	116391936	71	6398
2026-01-04 14:00:38.32	153.09	8.92	-51.8	-56.7	6.6	1.66e-01	0	40	0	123731968	72	6954
2026-01-04 14:00:39.32	153.08	9.00	-52.2	-57.9	5.7	4.40e-01	0	40	0	131072000	73	7533
2026-01-04 14:00:40.33	153.06	9.09	-52.5	-58.6	5.2	7.62e-01	0	40	0	132120576	74	7715
2026-01-04 14:00:41.33	153.05	9.17	-52.5	-58.6	5.3	4.67e-01	0	40	0	138412032	74	7646
2026-01-04 14:00:42.34	153.03	9.26	-52.9	-60.2	4.4	8.34e-01	0	41	0	138412032	75	8732
2026-01-04 14:00:43.34	153.02	9.34	-49.5	-53.2	10.0	2.94e-02	0	40	0	143654912	70	5213
2026-01-04 14:00:44.34	153.01	9.43	-48.5	-51.1	12.4	0.00e+00	0	40	0	150994944	66	5105
2026-01-04 14:00:45.34	152.99	9.51	-52.9	-60.8	3.9	8.46e-01	0	41	104	153092096	76	8774
2026-01-04 14:00:46.35	152.98	9.60	-46.2	-48.2	15.1	0.00e+00	0	40	0	157286400	63	4364
2026-01-04 14:00:47.35	152.96	9.68	-45.1	-47.0	16.4	0.00e+00	0	40	0	164626432	61	4257
2026-01-04 14:00:48.36	152.95	9.77	-44.6	-46.3	17.0	0.00e+00	0	41	0	171966464	60	4186
2026-01-04 14:00:49.43	152.93	9.86	-44.3	-46.0	17.2	0.00e+00	0	41	0	179306496	59	4267
2026-01-04 14:00:50.33	152.92	9.94	-44.1	-45.7	17.6	0.00e+00	0	40	0	185597952	58	4346
2026-01-04 14:00:51.47	152.90	10.04	-43.6	-45.2	18.0	0.00e+00	0	41	0	193986560	58	4139
2026-01-04 14:00:52.33	152.89	10.12	-43.7	-45.3	17.8	0.00e+00	0	40	0	200278016	58	4178
2026-01-04 14:00:53.48	152.87	10.22	-43.5	-45.1	18.0	0.00e+00	0	40	0	208666624	57	4326
2026-01-04 14:00:54.34	152.86	10.29	-43.3	-44.9	18.2	0.00e+00	0	41	0	214958080	57	4200
2026-01-04 14:00:55.48	152.84	10.39	-43.3	-44.8	18.3	0.00e+00	0	41	0	223346688	57	4169
2026-01-04 14:00:56.34	152.83	10.47	-43.3	-44.9	18.3	0.00e+00	0	41	0	229638144	57	4209
2026-01-04 14:00:57.49	152.81	10.57	-43.3	-44.8	18.4	0.00e+00	0	40	0	238026752	57	4176
2026-01-04 14:00:58.34	152.80	10.65	-43.1	-44.7	18.5	0.00e+00	0	41	0	244318208	57	4115
2026-01-04 14:00:59.48	152.78	10.75	-43.1	-44.6	18.5	0.00e+00	0	41	0	251658240	56	4334
2026-01-04 14:01:00.34	152.77	10.83	-43.1	-44.6	18.5	0.00e+00	0	41	0	257949696	56	4317
2026-01-04 14:01:01.48	152.75	10.93	-43.1	-44.6	18.5	0.00e+00	0	41	0	266338304	56	4333
2026-01-04 14:01:02.34	152.73	11.01	-43.1	-44.6	18.6	0.00e+00	0	41	0	272629760	56	4296
2026-01-04 14:01:03.49	152.71	11.11	-42.8	-44.3	18.8	0.00e+00	0	41	0	281018368	56	4185
2026-01-04 14:01:04.39	152.70	11.20	-43.0	-44.5	18.7	0.00e+00	0	41	0	287309824	56	4287
2026-01-04 14:01:05.41	152.68	11.29	-42.9	-44.4	18.7	0.00e+00	0	41	0	294649856	56	4226
2026-01-04 14:01:06.41	152.67	11.38	-43.0	-44.5	18.7	0.00e+00	0	41	0	301989888	56	4247
2026-01-04 14:01:07.41	152.65	11.47	-42.8	-44.3	18.9	0.00e+00	0	41	0	309329920	56	4148
2026-01-04 14:01:08.41	152.63	11.57	-42.8	-44.3	18.8	0.00e+00	0	41	0	316669952	56	4161
2026-01-04 14:01:09.41	152.62	11.66	-42.8	-44.3	18.9	0.00e+00	0	41	0	324009984	56	4162
2026-01-04 14:01:10.41	152.60	11.75	-42.7	-44.1	19.1	0.00e+00	0	41	0	330301440	56	4081
2026-01-04 14:01:11.41	152.58	11.85	-42.8	-44.3	18.9	0.00e+00	0	41	0	337641472	56	4156
2026-01-04 14:01:12.41	152.56	11.94	-42.8	-44.3	18.8	0.00e+00	0	41	0	344981504	56	4146
2026-01-04 14:01:13.41	152.55	12.03	-42.4	-43.9	19.2	0.00e+00	0	41	0	352321536	55	4213
2026-01-04 14:01:14.41	152.53	12.13	-42.5	-44.0	19.1	0.00e+00	0	41	0	359661568	55	4246
2026-01-04 14:01:15.42	152.51	12.22	-42.3	-43.7	19.2	0.00e+00	0	41	0	367001600	55	4145
2026-01-04 14:01:16.42	152.49	12.32	-42.4	-43.8	19.2	0.00e+00	0	41	0	374341632	55	4172
2026-01-04 14:01:17.47	152.47	12.42	-42.4	-43.9	19.1	0.00e+00	0	41	0	381681664	55	4199
2026-01-04 14:01:18.40	152.46	12.51	-42.3	-43.8	19.2	0.00e+00	0	41	0	389021696	55	4151
2026-01-04 14:01:19.40	152.44	12.61	-42.4	-43.9	19.2	0.00e+00	0	41	0	395313152	55	4196
2026-01-04 14:01:20.41	152.42	12.70	-42.4	-43.8	19.2	0.00e+00	0	41	0	402653184	55	4181
2026-01-04 14:01:21.41	152.40	12.80	-42.3	-43.7	19.3	0.00e+00	0	41	0	409993216	55	4117
2026-01-04 14:01:22.41	152.38	12.90	-42.3	-43.7	19.3	0.00e+00	0	41	0	417333248	55	4106
2026-01-04 14:01:23.41	152.36	13.00	-42.1	-43.5	19.4	0.00e+00	0	41	0	424673280	55	4048
2026-01-04 14:01:24.42	152.35	13.10	-42.3	-43.7	19.3	0.00e+00	0	41	0	432013312	55	4137
2026-01-04 14:01:25.42	152.33	13.20	-42.3	-43.7	19.3	0.00e+00	0	41	0	439353344	55	4140
2026-01-04 14:01:26.42	152.31	13.30	-42.2	-43.6	19.3	0.00e+00	0	41	0	446693376	55	4086
2026-01-04 14:01:27.42	152.29	13.40	-42.2	-43.6	19.4	0.00e+00	0	41	0	452984832	55	4053
2026-01-04 14:01:28.42	152.27	13.50	-42.0	-43.4	19.6	0.00e+00	0	41	0	460324864	54	4215
2026-01-04 14:01:29.43	152.25	13.60	-42.0	-43.4	19.5	0.00e+00	0	41	0	467664896	54	4216
2026-01-04 14:01:30.45	152.23	13.70	-42.4	-43.8	19.3	0.00e+00	0	41	0	475004928	54	4419
2026-01-04 14:01:31.48	152.21	13.81	-42.1	-43.5	19.5	0.00e+00	0	41	0	482344960	54	4275
2026-01-04 14:01:32.47	152.19	13.91	-42.0	-43.4	19.6	0.00e+00	0	41	0	489684992	54	4211
2026-01-04 14:01:33.47	152.17	14.01	-41.9	-43.3	19.7	0.00e+00	0	41	0	497025024	54	4180
2026-01-04 14:01:34.47	152.15	14.11	-42.0	-43.4	19.5	0.00e+00	0	41	0	504365056	54	4226
2026-01-04 14:01:35.47	152.13	14.21	-42.0	-43.4	19.5	0.00e+00	0	41	0	511705088	54	4205
2026-01-04 14:01:36.47	152.10	14.32	-42.0	-43.4	19.6	0.00e+00	0	41	0	519045120	54	4211
2026-01-04 14:01:37.47	152.08	14.42	-42.0	-43.4	19.6	0.00e+00	0	41	0	526385152	54	4238
2026-01-04 14:01:38.47	152.06	14.53	-42.2	-43.6	19.5	0.00e+00	0	41	0	533725184	54	4317
2026-01-04 14:01:39.47	152.04	14.63	-42.0	-43.4	19.6	0.00e+00	0	41	0	540016640	54	4215
2026-01-04 14:01:40.47	152.02	14.74	-42.1	-43.5	19.6	0.00e+00	0	41	0	547356672	54	4244
2026-01-04 14:01:41.47	152.00	14.84	-41.9	-43.3	19.7	0.00e+00	0	41	0	554696704	54	4171
2026-01-04 14:01:42.48	151.98	14.95	-42.0	-43.4	19.6	0.00e+00	0	41	0	562036736	54	4214
2026-01-04 14:01:43.48	151.95	15.06	-42.1	-43.5	19.6	0.00e+00	0	41	0	569376768	54	4257
2026-01-04 14:01:44.48	151.93	15.16	-42.1	-43.5	19.5	0.00e+00	0	41	0	576716800	54	4277
2026-01-04 14:01:45.48	151.91	15.27	-42.0	-43.4	19.6	0.00e+00	0	41	0	584056832	54	4201
2026-01-04 14:01:46.48	151.89	15.38	-42.1	-43.4	19.6	0.00e+00	0	41	0	591396864	54	4239
2026-01-04 14:01:47.48	151.86	15.49	-42.1	-43.5	19.5	0.00e+00	0	41	0	598736896	54	4287
2026-01-04 14:01:48.57	151.84	15.61	-41.9	-43.3	19.7	0.00e+00	0	41	0	606076928	54	4163
2026-01-04 14:01:49.42	151.82	15.70	-42.1	-43.4	19.6	0.00e+00	0	41	0	612368384	54	4242
2026-01-04 14:01:50.57	151.79	15.83	-42.0	-43.4	19.7	0.00e+00	0	41	0	620756992	54	4203
2026-01-04 14:01:51.43	151.77	15.92	-41.9	-43.2	19.8	0.00e+00	0	41	0	627048448	54	4137
2026-01-04 14:01:52.57	151.75	16.05	-42.0	-43.3	19.7	0.00e+00	0	41	0	635437056	54	4186
2026-01-04 14:01:53.43	151.72	16.14	-41.8	-43.1	19.9	0.00e+00	0	41	0	640679936	54	4096
2026-01-04 14:01:54.57	151.70	16.27	-41.8	-43.1	19.9	0.00e+00	0	41	0	649068544	54	4087
2026-01-04 14:01:55.43	151.68	16.37	-41.6	-42.9	20.1	0.00e+00	0	41	0	655360000	54	3995
2026-01-04 14:01:56.58	151.65	16.50	-41.7	-43.0	19.9	0.00e+00	0	41	0	663748608	54	4030
2026-01-04 14:01:57.71	151.62	16.63	-41.7	-43.1	19.9	0.00e+00	0	41	0	672137216	54	4057
2026-01-04 14:01:58.74	151.59	16.75	-41.6	-42.9	20.0	0.00e+00	0	41	0	679477248	53	4236
2026-01-04 14:01:59.74	151.57	16.86	-41.6	-42.9	20.1	0.00e+00	0	41	0	686817280	53	4233
2026-01-04 14:02:00.73	151.54	16.97	-41.6	-43.0	20.0	0.00e+00	0	41	0	694157312	53	4246
2026-01-04 14:02:01.74	151.52	17.09	-41.5	-42.8	20.1	0.00e+00	0	41	0	701497344	53	4189
2026-01-04 14:02:02.74	151.49	17.21	-41.5	-42.8	20.2	0.00e+00	0	41	0	708837376	53	4156
2026-01-04 14:02:03.74	151.47	17.32	-41.4	-42.7	20.2	0.00e+00	0	41	0	716177408	53	4117
2026-01-04 14:02:04.74	151.44	17.44	-41.5	-42.9	20.1	0.00e+00	0	41	0	723517440	53	4203
2026-01-04 14:02:05.74	151.41	17.56	-41.4	-42.7	20.3	0.00e+00	0	41	0	730857472	53	4133
2026-01-04 14:02:06.74	151.39	17.68	-41.5	-42.8	20.2	0.00e+00	0	41	0	737148928	53	4149
2026-01-04 14:02:07.74	151.36	17.80	-41.4	-42.7	20.3	0.00e+00	0	41	0	744488960	53	4101
2026-01-04 14:02:08.74	151.33	17.92	-41.5	-42.8	20.1	0.00e+00	0	41	0	751828992	53	4193
2026-01-04 14:02:09.74	151.31	18.04	-41.2	-42.5	20.4	0.00e+00	0	41	0	759169024	53	4038
2026-01-04 14:02:10.74	151.28	18.16	-41.1	-42.3	20.5	0.00e+00	0	41	0	766509056	53	3956
2026-01-04 14:02:11.94	151.24	18.31	-41.0	-42.3	20.5	0.00e+00	0	41	0	774897664	52	4175
2026-01-04 14:02:12.81	151.22	18.41	-41.0	-42.3	20.6	0.00e+00	0	41	0	781189120	52	4164
2026-01-04 14:02:14.11	151.18	18.57	-41.0	-42.3	20.6	0.00e+00	0	41	0	790626304	52	4170
2026-01-04 14:02:14.83	151.16	18.66	-40.8	-42.1	20.8	0.00e+00	0	41	0	795869184	52	4058
2026-01-04 14:02:16.12	151.12	18.82	-41.0	-42.3	20.6	0.00e+00	0	41	0	805306368	52	4162
2026-01-04 14:02:16.83	151.10	18.91	-41.0	-42.2	20.6	0.00e+00	0	41	0	810549248	52	4141
2026-01-04 14:02:18.12	151.07	19.07	-40.9	-42.1	20.7	0.00e+00	0	41	0	819986432	52	4076
2026-01-04 14:02:18.87	151.04	19.17	-40.8	-42.0	20.9	0.00e+00	0	41	0	825229312	52	4032
2026-01-04 14:02:20.15	151.01	19.33	-41.0	-42.2	20.7	0.00e+00	0	41	0	834666496	52	4134
2026-01-04 14:02:20.87	150.98	19.42	-40.9	-42.1	20.8	0.00e+00	0	41	0	838860800	52	4076
2026-01-04 14:02:22.15	150.94	19.58	-40.8	-42.0	20.8	0.00e+00	0	41	0	848297984	52	4051
2026-01-04 14:02:22.87	150.92	19.68	-40.7	-42.0	20.9	0.00e+00	0	41	0	853540864	52	4005
2026-01-04 14:02:24.16	150.88	19.84	-40.7	-41.9	21.1	0.00e+00	0	41	0	862978048	51	4204
2026-01-04 14:02:24.88	150.86	19.94	-40.7	-42.0	21.0	0.00e+00	0	41	0	868220928	51	4244
2026-01-04 14:02:26.16	150.82	20.10	-40.9	-42.1	20.8	0.00e+00	0	41	0	877658112	51	4306
2026-01-04 14:02:26.88	150.80	20.20	-40.7	-41.9	20.9	0.00e+00	0	41	0	882900992	51	4218
2026-01-04 14:02:28.17	150.75	20.37	-40.6	-41.8	21.1	0.00e+00	0	41	0	892338176	51	4183
2026-01-04 14:02:29.28	150.72	20.52	-40.5	-41.7	21.1	0.00e+00	0	41	0	900726784	51	4134
2026-01-04 14:02:30.14	150.69	20.63	-40.5	-41.7	21.2	0.00e+00	0	41	0	905969664	51	4107
2026-01-04 14:02:31.29	150.65	20.79	-40.5	-41.7	21.2	0.00e+00	0	41	0	914358272	51	4117
2026-01-04 14:02:32.14	150.62	20.90	-40.5	-41.7	21.1	0.00e+00	0	41	0	920649728	51	4120
2026-01-04 14:02:33.29	150.58	21.06	-40.6	-41.8	21.1	0.00e+00	0	41	0	929038336	51	4155
2026-01-04 14:02:34.15	150.55	21.17	-40.5	-41.7	21.2	0.00e+00	0	41	0	935329792	51	4110
2026-01-04 14:02:35.29	150.51	21.33	-40.6	-41.8	21.1	0.00e+00	0	42	0	943718400	51	4174
2026-01-04 14:02:36.15	150.48	21.45	-40.6	-41.9	21.0	0.00e+00	0	41	0	950009856	51	4201
2026-01-04 14:02:37.49	150.44	21.63	-40.4	-41.6	21.2	0.00e+00	0	41	0	959447040	51	4088
2026-01-04 14:02:38.20	150.41	21.73	-40.5	-41.8	21.1	0.00e+00	0	41	0	964689920	51	4152
2026-01-04 14:02:39.49	150.37	21.91	-40.5	-41.8	21.1	0.00e+00	0	41	0	974127104	51	4146
2026-01-04 14:02:40.20	150.34	22.01	-40.6	-41.9	21.0	0.00e+00	0	41	0	979369984	51	4204
2026-01-04 14:02:41.76	150.28	22.23	-40.5	-41.8	21.1	0.00e+00	0	41	0	989855744	51	4154
2026-01-04 14:02:42.47	150.26	22.34	-40.6	-41.9	21.0	0.00e+00	0	41	0	995098624	51	4203
2026-01-04 14:02:43.76	150.21	22.52	-40.6	-41.9	21.0	0.00e+00	0	42	0	1004535808	51	4194
2026-01-04 14:02:44.47	150.18	22.62	-40.6	-41.9	21.0	0.00e+00	0	41	0	1009778688	51	4217
2026-01-04 14:02:45.76	150.13	22.81	-40.6	-41.9	21.0	0.00e+00	0	41	0	1019215872	51	4211
2026-01-04 14:02:46.47	150.10	22.91	-40.5	-41.8	21.0	0.00e+00	0	42	0	1024458752	51	4186
2026-01-04 14:02:47.76	150.05	23.10	-40.5	-41.8	21.0	0.00e+00	0	42	0	1033895936	51	4173
2026-01-04 14:02:48.48	150.02	23.21	-40.5	-41.8	21.0	0.00e+00	0	42	0	1038090240	51	4193
2026-01-04 14:02:49.77	149.97	23.40	-40.5	-41.9	20.9	0.00e+00	0	42	0	1047527424	51	4195
2026-01-04 14:02:50.48	149.94	23.51	-40.6	-41.9	21.0	0.00e+00	0	41	0	1053818880	51	4198
2026-01-04 14:02:51.77	149.89	23.70	-40.6	-41.9	20.9	0.00e+00	0	42	0	1062207488	51	4227
2026-01-04 14:02:52.48	149.86	23.81	-40.6	-41.9	21.0	0.00e+00	0	42	0	1067450368	51	4210
2026-01-04 14:02:53.78	149.81	24.01	-40.5	-41.8	21.0	0.00e+00	0	41	0	1076887552	51	4190
2026-01-04 14:02:54.49	149.78	24.11	-40.5	-41.8	21.0	0.00e+00	0	41	0	1082130432	51	4188
2026-01-04 14:02:55.78	149.72	24.31	-40.6	-41.9	20.9	0.00e+00	0	41	0	1091567616	51	4221
2026-01-04 14:02:56.49	149.69	24.42	-40.4	-41.7	21.1	0.00e+00	0	42	0	1096810496	51	4115
2026-01-04 14:02:57.85	149.64	24.63	-40.6	-41.9	20.9	0.00e+00	0	41	0	1106247680	51	4226
2026-01-04 14:02:58.56	149.60	24.74	-40.5	-41.8	21.0	0.00e+00	0	42	0	1111490560	51	4178
2026-01-04 14:02:59.85	149.55	24.95	-40.4	-41.7	21.1	0.00e+00	0	42	0	1120927744	51	4118
2026-01-04 14:03:00.56	149.52	25.06	-40.4	-41.8	21.1	0.00e+00	0	41	0	1126170624	51	4151
2026-01-04 14:03:01.85	149.46	25.26	-40.4	-41.8	21.0	0.00e+00	0	41	0	1135607808	51	4160
2026-01-04 14:03:02.57	149.42	25.38	-40.4	-41.8	21.0	0.00e+00	0	41	0	1140850688	51	4153
2026-01-04 14:03:03.85	149.36	25.59	-40.4	-41.7	21.1	0.00e+00	0	42	0	1149239296	51	4123
2026-01-04 14:03:04.57	149.33	25.70	-40.3	-41.6	21.2	0.00e+00	0	42	0	1154482176	51	4072
2026-01-04 14:03:05.86	149.27	25.91	-40.3	-41.6	21.2	0.00e+00	0	41	0	1163919360	51	4065
2026-01-04 14:03:06.67	149.23	26.05	-40.3	-41.6	21.2	0.00e+00	0	42	0	1170210816	51	4097
2026-01-04 14:03:07.81	149.18	26.23	-40.3	-41.6	21.2	0.00e+00	0	42	0	1178599424	51	4088
2026-01-04 14:03:08.67	149.13	26.38	-40.1	-41.4	21.3	0.00e+00	0	41	0	1184890880	51	3993
2026-01-04 14:03:09.81	149.08	26.57	-40.1	-41.4	21.4	0.00e+00	0	41	0	1192230912	50	4206
2026-01-04 14:03:10.67	149.04	26.71	-40.1	-41.4	21.4	0.00e+00	0	41	0	1198522368	50	4212
2026-01-04 14:03:11.82	148.98	26.90	-40.1	-41.4	21.3	0.00e+00	0	41	0	1206910976	50	4242
2026-01-04 14:03:12.68	148.93	27.05	-39.9	-41.2	21.5	0.00e+00	0	41	0	1213202432	50	4130
2026-01-04 14:03:13.82	148.87	27.25	-39.9	-41.2	21.5	0.00e+00	0	42	0	1221591040	50	4129
2026-01-04 14:03:14.68	148.83	27.39	-40.0	-41.3	21.5	0.00e+00	0	41	0	1227882496	50	4161
2026-01-04 14:03:15.82	148.77	27.59	-39.9	-41.2	21.6	0.00e+00	0	42	0	1236271104	50	4135
2026-01-04 14:03:16.68	148.72	27.74	-39.8	-41.1	21.6	0.00e+00	0	42	0	1242562560	50	4074
2026-01-04 14:03:17.83	148.66	27.94	-39.7	-41.0	21.7	0.00e+00	0	42	0	1250951168	50	4040
2026-01-04 14:03:18.68	148.62	28.09	-39.7	-41.0	21.8	0.00e+00	0	42	0	1257242624	50	4013
2026-01-04 14:03:19.83	148.55	28.30	-39.8	-41.1	21.7	0.00e+00	0	42	0	1264582656	50	4052
2026-01-04 14:03:20.69	148.50	28.45	-39.8	-41.0	21.8	0.00e+00	0	42	0	1270874112	50	4049
2026-01-04 14:03:21.83	148.44	28.65	-39.8	-41.1	21.8	0.00e+00	0	42	0	1279262720	50	4057
2026-01-04 14:03:22.69	148.39	28.81	-39.5	-40.7	22.0	0.00e+00	0	42	0	1285554176	49	4128
2026-01-04 14:03:23.83	148.32	29.02	-39.5	-40.7	22.0	0.00e+00	0	42	0	1293942784	49	4122
2026-01-04 14:03:24.69	148.27	29.18	-39.5	-40.7	22.0	0.00e+00	0	42	0	1300234240	49	4118
2026-01-04 14:03:25.94	148.20	29.41	-39.6	-40.8	21.9	0.00e+00	0	42	0	1309671424	49	4191
2026-01-04 14:03:26.66	148.16	29.54	-39.6	-40.9	21.9	0.00e+00	0	42	0	1313865728	49	4200
2026-01-04 14:03:27.95	148.08	29.78	-39.6	-40.8	21.9	0.00e+00	0	42	0	1323302912	49	4191
2026-01-04 14:03:28.66	148.03	29.91	-39.7	-40.9	21.9	0.00e+00	0	42	0	1328545792	49	4213
2026-01-04 14:03:29.95	147.95	30.16	-39.7	-41.0	21.8	0.00e+00	0	42	0	1337982976	49	4252
2026-01-04 14:03:30.66	147.91	30.29	-39.8	-41.1	21.6	0.00e+00	0	42	0	1343225856	49	4302
2026-01-04 14:03:31.95	147.83	30.54	-40.0	-41.3	21.6	0.00e+00	0	42	0	1352663040	49	4417
2026-01-04 14:03:32.66	147.78	30.68	-40.0	-41.3	21.6	0.00e+00	0	42	0	1357905920	49	4398
2026-01-04 14:03:33.95	147.70	30.93	-40.0	-41.3	21.5	0.00e+00	0	42	0	1367343104	49	4400
2026-01-04 14:03:34.66	147.65	31.06	-39.9	-41.1	21.7	0.00e+00	0	41	0	1372585984	49	4326
2026-01-04 14:03:35.95	147.56	31.32	-39.8	-41.0	21.7	0.00e+00	0	41	0	1380974592	49	4276
2026-01-04 14:03:36.67	147.51	31.46	-39.8	-41.0	21.7	0.00e+00	0	42	0	1386217472	49	4267
2026-01-04 14:03:37.95	147.43	31.72	-39.7	-41.0	21.8	0.00e+00	0	42	0	1395654656	49	4246
2026-01-04 14:03:38.67	147.38	31.86	-39.9	-41.1	21.7	0.00e+00	0	42	0	1400897536	49	4315
2026-01-04 14:03:40.16	147.27	32.16	-39.8	-41.0	21.8	0.00e+00	0	42	0	1411383296	49	4266
2026-01-04 14:03:41.15	147.20	32.36	-39.7	-40.9	21.8	0.00e+00	0	42	0	1418723328	49	4215
2026-01-04 14:03:42.48	147.10	32.63	-39.9	-41.1	21.7	0.00e+00	0	42	0	1429209088	49	4330
2026-01-04 14:03:43.20	147.05	32.78	-39.8	-41.1	21.7	0.00e+00	0	42	0	1433403392	49	4295
2026-01-04 14:03:44.48	146.95	33.05	-39.8	-41.0	21.7	0.00e+00	0	42	0	1442840576	49	4271
2026-01-04 14:03:45.20	146.90	33.20	-39.7	-40.9	21.8	0.00e+00	0	42	0	1448083456	49	4233
2026-01-04 14:03:46.49	146.80	33.47	-39.8	-41.0	21.7	0.00e+00	0	42	0	1457520640	49	4291
2026-01-04 14:03:47.20	146.74	33.62	-39.9	-41.1	21.7	0.00e+00	0	42	0	1462763520	49	4340
2026-01-04 14:03:48.49	146.64	33.90	-40.1	-41.4	21.4	0.00e+00	0	42	0	1472200704	49	4492
2026-01-04 14:03:49.21	146.58	34.05	-39.9	-41.2	21.6	0.00e+00	0	42	0	1477443584	49	4365
2026-01-04 14:03:50.49	146.48	34.33	-40.0	-41.3	21.5	0.00e+00	0	42	0	1486880768	49	4402
2026-01-04 14:03:51.21	146.42	34.49	-40.0	-41.3	21.5	0.00e+00	0	42	0	1491075072	49	4421
2026-01-04 14:03:52.74	146.29	34.82	-40.2	-41.5	21.3	0.00e+00	0	42	0	1502609408	49	4527
2026-01-04 14:03:53.46	146.23	34.98	-40.2	-41.5	21.3	0.00e+00	0	42	0	1507852288	49	4514
2026-01-04 14:03:54.84	146.11	35.29	-39.8	-41.1	21.7	0.00e+00	0	42	0	1518338048	50	4056
2026-01-04 14:03:55.56	146.05	35.45	-39.8	-41.1	21.7	0.00e+00	0	42	0	1522532352	50	4077
2026-01-04 14:03:56.84	145.94	35.74	-39.9	-41.2	21.6	0.00e+00	0	42	0	1531969536	50	4109
2026-01-04 14:03:57.56	145.87	35.90	-39.8	-41.1	21.6	0.00e+00	0	42	0	1537212416	50	4071
2026-01-04 14:03:58.84	145.75	36.19	-39.9	-41.2	21.7	0.00e+00	0	42	0	1546649600	50	4101
2026-01-04 14:03:59.55	145.69	36.36	-40.0	-41.3	21.5	0.00e+00	0	42	0	1551892480	50	4158
2026-01-04 14:04:00.84	145.57	36.66	-39.9	-41.2	21.5	0.00e+00	0	41	0	1561329664	50	4121
2026-01-04 14:04:01.56	145.50	36.82	-39.9	-41.2	21.5	0.00e+00	0	41	0	1566572544	50	4128
2026-01-04 14:04:02.84	145.37	37.12	-40.0	-41.3	21.5	0.00e+00	0	42	0	1576009728	50	4180
2026-01-04 14:04:03.56	145.30	37.29	-40.1	-41.4	21.5	0.00e+00	0	42	0	1580204032	50	4222
2026-01-04 14:04:04.84	145.18	37.60	-40.1	-41.4	21.5	0.00e+00	0	42	0	1589641216	50	4195
2026-01-04 14:04:05.67	145.09	37.80	-40.2	-41.5	21.5	0.00e+00	0	42	0	1595932672	50	4250
2026-01-04 14:04:06.82	144.97	38.08	-40.3	-41.6	21.3	0.00e+00	0	42	0	1604321280	50	4312
2026-01-04 14:04:07.67	144.88	38.28	-40.2	-41.5	21.3	0.00e+00	0	42	0	1610612736	50	4288
2026-01-04 14:04:08.82	144.76	38.56	-40.2	-41.5	21.4	0.00e+00	0	42	0	1619001344	50	4281
2026-01-04 14:04:09.67	144.67	38.77	-40.1	-41.4	21.6	0.00e+00	0	42	0	1624244224	50	4195
2026-01-04 14:04:10.81	144.55	39.06	-39.9	-41.2	21.6	0.00e+00	0	42	0	1632632832	50	4118
2026-01-04 14:04:11.67	144.45	39.27	-39.9	-41.1	21.8	0.00e+00	0	42	0	1638924288	50	4072
2026-01-04 14:04:12.82	144.32	39.56	-39.8	-41.0	21.8	0.00e+00	0	42	0	1647312896	50	4019
2026-01-04 14:04:13.67	144.22	39.77	-39.8	-41.0	21.8	0.00e+00	0	42	0	1653604352	50	4034
2026-01-04 14:04:14.93	144.08	40.10	-39.9	-40.9	22.0	0.00e+00	0	42	0	1663041536	50	3973
2026-01-04 14:04:15.68	143.99	40.29	-40.6	-41.4	22.1	0.00e+00	0	42	0	1668284416	50	4222
2026-01-04 14:04:17.14	143.81	40.67	-40.3	-41.2	22.3	0.00e+00	0	42	0	1678770176	50	4109
2026-01-04 14:04:17.86	143.72	40.85	-40.3	-41.1	22.3	0.00e+00	0	42	0	1684013056	50	4073
2026-01-04 14:04:19.22	143.55	41.21	-40.4	-41.2	22.2	0.00e+00	0	41	0	1693450240	50	4136
2026-01-04 14:04:19.94	143.46	41.40	-40.5	-41.3	22.1	0.00e+00	0	42	0	1698693120	50	4180
2026-01-04 14:04:21.29	143.28	41.76	-40.6	-41.5	22.0	0.00e+00	0	42	0	1709178880	50	4255
2026-01-04 14:04:22.00	143.19	41.95	-40.8	-41.6	22.0	0.00e+00	0	42	0	1714421760	50	4320
2026-01-04 14:04:23.29	143.02	42.30	-40.6	-41.5	22.0	0.00e+00	0	42	0	1722810368	51	4008
2026-01-04 14:04:24.01	142.92	42.49	-40.7	-41.5	22.0	0.00e+00	0	42	0	1728053248	51	4051
2026-01-04 14:04:25.29	142.74	42.84	-40.8	-41.6	21.9	0.00e+00	0	42	0	1737490432	51	4081
2026-01-04 14:04:26.00	142.64	43.03	-40.7	-41.6	22.0	0.00e+00	0	42	0	1742733312	51	4068
2026-01-04 14:04:27.29	142.46	43.39	-40.5	-41.3	22.2	0.00e+00	0	42	0	1752170496	51	3939
2026-01-04 14:04:28.00	142.35	43.59	-40.4	-41.2	22.3	0.00e+00	0	42	0	1757413376	51	3890
2026-01-04 14:04:29.29	142.16	43.95	-40.4	-41.3	22.2	0.00e+00	0	42	0	1766850560	51	3932
2026-01-04 14:04:30.01	142.05	44.15	-40.3	-41.1	22.3	0.00e+00	0	42	0	1772093440	51	3867
2026-01-04 14:04:31.29	141.85	44.52	-40.4	-41.2	22.3	0.00e+00	0	42	0	1781530624	51	3886
2026-01-04 14:04:32.01	141.74	44.72	-40.3	-41.1	22.3	0.00e+00	0	42	0	1785724928	51	3846
2026-01-04 14:04:33.29	141.54	45.09	-40.6	-41.4	22.1	0.00e+00	0	42	0	1795162112	51	3983
2026-01-04 14:04:34.20	141.39	45.35	-40.9	-41.7	21.8	0.00e+00	0	42	0	1801453568	51	4135
2026-01-04 14:04:35.22	141.22	45.65	-41.1	-42.0	21.6	0.00e+00	0	42	0	1808793600	51	4250
2026-01-04 14:04:36.22	141.05	45.94	-41.2	-42.1	21.4	0.00e+00	0	42	0	1816133632	52	4087
2026-01-04 14:04:37.22	140.88	46.24	-41.2	-42.0	21.5	0.00e+00	0	42	0	1823473664	52	4042
2026-01-04 14:04:38.22	140.70	46.53	-41.2	-42.1	21.4	0.00e+00	0	42	0	1830813696	52	4069
2026-01-04 14:04:39.22	140.52	46.83	-41.3	-42.2	21.4	0.00e+00	0	42	0	1838153728	52	4129
2026-01-04 14:04:40.23	140.34	47.14	-41.2	-42.0	21.5	0.00e+00	0	42	0	1845493760	52	4051
2026-01-04 14:04:41.27	140.14	47.45	-41.0	-41.9	21.6	0.00e+00	0	42	0	1852833792	52	3984
2026-01-04 14:04:42.18	139.97	47.73	-40.6	-41.4	22.0	0.00e+00	0	42	0	1859125248	52	3771
2026-01-04 14:04:43.19	139.77	48.04	-41.0	-41.9	21.7	0.00e+00	0	42	0	1866465280	52	3980
2026-01-04 14:04:44.19	139.58	48.34	-41.1	-42.0	21.5	0.00e+00	0	41	0	1873805312	52	4038
2026-01-04 14:04:45.19	139.37	48.65	-41.2	-42.0	21.5	0.00e+00	0	42	0	1881145344	52	4048
2026-01-04 14:04:46.19	139.17	48.96	-41.2	-42.1	21.5	0.00e+00	0	42	0	1888485376	52	4081
2026-01-04 14:04:47.20	138.96	49.28	-41.6	-42.5	21.0	0.00e+00	0	42	0	1895825408	52	4281
2026-01-04 14:04:48.20	138.74	49.59	-41.5	-42.4	21.2	0.00e+00	0	41	0	1903165440	52	4229
2026-01-04 14:04:49.20	138.52	49.91	-41.4	-42.3	21.3	0.00e+00	0	42	0	1910505472	52	4176
2026-01-04 14:04:50.20	138.30	50.23	-41.6	-42.5	21.1	0.00e+00	0	42	0	1917845504	52	4275
2026-01-04 14:04:51.20	138.07	50.55	-41.7	-42.6	21.0	0.00e+00	0	42	0	1925185536	52	4325
2026-01-04 14:04:52.20	137.84	50.87	-41.9	-42.8	20.8	0.00e+00	0	42	0	1931476992	53	4174
2026-01-04 14:04:53.20	137.60	51.19	-41.8	-42.7	20.9	0.00e+00	0	42	0	1938817024	54	3906
2026-01-04 14:04:54.28	137.33	51.54	-41.8	-42.7	21.0	0.00e+00	0	42	0	1947205632	54	3874
2026-01-04 14:04:55.14	137.12	51.83	-41.5	-42.4	21.2	0.00e+00	0	42	0	1953497088	53	3981
2026-01-04 14:04:56.49	136.77	52.27	-41.5	-42.4	21.2	0.00e+00	0	42	0	1962934272	53	3988
2026-01-04 14:04:57.21	136.58	52.51	-41.5	-42.4	21.2	0.00e+00	0	42	0	1968177152	53	3975
2026-01-04 14:04:58.73	136.18	53.01	-41.5	-42.4	21.1	0.00e+00	0	42	0	1979711488	53	4004
2026-01-04 14:04:59.45	135.98	53.25	-41.7	-42.7	21.0	0.00e+00	0	42	0	1983905792	53	4106
2026-01-04 14:05:00.83	135.59	53.71	-41.9	-42.8	20.8	0.00e+00	0	42	0	1994391552	53	4192
2026-01-04 14:05:01.55	135.38	53.96	-42.0	-42.9	20.8	0.00e+00	0	42	0	1999634432	53	4221
2026-01-04 14:05:02.83	135.00	54.39	-41.6	-42.5	21.1	0.00e+00	0	42	0	2009071616	53	4024
2026-01-04 14:05:03.55	134.78	54.63	-42.0	-42.9	20.7	0.00e+00	0	42	0	2014314496	54	3980
2026-01-04 14:05:04.83	134.38	55.07	-42.0	-42.9	20.8	0.00e+00	0	42	0	2022703104	54	3969
2026-01-04 14:05:05.55	134.15	55.32	-41.8	-42.6	21.0	0.00e+00	0	42	0	2027945984	54	3864
2026-01-04 14:05:06.84	133.73	55.76	-41.6	-42.4	21.2	0.00e+00	0	42	0	2037383168	53	3997
2026-01-04 14:05:07.56	133.49	56.01	-42.0	-42.9	20.8	0.00e+00	0	42	0	2042626048	53	4204
2026-01-04 14:05:08.85	133.05	56.45	-41.7	-42.6	21.1	0.00e+00	0	42	0	2052063232	53	4059
2026-01-04 14:05:09.56	132.80	56.70	-41.6	-42.5	21.1	0.00e+00	0	42	0	2057306112	53	4022
2026-01-04 14:05:10.85	132.33	57.15	-41.8	-42.8	20.9	0.00e+00	0	42	0	2066743296	53	4147
2026-01-04 14:05:11.56	132.07	57.40	-42.0	-42.9	20.8	0.00e+00	0	42	0	2071986176	53	4211
2026-01-04 14:05:12.85	131.58	57.85	-41.9	-42.8	20.9	0.00e+00	0	42	0	2081423360	54	3926
2026-01-04 14:05:13.57	131.30	58.10	-42.5	-43.5	20.2	0.00e+00	0	42	0	2085617664	54	4254
2026-01-04 14:05:14.86	130.78	58.56	-42.2	-43.2	20.5	0.00e+00	0	42	0	2095054848	54	4107
2026-01-04 14:05:15.58	130.48	58.81	-42.1	-43.0	20.7	0.00e+00	0	42	0	2100297728	54	4044
2026-01-04 14:05:16.87	129.94	59.26	-42.0	-43.0	20.7	0.00e+00	0	42	0	2109734912	54	4012
2026-01-04 14:05:17.58	129.63	59.52	-42.0	-43.0	20.7	0.00e+00	0	42	0	2114977792	54	4021
2026-01-04 14:05:18.87	129.05	59.97	-42.0	-42.9	20.8	0.00e+00	0	42	0	2124414976	53	4227
2026-01-04 14:05:19.58	128.73	60.22	-41.6	-42.5	21.1	0.00e+00	0	42	0	2129657856	53	4032
2026-01-04 14:05:20.87	128.12	60.68	-41.4	-42.3	21.3	0.00e+00	0	42	0	2139095040	53	3926
2026-01-04 14:05:21.58	127.77	60.93	-41.5	-42.4	21.2	0.00e+00	0	42	0	2144337920	53	3982
2026-01-04 14:05:23.12	127.00	61.48	-41.4	-42.3	21.4	0.00e+00	0	42	0	2154823680	53	3919
2026-01-04 14:05:23.83	126.63	61.73	-41.8	-42.7	21.0	0.00e+00	0	42	0	2160066560	53	4113
2026-01-04 14:05:25.12	125.95	62.19	-41.2	-42.1	21.5	0.00e+00	0	42	0	2169503744	52	4069
2026-01-04 14:05:26.19	125.36	62.57	-40.8	-41.6	21.9	0.00e+00	0	42	0	2176843776	52	3866
2026-01-04 14:05:27.36	124.69	62.98	-40.9	-41.8	21.7	0.00e+00	0	42	0	2185232384	52	3931
2026-01-04 14:05:28.22	124.18	63.29	-41.1	-42.0	21.6	0.00e+00	0	42	0	2191523840	52	4023
2026-01-04 14:05:29.37	123.49	63.69	-41.4	-42.3	21.2	0.00e+00	0	42	0	2199912448	52	4146
2026-01-04 14:05:30.23	122.95	63.99	-41.5	-42.4	21.3	0.00e+00	0	42	0	2206203904	52	4203
2026-01-04 14:05:31.37	122.21	64.39	-41.3	-42.3	21.4	0.00e+00	0	42	0	2214592512	52	4147
2026-01-04 14:05:32.23	121.64	64.69	-40.8	-41.7	21.8	0.00e+00	0	42	0	2220883968	52	3890
2026-01-04 14:05:33.40	120.84	65.10	-40.6	-41.4	22.1	0.00e+00	0	42	0	2229272576	51	3988
2026-01-04 14:05:34.26	120.24	65.40	-40.2	-41.0	22.5	0.00e+00	0	42	0	2235564032	51	3804
2026-01-04 14:05:35.40	119.40	65.79	-40.3	-41.1	22.4	0.00e+00	0	42	0	2243952640	51	3865
2026-01-04 14:05:36.26	118.76	66.08	-40.2	-41.0	22.5	0.00e+00	0	42	0	2250244096	51	3814
2026-01-04 14:05:37.53	117.77	66.51	-40.0	-40.9	22.6	0.00e+00	0	42	0	2259681280	50	3972
2026-01-04 14:05:38.25	117.19	66.75	-40.0	-40.8	22.6	0.00e+00	0	42	0	2263875584	50	3947
2026-01-04 14:05:39.73	115.96	67.24	-40.3	-41.1	22.4	0.00e+00	0	42	0	2274361344	50	4098
2026-01-04 14:05:40.44	115.35	67.48	-40.4	-41.2	22.3	0.00e+00	0	42	0	2280652800	50	4140
2026-01-04 14:05:41.73	114.21	67.90	-40.4	-41.2	22.3	0.00e+00	0	42	0	2290089984	50	4131
2026-01-04 14:05:42.45	113.54	68.13	-40.4	-41.3	22.3	0.00e+00	0	42	0	2294284288	50	4151
2026-01-04 14:05:43.74	112.32	68.54	-40.6	-41.4	22.0	0.00e+00	0	42	0	2303721472	50	4219
2026-01-04 14:05:44.45	111.63	68.76	-40.5	-41.3	22.2	0.00e+00	0	42	0	2308964352	50	4187
2026-01-04 14:05:45.74	110.33	69.15	-40.6	-41.5	22.1	0.00e+00	0	42	0	2318401536	51	4006
2026-01-04 14:05:46.45	109.59	69.37	-40.8	-41.6	21.9	0.00e+00	0	42	0	2323644416	51	4077
2026-01-04 14:05:47.73	108.21	69.75	-40.9	-41.7	21.8	0.00e+00	0	42	0	2333081600	51	4127
2026-01-04 14:05:48.45	107.42	69.96	-40.7	-41.5	22.1	0.00e+00	0	42	0	2338324480	51	4030
2026-01-04 14:05:49.74	105.94	70.33	-40.6	-41.5	22.1	0.00e+00	0	42	0	2347761664	51	4024
2026-01-04 14:05:50.45	105.11	70.52	-40.3	-41.2	22.3	0.00e+00	0	42	0	2351955968	51	3879
2026-01-04 14:05:51.74	103.54	70.87	-40.6	-41.4	22.1	0.00e+00	0	42	0	2361393152	51	3987
2026-01-04 14:05:52.45	102.65	71.06	-40.7	-41.6	21.9	0.00e+00	0	42	0	2366636032	51	4077
2026-01-04 14:05:53.74	100.99	71.39	-40.7	-41.6	21.9	0.00e+00	0	42	0	2376073216	51	4067
2026-01-04 14:05:54.46	100.04	71.56	-40.8	-41.6	21.9	0.00e+00	0	42	0	2381316096	51	4097
2026-01-04 14:05:55.83	98.17	71.89	-40.5	-41.4	22.2	0.00e+00	0	42	0	2390753280	51	3970
2026-01-04 14:05:56.54	97.17	72.05	-40.6	-41.4	22.1	0.00e+00	0	42	0	2395996160	51	3994
2026-01-04 14:05:57.83	95.31	72.33	-40.6	-41.5	22.1	0.00e+00	0	42	0	2405433344	51	4023
2026-01-04 14:05:58.55	94.25	72.48	-40.7	-41.6	22.0	0.00e+00	0	42	0	2410676224	51	4068
2026-01-04 14:05:59.83	92.31	72.72	-40.9	-41.8	21.8	0.00e+00	0	42	0	2420113408	51	4158
2026-01-04 14:06:00.54	91.22	72.86	-40.5	-41.4	22.2	0.00e+00	0	42	0	2425356288	51	3959
2026-01-04 14:06:01.82	89.19	73.07	-40.2	-41.0	22.5	0.00e+00	0	42	0	2434793472	51	3810
2026-01-04 14:06:02.57	87.98	73.19	-40.1	-40.9	22.5	0.00e+00	0	42	0	2440036352	50	3999
2026-01-04 14:06:03.86	85.85	73.38	-40.0	-40.8	22.6	0.00e+00	0	42	0	2449473536	50	3936
2026-01-04 14:06:04.58	84.65	73.48	-40.0	-40.8	22.6	0.00e+00	0	42	0	2453667840	50	3948
2026-01-04 14:06:05.86	82.47	73.63	-40.1	-40.9	22.6	0.00e+00	0	42	0	2463105024	50	4000
2026-01-04 14:06:06.58	81.22	73.71	-40.2	-41.0	22.5	0.00e+00	0	42	0	2469396480	50	4043
2026-01-04 14:06:07.87	78.96	73.82	-40.3	-41.2	22.4	0.00e+00	0	42	0	2477785088	50	4109
2026-01-04 14:06:08.58	77.71	73.88	-40.2	-41.0	22.5	0.00e+00	0	42	0	2483027968	50	4046
2026-01-04 14:06:09.87	75.41	73.96	-40.4	-41.2	22.4	0.00e+00	0	42	0	2492465152	50	4133
2026-01-04 14:06:10.59	74.11	73.99	-40.5	-41.4	22.1	0.00e+00	0	42	0	2497708032	50	4201
2026-01-04 14:06:11.88	71.78	74.03	-40.8	-41.7	21.9	0.00e+00	0	42	0	2507145216	51	4117
2026-01-04 14:06:12.59	70.50	74.04	-40.7	-41.5	22.1	0.00e+00	0	42	0	2512388096	51	4026
2026-01-04 14:06:13.88	68.16	74.04	-40.3	-41.1	22.4	0.00e+00	0	42	0	2521825280	51	3850
2026-01-04 14:06:14.60	66.85	74.03	-40.2	-41.0	22.6	0.00e+00	0	42	0	2527068160	51	3790
2026-01-04 14:06:16.16	64.04	73.98	-40.2	-41.0	22.5	0.00e+00	0	42	0	2537553920	51	3798
2026-01-04 14:06:16.77	62.94	73.95	-40.3	-41.2	22.4	0.00e+00	0	42	0	2541748224	51	3874
2026-01-04 14:06:18.35	60.13	73.84	-40.4	-41.2	22.3	0.00e+00	0	42	0	2553282560	51	3899
2026-01-04 14:06:19.11	58.79	73.78	-40.4	-41.2	22.3	0.00e+00	0	42	0	2559574016	51	3893
2026-01-04 14:06:20.39	56.57	73.66	-40.2	-41.0	22.5	0.00e+00	0	42	0	2569011200	51	3812
2026-01-04 14:06:21.11	55.33	73.58	-40.3	-41.2	22.4	0.00e+00	0	42	0	2573205504	51	3880
2026-01-04 14:06:22.40	53.15	73.41	-40.4	-41.2	22.3	0.00e+00	0	42	0	2582642688	51	3910
2026-01-04 14:06:23.11	51.97	73.32	-40.2	-41.0	22.5	0.00e+00	0	42	0	2587885568	51	3822
2026-01-04 14:06:24.40	49.87	73.12	-40.1	-40.9	22.5	0.00e+00	0	42	0	2597322752	51	3767
2026-01-04 14:06:25.11	48.73	73.00	-40.3	-41.1	22.3	0.00e+00	0	42	0	2602565632	51	3860
2026-01-04 14:06:26.56	46.46	72.75	-40.6	-41.4	22.1	0.00e+00	0	42	0	2613051392	51	3987
2026-01-04 14:06:27.27	45.38	72.61	-40.7	-41.6	22.0	0.00e+00	0	42	0	2618294272	51	4067
2026-01-04 14:06:28.56	43.46	72.35	-40.7	-41.6	21.9	0.00e+00	0	42	0	2627731456	51	4060
2026-01-04 14:06:29.27	42.42	72.20	-40.6	-41.4	22.1	0.00e+00	0	42	0	2632974336	51	4000
2026-01-04 14:06:30.56	40.60	71.91	-40.9	-41.7	21.9	0.00e+00	0	42	0	2641362944	51	4127
2026-01-04 14:06:31.27	39.62	71.75	-41.0	-41.8	21.8	0.00e+00	0	42	0	2646605824	51	4178
2026-01-04 14:06:32.56	37.89	71.44	-40.9	-41.8	21.8	0.00e+00	0	42	0	2656043008	51	4164
2026-01-04 14:06:33.27	36.96	71.26	-41.0	-41.8	21.8	0.00e+00	0	42	0	2661285888	51	4191
2026-01-04 14:06:34.56	35.32	70.93	-40.6	-41.4	22.2	0.00e+00	0	42	0	2670723072	51	3986
2026-01-04 14:06:35.28	34.44	70.74	-40.3	-41.1	22.2	0.00e+00	0	42	0	2675965952	51	3846
2026-01-04 14:06:36.57	32.90	70.38	-40.2	-41.0	22.5	0.00e+00	0	42	0	2685403136	51	3820
2026-01-04 14:06:37.28	32.08	70.18	-40.3	-41.2	22.4	0.00e+00	0	42	0	2690646016	51	3870
2026-01-04 14:06:38.57	30.63	69.81	-40.4	-41.3	21.9	0.00e+00	0	42	0	2700083200	51	3915
2026-01-04 14:06:39.28	29.85	69.60	-40.7	-41.5	22.0	0.00e+00	0	42	0	2705326080	51	4039
2026-01-04 14:06:40.57	28.49	69.22	-40.8	-41.7	21.8	0.00e+00	0	42	0	2713714688	51	4115
2026-01-04 14:06:41.29	27.75	69.00	-40.7	-41.6	22.0	0.00e+00	0	42	0	2718957568	51	4079
2026-01-04 14:06:42.57	26.49	68.60	-40.3	-41.2	22.4	0.00e+00	0	42	0	2728394752	51	3874
2026-01-04 14:06:43.29	25.79	68.38	-40.4	-41.2	22.3	0.00e+00	0	42	0	2733637632	51	3905
2026-01-04 14:06:44.67	24.51	67.94	-40.7	-41.6	22.0	0.00e+00	0	42	0	2744123392	51	4068
2026-01-04 14:06:45.67	23.62	67.61	-40.6	-41.4	22.2	0.00e+00	0	42	0	2750414848	51	3974
2026-01-04 14:06:46.68	22.74	67.28	-40.5	-41.3	22.2	0.00e+00	0	42	0	2757754880	51	3956
2026-01-04 14:06:47.68	21.90	66.95	-40.2	-41.1	22.5	0.00e+00	0	42	0	2765094912	51	3832
2026-01-04 14:06:48.68	21.09	66.62	-40.2	-41.0	22.5	0.00e+00	0	42	0	2772434944	51	3818
2026-01-04 14:06:49.68	20.30	66.28	-40.3	-41.1	22.5	0.00e+00	0	42	0	2779774976	51	3865
2026-01-04 14:06:50.68	19.54	65.94	-40.4	-41.2	22.4	0.00e+00	0	42	0	2787115008	51	3884
2026-01-04 14:06:51.68	18.80	65.60	-40.5	-41.3	22.3	0.00e+00	0	42	0	2794455040	51	3950
2026-01-04 14:06:52.68	18.09	65.26	-40.6	-41.4	22.2	0.00e+00	0	42	0	2801795072	51	3981
2026-01-04 14:06:53.68	17.39	64.91	-40.6	-41.4	22.2	0.00e+00	0	42	0	2809135104	51	3978
2026-01-04 14:06:54.68	16.72	64.57	-40.4	-41.2	22.2	0.00e+00	0	42	0	2816475136	51	3908
2026-01-04 14:06:55.68	16.06	64.22	-40.4	-41.2	22.2	0.00e+00	0	42	0	2823815168	51	3908
2026-01-04 14:06:56.68	15.43	63.87	-40.8	-41.6	22.0	0.00e+00	0	42	0	2830106624	51	4085
2026-01-04 14:06:57.69	14.81	63.51	-41.0	-41.9	21.7	0.00e+00	0	42	0	2837446656	51	4220
2026-01-04 14:06:58.69	14.21	63.16	-41.2	-42.0	21.6	0.00e+00	0	42	0	2844786688	52	4042
2026-01-04 14:06:59.69	13.63	62.81	-41.1	-42.0	21.6	0.00e+00	0	42	0	2852126720	52	4011
2026-01-04 14:07:00.69	13.07	62.46	-41.1	-41.9	21.7	0.00e+00	0	42	0	2859466752	52	4000
2026-01-04 14:07:01.69	12.53	62.10	-41.3	-42.1	21.5	0.00e+00	0	42	0	2866806784	52	4094
2026-01-04 14:07:02.69	12.00	61.75	-41.6	-42.5	21.2	0.00e+00	0	42	0	2874146816	52	4251
2026-01-04 14:07:03.69	11.48	61.39	-41.8	-42.7	21.0	0.00e+00	0	42	0	2881486848	53	4103
2026-01-04 14:07:04.77	10.94	61.01	-41.6	-42.5	21.2	0.00e+00	0	42	0	2888826880	53	4021
2026-01-04 14:07:05.63	10.52	60.71	-41.5	-42.4	21.3	0.00e+00	0	42	0	2895118336	53	3980
2026-01-04 14:07:06.99	9.88	60.23	-41.9	-42.8	20.8	0.00e+00	0	42	0	2904555520	53	4171
2026-01-04 14:07:07.70	9.56	59.98	-42.2	-43.1	20.7	0.00e+00	0	42	0	2909798400	53	4295
2026-01-04 14:07:08.99	8.98	59.52	-42.1	-43.1	20.7	0.00e+00	0	42	0	2919235584	54	4056
2026-01-04 14:07:09.71	8.67	59.27	-42.1	-43.0	20.8	0.00e+00	0	42	0	2924478464	54	4018
2026-01-04 14:07:11.26	8.02	58.72	-41.9	-42.8	20.9	0.00e+00	0	42	0	2936012800	54	3946
2026-01-04 14:07:11.97	7.73	58.47	-41.9	-42.8	20.9	0.00e+00	0	42	0	2940207104	54	3923
2026-01-04 14:07:13.26	7.22	58.02	-42.0	-43.0	20.7	0.00e+00	0	42	0	2949644288	54	4013
2026-01-04 14:07:13.97	6.94	57.77	-42.0	-42.9	20.9	0.00e+00	0	42	0	2954887168	54	3964
2026-01-04 14:07:15.26	6.46	57.32	-41.9	-42.8	20.9	0.00e+00	0	42	0	2964324352	54	3925
2026-01-04 14:07:15.98	6.19	57.07	-41.7	-42.6	21.1	0.00e+00	0	42	0	2969567232	54	3854
2026-01-04 14:07:17.26	5.74	56.63	-41.6	-42.4	21.2	0.00e+00	0	42	0	2979004416	53	3992
2026-01-04 14:07:17.98	5.49	56.38	-41.5	-42.4	21.2	0.00e+00	0	42	0	2984247296	53	3988
2026-01-04 14:07:19.26	5.05	55.94	-41.8	-42.6	21.0	0.00e+00	0	42	0	2993684480	53	4093
2026-01-04 14:07:19.98	4.81	55.69	-41.7	-42.6	21.1	0.00e+00	0	42	0	2998927360	53	4068
2026-01-04 14:07:21.26	4.40	55.25	-41.3	-42.2	21.4	0.00e+00	0	42	0	3008364544	53	3907
2026-01-04 14:07:21.98	4.17	55.01	-41.2	-42.1	21.5	0.00e+00	0	42	0	3013607424	53	3853
2026-01-04 14:07:23.27	3.77	54.57	-41.2	-42.0	21.6	0.00e+00	0	42	0	3021996032	52	4044
2026-01-04 14:07:23.99	3.56	54.32	-41.2	-42.1	21.3	0.00e+00	0	42	0	3027238912	52	4073
2026-01-04 14:07:25.27	3.18	53.89	-41.6	-42.5	21.3	0.00e+00	0	42	0	3036676096	52	4254
2026-01-04 14:07:25.99	2.97	53.65	-41.7	-42.6	21.1	0.00e+00	0	42	0	3041918976	52	4292
2026-01-04 14:07:27.27	2.61	53.22	-41.8	-42.7	21.0	0.00e+00	0	42	0	3051356160	53	4124
2026-01-04 14:07:27.99	2.42	52.99	-41.8	-42.7	21.0	0.00e+00	0	42	0	3056599040	53	4107
2026-01-04 14:07:29.27	2.07	52.56	-41.8	-42.7	20.4	0.00e+00	0	42	0	3066036224	53	4104
2026-01-04 14:07:29.99	1.89	52.33	-41.7	-42.6	21.1	0.00e+00	0	42	0	3071279104	53	4072
2026-01-04 14:07:31.28	1.56	51.90	-42.0	-43.0	20.6	0.00e+00	0	42	0	3079667712	53	4244
2026-01-04 14:07:31.99	1.38	51.67	-42.0	-43.0	20.7	0.00e+00	0	42	0	3085959168	53	4255
2026-01-04 14:07:33.27	1.07	51.26	-42.1	-43.0	20.7	0.00e+00	0	42	0	3094347776	53	4276
2026-01-04 14:07:33.99	0.89	51.02	-42.1	-43.0	20.6	0.00e+00	0	42	0	3099590656	53	4280
2026-01-04 14:07:35.28	0.59	50.61	-42.0	-42.9	20.8	0.00e+00	0	42	0	3109027840	53	4224
2026-01-04 14:07:36.00	0.43	50.38	-41.9	-42.8	20.9	0.00e+00	0	42	0	3114270720	53	4146
2026-01-04 14:07:37.29	0.14	49.97	-41.6	-42.5	21.1	0.00e+00	0	42	0	3123707904	53	4032
2026-01-04 14:07:38.00	359.98	49.75	-41.8	-42.7	20.9	0.00e+00	0	42	0	3128950784	53	4127
2026-01-04 14:07:39.29	359.70	49.34	-41.7	-42.6	20.9	0.00e+00	0	42	0	3138387968	53	4090
2026-01-04 14:07:40.01	359.55	49.12	-41.6	-42.5	21.2	0.00e+00	0	42	0	3143630848	53	4008
2026-01-04 14:07:41.30	359.29	48.72	-41.4	-42.3	21.3	0.00e+00	0	42	0	3153068032	53	3923
2026-01-04 14:07:42.01	359.14	48.50	-41.2	-42.1	21.5	0.00e+00	0	42	0	3157262336	53	3844
2026-01-04 14:07:43.30	358.89	48.10	-41.1	-42.0	21.7	0.00e+00	0	42	0	3166699520	52	4006
2026-01-04 14:07:44.02	358.75	47.88	-41.2	-42.1	21.5	0.00e+00	0	42	0	3171942400	52	4079
2026-01-04 14:07:45.31	358.50	47.49	-41.2	-42.1	21.5	0.00e+00	0	42	0	3181379584	52	4073
2026-01-04 14:07:46.02	358.37	47.28	-41.3	-42.2	21.4	0.00e+00	0	42	0	3186622464	52	4107
2026-01-04 14:07:47.31	358.13	46.89	-41.3	-42.2	21.4	0.00e+00	0	42	0	3196059648	52	4114
2026-01-04 14:07:48.17	357.98	46.64	-41.2	-42.1	21.5	0.00e+00	0	42	0	3202351104	52	4075
2026-01-04 14:07:49.63	357.72	46.21	-41.1	-41.9	21.6	0.00e+00	0	42	0	3212836864	52	3990
2026-01-04 14:07:50.35	357.60	45.99	-41.1	-41.9	21.6	0.00e+00	0	42	0	3218079744	52	4003
2026-01-04 14:07:51.63	357.38	45.62	-40.8	-41.7	21.8	0.00e+00	0	42	0	3227516928	52	3880
2026-01-04 14:07:52.35	357.26	45.41	-40.8	-41.6	21.8	0.00e+00	0	42	0	3232759808	52	3867
2026-01-04 14:07:53.64	357.06	45.04	-40.7	-41.5	22.1	0.00e+00	0	42	0	3242196992	51	4027
2026-01-04 14:07:54.38	356.94	44.83	-40.7	-41.5	22.1	0.00e+00	0	42	0	3247439872	51	4033
2026-01-04 14:07:55.67	356.74	44.46	-40.6	-41.4	22.2	0.00e+00	0	42	0	3255828480	51	3982
2026-01-04 14:07:56.39	356.63	44.26	-40.5	-41.4	22.2	0.00e+00	0	42	0	3261071360	51	3973
2026-01-04 14:07:57.68	356.43	43.90	-40.4	-41.2	22.3	0.00e+00	0	42	0	3270508544	51	3909
2026-01-04 14:07:58.47	356.32	43.68	-40.5	-41.3	22.3	0.00e+00	0	42	0	3276800000	51	3933
2026-01-04 14:07:59.64	356.15	43.35	-40.4	-41.2	22.4	0.00e+00	0	42	0	3285188608	51	3880
2026-01-04 14:08:00.72	355.99	43.06	-40.4	-41.2	22.2	0.00e+00	0	42	0	3292528640	51	3889
2026-01-04 14:08:01.75	355.85	42.77	-40.3	-41.2	22.3	0.00e+00	0	42	0	3299868672	51	3869
2026-01-04 14:08:02.94	355.68	42.45	-40.3	-41.2	22.4	0.00e+00	0	42	0	3309305856	51	3872
2026-01-04 14:08:03.80	355.57	42.22	-40.3	-41.2	22.3	0.00e+00	0	42	0	3314548736	51	3870
2026-01-04 14:08:04.95	355.42	41.91	-40.5	-41.3	22.2	0.00e+00	0	42	0	3322937344	51	3944
2026-01-04 14:08:05.80	355.31	41.69	-40.5	-41.4	22.2	0.00e+00	0	42	0	3329228800	51	3963
2026-01-04 14:08:06.95	355.16	41.38	-40.5	-41.4	22.2	0.00e+00	0	42	0	3337617408	51	3970
2026-01-04 14:08:07.81	355.05	41.16	-40.6	-41.5	22.1	0.00e+00	0	42	0	3343908864	51	4019
2026-01-04 14:08:08.95	354.91	40.86	-40.6	-41.4	22.1	0.00e+00	0	42	0	3352297472	51	3974
2026-01-04 14:08:09.81	354.80	40.64	-40.6	-41.5	22.1	0.00e+00	0	42	0	3358588928	51	4011
2026-01-04 14:08:10.96	354.67	40.34	-40.8	-41.7	21.9	0.00e+00	0	42	0	3366977536	51	4103
2026-01-04 14:08:11.81	354.57	40.13	-40.8	-41.6	21.9	0.00e+00	0	42	0	3372220416	51	4094
2026-01-04 14:08:12.96	354.43	39.83	-40.9	-41.7	21.9	0.00e+00	0	42	0	3380609024	51	4130
2026-01-04 14:08:13.82	354.33	39.62	-40.9	-41.7	21.9	0.00e+00	0	42	0	3386900480	51	4134
2026-01-04 14:08:14.96	354.21	39.33	-40.8	-41.7	21.9	0.00e+00	0	42	0	3395289088	51	4107
2026-01-04 14:08:15.82	354.11	39.12	-40.7	-41.5	22.0	0.00e+00	0	42	0	3401580544	51	4028
2026-01-04 14:08:16.97	353.99	38.83	-40.7	-41.5	22.1	0.00e+00	0	42	0	3409969152	51	4042
2026-01-04 14:08:17.83	353.89	38.62	-40.6	-41.5	22.1	0.00e+00	0	42	0	3416260608	51	4010
2026-01-04 14:08:18.98	353.77	38.34	-40.6	-41.4	22.1	0.00e+00	0	42	0	3424649216	51	3995
2026-01-04 14:08:19.84	353.68	38.14	-40.5	-41.4	22.1	0.00e+00	0	42	0	3430940672	51	3991
2026-01-04 14:08:20.98	353.57	37.86	-40.6	-41.4	22.1	0.00e+00	0	42	0	3438280704	51	3999
2026-01-04 14:08:21.84	353.48	37.66	-40.6	-41.5	22.1	0.00e+00	0	42	0	3445620736	51	4016
2026-01-04 14:08:22.98	353.37	37.39	-40.5	-41.4	22.1	0.00e+00	0	42	0	3454009344	51	3980
2026-01-04 14:08:23.84	353.28	37.18	-40.5	-41.4	22.2	0.00e+00	0	42	0	3459252224	51	3959
2026-01-04 14:08:24.99	353.17	36.91	-40.3	-41.2	22.4	0.00e+00	0	42	0	3467640832	51	3877
2026-01-04 14:08:25.84	353.09	36.72	-40.3	-41.1	22.4	0.00e+00	0	42	0	3473932288	51	3865
2026-01-04 14:08:26.99	352.98	36.45	-40.3	-41.1	22.3	0.00e+00	0	42	0	3482320896	51	3841
2026-01-04 14:08:27.85	352.91	36.25	-40.1	-40.9	22.5	0.00e+00	0	42	0	3488612352	51	3778
2026-01-04 14:08:29.00	352.80	35.99	-40.1	-41.0	22.5	0.00e+00	0	42	0	3497000960	51	3787
2026-01-04 14:08:29.85	352.72	35.80	-40.2	-41.0	22.4	0.00e+00	0	42	0	3503292416	51	3804
2026-01-04 14:08:31.00	352.62	35.54	-40.3	-41.1	22.4	0.00e+00	0	42	0	3511681024	51	3849
2026-01-04 14:08:31.86	352.55	35.35	-40.3	-41.1	22.3	0.00e+00	0	42	0	3517972480	51	3853
2026-01-04 14:08:33.00	352.45	35.10	-40.4	-41.2	22.2	0.00e+00	0	42	0	3525312512	51	3905
2026-01-04 14:08:33.86	352.38	34.91	-40.4	-41.3	22.1	0.00e+00	0	42	0	3531603968	51	3918
2026-01-04 14:08:35.01	352.28	34.66	-40.2	-41.1	22.2	0.00e+00	0	42	0	3539992576	51	3842
2026-01-04 14:08:35.87	352.21	34.47	-40.2	-41.1	22.4	0.00e+00	0	42	0	3546284032	51	3847
2026-01-04 14:08:37.01	352.12	34.22	-40.3	-41.1	22.3	0.00e+00	0	42	0	3554672640	51	3862
2026-01-04 14:08:37.87	352.05	34.04	-40.1	-41.0	22.5	0.00e+00	0	42	0	3560964096	51	3798
2026-01-04 14:08:39.02	351.96	33.79	-40.1	-40.9	22.6	0.00e+00	0	42	0	3569352704	51	3776
2026-01-04 14:08:39.87	351.89	33.61	-40.0	-40.9	22.6	0.00e+00	0	42	0	3575644160	50	3972
2026-01-04 14:08:41.02	351.81	33.37	-39.9	-40.7	22.7	0.00e+00	0	42	0	3584032768	50	3908
2026-01-04 14:08:41.88	351.74	33.19	-39.8	-40.6	22.7	0.00e+00	0	42	0	3589275648	50	3837
2026-01-04 14:08:43.15	351.65	32.93	-39.8	-40.6	22.7	0.00e+00	0	42	0	3598712832	50	3866
2026-01-04 14:08:43.87	351.59	32.78	-39.9	-40.7	22.7	0.00e+00	0	42	0	3603955712	50	3886
2026-01-04 14:08:45.15	351.50	32.52	-40.0	-40.8	22.5	0.00e+00	0	42	0	3613392896	50	3946
2026-01-04 14:08:45.89	351.45	32.37	-40.0	-40.8	22.6	0.00e+00	0	42	0	3618635776	50	3939
2026-01-04 14:08:47.18	351.36	32.11	-40.2	-41.0	22.4	0.00e+00	0	42	0	3628072960	50	4026
2026-01-04 14:08:47.89	351.31	31.97	-40.2	-41.0	22.4	0.00e+00	0	42	0	3633315840	50	4031
2026-01-04 14:08:49.18	351.22	31.71	-40.2	-41.1	22.4	0.00e+00	0	42	0	3642753024	50	4053
2026-01-04 14:08:49.90	351.17	31.57	-40.3	-41.2	22.3	0.00e+00	0	42	0	3647995904	50	4113
2026-01-04 14:08:51.19	351.08	31.31	-40.3	-41.2	22.3	0.00e+00	0	42	0	3657433088	50	4099
2026-01-04 14:08:52.14	351.02	31.13	-40.5	-41.3	21.3	0.00e+00	0	42	0	3663724544	50	4174
2026-01-04 14:08:53.46	350.93	30.87	-40.4	-41.3	22.2	0.00e+00	0	42	0	3673161728	50	4155
2026-01-04 14:08:54.18	350.89	30.73	-40.3	-41.1	22.3	0.00e+00	0	42	0	3678404608	50	4092
2026-01-04 14:08:55.47	350.80	30.49	-40.3	-41.1	22.3	0.00e+00	0	42	0	3687841792	50	4076
2026-01-04 14:08:56.18	350.76	30.35	-40.3	-41.1	22.3	0.00e+00	0	42	0	3693084672	50	4097
2026-01-04 14:08:57.47	350.68	30.11	-40.1	-41.0	22.5	0.00e+00	0	42	0	3702521856	50	4009
2026-01-04 14:08:58.19	350.64	29.97	-40.3	-41.1	22.2	0.00e+00	0	42	0	3707764736	50	4075
2026-01-04 14:08:59.48	350.56	29.73	-40.2	-41.0	22.4	0.00e+00	0	42	0	3717201920	50	4043
2026-01-04 14:09:00.21	350.51	29.60	-40.2	-41.0	22.4	0.00e+00	0	42	0	3722444800	50	4051
2026-01-04 14:09:01.55	350.43	29.35	-40.3	-41.1	22.4	0.00e+00	0	42	0	3731881984	50	4083
2026-01-04 14:09:02.26	350.39	29.22	-40.3	-41.2	22.3	0.00e+00	0	42	0	3737124864	50	4099
2026-01-04 14:09:03.55	350.32	28.98	-40.3	-41.1	22.3	0.00e+00	0	42	0	3746562048	50	4077
2026-01-04 14:09:04.27	350.28	28.85	-40.3	-41.2	22.2	0.00e+00	0	42	0	3751804928	50	4099
2026-01-04 14:09:05.56	350.21	28.62	-40.5	-41.3	22.2	0.00e+00	0	42	0	3761242112	50	4192
2026-01-04 14:09:06.27	350.17	28.50	-40.6	-41.5	22.0	0.00e+00	0	42	0	3765436416	50	4252
2026-01-04 14:09:07.73	350.09	28.24	-40.6	-41.5	22.0	0.00e+00	0	42	0	3776970752	50	4263
2026-01-04 14:09:08.45	350.05	28.11	-40.7	-41.5	21.9	0.00e+00	0	42	0	3781165056	50	4277
2026-01-04 14:09:09.79	349.98	27.88	-40.7	-41.6	22.0	0.00e+00	0	42	0	3791650816	50	4301
2026-01-04 14:09:10.50	349.94	27.75	-40.8	-41.7	21.8	0.00e+00	0	42	0	3796893696	51	4127
2026-01-04 14:09:11.79	349.87	27.53	-40.8	-41.6	21.9	0.00e+00	0	42	0	3806330880	51	4086
2026-01-04 14:09:12.51	349.83	27.41	-40.8	-41.7	21.9	0.00e+00	0	42	0	3810525184	51	4112
2026-01-04 14:09:13.80	349.77	27.19	-40.7	-41.6	21.9	0.00e+00	0	42	0	3819962368	51	4061
2026-01-04 14:09:14.52	349.73	27.07	-40.7	-41.6	21.9	0.00e+00	0	42	0	3825205248	51	4060
2026-01-04 14:09:15.81	349.67	26.85	-40.7	-41.6	21.9	0.00e+00	0	42	0	3834642432	51	4061
2026-01-04 14:09:16.52	349.63	26.73	-40.7	-41.6	21.9	0.00e+00	0	42	0	3839885312	51	4056
2026-01-04 14:09:17.81	349.57	26.51	-40.6	-41.4	22.1	0.00e+00	0	42	0	3849322496	51	3985
2026-01-04 14:09:18.52	349.53	26.40	-40.6	-41.5	22.0	0.00e+00	0	42	0	3854565376	51	4015
2026-01-04 14:09:19.81	349.47	26.18	-40.4	-41.3	22.2	0.00e+00	0	42	0	3864002560	51	3932
2026-01-04 14:09:20.53	349.44	26.07	-40.5	-41.3	22.1	0.00e+00	0	42	0	3868196864	51	3944
2026-01-04 14:09:21.82	349.38	25.86	-40.5	-41.4	22.1	0.00e+00	0	42	0	3877634048	51	3977
2026-01-04 14:09:22.53	349.35	25.74	-40.5	-41.3	22.1	0.00e+00	0	42	0	3883925504	51	3943
2026-01-04 14:09:23.82	349.29	25.53	-40.4	-41.3	22.2	0.00e+00	0	42	0	3892314112	51	3920
2026-01-04 14:09:24.54	349.25	25.42	-40.5	-41.3	22.1	0.00e+00	0	42	0	3897556992	51	3946
2026-01-04 14:09:25.83	349.20	25.22	-40.6	-41.4	22.0	0.00e+00	0	42	0	3906994176	51	3995
2026-01-04 14:09:26.54	349.17	25.10	-40.6	-41.5	22.0	0.00e+00	0	42	0	3912237056	51	4026
2026-01-04 14:09:27.83	349.11	24.90	-40.7	-41.6	21.9	0.00e+00	0	42	0	3921674240	51	4067
2026-01-04 14:09:28.54	349.08	24.79	-40.8	-41.7	21.8	0.00e+00	0	42	0	3926917120	51	4110
2026-01-04 14:09:29.83	349.02	24.59	-40.8	-41.6	21.9	0.00e+00	0	42	0	3936354304	51	4078
2026-01-04 14:09:30.55	348.99	24.48	-40.8	-41.6	21.7	0.00e+00	0	42	0	3941597184	51	4093
2026-01-04 14:09:31.84	348.94	24.28	-40.8	-41.7	21.8	0.00e+00	0	42	0	3951034368	51	4105
2026-01-04 14:09:32.60	348.91	24.17	-40.8	-41.7	21.7	0.00e+00	0	42	0	3956277248	51	4122
2026-01-04 14:09:33.89	348.85	23.97	-40.8	-41.8	21.7	0.00e+00	0	42	0	3965714432	51	4157
2026-01-04 14:09:34.67	348.82	23.85	-41.0	-41.9	21.6	0.00e+00	0	42	0	3970957312	51	4224
2026-01-04 14:09:35.96	348.77	23.66	-41.0	-41.9	21.6	0.00e+00	0	42	0	3980394496	51	4216
2026-01-04 14:09:36.67	348.74	23.55	-41.0	-42.0	21.6	0.00e+00	0	42	0	3985637376	51	4248
2026-01-04 14:09:37.96	348.69	23.36	-41.1	-42.0	21.5	0.00e+00	0	42	0	3995074560	51	4287
2026-01-04 14:09:38.68	348.66	23.26	-41.1	-42.1	21.5	0.00e+00	0	42	0	4000317440	51	4298
2026-01-04 14:09:39.97	348.61	23.07	-41.2	-42.2	21.4	0.00e+00	0	42	0	4008706048	51	4349
2026-01-04 14:09:40.68	348.59	22.96	-41.1	-42.0	21.5	0.00e+00	0	42	0	4013948928	51	4275
2026-01-04 14:09:41.97	348.54	22.78	-41.1	-42.0	21.6	0.00e+00	0	42	0	4023386112	51	4254
2026-01-04 14:09:42.69	348.51	22.67	-41.2	-42.1	21.5	0.00e+00	0	42	0	4028628992	51	4301
2026-01-04 14:09:44.19	348.46	22.46	-41.0	-41.9	21.5	0.00e+00	0	42	0	4040163328	51	4230
2026-01-04 14:09:44.90	348.43	22.36	-40.9	-41.8	21.7	0.00e+00	0	42	0	4044357632	51	4169
2026-01-04 14:09:46.29	348.38	22.16	-41.0	-41.9	21.6	0.00e+00	0	42	0	4054843392	51	4236
2026-01-04 14:09:47.00	348.36	22.06	-41.0	-41.9	21.6	0.00e+00	0	42	0	4060086272	51	4231
2026-01-04 14:09:48.29	348.31	21.88	-41.1	-42.0	21.6	0.00e+00	0	42	0	4069523456	51	4243
2026-01-04 14:09:49.01	348.28	21.78	-41.0	-41.9	21.7	0.00e+00	0	42	0	4074766336	51	4195
2026-01-04 14:09:50.29	348.24	21.60	-41.0	-41.8	21.7	0.00e+00	0	42	0	4084203520	51	4190
2026-01-04 14:09:51.01	348.22	21.51	-41.0	-41.9	21.6	0.00e+00	0	42	0	4088397824	51	4211
2026-01-04 14:09:52.30	348.17	21.33	-40.9	-41.8	21.7	0.00e+00	0	42	0	4097835008	51	4187
2026-01-04 14:09:53.01	348.15	21.23	-40.9	-41.8	21.7	0.00e+00	0	42	0	4103077888	51	4171
2026-01-04 14:09:54.30	348.10	21.06	-41.0	-41.9	21.6	0.00e+00	0	42	0	4112515072	51	4195
2026-01-04 14:09:55.11	348.08	20.95	-40.9	-41.8	21.6	0.00e+00	0	42	0	4118806528	51	4181
2026-01-04 14:09:56.26	348.04	20.79	-41.0	-41.9	21.6	0.00e+00	0	42	0	4127195136	51	4206
2026-01-04 14:09:57.12	348.01	20.68	-41.0	-41.8	21.6	0.00e+00	0	42	0	4132438016	51	4183
2026-01-04 14:09:58.68	347.96	20.47	-41.0	-41.9	21.6	0.00e+00	0	42	0	4143972352	51	4215
2026-01-04 14:09:59.39	347.94	20.38	-41.1	-42.0	21.5	0.00e+00	0	42	0	4149215232	51	4252
2026-01-04 14:10:00.68	347.90	20.21	-41.1	-42.0	21.5	0.00e+00	0	42	0	4158652416	51	4265
2026-01-04 14:10:01.39	347.88	20.12	-41.1	-42.0	21.5	0.00e+00	0	42	0	4163895296	51	4244
2026-01-04 14:10:02.68	347.84	19.95	-41.2	-42.1	21.4	0.00e+00	0	42	0	4173332480	51	4296
2026-01-04 14:10:03.40	347.82	19.86	-41.1	-42.0	21.4	0.00e+00	0	42	0	4178575360	51	4288
2026-01-04 14:10:04.69	347.78	19.69	-41.2	-42.1	21.3	0.00e+00	0	42	0	4188012544	52	4073
2026-01-04 14:10:05.57	347.75	19.58	-41.2	-42.1	21.3	0.00e+00	0	42	0	4194304000	52	4061
2026-01-04 14:10:06.71	347.72	19.44	-41.2	-42.1	21.3	0.00e+00	0	42	0	4201644032	52	4092
2026-01-04 14:10:07.81	347.69	19.30	-41.3	-42.2	21.2	0.00e+00	0	42	0	4210032640	52	4114
2026-01-04 14:10:08.85	347.66	19.17	-41.3	-42.2	21.3	0.00e+00	0	42	0	4217372672	52	4105
2026-01-04 14:10:09.84	347.63	19.04	-41.4	-42.4	21.1	0.00e+00	0	42	0	4224712704	52	4194
2026-01-04 14:10:10.85	347.60	18.92	-41.3	-42.2	21.2	0.00e+00	0	42	0	4232052736	52	4142
2026-01-04 14:10:11.85	347.57	18.79	-41.3	-42.2	21.2	0.00e+00	0	42	0	4239392768	52	4145
2026-01-04 14:10:12.85	347.54	18.67	-41.4	-42.3	21.1	0.00e+00	0	42	0	4246732800	52	4192
2026-01-04 14:10:13.85	347.51	18.55	-41.5	-42.4	21.0	0.00e+00	0	42	0	4254072832	52	4241
2026-01-04 14:10:14.85	347.49	18.43	-41.5	-42.5	21.0	0.00e+00	0	42	0	4261412864	52	4244
2026-01-04 14:10:15.85	347.46	18.31	-41.4	-42.4	21.1	0.00e+00	0	42	0	4267704320	52	4221
2026-01-04 14:10:16.86	347.43	18.18	-41.5	-42.5	21.0	0.00e+00	0	42	0	4275044352	52	4270
2026-01-04 14:10:17.86	347.41	18.06	-41.5	-42.5	21.0	0.00e+00	0	42	0	4282384384	52	4275
2026-01-04 14:10:18.86	347.38	17.94	-41.6	-42.6	20.9	0.00e+00	0	42	0	4289724416	52	4308
2026-01-04 14:10:19.86	347.35	17.83	-41.5	-42.5	21.0	0.00e+00	0	42	0	4297064448	52	4269
2026-01-04 14:10:20.86	347.33	17.71	-41.5	-42.6	20.8	0.00e+00	0	42	0	4304404480	52	4307
2026-01-04 14:10:21.87	347.30	17.59	-41.5	-42.5	20.9	0.00e+00	0	42	0	4311744512	52	4284
2026-01-04 14:10:22.87	347.28	17.47	-41.6	-42.7	20.7	0.00e+00	0	42	0	4319084544	52	4370
2026-01-04 14:10:23.87	347.25	17.35	-41.7	-42.7	20.7	0.00e+00	0	42	0	4326424576	52	4389
2026-01-04 14:10:24.88	347.23	17.24	-41.8	-42.9	20.6	0.00e+00	0	42	0	4332716032	53	4204
2026-01-04 14:10:25.88	347.20	17.12	-41.7	-42.8	20.6	0.00e+00	0	42	0	4340056064	53	4175
2026-01-04 14:10:26.88	347.18	17.01	-41.9	-42.9	20.6	0.00e+00	0	42	0	4348444672	53	4221
2026-01-04 14:10:27.88	347.15	16.89	-41.9	-42.9	20.6	0.00e+00	0	42	0	4354736128	53	4205
2026-01-04 14:10:28.88	347.13	16.78	-42.0	-43.1	20.5	0.00e+00	0	42	0	4362076160	53	4293
2026-01-04 14:10:29.88	347.10	16.66	-41.9	-42.9	20.6	0.00e+00	0	42	0	4369416192	53	4206
2026-01-04 14:10:30.88	347.08	16.55	-41.9	-42.8	20.6	0.00e+00	0	42	0	4376756224	53	4176
2026-01-04 14:10:31.89	347.06	16.44	-41.9	-42.9	20.6	0.00e+00	0	42	0	4384096256	53	4196
2026-01-04 14:10:32.89	347.03	16.33	-42.0	-42.9	20.5	0.00e+00	0	42	0	4391436288	53	4240
2026-01-04 14:10:33.89	347.01	16.21	-42.0	-43.0	20.5	0.00e+00	0	42	0	4398776320	53	4255
2026-01-04 14:10:35.07	346.98	16.08	-42.0	-43.1	20.4	0.00e+00	0	42	0	4407164928	53	4293
2026-01-04 14:10:35.92	346.96	15.99	-42.0	-43.0	20.4	0.00e+00	0	42	0	4412407808	53	4279
2026-01-04 14:10:37.07	346.94	15.86	-42.0	-43.1	20.4	0.00e+00	0	42	0	4420796416	53	4318
2026-01-04 14:10:38.06	346.92	15.76	-42.1	-43.1	20.3	0.00e+00	0	42	0	4428136448	53	4328
2026-01-04 14:10:39.06	346.89	15.65	-42.1	-43.2	20.3	0.00e+00	0	42	0	4435476480	53	4342
2026-01-04 14:10:40.06	346.87	15.54	-42.1	-43.2	20.2	0.00e+00	0	42	0	4442816512	53	4368
2026-01-04 14:10:41.06	346.85	15.43	-42.1	-43.2	20.3	0.00e+00	0	42	0	4450156544	53	4345
2026-01-04 14:10:42.06	346.83	15.32	-42.2	-43.3	20.2	0.00e+00	0	42	0	4457496576	53	4398
2026-01-04 14:10:43.06	346.81	15.22	-42.4	-43.4	20.1	0.00e+00	0	42	0	4464836608	54	4230
2026-01-04 14:10:44.07	346.79	15.11	-42.3	-43.4	20.2	0.00e+00	0	42	0	4472176640	54	4196
2026-01-04 14:10:45.07	346.76	15.00	-42.4	-43.4	20.1	0.00e+00	0	42	0	4478468096	54	4221
2026-01-04 14:10:46.07	346.74	14.90	-42.4	-43.5	20.0	0.00e+00	0	42	0	4485808128	54	4259
2026-01-04 14:10:47.07	346.72	14.79	-42.4	-43.4	20.0	0.00e+00	0	42	0	4493148160	54	4226
2026-01-04 14:10:48.15	346.70	14.68	-42.4	-43.5	20.0	0.00e+00	0	42	0	4501536768	54	4248
2026-01-04 14:10:49.03	346.68	14.59	-42.5	-43.6	19.9	0.00e+00	0	42	0	4507828224	54	4313
2026-01-04 14:10:50.18	346.66	14.47	-42.6	-43.6	19.9	0.00e+00	0	42	0	4516216832	54	4322
2026-01-04 14:10:51.13	346.64	14.37	-42.6	-43.6	19.9	0.00e+00	0	42	0	4522508288	54	4334
2026-01-04 14:10:52.31	346.62	14.25	-42.6	-43.7	19.9	0.00e+00	0	42	0	4530896896	54	4355
2026-01-04 14:10:53.17	346.60	14.16	-42.7	-43.7	19.7	0.00e+00	0	42	0	4537188352	54	4386
2026-01-04 14:10:54.52	346.57	14.02	-42.7	-43.8	19.8	0.00e+00	0	42	0	4547674112	55	4154
2026-01-04 14:10:55.24	346.56	13.95	-42.7	-43.7	19.8	0.00e+00	0	42	0	4552916992	55	4145
2026-01-04 14:10:56.53	346.54	13.82	-42.7	-43.7	19.8	0.00e+00	0	42	0	4562354176	55	4137
2026-01-04 14:10:57.25	346.52	13.75	-42.9	-43.9	19.6	0.00e+00	0	42	0	4566548480	55	4219
2026-01-04 14:10:58.54	346.50	13.62	-42.9	-44.0	19.5	0.00e+00	0	42	0	4575985664	55	4278
2026-01-04 14:10:59.25	346.49	13.55	-42.8	-43.9	19.6	0.00e+00	0	42	0	4581228544	55	4207
2026-01-04 14:11:00.54	346.46	13.42	-42.8	-43.9	19.6	0.00e+00	0	42	0	4590665728	55	4228
2026-01-04 14:11:01.26	346.45	13.35	-42.8	-43.9	19.6	0.00e+00	0	42	0	4595908608	55	4228
2026-01-04 14:11:02.55	346.42	13.22	-43.1	-44.3	19.2	0.00e+00	0	42	0	4605345792	55	4404
2026-01-04 14:11:03.26	346.41	13.15	-43.1	-44.2	19.3	0.00e+00	0	42	0	4610588672	55	4386
2026-01-04 14:11:04.55	346.39	13.02	-43.0	-44.2	19.4	0.00e+00	0	42	0	4620025856	55	4343
2026-01-04 14:11:05.27	346.38	12.95	-43.0	-44.1	19.4	0.00e+00	0	42	0	4625268736	55	4328
2026-01-04 14:11:06.59	346.35	12.83	-42.8	-43.9	19.5	0.00e+00	0	42	0	4634705920	55	4227
2026-01-04 14:11:07.57	346.34	12.73	-42.9	-44.0	19.5	0.00e+00	0	42	0	4640997376	55	4254
2026-01-04 14:11:08.58	346.32	12.63	-43.0	-44.0	19.5	0.00e+00	0	42	0	4648337408	55	4289
2026-01-04 14:11:09.58	346.30	12.54	-43.0	-44.1	19.4	0.00e+00	0	42	0	4655677440	55	4311
2026-01-04 14:11:10.58	346.28	12.44	-43.1	-44.2	19.3	0.00e+00	0	42	0	4663017472	55	4358
2026-01-04 14:11:11.59	346.27	12.35	-43.1	-44.2	19.2	0.00e+00	0	42	0	4670357504	55	4374
2026-01-04 14:11:12.59	346.25	12.25	-43.2	-44.3	19.3	0.00e+00	0	42	0	4677697536	55	4402
2026-01-04 14:11:13.59	346.23	12.16	-43.2	-44.3	19.3	0.00e+00	0	42	0	4685037568	55	4406
2026-01-04 14:11:14.60	346.22	12.06	-43.1	-44.2	19.3	0.00e+00	0	42	0	4692377600	55	4385
2026-01-04 14:11:15.69	346.20	11.96	-43.1	-44.2	19.2	0.00e+00	0	42	0	4699717632	55	4386
2026-01-04 14:11:16.55	346.19	11.88	-43.0	-44.2	19.3	0.00e+00	0	42	0	4706009088	55	4345
2026-01-04 14:11:17.70	346.17	11.77	-43.0	-44.3	19.2	0.00e+00	0	42	0	4714397696	55	4393
2026-01-04 14:11:18.56	346.15	11.69	-43.1	-44.3	19.2	0.00e+00	0	42	0	4720689152	55	4406
2026-01-04 14:11:19.70	346.13	11.59	-43.1	-44.3	19.2	0.00e+00	0	42	0	4729077760	55	4402
