passes_logs/2026/01/20/R3.2S_Murmansk/R3.2S_Murmansk__20260120_212531_JL1KF02B02_rec.log

#Pass ID: 20260120_212531_JL1KF02B02
#Satellite: JL1KF02B02
#Configuration: 01B_900M
#almurnet v.1.7.20251203
#Start time: 2026-01-20 21:25:33

#Version: 2.2.20231116
#Station: R3.2S_Murmansk
#Location: 33.079688 lon 68.888172 lat
#TLE: 1 61193U 24169E   26020.02206547  .00006304  00000+0  39418-3 0  9998
#TLE: 2 61193  97.5740 111.8291 0013774 118.2213 242.0409 15.09703468 73483

#Time	Az	El	Level	Level2	SNR	BER	BlckErr	Temp	State	Recorded	gain1	gain2
2026-01-20 21:25:33.04	200.21	2.08	-54.1	-56.3	6.2	0.00e+00	0	40	0	0	79	18891
2026-01-20 21:25:34.01	200.29	2.14	-54.1	-56.3	6.2	0.00e+00	0	40	104	0	79	19034
2026-01-20 21:25:34.98	200.36	2.20	-54.3	-56.5	6.2	0.00e+00	0	40	104	0	79	19313
2026-01-20 21:25:35.95	200.43	2.26	-54.4	-56.5	6.2	0.00e+00	0	40	104	0	79	19425
2026-01-20 21:25:36.92	200.51	2.33	-54.4	-56.5	6.2	0.00e+00	0	40	104	0	79	19473
2026-01-20 21:25:37.89	200.58	2.39	-54.4	-56.6	6.2	0.00e+00	0	40	104	0	79	19499
2026-01-20 21:25:38.86	200.66	2.45	-54.4	-56.5	6.2	0.00e+00	0	40	104	0	79	19437
2026-01-20 21:25:39.83	200.73	2.51	-54.4	-56.6	6.2	0.00e+00	0	40	104	0	79	19536
2026-01-20 21:25:40.80	200.81	2.57	-54.4	-56.5	6.2	0.00e+00	0	41	104	0	79	19391
2026-01-20 21:25:41.77	200.88	2.64	-54.4	-56.5	6.2	0.00e+00	0	40	104	0	79	19340
2026-01-20 21:25:42.75	200.96	2.70	-54.3	-56.5	6.2	0.00e+00	0	40	104	0	79	19337
2026-01-20 21:25:43.72	201.04	2.76	-54.3	-56.4	6.2	0.00e+00	0	40	104	0	79	19167
2026-01-20 21:25:44.69	201.11	2.83	-54.3	-56.4	6.2	0.00e+00	0	40	104	0	79	19079
2026-01-20 21:25:45.66	201.19	2.89	-54.2	-56.3	6.2	0.00e+00	0	41	104	0	79	19019
2026-01-20 21:25:46.63	201.27	2.95	-54.2	-56.3	6.2	0.00e+00	0	40	104	0	79	18888
2026-01-20 21:25:47.60	201.35	3.02	-54.1	-56.3	6.2	0.00e+00	0	41	104	0	79	18840
2026-01-20 21:25:48.57	201.43	3.08	-54.1	-56.2	6.2	0.00e+00	0	41	104	0	79	18786
2026-01-20 21:25:49.54	201.50	3.14	-54.0	-56.2	6.2	0.00e+00	0	41	104	0	79	18650
2026-01-20 21:25:50.50	201.58	3.21	-54.0	-56.1	6.2	0.00e+00	0	40	104	0	79	18547
2026-01-20 21:25:51.47	201.66	3.27	-53.9	-56.0	6.2	0.00e+00	0	41	104	0	79	18380
2026-01-20 21:25:52.44	201.74	3.33	-53.9	-56.0	6.2	0.00e+00	0	40	104	0	79	18279
2026-01-20 21:25:53.42	201.83	3.40	-53.8	-55.9	6.2	0.00e+00	0	41	104	0	79	18178
2026-01-20 21:25:54.38	201.91	3.46	-53.7	-55.8	6.2	0.00e+00	0	41	104	0	79	17876
2026-01-20 21:25:55.35	201.99	3.53	-53.5	-55.7	6.2	0.00e+00	0	41	104	0	79	17611
2026-01-20 21:25:56.32	202.07	3.59	-53.3	-55.5	6.2	0.00e+00	0	41	104	0	78	18220
2026-01-20 21:25:57.29	202.15	3.66	-53.0	-55.1	6.2	0.00e+00	0	41	104	0	78	17498
2026-01-20 21:25:58.26	202.23	3.72	-52.9	-55.1	6.2	0.00e+00	0	41	104	0	77	18405
2026-01-20 21:25:59.23	202.32	3.79	-52.9	-55.0	6.2	0.00e+00	0	41	104	0	77	18337
2026-01-20 21:26:00.21	202.40	3.85	-52.9	-55.0	6.2	0.00e+00	0	41	104	0	77	18369
2026-01-20 21:26:01.18	202.49	3.92	-52.9	-55.0	6.2	0.00e+00	0	41	104	0	77	18280
2026-01-20 21:26:02.15	202.57	3.98	-52.9	-55.0	6.2	0.00e+00	0	41	104	0	77	18343
2026-01-20 21:26:03.13	202.66	4.05	-52.9	-55.0	6.2	0.00e+00	0	41	104	0	77	18347
2026-01-20 21:26:04.11	202.74	4.12	-52.9	-55.0	6.2	0.00e+00	0	41	104	0	77	18374
2026-01-20 21:26:05.08	202.83	4.18	-52.9	-55.0	6.2	0.00e+00	0	41	104	0	77	18359
2026-01-20 21:26:06.05	202.92	4.25	-52.9	-55.0	6.2	0.00e+00	0	41	104	0	77	18269
2026-01-20 21:26:07.02	203.00	4.32	-52.9	-55.0	6.2	0.00e+00	0	41	104	0	77	18312
2026-01-20 21:26:08.00	203.09	4.38	-52.9	-55.0	6.2	0.00e+00	0	41	104	0	77	18386
2026-01-20 21:26:08.97	203.18	4.45	-52.9	-55.0	6.2	0.00e+00	0	41	104	0	77	18277
2026-01-20 21:26:09.94	203.27	4.52	-52.9	-55.0	6.2	0.00e+00	0	41	104	0	77	18379
2026-01-20 21:26:10.91	203.36	4.58	-52.9	-55.0	6.2	0.00e+00	0	41	104	0	77	18278
2026-01-20 21:26:11.88	203.44	4.65	-52.9	-55.0	6.2	0.00e+00	0	41	104	0	77	18279
2026-01-20 21:26:12.85	203.53	4.72	-52.8	-55.0	6.2	0.00e+00	0	41	104	0	77	18247
2026-01-20 21:26:13.82	203.62	4.79	-52.8	-55.0	6.2	0.00e+00	0	41	104	0	77	18265
2026-01-20 21:26:14.79	203.71	4.85	-52.8	-55.0	6.2	0.00e+00	0	41	104	0	77	18309
2026-01-20 21:26:15.76	203.81	4.92	-52.8	-55.0	6.2	0.00e+00	0	41	104	0	77	18213
2026-01-20 21:26:16.73	203.90	4.99	-52.8	-55.0	6.2	0.00e+00	0	41	104	0	77	18257
2026-01-20 21:26:17.70	203.99	5.06	-52.9	-55.1	6.2	0.00e+00	0	41	104	0	77	18444
2026-01-20 21:26:18.67	204.08	5.13	-52.9	-55.1	6.2	0.00e+00	0	41	104	0	77	18433
2026-01-20 21:26:19.64	204.18	5.20	-52.9	-55.0	6.2	0.00e+00	0	41	104	0	77	18296
2026-01-20 21:26:20.61	204.27	5.27	-52.8	-55.0	6.2	0.00e+00	0	41	104	0	77	18181
2026-01-20 21:26:21.58	204.36	5.33	-52.9	-55.1	6.2	0.00e+00	0	41	104	0	77	18413
2026-01-20 21:26:22.56	204.46	5.40	-53.0	-55.1	6.2	0.00e+00	0	41	104	0	77	18525
2026-01-20 21:26:23.53	204.56	5.47	-52.9	-55.0	6.2	0.00e+00	0	41	104	0	77	18370
2026-01-20 21:26:24.50	204.65	5.54	-52.8	-55.0	6.2	0.00e+00	0	41	104	0	77	18241
2026-01-20 21:26:25.47	204.75	5.61	-52.9	-55.0	6.2	0.00e+00	0	41	104	0	77	18359
2026-01-20 21:26:26.45	204.85	5.68	-53.0	-55.1	6.2	0.00e+00	0	41	104	0	77	18511
2026-01-20 21:26:27.42	204.94	5.75	-52.9	-55.1	6.2	0.00e+00	0	41	104	0	77	18428
2026-01-20 21:26:28.38	205.04	5.82	-52.9	-55.0	6.2	0.00e+00	0	41	104	0	77	18327
2026-01-20 21:26:29.36	205.14	5.90	-52.9	-55.0	6.2	0.00e+00	0	41	104	0	77	18377
2026-01-20 21:26:30.33	205.24	5.97	-53.0	-55.1	6.2	0.00e+00	0	41	104	0	77	18576
2026-01-20 21:26:31.31	205.34	6.04	-52.9	-55.1	6.2	0.00e+00	0	41	104	0	77	18520
2026-01-20 21:26:32.28	205.44	6.11	-52.9	-55.1	6.2	0.00e+00	0	41	104	0	77	18409
2026-01-20 21:26:33.25	205.54	6.18	-52.9	-55.0	6.2	0.00e+00	0	41	104	0	77	18384
2026-01-20 21:26:34.22	205.64	6.25	-53.0	-55.2	6.2	0.00e+00	0	41	104	0	77	18642
2026-01-20 21:26:35.19	205.75	6.32	-53.0	-55.1	6.2	0.00e+00	0	41	104	0	77	18548
2026-01-20 21:26:36.15	205.85	6.39	-52.9	-55.1	6.2	0.00e+00	0	41	104	0	77	18415
2026-01-20 21:26:37.12	205.95	6.47	-52.9	-55.1	6.2	0.00e+00	0	41	104	0	77	18409
2026-01-20 21:26:38.09	206.05	6.54	-53.0	-55.2	6.2	0.00e+00	0	41	104	0	77	18654
2026-01-20 21:26:39.06	206.16	6.61	-53.0	-55.1	6.2	0.00e+00	0	41	104	0	77	18552
2026-01-20 21:26:40.02	206.26	6.68	-52.9	-55.1	6.2	0.00e+00	0	41	104	0	77	18455
2026-01-20 21:26:40.99	206.37	6.76	-52.9	-55.1	6.2	0.00e+00	0	41	104	0	77	18400
2026-01-20 21:26:41.97	206.48	6.83	-53.0	-55.2	6.2	0.00e+00	0	42	104	0	77	18746
2026-01-20 21:26:42.94	206.58	6.90	-53.0	-55.2	6.2	0.00e+00	0	41	104	0	77	18620
2026-01-20 21:26:43.91	206.69	6.98	-53.0	-55.1	6.2	0.00e+00	0	41	104	0	77	18547
2026-01-20 21:26:44.88	206.80	7.05	-53.0	-55.1	6.2	0.00e+00	0	41	104	0	77	18436
2026-01-20 21:26:45.85	206.91	7.12	-53.0	-55.2	6.2	0.00e+00	0	42	104	0	77	18707
2026-01-20 21:26:46.81	207.02	7.20	-53.0	-55.2	6.2	0.00e+00	0	41	104	0	77	18646
2026-01-20 21:26:47.78	207.13	7.27	-53.0	-55.2	6.2	0.00e+00	0	41	104	0	77	18610
2026-01-20 21:26:48.75	207.24	7.35	-53.0	-55.1	6.2	0.00e+00	0	42	104	0	77	18568
2026-01-20 21:26:49.72	207.35	7.42	-53.0	-55.2	6.2	0.00e+00	0	42	104	0	77	18676
2026-01-20 21:26:50.68	207.46	7.49	-53.0	-55.2	6.2	0.00e+00	0	42	104	0	77	18720
2026-01-20 21:26:51.65	207.57	7.57	-53.0	-55.2	6.2	0.00e+00	0	41	104	0	77	18618
2026-01-20 21:26:52.63	207.69	7.65	-53.0	-55.1	6.2	0.00e+00	0	41	104	0	77	18571
2026-01-20 21:26:53.61	207.80	7.72	-53.0	-55.2	6.2	0.00e+00	0	41	104	0	77	18665
2026-01-20 21:26:54.57	207.92	7.80	-53.0	-55.2	6.2	0.00e+00	0	42	104	0	77	18748
2026-01-20 21:26:55.55	208.03	7.87	-53.0	-55.2	6.2	0.00e+00	0	41	104	0	77	18643
2026-01-20 21:26:56.52	208.15	7.95	-53.0	-55.1	6.2	0.00e+00	0	41	104	0	77	18580
2026-01-20 21:26:57.49	208.27	8.03	-53.0	-55.2	6.2	0.00e+00	0	42	104	0	77	18648
2026-01-20 21:26:58.45	208.38	8.10	-53.0	-55.2	6.2	0.00e+00	0	42	104	0	77	18760
2026-01-20 21:26:59.42	208.50	8.18	-53.0	-55.2	6.2	0.00e+00	0	42	104	0	77	18652
2026-01-20 21:27:00.39	208.62	8.26	-53.0	-55.2	6.2	0.00e+00	0	42	104	0	77	18665
2026-01-20 21:27:01.36	208.74	8.33	-53.0	-55.2	6.2	0.00e+00	0	42	104	0	77	18625
2026-01-20 21:27:02.33	208.86	8.41	-53.1	-55.2	6.2	0.00e+00	0	42	104	0	77	18812
2026-01-20 21:27:03.30	208.99	8.49	-53.0	-55.2	6.2	0.00e+00	0	42	104	0	77	18725
2026-01-20 21:27:04.27	209.11	8.57	-51.8	-53.3	6.3	0.00e+00	0	42	104	0	74	17860
2026-01-20 21:27:05.24	209.23	8.64	-47.3	-47.7	6.6	0.00e+00	0	42	104	0	66	14875
2026-01-20 21:27:06.21	209.35	8.72	-49.5	-50.4	6.4	0.00e+00	0	42	104	0	70	16040
2026-01-20 21:27:07.18	209.48	8.80	-45.2	-45.6	6.7	0.00e+00	0	42	104	0	62	14614
2026-01-20 21:27:08.15	209.60	8.88	-45.1	-45.4	6.8	0.00e+00	0	42	104	0	62	14338
2026-01-20 21:27:09.12	209.73	8.96	-45.2	-45.5	6.8	0.00e+00	0	42	104	0	62	14572
2026-01-20 21:27:10.09	209.86	9.04	-45.5	-45.9	6.8	0.00e+00	0	42	104	0	62	15232
2026-01-20 21:27:11.06	209.99	9.12	-46.0	-46.5	6.8	0.00e+00	0	42	104	0	62	16241
2026-01-20 21:27:12.03	210.11	9.20	-50.3	-51.4	6.4	0.00e+00	0	41	104	0	71	17043
2026-01-20 21:27:13.00	210.24	9.28	-48.8	-49.5	6.6	0.00e+00	0	42	104	0	68	16384
2026-01-20 21:27:13.97	210.37	9.36	-50.1	-51.0	6.4	0.00e+00	0	42	104	0	70	17271
2026-01-20 21:27:14.93	210.50	9.43	-45.1	-45.4	6.9	0.00e+00	0	42	104	0	62	14295
2026-01-20 21:27:15.90	210.64	9.51	-44.9	-45.2	6.8	0.00e+00	0	42	104	0	61	14905
2026-01-20 21:27:16.87	210.77	9.60	-44.7	-44.9	7.6	0.00e+00	0	42	104	0	61	14404
2026-01-20 21:27:17.84	210.90	9.68	-44.9	-45.2	7.4	0.00e+00	0	42	104	0	61	14796
2026-01-20 21:27:18.81	211.04	9.76	-45.8	-46.1	7.4	0.00e+00	0	42	104	0	62	15500
2026-01-20 21:27:19.78	211.17	9.84	-48.3	-48.9	6.8	0.00e+00	0	42	104	0	67	16161
2026-01-20 21:27:20.75	211.31	9.92	-45.1	-45.3	8.5	7.60e-06	0	42	104	0	60	15895
2026-01-20 21:27:21.72	211.45	10.00	-38.6	-38.5	13.2	2.37e-03	0	42	104	0	48	14574
2026-01-20 21:27:22.69	211.58	10.08	-38.5	-38.4	14.1	1.02e-03	0	42	0	92274688	49	13537
2026-01-20 21:27:23.66	211.72	10.17	-38.7	-38.6	13.5	1.37e-03	0	42	0	201326592	48	14650
2026-01-20 21:27:24.63	211.86	10.25	-36.4	-36.3	14.2	6.88e-04	0	42	0	301989888	44	14160
2026-01-20 21:27:25.60	212.00	10.33	-35.2	-35.0	15.1	1.39e-04	0	42	0	419430400	42	13765
2026-01-20 21:27:26.57	212.15	10.41	-33.9	-33.8	16.1	1.71e-05	0	42	0	528482304	39	14134
2026-01-20 21:27:27.53	212.29	10.50	-32.8	-32.6	16.8	0.00e+00	0	42	0	629145600	37	13881
2026-01-20 21:27:28.50	212.43	10.58	-29.6	-29.5	16.5	1.90e-06	0	42	0	746586112	31	13679
2026-01-20 21:27:29.47	212.57	10.66	-29.2	-29.0	16.8	3.80e-06	0	42	0	855638016	30	13707
2026-01-20 21:27:30.44	212.72	10.75	-28.9	-28.7	17.0	1.90e-06	0	42	0	964689920	29	14035
2026-01-20 21:27:31.40	212.87	10.83	-28.7	-28.5	17.2	0.00e+00	0	42	0	1065353216	29	13717
2026-01-20 21:27:32.37	213.01	10.91	-28.6	-28.5	17.3	0.00e+00	0	42	0	1182793728	29	13668
2026-01-20 21:27:33.34	213.16	11.00	-28.0	-27.8	17.5	0.00e+00	0	42	0	1291845632	28	13409
2026-01-20 21:27:34.32	213.31	11.08	-27.5	-27.4	17.7	0.00e+00	0	42	0	1392508928	27	13502
2026-01-20 21:27:35.29	213.46	11.17	-27.4	-27.3	17.8	0.00e+00	0	42	0	1509949440	26	14115
2026-01-20 21:27:36.25	213.61	11.25	-27.5	-27.3	17.6	0.00e+00	0	42	0	1619001344	26	14197
2026-01-20 21:27:37.22	213.77	11.34	-27.5	-27.3	17.7	0.00e+00	0	42	0	1719664640	26	14179
2026-01-20 21:27:38.19	213.92	11.42	-27.3	-27.1	17.9	0.00e+00	0	42	0	1837105152	26	13890
2026-01-20 21:27:39.16	214.07	11.51	-27.3	-27.2	17.8	0.00e+00	0	42	0	1946157056	26	13989
2026-01-20 21:27:40.13	214.23	11.60	-27.4	-27.2	17.7	0.00e+00	0	43	0	2046820352	26	14098
2026-01-20 21:27:41.10	214.39	11.68	-27.2	-27.0	17.8	0.00e+00	0	42	0	2164260864	26	13761
2026-01-20 21:27:42.07	214.54	11.77	-27.2	-27.0	17.9	0.00e+00	0	42	0	2273312768	26	13733
2026-01-20 21:27:43.04	214.70	11.86	-27.2	-27.0	18.0	0.00e+00	0	42	0	2382364672	26	13743
2026-01-20 21:27:44.02	214.86	11.94	-27.1	-27.0	17.9	0.00e+00	0	42	0	2483027968	26	13697
2026-01-20 21:27:44.99	215.02	12.03	-27.1	-26.9	17.9	0.00e+00	0	42	0	2600468480	26	13592
2026-01-20 21:27:45.96	215.19	12.12	-27.1	-27.0	18.0	0.00e+00	0	42	0	2709520384	26	13675
2026-01-20 21:27:46.92	215.35	12.20	-27.1	-27.0	18.0	0.00e+00	0	42	0	2810183680	26	13673
2026-01-20 21:27:47.89	215.51	12.29	-27.0	-26.9	18.1	0.00e+00	0	42	0	2927624192	26	13481
2026-01-20 21:27:48.86	215.68	12.38	-27.0	-26.8	18.0	0.00e+00	0	42	0	3036676096	25	14245
2026-01-20 21:27:49.82	215.84	12.47	-26.9	-26.8	18.1	0.00e+00	0	42	0	3137339392	25	14123
2026-01-20 21:27:50.79	216.01	12.56	-26.9	-26.8	18.1	0.00e+00	0	42	0	3254779904	25	14174
2026-01-20 21:27:51.76	216.18	12.64	-26.9	-26.7	18.1	0.00e+00	0	43	0	3363831808	25	14058
2026-01-20 21:27:52.73	216.35	12.73	-26.8	-26.7	18.0	0.00e+00	0	43	0	3464495104	25	14008
2026-01-20 21:27:53.70	216.52	12.82	-26.9	-26.7	18.0	0.00e+00	0	43	0	3581935616	25	14081
2026-01-20 21:27:54.67	216.69	12.91	-26.9	-26.8	18.1	0.00e+00	0	42	0	3690987520	25	14193
2026-01-20 21:27:55.64	216.87	13.00	-26.8	-26.6	18.2	0.00e+00	0	42	0	3800039424	25	13868
2026-01-20 21:27:56.61	217.04	13.09	-26.6	-26.5	18.2	0.00e+00	0	42	0	3900702720	25	13679
2026-01-20 21:27:57.58	217.22	13.18	-26.6	-26.5	18.2	0.00e+00	0	43	0	4018143232	25	13661
2026-01-20 21:27:58.55	217.40	13.27	-26.7	-26.5	18.2	0.00e+00	0	42	0	4127195136	25	13774
2026-01-20 21:27:59.51	217.57	13.36	-26.5	-26.4	18.3	0.00e+00	0	42	0	4227858432	25	13507
2026-01-20 21:28:00.48	217.75	13.45	-26.5	-26.4	18.2	0.00e+00	0	42	0	4345298944	25	13533
2026-01-20 21:28:01.45	217.93	13.54	-26.6	-26.5	18.3	0.00e+00	0	43	0	4454350848	25	13712
2026-01-20 21:28:02.42	218.11	13.63	-26.6	-26.4	18.2	0.00e+00	0	42	0	4555014144	25	13593
2026-01-20 21:28:03.38	218.30	13.72	-26.3	-26.2	18.2	0.00e+00	0	43	0	4672454656	24	14012
2026-01-20 21:28:04.35	218.48	13.81	-26.5	-26.3	18.3	0.00e+00	0	43	0	4781506560	24	14243
2026-01-20 21:28:05.33	218.67	13.91	-26.5	-26.3	18.3	0.00e+00	0	43	0	4882169856	24	14205
2026-01-20 21:28:06.29	218.86	14.00	-26.4	-26.2	18.3	0.00e+00	0	42	0	4991221760	24	14056
2026-01-20 21:28:07.26	219.04	14.09	-26.4	-26.2	18.4	0.00e+00	0	42	0	5108662272	24	14048
2026-01-20 21:28:08.23	219.23	14.18	-26.3	-26.2	18.3	0.00e+00	0	43	0	5209325568	24	14026
2026-01-20 21:28:09.20	219.43	14.27	-26.3	-26.2	18.3	0.00e+00	0	42	0	5318377472	24	13984
2026-01-20 21:28:10.17	219.62	14.37	-26.1	-26.0	18.3	0.00e+00	0	42	0	5435817984	24	13701
2026-01-20 21:28:11.14	219.81	14.46	-26.1	-26.0	18.3	0.00e+00	0	42	0	5544869888	24	13678
2026-01-20 21:28:12.11	220.01	14.55	-26.1	-26.0	18.3	0.00e+00	0	42	0	5645533184	24	13666
2026-01-20 21:28:13.08	220.21	14.64	-26.1	-25.9	18.2	0.00e+00	0	43	0	5762973696	24	13617
2026-01-20 21:28:14.05	220.40	14.74	-25.9	-25.7	18.5	0.00e+00	0	43	0	5872025600	23	14106
2026-01-20 21:28:15.03	220.61	14.83	-26.0	-25.8	18.3	0.00e+00	0	43	0	5972688896	23	14236
2026-01-20 21:28:15.99	220.81	14.92	-26.0	-25.8	18.4	0.00e+00	0	42	0	6090129408	23	14188
2026-01-20 21:28:16.97	221.01	15.02	-26.1	-25.9	18.2	0.00e+00	0	43	0	6199181312	23	14354
2026-01-20 21:28:17.94	221.21	15.11	-25.9	-25.8	18.4	0.00e+00	0	43	0	6308233216	23	14165
2026-01-20 21:28:18.91	221.42	15.21	-25.9	-25.7	18.4	0.00e+00	0	43	0	6408896512	23	14094
2026-01-20 21:28:19.88	221.63	15.30	-25.8	-25.6	18.4	0.00e+00	0	43	0	6526337024	23	13925
2026-01-20 21:28:20.84	221.83	15.39	-25.9	-25.8	18.4	0.00e+00	0	42	0	6635388928	23	14124
2026-01-20 21:28:21.81	222.04	15.49	-25.7	-25.5	18.5	0.00e+00	0	43	0	6736052224	23	13721
2026-01-20 21:28:22.78	222.26	15.58	-25.7	-25.6	18.5	0.00e+00	0	43	0	6853492736	23	13793
2026-01-20 21:28:23.75	222.47	15.68	-25.7	-25.6	18.5	0.00e+00	0	43	0	6962544640	23	13803
2026-01-20 21:28:24.72	222.68	15.77	-25.7	-25.5	18.5	0.00e+00	0	43	0	7063207936	23	13701
2026-01-20 21:28:25.69	222.90	15.87	-25.6	-25.5	18.5	0.00e+00	0	42	0	7180648448	23	13694
2026-01-20 21:28:26.67	223.12	15.96	-25.6	-25.4	18.5	0.00e+00	0	43	0	7289700352	23	13586
2026-01-20 21:28:27.64	223.34	16.06	-25.5	-25.4	18.5	0.00e+00	0	43	0	7390363648	23	13500
2026-01-20 21:28:28.61	223.56	16.15	-25.6	-25.4	18.4	0.00e+00	0	43	0	7507804160	23	13553
2026-01-20 21:28:29.57	223.78	16.25	-25.6	-25.4	18.4	0.00e+00	0	43	0	7616856064	23	13544
2026-01-20 21:28:30.54	224.00	16.34	-25.6	-25.4	18.4	0.00e+00	0	43	0	7725907968	23	13574
2026-01-20 21:28:31.51	224.23	16.44	-25.4	-25.3	18.4	0.00e+00	0	43	0	7826571264	22	14123
2026-01-20 21:28:32.47	224.45	16.53	-25.3	-25.1	18.5	0.00e+00	0	43	0	7944011776	22	13938
2026-01-20 21:28:33.44	224.68	16.63	-25.3	-25.2	18.4	0.00e+00	0	43	0	8053063680	22	13974
2026-01-20 21:28:34.41	224.91	16.72	-25.4	-25.2	18.4	0.00e+00	0	43	0	8153726976	22	14048
2026-01-20 21:28:35.38	225.15	16.82	-25.3	-25.1	18.4	0.00e+00	0	43	0	8271167488	22	13923
2026-01-20 21:28:36.35	225.38	16.91	-25.2	-25.0	18.5	0.00e+00	0	43	0	8380219392	22	13768
2026-01-20 21:28:37.32	225.62	17.01	-25.3	-25.1	18.5	0.00e+00	0	43	0	8480882688	22	13905
2026-01-20 21:28:38.28	225.85	17.11	-25.1	-25.0	18.5	0.00e+00	0	43	0	8598323200	22	13667
2026-01-20 21:28:39.25	226.09	17.20	-25.2	-25.0	18.6	0.00e+00	0	43	0	8707375104	22	13704
2026-01-20 21:28:40.22	226.33	17.30	-25.1	-24.9	18.5	0.00e+00	0	43	0	8808038400	22	13564
2026-01-20 21:28:41.19	226.57	17.39	-25.2	-25.1	18.5	0.00e+00	0	43	0	8925478912	22	13802
2026-01-20 21:28:42.16	226.82	17.49	-25.0	-24.8	18.6	0.00e+00	0	43	0	9034530816	22	13439
2026-01-20 21:28:43.13	227.06	17.59	-25.0	-24.8	18.6	0.00e+00	0	43	0	9135194112	21	14210
2026-01-20 21:28:44.10	227.31	17.68	-25.1	-24.9	18.5	0.00e+00	0	43	0	9244246016	21	14392
2026-01-20 21:28:45.07	227.56	17.78	-24.9	-24.7	18.5	0.00e+00	0	43	0	9361686528	21	14065
2026-01-20 21:28:46.04	227.81	17.87	-24.9	-24.7	18.6	0.00e+00	0	43	0	9470738432	21	14079
2026-01-20 21:28:47.01	228.06	17.97	-24.8	-24.7	18.6	0.00e+00	0	43	0	9571401728	21	13960
2026-01-20 21:28:47.98	228.32	18.07	-24.9	-24.7	18.6	0.00e+00	0	43	0	9688842240	21	14065
2026-01-20 21:28:48.95	228.58	18.16	-24.8	-24.7	18.5	0.00e+00	0	43	0	9797894144	21	13952
2026-01-20 21:28:49.92	228.83	18.26	-24.7	-24.5	18.6	0.00e+00	0	43	0	9898557440	21	13736
2026-01-20 21:28:50.89	229.09	18.35	-24.8	-24.7	18.5	0.00e+00	0	43	0	10015997952	21	13952
2026-01-20 21:28:51.86	229.36	18.45	-24.6	-24.4	18.6	0.00e+00	0	43	0	10125049856	21	13571
2026-01-20 21:28:52.83	229.62	18.55	-24.6	-24.4	18.5	0.00e+00	0	43	0	10225713152	21	13619
2026-01-20 21:28:53.80	229.89	18.64	-24.6	-24.4	18.5	0.00e+00	0	43	0	10343153664	21	13596
2026-01-20 21:28:54.78	230.16	18.74	-24.6	-24.4	18.5	0.00e+00	0	43	0	10452205568	21	13562
2026-01-20 21:28:55.74	230.42	18.83	-24.6	-24.5	18.6	0.00e+00	0	43	0	10561257472	21	13668
2026-01-20 21:28:56.71	230.69	18.93	-24.5	-24.4	18.6	0.00e+00	0	43	0	10661920768	21	13506
2026-01-20 21:28:57.68	230.97	19.02	-24.5	-24.4	18.5	0.00e+00	0	43	0	10779361280	21	13515
2026-01-20 21:28:58.65	231.24	19.12	-24.5	-24.4	18.4	0.00e+00	0	43	0	10888413184	21	13510
2026-01-20 21:28:59.63	231.52	19.21	-24.4	-24.2	18.3	0.00e+00	0	43	0	10989076480	20	14085
2026-01-20 21:29:00.60	231.80	19.31	-24.4	-24.3	18.4	0.00e+00	0	43	0	11106516992	20	14142
2026-01-20 21:29:01.57	232.08	19.40	-24.5	-24.3	18.3	0.00e+00	0	43	0	11215568896	20	14245
2026-01-20 21:29:02.54	232.37	19.50	-24.5	-24.3	18.4	0.00e+00	0	43	0	11316232192	20	14248
2026-01-20 21:29:03.51	232.65	19.59	-24.3	-24.2	18.4	0.00e+00	0	43	0	11433672704	20	13973
2026-01-20 21:29:04.47	232.93	19.69	-24.3	-24.1	18.5	0.00e+00	0	43	0	11542724608	20	13923
2026-01-20 21:29:05.44	233.22	19.78	-24.4	-24.2	18.4	0.00e+00	0	43	0	11651776512	20	14060
2026-01-20 21:29:06.41	233.51	19.87	-24.4	-24.2	18.4	0.00e+00	0	43	0	11752439808	20	14019
2026-01-20 21:29:07.38	233.81	19.97	-24.3	-24.1	18.5	0.00e+00	0	43	0	11869880320	20	13861
2026-01-20 21:29:08.35	234.10	20.06	-24.3	-24.1	18.3	0.00e+00	0	43	0	11978932224	20	13923
2026-01-20 21:29:09.33	234.40	20.15	-24.4	-24.3	18.3	0.00e+00	0	43	0	12079595520	20	14143
2026-01-20 21:29:10.30	234.70	20.25	-24.3	-24.1	18.3	0.00e+00	0	43	0	12197036032	20	13904
2026-01-20 21:29:11.27	235.00	20.34	-24.3	-24.1	18.3	0.00e+00	0	43	0	12306087936	20	13899
2026-01-20 21:29:12.23	235.30	20.43	-24.1	-23.9	18.2	0.00e+00	0	43	0	12406751232	20	13610
2026-01-20 21:29:13.20	235.60	20.52	-24.1	-23.9	18.2	0.00e+00	0	43	0	12524191744	20	13619
2026-01-20 21:29:14.17	235.91	20.61	-24.1	-23.9	18.1	0.00e+00	0	43	0	12633243648	20	13548
2026-01-20 21:29:15.14	236.22	20.71	-24.1	-24.0	18.2	0.00e+00	0	43	0	12750684160	20	13648
2026-01-20 21:29:16.11	236.53	20.80	-24.1	-23.9	18.2	0.00e+00	0	43	0	12851347456	20	13532
2026-01-20 21:29:17.08	236.84	20.89	-24.0	-23.9	18.1	0.00e+00	0	43	0	12960399360	20	13512
2026-01-20 21:29:18.04	237.16	20.98	-24.0	-23.8	17.7	0.00e+00	0	43	0	13069451264	20	13466
2026-01-20 21:29:19.01	237.47	21.06	-24.0	-23.8	17.9	0.00e+00	0	43	0	13170114560	19	14268
2026-01-20 21:29:19.98	237.79	21.15	-24.2	-24.0	17.8	0.00e+00	0	43	0	13287555072	19	14553
2026-01-20 21:29:20.96	238.11	21.24	-24.0	-23.8	17.9	0.00e+00	0	43	0	13396606976	19	14206
2026-01-20 21:29:21.93	238.44	21.33	-24.1	-23.9	17.7	0.00e+00	0	43	0	13497270272	19	14332
2026-01-20 21:29:22.90	238.76	21.42	-23.9	-23.7	17.8	0.00e+00	0	43	0	13614710784	19	14062
2026-01-20 21:29:23.87	239.09	21.51	-24.0	-23.8	17.9	0.00e+00	0	43	0	13723762688	19	14258
2026-01-20 21:29:24.84	239.42	21.59	-24.0	-23.9	17.5	0.00e+00	0	43	0	13841203200	19	14315
2026-01-20 21:29:25.81	239.75	21.68	-23.8	-23.7	17.3	0.00e+00	0	43	0	13941866496	19	13979
2026-01-20 21:29:26.78	240.08	21.77	-23.8	-23.6	17.5	0.00e+00	0	43	0	14050918400	19	13837
2026-01-20 21:29:27.75	240.42	21.85	-23.8	-23.6	17.3	0.00e+00	0	43	0	14159970304	19	13853
2026-01-20 21:29:28.72	240.75	21.94	-23.7	-23.6	17.5	0.00e+00	0	43	0	14269022208	19	13823
2026-01-20 21:29:29.69	241.09	22.02	-23.6	-23.4	17.6	0.00e+00	0	43	0	14378074112	19	13581
2026-01-20 21:29:30.65	241.43	22.10	-23.7	-23.5	17.4	0.00e+00	0	43	0	14487126016	19	13785
2026-01-20 21:29:31.62	241.77	22.19	-23.6	-23.4	17.1	0.00e+00	0	43	0	14587789312	19	13570
2026-01-20 21:29:32.59	242.12	22.27	-23.7	-23.5	17.3	0.00e+00	0	43	0	14705229824	19	13762
2026-01-20 21:29:33.56	242.47	22.35	-23.5	-23.3	17.4	0.00e+00	0	43	0	14814281728	19	13459
2026-01-20 21:29:34.53	242.82	22.43	-23.6	-23.4	17.0	0.00e+00	0	43	0	14914945024	18	14379
2026-01-20 21:29:35.50	243.17	22.51	-23.5	-23.4	17.2	0.00e+00	0	43	0	15032385536	18	14324
2026-01-20 21:29:36.47	243.52	22.59	-23.7	-23.5	17.0	0.00e+00	0	43	0	15141437440	18	14536
2026-01-20 21:29:37.44	243.87	22.67	-23.6	-23.5	17.2	0.00e+00	0	43	0	15258877952	18	14466
2026-01-20 21:29:38.41	244.23	22.75	-23.5	-23.4	16.9	0.00e+00	0	43	0	15359541248	18	14314
2026-01-20 21:29:39.37	244.59	22.82	-23.4	-23.2	17.2	0.00e+00	0	43	0	15468593152	18	14102
2026-01-20 21:29:40.34	244.95	22.90	-23.4	-23.2	16.8	0.00e+00	0	43	0	15577645056	18	14079
2026-01-20 21:29:41.31	245.31	22.97	-23.4	-23.2	16.8	0.00e+00	0	43	0	15686696960	18	14061
2026-01-20 21:29:42.28	245.67	23.05	-23.3	-23.1	17.0	0.00e+00	0	43	0	15795748864	18	13922
2026-01-20 21:29:43.25	246.04	23.12	-23.3	-23.1	16.7	0.00e+00	0	43	0	15904800768	18	13910
2026-01-20 21:29:44.22	246.41	23.20	-23.3	-23.1	16.8	0.00e+00	0	43	0	16005464064	18	13886
2026-01-20 21:29:45.19	246.78	23.27	-23.3	-23.1	17.0	0.00e+00	0	43	0	16122904576	18	13931
2026-01-20 21:29:46.16	247.15	23.34	-23.3	-23.1	16.7	0.00e+00	0	43	0	16231956480	18	13881
2026-01-20 21:29:47.13	247.53	23.41	-23.3	-23.1	16.7	0.00e+00	0	43	0	16332619776	18	13912
2026-01-20 21:29:48.09	247.90	23.48	-23.3	-23.1	16.8	0.00e+00	0	43	0	16450060288	18	13846
2026-01-20 21:29:49.06	248.28	23.55	-23.2	-23.0	16.9	0.00e+00	0	43	0	16559112192	18	13730
2026-01-20 21:29:50.03	248.66	23.61	-23.3	-23.1	16.6	0.00e+00	0	43	0	16659775488	18	13893
2026-01-20 21:29:51.01	249.04	23.68	-23.2	-23.0	16.8	0.00e+00	0	43	0	16777216000	18	13766
2026-01-20 21:29:51.97	249.42	23.75	-23.2	-23.0	17.0	0.00e+00	0	43	0	16886267904	18	13732
2026-01-20 21:29:52.95	249.81	23.81	-23.2	-23.1	16.8	0.00e+00	0	43	0	16995319808	18	13817
2026-01-20 21:29:53.92	250.19	23.88	-23.1	-22.9	16.9	0.00e+00	0	43	0	17104371712	18	13593
2026-01-20 21:29:54.89	250.58	23.94	-23.2	-23.0	17.0	0.00e+00	0	43	0	17213423616	18	13742
2026-01-20 21:29:55.86	250.97	24.00	-23.1	-22.9	16.9	0.00e+00	0	43	0	17322475520	18	13588
2026-01-20 21:29:56.83	251.36	24.06	-23.2	-23.0	16.6	0.00e+00	0	43	0	17423138816	18	13732
2026-01-20 21:29:57.79	251.75	24.12	-23.1	-23.0	16.8	0.00e+00	0	43	0	17540579328	18	13679
2026-01-20 21:29:58.77	252.15	24.18	-23.2	-23.1	16.9	0.00e+00	0	43	0	17649631232	18	13817
2026-01-20 21:29:59.74	252.55	24.23	-23.2	-23.0	17.1	0.00e+00	0	43	0	17750294528	18	13731
2026-01-20 21:30:00.71	252.94	24.29	-23.1	-23.0	17.0	0.00e+00	0	43	0	17867735040	18	13671
2026-01-20 21:30:01.68	253.34	24.34	-23.0	-22.9	16.9	0.00e+00	0	43	0	17976786944	18	13525
2026-01-20 21:30:02.64	253.74	24.40	-23.0	-22.9	17.1	0.00e+00	0	43	0	18094227456	18	13520
2026-01-20 21:30:03.62	254.15	24.45	-23.0	-22.9	17.5	0.00e+00	0	43	0	18194890752	18	13510
2026-01-20 21:30:04.59	254.55	24.50	-23.1	-22.9	17.0	0.00e+00	0	43	0	18303942656	18	13514
2026-01-20 21:30:05.57	254.96	24.55	-23.1	-22.9	17.0	0.00e+00	0	43	0	18412994560	18	13581
2026-01-20 21:30:06.54	255.37	24.60	-23.1	-22.9	17.2	0.00e+00	0	43	0	18530435072	18	13515
2026-01-20 21:30:07.51	255.77	24.64	-23.0	-22.8	17.2	0.00e+00	0	43	0	18631098368	17	14241
2026-01-20 21:30:08.48	256.18	24.69	-22.9	-22.8	17.5	0.00e+00	0	43	0	18740150272	17	14145
2026-01-20 21:30:09.45	256.59	24.73	-22.9	-22.8	17.2	0.00e+00	0	43	0	18857590784	17	14137
2026-01-20 21:30:10.42	257.00	24.78	-22.9	-22.8	17.3	0.00e+00	0	43	0	18958254080	17	14167
2026-01-20 21:30:11.39	257.42	24.82	-22.8	-22.7	17.4	0.00e+00	0	43	0	19067305984	17	13972
2026-01-20 21:30:12.36	257.83	24.86	-22.9	-22.7	17.1	0.00e+00	0	43	0	19184746496	17	14043
2026-01-20 21:30:13.33	258.25	24.90	-22.9	-22.7	17.4	0.00e+00	0	43	0	19285409792	17	14092
2026-01-20 21:30:14.30	258.66	24.93	-22.8	-22.7	17.4	0.00e+00	0	43	0	19394461696	17	14006
2026-01-20 21:30:15.27	259.08	24.97	-22.9	-22.8	17.0	0.00e+00	0	43	0	19511902208	17	14137
2026-01-20 21:30:16.24	259.50	25.01	-22.9	-22.7	17.4	0.00e+00	0	43	0	19620954112	17	14081
2026-01-20 21:30:17.20	259.91	25.04	-22.8	-22.6	17.5	0.00e+00	0	43	0	19721617408	17	13924
2026-01-20 21:30:18.17	260.33	25.07	-22.9	-22.7	17.3	0.00e+00	0	43	0	19830669312	17	14063
2026-01-20 21:30:19.14	260.75	25.10	-22.9	-22.7	17.1	0.00e+00	0	43	0	19948109824	17	14053
2026-01-20 21:30:20.11	261.17	25.13	-22.9	-22.7	17.3	0.00e+00	0	43	0	20048773120	17	13998
2026-01-20 21:30:21.08	261.60	25.16	-22.8	-22.7	17.5	0.00e+00	0	43	0	20157825024	17	13967
2026-01-20 21:30:22.05	262.02	25.18	-22.8	-22.6	17.7	0.00e+00	0	43	0	20275265536	17	13931
2026-01-20 21:30:23.02	262.44	25.21	-22.8	-22.6	17.8	0.00e+00	0	43	0	20375928832	17	13917
2026-01-20 21:30:23.99	262.87	25.23	-22.9	-22.7	18.0	0.00e+00	0	43	0	20484980736	17	14082
2026-01-20 21:30:24.96	263.29	25.25	-22.9	-22.7	18.0	0.00e+00	0	43	0	20602421248	17	14044
2026-01-20 21:30:25.94	263.72	25.27	-22.9	-22.8	17.9	0.00e+00	0	43	0	20711473152	17	14160
2026-01-20 21:30:26.91	264.15	25.29	-22.9	-22.7	17.8	0.00e+00	0	43	0	20812136448	17	14060
2026-01-20 21:30:27.88	264.58	25.31	-22.9	-22.7	18.0	0.00e+00	0	43	0	20921188352	17	14053
2026-01-20 21:30:28.84	265.00	25.32	-22.8	-22.7	18.1	0.00e+00	0	43	0	21038628864	17	13952
2026-01-20 21:30:29.81	265.43	25.34	-22.9	-22.7	18.0	0.00e+00	0	43	0	21139292160	17	14098
2026-01-20 21:30:30.78	265.86	25.35	-22.9	-22.8	18.2	0.00e+00	0	43	0	21248344064	17	14135
2026-01-20 21:30:31.75	266.28	25.36	-23.0	-22.8	18.3	0.00e+00	0	43	0	21365784576	17	14182
2026-01-20 21:30:32.72	266.71	25.37	-22.9	-22.8	18.4	0.00e+00	0	43	0	21466447872	17	14148
2026-01-20 21:30:33.69	267.14	25.37	-23.0	-22.8	18.6	0.00e+00	0	43	0	21575499776	17	14260
2026-01-20 21:30:34.66	267.57	25.38	-23.0	-22.9	18.6	0.00e+00	0	43	0	21692940288	17	14289
2026-01-20 21:30:35.63	268.00	25.39	-22.9	-22.7	18.7	0.00e+00	0	43	0	21793603584	17	14088
2026-01-20 21:30:36.60	268.43	25.39	-23.0	-22.9	18.8	0.00e+00	0	43	0	21902655488	17	14287
2026-01-20 21:30:37.57	268.86	25.39	-23.1	-22.9	18.8	0.00e+00	0	43	0	22020096000	17	14339
2026-01-20 21:30:38.53	269.29	25.39	-23.0	-22.8	18.8	0.00e+00	0	43	0	22120759296	17	14269
2026-01-20 21:30:39.50	269.72	25.39	-23.0	-22.9	19.1	0.00e+00	0	43	0	22229811200	17	14321
2026-01-20 21:30:40.47	270.14	25.38	-23.0	-22.8	19.0	0.00e+00	0	43	0	22338863104	17	14270
2026-01-20 21:30:41.44	270.57	25.38	-23.0	-22.8	19.2	0.00e+00	0	43	0	22456303616	17	14228
2026-01-20 21:30:42.42	271.01	25.37	-23.0	-22.9	19.1	0.00e+00	0	43	0	22556966912	17	14310
2026-01-20 21:30:43.39	271.44	25.36	-23.2	-23.0	19.2	0.00e+00	0	43	0	22666018816	17	14520
2026-01-20 21:30:44.36	271.87	25.35	-23.1	-23.0	19.0	0.00e+00	0	43	0	22783459328	17	14502
2026-01-20 21:30:45.33	272.29	25.34	-23.1	-23.0	19.0	0.00e+00	0	43	0	22884122624	17	14451
2026-01-20 21:30:46.30	272.72	25.33	-23.2	-23.0	19.3	0.00e+00	0	43	0	22993174528	17	14555
2026-01-20 21:30:47.28	273.15	25.32	-23.2	-23.1	19.1	0.00e+00	0	43	0	23110615040	17	14644
2026-01-20 21:30:48.25	273.58	25.30	-23.1	-23.0	19.2	0.00e+00	0	43	0	23219666944	17	14486
2026-01-20 21:30:49.21	274.00	25.28	-23.2	-23.0	19.3	0.00e+00	0	43	0	23320330240	17	14538
2026-01-20 21:30:50.19	274.43	25.26	-23.3	-23.2	19.3	0.00e+00	0	43	0	23437770752	17	14814
2026-01-20 21:30:51.16	274.86	25.24	-23.3	-23.1	19.2	0.00e+00	0	43	0	23546822656	17	14770
2026-01-20 21:30:52.12	275.28	25.22	-23.2	-23.0	19.2	0.00e+00	0	43	0	23647485952	17	14542
2026-01-20 21:30:53.09	275.70	25.20	-23.2	-23.0	19.1	0.00e+00	0	43	0	23756537856	17	14595
2026-01-20 21:30:54.06	276.13	25.17	-23.2	-23.1	19.1	0.00e+00	0	43	0	23873978368	17	14649
2026-01-20 21:30:55.04	276.56	25.15	-23.2	-23.0	19.1	0.00e+00	0	43	0	23983030272	17	14600
2026-01-20 21:30:56.01	276.98	25.12	-23.3	-23.1	19.3	0.00e+00	0	43	0	24083693568	17	14702
2026-01-20 21:30:56.98	277.40	25.09	-23.3	-23.2	19.3	0.00e+00	0	43	0	24201134080	17	14822
2026-01-20 21:30:57.95	277.82	25.06	-23.4	-23.2	19.2	0.00e+00	0	43	0	24310185984	17	14911
2026-01-20 21:30:58.92	278.24	25.03	-23.4	-23.2	19.0	0.00e+00	0	43	0	24410849280	17	14873
2026-01-20 21:30:59.89	278.66	24.99	-23.4	-23.2	19.0	0.00e+00	0	43	0	24528289792	17	14932
2026-01-20 21:31:00.86	279.07	24.96	-23.4	-23.2	19.1	0.00e+00	0	43	0	24637341696	17	14877
2026-01-20 21:31:01.83	279.49	24.92	-23.4	-23.2	19.1	0.00e+00	0	43	0	24738004992	17	14904
2026-01-20 21:31:02.80	279.91	24.88	-23.5	-23.3	18.8	0.00e+00	0	43	0	24855445504	17	15041
2026-01-20 21:31:03.77	280.32	24.84	-23.5	-23.3	18.9	0.00e+00	0	43	0	24964497408	17	14996
2026-01-20 21:31:04.74	280.73	24.80	-23.4	-23.2	19.0	0.00e+00	0	43	0	25065160704	17	14843
2026-01-20 21:31:05.71	281.15	24.76	-23.4	-23.3	19.0	0.00e+00	0	43	0	25174212608	17	14990
2026-01-20 21:31:06.68	281.56	24.72	-23.4	-23.3	19.0	0.00e+00	0	43	0	25291653120	17	14951
2026-01-20 21:31:07.65	281.97	24.67	-23.4	-23.3	18.9	0.00e+00	0	43	0	25400705024	17	14981
2026-01-20 21:31:08.62	282.37	24.63	-23.5	-23.3	18.8	0.00e+00	0	43	0	25501368320	17	15099
2026-01-20 21:31:09.59	282.78	24.58	-23.5	-23.3	18.9	0.00e+00	0	43	0	25618808832	17	15076
2026-01-20 21:31:10.56	283.19	24.53	-23.5	-23.3	18.9	0.00e+00	0	43	0	25727860736	17	15120
2026-01-20 21:31:11.53	283.59	24.48	-23.6	-23.4	19.0	0.00e+00	0	43	0	25828524032	17	15187
2026-01-20 21:31:12.50	283.99	24.43	-23.6	-23.4	18.9	0.00e+00	0	43	0	25945964544	17	15267
2026-01-20 21:31:13.47	284.39	24.38	-23.6	-23.4	18.8	0.00e+00	0	43	0	26055016448	17	15231
2026-01-20 21:31:14.44	284.79	24.32	-23.6	-23.5	19.1	0.00e+00	0	43	0	26164068352	17	15301
2026-01-20 21:31:15.41	285.19	24.27	-23.6	-23.4	18.9	0.00e+00	0	43	0	26273120256	17	15288
2026-01-20 21:31:16.38	285.59	24.21	-23.6	-23.4	19.0	0.00e+00	0	43	0	26382172160	17	15253
2026-01-20 21:31:17.35	285.99	24.16	-23.6	-23.5	18.9	0.00e+00	0	43	0	26491224064	17	15335
2026-01-20 21:31:18.32	286.38	24.10	-23.6	-23.4	18.9	0.00e+00	0	43	0	26591887360	17	15228
2026-01-20 21:31:19.29	286.77	24.04	-23.6	-23.4	19.1	0.00e+00	0	43	0	26709327872	17	15292
2026-01-20 21:31:20.26	287.16	23.98	-23.6	-23.5	18.9	0.00e+00	0	43	0	26818379776	17	15337
2026-01-20 21:31:21.23	287.55	23.92	-23.7	-23.6	19.2	0.00e+00	0	43	0	26919043072	18	14672
2026-01-20 21:31:22.20	287.94	23.85	-23.7	-23.6	19.2	0.00e+00	0	43	0	27036483584	18	14639
2026-01-20 21:31:23.18	288.33	23.79	-23.8	-23.6	19.0	0.00e+00	0	43	0	27145535488	18	14670
2026-01-20 21:31:24.15	288.71	23.72	-23.8	-23.6	19.0	0.00e+00	0	43	0	27262976000	18	14648
2026-01-20 21:31:25.12	289.09	23.66	-23.8	-23.7	19.0	0.00e+00	0	43	0	27363639296	18	14799
2026-01-20 21:31:26.09	289.47	23.59	-23.8	-23.7	19.1	0.00e+00	0	43	0	27472691200	18	14784
2026-01-20 21:31:27.05	289.85	23.52	-23.9	-23.7	19.1	0.00e+00	0	43	0	27581743104	18	14851
2026-01-20 21:31:28.03	290.23	23.45	-24.0	-23.8	19.0	0.00e+00	0	43	0	27682406400	18	15068
2026-01-20 21:31:28.99	290.60	23.39	-23.9	-23.7	19.1	0.00e+00	0	43	0	27799846912	18	14921
2026-01-20 21:31:29.96	290.97	23.31	-23.8	-23.6	19.2	0.00e+00	0	43	0	27908898816	18	14745
2026-01-20 21:31:30.93	291.34	23.24	-23.9	-23.7	19.2	0.00e+00	0	43	0	28009562112	18	14915
2026-01-20 21:31:31.90	291.71	23.17	-24.0	-23.8	19.3	0.00e+00	0	43	0	28127002624	18	15037
2026-01-20 21:31:32.87	292.08	23.10	-23.9	-23.7	19.3	0.00e+00	0	43	0	28236054528	18	14839
2026-01-20 21:31:33.84	292.44	23.02	-23.9	-23.7	19.3	0.00e+00	0	43	0	28353495040	18	14891
2026-01-20 21:31:34.81	292.81	22.95	-23.9	-23.7	19.4	0.00e+00	0	43	0	28454158336	18	14919
2026-01-20 21:31:35.78	293.17	22.87	-23.9	-23.7	19.3	0.00e+00	0	43	0	28563210240	18	14947
2026-01-20 21:31:36.75	293.53	22.80	-24.0	-23.8	19.3	0.00e+00	0	43	0	28680650752	18	15030
2026-01-20 21:31:37.72	293.89	22.72	-24.1	-23.9	19.3	0.00e+00	0	43	0	28781314048	18	15175
2026-01-20 21:31:38.69	294.24	22.64	-24.1	-23.9	19.4	0.00e+00	0	43	0	28890365952	18	15204
2026-01-20 21:31:39.66	294.60	22.56	-24.2	-24.0	19.4	0.00e+00	0	43	0	28999417856	18	15376
2026-01-20 21:31:40.63	294.95	22.48	-24.1	-23.9	19.3	0.00e+00	0	43	0	29100081152	18	15261
2026-01-20 21:31:41.60	295.30	22.40	-24.2	-24.1	19.2	0.00e+00	0	43	0	29217521664	18	15477
2026-01-20 21:31:42.57	295.65	22.32	-24.1	-23.9	19.4	0.00e+00	0	43	0	29326573568	19	14429
2026-01-20 21:31:43.54	295.99	22.24	-24.3	-24.1	19.3	0.00e+00	0	43	0	29444014080	19	14667
2026-01-20 21:31:44.51	296.34	22.16	-24.3	-24.1	19.3	0.00e+00	0	43	0	29544677376	19	14776
2026-01-20 21:31:45.48	296.68	22.07	-24.3	-24.1	19.4	0.00e+00	0	43	0	29653729280	19	14721
2026-01-20 21:31:46.45	297.02	21.99	-24.3	-24.1	19.4	0.00e+00	0	43	0	29771169792	19	14717
2026-01-20 21:31:47.42	297.36	21.91	-24.3	-24.2	19.4	0.00e+00	0	43	0	29871833088	19	14794
2026-01-20 21:31:48.39	297.69	21.82	-24.4	-24.2	19.3	0.00e+00	0	43	0	29980884992	19	14891
2026-01-20 21:31:49.36	298.03	21.74	-24.3	-24.1	19.2	0.00e+00	0	43	0	30089936896	19	14739
2026-01-20 21:31:50.33	298.36	21.65	-24.3	-24.2	19.3	0.00e+00	0	43	0	30198988800	19	14799
2026-01-20 21:31:51.31	298.69	21.56	-24.3	-24.2	19.3	0.00e+00	0	43	0	30308040704	19	14831
2026-01-20 21:31:52.28	299.02	21.48	-24.5	-24.3	19.1	0.00e+00	0	43	0	30417092608	19	15047
2026-01-20 21:31:53.25	299.35	21.39	-24.5	-24.4	19.2	0.00e+00	0	43	0	30534533120	19	15156
2026-01-20 21:31:54.23	299.67	21.30	-24.4	-24.2	19.1	0.00e+00	0	43	0	30635196416	19	14936
2026-01-20 21:31:55.19	299.99	21.21	-24.5	-24.3	19.0	0.00e+00	0	43	0	30744248320	19	15036
2026-01-20 21:31:56.16	300.31	21.13	-24.5	-24.3	19.1	0.00e+00	0	43	0	30861688832	19	15095
2026-01-20 21:31:57.13	300.63	21.04	-24.5	-24.4	19.0	0.00e+00	0	43	0	30962352128	19	15151
2026-01-20 21:31:58.11	300.95	20.95	-24.5	-24.3	19.0	0.00e+00	0	43	0	31071404032	19	15087
2026-01-20 21:31:59.08	301.26	20.86	-24.5	-24.4	19.1	0.00e+00	0	43	0	31188844544	19	15130
2026-01-20 21:32:00.05	301.57	20.77	-24.7	-24.5	19.1	0.00e+00	0	43	0	31297896448	19	15373
2026-01-20 21:32:01.03	301.89	20.67	-24.7	-24.6	19.1	0.00e+00	0	43	0	31398559744	20	14654
2026-01-20 21:32:02.00	302.19	20.58	-24.7	-24.6	18.9	0.00e+00	0	43	0	31507611648	20	14649
2026-01-20 21:32:02.97	302.50	20.49	-24.5	-24.4	18.8	0.00e+00	0	43	0	31625052160	20	14294
2026-01-20 21:32:03.94	302.80	20.40	-24.6	-24.4	18.6	0.00e+00	0	43	0	31734104064	20	14362
2026-01-20 21:32:04.91	303.10	20.31	-24.6	-24.5	18.6	0.00e+00	0	43	0	31834767360	20	14471
2026-01-20 21:32:05.88	303.40	20.22	-24.6	-24.4	18.7	0.00e+00	0	43	0	31952207872	20	14346
2026-01-20 21:32:06.85	303.70	20.12	-24.7	-24.5	18.6	0.00e+00	0	43	0	32061259776	20	14563
2026-01-20 21:32:07.83	304.00	20.03	-24.8	-24.6	18.7	0.00e+00	0	43	0	32161923072	20	14701
2026-01-20 21:32:08.79	304.29	19.94	-24.7	-24.6	18.6	0.00e+00	0	43	0	32279363584	20	14612
2026-01-20 21:32:09.76	304.58	19.84	-24.9	-24.7	18.6	0.00e+00	0	43	0	32388415488	20	14862
2026-01-20 21:32:10.73	304.87	19.75	-24.9	-24.8	18.5	0.00e+00	0	43	0	32489078784	20	14958
2026-01-20 21:32:11.71	305.16	19.65	-24.9	-24.7	18.6	0.00e+00	0	43	0	32606519296	20	14922
2026-01-20 21:32:12.68	305.45	19.56	-25.0	-24.8	18.5	0.00e+00	0	43	0	32715571200	20	15087
2026-01-20 21:32:13.65	305.73	19.47	-24.9	-24.7	18.3	0.00e+00	0	43	0	32824623104	20	14872
2026-01-20 21:32:14.62	306.01	19.37	-25.0	-24.9	18.4	0.00e+00	0	43	0	32925286400	20	15131
2026-01-20 21:32:15.59	306.29	19.28	-25.0	-24.8	18.5	0.00e+00	0	43	0	33042726912	20	15095
2026-01-20 21:32:16.56	306.57	19.18	-24.9	-24.8	18.3	0.00e+00	0	43	0	33151778816	20	14979
2026-01-20 21:32:17.54	306.85	19.09	-25.1	-24.9	18.0	0.00e+00	0	43	0	33252442112	20	15213
2026-01-20 21:32:18.51	307.12	18.99	-25.1	-24.9	18.3	0.00e+00	0	43	0	33369882624	20	15239
2026-01-20 21:32:19.48	307.40	18.90	-25.1	-24.9	18.2	0.00e+00	0	43	0	33478934528	20	15237
2026-01-20 21:32:20.45	307.67	18.80	-25.2	-25.0	18.2	0.00e+00	0	43	0	33596375040	20	15387
2026-01-20 21:32:21.42	307.94	18.71	-25.2	-25.0	18.2	0.00e+00	0	43	0	33697038336	21	14535
2026-01-20 21:32:22.40	308.20	18.61	-25.2	-25.0	18.0	0.00e+00	0	43	0	33806090240	21	14562
2026-01-20 21:32:23.37	308.47	18.51	-25.2	-25.0	18.0	0.00e+00	0	43	0	33915142144	21	14577
2026-01-20 21:32:24.34	308.73	18.42	-25.2	-25.1	18.1	0.00e+00	0	43	0	34032582656	21	14633
2026-01-20 21:32:25.31	308.99	18.32	-25.3	-25.1	17.8	0.00e+00	0	43	0	34133245952	21	14727
2026-01-20 21:32:26.29	309.26	18.23	-25.3	-25.1	18.0	0.00e+00	0	43	0	34242297856	21	14759
2026-01-20 21:32:27.26	309.51	18.13	-25.3	-25.1	18.0	0.00e+00	0	43	0	34359738368	21	14743
2026-01-20 21:32:28.23	309.77	18.03	-25.3	-25.1	17.9	0.00e+00	0	43	0	34460401664	21	14756
2026-01-20 21:32:29.20	310.02	17.94	-25.4	-25.2	18.0	0.00e+00	0	43	0	34569453568	21	14914
2026-01-20 21:32:30.17	310.27	17.84	-25.5	-25.3	18.1	0.00e+00	0	43	0	34686894080	21	15021
2026-01-20 21:32:31.14	310.52	17.75	-25.4	-25.3	18.1	0.00e+00	0	43	0	34795945984	21	14994
2026-01-20 21:32:32.11	310.77	17.65	-25.5	-25.3	17.9	0.00e+00	0	43	0	34896609280	21	15010
2026-01-20 21:32:33.08	311.02	17.56	-25.5	-25.3	17.8	0.00e+00	0	43	0	35014049792	21	15018
2026-01-20 21:32:34.05	311.26	17.46	-25.5	-25.4	18.0	0.00e+00	0	43	0	35123101696	21	15131
2026-01-20 21:32:35.03	311.51	17.36	-25.6	-25.5	18.1	0.00e+00	0	43	0	35223764992	21	15313
2026-01-20 21:32:36.00	311.75	17.27	-25.5	-25.4	17.9	0.00e+00	0	43	0	35332816896	21	15151
2026-01-20 21:32:36.97	311.99	17.17	-25.6	-25.4	17.7	0.00e+00	0	43	0	35450257408	21	15247
2026-01-20 21:32:37.94	312.23	17.08	-25.6	-25.5	17.8	0.00e+00	0	43	0	35559309312	21	15297
2026-01-20 21:32:38.91	312.47	16.98	-25.6	-25.5	17.5	0.00e+00	0	43	0	35659972608	21	15316
2026-01-20 21:32:39.88	312.70	16.88	-25.8	-25.6	17.4	0.00e+00	0	43	0	35777413120	22	14739
2026-01-20 21:32:40.85	312.93	16.79	-25.7	-25.6	17.6	0.00e+00	0	43	0	35886465024	22	14674
2026-01-20 21:32:41.82	313.16	16.69	-25.9	-25.7	17.4	0.00e+00	0	43	0	35987128320	22	14868
2026-01-20 21:32:42.79	313.39	16.60	-25.9	-25.7	17.4	0.00e+00	0	43	0	36104568832	22	14889
2026-01-20 21:32:43.76	313.62	16.50	-25.8	-25.7	17.2	0.00e+00	0	43	0	36213620736	22	14808
2026-01-20 21:32:44.73	313.85	16.41	-26.0	-25.8	17.2	0.00e+00	0	43	0	36314284032	22	15021
2026-01-20 21:32:45.71	314.08	16.31	-26.0	-25.9	17.2	0.00e+00	0	43	0	36431724544	22	15153
2026-01-20 21:32:46.68	314.30	16.22	-26.0	-25.9	17.2	0.00e+00	0	43	0	36540776448	22	15128
2026-01-20 21:32:47.65	314.52	16.12	-26.0	-25.8	17.0	0.00e+00	0	43	0	36649828352	22	15019
2026-01-20 21:32:48.63	314.74	16.02	-26.0	-25.9	16.9	0.00e+00	0	43	0	36750491648	22	15124
2026-01-20 21:32:49.60	314.96	15.93	-26.0	-25.9	17.2	0.00e+00	0	43	0	36867932160	22	15176
2026-01-20 21:32:50.58	315.18	15.83	-26.1	-26.0	17.1	0.00e+00	0	43	0	36976984064	22	15309
2026-01-20 21:32:51.55	315.40	15.74	-26.2	-26.0	17.2	0.00e+00	0	43	0	37094424576	22	15411
2026-01-20 21:32:52.52	315.61	15.65	-26.3	-26.1	17.3	0.00e+00	0	43	0	37195087872	23	14774
2026-01-20 21:32:53.49	315.82	15.55	-26.3	-26.1	17.2	0.00e+00	0	43	0	37304139776	23	14762
2026-01-20 21:32:54.46	316.03	15.46	-26.3	-26.2	17.4	0.00e+00	0	43	0	37421580288	23	14830
2026-01-20 21:32:55.43	316.24	15.36	-26.4	-26.2	17.2	0.00e+00	0	43	0	37522243584	23	14837
2026-01-20 21:32:56.40	316.45	15.27	-26.3	-26.2	17.5	0.00e+00	0	43	0	37631295488	23	14791
2026-01-20 21:32:57.37	316.66	15.18	-26.4	-26.3	17.3	0.00e+00	0	43	0	37740347392	23	14969
2026-01-20 21:32:58.34	316.86	15.08	-26.5	-26.3	17.3	0.00e+00	0	43	0	37857787904	23	15017
2026-01-20 21:32:59.31	317.06	14.99	-26.5	-26.4	17.5	1.90e-06	0	43	0	37958451200	23	15184
2026-01-20 21:33:00.28	317.27	14.89	-26.6	-26.4	17.3	0.00e+00	0	43	0	38067503104	23	15216
2026-01-20 21:33:01.25	317.47	14.80	-26.6	-26.4	17.2	0.00e+00	0	43	0	38184943616	23	15226
2026-01-20 21:33:02.22	317.67	14.71	-26.7	-26.5	17.5	0.00e+00	0	43	0	38285606912	23	15449
2026-01-20 21:33:03.19	317.86	14.62	-26.6	-26.5	17.5	0.00e+00	0	43	0	38394658816	24	14489
2026-01-20 21:33:04.16	318.06	14.52	-26.8	-26.6	17.4	0.00e+00	0	43	0	38512099328	24	14678
2026-01-20 21:33:05.13	318.25	14.43	-26.7	-26.6	17.4	0.00e+00	0	43	0	38612762624	24	14616
2026-01-20 21:33:06.10	318.45	14.34	-26.7	-26.6	17.4	0.00e+00	0	43	0	38721814528	24	14621
2026-01-20 21:33:07.07	318.64	14.25	-26.7	-26.5	17.4	0.00e+00	0	43	0	38839255040	24	14579
2026-01-20 21:33:08.04	318.83	14.15	-26.8	-26.6	17.4	1.90e-06	0	43	0	38948306944	24	14712
2026-01-20 21:33:09.02	319.02	14.06	-26.9	-26.7	17.6	0.00e+00	0	43	0	39048970240	24	14891
2026-01-20 21:33:09.99	319.21	13.97	-26.8	-26.7	17.6	0.00e+00	0	43	0	39158022144	24	14819
2026-01-20 21:33:10.96	319.40	13.88	-26.8	-26.7	17.6	0.00e+00	0	43	0	39275462656	24	14813
2026-01-20 21:33:11.93	319.58	13.79	-26.9	-26.8	17.7	0.00e+00	0	43	0	39376125952	24	14975
2026-01-20 21:33:12.90	319.77	13.70	-27.0	-26.8	17.6	0.00e+00	0	43	0	39485177856	24	15065
2026-01-20 21:33:13.87	319.95	13.61	-27.0	-26.8	17.5	0.00e+00	0	43	0	39602618368	24	15044
2026-01-20 21:33:14.84	320.13	13.52	-27.0	-26.8	17.7	0.00e+00	0	43	0	39711670272	24	15072
2026-01-20 21:33:15.82	320.31	13.42	-27.1	-26.9	17.6	0.00e+00	0	43	0	39812333568	24	15201
2026-01-20 21:33:16.78	320.49	13.34	-27.2	-27.1	17.6	0.00e+00	0	43	0	39929774080	25	14671
2026-01-20 21:33:17.75	320.67	13.25	-27.2	-27.0	17.5	0.00e+00	0	43	0	40038825984	25	14586
2026-01-20 21:33:18.72	320.85	13.16	-27.1	-26.9	17.6	0.00e+00	0	43	0	40139489280	25	14434
2026-01-20 21:33:19.69	321.02	13.07	-27.2	-27.0	17.7	0.00e+00	0	43	0	40248541184	25	14566
2026-01-20 21:33:20.66	321.20	12.98	-27.2	-27.0	17.5	0.00e+00	0	43	0	40365981696	25	14597
2026-01-20 21:33:21.63	321.37	12.89	-27.2	-27.0	17.5	0.00e+00	0	43	0	40466644992	25	14582
2026-01-20 21:33:22.60	321.54	12.80	-27.3	-27.2	17.6	0.00e+00	0	43	0	40575696896	25	14850
2026-01-20 21:33:23.57	321.71	12.71	-27.2	-27.1	17.4	0.00e+00	0	43	0	40693137408	25	14670
2026-01-20 21:33:24.55	321.88	12.62	-27.5	-27.3	18.8	0.00e+00	0	43	0	40802189312	25	15041
2026-01-20 21:33:25.52	322.05	12.53	-53.3	-55.7	6.3	0.00e+00	0	43	104	40877686784	65	39568
2026-01-20 21:33:26.49	322.22	12.44	-53.3	-55.6	6.2	0.00e+00	0	43	104	40877686784	77	19552
2026-01-20 21:33:27.47	322.39	12.36	-53.3	-55.6	6.2	0.00e+00	0	43	104	40877686784	77	19492
2026-01-20 21:33:28.43	322.55	12.27	-53.3	-55.5	6.2	0.00e+00	0	43	104	40877686784	77	19390
2026-01-20 21:33:29.40	322.71	12.18	-53.3	-55.5	6.2	0.00e+00	0	43	104	40877686784	77	19414
2026-01-20 21:33:30.38	322.88	12.09	-53.4	-55.5	6.2	0.00e+00	0	43	104	40877686784	77	19342
2026-01-20 21:33:31.34	323.04	12.01	-53.3	-55.5	6.2	0.00e+00	0	43	104	40877686784	77	19343
2026-01-20 21:33:32.31	323.20	11.92	-53.3	-55.5	6.2	0.00e+00	0	43	104	40877686784	77	19363
2026-01-20 21:33:33.28	323.36	11.83	-53.3	-55.5	6.2	0.00e+00	0	43	104	40877686784	77	19267
2026-01-20 21:33:34.26	323.52	11.75	-53.3	-55.5	6.2	0.00e+00	0	43	104	40877686784	77	19341
2026-01-20 21:33:35.23	323.67	11.66	-53.3	-55.4	6.2	0.00e+00	0	43	104	40877686784	77	19250
2026-01-20 21:33:36.20	323.83	11.57	-53.3	-55.4	6.2	0.00e+00	0	43	104	40877686784	77	19211
2026-01-20 21:33:37.17	323.98	11.49	-53.3	-55.4	6.2	0.00e+00	0	43	104	40877686784	77	19212
2026-01-20 21:33:38.14	324.14	11.40	-53.3	-55.5	6.2	0.00e+00	0	43	104	40877686784	77	19258
2026-01-20 21:33:39.12	324.29	11.32	-53.3	-55.4	6.2	0.00e+00	0	43	104	40877686784	77	19129
2026-01-20 21:33:40.09	324.45	11.23	-53.3	-55.4	6.2	0.00e+00	0	43	104	40877686784	77	19204
2026-01-20 21:33:41.06	324.60	11.15	-53.3	-55.4	6.2	0.00e+00	0	43	104	40877686784	77	19095
2026-01-20 21:33:42.03	324.75	11.06	-53.3	-55.5	6.2	0.00e+00	0	43	104	40877686784	77	19273
2026-01-20 21:33:43.01	324.90	10.98	-53.2	-55.4	6.2	0.00e+00	0	43	104	40877686784	77	19107
2026-01-20 21:33:43.98	325.05	10.89	-53.2	-55.4	6.2	0.00e+00	0	43	104	40877686784	77	19050
2026-01-20 21:33:44.95	325.19	10.81	-53.2	-55.3	6.2	0.00e+00	0	43	104	40877686784	77	18977
2026-01-20 21:33:45.92	325.34	10.73	-53.2	-55.4	6.2	0.00e+00	0	43	104	40877686784	77	19188
2026-01-20 21:33:46.90	325.48	10.64	-53.2	-55.3	6.2	0.00e+00	0	42	104	40877686784	77	19012
2026-01-20 21:33:47.87	325.63	10.56	-53.2	-55.4	6.2	0.00e+00	0	43	104	40877686784	77	19065
2026-01-20 21:33:48.84	325.77	10.48	-53.2	-55.3	6.2	0.00e+00	0	43	104	40877686784	77	19017
2026-01-20 21:33:49.81	325.91	10.39	-53.2	-55.3	6.2	0.00e+00	0	43	104	40877686784	77	19004
2026-01-20 21:33:50.78	326.06	10.31	-53.2	-55.3	6.2	0.00e+00	0	42	104	40877686784	77	18979
2026-01-20 21:33:51.75	326.20	10.23	-53.2	-55.3	6.2	0.00e+00	0	42	104	40877686784	77	19029
2026-01-20 21:33:52.72	326.34	10.15	-53.2	-55.3	6.2	0.00e+00	0	43	104	40877686784	77	18959
2026-01-20 21:33:53.70	326.48	10.06	-53.1	-55.3	6.2	0.00e+00	0	43	104	40877686784	77	18919
2026-01-20 21:33:54.67	326.61	9.98	-53.1	-55.3	6.2	0.00e+00	0	42	104	40877686784	77	18893
2026-01-20 21:33:55.64	326.75	9.90	-53.1	-55.3	6.2	0.00e+00	0	42	104	40877686784	77	18866
2026-01-20 21:33:56.61	326.89	9.82	-53.1	-55.3	6.2	0.00e+00	0	42	104	40877686784	77	18874
2026-01-20 21:33:57.59	327.02	9.74	-53.1	-55.3	6.2	0.00e+00	0	43	104	40877686784	77	18946
2026-01-20 21:33:58.56	327.16	9.66	-53.1	-55.3	6.2	0.00e+00	0	42	104	40877686784	77	18836
2026-01-20 21:33:59.53	327.29	9.58	-53.1	-55.2	6.2	0.00e+00	0	43	104	40877686784	77	18808
2026-01-20 21:34:00.50	327.42	9.50	-53.1	-55.2	6.2	0.00e+00	0	42	104	40877686784	77	18797
2026-01-20 21:34:01.47	327.55	9.42	-53.1	-55.2	6.2	0.00e+00	0	42	104	40877686784	77	18768
2026-01-20 21:34:02.44	327.69	9.34	-53.0	-55.2	6.2	0.00e+00	0	42	104	40877686784	77	18781
2026-01-20 21:34:03.41	327.82	9.26	-53.0	-55.2	6.2	0.00e+00	0	42	104	40877686784	77	18687
2026-01-20 21:34:04.38	327.94	9.18	-53.1	-55.2	6.2	0.00e+00	0	43	104	40877686784	77	18678
2026-01-20 21:34:05.35	328.07	9.10	-53.1	-55.2	6.2	0.00e+00	0	42	104	40877686784	77	18725
2026-01-20 21:34:06.33	328.20	9.02	-53.1	-55.2	6.2	0.00e+00	0	43	104	40877686784	77	18781
2026-01-20 21:34:07.30	328.33	8.94	-53.0	-55.2	6.2	0.00e+00	0	42	104	40877686784	77	18677
2026-01-20 21:34:08.27	328.45	8.86	-53.1	-55.2	6.2	0.00e+00	0	42	104	40877686784	77	18662
2026-01-20 21:34:09.24	328.58	8.78	-53.0	-55.2	6.2	0.00e+00	0	42	104	40877686784	77	18669
2026-01-20 21:34:10.21	328.70	8.70	-53.0	-55.2	6.2	0.00e+00	0	42	104	40877686784	77	18727
2026-01-20 21:34:11.18	328.83	8.63	-53.0	-55.2	6.2	0.00e+00	0	42	104	40877686784	77	18668
2026-01-20 21:34:12.15	328.95	8.55	-53.0	-55.2	6.2	0.00e+00	0	42	104	40877686784	77	18606
2026-01-20 21:34:13.12	329.07	8.47	-53.0	-55.1	6.2	0.00e+00	0	42	104	40877686784	77	18598
2026-01-20 21:34:14.10	329.20	8.39	-53.0	-55.2	6.2	0.00e+00	0	42	104	40877686784	77	18680
2026-01-20 21:34:15.07	329.32	8.32	-53.0	-55.1	6.2	0.00e+00	0	42	104	40877686784	77	18573
2026-01-20 21:34:16.04	329.44	8.24	-53.0	-55.1	6.2	0.00e+00	0	42	104	40877686784	77	18592
2026-01-20 21:34:17.02	329.56	8.16	-53.0	-55.1	6.2	0.00e+00	0	42	104	40877686784	77	18501
2026-01-20 21:34:17.98	329.67	8.09	-53.0	-55.1	6.2	0.00e+00	0	42	104	40877686784	77	18586
2026-01-20 21:34:18.95	329.79	8.01	-53.0	-55.1	6.2	0.00e+00	0	42	104	40877686784	77	18547
2026-01-20 21:34:19.92	329.91	7.93	-53.0	-55.1	6.2	0.00e+00	0	42	104	40877686784	77	18557
2026-01-20 21:34:20.89	330.02	7.86	-53.0	-55.1	6.2	0.00e+00	0	42	104	40877686784	77	18475
2026-01-20 21:34:21.86	330.14	7.78	-53.0	-55.2	6.2	0.00e+00	0	42	104	40877686784	77	18622
2026-01-20 21:34:22.83	330.25	7.71	-53.0	-55.1	6.2	0.00e+00	0	42	104	40877686784	77	18552
2026-01-20 21:34:23.80	330.37	7.63	-53.0	-55.1	6.2	0.00e+00	0	42	104	40877686784	77	18498
2026-01-20 21:34:24.77	330.48	7.56	-52.9	-55.1	6.2	0.00e+00	0	42	104	40877686784	77	18451
2026-01-20 21:34:25.74	330.60	7.48	-53.0	-55.1	6.2	0.00e+00	0	42	104	40877686784	77	18584
2026-01-20 21:34:26.71	330.71	7.41	-52.9	-55.1	6.2	0.00e+00	0	42	104	40877686784	77	18412
2026-01-20 21:34:27.68	330.82	7.33	-52.9	-55.1	6.2	0.00e+00	0	42	104	40877686784	77	18493
2026-01-20 21:34:28.65	330.93	7.26	-52.9	-55.1	6.2	0.00e+00	0	42	104	40877686784	77	18403
2026-01-20 21:34:29.62	331.04	7.19	-52.9	-55.1	6.2	0.00e+00	0	42	104	40877686784	77	18424
2026-01-20 21:34:30.59	331.15	7.11	-52.9	-55.1	6.2	0.00e+00	0	42	104	40877686784	77	18449
2026-01-20 21:34:31.56	331.26	7.04	-52.9	-55.1	6.2	0.00e+00	0	42	104	40877686784	77	18412
2026-01-20 21:34:32.54	331.37	6.96	-52.9	-55.0	6.2	0.00e+00	0	42	104	40877686784	77	18318
2026-01-20 21:34:33.50	331.47	6.89	-52.9	-55.0	6.2	0.00e+00	0	42	104	40877686784	77	18372
2026-01-20 21:34:34.48	331.58	6.82	-52.9	-55.1	6.2	0.00e+00	0	42	104	40877686784	77	18413
2026-01-20 21:34:35.45	331.69	6.75	-52.9	-55.0	6.2	0.00e+00	0	42	104	40877686784	77	18273
2026-01-20 21:34:36.42	331.79	6.67	-52.9	-55.0	6.2	0.00e+00	0	43	104	40877686784	77	18309
2026-01-20 21:34:37.39	331.90	6.60	-52.8	-55.0	6.2	0.00e+00	0	42	104	40877686784	77	18238
2026-01-20 21:34:38.36	332.00	6.53	-52.9	-55.0	6.2	0.00e+00	0	42	104	40877686784	77	18324
2026-01-20 21:34:39.33	332.11	6.46	-52.8	-54.9	6.2	0.00e+00	0	42	104	40877686784	77	18138
2026-01-20 21:34:40.30	332.21	6.38	-52.8	-55.0	6.2	0.00e+00	0	42	104	40877686784	77	18215
2026-01-20 21:34:41.27	332.31	6.31	-52.8	-54.9	6.2	0.00e+00	0	42	104	40877686784	77	18106
2026-01-20 21:34:42.24	332.42	6.24	-52.8	-55.0	6.2	0.00e+00	0	42	104	40877686784	77	18293
2026-01-20 21:34:43.21	332.52	6.17	-52.7	-54.9	6.2	0.00e+00	0	42	104	40877686784	77	18053
2026-01-20 21:34:44.18	332.62	6.10	-52.8	-54.9	6.2	0.00e+00	0	42	104	40877686784	77	18108
2026-01-20 21:34:45.15	332.72	6.03	-52.7	-54.8	6.2	0.00e+00	0	42	104	40877686784	77	17945
2026-01-20 21:34:46.12	332.82	5.96	-52.8	-54.9	6.2	0.00e+00	0	42	104	40877686784	77	18154
2026-01-20 21:34:47.09	332.92	5.89	-52.7	-54.8	6.2	0.00e+00	0	42	104	40877686784	77	17913
2026-01-20 21:34:48.06	333.02	5.82	-52.7	-54.9	6.2	0.00e+00	0	42	104	40877686784	77	18041
2026-01-20 21:34:49.03	333.11	5.75	-52.6	-54.8	6.2	0.00e+00	0	42	104	40877686784	77	17812
2026-01-20 21:34:50.00	333.21	5.68	-52.8	-54.9	6.2	0.00e+00	0	42	104	40877686784	77	18038
2026-01-20 21:34:50.97	333.31	5.61	-52.6	-54.7	6.2	0.00e+00	0	42	104	40877686784	77	17754
2026-01-20 21:34:51.93	333.40	5.54	-52.7	-54.8	6.2	0.00e+00	0	42	104	40877686784	77	17904
2026-01-20 21:34:52.90	333.50	5.47	-52.6	-54.7	6.2	0.00e+00	0	42	104	40877686784	77	17611
2026-01-20 21:34:53.87	333.60	5.40	-52.7	-54.9	6.2	0.00e+00	0	42	104	40877686784	77	17982
2026-01-20 21:34:54.84	333.69	5.33	-52.1	-54.2	6.2	0.00e+00	0	42	104	40877686784	76	17690
2026-01-20 21:34:55.81	333.79	5.26	-52.6	-54.8	6.2	0.00e+00	0	42	104	40877686784	76	18868
2026-01-20 21:34:56.79	333.88	5.19	-51.7	-53.9	6.2	0.00e+00	0	42	104	40877686784	75	17998
2026-01-20 21:34:57.76	333.97	5.13	-51.1	-53.2	6.2	0.00e+00	0	42	104	40877686784	74	17745
2026-01-20 21:34:58.73	334.07	5.06	-50.9	-53.1	6.2	0.00e+00	0	42	104	40877686784	73	18403
2026-01-20 21:34:59.70	334.16	4.99	-51.9	-54.1	6.2	0.00e+00	0	42	104	40877686784	74	19497
2026-01-20 21:35:00.67	334.25	4.92	-53.0	-55.1	6.2	0.00e+00	0	43	104	40877686784	76	19568
2026-01-20 21:35:01.65	334.34	4.85	-53.2	-55.3	6.2	0.00e+00	0	42	104	40877686784	76	20030
2026-01-20 21:35:02.62	334.43	4.78	-53.3	-55.5	6.2	0.00e+00	0	42	104	40877686784	77	19270
2026-01-20 21:35:03.59	334.52	4.72	-53.4	-55.6	6.2	0.00e+00	0	42	104	40877686784	77	19567
2026-01-20 21:35:04.56	334.61	4.65	-53.5	-55.7	6.2	0.00e+00	0	42	104	40877686784	77	19722
2026-01-20 21:35:05.53	334.70	4.58	-53.6	-55.7	6.2	0.00e+00	0	42	104	40877686784	77	19826
2026-01-20 21:35:06.50	334.79	4.52	-53.6	-55.8	6.2	0.00e+00	0	42	104	40877686784	77	19979
2026-01-20 21:35:07.46	334.88	4.45	-53.7	-55.8	6.2	0.00e+00	0	42	104	40877686784	77	19976
2026-01-20 21:35:08.43	334.97	4.38	-53.6	-55.8	6.2	0.00e+00	0	42	104	40877686784	77	19956
2026-01-20 21:35:09.40	335.06	4.32	-53.6	-55.7	6.2	0.00e+00	0	42	104	40877686784	77	19919
2026-01-20 21:35:10.36	335.14	4.25	-53.5	-55.7	6.2	0.00e+00	0	42	104	40877686784	77	19735
2026-01-20 21:35:11.33	335.23	4.19	-53.5	-55.6	6.2	0.00e+00	0	42	104	40877686784	77	19603
2026-01-20 21:35:12.30	335.31	4.12	-53.4	-55.5	6.2	0.00e+00	0	42	104	40877686784	77	19359
2026-01-20 21:35:13.27	335.40	4.05	-53.4	-55.5	6.2	0.00e+00	0	42	104	40877686784	77	19447
2026-01-20 21:35:14.23	335.48	3.99	-53.5	-55.6	6.2	0.00e+00	0	42	104	40877686784	77	19630
2026-01-20 21:35:15.19	335.57	3.92	-53.5	-55.7	6.2	0.00e+00	0	42	104	40877686784	77	19706
2026-01-20 21:35:16.16	335.65	3.86	-53.6	-55.7	6.2	0.00e+00	0	42	104	40877686784	77	19767
2026-01-20 21:35:17.13	335.74	3.79	-53.6	-55.7	6.2	0.00e+00	0	42	104	40877686784	77	19776
2026-01-20 21:35:18.10	335.82	3.73	-53.6	-55.7	6.2	0.00e+00	0	42	104	40877686784	77	19898
2026-01-20 21:35:19.07	335.90	3.66	-53.6	-55.7	6.2	0.00e+00	0	42	104	40877686784	77	19916
2026-01-20 21:35:20.04	335.99	3.60	-53.6	-55.8	6.2	0.00e+00	0	42	104	40877686784	77	19955
2026-01-20 21:35:21.01	336.07	3.54	-53.6	-55.8	6.2	0.00e+00	0	42	104	40877686784	77	19965
2026-01-20 21:35:21.97	336.15	3.47	-53.6	-55.8	6.2	0.00e+00	0	42	104	40877686784	77	19939
2026-01-20 21:35:22.94	336.23	3.41	-53.6	-55.7	6.2	0.00e+00	0	42	104	40877686784	77	19890
2026-01-20 21:35:23.91	336.31	3.34	-53.6	-55.7	6.2	0.00e+00	0	42	104	40877686784	77	19826
2026-01-20 21:35:24.87	336.39	3.28	-53.6	-55.7	6.2	0.00e+00	0	42	104	40877686784	77	19847
2026-01-20 21:35:25.84	336.47	3.22	-53.6	-55.7	6.2	0.00e+00	0	42	104	40877686784	77	19880
2026-01-20 21:35:26.81	336.55	3.15	-53.6	-55.7	6.2	0.00e+00	0	42	104	40877686784	77	19801
2026-01-20 21:35:27.78	336.63	3.09	-53.6	-55.7	6.2	0.00e+00	0	42	104	40877686784	77	19807
2026-01-20 21:35:28.75	336.71	3.03	-53.6	-55.7	6.2	0.00e+00	0	42	104	40877686784	77	19772
2026-01-20 21:35:29.72	336.79	2.96	-53.6	-55.7	6.2	0.00e+00	0	42	104	40877686784	77	19766
2026-01-20 21:35:30.68	336.86	2.90	-53.5	-55.7	6.2	0.00e+00	0	42	104	40877686784	77	19766
2026-01-20 21:35:31.65	336.94	2.84	-53.6	-55.7	6.2	0.00e+00	0	42	104	40877686784	77	19809
2026-01-20 21:35:32.61	337.02	2.78	-53.6	-55.7	6.2	0.00e+00	0	42	104	40877686784	77	19777
2026-01-20 21:35:33.58	337.10	2.71	-53.5	-55.7	6.2	0.00e+00	0	42	104	40877686784	77	19809
2026-01-20 21:35:34.55	337.17	2.65	-53.5	-55.7	6.2	0.00e+00	0	42	104	40877686784	77	19726
2026-01-20 21:35:35.51	337.25	2.59	-53.5	-55.7	6.2	0.00e+00	0	42	104	40877686784	77	19778
2026-01-20 21:35:36.48	337.32	2.53	-53.5	-55.7	6.2	0.00e+00	0	42	104	40877686784	77	19775
2026-01-20 21:35:37.45	337.40	2.47	-53.5	-55.7	6.2	0.00e+00	0	42	104	40877686784	77	19718
2026-01-20 21:35:38.41	337.47	2.40	-53.5	-55.7	6.2	0.00e+00	0	42	104	40877686784	77	19764
2026-01-20 21:35:39.38	337.55	2.34	-53.5	-55.6	6.2	0.00e+00	0	42	104	40877686784	77	19650
2026-01-20 21:35:40.34	337.62	2.28	-53.5	-55.6	6.2	0.00e+00	0	42	104	40877686784	77	19656
2026-01-20 21:35:41.31	337.70	2.22	-53.5	-55.7	6.2	0.00e+00	0	42	104	40877686784	77	19721
2026-01-20 21:35:42.27	337.77	2.16	-53.5	-55.6	6.2	0.00e+00	0	42	104	40877686784	77	19680
2026-01-20 21:35:43.24	337.84	2.10	-53.5	-55.6	6.2	0.00e+00	0	42	104	40877686784	77	19690
2026-01-20 21:35:44.21	337.92	2.04	-53.5	-55.7	6.2	0.00e+00	0	42	104	40877686784	77	19718
2026-01-20 21:35:45.17	337.99	1.98	-53.5	-55.6	6.2	0.00e+00	0	42	104	40877686784	77	19657
2026-01-20 21:35:46.14	338.06	1.92	-53.5	-55.7	6.2	0.00e+00	0	42	104	40877686784	77	19736

#Closed at: 2026-01-20 21:35:46
#Recorded file [40877 MB]: D:/lorett/data/31041_260121_002532.dat