passes_logs/2026/01/20/R3.2S_Murmansk/R3.2S_Murmansk__20260120_011752_SUOMI_NPP_rec.log

#Pass ID: 20260120_011752_SUOMI NPP
#Satellite: SUOMI NPP
#Configuration: NPP
#almurnet v.1.7.20251203
#Start time: 2026-01-20 01:17:54

#Version: 2.2.20231116
#Station: R3.2S_Murmansk
#Location: 33.079688 lon 68.888172 lat
#TLE: 1 37849U 11061A   26019.26265094  .00000081  00000+0  59609-4 0  9993
#TLE: 2 37849  98.7817 321.2746 0002356  56.2510 303.8890 14.19526363737315

#Time	Az	El	Level	Level2	SNR	BER	BlckErr	Temp	State	Recorded	gain1	gain2
2026-01-20 01:17:54.13	26.75	2.09	-51.0	-65.9	3.8	1.49e+00	0	37	0	0	74	18992
2026-01-20 01:17:55.14	26.74	2.16	-51.0	-66.0	3.8	1.49e+00	0	37	104	0	72	21507
2026-01-20 01:17:56.15	26.73	2.22	-51.0	-65.9	3.8	1.49e+00	0	37	104	0	72	21481
2026-01-20 01:17:57.16	26.72	2.29	-51.0	-65.9	3.8	1.49e+00	0	37	104	0	72	21461
2026-01-20 01:17:58.16	26.71	2.35	-51.0	-65.9	3.8	1.49e+00	0	37	104	0	72	21387
2026-01-20 01:17:59.17	26.70	2.42	-51.0	-65.9	3.8	1.49e+00	0	37	104	0	72	21354
2026-01-20 01:18:00.17	26.69	2.48	-51.0	-65.9	3.8	1.49e+00	0	37	104	0	72	21261
2026-01-20 01:18:01.19	26.68	2.55	-51.0	-65.8	3.8	1.49e+00	0	37	104	0	72	21101
2026-01-20 01:18:02.19	26.67	2.61	-51.0	-65.7	3.8	1.49e+00	0	37	104	0	72	21010
2026-01-20 01:18:03.20	26.66	2.68	-51.0	-65.7	3.8	1.49e+00	0	37	104	0	72	20843
2026-01-20 01:18:04.21	26.65	2.75	-51.0	-65.5	3.8	1.49e+00	0	37	104	0	72	20487
2026-01-20 01:18:05.22	26.64	2.81	-51.0	-65.7	3.8	1.49e+00	0	37	104	0	72	20898
2026-01-20 01:18:06.23	26.63	2.88	-51.0	-65.7	3.8	1.49e+00	0	37	104	0	72	20838
2026-01-20 01:18:07.23	26.62	2.94	-51.0	-65.5	3.8	1.49e+00	0	37	104	0	72	20452
2026-01-20 01:18:08.24	26.60	3.01	-51.0	-65.3	3.8	1.49e+00	0	37	104	0	72	20060
2026-01-20 01:18:09.25	26.59	3.08	-50.9	-64.7	3.8	1.49e+00	0	37	104	0	72	18557
2026-01-20 01:18:10.26	26.58	3.14	-50.9	-63.8	3.8	1.49e+00	0	37	104	0	72	16753
2026-01-20 01:18:11.27	26.57	3.21	-50.8	-62.2	4.2	1.45e+00	0	38	0	0	72	14036
2026-01-20 01:18:12.27	26.56	3.28	-50.6	-60.6	4.9	8.23e-01	0	37	0	1048576	72	11590
2026-01-20 01:18:13.28	26.55	3.34	-50.5	-59.3	5.7	5.68e-01	0	37	0	3145728	72	9974
2026-01-20 01:18:14.29	26.54	3.41	-50.1	-57.4	7.2	2.09e-01	0	37	0	5242880	72	8035
2026-01-20 01:18:15.30	26.53	3.48	-49.9	-56.4	8.2	1.49e-01	0	37	0	6291456	71	7544
2026-01-20 01:18:16.31	26.51	3.55	-49.7	-55.5	9.1	2.95e-02	0	37	0	8388608	71	6851
2026-01-20 01:18:17.31	26.50	3.61	-49.6	-55.3	9.4	1.75e-02	0	37	0	10485760	71	6665
2026-01-20 01:18:18.32	26.49	3.68	-49.2	-54.0	10.7	7.52e-03	0	37	0	12582912	70	6095
2026-01-20 01:18:19.33	26.48	3.75	-48.8	-53.1	11.6	1.67e-03	0	38	0	14680064	69	5799
2026-01-20 01:18:20.34	26.47	3.82	-48.5	-52.5	12.3	7.25e-04	0	38	0	15728640	69	5408
2026-01-20 01:18:21.35	26.45	3.89	-48.4	-52.2	12.5	1.36e-04	0	38	0	17825792	68	5583
2026-01-20 01:18:22.35	26.44	3.96	-48.5	-52.5	12.2	4.95e-05	0	38	0	19922944	67	6071
2026-01-20 01:18:23.36	26.43	4.03	-48.7	-53.1	11.6	1.52e-04	0	38	0	22020096	67	6508
2026-01-20 01:18:24.37	26.42	4.09	-49.2	-54.2	10.5	3.01e-03	0	37	0	24117248	69	6587
2026-01-20 01:18:25.38	26.41	4.16	-49.4	-54.8	9.9	5.17e-03	0	38	0	25165824	69	7083
2026-01-20 01:18:26.39	26.39	4.23	-49.9	-56.2	8.5	2.32e-02	0	38	0	27262976	70	7858
2026-01-20 01:18:27.39	26.38	4.30	-50.1	-57.2	7.5	8.35e-02	0	37	0	29360128	70	8801
2026-01-20 01:18:28.40	26.37	4.37	-50.2	-57.4	7.3	1.17e-01	0	38	0	31457280	70	8975
2026-01-20 01:18:29.41	26.36	4.44	-50.2	-57.6	7.1	1.44e-01	0	38	0	33554432	71	8681
2026-01-20 01:18:30.42	26.34	4.51	-50.1	-57.1	7.6	9.50e-02	0	38	0	34603008	71	8186
2026-01-20 01:18:31.43	26.33	4.58	-50.3	-58.0	6.8	1.30e-01	0	38	0	36700160	71	9094
2026-01-20 01:18:32.44	26.32	4.65	-50.6	-60.2	5.2	4.28e-01	0	38	0	38797312	71	11687
2026-01-20 01:18:33.44	26.31	4.72	-50.7	-61.6	4.4	9.65e-01	143	38	0	40894464	72	13076
2026-01-20 01:18:34.45	26.29	4.79	-50.7	-61.2	4.6	1.01e+00	0	38	0	42991616	72	12419
2026-01-20 01:18:35.46	26.28	4.87	-50.6	-60.1	5.1	6.88e-01	0	38	0	44040192	72	10965
2026-01-20 01:18:36.47	26.27	4.94	-50.7	-61.1	4.6	8.30e-01	0	38	0	46137344	72	12252
2026-01-20 01:18:37.47	26.25	5.01	-50.8	-63.0	4.0	1.22e+00	0	38	0	47185920	72	15359
2026-01-20 01:18:38.48	26.24	5.08	-50.9	-63.8	3.8	1.48e+00	0	38	104	47185920	72	16801
2026-01-20 01:18:39.49	26.23	5.15	-51.0	-61.7	4.5	1.34e+00	11	38	0	47185920	72	13129
2026-01-20 01:18:40.50	26.21	5.22	-51.1	-62.2	4.3	1.36e+00	118	38	0	48234496	73	13233
2026-01-20 01:18:41.51	26.20	5.30	-51.4	-62.3	4.0	1.46e+00	0	38	104	48234496	73	13353
2026-01-20 01:18:42.51	26.19	5.37	-51.4	-62.2	4.6	1.40e-01	1	38	0	48234496	73	13143
2026-01-20 01:18:43.52	26.17	5.44	-51.3	-63.5	3.9	1.49e+00	0	38	104	48234496	73	15272
2026-01-20 01:18:44.53	26.16	5.51	-50.7	-56.6	9.0	4.78e-02	0	38	0	48234496	73	6939
2026-01-20 01:18:45.54	26.14	5.59	-50.0	-54.4	11.4	4.04e-03	0	38	0	50331648	72	5707
2026-01-20 01:18:46.55	26.13	5.66	-49.1	-52.4	13.7	7.70e-05	0	38	0	52428800	70	5065
2026-01-20 01:18:47.56	26.12	5.73	-48.9	-52.0	14.2	1.50e-06	0	38	0	53477376	69	5159
2026-01-20 01:18:48.56	26.10	5.81	-48.8	-51.9	14.3	7.00e-07	0	38	0	55574528	69	5060
2026-01-20 01:18:49.57	26.09	5.88	-48.6	-51.4	14.8	0.00e+00	0	38	0	57671680	69	4800
2026-01-20 01:18:50.57	26.07	5.95	-48.9	-51.9	14.4	0.00e+00	0	38	0	59768832	69	5072
2026-01-20 01:18:51.58	26.06	6.03	-48.6	-51.5	14.7	0.00e+00	0	38	0	61865984	69	4851
2026-01-20 01:18:52.59	26.04	6.10	-48.7	-51.6	14.7	0.00e+00	0	38	0	62914560	69	4893
2026-01-20 01:18:53.60	26.03	6.18	-48.7	-51.7	14.6	0.00e+00	0	38	0	65011712	69	4928
2026-01-20 01:18:54.61	26.01	6.25	-48.4	-51.0	15.3	0.00e+00	0	38	0	67108864	68	4858
2026-01-20 01:18:55.62	26.00	6.33	-48.3	-50.9	15.4	0.00e+00	0	38	0	69206016	68	4803
2026-01-20 01:18:56.62	25.98	6.40	-48.3	-50.9	15.4	0.00e+00	0	38	0	71303168	68	4804
2026-01-20 01:18:57.63	25.97	6.48	-48.1	-50.6	15.8	0.00e+00	0	38	0	73400320	68	4620
2026-01-20 01:18:58.64	25.95	6.55	-48.1	-50.6	15.7	0.00e+00	0	38	0	74448896	68	4633
2026-01-20 01:18:59.64	25.94	6.63	-48.0	-50.5	15.8	7.00e-07	0	38	0	76546048	67	4816
2026-01-20 01:19:00.65	25.92	6.71	-47.9	-50.3	16.0	0.00e+00	0	38	0	78643200	67	4731
2026-01-20 01:19:01.66	25.91	6.78	-48.1	-50.6	15.7	0.00e+00	0	38	0	80740352	67	4873
2026-01-20 01:19:02.67	25.89	6.86	-47.7	-50.0	16.3	0.00e+00	0	38	0	81788928	67	4585
2026-01-20 01:19:03.67	25.88	6.94	-48.2	-50.9	15.5	0.00e+00	0	38	0	83886080	67	5044
2026-01-20 01:19:04.68	25.86	7.01	-48.1	-50.6	15.7	0.00e+00	0	38	0	85983232	67	4889
2026-01-20 01:19:05.69	25.84	7.09	-47.9	-50.3	16.0	0.00e+00	0	38	0	88080384	67	4715
2026-01-20 01:19:06.69	25.83	7.17	-48.0	-50.4	15.9	0.00e+00	0	38	0	90177536	67	4814
2026-01-20 01:19:07.70	25.81	7.24	-47.9	-50.3	16.0	0.00e+00	0	38	0	91226112	67	4726
2026-01-20 01:19:08.71	25.80	7.32	-47.8	-50.2	16.2	0.00e+00	0	38	0	93323264	67	4663
2026-01-20 01:19:09.72	25.78	7.40	-47.9	-50.2	16.1	0.00e+00	0	38	0	95420416	67	4686
2026-01-20 01:19:10.73	25.76	7.48	-47.6	-49.8	16.5	0.00e+00	0	38	0	97517568	67	4480
2026-01-20 01:19:11.73	25.75	7.56	-47.9	-50.3	16.1	0.00e+00	0	38	0	99614720	67	4749
2026-01-20 01:19:12.74	25.73	7.64	-47.8	-50.1	16.3	0.00e+00	0	38	0	101711872	67	4634
2026-01-20 01:19:13.75	25.71	7.72	-47.7	-50.1	16.3	0.00e+00	0	38	0	102760448	67	4603
2026-01-20 01:19:14.76	25.70	7.80	-47.7	-50.0	16.4	0.00e+00	0	38	0	104857600	67	4554
2026-01-20 01:19:15.77	25.68	7.88	-47.8	-50.1	16.3	0.00e+00	0	38	0	106954752	67	4625
2026-01-20 01:19:16.78	25.66	7.96	-47.8	-50.1	16.2	0.00e+00	0	38	0	109051904	67	4644
2026-01-20 01:19:17.78	25.65	8.03	-47.8	-50.1	16.4	0.00e+00	0	38	0	110100480	67	4613
2026-01-20 01:19:18.79	25.63	8.12	-47.6	-49.9	16.5	0.00e+00	0	38	0	112197632	67	4510
2026-01-20 01:19:19.79	25.61	8.20	-47.8	-50.2	16.3	0.00e+00	0	38	0	114294784	67	4652
2026-01-20 01:19:20.80	25.59	8.28	-47.7	-49.9	16.5	0.00e+00	0	38	0	116391936	67	4538
2026-01-20 01:19:21.81	25.57	8.36	-47.8	-50.1	16.3	0.00e+00	0	38	0	118489088	67	4651
2026-01-20 01:19:22.82	25.56	8.44	-47.9	-50.2	16.3	0.00e+00	0	38	0	119537664	67	4670
2026-01-20 01:19:23.83	25.54	8.52	-47.7	-50.0	16.5	0.00e+00	0	38	0	121634816	67	4557
2026-01-20 01:19:24.83	25.52	8.60	-47.6	-49.8	16.6	0.00e+00	0	38	0	123731968	67	4487
2026-01-20 01:19:25.84	25.50	8.68	-47.7	-50.0	16.5	0.00e+00	0	38	0	125829120	67	4566
2026-01-20 01:19:26.85	25.48	8.77	-47.9	-50.2	16.3	0.00e+00	0	38	0	127926272	67	4659
2026-01-20 01:19:27.86	25.47	8.85	-47.8	-50.1	16.4	0.00e+00	0	38	0	130023424	67	4606
2026-01-20 01:19:28.87	25.45	8.93	-47.8	-50.1	16.4	0.00e+00	0	38	0	131072000	67	4631
2026-01-20 01:19:29.88	25.43	9.02	-47.9	-50.2	16.3	0.00e+00	0	38	0	133169152	67	4658
2026-01-20 01:19:30.88	25.41	9.10	-47.9	-50.1	16.3	0.00e+00	0	38	0	135266304	67	4644
2026-01-20 01:19:31.89	25.39	9.18	-47.7	-49.9	16.6	0.00e+00	0	38	0	137363456	67	4501
2026-01-20 01:19:32.90	25.37	9.27	-47.6	-49.8	16.8	0.00e+00	0	38	0	138412032	67	4459
2026-01-20 01:19:33.91	25.35	9.35	-47.5	-49.6	16.9	0.00e+00	0	38	0	140509184	67	4358
2026-01-20 01:19:34.92	25.33	9.44	-47.6	-49.7	16.8	0.00e+00	0	38	0	142606336	66	4703
2026-01-20 01:19:35.93	25.31	9.52	-47.6	-49.8	16.7	0.00e+00	0	38	0	144703488	66	4730
2026-01-20 01:19:36.93	25.29	9.61	-47.6	-49.7	16.8	0.00e+00	0	38	0	146800640	66	4703
2026-01-20 01:19:37.94	25.27	9.69	-47.7	-49.9	16.7	0.00e+00	0	38	0	148897792	66	4763
2026-01-20 01:19:38.95	25.25	9.78	-47.6	-49.7	16.8	0.00e+00	0	38	0	149946368	66	4690
2026-01-20 01:19:39.95	25.23	9.86	-47.6	-49.8	16.8	0.00e+00	0	38	0	152043520	66	4726
2026-01-20 01:19:40.96	25.21	9.95	-47.2	-49.2	17.3	0.00e+00	0	38	0	154140672	66	4408
2026-01-20 01:19:41.97	25.19	10.04	-47.3	-49.3	17.2	0.00e+00	0	38	0	156237824	66	4464
2026-01-20 01:19:42.98	25.17	10.12	-47.4	-49.4	17.1	0.00e+00	0	38	0	158334976	66	4533
2026-01-20 01:19:43.99	25.15	10.21	-47.2	-49.1	17.4	0.00e+00	0	38	0	159383552	66	4389
2026-01-20 01:19:44.99	25.13	10.30	-47.1	-49.1	17.4	0.00e+00	0	38	0	161480704	66	4370
2026-01-20 01:19:46.00	25.11	10.39	-47.3	-49.3	17.3	0.00e+00	0	38	0	163577856	66	4456
2026-01-20 01:19:47.01	25.09	10.48	-47.1	-49.1	17.5	0.00e+00	0	38	0	165675008	66	4347
2026-01-20 01:19:48.02	25.07	10.56	-47.0	-48.9	17.7	0.00e+00	0	38	0	166723584	66	4255
2026-01-20 01:19:49.03	25.04	10.65	-47.0	-48.9	17.7	0.00e+00	0	38	0	168820736	65	4524
2026-01-20 01:19:50.03	25.02	10.74	-47.0	-48.9	17.7	0.00e+00	0	38	0	170917888	65	4515
2026-01-20 01:19:51.04	25.00	10.83	-47.0	-48.9	17.6	0.00e+00	0	38	0	173015040	65	4543
2026-01-20 01:19:52.05	24.98	10.92	-47.1	-49.0	17.5	0.00e+00	0	38	0	175112192	65	4595
2026-01-20 01:19:53.06	24.96	11.01	-46.9	-48.7	17.9	0.00e+00	0	38	0	177209344	65	4426
2026-01-20 01:19:54.07	24.94	11.10	-46.9	-48.8	17.8	0.00e+00	0	38	0	178257920	65	4453
2026-01-20 01:19:55.08	24.91	11.19	-47.0	-48.8	17.8	0.00e+00	0	38	0	180355072	65	4488
2026-01-20 01:19:56.09	24.89	11.29	-46.9	-48.8	17.8	0.00e+00	0	38	0	182452224	65	4452
2026-01-20 01:19:57.09	24.87	11.38	-46.9	-48.8	17.8	0.00e+00	0	38	0	184549376	65	4485
2026-01-20 01:19:58.10	24.84	11.47	-46.9	-48.7	17.9	0.00e+00	0	38	0	186646528	65	4427
2026-01-20 01:19:59.11	24.82	11.56	-46.8	-48.7	17.9	0.00e+00	0	38	0	187695104	65	4392
2026-01-20 01:20:00.11	24.80	11.65	-46.8	-48.7	17.9	0.00e+00	0	38	0	189792256	65	4407
2026-01-20 01:20:01.12	24.77	11.74	-46.7	-48.5	18.1	0.00e+00	0	38	0	191889408	65	4317
2026-01-20 01:20:02.13	24.75	11.84	-46.7	-48.5	18.1	0.00e+00	0	38	0	193986560	65	4319
2026-01-20 01:20:03.14	24.73	11.93	-46.8	-48.6	18.0	0.00e+00	0	38	0	196083712	65	4368
2026-01-20 01:20:04.15	24.70	12.03	-46.7	-48.5	18.1	0.00e+00	0	38	0	197132288	65	4312
2026-01-20 01:20:05.15	24.68	12.12	-46.7	-48.5	18.1	0.00e+00	0	38	0	199229440	65	4313
2026-01-20 01:20:06.16	24.65	12.21	-46.6	-48.4	18.2	0.00e+00	0	38	0	201326592	65	4262
2026-01-20 01:20:07.17	24.63	12.31	-46.7	-48.4	18.2	0.00e+00	0	38	0	203423744	65	4283
2026-01-20 01:20:08.18	24.60	12.41	-46.5	-48.3	18.4	0.00e+00	0	39	0	205520896	65	4198
2026-01-20 01:20:09.19	24.58	12.50	-46.5	-48.2	18.4	0.00e+00	0	39	0	206569472	65	4185
2026-01-20 01:20:10.19	24.56	12.60	-46.6	-48.3	18.3	0.00e+00	0	38	0	208666624	64	4467
2026-01-20 01:20:11.20	24.53	12.69	-46.6	-48.4	18.3	0.00e+00	0	38	0	210763776	64	4496
2026-01-20 01:20:12.21	24.50	12.79	-46.4	-48.1	18.5	0.00e+00	0	38	0	212860928	64	4352
2026-01-20 01:20:13.22	24.48	12.89	-46.4	-48.0	18.6	0.00e+00	0	38	0	214958080	64	4336
2026-01-20 01:20:14.23	24.45	12.99	-46.3	-48.0	18.7	0.00e+00	0	38	0	217055232	64	4308
2026-01-20 01:20:15.24	24.43	13.08	-46.4	-48.0	18.6	0.00e+00	0	38	0	218103808	64	4334
2026-01-20 01:20:16.24	24.40	13.18	-46.4	-48.1	18.6	0.00e+00	0	39	0	220200960	64	4364
2026-01-20 01:20:17.25	24.37	13.28	-46.3	-48.0	18.7	0.00e+00	0	38	0	222298112	64	4302
2026-01-20 01:20:18.26	24.35	13.38	-46.1	-47.8	18.8	0.00e+00	0	38	0	224395264	64	4200
2026-01-20 01:20:19.27	24.32	13.48	-46.2	-47.9	18.8	0.00e+00	0	38	0	225443840	64	4247
2026-01-20 01:20:20.27	24.29	13.58	-46.4	-48.0	18.7	0.00e+00	0	38	0	227540992	64	4326
2026-01-20 01:20:21.28	24.27	13.68	-46.3	-47.9	18.8	0.00e+00	0	39	0	229638144	64	4260
2026-01-20 01:20:22.29	24.24	13.78	-46.3	-47.9	18.7	0.00e+00	0	38	0	231735296	64	4267
2026-01-20 01:20:23.30	24.21	13.88	-46.4	-48.1	18.6	0.00e+00	0	38	0	233832448	64	4342
2026-01-20 01:20:24.31	24.18	13.98	-46.2	-47.9	18.8	0.00e+00	0	38	0	234881024	64	4254
2026-01-20 01:20:25.31	24.15	14.08	-46.1	-47.7	19.0	0.00e+00	0	38	0	236978176	64	4148
2026-01-20 01:20:26.32	24.13	14.19	-46.1	-47.7	19.0	0.00e+00	0	38	0	239075328	64	4173
2026-01-20 01:20:27.33	24.10	14.29	-46.1	-47.6	19.0	0.00e+00	0	38	0	241172480	64	4135
2026-01-20 01:20:28.34	24.07	14.39	-46.1	-47.7	19.1	0.00e+00	0	38	0	243269632	63	4403
2026-01-20 01:20:29.35	24.04	14.50	-45.9	-47.4	19.3	0.00e+00	0	38	0	245366784	63	4291
2026-01-20 01:20:30.36	24.01	14.60	-46.0	-47.5	19.2	0.00e+00	0	38	0	246415360	63	4314
2026-01-20 01:20:31.36	23.98	14.70	-46.0	-47.5	19.2	0.00e+00	0	38	0	248512512	63	4326
2026-01-20 01:20:32.37	23.95	14.81	-45.9	-47.4	19.3	0.00e+00	0	38	0	250609664	63	4277
2026-01-20 01:20:33.38	23.92	14.92	-45.8	-47.3	19.3	0.00e+00	0	38	0	252706816	63	4219
2026-01-20 01:20:34.38	23.89	15.02	-45.8	-47.3	19.4	0.00e+00	0	38	0	253755392	63	4209
2026-01-20 01:20:35.39	23.86	15.13	-45.9	-47.4	19.3	0.00e+00	0	38	0	255852544	63	4277
2026-01-20 01:20:36.40	23.83	15.23	-46.0	-47.5	19.3	0.00e+00	0	38	0	257949696	63	4305
2026-01-20 01:20:37.41	23.80	15.34	-45.7	-47.2	19.6	0.00e+00	0	38	0	260046848	63	4154
2026-01-20 01:20:38.42	23.77	15.45	-45.6	-47.1	19.7	0.00e+00	0	38	0	262144000	63	4106
2026-01-20 01:20:39.43	23.73	15.56	-45.7	-47.1	19.7	0.00e+00	0	39	0	264241152	63	4126
2026-01-20 01:20:40.43	23.70	15.67	-45.7	-47.1	19.6	0.00e+00	0	38	0	265289728	63	4134
2026-01-20 01:20:41.44	23.67	15.78	-45.5	-46.9	19.8	0.00e+00	0	38	0	267386880	63	4051
2026-01-20 01:20:42.45	23.64	15.89	-45.4	-46.8	19.9	0.00e+00	0	38	0	269484032	62	4213
2026-01-20 01:20:43.45	23.61	15.99	-45.6	-47.1	19.7	0.00e+00	0	38	0	271581184	62	4342
2026-01-20 01:20:44.46	23.57	16.11	-45.5	-47.0	19.8	0.00e+00	0	38	0	273678336	62	4299
2026-01-20 01:20:45.47	23.54	16.22	-45.4	-46.8	19.9	0.00e+00	0	38	0	274726912	62	4232
2026-01-20 01:20:46.48	23.51	16.33	-45.5	-46.8	19.9	0.00e+00	0	39	0	276824064	62	4236
2026-01-20 01:20:47.49	23.47	16.44	-45.5	-47.0	19.8	0.00e+00	0	38	0	278921216	62	4301
2026-01-20 01:20:48.49	23.44	16.55	-45.5	-46.9	19.8	0.00e+00	0	38	0	281018368	62	4281
2026-01-20 01:20:49.50	23.40	16.67	-45.5	-46.9	19.8	0.00e+00	0	38	0	282066944	62	4273
2026-01-20 01:20:50.51	23.37	16.78	-45.5	-46.9	19.9	0.00e+00	0	38	0	284164096	62	4243
2026-01-20 01:20:51.52	23.33	16.89	-45.4	-46.8	20.0	0.00e+00	0	38	0	286261248	62	4228
2026-01-20 01:20:52.53	23.30	17.01	-45.5	-46.9	19.9	0.00e+00	0	38	0	288358400	62	4258
2026-01-20 01:20:53.54	23.26	17.12	-45.5	-46.9	19.8	0.00e+00	0	38	0	290455552	62	4282
2026-01-20 01:20:54.54	23.23	17.24	-45.5	-46.9	19.9	0.00e+00	0	38	0	292552704	62	4267
2026-01-20 01:20:55.55	23.19	17.36	-45.6	-47.0	19.8	0.00e+00	0	38	0	293601280	62	4318
2026-01-20 01:20:56.56	23.16	17.47	-45.5	-47.0	19.9	0.00e+00	0	38	0	295698432	62	4299
2026-01-20 01:20:57.57	23.12	17.59	-45.7	-47.1	19.7	0.00e+00	0	38	0	297795584	62	4368
2026-01-20 01:20:58.57	23.08	17.71	-45.5	-46.9	19.9	0.00e+00	0	39	0	299892736	62	4256
2026-01-20 01:20:59.58	23.04	17.83	-45.6	-47.1	19.8	0.00e+00	0	39	0	301989888	62	4354
2026-01-20 01:21:00.59	23.01	17.95	-45.6	-47.1	19.8	0.00e+00	0	38	0	303038464	62	4346
2026-01-20 01:21:01.60	22.97	18.07	-45.6	-47.0	19.9	0.00e+00	0	39	0	305135616	62	4306
2026-01-20 01:21:02.60	22.93	18.18	-45.7	-47.1	19.7	0.00e+00	0	38	0	307232768	62	4390
2026-01-20 01:21:03.61	22.89	18.31	-45.6	-47.0	19.8	0.00e+00	0	38	0	309329920	62	4333
2026-01-20 01:21:04.62	22.85	18.43	-45.5	-46.9	19.9	0.00e+00	0	38	0	310378496	62	4277
2026-01-20 01:21:05.63	22.81	18.55	-45.7	-47.1	19.7	0.00e+00	0	38	0	312475648	62	4375
2026-01-20 01:21:06.63	22.77	18.67	-45.6	-46.9	19.9	0.00e+00	0	38	0	314572800	62	4284
2026-01-20 01:21:07.64	22.73	18.79	-45.6	-47.0	19.9	0.00e+00	0	39	0	316669952	62	4316
2026-01-20 01:21:08.65	22.69	18.92	-45.7	-47.1	19.8	0.00e+00	0	38	0	318767104	62	4360
2026-01-20 01:21:09.66	22.65	19.04	-45.5	-46.9	19.9	0.00e+00	0	38	0	320864256	62	4273
2026-01-20 01:21:10.67	22.61	19.17	-45.6	-47.0	19.9	0.00e+00	0	39	0	321912832	62	4297
2026-01-20 01:21:11.67	22.57	19.29	-45.6	-46.9	19.9	0.00e+00	0	39	0	324009984	62	4288
2026-01-20 01:21:12.68	22.53	19.42	-45.5	-46.9	19.9	0.00e+00	0	38	0	326107136	62	4276
2026-01-20 01:21:13.69	22.49	19.55	-45.6	-47.0	19.9	0.00e+00	0	38	0	328204288	62	4294
2026-01-20 01:21:14.70	22.44	19.67	-45.4	-46.8	20.1	0.00e+00	0	39	0	330301440	62	4225
2026-01-20 01:21:15.71	22.40	19.80	-45.7	-47.1	19.8	0.00e+00	0	39	0	331350016	62	4355
2026-01-20 01:21:16.72	22.36	19.93	-45.4	-46.8	20.1	0.00e+00	0	39	0	333447168	62	4217
2026-01-20 01:21:17.72	22.31	20.06	-45.5	-46.9	20.0	0.00e+00	0	39	0	335544320	62	4256
2026-01-20 01:21:18.73	22.27	20.19	-45.4	-46.7	20.2	0.00e+00	0	38	0	337641472	62	4174
2026-01-20 01:21:19.73	22.22	20.32	-45.4	-46.7	20.1	0.00e+00	0	38	0	339738624	62	4182
2026-01-20 01:21:20.74	22.18	20.45	-45.4	-46.7	20.2	0.00e+00	0	38	0	340787200	62	4193
2026-01-20 01:21:21.75	22.13	20.58	-45.5	-46.8	20.1	0.00e+00	0	38	0	342884352	62	4236
2026-01-20 01:21:22.76	22.09	20.72	-45.2	-46.5	20.4	0.00e+00	0	38	0	344981504	62	4084
2026-01-20 01:21:23.76	22.04	20.85	-45.3	-46.7	20.2	0.00e+00	0	39	0	347078656	62	4148
2026-01-20 01:21:24.77	21.99	20.98	-45.3	-46.6	20.2	0.00e+00	0	39	0	349175808	62	4140
2026-01-20 01:21:25.78	21.95	21.12	-45.5	-46.8	20.1	0.00e+00	0	39	0	350224384	62	4231
2026-01-20 01:21:26.79	21.90	21.25	-45.3	-46.6	20.3	0.00e+00	0	39	0	352321536	62	4106
2026-01-20 01:21:27.79	21.85	21.39	-45.3	-46.5	20.3	0.00e+00	0	39	0	354418688	62	4095
2026-01-20 01:21:28.80	21.80	21.53	-45.5	-46.8	20.1	0.00e+00	0	38	0	356515840	62	4227
2026-01-20 01:21:29.81	21.75	21.66	-45.5	-46.8	20.1	0.00e+00	0	38	0	358612992	62	4211
2026-01-20 01:21:30.82	21.70	21.80	-45.3	-46.6	20.3	0.00e+00	0	38	0	359661568	62	4132
2026-01-20 01:21:31.83	21.65	21.94	-45.6	-46.9	20.0	0.00e+00	0	39	0	361758720	62	4281
2026-01-20 01:21:32.84	21.60	22.08	-45.5	-46.8	20.1	0.00e+00	0	38	0	363855872	62	4238
2026-01-20 01:21:33.84	21.55	22.22	-45.6	-47.0	19.9	0.00e+00	0	39	0	365953024	62	4321
2026-01-20 01:21:34.85	21.50	22.36	-45.7	-47.2	19.8	0.00e+00	0	38	0	368050176	62	4394
2026-01-20 01:21:35.86	21.45	22.50	-45.5	-46.8	20.1	0.00e+00	0	38	0	369098752	62	4237
2026-01-20 01:21:36.87	21.40	22.65	-45.8	-47.2	19.7	0.00e+00	0	38	0	371195904	62	4434
2026-01-20 01:21:37.88	21.34	22.79	-45.8	-47.3	19.7	0.00e+00	0	38	0	373293056	62	4446
2026-01-20 01:21:38.88	21.29	22.93	-45.9	-47.3	19.7	0.00e+00	0	38	0	375390208	62	4476
2026-01-20 01:21:39.89	21.24	23.08	-45.7	-47.2	19.8	0.00e+00	0	39	0	377487360	62	4396
2026-01-20 01:21:40.90	21.18	23.23	-45.7	-47.1	20.0	0.00e+00	0	39	0	378535936	62	4355
2026-01-20 01:21:41.91	21.13	23.37	-45.7	-47.1	19.9	0.00e+00	0	39	0	380633088	62	4352
2026-01-20 01:21:42.91	21.07	23.52	-45.6	-46.9	20.0	0.00e+00	0	38	0	382730240	62	4288
2026-01-20 01:21:43.93	21.01	23.67	-45.3	-46.7	20.3	0.00e+00	0	39	0	384827392	62	4151
2026-01-20 01:21:44.94	20.96	23.82	-45.7	-47.1	19.9	0.00e+00	0	39	0	386924544	62	4343
2026-01-20 01:21:45.94	20.90	23.97	-45.4	-46.8	20.1	0.00e+00	0	39	0	387973120	62	4219
2026-01-20 01:21:46.95	20.84	24.12	-45.5	-46.9	20.1	0.00e+00	0	39	0	390070272	62	4248
2026-01-20 01:21:47.96	20.78	24.27	-45.6	-47.0	20.0	0.00e+00	0	38	0	392167424	62	4331
2026-01-20 01:21:48.97	20.72	24.42	-45.6	-46.9	20.0	0.00e+00	0	38	0	394264576	62	4279
2026-01-20 01:21:49.97	20.66	24.58	-45.8	-47.2	19.8	0.00e+00	0	38	0	396361728	62	4416
2026-01-20 01:21:50.98	20.60	24.73	-46.0	-47.5	19.6	0.00e+00	0	38	0	397410304	62	4546
2026-01-20 01:21:51.99	20.54	24.89	-45.8	-47.2	19.8	0.00e+00	0	39	0	399507456	62	4403
2026-01-20 01:21:53.00	20.48	25.04	-46.3	-47.8	19.2	0.00e+00	0	38	0	401604608	63	4465
2026-01-20 01:21:54.00	20.42	25.20	-46.4	-47.9	19.1	0.00e+00	0	39	0	403701760	63	4527
2026-01-20 01:21:55.01	20.35	25.36	-46.5	-48.1	19.0	0.00e+00	0	38	0	405798912	63	4638
2026-01-20 01:21:56.02	20.29	25.52	-46.5	-48.1	18.9	0.00e+00	0	39	0	406847488	63	4651
2026-01-20 01:21:57.03	20.22	25.68	-46.3	-47.8	19.2	0.00e+00	0	38	0	408944640	63	4471
2026-01-20 01:21:58.03	20.16	25.83	-46.5	-48.0	19.1	0.00e+00	0	38	0	411041792	63	4594
2026-01-20 01:21:59.04	20.09	26.00	-46.4	-47.9	19.1	0.00e+00	0	38	0	413138944	64	4277
2026-01-20 01:22:00.05	20.03	26.16	-46.1	-47.6	19.4	0.00e+00	0	38	0	415236096	64	4118
2026-01-20 01:22:01.06	19.96	26.32	-46.4	-48.0	19.1	0.00e+00	0	38	0	416284672	64	4298
2026-01-20 01:22:02.06	19.89	26.49	-46.5	-48.1	19.0	0.00e+00	0	38	0	418381824	64	4348
2026-01-20 01:22:03.07	19.82	26.65	-46.6	-48.3	18.7	0.00e+00	0	39	0	420478976	64	4450
2026-01-20 01:22:04.08	19.75	26.82	-46.8	-48.5	18.6	0.00e+00	0	38	0	422576128	64	4556
2026-01-20 01:22:05.09	19.68	26.99	-46.8	-48.5	18.6	0.00e+00	0	38	0	424673280	64	4552
2026-01-20 01:22:06.09	19.61	27.15	-47.3	-49.1	18.1	0.00e+00	0	39	0	425721856	65	4603
2026-01-20 01:22:07.10	19.54	27.32	-47.3	-49.2	17.9	0.00e+00	0	38	0	427819008	65	4686
2026-01-20 01:22:08.11	19.47	27.49	-47.4	-49.2	17.9	0.00e+00	0	39	0	429916160	65	4696
2026-01-20 01:22:09.12	19.39	27.66	-47.7	-49.6	17.5	0.00e+00	0	39	0	432013312	66	4641
2026-01-20 01:22:10.13	19.32	27.84	-47.8	-49.8	17.4	0.00e+00	0	39	0	434110464	66	4732
2026-01-20 01:22:11.14	19.24	28.01	-47.6	-49.6	17.6	0.00e+00	0	39	0	436207616	66	4615
2026-01-20 01:22:12.14	19.17	28.18	-47.7	-49.7	17.5	0.00e+00	0	39	0	437256192	66	4671
2026-01-20 01:22:13.15	19.09	28.36	-47.4	-49.3	17.9	0.00e+00	0	39	0	439353344	66	4444
2026-01-20 01:22:14.16	19.01	28.53	-47.5	-49.4	17.8	0.00e+00	0	39	0	441450496	66	4526
2026-01-20 01:22:15.17	18.93	28.71	-47.6	-49.5	17.6	0.00e+00	0	39	0	443547648	66	4576
2026-01-20 01:22:16.17	18.85	28.89	-47.3	-49.1	18.0	0.00e+00	0	38	0	444596224	66	4369
2026-01-20 01:22:17.18	18.77	29.07	-47.4	-49.3	17.9	0.00e+00	0	38	0	446693376	66	4446
2026-01-20 01:22:18.19	18.69	29.25	-47.5	-49.4	17.8	0.00e+00	0	38	0	448790528	66	4503
2026-01-20 01:22:19.20	18.61	29.43	-47.7	-49.7	17.5	0.00e+00	0	39	0	450887680	66	4665
2026-01-20 01:22:20.21	18.53	29.62	-48.0	-50.1	17.2	0.00e+00	0	38	0	452984832	66	4873
2026-01-20 01:22:21.21	18.44	29.80	-48.0	-50.1	17.1	0.00e+00	0	39	0	454033408	66	4916
2026-01-20 01:22:22.22	18.36	29.98	-48.1	-50.2	17.0	0.00e+00	0	38	0	456130560	67	4687
2026-01-20 01:22:23.23	18.27	30.17	-48.0	-50.1	17.1	0.00e+00	0	39	0	458227712	67	4632
2026-01-20 01:22:24.23	18.18	30.36	-48.0	-50.2	17.0	0.00e+00	0	39	0	460324864	67	4687
2026-01-20 01:22:25.24	18.09	30.54	-48.0	-50.2	17.0	0.00e+00	0	39	0	462422016	67	4660
2026-01-20 01:22:26.25	18.00	30.73	-48.2	-50.4	16.8	0.00e+00	0	38	0	464519168	67	4787
2026-01-20 01:22:27.26	17.91	30.93	-48.0	-50.1	17.1	0.00e+00	0	39	0	465567744	67	4644
2026-01-20 01:22:28.27	17.82	31.12	-48.3	-50.5	16.7	0.00e+00	0	38	0	467664896	67	4854
2026-01-20 01:22:29.27	17.73	31.31	-48.1	-50.2	17.0	0.00e+00	0	39	0	469762048	67	4689
2026-01-20 01:22:30.28	17.63	31.50	-48.5	-50.7	16.5	0.00e+00	0	39	0	471859200	67	4961
2026-01-20 01:22:31.29	17.54	31.70	-48.4	-50.7	16.5	0.00e+00	0	39	0	472907776	67	4936
2026-01-20 01:22:32.30	17.44	31.90	-48.6	-50.9	16.5	0.00e+00	0	39	0	475004928	68	4795
2026-01-20 01:22:33.31	17.34	32.10	-48.8	-51.2	16.2	0.00e+00	0	38	0	477102080	68	4959
2026-01-20 01:22:34.31	17.24	32.29	-49.1	-51.7	15.6	0.00e+00	0	38	0	479199232	68	5252
2026-01-20 01:22:35.32	17.14	32.49	-48.8	-51.1	16.3	0.00e+00	0	39	0	481296384	68	4916
2026-01-20 01:22:36.33	17.04	32.70	-48.8	-51.2	16.1	0.00e+00	0	38	0	483393536	68	4967
2026-01-20 01:22:37.33	16.94	32.90	-48.6	-50.9	16.5	0.00e+00	0	39	0	484442112	68	4762
2026-01-20 01:22:38.34	16.83	33.10	-48.7	-51.0	16.3	0.00e+00	0	38	0	486539264	68	4840
2026-01-20 01:22:39.35	16.73	33.31	-48.7	-51.0	16.3	0.00e+00	0	39	0	488636416	68	4852
2026-01-20 01:22:40.36	16.62	33.52	-48.8	-51.3	16.0	0.00e+00	0	38	0	490733568	68	4996
2026-01-20 01:22:41.37	16.51	33.72	-49.0	-51.5	15.7	0.00e+00	0	39	0	492830720	68	5122
2026-01-20 01:22:42.37	16.40	33.93	-49.2	-51.9	15.3	0.00e+00	0	39	0	493879296	69	5097
2026-01-20 01:22:43.38	16.29	34.14	-49.3	-52.1	15.3	0.00e+00	0	39	0	495976448	69	5176
2026-01-20 01:22:44.39	16.18	34.35	-49.6	-52.5	14.8	0.00e+00	0	39	0	498073600	70	5127
2026-01-20 01:22:45.40	16.06	34.57	-49.3	-52.0	15.3	0.00e+00	0	39	0	500170752	70	4847
2026-01-20 01:22:46.41	15.94	34.78	-49.4	-52.2	15.1	0.00e+00	0	39	0	501219328	70	4946
2026-01-20 01:22:47.41	15.83	35.00	-49.0	-51.6	15.8	0.00e+00	0	39	0	503316480	69	4882
2026-01-20 01:22:48.42	15.71	35.22	-48.7	-51.1	16.2	0.00e+00	0	39	0	505413632	68	4912
2026-01-20 01:22:49.43	15.59	35.43	-48.5	-50.7	16.5	0.00e+00	0	39	0	507510784	68	4699
2026-01-20 01:22:50.43	15.46	35.65	-48.1	-50.2	16.9	0.00e+00	0	39	0	509607936	68	4425
2026-01-20 01:22:51.44	15.34	35.87	-48.7	-51.1	16.1	0.00e+00	0	38	0	511705088	67	5186
2026-01-20 01:22:52.45	15.21	36.10	-49.2	-51.8	15.5	0.00e+00	0	39	0	512753664	68	5337
2026-01-20 01:22:53.46	15.09	36.32	-49.2	-51.9	15.6	0.00e+00	0	39	0	514850816	69	5053
2026-01-20 01:22:54.47	14.95	36.55	-49.4	-52.2	15.2	0.00e+00	0	38	0	516947968	69	5219
2026-01-20 01:22:55.47	14.82	36.77	-49.7	-52.7	14.9	0.00e+00	0	38	0	519045120	69	5592
2026-01-20 01:22:56.48	14.69	37.00	-49.6	-52.6	14.7	0.00e+00	0	39	0	521142272	69	5472
2026-01-20 01:22:57.49	14.55	37.23	-49.3	-52.1	15.2	0.00e+00	0	39	0	522190848	69	5181
2026-01-20 01:22:58.50	14.42	37.46	-48.6	-50.9	16.3	0.00e+00	0	38	0	524288000	69	4534
2026-01-20 01:22:59.51	14.28	37.70	-48.5	-50.8	16.5	0.00e+00	0	39	0	526385152	68	4741
2026-01-20 01:23:00.51	14.14	37.93	-48.2	-50.3	16.9	0.00e+00	0	39	0	528482304	68	4465
2026-01-20 01:23:01.52	13.99	38.16	-48.0	-50.0	17.2	0.00e+00	0	39	0	529530880	67	4581
2026-01-20 01:23:02.53	13.85	38.40	-48.1	-50.3	17.0	0.00e+00	0	39	0	531628032	67	4710
2026-01-20 01:23:03.54	13.70	38.64	-48.4	-50.6	16.7	0.00e+00	0	39	0	533725184	67	4901
2026-01-20 01:23:04.55	13.55	38.88	-48.9	-51.4	16.0	0.00e+00	0	38	0	535822336	68	5058
2026-01-20 01:23:05.55	13.39	39.12	-49.0	-51.5	15.8	0.00e+00	0	39	0	537919488	68	5157
2026-01-20 01:23:06.56	13.24	39.36	-49.3	-52.1	15.2	0.00e+00	0	39	0	540016640	69	5163
2026-01-20 01:23:07.56	13.08	39.61	-49.4	-52.2	15.3	0.00e+00	0	39	0	541065216	69	5240
2026-01-20 01:23:08.57	12.92	39.85	-49.4	-52.2	15.2	0.00e+00	0	39	0	543162368	69	5238
2026-01-20 01:23:09.58	12.76	40.10	-49.4	-52.2	15.2	0.00e+00	0	39	0	545259520	69	5256
2026-01-20 01:23:10.59	12.60	40.35	-49.4	-52.3	15.1	0.00e+00	0	39	0	547356672	69	5304
2026-01-20 01:23:11.60	12.43	40.60	-49.8	-52.9	14.7	0.00e+00	0	39	0	549453824	70	5371
2026-01-20 01:23:12.61	12.26	40.85	-49.3	-52.0	15.5	7.00e-07	0	39	0	550502400	70	4836
2026-01-20 01:23:13.62	12.08	41.10	-48.8	-51.2	16.2	0.00e+00	0	39	0	552599552	69	4665
2026-01-20 01:23:14.63	11.91	41.36	-48.8	-51.2	16.2	0.00e+00	0	39	0	554696704	68	4982
2026-01-20 01:23:15.63	11.73	41.61	-48.3	-50.4	16.9	0.00e+00	0	39	0	556793856	68	4511
2026-01-20 01:23:16.64	11.55	41.87	-47.9	-49.9	17.4	0.00e+00	0	39	0	558891008	67	4529
2026-01-20 01:23:17.65	11.36	42.13	-48.0	-50.0	17.3	0.00e+00	0	39	0	559939584	67	4579
2026-01-20 01:23:18.66	11.18	42.39	-47.9	-50.0	17.3	0.00e+00	0	39	0	562036736	67	4548
2026-01-20 01:23:19.66	10.99	42.65	-48.1	-50.2	17.1	0.00e+00	0	39	0	564133888	67	4684
2026-01-20 01:23:20.67	10.79	42.92	-47.9	-50.0	17.2	0.00e+00	0	39	0	566231040	67	4568
2026-01-20 01:23:21.68	10.59	43.18	-47.9	-50.0	17.3	0.00e+00	0	39	0	568328192	67	4558
2026-01-20 01:23:22.69	10.39	43.45	-47.9	-50.0	17.2	0.00e+00	0	39	0	569376768	67	4598
2026-01-20 01:23:23.69	10.19	43.71	-47.8	-49.9	17.4	0.00e+00	0	39	0	571473920	67	4497
2026-01-20 01:23:24.70	9.98	43.98	-47.8	-49.8	17.4	0.00e+00	0	39	0	573571072	67	4491
2026-01-20 01:23:25.71	9.77	44.25	-47.4	-49.2	18.0	0.00e+00	0	39	0	575668224	66	4426
2026-01-20 01:23:26.72	9.56	44.53	-47.0	-48.8	18.5	0.00e+00	0	39	0	577765376	65	4447
2026-01-20 01:23:27.73	9.34	44.80	-47.0	-48.8	18.4	0.00e+00	0	39	0	578813952	65	4449
2026-01-20 01:23:28.73	9.12	45.07	-46.6	-48.2	18.9	0.00e+00	0	39	0	580911104	64	4437
2026-01-20 01:23:29.74	8.89	45.35	-46.9	-48.7	18.4	0.00e+00	0	39	0	583008256	64	4691
2026-01-20 01:23:30.75	8.66	45.63	-47.0	-48.9	18.3	0.00e+00	0	39	0	585105408	65	4507
2026-01-20 01:23:31.76	8.42	45.91	-47.9	-50.1	17.3	0.00e+00	0	39	0	587202560	66	4871
2026-01-20 01:23:32.76	8.19	46.19	-47.7	-49.8	17.5	0.00e+00	0	39	0	588251136	66	4755
2026-01-20 01:23:33.77	7.94	46.47	-47.5	-49.5	17.8	0.00e+00	0	38	0	590348288	66	4576
2026-01-20 01:23:34.78	7.70	46.75	-47.4	-49.3	18.0	0.00e+00	0	39	0	592445440	66	4461
2026-01-20 01:23:35.79	7.44	47.04	-46.8	-48.5	18.7	0.00e+00	0	39	0	594542592	65	4308
2026-01-20 01:23:36.80	7.19	47.32	-46.8	-48.5	18.8	0.00e+00	0	39	0	596639744	65	4296
2026-01-20 01:23:37.80	6.93	47.61	-47.2	-49.1	18.2	0.00e+00	0	39	0	597688320	65	4622
2026-01-20 01:23:38.81	6.66	47.90	-47.5	-49.4	17.9	0.00e+00	0	39	0	599785472	65	4785
2026-01-20 01:23:39.82	6.39	48.19	-47.9	-49.9	17.4	0.00e+00	0	39	0	601882624	66	4811
2026-01-20 01:23:40.82	6.11	48.48	-47.5	-49.4	17.8	0.00e+00	0	39	0	603979776	66	4514
2026-01-20 01:23:41.83	5.83	48.77	-46.8	-48.4	18.8	0.00e+00	0	38	0	606076928	65	4271
2026-01-20 01:23:42.84	5.54	49.06	-46.5	-48.0	19.2	0.00e+00	0	39	0	608174080	64	4304
2026-01-20 01:23:43.85	5.25	49.36	-46.4	-47.9	19.3	0.00e+00	0	39	0	609222656	64	4288
2026-01-20 01:23:44.86	4.95	49.65	-46.5	-48.1	19.1	0.00e+00	0	39	0	611319808	64	4354
2026-01-20 01:23:45.87	4.64	49.95	-46.3	-47.8	19.3	0.00e+00	0	38	0	613416960	64	4204
2026-01-20 01:23:46.87	4.33	50.24	-45.7	-47.0	20.2	0.00e+00	0	39	0	615514112	63	4078
2026-01-20 01:23:47.88	4.01	50.54	-45.7	-47.1	20.2	0.00e+00	0	39	0	616562688	63	4106
2026-01-20 01:23:48.89	3.69	50.84	-45.8	-47.3	20.2	0.00e+00	0	39	0	618659840	63	4198
2026-01-20 01:23:49.90	3.36	51.14	-45.7	-47.1	20.3	0.00e+00	0	39	0	620756992	63	4105
2026-01-20 01:23:50.91	3.02	51.45	-46.4	-47.9	19.5	0.00e+00	0	39	0	622854144	63	4514
2026-01-20 01:23:51.92	2.67	51.75	-46.7	-48.3	19.2	0.00e+00	0	39	0	624951296	63	4707
2026-01-20 01:23:52.92	2.32	52.05	-46.7	-48.3	19.0	0.00e+00	0	39	0	625999872	64	4471
2026-01-20 01:23:53.93	1.96	52.35	-46.4	-47.9	19.3	0.00e+00	0	39	0	628097024	64	4281
2026-01-20 01:23:54.94	1.60	52.66	-46.2	-47.6	19.6	0.00e+00	0	39	0	630194176	63	4383
2026-01-20 01:23:55.95	1.22	52.97	-46.4	-47.9	19.5	0.00e+00	0	39	0	632291328	63	4517
2026-01-20 01:23:56.95	0.84	53.27	-46.4	-47.9	19.4	0.00e+00	0	39	0	634388480	64	4279
2026-01-20 01:23:57.96	0.45	53.58	-47.3	-49.1	18.3	0.00e+00	0	39	0	636485632	65	4612
2026-01-20 01:23:58.97	0.05	53.88	-47.3	-49.0	18.3	0.00e+00	0	38	0	637534208	65	4593
2026-01-20 01:23:59.98	359.64	54.19	-46.7	-48.4	19.0	0.00e+00	0	38	0	639631360	65	4248
2026-01-20 01:24:00.99	359.23	54.50	-46.0	-47.4	19.8	0.00e+00	0	39	0	641728512	63	4275
2026-01-20 01:24:01.99	358.81	54.80	-46.2	-47.6	19.6	0.00e+00	0	39	0	643825664	63	4376
2026-01-20 01:24:03.00	358.37	55.11	-46.7	-48.4	18.9	0.00e+00	0	39	0	644874240	64	4497
2026-01-20 01:24:04.01	357.92	55.42	-47.6	-49.6	17.8	0.00e+00	0	39	0	646971392	65	4885
2026-01-20 01:24:05.02	357.47	55.73	-47.7	-49.7	17.7	0.00e+00	0	38	0	649068544	66	4658
2026-01-20 01:24:06.03	357.00	56.04	-47.5	-49.4	18.1	0.00e+00	0	39	0	651165696	66	4503
2026-01-20 01:24:07.03	356.53	56.34	-47.6	-49.5	17.9	0.00e+00	0	39	0	653262848	66	4567
2026-01-20 01:24:08.04	356.05	56.65	-48.4	-50.5	16.9	0.00e+00	0	39	0	655360000	67	4868
2026-01-20 01:24:09.05	355.55	56.96	-49.0	-51.5	16.1	0.00e+00	0	39	0	656408576	68	5148
2026-01-20 01:24:10.06	355.04	57.27	-49.3	-52.0	15.6	0.00e+00	0	38	0	658505728	69	5139
2026-01-20 01:24:11.07	354.52	57.57	-49.0	-51.4	16.1	0.00e+00	0	38	0	660602880	69	4803
2026-01-20 01:24:12.07	353.99	57.88	-48.6	-50.9	16.7	0.00e+00	0	39	0	662700032	69	4498
2026-01-20 01:24:13.08	353.45	58.18	-47.7	-49.5	17.9	0.00e+00	0	39	0	664797184	67	4337
2026-01-20 01:24:14.09	352.89	58.48	-47.3	-49.0	18.3	0.00e+00	0	39	0	665845760	66	4322
2026-01-20 01:24:15.10	352.32	58.79	-46.8	-48.4	19.1	0.00e+00	0	39	0	667942912	65	4275
2026-01-20 01:24:16.11	351.73	59.09	-46.9	-48.5	18.8	0.00e+00	0	39	0	670040064	65	4328
2026-01-20 01:24:17.11	351.14	59.39	-47.3	-49.1	18.2	0.00e+00	0	38	0	672137216	65	4624
2026-01-20 01:24:18.12	350.53	59.69	-47.4	-49.2	18.1	0.00e+00	0	38	0	673185792	65	4680
2026-01-20 01:24:19.13	349.91	59.98	-47.3	-49.0	18.3	0.00e+00	0	39	0	675282944	66	4326
2026-01-20 01:24:20.14	349.26	60.28	-47.4	-49.2	18.2	0.00e+00	0	39	0	677380096	66	4421
2026-01-20 01:24:21.15	348.61	60.57	-47.1	-48.8	18.6	0.00e+00	0	39	0	679477248	65	4469
2026-01-20 01:24:22.16	347.94	60.87	-46.9	-48.5	18.9	0.00e+00	0	39	0	681574400	65	4311
2026-01-20 01:24:23.16	347.26	61.15	-46.5	-48.0	19.3	0.00e+00	0	38	0	683671552	64	4329
2026-01-20 01:24:24.17	346.56	61.44	-46.0	-47.4	20.0	0.00e+00	0	39	0	684720128	63	4259
2026-01-20 01:24:25.18	345.84	61.72	-45.7	-47.1	20.2	0.00e+00	0	39	0	686817280	63	4104
2026-01-20 01:24:26.19	345.10	62.01	-45.6	-47.0	20.2	0.00e+00	0	39	0	688914432	63	4075
2026-01-20 01:24:27.19	344.36	62.28	-46.1	-47.5	19.8	0.00e+00	0	39	0	691011584	63	4328
2026-01-20 01:24:28.20	343.59	62.56	-46.0	-47.4	19.9	0.00e+00	0	39	0	693108736	63	4284
2026-01-20 01:24:29.21	342.80	62.83	-45.7	-47.1	20.2	0.00e+00	0	39	0	694157312	63	4130
2026-01-20 01:24:30.22	341.99	63.10	-45.6	-47.0	20.3	0.00e+00	0	39	0	696254464	62	4310
2026-01-20 01:24:31.23	341.17	63.36	-45.7	-47.1	20.3	0.00e+00	0	38	0	698351616	62	4343
2026-01-20 01:24:32.24	340.32	63.62	-45.9	-47.4	19.9	0.00e+00	0	39	0	700448768	63	4268
2026-01-20 01:24:33.24	339.47	63.88	-45.9	-47.3	20.1	0.00e+00	0	38	0	702545920	63	4211
2026-01-20 01:24:34.25	338.59	64.13	-45.6	-47.0	20.3	0.00e+00	0	38	0	703594496	63	4068
2026-01-20 01:24:35.26	337.69	64.38	-45.1	-46.4	20.8	0.00e+00	0	39	0	705691648	62	4006
2026-01-20 01:24:36.27	336.77	64.62	-45.2	-46.4	20.8	0.00e+00	0	38	0	707788800	62	4049
2026-01-20 01:24:37.27	335.84	64.85	-46.2	-47.7	19.7	0.00e+00	0	39	0	709885952	62	4676
2026-01-20 01:24:38.28	334.88	65.09	-46.2	-47.7	19.6	0.00e+00	0	38	0	711983104	63	4440
2026-01-20 01:24:39.29	333.90	65.31	-45.6	-46.9	20.4	0.00e+00	0	39	0	713031680	63	4044
2026-01-20 01:24:40.30	332.90	65.53	-45.4	-46.7	20.6	0.00e+00	0	38	0	715128832	62	4150
2026-01-20 01:24:41.31	331.89	65.74	-45.7	-47.0	20.3	0.00e+00	0	39	0	717225984	62	4324
2026-01-20 01:24:42.31	330.86	65.95	-45.8	-47.2	20.2	0.00e+00	0	39	0	719323136	62	4410
2026-01-20 01:24:43.32	329.80	66.15	-46.1	-47.5	19.9	0.00e+00	0	38	0	721420288	62	4559
2026-01-20 01:24:44.33	328.72	66.34	-46.1	-47.5	19.8	0.00e+00	0	39	0	722468864	63	4329
2026-01-20 01:24:45.33	327.64	66.53	-46.0	-47.4	20.0	0.00e+00	0	39	0	724566016	63	4248
2026-01-20 01:24:46.34	326.52	66.70	-46.6	-48.1	19.3	0.00e+00	0	39	0	726663168	63	4639
2026-01-20 01:24:47.35	325.39	66.87	-47.7	-49.6	17.9	0.00e+00	0	39	0	728760320	65	4909
2026-01-20 01:24:48.36	324.24	67.04	-47.8	-49.8	17.7	0.00e+00	0	39	0	730857472	66	4712
2026-01-20 01:24:49.37	323.07	67.19	-47.5	-49.3	18.1	0.00e+00	0	39	0	731906048	66	4477
2026-01-20 01:24:50.37	321.89	67.33	-48.5	-50.7	16.7	0.00e+00	0	38	0	734003200	67	4969
2026-01-20 01:24:51.38	320.69	67.47	-49.8	-52.9	14.9	0.00e+00	0	39	0	736100352	70	5362
2026-01-20 01:24:52.39	319.47	67.60	-50.0	-53.0	14.8	7.00e-07	0	39	0	738197504	71	5158
2026-01-20 01:24:53.40	318.24	67.72	-48.8	-51.1	16.5	0.00e+00	0	39	0	740294656	69	4610
2026-01-20 01:24:54.41	316.99	67.83	-47.8	-49.6	17.9	0.00e+00	0	38	0	741343232	67	4377
2026-01-20 01:24:55.41	315.75	67.92	-47.4	-49.2	18.4	0.00e+00	0	38	0	743440384	66	4396
2026-01-20 01:24:56.42	314.48	68.01	-47.4	-49.1	18.4	0.00e+00	0	39	0	745537536	65	4641
2026-01-20 01:24:57.43	313.19	68.09	-47.7	-49.4	18.1	0.00e+00	0	38	0	747634688	66	4527
2026-01-20 01:24:58.44	311.90	68.16	-47.5	-49.3	18.3	0.00e+00	0	39	0	749731840	66	4446
2026-01-20 01:24:59.45	310.60	68.22	-47.7	-49.6	18.0	0.00e+00	0	39	0	750780416	66	4617
2026-01-20 01:25:00.45	309.31	68.27	-48.2	-50.1	17.5	0.00e+00	0	39	0	752877568	67	4646
2026-01-20 01:25:01.46	308.00	68.31	-47.9	-49.8	17.6	0.00e+00	0	38	0	754974720	66	4738
2026-01-20 01:25:02.47	306.68	68.33	-47.5	-49.3	18.2	0.00e+00	0	39	0	757071872	66	4452
2026-01-20 01:25:03.47	305.38	68.35	-48.1	-50.2	17.2	0.00e+00	0	39	0	759169024	67	4653
2026-01-20 01:25:04.48	304.06	68.36	-48.2	-50.2	17.4	0.00e+00	0	39	0	760217600	67	4661
2026-01-20 01:25:05.49	302.74	68.35	-47.6	-49.4	18.1	0.00e+00	0	39	0	762314752	67	4252
2026-01-20 01:25:06.50	301.42	68.34	-47.5	-49.2	18.2	0.00e+00	0	39	0	764411904	65	4681
2026-01-20 01:25:07.51	300.10	68.31	-47.0	-48.6	18.6	0.00e+00	0	39	0	766509056	65	4375
2026-01-20 01:25:08.51	298.80	68.27	-47.1	-48.7	18.8	0.00e+00	0	39	0	768606208	65	4436
2026-01-20 01:25:09.52	297.49	68.23	-47.1	-48.7	18.8	0.00e+00	0	39	0	769654784	65	4394
2026-01-20 01:25:10.53	296.19	68.17	-47.8	-49.6	17.8	0.00e+00	0	39	0	771751936	66	4643
2026-01-20 01:25:11.54	294.90	68.10	-47.5	-49.3	18.0	0.00e+00	0	39	0	773849088	66	4462
2026-01-20 01:25:12.55	293.62	68.03	-47.1	-48.8	18.5	0.00e+00	0	39	0	775946240	66	4232
2026-01-20 01:25:13.56	292.34	67.94	-47.8	-49.7	17.7	0.00e+00	0	39	0	778043392	66	4702
2026-01-20 01:25:14.56	291.09	67.84	-49.5	-52.2	15.5	0.00e+00	0	39	0	779091968	69	5249
2026-01-20 01:25:15.57	289.85	67.73	-50.4	-53.9	13.7	7.00e-07	0	39	0	781189120	71	5692
2026-01-20 01:25:16.57	288.62	67.62	-50.4	-53.8	13.7	1.90e-05	0	39	0	783286272	72	5312
2026-01-20 01:25:17.58	287.40	67.49	-49.7	-52.4	15.3	0.00e+00	0	39	0	785383424	71	4788
2026-01-20 01:25:18.59	286.20	67.36	-49.2	-51.7	16.0	0.00e+00	0	38	0	787480576	70	4671
2026-01-20 01:25:19.60	285.01	67.21	-49.6	-52.4	15.3	0.00e+00	0	39	0	788529152	70	5074
2026-01-20 01:25:20.61	283.83	67.06	-49.6	-52.4	15.2	0.00e+00	0	39	0	790626304	70	5091
2026-01-20 01:25:21.61	282.69	66.90	-49.5	-52.3	15.3	0.00e+00	0	39	0	792723456	70	4984
2026-01-20 01:25:22.62	281.55	66.73	-48.2	-50.1	17.4	0.00e+00	0	39	0	794820608	68	4377
2026-01-20 01:25:23.63	280.43	66.56	-46.8	-48.3	19.3	0.00e+00	0	39	0	796917760	65	4198
2026-01-20 01:25:24.64	279.33	66.37	-46.3	-47.7	19.8	0.00e+00	0	39	0	799014912	64	4163
2026-01-20 01:25:25.64	278.26	66.18	-47.3	-49.1	18.5	0.00e+00	0	39	0	800063488	65	4602
2026-01-20 01:25:26.65	277.20	65.98	-47.8	-49.9	17.7	0.00e+00	0	39	0	802160640	66	4764
2026-01-20 01:25:27.66	276.16	65.78	-46.7	-48.4	19.0	0.00e+00	0	39	0	804257792	65	4248
2026-01-20 01:25:28.67	275.14	65.56	-45.8	-47.1	20.3	0.00e+00	0	39	0	806354944	63	4124
2026-01-20 01:25:29.67	274.14	65.35	-45.2	-46.4	20.9	0.00e+00	0	39	0	807403520	62	4016
2026-01-20 01:25:30.68	273.16	65.12	-45.3	-46.6	20.7	0.00e+00	0	39	0	809500672	61	4376
2026-01-20 01:25:31.69	272.20	64.89	-45.7	-47.1	20.3	0.00e+00	0	39	0	811597824	61	4643
2026-01-20 01:25:32.70	271.26	64.66	-46.1	-47.6	19.9	0.00e+00	0	39	0	813694976	62	4604
2026-01-20 01:25:33.71	270.33	64.41	-45.5	-46.7	20.6	0.00e+00	0	39	0	815792128	62	4191
2026-01-20 01:25:34.72	269.43	64.17	-45.4	-46.7	20.6	0.00e+00	0	39	0	816840704	62	4158
2026-01-20 01:25:35.73	268.54	63.92	-45.4	-46.6	20.7	0.00e+00	0	39	0	818937856	62	4135
2026-01-20 01:25:36.73	267.69	63.66	-46.1	-47.5	19.8	0.00e+00	0	39	0	821035008	62	4587
2026-01-20 01:25:37.74	266.84	63.40	-46.8	-48.4	18.9	0.00e+00	0	39	0	823132160	64	4521
2026-01-20 01:25:38.75	266.01	63.14	-46.3	-47.8	19.5	0.00e+00	0	39	0	825229312	64	4231
2026-01-20 01:25:39.76	265.20	62.87	-46.9	-48.6	18.8	0.00e+00	0	39	0	827326464	64	4619
2026-01-20 01:25:40.77	264.41	62.60	-47.9	-50.0	17.8	0.00e+00	0	39	0	828375040	66	4822
2026-01-20 01:25:41.77	263.64	62.32	-48.0	-50.0	17.6	0.00e+00	0	39	0	830472192	67	4564
2026-01-20 01:25:42.78	262.89	62.05	-47.8	-49.7	17.9	0.00e+00	0	39	0	832569344	67	4415
2026-01-20 01:25:43.79	262.15	61.76	-48.1	-50.2	17.4	0.00e+00	0	39	0	834666496	67	4662
2026-01-20 01:25:44.80	261.43	61.48	-48.3	-50.5	17.0	0.00e+00	0	39	0	835715072	67	4831
2026-01-20 01:25:45.81	260.72	61.19	-48.6	-50.9	16.6	0.00e+00	0	39	0	837812224	67	5075
2026-01-20 01:25:46.81	260.04	60.91	-48.1	-50.2	17.2	0.00e+00	0	39	0	839909376	67	4687
2026-01-20 01:25:47.82	259.36	60.61	-47.8	-49.7	17.7	0.00e+00	0	39	0	842006528	67	4424
2026-01-20 01:25:48.83	258.71	60.32	-49.0	-51.5	15.9	0.00e+00	0	39	0	844103680	68	5148
2026-01-20 01:25:49.84	258.06	60.02	-49.7	-52.6	15.1	0.00e+00	0	39	0	846200832	70	5212
2026-01-20 01:25:50.85	257.43	59.73	-48.5	-50.7	16.8	0.00e+00	0	39	0	847249408	69	4441
2026-01-20 01:25:51.85	256.83	59.43	-47.8	-49.7	17.8	0.00e+00	0	39	0	849346560	66	4695
2026-01-20 01:25:52.86	256.23	59.13	-47.4	-49.2	18.2	0.00e+00	0	39	0	851443712	66	4431
2026-01-20 01:25:53.87	255.64	58.83	-47.8	-49.7	17.7	0.00e+00	0	39	0	853540864	66	4688
2026-01-20 01:25:54.88	255.07	58.52	-48.0	-50.1	17.5	0.00e+00	0	39	0	855638016	66	4884
2026-01-20 01:25:55.89	254.51	58.22	-47.6	-49.4	18.0	0.00e+00	0	39	0	856686592	66	4513
2026-01-20 01:25:56.89	253.96	57.91	-46.3	-47.7	19.5	0.00e+00	0	39	0	858783744	64	4177
2026-01-20 01:25:57.90	253.43	57.61	-45.5	-46.8	20.4	0.00e+00	0	39	0	860880896	63	3990
2026-01-20 01:25:58.91	252.90	57.30	-45.2	-46.4	20.8	0.00e+00	0	38	0	862978048	62	4049
2026-01-20 01:25:59.92	252.39	56.99	-45.2	-46.5	20.8	0.00e+00	0	39	0	864026624	61	4293
2026-01-20 01:26:00.93	251.89	56.69	-45.8	-47.2	20.2	0.00e+00	0	39	0	866123776	62	4414
2026-01-20 01:26:01.93	251.41	56.38	-46.0	-47.5	19.8	0.00e+00	0	39	0	868220928	62	4549
2026-01-20 01:26:02.94	250.93	56.07	-46.4	-47.9	19.4	0.00e+00	0	39	0	870318080	64	4287
2026-01-20 01:26:03.95	250.46	55.76	-46.5	-48.0	19.3	0.00e+00	0	39	0	872415232	64	4322
2026-01-20 01:26:04.96	250.01	55.45	-46.1	-47.5	19.9	0.00e+00	0	39	0	874512384	63	4295
2026-01-20 01:26:05.97	249.56	55.14	-46.0	-47.4	20.0	0.00e+00	0	39	0	875560960	63	4248
2026-01-20 01:26:06.97	249.13	54.84	-46.5	-48.0	19.3	0.00e+00	0	39	0	877658112	64	4336
2026-01-20 01:26:07.98	248.70	54.53	-46.1	-47.5	19.7	0.00e+00	0	39	0	879755264	64	4098
2026-01-20 01:26:08.99	248.28	54.22	-46.1	-47.5	19.8	0.00e+00	0	39	0	881852416	64	4077
2026-01-20 01:26:09.99	247.87	53.91	-46.4	-47.9	19.4	0.00e+00	0	39	0	883949568	63	4534
2026-01-20 01:26:11.00	247.47	53.61	-46.5	-48.0	19.3	0.00e+00	0	39	0	884998144	64	4327
2026-01-20 01:26:12.01	247.08	53.30	-45.5	-46.8	20.4	0.00e+00	0	39	0	887095296	63	3971
2026-01-20 01:26:13.02	246.69	52.99	-46.0	-47.4	19.9	0.00e+00	0	39	0	889192448	62	4525
2026-01-20 01:26:14.03	246.32	52.69	-46.7	-48.4	19.0	0.00e+00	0	39	0	891289600	63	4782
2026-01-20 01:26:15.03	245.95	52.38	-47.2	-49.0	18.3	0.00e+00	0	39	0	893386752	65	4565
2026-01-20 01:26:16.04	245.59	52.08	-47.0	-48.8	18.5	0.00e+00	0	39	0	894435328	65	4452
2026-01-20 01:26:17.05	245.24	51.77	-47.1	-48.8	18.6	0.00e+00	0	39	0	896532480	65	4489
2026-01-20 01:26:18.06	244.89	51.47	-47.2	-49.0	18.4	0.00e+00	0	39	0	898629632	65	4554
2026-01-20 01:26:19.07	244.55	51.17	-47.1	-48.8	18.5	0.00e+00	0	39	0	900726784	65	4465
2026-01-20 01:26:20.07	244.22	50.87	-47.0	-48.7	18.7	0.00e+00	0	39	0	902823936	65	4393
2026-01-20 01:26:21.08	243.89	50.57	-46.5	-48.1	19.3	0.00e+00	0	39	0	903872512	64	4367
2026-01-20 01:26:22.09	243.57	50.27	-46.6	-48.1	19.1	0.00e+00	0	39	0	905969664	64	4390
2026-01-20 01:26:23.10	243.26	49.97	-46.1	-47.5	19.7	0.00e+00	0	39	0	908066816	64	4083
2026-01-20 01:26:24.11	242.95	49.67	-45.5	-46.8	20.5	0.00e+00	0	39	0	910163968	63	3971
2026-01-20 01:26:25.11	242.66	49.38	-45.5	-46.8	20.4	0.00e+00	0	39	0	912261120	63	3992
2026-01-20 01:26:26.12	242.36	49.08	-46.6	-48.2	19.2	0.00e+00	0	39	0	913309696	63	4667
2026-01-20 01:26:27.13	242.07	48.79	-47.3	-49.1	18.2	0.00e+00	0	39	0	915406848	65	4645
2026-01-20 01:26:28.14	241.79	48.49	-46.9	-48.6	18.7	0.00e+00	0	38	0	917504000	65	4386
2026-01-20 01:26:29.15	241.51	48.20	-46.6	-48.2	19.0	0.00e+00	0	39	0	919601152	64	4405
2026-01-20 01:26:30.15	241.24	47.91	-47.6	-49.6	17.7	0.00e+00	0	39	0	921698304	65	4905
2026-01-20 01:26:31.16	240.97	47.62	-48.6	-51.0	16.4	0.00e+00	0	39	0	922746880	67	5115
2026-01-20 01:26:32.17	240.71	47.34	-48.5	-50.7	16.7	0.00e+00	0	39	0	924844032	68	4697
2026-01-20 01:26:33.18	240.45	47.05	-48.4	-50.5	17.0	0.00e+00	0	39	0	926941184	68	4587
2026-01-20 01:26:34.19	240.19	46.76	-48.8	-51.2	16.4	0.00e+00	0	39	0	929038336	68	4963
2026-01-20 01:26:35.19	239.95	46.48	-47.7	-49.6	17.6	0.00e+00	0	39	0	931135488	67	4376
2026-01-20 01:26:36.20	239.70	46.20	-47.0	-48.6	18.7	0.00e+00	0	39	0	932184064	66	4114
2026-01-20 01:26:37.21	239.46	45.92	-46.9	-48.5	18.8	0.00e+00	0	39	0	934281216	65	4305
2026-01-20 01:26:38.22	239.22	45.64	-47.2	-48.9	18.4	0.00e+00	0	39	0	936378368	65	4528
2026-01-20 01:26:39.23	238.99	45.36	-47.4	-49.3	18.0	0.00e+00	0	39	0	938475520	65	4716
2026-01-20 01:26:40.24	238.77	45.08	-46.7	-48.3	19.0	0.00e+00	0	38	0	940572672	65	4204
2026-01-20 01:26:41.24	238.54	44.81	-46.1	-47.5	19.7	0.00e+00	0	39	0	942669824	64	4063
2026-01-20 01:26:42.25	238.32	44.53	-45.9	-47.3	19.8	0.00e+00	0	39	0	943718400	63	4230
2026-01-20 01:26:43.26	238.11	44.26	-46.5	-48.1	19.2	0.00e+00	0	39	0	945815552	63	4617
2026-01-20 01:26:44.27	237.90	43.98	-47.3	-49.1	18.2	0.00e+00	0	39	0	947912704	65	4610
2026-01-20 01:26:45.27	237.69	43.72	-47.5	-49.4	17.8	0.00e+00	0	39	0	950009856	65	4795
2026-01-20 01:26:46.28	237.48	43.45	-47.8	-49.7	17.6	0.00e+00	0	39	0	951058432	67	4434
2026-01-20 01:26:47.29	237.28	43.18	-48.5	-50.8	16.5	0.00e+00	0	39	0	953155584	67	5015
2026-01-20 01:26:48.30	237.08	42.91	-50.2	-53.5	13.7	2.20e-06	0	39	0	955252736	71	5459
2026-01-20 01:26:49.30	236.89	42.65	-50.7	-54.7	12.7	2.51e-05	0	39	0	957349888	71	6216
2026-01-20 01:26:50.31	236.70	42.39	-50.8	-54.9	12.4	1.72e-04	0	39	0	959447040	72	6022
2026-01-20 01:26:51.32	236.51	42.13	-50.3	-53.8	13.4	1.37e-05	0	39	0	960495616	72	5332
2026-01-20 01:26:52.33	236.32	41.87	-50.0	-53.2	14.2	3.80e-06	0	39	0	962592768	71	5221
2026-01-20 01:26:53.33	236.14	41.61	-49.0	-51.4	16.0	0.00e+00	0	39	0	964689920	69	4782
2026-01-20 01:26:54.34	235.96	41.35	-48.5	-50.7	16.6	0.00e+00	0	39	0	966787072	69	4412
2026-01-20 01:26:55.35	235.79	41.10	-48.3	-50.4	16.9	0.00e+00	0	39	0	968884224	68	4515
2026-01-20 01:26:56.36	235.61	40.84	-48.4	-50.5	16.8	0.00e+00	0	39	0	970981376	68	4558
2026-01-20 01:26:57.36	235.44	40.59	-47.8	-49.8	17.6	0.00e+00	0	39	0	972029952	67	4448
2026-01-20 01:26:58.37	235.27	40.34	-48.4	-50.6	16.8	0.00e+00	0	39	0	974127104	67	4894
2026-01-20 01:26:59.38	235.11	40.09	-48.1	-50.2	17.1	0.00e+00	0	39	0	976224256	67	4681
2026-01-20 01:27:00.39	234.94	39.84	-48.4	-50.7	16.7	0.00e+00	0	39	0	978321408	67	4929
2026-01-20 01:27:01.39	234.79	39.60	-48.9	-51.4	16.0	0.00e+00	0	39	0	979369984	68	5054
2026-01-20 01:27:02.40	234.63	39.35	-49.8	-52.9	14.7	0.00e+00	0	39	0	981467136	70	5350
2026-01-20 01:27:03.41	234.47	39.11	-50.0	-53.2	14.2	0.00e+00	0	39	0	983564288	70	5574
2026-01-20 01:27:04.42	234.32	38.87	-49.7	-52.7	14.6	1.50e-06	0	39	0	985661440	70	5267
2026-01-20 01:27:05.43	234.17	38.63	-49.4	-52.2	15.2	7.00e-07	0	39	0	987758592	70	4959
2026-01-20 01:27:06.43	234.02	38.39	-49.8	-52.8	14.6	0.00e+00	0	39	0	989855744	70	5324
2026-01-20 01:27:07.44	233.87	38.15	-49.6	-52.3	15.1	0.00e+00	0	39	0	990904320	70	5034
2026-01-20 01:27:08.45	233.73	37.92	-49.8	-52.9	14.5	0.00e+00	0	39	0	993001472	70	5342
2026-01-20 01:27:09.45	233.59	37.68	-50.6	-54.4	13.0	6.10e-06	0	39	0	995098624	71	5998
2026-01-20 01:27:10.46	233.44	37.45	-50.3	-53.7	13.7	1.14e-05	0	39	0	997195776	71	5571
2026-01-20 01:27:11.47	233.31	37.22	-49.7	-52.5	14.7	7.00e-07	0	39	0	999292928	71	4866
2026-01-20 01:27:12.48	233.17	36.99	-48.5	-50.7	16.8	0.00e+00	0	39	0	1000341504	68	4683
2026-01-20 01:27:13.49	233.04	36.76	-47.7	-49.6	17.6	0.00e+00	0	39	0	1002438656	67	4370
2026-01-20 01:27:14.49	232.90	36.53	-47.3	-49.0	18.3	0.00e+00	0	39	0	1004535808	66	4327
2026-01-20 01:27:15.50	232.77	36.30	-47.2	-48.9	18.4	0.00e+00	0	39	0	1006632960	66	4289
2026-01-20 01:27:16.51	232.64	36.08	-47.0	-48.7	18.5	0.00e+00	0	39	0	1007681536	66	4177
2026-01-20 01:27:17.52	232.52	35.85	-47.3	-49.1	18.2	0.00e+00	0	39	0	1009778688	65	4600
2026-01-20 01:27:18.53	232.39	35.63	-47.2	-49.0	18.2	0.00e+00	0	39	0	1011875840	65	4581
2026-01-20 01:27:19.53	232.27	35.41	-47.4	-49.3	18.0	0.00e+00	0	39	0	1013972992	65	4720
2026-01-20 01:27:20.54	232.15	35.19	-47.7	-49.7	17.6	0.00e+00	0	39	0	1016070144	66	4680
2026-01-20 01:27:21.55	232.03	34.97	-48.3	-50.5	16.8	0.00e+00	0	39	0	1018167296	67	4865
2026-01-20 01:27:22.55	231.91	34.76	-49.1	-51.7	15.8	0.00e+00	0	39	0	1019215872	69	4961
2026-01-20 01:27:23.56	231.79	34.54	-49.5	-52.3	15.0	0.00e+00	0	39	0	1021313024	69	5336
2026-01-20 01:27:24.57	231.68	34.33	-49.1	-51.6	15.8	0.00e+00	0	39	0	1023410176	69	4909
2026-01-20 01:27:25.57	231.56	34.12	-48.3	-50.4	17.0	0.00e+00	0	39	0	1025507328	68	4498
2026-01-20 01:27:26.58	231.45	33.91	-48.4	-50.4	16.9	0.00e+00	0	39	0	1027604480	68	4545
2026-01-20 01:27:27.59	231.34	33.70	-48.1	-50.1	17.5	0.00e+00	0	39	0	1028653056	67	4611
2026-01-20 01:27:28.59	231.23	33.49	-48.1	-50.2	17.1	0.00e+00	0	39	0	1030750208	67	4669
2026-01-20 01:27:29.60	231.12	33.28	-48.3	-50.5	16.9	0.00e+00	0	39	0	1032847360	67	4839
2026-01-20 01:27:30.61	231.02	33.08	-48.8	-51.2	16.3	0.00e+00	0	39	0	1034944512	68	4970
2026-01-20 01:27:31.61	230.91	32.87	-48.6	-50.8	16.6	0.00e+00	0	39	0	1035993088	68	4736
2026-01-20 01:27:32.62	230.81	32.67	-48.6	-50.8	16.6	0.00e+00	0	39	0	1038090240	68	4725
2026-01-20 01:27:33.63	230.71	32.47	-48.8	-51.2	16.2	0.00e+00	0	39	0	1040187392	68	4937
2026-01-20 01:27:34.64	230.61	32.26	-49.1	-51.6	15.9	0.00e+00	0	39	0	1042284544	68	5211
2026-01-20 01:27:35.65	230.51	32.06	-49.1	-51.6	15.8	0.00e+00	0	39	0	1044381696	69	4913
2026-01-20 01:27:36.65	230.41	31.87	-49.4	-52.1	15.3	0.00e+00	0	39	0	1046478848	69	5198
2026-01-20 01:27:37.66	230.31	31.67	-49.3	-52.0	15.4	0.00e+00	0	39	0	1047527424	69	5131
2026-01-20 01:27:38.67	230.21	31.47	-48.9	-51.3	16.1	0.00e+00	0	39	0	1049624576	69	4708
2026-01-20 01:27:39.68	230.12	31.28	-48.5	-50.7	16.6	0.00e+00	0	39	0	1051721728	69	4426
2026-01-20 01:27:40.69	230.03	31.08	-48.4	-50.5	16.9	0.00e+00	0	39	0	1053818880	68	4587
2026-01-20 01:27:41.69	229.93	30.89	-48.0	-50.0	17.2	0.00e+00	0	39	0	1055916032	67	4584
2026-01-20 01:27:42.70	229.84	30.70	-48.4	-50.6	16.8	0.00e+00	0	39	0	1056964608	67	4884
2026-01-20 01:27:43.71	229.75	30.51	-48.8	-51.1	16.3	0.00e+00	0	39	0	1059061760	68	4890
2026-01-20 01:27:44.72	229.66	30.32	-49.6	-52.3	15.2	0.00e+00	0	39	0	1061158912	69	5326
2026-01-20 01:27:45.73	229.57	30.13	-50.1	-53.3	14.0	0.00e+00	0	39	0	1063256064	70	5598
2026-01-20 01:27:46.74	229.49	29.94	-50.5	-54.0	13.4	7.60e-06	0	39	0	1065353216	71	5780
2026-01-20 01:27:47.75	229.40	29.76	-50.4	-53.7	13.6	7.60e-06	0	39	0	1066401792	71	5582
2026-01-20 01:27:48.76	229.31	29.57	-50.0	-53.0	14.4	1.50e-06	0	39	0	1068498944	71	5155
2026-01-20 01:27:49.76	229.23	29.39	-49.5	-52.3	15.1	0.00e+00	0	39	0	1070596096	71	4718
2026-01-20 01:27:50.77	229.15	29.21	-49.5	-52.2	15.2	0.00e+00	0	39	0	1072693248	70	4942
2026-01-20 01:27:51.78	229.07	29.03	-49.2	-51.8	15.6	0.00e+00	0	39	0	1074790400	70	4739
2026-01-20 01:27:52.79	228.98	28.85	-49.4	-52.0	15.4	0.00e+00	0	39	0	1075838976	70	4837
2026-01-20 01:27:53.79	228.90	28.67	-49.6	-52.5	15.0	0.00e+00	0	39	0	1077936128	70	5112
2026-01-20 01:27:54.80	228.83	28.49	-49.7	-52.6	14.7	0.00e+00	0	39	0	1080033280	70	5215
2026-01-20 01:27:55.81	228.75	28.31	-49.7	-52.7	14.7	7.00e-07	0	39	0	1082130432	70	5224
2026-01-20 01:27:56.82	228.67	28.14	-49.9	-52.8	14.5	0.00e+00	0	39	0	1084227584	70	5338
2026-01-20 01:27:57.83	228.59	27.96	-49.6	-52.4	15.0	7.00e-07	0	39	0	1085276160	70	5049
2026-01-20 01:27:58.83	228.52	27.79	-49.4	-52.0	15.3	0.00e+00	0	39	0	1087373312	70	4863
2026-01-20 01:27:59.84	228.44	27.62	-49.2	-51.8	15.6	0.00e+00	0	39	0	1089470464	69	4987
2026-01-20 01:28:00.85	228.37	27.45	-49.0	-51.5	15.9	0.00e+00	0	39	0	1091567616	69	4841
2026-01-20 01:28:01.86	228.29	27.27	-48.8	-51.2	16.2	0.00e+00	0	39	0	1093664768	69	4673
2026-01-20 01:28:02.87	228.22	27.10	-48.5	-50.7	16.6	0.00e+00	0	39	0	1094713344	68	4698
2026-01-20 01:28:03.87	228.15	26.94	-48.5	-50.7	16.6	0.00e+00	0	39	0	1096810496	68	4685
2026-01-20 01:28:04.88	228.08	26.77	-48.2	-50.3	16.8	0.00e+00	0	39	0	1098907648	68	4474
2026-01-20 01:28:05.89	228.01	26.60	-48.2	-50.3	16.9	0.00e+00	0	39	0	1101004800	67	4724
2026-01-20 01:28:06.89	227.94	26.44	-48.1	-50.2	17.0	0.00e+00	0	39	0	1103101952	67	4670
2026-01-20 01:28:07.90	227.87	26.27	-48.1	-50.2	17.0	0.00e+00	0	39	0	1104150528	67	4668
2026-01-20 01:28:08.91	227.80	26.11	-48.4	-50.7	16.5	0.00e+00	0	39	0	1106247680	67	4978
2026-01-20 01:28:09.92	227.74	25.95	-48.5	-50.8	16.5	0.00e+00	0	39	0	1108344832	67	4998
2026-01-20 01:28:10.93	227.67	25.78	-48.7	-51.1	16.3	0.00e+00	0	39	0	1110441984	68	4886
2026-01-20 01:28:11.93	227.61	25.62	-49.0	-51.6	15.7	0.00e+00	0	39	0	1112539136	68	5179
2026-01-20 01:28:12.94	227.54	25.46	-49.1	-51.8	15.6	0.00e+00	0	39	0	1113587712	69	4986
2026-01-20 01:28:13.95	227.48	25.30	-49.1	-51.8	15.5	0.00e+00	0	39	0	1115684864	69	4989
2026-01-20 01:28:14.96	227.41	25.15	-49.1	-51.6	15.7	0.00e+00	0	39	0	1117782016	69	4918
2026-01-20 01:28:15.97	227.35	24.99	-49.0	-51.5	15.8	0.00e+00	0	39	0	1119879168	69	4835
2026-01-20 01:28:16.97	227.29	24.83	-48.7	-51.0	16.3	0.00e+00	0	39	0	1121976320	69	4547
2026-01-20 01:28:17.98	227.22	24.68	-48.3	-50.5	16.8	0.00e+00	0	39	0	1123024896	68	4569
2026-01-20 01:28:18.99	227.16	24.52	-48.0	-50.0	17.2	0.00e+00	0	39	0	1125122048	68	4328
2026-01-20 01:28:20.00	227.10	24.37	-47.9	-49.8	17.3	0.00e+00	0	39	0	1127219200	67	4491
2026-01-20 01:28:21.01	227.04	24.21	-47.7	-49.7	17.5	0.00e+00	0	39	0	1129316352	67	4405
2026-01-20 01:28:22.01	226.98	24.06	-47.5	-49.3	17.8	0.00e+00	0	39	0	1131413504	66	4479
2026-01-20 01:28:23.02	226.93	23.91	-47.6	-49.5	17.6	0.00e+00	0	39	0	1132462080	66	4580
2026-01-20 01:28:24.03	226.87	23.76	-48.0	-50.1	17.1	0.00e+00	0	39	0	1134559232	66	4877
2026-01-20 01:28:25.03	226.81	23.61	-48.1	-50.2	16.9	0.00e+00	0	39	0	1136656384	66	4980
2026-01-20 01:28:26.04	226.75	23.46	-48.3	-50.5	16.7	0.00e+00	0	39	0	1138753536	67	4848
2026-01-20 01:28:27.05	226.70	23.32	-48.6	-51.0	16.2	0.00e+00	0	39	0	1140850688	67	5123
2026-01-20 01:28:28.06	226.64	23.17	-48.8	-51.2	16.1	0.00e+00	0	39	0	1141899264	68	4936
2026-01-20 01:28:29.07	226.59	23.02	-48.7	-51.1	16.2	0.00e+00	0	39	0	1143996416	68	4873
2026-01-20 01:28:30.07	226.53	22.88	-48.7	-51.0	16.2	0.00e+00	0	39	0	1146093568	68	4844
2026-01-20 01:28:31.08	226.48	22.73	-48.7	-51.0	16.2	0.00e+00	0	39	0	1148190720	68	4857
2026-01-20 01:28:32.09	226.42	22.59	-48.6	-50.9	16.3	0.00e+00	0	39	0	1150287872	68	4791
2026-01-20 01:28:33.10	226.37	22.44	-48.2	-50.3	16.9	0.00e+00	0	39	0	1151336448	68	4460
2026-01-20 01:28:34.11	226.32	22.30	-47.9	-49.9	17.2	0.00e+00	0	39	0	1153433600	67	4513
2026-01-20 01:28:35.11	226.27	22.16	-47.8	-49.8	17.3	0.00e+00	0	39	0	1155530752	67	4470
2026-01-20 01:28:36.12	226.22	22.02	-47.6	-49.6	17.5	0.00e+00	0	39	0	1157627904	67	4352
2026-01-20 01:28:37.13	226.16	21.88	-47.7	-49.7	17.4	0.00e+00	0	39	0	1159725056	67	4412
2026-01-20 01:28:38.14	226.11	21.74	-47.6	-49.6	17.5	0.00e+00	0	39	0	1161822208	66	4634
2026-01-20 01:28:39.15	226.06	21.60	-47.7	-49.7	17.4	0.00e+00	0	39	0	1162870784	66	4686
2026-01-20 01:28:40.15	226.01	21.46	-47.9	-50.0	17.1	0.00e+00	0	39	0	1164967936	66	4834
2026-01-20 01:28:41.16	225.97	21.33	-48.2	-50.4	16.7	0.00e+00	0	39	0	1167065088	66	5073
2026-01-20 01:28:42.17	225.92	21.19	-48.2	-50.4	16.7	0.00e+00	0	39	0	1169162240	67	4812
2026-01-20 01:28:43.18	225.87	21.05	-48.2	-50.4	16.7	0.00e+00	0	39	0	1170210816	67	4782
2026-01-20 01:28:44.18	225.82	20.92	-48.5	-50.9	16.2	0.00e+00	0	39	0	1172307968	67	5063
2026-01-20 01:28:45.19	225.77	20.79	-48.3	-50.6	16.5	0.00e+00	0	39	0	1174405120	67	4906
2026-01-20 01:28:46.20	225.73	20.65	-48.4	-50.7	16.4	0.00e+00	0	39	0	1176502272	67	4952
2026-01-20 01:28:47.21	225.68	20.52	-48.6	-51.0	16.2	0.00e+00	0	39	0	1178599424	67	5103
2026-01-20 01:28:48.21	225.63	20.39	-48.5	-50.9	16.1	0.00e+00	0	39	0	1179648000	67	5087
2026-01-20 01:28:49.22	225.59	20.25	-48.5	-50.8	16.3	0.00e+00	0	39	0	1181745152	67	5018
2026-01-20 01:28:50.23	225.54	20.12	-48.0	-50.1	17.0	0.00e+00	0	39	0	1183842304	67	4599
2026-01-20 01:28:51.24	225.50	19.99	-47.9	-50.0	17.1	0.00e+00	0	39	0	1185939456	67	4577
2026-01-20 01:28:52.25	225.45	19.86	-47.7	-49.7	17.2	0.00e+00	0	39	0	1188036608	67	4418
2026-01-20 01:28:53.25	225.41	19.74	-47.8	-49.8	17.3	0.00e+00	0	39	0	1190133760	67	4464
2026-01-20 01:28:54.26	225.37	19.61	-47.6	-49.6	17.4	0.00e+00	0	39	0	1191182336	67	4353
2026-01-20 01:28:55.27	225.32	19.48	-47.7	-49.7	17.3	0.00e+00	0	39	0	1193279488	67	4416
2026-01-20 01:28:56.27	225.28	19.35	-47.6	-49.6	17.5	0.00e+00	0	39	0	1195376640	67	4356
2026-01-20 01:28:57.28	225.24	19.23	-47.5	-49.5	17.5	0.00e+00	0	39	0	1197473792	66	4563
2026-01-20 01:28:58.29	225.20	19.10	-47.7	-49.7	17.2	0.00e+00	0	39	0	1198522368	66	4695
2026-01-20 01:28:59.30	225.15	18.97	-47.6	-49.6	17.4	0.00e+00	0	39	0	1200619520	66	4641
2026-01-20 01:29:00.31	225.11	18.85	-47.3	-49.2	17.8	0.00e+00	0	39	0	1202716672	66	4406
2026-01-20 01:29:01.31	225.07	18.73	-47.6	-49.5	17.5	0.00e+00	0	39	0	1204813824	66	4575
2026-01-20 01:29:02.32	225.03	18.60	-47.5	-49.5	17.5	0.00e+00	0	39	0	1206910976	66	4555
2026-01-20 01:29:03.33	224.99	18.48	-47.4	-49.3	17.6	0.00e+00	0	39	0	1209008128	66	4483
2026-01-20 01:29:04.34	224.95	18.36	-47.6	-49.6	17.4	0.00e+00	0	39	0	1210056704	66	4613
2026-01-20 01:29:05.35	224.91	18.24	-47.4	-49.3	17.7	0.00e+00	0	39	0	1212153856	66	4471
2026-01-20 01:29:06.35	224.87	18.12	-47.4	-49.3	17.6	0.00e+00	0	39	0	1214251008	66	4479
2026-01-20 01:29:07.36	224.83	17.99	-47.1	-48.9	18.0	0.00e+00	0	39	0	1216348160	66	4283
2026-01-20 01:29:08.37	224.80	17.87	-47.1	-48.9	18.0	0.00e+00	0	39	0	1218445312	66	4279
2026-01-20 01:29:09.38	224.76	17.75	-47.1	-48.8	18.1	0.00e+00	0	39	0	1219493888	66	4230
2026-01-20 01:29:10.39	224.72	17.64	-47.2	-49.0	18.0	0.00e+00	0	39	0	1221591040	66	4302
2026-01-20 01:29:11.39	224.68	17.52	-47.2	-49.0	17.9	0.00e+00	0	39	0	1223688192	66	4320
2026-01-20 01:29:12.40	224.65	17.40	-47.0	-48.7	18.2	0.00e+00	0	39	0	1225785344	65	4440
2026-01-20 01:29:13.41	224.61	17.28	-47.1	-48.9	18.0	0.00e+00	0	39	0	1226833920	65	4507
2026-01-20 01:29:14.42	224.57	17.17	-47.0	-48.7	18.2	0.00e+00	0	39	0	1228931072	65	4425
2026-01-20 01:29:15.43	224.54	17.05	-46.8	-48.5	18.4	0.00e+00	0	39	0	1231028224	65	4314
2026-01-20 01:29:16.43	224.50	16.94	-47.1	-48.9	18.0	0.00e+00	0	39	0	1233125376	65	4524
2026-01-20 01:29:17.44	224.46	16.82	-47.0	-48.8	18.0	0.00e+00	0	39	0	1235222528	65	4479
2026-01-20 01:29:18.45	224.43	16.71	-47.2	-49.0	17.9	0.00e+00	0	39	0	1237319680	65	4571
2026-01-20 01:29:19.46	224.39	16.59	-47.3	-49.2	17.7	0.00e+00	0	39	0	1238368256	65	4678
2026-01-20 01:29:20.47	224.36	16.48	-47.3	-49.2	17.7	0.00e+00	0	39	0	1240465408	65	4653
2026-01-20 01:29:21.48	224.32	16.36	-47.3	-49.2	17.7	0.00e+00	0	39	0	1242562560	65	4673
2026-01-20 01:29:22.49	224.29	16.25	-47.4	-49.4	17.5	0.00e+00	0	39	0	1244659712	65	4771
2026-01-20 01:29:23.49	224.26	16.14	-47.6	-49.6	17.3	0.00e+00	0	39	0	1246756864	65	4922
2026-01-20 01:29:24.50	224.22	16.03	-47.6	-49.7	17.2	0.00e+00	0	39	0	1247805440	65	4937
2026-01-20 01:29:25.51	224.19	15.92	-47.7	-49.7	17.1	0.00e+00	0	39	0	1249902592	66	4703
2026-01-20 01:29:26.52	224.16	15.81	-47.7	-49.8	17.1	0.00e+00	0	39	0	1251999744	66	4733
2026-01-20 01:29:27.53	224.12	15.70	-47.7	-49.8	17.1	0.00e+00	0	39	0	1254096896	66	4722
2026-01-20 01:29:28.54	224.09	15.59	-47.5	-49.5	17.4	0.00e+00	0	39	0	1256194048	66	4582
