passes_logs/2026/01/20/R3.2S_Murmansk/R3.2S_Murmansk__20260120_075516_SUOMI_NPP_rec.log

#Pass ID: 20260120_075516_SUOMI NPP
#Satellite: SUOMI NPP
#Configuration: NPP
#almurnet v.1.7.20251203
#Start time: 2026-01-20 07:55:19

#Version: 2.2.20231116
#Station: R3.2S_Murmansk
#Location: 33.079688 lon 68.888172 lat
#TLE: 1 37849U 11061A   26019.89702167  .00000121  00000+0  78274-4 0  9993
#TLE: 2 37849  98.7817 321.9035 0002338  55.0397 305.0998 14.19526700737401

#Time	Az	El	Level	Level2	SNR	BER	BlckErr	Temp	State	Recorded	gain1	gain2
2026-01-20 07:55:19.06	112.86	2.14	-51.2	-66.2	3.8	1.49e+00	0	36	0	0	73	20787
2026-01-20 07:55:20.05	112.82	2.20	-51.2	-66.2	3.8	1.49e+00	0	36	104	0	73	20828
2026-01-20 07:55:21.06	112.78	2.26	-51.2	-66.1	3.8	1.49e+00	0	36	104	0	73	20730
2026-01-20 07:55:22.07	112.75	2.33	-51.2	-66.2	3.8	1.49e+00	0	37	104	0	73	20802
2026-01-20 07:55:23.08	112.71	2.39	-51.2	-66.1	3.8	1.49e+00	0	37	104	0	73	20626
2026-01-20 07:55:24.09	112.67	2.45	-51.2	-66.1	3.8	1.49e+00	0	36	104	0	73	20583
2026-01-20 07:55:25.09	112.63	2.52	-51.2	-66.1	3.8	1.49e+00	0	37	104	0	73	20569
2026-01-20 07:55:26.10	112.59	2.58	-51.2	-66.0	3.8	1.49e+00	0	37	104	0	73	20520
2026-01-20 07:55:27.11	112.56	2.64	-51.2	-66.0	3.8	1.49e+00	0	37	104	0	73	20509
2026-01-20 07:55:28.12	112.52	2.71	-51.2	-66.1	3.8	1.49e+00	0	37	104	0	73	20567
2026-01-20 07:55:29.13	112.48	2.77	-51.2	-66.1	3.8	1.49e+00	0	37	104	0	73	20613
2026-01-20 07:55:30.13	112.44	2.83	-51.2	-66.1	3.8	1.49e+00	0	37	104	0	73	20599
2026-01-20 07:55:31.14	112.40	2.90	-51.2	-66.1	3.8	1.49e+00	0	37	104	0	73	20614
2026-01-20 07:55:32.15	112.36	2.96	-51.2	-66.1	3.8	1.49e+00	0	37	104	0	73	20606
2026-01-20 07:55:33.16	112.32	3.03	-51.2	-66.1	3.8	1.49e+00	0	37	104	0	73	20667
2026-01-20 07:55:34.17	112.28	3.09	-51.2	-66.1	3.8	1.49e+00	0	37	104	0	73	20677
2026-01-20 07:55:35.18	112.24	3.16	-51.2	-66.0	3.8	1.49e+00	0	37	104	0	73	20426
2026-01-20 07:55:36.18	112.20	3.22	-51.2	-66.0	3.8	1.49e+00	0	37	104	0	73	20358
2026-01-20 07:55:37.19	112.16	3.29	-51.2	-66.0	3.8	1.49e+00	0	37	104	0	73	20392
2026-01-20 07:55:38.20	112.12	3.35	-51.2	-66.0	3.8	1.49e+00	0	37	104	0	73	20419
2026-01-20 07:55:39.21	112.08	3.42	-51.2	-65.9	3.8	1.49e+00	0	37	104	0	73	20189
2026-01-20 07:55:40.22	112.04	3.48	-51.2	-65.9	3.8	1.49e+00	0	37	104	0	73	20189
2026-01-20 07:55:41.22	112.00	3.55	-51.2	-65.9	3.8	1.49e+00	0	37	104	0	73	20171
2026-01-20 07:55:42.23	111.96	3.61	-51.2	-66.0	3.8	1.49e+00	0	37	104	0	73	20389
2026-01-20 07:55:43.23	111.92	3.68	-51.2	-65.9	3.8	1.49e+00	0	37	104	0	73	20260
2026-01-20 07:55:44.24	111.87	3.74	-51.2	-65.8	3.8	1.49e+00	0	37	104	0	73	20028
2026-01-20 07:55:45.25	111.83	3.81	-51.2	-65.6	3.8	1.49e+00	0	37	104	0	73	19400
2026-01-20 07:55:46.26	111.79	3.88	-51.2	-65.0	3.8	1.49e+00	0	37	104	0	73	18286
2026-01-20 07:55:47.27	111.75	3.94	-51.1	-64.4	3.8	1.49e+00	0	37	104	0	73	16979
2026-01-20 07:55:48.27	111.71	4.01	-51.1	-64.2	3.8	1.49e+00	0	37	104	0	73	16519
2026-01-20 07:55:49.28	111.66	4.08	-51.1	-63.8	3.8	1.45e+00	0	37	104	0	73	15876
2026-01-20 07:55:50.29	111.62	4.14	-51.0	-62.4	4.2	1.39e+00	0	37	0	0	72	14322
2026-01-20 07:55:51.30	111.58	4.21	-51.0	-62.1	4.3	1.31e+00	142	37	0	1048576	72	13842
2026-01-20 07:55:52.31	111.53	4.28	-50.9	-61.3	4.7	1.09e+00	0	37	0	2097152	72	12562
2026-01-20 07:55:53.31	111.49	4.34	-50.9	-61.3	4.7	9.95e-01	0	37	0	4194304	72	12550
2026-01-20 07:55:54.32	111.45	4.41	-50.8	-60.5	5.0	7.38e-01	0	37	0	6291456	72	11521
2026-01-20 07:55:55.33	111.40	4.48	-50.8	-60.0	5.4	5.77e-01	0	37	0	8388608	72	10792
2026-01-20 07:55:56.34	111.36	4.55	-50.6	-58.9	6.1	5.67e-01	0	37	0	9437184	72	9528
2026-01-20 07:55:57.35	111.31	4.61	-50.6	-58.8	6.1	3.60e-01	0	37	0	11534336	72	9444
2026-01-20 07:55:58.35	111.27	4.68	-50.6	-58.6	6.4	2.81e-01	0	37	0	13631488	72	9201
2026-01-20 07:55:59.36	111.22	4.75	-50.5	-58.4	6.5	2.79e-01	0	37	0	15728640	72	8980
2026-01-20 07:56:00.37	111.18	4.82	-50.3	-57.4	7.5	1.28e-01	0	38	0	17825792	72	8021
2026-01-20 07:56:01.38	111.13	4.89	-50.4	-57.7	7.2	1.46e-01	0	38	0	19922944	72	8340
2026-01-20 07:56:02.39	111.09	4.96	-50.5	-57.9	7.0	1.54e-01	0	37	0	20971520	71	9023
2026-01-20 07:56:03.39	111.04	5.02	-50.4	-57.7	7.3	1.33e-01	0	38	0	23068672	71	8800
2026-01-20 07:56:04.40	111.00	5.09	-49.9	-58.2	7.0	9.55e-02	0	37	0	25165824	71	9321
2026-01-20 07:56:05.41	110.95	5.16	-50.9	-60.1	5.4	7.61e-01	0	37	0	27262976	72	10960
2026-01-20 07:56:06.42	110.90	5.23	-50.5	-57.6	7.3	3.00e-01	0	38	0	28311552	72	8269
2026-01-20 07:56:07.43	110.86	5.30	-50.4	-57.3	7.4	7.53e-01	0	38	0	30408704	72	7937
2026-01-20 07:56:08.43	110.81	5.37	-50.0	-55.2	10.2	4.29e-04	0	38	0	32505856	70	7033
2026-01-20 07:56:09.44	110.76	5.44	-51.2	-62.4	3.9	1.42e+00	0	38	104	33554432	73	13560
2026-01-20 07:56:10.45	110.72	5.51	-48.9	-52.7	12.6	1.41e-04	0	38	0	33554432	69	5541
2026-01-20 07:56:11.46	110.67	5.58	-49.0	-52.8	12.4	1.11e-04	0	38	0	35651584	69	5629
2026-01-20 07:56:12.46	110.62	5.65	-49.0	-53.0	12.2	1.48e-04	0	38	0	37748736	69	5752
2026-01-20 07:56:13.47	110.57	5.72	-49.1	-53.1	12.1	1.27e-04	0	38	0	39845888	69	5823
2026-01-20 07:56:14.48	110.52	5.79	-48.9	-52.6	12.6	2.23e-04	0	38	0	41943040	69	5506
2026-01-20 07:56:15.49	110.48	5.86	-48.7	-52.4	12.8	8.62e-05	0	38	0	42991616	69	5365
2026-01-20 07:56:16.50	110.43	5.93	-48.9	-52.8	12.5	1.04e-04	0	38	0	45088768	68	5926
2026-01-20 07:56:17.51	110.38	6.01	-49.1	-53.1	12.2	9.61e-05	0	38	0	47185920	68	6169
2026-01-20 07:56:18.51	110.33	6.08	-49.1	-53.2	12.0	3.46e-04	0	38	0	49283072	69	5863
2026-01-20 07:56:19.52	110.28	6.15	-49.1	-53.1	12.1	2.28e-04	0	38	0	51380224	69	5825
2026-01-20 07:56:20.53	110.23	6.22	-49.3	-53.5	11.7	4.30e-04	0	38	0	52428800	69	6103
2026-01-20 07:56:21.53	110.18	6.29	-49.1	-53.2	12.0	1.88e-04	0	38	0	54525952	69	5881
2026-01-20 07:56:22.54	110.13	6.36	-48.9	-52.8	12.4	1.31e-04	0	38	0	56623104	69	5615
2026-01-20 07:56:23.55	110.08	6.44	-48.6	-52.1	13.1	5.26e-05	0	38	0	58720256	69	5212
2026-01-20 07:56:24.56	110.03	6.51	-48.7	-52.2	13.1	4.27e-05	0	38	0	60817408	69	5271
2026-01-20 07:56:25.57	109.97	6.58	-48.8	-52.4	12.9	3.35e-05	0	38	0	61865984	69	5346
2026-01-20 07:56:26.57	109.92	6.65	-48.5	-51.9	13.4	1.06e-05	0	38	0	63963136	69	5081
2026-01-20 07:56:27.58	109.87	6.73	-48.6	-52.0	13.2	1.83e-05	0	38	0	66060288	68	5447
2026-01-20 07:56:28.59	109.82	6.80	-48.5	-51.9	13.4	2.74e-05	0	38	0	68157440	68	5351
2026-01-20 07:56:29.60	109.77	6.87	-48.6	-52.0	13.3	3.12e-05	0	38	0	70254592	68	5437
2026-01-20 07:56:30.61	109.71	6.95	-48.6	-52.1	13.2	3.20e-05	0	38	0	71303168	68	5466
2026-01-20 07:56:31.61	109.66	7.02	-48.7	-52.3	13.0	3.58e-05	0	38	0	73400320	68	5618
2026-01-20 07:56:32.62	109.61	7.09	-48.7	-52.4	12.9	4.11e-05	0	38	0	75497472	68	5658
2026-01-20 07:56:33.63	109.56	7.17	-48.8	-52.4	12.8	4.42e-05	0	38	0	77594624	68	5699
2026-01-20 07:56:34.64	109.50	7.24	-48.9	-52.6	12.7	4.57e-05	0	38	0	79691776	68	5854
2026-01-20 07:56:35.64	109.45	7.32	-48.9	-52.7	12.6	1.06e-04	0	38	0	80740352	68	5882
2026-01-20 07:56:36.65	109.39	7.39	-48.9	-52.6	12.7	9.46e-05	0	38	0	82837504	68	5833
2026-01-20 07:56:37.66	109.34	7.47	-48.9	-52.6	12.6	9.76e-05	0	38	0	84934656	68	5855
2026-01-20 07:56:38.67	109.28	7.54	-48.9	-52.6	12.7	7.62e-05	0	38	0	87031808	68	5801
2026-01-20 07:56:39.67	109.23	7.62	-48.9	-52.6	12.7	5.18e-05	0	38	0	89128960	68	5822
2026-01-20 07:56:40.68	109.17	7.69	-48.7	-52.2	13.1	4.34e-05	0	38	0	90177536	68	5565
2026-01-20 07:56:41.69	109.12	7.77	-48.6	-52.1	13.3	1.75e-05	0	38	0	92274688	68	5495
2026-01-20 07:56:42.70	109.06	7.84	-48.8	-52.4	12.9	4.50e-05	0	38	0	94371840	68	5665
2026-01-20 07:56:43.70	109.00	7.92	-48.6	-51.9	13.4	1.52e-05	0	38	0	96468992	68	5379
2026-01-20 07:56:44.71	108.95	7.99	-48.7	-52.2	13.2	2.67e-05	0	38	0	98566144	68	5553
2026-01-20 07:56:45.72	108.89	8.07	-48.6	-52.1	13.2	2.97e-05	0	38	0	99614720	68	5487
2026-01-20 07:56:46.73	108.83	8.15	-48.7	-52.2	13.1	2.82e-05	0	38	0	101711872	68	5570
2026-01-20 07:56:47.74	108.77	8.22	-48.8	-52.4	12.9	2.74e-05	0	38	0	103809024	68	5698
2026-01-20 07:56:48.74	108.72	8.30	-48.8	-52.5	12.8	5.03e-05	0	38	0	105906176	68	5779
2026-01-20 07:56:49.75	108.66	8.38	-48.7	-52.2	13.2	2.28e-05	0	38	0	108003328	68	5535
2026-01-20 07:56:50.76	108.60	8.46	-48.7	-52.1	13.2	1.98e-05	0	38	0	109051904	68	5520
2026-01-20 07:56:51.77	108.54	8.53	-48.6	-52.0	13.3	1.37e-05	0	38	0	111149056	68	5428
2026-01-20 07:56:52.77	108.48	8.61	-48.4	-51.5	13.9	6.80e-06	0	38	0	113246208	68	5143
2026-01-20 07:56:53.78	108.42	8.69	-48.2	-51.3	14.1	1.50e-06	0	38	0	115343360	68	4988
2026-01-20 07:56:54.79	108.36	8.77	-48.2	-51.2	14.1	2.20e-06	0	38	0	117440512	68	4980
2026-01-20 07:56:55.80	108.30	8.85	-48.4	-51.7	13.7	3.00e-06	0	38	0	118489088	68	5227
2026-01-20 07:56:56.81	108.24	8.93	-48.3	-51.4	14.0	3.00e-06	0	38	0	120586240	68	5070
2026-01-20 07:56:57.81	108.18	9.00	-48.3	-51.5	13.9	3.00e-06	0	38	0	122683392	68	5126
2026-01-20 07:56:58.82	108.12	9.08	-48.4	-51.6	13.8	6.10e-06	0	38	0	124780544	68	5162
2026-01-20 07:56:59.83	108.06	9.16	-48.3	-51.4	14.0	3.00e-06	0	38	0	126877696	68	5058
2026-01-20 07:57:00.84	107.99	9.24	-48.3	-51.5	13.9	3.80e-06	0	38	0	127926272	68	5102
2026-01-20 07:57:01.85	107.93	9.32	-48.3	-51.6	13.7	4.50e-06	0	38	0	130023424	67	5492
2026-01-20 07:57:02.85	107.87	9.40	-48.3	-51.5	13.8	3.00e-06	0	38	0	132120576	67	5419
2026-01-20 07:57:03.86	107.81	9.48	-48.2	-51.4	13.9	3.80e-06	0	38	0	134217728	67	5356
2026-01-20 07:57:04.87	107.74	9.56	-48.1	-51.1	14.2	2.20e-06	0	38	0	136314880	67	5195
2026-01-20 07:57:05.88	107.68	9.64	-47.9	-50.8	14.5	0.00e+00	0	38	0	138412032	67	5006
2026-01-20 07:57:06.89	107.61	9.72	-47.9	-50.7	14.6	0.00e+00	0	38	0	139460608	67	4962
2026-01-20 07:57:07.89	107.55	9.80	-47.8	-50.7	14.7	1.50e-06	0	38	0	141557760	67	4931
2026-01-20 07:57:08.90	107.48	9.89	-48.0	-50.9	14.4	1.50e-06	0	38	0	143654912	67	5047
2026-01-20 07:57:09.91	107.42	9.97	-47.9	-50.7	14.6	0.00e+00	0	38	0	145752064	67	4952
2026-01-20 07:57:10.91	107.35	10.05	-47.9	-50.8	14.6	7.00e-07	0	38	0	146800640	67	5011
2026-01-20 07:57:11.92	107.29	10.13	-48.0	-51.0	14.3	1.50e-06	0	38	0	148897792	67	5130
2026-01-20 07:57:12.93	107.22	10.21	-47.8	-50.7	14.5	1.50e-06	0	38	0	150994944	67	4981
2026-01-20 07:57:13.94	107.15	10.30	-47.9	-50.9	14.4	7.00e-07	0	38	0	153092096	67	5089
2026-01-20 07:57:14.95	107.09	10.38	-48.0	-51.0	14.3	3.00e-06	0	38	0	155189248	67	5124
2026-01-20 07:57:15.95	107.02	10.46	-47.8	-50.8	14.5	0.00e+00	0	38	0	156237824	67	4996
2026-01-20 07:57:16.96	106.95	10.54	-47.8	-50.7	14.6	7.00e-07	0	38	0	158334976	67	4963
2026-01-20 07:57:17.97	106.88	10.63	-47.8	-50.8	14.5	1.50e-06	0	38	0	160432128	67	4995
2026-01-20 07:57:18.97	106.81	10.71	-47.7	-50.5	14.8	7.00e-07	0	38	0	162529280	66	5125
2026-01-20 07:57:19.98	106.74	10.80	-47.7	-50.5	14.8	0.00e+00	0	38	0	164626432	66	5118
2026-01-20 07:57:20.99	106.67	10.88	-47.6	-50.3	15.0	0.00e+00	0	38	0	166723584	66	5000
2026-01-20 07:57:21.99	106.60	10.96	-47.7	-50.5	14.8	7.00e-07	0	38	0	167772160	66	5157
2026-01-20 07:57:23.00	106.53	11.05	-47.7	-50.5	14.8	0.00e+00	0	38	0	169869312	66	5141
2026-01-20 07:57:24.01	106.46	11.13	-47.8	-50.6	14.7	7.00e-07	0	38	0	171966464	66	5202
2026-01-20 07:57:25.01	106.39	11.22	-47.8	-50.6	14.7	0.00e+00	0	38	0	174063616	66	5215
2026-01-20 07:57:26.02	106.32	11.30	-47.9	-50.8	14.5	7.00e-07	0	38	0	175112192	66	5340
2026-01-20 07:57:27.03	106.25	11.39	-47.9	-50.9	14.4	0.00e+00	0	38	0	177209344	66	5366
2026-01-20 07:57:28.04	106.17	11.48	-48.0	-51.0	14.3	1.50e-06	0	38	0	179306496	66	5441
2026-01-20 07:57:29.04	106.10	11.56	-47.9	-50.9	14.5	1.50e-06	0	38	0	181403648	66	5378
2026-01-20 07:57:30.05	106.03	11.65	-47.9	-50.9	14.4	2.20e-06	0	38	0	183500800	66	5373
2026-01-20 07:57:31.06	105.95	11.73	-47.7	-50.5	14.8	0.00e+00	0	38	0	184549376	66	5140
2026-01-20 07:57:32.07	105.88	11.82	-47.7	-50.5	14.9	0.00e+00	0	38	0	186646528	66	5113
2026-01-20 07:57:33.07	105.80	11.91	-47.6	-50.4	15.0	0.00e+00	0	38	0	188743680	66	5044
2026-01-20 07:57:34.08	105.73	12.00	-47.7	-50.5	14.8	7.00e-07	0	38	0	190840832	66	5124
2026-01-20 07:57:35.09	105.65	12.08	-47.7	-50.6	14.8	7.00e-07	0	38	0	192937984	66	5174
2026-01-20 07:57:36.09	105.57	12.17	-47.9	-50.9	14.5	7.00e-07	0	38	0	195035136	66	5361
2026-01-20 07:57:37.10	105.50	12.26	-47.9	-50.9	14.5	1.50e-06	0	38	0	196083712	66	5346
2026-01-20 07:57:38.11	105.42	12.35	-48.0	-51.0	14.4	1.50e-06	0	38	0	198180864	66	5418
2026-01-20 07:57:39.12	105.34	12.44	-48.1	-51.2	14.2	0.00e+00	0	38	0	200278016	66	5540
2026-01-20 07:57:40.12	105.26	12.53	-48.0	-51.0	14.4	1.50e-06	0	38	0	202375168	66	5445
2026-01-20 07:57:41.13	105.18	12.62	-47.7	-50.5	14.8	7.00e-07	0	38	0	203423744	66	5144
2026-01-20 07:57:42.14	105.10	12.71	-47.8	-50.7	14.7	0.00e+00	0	38	0	205520896	66	5263
2026-01-20 07:57:43.15	105.02	12.80	-47.8	-50.7	14.7	7.00e-07	0	38	0	207618048	66	5231
2026-01-20 07:57:44.15	104.94	12.88	-47.7	-50.4	14.9	7.00e-07	0	38	0	209715200	66	5079
2026-01-20 07:57:45.16	104.86	12.98	-47.7	-50.5	14.8	0.00e+00	0	38	0	211812352	66	5157
2026-01-20 07:57:46.17	104.78	13.07	-47.8	-50.6	14.7	0.00e+00	0	38	0	213909504	66	5209
2026-01-20 07:57:47.17	104.70	13.16	-47.8	-50.7	14.6	0.00e+00	0	38	0	214958080	66	5250
2026-01-20 07:57:48.18	104.62	13.25	-47.9	-50.8	14.5	7.00e-07	0	38	0	217055232	66	5320
2026-01-20 07:57:49.19	104.53	13.34	-47.8	-50.8	14.7	0.00e+00	0	38	0	219152384	66	5280
2026-01-20 07:57:50.20	104.45	13.43	-47.9	-50.8	14.5	7.00e-07	0	38	0	221249536	66	5329
2026-01-20 07:57:51.21	104.37	13.52	-47.8	-50.7	14.7	0.00e+00	0	38	0	223346688	66	5247
2026-01-20 07:57:52.21	104.28	13.62	-48.0	-51.0	14.3	0.00e+00	0	38	0	224395264	66	5452
2026-01-20 07:57:53.22	104.20	13.71	-47.9	-50.9	14.5	7.00e-07	0	38	0	226492416	66	5342
2026-01-20 07:57:54.23	104.11	13.80	-47.8	-50.7	14.6	0.00e+00	0	38	0	228589568	66	5253
2026-01-20 07:57:55.24	104.02	13.90	-47.7	-50.4	14.9	0.00e+00	0	38	0	230686720	66	5099
2026-01-20 07:57:56.25	103.94	13.99	-47.5	-50.2	15.1	0.00e+00	0	38	0	231735296	66	4954
2026-01-20 07:57:57.25	103.85	14.08	-47.5	-50.1	15.3	0.00e+00	0	38	0	233832448	66	4925
2026-01-20 07:57:58.26	103.76	14.18	-47.7	-50.5	14.8	0.00e+00	0	38	0	235929600	66	5139
2026-01-20 07:57:59.27	103.67	14.27	-47.5	-50.2	15.1	0.00e+00	0	38	0	238026752	66	4982
2026-01-20 07:58:00.27	103.58	14.37	-47.6	-50.3	15.1	0.00e+00	0	38	0	240123904	66	5013
2026-01-20 07:58:01.28	103.49	14.46	-47.3	-49.9	15.5	0.00e+00	0	38	0	242221056	66	4781
2026-01-20 07:58:02.29	103.40	14.56	-47.1	-49.6	15.8	0.00e+00	0	38	0	243269632	66	4605
2026-01-20 07:58:03.30	103.31	14.65	-47.4	-50.0	15.4	0.00e+00	0	38	0	245366784	66	4848
2026-01-20 07:58:04.31	103.22	14.75	-47.2	-49.7	15.7	0.00e+00	0	38	0	247463936	66	4670
2026-01-20 07:58:05.31	103.13	14.84	-47.1	-49.5	15.9	0.00e+00	0	38	0	249561088	65	4834
2026-01-20 07:58:06.32	103.04	14.94	-47.1	-49.5	15.8	0.00e+00	0	38	0	251658240	65	4864
2026-01-20 07:58:07.33	102.94	15.04	-47.1	-49.4	15.9	0.00e+00	0	38	0	252706816	65	4814
2026-01-20 07:58:08.34	102.85	15.13	-47.1	-49.5	15.9	0.00e+00	0	38	0	254803968	65	4856
2026-01-20 07:58:09.35	102.75	15.23	-47.1	-49.5	15.9	0.00e+00	0	38	0	256901120	65	4823
2026-01-20 07:58:10.35	102.66	15.33	-47.0	-49.3	16.1	0.00e+00	0	38	0	258998272	65	4726
2026-01-20 07:58:11.36	102.56	15.43	-47.2	-49.7	15.7	0.00e+00	0	38	0	261095424	65	4964
2026-01-20 07:58:12.37	102.46	15.53	-47.2	-49.7	15.7	0.00e+00	0	38	0	262144000	65	4965
2026-01-20 07:58:13.38	102.37	15.62	-47.4	-49.9	15.5	0.00e+00	0	38	0	264241152	65	5081
2026-01-20 07:58:14.38	102.27	15.72	-47.4	-50.0	15.4	0.00e+00	0	38	0	266338304	65	5159
2026-01-20 07:58:15.39	102.17	15.82	-47.5	-50.1	15.3	0.00e+00	0	38	0	268435456	65	5184
2026-01-20 07:58:16.40	102.07	15.92	-47.6	-50.3	15.1	0.00e+00	0	38	0	270532608	65	5311
2026-01-20 07:58:17.41	101.97	16.02	-47.7	-50.4	15.1	7.00e-07	0	38	0	271581184	66	5061
2026-01-20 07:58:18.41	101.87	16.12	-47.4	-50.0	15.4	0.00e+00	0	38	0	273678336	66	4842
2026-01-20 07:58:19.42	101.77	16.22	-47.6	-50.3	15.2	0.00e+00	0	38	0	275775488	66	5006
2026-01-20 07:58:20.43	101.67	16.32	-47.6	-50.3	15.1	0.00e+00	0	38	0	277872640	66	5035
2026-01-20 07:58:21.44	101.56	16.43	-47.7	-50.4	15.1	7.00e-07	0	38	0	279969792	66	5068
2026-01-20 07:58:22.45	101.46	16.53	-47.7	-50.4	15.0	0.00e+00	0	38	0	281018368	66	5075
2026-01-20 07:58:23.45	101.36	16.63	-47.7	-50.4	15.0	0.00e+00	0	38	0	283115520	66	5097
2026-01-20 07:58:24.46	101.25	16.73	-47.6	-50.4	15.1	0.00e+00	0	38	0	285212672	66	5048
2026-01-20 07:58:25.47	101.14	16.83	-47.6	-50.4	15.1	0.00e+00	0	38	0	287309824	66	5051
2026-01-20 07:58:26.48	101.04	16.94	-47.5	-50.1	15.4	0.00e+00	0	38	0	289406976	66	4911
2026-01-20 07:58:27.49	100.93	17.04	-47.6	-50.3	15.1	0.00e+00	0	38	0	290455552	66	5035
2026-01-20 07:58:28.49	100.82	17.14	-47.6	-50.3	15.2	0.00e+00	0	38	0	292552704	66	5005
2026-01-20 07:58:29.50	100.71	17.25	-47.6	-50.2	15.2	0.00e+00	0	38	0	294649856	66	4957
2026-01-20 07:58:30.51	100.60	17.35	-47.4	-50.0	15.5	0.00e+00	0	38	0	296747008	66	4835
2026-01-20 07:58:31.52	100.49	17.46	-47.4	-49.9	15.5	0.00e+00	0	38	0	298844160	66	4766
2026-01-20 07:58:32.53	100.38	17.56	-47.4	-50.0	15.5	0.00e+00	0	38	0	299892736	66	4825
2026-01-20 07:58:33.53	100.27	17.67	-47.4	-49.9	15.6	0.00e+00	0	38	0	301989888	66	4761
2026-01-20 07:58:34.54	100.16	17.77	-47.3	-49.8	15.7	0.00e+00	0	38	0	304087040	66	4750
2026-01-20 07:58:35.55	100.04	17.88	-47.6	-50.2	15.2	0.00e+00	0	38	0	306184192	66	4955
2026-01-20 07:58:36.56	99.93	17.98	-47.4	-50.0	15.5	0.00e+00	0	38	0	308281344	66	4826
2026-01-20 07:58:37.57	99.81	18.09	-47.5	-50.1	15.4	0.00e+00	0	38	0	310378496	66	4884
2026-01-20 07:58:38.57	99.70	18.20	-47.5	-50.1	15.4	0.00e+00	0	38	0	311427072	66	4889
2026-01-20 07:58:39.58	99.58	18.30	-47.4	-50.0	15.5	0.00e+00	0	38	0	313524224	66	4826
2026-01-20 07:58:40.59	99.46	18.41	-47.3	-49.8	15.7	0.00e+00	0	38	0	315621376	66	4710
2026-01-20 07:58:41.59	99.35	18.52	-47.3	-49.8	15.6	0.00e+00	0	38	0	317718528	66	4742
2026-01-20 07:58:42.60	99.23	18.63	-47.4	-49.8	15.6	0.00e+00	0	38	0	318767104	66	4741
2026-01-20 07:58:43.61	99.11	18.74	-47.1	-49.5	16.0	0.00e+00	0	38	0	320864256	66	4563
2026-01-20 07:58:44.62	98.98	18.85	-47.3	-49.7	15.7	0.00e+00	0	38	0	322961408	66	4676
2026-01-20 07:58:45.63	98.86	18.96	-47.4	-49.9	15.6	0.00e+00	0	38	0	325058560	66	4781
2026-01-20 07:58:46.64	98.74	19.06	-47.2	-49.6	15.9	0.00e+00	0	38	0	327155712	66	4605
2026-01-20 07:58:47.64	98.62	19.17	-47.2	-49.6	15.9	0.00e+00	0	38	0	328204288	66	4645
2026-01-20 07:58:48.65	98.49	19.28	-47.2	-49.6	15.9	0.00e+00	0	38	0	330301440	66	4610
2026-01-20 07:58:49.66	98.37	19.40	-47.2	-49.5	15.9	0.00e+00	0	38	0	332398592	66	4586
2026-01-20 07:58:50.67	98.24	19.51	-47.3	-49.8	15.8	0.00e+00	0	38	0	334495744	66	4706
2026-01-20 07:58:51.67	98.11	19.62	-47.4	-49.8	15.6	0.00e+00	0	38	0	336592896	66	4758
2026-01-20 07:58:52.68	97.98	19.73	-47.4	-49.9	15.6	0.00e+00	0	38	0	338690048	66	4808
2026-01-20 07:58:53.69	97.85	19.84	-47.6	-50.2	15.3	0.00e+00	0	38	0	339738624	66	4937
2026-01-20 07:58:54.70	97.72	19.95	-47.6	-50.3	15.2	0.00e+00	0	38	0	341835776	66	5018
2026-01-20 07:58:55.71	97.59	20.07	-47.5	-50.1	15.4	0.00e+00	0	38	0	343932928	66	4898
2026-01-20 07:58:56.71	97.46	20.18	-47.7	-50.4	15.1	0.00e+00	0	38	0	346030080	66	5093
2026-01-20 07:58:57.72	97.33	20.29	-47.6	-50.2	15.4	0.00e+00	0	38	0	347078656	66	4936
2026-01-20 07:58:58.73	97.19	20.41	-47.6	-50.2	15.3	0.00e+00	0	38	0	349175808	66	4951
2026-01-20 07:58:59.74	97.05	20.52	-47.6	-50.2	15.3	0.00e+00	0	38	0	351272960	66	4960
2026-01-20 07:59:00.75	96.92	20.64	-47.7	-50.3	15.2	0.00e+00	0	38	0	353370112	66	5036
2026-01-20 07:59:01.76	96.78	20.75	-47.6	-50.3	15.2	0.00e+00	0	38	0	355467264	66	5009
2026-01-20 07:59:02.76	96.64	20.87	-47.7	-50.4	15.1	0.00e+00	0	38	0	357564416	66	5083
2026-01-20 07:59:03.77	96.50	20.98	-47.6	-50.3	15.2	0.00e+00	0	38	0	358612992	66	5019
2026-01-20 07:59:04.78	96.36	21.10	-47.5	-50.0	15.5	0.00e+00	0	38	0	360710144	66	4857
2026-01-20 07:59:05.78	96.22	21.21	-47.4	-50.0	15.5	0.00e+00	0	38	0	362807296	66	4830
2026-01-20 07:59:06.79	96.08	21.33	-47.6	-50.2	15.3	0.00e+00	0	38	0	364904448	66	4957
2026-01-20 07:59:07.80	95.93	21.45	-47.6	-50.3	15.2	0.00e+00	0	38	0	365953024	66	5029
2026-01-20 07:59:08.81	95.79	21.56	-47.8	-50.6	15.0	0.00e+00	0	38	0	368050176	66	5164
2026-01-20 07:59:09.81	95.64	21.68	-47.7	-50.5	15.1	0.00e+00	0	38	0	370147328	66	5105
2026-01-20 07:59:10.82	95.49	21.80	-47.9	-50.8	14.8	0.00e+00	0	38	0	372244480	66	5291
2026-01-20 07:59:11.83	95.35	21.92	-47.9	-50.8	14.7	7.00e-07	0	38	0	374341632	66	5334
2026-01-20 07:59:12.84	95.20	22.04	-48.1	-51.1	14.5	0.00e+00	0	38	0	375390208	66	5482
2026-01-20 07:59:13.85	95.04	22.16	-47.9	-50.8	14.7	0.00e+00	0	38	0	377487360	66	5294
2026-01-20 07:59:14.85	94.89	22.27	-47.9	-50.8	14.7	0.00e+00	0	38	0	379584512	66	5312
2026-01-20 07:59:15.86	94.74	22.39	-47.9	-50.8	14.7	7.00e-07	0	38	0	381681664	66	5292
2026-01-20 07:59:16.87	94.59	22.51	-48.1	-51.2	14.3	0.00e+00	0	38	0	383778816	66	5545
2026-01-20 07:59:17.87	94.43	22.63	-48.2	-51.3	14.2	7.00e-07	0	38	0	385875968	66	5605
2026-01-20 07:59:18.88	94.27	22.75	-48.3	-51.5	14.1	1.50e-06	0	38	0	386924544	67	5412
2026-01-20 07:59:19.89	94.11	22.87	-48.0	-51.0	14.5	0.00e+00	0	38	0	389021696	67	5119
2026-01-20 07:59:20.90	93.96	23.00	-47.9	-50.8	14.7	7.00e-07	0	38	0	391118848	67	4989
2026-01-20 07:59:21.91	93.79	23.12	-47.9	-50.8	14.7	0.00e+00	0	38	0	393216000	67	5036
2026-01-20 07:59:22.91	93.63	23.24	-47.7	-50.3	15.2	0.00e+00	0	38	0	395313152	67	4754
2026-01-20 07:59:23.92	93.47	23.36	-47.7	-50.5	15.1	0.00e+00	0	38	0	396361728	67	4832
2026-01-20 07:59:24.93	93.31	23.48	-47.7	-50.5	15.1	0.00e+00	0	38	0	398458880	67	4818
2026-01-20 07:59:25.94	93.14	23.61	-47.7	-50.5	15.1	0.00e+00	0	38	0	400556032	67	4832
2026-01-20 07:59:26.95	92.97	23.73	-47.7	-50.4	15.1	0.00e+00	0	38	0	402653184	67	4800
2026-01-20 07:59:27.96	92.80	23.86	-47.4	-49.9	15.6	0.00e+00	0	38	0	403701760	66	4806
2026-01-20 07:59:28.96	92.63	23.98	-47.2	-49.6	15.9	0.00e+00	0	38	0	405798912	66	4644
2026-01-20 07:59:29.97	92.46	24.10	-47.2	-49.5	16.0	0.00e+00	0	38	0	407896064	66	4597
2026-01-20 07:59:30.98	92.29	24.23	-47.0	-49.2	16.3	0.00e+00	0	38	0	409993216	65	4702
2026-01-20 07:59:31.99	92.11	24.35	-47.1	-49.4	16.1	0.00e+00	0	38	0	412090368	65	4807
2026-01-20 07:59:32.99	91.94	24.48	-47.2	-49.6	15.9	0.00e+00	0	38	0	414187520	65	4871
2026-01-20 07:59:34.00	91.76	24.60	-47.5	-50.1	15.5	0.00e+00	0	38	0	415236096	65	5186
2026-01-20 07:59:35.01	91.58	24.73	-47.3	-49.8	15.7	0.00e+00	0	38	0	417333248	65	5028
2026-01-20 07:59:36.01	91.41	24.85	-47.5	-50.1	15.5	0.00e+00	0	38	0	419430400	65	5189
2026-01-20 07:59:37.02	91.22	24.98	-47.1	-49.4	16.1	0.00e+00	0	38	0	421527552	65	4788
2026-01-20 07:59:38.03	91.04	25.11	-47.0	-49.3	16.2	0.00e+00	0	38	0	423624704	65	4723
2026-01-20 07:59:39.04	90.86	25.23	-47.1	-49.4	16.1	0.00e+00	0	38	0	424673280	65	4812
2026-01-20 07:59:40.05	90.67	25.36	-47.3	-49.8	15.8	0.00e+00	0	38	0	426770432	65	5001
2026-01-20 07:59:41.05	90.49	25.49	-47.5	-50.1	15.4	0.00e+00	0	38	0	428867584	65	5190
2026-01-20 07:59:42.06	90.30	25.61	-47.9	-50.6	14.9	0.00e+00	0	38	0	430964736	66	5205
2026-01-20 07:59:43.07	90.11	25.74	-47.9	-50.6	15.0	0.00e+00	0	38	0	433061888	66	5199
2026-01-20 07:59:44.08	89.91	25.87	-48.1	-51.1	14.5	0.00e+00	0	38	0	434110464	66	5490
2026-01-20 07:59:45.08	89.72	26.00	-48.2	-51.2	14.4	0.00e+00	0	38	0	436207616	66	5564
2026-01-20 07:59:46.09	89.53	26.13	-48.3	-51.4	14.3	2.20e-06	0	38	0	438304768	67	5350
2026-01-20 07:59:47.10	89.33	26.26	-48.4	-51.6	14.0	7.00e-07	0	38	0	440401920	67	5517
2026-01-20 07:59:48.11	89.13	26.39	-48.7	-52.1	13.6	3.00e-06	0	38	0	442499072	67	5806
2026-01-20 07:59:49.12	88.93	26.52	-48.5	-51.6	14.1	1.14e-05	0	38	0	443547648	68	5216
2026-01-20 07:59:50.12	88.73	26.64	-48.8	-52.2	13.5	1.52e-05	0	38	0	445644800	68	5572
2026-01-20 07:59:51.13	88.53	26.77	-48.7	-52.1	13.5	6.10e-06	0	38	0	447741952	68	5520
2026-01-20 07:59:52.14	88.32	26.90	-49.0	-52.6	13.0	4.50e-06	0	38	0	449839104	68	5819
2026-01-20 07:59:53.14	88.12	27.03	-48.9	-52.5	13.2	1.29e-05	0	38	0	451936256	68	5736
2026-01-20 07:59:54.15	87.91	27.16	-48.9	-52.6	13.0	2.59e-05	0	38	0	452984832	68	5846
2026-01-20 07:59:55.16	87.70	27.30	-48.9	-52.5	13.1	2.74e-05	0	38	0	455081984	68	5746
2026-01-20 07:59:56.17	87.48	27.43	-49.0	-52.8	12.8	4.95e-05	0	39	0	457179136	68	5928
2026-01-20 07:59:57.18	87.27	27.56	-49.1	-52.8	12.9	6.86e-05	0	38	0	459276288	69	5643
2026-01-20 07:59:58.18	87.06	27.69	-49.2	-53.3	12.4	1.42e-04	0	38	0	461373440	69	5932
2026-01-20 07:59:59.19	86.84	27.82	-49.4	-53.5	12.2	1.92e-04	0	38	0	462422016	69	6110
2026-01-20 08:00:00.20	86.62	27.95	-49.3	-53.4	12.2	1.68e-04	0	38	0	464519168	69	6004
2026-01-20 08:00:01.21	86.40	28.08	-49.2	-53.3	12.4	1.83e-04	0	39	0	466616320	69	5939
2026-01-20 08:00:02.22	86.18	28.22	-49.3	-53.3	12.3	1.08e-04	0	38	0	468713472	69	5986
2026-01-20 08:00:03.22	85.95	28.35	-49.2	-53.2	12.5	9.53e-05	0	38	0	470810624	69	5858
2026-01-20 08:00:04.23	85.73	28.48	-48.9	-52.6	12.9	9.76e-05	0	38	0	471859200	69	5523
2026-01-20 08:00:05.24	85.50	28.61	-48.8	-52.4	13.3	4.34e-05	0	38	0	473956352	69	5368
2026-01-20 08:00:06.25	85.27	28.74	-48.6	-52.0	13.7	3.81e-05	0	38	0	476053504	69	5101
2026-01-20 08:00:07.25	85.04	28.88	-48.4	-51.5	14.2	6.10e-06	0	38	0	478150656	68	5107
2026-01-20 08:00:08.26	84.80	29.01	-48.6	-51.8	13.8	7.00e-07	0	38	0	480247808	68	5337
2026-01-20 08:00:09.27	84.57	29.14	-48.6	-51.9	13.7	4.50e-06	0	38	0	481296384	68	5389
2026-01-20 08:00:10.28	84.33	29.27	-48.4	-51.5	14.2	3.00e-06	0	38	0	483393536	68	5138
2026-01-20 08:00:11.29	84.09	29.41	-48.7	-52.0	13.6	1.14e-05	0	38	0	485490688	68	5458
2026-01-20 08:00:12.29	83.85	29.54	-48.4	-51.5	14.2	4.50e-06	0	39	0	487587840	68	5153
2026-01-20 08:00:13.30	83.60	29.67	-48.1	-51.0	14.6	0.00e+00	0	39	0	489684992	68	4845
2026-01-20 08:00:14.31	83.36	29.80	-48.2	-51.1	14.5	0.00e+00	0	38	0	490733568	68	4895
2026-01-20 08:00:15.31	83.11	29.94	-48.4	-51.5	14.2	7.00e-07	0	39	0	492830720	68	5105
2026-01-20 08:00:16.32	82.86	30.07	-48.4	-51.5	14.1	2.20e-06	0	38	0	494927872	68	5132
2026-01-20 08:00:17.33	82.61	30.20	-48.4	-51.4	14.3	0.00e+00	0	39	0	497025024	68	5078
2026-01-20 08:00:18.34	82.35	30.34	-48.2	-51.2	14.6	7.00e-07	0	38	0	499122176	68	4955
2026-01-20 08:00:19.35	82.09	30.47	-48.5	-51.7	14.1	2.20e-06	0	38	0	500170752	68	5269
2026-01-20 08:00:20.35	81.84	30.60	-48.9	-52.5	13.2	1.29e-05	0	39	0	502267904	68	5752
2026-01-20 08:00:21.36	81.58	30.73	-48.9	-52.4	13.3	2.89e-05	0	38	0	504365056	68	5666
2026-01-20 08:00:22.37	81.31	30.87	-49.2	-53.1	12.6	5.49e-05	0	38	0	506462208	69	5836
2026-01-20 08:00:23.38	81.05	31.00	-49.1	-53.0	12.7	6.86e-05	0	39	0	508559360	69	5723
2026-01-20 08:00:24.39	80.78	31.13	-48.9	-52.3	13.4	2.97e-05	0	38	0	509607936	69	5330
2026-01-20 08:00:25.39	80.51	31.26	-48.9	-52.4	13.3	1.52e-05	0	38	0	511705088	69	5370
2026-01-20 08:00:26.40	80.24	31.40	-48.9	-52.4	13.4	1.29e-05	0	38	0	513802240	69	5346
2026-01-20 08:00:27.41	79.97	31.53	-49.0	-52.7	13.0	6.10e-06	0	38	0	515899392	69	5547
2026-01-20 08:00:28.41	79.69	31.66	-48.8	-52.2	13.5	1.75e-05	0	38	0	517996544	69	5262
2026-01-20 08:00:29.42	79.41	31.79	-48.5	-51.7	13.9	5.30e-06	0	38	0	519045120	68	5257
2026-01-20 08:00:30.43	79.13	31.92	-48.6	-52.0	13.7	4.50e-06	0	38	0	521142272	68	5416
2026-01-20 08:00:31.44	78.85	32.05	-48.6	-51.9	13.9	6.80e-06	0	38	0	523239424	68	5377
2026-01-20 08:00:32.45	78.56	32.19	-48.4	-51.6	14.1	3.00e-06	0	38	0	525336576	68	5179
2026-01-20 08:00:33.45	78.28	32.32	-48.3	-51.3	14.4	0.00e+00	0	39	0	527433728	68	4996
2026-01-20 08:00:34.46	77.99	32.45	-48.2	-51.2	14.6	7.00e-07	0	38	0	529530880	68	4978
2026-01-20 08:00:35.47	77.69	32.58	-48.5	-51.7	14.0	7.00e-07	0	38	0	530579456	68	5275
2026-01-20 08:00:36.48	77.40	32.71	-48.6	-52.0	13.8	7.00e-07	0	38	0	532676608	68	5422
2026-01-20 08:00:37.49	77.10	32.84	-48.6	-52.0	13.6	6.10e-06	0	39	0	534773760	68	5457
2026-01-20 08:00:38.49	76.80	32.97	-48.4	-51.5	14.2	7.00e-07	0	38	0	536870912	68	5123
2026-01-20 08:00:39.50	76.50	33.09	-48.3	-51.4	14.3	1.50e-06	0	39	0	537919488	68	5060
2026-01-20 08:00:40.51	76.20	33.22	-48.5	-51.7	14.0	4.50e-06	0	38	0	540016640	68	5224
2026-01-20 08:00:41.52	75.89	33.35	-48.4	-51.6	13.9	7.00e-07	0	38	0	542113792	68	5183
2026-01-20 08:00:42.53	75.58	33.48	-48.4	-51.6	14.0	1.50e-06	0	38	0	544210944	68	5213
2026-01-20 08:00:43.53	75.27	33.61	-48.7	-52.1	13.5	8.30e-06	0	38	0	546308096	68	5528
2026-01-20 08:00:44.54	74.95	33.73	-48.6	-52.1	13.4	3.00e-06	0	38	0	547356672	68	5486
2026-01-20 08:00:45.55	74.64	33.86	-48.8	-52.5	13.1	2.44e-05	0	38	0	549453824	68	5740
2026-01-20 08:00:46.56	74.32	33.99	-48.9	-52.7	12.8	5.11e-05	0	38	0	551550976	68	5872
2026-01-20 08:00:47.57	74.00	34.11	-49.1	-53.1	12.7	1.17e-04	0	38	0	553648128	68	6179
2026-01-20 08:00:48.58	73.67	34.24	-49.1	-53.2	12.3	8.62e-05	0	39	0	555745280	68	6210
2026-01-20 08:00:49.58	73.35	34.36	-49.3	-53.6	12.0	2.43e-04	0	39	0	557842432	69	6177
2026-01-20 08:00:50.59	73.02	34.49	-49.6	-54.1	11.4	5.19e-04	0	38	0	558891008	69	6569
2026-01-20 08:00:51.60	72.68	34.61	-49.8	-54.8	10.7	1.90e-03	0	39	0	560988160	70	6647
2026-01-20 08:00:52.61	72.35	34.73	-49.8	-54.6	11.0	2.86e-03	0	38	0	563085312	70	6562
2026-01-20 08:00:53.61	72.02	34.85	-49.8	-54.7	10.8	5.11e-03	0	38	0	565182464	70	6614
2026-01-20 08:00:54.62	71.68	34.97	-49.7	-54.4	11.3	1.51e-03	0	39	0	566231040	70	6360
2026-01-20 08:00:55.63	71.33	35.09	-49.9	-55.0	10.5	1.31e-03	0	38	0	568328192	70	6821
2026-01-20 08:00:56.63	70.99	35.21	-50.0	-55.1	10.4	3.87e-03	0	38	0	570425344	70	6896
2026-01-20 08:00:57.64	70.64	35.33	-50.0	-55.3	10.3	4.66e-03	0	38	0	572522496	70	7055
2026-01-20 08:00:58.65	70.29	35.45	-50.1	-55.6	9.9	6.92e-03	0	38	0	574619648	71	6925
2026-01-20 08:00:59.66	69.94	35.57	-50.0	-55.3	10.3	8.36e-03	0	38	0	575668224	71	6690
2026-01-20 08:01:00.67	69.59	35.69	-49.7	-54.4	11.0	4.15e-03	0	38	0	577765376	71	6061
2026-01-20 08:01:01.67	69.23	35.80	-49.6	-54.0	11.6	2.78e-04	0	38	0	579862528	70	6077
2026-01-20 08:01:02.68	68.87	35.92	-48.9	-52.6	13.0	5.87e-05	0	38	0	581959680	69	5508
2026-01-20 08:01:03.69	68.51	36.03	-48.8	-52.3	13.3	2.44e-05	0	38	0	584056832	69	5333
2026-01-20 08:01:04.70	68.14	36.15	-49.0	-52.7	12.9	3.28e-05	0	38	0	586153984	69	5571
2026-01-20 08:01:05.71	67.78	36.26	-49.1	-52.9	12.8	5.95e-05	0	38	0	587202560	69	5691
2026-01-20 08:01:06.71	67.41	36.37	-49.0	-52.8	12.8	1.95e-04	0	38	0	589299712	69	5624
2026-01-20 08:01:07.72	67.04	36.48	-48.7	-52.2	13.5	1.29e-05	0	38	0	591396864	69	5240
2026-01-20 08:01:08.73	66.66	36.59	-48.9	-52.6	13.0	1.44e-05	0	39	0	593494016	69	5508
2026-01-20 08:01:09.74	66.28	36.70	-48.8	-52.4	13.2	3.66e-05	0	38	0	594542592	69	5358
2026-01-20 08:01:10.74	65.91	36.80	-48.7	-52.2	13.4	1.06e-05	0	38	0	596639744	69	5272
2026-01-20 08:01:11.75	65.52	36.91	-48.3	-51.5	14.2	4.50e-06	0	38	0	598736896	68	5122
2026-01-20 08:01:12.76	65.14	37.01	-48.2	-51.2	14.4	0.00e+00	0	39	0	600834048	68	4960
2026-01-20 08:01:13.77	64.75	37.12	-48.2	-51.3	14.3	3.00e-06	0	38	0	602931200	68	4991
2026-01-20 08:01:14.77	64.36	37.22	-48.5	-51.8	13.9	0.00e+00	0	38	0	605028352	68	5304
2026-01-20 08:01:15.78	63.97	37.32	-48.3	-51.4	14.3	0.00e+00	0	38	0	606076928	68	5064
2026-01-20 08:01:16.79	63.57	37.42	-48.3	-51.3	14.4	0.00e+00	0	38	0	608174080	68	5026
2026-01-20 08:01:17.80	63.18	37.52	-48.2	-51.3	14.4	7.00e-07	0	38	0	610271232	68	5018
2026-01-20 08:01:18.81	62.78	37.62	-47.9	-50.8	14.7	7.00e-07	0	38	0	612368384	67	5025
2026-01-20 08:01:19.81	62.38	37.72	-47.6	-50.2	15.3	0.00e+00	0	38	0	614465536	67	4692
2026-01-20 08:01:20.82	61.97	37.81	-47.4	-50.0	15.5	0.00e+00	0	38	0	615514112	66	4839
2026-01-20 08:01:21.83	61.57	37.90	-47.3	-49.8	15.8	0.00e+00	0	38	0	617611264	66	4725
2026-01-20 08:01:22.84	61.16	38.00	-47.4	-50.0	15.5	0.00e+00	0	38	0	619708416	66	4815
2026-01-20 08:01:23.85	60.74	38.09	-47.7	-50.5	15.1	0.00e+00	0	38	0	621805568	66	5136
2026-01-20 08:01:24.85	60.33	38.18	-47.9	-50.9	14.6	1.50e-06	0	38	0	622854144	66	5394
2026-01-20 08:01:25.86	59.92	38.26	-47.9	-50.8	14.7	0.00e+00	0	38	0	624951296	66	5305
2026-01-20 08:01:26.87	59.50	38.35	-47.5	-50.2	15.3	7.00e-07	0	38	0	627048448	66	4959
2026-01-20 08:01:27.88	59.08	38.44	-47.3	-49.8	15.8	0.00e+00	0	38	0	629145600	66	4754
2026-01-20 08:01:28.88	58.66	38.52	-46.5	-48.7	16.9	0.00e+00	0	39	0	631242752	65	4404
2026-01-20 08:01:29.89	58.23	38.60	-46.7	-48.9	16.7	0.00e+00	0	38	0	633339904	65	4523
2026-01-20 08:01:30.90	57.81	38.68	-46.8	-49.0	16.5	0.00e+00	0	38	0	634388480	64	4862
2026-01-20 08:01:31.91	57.38	38.76	-47.3	-49.9	15.7	0.00e+00	0	38	0	636485632	65	5055
2026-01-20 08:01:32.91	56.95	38.83	-47.4	-50.1	15.4	0.00e+00	0	38	0	638582784	65	5173
2026-01-20 08:01:33.92	56.51	38.91	-47.0	-49.3	16.2	0.00e+00	0	38	0	640679936	65	4759
2026-01-20 08:01:34.93	56.08	38.98	-46.8	-49.0	16.5	0.00e+00	0	38	0	642777088	65	4587
2026-01-20 08:01:35.94	55.64	39.06	-46.9	-49.1	16.5	0.00e+00	0	38	0	643825664	65	4647
2026-01-20 08:01:36.94	55.21	39.12	-47.3	-49.9	15.7	0.00e+00	0	39	0	645922816	65	5059
2026-01-20 08:01:37.95	54.76	39.19	-47.4	-50.1	15.5	0.00e+00	0	39	0	648019968	65	5172
2026-01-20 08:01:38.96	54.32	39.26	-47.4	-50.1	15.5	0.00e+00	0	38	0	650117120	65	5173
2026-01-20 08:01:39.97	53.88	39.32	-47.1	-49.6	16.0	0.00e+00	0	38	0	652214272	65	4902
2026-01-20 08:01:40.97	53.43	39.39	-46.5	-48.6	16.9	0.00e+00	0	38	0	653262848	65	4353
2026-01-20 08:01:41.98	52.99	39.45	-46.4	-48.4	17.2	0.00e+00	0	38	0	655360000	64	4521
2026-01-20 08:01:42.99	52.54	39.51	-46.4	-48.4	17.2	0.00e+00	0	38	0	657457152	64	4515
2026-01-20 08:01:44.00	52.08	39.56	-46.8	-49.1	16.5	0.00e+00	0	38	0	659554304	64	4925
2026-01-20 08:01:45.00	51.64	39.62	-47.3	-49.8	15.9	0.00e+00	0	38	0	661651456	65	5013
2026-01-20 08:01:46.01	51.18	39.67	-47.1	-49.5	16.2	0.00e+00	0	38	0	662700032	65	4819
2026-01-20 08:01:47.02	50.72	39.72	-46.2	-48.1	17.4	0.00e+00	0	38	0	664797184	64	4389
2026-01-20 08:01:48.03	50.27	39.77	-46.0	-47.9	17.8	0.00e+00	0	38	0	666894336	63	4500
2026-01-20 08:01:49.03	49.81	39.82	-46.3	-48.2	17.5	0.00e+00	0	39	0	668991488	63	4666
2026-01-20 08:01:50.04	49.35	39.86	-46.5	-48.5	17.2	0.00e+00	0	38	0	671088640	63	4830
2026-01-20 08:01:51.05	48.89	39.90	-46.6	-48.7	17.1	0.00e+00	0	38	0	672137216	63	4974
2026-01-20 08:01:52.05	48.43	39.95	-46.8	-49.0	16.7	0.00e+00	0	38	0	674234368	64	4841
2026-01-20 08:01:53.06	47.97	39.98	-46.8	-48.9	16.8	0.00e+00	0	39	0	676331520	64	4810
2026-01-20 08:01:54.07	47.50	40.02	-46.7	-48.8	16.9	0.00e+00	0	38	0	678428672	64	4732
2026-01-20 08:01:55.08	47.04	40.06	-46.3	-48.3	17.4	0.00e+00	0	39	0	680525824	64	4475
2026-01-20 08:01:56.09	46.57	40.09	-46.6	-48.7	17.0	0.00e+00	0	39	0	681574400	64	4664
2026-01-20 08:01:57.10	46.10	40.12	-47.1	-49.5	16.2	0.00e+00	0	38	0	683671552	64	5117
2026-01-20 08:01:58.10	45.64	40.15	-47.6	-50.3	15.4	0.00e+00	0	38	0	685768704	65	5309
2026-01-20 08:01:59.11	45.17	40.17	-47.7	-50.3	15.4	0.00e+00	0	38	0	687865856	66	5014
2026-01-20 08:02:00.12	44.70	40.20	-47.4	-49.8	15.9	0.00e+00	0	39	0	689963008	66	4759
2026-01-20 08:02:01.13	44.23	40.22	-47.3	-49.7	16.0	0.00e+00	0	38	0	691011584	66	4689
2026-01-20 08:02:02.14	43.76	40.24	-47.3	-49.8	15.9	0.00e+00	0	38	0	693108736	66	4715
2026-01-20 08:02:03.14	43.29	40.25	-47.3	-49.6	16.0	0.00e+00	0	38	0	695205888	66	4646
2026-01-20 08:02:04.15	42.82	40.27	-47.1	-49.4	16.3	0.00e+00	0	38	0	697303040	66	4495
2026-01-20 08:02:05.16	42.34	40.28	-47.3	-49.7	16.0	0.00e+00	0	38	0	699400192	66	4674
2026-01-20 08:02:06.16	41.88	40.29	-47.7	-50.2	15.4	0.00e+00	0	39	0	701497344	66	4973
2026-01-20 08:02:07.17	41.40	40.30	-47.3	-49.6	16.0	0.00e+00	0	38	0	702545920	66	4644
2026-01-20 08:02:08.18	40.93	40.31	-47.0	-49.2	16.4	0.00e+00	0	38	0	704643072	65	4682
2026-01-20 08:02:09.19	40.45	40.31	-46.9	-49.2	16.4	0.00e+00	0	38	0	706740224	65	4670
2026-01-20 08:02:10.20	39.98	40.31	-47.5	-50.2	15.6	0.00e+00	0	38	0	708837376	65	5221
2026-01-20 08:02:11.20	39.51	40.31	-47.7	-50.4	15.2	0.00e+00	0	38	0	709885952	66	5096
2026-01-20 08:02:12.21	39.04	40.31	-47.6	-50.2	15.5	0.00e+00	0	38	0	711983104	66	4971
2026-01-20 08:02:13.22	38.56	40.31	-47.3	-49.7	16.0	0.00e+00	0	38	0	714080256	66	4687
2026-01-20 08:02:14.22	38.10	40.30	-47.4	-49.8	15.8	0.00e+00	0	38	0	716177408	66	4757
2026-01-20 08:02:15.23	37.62	40.29	-48.0	-50.8	14.9	0.00e+00	0	38	0	718274560	66	5294
2026-01-20 08:02:16.24	37.15	40.28	-48.5	-51.7	13.9	7.00e-07	0	38	0	719323136	67	5586
2026-01-20 08:02:17.25	36.68	40.27	-49.4	-53.6	12.1	5.11e-05	0	39	0	721420288	69	6196
2026-01-20 08:02:18.25	36.21	40.25	-49.4	-53.7	12.2	3.45e-04	0	38	0	723517440	69	6254
2026-01-20 08:02:19.26	35.74	40.23	-48.9	-52.4	13.5	2.89e-05	0	39	0	725614592	69	5354
2026-01-20 08:02:20.27	35.27	40.21	-48.7	-52.1	13.9	1.22e-05	0	38	0	727711744	68	5506
2026-01-20 08:02:21.28	34.80	40.19	-49.1	-52.8	13.0	1.37e-05	0	38	0	729808896	68	5935
2026-01-20 08:02:22.29	34.33	40.16	-49.3	-53.3	12.6	5.11e-05	0	38	0	730857472	69	5973
2026-01-20 08:02:23.29	33.86	40.14	-49.5	-53.7	12.0	2.89e-04	0	38	0	732954624	69	6231
2026-01-20 08:02:24.30	33.39	40.11	-49.4	-53.4	12.2	3.56e-04	0	38	0	735051776	69	6058
2026-01-20 08:02:25.31	32.93	40.08	-49.5	-53.8	11.9	2.36e-04	0	39	0	737148928	69	6309
2026-01-20 08:02:26.32	32.46	40.04	-48.9	-52.4	13.3	2.16e-04	0	38	0	738197504	69	5350
2026-01-20 08:02:27.33	31.99	40.01	-49.0	-52.6	13.1	7.78e-05	0	39	0	740294656	69	5528
2026-01-20 08:02:28.34	31.53	39.97	-49.2	-53.1	12.6	5.03e-05	0	39	0	742391808	69	5846
2026-01-20 08:02:29.34	31.07	39.93	-49.7	-54.4	11.2	4.10e-04	0	38	0	744488960	70	6397
2026-01-20 08:02:30.35	30.61	39.89	-49.6	-54.2	11.5	8.17e-04	0	38	0	746586112	70	6236
2026-01-20 08:02:31.36	30.15	39.85	-49.7	-54.2	11.4	8.59e-04	0	39	0	747634688	70	6215
2026-01-20 08:02:32.37	29.69	39.80	-49.6	-53.9	11.8	4.81e-04	0	39	0	749731840	70	6060
2026-01-20 08:02:33.37	29.24	39.75	-49.5	-53.7	12.0	4.16e-04	0	38	0	751828992	70	5864
2026-01-20 08:02:34.38	28.78	39.70	-49.0	-52.6	13.1	1.24e-04	0	38	0	753926144	70	5202
2026-01-20 08:02:35.39	28.32	39.65	-49.1	-52.8	12.9	5.79e-05	0	38	0	756023296	69	5648
2026-01-20 08:02:36.40	27.87	39.60	-49.2	-53.1	12.6	9.53e-05	0	38	0	758120448	69	5849
2026-01-20 08:02:37.41	27.42	39.54	-49.3	-53.4	12.4	9.30e-05	0	38	0	759169024	69	6029
2026-01-20 08:02:38.41	26.97	39.49	-49.3	-53.4	12.2	1.43e-04	0	38	0	761266176	69	6054
2026-01-20 08:02:39.42	26.52	39.43	-49.7	-54.5	11.1	2.19e-04	0	38	0	763363328	69	6841
2026-01-20 08:02:40.43	26.07	39.37	-49.8	-55.0	10.6	4.16e-04	0	39	0	765460480	70	6845
2026-01-20 08:02:41.44	25.63	39.30	-49.5	-54.3	11.3	1.52e-03	0	38	0	766509056	70	6299
2026-01-20 08:02:42.45	25.18	39.24	-48.9	-52.7	12.9	2.59e-04	0	38	0	768606208	69	5566
2026-01-20 08:02:43.45	24.75	39.17	-48.5	-52.0	13.7	2.74e-05	0	39	0	770703360	69	5102
2026-01-20 08:02:44.46	24.31	39.10	-48.0	-51.0	14.7	7.00e-07	0	39	0	772800512	68	4831
2026-01-20 08:02:45.47	23.87	39.03	-47.6	-50.3	15.3	0.00e+00	0	39	0	774897664	67	4733
2026-01-20 08:02:46.48	23.43	38.96	-47.6	-50.3	15.4	0.00e+00	0	39	0	776994816	66	4988
2026-01-20 08:02:47.49	23.00	38.89	-47.3	-49.9	15.7	0.00e+00	0	39	0	778043392	66	4776
2026-01-20 08:02:48.49	22.57	38.81	-47.6	-50.4	15.2	0.00e+00	0	38	0	780140544	66	5055
2026-01-20 08:02:49.50	22.14	38.73	-47.8	-50.7	15.0	0.00e+00	0	38	0	782237696	66	5253
2026-01-20 08:02:50.51	21.71	38.65	-47.5	-50.1	15.4	0.00e+00	0	38	0	784334848	66	4923
2026-01-20 08:02:51.52	21.28	38.57	-47.1	-49.5	16.0	0.00e+00	0	38	0	786432000	66	4595
2026-01-20 08:02:52.53	20.86	38.49	-46.5	-48.6	17.0	0.00e+00	0	39	0	787480576	64	4602
2026-01-20 08:02:53.53	20.44	38.41	-46.1	-48.1	17.5	0.00e+00	0	38	0	789577728	64	4342
2026-01-20 08:02:54.54	20.02	38.32	-46.0	-47.9	17.6	0.00e+00	0	38	0	791674880	64	4261
2026-01-20 08:02:55.55	19.60	38.24	-45.9	-47.8	17.9	0.00e+00	0	38	0	793772032	63	4458
2026-01-20 08:02:56.56	19.19	38.15	-46.0	-47.9	17.8	0.00e+00	0	39	0	794820608	63	4503
2026-01-20 08:02:57.57	18.78	38.06	-46.1	-47.9	17.7	0.00e+00	0	38	0	796917760	63	4541
2026-01-20 08:02:58.58	18.37	37.97	-45.9	-47.7	17.9	0.00e+00	0	38	0	799014912	63	4425
2026-01-20 08:02:59.58	17.96	37.88	-46.2	-48.1	17.6	0.00e+00	0	38	0	801112064	63	4635
2026-01-20 08:03:00.59	17.55	37.78	-46.2	-48.2	17.5	0.00e+00	0	39	0	803209216	63	4661
2026-01-20 08:03:01.60	17.15	37.69	-46.2	-48.2	17.4	0.00e+00	0	38	0	805306368	63	4689
2026-01-20 08:03:02.61	16.75	37.59	-45.9	-47.8	17.9	0.00e+00	0	38	0	806354944	63	4464
2026-01-20 08:03:03.61	16.36	37.49	-45.9	-47.8	18.0	0.00e+00	0	38	0	808452096	63	4453
2026-01-20 08:03:04.62	15.96	37.39	-46.1	-48.1	17.7	0.00e+00	0	39	0	810549248	63	4603
2026-01-20 08:03:05.63	15.56	37.29	-46.7	-48.9	16.8	0.00e+00	0	39	0	812646400	64	4781
2026-01-20 08:03:06.64	15.17	37.19	-47.3	-49.8	15.9	0.00e+00	0	38	0	814743552	65	5006
2026-01-20 08:03:07.65	14.78	37.09	-47.7	-50.4	15.2	0.00e+00	0	38	0	815792128	66	5087
2026-01-20 08:03:08.65	14.40	36.98	-47.5	-50.2	15.5	0.00e+00	0	38	0	817889280	66	4933
2026-01-20 08:03:09.66	14.02	36.88	-47.1	-49.4	16.2	0.00e+00	0	39	0	819986432	66	4524
2026-01-20 08:03:10.67	13.64	36.77	-46.6	-48.7	16.9	0.00e+00	0	39	0	822083584	65	4400
2026-01-20 08:03:11.67	13.26	36.67	-46.4	-48.4	17.2	0.00e+00	0	39	0	824180736	64	4495
2026-01-20 08:03:12.68	12.88	36.56	-46.2	-48.2	17.5	0.00e+00	0	39	0	825229312	64	4394
2026-01-20 08:03:13.69	12.51	36.45	-46.7	-48.8	16.9	0.00e+00	0	38	0	827326464	64	4719
2026-01-20 08:03:14.70	12.14	36.34	-47.1	-49.5	16.2	0.00e+00	0	39	0	829423616	64	5135
2026-01-20 08:03:15.71	11.77	36.23	-47.4	-49.9	15.7	0.00e+00	0	38	0	831520768	65	5096
2026-01-20 08:03:16.71	11.41	36.11	-47.2	-49.7	15.9	0.00e+00	0	38	0	833617920	65	4936
2026-01-20 08:03:17.72	11.04	36.00	-47.2	-49.6	16.1	0.00e+00	0	38	0	834666496	65	4880
2026-01-20 08:03:18.73	10.68	35.89	-47.2	-49.6	16.1	0.00e+00	0	39	0	836763648	65	4883
2026-01-20 08:03:19.74	10.32	35.77	-47.1	-49.4	16.3	0.00e+00	0	38	0	838860800	65	4795
2026-01-20 08:03:20.75	9.97	35.65	-46.7	-48.8	16.9	0.00e+00	0	38	0	840957952	65	4450
2026-01-20 08:03:21.75	9.62	35.54	-46.5	-48.5	17.2	0.00e+00	0	38	0	843055104	64	4549
2026-01-20 08:03:22.76	9.27	35.42	-46.4	-48.3	17.4	0.00e+00	0	38	0	844103680	64	4464
2026-01-20 08:03:23.77	8.92	35.30	-47.3	-49.7	16.1	0.00e+00	0	38	0	846200832	65	4937
2026-01-20 08:03:24.78	8.57	35.18	-47.6	-50.2	15.4	0.00e+00	0	38	0	848297984	66	4959
2026-01-20 08:03:25.78	8.23	35.06	-47.6	-50.2	15.5	0.00e+00	0	38	0	850395136	66	4937
2026-01-20 08:03:26.79	7.89	34.94	-47.4	-49.8	15.8	0.00e+00	0	38	0	852492288	66	4756
2026-01-20 08:03:27.80	7.55	34.82	-47.7	-50.3	15.4	0.00e+00	0	38	0	853540864	66	4995
2026-01-20 08:03:28.81	7.22	34.70	-47.6	-50.1	15.6	0.00e+00	0	39	0	855638016	66	4908
2026-01-20 08:03:29.81	6.89	34.58	-47.8	-50.5	15.2	0.00e+00	0	38	0	857735168	66	5137
2026-01-20 08:03:30.82	6.56	34.45	-47.8	-50.5	15.2	0.00e+00	0	38	0	859832320	66	5105
2026-01-20 08:03:31.83	6.23	34.33	-48.1	-51.0	14.8	0.00e+00	0	39	0	861929472	66	5415
2026-01-20 08:03:32.84	5.90	34.21	-48.1	-50.9	14.6	7.00e-07	0	38	0	862978048	66	5385
2026-01-20 08:03:33.85	5.58	34.08	-48.1	-50.9	14.7	0.00e+00	0	38	0	865075200	67	5092
2026-01-20 08:03:34.85	5.26	33.96	-47.9	-50.7	15.0	7.00e-07	0	38	0	867172352	67	4954
2026-01-20 08:03:35.86	4.94	33.83	-47.9	-50.6	15.1	0.00e+00	0	39	0	869269504	67	4889
2026-01-20 08:03:36.87	4.63	33.70	-48.0	-50.8	15.0	0.00e+00	0	39	0	871366656	67	4986
2026-01-20 08:03:37.88	4.31	33.58	-48.4	-51.5	14.2	0.00e+00	0	38	0	872415232	67	5455
2026-01-20 08:03:38.89	4.00	33.45	-48.5	-51.6	14.0	3.00e-06	0	39	0	874512384	67	5508
2026-01-20 08:03:39.89	3.70	33.32	-48.5	-51.6	14.1	4.50e-06	0	38	0	876609536	67	5497
2026-01-20 08:03:40.90	3.39	33.19	-48.2	-51.2	14.5	4.50e-06	0	39	0	878706688	67	5259
2026-01-20 08:03:41.91	3.09	33.07	-48.1	-50.9	14.8	0.00e+00	0	38	0	880803840	67	5052
2026-01-20 08:03:42.92	2.79	32.94	-48.2	-51.1	14.6	0.00e+00	0	39	0	881852416	67	5197
2026-01-20 08:03:43.93	2.49	32.81	-48.3	-51.3	14.4	7.00e-07	0	39	0	883949568	67	5315
2026-01-20 08:03:44.94	2.19	32.68	-48.0	-50.7	15.0	0.00e+00	0	38	0	886046720	67	4976
2026-01-20 08:03:45.94	1.90	32.55	-47.8	-50.5	15.2	0.00e+00	0	38	0	888143872	67	4828
2026-01-20 08:03:46.95	1.61	32.42	-47.8	-50.4	15.2	0.00e+00	0	38	0	890241024	67	4783
2026-01-20 08:03:47.96	1.32	32.29	-48.0	-50.9	14.8	0.00e+00	0	38	0	891289600	67	5054
2026-01-20 08:03:48.96	1.04	32.16	-48.4	-51.5	14.3	7.00e-07	0	38	0	893386752	67	5426
2026-01-20 08:03:49.97	0.75	32.03	-48.5	-51.7	14.0	7.00e-07	0	38	0	895483904	67	5554
2026-01-20 08:03:50.98	0.47	31.90	-48.4	-51.4	14.4	3.00e-06	0	39	0	897581056	67	5343
2026-01-20 08:03:51.99	0.19	31.76	-48.1	-50.9	14.8	0.00e+00	0	38	0	899678208	67	5059
2026-01-20 08:03:52.99	359.92	31.63	-47.8	-50.4	15.3	0.00e+00	0	38	0	900726784	67	4763
2026-01-20 08:03:54.00	359.64	31.50	-47.9	-50.6	15.1	0.00e+00	0	39	0	902823936	67	4909
2026-01-20 08:03:55.01	359.37	31.37	-48.0	-50.8	14.9	7.00e-07	0	38	0	904921088	67	5010
2026-01-20 08:03:56.02	359.10	31.24	-48.2	-51.2	14.6	0.00e+00	0	38	0	907018240	67	5223
2026-01-20 08:03:57.03	358.83	31.11	-48.6	-51.9	13.7	3.00e-06	0	38	0	909115392	67	5699
2026-01-20 08:03:58.03	358.56	30.97	-49.1	-52.7	13.1	1.90e-05	0	38	0	910163968	68	5894
2026-01-20 08:03:59.04	358.30	30.84	-49.5	-53.7	12.0	1.46e-04	0	39	0	912261120	69	6269
2026-01-20 08:04:00.05	358.04	30.71	-49.7	-54.1	11.6	4.19e-04	0	38	0	914358272	69	6508
2026-01-20 08:04:01.06	357.78	30.58	-49.4	-53.3	12.3	2.68e-04	0	39	0	916455424	69	5986
2026-01-20 08:04:02.07	357.52	30.44	-48.8	-52.2	13.4	8.31e-05	0	38	0	918552576	69	5268
2026-01-20 08:04:03.07	357.27	30.31	-48.6	-51.9	13.8	3.80e-06	0	38	0	920649728	69	5046
2026-01-20 08:04:04.08	357.01	30.18	-48.6	-51.8	13.9	6.10e-06	0	39	0	921698304	69	5013
2026-01-20 08:04:05.09	356.76	30.05	-48.8	-52.2	13.5	9.90e-06	0	38	0	923795456	69	5276
2026-01-20 08:04:06.10	356.51	29.92	-48.6	-51.9	13.8	9.90e-06	0	39	0	925892608	69	5064
2026-01-20 08:04:07.11	356.27	29.78	-48.6	-51.7	14.0	1.50e-06	0	38	0	927989760	68	5277
2026-01-20 08:04:08.11	356.02	29.65	-48.2	-51.2	14.5	7.00e-07	0	39	0	929038336	68	4953
2026-01-20 08:04:09.12	355.78	29.52	-48.4	-51.5	14.3	0.00e+00	0	38	0	931135488	68	5106
2026-01-20 08:04:10.13	355.54	29.39	-48.5	-51.7	14.0	2.20e-06	0	38	0	933232640	68	5230
2026-01-20 08:04:11.14	355.30	29.25	-48.6	-51.9	13.8	2.20e-06	0	38	0	935329792	68	5350
2026-01-20 08:04:12.14	355.06	29.12	-48.7	-52.0	13.7	4.50e-06	0	39	0	937426944	68	5445
2026-01-20 08:04:13.15	354.83	28.99	-48.4	-51.5	14.2	0.00e+00	0	38	0	938475520	68	5136
2026-01-20 08:04:14.16	354.60	28.86	-48.0	-50.8	14.9	0.00e+00	0	38	0	940572672	68	4739
2026-01-20 08:04:15.17	354.36	28.72	-47.9	-50.7	14.9	0.00e+00	0	38	0	942669824	67	4934
2026-01-20 08:04:16.17	354.14	28.59	-48.0	-50.8	14.9	0.00e+00	0	39	0	944766976	67	5017
2026-01-20 08:04:17.18	353.91	28.46	-48.0	-50.8	14.9	0.00e+00	0	39	0	946864128	67	4992
2026-01-20 08:04:18.19	353.68	28.33	-48.1	-50.9	14.7	0.00e+00	0	38	0	948961280	67	5066
2026-01-20 08:04:19.20	353.46	28.20	-48.1	-51.0	14.7	0.00e+00	0	39	0	950009856	67	5103
2026-01-20 08:04:20.21	353.24	28.07	-48.0	-50.8	14.9	0.00e+00	0	39	0	952107008	67	5014
2026-01-20 08:04:21.22	353.02	27.94	-47.8	-50.5	15.2	0.00e+00	0	39	0	954204160	67	4840
2026-01-20 08:04:22.22	352.80	27.80	-47.5	-49.9	15.7	0.00e+00	0	38	0	956301312	67	4545
2026-01-20 08:04:23.23	352.59	27.67	-47.4	-49.9	15.7	0.00e+00	0	39	0	957349888	66	4777
2026-01-20 08:04:24.24	352.37	27.54	-47.3	-49.7	15.9	0.00e+00	0	38	0	959447040	66	4696
2026-01-20 08:04:25.25	352.16	27.41	-47.1	-49.4	16.3	0.00e+00	0	38	0	961544192	66	4501
2026-01-20 08:04:26.25	351.95	27.28	-47.0	-49.2	16.4	0.00e+00	0	38	0	963641344	65	4661
2026-01-20 08:04:27.26	351.74	27.15	-46.8	-49.0	16.6	0.00e+00	0	38	0	965738496	65	4567
2026-01-20 08:04:28.27	351.53	27.02	-47.0	-49.2	16.4	0.00e+00	0	38	0	967835648	65	4677
2026-01-20 08:04:29.28	351.33	26.89	-47.0	-49.2	16.4	0.00e+00	0	39	0	968884224	65	4662
2026-01-20 08:04:30.29	351.12	26.76	-47.0	-49.2	16.4	0.00e+00	0	39	0	970981376	65	4653
2026-01-20 08:04:31.29	350.92	26.63	-47.1	-49.3	16.2	0.00e+00	0	38	0	973078528	65	4740
2026-01-20 08:04:32.30	350.72	26.50	-46.8	-49.0	16.7	0.00e+00	0	39	0	975175680	65	4547
2026-01-20 08:04:33.31	350.52	26.38	-47.1	-49.4	16.3	0.00e+00	0	38	0	977272832	65	4779
2026-01-20 08:04:34.32	350.32	26.25	-47.3	-49.7	15.9	0.00e+00	0	38	0	978321408	65	4968
2026-01-20 08:04:35.33	350.13	26.12	-47.4	-49.8	15.8	0.00e+00	0	38	0	980418560	65	5030
2026-01-20 08:04:36.34	349.93	25.99	-47.5	-50.1	15.5	0.00e+00	0	39	0	982515712	65	5189
2026-01-20 08:04:37.34	349.74	25.86	-48.0	-51.0	14.7	0.00e+00	0	39	0	984612864	66	5405
2026-01-20 08:04:38.35	349.55	25.73	-47.9	-50.8	14.8	0.00e+00	0	39	0	985661440	66	5311
2026-01-20 08:04:39.35	349.36	25.61	-48.3	-51.4	14.3	0.00e+00	0	38	0	987758592	67	5352
2026-01-20 08:04:40.36	349.18	25.48	-48.4	-51.7	13.9	3.00e-06	0	38	0	989855744	67	5541
2026-01-20 08:04:41.37	348.99	25.35	-48.4	-51.7	13.9	2.20e-06	0	39	0	991952896	67	5536
2026-01-20 08:04:42.38	348.81	25.23	-48.4	-51.5	14.1	7.00e-07	0	38	0	994050048	67	5449
2026-01-20 08:04:43.39	348.62	25.10	-48.7	-52.1	13.4	2.20e-06	0	38	0	996147200	67	5854
2026-01-20 08:04:44.40	348.44	24.97	-48.7	-52.1	13.6	1.29e-05	0	39	0	997195776	68	5497
2026-01-20 08:04:45.41	348.26	24.85	-48.7	-52.0	13.7	8.30e-06	0	38	0	999292928	68	5427
2026-01-20 08:04:46.42	348.08	24.72	-48.6	-51.9	13.8	3.80e-06	0	39	0	1001390080	68	5350
2026-01-20 08:04:47.43	347.90	24.60	-48.3	-51.3	14.3	0.00e+00	0	39	0	1003487232	68	5039
2026-01-20 08:04:48.44	347.73	24.47	-48.3	-51.4	14.3	0.00e+00	0	38	0	1005584384	68	5062
2026-01-20 08:04:49.45	347.55	24.35	-48.0	-50.8	14.9	1.50e-06	0	39	0	1006632960	68	4728
2026-01-20 08:04:50.46	347.38	24.22	-47.7	-50.4	15.2	0.00e+00	0	38	0	1008730112	67	4773
2026-01-20 08:04:51.46	347.21	24.10	-47.7	-50.3	15.3	0.00e+00	0	38	0	1010827264	67	4717
2026-01-20 08:04:52.47	347.04	23.97	-47.4	-49.9	15.7	0.00e+00	0	38	0	1012924416	66	4797
2026-01-20 08:04:53.48	346.87	23.85	-47.3	-49.7	15.9	0.00e+00	0	38	0	1015021568	66	4663
2026-01-20 08:04:54.49	346.70	23.73	-47.7	-50.3	15.3	0.00e+00	0	38	0	1016070144	66	4998
2026-01-20 08:04:55.50	346.53	23.60	-47.7	-50.4	15.2	0.00e+00	0	38	0	1018167296	66	5072
2026-01-20 08:04:56.50	346.37	23.48	-47.7	-50.3	15.3	0.00e+00	0	38	0	1020264448	66	4997
2026-01-20 08:04:57.51	346.21	23.36	-47.8	-50.4	15.2	0.00e+00	0	38	0	1022361600	66	5068
2026-01-20 08:04:58.52	346.04	23.24	-47.7	-50.4	15.3	0.00e+00	0	38	0	1024458752	66	5066
2026-01-20 08:04:59.53	345.88	23.12	-47.6	-50.1	15.5	0.00e+00	0	38	0	1025507328	66	4919
2026-01-20 08:05:00.54	345.72	23.00	-47.4	-49.9	15.7	0.00e+00	0	38	0	1027604480	66	4776
2026-01-20 08:05:01.55	345.56	22.87	-47.5	-50.0	15.6	0.00e+00	0	39	0	1029701632	66	4850
2026-01-20 08:05:02.55	345.41	22.76	-47.1	-49.4	16.2	0.00e+00	0	38	0	1031798784	66	4507
2026-01-20 08:05:03.56	345.25	22.63	-47.3	-49.8	15.9	0.00e+00	0	38	0	1033895936	66	4710
2026-01-20 08:05:04.57	345.10	22.51	-47.4	-49.8	15.8	0.00e+00	0	38	0	1035993088	66	4758
2026-01-20 08:05:05.58	344.94	22.39	-47.7	-50.4	15.2	0.00e+00	0	38	0	1037041664	66	5069
2026-01-20 08:05:06.59	344.79	22.28	-48.0	-50.9	14.7	0.00e+00	0	39	0	1039138816	66	5365
2026-01-20 08:05:07.60	344.64	22.16	-48.4	-51.6	14.0	7.00e-07	0	38	0	1041235968	67	5493
2026-01-20 08:05:08.60	344.49	22.04	-48.7	-52.1	13.4	3.00e-06	0	38	0	1043333120	67	5841
2026-01-20 08:05:09.61	344.34	21.92	-48.8	-52.3	13.4	6.80e-06	0	38	0	1044381696	68	5641
2026-01-20 08:05:10.62	344.19	21.80	-48.8	-52.2	13.5	1.37e-05	0	39	0	1046478848	68	5546
2026-01-20 08:05:11.63	344.05	21.68	-48.6	-51.8	13.7	1.14e-05	0	38	0	1048576000	68	5338
2026-01-20 08:05:12.63	343.90	21.57	-48.4	-51.5	14.1	3.00e-06	0	38	0	1050673152	68	5112
2026-01-20 08:05:13.64	343.76	21.45	-48.2	-51.1	14.6	7.00e-07	0	38	0	1052770304	68	4883
2026-01-20 08:05:14.65	343.61	21.33	-48.2	-51.2	14.4	0.00e+00	0	38	0	1053818880	68	4956
2026-01-20 08:05:15.65	343.47	21.22	-48.0	-50.8	14.8	0.00e+00	0	39	0	1055916032	68	4732
2026-01-20 08:05:16.66	343.33	21.10	-47.8	-50.6	15.0	0.00e+00	0	38	0	1058013184	67	4888
2026-01-20 08:05:17.67	343.19	20.99	-47.7	-50.4	15.1	0.00e+00	0	38	0	1060110336	67	4782
2026-01-20 08:05:18.68	343.05	20.87	-47.7	-50.3	15.2	0.00e+00	0	38	0	1062207488	67	4747
2026-01-20 08:05:19.69	342.91	20.76	-47.7	-50.4	15.1	0.00e+00	0	38	0	1064304640	67	4779
2026-01-20 08:05:20.69	342.78	20.64	-47.7	-50.4	15.2	0.00e+00	0	38	0	1065353216	67	4801
2026-01-20 08:05:21.70	342.64	20.53	-47.9	-50.7	14.8	0.00e+00	0	38	0	1067450368	67	4948
2026-01-20 08:05:22.71	342.51	20.42	-47.8	-50.5	15.0	0.00e+00	0	38	0	1069547520	67	4817
2026-01-20 08:05:23.72	342.37	20.30	-47.8	-50.6	14.9	0.00e+00	0	38	0	1071644672	67	4909
2026-01-20 08:05:24.73	342.24	20.19	-48.1	-51.0	14.7	0.00e+00	0	38	0	1072693248	67	5122
2026-01-20 08:05:25.73	342.11	20.08	-48.0	-50.8	14.7	0.00e+00	0	38	0	1074790400	67	5022
2026-01-20 08:05:26.74	341.98	19.96	-47.9	-50.6	14.9	0.00e+00	0	39	0	1076887552	67	4916
2026-01-20 08:05:27.75	341.85	19.85	-47.7	-50.3	15.2	0.00e+00	0	38	0	1078984704	67	4737
2026-01-20 08:05:28.75	341.72	19.74	-47.4	-49.9	15.6	0.00e+00	0	38	0	1081081856	66	4806
2026-01-20 08:05:29.76	341.59	19.63	-47.2	-49.7	15.8	0.00e+00	0	38	0	1083179008	66	4663
2026-01-20 08:05:30.77	341.47	19.52	-47.3	-49.7	15.8	0.00e+00	0	38	0	1084227584	66	4686
2026-01-20 08:05:31.78	341.34	19.41	-47.3	-49.7	15.8	0.00e+00	0	38	0	1086324736	66	4699
2026-01-20 08:05:32.79	341.21	19.30	-47.1	-49.5	16.0	0.00e+00	0	38	0	1088421888	66	4558
2026-01-20 08:05:33.79	341.09	19.19	-47.2	-49.7	15.9	0.00e+00	0	38	0	1090519040	66	4652
2026-01-20 08:05:34.80	340.97	19.08	-47.4	-49.9	15.6	0.00e+00	0	38	0	1092616192	66	4788
2026-01-20 08:05:35.81	340.85	18.97	-47.7	-50.4	15.1	0.00e+00	0	38	0	1093664768	66	5072
2026-01-20 08:05:36.82	340.72	18.86	-48.0	-50.9	14.6	0.00e+00	0	39	0	1095761920	66	5392
2026-01-20 08:05:37.82	340.60	18.75	-48.3	-51.4	14.1	0.00e+00	0	38	0	1097859072	67	5399
2026-01-20 08:05:38.83	340.48	18.64	-48.4	-51.7	13.8	2.20e-06	0	39	0	1099956224	67	5562
2026-01-20 08:05:39.84	340.37	18.54	-48.5	-51.7	13.8	7.60e-06	0	38	0	1101004800	67	5575
2026-01-20 08:05:40.85	340.25	18.43	-48.4	-51.7	13.8	3.80e-06	0	38	0	1103101952	67	5561
2026-01-20 08:05:41.86	340.13	18.32	-48.4	-51.6	13.9	3.00e-06	0	38	0	1105199104	67	5482
2026-01-20 08:05:42.86	340.02	18.22	-48.2	-51.2	14.3	1.50e-06	0	39	0	1107296256	67	5235
2026-01-20 08:05:43.87	339.90	18.11	-48.0	-50.9	14.5	7.00e-07	0	39	0	1109393408	67	5072
2026-01-20 08:05:44.88	339.79	18.00	-47.9	-50.8	14.7	0.00e+00	0	39	0	1111490560	67	5011
2026-01-20 08:05:45.89	339.67	17.90	-47.8	-50.5	15.0	7.00e-07	0	38	0	1112539136	67	4865
2026-01-20 08:05:46.89	339.56	17.79	-47.7	-50.4	15.2	0.00e+00	0	38	0	1114636288	67	4762
2026-01-20 08:05:47.90	339.45	17.69	-47.8	-50.5	15.0	0.00e+00	0	39	0	1116733440	67	4844
2026-01-20 08:05:48.91	339.34	17.58	-47.7	-50.3	15.2	0.00e+00	0	38	0	1118830592	67	4729
2026-01-20 08:05:49.92	339.23	17.48	-47.8	-50.6	14.9	0.00e+00	0	39	0	1120927744	67	4893
2026-01-20 08:05:50.93	339.12	17.37	-47.8	-50.5	15.0	0.00e+00	0	38	0	1121976320	67	4848
2026-01-20 08:05:51.94	339.01	17.27	-47.9	-50.7	14.8	0.00e+00	0	39	0	1124073472	67	4950
2026-01-20 08:05:52.95	338.90	17.16	-48.0	-50.8	14.7	0.00e+00	0	39	0	1126170624	67	5023
2026-01-20 08:05:53.96	338.79	17.06	-48.0	-50.9	14.6	0.00e+00	0	38	0	1128267776	67	5073
2026-01-20 08:05:54.96	338.68	16.96	-48.2	-51.2	14.2	7.00e-07	0	38	0	1130364928	67	5259
2026-01-20 08:05:55.97	338.58	16.86	-48.2	-51.2	14.3	3.00e-06	0	39	0	1131413504	67	5247
2026-01-20 08:05:56.98	338.47	16.75	-48.2	-51.2	14.2	7.00e-07	0	39	0	1133510656	67	5274
2026-01-20 08:05:57.98	338.37	16.65	-48.4	-51.7	13.7	5.30e-06	0	39	0	1135607808	67	5590
2026-01-20 08:05:58.99	338.27	16.55	-48.4	-51.7	13.7	2.20e-06	0	38	0	1137704960	67	5567
2026-01-20 08:06:00.00	338.16	16.45	-48.4	-51.7	13.7	3.80e-06	0	38	0	1139802112	67	5567
2026-01-20 08:06:01.01	338.06	16.35	-48.6	-52.0	13.5	6.80e-06	0	39	0	1140850688	67	5728
2026-01-20 08:06:02.02	337.96	16.25	-48.5	-51.8	13.7	3.00e-06	0	38	0	1142947840	67	5624
2026-01-20 08:06:03.02	337.86	16.15	-48.3	-51.4	14.0	3.00e-06	0	38	0	1145044992	67	5381
2026-01-20 08:06:04.03	337.76	16.05	-48.1	-51.2	14.3	2.20e-06	0	39	0	1147142144	67	5228
2026-01-20 08:06:05.04	337.66	15.95	-48.0	-50.9	14.5	0.00e+00	0	39	0	1149239296	67	5066
2026-01-20 08:06:06.05	337.56	15.85	-47.8	-50.6	14.8	7.00e-07	0	39	0	1150287872	67	4915
2026-01-20 08:06:07.05	337.46	15.75	-47.7	-50.5	15.0	0.00e+00	0	38	0	1152385024	67	4828
2026-01-20 08:06:08.06	337.37	15.65	-47.4	-49.9	15.5	0.00e+00	0	39	0	1154482176	66	4786
2026-01-20 08:06:09.07	337.27	15.55	-47.3	-49.8	15.6	0.00e+00	0	38	0	1156579328	66	4734
2026-01-20 08:06:10.08	337.17	15.46	-47.2	-49.6	15.7	0.00e+00	0	39	0	1158676480	66	4622
2026-01-20 08:06:11.09	337.08	15.36	-47.2	-49.6	15.8	0.00e+00	0	39	0	1159725056	66	4607
2026-01-20 08:06:12.09	336.98	15.26	-47.2	-49.7	15.8	0.00e+00	0	38	0	1161822208	66	4657
2026-01-20 08:06:13.10	336.89	15.16	-47.3	-49.8	15.6	0.00e+00	0	39	0	1163919360	66	4748
2026-01-20 08:06:14.11	336.80	15.07	-47.2	-49.6	15.7	0.00e+00	0	38	0	1166016512	66	4650
2026-01-20 08:06:15.11	336.70	14.97	-47.3	-49.8	15.6	0.00e+00	0	39	0	1168113664	66	4751
2026-01-20 08:06:16.12	336.61	14.87	-47.4	-50.0	15.5	0.00e+00	0	39	0	1169162240	66	4823
2026-01-20 08:06:17.13	336.52	14.78	-47.3	-49.9	15.6	0.00e+00	0	38	0	1171259392	66	4769
2026-01-20 08:06:18.14	336.43	14.68	-47.4	-50.0	15.4	7.00e-07	0	38	0	1173356544	66	4824
2026-01-20 08:06:19.15	336.34	14.59	-47.5	-50.1	15.3	0.00e+00	0	39	0	1175453696	66	4898
2026-01-20 08:06:20.15	336.25	14.49	-47.4	-50.0	15.3	0.00e+00	0	38	0	1177550848	66	4859
2026-01-20 08:06:21.16	336.16	14.40	-47.5	-50.1	15.3	0.00e+00	0	38	0	1178599424	66	4914
2026-01-20 08:06:22.17	336.07	14.30	-47.6	-50.3	15.2	0.00e+00	0	38	0	1180696576	66	4989
2026-01-20 08:06:23.18	335.98	14.21	-47.6	-50.3	15.2	0.00e+00	0	39	0	1182793728	66	4992
2026-01-20 08:06:24.18	335.89	14.12	-47.5	-50.1	15.2	0.00e+00	0	39	0	1184890880	66	4920
2026-01-20 08:06:25.19	335.81	14.02	-47.7	-50.4	15.0	0.00e+00	0	39	0	1186988032	66	5092
2026-01-20 08:06:26.20	335.72	13.93	-47.6	-50.4	15.1	0.00e+00	0	39	0	1188036608	66	5049
2026-01-20 08:06:27.21	335.64	13.84	-47.8	-50.5	14.9	0.00e+00	0	38	0	1190133760	66	5153
2026-01-20 08:06:28.21	335.55	13.74	-47.8	-50.6	14.8	7.00e-07	0	38	0	1192230912	66	5178
2026-01-20 08:06:29.22	335.47	13.65	-47.9	-50.8	14.6	0.00e+00	0	38	0	1194328064	66	5328
2026-01-20 08:06:30.23	335.38	13.56	-47.9	-50.8	14.6	7.00e-07	0	39	0	1196425216	66	5283
2026-01-20 08:06:31.24	335.30	13.47	-48.1	-51.1	14.3	0.00e+00	0	38	0	1197473792	66	5489
2026-01-20 08:06:32.24	335.22	13.38	-48.2	-51.3	14.1	2.20e-06	0	38	0	1199570944	67	5305
2026-01-20 08:06:33.25	335.13	13.28	-48.3	-51.4	13.9	1.50e-06	0	38	0	1201668096	67	5402
2026-01-20 08:06:34.26	335.05	13.19	-48.4	-51.7	13.6	6.10e-06	0	38	0	1203765248	67	5582
2026-01-20 08:06:35.27	334.97	13.10	-48.5	-51.8	13.5	3.00e-06	0	38	0	1205862400	67	5649
2026-01-20 08:06:36.27	334.89	13.01	-48.5	-52.0	13.4	1.22e-05	0	38	0	1206910976	67	5724
2026-01-20 08:06:37.28	334.81	12.92	-48.8	-52.5	12.9	1.22e-05	0	38	0	1209008128	68	5747
2026-01-20 08:06:38.29	334.73	12.83	-48.7	-52.3	13.1	2.36e-05	0	39	0	1211105280	68	5599
2026-01-20 08:06:39.30	334.65	12.74	-48.7	-52.2	13.2	2.89e-05	0	38	0	1213202432	68	5558
2026-01-20 08:06:40.31	334.57	12.65	-48.9	-52.6	12.8	3.12e-05	0	38	0	1215299584	68	5821
2026-01-20 08:06:41.31	334.49	12.56	-48.8	-52.5	12.9	3.81e-05	0	39	0	1216348160	68	5779
2026-01-20 08:06:42.32	334.41	12.48	-48.8	-52.6	12.8	5.41e-05	0	38	0	1218445312	68	5790
2026-01-20 08:06:43.33	334.34	12.39	-48.8	-52.4	13.0	3.81e-05	0	38	0	1220542464	68	5684
2026-01-20 08:06:44.34	334.26	12.30	-48.7	-52.3	13.0	4.65e-05	0	39	0	1222639616	68	5642
2026-01-20 08:06:45.35	334.18	12.21	-48.7	-52.3	13.1	5.11e-05	0	38	0	1224736768	68	5635
2026-01-20 08:06:46.35	334.11	12.12	-48.9	-52.7	12.7	4.50e-05	0	38	0	1225785344	68	5886
2026-01-20 08:06:47.36	334.03	12.04	-48.9	-52.7	12.7	6.86e-05	0	39	0	1227882496	68	5901
2026-01-20 08:06:48.37	333.96	11.95	-48.8	-52.4	13.0	4.34e-05	0	39	0	1229979648	68	5707
2026-01-20 08:06:49.38	333.88	11.86	-48.8	-52.5	12.9	5.26e-05	0	38	0	1232076800	68	5734
2026-01-20 08:06:50.38	333.81	11.78	-48.7	-52.3	13.1	4.57e-05	0	38	0	1234173952	68	5653
2026-01-20 08:06:51.39	333.74	11.69	-48.8	-52.5	12.8	3.35e-05	0	38	0	1235222528	68	5785
2026-01-20 08:06:52.39	333.66	11.60	-48.8	-52.6	12.8	4.42e-05	0	39	0	1237319680	68	5819
2026-01-20 08:06:53.40	333.59	11.52	-48.8	-52.4	13.0	4.95e-05	0	39	0	1239416832	68	5703
2026-01-20 08:06:54.41	333.52	11.43	-48.8	-52.5	12.9	5.56e-05	0	38	0	1241513984	68	5729
