passes_logs/2026/01/20/R3.2S_Murmansk/R3.2S_Murmansk__20260120_122838_NOAA_21_JPSS-2_rec.log

#Pass ID: 20260120_122838_NOAA 21 (JPSS-2)
#Satellite: NOAA 21 (JPSS-2)
#Configuration: NOAA-21
#almurnet v.1.7.20251203
#Start time: 2026-01-20 12:28:39

#Version: 2.2.20231116
#Station: R3.2S_Murmansk
#Location: 33.079688 lon 68.888172 lat
#TLE: 1 54234U 22150A   26019.94667805  .00000106  00000+0  71222-4 0  9995
#TLE: 2 54234  98.7505 320.7866 0000607 253.4528 106.6582 14.19535964165511

#Time	Az	El	Level	Level2	SNR	BER	BlckErr	Temp	State	Recorded	gain1	gain2
2026-01-20 12:28:39.41	227.67	2.04	-49.2	-61.8	3.8	1.49e+00	0	38	0	0	70	14905
2026-01-20 12:28:40.42	227.76	2.09	-49.1	-61.8	3.8	1.49e+00	0	38	104	0	68	16801
2026-01-20 12:28:41.43	227.84	2.14	-49.1	-61.8	3.8	1.49e+00	0	38	104	0	68	16722
2026-01-20 12:28:42.43	227.93	2.19	-49.1	-61.8	3.8	1.49e+00	0	38	104	0	68	16703
2026-01-20 12:28:43.44	228.02	2.24	-49.1	-61.8	3.8	1.49e+00	0	38	104	0	68	16749
2026-01-20 12:28:44.45	228.11	2.29	-49.1	-61.8	3.8	1.49e+00	0	38	104	0	68	16738
2026-01-20 12:28:45.46	228.19	2.34	-49.1	-61.7	3.8	1.49e+00	0	38	104	0	68	16685
2026-01-20 12:28:46.47	228.28	2.39	-49.1	-61.8	3.8	1.49e+00	0	38	104	0	68	16760
2026-01-20 12:28:47.48	228.37	2.45	-49.1	-61.7	3.8	1.49e+00	0	38	104	0	68	16674
2026-01-20 12:28:48.49	228.46	2.50	-49.1	-61.8	3.8	1.49e+00	0	38	104	0	68	16736
2026-01-20 12:28:49.49	228.55	2.55	-49.1	-61.8	3.8	1.49e+00	0	38	104	0	68	16704
2026-01-20 12:28:50.50	228.64	2.60	-49.1	-61.8	3.8	1.49e+00	0	38	104	0	68	16751
2026-01-20 12:28:51.51	228.73	2.65	-49.1	-61.8	3.8	1.49e+00	0	38	104	0	68	16715
2026-01-20 12:28:52.52	228.82	2.70	-49.1	-61.7	3.8	1.49e+00	0	38	104	0	68	16639
2026-01-20 12:28:53.53	228.91	2.75	-49.1	-61.7	3.8	1.49e+00	0	38	104	0	68	16638
2026-01-20 12:28:54.53	229.00	2.80	-49.1	-61.8	3.8	1.49e+00	0	38	104	0	68	16726
2026-01-20 12:28:55.54	229.09	2.85	-49.1	-61.7	3.8	1.49e+00	0	38	104	0	68	16657
2026-01-20 12:28:56.55	229.18	2.91	-49.1	-61.7	3.8	1.49e+00	0	38	104	0	68	16665
2026-01-20 12:28:57.56	229.27	2.96	-49.1	-61.7	3.8	1.49e+00	0	38	104	0	68	16685
2026-01-20 12:28:58.57	229.36	3.01	-49.1	-61.7	3.8	1.49e+00	0	38	104	0	68	16683
2026-01-20 12:28:59.57	229.45	3.06	-49.1	-61.7	3.8	1.49e+00	0	38	104	0	68	16615
2026-01-20 12:29:00.58	229.55	3.11	-49.1	-61.7	3.8	1.49e+00	0	38	104	0	68	16533
2026-01-20 12:29:01.59	229.64	3.16	-49.1	-61.6	3.8	1.49e+00	0	38	104	0	68	16474
2026-01-20 12:29:02.59	229.73	3.21	-49.1	-61.6	3.8	1.49e+00	0	38	104	0	68	16442
2026-01-20 12:29:03.60	229.82	3.27	-49.1	-61.6	3.8	1.49e+00	0	38	104	0	68	16491
2026-01-20 12:29:04.61	229.92	3.32	-49.1	-61.7	3.8	1.49e+00	0	38	104	0	68	16634
2026-01-20 12:29:05.62	230.01	3.37	-49.1	-61.7	3.8	1.49e+00	0	38	104	0	68	16637
2026-01-20 12:29:06.63	230.11	3.42	-49.1	-61.7	3.8	1.49e+00	0	38	104	0	68	16575
2026-01-20 12:29:07.64	230.20	3.47	-49.1	-61.7	3.8	1.49e+00	0	38	104	0	68	16623
2026-01-20 12:29:08.64	230.29	3.52	-49.1	-61.7	3.8	1.49e+00	0	38	104	0	68	16611
2026-01-20 12:29:09.65	230.39	3.58	-49.1	-61.7	3.8	1.49e+00	0	38	104	0	68	16520
2026-01-20 12:29:10.66	230.48	3.63	-49.1	-61.7	3.8	1.49e+00	0	38	104	0	68	16583
2026-01-20 12:29:11.67	230.58	3.68	-49.1	-61.7	3.8	1.49e+00	0	38	104	0	68	16646
2026-01-20 12:29:12.67	230.68	3.73	-49.1	-61.7	3.8	1.49e+00	0	38	104	0	68	16623
2026-01-20 12:29:13.68	230.77	3.78	-49.1	-61.7	3.8	1.49e+00	0	38	104	0	68	16648
2026-01-20 12:29:14.69	230.87	3.84	-49.1	-61.7	3.8	1.49e+00	0	38	104	0	68	16544
2026-01-20 12:29:15.70	230.97	3.89	-49.1	-61.6	3.8	1.49e+00	0	38	104	0	68	16474
2026-01-20 12:29:16.71	231.06	3.94	-49.1	-61.7	3.8	1.49e+00	0	38	104	0	68	16505
2026-01-20 12:29:17.71	231.16	3.99	-49.1	-61.6	3.8	1.49e+00	0	38	104	0	68	16492
2026-01-20 12:29:18.72	231.26	4.04	-49.1	-61.6	3.8	1.49e+00	0	38	104	0	68	16454
2026-01-20 12:29:19.73	231.36	4.10	-49.1	-61.6	3.8	1.49e+00	0	38	104	0	68	16371
2026-01-20 12:29:20.74	231.46	4.15	-49.1	-61.5	3.8	1.49e+00	0	38	104	0	68	16288
2026-01-20 12:29:21.74	231.55	4.20	-49.1	-61.5	3.8	1.49e+00	0	38	104	0	68	16222
2026-01-20 12:29:22.75	231.65	4.25	-49.1	-61.4	3.8	1.49e+00	0	38	104	0	68	16072
2026-01-20 12:29:23.76	231.75	4.30	-49.0	-61.3	3.8	1.49e+00	0	38	104	0	68	15825
2026-01-20 12:29:24.77	231.85	4.36	-49.0	-61.2	3.8	1.49e+00	0	38	104	0	68	15698
2026-01-20 12:29:25.78	231.95	4.41	-49.0	-61.2	3.8	1.49e+00	0	38	104	0	68	15614
2026-01-20 12:29:26.78	232.05	4.46	-49.0	-61.2	3.8	1.49e+00	0	38	104	0	68	15731
2026-01-20 12:29:27.79	232.16	4.51	-49.0	-61.3	3.8	1.49e+00	0	38	104	0	68	15925
2026-01-20 12:29:28.80	232.26	4.57	-49.1	-61.5	3.8	1.49e+00	0	38	104	0	68	16153
2026-01-20 12:29:29.80	232.36	4.62	-49.1	-61.6	3.8	1.49e+00	0	38	104	0	68	16366
2026-01-20 12:29:30.81	232.46	4.67	-49.1	-61.6	3.8	1.49e+00	0	38	104	0	68	16495
2026-01-20 12:29:31.82	232.56	4.72	-49.1	-61.7	3.8	1.49e+00	0	38	104	0	68	16563
2026-01-20 12:29:32.83	232.67	4.78	-49.0	-61.4	3.8	1.49e+00	0	38	104	0	68	16114
2026-01-20 12:29:33.83	232.77	4.83	-49.0	-61.0	3.8	1.49e+00	0	38	104	0	68	15326
2026-01-20 12:29:34.84	232.87	4.88	-48.9	-60.4	3.8	1.49e+00	0	38	104	0	68	14236
2026-01-20 12:29:35.85	232.98	4.93	-48.8	-59.1	4.0	1.49e+00	0	38	104	0	68	12245
2026-01-20 12:29:36.86	233.08	4.99	-48.7	-58.1	4.2	1.47e+00	0	38	104	0	68	11023
2026-01-20 12:29:37.87	233.19	5.04	-48.6	-57.4	4.4	1.40e+00	0	38	104	0	68	10118
2026-01-20 12:29:38.87	233.29	5.09	-49.1	-61.4	3.8	1.49e+00	0	38	104	0	68	15962
2026-01-20 12:29:39.88	233.39	5.14	-49.0	-60.7	3.8	1.49e+00	0	38	104	0	68	14859
2026-01-20 12:29:40.89	233.50	5.20	-48.6	-57.5	4.0	1.32e+00	2	38	104	0	68	10195
2026-01-20 12:29:41.89	233.61	5.25	-48.6	-57.8	4.0	8.51e-01	2	38	104	0	68	10561
2026-01-20 12:29:42.90	233.71	5.30	-48.9	-59.7	3.8	9.84e-01	0	38	104	0	68	13121
2026-01-20 12:29:43.91	233.82	5.35	-48.4	-56.2	4.9	1.16e+00	2	38	104	0	68	8857
2026-01-20 12:29:44.92	233.93	5.41	-48.5	-57.4	4.0	8.57e-01	0	38	104	1048576	68	10172
2026-01-20 12:29:45.93	234.03	5.46	-48.5	-56.6	4.8	1.36e+00	0	38	104	1048576	68	9259
2026-01-20 12:29:46.93	234.14	5.51	-48.4	-56.2	5.0	7.18e-01	0	38	0	2097152	68	8771
2026-01-20 12:29:47.94	234.25	5.57	-48.4	-56.2	5.0	7.33e-01	0	38	0	4194304	68	8854
2026-01-20 12:29:48.95	234.36	5.62	-48.5	-57.3	4.0	9.53e-01	0	38	104	7340032	68	10028
2026-01-20 12:29:49.95	234.47	5.67	-48.5	-57.5	4.0	9.04e-01	2	38	104	7340032	68	10179
2026-01-20 12:29:50.96	234.58	5.72	-48.5	-56.5	4.8	7.44e-01	0	38	0	8388608	68	9169
2026-01-20 12:29:51.97	234.69	5.78	-49.0	-60.4	3.8	1.48e+00	0	38	104	8388608	68	14235
2026-01-20 12:29:52.98	234.80	5.83	-48.6	-57.3	4.5	1.37e+00	2	38	104	8388608	68	9990
2026-01-20 12:29:53.99	234.91	5.88	-48.9	-59.9	3.9	1.00e+00	0	38	104	8388608	68	13418
2026-01-20 12:29:54.99	235.02	5.94	-48.5	-56.5	4.8	1.18e+00	0	38	104	8388608	68	9173
2026-01-20 12:29:56.00	235.13	5.99	-48.4	-56.1	5.0	7.04e-01	0	38	0	9437184	68	8731
2026-01-20 12:29:57.01	235.24	6.04	-48.5	-56.4	4.9	7.43e-01	0	38	0	12582912	68	8966
2026-01-20 12:29:58.02	235.35	6.10	-48.5	-57.1	4.0	8.75e-01	0	38	104	14680064	68	9813
2026-01-20 12:29:59.02	235.46	6.15	-48.5	-57.1	4.0	1.00e+00	0	38	104	15728640	68	9791
2026-01-20 12:30:00.03	235.58	6.20	-48.4	-56.3	5.0	7.44e-01	0	38	0	16777216	68	8866
2026-01-20 12:30:01.04	235.69	6.26	-48.4	-56.1	5.0	6.88e-01	0	38	0	19922944	68	8758
2026-01-20 12:30:02.05	235.80	6.31	-48.7	-57.5	4.4	1.47e+00	0	38	104	22020096	68	10285
2026-01-20 12:30:03.05	235.92	6.36	-48.5	-56.5	4.8	7.58e-01	0	38	0	23068672	68	9151
2026-01-20 12:30:04.06	236.03	6.41	-49.0	-60.6	3.8	1.49e+00	0	38	104	24117248	68	14579
2026-01-20 12:30:05.07	236.15	6.47	-48.6	-57.0	4.6	1.12e+00	0	38	104	24117248	68	9607
2026-01-20 12:30:06.08	236.26	6.52	-48.9	-60.1	3.8	1.49e+00	0	38	104	24117248	68	13830
2026-01-20 12:30:07.08	236.38	6.57	-48.4	-56.1	5.0	8.63e-01	0	38	0	24117248	68	8746
2026-01-20 12:30:08.09	236.49	6.63	-48.4	-56.2	5.0	6.84e-01	0	38	0	27262976	68	8773
2026-01-20 12:30:09.10	236.61	6.68	-48.4	-55.8	5.2	6.58e-01	0	38	0	30408704	68	8443
2026-01-20 12:30:10.10	236.73	6.73	-48.3	-55.7	5.2	5.50e-01	0	38	0	33554432	68	8331
2026-01-20 12:30:11.11	236.84	6.79	-48.3	-55.6	5.3	5.47e-01	0	38	0	36700160	68	8218
2026-01-20 12:30:12.12	236.96	6.84	-48.3	-55.5	5.4	5.30e-01	0	38	0	39845888	68	8110
2026-01-20 12:30:13.13	237.08	6.89	-48.5	-56.7	4.7	1.44e+00	2	38	104	41943040	68	9312
2026-01-20 12:30:14.13	237.20	6.95	-48.4	-56.2	4.9	7.43e-01	0	38	0	44040192	68	8836
2026-01-20 12:30:15.14	237.32	7.00	-48.9	-60.3	3.8	1.49e+00	0	38	104	45088768	68	14119
2026-01-20 12:30:16.15	237.44	7.05	-48.4	-56.3	4.9	1.04e+00	0	38	104	45088768	68	8917
2026-01-20 12:30:17.16	237.56	7.11	-48.9	-59.3	4.0	1.49e+00	0	38	104	46137344	68	12578
2026-01-20 12:30:18.17	237.68	7.16	-48.4	-56.0	5.1	6.62e-01	0	38	0	46137344	68	8608
2026-01-20 12:30:19.17	237.80	7.21	-48.3	-55.7	5.3	5.88e-01	0	38	0	49283072	68	8319
2026-01-20 12:30:20.18	237.92	7.27	-48.4	-55.8	5.2	5.64e-01	0	38	0	52428800	68	8444
2026-01-20 12:30:21.19	238.04	7.32	-48.3	-55.6	5.3	5.45e-01	0	38	0	55574528	68	8261
2026-01-20 12:30:22.20	238.16	7.37	-48.3	-55.6	5.3	5.57e-01	0	38	0	58720256	68	8199
2026-01-20 12:30:23.21	238.28	7.43	-48.4	-55.7	5.3	5.94e-01	0	38	0	61865984	68	8338
2026-01-20 12:30:24.21	238.40	7.48	-48.6	-56.8	4.7	1.27e+00	0	38	104	63963136	68	9481
2026-01-20 12:30:25.22	238.53	7.53	-48.4	-55.9	5.2	6.55e-01	0	38	0	66060288	68	8471
2026-01-20 12:30:26.23	238.65	7.59	-48.9	-59.9	3.8	1.49e+00	0	38	104	67108864	68	13474
2026-01-20 12:30:27.23	238.77	7.64	-48.4	-56.0	5.1	1.19e+00	0	38	104	67108864	68	8607
2026-01-20 12:30:28.24	238.90	7.69	-48.9	-59.0	4.0	1.49e+00	0	38	104	68157440	68	12186
2026-01-20 12:30:29.25	239.02	7.75	-48.4	-55.9	5.1	6.32e-01	0	38	0	69206016	68	8500
2026-01-20 12:30:30.26	239.15	7.80	-48.4	-56.0	5.1	6.41e-01	0	38	0	72351744	68	8581
2026-01-20 12:30:31.26	239.28	7.85	-48.4	-56.0	5.1	6.31e-01	0	38	0	75497472	68	8603
2026-01-20 12:30:32.27	239.40	7.91	-48.4	-55.9	5.1	6.49e-01	0	38	0	78643200	68	8531
2026-01-20 12:30:33.28	239.53	7.96	-48.3	-55.6	5.3	5.89e-01	0	38	0	81788928	68	8224
2026-01-20 12:30:34.29	239.66	8.01	-48.3	-55.7	5.3	5.45e-01	0	38	0	84934656	68	8283
2026-01-20 12:30:35.30	239.78	8.07	-48.5	-56.7	4.7	1.24e+00	0	38	104	85983232	68	9368
2026-01-20 12:30:36.30	239.91	8.12	-48.3	-55.6	5.3	6.01e-01	0	38	0	88080384	68	8194
2026-01-20 12:30:37.31	240.04	8.17	-48.8	-59.3	3.9	1.49e+00	0	38	104	89128960	68	12544
2026-01-20 12:30:38.32	240.17	8.23	-48.3	-55.4	5.4	6.86e-01	0	38	0	89128960	68	8033
2026-01-20 12:30:39.33	240.30	8.28	-48.7	-58.2	4.2	1.48e+00	0	38	104	90177536	68	11120
2026-01-20 12:30:40.34	240.43	8.33	-48.3	-55.4	5.5	4.79e-01	0	38	0	91226112	68	7998
2026-01-20 12:30:41.34	240.56	8.39	-48.3	-55.2	5.6	4.41e-01	0	38	0	94371840	68	7879
2026-01-20 12:30:42.35	240.69	8.44	-48.2	-55.0	5.7	4.21e-01	0	38	0	97517568	68	7691
2026-01-20 12:30:43.36	240.82	8.49	-48.2	-55.0	5.7	4.03e-01	0	38	0	100663296	68	7675
2026-01-20 12:30:44.37	240.95	8.55	-48.2	-55.2	5.6	4.30e-01	0	38	0	103809024	68	7830
2026-01-20 12:30:45.37	241.08	8.60	-48.3	-55.3	5.5	4.44e-01	0	38	0	106954752	68	7983
2026-01-20 12:30:46.38	241.22	8.65	-48.5	-56.6	4.8	1.41e+00	0	38	104	108003328	68	9207
2026-01-20 12:30:47.39	241.35	8.71	-48.3	-55.3	5.6	4.89e-01	0	38	0	109051904	68	7901
2026-01-20 12:30:48.40	241.48	8.76	-48.8	-58.9	3.9	1.49e+00	0	38	104	110100480	68	12087
2026-01-20 12:30:49.41	241.62	8.81	-48.2	-54.8	5.9	5.61e-01	0	38	0	111149056	68	7506
2026-01-20 12:30:50.41	241.75	8.87	-48.5	-57.3	4.0	1.46e+00	0	38	104	112197632	68	9995
2026-01-20 12:30:51.42	241.88	8.92	-48.2	-54.7	5.9	3.55e-01	0	38	0	113246208	68	7443
2026-01-20 12:30:52.43	242.02	8.97	-48.2	-54.8	5.9	3.59e-01	0	38	0	116391936	68	7501
2026-01-20 12:30:53.44	242.16	9.03	-48.2	-54.9	5.8	3.69e-01	0	38	0	119537664	68	7609
2026-01-20 12:30:54.44	242.29	9.08	-48.2	-54.9	5.8	3.86e-01	0	38	0	122683392	68	7581
2026-01-20 12:30:55.45	242.43	9.13	-48.2	-54.9	5.8	3.73e-01	0	38	0	125829120	68	7581
2026-01-20 12:30:56.46	242.57	9.18	-48.2	-54.8	5.9	3.42e-01	0	38	0	128974848	68	7473
2026-01-20 12:30:57.47	242.70	9.24	-48.2	-55.1	5.6	8.45e-01	0	38	104	131072000	68	7801
2026-01-20 12:30:58.47	242.84	9.29	-48.3	-55.6	5.4	4.51e-01	0	38	0	133169152	68	8227
2026-01-20 12:30:59.48	242.98	9.34	-48.7	-57.5	4.4	1.49e+00	0	38	104	134217728	68	10256
2026-01-20 12:31:00.49	243.12	9.40	-48.2	-54.7	6.0	4.72e-01	0	38	0	136314880	68	7436
2026-01-20 12:31:01.49	243.26	9.45	-48.6	-57.3	4.0	1.46e+00	0	38	104	136314880	68	10054
2026-01-20 12:31:02.50	243.40	9.50	-48.1	-54.7	6.0	3.39e-01	0	38	0	137363456	68	7414
2026-01-20 12:31:03.51	243.54	9.55	-48.2	-54.8	5.9	3.44e-01	0	38	0	141557760	68	7504
2026-01-20 12:31:04.52	243.68	9.61	-48.2	-54.7	5.9	3.31e-01	0	38	0	144703488	68	7434
2026-01-20 12:31:05.53	243.82	9.66	-48.2	-54.8	5.9	3.38e-01	0	38	0	147849216	68	7477
2026-01-20 12:31:06.53	243.96	9.71	-48.1	-54.7	6.0	3.38e-01	0	38	0	150994944	68	7395
2026-01-20 12:31:07.54	244.11	9.76	-48.4	-55.9	5.2	3.47e-01	0	38	0	154140672	68	8545
2026-01-20 12:31:08.55	244.25	9.82	-48.3	-55.3	5.5	9.05e-01	0	38	0	154140672	68	7978
2026-01-20 12:31:09.55	244.39	9.87	-48.5	-56.5	4.9	4.26e-01	0	38	0	157286400	68	9115
2026-01-20 12:31:10.56	244.54	9.92	-48.6	-57.2	4.5	1.48e+00	0	38	104	157286400	68	9896
2026-01-20 12:31:11.57	244.68	9.97	-48.4	-55.7	5.4	5.71e-01	0	38	0	159383552	68	8338
2026-01-20 12:31:12.58	244.83	10.03	-48.6	-56.6	4.8	1.46e+00	2	38	104	159383552	68	9277
2026-01-20 12:31:13.59	244.97	10.08	-48.3	-55.3	5.6	4.51e-01	0	38	0	161480704	68	7936
2026-01-20 12:31:14.59	245.12	10.13	-48.3	-55.2	5.6	4.56e-01	0	38	0	164626432	68	7896
2026-01-20 12:31:15.60	245.27	10.18	-48.2	-55.0	5.8	4.05e-01	0	38	0	167772160	68	7684
2026-01-20 12:31:16.61	245.41	10.24	-48.2	-54.9	5.8	3.87e-01	0	38	0	170917888	68	7578
2026-01-20 12:31:17.61	245.56	10.29	-48.1	-54.6	6.1	3.10e-01	0	38	0	174063616	68	7306
2026-01-20 12:31:18.62	245.71	10.34	-48.4	-55.9	5.2	4.58e-01	0	38	0	177209344	68	8518
2026-01-20 12:31:19.63	245.86	10.39	-48.2	-54.8	5.9	1.03e+00	0	38	104	178257920	68	7505
2026-01-20 12:31:20.64	246.01	10.44	-48.7	-57.7	4.4	3.70e-01	4	38	0	181403648	68	10449
2026-01-20 12:31:21.65	246.16	10.50	-48.5	-56.6	4.8	1.47e+00	0	38	104	181403648	68	9191
2026-01-20 12:31:22.65	246.30	10.55	-48.5	-56.4	5.0	3.44e-01	0	38	0	183500800	68	8972
2026-01-20 12:31:23.66	246.46	10.60	-48.4	-55.5	5.4	1.22e+00	2	38	104	183500800	68	8144
2026-01-20 12:31:24.67	246.61	10.65	-48.3	-55.0	5.7	3.75e-01	0	38	0	185597952	68	7715
2026-01-20 12:31:25.68	246.76	10.70	-48.2	-54.7	6.0	3.65e-01	0	38	0	188743680	68	7435
2026-01-20 12:31:26.69	246.91	10.75	-48.2	-54.8	5.9	3.41e-01	0	38	0	191889408	68	7504
2026-01-20 12:31:27.70	247.06	10.81	-48.2	-54.8	5.9	3.49e-01	0	38	0	195035136	68	7486
2026-01-20 12:31:28.71	247.22	10.86	-48.1	-54.6	6.1	3.14e-01	0	38	0	198180864	68	7315
2026-01-20 12:31:29.71	247.37	10.91	-48.4	-56.0	5.1	4.31e-01	0	38	0	201326592	68	8626
2026-01-20 12:31:30.72	247.53	10.96	-48.2	-54.8	5.9	3.90e-01	0	38	0	204472320	68	7521
2026-01-20 12:31:31.73	247.68	11.01	-48.8	-59.2	3.9	1.00e+00	0	38	104	207618048	68	12453
2026-01-20 12:31:32.74	247.84	11.06	-48.5	-56.2	5.0	1.43e+00	0	38	104	207618048	68	8796
2026-01-20 12:31:33.75	247.99	11.11	-48.7	-57.2	4.6	3.34e-01	0	38	0	209715200	68	9831
2026-01-20 12:31:34.76	248.15	11.16	-48.3	-55.2	5.6	1.15e+00	0	38	104	209715200	68	7897
2026-01-20 12:31:35.76	248.30	11.21	-48.2	-54.7	6.0	3.55e-01	0	38	0	211812352	68	7431
2026-01-20 12:31:36.77	248.46	11.27	-48.1	-54.5	6.1	3.04e-01	0	38	0	214958080	68	7282
2026-01-20 12:31:37.78	248.62	11.32	-48.1	-54.5	6.2	2.91e-01	0	38	0	218103808	68	7230
2026-01-20 12:31:38.79	248.78	11.37	-48.1	-54.5	6.2	2.98e-01	0	38	0	221249536	68	7211
2026-01-20 12:31:39.79	248.94	11.42	-48.1	-54.3	6.3	2.80e-01	0	38	0	224395264	68	7049
2026-01-20 12:31:40.80	249.10	11.47	-48.6	-56.6	4.8	4.54e-01	0	38	0	227540992	68	9249
2026-01-20 12:31:41.81	249.26	11.52	-48.1	-54.2	6.4	2.50e-01	0	38	0	228589568	68	7018
2026-01-20 12:31:42.81	249.42	11.57	-48.9	-60.0	3.8	1.07e+00	0	38	104	230686720	68	13667
2026-01-20 12:31:43.82	249.58	11.62	-48.4	-55.5	5.5	5.70e-01	0	38	104	230686720	68	8124
2026-01-20 12:31:44.83	249.74	11.67	-48.8	-58.5	3.9	9.55e-01	2	38	104	232783872	68	11426
2026-01-20 12:31:45.84	249.90	11.72	-48.0	-54.1	6.5	5.02e-01	0	38	0	233832448	68	6917
2026-01-20 12:31:46.84	250.06	11.77	-48.0	-54.1	6.5	2.27e-01	0	38	0	235929600	68	6935
2026-01-20 12:31:47.86	250.23	11.82	-48.0	-54.0	6.6	2.15e-01	0	38	0	239075328	68	6828
2026-01-20 12:31:48.86	250.39	11.87	-47.9	-53.8	6.6	2.07e-01	0	38	0	242221056	67	7099
2026-01-20 12:31:49.87	250.56	11.92	-47.9	-53.7	6.7	1.91e-01	0	38	0	245366784	67	7037
2026-01-20 12:31:50.88	250.72	11.97	-47.9	-53.8	6.7	1.90e-01	0	38	0	248512512	67	7045
2026-01-20 12:31:51.88	250.88	12.01	-48.3	-55.5	5.4	3.00e-01	0	38	0	251658240	67	8562
2026-01-20 12:31:52.89	251.05	12.06	-48.0	-54.1	6.4	2.87e-01	0	38	0	254803968	67	7320
2026-01-20 12:31:53.90	251.22	12.11	-49.0	-60.1	3.8	1.09e+00	0	38	104	257949696	68	13772
2026-01-20 12:31:54.91	251.39	12.16	-48.4	-55.5	5.5	6.08e-01	0	38	104	257949696	68	8108
2026-01-20 12:31:55.91	251.55	12.21	-48.8	-58.7	3.9	9.63e-01	0	38	104	260046848	68	11772
2026-01-20 12:31:56.92	251.72	12.26	-48.1	-54.2	6.4	3.00e-01	0	38	0	261095424	68	7005
2026-01-20 12:31:57.93	251.89	12.31	-48.1	-54.2	6.4	2.37e-01	0	38	0	264241152	68	7019
2026-01-20 12:31:58.94	252.06	12.36	-48.1	-54.2	6.3	2.63e-01	0	38	0	267386880	68	7039
2026-01-20 12:31:59.94	252.23	12.40	-48.0	-54.1	6.5	2.58e-01	0	38	0	270532608	68	6883
2026-01-20 12:32:00.95	252.40	12.45	-48.0	-54.2	6.4	2.32e-01	0	38	0	273678336	68	7010
2026-01-20 12:32:01.96	252.57	12.50	-48.0	-54.1	6.5	2.30e-01	0	38	0	276824064	68	6932
2026-01-20 12:32:02.97	252.74	12.55	-48.6	-56.6	4.8	7.19e-01	0	38	0	279969792	68	9211
2026-01-20 12:32:03.97	252.91	12.60	-48.1	-54.3	6.3	3.21e-01	0	38	0	283115520	68	7120
2026-01-20 12:32:04.98	253.08	12.64	-49.0	-60.4	3.8	1.16e+00	0	38	104	285212672	68	14278
2026-01-20 12:32:05.99	253.26	12.69	-48.4	-55.8	5.2	6.53e-01	0	38	0	285212672	68	8418
2026-01-20 12:32:07.00	253.43	12.74	-48.8	-58.7	3.9	9.86e-01	0	38	104	287309824	68	11711
2026-01-20 12:32:08.01	253.60	12.79	-48.1	-54.2	6.4	2.91e-01	0	38	0	288358400	68	6993
2026-01-20 12:32:09.01	253.78	12.83	-48.0	-54.0	6.6	2.35e-01	0	38	0	291504128	68	6868
2026-01-20 12:32:10.02	253.95	12.88	-48.0	-54.0	6.6	2.07e-01	0	38	0	294649856	68	6811
2026-01-20 12:32:11.03	254.13	12.93	-48.0	-54.0	6.6	2.12e-01	0	38	0	297795584	68	6853
2026-01-20 12:32:12.04	254.30	12.97	-48.0	-54.0	6.6	2.18e-01	0	38	0	300941312	68	6826
2026-01-20 12:32:13.05	254.48	13.02	-48.1	-54.2	6.4	2.36e-01	0	38	0	304087040	68	6974
2026-01-20 12:32:14.05	254.66	13.07	-48.6	-57.4	4.0	7.97e-01	2	38	104	307232768	68	10114
2026-01-20 12:32:15.06	254.83	13.11	-48.1	-54.5	6.2	2.76e-01	0	38	0	308281344	68	7235
2026-01-20 12:32:16.07	255.01	13.16	-49.0	-60.6	3.8	1.49e+00	0	38	104	310378496	68	14642
2026-01-20 12:32:17.08	255.19	13.20	-48.5	-56.0	5.1	7.46e-01	0	38	0	310378496	68	8661
2026-01-20 12:32:18.09	255.37	13.25	-48.9	-59.0	3.9	1.07e+00	0	38	104	312475648	68	12203
2026-01-20 12:32:19.09	255.55	13.29	-48.2	-54.5	6.1	3.53e-01	0	38	0	313524224	68	7264
2026-01-20 12:32:20.10	255.73	13.34	-48.2	-54.7	6.0	3.19e-01	0	38	0	316669952	68	7394
2026-01-20 12:32:21.11	255.91	13.38	-48.1	-54.5	6.2	3.06e-01	0	38	0	319815680	68	7246
2026-01-20 12:32:22.11	256.09	13.43	-48.1	-54.4	6.2	2.84e-01	0	38	0	322961408	68	7142
2026-01-20 12:32:23.12	256.27	13.47	-48.1	-54.2	6.4	2.56e-01	0	38	0	326107136	68	7028
2026-01-20 12:32:24.13	256.46	13.52	-48.1	-54.2	6.4	2.56e-01	0	38	0	329252864	68	7017
2026-01-20 12:32:25.14	256.64	13.56	-48.5	-56.2	5.0	7.44e-01	0	38	0	332398592	68	8784
2026-01-20 12:32:26.14	256.82	13.61	-48.1	-54.2	6.4	2.53e-01	0	38	0	335544320	68	7032
2026-01-20 12:32:27.15	257.01	13.65	-49.0	-60.1	3.8	1.49e+00	0	38	104	337641472	68	13844
2026-01-20 12:32:28.16	257.19	13.69	-48.3	-55.3	5.6	5.79e-01	0	38	0	338690048	68	7908
2026-01-20 12:32:29.16	257.38	13.74	-48.8	-57.9	4.3	1.05e+00	0	38	104	339738624	68	10697
2026-01-20 12:32:30.17	257.56	13.78	-48.0	-54.0	6.6	2.52e-01	0	38	0	340787200	68	6838
2026-01-20 12:32:31.18	257.75	13.82	-48.0	-54.0	6.6	2.04e-01	0	38	0	343932928	68	6859
2026-01-20 12:32:32.19	257.94	13.87	-48.0	-53.9	6.6	2.07e-01	0	38	0	347078656	68	6798
2026-01-20 12:32:33.20	258.12	13.91	-47.9	-53.9	6.6	2.10e-01	0	38	0	350224384	67	7153
2026-01-20 12:32:34.20	258.31	13.95	-47.9	-53.9	6.6	2.12e-01	0	38	0	353370112	67	7192
2026-01-20 12:32:35.21	258.50	14.00	-48.0	-54.0	6.4	2.37e-01	0	38	0	357564416	67	7285
2026-01-20 12:32:36.22	258.69	14.04	-48.3	-55.3	5.5	5.94e-01	0	38	0	360710144	67	8418
2026-01-20 12:32:37.23	258.88	14.08	-48.0	-54.2	6.3	2.61e-01	0	38	0	363855872	67	7437
2026-01-20 12:32:38.24	259.07	14.12	-49.0	-60.0	3.8	1.49e+00	0	38	104	363855872	68	13633
2026-01-20 12:32:39.24	259.26	14.16	-48.3	-55.2	5.6	8.91e-01	0	38	104	363855872	68	7842
2026-01-20 12:32:40.25	259.45	14.20	-48.7	-57.3	4.5	1.48e+00	2	38	104	364904448	68	10055
2026-01-20 12:32:41.26	259.64	14.25	-48.1	-54.1	6.5	2.30e-01	0	38	0	367001600	68	6931
2026-01-20 12:32:42.27	259.83	14.29	-48.0	-54.1	6.5	2.23e-01	0	38	0	370147328	68	6892
2026-01-20 12:32:43.27	260.02	14.33	-48.0	-53.9	6.7	1.99e-01	0	38	0	373293056	68	6737
2026-01-20 12:32:44.27	260.21	14.37	-47.9	-53.7	6.8	1.95e-01	0	38	0	376438784	67	7009
2026-01-20 12:32:45.28	260.41	14.41	-47.9	-53.7	6.7	1.84e-01	0	38	0	379584512	67	7029
2026-01-20 12:32:46.29	260.60	14.45	-47.9	-53.8	6.7	1.91e-01	0	38	0	382730240	67	7112
2026-01-20 12:32:47.30	260.80	14.49	-48.2	-55.0	5.7	4.90e-01	0	38	0	385875968	67	8129
2026-01-20 12:32:48.31	260.99	14.53	-48.0	-54.1	6.5	2.22e-01	0	38	0	389021696	67	7300
2026-01-20 12:32:49.32	261.19	14.57	-48.9	-59.2	3.9	1.49e+00	0	38	104	390070272	68	12467
2026-01-20 12:32:50.32	261.38	14.60	-48.1	-54.3	6.3	7.30e-01	0	38	0	391118848	68	7104
2026-01-20 12:32:51.33	261.58	14.64	-48.6	-56.8	4.7	1.46e+00	2	38	104	392167424	68	9410
2026-01-20 12:32:52.33	261.77	14.68	-48.1	-54.1	6.5	2.21e-01	0	38	0	394264576	68	6926
2026-01-20 12:32:53.34	261.97	14.72	-48.0	-53.9	6.6	2.10e-01	0	38	0	397410304	68	6794
2026-01-20 12:32:54.35	262.17	14.76	-48.0	-53.9	6.7	2.03e-01	0	38	0	400556032	68	6752
2026-01-20 12:32:55.36	262.37	14.79	-47.8	-53.5	6.9	1.71e-01	0	38	0	403701760	67	6867
2026-01-20 12:32:56.37	262.57	14.83	-47.8	-53.5	6.9	1.67e-01	0	38	0	406847488	67	6855
2026-01-20 12:32:57.37	262.76	14.87	-47.9	-53.6	6.8	1.73e-01	0	38	0	409993216	67	6938
2026-01-20 12:32:58.38	262.96	14.91	-48.1	-54.6	6.0	5.23e-01	0	38	0	413138944	67	7790
2026-01-20 12:32:59.39	263.16	14.94	-48.0	-54.0	6.5	1.83e-01	0	38	0	416284672	67	7251
2026-01-20 12:33:00.40	263.37	14.98	-48.9	-59.4	3.9	1.49e+00	0	38	104	417333248	68	12765
2026-01-20 12:33:01.41	263.57	15.02	-48.1	-54.4	6.2	1.14e+00	0	38	104	417333248	68	7133
2026-01-20 12:33:02.41	263.77	15.05	-48.4	-55.5	5.4	7.81e-01	0	38	104	418381824	68	8127
2026-01-20 12:33:03.42	263.97	15.09	-48.0	-54.1	6.6	2.08e-01	0	38	0	420478976	68	6889
2026-01-20 12:33:04.42	264.17	15.12	-48.0	-54.0	6.6	2.10e-01	0	38	0	423624704	68	6803
2026-01-20 12:33:05.43	264.37	15.16	-48.0	-53.9	6.7	2.18e-01	0	38	0	426770432	68	6770
2026-01-20 12:33:06.44	264.58	15.19	-48.0	-54.0	6.6	2.02e-01	0	38	0	429916160	68	6837
2026-01-20 12:33:07.44	264.78	15.23	-47.9	-53.7	6.8	1.89e-01	0	38	0	433061888	67	6998
2026-01-20 12:33:08.45	264.99	15.26	-48.0	-54.0	6.5	1.64e-01	0	38	0	436207616	67	7257
2026-01-20 12:33:09.46	265.19	15.29	-48.0	-54.1	6.4	4.38e-01	0	38	0	439353344	67	7320
2026-01-20 12:33:10.47	265.40	15.33	-48.1	-54.7	6.1	1.49e-01	0	38	0	442499072	67	7817
2026-01-20 12:33:11.47	265.60	15.36	-48.8	-58.5	3.9	1.49e+00	0	38	104	443547648	68	11461
2026-01-20 12:33:12.48	265.81	15.39	-47.8	-53.5	7.0	3.37e-01	0	38	0	443547648	67	6816
2026-01-20 12:33:13.49	266.01	15.43	-48.2	-55.0	5.7	1.47e+00	0	38	104	444596224	67	8103
2026-01-20 12:33:14.50	266.22	15.46	-47.8	-53.5	7.0	1.64e-01	0	38	0	446693376	67	6839
2026-01-20 12:33:15.50	266.43	15.49	-47.8	-53.4	7.0	1.61e-01	0	38	0	449839104	67	6777
2026-01-20 12:33:16.51	266.64	15.52	-47.8	-53.4	7.1	1.44e-01	0	38	0	454033408	67	6747
2026-01-20 12:33:17.52	266.84	15.55	-47.8	-53.5	7.0	1.53e-01	0	38	0	457179136	67	6819
2026-01-20 12:33:18.53	267.05	15.58	-47.8	-53.3	7.1	1.44e-01	0	38	0	460324864	67	6703
2026-01-20 12:33:19.53	267.26	15.61	-48.0	-54.0	6.6	1.48e-01	0	38	0	463470592	67	7246
2026-01-20 12:33:20.54	267.47	15.64	-47.9	-53.7	6.8	2.26e-01	0	38	0	465567744	67	6960
2026-01-20 12:33:21.55	267.68	15.67	-48.5	-56.3	5.0	1.62e-01	0	38	0	468713472	67	9446
2026-01-20 12:33:22.56	267.89	15.70	-48.8	-57.8	4.3	1.49e+00	0	38	104	469762048	68	10636
2026-01-20 12:33:23.57	268.10	15.73	-47.9	-53.7	6.9	3.67e-01	0	38	0	469762048	67	6985
2026-01-20 12:33:24.57	268.31	15.76	-48.0	-54.2	6.4	8.25e-01	0	38	104	470810624	67	7380
2026-01-20 12:33:25.58	268.52	15.79	-47.8	-53.3	7.1	1.44e-01	0	38	0	472907776	67	6687
2026-01-20 12:33:26.59	268.74	15.82	-47.8	-53.4	7.1	1.45e-01	0	38	0	476053504	67	6761
2026-01-20 12:33:27.60	268.95	15.85	-47.8	-53.4	7.0	1.46e-01	0	38	0	479199232	67	6774
2026-01-20 12:33:28.61	269.16	15.88	-47.8	-53.4	7.1	1.50e-01	0	38	0	482344960	67	6745
2026-01-20 12:33:29.61	269.37	15.90	-47.8	-53.3	7.2	1.38e-01	0	38	0	486539264	67	6650
2026-01-20 12:33:30.62	269.59	15.93	-48.3	-55.5	5.5	1.97e-01	0	38	0	489684992	67	8593
2026-01-20 12:33:31.63	269.80	15.96	-47.8	-53.5	6.9	3.43e-01	0	38	0	489684992	67	6838
2026-01-20 12:33:32.63	270.01	15.98	-48.7	-57.9	4.3	4.37e-01	3	38	0	492830720	67	11331
2026-01-20 12:33:33.64	270.23	16.01	-48.8	-57.8	4.4	1.46e+00	0	38	104	492830720	68	10546
2026-01-20 12:33:34.65	270.44	16.04	-48.1	-54.2	6.5	3.82e-01	0	38	0	493879296	67	7420
2026-01-20 12:33:35.66	270.66	16.06	-48.0	-54.1	6.4	1.14e+00	0	38	104	494927872	67	7359
2026-01-20 12:33:36.67	270.88	16.09	-47.8	-53.5	6.9	1.69e-01	0	38	0	497025024	67	6860
2026-01-20 12:33:37.68	271.09	16.11	-47.8	-53.2	7.3	1.29e-01	0	38	0	500170752	67	6627
2026-01-20 12:33:38.68	271.31	16.13	-47.7	-53.1	7.3	1.21e-01	0	38	0	503316480	67	6548
2026-01-20 12:33:39.69	271.52	16.16	-47.7	-53.1	7.3	1.26e-01	0	38	0	506462208	67	6536
2026-01-20 12:33:40.70	271.74	16.18	-47.7	-53.1	7.3	1.07e-01	0	38	0	509607936	67	6542
2026-01-20 12:33:41.70	271.96	16.21	-48.1	-54.5	6.2	1.43e-01	0	38	0	512753664	67	7686
2026-01-20 12:33:42.71	272.18	16.23	-47.8	-53.3	7.2	2.35e-01	0	38	0	515899392	67	6652
2026-01-20 12:33:43.72	272.39	16.25	-49.0	-59.6	3.8	4.64e-01	0	38	104	519045120	68	13024
2026-01-20 12:33:44.73	272.61	16.27	-48.8	-58.2	4.2	1.47e+00	0	38	104	519045120	68	11089
2026-01-20 12:33:45.74	272.83	16.29	-48.3	-55.1	5.8	1.77e-01	0	38	0	520093696	67	8222
2026-01-20 12:33:46.74	273.05	16.32	-47.9	-53.6	6.9	2.33e-01	0	38	0	523239424	67	6920
2026-01-20 12:33:47.75	273.27	16.34	-47.8	-53.2	7.3	1.24e-01	0	38	0	526385152	67	6571
2026-01-20 12:33:48.76	273.49	16.36	-47.8	-53.3	7.2	1.30e-01	0	38	0	529530880	67	6670
2026-01-20 12:33:49.77	273.71	16.38	-47.8	-53.3	7.2	1.33e-01	0	38	0	532676608	67	6665
2026-01-20 12:33:50.77	273.93	16.40	-47.8	-53.2	7.3	1.25e-01	0	38	0	535822336	67	6601
2026-01-20 12:33:51.78	274.15	16.42	-47.8	-53.3	7.2	1.31e-01	0	38	0	538968064	67	6717
2026-01-20 12:33:52.79	274.37	16.44	-48.1	-54.2	6.4	1.40e-01	0	38	0	542113792	67	7444
2026-01-20 12:33:53.80	274.59	16.45	-47.8	-53.4	7.1	2.06e-01	0	38	0	545259520	67	6741
2026-01-20 12:33:54.81	274.81	16.47	-49.0	-59.7	3.8	5.37e-01	0	38	104	547356672	68	13140
2026-01-20 12:33:55.81	275.03	16.49	-48.9	-58.7	4.1	1.47e+00	0	38	104	547356672	68	11734
2026-01-20 12:33:56.82	275.25	16.51	-48.4	-55.6	5.4	1.65e-01	0	38	0	548405248	67	8744
2026-01-20 12:33:57.83	275.47	16.52	-47.9	-53.4	7.1	2.01e-01	0	38	0	551550976	67	6786
2026-01-20 12:33:58.84	275.70	16.54	-47.8	-53.2	7.3	1.20e-01	0	38	0	554696704	67	6609
2026-01-20 12:33:59.85	275.92	16.56	-47.8	-53.2	7.3	1.28e-01	0	38	0	557842432	67	6608
2026-01-20 12:34:00.85	276.14	16.57	-47.8	-53.3	7.2	1.23e-01	0	38	0	560988160	67	6686
2026-01-20 12:34:01.86	276.36	16.59	-47.8	-53.4	7.1	1.36e-01	0	38	0	564133888	67	6739
2026-01-20 12:34:02.87	276.59	16.60	-47.9	-53.4	7.1	1.44e-01	0	38	0	567279616	67	6774
2026-01-20 12:34:03.88	276.81	16.62	-48.0	-54.0	6.6	1.88e-01	0	38	0	570425344	67	7267
2026-01-20 12:34:04.88	277.03	16.63	-47.9	-53.5	7.0	1.61e-01	0	38	0	573571072	67	6853
2026-01-20 12:34:05.89	277.26	16.65	-49.1	-60.2	3.8	7.21e-01	0	38	104	575668224	68	13960
2026-01-20 12:34:06.90	277.48	16.66	-49.1	-59.9	3.8	1.48e+00	0	38	104	575668224	68	13532
2026-01-20 12:34:07.91	277.71	16.67	-48.4	-55.3	5.7	1.59e-01	0	38	0	575668224	67	8375
2026-01-20 12:34:08.91	277.93	16.69	-47.8	-53.2	7.4	1.62e-01	0	38	0	578813952	67	6620
2026-01-20 12:34:09.92	278.15	16.70	-47.9	-53.3	7.3	1.27e-01	0	38	0	581959680	67	6685
2026-01-20 12:34:10.93	278.38	16.71	-47.9	-53.3	7.3	1.30e-01	0	38	0	585105408	67	6666
2026-01-20 12:34:11.94	278.60	16.72	-47.8	-53.2	7.3	1.20e-01	0	38	0	588251136	67	6642
2026-01-20 12:34:12.95	278.83	16.73	-47.9	-53.3	7.3	1.30e-01	0	38	0	591396864	67	6687
2026-01-20 12:34:13.95	279.05	16.74	-47.9	-53.4	7.2	1.27e-01	0	38	0	594542592	67	6757
2026-01-20 12:34:14.96	279.28	16.75	-48.1	-54.2	6.5	1.85e-01	0	38	0	597688320	67	7397
2026-01-20 12:34:15.97	279.50	16.76	-47.9	-53.4	7.1	1.50e-01	0	38	0	600834048	67	6798
2026-01-20 12:34:16.98	279.73	16.77	-49.2	-60.1	3.8	1.48e+00	0	38	104	602931200	68	13874
2026-01-20 12:34:17.99	279.95	16.78	-49.2	-60.8	3.8	1.49e+00	0	38	104	602931200	68	14892
2026-01-20 12:34:18.99	280.18	16.79	-48.5	-55.4	5.6	2.71e-01	0	38	0	602931200	67	8552
2026-01-20 12:34:20.00	280.40	16.80	-47.9	-53.4	7.3	1.41e-01	0	38	0	606076928	67	6732
2026-01-20 12:34:21.01	280.63	16.81	-47.9	-53.4	7.2	1.35e-01	0	38	0	609222656	67	6787
2026-01-20 12:34:22.02	280.86	16.81	-47.9	-53.5	7.2	1.33e-01	0	38	0	612368384	67	6804
2026-01-20 12:34:23.02	281.08	16.82	-47.9	-53.3	7.3	1.24e-01	0	38	0	615514112	67	6702
2026-01-20 12:34:24.03	281.31	16.83	-47.9	-53.3	7.3	1.27e-01	0	38	0	618659840	67	6711
2026-01-20 12:34:25.04	281.53	16.83	-47.9	-53.3	7.3	1.24e-01	0	38	0	621805568	67	6713
2026-01-20 12:34:26.05	281.76	16.84	-48.0	-53.8	6.9	1.63e-01	0	38	0	624951296	67	7076
2026-01-20 12:34:27.05	281.99	16.84	-48.1	-53.8	6.8	1.82e-01	0	38	0	628097024	67	7104
2026-01-20 12:34:28.06	282.21	16.85	-49.2	-60.0	3.8	1.49e+00	0	38	104	630194176	68	13613
2026-01-20 12:34:29.07	282.44	16.85	-49.3	-61.4	3.8	1.49e+00	0	38	104	630194176	69	15065
2026-01-20 12:34:30.08	282.67	16.86	-48.6	-55.4	5.6	3.20e-01	0	38	0	631242752	68	8052
2026-01-20 12:34:31.09	282.89	16.86	-48.0	-53.5	7.3	1.29e-01	0	38	0	633339904	68	6467
2026-01-20 12:34:32.10	283.12	16.86	-48.0	-53.5	7.2	1.27e-01	0	38	0	636485632	68	6491
2026-01-20 12:34:33.10	283.35	16.86	-48.0	-53.5	7.3	1.26e-01	0	38	0	639631360	68	6436
2026-01-20 12:34:34.11	283.57	16.87	-48.1	-53.6	7.2	1.37e-01	0	38	0	643825664	68	6540
2026-01-20 12:34:35.12	283.80	16.87	-48.1	-53.6	7.2	1.39e-01	0	38	0	646971392	68	6539
2026-01-20 12:34:36.13	284.03	16.87	-48.1	-53.6	7.2	1.40e-01	0	38	0	650117120	68	6511
2026-01-20 12:34:37.13	284.25	16.87	-48.3	-54.6	6.2	2.90e-01	0	38	0	653262848	68	7292
2026-01-20 12:34:38.14	284.48	16.87	-48.3	-54.5	6.4	2.33e-01	0	38	0	656408576	68	7242
2026-01-20 12:34:39.15	284.71	16.87	-49.2	-59.5	4.0	1.48e+00	0	38	104	657457152	69	12125
2026-01-20 12:34:40.16	284.93	16.87	-49.4	-61.6	3.8	1.49e+00	0	38	104	657457152	69	15418
2026-01-20 12:34:41.17	285.16	16.87	-48.5	-54.8	6.1	2.53e-01	0	38	0	658505728	68	7530
2026-01-20 12:34:42.18	285.39	16.87	-48.1	-53.6	7.3	1.31e-01	0	38	0	661651456	68	6511
2026-01-20 12:34:43.18	285.61	16.87	-48.1	-53.5	7.3	1.25e-01	0	38	0	664797184	68	6463
2026-01-20 12:34:44.19	285.84	16.86	-48.1	-53.7	7.1	1.28e-01	0	38	0	667942912	68	6597
2026-01-20 12:34:45.20	286.07	16.86	-48.1	-53.7	7.1	1.40e-01	0	38	0	671088640	68	6612
2026-01-20 12:34:46.21	286.29	16.86	-48.2	-53.9	7.0	1.59e-01	0	38	0	674234368	68	6741
2026-01-20 12:34:47.21	286.52	16.86	-48.1	-53.8	7.1	1.60e-01	0	38	0	677380096	68	6674
2026-01-20 12:34:48.22	286.75	16.85	-48.2	-53.9	6.9	1.59e-01	0	38	0	680525824	68	6734
2026-01-20 12:34:49.23	286.97	16.85	-48.6	-55.3	5.8	3.41e-01	0	38	0	683671552	68	7936
2026-01-20 12:34:50.24	287.20	16.84	-49.2	-59.3	4.0	1.48e+00	0	38	104	684720128	69	11895
2026-01-20 12:34:51.25	287.43	16.84	-49.4	-61.4	3.8	1.49e+00	0	38	104	684720128	69	15059
2026-01-20 12:34:52.25	287.65	16.83	-48.3	-54.3	6.6	2.17e-01	0	38	0	685768704	68	7074
2026-01-20 12:34:53.26	287.88	16.83	-48.1	-53.6	7.3	1.27e-01	0	38	0	688914432	68	6525
2026-01-20 12:34:54.27	288.10	16.82	-48.1	-53.5	7.3	1.19e-01	0	38	0	692060160	68	6473
2026-01-20 12:34:55.28	288.33	16.81	-48.1	-53.6	7.3	1.26e-01	0	38	0	695205888	68	6496
2026-01-20 12:34:56.28	288.55	16.81	-48.1	-53.5	7.3	1.27e-01	0	38	0	698351616	68	6477
2026-01-20 12:34:57.29	288.78	16.80	-48.1	-53.5	7.4	1.15e-01	0	38	0	701497344	68	6440
2026-01-20 12:34:58.30	289.01	16.79	-48.1	-53.6	7.3	1.17e-01	0	38	0	704643072	68	6510
2026-01-20 12:34:59.31	289.23	16.78	-48.4	-54.5	6.4	3.87e-01	0	38	0	707788800	68	7219
2026-01-20 12:35:00.31	289.46	16.77	-48.8	-56.2	5.3	4.90e-01	0	38	0	710934528	68	8775
2026-01-20 12:35:01.32	289.68	16.76	-49.3	-60.0	4.0	1.47e+00	0	38	104	711983104	69	12813
2026-01-20 12:35:02.33	289.91	16.75	-49.3	-60.7	3.9	1.49e+00	0	38	104	711983104	69	13913
2026-01-20 12:35:03.34	290.13	16.74	-48.4	-54.3	6.6	2.28e-01	0	38	0	713031680	68	7074
2026-01-20 12:35:04.35	290.36	16.73	-48.2	-53.9	6.9	1.61e-01	0	38	0	716177408	68	6775
2026-01-20 12:35:05.35	290.58	16.72	-48.2	-53.7	7.2	1.42e-01	0	38	0	719323136	68	6611
2026-01-20 12:35:06.36	290.81	16.71	-48.2	-53.7	7.2	1.43e-01	0	38	0	722468864	68	6588
2026-01-20 12:35:07.37	291.03	16.70	-48.2	-53.7	7.2	1.31e-01	0	38	0	725614592	68	6579
2026-01-20 12:35:08.38	291.25	16.69	-48.2	-53.8	7.1	1.47e-01	0	38	0	728760320	68	6706
2026-01-20 12:35:09.39	291.48	16.68	-48.2	-53.9	7.0	1.59e-01	0	38	0	731906048	68	6761
2026-01-20 12:35:10.39	291.70	16.66	-48.3	-54.0	6.9	1.78e-01	0	38	0	735051776	68	6820
2026-01-20 12:35:11.40	291.93	16.65	-48.9	-56.9	4.9	7.60e-01	0	38	0	738197504	68	9525
2026-01-20 12:35:12.41	292.15	16.63	-49.4	-60.2	3.8	1.46e+00	0	38	104	739246080	69	13175
2026-01-20 12:35:13.41	292.37	16.62	-49.1	-57.7	4.4	1.49e+00	0	38	104	739246080	69	9902
2026-01-20 12:35:14.42	292.59	16.61	-48.2	-53.7	7.2	1.53e-01	0	38	0	741343232	68	6624
2026-01-20 12:35:15.43	292.82	16.59	-48.2	-53.7	7.2	1.28e-01	0	38	0	744488960	68	6593
2026-01-20 12:35:16.44	293.04	16.58	-48.2	-53.8	7.1	1.43e-01	0	38	0	747634688	68	6701
2026-01-20 12:35:17.44	293.26	16.56	-48.3	-54.0	7.0	1.56e-01	0	38	0	750780416	68	6806
2026-01-20 12:35:18.45	293.48	16.54	-48.3	-53.9	7.0	1.59e-01	0	38	0	753926144	68	6769
2026-01-20 12:35:19.46	293.70	16.53	-48.3	-53.9	7.0	1.56e-01	0	38	0	757071872	68	6778
2026-01-20 12:35:20.47	293.93	16.51	-48.3	-54.2	6.8	1.68e-01	0	38	0	760217600	68	6968
2026-01-20 12:35:21.48	294.15	16.49	-48.7	-55.7	5.6	3.25e-01	0	38	0	763363328	68	8307
2026-01-20 12:35:22.48	294.37	16.48	-49.0	-57.2	4.7	9.95e-01	0	38	104	764411904	68	9912
2026-01-20 12:35:23.49	294.59	16.46	-49.4	-60.7	3.9	1.47e+00	0	38	104	764411904	69	13999
2026-01-20 12:35:24.50	294.81	16.44	-49.1	-58.5	3.9	1.49e+00	0	38	104	764411904	69	10874
2026-01-20 12:35:25.51	295.03	16.42	-48.4	-54.4	6.6	2.16e-01	0	38	0	765460480	68	7180
2026-01-20 12:35:26.51	295.25	16.40	-48.5	-54.6	6.5	2.21e-01	0	38	0	768606208	68	7293
2026-01-20 12:35:27.52	295.47	16.38	-48.5	-54.6	6.4	2.48e-01	0	38	0	771751936	68	7318
2026-01-20 12:35:28.53	295.69	16.36	-48.4	-54.5	6.5	2.27e-01	0	38	0	774897664	68	7205
2026-01-20 12:35:29.53	295.91	16.34	-48.4	-54.4	6.6	2.10e-01	0	38	0	778043392	68	7140
2026-01-20 12:35:30.54	296.13	16.32	-48.4	-54.3	6.6	2.21e-01	0	38	0	781189120	68	7109
2026-01-20 12:35:31.55	296.34	16.30	-48.4	-54.4	6.6	1.85e-01	0	38	0	784334848	68	7189
2026-01-20 12:35:32.56	296.56	16.28	-48.4	-54.3	6.6	2.03e-01	0	38	0	787480576	68	7114
2026-01-20 12:35:33.57	296.78	16.25	-49.3	-59.2	4.1	3.01e-01	6	38	0	790626304	69	11736
2026-01-20 12:35:34.57	297.00	16.23	-49.0	-57.9	4.0	1.49e+00	0	38	104	790626304	69	10088
2026-01-20 12:35:35.58	297.21	16.21	-48.4	-54.1	6.8	3.04e-01	0	38	0	791674880	68	6925
2026-01-20 12:35:36.59	297.43	16.19	-48.3	-54.0	7.0	1.84e-01	0	38	0	793772032	68	6818
2026-01-20 12:35:37.60	297.65	16.16	-48.3	-53.9	7.0	1.53e-01	0	38	0	796917760	68	6752
2026-01-20 12:35:38.61	297.87	16.14	-48.3	-53.8	7.1	1.46e-01	0	38	0	800063488	68	6711
2026-01-20 12:35:39.61	298.08	16.11	-48.2	-53.8	7.2	1.35e-01	0	38	0	804257792	68	6662
2026-01-20 12:35:40.62	298.30	16.09	-48.3	-53.8	7.1	1.36e-01	0	38	0	807403520	68	6699
2026-01-20 12:35:41.63	298.51	16.07	-48.2	-53.7	7.2	1.34e-01	0	38	0	810549248	68	6579
2026-01-20 12:35:42.64	298.73	16.04	-48.2	-53.7	7.3	1.19e-01	0	38	0	813694976	68	6608
2026-01-20 12:35:43.64	298.94	16.01	-48.3	-54.1	6.9	1.40e-01	0	38	0	816840704	68	6915
2026-01-20 12:35:44.65	299.15	15.99	-49.5	-61.3	3.8	3.02e-01	0	38	104	818937856	69	14980
2026-01-20 12:35:45.66	299.37	15.96	-48.9	-57.2	4.1	1.49e+00	0	38	104	818937856	69	9364
2026-01-20 12:35:46.67	299.58	15.94	-48.3	-53.8	7.2	2.41e-01	0	38	0	819986432	68	6719
2026-01-20 12:35:47.68	299.80	15.91	-48.3	-53.9	7.0	1.76e-01	0	38	0	823132160	68	6801
2026-01-20 12:35:48.68	300.01	15.88	-48.3	-53.9	7.1	1.49e-01	0	38	0	826277888	68	6748
2026-01-20 12:35:49.69	300.22	15.85	-48.3	-53.9	7.1	1.42e-01	0	38	0	829423616	68	6746
2026-01-20 12:35:50.70	300.43	15.83	-48.3	-54.0	7.0	1.58e-01	0	38	0	832569344	68	6831
2026-01-20 12:35:51.71	300.64	15.80	-48.3	-54.0	7.0	1.66e-01	0	38	0	835715072	68	6803
2026-01-20 12:35:52.71	300.85	15.77	-48.2	-53.8	7.1	1.40e-01	0	38	0	838860800	68	6701
2026-01-20 12:35:53.72	301.06	15.74	-48.5	-54.7	6.4	1.79e-01	0	38	0	842006528	68	7418
2026-01-20 12:35:54.73	301.27	15.71	-48.3	-54.2	6.8	1.98e-01	0	38	0	845152256	68	6980
2026-01-20 12:35:55.73	301.48	15.68	-49.5	-61.9	3.8	1.39e+00	0	38	104	847249408	69	15944
2026-01-20 12:35:56.74	301.69	15.65	-48.9	-57.3	4.1	1.48e+00	0	38	104	847249408	69	9409
2026-01-20 12:35:57.75	301.90	15.62	-48.4	-54.1	6.9	2.05e-01	0	38	0	848297984	68	6959
2026-01-20 12:35:58.76	302.11	15.59	-48.3	-54.0	7.0	1.97e-01	0	38	0	851443712	68	6820
2026-01-20 12:35:59.77	302.32	15.56	-48.3	-53.9	7.0	1.54e-01	0	38	0	854589440	68	6750
2026-01-20 12:36:00.77	302.53	15.53	-48.2	-53.7	7.2	1.40e-01	0	38	0	857735168	68	6645
2026-01-20 12:36:01.78	302.73	15.50	-48.2	-53.8	7.1	1.42e-01	0	38	0	860880896	68	6676
2026-01-20 12:36:02.79	302.94	15.47	-48.2	-53.7	7.2	1.32e-01	0	38	0	864026624	68	6633
2026-01-20 12:36:03.79	303.15	15.43	-48.2	-53.6	7.3	1.27e-01	0	38	0	867172352	68	6553
2026-01-20 12:36:04.80	303.35	15.40	-48.5	-54.6	6.4	1.70e-01	0	38	0	870318080	68	7337
2026-01-20 12:36:05.81	303.56	15.37	-48.3	-53.9	7.1	1.82e-01	0	38	0	873463808	68	6737
2026-01-20 12:36:06.82	303.76	15.34	-49.5	-61.9	3.8	1.43e+00	0	38	104	875560960	69	16099
2026-01-20 12:36:07.83	303.97	15.30	-48.9	-56.4	5.1	5.94e-01	0	38	0	875560960	69	8560
2026-01-20 12:36:08.83	304.17	15.27	-48.4	-54.4	6.6	1.54e-01	0	38	0	878706688	68	7170
2026-01-20 12:36:09.84	304.38	15.23	-48.2	-53.8	7.2	1.69e-01	0	38	0	881852416	68	6674
2026-01-20 12:36:10.85	304.58	15.20	-48.2	-53.8	7.1	1.42e-01	0	38	0	884998144	68	6652
2026-01-20 12:36:11.86	304.78	15.17	-48.2	-53.8	7.1	1.49e-01	0	38	0	888143872	68	6709
2026-01-20 12:36:12.87	304.99	15.13	-48.3	-53.9	7.1	1.42e-01	0	38	0	891289600	68	6741
2026-01-20 12:36:13.87	305.19	15.10	-48.3	-53.9	7.0	1.61e-01	0	38	0	894435328	68	6786
2026-01-20 12:36:14.88	305.39	15.06	-48.2	-53.8	7.1	1.41e-01	0	38	0	897581056	68	6666
2026-01-20 12:36:15.89	305.59	15.03	-48.5	-54.7	6.4	1.67e-01	0	38	0	900726784	68	7393
2026-01-20 12:36:16.90	305.79	14.99	-48.3	-53.8	7.1	1.73e-01	0	38	0	903872512	68	6696
2026-01-20 12:36:17.91	305.99	14.95	-49.5	-61.9	3.8	1.46e+00	0	38	104	905969664	69	15982
2026-01-20 12:36:18.91	306.19	14.92	-48.9	-56.3	5.2	6.18e-01	0	38	0	905969664	69	8410
2026-01-20 12:36:19.92	306.39	14.88	-48.7	-55.3	5.9	2.04e-01	0	38	0	909115392	68	7933
2026-01-20 12:36:20.93	306.59	14.84	-48.4	-54.2	6.7	1.92e-01	0	38	0	912261120	68	6999
2026-01-20 12:36:21.94	306.79	14.81	-48.3	-54.1	6.8	1.78e-01	0	38	0	915406848	68	6932
2026-01-20 12:36:22.95	306.98	14.77	-48.2	-53.8	7.1	1.58e-01	0	38	0	918552576	68	6660
2026-01-20 12:36:23.96	307.18	14.73	-48.3	-54.0	6.9	1.54e-01	0	38	0	921698304	68	6864
2026-01-20 12:36:24.96	307.38	14.69	-48.2	-53.8	7.1	1.46e-01	0	38	0	924844032	68	6704
2026-01-20 12:36:25.97	307.57	14.65	-48.2	-53.7	7.2	1.37e-01	0	38	0	927989760	68	6633
2026-01-20 12:36:26.98	307.77	14.62	-48.4	-54.5	6.5	2.19e-01	0	38	0	931135488	68	7251
2026-01-20 12:36:27.99	307.97	14.58	-48.2	-53.7	7.2	1.54e-01	0	38	0	934281216	68	6598
2026-01-20 12:36:28.99	308.16	14.54	-49.5	-61.8	3.8	1.47e+00	0	38	104	936378368	69	15938
2026-01-20 12:36:30.00	308.35	14.50	-48.8	-56.2	5.3	5.41e-01	0	38	0	936378368	69	8286
2026-01-20 12:36:31.01	308.55	14.46	-48.7	-55.4	5.8	1.93e-01	0	38	0	939524096	68	8058
2026-01-20 12:36:32.02	308.74	14.42	-48.3	-54.1	6.8	1.84e-01	0	38	0	942669824	68	6907
2026-01-20 12:36:33.03	308.93	14.38	-48.2	-54.0	7.0	1.72e-01	0	38	0	945815552	68	6809
2026-01-20 12:36:34.03	309.13	14.34	-48.2	-53.8	7.1	1.51e-01	0	38	0	948961280	68	6713
2026-01-20 12:36:35.04	309.32	14.30	-48.2	-53.9	7.0	1.60e-01	0	38	0	952107008	68	6751
2026-01-20 12:36:36.05	309.51	14.26	-48.2	-53.8	7.1	1.38e-01	0	38	0	955252736	68	6679
2026-01-20 12:36:37.06	309.70	14.22	-48.2	-53.9	6.9	1.58e-01	0	38	0	958398464	68	6785
2026-01-20 12:36:38.07	309.89	14.18	-48.3	-54.0	6.8	1.58e-01	0	38	0	961544192	68	6865
2026-01-20 12:36:39.07	310.08	14.14	-48.2	-54.0	6.9	1.57e-01	0	38	0	964689920	68	6820
2026-01-20 12:36:40.08	310.27	14.09	-49.4	-61.8	3.8	1.49e+00	0	38	104	966787072	69	15866
2026-01-20 12:36:41.09	310.46	14.05	-48.8	-56.0	5.3	1.41e+00	0	38	104	966787072	69	8113
2026-01-20 12:36:42.10	310.65	14.01	-48.8	-56.2	5.3	3.07e-01	0	38	0	968884224	68	8782
2026-01-20 12:36:43.10	310.83	13.97	-48.4	-54.7	6.3	2.73e-01	0	38	0	972029952	68	7397
2026-01-20 12:36:44.11	311.02	13.93	-48.3	-54.2	6.7	2.18e-01	0	38	0	976224256	68	7031
2026-01-20 12:36:45.12	311.21	13.88	-48.3	-54.2	6.7	1.90e-01	0	38	0	979369984	68	6963
2026-01-20 12:36:46.13	311.39	13.84	-48.3	-54.1	6.8	1.86e-01	0	38	0	982515712	68	6881
2026-01-20 12:36:47.13	311.58	13.80	-48.3	-54.0	6.8	1.70e-01	0	38	0	985661440	68	6877
2026-01-20 12:36:48.14	311.76	13.76	-48.1	-53.6	7.3	1.40e-01	0	38	0	987758592	68	6520
2026-01-20 12:36:49.15	311.95	13.71	-48.2	-53.8	7.1	1.61e-01	0	38	0	990904320	68	6650
2026-01-20 12:36:50.16	312.13	13.67	-48.2	-53.9	7.0	1.29e-01	0	38	0	994050048	68	6780
2026-01-20 12:36:51.17	312.32	13.63	-49.4	-61.6	3.8	1.49e+00	0	38	104	995098624	69	15415
2026-01-20 12:36:52.17	312.50	13.58	-48.6	-55.4	5.7	5.36e-01	0	38	104	995098624	69	7615
2026-01-20 12:36:53.18	312.68	13.54	-48.8	-56.3	5.1	6.09e-01	0	38	0	998244352	68	8940
2026-01-20 12:36:54.19	312.86	13.49	-48.3	-54.3	6.6	2.08e-01	0	38	0	1001390080	68	7078
2026-01-20 12:36:55.20	313.04	13.45	-48.3	-54.1	6.7	1.95e-01	0	38	0	1004535808	68	6934
2026-01-20 12:36:56.21	313.23	13.40	-48.2	-53.9	7.0	1.69e-01	0	38	0	1007681536	68	6768
2026-01-20 12:36:57.21	313.40	13.36	-48.3	-54.2	6.7	1.86e-01	0	38	0	1010827264	68	6966
2026-01-20 12:36:58.22	313.58	13.31	-48.3	-54.2	6.7	1.96e-01	0	38	0	1013972992	68	6964
2026-01-20 12:36:59.23	313.76	13.27	-48.3	-54.2	6.7	2.04e-01	0	38	0	1017118720	68	6965
2026-01-20 12:37:00.23	313.94	13.22	-48.4	-54.7	6.2	2.92e-01	0	38	0	1020264448	68	7424
2026-01-20 12:37:01.24	314.12	13.18	-48.6	-55.3	5.9	2.40e-01	0	38	0	1023410176	68	7932
2026-01-20 12:37:02.25	314.30	13.13	-49.3	-61.2	3.8	1.49e+00	0	38	104	1023410176	69	14775
2026-01-20 12:37:03.26	314.48	13.09	-48.6	-55.3	5.7	6.42e-01	0	38	0	1023410176	69	7470
2026-01-20 12:37:04.27	314.65	13.04	-48.9	-57.1	4.7	1.47e+00	2	38	104	1025507328	68	9731
2026-01-20 12:37:05.28	314.83	13.00	-48.4	-54.9	6.1	3.07e-01	0	38	0	1027604480	68	7584
2026-01-20 12:37:06.29	315.00	12.95	-48.4	-54.6	6.3	2.62e-01	0	38	0	1030750208	68	7353
2026-01-20 12:37:07.29	315.18	12.90	-48.3	-54.4	6.5	2.37e-01	0	38	0	1033895936	68	7182
2026-01-20 12:37:08.30	315.35	12.86	-48.3	-54.4	6.4	2.34e-01	0	38	0	1037041664	68	7199
2026-01-20 12:37:09.31	315.53	12.81	-48.3	-54.5	6.3	2.66e-01	0	38	0	1040187392	68	7264
2026-01-20 12:37:10.32	315.70	12.76	-48.3	-54.5	6.4	2.57e-01	0	38	0	1043333120	68	7251
2026-01-20 12:37:11.33	315.87	12.72	-48.5	-55.1	5.9	4.65e-01	0	38	0	1046478848	68	7751
2026-01-20 12:37:12.33	316.04	12.67	-48.7	-56.4	5.1	3.01e-01	0	38	0	1049624576	68	8991
2026-01-20 12:37:13.34	316.22	12.62	-49.2	-60.5	3.8	1.49e+00	0	38	104	1049624576	69	13653
2026-01-20 12:37:14.35	316.39	12.57	-48.5	-55.1	5.9	7.11e-01	0	38	0	1049624576	69	7326
2026-01-20 12:37:15.36	316.56	12.53	-48.8	-57.0	4.8	1.47e+00	0	38	104	1051721728	68	9620
2026-01-20 12:37:16.37	316.73	12.48	-48.5	-55.1	5.9	3.84e-01	0	38	0	1053818880	68	7782
2026-01-20 12:37:17.37	316.90	12.43	-48.4	-54.8	6.1	3.13e-01	0	38	0	1056964608	68	7497
2026-01-20 12:37:18.38	317.07	12.38	-48.3	-54.6	6.3	2.86e-01	0	38	0	1060110336	68	7312
2026-01-20 12:37:19.39	317.24	12.34	-48.3	-54.3	6.5	2.34e-01	0	38	0	1063256064	68	7082
2026-01-20 12:37:20.40	317.40	12.29	-48.3	-54.3	6.5	2.15e-01	0	38	0	1066401792	68	7066
2026-01-20 12:37:21.40	317.57	12.24	-48.3	-54.4	6.4	2.30e-01	0	38	0	1069547520	68	7143
2026-01-20 12:37:22.41	317.74	12.19	-48.4	-54.8	6.0	4.89e-01	0	38	0	1072693248	68	7541
2026-01-20 12:37:23.42	317.91	12.14	-49.0	-58.7	3.9	3.58e-01	3	38	104	1075838976	68	11813
2026-01-20 12:37:24.43	318.07	12.09	-49.0	-59.1	3.9	1.49e+00	0	38	104	1075838976	69	11675
2026-01-20 12:37:25.43	318.24	12.04	-48.4	-54.7	6.2	4.31e-01	0	38	0	1076887552	68	7429
2026-01-20 12:37:26.44	318.40	12.00	-48.7	-56.3	5.1	9.56e-01	0	38	104	1077936128	68	8898
2026-01-20 12:37:27.45	318.57	11.95	-48.4	-55.1	5.9	3.87e-01	0	38	0	1080033280	68	7745
2026-01-20 12:37:28.46	318.73	11.90	-48.5	-55.2	5.8	3.93e-01	0	38	0	1083179008	68	7861
2026-01-20 12:37:29.47	318.89	11.85	-48.4	-55.0	6.0	3.48e-01	0	38	0	1086324736	68	7643
2026-01-20 12:37:30.47	319.05	11.80	-48.4	-54.8	6.1	3.07e-01	0	38	0	1089470464	68	7464
2026-01-20 12:37:31.48	319.22	11.75	-48.4	-54.8	6.1	3.10e-01	0	38	0	1092616192	68	7529
2026-01-20 12:37:32.49	319.38	11.70	-48.4	-54.9	6.0	3.06e-01	0	38	0	1095761920	68	7566
2026-01-20 12:37:33.50	319.54	11.65	-48.3	-54.7	6.1	4.50e-01	0	38	0	1098907648	68	7427
2026-01-20 12:37:34.50	319.70	11.60	-49.0	-59.1	3.9	4.58e-01	2	38	104	1102053376	68	12307
2026-01-20 12:37:35.51	319.86	11.55	-48.9	-58.4	3.9	1.49e+00	0	38	104	1102053376	69	10734
2026-01-20 12:37:36.52	320.02	11.50	-48.5	-55.4	5.7	4.93e-01	0	38	0	1103101952	68	8018
2026-01-20 12:37:37.53	320.18	11.45	-48.7	-56.1	5.2	1.10e+00	0	38	104	1104150528	68	8724
2026-01-20 12:37:38.53	320.34	11.40	-48.5	-55.5	5.5	4.63e-01	0	38	0	1107296256	68	8130
2026-01-20 12:37:39.54	320.49	11.35	-48.4	-55.1	5.8	3.79e-01	0	38	0	1110441984	68	7758
2026-01-20 12:37:40.55	320.65	11.30	-48.3	-54.8	6.1	3.32e-01	0	38	0	1113587712	68	7491
2026-01-20 12:37:41.56	320.81	11.25	-48.3	-54.5	6.3	2.82e-01	0	38	0	1116733440	68	7245
2026-01-20 12:37:42.57	320.97	11.20	-48.3	-54.6	6.2	2.88e-01	0	38	0	1119879168	68	7310
2026-01-20 12:37:43.57	321.12	11.15	-48.3	-54.4	6.4	2.40e-01	0	38	0	1123024896	68	7176
2026-01-20 12:37:44.58	321.28	11.10	-48.3	-54.4	6.4	2.52e-01	0	38	0	1125122048	68	7148
2026-01-20 12:37:45.59	321.43	11.05	-49.2	-60.4	3.8	4.67e-01	0	38	104	1128267776	68	14220
2026-01-20 12:37:46.60	321.59	11.00	-48.9	-58.4	3.9	1.49e+00	0	38	104	1128267776	69	10776
2026-01-20 12:37:47.60	321.74	10.95	-48.5	-55.4	5.7	4.82e-01	0	38	0	1129316352	68	8080
2026-01-20 12:37:48.61	321.89	10.90	-48.6	-55.8	5.3	1.14e+00	0	38	0	1129316352	68	8446
2026-01-20 12:37:49.62	322.05	10.84	-48.5	-55.6	5.5	4.85e-01	0	38	0	1132462080	68	8179
2026-01-20 12:37:50.63	322.20	10.79	-48.4	-55.1	5.8	3.92e-01	0	38	0	1135607808	68	7757
2026-01-20 12:37:51.64	322.35	10.74	-48.4	-55.1	5.9	3.60e-01	0	38	0	1138753536	68	7752
2026-01-20 12:37:52.64	322.50	10.69	-48.5	-55.3	5.7	4.08e-01	0	38	0	1141899264	68	7968
2026-01-20 12:37:53.65	322.65	10.64	-48.3	-54.8	6.0	3.47e-01	0	38	0	1145044992	68	7515
2026-01-20 12:37:54.66	322.80	10.59	-48.5	-55.6	5.5	3.32e-01	0	38	0	1148190720	68	8240
2026-01-20 12:37:55.67	322.95	10.54	-48.4	-55.1	5.8	4.19e-01	0	38	0	1151336448	68	7782
2026-01-20 12:37:56.68	323.10	10.49	-49.2	-61.2	3.8	1.38e+00	0	38	104	1153433600	68	15611
2026-01-20 12:37:57.68	323.25	10.43	-48.9	-58.2	3.9	1.48e+00	0	38	104	1153433600	69	10462
2026-01-20 12:37:58.69	323.40	10.38	-48.7	-56.6	5.0	5.48e-01	0	38	0	1154482176	69	8684
2026-01-20 12:37:59.70	323.55	10.33	-48.6	-56.3	5.0	1.31e+00	2	38	104	1154482176	69	8410
2026-01-20 12:38:00.70	323.69	10.28	-48.5	-55.6	5.5	4.86e-01	0	38	0	1156579328	69	7735
2026-01-20 12:38:01.71	323.84	10.23	-48.4	-55.3	5.7	4.63e-01	0	38	0	1159725056	68	7935
2026-01-20 12:38:02.72	323.99	10.18	-48.4	-55.0	5.9	3.64e-01	0	38	0	1162870784	68	7641
2026-01-20 12:38:03.73	324.13	10.12	-48.3	-54.7	6.1	3.17e-01	0	38	0	1166016512	68	7401
2026-01-20 12:38:04.74	324.28	10.07	-48.3	-54.8	6.1	3.11e-01	0	38	0	1169162240	68	7481
2026-01-20 12:38:05.74	324.42	10.02	-48.4	-55.0	5.9	3.37e-01	0	38	0	1172307968	68	7708
2026-01-20 12:38:06.75	324.56	9.97	-48.4	-55.2	5.8	3.19e-01	0	38	0	1175453696	68	7841
2026-01-20 12:38:07.76	324.71	9.92	-49.2	-61.4	3.8	1.43e+00	0	38	104	1177550848	68	16068
2026-01-20 12:38:08.77	324.85	9.86	-48.8	-57.3	4.5	1.48e+00	2	38	104	1177550848	68	10058
2026-01-20 12:38:09.77	324.99	9.81	-48.8	-57.4	4.6	5.89e-01	0	38	0	1178599424	68	10077
2026-01-20 12:38:10.78	325.14	9.76	-48.6	-56.0	5.2	1.05e+00	0	38	104	1178599424	68	8652
2026-01-20 12:38:11.79	325.28	9.71	-48.5	-55.8	5.3	5.63e-01	0	38	0	1180696576	68	8421
2026-01-20 12:38:12.80	325.42	9.66	-48.5	-55.5	5.5	4.77e-01	0	38	0	1183842304	68	8098
2026-01-20 12:38:13.81	325.56	9.60	-48.4	-55.1	5.9	3.92e-01	0	38	0	1186988032	68	7726
2026-01-20 12:38:14.81	325.70	9.55	-48.4	-55.0	5.9	3.79e-01	0	38	0	1190133760	68	7657
2026-01-20 12:38:15.82	325.84	9.50	-48.3	-54.9	6.0	3.44e-01	0	38	0	1193279488	68	7572
2026-01-20 12:38:16.83	325.98	9.45	-48.4	-55.0	5.9	3.44e-01	0	38	0	1196425216	68	7634
2026-01-20 12:38:17.84	326.12	9.39	-48.4	-55.3	5.7	3.92e-01	0	38	0	1199570944	68	7938
2026-01-20 12:38:18.84	326.26	9.34	-49.2	-61.4	3.8	1.49e+00	0	38	104	1200619520	68	16069
2026-01-20 12:38:19.85	326.39	9.29	-48.8	-57.2	4.6	1.48e+00	0	38	104	1200619520	68	9891
2026-01-20 12:38:20.86	326.53	9.24	-48.9	-58.8	3.9	6.99e-01	0	38	104	1200619520	68	11855
2026-01-20 12:38:21.87	326.67	9.18	-48.6	-56.2	5.1	8.31e-01	0	38	104	1200619520	68	8811
2026-01-20 12:38:22.87	326.81	9.13	-48.5	-55.9	5.3	5.92e-01	0	38	0	1203765248	68	8536
2026-01-20 12:38:23.88	326.94	9.08	-48.5	-55.5	5.5	4.86e-01	0	38	0	1206910976	68	8123
2026-01-20 12:38:24.89	327.08	9.03	-48.5	-55.6	5.4	5.22e-01	0	38	0	1210056704	68	8207
2026-01-20 12:38:25.90	327.21	8.97	-48.4	-55.2	5.7	4.36e-01	0	38	0	1213202432	68	7819
2026-01-20 12:38:26.91	327.35	8.92	-48.3	-55.0	5.9	3.66e-01	0	38	0	1216348160	68	7660
2026-01-20 12:38:27.92	327.48	8.87	-48.5	-55.8	5.3	4.14e-01	0	38	0	1219493888	68	8449
2026-01-20 12:38:28.92	327.61	8.82	-48.5	-55.7	5.4	4.27e-01	0	38	0	1222639616	68	8326
2026-01-20 12:38:29.93	327.75	8.76	-49.2	-61.3	3.8	1.49e+00	0	38	104	1223688192	68	15871
2026-01-20 12:38:30.93	327.88	8.71	-48.8	-57.3	4.5	1.29e+00	10	38	104	1223688192	68	10043
2026-01-20 12:38:31.94	328.01	8.66	-49.0	-59.4	3.9	7.79e-01	0	38	104	1223688192	68	12758
2026-01-20 12:38:32.95	328.14	8.60	-48.6	-56.3	5.0	8.27e-01	0	38	0	1223688192	68	8902
2026-01-20 12:38:33.96	328.28	8.55	-48.6	-56.1	5.1	6.32e-01	0	38	0	1226833920	68	8682
2026-01-20 12:38:34.97	328.41	8.50	-48.5	-55.7	5.4	5.52e-01	0	38	0	1229979648	68	8317
2026-01-20 12:38:35.97	328.54	8.45	-48.4	-55.4	5.6	4.64e-01	0	38	0	1233125376	68	8033
2026-01-20 12:38:36.98	328.67	8.39	-48.4	-55.1	5.8	3.82e-01	0	38	0	1236271104	68	7743
2026-01-20 12:38:37.99	328.80	8.34	-48.3	-54.9	5.9	3.70e-01	0	38	0	1239416832	68	7628
2026-01-20 12:38:39.00	328.93	8.29	-48.6	-56.4	5.0	5.43e-01	0	38	0	1242562560	68	9013
2026-01-20 12:38:40.01	329.05	8.23	-48.5	-55.8	5.3	4.45e-01	0	38	0	1245708288	68	8427
2026-01-20 12:38:41.01	329.18	8.18	-49.2	-61.3	3.8	1.49e+00	0	38	104	1246756864	68	15939
2026-01-20 12:38:42.02	329.31	8.13	-48.8	-58.2	3.9	1.42e+00	0	38	104	1246756864	68	11070
2026-01-20 12:38:43.03	329.44	8.08	-49.0	-59.2	4.0	1.48e+00	0	38	104	1246756864	68	12499
2026-01-20 12:38:44.03	329.56	8.02	-48.6	-57.3	4.0	1.20e+00	0	38	104	1246756864	68	10053
2026-01-20 12:38:45.04	329.69	7.97	-48.7	-56.9	4.7	1.18e+00	0	38	104	1246756864	68	9512
2026-01-20 12:38:46.04	329.82	7.92	-48.7	-56.9	4.7	1.11e+00	0	38	104	1246756864	68	9528
2026-01-20 12:38:47.05	329.94	7.86	-48.6	-57.3	4.0	8.83e-01	0	38	104	1247805440	68	10035
2026-01-20 12:38:48.05	330.06	7.81	-48.6	-56.4	5.0	6.54e-01	0	38	0	1248854016	68	9004
2026-01-20 12:38:49.06	330.19	7.76	-49.1	-61.4	3.8	1.49e+00	0	38	104	1248854016	68	15964
2026-01-20 12:38:50.07	330.31	7.71	-48.8	-57.7	4.4	1.45e+00	0	38	104	1248854016	68	10447
2026-01-20 12:38:51.08	330.44	7.65	-49.0	-59.9	3.8	1.48e+00	0	38	104	1248854016	68	13479
2026-01-20 12:38:52.08	330.56	7.60	-48.7	-57.0	4.6	1.19e+00	0	38	104	1248854016	68	9707
2026-01-20 12:38:53.09	330.68	7.55	-48.7	-56.8	4.7	1.17e+00	0	38	104	1248854016	68	9487
2026-01-20 12:38:54.10	330.81	7.49	-48.7	-56.9	4.7	1.18e+00	0	38	104	1248854016	68	9538
2026-01-20 12:38:55.11	330.93	7.44	-48.6	-56.7	4.8	7.83e-01	0	38	0	1248854016	68	9338
2026-01-20 12:38:56.11	331.05	7.39	-48.7	-57.2	4.6	8.05e-01	0	38	104	1249902592	68	9847
2026-01-20 12:38:57.12	331.17	7.34	-49.1	-61.4	3.8	1.49e+00	0	38	104	1249902592	68	16004
2026-01-20 12:38:58.13	331.29	7.28	-48.8	-57.7	4.4	1.47e+00	0	38	104	1249902592	68	10494
2026-01-20 12:38:59.14	331.41	7.23	-49.0	-59.6	4.0	1.48e+00	0	38	104	1249902592	68	12989
2026-01-20 12:39:00.15	331.53	7.18	-48.7	-57.2	4.5	1.10e+00	4	38	104	1249902592	68	9897
2026-01-20 12:39:01.15	331.65	7.12	-48.7	-57.4	4.5	9.96e-01	15	38	104	1249902592	68	10077
2026-01-20 12:39:02.16	331.77	7.07	-48.7	-57.0	4.6	1.03e+00	4	38	104	1249902592	68	9674
2026-01-20 12:39:03.17	331.89	7.02	-48.7	-56.9	4.6	1.21e+00	0	38	104	1249902592	68	9598
2026-01-20 12:39:04.18	332.01	6.97	-48.7	-57.9	4.0	7.79e-01	2	38	104	1250951168	68	10731
2026-01-20 12:39:05.19	332.13	6.91	-49.1	-61.4	3.8	1.49e+00	0	38	104	1250951168	68	15954
2026-01-20 12:39:06.20	332.25	6.86	-48.8	-57.6	4.4	1.46e+00	0	38	104	1250951168	68	10328
2026-01-20 12:39:07.21	332.36	6.81	-49.0	-59.5	4.0	1.49e+00	0	38	104	1250951168	68	12914
2026-01-20 12:39:08.21	332.48	6.75	-48.7	-57.2	4.5	1.12e+00	5	38	104	1250951168	68	9933
2026-01-20 12:39:09.22	332.59	6.70	-48.7	-57.3	4.5	1.09e+00	8	38	104	1250951168	68	10051
2026-01-20 12:39:10.23	332.71	6.65	-48.6	-56.6	4.8	9.16e-01	0	38	104	1250951168	68	9262
2026-01-20 12:39:11.24	332.83	6.60	-48.6	-56.4	4.9	7.34e-01	0	38	0	1253048320	68	9031
2026-01-20 12:39:12.24	332.94	6.54	-48.8	-58.6	3.9	1.08e+00	0	38	104	1255145472	68	11624
2026-01-20 12:39:13.25	333.06	6.49	-49.1	-61.3	3.8	1.49e+00	0	38	104	1255145472	68	15928
2026-01-20 12:39:14.26	333.17	6.44	-48.7	-57.9	4.0	1.44e+00	0	38	104	1255145472	68	10677
2026-01-20 12:39:15.27	333.28	6.38	-48.9	-59.7	3.8	1.48e+00	0	38	104	1255145472	68	13165
2026-01-20 12:39:16.27	333.40	6.33	-48.7	-58.1	3.9	1.30e+00	0	38	104	1255145472	68	10923
2026-01-20 12:39:17.28	333.51	6.28	-48.7	-58.0	4.0	1.12e+00	0	38	104	1255145472	68	10878
2026-01-20 12:39:18.29	333.62	6.23	-48.6	-57.3	4.0	9.56e-01	2	38	104	1255145472	68	10017
2026-01-20 12:39:19.30	333.74	6.17	-48.4	-55.8	5.3	5.25e-01	0	38	0	1256194048	68	8422
2026-01-20 12:39:20.31	333.85	6.12	-48.8	-58.4	4.2	1.45e+00	0	38	104	1258291200	68	11373
2026-01-20 12:39:21.31	333.96	6.07	-49.1	-61.3	3.8	1.49e+00	0	38	104	1258291200	68	15761
2026-01-20 12:39:22.32	334.07	6.02	-48.7	-57.3	4.5	1.42e+00	4	38	104	1258291200	68	10043
2026-01-20 12:39:23.33	334.18	5.96	-48.8	-59.0	3.9	1.49e+00	0	38	104	1258291200	68	12193
2026-01-20 12:39:24.34	334.29	5.91	-48.7	-57.3	4.5	1.29e+00	15	38	104	1258291200	68	9968
2026-01-20 12:39:25.34	334.40	5.86	-48.6	-56.9	4.7	1.10e+00	0	38	104	1258291200	68	9538
2026-01-20 12:39:26.35	334.51	5.81	-48.5	-56.3	4.9	9.93e-01	0	38	104	1258291200	68	8941
2026-01-20 12:39:27.36	334.62	5.75	-48.5	-56.0	5.1	6.32e-01	0	38	0	1260388352	68	8641
2026-01-20 12:39:28.37	334.73	5.70	-48.9	-59.4	4.0	1.42e+00	0	38	104	1261436928	68	12722
2026-01-20 12:39:29.37	334.84	5.65	-48.9	-61.1	3.8	1.49e+00	0	38	104	1261436928	68	15479
2026-01-20 12:39:30.38	334.95	5.60	-48.7	-57.7	4.3	1.47e+00	0	38	104	1261436928	68	10416
2026-01-20 12:39:31.39	335.05	5.54	-48.8	-59.4	3.9	1.49e+00	0	38	104	1261436928	68	12747
2026-01-20 12:39:32.39	335.16	5.49	-48.7	-57.6	4.4	1.44e+00	0	38	104	1261436928	68	10349
2026-01-20 12:39:33.40	335.27	5.44	-48.7	-57.7	4.3	1.44e+00	0	38	104	1261436928	68	10493
2026-01-20 12:39:34.41	335.38	5.39	-48.7	-58.5	3.9	1.42e+00	0	38	104	1261436928	68	11543
2026-01-20 12:39:35.42	335.48	5.33	-48.7	-58.3	3.9	1.46e+00	0	38	104	1261436928	68	11263
2026-01-20 12:39:36.43	335.59	5.28	-49.0	-60.7	3.8	1.48e+00	0	38	104	1261436928	68	14850
2026-01-20 12:39:37.44	335.69	5.23	-49.0	-61.0	3.8	1.49e+00	0	38	104	1261436928	68	15236
2026-01-20 12:39:38.45	335.80	5.18	-48.7	-58.5	3.9	1.47e+00	0	38	104	1261436928	68	11426
2026-01-20 12:39:39.45	335.90	5.12	-48.8	-59.1	3.9	1.49e+00	0	38	104	1261436928	68	12267
2026-01-20 12:39:40.46	336.01	5.07	-48.7	-58.5	3.9	1.44e+00	0	38	104	1261436928	68	11471
2026-01-20 12:39:41.47	336.11	5.02	-48.5	-57.3	4.0	1.28e+00	2	38	104	1261436928	68	9960
2026-01-20 12:39:42.48	336.22	4.97	-49.2	-61.8	3.8	1.49e+00	0	38	104	1261436928	68	16870
2026-01-20 12:39:43.49	336.32	4.92	-49.3	-61.9	3.8	1.49e+00	0	38	104	1261436928	69	16102
2026-01-20 12:39:44.50	336.42	4.86	-49.4	-62.0	3.8	1.49e+00	0	38	104	1261436928	69	16226
2026-01-20 12:39:45.51	336.53	4.81	-49.4	-62.1	3.8	1.49e+00	0	38	104	1261436928	69	16374
2026-01-20 12:39:46.51	336.63	4.76	-49.4	-62.1	3.8	1.49e+00	0	38	104	1261436928	69	16440
2026-01-20 12:39:47.52	336.73	4.71	-49.5	-62.2	3.8	1.49e+00	0	38	104	1261436928	69	16531
2026-01-20 12:39:48.53	336.83	4.66	-49.5	-62.2	3.8	1.49e+00	0	38	104	1261436928	69	16557
2026-01-20 12:39:49.54	336.93	4.60	-49.6	-62.2	3.8	1.49e+00	0	38	104	1261436928	69	16661
2026-01-20 12:39:50.55	337.04	4.55	-49.6	-62.3	3.8	1.49e+00	0	38	104	1261436928	69	16716
2026-01-20 12:39:51.55	337.14	4.50	-49.6	-62.3	3.8	1.49e+00	0	38	104	1261436928	69	16815
2026-01-20 12:39:52.56	337.24	4.45	-49.7	-62.3	3.8	1.49e+00	0	38	104	1261436928	69	16834
2026-01-20 12:39:53.57	337.34	4.40	-49.7	-62.4	3.8	1.49e+00	0	38	104	1261436928	69	16891
2026-01-20 12:39:54.58	337.44	4.34	-49.7	-62.4	3.8	1.49e+00	0	38	104	1261436928	69	16923
2026-01-20 12:39:55.59	337.54	4.29	-49.7	-62.4	3.8	1.49e+00	0	38	104	1261436928	69	16947
2026-01-20 12:39:56.60	337.64	4.24	-49.7	-62.4	3.8	1.49e+00	0	38	104	1261436928	70	16076
2026-01-20 12:39:57.60	337.73	4.19	-49.8	-62.4	3.8	1.49e+00	0	38	104	1261436928	70	16056
2026-01-20 12:39:58.61	337.83	4.14	-49.8	-62.4	3.8	1.49e+00	0	38	104	1261436928	70	16099
2026-01-20 12:39:59.62	337.93	4.09	-49.8	-62.5	3.8	1.49e+00	0	38	104	1261436928	70	16137
2026-01-20 12:40:00.63	338.03	4.03	-49.8	-62.4	3.8	1.49e+00	0	38	104	1261436928	70	16103
2026-01-20 12:40:01.63	338.13	3.98	-49.8	-62.4	3.8	1.49e+00	0	38	104	1261436928	70	16089
2026-01-20 12:40:02.64	338.22	3.93	-49.8	-62.4	3.8	1.49e+00	0	38	104	1261436928	70	16123
2026-01-20 12:40:03.65	338.32	3.88	-49.8	-62.4	3.8	1.49e+00	0	38	104	1261436928	70	16096
2026-01-20 12:40:04.66	338.42	3.83	-49.7	-62.4	3.8	1.49e+00	0	38	104	1261436928	70	16091
2026-01-20 12:40:05.66	338.51	3.78	-49.7	-62.4	3.8	1.49e+00	0	38	104	1261436928	70	16038
2026-01-20 12:40:06.67	338.61	3.72	-49.7	-62.4	3.8	1.49e+00	0	38	104	1261436928	70	16036
2026-01-20 12:40:07.68	338.70	3.67	-49.7	-62.4	3.8	1.49e+00	0	38	104	1261436928	70	15999
2026-01-20 12:40:08.69	338.80	3.62	-49.7	-62.4	3.8	1.49e+00	0	38	104	1261436928	70	16022
2026-01-20 12:40:09.69	338.89	3.57	-49.7	-62.3	3.8	1.49e+00	0	38	104	1261436928	70	15909
2026-01-20 12:40:10.70	338.99	3.52	-49.7	-62.3	3.8	1.49e+00	0	38	104	1261436928	70	15939
2026-01-20 12:40:11.71	339.08	3.47	-49.7	-62.3	3.8	1.49e+00	0	38	104	1261436928	70	15940
2026-01-20 12:40:12.72	339.18	3.42	-49.7	-62.4	3.8	1.49e+00	0	38	104	1261436928	70	15955
2026-01-20 12:40:13.73	339.27	3.37	-49.7	-62.3	3.8	1.49e+00	0	38	104	1261436928	70	15906
