passes_logs/2026/01/20/R3.2S_Murmansk/R3.2S_Murmansk__20260120_231204_KANOPUS-V_5_rec.log

#Pass ID: 20260120_231204_KANOPUS-V 5
#Satellite: KANOPUS-V 5
#Configuration: KANOPUS-V_8320
#almurnet v.1.7.20251203
#Start time: 2026-01-20 23:12:06

#Version: 2.2.20231116
#Station: R3.2S_Murmansk
#Location: 33.079688 lon 68.888172 lat
#TLE: 1 43876U 18111A   26020.16250899  .00005594  00000+0  23751-3 0  9993
#TLE: 2 43876  97.3687 288.5833 0001817  87.9007 272.2438 15.23474018392259

#Time	Az	El	Level	Level2	SNR	BER	BlckErr	Temp	State	Recorded	gain1	gain2
2026-01-20 23:12:06.13	21.42	2.12	-54.7	-63.5	3.8	7.44e-01	0	38	0	0	80	10215
2026-01-20 23:12:07.14	21.38	2.19	-54.5	-63.4	3.8	7.45e-01	0	38	104	0	80	10123
2026-01-20 23:12:08.15	21.34	2.26	-54.5	-63.4	3.8	7.47e-01	0	38	104	0	80	10090
2026-01-20 23:12:09.16	21.30	2.33	-54.5	-63.3	3.8	7.45e-01	0	38	104	0	80	10015
2026-01-20 23:12:10.17	21.26	2.40	-54.4	-63.3	3.8	7.46e-01	0	39	104	0	80	9959
2026-01-20 23:12:11.18	21.22	2.47	-54.3	-63.2	3.8	7.46e-01	0	38	104	0	80	9882
2026-01-20 23:12:12.19	21.18	2.54	-54.3	-63.1	3.8	7.46e-01	0	39	104	0	80	9783
2026-01-20 23:12:13.20	21.14	2.61	-54.2	-63.1	3.8	7.43e-01	0	38	104	0	80	9718
2026-01-20 23:12:14.21	21.10	2.69	-54.1	-62.9	3.8	7.46e-01	0	38	104	0	80	9587
2026-01-20 23:12:15.21	21.06	2.76	-54.0	-62.8	3.8	7.44e-01	0	39	104	0	79	10051
2026-01-20 23:12:16.22	21.02	2.83	-53.8	-62.6	3.8	7.45e-01	0	38	104	0	79	9816
2026-01-20 23:12:17.23	20.98	2.90	-53.5	-62.3	3.8	7.45e-01	0	39	104	0	78	9976
2026-01-20 23:12:18.24	20.94	2.97	-53.0	-61.9	3.8	7.46e-01	0	39	104	0	78	9509
2026-01-20 23:12:19.25	20.90	3.04	-52.9	-61.8	3.8	7.45e-01	0	39	104	0	77	9976
2026-01-20 23:12:20.26	20.86	3.12	-52.9	-61.7	3.8	7.47e-01	0	39	104	0	77	9944
2026-01-20 23:12:21.27	20.81	3.19	-52.9	-61.8	3.8	7.45e-01	0	39	104	0	77	9963
2026-01-20 23:12:22.27	20.77	3.26	-52.9	-61.8	3.8	7.46e-01	0	39	104	0	77	10018
2026-01-20 23:12:23.28	20.73	3.33	-52.9	-61.8	3.8	7.46e-01	0	39	104	0	77	9947
2026-01-20 23:12:24.29	20.69	3.41	-52.9	-61.8	3.8	7.46e-01	0	39	104	0	77	9959
2026-01-20 23:12:25.30	20.64	3.48	-52.9	-61.7	3.8	7.46e-01	0	39	104	0	77	9944
2026-01-20 23:12:26.31	20.60	3.55	-52.9	-61.8	3.8	7.46e-01	0	39	104	0	77	9956
2026-01-20 23:12:27.32	20.55	3.63	-52.9	-61.7	3.8	7.45e-01	0	39	104	0	77	9935
2026-01-20 23:12:28.33	20.51	3.70	-52.9	-61.8	3.8	7.46e-01	0	39	104	0	77	9979
2026-01-20 23:12:29.34	20.47	3.78	-52.9	-61.7	3.8	7.45e-01	0	39	104	0	77	9934
2026-01-20 23:12:30.35	20.42	3.85	-52.9	-61.7	3.8	7.46e-01	0	39	104	0	77	9898
2026-01-20 23:12:31.35	20.38	3.93	-52.9	-61.8	3.8	7.43e-01	0	39	104	0	77	9947
2026-01-20 23:12:32.36	20.33	4.00	-52.9	-61.7	3.8	7.45e-01	0	39	104	0	77	9907
2026-01-20 23:12:33.37	20.28	4.08	-52.9	-61.8	3.8	7.45e-01	0	39	104	0	77	9951
2026-01-20 23:12:34.38	20.24	4.15	-52.9	-61.8	3.8	7.46e-01	0	39	104	0	77	9973
2026-01-20 23:12:35.39	20.19	4.23	-52.9	-61.7	3.8	7.46e-01	0	39	104	0	77	9938
2026-01-20 23:12:36.40	20.14	4.31	-52.9	-61.7	3.8	7.43e-01	0	39	104	0	77	9943
2026-01-20 23:12:37.41	20.10	4.38	-52.9	-61.7	3.8	7.44e-01	0	39	104	0	77	9923
2026-01-20 23:12:38.41	20.05	4.46	-52.9	-61.7	3.8	7.45e-01	0	39	104	0	77	9941
2026-01-20 23:12:39.42	20.00	4.54	-52.9	-61.7	3.8	7.46e-01	0	39	104	0	77	9936
2026-01-20 23:12:40.43	19.95	4.61	-52.9	-61.8	3.8	7.45e-01	0	39	104	0	77	9959
2026-01-20 23:12:41.44	19.91	4.69	-52.9	-61.7	3.8	7.44e-01	0	39	104	0	77	9914
2026-01-20 23:12:42.45	19.86	4.77	-52.9	-61.7	3.8	7.46e-01	0	39	104	0	77	9926
2026-01-20 23:12:43.46	19.81	4.85	-52.9	-61.7	3.8	7.44e-01	0	39	104	0	77	9923
2026-01-20 23:12:44.47	19.76	4.93	-52.9	-61.7	3.8	7.45e-01	0	39	104	0	77	9927
2026-01-20 23:12:45.48	19.71	5.01	-52.9	-61.7	3.8	7.45e-01	0	39	104	0	77	9904
2026-01-20 23:12:46.49	19.66	5.09	-52.9	-61.8	3.8	7.44e-01	0	39	104	0	77	9967
2026-01-20 23:12:47.49	19.61	5.16	-53.0	-61.8	3.8	7.45e-01	0	40	104	0	77	10020
2026-01-20 23:12:48.50	19.55	5.24	-53.0	-61.8	3.8	7.45e-01	0	39	104	0	77	9963
2026-01-20 23:12:49.51	19.50	5.32	-52.9	-61.8	3.8	7.46e-01	0	40	104	0	77	9973
2026-01-20 23:12:50.52	19.45	5.41	-53.0	-61.8	3.8	7.46e-01	0	39	104	0	77	9999
2026-01-20 23:12:51.53	19.40	5.49	-52.9	-61.8	3.8	7.45e-01	0	39	104	0	77	9986
2026-01-20 23:12:52.54	19.35	5.57	-53.0	-61.8	3.8	7.45e-01	0	39	104	0	77	10017
2026-01-20 23:12:53.55	19.29	5.65	-53.0	-61.8	3.8	7.45e-01	0	39	104	0	77	10023
2026-01-20 23:12:54.56	19.24	5.73	-53.0	-61.8	3.8	7.45e-01	0	40	104	0	77	10012
2026-01-20 23:12:55.56	19.18	5.81	-53.0	-61.8	3.8	7.46e-01	0	40	104	0	77	10047
2026-01-20 23:12:56.57	19.13	5.89	-53.0	-61.8	3.8	7.46e-01	0	39	104	0	77	10006
2026-01-20 23:12:57.58	19.08	5.98	-53.0	-61.8	3.8	7.45e-01	0	40	104	0	77	10031
2026-01-20 23:12:58.59	19.02	6.06	-53.0	-61.8	3.8	7.44e-01	0	40	104	0	77	10053
2026-01-20 23:12:59.59	18.96	6.14	-53.0	-61.9	3.8	7.46e-01	0	40	104	0	77	10128
2026-01-20 23:13:00.60	18.91	6.23	-53.0	-61.9	3.8	7.44e-01	0	40	104	0	77	10079
2026-01-20 23:13:01.61	18.85	6.31	-53.0	-61.9	3.8	7.45e-01	0	40	104	0	77	10123
2026-01-20 23:13:02.62	18.79	6.40	-53.1	-61.9	3.8	7.45e-01	0	40	104	0	77	10074
2026-01-20 23:13:03.62	18.74	6.48	-53.1	-61.9	3.8	7.44e-01	0	40	104	0	77	10100
2026-01-20 23:13:04.63	18.68	6.56	-53.1	-61.9	3.8	7.44e-01	0	40	104	0	77	10088
2026-01-20 23:13:05.64	18.62	6.65	-53.1	-61.9	3.8	7.44e-01	0	40	104	0	77	10172
2026-01-20 23:13:06.65	18.56	6.74	-53.1	-61.9	3.8	7.44e-01	0	40	104	0	77	10162
2026-01-20 23:13:07.66	18.50	6.82	-53.1	-62.0	3.8	7.45e-01	0	40	104	0	77	10183
2026-01-20 23:13:08.67	18.44	6.91	-53.1	-61.9	3.8	7.44e-01	0	40	104	0	77	10124
2026-01-20 23:13:09.67	18.38	6.99	-53.2	-62.0	3.8	7.45e-01	0	40	104	0	77	10219
2026-01-20 23:13:10.68	18.32	7.08	-53.1	-62.0	3.8	7.45e-01	0	40	104	0	77	10177
2026-01-20 23:13:11.69	18.26	7.17	-53.2	-62.0	3.8	7.45e-01	0	40	104	0	77	10242
2026-01-20 23:13:12.70	18.20	7.26	-53.1	-62.0	3.8	7.45e-01	0	40	104	0	77	10220
2026-01-20 23:13:13.71	18.14	7.35	-53.2	-62.0	3.8	7.45e-01	0	39	104	0	77	10275
2026-01-20 23:13:14.71	18.07	7.43	-53.2	-62.0	3.8	7.46e-01	0	40	104	0	77	10226
2026-01-20 23:13:15.72	18.01	7.52	-53.2	-62.1	3.8	7.46e-01	0	40	104	0	77	10296
2026-01-20 23:13:16.73	17.95	7.61	-53.2	-62.0	3.8	7.45e-01	0	40	104	0	77	10252
2026-01-20 23:13:17.74	17.88	7.70	-53.2	-62.1	3.8	7.45e-01	0	40	104	0	77	10331
2026-01-20 23:13:18.75	17.82	7.79	-53.2	-62.0	3.8	7.42e-01	0	40	104	0	77	10261
2026-01-20 23:13:19.76	17.75	7.88	-53.2	-62.1	3.8	7.44e-01	0	40	104	0	77	10370
2026-01-20 23:13:20.77	17.69	7.98	-53.2	-62.0	3.8	7.46e-01	0	40	104	0	77	10280
2026-01-20 23:13:21.77	17.62	8.07	-53.3	-62.1	3.8	7.44e-01	0	40	104	0	77	10324
2026-01-20 23:13:22.78	17.55	8.16	-53.2	-62.1	3.8	7.45e-01	0	40	104	0	77	10305
2026-01-20 23:13:23.79	17.49	8.25	-53.3	-62.1	3.8	7.44e-01	0	40	104	0	77	10351
2026-01-20 23:13:24.80	17.42	8.34	-53.2	-62.1	3.8	7.45e-01	0	40	104	0	77	10311
2026-01-20 23:13:25.81	17.35	8.44	-53.3	-62.1	3.8	7.45e-01	0	40	104	0	77	10401
2026-01-20 23:13:26.82	17.28	8.53	-53.2	-62.1	3.8	7.47e-01	0	40	104	0	77	10315
2026-01-20 23:13:27.83	17.21	8.63	-53.3	-62.1	3.8	7.44e-01	0	40	104	0	77	10314
2026-01-20 23:13:28.84	17.14	8.72	-53.3	-62.1	3.8	7.44e-01	0	40	104	0	77	10376
2026-01-20 23:13:29.85	17.07	8.82	-53.3	-62.1	3.8	7.46e-01	0	40	104	0	77	10410
2026-01-20 23:13:30.86	17.00	8.91	-53.3	-62.1	3.8	7.45e-01	0	40	104	0	77	10300
2026-01-20 23:13:31.87	16.92	9.01	-53.3	-62.1	3.8	7.47e-01	0	40	104	0	77	10401
2026-01-20 23:13:32.88	16.85	9.10	-53.3	-62.1	3.8	7.45e-01	0	40	104	0	77	10327
2026-01-20 23:13:33.89	16.78	9.20	-53.3	-62.1	3.8	7.46e-01	0	40	104	0	77	10409
2026-01-20 23:13:34.89	16.70	9.30	-53.3	-62.1	3.8	7.45e-01	0	40	104	0	77	10358
2026-01-20 23:13:35.90	16.63	9.39	-53.3	-62.2	3.8	7.45e-01	0	40	104	0	77	10463
2026-01-20 23:13:36.91	16.55	9.49	-53.3	-62.1	3.8	7.45e-01	0	40	104	0	77	10371
2026-01-20 23:13:37.92	16.48	9.59	-53.4	-62.2	3.8	7.45e-01	0	40	104	0	77	10426
2026-01-20 23:13:38.93	16.40	9.69	-53.3	-62.1	3.8	7.47e-01	0	40	104	0	77	10406
2026-01-20 23:13:39.94	16.32	9.79	-53.4	-62.2	3.8	7.45e-01	0	40	104	0	77	10530
2026-01-20 23:13:40.95	16.24	9.89	-53.3	-62.1	3.8	7.45e-01	0	40	104	0	77	10372
2026-01-20 23:13:41.95	16.16	9.99	-53.4	-62.2	3.8	7.45e-01	0	40	104	0	77	10495
2026-01-20 23:13:42.96	16.08	10.09	-53.3	-62.2	3.8	7.47e-01	0	40	104	0	77	10432
2026-01-20 23:13:43.97	16.00	10.19	-53.4	-62.2	3.8	7.45e-01	0	40	104	0	77	10517
2026-01-20 23:13:44.98	15.92	10.30	-53.3	-62.2	3.8	7.46e-01	0	40	104	0	77	10437
2026-01-20 23:13:45.99	15.84	10.40	-53.4	-62.2	3.8	7.45e-01	0	40	104	0	77	10526
2026-01-20 23:13:46.99	15.76	10.50	-53.4	-62.2	3.8	7.45e-01	0	40	104	0	77	10463
2026-01-20 23:13:48.00	15.68	10.61	-53.4	-62.3	3.8	7.45e-01	0	40	104	0	77	10535
2026-01-20 23:13:49.01	15.59	10.71	-53.4	-62.2	3.8	7.45e-01	0	40	104	0	77	10476
2026-01-20 23:13:50.02	15.51	10.81	-53.5	-62.3	3.8	7.44e-01	0	40	104	0	77	10577
2026-01-20 23:13:51.03	15.42	10.92	-53.4	-62.2	3.8	7.46e-01	0	40	104	0	77	10482
2026-01-20 23:13:52.04	15.33	11.03	-53.5	-62.3	3.8	7.45e-01	0	40	104	0	77	10588
2026-01-20 23:13:53.05	15.25	11.13	-53.4	-62.2	3.8	7.45e-01	0	40	104	0	77	10482
2026-01-20 23:13:54.05	15.16	11.24	-53.5	-62.3	3.8	7.44e-01	0	40	104	0	77	10603
2026-01-20 23:13:55.06	15.07	11.35	-53.4	-62.2	3.8	7.46e-01	0	40	104	0	77	10524
2026-01-20 23:13:56.07	14.98	11.46	-53.5	-62.3	3.8	7.44e-01	0	40	104	0	77	10607
2026-01-20 23:13:57.08	14.89	11.56	-53.4	-62.3	3.8	7.46e-01	0	40	104	0	77	10541
2026-01-20 23:13:58.09	14.80	11.67	-53.5	-62.4	3.8	7.45e-01	0	40	104	0	77	10656
2026-01-20 23:13:59.10	14.71	11.78	-53.4	-62.3	3.8	7.45e-01	0	40	104	0	77	10551
2026-01-20 23:14:00.11	14.61	11.89	-53.5	-62.4	3.8	7.46e-01	0	40	104	0	77	10683
2026-01-20 23:14:01.12	14.52	12.01	-53.5	-62.3	3.8	7.44e-01	0	40	104	0	77	10617
2026-01-20 23:14:02.12	14.42	12.12	-53.5	-62.4	3.8	7.44e-01	0	40	104	0	77	10669
2026-01-20 23:14:03.13	14.33	12.23	-53.5	-62.3	3.8	7.45e-01	0	40	104	0	77	10613
2026-01-20 23:14:04.14	14.23	12.34	-53.6	-62.4	3.8	7.45e-01	0	40	104	0	77	10685
2026-01-20 23:14:05.15	14.13	12.46	-53.5	-62.3	3.8	7.44e-01	0	40	104	0	77	10603
2026-01-20 23:14:06.15	14.03	12.57	-53.6	-62.4	3.8	7.44e-01	0	40	104	0	77	10738
2026-01-20 23:14:07.16	13.93	12.68	-53.5	-62.4	3.8	7.45e-01	0	40	104	0	77	10674
2026-01-20 23:14:08.17	13.83	12.80	-53.6	-62.4	3.8	7.45e-01	0	40	104	0	77	10769
2026-01-20 23:14:09.18	13.73	12.92	-53.5	-62.3	3.8	7.45e-01	0	40	104	0	77	10654
2026-01-20 23:14:10.19	13.63	13.03	-53.6	-62.4	3.8	7.46e-01	0	40	104	0	77	10753
2026-01-20 23:14:11.19	13.53	13.15	-53.6	-62.4	3.8	7.45e-01	0	40	104	0	77	10685
2026-01-20 23:14:12.20	13.42	13.27	-53.6	-62.4	3.8	7.46e-01	0	40	104	0	77	10757
2026-01-20 23:14:13.21	13.31	13.39	-53.6	-62.4	3.8	7.44e-01	0	40	104	0	77	10703
2026-01-20 23:14:14.22	13.21	13.51	-53.6	-62.4	3.8	7.46e-01	0	40	104	0	77	10754
2026-01-20 23:14:15.23	13.10	13.63	-53.6	-62.4	3.8	7.45e-01	0	40	104	0	77	10732
2026-01-20 23:14:16.24	12.99	13.75	-53.6	-62.5	3.8	7.46e-01	0	40	104	0	77	10789
2026-01-20 23:14:17.25	12.88	13.87	-53.6	-62.4	3.8	7.45e-01	0	40	104	0	77	10767
2026-01-20 23:14:18.25	12.77	13.99	-53.6	-62.5	3.8	7.46e-01	0	40	104	0	77	10789
2026-01-20 23:14:19.26	12.66	14.11	-53.6	-62.4	3.8	7.46e-01	0	40	104	0	77	10771
2026-01-20 23:14:20.27	12.54	14.24	-53.7	-62.5	3.8	7.45e-01	0	40	104	0	77	10826
2026-01-20 23:14:21.28	12.43	14.36	-53.6	-62.4	3.8	7.45e-01	0	40	104	0	77	10756
2026-01-20 23:14:22.29	12.31	14.49	-53.7	-62.5	3.8	7.44e-01	0	40	104	0	77	10806
2026-01-20 23:14:23.29	12.20	14.61	-53.6	-62.5	3.8	7.46e-01	0	40	104	0	77	10814
2026-01-20 23:14:24.30	12.08	14.74	-53.7	-62.5	3.8	7.44e-01	0	40	104	0	77	10827
2026-01-20 23:14:25.31	11.96	14.87	-53.6	-62.5	3.8	7.47e-01	0	40	104	0	77	10825
2026-01-20 23:14:26.32	11.84	15.00	-53.7	-62.5	3.8	7.44e-01	0	40	104	0	77	10885
2026-01-20 23:14:27.33	11.71	15.12	-53.7	-62.5	3.8	7.46e-01	0	40	104	0	77	10805
2026-01-20 23:14:28.33	11.59	15.25	-53.7	-62.5	3.8	7.45e-01	0	40	104	0	77	10826
2026-01-20 23:14:29.34	11.47	15.38	-53.7	-62.5	3.8	7.45e-01	0	40	104	0	77	10860
2026-01-20 23:14:30.35	11.34	15.52	-53.7	-62.5	3.8	7.45e-01	0	40	104	0	77	10861
2026-01-20 23:14:31.36	11.21	15.65	-53.7	-62.5	3.8	7.44e-01	0	40	104	0	77	10816
2026-01-20 23:14:32.37	11.08	15.78	-53.7	-62.5	3.8	7.46e-01	0	40	104	0	77	10885
2026-01-20 23:14:33.38	10.95	15.91	-53.7	-62.5	3.8	7.45e-01	0	40	104	0	77	10862
2026-01-20 23:14:34.39	10.82	16.05	-53.7	-62.5	3.8	7.45e-01	0	40	104	0	77	10867
2026-01-20 23:14:35.39	10.69	16.18	-53.7	-62.5	3.8	7.47e-01	0	40	104	0	77	10862
2026-01-20 23:14:36.40	10.55	16.32	-53.7	-62.6	3.8	7.45e-01	0	40	104	0	78	10306
2026-01-20 23:14:37.41	10.42	16.46	-53.7	-62.6	3.8	7.44e-01	0	40	104	0	78	10323
2026-01-20 23:14:38.42	10.28	16.60	-53.7	-62.6	3.8	7.43e-01	0	40	104	0	78	10338
2026-01-20 23:14:39.43	10.14	16.73	-53.7	-62.6	3.8	7.46e-01	0	40	104	0	78	10303
2026-01-20 23:14:40.44	10.00	16.87	-53.8	-62.6	3.8	7.44e-01	0	40	104	0	78	10317
2026-01-20 23:14:41.45	9.86	17.02	-53.7	-62.5	3.8	7.44e-01	0	40	104	0	78	10292
2026-01-20 23:14:42.45	9.71	17.16	-53.8	-62.6	3.8	7.45e-01	0	40	104	0	78	10346
2026-01-20 23:14:43.46	9.57	17.30	-53.7	-62.6	3.8	7.44e-01	0	40	104	0	78	10317
2026-01-20 23:14:44.47	9.42	17.44	-53.8	-62.6	3.8	7.46e-01	0	40	104	0	78	10362
2026-01-20 23:14:45.48	9.27	17.59	-53.8	-62.6	3.8	7.45e-01	0	40	104	0	78	10343
2026-01-20 23:14:46.49	9.12	17.73	-53.8	-62.6	3.8	7.44e-01	0	40	104	0	78	10357
2026-01-20 23:14:47.49	8.97	17.88	-53.8	-62.6	3.8	7.45e-01	0	40	104	0	78	10337
2026-01-20 23:14:48.50	8.81	18.02	-53.8	-62.6	3.8	7.46e-01	0	40	104	0	78	10357
2026-01-20 23:14:49.51	8.66	18.17	-53.8	-62.6	3.8	7.45e-01	0	40	104	0	78	10366
2026-01-20 23:14:50.52	8.50	18.32	-53.8	-62.6	3.8	7.45e-01	0	40	104	0	78	10408
2026-01-20 23:14:51.53	8.34	18.47	-53.8	-62.6	3.8	7.44e-01	0	40	104	0	78	10367
2026-01-20 23:14:52.54	8.18	18.62	-53.8	-62.6	3.8	7.47e-01	0	40	104	0	78	10374
2026-01-20 23:14:53.55	8.01	18.77	-53.8	-62.7	3.8	7.47e-01	0	40	104	0	78	10440
2026-01-20 23:14:54.55	7.85	18.92	-53.8	-62.6	3.8	7.45e-01	0	40	104	0	78	10367
2026-01-20 23:14:55.56	7.68	19.08	-53.8	-62.6	3.8	7.45e-01	0	40	104	0	78	10409
2026-01-20 23:14:56.57	7.51	19.23	-53.8	-62.6	3.8	7.45e-01	0	40	104	0	78	10399
2026-01-20 23:14:57.58	7.34	19.39	-53.8	-62.7	3.8	7.45e-01	0	40	104	0	78	10415
2026-01-20 23:14:58.59	7.17	19.55	-53.8	-62.7	3.8	7.46e-01	0	40	104	0	78	10422
2026-01-20 23:14:59.60	6.99	19.70	-53.8	-62.7	3.8	7.45e-01	0	40	104	0	78	10438
2026-01-20 23:15:00.61	6.81	19.86	-53.8	-62.7	3.8	7.46e-01	0	40	104	0	78	10436
2026-01-20 23:15:01.61	6.63	20.02	-53.8	-62.7	3.8	7.44e-01	0	40	104	0	78	10437
2026-01-20 23:15:02.62	6.45	20.18	-53.8	-62.7	3.8	7.46e-01	0	40	104	0	78	10422
2026-01-20 23:15:03.63	6.27	20.34	-53.8	-62.7	3.8	7.44e-01	0	40	104	0	78	10455
2026-01-20 23:15:04.64	6.08	20.51	-53.9	-62.7	3.8	7.46e-01	0	40	104	0	78	10432
2026-01-20 23:15:05.65	5.89	20.67	-53.9	-62.7	3.8	7.45e-01	0	40	104	0	78	10464
2026-01-20 23:15:06.65	5.70	20.83	-53.9	-62.7	3.8	7.44e-01	0	40	104	0	78	10476
2026-01-20 23:15:07.66	5.51	21.00	-53.9	-62.7	3.8	7.46e-01	0	40	104	0	78	10514
2026-01-20 23:15:08.67	5.31	21.17	-53.9	-62.7	3.8	7.47e-01	0	40	104	0	78	10499
2026-01-20 23:15:09.68	5.11	21.34	-53.9	-62.8	3.8	7.44e-01	0	40	104	0	78	10542
2026-01-20 23:15:10.69	4.91	21.51	-53.9	-62.7	3.8	7.44e-01	0	40	104	0	78	10473
2026-01-20 23:15:11.69	4.71	21.67	-53.9	-62.7	3.8	7.44e-01	0	40	104	0	78	10529
2026-01-20 23:15:12.70	4.50	21.85	-53.9	-62.7	3.8	7.45e-01	0	40	104	0	78	10511
2026-01-20 23:15:13.71	4.29	22.02	-53.9	-62.8	3.8	7.45e-01	0	40	104	0	78	10581
2026-01-20 23:15:14.72	4.08	22.19	-53.9	-62.7	3.8	7.46e-01	0	40	104	0	78	10461
2026-01-20 23:15:15.73	3.86	22.37	-53.9	-62.8	3.8	7.45e-01	0	40	104	0	78	10581
2026-01-20 23:15:16.74	3.65	22.54	-53.9	-62.7	3.8	7.44e-01	0	40	104	0	78	10513
2026-01-20 23:15:17.74	3.43	22.72	-54.0	-62.8	3.8	7.45e-01	0	40	104	0	78	10585
2026-01-20 23:15:18.75	3.20	22.90	-53.9	-62.8	3.8	7.45e-01	0	40	104	0	78	10594
2026-01-20 23:15:19.76	2.98	23.08	-54.0	-62.8	3.8	7.45e-01	0	40	104	0	78	10541
2026-01-20 23:15:20.77	2.75	23.26	-54.0	-62.8	3.8	7.45e-01	0	40	104	0	78	10591
2026-01-20 23:15:21.78	2.52	23.44	-54.0	-62.8	3.8	7.47e-01	0	40	104	0	78	10573
2026-01-20 23:15:22.78	2.28	23.62	-54.0	-62.8	3.8	7.43e-01	0	40	104	0	78	10573
2026-01-20 23:15:23.79	2.04	23.80	-54.0	-62.8	3.8	7.45e-01	0	40	104	0	78	10570
2026-01-20 23:15:24.80	1.80	23.99	-54.0	-62.8	3.8	7.44e-01	0	40	104	0	78	10572
2026-01-20 23:15:25.81	1.56	24.17	-54.0	-62.8	3.8	7.45e-01	0	40	104	0	78	10629
2026-01-20 23:15:26.82	1.31	24.36	-54.0	-62.8	3.8	7.45e-01	0	40	104	0	78	10593
2026-01-20 23:15:27.82	1.06	24.55	-54.0	-62.8	3.8	7.43e-01	0	40	104	0	78	10634
2026-01-20 23:15:28.83	0.80	24.74	-54.0	-62.8	3.8	7.45e-01	0	40	104	0	78	10564
2026-01-20 23:15:29.84	0.55	24.93	-54.0	-62.8	3.8	7.45e-01	0	40	104	0	78	10651
2026-01-20 23:15:30.85	0.28	25.12	-54.0	-62.8	3.8	7.46e-01	0	40	104	0	78	10618
2026-01-20 23:15:31.85	0.02	25.31	-54.0	-62.8	3.8	7.44e-01	0	40	104	0	78	10643
2026-01-20 23:15:32.86	359.75	25.50	-54.0	-62.8	3.8	7.45e-01	0	40	104	0	78	10649
2026-01-20 23:15:33.87	359.48	25.70	-54.0	-62.8	3.8	7.46e-01	0	40	104	0	78	10620
2026-01-20 23:15:34.88	359.20	25.89	-54.0	-62.8	3.8	7.47e-01	0	40	104	0	78	10638
2026-01-20 23:15:35.89	358.92	26.09	-54.1	-62.9	3.8	7.45e-01	0	40	104	0	78	10708
2026-01-20 23:15:36.89	358.64	26.29	-54.0	-62.9	3.8	7.46e-01	0	40	104	0	78	10667
2026-01-20 23:15:37.90	358.35	26.49	-54.1	-62.9	3.8	7.45e-01	0	40	104	0	78	10669
2026-01-20 23:15:38.91	358.06	26.69	-54.0	-62.8	3.8	7.45e-01	0	40	104	0	78	10645
2026-01-20 23:15:39.92	357.76	26.89	-54.1	-62.9	3.8	7.46e-01	0	40	104	0	78	10727
2026-01-20 23:15:40.93	357.46	27.09	-54.0	-62.8	3.8	7.46e-01	0	40	104	0	78	10641
2026-01-20 23:15:41.93	357.15	27.29	-54.1	-62.9	3.8	7.46e-01	0	40	104	0	78	10715
2026-01-20 23:15:42.94	356.84	27.49	-54.0	-62.9	3.8	7.46e-01	0	40	104	0	78	10671
2026-01-20 23:15:43.95	356.53	27.70	-54.1	-62.9	3.8	7.45e-01	0	40	104	0	78	10691
2026-01-20 23:15:44.96	356.21	27.91	-54.1	-62.9	3.8	7.43e-01	0	40	104	0	78	10746
2026-01-20 23:15:45.97	355.89	28.11	-54.1	-62.9	3.8	7.45e-01	0	40	104	0	78	10738
2026-01-20 23:15:46.97	355.56	28.32	-54.1	-62.9	3.8	7.46e-01	0	40	104	0	78	10730
2026-01-20 23:15:47.98	355.23	28.53	-54.1	-62.9	3.8	7.45e-01	0	40	104	0	78	10750
2026-01-20 23:15:48.99	354.89	28.74	-54.1	-62.9	3.8	7.46e-01	0	40	104	0	78	10757
2026-01-20 23:15:50.00	354.55	28.95	-54.1	-62.9	3.8	7.46e-01	0	40	104	0	78	10764
2026-01-20 23:15:51.01	354.20	29.16	-54.1	-62.9	3.8	7.46e-01	0	40	104	0	78	10723
2026-01-20 23:15:52.02	353.85	29.37	-54.1	-63.0	3.8	7.44e-01	0	40	104	0	78	10794
2026-01-20 23:15:53.02	353.50	29.58	-54.1	-63.0	3.8	7.45e-01	0	40	104	0	78	10780
2026-01-20 23:15:54.03	353.13	29.80	-54.1	-63.0	3.8	7.45e-01	0	40	104	0	78	10791
2026-01-20 23:15:55.04	352.76	30.01	-54.1	-63.0	3.8	7.45e-01	0	40	104	0	78	10804
2026-01-20 23:15:56.05	352.39	30.22	-54.2	-63.0	3.8	7.47e-01	0	40	104	0	78	10876
2026-01-20 23:15:57.05	352.01	30.44	-54.1	-63.0	3.8	7.45e-01	0	40	104	0	78	10789
2026-01-20 23:15:58.06	351.63	30.65	-54.2	-63.0	3.8	7.45e-01	0	40	104	0	78	10869
2026-01-20 23:15:59.07	351.24	30.87	-54.1	-62.9	3.8	7.46e-01	0	40	104	0	78	10755
2026-01-20 23:16:00.08	350.84	31.09	-54.2	-63.0	3.8	7.44e-01	0	40	104	0	78	10844
2026-01-20 23:16:01.09	350.44	31.31	-54.2	-63.0	3.8	7.45e-01	0	40	104	0	78	10824
2026-01-20 23:16:02.09	350.04	31.52	-54.2	-63.1	3.8	7.45e-01	0	40	104	0	78	10912
2026-01-20 23:16:03.10	349.62	31.74	-54.2	-63.0	3.8	7.45e-01	0	40	104	0	78	10858
2026-01-20 23:16:04.11	349.20	31.96	-54.2	-63.0	3.8	7.45e-01	0	40	104	0	78	10861
2026-01-20 23:16:05.12	348.78	32.18	-54.2	-63.0	3.8	7.46e-01	0	41	104	0	78	10863
2026-01-20 23:16:06.13	348.34	32.40	-54.2	-63.1	3.8	7.44e-01	0	41	104	0	79	10297
2026-01-20 23:16:07.14	347.91	32.62	-54.2	-63.0	3.8	7.45e-01	0	40	104	0	79	10253
2026-01-20 23:16:08.14	347.47	32.83	-54.2	-63.1	3.8	7.44e-01	0	40	104	0	79	10350
2026-01-20 23:16:09.15	347.01	33.05	-54.2	-63.0	3.8	7.45e-01	0	40	104	0	79	10283
2026-01-20 23:16:10.16	346.55	33.27	-54.3	-63.1	3.8	7.47e-01	0	40	104	0	79	10332
2026-01-20 23:16:11.17	346.09	33.49	-54.2	-63.0	3.8	7.46e-01	0	40	104	0	79	10293
2026-01-20 23:16:12.18	345.62	33.71	-54.3	-63.1	3.8	7.45e-01	0	40	104	0	79	10327
2026-01-20 23:16:13.18	345.14	33.93	-54.2	-63.1	3.8	7.44e-01	0	40	104	0	79	10340
2026-01-20 23:16:14.19	344.66	34.14	-54.3	-63.1	3.8	7.44e-01	0	40	104	0	79	10379
2026-01-20 23:16:15.19	344.17	34.36	-54.2	-63.1	3.8	7.45e-01	0	40	104	0	79	10305
2026-01-20 23:16:16.20	343.67	34.58	-54.3	-63.1	3.8	7.46e-01	0	40	104	0	79	10342
2026-01-20 23:16:17.21	343.16	34.79	-54.3	-63.1	3.8	7.45e-01	0	40	104	0	79	10373
2026-01-20 23:16:18.22	342.65	35.01	-54.3	-63.1	3.8	7.46e-01	0	40	104	0	79	10398
2026-01-20 23:16:19.23	342.13	35.23	-54.3	-63.1	3.8	7.44e-01	0	40	104	0	79	10400
2026-01-20 23:16:20.24	341.60	35.44	-54.3	-63.1	3.8	7.44e-01	0	41	104	0	79	10387
2026-01-20 23:16:21.24	341.07	35.65	-54.3	-63.1	3.8	7.46e-01	0	41	104	0	79	10407
2026-01-20 23:16:22.25	340.52	35.86	-54.3	-63.1	3.8	7.44e-01	0	40	104	0	79	10411
2026-01-20 23:16:23.26	339.97	36.07	-54.3	-63.1	3.8	7.45e-01	0	40	104	0	79	10382
2026-01-20 23:16:24.26	339.42	36.28	-54.3	-63.2	3.8	7.45e-01	0	40	104	0	79	10432
2026-01-20 23:16:25.27	338.85	36.49	-54.3	-63.1	3.8	7.45e-01	0	40	104	0	79	10390
2026-01-20 23:16:26.28	338.28	36.70	-54.4	-63.2	3.8	7.44e-01	0	41	104	0	79	10427
2026-01-20 23:16:27.29	337.69	36.90	-54.3	-63.1	3.8	7.46e-01	0	40	104	0	79	10362
2026-01-20 23:16:28.29	337.11	37.10	-54.4	-63.2	3.8	7.45e-01	0	40	104	0	79	10458
2026-01-20 23:16:29.30	336.51	37.31	-54.4	-63.2	3.8	7.45e-01	0	40	104	0	79	10423
2026-01-20 23:16:30.31	335.90	37.50	-54.4	-63.2	3.8	7.45e-01	0	40	104	0	79	10460
2026-01-20 23:16:31.32	335.29	37.70	-54.3	-63.2	3.8	7.46e-01	0	40	104	0	79	10438
2026-01-20 23:16:32.33	334.67	37.90	-54.4	-63.2	3.8	7.44e-01	0	40	104	0	79	10453
2026-01-20 23:16:33.34	334.04	38.09	-54.4	-63.2	3.8	7.47e-01	0	40	104	0	79	10469
2026-01-20 23:16:34.34	333.41	38.28	-54.4	-63.2	3.8	7.45e-01	0	41	104	0	79	10482
2026-01-20 23:16:35.35	332.76	38.46	-54.4	-63.2	3.8	7.44e-01	0	41	104	0	79	10477
2026-01-20 23:16:36.36	332.11	38.65	-54.4	-63.2	3.8	7.46e-01	0	40	104	0	79	10492
2026-01-20 23:16:37.37	331.45	38.83	-54.4	-63.2	3.8	7.45e-01	0	40	104	0	79	10502
2026-01-20 23:16:38.38	330.78	39.01	-54.4	-63.2	3.8	7.47e-01	0	40	104	0	79	10515
2026-01-20 23:16:39.38	330.11	39.18	-54.4	-63.2	3.8	7.45e-01	0	41	104	0	79	10482
2026-01-20 23:16:40.39	329.43	39.35	-54.4	-63.2	3.8	7.46e-01	0	41	104	0	79	10532
2026-01-20 23:16:41.40	328.73	39.52	-54.4	-63.2	3.8	7.45e-01	0	40	104	0	79	10525
2026-01-20 23:16:42.41	328.04	39.69	-54.4	-63.3	3.8	7.46e-01	0	40	104	0	79	10565
2026-01-20 23:16:43.42	327.33	39.85	-54.4	-63.2	3.8	7.45e-01	0	40	104	0	79	10516
2026-01-20 23:16:44.43	326.61	40.00	-54.4	-63.2	3.8	7.44e-01	0	40	104	0	79	10527
2026-01-20 23:16:45.43	325.90	40.16	-54.5	-63.3	3.8	7.43e-01	0	40	104	0	79	10593
2026-01-20 23:16:46.44	325.17	40.30	-54.4	-63.3	3.8	7.45e-01	0	40	104	0	79	10588
2026-01-20 23:16:47.45	324.44	40.45	-54.4	-63.3	3.8	7.44e-01	0	40	104	0	79	10567
2026-01-20 23:16:48.46	323.70	40.59	-54.5	-63.3	3.8	7.46e-01	0	40	104	0	79	10576
2026-01-20 23:16:49.47	322.95	40.72	-54.5	-63.3	3.8	7.45e-01	0	40	104	0	79	10626
2026-01-20 23:16:50.47	322.20	40.85	-54.5	-63.3	3.8	7.44e-01	0	40	104	0	79	10593
2026-01-20 23:16:51.48	321.44	40.98	-54.5	-63.3	3.8	7.48e-01	0	40	104	0	79	10588
2026-01-20 23:16:52.49	320.67	41.10	-54.5	-63.3	3.8	7.45e-01	0	40	104	0	79	10618
2026-01-20 23:16:53.50	319.90	41.21	-54.5	-63.3	3.8	7.45e-01	0	40	104	0	79	10636
2026-01-20 23:16:54.51	319.12	41.32	-54.5	-63.3	3.8	7.46e-01	0	41	104	0	79	10628
2026-01-20 23:16:55.52	318.33	41.43	-54.5	-63.3	3.8	7.45e-01	0	40	104	0	79	10609
2026-01-20 23:16:56.52	317.55	41.52	-54.5	-63.3	3.8	7.46e-01	0	40	104	0	79	10601
2026-01-20 23:16:57.53	316.76	41.62	-54.5	-63.3	3.8	7.46e-01	0	40	104	0	79	10621
2026-01-20 23:16:58.54	315.96	41.70	-54.5	-63.3	3.8	7.46e-01	0	41	104	0	79	10611
2026-01-20 23:16:59.55	315.15	41.79	-54.5	-63.3	3.8	7.45e-01	0	41	104	0	79	10635
2026-01-20 23:17:00.56	314.35	41.86	-54.5	-63.3	3.8	7.45e-01	0	40	104	0	79	10628
2026-01-20 23:17:01.57	313.53	41.93	-54.6	-63.4	3.8	7.43e-01	0	40	104	0	79	10684
2026-01-20 23:17:02.58	312.72	41.99	-54.5	-63.3	3.8	7.44e-01	0	40	104	0	79	10644
2026-01-20 23:17:03.58	311.91	42.05	-54.5	-63.4	3.8	7.45e-01	0	40	104	0	79	10668
2026-01-20 23:17:04.59	311.09	42.10	-54.5	-63.4	3.8	7.46e-01	0	40	104	0	79	10665
2026-01-20 23:17:05.60	310.26	42.15	-54.6	-63.4	3.8	7.46e-01	0	40	104	0	79	10694
2026-01-20 23:17:06.61	309.44	42.18	-54.5	-63.4	3.8	7.46e-01	0	40	104	0	79	10676
2026-01-20 23:17:07.61	308.62	42.21	-54.6	-63.4	3.8	7.47e-01	0	41	104	0	79	10672
2026-01-20 23:17:08.62	307.79	42.24	-54.6	-63.4	3.8	7.45e-01	0	40	104	0	79	10711
2026-01-20 23:17:09.63	306.96	42.26	-54.6	-63.4	3.8	7.45e-01	0	40	104	0	79	10726
2026-01-20 23:17:10.64	306.13	42.27	-54.6	-63.4	3.8	7.45e-01	0	41	104	0	79	10678
2026-01-20 23:17:11.65	305.29	42.28	-54.6	-63.4	3.8	7.44e-01	0	40	104	0	79	10714
2026-01-20 23:17:12.66	304.46	42.28	-54.6	-63.4	3.8	7.45e-01	0	40	104	0	79	10728
2026-01-20 23:17:13.66	303.64	42.27	-54.6	-63.4	3.8	7.45e-01	0	40	104	0	79	10708
2026-01-20 23:17:14.67	302.81	42.25	-54.6	-63.4	3.8	7.44e-01	0	41	104	0	79	10702
2026-01-20 23:17:15.68	301.98	42.23	-54.6	-63.4	3.8	7.46e-01	0	41	104	0	79	10723
2026-01-20 23:17:16.68	301.16	42.21	-54.6	-63.4	3.8	7.45e-01	0	40	104	0	79	10738
2026-01-20 23:17:17.69	300.33	42.17	-54.6	-63.4	3.8	7.44e-01	0	40	104	0	79	10741
2026-01-20 23:17:18.70	299.50	42.13	-54.6	-63.4	3.8	7.44e-01	0	41	104	0	79	10757
2026-01-20 23:17:19.71	298.68	42.09	-54.6	-63.4	3.8	7.45e-01	0	41	104	0	79	10762
2026-01-20 23:17:20.71	297.87	42.04	-54.6	-63.4	3.8	7.45e-01	0	41	104	0	79	10735
2026-01-20 23:17:21.72	297.05	41.98	-54.6	-63.4	3.8	7.44e-01	0	40	104	0	79	10766
2026-01-20 23:17:22.73	296.23	41.91	-54.6	-63.4	3.8	7.43e-01	0	40	104	0	79	10719
2026-01-20 23:17:23.74	295.42	41.84	-54.6	-63.4	3.8	7.47e-01	0	41	104	0	79	10738
2026-01-20 23:17:24.75	294.61	41.76	-54.6	-63.4	3.8	7.45e-01	0	40	104	0	79	10778
2026-01-20 23:17:25.76	293.81	41.68	-54.6	-63.4	3.8	7.46e-01	0	40	104	0	79	10764
2026-01-20 23:17:26.76	293.02	41.59	-54.6	-63.4	3.8	7.46e-01	0	40	104	0	79	10688
2026-01-20 23:17:27.77	292.23	41.50	-54.6	-63.4	3.8	7.45e-01	0	41	104	0	79	10722
2026-01-20 23:17:28.78	291.44	41.40	-54.6	-63.4	3.8	7.45e-01	0	40	104	0	79	10743
2026-01-20 23:17:29.79	290.65	41.29	-54.6	-63.4	3.8	7.44e-01	0	40	104	0	79	10753
2026-01-20 23:17:30.79	289.88	41.18	-54.6	-63.4	3.8	7.46e-01	0	41	104	0	79	10748
2026-01-20 23:17:31.80	289.11	41.07	-54.6	-63.4	3.8	7.44e-01	0	40	104	0	79	10711
2026-01-20 23:17:32.81	288.34	40.95	-54.6	-63.4	3.8	7.46e-01	0	41	104	0	79	10767
2026-01-20 23:17:33.82	287.58	40.82	-54.6	-63.4	3.8	7.45e-01	0	41	104	0	79	10776
2026-01-20 23:17:34.83	286.83	40.69	-54.6	-63.4	3.8	7.47e-01	0	41	104	0	79	10749
2026-01-20 23:17:35.83	286.09	40.55	-54.6	-63.4	3.8	7.44e-01	0	40	104	0	79	10744
2026-01-20 23:17:36.84	285.34	40.41	-54.6	-63.4	3.8	7.46e-01	0	40	104	0	79	10744
2026-01-20 23:17:37.85	284.61	40.27	-54.6	-63.4	3.8	7.45e-01	0	40	104	0	79	10756
2026-01-20 23:17:38.86	283.88	40.12	-54.6	-63.4	3.8	7.46e-01	0	41	104	0	79	10709
2026-01-20 23:17:39.87	283.16	39.96	-54.6	-63.4	3.8	7.44e-01	0	41	104	0	79	10746
2026-01-20 23:17:40.88	282.45	39.80	-54.6	-63.4	3.8	7.46e-01	0	40	104	0	79	10760
2026-01-20 23:17:41.88	281.75	39.64	-54.6	-63.4	3.8	7.45e-01	0	40	104	0	79	10681
2026-01-20 23:17:42.89	281.05	39.48	-54.6	-63.4	3.8	7.45e-01	0	41	104	0	79	10718
2026-01-20 23:17:43.90	280.36	39.31	-54.6	-63.4	3.8	7.45e-01	0	40	104	0	79	10705
2026-01-20 23:17:44.91	279.68	39.14	-54.6	-63.4	3.8	7.46e-01	0	41	104	0	79	10712
2026-01-20 23:17:45.91	279.01	38.96	-54.6	-63.4	3.8	7.45e-01	0	40	104	0	79	10699
2026-01-20 23:17:46.92	278.34	38.78	-54.6	-63.4	3.8	7.46e-01	0	40	104	0	79	10686
2026-01-20 23:17:47.93	277.68	38.60	-54.6	-63.4	3.8	7.46e-01	0	40	104	0	79	10661
2026-01-20 23:17:48.94	277.03	38.41	-54.5	-63.3	3.8	7.44e-01	0	41	104	0	79	10631
2026-01-20 23:17:49.95	276.38	38.22	-54.5	-63.3	3.8	7.45e-01	0	40	104	0	79	10650
2026-01-20 23:17:50.95	275.75	38.04	-54.5	-63.3	3.8	7.44e-01	0	41	104	0	79	10651
2026-01-20 23:17:51.96	275.12	37.84	-54.5	-63.3	3.8	7.46e-01	0	40	104	0	79	10639
2026-01-20 23:17:52.97	274.50	37.65	-54.5	-63.3	3.8	7.46e-01	0	41	104	0	79	10632
2026-01-20 23:17:53.98	273.89	37.45	-54.5	-63.3	3.8	7.45e-01	0	40	104	0	79	10604
2026-01-20 23:17:54.99	273.28	37.25	-54.5	-63.3	3.8	7.46e-01	0	40	104	0	79	10619
2026-01-20 23:17:55.99	272.69	37.05	-54.5	-63.3	3.8	7.45e-01	0	40	104	0	79	10613
2026-01-20 23:17:57.00	272.10	36.84	-54.5	-63.3	3.8	7.45e-01	0	41	104	0	79	10596
2026-01-20 23:17:58.01	271.52	36.64	-54.5	-63.3	3.8	7.44e-01	0	40	104	0	79	10614
2026-01-20 23:17:59.02	270.95	36.43	-54.5	-63.3	3.8	7.45e-01	0	40	104	0	79	10600
2026-01-20 23:18:00.03	270.38	36.22	-54.5	-63.3	3.8	7.46e-01	0	40	104	0	79	10589
2026-01-20 23:18:01.03	269.83	36.01	-54.5	-63.3	3.8	7.45e-01	0	40	104	0	79	10587
2026-01-20 23:18:02.04	269.28	35.80	-54.5	-63.3	3.8	7.45e-01	0	40	104	0	79	10621
2026-01-20 23:18:03.05	268.73	35.58	-54.5	-63.3	3.8	7.46e-01	0	41	104	0	79	10561
2026-01-20 23:18:04.06	268.20	35.37	-54.4	-63.3	3.8	7.45e-01	0	40	104	0	79	10565
2026-01-20 23:18:05.07	267.67	35.16	-54.4	-63.3	3.8	7.46e-01	0	40	104	0	79	10560
2026-01-20 23:18:06.07	267.15	34.94	-54.4	-63.3	3.8	7.45e-01	0	40	104	0	79	10554
2026-01-20 23:18:07.08	266.64	34.72	-54.4	-63.3	3.8	7.44e-01	0	40	104	0	79	10542
2026-01-20 23:18:08.09	266.13	34.51	-54.4	-63.3	3.8	7.45e-01	0	40	104	0	79	10538
2026-01-20 23:18:09.10	265.63	34.29	-54.4	-63.3	3.8	7.44e-01	0	41	104	0	79	10570
2026-01-20 23:18:10.11	265.14	34.07	-54.4	-63.2	3.8	7.45e-01	0	40	104	0	79	10517
2026-01-20 23:18:11.11	264.66	33.85	-54.4	-63.2	3.8	7.47e-01	0	40	104	0	79	10506
2026-01-20 23:18:12.12	264.18	33.63	-54.4	-63.3	3.8	7.46e-01	0	40	104	0	79	10540
2026-01-20 23:18:13.13	263.71	33.41	-54.4	-63.2	3.8	7.45e-01	0	40	104	0	79	10512
2026-01-20 23:18:14.14	263.25	33.19	-54.4	-63.2	3.8	7.44e-01	0	40	104	0	79	10533
2026-01-20 23:18:15.15	262.79	32.97	-54.4	-63.2	3.8	7.45e-01	0	40	104	0	79	10505
2026-01-20 23:18:16.16	262.34	32.75	-54.4	-63.2	3.8	7.46e-01	0	40	104	0	79	10483
2026-01-20 23:18:17.16	261.90	32.54	-54.4	-63.2	3.8	7.45e-01	0	40	104	0	79	10475
2026-01-20 23:18:18.17	261.46	32.32	-54.4	-63.2	3.8	7.46e-01	0	40	104	0	79	10476
2026-01-20 23:18:19.18	261.03	32.10	-54.4	-63.2	3.8	7.44e-01	0	41	104	0	79	10453
2026-01-20 23:18:20.19	260.60	31.88	-54.4	-63.2	3.8	7.46e-01	0	41	104	0	79	10474
2026-01-20 23:18:21.19	260.18	31.66	-54.4	-63.2	3.8	7.44e-01	0	41	104	0	79	10453
2026-01-20 23:18:22.20	259.77	31.44	-54.4	-63.2	3.8	7.44e-01	0	40	104	0	79	10449
2026-01-20 23:18:23.21	259.36	31.22	-54.4	-63.2	3.8	7.45e-01	0	41	104	0	79	10442
2026-01-20 23:18:24.22	258.96	31.00	-54.3	-63.2	3.8	7.44e-01	0	41	104	0	79	10464
2026-01-20 23:18:25.23	258.57	30.78	-54.4	-63.2	3.8	7.45e-01	0	41	104	0	79	10458
2026-01-20 23:18:26.24	258.18	30.57	-54.3	-63.2	3.8	7.45e-01	0	41	104	0	79	10448
2026-01-20 23:18:27.25	257.79	30.35	-54.3	-63.2	3.8	7.46e-01	0	41	104	0	79	10451
2026-01-20 23:18:28.26	257.41	30.13	-54.3	-63.1	3.8	7.45e-01	0	40	104	0	79	10384
2026-01-20 23:18:29.26	257.04	29.92	-54.3	-63.1	3.8	7.45e-01	0	40	104	0	79	10375
2026-01-20 23:18:30.27	256.68	29.71	-54.3	-63.1	3.8	7.45e-01	0	41	104	0	79	10389
2026-01-20 23:18:31.28	256.31	29.49	-54.3	-63.1	3.8	7.44e-01	0	40	104	0	79	10369
2026-01-20 23:18:32.29	255.96	29.28	-54.3	-63.2	3.8	7.45e-01	0	41	104	0	79	10415
2026-01-20 23:18:33.29	255.61	29.07	-54.3	-63.2	3.8	7.43e-01	0	41	104	0	79	10416
2026-01-20 23:18:34.30	255.26	28.86	-54.3	-63.1	3.8	7.43e-01	0	40	104	0	79	10357
2026-01-20 23:18:35.31	254.92	28.64	-54.3	-63.1	3.8	7.45e-01	0	40	104	0	79	10403
2026-01-20 23:18:36.32	254.58	28.43	-54.3	-63.1	3.8	7.45e-01	0	41	104	0	79	10378
2026-01-20 23:18:37.33	254.25	28.22	-54.3	-63.1	3.8	7.45e-01	0	40	104	0	79	10363
2026-01-20 23:18:38.34	253.92	28.02	-54.3	-63.1	3.8	7.47e-01	0	41	104	0	79	10349
2026-01-20 23:18:39.34	253.60	27.81	-54.3	-63.1	3.8	7.45e-01	0	40	104	0	79	10326
2026-01-20 23:18:40.35	253.28	27.60	-54.3	-63.1	3.8	7.45e-01	0	40	104	0	79	10332
2026-01-20 23:18:41.36	252.97	27.40	-54.3	-63.1	3.8	7.46e-01	0	40	104	0	79	10320
2026-01-20 23:18:42.37	252.66	27.19	-54.3	-63.1	3.8	7.46e-01	0	40	104	0	79	10337
2026-01-20 23:18:43.37	252.36	26.99	-54.2	-63.1	3.8	7.46e-01	0	41	104	0	79	10312
2026-01-20 23:18:44.38	252.05	26.79	-54.2	-63.1	3.8	7.46e-01	0	40	104	0	79	10313
2026-01-20 23:18:45.39	251.76	26.59	-54.2	-63.1	3.8	7.46e-01	0	40	104	0	79	10312
2026-01-20 23:18:46.40	251.46	26.39	-54.2	-63.1	3.8	7.46e-01	0	41	104	0	79	10308
2026-01-20 23:18:47.41	251.18	26.19	-54.2	-63.0	3.8	7.43e-01	0	40	104	0	79	10277
2026-01-20 23:18:48.41	250.89	25.99	-54.2	-63.1	3.8	7.45e-01	0	40	104	0	79	10320
2026-01-20 23:18:49.42	250.61	25.79	-54.2	-63.1	3.8	7.46e-01	0	40	104	0	79	10325
2026-01-20 23:18:50.43	250.34	25.60	-54.2	-63.0	3.8	7.46e-01	0	41	104	0	79	10289
2026-01-20 23:18:51.44	250.06	25.40	-54.2	-63.0	3.8	7.45e-01	0	40	104	0	79	10267
2026-01-20 23:18:52.45	249.79	25.21	-54.2	-63.0	3.8	7.44e-01	0	40	104	0	79	10260
2026-01-20 23:18:53.46	249.53	25.02	-54.2	-63.0	3.8	7.46e-01	0	41	104	0	79	10238
2026-01-20 23:18:54.46	249.27	24.83	-54.2	-63.0	3.8	7.45e-01	0	41	104	0	79	10269
2026-01-20 23:18:55.47	249.01	24.64	-54.2	-63.0	3.8	7.47e-01	0	41	104	0	79	10235
2026-01-20 23:18:56.48	248.76	24.45	-54.2	-63.0	3.8	7.44e-01	0	40	104	0	79	10229
2026-01-20 23:18:57.49	248.50	24.26	-54.2	-63.0	3.8	7.44e-01	0	41	104	0	79	10242
2026-01-20 23:18:58.50	248.26	24.07	-54.2	-63.0	3.8	7.45e-01	0	40	104	0	79	10244
2026-01-20 23:18:59.51	248.01	23.88	-54.2	-63.0	3.8	7.45e-01	0	40	104	0	79	10209
2026-01-20 23:19:00.52	247.77	23.70	-54.2	-63.0	3.8	7.46e-01	0	40	104	0	79	10185
2026-01-20 23:19:01.53	247.53	23.51	-54.1	-63.0	3.8	7.46e-01	0	40	104	0	79	10222
2026-01-20 23:19:02.53	247.30	23.33	-54.1	-62.9	3.8	7.45e-01	0	40	104	0	79	10173
2026-01-20 23:19:03.54	247.07	23.15	-54.1	-63.0	3.8	7.46e-01	0	40	104	0	79	10180
2026-01-20 23:19:04.55	246.84	22.97	-54.1	-63.0	3.8	7.46e-01	0	41	104	0	79	10183
2026-01-20 23:19:05.56	246.61	22.79	-54.1	-63.0	3.8	7.46e-01	0	40	104	0	79	10191
2026-01-20 23:19:06.57	246.39	22.61	-54.1	-62.9	3.8	7.46e-01	0	41	104	0	79	10157
2026-01-20 23:19:07.57	246.17	22.44	-54.1	-63.0	3.8	7.47e-01	0	41	104	0	79	10204
2026-01-20 23:19:08.58	245.95	22.26	-54.1	-62.9	3.8	7.46e-01	0	41	104	0	79	10156
2026-01-20 23:19:09.59	245.74	22.08	-54.1	-62.9	3.8	7.46e-01	0	40	104	0	79	10144
2026-01-20 23:19:10.60	245.52	21.91	-54.1	-62.9	3.8	7.47e-01	0	41	104	0	79	10133
2026-01-20 23:19:11.61	245.32	21.74	-54.1	-62.9	3.8	7.44e-01	0	40	104	0	79	10112
2026-01-20 23:19:12.61	245.11	21.57	-54.1	-62.9	3.8	7.46e-01	0	41	104	0	79	10084
2026-01-20 23:19:13.62	244.91	21.40	-54.1	-62.9	3.8	7.46e-01	0	41	104	0	79	10074
2026-01-20 23:19:14.63	244.70	21.23	-54.0	-62.9	3.8	7.45e-01	0	41	104	0	79	10094
2026-01-20 23:19:15.64	244.51	21.06	-54.1	-62.9	3.8	7.47e-01	0	41	104	0	79	10079
2026-01-20 23:19:16.65	244.31	20.89	-54.0	-62.9	3.8	7.45e-01	0	41	104	0	79	10101
2026-01-20 23:19:17.66	244.12	20.72	-54.0	-62.8	3.8	7.45e-01	0	41	104	0	79	10052
2026-01-20 23:19:18.66	243.93	20.56	-54.0	-62.8	3.8	7.46e-01	0	41	104	0	79	10052
2026-01-20 23:19:19.67	243.74	20.40	-54.0	-62.9	3.8	7.45e-01	0	40	104	0	79	10094
2026-01-20 23:19:20.68	243.55	20.23	-54.0	-62.9	3.8	7.45e-01	0	41	104	0	79	10072
2026-01-20 23:19:21.69	243.36	20.07	-54.0	-62.8	3.8	7.44e-01	0	40	104	0	79	10036
2026-01-20 23:19:22.69	243.18	19.91	-54.0	-62.8	3.8	7.46e-01	0	40	104	0	79	10038
2026-01-20 23:19:23.70	243.00	19.75	-54.0	-62.9	3.8	7.46e-01	0	40	104	0	79	10069
2026-01-20 23:19:24.71	242.83	19.59	-54.0	-62.8	3.8	7.45e-01	0	40	104	0	79	10012
2026-01-20 23:19:25.72	242.65	19.43	-54.0	-62.8	3.8	7.46e-01	0	41	104	0	79	10033
2026-01-20 23:19:26.73	242.48	19.28	-54.0	-62.8	3.8	7.43e-01	0	40	104	0	79	10046
2026-01-20 23:19:27.73	242.31	19.12	-54.0	-62.8	3.8	7.45e-01	0	41	104	0	79	10029
2026-01-20 23:19:28.74	242.14	18.97	-54.0	-62.8	3.8	7.45e-01	0	40	104	0	79	10035
2026-01-20 23:19:29.75	241.97	18.81	-54.0	-62.8	3.8	7.45e-01	0	41	104	0	79	9997
2026-01-20 23:19:30.76	241.80	18.66	-54.0	-62.8	3.8	7.45e-01	0	41	104	0	79	10033
2026-01-20 23:19:31.77	241.64	18.51	-54.0	-62.8	3.8	7.45e-01	0	40	104	0	79	9998
2026-01-20 23:19:32.77	241.48	18.36	-54.0	-62.8	3.8	7.47e-01	0	41	104	0	79	9985
2026-01-20 23:19:33.78	241.32	18.21	-54.0	-62.8	3.8	7.46e-01	0	40	104	0	79	10020
2026-01-20 23:19:34.79	241.16	18.06	-54.0	-62.8	3.8	7.46e-01	0	40	104	0	79	10003
2026-01-20 23:19:35.80	241.00	17.91	-54.0	-62.8	3.8	7.44e-01	0	41	104	0	79	9998
2026-01-20 23:19:36.81	240.85	17.76	-54.0	-62.8	3.8	7.44e-01	0	41	104	0	79	9980
2026-01-20 23:19:37.82	240.70	17.62	-54.0	-62.8	3.8	7.44e-01	0	40	104	0	79	10007
2026-01-20 23:19:38.83	240.55	17.47	-54.0	-62.8	3.8	7.46e-01	0	41	104	0	79	9998
2026-01-20 23:19:39.83	240.40	17.33	-53.9	-62.8	3.8	7.45e-01	0	41	104	0	79	9999
2026-01-20 23:19:40.84	240.25	17.18	-53.9	-62.8	3.8	7.45e-01	0	41	104	0	79	10002
2026-01-20 23:19:41.85	240.10	17.04	-53.9	-62.8	3.8	7.44e-01	0	41	104	0	79	9971
2026-01-20 23:19:42.86	239.96	16.90	-53.9	-62.8	3.8	7.44e-01	0	41	104	0	79	9988
2026-01-20 23:19:43.87	239.82	16.76	-53.9	-62.7	3.8	7.44e-01	0	41	104	0	79	9940
2026-01-20 23:19:44.88	239.68	16.62	-53.9	-62.8	3.8	7.46e-01	0	41	104	0	79	9962
2026-01-20 23:19:45.88	239.54	16.48	-53.9	-62.8	3.8	7.47e-01	0	41	104	0	79	9961
2026-01-20 23:19:46.89	239.40	16.34	-53.9	-62.8	3.8	7.46e-01	0	40	104	0	79	9948
2026-01-20 23:19:47.90	239.26	16.20	-53.9	-62.8	3.8	7.45e-01	0	41	104	0	79	9950
2026-01-20 23:19:48.90	239.13	16.07	-53.9	-62.7	3.8	7.46e-01	0	41	104	0	79	9933
2026-01-20 23:19:49.91	239.00	15.93	-53.9	-62.7	3.8	7.44e-01	0	41	104	0	79	9944
2026-01-20 23:19:50.92	238.86	15.80	-53.9	-62.7	3.8	7.45e-01	0	41	104	0	79	9937
2026-01-20 23:19:51.93	238.73	15.66	-53.9	-62.7	3.8	7.45e-01	0	41	104	0	79	9916
2026-01-20 23:19:52.94	238.60	15.53	-53.9	-62.7	3.8	7.46e-01	0	41	104	0	79	9900
2026-01-20 23:19:53.95	238.48	15.40	-53.9	-62.7	3.8	7.46e-01	0	41	104	0	79	9929
2026-01-20 23:19:54.95	238.35	15.27	-53.9	-62.7	3.8	7.45e-01	0	41	104	0	79	9915
2026-01-20 23:19:55.96	238.22	15.14	-53.9	-62.7	3.8	7.44e-01	0	41	104	0	79	9897
2026-01-20 23:19:56.97	238.10	15.01	-53.9	-62.7	3.8	7.45e-01	0	41	104	0	79	9864
2026-01-20 23:19:57.98	237.98	14.88	-53.9	-62.7	3.8	7.45e-01	0	41	104	0	79	9918
2026-01-20 23:19:58.99	237.86	14.75	-53.9	-62.7	3.8	7.46e-01	0	41	104	0	79	9902
2026-01-20 23:20:00.00	237.74	14.62	-53.9	-62.7	3.8	7.44e-01	0	41	104	0	79	9886
2026-01-20 23:20:01.01	237.62	14.49	-53.8	-62.6	3.8	7.44e-01	0	40	104	0	79	9821
2026-01-20 23:20:02.01	237.50	14.37	-53.8	-62.7	3.8	7.44e-01	0	41	104	0	79	9845
2026-01-20 23:20:03.02	237.39	14.24	-53.8	-62.7	3.8	7.46e-01	0	41	104	0	79	9860
2026-01-20 23:20:04.03	237.27	14.12	-53.8	-62.7	3.8	7.45e-01	0	41	104	0	79	9863
2026-01-20 23:20:05.04	237.16	14.00	-53.8	-62.6	3.8	7.46e-01	0	41	104	0	79	9783
2026-01-20 23:20:06.05	237.04	13.87	-53.8	-62.7	3.8	7.44e-01	0	41	104	0	79	9832
2026-01-20 23:20:07.05	236.93	13.75	-53.8	-62.6	3.8	7.44e-01	0	41	104	0	79	9798
2026-01-20 23:20:08.06	236.82	13.63	-53.8	-62.7	3.8	7.44e-01	0	41	104	0	79	9841
2026-01-20 23:20:09.07	236.71	13.51	-53.8	-62.6	3.8	7.47e-01	0	40	104	0	79	9791
2026-01-20 23:20:10.08	236.60	13.39	-53.8	-62.6	3.8	7.45e-01	0	41	104	0	79	9789
2026-01-20 23:20:11.09	236.50	13.27	-53.8	-62.6	3.8	7.46e-01	0	41	104	0	79	9800
2026-01-20 23:20:12.09	236.39	13.15	-53.8	-62.6	3.8	7.46e-01	0	40	104	0	79	9761
2026-01-20 23:20:13.10	236.29	13.03	-53.8	-62.6	3.8	7.46e-01	0	41	104	0	79	9720
2026-01-20 23:20:14.11	236.18	12.91	-53.8	-62.6	3.8	7.45e-01	0	40	104	0	79	9793
2026-01-20 23:20:15.12	236.08	12.80	-53.8	-62.6	3.8	7.46e-01	0	40	104	0	79	9826
2026-01-20 23:20:16.13	235.98	12.68	-53.8	-62.6	3.8	7.46e-01	0	41	104	0	79	9774
2026-01-20 23:20:17.14	235.88	12.56	-53.8	-62.6	3.8	7.45e-01	0	41	104	0	79	9748
2026-01-20 23:20:18.15	235.78	12.45	-53.8	-62.6	3.8	7.45e-01	0	41	104	0	79	9801
2026-01-20 23:20:19.16	235.68	12.33	-53.8	-62.6	3.8	7.44e-01	0	41	104	0	79	9804
2026-01-20 23:20:20.16	235.58	12.22	-53.8	-62.7	3.8	7.45e-01	0	41	104	0	79	9831
2026-01-20 23:20:21.17	235.48	12.11	-53.7	-62.6	3.8	7.46e-01	0	41	104	0	79	9754
2026-01-20 23:20:22.18	235.39	12.00	-53.7	-62.6	3.8	7.46e-01	0	40	104	0	79	9743
2026-01-20 23:20:23.18	235.29	11.88	-53.7	-62.6	3.8	7.47e-01	0	41	104	0	79	9765
2026-01-20 23:20:24.19	235.20	11.77	-53.7	-62.6	3.8	7.45e-01	0	41	104	0	79	9727
2026-01-20 23:20:25.20	235.10	11.66	-53.7	-62.5	3.8	7.44e-01	0	40	104	0	79	9700
2026-01-20 23:20:26.21	235.01	11.55	-53.7	-62.5	3.8	7.44e-01	0	41	104	0	79	9705
2026-01-20 23:20:27.22	234.92	11.44	-53.7	-62.5	3.8	7.45e-01	0	41	104	0	79	9692
2026-01-20 23:20:28.23	234.83	11.33	-53.7	-62.6	3.8	7.46e-01	0	40	104	0	79	9723
2026-01-20 23:20:29.24	234.74	11.23	-53.7	-62.5	3.8	7.46e-01	0	40	104	0	79	9654
2026-01-20 23:20:30.24	234.65	11.12	-53.7	-62.5	3.8	7.46e-01	0	41	104	0	79	9652
2026-01-20 23:20:31.25	234.56	11.01	-53.7	-62.5	3.8	7.45e-01	0	41	104	0	79	9708
2026-01-20 23:20:32.26	234.47	10.90	-53.7	-62.5	3.8	7.45e-01	0	41	104	0	79	9673
2026-01-20 23:20:33.27	234.39	10.80	-53.6	-62.5	3.8	7.45e-01	0	41	104	0	79	9624
2026-01-20 23:20:34.27	234.30	10.69	-53.6	-62.5	3.8	7.47e-01	0	40	104	0	79	9607
2026-01-20 23:20:35.28	234.21	10.59	-53.7	-62.5	3.8	7.46e-01	0	41	104	0	79	9666
2026-01-20 23:20:36.29	234.13	10.48	-53.7	-62.5	3.8	7.44e-01	0	41	104	0	79	9637
2026-01-20 23:20:37.30	234.05	10.38	-53.6	-62.5	3.8	7.46e-01	0	41	104	0	79	9633
2026-01-20 23:20:38.31	233.96	10.28	-53.6	-62.4	3.8	7.45e-01	0	40	104	0	79	9565
2026-01-20 23:20:39.31	233.88	10.18	-53.6	-62.5	3.8	7.46e-01	0	40	104	0	79	9647
2026-01-20 23:20:40.32	233.80	10.07	-53.6	-62.5	3.8	7.46e-01	0	41	104	0	79	9615
2026-01-20 23:20:41.33	233.72	9.97	-53.6	-62.4	3.8	7.45e-01	0	40	104	0	79	9593
2026-01-20 23:20:42.34	233.64	9.87	-53.6	-62.4	3.8	7.45e-01	0	40	104	0	79	9591
2026-01-20 23:20:43.35	233.56	9.77	-53.6	-62.5	3.8	7.45e-01	0	40	104	0	79	9624
2026-01-20 23:20:44.35	233.48	9.67	-53.6	-62.4	3.8	7.47e-01	0	41	104	0	79	9605
2026-01-20 23:20:45.36	233.40	9.57	-53.6	-62.4	3.8	7.46e-01	0	40	104	0	79	9575
2026-01-20 23:20:46.37	233.33	9.47	-53.6	-62.4	3.8	7.44e-01	0	40	104	0	79	9574
2026-01-20 23:20:47.38	233.25	9.37	-53.6	-62.5	3.8	7.45e-01	0	41	104	0	79	9637
2026-01-20 23:20:48.39	233.17	9.27	-53.6	-62.4	3.8	7.46e-01	0	40	104	0	79	9575
2026-01-20 23:20:49.39	233.10	9.18	-53.6	-62.4	3.8	7.47e-01	0	40	104	0	79	9577
2026-01-20 23:20:50.40	233.02	9.08	-53.6	-62.4	3.8	7.46e-01	0	40	104	0	79	9525
2026-01-20 23:20:51.41	232.95	8.98	-53.6	-62.4	3.8	7.45e-01	0	41	104	0	79	9581
2026-01-20 23:20:52.42	232.88	8.88	-53.5	-62.4	3.8	7.46e-01	0	40	104	0	79	9516
2026-01-20 23:20:53.43	232.80	8.79	-53.5	-62.4	3.8	7.44e-01	0	41	104	0	79	9528
2026-01-20 23:20:54.44	232.73	8.69	-53.5	-62.3	3.8	7.48e-01	0	41	104	0	79	9468
2026-01-20 23:20:55.44	232.66	8.60	-53.5	-62.4	3.8	7.44e-01	0	41	104	0	79	9529
2026-01-20 23:20:56.45	232.59	8.50	-53.5	-62.3	3.8	7.46e-01	0	41	104	0	79	9449
2026-01-20 23:20:57.46	232.52	8.41	-53.5	-62.3	3.8	7.46e-01	0	40	104	0	78	9958
2026-01-20 23:20:58.47	232.45	8.32	-53.5	-62.3	3.8	7.46e-01	0	41	104	0	78	10000
2026-01-20 23:20:59.48	232.38	8.22	-53.5	-62.3	3.8	7.44e-01	0	41	104	0	78	10012
2026-01-20 23:21:00.49	232.31	8.13	-53.4	-62.3	3.8	7.44e-01	0	41	104	0	78	9983
2026-01-20 23:21:01.49	232.24	8.04	-53.4	-62.3	3.8	7.44e-01	0	41	104	0	78	9961
2026-01-20 23:21:02.50	232.18	7.95	-53.4	-62.3	3.8	7.45e-01	0	41	104	0	78	9959
2026-01-20 23:21:03.51	232.11	7.85	-53.5	-62.3	3.8	7.46e-01	0	40	104	0	78	10025
2026-01-20 23:21:04.52	232.04	7.76	-53.4	-62.2	3.8	7.46e-01	0	41	104	0	78	9895
2026-01-20 23:21:05.53	231.98	7.67	-53.4	-62.2	3.8	7.45e-01	0	41	104	0	78	9904
2026-01-20 23:21:06.54	231.91	7.58	-53.4	-62.2	3.8	7.48e-01	0	40	104	0	78	9922
2026-01-20 23:21:07.55	231.85	7.49	-53.4	-62.3	3.8	7.45e-01	0	40	104	0	78	9982
2026-01-20 23:21:08.55	231.78	7.40	-53.4	-62.3	3.8	7.46e-01	0	40	104	0	78	9948
2026-01-20 23:21:09.56	231.72	7.31	-53.3	-62.2	3.8	7.45e-01	0	41	104	0	78	9872
2026-01-20 23:21:10.57	231.66	7.22	-53.4	-62.2	3.8	7.45e-01	0	40	104	0	78	9905
2026-01-20 23:21:11.58	231.59	7.13	-53.4	-62.2	3.8	7.47e-01	0	41	104	0	78	9883
2026-01-20 23:21:12.59	231.53	7.05	-53.3	-62.2	3.8	7.46e-01	0	40	104	0	78	9847
2026-01-20 23:21:13.60	231.47	6.96	-53.3	-62.1	3.8	7.46e-01	0	41	104	0	78	9815
2026-01-20 23:21:14.61	231.41	6.87	-53.3	-62.1	3.8	7.46e-01	0	41	104	0	78	9825
2026-01-20 23:21:15.62	231.35	6.78	-53.3	-62.1	3.8	7.45e-01	0	40	104	0	78	9823
2026-01-20 23:21:16.63	231.29	6.70	-53.3	-62.1	3.8	7.45e-01	0	41	104	0	78	9801
2026-01-20 23:21:17.64	231.23	6.61	-53.3	-62.1	3.8	7.44e-01	0	40	104	0	78	9778
2026-01-20 23:21:18.64	231.17	6.53	-53.3	-62.1	3.8	7.45e-01	0	40	104	0	78	9809
2026-01-20 23:21:19.65	231.11	6.44	-53.3	-62.1	3.8	7.46e-01	0	40	104	0	78	9797
2026-01-20 23:21:20.66	231.05	6.36	-53.2	-62.0	3.8	7.46e-01	0	40	104	0	78	9714
2026-01-20 23:21:21.67	230.99	6.27	-53.2	-62.1	3.8	7.43e-01	0	40	104	0	78	9736
2026-01-20 23:21:22.67	230.94	6.19	-53.3	-62.1	3.8	7.46e-01	0	41	104	0	78	9802
2026-01-20 23:21:23.68	230.88	6.10	-53.3	-62.1	3.8	7.46e-01	0	41	104	0	78	9761
2026-01-20 23:21:24.69	230.82	6.02	-53.2	-62.0	3.8	7.45e-01	0	41	104	0	78	9672
2026-01-20 23:21:25.70	230.77	5.94	-53.2	-62.0	3.8	7.45e-01	0	41	104	0	78	9671
2026-01-20 23:21:26.71	230.71	5.85	-53.2	-62.1	3.8	7.46e-01	0	41	104	0	78	9718
2026-01-20 23:21:27.72	230.66	5.77	-53.3	-62.1	3.8	7.47e-01	0	41	104	0	78	9759
2026-01-20 23:21:28.72	230.60	5.69	-53.2	-62.0	3.8	7.45e-01	0	40	104	0	78	9624
2026-01-20 23:21:29.74	230.55	5.60	-53.1	-61.9	3.8	7.44e-01	0	41	104	0	78	9604
2026-01-20 23:21:30.74	230.49	5.52	-53.2	-62.0	3.8	7.46e-01	0	40	104	0	78	9704
2026-01-20 23:21:31.75	230.44	5.44	-53.2	-62.0	3.8	7.46e-01	0	41	104	0	78	9686
2026-01-20 23:21:32.76	230.39	5.36	-53.1	-62.0	3.8	7.45e-01	0	41	104	0	78	9609
2026-01-20 23:21:33.77	230.33	5.28	-53.1	-61.9	3.8	7.45e-01	0	41	104	0	78	9551
2026-01-20 23:21:34.77	230.28	5.20	-53.2	-62.0	3.8	7.44e-01	0	41	104	0	78	9671
2026-01-20 23:21:35.78	230.23	5.12	-53.1	-62.0	3.8	7.45e-01	0	41	104	0	78	9613
2026-01-20 23:21:36.79	230.18	5.04	-53.0	-61.9	3.8	7.44e-01	0	41	104	0	78	9522
2026-01-20 23:21:37.80	230.13	4.96	-53.1	-62.0	3.8	7.46e-01	0	41	104	0	78	9631
2026-01-20 23:21:38.81	230.08	4.88	-53.5	-62.3	3.8	7.45e-01	0	41	104	0	78	10016
2026-01-20 23:21:39.81	230.03	4.80	-53.7	-62.6	3.8	7.47e-01	0	40	104	0	78	10306
2026-01-20 23:21:40.82	229.97	4.72	-53.8	-62.7	3.8	7.46e-01	0	40	104	0	78	10449
2026-01-20 23:21:41.83	229.92	4.64	-53.9	-62.8	3.8	7.45e-01	0	40	104	0	78	10534
2026-01-20 23:21:42.84	229.88	4.57	-54.0	-62.8	3.8	7.44e-01	0	41	104	0	78	10654
2026-01-20 23:21:43.85	229.83	4.49	-54.1	-62.9	3.8	7.46e-01	0	40	104	0	78	10680
2026-01-20 23:21:44.86	229.78	4.41	-54.1	-62.9	3.8	7.45e-01	0	41	104	0	78	10748
2026-01-20 23:21:45.86	229.73	4.33	-54.1	-63.0	3.8	7.46e-01	0	40	104	0	78	10789
2026-01-20 23:21:46.87	229.68	4.26	-54.1	-63.0	3.8	7.44e-01	0	40	104	0	78	10800
2026-01-20 23:21:47.88	229.63	4.18	-54.2	-63.0	3.8	7.46e-01	0	40	104	0	78	10837
2026-01-20 23:21:48.89	229.59	4.10	-54.2	-63.0	3.8	7.46e-01	0	41	104	0	78	10829
2026-01-20 23:21:49.90	229.54	4.03	-54.1	-63.0	3.8	7.46e-01	0	41	104	0	78	10794
2026-01-20 23:21:50.91	229.49	3.95	-54.1	-62.9	3.8	7.45e-01	0	40	104	0	78	10768
2026-01-20 23:21:51.92	229.45	3.88	-54.1	-62.9	3.8	7.47e-01	0	40	104	0	78	10756
2026-01-20 23:21:52.93	229.40	3.80	-54.1	-62.9	3.8	7.47e-01	0	40	104	0	78	10731
2026-01-20 23:21:53.94	229.35	3.73	-54.0	-62.9	3.8	7.48e-01	0	41	104	0	78	10670
2026-01-20 23:21:54.95	229.31	3.65	-53.9	-62.8	3.8	7.45e-01	0	41	104	0	78	10563
2026-01-20 23:21:55.95	229.26	3.58	-53.9	-62.8	3.8	7.45e-01	0	40	104	0	78	10558
2026-01-20 23:21:56.96	229.22	3.50	-54.0	-62.8	3.8	7.47e-01	0	40	104	0	78	10615
2026-01-20 23:21:57.97	229.17	3.43	-54.0	-62.8	3.8	7.45e-01	0	40	104	0	78	10581
2026-01-20 23:21:58.98	229.13	3.35	-54.0	-62.9	3.8	7.45e-01	0	41	104	0	78	10667
2026-01-20 23:21:59.99	229.09	3.28	-54.1	-62.9	3.8	7.44e-01	0	40	104	0	78	10719
2026-01-20 23:22:00.99	229.04	3.21	-54.0	-62.9	3.8	7.45e-01	0	40	104	0	78	10672
2026-01-20 23:22:02.00	229.00	3.13	-54.0	-62.8	3.8	7.45e-01	0	41	104	0	78	10648
2026-01-20 23:22:03.01	228.96	3.06	-54.0	-62.8	3.8	7.44e-01	0	41	104	0	78	10643
2026-01-20 23:22:04.02	228.91	2.99	-54.0	-62.8	3.8	7.46e-01	0	41	104	0	78	10615
2026-01-20 23:22:05.03	228.87	2.92	-54.0	-62.8	3.8	7.45e-01	0	41	104	0	78	10640
2026-01-20 23:22:06.04	228.83	2.84	-54.0	-62.8	3.8	7.44e-01	0	40	104	0	78	10608
2026-01-20 23:22:07.05	228.79	2.77	-54.0	-62.8	3.8	7.44e-01	0	41	104	0	78	10621
2026-01-20 23:22:08.05	228.75	2.70	-54.0	-62.8	3.8	7.46e-01	0	41	104	0	78	10594
2026-01-20 23:22:09.06	228.71	2.63	-54.0	-62.8	3.8	7.44e-01	0	41	104	0	78	10610
2026-01-20 23:22:10.07	228.66	2.56	-54.0	-62.8	3.8	7.45e-01	0	40	104	0	78	10605
2026-01-20 23:22:11.08	228.62	2.49	-54.0	-62.8	3.8	7.46e-01	0	41	104	0	78	10606
2026-01-20 23:22:12.09	228.58	2.42	-54.0	-62.8	3.8	7.44e-01	0	41	104	0	78	10543
2026-01-20 23:22:13.10	228.54	2.35	-54.0	-62.8	3.8	7.44e-01	0	40	104	0	78	10558
2026-01-20 23:22:14.10	228.50	2.28	-54.0	-62.8	3.8	7.44e-01	0	41	104	0	78	10606
2026-01-20 23:22:15.11	228.46	2.21	-54.0	-62.8	3.8	7.45e-01	0	40	104	0	78	10576
2026-01-20 23:22:16.12	228.42	2.14	-54.0	-62.8	3.8	7.43e-01	0	41	104	0	78	10577
2026-01-20 23:22:17.13	228.39	2.07	-53.9	-62.8	3.8	7.45e-01	0	41	104	0	78	10555
2026-01-20 23:22:18.14	228.35	2.00	-54.0	-62.8	3.8	7.47e-01	0	40	104	0	78	10584
2026-01-20 23:22:19.15	228.31	1.93	-53.9	-62.8	3.8	7.45e-01	0	41	104	0	78	10538

#Closed at: 2026-01-20 23:22:20
#Recorded file [0 MB]: D:/lorett/data/31041_260121_021205.dat