passes_logs/2026/01/20/R3.2S_Murmansk/R3.2S_Murmansk__20260120_233914_NOAA_20_JPSS-1_rec.log

#Pass ID: 20260120_233914_NOAA 20 (JPSS-1)
#Satellite: NOAA 20 (JPSS-1)
#Configuration: NOAA 20
#almurnet v.1.7.20251203
#Start time: 2026-01-20 23:39:16

#Version: 2.2.20231116
#Station: R3.2S_Murmansk
#Location: 33.079688 lon 68.888172 lat
#TLE: 1 43013U 17073A   26020.26397077  .00000127  00000+0  80954-4 0  9999
#TLE: 2 43013  98.7643 321.1479 0001288  31.3158 328.8095 14.19537595423482

#Time	Az	El	Level	Level2	SNR	BER	BlckErr	Temp	State	Recorded	gain1	gain2
2026-01-20 23:39:16.48	21.30	2.12	-53.9	-68.9	3.8	1.49e+00	0	38	0	0	78	21402
2026-01-20 23:39:17.49	21.34	2.18	-53.9	-68.9	3.8	1.49e+00	0	38	104	0	78	21451
2026-01-20 23:39:18.50	21.37	2.25	-53.9	-68.9	3.8	1.49e+00	0	38	104	0	78	21297
2026-01-20 23:39:19.51	21.40	2.31	-53.8	-68.8	3.8	1.49e+00	0	38	104	0	78	21130
2026-01-20 23:39:20.52	21.44	2.37	-53.8	-68.8	3.8	1.49e+00	0	38	104	0	78	21111
2026-01-20 23:39:21.53	21.47	2.44	-53.8	-68.8	3.8	1.49e+00	0	38	104	0	78	21044
2026-01-20 23:39:22.54	21.50	2.50	-53.8	-68.8	3.8	1.49e+00	0	38	104	0	78	21069
2026-01-20 23:39:23.55	21.54	2.56	-53.8	-68.8	3.8	1.49e+00	0	38	104	0	78	21096
2026-01-20 23:39:24.55	21.57	2.63	-53.7	-68.7	3.8	1.49e+00	0	38	104	0	78	20883
2026-01-20 23:39:25.56	21.60	2.69	-53.6	-68.6	3.8	1.49e+00	0	38	104	0	78	20667
2026-01-20 23:39:26.57	21.64	2.75	-53.6	-68.5	3.8	1.49e+00	0	38	104	0	78	20498
2026-01-20 23:39:27.58	21.67	2.82	-53.5	-68.5	3.8	1.49e+00	0	38	104	0	78	20345
2026-01-20 23:39:28.59	21.71	2.88	-53.4	-68.4	3.8	1.49e+00	0	38	104	0	78	20228
2026-01-20 23:39:29.59	21.74	2.95	-53.3	-68.3	3.8	1.49e+00	0	38	104	0	78	19874
2026-01-20 23:39:30.60	21.78	3.01	-53.2	-68.1	3.8	1.49e+00	0	38	104	0	78	19547
2026-01-20 23:39:31.61	21.81	3.08	-53.0	-68.0	3.8	1.49e+00	0	38	104	0	78	19224
2026-01-20 23:39:32.62	21.85	3.14	-52.8	-67.8	3.8	1.49e+00	0	38	104	0	77	19849
2026-01-20 23:39:33.63	21.88	3.21	-52.4	-67.3	3.8	1.49e+00	0	38	104	0	76	20030
2026-01-20 23:39:34.64	21.92	3.27	-52.1	-66.7	3.8	1.49e+00	0	38	104	0	76	18698
2026-01-20 23:39:35.65	21.95	3.34	-52.0	-66.5	3.8	1.49e+00	0	38	104	0	76	18221
2026-01-20 23:39:36.66	21.99	3.40	-52.0	-66.5	3.8	1.49e+00	0	38	104	0	76	18232
2026-01-20 23:39:37.67	22.02	3.47	-52.0	-66.4	3.8	1.49e+00	0	38	104	0	76	17931
2026-01-20 23:39:38.67	22.06	3.53	-52.0	-66.1	3.8	1.49e+00	0	38	104	0	76	17329
2026-01-20 23:39:39.68	22.09	3.60	-52.0	-65.3	3.8	1.49e+00	0	38	104	0	76	15938
2026-01-20 23:39:40.69	22.13	3.67	-51.9	-63.7	4.1	1.46e+00	0	38	104	0	75	14007
2026-01-20 23:39:41.70	22.17	3.73	-51.7	-62.3	4.6	1.27e+00	0	38	0	0	75	11821
2026-01-20 23:39:42.71	22.20	3.80	-51.5	-60.3	5.7	7.08e-01	0	39	0	2097152	75	9441
2026-01-20 23:39:43.72	22.24	3.87	-51.2	-58.4	7.2	2.49e-01	0	38	0	4194304	74	8079
2026-01-20 23:39:44.73	22.27	3.93	-50.9	-57.2	8.5	6.95e-02	0	38	0	6291456	73	7401
2026-01-20 23:39:45.73	22.31	4.00	-50.4	-55.6	10.1	1.52e-02	0	39	0	7340032	72	6535
2026-01-20 23:39:46.74	22.35	4.07	-50.2	-54.9	10.8	3.87e-03	0	38	0	9437184	72	6050
2026-01-20 23:39:47.75	22.38	4.13	-49.9	-54.2	11.6	6.96e-04	0	39	0	11534336	71	5921
2026-01-20 23:39:48.76	22.42	4.20	-49.2	-52.7	13.2	8.08e-05	0	38	0	13631488	70	5263
2026-01-20 23:39:49.77	22.46	4.27	-49.0	-52.3	13.7	1.52e-05	0	39	0	15728640	70	5006
2026-01-20 23:39:50.77	22.50	4.34	-48.9	-52.1	14.0	3.80e-06	0	38	0	16777216	69	5185
2026-01-20 23:39:51.78	22.53	4.40	-48.8	-51.9	14.1	2.20e-06	0	39	0	18874368	69	5066
2026-01-20 23:39:52.79	22.57	4.47	-48.8	-52.0	14.1	1.50e-06	0	39	0	20971520	69	5102
2026-01-20 23:39:53.80	22.61	4.54	-48.9	-52.1	14.0	0.00e+00	0	39	0	23068672	69	5171
2026-01-20 23:39:54.80	22.65	4.61	-49.1	-52.5	13.6	1.50e-06	0	39	0	25165824	69	5425
2026-01-20 23:39:55.81	22.68	4.68	-49.4	-53.1	12.9	1.06e-05	0	39	0	27262976	69	5842
2026-01-20 23:39:56.82	22.72	4.74	-49.6	-53.5	12.5	7.62e-05	0	39	0	28311552	69	6080
2026-01-20 23:39:57.83	22.76	4.81	-50.0	-54.4	11.6	4.83e-04	0	39	0	30408704	70	6360
2026-01-20 23:39:58.84	22.80	4.88	-50.5	-55.8	10.1	2.89e-03	0	38	0	32505856	71	7074
2026-01-20 23:39:59.85	22.84	4.95	-50.8	-56.8	8.9	1.94e-02	0	39	0	34603008	72	7535
2026-01-20 23:40:00.86	22.88	5.02	-51.3	-59.0	6.7	1.40e-01	0	39	0	35651584	73	9137
2026-01-20 23:40:01.86	22.92	5.09	-48.9	-51.9	14.1	2.43e-02	0	39	0	37748736	69	5078
2026-01-20 23:40:02.87	22.96	5.16	-51.9	-65.7	3.9	2.93e-03	0	39	0	39845888	74	18617
2026-01-20 23:40:03.88	23.00	5.23	-50.3	-55.1	10.7	7.41e-01	0	39	104	39845888	72	6140
2026-01-20 23:40:04.89	23.04	5.30	-48.5	-51.3	14.8	2.97e-05	0	39	0	40894464	68	5009
2026-01-20 23:40:05.90	23.07	5.37	-52.0	-65.9	3.8	2.88e-03	0	39	104	42991616	74	18998
2026-01-20 23:40:06.91	23.11	5.44	-48.7	-51.6	14.2	5.18e-01	0	39	104	42991616	69	4894
2026-01-20 23:40:07.92	23.16	5.51	-48.6	-51.5	14.6	7.00e-07	0	39	0	44040192	68	5127
2026-01-20 23:40:08.93	23.20	5.58	-48.4	-51.1	15.1	0.00e+00	0	39	0	46137344	68	4891
2026-01-20 23:40:09.93	23.24	5.65	-48.5	-51.3	14.9	0.00e+00	0	39	0	48234496	68	4986
2026-01-20 23:40:10.94	23.28	5.72	-48.4	-51.2	14.9	0.00e+00	0	39	0	50331648	68	4956
2026-01-20 23:40:11.95	23.32	5.79	-48.2	-50.7	15.5	0.00e+00	0	39	0	51380224	68	4701
2026-01-20 23:40:12.96	23.36	5.87	-48.3	-50.9	15.2	0.00e+00	0	39	0	53477376	68	4799
2026-01-20 23:40:13.97	23.40	5.94	-48.2	-50.7	15.5	0.00e+00	0	39	0	55574528	68	4694
2026-01-20 23:40:14.98	23.44	6.01	-48.1	-50.7	15.5	0.00e+00	0	39	0	57671680	68	4671
2026-01-20 23:40:15.98	23.48	6.08	-48.3	-50.9	15.3	0.00e+00	0	39	0	59768832	68	4795
2026-01-20 23:40:16.99	23.52	6.15	-47.8	-50.2	15.9	0.00e+00	0	39	0	60817408	67	4667
2026-01-20 23:40:18.00	23.57	6.23	-47.9	-50.3	15.8	0.00e+00	0	39	0	62914560	67	4723
2026-01-20 23:40:19.01	23.61	6.30	-47.8	-50.1	16.0	0.00e+00	0	39	0	65011712	67	4636
2026-01-20 23:40:20.01	23.65	6.37	-47.8	-50.2	15.9	0.00e+00	0	39	0	67108864	67	4698
2026-01-20 23:40:21.02	23.69	6.44	-47.6	-49.8	16.4	0.00e+00	0	39	0	69206016	67	4468
2026-01-20 23:40:22.03	23.73	6.52	-47.5	-49.8	16.4	0.00e+00	0	39	0	70254592	67	4455
2026-01-20 23:40:23.03	23.78	6.59	-47.6	-49.8	16.3	0.00e+00	0	39	0	72351744	66	4753
2026-01-20 23:40:24.04	23.82	6.66	-47.6	-49.9	16.3	0.00e+00	0	39	0	74448896	66	4784
2026-01-20 23:40:25.05	23.86	6.74	-47.5	-49.7	16.5	0.00e+00	0	39	0	76546048	66	4694
2026-01-20 23:40:26.06	23.91	6.81	-47.7	-49.9	16.3	0.00e+00	0	39	0	78643200	66	4808
2026-01-20 23:40:27.07	23.95	6.89	-47.4	-49.6	16.7	0.00e+00	0	39	0	79691776	66	4614
2026-01-20 23:40:28.07	23.99	6.96	-47.5	-49.7	16.6	0.00e+00	0	39	0	81788928	66	4670
2026-01-20 23:40:29.08	24.04	7.03	-47.6	-49.8	16.5	0.00e+00	0	39	0	83886080	66	4727
2026-01-20 23:40:30.09	24.08	7.11	-47.6	-49.8	16.4	0.00e+00	0	39	0	85983232	66	4748
2026-01-20 23:40:31.10	24.13	7.18	-47.4	-49.5	16.8	0.00e+00	0	39	0	88080384	66	4580
2026-01-20 23:40:32.11	24.17	7.26	-47.5	-49.6	16.7	0.00e+00	0	39	0	89128960	66	4632
2026-01-20 23:40:33.12	24.22	7.33	-47.6	-49.8	16.6	0.00e+00	0	39	0	91226112	66	4718
2026-01-20 23:40:34.12	24.26	7.41	-47.8	-50.2	16.1	0.00e+00	0	39	0	93323264	66	4936
2026-01-20 23:40:35.13	24.31	7.49	-47.6	-49.9	16.5	0.00e+00	0	39	0	95420416	66	4773
2026-01-20 23:40:36.14	24.35	7.56	-47.3	-49.4	16.9	0.00e+00	0	39	0	97517568	66	4508
2026-01-20 23:40:37.15	24.40	7.64	-47.4	-49.5	16.9	0.00e+00	0	39	0	98566144	66	4567
2026-01-20 23:40:38.15	24.44	7.71	-47.4	-49.5	16.8	0.00e+00	0	39	0	100663296	66	4589
2026-01-20 23:40:39.16	24.49	7.79	-47.4	-49.5	16.9	0.00e+00	0	39	0	102760448	66	4587
2026-01-20 23:40:40.17	24.53	7.87	-47.3	-49.3	17.1	0.00e+00	0	39	0	104857600	66	4471
2026-01-20 23:40:41.18	24.58	7.94	-47.2	-49.2	17.2	0.00e+00	0	39	0	106954752	66	4438
2026-01-20 23:40:42.19	24.63	8.02	-47.2	-49.2	17.2	0.00e+00	0	39	0	109051904	66	4407
2026-01-20 23:40:43.19	24.67	8.10	-47.3	-49.3	17.1	0.00e+00	0	39	0	110100480	66	4481
2026-01-20 23:40:44.20	24.72	8.18	-47.1	-49.0	17.4	0.00e+00	0	39	0	112197632	66	4328
2026-01-20 23:40:45.21	24.77	8.25	-47.1	-49.1	17.3	0.00e+00	0	39	0	114294784	66	4377
2026-01-20 23:40:46.22	24.82	8.33	-47.3	-49.3	17.2	0.00e+00	0	39	0	116391936	66	4458
2026-01-20 23:40:47.23	24.86	8.41	-47.3	-49.3	17.2	0.00e+00	0	39	0	117440512	66	4453
2026-01-20 23:40:48.24	24.91	8.49	-47.1	-49.1	17.4	0.00e+00	0	39	0	119537664	66	4362
2026-01-20 23:40:49.24	24.96	8.57	-47.0	-48.9	17.5	0.00e+00	0	39	0	121634816	66	4282
2026-01-20 23:40:50.25	25.01	8.65	-47.0	-48.9	17.5	0.00e+00	0	39	0	123731968	65	4531
2026-01-20 23:40:51.26	25.06	8.73	-47.0	-48.9	17.5	0.00e+00	0	39	0	125829120	65	4536
2026-01-20 23:40:52.27	25.11	8.81	-46.8	-48.6	17.9	0.00e+00	0	39	0	126877696	65	4347
2026-01-20 23:40:53.28	25.16	8.89	-46.9	-48.8	17.7	0.00e+00	0	39	0	128974848	65	4466
2026-01-20 23:40:54.28	25.21	8.97	-46.9	-48.8	17.7	0.00e+00	0	39	0	131072000	65	4479
2026-01-20 23:40:55.29	25.26	9.05	-46.9	-48.7	17.8	0.00e+00	0	39	0	133169152	65	4440
2026-01-20 23:40:56.30	25.31	9.13	-46.9	-48.7	17.8	0.00e+00	0	39	0	135266304	65	4422
2026-01-20 23:40:57.31	25.36	9.21	-47.0	-48.8	17.7	0.00e+00	0	39	0	137363456	65	4484
2026-01-20 23:40:58.31	25.41	9.29	-46.9	-48.7	17.8	0.00e+00	0	39	0	138412032	65	4421
2026-01-20 23:40:59.32	25.46	9.37	-46.9	-48.8	17.8	0.00e+00	0	39	0	140509184	65	4445
2026-01-20 23:41:00.33	25.51	9.45	-46.6	-48.4	18.2	0.00e+00	0	39	0	142606336	65	4249
2026-01-20 23:41:01.34	25.56	9.53	-46.7	-48.5	18.0	0.00e+00	0	39	0	144703488	65	4307
2026-01-20 23:41:02.35	25.61	9.62	-46.7	-48.5	18.0	0.00e+00	0	39	0	145752064	65	4326
2026-01-20 23:41:03.35	25.66	9.70	-46.8	-48.6	18.0	0.00e+00	0	39	0	147849216	65	4356
2026-01-20 23:41:04.36	25.71	9.78	-46.6	-48.4	18.2	0.00e+00	0	39	0	149946368	65	4248
2026-01-20 23:41:05.37	25.77	9.86	-46.9	-48.8	17.8	0.00e+00	0	39	0	152043520	65	4453
2026-01-20 23:41:06.38	25.82	9.95	-46.7	-48.5	18.0	0.00e+00	0	39	0	154140672	65	4315
2026-01-20 23:41:07.38	25.87	10.03	-46.7	-48.5	18.1	0.00e+00	0	39	0	156237824	65	4308
2026-01-20 23:41:08.39	25.93	10.11	-46.7	-48.5	18.1	0.00e+00	0	39	0	157286400	65	4298
2026-01-20 23:41:09.40	25.98	10.20	-46.7	-48.4	18.2	0.00e+00	0	39	0	159383552	65	4285
2026-01-20 23:41:10.41	26.03	10.28	-46.5	-48.2	18.4	0.00e+00	0	39	0	161480704	65	4180
2026-01-20 23:41:11.41	26.09	10.37	-46.6	-48.3	18.3	0.00e+00	0	39	0	163577856	65	4213
2026-01-20 23:41:12.42	26.14	10.45	-46.6	-48.3	18.3	0.00e+00	0	39	0	165675008	64	4468
2026-01-20 23:41:13.43	26.19	10.54	-46.4	-48.1	18.5	0.00e+00	0	39	0	166723584	64	4344
2026-01-20 23:41:14.44	26.25	10.62	-46.4	-48.1	18.5	0.00e+00	0	39	0	168820736	64	4359
2026-01-20 23:41:15.45	26.31	10.71	-46.4	-48.1	18.5	0.00e+00	0	39	0	170917888	64	4369
2026-01-20 23:41:16.45	26.36	10.79	-46.4	-48.0	18.6	0.00e+00	0	39	0	173015040	64	4334
2026-01-20 23:41:17.46	26.42	10.88	-46.4	-48.1	18.5	0.00e+00	0	39	0	174063616	64	4375
2026-01-20 23:41:18.47	26.47	10.96	-46.4	-48.1	18.5	0.00e+00	0	39	0	176160768	64	4365
2026-01-20 23:41:19.47	26.53	11.05	-46.4	-48.0	18.6	0.00e+00	0	39	0	178257920	64	4315
2026-01-20 23:41:20.48	26.58	11.14	-46.4	-48.0	18.6	0.00e+00	0	39	0	180355072	64	4327
2026-01-20 23:41:21.49	26.64	11.22	-46.2	-47.8	18.8	0.00e+00	0	39	0	182452224	64	4227
2026-01-20 23:41:22.50	26.70	11.31	-46.1	-47.7	19.0	0.00e+00	0	39	0	184549376	64	4150
2026-01-20 23:41:23.51	26.76	11.40	-46.0	-47.6	19.1	0.00e+00	0	39	0	185597952	64	4115
2026-01-20 23:41:24.51	26.81	11.49	-46.1	-47.7	19.0	0.00e+00	0	39	0	187695104	64	4164
2026-01-20 23:41:25.52	26.87	11.58	-46.0	-47.5	19.2	0.00e+00	0	39	0	189792256	63	4327
2026-01-20 23:41:26.53	26.93	11.66	-46.0	-47.5	19.2	0.00e+00	0	39	0	191889408	63	4319
2026-01-20 23:41:27.54	26.99	11.75	-46.0	-47.5	19.3	0.00e+00	0	39	0	193986560	63	4306
2026-01-20 23:41:28.55	27.05	11.84	-45.9	-47.4	19.3	0.00e+00	0	39	0	195035136	63	4282
2026-01-20 23:41:29.56	27.11	11.93	-45.8	-47.3	19.5	0.00e+00	0	39	0	197132288	63	4220
2026-01-20 23:41:30.56	27.17	12.02	-46.0	-47.5	19.3	0.00e+00	0	39	0	199229440	63	4315
2026-01-20 23:41:31.57	27.23	12.11	-45.8	-47.3	19.5	0.00e+00	0	39	0	201326592	63	4218
2026-01-20 23:41:32.58	27.29	12.20	-45.7	-47.2	19.6	0.00e+00	0	39	0	203423744	63	4146
2026-01-20 23:41:33.59	27.35	12.29	-45.8	-47.3	19.5	0.00e+00	0	39	0	204472320	63	4208
2026-01-20 23:41:34.59	27.41	12.38	-45.6	-47.0	19.8	0.00e+00	0	39	0	206569472	63	4065
2026-01-20 23:41:35.60	27.47	12.48	-45.6	-47.1	19.7	0.00e+00	0	39	0	208666624	63	4102
2026-01-20 23:41:36.61	27.53	12.57	-45.7	-47.1	19.7	0.00e+00	0	39	0	210763776	63	4117
2026-01-20 23:41:37.62	27.60	12.66	-45.5	-46.9	19.9	0.00e+00	0	39	0	212860928	63	4035
2026-01-20 23:41:38.63	27.66	12.75	-45.4	-46.8	20.0	0.00e+00	0	39	0	213909504	62	4212
2026-01-20 23:41:39.63	27.72	12.84	-45.5	-46.9	19.9	0.00e+00	0	39	0	216006656	62	4252
2026-01-20 23:41:40.64	27.79	12.94	-45.4	-46.8	20.0	0.00e+00	0	39	0	218103808	62	4196
2026-01-20 23:41:41.65	27.85	13.03	-45.5	-46.9	19.9	0.00e+00	0	39	0	220200960	62	4247
2026-01-20 23:41:42.65	27.91	13.12	-45.5	-46.8	20.0	0.00e+00	0	39	0	222298112	62	4227
2026-01-20 23:41:43.66	27.98	13.22	-45.5	-46.9	19.9	0.00e+00	0	39	0	223346688	62	4251
2026-01-20 23:41:44.67	28.04	13.31	-45.5	-46.9	19.9	0.00e+00	0	39	0	225443840	62	4271
2026-01-20 23:41:45.68	28.11	13.41	-45.5	-46.9	19.9	0.00e+00	0	39	0	227540992	62	4276
2026-01-20 23:41:46.69	28.17	13.50	-45.6	-46.9	19.9	0.00e+00	0	39	0	229638144	62	4288
2026-01-20 23:41:47.69	28.24	13.60	-45.4	-46.7	20.1	0.00e+00	0	39	0	231735296	62	4172
2026-01-20 23:41:48.70	28.31	13.69	-45.3	-46.7	20.2	0.00e+00	0	39	0	232783872	62	4148
2026-01-20 23:41:49.71	28.37	13.79	-45.3	-46.6	20.2	0.00e+00	0	39	0	234881024	62	4127
2026-01-20 23:41:50.71	28.44	13.89	-45.3	-46.6	20.2	0.00e+00	0	39	0	236978176	62	4111
2026-01-20 23:41:51.72	28.51	13.98	-45.3	-46.7	20.1	0.00e+00	0	39	0	239075328	62	4158
2026-01-20 23:41:52.73	28.58	14.08	-45.3	-46.7	20.2	0.00e+00	0	39	0	241172480	62	4153
2026-01-20 23:41:53.74	28.64	14.18	-45.3	-46.6	20.3	0.00e+00	0	39	0	242221056	62	4131
2026-01-20 23:41:54.75	28.71	14.28	-45.3	-46.7	20.2	0.00e+00	0	39	0	244318208	62	4161
2026-01-20 23:41:55.76	28.78	14.37	-45.4	-46.7	20.2	0.00e+00	0	39	0	246415360	62	4173
2026-01-20 23:41:56.76	28.85	14.47	-45.4	-46.8	20.1	0.00e+00	0	39	0	248512512	62	4219
2026-01-20 23:41:57.77	28.92	14.57	-45.3	-46.6	20.2	0.00e+00	0	39	0	250609664	62	4121
2026-01-20 23:41:58.78	28.99	14.67	-45.4	-46.7	20.1	0.00e+00	0	39	0	251658240	62	4176
2026-01-20 23:41:59.79	29.06	14.77	-45.3	-46.6	20.3	0.00e+00	0	39	0	253755392	62	4123
2026-01-20 23:42:00.79	29.14	14.87	-45.3	-46.6	20.2	0.00e+00	0	39	0	255852544	62	4141
2026-01-20 23:42:01.80	29.21	14.97	-45.4	-46.8	20.1	0.00e+00	0	39	0	257949696	62	4194
2026-01-20 23:42:02.81	29.28	15.07	-45.4	-46.8	20.1	0.00e+00	0	40	0	260046848	62	4198
2026-01-20 23:42:03.81	29.35	15.17	-45.4	-46.7	20.1	0.00e+00	0	39	0	261095424	62	4190
2026-01-20 23:42:04.82	29.43	15.27	-45.4	-46.7	20.2	0.00e+00	0	39	0	263192576	62	4166
2026-01-20 23:42:05.83	29.50	15.37	-45.3	-46.7	20.2	0.00e+00	0	39	0	265289728	62	4150
2026-01-20 23:42:06.84	29.57	15.48	-45.4	-46.8	20.1	0.00e+00	0	39	0	267386880	62	4206
2026-01-20 23:42:07.84	29.65	15.58	-45.3	-46.7	20.3	0.00e+00	0	39	0	269484032	62	4156
2026-01-20 23:42:08.85	29.72	15.68	-45.1	-46.4	20.5	0.00e+00	0	39	0	270532608	62	4027
2026-01-20 23:42:09.86	29.80	15.79	-45.2	-46.5	20.4	0.00e+00	0	39	0	272629760	62	4097
2026-01-20 23:42:10.87	29.88	15.89	-45.3	-46.6	20.3	0.00e+00	0	39	0	274726912	62	4130
2026-01-20 23:42:11.87	29.95	15.99	-45.4	-46.8	20.1	0.00e+00	0	39	0	276824064	62	4209
2026-01-20 23:42:12.88	30.03	16.10	-45.4	-46.8	20.1	0.00e+00	0	39	0	278921216	62	4209
2026-01-20 23:42:13.89	30.11	16.20	-45.3	-46.7	20.3	0.00e+00	0	39	0	279969792	62	4164
2026-01-20 23:42:14.90	30.19	16.31	-45.4	-46.7	20.2	0.00e+00	0	39	0	282066944	62	4183
2026-01-20 23:42:15.91	30.26	16.42	-45.2	-46.5	20.4	0.00e+00	0	39	0	284164096	62	4068
2026-01-20 23:42:16.92	30.34	16.52	-45.1	-46.3	20.6	0.00e+00	0	39	0	286261248	62	3997
2026-01-20 23:42:17.92	30.42	16.63	-45.1	-46.3	20.6	0.00e+00	0	39	0	288358400	62	4004
2026-01-20 23:42:18.93	30.50	16.73	-45.1	-46.4	20.6	0.00e+00	0	39	0	289406976	62	4016
2026-01-20 23:42:19.94	30.58	16.84	-44.9	-46.2	20.7	0.00e+00	0	39	0	291504128	61	4164
2026-01-20 23:42:20.95	30.67	16.95	-44.9	-46.2	20.7	0.00e+00	0	39	0	293601280	61	4168
2026-01-20 23:42:21.95	30.75	17.06	-44.9	-46.1	20.8	0.00e+00	0	39	0	295698432	61	4139
2026-01-20 23:42:22.96	30.83	17.17	-44.9	-46.1	20.8	0.00e+00	0	39	0	297795584	61	4123
2026-01-20 23:42:23.97	30.91	17.28	-44.9	-46.2	20.7	0.00e+00	0	39	0	298844160	61	4148
2026-01-20 23:42:24.98	31.00	17.39	-44.9	-46.1	20.8	0.00e+00	0	39	0	300941312	61	4124
2026-01-20 23:42:25.99	31.08	17.50	-44.8	-46.0	20.9	0.00e+00	0	39	0	303038464	61	4098
2026-01-20 23:42:26.99	31.17	17.61	-44.7	-45.9	21.0	0.00e+00	0	39	0	305135616	61	4041
2026-01-20 23:42:28.00	31.25	17.72	-44.7	-45.9	21.0	0.00e+00	0	39	0	307232768	61	4011
2026-01-20 23:42:29.01	31.34	17.83	-44.7	-45.9	21.0	0.00e+00	0	39	0	308281344	61	4034
2026-01-20 23:42:30.02	31.42	17.94	-44.8	-46.0	20.9	0.00e+00	0	39	0	310378496	61	4063
2026-01-20 23:42:31.03	31.51	18.05	-44.8	-46.1	20.8	0.00e+00	0	39	0	312475648	61	4110
2026-01-20 23:42:32.04	31.60	18.17	-44.8	-46.1	20.9	0.00e+00	0	39	0	314572800	61	4100
2026-01-20 23:42:33.05	31.69	18.28	-44.9	-46.2	20.7	0.00e+00	0	39	0	316669952	61	4169
2026-01-20 23:42:34.05	31.78	18.39	-45.0	-46.3	20.7	0.00e+00	0	39	0	317718528	61	4206
2026-01-20 23:42:35.06	31.87	18.51	-45.0	-46.3	20.7	0.00e+00	0	39	0	319815680	61	4196
2026-01-20 23:42:36.07	31.96	18.62	-45.2	-46.5	20.5	0.00e+00	0	39	0	321912832	61	4297
2026-01-20 23:42:37.08	32.05	18.74	-45.1	-46.4	20.6	0.00e+00	0	39	0	324009984	61	4245
2026-01-20 23:42:38.09	32.14	18.85	-45.1	-46.4	20.6	0.00e+00	0	39	0	326107136	61	4259
2026-01-20 23:42:39.10	32.23	18.97	-45.2	-46.5	20.5	0.00e+00	0	39	0	328204288	61	4309
2026-01-20 23:42:40.11	32.33	19.09	-45.3	-46.6	20.4	0.00e+00	0	39	0	329252864	61	4349
2026-01-20 23:42:41.12	32.42	19.21	-45.2	-46.5	20.5	0.00e+00	0	39	0	331350016	61	4305
2026-01-20 23:42:42.13	32.52	19.32	-45.2	-46.5	20.5	0.00e+00	0	39	0	333447168	61	4302
2026-01-20 23:42:43.14	32.61	19.44	-45.1	-46.4	20.5	0.00e+00	0	39	0	335544320	61	4277
2026-01-20 23:42:44.14	32.71	19.56	-45.1	-46.4	20.5	0.00e+00	0	39	0	336592896	61	4275
2026-01-20 23:42:45.15	32.80	19.68	-45.2	-46.5	20.5	0.00e+00	0	39	0	338690048	61	4332
2026-01-20 23:42:46.16	32.90	19.80	-45.3	-46.6	20.4	0.00e+00	0	39	0	340787200	61	4368
2026-01-20 23:42:47.17	33.00	19.92	-45.2	-46.5	20.5	0.00e+00	0	39	0	342884352	61	4332
2026-01-20 23:42:48.17	33.10	20.04	-45.2	-46.5	20.5	0.00e+00	0	40	0	344981504	61	4319
2026-01-20 23:42:49.18	33.20	20.16	-45.2	-46.5	20.5	0.00e+00	0	39	0	347078656	61	4334
2026-01-20 23:42:50.19	33.30	20.28	-45.3	-46.6	20.3	0.00e+00	0	39	0	348127232	61	4390
2026-01-20 23:42:51.20	33.40	20.40	-45.2	-46.5	20.5	0.00e+00	0	39	0	350224384	61	4325
2026-01-20 23:42:52.21	33.50	20.53	-45.2	-46.5	20.5	0.00e+00	0	39	0	352321536	61	4305
2026-01-20 23:42:53.21	33.60	20.65	-45.3	-46.6	20.4	0.00e+00	0	39	0	354418688	61	4363
2026-01-20 23:42:54.22	33.70	20.77	-45.3	-46.6	20.4	0.00e+00	0	39	0	356515840	61	4345
2026-01-20 23:42:55.23	33.81	20.90	-45.2	-46.5	20.5	0.00e+00	0	40	0	357564416	61	4301
2026-01-20 23:42:56.24	33.91	21.02	-45.2	-46.5	20.5	0.00e+00	0	39	0	359661568	61	4338
2026-01-20 23:42:57.25	34.02	21.15	-45.2	-46.4	20.6	0.00e+00	0	39	0	361758720	61	4286
2026-01-20 23:42:58.25	34.12	21.27	-45.2	-46.5	20.5	0.00e+00	0	39	0	363855872	61	4313
2026-01-20 23:42:59.26	34.23	21.40	-45.2	-46.5	20.5	0.00e+00	0	39	0	365953024	61	4301
2026-01-20 23:43:00.27	34.34	21.53	-45.2	-46.4	20.5	0.00e+00	0	39	0	367001600	61	4291
2026-01-20 23:43:01.28	34.45	21.65	-45.3	-46.6	20.5	0.00e+00	0	39	0	369098752	61	4358
2026-01-20 23:43:02.29	34.56	21.78	-45.2	-46.5	20.5	0.00e+00	0	40	0	371195904	61	4305
2026-01-20 23:43:03.30	34.67	21.91	-45.3	-46.6	20.4	0.00e+00	0	40	0	373293056	61	4358
2026-01-20 23:43:04.31	34.78	22.04	-45.2	-46.4	20.6	0.00e+00	0	40	0	375390208	61	4285
2026-01-20 23:43:05.32	34.90	22.17	-45.2	-46.5	20.6	0.00e+00	0	39	0	376438784	61	4299
2026-01-20 23:43:06.32	35.01	22.30	-45.1	-46.4	20.6	0.00e+00	0	39	0	378535936	61	4275
2026-01-20 23:43:07.33	35.12	22.43	-45.2	-46.5	20.5	0.00e+00	0	39	0	380633088	61	4321
2026-01-20 23:43:08.34	35.24	22.56	-45.1	-46.4	20.6	0.00e+00	0	39	0	382730240	61	4274
2026-01-20 23:43:09.34	35.35	22.69	-45.1	-46.4	20.7	0.00e+00	0	39	0	384827392	61	4255
2026-01-20 23:43:10.36	35.47	22.83	-45.2	-46.4	20.6	0.00e+00	0	40	0	385875968	61	4277
2026-01-20 23:43:11.36	35.59	22.96	-45.0	-46.2	20.8	0.00e+00	0	39	0	387973120	61	4187
2026-01-20 23:43:12.37	35.71	23.09	-45.0	-46.3	20.8	0.00e+00	0	39	0	390070272	61	4207
2026-01-20 23:43:13.38	35.83	23.23	-44.9	-46.1	20.9	0.00e+00	0	39	0	392167424	61	4136
2026-01-20 23:43:14.39	35.95	23.36	-44.9	-46.2	20.8	0.00e+00	0	40	0	394264576	61	4156
2026-01-20 23:43:15.39	36.07	23.49	-45.1	-46.3	20.7	0.00e+00	0	39	0	395313152	61	4217
2026-01-20 23:43:16.40	36.20	23.63	-45.0	-46.2	20.9	0.00e+00	0	39	0	397410304	61	4161
2026-01-20 23:43:17.41	36.32	23.77	-45.1	-46.4	20.7	0.00e+00	0	40	0	399507456	61	4257
2026-01-20 23:43:18.42	36.45	23.90	-45.1	-46.3	20.8	0.00e+00	0	39	0	401604608	61	4211
2026-01-20 23:43:19.43	36.57	24.04	-45.1	-46.4	20.7	0.00e+00	0	39	0	403701760	61	4257
2026-01-20 23:43:20.44	36.70	24.18	-45.1	-46.4	20.7	0.00e+00	0	39	0	404750336	61	4246
2026-01-20 23:43:21.44	36.83	24.32	-45.2	-46.5	20.6	0.00e+00	0	40	0	406847488	61	4324
2026-01-20 23:43:22.45	36.96	24.46	-45.3	-46.6	20.5	0.00e+00	0	39	0	408944640	61	4352
2026-01-20 23:43:23.46	37.09	24.60	-45.3	-46.6	20.5	0.00e+00	0	39	0	411041792	61	4351
2026-01-20 23:43:24.47	37.22	24.74	-45.4	-46.7	20.4	0.00e+00	0	39	0	413138944	61	4407
2026-01-20 23:43:25.47	37.35	24.88	-45.3	-46.6	20.5	0.00e+00	0	39	0	414187520	61	4375
2026-01-20 23:43:26.48	37.49	25.02	-45.3	-46.6	20.4	0.00e+00	0	39	0	416284672	61	4387
2026-01-20 23:43:27.49	37.62	25.16	-45.4	-46.7	20.4	0.00e+00	0	40	0	418381824	61	4405
2026-01-20 23:43:28.50	37.76	25.31	-45.4	-46.7	20.4	0.00e+00	0	40	0	420478976	61	4412
2026-01-20 23:43:29.51	37.90	25.45	-45.5	-46.8	20.3	0.00e+00	0	40	0	422576128	61	4460
2026-01-20 23:43:30.51	38.03	25.60	-45.6	-46.9	20.2	0.00e+00	0	40	0	423624704	61	4513
2026-01-20 23:43:31.52	38.17	25.74	-45.5	-46.8	20.3	0.00e+00	0	39	0	425721856	61	4464
2026-01-20 23:43:32.53	38.32	25.89	-45.6	-46.9	20.2	0.00e+00	0	40	0	427819008	61	4515
2026-01-20 23:43:33.54	38.46	26.03	-45.6	-47.0	20.1	0.00e+00	0	39	0	429916160	61	4554
2026-01-20 23:43:34.55	38.60	26.18	-45.7	-47.0	20.1	0.00e+00	0	40	0	432013312	61	4589
2026-01-20 23:43:35.56	38.75	26.33	-45.8	-47.2	19.9	0.00e+00	0	39	0	433061888	62	4431
2026-01-20 23:43:36.57	38.89	26.48	-46.0	-47.4	19.8	0.00e+00	0	39	0	435159040	62	4507
2026-01-20 23:43:37.57	39.04	26.62	-45.9	-47.4	19.8	0.00e+00	0	40	0	437256192	62	4498
2026-01-20 23:43:38.58	39.19	26.77	-46.0	-47.4	19.7	0.00e+00	0	39	0	439353344	62	4540
2026-01-20 23:43:39.59	39.34	26.92	-45.9	-47.3	19.9	0.00e+00	0	39	0	441450496	62	4468
2026-01-20 23:43:40.60	39.49	27.07	-46.0	-47.4	19.8	0.00e+00	0	39	0	443547648	62	4518
2026-01-20 23:43:41.61	39.65	27.22	-46.0	-47.5	19.7	0.00e+00	0	39	0	444596224	62	4551
2026-01-20 23:43:42.62	39.80	27.38	-45.9	-47.2	19.9	0.00e+00	0	40	0	446693376	62	4441
2026-01-20 23:43:43.62	39.96	27.53	-46.0	-47.4	19.8	0.00e+00	0	39	0	448790528	62	4511
2026-01-20 23:43:44.63	40.11	27.68	-46.0	-47.4	19.8	0.00e+00	0	39	0	450887680	62	4518
2026-01-20 23:43:45.64	40.27	27.84	-46.0	-47.4	19.7	0.00e+00	0	39	0	451936256	62	4538
2026-01-20 23:43:46.65	40.43	27.99	-46.2	-47.6	19.6	0.00e+00	0	39	0	454033408	62	4634
2026-01-20 23:43:47.66	40.60	28.14	-46.2	-47.6	19.5	0.00e+00	0	39	0	456130560	62	4650
2026-01-20 23:43:48.67	40.76	28.30	-46.3	-47.8	19.4	0.00e+00	0	39	0	458227712	63	4466
2026-01-20 23:43:49.68	40.93	28.46	-46.5	-48.0	19.2	0.00e+00	0	39	0	460324864	63	4566
2026-01-20 23:43:50.69	41.09	28.61	-46.5	-48.0	19.2	0.00e+00	0	39	0	462422016	63	4563
2026-01-20 23:43:51.69	41.26	28.77	-46.6	-48.2	19.1	0.00e+00	0	40	0	463470592	63	4652
2026-01-20 23:43:52.70	41.43	28.93	-46.7	-48.3	19.0	0.00e+00	0	40	0	465567744	63	4720
2026-01-20 23:43:53.71	41.60	29.09	-46.8	-48.4	18.8	0.00e+00	0	40	0	467664896	64	4531
2026-01-20 23:43:54.72	41.78	29.25	-46.9	-48.6	18.6	0.00e+00	0	39	0	469762048	64	4609
2026-01-20 23:43:55.73	41.95	29.41	-47.2	-48.9	18.3	0.00e+00	0	39	0	471859200	65	4544
2026-01-20 23:43:56.74	42.13	29.57	-47.3	-49.0	18.2	0.00e+00	0	39	0	472907776	65	4591
2026-01-20 23:43:57.75	42.31	29.73	-47.4	-49.2	18.0	0.00e+00	0	39	0	475004928	65	4687
2026-01-20 23:43:58.76	42.49	29.89	-47.5	-49.3	17.9	0.00e+00	0	39	0	477102080	65	4731
2026-01-20 23:43:59.77	42.67	30.06	-47.5	-49.4	17.8	0.00e+00	0	40	0	479199232	65	4782
2026-01-20 23:44:00.78	42.85	30.22	-47.6	-49.5	17.7	0.00e+00	0	39	0	480247808	65	4827
2026-01-20 23:44:01.79	43.04	30.38	-47.9	-49.8	17.4	0.00e+00	0	39	0	482344960	66	4753
2026-01-20 23:44:02.79	43.23	30.55	-48.0	-50.0	17.2	0.00e+00	0	40	0	484442112	66	4848
2026-01-20 23:44:03.80	43.41	30.71	-48.0	-50.0	17.2	0.00e+00	0	39	0	486539264	66	4856
2026-01-20 23:44:04.81	43.61	30.88	-48.1	-50.1	17.1	0.00e+00	0	40	0	488636416	66	4923
2026-01-20 23:44:05.82	43.80	31.04	-48.1	-50.1	17.1	0.00e+00	0	39	0	490733568	66	4889
2026-01-20 23:44:06.83	43.99	31.21	-48.2	-50.2	17.0	0.00e+00	0	40	0	491782144	66	4958
2026-01-20 23:44:07.84	44.19	31.38	-48.1	-50.2	17.1	0.00e+00	0	39	0	493879296	66	4931
2026-01-20 23:44:08.85	44.39	31.55	-48.0	-50.0	17.2	0.00e+00	0	40	0	495976448	66	4850
2026-01-20 23:44:09.86	44.59	31.72	-47.8	-49.7	17.6	0.00e+00	0	39	0	498073600	66	4659
2026-01-20 23:44:10.87	44.80	31.89	-47.7	-49.5	17.7	0.00e+00	0	39	0	500170752	66	4590
2026-01-20 23:44:11.88	45.00	32.06	-47.3	-49.1	18.2	0.00e+00	0	40	0	502267904	66	4352
2026-01-20 23:44:12.89	45.21	32.23	-47.3	-49.0	18.3	0.00e+00	0	39	0	503316480	66	4327
2026-01-20 23:44:13.89	45.42	32.40	-47.3	-49.0	18.2	0.00e+00	0	40	0	505413632	66	4335
2026-01-20 23:44:14.90	45.63	32.57	-47.2	-48.9	18.3	0.00e+00	0	40	0	507510784	66	4282
2026-01-20 23:44:15.91	45.84	32.74	-47.2	-48.9	18.3	0.00e+00	0	39	0	509607936	66	4254
2026-01-20 23:44:16.92	46.06	32.91	-47.2	-48.9	18.4	0.00e+00	0	39	0	510656512	66	4243
2026-01-20 23:44:17.93	46.28	33.09	-47.0	-48.6	18.6	0.00e+00	0	39	0	512753664	66	4137
2026-01-20 23:44:18.93	46.50	33.26	-46.6	-48.1	19.0	0.00e+00	0	39	0	514850816	65	4120
2026-01-20 23:44:19.94	46.72	33.43	-46.4	-47.9	19.3	0.00e+00	0	39	0	516947968	64	4268
2026-01-20 23:44:20.95	46.95	33.61	-46.1	-47.6	19.7	0.00e+00	0	40	0	519045120	64	4107
2026-01-20 23:44:21.96	47.17	33.78	-46.0	-47.4	19.9	0.00e+00	0	40	0	520093696	63	4286
2026-01-20 23:44:22.97	47.40	33.96	-46.0	-47.4	19.9	0.00e+00	0	39	0	522190848	63	4277
2026-01-20 23:44:23.97	47.63	34.14	-46.0	-47.4	19.8	0.00e+00	0	39	0	524288000	63	4287
2026-01-20 23:44:24.98	47.87	34.31	-46.0	-47.4	19.9	0.00e+00	0	40	0	526385152	63	4252
2026-01-20 23:44:25.99	48.11	34.49	-46.0	-47.4	19.9	0.00e+00	0	39	0	528482304	63	4278
2026-01-20 23:44:27.00	48.35	34.67	-46.0	-47.4	20.0	0.00e+00	0	40	0	530579456	63	4252
2026-01-20 23:44:28.01	48.59	34.85	-45.7	-47.0	20.3	0.00e+00	0	39	0	531628032	63	4070
2026-01-20 23:44:29.01	48.83	35.02	-45.5	-46.8	20.4	0.00e+00	0	39	0	533725184	63	3980
2026-01-20 23:44:30.02	49.08	35.20	-45.4	-46.6	20.7	0.00e+00	0	39	0	535822336	62	4129
2026-01-20 23:44:31.03	49.33	35.38	-45.2	-46.4	20.9	0.00e+00	0	39	0	537919488	62	4028
2026-01-20 23:44:32.04	49.59	35.56	-45.2	-46.4	20.9	0.00e+00	0	39	0	538968064	62	4026
2026-01-20 23:44:33.05	49.84	35.75	-45.3	-46.6	20.7	0.00e+00	0	39	0	541065216	62	4107
2026-01-20 23:44:34.06	50.10	35.93	-45.6	-46.9	20.4	0.00e+00	0	39	0	543162368	62	4274
2026-01-20 23:44:35.06	50.36	36.11	-45.9	-47.3	20.0	0.00e+00	0	39	0	545259520	62	4484
2026-01-20 23:44:36.07	50.63	36.29	-46.0	-47.3	20.0	0.00e+00	0	39	0	547356672	62	4485
2026-01-20 23:44:37.08	50.90	36.47	-45.9	-47.3	20.1	0.00e+00	0	39	0	549453824	62	4473
2026-01-20 23:44:38.09	51.17	36.65	-46.0	-47.4	19.9	0.00e+00	0	40	0	550502400	62	4529
2026-01-20 23:44:39.10	51.44	36.84	-45.5	-46.8	20.5	0.00e+00	0	39	0	552599552	62	4223
2026-01-20 23:44:40.11	51.72	37.02	-45.3	-46.5	20.8	0.00e+00	0	40	0	554696704	62	4065
2026-01-20 23:44:41.11	51.99	37.20	-45.0	-46.2	21.0	0.00e+00	0	39	0	556793856	62	3956
2026-01-20 23:44:42.12	52.28	37.39	-44.9	-46.1	21.2	0.00e+00	0	40	0	558891008	61	4125
2026-01-20 23:44:43.13	52.56	37.57	-45.0	-46.2	21.1	0.00e+00	0	39	0	559939584	61	4171
2026-01-20 23:44:44.13	52.85	37.75	-44.8	-46.0	21.3	0.00e+00	0	39	0	562036736	61	4070
2026-01-20 23:44:45.14	53.14	37.94	-44.6	-45.8	21.5	0.00e+00	0	40	0	564133888	61	3981
2026-01-20 23:44:46.15	53.44	38.12	-44.5	-45.6	21.6	0.00e+00	0	40	0	566231040	61	3901
2026-01-20 23:44:47.16	53.74	38.31	-44.5	-45.6	21.6	0.00e+00	0	40	0	567279616	61	3906
2026-01-20 23:44:48.17	54.04	38.49	-44.7	-45.8	21.4	0.00e+00	0	40	0	569376768	61	3990
2026-01-20 23:44:49.17	54.34	38.68	-44.9	-46.1	21.2	0.00e+00	0	39	0	571473920	61	4120
2026-01-20 23:44:50.18	54.65	38.86	-45.3	-46.6	20.7	0.00e+00	0	39	0	573571072	61	4358
2026-01-20 23:44:51.19	54.97	39.05	-45.6	-47.0	20.4	0.00e+00	0	39	0	575668224	61	4549
2026-01-20 23:44:52.20	55.28	39.23	-45.6	-46.9	20.4	0.00e+00	0	39	0	577765376	61	4528
2026-01-20 23:44:53.20	55.60	39.42	-45.6	-46.9	20.5	0.00e+00	0	40	0	578813952	61	4494
2026-01-20 23:44:54.21	55.92	39.60	-45.4	-46.6	20.7	0.00e+00	0	39	0	580911104	61	4377
2026-01-20 23:44:55.22	56.25	39.79	-45.2	-46.4	20.9	0.00e+00	0	39	0	583008256	61	4254
2026-01-20 23:44:56.22	56.58	39.97	-45.1	-46.3	21.0	0.00e+00	0	40	0	585105408	61	4210
2026-01-20 23:44:57.23	56.91	40.16	-45.0	-46.2	21.1	0.00e+00	0	40	0	587202560	61	4192
2026-01-20 23:44:58.24	57.25	40.34	-45.3	-46.6	20.4	0.00e+00	0	39	0	588251136	61	4361
2026-01-20 23:44:59.24	57.59	40.52	-45.8	-47.1	20.3	0.00e+00	0	40	0	590348288	62	4369
2026-01-20 23:45:00.25	57.94	40.71	-46.2	-47.6	19.8	0.00e+00	0	39	0	592445440	62	4610
2026-01-20 23:45:01.26	58.29	40.89	-46.3	-47.8	19.7	0.00e+00	0	39	0	594542592	63	4465
2026-01-20 23:45:02.27	58.64	41.08	-46.2	-47.7	19.7	0.00e+00	0	40	0	595591168	63	4401
2026-01-20 23:45:03.27	59.00	41.26	-46.0	-47.4	20.0	0.00e+00	0	40	0	597688320	63	4255
2026-01-20 23:45:04.28	59.36	41.44	-45.8	-47.1	20.2	0.00e+00	0	40	0	599785472	63	4125
2026-01-20 23:45:05.29	59.72	41.63	-45.7	-47.0	20.3	0.00e+00	0	40	0	601882624	63	4079
2026-01-20 23:45:06.30	60.10	41.81	-45.9	-47.3	20.1	0.00e+00	0	39	0	603979776	63	4205
2026-01-20 23:45:07.31	60.47	41.99	-46.2	-47.6	19.8	0.00e+00	0	40	0	606076928	63	4348
2026-01-20 23:45:08.32	60.85	42.18	-46.5	-48.0	19.4	0.00e+00	0	39	0	607125504	63	4586
2026-01-20 23:45:09.32	61.23	42.36	-46.5	-48.0	19.4	0.00e+00	0	40	0	609222656	63	4570
2026-01-20 23:45:10.33	61.61	42.54	-46.3	-47.8	19.7	0.00e+00	0	39	0	611319808	63	4449
2026-01-20 23:45:11.34	62.01	42.72	-46.1	-47.5	20.0	0.00e+00	0	39	0	613416960	63	4303
2026-01-20 23:45:12.34	62.40	42.90	-46.0	-47.3	20.0	0.00e+00	0	40	0	615514112	63	4241
2026-01-20 23:45:13.35	62.80	43.08	-45.8	-47.1	20.3	0.00e+00	0	40	0	616562688	63	4107
2026-01-20 23:45:14.36	63.20	43.26	-45.6	-46.9	20.5	0.00e+00	0	40	0	618659840	63	4027
2026-01-20 23:45:15.37	63.61	43.44	-45.7	-47.0	20.4	0.00e+00	0	40	0	620756992	63	4086
2026-01-20 23:45:16.37	64.02	43.61	-46.2	-47.6	19.8	0.00e+00	0	39	0	622854144	63	4350
2026-01-20 23:45:17.38	64.44	43.79	-46.4	-47.9	19.5	0.00e+00	0	40	0	624951296	63	4524
2026-01-20 23:45:18.39	64.86	43.96	-46.3	-47.7	19.6	0.00e+00	0	39	0	625999872	63	4433
2026-01-20 23:45:19.39	65.29	44.14	-46.0	-47.3	20.1	0.00e+00	0	40	0	628097024	63	4223
2026-01-20 23:45:20.40	65.72	44.31	-45.8	-47.1	20.3	0.00e+00	0	39	0	630194176	63	4132
2026-01-20 23:45:21.41	66.16	44.48	-45.6	-46.9	20.5	0.00e+00	0	40	0	632291328	63	4036
2026-01-20 23:45:22.42	66.60	44.66	-45.6	-46.9	20.5	0.00e+00	0	39	0	634388480	63	4023
2026-01-20 23:45:23.42	67.04	44.82	-45.8	-47.1	20.3	0.00e+00	0	40	0	635437056	63	4111
2026-01-20 23:45:24.43	67.49	44.99	-46.1	-47.5	19.9	0.00e+00	0	39	0	637534208	63	4312
2026-01-20 23:45:25.44	67.95	45.16	-46.3	-47.7	19.6	0.00e+00	0	40	0	639631360	63	4426
2026-01-20 23:45:26.45	68.41	45.33	-46.1	-47.5	20.0	0.00e+00	0	40	0	641728512	63	4296
2026-01-20 23:45:27.45	68.87	45.49	-45.8	-47.1	20.2	0.00e+00	0	40	0	643825664	63	4120
2026-01-20 23:45:28.46	69.34	45.66	-45.6	-46.8	20.5	0.00e+00	0	40	0	644874240	63	3993
2026-01-20 23:45:29.46	69.81	45.82	-45.3	-46.5	20.8	0.00e+00	0	39	0	646971392	62	4080
2026-01-20 23:45:30.47	70.29	45.98	-45.8	-47.1	20.3	0.00e+00	0	39	0	649068544	62	4370
2026-01-20 23:45:31.48	70.77	46.14	-46.3	-47.7	19.7	0.00e+00	0	40	0	651165696	63	4430
2026-01-20 23:45:32.49	71.26	46.30	-46.5	-48.0	19.4	0.00e+00	0	40	0	653262848	63	4584
2026-01-20 23:45:33.50	71.76	46.46	-46.6	-48.1	19.4	0.00e+00	0	40	0	654311424	63	4600
2026-01-20 23:45:34.51	72.26	46.61	-46.5	-48.0	19.4	0.00e+00	0	39	0	656408576	63	4552
2026-01-20 23:45:35.52	72.76	46.77	-46.4	-47.9	19.5	0.00e+00	0	40	0	658505728	63	4531
2026-01-20 23:45:36.52	73.26	46.92	-45.8	-47.1	20.3	0.00e+00	0	40	0	660602880	63	4121
2026-01-20 23:45:37.53	73.78	47.07	-45.7	-47.0	20.3	0.00e+00	0	40	0	662700032	63	4096
2026-01-20 23:45:38.54	74.30	47.21	-46.1	-47.5	19.9	0.00e+00	0	39	0	663748608	63	4323
2026-01-20 23:45:39.54	74.82	47.36	-46.8	-48.3	19.0	0.00e+00	0	40	0	665845760	64	4487
2026-01-20 23:45:40.55	75.34	47.50	-47.2	-48.9	18.4	0.00e+00	0	40	0	667942912	65	4515
2026-01-20 23:45:41.56	75.88	47.64	-47.0	-48.6	18.7	0.00e+00	0	39	0	670040064	65	4385
2026-01-20 23:45:42.57	76.42	47.78	-46.5	-48.0	19.3	0.00e+00	0	40	0	672137216	65	4094
2026-01-20 23:45:43.58	76.96	47.92	-46.4	-47.9	19.5	0.00e+00	0	40	0	673185792	64	4269
2026-01-20 23:45:44.59	77.51	48.05	-46.5	-48.0	19.4	0.00e+00	0	40	0	675282944	64	4297
2026-01-20 23:45:45.59	78.05	48.18	-46.4	-47.9	19.4	0.00e+00	0	40	0	677380096	64	4261
2026-01-20 23:45:46.60	78.61	48.31	-46.4	-47.9	19.4	0.00e+00	0	40	0	679477248	64	4265
2026-01-20 23:45:47.61	79.17	48.44	-46.8	-48.3	19.1	0.00e+00	0	40	0	681574400	64	4469
2026-01-20 23:45:48.62	79.74	48.57	-47.1	-48.7	18.6	0.00e+00	0	40	0	682622976	64	4693
2026-01-20 23:45:49.62	80.30	48.69	-47.3	-49.0	18.4	0.00e+00	0	39	0	684720128	65	4585
2026-01-20 23:45:50.63	80.88	48.81	-47.3	-49.0	18.5	0.00e+00	0	39	0	686817280	65	4554
2026-01-20 23:45:51.64	81.46	48.92	-47.7	-49.5	17.9	0.00e+00	0	40	0	688914432	66	4587
2026-01-20 23:45:52.65	82.04	49.04	-47.8	-49.7	17.7	0.00e+00	0	39	0	691011584	66	4672
2026-01-20 23:45:53.65	82.62	49.15	-47.4	-49.1	18.3	0.00e+00	0	40	0	692060160	66	4379
2026-01-20 23:45:54.66	83.22	49.26	-46.8	-48.3	19.1	0.00e+00	0	40	0	694157312	65	4210
2026-01-20 23:45:55.67	83.81	49.36	-46.4	-47.9	19.5	0.00e+00	0	40	0	696254464	64	4244
2026-01-20 23:45:56.68	84.41	49.46	-47.0	-48.6	18.8	0.00e+00	0	40	0	698351616	64	4620
2026-01-20 23:45:57.68	85.01	49.56	-47.8	-49.6	17.8	0.00e+00	0	40	0	700448768	66	4650
2026-01-20 23:45:58.69	85.62	49.66	-47.9	-49.8	17.7	0.00e+00	0	40	0	701497344	66	4715
2026-01-20 23:45:59.70	86.23	49.75	-47.8	-49.7	17.7	0.00e+00	0	40	0	703594496	66	4666
2026-01-20 23:46:00.70	86.84	49.84	-47.6	-49.4	17.9	0.00e+00	0	40	0	705691648	66	4545
2026-01-20 23:46:01.71	87.46	49.93	-46.8	-48.3	19.1	0.00e+00	0	39	0	707788800	65	4217
2026-01-20 23:46:02.72	88.08	50.01	-46.0	-47.3	20.1	0.00e+00	0	40	0	709885952	63	4240
2026-01-20 23:46:03.73	88.71	50.09	-45.7	-47.0	20.3	0.00e+00	0	40	0	710934528	63	4074
2026-01-20 23:46:04.73	89.33	50.16	-46.3	-47.8	19.7	0.00e+00	0	40	0	713031680	63	4453
2026-01-20 23:46:05.74	89.96	50.24	-46.7	-48.3	19.0	0.00e+00	0	40	0	715128832	64	4471
2026-01-20 23:46:06.75	90.60	50.31	-47.0	-48.6	18.8	0.00e+00	0	40	0	717225984	64	4638
2026-01-20 23:46:07.76	91.24	50.37	-46.8	-48.4	19.0	0.00e+00	0	39	0	719323136	64	4523
2026-01-20 23:46:08.77	91.88	50.43	-46.5	-48.0	19.4	0.00e+00	0	40	0	720371712	64	4306
2026-01-20 23:46:09.77	92.52	50.49	-46.1	-47.5	19.8	0.00e+00	0	39	0	722468864	64	4098
2026-01-20 23:46:10.78	93.16	50.55	-45.3	-46.5	20.8	0.00e+00	0	40	0	724566016	62	4055
2026-01-20 23:46:11.79	93.81	50.60	-44.9	-46.0	21.3	0.00e+00	0	39	0	726663168	61	4087
2026-01-20 23:46:12.79	94.45	50.65	-44.9	-46.0	21.3	0.00e+00	0	39	0	728760320	61	4088
2026-01-20 23:46:13.80	95.11	50.69	-44.9	-46.1	21.2	0.00e+00	0	40	0	729808896	61	4132
2026-01-20 23:46:14.81	95.76	50.73	-45.4	-46.7	20.7	0.00e+00	0	39	0	731906048	61	4414
2026-01-20 23:46:15.82	96.41	50.76	-46.1	-47.5	20.0	0.00e+00	0	39	0	734003200	62	4562
2026-01-20 23:46:16.83	97.07	50.80	-46.1	-47.5	19.9	0.00e+00	0	40	0	736100352	63	4334
2026-01-20 23:46:17.84	97.73	50.83	-45.7	-47.0	20.4	0.00e+00	0	40	0	738197504	63	4067
2026-01-20 23:46:18.84	98.38	50.85	-45.4	-46.7	20.7	0.00e+00	0	40	0	739246080	62	4174
2026-01-20 23:46:19.85	99.04	50.87	-44.9	-46.1	21.3	0.00e+00	0	40	0	741343232	61	4124
2026-01-20 23:46:20.86	99.70	50.89	-45.0	-46.2	21.1	0.00e+00	0	39	0	743440384	61	4182
2026-01-20 23:46:21.87	100.37	50.90	-45.3	-46.6	20.8	0.00e+00	0	39	0	745537536	61	4345
2026-01-20 23:46:22.87	101.02	50.91	-45.4	-46.7	20.7	0.00e+00	0	39	0	747634688	61	4411
2026-01-20 23:46:23.88	101.68	50.91	-45.7	-47.1	20.3	0.00e+00	0	40	0	749731840	62	4343
2026-01-20 23:46:24.89	102.35	50.91	-46.4	-47.8	19.6	0.00e+00	0	40	0	750780416	63	4485
2026-01-20 23:46:25.90	103.01	50.91	-46.8	-48.4	19.0	0.00e+00	0	40	0	752877568	64	4543
2026-01-20 23:46:26.91	103.67	50.90	-46.6	-48.1	19.2	0.00e+00	0	40	0	754974720	64	4389
2026-01-20 23:46:27.92	104.34	50.89	-46.3	-47.8	19.6	0.00e+00	0	40	0	757071872	64	4199
2026-01-20 23:46:28.92	104.99	50.88	-45.5	-46.7	20.6	0.00e+00	0	39	0	758120448	63	3950
2026-01-20 23:46:29.93	105.65	50.86	-45.5	-46.8	20.6	0.00e+00	0	39	0	760217600	62	4221
2026-01-20 23:46:30.94	106.31	50.84	-46.0	-47.4	20.0	0.00e+00	0	39	0	762314752	62	4502
2026-01-20 23:46:31.95	106.97	50.81	-46.2	-47.6	19.9	0.00e+00	0	40	0	764411904	63	4353
2026-01-20 23:46:32.96	107.63	50.78	-46.1	-47.4	20.0	0.00e+00	0	40	0	766509056	63	4281
2026-01-20 23:46:33.97	108.28	50.74	-45.6	-46.9	20.5	0.00e+00	0	39	0	767557632	63	4046
2026-01-20 23:46:34.97	108.93	50.71	-45.8	-47.2	20.3	0.00e+00	0	40	0	769654784	63	4156
2026-01-20 23:46:35.98	109.59	50.66	-46.2	-47.6	19.8	0.00e+00	0	40	0	771751936	63	4380
2026-01-20 23:46:36.99	110.24	50.62	-46.6	-48.1	19.4	0.00e+00	0	40	0	773849088	63	4637
2026-01-20 23:46:38.00	110.89	50.57	-46.2	-47.6	19.8	0.00e+00	0	39	0	775946240	63	4391
2026-01-20 23:46:39.01	111.53	50.52	-45.6	-46.8	20.5	0.00e+00	0	39	0	778043392	63	3999
2026-01-20 23:46:40.02	112.18	50.46	-45.6	-46.9	20.5	0.00e+00	0	39	0	779091968	63	4019
2026-01-20 23:46:41.03	112.82	50.40	-46.0	-47.4	20.0	0.00e+00	0	40	0	781189120	63	4254
2026-01-20 23:46:42.03	113.45	50.33	-46.4	-47.9	19.5	0.00e+00	0	40	0	783286272	63	4507
2026-01-20 23:46:43.04	114.09	50.27	-46.2	-47.6	19.8	0.00e+00	0	40	0	785383424	63	4366
2026-01-20 23:46:44.05	114.72	50.20	-46.1	-47.5	19.9	0.00e+00	0	39	0	786432000	63	4307
2026-01-20 23:46:45.06	115.36	50.12	-46.7	-48.2	19.2	0.00e+00	0	39	0	788529152	64	4418
2026-01-20 23:46:46.07	115.98	50.04	-47.9	-49.9	17.5	0.00e+00	0	39	0	790626304	66	4765
2026-01-20 23:46:47.08	116.61	49.96	-48.7	-51.0	16.4	0.00e+00	0	40	0	792723456	67	5101
2026-01-20 23:46:48.09	117.23	49.87	-48.3	-50.3	17.1	0.00e+00	0	40	0	794820608	68	4468
2026-01-20 23:46:49.09	117.84	49.79	-47.7	-49.6	17.8	0.00e+00	0	39	0	796917760	67	4347
2026-01-20 23:46:50.10	118.45	49.70	-47.7	-49.5	17.9	0.00e+00	0	39	0	797966336	67	4328
2026-01-20 23:46:51.11	119.06	49.60	-48.2	-50.2	17.2	0.00e+00	0	40	0	800063488	67	4703
2026-01-20 23:46:52.12	119.67	49.50	-48.8	-51.1	16.4	0.00e+00	0	39	0	802160640	68	4921
2026-01-20 23:46:53.13	120.27	49.40	-48.7	-51.0	16.5	0.00e+00	0	40	0	804257792	68	4823
2026-01-20 23:46:54.14	120.87	49.30	-48.4	-50.5	17.0	0.00e+00	0	39	0	806354944	68	4564
2026-01-20 23:46:55.14	121.46	49.19	-48.5	-50.7	16.8	0.00e+00	0	40	0	807403520	68	4662
2026-01-20 23:46:56.15	122.05	49.08	-49.1	-51.5	16.0	0.00e+00	0	40	0	809500672	68	5125
2026-01-20 23:46:57.16	122.64	48.97	-49.8	-52.6	15.0	0.00e+00	0	40	0	811597824	70	5176
2026-01-20 23:46:58.16	123.21	48.85	-49.3	-51.8	15.6	0.00e+00	0	40	0	813694976	70	4756
2026-01-20 23:46:59.18	123.80	48.73	-48.7	-50.9	16.5	0.00e+00	0	39	0	814743552	69	4536
2026-01-20 23:47:00.18	124.37	48.61	-48.4	-50.5	16.9	0.00e+00	0	39	0	816840704	68	4565
2026-01-20 23:47:01.19	124.93	48.49	-49.0	-51.3	16.1	0.00e+00	0	40	0	818937856	68	5036
2026-01-20 23:47:02.20	125.50	48.36	-49.5	-52.1	15.4	0.00e+00	0	40	0	821035008	69	5202
2026-01-20 23:47:03.21	126.06	48.23	-48.7	-50.9	16.6	0.00e+00	0	40	0	823132160	69	4540
2026-01-20 23:47:04.22	126.61	48.10	-48.0	-49.9	17.5	0.00e+00	0	40	0	825229312	68	4276
2026-01-20 23:47:05.22	127.16	47.97	-47.6	-49.4	17.9	0.00e+00	0	40	0	826277888	67	4260
2026-01-20 23:47:06.23	127.70	47.83	-47.9	-49.7	17.6	0.00e+00	0	40	0	828375040	66	4703
2026-01-20 23:47:07.24	128.24	47.69	-48.3	-50.4	17.0	0.00e+00	0	40	0	830472192	67	4762
2026-01-20 23:47:08.25	128.78	47.55	-47.8	-49.6	17.7	0.00e+00	0	40	0	832569344	67	4379
2026-01-20 23:47:09.26	129.31	47.41	-46.9	-48.5	18.7	0.00e+00	0	39	0	834666496	65	4340
2026-01-20 23:47:10.26	129.83	47.26	-46.8	-48.4	18.9	0.00e+00	0	40	0	835715072	65	4255
2026-01-20 23:47:11.27	130.35	47.12	-47.1	-48.8	18.5	0.00e+00	0	39	0	837812224	65	4474
2026-01-20 23:47:12.27	130.87	46.97	-47.7	-49.5	17.8	0.00e+00	0	39	0	839909376	65	4851
2026-01-20 23:47:13.28	131.38	46.82	-47.6	-49.4	17.9	0.00e+00	0	40	0	842006528	66	4537
2026-01-20 23:47:14.29	131.88	46.66	-46.8	-48.4	18.9	0.00e+00	0	39	0	844103680	65	4266
2026-01-20 23:47:15.30	132.39	46.51	-46.5	-48.0	19.3	0.00e+00	0	40	0	845152256	65	4076
2026-01-20 23:47:16.31	132.88	46.35	-47.1	-48.8	18.5	0.00e+00	0	39	0	847249408	65	4480
2026-01-20 23:47:17.31	133.37	46.20	-47.6	-49.5	17.8	0.00e+00	0	39	0	849346560	65	4851
2026-01-20 23:47:18.32	133.86	46.04	-47.5	-49.2	18.0	0.00e+00	0	40	0	851443712	66	4435
2026-01-20 23:47:19.33	134.34	45.88	-47.1	-48.8	18.6	0.00e+00	0	40	0	853540864	66	4195
2026-01-20 23:47:20.34	134.82	45.71	-47.2	-48.9	18.5	0.00e+00	0	40	0	854589440	66	4255
2026-01-20 23:47:21.35	135.29	45.55	-47.2	-48.9	18.3	0.00e+00	0	40	0	856686592	66	4287
2026-01-20 23:47:22.36	135.76	45.38	-47.3	-49.0	18.3	0.00e+00	0	40	0	858783744	66	4305
2026-01-20 23:47:23.37	136.22	45.22	-47.2	-48.9	18.4	0.00e+00	0	40	0	860880896	66	4256
2026-01-20 23:47:24.38	136.68	45.05	-47.5	-49.3	18.0	0.00e+00	0	40	0	862978048	66	4488
2026-01-20 23:47:25.38	137.13	44.88	-48.0	-49.9	17.4	0.00e+00	0	40	0	865075200	66	4811
2026-01-20 23:47:26.39	137.58	44.71	-47.5	-49.3	18.0	0.00e+00	0	40	0	866123776	66	4478
2026-01-20 23:47:27.40	138.02	44.54	-46.5	-48.1	19.2	0.00e+00	0	39	0	868220928	65	4104
2026-01-20 23:47:28.41	138.46	44.36	-46.1	-47.5	19.8	0.00e+00	0	40	0	870318080	64	4084
2026-01-20 23:47:29.42	138.90	44.19	-46.2	-47.6	19.7	0.00e+00	0	40	0	872415232	64	4108
2026-01-20 23:47:30.42	139.32	44.01	-46.6	-48.1	19.3	0.00e+00	0	40	0	873463808	64	4361
2026-01-20 23:47:31.43	139.75	43.84	-47.0	-48.6	18.7	0.00e+00	0	40	0	875560960	64	4644
2026-01-20 23:47:32.44	140.17	43.66	-46.8	-48.4	18.8	0.00e+00	0	40	0	877658112	64	4527
2026-01-20 23:47:33.45	140.59	43.48	-46.4	-47.9	19.3	0.00e+00	0	40	0	879755264	64	4282
2026-01-20 23:47:34.45	140.99	43.31	-46.1	-47.5	19.7	0.00e+00	0	40	0	881852416	64	4059
2026-01-20 23:47:35.46	141.40	43.13	-46.0	-47.4	19.9	0.00e+00	0	40	0	882900992	63	4261
2026-01-20 23:47:36.47	141.80	42.95	-46.5	-48.0	19.3	0.00e+00	0	39	0	884998144	63	4554
2026-01-20 23:47:37.48	142.20	42.77	-46.9	-48.5	18.8	0.00e+00	0	39	0	887095296	64	4555
2026-01-20 23:47:38.49	142.59	42.59	-46.4	-47.9	19.4	0.00e+00	0	40	0	889192448	64	4257
2026-01-20 23:47:39.49	142.98	42.41	-46.0	-47.4	19.9	0.00e+00	0	40	0	891289600	63	4267
2026-01-20 23:47:40.50	143.37	42.22	-46.0	-47.4	20.0	0.00e+00	0	40	0	893386752	63	4244
2026-01-20 23:47:41.51	143.75	42.04	-46.5	-48.0	19.3	0.00e+00	0	40	0	894435328	63	4593
2026-01-20 23:47:42.52	144.12	41.86	-46.7	-48.2	19.0	0.00e+00	0	40	0	896532480	64	4428
2026-01-20 23:47:43.53	144.50	41.67	-47.4	-49.1	18.2	0.00e+00	0	40	0	898629632	65	4644
2026-01-20 23:47:44.53	144.86	41.49	-47.4	-49.2	18.1	0.00e+00	0	39	0	900726784	65	4682
2026-01-20 23:47:45.54	145.22	41.31	-47.3	-49.0	18.2	0.00e+00	0	40	0	901775360	65	4583
2026-01-20 23:47:46.55	145.58	41.12	-46.9	-48.5	18.7	0.00e+00	0	40	0	903872512	65	4309
2026-01-20 23:47:47.56	145.94	40.94	-47.0	-48.6	18.6	0.00e+00	0	40	0	905969664	65	4387
2026-01-20 23:47:48.56	146.29	40.75	-47.0	-48.6	18.6	0.00e+00	0	40	0	908066816	65	4387
2026-01-20 23:47:49.57	146.64	40.57	-47.5	-49.4	17.9	0.00e+00	0	39	0	910163968	65	4770
2026-01-20 23:47:50.58	146.98	40.38	-48.5	-50.7	16.5	0.00e+00	0	40	0	912261120	67	4965
2026-01-20 23:47:51.59	147.32	40.19	-49.2	-51.8	15.6	0.00e+00	0	40	0	913309696	68	5305
2026-01-20 23:47:52.59	147.66	40.01	-49.9	-52.9	14.4	0.00e+00	0	40	0	915406848	70	5388
2026-01-20 23:47:53.60	147.99	39.82	-49.8	-52.8	14.5	1.50e-06	0	40	0	917504000	70	5318
2026-01-20 23:47:54.61	148.32	39.64	-49.4	-52.1	15.2	7.00e-07	0	40	0	919601152	70	4898
2026-01-20 23:47:55.62	148.64	39.45	-48.6	-50.8	16.5	0.00e+00	0	40	0	921698304	69	4462
2026-01-20 23:47:56.63	148.97	39.27	-48.4	-50.5	16.8	0.00e+00	0	40	0	922746880	68	4591
2026-01-20 23:47:57.63	149.28	39.08	-48.7	-51.0	16.3	0.00e+00	0	40	0	924844032	68	4831
2026-01-20 23:47:58.64	149.60	38.90	-49.6	-52.4	15.0	0.00e+00	0	40	0	926941184	69	5352
2026-01-20 23:47:59.65	149.91	38.71	-50.1	-53.2	14.0	0.00e+00	0	39	0	929038336	70	5581
2026-01-20 23:48:00.66	150.21	38.52	-49.2	-51.8	15.4	2.20e-06	0	40	0	930086912	70	4747
2026-01-20 23:48:01.67	150.52	38.34	-48.2	-50.2	17.1	0.00e+00	0	40	0	932184064	68	4428
2026-01-20 23:48:02.67	150.82	38.15	-47.6	-49.4	17.8	0.00e+00	0	40	0	934281216	67	4279
2026-01-20 23:48:03.68	151.11	37.97	-47.4	-49.1	18.1	0.00e+00	0	40	0	936378368	66	4358
2026-01-20 23:48:04.69	151.41	37.78	-47.8	-49.7	17.5	0.00e+00	0	40	0	938475520	66	4698
2026-01-20 23:48:05.70	151.70	37.60	-49.2	-51.8	15.5	0.00e+00	0	39	0	940572672	69	5031
2026-01-20 23:48:06.71	151.99	37.41	-50.4	-53.9	13.4	4.50e-06	0	40	0	941621248	71	5704
2026-01-20 23:48:07.71	152.27	37.23	-49.9	-53.0	14.2	1.67e-05	0	40	0	943718400	71	5139
2026-01-20 23:48:08.72	152.55	37.05	-48.4	-50.5	16.7	0.00e+00	0	39	0	945815552	68	4593
2026-01-20 23:48:09.73	152.83	36.86	-46.8	-48.4	18.7	0.00e+00	0	40	0	947912704	65	4249
2026-01-20 23:48:10.73	153.10	36.68	-46.3	-47.7	19.4	0.00e+00	0	40	0	950009856	64	4185
2026-01-20 23:48:11.74	153.37	36.50	-46.2	-47.7	19.4	0.00e+00	0	40	0	951058432	64	4161
2026-01-20 23:48:12.75	153.64	36.31	-47.0	-48.6	18.6	0.00e+00	0	40	0	953155584	64	4649
2026-01-20 23:48:13.76	153.91	36.13	-48.3	-50.5	16.7	0.00e+00	0	40	0	955252736	67	4837
2026-01-20 23:48:14.77	154.17	35.95	-49.9	-53.0	14.3	0.00e+00	0	40	0	957349888	70	5462
2026-01-20 23:48:15.77	154.43	35.77	-49.6	-52.6	14.6	8.30e-06	0	40	0	958398464	70	5187
2026-01-20 23:48:16.78	154.69	35.59	-47.5	-49.4	17.7	0.00e+00	0	40	0	960495616	67	4263
2026-01-20 23:48:17.79	154.94	35.40	-46.3	-47.8	19.3	0.00e+00	0	40	0	962592768	64	4221
2026-01-20 23:48:18.80	155.20	35.22	-45.9	-47.3	19.8	0.00e+00	0	40	0	964689920	63	4222
2026-01-20 23:48:19.81	155.45	35.04	-45.8	-47.1	20.1	0.00e+00	0	39	0	966787072	63	4114
2026-01-20 23:48:20.82	155.69	34.86	-46.3	-47.8	19.4	0.00e+00	0	39	0	968884224	63	4466
2026-01-20 23:48:21.82	155.93	34.68	-47.4	-49.3	17.9	0.00e+00	0	40	0	969932800	65	4708
2026-01-20 23:48:22.83	156.18	34.51	-48.6	-50.9	16.3	0.00e+00	0	40	0	972029952	67	5100
2026-01-20 23:48:23.84	156.42	34.33	-49.3	-52.0	15.3	0.00e+00	0	40	0	974127104	69	5156
2026-01-20 23:48:24.85	156.65	34.15	-48.6	-50.9	16.3	0.00e+00	0	40	0	976224256	69	4509
2026-01-20 23:48:25.86	156.89	33.97	-47.4	-49.2	18.0	0.00e+00	0	40	0	978321408	66	4402
2026-01-20 23:48:26.86	157.12	33.80	-46.6	-48.1	19.0	0.00e+00	0	40	0	979369984	65	4132
2026-01-20 23:48:27.87	157.34	33.62	-46.5	-48.0	19.1	0.00e+00	0	40	0	981467136	64	4303
2026-01-20 23:48:28.88	157.57	33.44	-46.4	-47.9	19.2	0.00e+00	0	40	0	983564288	64	4266
2026-01-20 23:48:29.89	157.80	33.27	-46.4	-48.0	19.1	0.00e+00	0	40	0	985661440	64	4297
2026-01-20 23:48:30.89	158.01	33.09	-46.9	-48.6	18.5	0.00e+00	0	40	0	987758592	64	4608
2026-01-20 23:48:31.90	158.23	32.92	-47.8	-49.7	17.4	0.00e+00	0	40	0	988807168	66	4673
2026-01-20 23:48:32.91	158.45	32.75	-48.3	-50.5	16.7	0.00e+00	0	40	0	990904320	67	4857
2026-01-20 23:48:33.92	158.67	32.57	-49.0	-51.5	15.8	0.00e+00	0	40	0	993001472	68	5109
2026-01-20 23:48:34.93	158.88	32.40	-48.9	-51.4	15.8	0.00e+00	0	40	0	995098624	68	5090
2026-01-20 23:48:35.93	159.09	32.23	-48.5	-50.7	16.5	0.00e+00	0	40	0	997195776	68	4692
2026-01-20 23:48:36.94	159.30	32.06	-48.0	-50.0	17.1	0.00e+00	0	39	0	998244352	68	4339
2026-01-20 23:48:37.95	159.50	31.89	-47.6	-49.4	17.6	0.00e+00	0	40	0	1000341504	67	4288
2026-01-20 23:48:38.96	159.71	31.72	-47.2	-49.0	18.1	0.00e+00	0	39	0	1002438656	66	4293
2026-01-20 23:48:39.97	159.91	31.55	-47.2	-49.0	18.1	0.00e+00	0	39	0	1004535808	66	4304
2026-01-20 23:48:40.97	160.11	31.38	-47.0	-48.6	18.5	0.00e+00	0	40	0	1006632960	66	4127
2026-01-20 23:48:41.98	160.31	31.21	-47.0	-48.7	18.4	0.00e+00	0	40	0	1007681536	65	4416
2026-01-20 23:48:42.99	160.50	31.04	-47.5	-49.4	17.7	0.00e+00	0	40	0	1009778688	65	4765
2026-01-20 23:48:43.99	160.69	30.88	-48.2	-50.3	16.8	0.00e+00	0	40	0	1011875840	66	5017
2026-01-20 23:48:45.00	160.89	30.71	-48.9	-51.3	15.9	0.00e+00	0	40	0	1013972992	68	5038
2026-01-20 23:48:46.01	161.08	30.54	-49.2	-51.9	15.4	0.00e+00	0	40	0	1016070144	68	5344
2026-01-20 23:48:47.02	161.27	30.38	-49.1	-51.7	15.5	0.00e+00	0	40	0	1017118720	69	4960
2026-01-20 23:48:48.03	161.45	30.21	-48.9	-51.4	15.9	0.00e+00	0	40	0	1019215872	69	4761
2026-01-20 23:48:49.04	161.64	30.05	-48.6	-50.9	16.3	0.00e+00	0	40	0	1021313024	69	4536
2026-01-20 23:48:50.04	161.82	29.89	-47.8	-49.8	17.3	0.00e+00	0	40	0	1023410176	67	4485
2026-01-20 23:48:51.05	162.00	29.72	-47.6	-49.5	17.6	0.00e+00	0	39	0	1025507328	67	4292
2026-01-20 23:48:52.06	162.18	29.56	-47.4	-49.2	17.8	0.00e+00	0	40	0	1026555904	66	4429
2026-01-20 23:48:53.07	162.36	29.40	-47.3	-49.0	18.1	0.00e+00	0	39	0	1028653056	66	4334
2026-01-20 23:48:54.08	162.53	29.24	-47.0	-48.7	18.4	0.00e+00	0	40	0	1030750208	66	4174
2026-01-20 23:48:55.08	162.70	29.08	-47.3	-49.1	17.9	0.00e+00	0	40	0	1032847360	66	4372
2026-01-20 23:48:56.09	162.88	28.92	-47.6	-49.5	17.6	0.00e+00	0	40	0	1034944512	66	4586
2026-01-20 23:48:57.10	163.05	28.76	-47.7	-49.6	17.5	0.00e+00	0	40	0	1035993088	66	4634
2026-01-20 23:48:58.11	163.22	28.60	-47.9	-50.0	17.1	0.00e+00	0	40	0	1038090240	66	4846
2026-01-20 23:48:59.11	163.38	28.44	-47.7	-49.6	17.5	0.00e+00	0	40	0	1040187392	66	4635
2026-01-20 23:49:00.12	163.55	28.29	-47.4	-49.2	17.8	0.00e+00	0	40	0	1042284544	66	4427
2026-01-20 23:49:01.13	163.71	28.13	-47.2	-49.0	18.1	0.00e+00	0	39	0	1044381696	66	4308
2026-01-20 23:49:02.14	163.88	27.97	-47.1	-48.8	18.3	0.00e+00	0	40	0	1045430272	66	4201
2026-01-20 23:49:03.15	164.04	27.82	-46.9	-48.5	18.5	0.00e+00	0	40	0	1047527424	65	4322
2026-01-20 23:49:04.15	164.20	27.67	-46.5	-48.1	18.9	0.00e+00	0	40	0	1049624576	65	4123
2026-01-20 23:49:05.16	164.35	27.51	-46.1	-47.6	19.4	0.00e+00	0	40	0	1051721728	64	4127
2026-01-20 23:49:06.17	164.51	27.36	-46.0	-47.5	19.5	0.00e+00	0	40	0	1053818880	64	4069
2026-01-20 23:49:07.18	164.67	27.21	-46.1	-47.6	19.4	0.00e+00	0	40	0	1055916032	64	4117
2026-01-20 23:49:08.18	164.82	27.05	-46.1	-47.5	19.5	0.00e+00	0	40	0	1056964608	64	4097
2026-01-20 23:49:09.19	164.97	26.90	-46.1	-47.6	19.4	0.00e+00	0	40	0	1059061760	64	4114
2026-01-20 23:49:10.20	165.12	26.75	-46.1	-47.6	19.4	0.00e+00	0	40	0	1061158912	64	4116
2026-01-20 23:49:11.21	165.27	26.60	-46.3	-47.9	19.1	0.00e+00	0	40	0	1063256064	64	4254
2026-01-20 23:49:12.22	165.42	26.45	-46.5	-48.1	18.9	0.00e+00	0	40	0	1064304640	64	4363
2026-01-20 23:49:13.23	165.57	26.30	-46.8	-48.5	18.5	0.00e+00	0	40	0	1066401792	64	4557
2026-01-20 23:49:14.24	165.72	26.15	-46.9	-48.6	18.4	0.00e+00	0	40	0	1068498944	64	4614
2026-01-20 23:49:15.24	165.86	26.01	-47.1	-48.9	18.2	0.00e+00	0	40	0	1070596096	64	4777
2026-01-20 23:49:16.25	166.00	25.86	-47.0	-48.8	18.2	0.00e+00	0	40	0	1072693248	64	4717
2026-01-20 23:49:17.26	166.14	25.71	-46.8	-48.5	18.5	0.00e+00	0	40	0	1073741824	64	4577
2026-01-20 23:49:18.27	166.28	25.57	-46.7	-48.3	18.7	0.00e+00	0	40	0	1075838976	64	4465
2026-01-20 23:49:19.27	166.42	25.42	-46.4	-48.0	19.0	0.00e+00	0	40	0	1077936128	64	4299
2026-01-20 23:49:20.28	166.56	25.28	-46.3	-47.9	19.1	0.00e+00	0	40	0	1080033280	64	4249
2026-01-20 23:49:21.29	166.70	25.14	-46.3	-47.9	19.1	0.00e+00	0	40	0	1082130432	64	4252
2026-01-20 23:49:22.30	166.83	24.99	-46.0	-47.5	19.4	0.00e+00	0	40	0	1084227584	64	4064
2026-01-20 23:49:23.31	166.97	24.85	-46.1	-47.6	19.3	0.00e+00	0	40	0	1085276160	64	4121
2026-01-20 23:49:24.31	167.10	24.71	-46.0	-47.5	19.4	0.00e+00	0	40	0	1087373312	64	4080
2026-01-20 23:49:25.32	167.23	24.57	-46.1	-47.6	19.5	0.00e+00	0	40	0	1089470464	63	4348
2026-01-20 23:49:26.33	167.36	24.43	-46.2	-47.7	19.3	0.00e+00	0	40	0	1091567616	63	4417
2026-01-20 23:49:27.34	167.49	24.28	-46.3	-47.9	19.2	0.00e+00	0	40	0	1092616192	63	4500
2026-01-20 23:49:28.35	167.62	24.15	-46.5	-48.0	19.0	0.00e+00	0	40	0	1094713344	63	4597
2026-01-20 23:49:29.35	167.75	24.01	-46.6	-48.2	18.9	0.00e+00	0	40	0	1096810496	63	4659
2026-01-20 23:49:30.36	167.88	23.87	-46.6	-48.2	18.9	0.00e+00	0	40	0	1098907648	63	4652
2026-01-20 23:49:31.37	168.00	23.73	-46.6	-48.2	18.9	0.00e+00	0	40	0	1101004800	63	4655
2026-01-20 23:49:32.38	168.13	23.59	-46.6	-48.2	18.9	0.00e+00	0	40	0	1103101952	63	4663
2026-01-20 23:49:33.39	168.25	23.46	-46.5	-48.1	18.9	0.00e+00	0	40	0	1104150528	63	4610
2026-01-20 23:49:34.39	168.37	23.32	-46.5	-48.1	19.0	0.00e+00	0	40	0	1106247680	63	4599
2026-01-20 23:49:35.40	168.49	23.19	-46.3	-47.8	19.2	0.00e+00	0	40	0	1108344832	63	4483
2026-01-20 23:49:36.41	168.61	23.05	-46.1	-47.5	19.5	0.00e+00	0	39	0	1110441984	63	4333
2026-01-20 23:49:37.41	168.73	22.92	-46.0	-47.4	19.5	0.00e+00	0	40	0	1112539136	63	4284
2026-01-20 23:49:38.42	168.85	22.78	-45.9	-47.3	19.4	0.00e+00	0	40	0	1113587712	63	4235
2026-01-20 23:49:39.43	168.97	22.65	-45.8	-47.2	19.8	0.00e+00	0	40	0	1115684864	63	4168
2026-01-20 23:49:40.44	169.08	22.52	-45.8	-47.3	19.7	0.00e+00	0	40	0	1117782016	63	4194
2026-01-20 23:49:41.45	169.20	22.38	-45.9	-47.3	19.7	0.00e+00	0	40	0	1119879168	63	4217
2026-01-20 23:49:42.45	169.31	22.25	-46.0	-47.4	19.6	0.00e+00	0	40	0	1120927744	63	4274
2026-01-20 23:49:43.46	169.43	22.12	-46.0	-47.5	19.5	0.00e+00	0	40	0	1123024896	63	4296
2026-01-20 23:49:44.47	169.54	21.99	-46.0	-47.5	19.6	0.00e+00	0	40	0	1125122048	63	4292
2026-01-20 23:49:45.48	169.65	21.86	-46.2	-47.7	19.3	0.00e+00	0	40	0	1127219200	63	4395
2026-01-20 23:49:46.49	169.76	21.73	-46.4	-48.0	19.0	0.00e+00	0	40	0	1129316352	63	4577
2026-01-20 23:49:47.50	169.87	21.60	-46.6	-48.2	18.8	0.00e+00	0	39	0	1131413504	63	4691
2026-01-20 23:49:48.50	169.98	21.48	-46.6	-48.3	18.6	0.00e+00	0	40	0	1132462080	64	4457
2026-01-20 23:49:49.51	170.09	21.35	-46.6	-48.3	18.6	0.00e+00	0	40	0	1134559232	64	4485
2026-01-20 23:49:50.52	170.20	21.22	-46.8	-48.5	18.4	0.00e+00	0	40	0	1136656384	64	4568
2026-01-20 23:49:51.53	170.30	21.10	-46.8	-48.5	18.4	0.00e+00	0	40	0	1138753536	64	4563
2026-01-20 23:49:52.53	170.41	20.97	-46.6	-48.3	18.6	0.00e+00	0	40	0	1140850688	64	4464
2026-01-20 23:49:53.54	170.51	20.85	-46.7	-48.4	18.5	0.00e+00	0	40	0	1141899264	64	4496
2026-01-20 23:49:54.55	170.62	20.72	-46.6	-48.3	18.6	0.00e+00	0	40	0	1143996416	64	4481
2026-01-20 23:49:55.56	170.72	20.60	-46.4	-48.0	18.9	0.00e+00	0	40	0	1146093568	64	4323
2026-01-20 23:49:56.57	170.83	20.47	-46.1	-47.6	19.2	0.00e+00	0	40	0	1148190720	64	4133
2026-01-20 23:49:57.57	170.93	20.35	-46.0	-47.5	19.4	0.00e+00	0	40	0	1149239296	64	4064
2026-01-20 23:49:58.58	171.03	20.23	-45.8	-47.3	19.7	0.00e+00	0	40	0	1151336448	63	4198
2026-01-20 23:49:59.59	171.13	20.10	-45.8	-47.2	19.8	0.00e+00	0	40	0	1153433600	63	4153
2026-01-20 23:50:00.60	171.23	19.98	-45.6	-47.0	19.9	0.00e+00	0	40	0	1155530752	63	4085
2026-01-20 23:50:01.61	171.33	19.86	-45.6	-46.9	20.0	0.00e+00	0	40	0	1157627904	63	4035
2026-01-20 23:50:02.61	171.42	19.74	-45.4	-46.7	20.2	0.00e+00	0	40	0	1159725056	62	4185
2026-01-20 23:50:03.62	171.52	19.62	-45.4	-46.8	20.1	0.00e+00	0	40	0	1160773632	62	4197
2026-01-20 23:50:04.63	171.62	19.50	-45.5	-46.8	20.1	0.00e+00	0	40	0	1162870784	62	4229
2026-01-20 23:50:05.64	171.71	19.38	-45.6	-47.0	20.0	0.00e+00	0	40	0	1164967936	62	4295
2026-01-20 23:50:06.64	171.81	19.26	-45.7	-47.1	19.8	0.00e+00	0	40	0	1167065088	62	4343
2026-01-20 23:50:07.65	171.90	19.14	-45.8	-47.3	19.7	0.00e+00	0	40	0	1169162240	62	4448
2026-01-20 23:50:08.66	172.00	19.03	-45.8	-47.3	19.6	0.00e+00	0	39	0	1170210816	62	4450
2026-01-20 23:50:09.67	172.09	18.91	-46.1	-47.6	19.3	0.00e+00	0	40	0	1172307968	62	4611
2026-01-20 23:50:10.68	172.18	18.79	-46.3	-47.8	19.1	0.00e+00	0	40	0	1174405120	63	4468
2026-01-20 23:50:11.69	172.27	18.68	-46.3	-47.9	19.0	0.00e+00	0	40	0	1176502272	63	4513
2026-01-20 23:50:12.69	172.36	18.56	-46.4	-47.9	19.0	0.00e+00	0	40	0	1178599424	63	4544
2026-01-20 23:50:13.70	172.45	18.45	-46.4	-48.0	19.0	0.00e+00	0	40	0	1179648000	63	4555
2026-01-20 23:50:14.71	172.54	18.33	-46.4	-47.9	18.9	0.00e+00	0	40	0	1181745152	63	4543
2026-01-20 23:50:15.72	172.63	18.22	-46.2	-47.8	19.1	0.00e+00	0	40	0	1183842304	63	4458
2026-01-20 23:50:16.73	172.72	18.10	-46.2	-47.7	19.1	0.00e+00	0	40	0	1185939456	63	4431
2026-01-20 23:50:17.74	172.81	17.99	-45.9	-47.4	19.4	0.00e+00	0	40	0	1188036608	63	4282
2026-01-20 23:50:18.74	172.90	17.88	-45.8	-47.2	19.6	0.00e+00	0	40	0	1189085184	63	4189
2026-01-20 23:50:19.75	172.98	17.76	-45.8	-47.3	19.6	0.00e+00	0	40	0	1191182336	63	4195
2026-01-20 23:50:20.76	173.07	17.65	-45.9	-47.3	19.5	0.00e+00	0	39	0	1193279488	63	4225
2026-01-20 23:50:21.77	173.15	17.54	-45.6	-46.9	19.9	0.00e+00	0	40	0	1195376640	63	4051
2026-01-20 23:50:22.77	173.24	17.43	-45.3	-46.7	20.1	0.00e+00	0	40	0	1197473792	62	4157
2026-01-20 23:50:23.78	173.32	17.32	-45.3	-46.6	20.2	0.00e+00	0	40	0	1199570944	62	4137
2026-01-20 23:50:24.79	173.41	17.21	-45.1	-46.4	20.4	0.00e+00	0	40	0	1200619520	62	4036
2026-01-20 23:50:25.80	173.49	17.10	-45.2	-46.5	20.3	0.00e+00	0	40	0	1202716672	62	4073
2026-01-20 23:50:26.81	173.57	16.99	-45.0	-46.3	20.5	0.00e+00	0	39	0	1204813824	62	3966
2026-01-20 23:50:27.81	173.65	16.88	-44.8	-46.0	20.8	0.00e+00	0	40	0	1206910976	61	4077
2026-01-20 23:50:28.82	173.74	16.77	-44.7	-45.9	20.8	0.00e+00	0	40	0	1207959552	61	4036
2026-01-20 23:50:29.83	173.82	16.66	-44.8	-46.0	20.7	0.00e+00	0	40	0	1210056704	61	4087
2026-01-20 23:50:30.84	173.90	16.55	-44.8	-46.1	20.7	0.00e+00	0	40	0	1212153856	61	4119
2026-01-20 23:50:31.84	173.98	16.45	-44.8	-46.0	20.7	0.00e+00	0	40	0	1214251008	61	4077
2026-01-20 23:50:32.85	174.05	16.34	-45.0	-46.2	20.5	0.00e+00	0	40	0	1216348160	61	4185
2026-01-20 23:50:33.86	174.13	16.23	-45.0	-46.3	20.4	0.00e+00	0	40	0	1217396736	61	4233
2026-01-20 23:50:34.87	174.21	16.13	-45.3	-46.6	20.2	0.00e+00	0	40	0	1219493888	61	4359
2026-01-20 23:50:35.87	174.29	16.02	-45.3	-46.7	20.1	0.00e+00	0	39	0	1221591040	61	4404
2026-01-20 23:50:36.88	174.37	15.92	-45.3	-46.7	20.1	0.00e+00	0	40	0	1223688192	61	4395
2026-01-20 23:50:37.89	174.44	15.81	-45.6	-47.0	19.8	0.00e+00	0	40	0	1225785344	61	4570
2026-01-20 23:50:38.90	174.52	15.71	-45.7	-47.1	19.7	0.00e+00	0	40	0	1227882496	61	4634
2026-01-20 23:50:39.91	174.59	15.60	-45.8	-47.3	19.5	0.00e+00	0	40	0	1228931072	62	4460
2026-01-20 23:50:40.91	174.67	15.50	-45.9	-47.5	19.3	0.00e+00	0	40	0	1231028224	62	4549
2026-01-20 23:50:41.92	174.74	15.40	-46.1	-47.6	19.1	0.00e+00	0	39	0	1233125376	62	4651
2026-01-20 23:50:42.93	174.82	15.30	-46.1	-47.7	19.1	0.00e+00	0	40	0	1235222528	62	4655
2026-01-20 23:50:43.94	174.89	15.19	-46.2	-47.8	19.0	0.00e+00	0	40	0	1236271104	62	4720
2026-01-20 23:50:44.95	174.96	15.09	-46.3	-47.9	18.9	0.00e+00	0	40	0	1238368256	63	4515
2026-01-20 23:50:45.95	175.04	14.99	-46.3	-47.9	18.8	0.00e+00	0	39	0	1240465408	63	4525
2026-01-20 23:50:46.96	175.11	14.89	-46.3	-47.9	18.9	0.00e+00	0	39	0	1242562560	63	4524
2026-01-20 23:50:47.97	175.18	14.79	-46.3	-48.0	18.8	0.00e+00	0	40	0	1244659712	63	4551
2026-01-20 23:50:48.97	175.25	14.69	-46.3	-47.9	18.9	0.00e+00	0	40	0	1245708288	63	4494
2026-01-20 23:50:49.98	175.32	14.59	-46.3	-47.9	18.9	0.00e+00	0	40	0	1247805440	63	4507
2026-01-20 23:50:50.99	175.39	14.49	-46.1	-47.7	19.0	0.00e+00	0	40	0	1249902592	63	4396
2026-01-20 23:50:52.00	175.46	14.39	-46.2	-47.7	19.0	0.00e+00	0	40	0	1251999744	63	4437
