passes_logs/2026/01/20/R3.2S_Murmansk/R3.2S_Murmansk__20260120_021528_AQUA_rec.log

#Pass ID: 20260120_021528_AQUA
#Satellite: AQUA
#Configuration: AQUA
#almurnet v.1.7.20251203
#Start time: 2026-01-20 02:15:28

#Version: 2.2.20231116
#Station: R3.2S_Murmansk
#Location: 33.079688 lon 68.888172 lat
#TLE: 1 27424U 02022A   26019.27629806  .00001032  00000+0  21655-3 0  9990
#TLE: 2 27424  98.4090 345.7756 0001997  73.0764  31.8912 14.61830109261513

#Time	Az	El	Level	Level2	SNR	BER	BlckErr	Temp	State	Recorded	gain1	gain2
2026-01-20 02:15:28.46	23.38	1.99	-53.6	-71.4	3.8	7.47e-01	0	37	0	0	79	26900
2026-01-20 02:15:29.46	23.38	2.06	-53.6	-70.4	3.8	7.47e-01	0	37	104	0	77	26964
2026-01-20 02:15:30.47	23.39	2.13	-53.5	-70.3	3.8	7.44e-01	0	36	104	0	77	26652
2026-01-20 02:15:31.48	23.40	2.19	-53.6	-70.5	3.8	7.45e-01	0	37	104	0	77	27249
2026-01-20 02:15:32.49	23.40	2.26	-53.5	-70.1	3.8	7.48e-01	0	37	104	0	77	26094
2026-01-20 02:15:33.49	23.41	2.33	-53.5	-70.0	3.8	7.45e-01	0	37	104	0	77	25567
2026-01-20 02:15:34.50	23.42	2.39	-53.6	-70.9	3.8	7.44e-01	0	37	104	0	77	28357
2026-01-20 02:15:35.51	23.42	2.46	-53.5	-70.2	3.8	7.43e-01	0	37	104	0	77	26267
2026-01-20 02:15:36.52	23.43	2.53	-53.5	-70.3	3.8	7.44e-01	0	37	104	0	77	26764
2026-01-20 02:15:37.53	23.44	2.60	-53.5	-69.5	3.8	7.45e-01	0	37	104	0	77	24383
2026-01-20 02:15:38.53	23.44	2.67	-53.5	-67.6	4.0	7.33e-01	0	37	104	0	77	19472
2026-01-20 02:15:39.54	23.45	2.73	-53.5	-68.5	3.9	7.43e-01	0	37	104	0	77	21587
2026-01-20 02:15:40.55	23.46	2.80	-53.4	-66.9	4.2	7.23e-01	0	37	104	0	77	18055
2026-01-20 02:15:41.56	23.46	2.87	-53.4	-66.7	4.3	7.21e-01	0	37	104	0	77	17632
2026-01-20 02:15:42.57	23.47	2.94	-53.5	-67.6	4.3	7.32e-01	0	37	104	0	77	19566
2026-01-20 02:15:43.57	23.47	3.01	-53.4	-66.9	4.5	7.23e-01	0	37	104	0	77	17951
2026-01-20 02:15:44.58	23.48	3.08	-53.5	-67.5	4.3	7.31e-01	0	37	104	0	77	19356
2026-01-20 02:15:45.59	23.49	3.15	-53.4	-66.8	4.5	7.21e-01	0	37	104	0	77	17831
2026-01-20 02:15:46.60	23.49	3.22	-53.3	-64.6	5.6	6.90e-01	0	37	0	0	77	13849
2026-01-20 02:15:47.61	23.50	3.29	-52.9	-61.6	8.6	6.39e-01	10	37	0	1572864	77	9741
2026-01-20 02:15:48.61	23.51	3.36	-52.9	-61.6	8.5	6.38e-01	21	37	0	3670016	77	9765
2026-01-20 02:15:49.62	23.51	3.43	-51.7	-56.8	13.5	6.03e-01	0	37	0	5242880	75	6338
2026-01-20 02:15:50.63	23.52	3.50	-51.9	-57.4	12.5	6.04e-01	0	37	0	7340032	75	6786
2026-01-20 02:15:51.64	23.53	3.57	-51.2	-55.5	14.8	6.02e-01	0	37	0	8912896	74	5749
2026-01-20 02:15:52.65	23.53	3.64	-50.2	-53.5	16.9	6.02e-01	0	37	0	11010048	72	5111
2026-01-20 02:15:53.65	23.54	3.71	-50.1	-53.5	16.9	6.00e-01	0	37	0	12582912	72	5116
2026-01-20 02:15:54.66	23.55	3.78	-49.6	-52.4	18.0	5.99e-01	0	37	0	14680064	70	5100
2026-01-20 02:15:55.67	23.55	3.86	-48.9	-51.4	19.0	6.00e-01	0	37	0	16777216	69	4765
2026-01-20 02:15:56.68	23.56	3.93	-48.6	-50.9	19.5	5.99e-01	0	37	0	18874368	69	4523
2026-01-20 02:15:57.69	23.57	4.00	-48.2	-50.4	20.0	6.00e-01	0	37	0	20447232	68	4516
2026-01-20 02:15:58.69	23.57	4.07	-48.5	-50.9	19.6	5.98e-01	0	37	0	22544384	68	4762
2026-01-20 02:15:59.70	23.58	4.14	-48.1	-50.3	20.1	5.98e-01	0	37	0	24117248	68	4465
2026-01-20 02:16:00.71	23.59	4.22	-48.7	-51.0	19.5	6.01e-01	0	37	0	26214400	67	5153
2026-01-20 02:16:01.72	23.59	4.29	-48.3	-50.6	19.9	6.01e-01	0	37	0	27787264	68	4635
2026-01-20 02:16:02.73	23.60	4.36	-48.6	-51.0	19.5	6.01e-01	0	37	0	29884416	68	4851
2026-01-20 02:16:03.74	23.61	4.44	-49.1	-51.8	18.7	6.02e-01	0	37	0	31981568	68	5295
2026-01-20 02:16:04.75	23.61	4.51	-49.3	-52.1	18.4	6.01e-01	0	38	0	33554432	69	5178
2026-01-20 02:16:05.76	23.62	4.58	-49.6	-52.6	17.9	6.00e-01	0	38	0	35651584	69	5492
2026-01-20 02:16:06.76	23.63	4.66	-50.4	-53.9	16.6	6.00e-01	0	37	0	37224448	71	5691
2026-01-20 02:16:07.77	23.64	4.73	-50.7	-54.5	15.9	6.04e-01	0	38	0	39321600	72	5753
2026-01-20 02:16:08.78	23.64	4.81	-50.9	-55.0	15.3	6.00e-01	0	38	0	41418752	72	6127
2026-01-20 02:16:09.79	23.65	4.88	-51.6	-56.5	13.8	6.03e-01	0	38	0	42991616	73	6864
2026-01-20 02:16:10.79	23.66	4.96	-51.7	-56.8	13.6	6.02e-01	0	38	0	45088768	74	6689
2026-01-20 02:16:11.80	23.66	5.03	-51.9	-57.4	12.9	6.02e-01	0	37	0	47185920	74	7173
2026-01-20 02:16:12.81	23.67	5.11	-48.2	-50.3	20.2	6.01e-01	0	38	0	48758784	68	4473
2026-01-20 02:16:13.82	23.68	5.18	-52.4	-59.4	11.2	6.12e-01	0	37	0	50855936	75	8547
2026-01-20 02:16:14.83	23.68	5.26	-52.2	-58.4	12.1	6.05e-01	0	38	0	52428800	75	7598
2026-01-20 02:16:15.83	23.69	5.33	-50.0	-52.9	17.6	5.98e-01	0	38	0	54525952	71	5067
2026-01-20 02:16:16.84	23.70	5.41	-53.1	-63.2	7.6	6.57e-01	132	38	0	56098816	76	12517
2026-01-20 02:16:17.85	23.70	5.49	-50.2	-53.3	17.0	6.00e-01	0	38	0	57671680	72	5037
2026-01-20 02:16:18.86	23.71	5.56	-48.7	-50.9	19.8	5.99e-01	0	38	0	59768832	69	4533
2026-01-20 02:16:19.86	23.72	5.64	-48.7	-50.9	19.9	6.02e-01	0	38	0	61341696	68	4795
2026-01-20 02:16:20.87	23.72	5.72	-48.3	-50.4	20.4	6.00e-01	0	38	0	63438848	68	4520
2026-01-20 02:16:21.88	23.73	5.80	-48.2	-50.2	20.5	5.98e-01	0	38	0	65536000	68	4439
2026-01-20 02:16:22.89	23.74	5.87	-47.9	-49.9	21.1	5.98e-01	0	38	0	67108864	67	4522
2026-01-20 02:16:23.89	23.75	5.95	-47.5	-49.3	21.6	6.00e-01	0	38	0	69206016	67	4234
2026-01-20 02:16:24.90	23.75	6.03	-47.4	-49.3	21.6	6.02e-01	0	38	0	71303168	66	4450
2026-01-20 02:16:25.91	23.76	6.11	-47.6	-49.5	21.5	6.02e-01	0	38	0	72876032	66	4557
2026-01-20 02:16:26.92	23.77	6.19	-47.6	-49.5	21.4	6.00e-01	0	38	0	74973184	66	4580
2026-01-20 02:16:27.93	23.77	6.27	-47.5	-49.3	21.7	6.01e-01	0	38	0	76546048	66	4473
2026-01-20 02:16:28.94	23.78	6.35	-47.2	-49.0	21.9	6.02e-01	0	38	0	78643200	66	4304
2026-01-20 02:16:29.94	23.79	6.43	-47.2	-48.9	22.1	6.02e-01	0	38	0	80216064	66	4264
2026-01-20 02:16:30.95	23.80	6.51	-47.2	-49.0	22.0	6.00e-01	0	38	0	82313216	66	4308
2026-01-20 02:16:31.96	23.80	6.59	-47.3	-49.1	21.9	6.01e-01	0	38	0	84410368	66	4346
2026-01-20 02:16:32.97	23.81	6.67	-47.6	-49.4	21.6	6.04e-01	0	38	0	86507520	66	4534
2026-01-20 02:16:33.97	23.82	6.75	-47.4	-49.2	21.9	6.03e-01	0	38	0	88080384	66	4404
2026-01-20 02:16:34.98	23.82	6.83	-47.5	-49.3	21.8	5.99e-01	0	38	0	90177536	66	4462
2026-01-20 02:16:35.99	23.83	6.91	-47.7	-49.6	21.4	6.02e-01	0	38	0	91750400	66	4613
2026-01-20 02:16:36.99	23.84	6.99	-47.9	-49.8	21.2	6.00e-01	0	38	0	93847552	66	4759
2026-01-20 02:16:38.00	23.85	7.07	-47.4	-49.2	21.9	6.02e-01	0	38	0	95420416	66	4398
2026-01-20 02:16:39.01	23.85	7.16	-47.0	-48.7	22.3	6.01e-01	0	38	0	97517568	66	4160
2026-01-20 02:16:40.02	23.86	7.24	-46.9	-48.5	22.5	6.02e-01	0	38	0	99614720	65	4328
2026-01-20 02:16:41.03	23.87	7.32	-47.2	-49.0	22.1	6.00e-01	0	38	0	101187584	65	4547
2026-01-20 02:16:42.04	23.88	7.41	-47.0	-48.7	22.3	6.00e-01	0	38	0	103284736	65	4406
2026-01-20 02:16:43.04	23.88	7.49	-47.2	-48.9	22.2	6.01e-01	0	38	0	104857600	65	4520
2026-01-20 02:16:44.05	23.89	7.57	-46.9	-48.5	22.5	6.00e-01	0	38	0	106954752	65	4328
2026-01-20 02:16:45.06	23.90	7.66	-47.1	-48.8	22.3	6.01e-01	0	38	0	108527616	65	4473
2026-01-20 02:16:46.07	23.91	7.74	-47.1	-48.7	22.3	6.04e-01	0	38	0	110624768	65	4438
2026-01-20 02:16:47.07	23.91	7.82	-47.1	-48.8	22.2	6.01e-01	0	38	0	112721920	65	4484
2026-01-20 02:16:48.08	23.92	7.91	-47.0	-48.6	22.5	6.02e-01	0	38	0	114819072	65	4378
2026-01-20 02:16:49.09	23.93	8.00	-47.1	-48.8	22.3	6.01e-01	0	38	0	116391936	65	4445
2026-01-20 02:16:50.10	23.93	8.08	-46.8	-48.4	22.6	6.00e-01	0	38	0	118489088	65	4291
2026-01-20 02:16:51.11	23.94	8.17	-46.9	-48.6	22.5	6.02e-01	0	38	0	120061952	65	4355
2026-01-20 02:16:52.11	23.95	8.25	-47.1	-48.7	22.4	6.00e-01	0	38	0	122159104	65	4430
2026-01-20 02:16:53.12	23.96	8.34	-47.0	-48.6	22.5	6.03e-01	0	38	0	123731968	65	4373
2026-01-20 02:16:54.13	23.97	8.43	-47.0	-48.6	22.5	6.01e-01	0	38	0	125829120	65	4381
2026-01-20 02:16:55.14	23.97	8.51	-46.9	-48.5	22.6	6.00e-01	0	38	0	127926272	65	4315
2026-01-20 02:16:56.15	23.98	8.60	-46.9	-48.5	22.6	6.00e-01	0	38	0	129499136	65	4326
2026-01-20 02:16:57.15	23.99	8.69	-47.0	-48.6	22.5	6.01e-01	0	38	0	131596288	65	4389
2026-01-20 02:16:58.16	24.00	8.78	-46.8	-48.4	22.8	5.99e-01	0	38	0	133169152	65	4266
2026-01-20 02:16:59.17	24.00	8.87	-46.9	-48.5	22.7	6.02e-01	0	38	0	135266304	65	4300
2026-01-20 02:17:00.17	24.01	8.96	-47.3	-49.0	22.2	6.00e-01	0	38	0	137363456	65	4561
2026-01-20 02:17:01.18	24.02	9.05	-47.1	-48.8	22.4	6.01e-01	0	38	0	138936320	65	4478
2026-01-20 02:17:02.19	24.03	9.14	-47.2	-48.9	22.3	6.01e-01	0	38	0	141033472	65	4528
2026-01-20 02:17:03.20	24.03	9.23	-47.0	-48.7	22.5	6.00e-01	0	38	0	143130624	65	4417
2026-01-20 02:17:04.21	24.04	9.32	-47.3	-49.0	22.2	6.00e-01	0	38	0	144703488	65	4594
2026-01-20 02:17:05.21	24.05	9.41	-46.8	-48.4	22.7	6.02e-01	0	38	0	146800640	65	4280
2026-01-20 02:17:06.22	24.06	9.50	-47.0	-48.7	22.5	5.99e-01	0	38	0	148373504	65	4402
2026-01-20 02:17:07.23	24.07	9.59	-46.7	-48.3	23.0	6.01e-01	0	38	0	150470656	65	4199
2026-01-20 02:17:08.24	24.07	9.68	-47.0	-48.6	22.6	6.00e-01	0	38	0	152043520	65	4370
2026-01-20 02:17:09.25	24.08	9.77	-47.1	-48.7	22.5	5.99e-01	0	38	0	154140672	65	4437
2026-01-20 02:17:10.25	24.09	9.87	-47.0	-48.6	22.7	5.99e-01	0	38	0	156237824	65	4365
2026-01-20 02:17:11.26	24.10	9.96	-46.9	-48.6	22.7	6.00e-01	0	38	0	157810688	65	4341
2026-01-20 02:17:12.27	24.11	10.05	-46.7	-48.3	22.9	6.01e-01	0	38	0	159907840	65	4212
2026-01-20 02:17:13.28	24.11	10.15	-46.6	-48.2	23.0	6.02e-01	0	38	0	162004992	65	4172
2026-01-20 02:17:14.29	24.12	10.24	-46.6	-48.1	23.1	6.02e-01	0	38	0	163577856	65	4145
2026-01-20 02:17:15.29	24.13	10.34	-46.6	-48.1	23.1	5.99e-01	0	38	0	165675008	64	4366
2026-01-20 02:17:16.30	24.14	10.43	-46.4	-47.9	23.3	6.03e-01	0	38	0	167247872	64	4270
2026-01-20 02:17:17.31	24.15	10.53	-46.6	-57.8	3.8	7.48e-01	0	38	104	168820736	64	13307
2026-01-20 02:17:18.32	24.15	10.62	-46.7	-57.7	3.9	7.38e-01	0	38	104	168820736	64	13199
2026-01-20 02:17:19.32	24.16	10.72	-46.6	-57.6	3.9	7.38e-01	0	38	104	168820736	64	13003
2026-01-20 02:17:20.33	24.17	10.82	-47.0	-58.1	3.9	7.42e-01	0	38	104	168820736	65	12986
2026-01-20 02:17:21.34	24.18	10.91	-49.1	-60.7	3.7	7.49e-01	0	38	104	168820736	68	14789
2026-01-20 02:17:22.35	24.19	11.01	-53.4	-68.6	3.8	7.42e-01	0	38	104	168820736	78	20767
2026-01-20 02:17:23.35	24.19	11.11	-48.0	-59.2	3.9	7.40e-01	0	38	104	168820736	68	12464
2026-01-20 02:17:24.36	24.20	11.21	-50.4	-62.5	3.9	7.41e-01	0	38	104	168820736	72	14511
2026-01-20 02:17:25.37	24.21	11.31	-48.4	-59.7	3.9	7.42e-01	0	38	104	168820736	68	13129
2026-01-20 02:17:26.37	24.22	11.40	-48.0	-59.2	3.9	7.46e-01	0	38	104	168820736	67	13168
2026-01-20 02:17:27.38	24.23	11.51	-47.1	-58.2	3.9	7.41e-01	0	38	104	168820736	66	12382
2026-01-20 02:17:28.39	24.24	11.61	-46.9	-57.8	3.9	7.44e-01	0	38	104	168820736	65	12641
2026-01-20 02:17:29.40	24.24	11.71	-50.0	-61.9	3.7	7.43e-01	0	38	104	168820736	70	15082
2026-01-20 02:17:30.41	24.25	11.81	-52.8	-66.9	3.9	7.41e-01	0	38	104	168820736	77	17970
2026-01-20 02:17:31.41	24.26	11.91	-48.0	-58.7	3.9	7.42e-01	0	38	104	168820736	67	12500
2026-01-20 02:17:32.42	24.27	12.01	-49.8	-61.6	3.8	7.48e-01	0	38	104	168820736	71	13801
2026-01-20 02:17:33.43	24.28	12.11	-48.1	-59.2	3.9	7.41e-01	0	38	104	168820736	67	13233
2026-01-20 02:17:34.44	24.29	12.22	-47.5	-58.5	4.1	7.34e-01	0	38	104	168820736	67	12107
2026-01-20 02:17:35.44	24.30	12.32	-46.6	-57.4	4.1	7.36e-01	0	38	104	168820736	65	11994
2026-01-20 02:17:36.45	24.30	12.42	-46.6	-57.6	3.8	7.42e-01	0	38	104	168820736	65	12283
2026-01-20 02:17:37.46	24.31	12.53	-50.0	-61.6	4.0	7.38e-01	0	38	104	168820736	70	14704
2026-01-20 02:17:38.47	24.32	12.63	-52.1	-65.4	3.8	7.46e-01	0	38	104	168820736	76	15958
2026-01-20 02:17:39.47	24.33	12.74	-47.5	-58.5	3.7	7.52e-01	0	38	104	168820736	66	12917
2026-01-20 02:17:40.48	24.34	12.85	-49.4	-60.8	3.7	7.48e-01	0	38	104	168820736	70	13263
2026-01-20 02:17:41.49	24.35	12.95	-48.2	-59.4	3.8	7.41e-01	0	38	104	168820736	68	12793
2026-01-20 02:17:42.50	24.36	13.06	-47.9	-59.1	3.8	7.44e-01	0	38	104	168820736	67	13051
2026-01-20 02:17:43.51	24.37	13.17	-47.1	-58.2	3.8	7.43e-01	0	38	104	168820736	66	12501
2026-01-20 02:17:44.51	24.38	13.28	-46.7	-57.8	3.8	7.43e-01	0	38	104	168820736	65	12559
2026-01-20 02:17:45.52	24.38	13.38	-51.4	-64.1	3.8	7.46e-01	0	38	104	168820736	73	16344
2026-01-20 02:17:46.53	24.39	13.49	-52.2	-65.5	3.9	7.43e-01	0	38	104	168820736	76	16211
2026-01-20 02:17:47.54	24.40	13.60	-47.5	-58.6	3.8	7.45e-01	0	38	104	168820736	66	13090
2026-01-20 02:17:48.55	24.41	13.72	-49.5	-61.2	3.8	7.41e-01	0	38	104	168820736	71	13142
2026-01-20 02:17:49.56	24.42	13.83	-48.0	-59.3	3.8	7.43e-01	0	38	104	168820736	68	12592
2026-01-20 02:17:50.56	24.43	13.94	-47.7	-58.8	3.8	7.43e-01	0	38	104	168820736	67	12649
2026-01-20 02:17:51.57	24.44	14.05	-47.1	-58.2	3.8	7.46e-01	0	38	104	168820736	66	12418
2026-01-20 02:17:52.58	24.45	14.16	-46.9	-58.0	3.8	7.43e-01	0	38	104	168820736	65	12895
2026-01-20 02:17:53.58	24.46	14.27	-52.4	-65.8	3.8	7.44e-01	0	38	104	168820736	75	17740
2026-01-20 02:17:54.59	24.47	14.39	-51.0	-63.5	3.9	7.46e-01	0	38	104	168820736	74	14406
2026-01-20 02:17:55.60	24.48	14.50	-48.2	-59.4	3.8	7.47e-01	0	38	104	168820736	66	14344
2026-01-20 02:17:56.61	24.49	14.62	-48.2	-59.5	3.9	7.46e-01	0	38	104	168820736	68	12857
2026-01-20 02:17:57.61	24.49	14.73	-47.2	-58.3	3.8	7.47e-01	0	38	104	168820736	66	12556
2026-01-20 02:17:58.62	24.50	14.85	-46.7	-57.8	3.8	7.44e-01	0	38	104	168820736	65	12527
2026-01-20 02:17:59.63	24.51	14.97	-46.2	-57.2	3.8	7.43e-01	0	38	104	168820736	64	12478
2026-01-20 02:18:00.64	24.52	15.08	-46.3	-57.2	3.8	7.41e-01	0	38	104	168820736	64	12516
2026-01-20 02:18:01.65	24.53	15.20	-52.4	-65.7	3.8	7.45e-01	0	38	104	168820736	75	17518
2026-01-20 02:18:02.66	24.54	15.32	-50.8	-62.9	3.8	7.41e-01	0	38	104	168820736	73	14326
2026-01-20 02:18:03.66	24.55	15.44	-48.0	-59.1	3.8	7.45e-01	0	39	104	168820736	66	13851
2026-01-20 02:18:04.66	24.56	15.56	-48.9	-60.3	3.8	7.47e-01	0	38	104	168820736	69	13292
2026-01-20 02:18:05.68	24.57	15.68	-47.9	-59.1	3.8	7.44e-01	0	38	104	168820736	67	13046
2026-01-20 02:18:06.68	24.58	15.80	-47.6	-58.7	3.8	7.46e-01	0	38	104	168820736	67	12491
2026-01-20 02:18:07.69	24.59	15.92	-46.1	-57.0	3.8	7.46e-01	0	38	104	168820736	64	12205
2026-01-20 02:18:08.70	24.60	16.05	-46.5	-57.5	3.8	7.44e-01	0	38	104	168820736	64	12884
2026-01-20 02:18:09.71	24.61	16.17	-53.0	-66.7	3.8	7.44e-01	0	38	104	168820736	76	18679
2026-01-20 02:18:10.71	24.62	16.29	-50.2	-62.2	3.8	7.44e-01	0	38	104	168820736	72	13910
2026-01-20 02:18:11.72	24.63	16.42	-49.2	-60.6	3.8	7.48e-01	0	38	104	168820736	68	14626
2026-01-20 02:18:12.73	24.64	16.55	-48.6	-60.0	3.8	7.46e-01	0	38	104	168820736	69	12814
2026-01-20 02:18:13.74	24.65	16.67	-48.0	-59.2	3.8	7.46e-01	0	38	104	168820736	68	12434
2026-01-20 02:18:14.75	24.66	16.80	-47.7	-58.8	3.8	7.42e-01	0	38	104	168820736	67	12655
2026-01-20 02:18:15.75	24.67	16.93	-47.3	-58.4	3.8	7.42e-01	0	38	104	168820736	66	12751
2026-01-20 02:18:16.76	24.68	17.06	-46.7	-57.7	3.8	7.46e-01	0	38	104	168820736	65	12494
2026-01-20 02:18:17.77	24.69	17.18	-53.6	-68.2	3.8	7.48e-01	0	39	104	168820736	77	20935
2026-01-20 02:18:18.78	24.70	17.31	-48.9	-60.1	3.8	7.41e-01	0	38	104	168820736	69	13034
2026-01-20 02:18:19.79	24.71	17.45	-50.0	-61.7	3.8	7.46e-01	0	38	104	168820736	70	14878
2026-01-20 02:18:20.80	24.73	17.58	-47.4	-58.5	3.8	7.47e-01	0	38	104	168820736	66	12883
2026-01-20 02:18:21.81	24.74	17.71	-47.1	-58.1	3.8	7.46e-01	0	38	104	168820736	66	12337
2026-01-20 02:18:22.81	24.75	17.84	-47.0	-58.0	3.8	7.46e-01	0	38	104	168820736	65	12885
2026-01-20 02:18:23.82	24.76	17.98	-47.8	-59.1	3.8	7.47e-01	0	38	104	168820736	66	13742
2026-01-20 02:18:24.83	24.77	18.11	-46.6	-57.6	3.8	7.44e-01	0	38	104	168820736	65	12370
2026-01-20 02:18:25.84	24.78	18.25	-53.5	-68.0	3.8	7.48e-01	0	38	104	168820736	77	20480
2026-01-20 02:18:26.85	24.79	18.38	-48.6	-60.0	3.8	7.46e-01	0	39	104	168820736	69	12840
2026-01-20 02:18:27.85	24.80	18.52	-50.0	-61.6	3.8	7.45e-01	0	38	104	168820736	70	14684
2026-01-20 02:18:28.86	24.81	18.66	-47.1	-58.1	3.8	7.43e-01	0	38	104	168820736	66	12307
2026-01-20 02:18:29.87	24.82	18.80	-46.6	-57.7	3.8	7.45e-01	0	39	104	168820736	65	12397
2026-01-20 02:18:30.88	24.84	18.94	-46.3	-57.2	3.8	7.44e-01	0	39	104	168820736	64	12516
2026-01-20 02:18:31.89	24.85	19.08	-46.6	-57.7	3.8	7.46e-01	0	39	104	168820736	63	13895
2026-01-20 02:18:32.89	24.86	19.22	-46.6	-57.6	3.8	7.44e-01	0	39	104	168820736	63	13798
2026-01-20 02:18:33.90	24.87	19.36	-53.9	-69.0	3.7	7.43e-01	0	39	104	168820736	78	21614
2026-01-20 02:18:34.91	24.88	19.50	-48.9	-60.4	3.9	7.47e-01	0	38	104	168820736	69	13526
2026-01-20 02:18:35.92	24.89	19.65	-50.8	-62.9	3.8	7.45e-01	0	39	104	168820736	72	15110
2026-01-20 02:18:36.93	24.90	19.79	-48.3	-59.6	3.8	7.45e-01	0	39	104	168820736	68	13056
2026-01-20 02:18:37.94	24.92	19.94	-48.3	-59.5	3.8	7.48e-01	0	39	104	168820736	68	12876
2026-01-20 02:18:38.94	24.93	20.09	-48.1	-59.3	3.9	7.47e-01	0	39	104	168820736	67	13317
2026-01-20 02:18:39.95	24.94	20.24	-46.6	-57.5	3.8	7.44e-01	0	38	104	168820736	65	12159
2026-01-20 02:18:40.96	24.95	20.38	-46.8	-57.8	3.8	7.41e-01	0	39	104	168820736	65	12599
2026-01-20 02:18:41.97	24.96	20.53	-54.1	-69.6	3.8	7.46e-01	0	39	104	168820736	78	23103
2026-01-20 02:18:42.98	24.98	20.69	-48.2	-59.5	3.8	7.46e-01	0	38	104	168820736	68	12860
2026-01-20 02:18:43.99	24.99	20.84	-51.3	-63.7	3.8	7.43e-01	0	39	104	168820736	73	15664
2026-01-20 02:18:44.99	25.00	20.99	-47.1	-58.2	3.8	7.44e-01	0	39	104	168820736	66	12466
2026-01-20 02:18:46.00	25.01	21.14	-47.0	-58.1	3.8	7.46e-01	0	39	104	168820736	66	12287
2026-01-20 02:18:47.01	25.02	21.30	-47.0	-58.1	3.8	7.43e-01	0	39	104	168820736	66	12290
2026-01-20 02:18:48.02	25.04	21.46	-49.0	-60.5	3.8	7.43e-01	0	39	104	168820736	68	14384
2026-01-20 02:18:49.03	25.05	21.61	-47.1	-58.2	3.8	7.45e-01	0	39	104	168820736	65	13166
2026-01-20 02:18:50.03	25.06	21.77	-54.1	-69.8	3.8	7.46e-01	0	39	104	168820736	78	23605
2026-01-20 02:18:51.04	25.08	21.93	-48.4	-59.7	3.8	7.45e-01	0	39	104	168820736	68	13206
2026-01-20 02:18:52.05	25.09	22.09	-51.5	-64.1	3.8	7.45e-01	0	39	104	168820736	73	16316
2026-01-20 02:18:53.06	25.10	22.25	-47.3	-58.3	3.8	7.47e-01	0	38	104	168820736	66	12591
2026-01-20 02:18:54.06	25.11	22.41	-47.0	-58.0	3.8	7.44e-01	0	38	104	168820736	66	12154
2026-01-20 02:18:55.07	25.13	22.58	-46.6	-57.6	3.8	7.46e-01	0	38	104	168820736	65	12324
2026-01-20 02:18:56.08	25.14	22.74	-46.8	-57.9	3.8	7.45e-01	0	38	104	168820736	64	13470
2026-01-20 02:18:57.09	25.15	22.91	-47.2	-58.3	3.8	7.43e-01	0	39	104	168820736	64	14109
2026-01-20 02:18:58.09	25.17	23.07	-54.1	-69.7	3.8	7.45e-01	0	39	104	168820736	78	23441
2026-01-20 02:18:59.10	25.18	23.24	-48.3	-59.7	3.8	7.47e-01	0	39	104	168820736	68	13165
2026-01-20 02:19:00.11	25.20	23.41	-51.6	-64.1	3.8	7.47e-01	0	39	104	168820736	73	16454
2026-01-20 02:19:01.12	25.21	23.58	-47.3	-58.3	3.8	7.44e-01	0	39	104	168820736	66	12609
2026-01-20 02:19:02.13	25.22	23.76	-47.0	-58.0	3.8	7.45e-01	0	39	104	168820736	66	12233
2026-01-20 02:19:03.13	25.24	23.93	-46.8	-57.9	3.8	7.42e-01	0	39	104	168820736	65	12735
2026-01-20 02:19:04.14	25.25	24.10	-46.8	-57.9	3.8	7.45e-01	0	39	104	168820736	64	13421
2026-01-20 02:19:05.15	25.27	24.28	-47.8	-58.8	3.8	7.46e-01	0	39	104	168820736	65	14078
2026-01-20 02:19:06.16	25.28	24.46	-54.1	-69.8	3.8	7.43e-01	0	39	104	168820736	78	23722
2026-01-20 02:19:07.17	25.29	24.64	-48.0	-59.3	3.8	7.44e-01	0	39	104	168820736	68	12538
2026-01-20 02:19:08.18	25.31	24.82	-51.3	-63.7	3.8	7.43e-01	0	39	104	168820736	73	15668
2026-01-20 02:19:09.19	25.32	25.00	-47.4	-58.5	3.8	7.48e-01	0	39	104	168820736	66	12908
2026-01-20 02:19:10.19	25.34	25.18	-47.1	-58.2	3.8	7.43e-01	0	39	104	168820736	66	12446
2026-01-20 02:19:11.20	25.35	25.36	-46.7	-57.7	3.8	7.43e-01	0	39	104	168820736	65	12379
2026-01-20 02:19:12.21	25.37	25.55	-47.0	-58.0	3.8	7.47e-01	0	39	104	168820736	65	12955
2026-01-20 02:19:13.22	25.38	25.74	-47.7	-58.8	3.9	7.43e-01	0	39	104	168820736	65	14127
2026-01-20 02:19:14.23	25.40	25.92	-53.8	-68.6	3.9	7.41e-01	0	39	104	168820736	78	20714
2026-01-20 02:19:15.24	25.42	26.11	-47.9	-59.0	3.8	7.43e-01	0	39	104	168820736	67	12914
2026-01-20 02:19:16.25	25.43	26.30	-51.4	-63.7	3.8	7.42e-01	0	39	104	168820736	73	15697
2026-01-20 02:19:17.25	25.45	26.50	-48.0	-59.1	3.8	7.45e-01	0	39	104	168820736	68	12327
2026-01-20 02:19:18.26	25.46	26.69	-48.0	-59.2	3.8	7.42e-01	0	39	104	168820736	68	12495
2026-01-20 02:19:19.27	25.48	26.89	-48.0	-59.2	3.9	7.44e-01	0	39	104	168820736	67	13238
2026-01-20 02:19:20.27	25.50	27.08	-46.6	-57.7	3.8	7.46e-01	0	39	104	168820736	65	12381
2026-01-20 02:19:21.28	25.51	27.28	-48.5	-59.8	3.8	7.45e-01	0	39	104	168820736	67	14126
2026-01-20 02:19:22.29	25.53	27.48	-53.4	-67.6	3.9	7.41e-01	0	39	104	168820736	78	18473
2026-01-20 02:19:23.30	25.55	27.68	-47.6	-58.7	3.8	7.46e-01	0	39	104	168820736	67	12507
2026-01-20 02:19:24.31	25.56	27.89	-50.8	-62.9	3.8	7.40e-01	0	39	104	168820736	73	14211
2026-01-20 02:19:25.31	25.58	28.09	-47.9	-59.0	3.8	7.46e-01	0	39	104	168820736	67	12897
2026-01-20 02:19:26.32	25.60	28.30	-47.4	-58.5	3.8	7.44e-01	0	38	104	168820736	66	12834
2026-01-20 02:19:27.33	25.61	28.50	-46.6	-57.6	3.8	7.46e-01	0	39	104	168820736	65	12294
2026-01-20 02:19:28.34	25.63	28.72	-46.0	-56.9	3.8	7.43e-01	0	39	104	168820736	63	12687
2026-01-20 02:19:29.35	25.65	28.93	-48.1	-59.2	3.8	7.43e-01	0	39	104	168820736	66	14020
2026-01-20 02:19:30.35	25.67	29.14	-53.3	-67.3	3.8	7.42e-01	0	39	104	168820736	78	17699
2026-01-20 02:19:31.36	25.69	29.35	-46.7	-57.8	3.9	7.46e-01	0	39	104	168820736	65	12538
2026-01-20 02:19:32.37	25.70	29.57	-49.3	-60.7	3.8	7.46e-01	0	39	104	168820736	70	13260
2026-01-20 02:19:33.38	25.72	29.79	-46.5	-57.4	3.8	7.47e-01	0	39	104	168820736	65	12050
2026-01-20 02:19:34.39	25.74	30.01	-46.7	-57.6	3.8	7.42e-01	0	39	104	168820736	64	13083
2026-01-20 02:19:35.39	25.76	30.23	-46.4	-57.3	3.8	7.48e-01	0	39	104	168820736	64	12616
2026-01-20 02:19:36.40	25.78	30.46	-46.4	-57.4	3.8	7.43e-01	0	39	104	168820736	64	12665
2026-01-20 02:19:37.41	25.80	30.68	-49.6	-61.1	3.8	7.45e-01	0	39	104	168820736	69	14613
2026-01-20 02:19:38.41	25.82	30.91	-52.6	-65.9	3.9	7.40e-01	0	39	104	168820736	77	16057
2026-01-20 02:19:39.42	25.84	31.14	-46.5	-57.5	3.8	7.43e-01	0	39	104	168820736	65	12109
2026-01-20 02:19:40.43	25.86	31.37	-49.4	-60.6	3.8	7.45e-01	0	39	104	168820736	70	13003
2026-01-20 02:19:41.44	25.88	31.61	-46.5	-57.5	3.8	7.44e-01	0	39	104	168820736	64	12826
2026-01-20 02:19:42.45	25.90	31.84	-46.2	-57.1	3.9	7.44e-01	0	38	104	168820736	64	12372
2026-01-20 02:19:43.45	25.92	32.08	-46.0	-56.9	3.8	7.46e-01	0	39	104	168820736	63	12695
2026-01-20 02:19:44.46	25.94	32.32	-46.0	-56.9	3.8	7.43e-01	0	39	104	168820736	64	12026
2026-01-20 02:19:45.47	25.96	32.56	-51.0	-63.1	3.8	7.42e-01	0	39	104	168820736	72	15424
2026-01-20 02:19:46.48	25.99	32.81	-51.7	-64.2	3.8	7.44e-01	0	39	104	168820736	75	14876
2026-01-20 02:19:47.49	26.01	33.05	-47.1	-58.1	3.8	7.43e-01	0	39	104	168820736	65	13003
2026-01-20 02:19:48.49	26.03	33.30	-48.7	-60.1	3.9	7.44e-01	0	39	104	168820736	69	12993
2026-01-20 02:19:49.50	26.05	33.55	-46.8	-57.8	3.8	7.43e-01	0	39	104	168820736	65	12562
2026-01-20 02:19:50.51	26.07	33.80	-46.6	-57.6	3.8	7.44e-01	0	39	104	168820736	65	12327
2026-01-20 02:19:51.52	26.10	34.06	-46.4	-57.4	3.8	7.46e-01	0	39	104	168820736	64	12701
2026-01-20 02:19:52.53	26.12	34.32	-46.4	-57.1	3.8	7.45e-01	0	38	104	168820736	64	12362
2026-01-20 02:19:53.53	26.14	34.57	-51.3	-63.3	3.8	7.47e-01	0	39	104	168820736	72	15936
2026-01-20 02:19:54.54	26.17	34.84	-51.9	-64.7	3.8	7.44e-01	0	39	104	168820736	76	14847
2026-01-20 02:19:55.55	26.19	35.10	-47.6	-58.6	3.8	7.43e-01	0	39	104	168820736	66	13017
2026-01-20 02:19:56.55	26.22	35.37	-49.2	-60.7	3.8	7.46e-01	0	39	104	168820736	70	13160
2026-01-20 02:19:57.56	26.24	35.63	-47.6	-58.7	3.8	7.44e-01	0	39	104	168820736	67	12483
2026-01-20 02:19:58.57	26.27	35.91	-47.4	-58.5	3.8	7.45e-01	0	39	104	168820736	66	12823
2026-01-20 02:19:59.58	26.29	36.18	-47.6	-58.8	3.8	7.44e-01	0	39	104	168820736	66	13286
2026-01-20 02:20:00.59	26.32	36.46	-47.3	-58.3	3.8	7.45e-01	0	39	104	168820736	66	12644
2026-01-20 02:20:01.59	26.35	36.73	-52.8	-65.9	3.8	7.45e-01	0	39	104	168820736	75	17907
2026-01-20 02:20:02.60	26.37	37.02	-50.8	-62.7	3.9	7.43e-01	0	39	104	168820736	73	13963
2026-01-20 02:20:03.61	26.40	37.30	-49.3	-61.1	3.8	7.49e-01	0	38	104	168820736	69	14592
2026-01-20 02:20:04.62	26.43	37.59	-49.1	-60.6	3.9	7.44e-01	0	39	104	168820736	70	13095
2026-01-20 02:20:05.63	26.46	37.88	-48.1	-59.3	3.8	7.44e-01	0	38	104	168820736	68	12612
2026-01-20 02:20:06.63	26.49	38.17	-48.0	-59.2	3.8	7.46e-01	0	39	104	168820736	68	12417
2026-01-20 02:20:07.64	26.51	38.46	-48.6	-59.9	3.8	7.46e-01	0	39	104	168820736	68	13423
2026-01-20 02:20:08.65	26.54	38.76	-48.0	-59.2	3.8	7.43e-01	0	39	104	168820736	68	12395
2026-01-20 02:20:09.66	26.57	39.06	-53.1	-66.6	3.8	7.44e-01	0	39	104	168820736	76	18473
2026-01-20 02:20:10.67	26.61	39.36	-50.3	-62.1	3.9	7.43e-01	0	39	104	168820736	72	13816
2026-01-20 02:20:11.67	26.64	39.67	-50.8	-63.0	3.8	7.43e-01	0	39	104	168820736	72	15234
2026-01-20 02:20:12.68	26.67	39.98	-48.7	-60.1	3.8	7.43e-01	0	39	104	168820736	69	12970
2026-01-20 02:20:13.69	26.70	40.29	-48.3	-59.5	3.8	7.45e-01	0	39	104	168820736	68	12883
2026-01-20 02:20:14.70	26.73	40.60	-48.1	-59.2	3.8	7.47e-01	0	39	104	168820736	67	13207
2026-01-20 02:20:15.71	26.77	40.92	-48.5	-59.7	3.8	7.43e-01	0	39	104	168820736	67	13904
2026-01-20 02:20:16.71	26.80	41.24	-47.6	-58.8	3.8	7.46e-01	0	39	104	168820736	67	12587
2026-01-20 02:20:17.72	26.83	41.56	-53.4	-67.2	3.8	7.46e-01	0	39	104	168820736	77	18556
2026-01-20 02:20:18.73	26.87	41.89	-49.5	-61.0	3.8	7.46e-01	0	39	104	168820736	71	12951
2026-01-20 02:20:19.73	26.90	42.22	-50.0	-61.6	3.8	7.43e-01	0	39	104	168820736	70	14566
2026-01-20 02:20:20.74	26.94	42.55	-47.6	-58.7	3.8	7.42e-01	0	39	104	168820736	67	12494
2026-01-20 02:20:21.75	26.98	42.89	-47.1	-58.2	3.8	7.48e-01	0	39	104	168820736	66	12428
2026-01-20 02:20:22.76	27.02	43.22	-47.0	-58.0	3.9	7.41e-01	0	39	104	168820736	66	12169
2026-01-20 02:20:23.77	27.05	43.57	-47.7	-58.8	3.8	7.47e-01	0	39	104	168820736	65	14134
2026-01-20 02:20:24.77	27.09	43.91	-46.4	-57.3	3.8	7.45e-01	0	39	104	168820736	64	12549
2026-01-20 02:20:25.78	27.13	44.26	-53.4	-67.1	3.8	7.42e-01	0	39	104	168820736	77	18381
2026-01-20 02:20:26.79	27.17	44.61	-48.5	-59.8	3.9	7.45e-01	0	39	104	168820736	69	12606
2026-01-20 02:20:27.80	27.22	44.97	-51.0	-62.9	3.8	7.42e-01	0	39	104	168820736	72	15122
2026-01-20 02:20:28.81	27.26	45.33	-46.6	-57.5	3.8	7.42e-01	0	39	104	168820736	65	12205
2026-01-20 02:20:29.81	27.30	45.68	-46.5	-57.4	3.8	7.49e-01	0	39	104	168820736	64	12788
2026-01-20 02:20:30.82	27.35	46.05	-46.8	-57.8	3.8	7.42e-01	0	39	104	168820736	64	13366
2026-01-20 02:20:31.83	27.39	46.42	-47.3	-58.3	3.8	7.41e-01	0	39	104	168820736	65	13261
2026-01-20 02:20:32.84	27.44	46.79	-46.4	-57.4	3.8	7.46e-01	0	39	104	168820736	64	12682
2026-01-20 02:20:33.84	27.49	47.16	-53.4	-67.1	3.8	7.46e-01	0	39	104	168820736	77	18340
2026-01-20 02:20:34.85	27.53	47.54	-48.6	-59.9	3.8	7.46e-01	0	39	104	168820736	69	12674
2026-01-20 02:20:35.86	27.58	47.93	-50.9	-62.8	3.8	7.45e-01	0	39	104	168820736	72	14972
2026-01-20 02:20:36.87	27.63	48.31	-46.6	-57.5	3.8	7.46e-01	0	39	104	168820736	65	12207
2026-01-20 02:20:37.87	27.69	48.70	-46.4	-57.4	3.8	7.48e-01	0	38	104	168820736	64	12690
2026-01-20 02:20:38.88	27.74	49.10	-46.5	-57.4	3.9	7.47e-01	0	39	104	168820736	64	12791
2026-01-20 02:20:39.89	27.79	49.49	-50.3	-62.4	3.8	7.42e-01	0	39	104	168820736	71	15058
2026-01-20 02:20:40.90	27.85	49.90	-46.3	-57.2	3.8	7.43e-01	0	39	104	168820736	64	12500
2026-01-20 02:20:41.91	27.91	50.30	-53.7	-67.7	3.8	7.45e-01	0	39	104	168820736	77	19626
2026-01-20 02:20:42.91	27.97	50.71	-48.4	-59.6	3.8	7.45e-01	0	39	104	168820736	68	13067
2026-01-20 02:20:43.92	28.03	51.12	-51.9	-64.4	3.8	7.41e-01	0	39	104	168820736	74	15951
2026-01-20 02:20:44.93	28.09	51.53	-46.2	-57.2	3.8	7.44e-01	0	39	104	168820736	64	12423
2026-01-20 02:20:45.94	28.15	51.96	-46.0	-56.8	3.9	7.44e-01	0	39	104	168820736	63	12657
2026-01-20 02:20:46.94	28.22	52.38	-45.7	-56.5	3.8	7.45e-01	0	39	104	168820736	63	12133
2026-01-20 02:20:47.95	28.28	52.80	-47.9	-58.9	3.8	7.42e-01	0	39	104	168820736	66	13565
2026-01-20 02:20:48.96	28.35	53.23	-45.8	-56.6	3.8	7.46e-01	0	39	104	168820736	63	12288
2026-01-20 02:20:49.97	28.42	53.67	-53.6	-67.4	3.8	7.48e-01	0	39	104	168820736	77	19097
2026-01-20 02:20:50.97	28.50	54.11	-48.5	-59.6	3.8	7.46e-01	0	39	104	168820736	67	13845
2026-01-20 02:20:51.98	28.57	54.55	-51.9	-64.3	3.8	7.46e-01	0	39	104	168820736	74	15937
2026-01-20 02:20:52.99	28.65	55.00	-46.1	-56.9	3.8	7.45e-01	0	39	104	168820736	64	11992
2026-01-20 02:20:54.00	28.73	55.45	-46.3	-57.2	3.8	7.46e-01	0	39	104	168820736	63	13182
2026-01-20 02:20:55.01	28.81	55.90	-46.3	-57.2	3.8	7.44e-01	0	39	104	168820736	63	13222
2026-01-20 02:20:56.01	28.89	56.36	-51.6	-64.0	3.8	7.42e-01	0	39	104	168820736	73	16167
2026-01-20 02:20:57.02	28.98	56.82	-46.8	-57.8	3.9	7.44e-01	0	39	104	168820736	65	12652
2026-01-20 02:20:58.03	29.07	57.29	-54.0	-68.1	3.9	7.46e-01	0	39	104	168820736	78	19558
2026-01-20 02:20:59.04	29.17	57.76	-49.5	-61.1	3.8	7.43e-01	0	39	104	168820736	70	13768
2026-01-20 02:21:00.05	29.26	58.23	-52.7	-65.5	3.8	7.47e-01	0	39	104	168820736	75	17231
2026-01-20 02:21:01.05	29.36	58.71	-47.5	-58.7	3.8	7.42e-01	0	39	104	168820736	66	13118
2026-01-20 02:21:02.06	29.47	59.19	-47.3	-58.3	3.8	7.47e-01	0	39	104	168820736	66	12529
2026-01-20 02:21:03.07	29.57	59.68	-47.7	-58.7	3.8	7.44e-01	0	39	104	168820736	66	13217
2026-01-20 02:21:04.08	29.69	60.17	-49.6	-61.2	3.8	7.46e-01	0	39	104	168820736	70	14020
2026-01-20 02:21:05.08	29.80	60.66	-47.6	-58.6	3.8	7.42e-01	0	39	104	168820736	67	12267
2026-01-20 02:21:06.09	29.92	61.16	-54.3	-69.2	3.8	7.45e-01	0	39	104	168820736	79	20847
2026-01-20 02:21:07.10	30.05	61.66	-50.2	-61.9	3.8	7.45e-01	0	39	104	168820736	72	13549
2026-01-20 02:21:08.11	30.18	62.17	-53.1	-66.4	3.8	7.43e-01	0	39	104	168820736	77	17035
2026-01-20 02:21:09.12	30.31	62.67	-48.5	-59.8	3.8	7.45e-01	0	39	104	168820736	68	13292
2026-01-20 02:21:10.12	30.45	63.18	-48.7	-59.9	3.8	7.44e-01	0	39	104	168820736	68	13524
2026-01-20 02:21:11.13	30.60	63.70	-48.7	-60.0	3.8	7.45e-01	0	39	104	168820736	68	13631
2026-01-20 02:21:12.14	30.75	64.22	-52.2	-65.0	3.8	7.44e-01	0	39	104	168820736	75	16301
2026-01-20 02:21:13.15	30.91	64.75	-49.7	-61.2	3.8	7.42e-01	0	39	104	168820736	71	13134
2026-01-20 02:21:14.16	31.08	65.28	-54.7	-70.3	3.8	7.46e-01	0	39	104	168820736	79	23619
2026-01-20 02:21:15.17	31.26	65.81	-51.3	-63.5	3.9	7.46e-01	0	39	104	168820736	74	14468
2026-01-20 02:21:16.17	31.44	66.34	-53.9	-68.1	3.8	7.43e-01	0	39	104	168820736	79	18359
2026-01-20 02:21:17.18	31.63	66.88	-50.4	-62.2	3.8	7.44e-01	0	39	104	168820736	72	14046
2026-01-20 02:21:18.19	31.84	67.42	-50.1	-61.7	3.8	7.42e-01	0	39	104	168820736	72	13147
2026-01-20 02:21:19.20	32.05	67.96	-50.7	-62.7	3.8	7.44e-01	0	39	104	168820736	72	14745
2026-01-20 02:21:20.21	32.28	68.51	-53.8	-68.0	3.9	7.42e-01	0	39	104	168820736	79	18241
2026-01-20 02:21:21.21	32.52	69.06	-50.7	-62.6	3.8	7.43e-01	0	39	104	168820736	73	13778
2026-01-20 02:21:22.22	32.77	69.62	-54.6	-70.4	3.8	7.43e-01	0	39	104	168820736	80	22753
2026-01-20 02:21:23.23	33.04	70.17	-52.1	-64.8	3.9	7.44e-01	0	39	104	168820736	76	14963
2026-01-20 02:21:24.24	33.32	70.74	-53.8	-67.8	3.9	7.42e-01	0	39	104	168820736	79	17695
2026-01-20 02:21:25.25	33.63	71.30	-50.5	-62.4	3.8	7.43e-01	0	39	104	168820736	72	14213
2026-01-20 02:21:26.25	33.95	71.86	-50.0	-61.7	3.8	7.43e-01	0	39	104	168820736	72	13144
2026-01-20 02:21:27.26	34.29	72.43	-50.1	-61.7	3.8	7.43e-01	0	39	104	168820736	71	13893
2026-01-20 02:21:28.27	34.66	73.00	-52.5	-65.4	3.9	7.43e-01	0	39	104	168820736	77	15194
2026-01-20 02:21:29.28	35.05	73.58	-50.1	-61.7	3.8	7.44e-01	0	39	104	168820736	71	13901
2026-01-20 02:21:30.29	35.48	74.15	-54.3	-69.1	3.8	7.44e-01	0	39	104	168820736	79	20694
2026-01-20 02:21:31.29	35.93	74.72	-50.0	-61.6	3.8	7.41e-01	0	39	104	168820736	72	13023
2026-01-20 02:21:32.30	36.43	75.30	-52.7	-65.6	3.9	7.39e-01	0	39	104	168820736	77	15546
2026-01-20 02:21:33.31	36.97	75.88	-49.3	-60.8	3.8	7.45e-01	0	39	104	168820736	70	13402
2026-01-20 02:21:34.32	37.55	76.47	-49.0	-60.3	3.8	7.42e-01	0	39	104	168820736	70	12571
2026-01-20 02:21:35.33	38.19	77.05	-49.2	-60.6	3.8	7.46e-01	0	39	104	168820736	69	13743
2026-01-20 02:21:36.33	38.88	77.63	-51.7	-64.2	3.8	7.42e-01	0	39	104	168820736	75	14766
2026-01-20 02:21:37.34	39.66	78.21	-49.0	-60.1	3.8	7.48e-01	0	39	104	168820736	69	13087
2026-01-20 02:21:38.35	40.51	78.80	-53.9	-68.0	3.8	7.44e-01	0	39	104	168820736	79	18294
2026-01-20 02:21:39.36	41.46	79.38	-49.1	-60.7	3.8	7.46e-01	0	39	104	168820736	70	13130
2026-01-20 02:21:40.36	42.51	79.96	-52.0	-64.3	3.8	7.42e-01	0	39	104	168820736	76	14140
2026-01-20 02:21:41.37	43.70	80.54	-48.4	-59.6	3.8	7.47e-01	0	39	104	168820736	68	13059
2026-01-20 02:21:42.38	45.05	81.11	-48.0	-59.1	3.8	7.45e-01	0	39	104	168820736	68	12362
2026-01-20 02:21:43.39	46.59	81.69	-47.0	-58.0	3.8	7.43e-01	0	39	104	168820736	66	12132
2026-01-20 02:21:44.40	48.36	82.26	-48.1	-59.2	3.8	7.43e-01	0	39	104	168820736	68	12518
2026-01-20 02:21:45.41	50.41	82.82	-48.1	-59.2	3.8	7.44e-01	0	39	104	168820736	66	13899
2026-01-20 02:21:46.41	52.78	83.36	-52.2	-64.8	3.9	7.42e-01	0	39	104	168820736	76	14908
2026-01-20 02:21:47.42	55.60	83.90	-47.2	-58.4	3.8	7.44e-01	0	39	104	168820736	66	12729
2026-01-20 02:21:48.43	58.96	84.43	-50.4	-61.9	3.8	7.44e-01	0	39	104	168820736	72	13440
2026-01-20 02:21:49.44	63.01	84.93	-47.7	-58.8	3.8	7.43e-01	0	39	104	168820736	67	12542
2026-01-20 02:21:50.44	67.86	85.39	-47.7	-58.6	3.8	7.45e-01	0	39	104	168820736	67	12318
2026-01-20 02:21:51.45	73.82	85.82	-47.0	-58.1	3.8	7.46e-01	0	39	104	168820736	65	12994
2026-01-20 02:21:52.46	81.05	86.20	-48.8	-59.9	3.8	7.43e-01	0	39	104	168820736	69	12767
2026-01-20 02:21:53.47	89.70	86.50	-49.4	-61.1	3.8	7.49e-01	0	39	104	168820736	69	14615
2026-01-20 02:21:54.48	99.72	86.71	-50.2	-61.8	3.8	7.42e-01	0	39	104	168820736	72	13381
2026-01-20 02:21:55.49	110.72	86.81	-46.8	-57.6	3.8	7.44e-01	0	39	104	168820736	65	12266
2026-01-20 02:21:56.49	121.87	86.79	-48.1	-59.4	3.9	7.46e-01	0	39	104	168820736	68	12734
2026-01-20 02:21:57.50	132.58	86.65	-46.2	-57.0	3.8	7.46e-01	0	39	104	168820736	64	12210
2026-01-20 02:21:58.51	142.13	86.40	-46.4	-57.3	3.8	7.45e-01	0	39	104	168820736	64	12555
2026-01-20 02:21:59.51	150.17	86.07	-48.8	-60.3	3.8	7.46e-01	0	39	104	168820736	68	14167
2026-01-20 02:22:00.52	156.93	85.67	-48.8	-60.0	3.8	7.47e-01	0	39	104	168820736	69	12867
2026-01-20 02:22:01.53	162.49	85.23	-48.8	-59.8	3.8	7.46e-01	0	39	104	168820736	67	14172
2026-01-20 02:22:02.54	167.05	84.74	-50.4	-62.4	3.8	7.47e-01	0	39	104	168820736	73	13484
2026-01-20 02:22:03.55	170.83	84.23	-47.4	-58.2	3.8	7.43e-01	0	39	104	168820736	66	12477
2026-01-20 02:22:04.55	173.95	83.71	-49.1	-60.4	3.8	7.41e-01	0	39	104	168820736	70	12806
2026-01-20 02:22:05.56	176.61	83.17	-47.4	-58.3	3.8	7.43e-01	0	39	104	168820736	66	12635
2026-01-20 02:22:06.57	178.87	82.61	-47.5	-58.7	3.8	7.46e-01	0	39	104	168820736	66	13176
2026-01-20 02:22:07.57	180.79	82.05	-50.6	-62.3	3.8	7.48e-01	0	39	104	168820736	71	14942
2026-01-20 02:22:08.58	182.47	81.48	-48.7	-60.1	3.8	7.46e-01	0	39	104	168820736	69	13015
2026-01-20 02:22:09.59	183.94	80.91	-50.1	-61.5	3.8	7.45e-01	0	39	104	168820736	70	14531
2026-01-20 02:22:10.60	185.23	80.33	-50.1	-61.7	3.8	7.45e-01	0	39	104	168820736	72	13122
2026-01-20 02:22:11.61	186.37	79.75	-48.7	-60.0	3.8	7.44e-01	0	39	104	168820736	67	14447
2026-01-20 02:22:12.61	187.38	79.17	-49.2	-60.6	3.9	7.48e-01	0	39	104	168820736	70	12980
2026-01-20 02:22:13.62	188.30	78.58	-48.5	-59.6	3.8	7.46e-01	0	39	104	168820736	68	13052
2026-01-20 02:22:14.63	189.12	78.00	-48.9	-60.4	3.8	7.47e-01	0	39	104	168820736	68	14335
2026-01-20 02:22:15.64	189.86	77.41	-49.0	-60.0	3.8	7.44e-01	0	39	104	168820736	68	13628
2026-01-20 02:22:16.65	190.54	76.83	-50.1	-61.8	3.8	7.44e-01	0	39	104	168820736	71	14202
2026-01-20 02:22:17.65	191.15	76.25	-51.5	-63.8	3.8	7.44e-01	0	39	104	168820736	73	15942
2026-01-20 02:22:18.66	191.72	75.67	-51.7	-63.8	3.8	7.44e-01	0	39	104	168820736	75	14051
2026-01-20 02:22:19.67	192.24	75.09	-52.0	-64.0	3.8	7.47e-01	0	39	104	168820736	74	15338
2026-01-20 02:22:20.68	192.72	74.51	-50.8	-63.0	3.9	7.49e-01	0	39	104	168820736	73	14377
2026-01-20 02:22:21.69	193.17	73.93	-50.0	-61.6	3.8	7.46e-01	0	39	104	168820736	71	13869
2026-01-20 02:22:22.70	193.58	73.35	-49.3	-60.6	3.8	7.43e-01	0	39	104	168820736	70	13008
2026-01-20 02:22:23.70	193.97	72.79	-51.1	-63.0	3.9	7.50e-01	0	39	104	168820736	72	15290
2026-01-20 02:22:24.71	194.32	72.21	-51.0	-63.1	3.8	7.46e-01	0	39	104	168820736	73	14576
2026-01-20 02:22:25.72	194.66	71.65	-52.3	-65.3	3.8	7.44e-01	0	39	104	168820736	75	16861
2026-01-20 02:22:26.73	194.98	71.08	-51.8	-64.1	3.8	7.43e-01	0	39	104	168820736	75	14681
2026-01-20 02:22:27.74	195.27	70.51	-51.8	-64.1	3.8	7.46e-01	0	39	104	168820736	74	15443
2026-01-20 02:22:28.74	195.55	69.96	-50.0	-62.0	3.8	7.47e-01	0	39	104	168820736	72	13699
2026-01-20 02:22:29.75	195.81	69.40	-50.1	-61.5	3.8	7.45e-01	0	39	104	168820736	71	13715
2026-01-20 02:22:30.76	196.06	68.85	-50.1	-61.4	3.8	7.42e-01	0	39	104	168820736	71	13481
2026-01-20 02:22:31.77	196.29	68.29	-51.9	-64.1	3.8	7.44e-01	0	39	104	168820736	74	15566
2026-01-20 02:22:32.77	196.51	67.75	-51.8	-63.9	3.8	7.43e-01	0	39	104	168820736	74	15223
2026-01-20 02:22:33.78	196.72	67.21	-53.5	-67.4	3.8	7.49e-01	0	39	104	168820736	77	19113
2026-01-20 02:22:34.79	196.93	66.66	-52.3	-64.8	3.8	7.42e-01	0	39	104	168820736	75	15921
2026-01-20 02:22:35.80	197.12	66.13	-53.0	-65.9	3.8	7.45e-01	0	39	104	168820736	76	16978
2026-01-20 02:22:36.81	197.30	65.59	-50.2	-61.6	3.8	7.47e-01	0	39	104	168820736	72	13066
2026-01-20 02:22:37.81	197.47	65.06	-50.0	-62.1	3.8	7.45e-01	0	39	104	168820736	71	14634
2026-01-20 02:22:38.82	197.63	64.54	-49.1	-60.6	3.8	7.49e-01	0	39	104	168820736	70	12976
2026-01-20 02:22:39.83	197.79	64.01	-50.5	-62.1	3.8	7.48e-01	0	39	104	168820736	71	14636
2026-01-20 02:22:40.84	197.94	63.49	-50.6	-62.3	3.8	7.43e-01	0	39	104	168820736	71	14892
2026-01-20 02:22:41.85	198.09	62.97	-51.9	-64.2	3.8	7.46e-01	0	39	104	168820736	74	15686
2026-01-20 02:22:42.85	198.23	62.47	-51.1	-63.1	3.8	7.49e-01	0	39	104	168820736	73	14686
2026-01-20 02:22:43.86	198.36	61.96	-51.2	-63.5	3.8	7.43e-01	0	39	104	168820736	72	16257
2026-01-20 02:22:44.87	198.49	61.45	-48.4	-59.3	3.8	7.43e-01	0	39	104	168820736	68	12572
2026-01-20 02:22:45.88	198.61	60.95	-47.8	-58.6	3.8	7.43e-01	0	39	104	168820736	67	12287
2026-01-20 02:22:46.88	198.73	60.46	-48.0	-59.4	3.8	7.45e-01	0	39	104	168820736	67	13456
2026-01-20 02:22:47.89	198.84	59.96	-51.6	-64.1	3.8	7.44e-01	0	39	104	168820736	73	16419
2026-01-20 02:22:48.90	198.95	59.47	-51.8	-64.0	3.8	7.43e-01	0	39	104	168820736	74	15345
2026-01-20 02:22:49.91	199.06	58.98	-51.0	-62.9	3.8	7.46e-01	0	39	104	168820736	72	15163
2026-01-20 02:22:50.91	199.16	58.51	-49.5	-60.8	3.8	7.46e-01	0	39	104	168820736	69	14061
2026-01-20 02:22:51.92	199.26	58.03	-52.3	-65.1	3.8	7.46e-01	0	39	104	168820736	75	16388
2026-01-20 02:22:52.93	199.36	57.55	-47.3	-58.5	3.8	7.46e-01	0	39	104	168820736	66	12862
2026-01-20 02:22:53.94	199.45	57.08	-47.0	-58.0	3.8	7.45e-01	0	39	104	168820736	66	12107
2026-01-20 02:22:54.95	199.54	56.62	-46.7	-57.8	3.8	7.42e-01	0	39	104	168820736	65	12524
2026-01-20 02:22:55.95	199.62	56.16	-54.2	-69.1	3.8	7.47e-01	0	39	104	168820736	78	21911
2026-01-20 02:22:56.96	199.71	55.70	-48.9	-59.8	3.8	7.44e-01	0	39	104	168820736	69	12526
2026-01-20 02:22:57.97	199.79	55.24	-51.5	-63.5	3.8	7.44e-01	0	39	104	168820736	73	15342
2026-01-20 02:22:58.98	199.87	54.79	-49.8	-61.6	3.8	7.45e-01	0	39	104	168820736	70	14573
2026-01-20 02:22:59.99	199.94	54.35	-50.6	-62.7	3.8	7.46e-01	0	39	104	168820736	71	15598
2026-01-20 02:23:00.99	200.02	53.91	-46.4	-57.1	3.8	7.44e-01	0	39	104	168820736	64	12273
2026-01-20 02:23:02.00	200.09	53.47	-46.3	-57.1	3.8	7.47e-01	0	39	104	168820736	64	12358
2026-01-20 02:23:03.01	200.16	53.03	-46.0	-57.0	3.8	7.44e-01	0	39	104	168820736	63	12847
2026-01-20 02:23:04.01	200.23	52.61	-46.8	-57.8	3.8	7.44e-01	0	39	104	168820736	64	13342
2026-01-20 02:23:05.02	200.29	52.18	-50.4	-62.1	3.9	7.43e-01	0	39	104	168820736	71	14576
2026-01-20 02:23:06.03	200.36	51.76	-50.1	-61.5	3.8	7.44e-01	0	39	104	168820736	70	14525
2026-01-20 02:23:07.04	200.42	51.34	-48.6	-59.8	3.8	7.45e-01	0	39	104	168820736	68	13363
2026-01-20 02:23:08.05	200.48	50.92	-52.1	-64.8	3.9	7.43e-01	0	39	104	168820736	74	16746
2026-01-20 02:23:09.05	200.54	50.51	-46.6	-57.6	3.8	7.47e-01	0	39	104	168820736	65	12360
2026-01-20 02:23:10.06	200.60	50.10	-46.6	-57.8	3.8	7.46e-01	0	39	104	168820736	65	12533
2026-01-20 02:23:11.07	200.66	49.70	-46.6	-57.9	3.8	7.44e-01	0	39	104	168820736	65	12793
2026-01-20 02:23:12.08	200.71	49.30	-49.2	-60.7	3.8	7.43e-01	0	39	104	168820736	70	13147
2026-01-20 02:23:13.09	200.76	48.90	-49.5	-60.7	3.8	7.43e-01	0	39	104	168820736	71	12503
2026-01-20 02:23:14.09	200.82	48.51	-50.9	-62.8	3.8	7.44e-01	0	39	104	168820736	72	14982
2026-01-20 02:23:15.10	200.87	48.12	-49.4	-61.1	3.8	7.45e-01	0	39	104	168820736	71	13009
2026-01-20 02:23:16.11	200.92	47.73	-51.6	-63.9	3.8	7.46e-01	0	39	104	168820736	73	16028
2026-01-20 02:23:17.12	200.97	47.35	-47.3	-58.3	3.8	7.47e-01	0	39	104	168820736	66	12541
2026-01-20 02:23:18.13	201.02	46.97	-47.1	-58.0	3.8	7.47e-01	0	39	104	168820736	66	12155
2026-01-20 02:23:19.13	201.06	46.60	-46.9	-57.8	3.8	7.41e-01	0	39	104	168820736	65	12561
2026-01-20 02:23:20.14	201.11	46.23	-53.2	-66.9	3.9	7.44e-01	0	39	104	168820736	78	17055
2026-01-20 02:23:21.15	201.15	45.86	-50.2	-62.2	3.8	7.45e-01	0	39	104	168820736	72	13899
2026-01-20 02:23:22.16	201.20	45.49	-49.6	-61.1	3.8	7.46e-01	0	39	104	168820736	70	13885
2026-01-20 02:23:23.17	201.24	45.13	-47.7	-58.7	3.8	7.45e-01	0	39	104	168820736	67	12400
2026-01-20 02:23:24.18	201.28	44.77	-51.5	-63.6	3.8	7.45e-01	0	39	104	168820736	74	14679
2026-01-20 02:23:25.19	201.32	44.41	-46.7	-57.7	3.8	7.42e-01	0	39	104	168820736	65	12473
2026-01-20 02:23:26.20	201.36	44.06	-46.6	-57.5	3.8	7.46e-01	0	39	104	168820736	65	12221
2026-01-20 02:23:27.20	201.40	43.72	-46.8	-57.6	3.8	7.47e-01	0	39	104	168820736	65	12375
2026-01-20 02:23:28.21	201.44	43.37	-51.5	-63.9	3.9	7.41e-01	0	39	104	168820736	75	14246
2026-01-20 02:23:29.21	201.48	43.03	-48.8	-60.2	3.8	7.43e-01	0	39	104	168820736	69	13156
2026-01-20 02:23:30.22	201.52	42.69	-50.4	-62.2	3.8	7.45e-01	0	39	104	168820736	72	13954
2026-01-20 02:23:31.23	201.55	42.36	-48.9	-59.9	3.9	7.45e-01	0	39	104	168820736	69	12801
2026-01-20 02:23:32.24	201.59	42.03	-51.1	-63.1	3.9	7.45e-01	0	39	104	168820736	73	14544
2026-01-20 02:23:33.25	201.63	41.70	-47.6	-58.6	3.8	7.46e-01	0	39	104	168820736	67	12303
2026-01-20 02:23:34.25	201.66	41.37	-47.6	-58.8	3.8	7.43e-01	0	39	104	168820736	67	12612
2026-01-20 02:23:35.26	201.69	41.05	-47.6	-59.0	3.8	7.47e-01	0	39	104	168820736	67	12926
2026-01-20 02:23:36.27	201.73	40.73	-49.1	-60.9	3.8	7.47e-01	0	39	104	168820736	70	13524
2026-01-20 02:23:37.28	201.76	40.41	-48.6	-60.2	3.8	7.43e-01	0	39	104	168820736	69	13253
2026-01-20 02:23:38.29	201.79	40.10	-49.2	-60.5	3.8	7.49e-01	0	39	104	168820736	70	12913
2026-01-20 02:23:39.30	201.82	39.79	-48.0	-58.6	3.8	7.39e-01	0	39	104	168820736	67	12268
2026-01-20 02:23:40.31	201.86	39.48	-51.1	-63.0	3.9	7.42e-01	0	39	104	168820736	74	13675
2026-01-20 02:23:41.32	201.89	39.17	-47.7	-58.8	3.8	7.46e-01	0	39	104	168820736	67	12654
2026-01-20 02:23:42.32	201.92	38.87	-47.6	-58.9	3.8	7.43e-01	0	39	104	168820736	67	12698
2026-01-20 02:23:43.33	201.95	38.57	-47.5	-58.7	3.8	7.45e-01	0	39	104	168820736	67	12424
2026-01-20 02:23:44.34	201.98	38.27	-48.8	-60.1	3.8	7.42e-01	0	39	104	168820736	69	13038
2026-01-20 02:23:45.35	202.00	37.98	-48.2	-59.6	3.8	7.45e-01	0	39	104	168820736	68	13038
2026-01-20 02:23:46.35	202.03	37.69	-50.8	-63.1	3.8	7.41e-01	0	39	104	168820736	73	14594
2026-01-20 02:23:47.36	202.06	37.40	-48.6	-60.1	3.8	7.48e-01	0	39	104	168820736	69	13076
2026-01-20 02:23:48.37	202.09	37.11	-49.7	-61.2	3.8	7.40e-01	0	39	104	168820736	71	13195
2026-01-20 02:23:49.38	202.11	36.83	-47.8	-58.7	3.8	7.46e-01	0	39	104	168820736	67	12479
2026-01-20 02:23:50.39	202.14	36.55	-47.6	-58.4	3.8	7.45e-01	0	39	104	168820736	67	12051
2026-01-20 02:23:51.40	202.17	36.27	-47.0	-57.9	3.8	7.43e-01	0	39	104	168820736	65	12758
2026-01-20 02:23:52.41	202.19	35.99	-48.1	-59.3	3.8	7.44e-01	0	39	104	168820736	68	12627
2026-01-20 02:23:53.41	202.22	35.72	-47.1	-58.3	3.8	7.44e-01	0	39	104	168820736	66	12555
2026-01-20 02:23:54.42	202.24	35.45	-48.2	-59.5	3.8	7.43e-01	0	39	104	168820736	68	12913
2026-01-20 02:23:55.43	202.27	35.18	-46.7	-57.7	3.8	7.41e-01	0	39	104	168820736	65	12444
2026-01-20 02:23:56.43	202.29	34.92	-48.9	-60.1	3.8	7.46e-01	0	39	104	168820736	69	13064
2026-01-20 02:23:57.44	202.32	34.65	-46.4	-57.5	3.8	7.40e-01	0	39	104	168820736	64	12908
2026-01-20 02:23:58.45	202.34	34.39	-46.2	-57.3	3.9	7.43e-01	0	39	104	168820736	64	12531
2026-01-20 02:23:59.46	202.36	34.13	-47.1	-58.0	3.9	7.44e-01	0	39	104	168820736	64	13632
2026-01-20 02:24:00.47	202.39	33.87	-47.7	-49.3	21.6	6.08e-01	0	39	0	168820736	67	4234
2026-01-20 02:24:01.47	202.41	33.62	-45.8	-47.0	24.9	6.01e-01	0	39	0	170917888	63	4092
2026-01-20 02:24:02.48	202.43	33.37	-47.5	-49.1	22.9	6.02e-01	0	39	0	172490752	66	4353
2026-01-20 02:24:03.49	202.45	33.12	-45.5	-46.7	25.4	6.02e-01	0	39	0	174587904	62	4174
2026-01-20 02:24:04.50	202.48	32.87	-46.2	-47.5	23.9	6.04e-01	0	39	0	176160768	64	4095
2026-01-20 02:24:05.51	202.50	32.62	-45.2	-46.4	25.4	6.04e-01	0	39	0	178257920	62	4023
2026-01-20 02:24:06.51	202.52	32.38	-45.3	-46.5	25.3	6.02e-01	0	39	0	179830784	62	4061
2026-01-20 02:24:07.52	202.54	32.14	-45.1	-46.3	25.5	6.03e-01	0	39	0	181927936	62	3993
2026-01-20 02:24:08.53	202.56	31.90	-45.1	-46.3	25.6	6.03e-01	0	39	0	184025088	62	3968
2026-01-20 02:24:09.54	202.58	31.66	-45.1	-46.3	25.6	6.03e-01	0	39	0	185597952	62	3992
2026-01-20 02:24:10.54	202.60	31.42	-45.2	-46.4	25.5	6.05e-01	0	39	0	187695104	62	4047
2026-01-20 02:24:11.55	202.62	31.19	-45.2	-46.5	25.4	6.01e-01	0	39	0	189267968	62	4060
2026-01-20 02:24:12.56	202.64	30.96	-45.3	-46.6	25.3	6.03e-01	0	39	0	191365120	62	4106
2026-01-20 02:24:13.57	202.66	30.73	-45.3	-46.6	25.2	6.04e-01	0	39	0	193462272	62	4120
2026-01-20 02:24:14.57	202.68	30.50	-45.3	-46.6	25.2	6.01e-01	0	39	0	195035136	62	4118
2026-01-20 02:24:15.58	202.70	30.28	-45.2	-46.4	25.4	6.02e-01	0	39	0	197132288	62	4029
2026-01-20 02:24:16.59	202.72	30.05	-45.1	-46.3	25.6	6.00e-01	0	39	0	199229440	62	3965
2026-01-20 02:24:17.60	202.74	29.83	-45.1	-46.3	25.5	6.01e-01	0	39	0	200802304	62	3992
2026-01-20 02:24:18.61	202.76	29.61	-45.2	-46.4	25.4	6.04e-01	0	39	0	202899456	62	4032
2026-01-20 02:24:19.61	202.77	29.39	-45.3	-46.6	25.3	6.04e-01	0	39	0	204472320	62	4109
2026-01-20 02:24:20.62	202.79	29.17	-45.4	-46.6	25.2	6.02e-01	0	39	0	206569472	62	4139
2026-01-20 02:24:21.63	202.81	28.96	-45.5	-46.7	25.1	6.03e-01	0	39	0	208142336	62	4185
2026-01-20 02:24:22.63	202.83	28.75	-45.4	-46.6	25.1	6.04e-01	0	39	0	210239488	62	4140
2026-01-20 02:24:23.64	202.84	28.54	-45.4	-46.6	25.2	6.02e-01	0	39	0	212336640	62	4134
2026-01-20 02:24:24.65	202.86	28.33	-45.3	-46.5	25.2	6.03e-01	0	39	0	213909504	62	4094
2026-01-20 02:24:25.66	202.88	28.12	-45.3	-46.5	25.2	6.03e-01	0	39	0	216006656	62	4084
2026-01-20 02:24:26.67	202.90	27.91	-45.4	-46.7	25.1	6.04e-01	0	39	0	218103808	62	4155
2026-01-20 02:24:27.67	202.91	27.71	-45.5	-46.8	25.1	6.05e-01	0	39	0	219676672	62	4202
2026-01-20 02:24:28.68	202.93	27.50	-45.6	-46.9	24.9	6.03e-01	0	39	0	221773824	62	4276
2026-01-20 02:24:29.69	202.95	27.30	-45.7	-47.1	24.8	6.02e-01	0	39	0	223346688	62	4344
2026-01-20 02:24:30.70	202.96	27.10	-45.8	-47.1	24.7	6.03e-01	0	39	0	225443840	62	4376
2026-01-20 02:24:31.71	202.98	26.90	-45.8	-47.1	24.7	6.02e-01	0	39	0	227540992	62	4363
2026-01-20 02:24:32.71	202.99	26.71	-45.9	-47.2	24.7	6.01e-01	0	38	0	229113856	62	4407
2026-01-20 02:24:33.72	203.01	26.51	-45.7	-47.1	24.7	6.05e-01	0	39	0	231211008	62	4349
2026-01-20 02:24:34.73	203.03	26.32	-45.8	-47.1	24.7	6.05e-01	0	39	0	232783872	62	4364
2026-01-20 02:24:35.74	203.04	26.13	-45.7	-47.1	24.7	6.04e-01	0	39	0	234881024	62	4349
2026-01-20 02:24:36.75	203.06	25.93	-45.9	-47.2	24.6	6.01e-01	0	39	0	236453888	62	4415
2026-01-20 02:24:37.76	203.07	25.74	-45.8	-47.2	24.6	6.03e-01	0	39	0	238551040	62	4393
2026-01-20 02:24:38.77	203.09	25.56	-46.0	-47.4	24.4	6.01e-01	0	39	0	240648192	62	4523
2026-01-20 02:24:39.77	203.10	25.37	-46.1	-47.5	24.4	6.03e-01	0	39	0	242745344	62	4553
2026-01-20 02:24:40.78	203.12	25.19	-46.2	-47.6	24.2	6.04e-01	0	39	0	244318208	63	4377
2026-01-20 02:24:41.79	203.13	25.00	-46.3	-47.7	24.1	6.04e-01	0	39	0	246415360	63	4413
2026-01-20 02:24:42.80	203.15	24.82	-46.3	-47.7	24.1	6.04e-01	0	39	0	247988224	63	4432
2026-01-20 02:24:43.81	203.16	24.64	-46.3	-47.7	24.2	6.01e-01	0	38	0	250085376	63	4393
2026-01-20 02:24:44.81	203.17	24.46	-46.2	-47.6	24.2	6.03e-01	0	39	0	251658240	63	4377
2026-01-20 02:24:45.82	203.19	24.28	-46.2	-47.6	24.2	6.05e-01	0	39	0	253755392	63	4372
2026-01-20 02:24:46.83	203.20	24.10	-46.2	-47.6	24.1	6.02e-01	0	39	0	255852544	63	4373
2026-01-20 02:24:47.84	203.22	23.93	-46.2	-47.5	24.2	6.03e-01	0	39	0	257425408	63	4338
2026-01-20 02:24:48.85	203.23	23.75	-46.2	-47.6	24.1	6.01e-01	0	39	0	259522560	63	4373
2026-01-20 02:24:49.86	203.24	23.58	-46.2	-47.6	24.1	6.04e-01	0	39	0	261095424	63	4371
2026-01-20 02:24:50.86	203.26	23.41	-46.2	-47.6	24.2	6.04e-01	0	39	0	263192576	63	4357
2026-01-20 02:24:51.87	203.27	23.24	-46.2	-47.6	24.2	6.03e-01	0	39	0	265289728	63	4341
2026-01-20 02:24:52.88	203.28	23.07	-46.2	-47.5	24.2	6.05e-01	0	39	0	266862592	63	4331
2026-01-20 02:24:53.89	203.30	22.90	-46.2	-47.6	24.1	6.04e-01	0	39	0	268959744	63	4380
2026-01-20 02:24:54.89	203.31	22.73	-46.3	-47.7	24.1	6.03e-01	0	39	0	271056896	63	4413
2026-01-20 02:24:55.90	203.32	22.57	-46.3	-47.7	24.0	6.04e-01	0	39	0	272629760	63	4422
2026-01-20 02:24:56.91	203.34	22.40	-46.3	-47.7	24.1	6.03e-01	0	39	0	274726912	63	4402
2026-01-20 02:24:57.92	203.35	22.24	-46.3	-47.7	24.0	6.02e-01	0	38	0	276299776	63	4411
2026-01-20 02:24:58.93	203.36	22.08	-46.2	-47.5	24.1	6.02e-01	0	39	0	278396928	63	4334
2026-01-20 02:24:59.94	203.37	21.91	-46.2	-47.6	24.1	6.01e-01	0	39	0	279969792	63	4371
2026-01-20 02:25:00.94	203.39	21.76	-46.2	-47.6	24.1	6.03e-01	0	39	0	282066944	63	4373
2026-01-20 02:25:01.95	203.40	21.60	-46.1	-47.4	24.2	6.04e-01	0	39	0	284164096	63	4286
2026-01-20 02:25:02.96	203.41	21.44	-46.1	-47.4	24.3	6.04e-01	0	39	0	285736960	63	4286
2026-01-20 02:25:03.97	203.42	21.28	-46.1	-47.5	24.2	6.04e-01	0	38	0	287834112	63	4307
2026-01-20 02:25:04.98	203.44	21.12	-46.1	-47.5	24.2	6.02e-01	0	39	0	289931264	63	4300
2026-01-20 02:25:05.98	203.45	20.97	-46.0	-47.4	24.3	6.03e-01	0	39	0	291504128	63	4259
2026-01-20 02:25:06.99	203.46	20.82	-46.0	-47.4	24.3	6.03e-01	0	39	0	293601280	63	4274
2026-01-20 02:25:08.00	203.47	20.66	-46.0	-47.4	24.3	6.02e-01	0	39	0	295174144	63	4266
2026-01-20 02:25:09.01	203.48	20.51	-46.0	-47.3	24.3	6.02e-01	0	39	0	297271296	63	4239
2026-01-20 02:25:10.01	203.50	20.36	-46.0	-47.4	24.3	6.05e-01	0	39	0	299368448	63	4267
2026-01-20 02:25:11.02	203.51	20.21	-46.0	-47.4	24.3	6.04e-01	0	39	0	300941312	63	4263
2026-01-20 02:25:12.03	203.52	20.06	-46.1	-47.4	24.3	6.03e-01	0	39	0	303038464	63	4287
2026-01-20 02:25:13.04	203.53	19.91	-46.1	-47.4	24.2	6.03e-01	0	39	0	304611328	63	4285
2026-01-20 02:25:14.05	203.54	19.77	-46.0	-47.4	24.3	6.04e-01	0	39	0	306708480	63	4274
2026-01-20 02:25:15.05	203.55	19.62	-45.9	-47.3	24.4	6.01e-01	0	38	0	308281344	63	4194
2026-01-20 02:25:16.06	203.56	19.48	-45.9	-47.2	24.4	6.02e-01	0	39	0	310378496	63	4193
2026-01-20 02:25:17.07	203.57	19.33	-45.8	-47.2	24.5	6.04e-01	0	39	0	312475648	63	4167
2026-01-20 02:25:18.08	203.59	19.19	-45.9	-47.2	24.4	6.01e-01	0	39	0	314572800	63	4180
2026-01-20 02:25:19.08	203.60	19.05	-46.0	-47.3	24.3	6.05e-01	0	39	0	316145664	63	4239
2026-01-20 02:25:20.09	203.61	18.91	-46.0	-47.3	24.4	6.02e-01	0	39	0	318242816	63	4221
2026-01-20 02:25:21.10	203.62	18.77	-46.0	-47.4	24.3	6.03e-01	0	39	0	319815680	63	4264
2026-01-20 02:25:22.11	203.63	18.63	-45.9	-47.3	24.3	6.03e-01	0	39	0	321912832	63	4216
2026-01-20 02:25:23.11	203.64	18.49	-46.0	-47.3	24.3	6.02e-01	0	39	0	323485696	63	4235
2026-01-20 02:25:24.12	203.65	18.35	-46.0	-47.3	24.3	6.01e-01	0	39	0	325582848	63	4238
2026-01-20 02:25:25.13	203.66	18.21	-46.0	-47.3	24.3	6.05e-01	0	39	0	327680000	63	4229
2026-01-20 02:25:26.14	203.67	18.08	-46.0	-47.4	23.2	6.03e-01	0	39	0	329252864	63	4281
2026-01-20 02:25:27.15	203.68	17.94	-46.0	-47.4	24.3	6.01e-01	0	38	0	331350016	63	4263
2026-01-20 02:25:28.16	203.69	17.81	-46.1	-47.4	24.2	6.04e-01	0	39	0	332922880	63	4284
2026-01-20 02:25:29.17	203.70	17.67	-46.0	-47.4	24.2	6.04e-01	0	39	0	335020032	63	4245
2026-01-20 02:25:30.17	203.71	17.54	-46.0	-47.4	24.2	6.04e-01	0	39	0	337117184	63	4261
2026-01-20 02:25:31.18	203.72	17.41	-46.0	-47.4	24.2	6.03e-01	0	38	0	338690048	63	4283
2026-01-20 02:25:32.19	203.73	17.27	-46.0	-47.3	24.3	6.04e-01	0	39	0	340787200	63	4239
2026-01-20 02:25:33.20	203.74	17.14	-46.0	-47.4	24.2	6.02e-01	0	39	0	342884352	63	4259
2026-01-20 02:25:34.21	203.75	17.01	-46.2	-47.6	24.0	6.01e-01	0	39	0	344457216	63	4346
2026-01-20 02:25:35.21	203.76	16.89	-46.0	-47.4	24.2	6.04e-01	0	39	0	346554368	63	4260
2026-01-20 02:25:36.22	203.77	16.76	-46.1	-47.5	24.1	6.04e-01	0	39	0	348127232	63	4293
2026-01-20 02:25:37.23	203.78	16.63	-45.9	-47.3	24.3	6.02e-01	0	39	0	350224384	63	4210
2026-01-20 02:25:38.24	203.79	16.50	-45.9	-47.3	24.3	6.05e-01	0	39	0	351797248	63	4217
2026-01-20 02:25:39.25	203.80	16.38	-45.9	-47.3	24.2	6.04e-01	0	38	0	353894400	63	4216
2026-01-20 02:25:40.25	203.81	16.25	-45.9	-47.3	24.3	6.01e-01	0	38	0	355991552	63	4204
2026-01-20 02:25:41.26	203.82	16.13	-46.0	-47.4	24.1	6.02e-01	0	38	0	357564416	63	4285
2026-01-20 02:25:42.27	203.83	16.00	-45.9	-47.3	24.2	6.03e-01	0	39	0	359661568	63	4227
2026-01-20 02:25:43.28	203.84	15.88	-45.9	-47.3	24.2	6.03e-01	0	39	0	361758720	63	4218
2026-01-20 02:25:44.29	203.85	15.75	-45.9	-47.2	24.3	6.04e-01	0	39	0	363331584	63	4180
2026-01-20 02:25:45.29	203.86	15.63	-45.9	-47.3	24.2	6.04e-01	0	39	0	365428736	63	4237
2026-01-20 02:25:46.30	203.87	15.51	-45.8	-47.2	24.4	6.03e-01	0	38	0	367001600	63	4146
2026-01-20 02:25:47.31	203.88	15.39	-45.8	-47.2	24.3	6.02e-01	0	39	0	369098752	63	4156
2026-01-20 02:25:48.31	203.89	15.27	-45.8	-47.2	24.3	6.02e-01	0	39	0	371195904	63	4177
2026-01-20 02:25:49.32	203.90	15.15	-45.8	-47.2	24.3	6.03e-01	0	39	0	372768768	63	4154
2026-01-20 02:25:50.33	203.91	15.03	-45.9	-47.3	24.2	6.03e-01	0	38	0	374865920	63	4220
2026-01-20 02:25:51.34	203.92	14.91	-45.8	-47.2	24.3	6.03e-01	0	39	0	376438784	63	4160
2026-01-20 02:25:52.35	203.93	14.80	-45.9	-47.3	24.2	6.04e-01	0	39	0	378535936	63	4208
2026-01-20 02:25:53.36	203.93	14.68	-45.9	-47.2	24.3	6.02e-01	0	38	0	380108800	63	4191
2026-01-20 02:25:54.36	203.94	14.56	-45.9	-47.2	24.3	6.03e-01	0	39	0	382205952	63	4193
2026-01-20 02:25:55.37	203.95	14.45	-45.8	-47.1	24.4	6.03e-01	0	38	0	384303104	63	4145
2026-01-20 02:25:56.38	203.96	14.33	-45.7	-47.1	24.4	6.03e-01	0	39	0	385875968	63	4118
2026-01-20 02:25:57.39	203.97	14.22	-45.9	-47.2	24.3	6.03e-01	0	39	0	387973120	63	4181
2026-01-20 02:25:58.40	203.98	14.10	-45.9	-47.3	24.2	6.04e-01	0	39	0	390070272	63	4215
2026-01-20 02:25:59.41	203.99	13.99	-45.8	-47.1	24.4	6.03e-01	0	39	0	391643136	63	4141
2026-01-20 02:26:00.41	204.00	13.88	-45.8	-47.2	24.3	6.02e-01	0	38	0	393740288	63	4174
2026-01-20 02:26:01.42	204.01	13.77	-45.7	-47.1	24.4	6.02e-01	0	39	0	395313152	63	4114
2026-01-20 02:26:02.43	204.01	13.66	-45.8	-47.2	24.3	6.03e-01	0	39	0	397410304	63	4153
2026-01-20 02:26:03.44	204.02	13.54	-45.7	-47.1	24.4	6.03e-01	0	38	0	399507456	63	4108
2026-01-20 02:26:04.45	204.03	13.43	-45.8	-47.1	24.3	6.01e-01	0	39	0	401080320	63	4136
2026-01-20 02:26:05.46	204.04	13.32	-45.8	-47.2	24.3	6.02e-01	0	38	0	403177472	63	4163
2026-01-20 02:26:06.46	204.05	13.22	-46.0	-47.4	24.1	6.04e-01	0	39	0	404750336	63	4265
2026-01-20 02:26:07.47	204.06	13.11	-45.8	-47.2	24.3	6.04e-01	0	39	0	406847488	63	4173
2026-01-20 02:26:08.48	204.07	13.00	-45.9	-47.3	24.1	6.03e-01	0	39	0	408944640	63	4218
2026-01-20 02:26:09.49	204.07	12.89	-45.9	-47.2	24.2	6.04e-01	0	39	0	410517504	63	4189
2026-01-20 02:26:10.50	204.08	12.78	-46.0	-47.4	24.0	6.02e-01	0	38	0	412614656	63	4285
2026-01-20 02:26:11.50	204.09	12.68	-46.0	-47.4	24.1	6.03e-01	0	39	0	414187520	63	4246
2026-01-20 02:26:12.51	204.10	12.57	-46.0	-47.4	24.0	6.04e-01	0	39	0	416284672	63	4281
2026-01-20 02:26:13.52	204.11	12.46	-45.9	-47.3	24.1	6.02e-01	0	38	0	418381824	63	4232
2026-01-20 02:26:14.53	204.12	12.36	-46.1	-47.5	23.9	6.02e-01	0	38	0	419954688	63	4337
2026-01-20 02:26:15.54	204.12	12.25	-46.0	-47.4	24.0	6.02e-01	0	38	0	422051840	63	4250
2026-01-20 02:26:16.54	204.13	12.15	-46.1	-47.5	23.9	6.02e-01	0	38	0	423624704	63	4333
2026-01-20 02:26:17.55	204.14	12.05	-46.0	-47.5	24.0	6.03e-01	0	39	0	425721856	63	4293
2026-01-20 02:26:18.56	204.15	11.94	-46.0	-47.4	24.0	6.03e-01	0	39	0	427819008	63	4280
2026-01-20 02:26:19.56	204.16	11.84	-46.1	-47.5	23.9	6.01e-01	0	39	0	429391872	63	4310
2026-01-20 02:26:20.57	204.16	11.74	-46.1	-47.6	23.8	6.03e-01	0	39	0	431489024	63	4349
2026-01-20 02:26:21.58	204.17	11.64	-46.1	-47.5	23.9	6.03e-01	0	39	0	433586176	63	4305
2026-01-20 02:26:22.59	204.18	11.54	-46.1	-47.5	23.9	6.03e-01	0	39	0	435159040	63	4315
2026-01-20 02:26:23.59	204.19	11.44	-46.1	-47.6	23.8	6.03e-01	0	38	0	437256192	63	4342
2026-01-20 02:26:24.60	204.20	11.34	-46.2	-47.6	23.7	6.01e-01	0	39	0	438829056	63	4382
2026-01-20 02:26:25.61	204.20	11.24	-46.1	-47.6	23.8	6.02e-01	0	39	0	440926208	63	4342
2026-01-20 02:26:26.62	204.21	11.14	-46.2	-47.7	23.6	6.00e-01	0	39	0	442499072	63	4418
2026-01-20 02:26:27.63	204.22	11.04	-46.3	-47.8	23.6	6.05e-01	0	39	0	444596224	63	4472
2026-01-20 02:26:28.63	204.23	10.94	-46.2	-47.6	23.7	6.02e-01	0	39	0	446693376	63	4386
2026-01-20 02:26:29.64	204.23	10.84	-46.2	-47.6	23.7	6.01e-01	0	39	0	448266240	63	4386
2026-01-20 02:26:30.65	204.24	10.74	-46.3	-47.8	23.6	6.03e-01	0	39	0	450363392	63	4458
2026-01-20 02:26:31.66	204.25	10.65	-46.4	-47.9	23.5	6.03e-01	0	39	0	451936256	63	4505
2026-01-20 02:26:32.67	204.26	10.55	-46.4	-47.8	23.5	6.01e-01	0	39	0	454033408	63	4487
2026-01-20 02:26:33.67	204.26	10.45	-46.3	-47.7	23.6	6.04e-01	0	38	0	456130560	63	4437
2026-01-20 02:26:34.68	204.27	10.36	-46.3	-47.8	23.5	6.05e-01	0	39	0	457703424	63	4457
2026-01-20 02:26:35.69	204.28	10.26	-46.4	-47.9	23.4	6.02e-01	0	39	0	459800576	63	4532
2026-01-20 02:26:36.70	204.29	10.17	-46.4	-47.9	23.4	6.02e-01	0	39	0	461897728	63	4515
2026-01-20 02:26:37.71	204.29	10.07	-46.3	-47.8	23.5	6.03e-01	0	39	0	463470592	63	4486
2026-01-20 02:26:38.71	204.30	9.98	-46.4	-47.9	23.4	6.03e-01	0	39	0	465567744	63	4545
2026-01-20 02:26:39.72	204.31	9.88	-46.4	-47.9	23.4	6.03e-01	0	39	0	467140608	63	4509
2026-01-20 02:26:40.73	204.32	9.79	-46.5	-48.0	23.3	6.03e-01	0	39	0	469237760	63	4565
2026-01-20 02:26:41.73	204.32	9.70	-46.6	-48.2	23.1	6.03e-01	0	39	0	470810624	63	4658
2026-01-20 02:26:42.74	204.33	9.60	-46.7	-48.2	23.1	6.02e-01	0	39	0	472907776	63	4698
2026-01-20 02:26:43.75	204.34	9.51	-46.6	-48.2	23.0	6.03e-01	0	39	0	475004928	64	4404
2026-01-20 02:26:44.76	204.35	9.42	-46.8	-48.4	22.8	6.02e-01	0	39	0	476577792	64	4502
2026-01-20 02:26:45.77	204.35	9.33	-46.5	-48.0	23.2	6.00e-01	0	38	0	478674944	64	4332
2026-01-20 02:26:46.77	204.36	9.24	-46.6	-48.2	23.0	6.04e-01	0	39	0	480772096	64	4401
2026-01-20 02:26:47.78	204.37	9.15	-46.6	-48.1	23.1	6.02e-01	0	39	0	482344960	64	4378
2026-01-20 02:26:48.79	204.38	9.06	-46.4	-47.9	23.3	6.03e-01	0	38	0	484442112	64	4264
2026-01-20 02:26:49.80	204.38	8.97	-46.6	-48.1	23.0	6.03e-01	0	39	0	486014976	64	4378
2026-01-20 02:26:50.81	204.39	8.88	-46.8	-48.4	22.8	6.05e-01	0	39	0	488112128	64	4496
2026-01-20 02:26:51.81	204.40	8.79	-46.8	-48.5	22.7	6.04e-01	0	39	0	490209280	64	4549
2026-01-20 02:26:52.82	204.40	8.70	-46.6	-48.1	23.0	6.04e-01	0	39	0	491782144	64	4382
2026-01-20 02:26:53.83	204.41	8.61	-46.6	-48.1	23.0	6.04e-01	0	38	0	493879296	64	4380
2026-01-20 02:26:54.83	204.42	8.52	-46.6	-48.1	23.0	6.03e-01	0	39	0	495452160	64	4389
2026-01-20 02:26:55.84	204.43	8.43	-46.6	-48.2	22.9	6.05e-01	0	39	0	497549312	64	4417
