passes_logs/2026/01/20/R3.2S_Murmansk/R3.2S_Murmansk__20260120_115553_AQUA_rec.log

#Pass ID: 20260120_115553_AQUA
#Satellite: AQUA
#Configuration: AQUA
#almurnet v.1.7.20251203
#Start time: 2026-01-20 11:55:54

#Version: 2.2.20231116
#Station: R3.2S_Murmansk
#Location: 33.079688 lon 68.888172 lat
#TLE: 1 27424U 02022A   26019.95447505  .00001296  00000+0  26931-3 0  9993
#TLE: 2 27424  98.4091 346.4652 0001983  72.1988 359.6274 14.61832814261618

#Time	Az	El	Level	Level2	SNR	BER	BlckErr	Temp	State	Recorded	gain1	gain2
2026-01-20 11:55:54.28	168.60	2.04	-50.7	-68.4	3.8	7.43e-01	0	37	0	0	73	26787
2026-01-20 11:55:55.29	168.63	2.11	-50.7	-68.3	3.8	7.44e-01	0	37	104	0	72	28089
2026-01-20 11:55:56.29	168.65	2.17	-50.7	-67.6	3.8	7.42e-01	0	37	104	0	72	25927
2026-01-20 11:55:57.30	168.68	2.24	-50.7	-67.9	3.8	7.45e-01	0	37	104	0	72	26936
2026-01-20 11:55:58.31	168.70	2.31	-50.7	-67.8	3.8	7.47e-01	0	37	104	0	72	26659
2026-01-20 11:55:59.32	168.73	2.37	-50.7	-67.8	3.8	7.45e-01	0	37	104	0	72	26460
2026-01-20 11:56:00.33	168.75	2.44	-50.7	-68.1	3.8	7.45e-01	0	37	104	0	72	27406
2026-01-20 11:56:01.33	168.77	2.51	-50.7	-68.2	3.8	7.43e-01	0	37	104	0	72	27892
2026-01-20 11:56:02.34	168.80	2.58	-50.7	-68.0	3.8	7.46e-01	0	37	104	0	72	27246
2026-01-20 11:56:03.35	168.82	2.64	-50.7	-68.4	3.8	7.47e-01	0	37	104	0	72	28485
2026-01-20 11:56:04.35	168.85	2.71	-50.7	-68.2	3.8	7.48e-01	0	37	104	0	72	27880
2026-01-20 11:56:05.36	168.87	2.78	-50.7	-68.2	3.8	7.45e-01	0	37	104	0	72	28021
2026-01-20 11:56:06.37	168.90	2.85	-50.7	-68.0	3.8	7.46e-01	0	37	104	0	72	27134
2026-01-20 11:56:07.38	168.92	2.92	-50.6	-67.9	3.8	7.43e-01	0	37	104	0	72	27038
2026-01-20 11:56:08.39	168.95	2.99	-50.6	-67.8	3.8	7.44e-01	0	37	104	0	72	26480
2026-01-20 11:56:09.39	168.97	3.05	-50.6	-67.5	3.8	7.45e-01	0	37	104	0	72	25850
2026-01-20 11:56:10.40	169.00	3.12	-50.6	-67.1	3.8	7.45e-01	0	37	104	0	72	24484
2026-01-20 11:56:11.41	169.02	3.19	-50.6	-66.8	3.9	7.45e-01	0	38	104	0	72	23655
2026-01-20 11:56:12.42	169.05	3.26	-50.6	-67.0	3.8	7.43e-01	0	37	104	0	72	24155
2026-01-20 11:56:13.43	169.08	3.33	-50.6	-66.0	4.0	7.45e-01	0	37	104	0	72	21666
2026-01-20 11:56:14.43	169.10	3.40	-50.6	-67.2	3.8	7.47e-01	0	38	104	0	72	24930
2026-01-20 11:56:15.44	169.13	3.47	-50.6	-66.3	3.9	7.43e-01	0	37	104	0	72	22349
2026-01-20 11:56:16.45	169.15	3.54	-50.6	-66.7	3.8	7.45e-01	0	38	104	0	72	23353
2026-01-20 11:56:17.46	169.18	3.61	-50.6	-66.7	3.8	7.44e-01	0	38	104	0	72	23572
2026-01-20 11:56:18.46	169.21	3.68	-50.6	-66.5	3.8	7.43e-01	0	38	104	0	72	22929
2026-01-20 11:56:19.47	169.23	3.76	-50.6	-67.1	3.8	7.43e-01	0	38	104	0	72	24618
2026-01-20 11:56:20.48	169.26	3.83	-50.6	-67.1	3.8	7.45e-01	0	38	104	0	72	24562
2026-01-20 11:56:21.49	169.29	3.90	-50.6	-67.4	3.8	7.44e-01	0	38	104	0	72	25443
2026-01-20 11:56:22.49	169.31	3.97	-50.6	-67.2	3.8	7.45e-01	0	38	104	0	72	24943
2026-01-20 11:56:23.50	169.34	4.04	-50.6	-67.5	3.8	7.43e-01	0	38	104	0	72	25753
2026-01-20 11:56:24.51	169.37	4.11	-50.6	-67.1	3.8	7.47e-01	0	38	104	0	72	24587
2026-01-20 11:56:25.52	169.40	4.19	-50.6	-66.3	4.0	7.37e-01	0	38	104	0	72	22444
2026-01-20 11:56:26.53	169.42	4.26	-50.6	-65.9	4.0	7.40e-01	0	38	104	0	72	21422
2026-01-20 11:56:27.53	169.45	4.33	-50.6	-65.2	4.1	7.37e-01	0	38	104	0	72	19645
2026-01-20 11:56:28.54	169.48	4.40	-50.5	-64.3	4.4	7.31e-01	0	38	104	0	72	17750
2026-01-20 11:56:29.55	169.51	4.48	-50.5	-63.7	4.6	7.21e-01	0	38	104	0	72	16549
2026-01-20 11:56:30.55	169.53	4.55	-50.4	-62.8	5.1	7.07e-01	0	38	104	0	72	14910
2026-01-20 11:56:31.56	169.56	4.62	-50.4	-61.9	5.7	6.94e-01	163	38	0	0	72	13446
2026-01-20 11:56:32.57	169.59	4.70	-50.3	-61.2	6.1	6.81e-01	184	38	0	1572864	72	12423
2026-01-20 11:56:33.58	169.62	4.77	-50.2	-60.5	6.8	6.64e-01	184	38	0	3145728	72	11451
2026-01-20 11:56:34.59	169.65	4.85	-50.1	-59.4	7.8	6.51e-01	182	38	0	5242880	72	10174
2026-01-20 11:56:35.59	169.67	4.92	-50.0	-58.8	8.3	6.42e-01	83	38	0	7340032	72	9473
2026-01-20 11:56:36.60	169.70	4.99	-50.1	-59.0	8.2	6.42e-01	85	38	0	8912896	71	10274
2026-01-20 11:56:37.61	169.73	5.07	-50.1	-58.7	8.7	6.37e-01	5	38	0	11010048	71	9835
2026-01-20 11:56:38.62	169.76	5.14	-50.0	-58.1	9.2	6.32e-01	0	38	0	12582912	71	9252
2026-01-20 11:56:39.63	169.79	5.22	-50.2	-59.3	8.5	6.42e-01	35	38	0	14680064	71	10535
2026-01-20 11:56:40.63	169.82	5.29	-50.5	-62.0	5.7	6.91e-01	125	38	104	15204352	71	14474
2026-01-20 11:56:41.64	169.85	5.37	-49.9	-57.9	9.3	6.28e-01	0	38	0	15728640	71	9040
2026-01-20 11:56:42.65	169.88	5.45	-50.0	-58.2	9.0	6.31e-01	1	38	0	17301504	71	9288
2026-01-20 11:56:43.66	169.91	5.52	-49.9	-58.0	9.3	6.32e-01	0	38	0	19398656	71	9140
2026-01-20 11:56:44.66	169.94	5.60	-49.8	-57.4	10.0	6.24e-01	0	38	0	20971520	71	8508
2026-01-20 11:56:45.67	169.97	5.68	-49.8	-57.5	9.8	6.27e-01	0	38	0	23068672	71	8597
2026-01-20 11:56:46.68	170.00	5.75	-49.9	-57.7	9.7	6.26e-01	0	38	0	25165824	71	8773
2026-01-20 11:56:47.69	170.03	5.83	-49.8	-57.4	9.9	6.26e-01	0	38	0	27262976	71	8548
2026-01-20 11:56:48.69	170.06	5.91	-49.8	-57.4	9.9	6.25e-01	0	38	0	28835840	71	8550
2026-01-20 11:56:49.70	170.09	5.99	-49.8	-57.4	10.0	6.25e-01	0	38	0	30932992	71	8515
2026-01-20 11:56:50.71	170.12	6.06	-49.9	-57.7	9.7	6.26e-01	0	38	0	32505856	71	8789
2026-01-20 11:56:51.72	170.15	6.14	-49.9	-57.6	9.7	6.25e-01	0	38	0	34603008	71	8730
2026-01-20 11:56:52.73	170.18	6.22	-49.8	-57.4	9.9	6.24e-01	0	38	0	36175872	71	8561
2026-01-20 11:56:53.74	170.22	6.30	-49.8	-57.5	9.8	6.26e-01	0	38	0	38273024	71	8581
2026-01-20 11:56:54.74	170.25	6.38	-49.9	-57.5	9.7	6.24e-01	0	38	0	40370176	71	8652
2026-01-20 11:56:55.75	170.28	6.46	-49.8	-57.4	10.0	6.26e-01	0	38	0	41943040	71	8515
2026-01-20 11:56:56.76	170.31	6.54	-49.8	-57.4	10.0	6.24e-01	0	38	0	44040192	71	8507
2026-01-20 11:56:57.77	170.34	6.62	-49.8	-57.1	10.3	6.20e-01	0	38	0	45613056	71	8263
2026-01-20 11:56:58.77	170.37	6.70	-49.7	-56.9	10.5	6.21e-01	0	38	0	47710208	71	8044
2026-01-20 11:56:59.78	170.41	6.78	-49.8	-57.1	10.3	6.24e-01	0	38	0	49807360	71	8263
2026-01-20 11:57:00.79	170.44	6.86	-49.8	-57.0	10.4	6.22e-01	0	38	0	51380224	71	8162
2026-01-20 11:57:01.79	170.47	6.94	-49.8	-57.0	10.4	6.22e-01	0	38	0	53477376	71	8154
2026-01-20 11:57:02.80	170.50	7.02	-49.8	-57.0	10.4	6.20e-01	0	38	0	55574528	71	8119
2026-01-20 11:57:03.81	170.54	7.10	-49.8	-57.0	10.5	6.19e-01	0	38	0	57147392	71	8102
2026-01-20 11:57:04.82	170.57	7.18	-49.8	-57.0	10.4	6.22e-01	0	38	0	59244544	71	8166
2026-01-20 11:57:05.83	170.60	7.27	-49.8	-57.0	10.5	6.20e-01	0	38	0	60817408	71	8135
2026-01-20 11:57:06.83	170.64	7.35	-49.8	-57.1	10.4	6.18e-01	0	38	0	62914560	71	8190
2026-01-20 11:57:07.84	170.67	7.43	-49.8	-56.9	10.6	6.18e-01	0	38	0	64487424	71	8048
2026-01-20 11:57:08.85	170.71	7.51	-49.8	-57.0	10.5	6.20e-01	0	38	0	66584576	71	8088
2026-01-20 11:57:09.86	170.74	7.60	-49.8	-57.2	10.3	6.22e-01	0	38	0	68681728	71	8340
2026-01-20 11:57:10.87	170.77	7.68	-49.8	-57.1	10.3	6.24e-01	0	38	0	70254592	71	8258
2026-01-20 11:57:11.87	170.81	7.76	-49.8	-57.0	10.5	6.21e-01	0	39	0	72351744	71	8086
2026-01-20 11:57:12.88	170.84	7.85	-49.7	-56.8	10.6	6.20e-01	0	38	0	74448896	71	7939
2026-01-20 11:57:13.89	170.88	7.93	-49.7	-56.8	10.7	6.19e-01	0	38	0	76021760	71	7937
2026-01-20 11:57:14.90	170.91	8.02	-49.8	-57.1	10.4	6.22e-01	0	38	0	78118912	71	8200
2026-01-20 11:57:15.91	170.95	8.10	-49.8	-57.0	10.5	6.20e-01	0	39	0	79691776	71	8111
2026-01-20 11:57:16.91	170.98	8.19	-49.8	-56.8	10.7	6.19e-01	0	38	0	81788928	71	7925
2026-01-20 11:57:17.92	171.02	8.27	-49.8	-57.0	10.6	6.19e-01	0	39	0	83886080	71	8091
2026-01-20 11:57:18.93	171.06	8.36	-49.8	-57.1	10.4	6.23e-01	0	39	0	85458944	71	8247
2026-01-20 11:57:19.94	171.09	8.45	-49.8	-57.0	10.5	6.21e-01	0	39	0	87556096	71	8113
2026-01-20 11:57:20.94	171.13	8.53	-49.7	-56.7	10.8	6.19e-01	0	39	0	89128960	71	7842
2026-01-20 11:57:21.95	171.16	8.62	-49.8	-56.7	10.8	6.20e-01	0	39	0	91226112	71	7866
2026-01-20 11:57:22.95	171.20	8.71	-49.8	-56.8	10.7	6.17e-01	0	38	0	92798976	71	7921
2026-01-20 11:57:23.96	171.24	8.79	-49.8	-56.7	10.7	6.17e-01	0	39	0	94896128	71	7889
2026-01-20 11:57:24.97	171.27	8.88	-49.7	-56.6	10.9	6.19e-01	0	39	0	96993280	71	7750
2026-01-20 11:57:25.98	171.31	8.97	-49.8	-56.7	10.8	6.18e-01	0	39	0	99090432	71	7881
2026-01-20 11:57:26.99	171.35	9.06	-49.7	-56.7	10.9	6.15e-01	0	38	0	100663296	71	7816
2026-01-20 11:57:27.99	171.39	9.15	-49.8	-56.7	10.7	6.19e-01	0	39	0	102760448	71	7894
2026-01-20 11:57:29.00	171.43	9.24	-49.8	-56.8	10.7	6.20e-01	0	38	0	104333312	71	7923
2026-01-20 11:57:30.01	171.46	9.33	-49.8	-56.8	10.8	6.19e-01	0	39	0	106430464	71	7901
2026-01-20 11:57:31.02	171.50	9.42	-49.8	-56.7	10.8	6.16e-01	0	39	0	108003328	71	7880
2026-01-20 11:57:32.03	171.54	9.51	-49.7	-56.7	10.9	6.18e-01	0	38	0	110100480	71	7815
2026-01-20 11:57:33.03	171.58	9.60	-49.7	-56.6	11.0	6.18e-01	0	39	0	112197632	71	7740
2026-01-20 11:57:34.04	171.62	9.69	-49.7	-56.6	11.0	6.19e-01	0	39	0	113770496	71	7751
2026-01-20 11:57:35.05	171.66	9.78	-49.7	-56.6	10.9	6.18e-01	0	39	0	115867648	71	7765
2026-01-20 11:57:36.06	171.70	9.87	-49.8	-56.7	10.8	6.20e-01	0	39	0	117440512	71	7865
2026-01-20 11:57:37.07	171.74	9.96	-49.8	-56.7	10.8	6.18e-01	0	39	0	119537664	71	7839
2026-01-20 11:57:38.07	171.78	10.06	-49.8	-56.7	10.8	6.18e-01	0	38	0	121110528	71	7823
2026-01-20 11:57:39.08	171.82	10.15	-49.8	-56.7	10.8	6.19e-01	0	39	0	123207680	71	7853
2026-01-20 11:57:40.09	171.86	10.24	-49.8	-56.7	10.9	6.16e-01	0	39	0	125304832	71	7826
2026-01-20 11:57:41.09	171.90	10.34	-49.8	-56.7	10.8	6.19e-01	0	39	0	127401984	71	7851
2026-01-20 11:57:42.10	171.94	10.43	-49.7	-56.6	11.0	6.17e-01	0	39	0	128974848	71	7737
2026-01-20 11:57:43.11	171.98	10.53	-49.7	-56.6	10.7	6.23e-01	0	38	0	131072000	71	7779
2026-01-20 11:57:44.12	172.03	10.62	-49.7	-56.4	11.2	6.18e-01	0	39	0	132644864	71	7575
2026-01-20 11:57:45.13	172.07	10.72	-49.7	-56.3	11.3	6.16e-01	0	39	0	134742016	71	7517
2026-01-20 11:57:46.13	172.11	10.81	-49.7	-56.3	11.3	6.17e-01	0	39	0	136314880	71	7505
2026-01-20 11:57:47.14	172.15	10.91	-49.6	-56.0	11.5	6.15e-01	0	39	0	138412032	71	7276
2026-01-20 11:57:48.15	172.20	11.00	-49.6	-56.0	11.6	6.14e-01	0	39	0	140509184	71	7217
2026-01-20 11:57:49.15	172.24	11.10	-49.6	-55.9	11.6	6.13e-01	0	39	0	142082048	71	7200
2026-01-20 11:57:50.16	172.28	11.20	-49.7	-56.2	11.4	6.14e-01	0	39	0	144179200	71	7385
2026-01-20 11:57:51.17	172.33	11.30	-49.7	-56.3	11.3	6.16e-01	0	39	0	145752064	71	7478
2026-01-20 11:57:52.18	172.37	11.39	-49.6	-55.9	11.7	6.15e-01	0	39	0	147849216	71	7199
2026-01-20 11:57:53.18	172.41	11.49	-49.6	-56.0	11.6	6.16e-01	0	38	0	149946368	71	7271
2026-01-20 11:57:54.19	172.46	11.59	-49.6	-56.1	11.6	6.13e-01	0	39	0	151519232	71	7300
2026-01-20 11:57:55.20	172.50	11.69	-49.6	-56.0	11.6	6.14e-01	0	39	0	153616384	71	7261
2026-01-20 11:57:56.21	172.55	11.79	-49.7	-56.1	11.5	6.16e-01	0	39	0	155713536	71	7335
2026-01-20 11:57:57.21	172.59	11.89	-49.7	-56.1	11.5	6.12e-01	0	39	0	157286400	71	7321
2026-01-20 11:57:58.22	172.64	11.99	-49.6	-56.1	11.6	6.14e-01	0	39	0	159383552	71	7297
2026-01-20 11:57:59.23	172.69	12.09	-49.7	-56.1	11.5	6.14e-01	0	39	0	160956416	71	7363
2026-01-20 11:58:00.23	172.73	12.19	-49.7	-56.2	11.5	6.15e-01	0	39	0	163053568	71	7392
2026-01-20 11:58:01.24	172.78	12.30	-49.7	-56.2	11.4	6.14e-01	0	39	0	164626432	71	7385
2026-01-20 11:58:02.25	172.83	12.40	-49.6	-56.0	11.6	6.12e-01	0	39	0	166723584	71	7224
2026-01-20 11:58:03.25	172.87	12.50	-49.6	-56.0	11.6	6.15e-01	0	39	0	168820736	71	7257
2026-01-20 11:58:04.26	172.92	12.61	-49.6	-56.0	11.6	6.14e-01	0	39	0	170393600	71	7238
2026-01-20 11:58:05.27	172.97	12.71	-49.6	-55.9	11.7	6.14e-01	0	39	0	172490752	71	7184
2026-01-20 11:58:06.28	173.02	12.82	-49.6	-55.9	11.7	6.13e-01	0	39	0	174587904	71	7198
2026-01-20 11:58:07.29	173.07	12.92	-49.6	-55.9	11.7	6.15e-01	0	39	0	176160768	71	7166
2026-01-20 11:58:08.29	173.11	13.03	-49.6	-55.9	11.7	6.14e-01	0	39	0	178257920	71	7181
2026-01-20 11:58:09.30	173.16	13.13	-49.6	-56.0	11.6	6.14e-01	0	39	0	179830784	71	7264
2026-01-20 11:58:10.31	173.21	13.24	-49.6	-55.9	11.8	6.12e-01	0	39	0	181927936	71	7129
2026-01-20 11:58:11.32	173.26	13.35	-49.6	-55.8	11.8	6.13e-01	0	39	0	184025088	71	7121
2026-01-20 11:58:12.32	173.31	13.45	-49.6	-55.7	12.0	6.12e-01	0	39	0	185597952	71	6980
2026-01-20 11:58:13.33	173.37	13.56	-49.6	-55.8	11.9	6.13e-01	0	39	0	187695104	71	7065
2026-01-20 11:58:14.34	173.42	13.67	-49.6	-55.7	12.0	6.14e-01	0	39	0	189267968	71	6976
2026-01-20 11:58:15.35	173.47	13.78	-49.6	-55.7	11.9	6.15e-01	0	39	0	191365120	71	7014
2026-01-20 11:58:16.35	173.52	13.89	-49.5	-55.6	12.1	6.11e-01	0	39	0	192937984	71	6902
2026-01-20 11:58:17.36	173.57	14.00	-49.5	-55.6	12.1	6.13e-01	0	39	0	195035136	71	6911
2026-01-20 11:58:18.37	173.63	14.11	-49.5	-55.7	12.0	6.11e-01	0	39	0	197132288	71	6977
2026-01-20 11:58:19.38	173.68	14.22	-49.5	-55.7	12.0	6.12e-01	0	39	0	198705152	71	6968
2026-01-20 11:58:20.39	173.73	14.33	-49.5	-55.6	12.1	6.11e-01	0	39	0	200802304	71	6928
2026-01-20 11:58:21.39	173.79	14.44	-49.6	-55.7	12.0	6.12e-01	0	39	0	202899456	71	7002
2026-01-20 11:58:22.40	173.84	14.56	-49.6	-55.8	11.9	6.13e-01	0	39	0	204472320	71	7058
2026-01-20 11:58:23.41	173.90	14.67	-49.6	-55.7	12.0	6.13e-01	0	39	0	206569472	71	7034
2026-01-20 11:58:24.42	173.95	14.78	-49.6	-55.7	11.9	6.12e-01	0	39	0	208142336	71	7011
2026-01-20 11:58:25.43	174.01	14.90	-49.6	-55.7	11.9	6.13e-01	0	39	0	210239488	71	7023
2026-01-20 11:58:26.44	174.06	15.01	-49.5	-55.6	12.0	6.11e-01	0	39	0	212336640	71	6951
2026-01-20 11:58:27.44	174.12	15.13	-49.6	-55.7	12.0	6.14e-01	0	39	0	213909504	71	6985
2026-01-20 11:58:28.45	174.18	15.25	-49.6	-55.6	12.1	6.11e-01	0	39	0	216006656	71	6929
2026-01-20 11:58:29.46	174.23	15.36	-49.5	-55.5	12.2	6.13e-01	0	39	0	217579520	71	6853
2026-01-20 11:58:30.47	174.29	15.48	-49.5	-55.5	12.1	6.13e-01	0	39	0	219676672	71	6876
2026-01-20 11:58:31.47	174.35	15.60	-49.5	-55.5	12.2	6.10e-01	0	39	0	221249536	71	6840
2026-01-20 11:58:32.48	174.41	15.72	-49.5	-55.6	12.1	6.13e-01	0	39	0	223346688	71	6893
2026-01-20 11:58:33.49	174.47	15.84	-49.5	-55.6	12.1	6.11e-01	0	39	0	225443840	71	6937
2026-01-20 11:58:34.50	174.53	15.96	-49.5	-55.5	12.2	6.13e-01	0	39	0	227016704	71	6839
2026-01-20 11:58:35.51	174.59	16.08	-49.5	-55.6	12.2	6.12e-01	0	39	0	229113856	71	6901
2026-01-20 11:58:36.51	174.65	16.20	-49.5	-55.6	12.1	6.12e-01	0	39	0	231211008	71	6927
2026-01-20 11:58:37.52	174.71	16.32	-49.6	-55.7	12.0	6.13e-01	0	39	0	232783872	71	6972
2026-01-20 11:58:38.53	174.77	16.44	-49.5	-55.5	12.3	6.11e-01	0	39	0	234881024	71	6821
2026-01-20 11:58:39.53	174.83	16.57	-49.5	-55.6	12.1	6.13e-01	0	39	0	236453888	71	6927
2026-01-20 11:58:40.54	174.89	16.69	-49.5	-55.4	12.3	6.10e-01	0	39	0	238551040	71	6735
2026-01-20 11:58:41.55	174.96	16.81	-49.5	-55.4	12.3	6.10e-01	0	39	0	240648192	71	6769
2026-01-20 11:58:42.56	175.02	16.94	-49.5	-55.5	12.3	6.10e-01	0	39	0	242221056	71	6820
2026-01-20 11:58:43.57	175.08	17.07	-49.5	-55.4	12.3	6.14e-01	0	39	0	244318208	71	6788
2026-01-20 11:58:44.57	175.15	17.19	-49.5	-55.5	12.2	6.12e-01	0	39	0	245891072	71	6819
2026-01-20 11:58:45.58	175.21	17.32	-49.5	-55.6	12.1	6.12e-01	0	39	0	247988224	71	6906
2026-01-20 11:58:46.59	175.28	17.45	-49.5	-55.6	12.1	6.12e-01	0	39	0	250085376	71	6885
2026-01-20 11:58:47.60	175.35	17.58	-49.6	-55.8	11.9	6.12e-01	0	39	0	251658240	71	7058
2026-01-20 11:58:48.61	175.41	17.71	-49.6	-55.6	12.1	6.10e-01	0	39	0	253755392	71	6952
2026-01-20 11:58:49.61	175.48	17.84	-49.6	-55.7	12.0	6.10e-01	0	39	0	255328256	71	7004
2026-01-20 11:58:50.62	175.55	17.97	-49.6	-55.7	11.9	6.13e-01	0	39	0	257425408	71	7010
2026-01-20 11:58:51.63	175.62	18.10	-49.6	-55.7	12.1	6.12e-01	0	39	0	259522560	71	6968
2026-01-20 11:58:52.64	175.69	18.23	-49.5	-55.5	12.2	6.12e-01	0	39	0	261095424	71	6841
2026-01-20 11:58:53.65	175.76	18.36	-49.5	-55.4	12.3	6.11e-01	0	39	0	263192576	71	6796
2026-01-20 11:58:54.66	175.83	18.50	-49.5	-55.4	12.3	6.09e-01	0	39	0	264765440	71	6791
2026-01-20 11:58:55.66	175.90	18.63	-49.5	-55.4	12.3	6.10e-01	0	39	0	266862592	71	6789
2026-01-20 11:58:56.67	175.97	18.77	-49.5	-55.4	12.4	6.10e-01	0	39	0	268959744	71	6733
2026-01-20 11:58:57.67	176.04	18.90	-49.5	-55.5	12.3	6.13e-01	0	39	0	270532608	71	6846
2026-01-20 11:58:58.68	176.11	19.04	-49.5	-55.4	12.3	6.12e-01	0	39	0	272629760	71	6787
2026-01-20 11:58:59.69	176.19	19.18	-49.5	-55.5	12.2	6.11e-01	0	39	0	274726912	71	6836
2026-01-20 11:59:00.70	176.26	19.32	-49.5	-55.4	12.3	6.10e-01	0	39	0	276299776	71	6786
2026-01-20 11:59:01.71	176.34	19.46	-49.5	-55.5	12.2	6.11e-01	0	39	0	278396928	71	6824
2026-01-20 11:59:02.71	176.41	19.60	-49.6	-55.6	12.1	6.10e-01	0	39	0	279969792	71	6917
2026-01-20 11:59:03.72	176.49	19.74	-49.5	-55.5	12.2	6.12e-01	0	39	0	282066944	71	6865
2026-01-20 11:59:04.73	176.57	19.88	-49.6	-55.6	12.2	6.08e-01	0	39	0	283639808	71	6909
2026-01-20 11:59:05.74	176.65	20.02	-49.5	-55.4	12.3	6.12e-01	0	39	0	285736960	71	6794
2026-01-20 11:59:06.75	176.72	20.17	-49.5	-55.4	12.3	6.10e-01	0	39	0	287834112	71	6795
2026-01-20 11:59:07.75	176.80	20.31	-49.5	-55.4	12.3	6.12e-01	0	39	0	289406976	71	6792
2026-01-20 11:59:08.76	176.88	20.45	-49.5	-55.4	12.3	6.12e-01	0	39	0	291504128	71	6754
2026-01-20 11:59:09.77	176.96	20.60	-49.5	-55.5	12.2	6.12e-01	0	39	0	293076992	71	6849
2026-01-20 11:59:10.78	177.05	20.75	-49.6	-55.6	12.2	6.10e-01	0	39	0	295174144	71	6886
2026-01-20 11:59:11.79	177.13	20.90	-49.5	-55.5	12.3	6.11e-01	0	39	0	297271296	71	6826
2026-01-20 11:59:12.79	177.21	21.04	-49.5	-55.5	12.2	6.09e-01	0	39	0	298844160	71	6846
2026-01-20 11:59:13.80	177.29	21.19	-49.6	-55.6	12.2	6.08e-01	0	39	0	300941312	71	6890
2026-01-20 11:59:14.81	177.38	21.34	-49.6	-55.6	12.2	6.13e-01	0	39	0	303038464	71	6884
2026-01-20 11:59:15.81	177.46	21.49	-49.6	-55.6	12.1	6.12e-01	0	39	0	304611328	71	6948
2026-01-20 11:59:16.82	177.55	21.65	-49.5	-55.5	12.3	6.13e-01	0	39	0	306708480	71	6821
2026-01-20 11:59:17.83	177.64	21.80	-49.5	-55.5	12.2	6.12e-01	0	39	0	308281344	71	6856
2026-01-20 11:59:18.84	177.73	21.96	-49.5	-55.5	12.2	6.13e-01	0	39	0	310378496	71	6868
2026-01-20 11:59:19.85	177.82	22.11	-49.6	-55.6	12.2	6.11e-01	0	39	0	312475648	71	6915
2026-01-20 11:59:20.85	177.91	22.27	-49.6	-55.7	12.1	6.14e-01	0	39	0	314048512	71	6969
2026-01-20 11:59:21.86	178.00	22.42	-49.6	-55.7	12.0	6.12e-01	0	39	0	316145664	71	7022
2026-01-20 11:59:22.87	178.09	22.58	-49.6	-55.7	12.0	6.14e-01	0	39	0	317718528	71	7023
2026-01-20 11:59:23.88	178.18	22.74	-49.6	-55.7	12.0	6.13e-01	0	39	0	319815680	71	7017
2026-01-20 11:59:24.89	178.28	22.90	-49.6	-55.8	11.8	6.14e-01	0	39	0	321912832	71	7090
2026-01-20 11:59:25.89	178.37	23.06	-49.6	-55.7	12.0	6.13e-01	0	39	0	323485696	71	7003
2026-01-20 11:59:26.90	178.47	23.23	-49.6	-55.7	12.0	6.12e-01	0	39	0	325582848	71	7013
2026-01-20 11:59:27.91	178.56	23.39	-49.6	-55.7	12.0	6.12e-01	0	39	0	327155712	71	7028
2026-01-20 11:59:28.92	178.66	23.55	-49.6	-55.6	12.1	6.12e-01	0	39	0	329252864	71	6935
2026-01-20 11:59:29.93	178.76	23.72	-49.5	-55.5	12.2	6.13e-01	0	39	0	331350016	71	6861
2026-01-20 11:59:30.93	178.86	23.89	-49.6	-55.6	12.1	6.12e-01	0	39	0	332922880	71	6930
2026-01-20 11:59:31.94	178.96	24.05	-49.6	-55.6	12.1	6.11e-01	0	39	0	335020032	71	6941
2026-01-20 11:59:32.95	179.06	24.22	-49.6	-55.6	12.1	6.11e-01	0	39	0	336592896	71	6941
2026-01-20 11:59:33.95	179.16	24.39	-49.6	-55.7	12.0	6.12e-01	0	39	0	338690048	71	6995
2026-01-20 11:59:34.96	179.27	24.56	-49.6	-55.8	11.9	6.14e-01	0	39	0	340787200	71	7097
2026-01-20 11:59:35.97	179.37	24.74	-49.6	-55.6	12.1	6.12e-01	0	39	0	342360064	71	6938
2026-01-20 11:59:36.98	179.48	24.91	-49.6	-55.7	12.0	6.11e-01	0	39	0	344457216	71	6979
2026-01-20 11:59:37.99	179.59	25.08	-49.6	-55.6	12.1	6.13e-01	0	39	0	346554368	71	6942
2026-01-20 11:59:38.99	179.70	25.26	-49.6	-55.6	12.1	6.12e-01	0	39	0	348127232	71	6959
2026-01-20 11:59:40.00	179.81	25.43	-49.6	-55.5	12.2	6.12e-01	0	39	0	350224384	71	6853
2026-01-20 11:59:41.01	179.92	25.61	-49.6	-55.7	12.0	6.13e-01	0	39	0	351797248	71	7003
2026-01-20 11:59:42.02	180.03	25.79	-49.6	-55.8	11.9	6.13e-01	0	39	0	353894400	71	7078
2026-01-20 11:59:43.03	180.14	25.97	-49.6	-55.8	11.9	6.11e-01	0	39	0	355467264	71	7086
2026-01-20 11:59:44.03	180.26	26.15	-49.6	-55.8	11.9	6.13e-01	0	39	0	357564416	71	7089
2026-01-20 11:59:45.04	180.37	26.34	-49.7	-55.9	11.8	6.13e-01	0	39	0	359661568	71	7159
2026-01-20 11:59:46.05	180.49	26.52	-49.5	-55.4	12.3	6.13e-01	0	39	0	361234432	71	6774
2026-01-20 11:59:47.06	180.61	26.71	-49.5	-55.2	12.5	6.11e-01	0	39	0	363331584	70	7029
2026-01-20 11:59:48.06	180.73	26.89	-49.5	-55.4	12.4	6.10e-01	0	39	0	364904448	70	7160
2026-01-20 11:59:49.07	180.85	27.08	-49.5	-55.5	12.3	6.11e-01	0	39	0	367001600	70	7211
2026-01-20 11:59:50.08	180.98	27.27	-49.6	-55.7	12.0	6.12e-01	0	39	0	369098752	70	7388
2026-01-20 11:59:51.09	181.10	27.46	-49.6	-55.6	12.2	6.13e-01	0	39	0	370671616	70	7297
2026-01-20 11:59:52.10	181.23	27.65	-49.5	-55.2	12.5	6.09e-01	0	39	0	372768768	70	7031
2026-01-20 11:59:53.10	181.36	27.84	-49.5	-55.2	12.6	6.11e-01	0	39	0	374865920	70	6981
2026-01-20 11:59:54.11	181.49	28.04	-49.4	-55.2	12.6	6.10e-01	0	39	0	376438784	70	6988
2026-01-20 11:59:55.12	181.62	28.23	-49.4	-55.1	12.7	6.10e-01	0	39	0	378535936	70	6911
2026-01-20 11:59:56.13	181.75	28.43	-49.5	-55.2	12.5	6.10e-01	0	39	0	380108800	70	7021
2026-01-20 11:59:57.13	181.88	28.63	-49.5	-55.3	12.4	6.12e-01	0	39	0	382205952	70	7099
2026-01-20 11:59:58.14	182.02	28.83	-49.5	-55.4	12.4	6.11e-01	0	39	0	383778816	70	7135
2026-01-20 11:59:59.15	182.16	29.03	-49.5	-55.4	12.3	6.12e-01	0	39	0	385875968	70	7170
2026-01-20 12:00:00.16	182.30	29.23	-49.4	-55.2	12.6	6.09e-01	0	39	0	387973120	70	6986
2026-01-20 12:00:01.17	182.44	29.43	-49.4	-55.0	12.7	6.09e-01	0	39	0	389545984	70	6858
2026-01-20 12:00:02.17	182.58	29.64	-49.4	-55.0	12.7	6.11e-01	0	39	0	391643136	70	6844
2026-01-20 12:00:03.18	182.73	29.84	-49.3	-54.8	12.9	6.11e-01	0	39	0	393740288	70	6719
2026-01-20 12:00:04.19	182.87	30.05	-49.4	-54.9	12.9	6.09e-01	0	39	0	395313152	70	6769
2026-01-20 12:00:05.20	183.02	30.26	-49.4	-55.1	12.7	6.11e-01	0	39	0	397410304	70	6927
2026-01-20 12:00:06.21	183.17	30.47	-49.4	-55.2	12.5	6.11e-01	0	39	0	398983168	70	7021
2026-01-20 12:00:07.21	183.32	30.68	-49.5	-55.2	12.6	6.12e-01	0	39	0	401080320	70	7020
2026-01-20 12:00:08.22	183.48	30.90	-49.4	-55.0	12.7	6.11e-01	0	39	0	403177472	70	6863
2026-01-20 12:00:09.23	183.64	31.11	-49.4	-55.1	12.7	6.10e-01	0	39	0	404750336	70	6910
2026-01-20 12:00:10.24	183.80	31.33	-49.5	-55.3	12.5	6.10e-01	0	39	0	406847488	70	7071
2026-01-20 12:00:11.25	183.96	31.55	-49.5	-55.4	12.3	6.11e-01	0	39	0	408420352	70	7194
2026-01-20 12:00:12.25	184.12	31.77	-49.5	-55.3	12.4	6.11e-01	0	39	0	410517504	70	7086
2026-01-20 12:00:13.26	184.28	31.99	-49.5	-55.3	12.5	6.12e-01	0	39	0	412090368	70	7069
2026-01-20 12:00:14.27	184.45	32.21	-49.5	-55.3	12.4	6.09e-01	0	39	0	414187520	70	7120
2026-01-20 12:00:15.28	184.62	32.44	-49.5	-55.3	12.5	6.12e-01	0	39	0	416284672	70	7078
2026-01-20 12:00:16.29	184.80	32.66	-49.6	-55.6	12.1	6.12e-01	0	39	0	418381824	70	7327
2026-01-20 12:00:17.29	184.97	32.89	-49.6	-55.6	12.2	6.12e-01	0	39	0	419954688	70	7305
2026-01-20 12:00:18.30	185.15	33.12	-49.6	-55.7	12.1	6.12e-01	0	39	0	422051840	70	7411
2026-01-20 12:00:19.31	185.33	33.35	-49.6	-55.8	12.0	6.14e-01	0	39	0	423624704	70	7464
2026-01-20 12:00:20.32	185.51	33.58	-49.7	-55.9	11.8	6.14e-01	0	39	0	425721856	70	7628
2026-01-20 12:00:21.32	185.69	33.81	-49.6	-55.9	11.8	6.11e-01	0	39	0	427294720	70	7581
2026-01-20 12:00:22.33	185.88	34.05	-49.6	-55.8	11.9	6.14e-01	0	39	0	429391872	70	7505
2026-01-20 12:00:23.34	186.07	34.29	-49.6	-55.7	12.0	6.14e-01	0	39	0	431489024	70	7427
2026-01-20 12:00:24.34	186.26	34.52	-49.7	-55.9	11.8	6.13e-01	0	39	0	433061888	70	7616
2026-01-20 12:00:25.35	186.46	34.76	-49.7	-56.1	11.6	6.14e-01	0	39	0	435159040	70	7772
2026-01-20 12:00:26.36	186.66	35.00	-49.8	-56.2	11.4	6.14e-01	0	39	0	436731904	70	7888
2026-01-20 12:00:27.37	186.86	35.25	-49.7	-56.1	11.6	6.14e-01	0	39	0	438829056	70	7761
2026-01-20 12:00:28.37	187.07	35.49	-49.7	-56.1	11.6	6.13e-01	0	39	0	440401920	70	7747
2026-01-20 12:00:29.38	187.27	35.74	-49.8	-56.5	11.2	6.12e-01	0	39	0	442499072	70	8107
2026-01-20 12:00:30.39	187.49	35.99	-49.9	-56.7	11.0	6.19e-01	0	39	0	444596224	70	8310
2026-01-20 12:00:31.40	187.70	36.24	-49.8	-56.6	11.1	6.17e-01	0	39	0	446693376	70	8215
2026-01-20 12:00:32.41	187.92	36.49	-49.8	-56.5	11.2	6.17e-01	0	39	0	448266240	70	8173
2026-01-20 12:00:33.41	188.14	36.74	-49.8	-56.6	11.1	6.18e-01	0	39	0	450363392	70	8190
2026-01-20 12:00:34.42	188.36	36.99	-49.9	-56.7	11.0	6.19e-01	0	39	0	451936256	70	8341
2026-01-20 12:00:35.43	188.59	37.25	-49.9	-56.9	10.8	6.22e-01	0	39	0	454033408	70	8503
2026-01-20 12:00:36.44	188.82	37.51	-49.9	-56.9	10.7	6.19e-01	0	39	0	455606272	70	8553
2026-01-20 12:00:37.44	189.06	37.77	-49.9	-56.9	10.7	6.21e-01	0	39	0	457703424	70	8514
2026-01-20 12:00:38.45	189.30	38.03	-50.0	-57.1	10.5	6.19e-01	0	39	0	459800576	70	8740
2026-01-20 12:00:39.46	189.54	38.29	-49.9	-57.0	10.7	6.23e-01	0	39	0	461373440	70	8614
2026-01-20 12:00:40.47	189.79	38.55	-49.9	-56.9	10.8	6.18e-01	0	39	0	463470592	70	8477
2026-01-20 12:00:41.47	190.04	38.82	-49.9	-56.8	10.9	6.18e-01	0	39	0	465043456	70	8380
2026-01-20 12:00:42.48	190.30	39.09	-49.9	-56.8	10.9	6.20e-01	0	39	0	467140608	70	8392
2026-01-20 12:00:43.49	190.56	39.36	-49.9	-56.8	11.0	6.17e-01	0	39	0	469237760	70	8387
2026-01-20 12:00:44.49	190.82	39.62	-49.9	-56.7	11.0	6.17e-01	0	39	0	470810624	70	8328
2026-01-20 12:00:45.50	191.09	39.90	-49.8	-56.5	11.2	6.15e-01	0	39	0	472907776	70	8163
2026-01-20 12:00:46.51	191.36	40.17	-49.8	-56.4	11.3	6.16e-01	0	39	0	475004928	70	8033
2026-01-20 12:00:47.52	191.64	40.45	-49.8	-56.4	11.3	6.17e-01	0	39	0	476577792	70	8012
2026-01-20 12:00:48.53	191.92	40.72	-49.8	-56.3	11.4	6.16e-01	0	39	0	478674944	70	7965
2026-01-20 12:00:49.53	192.21	41.00	-49.8	-56.2	11.5	6.15e-01	0	39	0	480247808	70	7872
2026-01-20 12:00:50.54	192.50	41.28	-49.8	-56.3	11.5	6.15e-01	0	39	0	482344960	70	7925
2026-01-20 12:00:51.55	192.80	41.56	-49.8	-56.2	11.5	6.15e-01	0	39	0	483917824	70	7899
2026-01-20 12:00:52.56	193.10	41.84	-49.7	-56.0	11.7	6.14e-01	0	39	0	486014976	70	7661
2026-01-20 12:00:53.57	193.41	42.13	-49.6	-55.7	12.0	6.12e-01	0	39	0	488112128	70	7456
2026-01-20 12:00:54.58	193.72	42.41	-49.5	-55.4	12.4	6.11e-01	0	39	0	490209280	70	7139
2026-01-20 12:00:55.59	194.04	42.70	-49.6	-55.6	12.2	6.11e-01	0	39	0	491782144	70	7298
2026-01-20 12:00:56.60	194.37	42.99	-49.6	-55.5	12.4	6.10e-01	0	39	0	493879296	70	7223
2026-01-20 12:00:57.60	194.70	43.28	-49.5	-55.4	12.3	6.10e-01	0	39	0	495452160	70	7188
2026-01-20 12:00:58.61	195.03	43.57	-49.5	-55.3	12.4	6.12e-01	0	39	0	497549312	70	7118
2026-01-20 12:00:59.62	195.38	43.86	-49.4	-54.8	13.0	6.10e-01	0	39	0	499122176	70	6721
2026-01-20 12:01:00.63	195.73	44.15	-49.4	-54.9	12.9	6.09e-01	0	39	0	501219328	70	6780
2026-01-20 12:01:01.63	196.08	44.45	-49.4	-54.9	12.9	6.11e-01	0	39	0	503316480	70	6781
2026-01-20 12:01:02.64	196.44	44.74	-49.4	-54.8	13.0	6.10e-01	0	39	0	504889344	70	6690
2026-01-20 12:01:03.65	196.82	45.04	-49.4	-54.9	12.9	6.10e-01	0	39	0	506986496	70	6748
2026-01-20 12:01:04.66	197.19	45.34	-49.3	-54.7	13.2	6.08e-01	0	39	0	508559360	70	6574
2026-01-20 12:01:05.66	197.57	45.63	-49.3	-54.8	13.1	6.08e-01	0	39	0	510656512	70	6667
2026-01-20 12:01:06.67	197.96	45.93	-49.3	-54.5	13.3	6.08e-01	0	39	0	512229376	70	6462
2026-01-20 12:01:07.68	198.36	46.23	-49.4	-54.8	13.0	6.07e-01	0	39	0	514326528	70	6723
2026-01-20 12:01:08.69	198.77	46.53	-49.3	-54.6	13.2	6.09e-01	0	39	0	516423680	70	6541
2026-01-20 12:01:09.69	199.18	46.83	-49.3	-54.8	13.1	6.10e-01	0	39	0	518520832	70	6647
2026-01-20 12:01:10.70	199.60	47.14	-49.3	-54.6	13.2	6.09e-01	0	39	0	520093696	70	6551
2026-01-20 12:01:11.71	200.03	47.44	-49.2	-54.5	13.4	6.10e-01	0	39	0	522190848	70	6444
2026-01-20 12:01:12.72	200.47	47.74	-49.3	-54.6	13.3	6.08e-01	0	39	0	523763712	70	6538
2026-01-20 12:01:13.73	200.92	48.05	-49.4	-55.0	12.9	6.09e-01	0	39	0	525860864	70	6812
2026-01-20 12:01:14.73	201.37	48.35	-49.4	-54.8	13.0	6.11e-01	0	39	0	527433728	70	6696
2026-01-20 12:01:15.74	201.84	48.66	-49.4	-55.0	12.9	6.09e-01	0	39	0	529530880	70	6816
2026-01-20 12:01:16.75	202.32	48.96	-49.3	-54.7	13.1	6.08e-01	0	39	0	531628032	70	6615
2026-01-20 12:01:17.75	202.80	49.26	-49.3	-54.7	13.2	6.10e-01	0	39	0	533200896	70	6580
2026-01-20 12:01:18.76	203.29	49.57	-49.4	-55.0	12.9	6.10e-01	0	39	0	535298048	70	6809
2026-01-20 12:01:19.77	203.80	49.87	-49.4	-54.8	13.0	6.09e-01	0	39	0	536870912	70	6715
2026-01-20 12:01:20.78	204.31	50.18	-49.3	-54.6	13.2	6.08e-01	0	39	0	538968064	70	6517
2026-01-20 12:01:21.79	204.84	50.48	-49.4	-54.8	13.0	6.08e-01	0	39	0	541065216	70	6703
2026-01-20 12:01:22.80	205.37	50.79	-49.4	-54.9	13.0	6.11e-01	0	39	0	542638080	70	6736
2026-01-20 12:01:23.80	205.91	51.09	-49.4	-54.8	12.9	6.08e-01	0	39	0	544735232	70	6721
2026-01-20 12:01:24.81	206.47	51.39	-49.4	-55.0	12.8	6.10e-01	0	39	0	546832384	70	6859
2026-01-20 12:01:25.82	207.04	51.70	-49.4	-54.8	13.0	6.07e-01	0	39	0	548405248	70	6722
2026-01-20 12:01:26.83	207.62	52.00	-49.4	-54.9	12.9	6.07e-01	0	39	0	550502400	70	6783
2026-01-20 12:01:27.83	208.21	52.29	-49.4	-54.8	13.1	6.08e-01	0	39	0	552075264	70	6661
2026-01-20 12:01:28.84	208.82	52.59	-49.4	-54.8	13.0	6.13e-01	0	39	0	554172416	70	6672
2026-01-20 12:01:29.84	209.43	52.89	-49.3	-54.6	13.3	6.11e-01	0	39	0	555745280	70	6513
2026-01-20 12:01:30.85	210.06	53.19	-49.3	-54.5	13.3	6.07e-01	0	39	0	557842432	70	6484
2026-01-20 12:01:31.86	210.70	53.48	-49.4	-54.9	12.9	6.09e-01	0	39	0	559939584	70	6793
2026-01-20 12:01:32.87	211.36	53.77	-49.4	-54.9	13.0	6.11e-01	0	39	0	561512448	70	6728
2026-01-20 12:01:33.88	212.03	54.06	-49.4	-54.8	13.1	6.10e-01	0	39	0	563609600	70	6681
2026-01-20 12:01:34.89	212.71	54.35	-49.4	-54.8	13.1	6.07e-01	0	39	0	565706752	70	6682
2026-01-20 12:01:35.89	213.40	54.64	-49.5	-55.3	12.6	6.13e-01	0	39	0	567279616	70	7060
2026-01-20 12:01:36.90	214.11	54.92	-49.5	-55.3	12.6	6.09e-01	0	39	0	569376768	70	7047
2026-01-20 12:01:37.91	214.83	55.20	-49.6	-55.3	12.6	6.11e-01	0	39	0	570949632	70	7081
2026-01-20 12:01:38.92	215.57	55.48	-49.7	-55.7	12.1	6.13e-01	0	39	0	573046784	70	7448
2026-01-20 12:01:39.92	216.32	55.75	-49.7	-55.9	11.9	6.13e-01	0	39	0	575143936	70	7584
2026-01-20 12:01:40.93	217.09	56.02	-49.8	-56.0	11.7	6.14e-01	0	39	0	576716800	70	7707
2026-01-20 12:01:41.94	217.87	56.29	-49.7	-55.8	11.9	6.14e-01	0	39	0	578813952	70	7524
2026-01-20 12:01:42.95	218.67	56.55	-49.9	-56.4	11.4	6.15e-01	0	39	0	580386816	70	8044
2026-01-20 12:01:43.95	219.48	56.81	-49.9	-56.4	11.4	6.18e-01	0	39	0	582483968	70	8000
2026-01-20 12:01:44.96	220.31	57.06	-49.8	-56.1	11.7	6.11e-01	0	39	0	584056832	70	7799
2026-01-20 12:01:45.97	221.15	57.31	-50.0	-56.8	11.0	6.18e-01	0	39	0	586153984	70	8409
2026-01-20 12:01:46.97	222.00	57.56	-49.9	-56.5	11.4	6.16e-01	0	39	0	588251136	70	8101
2026-01-20 12:01:47.98	222.88	57.80	-49.9	-56.5	11.2	6.13e-01	0	39	0	590348288	70	8174
2026-01-20 12:01:48.99	223.77	58.03	-50.0	-56.7	11.1	6.16e-01	0	39	0	591921152	70	8321
2026-01-20 12:01:50.00	224.68	58.26	-50.1	-57.2	10.6	6.17e-01	0	39	0	594018304	70	8762
2026-01-20 12:01:51.01	225.60	58.49	-50.0	-56.8	11.1	6.18e-01	0	39	0	595591168	70	8383
2026-01-20 12:01:52.01	226.53	58.70	-50.1	-57.3	10.6	6.20e-01	0	39	0	597688320	70	8879
2026-01-20 12:01:53.02	227.48	58.91	-50.1	-57.3	10.4	6.23e-01	0	39	0	599261184	70	8949
2026-01-20 12:01:54.03	228.45	59.12	-50.2	-57.6	10.2	6.24e-01	0	39	0	601358336	70	9225
2026-01-20 12:01:55.04	229.44	59.32	-50.2	-57.7	10.1	6.23e-01	0	39	0	603455488	70	9338
2026-01-20 12:01:56.04	230.42	59.51	-50.3	-58.0	9.8	6.26e-01	0	39	0	605028352	71	9094
2026-01-20 12:01:57.05	231.44	59.69	-50.3	-58.0	9.7	6.27e-01	0	39	0	607125504	71	9075
2026-01-20 12:01:58.05	232.45	59.87	-50.2	-57.9	9.9	6.24e-01	0	39	0	608698368	71	8978
2026-01-20 12:01:59.05	233.48	60.03	-50.2	-57.9	9.8	6.25e-01	0	39	0	610795520	71	9000
2026-01-20 12:02:00.06	234.54	60.19	-50.2	-57.7	10.0	6.23e-01	0	39	0	612368384	71	8791
2026-01-20 12:02:01.07	235.60	60.35	-50.2	-57.6	10.2	6.23e-01	0	39	0	614465536	71	8725
2026-01-20 12:02:02.08	236.68	60.49	-50.2	-57.5	10.2	6.21e-01	0	39	0	616562688	71	8635
2026-01-20 12:02:03.08	237.76	60.63	-50.3	-58.1	9.7	6.26e-01	0	39	0	618659840	71	9235
2026-01-20 12:02:04.09	238.86	60.75	-50.2	-57.6	10.1	6.22e-01	0	39	0	620232704	71	8727
2026-01-20 12:02:05.09	239.97	60.87	-50.2	-57.8	10.0	6.23e-01	0	39	0	622329856	71	8962
2026-01-20 12:02:06.10	241.09	60.98	-50.3	-57.9	9.9	6.24e-01	0	39	0	623902720	71	8969
2026-01-20 12:02:07.11	242.22	61.08	-50.2	-57.7	10.1	6.24e-01	0	39	0	625999872	71	8808
2026-01-20 12:02:08.11	243.35	61.17	-50.3	-57.9	9.9	6.22e-01	0	39	0	627572736	71	9030
2026-01-20 12:02:09.12	244.50	61.25	-50.3	-58.2	9.6	6.26e-01	0	39	0	629669888	71	9306
2026-01-20 12:02:10.13	245.65	61.32	-50.4	-58.4	9.4	6.27e-01	0	39	0	631767040	71	9559
2026-01-20 12:02:11.14	246.81	61.38	-50.3	-58.0	9.8	6.24e-01	0	39	0	633339904	71	9074
2026-01-20 12:02:12.15	247.98	61.43	-50.3	-58.0	9.7	6.28e-01	0	39	0	635437056	71	9161
2026-01-20 12:02:13.16	249.15	61.47	-50.4	-58.4	9.4	6.29e-01	0	39	0	637009920	71	9532
2026-01-20 12:02:14.17	250.32	61.50	-50.3	-58.2	9.5	6.30e-01	0	39	0	639107072	71	9383
2026-01-20 12:02:15.17	251.49	61.51	-50.4	-58.5	9.2	6.29e-01	0	39	0	640679936	71	9696
2026-01-20 12:02:16.18	252.67	61.52	-50.4	-58.7	9.2	6.31e-01	0	39	0	642777088	71	9919
2026-01-20 12:02:17.19	253.84	61.52	-50.3	-58.0	9.8	6.26e-01	0	39	0	644874240	71	9075
2026-01-20 12:02:18.20	255.02	61.51	-50.3	-57.8	10.1	6.23e-01	0	39	0	646971392	71	8890
2026-01-20 12:02:19.20	256.18	61.49	-50.3	-58.1	9.7	6.25e-01	0	39	0	648544256	71	9258
2026-01-20 12:02:20.21	257.36	61.46	-50.3	-58.0	9.8	6.24e-01	0	39	0	650641408	71	9105
2026-01-20 12:02:21.22	258.53	61.41	-50.3	-58.0	9.8	6.24e-01	0	39	0	652214272	71	9085
2026-01-20 12:02:22.23	259.69	61.36	-50.3	-58.0	9.9	6.27e-01	0	39	0	654311424	71	9093
2026-01-20 12:02:23.23	260.84	61.30	-50.3	-58.0	9.8	6.23e-01	0	39	0	655884288	71	9135
2026-01-20 12:02:24.24	261.99	61.23	-50.3	-57.7	10.1	6.24e-01	0	39	0	657981440	71	8851
2026-01-20 12:02:25.25	263.14	61.15	-50.3	-57.8	10.0	6.20e-01	0	39	0	660078592	71	8875
2026-01-20 12:02:26.25	264.27	61.05	-50.3	-57.9	9.9	6.24e-01	0	39	0	661651456	71	9059
2026-01-20 12:02:27.26	265.39	60.95	-50.3	-58.1	9.6	6.26e-01	0	39	0	663748608	71	9238
2026-01-20 12:02:28.27	266.51	60.84	-50.3	-57.7	10.1	6.24e-01	0	39	0	665321472	71	8851
2026-01-20 12:02:29.28	267.62	60.72	-50.2	-57.2	10.7	6.20e-01	0	39	0	667418624	71	8295
2026-01-20 12:02:30.29	268.72	60.59	-50.3	-57.6	10.3	6.21e-01	0	39	0	669515776	71	8730
2026-01-20 12:02:31.29	269.80	60.46	-50.2	-57.3	10.6	6.21e-01	0	39	0	671088640	71	8415
2026-01-20 12:02:32.30	270.87	60.31	-50.0	-56.6	11.2	6.14e-01	0	39	0	673185792	71	7783
2026-01-20 12:02:33.31	271.94	60.16	-50.1	-56.9	11.0	6.18e-01	0	39	0	675282944	71	8038
2026-01-20 12:02:34.31	272.98	60.00	-50.1	-56.9	11.0	6.16e-01	0	39	0	676855808	71	8031
2026-01-20 12:02:35.32	274.01	59.83	-50.1	-57.1	10.9	6.14e-01	0	39	0	678952960	71	8187
2026-01-20 12:02:36.33	275.03	59.65	-50.0	-56.4	11.5	6.07e-01	0	39	0	680525824	71	7599
2026-01-20 12:02:37.34	276.04	59.46	-50.1	-56.7	11.2	6.08e-01	0	39	0	682622976	71	7850
2026-01-20 12:02:38.34	277.03	59.27	-50.1	-56.9	11.0	6.11e-01	0	39	0	684195840	71	8022
2026-01-20 12:02:39.35	278.00	59.07	-50.1	-56.9	11.0	6.13e-01	0	39	0	686292992	71	8073
2026-01-20 12:02:40.36	278.97	58.86	-50.1	-56.9	11.0	6.13e-01	0	39	0	688390144	71	8072
2026-01-20 12:02:41.37	279.92	58.65	-50.1	-56.7	11.2	6.09e-01	0	39	0	689963008	71	7881
2026-01-20 12:02:42.37	280.84	58.43	-50.0	-56.7	11.3	6.12e-01	0	39	0	692060160	71	7824
2026-01-20 12:02:43.38	281.76	58.21	-50.0	-56.5	11.3	6.11e-01	0	39	0	694157312	71	7708
2026-01-20 12:02:44.39	282.66	57.98	-49.9	-56.0	12.0	6.07e-01	0	39	0	695730176	71	7255
2026-01-20 12:02:45.40	283.55	57.74	-49.9	-56.0	12.0	6.07e-01	0	39	0	697827328	71	7221
2026-01-20 12:02:46.40	284.41	57.50	-49.9	-56.1	11.8	6.09e-01	0	39	0	699400192	71	7348
2026-01-20 12:02:47.41	285.26	57.26	-49.9	-56.2	11.7	6.08e-01	0	39	0	701497344	71	7411
2026-01-20 12:02:48.42	286.10	57.00	-49.9	-56.0	12.0	6.06e-01	0	39	0	703594496	71	7236
2026-01-20 12:02:49.42	286.92	56.75	-49.8	-55.6	12.4	6.04e-01	0	39	0	705167360	71	6958
2026-01-20 12:02:50.43	287.73	56.49	-49.7	-55.5	12.5	6.05e-01	0	39	0	707264512	71	6817
2026-01-20 12:02:51.44	288.52	56.23	-49.8	-55.8	12.2	6.06e-01	0	39	0	708837376	71	7079
2026-01-20 12:02:52.45	289.30	55.96	-49.8	-55.8	12.3	6.06e-01	0	39	0	710934528	71	7047
2026-01-20 12:02:53.46	290.07	55.69	-49.7	-55.3	12.7	6.05e-01	0	39	0	712507392	71	6723
2026-01-20 12:02:54.46	290.81	55.42	-49.7	-55.3	12.7	6.04e-01	0	39	0	714604544	71	6665
2026-01-20 12:02:55.47	291.54	55.14	-49.8	-55.6	12.4	6.08e-01	0	39	0	716701696	71	6949
2026-01-20 12:02:56.48	292.26	54.86	-49.7	-55.4	12.6	6.07e-01	0	39	0	718274560	71	6800
2026-01-20 12:02:57.49	292.97	54.58	-49.8	-55.7	12.4	6.04e-01	0	39	0	720371712	71	6987
2026-01-20 12:02:58.49	293.66	54.29	-49.7	-55.3	12.8	6.04e-01	0	39	0	722468864	71	6648
2026-01-20 12:02:59.50	294.33	54.00	-49.6	-55.1	13.0	6.02e-01	0	39	0	724041728	71	6539
2026-01-20 12:03:00.51	295.00	53.71	-49.7	-55.5	12.6	6.05e-01	0	39	0	726138880	71	6809
2026-01-20 12:03:01.51	295.64	53.42	-49.8	-55.6	12.4	6.05e-01	0	39	0	727711744	71	6882
2026-01-20 12:03:02.52	296.28	53.13	-49.8	-55.7	12.3	6.09e-01	0	39	0	729808896	71	7013
2026-01-20 12:03:03.53	296.91	52.83	-49.7	-55.2	12.8	6.06e-01	0	39	0	731906048	71	6600
2026-01-20 12:03:04.54	297.52	52.54	-49.6	-55.1	13.0	6.05e-01	0	39	0	733478912	71	6533
2026-01-20 12:03:05.55	298.13	52.24	-49.7	-55.4	12.6	6.04e-01	0	39	0	735576064	71	6796
2026-01-20 12:03:06.55	298.71	51.94	-49.8	-55.6	12.4	6.05e-01	0	39	0	737148928	71	6890
2026-01-20 12:03:07.56	299.29	51.64	-49.8	-55.8	12.2	6.08e-01	0	39	0	739246080	71	7100
2026-01-20 12:03:08.57	299.85	51.34	-49.9	-56.1	12.0	6.06e-01	0	39	0	740818944	71	7311
2026-01-20 12:03:09.58	300.41	51.04	-49.8	-55.8	12.2	6.06e-01	0	39	0	742916096	71	7121
2026-01-20 12:03:10.59	300.95	50.73	-49.8	-55.5	12.6	6.07e-01	0	39	0	745013248	71	6831
2026-01-20 12:03:11.59	301.48	50.43	-49.9	-56.0	12.1	6.08e-01	0	39	0	746586112	71	7226
2026-01-20 12:03:12.60	302.00	50.13	-50.0	-56.3	11.7	6.07e-01	0	39	0	748683264	71	7525
2026-01-20 12:03:13.61	302.51	49.82	-50.1	-56.6	11.4	6.11e-01	0	39	0	750780416	71	7743
2026-01-20 12:03:14.61	303.01	49.52	-50.1	-56.6	11.4	6.08e-01	0	39	0	752353280	71	7782
2026-01-20 12:03:15.62	303.50	49.22	-50.1	-56.5	11.4	6.09e-01	0	39	0	754450432	71	7719
2026-01-20 12:03:16.63	303.98	48.91	-50.0	-56.3	11.8	6.08e-01	0	39	0	756023296	71	7462
2026-01-20 12:03:17.64	304.45	48.61	-50.0	-56.2	11.8	6.09e-01	0	39	0	758120448	71	7453
2026-01-20 12:03:18.65	304.92	48.31	-50.0	-56.3	11.7	6.09e-01	0	39	0	760217600	71	7534
2026-01-20 12:03:19.66	305.37	48.00	-50.0	-56.5	11.6	6.09e-01	0	39	0	761790464	71	7643
2026-01-20 12:03:20.66	305.81	47.70	-50.0	-56.5	11.6	6.09e-01	0	39	0	763887616	71	7638
2026-01-20 12:03:21.67	306.25	47.40	-50.0	-56.1	11.9	6.07e-01	0	39	0	765460480	71	7371
2026-01-20 12:03:22.68	306.68	47.10	-50.0	-56.4	11.6	6.09e-01	0	39	0	767557632	71	7613
2026-01-20 12:03:23.69	307.10	46.79	-50.0	-56.3	11.8	6.08e-01	0	39	0	769654784	71	7467
2026-01-20 12:03:24.69	307.51	46.50	-49.9	-56.1	12.0	6.06e-01	0	39	0	771227648	71	7293
2026-01-20 12:03:25.70	307.91	46.20	-50.0	-56.1	12.0	6.07e-01	0	39	0	773324800	71	7317
2026-01-20 12:03:26.71	308.31	45.90	-50.0	-56.3	11.7	6.08e-01	0	39	0	774897664	71	7499
2026-01-20 12:03:27.72	308.70	45.60	-50.0	-56.2	11.9	6.08e-01	0	39	0	776994816	71	7394
2026-01-20 12:03:28.73	309.08	45.30	-50.0	-56.2	11.8	6.09e-01	0	39	0	779091968	71	7432
2026-01-20 12:03:29.73	309.45	45.01	-49.9	-56.0	12.1	6.08e-01	0	39	0	780664832	71	7209
2026-01-20 12:03:30.74	309.82	44.71	-49.9	-56.1	12.0	6.07e-01	0	39	0	782761984	71	7312
2026-01-20 12:03:31.75	310.18	44.42	-50.0	-56.3	11.7	6.09e-01	0	39	0	784334848	71	7512
2026-01-20 12:03:32.76	310.53	44.12	-50.0	-56.4	11.6	6.11e-01	0	39	0	786432000	71	7620
2026-01-20 12:03:33.77	310.88	43.83	-50.0	-56.4	11.6	6.08e-01	0	39	0	788529152	71	7568
2026-01-20 12:03:34.77	311.22	43.54	-50.0	-56.4	11.6	6.09e-01	0	39	0	790102016	71	7608
2026-01-20 12:03:35.78	311.56	43.25	-50.0	-56.3	11.7	6.08e-01	0	39	0	792199168	71	7522
2026-01-20 12:03:36.79	311.89	42.96	-50.0	-56.3	11.7	6.06e-01	0	39	0	794296320	71	7520
2026-01-20 12:03:37.80	312.21	42.68	-50.0	-56.4	11.6	6.08e-01	0	39	0	795869184	71	7592
2026-01-20 12:03:38.81	312.53	42.39	-50.0	-56.5	11.6	6.06e-01	0	39	0	797966336	71	7631
2026-01-20 12:03:39.81	312.84	42.11	-50.1	-56.5	11.6	6.09e-01	0	39	0	799539200	71	7664
2026-01-20 12:03:40.82	313.14	41.83	-50.1	-56.8	11.3	6.12e-01	0	39	0	801636352	71	7901
2026-01-20 12:03:41.83	313.45	41.54	-50.1	-56.8	11.2	6.10e-01	0	39	0	803209216	71	7948
2026-01-20 12:03:42.84	313.74	41.26	-50.1	-56.8	11.1	6.11e-01	0	39	0	805306368	71	7976
2026-01-20 12:03:43.84	314.03	40.99	-50.1	-56.7	11.3	6.09e-01	0	39	0	807403520	71	7870
2026-01-20 12:03:44.84	314.32	40.71	-50.2	-57.0	11.0	6.13e-01	0	39	0	808976384	71	8133
2026-01-20 12:03:45.85	314.60	40.44	-50.2	-57.1	10.9	6.14e-01	0	39	0	811073536	71	8243
2026-01-20 12:03:46.85	314.87	40.17	-50.1	-56.9	11.1	6.12e-01	0	39	0	812646400	71	8037
2026-01-20 12:03:47.86	315.14	39.89	-50.2	-56.9	11.1	6.11e-01	0	39	0	814743552	71	8058
2026-01-20 12:03:48.87	315.41	39.62	-50.1	-56.8	11.2	6.13e-01	0	39	0	816840704	71	7915
2026-01-20 12:03:49.88	315.67	39.35	-50.0	-56.3	11.7	6.08e-01	0	39	0	818413568	71	7542
2026-01-20 12:03:50.89	315.93	39.09	-50.0	-56.4	11.6	6.09e-01	0	39	0	820510720	71	7573
2026-01-20 12:03:51.89	316.19	38.82	-50.0	-56.5	11.5	6.09e-01	0	39	0	822607872	71	7651
2026-01-20 12:03:52.90	316.44	38.56	-50.1	-56.6	11.4	6.09e-01	0	39	0	824180736	71	7767
2026-01-20 12:03:53.91	316.68	38.29	-50.1	-56.7	11.3	6.13e-01	0	39	0	826277888	71	7848
2026-01-20 12:03:54.92	316.93	38.03	-50.1	-56.5	11.5	6.11e-01	0	39	0	827850752	71	7707
2026-01-20 12:03:55.93	317.17	37.77	-50.1	-56.6	11.4	6.08e-01	0	39	0	829947904	71	7748
2026-01-20 12:03:56.93	317.40	37.52	-50.1	-56.6	11.4	6.10e-01	0	39	0	831520768	71	7783
2026-01-20 12:03:57.94	317.63	37.26	-50.0	-56.4	11.7	6.07e-01	0	39	0	833617920	71	7544
2026-01-20 12:03:58.95	317.86	37.00	-50.0	-56.3	11.7	6.08e-01	0	39	0	835715072	71	7512
2026-01-20 12:03:59.96	318.08	36.75	-49.9	-56.1	11.9	6.06e-01	0	39	0	837287936	71	7350
2026-01-20 12:04:00.97	318.30	36.50	-49.9	-56.2	11.9	6.07e-01	0	39	0	839385088	71	7400
2026-01-20 12:04:01.97	318.52	36.25	-49.9	-55.9	12.1	6.09e-01	0	39	0	840957952	71	7173
2026-01-20 12:04:02.98	318.73	36.00	-49.8	-55.6	12.5	6.05e-01	0	39	0	843055104	71	6912
2026-01-20 12:04:03.99	318.94	35.75	-49.8	-55.6	12.5	6.04e-01	0	39	0	845152256	71	6921
2026-01-20 12:04:05.00	319.15	35.51	-49.8	-55.6	12.5	6.06e-01	0	39	0	846725120	71	6925
2026-01-20 12:04:06.00	319.35	35.27	-49.7	-55.4	12.6	6.04e-01	0	39	0	848822272	71	6789
2026-01-20 12:04:07.01	319.55	35.02	-49.7	-55.3	12.7	6.06e-01	0	39	0	850919424	71	6700
2026-01-20 12:04:08.02	319.75	34.78	-49.6	-55.2	12.9	6.03e-01	0	39	0	852492288	71	6574
2026-01-20 12:04:09.02	319.95	34.55	-49.5	-54.8	13.2	6.07e-01	0	39	0	854589440	71	6313
2026-01-20 12:04:10.03	320.14	34.31	-49.5	-54.9	13.2	6.04e-01	0	39	0	856162304	71	6385
2026-01-20 12:04:11.04	320.33	34.07	-49.6	-55.0	13.0	6.04e-01	0	39	0	858259456	71	6445
2026-01-20 12:04:12.05	320.52	33.84	-49.6	-54.9	13.1	6.04e-01	0	39	0	859832320	71	6419
2026-01-20 12:04:13.05	320.70	33.61	-49.5	-55.0	13.1	6.03e-01	0	39	0	861929472	71	6423
2026-01-20 12:04:14.06	320.88	33.38	-49.5	-54.9	13.1	6.01e-01	0	39	0	864026624	71	6408
2026-01-20 12:04:15.07	321.06	33.15	-49.5	-54.8	13.3	6.06e-01	0	39	0	865599488	71	6313
2026-01-20 12:04:16.08	321.24	32.92	-49.5	-54.9	13.2	6.03e-01	0	39	0	867696640	71	6376
2026-01-20 12:04:17.09	321.41	32.69	-49.5	-55.0	13.1	6.03e-01	0	39	0	869793792	71	6423
2026-01-20 12:04:18.09	321.58	32.47	-49.5	-54.8	13.2	6.02e-01	0	39	0	871366656	71	6324
2026-01-20 12:04:19.10	321.75	32.25	-49.5	-54.8	13.3	6.04e-01	0	39	0	873463808	71	6291
2026-01-20 12:04:20.11	321.92	32.03	-49.5	-54.8	13.2	6.04e-01	0	39	0	875036672	70	6688
2026-01-20 12:04:21.11	322.09	31.81	-49.5	-54.8	13.2	6.02e-01	0	39	0	877133824	70	6697
2026-01-20 12:04:22.12	322.25	31.59	-49.4	-54.6	13.5	6.03e-01	0	39	0	879230976	70	6523
2026-01-20 12:04:23.13	322.41	31.37	-49.4	-54.6	13.4	6.04e-01	0	39	0	880803840	70	6533
2026-01-20 12:04:24.14	322.57	31.15	-49.4	-54.6	13.4	6.05e-01	0	39	0	882900992	70	6544
2026-01-20 12:04:25.14	322.72	30.94	-49.4	-54.5	13.6	6.03e-01	0	39	0	884473856	70	6434
2026-01-20 12:04:26.15	322.88	30.73	-49.4	-54.5	13.5	6.02e-01	0	39	0	886571008	70	6471
2026-01-20 12:04:27.16	323.03	30.52	-49.4	-54.6	13.5	6.03e-01	0	39	0	888143872	70	6496
2026-01-20 12:04:28.17	323.18	30.31	-49.4	-54.6	13.4	6.01e-01	0	39	0	890241024	70	6569
2026-01-20 12:04:29.17	323.33	30.10	-49.5	-54.9	13.2	6.02e-01	0	39	0	892338176	70	6732
2026-01-20 12:04:30.18	323.47	29.89	-49.5	-54.8	13.2	6.05e-01	0	39	0	894435328	70	6706
2026-01-20 12:04:31.19	323.62	29.69	-49.5	-54.8	13.2	6.03e-01	0	39	0	896008192	70	6716
2026-01-20 12:04:32.20	323.76	29.48	-49.5	-54.8	13.2	6.00e-01	0	39	0	898105344	70	6691
2026-01-20 12:04:33.21	323.90	29.28	-49.5	-54.9	13.1	6.01e-01	0	39	0	899678208	70	6753
2026-01-20 12:04:34.21	324.04	29.08	-49.5	-54.9	13.1	6.04e-01	0	39	0	901775360	70	6794
2026-01-20 12:04:35.22	324.18	28.88	-49.5	-55.0	13.0	6.04e-01	0	39	0	903348224	70	6859
2026-01-20 12:04:36.23	324.32	28.68	-49.5	-55.1	12.9	6.08e-01	0	39	0	905445376	70	6880
2026-01-20 12:04:37.23	324.45	28.49	-49.6	-55.2	12.8	6.03e-01	0	39	0	907542528	70	6986
2026-01-20 12:04:38.23	324.58	28.29	-49.6	-55.2	12.8	6.05e-01	0	39	0	909115392	70	6997
2026-01-20 12:04:39.24	324.71	28.10	-49.6	-55.2	12.8	6.04e-01	0	39	0	911212544	70	6973
2026-01-20 12:04:40.25	324.84	27.90	-49.5	-55.0	13.0	6.05e-01	0	39	0	912785408	70	6810
2026-01-20 12:04:41.26	324.97	27.71	-49.5	-55.0	13.0	6.02e-01	0	39	0	914882560	70	6832
2026-01-20 12:04:42.26	325.09	27.52	-49.6	-55.1	12.9	6.05e-01	0	39	0	916455424	70	6888
2026-01-20 12:04:43.27	325.22	27.33	-49.5	-54.9	13.1	6.01e-01	0	39	0	918552576	70	6773
2026-01-20 12:04:44.28	325.34	27.14	-49.5	-55.0	12.9	6.08e-01	0	39	0	920649728	70	6868
2026-01-20 12:04:45.29	325.47	26.96	-49.6	-55.2	12.8	6.05e-01	0	39	0	922746880	70	7000
2026-01-20 12:04:46.29	325.58	26.77	-49.6	-55.3	12.7	6.03e-01	0	39	0	924319744	70	7055
2026-01-20 12:04:47.30	325.70	26.59	-49.7	-55.4	12.6	6.06e-01	0	39	0	926416896	70	7159
2026-01-20 12:04:48.31	325.82	26.40	-49.7	-55.4	12.5	6.06e-01	0	39	0	927989760	70	7202
2026-01-20 12:04:49.31	325.94	26.22	-49.7	-55.5	12.5	6.04e-01	0	39	0	930086912	70	7213
2026-01-20 12:04:50.32	326.05	26.04	-49.7	-55.6	12.4	6.09e-01	0	39	0	931659776	70	7319
2026-01-20 12:04:51.33	326.17	25.86	-49.7	-55.6	12.3	6.07e-01	0	39	0	933756928	70	7365
2026-01-20 12:04:52.34	326.28	25.68	-49.7	-55.7	12.2	6.04e-01	0	39	0	935854080	70	7406
2026-01-20 12:04:53.34	326.39	25.51	-49.7	-55.6	12.3	6.07e-01	0	39	0	937426944	70	7355
2026-01-20 12:04:54.35	326.50	25.33	-49.7	-55.7	12.2	6.04e-01	0	39	0	939524096	70	7394
2026-01-20 12:04:55.36	326.61	25.16	-49.7	-55.8	12.1	6.07e-01	0	39	0	941096960	70	7471
2026-01-20 12:04:56.37	326.72	24.98	-49.8	-55.9	12.1	6.08e-01	0	39	0	943194112	70	7557
2026-01-20 12:04:57.37	326.82	24.81	-49.7	-55.7	12.2	6.07e-01	0	39	0	944766976	70	7426
2026-01-20 12:04:58.38	326.93	24.64	-49.8	-55.8	12.1	6.05e-01	0	39	0	946864128	70	7495
2026-01-20 12:04:59.39	327.03	24.47	-49.8	-55.9	12.0	6.08e-01	0	39	0	948961280	70	7549
2026-01-20 12:05:00.39	327.13	24.30	-49.7	-55.8	12.1	6.09e-01	0	39	0	951058432	70	7479
2026-01-20 12:05:01.40	327.24	24.13	-49.7	-55.8	12.0	6.07e-01	0	39	0	952631296	70	7539
2026-01-20 12:05:02.41	327.34	23.97	-49.8	-55.9	12.0	6.06e-01	0	39	0	954728448	70	7565
2026-01-20 12:05:03.42	327.44	23.80	-49.7	-55.7	12.2	6.07e-01	0	39	0	956301312	70	7392
2026-01-20 12:05:04.43	327.54	23.63	-49.7	-55.6	12.3	6.05e-01	0	39	0	958398464	70	7328
2026-01-20 12:05:05.44	327.63	23.47	-49.7	-55.6	12.4	6.07e-01	0	39	0	959971328	70	7298
2026-01-20 12:05:06.44	327.73	23.31	-49.7	-55.6	12.3	6.07e-01	0	39	0	962068480	70	7299
2026-01-20 12:05:07.45	327.83	23.15	-49.7	-55.7	12.3	6.07e-01	0	39	0	964165632	70	7372
2026-01-20 12:05:08.45	327.92	22.99	-49.7	-55.6	12.3	6.03e-01	0	39	0	965738496	70	7321
2026-01-20 12:05:09.46	328.01	22.83	-49.7	-55.7	12.2	6.05e-01	0	39	0	967835648	70	7382
2026-01-20 12:05:10.47	328.11	22.67	-49.7	-55.7	12.1	6.05e-01	0	39	0	969408512	70	7437
2026-01-20 12:05:11.48	328.20	22.51	-49.7	-55.6	12.3	6.08e-01	0	39	0	971505664	70	7333
2026-01-20 12:05:12.49	328.29	22.35	-49.7	-55.7	12.2	6.08e-01	0	39	0	973602816	70	7384
2026-01-20 12:05:13.50	328.38	22.20	-49.7	-55.6	12.3	6.07e-01	0	39	0	975175680	70	7342
2026-01-20 12:05:14.50	328.47	22.04	-49.7	-55.7	12.2	6.05e-01	0	39	0	977272832	70	7413
2026-01-20 12:05:15.51	328.56	21.89	-49.7	-55.6	12.3	6.08e-01	0	39	0	979369984	70	7342
2026-01-20 12:05:16.52	328.65	21.74	-49.7	-55.5	12.4	6.07e-01	0	39	0	980942848	70	7270
2026-01-20 12:05:17.53	328.73	21.59	-49.7	-55.7	12.2	6.07e-01	0	39	0	983040000	70	7374
2026-01-20 12:05:18.53	328.82	21.44	-49.7	-55.6	12.3	6.08e-01	0	39	0	984612864	70	7320
2026-01-20 12:05:19.54	328.90	21.29	-49.7	-55.6	12.2	6.05e-01	0	39	0	986710016	70	7342
2026-01-20 12:05:20.55	328.99	21.14	-49.7	-55.6	12.2	6.08e-01	0	39	0	988282880	70	7347
2026-01-20 12:05:21.55	329.07	20.99	-49.7	-55.6	12.2	6.06e-01	0	39	0	990380032	70	7345
2026-01-20 12:05:22.56	329.15	20.84	-49.7	-55.6	12.2	6.05e-01	0	39	0	992477184	70	7353
2026-01-20 12:05:23.57	329.23	20.69	-49.7	-55.7	12.2	6.07e-01	0	39	0	994050048	70	7424
2026-01-20 12:05:24.58	329.31	20.55	-49.7	-55.8	12.1	6.09e-01	0	39	0	996147200	70	7463
2026-01-20 12:05:25.58	329.39	20.41	-49.7	-55.6	12.2	6.06e-01	0	39	0	998244352	70	7341
2026-01-20 12:05:26.59	329.47	20.26	-49.7	-55.7	12.2	6.05e-01	0	39	0	999817216	70	7403
2026-01-20 12:05:27.60	329.55	20.12	-49.6	-55.5	12.4	6.06e-01	0	39	0	1001914368	70	7242
2026-01-20 12:05:28.61	329.63	19.98	-49.6	-55.6	12.3	6.03e-01	0	39	0	1003487232	70	7317
2026-01-20 12:05:29.62	329.71	19.83	-49.6	-55.4	12.5	6.07e-01	0	39	0	1005584384	70	7148
2026-01-20 12:05:30.62	329.78	19.70	-49.6	-55.5	12.3	6.07e-01	0	39	0	1007681536	70	7247
2026-01-20 12:05:31.63	329.86	19.56	-49.6	-55.5	12.3	6.04e-01	0	39	0	1009254400	70	7278
2026-01-20 12:05:32.64	329.94	19.42	-49.6	-55.6	12.3	6.04e-01	0	39	0	1011351552	70	7332
2026-01-20 12:05:33.65	330.01	19.28	-49.6	-55.5	12.3	6.06e-01	0	39	0	1012924416	70	7257
2026-01-20 12:05:34.66	330.08	19.14	-49.6	-55.5	12.3	6.07e-01	0	39	0	1015021568	70	7282
2026-01-20 12:05:35.66	330.16	19.01	-49.6	-55.6	12.2	6.09e-01	0	39	0	1016594432	70	7331
2026-01-20 12:05:36.67	330.23	18.87	-49.6	-55.6	12.3	6.06e-01	0	39	0	1018691584	70	7301
2026-01-20 12:05:37.68	330.30	18.73	-49.6	-55.5	12.4	6.05e-01	0	39	0	1020788736	70	7245
2026-01-20 12:05:38.69	330.37	18.60	-49.6	-55.5	12.3	6.06e-01	0	39	0	1022885888	70	7234
2026-01-20 12:05:39.69	330.44	18.47	-49.6	-55.4	12.4	6.06e-01	0	39	0	1024458752	70	7135
2026-01-20 12:05:40.70	330.51	18.33	-49.6	-55.4	12.5	6.02e-01	0	39	0	1026555904	70	7135
2026-01-20 12:05:41.71	330.58	18.20	-49.6	-55.4	12.4	6.03e-01	0	39	0	1028128768	70	7170
2026-01-20 12:05:42.72	330.65	18.07	-49.5	-55.2	12.6	6.03e-01	0	39	0	1030225920	70	7027
2026-01-20 12:05:43.72	330.72	17.94	-49.6	-55.3	12.5	6.03e-01	0	39	0	1031798784	70	7115
2026-01-20 12:05:44.74	330.79	17.81	-49.5	-55.3	12.6	6.09e-01	0	39	0	1033895936	70	7060
2026-01-20 12:05:45.74	330.86	17.68	-49.5	-55.3	12.5	6.03e-01	0	39	0	1035993088	70	7105
2026-01-20 12:05:46.75	330.92	17.55	-49.5	-55.3	12.6	6.06e-01	0	39	0	1037565952	70	7048
2026-01-20 12:05:47.75	330.99	17.43	-49.5	-55.4	12.4	6.06e-01	0	39	0	1039663104	70	7126
2026-01-20 12:05:48.76	331.05	17.30	-49.5	-55.3	12.5	6.04e-01	0	39	0	1041235968	70	7072
2026-01-20 12:05:49.77	331.12	17.17	-49.5	-55.2	12.6	6.05e-01	0	39	0	1043333120	70	7027
2026-01-20 12:05:50.78	331.18	17.05	-49.5	-55.3	12.5	6.05e-01	0	39	0	1045430272	70	7046
2026-01-20 12:05:51.79	331.25	16.92	-49.5	-55.2	12.6	6.07e-01	0	39	0	1047003136	70	7020
2026-01-20 12:05:52.79	331.31	16.80	-49.5	-55.1	12.7	6.04e-01	0	39	0	1049100288	70	6934
2026-01-20 12:05:53.80	331.37	16.68	-49.5	-55.1	12.7	6.04e-01	0	39	0	1051197440	70	6940
2026-01-20 12:05:54.81	331.44	16.55	-49.5	-55.2	12.6	6.05e-01	0	39	0	1052770304	70	6964
2026-01-20 12:05:55.82	331.50	16.43	-49.5	-55.2	12.6	6.03e-01	0	39	0	1054867456	70	7013
2026-01-20 12:05:56.83	331.56	16.31	-49.5	-55.2	12.6	6.04e-01	0	39	0	1056440320	70	7033
2026-01-20 12:05:57.83	331.62	16.19	-49.5	-55.2	12.6	6.05e-01	0	39	0	1058537472	70	7013
2026-01-20 12:05:58.84	331.68	16.07	-49.5	-55.3	12.5	6.06e-01	0	39	0	1060110336	70	7079
2026-01-20 12:05:59.85	331.74	15.95	-49.5	-55.2	12.6	6.05e-01	0	39	0	1062207488	70	7027
2026-01-20 12:06:00.86	331.80	15.83	-49.5	-55.2	12.6	6.06e-01	0	39	0	1064304640	70	7003
2026-01-20 12:06:01.86	331.86	15.71	-49.5	-55.4	12.4	6.06e-01	0	39	0	1065877504	70	7140
2026-01-20 12:06:02.87	331.92	15.60	-49.5	-55.3	12.5	6.06e-01	0	39	0	1067974656	70	7063
2026-01-20 12:06:03.88	331.98	15.48	-49.5	-55.4	12.4	6.04e-01	0	39	0	1070071808	70	7123
2026-01-20 12:06:04.89	332.03	15.36	-49.5	-55.4	12.4	6.04e-01	0	39	0	1071644672	70	7134
2026-01-20 12:06:05.89	332.09	15.25	-49.5	-55.2	12.5	6.07e-01	0	39	0	1073741824	70	7033
2026-01-20 12:06:06.90	332.15	15.13	-49.5	-55.3	12.5	6.06e-01	0	39	0	1075314688	70	7081
2026-01-20 12:06:07.91	332.20	15.02	-49.5	-55.4	12.4	6.06e-01	0	39	0	1077411840	70	7156
2026-01-20 12:06:08.92	332.26	14.90	-49.5	-55.5	12.3	6.04e-01	0	39	0	1079508992	70	7208
2026-01-20 12:06:09.93	332.32	14.79	-49.6	-55.5	12.2	6.07e-01	0	39	0	1081081856	70	7272
2026-01-20 12:06:10.94	332.37	14.67	-49.5	-55.4	12.4	6.03e-01	0	39	0	1083179008	70	7130
2026-01-20 12:06:11.94	332.42	14.56	-49.5	-55.4	12.4	6.06e-01	0	39	0	1084751872	70	7130
2026-01-20 12:06:12.95	332.48	14.45	-49.5	-55.3	12.5	6.05e-01	0	39	0	1086849024	70	7088
2026-01-20 12:06:13.96	332.53	14.34	-49.5	-55.4	12.3	6.06e-01	0	39	0	1088421888	70	7173
2026-01-20 12:06:14.97	332.59	14.23	-49.5	-55.4	12.4	6.06e-01	0	39	0	1090519040	70	7124
2026-01-20 12:06:15.98	332.64	14.12	-49.5	-55.3	12.4	6.08e-01	0	39	0	1092616192	70	7121
2026-01-20 12:06:16.98	332.69	14.01	-49.5	-55.4	12.3	6.05e-01	0	39	0	1094713344	70	7176
2026-01-20 12:06:17.99	332.74	13.90	-49.5	-55.3	12.4	6.08e-01	0	39	0	1096286208	70	7114
2026-01-20 12:06:19.00	332.80	13.79	-49.5	-55.3	12.5	6.08e-01	0	39	0	1098383360	70	7052
2026-01-20 12:06:20.00	332.85	13.68	-49.5	-55.5	12.3	6.05e-01	0	39	0	1099956224	70	7220
2026-01-20 12:06:21.01	332.90	13.57	-49.6	-55.5	12.2	6.04e-01	0	39	0	1102053376	70	7274
2026-01-20 12:06:22.02	332.95	13.47	-49.5	-55.5	12.3	6.06e-01	0	39	0	1103626240	70	7223
2026-01-20 12:06:23.03	333.00	13.36	-49.6	-55.6	12.1	6.05e-01	0	39	0	1105723392	70	7320
2026-01-20 12:06:24.03	333.05	13.26	-49.6	-55.6	12.1	6.07e-01	0	39	0	1107820544	70	7349
2026-01-20 12:06:25.04	333.10	13.15	-49.6	-55.6	12.2	6.06e-01	0	39	0	1109393408	70	7292
2026-01-20 12:06:26.05	333.15	13.04	-49.6	-55.7	12.0	6.06e-01	0	39	0	1111490560	70	7384
2026-01-20 12:06:27.06	333.20	12.94	-49.6	-55.7	12.0	6.06e-01	0	39	0	1113063424	70	7434
2026-01-20 12:06:28.07	333.25	12.83	-49.6	-55.7	12.0	6.06e-01	0	39	0	1115160576	70	7435
2026-01-20 12:06:29.08	333.30	12.73	-49.6	-55.7	12.0	6.10e-01	0	39	0	1116733440	70	7447
2026-01-20 12:06:30.08	333.34	12.63	-49.6	-55.7	12.0	6.11e-01	0	39	0	1118830592	70	7433
2026-01-20 12:06:31.09	333.39	12.53	-49.6	-55.7	12.0	6.06e-01	0	39	0	1120927744	70	7435
2026-01-20 12:06:32.10	333.44	12.42	-49.6	-55.7	12.0	6.05e-01	0	39	0	1123024896	70	7378
2026-01-20 12:06:33.11	333.49	12.32	-49.6	-55.7	12.0	6.07e-01	0	39	0	1124597760	70	7432
2026-01-20 12:06:34.12	333.53	12.22	-49.6	-55.7	12.0	6.09e-01	0	39	0	1126694912	70	7441
2026-01-20 12:06:35.12	333.58	12.12	-49.6	-55.7	11.9	6.06e-01	0	39	0	1128267776	70	7453
2026-01-20 12:06:36.13	333.63	12.02	-49.6	-55.8	11.8	6.06e-01	0	39	0	1130364928	70	7511
2026-01-20 12:06:37.14	333.67	11.92	-49.6	-55.8	11.9	6.07e-01	0	39	0	1131937792	70	7472
2026-01-20 12:06:38.14	333.72	11.82	-49.6	-55.8	11.9	6.07e-01	0	39	0	1134034944	70	7467
2026-01-20 12:06:39.15	333.76	11.72	-49.6	-55.7	12.0	6.07e-01	0	39	0	1136132096	70	7414
2026-01-20 12:06:40.16	333.81	11.62	-49.6	-55.7	12.0	6.06e-01	0	39	0	1137704960	70	7452
2026-01-20 12:06:41.17	333.85	11.52	-49.6	-55.9	11.9	6.05e-01	0	39	0	1139802112	70	7553
2026-01-20 12:06:42.18	333.90	11.42	-49.6	-55.8	11.8	6.05e-01	0	39	0	1141374976	70	7507
2026-01-20 12:06:43.18	333.94	11.33	-49.6	-55.9	11.8	6.06e-01	0	39	0	1143472128	70	7601
2026-01-20 12:06:44.19	333.99	11.23	-49.6	-55.9	11.8	6.09e-01	0	39	0	1145569280	70	7559
2026-01-20 12:06:45.20	334.03	11.13	-49.6	-55.9	11.7	6.10e-01	0	39	0	1147142144	70	7618
2026-01-20 12:06:46.21	334.07	11.04	-49.6	-55.9	11.8	6.09e-01	0	39	0	1149239296	70	7593
2026-01-20 12:06:47.21	334.12	10.94	-49.6	-55.9	11.7	6.08e-01	0	39	0	1151336448	70	7620
2026-01-20 12:06:48.22	334.16	10.85	-49.7	-56.1	11.6	6.09e-01	0	39	0	1152909312	70	7773
2026-01-20 12:06:49.23	334.20	10.75	-49.6	-55.9	11.8	6.06e-01	0	39	0	1155006464	70	7550
2026-01-20 12:06:50.24	334.24	10.66	-49.6	-56.0	11.7	6.07e-01	0	39	0	1156579328	70	7653
2026-01-20 12:06:51.25	334.29	10.56	-49.7	-56.1	11.6	6.10e-01	0	39	0	1158676480	70	7742
2026-01-20 12:06:52.25	334.33	10.47	-49.7	-56.0	11.6	6.08e-01	0	39	0	1160249344	70	7697
2026-01-20 12:06:53.26	334.37	10.37	-49.6	-56.0	11.7	6.08e-01	0	39	0	1162346496	70	7677
2026-01-20 12:06:54.27	334.41	10.28	-49.7	-56.0	11.6	6.09e-01	0	39	0	1164443648	70	7706
2026-01-20 12:06:55.28	334.45	10.19	-49.7	-56.2	11.5	6.09e-01	0	39	0	1166016512	70	7849
2026-01-20 12:06:56.29	334.49	10.10	-49.6	-56.0	11.7	6.07e-01	0	39	0	1168113664	70	7639
2026-01-20 12:06:57.30	334.53	10.00	-49.6	-55.9	11.7	6.07e-01	0	39	0	1170210816	70	7587
2026-01-20 12:06:58.30	334.57	9.91	-49.7	-56.0	11.6	6.07e-01	0	39	0	1171783680	70	7694
2026-01-20 12:06:59.31	334.61	9.82	-49.7	-56.1	11.5	6.11e-01	0	39	0	1173880832	70	7777
2026-01-20 12:07:00.32	334.65	9.73	-49.7	-56.1	11.5	6.08e-01	0	39	0	1175453696	70	7779
2026-01-20 12:07:01.33	334.69	9.64	-49.7	-56.1	11.5	6.09e-01	0	39	0	1177550848	70	7801
2026-01-20 12:07:02.33	334.73	9.55	-49.7	-56.2	11.4	6.07e-01	0	39	0	1179648000	70	7814
2026-01-20 12:07:03.34	334.77	9.46	-49.7	-56.3	11.3	6.07e-01	0	39	0	1181220864	70	7906
2026-01-20 12:07:04.35	334.81	9.37	-49.7	-56.3	11.3	6.12e-01	0	39	0	1183318016	70	7969
2026-01-20 12:07:05.36	334.85	9.28	-49.7	-56.2	11.5	6.09e-01	0	39	0	1184890880	70	7817
2026-01-20 12:07:06.37	334.89	9.19	-49.7	-56.4	11.2	6.12e-01	0	39	0	1186988032	70	8040
2026-01-20 12:07:07.37	334.92	9.11	-49.7	-56.3	11.3	6.13e-01	0	39	0	1188560896	70	7945
2026-01-20 12:07:08.38	334.96	9.02	-49.8	-56.5	11.1	6.12e-01	0	39	0	1190658048	70	8133
2026-01-20 12:07:09.39	335.00	8.93	-49.8	-56.5	11.1	6.09e-01	0	39	0	1192755200	70	8157
2026-01-20 12:07:10.40	335.04	8.84	-49.7	-56.4	11.2	6.10e-01	0	39	0	1194328064	70	8033
2026-01-20 12:07:11.41	335.08	8.75	-49.7	-56.4	11.2	6.09e-01	0	39	0	1196425216	70	7992
2026-01-20 12:07:12.41	335.11	8.67	-49.8	-56.5	11.1	6.15e-01	0	39	0	1198522368	70	8168
2026-01-20 12:07:13.42	335.15	8.58	-49.7	-56.4	11.2	6.11e-01	0	39	0	1200095232	70	8021
2026-01-20 12:07:14.43	335.19	8.50	-49.8	-56.5	11.1	6.11e-01	0	39	0	1202192384	70	8166
2026-01-20 12:07:15.44	335.22	8.41	-49.8	-56.6	10.9	6.14e-01	0	39	0	1203765248	70	8258
2026-01-20 12:07:16.44	335.26	8.33	-49.7	-56.3	11.2	6.08e-01	0	39	0	1205862400	70	7969
2026-01-20 12:07:17.45	335.29	8.24	-49.8	-56.5	11.1	6.11e-01	0	39	0	1207959552	70	8158
2026-01-20 12:07:18.46	335.33	8.15	-49.8	-56.6	10.8	6.13e-01	0	39	0	1209532416	70	8265
2026-01-20 12:07:19.47	335.37	8.07	-49.8	-56.7	10.8	6.12e-01	0	39	0	1211629568	70	8337
2026-01-20 12:07:20.48	335.40	7.99	-49.8	-56.8	10.8	6.14e-01	0	39	0	1213202432	70	8428
2026-01-20 12:07:21.48	335.44	7.90	-49.8	-56.8	10.8	6.14e-01	0	39	0	1215299584	70	8422
2026-01-20 12:07:22.49	335.47	7.82	-49.8	-56.9	10.7	6.13e-01	0	39	0	1217396736	70	8500
2026-01-20 12:07:23.50	335.51	7.74	-49.9	-56.9	10.6	6.15e-01	0	39	0	1218969600	70	8553
2026-01-20 12:07:24.51	335.54	7.65	-49.8	-56.7	10.8	6.11e-01	0	39	0	1221066752	70	8365
2026-01-20 12:07:25.51	335.58	7.57	-49.8	-56.8	10.8	6.14e-01	0	39	0	1222639616	70	8408
2026-01-20 12:07:26.52	335.61	7.49	-49.8	-56.9	10.6	6.15e-01	0	39	0	1224736768	70	8533
