passes_logs/2026/01/20/R3.2S_Murmansk/R3.2S_Murmansk__20260120_025800_SUOMI_NPP_rec.log

#Pass ID: 20260120_025800_SUOMI NPP
#Satellite: SUOMI NPP
#Configuration: NPP
#almurnet v.1.7.20251203
#Start time: 2026-01-20 02:58:01

#Version: 2.2.20231116
#Station: R3.2S_Murmansk
#Location: 33.079688 lon 68.888172 lat
#TLE: 1 37849U 11061A   26019.26265094  .00000081  00000+0  59609-4 0  9993
#TLE: 2 37849  98.7817 321.2746 0002356  56.2510 303.8890 14.19526363737315

#Time	Az	El	Level	Level2	SNR	BER	BlckErr	Temp	State	Recorded	gain1	gain2
2026-01-20 02:58:01.46	36.79	2.04	-51.6	-66.5	3.8	1.49e+00	0	37	0	0	75	19271
2026-01-20 02:58:02.47	36.74	2.10	-51.5	-66.5	3.8	1.49e+00	0	37	104	0	73	21555
2026-01-20 02:58:03.48	36.70	2.16	-51.5	-66.4	3.8	1.49e+00	0	37	104	0	73	21480
2026-01-20 02:58:04.49	36.65	2.22	-51.5	-66.4	3.8	1.49e+00	0	37	104	0	73	21444
2026-01-20 02:58:05.49	36.60	2.28	-51.5	-66.4	3.8	1.49e+00	0	37	104	0	73	21417
2026-01-20 02:58:06.50	36.56	2.34	-51.5	-66.4	3.8	1.49e+00	0	37	104	0	73	21403
2026-01-20 02:58:07.51	36.51	2.41	-51.5	-66.4	3.8	1.49e+00	0	37	104	0	73	21470
2026-01-20 02:58:08.52	36.46	2.47	-51.5	-66.5	3.8	1.49e+00	0	37	104	0	73	21530
2026-01-20 02:58:09.53	36.42	2.53	-51.5	-66.5	3.8	1.49e+00	0	37	104	0	73	21548
2026-01-20 02:58:10.53	36.37	2.59	-51.5	-66.4	3.8	1.49e+00	0	37	104	0	73	21500
2026-01-20 02:58:11.54	36.32	2.65	-51.5	-66.4	3.8	1.49e+00	0	37	104	0	73	21473
2026-01-20 02:58:12.55	36.28	2.71	-51.5	-66.4	3.8	1.49e+00	0	37	104	0	73	21459
2026-01-20 02:58:13.56	36.23	2.78	-51.5	-66.4	3.8	1.49e+00	0	37	104	0	73	21499
2026-01-20 02:58:14.57	36.18	2.84	-51.5	-66.4	3.8	1.49e+00	0	37	104	0	73	21428
2026-01-20 02:58:15.57	36.13	2.90	-51.5	-66.4	3.8	1.49e+00	0	37	104	0	73	21487
2026-01-20 02:58:16.58	36.08	2.96	-51.5	-66.4	3.8	1.49e+00	0	37	104	0	73	21418
2026-01-20 02:58:17.59	36.04	3.03	-51.5	-66.4	3.8	1.49e+00	0	37	104	0	73	21354
2026-01-20 02:58:18.60	35.99	3.09	-51.5	-66.4	3.8	1.49e+00	0	37	104	0	73	21303
2026-01-20 02:58:19.61	35.94	3.15	-51.5	-66.3	3.8	1.49e+00	0	37	104	0	73	21153
2026-01-20 02:58:20.61	35.89	3.22	-51.5	-66.3	3.8	1.49e+00	0	37	104	0	73	21184
2026-01-20 02:58:21.62	35.84	3.28	-51.5	-66.2	3.8	1.49e+00	0	37	104	0	73	20963
2026-01-20 02:58:22.63	35.79	3.34	-51.5	-66.1	3.8	1.49e+00	0	37	104	0	73	20599
2026-01-20 02:58:23.64	35.74	3.41	-51.5	-65.8	3.8	1.49e+00	0	37	104	0	73	20068
2026-01-20 02:58:24.65	35.69	3.47	-51.5	-65.9	3.8	1.49e+00	0	38	104	0	73	20093
2026-01-20 02:58:25.66	35.64	3.53	-51.5	-65.6	3.8	1.49e+00	0	37	104	0	73	19613
2026-01-20 02:58:26.67	35.59	3.60	-51.5	-65.7	3.8	1.49e+00	0	38	104	0	73	19626
2026-01-20 02:58:27.67	35.54	3.66	-51.5	-65.4	3.8	1.49e+00	0	37	104	0	73	18972
2026-01-20 02:58:28.68	35.49	3.72	-51.4	-65.0	3.8	1.49e+00	0	37	104	0	73	18200
2026-01-20 02:58:29.69	35.43	3.79	-51.4	-64.6	3.8	1.49e+00	0	38	104	0	73	17445
2026-01-20 02:58:30.70	35.38	3.85	-51.4	-64.0	3.8	1.48e+00	0	37	104	0	73	16263
2026-01-20 02:58:31.71	35.33	3.92	-51.4	-63.7	4.0	1.47e+00	0	38	104	0	73	15699
2026-01-20 02:58:32.72	35.28	3.98	-51.3	-62.2	4.4	1.32e+00	151	38	0	0	73	13112
2026-01-20 02:58:33.72	35.23	4.05	-51.3	-62.7	4.2	1.33e+00	0	37	0	1048576	73	13971
2026-01-20 02:58:34.73	35.17	4.11	-51.2	-61.2	4.8	1.11e+00	0	38	0	2097152	73	11775
2026-01-20 02:58:35.74	35.12	4.18	-51.2	-61.5	4.7	9.10e-01	0	38	0	4194304	73	12105
2026-01-20 02:58:36.75	35.07	4.24	-51.1	-60.6	5.1	6.60e-01	0	37	0	6291456	73	11028
2026-01-20 02:58:37.75	35.01	4.31	-51.0	-60.2	5.4	5.68e-01	0	38	0	8388608	73	10478
2026-01-20 02:58:38.76	34.96	4.37	-51.1	-60.5	5.2	6.36e-01	0	38	0	10485760	73	10820
2026-01-20 02:58:39.77	34.91	4.44	-51.1	-60.7	5.1	5.98e-01	0	38	0	11534336	73	11154
2026-01-20 02:58:40.78	34.85	4.50	-51.1	-60.5	5.2	6.45e-01	0	38	0	13631488	73	10859
2026-01-20 02:58:41.79	34.80	4.57	-51.1	-60.9	5.0	5.55e-01	0	38	0	15728640	73	11393
2026-01-20 02:58:42.79	34.74	4.64	-51.2	-61.4	4.7	8.75e-01	0	38	0	17825792	73	12093
2026-01-20 02:58:43.80	34.69	4.70	-51.2	-61.9	4.5	9.65e-01	0	38	0	19922944	73	12682
2026-01-20 02:58:44.81	34.63	4.77	-51.2	-62.2	4.4	1.19e+00	163	38	0	20971520	73	13254
2026-01-20 02:58:45.81	34.58	4.83	-51.2	-62.2	4.4	1.13e+00	125	38	0	23068672	73	13219
2026-01-20 02:58:46.82	34.52	4.90	-51.3	-63.2	4.1	1.39e+00	0	38	0	23068672	73	14752
2026-01-20 02:58:47.83	34.47	4.97	-51.3	-63.6	3.9	1.44e+00	0	38	104	23068672	73	15579
2026-01-20 02:58:48.84	34.41	5.03	-51.4	-63.9	3.9	1.45e+00	0	38	104	23068672	73	16100
2026-01-20 02:58:49.85	34.35	5.10	-51.3	-60.6	5.3	1.22e+00	0	38	0	23068672	73	10913
2026-01-20 02:58:50.85	34.30	5.17	-51.4	-61.3	5.0	4.87e-01	0	38	0	25165824	73	11866
2026-01-20 02:58:51.86	34.24	5.23	-51.4	-65.3	3.8	1.48e+00	0	38	104	26214400	73	18895
2026-01-20 02:58:52.87	34.18	5.30	-50.7	-56.9	5.2	1.48e+00	0	38	104	26214400	73	7171
2026-01-20 02:58:53.88	34.13	5.37	-51.6	-65.7	3.8	5.55e-01	0	38	104	26214400	73	19731
2026-01-20 02:58:54.89	34.07	5.44	-50.8	-56.9	8.5	1.48e+00	0	38	104	26214400	73	7187
2026-01-20 02:58:55.90	34.01	5.50	-50.3	-55.3	10.4	7.55e-03	0	38	0	27262976	72	6294
2026-01-20 02:58:56.90	33.95	5.57	-50.0	-54.4	11.5	1.04e-03	0	38	0	29360128	71	6034
2026-01-20 02:58:57.91	33.89	5.64	-50.1	-54.7	11.2	7.45e-04	0	38	0	31457280	71	6235
2026-01-20 02:58:58.91	33.83	5.71	-50.1	-54.7	11.2	1.22e-03	0	38	0	33554432	71	6241
2026-01-20 02:58:59.92	33.77	5.78	-50.2	-54.9	11.0	1.90e-03	0	38	0	35651584	71	6387
2026-01-20 02:59:00.93	33.71	5.84	-50.3	-55.1	10.8	1.85e-03	0	38	0	36700160	71	6543
2026-01-20 02:59:01.94	33.65	5.91	-50.3	-55.2	10.7	2.13e-03	0	38	0	38797312	71	6602
2026-01-20 02:59:02.95	33.59	5.98	-50.0	-54.4	11.5	1.09e-03	0	38	0	40894464	71	6058
2026-01-20 02:59:03.95	33.53	6.05	-49.4	-53.0	13.1	9.99e-05	0	38	0	42991616	70	5410
2026-01-20 02:59:04.96	33.47	6.12	-49.8	-53.9	12.2	1.27e-04	0	38	0	45088768	70	6023
2026-01-20 02:59:05.97	33.41	6.19	-49.3	-52.7	13.4	7.47e-05	0	38	0	46137344	70	5264
2026-01-20 02:59:06.98	33.35	6.26	-49.5	-53.1	13.0	1.83e-05	0	38	0	48234496	70	5499
2026-01-20 02:59:07.99	33.29	6.33	-49.2	-52.7	13.4	4.34e-05	0	38	0	50331648	70	5243
2026-01-20 02:59:08.99	33.23	6.40	-49.2	-52.6	13.5	1.98e-05	0	38	0	52428800	70	5198
2026-01-20 02:59:10.00	33.16	6.47	-49.1	-52.3	13.9	6.80e-06	0	38	0	54525952	70	5002
2026-01-20 02:59:11.01	33.10	6.54	-48.8	-51.9	14.3	1.50e-06	0	38	0	55574528	69	5078
2026-01-20 02:59:12.02	33.04	6.61	-48.9	-52.0	14.2	7.00e-07	0	38	0	57671680	69	5119
2026-01-20 02:59:13.02	32.97	6.68	-48.7	-51.7	14.6	7.00e-07	0	38	0	59768832	69	4931
2026-01-20 02:59:14.03	32.91	6.75	-48.8	-51.8	14.4	0.00e+00	0	38	0	61865984	69	5035
2026-01-20 02:59:15.04	32.85	6.82	-48.8	-51.9	14.4	7.00e-07	0	38	0	63963136	69	5053
2026-01-20 02:59:16.05	32.78	6.89	-48.7	-51.6	14.6	0.00e+00	0	38	0	65011712	69	4901
2026-01-20 02:59:17.06	32.72	6.96	-48.3	-51.0	15.2	0.00e+00	0	38	0	67108864	68	4849
2026-01-20 02:59:18.06	32.65	7.03	-48.5	-51.3	15.0	0.00e+00	0	38	0	69206016	68	4992
2026-01-20 02:59:19.07	32.59	7.10	-48.5	-51.3	15.0	0.00e+00	0	38	0	71303168	68	5014
2026-01-20 02:59:20.08	32.52	7.17	-48.4	-51.0	15.3	0.00e+00	0	38	0	73400320	68	4866
2026-01-20 02:59:21.09	32.45	7.25	-48.4	-51.2	15.1	0.00e+00	0	38	0	74448896	68	4944
2026-01-20 02:59:22.09	32.39	7.32	-48.4	-51.1	15.2	0.00e+00	0	38	0	76546048	68	4883
2026-01-20 02:59:23.10	32.32	7.39	-48.5	-51.2	15.1	0.00e+00	0	38	0	78643200	68	4956
2026-01-20 02:59:24.11	32.25	7.46	-48.4	-51.1	15.2	0.00e+00	0	38	0	80740352	68	4871
2026-01-20 02:59:25.11	32.19	7.53	-48.3	-50.9	15.4	0.00e+00	0	38	0	82837504	68	4769
2026-01-20 02:59:26.12	32.12	7.60	-48.2	-50.8	15.5	0.00e+00	0	38	0	83886080	68	4721
2026-01-20 02:59:27.13	32.05	7.68	-48.2	-50.8	15.5	0.00e+00	0	38	0	85983232	68	4709
2026-01-20 02:59:28.14	31.98	7.75	-48.2	-50.7	15.6	0.00e+00	0	38	0	88080384	68	4700
2026-01-20 02:59:29.15	31.91	7.82	-48.1	-50.7	15.6	0.00e+00	0	38	0	90177536	68	4659
2026-01-20 02:59:30.16	31.84	7.90	-48.2	-50.8	15.6	0.00e+00	0	38	0	92274688	68	4707
2026-01-20 02:59:31.16	31.78	7.97	-47.9	-50.3	15.9	0.00e+00	0	38	0	93323264	67	4753
2026-01-20 02:59:32.17	31.70	8.04	-48.1	-50.7	15.6	0.00e+00	0	38	0	95420416	67	4947
2026-01-20 02:59:33.17	31.64	8.12	-48.1	-50.6	15.7	0.00e+00	0	38	0	97517568	67	4895
2026-01-20 02:59:34.18	31.56	8.19	-48.2	-50.9	15.4	0.00e+00	0	38	0	99614720	67	5045
2026-01-20 02:59:35.19	31.49	8.26	-48.1	-50.7	15.5	0.00e+00	0	38	0	101711872	67	4956
2026-01-20 02:59:36.20	31.42	8.34	-48.0	-50.5	15.8	0.00e+00	0	38	0	102760448	67	4833
2026-01-20 02:59:37.21	31.35	8.41	-48.2	-50.8	15.5	0.00e+00	0	38	0	104857600	67	5011
2026-01-20 02:59:38.21	31.28	8.49	-48.1	-50.7	15.6	0.00e+00	0	38	0	106954752	67	4934
2026-01-20 02:59:39.22	31.20	8.56	-48.1	-50.6	15.7	0.00e+00	0	38	0	109051904	67	4889
2026-01-20 02:59:40.23	31.13	8.64	-48.2	-50.8	15.4	0.00e+00	0	38	0	111149056	67	5036
2026-01-20 02:59:41.24	31.06	8.71	-48.0	-50.4	15.9	0.00e+00	0	38	0	112197632	67	4811
2026-01-20 02:59:42.24	30.98	8.78	-48.0	-50.5	15.7	0.00e+00	0	38	0	114294784	67	4862
2026-01-20 02:59:43.25	30.91	8.86	-48.2	-50.7	15.5	0.00e+00	0	38	0	116391936	67	4982
2026-01-20 02:59:44.25	30.84	8.93	-48.1	-50.6	15.7	0.00e+00	0	38	0	118489088	67	4915
2026-01-20 02:59:45.26	30.76	9.01	-48.0	-50.4	15.9	0.00e+00	0	38	0	120586240	67	4791
2026-01-20 02:59:46.27	30.69	9.09	-47.9	-50.3	15.9	0.00e+00	0	38	0	121634816	67	4742
2026-01-20 02:59:47.28	30.61	9.16	-48.1	-50.6	15.7	0.00e+00	0	38	0	123731968	67	4888
2026-01-20 02:59:48.29	30.53	9.24	-48.0	-50.5	15.8	0.00e+00	0	38	0	125829120	67	4815
2026-01-20 02:59:49.29	30.46	9.31	-47.8	-50.1	16.2	0.00e+00	0	38	0	127926272	67	4641
2026-01-20 02:59:50.30	30.38	9.39	-48.1	-50.6	15.7	0.00e+00	0	38	0	130023424	67	4887
2026-01-20 02:59:51.31	30.30	9.47	-48.0	-50.6	15.8	0.00e+00	0	38	0	131072000	67	4873
2026-01-20 02:59:52.32	30.22	9.55	-47.9	-50.4	15.9	0.00e+00	0	38	0	133169152	67	4790
2026-01-20 02:59:53.32	30.15	9.62	-47.9	-50.4	15.9	0.00e+00	0	39	0	135266304	67	4780
2026-01-20 02:59:54.33	30.07	9.70	-47.9	-50.2	16.0	0.00e+00	0	38	0	137363456	67	4695
2026-01-20 02:59:55.34	29.99	9.78	-47.7	-50.0	16.3	0.00e+00	0	38	0	139460608	67	4588
2026-01-20 02:59:56.35	29.91	9.85	-47.8	-50.2	16.1	0.00e+00	0	38	0	140509184	67	4681
2026-01-20 02:59:57.35	29.83	9.93	-47.7	-50.0	16.4	0.00e+00	0	38	0	142606336	67	4556
2026-01-20 02:59:58.36	29.75	10.01	-47.5	-49.7	16.7	0.00e+00	0	38	0	144703488	66	4655
2026-01-20 02:59:59.37	29.67	10.09	-47.7	-50.1	16.3	0.00e+00	0	38	0	146800640	66	4874
2026-01-20 03:00:00.38	29.58	10.17	-47.5	-49.7	16.7	0.00e+00	0	38	0	148897792	66	4697
2026-01-20 03:00:01.38	29.50	10.24	-47.5	-49.7	16.7	0.00e+00	0	38	0	149946368	66	4684
2026-01-20 03:00:02.39	29.42	10.32	-47.1	-49.2	17.2	0.00e+00	0	38	0	152043520	66	4393
2026-01-20 03:00:03.40	29.34	10.40	-47.4	-49.5	16.9	0.00e+00	0	38	0	154140672	66	4563
2026-01-20 03:00:04.41	29.25	10.48	-47.2	-49.2	17.2	0.00e+00	0	38	0	156237824	66	4435
2026-01-20 03:00:05.42	29.17	10.56	-47.4	-49.5	16.8	0.00e+00	0	38	0	158334976	66	4594
2026-01-20 03:00:06.43	29.08	10.64	-47.4	-49.5	16.9	0.00e+00	0	39	0	159383552	66	4584
2026-01-20 03:00:07.43	29.00	10.72	-47.5	-49.6	16.8	0.00e+00	0	38	0	161480704	66	4648
2026-01-20 03:00:08.44	28.91	10.80	-47.3	-49.3	17.1	0.00e+00	0	38	0	163577856	66	4493
2026-01-20 03:00:09.45	28.83	10.88	-47.4	-49.4	17.0	0.00e+00	0	38	0	165675008	66	4527
2026-01-20 03:00:10.46	28.74	10.96	-47.3	-49.3	17.1	0.00e+00	0	39	0	167772160	66	4474
2026-01-20 03:00:11.47	28.66	11.04	-47.2	-49.2	17.3	0.00e+00	0	38	0	169869312	66	4400
2026-01-20 03:00:12.47	28.57	11.12	-47.2	-49.2	17.3	0.00e+00	0	39	0	170917888	66	4401
2026-01-20 03:00:13.48	28.48	11.20	-47.2	-49.2	17.3	0.00e+00	0	39	0	173015040	66	4414
2026-01-20 03:00:14.49	28.39	11.28	-47.3	-49.3	17.2	0.00e+00	0	38	0	175112192	66	4459
2026-01-20 03:00:15.50	28.30	11.37	-47.4	-49.4	17.1	0.00e+00	0	38	0	177209344	66	4518
2026-01-20 03:00:16.51	28.21	11.45	-47.2	-49.1	17.4	0.00e+00	0	39	0	178257920	66	4374
2026-01-20 03:00:17.51	28.12	11.53	-47.3	-49.3	17.2	0.00e+00	0	38	0	180355072	66	4468
2026-01-20 03:00:18.52	28.03	11.61	-47.3	-49.3	17.2	0.00e+00	0	39	0	182452224	66	4468
2026-01-20 03:00:19.53	27.94	11.69	-47.3	-49.4	17.1	0.00e+00	0	38	0	184549376	66	4506
2026-01-20 03:00:20.54	27.85	11.78	-47.5	-49.6	17.0	0.00e+00	0	39	0	186646528	66	4599
2026-01-20 03:00:21.55	27.76	11.86	-47.4	-49.4	17.1	0.00e+00	0	38	0	187695104	66	4521
2026-01-20 03:00:22.55	27.67	11.94	-47.6	-49.7	16.8	0.00e+00	0	39	0	189792256	66	4703
2026-01-20 03:00:23.56	27.57	12.02	-47.5	-49.6	16.9	0.00e+00	0	39	0	191889408	66	4645
2026-01-20 03:00:24.57	27.48	12.11	-47.7	-49.8	16.7	0.00e+00	0	38	0	193986560	66	4756
2026-01-20 03:00:25.58	27.39	12.19	-47.7	-49.9	16.6	0.00e+00	0	38	0	196083712	66	4797
2026-01-20 03:00:26.59	27.29	12.27	-47.4	-49.5	17.1	0.00e+00	0	38	0	198180864	66	4551
2026-01-20 03:00:27.59	27.20	12.36	-47.6	-49.7	16.9	0.00e+00	0	38	0	199229440	66	4659
2026-01-20 03:00:28.60	27.10	12.44	-47.5	-49.6	16.9	0.00e+00	0	38	0	201326592	66	4632
2026-01-20 03:00:29.61	27.00	12.52	-47.4	-49.4	17.1	0.00e+00	0	39	0	203423744	66	4532
2026-01-20 03:00:30.62	26.91	12.61	-47.5	-49.6	17.0	0.00e+00	0	39	0	205520896	66	4619
2026-01-20 03:00:31.63	26.81	12.69	-47.4	-49.4	17.1	0.00e+00	0	39	0	206569472	66	4534
2026-01-20 03:00:32.64	26.71	12.78	-47.3	-49.2	17.4	0.00e+00	0	39	0	208666624	66	4433
2026-01-20 03:00:33.64	26.61	12.86	-47.3	-49.3	17.4	0.00e+00	0	38	0	210763776	66	4443
2026-01-20 03:00:34.65	26.51	12.95	-47.3	-49.2	17.4	0.00e+00	0	38	0	212860928	66	4426
2026-01-20 03:00:35.66	26.41	13.03	-47.4	-49.4	17.2	0.00e+00	0	38	0	214958080	66	4537
2026-01-20 03:00:36.67	26.31	13.12	-47.4	-49.4	17.1	0.00e+00	0	38	0	217055232	66	4535
2026-01-20 03:00:37.67	26.21	13.21	-47.4	-49.4	17.2	0.00e+00	0	39	0	218103808	66	4541
2026-01-20 03:00:38.68	26.11	13.29	-47.3	-49.3	17.3	0.00e+00	0	38	0	220200960	66	4474
2026-01-20 03:00:39.69	26.01	13.38	-47.3	-49.3	17.4	0.00e+00	0	38	0	222298112	66	4451
2026-01-20 03:00:40.70	25.90	13.46	-47.2	-49.1	17.5	0.00e+00	0	39	0	224395264	66	4365
2026-01-20 03:00:41.71	25.80	13.55	-47.2	-49.2	17.4	0.00e+00	0	39	0	226492416	66	4408
2026-01-20 03:00:42.72	25.70	13.64	-47.1	-49.0	17.7	0.00e+00	0	38	0	227540992	66	4294
2026-01-20 03:00:43.72	25.59	13.72	-47.1	-49.0	17.6	0.00e+00	0	38	0	229638144	66	4313
2026-01-20 03:00:44.73	25.49	13.81	-47.1	-49.0	17.5	0.00e+00	0	39	0	231735296	66	4329
2026-01-20 03:00:45.74	25.38	13.90	-47.2	-49.1	17.6	0.00e+00	0	39	0	233832448	66	4372
2026-01-20 03:00:46.75	25.27	13.99	-47.2	-49.2	17.4	0.00e+00	0	39	0	234881024	66	4419
2026-01-20 03:00:47.76	25.17	14.08	-47.2	-49.2	17.5	0.00e+00	0	39	0	236978176	66	4397
2026-01-20 03:00:48.76	25.06	14.16	-47.0	-48.9	17.7	0.00e+00	0	39	0	239075328	65	4517
2026-01-20 03:00:49.77	24.95	14.25	-47.2	-49.1	17.6	0.00e+00	0	39	0	241172480	65	4629
2026-01-20 03:00:50.78	24.84	14.34	-46.8	-48.6	18.0	0.00e+00	0	39	0	243269632	65	4363
2026-01-20 03:00:51.79	24.73	14.43	-46.8	-48.6	18.0	0.00e+00	0	39	0	245366784	65	4380
2026-01-20 03:00:52.80	24.62	14.52	-46.9	-48.8	17.9	0.00e+00	0	39	0	246415360	65	4445
2026-01-20 03:00:53.80	24.51	14.61	-46.8	-48.5	18.1	0.00e+00	0	39	0	248512512	65	4315
2026-01-20 03:00:54.81	24.40	14.70	-46.7	-48.4	18.2	0.00e+00	0	39	0	250609664	65	4278
2026-01-20 03:00:55.81	24.28	14.79	-46.7	-48.5	18.2	0.00e+00	0	39	0	252706816	65	4310
2026-01-20 03:00:56.82	24.17	14.88	-46.7	-48.4	18.3	0.00e+00	0	39	0	254803968	65	4250
2026-01-20 03:00:57.83	24.06	14.97	-46.5	-48.2	18.5	0.00e+00	0	38	0	255852544	64	4405
2026-01-20 03:00:58.84	23.94	15.06	-46.5	-48.1	18.5	0.00e+00	0	39	0	257949696	64	4385
2026-01-20 03:00:59.85	23.82	15.15	-46.7	-48.4	18.2	0.00e+00	0	39	0	260046848	64	4545
2026-01-20 03:01:00.85	23.71	15.24	-46.9	-48.6	18.1	0.00e+00	0	39	0	262144000	64	4625
2026-01-20 03:01:01.86	23.59	15.33	-46.7	-48.4	18.4	0.00e+00	0	39	0	264241152	64	4501
2026-01-20 03:01:02.87	23.47	15.42	-46.9	-48.7	18.0	0.00e+00	0	39	0	265289728	64	4672
2026-01-20 03:01:03.87	23.36	15.51	-46.8	-48.5	18.2	0.00e+00	0	38	0	267386880	64	4584
2026-01-20 03:01:04.88	23.24	15.60	-46.9	-48.7	18.1	0.00e+00	0	38	0	269484032	64	4652
2026-01-20 03:01:05.89	23.12	15.69	-47.0	-48.7	18.0	0.00e+00	0	39	0	271581184	64	4696
2026-01-20 03:01:06.90	22.99	15.79	-46.9	-48.6	18.1	0.00e+00	0	39	0	273678336	64	4647
2026-01-20 03:01:07.91	22.87	15.88	-47.0	-48.7	18.0	0.00e+00	0	39	0	274726912	64	4696
2026-01-20 03:01:08.92	22.75	15.97	-46.9	-48.6	18.0	0.00e+00	0	39	0	276824064	64	4635
2026-01-20 03:01:09.93	22.63	16.07	-46.9	-48.7	18.0	0.00e+00	0	39	0	278921216	64	4677
2026-01-20 03:01:10.93	22.50	16.16	-47.1	-48.9	17.8	0.00e+00	0	38	0	281018368	64	4804
2026-01-20 03:01:11.94	22.38	16.25	-47.1	-48.9	17.8	0.00e+00	0	38	0	283115520	64	4793
2026-01-20 03:01:12.95	22.25	16.34	-47.1	-49.0	17.8	0.00e+00	0	39	0	284164096	64	4821
2026-01-20 03:01:13.96	22.13	16.44	-47.2	-49.0	17.7	0.00e+00	0	39	0	286261248	64	4870
2026-01-20 03:01:14.97	22.00	16.53	-47.1	-49.0	17.7	0.00e+00	0	39	0	288358400	65	4580
2026-01-20 03:01:15.97	21.87	16.62	-47.0	-48.9	17.9	0.00e+00	0	39	0	290455552	65	4501
2026-01-20 03:01:16.98	21.74	16.72	-47.0	-48.9	17.9	0.00e+00	0	39	0	292552704	65	4500
2026-01-20 03:01:17.99	21.61	16.81	-46.9	-48.7	18.1	0.00e+00	0	39	0	293601280	65	4400
2026-01-20 03:01:18.99	21.48	16.91	-46.9	-48.7	18.1	0.00e+00	0	38	0	295698432	65	4425
2026-01-20 03:01:20.00	21.35	17.00	-46.7	-48.4	18.3	0.00e+00	0	39	0	297795584	65	4289
2026-01-20 03:01:21.01	21.22	17.10	-46.9	-48.6	18.1	0.00e+00	0	39	0	299892736	65	4371
2026-01-20 03:01:22.02	21.09	17.19	-46.9	-48.7	18.1	0.00e+00	0	39	0	301989888	65	4396
2026-01-20 03:01:23.03	20.95	17.29	-46.9	-48.6	18.1	0.00e+00	0	39	0	303038464	65	4379
2026-01-20 03:01:24.03	20.82	17.38	-47.1	-48.9	17.9	0.00e+00	0	39	0	305135616	65	4521
2026-01-20 03:01:25.04	20.68	17.48	-47.0	-48.8	18.0	0.00e+00	0	39	0	307232768	65	4465
2026-01-20 03:01:26.05	20.54	17.58	-47.0	-48.8	18.0	0.00e+00	0	39	0	309329920	65	4443
2026-01-20 03:01:27.06	20.41	17.67	-47.0	-48.8	18.0	0.00e+00	0	39	0	311427072	65	4448
2026-01-20 03:01:28.07	20.27	17.77	-46.8	-48.6	18.2	0.00e+00	0	39	0	313524224	65	4343
2026-01-20 03:01:29.07	20.13	17.87	-47.1	-48.9	17.9	0.00e+00	0	39	0	314572800	65	4521
2026-01-20 03:01:30.08	19.99	17.96	-47.2	-49.0	17.8	0.00e+00	0	39	0	316669952	65	4592
2026-01-20 03:01:31.09	19.85	18.06	-47.1	-49.0	17.9	0.00e+00	0	39	0	318767104	65	4556
2026-01-20 03:01:32.10	19.71	18.16	-47.3	-49.2	17.7	0.00e+00	0	39	0	320864256	65	4661
2026-01-20 03:01:33.11	19.56	18.25	-47.4	-49.3	17.5	0.00e+00	0	39	0	321912832	65	4744
2026-01-20 03:01:34.11	19.42	18.35	-47.4	-49.3	17.6	0.00e+00	0	39	0	324009984	65	4743
2026-01-20 03:01:35.12	19.27	18.45	-47.4	-49.3	17.6	0.00e+00	0	39	0	326107136	65	4715
2026-01-20 03:01:36.13	19.13	18.55	-47.5	-49.4	17.5	0.00e+00	0	39	0	328204288	65	4786
2026-01-20 03:01:37.14	18.98	18.65	-47.5	-49.4	17.4	0.00e+00	0	39	0	330301440	65	4800
2026-01-20 03:01:38.15	18.83	18.74	-47.5	-49.5	17.4	0.00e+00	0	39	0	331350016	65	4832
2026-01-20 03:01:39.15	18.69	18.84	-47.7	-49.7	17.2	0.00e+00	0	39	0	333447168	66	4676
2026-01-20 03:01:40.16	18.54	18.94	-47.5	-49.4	17.5	0.00e+00	0	39	0	335544320	66	4515
2026-01-20 03:01:41.17	18.38	19.04	-47.5	-49.5	17.4	0.00e+00	0	39	0	337641472	66	4586
2026-01-20 03:01:42.18	18.23	19.14	-47.4	-49.4	17.5	0.00e+00	0	39	0	339738624	66	4500
2026-01-20 03:01:43.19	18.08	19.24	-47.5	-49.4	17.5	0.00e+00	0	39	0	341835776	66	4544
2026-01-20 03:01:44.19	17.93	19.34	-47.7	-49.7	17.2	0.00e+00	0	39	0	342884352	66	4689
2026-01-20 03:01:45.20	17.77	19.44	-47.6	-49.6	17.3	0.00e+00	0	39	0	344981504	66	4611
2026-01-20 03:01:46.21	17.62	19.54	-47.7	-49.8	17.2	0.00e+00	0	39	0	347078656	66	4723
2026-01-20 03:01:47.22	17.46	19.64	-47.7	-49.6	17.3	0.00e+00	0	39	0	349175808	66	4644
2026-01-20 03:01:48.23	17.30	19.74	-47.5	-49.4	17.5	0.00e+00	0	39	0	350224384	66	4499
2026-01-20 03:01:49.24	17.14	19.84	-47.3	-49.1	17.8	0.00e+00	0	39	0	352321536	66	4369
2026-01-20 03:01:50.24	16.98	19.94	-47.1	-48.8	18.1	0.00e+00	0	39	0	354418688	66	4236
2026-01-20 03:01:51.25	16.82	20.04	-47.1	-48.8	18.1	0.00e+00	0	39	0	356515840	66	4223
2026-01-20 03:01:52.25	16.66	20.14	-47.1	-48.9	18.0	0.00e+00	0	39	0	358612992	66	4256
2026-01-20 03:01:53.26	16.50	20.24	-47.4	-49.2	17.7	0.00e+00	0	39	0	360710144	66	4434
2026-01-20 03:01:54.27	16.33	20.34	-47.6	-49.6	17.2	0.00e+00	0	39	0	361758720	66	4647
2026-01-20 03:01:55.28	16.16	20.45	-47.4	-49.2	17.7	0.00e+00	0	39	0	363855872	66	4431
2026-01-20 03:01:56.29	16.00	20.55	-47.4	-49.3	17.7	0.00e+00	0	39	0	365953024	66	4464
2026-01-20 03:01:57.30	15.83	20.65	-47.1	-49.0	17.9	0.00e+00	0	39	0	368050176	66	4306
2026-01-20 03:01:58.30	15.66	20.75	-46.9	-48.7	18.2	0.00e+00	0	39	0	370147328	65	4401
2026-01-20 03:01:59.31	15.49	20.85	-47.0	-48.8	18.2	0.00e+00	0	39	0	371195904	65	4452
2026-01-20 03:02:00.32	15.32	20.95	-47.0	-48.8	18.2	0.00e+00	0	39	0	373293056	65	4449
2026-01-20 03:02:01.33	15.15	21.06	-47.1	-48.9	18.0	0.00e+00	0	39	0	375390208	65	4506
2026-01-20 03:02:02.33	14.98	21.16	-47.2	-49.1	17.8	0.00e+00	0	39	0	377487360	65	4626
2026-01-20 03:02:03.34	14.80	21.26	-47.1	-49.0	18.0	0.00e+00	0	38	0	378535936	65	4549
2026-01-20 03:02:04.35	14.62	21.36	-47.3	-49.1	17.8	0.00e+00	0	39	0	380633088	65	4646
2026-01-20 03:02:05.36	14.45	21.47	-47.5	-49.4	17.5	0.00e+00	0	39	0	382730240	65	4811
2026-01-20 03:02:06.37	14.27	21.57	-47.5	-49.4	17.6	0.00e+00	0	39	0	384827392	65	4786
2026-01-20 03:02:07.37	14.09	21.67	-47.2	-49.1	17.9	0.00e+00	0	39	0	386924544	65	4601
2026-01-20 03:02:08.38	13.91	21.78	-47.3	-49.1	17.8	0.00e+00	0	39	0	389021696	65	4650
2026-01-20 03:02:09.39	13.73	21.88	-47.1	-48.9	18.0	0.00e+00	0	39	0	390070272	65	4532
2026-01-20 03:02:10.40	13.54	21.98	-47.4	-49.3	17.7	0.00e+00	0	39	0	392167424	65	4708
2026-01-20 03:02:11.41	13.36	22.09	-47.4	-49.3	17.7	0.00e+00	0	39	0	394264576	65	4716
2026-01-20 03:02:12.41	13.17	22.19	-47.4	-49.3	17.6	0.00e+00	0	39	0	396361728	65	4737
2026-01-20 03:02:13.42	12.99	22.29	-47.6	-49.6	17.4	0.00e+00	0	39	0	398458880	66	4613
2026-01-20 03:02:14.43	12.80	22.40	-47.6	-49.6	17.4	0.00e+00	0	39	0	399507456	66	4615
2026-01-20 03:02:15.44	12.61	22.50	-47.7	-49.7	17.3	0.00e+00	0	39	0	401604608	66	4666
2026-01-20 03:02:16.45	12.42	22.61	-47.7	-49.7	17.2	0.00e+00	0	39	0	403701760	66	4665
2026-01-20 03:02:17.45	12.23	22.71	-47.8	-49.8	17.1	0.00e+00	0	39	0	405798912	66	4747
2026-01-20 03:02:18.46	12.03	22.81	-47.9	-50.1	16.9	0.00e+00	0	39	0	407896064	66	4878
2026-01-20 03:02:19.47	11.84	22.92	-47.8	-49.9	17.0	0.00e+00	0	39	0	408944640	66	4789
2026-01-20 03:02:20.48	11.64	23.02	-48.1	-50.3	16.6	0.00e+00	0	39	0	411041792	66	5029
2026-01-20 03:02:21.49	11.44	23.13	-48.1	-50.3	16.7	0.00e+00	0	39	0	413138944	67	4706
2026-01-20 03:02:22.50	11.24	23.23	-48.0	-50.2	16.7	0.00e+00	0	39	0	415236096	67	4687
2026-01-20 03:02:23.50	11.05	23.33	-47.8	-49.9	17.0	0.00e+00	0	39	0	417333248	67	4516
2026-01-20 03:02:24.51	10.84	23.44	-47.6	-49.6	17.3	0.00e+00	0	39	0	418381824	67	4372
2026-01-20 03:02:25.52	10.64	23.54	-47.5	-49.4	17.6	0.00e+00	0	39	0	420478976	66	4531
2026-01-20 03:02:26.53	10.44	23.65	-47.6	-49.6	17.3	0.00e+00	0	39	0	422576128	66	4637
2026-01-20 03:02:27.54	10.23	23.75	-47.4	-49.3	17.6	0.00e+00	0	39	0	424673280	66	4487
2026-01-20 03:02:28.54	10.03	23.86	-47.2	-49.0	18.0	0.00e+00	0	39	0	426770432	66	4304
2026-01-20 03:02:29.55	9.82	23.96	-47.2	-49.1	17.9	0.00e+00	0	39	0	427819008	66	4351
2026-01-20 03:02:30.56	9.61	24.07	-47.3	-49.2	17.8	0.00e+00	0	39	0	429916160	66	4395
2026-01-20 03:02:31.57	9.39	24.17	-47.5	-49.4	17.7	0.00e+00	0	39	0	432013312	66	4519
2026-01-20 03:02:32.58	9.18	24.27	-47.6	-49.5	17.6	0.00e+00	0	39	0	434110464	66	4557
2026-01-20 03:02:33.58	8.97	24.38	-47.2	-49.0	18.0	0.00e+00	0	39	0	436207616	66	4332
2026-01-20 03:02:34.59	8.75	24.48	-47.1	-48.9	18.1	0.00e+00	0	39	0	437256192	66	4269
2026-01-20 03:02:35.59	8.54	24.59	-47.3	-49.0	18.0	0.00e+00	0	39	0	439353344	66	4339
2026-01-20 03:02:36.60	8.32	24.69	-47.4	-49.2	17.8	0.00e+00	0	39	0	441450496	66	4423
2026-01-20 03:02:37.61	8.10	24.80	-47.4	-49.2	17.8	0.00e+00	0	39	0	443547648	66	4420
2026-01-20 03:02:38.62	7.88	24.90	-47.5	-49.4	17.6	0.00e+00	0	39	0	445644800	66	4535
2026-01-20 03:02:39.63	7.65	25.00	-47.7	-49.6	17.5	0.00e+00	0	39	0	446693376	66	4632
2026-01-20 03:02:40.63	7.43	25.11	-47.3	-49.1	17.9	0.00e+00	0	39	0	448790528	66	4371
2026-01-20 03:02:41.64	7.20	25.21	-47.4	-49.3	17.8	0.00e+00	0	39	0	450887680	66	4452
2026-01-20 03:02:42.65	6.98	25.32	-47.4	-49.2	17.8	0.00e+00	0	39	0	452984832	66	4405
2026-01-20 03:02:43.65	6.75	25.42	-47.4	-49.3	17.7	0.00e+00	0	39	0	455081984	66	4469
2026-01-20 03:02:44.66	6.52	25.52	-47.5	-49.4	17.7	0.00e+00	0	39	0	456130560	66	4497
2026-01-20 03:02:45.67	6.29	25.63	-47.5	-49.4	17.7	0.00e+00	0	39	0	458227712	66	4505
2026-01-20 03:02:46.68	6.05	25.73	-47.7	-49.6	17.4	0.00e+00	0	39	0	460324864	66	4645
2026-01-20 03:02:47.69	5.82	25.83	-47.3	-49.2	17.9	0.00e+00	0	39	0	462422016	66	4395
2026-01-20 03:02:48.69	5.58	25.94	-47.2	-49.0	18.0	0.00e+00	0	39	0	464519168	66	4307
2026-01-20 03:02:49.70	5.34	26.04	-47.2	-49.1	18.0	0.00e+00	0	39	0	465567744	66	4342
2026-01-20 03:02:50.71	5.10	26.14	-47.1	-48.9	18.2	0.00e+00	0	39	0	467664896	65	4495
2026-01-20 03:02:51.72	4.86	26.25	-47.2	-49.0	18.1	0.00e+00	0	39	0	469762048	65	4574
2026-01-20 03:02:52.73	4.62	26.35	-47.3	-49.1	18.0	0.00e+00	0	39	0	471859200	65	4601
2026-01-20 03:02:53.74	4.37	26.45	-47.7	-49.7	17.4	0.00e+00	0	39	0	473956352	66	4686
2026-01-20 03:02:54.74	4.13	26.55	-47.9	-49.9	17.2	0.00e+00	0	39	0	475004928	66	4805
2026-01-20 03:02:55.75	3.88	26.65	-47.8	-49.7	17.4	0.00e+00	0	39	0	477102080	66	4702
2026-01-20 03:02:56.76	3.63	26.76	-47.8	-49.8	17.3	0.00e+00	0	39	0	479199232	66	4753
2026-01-20 03:02:57.77	3.38	26.86	-47.7	-49.6	17.4	0.00e+00	0	39	0	481296384	66	4648
2026-01-20 03:02:58.77	3.13	26.96	-47.6	-49.6	17.5	0.00e+00	0	39	0	483393536	66	4602
2026-01-20 03:02:59.78	2.87	27.06	-47.2	-48.9	18.1	0.00e+00	0	39	0	484442112	66	4286
2026-01-20 03:03:00.79	2.62	27.16	-47.2	-48.9	18.2	0.00e+00	0	39	0	486539264	66	4264
2026-01-20 03:03:01.80	2.36	27.26	-46.7	-48.3	18.7	0.00e+00	0	39	0	488636416	65	4232
2026-01-20 03:03:02.81	2.10	27.36	-46.4	-48.0	19.0	0.00e+00	0	39	0	490733568	64	4306
2026-01-20 03:03:03.81	1.84	27.46	-46.5	-48.0	19.0	0.00e+00	0	39	0	492830720	64	4318
2026-01-20 03:03:04.82	1.58	27.56	-46.3	-47.8	19.2	0.00e+00	0	39	0	493879296	64	4212
2026-01-20 03:03:05.83	1.31	27.66	-46.5	-48.1	18.9	0.00e+00	0	39	0	495976448	64	4372
2026-01-20 03:03:06.84	1.05	27.76	-46.4	-48.0	18.9	0.00e+00	0	39	0	498073600	64	4324
2026-01-20 03:03:07.85	0.78	27.86	-46.9	-48.6	18.4	0.00e+00	0	39	0	500170752	64	4632
2026-01-20 03:03:08.85	0.51	27.96	-47.1	-48.9	18.1	0.00e+00	0	39	0	502267904	64	4797
2026-01-20 03:03:09.86	0.24	28.06	-47.3	-49.2	17.9	0.00e+00	0	39	0	504365056	65	4677
2026-01-20 03:03:10.87	359.97	28.15	-47.2	-49.1	18.0	0.00e+00	0	39	0	505413632	65	4607
2026-01-20 03:03:11.88	359.70	28.25	-46.9	-48.6	18.4	0.00e+00	0	39	0	507510784	65	4379
2026-01-20 03:03:12.89	359.42	28.35	-47.2	-49.0	18.1	0.00e+00	0	39	0	509607936	65	4571
2026-01-20 03:03:13.89	359.14	28.44	-47.5	-49.4	17.7	0.00e+00	0	39	0	511705088	65	4799
2026-01-20 03:03:14.90	358.86	28.54	-48.3	-50.5	16.6	0.00e+00	0	39	0	512753664	67	4863
2026-01-20 03:03:15.91	358.58	28.64	-48.8	-51.4	15.9	0.00e+00	0	39	0	514850816	68	5068
2026-01-20 03:03:16.91	358.30	28.73	-49.3	-52.1	15.2	0.00e+00	0	39	0	516947968	69	5218
2026-01-20 03:03:17.92	358.02	28.82	-49.2	-51.9	15.3	0.00e+00	0	39	0	519045120	69	5070
2026-01-20 03:03:18.93	357.73	28.92	-48.8	-51.3	15.9	0.00e+00	0	39	0	521142272	69	4744
2026-01-20 03:03:19.94	357.44	29.01	-48.9	-51.5	15.7	0.00e+00	0	39	0	522190848	69	4820
2026-01-20 03:03:20.95	357.15	29.11	-48.4	-50.7	16.5	0.00e+00	0	39	0	524288000	68	4670
2026-01-20 03:03:21.95	356.86	29.20	-48.4	-50.7	16.5	0.00e+00	0	39	0	526385152	68	4686
2026-01-20 03:03:22.96	356.57	29.29	-48.3	-50.5	16.7	0.00e+00	0	39	0	528482304	68	4570
2026-01-20 03:03:23.97	356.28	29.38	-48.1	-50.3	16.9	0.00e+00	0	39	0	530579456	68	4443
2026-01-20 03:03:24.97	355.98	29.47	-47.7	-49.7	17.3	0.00e+00	0	39	0	532676608	67	4428
2026-01-20 03:03:25.98	355.68	29.56	-48.0	-50.1	17.0	0.00e+00	0	39	0	533725184	67	4605
2026-01-20 03:03:26.99	355.38	29.65	-48.2	-50.5	16.6	0.00e+00	0	39	0	535822336	67	4819
2026-01-20 03:03:28.00	355.08	29.74	-48.7	-51.2	15.9	0.00e+00	0	39	0	537919488	67	5222
2026-01-20 03:03:29.01	354.78	29.83	-49.0	-51.6	15.6	0.00e+00	0	39	0	540016640	69	4921
2026-01-20 03:03:30.01	354.48	29.92	-49.2	-51.9	15.3	0.00e+00	0	39	0	541065216	69	5063
2026-01-20 03:03:31.02	354.17	30.01	-49.2	-51.9	15.3	0.00e+00	0	39	0	543162368	69	5055
2026-01-20 03:03:32.03	353.86	30.09	-49.1	-51.7	15.5	0.00e+00	0	39	0	545259520	69	4965
2026-01-20 03:03:33.04	353.55	30.18	-49.4	-52.2	15.0	7.00e-07	0	39	0	547356672	69	5277
2026-01-20 03:03:34.05	353.24	30.27	-49.8	-53.0	14.2	0.00e+00	0	39	0	549453824	70	5463
2026-01-20 03:03:35.06	352.93	30.35	-50.0	-53.4	13.8	0.00e+00	0	39	0	550502400	70	5717
2026-01-20 03:03:36.06	352.61	30.43	-50.4	-54.0	13.1	9.84e-05	0	39	0	552599552	71	5786
2026-01-20 03:03:37.07	352.30	30.52	-50.3	-54.0	13.3	1.83e-05	0	39	0	554696704	71	5738
2026-01-20 03:03:38.08	351.98	30.60	-50.0	-53.3	14.0	3.80e-06	0	39	0	556793856	71	5326
2026-01-20 03:03:39.09	351.66	30.68	-49.7	-52.7	14.5	3.00e-06	0	39	0	558891008	71	4961
2026-01-20 03:03:40.09	351.34	30.76	-49.6	-52.6	14.7	0.00e+00	0	39	0	560988160	71	4898
2026-01-20 03:03:41.10	351.02	30.84	-49.1	-51.8	15.4	0.00e+00	0	39	0	562036736	70	4742
2026-01-20 03:03:42.11	350.69	30.92	-49.1	-51.7	15.5	0.00e+00	0	39	0	564133888	70	4693
2026-01-20 03:03:43.12	350.37	31.00	-49.2	-51.9	15.4	0.00e+00	0	39	0	566231040	70	4789
2026-01-20 03:03:44.13	350.04	31.08	-49.3	-52.1	15.2	0.00e+00	0	39	0	568328192	70	4910
2026-01-20 03:03:45.13	349.71	31.15	-49.1	-51.8	15.4	0.00e+00	0	39	0	569376768	70	4742
2026-01-20 03:03:46.14	349.38	31.23	-48.8	-51.3	15.9	0.00e+00	0	39	0	571473920	69	4721
2026-01-20 03:03:47.15	349.05	31.30	-48.8	-51.3	15.9	0.00e+00	0	39	0	573571072	69	4706
2026-01-20 03:03:48.16	348.71	31.38	-48.7	-51.2	16.1	0.00e+00	0	39	0	575668224	69	4671
2026-01-20 03:03:49.17	348.38	31.45	-49.0	-51.6	15.6	0.00e+00	0	39	0	577765376	69	4905
2026-01-20 03:03:50.17	348.04	31.52	-49.2	-52.1	15.1	0.00e+00	0	39	0	579862528	69	5176
2026-01-20 03:03:51.18	347.71	31.60	-49.2	-52.0	15.2	0.00e+00	0	39	0	580911104	69	5156
2026-01-20 03:03:52.19	347.36	31.67	-48.9	-51.5	15.6	0.00e+00	0	39	0	583008256	69	4866
2026-01-20 03:03:53.20	347.02	31.74	-48.7	-51.2	16.0	0.00e+00	0	39	0	585105408	69	4688
2026-01-20 03:03:54.21	346.68	31.80	-48.5	-51.0	16.2	0.00e+00	0	39	0	587202560	68	4827
2026-01-20 03:03:55.22	346.33	31.87	-48.6	-51.1	16.1	0.00e+00	0	39	0	589299712	68	4872
2026-01-20 03:03:56.22	345.99	31.94	-49.0	-51.7	15.5	0.00e+00	0	39	0	590348288	68	5278
2026-01-20 03:03:57.23	345.64	32.00	-49.3	-52.3	15.0	0.00e+00	0	39	0	592445440	69	5296
2026-01-20 03:03:58.24	345.30	32.07	-49.1	-51.8	15.5	0.00e+00	0	39	0	594542592	69	5016
2026-01-20 03:03:59.25	344.94	32.13	-48.7	-51.2	16.1	0.00e+00	0	39	0	596639744	69	4681
2026-01-20 03:04:00.25	344.60	32.19	-48.8	-51.2	16.0	0.00e+00	0	39	0	597688320	68	4961
2026-01-20 03:04:01.26	344.24	32.25	-48.7	-51.0	16.3	0.00e+00	0	39	0	599785472	68	4869
2026-01-20 03:04:02.27	343.89	32.31	-48.7	-51.0	16.2	0.00e+00	0	39	0	601882624	68	4850
2026-01-20 03:04:03.28	343.53	32.37	-48.8	-51.2	16.1	0.00e+00	0	39	0	603979776	68	4960
2026-01-20 03:04:04.29	343.18	32.43	-48.3	-50.4	16.8	0.00e+00	0	39	0	606076928	68	4541
2026-01-20 03:04:05.29	342.82	32.48	-47.8	-49.8	17.4	0.00e+00	0	39	0	608174080	67	4444
2026-01-20 03:04:06.30	342.46	32.54	-47.6	-49.6	17.6	0.00e+00	0	39	0	609222656	67	4349
2026-01-20 03:04:07.31	342.10	32.59	-47.7	-49.7	17.5	0.00e+00	0	39	0	611319808	67	4404
2026-01-20 03:04:08.32	341.74	32.65	-47.8	-49.9	17.2	0.00e+00	0	39	0	613416960	67	4532
2026-01-20 03:04:09.33	341.38	32.70	-47.7	-49.7	17.5	0.00e+00	0	39	0	615514112	67	4395
2026-01-20 03:04:10.33	341.01	32.75	-47.6	-49.6	17.5	0.00e+00	0	39	0	617611264	67	4379
2026-01-20 03:04:11.34	340.65	32.80	-47.5	-49.4	17.7	0.00e+00	0	39	0	618659840	66	4537
2026-01-20 03:04:12.35	340.28	32.85	-47.6	-49.5	17.6	0.00e+00	0	39	0	620756992	66	4562
2026-01-20 03:04:13.36	339.92	32.89	-48.2	-50.4	16.8	0.00e+00	0	39	0	622854144	66	5085
2026-01-20 03:04:14.37	339.55	32.94	-48.5	-50.9	16.3	0.00e+00	0	39	0	624951296	67	5093
2026-01-20 03:04:15.37	339.18	32.98	-49.2	-51.9	15.4	0.00e+00	0	39	0	627048448	68	5379
2026-01-20 03:04:16.38	338.81	33.03	-48.8	-51.3	16.0	0.00e+00	0	39	0	628097024	68	5034
2026-01-20 03:04:17.39	338.44	33.07	-48.4	-50.6	16.7	0.00e+00	0	39	0	630194176	68	4626
2026-01-20 03:04:18.40	338.07	33.11	-47.7	-49.7	17.5	0.00e+00	0	39	0	632291328	67	4396
2026-01-20 03:04:19.41	337.69	33.15	-46.9	-48.5	18.6	0.00e+00	0	39	0	634388480	65	4331
2026-01-20 03:04:20.41	337.32	33.18	-46.6	-48.2	18.9	0.00e+00	0	39	0	636485632	65	4171
2026-01-20 03:04:21.42	336.95	33.22	-46.9	-48.6	18.6	0.00e+00	0	39	0	637534208	65	4366
2026-01-20 03:04:22.43	336.57	33.26	-47.0	-48.8	18.4	0.00e+00	0	39	0	639631360	65	4458
2026-01-20 03:04:23.44	336.19	33.29	-46.7	-48.4	18.8	0.00e+00	0	39	0	641728512	65	4251
2026-01-20 03:04:24.45	335.81	33.32	-46.4	-47.9	19.1	0.00e+00	0	39	0	643825664	64	4269
2026-01-20 03:04:25.45	335.44	33.35	-46.4	-47.9	19.1	0.00e+00	0	39	0	645922816	64	4285
2026-01-20 03:04:26.46	335.06	33.38	-47.0	-48.8	18.4	0.00e+00	0	39	0	648019968	64	4735
2026-01-20 03:04:27.47	334.68	33.41	-48.0	-50.1	17.1	0.00e+00	0	39	0	649068544	66	4921
2026-01-20 03:04:28.48	334.30	33.44	-48.4	-50.8	16.4	0.00e+00	0	39	0	651165696	67	5004
2026-01-20 03:04:29.49	333.92	33.46	-48.1	-50.2	17.0	0.00e+00	0	39	0	653262848	67	4686
2026-01-20 03:04:30.49	333.54	33.48	-48.0	-50.1	17.1	0.00e+00	0	39	0	655360000	67	4613
2026-01-20 03:04:31.50	333.16	33.51	-47.8	-49.7	17.5	0.00e+00	0	39	0	656408576	67	4434
2026-01-20 03:04:32.51	332.78	33.53	-48.0	-50.1	17.1	0.00e+00	0	39	0	658505728	67	4639
2026-01-20 03:04:33.52	332.39	33.55	-48.1	-50.1	17.2	0.00e+00	0	39	0	660602880	67	4642
2026-01-20 03:04:34.52	332.01	33.57	-47.9	-49.9	17.4	0.00e+00	0	39	0	662700032	67	4537
2026-01-20 03:04:35.53	331.63	33.58	-48.0	-50.0	17.3	0.00e+00	0	39	0	664797184	67	4583
2026-01-20 03:04:36.54	331.24	33.60	-48.0	-50.1	17.2	0.00e+00	0	39	0	665845760	67	4602
2026-01-20 03:04:37.55	330.86	33.61	-47.7	-49.6	17.6	0.00e+00	0	39	0	667942912	67	4357
2026-01-20 03:04:38.56	330.47	33.62	-47.6	-49.4	17.9	0.00e+00	0	39	0	670040064	67	4274
2026-01-20 03:04:39.57	330.09	33.63	-47.0	-48.7	18.5	0.00e+00	0	39	0	672137216	66	4166
2026-01-20 03:04:40.57	329.71	33.64	-47.0	-48.6	18.5	0.00e+00	0	39	0	674234368	65	4385
2026-01-20 03:04:41.58	329.32	33.65	-47.4	-49.2	18.1	0.00e+00	0	39	0	676331520	65	4701
2026-01-20 03:04:42.59	328.94	33.66	-47.7	-49.5	17.8	0.00e+00	0	39	0	677380096	65	4870
2026-01-20 03:04:43.60	328.55	33.66	-48.4	-50.6	16.7	0.00e+00	0	39	0	679477248	67	4916
2026-01-20 03:04:44.60	328.17	33.67	-49.0	-51.5	15.9	0.00e+00	0	39	0	681574400	68	5132
2026-01-20 03:04:45.61	327.78	33.67	-49.5	-52.4	15.1	0.00e+00	0	39	0	683671552	69	5343
2026-01-20 03:04:46.62	327.39	33.67	-49.5	-52.4	15.1	0.00e+00	0	39	0	684720128	69	5343
2026-01-20 03:04:47.63	327.01	33.67	-49.4	-52.2	15.0	0.00e+00	0	39	0	686817280	69	5226
2026-01-20 03:04:48.63	326.63	33.66	-48.6	-50.8	16.5	0.00e+00	0	39	0	688914432	69	4480
2026-01-20 03:04:49.64	326.24	33.66	-48.6	-50.8	16.5	0.00e+00	0	39	0	691011584	69	4492
2026-01-20 03:04:50.65	325.85	33.65	-48.9	-51.3	16.1	0.00e+00	0	39	0	693108736	69	4749
2026-01-20 03:04:51.66	325.47	33.65	-49.0	-51.7	15.7	0.00e+00	0	39	0	694157312	69	4930
2026-01-20 03:04:52.67	325.08	33.64	-48.9	-51.4	16.0	0.00e+00	0	39	0	696254464	69	4765
2026-01-20 03:04:53.67	324.70	33.63	-48.4	-50.5	16.8	0.00e+00	0	39	0	698351616	68	4593
2026-01-20 03:04:54.68	324.31	33.62	-47.6	-49.4	17.7	0.00e+00	0	39	0	700448768	67	4286
2026-01-20 03:04:55.69	323.93	33.61	-47.5	-49.3	17.8	0.00e+00	0	39	0	702545920	66	4478
2026-01-20 03:04:56.70	323.54	33.59	-47.4	-49.3	17.9	0.00e+00	0	39	0	704643072	66	4466
2026-01-20 03:04:57.71	323.16	33.58	-47.7	-49.7	17.5	0.00e+00	0	39	0	705691648	66	4690
2026-01-20 03:04:58.72	322.78	33.56	-48.2	-50.4	16.8	0.00e+00	0	39	0	707788800	67	4798
2026-01-20 03:04:59.73	322.39	33.54	-48.6	-50.9	16.3	0.00e+00	0	39	0	709885952	67	5099
2026-01-20 03:05:00.73	322.01	33.52	-48.7	-51.0	16.3	0.00e+00	0	39	0	711983104	68	4867
2026-01-20 03:05:01.74	321.63	33.50	-48.3	-50.5	16.8	0.00e+00	0	39	0	713031680	68	4591
2026-01-20 03:05:02.75	321.25	33.48	-47.7	-49.7	17.6	0.00e+00	0	39	0	715128832	67	4398
2026-01-20 03:05:03.76	320.87	33.45	-47.8	-49.7	17.5	0.00e+00	0	39	0	717225984	66	4692
2026-01-20 03:05:04.77	320.49	33.43	-47.8	-49.7	17.5	0.00e+00	0	39	0	719323136	66	4698
2026-01-20 03:05:05.77	320.11	33.40	-48.3	-50.5	16.7	0.00e+00	0	39	0	721420288	67	4844
2026-01-20 03:05:06.78	319.73	33.37	-48.6	-51.0	16.3	0.00e+00	0	39	0	723517440	67	5111
2026-01-20 03:05:07.79	319.35	33.34	-49.0	-51.5	15.8	0.00e+00	0	39	0	724566016	68	5153
2026-01-20 03:05:08.80	318.97	33.31	-49.1	-51.8	15.5	0.00e+00	0	39	0	726663168	69	5026
2026-01-20 03:05:09.81	318.59	33.28	-49.0	-51.7	15.7	0.00e+00	0	39	0	728760320	69	4930
2026-01-20 03:05:10.82	318.22	33.24	-48.7	-51.2	16.1	0.00e+00	0	39	0	730857472	69	4675
2026-01-20 03:05:11.82	317.85	33.21	-48.6	-51.0	16.3	0.00e+00	0	39	0	732954624	69	4563
2026-01-20 03:05:12.83	317.47	33.17	-48.3	-50.5	16.9	0.00e+00	0	39	0	734003200	68	4564
2026-01-20 03:05:13.84	317.10	33.13	-48.2	-50.4	16.9	0.00e+00	0	39	0	736100352	68	4525
2026-01-20 03:05:14.85	316.72	33.09	-48.3	-50.6	16.8	0.00e+00	0	39	0	738197504	67	4878
2026-01-20 03:05:15.85	316.35	33.05	-48.4	-50.6	16.6	0.00e+00	0	39	0	740294656	67	4903
2026-01-20 03:05:16.86	315.98	33.01	-48.4	-50.7	16.4	0.00e+00	0	39	0	742391808	67	4927
2026-01-20 03:05:17.87	315.61	32.97	-48.5	-50.8	16.4	0.00e+00	0	39	0	743440384	67	5011
2026-01-20 03:05:18.88	315.24	32.92	-48.6	-51.0	16.3	0.00e+00	0	39	0	745537536	68	4829
2026-01-20 03:05:19.89	314.87	32.87	-49.0	-51.6	15.6	0.00e+00	0	39	0	747634688	69	4895
2026-01-20 03:05:20.90	314.51	32.83	-48.5	-50.8	16.5	0.00e+00	0	39	0	749731840	68	4722
2026-01-20 03:05:21.90	314.14	32.78	-48.4	-50.7	16.6	0.00e+00	0	39	0	751828992	68	4655
2026-01-20 03:05:22.91	313.78	32.73	-48.4	-50.7	16.7	0.00e+00	0	39	0	752877568	68	4660
2026-01-20 03:05:23.92	313.41	32.68	-48.5	-50.8	16.6	0.00e+00	0	39	0	754974720	68	4720
2026-01-20 03:05:24.93	313.05	32.63	-48.5	-50.8	16.5	0.00e+00	0	39	0	757071872	68	4727
2026-01-20 03:05:25.94	312.69	32.57	-48.4	-50.8	16.6	0.00e+00	0	39	0	759169024	68	4706
2026-01-20 03:05:26.94	312.33	32.52	-48.4	-50.7	16.6	0.00e+00	0	39	0	761266176	68	4697
2026-01-20 03:05:27.95	311.97	32.46	-48.3	-50.5	16.7	0.00e+00	0	39	0	762314752	67	4860
2026-01-20 03:05:28.96	311.61	32.40	-48.0	-50.2	17.1	0.00e+00	0	39	0	764411904	67	4675
2026-01-20 03:05:29.97	311.26	32.35	-48.1	-50.3	16.9	0.00e+00	0	39	0	766509056	67	4737
2026-01-20 03:05:30.97	310.91	32.29	-48.1	-50.4	16.9	0.00e+00	0	39	0	768606208	67	4769
2026-01-20 03:05:31.98	310.55	32.23	-47.6	-49.6	17.5	0.00e+00	0	39	0	770703360	67	4376
2026-01-20 03:05:32.99	310.20	32.17	-47.1	-48.9	18.2	0.00e+00	0	39	0	771751936	66	4252
2026-01-20 03:05:34.00	309.85	32.10	-46.7	-48.4	18.7	0.00e+00	0	39	0	773849088	65	4249
2026-01-20 03:05:35.01	309.50	32.04	-46.9	-48.6	18.6	0.00e+00	0	39	0	775946240	65	4343
2026-01-20 03:05:36.01	309.15	31.98	-47.4	-49.3	17.9	0.00e+00	0	39	0	778043392	65	4737
2026-01-20 03:05:37.02	308.80	31.91	-48.1	-50.3	17.0	0.00e+00	0	39	0	780140544	66	5027
2026-01-20 03:05:38.03	308.46	31.84	-48.5	-50.8	16.5	0.00e+00	0	39	0	781189120	67	4996
2026-01-20 03:05:39.04	308.11	31.77	-48.5	-50.8	16.6	0.00e+00	0	39	0	783286272	68	4736
2026-01-20 03:05:40.04	307.77	31.71	-48.5	-50.8	16.6	0.00e+00	0	39	0	785383424	68	4722
2026-01-20 03:05:41.05	307.43	31.64	-47.8	-49.7	17.5	0.00e+00	0	39	0	787480576	67	4432
2026-01-20 03:05:42.06	307.09	31.57	-48.0	-50.0	17.2	0.00e+00	0	39	0	789577728	67	4577
2026-01-20 03:05:43.07	306.75	31.49	-48.2	-50.4	16.9	0.00e+00	0	39	0	790626304	67	4784
2026-01-20 03:05:44.07	306.42	31.42	-48.3	-50.5	16.8	0.00e+00	0	39	0	792723456	67	4826
2026-01-20 03:05:45.08	306.08	31.35	-48.2	-50.4	16.8	0.00e+00	0	39	0	794820608	67	4771
2026-01-20 03:05:46.09	305.75	31.27	-48.2	-50.3	16.9	0.00e+00	0	39	0	796917760	67	4758
2026-01-20 03:05:47.10	305.42	31.20	-48.2	-50.3	16.9	0.00e+00	0	39	0	799014912	67	4730
2026-01-20 03:05:48.11	305.09	31.12	-48.5	-50.8	16.4	0.00e+00	0	39	0	800063488	67	5002
2026-01-20 03:05:49.11	304.76	31.04	-49.1	-51.7	15.7	0.00e+00	0	39	0	802160640	68	5260
2026-01-20 03:05:50.12	304.43	30.97	-49.3	-52.1	15.2	0.00e+00	0	39	0	804257792	69	5212
2026-01-20 03:05:51.13	304.11	30.89	-49.6	-52.5	14.8	7.00e-07	0	39	0	806354944	69	5457
2026-01-20 03:05:52.14	303.78	30.81	-49.2	-52.0	15.3	0.00e+00	0	39	0	808452096	69	5108
2026-01-20 03:05:53.14	303.46	30.73	-49.1	-51.8	15.6	0.00e+00	0	39	0	809500672	69	4990
2026-01-20 03:05:54.15	303.14	30.65	-48.5	-50.7	16.6	0.00e+00	0	39	0	811597824	69	4439
2026-01-20 03:05:55.16	302.82	30.56	-48.2	-50.4	16.9	0.00e+00	0	39	0	813694976	68	4521
2026-01-20 03:05:56.17	302.50	30.48	-48.2	-50.4	17.0	0.00e+00	0	39	0	815792128	68	4502
2026-01-20 03:05:57.17	302.19	30.40	-48.5	-50.8	16.5	0.00e+00	0	39	0	817889280	68	4732
2026-01-20 03:05:58.18	301.88	30.31	-48.1	-50.2	17.1	0.00e+00	0	39	0	818937856	68	4426
2026-01-20 03:05:59.19	301.56	30.23	-47.8	-49.8	17.4	0.00e+00	0	39	0	821035008	67	4473
2026-01-20 03:06:00.20	301.25	30.14	-47.7	-49.6	17.6	0.00e+00	0	39	0	823132160	67	4355
2026-01-20 03:06:01.21	300.94	30.06	-47.8	-49.8	17.4	0.00e+00	0	39	0	825229312	67	4484
2026-01-20 03:06:02.21	300.64	29.97	-47.4	-49.3	17.9	0.00e+00	0	39	0	827326464	66	4453
2026-01-20 03:06:03.22	300.33	29.88	-47.1	-48.9	18.3	0.00e+00	0	39	0	828375040	66	4271
2026-01-20 03:06:04.23	300.02	29.79	-46.5	-48.1	19.0	0.00e+00	0	39	0	830472192	65	4125
2026-01-20 03:06:05.24	299.72	29.70	-46.5	-48.0	19.0	0.00e+00	0	39	0	832569344	64	4338
2026-01-20 03:06:06.24	299.42	29.61	-46.2	-47.7	19.3	0.00e+00	0	39	0	834666496	64	4185
2026-01-20 03:06:07.25	299.12	29.52	-46.8	-48.4	18.7	0.00e+00	0	39	0	836763648	64	4523
2026-01-20 03:06:08.25	298.83	29.43	-47.4	-49.3	17.9	0.00e+00	0	39	0	837812224	65	4744
2026-01-20 03:06:09.26	298.53	29.34	-47.9	-50.0	17.2	0.00e+00	0	39	0	839909376	66	4834
2026-01-20 03:06:10.27	298.24	29.25	-48.3	-50.5	16.6	0.00e+00	0	39	0	842006528	67	4861
2026-01-20 03:06:11.28	297.94	29.16	-48.9	-51.5	15.9	0.00e+00	0	39	0	844103680	68	5121
2026-01-20 03:06:12.29	297.65	29.06	-48.9	-51.4	15.9	0.00e+00	0	39	0	846200832	69	4767
2026-01-20 03:06:13.30	297.36	28.97	-48.1	-50.1	17.1	0.00e+00	0	39	0	847249408	68	4377
2026-01-20 03:06:14.30	297.08	28.88	-47.4	-49.3	17.9	0.00e+00	0	39	0	849346560	66	4452
2026-01-20 03:06:15.31	296.79	28.78	-47.0	-48.7	18.5	0.00e+00	0	39	0	851443712	65	4411
2026-01-20 03:06:16.32	296.51	28.69	-47.3	-49.2	18.0	0.00e+00	0	39	0	853540864	65	4660
2026-01-20 03:06:17.33	296.23	28.59	-47.9	-50.0	17.3	0.00e+00	0	39	0	855638016	66	4822
2026-01-20 03:06:18.33	295.95	28.50	-49.0	-51.6	15.9	0.00e+00	0	39	0	856686592	68	5198
2026-01-20 03:06:19.34	295.67	28.40	-49.6	-52.6	14.9	0.00e+00	0	39	0	858783744	69	5465
2026-01-20 03:06:20.35	295.39	28.30	-49.8	-52.8	14.6	0.00e+00	0	39	0	860880896	70	5315
2026-01-20 03:06:21.36	295.11	28.21	-49.1	-51.7	15.6	0.00e+00	0	39	0	862978048	70	4675
2026-01-20 03:06:22.37	294.84	28.11	-49.4	-52.1	15.3	0.00e+00	0	39	0	865075200	70	4887
2026-01-20 03:06:23.37	294.57	28.01	-48.9	-51.3	16.0	0.00e+00	0	39	0	867172352	69	4758
2026-01-20 03:06:24.38	294.30	27.91	-48.8	-51.2	16.1	0.00e+00	0	39	0	868220928	69	4686
2026-01-20 03:06:25.39	294.03	27.81	-48.4	-50.6	16.7	0.00e+00	0	39	0	870318080	68	4618
2026-01-20 03:06:26.39	293.76	27.72	-48.5	-50.8	16.6	0.00e+00	0	39	0	872415232	68	4735
2026-01-20 03:06:27.40	293.50	27.62	-48.7	-51.0	16.4	0.00e+00	0	39	0	874512384	68	4842
2026-01-20 03:06:28.41	293.23	27.52	-48.8	-51.2	16.2	0.00e+00	0	39	0	875560960	68	4948
2026-01-20 03:06:29.42	292.97	27.42	-48.5	-50.8	16.6	0.00e+00	0	39	0	877658112	68	4714
2026-01-20 03:06:30.43	292.71	27.32	-48.5	-50.8	16.6	0.00e+00	0	39	0	879755264	68	4734
2026-01-20 03:06:31.44	292.45	27.21	-48.2	-50.2	17.1	0.00e+00	0	39	0	881852416	68	4419
2026-01-20 03:06:32.45	292.19	27.11	-47.4	-49.1	18.1	0.00e+00	0	39	0	883949568	66	4372
2026-01-20 03:06:33.45	291.94	27.01	-46.8	-48.4	18.7	0.00e+00	0	39	0	884998144	65	4276
2026-01-20 03:06:34.46	291.69	26.91	-46.6	-48.2	18.9	0.00e+00	0	39	0	887095296	64	4407
2026-01-20 03:06:35.47	291.43	26.81	-46.7	-48.3	18.9	0.00e+00	0	39	0	889192448	64	4459
2026-01-20 03:06:36.48	291.18	26.71	-46.7	-48.3	18.9	0.00e+00	0	39	0	891289600	64	4445
2026-01-20 03:06:37.49	290.93	26.61	-46.9	-48.5	18.7	0.00e+00	0	39	0	893386752	64	4586
2026-01-20 03:06:38.49	290.69	26.50	-47.0	-48.7	18.4	0.00e+00	0	39	0	895483904	64	4704
2026-01-20 03:06:39.50	290.44	26.40	-47.0	-48.8	18.4	0.00e+00	0	39	0	896532480	64	4712
2026-01-20 03:06:40.51	290.20	26.30	-47.3	-49.1	18.0	0.00e+00	0	39	0	898629632	65	4648
2026-01-20 03:06:41.52	289.95	26.20	-47.3	-49.2	18.0	0.00e+00	0	39	0	900726784	65	4665
2026-01-20 03:06:42.52	289.71	26.09	-47.3	-49.1	18.1	0.00e+00	0	39	0	902823936	65	4604
2026-01-20 03:06:43.53	289.47	25.99	-47.2	-49.0	18.1	0.00e+00	0	39	0	903872512	65	4592
2026-01-20 03:06:44.54	289.23	25.89	-47.1	-48.9	18.2	0.00e+00	0	39	0	905969664	65	4514
2026-01-20 03:06:45.54	289.00	25.78	-47.1	-48.9	18.2	0.00e+00	0	39	0	908066816	65	4528
2026-01-20 03:06:46.55	288.76	25.68	-47.0	-48.8	18.4	0.00e+00	0	39	0	910163968	65	4453
2026-01-20 03:06:47.56	288.53	25.58	-47.1	-48.9	18.3	0.00e+00	0	39	0	912261120	65	4538
2026-01-20 03:06:48.57	288.30	25.47	-47.3	-49.2	18.1	0.00e+00	0	39	0	914358272	65	4654
2026-01-20 03:06:49.57	288.07	25.37	-47.4	-49.3	17.9	0.00e+00	0	39	0	915406848	65	4717
2026-01-20 03:06:50.58	287.84	25.26	-47.4	-49.2	18.0	0.00e+00	0	39	0	917504000	65	4691
2026-01-20 03:06:51.59	287.61	25.16	-47.0	-48.8	18.4	0.00e+00	0	39	0	919601152	65	4472
2026-01-20 03:06:52.60	287.39	25.06	-46.8	-48.4	18.7	0.00e+00	0	39	0	921698304	65	4274
2026-01-20 03:06:53.61	287.16	24.95	-46.4	-47.9	19.2	0.00e+00	0	39	0	923795456	64	4289
2026-01-20 03:06:54.61	286.94	24.85	-46.0	-47.4	19.7	0.00e+00	0	39	0	924844032	63	4285
2026-01-20 03:06:55.62	286.72	24.74	-45.8	-47.1	20.1	0.00e+00	0	39	0	926941184	63	4139
2026-01-20 03:06:56.63	286.50	24.64	-45.3	-46.5	20.5	0.00e+00	0	39	0	929038336	62	4096
2026-01-20 03:06:57.64	286.28	24.53	-45.3	-46.6	20.5	0.00e+00	0	39	0	931135488	62	4123
2026-01-20 03:06:58.64	286.07	24.43	-45.5	-46.8	20.3	0.00e+00	0	39	0	932184064	62	4228
2026-01-20 03:06:59.65	285.85	24.33	-45.7	-47.1	20.1	0.00e+00	0	39	0	934281216	62	4344
2026-01-20 03:07:00.66	285.64	24.22	-46.2	-47.6	19.6	0.00e+00	0	39	0	936378368	62	4645
2026-01-20 03:07:01.67	285.42	24.12	-46.6	-48.1	19.1	0.00e+00	0	39	0	938475520	63	4648
2026-01-20 03:07:02.67	285.21	24.01	-46.6	-48.3	18.8	0.00e+00	0	39	0	940572672	64	4454
2026-01-20 03:07:03.68	285.00	23.91	-46.4	-48.0	19.1	0.00e+00	0	39	0	942669824	64	4316
2026-01-20 03:07:04.69	284.80	23.80	-46.2	-47.7	19.4	0.00e+00	0	39	0	943718400	64	4153
2026-01-20 03:07:05.70	284.59	23.70	-46.0	-47.4	19.8	0.00e+00	0	39	0	945815552	63	4265
2026-01-20 03:07:06.71	284.38	23.59	-45.8	-47.2	20.0	0.00e+00	0	39	0	947912704	63	4164
2026-01-20 03:07:07.71	284.18	23.49	-45.9	-47.3	19.8	0.00e+00	0	39	0	950009856	63	4236
2026-01-20 03:07:08.72	283.98	23.38	-46.1	-47.5	19.6	0.00e+00	0	39	0	952107008	63	4320
2026-01-20 03:07:09.73	283.78	23.28	-46.3	-47.8	19.4	0.00e+00	0	39	0	953155584	63	4448
2026-01-20 03:07:10.74	283.57	23.17	-46.0	-47.4	19.7	0.00e+00	0	39	0	955252736	63	4267
2026-01-20 03:07:11.75	283.38	23.07	-46.2	-47.7	19.5	0.00e+00	0	39	0	957349888	63	4399
2026-01-20 03:07:12.75	283.18	22.97	-46.0	-47.4	19.8	0.00e+00	0	39	0	959447040	63	4287
2026-01-20 03:07:13.76	282.98	22.86	-46.0	-47.4	19.7	0.00e+00	0	39	0	961544192	63	4248
2026-01-20 03:07:14.77	282.79	22.76	-46.0	-47.5	19.7	0.00e+00	0	39	0	962592768	63	4304
2026-01-20 03:07:15.78	282.60	22.65	-46.2	-47.7	19.5	0.00e+00	0	39	0	964689920	63	4403
2026-01-20 03:07:16.79	282.40	22.55	-46.3	-47.8	19.3	0.00e+00	0	39	0	966787072	63	4446
2026-01-20 03:07:17.79	282.21	22.45	-46.1	-47.5	19.6	0.00e+00	0	39	0	968884224	63	4330
2026-01-20 03:07:18.80	282.02	22.34	-46.2	-47.6	19.5	0.00e+00	0	39	0	970981376	63	4383
2026-01-20 03:07:19.81	281.84	22.24	-45.8	-47.1	19.9	0.00e+00	0	39	0	972029952	63	4144
2026-01-20 03:07:20.82	281.65	22.13	-45.7	-47.1	20.0	0.00e+00	0	39	0	974127104	63	4122
2026-01-20 03:07:21.82	281.46	22.03	-45.7	-47.0	20.1	0.00e+00	0	39	0	976224256	63	4087
2026-01-20 03:07:22.83	281.28	21.93	-45.9	-47.4	19.8	0.00e+00	0	39	0	978321408	63	4254
2026-01-20 03:07:23.84	281.10	21.82	-45.8	-47.2	19.9	0.00e+00	0	39	0	980418560	63	4185
2026-01-20 03:07:24.85	280.91	21.72	-46.2	-47.6	19.5	0.00e+00	0	39	0	981467136	63	4381
2026-01-20 03:07:25.85	280.73	21.62	-46.4	-48.0	19.3	0.00e+00	0	39	0	983564288	63	4551
2026-01-20 03:07:26.86	280.55	21.51	-46.5	-48.0	19.1	0.00e+00	0	39	0	985661440	63	4596
2026-01-20 03:07:27.87	280.38	21.41	-46.5	-48.0	19.1	0.00e+00	0	39	0	987758592	63	4593
2026-01-20 03:07:28.88	280.20	21.31	-46.6	-48.2	19.0	0.00e+00	0	39	0	989855744	63	4676
2026-01-20 03:07:29.89	280.02	21.20	-46.5	-48.1	19.1	0.00e+00	0	39	0	990904320	63	4629
2026-01-20 03:07:30.89	279.85	21.10	-46.4	-47.9	19.3	0.00e+00	0	39	0	993001472	63	4504
2026-01-20 03:07:31.90	279.68	21.00	-46.5	-48.0	19.1	0.00e+00	0	39	0	995098624	63	4565
2026-01-20 03:07:32.91	279.50	20.90	-46.5	-48.0	19.1	0.00e+00	0	39	0	997195776	63	4572
2026-01-20 03:07:33.92	279.33	20.79	-46.4	-47.9	19.2	0.00e+00	0	39	0	999292928	63	4542
2026-01-20 03:07:34.93	279.16	20.69	-46.2	-47.7	19.4	0.00e+00	0	39	0	1000341504	63	4412
2026-01-20 03:07:35.93	278.99	20.59	-46.4	-47.9	19.2	0.00e+00	0	39	0	1002438656	63	4520
2026-01-20 03:07:36.94	278.83	20.49	-46.4	-47.9	19.3	0.00e+00	0	39	0	1004535808	63	4501
2026-01-20 03:07:37.95	278.66	20.39	-46.5	-48.0	19.2	0.00e+00	0	39	0	1006632960	63	4561
2026-01-20 03:07:38.96	278.49	20.29	-46.7	-48.3	18.9	0.00e+00	0	39	0	1008730112	63	4712
2026-01-20 03:07:39.96	278.33	20.18	-46.8	-48.5	18.6	0.00e+00	0	39	0	1010827264	64	4548
2026-01-20 03:07:40.97	278.17	20.08	-47.0	-48.7	18.5	0.00e+00	0	39	0	1011875840	64	4667
2026-01-20 03:07:41.98	278.00	19.98	-47.2	-49.0	18.1	0.00e+00	0	39	0	1013972992	65	4596
2026-01-20 03:07:42.99	277.84	19.88	-47.6	-49.6	17.6	0.00e+00	0	39	0	1016070144	65	4888
2026-01-20 03:07:43.99	277.68	19.78	-47.4	-49.3	17.8	0.00e+00	0	39	0	1018167296	65	4736
2026-01-20 03:07:45.00	277.52	19.68	-47.4	-49.2	17.9	0.00e+00	0	39	0	1019215872	65	4688
2026-01-20 03:07:46.01	277.37	19.58	-47.1	-48.8	18.3	0.00e+00	0	39	0	1021313024	65	4463
2026-01-20 03:07:47.02	277.21	19.48	-46.9	-48.5	18.5	0.00e+00	0	39	0	1023410176	65	4332
2026-01-20 03:07:48.03	277.05	19.38	-46.5	-48.1	18.9	0.00e+00	0	39	0	1025507328	65	4121
2026-01-20 03:07:49.04	276.90	19.28	-46.6	-48.2	18.8	0.00e+00	0	39	0	1027604480	65	4184
2026-01-20 03:07:50.04	276.74	19.18	-46.4	-47.9	19.1	0.00e+00	0	39	0	1028653056	64	4263
2026-01-20 03:07:51.05	276.59	19.08	-46.3	-47.8	19.1	0.00e+00	0	39	0	1030750208	64	4241
2026-01-20 03:07:52.06	276.44	18.98	-46.7	-48.4	18.7	0.00e+00	0	39	0	1032847360	64	4499
2026-01-20 03:07:53.07	276.29	18.88	-46.8	-48.4	18.6	0.00e+00	0	39	0	1034944512	64	4543
2026-01-20 03:07:54.07	276.14	18.78	-47.1	-48.8	18.3	0.00e+00	0	39	0	1037041664	64	4723
2026-01-20 03:07:55.08	275.99	18.69	-47.1	-48.9	18.2	0.00e+00	0	39	0	1039138816	64	4767
2026-01-20 03:07:56.09	275.84	18.59	-47.2	-48.9	18.1	0.00e+00	0	39	0	1040187392	65	4531
2026-01-20 03:07:57.10	275.70	18.49	-46.9	-48.6	18.4	0.00e+00	0	39	0	1042284544	65	4386
2026-01-20 03:07:58.11	275.55	18.39	-46.9	-48.6	18.4	0.00e+00	0	39	0	1044381696	65	4365
2026-01-20 03:07:59.11	275.41	18.29	-46.7	-48.3	18.7	0.00e+00	0	39	0	1046478848	65	4224
2026-01-20 03:08:00.12	275.26	18.19	-46.4	-48.0	19.0	0.00e+00	0	39	0	1047527424	64	4304
2026-01-20 03:08:01.13	275.12	18.10	-46.3	-47.8	19.2	0.00e+00	0	39	0	1049624576	64	4207
2026-01-20 03:08:02.14	274.98	18.00	-46.2	-47.7	19.2	0.00e+00	0	39	0	1051721728	64	4177
2026-01-20 03:08:03.15	274.83	17.90	-46.4	-48.0	19.0	0.00e+00	0	39	0	1053818880	64	4295
2026-01-20 03:08:04.15	274.70	17.81	-46.4	-48.0	19.0	0.00e+00	0	39	0	1055916032	64	4306
2026-01-20 03:08:05.16	274.56	17.71	-46.5	-48.1	18.9	0.00e+00	0	39	0	1056964608	64	4371
2026-01-20 03:08:06.17	274.42	17.61	-46.3	-47.8	19.1	0.00e+00	0	39	0	1059061760	64	4240
2026-01-20 03:08:07.17	274.28	17.52	-46.4	-48.0	19.0	0.00e+00	0	39	0	1061158912	64	4311
2026-01-20 03:08:08.18	274.14	17.42	-46.4	-48.0	19.0	0.00e+00	0	39	0	1063256064	64	4304
2026-01-20 03:08:09.19	274.01	17.32	-46.5	-48.1	18.9	0.00e+00	0	39	0	1065353216	64	4358
2026-01-20 03:08:10.20	273.87	17.23	-46.7	-48.3	18.7	0.00e+00	0	39	0	1067450368	64	4459
2026-01-20 03:08:11.21	273.74	17.13	-46.6	-48.2	18.8	0.00e+00	0	39	0	1068498944	64	4427
2026-01-20 03:08:12.21	273.61	17.04	-46.8	-48.4	18.6	0.00e+00	0	39	0	1070596096	64	4503
2026-01-20 03:08:13.22	273.47	16.94	-46.4	-47.9	19.0	0.00e+00	0	39	0	1072693248	64	4288
2026-01-20 03:08:14.23	273.34	16.85	-46.5	-48.1	18.8	0.00e+00	0	39	0	1074790400	64	4364
2026-01-20 03:08:15.24	273.21	16.75	-46.5	-48.0	18.9	0.00e+00	0	39	0	1075838976	64	4336
2026-01-20 03:08:16.25	273.08	16.66	-46.3	-47.8	19.1	0.00e+00	0	39	0	1077936128	64	4241
2026-01-20 03:08:17.26	272.95	16.56	-46.2	-47.8	19.2	0.00e+00	0	39	0	1080033280	64	4194
2026-01-20 03:08:18.26	272.82	16.47	-46.2	-47.7	19.2	0.00e+00	0	39	0	1082130432	64	4156
2026-01-20 03:08:19.27	272.70	16.38	-46.2	-47.8	19.1	0.00e+00	0	39	0	1084227584	64	4196
2026-01-20 03:08:20.28	272.57	16.28	-46.4	-48.0	18.9	0.00e+00	0	39	0	1086324736	64	4315
2026-01-20 03:08:21.29	272.44	16.19	-46.9	-48.5	18.4	0.00e+00	0	39	0	1087373312	64	4598
2026-01-20 03:08:22.29	272.32	16.10	-47.1	-48.9	18.1	0.00e+00	0	39	0	1089470464	64	4773
2026-01-20 03:08:23.30	272.20	16.00	-47.4	-49.3	17.7	0.00e+00	0	39	0	1091567616	65	4721
2026-01-20 03:08:24.31	272.07	15.91	-47.8	-49.8	17.2	0.00e+00	0	39	0	1093664768	66	4743
2026-01-20 03:08:25.32	271.95	15.82	-48.2	-50.5	16.5	0.00e+00	0	39	0	1095761920	67	4835
2026-01-20 03:08:26.33	271.83	15.72	-48.5	-50.8	16.2	0.00e+00	0	39	0	1096810496	67	5041
2026-01-20 03:08:27.33	271.71	15.63	-48.4	-50.7	16.3	0.00e+00	0	39	0	1098907648	67	4939
2026-01-20 03:08:28.34	271.59	15.54	-48.3	-50.6	16.4	0.00e+00	0	39	0	1101004800	67	4895
2026-01-20 03:08:29.35	271.47	15.45	-47.8	-49.8	17.2	0.00e+00	0	39	0	1103101952	67	4446
2026-01-20 03:08:30.36	271.35	15.36	-47.5	-49.3	17.5	0.00e+00	0	39	0	1104150528	66	4492
2026-01-20 03:08:31.37	271.23	15.27	-46.8	-48.5	18.4	0.00e+00	0	39	0	1106247680	65	4321
2026-01-20 03:08:32.37	271.11	15.18	-46.5	-48.1	18.7	0.00e+00	0	39	0	1108344832	65	4128
2026-01-20 03:08:33.38	271.00	15.09	-46.2	-47.7	19.0	0.00e+00	0	39	0	1110441984	64	4189
2026-01-20 03:08:34.39	270.88	14.99	-46.1	-47.6	19.2	0.00e+00	0	39	0	1112539136	64	4127
2026-01-20 03:08:35.40	270.77	14.90	-46.1	-47.6	19.2	0.00e+00	0	39	0	1114636288	64	4122
2026-01-20 03:08:36.41	270.65	14.81	-46.2	-47.7	19.1	0.00e+00	0	39	0	1115684864	64	4174
2026-01-20 03:08:37.42	270.54	14.72	-46.4	-48.0	18.8	0.00e+00	0	39	0	1117782016	64	4321
2026-01-20 03:08:38.42	270.43	14.63	-46.7	-48.4	18.4	0.00e+00	0	39	0	1119879168	64	4531
2026-01-20 03:08:39.43	270.31	14.54	-46.9	-48.7	18.2	0.00e+00	0	39	0	1121976320	64	4660
2026-01-20 03:08:40.44	270.20	14.46	-47.3	-49.1	17.8	0.00e+00	0	39	0	1124073472	65	4645
2026-01-20 03:08:41.45	270.09	14.37	-47.5	-49.4	17.4	0.00e+00	0	39	0	1125122048	65	4813
2026-01-20 03:08:42.46	269.98	14.28	-47.8	-49.9	16.9	0.00e+00	0	39	0	1127219200	66	4810
2026-01-20 03:08:43.47	269.87	14.19	-48.0	-50.2	16.8	0.00e+00	0	39	0	1129316352	66	4929
2026-01-20 03:08:44.47	269.76	14.10	-48.1	-50.4	16.6	0.00e+00	0	39	0	1131413504	66	5044
2026-01-20 03:08:45.48	269.65	14.01	-48.1	-50.3	16.6	0.00e+00	0	39	0	1133510656	66	5014
2026-01-20 03:08:46.49	269.55	13.92	-48.1	-50.4	16.6	0.00e+00	0	39	0	1134559232	66	5063
2026-01-20 03:08:47.49	269.44	13.84	-48.0	-50.2	16.7	0.00e+00	0	39	0	1136656384	67	4679
2026-01-20 03:08:48.50	269.33	13.75	-47.9	-50.1	16.8	0.00e+00	0	39	0	1138753536	67	4609
2026-01-20 03:08:49.51	269.23	13.66	-48.1	-50.4	16.6	0.00e+00	0	39	0	1140850688	67	4766
2026-01-20 03:08:50.52	269.12	13.57	-48.0	-50.2	16.8	0.00e+00	0	39	0	1142947840	67	4655
2026-01-20 03:08:51.53	269.02	13.49	-47.9	-50.0	16.8	0.00e+00	0	39	0	1143996416	67	4591
2026-01-20 03:08:52.53	268.91	13.40	-48.0	-50.1	16.8	0.00e+00	0	39	0	1146093568	67	4633
2026-01-20 03:08:53.54	268.81	13.31	-48.0	-50.2	16.7	0.00e+00	0	39	0	1148190720	67	4660
2026-01-20 03:08:54.55	268.71	13.23	-47.9	-50.1	16.8	0.00e+00	0	39	0	1150287872	67	4617
2026-01-20 03:08:55.56	268.61	13.14	-48.0	-50.1	16.7	0.00e+00	0	39	0	1152385024	67	4625
2026-01-20 03:08:56.57	268.51	13.06	-47.9	-50.1	16.8	0.00e+00	0	39	0	1153433600	67	4615
2026-01-20 03:08:57.57	268.41	12.97	-47.9	-50.0	16.9	0.00e+00	0	39	0	1155530752	67	4572
2026-01-20 03:08:58.58	268.31	12.89	-47.9	-50.1	16.8	0.00e+00	0	39	0	1157627904	67	4611
2026-01-20 03:08:59.59	268.21	12.80	-48.0	-50.1	16.8	0.00e+00	0	39	0	1159725056	67	4622
2026-01-20 03:09:00.60	268.11	12.71	-48.0	-50.2	16.6	0.00e+00	0	39	0	1161822208	67	4674
2026-01-20 03:09:01.60	268.01	12.63	-47.9	-50.1	16.8	0.00e+00	0	39	0	1162870784	67	4609
2026-01-20 03:09:02.61	267.91	12.55	-48.1	-50.3	16.5	0.00e+00	0	39	0	1164967936	67	4738
2026-01-20 03:09:03.62	267.81	12.46	-48.1	-50.3	16.5	0.00e+00	0	39	0	1167065088	67	4759
2026-01-20 03:09:04.63	267.72	12.38	-48.1	-50.3	16.5	0.00e+00	0	39	0	1169162240	67	4735
2026-01-20 03:09:05.63	267.62	12.29	-48.2	-50.5	16.4	0.00e+00	0	39	0	1171259392	67	4817
2026-01-20 03:09:06.64	267.53	12.21	-48.1	-50.3	16.5	0.00e+00	0	39	0	1172307968	67	4745
2026-01-20 03:09:07.65	267.43	12.13	-48.0	-50.2	16.6	0.00e+00	0	39	0	1174405120	67	4665
2026-01-20 03:09:08.66	267.34	12.04	-48.0	-50.1	16.7	0.00e+00	0	39	0	1176502272	67	4634
2026-01-20 03:09:09.66	267.24	11.96	-47.8	-49.9	16.8	0.00e+00	0	39	0	1178599424	67	4527
2026-01-20 03:09:10.67	267.15	11.88	-47.7	-49.7	17.1	0.00e+00	0	39	0	1180696576	67	4413
2026-01-20 03:09:11.68	267.06	11.79	-47.6	-49.7	17.1	0.00e+00	0	39	0	1181745152	67	4393
2026-01-20 03:09:12.69	266.96	11.71	-47.5	-49.4	17.3	0.00e+00	0	39	0	1183842304	67	4274
2026-01-20 03:09:13.69	266.87	11.63	-47.3	-49.2	17.5	0.00e+00	0	39	0	1185939456	66	4440
2026-01-20 03:09:14.70	266.78	11.55	-47.2	-49.1	17.7	0.00e+00	0	39	0	1188036608	66	4374
2026-01-20 03:09:15.71	266.69	11.47	-47.4	-49.3	17.4	0.00e+00	0	39	0	1190133760	66	4457
2026-01-20 03:09:16.72	266.60	11.38	-47.2	-49.0	17.7	0.00e+00	0	39	0	1191182336	66	4335
2026-01-20 03:09:17.73	266.51	11.30	-47.2	-49.0	17.7	0.00e+00	0	39	0	1193279488	66	4325
2026-01-20 03:09:18.73	266.42	11.22	-47.2	-49.1	17.6	0.00e+00	0	39	0	1195376640	66	4359
2026-01-20 03:09:19.74	266.34	11.14	-47.3	-49.2	17.5	0.00e+00	0	39	0	1197473792	66	4412
2026-01-20 03:09:20.75	266.25	11.06	-47.4	-49.3	17.4	0.00e+00	0	39	0	1199570944	66	4476
2026-01-20 03:09:21.76	266.16	10.98	-47.6	-49.6	17.1	0.00e+00	0	39	0	1200619520	66	4634
2026-01-20 03:09:22.77	266.07	10.90	-47.7	-49.8	16.6	0.00e+00	0	39	0	1202716672	66	4734
2026-01-20 03:09:23.77	265.99	10.82	-48.0	-50.2	16.6	0.00e+00	0	39	0	1204813824	66	4959
2026-01-20 03:09:24.78	265.90	10.74	-48.1	-50.4	16.3	0.00e+00	0	39	0	1206910976	66	5096
2026-01-20 03:09:25.79	265.81	10.66	-48.4	-50.9	15.9	0.00e+00	0	39	0	1209008128	67	5053
2026-01-20 03:09:26.80	265.73	10.58	-48.8	-51.5	15.4	0.00e+00	0	39	0	1210056704	68	5107
2026-01-20 03:09:27.81	265.64	10.50	-48.8	-51.5	15.4	0.00e+00	0	39	0	1212153856	68	5126
2026-01-20 03:09:28.81	265.56	10.42	-49.0	-51.8	15.0	0.00e+00	0	39	0	1214251008	68	5299
2026-01-20 03:09:29.82	265.48	10.34	-49.2	-52.1	14.7	7.00e-07	0	39	0	1216348160	69	5217
2026-01-20 03:09:30.83	265.39	10.26	-49.4	-52.4	14.4	7.00e-07	0	39	0	1218445312	69	5372
2026-01-20 03:09:31.84	265.31	10.18	-49.3	-52.4	14.5	7.00e-07	0	39	0	1219493888	69	5358
2026-01-20 03:09:32.85	265.23	10.10	-49.3	-52.3	14.5	7.00e-07	0	39	0	1221591040	69	5314
2026-01-20 03:09:33.86	265.15	10.02	-49.2	-52.2	14.6	2.20e-06	0	39	0	1223688192	69	5225
2026-01-20 03:09:34.87	265.07	9.95	-49.1	-52.0	14.8	0.00e+00	0	39	0	1225785344	69	5149
2026-01-20 03:09:35.87	264.98	9.87	-49.1	-52.0	14.7	0.00e+00	0	39	0	1227882496	69	5141
2026-01-20 03:09:36.88	264.90	9.79	-49.2	-52.1	14.7	0.00e+00	0	39	0	1229979648	69	5177
