passes_logs/2026/01/20/R3.2S_Murmansk/R3.2S_Murmansk__20260120_043733_SUOMI_NPP_rec.log

#Pass ID: 20260120_043733_SUOMI NPP
#Satellite: SUOMI NPP
#Configuration: NPP
#almurnet v.1.7.20251203
#Start time: 2026-01-20 04:37:32

#Version: 2.2.20231116
#Station: R3.2S_Murmansk
#Location: 33.079688 lon 68.888172 lat
#TLE: 1 37849U 11061A   26019.26265094  .00000081  00000+0  59609-4 0  9993
#TLE: 2 37849  98.7817 321.2746 0002356  56.2510 303.8890 14.19526363737315

#Time	Az	El	Level	Level2	SNR	BER	BlckErr	Temp	State	Recorded	gain1	gain2
2026-01-20 04:37:32.84	53.71	1.97	-52.0	-66.9	3.8	1.49e+00	0	37	0	0	76	19112
2026-01-20 04:37:33.84	53.64	2.02	-52.0	-66.9	3.8	1.49e+00	0	37	104	0	74	21475
2026-01-20 04:37:34.84	53.58	2.08	-52.0	-66.9	3.8	1.49e+00	0	37	104	0	74	21386
2026-01-20 04:37:35.85	53.52	2.14	-52.0	-66.9	3.8	1.49e+00	0	37	104	0	74	21402
2026-01-20 04:37:36.86	53.45	2.20	-52.0	-66.9	3.8	1.49e+00	0	37	104	0	74	21404
2026-01-20 04:37:37.87	53.39	2.25	-52.0	-66.9	3.8	1.49e+00	0	37	104	0	74	21399
2026-01-20 04:37:38.87	53.33	2.31	-52.0	-66.9	3.8	1.49e+00	0	37	104	0	74	21367
2026-01-20 04:37:39.88	53.26	2.37	-52.0	-66.9	3.8	1.49e+00	0	37	104	0	74	21421
2026-01-20 04:37:40.89	53.20	2.43	-52.0	-66.9	3.8	1.49e+00	0	37	104	0	74	21345
2026-01-20 04:37:41.90	53.13	2.48	-52.0	-66.9	3.8	1.49e+00	0	37	104	0	74	21442
2026-01-20 04:37:42.91	53.07	2.54	-52.0	-66.9	3.8	1.49e+00	0	37	104	0	74	21371
2026-01-20 04:37:43.91	53.00	2.60	-52.0	-66.9	3.8	1.49e+00	0	37	104	0	74	21396
2026-01-20 04:37:44.92	52.93	2.66	-51.9	-66.9	3.8	1.49e+00	0	37	104	0	74	21343
2026-01-20 04:37:45.93	52.87	2.72	-52.0	-66.9	3.8	1.49e+00	0	37	104	0	74	21406
2026-01-20 04:37:46.94	52.80	2.78	-52.0	-66.9	3.8	1.49e+00	0	37	104	0	74	21410
2026-01-20 04:37:47.95	52.74	2.83	-52.0	-66.9	3.8	1.49e+00	0	37	104	0	74	21336
2026-01-20 04:37:48.95	52.67	2.89	-52.0	-66.9	3.8	1.49e+00	0	37	104	0	74	21287
2026-01-20 04:37:49.96	52.60	2.95	-52.0	-66.9	3.8	1.49e+00	0	37	104	0	74	21327
2026-01-20 04:37:50.97	52.53	3.01	-51.9	-66.8	3.8	1.49e+00	0	37	104	0	74	21258
2026-01-20 04:37:51.98	52.47	3.07	-51.9	-66.9	3.8	1.49e+00	0	37	104	0	74	21339
2026-01-20 04:37:52.99	52.40	3.13	-51.9	-66.9	3.8	1.49e+00	0	37	104	0	74	21308
2026-01-20 04:37:53.99	52.33	3.19	-51.9	-66.9	3.8	1.49e+00	0	37	104	0	74	21400
2026-01-20 04:37:55.00	52.26	3.25	-51.9	-66.9	3.8	1.49e+00	0	37	104	0	74	21351
2026-01-20 04:37:56.01	52.19	3.31	-51.7	-66.9	3.8	1.49e+00	0	37	104	0	74	21411
2026-01-20 04:37:57.01	52.12	3.36	-51.2	-66.9	3.8	1.49e+00	0	37	104	0	74	21279
2026-01-20 04:37:58.02	52.05	3.42	-50.4	-66.8	3.8	1.49e+00	0	37	104	0	72	23670
2026-01-20 04:37:59.03	51.98	3.48	-49.5	-66.8	3.8	1.49e+00	0	37	104	0	71	25104
2026-01-20 04:38:00.04	51.91	3.54	-48.4	-66.6	3.8	1.49e+00	0	37	104	0	68	29341
2026-01-20 04:38:01.05	51.84	3.60	-47.8	-66.6	3.8	1.49e+00	0	37	104	0	67	30889
2026-01-20 04:38:02.05	51.77	3.66	-48.0	-66.6	3.8	1.49e+00	0	37	104	0	67	30861
2026-01-20 04:38:03.06	51.70	3.72	-48.4	-66.6	3.8	1.49e+00	0	37	104	0	67	30834
2026-01-20 04:38:04.07	51.63	3.78	-49.3	-66.7	3.8	1.49e+00	0	37	104	0	69	27984
2026-01-20 04:38:05.08	51.56	3.84	-50.1	-66.5	3.8	1.49e+00	0	38	104	0	70	25785
2026-01-20 04:38:06.09	51.49	3.90	-51.0	-66.3	3.8	1.49e+00	0	37	104	0	72	22467
2026-01-20 04:38:07.10	51.42	3.96	-51.5	-65.9	3.8	1.49e+00	0	38	104	0	73	20143
2026-01-20 04:38:08.11	51.34	4.02	-51.7	-65.7	3.8	1.49e+00	0	38	104	0	73	19620
2026-01-20 04:38:09.11	51.27	4.08	-51.8	-65.5	3.8	1.49e+00	0	37	104	0	74	18178
2026-01-20 04:38:10.12	51.20	4.14	-51.8	-65.2	3.8	1.49e+00	0	37	104	0	74	17560
2026-01-20 04:38:11.13	51.12	4.20	-51.8	-64.3	4.0	1.48e+00	0	37	104	0	74	15811
2026-01-20 04:38:12.14	51.05	4.26	-51.8	-63.9	4.1	1.47e+00	0	38	104	0	74	15094
2026-01-20 04:38:13.14	50.98	4.32	-51.7	-63.1	4.3	1.39e+00	0	38	0	0	74	13812
2026-01-20 04:38:14.15	50.90	4.39	-51.6	-62.0	4.7	9.43e-01	0	38	0	1048576	74	12188
2026-01-20 04:38:15.16	50.83	4.45	-51.5	-60.9	5.2	7.16e-01	0	38	0	3145728	74	10743
2026-01-20 04:38:16.17	50.75	4.51	-51.5	-60.7	5.4	5.47e-01	0	38	0	5242880	74	10423
2026-01-20 04:38:17.18	50.68	4.57	-51.3	-59.3	6.4	3.06e-01	0	38	0	6291456	74	8929
2026-01-20 04:38:18.18	50.60	4.63	-51.2	-59.1	6.5	2.96e-01	0	38	0	8388608	74	8758
2026-01-20 04:38:19.19	50.52	4.69	-51.2	-59.1	6.6	2.07e-01	0	38	0	10485760	74	8666
2026-01-20 04:38:20.20	50.45	4.75	-51.3	-59.3	6.4	2.22e-01	0	38	0	12582912	74	8881
2026-01-20 04:38:21.21	50.37	4.81	-51.2	-59.2	6.5	1.90e-01	0	38	0	13631488	74	8777
2026-01-20 04:38:22.21	50.29	4.87	-51.4	-59.9	6.0	2.93e-01	0	38	0	15728640	74	9538
2026-01-20 04:38:23.22	50.22	4.94	-51.4	-60.4	5.6	4.07e-01	0	38	0	17825792	74	10105
2026-01-20 04:38:24.23	50.14	5.00	-51.5	-61.3	5.0	6.05e-01	0	38	0	19922944	74	11160
2026-01-20 04:38:25.24	50.06	5.06	-51.6	-61.7	4.8	8.06e-01	0	38	0	22020096	74	11699
2026-01-20 04:38:26.25	49.98	5.12	-50.9	-57.3	8.3	2.19e-01	0	38	0	24117248	73	7515
2026-01-20 04:38:27.25	49.90	5.18	-51.1	-58.1	7.9	1.50e-02	0	38	0	25165824	73	8178
2026-01-20 04:38:28.26	49.82	5.25	-51.8	-64.4	3.8	1.47e+00	0	38	104	26214400	74	16090
2026-01-20 04:38:29.27	49.74	5.31	-49.7	-53.7	12.3	3.65e-01	0	38	0	26214400	71	5584
2026-01-20 04:38:30.28	49.66	5.37	-51.9	-62.8	4.3	1.37e+00	5	38	0	27262976	74	13408
2026-01-20 04:38:31.29	49.58	5.43	-49.9	-53.9	12.0	5.95e-04	0	38	0	29360128	71	5722
2026-01-20 04:38:32.29	49.50	5.50	-49.5	-53.2	12.8	8.62e-05	0	38	0	31457280	71	5274
2026-01-20 04:38:33.30	49.42	5.56	-49.4	-53.1	13.1	1.60e-05	0	38	0	33554432	70	5473
2026-01-20 04:38:34.31	49.34	5.62	-49.6	-53.4	12.7	3.81e-05	0	38	0	34603008	70	5690
2026-01-20 04:38:35.32	49.26	5.68	-49.4	-53.0	13.1	8.85e-05	0	38	0	36700160	70	5456
2026-01-20 04:38:36.33	49.18	5.75	-49.1	-52.4	13.7	1.75e-05	0	38	0	38797312	70	5071
2026-01-20 04:38:37.33	49.10	5.81	-48.9	-52.0	14.1	1.50e-06	0	38	0	40894464	69	5159
2026-01-20 04:38:38.34	49.01	5.87	-49.0	-52.2	13.9	7.60e-06	0	38	0	42991616	69	5274
2026-01-20 04:38:39.35	48.93	5.93	-48.7	-51.7	14.5	0.00e+00	0	38	0	44040192	69	4963
2026-01-20 04:38:40.36	48.85	6.00	-48.9	-52.0	14.2	8.30e-06	0	38	0	46137344	69	5127
2026-01-20 04:38:41.36	48.76	6.06	-48.4	-51.1	15.2	0.00e+00	0	38	0	48234496	68	4889
2026-01-20 04:38:42.37	48.68	6.12	-48.6	-51.4	14.8	0.00e+00	0	38	0	50331648	68	5081
2026-01-20 04:38:43.38	48.59	6.19	-48.8	-51.8	14.6	0.00e+00	0	38	0	52428800	68	5287
2026-01-20 04:38:44.39	48.51	6.25	-48.7	-51.6	14.7	1.50e-06	0	38	0	53477376	68	5189
2026-01-20 04:38:45.39	48.42	6.32	-48.8	-51.8	14.5	1.50e-06	0	38	0	55574528	68	5323
2026-01-20 04:38:46.40	48.34	6.38	-48.4	-51.1	15.2	0.00e+00	0	38	0	57671680	68	4892
2026-01-20 04:38:47.41	48.25	6.44	-48.7	-51.7	14.6	7.00e-07	0	38	0	59768832	68	5225
2026-01-20 04:38:48.42	48.16	6.51	-48.6	-51.5	14.8	0.00e+00	0	38	0	61865984	68	5123
2026-01-20 04:38:49.43	48.08	6.57	-48.5	-51.2	15.1	7.00e-07	0	38	0	62914560	68	4943
2026-01-20 04:38:50.43	47.99	6.63	-48.6	-51.3	14.9	0.00e+00	0	38	0	65011712	68	5024
2026-01-20 04:38:51.44	47.90	6.70	-48.5	-51.2	15.0	0.00e+00	0	38	0	67108864	68	4955
2026-01-20 04:38:52.45	47.81	6.76	-48.5	-51.3	15.0	0.00e+00	0	38	0	69206016	68	5015
2026-01-20 04:38:53.46	47.73	6.83	-48.9	-51.9	14.5	0.00e+00	0	38	0	71303168	68	5353
2026-01-20 04:38:54.47	47.64	6.89	-48.3	-51.0	15.3	0.00e+00	0	38	0	72351744	68	4835
2026-01-20 04:38:55.48	47.55	6.96	-48.5	-51.2	15.1	0.00e+00	0	38	0	74448896	68	4975
2026-01-20 04:38:56.49	47.46	7.02	-49.0	-52.0	14.3	1.50e-06	0	38	0	76546048	68	5448
2026-01-20 04:38:57.49	47.37	7.09	-48.6	-51.5	14.9	0.00e+00	0	38	0	78643200	68	5125
2026-01-20 04:38:58.50	47.28	7.15	-49.0	-52.0	14.4	1.50e-06	0	38	0	80740352	68	5442
2026-01-20 04:38:59.51	47.19	7.22	-49.2	-52.4	14.0	2.20e-06	0	38	0	81788928	68	5691
2026-01-20 04:39:00.52	47.09	7.28	-49.1	-52.3	14.1	7.00e-07	0	38	0	83886080	68	5598
2026-01-20 04:39:01.53	47.00	7.35	-49.3	-52.7	13.7	1.50e-06	0	38	0	85983232	69	5582
2026-01-20 04:39:02.54	46.91	7.41	-49.1	-52.3	14.1	7.60e-06	0	38	0	88080384	69	5296
2026-01-20 04:39:03.54	46.82	7.48	-49.0	-52.1	14.1	3.00e-06	0	38	0	90177536	69	5190
2026-01-20 04:39:04.55	46.72	7.54	-49.1	-52.2	14.1	3.80e-06	0	38	0	91226112	69	5264
2026-01-20 04:39:05.56	46.63	7.61	-49.0	-52.1	14.4	0.00e+00	0	38	0	93323264	69	5162
2026-01-20 04:39:06.57	46.53	7.67	-49.1	-52.3	14.1	0.00e+00	0	38	0	95420416	69	5303
2026-01-20 04:39:07.57	46.44	7.74	-49.1	-52.3	14.1	2.20e-06	0	38	0	97517568	69	5306
2026-01-20 04:39:08.58	46.35	7.81	-49.0	-52.0	14.4	0.00e+00	0	38	0	99614720	69	5146
2026-01-20 04:39:09.59	46.25	7.87	-48.9	-52.0	14.5	7.00e-07	0	38	0	100663296	69	5128
2026-01-20 04:39:10.60	46.15	7.94	-49.0	-52.1	14.3	0.00e+00	0	38	0	102760448	69	5185
2026-01-20 04:39:11.61	46.06	8.00	-48.8	-51.7	14.6	7.00e-07	0	38	0	104857600	69	4981
2026-01-20 04:39:12.61	45.96	8.07	-48.8	-51.7	14.7	2.20e-06	0	38	0	106954752	69	4972
2026-01-20 04:39:13.62	45.86	8.14	-48.3	-50.9	15.5	0.00e+00	0	38	0	109051904	68	4781
2026-01-20 04:39:14.63	45.77	8.20	-48.5	-51.2	15.3	0.00e+00	0	38	0	110100480	68	4928
2026-01-20 04:39:15.63	45.67	8.27	-48.5	-51.2	15.3	0.00e+00	0	38	0	112197632	68	4938
2026-01-20 04:39:16.64	45.57	8.34	-48.2	-50.8	15.6	0.00e+00	0	38	0	114294784	68	4726
2026-01-20 04:39:17.65	45.47	8.40	-48.4	-51.1	15.4	0.00e+00	0	38	0	116391936	68	4888
2026-01-20 04:39:18.66	45.37	8.47	-48.3	-50.9	15.6	0.00e+00	0	38	0	118489088	68	4800
2026-01-20 04:39:19.67	45.27	8.54	-48.3	-50.8	15.7	0.00e+00	0	38	0	119537664	68	4741
2026-01-20 04:39:20.67	45.17	8.60	-48.4	-51.0	15.5	0.00e+00	0	38	0	121634816	68	4869
2026-01-20 04:39:21.68	45.07	8.67	-48.3	-50.9	15.6	0.00e+00	0	38	0	123731968	68	4761
2026-01-20 04:39:22.69	44.97	8.74	-48.3	-50.9	15.6	0.00e+00	0	38	0	125829120	68	4794
2026-01-20 04:39:23.70	44.87	8.80	-48.3	-50.9	15.7	0.00e+00	0	38	0	127926272	68	4783
2026-01-20 04:39:24.70	44.76	8.87	-48.2	-50.7	15.9	0.00e+00	0	38	0	128974848	68	4664
2026-01-20 04:39:25.71	44.66	8.94	-48.2	-50.7	15.8	0.00e+00	0	38	0	131072000	68	4696
2026-01-20 04:39:26.72	44.56	9.01	-48.2	-50.7	15.8	0.00e+00	0	38	0	133169152	68	4689
2026-01-20 04:39:27.73	44.45	9.07	-47.9	-50.3	16.1	0.00e+00	0	38	0	135266304	67	4740
2026-01-20 04:39:28.73	44.35	9.14	-48.1	-50.5	16.0	0.00e+00	0	38	0	137363456	67	4839
2026-01-20 04:39:29.74	44.24	9.21	-48.4	-50.9	15.5	0.00e+00	0	38	0	139460608	67	5089
2026-01-20 04:39:30.75	44.14	9.28	-48.3	-50.8	15.7	0.00e+00	0	38	0	140509184	67	5006
2026-01-20 04:39:31.76	44.03	9.35	-48.0	-50.4	16.1	0.00e+00	0	38	0	142606336	67	4796
2026-01-20 04:39:32.77	43.93	9.41	-48.2	-50.6	15.9	0.00e+00	0	38	0	144703488	67	4922
2026-01-20 04:39:33.77	43.82	9.48	-48.1	-50.5	16.0	0.00e+00	0	38	0	146800640	67	4844
2026-01-20 04:39:34.78	43.71	9.55	-48.0	-50.4	16.1	0.00e+00	0	38	0	147849216	67	4761
2026-01-20 04:39:35.79	43.60	9.62	-48.1	-50.6	15.9	0.00e+00	0	38	0	149946368	67	4891
2026-01-20 04:39:36.80	43.50	9.69	-48.2	-50.6	15.9	0.00e+00	0	38	0	152043520	67	4925
2026-01-20 04:39:37.81	43.39	9.75	-47.8	-50.1	16.4	0.00e+00	0	38	0	154140672	67	4618
2026-01-20 04:39:38.81	43.28	9.82	-48.2	-50.7	15.9	0.00e+00	0	38	0	156237824	67	4950
2026-01-20 04:39:39.82	43.17	9.89	-48.2	-50.7	15.9	0.00e+00	0	38	0	157286400	67	4948
2026-01-20 04:39:40.83	43.06	9.96	-48.2	-50.6	15.9	0.00e+00	0	38	0	159383552	67	4925
2026-01-20 04:39:41.83	42.95	10.03	-48.3	-50.7	15.8	0.00e+00	0	38	0	161480704	67	4982
2026-01-20 04:39:42.84	42.83	10.10	-48.3	-50.9	15.7	0.00e+00	0	38	0	163577856	67	5061
2026-01-20 04:39:43.85	42.72	10.17	-48.4	-50.9	15.6	0.00e+00	0	38	0	165675008	67	5098
2026-01-20 04:39:44.86	42.61	10.24	-48.3	-50.7	15.8	0.00e+00	0	38	0	167772160	67	4977
2026-01-20 04:39:45.87	42.49	10.31	-48.2	-50.7	15.9	0.00e+00	0	38	0	168820736	67	4948
2026-01-20 04:39:46.87	42.38	10.37	-48.3	-50.7	15.8	0.00e+00	0	38	0	170917888	67	4979
2026-01-20 04:39:47.88	42.27	10.44	-48.2	-50.7	15.9	0.00e+00	0	38	0	173015040	67	4941
2026-01-20 04:39:48.89	42.15	10.51	-48.3	-50.8	15.8	0.00e+00	0	38	0	175112192	67	5011
2026-01-20 04:39:49.90	42.04	10.58	-48.4	-50.9	15.6	0.00e+00	0	38	0	176160768	67	5092
2026-01-20 04:39:50.91	41.92	10.65	-48.4	-50.9	15.7	0.00e+00	0	38	0	178257920	67	5083
2026-01-20 04:39:51.92	41.80	10.72	-48.5	-51.0	15.5	0.00e+00	0	38	0	180355072	67	5136
2026-01-20 04:39:52.93	41.69	10.79	-48.6	-51.3	15.3	0.00e+00	0	38	0	182452224	67	5287
2026-01-20 04:39:53.93	41.57	10.86	-48.6	-51.3	15.3	0.00e+00	0	38	0	184549376	67	5292
2026-01-20 04:39:54.94	41.45	10.93	-48.8	-51.5	15.2	0.00e+00	0	38	0	186646528	68	5111
2026-01-20 04:39:55.95	41.33	11.00	-48.6	-51.3	15.4	0.00e+00	0	38	0	187695104	68	4990
2026-01-20 04:39:56.96	41.21	11.07	-48.8	-51.5	15.2	0.00e+00	0	39	0	189792256	68	5145
2026-01-20 04:39:57.97	41.09	11.14	-48.7	-51.3	15.4	0.00e+00	0	38	0	191889408	68	5020
2026-01-20 04:39:58.97	40.97	11.21	-48.3	-50.8	15.9	0.00e+00	0	38	0	193986560	68	4717
2026-01-20 04:39:59.98	40.85	11.28	-48.2	-50.6	16.1	0.00e+00	0	38	0	196083712	68	4623
2026-01-20 04:40:00.96	40.73	11.35	-48.3	-50.7	16.0	0.00e+00	0	38	0	197132288	68	4658
2026-01-20 04:40:01.97	40.61	11.42	-48.2	-50.6	16.1	0.00e+00	0	38	0	199229440	68	4646
2026-01-20 04:40:02.98	40.48	11.49	-48.2	-50.6	16.1	0.00e+00	0	38	0	201326592	68	4631
2026-01-20 04:40:03.99	40.36	11.56	-48.2	-50.5	16.2	0.00e+00	0	38	0	203423744	68	4595
2026-01-20 04:40:05.00	40.23	11.63	-48.3	-50.7	16.1	0.00e+00	0	38	0	204472320	68	4660
2026-01-20 04:40:06.00	40.11	11.70	-47.9	-50.1	16.5	0.00e+00	0	38	0	206569472	67	4625
2026-01-20 04:40:07.01	39.99	11.77	-47.8	-50.0	16.6	0.00e+00	0	38	0	208666624	67	4563
2026-01-20 04:40:08.02	39.86	11.84	-47.8	-50.0	16.7	0.00e+00	0	38	0	210763776	67	4550
2026-01-20 04:40:09.03	39.73	11.92	-47.6	-49.7	16.9	0.00e+00	0	38	0	212860928	67	4400
2026-01-20 04:40:10.03	39.60	11.99	-47.5	-49.6	17.1	0.00e+00	0	38	0	213909504	66	4622
2026-01-20 04:40:11.04	39.48	12.06	-47.4	-49.5	17.1	0.00e+00	0	38	0	216006656	66	4546
2026-01-20 04:40:12.05	39.35	12.13	-47.4	-49.4	17.2	0.00e+00	0	38	0	218103808	66	4527
2026-01-20 04:40:13.06	39.22	12.20	-47.4	-49.5	17.1	0.00e+00	0	38	0	220200960	66	4584
2026-01-20 04:40:14.06	39.09	12.27	-47.4	-49.5	17.2	0.00e+00	0	38	0	222298112	66	4553
2026-01-20 04:40:15.07	38.96	12.34	-47.4	-49.5	17.1	0.00e+00	0	38	0	224395264	66	4567
2026-01-20 04:40:16.08	38.83	12.41	-47.4	-49.5	17.2	0.00e+00	0	39	0	225443840	66	4567
2026-01-20 04:40:17.09	38.69	12.49	-47.5	-49.6	17.1	0.00e+00	0	38	0	227540992	66	4600
2026-01-20 04:40:18.10	38.56	12.56	-47.4	-49.5	17.2	0.00e+00	0	38	0	229638144	66	4553
2026-01-20 04:40:19.10	38.43	12.63	-47.5	-49.6	17.1	0.00e+00	0	38	0	231735296	66	4620
2026-01-20 04:40:20.11	38.29	12.70	-47.4	-49.4	17.2	0.00e+00	0	38	0	232783872	66	4543
2026-01-20 04:40:21.11	38.16	12.77	-47.4	-49.5	17.2	0.00e+00	0	38	0	234881024	66	4568
2026-01-20 04:40:22.12	38.03	12.84	-47.3	-49.4	17.3	0.00e+00	0	38	0	236978176	66	4500
2026-01-20 04:40:23.13	37.89	12.91	-47.2	-49.2	17.5	0.00e+00	0	38	0	239075328	66	4416
2026-01-20 04:40:24.14	37.75	12.99	-47.2	-49.2	17.4	0.00e+00	0	38	0	241172480	66	4422
2026-01-20 04:40:25.15	37.61	13.06	-47.4	-49.4	17.2	0.00e+00	0	38	0	243269632	66	4522
2026-01-20 04:40:26.15	37.48	13.13	-47.6	-49.7	17.0	0.00e+00	0	38	0	244318208	66	4661
2026-01-20 04:40:27.16	37.34	13.20	-47.4	-49.4	17.3	0.00e+00	0	38	0	246415360	66	4497
2026-01-20 04:40:28.17	37.20	13.27	-47.4	-49.4	17.3	0.00e+00	0	38	0	248512512	66	4514
2026-01-20 04:40:29.18	37.06	13.35	-47.4	-49.4	17.2	0.00e+00	0	38	0	250609664	66	4544
2026-01-20 04:40:30.19	36.92	13.42	-47.3	-49.2	17.4	0.00e+00	0	38	0	252706816	66	4440
2026-01-20 04:40:31.19	36.78	13.49	-47.3	-49.3	17.4	0.00e+00	0	38	0	253755392	66	4460
2026-01-20 04:40:32.20	36.63	13.56	-47.2	-49.2	17.5	0.00e+00	0	38	0	255852544	66	4408
2026-01-20 04:40:33.21	36.49	13.63	-47.3	-49.2	17.4	0.00e+00	0	38	0	257949696	66	4436
2026-01-20 04:40:34.21	36.35	13.70	-47.3	-49.2	17.4	0.00e+00	0	38	0	260046848	66	4438
2026-01-20 04:40:35.22	36.20	13.78	-47.2	-49.2	17.5	0.00e+00	0	39	0	262144000	66	4420
2026-01-20 04:40:36.23	36.06	13.85	-47.3	-49.3	17.4	0.00e+00	0	38	0	263192576	66	4448
2026-01-20 04:40:37.24	35.91	13.92	-47.2	-49.2	17.5	0.00e+00	0	38	0	265289728	66	4419
2026-01-20 04:40:38.25	35.77	13.99	-47.1	-49.0	17.6	0.00e+00	0	38	0	267386880	66	4330
2026-01-20 04:40:39.25	35.62	14.07	-47.1	-49.1	17.5	0.00e+00	0	38	0	269484032	66	4354
2026-01-20 04:40:40.26	35.47	14.14	-47.2	-49.1	17.5	0.00e+00	0	38	0	271581184	65	4640
2026-01-20 04:40:41.27	35.32	14.21	-47.3	-49.3	17.3	0.00e+00	0	38	0	272629760	65	4746
2026-01-20 04:40:42.27	35.17	14.28	-47.5	-49.5	17.2	0.00e+00	0	38	0	274726912	65	4864
2026-01-20 04:40:43.28	35.02	14.35	-47.7	-49.9	16.8	0.00e+00	0	38	0	276824064	65	5055
2026-01-20 04:40:44.29	34.87	14.43	-47.7	-49.8	16.8	0.00e+00	0	38	0	278921216	66	4749
2026-01-20 04:40:45.30	34.72	14.50	-47.5	-49.6	17.0	0.00e+00	0	38	0	281018368	66	4630
2026-01-20 04:40:46.31	34.57	14.57	-47.6	-49.8	16.9	0.00e+00	0	38	0	282066944	66	4732
2026-01-20 04:40:47.31	34.42	14.64	-47.7	-49.9	16.8	0.00e+00	0	38	0	284164096	66	4773
2026-01-20 04:40:48.32	34.26	14.72	-47.7	-49.9	16.8	0.00e+00	0	38	0	286261248	66	4791
2026-01-20 04:40:49.33	34.11	14.79	-47.8	-50.0	16.7	0.00e+00	0	38	0	288358400	66	4868
2026-01-20 04:40:50.34	33.95	14.86	-47.7	-49.9	16.7	0.00e+00	0	38	0	290455552	66	4808
2026-01-20 04:40:51.34	33.80	14.93	-47.8	-50.0	16.7	0.00e+00	0	38	0	291504128	66	4818
2026-01-20 04:40:52.35	33.64	15.01	-47.7	-49.9	16.8	0.00e+00	0	38	0	293601280	66	4789
2026-01-20 04:40:53.36	33.48	15.08	-47.5	-49.5	17.1	0.00e+00	0	38	0	295698432	66	4586
2026-01-20 04:40:54.37	33.32	15.15	-47.5	-49.5	17.2	0.00e+00	0	38	0	297795584	66	4570
2026-01-20 04:40:55.38	33.16	15.22	-47.5	-49.5	17.2	0.00e+00	0	38	0	299892736	66	4574
2026-01-20 04:40:56.39	33.00	15.30	-47.5	-49.5	17.2	0.00e+00	0	38	0	300941312	66	4577
2026-01-20 04:40:57.39	32.84	15.37	-47.6	-49.6	17.1	0.00e+00	0	38	0	303038464	66	4641
2026-01-20 04:40:58.40	32.68	15.44	-48.0	-50.2	16.5	0.00e+00	0	38	0	305135616	66	4964
2026-01-20 04:40:59.41	32.52	15.51	-48.0	-50.3	16.5	0.00e+00	0	38	0	307232768	66	4986
2026-01-20 04:41:00.42	32.35	15.59	-47.9	-50.2	16.6	0.00e+00	0	38	0	309329920	66	4941
2026-01-20 04:41:01.43	32.19	15.66	-48.0	-50.2	16.5	0.00e+00	0	38	0	310378496	66	4981
2026-01-20 04:41:02.44	32.02	15.73	-48.0	-50.3	16.5	0.00e+00	0	38	0	312475648	66	4985
2026-01-20 04:41:03.44	31.86	15.80	-48.0	-50.3	16.4	0.00e+00	0	38	0	314572800	66	5029
2026-01-20 04:41:04.45	31.69	15.87	-48.0	-50.2	16.5	0.00e+00	0	39	0	316669952	66	4978
2026-01-20 04:41:05.46	31.52	15.95	-48.0	-50.3	16.4	0.00e+00	0	38	0	318767104	66	5038
2026-01-20 04:41:06.47	31.35	16.02	-48.0	-50.3	16.5	0.00e+00	0	38	0	319815680	66	4993
2026-01-20 04:41:07.47	31.19	16.09	-48.0	-50.3	16.5	0.00e+00	0	39	0	321912832	66	5020
2026-01-20 04:41:08.48	31.02	16.16	-47.9	-50.1	16.7	0.00e+00	0	38	0	324009984	66	4890
2026-01-20 04:41:09.49	30.85	16.23	-47.7	-49.9	16.9	0.00e+00	0	38	0	326107136	66	4764
2026-01-20 04:41:10.50	30.67	16.31	-47.7	-49.8	16.9	0.00e+00	0	38	0	328204288	66	4734
2026-01-20 04:41:11.51	30.50	16.38	-47.6	-49.7	17.0	0.00e+00	0	39	0	329252864	66	4653
2026-01-20 04:41:12.51	30.33	16.45	-47.7	-49.8	17.0	0.00e+00	0	38	0	331350016	66	4721
2026-01-20 04:41:13.52	30.15	16.52	-47.6	-49.8	17.0	0.00e+00	0	38	0	333447168	66	4707
2026-01-20 04:41:14.53	29.98	16.59	-47.7	-49.9	16.9	0.00e+00	0	38	0	335544320	66	4774
2026-01-20 04:41:15.54	29.80	16.67	-47.7	-49.8	17.0	0.00e+00	0	38	0	337641472	66	4723
2026-01-20 04:41:16.55	29.63	16.74	-47.6	-49.7	17.0	0.00e+00	0	38	0	339738624	66	4694
2026-01-20 04:41:17.55	29.45	16.81	-47.7	-49.8	17.0	0.00e+00	0	38	0	340787200	66	4707
2026-01-20 04:41:18.56	29.27	16.88	-47.6	-49.7	17.1	0.00e+00	0	38	0	342884352	66	4665
2026-01-20 04:41:19.57	29.09	16.95	-47.6	-49.7	17.1	0.00e+00	0	38	0	344981504	66	4661
2026-01-20 04:41:20.58	28.91	17.02	-47.5	-49.5	17.3	0.00e+00	0	38	0	347078656	66	4565
2026-01-20 04:41:21.59	28.73	17.09	-47.6	-49.7	17.0	0.00e+00	0	38	0	348127232	66	4691
2026-01-20 04:41:22.60	28.55	17.17	-47.6	-49.7	17.1	0.00e+00	0	39	0	350224384	66	4664
2026-01-20 04:41:23.61	28.36	17.24	-47.5	-49.6	17.2	0.00e+00	0	38	0	352321536	66	4600
2026-01-20 04:41:24.61	28.18	17.31	-47.6	-49.7	17.2	0.00e+00	0	38	0	354418688	66	4654
2026-01-20 04:41:25.62	28.00	17.38	-47.8	-49.9	16.9	0.00e+00	0	38	0	356515840	66	4798
2026-01-20 04:41:26.63	27.81	17.45	-47.6	-49.7	17.0	0.00e+00	0	38	0	357564416	66	4703
2026-01-20 04:41:27.64	27.62	17.52	-47.7	-49.8	17.0	0.00e+00	0	38	0	359661568	66	4742
2026-01-20 04:41:28.65	27.44	17.59	-48.1	-50.4	16.4	0.00e+00	0	38	0	361758720	66	5074
2026-01-20 04:41:29.65	27.25	17.66	-48.2	-50.5	16.3	0.00e+00	0	38	0	363855872	66	5137
2026-01-20 04:41:30.66	27.06	17.73	-48.1	-50.4	16.4	0.00e+00	0	38	0	365953024	67	4807
2026-01-20 04:41:31.67	26.87	17.80	-47.9	-50.1	16.7	0.00e+00	0	38	0	368050176	67	4634
2026-01-20 04:41:32.67	26.68	17.87	-47.5	-49.5	17.3	0.00e+00	0	38	0	369098752	66	4560
2026-01-20 04:41:33.68	26.49	17.94	-47.5	-49.5	17.3	0.00e+00	0	38	0	371195904	66	4598
2026-01-20 04:41:34.69	26.30	18.01	-47.4	-49.4	17.4	0.00e+00	0	38	0	373293056	66	4515
2026-01-20 04:41:35.69	26.11	18.08	-47.7	-49.7	17.1	0.00e+00	0	38	0	375390208	66	4701
2026-01-20 04:41:36.70	25.91	18.15	-47.2	-49.1	17.7	0.00e+00	0	39	0	376438784	66	4370
2026-01-20 04:41:37.71	25.72	18.22	-47.2	-49.0	17.7	0.00e+00	0	39	0	378535936	66	4331
2026-01-20 04:41:38.72	25.52	18.29	-47.2	-49.1	17.7	0.00e+00	0	38	0	380633088	66	4375
2026-01-20 04:41:39.73	25.32	18.36	-47.2	-49.2	17.8	0.00e+00	0	38	0	382730240	66	4393
2026-01-20 04:41:40.73	25.13	18.42	-47.2	-49.2	17.7	0.00e+00	0	39	0	384827392	66	4403
2026-01-20 04:41:41.74	24.93	18.49	-47.1	-49.0	17.8	0.00e+00	0	38	0	386924544	66	4317
2026-01-20 04:41:42.75	24.73	18.56	-47.3	-49.3	17.5	0.00e+00	0	38	0	387973120	66	4475
2026-01-20 04:41:43.76	24.52	18.63	-47.2	-49.2	17.7	0.00e+00	0	38	0	390070272	66	4422
2026-01-20 04:41:44.77	24.32	18.70	-47.0	-48.9	17.9	0.00e+00	0	38	0	392167424	66	4267
2026-01-20 04:41:45.77	24.12	18.77	-46.7	-48.6	18.2	0.00e+00	0	38	0	394264576	65	4353
2026-01-20 04:41:46.78	23.92	18.83	-46.3	-48.1	18.7	0.00e+00	0	38	0	396361728	64	4365
2026-01-20 04:41:47.79	23.71	18.90	-46.4	-48.1	18.6	0.00e+00	0	39	0	397410304	64	4380
2026-01-20 04:41:48.80	23.51	18.97	-46.3	-48.0	18.7	0.00e+00	0	38	0	399507456	64	4315
2026-01-20 04:41:49.81	23.30	19.04	-46.2	-47.9	18.8	0.00e+00	0	39	0	401604608	64	4291
2026-01-20 04:41:50.81	23.10	19.10	-46.2	-47.9	18.8	0.00e+00	0	38	0	403701760	64	4266
2026-01-20 04:41:51.82	22.89	19.17	-46.2	-47.8	18.9	0.00e+00	0	38	0	404750336	64	4229
2026-01-20 04:41:52.83	22.68	19.24	-46.1	-47.8	18.9	0.00e+00	0	38	0	406847488	64	4217
2026-01-20 04:41:53.84	22.47	19.30	-46.2	-47.8	18.9	0.00e+00	0	38	0	408944640	64	4227
2026-01-20 04:41:54.84	22.26	19.37	-46.3	-48.0	18.8	0.00e+00	0	38	0	411041792	64	4295
2026-01-20 04:41:55.85	22.05	19.43	-46.5	-48.2	18.5	0.00e+00	0	38	0	413138944	64	4422
2026-01-20 04:41:56.86	21.83	19.50	-46.4	-48.1	18.6	0.00e+00	0	39	0	415236096	64	4390
2026-01-20 04:41:57.87	21.62	19.56	-46.2	-47.9	18.9	0.00e+00	0	38	0	416284672	64	4264
2026-01-20 04:41:58.87	21.41	19.63	-46.2	-47.9	18.9	0.00e+00	0	38	0	418381824	64	4256
2026-01-20 04:41:59.88	21.19	19.69	-46.4	-48.1	18.7	0.00e+00	0	38	0	420478976	64	4344
2026-01-20 04:42:00.89	20.98	19.76	-46.0	-47.6	19.2	0.00e+00	0	38	0	422576128	64	4107
2026-01-20 04:42:01.89	20.76	19.82	-45.9	-47.4	19.4	0.00e+00	0	38	0	424673280	63	4290
2026-01-20 04:42:02.90	20.54	19.89	-45.9	-47.5	19.3	0.00e+00	0	38	0	425721856	63	4312
2026-01-20 04:42:03.91	20.32	19.95	-45.9	-47.5	19.3	0.00e+00	0	38	0	427819008	63	4302
2026-01-20 04:42:04.92	20.10	20.01	-46.1	-47.7	19.2	0.00e+00	0	39	0	429916160	63	4421
2026-01-20 04:42:05.93	19.88	20.08	-46.1	-47.7	19.2	0.00e+00	0	38	0	432013312	63	4399
2026-01-20 04:42:06.93	19.66	20.14	-46.2	-47.8	19.0	0.00e+00	0	38	0	433061888	63	4466
2026-01-20 04:42:07.94	19.44	20.20	-46.1	-47.7	19.1	0.00e+00	0	39	0	435159040	63	4438
2026-01-20 04:42:08.95	19.21	20.26	-46.2	-47.8	19.0	0.00e+00	0	38	0	437256192	63	4459
2026-01-20 04:42:09.96	18.99	20.33	-46.1	-47.7	19.1	0.00e+00	0	38	0	439353344	63	4424
2026-01-20 04:42:10.97	18.76	20.39	-46.1	-47.7	19.2	0.00e+00	0	38	0	441450496	63	4409
2026-01-20 04:42:11.97	18.54	20.45	-46.1	-47.8	19.1	0.00e+00	0	38	0	443547648	63	4460
2026-01-20 04:42:12.98	18.31	20.51	-45.9	-47.5	19.3	0.00e+00	0	38	0	444596224	63	4331
2026-01-20 04:42:13.99	18.08	20.57	-46.0	-47.5	19.3	0.00e+00	0	38	0	446693376	63	4331
2026-01-20 04:42:15.00	17.85	20.63	-45.8	-47.3	19.5	0.00e+00	0	38	0	448790528	63	4205
2026-01-20 04:42:16.00	17.62	20.69	-45.7	-47.2	19.6	0.00e+00	0	38	0	450887680	63	4158
2026-01-20 04:42:17.01	17.39	20.75	-45.7	-47.2	19.7	0.00e+00	0	38	0	452984832	63	4146
2026-01-20 04:42:18.02	17.16	20.81	-45.6	-47.0	19.8	0.00e+00	0	38	0	454033408	63	4092
2026-01-20 04:42:19.03	16.93	20.87	-45.7	-47.1	19.7	0.00e+00	0	38	0	456130560	63	4139
2026-01-20 04:42:20.03	16.70	20.93	-45.5	-47.0	19.9	0.00e+00	0	38	0	458227712	63	4056
2026-01-20 04:42:21.04	16.46	20.99	-45.6	-47.1	19.8	0.00e+00	0	38	0	460324864	63	4110
2026-01-20 04:42:22.05	16.22	21.04	-45.5	-47.0	19.9	0.00e+00	0	38	0	462422016	62	4293
2026-01-20 04:42:23.06	15.99	21.10	-45.8	-47.2	19.6	0.00e+00	0	38	0	463470592	62	4436
2026-01-20 04:42:24.06	15.75	21.16	-45.4	-46.8	20.0	0.00e+00	0	38	0	465567744	62	4208
2026-01-20 04:42:25.07	15.51	21.21	-45.4	-46.8	20.1	0.00e+00	0	38	0	467664896	62	4198
2026-01-20 04:42:26.08	15.27	21.27	-45.3	-46.7	20.1	0.00e+00	0	38	0	469762048	62	4165
2026-01-20 04:42:27.09	15.03	21.33	-45.2	-46.6	20.2	0.00e+00	0	39	0	471859200	62	4126
2026-01-20 04:42:28.09	14.80	21.38	-45.4	-46.8	20.0	0.00e+00	0	39	0	472907776	62	4209
2026-01-20 04:42:29.10	14.55	21.44	-45.4	-46.8	20.0	0.00e+00	0	39	0	475004928	62	4225
2026-01-20 04:42:30.11	14.31	21.49	-45.4	-46.8	20.0	0.00e+00	0	39	0	477102080	62	4232
2026-01-20 04:42:31.12	14.07	21.55	-45.4	-46.7	20.1	0.00e+00	0	38	0	479199232	62	4192
2026-01-20 04:42:32.12	13.82	21.60	-45.3	-46.7	20.1	0.00e+00	0	38	0	481296384	62	4182
2026-01-20 04:42:33.13	13.58	21.65	-45.2	-46.6	20.2	0.00e+00	0	38	0	482344960	62	4118
2026-01-20 04:42:34.14	13.33	21.70	-45.4	-46.8	20.0	0.00e+00	0	39	0	484442112	62	4236
2026-01-20 04:42:35.15	13.09	21.76	-45.7	-47.2	19.7	0.00e+00	0	38	0	486539264	62	4399
2026-01-20 04:42:36.15	12.84	21.81	-45.7	-47.2	19.7	0.00e+00	0	39	0	488636416	62	4426
2026-01-20 04:42:37.16	12.59	21.86	-45.7	-47.2	19.7	0.00e+00	0	38	0	490733568	62	4396
2026-01-20 04:42:38.17	12.34	21.91	-45.7	-47.1	19.8	0.00e+00	0	38	0	491782144	62	4374
2026-01-20 04:42:39.18	12.09	21.96	-45.7	-47.1	19.8	0.00e+00	0	38	0	493879296	62	4368
2026-01-20 04:42:40.18	11.84	22.01	-45.7	-47.2	19.7	0.00e+00	0	39	0	495976448	62	4410
2026-01-20 04:42:41.19	11.59	22.06	-46.0	-47.5	19.4	0.00e+00	0	38	0	498073600	62	4560
2026-01-20 04:42:42.20	11.34	22.11	-45.8	-47.3	19.6	0.00e+00	0	39	0	500170752	62	4474
2026-01-20 04:42:43.21	11.08	22.16	-45.7	-47.2	19.7	0.00e+00	0	38	0	501219328	62	4407
2026-01-20 04:42:44.22	10.83	22.21	-45.5	-46.9	20.0	0.00e+00	0	39	0	503316480	62	4265
2026-01-20 04:42:45.22	10.58	22.25	-45.6	-47.0	19.9	0.00e+00	0	39	0	505413632	62	4311
2026-01-20 04:42:46.23	10.32	22.30	-45.5	-46.9	19.9	0.00e+00	0	39	0	507510784	62	4291
2026-01-20 04:42:47.24	10.06	22.35	-45.7	-47.2	19.7	0.00e+00	0	38	0	509607936	62	4423
2026-01-20 04:42:48.25	9.81	22.39	-45.8	-47.3	19.6	0.00e+00	0	39	0	511705088	62	4472
2026-01-20 04:42:49.25	9.55	22.44	-45.7	-47.1	19.8	0.00e+00	0	39	0	512753664	62	4368
2026-01-20 04:42:50.26	9.29	22.48	-45.7	-47.2	19.7	0.00e+00	0	38	0	514850816	62	4400
2026-01-20 04:42:51.27	9.03	22.53	-45.5	-46.9	20.0	0.00e+00	0	39	0	516947968	62	4253
2026-01-20 04:42:52.27	8.77	22.57	-45.3	-46.7	20.1	0.00e+00	0	39	0	519045120	62	4176
2026-01-20 04:42:53.28	8.51	22.61	-45.4	-46.7	20.1	0.00e+00	0	39	0	520093696	62	4187
2026-01-20 04:42:54.29	8.25	22.66	-45.5	-46.9	20.0	0.00e+00	0	38	0	522190848	62	4254
2026-01-20 04:42:55.30	7.99	22.70	-45.5	-46.8	20.0	0.00e+00	0	39	0	524288000	62	4241
2026-01-20 04:42:56.31	7.72	22.74	-45.5	-46.9	20.0	0.00e+00	0	39	0	526385152	62	4275
2026-01-20 04:42:57.31	7.46	22.78	-45.3	-46.6	20.3	0.00e+00	0	38	0	528482304	62	4111
2026-01-20 04:42:58.32	7.20	22.82	-45.4	-46.8	20.2	0.00e+00	0	38	0	529530880	62	4203
2026-01-20 04:42:59.33	6.93	22.86	-45.1	-46.5	20.4	0.00e+00	0	39	0	531628032	62	4052
2026-01-20 04:43:00.34	6.66	22.90	-45.4	-46.7	20.2	0.00e+00	0	39	0	533725184	62	4184
2026-01-20 04:43:01.34	6.40	22.94	-45.6	-47.1	19.8	0.00e+00	0	38	0	535822336	62	4348
2026-01-20 04:43:02.35	6.13	22.98	-45.6	-47.0	19.9	0.00e+00	0	38	0	537919488	62	4340
2026-01-20 04:43:03.36	5.86	23.01	-45.8	-47.3	19.7	0.00e+00	0	38	0	540016640	62	4452
2026-01-20 04:43:04.37	5.60	23.05	-45.9	-47.4	19.5	0.00e+00	0	38	0	541065216	62	4501
2026-01-20 04:43:05.37	5.33	23.08	-46.0	-47.5	19.4	0.00e+00	0	39	0	543162368	62	4592
2026-01-20 04:43:06.38	5.06	23.12	-46.4	-48.0	19.0	0.00e+00	0	38	0	545259520	63	4556
2026-01-20 04:43:07.39	4.79	23.15	-46.8	-48.6	18.3	0.00e+00	0	38	0	547356672	64	4599
2026-01-20 04:43:08.40	4.52	23.19	-47.1	-48.9	18.1	0.00e+00	0	38	0	548405248	64	4788
2026-01-20 04:43:09.41	4.24	23.22	-47.3	-49.3	17.7	0.00e+00	0	38	0	550502400	65	4733
2026-01-20 04:43:10.41	3.97	23.25	-47.3	-49.2	17.7	0.00e+00	0	38	0	552599552	65	4676
2026-01-20 04:43:11.42	3.70	23.29	-47.2	-49.0	17.9	0.00e+00	0	38	0	554696704	65	4585
2026-01-20 04:43:12.43	3.43	23.32	-47.2	-49.1	17.9	0.00e+00	0	38	0	556793856	65	4601
2026-01-20 04:43:13.44	3.15	23.35	-47.2	-49.0	17.9	0.00e+00	0	39	0	558891008	65	4591
2026-01-20 04:43:14.45	2.88	23.38	-47.1	-48.9	18.0	0.00e+00	0	39	0	559939584	65	4537
2026-01-20 04:43:15.45	2.61	23.41	-46.8	-48.5	18.4	0.00e+00	0	39	0	562036736	65	4339
2026-01-20 04:43:16.46	2.33	23.44	-46.6	-48.3	18.6	0.00e+00	0	38	0	564133888	65	4222
2026-01-20 04:43:17.47	2.05	23.46	-46.3	-47.9	19.0	0.00e+00	0	39	0	566231040	64	4257
2026-01-20 04:43:18.48	1.78	23.49	-46.3	-47.9	19.0	0.00e+00	0	38	0	568328192	64	4275
2026-01-20 04:43:19.49	1.50	23.52	-46.5	-48.1	18.8	0.00e+00	0	38	0	569376768	64	4378
2026-01-20 04:43:20.49	1.23	23.54	-46.6	-48.3	18.6	0.00e+00	0	38	0	571473920	64	4475
2026-01-20 04:43:21.50	0.95	23.57	-46.6	-48.3	18.6	0.00e+00	0	38	0	573571072	64	4466
2026-01-20 04:43:22.51	0.67	23.59	-46.6	-48.3	18.6	0.00e+00	0	39	0	575668224	64	4466
2026-01-20 04:43:23.52	0.39	23.62	-46.5	-48.2	18.7	0.00e+00	0	39	0	576716800	64	4409
2026-01-20 04:43:24.53	0.11	23.64	-46.5	-48.1	18.7	0.00e+00	0	38	0	578813952	64	4377
2026-01-20 04:43:25.54	359.83	23.66	-46.6	-48.3	18.6	0.00e+00	0	38	0	580911104	64	4449
2026-01-20 04:43:26.54	359.55	23.68	-46.9	-48.7	18.2	0.00e+00	0	39	0	583008256	64	4686
2026-01-20 04:43:27.55	359.27	23.71	-47.2	-49.2	17.8	0.00e+00	0	38	0	585105408	65	4655
2026-01-20 04:43:28.56	358.99	23.73	-47.2	-49.1	17.8	0.00e+00	0	38	0	587202560	65	4637
2026-01-20 04:43:29.57	358.71	23.75	-47.2	-49.1	17.9	0.00e+00	0	39	0	588251136	65	4618
2026-01-20 04:43:30.57	358.43	23.76	-46.9	-48.7	18.2	0.00e+00	0	38	0	590348288	65	4410
2026-01-20 04:43:31.58	358.15	23.78	-47.1	-48.9	18.1	0.00e+00	0	38	0	592445440	65	4510
2026-01-20 04:43:32.59	357.87	23.80	-47.1	-49.0	18.0	0.00e+00	0	38	0	594542592	65	4555
2026-01-20 04:43:33.60	357.58	23.82	-47.5	-49.6	17.4	0.00e+00	0	38	0	596639744	65	4883
2026-01-20 04:43:34.61	357.30	23.83	-47.6	-49.7	17.3	0.00e+00	0	38	0	597688320	65	4964
2026-01-20 04:43:35.61	357.02	23.85	-47.6	-49.6	17.4	0.00e+00	0	38	0	599785472	66	4648
2026-01-20 04:43:36.62	356.74	23.86	-47.5	-49.6	17.3	0.00e+00	0	38	0	601882624	66	4630
2026-01-20 04:43:37.63	356.45	23.87	-47.3	-49.3	17.7	0.00e+00	0	38	0	603979776	66	4445
2026-01-20 04:43:38.64	356.17	23.89	-47.0	-48.8	18.1	0.00e+00	0	39	0	606076928	66	4242
2026-01-20 04:43:39.65	355.88	23.90	-47.0	-48.8	18.1	0.00e+00	0	38	0	607125504	65	4465
2026-01-20 04:43:40.66	355.60	23.91	-47.3	-49.3	17.7	0.00e+00	0	38	0	609222656	65	4720
2026-01-20 04:43:41.66	355.32	23.92	-47.8	-50.0	17.0	0.00e+00	0	38	0	611319808	66	4825
2026-01-20 04:43:42.67	355.03	23.93	-48.2	-50.5	16.5	0.00e+00	0	39	0	613416960	66	5140
2026-01-20 04:43:43.68	354.75	23.94	-48.1	-50.4	16.7	0.00e+00	0	39	0	615514112	67	4767
2026-01-20 04:43:44.69	354.46	23.95	-47.9	-50.2	16.9	0.00e+00	0	39	0	616562688	67	4654
2026-01-20 04:43:45.70	354.18	23.96	-47.7	-49.9	17.1	0.00e+00	0	39	0	618659840	67	4495
2026-01-20 04:43:46.70	353.89	23.96	-47.8	-50.0	17.0	0.00e+00	0	39	0	620756992	67	4571
2026-01-20 04:43:47.71	353.61	23.97	-47.6	-49.7	17.2	0.00e+00	0	38	0	622854144	66	4703
2026-01-20 04:43:48.72	353.32	23.97	-47.5	-49.5	17.5	0.00e+00	0	38	0	624951296	66	4564
2026-01-20 04:43:49.73	353.04	23.98	-47.2	-49.1	17.8	0.00e+00	0	39	0	625999872	66	4360
2026-01-20 04:43:50.73	352.75	23.98	-46.9	-48.7	18.2	0.00e+00	0	38	0	628097024	65	4433
2026-01-20 04:43:51.74	352.47	23.98	-46.7	-48.4	18.5	0.00e+00	0	39	0	630194176	65	4290
2026-01-20 04:43:52.75	352.18	23.99	-46.5	-48.2	18.7	0.00e+00	0	38	0	632291328	64	4415
2026-01-20 04:43:53.76	351.90	23.99	-46.4	-48.0	18.9	0.00e+00	0	38	0	634388480	64	4326
2026-01-20 04:43:54.76	351.61	23.99	-46.5	-48.3	18.6	0.00e+00	0	39	0	635437056	64	4456
2026-01-20 04:43:55.77	351.33	23.99	-46.9	-48.7	18.2	0.00e+00	0	39	0	637534208	64	4692
2026-01-20 04:43:56.78	351.04	23.99	-47.2	-49.1	17.8	0.00e+00	0	38	0	639631360	64	4898
2026-01-20 04:43:57.79	350.76	23.98	-47.3	-49.4	17.5	0.00e+00	0	38	0	641728512	65	4763
2026-01-20 04:43:58.80	350.47	23.98	-47.3	-49.3	17.6	0.00e+00	0	38	0	643825664	65	4729
2026-01-20 04:43:59.80	350.19	23.98	-47.3	-49.2	17.7	0.00e+00	0	38	0	644874240	65	4678
2026-01-20 04:44:00.81	349.90	23.97	-46.9	-48.7	18.2	0.00e+00	0	38	0	646971392	65	4396
2026-01-20 04:44:01.82	349.61	23.97	-46.8	-48.5	18.4	0.00e+00	0	38	0	649068544	65	4318
2026-01-20 04:44:02.83	349.33	23.96	-46.4	-48.1	18.8	0.00e+00	0	38	0	651165696	64	4356
2026-01-20 04:44:03.83	349.05	23.96	-46.5	-48.2	18.7	0.00e+00	0	38	0	653262848	64	4413
2026-01-20 04:44:04.84	348.76	23.95	-46.6	-48.3	18.7	0.00e+00	0	38	0	654311424	64	4487
2026-01-20 04:44:05.85	348.48	23.94	-46.5	-48.2	18.7	0.00e+00	0	38	0	656408576	64	4402
2026-01-20 04:44:06.86	348.19	23.93	-46.5	-48.1	18.8	0.00e+00	0	38	0	658505728	64	4369
2026-01-20 04:44:07.87	347.91	23.92	-46.6	-48.3	18.6	0.00e+00	0	38	0	660602880	64	4460
2026-01-20 04:44:08.87	347.62	23.91	-46.3	-47.8	19.0	0.00e+00	0	39	0	662700032	64	4231
2026-01-20 04:44:09.88	347.34	23.90	-46.0	-47.5	19.3	0.00e+00	0	38	0	663748608	64	4065
2026-01-20 04:44:10.89	347.06	23.89	-45.8	-47.2	19.7	0.00e+00	0	39	0	665845760	63	4185
2026-01-20 04:44:11.89	346.77	23.88	-45.9	-47.4	19.6	0.00e+00	0	38	0	667942912	63	4245
2026-01-20 04:44:12.90	346.49	23.87	-45.9	-47.3	19.6	0.00e+00	0	38	0	670040064	63	4241
2026-01-20 04:44:13.91	346.21	23.85	-46.3	-47.8	19.1	0.00e+00	0	38	0	672137216	63	4478
2026-01-20 04:44:14.92	345.92	23.84	-46.5	-48.1	18.9	0.00e+00	0	38	0	673185792	63	4617
2026-01-20 04:44:15.93	345.64	23.82	-46.5	-48.1	18.9	0.00e+00	0	38	0	675282944	63	4627
2026-01-20 04:44:16.94	345.36	23.80	-46.2	-47.7	19.3	0.00e+00	0	38	0	677380096	63	4406
2026-01-20 04:44:17.94	345.08	23.79	-45.8	-47.2	19.7	0.00e+00	0	38	0	679477248	63	4184
2026-01-20 04:44:18.95	344.79	23.77	-45.8	-47.2	19.8	0.00e+00	0	38	0	681574400	63	4151
2026-01-20 04:44:19.96	344.51	23.75	-45.6	-47.0	19.9	0.00e+00	0	38	0	682622976	63	4092
2026-01-20 04:44:20.97	344.23	23.73	-45.8	-47.3	19.8	0.00e+00	0	39	0	684720128	63	4201
2026-01-20 04:44:21.97	343.95	23.71	-45.7	-47.1	19.8	0.00e+00	0	39	0	686817280	63	4142
2026-01-20 04:44:22.98	343.67	23.69	-45.7	-47.0	19.9	0.00e+00	0	38	0	688914432	63	4090
2026-01-20 04:44:23.99	343.39	23.67	-45.3	-46.7	20.3	0.00e+00	0	39	0	691011584	62	4146
2026-01-20 04:44:25.00	343.11	23.65	-45.4	-46.7	20.2	0.00e+00	0	39	0	692060160	62	4162
2026-01-20 04:44:26.01	342.83	23.62	-45.4	-46.7	20.0	0.00e+00	0	38	0	694157312	62	4166
2026-01-20 04:44:27.01	342.56	23.60	-45.4	-46.8	20.2	0.00e+00	0	38	0	696254464	62	4203
2026-01-20 04:44:28.02	342.28	23.58	-45.5	-46.9	20.0	0.00e+00	0	38	0	698351616	62	4256
2026-01-20 04:44:29.03	342.00	23.55	-45.4	-46.8	20.1	0.00e+00	0	38	0	700448768	62	4205
2026-01-20 04:44:30.04	341.72	23.53	-45.2	-46.5	20.4	0.00e+00	0	38	0	702545920	62	4065
2026-01-20 04:44:31.05	341.44	23.50	-45.2	-46.5	20.4	0.00e+00	0	38	0	703594496	62	4098
2026-01-20 04:44:32.05	341.17	23.47	-45.4	-46.7	20.2	0.00e+00	0	38	0	705691648	62	4183
2026-01-20 04:44:33.06	340.89	23.45	-45.6	-47.0	19.9	0.00e+00	0	38	0	707788800	62	4333
2026-01-20 04:44:34.07	340.62	23.42	-45.8	-47.2	19.8	0.00e+00	0	39	0	709885952	62	4433
2026-01-20 04:44:35.08	340.34	23.39	-45.9	-47.3	19.7	0.00e+00	0	38	0	710934528	62	4477
2026-01-20 04:44:36.09	340.07	23.36	-46.1	-47.5	19.5	0.00e+00	0	38	0	713031680	62	4595
2026-01-20 04:44:37.09	339.79	23.33	-45.9	-47.4	19.6	0.00e+00	0	39	0	715128832	62	4510
2026-01-20 04:44:38.10	339.52	23.30	-46.1	-47.6	19.3	0.00e+00	0	38	0	717225984	62	4641
2026-01-20 04:44:39.11	339.25	23.26	-46.1	-47.5	19.5	0.00e+00	0	39	0	719323136	62	4593
2026-01-20 04:44:40.12	338.97	23.23	-45.9	-47.3	19.7	0.00e+00	0	38	0	720371712	62	4487
2026-01-20 04:44:41.12	338.71	23.20	-45.5	-46.9	20.0	0.00e+00	0	39	0	722468864	62	4255
2026-01-20 04:44:42.13	338.43	23.17	-45.7	-47.1	19.8	0.00e+00	0	38	0	724566016	62	4379
2026-01-20 04:44:43.14	338.16	23.13	-45.9	-47.3	19.6	0.00e+00	0	39	0	726663168	62	4476
2026-01-20 04:44:44.15	337.89	23.10	-46.1	-47.6	19.4	0.00e+00	0	38	0	728760320	62	4625
2026-01-20 04:44:45.16	337.62	23.06	-46.4	-47.9	19.0	0.00e+00	0	38	0	730857472	63	4532
2026-01-20 04:44:46.17	337.35	23.02	-46.2	-47.7	19.3	0.00e+00	0	39	0	731906048	63	4398
2026-01-20 04:44:47.17	337.09	22.99	-46.1	-47.5	19.4	0.00e+00	0	38	0	734003200	63	4331
2026-01-20 04:44:48.18	336.82	22.95	-45.8	-47.2	19.8	0.00e+00	0	38	0	736100352	63	4170
2026-01-20 04:44:49.19	336.55	22.91	-46.0	-47.5	19.5	0.00e+00	0	38	0	738197504	63	4315
2026-01-20 04:44:50.20	336.29	22.87	-46.1	-47.6	19.4	0.00e+00	0	38	0	739246080	63	4342
2026-01-20 04:44:51.20	336.02	22.83	-46.1	-47.6	19.4	0.00e+00	0	38	0	741343232	63	4342
2026-01-20 04:44:52.21	335.76	22.79	-46.2	-47.7	19.3	0.00e+00	0	38	0	743440384	63	4436
2026-01-20 04:44:53.22	335.49	22.75	-46.5	-48.1	18.9	0.00e+00	0	39	0	745537536	63	4611
2026-01-20 04:44:54.23	335.23	22.71	-46.3	-47.9	19.1	0.00e+00	0	38	0	747634688	63	4506
2026-01-20 04:44:55.24	334.97	22.67	-46.4	-48.0	19.0	0.00e+00	0	38	0	749731840	63	4585
2026-01-20 04:44:56.25	334.70	22.63	-46.4	-48.0	19.0	0.00e+00	0	38	0	750780416	63	4551
2026-01-20 04:44:57.25	334.45	22.58	-46.4	-48.0	18.9	0.00e+00	0	38	0	752877568	63	4589
2026-01-20 04:44:58.26	334.18	22.54	-46.5	-48.1	18.9	0.00e+00	0	38	0	754974720	63	4645
2026-01-20 04:44:59.27	333.92	22.50	-46.8	-48.5	18.4	0.00e+00	0	39	0	757071872	64	4580
2026-01-20 04:45:00.27	333.67	22.45	-47.0	-48.8	18.1	0.00e+00	0	39	0	759169024	64	4758
2026-01-20 04:45:01.28	333.41	22.41	-46.9	-48.7	18.2	0.00e+00	0	39	0	760217600	64	4676
2026-01-20 04:45:02.29	333.15	22.36	-47.2	-49.1	17.8	0.00e+00	0	38	0	762314752	64	4902
2026-01-20 04:45:03.30	332.89	22.31	-47.1	-49.0	17.9	0.00e+00	0	39	0	764411904	64	4824
2026-01-20 04:45:04.31	332.64	22.27	-47.2	-49.1	17.8	0.00e+00	0	38	0	766509056	65	4607
2026-01-20 04:45:05.31	332.38	22.22	-47.2	-49.1	17.8	0.00e+00	0	39	0	767557632	65	4633
2026-01-20 04:45:06.32	332.13	22.17	-47.2	-49.1	17.8	0.00e+00	0	39	0	769654784	65	4639
2026-01-20 04:45:07.33	331.88	22.12	-47.1	-48.9	17.9	0.00e+00	0	38	0	771751936	65	4541
2026-01-20 04:45:08.34	331.62	22.08	-47.0	-48.8	18.1	0.00e+00	0	39	0	773849088	65	4458
2026-01-20 04:45:09.35	331.37	22.03	-47.1	-49.0	17.9	0.00e+00	0	39	0	775946240	65	4570
2026-01-20 04:45:10.35	331.12	21.98	-47.2	-49.1	17.8	0.00e+00	0	39	0	778043392	65	4602
2026-01-20 04:45:11.36	330.87	21.93	-47.1	-49.0	17.8	0.00e+00	0	38	0	779091968	65	4574
2026-01-20 04:45:12.37	330.62	21.88	-46.8	-48.6	18.3	0.00e+00	0	38	0	781189120	65	4346
2026-01-20 04:45:13.37	330.37	21.82	-46.9	-48.7	18.2	0.00e+00	0	38	0	783286272	65	4402
2026-01-20 04:45:14.38	330.13	21.77	-46.5	-48.1	18.7	0.00e+00	0	38	0	785383424	65	4123
2026-01-20 04:45:15.39	329.88	21.72	-46.7	-48.4	18.5	0.00e+00	0	39	0	787480576	64	4495
2026-01-20 04:45:16.40	329.63	21.67	-46.6	-48.2	18.6	0.00e+00	0	39	0	788529152	64	4432
2026-01-20 04:45:17.41	329.39	21.61	-46.6	-48.3	18.5	0.00e+00	0	38	0	790626304	64	4486
2026-01-20 04:45:18.41	329.14	21.56	-46.7	-48.4	18.5	0.00e+00	0	38	0	792723456	64	4515
2026-01-20 04:45:19.42	328.90	21.51	-46.6	-48.3	18.6	0.00e+00	0	39	0	794820608	64	4458
2026-01-20 04:45:20.43	328.66	21.45	-46.6	-48.2	18.6	0.00e+00	0	38	0	795869184	64	4441
2026-01-20 04:45:21.44	328.41	21.40	-46.7	-48.5	18.4	0.00e+00	0	38	0	797966336	64	4546
2026-01-20 04:45:22.45	328.17	21.34	-47.1	-49.0	17.9	0.00e+00	0	38	0	800063488	64	4833
2026-01-20 04:45:23.45	327.93	21.29	-47.5	-49.6	17.3	0.00e+00	0	39	0	802160640	65	4880
2026-01-20 04:45:24.46	327.69	21.23	-47.7	-49.8	17.1	0.00e+00	0	38	0	804257792	65	4995
2026-01-20 04:45:25.47	327.46	21.17	-47.6	-49.7	17.2	0.00e+00	0	38	0	806354944	66	4662
2026-01-20 04:45:26.48	327.22	21.12	-47.6	-49.7	17.2	0.00e+00	0	39	0	807403520	66	4668
2026-01-20 04:45:27.49	326.98	21.06	-47.4	-49.4	17.5	0.00e+00	0	38	0	809500672	66	4506
2026-01-20 04:45:28.50	326.74	21.00	-47.3	-49.2	17.7	0.00e+00	0	38	0	811597824	66	4404
2026-01-20 04:45:29.50	326.51	20.94	-47.1	-49.0	17.8	0.00e+00	0	39	0	813694976	66	4326
2026-01-20 04:45:30.51	326.28	20.89	-47.4	-49.4	17.4	0.00e+00	0	38	0	815792128	66	4521
2026-01-20 04:45:31.52	326.04	20.83	-47.4	-49.4	17.5	0.00e+00	0	38	0	816840704	66	4518
2026-01-20 04:45:32.53	325.81	20.77	-47.6	-49.8	17.1	0.00e+00	0	39	0	818937856	66	4724
2026-01-20 04:45:33.53	325.58	20.71	-48.0	-50.2	16.7	0.00e+00	0	38	0	821035008	66	4983
2026-01-20 04:45:34.54	325.35	20.65	-48.4	-51.0	15.9	0.00e+00	0	38	0	823132160	67	5112
2026-01-20 04:45:35.55	325.12	20.59	-48.2	-50.6	16.1	0.00e+00	0	39	0	825229312	67	4903
2026-01-20 04:45:36.56	324.89	20.53	-48.2	-50.6	16.3	0.00e+00	0	38	0	826277888	67	4899
2026-01-20 04:45:37.57	324.66	20.47	-47.8	-50.0	16.8	0.00e+00	0	38	0	828375040	67	4595
2026-01-20 04:45:38.57	324.44	20.41	-47.3	-49.3	17.5	0.00e+00	0	39	0	830472192	66	4478
2026-01-20 04:45:39.58	324.21	20.34	-47.1	-49.0	17.9	0.00e+00	0	39	0	832569344	66	4315
2026-01-20 04:45:40.59	323.99	20.28	-46.8	-48.6	18.2	0.00e+00	0	38	0	834666496	65	4369
2026-01-20 04:45:41.60	323.76	20.22	-46.8	-48.6	18.3	0.00e+00	0	38	0	835715072	65	4357
2026-01-20 04:45:42.60	323.54	20.16	-46.7	-48.5	18.4	0.00e+00	0	39	0	837812224	65	4293
2026-01-20 04:45:43.61	323.32	20.09	-46.7	-48.4	18.5	0.00e+00	0	39	0	839909376	65	4280
2026-01-20 04:45:44.62	323.10	20.03	-46.5	-48.2	18.6	0.00e+00	0	39	0	842006528	65	4171
2026-01-20 04:45:45.63	322.88	19.97	-46.7	-48.5	18.3	0.00e+00	0	39	0	844103680	64	4556
2026-01-20 04:45:46.64	322.66	19.90	-46.5	-48.2	18.6	0.00e+00	0	39	0	846200832	64	4403
2026-01-20 04:45:47.65	322.44	19.84	-46.6	-48.3	18.5	0.00e+00	0	38	0	847249408	64	4455
2026-01-20 04:45:48.66	322.22	19.78	-46.4	-48.1	18.7	0.00e+00	0	39	0	849346560	64	4368
2026-01-20 04:45:49.66	322.01	19.71	-46.2	-47.8	18.9	0.00e+00	0	38	0	851443712	64	4232
2026-01-20 04:45:50.67	321.79	19.65	-46.1	-47.7	19.1	0.00e+00	0	38	0	853540864	64	4159
2026-01-20 04:45:51.68	321.58	19.58	-46.3	-47.8	19.0	0.00e+00	0	38	0	854589440	63	4491
2026-01-20 04:45:52.69	321.36	19.52	-45.8	-47.2	19.5	0.00e+00	0	38	0	856686592	63	4185
2026-01-20 04:45:53.69	321.15	19.45	-45.7	-47.1	19.7	0.00e+00	0	38	0	858783744	63	4134
2026-01-20 04:45:54.70	320.94	19.39	-45.6	-47.0	19.7	0.00e+00	0	38	0	860880896	63	4083
2026-01-20 04:45:55.71	320.73	19.32	-45.4	-46.8	19.9	0.00e+00	0	38	0	862978048	62	4227
2026-01-20 04:45:56.72	320.52	19.25	-45.7	-47.1	19.6	0.00e+00	0	38	0	864026624	62	4390
2026-01-20 04:45:57.73	320.31	19.19	-45.8	-47.3	19.5	0.00e+00	0	38	0	866123776	62	4476
2026-01-20 04:45:58.73	320.10	19.12	-46.2	-47.8	19.0	0.00e+00	0	38	0	868220928	62	4706
2026-01-20 04:45:59.74	319.89	19.05	-46.5	-48.2	18.6	0.00e+00	0	38	0	870318080	63	4690
2026-01-20 04:46:00.75	319.68	18.99	-46.8	-48.6	18.2	0.00e+00	0	39	0	872415232	64	4624
2026-01-20 04:46:01.76	319.48	18.92	-47.2	-49.2	17.6	0.00e+00	0	39	0	874512384	64	4966
2026-01-20 04:46:02.77	319.27	18.85	-47.4	-49.4	17.4	0.00e+00	0	38	0	875560960	65	4814
2026-01-20 04:46:03.77	319.07	18.78	-47.3	-49.4	17.4	0.00e+00	0	38	0	877658112	65	4762
2026-01-20 04:46:04.78	318.87	18.72	-47.3	-49.3	17.5	0.00e+00	0	38	0	879755264	65	4728
2026-01-20 04:46:05.79	318.67	18.65	-47.3	-49.3	17.5	0.00e+00	0	39	0	881852416	65	4735
2026-01-20 04:46:06.80	318.47	18.58	-47.0	-48.9	17.8	0.00e+00	0	38	0	882900992	65	4544
2026-01-20 04:46:07.80	318.27	18.51	-46.9	-48.7	18.0	0.00e+00	0	39	0	884998144	65	4431
2026-01-20 04:46:08.82	318.07	18.44	-46.6	-48.4	18.3	0.00e+00	0	38	0	887095296	65	4252
2026-01-20 04:46:09.82	317.87	18.37	-46.4	-48.1	18.6	0.00e+00	0	38	0	889192448	64	4382
2026-01-20 04:46:10.83	317.67	18.31	-46.4	-48.1	18.6	0.00e+00	0	38	0	891289600	64	4371
2026-01-20 04:46:11.83	317.48	18.24	-46.3	-48.0	18.7	0.00e+00	0	38	0	892338176	64	4318
2026-01-20 04:46:12.84	317.28	18.17	-46.2	-47.8	18.8	0.00e+00	0	38	0	894435328	64	4209
2026-01-20 04:46:13.85	317.09	18.10	-46.2	-47.8	18.9	0.00e+00	0	38	0	896532480	64	4207
2026-01-20 04:46:14.86	316.89	18.03	-46.1	-47.6	19.1	0.00e+00	0	38	0	898629632	63	4388
2026-01-20 04:46:15.87	316.70	17.96	-46.2	-47.7	19.1	0.00e+00	0	38	0	900726784	63	4436
2026-01-20 04:46:16.87	316.51	17.89	-46.2	-47.8	19.0	0.00e+00	0	38	0	902823936	63	4486
2026-01-20 04:46:17.88	316.32	17.82	-46.5	-48.2	18.7	0.00e+00	0	38	0	903872512	63	4673
2026-01-20 04:46:18.89	316.13	17.75	-46.6	-48.4	18.4	0.00e+00	0	39	0	905969664	64	4503
2026-01-20 04:46:19.90	315.94	17.68	-46.7	-48.5	18.3	0.00e+00	0	39	0	908066816	64	4574
2026-01-20 04:46:20.91	315.75	17.61	-46.9	-48.7	18.0	0.00e+00	0	38	0	910163968	64	4690
2026-01-20 04:46:21.91	315.56	17.54	-46.9	-48.8	18.0	0.00e+00	0	39	0	911212544	64	4712
2026-01-20 04:46:22.92	315.38	17.47	-46.8	-48.5	18.2	0.00e+00	0	39	0	913309696	64	4596
2026-01-20 04:46:23.93	315.19	17.40	-46.7	-48.4	18.3	0.00e+00	0	38	0	915406848	64	4536
2026-01-20 04:46:24.94	315.00	17.33	-46.6	-48.3	18.4	0.00e+00	0	38	0	917504000	64	4486
2026-01-20 04:46:25.95	314.82	17.25	-46.8	-48.6	18.2	0.00e+00	0	39	0	919601152	64	4602
2026-01-20 04:46:26.95	314.64	17.18	-46.9	-48.7	18.1	0.00e+00	0	38	0	921698304	64	4675
2026-01-20 04:46:27.96	314.46	17.11	-47.2	-49.1	17.7	0.00e+00	0	39	0	922746880	64	4915
2026-01-20 04:46:28.97	314.27	17.04	-47.2	-49.2	17.6	0.00e+00	0	39	0	924844032	65	4658
2026-01-20 04:46:29.98	314.09	16.97	-47.0	-48.9	17.9	0.00e+00	0	39	0	926941184	65	4537
2026-01-20 04:46:30.99	313.91	16.90	-47.0	-48.9	17.9	0.00e+00	0	39	0	929038336	65	4520
2026-01-20 04:46:32.00	313.73	16.83	-46.9	-48.8	18.1	0.00e+00	0	39	0	931135488	65	4447
2026-01-20 04:46:33.00	313.56	16.76	-46.8	-48.6	18.1	0.00e+00	0	39	0	932184064	65	4386
2026-01-20 04:46:34.01	313.38	16.69	-46.7	-48.5	18.3	0.00e+00	0	39	0	934281216	65	4294
2026-01-20 04:46:35.02	313.20	16.61	-46.6	-48.4	18.4	0.00e+00	0	39	0	936378368	65	4255
2026-01-20 04:46:36.02	313.03	16.54	-46.6	-48.3	18.4	0.00e+00	0	39	0	938475520	65	4211
2026-01-20 04:46:37.03	312.86	16.47	-46.4	-48.1	18.7	0.00e+00	0	39	0	939524096	64	4353
2026-01-20 04:46:38.04	312.68	16.40	-46.2	-47.9	18.9	0.00e+00	0	39	0	941621248	64	4244
2026-01-20 04:46:39.04	312.51	16.33	-46.2	-47.8	18.9	0.00e+00	0	39	0	943718400	64	4214
2026-01-20 04:46:40.05	312.34	16.26	-46.1	-47.7	19.1	0.00e+00	0	39	0	945815552	63	4400
2026-01-20 04:46:41.06	312.17	16.18	-46.3	-47.9	18.9	0.00e+00	0	39	0	947912704	63	4522
2026-01-20 04:46:42.07	312.00	16.11	-46.5	-48.1	18.6	0.00e+00	0	39	0	950009856	63	4637
2026-01-20 04:46:43.08	311.83	16.04	-46.4	-48.1	18.8	0.00e+00	0	39	0	951058432	63	4606
2026-01-20 04:46:44.09	311.66	15.97	-46.4	-48.0	18.8	0.00e+00	0	39	0	953155584	63	4594
2026-01-20 04:46:45.09	311.49	15.89	-46.5	-48.1	18.7	0.00e+00	0	39	0	955252736	63	4647
2026-01-20 04:46:46.10	311.32	15.82	-46.3	-47.9	19.0	0.00e+00	0	38	0	957349888	63	4495
2026-01-20 04:46:47.11	311.16	15.75	-45.9	-47.4	19.4	0.00e+00	0	39	0	959447040	63	4265
2026-01-20 04:46:48.12	310.99	15.68	-45.6	-47.0	19.7	0.00e+00	0	39	0	960495616	63	4083
2026-01-20 04:46:49.13	310.83	15.61	-45.8	-47.2	19.6	0.00e+00	0	39	0	962592768	63	4171
2026-01-20 04:46:50.14	310.66	15.53	-45.3	-46.6	20.1	0.00e+00	0	39	0	964689920	62	4124
2026-01-20 04:46:51.15	310.50	15.46	-45.6	-47.0	19.8	0.00e+00	0	39	0	966787072	62	4293
2026-01-20 04:46:52.15	310.34	15.39	-45.6	-47.0	19.8	0.00e+00	0	39	0	968884224	62	4296
2026-01-20 04:46:53.16	310.18	15.32	-45.5	-46.9	19.9	0.00e+00	0	39	0	969932800	62	4261
2026-01-20 04:46:54.17	310.02	15.24	-45.7	-47.2	19.6	0.00e+00	0	39	0	972029952	62	4393
2026-01-20 04:46:55.18	309.86	15.17	-45.8	-47.2	19.6	0.00e+00	0	38	0	974127104	62	4420
2026-01-20 04:46:56.19	309.70	15.10	-45.7	-47.2	19.6	0.00e+00	0	39	0	976224256	62	4400
2026-01-20 04:46:57.20	309.54	15.03	-45.9	-47.4	19.4	0.00e+00	0	38	0	978321408	62	4537
2026-01-20 04:46:58.20	309.38	14.95	-46.1	-47.6	19.2	0.00e+00	0	39	0	979369984	62	4637
2026-01-20 04:46:59.21	309.23	14.88	-46.2	-47.8	19.1	0.00e+00	0	39	0	981467136	63	4447
2026-01-20 04:47:00.22	309.07	14.81	-46.1	-47.7	19.1	0.00e+00	0	39	0	983564288	63	4393
2026-01-20 04:47:01.22	308.92	14.74	-46.2	-47.7	19.1	0.00e+00	0	38	0	985661440	63	4416
2026-01-20 04:47:02.23	308.76	14.66	-45.9	-47.3	19.4	0.00e+00	0	39	0	987758592	63	4241
2026-01-20 04:47:03.24	308.61	14.59	-45.6	-47.0	19.7	0.00e+00	0	39	0	988807168	63	4083
2026-01-20 04:47:04.25	308.45	14.52	-45.5	-46.8	19.8	0.00e+00	0	39	0	990904320	63	4003
2026-01-20 04:47:05.25	308.30	14.45	-45.3	-46.6	20.1	0.00e+00	0	39	0	993001472	62	4137
2026-01-20 04:47:06.26	308.15	14.38	-45.4	-46.7	20.0	0.00e+00	0	39	0	995098624	62	4171
2026-01-20 04:47:07.27	308.00	14.30	-45.5	-46.9	19.8	0.00e+00	0	38	0	997195776	62	4265
2026-01-20 04:47:08.28	307.85	14.23	-45.9	-47.3	19.4	0.00e+00	0	38	0	998244352	62	4491
2026-01-20 04:47:09.29	307.70	14.16	-46.0	-47.5	19.3	0.00e+00	0	39	0	1000341504	62	4560
2026-01-20 04:47:10.29	307.56	14.09	-46.3	-47.9	18.9	0.00e+00	0	39	0	1002438656	63	4508
2026-01-20 04:47:11.30	307.41	14.01	-46.5	-48.1	18.7	0.00e+00	0	38	0	1004535808	63	4630
2026-01-20 04:47:12.31	307.26	13.94	-46.6	-48.2	18.6	0.00e+00	0	39	0	1006632960	63	4702
2026-01-20 04:47:13.32	307.11	13.87	-46.6	-48.3	18.5	0.00e+00	0	38	0	1007681536	63	4756
2026-01-20 04:47:14.32	306.97	13.80	-46.8	-48.5	18.3	0.00e+00	0	39	0	1009778688	64	4587
2026-01-20 04:47:15.33	306.82	13.72	-46.6	-48.3	18.4	0.00e+00	0	38	0	1011875840	64	4486
2026-01-20 04:47:16.34	306.68	13.65	-46.4	-48.1	18.6	0.00e+00	0	39	0	1013972992	64	4356
2026-01-20 04:47:17.35	306.54	13.58	-46.5	-48.2	18.5	0.00e+00	0	39	0	1016070144	64	4426
2026-01-20 04:47:18.35	306.40	13.51	-46.5	-48.1	18.5	0.00e+00	0	38	0	1017118720	64	4391
2026-01-20 04:47:19.36	306.25	13.44	-46.5	-48.1	18.6	0.00e+00	0	38	0	1019215872	64	4389
2026-01-20 04:47:20.37	306.11	13.36	-46.4	-48.0	18.7	0.00e+00	0	38	0	1021313024	64	4317
2026-01-20 04:47:21.38	305.97	13.29	-46.0	-47.6	19.0	0.00e+00	0	39	0	1023410176	64	4118
2026-01-20 04:47:22.39	305.83	13.22	-46.1	-47.6	19.2	0.00e+00	0	38	0	1025507328	63	4368
2026-01-20 04:47:23.39	305.69	13.15	-46.1	-47.6	19.1	0.00e+00	0	39	0	1026555904	63	4368
2026-01-20 04:47:24.40	305.56	13.08	-45.9	-47.3	19.4	0.00e+00	0	39	0	1028653056	63	4238
2026-01-20 04:47:25.41	305.42	13.00	-45.6	-47.0	19.7	0.00e+00	0	38	0	1030750208	63	4068
2026-01-20 04:47:26.42	305.28	12.93	-45.8	-47.3	19.4	0.00e+00	0	38	0	1032847360	63	4226
2026-01-20 04:47:27.43	305.14	12.86	-46.1	-47.6	19.1	0.00e+00	0	39	0	1034944512	63	4356
2026-01-20 04:47:28.44	305.01	12.79	-46.1	-47.6	19.1	0.00e+00	0	38	0	1037041664	63	4387
2026-01-20 04:47:29.45	304.87	12.72	-46.5	-48.1	18.7	0.00e+00	0	39	0	1038090240	63	4614
2026-01-20 04:47:30.46	304.74	12.65	-46.7	-48.4	18.3	0.00e+00	0	38	0	1040187392	64	4525
2026-01-20 04:47:31.46	304.61	12.57	-47.0	-48.9	17.8	0.00e+00	0	39	0	1042284544	64	4787
2026-01-20 04:47:32.47	304.47	12.50	-47.2	-49.2	17.6	0.00e+00	0	38	0	1044381696	65	4667
2026-01-20 04:47:33.48	304.34	12.43	-47.6	-49.7	17.1	0.00e+00	0	38	0	1045430272	65	4937
2026-01-20 04:47:34.49	304.21	12.36	-47.5	-49.5	17.3	0.00e+00	0	39	0	1047527424	65	4833
2026-01-20 04:47:35.49	304.08	12.29	-47.1	-49.0	17.7	0.00e+00	0	38	0	1049624576	65	4583
2026-01-20 04:47:36.50	303.95	12.22	-47.0	-48.8	17.9	0.00e+00	0	38	0	1051721728	65	4481
2026-01-20 04:47:37.51	303.82	12.15	-46.9	-48.7	18.0	0.00e+00	0	38	0	1053818880	65	4392
2026-01-20 04:47:38.52	303.69	12.08	-46.8	-48.6	18.0	0.00e+00	0	38	0	1054867456	65	4373
2026-01-20 04:47:39.53	303.56	12.00	-46.6	-48.3	18.3	0.00e+00	0	38	0	1056964608	65	4219
2026-01-20 04:47:40.53	303.43	11.93	-46.5	-48.2	18.5	0.00e+00	0	39	0	1059061760	64	4411
2026-01-20 04:47:41.54	303.31	11.86	-46.4	-48.0	18.6	0.00e+00	0	39	0	1061158912	64	4316
2026-01-20 04:47:42.55	303.18	11.79	-46.6	-48.3	18.4	0.00e+00	0	38	0	1063256064	64	4457
2026-01-20 04:47:43.55	303.05	11.72	-46.5	-48.2	18.3	0.00e+00	0	38	0	1065353216	64	4424
2026-01-20 04:47:44.56	302.93	11.65	-46.6	-48.3	18.4	0.00e+00	0	38	0	1066401792	64	4450
2026-01-20 04:47:45.57	302.80	11.58	-46.7	-48.5	18.1	0.00e+00	0	38	0	1068498944	64	4571
2026-01-20 04:47:46.58	302.68	11.51	-46.5	-48.2	18.4	0.00e+00	0	39	0	1070596096	64	4421
2026-01-20 04:47:47.58	302.56	11.44	-46.5	-48.2	18.4	0.00e+00	0	39	0	1072693248	64	4422
2026-01-20 04:47:48.59	302.43	11.37	-46.5	-48.1	18.5	0.00e+00	0	38	0	1073741824	64	4387
2026-01-20 04:47:49.60	302.31	11.30	-46.8	-48.5	18.1	0.00e+00	0	39	0	1075838976	64	4597
2026-01-20 04:47:50.61	302.19	11.23	-46.6	-48.2	18.4	0.00e+00	0	38	0	1077936128	64	4436
2026-01-20 04:47:51.61	302.07	11.16	-46.5	-48.2	18.4	0.00e+00	0	38	0	1080033280	64	4428
2026-01-20 04:47:52.62	301.95	11.09	-46.7	-48.4	18.1	0.00e+00	0	38	0	1082130432	64	4536
2026-01-20 04:47:53.63	301.83	11.02	-46.9	-48.7	17.9	0.00e+00	0	38	0	1083179008	64	4675
2026-01-20 04:47:54.64	301.71	10.95	-47.0	-48.9	17.7	0.00e+00	0	39	0	1085276160	64	4768
2026-01-20 04:47:55.65	301.59	10.88	-47.1	-49.0	17.6	0.00e+00	0	39	0	1087373312	64	4837
2026-01-20 04:47:56.65	301.47	10.81	-47.4	-49.4	17.2	0.00e+00	0	39	0	1089470464	65	4799
2026-01-20 04:47:57.66	301.36	10.74	-47.2	-49.2	17.5	0.00e+00	0	39	0	1091567616	65	4661
2026-01-20 04:47:58.67	301.24	10.67	-47.5	-49.6	17.0	0.00e+00	0	38	0	1093664768	65	4885
2026-01-20 04:47:59.68	301.12	10.60	-47.4	-49.5	17.1	0.00e+00	0	38	0	1094713344	65	4840
2026-01-20 04:48:00.69	301.01	10.53	-47.4	-49.5	17.1	0.00e+00	0	38	0	1096810496	65	4852
2026-01-20 04:48:01.69	300.89	10.46	-47.5	-49.6	17.0	0.00e+00	0	38	0	1098907648	65	4916
2026-01-20 04:48:02.70	300.78	10.39	-47.3	-49.3	17.2	0.00e+00	0	39	0	1101004800	65	4756
2026-01-20 04:48:03.71	300.66	10.32	-47.3	-49.3	17.3	0.00e+00	0	39	0	1102053376	65	4756
2026-01-20 04:48:04.72	300.55	10.25	-47.4	-49.5	17.1	0.00e+00	0	38	0	1104150528	65	4848
2026-01-20 04:48:05.73	300.43	10.18	-47.8	-50.0	16.6	0.00e+00	0	39	0	1106247680	66	4830
2026-01-20 04:48:06.73	300.32	10.11	-47.6	-49.8	16.8	0.00e+00	0	38	0	1108344832	66	4729
2026-01-20 04:48:07.74	300.21	10.05	-47.9	-50.2	16.4	0.00e+00	0	39	0	1110441984	66	4978
2026-01-20 04:48:08.75	300.10	9.98	-47.9	-50.2	16.4	0.00e+00	0	38	0	1112539136	66	4972
2026-01-20 04:48:09.76	299.99	9.91	-48.0	-50.4	16.2	0.00e+00	0	39	0	1113587712	66	5051
2026-01-20 04:48:10.77	299.88	9.84	-48.3	-50.8	15.8	0.00e+00	0	39	0	1115684864	67	5035
2026-01-20 04:48:11.77	299.77	9.77	-48.2	-50.7	15.9	0.00e+00	0	39	0	1117782016	67	4944
2026-01-20 04:48:12.78	299.66	9.70	-47.9	-50.2	16.4	0.00e+00	0	39	0	1119879168	67	4662
2026-01-20 04:48:13.79	299.55	9.63	-47.9	-50.1	16.5	0.00e+00	0	39	0	1121976320	67	4625
2026-01-20 04:48:14.80	299.44	9.57	-47.9	-50.1	16.5	0.00e+00	0	39	0	1123024896	67	4625
2026-01-20 04:48:15.81	299.33	9.50	-47.6	-49.7	16.8	0.00e+00	0	39	0	1125122048	67	4440
2026-01-20 04:48:16.81	299.23	9.43	-47.5	-49.5	17.0	0.00e+00	0	39	0	1127219200	66	4577
2026-01-20 04:48:17.82	299.12	9.36	-47.5	-49.5	17.1	0.00e+00	0	39	0	1129316352	66	4560
2026-01-20 04:48:18.83	299.01	9.29	-46.9	-48.8	17.7	0.00e+00	0	38	0	1130364928	65	4448
2026-01-20 04:48:19.84	298.91	9.23	-47.2	-49.1	17.4	0.00e+00	0	39	0	1132462080	65	4647
2026-01-20 04:48:20.85	298.80	9.16	-47.3	-49.3	17.2	0.00e+00	0	39	0	1134559232	65	4739
2026-01-20 04:48:21.86	298.70	9.09	-47.2	-49.2	17.3	0.00e+00	0	39	0	1136656384	65	4664
2026-01-20 04:48:22.86	298.60	9.02	-47.2	-49.1	17.3	0.00e+00	0	38	0	1138753536	65	4647
2026-01-20 04:48:23.87	298.49	8.95	-47.2	-49.1	17.4	0.00e+00	0	39	0	1140850688	65	4640
2026-01-20 04:48:24.88	298.39	8.89	-47.5	-49.6	17.0	0.00e+00	0	38	0	1141899264	65	4876
2026-01-20 04:48:25.89	298.29	8.82	-47.5	-49.5	17.0	0.00e+00	0	38	0	1143996416	65	4860
2026-01-20 04:48:26.89	298.18	8.75	-47.8	-50.0	16.6	0.00e+00	0	39	0	1146093568	66	4826
2026-01-20 04:48:27.90	298.08	8.69	-47.8	-50.0	16.5	0.00e+00	0	39	0	1148190720	66	4847
2026-01-20 04:48:28.91	297.98	8.62	-47.9	-50.1	16.4	0.00e+00	0	38	0	1150287872	66	4890
2026-01-20 04:48:29.91	297.88	8.55	-47.9	-50.2	16.3	0.00e+00	0	39	0	1151336448	66	4956
2026-01-20 04:48:30.92	297.78	8.49	-47.8	-50.0	16.5	0.00e+00	0	39	0	1153433600	66	4846
2026-01-20 04:48:31.93	297.68	8.42	-47.7	-49.9	16.6	0.00e+00	0	39	0	1155530752	66	4771
2026-01-20 04:48:32.94	297.58	8.35	-47.9	-50.2	16.3	0.00e+00	0	39	0	1157627904	66	4928
2026-01-20 04:48:33.95	297.48	8.28	-47.7	-49.9	16.6	0.00e+00	0	39	0	1159725056	66	4797
2026-01-20 04:48:34.96	297.38	8.22	-47.6	-49.6	16.8	0.00e+00	0	39	0	1160773632	66	4644
2026-01-20 04:48:35.96	297.29	8.15	-47.4	-49.5	17.0	0.00e+00	0	39	0	1162870784	66	4557
2026-01-20 04:48:36.97	297.19	8.09	-47.8	-50.0	16.5	0.00e+00	0	38	0	1164967936	66	4826
2026-01-20 04:48:37.98	297.09	8.02	-47.6	-49.8	16.7	0.00e+00	0	39	0	1167065088	66	4710
2026-01-20 04:48:38.99	296.99	7.95	-47.7	-49.8	16.7	0.00e+00	0	39	0	1169162240	66	4740
2026-01-20 04:48:39.99	296.90	7.89	-47.5	-49.6	16.8	0.00e+00	0	39	0	1170210816	66	4627
2026-01-20 04:48:41.00	296.80	7.82	-47.7	-49.9	16.5	0.00e+00	0	39	0	1172307968	66	4787
2026-01-20 04:48:42.01	296.71	7.76	-47.5	-49.7	16.8	0.00e+00	0	39	0	1174405120	66	4659
2026-01-20 04:48:43.02	296.61	7.69	-47.5	-49.7	16.7	0.00e+00	0	39	0	1176502272	66	4675
2026-01-20 04:48:44.03	296.52	7.62	-47.5	-49.6	16.8	0.00e+00	0	39	0	1178599424	66	4607
2026-01-20 04:48:45.03	296.43	7.56	-47.8	-50.0	16.4	0.00e+00	0	39	0	1179648000	66	4846
2026-01-20 04:48:46.04	296.33	7.49	-47.9	-50.2	16.1	0.00e+00	0	38	0	1181745152	66	4978
2026-01-20 04:48:47.05	296.24	7.43	-47.7	-50.0	16.4	0.00e+00	0	39	0	1183842304	66	4835
2026-01-20 04:48:48.06	296.15	7.36	-47.9	-50.2	16.2	0.00e+00	0	39	0	1185939456	66	4973
2026-01-20 04:48:49.07	296.05	7.30	-48.1	-50.5	15.8	0.00e+00	0	39	0	1188036608	66	5150
2026-01-20 04:48:50.07	295.96	7.23	-48.2	-50.7	15.7	0.00e+00	0	39	0	1189085184	66	5248
2026-01-20 04:48:51.08	295.87	7.17	-48.4	-51.0	15.4	0.00e+00	0	39	0	1191182336	67	5104
2026-01-20 04:48:52.09	295.78	7.10	-48.3	-50.8	15.6	0.00e+00	0	39	0	1193279488	67	5028
2026-01-20 04:48:53.10	295.69	7.04	-48.6	-51.3	15.1	0.00e+00	0	39	0	1195376640	67	5315
2026-01-20 04:48:54.11	295.60	6.97	-48.4	-51.1	15.3	0.00e+00	0	39	0	1197473792	67	5172
2026-01-20 04:48:55.12	295.51	6.91	-48.9	-51.8	14.6	2.20e-06	0	39	0	1198522368	68	5319
2026-01-20 04:48:56.12	295.42	6.84	-48.8	-51.7	14.7	1.50e-06	0	39	0	1200619520	68	5261
2026-01-20 04:48:57.13	295.33	6.78	-49.0	-52.1	14.3	0.00e+00	0	39	0	1202716672	68	5479
2026-01-20 04:48:58.14	295.24	6.71	-49.0	-52.0	14.4	7.00e-07	0	39	0	1204813824	68	5424
2026-01-20 04:48:59.15	295.15	6.65	-49.0	-52.0	14.4	0.00e+00	0	39	0	1206910976	68	5453
2026-01-20 04:49:00.15	295.07	6.59	-49.3	-52.5	13.9	0.00e+00	0	39	0	1209008128	69	5423
2026-01-20 04:49:01.16	294.98	6.52	-49.1	-52.2	14.2	7.00e-07	0	39	0	1210056704	69	5254
2026-01-20 04:49:02.17	294.89	6.46	-49.2	-52.3	14.0	0.00e+00	0	39	0	1212153856	69	5319
2026-01-20 04:49:03.18	294.81	6.39	-49.0	-52.1	14.3	7.00e-07	0	39	0	1214251008	69	5172
2026-01-20 04:49:04.19	294.72	6.33	-49.0	-52.1	14.4	7.00e-07	0	39	0	1216348160	69	5164
2026-01-20 04:49:05.19	294.64	6.27	-49.2	-52.4	13.9	1.50e-06	0	39	0	1217396736	69	5397
2026-01-20 04:49:06.20	294.55	6.20	-49.0	-51.9	14.3	0.00e+00	0	39	0	1219493888	69	5099
2026-01-20 04:49:07.21	294.47	6.14	-49.1	-52.2	14.1	5.30e-06	0	39	0	1221591040	69	5279
2026-01-20 04:49:08.22	294.38	6.08	-49.2	-52.4	13.9	3.80e-06	0	39	0	1223688192	69	5360
2026-01-20 04:49:09.23	294.30	6.01	-49.3	-52.5	13.8	7.00e-07	0	39	0	1225785344	69	5457
2026-01-20 04:49:10.24	294.21	5.95	-49.0	-52.0	14.3	3.00e-06	0	39	0	1226833920	69	5159
