passes_logs/2026/01/20/R3.2S_Murmansk/R3.2S_Murmansk__20260120_195222_TY-39_rec.log

#Pass ID: 20260120_195222_TY-39
#Satellite: TY-39
#Configuration: TY-39
#almurnet v.1.7.20251203
#Start time: 2026-01-20 19:52:22

#Version: 2.2.20231116
#Station: R3.2S_Murmansk
#Location: 33.079688 lon 68.888172 lat
#TLE: 1 51832U 22019J   26019.96292150  .00002537  00000-0  12203-3 0  9993
#TLE: 2 51832  97.3641  86.5319 0009635  37.5689 322.6217 15.19658161215288

#Time	Az	El	Level	Level2	SNR	BER	BlckErr	Temp	State	Recorded	gain1	gain2
2026-01-20 19:52:22.69	204.32	1.99	-53.9	-56.0	3.7	0.00e+00	0	42	0	0	78	19447
2026-01-20 19:52:23.70	204.41	2.05	-54.1	-56.3	3.7	0.00e+00	0	42	104	0	79	18874
2026-01-20 19:52:24.71	204.49	2.12	-54.2	-56.3	3.7	0.00e+00	0	42	104	0	79	19011
2026-01-20 19:52:25.72	204.58	2.18	-54.2	-56.4	3.7	0.00e+00	0	42	104	0	79	19067
2026-01-20 19:52:26.72	204.66	2.24	-54.2	-56.3	3.7	0.00e+00	0	42	104	0	79	19025
2026-01-20 19:52:27.73	204.75	2.31	-54.2	-56.4	3.7	0.00e+00	0	42	104	0	79	19055
2026-01-20 19:52:28.74	204.84	2.37	-54.2	-56.3	3.7	0.00e+00	0	43	104	0	79	19001
2026-01-20 19:52:29.75	204.92	2.43	-54.2	-56.3	3.7	0.00e+00	0	43	104	0	79	18899
2026-01-20 19:52:30.76	205.01	2.50	-54.2	-56.3	3.7	0.00e+00	0	43	104	0	79	18870
2026-01-20 19:52:31.77	205.10	2.56	-54.1	-56.3	3.7	0.00e+00	0	42	104	0	79	18836
2026-01-20 19:52:32.78	205.19	2.63	-54.1	-56.2	3.7	0.00e+00	0	43	104	0	79	18775
2026-01-20 19:52:33.78	205.28	2.69	-54.1	-56.2	3.7	0.00e+00	0	43	104	0	79	18759
2026-01-20 19:52:34.79	205.37	2.76	-54.0	-56.2	3.7	0.00e+00	0	43	104	0	79	18679
2026-01-20 19:52:35.80	205.46	2.82	-54.0	-56.2	3.7	0.00e+00	0	43	104	0	79	18623
2026-01-20 19:52:36.81	205.55	2.89	-54.0	-56.1	3.7	0.00e+00	0	43	104	0	79	18531
2026-01-20 19:52:37.82	205.64	2.95	-53.9	-56.1	3.7	0.00e+00	0	43	104	0	79	18409
2026-01-20 19:52:38.82	205.73	3.02	-53.9	-56.0	3.7	0.00e+00	0	43	104	0	79	18326
2026-01-20 19:52:39.83	205.82	3.08	-53.8	-56.0	3.7	0.00e+00	0	43	104	0	79	18209
2026-01-20 19:52:40.84	205.92	3.15	-53.8	-55.9	3.7	0.00e+00	0	43	104	0	79	18082
2026-01-20 19:52:41.85	206.01	3.22	-53.7	-55.8	3.7	0.00e+00	0	43	104	0	79	17907
2026-01-20 19:52:42.86	206.10	3.28	-53.6	-55.7	3.7	0.00e+00	0	43	104	0	79	17732
2026-01-20 19:52:43.87	206.20	3.35	-53.4	-55.5	3.7	0.00e+00	0	43	104	0	78	18366
2026-01-20 19:52:44.87	206.29	3.41	-53.1	-55.2	3.7	0.00e+00	0	43	104	0	78	17709
2026-01-20 19:52:45.88	206.39	3.48	-52.8	-55.0	3.7	0.00e+00	0	43	104	0	77	18181
2026-01-20 19:52:46.89	206.48	3.55	-52.8	-55.0	3.7	0.00e+00	0	43	104	0	77	18195
2026-01-20 19:52:47.90	206.58	3.61	-52.8	-54.9	3.7	0.00e+00	0	43	104	0	77	18118
2026-01-20 19:52:48.91	206.68	3.68	-52.8	-54.9	3.7	0.00e+00	0	43	104	0	77	18113
2026-01-20 19:52:49.91	206.78	3.75	-52.8	-54.9	3.7	0.00e+00	0	43	104	0	77	18119
2026-01-20 19:52:50.92	206.87	3.82	-52.8	-54.9	3.7	0.00e+00	0	43	104	0	77	18063
2026-01-20 19:52:51.93	206.97	3.88	-52.8	-54.9	3.7	0.00e+00	0	44	104	0	77	18104
2026-01-20 19:52:52.94	207.07	3.95	-52.8	-54.9	3.7	0.00e+00	0	44	104	0	77	18094
2026-01-20 19:52:53.95	207.17	4.02	-52.8	-54.9	3.7	0.00e+00	0	43	104	0	77	18093
2026-01-20 19:52:54.95	207.27	4.09	-52.8	-54.9	3.7	0.00e+00	0	44	104	0	77	18059
2026-01-20 19:52:55.96	207.37	4.15	-52.8	-54.9	3.7	0.00e+00	0	44	104	0	77	18067
2026-01-20 19:52:56.97	207.47	4.22	-52.8	-54.9	3.7	0.00e+00	0	44	104	0	77	18034
2026-01-20 19:52:57.98	207.58	4.29	-52.8	-54.9	3.7	0.00e+00	0	44	104	0	77	18061
2026-01-20 19:52:58.99	207.68	4.36	-52.8	-54.9	3.7	0.00e+00	0	44	104	0	77	18127
2026-01-20 19:53:00.00	207.78	4.43	-52.8	-54.9	3.7	0.00e+00	0	44	104	0	77	18053
2026-01-20 19:53:01.01	207.89	4.50	-52.8	-54.9	3.7	0.00e+00	0	44	104	0	77	18048
2026-01-20 19:53:02.01	207.99	4.57	-52.8	-54.9	3.7	0.00e+00	0	44	104	0	77	18115
2026-01-20 19:53:03.02	208.10	4.64	-52.8	-54.9	3.7	0.00e+00	0	44	104	0	77	18042
2026-01-20 19:53:04.03	208.20	4.71	-52.8	-54.9	3.7	0.00e+00	0	44	104	0	77	17993
2026-01-20 19:53:05.04	208.31	4.78	-52.8	-54.9	3.7	0.00e+00	0	44	104	0	77	18028
2026-01-20 19:53:06.05	208.41	4.85	-52.8	-54.9	3.7	0.00e+00	0	44	104	0	77	18051
2026-01-20 19:53:07.05	208.52	4.92	-52.8	-54.9	3.7	0.00e+00	0	44	104	0	77	18093
2026-01-20 19:53:08.06	208.63	4.99	-52.8	-54.9	3.7	0.00e+00	0	44	104	0	77	18057
2026-01-20 19:53:09.07	208.74	5.06	-52.8	-54.9	3.7	0.00e+00	0	44	104	0	77	18044
2026-01-20 19:53:10.08	208.85	5.13	-53.0	-55.2	3.7	0.00e+00	0	44	104	0	77	18634
2026-01-20 19:53:11.08	208.96	5.20	-52.8	-54.9	3.7	0.00e+00	0	44	104	0	77	18178
2026-01-20 19:53:12.09	209.07	5.27	-52.8	-54.9	3.7	0.00e+00	0	44	104	0	77	18005
2026-01-20 19:53:13.10	209.18	5.34	-52.7	-54.9	3.7	0.00e+00	0	44	104	0	77	18014
2026-01-20 19:53:14.11	209.29	5.41	-52.9	-55.0	3.7	0.00e+00	0	44	104	0	77	18386
2026-01-20 19:53:15.11	209.40	5.48	-52.8	-55.0	3.7	0.00e+00	0	44	104	0	77	18233
2026-01-20 19:53:16.12	209.52	5.56	-52.7	-54.9	3.7	0.00e+00	0	44	104	0	77	18020
2026-01-20 19:53:17.13	209.63	5.63	-52.7	-54.8	3.7	0.00e+00	0	44	104	0	77	17945
2026-01-20 19:53:18.14	209.75	5.70	-52.9	-55.0	3.7	0.00e+00	0	44	104	0	77	18369
2026-01-20 19:53:19.15	209.86	5.77	-52.9	-55.0	3.7	0.00e+00	0	44	104	0	77	18292
2026-01-20 19:53:20.16	209.98	5.84	-52.8	-54.9	3.7	0.00e+00	0	44	104	0	77	18129
2026-01-20 19:53:21.17	210.09	5.92	-52.7	-54.9	3.7	0.00e+00	0	44	104	0	77	18040
2026-01-20 19:53:22.18	210.21	5.99	-52.9	-55.0	3.7	0.00e+00	0	44	104	0	77	18381
2026-01-20 19:53:23.19	210.33	6.06	-52.9	-55.0	3.7	0.00e+00	0	44	104	0	77	18264
2026-01-20 19:53:24.19	210.45	6.14	-52.8	-54.9	3.7	0.00e+00	0	44	104	0	77	18105
2026-01-20 19:53:25.20	210.57	6.21	-52.8	-54.9	3.7	0.00e+00	0	44	104	0	77	18166
2026-01-20 19:53:26.21	210.69	6.28	-52.9	-55.1	3.7	0.00e+00	0	44	104	0	77	18445
2026-01-20 19:53:27.21	210.81	6.36	-52.9	-55.0	3.7	0.00e+00	0	44	104	0	77	18310
2026-01-20 19:53:28.22	210.93	6.43	-52.8	-54.9	3.7	0.00e+00	0	44	104	0	77	18179
2026-01-20 19:53:29.23	211.05	6.50	-52.8	-54.9	3.7	0.00e+00	0	44	104	0	77	18162
2026-01-20 19:53:30.24	211.18	6.58	-53.0	-55.1	3.7	0.00e+00	0	44	104	0	77	18520
2026-01-20 19:53:31.24	211.30	6.65	-52.9	-55.0	3.7	0.00e+00	0	44	104	0	77	18384
2026-01-20 19:53:32.25	211.43	6.73	-52.9	-55.0	3.7	0.00e+00	0	44	104	0	77	18249
2026-01-20 19:53:33.26	211.55	6.80	-52.8	-55.0	3.7	0.00e+00	0	44	104	0	77	18243
2026-01-20 19:53:34.26	211.68	6.88	-53.0	-55.1	3.7	0.00e+00	0	44	104	0	77	18559
2026-01-20 19:53:35.27	211.81	6.95	-52.9	-55.1	3.7	0.00e+00	0	44	104	0	77	18396
2026-01-20 19:53:36.28	211.93	7.03	-52.9	-55.0	3.7	0.00e+00	0	45	104	0	77	18297
2026-01-20 19:53:37.28	212.06	7.10	-52.9	-55.0	3.7	0.00e+00	0	44	104	0	77	18263
2026-01-20 19:53:38.29	212.19	7.18	-53.0	-55.1	3.7	0.00e+00	0	44	104	0	77	18581
2026-01-20 19:53:39.30	212.32	7.26	-53.0	-55.1	3.7	0.00e+00	0	45	104	0	77	18503
2026-01-20 19:53:40.31	212.45	7.33	-52.9	-55.0	3.7	0.00e+00	0	45	104	0	77	18378
2026-01-20 19:53:41.32	212.59	7.41	-52.9	-55.1	3.7	0.00e+00	0	44	104	0	77	18413
2026-01-20 19:53:42.33	212.72	7.49	-53.0	-55.2	3.7	0.00e+00	0	45	104	0	77	18636
2026-01-20 19:53:43.33	212.85	7.56	-53.0	-55.1	3.7	0.00e+00	0	45	104	0	77	18540
2026-01-20 19:53:44.34	212.99	7.64	-52.9	-55.1	3.7	0.00e+00	0	44	104	0	77	18407
2026-01-20 19:53:45.35	213.12	7.72	-52.9	-55.1	3.7	0.00e+00	0	44	104	0	77	18460
2026-01-20 19:53:46.36	213.26	7.80	-53.0	-55.2	3.7	0.00e+00	0	45	104	0	77	18612
2026-01-20 19:53:47.37	213.40	7.87	-53.0	-55.1	3.7	0.00e+00	0	45	104	0	77	18552
2026-01-20 19:53:48.38	213.53	7.95	-53.0	-55.1	3.7	0.00e+00	0	45	104	0	77	18520
2026-01-20 19:53:49.38	213.67	8.03	-53.0	-55.1	3.7	0.00e+00	0	45	104	0	77	18485
2026-01-20 19:53:50.39	213.81	8.11	-53.0	-55.1	3.7	0.00e+00	0	45	104	0	77	18590
2026-01-20 19:53:51.40	213.95	8.19	-53.0	-55.1	3.7	0.00e+00	0	45	104	0	77	18567
2026-01-20 19:53:52.41	214.10	8.26	-53.0	-55.1	3.7	0.00e+00	0	45	104	0	77	18541
2026-01-20 19:53:53.42	214.24	8.34	-53.0	-55.1	3.7	0.00e+00	0	44	104	0	77	18566
2026-01-20 19:53:54.42	214.38	8.42	-53.1	-55.2	3.7	0.00e+00	0	45	104	0	77	18659
2026-01-20 19:53:55.43	214.53	8.50	-53.1	-55.2	3.7	0.00e+00	0	45	104	0	77	18633
2026-01-20 19:53:56.44	214.67	8.58	-53.0	-55.1	3.7	0.00e+00	0	45	104	0	77	18550
2026-01-20 19:53:57.45	214.82	8.66	-53.0	-55.1	3.7	0.00e+00	0	45	104	0	77	18594
2026-01-20 19:53:58.46	214.97	8.74	-53.1	-55.2	3.7	0.00e+00	0	45	104	0	77	18742
2026-01-20 19:53:59.47	215.12	8.82	-53.0	-55.2	3.7	0.00e+00	0	45	104	0	77	18689
2026-01-20 19:54:00.47	215.26	8.90	-53.0	-55.2	3.7	0.00e+00	0	45	104	0	77	18633
2026-01-20 19:54:01.48	215.41	8.98	-53.0	-55.2	3.7	0.00e+00	0	45	104	0	77	18672
2026-01-20 19:54:02.49	215.57	9.06	-53.1	-55.2	3.7	0.00e+00	0	45	104	0	77	18762
2026-01-20 19:54:03.50	215.72	9.14	-53.1	-55.2	3.7	0.00e+00	0	45	104	0	77	18662
2026-01-20 19:54:04.51	215.87	9.22	-53.0	-55.1	3.7	0.00e+00	0	45	104	0	77	18593
2026-01-20 19:54:05.51	216.03	9.31	-53.0	-55.2	3.7	0.00e+00	0	45	104	0	77	18674
2026-01-20 19:54:06.52	216.18	9.39	-53.1	-55.2	3.7	0.00e+00	0	45	104	0	77	18766
2026-01-20 19:54:07.53	216.34	9.47	-53.1	-55.2	3.7	0.00e+00	0	45	104	0	77	18683
2026-01-20 19:54:08.54	216.50	9.55	-53.0	-55.2	3.7	0.00e+00	0	45	104	0	77	18623
2026-01-20 19:54:09.54	216.65	9.63	-53.1	-55.2	3.7	0.00e+00	0	45	104	0	77	18684
2026-01-20 19:54:10.55	216.81	9.71	-53.1	-55.2	3.7	0.00e+00	0	45	104	0	77	18756
2026-01-20 19:54:11.56	216.97	9.80	-53.1	-55.2	3.7	0.00e+00	0	45	104	0	77	18756
2026-01-20 19:54:12.57	217.14	9.88	-53.0	-55.2	3.7	0.00e+00	0	45	104	0	77	18619
2026-01-20 19:54:13.57	217.30	9.96	-53.1	-55.2	3.7	0.00e+00	0	45	104	0	77	18718
2026-01-20 19:54:14.58	217.46	10.05	-53.1	-55.2	3.7	0.00e+00	0	45	104	0	77	18817
2026-01-20 19:54:15.59	217.63	10.13	-53.1	-55.2	3.7	0.00e+00	0	45	104	0	77	18765
2026-01-20 19:54:16.60	217.79	10.21	-53.1	-55.2	3.7	0.00e+00	0	45	104	0	77	18693
2026-01-20 19:54:17.60	217.96	10.30	-53.1	-55.3	3.7	0.00e+00	0	45	104	0	77	18832
2026-01-20 19:54:18.61	218.13	10.38	-53.2	-55.3	3.7	0.00e+00	0	45	104	0	77	18881
2026-01-20 19:54:19.62	218.30	10.46	-53.1	-55.2	3.7	0.00e+00	0	45	104	0	77	18811
2026-01-20 19:54:20.63	218.47	10.55	-53.1	-55.2	3.7	0.00e+00	0	45	104	0	77	18772
2026-01-20 19:54:21.64	218.64	10.63	-53.1	-55.3	3.7	0.00e+00	0	45	104	0	77	18826
2026-01-20 19:54:22.65	218.82	10.72	-53.2	-55.3	3.7	0.00e+00	0	45	104	0	77	18913
2026-01-20 19:54:23.66	218.99	10.80	-53.1	-55.3	3.7	0.00e+00	0	45	104	0	77	18854
2026-01-20 19:54:24.67	219.17	10.89	-53.1	-55.2	3.7	0.00e+00	0	45	104	0	77	18768
2026-01-20 19:54:25.68	219.34	10.97	-53.2	-55.3	3.7	0.00e+00	0	45	104	0	77	18948
2026-01-20 19:54:26.68	219.52	11.06	-53.2	-55.3	3.7	0.00e+00	0	45	104	0	77	19010
2026-01-20 19:54:27.69	219.70	11.14	-53.2	-55.3	3.7	0.00e+00	0	45	104	0	77	18904
2026-01-20 19:54:28.70	219.88	11.23	-53.1	-55.3	3.7	0.00e+00	0	45	104	0	77	18894
2026-01-20 19:54:29.71	220.06	11.32	-53.2	-55.3	3.7	0.00e+00	0	45	104	0	77	18963
2026-01-20 19:54:30.72	220.25	11.40	-53.2	-55.3	3.7	0.00e+00	0	45	104	0	77	18951
2026-01-20 19:54:31.72	220.43	11.49	-53.2	-55.3	3.7	0.00e+00	0	45	104	0	77	18915
2026-01-20 19:54:32.73	220.61	11.57	-53.1	-55.3	3.6	0.00e+00	0	45	104	0	77	18902
2026-01-20 19:54:33.74	220.80	11.66	-53.2	-55.3	3.7	0.00e+00	0	45	104	0	77	18966
2026-01-20 19:54:34.75	220.99	11.75	-53.2	-55.4	3.7	0.00e+00	0	45	104	0	77	19040
2026-01-20 19:54:35.76	221.18	11.83	-53.2	-55.3	3.7	0.00e+00	0	45	104	0	77	18954
2026-01-20 19:54:36.76	221.37	11.92	-53.2	-55.3	3.7	0.00e+00	0	45	104	0	77	18944
2026-01-20 19:54:37.77	221.56	12.01	-53.2	-55.4	3.7	0.00e+00	0	45	104	0	77	19047
2026-01-20 19:54:38.78	221.76	12.10	-53.2	-55.4	3.7	0.00e+00	0	45	104	0	77	19107
2026-01-20 19:54:39.79	221.95	12.18	-53.2	-55.3	3.7	0.00e+00	0	45	104	0	77	18992
2026-01-20 19:54:40.79	222.14	12.27	-53.2	-55.3	3.7	0.00e+00	0	45	104	0	77	18904
2026-01-20 19:54:41.80	222.34	12.36	-53.3	-55.4	3.7	0.00e+00	0	45	104	0	77	19127
2026-01-20 19:54:42.81	222.54	12.45	-53.2	-55.4	3.7	0.00e+00	0	45	104	0	77	19067
2026-01-20 19:54:43.82	222.74	12.54	-53.2	-55.4	3.7	0.00e+00	0	45	104	0	77	19099
2026-01-20 19:54:44.83	222.94	12.62	-53.2	-55.3	3.7	0.00e+00	0	45	104	0	77	19016
2026-01-20 19:54:45.84	223.15	12.71	-53.3	-55.4	3.7	0.00e+00	0	45	104	0	77	19152
2026-01-20 19:54:46.84	223.35	12.80	-53.3	-55.4	3.7	0.00e+00	0	45	104	0	77	19114
2026-01-20 19:54:47.85	223.56	12.89	-53.2	-55.4	3.7	0.00e+00	0	45	104	0	77	19122
2026-01-20 19:54:48.86	223.77	12.98	-53.2	-55.3	3.7	0.00e+00	0	45	104	0	77	19035
2026-01-20 19:54:49.86	223.97	13.07	-53.3	-55.4	3.7	0.00e+00	0	45	104	0	77	19150
2026-01-20 19:54:50.87	224.18	13.16	-53.3	-55.4	3.7	0.00e+00	0	45	104	0	77	19131
2026-01-20 19:54:51.88	224.40	13.25	-53.3	-55.4	3.7	0.00e+00	0	45	104	0	77	19060
2026-01-20 19:54:52.89	224.61	13.33	-53.2	-55.4	3.7	0.00e+00	0	45	104	0	77	19062
2026-01-20 19:54:53.90	224.83	13.42	-53.3	-55.4	3.7	0.00e+00	0	45	104	0	77	19168
2026-01-20 19:54:54.90	225.04	13.51	-53.3	-55.4	3.7	0.00e+00	0	45	104	0	77	19181
2026-01-20 19:54:55.91	225.26	13.60	-53.3	-55.4	3.7	0.00e+00	0	45	104	0	77	19140
2026-01-20 19:54:56.92	225.48	13.69	-53.2	-55.4	3.7	0.00e+00	0	45	104	0	77	19036
2026-01-20 19:54:57.93	225.70	13.78	-53.3	-55.4	3.7	0.00e+00	0	45	104	0	77	19217
2026-01-20 19:54:58.93	225.92	13.87	-53.3	-55.4	3.7	0.00e+00	0	45	104	0	77	19172
2026-01-20 19:54:59.94	226.14	13.96	-53.3	-55.4	3.7	0.00e+00	0	45	104	0	77	19205
2026-01-20 19:55:00.95	226.37	14.05	-53.3	-55.4	3.7	0.00e+00	0	45	104	0	77	19147
2026-01-20 19:55:01.95	226.60	14.14	-53.3	-55.4	3.7	0.00e+00	0	45	104	0	77	19211
2026-01-20 19:55:02.96	226.83	14.23	-53.3	-55.4	3.7	0.00e+00	0	45	104	0	77	19253
2026-01-20 19:55:03.97	227.06	14.32	-53.3	-55.4	3.7	0.00e+00	0	45	104	0	77	19145
2026-01-20 19:55:04.98	227.29	14.41	-53.3	-55.4	3.7	0.00e+00	0	45	104	0	77	19156
2026-01-20 19:55:05.99	227.52	14.50	-53.3	-55.4	3.7	0.00e+00	0	45	104	0	77	19230
2026-01-20 19:55:06.99	227.76	14.59	-53.3	-55.4	3.7	0.00e+00	0	45	104	0	77	19247
2026-01-20 19:55:08.00	228.00	14.68	-53.3	-55.4	3.7	0.00e+00	0	45	104	0	77	19205
2026-01-20 19:55:09.01	228.23	14.77	-53.3	-55.4	3.7	0.00e+00	0	45	104	0	77	19156
2026-01-20 19:55:10.02	228.48	14.87	-53.3	-55.5	3.7	0.00e+00	0	45	104	0	77	19275
2026-01-20 19:55:11.02	228.72	14.96	-53.3	-55.4	3.7	0.00e+00	0	45	104	0	77	19249
2026-01-20 19:55:12.03	228.96	15.05	-53.3	-55.5	3.7	0.00e+00	0	45	104	0	77	19259
2026-01-20 19:55:13.04	229.21	15.14	-53.3	-55.4	3.7	0.00e+00	0	45	104	0	77	19220
2026-01-20 19:55:14.05	229.45	15.23	-53.3	-55.5	3.7	0.00e+00	0	45	104	0	77	19301
2026-01-20 19:55:15.06	229.70	15.32	-53.3	-55.5	3.7	0.00e+00	0	45	104	0	77	19301
2026-01-20 19:55:16.06	229.95	15.41	-53.3	-55.4	3.7	0.00e+00	0	45	104	0	77	19231
2026-01-20 19:55:17.07	230.21	15.50	-53.3	-55.4	3.7	0.00e+00	0	45	104	0	77	19256
2026-01-20 19:55:18.08	230.46	15.59	-53.3	-55.5	3.7	0.00e+00	0	45	104	0	77	19370
2026-01-20 19:55:19.08	230.71	15.68	-53.3	-55.5	3.7	0.00e+00	0	45	104	0	77	19262
2026-01-20 19:55:20.09	230.97	15.77	-53.3	-55.4	3.7	0.00e+00	0	45	104	0	77	19238
2026-01-20 19:55:21.10	231.23	15.86	-53.3	-55.5	3.7	0.00e+00	0	45	104	0	77	19276
2026-01-20 19:55:22.11	231.49	15.95	-53.3	-55.5	3.7	0.00e+00	0	45	104	0	77	19314
2026-01-20 19:55:23.12	231.76	16.04	-53.3	-55.4	3.7	0.00e+00	0	45	104	0	77	19245
2026-01-20 19:55:24.12	232.02	16.13	-53.3	-55.4	3.7	0.00e+00	0	45	104	0	77	19232
2026-01-20 19:55:25.13	232.29	16.22	-53.3	-55.5	3.7	0.00e+00	0	45	104	0	77	19258
2026-01-20 19:55:26.14	232.56	16.31	-53.4	-55.5	3.7	0.00e+00	0	45	104	0	77	19358
2026-01-20 19:55:27.15	232.83	16.40	-53.3	-55.5	3.7	0.00e+00	0	45	104	0	77	19315
2026-01-20 19:55:28.15	233.10	16.49	-53.3	-55.4	3.7	0.00e+00	0	45	104	0	77	19235
2026-01-20 19:55:29.16	233.37	16.58	-53.3	-55.4	3.7	0.00e+00	0	45	104	0	77	19249
2026-01-20 19:55:30.17	233.65	16.67	-53.4	-55.5	3.7	0.00e+00	0	45	104	0	77	19339
2026-01-20 19:55:31.18	233.93	16.76	-53.3	-55.5	3.7	0.00e+00	0	45	104	0	77	19278
2026-01-20 19:55:32.18	234.21	16.85	-53.3	-55.4	3.7	0.00e+00	0	45	104	0	77	19215
2026-01-20 19:55:33.19	234.49	16.94	-53.3	-55.4	3.7	0.00e+00	0	45	104	0	77	19224
2026-01-20 19:55:34.20	234.77	17.02	-53.4	-55.5	3.7	0.00e+00	0	45	104	0	77	19329
2026-01-20 19:55:35.21	235.06	17.11	-53.3	-55.4	3.7	0.00e+00	0	45	104	0	77	19243
2026-01-20 19:55:36.22	235.35	17.20	-53.3	-55.4	3.7	0.00e+00	0	45	104	0	77	19182
2026-01-20 19:55:37.22	235.64	17.29	-53.3	-55.4	3.7	0.00e+00	0	45	104	0	77	19189
2026-01-20 19:55:38.23	235.93	17.38	-53.3	-55.5	3.7	0.00e+00	0	45	104	0	77	19314
2026-01-20 19:55:39.24	236.22	17.47	-53.3	-55.5	3.7	0.00e+00	0	45	104	0	77	19292
2026-01-20 19:55:40.25	236.52	17.55	-53.3	-55.4	3.7	0.00e+00	0	45	104	0	77	19217
2026-01-20 19:55:41.25	236.81	17.64	-53.3	-55.4	3.7	0.00e+00	0	45	104	0	77	19244
2026-01-20 19:55:42.26	237.11	17.73	-53.3	-55.5	3.7	0.00e+00	0	45	104	0	77	19273
2026-01-20 19:55:43.27	237.41	17.81	-53.3	-55.4	3.7	0.00e+00	0	45	104	0	77	19250
2026-01-20 19:55:44.28	237.72	17.90	-53.3	-55.4	3.7	0.00e+00	0	45	104	0	77	19251
2026-01-20 19:55:45.29	238.02	17.99	-53.3	-55.4	3.7	0.00e+00	0	45	104	0	77	19228
2026-01-20 19:55:46.30	238.33	18.07	-53.3	-55.5	3.7	0.00e+00	0	45	104	0	77	19287
2026-01-20 19:55:47.30	238.64	18.16	-53.3	-55.4	3.7	0.00e+00	0	45	104	0	77	19220
2026-01-20 19:55:48.31	238.95	18.24	-53.3	-55.5	3.7	0.00e+00	0	45	104	0	77	19285
2026-01-20 19:55:49.32	239.26	18.33	-53.3	-55.4	3.7	0.00e+00	0	45	104	0	77	19250
2026-01-20 19:55:50.33	239.58	18.41	-53.4	-55.5	3.7	0.00e+00	0	45	104	0	77	19349
2026-01-20 19:55:51.33	239.89	18.49	-53.4	-55.5	3.7	0.00e+00	0	45	104	0	77	19331
2026-01-20 19:55:52.34	240.21	18.58	-53.4	-55.5	3.7	0.00e+00	0	45	104	0	77	19323
2026-01-20 19:55:53.35	240.53	18.66	-53.4	-55.5	3.7	0.00e+00	0	45	104	0	77	19355
2026-01-20 19:55:54.36	240.86	18.74	-53.4	-55.5	3.7	0.00e+00	0	45	104	0	77	19340
2026-01-20 19:55:55.37	241.18	18.83	-53.4	-55.5	3.7	0.00e+00	0	45	104	0	77	19369
2026-01-20 19:55:56.37	241.51	18.91	-53.4	-55.5	3.7	0.00e+00	0	45	104	0	77	19333
2026-01-20 19:55:57.38	241.84	18.99	-53.4	-55.5	3.7	0.00e+00	0	45	104	0	77	19302
2026-01-20 19:55:58.39	242.17	19.07	-53.4	-55.5	3.7	0.00e+00	0	45	104	0	77	19391
2026-01-20 19:55:59.40	242.50	19.15	-53.4	-55.5	3.7	0.00e+00	0	45	104	0	77	19415
2026-01-20 19:56:00.41	242.83	19.23	-53.4	-55.5	3.7	0.00e+00	0	45	104	0	77	19337
2026-01-20 19:56:01.42	243.17	19.31	-53.4	-55.5	3.7	0.00e+00	0	45	104	0	77	19362
2026-01-20 19:56:02.43	243.51	19.39	-53.4	-55.5	3.7	0.00e+00	0	45	104	0	77	19419
2026-01-20 19:56:03.44	243.85	19.47	-53.4	-55.5	3.7	0.00e+00	0	45	104	0	77	19383
2026-01-20 19:56:04.45	244.20	19.54	-53.4	-55.5	3.7	0.00e+00	0	45	104	0	77	19382
2026-01-20 19:56:05.45	244.54	19.62	-53.4	-55.5	3.7	0.00e+00	0	45	104	0	77	19396
2026-01-20 19:56:06.46	244.88	19.69	-53.4	-55.6	3.7	0.00e+00	0	45	104	0	77	19521
2026-01-20 19:56:07.47	245.23	19.77	-53.4	-55.5	3.7	0.00e+00	0	45	104	0	77	19442
2026-01-20 19:56:08.48	245.58	19.85	-53.4	-55.5	3.7	0.00e+00	0	46	104	0	77	19455
2026-01-20 19:56:09.49	245.94	19.92	-53.4	-55.5	3.7	0.00e+00	0	45	104	0	77	19478
2026-01-20 19:56:10.49	246.29	19.99	-53.4	-55.5	3.7	0.00e+00	0	45	104	0	77	19459
2026-01-20 19:56:11.50	246.64	20.07	-53.4	-55.6	3.7	0.00e+00	0	46	104	0	77	19481
2026-01-20 19:56:12.51	247.00	20.14	-53.4	-55.5	3.7	0.00e+00	0	45	104	0	77	19438
2026-01-20 19:56:13.52	247.36	20.21	-53.4	-55.5	3.7	0.00e+00	0	45	104	0	77	19425
2026-01-20 19:56:14.52	247.72	20.28	-53.4	-55.6	3.7	0.00e+00	0	45	104	0	77	19502
2026-01-20 19:56:15.53	248.08	20.35	-53.4	-55.5	3.7	0.00e+00	0	46	104	0	77	19439
2026-01-20 19:56:16.54	248.45	20.42	-53.4	-55.5	3.7	0.00e+00	0	46	104	0	77	19451
2026-01-20 19:56:17.55	248.82	20.49	-53.4	-55.5	3.7	0.00e+00	0	46	104	0	77	19471
2026-01-20 19:56:18.56	249.19	20.55	-53.4	-55.6	3.6	0.00e+00	0	45	104	0	77	19546
2026-01-20 19:56:19.56	249.55	20.62	-53.4	-55.5	3.7	0.00e+00	0	45	104	0	77	19474
2026-01-20 19:56:20.57	249.93	20.68	-53.4	-55.5	3.7	0.00e+00	0	45	104	0	77	19455
2026-01-20 19:56:21.58	250.30	20.75	-53.4	-55.6	3.7	0.00e+00	0	45	104	0	77	19480
2026-01-20 19:56:22.59	250.68	20.81	-53.5	-55.6	3.7	0.00e+00	0	45	104	0	77	19486
2026-01-20 19:56:23.59	251.05	20.87	-53.4	-55.5	3.7	0.00e+00	0	45	104	0	77	19469
2026-01-20 19:56:24.60	251.43	20.94	-53.4	-55.6	3.7	0.00e+00	0	45	104	0	77	19510
2026-01-20 19:56:25.61	251.81	21.00	-53.4	-55.6	3.7	0.00e+00	0	45	104	0	77	19504
2026-01-20 19:56:26.62	252.20	21.06	-53.4	-55.6	3.7	0.00e+00	0	45	104	0	77	19531
2026-01-20 19:56:27.63	252.58	21.12	-53.4	-55.6	3.7	0.00e+00	0	45	104	0	77	19501
2026-01-20 19:56:28.63	252.96	21.17	-53.4	-55.5	3.7	0.00e+00	0	45	104	0	77	19429
2026-01-20 19:56:29.64	253.35	21.23	-53.4	-55.6	3.7	0.00e+00	0	45	104	0	77	19544
2026-01-20 19:56:30.65	253.74	21.29	-53.4	-55.6	3.7	0.00e+00	0	45	104	0	77	19539
2026-01-20 19:56:31.66	254.13	21.34	-53.4	-55.5	3.7	0.00e+00	0	46	104	0	77	19402
2026-01-20 19:56:32.67	254.52	21.39	-53.4	-55.5	3.7	0.00e+00	0	45	104	0	77	19474
2026-01-20 19:56:33.67	254.92	21.45	-53.4	-55.6	3.7	0.00e+00	0	45	104	0	77	19526
2026-01-20 19:56:34.68	255.31	21.50	-53.4	-55.6	3.7	0.00e+00	0	45	104	0	77	19510
2026-01-20 19:56:35.69	255.71	21.55	-53.4	-55.6	3.7	0.00e+00	0	45	104	0	77	19533
2026-01-20 19:56:36.70	256.11	21.60	-53.4	-55.5	3.7	0.00e+00	0	45	104	0	77	19397
2026-01-20 19:56:37.71	256.51	21.65	-53.4	-55.6	3.7	0.00e+00	0	45	104	0	77	19531
2026-01-20 19:56:38.71	256.90	21.69	-53.4	-55.6	3.7	0.00e+00	0	45	104	0	77	19482
2026-01-20 19:56:39.72	257.30	21.74	-53.4	-55.6	3.7	0.00e+00	0	45	104	0	77	19551
2026-01-20 19:56:40.73	257.71	21.78	-53.4	-55.6	3.7	0.00e+00	0	45	104	0	77	19497
2026-01-20 19:56:41.74	258.11	21.83	-53.5	-55.6	3.7	0.00e+00	0	45	104	0	77	19548
2026-01-20 19:56:42.75	258.52	21.87	-53.4	-55.5	3.7	0.00e+00	0	45	104	0	77	19407
2026-01-20 19:56:43.76	258.93	21.91	-53.4	-55.5	3.7	0.00e+00	0	46	104	0	77	19425
2026-01-20 19:56:44.76	259.33	21.95	-53.4	-55.6	3.7	0.00e+00	0	45	104	0	77	19506
2026-01-20 19:56:45.77	259.74	21.99	-53.5	-55.6	3.7	0.00e+00	0	45	104	0	77	19511
2026-01-20 19:56:46.78	260.15	22.02	-53.5	-55.6	3.7	0.00e+00	0	45	104	0	77	19573
2026-01-20 19:56:47.79	260.56	22.06	-53.4	-55.6	3.7	0.00e+00	0	45	104	0	77	19507
2026-01-20 19:56:48.79	260.97	22.09	-53.4	-55.6	3.7	0.00e+00	0	45	104	0	77	19540
2026-01-20 19:56:49.80	261.39	22.13	-53.5	-55.6	3.7	0.00e+00	0	45	104	0	77	19601
2026-01-20 19:56:50.81	261.80	22.16	-53.4	-55.6	3.7	0.00e+00	0	45	104	0	77	19547
2026-01-20 19:56:51.82	262.22	22.19	-53.4	-55.6	3.7	0.00e+00	0	45	104	0	77	19538
2026-01-20 19:56:52.83	262.63	22.22	-53.4	-55.6	3.7	0.00e+00	0	46	104	0	77	19533
2026-01-20 19:56:53.83	263.05	22.25	-53.5	-55.6	3.7	0.00e+00	0	45	104	0	77	19608
2026-01-20 19:56:54.84	263.46	22.27	-53.5	-55.6	3.7	0.00e+00	0	46	104	0	77	19545
2026-01-20 19:56:55.85	263.88	22.30	-53.4	-55.5	3.7	0.00e+00	0	45	104	0	77	19462
2026-01-20 19:56:56.86	264.30	22.32	-53.4	-55.6	3.7	0.00e+00	0	45	104	0	77	19529
2026-01-20 19:56:57.87	264.72	22.34	-53.5	-55.6	3.7	0.00e+00	0	45	104	0	77	19621
2026-01-20 19:56:58.87	265.14	22.36	-53.5	-55.6	3.7	0.00e+00	0	46	104	0	77	19532
2026-01-20 19:56:59.88	265.56	22.38	-53.5	-55.6	3.7	0.00e+00	0	45	104	0	77	19539
2026-01-20 19:57:00.89	265.98	22.40	-53.5	-55.6	3.7	0.00e+00	0	45	104	0	77	19555
2026-01-20 19:57:01.90	266.40	22.42	-53.5	-55.6	3.7	0.00e+00	0	45	104	0	77	19668
2026-01-20 19:57:02.91	266.83	22.43	-53.5	-55.6	3.7	0.00e+00	0	45	104	0	77	19541
2026-01-20 19:57:03.92	267.25	22.45	-53.5	-55.6	3.7	0.00e+00	0	46	104	0	77	19603
2026-01-20 19:57:04.92	267.67	22.46	-53.5	-55.6	3.7	0.00e+00	0	46	104	0	77	19556
2026-01-20 19:57:05.93	268.09	22.47	-53.5	-55.6	3.7	0.00e+00	0	46	104	0	77	19665
2026-01-20 19:57:06.94	268.52	22.48	-53.5	-55.6	3.7	0.00e+00	0	45	104	0	77	19701
2026-01-20 19:57:07.95	268.94	22.48	-53.5	-55.6	3.7	0.00e+00	0	46	104	0	77	19655
2026-01-20 19:57:08.95	269.36	22.49	-53.5	-55.6	3.7	0.00e+00	0	45	104	0	77	19619
2026-01-20 19:57:09.96	269.79	22.50	-53.5	-55.7	3.7	0.00e+00	0	46	104	0	77	19729
2026-01-20 19:57:10.97	270.21	22.50	-53.5	-55.6	3.7	0.00e+00	0	46	104	0	77	19644
2026-01-20 19:57:11.98	270.64	22.50	-53.5	-55.6	3.7	0.00e+00	0	45	104	0	77	19654
2026-01-20 19:57:12.99	271.06	22.50	-53.5	-55.6	3.7	0.00e+00	0	45	104	0	77	19647
2026-01-20 19:57:13.99	271.48	22.50	-53.6	-55.7	3.7	0.00e+00	0	45	104	0	77	19781
2026-01-20 19:57:15.00	271.91	22.50	-53.5	-55.7	3.7	0.00e+00	0	46	104	0	77	19718
2026-01-20 19:57:16.01	272.33	22.49	-53.5	-55.6	3.7	0.00e+00	0	45	104	0	77	19673
2026-01-20 19:57:17.01	272.75	22.49	-53.5	-55.6	3.7	0.00e+00	0	45	104	0	77	19692
2026-01-20 19:57:18.02	273.18	22.48	-53.6	-55.7	3.7	0.00e+00	0	46	104	0	77	19796
2026-01-20 19:57:19.03	273.60	22.47	-53.5	-55.7	3.7	0.00e+00	0	46	104	0	77	19836
2026-01-20 19:57:20.04	274.03	22.46	-53.5	-55.7	3.7	0.00e+00	0	45	104	0	77	19706
2026-01-20 19:57:21.05	274.45	22.45	-53.5	-55.6	3.7	0.00e+00	0	46	104	0	77	19652
2026-01-20 19:57:22.06	274.87	22.44	-53.6	-55.7	3.7	0.00e+00	0	46	104	0	77	19732
2026-01-20 19:57:23.06	275.29	22.43	-53.6	-55.7	3.7	0.00e+00	0	45	104	0	77	19737
2026-01-20 19:57:24.07	275.71	22.41	-53.5	-55.6	3.7	0.00e+00	0	46	104	0	77	19653
2026-01-20 19:57:25.07	276.13	22.40	-53.5	-55.6	3.7	0.00e+00	0	46	104	0	77	19613
2026-01-20 19:57:26.08	276.55	22.38	-53.6	-55.7	3.7	0.00e+00	0	46	104	0	77	19761
2026-01-20 19:57:27.09	276.97	22.36	-53.5	-55.6	3.7	0.00e+00	0	45	104	0	77	19687
2026-01-20 19:57:28.10	277.39	22.34	-53.6	-55.7	3.7	0.00e+00	0	45	104	0	77	19712
2026-01-20 19:57:29.11	277.81	22.31	-53.5	-55.6	3.7	0.00e+00	0	45	104	0	77	19696
2026-01-20 19:57:30.12	278.23	22.29	-53.6	-55.7	3.7	0.00e+00	0	45	104	0	77	19900
2026-01-20 19:57:31.12	278.64	22.26	-53.6	-55.7	3.7	0.00e+00	0	45	104	0	77	19861
2026-01-20 19:57:32.13	279.06	22.24	-53.6	-55.7	3.7	0.00e+00	0	45	104	0	77	19853
2026-01-20 19:57:33.14	279.48	22.21	-53.6	-55.7	3.7	0.00e+00	0	45	104	0	77	19752
2026-01-20 19:57:34.15	279.89	22.18	-53.6	-55.7	3.7	0.00e+00	0	45	104	0	77	19871
2026-01-20 19:57:35.16	280.31	22.15	-53.6	-55.8	3.7	0.00e+00	0	46	104	0	77	19949
2026-01-20 19:57:36.16	280.72	22.12	-53.6	-55.7	3.7	0.00e+00	0	45	104	0	77	19823
2026-01-20 19:57:37.17	281.13	22.09	-53.6	-55.7	3.7	0.00e+00	0	45	104	0	77	19846
2026-01-20 19:57:38.18	281.54	22.05	-53.7	-55.8	3.7	0.00e+00	0	46	104	0	77	19986
2026-01-20 19:57:39.19	281.95	22.01	-53.7	-55.8	3.7	0.00e+00	0	46	104	0	77	20005
2026-01-20 19:57:40.19	282.36	21.98	-53.6	-55.7	3.7	0.00e+00	0	45	104	0	77	19879
2026-01-20 19:57:41.20	282.77	21.94	-53.6	-55.8	3.7	0.00e+00	0	46	104	0	77	19982
2026-01-20 19:57:42.21	283.17	21.90	-53.7	-55.8	3.7	0.00e+00	0	45	104	0	77	20047
2026-01-20 19:57:43.22	283.58	21.86	-53.7	-55.8	3.7	0.00e+00	0	45	104	0	77	20037
2026-01-20 19:57:44.23	283.98	21.82	-53.7	-55.8	3.7	0.00e+00	0	45	104	0	77	20055
2026-01-20 19:57:45.23	284.38	21.77	-53.7	-55.8	3.7	0.00e+00	0	45	104	0	77	20037
2026-01-20 19:57:46.24	284.78	21.73	-53.7	-55.8	3.7	0.00e+00	0	45	104	0	77	19981
2026-01-20 19:57:47.25	285.19	21.68	-53.7	-55.8	3.7	0.00e+00	0	45	104	0	77	20035
2026-01-20 19:57:48.26	285.58	21.64	-53.7	-55.8	3.7	0.00e+00	0	45	104	0	77	19991
2026-01-20 19:57:49.27	285.98	21.59	-53.7	-55.8	3.7	0.00e+00	0	46	104	0	77	20026
2026-01-20 19:57:50.28	286.38	21.54	-53.7	-55.9	3.7	0.00e+00	0	46	104	0	78	19085
2026-01-20 19:57:51.29	286.77	21.49	-53.7	-55.8	3.7	0.00e+00	0	46	104	0	78	19000
2026-01-20 19:57:52.29	287.16	21.44	-53.7	-55.8	3.7	0.00e+00	0	46	104	0	78	18991
2026-01-20 19:57:53.30	287.56	21.38	-53.7	-55.8	3.7	0.00e+00	0	46	104	0	78	19009
2026-01-20 19:57:54.31	287.95	21.33	-53.7	-55.9	3.7	0.00e+00	0	45	104	0	78	19041
2026-01-20 19:57:55.32	288.34	21.28	-53.7	-55.9	3.7	0.00e+00	0	45	104	0	78	19048
2026-01-20 19:57:56.33	288.72	21.22	-53.7	-55.8	3.7	0.00e+00	0	45	104	0	78	18926
2026-01-20 19:57:57.34	289.11	21.16	-53.7	-55.9	3.7	0.00e+00	0	45	104	0	78	19047
2026-01-20 19:57:58.34	289.49	21.11	-53.8	-55.9	3.7	0.00e+00	0	46	104	0	78	19087
2026-01-20 19:57:59.35	289.87	21.05	-53.7	-55.9	3.7	0.00e+00	0	46	104	0	78	19062
2026-01-20 19:58:00.36	290.25	20.99	-53.7	-55.8	3.7	0.00e+00	0	46	104	0	78	19034
2026-01-20 19:58:01.37	290.63	20.93	-53.8	-55.9	3.7	0.00e+00	0	46	104	0	78	19101
2026-01-20 19:58:02.38	291.01	20.86	-53.8	-55.9	3.7	0.00e+00	0	46	104	0	78	19131
2026-01-20 19:58:03.39	291.39	20.80	-53.8	-55.9	3.7	0.00e+00	0	46	104	0	78	19109
2026-01-20 19:58:04.39	291.76	20.74	-53.7	-55.8	3.7	0.00e+00	0	46	104	0	78	18977
2026-01-20 19:58:05.40	292.13	20.67	-53.8	-55.9	3.7	0.00e+00	0	45	104	0	78	19102
2026-01-20 19:58:06.41	292.50	20.61	-53.8	-55.9	3.7	0.00e+00	0	46	104	0	78	19121
2026-01-20 19:58:07.42	292.87	20.54	-53.8	-55.9	3.7	0.00e+00	0	46	104	0	78	19185
2026-01-20 19:58:08.43	293.24	20.48	-53.7	-55.9	3.7	0.00e+00	0	46	104	0	78	19085
2026-01-20 19:58:09.44	293.60	20.41	-53.8	-55.9	3.7	0.00e+00	0	45	104	0	78	19112
2026-01-20 19:58:10.44	293.96	20.34	-53.8	-55.9	3.7	0.00e+00	0	46	104	0	78	19210
2026-01-20 19:58:11.45	294.32	20.27	-53.8	-55.9	3.7	0.00e+00	0	46	104	0	78	19197
2026-01-20 19:58:12.46	294.68	20.20	-53.7	-55.8	3.7	0.00e+00	0	46	104	0	78	19027
2026-01-20 19:58:13.47	295.04	20.13	-53.8	-55.9	3.7	0.00e+00	0	46	104	0	78	19134
2026-01-20 19:58:14.47	295.39	20.06	-53.8	-55.9	3.7	0.00e+00	0	46	104	0	78	19157
2026-01-20 19:58:15.48	295.75	19.99	-53.8	-55.9	3.7	0.00e+00	0	46	104	0	78	19104
2026-01-20 19:58:16.49	296.10	19.91	-53.7	-55.9	3.7	0.00e+00	0	46	104	0	78	19095
2026-01-20 19:58:17.50	296.45	19.84	-53.8	-55.9	3.7	0.00e+00	0	45	104	0	78	19121
2026-01-20 19:58:18.50	296.79	19.76	-53.8	-55.9	3.7	0.00e+00	0	46	104	0	78	19148
2026-01-20 19:58:19.51	297.14	19.69	-53.8	-55.9	3.7	0.00e+00	0	45	104	0	78	19142
2026-01-20 19:58:20.52	297.49	19.61	-53.7	-55.9	3.7	0.00e+00	0	46	104	0	78	19036
2026-01-20 19:58:21.53	297.83	19.54	-53.7	-55.9	3.7	0.00e+00	0	46	104	0	78	19099
2026-01-20 19:58:22.54	298.17	19.46	-53.8	-55.9	3.7	0.00e+00	0	46	104	0	78	19110
2026-01-20 19:58:23.54	298.50	19.38	-53.8	-55.9	3.7	0.00e+00	0	46	104	0	78	19110
2026-01-20 19:58:24.55	298.84	19.31	-53.7	-55.8	3.7	0.00e+00	0	46	104	0	78	19015
2026-01-20 19:58:25.56	299.18	19.23	-53.7	-55.9	3.7	0.00e+00	0	46	104	0	78	19042
2026-01-20 19:58:26.56	299.51	19.15	-53.8	-55.9	3.7	0.00e+00	0	46	104	0	78	19127
2026-01-20 19:58:27.57	299.84	19.07	-53.7	-55.9	3.7	0.00e+00	0	46	104	0	78	19048
2026-01-20 19:58:28.58	300.17	18.99	-53.7	-55.8	3.7	0.00e+00	0	46	104	0	78	19027
2026-01-20 19:58:29.59	300.49	18.91	-53.7	-55.9	3.7	0.00e+00	0	46	104	0	78	19046
2026-01-20 19:58:30.60	300.82	18.83	-53.7	-55.8	3.7	0.00e+00	0	46	104	0	78	19033
2026-01-20 19:58:31.61	301.14	18.74	-53.7	-55.9	3.7	0.00e+00	0	46	104	0	78	19062
2026-01-20 19:58:32.61	301.46	18.66	-53.7	-55.9	3.7	0.00e+00	0	46	104	0	78	19049
2026-01-20 19:58:33.62	301.78	18.58	-53.7	-55.9	3.7	0.00e+00	0	45	104	0	78	19084
2026-01-20 19:58:34.63	302.09	18.50	-53.7	-55.9	3.7	0.00e+00	0	46	104	0	78	19087
2026-01-20 19:58:35.64	302.41	18.41	-53.7	-55.8	3.7	0.00e+00	0	46	104	0	78	19014
2026-01-20 19:58:36.65	302.72	18.33	-53.7	-55.8	3.7	0.00e+00	0	45	104	0	78	19020
2026-01-20 19:58:37.65	303.03	18.25	-53.7	-55.8	3.7	0.00e+00	0	45	104	0	78	18986
2026-01-20 19:58:38.66	303.34	18.16	-53.7	-55.8	3.7	0.00e+00	0	46	104	0	78	19024
2026-01-20 19:58:39.67	303.65	18.08	-53.7	-55.8	3.7	0.00e+00	0	45	104	0	78	18995
2026-01-20 19:58:40.68	303.95	17.99	-53.7	-55.8	3.7	0.00e+00	0	46	104	0	78	18946
2026-01-20 19:58:41.69	304.26	17.91	-53.7	-55.8	3.7	0.00e+00	0	46	104	0	78	18917
2026-01-20 19:58:42.69	304.55	17.82	-53.7	-55.8	3.7	0.00e+00	0	46	104	0	78	18889
2026-01-20 19:58:43.70	304.85	17.74	-53.7	-55.8	3.7	0.00e+00	0	46	104	0	78	18951
2026-01-20 19:58:44.71	305.15	17.65	-53.7	-55.8	3.7	0.00e+00	0	45	104	0	78	18895
2026-01-20 19:58:45.72	305.45	17.56	-53.7	-55.8	3.7	0.00e+00	0	46	104	0	78	18858
2026-01-20 19:58:46.73	305.74	17.48	-53.7	-55.8	3.7	0.00e+00	0	46	104	0	78	18889
2026-01-20 19:58:47.73	306.03	17.39	-53.7	-55.8	3.7	0.00e+00	0	45	104	0	78	18918
2026-01-20 19:58:48.74	306.32	17.30	-53.7	-55.8	3.7	0.00e+00	0	45	104	0	78	18904
2026-01-20 19:58:49.75	306.61	17.21	-53.7	-55.8	3.7	0.00e+00	0	45	104	0	78	18940
2026-01-20 19:58:50.75	306.89	17.13	-53.7	-55.8	3.7	0.00e+00	0	45	104	0	78	18888
2026-01-20 19:58:51.76	307.17	17.04	-53.6	-55.8	3.7	0.00e+00	0	45	104	0	78	18851
2026-01-20 19:58:52.77	307.45	16.95	-53.6	-55.8	3.7	0.00e+00	0	46	104	0	78	18849
2026-01-20 19:58:53.78	307.73	16.86	-53.6	-55.8	3.7	0.00e+00	0	46	104	0	78	18878
2026-01-20 19:58:54.79	308.01	16.77	-53.7	-55.8	3.7	0.00e+00	0	45	104	0	78	18858
2026-01-20 19:58:55.79	308.29	16.69	-53.6	-55.8	3.7	0.00e+00	0	46	104	0	78	18842
2026-01-20 19:58:56.80	308.56	16.60	-53.6	-55.7	3.7	0.00e+00	0	46	104	0	78	18795
2026-01-20 19:58:57.81	308.83	16.51	-53.6	-55.8	3.7	0.00e+00	0	46	104	0	78	18854
2026-01-20 19:58:58.82	309.11	16.42	-53.6	-55.7	3.7	0.00e+00	0	46	104	0	78	18803
2026-01-20 19:58:59.82	309.37	16.33	-53.6	-55.8	3.7	0.00e+00	0	45	104	0	78	18831
2026-01-20 19:59:00.83	309.64	16.24	-53.6	-55.7	3.7	0.00e+00	0	45	104	0	78	18706
2026-01-20 19:59:01.84	309.90	16.15	-53.6	-55.7	3.7	0.00e+00	0	46	104	0	78	18800
2026-01-20 19:59:02.85	310.17	16.06	-53.6	-55.7	3.7	0.00e+00	0	46	104	0	78	18750
2026-01-20 19:59:03.85	310.43	15.98	-53.6	-55.7	3.7	0.00e+00	0	46	104	0	78	18705
2026-01-20 19:59:04.86	310.69	15.89	-53.6	-55.7	3.7	0.00e+00	0	46	104	0	78	18708
2026-01-20 19:59:05.87	310.94	15.80	-53.6	-55.7	3.7	0.00e+00	0	46	104	0	78	18804
2026-01-20 19:59:06.88	311.20	15.71	-53.6	-55.7	3.7	0.00e+00	0	46	104	0	78	18695
2026-01-20 19:59:07.89	311.46	15.62	-53.6	-55.7	3.7	0.00e+00	0	45	104	0	78	18734
2026-01-20 19:59:08.89	311.71	15.53	-53.5	-55.7	3.7	0.00e+00	0	46	104	0	78	18698
2026-01-20 19:59:09.90	311.96	15.44	-53.6	-55.7	3.7	0.00e+00	0	46	104	0	78	18721
2026-01-20 19:59:10.91	312.21	15.35	-53.5	-55.7	3.7	0.00e+00	0	46	104	0	78	18641
2026-01-20 19:59:11.92	312.45	15.26	-53.5	-55.7	3.7	0.00e+00	0	46	104	0	78	18683
2026-01-20 19:59:12.93	312.70	15.17	-53.5	-55.7	3.7	0.00e+00	0	45	104	0	78	18648
2026-01-20 19:59:13.93	312.94	15.08	-53.6	-55.7	3.7	0.00e+00	0	46	104	0	78	18726
2026-01-20 19:59:14.94	313.18	14.99	-53.5	-55.7	3.7	0.00e+00	0	46	104	0	78	18625
2026-01-20 19:59:15.95	313.42	14.90	-53.5	-55.6	3.7	0.00e+00	0	46	104	0	78	18580
2026-01-20 19:59:16.96	313.66	14.81	-53.5	-55.6	3.7	0.00e+00	0	46	104	0	78	18602
2026-01-20 19:59:17.96	313.90	14.72	-53.5	-55.7	3.7	0.00e+00	0	45	104	0	78	18680
2026-01-20 19:59:18.97	314.13	14.63	-53.5	-55.7	3.7	0.00e+00	0	46	104	0	78	18611
2026-01-20 19:59:19.98	314.37	14.54	-53.5	-55.6	3.7	0.00e+00	0	46	104	0	78	18489
2026-01-20 19:59:20.99	314.60	14.45	-53.5	-55.6	3.7	0.00e+00	0	45	104	0	78	18567
2026-01-20 19:59:21.99	314.83	14.36	-53.5	-55.6	3.7	0.00e+00	0	45	104	0	78	18574
2026-01-20 19:59:23.00	315.06	14.27	-53.5	-55.6	3.7	0.00e+00	0	46	104	0	78	18542
2026-01-20 19:59:24.01	315.29	14.18	-53.5	-55.6	3.7	0.00e+00	0	46	104	0	78	18426
2026-01-20 19:59:25.02	315.51	14.09	-53.4	-55.6	3.7	0.00e+00	0	45	104	0	78	18485
2026-01-20 19:59:26.02	315.73	14.01	-53.5	-55.6	3.7	0.00e+00	0	46	104	0	78	18490
2026-01-20 19:59:27.03	315.96	13.92	-53.5	-55.6	3.7	0.00e+00	0	46	104	0	78	18485
2026-01-20 19:59:28.04	316.18	13.83	-53.4	-55.6	3.7	0.00e+00	0	45	104	0	78	18457
2026-01-20 19:59:29.05	316.40	13.74	-53.4	-55.6	3.7	0.00e+00	0	45	104	0	78	18396
2026-01-20 19:59:30.06	316.62	13.65	-53.5	-55.6	3.7	0.00e+00	0	46	104	0	78	18509
2026-01-20 19:59:31.07	316.83	13.56	-53.4	-55.5	3.7	0.00e+00	0	46	104	0	78	18380
2026-01-20 19:59:32.07	317.05	13.47	-53.4	-55.5	3.7	0.00e+00	0	46	104	0	78	18362
2026-01-20 19:59:33.08	317.26	13.38	-53.4	-55.5	3.7	0.00e+00	0	46	104	0	78	18381
2026-01-20 19:59:34.09	317.47	13.30	-53.4	-55.6	3.7	0.00e+00	0	45	104	0	78	18440
2026-01-20 19:59:35.09	317.68	13.21	-53.4	-55.5	3.7	0.00e+00	0	46	104	0	78	18274
2026-01-20 19:59:36.10	317.89	13.12	-53.4	-55.5	3.7	0.00e+00	0	46	104	0	78	18282
2026-01-20 19:59:37.11	318.10	13.03	-53.4	-55.5	3.7	0.00e+00	0	46	104	0	78	18243
2026-01-20 19:59:38.12	318.30	12.94	-53.4	-55.5	3.7	0.00e+00	0	45	104	0	78	18320
2026-01-20 19:59:39.13	318.51	12.86	-53.3	-55.5	3.7	0.00e+00	0	46	104	0	78	18220
2026-01-20 19:59:40.14	318.71	12.77	-53.3	-55.5	3.7	0.00e+00	0	45	104	0	78	18208
2026-01-20 19:59:41.14	318.91	12.68	-53.3	-55.4	3.7	0.00e+00	0	46	104	0	78	18154
2026-01-20 19:59:42.15	319.11	12.59	-53.4	-55.5	3.7	0.00e+00	0	46	104	0	78	18258
2026-01-20 19:59:43.16	319.31	12.51	-53.3	-55.4	3.7	0.00e+00	0	45	104	0	78	18124
2026-01-20 19:59:44.17	319.51	12.42	-53.3	-55.5	3.7	0.00e+00	0	45	104	0	78	18222
2026-01-20 19:59:45.17	319.70	12.33	-53.3	-55.4	3.7	0.00e+00	0	46	104	0	78	18120
2026-01-20 19:59:46.18	319.90	12.24	-53.3	-55.5	3.7	0.00e+00	0	46	104	0	78	18199
2026-01-20 19:59:47.19	320.09	12.16	-53.3	-55.4	3.7	0.00e+00	0	45	104	0	78	18043
2026-01-20 19:59:48.20	320.29	12.07	-53.3	-55.4	3.7	0.00e+00	0	46	104	0	78	18074
2026-01-20 19:59:49.20	320.47	11.99	-53.3	-55.4	3.7	0.00e+00	0	46	104	0	78	18095
2026-01-20 19:59:50.21	320.66	11.90	-53.3	-55.4	3.7	0.00e+00	0	45	104	0	78	18054
2026-01-20 19:59:51.22	320.85	11.81	-53.2	-55.4	3.7	0.00e+00	0	45	104	0	78	18015
2026-01-20 19:59:52.23	321.04	11.73	-53.2	-55.4	3.7	0.00e+00	0	45	104	0	78	18041
2026-01-20 19:59:53.23	321.22	11.64	-53.2	-55.4	3.7	0.00e+00	0	45	104	0	78	18018
2026-01-20 19:59:54.24	321.41	11.56	-53.3	-55.4	3.7	0.00e+00	0	46	104	0	78	17996
2026-01-20 19:59:55.25	321.59	11.47	-53.2	-55.4	3.7	0.00e+00	0	45	104	0	78	17977
2026-01-20 19:59:56.26	321.77	11.39	-53.2	-55.3	3.7	0.00e+00	0	46	104	0	78	17894
2026-01-20 19:59:57.27	321.95	11.30	-53.2	-55.3	3.7	0.00e+00	0	46	104	0	78	17929
2026-01-20 19:59:58.28	322.13	11.22	-53.2	-55.4	3.7	0.00e+00	0	46	104	0	78	18026
2026-01-20 19:59:59.28	322.31	11.13	-53.2	-55.3	3.7	0.00e+00	0	45	104	0	78	17918
2026-01-20 20:00:00.29	322.49	11.05	-53.2	-55.3	3.7	0.00e+00	0	46	104	0	78	17865
2026-01-20 20:00:01.30	322.66	10.96	-53.2	-55.3	3.7	0.00e+00	0	46	104	0	78	17881
2026-01-20 20:00:02.31	322.84	10.88	-53.2	-55.3	3.7	0.00e+00	0	46	104	0	78	17924
2026-01-20 20:00:03.31	323.01	10.79	-53.2	-55.3	3.7	0.00e+00	0	46	104	0	78	17829
2026-01-20 20:00:04.32	323.18	10.71	-53.1	-55.3	3.7	0.00e+00	0	45	104	0	78	17809
2026-01-20 20:00:05.33	323.35	10.63	-53.1	-55.3	3.7	0.00e+00	0	46	104	0	78	17818
2026-01-20 20:00:06.34	323.52	10.54	-53.2	-55.3	3.7	0.00e+00	0	46	104	0	78	17849
2026-01-20 20:00:07.35	323.69	10.46	-53.1	-55.3	3.7	0.00e+00	0	45	104	0	78	17813
2026-01-20 20:00:08.36	323.86	10.38	-53.1	-55.3	3.7	0.00e+00	0	45	104	0	78	17797
2026-01-20 20:00:09.37	324.03	10.29	-53.1	-55.3	3.7	0.00e+00	0	46	104	0	78	17795
2026-01-20 20:00:10.38	324.19	10.21	-53.1	-55.3	3.7	0.00e+00	0	45	104	0	78	17827
2026-01-20 20:00:11.39	324.36	10.13	-53.1	-55.2	3.7	0.00e+00	0	46	104	0	78	17745
2026-01-20 20:00:12.40	324.52	10.05	-53.1	-55.2	3.7	0.00e+00	0	46	104	0	78	17752
2026-01-20 20:00:13.41	324.68	9.96	-53.1	-55.3	3.7	0.00e+00	0	46	104	0	78	17773
2026-01-20 20:00:14.42	324.84	9.88	-53.1	-55.2	3.7	0.00e+00	0	46	104	0	78	17723
2026-01-20 20:00:15.42	325.00	9.80	-53.1	-55.2	3.7	0.00e+00	0	46	104	0	78	17702
2026-01-20 20:00:16.43	325.16	9.72	-53.1	-55.2	3.7	0.00e+00	0	46	104	0	78	17718
2026-01-20 20:00:17.44	325.32	9.64	-53.1	-55.2	3.7	0.00e+00	0	46	104	0	78	17689
2026-01-20 20:00:18.45	325.48	9.56	-53.1	-55.2	3.7	0.00e+00	0	46	104	0	78	17668
2026-01-20 20:00:19.45	325.63	9.48	-53.1	-55.2	3.7	0.00e+00	0	46	104	0	78	17683
2026-01-20 20:00:20.46	325.78	9.40	-53.1	-55.2	3.7	0.00e+00	0	46	104	0	78	17632
2026-01-20 20:00:21.47	325.94	9.31	-53.1	-55.2	3.7	0.00e+00	0	46	104	0	78	17672
2026-01-20 20:00:22.48	326.09	9.23	-53.1	-55.2	3.7	0.00e+00	0	45	104	0	78	17624
2026-01-20 20:00:23.49	326.24	9.15	-53.1	-55.2	3.7	0.00e+00	0	46	104	0	78	17564
2026-01-20 20:00:24.49	326.39	9.07	-53.0	-55.1	3.7	0.00e+00	0	46	104	0	78	17534
2026-01-20 20:00:25.50	326.54	8.99	-53.1	-55.2	3.7	0.00e+00	0	46	104	0	78	17613
2026-01-20 20:00:26.51	326.69	8.91	-53.0	-55.2	3.7	0.00e+00	0	45	104	0	78	17618
2026-01-20 20:00:27.52	326.84	8.84	-53.0	-55.1	3.7	0.00e+00	0	46	104	0	78	17523
2026-01-20 20:00:28.53	326.99	8.76	-53.0	-55.1	3.7	0.00e+00	0	46	104	0	78	17505
2026-01-20 20:00:29.54	327.13	8.68	-53.0	-55.1	3.7	0.00e+00	0	46	104	0	78	17553
2026-01-20 20:00:30.55	327.28	8.60	-53.0	-55.1	3.7	0.00e+00	0	45	104	0	78	17539
2026-01-20 20:00:31.56	327.42	8.52	-53.0	-55.2	3.7	0.00e+00	0	46	104	0	78	17564
2026-01-20 20:00:32.57	327.56	8.44	-53.0	-55.1	3.7	0.00e+00	0	46	104	0	78	17449
2026-01-20 20:00:33.57	327.70	8.36	-53.0	-55.1	3.7	0.00e+00	0	45	104	0	77	18487
2026-01-20 20:00:34.58	327.85	8.29	-53.0	-55.1	3.7	0.00e+00	0	46	104	0	77	18497
2026-01-20 20:00:35.59	327.99	8.21	-52.9	-55.1	3.7	0.00e+00	0	45	104	0	77	18439
2026-01-20 20:00:36.60	328.13	8.13	-52.9	-55.1	3.7	0.00e+00	0	46	104	0	77	18397
2026-01-20 20:00:37.61	328.26	8.05	-53.0	-55.1	3.7	0.00e+00	0	46	104	0	77	18507
2026-01-20 20:00:38.62	328.40	7.97	-52.9	-55.1	3.7	0.00e+00	0	46	104	0	77	18422
2026-01-20 20:00:39.63	328.54	7.90	-52.9	-55.0	3.7	0.00e+00	0	45	104	0	77	18365
2026-01-20 20:00:40.63	328.67	7.82	-52.9	-55.0	3.7	0.00e+00	0	45	104	0	77	18301
2026-01-20 20:00:41.64	328.81	7.74	-52.9	-55.1	3.7	0.00e+00	0	46	104	0	77	18473
2026-01-20 20:00:42.65	328.94	7.67	-52.9	-55.0	3.7	0.00e+00	0	46	104	0	77	18335
2026-01-20 20:00:43.66	329.08	7.59	-52.9	-55.0	3.7	0.00e+00	0	46	104	0	77	18346
2026-01-20 20:00:44.67	329.21	7.52	-52.9	-55.0	3.7	0.00e+00	0	45	104	0	77	18258
2026-01-20 20:00:45.67	329.34	7.44	-52.9	-55.0	3.7	0.00e+00	0	46	104	0	77	18382
2026-01-20 20:00:46.68	329.47	7.36	-52.9	-55.0	3.7	0.00e+00	0	45	104	0	77	18332
2026-01-20 20:00:47.69	329.60	7.29	-52.9	-55.0	3.7	0.00e+00	0	46	104	0	77	18271
2026-01-20 20:00:48.70	329.73	7.21	-52.8	-55.0	3.7	0.00e+00	0	46	104	0	77	18231
2026-01-20 20:00:49.71	329.86	7.14	-52.9	-55.0	3.7	0.00e+00	0	46	104	0	77	18316
2026-01-20 20:00:50.71	329.99	7.06	-52.8	-55.0	3.7	0.00e+00	0	45	104	0	77	18234
2026-01-20 20:00:51.72	330.11	6.99	-52.9	-55.0	3.7	0.00e+00	0	46	104	0	77	18191
2026-01-20 20:00:52.73	330.24	6.92	-52.8	-54.9	3.7	0.00e+00	0	46	104	0	77	18135
2026-01-20 20:00:53.74	330.36	6.84	-52.9	-55.0	3.7	0.00e+00	0	46	104	0	77	18294
2026-01-20 20:00:54.75	330.49	6.77	-52.8	-55.0	3.7	0.00e+00	0	46	104	0	77	18236
2026-01-20 20:00:55.75	330.61	6.69	-52.8	-55.0	3.7	0.00e+00	0	45	104	0	77	18185
2026-01-20 20:00:56.76	330.73	6.62	-52.8	-54.9	3.7	0.00e+00	0	46	104	0	77	18040
2026-01-20 20:00:57.77	330.86	6.55	-52.8	-55.0	3.7	0.00e+00	0	45	104	0	77	18197
2026-01-20 20:00:58.78	330.98	6.47	-52.8	-54.9	3.7	0.00e+00	0	45	104	0	77	18041
2026-01-20 20:00:59.79	331.10	6.40	-52.8	-54.9	3.7	0.00e+00	0	45	104	0	77	18131
2026-01-20 20:01:00.79	331.22	6.33	-52.7	-54.8	3.7	0.00e+00	0	46	104	0	77	17940
2026-01-20 20:01:01.80	331.34	6.25	-52.8	-55.0	3.7	0.00e+00	0	46	104	0	77	18183
2026-01-20 20:01:02.81	331.46	6.18	-52.7	-54.8	3.7	0.00e+00	0	46	104	0	77	17948
2026-01-20 20:01:03.82	331.57	6.11	-52.8	-54.9	3.7	0.00e+00	0	46	104	0	77	18094
2026-01-20 20:01:04.82	331.69	6.04	-52.6	-54.8	3.7	0.00e+00	0	46	104	0	77	17814
2026-01-20 20:01:05.83	331.81	5.96	-52.8	-54.9	3.7	0.00e+00	0	46	104	0	77	18114
2026-01-20 20:01:06.84	331.92	5.89	-52.7	-54.8	3.7	0.00e+00	0	46	104	0	77	17911
2026-01-20 20:01:07.85	332.04	5.82	-52.7	-54.8	3.7	0.00e+00	0	46	104	0	77	17925
2026-01-20 20:01:08.86	332.15	5.75	-52.6	-54.7	3.7	0.00e+00	0	46	104	0	77	17711
2026-01-20 20:01:09.87	332.27	5.68	-52.7	-54.9	3.7	0.00e+00	0	46	104	0	77	17980
2026-01-20 20:01:10.88	332.38	5.61	-52.6	-54.8	3.7	0.00e+00	0	46	104	0	77	17797
2026-01-20 20:01:11.89	332.49	5.54	-52.7	-54.8	3.7	0.00e+00	0	46	104	0	77	17791
2026-01-20 20:01:12.90	332.60	5.46	-52.5	-54.7	3.7	0.00e+00	0	46	104	0	77	17584
2026-01-20 20:01:13.91	332.71	5.39	-52.7	-54.8	3.7	0.00e+00	0	46	104	0	77	17923
2026-01-20 20:01:14.91	332.82	5.32	-52.5	-54.6	3.7	0.00e+00	0	46	104	0	77	17552
2026-01-20 20:01:15.92	332.93	5.25	-52.6	-54.7	3.7	0.00e+00	0	46	104	0	77	17762
2026-01-20 20:01:16.93	333.04	5.18	-52.5	-54.6	3.7	0.00e+00	0	46	104	0	77	17465
2026-01-20 20:01:17.94	333.15	5.11	-52.6	-54.8	3.7	0.00e+00	0	46	104	0	77	17769
2026-01-20 20:01:18.95	333.26	5.04	-52.4	-54.5	3.7	0.00e+00	0	46	104	0	76	18374
2026-01-20 20:01:19.96	333.37	4.97	-52.6	-54.8	3.7	0.00e+00	0	46	104	0	76	18852
2026-01-20 20:01:20.97	333.47	4.91	-53.0	-55.1	3.7	0.00e+00	0	46	104	0	76	19509
2026-01-20 20:01:21.97	333.58	4.84	-53.1	-55.3	3.7	0.00e+00	0	46	104	0	76	20000
2026-01-20 20:01:22.98	333.68	4.77	-53.2	-55.4	3.7	0.00e+00	0	46	104	0	77	19126
2026-01-20 20:01:23.99	333.79	4.70	-53.4	-55.5	3.7	0.00e+00	0	46	104	0	77	19299
2026-01-20 20:01:25.00	333.89	4.63	-53.4	-55.6	3.7	0.00e+00	0	46	104	0	77	19529
2026-01-20 20:01:26.01	334.00	4.56	-53.5	-55.7	3.7	0.00e+00	0	46	104	0	77	19717
2026-01-20 20:01:27.02	334.10	4.49	-53.5	-55.6	3.7	0.00e+00	0	46	104	0	77	19660
2026-01-20 20:01:28.02	334.20	4.43	-53.5	-55.6	3.7	0.00e+00	0	46	104	0	77	19665
2026-01-20 20:01:29.03	334.30	4.36	-53.5	-55.6	3.7	0.00e+00	0	46	104	0	77	19609
2026-01-20 20:01:30.04	334.41	4.29	-53.4	-55.5	3.7	0.00e+00	0	45	104	0	77	19392
2026-01-20 20:01:31.05	334.51	4.22	-53.3	-55.5	3.7	0.00e+00	0	46	104	0	77	19274
2026-01-20 20:01:32.06	334.61	4.15	-53.2	-55.4	3.7	0.00e+00	0	46	104	0	77	19078
2026-01-20 20:01:33.07	334.71	4.09	-53.3	-55.4	3.7	0.00e+00	0	46	104	0	77	19140
2026-01-20 20:01:34.07	334.81	4.02	-53.3	-55.4	3.7	0.00e+00	0	46	104	0	77	19195
2026-01-20 20:01:35.08	334.90	3.95	-53.4	-55.5	3.7	0.00e+00	0	46	104	0	77	19329
2026-01-20 20:01:36.09	335.00	3.89	-53.4	-55.5	3.7	0.00e+00	0	46	104	0	77	19434
2026-01-20 20:01:37.10	335.10	3.82	-53.4	-55.6	3.7	0.00e+00	0	46	104	0	77	19503
2026-01-20 20:01:38.11	335.20	3.75	-53.4	-55.6	3.7	0.00e+00	0	46	104	0	77	19496
2026-01-20 20:01:39.12	335.29	3.69	-53.5	-55.6	3.7	0.00e+00	0	46	104	0	77	19552
2026-01-20 20:01:40.12	335.39	3.62	-53.5	-55.6	3.7	0.00e+00	0	46	104	0	77	19613
2026-01-20 20:01:41.13	335.48	3.55	-53.5	-55.6	3.7	0.00e+00	0	46	104	0	77	19601
2026-01-20 20:01:42.14	335.58	3.49	-53.5	-55.6	3.7	0.00e+00	0	46	104	0	77	19588
2026-01-20 20:01:43.15	335.67	3.42	-53.4	-55.6	3.7	0.00e+00	0	46	104	0	77	19551
2026-01-20 20:01:44.16	335.77	3.36	-53.4	-55.6	3.7	0.00e+00	0	46	104	0	77	19517
2026-01-20 20:01:45.16	335.86	3.29	-53.4	-55.5	3.7	0.00e+00	0	46	104	0	77	19451
2026-01-20 20:01:46.17	335.95	3.23	-53.4	-55.5	3.7	0.00e+00	0	46	104	0	77	19464
2026-01-20 20:01:47.18	336.05	3.16	-53.4	-55.5	3.7	0.00e+00	0	46	104	0	77	19459
2026-01-20 20:01:48.19	336.14	3.10	-53.4	-55.6	3.7	0.00e+00	0	46	104	0	77	19498
2026-01-20 20:01:49.20	336.23	3.03	-53.4	-55.5	3.7	0.00e+00	0	46	104	0	77	19479
2026-01-20 20:01:50.21	336.32	2.97	-53.4	-55.5	3.7	0.00e+00	0	46	104	0	77	19428
2026-01-20 20:01:51.21	336.41	2.90	-53.4	-55.5	3.7	0.00e+00	0	46	104	0	77	19428
2026-01-20 20:01:52.22	336.50	2.84	-53.4	-55.5	3.7	0.00e+00	0	46	104	0	77	19430
2026-01-20 20:01:53.23	336.59	2.77	-53.4	-55.5	3.7	0.00e+00	0	46	104	0	77	19432
2026-01-20 20:01:54.24	336.68	2.71	-53.4	-55.6	3.7	0.00e+00	0	46	104	0	77	19497
2026-01-20 20:01:55.25	336.77	2.65	-53.4	-55.5	3.7	0.00e+00	0	46	104	0	77	19407
2026-01-20 20:01:56.25	336.85	2.58	-53.4	-55.5	3.7	0.00e+00	0	46	104	0	77	19372
2026-01-20 20:01:57.26	336.94	2.52	-53.4	-55.5	3.7	0.00e+00	0	46	104	0	77	19405
2026-01-20 20:01:58.27	337.03	2.46	-53.4	-55.5	3.7	0.00e+00	0	46	104	0	77	19426
2026-01-20 20:01:59.28	337.12	2.39	-53.4	-55.5	3.7	0.00e+00	0	46	104	0	77	19398
2026-01-20 20:02:00.29	337.20	2.33	-53.4	-55.5	3.7	0.00e+00	0	46	104	0	77	19370
2026-01-20 20:02:01.29	337.29	2.27	-53.4	-55.5	3.7	0.00e+00	0	46	104	0	77	19402
2026-01-20 20:02:02.30	337.37	2.20	-53.4	-55.5	3.7	0.00e+00	0	46	104	0	77	19347
2026-01-20 20:02:03.31	337.46	2.14	-53.4	-55.5	3.7	0.00e+00	0	46	104	0	77	19424
2026-01-20 20:02:04.32	337.54	2.08	-53.4	-55.5	3.7	0.00e+00	0	46	104	0	77	19412
2026-01-20 20:02:05.33	337.63	2.02	-53.4	-55.5	3.7	0.00e+00	0	46	104	0	77	19375
2026-01-20 20:02:06.34	337.71	1.95	-53.4	-55.5	3.7	0.00e+00	0	46	104	0	77	19456

#Closed at: 2026-01-20 20:02:06
#Recorded file [0 MB]: D:/lorett/data/31041_260120_225222.dat