passes_logs/2026/01/20/R3.2S_Murmansk/R3.2S_Murmansk__20260120_215841_NOAA_20_JPSS-1_rec.log

#Pass ID: 20260120_215841_NOAA 20 (JPSS-1)
#Satellite: NOAA 20 (JPSS-1)
#Configuration: NOAA 20
#almurnet v.1.7.20251203
#Start time: 2026-01-20 21:58:42

#Version: 2.2.20231116
#Station: R3.2S_Murmansk
#Location: 33.079688 lon 68.888172 lat
#TLE: 1 43013U 17073A   26020.26397077  .00000127  00000+0  80954-4 0  9999
#TLE: 2 43013  98.7643 321.1479 0001288  31.3158 328.8095 14.19537595423482

#Time	Az	El	Level	Level2	SNR	BER	BlckErr	Temp	State	Recorded	gain1	gain2
2026-01-20 21:58:42.10	18.52	2.03	-53.6	-68.6	3.8	1.49e+00	0	39	0	0	78	20655
2026-01-20 21:58:43.06	18.60	2.08	-53.8	-68.8	3.8	1.49e+00	0	38	104	0	78	21096
2026-01-20 21:58:44.03	18.67	2.13	-53.8	-68.8	3.8	1.49e+00	0	39	104	0	78	21070
2026-01-20 21:58:45.00	18.75	2.18	-53.8	-68.7	3.8	1.49e+00	0	39	104	0	78	21012
2026-01-20 21:58:45.97	18.83	2.23	-53.8	-68.8	3.8	1.49e+00	0	38	104	0	78	21083
2026-01-20 21:58:46.95	18.91	2.28	-53.8	-68.8	3.8	1.49e+00	0	38	104	0	78	21070
2026-01-20 21:58:47.92	18.99	2.33	-53.7	-68.7	3.8	1.49e+00	0	39	104	0	78	20989
2026-01-20 21:58:48.89	19.07	2.38	-53.7	-68.7	3.8	1.49e+00	0	39	104	0	78	20851
2026-01-20 21:58:49.86	19.15	2.43	-53.7	-68.7	3.8	1.49e+00	0	38	104	0	78	20923
2026-01-20 21:58:50.82	19.23	2.48	-53.7	-68.7	3.8	1.49e+00	0	39	104	0	78	20885
2026-01-20 21:58:51.79	19.31	2.53	-53.7	-68.7	3.8	1.49e+00	0	39	104	0	78	20883
2026-01-20 21:58:52.76	19.39	2.58	-53.7	-68.7	3.8	1.49e+00	0	39	104	0	78	20794
2026-01-20 21:58:53.73	19.47	2.63	-53.6	-68.6	3.8	1.49e+00	0	39	104	0	78	20735
2026-01-20 21:58:54.70	19.55	2.68	-53.6	-68.6	3.8	1.49e+00	0	39	104	0	78	20637
2026-01-20 21:58:55.67	19.63	2.73	-53.5	-68.5	3.8	1.49e+00	0	39	104	0	78	20473
2026-01-20 21:58:56.64	19.71	2.78	-53.5	-68.5	3.8	1.49e+00	0	39	104	0	78	20328
2026-01-20 21:58:57.61	19.79	2.83	-53.4	-68.4	3.8	1.49e+00	0	39	104	0	78	20117
2026-01-20 21:58:58.58	19.87	2.89	-53.3	-68.3	3.8	1.49e+00	0	39	104	0	78	19872
2026-01-20 21:58:59.55	19.95	2.94	-53.2	-68.2	3.8	1.49e+00	0	39	104	0	78	19697
2026-01-20 21:59:00.52	20.04	2.99	-53.0	-68.0	3.8	1.49e+00	0	39	104	0	78	19375
2026-01-20 21:59:01.49	20.12	3.04	-52.8	-67.8	3.8	1.49e+00	0	39	104	0	77	20008
2026-01-20 21:59:02.47	20.20	3.09	-52.5	-67.5	3.8	1.49e+00	0	39	104	0	77	19246
2026-01-20 21:59:03.44	20.29	3.14	-52.1	-67.0	3.8	1.49e+00	0	39	104	0	76	19373
2026-01-20 21:59:04.41	20.37	3.19	-52.1	-67.0	3.8	1.49e+00	0	39	104	0	76	19308
2026-01-20 21:59:05.39	20.45	3.24	-52.1	-67.0	3.8	1.49e+00	0	39	104	0	76	19287
2026-01-20 21:59:06.35	20.54	3.30	-52.0	-67.0	3.8	1.49e+00	0	39	104	0	76	19319
2026-01-20 21:59:07.32	20.62	3.35	-52.1	-67.0	3.8	1.49e+00	0	39	104	0	76	19298
2026-01-20 21:59:08.29	20.70	3.40	-52.0	-67.0	3.8	1.49e+00	0	39	104	0	76	19325
2026-01-20 21:59:09.26	20.79	3.45	-52.1	-67.0	3.8	1.49e+00	0	39	104	0	76	19275
2026-01-20 21:59:10.22	20.87	3.50	-52.0	-67.0	3.8	1.49e+00	0	39	104	0	76	19218
2026-01-20 21:59:11.20	20.96	3.55	-52.0	-67.0	3.8	1.49e+00	0	39	104	0	76	19202
2026-01-20 21:59:12.17	21.05	3.60	-52.1	-66.9	3.8	1.49e+00	0	39	104	0	76	19142
2026-01-20 21:59:13.14	21.13	3.66	-52.0	-67.0	3.8	1.49e+00	0	39	104	0	76	19253
2026-01-20 21:59:14.11	21.22	3.71	-52.0	-67.0	3.8	1.49e+00	0	39	104	0	76	19264
2026-01-20 21:59:15.08	21.30	3.76	-52.0	-67.0	3.8	1.49e+00	0	39	104	0	76	19266
2026-01-20 21:59:16.05	21.39	3.81	-52.0	-67.0	3.8	1.49e+00	0	39	104	0	76	19296
2026-01-20 21:59:17.03	21.48	3.86	-52.0	-67.0	3.8	1.49e+00	0	39	104	0	76	19168
2026-01-20 21:59:18.02	21.57	3.92	-52.0	-67.0	3.8	1.49e+00	0	39	104	0	76	19171
2026-01-20 21:59:19.01	21.66	3.97	-52.1	-67.0	3.8	1.49e+00	0	39	104	0	76	19175
2026-01-20 21:59:20.00	21.75	4.02	-52.0	-67.0	3.8	1.49e+00	0	39	104	0	76	19274
2026-01-20 21:59:21.00	21.84	4.08	-52.1	-67.0	3.8	1.49e+00	0	39	104	0	76	19292
2026-01-20 21:59:22.01	21.93	4.13	-52.0	-67.0	3.8	1.49e+00	0	39	104	0	76	19185
2026-01-20 21:59:23.02	22.02	4.19	-52.0	-66.8	3.8	1.49e+00	0	39	104	0	76	18935
2026-01-20 21:59:24.02	22.11	4.24	-52.0	-66.7	3.8	1.49e+00	0	39	104	0	76	18524
2026-01-20 21:59:25.03	22.21	4.29	-52.0	-66.5	3.8	1.49e+00	0	39	104	0	76	18124
2026-01-20 21:59:26.04	22.30	4.35	-52.0	-66.2	3.8	1.49e+00	0	39	104	0	76	17613
2026-01-20 21:59:27.04	22.39	4.40	-52.0	-66.0	3.8	1.49e+00	0	39	104	0	76	17229
2026-01-20 21:59:28.05	22.49	4.46	-52.0	-65.6	3.8	1.49e+00	0	40	104	0	76	16346
2026-01-20 21:59:29.06	22.58	4.51	-51.9	-64.4	3.9	1.49e+00	0	39	104	0	75	15158
2026-01-20 21:59:30.07	22.68	4.57	-51.8	-62.7	4.4	1.36e+00	155	39	0	0	75	12459
2026-01-20 21:59:31.08	22.77	4.62	-51.5	-60.4	5.6	7.97e-01	0	39	0	2097152	75	9594
2026-01-20 21:59:32.08	22.86	4.67	-51.3	-58.8	6.9	3.31e-01	0	39	0	3145728	74	8423
2026-01-20 21:59:33.09	22.96	4.73	-50.9	-57.1	8.6	5.01e-02	0	39	0	5242880	73	7312
2026-01-20 21:59:34.10	23.06	4.78	-50.6	-56.2	9.5	2.40e-02	0	39	0	7340032	73	6632
2026-01-20 21:59:35.11	23.15	4.84	-50.3	-55.2	10.6	7.52e-03	0	39	0	9437184	72	6239
2026-01-20 21:59:36.11	23.25	4.89	-50.2	-55.1	10.7	3.17e-03	0	39	0	11534336	72	6186
2026-01-20 21:59:37.12	23.35	4.95	-50.3	-55.4	10.4	4.34e-03	0	39	0	12582912	72	6353
2026-01-20 21:59:38.13	23.44	5.00	-50.5	-56.0	9.8	4.98e-03	0	39	0	14680064	72	6820
2026-01-20 21:59:39.14	23.54	5.06	-50.8	-56.9	8.8	2.37e-02	0	39	0	16777216	72	7600
2026-01-20 21:59:40.14	23.64	5.11	-49.7	-53.5	12.6	1.40e-04	0	39	0	18874368	71	5430
2026-01-20 21:59:41.15	23.74	5.17	-51.9	-66.7	3.8	9.10e-01	0	40	104	19922944	74	20938
2026-01-20 21:59:42.16	23.84	5.22	-48.1	-50.7	15.3	9.62e-01	0	40	0	19922944	68	4661
2026-01-20 21:59:43.17	23.93	5.28	-48.4	-51.2	14.9	0.00e+00	0	39	0	22020096	67	5220
2026-01-20 21:59:44.18	24.03	5.33	-50.7	-56.2	9.6	3.37e-04	0	40	0	24117248	72	7006
2026-01-20 21:59:45.19	24.13	5.39	-48.2	-50.7	15.4	1.01e-04	0	40	0	25165824	68	4694
2026-01-20 21:59:46.19	24.23	5.44	-47.8	-50.2	15.9	0.00e+00	0	39	0	27262976	67	4699
2026-01-20 21:59:47.20	24.33	5.50	-47.8	-50.2	16.0	0.00e+00	0	39	0	29360128	67	4661
2026-01-20 21:59:48.21	24.43	5.56	-47.9	-50.3	15.9	0.00e+00	0	39	0	31457280	67	4724
2026-01-20 21:59:49.22	24.54	5.61	-47.8	-50.2	16.0	0.00e+00	0	40	0	33554432	67	4671
2026-01-20 21:59:50.22	24.64	5.67	-47.8	-50.2	15.9	0.00e+00	0	39	0	34603008	67	4697
2026-01-20 21:59:51.23	24.74	5.72	-47.6	-49.9	16.2	0.00e+00	0	39	0	36700160	67	4536
2026-01-20 21:59:52.24	24.84	5.78	-47.9	-50.3	15.9	0.00e+00	0	40	0	38797312	67	4737
2026-01-20 21:59:53.24	24.94	5.83	-47.8	-50.1	16.0	0.00e+00	0	39	0	40894464	67	4649
2026-01-20 21:59:54.25	25.05	5.89	-47.9	-50.3	15.9	0.00e+00	0	39	0	42991616	67	4707
2026-01-20 21:59:55.26	25.15	5.94	-47.9	-50.3	15.9	0.00e+00	0	40	0	44040192	67	4720
2026-01-20 21:59:56.27	25.25	6.00	-48.0	-50.5	15.7	0.00e+00	0	39	0	46137344	67	4863
2026-01-20 21:59:57.28	25.36	6.06	-48.1	-50.6	15.6	0.00e+00	0	40	0	48234496	67	4903
2026-01-20 21:59:58.28	25.46	6.11	-48.1	-50.6	15.6	0.00e+00	0	39	0	50331648	67	4907
2026-01-20 21:59:59.29	25.57	6.17	-48.1	-50.6	15.6	0.00e+00	0	40	0	52428800	67	4880
2026-01-20 22:00:00.30	25.67	6.22	-47.8	-50.1	16.1	0.00e+00	0	40	0	53477376	67	4650
2026-01-20 22:00:01.31	25.78	6.28	-47.9	-50.2	16.0	0.00e+00	0	39	0	55574528	67	4694
2026-01-20 22:00:02.31	25.88	6.34	-47.8	-50.1	16.1	0.00e+00	0	40	0	57671680	67	4650
2026-01-20 22:00:03.32	25.99	6.39	-47.8	-50.1	16.2	0.00e+00	0	40	0	59768832	67	4639
2026-01-20 22:00:04.33	26.10	6.45	-47.8	-50.2	16.1	0.00e+00	0	40	0	61865984	67	4656
2026-01-20 22:00:05.34	26.20	6.50	-47.7	-50.0	16.3	0.00e+00	0	40	0	62914560	67	4566
2026-01-20 22:00:06.34	26.31	6.56	-47.6	-49.8	16.5	0.00e+00	0	40	0	65011712	67	4485
2026-01-20 22:00:07.35	26.42	6.62	-47.6	-49.8	16.5	0.00e+00	0	40	0	67108864	67	4450
2026-01-20 22:00:08.36	26.53	6.67	-47.4	-49.6	16.7	0.00e+00	0	40	0	69206016	66	4602
2026-01-20 22:00:09.37	26.64	6.73	-47.5	-49.6	16.7	0.00e+00	0	40	0	71303168	66	4634
2026-01-20 22:00:10.37	26.75	6.79	-47.4	-49.5	16.9	0.00e+00	0	39	0	72351744	66	4553
2026-01-20 22:00:11.38	26.86	6.84	-47.4	-49.5	16.9	0.00e+00	0	40	0	74448896	66	4586
2026-01-20 22:00:12.39	26.97	6.90	-47.4	-49.5	16.9	0.00e+00	0	40	0	76546048	66	4572
2026-01-20 22:00:13.40	27.08	6.96	-47.5	-49.6	16.8	0.00e+00	0	40	0	78643200	66	4626
2026-01-20 22:00:14.41	27.19	7.01	-47.3	-49.3	17.1	0.00e+00	0	40	0	80740352	66	4465
2026-01-20 22:00:15.41	27.30	7.07	-47.4	-49.4	17.0	0.00e+00	0	40	0	81788928	66	4537
2026-01-20 22:00:16.42	27.41	7.12	-47.2	-49.2	17.2	0.00e+00	0	40	0	83886080	66	4414
2026-01-20 22:00:17.43	27.52	7.18	-47.2	-49.2	17.2	0.00e+00	0	40	0	85983232	66	4404
2026-01-20 22:00:18.43	27.63	7.24	-47.1	-49.1	17.3	0.00e+00	0	40	0	88080384	66	4373
2026-01-20 22:00:19.44	27.75	7.29	-47.1	-49.1	17.4	0.00e+00	0	40	0	90177536	66	4349
2026-01-20 22:00:20.45	27.86	7.35	-47.1	-49.1	17.3	0.00e+00	0	40	0	91226112	66	4375
2026-01-20 22:00:21.45	27.97	7.41	-47.2	-49.1	17.3	0.00e+00	0	39	0	93323264	66	4390
2026-01-20 22:00:22.46	28.09	7.46	-47.1	-49.0	17.4	0.00e+00	0	40	0	95420416	66	4306
2026-01-20 22:00:23.47	28.20	7.52	-47.0	-49.0	17.4	0.00e+00	0	40	0	97517568	66	4299
2026-01-20 22:00:24.48	28.32	7.58	-46.9	-48.8	17.6	0.00e+00	0	40	0	99614720	65	4451
2026-01-20 22:00:25.48	28.43	7.63	-46.8	-48.7	17.7	0.00e+00	0	40	0	100663296	65	4415
2026-01-20 22:00:26.49	28.55	7.69	-46.8	-48.6	17.8	0.00e+00	0	40	0	102760448	65	4375
2026-01-20 22:00:27.50	28.66	7.75	-46.9	-48.9	17.5	0.00e+00	0	40	0	104857600	65	4499
2026-01-20 22:00:28.51	28.78	7.81	-46.8	-48.7	17.8	0.00e+00	0	40	0	106954752	65	4393
2026-01-20 22:00:29.52	28.90	7.86	-46.8	-48.6	17.8	0.00e+00	0	40	0	109051904	65	4380
2026-01-20 22:00:30.52	29.01	7.92	-46.8	-48.7	17.8	0.00e+00	0	40	0	110100480	65	4409
2026-01-20 22:00:31.53	29.13	7.98	-46.7	-48.5	18.0	0.00e+00	0	40	0	112197632	65	4299
2026-01-20 22:00:32.54	29.25	8.03	-46.6	-48.4	18.0	0.00e+00	0	40	0	114294784	65	4280
2026-01-20 22:00:33.54	29.37	8.09	-46.7	-48.5	18.0	0.00e+00	0	40	0	116391936	65	4293
2026-01-20 22:00:34.55	29.49	8.15	-46.7	-48.5	17.9	0.00e+00	0	40	0	118489088	65	4326
2026-01-20 22:00:35.56	29.61	8.21	-46.7	-48.5	17.9	0.00e+00	0	40	0	119537664	65	4340
2026-01-20 22:00:36.56	29.73	8.26	-46.7	-48.4	18.0	0.00e+00	0	39	0	121634816	65	4290
2026-01-20 22:00:37.57	29.85	8.32	-46.7	-48.5	18.0	0.00e+00	0	40	0	123731968	65	4310
2026-01-20 22:00:38.57	29.97	8.38	-46.8	-48.6	17.9	0.00e+00	0	40	0	125829120	65	4358
2026-01-20 22:00:39.58	30.09	8.43	-46.8	-48.6	17.9	0.00e+00	0	40	0	127926272	65	4389
2026-01-20 22:00:40.59	30.21	8.49	-46.8	-48.7	17.8	0.00e+00	0	40	0	128974848	65	4394
2026-01-20 22:00:41.59	30.34	8.55	-47.0	-48.9	17.6	0.00e+00	0	40	0	131072000	65	4530
2026-01-20 22:00:42.60	30.46	8.61	-46.9	-48.8	17.7	0.00e+00	0	40	0	133169152	65	4481
2026-01-20 22:00:43.61	30.58	8.66	-47.0	-48.9	17.6	0.00e+00	0	40	0	135266304	65	4512
2026-01-20 22:00:44.62	30.71	8.72	-47.0	-48.9	17.7	0.00e+00	0	40	0	137363456	65	4495
2026-01-20 22:00:45.62	30.83	8.78	-47.0	-48.9	17.6	0.00e+00	0	40	0	138412032	65	4524
2026-01-20 22:00:46.63	30.96	8.84	-47.0	-48.9	17.6	0.00e+00	0	40	0	140509184	65	4519
2026-01-20 22:00:47.63	31.08	8.89	-46.9	-48.7	17.8	0.00e+00	0	40	0	142606336	65	4436
2026-01-20 22:00:48.64	31.21	8.95	-46.9	-48.8	17.7	0.00e+00	0	40	0	144703488	65	4480
2026-01-20 22:00:49.65	31.33	9.01	-46.9	-48.8	17.7	0.00e+00	0	40	0	146800640	65	4461
2026-01-20 22:00:50.66	31.46	9.06	-46.8	-48.6	17.9	0.00e+00	0	40	0	147849216	65	4381
2026-01-20 22:00:51.67	31.59	9.12	-46.7	-48.5	18.0	0.00e+00	0	40	0	149946368	65	4327
2026-01-20 22:00:52.67	31.71	9.18	-46.8	-48.6	17.9	0.00e+00	0	40	0	152043520	65	4384
2026-01-20 22:00:53.68	31.84	9.24	-46.7	-48.5	18.1	0.00e+00	0	40	0	154140672	65	4298
2026-01-20 22:00:54.69	31.97	9.29	-46.7	-48.5	18.0	0.00e+00	0	40	0	156237824	65	4315
2026-01-20 22:00:55.70	32.10	9.35	-46.8	-48.6	18.0	0.00e+00	0	40	0	158334976	65	4354
2026-01-20 22:00:56.71	32.23	9.41	-46.8	-48.6	17.9	0.00e+00	0	40	0	159383552	65	4367
2026-01-20 22:00:57.72	32.36	9.47	-46.8	-48.6	18.0	0.00e+00	0	40	0	161480704	65	4359
2026-01-20 22:00:58.73	32.49	9.53	-46.9	-48.7	17.8	0.00e+00	0	40	0	163577856	65	4434
2026-01-20 22:00:59.73	32.62	9.58	-46.9	-48.8	17.8	0.00e+00	0	40	0	165675008	65	4464
2026-01-20 22:01:00.74	32.75	9.64	-46.9	-48.7	17.8	0.00e+00	0	40	0	166723584	65	4435
2026-01-20 22:01:01.74	32.88	9.70	-46.7	-48.5	18.1	0.00e+00	0	40	0	168820736	65	4297
2026-01-20 22:01:02.75	33.02	9.76	-46.7	-48.5	18.1	0.00e+00	0	40	0	170917888	65	4323
2026-01-20 22:01:03.75	33.15	9.81	-46.7	-48.4	18.1	0.00e+00	0	40	0	173015040	65	4285
2026-01-20 22:01:04.76	33.28	9.87	-46.7	-48.5	18.1	0.00e+00	0	40	0	175112192	65	4302
2026-01-20 22:01:05.76	33.42	9.93	-46.8	-48.6	18.1	0.00e+00	0	40	0	176160768	65	4341
2026-01-20 22:01:06.77	33.55	9.98	-46.8	-48.5	18.1	0.00e+00	0	40	0	178257920	65	4335
2026-01-20 22:01:07.77	33.69	10.04	-46.6	-48.3	18.3	0.00e+00	0	40	0	180355072	65	4226
2026-01-20 22:01:08.78	33.82	10.10	-46.6	-48.3	18.3	0.00e+00	0	40	0	182452224	65	4215
2026-01-20 22:01:09.79	33.96	10.16	-46.6	-48.4	18.2	0.00e+00	0	40	0	184549376	65	4248
2026-01-20 22:01:10.79	34.09	10.21	-46.4	-48.1	18.4	0.00e+00	0	40	0	185597952	64	4367
2026-01-20 22:01:11.80	34.23	10.27	-46.4	-48.1	18.5	0.00e+00	0	40	0	187695104	64	4373
2026-01-20 22:01:12.81	34.37	10.33	-46.4	-48.0	18.6	0.00e+00	0	40	0	189792256	64	4323
2026-01-20 22:01:13.81	34.51	10.39	-46.5	-48.2	18.5	0.00e+00	0	40	0	191889408	64	4393
2026-01-20 22:01:14.81	34.64	10.44	-46.3	-48.0	18.6	0.00e+00	0	40	0	193986560	64	4310
2026-01-20 22:01:15.82	34.78	10.50	-46.5	-48.2	18.5	0.00e+00	0	40	0	195035136	64	4397
2026-01-20 22:01:16.83	34.92	10.56	-46.5	-48.2	18.4	0.00e+00	0	40	0	197132288	64	4432
2026-01-20 22:01:17.83	35.06	10.62	-46.5	-48.2	18.4	0.00e+00	0	40	0	199229440	64	4410
2026-01-20 22:01:18.83	35.20	10.67	-46.5	-48.2	18.4	0.00e+00	0	40	0	201326592	64	4432
2026-01-20 22:01:19.83	35.34	10.73	-46.5	-48.1	18.5	0.00e+00	0	40	0	203423744	64	4390
2026-01-20 22:01:20.84	35.49	10.79	-46.6	-48.3	18.3	0.00e+00	0	40	0	204472320	64	4490
2026-01-20 22:01:21.84	35.63	10.84	-46.6	-48.3	18.4	0.00e+00	0	40	0	206569472	64	4456
2026-01-20 22:01:22.85	35.77	10.90	-46.5	-48.1	18.5	0.00e+00	0	40	0	208666624	64	4382
2026-01-20 22:01:23.85	35.91	10.96	-46.5	-48.1	18.5	0.00e+00	0	40	0	210763776	64	4383
2026-01-20 22:01:24.86	36.06	11.02	-46.4	-48.0	18.7	0.00e+00	0	40	0	212860928	64	4308
2026-01-20 22:01:25.87	36.20	11.07	-46.3	-47.9	18.8	0.00e+00	0	40	0	213909504	64	4265
2026-01-20 22:01:26.87	36.35	11.13	-46.3	-47.9	18.8	0.00e+00	0	40	0	216006656	64	4265
2026-01-20 22:01:27.87	36.49	11.19	-46.1	-47.7	18.9	0.00e+00	0	40	0	218103808	64	4177
2026-01-20 22:01:28.88	36.64	11.25	-46.3	-47.9	18.8	0.00e+00	0	40	0	220200960	64	4245
2026-01-20 22:01:29.88	36.78	11.30	-46.2	-47.8	18.9	0.00e+00	0	40	0	222298112	64	4211
2026-01-20 22:01:30.89	36.93	11.36	-46.2	-47.8	18.9	0.00e+00	0	40	0	223346688	64	4209
2026-01-20 22:01:31.89	37.08	11.42	-46.2	-47.7	19.0	0.00e+00	0	40	0	225443840	64	4185
2026-01-20 22:01:32.89	37.23	11.47	-46.2	-47.8	18.9	0.00e+00	0	40	0	227540992	64	4196
2026-01-20 22:01:33.90	37.38	11.53	-46.2	-47.8	18.9	0.00e+00	0	40	0	229638144	64	4200
2026-01-20 22:01:34.91	37.53	11.59	-46.4	-48.0	18.7	0.00e+00	0	40	0	231735296	64	4310
2026-01-20 22:01:35.92	37.68	11.64	-46.2	-47.8	18.9	0.00e+00	0	40	0	232783872	64	4217
2026-01-20 22:01:36.92	37.83	11.70	-46.1	-47.6	19.1	0.00e+00	0	40	0	234881024	64	4127
2026-01-20 22:01:37.93	37.98	11.76	-45.9	-47.4	19.4	0.00e+00	0	40	0	236978176	63	4271
2026-01-20 22:01:38.94	38.13	11.82	-45.8	-47.3	19.5	0.00e+00	0	40	0	239075328	63	4225
2026-01-20 22:01:39.94	38.28	11.87	-45.8	-47.3	19.5	0.00e+00	0	40	0	241172480	63	4208
2026-01-20 22:01:40.95	38.43	11.93	-45.9	-47.3	19.4	0.00e+00	0	40	0	242221056	63	4224
2026-01-20 22:01:41.96	38.59	11.99	-45.8	-47.3	19.5	0.00e+00	0	40	0	244318208	63	4228
2026-01-20 22:01:42.96	38.74	12.04	-45.6	-47.0	19.8	0.00e+00	0	40	0	246415360	63	4083
2026-01-20 22:01:43.97	38.90	12.10	-45.8	-47.3	19.5	0.00e+00	0	40	0	248512512	63	4228
2026-01-20 22:01:44.97	39.05	12.15	-45.8	-47.2	19.5	0.00e+00	0	40	0	250609664	63	4182
2026-01-20 22:01:45.98	39.21	12.21	-45.8	-47.2	19.6	0.00e+00	0	40	0	251658240	63	4181
2026-01-20 22:01:46.99	39.36	12.27	-45.6	-47.0	19.8	0.00e+00	0	40	0	253755392	63	4083
2026-01-20 22:01:47.99	39.52	12.32	-45.6	-47.0	19.8	0.00e+00	0	40	0	255852544	63	4065
2026-01-20 22:01:49.00	39.68	12.38	-45.6	-47.0	19.8	0.00e+00	0	40	0	257949696	63	4086
2026-01-20 22:01:50.01	39.84	12.44	-45.5	-46.9	19.8	0.00e+00	0	40	0	260046848	63	4045
2026-01-20 22:01:51.01	39.99	12.49	-45.6	-47.0	19.8	0.00e+00	0	40	0	261095424	63	4057
2026-01-20 22:01:52.02	40.15	12.55	-45.7	-47.1	19.7	0.00e+00	0	40	0	263192576	63	4140
2026-01-20 22:01:53.03	40.31	12.61	-45.6	-47.0	19.8	0.00e+00	0	40	0	265289728	63	4090
2026-01-20 22:01:54.03	40.47	12.66	-45.7	-47.1	19.7	0.00e+00	0	40	0	267386880	63	4133
2026-01-20 22:01:55.04	40.63	12.72	-45.8	-47.2	19.6	0.00e+00	0	40	0	269484032	63	4183
2026-01-20 22:01:56.05	40.80	12.77	-45.8	-47.2	19.6	0.00e+00	0	40	0	270532608	63	4164
2026-01-20 22:01:57.05	40.96	12.83	-45.6	-47.0	19.8	0.00e+00	0	40	0	272629760	63	4090
2026-01-20 22:01:58.06	41.12	12.88	-45.6	-47.0	19.8	0.00e+00	0	40	0	274726912	63	4077
2026-01-20 22:01:59.06	41.28	12.94	-45.6	-47.0	19.8	0.00e+00	0	40	0	276824064	63	4068
2026-01-20 22:02:00.07	41.45	13.00	-45.6	-47.0	19.8	0.00e+00	0	40	0	278921216	63	4074
2026-01-20 22:02:01.07	41.61	13.05	-45.6	-47.0	19.8	0.00e+00	0	40	0	279969792	63	4087
2026-01-20 22:02:02.08	41.78	13.11	-45.6	-47.0	19.9	0.00e+00	0	40	0	282066944	63	4072
2026-01-20 22:02:03.08	41.94	13.16	-45.5	-46.9	19.9	0.00e+00	0	40	0	284164096	63	4042
2026-01-20 22:02:04.09	42.11	13.22	-45.4	-46.8	20.1	0.00e+00	0	40	0	286261248	62	4196
2026-01-20 22:02:05.10	42.28	13.27	-45.5	-46.9	19.9	0.00e+00	0	40	0	288358400	62	4259
2026-01-20 22:02:06.11	42.44	13.33	-45.6	-46.9	19.9	0.00e+00	0	40	0	289406976	62	4287
2026-01-20 22:02:07.12	42.61	13.38	-45.5	-46.9	19.9	0.00e+00	0	40	0	291504128	62	4274
2026-01-20 22:02:08.12	42.78	13.44	-45.5	-46.9	20.0	0.00e+00	0	40	0	293601280	62	4244
2026-01-20 22:02:09.13	42.95	13.49	-45.6	-47.0	19.7	0.00e+00	0	40	0	295698432	62	4337
2026-01-20 22:02:10.14	43.12	13.55	-45.6	-47.0	19.8	0.00e+00	0	40	0	297795584	62	4308
2026-01-20 22:02:11.14	43.29	13.60	-45.6	-46.9	19.9	0.00e+00	0	40	0	298844160	62	4285
2026-01-20 22:02:12.15	43.46	13.65	-45.5	-46.9	19.9	0.00e+00	0	40	0	300941312	62	4264
2026-01-20 22:02:13.15	43.63	13.71	-45.4	-46.7	20.1	0.00e+00	0	40	0	303038464	62	4173
2026-01-20 22:02:14.16	43.81	13.76	-45.4	-46.8	20.0	0.00e+00	0	40	0	305135616	62	4218
2026-01-20 22:02:15.17	43.98	13.82	-45.5	-46.8	20.0	0.00e+00	0	40	0	307232768	62	4236
2026-01-20 22:02:16.18	44.15	13.87	-45.4	-46.8	20.1	0.00e+00	0	40	0	308281344	62	4214
2026-01-20 22:02:17.19	44.33	13.92	-45.5	-46.9	20.0	0.00e+00	0	40	0	310378496	62	4253
2026-01-20 22:02:18.19	44.50	13.98	-45.5	-46.9	20.0	0.00e+00	0	40	0	312475648	62	4262
2026-01-20 22:02:19.20	44.68	14.03	-45.6	-47.0	19.9	0.00e+00	0	40	0	314572800	62	4311
2026-01-20 22:02:20.21	44.85	14.08	-45.6	-47.0	19.8	0.00e+00	0	40	0	316669952	62	4325
2026-01-20 22:02:21.22	45.03	14.14	-45.6	-47.1	19.8	0.00e+00	0	40	0	317718528	62	4344
2026-01-20 22:02:22.23	45.21	14.19	-45.6	-47.0	19.8	0.00e+00	0	40	0	319815680	62	4329
2026-01-20 22:02:23.23	45.39	14.24	-45.7	-47.1	19.8	0.00e+00	0	40	0	321912832	62	4364
2026-01-20 22:02:24.24	45.57	14.30	-45.6	-47.1	19.8	0.00e+00	0	40	0	324009984	62	4343
2026-01-20 22:02:25.25	45.75	14.35	-45.7	-47.2	19.7	0.00e+00	0	40	0	326107136	62	4400
2026-01-20 22:02:26.26	45.93	14.40	-45.7	-47.1	19.8	0.00e+00	0	40	0	327155712	62	4358
2026-01-20 22:02:27.26	46.11	14.46	-45.8	-47.2	19.6	0.00e+00	0	40	0	329252864	62	4440
2026-01-20 22:02:28.27	46.29	14.51	-45.9	-47.3	19.5	0.00e+00	0	40	0	331350016	62	4482
2026-01-20 22:02:29.28	46.47	14.56	-46.0	-47.5	19.4	0.00e+00	0	40	0	333447168	62	4565
2026-01-20 22:02:30.29	46.65	14.61	-46.2	-47.7	19.2	0.00e+00	0	40	0	335544320	62	4699
2026-01-20 22:02:31.28	46.83	14.66	-46.1	-47.7	19.2	0.00e+00	0	40	0	336592896	62	4657
2026-01-20 22:02:32.27	47.01	14.71	-46.3	-47.8	19.1	0.00e+00	0	40	0	338690048	63	4482
2026-01-20 22:02:33.25	47.19	14.76	-46.3	-47.9	19.0	0.00e+00	0	40	0	340787200	63	4495
2026-01-20 22:02:34.23	47.37	14.81	-46.4	-47.9	19.0	0.00e+00	0	40	0	342884352	63	4543
2026-01-20 22:02:35.21	47.55	14.86	-46.3	-47.9	19.0	0.00e+00	0	40	0	343932928	63	4503
2026-01-20 22:02:36.18	47.73	14.91	-46.4	-48.0	18.9	0.00e+00	0	40	0	346030080	63	4580
2026-01-20 22:02:37.14	47.91	14.96	-46.3	-47.8	19.1	0.00e+00	0	40	0	348127232	63	4490
2026-01-20 22:02:38.12	48.09	15.01	-46.3	-47.9	19.0	0.00e+00	0	40	0	350224384	63	4521
2026-01-20 22:02:39.08	48.27	15.06	-46.3	-47.9	18.9	0.00e+00	0	40	0	351272960	63	4524
2026-01-20 22:02:40.05	48.45	15.11	-46.4	-48.0	18.9	0.00e+00	0	40	0	353370112	63	4587
2026-01-20 22:02:41.02	48.63	15.16	-46.6	-48.2	18.7	0.00e+00	0	40	0	355467264	63	4683
2026-01-20 22:02:41.99	48.82	15.20	-46.7	-48.4	18.5	0.00e+00	0	40	0	357564416	63	4775
2026-01-20 22:02:42.96	49.00	15.25	-46.7	-48.3	18.5	0.00e+00	0	40	0	358612992	64	4484
2026-01-20 22:02:43.93	49.18	15.30	-46.8	-48.5	18.4	0.00e+00	0	40	0	360710144	64	4553
2026-01-20 22:02:44.90	49.37	15.35	-46.8	-48.5	18.3	0.00e+00	0	40	0	362807296	64	4575
2026-01-20 22:02:45.87	49.55	15.39	-46.8	-48.5	18.3	0.00e+00	0	40	0	363855872	64	4591
2026-01-20 22:02:46.84	49.74	15.44	-46.9	-48.6	18.2	0.00e+00	0	40	0	365953024	64	4632
2026-01-20 22:02:47.80	49.92	15.49	-46.9	-48.7	18.1	0.00e+00	0	40	0	368050176	64	4664
2026-01-20 22:02:48.77	50.11	15.54	-46.8	-48.5	18.3	0.00e+00	0	40	0	370147328	64	4598
2026-01-20 22:02:49.74	50.30	15.58	-46.7	-48.4	18.5	0.00e+00	0	40	0	371195904	64	4511
2026-01-20 22:02:50.71	50.48	15.63	-46.7	-48.4	18.5	0.00e+00	0	40	0	373293056	64	4506
2026-01-20 22:02:51.67	50.67	15.67	-46.8	-48.5	18.3	0.00e+00	0	40	0	375390208	64	4592
2026-01-20 22:02:52.64	50.86	15.72	-46.9	-48.6	18.3	0.00e+00	0	40	0	377487360	64	4613
2026-01-20 22:02:53.61	51.05	15.77	-46.9	-48.6	18.2	0.00e+00	0	40	0	378535936	64	4614
2026-01-20 22:02:54.58	51.24	15.81	-47.0	-48.7	18.2	0.00e+00	0	40	0	380633088	64	4688
2026-01-20 22:02:55.55	51.43	15.86	-47.1	-48.9	18.0	0.00e+00	0	40	0	382730240	64	4807
2026-01-20 22:02:56.53	51.62	15.90	-47.2	-49.1	17.7	0.00e+00	0	40	0	384827392	65	4627
2026-01-20 22:02:57.49	51.81	15.95	-47.3	-49.2	17.7	0.00e+00	0	40	0	385875968	65	4688
2026-01-20 22:02:58.46	52.00	15.99	-47.5	-49.4	17.5	0.00e+00	0	40	0	387973120	65	4798
2026-01-20 22:02:59.43	52.20	16.04	-47.5	-49.4	17.5	0.00e+00	0	40	0	390070272	65	4784
2026-01-20 22:03:00.40	52.39	16.08	-47.5	-49.4	17.5	0.00e+00	0	40	0	392167424	65	4783
2026-01-20 22:03:01.36	52.58	16.13	-47.3	-49.1	17.7	0.00e+00	0	40	0	393216000	65	4642
2026-01-20 22:03:02.33	52.78	16.17	-47.1	-49.0	17.9	0.00e+00	0	40	0	395313152	65	4550
2026-01-20 22:03:03.30	52.97	16.21	-47.1	-48.9	17.9	0.00e+00	0	40	0	397410304	65	4541
2026-01-20 22:03:04.27	53.17	16.26	-47.0	-48.8	18.1	0.00e+00	0	40	0	398458880	65	4484
2026-01-20 22:03:05.23	53.36	16.30	-47.0	-48.8	18.1	0.00e+00	0	40	0	400556032	65	4446
2026-01-20 22:03:06.20	53.56	16.34	-47.0	-48.8	18.1	0.00e+00	0	40	0	402653184	65	4455
2026-01-20 22:03:07.17	53.76	16.39	-47.0	-48.7	18.2	0.00e+00	0	40	0	404750336	65	4418
2026-01-20 22:03:08.14	53.95	16.43	-47.0	-48.8	18.1	0.00e+00	0	40	0	405798912	65	4450
2026-01-20 22:03:09.11	54.15	16.47	-47.1	-48.9	18.0	0.00e+00	0	40	0	407896064	65	4529
2026-01-20 22:03:10.08	54.35	16.51	-47.0	-48.8	18.2	0.00e+00	0	40	0	409993216	65	4456
2026-01-20 22:03:11.05	54.55	16.55	-47.1	-48.9	18.0	0.00e+00	0	40	0	411041792	65	4497
2026-01-20 22:03:12.02	54.75	16.60	-47.0	-48.7	18.1	0.00e+00	0	40	0	413138944	65	4422
2026-01-20 22:03:12.99	54.95	16.64	-47.0	-48.8	18.1	0.00e+00	0	40	0	415236096	65	4464
2026-01-20 22:03:13.95	55.15	16.68	-46.7	-48.4	18.5	0.00e+00	0	40	0	417333248	65	4267
2026-01-20 22:03:14.92	55.35	16.72	-46.6	-48.3	18.6	0.00e+00	0	40	0	418381824	65	4210
2026-01-20 22:03:15.89	55.55	16.76	-46.7	-48.3	18.6	0.00e+00	0	40	0	420478976	65	4229
2026-01-20 22:03:16.86	55.76	16.80	-46.8	-48.5	18.5	0.00e+00	0	40	0	422576128	65	4313
2026-01-20 22:03:17.83	55.96	16.84	-46.7	-48.4	18.5	0.00e+00	0	40	0	424673280	65	4253
2026-01-20 22:03:18.80	56.16	16.88	-46.4	-48.0	18.9	0.00e+00	0	40	0	425721856	64	4301
2026-01-20 22:03:19.77	56.37	16.92	-46.3	-47.8	19.1	0.00e+00	0	40	0	427819008	64	4220
2026-01-20 22:03:20.74	56.57	16.96	-46.3	-47.8	19.1	0.00e+00	0	40	0	429916160	64	4221
2026-01-20 22:03:21.70	56.77	17.00	-46.3	-47.8	19.1	0.00e+00	0	40	0	432013312	64	4226
2026-01-20 22:03:22.67	56.98	17.03	-46.3	-47.8	19.0	0.00e+00	0	40	0	433061888	64	4242
2026-01-20 22:03:23.64	57.19	17.07	-46.1	-47.7	19.2	0.00e+00	0	40	0	435159040	64	4150
2026-01-20 22:03:24.61	57.39	17.11	-46.0	-47.5	19.3	0.00e+00	0	40	0	437256192	64	4083
2026-01-20 22:03:25.58	57.60	17.15	-46.1	-47.6	19.5	0.00e+00	0	40	0	438304768	63	4343
2026-01-20 22:03:26.55	57.81	17.19	-46.0	-47.5	19.5	0.00e+00	0	40	0	440401920	63	4312
2026-01-20 22:03:27.53	58.02	17.22	-45.9	-47.4	19.6	0.00e+00	0	40	0	442499072	63	4250
2026-01-20 22:03:28.49	58.23	17.26	-45.8	-47.2	19.8	0.00e+00	0	40	0	444596224	63	4162
2026-01-20 22:03:29.46	58.44	17.30	-45.8	-47.1	19.8	0.00e+00	0	40	0	445644800	63	4145
2026-01-20 22:03:30.43	58.64	17.33	-45.8	-47.3	19.7	0.00e+00	0	40	0	447741952	63	4194
2026-01-20 22:03:31.39	58.85	17.37	-45.9	-47.3	19.7	0.00e+00	0	40	0	449839104	63	4216
2026-01-20 22:03:32.36	59.06	17.40	-46.1	-47.5	19.4	0.00e+00	0	40	0	451936256	63	4339
2026-01-20 22:03:33.34	59.28	17.44	-46.0	-47.5	19.5	0.00e+00	0	40	0	452984832	63	4320
2026-01-20 22:03:34.31	59.49	17.47	-46.1	-47.6	19.3	0.00e+00	0	40	0	455081984	63	4372
2026-01-20 22:03:35.28	59.70	17.51	-46.1	-47.6	19.3	0.00e+00	0	40	0	457179136	63	4375
2026-01-20 22:03:36.25	59.91	17.54	-46.2	-47.7	19.3	0.00e+00	0	40	0	459276288	63	4428
2026-01-20 22:03:37.22	60.13	17.58	-46.1	-47.6	19.3	0.00e+00	0	40	0	460324864	63	4378
2026-01-20 22:03:38.19	60.34	17.61	-46.2	-47.7	19.3	0.00e+00	0	40	0	462422016	63	4393
2026-01-20 22:03:39.16	60.55	17.64	-46.2	-47.7	19.3	0.00e+00	0	40	0	464519168	63	4413
2026-01-20 22:03:40.13	60.77	17.67	-46.1	-47.5	19.4	0.00e+00	0	40	0	466616320	63	4339
2026-01-20 22:03:41.10	60.98	17.71	-46.1	-47.6	19.4	0.00e+00	0	40	0	467664896	63	4374
2026-01-20 22:03:42.06	61.20	17.74	-46.1	-47.6	19.4	0.00e+00	0	40	0	469762048	63	4365
2026-01-20 22:03:43.03	61.41	17.77	-46.3	-47.8	19.2	0.00e+00	0	40	0	471859200	63	4481
2026-01-20 22:03:44.01	61.63	17.80	-46.4	-47.9	19.1	0.00e+00	0	40	0	472907776	63	4520
2026-01-20 22:03:44.97	61.85	17.83	-46.4	-48.0	19.0	0.00e+00	0	40	0	475004928	63	4553
2026-01-20 22:03:45.94	62.06	17.86	-46.4	-48.0	19.0	0.00e+00	0	40	0	477102080	63	4568
2026-01-20 22:03:46.91	62.28	17.89	-46.4	-47.9	19.1	0.00e+00	0	40	0	479199232	63	4524
2026-01-20 22:03:47.88	62.50	17.92	-46.4	-47.9	19.0	0.00e+00	0	40	0	480247808	63	4530
2026-01-20 22:03:48.85	62.72	17.95	-46.2	-47.7	19.2	0.00e+00	0	40	0	482344960	63	4440
2026-01-20 22:03:49.82	62.94	17.98	-46.0	-47.5	19.5	0.00e+00	0	40	0	484442112	63	4294
2026-01-20 22:03:50.79	63.16	18.01	-46.0	-47.5	19.5	0.00e+00	0	40	0	485490688	63	4309
2026-01-20 22:03:51.76	63.38	18.04	-46.0	-47.5	19.5	0.00e+00	0	40	0	487587840	63	4317
2026-01-20 22:03:52.73	63.60	18.07	-46.0	-47.5	19.5	0.00e+00	0	40	0	489684992	63	4295
2026-01-20 22:03:53.71	63.82	18.10	-46.0	-47.5	19.5	0.00e+00	0	40	0	491782144	63	4300
2026-01-20 22:03:54.67	64.04	18.12	-46.2	-47.6	19.3	0.00e+00	0	40	0	492830720	63	4389
2026-01-20 22:03:55.64	64.26	18.15	-46.2	-47.7	19.3	0.00e+00	0	40	0	494927872	63	4413
2026-01-20 22:03:56.61	64.48	18.18	-46.3	-47.8	19.3	0.00e+00	0	40	0	497025024	63	4451
2026-01-20 22:03:57.58	64.70	18.20	-46.3	-47.8	19.1	0.00e+00	0	40	0	499122176	63	4491
2026-01-20 22:03:58.55	64.93	18.23	-46.3	-47.8	19.2	0.00e+00	0	40	0	500170752	63	4492
2026-01-20 22:03:59.52	65.15	18.26	-46.3	-47.8	19.2	0.00e+00	0	40	0	502267904	63	4466
2026-01-20 22:04:00.49	65.37	18.28	-46.3	-47.8	19.2	0.00e+00	0	40	0	504365056	63	4473
2026-01-20 22:04:01.46	65.60	18.31	-46.2	-47.7	19.3	0.00e+00	0	40	0	506462208	63	4423
2026-01-20 22:04:02.43	65.82	18.33	-46.2	-47.7	19.3	0.00e+00	0	40	0	507510784	63	4409
2026-01-20 22:04:03.40	66.04	18.35	-46.1	-47.6	19.4	0.00e+00	0	40	0	509607936	63	4364
2026-01-20 22:04:04.37	66.27	18.38	-46.2	-47.7	19.3	0.00e+00	0	40	0	511705088	63	4404
2026-01-20 22:04:05.34	66.49	18.40	-46.2	-47.7	19.3	0.00e+00	0	40	0	513802240	63	4425
2026-01-20 22:04:06.31	66.72	18.42	-46.2	-47.6	19.3	0.00e+00	0	40	0	514850816	63	4385
2026-01-20 22:04:07.27	66.94	18.45	-46.1	-47.6	19.4	0.00e+00	0	40	0	516947968	63	4347
2026-01-20 22:04:08.24	67.17	18.47	-46.1	-47.5	19.5	0.00e+00	0	40	0	519045120	63	4331
2026-01-20 22:04:09.22	67.40	18.49	-46.2	-47.7	19.4	0.00e+00	0	40	0	521142272	63	4397
2026-01-20 22:04:10.19	67.62	18.51	-46.1	-47.6	19.4	0.00e+00	0	40	0	522190848	63	4368
2026-01-20 22:04:11.16	67.85	18.53	-46.2	-47.7	19.4	0.00e+00	0	40	0	524288000	63	4399
2026-01-20 22:04:12.13	68.08	18.55	-46.3	-47.8	19.2	0.00e+00	0	40	0	526385152	63	4452
2026-01-20 22:04:13.10	68.30	18.57	-46.3	-47.8	19.2	0.00e+00	0	40	0	528482304	63	4455
2026-01-20 22:04:14.07	68.53	18.59	-46.3	-47.8	19.2	0.00e+00	0	40	0	529530880	63	4479
2026-01-20 22:04:15.04	68.76	18.61	-46.4	-47.9	19.1	0.00e+00	0	40	0	531628032	63	4523
2026-01-20 22:04:16.00	68.99	18.63	-46.4	-47.9	19.1	0.00e+00	0	40	0	533725184	63	4524
2026-01-20 22:04:16.97	69.21	18.65	-46.4	-47.9	19.1	0.00e+00	0	40	0	534773760	63	4525
2026-01-20 22:04:17.94	69.44	18.66	-46.3	-47.8	19.2	0.00e+00	0	40	0	536870912	63	4468
2026-01-20 22:04:18.91	69.67	18.68	-46.3	-47.8	19.2	0.00e+00	0	40	0	538968064	63	4463
2026-01-20 22:04:19.88	69.90	18.70	-46.3	-47.8	19.2	0.00e+00	0	40	0	541065216	63	4480
2026-01-20 22:04:20.85	70.13	18.71	-46.4	-47.9	19.1	0.00e+00	0	40	0	542113792	63	4538
2026-01-20 22:04:21.82	70.36	18.73	-46.5	-48.1	19.0	0.00e+00	0	40	0	544210944	63	4603
2026-01-20 22:04:22.79	70.59	18.75	-46.6	-48.2	18.8	0.00e+00	0	40	0	546308096	63	4699
2026-01-20 22:04:23.76	70.82	18.76	-46.6	-48.2	18.8	0.00e+00	0	40	0	547356672	63	4691
2026-01-20 22:04:24.73	71.05	18.78	-46.6	-48.2	18.8	0.00e+00	0	40	0	549453824	63	4690
2026-01-20 22:04:25.69	71.28	18.79	-46.5	-48.1	18.8	0.00e+00	0	40	0	551550976	64	4378
2026-01-20 22:04:26.67	71.51	18.80	-46.5	-48.1	18.8	0.00e+00	0	40	0	553648128	64	4373
2026-01-20 22:04:27.64	71.75	18.82	-46.5	-48.1	18.9	0.00e+00	0	40	0	554696704	64	4362
2026-01-20 22:04:28.61	71.98	18.83	-46.5	-48.1	18.8	0.00e+00	0	40	0	556793856	64	4370
2026-01-20 22:04:29.58	72.21	18.84	-46.5	-48.1	18.8	0.00e+00	0	40	0	558891008	64	4368
2026-01-20 22:04:30.55	72.44	18.85	-46.3	-47.9	19.1	0.00e+00	0	40	0	560988160	64	4251
2026-01-20 22:04:31.52	72.67	18.87	-46.2	-47.7	19.2	0.00e+00	0	40	0	562036736	64	4190
2026-01-20 22:04:32.49	72.90	18.88	-46.1	-47.6	19.3	0.00e+00	0	40	0	564133888	64	4143
2026-01-20 22:04:33.46	73.14	18.89	-46.1	-47.6	19.3	0.00e+00	0	40	0	566231040	64	4135
2026-01-20 22:04:34.42	73.37	18.90	-46.2	-47.7	19.3	0.00e+00	0	40	0	568328192	64	4164
2026-01-20 22:04:35.39	73.60	18.91	-46.3	-47.8	19.1	0.00e+00	0	40	0	569376768	64	4215
2026-01-20 22:04:36.36	73.83	18.92	-46.4	-48.0	19.0	0.00e+00	0	40	0	571473920	64	4312
2026-01-20 22:04:37.33	74.07	18.92	-46.5	-48.2	18.8	0.00e+00	0	40	0	573571072	64	4394
2026-01-20 22:04:38.30	74.30	18.93	-46.8	-48.5	18.5	0.00e+00	0	40	0	575668224	64	4551
2026-01-20 22:04:39.27	74.53	18.94	-46.9	-48.6	18.4	0.00e+00	0	40	0	576716800	64	4616
2026-01-20 22:04:40.24	74.76	18.95	-46.9	-48.6	18.4	0.00e+00	0	40	0	578813952	64	4624
2026-01-20 22:04:41.21	75.00	18.96	-46.9	-48.6	18.4	0.00e+00	0	40	0	580911104	64	4611
2026-01-20 22:04:42.18	75.23	18.96	-46.9	-48.6	18.3	0.00e+00	0	40	0	581959680	64	4645
2026-01-20 22:04:43.15	75.47	18.97	-46.7	-48.3	18.6	0.00e+00	0	40	0	584056832	64	4475
2026-01-20 22:04:44.12	75.70	18.97	-46.4	-48.0	19.0	0.00e+00	0	40	0	586153984	64	4304
2026-01-20 22:04:45.09	75.93	18.98	-46.3	-47.8	19.1	0.00e+00	0	40	0	588251136	64	4232
2026-01-20 22:04:46.05	76.16	18.98	-46.4	-47.9	19.0	0.00e+00	0	40	0	589299712	64	4281
2026-01-20 22:04:47.03	76.40	18.99	-46.3	-47.8	19.1	0.00e+00	0	40	0	591396864	64	4212
2026-01-20 22:04:48.00	76.63	18.99	-46.5	-48.1	18.8	0.00e+00	0	40	0	593494016	64	4374
2026-01-20 22:04:48.96	76.87	18.99	-46.6	-48.3	18.7	0.00e+00	0	40	0	595591168	64	4447
2026-01-20 22:04:49.93	77.10	19.00	-46.8	-48.5	18.5	0.00e+00	0	40	0	596639744	64	4584
2026-01-20 22:04:50.90	77.33	19.00	-46.8	-48.5	18.4	0.00e+00	0	40	0	598736896	64	4597
2026-01-20 22:04:51.87	77.57	19.00	-46.9	-48.7	18.3	0.00e+00	0	40	0	600834048	64	4665
2026-01-20 22:04:52.84	77.80	19.00	-46.9	-48.6	18.3	0.00e+00	0	40	0	602931200	64	4645
2026-01-20 22:04:53.82	78.04	19.00	-46.9	-48.6	18.3	0.00e+00	0	40	0	603979776	64	4623
2026-01-20 22:04:54.78	78.27	19.00	-46.8	-48.5	18.5	0.00e+00	0	40	0	606076928	64	4559
2026-01-20 22:04:55.75	78.51	19.00	-46.6	-48.2	18.7	0.00e+00	0	40	0	608174080	64	4424
2026-01-20 22:04:56.72	78.74	19.00	-46.5	-48.1	18.9	0.00e+00	0	40	0	609222656	64	4348
2026-01-20 22:04:57.69	78.97	19.00	-46.3	-47.9	19.1	0.00e+00	0	40	0	611319808	64	4258
2026-01-20 22:04:58.66	79.21	19.00	-46.2	-47.7	19.2	0.00e+00	0	40	0	613416960	64	4182
2026-01-20 22:04:59.63	79.44	19.00	-46.1	-47.6	19.3	0.00e+00	0	40	0	615514112	64	4132
2026-01-20 22:05:00.60	79.68	19.00	-46.0	-47.5	19.4	0.00e+00	0	40	0	616562688	64	4078
2026-01-20 22:05:01.57	79.91	18.99	-46.1	-47.6	19.4	0.00e+00	0	40	0	618659840	64	4103
2026-01-20 22:05:02.54	80.14	18.99	-46.1	-47.6	19.4	0.00e+00	0	39	0	620756992	64	4111
2026-01-20 22:05:03.50	80.38	18.99	-46.1	-47.6	19.3	0.00e+00	0	40	0	622854144	64	4099
2026-01-20 22:05:04.47	80.61	18.98	-46.2	-47.7	19.2	0.00e+00	0	40	0	623902720	64	4177
2026-01-20 22:05:05.45	80.85	18.98	-46.2	-47.7	19.2	0.00e+00	0	40	0	625999872	64	4158
2026-01-20 22:05:06.42	81.08	18.97	-46.3	-47.8	19.1	0.00e+00	0	40	0	628097024	64	4218
2026-01-20 22:05:07.38	81.31	18.97	-46.4	-48.0	18.9	0.00e+00	0	40	0	629145600	64	4301
2026-01-20 22:05:08.35	81.55	18.96	-46.5	-48.1	18.8	0.00e+00	0	40	0	631242752	64	4388
2026-01-20 22:05:09.32	81.78	18.96	-46.6	-48.2	18.7	0.00e+00	0	40	0	633339904	64	4439
2026-01-20 22:05:10.29	82.01	18.95	-46.7	-48.3	18.6	0.00e+00	0	40	0	635437056	64	4474
2026-01-20 22:05:11.26	82.25	18.94	-46.7	-48.4	18.5	0.00e+00	0	40	0	636485632	64	4518
2026-01-20 22:05:12.23	82.48	18.93	-46.7	-48.4	18.5	0.00e+00	0	40	0	638582784	64	4519
2026-01-20 22:05:13.20	82.71	18.92	-46.7	-48.4	18.5	0.00e+00	0	40	0	640679936	64	4540
2026-01-20 22:05:14.17	82.95	18.92	-46.6	-48.2	18.7	0.00e+00	0	40	0	642777088	64	4440
2026-01-20 22:05:15.14	83.18	18.91	-46.5	-48.1	18.8	0.00e+00	0	40	0	643825664	64	4355
2026-01-20 22:05:16.11	83.41	18.90	-46.4	-47.9	19.0	0.00e+00	0	40	0	645922816	64	4290
2026-01-20 22:05:17.08	83.64	18.89	-46.2	-47.7	19.2	0.00e+00	0	40	0	648019968	64	4191
2026-01-20 22:05:18.04	83.87	18.88	-46.2	-47.8	19.1	0.00e+00	0	40	0	650117120	64	4197
2026-01-20 22:05:19.02	84.11	18.87	-46.0	-47.5	19.4	0.00e+00	0	40	0	651165696	64	4062
2026-01-20 22:05:19.98	84.34	18.85	-45.8	-47.2	19.7	0.00e+00	0	40	0	653262848	63	4182
2026-01-20 22:05:20.95	84.57	18.84	-45.7	-47.1	19.8	0.00e+00	0	40	0	655360000	63	4133
2026-01-20 22:05:21.91	84.80	18.83	-45.8	-47.2	19.8	0.00e+00	0	40	0	657457152	63	4168
2026-01-20 22:05:22.89	85.03	18.82	-45.8	-47.2	19.7	0.00e+00	0	40	0	658505728	63	4186
2026-01-20 22:05:23.85	85.26	18.80	-46.0	-47.5	19.5	0.00e+00	0	40	0	660602880	63	4306
2026-01-20 22:05:24.83	85.50	18.79	-46.1	-47.6	19.3	0.00e+00	0	40	0	662700032	63	4377
2026-01-20 22:05:25.80	85.73	18.78	-46.3	-47.8	19.2	0.00e+00	0	40	0	664797184	63	4477
2026-01-20 22:05:26.77	85.96	18.76	-46.4	-47.9	19.1	0.00e+00	0	40	0	665845760	63	4528
2026-01-20 22:05:27.73	86.19	18.75	-46.4	-48.0	19.0	0.00e+00	0	40	0	667942912	63	4573
2026-01-20 22:05:28.70	86.42	18.73	-46.4	-48.0	19.0	0.00e+00	0	40	0	670040064	63	4560
2026-01-20 22:05:29.67	86.65	18.71	-46.4	-48.0	19.0	0.00e+00	0	40	0	671088640	63	4578
2026-01-20 22:05:30.64	86.88	18.70	-46.5	-48.1	18.9	0.00e+00	0	40	0	673185792	63	4612
2026-01-20 22:05:31.61	87.11	18.68	-46.3	-47.8	19.2	0.00e+00	0	40	0	675282944	63	4462
2026-01-20 22:05:32.58	87.34	18.66	-46.0	-47.4	19.5	0.00e+00	0	40	0	677380096	63	4281
2026-01-20 22:05:33.54	87.56	18.65	-46.0	-47.5	19.5	0.00e+00	0	40	0	678428672	63	4295
2026-01-20 22:05:34.52	87.79	18.63	-45.7	-47.1	19.9	0.00e+00	0	40	0	680525824	63	4125
2026-01-20 22:05:35.49	88.02	18.61	-45.6	-47.0	20.0	0.00e+00	0	40	0	682622976	63	4078
2026-01-20 22:05:36.46	88.25	18.59	-45.7	-47.0	19.9	0.00e+00	0	40	0	683671552	63	4097
2026-01-20 22:05:37.43	88.48	18.57	-45.4	-46.8	20.2	0.00e+00	0	40	0	685768704	62	4207
2026-01-20 22:05:38.40	88.71	18.55	-45.5	-46.8	20.2	0.00e+00	0	40	0	687865856	62	4228
2026-01-20 22:05:39.37	88.93	18.53	-45.3	-46.6	20.3	0.00e+00	0	40	0	689963008	62	4145
2026-01-20 22:05:40.34	89.16	18.51	-45.2	-46.5	20.4	0.00e+00	0	40	0	691011584	62	4080
2026-01-20 22:05:41.31	89.39	18.49	-45.3	-46.6	20.4	0.00e+00	0	40	0	693108736	62	4116
2026-01-20 22:05:42.28	89.62	18.47	-45.3	-46.6	20.3	0.00e+00	0	40	0	695205888	62	4127
2026-01-20 22:05:43.24	89.84	18.45	-45.4	-46.8	20.2	0.00e+00	0	40	0	697303040	62	4200
2026-01-20 22:05:44.21	90.07	18.42	-45.5	-46.8	20.1	0.00e+00	0	40	0	698351616	62	4242
2026-01-20 22:05:45.18	90.29	18.40	-45.6	-47.0	19.9	0.00e+00	0	40	0	700448768	62	4328
2026-01-20 22:05:46.15	90.52	18.38	-45.6	-47.0	19.9	0.00e+00	0	40	0	702545920	62	4325
2026-01-20 22:05:47.13	90.74	18.35	-45.8	-47.2	19.7	0.00e+00	0	40	0	704643072	62	4429
2026-01-20 22:05:48.10	90.97	18.33	-45.7	-47.2	19.8	0.00e+00	0	40	0	705691648	62	4396
2026-01-20 22:05:49.07	91.19	18.30	-45.8	-47.2	19.8	0.00e+00	0	40	0	707788800	62	4436
2026-01-20 22:05:50.05	91.42	18.28	-45.8	-47.3	19.7	0.00e+00	0	40	0	709885952	62	4457
2026-01-20 22:05:51.02	91.64	18.25	-45.8	-47.2	19.7	0.00e+00	0	40	0	711983104	62	4437
2026-01-20 22:05:52.00	91.87	18.23	-45.8	-47.2	19.7	0.00e+00	0	40	0	713031680	62	4431
2026-01-20 22:05:52.96	92.09	18.20	-45.6	-47.0	20.0	0.00e+00	0	40	0	715128832	62	4314
2026-01-20 22:05:53.94	92.31	18.18	-45.5	-46.9	20.1	0.00e+00	0	40	0	717225984	62	4257
2026-01-20 22:05:54.91	92.54	18.15	-45.4	-46.7	20.2	0.00e+00	0	40	0	719323136	62	4174
2026-01-20 22:05:55.88	92.76	18.12	-45.3	-46.7	20.2	0.00e+00	0	40	0	720371712	62	4151
2026-01-20 22:05:56.85	92.98	18.09	-45.3	-46.6	20.3	0.00e+00	0	40	0	722468864	62	4136
2026-01-20 22:05:57.83	93.20	18.07	-45.1	-46.3	20.5	0.00e+00	0	40	0	724566016	62	3993
2026-01-20 22:05:58.80	93.42	18.04	-44.9	-46.1	20.8	0.00e+00	0	40	0	726663168	61	4129
2026-01-20 22:05:59.77	93.64	18.01	-44.8	-46.1	20.8	0.00e+00	0	40	0	727711744	61	4118
2026-01-20 22:06:00.74	93.86	17.98	-44.7	-45.9	20.9	0.00e+00	0	40	0	729808896	61	4031
2026-01-20 22:06:01.71	94.08	17.95	-44.7	-45.9	21.0	0.00e+00	0	40	0	731906048	61	4025
2026-01-20 22:06:02.68	94.30	17.92	-44.7	-45.9	20.9	0.00e+00	0	40	0	732954624	61	4037
2026-01-20 22:06:03.65	94.52	17.89	-44.8	-46.0	20.8	0.00e+00	0	40	0	735051776	61	4097
2026-01-20 22:06:04.62	94.74	17.86	-44.9	-46.1	20.7	0.00e+00	0	40	0	737148928	61	4143
2026-01-20 22:06:05.59	94.96	17.83	-44.9	-46.2	20.7	0.00e+00	0	40	0	739246080	61	4152
2026-01-20 22:06:06.55	95.17	17.80	-44.9	-46.1	20.7	0.00e+00	0	40	0	740294656	61	4139
2026-01-20 22:06:07.52	95.39	17.77	-44.9	-46.1	20.7	0.00e+00	0	40	0	742391808	61	4133
2026-01-20 22:06:08.49	95.60	17.74	-44.8	-46.1	20.7	0.00e+00	0	40	0	744488960	61	4121
2026-01-20 22:06:09.47	95.82	17.70	-44.7	-45.9	20.9	0.00e+00	0	40	0	745537536	61	4046
2026-01-20 22:06:10.44	96.04	17.67	-44.7	-45.9	20.9	0.00e+00	0	40	0	747634688	61	4027
2026-01-20 22:06:11.40	96.25	17.64	-44.5	-45.7	21.1	0.00e+00	0	40	0	749731840	61	3935
2026-01-20 22:06:12.37	96.46	17.60	-44.5	-45.7	21.2	0.00e+00	0	40	0	751828992	60	4152
2026-01-20 22:06:13.35	96.68	17.57	-44.4	-45.6	21.2	0.00e+00	0	40	0	752877568	60	4105
2026-01-20 22:06:14.32	96.89	17.54	-44.4	-45.6	21.2	0.00e+00	0	40	0	754974720	60	4129
2026-01-20 22:06:15.29	97.11	17.50	-44.4	-45.6	21.2	0.00e+00	0	40	0	757071872	60	4107
2026-01-20 22:06:16.26	97.32	17.47	-44.4	-45.5	21.3	0.00e+00	0	40	0	759169024	60	4092
2026-01-20 22:06:17.22	97.53	17.43	-44.3	-45.5	21.3	0.00e+00	0	40	0	760217600	60	4074
2026-01-20 22:06:18.19	97.74	17.40	-44.3	-45.5	21.3	0.00e+00	0	40	0	762314752	60	4074
2026-01-20 22:06:19.16	97.95	17.36	-44.4	-45.6	21.3	0.00e+00	0	40	0	764411904	60	4113
2026-01-20 22:06:20.13	98.16	17.33	-44.5	-45.7	21.1	0.00e+00	0	39	0	766509056	60	4191
2026-01-20 22:06:21.10	98.37	17.29	-44.6	-45.9	21.0	0.00e+00	0	40	0	767557632	60	4247
2026-01-20 22:06:22.07	98.58	17.25	-44.6	-45.9	21.0	0.00e+00	0	40	0	769654784	60	4246
2026-01-20 22:06:23.05	98.80	17.22	-44.6	-45.8	21.0	0.00e+00	0	39	0	771751936	60	4231
2026-01-20 22:06:24.02	99.00	17.18	-44.7	-46.0	20.9	0.00e+00	0	40	0	773849088	60	4303
2026-01-20 22:06:24.98	99.21	17.14	-44.8	-46.1	20.8	0.00e+00	0	40	0	774897664	60	4359
2026-01-20 22:06:25.95	99.42	17.10	-45.0	-46.2	20.6	0.00e+00	0	39	0	776994816	60	4431
2026-01-20 22:06:26.92	99.63	17.07	-45.0	-46.3	20.6	0.00e+00	0	40	0	779091968	60	4442
2026-01-20 22:06:27.89	99.83	17.03	-44.9	-46.2	20.6	0.00e+00	0	40	0	780140544	60	4422
2026-01-20 22:06:28.86	100.04	16.99	-44.9	-46.2	20.6	0.00e+00	0	40	0	782237696	60	4414
2026-01-20 22:06:29.83	100.24	16.95	-44.8	-46.0	20.8	0.00e+00	0	40	0	784334848	60	4317
2026-01-20 22:06:30.80	100.45	16.91	-44.8	-46.1	20.8	0.00e+00	0	40	0	786432000	60	4359
2026-01-20 22:06:31.77	100.66	16.87	-44.9	-46.2	20.7	0.00e+00	0	40	0	787480576	60	4398
2026-01-20 22:06:32.74	100.86	16.83	-45.0	-46.3	20.6	0.00e+00	0	40	0	789577728	60	4449
2026-01-20 22:06:33.70	101.06	16.79	-45.2	-46.5	20.4	0.00e+00	0	40	0	791674880	60	4579
2026-01-20 22:06:34.67	101.26	16.75	-45.4	-46.7	20.2	0.00e+00	0	40	0	793772032	61	4434
2026-01-20 22:06:35.65	101.47	16.71	-45.5	-46.9	20.0	0.00e+00	0	40	0	794820608	61	4522
2026-01-20 22:06:36.61	101.67	16.67	-45.7	-47.1	19.8	0.00e+00	0	40	0	796917760	61	4637
2026-01-20 22:06:37.58	101.87	16.63	-45.7	-47.1	19.8	0.00e+00	0	40	0	799014912	62	4376
2026-01-20 22:06:38.55	102.07	16.59	-45.8	-47.3	19.6	0.00e+00	0	40	0	801112064	62	4452
2026-01-20 22:06:39.52	102.27	16.54	-45.9	-47.3	19.6	0.00e+00	0	40	0	802160640	62	4483
2026-01-20 22:06:40.49	102.47	16.50	-45.9	-47.4	19.5	0.00e+00	0	40	0	804257792	62	4516
2026-01-20 22:06:41.46	102.67	16.46	-45.9	-47.3	19.6	0.00e+00	0	40	0	806354944	62	4493
2026-01-20 22:06:42.43	102.87	16.42	-46.0	-47.5	19.4	0.00e+00	0	40	0	807403520	62	4578
2026-01-20 22:06:43.40	103.07	16.37	-46.0	-47.5	19.4	0.00e+00	0	40	0	809500672	62	4564
2026-01-20 22:06:44.37	103.27	16.33	-46.1	-47.6	19.4	0.00e+00	0	40	0	811597824	62	4602
2026-01-20 22:06:45.34	103.46	16.29	-46.1	-47.5	19.4	0.00e+00	0	40	0	813694976	62	4597
2026-01-20 22:06:46.32	103.66	16.24	-45.9	-47.4	19.5	0.00e+00	0	40	0	814743552	62	4525
2026-01-20 22:06:47.29	103.86	16.20	-45.8	-47.3	19.6	0.00e+00	0	40	0	816840704	62	4463
2026-01-20 22:06:48.26	104.05	16.16	-45.9	-47.3	19.6	0.00e+00	0	40	0	818937856	62	4465
2026-01-20 22:06:49.22	104.25	16.11	-45.8	-47.2	19.7	0.00e+00	0	40	0	821035008	62	4424
2026-01-20 22:06:50.19	104.44	16.07	-45.7	-47.1	19.8	0.00e+00	0	40	0	822083584	62	4384
2026-01-20 22:06:51.16	104.64	16.02	-45.7	-47.1	19.8	0.00e+00	0	40	0	824180736	62	4371
2026-01-20 22:06:52.13	104.83	15.98	-45.9	-47.3	19.6	0.00e+00	0	40	0	826277888	62	4470
2026-01-20 22:06:53.10	105.02	15.93	-46.0	-47.4	19.5	0.00e+00	0	40	0	828375040	62	4534
2026-01-20 22:06:54.07	105.21	15.89	-46.2	-47.8	19.2	0.00e+00	0	40	0	829423616	63	4449
2026-01-20 22:06:55.04	105.41	15.84	-46.4	-47.9	19.0	0.00e+00	0	40	0	831520768	63	4533
2026-01-20 22:06:56.01	105.60	15.80	-46.5	-48.0	18.9	0.00e+00	0	40	0	833617920	63	4598
2026-01-20 22:06:56.98	105.79	15.75	-46.5	-48.1	18.9	0.00e+00	0	40	0	834666496	63	4626
2026-01-20 22:06:57.95	105.98	15.71	-46.5	-48.1	18.8	0.00e+00	0	40	0	836763648	63	4634
2026-01-20 22:06:58.92	106.17	15.66	-46.5	-48.1	18.8	0.00e+00	0	40	0	838860800	63	4647
2026-01-20 22:06:59.89	106.36	15.61	-46.5	-48.0	19.0	0.00e+00	0	40	0	840957952	63	4590
2026-01-20 22:07:00.87	106.55	15.56	-46.5	-48.0	18.9	0.00e+00	0	40	0	842006528	63	4594
2026-01-20 22:07:01.84	106.73	15.52	-46.3	-47.9	19.0	0.00e+00	0	40	0	844103680	63	4519
2026-01-20 22:07:02.81	106.92	15.47	-46.4	-47.9	19.0	0.00e+00	0	40	0	846200832	63	4539
2026-01-20 22:07:03.78	107.11	15.42	-46.3	-47.9	19.0	0.00e+00	0	40	0	848297984	63	4522
2026-01-20 22:07:04.74	107.29	15.38	-46.4	-47.9	19.0	0.00e+00	0	40	0	849346560	63	4526
2026-01-20 22:07:05.72	107.48	15.33	-46.4	-48.0	18.9	0.00e+00	0	40	0	851443712	63	4562
2026-01-20 22:07:06.69	107.66	15.28	-46.3	-47.8	19.1	0.00e+00	0	40	0	853540864	63	4477
2026-01-20 22:07:07.66	107.85	15.23	-46.4	-47.9	19.0	0.00e+00	0	40	0	855638016	63	4532
2026-01-20 22:07:08.63	108.03	15.18	-46.4	-47.9	19.0	0.00e+00	0	40	0	856686592	63	4534
2026-01-20 22:07:09.60	108.21	15.14	-46.4	-48.0	18.9	0.00e+00	0	40	0	858783744	63	4593
2026-01-20 22:07:10.57	108.40	15.09	-46.4	-48.0	18.9	0.00e+00	0	40	0	860880896	63	4580
2026-01-20 22:07:11.55	108.58	15.04	-46.5	-48.1	18.8	0.00e+00	0	40	0	862978048	63	4607
2026-01-20 22:07:12.51	108.76	14.99	-46.4	-48.0	19.0	0.00e+00	0	40	0	864026624	63	4548
2026-01-20 22:07:13.48	108.94	14.94	-46.2	-47.8	19.1	0.00e+00	0	40	0	866123776	63	4449
2026-01-20 22:07:14.45	109.12	14.89	-46.1	-47.6	19.3	0.00e+00	0	40	0	868220928	63	4348
2026-01-20 22:07:15.42	109.30	14.84	-46.1	-47.6	19.2	0.00e+00	0	40	0	870318080	63	4382
2026-01-20 22:07:16.39	109.48	14.79	-45.9	-47.3	19.5	0.00e+00	0	40	0	871366656	63	4222
2026-01-20 22:07:17.37	109.66	14.74	-45.8	-47.2	19.6	0.00e+00	0	40	0	873463808	63	4173
2026-01-20 22:07:18.34	109.84	14.69	-45.8	-47.2	19.6	0.00e+00	0	40	0	875560960	63	4181
2026-01-20 22:07:19.30	110.01	14.64	-45.7	-47.1	19.7	0.00e+00	0	40	0	876609536	63	4135
2026-01-20 22:07:20.27	110.19	14.59	-45.6	-47.0	19.8	0.00e+00	0	40	0	878706688	63	4084
2026-01-20 22:07:21.24	110.37	14.54	-45.6	-47.0	19.9	0.00e+00	0	40	0	880803840	63	4053
2026-01-20 22:07:22.20	110.54	14.49	-45.6	-47.0	19.8	0.00e+00	0	40	0	882900992	63	4070
2026-01-20 22:07:23.17	110.72	14.44	-45.6	-47.0	19.8	0.00e+00	0	40	0	883949568	63	4067
2026-01-20 22:07:24.14	110.89	14.39	-45.7	-47.1	19.7	0.00e+00	0	39	0	886046720	63	4115
2026-01-20 22:07:25.11	111.06	14.34	-45.7	-47.2	19.7	0.00e+00	0	40	0	888143872	63	4150
2026-01-20 22:07:26.08	111.24	14.29	-45.9	-47.4	19.5	0.00e+00	0	40	0	889192448	63	4249
2026-01-20 22:07:27.05	111.41	14.24	-46.0	-47.6	19.3	0.00e+00	0	39	0	891289600	63	4344
2026-01-20 22:07:28.02	111.58	14.18	-46.4	-48.0	18.9	0.00e+00	0	40	0	893386752	63	4592
2026-01-20 22:07:28.99	111.75	14.13	-46.6	-48.2	18.6	0.00e+00	0	40	0	895483904	63	4690
2026-01-20 22:07:29.96	111.92	14.08	-46.7	-48.4	18.4	0.00e+00	0	40	0	896532480	64	4507
2026-01-20 22:07:30.93	112.10	14.03	-46.8	-48.6	18.2	0.00e+00	0	39	0	898629632	64	4607
2026-01-20 22:07:31.89	112.26	13.98	-46.6	-48.3	18.4	0.00e+00	0	40	0	900726784	64	4491
2026-01-20 22:07:32.86	112.43	13.93	-46.5	-48.2	18.6	0.00e+00	0	40	0	902823936	64	4401
2026-01-20 22:07:33.83	112.60	13.87	-46.2	-47.8	18.9	0.00e+00	0	40	0	903872512	64	4224
2026-01-20 22:07:34.80	112.77	13.82	-46.0	-47.5	19.4	0.00e+00	0	40	0	905969664	63	4323
2026-01-20 22:07:35.77	112.94	13.77	-45.9	-47.4	19.4	0.00e+00	0	40	0	908066816	63	4270
2026-01-20 22:07:36.74	113.10	13.72	-45.5	-46.9	19.9	0.00e+00	0	40	0	910163968	63	4022
2026-01-20 22:07:37.71	113.27	13.66	-45.4	-46.8	20.0	0.00e+00	0	40	0	911212544	62	4230
2026-01-20 22:07:38.67	113.43	13.61	-45.6	-47.0	19.8	0.00e+00	0	40	0	913309696	62	4318
2026-01-20 22:07:39.64	113.60	13.56	-45.6	-47.0	19.8	0.00e+00	0	40	0	915406848	62	4333
2026-01-20 22:07:40.61	113.76	13.51	-45.8	-47.2	19.6	0.00e+00	0	40	0	917504000	62	4433
2026-01-20 22:07:41.58	113.93	13.45	-45.8	-47.3	19.5	0.00e+00	0	40	0	918552576	62	4472
2026-01-20 22:07:42.54	114.09	13.40	-45.9	-47.4	19.4	0.00e+00	0	40	0	920649728	62	4525
2026-01-20 22:07:43.51	114.25	13.35	-45.7	-47.2	19.6	0.00e+00	0	39	0	922746880	62	4406
2026-01-20 22:07:44.48	114.42	13.29	-45.7	-47.1	19.7	0.00e+00	0	40	0	923795456	62	4366
2026-01-20 22:07:45.46	114.58	13.24	-45.6	-47.1	19.7	0.00e+00	0	40	0	925892608	62	4341
2026-01-20 22:07:46.43	114.74	13.19	-45.5	-47.0	19.8	0.00e+00	0	40	0	927989760	62	4296
2026-01-20 22:07:47.40	114.90	13.13	-45.6	-47.0	19.8	0.00e+00	0	40	0	930086912	62	4307
2026-01-20 22:07:48.37	115.06	13.08	-45.6	-47.0	19.8	0.00e+00	0	40	0	931135488	62	4311
2026-01-20 22:07:49.33	115.22	13.03	-45.7	-47.1	19.6	0.00e+00	0	40	0	933232640	62	4372
2026-01-20 22:07:50.30	115.38	12.97	-45.8	-47.3	19.4	0.00e+00	0	40	0	935329792	62	4481
2026-01-20 22:07:51.27	115.54	12.92	-46.0	-47.6	19.2	0.00e+00	0	39	0	937426944	62	4610
2026-01-20 22:07:52.24	115.70	12.87	-46.0	-47.5	19.2	0.00e+00	0	40	0	938475520	62	4571
2026-01-20 22:07:53.21	115.85	12.81	-46.0	-47.5	19.3	0.00e+00	0	40	0	940572672	62	4569
2026-01-20 22:07:54.18	116.01	12.76	-45.9	-47.4	19.3	0.00e+00	0	40	0	942669824	62	4528
2026-01-20 22:07:55.16	116.17	12.70	-45.9	-47.5	19.3	0.00e+00	0	40	0	943718400	62	4546
2026-01-20 22:07:56.13	116.32	12.65	-45.8	-47.2	19.5	0.00e+00	0	40	0	945815552	62	4421
2026-01-20 22:07:57.09	116.48	12.59	-45.5	-46.9	19.9	0.00e+00	0	40	0	947912704	62	4259
2026-01-20 22:07:58.06	116.63	12.54	-45.4	-46.8	19.9	0.00e+00	0	40	0	950009856	62	4219
2026-01-20 22:07:59.03	116.79	12.49	-45.4	-46.8	19.9	0.00e+00	0	40	0	951058432	62	4209
2026-01-20 22:07:59.99	116.94	12.43	-45.5	-46.9	19.9	0.00e+00	0	40	0	953155584	62	4244
2026-01-20 22:08:00.97	117.09	12.38	-45.7	-47.1	19.6	0.00e+00	0	40	0	955252736	62	4383
2026-01-20 22:08:01.94	117.24	12.32	-45.8	-47.3	19.4	0.00e+00	0	40	0	957349888	62	4474
2026-01-20 22:08:02.90	117.39	12.27	-46.0	-47.6	19.1	0.00e+00	0	40	0	958398464	62	4619
2026-01-20 22:08:03.87	117.55	12.21	-46.1	-47.6	19.1	0.00e+00	0	40	0	960495616	62	4636
2026-01-20 22:08:04.84	117.70	12.16	-46.0	-47.5	19.2	0.00e+00	0	40	0	962592768	62	4578
2026-01-20 22:08:05.81	117.85	12.10	-45.9	-47.4	19.2	0.00e+00	0	39	0	964689920	62	4534
2026-01-20 22:08:06.78	118.00	12.05	-45.9	-47.4	19.3	0.00e+00	0	40	0	965738496	62	4514
2026-01-20 22:08:07.75	118.15	11.99	-45.7	-47.1	19.5	0.00e+00	0	40	0	967835648	62	4378
2026-01-20 22:08:08.72	118.30	11.94	-45.5	-46.9	19.7	0.00e+00	0	40	0	969932800	62	4273
2026-01-20 22:08:09.69	118.44	11.88	-45.5	-46.9	19.8	0.00e+00	0	40	0	970981376	62	4248
2026-01-20 22:08:10.66	118.59	11.83	-45.5	-46.9	19.7	0.00e+00	0	40	0	973078528	62	4265
2026-01-20 22:08:11.62	118.74	11.77	-45.6	-47.1	19.5	0.00e+00	0	40	0	975175680	62	4354
2026-01-20 22:08:12.59	118.88	11.72	-45.7	-47.2	19.5	0.00e+00	0	40	0	977272832	62	4396
2026-01-20 22:08:13.56	119.03	11.66	-45.9	-47.4	19.2	0.00e+00	0	39	0	978321408	62	4512
2026-01-20 22:08:14.53	119.17	11.61	-46.1	-47.7	18.9	0.00e+00	0	40	0	980418560	62	4657
2026-01-20 22:08:15.50	119.32	11.55	-46.2	-47.9	18.7	0.00e+00	0	40	0	982515712	63	4499
2026-01-20 22:08:16.47	119.46	11.50	-46.3	-48.0	18.6	0.00e+00	0	39	0	984612864	63	4568
2026-01-20 22:08:17.44	119.61	11.44	-46.2	-47.9	18.7	0.00e+00	0	40	0	985661440	63	4507
2026-01-20 22:08:18.40	119.75	11.39	-46.3	-47.9	18.7	0.00e+00	0	40	0	987758592	63	4524
2026-01-20 22:08:19.37	119.89	11.33	-46.2	-47.8	18.8	0.00e+00	0	40	0	989855744	63	4448
2026-01-20 22:08:20.34	120.03	11.28	-45.9	-47.5	19.1	0.00e+00	0	40	0	991952896	63	4301
2026-01-20 22:08:21.31	120.18	11.22	-45.8	-47.4	19.2	0.00e+00	0	40	0	993001472	63	4251
2026-01-20 22:08:22.28	120.32	11.17	-45.9	-47.4	19.2	0.00e+00	0	40	0	995098624	63	4259
2026-01-20 22:08:23.24	120.46	11.11	-45.8	-47.3	19.3	0.00e+00	0	40	0	997195776	63	4195
2026-01-20 22:08:24.21	120.60	11.06	-45.9	-47.5	19.1	0.00e+00	0	40	0	999292928	63	4313
2026-01-20 22:08:25.18	120.74	11.00	-46.1	-47.7	18.9	0.00e+00	0	40	0	1000341504	63	4392
2026-01-20 22:08:26.15	120.88	10.94	-46.1	-47.7	18.9	0.00e+00	0	40	0	1002438656	63	4395
2026-01-20 22:08:27.12	121.02	10.89	-46.3	-47.9	18.6	0.00e+00	0	40	0	1004535808	63	4527
2026-01-20 22:08:28.09	121.15	10.83	-46.2	-47.8	18.7	0.00e+00	0	39	0	1005584384	63	4488
2026-01-20 22:08:29.06	121.29	10.78	-46.2	-47.9	18.8	0.00e+00	0	40	0	1007681536	63	4500
2026-01-20 22:08:30.02	121.43	10.72	-46.2	-47.9	18.7	0.00e+00	0	40	0	1009778688	63	4506
2026-01-20 22:08:30.99	121.56	10.67	-46.1	-47.7	18.9	0.00e+00	0	40	0	1011875840	63	4406
2026-01-20 22:08:31.96	121.70	10.61	-46.1	-47.7	18.8	0.00e+00	0	40	0	1012924416	63	4424
2026-01-20 22:08:32.93	121.84	10.56	-46.0	-47.5	19.0	0.00e+00	0	40	0	1015021568	63	4338
2026-01-20 22:08:33.90	121.97	10.50	-45.9	-47.4	19.0	0.00e+00	0	39	0	1017118720	63	4291
2026-01-20 22:08:34.87	122.11	10.44	-45.9	-47.5	19.1	0.00e+00	0	39	0	1018167296	63	4298
2026-01-20 22:08:35.83	122.24	10.39	-46.0	-47.5	19.0	0.00e+00	0	39	0	1020264448	63	4331
2026-01-20 22:08:36.80	122.37	10.33	-46.1	-47.7	18.9	0.00e+00	0	40	0	1022361600	63	4397
2026-01-20 22:08:37.77	122.51	10.28	-46.2	-47.8	18.7	0.00e+00	0	39	0	1024458752	63	4466
2026-01-20 22:08:38.74	122.64	10.22	-46.3	-48.0	18.5	0.00e+00	0	40	0	1025507328	63	4574
2026-01-20 22:08:39.71	122.77	10.17	-46.6	-48.3	18.2	0.00e+00	0	40	0	1027604480	63	4740
2026-01-20 22:08:40.68	122.90	10.11	-46.6	-48.3	18.2	0.00e+00	0	40	0	1029701632	63	4740
2026-01-20 22:08:41.65	123.03	10.05	-46.7	-48.5	17.9	0.00e+00	0	40	0	1031798784	64	4571
2026-01-20 22:08:42.62	123.17	10.00	-46.7	-48.5	17.9	0.00e+00	0	40	0	1032847360	64	4596
2026-01-20 22:08:43.59	123.30	9.94	-46.6	-48.4	18.0	0.00e+00	0	39	0	1034944512	64	4515
2026-01-20 22:08:44.56	123.43	9.89	-46.6	-48.4	18.0	0.00e+00	0	39	0	1037041664	64	4498
2026-01-20 22:08:45.53	123.56	9.83	-46.3	-48.0	18.4	0.00e+00	0	39	0	1039138816	64	4301
2026-01-20 22:08:46.50	123.68	9.77	-46.3	-48.0	18.4	0.00e+00	0	39	0	1040187392	64	4315
2026-01-20 22:08:47.47	123.81	9.72	-46.3	-48.0	18.4	0.00e+00	0	40	0	1042284544	64	4325
2026-01-20 22:08:48.44	123.94	9.66	-46.2	-47.9	18.4	0.00e+00	0	40	0	1044381696	64	4273
2026-01-20 22:08:49.41	124.07	9.61	-46.2	-47.9	18.4	0.00e+00	0	39	0	1046478848	64	4281
2026-01-20 22:08:50.38	124.20	9.55	-46.5	-48.3	18.1	0.00e+00	0	39	0	1047527424	64	4461
2026-01-20 22:08:51.35	124.32	9.50	-46.5	-48.3	18.1	0.00e+00	0	39	0	1049624576	64	4463
2026-01-20 22:08:52.32	124.45	9.44	-46.6	-48.4	18.0	0.00e+00	0	39	0	1051721728	64	4496
2026-01-20 22:08:53.30	124.57	9.38	-46.7	-48.5	17.9	0.00e+00	0	39	0	1053818880	64	4581
2026-01-20 22:08:54.27	124.70	9.33	-46.8	-48.7	17.6	0.00e+00	0	39	0	1054867456	64	4670
2026-01-20 22:08:55.23	124.82	9.27	-46.7	-48.5	17.8	0.00e+00	0	40	0	1056964608	64	4576
2026-01-20 22:08:56.20	124.95	9.22	-46.7	-48.5	17.8	0.00e+00	0	39	0	1059061760	64	4590
2026-01-20 22:08:57.17	125.07	9.16	-46.7	-48.5	17.8	0.00e+00	0	40	0	1060110336	64	4595
2026-01-20 22:08:58.14	125.20	9.11	-46.7	-48.5	17.8	0.00e+00	0	40	0	1062207488	64	4581
2026-01-20 22:08:59.11	125.32	9.05	-46.7	-48.6	17.7	0.00e+00	0	40	0	1064304640	64	4609
2026-01-20 22:09:00.08	125.44	8.99	-46.7	-48.6	17.7	0.00e+00	0	39	0	1066401792	64	4606
2026-01-20 22:09:01.05	125.56	8.94	-46.6	-48.4	17.9	0.00e+00	0	40	0	1067450368	64	4494
2026-01-20 22:09:02.02	125.68	8.88	-46.7	-48.5	17.8	0.00e+00	0	40	0	1069547520	64	4577
2026-01-20 22:09:02.99	125.81	8.83	-46.6	-48.4	17.9	0.00e+00	0	40	0	1071644672	64	4514
2026-01-20 22:09:03.96	125.93	8.77	-46.8	-48.6	17.6	0.00e+00	0	40	0	1073741824	64	4640
2026-01-20 22:09:04.93	126.05	8.72	-46.8	-48.7	17.6	0.00e+00	0	39	0	1074790400	64	4676
2026-01-20 22:09:05.90	126.17	8.66	-46.9	-48.9	17.4	0.00e+00	0	40	0	1076887552	64	4766
2026-01-20 22:09:06.87	126.29	8.60	-47.0	-49.0	17.3	0.00e+00	0	40	0	1078984704	64	4841
2026-01-20 22:09:07.83	126.40	8.55	-47.2	-49.3	17.0	0.00e+00	0	40	0	1080033280	64	4986
2026-01-20 22:09:08.80	126.52	8.49	-47.1	-49.1	17.1	0.00e+00	0	40	0	1082130432	65	4650
2026-01-20 22:09:09.77	126.64	8.44	-47.2	-49.3	17.0	0.00e+00	0	40	0	1084227584	65	4714
2026-01-20 22:09:10.74	126.76	8.38	-47.3	-49.4	16.8	0.00e+00	0	40	0	1086324736	65	4810
2026-01-20 22:09:11.71	126.87	8.33	-47.2	-49.2	17.0	0.00e+00	0	40	0	1087373312	65	4705
2026-01-20 22:09:12.68	126.99	8.27	-47.2	-49.3	17.0	0.00e+00	0	40	0	1089470464	65	4711
2026-01-20 22:09:13.65	127.11	8.22	-46.9	-48.9	17.4	0.00e+00	0	40	0	1091567616	65	4494
2026-01-20 22:09:14.62	127.22	8.16	-46.9	-48.9	17.3	0.00e+00	0	40	0	1093664768	65	4528
2026-01-20 22:09:15.59	127.34	8.10	-46.8	-48.8	17.4	0.00e+00	0	40	0	1094713344	65	4450
2026-01-20 22:09:16.55	127.45	8.05	-46.8	-48.7	17.4	0.00e+00	0	40	0	1096810496	65	4432
2026-01-20 22:09:17.52	127.57	7.99	-46.7	-48.6	17.6	0.00e+00	0	39	0	1098907648	65	4385
2026-01-20 22:09:18.50	127.68	7.94	-46.8	-48.8	17.5	0.00e+00	0	40	0	1101004800	65	4443
2026-01-20 22:09:19.47	127.80	7.88	-46.8	-48.7	17.4	0.00e+00	0	40	0	1102053376	65	4421
2026-01-20 22:09:20.44	127.91	7.83	-46.9	-48.8	17.3	0.00e+00	0	39	0	1104150528	65	4487
2026-01-20 22:09:21.41	128.02	7.77	-47.0	-49.0	17.2	0.00e+00	0	40	0	1106247680	65	4563
2026-01-20 22:09:22.37	128.14	7.72	-47.0	-49.0	17.2	0.00e+00	0	40	0	1107296256	65	4560
2026-01-20 22:09:23.34	128.25	7.66	-47.1	-49.1	17.0	0.00e+00	0	40	0	1109393408	65	4639
2026-01-20 22:09:24.31	128.36	7.61	-47.3	-49.4	16.8	0.00e+00	0	40	0	1111490560	65	4778
2026-01-20 22:09:25.28	128.47	7.55	-47.1	-49.2	16.9	0.00e+00	0	40	0	1113587712	65	4668
2026-01-20 22:09:26.25	128.58	7.50	-47.1	-49.1	17.0	0.00e+00	0	40	0	1114636288	65	4646
2026-01-20 22:09:27.22	128.69	7.44	-47.3	-49.4	16.7	0.00e+00	0	40	0	1116733440	65	4812
2026-01-20 22:09:28.19	128.80	7.39	-47.1	-49.1	17.0	0.00e+00	0	39	0	1118830592	65	4642
2026-01-20 22:09:29.15	128.91	7.33	-47.1	-49.1	17.0	0.00e+00	0	40	0	1120927744	65	4639
2026-01-20 22:09:30.12	129.02	7.28	-47.1	-49.2	16.9	0.00e+00	0	40	0	1121976320	65	4693
2026-01-20 22:09:31.10	129.13	7.22	-47.3	-49.5	16.7	0.00e+00	0	40	0	1124073472	65	4832
2026-01-20 22:09:32.06	129.24	7.17	-47.3	-49.5	16.6	0.00e+00	0	40	0	1126170624	65	4857
2026-01-20 22:09:33.03	129.35	7.11	-47.4	-49.6	16.5	0.00e+00	0	40	0	1128267776	65	4872
2026-01-20 22:09:34.00	129.45	7.06	-47.4	-49.6	16.5	0.00e+00	0	40	0	1129316352	65	4921
2026-01-20 22:09:34.97	129.56	7.00	-47.6	-49.9	16.2	0.00e+00	0	39	0	1131413504	65	5076
2026-01-20 22:09:35.94	129.67	6.95	-47.8	-50.1	16.0	0.00e+00	0	40	0	1133510656	66	4925
2026-01-20 22:09:36.91	129.78	6.89	-47.7	-50.1	16.0	0.00e+00	0	40	0	1135607808	66	4905
2026-01-20 22:09:37.88	129.88	6.84	-47.8	-50.2	15.9	0.00e+00	0	40	0	1136656384	66	4939
2026-01-20 22:09:38.86	129.99	6.78	-47.8	-50.3	15.8	0.00e+00	0	40	0	1138753536	66	5005
2026-01-20 22:09:39.83	130.09	6.73	-47.8	-50.2	15.9	0.00e+00	0	39	0	1140850688	66	4958
2026-01-20 22:09:40.80	130.20	6.67	-47.9	-50.5	15.6	0.00e+00	0	40	0	1142947840	66	5101
2026-01-20 22:09:41.77	130.30	6.62	-48.0	-50.5	15.6	0.00e+00	0	40	0	1143996416	66	5116
2026-01-20 22:09:42.73	130.41	6.56	-47.9	-50.3	15.7	0.00e+00	0	40	0	1146093568	66	5027
2026-01-20 22:09:43.70	130.51	6.51	-47.8	-50.2	15.9	0.00e+00	0	40	0	1148190720	66	4942
2026-01-20 22:09:44.67	130.62	6.46	-47.8	-50.2	15.9	0.00e+00	0	40	0	1149239296	66	4936
2026-01-20 22:09:45.64	130.72	6.40	-47.5	-49.8	16.3	0.00e+00	0	40	0	1151336448	66	4716
2026-01-20 22:09:46.61	130.82	6.35	-47.5	-49.8	16.3	0.00e+00	0	40	0	1153433600	66	4718
2026-01-20 22:09:47.57	130.92	6.29	-47.5	-49.7	16.3	0.00e+00	0	40	0	1154482176	66	4687
2026-01-20 22:09:48.55	131.03	6.24	-47.5	-49.8	16.2	0.00e+00	0	40	0	1156579328	66	4750
2026-01-20 22:09:49.52	131.13	6.18	-47.5	-49.8	16.2	0.00e+00	0	40	0	1158676480	66	4725
2026-01-20 22:09:50.49	131.23	6.13	-47.8	-50.3	15.7	0.00e+00	0	40	0	1160773632	66	5006
2026-01-20 22:09:51.46	131.33	6.08	-47.6	-50.0	16.0	0.00e+00	0	39	0	1161822208	66	4833
2026-01-20 22:09:52.43	131.43	6.02	-47.9	-50.4	15.6	0.00e+00	0	40	0	1163919360	66	5060
2026-01-20 22:09:53.39	131.53	5.97	-47.9	-50.4	15.5	0.00e+00	0	40	0	1166016512	66	5088
2026-01-20 22:09:54.36	131.63	5.91	-47.9	-50.5	15.5	0.00e+00	0	40	0	1168113664	66	5128
2026-01-20 22:09:55.33	131.73	5.86	-47.9	-50.4	15.5	7.00e-07	0	40	0	1169162240	66	5068
2026-01-20 22:09:56.30	131.83	5.80	-47.9	-50.5	15.5	0.00e+00	0	40	0	1171259392	66	5120
2026-01-20 22:09:57.28	131.93	5.75	-48.0	-50.7	15.2	0.00e+00	0	40	0	1173356544	66	5238
2026-01-20 22:09:58.24	132.03	5.70	-47.9	-50.5	15.4	0.00e+00	0	39	0	1175453696	66	5158
2026-01-20 22:09:59.21	132.13	5.64	-48.0	-50.6	15.2	0.00e+00	0	40	0	1176502272	66	5193
2026-01-20 22:10:00.18	132.22	5.59	-48.0	-50.7	15.2	0.00e+00	0	40	0	1178599424	66	5241
2026-01-20 22:10:01.15	132.32	5.54	-48.2	-50.9	15.0	0.00e+00	0	39	0	1180696576	66	5387
2026-01-20 22:10:02.12	132.42	5.48	-48.1	-50.9	15.0	0.00e+00	0	40	0	1182793728	66	5373
