passes_logs/2026/01/20/R3.2S_Murmansk/R3.2S_Murmansk__20260120_152329_FENGYUN_3F_rec.log

#Pass ID: 20260120_152329_FENGYUN 3F
#Satellite: FENGYUN 3F
#Configuration: FENGYUN 3F
#almurnet v.1.7.20251203
#Start time: 2026-01-20 15:23:29

#Version: 2.2.20231116
#Station: R3.2S_Murmansk
#Location: 33.079688 lon 68.888172 lat
#TLE: 1 57490U 23111A   26019.92512622  .00000154  00000+0  92852-4 0  9999
#TLE: 2 57490  98.7024  92.5925 0001319 112.4467 247.6849 14.19904935127823

#Time	Az	El	Level	Level2	SNR	BER	BlckErr	Temp	State	Recorded	gain1	gain2
2026-01-20 15:23:29.36	86.92	2.01	-52.3	-63.1	3.8	8.45e-01	0	37	0	0	76	12290
2026-01-20 15:23:30.37	86.86	2.07	-52.3	-63.1	3.8	8.47e-01	0	37	104	0	75	13076
2026-01-20 15:23:31.37	86.80	2.13	-52.3	-63.1	3.8	8.45e-01	0	37	104	0	75	13065
2026-01-20 15:23:32.38	86.75	2.19	-52.3	-63.1	3.8	8.47e-01	0	37	104	0	75	13032
2026-01-20 15:23:33.38	86.69	2.25	-52.3	-63.1	3.8	8.46e-01	0	37	104	0	75	13052
2026-01-20 15:23:34.39	86.63	2.31	-52.3	-63.1	3.8	8.46e-01	0	37	104	0	75	13066
2026-01-20 15:23:35.40	86.57	2.37	-52.3	-63.1	3.8	8.46e-01	0	37	104	0	75	13012
2026-01-20 15:23:36.40	86.52	2.43	-52.3	-63.1	3.8	8.46e-01	0	37	104	0	75	13014
2026-01-20 15:23:37.41	86.46	2.49	-52.3	-63.1	3.8	8.46e-01	0	37	104	0	75	13005
2026-01-20 15:23:38.42	86.40	2.55	-52.3	-63.1	3.8	8.47e-01	0	37	104	0	75	13014
2026-01-20 15:23:39.42	86.34	2.60	-52.3	-63.1	3.8	8.45e-01	0	37	104	0	75	13016
2026-01-20 15:23:40.42	86.28	2.66	-52.3	-63.1	3.8	8.44e-01	0	37	104	0	75	13033
2026-01-20 15:23:41.43	86.22	2.72	-52.3	-63.1	3.8	8.46e-01	0	37	104	0	75	13005
2026-01-20 15:23:42.43	86.16	2.78	-52.3	-63.1	3.8	8.46e-01	0	37	104	0	75	13031
2026-01-20 15:23:43.43	86.10	2.84	-52.3	-63.1	3.8	8.46e-01	0	37	104	0	75	12981
2026-01-20 15:23:44.44	86.04	2.90	-52.3	-63.1	3.8	8.46e-01	0	37	104	0	75	13007
2026-01-20 15:23:45.44	85.98	2.96	-52.3	-63.1	3.8	8.46e-01	0	38	104	0	75	13023
2026-01-20 15:23:46.44	85.92	3.02	-52.3	-63.1	3.8	8.46e-01	0	37	104	0	75	12993
2026-01-20 15:23:47.45	85.86	3.09	-52.3	-63.1	3.8	8.46e-01	0	37	104	0	75	13048
2026-01-20 15:23:48.46	85.80	3.15	-52.3	-63.0	3.8	8.46e-01	0	38	104	0	75	12947
2026-01-20 15:23:49.46	85.74	3.21	-52.3	-63.0	3.8	8.47e-01	0	37	104	0	75	12948
2026-01-20 15:23:50.46	85.68	3.27	-52.3	-63.0	3.8	8.45e-01	0	37	104	0	75	12913
2026-01-20 15:23:51.46	85.62	3.33	-52.3	-63.0	3.8	8.47e-01	0	38	104	0	75	12915
2026-01-20 15:23:52.47	85.56	3.39	-52.3	-62.9	3.8	8.46e-01	0	37	104	0	75	12782
2026-01-20 15:23:53.47	85.49	3.45	-52.3	-62.9	3.8	8.45e-01	0	38	104	0	75	12795
2026-01-20 15:23:54.47	85.43	3.51	-52.3	-63.0	3.8	8.46e-01	0	37	104	0	75	12814
2026-01-20 15:23:55.47	85.37	3.57	-52.3	-63.0	3.8	8.47e-01	0	38	104	0	75	12875
2026-01-20 15:23:56.47	85.31	3.63	-52.3	-63.1	3.8	8.47e-01	0	37	104	0	75	12993
2026-01-20 15:23:57.47	85.24	3.69	-52.3	-63.1	3.8	8.48e-01	0	38	104	0	75	13005
2026-01-20 15:23:58.46	85.18	3.75	-52.3	-63.1	3.8	8.46e-01	0	38	104	0	75	12976
2026-01-20 15:23:59.47	85.12	3.82	-52.3	-63.0	3.8	8.47e-01	0	38	104	0	75	12854
2026-01-20 15:24:00.47	85.05	3.88	-52.3	-62.9	3.8	8.46e-01	0	38	104	0	75	12677
2026-01-20 15:24:01.47	84.99	3.94	-52.2	-62.6	3.8	8.46e-01	0	38	104	0	75	12310
2026-01-20 15:24:02.47	84.92	4.00	-52.3	-62.7	3.8	8.47e-01	0	38	104	0	75	12377
2026-01-20 15:24:03.48	84.86	4.06	-52.2	-62.5	3.8	8.47e-01	0	38	104	0	75	12152
2026-01-20 15:24:04.48	84.79	4.13	-52.2	-62.3	3.8	8.45e-01	0	38	104	0	75	11945
2026-01-20 15:24:05.48	84.73	4.19	-52.1	-61.7	3.8	8.46e-01	0	38	104	0	75	11033
2026-01-20 15:24:06.48	84.66	4.25	-51.9	-60.0	4.1	8.45e-01	0	38	104	0	75	9116
2026-01-20 15:24:07.48	84.60	4.31	-51.5	-57.9	4.8	8.25e-01	0	38	0	0	75	7167
2026-01-20 15:24:08.48	84.53	4.37	-51.0	-56.1	5.9	6.20e-01	0	38	0	0	74	6167
2026-01-20 15:24:09.48	84.46	4.44	-50.4	-54.4	7.3	1.58e-01	0	38	0	7340032	72	5718
2026-01-20 15:24:10.48	84.40	4.50	-49.5	-52.7	9.2	2.17e-02	0	38	0	14680064	71	4938
2026-01-20 15:24:11.48	84.33	4.56	-48.8	-51.3	10.6	2.72e-03	0	38	0	22020096	69	4736
2026-01-20 15:24:12.48	84.26	4.63	-48.2	-50.4	11.6	1.98e-03	0	38	0	29360128	68	4509
2026-01-20 15:24:13.48	84.20	4.69	-47.3	-49.1	12.8	1.37e-04	0	38	0	36700160	66	4390
2026-01-20 15:24:14.48	84.13	4.75	-47.1	-48.9	13.1	4.23e-05	0	38	0	44040192	66	4262
2026-01-20 15:24:15.48	84.06	4.81	-46.9	-48.7	13.3	2.63e-05	0	38	0	51380224	65	4407
2026-01-20 15:24:16.48	83.99	4.88	-47.2	-49.0	13.0	4.00e-05	0	38	0	57671680	65	4565
2026-01-20 15:24:17.49	83.92	4.94	-47.3	-49.2	12.7	1.60e-04	0	38	0	65011712	65	4705
2026-01-20 15:24:18.49	83.85	5.00	-47.6	-49.7	12.2	1.50e-04	0	38	0	72351744	65	4946
2026-01-20 15:24:19.49	83.78	5.07	-47.3	-49.2	12.8	9.38e-04	0	38	0	79691776	66	4401
2026-01-20 15:24:20.49	83.71	5.13	-46.7	-48.3	13.8	3.40e-06	0	38	0	87031808	64	4486
2026-01-20 15:24:21.49	83.64	5.20	-48.3	-50.0	12.3	2.51e-05	0	38	0	94371840	66	4825
2026-01-20 15:24:22.50	83.57	5.26	-47.2	-48.9	12.9	6.41e-01	0	38	0	99614720	66	4282
2026-01-20 15:24:23.50	83.50	5.32	-46.7	-48.3	14.2	0.00e+00	0	38	0	105906176	63	4732
2026-01-20 15:24:24.51	83.43	5.39	-49.7	-52.9	8.8	8.42e-01	0	38	104	108003328	71	5048
2026-01-20 15:24:25.51	83.36	5.45	-45.0	-46.1	16.1	0.00e+00	0	38	0	114294784	61	4138
2026-01-20 15:24:26.50	83.29	5.52	-44.8	-46.0	16.3	0.00e+00	0	38	0	121634816	61	4063
2026-01-20 15:24:27.50	83.21	5.58	-44.8	-45.9	16.4	0.00e+00	0	38	0	128974848	61	4039
2026-01-20 15:24:28.50	83.14	5.65	-44.9	-46.1	16.3	0.00e+00	0	38	0	136314880	61	4121
2026-01-20 15:24:29.51	83.07	5.71	-45.0	-46.2	16.2	0.00e+00	0	38	0	143654912	61	4147
2026-01-20 15:24:30.51	82.99	5.78	-44.6	-45.8	16.5	0.00e+00	0	38	0	149946368	61	3974
2026-01-20 15:24:31.50	82.92	5.84	-44.8	-46.0	16.4	0.00e+00	0	38	0	157286400	61	4052
2026-01-20 15:24:32.50	82.85	5.91	-44.7	-45.8	16.6	0.00e+00	0	38	0	164626432	61	3991
2026-01-20 15:24:33.50	82.77	5.97	-44.9	-46.0	16.4	0.00e+00	0	39	0	171966464	61	4098
2026-01-20 15:24:34.50	82.70	6.04	-44.7	-45.8	16.6	0.00e+00	0	38	0	179306496	61	3993
2026-01-20 15:24:35.50	82.62	6.10	-44.9	-46.0	16.4	0.00e+00	0	39	0	186646528	61	4085
2026-01-20 15:24:36.50	82.55	6.17	-45.0	-46.2	16.3	0.00e+00	0	39	0	193986560	61	4154
2026-01-20 15:24:37.50	82.47	6.23	-44.8	-46.0	16.5	0.00e+00	0	38	0	201326592	61	4059
2026-01-20 15:24:38.50	82.40	6.30	-44.8	-45.9	16.5	0.00e+00	0	39	0	207618048	61	4036
2026-01-20 15:24:39.50	82.32	6.36	-44.6	-45.8	16.7	0.00e+00	0	39	0	214958080	61	3970
2026-01-20 15:24:40.49	82.25	6.43	-44.3	-45.4	17.1	0.00e+00	0	38	0	222298112	60	4022
2026-01-20 15:24:41.50	82.17	6.50	-44.4	-45.5	17.0	0.00e+00	0	38	0	229638144	60	4071
2026-01-20 15:24:42.50	82.09	6.56	-44.1	-45.1	17.3	0.00e+00	0	38	0	236978176	60	3908
2026-01-20 15:24:43.50	82.01	6.63	-44.2	-45.2	17.3	0.00e+00	0	38	0	244318208	60	3948
2026-01-20 15:24:44.50	81.93	6.70	-44.5	-45.6	17.3	0.00e+00	0	39	0	251658240	59	4352
2026-01-20 15:24:45.50	81.86	6.76	-44.5	-45.6	17.2	0.00e+00	0	39	0	258998272	59	4361
2026-01-20 15:24:46.50	81.78	6.83	-44.2	-45.2	17.6	0.00e+00	0	38	0	266338304	59	4176
2026-01-20 15:24:47.50	81.70	6.90	-44.3	-45.3	17.6	0.00e+00	0	39	0	272629760	59	4230
2026-01-20 15:24:48.50	81.62	6.96	-44.3	-45.4	17.5	0.00e+00	0	38	0	279969792	59	4250
2026-01-20 15:24:49.50	81.54	7.03	-44.2	-45.2	17.7	0.00e+00	0	39	0	287309824	59	4165
2026-01-20 15:24:50.50	81.46	7.10	-44.3	-45.3	17.6	0.00e+00	0	39	0	294649856	59	4214
2026-01-20 15:24:51.51	81.38	7.16	-44.4	-45.4	17.5	0.00e+00	0	38	0	301989888	59	4281
2026-01-20 15:24:52.50	81.30	7.23	-44.2	-45.2	17.7	0.00e+00	0	39	0	309329920	59	4177
2026-01-20 15:24:53.51	81.21	7.30	-44.2	-45.2	17.7	0.00e+00	0	39	0	316669952	59	4174
2026-01-20 15:24:54.51	81.13	7.37	-43.8	-44.8	18.1	0.00e+00	0	39	0	324009984	59	3964
2026-01-20 15:24:55.51	81.05	7.44	-44.2	-45.2	17.8	0.00e+00	0	38	0	331350016	59	4166
2026-01-20 15:24:56.51	80.97	7.50	-44.1	-45.1	17.9	0.00e+00	0	39	0	337641472	59	4120
2026-01-20 15:24:57.51	80.88	7.57	-44.0	-44.9	18.0	0.00e+00	0	39	0	344981504	59	4048
2026-01-20 15:24:58.51	80.80	7.64	-44.0	-45.0	17.9	0.00e+00	0	39	0	352321536	59	4076
2026-01-20 15:24:59.51	80.72	7.71	-44.1	-45.1	17.9	0.00e+00	0	39	0	359661568	59	4110
2026-01-20 15:25:00.52	80.63	7.78	-44.1	-45.0	17.9	0.00e+00	0	39	0	367001600	59	4097
2026-01-20 15:25:01.53	80.54	7.85	-44.2	-45.2	17.7	0.00e+00	0	39	0	374341632	59	4164
2026-01-20 15:25:02.53	80.46	7.91	-44.2	-45.2	17.7	0.00e+00	0	39	0	381681664	59	4174
2026-01-20 15:25:03.53	80.37	7.98	-44.1	-45.1	17.8	0.00e+00	0	39	0	389021696	59	4141
2026-01-20 15:25:04.53	80.29	8.05	-44.0	-45.0	18.0	0.00e+00	0	39	0	395313152	59	4061
2026-01-20 15:25:05.54	80.20	8.12	-44.1	-45.1	17.9	0.00e+00	0	39	0	402653184	59	4117
2026-01-20 15:25:06.55	80.11	8.19	-44.1	-45.1	17.9	0.00e+00	0	39	0	409993216	59	4130
2026-01-20 15:25:07.56	80.02	8.26	-44.2	-45.2	17.8	0.00e+00	0	39	0	418381824	59	4163
2026-01-20 15:25:08.56	79.94	8.33	-44.1	-45.1	17.9	0.00e+00	0	39	0	425721856	59	4128
2026-01-20 15:25:09.56	79.85	8.40	-43.7	-44.7	18.4	0.00e+00	0	39	0	433061888	59	3917
2026-01-20 15:25:10.57	79.76	8.47	-43.9	-44.8	18.2	0.00e+00	0	39	0	439353344	59	3998
2026-01-20 15:25:11.57	79.67	8.54	-43.9	-44.8	18.2	0.00e+00	0	39	0	446693376	59	4002
2026-01-20 15:25:12.58	79.58	8.61	-43.8	-44.7	18.3	0.00e+00	0	39	0	454033408	59	3944
2026-01-20 15:25:13.58	79.49	8.68	-43.6	-44.5	18.5	0.00e+00	0	39	0	461373440	59	3862
2026-01-20 15:25:14.59	79.40	8.75	-43.6	-44.6	18.5	0.00e+00	0	39	0	468713472	59	3881
2026-01-20 15:25:15.60	79.31	8.82	-43.6	-44.6	18.5	0.00e+00	0	39	0	476053504	59	3878
2026-01-20 15:25:16.60	79.21	8.89	-43.5	-44.4	18.6	0.00e+00	0	39	0	483393536	59	3815
2026-01-20 15:25:17.61	79.12	8.96	-43.5	-44.4	18.6	0.00e+00	0	39	0	490733568	59	3814
2026-01-20 15:25:18.62	79.03	9.04	-43.5	-44.4	18.6	0.00e+00	0	39	0	498073600	58	4026
2026-01-20 15:25:19.62	78.94	9.11	-43.5	-44.4	18.7	0.00e+00	0	39	0	504365056	58	4024
2026-01-20 15:25:20.62	78.84	9.18	-43.5	-44.4	18.6	0.00e+00	0	39	0	511705088	58	4043
2026-01-20 15:25:21.63	78.75	9.25	-43.4	-44.3	18.8	0.00e+00	0	39	0	519045120	58	3972
2026-01-20 15:25:22.63	78.65	9.32	-43.4	-44.2	18.8	0.00e+00	0	39	0	526385152	58	3953
2026-01-20 15:25:23.64	78.56	9.39	-43.3	-44.2	18.9	0.00e+00	0	39	0	533725184	58	3937
2026-01-20 15:25:24.64	78.46	9.46	-43.2	-44.1	19.1	0.00e+00	0	39	0	541065216	58	3877
2026-01-20 15:25:25.65	78.37	9.54	-43.1	-44.0	19.1	0.00e+00	0	39	0	548405248	58	3847
2026-01-20 15:25:26.64	78.27	9.61	-43.1	-44.0	19.1	0.00e+00	0	39	0	555745280	58	3830
2026-01-20 15:25:27.65	78.17	9.68	-43.1	-44.0	19.1	0.00e+00	0	39	0	563085312	58	3842
2026-01-20 15:25:28.65	78.08	9.75	-43.1	-44.0	19.2	0.00e+00	0	39	0	569376768	58	3825
2026-01-20 15:25:29.66	77.98	9.83	-43.0	-43.8	19.3	0.00e+00	0	39	0	577765376	58	3775
2026-01-20 15:25:30.65	77.88	9.90	-43.0	-43.8	19.3	0.00e+00	0	39	0	585105408	57	4004
2026-01-20 15:25:31.66	77.78	9.97	-43.0	-43.8	19.3	0.00e+00	0	39	0	592445440	57	4000
2026-01-20 15:25:32.66	77.68	10.04	-43.0	-43.9	19.2	0.00e+00	0	39	0	599785472	57	4022
2026-01-20 15:25:33.67	77.58	10.12	-43.1	-43.9	19.2	0.00e+00	0	39	0	607125504	57	4044
2026-01-20 15:25:34.68	77.48	10.19	-43.2	-44.1	19.0	0.00e+00	0	39	0	613416960	57	4114
2026-01-20 15:25:35.68	77.38	10.26	-43.0	-43.9	19.2	0.00e+00	0	39	0	620756992	57	4020
2026-01-20 15:25:36.68	77.28	10.33	-43.1	-44.0	19.1	0.00e+00	0	39	0	628097024	57	4082
2026-01-20 15:25:37.69	77.18	10.41	-43.2	-44.1	19.1	0.00e+00	0	39	0	635437056	57	4107
2026-01-20 15:25:38.69	77.07	10.48	-43.2	-44.1	19.1	0.00e+00	0	39	0	642777088	57	4102
2026-01-20 15:25:39.69	76.97	10.56	-43.0	-43.8	19.3	0.00e+00	0	39	0	650117120	57	3992
2026-01-20 15:25:40.69	76.87	10.63	-43.1	-44.0	19.2	0.00e+00	0	39	0	657457152	57	4056
2026-01-20 15:25:41.70	76.76	10.70	-43.0	-43.9	19.3	0.00e+00	0	39	0	664797184	57	4005
2026-01-20 15:25:42.70	76.66	10.78	-42.9	-43.7	19.4	0.00e+00	0	39	0	671088640	57	3945
2026-01-20 15:25:43.70	76.55	10.85	-42.8	-43.6	19.6	0.00e+00	0	39	0	678428672	57	3894
2026-01-20 15:25:44.71	76.45	10.93	-42.8	-43.6	19.5	0.00e+00	0	39	0	685768704	57	3898
2026-01-20 15:25:45.71	76.34	11.00	-42.9	-43.7	19.5	0.00e+00	0	39	0	693108736	57	3944
2026-01-20 15:25:46.71	76.23	11.07	-42.9	-43.7	19.5	0.00e+00	0	39	0	700448768	57	3943
2026-01-20 15:25:47.72	76.13	11.15	-42.9	-43.8	19.4	0.00e+00	0	39	0	707788800	57	3965
2026-01-20 15:25:48.72	76.02	11.22	-42.8	-43.6	19.6	0.00e+00	0	39	0	715128832	57	3911
2026-01-20 15:25:49.72	75.91	11.30	-42.7	-43.6	19.7	0.00e+00	0	39	0	722468864	57	3871
2026-01-20 15:25:50.72	75.80	11.37	-42.8	-43.6	19.6	0.00e+00	0	39	0	729808896	57	3895
2026-01-20 15:25:51.73	75.69	11.45	-42.8	-43.7	19.5	0.00e+00	0	39	0	736100352	57	3931
2026-01-20 15:25:52.73	75.58	11.52	-42.9	-43.7	19.5	0.00e+00	0	39	0	743440384	57	3940
2026-01-20 15:25:53.74	75.47	11.60	-43.0	-43.9	19.3	0.00e+00	0	39	0	750780416	57	4032
2026-01-20 15:25:54.75	75.36	11.68	-42.7	-43.6	19.7	0.00e+00	0	39	0	758120448	57	3876
2026-01-20 15:25:55.75	75.25	11.75	-42.8	-43.7	19.6	0.00e+00	0	39	0	765460480	57	3920
2026-01-20 15:25:56.74	75.13	11.83	-43.0	-43.9	19.4	0.00e+00	0	39	0	772800512	57	4010
2026-01-20 15:25:57.74	75.02	11.90	-42.8	-43.7	19.5	0.00e+00	0	39	0	780140544	57	3927
2026-01-20 15:25:58.74	74.91	11.98	-42.9	-43.8	19.5	0.00e+00	0	39	0	787480576	57	3968
2026-01-20 15:25:59.74	74.79	12.05	-42.8	-43.6	19.7	0.00e+00	0	39	0	793772032	57	3889
2026-01-20 15:26:00.74	74.68	12.13	-42.9	-43.7	19.5	0.00e+00	0	40	0	801112064	57	3944
2026-01-20 15:26:01.74	74.56	12.20	-42.9	-43.7	19.5	0.00e+00	0	39	0	808452096	57	3952
2026-01-20 15:26:02.74	74.45	12.28	-42.9	-43.8	19.5	0.00e+00	0	39	0	815792128	57	3967
2026-01-20 15:26:03.74	74.33	12.36	-42.8	-43.6	19.6	0.00e+00	0	39	0	823132160	57	3910
2026-01-20 15:26:04.74	74.21	12.43	-42.8	-43.6	19.6	0.00e+00	0	39	0	830472192	57	3894
2026-01-20 15:26:05.73	74.10	12.51	-42.7	-43.6	19.7	0.00e+00	0	39	0	837812224	57	3881
2026-01-20 15:26:06.74	73.98	12.59	-42.7	-43.5	19.7	0.00e+00	0	39	0	845152256	57	3858
2026-01-20 15:26:07.73	73.86	12.66	-42.7	-43.5	19.8	0.00e+00	0	40	0	852492288	57	3846
2026-01-20 15:26:08.73	73.74	12.74	-42.6	-43.4	19.9	0.00e+00	0	40	0	858783744	57	3805
2026-01-20 15:26:09.73	73.62	12.82	-42.4	-43.2	20.1	0.00e+00	0	39	0	866123776	56	3929
2026-01-20 15:26:10.73	73.50	12.89	-42.0	-42.8	20.4	0.00e+00	0	39	0	873463808	56	3754
2026-01-20 15:26:11.74	73.38	12.97	-42.0	-42.8	20.5	0.00e+00	0	40	0	880803840	56	3749
2026-01-20 15:26:12.74	73.25	13.05	-42.1	-42.9	20.4	0.00e+00	0	40	0	888143872	56	3795
2026-01-20 15:26:13.75	73.13	13.13	-42.1	-42.9	20.3	0.00e+00	0	39	0	895483904	56	3807
2026-01-20 15:26:14.75	73.01	13.21	-42.2	-43.0	20.2	0.00e+00	0	40	0	902823936	56	3845
2026-01-20 15:26:15.76	72.88	13.28	-42.1	-42.9	20.3	0.00e+00	0	40	0	910163968	56	3812
2026-01-20 15:26:16.75	72.76	13.36	-42.2	-43.0	20.2	0.00e+00	0	39	0	917504000	56	3845
2026-01-20 15:26:17.76	72.63	13.44	-42.2	-43.0	20.3	0.00e+00	0	39	0	924844032	56	3836
2026-01-20 15:26:18.75	72.51	13.52	-42.2	-43.0	20.2	0.00e+00	0	40	0	932184064	56	3856
2026-01-20 15:26:19.76	72.38	13.60	-42.3	-43.1	20.2	0.00e+00	0	39	0	939524096	56	3873
2026-01-20 15:26:20.76	72.25	13.67	-42.2	-43.0	20.3	0.00e+00	0	40	0	946864128	56	3825
2026-01-20 15:26:21.76	72.12	13.75	-42.2	-43.0	20.3	0.00e+00	0	39	0	954204160	56	3826
2026-01-20 15:26:22.76	71.99	13.83	-42.1	-42.9	20.4	0.00e+00	0	39	0	961544192	56	3792
2026-01-20 15:26:23.76	71.86	13.91	-42.2	-43.0	20.3	0.00e+00	0	40	0	967835648	56	3847
2026-01-20 15:26:24.76	71.73	13.99	-42.1	-42.9	20.4	0.00e+00	0	39	0	975175680	56	3790
2026-01-20 15:26:25.76	71.60	14.07	-42.2	-43.0	20.3	0.00e+00	0	39	0	982515712	56	3828
2026-01-20 15:26:26.76	71.47	14.15	-42.3	-43.0	20.2	0.00e+00	0	40	0	989855744	56	3864
2026-01-20 15:26:27.76	71.34	14.23	-42.1	-42.9	20.4	0.00e+00	0	39	0	997195776	56	3794
2026-01-20 15:26:28.75	71.20	14.30	-41.9	-42.6	20.5	0.00e+00	0	40	0	1004535808	55	3903
2026-01-20 15:26:29.76	71.07	14.38	-41.9	-42.6	20.6	0.00e+00	0	39	0	1011875840	55	3910
2026-01-20 15:26:30.76	70.93	14.46	-41.8	-42.6	20.5	0.00e+00	0	39	0	1019215872	55	3890
2026-01-20 15:26:31.76	70.80	14.54	-41.8	-42.6	20.6	0.00e+00	0	39	0	1025507328	55	3874
2026-01-20 15:26:32.76	70.66	14.62	-41.8	-42.5	20.6	0.00e+00	0	39	0	1032847360	55	3854
2026-01-20 15:26:33.76	70.53	14.70	-41.6	-42.3	20.8	0.00e+00	0	39	0	1040187392	55	3775
2026-01-20 15:26:34.75	70.39	14.78	-41.6	-42.3	20.9	0.00e+00	0	39	0	1047527424	55	3770
2026-01-20 15:26:35.75	70.25	14.86	-41.7	-42.5	20.7	0.00e+00	0	39	0	1053818880	55	3837
2026-01-20 15:26:36.75	70.11	14.94	-41.8	-42.5	20.7	0.00e+00	0	39	0	1061158912	55	3854
2026-01-20 15:26:37.75	69.97	15.02	-41.7	-42.5	20.7	0.00e+00	0	40	0	1068498944	55	3842
2026-01-20 15:26:38.75	69.83	15.10	-41.9	-42.6	20.6	0.00e+00	0	39	0	1075838976	55	3905
2026-01-20 15:26:39.75	69.69	15.18	-42.0	-42.7	20.5	0.00e+00	0	40	0	1083179008	55	3956
2026-01-20 15:26:40.75	69.55	15.26	-42.0	-42.8	20.4	0.00e+00	0	40	0	1090519040	55	3983
2026-01-20 15:26:41.74	69.40	15.34	-42.0	-42.7	20.5	0.00e+00	0	40	0	1097859072	55	3955
2026-01-20 15:26:42.74	69.26	15.42	-42.0	-42.8	20.4	0.00e+00	0	40	0	1105199104	55	3979
2026-01-20 15:26:43.74	69.12	15.50	-42.2	-42.9	20.3	0.00e+00	0	40	0	1111490560	55	4042
2026-01-20 15:26:44.74	68.97	15.58	-42.0	-42.8	20.4	0.00e+00	0	40	0	1118830592	55	3979
2026-01-20 15:26:45.74	68.82	15.66	-42.1	-42.9	20.3	0.00e+00	0	40	0	1126170624	55	4042
2026-01-20 15:26:46.73	68.68	15.74	-42.1	-42.9	20.4	0.00e+00	0	39	0	1133510656	55	4023
2026-01-20 15:26:47.73	68.53	15.82	-42.1	-42.9	20.3	0.00e+00	0	39	0	1140850688	55	4019
2026-01-20 15:26:48.72	68.38	15.90	-41.8	-42.6	20.6	0.00e+00	0	40	0	1148190720	55	3892
2026-01-20 15:26:49.72	68.23	15.98	-41.9	-42.7	20.6	0.00e+00	0	40	0	1155530752	55	3917
2026-01-20 15:26:50.72	68.08	16.07	-41.6	-42.4	20.8	0.00e+00	0	39	0	1162870784	55	3793
2026-01-20 15:26:51.72	67.93	16.15	-41.6	-42.3	20.9	0.00e+00	0	40	0	1169162240	55	3766
2026-01-20 15:26:52.72	67.78	16.23	-41.6	-42.3	20.9	0.00e+00	0	40	0	1176502272	55	3751
2026-01-20 15:26:53.72	67.63	16.31	-41.6	-42.3	20.9	0.00e+00	0	40	0	1183842304	55	3760
2026-01-20 15:26:54.72	67.47	16.39	-41.5	-42.2	21.0	0.00e+00	0	40	0	1191182336	55	3734
2026-01-20 15:26:55.71	67.32	16.47	-41.3	-42.0	21.2	0.00e+00	0	40	0	1198522368	54	3847
2026-01-20 15:26:56.71	67.17	16.55	-41.0	-41.7	21.4	0.00e+00	0	40	0	1205862400	54	3729
2026-01-20 15:26:57.72	67.01	16.63	-41.0	-41.7	21.4	0.00e+00	0	40	0	1213202432	53	3946
2026-01-20 15:26:58.71	66.85	16.71	-41.1	-41.8	21.4	0.00e+00	0	40	0	1220542464	53	3967
2026-01-20 15:26:59.71	66.69	16.80	-41.1	-41.8	21.4	0.00e+00	0	40	0	1227882496	53	3971
2026-01-20 15:27:00.71	66.54	16.88	-41.1	-41.8	21.4	0.00e+00	0	40	0	1234173952	53	3972
2026-01-20 15:27:01.72	66.37	16.96	-41.1	-41.8	21.4	0.00e+00	0	40	0	1241513984	53	3964
2026-01-20 15:27:02.72	66.21	17.04	-41.2	-41.9	21.3	0.00e+00	0	40	0	1248854016	53	4035
2026-01-20 15:27:03.72	66.05	17.12	-41.1	-41.9	21.3	0.00e+00	0	39	0	1256194048	53	4008
2026-01-20 15:27:04.72	65.89	17.21	-41.1	-41.8	21.4	0.00e+00	0	40	0	1263534080	53	3963
2026-01-20 15:27:05.72	65.73	17.29	-40.9	-41.6	21.6	0.00e+00	0	40	0	1270874112	53	3902
2026-01-20 15:27:06.73	65.56	17.37	-41.1	-41.8	21.4	0.00e+00	0	40	0	1278214144	53	3986
2026-01-20 15:27:07.73	65.39	17.45	-41.1	-41.9	21.4	0.00e+00	0	40	0	1285554176	53	4006
2026-01-20 15:27:08.74	65.23	17.53	-41.2	-41.9	21.3	0.00e+00	0	40	0	1292894208	53	4015
2026-01-20 15:27:09.74	65.06	17.62	-41.2	-41.9	21.3	0.00e+00	0	40	0	1299185664	53	4028
2026-01-20 15:27:10.74	64.89	17.70	-41.1	-41.8	21.3	0.00e+00	0	40	0	1306525696	53	3991
2026-01-20 15:27:11.74	64.72	17.78	-41.0	-41.6	21.5	0.00e+00	0	40	0	1313865728	53	3913
2026-01-20 15:27:12.74	64.55	17.86	-40.9	-41.6	21.5	0.00e+00	0	39	0	1321205760	53	3908
2026-01-20 15:27:13.74	64.38	17.94	-41.1	-41.8	21.4	0.00e+00	0	40	0	1328545792	53	3965
2026-01-20 15:27:14.74	64.21	18.03	-41.0	-41.7	21.5	0.00e+00	0	40	0	1335885824	53	3923
2026-01-20 15:27:15.75	64.04	18.11	-41.0	-41.7	21.5	0.00e+00	0	40	0	1343225856	53	3934
2026-01-20 15:27:16.74	63.87	18.19	-41.0	-41.8	21.4	0.00e+00	0	39	0	1350565888	53	3959
2026-01-20 15:27:17.74	63.69	18.27	-41.0	-41.7	21.5	0.00e+00	0	40	0	1356857344	53	3947
2026-01-20 15:27:18.74	63.52	18.35	-41.0	-41.7	21.5	0.00e+00	0	40	0	1364197376	53	3921
2026-01-20 15:27:19.75	63.34	18.44	-41.0	-41.7	21.5	0.00e+00	0	39	0	1371537408	53	3926
2026-01-20 15:27:20.75	63.16	18.52	-41.2	-41.9	21.3	0.00e+00	0	40	0	1378877440	53	4033
2026-01-20 15:27:21.76	62.98	18.60	-40.9	-41.6	21.6	0.00e+00	0	39	0	1387266048	53	3897
2026-01-20 15:27:22.76	62.80	18.68	-40.9	-41.6	21.7	0.00e+00	0	40	0	1394606080	53	3872
2026-01-20 15:27:23.76	62.62	18.76	-40.9	-41.6	21.6	0.00e+00	0	40	0	1400897536	53	3877
2026-01-20 15:27:24.76	62.44	18.85	-40.9	-41.6	21.7	0.00e+00	0	40	0	1408237568	53	3879
2026-01-20 15:27:25.76	62.26	18.93	-40.8	-41.4	21.8	0.00e+00	0	39	0	1415577600	53	3823
2026-01-20 15:27:26.76	62.07	19.01	-40.6	-41.2	22.0	0.00e+00	0	40	0	1422917632	53	3730
2026-01-20 15:27:27.76	61.89	19.09	-40.5	-41.2	22.0	0.00e+00	0	40	0	1430257664	53	3713
2026-01-20 15:27:28.76	61.70	19.17	-40.6	-41.2	22.0	0.00e+00	0	40	0	1437597696	52	3947
2026-01-20 15:27:29.78	61.51	19.26	-40.6	-41.2	22.0	0.00e+00	0	40	0	1444937728	52	3957
2026-01-20 15:27:30.78	61.33	19.34	-40.5	-41.1	22.0	0.00e+00	0	40	0	1452277760	52	3908
2026-01-20 15:27:31.79	61.14	19.42	-40.4	-41.1	22.1	0.00e+00	0	40	0	1459617792	52	3880
2026-01-20 15:27:32.79	60.95	19.50	-40.5	-41.2	22.0	0.00e+00	0	40	0	1465909248	52	3939
2026-01-20 15:27:33.79	60.76	19.58	-40.6	-41.3	21.9	0.00e+00	0	40	0	1473249280	52	3974
2026-01-20 15:27:34.79	60.57	19.66	-40.7	-41.4	21.9	0.00e+00	0	40	0	1480589312	52	4014
2026-01-20 15:27:35.79	60.37	19.74	-40.6	-41.3	21.9	0.00e+00	0	40	0	1487929344	52	3996
2026-01-20 15:27:36.79	60.18	19.83	-40.5	-41.2	22.0	0.00e+00	0	40	0	1495269376	52	3939
2026-01-20 15:27:37.80	59.98	19.91	-40.5	-41.2	22.0	0.00e+00	0	40	0	1502609408	52	3955
2026-01-20 15:27:38.80	59.79	19.99	-40.6	-41.2	22.0	0.00e+00	0	40	0	1509949440	52	3956
2026-01-20 15:27:39.80	59.59	20.07	-40.3	-40.9	22.2	0.00e+00	0	40	0	1517289472	52	3810
2026-01-20 15:27:40.81	59.39	20.15	-40.3	-41.0	22.2	0.00e+00	0	40	0	1524629504	52	3843
2026-01-20 15:27:41.81	59.19	20.23	-40.4	-41.1	22.1	0.00e+00	0	40	0	1530920960	52	3877
2026-01-20 15:27:42.81	58.99	20.31	-40.3	-41.0	22.3	0.00e+00	0	40	0	1538260992	52	3833
2026-01-20 15:27:43.81	58.79	20.39	-40.3	-41.0	22.2	0.00e+00	0	40	0	1545601024	52	3855
2026-01-20 15:27:44.81	58.59	20.47	-40.3	-41.0	22.2	0.00e+00	0	40	0	1552941056	52	3852
2026-01-20 15:27:45.81	58.39	20.55	-40.2	-40.9	22.3	0.00e+00	0	40	0	1560281088	52	3794
2026-01-20 15:27:46.81	58.18	20.63	-40.0	-40.7	22.5	0.00e+00	0	40	0	1567621120	52	3701
2026-01-20 15:27:47.81	57.98	20.71	-40.0	-40.6	22.7	0.00e+00	0	40	0	1574961152	51	3909
2026-01-20 15:27:48.81	57.77	20.79	-39.9	-40.6	22.7	0.00e+00	0	40	0	1582301184	51	3887
2026-01-20 15:27:49.82	57.56	20.87	-40.1	-40.8	22.5	0.00e+00	0	40	0	1588592640	51	3971
2026-01-20 15:27:50.81	57.36	20.95	-40.2	-40.9	22.4	0.00e+00	0	40	0	1595932672	51	4016
2026-01-20 15:27:51.82	57.14	21.03	-40.2	-40.8	22.5	0.00e+00	0	40	0	1603272704	51	3998
2026-01-20 15:27:52.82	56.93	21.11	-40.2	-40.8	22.5	0.00e+00	0	40	0	1610612736	51	3999
2026-01-20 15:27:53.81	56.72	21.19	-40.2	-40.9	22.4	0.00e+00	0	40	0	1617952768	51	4036
2026-01-20 15:27:54.80	56.51	21.27	-40.2	-40.9	22.4	0.00e+00	0	40	0	1625292800	51	4015
2026-01-20 15:27:55.81	56.30	21.35	-40.3	-41.0	22.4	0.00e+00	0	40	0	1632632832	51	4053
2026-01-20 15:27:56.81	56.08	21.43	-40.3	-41.0	22.4	0.00e+00	0	40	0	1639972864	51	4057
2026-01-20 15:27:57.81	55.87	21.50	-40.4	-41.1	22.2	0.00e+00	0	40	0	1647312896	51	4128
2026-01-20 15:27:58.81	55.65	21.58	-40.3	-40.9	22.4	0.00e+00	0	40	0	1653604352	51	4039
2026-01-20 15:27:59.81	55.43	21.66	-40.3	-40.9	22.4	0.00e+00	0	40	0	1660944384	51	4037
2026-01-20 15:28:00.82	55.21	21.74	-40.2	-40.9	22.4	0.00e+00	0	40	0	1668284416	51	4027
2026-01-20 15:28:01.82	54.99	21.82	-40.4	-41.1	22.3	0.00e+00	0	40	0	1675624448	51	4105
2026-01-20 15:28:02.82	54.77	21.89	-40.4	-41.1	22.3	0.00e+00	0	40	0	1682964480	51	4118
2026-01-20 15:28:03.82	54.55	21.97	-40.5	-41.2	22.2	0.00e+00	0	40	0	1690304512	51	4183
2026-01-20 15:28:04.82	54.32	22.05	-40.5	-41.2	22.2	0.00e+00	0	40	0	1697644544	51	4152
2026-01-20 15:28:05.84	54.09	22.13	-40.6	-41.2	22.2	0.00e+00	0	40	0	1704984576	51	4185
2026-01-20 15:28:06.84	53.87	22.20	-40.5	-41.2	22.2	0.00e+00	0	40	0	1712324608	51	4169
2026-01-20 15:28:07.83	53.64	22.28	-40.5	-41.2	22.2	0.00e+00	0	40	0	1718616064	51	4166
2026-01-20 15:28:08.83	53.41	22.35	-40.5	-41.1	22.2	0.00e+00	0	40	0	1725956096	51	4139
2026-01-20 15:28:09.83	53.18	22.43	-40.2	-40.8	22.5	0.00e+00	0	40	0	1733296128	51	3999
2026-01-20 15:28:10.83	52.95	22.50	-40.2	-40.8	22.5	0.00e+00	0	40	0	1740636160	51	3988
2026-01-20 15:28:11.84	52.72	22.58	-40.0	-40.7	22.7	0.00e+00	0	40	0	1747976192	51	3922
2026-01-20 15:28:12.84	52.49	22.65	-40.1	-40.8	22.5	0.00e+00	0	40	0	1755316224	51	3989
2026-01-20 15:28:13.83	52.25	22.73	-39.9	-40.6	22.7	0.00e+00	0	40	0	1762656256	51	3878
2026-01-20 15:28:14.83	52.02	22.80	-39.8	-40.4	22.9	0.00e+00	0	40	0	1769996288	51	3816
2026-01-20 15:28:15.84	51.78	22.88	-39.7	-40.4	23.0	0.00e+00	0	40	0	1776287744	51	3785
2026-01-20 15:28:16.83	51.55	22.95	-39.8	-40.5	22.8	0.00e+00	0	40	0	1783627776	51	3837
2026-01-20 15:28:17.84	51.30	23.02	-39.8	-40.4	22.9	0.00e+00	0	40	0	1790967808	51	3811
2026-01-20 15:28:18.83	51.07	23.09	-39.9	-40.5	22.8	0.00e+00	0	40	0	1798307840	51	3850
2026-01-20 15:28:19.83	50.83	23.17	-39.9	-40.6	22.8	0.00e+00	0	40	0	1805647872	51	3871
2026-01-20 15:28:20.84	50.58	23.24	-40.0	-40.6	22.7	0.00e+00	0	40	0	1812987904	51	3898
2026-01-20 15:28:21.84	50.34	23.31	-40.0	-40.6	22.7	0.00e+00	0	40	0	1820327936	51	3908
2026-01-20 15:28:22.84	50.10	23.38	-40.0	-40.7	22.7	0.00e+00	0	40	0	1827667968	51	3916
2026-01-20 15:28:23.84	49.85	23.45	-40.0	-40.6	22.7	0.00e+00	0	40	0	1835008000	51	3909
2026-01-20 15:28:24.84	49.60	23.52	-39.9	-40.6	22.8	0.00e+00	0	40	0	1841299456	51	3890
2026-01-20 15:28:25.84	49.36	23.59	-40.0	-40.7	22.7	0.00e+00	0	40	0	1848639488	51	3936
2026-01-20 15:28:26.84	49.11	23.66	-40.1	-40.8	22.6	0.00e+00	0	40	0	1855979520	51	3975
2026-01-20 15:28:27.85	48.86	23.73	-40.2	-40.9	22.5	0.00e+00	0	40	0	1863319552	51	4011
2026-01-20 15:28:28.84	48.61	23.80	-40.0	-40.7	22.7	0.00e+00	0	40	0	1870659584	51	3927
2026-01-20 15:28:29.85	48.35	23.87	-39.8	-40.4	22.9	0.00e+00	0	40	0	1877999616	51	3822
2026-01-20 15:28:30.85	48.10	23.94	-39.9	-40.6	22.8	0.00e+00	0	40	0	1885339648	51	3878
2026-01-20 15:28:31.85	47.85	24.01	-39.8	-40.4	22.9	0.00e+00	0	40	0	1892679680	51	3824
2026-01-20 15:28:32.85	47.59	24.08	-39.5	-40.1	23.2	0.00e+00	0	40	0	1900019712	51	3694
2026-01-20 15:28:33.85	47.33	24.14	-39.6	-40.3	23.1	0.00e+00	0	40	0	1906311168	51	3745
2026-01-20 15:28:34.85	47.08	24.21	-39.8	-40.4	22.9	0.00e+00	0	40	0	1913651200	51	3808
2026-01-20 15:28:35.85	46.82	24.27	-40.0	-40.6	22.7	0.00e+00	0	40	0	1920991232	51	3899
2026-01-20 15:28:36.85	46.56	24.34	-40.0	-40.6	22.8	0.00e+00	0	40	0	1928331264	51	3902
2026-01-20 15:28:37.85	46.30	24.41	-39.9	-40.6	22.8	0.00e+00	0	40	0	1935671296	51	3881
2026-01-20 15:28:38.85	46.04	24.47	-39.8	-40.5	22.9	0.00e+00	0	40	0	1943011328	51	3844
2026-01-20 15:28:39.85	45.77	24.53	-39.9	-40.6	22.8	0.00e+00	0	40	0	1950351360	51	3888
2026-01-20 15:28:40.85	45.51	24.60	-39.9	-40.6	22.8	0.00e+00	0	40	0	1957691392	51	3877
2026-01-20 15:28:41.85	45.24	24.66	-39.9	-40.5	22.8	0.00e+00	0	40	0	1963982848	51	3864
2026-01-20 15:28:42.85	44.98	24.72	-39.8	-40.5	22.9	0.00e+00	0	40	0	1971322880	51	3845
2026-01-20 15:28:43.84	44.71	24.78	-40.0	-40.6	22.8	0.00e+00	0	40	0	1978662912	51	3901
2026-01-20 15:28:44.84	44.44	24.85	-39.8	-40.4	22.9	0.00e+00	0	40	0	1986002944	51	3811
2026-01-20 15:28:45.85	44.17	24.91	-39.6	-40.2	23.1	0.00e+00	0	40	0	1993342976	51	3735
2026-01-20 15:28:46.85	43.90	24.97	-39.7	-40.3	23.0	0.00e+00	0	40	0	2000683008	51	3761
2026-01-20 15:28:47.85	43.63	25.03	-39.8	-40.4	23.0	0.00e+00	0	40	0	2008023040	51	3803
2026-01-20 15:28:48.85	43.36	25.09	-39.7	-40.3	23.0	0.00e+00	0	40	0	2015363072	51	3754
2026-01-20 15:28:49.86	43.08	25.14	-39.7	-40.4	23.0	0.00e+00	0	40	0	2022703104	51	3782
2026-01-20 15:28:50.86	42.81	25.20	-39.9	-40.6	22.8	0.00e+00	0	40	0	2030043136	51	3873
2026-01-20 15:28:51.86	42.53	25.26	-39.9	-40.5	22.9	0.00e+00	0	40	0	2037383168	51	3854
2026-01-20 15:28:52.86	42.26	25.32	-39.9	-40.5	22.9	0.00e+00	0	40	0	2044723200	51	3860
2026-01-20 15:28:53.85	41.98	25.37	-40.0	-40.6	22.7	0.00e+00	0	40	0	2052063232	51	3907
2026-01-20 15:28:54.85	41.70	25.43	-40.1	-40.8	22.6	0.00e+00	0	40	0	2059403264	51	3974
2026-01-20 15:28:55.85	41.42	25.48	-39.9	-40.6	22.8	0.00e+00	0	40	0	2065694720	51	3879
2026-01-20 15:28:56.85	41.14	25.54	-39.7	-40.3	23.0	0.00e+00	0	40	0	2073034752	51	3776
2026-01-20 15:28:57.85	40.86	25.59	-39.6	-40.3	23.0	0.00e+00	0	40	0	2080374784	51	3748
2026-01-20 15:28:58.86	40.58	25.64	-39.7	-40.3	23.0	0.00e+00	0	40	0	2087714816	51	3780
2026-01-20 15:28:59.86	40.29	25.70	-39.9	-40.6	22.8	0.00e+00	0	40	0	2095054848	51	3879
2026-01-20 15:29:00.86	40.01	25.75	-39.7	-40.3	23.0	0.00e+00	0	40	0	2102394880	51	3780
2026-01-20 15:29:01.86	39.72	25.80	-39.8	-40.4	23.0	0.00e+00	0	40	0	2109734912	51	3811
2026-01-20 15:29:02.86	39.44	25.85	-39.9	-40.6	22.8	0.00e+00	0	40	0	2117074944	51	3888
2026-01-20 15:29:03.86	39.15	25.90	-39.9	-40.5	22.9	0.00e+00	0	40	0	2124414976	51	3866
2026-01-20 15:29:04.86	38.86	25.95	-39.8	-40.5	22.9	0.00e+00	0	40	0	2130706432	51	3839
2026-01-20 15:29:05.86	38.57	26.00	-39.6	-40.3	23.1	0.00e+00	0	40	0	2138046464	51	3740
2026-01-20 15:29:06.87	38.28	26.04	-39.8	-40.4	23.0	0.00e+00	0	40	0	2145386496	51	3796
2026-01-20 15:29:07.87	37.99	26.09	-39.5	-40.1	23.3	0.00e+00	0	40	0	2152726528	50	3904
2026-01-20 15:29:08.87	37.70	26.14	-39.4	-40.0	23.4	0.00e+00	0	40	0	2160066560	50	3847
2026-01-20 15:29:09.87	37.41	26.18	-39.4	-40.0	23.3	0.00e+00	0	40	0	2167406592	50	3857
2026-01-20 15:29:10.87	37.12	26.23	-39.4	-40.0	23.4	0.00e+00	0	40	0	2174746624	50	3853
2026-01-20 15:29:11.87	36.82	26.27	-39.4	-40.0	23.4	0.00e+00	0	40	0	2182086656	50	3847
2026-01-20 15:29:12.87	36.53	26.31	-39.5	-40.1	23.2	0.00e+00	0	40	0	2189426688	50	3897
2026-01-20 15:29:13.87	36.23	26.35	-39.5	-40.1	23.2	0.00e+00	0	40	0	2195718144	50	3905
2026-01-20 15:29:14.87	35.93	26.40	-39.7	-40.3	23.1	0.00e+00	0	40	0	2203058176	50	3976
2026-01-20 15:29:15.87	35.64	26.44	-39.7	-40.3	23.1	0.00e+00	0	40	0	2210398208	50	3990
2026-01-20 15:29:16.87	35.34	26.48	-39.7	-40.4	23.0	0.00e+00	0	40	0	2217738240	50	4018
2026-01-20 15:29:17.88	35.04	26.52	-39.7	-40.4	23.0	0.00e+00	0	40	0	2225078272	50	4008
2026-01-20 15:29:18.88	34.74	26.55	-39.7	-40.4	23.1	0.00e+00	0	40	0	2232418304	50	4008
2026-01-20 15:29:19.88	34.44	26.59	-39.7	-40.3	23.1	0.00e+00	0	40	0	2239758336	50	3974
2026-01-20 15:29:20.87	34.14	26.63	-39.5	-40.1	23.2	0.00e+00	0	40	0	2247098368	50	3907
2026-01-20 15:29:21.86	33.84	26.66	-39.5	-40.2	23.2	0.00e+00	0	40	0	2254438400	50	3922
2026-01-20 15:29:22.87	33.54	26.70	-39.5	-40.1	23.3	0.00e+00	0	40	0	2260729856	50	3905
2026-01-20 15:29:23.87	33.24	26.73	-39.5	-40.2	23.2	0.00e+00	0	40	0	2268069888	50	3914
2026-01-20 15:29:24.87	32.93	26.77	-39.6	-40.3	23.1	0.00e+00	0	40	0	2275409920	50	3961
2026-01-20 15:29:25.87	32.63	26.80	-39.5	-40.1	23.3	0.00e+00	0	40	0	2282749952	50	3883
2026-01-20 15:29:26.87	32.32	26.83	-39.6	-40.2	23.2	0.00e+00	0	40	0	2290089984	50	3928
2026-01-20 15:29:27.88	32.02	26.86	-39.6	-40.2	23.2	0.00e+00	0	40	0	2297430016	50	3935
2026-01-20 15:29:28.88	31.71	26.89	-39.5	-40.2	23.3	0.00e+00	0	40	0	2304770048	50	3923
2026-01-20 15:29:29.88	31.40	26.92	-39.5	-40.1	23.2	0.00e+00	0	40	0	2312110080	50	3909
2026-01-20 15:29:30.88	31.10	26.95	-39.6	-40.2	23.1	0.00e+00	0	40	0	2318401536	50	3955
2026-01-20 15:29:31.88	30.79	26.97	-39.6	-40.2	23.1	0.00e+00	0	40	0	2325741568	50	3948
2026-01-20 15:29:32.89	30.48	27.00	-39.5	-40.2	23.2	0.00e+00	0	40	0	2333081600	50	3930
2026-01-20 15:29:33.89	30.17	27.03	-39.6	-40.2	23.2	0.00e+00	0	40	0	2340421632	50	3944
2026-01-20 15:29:34.91	29.86	27.05	-39.6	-40.2	23.2	0.00e+00	0	40	0	2347761664	50	3923
2026-01-20 15:29:35.90	29.55	27.08	-39.5	-40.2	23.2	0.00e+00	0	40	0	2355101696	50	3917
2026-01-20 15:29:36.90	29.24	27.10	-39.7	-40.3	23.1	0.00e+00	0	40	0	2362441728	50	3979
2026-01-20 15:29:37.91	28.93	27.12	-39.7	-40.3	23.1	0.00e+00	0	40	0	2369781760	50	3990
2026-01-20 15:29:38.91	28.62	27.14	-39.4	-40.0	23.4	0.00e+00	0	40	0	2377121792	50	3856
2026-01-20 15:29:39.91	28.30	27.16	-39.4	-40.0	23.4	0.00e+00	0	40	0	2383413248	50	3857
2026-01-20 15:29:40.92	27.99	27.18	-39.4	-40.0	23.4	0.00e+00	0	40	0	2390753280	50	3845
2026-01-20 15:29:41.91	27.68	27.20	-39.3	-39.9	23.5	0.00e+00	0	40	0	2398093312	50	3805
2026-01-20 15:29:42.92	27.37	27.21	-39.4	-40.0	23.4	0.00e+00	0	40	0	2405433344	50	3861
2026-01-20 15:29:43.91	27.06	27.23	-39.4	-40.1	23.3	0.00e+00	0	40	0	2412773376	50	3879
2026-01-20 15:29:44.91	26.74	27.25	-39.5	-40.2	23.2	0.00e+00	0	40	0	2420113408	50	3916
2026-01-20 15:29:45.91	26.43	27.26	-39.5	-40.1	23.2	0.00e+00	0	40	0	2427453440	50	3911
2026-01-20 15:29:46.91	26.12	27.27	-39.5	-40.1	23.3	0.00e+00	0	40	0	2434793472	50	3901
2026-01-20 15:29:47.91	25.80	27.29	-39.4	-40.0	23.4	0.00e+00	0	40	0	2442133504	50	3856
2026-01-20 15:29:48.91	25.49	27.30	-39.4	-40.0	23.4	0.00e+00	0	40	0	2448424960	50	3854
2026-01-20 15:29:49.91	25.18	27.31	-39.4	-40.0	23.4	0.00e+00	0	40	0	2455764992	50	3836
2026-01-20 15:29:50.91	24.86	27.32	-39.3	-40.0	23.4	0.00e+00	0	40	0	2463105024	50	3825
2026-01-20 15:29:51.91	24.55	27.33	-39.4	-40.1	23.3	0.00e+00	0	40	0	2470445056	50	3869
2026-01-20 15:29:52.92	24.23	27.33	-39.4	-40.0	23.4	0.00e+00	0	40	0	2477785088	50	3840
2026-01-20 15:29:53.93	23.91	27.34	-39.4	-40.1	23.3	0.00e+00	0	40	0	2485125120	50	3869
2026-01-20 15:29:54.93	23.60	27.35	-39.3	-39.9	23.4	0.00e+00	0	40	0	2492465152	50	3818
2026-01-20 15:29:55.93	23.28	27.35	-39.3	-39.9	23.5	0.00e+00	0	40	0	2499805184	50	3812
2026-01-20 15:29:56.93	22.97	27.36	-39.3	-39.9	23.5	0.00e+00	0	40	0	2506096640	50	3820
2026-01-20 15:29:57.93	22.65	27.36	-39.3	-39.9	23.5	0.00e+00	0	40	0	2513436672	50	3815
2026-01-20 15:29:58.94	22.33	27.36	-39.2	-39.8	23.5	0.00e+00	0	40	0	2520776704	50	3774
2026-01-20 15:29:59.94	22.02	27.36	-39.4	-40.1	23.3	0.00e+00	0	40	0	2528116736	50	3881
2026-01-20 15:30:00.93	21.71	27.36	-39.4	-40.0	23.4	0.00e+00	0	40	0	2535456768	50	3844
2026-01-20 15:30:01.94	21.39	27.36	-39.5	-40.1	23.3	0.00e+00	0	40	0	2542796800	50	3899
2026-01-20 15:30:02.94	21.07	27.36	-39.5	-40.1	23.3	0.00e+00	0	40	0	2550136832	50	3890
2026-01-20 15:30:03.94	20.76	27.36	-39.4	-40.0	23.4	0.00e+00	0	40	0	2557476864	50	3852
2026-01-20 15:30:04.94	20.44	27.35	-39.4	-40.0	23.4	0.00e+00	0	40	0	2564816896	50	3868
2026-01-20 15:30:05.94	20.13	27.35	-39.4	-40.1	23.4	0.00e+00	0	40	0	2571108352	50	3877
2026-01-20 15:30:06.94	19.81	27.34	-39.5	-40.2	23.3	0.00e+00	0	40	0	2578448384	50	3922
2026-01-20 15:30:07.94	19.50	27.33	-39.5	-40.2	23.3	0.00e+00	0	40	0	2585788416	50	3920
2026-01-20 15:30:08.94	19.18	27.33	-39.4	-40.0	23.4	0.00e+00	0	40	0	2593128448	50	3860
2026-01-20 15:30:09.95	18.87	27.32	-39.4	-40.1	23.4	0.00e+00	0	40	0	2600468480	50	3879
2026-01-20 15:30:10.95	18.55	27.31	-39.5	-40.1	23.3	0.00e+00	0	40	0	2607808512	50	3911
2026-01-20 15:30:11.97	18.23	27.30	-39.6	-40.2	23.2	0.00e+00	0	40	0	2615148544	50	3951
2026-01-20 15:30:12.97	17.92	27.29	-39.8	-40.4	23.1	0.00e+00	0	40	0	2622488576	50	4021
2026-01-20 15:30:13.97	17.61	27.27	-39.9	-40.5	22.9	0.00e+00	0	40	0	2629828608	50	4081
2026-01-20 15:30:14.97	17.29	27.26	-39.8	-40.5	23.0	0.00e+00	0	40	0	2637168640	50	4058
2026-01-20 15:30:15.97	16.98	27.25	-39.6	-40.3	23.2	0.00e+00	0	40	0	2644508672	50	3966
2026-01-20 15:30:16.97	16.67	27.23	-39.5	-40.2	23.3	0.00e+00	0	40	0	2651848704	50	3921
2026-01-20 15:30:17.98	16.35	27.21	-39.6	-40.2	23.2	0.00e+00	0	40	0	2659188736	50	3941
2026-01-20 15:30:18.98	16.04	27.20	-39.6	-40.3	23.2	0.00e+00	0	40	0	2666528768	50	3963
2026-01-20 15:30:19.99	15.72	27.18	-39.7	-40.3	23.1	0.00e+00	0	40	0	2672820224	50	3977
2026-01-20 15:30:20.99	15.41	27.16	-39.7	-40.4	23.1	0.00e+00	0	40	0	2680160256	50	4015
2026-01-20 15:30:21.99	15.10	27.14	-39.7	-40.4	23.1	0.00e+00	0	40	0	2687500288	50	4021
2026-01-20 15:30:22.99	14.79	27.12	-39.7	-40.3	23.1	0.00e+00	0	40	0	2694840320	50	3990
2026-01-20 15:30:23.99	14.48	27.10	-39.8	-40.4	23.0	0.00e+00	0	40	0	2702180352	50	4032
2026-01-20 15:30:24.99	14.17	27.07	-39.7	-40.4	23.1	0.00e+00	0	40	0	2709520384	50	4011
2026-01-20 15:30:26.00	13.86	27.05	-39.8	-40.4	23.0	0.00e+00	0	40	0	2716860416	50	4048
2026-01-20 15:30:27.01	13.55	27.02	-39.7	-40.3	23.1	0.00e+00	0	40	0	2724200448	50	3993
2026-01-20 15:30:28.01	13.24	27.00	-39.6	-40.3	23.2	0.00e+00	0	40	0	2731540480	50	3965
2026-01-20 15:30:29.01	12.93	26.97	-39.6	-40.3	23.1	0.00e+00	0	40	0	2737831936	50	3961
2026-01-20 15:30:30.01	12.62	26.95	-39.6	-40.2	23.1	0.00e+00	0	40	0	2745171968	50	3958
2026-01-20 15:30:31.01	12.32	26.92	-39.6	-40.2	23.2	0.00e+00	0	40	0	2752512000	50	3928
2026-01-20 15:30:32.02	12.01	26.89	-39.6	-40.3	23.2	0.00e+00	0	40	0	2759852032	50	3960
2026-01-20 15:30:33.02	11.70	26.86	-39.7	-40.3	23.1	0.00e+00	0	40	0	2767192064	50	3992
2026-01-20 15:30:34.02	11.40	26.83	-39.7	-40.3	23.1	0.00e+00	0	40	0	2774532096	50	3976
2026-01-20 15:30:35.02	11.09	26.80	-39.5	-40.1	23.3	0.00e+00	0	40	0	2781872128	50	3879
2026-01-20 15:30:36.02	10.79	26.76	-39.6	-40.2	23.2	0.00e+00	0	40	0	2789212160	50	3922
2026-01-20 15:30:37.03	10.48	26.73	-39.5	-40.1	23.3	0.00e+00	0	40	0	2796552192	50	3883
2026-01-20 15:30:38.03	10.18	26.70	-39.5	-40.1	23.3	0.00e+00	0	40	0	2802843648	50	3893
2026-01-20 15:30:39.04	9.88	26.66	-39.6	-40.3	23.1	0.00e+00	0	40	0	2810183680	50	3962
2026-01-20 15:30:40.05	9.57	26.62	-39.8	-40.5	23.0	0.00e+00	0	40	0	2817523712	50	4053
2026-01-20 15:30:41.05	9.27	26.59	-39.7	-40.3	23.1	0.00e+00	0	40	0	2824863744	50	3998
2026-01-20 15:30:42.05	8.97	26.55	-39.8	-40.4	23.1	0.00e+00	0	40	0	2832203776	50	4026
2026-01-20 15:30:43.06	8.67	26.51	-39.7	-40.3	23.1	0.00e+00	0	40	0	2840592384	50	3989
2026-01-20 15:30:44.06	8.37	26.47	-39.7	-40.3	23.1	0.00e+00	0	40	0	2846883840	50	3977
2026-01-20 15:30:45.06	8.08	26.43	-39.8	-40.4	23.0	0.00e+00	0	40	0	2854223872	50	4023
2026-01-20 15:30:46.06	7.78	26.39	-39.7	-40.4	23.0	0.00e+00	0	40	0	2861563904	50	4018
2026-01-20 15:30:47.06	7.48	26.35	-39.8	-40.4	23.0	0.00e+00	0	40	0	2868903936	50	4039
2026-01-20 15:30:48.06	7.19	26.31	-39.9	-40.6	22.9	0.00e+00	0	40	0	2876243968	50	4104
2026-01-20 15:30:49.05	6.90	26.27	-40.0	-40.7	22.8	0.00e+00	0	40	0	2883584000	50	4162
2026-01-20 15:30:50.06	6.60	26.22	-40.1	-40.8	22.6	0.00e+00	0	40	0	2890924032	50	4222
2026-01-20 15:30:51.06	6.31	26.18	-40.3	-40.9	22.5	0.00e+00	0	40	0	2898264064	51	4034
2026-01-20 15:30:52.05	6.02	26.13	-40.3	-40.9	22.5	0.00e+00	0	40	0	2904555520	51	4040
2026-01-20 15:30:53.05	5.73	26.09	-40.3	-41.0	22.5	0.00e+00	0	40	0	2911895552	51	4075
2026-01-20 15:30:54.05	5.44	26.04	-40.2	-40.8	22.6	0.00e+00	0	40	0	2919235584	51	3999
2026-01-20 15:30:55.05	5.15	25.99	-40.0	-40.6	22.8	0.00e+00	0	40	0	2925527040	51	3912
2026-01-20 15:30:56.05	4.86	25.94	-40.0	-40.6	22.8	0.00e+00	0	40	0	2932867072	51	3911
2026-01-20 15:30:57.05	4.57	25.90	-40.0	-40.7	22.8	0.00e+00	0	40	0	2940207104	51	3929
2026-01-20 15:30:58.05	4.28	25.85	-40.0	-40.7	22.8	0.00e+00	0	40	0	2947547136	51	3926
2026-01-20 15:30:59.05	4.00	25.80	-39.9	-40.5	22.9	0.00e+00	0	40	0	2954887168	51	3860
2026-01-20 15:31:00.05	3.71	25.74	-39.9	-40.5	22.9	0.00e+00	0	40	0	2962227200	51	3850
2026-01-20 15:31:01.05	3.43	25.69	-39.9	-40.5	22.9	0.00e+00	0	40	0	2969567232	51	3862
2026-01-20 15:31:02.05	3.15	25.64	-39.9	-40.5	22.9	0.00e+00	0	40	0	2976907264	51	3867
2026-01-20 15:31:03.05	2.87	25.59	-40.0	-40.7	22.8	0.00e+00	0	40	0	2984247296	51	3915
2026-01-20 15:31:04.05	2.58	25.53	-40.2	-40.8	22.6	0.00e+00	0	40	0	2990538752	51	3987
2026-01-20 15:31:05.05	2.30	25.48	-40.2	-40.8	22.6	0.00e+00	0	40	0	2997878784	51	3997
2026-01-20 15:31:06.05	2.03	25.42	-40.1	-40.8	22.7	0.00e+00	0	40	0	3005218816	51	3960
2026-01-20 15:31:07.05	1.75	25.37	-40.1	-40.7	22.7	0.00e+00	0	40	0	3012558848	51	3948
2026-01-20 15:31:08.04	1.47	25.31	-40.1	-40.8	22.7	0.00e+00	0	40	0	3019898880	51	3959
2026-01-20 15:31:09.04	1.20	25.26	-40.2	-40.8	22.6	0.00e+00	0	40	0	3027238912	51	4004
2026-01-20 15:31:10.04	0.92	25.20	-40.1	-40.8	22.6	0.00e+00	0	40	0	3034578944	51	3976
2026-01-20 15:31:11.03	0.65	25.14	-40.1	-40.8	22.7	0.00e+00	0	40	0	3041918976	51	3961
2026-01-20 15:31:12.04	0.37	25.08	-40.2	-40.8	22.6	0.00e+00	0	40	0	3048210432	51	3992
2026-01-20 15:31:13.03	0.11	25.02	-40.2	-40.9	22.5	0.00e+00	0	40	0	3055550464	51	4035
2026-01-20 15:31:14.04	359.83	24.96	-40.4	-41.0	22.4	0.00e+00	0	40	0	3062890496	51	4088
2026-01-20 15:31:15.03	359.56	24.90	-40.4	-41.0	22.3	0.00e+00	0	40	0	3070230528	51	4092
2026-01-20 15:31:16.04	359.29	24.84	-40.4	-41.1	22.4	0.00e+00	0	40	0	3077570560	51	4101
2026-01-20 15:31:17.04	359.02	24.78	-40.4	-41.1	22.3	0.00e+00	0	40	0	3084910592	51	4135
2026-01-20 15:31:18.03	358.76	24.72	-40.6	-41.3	22.2	0.00e+00	0	40	0	3092250624	51	4196
2026-01-20 15:31:19.03	358.49	24.66	-40.5	-41.1	22.3	0.00e+00	0	40	0	3099590656	51	4139
2026-01-20 15:31:20.03	358.23	24.60	-40.2	-40.9	22.5	0.00e+00	0	40	0	3106930688	51	4020
2026-01-20 15:31:21.03	357.97	24.53	-40.2	-40.8	22.5	0.00e+00	0	40	0	3113222144	51	4002
2026-01-20 15:31:22.03	357.70	24.47	-40.2	-40.8	22.6	0.00e+00	0	40	0	3120562176	51	4002
2026-01-20 15:31:23.03	357.44	24.40	-40.2	-40.8	22.6	0.00e+00	0	40	0	3127902208	51	3989
2026-01-20 15:31:24.03	357.18	24.34	-40.1	-40.8	22.6	0.00e+00	0	40	0	3135242240	51	3986
2026-01-20 15:31:25.03	356.92	24.27	-40.1	-40.8	22.6	0.00e+00	0	40	0	3142582272	51	3988
2026-01-20 15:31:26.03	356.66	24.21	-40.0	-40.7	22.7	0.00e+00	0	40	0	3149922304	51	3930
2026-01-20 15:31:27.03	356.41	24.14	-40.0	-40.6	22.8	0.00e+00	0	40	0	3157262336	51	3893
2026-01-20 15:31:28.03	356.15	24.07	-40.2	-40.8	22.6	0.00e+00	0	40	0	3164602368	51	4000
2026-01-20 15:31:29.03	355.90	24.01	-40.1	-40.8	22.6	0.00e+00	0	40	0	3171942400	51	3988
2026-01-20 15:31:30.03	355.64	23.94	-40.2	-40.8	22.5	0.00e+00	0	40	0	3178233856	51	3999
2026-01-20 15:31:31.02	355.39	23.87	-40.2	-40.9	22.5	0.00e+00	0	40	0	3185573888	51	4018
2026-01-20 15:31:32.03	355.14	23.80	-40.3	-40.9	22.5	0.00e+00	0	40	0	3192913920	51	4036
2026-01-20 15:31:33.02	354.89	23.73	-40.3	-41.0	22.4	0.00e+00	0	40	0	3200253952	51	4060
2026-01-20 15:31:34.02	354.64	23.66	-40.2	-40.9	22.5	0.00e+00	0	40	0	3207593984	51	4009
2026-01-20 15:31:35.03	354.39	23.59	-40.3	-41.0	22.4	0.00e+00	0	40	0	3214934016	51	4057
2026-01-20 15:31:36.03	354.14	23.52	-40.3	-41.0	22.4	0.00e+00	0	40	0	3222274048	51	4063
2026-01-20 15:31:37.03	353.90	23.45	-40.3	-41.0	22.4	0.00e+00	0	40	0	3229614080	51	4055
2026-01-20 15:31:38.03	353.65	23.38	-40.3	-40.9	22.4	0.00e+00	0	40	0	3235905536	51	4047
2026-01-20 15:31:39.04	353.41	23.31	-40.4	-41.1	22.3	0.00e+00	0	40	0	3243245568	51	4113
2026-01-20 15:31:40.04	353.16	23.24	-40.5	-41.2	22.2	0.00e+00	0	40	0	3250585600	51	4166
2026-01-20 15:31:41.04	352.92	23.17	-40.6	-41.2	22.2	0.00e+00	0	40	0	3257925632	51	4185
2026-01-20 15:31:42.04	352.68	23.09	-40.6	-41.3	22.2	0.00e+00	0	40	0	3265265664	51	4196
2026-01-20 15:31:43.04	352.44	23.02	-40.5	-41.2	22.3	0.00e+00	0	40	0	3272605696	51	4150
2026-01-20 15:31:44.05	352.20	22.95	-40.4	-41.1	22.3	0.00e+00	0	40	0	3279945728	51	4120
2026-01-20 15:31:45.05	351.96	22.87	-40.3	-41.0	22.4	0.00e+00	0	40	0	3287285760	51	4068
2026-01-20 15:31:46.05	351.73	22.80	-40.3	-41.0	22.4	0.00e+00	0	40	0	3294625792	51	4080
2026-01-20 15:31:47.04	351.50	22.73	-40.3	-40.9	22.4	0.00e+00	0	40	0	3300917248	51	4048
2026-01-20 15:31:48.05	351.26	22.65	-40.1	-40.7	22.6	0.00e+00	0	40	0	3308257280	51	3954
2026-01-20 15:31:49.05	351.03	22.58	-40.2	-40.8	22.5	0.00e+00	0	40	0	3315597312	51	3988
2026-01-20 15:31:50.05	350.80	22.50	-40.1	-40.8	22.6	0.00e+00	0	40	0	3322937344	51	3984
2026-01-20 15:31:51.05	350.57	22.43	-40.2	-40.9	22.4	0.00e+00	0	40	0	3330277376	51	4028
2026-01-20 15:31:52.06	350.34	22.35	-40.2	-40.9	22.4	0.00e+00	0	40	0	3338665984	51	4028
2026-01-20 15:31:53.06	350.11	22.28	-40.3	-41.0	22.3	0.00e+00	0	40	0	3344957440	51	4070
2026-01-20 15:31:54.07	349.88	22.20	-40.4	-41.1	22.3	0.00e+00	0	40	0	3352297472	51	4114
2026-01-20 15:31:55.07	349.65	22.12	-40.6	-41.3	22.1	0.00e+00	0	40	0	3359637504	51	4230
2026-01-20 15:31:56.08	349.43	22.05	-40.6	-41.3	22.0	0.00e+00	0	40	0	3366977536	52	3988
2026-01-20 15:31:57.08	349.20	21.97	-40.5	-41.2	22.1	0.00e+00	0	40	0	3374317568	52	3930
2026-01-20 15:31:58.07	348.98	21.89	-40.5	-41.2	22.1	0.00e+00	0	40	0	3381657600	52	3931
2026-01-20 15:31:59.08	348.76	21.82	-40.6	-41.2	22.0	0.00e+00	0	40	0	3388997632	52	3955
2026-01-20 15:32:00.08	348.54	21.74	-40.5	-41.2	22.1	0.00e+00	0	40	0	3396337664	52	3918
2026-01-20 15:32:01.09	348.32	21.66	-40.3	-41.0	22.3	0.00e+00	0	40	0	3402629120	52	3841
2026-01-20 15:32:02.09	348.10	21.58	-40.4	-41.0	22.2	0.00e+00	0	40	0	3409969152	52	3853
2026-01-20 15:32:03.10	347.88	21.50	-40.3	-41.0	22.3	0.00e+00	0	40	0	3417309184	52	3832
2026-01-20 15:32:04.10	347.66	21.42	-40.4	-41.0	22.2	0.00e+00	0	40	0	3424649216	52	3860
2026-01-20 15:32:05.10	347.45	21.35	-40.4	-41.1	22.2	0.00e+00	0	40	0	3431989248	52	3874
2026-01-20 15:32:06.11	347.23	21.27	-40.3	-41.0	22.3	0.00e+00	0	40	0	3439329280	52	3845
2026-01-20 15:32:07.12	347.02	21.19	-40.4	-41.1	22.1	0.00e+00	0	40	0	3446669312	52	3901
2026-01-20 15:32:08.12	346.81	21.11	-40.4	-41.0	22.2	0.00e+00	0	40	0	3454009344	52	3868
2026-01-20 15:32:09.13	346.60	21.03	-40.3	-41.0	22.3	0.00e+00	0	40	0	3461349376	52	3829
2026-01-20 15:32:10.13	346.39	20.95	-40.4	-41.0	22.2	0.00e+00	0	40	0	3467640832	52	3859
2026-01-20 15:32:11.14	346.18	20.87	-40.3	-41.0	22.3	0.00e+00	0	40	0	3474980864	52	3835
2026-01-20 15:32:12.15	345.97	20.79	-40.4	-41.1	22.2	0.00e+00	0	40	0	3482320896	52	3895
2026-01-20 15:32:13.15	345.76	20.71	-40.5	-41.1	22.1	0.00e+00	0	40	0	3489660928	52	3909
2026-01-20 15:32:14.16	345.56	20.63	-40.4	-41.1	22.2	0.00e+00	0	40	0	3498049536	52	3887
2026-01-20 15:32:15.16	345.35	20.55	-40.5	-41.2	22.1	0.00e+00	0	40	0	3505389568	52	3931
2026-01-20 15:32:16.17	345.15	20.47	-40.6	-41.3	21.9	0.00e+00	0	40	0	3511681024	52	3988
2026-01-20 15:32:17.17	344.95	20.39	-40.6	-41.3	22.0	0.00e+00	0	40	0	3519021056	52	3967
2026-01-20 15:32:18.17	344.75	20.31	-40.5	-41.2	22.0	0.00e+00	0	40	0	3526361088	52	3948
2026-01-20 15:32:19.17	344.55	20.23	-40.6	-41.3	21.9	0.00e+00	0	40	0	3533701120	52	3991
2026-01-20 15:32:20.18	344.35	20.14	-40.6	-41.3	22.0	0.00e+00	0	40	0	3541041152	52	3964
2026-01-20 15:32:21.19	344.15	20.06	-40.7	-41.4	21.8	0.00e+00	0	40	0	3548381184	52	4031
2026-01-20 15:32:22.19	343.95	19.98	-40.8	-41.5	21.8	0.00e+00	0	40	0	3555721216	52	4072
2026-01-20 15:32:23.20	343.76	19.90	-40.9	-41.6	21.7	0.00e+00	0	40	0	3563061248	52	4106
2026-01-20 15:32:24.20	343.56	19.82	-40.9	-41.6	21.6	0.00e+00	0	40	0	3570401280	52	4137
2026-01-20 15:32:25.21	343.37	19.74	-40.9	-41.6	21.5	0.00e+00	0	40	0	3576692736	52	4145
2026-01-20 15:32:26.21	343.17	19.66	-41.0	-41.7	21.5	0.00e+00	0	40	0	3584032768	52	4177
2026-01-20 15:32:27.22	342.98	19.58	-41.1	-41.8	21.4	0.00e+00	0	40	0	3591372800	52	4235
2026-01-20 15:32:28.21	342.79	19.49	-41.3	-42.0	21.3	0.00e+00	0	40	0	3598712832	53	4074
2026-01-20 15:32:29.22	342.60	19.41	-41.3	-42.1	21.2	0.00e+00	0	40	0	3606052864	53	4099
2026-01-20 15:32:30.21	342.42	19.33	-41.0	-41.7	21.5	0.00e+00	0	40	0	3613392896	53	3921
2026-01-20 15:32:31.22	342.23	19.25	-40.8	-41.5	21.7	0.00e+00	0	40	0	3620732928	53	3858
2026-01-20 15:32:32.22	342.04	19.17	-40.8	-41.5	21.7	0.00e+00	0	40	0	3628072960	53	3862
2026-01-20 15:32:33.23	341.86	19.09	-40.7	-41.4	21.8	0.00e+00	0	40	0	3634364416	53	3812
2026-01-20 15:32:34.24	341.67	19.00	-40.8	-41.6	21.7	0.00e+00	0	40	0	3641704448	53	3869
2026-01-20 15:32:35.24	341.49	18.92	-40.8	-41.5	21.7	0.00e+00	0	40	0	3649044480	53	3863
2026-01-20 15:32:36.25	341.30	18.84	-40.9	-41.6	21.6	0.00e+00	0	40	0	3656384512	53	3887
2026-01-20 15:32:37.26	341.12	18.76	-40.9	-41.6	21.6	0.00e+00	0	40	0	3664773120	53	3891
2026-01-20 15:32:38.26	340.94	18.68	-40.7	-41.4	21.8	0.00e+00	0	40	0	3672113152	53	3797
2026-01-20 15:32:39.27	340.76	18.59	-40.7	-41.4	21.8	0.00e+00	0	40	0	3678404608	53	3792
2026-01-20 15:32:40.27	340.58	18.51	-40.8	-41.5	21.7	0.00e+00	0	40	0	3685744640	53	3826
2026-01-20 15:32:41.28	340.40	18.43	-40.9	-41.6	21.6	0.00e+00	0	40	0	3693084672	53	3906
2026-01-20 15:32:42.28	340.23	18.35	-40.9	-41.6	21.6	0.00e+00	0	40	0	3700424704	53	3904
2026-01-20 15:32:43.29	340.05	18.26	-41.0	-41.7	21.5	0.00e+00	0	40	0	3707764736	53	3953
2026-01-20 15:32:44.29	339.88	18.18	-41.1	-41.8	21.4	0.00e+00	0	40	0	3715104768	53	4003
2026-01-20 15:32:45.30	339.70	18.10	-41.1	-41.8	21.5	0.00e+00	0	40	0	3722444800	53	3970
2026-01-20 15:32:46.30	339.53	18.02	-41.1	-41.8	21.5	0.00e+00	0	40	0	3729784832	53	3968
2026-01-20 15:32:47.30	339.36	17.94	-41.2	-41.9	21.3	0.00e+00	0	40	0	3737124864	53	4051
2026-01-20 15:32:48.31	339.19	17.85	-41.4	-42.1	21.1	0.00e+00	0	40	0	3743416320	53	4117
2026-01-20 15:32:49.32	339.02	17.77	-41.5	-42.3	21.0	0.00e+00	0	40	0	3750756352	53	4203
2026-01-20 15:32:50.32	338.85	17.69	-41.6	-42.3	20.9	0.00e+00	0	40	0	3758096384	53	4217
2026-01-20 15:32:51.32	338.68	17.61	-41.5	-42.3	20.9	0.00e+00	0	40	0	3765436416	53	4214
2026-01-20 15:32:52.33	338.51	17.52	-41.6	-42.4	20.8	0.00e+00	0	40	0	3772776448	53	4266
2026-01-20 15:32:53.34	338.35	17.44	-41.6	-42.4	20.8	0.00e+00	0	40	0	3780116480	54	4018
2026-01-20 15:32:54.34	338.18	17.36	-41.7	-42.4	20.9	0.00e+00	0	40	0	3787456512	54	4033
2026-01-20 15:32:55.34	338.02	17.28	-41.6	-42.4	20.9	0.00e+00	0	40	0	3794796544	54	4024
2026-01-20 15:32:56.34	337.86	17.20	-41.7	-42.5	20.8	0.00e+00	0	40	0	3802136576	54	4061
2026-01-20 15:32:57.34	337.69	17.12	-41.5	-42.3	20.8	0.00e+00	0	40	0	3808428032	54	3998
2026-01-20 15:32:58.35	337.53	17.03	-41.5	-42.3	20.8	0.00e+00	0	40	0	3815768064	54	3996
2026-01-20 15:32:59.36	337.37	16.95	-41.3	-42.2	20.8	0.00e+00	0	40	0	3824156672	54	3931
2026-01-20 15:33:00.36	337.21	16.87	-41.4	-42.4	20.7	0.00e+00	0	40	0	3831496704	54	4015
2026-01-20 15:33:01.36	337.05	16.79	-41.4	-42.4	20.7	0.00e+00	0	40	0	3838836736	54	4011
2026-01-20 15:33:02.37	336.89	16.71	-41.4	-42.3	20.8	0.00e+00	0	40	0	3845128192	54	3964
2026-01-20 15:33:03.37	336.74	16.62	-41.6	-42.4	20.8	0.00e+00	0	40	0	3852468224	54	4031
2026-01-20 15:33:04.38	336.58	16.54	-41.5	-42.3	20.8	0.00e+00	0	40	0	3859808256	54	3990
2026-01-20 15:33:05.39	336.42	16.46	-41.6	-42.3	20.9	0.00e+00	0	40	0	3867148288	54	3994
2026-01-20 15:33:06.39	336.27	16.38	-41.6	-42.3	20.8	0.00e+00	0	40	0	3874488320	54	3993
2026-01-20 15:33:07.39	336.12	16.30	-41.6	-42.4	20.8	0.00e+00	0	40	0	3881828352	54	4010
2026-01-20 15:33:08.40	335.96	16.22	-41.7	-42.4	20.8	0.00e+00	0	40	0	3889168384	54	4045
2026-01-20 15:33:09.40	335.81	16.14	-41.7	-42.5	20.8	0.00e+00	0	40	0	3896508416	54	4066
2026-01-20 15:33:10.40	335.66	16.05	-41.7	-42.5	20.7	0.00e+00	0	40	0	3903848448	54	4064
2026-01-20 15:33:11.40	335.51	15.97	-41.8	-42.5	20.7	0.00e+00	0	40	0	3910139904	54	4095
2026-01-20 15:33:12.41	335.36	15.89	-41.6	-42.4	20.8	0.00e+00	0	40	0	3917479936	54	4014
2026-01-20 15:33:13.41	335.21	15.81	-41.7	-42.4	20.7	0.00e+00	0	40	0	3924819968	54	4039
2026-01-20 15:33:14.41	335.06	15.73	-41.6	-42.4	20.8	0.00e+00	0	40	0	3932160000	54	4017
2026-01-20 15:33:15.42	334.92	15.65	-41.6	-42.3	20.8	0.00e+00	0	40	0	3939500032	54	4000
2026-01-20 15:33:16.43	334.77	15.57	-41.7	-42.5	20.8	0.00e+00	0	40	0	3946840064	54	4057
2026-01-20 15:33:17.43	334.62	15.49	-41.8	-42.6	20.6	0.00e+00	0	40	0	3954180096	54	4113
2026-01-20 15:33:18.44	334.48	15.41	-41.9	-42.7	20.5	0.00e+00	0	40	0	3961520128	54	4167
2026-01-20 15:33:19.44	334.33	15.33	-41.8	-42.6	20.6	0.00e+00	0	40	0	3968860160	54	4112
2026-01-20 15:33:20.45	334.19	15.24	-41.8	-42.5	20.6	0.00e+00	0	40	0	3975151616	54	4091
2026-01-20 15:33:21.45	334.05	15.16	-41.8	-42.6	20.6	0.00e+00	0	40	0	3983540224	54	4101
2026-01-20 15:33:22.46	333.91	15.08	-41.9	-42.7	20.5	0.00e+00	0	40	0	3990880256	54	4156
2026-01-20 15:33:23.46	333.77	15.00	-41.7	-42.5	20.7	0.00e+00	0	40	0	3998220288	54	4057
2026-01-20 15:33:24.46	333.63	14.92	-41.7	-42.5	20.7	0.00e+00	0	40	0	4005560320	54	4075
2026-01-20 15:33:25.47	333.49	14.84	-41.8	-42.6	20.6	0.00e+00	0	40	0	4012900352	54	4110
2026-01-20 15:33:26.47	333.35	14.76	-41.9	-42.7	20.5	0.00e+00	0	40	0	4019191808	54	4149
2026-01-20 15:33:27.47	333.21	14.68	-41.8	-42.6	20.6	0.00e+00	0	40	0	4026531840	54	4122
2026-01-20 15:33:28.49	333.07	14.60	-41.8	-42.5	20.6	0.00e+00	0	40	0	4033871872	54	4088
2026-01-20 15:33:29.49	332.94	14.52	-41.6	-42.4	20.8	0.00e+00	0	40	0	4041211904	54	4010
2026-01-20 15:33:30.49	332.80	14.44	-41.7	-42.4	20.7	0.00e+00	0	40	0	4048551936	54	4040
2026-01-20 15:33:31.49	332.67	14.37	-41.6	-42.3	20.8	0.00e+00	0	40	0	4055891968	54	4002
2026-01-20 15:33:32.49	332.53	14.29	-41.7	-42.5	20.7	0.00e+00	0	40	0	4063232000	54	4069
2026-01-20 15:33:33.50	332.40	14.21	-41.7	-42.5	20.7	0.00e+00	0	40	0	4070572032	54	4063
2026-01-20 15:33:34.50	332.27	14.13	-41.8	-42.6	20.6	0.00e+00	0	40	0	4076863488	54	4108
2026-01-20 15:33:35.50	332.14	14.05	-41.9	-42.7	20.4	0.00e+00	0	40	0	4084203520	54	4169
2026-01-20 15:33:36.50	332.01	13.97	-41.9	-42.7	20.5	0.00e+00	0	40	0	4091543552	54	4154
2026-01-20 15:33:37.50	331.88	13.89	-41.9	-42.7	20.4	0.00e+00	0	40	0	4098883584	54	4184
2026-01-20 15:33:38.50	331.75	13.81	-41.9	-42.7	20.4	0.00e+00	0	40	0	4106223616	54	4173
2026-01-20 15:33:39.51	331.62	13.73	-42.0	-42.8	20.4	0.00e+00	0	40	0	4113563648	54	4203
2026-01-20 15:33:40.51	331.49	13.66	-42.0	-42.7	20.4	0.00e+00	0	40	0	4120903680	54	4190
2026-01-20 15:33:41.51	331.36	13.58	-41.8	-42.6	20.5	0.00e+00	0	40	0	4128243712	54	4124
2026-01-20 15:33:42.51	331.24	13.50	-42.0	-42.8	20.3	0.00e+00	0	40	0	4135583744	54	4212
2026-01-20 15:33:43.51	331.11	13.42	-42.1	-42.9	20.3	0.00e+00	0	40	0	4141875200	54	4259
2026-01-20 15:33:44.51	330.99	13.34	-42.2	-43.0	20.2	0.00e+00	0	40	0	4149215232	54	4292
2026-01-20 15:33:45.51	330.86	13.27	-42.2	-42.9	20.2	0.00e+00	0	40	0	4156555264	54	4289
2026-01-20 15:33:46.51	330.74	13.19	-42.2	-43.0	20.1	0.00e+00	0	40	0	4163895296	55	4091
2026-01-20 15:33:47.51	330.61	13.11	-42.3	-43.1	20.0	0.00e+00	0	40	0	4171235328	55	4139
2026-01-20 15:33:48.51	330.49	13.03	-42.5	-43.3	19.9	0.00e+00	0	40	0	4178575360	55	4210
2026-01-20 15:33:49.51	330.37	12.96	-42.5	-43.4	19.8	0.00e+00	0	40	0	4185915392	55	4243
2026-01-20 15:33:50.51	330.25	12.88	-42.5	-43.3	19.8	0.00e+00	0	40	0	4193255424	55	4223
2026-01-20 15:33:51.51	330.13	12.80	-42.5	-43.3	19.8	0.00e+00	0	40	0	4200595456	55	4228
2026-01-20 15:33:52.51	330.01	12.72	-42.6	-43.4	19.7	0.00e+00	0	40	0	4206886912	55	4279
2026-01-20 15:33:53.51	329.89	12.65	-42.6	-43.4	19.7	0.00e+00	0	40	0	4214226944	55	4263
2026-01-20 15:33:54.51	329.77	12.57	-42.6	-43.4	19.7	0.00e+00	0	40	0	4221566976	55	4254
2026-01-20 15:33:55.51	329.65	12.49	-42.6	-43.4	19.7	0.00e+00	0	40	0	4228907008	55	4265
2026-01-20 15:33:56.51	329.54	12.42	-42.5	-43.3	19.7	0.00e+00	0	40	0	4236247040	55	4231
2026-01-20 15:33:57.51	329.42	12.34	-42.6	-43.5	19.6	0.00e+00	0	40	0	4243587072	55	4297
2026-01-20 15:33:58.51	329.30	12.27	-42.6	-43.4	19.6	0.00e+00	0	40	0	4250927104	55	4288
2026-01-20 15:33:59.52	329.19	12.19	-42.7	-43.5	19.6	0.00e+00	0	40	0	4258267136	55	4305
2026-01-20 15:34:00.52	329.07	12.11	-42.9	-43.7	19.5	0.00e+00	0	40	0	4264558592	56	4179
2026-01-20 15:34:01.52	328.96	12.04	-42.8	-43.6	19.6	0.00e+00	0	40	0	4271898624	56	4141
2026-01-20 15:34:02.53	328.84	11.96	-43.0	-43.8	19.4	0.00e+00	0	40	0	4279238656	56	4240
2026-01-20 15:34:03.52	328.73	11.89	-42.9	-43.8	19.4	0.00e+00	0	40	0	4286578688	56	4209
2026-01-20 15:34:04.52	328.62	11.81	-42.9	-43.8	19.4	0.00e+00	0	40	0	4293918720	56	4207
2026-01-20 15:34:05.53	328.51	11.73	-42.9	-43.8	19.4	0.00e+00	0	40	0	4301258752	56	4205
2026-01-20 15:34:06.53	328.40	11.66	-43.0	-43.9	19.3	0.00e+00	0	40	0	4308598784	56	4256
2026-01-20 15:34:07.53	328.29	11.58	-42.9	-43.7	19.5	0.00e+00	0	40	0	4315938816	56	4189
2026-01-20 15:34:08.52	328.18	11.51	-43.0	-43.8	19.3	0.00e+00	0	40	0	4323278848	56	4240
2026-01-20 15:34:09.52	328.07	11.43	-43.1	-43.9	19.3	0.00e+00	0	40	0	4329570304	56	4284
2026-01-20 15:34:10.52	327.96	11.36	-43.0	-43.9	19.3	0.00e+00	0	40	0	4336910336	56	4258
2026-01-20 15:34:11.51	327.85	11.29	-42.9	-43.8	19.4	0.00e+00	0	40	0	4344250368	56	4226
2026-01-20 15:34:12.51	327.74	11.21	-43.0	-43.9	19.3	0.00e+00	0	40	0	4351590400	56	4251
2026-01-20 15:34:13.51	327.64	11.14	-43.0	-43.8	19.4	0.00e+00	0	40	0	4358930432	56	4225
2026-01-20 15:34:14.51	327.53	11.06	-42.8	-43.6	19.6	0.00e+00	0	40	0	4366270464	56	4119
2026-01-20 15:34:15.51	327.42	10.99	-42.8	-43.7	19.5	0.00e+00	0	40	0	4373610496	56	4158
2026-01-20 15:34:16.51	327.32	10.92	-43.0	-43.8	19.3	0.00e+00	0	40	0	4380950528	56	4242
2026-01-20 15:34:17.51	327.21	10.84	-42.9	-43.8	19.4	0.00e+00	0	40	0	4387241984	56	4206
2026-01-20 15:34:18.51	327.11	10.77	-43.0	-43.8	19.4	0.00e+00	0	40	0	4394582016	56	4223
2026-01-20 15:34:19.52	327.00	10.69	-43.0	-43.8	19.3	0.00e+00	0	40	0	4401922048	56	4239
2026-01-20 15:34:20.52	326.90	10.62	-43.0	-43.8	19.3	0.00e+00	0	40	0	4409262080	56	4237
2026-01-20 15:34:21.52	326.80	10.55	-43.0	-43.9	19.2	0.00e+00	0	40	0	4416602112	56	4266
2026-01-20 15:34:22.53	326.70	10.47	-43.2	-44.0	19.1	0.00e+00	0	40	0	4423942144	56	4335
2026-01-20 15:34:23.53	326.59	10.40	-43.2	-44.0	19.1	0.00e+00	0	40	0	4431282176	56	4329
2026-01-20 15:34:24.53	326.49	10.33	-43.3	-44.2	18.9	0.00e+00	0	40	0	4438622208	57	4171
2026-01-20 15:34:25.53	326.39	10.25	-43.3	-44.2	18.9	0.00e+00	0	40	0	4445962240	57	4192
2026-01-20 15:34:26.54	326.29	10.18	-43.3	-44.2	18.9	0.00e+00	0	40	0	4452253696	57	4193
2026-01-20 15:34:27.54	326.19	10.11	-43.4	-44.3	18.8	0.00e+00	0	40	0	4459593728	57	4212
2026-01-20 15:34:28.55	326.09	10.03	-43.4	-44.3	18.8	0.00e+00	0	40	0	4466933760	57	4219
2026-01-20 15:34:29.55	325.99	9.96	-43.4	-44.3	18.8	0.00e+00	0	40	0	4474273792	57	4236
2026-01-20 15:34:30.56	325.89	9.89	-43.5	-44.4	18.7	0.00e+00	0	40	0	4482662400	57	4261
2026-01-20 15:34:31.56	325.80	9.82	-43.8	-44.7	18.4	0.00e+00	0	40	0	4490002432	58	4181
2026-01-20 15:34:32.57	325.70	9.74	-43.9	-44.9	18.3	0.00e+00	0	40	0	4496293888	58	4250
2026-01-20 15:34:33.57	325.60	9.67	-43.9	-44.9	18.2	0.00e+00	0	40	0	4503633920	58	4267
2026-01-20 15:34:34.57	325.51	9.60	-43.7	-44.7	18.5	0.00e+00	0	40	0	4510973952	58	4146
2026-01-20 15:34:35.58	325.41	9.53	-43.6	-44.6	18.6	0.00e+00	0	40	0	4518313984	58	4100
2026-01-20 15:34:36.58	325.31	9.46	-43.7	-44.6	18.5	0.00e+00	0	40	0	4525654016	58	4114
2026-01-20 15:34:37.58	325.22	9.39	-43.7	-44.6	18.5	0.00e+00	0	40	0	4532994048	58	4120
2026-01-20 15:34:38.59	325.12	9.31	-43.6	-44.5	18.6	0.00e+00	0	40	0	4540334080	58	4076
2026-01-20 15:34:39.59	325.03	9.24	-43.6	-44.5	18.6	0.00e+00	0	40	0	4547674112	58	4093
2026-01-20 15:34:40.60	324.94	9.17	-43.6	-44.6	18.6	0.00e+00	0	40	0	4555014144	58	4101
2026-01-20 15:34:41.61	324.84	9.10	-43.5	-44.5	18.6	0.00e+00	0	40	0	4561305600	58	4058
2026-01-20 15:34:42.61	324.75	9.03	-43.6	-44.6	18.5	0.00e+00	0	40	0	4568645632	58	4115
2026-01-20 15:34:43.61	324.66	8.96	-43.6	-44.5	18.6	0.00e+00	0	40	0	4575985664	58	4076
2026-01-20 15:34:44.61	324.57	8.89	-43.5	-44.4	18.6	0.00e+00	0	40	0	4583325696	58	4035
2026-01-20 15:34:45.62	324.48	8.82	-43.8	-44.7	18.4	0.00e+00	0	40	0	4590665728	58	4171
2026-01-20 15:34:46.62	324.38	8.75	-43.6	-44.5	18.6	0.00e+00	0	40	0	4598005760	58	4075
2026-01-20 15:34:47.62	324.29	8.68	-43.4	-44.4	18.7	0.00e+00	0	40	0	4605345792	58	4011
2026-01-20 15:34:48.63	324.20	8.61	-43.6	-44.5	18.5	0.00e+00	0	40	0	4612685824	58	4072
2026-01-20 15:34:49.63	324.12	8.54	-43.5	-44.5	18.6	0.00e+00	0	40	0	4618977280	58	4063
2026-01-20 15:34:50.64	324.03	8.47	-43.6	-44.6	18.5	0.00e+00	0	40	0	4626317312	58	4101
2026-01-20 15:34:51.64	323.94	8.40	-43.7	-44.7	18.4	0.00e+00	0	40	0	4633657344	58	4157
2026-01-20 15:34:52.64	323.85	8.33	-43.9	-44.9	18.2	0.00e+00	0	40	0	4640997376	58	4252
2026-01-20 15:34:53.65	323.76	8.26	-43.8	-44.7	18.3	0.00e+00	0	40	0	4648337408	58	4191
2026-01-20 15:34:54.65	323.67	8.19	-43.8	-44.8	18.2	0.00e+00	0	40	0	4655677440	58	4210
2026-01-20 15:34:55.64	323.59	8.12	-43.9	-44.8	18.2	0.00e+00	0	40	0	4663017472	58	4237
2026-01-20 15:34:56.65	323.50	8.05	-43.9	-44.9	18.1	0.00e+00	0	40	0	4670357504	58	4270
2026-01-20 15:34:57.65	323.42	7.98	-44.0	-45.0	18.0	0.00e+00	0	40	0	4677697536	58	4336
2026-01-20 15:34:58.66	323.33	7.91	-44.0	-45.0	18.0	0.00e+00	0	40	0	4685037568	58	4313
