passes_logs/2026/01/20/R3.2S_Murmansk/R3.2S_Murmansk__20260120_224848_NOAA_21_JPSS-2_rec.log

#Pass ID: 20260120_224848_NOAA 21 (JPSS-2)
#Satellite: NOAA 21 (JPSS-2)
#Configuration: NOAA-21
#almurnet v.1.7.20251203
#Start time: 2026-01-20 22:48:50

#Version: 2.2.20231116
#Station: R3.2S_Murmansk
#Location: 33.079688 lon 68.888172 lat
#TLE: 1 54234U 22150A   26020.29910383  .00000141  00000+0  87571-4 0  9990
#TLE: 2 54234  98.7506 321.1348 0000615 250.8428 109.2682 14.19536295165564

#Time	Az	El	Level	Level2	SNR	BER	BlckErr	Temp	State	Recorded	gain1	gain2
2026-01-20 22:48:50.53	19.53	2.12	-53.9	-66.7	3.8	1.49e+00	0	38	0	0	78	16585
2026-01-20 22:48:51.54	19.59	2.18	-53.8	-66.6	3.8	1.49e+00	0	38	104	0	78	16463
2026-01-20 22:48:52.55	19.65	2.24	-53.8	-66.6	3.8	1.49e+00	0	38	104	0	78	16412
2026-01-20 22:48:53.56	19.70	2.30	-53.8	-66.6	3.8	1.49e+00	0	38	104	0	78	16316
2026-01-20 22:48:54.56	19.76	2.35	-53.7	-66.5	3.8	1.49e+00	0	38	104	0	78	16205
2026-01-20 22:48:55.57	19.82	2.41	-53.7	-66.5	3.8	1.49e+00	0	38	104	0	78	16189
2026-01-20 22:48:56.58	19.88	2.47	-53.6	-66.4	3.8	1.49e+00	0	38	104	0	78	16079
2026-01-20 22:48:57.59	19.94	2.53	-53.6	-66.3	3.8	1.49e+00	0	38	104	0	78	15897
2026-01-20 22:48:58.59	20.00	2.59	-53.5	-66.2	3.8	1.49e+00	0	38	104	0	78	15739
2026-01-20 22:48:59.60	20.05	2.65	-53.4	-66.1	3.8	1.49e+00	0	38	104	0	78	15526
2026-01-20 22:49:00.61	20.11	2.71	-53.2	-66.0	3.8	1.49e+00	0	38	104	0	78	15339
2026-01-20 22:49:01.62	20.17	2.77	-53.1	-65.8	3.8	1.49e+00	0	38	104	0	78	15036
2026-01-20 22:49:02.63	20.23	2.83	-52.8	-65.6	3.8	1.49e+00	0	39	104	0	77	15453
2026-01-20 22:49:03.63	20.29	2.89	-52.5	-65.2	3.8	1.49e+00	0	38	104	0	76	15691
2026-01-20 22:49:04.64	20.35	2.95	-52.2	-64.7	3.8	1.49e+00	0	39	104	0	76	14839
2026-01-20 22:49:05.65	20.41	3.01	-52.2	-64.7	3.8	1.49e+00	0	39	104	0	76	14877
2026-01-20 22:49:06.66	20.47	3.07	-52.2	-64.8	3.8	1.49e+00	0	39	104	0	76	14937
2026-01-20 22:49:07.67	20.53	3.13	-52.2	-64.8	3.8	1.49e+00	0	39	104	0	76	15039
2026-01-20 22:49:08.68	20.59	3.19	-52.2	-64.9	3.8	1.49e+00	0	39	104	0	76	15064
2026-01-20 22:49:09.69	20.66	3.25	-52.2	-64.9	3.8	1.49e+00	0	39	104	0	76	15145
2026-01-20 22:49:10.69	20.72	3.31	-52.2	-64.9	3.8	1.49e+00	0	39	104	0	76	15136
2026-01-20 22:49:11.70	20.78	3.38	-52.1	-64.9	3.8	1.49e+00	0	39	104	0	76	15104
2026-01-20 22:49:12.71	20.84	3.44	-52.1	-64.9	3.8	1.49e+00	0	39	104	0	76	15112
2026-01-20 22:49:13.72	20.90	3.50	-52.2	-64.9	3.8	1.49e+00	0	39	104	0	76	15075
2026-01-20 22:49:14.73	20.96	3.56	-52.2	-64.9	3.8	1.49e+00	0	39	104	0	76	15138
2026-01-20 22:49:15.74	21.03	3.62	-52.1	-64.9	3.8	1.49e+00	0	39	104	0	76	15138
2026-01-20 22:49:16.75	21.09	3.68	-52.1	-64.9	3.8	1.49e+00	0	39	104	0	76	15079
2026-01-20 22:49:17.76	21.15	3.74	-52.1	-64.8	3.8	1.49e+00	0	39	104	0	76	14932
2026-01-20 22:49:18.76	21.22	3.80	-52.1	-64.6	3.8	1.49e+00	0	39	104	0	76	14638
2026-01-20 22:49:19.77	21.28	3.87	-52.1	-64.4	3.8	1.49e+00	0	39	104	0	76	14231
2026-01-20 22:49:20.78	21.34	3.93	-52.1	-64.0	3.8	1.49e+00	0	39	104	0	76	13620
2026-01-20 22:49:21.79	21.41	3.99	-52.1	-63.9	3.8	1.49e+00	0	39	104	0	76	13453
2026-01-20 22:49:22.80	21.47	4.05	-52.0	-63.6	3.8	1.49e+00	0	39	104	0	76	13074
2026-01-20 22:49:23.81	21.54	4.12	-52.0	-63.4	3.8	1.49e+00	0	39	104	0	76	12737
2026-01-20 22:49:24.81	21.60	4.18	-52.0	-63.3	3.8	1.49e+00	0	39	104	0	76	12587
2026-01-20 22:49:25.82	21.67	4.24	-51.9	-61.8	4.1	1.47e+00	0	39	104	0	75	11163
2026-01-20 22:49:26.83	21.73	4.30	-51.7	-60.6	4.4	1.43e+00	0	39	104	0	75	9741
2026-01-20 22:49:27.84	21.80	4.37	-51.5	-59.2	5.1	7.58e-01	0	39	104	0	75	8343
2026-01-20 22:49:28.85	21.86	4.43	-51.1	-57.2	6.4	3.76e-01	0	39	0	3145728	74	7035
2026-01-20 22:49:29.86	21.93	4.49	-50.8	-56.2	7.4	8.93e-02	0	39	0	6291456	73	6600
2026-01-20 22:49:30.87	21.99	4.55	-50.3	-54.9	8.7	4.72e-02	0	39	0	9437184	72	5999
2026-01-20 22:49:31.87	22.06	4.62	-49.8	-53.6	9.9	2.25e-02	0	39	0	12582912	71	5512
2026-01-20 22:49:32.88	22.13	4.68	-49.3	-52.8	10.8	7.11e-03	0	39	0	15728640	70	5299
2026-01-20 22:49:33.89	22.19	4.74	-49.2	-52.5	11.0	8.58e-03	0	39	0	18874368	70	5146
2026-01-20 22:49:34.90	22.26	4.81	-49.0	-52.2	11.4	2.37e-03	0	39	0	20971520	69	5236
2026-01-20 22:49:35.90	22.33	4.87	-49.1	-52.4	11.2	3.69e-03	0	39	0	24117248	69	5378
2026-01-20 22:49:36.91	22.40	4.93	-49.3	-52.7	10.9	5.38e-03	0	39	0	27262976	69	5556
2026-01-20 22:49:37.92	22.47	5.00	-49.5	-53.2	10.3	7.15e-03	0	39	0	30408704	69	5910
2026-01-20 22:49:38.93	22.53	5.06	-50.1	-54.4	9.2	1.83e-02	0	39	0	34603008	70	6378
2026-01-20 22:49:39.93	22.60	5.13	-51.9	-64.3	3.8	1.49e+00	0	39	104	35651584	74	15905
2026-01-20 22:49:40.94	22.67	5.19	-45.5	-46.9	16.7	2.13e-05	0	39	0	35651584	63	4014
2026-01-20 22:49:41.95	22.74	5.26	-46.8	-48.7	14.9	1.14e-05	0	39	0	38797312	64	4704
2026-01-20 22:49:42.96	22.81	5.32	-48.7	-51.6	12.1	8.54e-05	0	39	0	41943040	67	5505
2026-01-20 22:49:43.97	22.88	5.39	-45.3	-46.7	17.0	3.80e-06	0	39	0	45088768	62	4165
2026-01-20 22:49:44.97	22.95	5.45	-45.4	-46.9	16.9	2.20e-06	0	39	0	48234496	62	4260
2026-01-20 22:49:45.98	23.02	5.51	-44.9	-46.3	17.4	0.00e+00	0	39	0	51380224	61	4217
2026-01-20 22:49:46.99	23.09	5.58	-45.0	-46.4	17.3	0.00e+00	0	39	0	54525952	61	4276
2026-01-20 22:49:48.00	23.16	5.64	-45.3	-46.8	17.0	2.20e-06	0	39	0	57671680	61	4470
2026-01-20 22:49:49.01	23.23	5.71	-45.2	-46.6	17.1	1.50e-06	0	39	0	60817408	61	4365
2026-01-20 22:49:50.02	23.31	5.78	-45.1	-46.5	17.2	2.20e-06	0	39	0	63963136	61	4322
2026-01-20 22:49:51.03	23.38	5.84	-45.2	-46.5	17.4	0.00e+00	0	39	0	67108864	61	4336
2026-01-20 22:49:52.03	23.45	5.91	-45.3	-46.7	17.2	0.00e+00	0	39	0	70254592	61	4418
2026-01-20 22:49:53.04	23.52	5.97	-44.9	-46.3	17.7	0.00e+00	0	40	0	73400320	61	4199
2026-01-20 22:49:54.05	23.60	6.04	-44.9	-46.3	17.6	0.00e+00	0	39	0	76546048	61	4199
2026-01-20 22:49:55.06	23.67	6.10	-45.0	-46.3	17.6	0.00e+00	0	39	0	79691776	61	4223
2026-01-20 22:49:56.07	23.74	6.17	-44.9	-46.2	17.7	0.00e+00	0	39	0	82837504	61	4175
2026-01-20 22:49:57.07	23.82	6.24	-44.8	-46.1	17.8	0.00e+00	0	39	0	85983232	61	4135
2026-01-20 22:49:58.08	23.89	6.30	-44.7	-45.9	18.0	0.00e+00	0	39	0	89128960	61	4048
2026-01-20 22:49:59.09	23.96	6.37	-44.6	-45.8	18.1	0.00e+00	0	39	0	92274688	61	3988
2026-01-20 22:50:00.10	24.04	6.44	-44.5	-45.8	18.2	0.00e+00	0	39	0	95420416	60	4203
2026-01-20 22:50:01.10	24.11	6.50	-44.5	-45.7	18.2	0.00e+00	0	39	0	98566144	60	4175
2026-01-20 22:50:02.11	24.19	6.57	-44.5	-45.7	18.3	0.00e+00	0	39	0	101711872	60	4170
2026-01-20 22:50:03.12	24.26	6.64	-44.3	-45.5	18.5	0.00e+00	0	39	0	104857600	60	4087
2026-01-20 22:50:04.13	24.34	6.71	-44.5	-45.7	18.3	0.00e+00	0	39	0	108003328	60	4160
2026-01-20 22:50:05.14	24.42	6.77	-44.6	-45.8	18.2	0.00e+00	0	39	0	111149056	60	4211
2026-01-20 22:50:06.15	24.49	6.84	-44.5	-45.7	18.3	0.00e+00	0	39	0	114294784	60	4192
2026-01-20 22:50:07.16	24.57	6.91	-44.5	-45.7	18.3	0.00e+00	0	39	0	117440512	60	4186
2026-01-20 22:50:08.16	24.65	6.98	-44.5	-45.7	18.3	0.00e+00	0	40	0	120586240	60	4166
2026-01-20 22:50:09.17	24.73	7.04	-44.6	-45.8	18.3	0.00e+00	0	39	0	123731968	60	4208
2026-01-20 22:50:10.18	24.80	7.11	-44.3	-45.5	18.6	0.00e+00	0	39	0	126877696	60	4070
2026-01-20 22:50:11.18	24.88	7.18	-44.5	-45.7	18.4	0.00e+00	0	39	0	130023424	60	4147
2026-01-20 22:50:12.19	24.96	7.25	-44.6	-45.8	18.2	0.00e+00	0	40	0	133169152	60	4223
2026-01-20 22:50:13.20	25.04	7.32	-44.4	-45.6	18.4	0.00e+00	0	39	0	136314880	60	4132
2026-01-20 22:50:14.21	25.12	7.39	-44.3	-45.5	18.6	0.00e+00	0	39	0	139460608	60	4064
2026-01-20 22:50:15.21	25.20	7.45	-44.3	-45.5	18.6	0.00e+00	0	39	0	142606336	60	4080
2026-01-20 22:50:16.22	25.28	7.52	-44.3	-45.4	18.6	0.00e+00	0	39	0	145752064	60	4042
2026-01-20 22:50:17.23	25.36	7.59	-44.4	-45.5	18.5	0.00e+00	0	39	0	148897792	60	4087
2026-01-20 22:50:18.24	25.44	7.66	-44.3	-45.5	18.6	0.00e+00	0	40	0	152043520	60	4076
2026-01-20 22:50:19.25	25.52	7.73	-44.4	-45.6	18.5	0.00e+00	0	40	0	155189248	60	4124
2026-01-20 22:50:20.25	25.60	7.80	-44.4	-45.6	18.5	0.00e+00	0	39	0	158334976	60	4112
2026-01-20 22:50:21.26	25.68	7.87	-44.6	-45.8	18.3	0.00e+00	0	40	0	161480704	60	4213
2026-01-20 22:50:22.27	25.77	7.94	-44.4	-45.6	18.5	0.00e+00	0	40	0	164626432	60	4128
2026-01-20 22:50:23.28	25.85	8.01	-44.3	-45.5	18.6	0.00e+00	0	40	0	167772160	60	4089
2026-01-20 22:50:24.29	25.93	8.08	-44.3	-45.5	18.7	0.00e+00	0	40	0	170917888	60	4071
2026-01-20 22:50:25.29	26.02	8.15	-44.3	-45.5	18.6	0.00e+00	0	40	0	174063616	60	4071
2026-01-20 22:50:26.30	26.10	8.22	-44.4	-45.6	18.6	0.00e+00	0	40	0	177209344	60	4122
2026-01-20 22:50:27.31	26.18	8.29	-44.3	-45.5	18.6	0.00e+00	0	40	0	180355072	60	4077
2026-01-20 22:50:28.32	26.27	8.36	-44.3	-45.5	18.6	0.00e+00	0	40	0	183500800	60	4075
2026-01-20 22:50:29.33	26.35	8.43	-44.4	-45.6	18.6	0.00e+00	0	39	0	186646528	60	4118
2026-01-20 22:50:30.33	26.44	8.50	-44.5	-45.7	18.5	0.00e+00	0	40	0	189792256	60	4150
2026-01-20 22:50:31.34	26.52	8.57	-44.3	-45.5	18.6	0.00e+00	0	39	0	192937984	60	4077
2026-01-20 22:50:32.35	26.61	8.65	-44.6	-45.8	18.4	0.00e+00	0	40	0	196083712	60	4200
2026-01-20 22:50:33.36	26.70	8.72	-44.1	-45.2	18.9	0.00e+00	0	39	0	199229440	60	3956
2026-01-20 22:50:34.37	26.78	8.79	-44.2	-45.3	18.9	0.00e+00	0	40	0	202375168	60	3977
2026-01-20 22:50:35.37	26.87	8.86	-44.1	-45.2	18.9	0.00e+00	0	40	0	205520896	60	3955
2026-01-20 22:50:36.38	26.96	8.93	-44.2	-45.3	18.8	0.00e+00	0	40	0	208666624	60	4001
2026-01-20 22:50:37.39	27.05	9.00	-44.1	-45.3	18.9	0.00e+00	0	40	0	211812352	60	3968
2026-01-20 22:50:38.40	27.14	9.08	-44.1	-45.2	19.0	0.00e+00	0	40	0	214958080	60	3939
2026-01-20 22:50:39.41	27.22	9.15	-44.3	-45.4	18.8	0.00e+00	0	40	0	218103808	60	4025
2026-01-20 22:50:40.41	27.31	9.22	-44.1	-45.2	19.0	0.00e+00	0	40	0	221249536	60	3928
2026-01-20 22:50:41.42	27.40	9.29	-44.2	-45.3	18.9	0.00e+00	0	40	0	225443840	60	3974
2026-01-20 22:50:42.43	27.49	9.37	-44.2	-45.3	18.9	0.00e+00	0	40	0	228589568	60	3979
2026-01-20 22:50:43.44	27.58	9.44	-44.1	-45.2	19.0	0.00e+00	0	40	0	230686720	60	3945
2026-01-20 22:50:44.45	27.68	9.51	-44.0	-45.2	19.1	0.00e+00	0	40	0	233832448	60	3916
2026-01-20 22:50:45.45	27.77	9.59	-44.2	-45.3	19.2	0.00e+00	0	40	0	236978176	59	4224
2026-01-20 22:50:46.46	27.86	9.66	-44.4	-45.6	19.0	0.00e+00	0	40	0	240123904	59	4348
2026-01-20 22:50:47.47	27.95	9.73	-44.3	-45.4	19.1	0.00e+00	0	40	0	243269632	59	4291
2026-01-20 22:50:48.48	28.04	9.81	-44.3	-45.4	19.1	0.00e+00	0	40	0	246415360	59	4281
2026-01-20 22:50:49.49	28.14	9.88	-44.2	-45.3	19.2	0.00e+00	0	40	0	249561088	59	4215
2026-01-20 22:50:50.50	28.23	9.95	-44.2	-45.4	19.2	0.00e+00	0	40	0	252706816	59	4246
2026-01-20 22:50:51.51	28.32	10.03	-44.2	-45.3	19.3	0.00e+00	0	40	0	255852544	59	4206
2026-01-20 22:50:52.52	28.42	10.10	-44.1	-45.1	19.4	0.00e+00	0	40	0	258998272	59	4145
2026-01-20 22:50:53.53	28.51	10.18	-44.1	-45.2	19.3	0.00e+00	0	39	0	263192576	59	4189
2026-01-20 22:50:54.53	28.61	10.25	-43.9	-45.0	19.5	0.00e+00	0	40	0	266338304	59	4081
2026-01-20 22:50:55.54	28.71	10.33	-44.0	-45.1	19.5	0.00e+00	0	40	0	269484032	59	4115
2026-01-20 22:50:56.55	28.80	10.40	-43.9	-45.0	19.6	0.00e+00	0	40	0	272629760	59	4061
2026-01-20 22:50:57.56	28.90	10.48	-43.9	-44.9	19.6	0.00e+00	0	40	0	275775488	59	4045
2026-01-20 22:50:58.57	29.00	10.55	-43.8	-44.9	19.7	0.00e+00	0	40	0	277872640	59	4014
2026-01-20 22:50:59.58	29.10	10.63	-43.8	-44.8	19.8	0.00e+00	0	40	0	281018368	59	3979
2026-01-20 22:51:00.59	29.19	10.70	-43.7	-44.7	19.8	0.00e+00	0	40	0	284164096	59	3951
2026-01-20 22:51:01.60	29.29	10.78	-43.7	-44.8	19.8	0.00e+00	0	40	0	287309824	59	3972
2026-01-20 22:51:02.61	29.39	10.86	-43.8	-44.9	19.7	0.00e+00	0	40	0	290455552	59	4013
2026-01-20 22:51:03.61	29.49	10.93	-43.8	-44.9	19.7	0.00e+00	0	40	0	293601280	59	4014
2026-01-20 22:51:04.62	29.59	11.01	-43.5	-44.5	20.1	0.00e+00	0	40	0	297795584	59	3844
2026-01-20 22:51:05.63	29.69	11.09	-43.5	-44.5	20.0	0.00e+00	0	40	0	300941312	59	3868
2026-01-20 22:51:06.64	29.79	11.16	-43.6	-44.7	19.9	0.00e+00	0	40	0	304087040	59	3919
2026-01-20 22:51:07.65	29.90	11.24	-43.6	-44.6	20.0	0.00e+00	0	40	0	307232768	59	3905
2026-01-20 22:51:08.66	30.00	11.32	-43.6	-44.6	20.1	0.00e+00	0	40	0	310378496	59	3879
2026-01-20 22:51:09.67	30.10	11.39	-43.6	-44.6	20.0	0.00e+00	0	40	0	313524224	59	3912
2026-01-20 22:51:10.67	30.20	11.47	-43.6	-44.7	19.9	0.00e+00	0	40	0	316669952	59	3917
2026-01-20 22:51:11.68	30.31	11.55	-43.5	-44.6	20.0	0.00e+00	0	40	0	319815680	59	3872
2026-01-20 22:51:12.69	30.41	11.63	-43.4	-44.4	20.1	0.00e+00	0	40	0	322961408	58	4047
2026-01-20 22:51:13.70	30.52	11.70	-43.6	-44.6	20.1	0.00e+00	0	40	0	325058560	58	4101
2026-01-20 22:51:14.71	30.62	11.78	-43.4	-44.4	20.2	0.00e+00	0	40	0	328204288	58	4035
2026-01-20 22:51:15.72	30.73	11.86	-43.5	-44.5	20.1	0.00e+00	0	40	0	331350016	58	4060
2026-01-20 22:51:16.73	30.84	11.94	-43.4	-44.3	20.2	0.00e+00	0	40	0	335544320	58	4002
2026-01-20 22:51:17.74	30.94	12.02	-43.3	-44.3	20.3	0.00e+00	0	40	0	338690048	58	3988
2026-01-20 22:51:18.74	31.05	12.10	-43.4	-44.3	20.3	0.00e+00	0	40	0	341835776	58	3999
2026-01-20 22:51:19.75	31.16	12.17	-43.3	-44.3	20.3	0.00e+00	0	40	0	344981504	58	3987
2026-01-20 22:51:20.76	31.27	12.25	-43.4	-44.4	20.3	0.00e+00	0	40	0	348127232	58	4008
2026-01-20 22:51:21.77	31.38	12.33	-43.4	-44.4	20.2	0.00e+00	0	40	0	351272960	58	4030
2026-01-20 22:51:22.78	31.49	12.41	-43.4	-44.3	20.3	0.00e+00	0	40	0	354418688	58	3992
2026-01-20 22:51:23.79	31.60	12.49	-43.3	-44.2	20.4	0.00e+00	0	39	0	357564416	58	3956
2026-01-20 22:51:24.80	31.71	12.57	-43.3	-44.3	20.3	0.00e+00	0	40	0	360710144	58	3962
2026-01-20 22:51:25.80	31.82	12.65	-43.3	-44.2	20.4	0.00e+00	0	40	0	363855872	58	3949
2026-01-20 22:51:26.81	31.93	12.73	-43.3	-44.2	20.4	0.00e+00	0	40	0	367001600	58	3950
2026-01-20 22:51:27.82	32.05	12.81	-43.2	-44.2	20.4	0.00e+00	0	40	0	370147328	58	3934
2026-01-20 22:51:28.83	32.16	12.89	-43.2	-44.1	20.4	0.00e+00	0	40	0	373293056	58	3912
2026-01-20 22:51:29.84	32.27	12.97	-43.3	-44.3	20.4	0.00e+00	0	40	0	376438784	58	3961
2026-01-20 22:51:30.85	32.39	13.05	-43.3	-44.2	20.4	0.00e+00	0	40	0	379584512	58	3948
2026-01-20 22:51:31.86	32.50	13.13	-43.4	-44.3	20.3	0.00e+00	0	40	0	382730240	58	3993
2026-01-20 22:51:32.87	32.62	13.21	-43.3	-44.3	20.4	0.00e+00	0	40	0	385875968	58	3963
2026-01-20 22:51:33.87	32.73	13.29	-43.3	-44.3	20.3	0.00e+00	0	40	0	389021696	58	3978
2026-01-20 22:51:34.88	32.85	13.38	-43.3	-44.2	20.4	0.00e+00	0	40	0	392167424	58	3956
2026-01-20 22:51:35.89	32.97	13.46	-43.2	-44.1	20.5	0.00e+00	0	39	0	395313152	58	3906
2026-01-20 22:51:36.90	33.09	13.54	-43.2	-44.1	20.5	0.00e+00	0	40	0	398458880	58	3900
2026-01-20 22:51:37.91	33.21	13.62	-43.2	-44.2	20.4	0.00e+00	0	40	0	401604608	58	3928
2026-01-20 22:51:38.92	33.33	13.70	-43.3	-44.2	20.4	0.00e+00	0	40	0	404750336	58	3952
2026-01-20 22:51:39.93	33.45	13.79	-43.3	-44.2	20.4	0.00e+00	0	40	0	407896064	58	3945
2026-01-20 22:51:40.93	33.57	13.87	-43.2	-44.1	20.5	0.00e+00	0	40	0	411041792	58	3902
2026-01-20 22:51:41.94	33.69	13.95	-43.2	-44.1	20.5	0.00e+00	0	40	0	414187520	58	3901
2026-01-20 22:51:42.95	33.81	14.03	-43.2	-44.2	20.5	0.00e+00	0	40	0	417333248	58	3915
2026-01-20 22:51:43.96	33.93	14.12	-43.3	-44.3	20.4	0.00e+00	0	40	0	420478976	58	3967
2026-01-20 22:51:44.97	34.06	14.20	-43.2	-44.2	20.5	0.00e+00	0	40	0	423624704	58	3916
2026-01-20 22:51:45.98	34.18	14.28	-43.2	-44.2	20.4	0.00e+00	0	40	0	426770432	58	3934
2026-01-20 22:51:46.99	34.30	14.37	-43.3	-44.3	20.3	0.00e+00	0	40	0	429916160	58	3988
2026-01-20 22:51:48.00	34.43	14.45	-43.5	-44.5	20.2	0.00e+00	0	40	0	433061888	58	4055
2026-01-20 22:51:49.01	34.56	14.53	-43.3	-44.3	20.4	0.00e+00	0	40	0	436207616	58	3979
2026-01-20 22:51:50.02	34.68	14.62	-43.4	-44.4	20.2	0.00e+00	0	40	0	439353344	58	4043
2026-01-20 22:51:51.03	34.81	14.70	-43.6	-44.6	20.1	0.00e+00	0	40	0	442499072	58	4116
2026-01-20 22:51:52.03	34.94	14.78	-43.5	-44.5	20.2	0.00e+00	0	39	0	445644800	58	4094
2026-01-20 22:51:53.04	35.07	14.87	-43.6	-44.6	20.1	0.00e+00	0	40	0	448790528	58	4114
2026-01-20 22:51:54.05	35.20	14.95	-43.6	-44.5	20.2	0.00e+00	0	40	0	451936256	58	4097
2026-01-20 22:51:55.06	35.33	15.04	-43.6	-44.6	20.1	0.00e+00	0	40	0	455081984	58	4104
2026-01-20 22:51:56.07	35.46	15.12	-43.6	-44.6	20.1	0.00e+00	0	40	0	458227712	58	4131
2026-01-20 22:51:57.07	35.59	15.21	-43.6	-44.7	20.1	0.00e+00	0	40	0	461373440	58	4146
2026-01-20 22:51:58.08	35.72	15.29	-43.6	-44.6	20.1	0.00e+00	0	40	0	464519168	58	4115
2026-01-20 22:51:59.09	35.85	15.38	-43.7	-44.7	20.0	0.00e+00	0	40	0	467664896	58	4174
2026-01-20 22:52:00.10	35.99	15.46	-43.6	-44.6	20.1	0.00e+00	0	40	0	470810624	58	4141
2026-01-20 22:52:01.11	36.12	15.55	-43.7	-44.7	20.1	0.00e+00	0	40	0	473956352	58	4148
2026-01-20 22:52:02.12	36.26	15.64	-43.6	-44.7	20.1	0.00e+00	0	40	0	477102080	58	4146
2026-01-20 22:52:03.12	36.39	15.72	-43.6	-44.7	20.1	0.00e+00	0	40	0	480247808	58	4147
2026-01-20 22:52:04.13	36.53	15.81	-43.6	-44.6	20.2	0.00e+00	0	40	0	483393536	58	4140
2026-01-20 22:52:05.14	36.67	15.89	-43.7	-44.7	20.1	0.00e+00	0	40	0	486539264	58	4155
2026-01-20 22:52:06.15	36.81	15.98	-43.7	-44.7	20.1	0.00e+00	0	40	0	489684992	58	4192
2026-01-20 22:52:07.16	36.95	16.07	-43.8	-44.8	20.0	0.00e+00	0	39	0	492830720	58	4231
2026-01-20 22:52:08.17	37.09	16.15	-43.8	-44.8	20.0	0.00e+00	0	40	0	495976448	58	4204
2026-01-20 22:52:09.17	37.23	16.24	-43.8	-44.8	20.0	0.00e+00	0	39	0	499122176	58	4209
2026-01-20 22:52:10.18	37.37	16.33	-43.8	-44.8	20.0	0.00e+00	0	40	0	502267904	58	4237
2026-01-20 22:52:11.19	37.51	16.41	-43.8	-44.8	20.0	0.00e+00	0	40	0	505413632	58	4210
2026-01-20 22:52:12.20	37.65	16.50	-43.7	-44.6	20.2	0.00e+00	0	40	0	508559360	58	4141
2026-01-20 22:52:13.21	37.80	16.59	-43.6	-44.6	20.2	0.00e+00	0	40	0	511705088	58	4113
2026-01-20 22:52:14.22	37.94	16.68	-43.7	-44.7	20.1	0.00e+00	0	40	0	514850816	58	4152
2026-01-20 22:52:15.23	38.09	16.76	-43.5	-44.5	20.3	0.00e+00	0	40	0	517996544	58	4065
2026-01-20 22:52:16.23	38.23	16.85	-43.3	-44.2	20.5	0.00e+00	0	40	0	521142272	58	3951
2026-01-20 22:52:17.24	38.38	16.94	-43.4	-44.3	20.4	0.00e+00	0	40	0	524288000	58	3988
2026-01-20 22:52:18.25	38.53	17.03	-43.4	-44.3	20.5	0.00e+00	0	40	0	527433728	58	3983
2026-01-20 22:52:19.26	38.68	17.12	-43.3	-44.3	20.5	0.00e+00	0	40	0	530579456	58	3968
2026-01-20 22:52:20.27	38.83	17.20	-43.1	-44.0	20.7	0.00e+00	0	40	0	533725184	58	3856
2026-01-20 22:52:21.27	38.98	17.29	-43.2	-44.2	20.6	0.00e+00	0	40	0	536870912	58	3918
2026-01-20 22:52:22.28	39.13	17.38	-43.3	-44.3	20.5	0.00e+00	0	40	0	540016640	58	3971
2026-01-20 22:52:23.29	39.28	17.47	-43.4	-44.3	20.4	0.00e+00	0	40	0	543162368	58	3998
2026-01-20 22:52:24.30	39.43	17.56	-43.3	-44.3	20.5	0.00e+00	0	40	0	546308096	58	3978
2026-01-20 22:52:25.30	39.59	17.65	-43.3	-44.2	20.5	0.00e+00	0	40	0	549453824	58	3944
2026-01-20 22:52:26.31	39.74	17.74	-43.3	-44.2	20.5	0.00e+00	0	40	0	552599552	58	3941
2026-01-20 22:52:27.32	39.90	17.83	-43.2	-44.2	20.5	0.00e+00	0	40	0	555745280	58	3918
2026-01-20 22:52:28.33	40.05	17.92	-43.1	-44.0	20.6	0.00e+00	0	40	0	558891008	58	3858
2026-01-20 22:52:29.34	40.21	18.01	-42.9	-43.8	20.8	0.00e+00	0	40	0	562036736	57	3992
2026-01-20 22:52:30.34	40.37	18.09	-42.9	-43.8	20.8	0.00e+00	0	40	0	565182464	57	3999
2026-01-20 22:52:31.35	40.53	18.18	-42.9	-43.8	20.8	0.00e+00	0	40	0	568328192	57	3992
2026-01-20 22:52:32.36	40.69	18.27	-43.0	-43.9	20.8	0.00e+00	0	40	0	571473920	57	4017
2026-01-20 22:52:33.37	40.85	18.36	-42.9	-43.8	20.9	0.00e+00	0	40	0	574619648	57	3996
2026-01-20 22:52:34.38	41.01	18.45	-43.2	-44.1	20.7	0.00e+00	0	40	0	577765376	57	4130
2026-01-20 22:52:35.39	41.18	18.54	-43.2	-44.2	20.6	0.00e+00	0	40	0	580911104	57	4155
2026-01-20 22:52:36.40	41.34	18.64	-43.3	-44.2	20.6	0.00e+00	0	40	0	584056832	57	4172
2026-01-20 22:52:37.41	41.51	18.73	-43.4	-44.3	20.5	0.00e+00	0	40	0	587202560	57	4224
2026-01-20 22:52:38.42	41.67	18.82	-43.4	-44.4	20.4	0.00e+00	0	40	0	590348288	57	4262
2026-01-20 22:52:39.42	41.84	18.91	-43.3	-44.3	20.4	0.00e+00	0	39	0	593494016	57	4218
2026-01-20 22:52:40.43	42.00	19.00	-43.3	-44.3	20.4	0.00e+00	0	40	0	596639744	57	4207
2026-01-20 22:52:41.44	42.17	19.09	-43.2	-44.2	20.5	0.00e+00	0	40	0	599785472	57	4167
2026-01-20 22:52:42.45	42.34	19.18	-43.2	-44.1	20.6	0.00e+00	0	40	0	602931200	57	4132
2026-01-20 22:52:43.45	42.51	19.27	-43.1	-44.0	20.7	0.00e+00	0	40	0	606076928	57	4081
2026-01-20 22:52:44.46	42.68	19.36	-43.0	-43.9	20.8	0.00e+00	0	40	0	609222656	57	4050
2026-01-20 22:52:45.47	42.86	19.45	-43.1	-44.0	20.8	0.00e+00	0	40	0	612368384	57	4084
2026-01-20 22:52:46.48	43.03	19.54	-43.0	-43.9	20.8	0.00e+00	0	40	0	615514112	57	4037
2026-01-20 22:52:47.49	43.21	19.64	-43.1	-44.0	20.8	0.00e+00	0	40	0	618659840	57	4071
2026-01-20 22:52:48.49	43.38	19.73	-43.0	-43.9	20.9	0.00e+00	0	40	0	621805568	57	4019
2026-01-20 22:52:49.50	43.56	19.82	-43.0	-43.9	20.9	0.00e+00	0	40	0	624951296	57	4021
2026-01-20 22:52:50.51	43.74	19.91	-43.0	-43.9	20.9	0.00e+00	0	40	0	628097024	57	4022
2026-01-20 22:52:51.52	43.92	20.00	-42.8	-43.7	21.0	0.00e+00	0	40	0	631242752	57	3942
2026-01-20 22:52:52.52	44.09	20.09	-42.6	-43.5	21.2	0.00e+00	0	40	0	634388480	57	3831
2026-01-20 22:52:53.53	44.27	20.19	-42.5	-43.4	21.3	0.00e+00	0	40	0	637534208	57	3799
2026-01-20 22:52:54.54	44.46	20.28	-42.3	-43.2	21.5	0.00e+00	0	40	0	640679936	56	3920
2026-01-20 22:52:55.55	44.64	20.37	-42.2	-43.0	21.6	0.00e+00	0	40	0	643825664	56	3842
2026-01-20 22:52:56.56	44.82	20.46	-42.2	-43.0	21.7	0.00e+00	0	40	0	646971392	56	3842
2026-01-20 22:52:57.57	45.01	20.55	-42.3	-43.1	21.6	0.00e+00	0	40	0	650117120	56	3895
2026-01-20 22:52:58.58	45.20	20.65	-42.3	-43.1	21.5	0.00e+00	0	39	0	653262848	56	3907
2026-01-20 22:52:59.58	45.38	20.74	-42.3	-43.1	21.6	0.00e+00	0	39	0	656408576	56	3910
2026-01-20 22:53:00.57	45.57	20.83	-42.4	-43.2	21.4	0.00e+00	0	40	0	659554304	56	3952
2026-01-20 22:53:01.57	45.76	20.92	-42.4	-43.2	21.4	0.00e+00	0	40	0	662700032	56	3954
2026-01-20 22:53:02.58	45.95	21.01	-42.4	-43.2	21.4	0.00e+00	0	40	0	665845760	56	3947
2026-01-20 22:53:03.59	46.14	21.10	-42.3	-43.2	21.5	0.00e+00	0	40	0	668991488	56	3919
2026-01-20 22:53:04.60	46.33	21.20	-42.4	-43.3	21.3	0.00e+00	0	40	0	672137216	56	3964
2026-01-20 22:53:05.61	46.53	21.29	-42.4	-43.2	21.4	0.00e+00	0	40	0	675282944	56	3951
2026-01-20 22:53:06.62	46.72	21.38	-42.2	-43.1	21.5	0.00e+00	0	40	0	678428672	56	3882
2026-01-20 22:53:07.62	46.92	21.47	-42.1	-42.9	21.7	0.00e+00	0	40	0	681574400	56	3821
2026-01-20 22:53:08.63	47.11	21.57	-42.1	-43.0	21.7	0.00e+00	0	40	0	684720128	56	3833
2026-01-20 22:53:09.64	47.31	21.66	-42.2	-43.1	21.6	0.00e+00	0	40	0	687865856	56	3890
2026-01-20 22:53:10.65	47.51	21.75	-42.3	-43.1	21.6	0.00e+00	0	40	0	691011584	56	3911
2026-01-20 22:53:11.66	47.71	21.84	-42.3	-43.2	21.5	0.00e+00	0	40	0	694157312	56	3943
2026-01-20 22:53:12.66	47.91	21.93	-42.4	-43.2	21.5	0.00e+00	0	40	0	697303040	56	3946
2026-01-20 22:53:13.67	48.12	22.03	-42.3	-43.2	21.5	0.00e+00	0	40	0	700448768	56	3936
2026-01-20 22:53:14.68	48.32	22.12	-42.3	-43.2	21.6	0.00e+00	0	40	0	703594496	56	3925
2026-01-20 22:53:15.69	48.53	22.21	-42.4	-43.3	21.4	0.00e+00	0	39	0	706740224	56	3970
2026-01-20 22:53:16.70	48.73	22.30	-42.2	-43.1	21.6	0.00e+00	0	40	0	709885952	56	3877
2026-01-20 22:53:17.71	48.94	22.40	-42.1	-43.0	21.7	0.00e+00	0	40	0	713031680	56	3825
2026-01-20 22:53:18.72	49.15	22.49	-42.1	-43.0	21.7	0.00e+00	0	40	0	716177408	56	3834
2026-01-20 22:53:19.72	49.36	22.58	-41.8	-42.7	21.9	0.00e+00	0	40	0	719323136	55	3918
2026-01-20 22:53:20.73	49.57	22.67	-41.8	-42.6	21.9	0.00e+00	0	40	0	722468864	55	3909
2026-01-20 22:53:21.74	49.79	22.76	-41.9	-42.8	21.8	0.00e+00	0	40	0	725614592	55	3961
2026-01-20 22:53:22.75	50.00	22.86	-42.0	-42.8	21.8	0.00e+00	0	40	0	728760320	55	3988
2026-01-20 22:53:23.76	50.22	22.95	-42.0	-42.8	21.8	0.00e+00	0	40	0	731906048	55	3997
2026-01-20 22:53:24.77	50.43	23.04	-42.2	-43.0	21.6	0.00e+00	0	40	0	735051776	55	4080
2026-01-20 22:53:25.78	50.65	23.13	-42.2	-43.1	21.6	0.00e+00	0	39	0	738197504	55	4105
2026-01-20 22:53:26.79	50.87	23.22	-42.3	-43.2	21.5	0.00e+00	0	40	0	741343232	55	4158
2026-01-20 22:53:27.79	51.09	23.31	-42.3	-43.2	21.5	0.00e+00	0	40	0	744488960	55	4159
2026-01-20 22:53:28.80	51.31	23.41	-42.2	-43.1	21.5	0.00e+00	0	40	0	747634688	55	4101
2026-01-20 22:53:29.81	51.53	23.50	-42.3	-43.2	21.5	0.00e+00	0	40	0	750780416	55	4152
2026-01-20 22:53:30.82	51.76	23.59	-42.4	-43.2	21.5	0.00e+00	0	40	0	753926144	55	4181
2026-01-20 22:53:31.83	51.98	23.68	-42.3	-43.2	21.5	0.00e+00	0	40	0	757071872	55	4159
2026-01-20 22:53:32.84	52.21	23.77	-42.4	-43.2	21.5	0.00e+00	0	39	0	760217600	55	4182
2026-01-20 22:53:33.85	52.44	23.86	-42.3	-43.2	21.5	0.00e+00	0	40	0	763363328	55	4162
2026-01-20 22:53:34.86	52.67	23.95	-42.4	-43.2	21.5	0.00e+00	0	39	0	766509056	55	4191
2026-01-20 22:53:35.87	52.90	24.04	-42.4	-43.2	21.5	0.00e+00	0	40	0	769654784	55	4183
2026-01-20 22:53:36.88	53.13	24.13	-42.3	-43.1	21.6	0.00e+00	0	40	0	772800512	55	4127
2026-01-20 22:53:37.88	53.36	24.22	-42.1	-43.0	21.7	0.00e+00	0	40	0	775946240	55	4064
2026-01-20 22:53:38.89	53.60	24.31	-42.2	-43.1	21.6	0.00e+00	0	40	0	779091968	55	4101
2026-01-20 22:53:39.90	53.83	24.40	-42.0	-42.9	21.8	0.00e+00	0	40	0	782237696	55	4017
2026-01-20 22:53:40.91	54.07	24.49	-42.2	-43.1	21.6	0.00e+00	0	40	0	785383424	55	4101
2026-01-20 22:53:41.92	54.31	24.58	-42.3	-43.2	21.5	0.00e+00	0	40	0	788529152	55	4160
2026-01-20 22:53:42.92	54.55	24.67	-42.4	-43.3	21.4	0.00e+00	0	40	0	791674880	55	4226
2026-01-20 22:53:43.93	54.79	24.76	-42.5	-43.4	21.3	0.00e+00	0	40	0	794820608	55	4265
2026-01-20 22:53:44.94	55.03	24.85	-42.6	-43.5	21.3	0.00e+00	0	40	0	797966336	55	4320
2026-01-20 22:53:45.95	55.28	24.94	-42.6	-43.5	21.3	0.00e+00	0	40	0	801112064	55	4330
2026-01-20 22:53:46.96	55.52	25.03	-42.7	-43.6	21.3	0.00e+00	0	40	0	804257792	56	4132
2026-01-20 22:53:47.97	55.77	25.11	-42.7	-43.6	21.2	0.00e+00	0	40	0	807403520	56	4127
2026-01-20 22:53:48.98	56.02	25.20	-42.8	-43.7	21.2	0.00e+00	0	40	0	810549248	56	4162
2026-01-20 22:53:49.99	56.27	25.29	-42.7	-43.6	21.2	0.00e+00	0	40	0	813694976	56	4125
2026-01-20 22:53:50.99	56.52	25.38	-42.8	-43.7	21.1	0.00e+00	0	40	0	816840704	56	4154
2026-01-20 22:53:52.00	56.77	25.46	-42.7	-43.6	21.2	0.00e+00	0	40	0	819986432	56	4114
2026-01-20 22:53:53.01	57.02	25.55	-42.5	-43.4	21.4	0.00e+00	0	40	0	823132160	56	4033
2026-01-20 22:53:54.02	57.28	25.64	-42.5	-43.4	21.4	0.00e+00	0	40	0	827326464	56	4022
2026-01-20 22:53:55.03	57.53	25.72	-42.5	-43.3	21.5	0.00e+00	0	40	0	830472192	56	3987
2026-01-20 22:53:56.03	57.79	25.81	-42.5	-43.3	21.5	0.00e+00	0	40	0	832569344	56	3997
2026-01-20 22:53:57.04	58.05	25.89	-42.6	-43.4	21.4	0.00e+00	0	40	0	835715072	56	4043
2026-01-20 22:53:58.05	58.31	25.98	-42.5	-43.4	21.5	0.00e+00	0	40	0	838860800	56	4016
2026-01-20 22:53:59.06	58.57	26.06	-42.7	-43.5	21.3	0.00e+00	0	40	0	842006528	56	4089
2026-01-20 22:54:00.07	58.83	26.15	-42.7	-43.5	21.3	0.00e+00	0	40	0	845152256	56	4093
2026-01-20 22:54:01.08	59.10	26.23	-42.7	-43.6	21.3	0.00e+00	0	40	0	848297984	56	4103
2026-01-20 22:54:02.09	59.36	26.32	-42.7	-43.5	21.2	0.00e+00	0	40	0	851443712	56	4083
2026-01-20 22:54:03.09	59.63	26.40	-42.7	-43.5	21.2	0.00e+00	0	40	0	854589440	56	4087
2026-01-20 22:54:04.10	59.90	26.48	-42.8	-43.6	21.1	0.00e+00	0	40	0	857735168	56	4141
2026-01-20 22:54:05.11	60.17	26.56	-42.6	-43.4	21.2	0.00e+00	0	40	0	860880896	56	4034
2026-01-20 22:54:06.12	60.44	26.65	-42.6	-43.5	21.2	0.00e+00	0	40	0	864026624	56	4053
2026-01-20 22:54:07.13	60.71	26.73	-42.5	-43.4	21.4	0.00e+00	0	40	0	868220928	56	4020
2026-01-20 22:54:08.13	60.98	26.81	-42.5	-43.3	21.4	0.00e+00	0	40	0	871366656	56	3999
2026-01-20 22:54:09.14	61.26	26.89	-42.4	-43.2	21.5	0.00e+00	0	40	0	874512384	56	3955
2026-01-20 22:54:10.15	61.53	26.97	-42.5	-43.3	21.5	0.00e+00	0	40	0	877658112	56	3999
2026-01-20 22:54:11.16	61.81	27.05	-42.5	-43.4	21.4	0.00e+00	0	40	0	879755264	56	4019
2026-01-20 22:54:12.17	62.09	27.13	-42.5	-43.4	21.4	0.00e+00	0	40	0	882900992	56	4027
2026-01-20 22:54:13.18	62.37	27.21	-42.5	-43.4	21.3	0.00e+00	0	40	0	886046720	56	4010
2026-01-20 22:54:14.19	62.66	27.29	-42.5	-43.4	21.2	0.00e+00	0	40	0	889192448	56	4017
2026-01-20 22:54:15.19	62.94	27.36	-42.6	-43.4	21.1	0.00e+00	0	40	0	892338176	56	4048
2026-01-20 22:54:16.20	63.22	27.44	-42.5	-43.4	21.2	0.00e+00	0	40	0	895483904	56	4032
2026-01-20 22:54:17.21	63.51	27.52	-42.5	-43.4	21.3	0.00e+00	0	40	0	898629632	56	4014
2026-01-20 22:54:18.22	63.80	27.59	-42.6	-43.5	21.3	0.00e+00	0	40	0	901775360	56	4065
2026-01-20 22:54:19.23	64.09	27.67	-42.3	-43.1	21.6	0.00e+00	0	40	0	905969664	56	3907
2026-01-20 22:54:20.24	64.38	27.74	-42.1	-42.9	21.8	0.00e+00	0	40	0	909115392	56	3819
2026-01-20 22:54:21.24	64.67	27.82	-42.2	-43.0	21.8	0.00e+00	0	40	0	912261120	56	3866
2026-01-20 22:54:22.25	64.96	27.89	-42.4	-43.2	21.6	0.00e+00	0	40	0	915406848	56	3954
2026-01-20 22:54:23.26	65.25	27.97	-42.5	-43.4	21.5	0.00e+00	0	40	0	918552576	56	4007
2026-01-20 22:54:24.27	65.55	28.04	-42.6	-43.5	21.3	0.00e+00	0	40	0	921698304	56	4084
2026-01-20 22:54:25.28	65.85	28.11	-42.8	-43.6	21.3	0.00e+00	0	40	0	924844032	56	4143
2026-01-20 22:54:26.29	66.14	28.18	-42.8	-43.7	21.2	0.00e+00	0	40	0	926941184	56	4161
2026-01-20 22:54:27.29	66.44	28.25	-42.8	-43.7	21.2	0.00e+00	0	40	0	930086912	56	4168
2026-01-20 22:54:28.30	66.74	28.32	-42.7	-43.6	21.3	0.00e+00	0	40	0	933232640	56	4121
2026-01-20 22:54:29.31	67.04	28.39	-42.4	-43.3	21.6	0.00e+00	0	40	0	936378368	56	3966
2026-01-20 22:54:30.32	67.35	28.46	-42.5	-43.3	21.6	0.00e+00	0	40	0	940572672	56	3986
2026-01-20 22:54:31.33	67.65	28.53	-42.4	-43.2	21.6	0.00e+00	0	40	0	943718400	56	3956
2026-01-20 22:54:32.34	67.96	28.60	-42.6	-43.4	21.5	0.00e+00	0	40	0	946864128	56	4045
2026-01-20 22:54:33.35	68.27	28.67	-42.6	-43.5	21.4	0.00e+00	0	40	0	950009856	56	4069
2026-01-20 22:54:34.35	68.57	28.73	-42.7	-43.6	21.3	0.00e+00	0	40	0	953155584	56	4118
2026-01-20 22:54:35.36	68.88	28.80	-42.7	-43.6	21.3	0.00e+00	0	40	0	956301312	56	4130
2026-01-20 22:54:36.37	69.19	28.86	-42.8	-43.7	21.2	0.00e+00	0	40	0	959447040	56	4169
2026-01-20 22:54:37.38	69.51	28.93	-42.6	-43.4	21.5	0.00e+00	0	40	0	962592768	56	4041
2026-01-20 22:54:38.39	69.82	28.99	-42.5	-43.3	21.6	0.00e+00	0	40	0	965738496	56	3985
2026-01-20 22:54:39.39	70.13	29.05	-42.5	-43.4	21.5	0.00e+00	0	40	0	968884224	56	4013
2026-01-20 22:54:40.40	70.45	29.11	-42.4	-43.3	21.5	0.00e+00	0	40	0	972029952	56	3978
2026-01-20 22:54:41.41	70.77	29.17	-42.4	-43.3	21.6	0.00e+00	0	40	0	974127104	56	3962
2026-01-20 22:54:42.42	71.08	29.23	-42.5	-43.4	21.5	0.00e+00	0	40	0	978321408	56	4009
2026-01-20 22:54:43.43	71.40	29.29	-42.5	-43.3	21.5	0.00e+00	0	40	0	981467136	56	3998
2026-01-20 22:54:44.44	71.73	29.35	-42.5	-43.4	21.5	0.00e+00	0	40	0	984612864	56	4031
2026-01-20 22:54:45.45	72.05	29.41	-42.7	-43.5	21.4	0.00e+00	0	40	0	987758592	56	4084
2026-01-20 22:54:46.46	72.37	29.46	-42.7	-43.6	21.3	0.00e+00	0	40	0	990904320	56	4124
2026-01-20 22:54:47.46	72.69	29.52	-42.8	-43.6	21.3	0.00e+00	0	40	0	994050048	56	4133
2026-01-20 22:54:48.47	73.02	29.58	-42.9	-43.7	21.1	0.00e+00	0	40	0	997195776	56	4191
2026-01-20 22:54:49.48	73.34	29.63	-42.7	-43.6	21.3	0.00e+00	0	40	0	1000341504	56	4114
2026-01-20 22:54:50.49	73.67	29.68	-42.7	-43.5	21.4	0.00e+00	0	40	0	1003487232	56	4084
2026-01-20 22:54:51.49	74.00	29.73	-42.6	-43.4	21.4	0.00e+00	0	40	0	1006632960	56	4041
2026-01-20 22:54:52.50	74.33	29.79	-42.6	-43.4	21.4	0.00e+00	0	40	0	1009778688	56	4034
2026-01-20 22:54:53.51	74.66	29.84	-42.7	-43.6	21.2	0.00e+00	0	40	0	1012924416	56	4131
2026-01-20 22:54:54.52	74.99	29.89	-43.0	-43.9	21.0	0.00e+00	0	40	0	1016070144	56	4263
2026-01-20 22:54:55.53	75.32	29.93	-43.1	-44.0	21.0	0.00e+00	0	40	0	1019215872	56	4304
2026-01-20 22:54:56.53	75.65	29.98	-43.1	-44.0	21.0	0.00e+00	0	40	0	1022361600	56	4294
2026-01-20 22:54:57.54	75.99	30.03	-43.1	-44.0	21.0	0.00e+00	0	40	0	1025507328	56	4312
2026-01-20 22:54:58.56	76.32	30.07	-43.3	-44.2	20.8	0.00e+00	0	40	0	1028653056	57	4164
2026-01-20 22:54:59.56	76.66	30.12	-43.3	-44.2	20.7	0.00e+00	0	40	0	1031798784	57	4162
2026-01-20 22:55:00.56	76.99	30.16	-43.2	-44.1	20.8	0.00e+00	0	40	0	1034944512	57	4121
2026-01-20 22:55:01.57	77.33	30.20	-43.2	-44.2	20.8	0.00e+00	0	40	0	1038090240	57	4153
2026-01-20 22:55:02.58	77.67	30.25	-43.0	-43.9	21.0	0.00e+00	0	40	0	1041235968	57	4022
2026-01-20 22:55:03.59	78.01	30.29	-42.9	-43.8	21.1	0.00e+00	0	40	0	1044381696	57	3977
2026-01-20 22:55:04.59	78.35	30.33	-43.0	-43.9	21.1	0.00e+00	0	40	0	1047527424	57	4021
2026-01-20 22:55:05.60	78.69	30.37	-42.9	-43.8	21.1	0.00e+00	0	40	0	1050673152	57	3970
2026-01-20 22:55:06.61	79.03	30.40	-43.0	-43.9	20.9	0.00e+00	0	40	0	1053818880	57	4033
2026-01-20 22:55:07.62	79.37	30.44	-43.2	-44.1	20.9	0.00e+00	0	40	0	1056964608	57	4113
2026-01-20 22:55:08.63	79.72	30.47	-43.1	-44.0	20.9	0.00e+00	0	40	0	1060110336	57	4097
2026-01-20 22:55:09.64	80.06	30.51	-42.9	-43.8	21.1	0.00e+00	0	40	0	1063256064	57	3973
2026-01-20 22:55:10.64	80.41	30.54	-42.9	-43.7	21.2	0.00e+00	0	40	0	1066401792	57	3955
2026-01-20 22:55:11.65	80.75	30.57	-42.9	-43.7	21.2	0.00e+00	0	40	0	1069547520	57	3957
2026-01-20 22:55:12.66	81.10	30.61	-42.9	-43.8	21.1	0.00e+00	0	40	0	1072693248	57	3982
2026-01-20 22:55:13.66	81.44	30.64	-43.2	-44.1	20.9	0.00e+00	0	40	0	1075838976	57	4119
2026-01-20 22:55:14.67	81.79	30.66	-43.3	-44.2	20.8	0.00e+00	0	40	0	1078984704	57	4168
2026-01-20 22:55:15.68	82.14	30.69	-43.3	-44.2	20.7	0.00e+00	0	40	0	1082130432	57	4189
2026-01-20 22:55:16.69	82.49	30.72	-43.2	-44.2	20.8	0.00e+00	0	40	0	1085276160	57	4148
2026-01-20 22:55:17.69	82.83	30.74	-43.0	-43.9	21.1	0.00e+00	0	40	0	1088421888	57	4021
2026-01-20 22:55:18.70	83.19	30.77	-43.0	-43.8	21.1	0.00e+00	0	40	0	1091567616	57	4003
2026-01-20 22:55:19.71	83.54	30.79	-43.0	-43.9	21.0	0.00e+00	0	40	0	1094713344	57	4029
2026-01-20 22:55:20.72	83.89	30.81	-43.0	-43.9	21.0	0.00e+00	0	40	0	1097859072	57	4033
2026-01-20 22:55:21.73	84.24	30.84	-42.9	-43.8	21.1	0.00e+00	0	40	0	1101004800	57	3987
2026-01-20 22:55:22.74	84.59	30.86	-42.8	-43.7	21.2	0.00e+00	0	40	0	1104150528	57	3920
2026-01-20 22:55:23.74	84.94	30.87	-42.7	-43.6	21.3	0.00e+00	0	40	0	1107296256	57	3895
2026-01-20 22:55:24.75	85.29	30.89	-42.8	-43.7	21.3	0.00e+00	0	40	0	1110441984	57	3927
2026-01-20 22:55:25.76	85.65	30.91	-43.0	-43.9	21.1	0.00e+00	0	40	0	1113587712	57	4031
2026-01-20 22:55:26.77	86.00	30.92	-43.2	-44.1	20.9	0.00e+00	0	40	0	1116733440	57	4118
2026-01-20 22:55:27.78	86.36	30.94	-43.3	-44.2	20.8	0.00e+00	0	40	0	1119879168	57	4164
2026-01-20 22:55:28.78	86.71	30.95	-43.4	-44.4	20.6	0.00e+00	0	40	0	1123024896	57	4251
2026-01-20 22:55:29.79	87.06	30.96	-43.4	-44.3	20.7	0.00e+00	0	40	0	1126170624	57	4221
2026-01-20 22:55:30.80	87.42	30.97	-43.4	-44.4	20.7	0.00e+00	0	40	0	1129316352	57	4267
2026-01-20 22:55:31.81	87.77	30.98	-43.4	-44.4	20.6	0.00e+00	0	40	0	1132462080	57	4252
2026-01-20 22:55:32.81	88.12	30.99	-43.4	-44.3	20.7	0.00e+00	0	40	0	1135607808	57	4219
2026-01-20 22:55:33.82	88.48	31.00	-43.5	-44.5	20.6	0.00e+00	0	40	0	1138753536	57	4295
2026-01-20 22:55:34.83	88.84	31.00	-43.2	-44.2	20.8	0.00e+00	0	40	0	1141899264	57	4154
2026-01-20 22:55:35.84	89.19	31.01	-43.3	-44.2	20.7	0.00e+00	0	40	0	1145044992	57	4184
2026-01-20 22:55:36.85	89.55	31.01	-43.2	-44.1	20.9	0.00e+00	0	40	0	1148190720	57	4138
2026-01-20 22:55:37.85	89.90	31.01	-43.2	-44.1	20.9	0.00e+00	0	40	0	1151336448	57	4128
2026-01-20 22:55:38.86	90.26	31.01	-43.3	-44.2	20.8	0.00e+00	0	40	0	1154482176	57	4169
2026-01-20 22:55:39.87	90.61	31.01	-43.4	-44.3	20.6	0.00e+00	0	40	0	1157627904	57	4223
2026-01-20 22:55:40.88	90.97	31.01	-43.3	-44.2	20.7	0.00e+00	0	40	0	1160773632	57	4178
2026-01-20 22:55:41.89	91.32	31.01	-43.2	-44.1	20.9	0.00e+00	0	40	0	1163919360	57	4103
2026-01-20 22:55:42.89	91.68	31.01	-43.0	-43.9	21.0	0.00e+00	0	40	0	1167065088	57	4025
2026-01-20 22:55:43.90	92.03	31.00	-43.0	-43.9	21.1	0.00e+00	0	40	0	1170210816	57	4022
2026-01-20 22:55:44.91	92.39	31.00	-43.0	-43.9	21.1	0.00e+00	0	40	0	1173356544	57	4015
2026-01-20 22:55:45.92	92.74	30.99	-43.0	-43.9	21.1	0.00e+00	0	40	0	1176502272	57	4015
2026-01-20 22:55:46.92	93.10	30.98	-43.1	-44.0	20.9	0.00e+00	0	40	0	1179648000	57	4074
2026-01-20 22:55:47.93	93.45	30.97	-43.2	-44.1	20.8	0.00e+00	0	40	0	1182793728	57	4126
2026-01-20 22:55:48.94	93.81	30.96	-43.2	-44.1	20.8	0.00e+00	0	40	0	1185939456	57	4120
2026-01-20 22:55:49.95	94.16	30.95	-43.1	-44.0	20.9	0.00e+00	0	40	0	1189085184	57	4090
2026-01-20 22:55:50.95	94.51	30.94	-43.0	-43.8	21.1	0.00e+00	0	40	0	1192230912	57	3998
2026-01-20 22:55:51.96	94.87	30.92	-42.9	-43.8	21.0	0.00e+00	0	40	0	1195376640	57	3991
2026-01-20 22:55:52.97	95.22	30.91	-42.9	-43.8	21.0	0.00e+00	0	40	0	1198522368	57	3989
2026-01-20 22:55:53.98	95.58	30.89	-43.0	-43.9	21.0	0.00e+00	0	40	0	1201668096	57	4043
2026-01-20 22:55:54.99	95.93	30.87	-43.1	-44.0	20.9	0.00e+00	0	40	0	1204813824	57	4066
2026-01-20 22:55:56.00	96.28	30.85	-43.0	-43.9	21.1	0.00e+00	0	40	0	1207959552	57	4029
2026-01-20 22:55:57.01	96.63	30.83	-43.0	-43.9	21.1	0.00e+00	0	40	0	1211105280	57	4015
2026-01-20 22:55:58.02	96.99	30.81	-43.0	-43.9	21.0	0.00e+00	0	40	0	1214251008	57	4042
2026-01-20 22:55:59.02	97.34	30.79	-43.1	-44.0	20.9	0.00e+00	0	40	0	1217396736	57	4055
2026-01-20 22:56:00.03	97.69	30.76	-42.9	-43.8	21.1	0.00e+00	0	40	0	1220542464	57	3993
2026-01-20 22:56:01.04	98.04	30.74	-42.9	-43.8	21.1	0.00e+00	0	40	0	1223688192	57	3967
2026-01-20 22:56:02.05	98.39	30.71	-42.6	-43.5	21.4	0.00e+00	0	40	0	1226833920	57	3839
2026-01-20 22:56:03.06	98.74	30.69	-42.7	-43.6	21.4	0.00e+00	0	40	0	1229979648	57	3869
2026-01-20 22:56:04.07	99.09	30.66	-42.8	-43.7	21.3	0.00e+00	0	40	0	1233125376	57	3935
2026-01-20 22:56:05.07	99.43	30.63	-42.9	-43.8	21.2	0.00e+00	0	40	0	1236271104	57	3983
2026-01-20 22:56:06.08	99.78	30.60	-43.0	-43.9	21.1	0.00e+00	0	40	0	1239416832	57	4033
2026-01-20 22:56:07.09	100.13	30.57	-43.1	-44.0	20.9	0.00e+00	0	40	0	1242562560	57	4093
2026-01-20 22:56:08.10	100.47	30.54	-43.2	-44.1	20.8	0.00e+00	0	40	0	1245708288	57	4139
2026-01-20 22:56:09.11	100.82	30.50	-43.0	-43.9	21.1	0.00e+00	0	40	0	1248854016	57	4021
2026-01-20 22:56:10.11	101.16	30.47	-42.8	-43.7	21.2	0.00e+00	0	40	0	1251999744	57	3949
2026-01-20 22:56:11.12	101.50	30.43	-42.9	-43.7	21.1	0.00e+00	0	40	0	1255145472	57	3957
2026-01-20 22:56:12.13	101.85	30.40	-42.7	-43.6	21.3	0.00e+00	0	40	0	1258291200	57	3875
2026-01-20 22:56:13.14	102.19	30.36	-42.7	-43.6	21.3	0.00e+00	0	40	0	1261436928	57	3873
2026-01-20 22:56:14.15	102.53	30.32	-42.8	-43.6	21.3	0.00e+00	0	40	0	1264582656	57	3900
2026-01-20 22:56:15.15	102.87	30.28	-43.0	-43.9	21.0	0.00e+00	0	40	0	1267728384	57	4025
2026-01-20 22:56:16.16	103.21	30.24	-43.2	-44.1	20.9	0.00e+00	0	40	0	1270874112	57	4121
2026-01-20 22:56:17.17	103.55	30.20	-43.1	-44.0	20.9	0.00e+00	0	40	0	1274019840	57	4092
2026-01-20 22:56:18.18	103.89	30.15	-43.2	-44.1	20.9	0.00e+00	0	40	0	1277165568	57	4115
2026-01-20 22:56:19.19	104.23	30.11	-43.3	-44.2	20.8	0.00e+00	0	40	0	1280311296	57	4162
2026-01-20 22:56:20.20	104.56	30.06	-43.3	-44.2	20.8	0.00e+00	0	40	0	1283457024	57	4172
2026-01-20 22:56:21.21	104.90	30.02	-43.1	-44.0	20.9	0.00e+00	0	40	0	1286602752	57	4093
2026-01-20 22:56:22.22	105.23	29.97	-42.9	-43.8	21.2	0.00e+00	0	40	0	1289748480	57	3978
2026-01-20 22:56:23.22	105.57	29.92	-43.0	-43.9	21.1	0.00e+00	0	40	0	1292894208	57	4005
2026-01-20 22:56:24.23	105.90	29.87	-42.8	-43.7	21.2	0.00e+00	0	40	0	1296039936	57	3951
2026-01-20 22:56:25.24	106.23	29.82	-42.8	-43.7	21.2	0.00e+00	0	40	0	1299185664	57	3949
2026-01-20 22:56:26.25	106.56	29.77	-43.0	-43.9	21.1	0.00e+00	0	40	0	1302331392	57	4005
2026-01-20 22:56:27.26	106.89	29.72	-42.9	-43.7	21.2	0.00e+00	0	40	0	1305477120	57	3956
2026-01-20 22:56:28.26	107.22	29.67	-42.8	-43.7	21.2	0.00e+00	0	40	0	1308622848	57	3934
2026-01-20 22:56:29.27	107.55	29.62	-42.7	-43.6	21.3	0.00e+00	0	40	0	1311768576	57	3878
2026-01-20 22:56:30.28	107.87	29.56	-42.7	-43.5	21.3	0.00e+00	0	40	0	1314914304	57	3858
2026-01-20 22:56:31.29	108.20	29.51	-42.7	-43.6	21.3	0.00e+00	0	40	0	1318060032	57	3874
2026-01-20 22:56:32.30	108.52	29.45	-42.7	-43.6	21.3	0.00e+00	0	40	0	1321205760	57	3882
2026-01-20 22:56:33.31	108.85	29.39	-42.8	-43.7	21.2	0.00e+00	0	40	0	1324351488	57	3933
2026-01-20 22:56:34.32	109.17	29.34	-42.8	-43.7	21.2	0.00e+00	0	40	0	1327497216	57	3946
2026-01-20 22:56:35.32	109.49	29.28	-42.8	-43.7	21.2	0.00e+00	0	40	0	1330642944	57	3948
2026-01-20 22:56:36.33	109.81	29.22	-42.9	-43.7	21.1	0.00e+00	0	40	0	1333788672	57	3957
2026-01-20 22:56:37.34	110.13	29.16	-42.7	-43.6	21.2	0.00e+00	0	40	0	1336934400	57	3887
2026-01-20 22:56:38.35	110.44	29.10	-42.8	-43.7	21.2	0.00e+00	0	40	0	1340080128	57	3945
2026-01-20 22:56:39.35	110.76	29.03	-42.7	-43.6	21.3	0.00e+00	0	40	0	1343225856	57	3889
2026-01-20 22:56:40.36	111.07	28.97	-42.7	-43.6	21.3	0.00e+00	0	40	0	1346371584	57	3890
2026-01-20 22:56:41.37	111.39	28.91	-42.8	-43.7	21.2	0.00e+00	0	40	0	1349517312	57	3941
2026-01-20 22:56:42.38	111.70	28.84	-43.0	-43.9	21.0	0.00e+00	0	40	0	1352663040	57	4020
2026-01-20 22:56:43.39	112.01	28.78	-42.8	-43.7	21.2	0.00e+00	0	40	0	1355808768	57	3949
2026-01-20 22:56:44.40	112.32	28.71	-42.9	-43.7	21.2	0.00e+00	0	40	0	1358954496	57	3958
2026-01-20 22:56:45.40	112.63	28.65	-43.0	-43.9	21.1	0.00e+00	0	40	0	1362100224	57	4031
2026-01-20 22:56:46.41	112.94	28.58	-42.9	-43.9	21.1	0.00e+00	0	40	0	1365245952	57	4005
2026-01-20 22:56:47.42	113.24	28.51	-42.8	-43.6	21.3	0.00e+00	0	40	0	1368391680	57	3906
2026-01-20 22:56:48.43	113.55	28.44	-42.8	-43.7	21.2	0.00e+00	0	40	0	1371537408	57	3951
2026-01-20 22:56:49.44	113.85	28.37	-42.8	-43.7	21.2	0.00e+00	0	40	0	1374683136	57	3940
2026-01-20 22:56:50.45	114.16	28.30	-42.7	-43.6	21.3	0.00e+00	0	40	0	1377828864	57	3903
2026-01-20 22:56:51.46	114.46	28.23	-42.8	-43.7	21.2	0.00e+00	0	40	0	1380974592	57	3938
2026-01-20 22:56:52.47	114.76	28.16	-42.7	-43.6	21.3	0.00e+00	0	40	0	1384120320	57	3896
2026-01-20 22:56:53.48	115.06	28.09	-42.8	-43.7	21.2	0.00e+00	0	40	0	1387266048	57	3937
2026-01-20 22:56:54.49	115.36	28.02	-42.9	-43.8	21.2	0.00e+00	0	40	0	1390411776	57	3961
2026-01-20 22:56:55.49	115.65	27.94	-42.9	-43.8	21.1	0.00e+00	0	40	0	1393557504	57	3980
2026-01-20 22:56:56.50	115.94	27.87	-43.0	-43.9	21.0	0.00e+00	0	40	0	1396703232	57	4012
2026-01-20 22:56:57.51	116.24	27.79	-42.9	-43.7	21.1	0.00e+00	0	40	0	1399848960	57	3958
2026-01-20 22:56:58.52	116.53	27.72	-42.6	-43.5	21.4	0.00e+00	0	40	0	1402994688	57	3829
2026-01-20 22:56:59.53	116.82	27.64	-42.5	-43.4	21.4	0.00e+00	0	40	0	1406140416	57	3783
2026-01-20 22:57:00.54	117.11	27.57	-42.7	-43.6	21.2	0.00e+00	0	40	0	1409286144	57	3884
2026-01-20 22:57:01.55	117.40	27.49	-42.7	-43.6	21.2	0.00e+00	0	40	0	1412431872	57	3897
2026-01-20 22:57:02.56	117.69	27.41	-42.7	-43.6	21.3	0.00e+00	0	40	0	1415577600	57	3894
2026-01-20 22:57:03.56	117.97	27.34	-42.7	-43.5	21.3	0.00e+00	0	40	0	1418723328	57	3861
2026-01-20 22:57:04.57	118.25	27.26	-42.5	-43.4	21.4	0.00e+00	0	40	0	1421869056	57	3806
2026-01-20 22:57:05.58	118.54	27.18	-42.6	-43.4	21.4	0.00e+00	0	40	0	1425014784	56	4039
2026-01-20 22:57:06.59	118.82	27.10	-42.6	-43.4	21.4	0.00e+00	0	40	0	1428160512	56	4040
2026-01-20 22:57:07.59	119.10	27.02	-42.6	-43.5	21.4	0.00e+00	0	40	0	1431306240	56	4052
2026-01-20 22:57:08.60	119.38	26.94	-42.5	-43.4	21.4	0.00e+00	0	40	0	1434451968	56	4007
2026-01-20 22:57:09.61	119.65	26.86	-42.3	-43.2	21.6	0.00e+00	0	40	0	1437597696	56	3923
2026-01-20 22:57:10.62	119.93	26.78	-42.3	-43.2	21.5	0.00e+00	0	40	0	1440743424	56	3927
2026-01-20 22:57:11.63	120.20	26.70	-42.3	-43.2	21.6	0.00e+00	0	40	0	1443889152	56	3920
2026-01-20 22:57:12.63	120.47	26.61	-42.4	-43.3	21.5	0.00e+00	0	40	0	1447034880	56	3973
2026-01-20 22:57:13.64	120.75	26.53	-42.5	-43.4	21.4	0.00e+00	0	40	0	1450180608	56	4030
2026-01-20 22:57:14.65	121.02	26.45	-42.2	-43.1	21.7	0.00e+00	0	40	0	1453326336	56	3884
2026-01-20 22:57:15.66	121.29	26.36	-42.0	-42.9	21.9	0.00e+00	0	40	0	1456472064	56	3787
2026-01-20 22:57:16.67	121.55	26.28	-41.8	-42.6	22.0	0.00e+00	0	40	0	1459617792	55	3898
2026-01-20 22:57:17.67	121.82	26.20	-41.6	-42.4	22.1	0.00e+00	0	40	0	1462763520	55	3815
2026-01-20 22:57:18.68	122.08	26.11	-41.6	-42.4	22.0	0.00e+00	0	40	0	1465909248	55	3799
2026-01-20 22:57:19.69	122.35	26.03	-41.8	-42.6	21.8	0.00e+00	0	40	0	1469054976	55	3892
2026-01-20 22:57:20.70	122.61	25.94	-42.0	-42.8	21.7	0.00e+00	0	40	0	1472200704	55	3980
2026-01-20 22:57:21.71	122.87	25.86	-42.1	-42.9	21.7	0.00e+00	0	40	0	1475346432	55	4035
2026-01-20 22:57:22.72	123.13	25.77	-42.1	-42.9	21.7	0.00e+00	0	40	0	1478492160	55	4024
2026-01-20 22:57:23.73	123.39	25.68	-42.0	-42.9	21.8	0.00e+00	0	40	0	1481637888	55	4012
2026-01-20 22:57:24.73	123.64	25.60	-42.0	-42.8	21.8	0.00e+00	0	40	0	1484783616	55	4004
2026-01-20 22:57:25.74	123.90	25.51	-42.0	-42.8	21.8	0.00e+00	0	40	0	1487929344	55	4000
2026-01-20 22:57:26.75	124.15	25.42	-42.1	-43.0	21.7	0.00e+00	0	40	0	1491075072	55	4064
2026-01-20 22:57:27.76	124.40	25.34	-42.2	-43.0	21.6	0.00e+00	0	40	0	1494220800	55	4088
2026-01-20 22:57:28.77	124.66	25.25	-42.2	-43.1	21.6	0.00e+00	0	40	0	1497366528	55	4116
2026-01-20 22:57:29.78	124.91	25.16	-42.1	-43.0	21.7	0.00e+00	0	40	0	1500512256	55	4055
2026-01-20 22:57:30.78	125.15	25.07	-42.2	-43.0	21.6	0.00e+00	0	40	0	1503657984	55	4077
2026-01-20 22:57:31.79	125.40	24.98	-42.2	-43.1	21.5	0.00e+00	0	40	0	1506803712	55	4123
2026-01-20 22:57:32.80	125.64	24.90	-42.3	-43.1	21.5	0.00e+00	0	40	0	1509949440	55	4135
2026-01-20 22:57:33.81	125.89	24.81	-42.4	-43.3	21.3	0.00e+00	0	40	0	1513095168	55	4219
2026-01-20 22:57:34.82	126.13	24.72	-42.2	-43.0	21.6	0.00e+00	0	40	0	1517289472	55	4090
2026-01-20 22:57:35.83	126.37	24.63	-42.1	-42.9	21.6	0.00e+00	0	40	0	1520435200	55	4051
2026-01-20 22:57:36.84	126.62	24.54	-42.0	-42.9	21.7	0.00e+00	0	40	0	1523580928	55	4011
2026-01-20 22:57:37.85	126.85	24.45	-42.1	-42.9	21.7	0.00e+00	0	40	0	1526726656	55	4049
2026-01-20 22:57:38.86	127.09	24.36	-42.0	-42.9	21.7	0.00e+00	0	40	0	1528823808	55	4009
2026-01-20 22:57:39.86	127.33	24.27	-42.0	-42.9	21.7	0.00e+00	0	40	0	1531969536	55	4013
2026-01-20 22:57:40.87	127.56	24.18	-42.1	-42.9	21.7	0.00e+00	0	40	0	1535115264	55	4040
2026-01-20 22:57:41.88	127.80	24.09	-42.0	-42.9	21.7	0.00e+00	0	40	0	1538260992	55	4017
2026-01-20 22:57:42.89	128.03	23.99	-41.9	-42.7	21.8	0.00e+00	0	40	0	1541406720	55	3949
2026-01-20 22:57:43.90	128.26	23.90	-42.1	-42.9	21.6	0.00e+00	0	40	0	1544552448	55	4043
2026-01-20 22:57:44.91	128.49	23.81	-42.0	-42.8	21.8	0.00e+00	0	40	0	1547698176	55	3979
2026-01-20 22:57:45.92	128.72	23.72	-41.8	-42.6	21.9	0.00e+00	0	40	0	1550843904	55	3899
2026-01-20 22:57:46.92	128.94	23.63	-41.9	-42.7	21.8	0.00e+00	0	40	0	1553989632	55	3930
2026-01-20 22:57:47.93	129.17	23.54	-41.9	-42.7	21.8	0.00e+00	0	40	0	1558183936	55	3939
2026-01-20 22:57:48.94	129.39	23.45	-41.9	-42.7	21.7	0.00e+00	0	40	0	1561329664	55	3954
2026-01-20 22:57:49.94	129.62	23.36	-42.0	-42.9	21.7	0.00e+00	0	40	0	1564475392	55	4017
2026-01-20 22:57:50.95	129.84	23.26	-42.1	-42.9	21.6	0.00e+00	0	40	0	1567621120	55	4026
2026-01-20 22:57:51.96	130.06	23.17	-42.2	-43.1	21.4	0.00e+00	0	40	0	1570766848	55	4114
2026-01-20 22:57:52.97	130.28	23.08	-42.4	-43.3	21.2	0.00e+00	0	40	0	1573912576	55	4201
2026-01-20 22:57:53.98	130.50	22.99	-42.5	-43.4	21.2	0.00e+00	0	40	0	1576009728	55	4250
2026-01-20 22:57:54.99	130.72	22.89	-42.5	-43.3	21.2	0.00e+00	0	40	0	1579155456	55	4241
2026-01-20 22:57:56.00	130.93	22.80	-42.4	-43.3	21.2	0.00e+00	0	40	0	1582301184	55	4202
2026-01-20 22:57:57.01	131.15	22.71	-42.4	-43.2	21.3	0.00e+00	0	40	0	1585446912	55	4190
2026-01-20 22:57:58.01	131.36	22.62	-42.3	-43.2	21.4	0.00e+00	0	40	0	1588592640	55	4159
2026-01-20 22:57:59.02	131.57	22.52	-42.2	-43.1	21.4	0.00e+00	0	40	0	1592786944	55	4113
2026-01-20 22:58:00.03	131.78	22.43	-42.2	-43.0	21.4	0.00e+00	0	40	0	1595932672	55	4089
2026-01-20 22:58:01.04	131.99	22.34	-42.2	-43.1	21.3	0.00e+00	0	40	0	1599078400	55	4126
2026-01-20 22:58:02.05	132.20	22.25	-42.1	-42.9	21.5	0.00e+00	0	40	0	1602224128	55	4038
2026-01-20 22:58:03.05	132.40	22.15	-42.2	-43.1	21.4	0.00e+00	0	40	0	1605369856	55	4103
2026-01-20 22:58:04.06	132.61	22.06	-42.0	-42.9	21.6	0.00e+00	0	40	0	1608515584	55	4014
2026-01-20 22:58:05.07	132.82	21.97	-42.1	-42.9	21.5	0.00e+00	0	40	0	1611661312	55	4049
2026-01-20 22:58:06.08	133.02	21.87	-42.0	-42.8	21.6	0.00e+00	0	40	0	1614807040	55	3982
2026-01-20 22:58:07.09	133.22	21.78	-42.0	-42.8	21.6	0.00e+00	0	40	0	1617952768	55	3999
2026-01-20 22:58:08.09	133.42	21.69	-42.0	-42.9	21.6	0.00e+00	0	40	0	1621098496	55	4010
2026-01-20 22:58:09.10	133.62	21.60	-42.0	-42.8	21.6	0.00e+00	0	40	0	1623195648	55	3983
2026-01-20 22:58:10.11	133.82	21.50	-41.9	-42.8	21.6	0.00e+00	0	40	0	1626341376	55	3966
2026-01-20 22:58:11.12	134.02	21.41	-42.0	-42.8	21.6	0.00e+00	0	40	0	1629487104	55	3978
2026-01-20 22:58:12.13	134.22	21.32	-42.0	-42.8	21.6	0.00e+00	0	40	0	1633681408	55	3993
2026-01-20 22:58:13.14	134.41	21.22	-41.9	-42.8	21.6	0.00e+00	0	40	0	1636827136	55	3968
2026-01-20 22:58:14.15	134.61	21.13	-42.0	-42.8	21.6	0.00e+00	0	40	0	1639972864	55	3980
2026-01-20 22:58:15.16	134.80	21.04	-41.9	-42.7	21.7	0.00e+00	0	40	0	1643118592	55	3930
2026-01-20 22:58:16.17	134.99	20.94	-42.0	-42.8	21.6	0.00e+00	0	40	0	1646264320	55	3978
2026-01-20 22:58:17.17	135.18	20.85	-42.0	-42.8	21.6	0.00e+00	0	40	0	1649410048	55	4002
2026-01-20 22:58:18.18	135.37	20.76	-42.0	-42.8	21.6	0.00e+00	0	40	0	1652555776	55	3981
2026-01-20 22:58:19.19	135.56	20.67	-42.0	-42.9	21.6	0.00e+00	0	40	0	1655701504	55	4005
2026-01-20 22:58:20.20	135.75	20.57	-42.2	-43.0	21.4	0.00e+00	0	40	0	1658847232	55	4084
2026-01-20 22:58:21.21	135.93	20.48	-42.1	-43.0	21.4	0.00e+00	0	40	0	1661992960	55	4077
2026-01-20 22:58:22.21	136.12	20.39	-42.3	-43.1	21.3	0.00e+00	0	40	0	1665138688	55	4138
2026-01-20 22:58:23.22	136.30	20.30	-42.5	-43.3	21.1	0.00e+00	0	40	0	1668284416	55	4242
2026-01-20 22:58:24.23	136.49	20.20	-42.4	-43.3	21.2	0.00e+00	0	40	0	1671430144	55	4199
2026-01-20 22:58:25.24	136.67	20.11	-42.4	-43.2	21.2	0.00e+00	0	40	0	1674575872	55	4189
2026-01-20 22:58:26.25	136.85	20.02	-42.4	-43.3	21.1	0.00e+00	0	40	0	1677721600	55	4195
2026-01-20 22:58:27.26	137.03	19.93	-42.5	-43.4	21.1	0.00e+00	0	40	0	1680867328	55	4247
2026-01-20 22:58:28.26	137.21	19.83	-42.4	-43.3	21.2	0.00e+00	0	40	0	1684013056	55	4196
2026-01-20 22:58:29.27	137.39	19.74	-42.3	-43.2	21.2	0.00e+00	0	40	0	1687158784	55	4170
2026-01-20 22:58:30.28	137.56	19.65	-42.3	-43.1	21.3	0.00e+00	0	40	0	1690304512	55	4144
2026-01-20 22:58:31.29	137.74	19.56	-42.3	-43.2	21.2	0.00e+00	0	40	0	1693450240	55	4174
2026-01-20 22:58:32.29	137.91	19.47	-42.3	-43.2	21.3	0.00e+00	0	40	0	1696595968	55	4158
2026-01-20 22:58:33.30	138.09	19.37	-42.2	-43.1	21.3	0.00e+00	0	40	0	1699741696	55	4124
2026-01-20 22:58:34.31	138.26	19.28	-42.2	-43.1	21.3	0.00e+00	0	40	0	1702887424	55	4118
2026-01-20 22:58:35.32	138.43	19.19	-42.1	-42.9	21.4	0.00e+00	0	40	0	1706033152	55	4043
2026-01-20 22:58:36.33	138.60	19.10	-42.1	-42.9	21.5	0.00e+00	0	40	0	1709178880	55	4047
2026-01-20 22:58:37.33	138.77	19.01	-42.2	-43.0	21.4	0.00e+00	0	40	0	1712324608	55	4094
2026-01-20 22:58:38.34	138.94	18.92	-42.2	-43.0	21.5	0.00e+00	0	40	0	1715470336	55	4084
2026-01-20 22:58:39.35	139.11	18.82	-42.2	-43.1	21.3	0.00e+00	0	40	0	1718616064	55	4107
2026-01-20 22:58:40.36	139.28	18.73	-42.3	-43.2	21.2	0.00e+00	0	40	0	1721761792	55	4176
2026-01-20 22:58:41.37	139.44	18.64	-42.2	-43.1	21.3	0.00e+00	0	40	0	1724907520	55	4120
2026-01-20 22:58:42.38	139.61	18.55	-42.3	-43.1	21.3	0.00e+00	0	40	0	1728053248	55	4139
2026-01-20 22:58:43.39	139.77	18.46	-42.3	-43.1	21.3	0.00e+00	0	40	0	1731198976	55	4138
2026-01-20 22:58:44.39	139.93	18.37	-42.1	-43.0	21.4	0.00e+00	0	40	0	1734344704	55	4063
2026-01-20 22:58:45.40	140.10	18.28	-42.1	-43.0	21.4	0.00e+00	0	40	0	1737490432	55	4060
2026-01-20 22:58:46.41	140.26	18.19	-42.3	-43.2	21.2	0.00e+00	0	40	0	1740636160	55	4177
2026-01-20 22:58:47.42	140.42	18.10	-42.2	-43.0	21.4	0.00e+00	0	40	0	1743781888	55	4080
2026-01-20 22:58:48.43	140.58	18.01	-42.2	-43.0	21.3	0.00e+00	0	40	0	1746927616	55	4091
2026-01-20 22:58:49.43	140.74	17.92	-42.1	-43.0	21.3	0.00e+00	0	40	0	1750073344	55	4077
2026-01-20 22:58:50.44	140.89	17.83	-42.1	-43.0	21.3	0.00e+00	0	40	0	1753219072	55	4070
2026-01-20 22:58:51.45	141.05	17.74	-42.2	-43.0	21.3	0.00e+00	0	40	0	1756364800	55	4088
2026-01-20 22:58:52.46	141.21	17.65	-42.2	-43.0	21.4	0.00e+00	0	40	0	1759510528	55	4083
2026-01-20 22:58:53.47	141.36	17.56	-42.2	-43.0	21.3	0.00e+00	0	40	0	1762656256	55	4090
2026-01-20 22:58:54.48	141.52	17.47	-42.3	-43.1	21.2	0.00e+00	0	40	0	1765801984	55	4133
2026-01-20 22:58:55.49	141.67	17.38	-42.3	-43.1	21.3	0.00e+00	0	40	0	1768947712	55	4141
2026-01-20 22:58:56.49	141.82	17.29	-42.3	-43.2	21.1	0.00e+00	0	40	0	1772093440	55	4167
2026-01-20 22:58:57.50	141.97	17.20	-42.4	-43.3	21.1	0.00e+00	0	40	0	1775239168	55	4199
2026-01-20 22:58:58.51	142.12	17.11	-42.3	-43.2	21.2	0.00e+00	0	40	0	1778384896	55	4147
2026-01-20 22:58:59.52	142.27	17.02	-42.2	-43.0	21.3	0.00e+00	0	40	0	1781530624	55	4088
2026-01-20 22:59:00.53	142.42	16.93	-42.2	-43.0	21.3	0.00e+00	0	40	0	1784676352	55	4094
2026-01-20 22:59:01.53	142.57	16.84	-42.3	-43.2	21.2	0.00e+00	0	40	0	1787822080	55	4183
2026-01-20 22:59:02.54	142.71	16.76	-42.5	-43.4	21.0	0.00e+00	0	40	0	1790967808	55	4281
2026-01-20 22:59:03.55	142.86	16.67	-42.5	-43.4	20.9	0.00e+00	0	40	0	1794113536	55	4282
2026-01-20 22:59:04.56	143.01	16.58	-42.6	-43.5	20.9	0.00e+00	0	40	0	1797259264	55	4335
2026-01-20 22:59:05.57	143.15	16.49	-42.8	-43.7	20.8	0.00e+00	0	40	0	1800404992	56	4163
2026-01-20 22:59:06.58	143.30	16.40	-42.8	-43.8	20.7	0.00e+00	0	40	0	1803550720	56	4202
2026-01-20 22:59:07.59	143.44	16.31	-42.8	-43.7	20.7	0.00e+00	0	40	0	1806696448	56	4190
2026-01-20 22:59:08.59	143.58	16.23	-42.7	-43.6	20.9	0.00e+00	0	40	0	1809842176	56	4120
2026-01-20 22:59:09.60	143.72	16.14	-42.8	-43.7	20.8	0.00e+00	0	40	0	1812987904	56	4191
2026-01-20 22:59:10.61	143.86	16.05	-42.9	-43.8	20.7	0.00e+00	0	40	0	1816133632	56	4224
2026-01-20 22:59:11.62	144.00	15.96	-42.9	-43.9	20.6	0.00e+00	0	40	0	1819279360	56	4265
2026-01-20 22:59:12.63	144.14	15.88	-43.0	-43.9	20.6	0.00e+00	0	40	0	1822425088	56	4272
2026-01-20 22:59:13.64	144.28	15.79	-43.1	-44.1	20.5	0.00e+00	0	40	0	1825570816	56	4361
2026-01-20 22:59:14.65	144.42	15.70	-43.1	-44.1	20.5	0.00e+00	0	40	0	1828716544	56	4341
2026-01-20 22:59:15.65	144.55	15.62	-43.2	-44.2	20.4	0.00e+00	0	40	0	1831862272	57	4147
2026-01-20 22:59:16.66	144.69	15.53	-43.4	-44.4	20.2	0.00e+00	0	40	0	1835008000	57	4253
2026-01-20 22:59:17.67	144.82	15.45	-43.3	-44.3	20.2	0.00e+00	0	40	0	1838153728	57	4224
2026-01-20 22:59:18.68	144.96	15.36	-43.3	-44.3	20.3	0.00e+00	0	40	0	1841299456	57	4221
2026-01-20 22:59:19.69	145.09	15.27	-43.2	-44.2	20.4	0.00e+00	0	40	0	1844445184	57	4159
2026-01-20 22:59:20.69	145.23	15.19	-43.3	-44.2	20.3	0.00e+00	0	40	0	1847590912	57	4188
2026-01-20 22:59:21.70	145.36	15.10	-43.3	-44.3	20.2	0.00e+00	0	40	0	1850736640	57	4232
2026-01-20 22:59:22.71	145.49	15.02	-43.4	-44.4	20.1	0.00e+00	0	40	0	1853882368	57	4243
2026-01-20 22:59:23.72	145.62	14.93	-43.4	-44.4	20.1	0.00e+00	0	40	0	1857028096	57	4259
2026-01-20 22:59:24.73	145.75	14.85	-43.4	-44.4	20.1	0.00e+00	0	40	0	1860173824	57	4285
2026-01-20 22:59:25.74	145.88	14.76	-43.6	-44.6	20.0	0.00e+00	0	40	0	1863319552	57	4355
2026-01-20 22:59:26.74	146.01	14.68	-43.6	-44.6	19.9	0.00e+00	0	40	0	1866465280	57	4388
2026-01-20 22:59:27.75	146.14	14.59	-43.7	-44.7	19.8	0.00e+00	0	40	0	1869611008	58	4187
2026-01-20 22:59:28.76	146.26	14.51	-43.6	-44.7	19.8	0.00e+00	0	40	0	1872756736	58	4158
2026-01-20 22:59:29.77	146.39	14.42	-43.8	-44.8	19.7	0.00e+00	0	40	0	1875902464	58	4234
2026-01-20 22:59:30.77	146.51	14.34	-43.8	-44.8	19.8	0.00e+00	0	40	0	1879048192	58	4241
2026-01-20 22:59:31.78	146.64	14.26	-43.6	-44.6	20.0	0.00e+00	0	40	0	1882193920	58	4103
2026-01-20 22:59:32.79	146.77	14.17	-43.5	-44.5	20.1	0.00e+00	0	40	0	1885339648	58	4070
2026-01-20 22:59:33.80	146.89	14.09	-43.5	-44.5	20.0	0.00e+00	0	40	0	1888485376	58	4068
2026-01-20 22:59:34.80	147.01	14.00	-43.5	-44.5	20.0	0.00e+00	0	40	0	1891631104	58	4081
2026-01-20 22:59:35.81	147.13	13.92	-43.5	-44.5	20.0	0.00e+00	0	40	0	1894776832	58	4080
2026-01-20 22:59:36.82	147.26	13.84	-43.5	-44.5	20.0	0.00e+00	0	40	0	1897922560	58	4071
2026-01-20 22:59:37.83	147.38	13.76	-43.6	-44.7	19.9	0.00e+00	0	40	0	1901068288	58	4154
2026-01-20 22:59:38.84	147.50	13.67	-43.5	-44.5	20.0	0.00e+00	0	40	0	1904214016	58	4088
2026-01-20 22:59:39.85	147.62	13.59	-43.7	-44.7	19.9	0.00e+00	0	40	0	1907359744	58	4158
2026-01-20 22:59:40.85	147.74	13.51	-43.7	-44.8	19.7	0.00e+00	0	40	0	1910505472	58	4206
2026-01-20 22:59:41.86	147.86	13.43	-43.8	-44.8	19.7	0.00e+00	0	40	0	1913651200	58	4220
2026-01-20 22:59:42.87	147.97	13.34	-43.8	-44.8	19.7	0.00e+00	0	40	0	1916796928	58	4233
2026-01-20 22:59:43.88	148.09	13.26	-43.8	-44.9	19.7	0.00e+00	0	40	0	1919942656	58	4246
2026-01-20 22:59:44.89	148.21	13.18	-43.8	-44.9	19.6	0.00e+00	0	40	0	1923088384	58	4268
2026-01-20 22:59:45.89	148.32	13.10	-43.8	-44.9	19.7	0.00e+00	0	40	0	1926234112	58	4247
2026-01-20 22:59:46.90	148.44	13.02	-43.8	-44.8	19.7	0.00e+00	0	40	0	1929379840	58	4224
2026-01-20 22:59:47.91	148.55	12.93	-43.8	-44.9	19.7	0.00e+00	0	40	0	1932525568	58	4253
2026-01-20 22:59:48.92	148.67	12.85	-43.6	-44.6	19.9	0.00e+00	0	40	0	1935671296	58	4112
2026-01-20 22:59:49.93	148.78	12.77	-43.7	-44.7	19.8	0.00e+00	0	40	0	1938817024	58	4183
2026-01-20 22:59:50.93	148.89	12.69	-43.7	-44.7	19.7	0.00e+00	0	40	0	1941962752	58	4192
2026-01-20 22:59:51.94	149.01	12.61	-43.4	-44.4	20.0	0.00e+00	0	40	0	1945108480	58	4034
2026-01-20 22:59:52.95	149.12	12.53	-43.5	-44.5	19.9	0.00e+00	0	40	0	1948254208	58	4086
2026-01-20 22:59:53.96	149.23	12.45	-43.5	-44.5	19.9	0.00e+00	0	40	0	1951399936	58	4054
2026-01-20 22:59:54.97	149.34	12.37	-43.5	-44.5	19.9	0.00e+00	0	40	0	1954545664	58	4073
2026-01-20 22:59:55.98	149.45	12.29	-43.5	-44.5	19.9	0.00e+00	0	40	0	1957691392	58	4083
2026-01-20 22:59:56.98	149.56	12.21	-43.6	-44.7	19.8	0.00e+00	0	40	0	1960837120	58	4148
2026-01-20 22:59:57.99	149.67	12.13	-43.6	-44.6	19.8	0.00e+00	0	40	0	1963982848	58	4115
2026-01-20 22:59:59.00	149.78	12.05	-43.5	-44.5	19.9	0.00e+00	0	40	0	1967128576	58	4098
2026-01-20 23:00:00.01	149.89	11.97	-43.6	-44.6	19.9	0.00e+00	0	40	0	1970274304	58	4109
2026-01-20 23:00:01.02	149.99	11.89	-43.7	-44.8	19.7	0.00e+00	0	40	0	1973420032	58	4214
2026-01-20 23:00:02.02	150.10	11.82	-43.8	-44.9	19.6	0.00e+00	0	40	0	1976565760	58	4245
2026-01-20 23:00:03.03	150.21	11.74	-43.9	-45.0	19.5	0.00e+00	0	40	0	1979711488	58	4305
2026-01-20 23:00:04.04	150.31	11.66	-43.9	-45.0	19.5	0.00e+00	0	40	0	1982857216	58	4301
2026-01-20 23:00:05.04	150.42	11.58	-43.9	-44.9	19.5	0.00e+00	0	40	0	1986002944	58	4279
2026-01-20 23:00:06.05	150.52	11.50	-43.9	-45.0	19.5	0.00e+00	0	40	0	1989148672	58	4315
2026-01-20 23:00:07.06	150.63	11.42	-44.0	-45.0	19.4	0.00e+00	0	40	0	1992294400	58	4330
2026-01-20 23:00:08.07	150.73	11.35	-44.0	-45.1	19.4	0.00e+00	0	40	0	1995440128	58	4344
2026-01-20 23:00:09.08	150.83	11.27	-43.9	-45.0	19.5	0.00e+00	0	40	0	1998585856	58	4292
2026-01-20 23:00:10.09	150.94	11.19	-43.9	-45.0	19.5	0.00e+00	0	40	0	2001731584	58	4309
2026-01-20 23:00:11.09	151.04	11.11	-44.0	-45.1	19.4	0.00e+00	0	40	0	2004877312	58	4344
2026-01-20 23:00:12.10	151.14	11.04	-44.0	-45.0	19.4	0.00e+00	0	40	0	2008023040	58	4337
2026-01-20 23:00:13.11	151.24	10.96	-43.9	-44.9	19.5	0.00e+00	0	40	0	2011168768	58	4282
2026-01-20 23:00:14.12	151.34	10.88	-43.9	-45.0	19.4	0.00e+00	0	40	0	2014314496	58	4309
2026-01-20 23:00:15.13	151.44	10.80	-43.9	-44.9	19.4	0.00e+00	0	40	0	2017460224	58	4268
2026-01-20 23:00:16.14	151.54	10.73	-43.9	-45.0	19.4	0.00e+00	0	40	0	2020605952	58	4306
2026-01-20 23:00:17.15	151.64	10.65	-43.8	-44.8	19.5	0.00e+00	0	40	0	2023751680	58	4234
2026-01-20 23:00:18.16	151.74	10.57	-43.9	-44.9	19.5	0.00e+00	0	40	0	2026897408	58	4285
2026-01-20 23:00:19.16	151.84	10.50	-43.9	-45.0	19.4	0.00e+00	0	40	0	2030043136	58	4315
2026-01-20 23:00:20.17	151.93	10.42	-43.8	-44.9	19.4	0.00e+00	0	40	0	2033188864	58	4256
2026-01-20 23:00:21.18	152.03	10.35	-43.9	-45.0	19.4	0.00e+00	0	40	0	2036334592	58	4310
2026-01-20 23:00:22.19	152.13	10.27	-43.9	-45.0	19.4	0.00e+00	0	40	0	2039480320	58	4306
2026-01-20 23:00:23.20	152.22	10.20	-43.8	-44.8	19.6	0.00e+00	0	40	0	2042626048	58	4228
2026-01-20 23:00:24.20	152.32	10.12	-43.8	-44.8	19.5	0.00e+00	0	40	0	2045771776	58	4240
