passes_logs/2026/01/20/R3.2S_Murmansk/R3.2S_Murmansk__20260120_053002_AQUA_rec.log

#Pass ID: 20260120_053002_AQUA
#Satellite: AQUA
#Configuration: AQUA
#almurnet v.1.7.20251203
#Start time: 2026-01-20 05:30:03

#Version: 2.2.20231116
#Station: R3.2S_Murmansk
#Location: 33.079688 lon 68.888172 lat
#TLE: 1 27424U 02022A   26019.27629806  .00001032  00000+0  21655-3 0  9990
#TLE: 2 27424  98.4090 345.7756 0001997  73.0764  31.8912 14.61830109261513

#Time	Az	El	Level	Level2	SNR	BER	BlckErr	Temp	State	Recorded	gain1	gain2
2026-01-20 05:30:03.48	41.15	2.06	-53.3	-71.1	3.8	7.46e-01	0	36	0	0	78	27578
2026-01-20 05:30:04.49	41.08	2.12	-53.3	-71.1	3.8	7.43e-01	0	36	104	0	77	29071
2026-01-20 05:30:05.49	41.00	2.18	-53.3	-71.0	3.8	7.45e-01	0	37	104	0	77	28755
2026-01-20 05:30:06.50	40.93	2.24	-53.3	-70.8	3.8	7.44e-01	0	36	104	0	77	28323
2026-01-20 05:30:07.51	40.85	2.30	-53.3	-70.8	3.8	7.46e-01	0	37	104	0	77	28048
2026-01-20 05:30:08.52	40.78	2.36	-53.3	-70.7	3.8	7.48e-01	0	37	104	0	77	27931
2026-01-20 05:30:09.53	40.71	2.42	-53.3	-70.6	3.8	7.46e-01	0	37	104	0	77	27677
2026-01-20 05:30:10.53	40.63	2.48	-53.3	-70.7	3.8	7.46e-01	0	37	104	0	77	27784
2026-01-20 05:30:11.54	40.55	2.54	-53.3	-70.9	3.8	7.45e-01	0	37	104	0	77	28416
2026-01-20 05:30:12.55	40.48	2.60	-53.3	-70.9	3.8	7.43e-01	0	37	104	0	77	28436
2026-01-20 05:30:13.56	40.40	2.66	-53.3	-71.0	3.8	7.46e-01	0	37	104	0	77	28915
2026-01-20 05:30:14.57	40.33	2.72	-53.3	-71.0	3.8	7.46e-01	0	37	104	0	77	28980
2026-01-20 05:30:15.57	40.25	2.78	-53.3	-71.1	3.8	7.44e-01	0	37	104	0	77	29079
2026-01-20 05:30:16.58	40.17	2.84	-53.3	-71.1	3.8	7.44e-01	0	37	104	0	77	29229
2026-01-20 05:30:17.59	40.09	2.90	-53.3	-71.1	3.8	7.46e-01	0	37	104	0	77	29209
2026-01-20 05:30:18.60	40.01	2.96	-53.3	-71.0	3.8	7.48e-01	0	37	104	0	77	28904
2026-01-20 05:30:19.61	39.94	3.02	-53.3	-70.9	3.8	7.45e-01	0	37	104	0	77	28665
2026-01-20 05:30:20.61	39.86	3.08	-53.3	-70.8	3.8	7.44e-01	0	37	104	0	77	28105
2026-01-20 05:30:21.62	39.78	3.14	-53.3	-70.7	3.8	7.46e-01	0	37	104	0	77	27908
2026-01-20 05:30:22.63	39.70	3.20	-53.3	-70.6	3.8	7.45e-01	0	37	104	0	77	27515
2026-01-20 05:30:23.64	39.62	3.26	-53.3	-70.6	3.8	7.46e-01	0	37	104	0	77	27529
2026-01-20 05:30:24.65	39.54	3.32	-53.3	-70.6	3.8	7.46e-01	0	37	104	0	77	27642
2026-01-20 05:30:25.65	39.46	3.38	-53.3	-70.9	3.8	7.45e-01	0	37	104	0	77	28355
2026-01-20 05:30:26.66	39.38	3.44	-53.3	-70.6	3.8	7.44e-01	0	37	104	0	77	27699
2026-01-20 05:30:27.67	39.29	3.50	-53.3	-70.5	3.8	7.44e-01	0	37	104	0	77	27282
2026-01-20 05:30:28.68	39.21	3.57	-53.3	-70.4	3.8	7.47e-01	0	37	104	0	77	26853
2026-01-20 05:30:29.69	39.13	3.63	-53.3	-70.2	3.8	7.40e-01	0	37	104	0	77	26294
2026-01-20 05:30:30.70	39.05	3.69	-53.3	-70.1	3.8	7.47e-01	0	37	104	0	77	26074
2026-01-20 05:30:31.70	38.97	3.75	-53.3	-70.2	3.8	7.45e-01	0	37	104	0	77	26406
2026-01-20 05:30:32.71	38.88	3.81	-53.3	-70.5	3.8	7.42e-01	0	37	104	0	77	27112
2026-01-20 05:30:33.72	38.80	3.87	-53.3	-70.8	3.8	7.47e-01	0	37	104	0	77	28209
2026-01-20 05:30:34.73	38.71	3.94	-53.3	-71.1	3.8	7.45e-01	0	37	104	0	77	29042
2026-01-20 05:30:35.73	38.63	4.00	-53.3	-71.0	3.8	7.47e-01	0	37	104	0	77	28865
2026-01-20 05:30:36.74	38.54	4.06	-53.3	-70.2	3.8	7.42e-01	0	37	104	0	77	26360
2026-01-20 05:30:37.75	38.46	4.12	-53.2	-68.9	3.9	7.44e-01	0	37	104	0	77	22731
2026-01-20 05:30:38.75	38.37	4.18	-53.1	-66.4	4.6	7.19e-01	0	37	104	0	77	16943
2026-01-20 05:30:39.76	38.29	4.25	-53.0	-64.7	5.5	6.95e-01	0	38	0	0	77	13998
2026-01-20 05:30:40.77	38.20	4.31	-52.9	-63.2	6.6	6.70e-01	183	37	0	1048576	77	11806
2026-01-20 05:30:41.78	38.11	4.37	-52.8	-62.1	7.7	6.48e-01	183	38	0	3145728	77	10320
2026-01-20 05:30:42.79	38.02	4.43	-52.6	-61.1	8.7	6.36e-01	7	38	0	5242880	77	9276
2026-01-20 05:30:43.79	37.94	4.50	-52.5	-60.4	9.5	6.28e-01	0	37	0	6815744	77	8556
2026-01-20 05:30:44.80	37.85	4.56	-52.4	-59.8	10.1	6.21e-01	0	38	0	8912896	76	8419
2026-01-20 05:30:45.81	37.76	4.62	-52.3	-59.6	10.4	6.18e-01	0	37	0	10485760	76	8193
2026-01-20 05:30:46.82	37.67	4.69	-52.4	-60.2	9.7	6.22e-01	0	38	0	12582912	76	8788
2026-01-20 05:30:47.83	37.58	4.75	-52.3	-59.7	10.3	6.19e-01	0	38	0	14680064	76	8295
2026-01-20 05:30:48.84	37.49	4.81	-52.5	-60.5	9.4	6.26e-01	0	38	0	16252928	76	9128
2026-01-20 05:30:49.85	37.40	4.88	-52.6	-61.0	8.8	6.34e-01	0	38	0	18350080	76	9683
2026-01-20 05:30:50.85	37.31	4.94	-52.7	-61.6	8.3	6.40e-01	49	38	0	19922944	76	10306
2026-01-20 05:30:51.86	37.22	5.00	-52.7	-62.0	7.9	6.47e-01	180	38	0	22020096	76	10810
2026-01-20 05:30:52.87	37.12	5.07	-49.8	-52.7	17.4	6.03e-01	0	38	0	23592960	71	4941
2026-01-20 05:30:53.88	37.03	5.13	-51.7	-56.9	13.5	6.05e-01	0	38	0	25690112	73	7140
2026-01-20 05:30:54.88	36.94	5.19	-53.0	-68.6	3.8	7.44e-01	0	38	104	27262976	76	23236
2026-01-20 05:30:55.89	36.84	5.26	-50.7	-54.3	15.8	6.04e-01	0	38	0	27787264	73	5315
2026-01-20 05:30:56.90	36.75	5.32	-53.0	-62.3	8.0	6.49e-01	127	38	0	29884416	76	11285
2026-01-20 05:30:57.91	36.66	5.39	-50.6	-54.2	16.2	6.04e-01	0	38	0	31457280	73	5223
2026-01-20 05:30:58.92	36.56	5.45	-50.1	-53.3	17.2	6.06e-01	0	38	0	33554432	72	5009
2026-01-20 05:30:59.93	36.47	5.52	-50.1	-53.2	17.4	6.00e-01	0	38	0	35127296	72	4950
2026-01-20 05:31:00.93	36.37	5.58	-49.7	-52.6	18.0	6.02e-01	0	38	0	37224448	71	4909
2026-01-20 05:31:01.94	36.27	5.64	-49.5	-52.1	18.5	6.02e-01	0	38	0	39321600	70	4923
2026-01-20 05:31:02.95	36.18	5.71	-49.0	-51.4	19.3	6.03e-01	0	38	0	40894464	70	4542
2026-01-20 05:31:03.96	36.08	5.77	-48.6	-50.9	19.8	6.04e-01	0	38	0	42991616	69	4503
2026-01-20 05:31:04.96	35.98	5.84	-48.0	-50.0	20.7	6.01e-01	0	38	0	44564480	68	4320
2026-01-20 05:31:05.97	35.88	5.90	-47.5	-49.3	21.4	6.03e-01	0	38	0	46661632	66	4485
2026-01-20 05:31:06.98	35.78	5.97	-47.4	-49.3	21.6	6.04e-01	0	38	0	48758784	66	4450
2026-01-20 05:31:07.99	35.69	6.03	-47.4	-49.2	21.6	6.03e-01	0	38	0	50331648	66	4435
2026-01-20 05:31:08.99	35.59	6.10	-47.5	-49.3	21.5	6.06e-01	0	38	0	52428800	66	4482
2026-01-20 05:31:10.00	35.49	6.16	-47.3	-49.0	21.8	6.04e-01	0	38	0	54525952	66	4332
2026-01-20 05:31:11.01	35.38	6.23	-47.4	-49.2	21.7	6.05e-01	0	38	0	56098816	66	4395
2026-01-20 05:31:12.02	35.28	6.30	-47.4	-49.3	21.6	6.04e-01	0	38	0	58195968	66	4457
2026-01-20 05:31:13.03	35.18	6.36	-47.5	-49.4	21.5	6.02e-01	0	38	0	59768832	66	4506
2026-01-20 05:31:14.03	35.08	6.43	-47.2	-49.0	21.9	6.02e-01	0	38	0	61865984	66	4301
2026-01-20 05:31:15.04	34.98	6.49	-47.2	-48.9	22.0	6.04e-01	0	38	0	63438848	66	4288
2026-01-20 05:31:16.05	34.87	6.56	-47.1	-48.9	22.0	6.01e-01	0	38	0	65536000	66	4257
2026-01-20 05:31:17.06	34.77	6.63	-47.4	-49.1	21.8	6.02e-01	0	38	0	67633152	66	4385
2026-01-20 05:31:18.07	34.66	6.69	-47.4	-49.2	21.7	6.04e-01	0	38	0	69206016	66	4418
2026-01-20 05:31:19.07	34.56	6.76	-47.1	-48.8	21.7	6.05e-01	0	38	0	71303168	66	4229
2026-01-20 05:31:20.08	34.45	6.82	-47.1	-48.8	22.1	6.04e-01	0	38	0	73400320	66	4234
2026-01-20 05:31:21.09	34.35	6.89	-47.1	-48.8	22.1	6.05e-01	0	38	0	74973184	66	4238
2026-01-20 05:31:22.10	34.24	6.96	-47.1	-48.9	22.1	6.04e-01	0	38	0	77070336	66	4252
2026-01-20 05:31:23.10	34.14	7.02	-46.9	-48.6	22.3	6.03e-01	0	38	0	78643200	65	4381
2026-01-20 05:31:24.11	34.03	7.09	-47.0	-48.7	22.2	6.02e-01	0	38	0	80740352	65	4402
2026-01-20 05:31:25.12	33.92	7.16	-46.9	-48.5	22.5	6.02e-01	0	38	0	82837504	65	4324
2026-01-20 05:31:26.13	33.81	7.23	-46.9	-48.6	22.4	6.03e-01	0	38	0	84410368	65	4350
2026-01-20 05:31:27.14	33.70	7.29	-46.8	-48.5	22.5	6.03e-01	0	38	0	86507520	65	4295
2026-01-20 05:31:28.14	33.59	7.36	-46.8	-48.5	22.5	6.06e-01	0	38	0	88080384	65	4308
2026-01-20 05:31:29.15	33.48	7.43	-47.0	-48.7	22.2	6.02e-01	0	38	0	90177536	65	4438
2026-01-20 05:31:30.16	33.37	7.50	-47.0	-48.6	22.3	6.02e-01	0	38	0	91750400	65	4384
2026-01-20 05:31:31.17	33.26	7.56	-46.9	-48.5	22.5	6.02e-01	0	38	0	93847552	65	4329
2026-01-20 05:31:32.17	33.15	7.63	-46.9	-48.5	22.5	6.01e-01	0	38	0	95944704	65	4333
2026-01-20 05:31:33.18	33.03	7.70	-47.0	-48.7	22.3	6.04e-01	0	38	0	97517568	65	4401
2026-01-20 05:31:34.19	32.92	7.77	-46.8	-48.5	22.5	6.04e-01	0	38	0	99614720	65	4292
2026-01-20 05:31:35.20	32.80	7.84	-46.8	-48.4	22.6	6.03e-01	0	38	0	101711872	65	4271
2026-01-20 05:31:36.21	32.69	7.90	-46.8	-48.4	22.6	6.03e-01	0	38	0	103284736	65	4291
2026-01-20 05:31:37.21	32.58	7.97	-46.7	-48.3	22.7	6.05e-01	0	38	0	105381888	65	4231
2026-01-20 05:31:38.22	32.46	8.04	-46.7	-48.4	22.6	6.02e-01	0	38	0	106954752	65	4250
2026-01-20 05:31:39.23	32.34	8.11	-46.8	-48.4	22.7	6.03e-01	0	38	0	109051904	65	4264
2026-01-20 05:31:40.24	32.23	8.18	-46.8	-48.4	22.7	6.06e-01	0	38	0	111149056	65	4253
2026-01-20 05:31:41.25	32.11	8.25	-46.9	-48.5	22.6	6.08e-01	0	38	0	112721920	65	4313
2026-01-20 05:31:42.26	31.99	8.31	-46.8	-48.4	22.6	6.03e-01	0	38	0	114819072	65	4262
2026-01-20 05:31:43.26	31.87	8.38	-46.7	-48.3	22.7	6.02e-01	0	38	0	116391936	65	4213
2026-01-20 05:31:44.27	31.75	8.45	-47.1	-48.8	22.3	6.03e-01	0	38	0	118489088	65	4460
2026-01-20 05:31:45.28	31.63	8.52	-46.9	-48.5	22.6	6.02e-01	0	38	0	120586240	65	4314
2026-01-20 05:31:46.29	31.51	8.59	-46.8	-48.4	22.7	6.02e-01	0	38	0	122159104	65	4250
2026-01-20 05:31:47.29	31.39	8.66	-46.7	-48.3	22.7	6.03e-01	0	38	0	124256256	65	4236
2026-01-20 05:31:48.30	31.27	8.73	-46.9	-48.5	22.6	6.00e-01	0	38	0	125829120	65	4330
2026-01-20 05:31:49.31	31.14	8.80	-46.9	-48.5	22.6	6.06e-01	0	38	0	127926272	65	4332
2026-01-20 05:31:50.31	31.02	8.87	-46.7	-48.3	22.7	6.02e-01	0	38	0	130023424	65	4241
2026-01-20 05:31:51.32	30.90	8.94	-46.6	-48.1	23.0	6.04e-01	0	38	0	131596288	65	4142
2026-01-20 05:31:52.33	30.77	9.01	-46.7	-48.3	22.9	6.06e-01	0	38	0	133693440	65	4194
2026-01-20 05:31:53.34	30.65	9.08	-46.8	-48.4	22.8	6.02e-01	0	38	0	135266304	65	4243
2026-01-20 05:31:54.35	30.52	9.15	-46.6	-48.2	23.0	6.04e-01	0	38	0	137363456	65	4177
2026-01-20 05:31:55.36	30.39	9.22	-46.6	-48.1	23.0	6.03e-01	0	38	0	139460608	65	4135
2026-01-20 05:31:56.37	30.27	9.29	-46.6	-48.1	23.0	6.04e-01	0	38	0	141033472	64	4379
2026-01-20 05:31:57.37	30.14	9.36	-46.7	-48.3	22.8	6.02e-01	0	38	0	143130624	64	4447
2026-01-20 05:31:58.38	30.01	9.43	-46.6	-48.2	23.0	6.02e-01	0	38	0	145227776	64	4401
2026-01-20 05:31:59.39	29.88	9.50	-46.5	-48.0	23.1	6.02e-01	0	38	0	146800640	64	4325
2026-01-20 05:32:00.40	29.75	9.57	-46.4	-48.0	23.1	6.05e-01	0	38	0	148897792	64	4301
2026-01-20 05:32:01.41	29.62	9.64	-46.4	-47.9	23.2	6.02e-01	0	38	0	150470656	64	4273
2026-01-20 05:32:02.41	29.49	9.71	-46.4	-47.9	23.2	6.05e-01	0	38	0	152567808	64	4273
2026-01-20 05:32:03.42	29.36	9.78	-46.3	-47.8	23.3	6.04e-01	0	38	0	154140672	64	4226
2026-01-20 05:32:04.43	29.22	9.85	-46.3	-47.8	23.3	6.02e-01	0	38	0	156237824	64	4231
2026-01-20 05:32:05.44	29.09	9.92	-46.4	-47.9	23.2	6.04e-01	0	38	0	158334976	64	4286
2026-01-20 05:32:06.45	28.95	9.99	-46.3	-47.9	23.2	6.03e-01	0	38	0	159907840	64	4246
2026-01-20 05:32:07.45	28.82	10.06	-46.2	-47.7	23.5	6.04e-01	0	38	0	162004992	64	4158
2026-01-20 05:32:08.46	28.68	10.13	-46.3	-47.7	23.4	6.03e-01	0	38	0	163577856	64	4188
2026-01-20 05:32:09.47	28.55	10.20	-46.1	-47.6	23.5	6.03e-01	0	38	0	165675008	64	4128
2026-01-20 05:32:10.48	28.41	10.28	-46.1	-47.5	23.6	6.04e-01	0	38	0	167772160	64	4086
2026-01-20 05:32:11.49	28.27	10.35	-46.1	-47.5	23.6	6.03e-01	0	38	0	169345024	64	4097
2026-01-20 05:32:12.49	28.13	10.42	-46.1	-47.6	23.5	6.03e-01	0	38	0	171442176	64	4137
2026-01-20 05:32:13.50	27.99	10.49	-46.1	-47.6	23.5	6.04e-01	0	38	0	173539328	64	4128
2026-01-20 05:32:14.51	27.85	10.56	-46.2	-47.7	23.5	6.03e-01	0	38	0	175112192	64	4151
2026-01-20 05:32:15.52	27.71	10.63	-46.2	-47.7	23.5	6.04e-01	0	38	0	177209344	64	4155
2026-01-20 05:32:16.52	27.57	10.70	-46.1	-47.5	23.6	6.02e-01	0	38	0	178782208	64	4097
2026-01-20 05:32:17.53	27.43	10.78	-46.4	-47.9	23.3	6.02e-01	0	38	0	180879360	64	4259
2026-01-20 05:32:18.54	27.28	10.85	-46.3	-47.7	23.4	6.04e-01	0	38	0	182452224	64	4190
2026-01-20 05:32:19.55	27.14	10.92	-46.2	-47.7	23.5	6.05e-01	0	38	0	184549376	64	4174
2026-01-20 05:32:20.55	26.99	10.99	-46.2	-47.7	23.5	6.05e-01	0	38	0	186646528	64	4148
2026-01-20 05:32:21.56	26.85	11.06	-46.2	-47.7	23.5	6.04e-01	0	38	0	188219392	64	4151
2026-01-20 05:32:22.57	26.70	11.14	-46.1	-47.6	23.6	6.05e-01	0	38	0	190316544	64	4102
2026-01-20 05:32:23.58	26.55	11.21	-46.1	-47.6	23.6	6.03e-01	0	38	0	192413696	64	4118
2026-01-20 05:32:24.59	26.41	11.28	-46.1	-47.6	23.6	6.00e-01	0	38	0	193986560	64	4101
2026-01-20 05:32:25.59	26.26	11.35	-46.1	-47.6	23.6	6.03e-01	0	38	0	196083712	64	4112
2026-01-20 05:32:26.60	26.11	11.42	-46.1	-47.5	23.6	6.04e-01	0	38	0	197656576	64	4089
2026-01-20 05:32:27.61	25.96	11.50	-46.0	-47.5	23.8	6.02e-01	0	38	0	199753728	63	4305
2026-01-20 05:32:28.62	25.81	11.57	-46.1	-47.6	23.7	6.02e-01	0	38	0	201850880	63	4349
2026-01-20 05:32:29.63	25.65	11.64	-46.1	-47.6	23.7	6.03e-01	0	38	0	203423744	63	4358
2026-01-20 05:32:30.64	25.50	11.72	-46.3	-47.7	23.6	6.04e-01	0	38	0	205520896	63	4431
2026-01-20 05:32:31.64	25.35	11.79	-46.1	-47.5	23.7	6.02e-01	0	38	0	207093760	63	4334
2026-01-20 05:32:32.65	25.19	11.86	-46.0	-47.5	23.8	6.04e-01	0	38	0	209190912	63	4303
2026-01-20 05:32:33.66	25.04	11.93	-46.0	-47.5	23.8	6.02e-01	0	38	0	210763776	63	4302
2026-01-20 05:32:34.67	24.88	12.01	-45.9	-47.3	24.0	6.02e-01	0	38	0	212860928	63	4217
2026-01-20 05:32:35.67	24.72	12.08	-45.8	-47.2	24.1	6.04e-01	0	38	0	214958080	63	4153
2026-01-20 05:32:36.68	24.57	12.15	-45.9	-47.3	24.0	6.04e-01	0	38	0	217055232	63	4242
2026-01-20 05:32:37.69	24.41	12.22	-46.1	-47.5	23.8	6.04e-01	0	38	0	218628096	63	4336
2026-01-20 05:32:38.70	24.25	12.30	-46.1	-47.5	23.9	6.03e-01	0	38	0	220725248	63	4309
2026-01-20 05:32:39.70	24.09	12.37	-46.1	-47.5	23.9	6.03e-01	0	38	0	222298112	63	4340
2026-01-20 05:32:40.71	23.92	12.44	-46.3	-47.7	23.7	6.03e-01	0	38	0	224395264	63	4428
2026-01-20 05:32:41.72	23.76	12.51	-46.4	-47.8	23.6	6.03e-01	0	38	0	225968128	63	4481
2026-01-20 05:32:42.72	23.60	12.59	-46.2	-47.7	23.7	6.04e-01	0	38	0	228065280	63	4406
2026-01-20 05:32:43.73	23.44	12.66	-46.2	-47.7	23.7	6.04e-01	0	38	0	230162432	63	4396
2026-01-20 05:32:44.74	23.27	12.73	-46.2	-47.6	23.8	6.04e-01	0	38	0	231735296	63	4368
2026-01-20 05:32:45.75	23.10	12.81	-46.1	-47.5	23.9	6.03e-01	0	38	0	233832448	63	4323
2026-01-20 05:32:46.75	22.94	12.88	-45.8	-47.1	24.3	6.01e-01	0	38	0	235405312	63	4131
2026-01-20 05:32:47.76	22.77	12.95	-45.8	-47.1	24.2	6.02e-01	0	38	0	237502464	63	4128
2026-01-20 05:32:48.77	22.60	13.02	-45.7	-47.1	24.2	6.03e-01	0	38	0	239075328	63	4105
2026-01-20 05:32:49.78	22.43	13.10	-45.8	-47.1	24.2	6.03e-01	0	38	0	241172480	63	4145
2026-01-20 05:32:50.79	22.26	13.17	-45.8	-47.2	24.2	6.03e-01	0	38	0	243269632	63	4183
2026-01-20 05:32:51.80	22.09	13.24	-45.9	-47.3	24.0	6.03e-01	0	38	0	245366784	63	4230
2026-01-20 05:32:52.80	21.92	13.32	-46.1	-47.5	23.9	6.00e-01	0	38	0	246939648	63	4329
2026-01-20 05:32:53.81	21.74	13.39	-45.9	-47.3	24.1	6.06e-01	0	38	0	249036800	63	4218
2026-01-20 05:32:54.82	21.57	13.46	-45.9	-47.3	24.1	6.02e-01	0	38	0	250609664	63	4227
2026-01-20 05:32:55.83	21.39	13.54	-46.1	-47.5	23.9	6.03e-01	0	38	0	252706816	63	4305
2026-01-20 05:32:56.83	21.22	13.61	-45.8	-47.2	24.2	6.03e-01	0	38	0	254279680	63	4180
2026-01-20 05:32:57.84	21.04	13.68	-45.8	-47.2	24.2	6.03e-01	0	38	0	256376832	63	4186
2026-01-20 05:32:58.85	20.86	13.76	-45.9	-47.3	24.1	6.02e-01	0	38	0	258473984	63	4229
2026-01-20 05:32:59.85	20.69	13.83	-46.0	-47.4	24.0	6.05e-01	0	38	0	260046848	63	4252
2026-01-20 05:33:00.86	20.50	13.90	-46.0	-47.4	24.1	6.04e-01	0	38	0	262144000	63	4270
2026-01-20 05:33:01.87	20.32	13.97	-46.0	-47.4	24.1	6.04e-01	0	38	0	263716864	63	4277
2026-01-20 05:33:02.88	20.14	14.05	-45.8	-47.2	24.2	6.03e-01	0	38	0	265814016	63	4176
2026-01-20 05:33:03.89	19.96	14.12	-45.9	-47.3	24.1	6.04e-01	0	38	0	267911168	63	4217
2026-01-20 05:33:04.90	19.77	14.19	-45.7	-47.0	24.3	6.02e-01	0	38	0	269484032	63	4093
2026-01-20 05:33:05.90	19.59	14.26	-45.7	-47.1	24.3	6.04e-01	0	38	0	271581184	63	4105
2026-01-20 05:33:06.91	19.40	14.34	-45.8	-47.2	24.3	6.03e-01	0	38	0	273678336	63	4166
2026-01-20 05:33:07.92	19.22	14.41	-45.9	-47.3	24.2	6.02e-01	0	38	0	275251200	63	4208
2026-01-20 05:33:08.93	19.03	14.48	-45.9	-47.2	24.3	6.02e-01	0	38	0	277348352	63	4187
2026-01-20 05:33:09.93	18.84	14.55	-45.8	-47.1	24.4	6.02e-01	0	38	0	278921216	63	4128
2026-01-20 05:33:10.94	18.65	14.63	-45.7	-47.0	24.4	6.04e-01	0	38	0	281018368	63	4091
2026-01-20 05:33:11.95	18.46	14.70	-45.9	-47.2	24.3	6.03e-01	0	38	0	282591232	63	4184
2026-01-20 05:33:12.96	18.27	14.77	-45.8	-47.2	24.3	6.02e-01	0	38	0	284688384	63	4148
2026-01-20 05:33:13.97	18.07	14.85	-45.7	-47.1	24.5	6.04e-01	0	38	0	286785536	63	4100
2026-01-20 05:33:14.97	17.88	14.92	-45.6	-46.9	24.5	6.03e-01	0	38	0	288358400	63	4034
2026-01-20 05:33:15.98	17.69	14.99	-45.7	-47.0	24.5	6.02e-01	0	38	0	290455552	63	4081
2026-01-20 05:33:16.99	17.49	15.06	-45.8	-47.2	24.4	6.05e-01	0	38	0	292552704	63	4146
2026-01-20 05:33:18.00	17.29	15.13	-45.7	-47.1	24.4	6.04e-01	0	38	0	294125568	63	4121
2026-01-20 05:33:19.01	17.10	15.21	-45.8	-47.2	24.3	6.03e-01	0	38	0	296222720	63	4162
2026-01-20 05:33:20.01	16.90	15.28	-45.8	-47.2	24.3	6.02e-01	0	38	0	297795584	63	4171
2026-01-20 05:33:21.02	16.70	15.35	-45.8	-47.2	24.3	6.03e-01	0	38	0	299892736	63	4165
2026-01-20 05:33:22.03	16.50	15.42	-46.0	-47.4	24.1	6.04e-01	0	38	0	301989888	63	4278
2026-01-20 05:33:23.04	16.29	15.49	-46.0	-47.3	24.2	6.03e-01	0	38	0	303562752	63	4238
2026-01-20 05:33:24.05	16.09	15.56	-45.8	-47.1	24.4	6.00e-01	0	38	0	305659904	63	4136
2026-01-20 05:33:25.05	15.89	15.63	-45.8	-47.2	24.3	6.02e-01	0	38	0	307232768	63	4154
2026-01-20 05:33:26.06	15.68	15.70	-45.8	-47.1	24.4	6.03e-01	0	38	0	309329920	63	4127
2026-01-20 05:33:27.07	15.48	15.78	-45.8	-47.1	24.4	6.03e-01	0	38	0	310902784	63	4134
2026-01-20 05:33:28.08	15.27	15.85	-45.6	-47.0	24.5	6.04e-01	0	38	0	312999936	63	4061
2026-01-20 05:33:29.09	15.06	15.92	-45.6	-47.0	24.6	6.04e-01	0	38	0	315097088	63	4056
2026-01-20 05:33:30.09	14.85	15.99	-45.8	-47.1	24.4	6.05e-01	0	38	0	317194240	63	4124
2026-01-20 05:33:31.10	14.64	16.06	-45.8	-47.2	24.4	6.03e-01	0	38	0	318767104	63	4149
2026-01-20 05:33:32.11	14.43	16.13	-45.9	-47.3	24.2	6.02e-01	0	38	0	320864256	63	4227
2026-01-20 05:33:33.12	14.21	16.20	-46.4	-57.3	3.8	7.44e-01	0	38	104	320864256	63	13302
2026-01-20 05:33:34.13	14.00	16.27	-46.4	-57.4	3.8	7.48e-01	0	38	104	320864256	63	13453
2026-01-20 05:33:35.13	13.79	16.34	-46.2	-57.2	3.8	7.45e-01	0	38	104	320864256	63	13154
2026-01-20 05:33:36.14	13.57	16.41	-50.6	-62.5	3.8	7.44e-01	0	38	104	320864256	71	15263
2026-01-20 05:33:37.15	13.35	16.48	-54.4	-71.6	3.8	7.45e-01	0	38	104	320864256	79	27413
2026-01-20 05:33:38.16	13.14	16.55	-49.4	-60.8	3.8	7.42e-01	0	38	104	320864256	70	13382
2026-01-20 05:33:39.17	12.92	16.62	-53.6	-68.4	3.8	7.42e-01	0	38	104	320864256	77	21286
2026-01-20 05:33:40.17	12.70	16.68	-49.3	-60.8	3.8	7.47e-01	0	38	104	320864256	70	13398
2026-01-20 05:33:41.18	12.48	16.75	-48.7	-60.0	3.9	7.42e-01	0	38	104	320864256	69	12837
2026-01-20 05:33:42.19	12.25	16.82	-48.6	-59.7	4.3	7.26e-01	0	38	104	320864256	68	13187
2026-01-20 05:33:43.20	12.03	16.89	-51.1	-63.4	3.8	7.48e-01	0	38	104	320864256	74	14297
2026-01-20 05:33:44.21	11.80	16.96	-51.2	-63.3	4.1	7.39e-01	0	38	104	320864256	72	15831
2026-01-20 05:33:45.21	11.58	17.02	-54.4	-71.2	3.8	7.42e-01	0	38	104	320864256	79	26387
2026-01-20 05:33:46.22	11.35	17.09	-49.3	-60.7	3.8	7.43e-01	0	38	104	320864256	70	13189
2026-01-20 05:33:47.23	11.12	17.16	-53.4	-67.9	3.8	7.42e-01	0	38	104	320864256	77	20202
2026-01-20 05:33:48.23	10.90	17.23	-49.6	-60.9	4.1	7.37e-01	0	38	104	320864256	71	12742
2026-01-20 05:33:49.24	10.67	17.29	-49.5	-61.0	3.8	7.46e-01	0	38	104	320864256	70	13705
2026-01-20 05:33:50.25	10.44	17.36	-49.2	-60.7	3.8	7.42e-01	0	38	104	320864256	70	13189
2026-01-20 05:33:51.26	10.20	17.43	-50.6	-62.7	3.8	7.42e-01	0	38	104	320864256	73	13952
2026-01-20 05:33:52.27	9.97	17.49	-51.1	-63.3	3.8	7.43e-01	0	38	104	320864256	72	15833
2026-01-20 05:33:53.27	9.74	17.56	-54.4	-71.1	3.8	7.46e-01	0	38	104	320864256	79	26096
2026-01-20 05:33:54.28	9.50	17.62	-49.2	-60.7	3.8	7.43e-01	0	38	104	320864256	70	13154
2026-01-20 05:33:55.29	9.26	17.69	-53.0	-66.9	3.8	7.42e-01	0	38	104	320864256	77	17891
2026-01-20 05:33:56.30	9.02	17.75	-49.3	-60.8	3.8	7.41e-01	0	38	104	320864256	70	13292
2026-01-20 05:33:57.31	8.79	17.82	-48.4	-59.6	3.8	7.46e-01	0	38	104	320864256	68	13047
2026-01-20 05:33:58.31	8.55	17.88	-47.7	-58.8	3.8	7.43e-01	0	38	104	320864256	67	12556
2026-01-20 05:33:59.32	8.31	17.95	-49.1	-60.5	3.9	7.47e-01	0	38	104	320864256	70	12935
2026-01-20 05:34:00.33	8.06	18.01	-51.7	-64.2	3.8	7.45e-01	0	38	104	320864256	73	16586
2026-01-20 05:34:01.34	7.82	18.07	-54.2	-70.5	3.8	7.44e-01	0	38	104	320864256	79	24389
2026-01-20 05:34:02.34	7.58	18.14	-49.3	-60.8	3.9	7.45e-01	0	38	104	320864256	70	13288
2026-01-20 05:34:03.35	7.33	18.20	-52.9	-66.7	3.8	7.45e-01	0	38	104	320864256	77	17493
2026-01-20 05:34:04.36	7.08	18.26	-49.3	-60.7	3.8	7.47e-01	0	38	104	320864256	70	13254
2026-01-20 05:34:05.37	6.84	18.32	-48.6	-59.9	3.8	7.44e-01	0	38	104	320864256	69	12708
2026-01-20 05:34:06.38	6.59	18.38	-47.9	-59.0	3.8	7.40e-01	0	38	104	320864256	67	12944
2026-01-20 05:34:07.39	6.34	18.45	-48.4	-59.5	3.8	7.43e-01	0	38	104	320864256	68	12936
2026-01-20 05:34:08.40	6.09	18.51	-52.4	-65.5	3.8	7.44e-01	0	38	104	320864256	75	17236
2026-01-20 05:34:09.40	5.84	18.57	-53.7	-68.7	3.9	7.43e-01	0	38	104	320864256	79	19734
2026-01-20 05:34:10.41	5.58	18.63	-49.4	-60.9	3.8	7.43e-01	0	38	104	320864256	70	13560
2026-01-20 05:34:11.42	5.33	18.69	-51.9	-64.8	3.9	7.42e-01	0	38	104	320864256	76	14915
2026-01-20 05:34:12.43	5.07	18.75	-49.1	-60.5	3.8	7.46e-01	0	38	104	320864256	70	12845
2026-01-20 05:34:13.43	4.82	18.80	-48.9	-60.3	3.8	7.42e-01	0	38	104	320864256	69	13343
2026-01-20 05:34:14.44	4.56	18.86	-48.8	-60.1	3.8	7.45e-01	0	38	104	320864256	68	13753
2026-01-20 05:34:15.45	4.30	18.92	-49.2	-60.7	3.8	7.46e-01	0	38	104	320864256	70	13249
2026-01-20 05:34:16.46	4.04	18.98	-52.4	-65.5	3.8	7.47e-01	0	38	104	320864256	75	17116
2026-01-20 05:34:17.47	3.78	19.04	-53.7	-68.6	3.9	7.42e-01	0	38	104	320864256	79	19492
2026-01-20 05:34:18.47	3.52	19.09	-49.2	-60.7	3.8	7.45e-01	0	38	104	320864256	70	13158
2026-01-20 05:34:19.48	3.26	19.15	-50.6	-62.7	3.9	7.42e-01	0	38	104	320864256	73	13907
2026-01-20 05:34:20.49	3.00	19.20	-48.9	-60.2	3.8	7.46e-01	0	38	104	320864256	69	13235
2026-01-20 05:34:21.50	2.73	19.26	-48.0	-59.2	3.8	7.42e-01	0	38	104	320864256	68	12485
2026-01-20 05:34:22.50	2.47	19.31	-48.5	-59.8	3.8	7.48e-01	0	38	104	320864256	67	14125
2026-01-20 05:34:23.51	2.20	19.37	-48.1	-59.3	3.8	7.44e-01	0	38	104	320864256	68	12645
2026-01-20 05:34:24.52	1.93	19.42	-53.1	-66.8	3.8	7.45e-01	0	38	104	320864256	76	18838
2026-01-20 05:34:25.53	1.66	19.48	-52.5	-66.0	3.8	7.41e-01	0	38	104	320864256	77	16135
2026-01-20 05:34:26.54	1.39	19.53	-49.9	-61.7	3.8	7.43e-01	0	38	104	320864256	70	14831
2026-01-20 05:34:27.55	1.12	19.58	-50.6	-62.6	3.8	7.44e-01	0	38	104	320864256	73	13803
2026-01-20 05:34:28.55	0.85	19.63	-49.0	-60.4	3.8	7.45e-01	0	38	104	320864256	70	12714
2026-01-20 05:34:29.56	0.58	19.68	-48.5	-59.8	3.8	7.46e-01	0	38	104	320864256	69	12607
2026-01-20 05:34:30.57	0.31	19.73	-49.4	-61.0	3.8	7.43e-01	0	38	104	320864256	69	14465
2026-01-20 05:34:31.58	0.03	19.78	-48.6	-59.9	3.8	7.46e-01	0	38	104	320864256	69	12773
2026-01-20 05:34:32.59	359.76	19.83	-53.8	-68.9	3.8	7.46e-01	0	38	104	320864256	78	21453
2026-01-20 05:34:33.59	359.48	19.88	-51.4	-63.6	3.9	7.45e-01	0	38	104	320864256	74	14582
2026-01-20 05:34:34.60	359.21	19.93	-50.7	-62.6	3.8	7.46e-01	0	38	104	320864256	71	15482
2026-01-20 05:34:35.61	358.93	19.98	-49.1	-60.6	3.9	7.46e-01	0	38	104	320864256	70	12991
2026-01-20 05:34:36.62	358.65	20.03	-48.9	-60.2	3.8	7.45e-01	0	38	104	320864256	69	13252
2026-01-20 05:34:37.62	358.37	20.07	-48.6	-59.9	3.8	7.42e-01	0	38	104	320864256	69	12730
2026-01-20 05:34:38.63	358.09	20.12	-51.3	-64.0	3.8	7.44e-01	0	38	104	320864256	73	16191
2026-01-20 05:34:39.64	357.81	20.16	-48.3	-59.5	3.9	7.48e-01	0	38	104	320864256	68	12943
2026-01-20 05:34:40.65	357.52	20.21	-53.8	-68.9	3.8	7.47e-01	0	38	104	320864256	78	21395
2026-01-20 05:34:41.65	357.24	20.25	-51.3	-63.6	3.9	7.44e-01	0	38	104	320864256	74	14592
2026-01-20 05:34:42.66	356.96	20.30	-50.5	-62.4	3.8	7.44e-01	0	38	104	320864256	71	15094
2026-01-20 05:34:43.67	356.67	20.34	-49.4	-61.0	3.8	7.43e-01	0	38	104	320864256	71	12836
2026-01-20 05:34:44.68	356.39	20.38	-48.8	-60.2	3.8	7.41e-01	0	38	104	320864256	69	13110
2026-01-20 05:34:45.68	356.10	20.42	-48.4	-59.7	3.8	7.49e-01	0	38	104	320864256	68	13129
2026-01-20 05:34:46.69	355.81	20.47	-52.4	-65.6	3.8	7.48e-01	0	38	104	320864256	75	17345
2026-01-20 05:34:47.70	355.52	20.51	-48.3	-59.4	3.8	7.45e-01	0	38	104	320864256	68	12783
2026-01-20 05:34:48.71	355.23	20.55	-54.2	-69.9	3.8	7.44e-01	0	38	104	320864256	78	24044
2026-01-20 05:34:49.72	354.94	20.58	-50.6	-62.6	3.9	7.43e-01	0	38	104	320864256	73	13808
2026-01-20 05:34:50.72	354.65	20.62	-51.4	-63.8	3.8	7.49e-01	0	38	104	320864256	73	15883
2026-01-20 05:34:51.73	354.36	20.66	-49.5	-61.0	3.8	7.44e-01	0	38	104	320864256	71	12893
2026-01-20 05:34:52.74	354.07	20.70	-49.0	-60.4	3.8	7.41e-01	0	38	104	320864256	70	12792
2026-01-20 05:34:53.75	353.78	20.73	-48.7	-60.0	3.8	7.45e-01	0	38	104	320864256	69	12912
2026-01-20 05:34:54.75	353.48	20.77	-49.9	-61.6	3.8	7.47e-01	0	38	104	320864256	70	14641
2026-01-20 05:34:55.76	353.19	20.80	-48.3	-59.5	3.8	7.42e-01	0	38	104	320864256	68	12883
2026-01-20 05:34:56.77	352.89	20.84	-54.2	-69.8	3.8	7.45e-01	0	38	104	320864256	78	23739
2026-01-20 05:34:57.77	352.60	20.87	-50.5	-62.4	3.9	7.47e-01	0	38	104	320864256	73	13466
2026-01-20 05:34:58.78	352.30	20.90	-52.1	-65.0	3.8	7.45e-01	0	38	104	320864256	74	17141
2026-01-20 05:34:59.79	352.00	20.94	-49.2	-60.7	3.8	7.42e-01	0	39	104	320864256	70	13135
2026-01-20 05:35:00.80	351.71	20.97	-49.2	-60.6	3.8	7.44e-01	0	39	104	320864256	70	13094
2026-01-20 05:35:01.81	351.41	21.00	-48.5	-59.8	3.8	7.41e-01	0	39	104	320864256	69	12621
2026-01-20 05:35:02.81	351.11	21.03	-49.0	-60.4	3.8	7.46e-01	0	38	104	320864256	68	14238
2026-01-20 05:35:03.82	350.81	21.06	-48.4	-59.7	3.8	7.45e-01	0	38	104	320864256	67	13946
2026-01-20 05:35:04.83	350.51	21.09	-54.4	-70.8	3.8	7.45e-01	0	38	104	320864256	79	25205
2026-01-20 05:35:05.84	350.21	21.11	-50.0	-61.7	3.8	7.45e-01	0	38	104	320864256	72	13133
2026-01-20 05:35:06.84	349.91	21.14	-52.0	-64.8	3.8	7.45e-01	0	39	104	320864256	74	16698
2026-01-20 05:35:07.85	349.61	21.17	-48.9	-60.2	3.8	7.43e-01	0	38	104	320864256	69	13178
2026-01-20 05:35:08.86	349.30	21.19	-48.4	-59.7	3.8	7.41e-01	0	38	104	320864256	68	13202
2026-01-20 05:35:09.87	349.00	21.21	-47.9	-59.0	3.8	7.43e-01	0	38	104	320864256	67	12906
2026-01-20 05:35:10.87	348.70	21.24	-48.9	-60.3	3.8	7.47e-01	0	38	104	320864256	68	14130
2026-01-20 05:35:11.88	348.39	21.26	-48.4	-59.6	3.8	7.44e-01	0	38	104	320864256	67	13884
2026-01-20 05:35:12.89	348.09	21.28	-54.5	-71.1	3.8	7.45e-01	0	38	104	320864256	79	26017
2026-01-20 05:35:13.90	347.78	21.30	-49.7	-61.3	3.8	7.43e-01	0	38	104	320864256	71	13400
2026-01-20 05:35:14.91	347.48	21.32	-52.6	-65.9	3.8	7.45e-01	0	38	104	320864256	75	18010
2026-01-20 05:35:15.91	347.17	21.34	-48.7	-60.1	3.8	7.47e-01	0	38	104	320864256	69	13048
2026-01-20 05:35:16.92	346.87	21.36	-48.2	-59.4	3.8	7.44e-01	0	38	104	320864256	68	12689
2026-01-20 05:35:17.93	346.56	21.38	-47.7	-58.8	3.8	7.46e-01	0	38	104	320864256	67	12534
2026-01-20 05:35:18.94	346.25	21.40	-49.0	-60.5	3.8	7.46e-01	0	38	104	320864256	68	14408
2026-01-20 05:35:19.95	345.94	21.41	-48.2	-59.4	3.8	7.44e-01	0	38	104	320864256	67	13422
2026-01-20 05:35:20.95	345.64	21.43	-54.5	-71.0	3.8	7.45e-01	0	38	104	320864256	79	25831
2026-01-20 05:35:21.96	345.33	21.44	-49.6	-61.3	3.8	7.46e-01	0	38	104	320864256	71	13276
2026-01-20 05:35:22.97	345.02	21.46	-52.4	-65.5	3.8	7.46e-01	0	38	104	320864256	75	17266
2026-01-20 05:35:23.98	344.71	21.47	-48.6	-59.9	3.8	7.44e-01	0	38	104	320864256	69	12673
2026-01-20 05:35:24.99	344.40	21.48	-48.2	-59.4	3.8	7.43e-01	0	38	104	320864256	68	12798
2026-01-20 05:35:26.00	344.09	21.49	-47.5	-58.5	3.8	7.42e-01	0	38	104	320864256	67	12230
2026-01-20 05:35:27.00	343.79	21.50	-49.8	-61.6	3.8	7.43e-01	0	38	104	320864256	70	14545
2026-01-20 05:35:28.01	343.48	21.51	-48.5	-59.8	3.8	7.44e-01	0	38	104	320864256	67	14174
2026-01-20 05:35:29.02	343.17	21.52	-54.5	-71.2	3.8	7.43e-01	0	38	104	320864256	79	26271
2026-01-20 05:35:30.03	342.85	21.53	-49.4	-60.9	3.9	7.45e-01	0	38	104	320864256	70	13421
2026-01-20 05:35:31.04	342.54	21.54	-52.8	-66.4	3.8	7.48e-01	0	38	104	320864256	76	17918
2026-01-20 05:35:32.04	342.24	21.54	-48.4	-59.6	3.9	7.45e-01	0	38	104	320864256	68	13076
2026-01-20 05:35:33.05	341.93	21.55	-48.6	-60.1	3.8	7.47e-01	0	38	104	320864256	68	13729
2026-01-20 05:35:34.06	341.61	21.55	-48.0	-59.2	3.9	7.46e-01	0	38	104	320864256	67	13222
2026-01-20 05:35:35.07	341.30	21.56	-49.2	-60.8	3.8	7.42e-01	0	38	104	320864256	69	14093
2026-01-20 05:35:36.07	341.00	21.56	-48.1	-59.2	3.8	7.46e-01	0	38	104	320864256	67	13201
2026-01-20 05:35:37.08	340.68	21.56	-54.4	-70.7	3.8	7.46e-01	0	38	104	320864256	79	24780
2026-01-20 05:35:38.09	340.37	21.56	-49.0	-60.5	3.9	7.41e-01	0	38	104	320864256	70	12834
2026-01-20 05:35:39.09	340.06	21.56	-52.7	-66.0	3.9	7.46e-01	0	38	104	320864256	76	17268
2026-01-20 05:35:40.10	339.75	21.56	-48.2	-59.4	3.8	7.42e-01	0	38	104	320864256	68	12727
2026-01-20 05:35:41.11	339.44	21.56	-48.0	-59.1	3.8	7.44e-01	0	38	104	320864256	67	13071
2026-01-20 05:35:42.12	339.13	21.56	-47.5	-58.6	3.8	7.43e-01	0	38	104	320864256	67	12292
2026-01-20 05:35:43.13	338.82	21.55	-49.9	-61.8	3.9	7.43e-01	0	38	104	320864256	71	14203
2026-01-20 05:35:44.13	338.51	21.55	-48.6	-59.8	3.8	7.45e-01	0	38	104	320864256	67	14118
2026-01-20 05:35:45.14	338.20	21.54	-54.3	-70.5	3.8	7.42e-01	0	38	104	320864256	79	24197
2026-01-20 05:35:46.15	337.89	21.54	-48.8	-60.1	3.9	7.47e-01	0	38	104	320864256	69	13011
2026-01-20 05:35:47.15	337.58	21.53	-52.5	-65.8	3.8	7.43e-01	0	38	104	320864256	75	17728
2026-01-20 05:35:48.16	337.27	21.52	-48.1	-59.4	3.8	7.46e-01	0	38	104	320864256	68	12752
2026-01-20 05:35:49.17	336.96	21.52	-48.2	-59.4	3.8	7.46e-01	0	38	104	320864256	67	13422
2026-01-20 05:35:50.18	336.65	21.51	-47.6	-58.7	3.8	7.47e-01	0	38	104	320864256	67	12469
2026-01-20 05:35:51.19	336.34	21.50	-48.6	-60.0	3.8	7.42e-01	0	38	104	320864256	69	12916
2026-01-20 05:35:52.20	336.03	21.48	-49.0	-60.4	3.8	7.47e-01	0	38	104	320864256	68	14241
2026-01-20 05:35:53.21	335.72	21.47	-54.0	-69.5	3.9	7.43e-01	0	38	104	320864256	79	21548
2026-01-20 05:35:54.22	335.41	21.46	-48.1	-59.4	3.9	7.43e-01	0	38	104	320864256	68	12681
2026-01-20 05:35:55.22	335.11	21.45	-52.0	-64.9	3.8	7.43e-01	0	38	104	320864256	75	16004
2026-01-20 05:35:56.23	334.80	21.43	-47.9	-59.0	3.8	7.47e-01	0	38	104	320864256	67	12875
2026-01-20 05:35:57.23	334.49	21.42	-47.7	-58.8	3.8	7.43e-01	0	38	104	320864256	67	12534
2026-01-20 05:35:58.24	334.18	21.40	-47.6	-58.7	3.8	7.42e-01	0	38	104	320864256	67	12381
2026-01-20 05:35:59.25	333.88	21.38	-50.0	-61.5	3.8	7.40e-01	0	38	104	320864256	71	13580
2026-01-20 05:36:00.26	333.57	21.37	-48.9	-60.3	3.8	7.46e-01	0	38	104	320864256	68	14152
2026-01-20 05:36:01.27	333.26	21.35	-53.9	-69.2	3.9	7.46e-01	0	38	104	320864256	79	20913
2026-01-20 05:36:02.27	332.96	21.33	-48.0	-59.1	3.8	7.44e-01	0	38	104	320864256	68	12290
2026-01-20 05:36:03.28	332.65	21.31	-51.1	-63.5	3.9	7.45e-01	0	38	104	320864256	74	14476
2026-01-20 05:36:04.29	332.35	21.29	-47.8	-59.1	3.8	7.46e-01	0	38	104	320864256	67	12974
2026-01-20 05:36:05.30	332.04	21.27	-47.2	-58.2	3.8	7.43e-01	0	38	104	320864256	66	12404
2026-01-20 05:36:06.31	331.74	21.24	-46.9	-57.9	3.8	7.47e-01	0	38	104	320864256	65	12705
2026-01-20 05:36:07.31	331.43	21.22	-48.5	-60.0	3.8	7.46e-01	0	38	104	320864256	69	12857
2026-01-20 05:36:08.32	331.13	21.19	-49.7	-61.2	3.8	7.46e-01	0	38	104	320864256	69	14720
2026-01-20 05:36:09.33	330.83	21.17	-53.3	-67.4	3.9	7.44e-01	0	38	104	320864256	78	17940
2026-01-20 05:36:10.34	330.52	21.14	-47.6	-58.7	3.8	7.42e-01	0	38	104	320864256	67	12442
2026-01-20 05:36:11.34	330.23	21.12	-51.0	-63.2	3.9	7.45e-01	0	38	104	320864256	74	14017
2026-01-20 05:36:12.35	329.92	21.09	-47.6	-58.6	3.9	7.46e-01	0	39	104	320864256	67	12295
2026-01-20 05:36:13.36	329.62	21.06	-47.4	-58.4	3.8	7.45e-01	0	38	104	320864256	66	12801
2026-01-20 05:36:14.37	329.32	21.03	-47.1	-58.3	3.8	7.45e-01	0	38	104	320864256	66	12542
2026-01-20 05:36:15.37	329.02	21.00	-48.2	-59.4	3.9	7.46e-01	0	38	104	320864256	68	12750
2026-01-20 05:36:16.38	328.73	20.97	-50.8	-62.6	3.8	7.45e-01	0	38	104	320864256	71	15440
2026-01-20 05:36:17.39	328.43	20.94	-52.2	-65.1	3.9	7.47e-01	0	38	104	320864256	76	15561
2026-01-20 05:36:18.40	328.13	20.91	-47.3	-58.4	3.8	7.45e-01	0	38	104	320864256	66	12698
2026-01-20 05:36:19.41	327.83	20.88	-49.8	-61.5	3.8	7.45e-01	0	38	104	320864256	71	13688
2026-01-20 05:36:20.41	327.54	20.84	-47.4	-58.4	3.8	7.41e-01	0	38	104	320864256	66	12743
2026-01-20 05:36:21.42	327.24	20.81	-47.0	-58.0	3.9	7.47e-01	0	38	104	320864256	66	12110
2026-01-20 05:36:22.43	326.95	20.78	-47.4	-58.6	3.8	7.46e-01	0	38	104	320864256	66	13032
2026-01-20 05:36:23.44	326.65	20.74	-48.3	-59.6	3.9	7.43e-01	0	38	104	320864256	68	13005
2026-01-20 05:36:24.45	326.36	20.70	-50.5	-62.3	3.8	7.43e-01	0	38	104	320864256	71	14925
2026-01-20 05:36:25.46	326.06	20.67	-52.0	-64.9	3.9	7.43e-01	0	38	104	320864256	76	15136
2026-01-20 05:36:26.47	325.77	20.63	-47.2	-58.1	3.8	7.44e-01	0	38	104	320864256	66	12360
2026-01-20 05:36:27.47	325.48	20.59	-49.8	-61.4	3.8	7.46e-01	0	38	104	320864256	71	13567
2026-01-20 05:36:28.48	325.19	20.55	-47.3	-58.6	3.8	7.46e-01	0	38	104	320864256	66	13100
2026-01-20 05:36:29.49	324.90	20.51	-47.4	-58.6	3.8	7.46e-01	0	38	104	320864256	66	12969
2026-01-20 05:36:30.50	324.61	20.47	-47.4	-57.9	3.8	7.43e-01	0	38	104	320864256	66	12090
2026-01-20 05:36:31.51	324.32	20.43	-47.2	-58.3	3.8	7.45e-01	0	38	104	320864256	66	12555
2026-01-20 05:36:32.51	324.04	20.39	-51.6	-64.5	3.8	7.46e-01	0	38	104	320864256	73	17168
2026-01-20 05:36:33.52	323.75	20.35	-50.7	-62.3	3.9	7.48e-01	0	38	104	320864256	73	13300
2026-01-20 05:36:34.53	323.47	20.30	-47.5	-58.5	3.8	7.43e-01	0	38	104	320864256	66	12915
2026-01-20 05:36:35.54	323.18	20.26	-48.4	-60.0	3.8	7.47e-01	0	38	104	320864256	68	13658
2026-01-20 05:36:36.55	322.90	20.22	-47.2	-57.8	3.8	7.48e-01	0	38	104	320864256	66	11849
2026-01-20 05:36:37.55	322.62	20.17	-47.1	-58.0	3.8	7.42e-01	0	38	104	320864256	66	12214
2026-01-20 05:36:38.56	322.33	20.13	-49.0	-61.1	3.8	7.45e-01	0	38	104	320864256	68	15577
2026-01-20 05:36:39.57	322.05	20.08	-48.0	-58.8	3.8	7.48e-01	0	38	104	320864256	68	11842
2026-01-20 05:36:40.58	321.77	20.03	-52.5	-64.9	3.8	7.44e-01	0	38	104	320864256	75	15950
2026-01-20 05:36:41.59	321.49	19.99	-50.1	-62.7	3.9	7.45e-01	0	38	104	320864256	72	14747
2026-01-20 05:36:42.59	321.21	19.94	-48.6	-60.1	3.8	7.46e-01	0	38	104	320864256	67	14653
2026-01-20 05:36:43.60	320.94	19.89	-47.8	-58.5	3.8	7.44e-01	0	38	104	320864256	67	12149
2026-01-20 05:36:44.61	320.66	19.84	-47.5	-58.8	3.8	7.44e-01	0	38	104	320864256	66	13396
2026-01-20 05:36:45.62	320.38	19.79	-47.0	-57.6	3.8	7.45e-01	0	38	104	320864256	66	11587
2026-01-20 05:36:46.63	320.11	19.74	-47.6	-58.6	3.8	7.44e-01	0	38	104	320864256	65	13805
2026-01-20 05:36:47.63	319.84	19.69	-46.7	-58.4	3.8	7.47e-01	0	38	104	320864256	65	13550
2026-01-20 05:36:48.64	319.56	19.64	-52.4	-65.1	3.8	7.46e-01	0	38	104	320864256	75	16465
2026-01-20 05:36:49.65	319.29	19.59	-50.0	-61.0	3.8	7.46e-01	0	38	104	320864256	71	12863
2026-01-20 05:36:50.66	319.02	19.54	-48.4	-59.9	3.8	7.48e-01	0	38	104	320864256	67	14305
2026-01-20 05:36:51.66	318.75	19.48	-47.7	-58.7	3.8	7.45e-01	0	38	104	320864256	67	12387
2026-01-20 05:36:52.67	318.48	19.43	-47.2	-58.7	3.8	7.46e-01	0	38	104	320864256	66	13225
2026-01-20 05:36:53.68	318.21	19.38	-46.8	-58.1	3.8	7.42e-01	0	38	104	320864256	65	13062
2026-01-20 05:36:54.69	317.95	19.32	-49.7	-60.8	3.8	7.43e-01	0	38	104	320864256	69	14068
2026-01-20 05:36:55.70	317.68	19.27	-46.7	-57.7	3.8	7.42e-01	0	38	104	320864256	65	12478
2026-01-20 05:36:56.71	317.41	19.21	-52.9	-66.5	3.8	7.43e-01	0	38	104	320864256	76	18193
2026-01-20 05:36:57.71	317.15	19.16	-49.0	-60.6	3.8	7.42e-01	0	38	104	320864256	70	13052
2026-01-20 05:36:58.72	316.89	19.10	-49.1	-60.2	3.8	7.42e-01	0	38	104	320864256	68	13976
2026-01-20 05:36:59.73	316.63	19.04	-47.1	-58.1	3.8	7.46e-01	0	38	104	320864256	66	12284
2026-01-20 05:37:00.74	316.37	18.99	-46.8	-58.0	3.8	7.43e-01	0	38	104	320864256	65	12920
2026-01-20 05:37:01.75	316.11	18.93	-46.6	-57.3	3.8	7.45e-01	0	38	104	320864256	65	11859
2026-01-20 05:37:02.75	315.85	18.87	-50.9	-63.5	3.8	7.43e-01	0	38	104	320864256	72	16188
2026-01-20 05:37:03.76	315.59	18.81	-46.6	-57.3	3.8	7.40e-01	0	38	104	320864256	65	11894
2026-01-20 05:37:04.77	315.33	18.75	-52.8	-66.3	3.8	7.46e-01	0	38	104	320864256	76	17788
2026-01-20 05:37:05.78	315.08	18.69	-48.8	-60.4	3.8	7.50e-01	0	38	104	320864256	69	13430
2026-01-20 05:37:06.79	314.82	18.63	-50.8	-62.5	3.8	7.46e-01	0	38	104	320864256	71	15312
2026-01-20 05:37:07.79	314.57	18.58	-46.8	-57.8	3.8	7.44e-01	0	38	104	320864256	65	12525
2026-01-20 05:37:08.80	314.32	18.51	-46.6	-57.5	3.8	7.45e-01	0	38	104	320864256	65	12145
2026-01-20 05:37:09.81	314.07	18.45	-46.6	-57.7	3.8	7.44e-01	0	39	104	320864256	65	12398
2026-01-20 05:37:10.82	313.82	18.39	-51.2	-63.3	3.8	7.45e-01	0	38	104	320864256	72	15843
2026-01-20 05:37:11.83	313.57	18.33	-46.6	-57.5	3.8	7.46e-01	0	38	104	320864256	65	12140
2026-01-20 05:37:12.84	313.32	18.27	-53.3	-67.7	3.8	7.46e-01	0	39	104	320864256	77	19810
2026-01-20 05:37:13.84	313.07	18.21	-48.7	-59.6	3.8	7.42e-01	0	38	104	320864256	69	12353
2026-01-20 05:37:14.85	312.83	18.14	-50.1	-61.9	3.8	7.44e-01	0	38	104	320864256	70	15143
2026-01-20 05:37:15.85	312.59	18.08	-46.6	-57.4	3.8	7.45e-01	0	38	104	320864256	65	11993
2026-01-20 05:37:16.86	312.34	18.02	-46.5	-57.4	3.8	7.41e-01	0	38	104	320864256	65	12085
2026-01-20 05:37:17.87	312.10	17.95	-46.6	-57.8	3.8	7.47e-01	0	38	104	320864256	65	12572
2026-01-20 05:37:18.88	311.86	17.89	-48.7	-60.0	3.9	7.42e-01	0	38	104	320864256	68	13647
2026-01-20 05:37:19.89	311.62	17.83	-46.6	-57.4	3.8	7.44e-01	0	38	104	320864256	64	12774
2026-01-20 05:37:20.89	311.38	17.76	-53.4	-68.2	3.9	7.47e-01	0	38	104	320864256	77	20804
2026-01-20 05:37:21.90	311.14	17.70	-48.8	-59.4	3.8	7.46e-01	0	38	104	320864256	69	12055
2026-01-20 05:37:22.91	310.90	17.63	-50.6	-63.1	3.8	7.45e-01	0	38	104	320864256	71	16481
2026-01-20 05:37:23.91	310.67	17.57	-46.6	-56.9	3.8	7.40e-01	0	38	104	320864256	65	11369
2026-01-20 05:37:24.92	310.43	17.50	-46.6	-58.1	3.8	7.45e-01	0	38	104	320864256	65	12972
2026-01-20 05:37:25.93	310.20	17.43	-46.7	-57.5	3.8	7.43e-01	0	38	104	320864256	65	12195
2026-01-20 05:37:26.94	309.97	17.37	-50.8	-63.0	3.8	7.41e-01	0	38	104	320864256	72	15235
2026-01-20 05:37:27.95	309.73	17.30	-46.5	-57.9	3.8	7.44e-01	0	38	104	320864256	64	13424
2026-01-20 05:37:28.95	309.50	17.24	-53.3	-67.3	3.8	7.42e-01	0	38	104	320864256	77	18752
2026-01-20 05:37:29.96	309.27	17.17	-48.4	-60.0	3.8	7.46e-01	0	38	104	320864256	68	13720
2026-01-20 05:37:30.97	309.05	17.10	-50.8	-62.5	3.8	7.44e-01	0	38	104	320864256	72	14529
2026-01-20 05:37:31.98	308.82	17.03	-46.6	-57.6	3.8	7.44e-01	0	38	104	320864256	65	12341
2026-01-20 05:37:32.99	308.59	16.96	-46.5	-57.5	3.8	7.44e-01	0	38	104	320864256	64	12877
2026-01-20 05:37:33.99	308.37	16.90	-46.5	-57.2	3.9	7.45e-01	0	38	104	320864256	64	12430
2026-01-20 05:37:35.00	308.14	16.83	-49.5	-61.4	3.8	7.45e-01	0	38	104	320864256	69	15112
2026-01-20 05:37:36.01	307.92	16.76	-46.7	-57.3	3.9	7.44e-01	0	38	104	320864256	64	12601
2026-01-20 05:37:37.02	307.70	16.69	-53.3	-67.9	3.8	7.43e-01	0	38	104	320864256	77	20129
2026-01-20 05:37:38.03	307.48	16.62	-48.4	-59.1	3.9	7.43e-01	0	39	104	320864256	68	12372
2026-01-20 05:37:39.03	307.26	16.55	-51.2	-63.8	3.8	7.42e-01	0	39	104	320864256	72	16806
2026-01-20 05:37:40.04	307.04	16.48	-46.5	-57.1	3.8	7.43e-01	0	38	104	320864256	65	11630
2026-01-20 05:37:41.05	306.82	16.42	-46.5	-57.5	3.8	7.42e-01	0	38	104	320864256	65	12127
2026-01-20 05:37:42.06	306.61	16.35	-46.7	-57.6	3.8	7.47e-01	0	38	104	320864256	64	12965
2026-01-20 05:37:43.06	306.39	16.28	-49.7	-61.4	3.8	7.44e-01	0	38	104	320864256	70	14281
2026-01-20 05:37:44.07	306.18	16.21	-46.8	-57.9	3.8	7.43e-01	0	38	104	320864256	65	12724
2026-01-20 05:37:45.08	305.96	16.14	-52.9	-66.6	3.9	7.42e-01	0	38	104	320864256	76	18338
2026-01-20 05:37:46.09	305.75	16.07	-48.0	-59.1	3.8	7.47e-01	0	38	104	320864256	68	12242
2026-01-20 05:37:47.10	305.54	15.99	-50.9	-63.4	3.8	7.46e-01	0	38	104	320864256	72	16112
2026-01-20 05:37:48.10	305.33	15.92	-46.7	-57.5	3.8	7.47e-01	0	38	104	320864256	65	12105
2026-01-20 05:37:49.11	305.12	15.85	-46.5	-57.6	3.8	7.45e-01	0	38	104	320864256	64	13084
2026-01-20 05:37:50.12	304.91	15.78	-46.5	-57.3	3.8	7.46e-01	0	38	104	320864256	64	12580
2026-01-20 05:37:51.13	304.71	15.71	-49.8	-61.6	3.9	7.40e-01	0	38	104	320864256	71	13860
2026-01-20 05:37:52.14	304.50	15.64	-46.8	-57.8	3.8	7.41e-01	0	38	104	320864256	65	12600
2026-01-20 05:37:53.14	304.30	15.57	-52.7	-66.2	3.8	7.43e-01	0	38	104	320864256	76	17681
2026-01-20 05:37:54.15	304.09	15.50	-47.8	-59.2	3.8	7.44e-01	0	38	104	320864256	67	13154
2026-01-20 05:37:55.16	303.89	15.43	-51.1	-63.1	3.8	7.44e-01	0	39	104	320864256	73	14639
2026-01-20 05:37:56.17	303.69	15.35	-46.7	-58.1	3.8	7.46e-01	0	38	104	320864256	65	12962
2026-01-20 05:37:57.17	303.49	15.28	-46.7	-57.4	3.8	7.47e-01	0	38	104	320864256	65	12076
2026-01-20 05:37:58.18	303.29	15.21	-46.7	-57.9	3.8	7.43e-01	0	38	104	320864256	65	12741
2026-01-20 05:37:59.19	303.09	15.14	-47.2	-58.3	3.8	7.44e-01	0	38	104	320864256	66	12528
2026-01-20 05:38:00.20	302.89	15.07	-46.9	-57.7	3.8	7.45e-01	0	38	104	320864256	65	12420
2026-01-20 05:38:01.20	302.70	15.00	-52.2	-65.2	3.8	7.43e-01	0	38	104	320864256	76	15671
2026-01-20 05:38:02.21	302.50	14.92	-47.2	-58.5	3.9	7.47e-01	0	38	104	320864256	66	12813
2026-01-20 05:38:03.22	302.31	14.85	-50.6	-62.6	3.9	7.46e-01	0	38	104	320864256	73	13796
2026-01-20 05:38:04.23	302.11	14.78	-46.7	-57.8	3.8	7.44e-01	0	38	104	320864256	65	12607
2026-01-20 05:38:05.23	301.92	14.71	-46.5	-57.5	3.8	7.44e-01	0	38	104	320864256	65	12124
2026-01-20 05:38:06.24	301.73	14.63	-46.5	-57.3	3.8	7.46e-01	0	38	104	320864256	64	12556
2026-01-20 05:38:07.25	301.54	14.56	-47.8	-59.3	3.8	7.41e-01	0	38	104	320864256	67	13386
2026-01-20 05:38:08.26	301.35	14.49	-46.9	-57.6	3.8	7.44e-01	0	38	104	320864256	64	13102
2026-01-20 05:38:09.27	301.16	14.42	-52.2	-65.3	3.8	7.42e-01	0	38	104	320864256	76	15777
2026-01-20 05:38:10.27	300.98	14.34	-47.6	-59.2	3.8	7.44e-01	0	38	104	320864256	67	13123
2026-01-20 05:38:11.28	300.79	14.27	-49.8	-61.0	3.8	7.44e-01	0	38	104	320864256	71	12931
2026-01-20 05:38:12.29	300.60	14.20	-46.8	-57.7	3.8	7.46e-01	0	38	104	320864256	65	12430
2026-01-20 05:38:13.29	300.42	14.13	-46.8	-58.3	3.8	7.42e-01	0	38	104	320864256	65	13334
2026-01-20 05:38:14.30	300.24	14.05	-46.9	-57.5	3.8	7.46e-01	0	38	104	320864256	65	12198
2026-01-20 05:38:15.31	300.05	13.98	-47.0	-57.9	3.8	7.44e-01	0	38	104	320864256	66	12093
2026-01-20 05:38:16.32	299.87	13.91	-47.4	-58.9	3.8	7.44e-01	0	38	104	320864256	65	14276
2026-01-20 05:38:17.33	299.69	13.83	-51.6	-63.7	3.8	7.40e-01	0	38	104	320864256	75	14019
2026-01-20 05:38:18.34	299.51	13.76	-47.0	-57.8	3.8	7.45e-01	0	38	104	320864256	66	11915
2026-01-20 05:38:19.34	299.34	13.69	-50.0	-61.6	3.8	7.40e-01	0	38	104	320864256	71	13791
2026-01-20 05:38:20.35	299.16	13.61	-46.9	-57.9	3.8	7.46e-01	0	38	104	320864256	65	12686
2026-01-20 05:38:21.36	298.98	13.54	-46.9	-57.7	3.8	7.46e-01	0	38	104	320864256	65	12378
2026-01-20 05:38:22.36	298.81	13.47	-46.8	-58.1	3.8	7.47e-01	0	38	104	320864256	65	12998
2026-01-20 05:38:23.37	298.63	13.40	-48.1	-59.6	3.9	7.43e-01	0	38	104	320864256	68	12996
2026-01-20 05:38:24.38	298.46	13.32	-48.3	-59.3	3.8	7.45e-01	0	38	104	320864256	67	13396
2026-01-20 05:38:25.39	298.28	13.25	-50.7	-63.0	3.9	7.43e-01	0	38	104	320864256	73	14478
2026-01-20 05:38:26.40	298.11	13.18	-46.9	-58.4	3.8	7.47e-01	0	38	104	320864256	65	13454
2026-01-20 05:38:27.40	297.94	13.10	-48.5	-59.5	3.8	7.44e-01	0	38	104	320864256	69	12228
2026-01-20 05:38:28.41	297.77	13.03	-46.8	-57.5	3.8	7.44e-01	0	38	104	320864256	65	12225
2026-01-20 05:38:29.42	297.60	12.96	-46.9	-58.4	3.8	7.46e-01	0	38	104	320864256	65	13565
2026-01-20 05:38:30.43	297.43	12.88	-47.6	-58.7	3.8	7.44e-01	0	38	104	320864256	65	13992
2026-01-20 05:38:31.43	297.27	12.81	-47.4	-58.2	3.8	7.46e-01	0	38	104	320864256	67	11794
2026-01-20 05:38:32.44	297.10	12.74	-48.3	-59.5	3.8	7.46e-01	0	38	104	320864256	66	14539
2026-01-20 05:38:33.45	296.93	12.66	-50.6	-62.9	3.9	7.45e-01	0	39	104	320864256	73	14373
2026-01-20 05:38:34.45	296.77	12.59	-46.9	-57.6	3.8	7.46e-01	0	38	104	320864256	65	12367
2026-01-20 05:38:35.46	296.61	12.52	-49.2	-60.3	3.8	7.44e-01	0	38	104	320864256	70	12531
2026-01-20 05:38:36.47	296.44	12.45	-47.2	-58.4	3.8	7.44e-01	0	38	104	320864256	66	12766
2026-01-20 05:38:37.48	296.28	12.37	-47.2	-58.7	3.8	7.43e-01	0	38	104	320864256	66	13212
2026-01-20 05:38:38.49	296.12	12.30	-47.0	-57.7	3.8	7.41e-01	0	38	104	320864256	65	12444
2026-01-20 05:38:39.49	295.96	12.23	-47.0	-57.6	3.8	7.46e-01	0	38	104	320864256	65	12306
2026-01-20 05:38:40.50	295.80	12.15	-49.9	-61.8	3.8	7.47e-01	0	38	104	320864256	70	15050
2026-01-20 05:38:41.51	295.64	12.08	-49.8	-61.9	3.8	7.42e-01	0	38	104	320864256	71	14315
2026-01-20 05:38:42.52	295.48	12.01	-47.8	-58.8	3.8	7.49e-01	0	38	104	320864256	66	13290
2026-01-20 05:38:43.53	295.33	11.94	-47.9	-58.8	3.8	7.42e-01	0	38	104	320864256	68	11889
2026-01-20 05:38:44.53	295.17	11.86	-47.4	-58.4	3.8	7.46e-01	0	38	104	320864256	66	12666
2026-01-20 05:38:45.54	295.02	11.79	-47.5	-59.2	3.8	7.44e-01	0	38	104	320864256	66	13953
2026-01-20 05:38:46.55	294.86	11.72	-47.1	-58.5	3.8	7.43e-01	0	38	104	320864256	66	12906
2026-01-20 05:38:47.56	294.71	11.64	-47.1	-57.8	3.8	7.43e-01	0	38	104	320864256	66	11844
2026-01-20 05:38:48.57	294.56	11.57	-49.8	-60.8	3.8	7.42e-01	0	38	104	320864256	69	14187
2026-01-20 05:38:49.57	294.41	11.50	-50.7	-62.9	3.9	7.41e-01	0	38	104	320864256	73	14260
2026-01-20 05:38:50.58	294.25	11.43	-49.1	-61.0	3.8	7.49e-01	0	38	104	320864256	68	15282
2026-01-20 05:38:51.59	294.10	11.36	-48.1	-59.3	3.8	7.43e-01	0	38	104	320864256	68	12572
2026-01-20 05:38:52.60	293.95	11.28	-47.9	-58.7	3.8	7.44e-01	0	38	104	320864256	67	12408
2026-01-20 05:38:53.61	293.80	11.21	-47.7	-58.7	3.8	7.48e-01	0	38	104	320864256	67	12427
2026-01-20 05:38:54.61	293.66	11.14	-48.0	-59.6	3.8	7.44e-01	0	38	104	320864256	66	14548
2026-01-20 05:38:55.62	293.51	11.07	-47.4	-58.9	3.8	7.48e-01	0	38	104	320864256	66	13487
2026-01-20 05:38:56.63	293.36	10.99	-51.2	-63.3	3.8	7.45e-01	0	38	104	320864256	72	15882
2026-01-20 05:38:57.64	293.22	10.92	-49.9	-61.1	3.8	7.42e-01	0	38	104	320864256	71	13058
2026-01-20 05:38:58.64	293.08	10.85	-49.2	-60.1	3.8	7.46e-01	0	38	104	320864256	68	13838
2026-01-20 05:38:59.65	292.93	10.78	-48.5	-59.9	3.8	7.42e-01	0	38	104	320864256	69	12695
2026-01-20 05:39:00.66	292.79	10.71	-47.9	-59.4	3.8	7.44e-01	0	38	104	320864256	67	13474
2026-01-20 05:39:01.67	292.64	10.63	-47.7	-59.1	3.8	7.42e-01	0	38	104	320864256	67	13015
2026-01-20 05:39:02.67	292.50	10.56	-47.3	-58.2	3.8	7.42e-01	0	38	104	320864256	66	12494
2026-01-20 05:39:03.68	292.36	10.49	-48.1	-58.9	3.8	7.46e-01	0	38	104	320864256	66	13487
2026-01-20 05:39:04.69	292.22	10.42	-52.0	-64.6	3.8	7.47e-01	0	38	104	320864256	74	16440
2026-01-20 05:39:05.70	292.08	10.35	-49.2	-61.0	3.9	7.46e-01	0	38	104	320864256	70	13629
2026-01-20 05:39:06.71	291.94	10.28	-50.5	-62.8	3.8	7.44e-01	0	38	104	320864256	71	15785
2026-01-20 05:39:07.71	291.81	10.21	-47.8	-59.1	3.8	7.44e-01	0	38	104	320864256	67	12974
2026-01-20 05:39:08.72	291.67	10.13	-47.6	-58.6	3.9	7.44e-01	0	38	104	320864256	67	12355
2026-01-20 05:39:09.73	291.53	10.06	-47.7	-58.6	3.8	7.43e-01	0	38	104	320864256	67	12327
2026-01-20 05:39:10.74	291.40	9.99	-50.3	-61.7	3.8	7.47e-01	0	38	104	320864256	70	14817
2026-01-20 05:39:11.75	291.26	9.92	-49.0	-60.6	3.8	7.47e-01	0	38	104	320864256	69	13769
2026-01-20 05:39:12.76	291.13	9.85	-52.0	-65.1	3.8	7.42e-01	0	38	104	320864256	74	17305
2026-01-20 05:39:13.76	291.00	9.78	-49.2	-61.0	3.8	7.45e-01	0	39	104	320864256	70	13666
2026-01-20 05:39:14.77	290.86	9.71	-50.7	-62.8	3.8	7.46e-01	0	38	104	320864256	71	15841
2026-01-20 05:39:15.78	290.73	9.64	-47.7	-58.8	3.8	7.44e-01	0	38	104	320864256	67	12528
2026-01-20 05:39:16.79	290.60	9.57	-47.7	-58.6	3.8	7.44e-01	0	38	104	320864256	67	12264
2026-01-20 05:39:17.79	290.47	9.50	-47.8	-58.8	3.8	7.44e-01	0	38	104	320864256	67	12532
2026-01-20 05:39:18.80	290.34	9.43	-49.8	-61.4	3.8	7.44e-01	0	38	104	320864256	70	14335
2026-01-20 05:39:19.81	290.21	9.36	-49.6	-61.3	3.8	7.39e-01	0	38	104	320864256	70	14141
2026-01-20 05:39:20.82	290.08	9.29	-52.6	-66.2	3.8	7.47e-01	0	38	104	320864256	75	18729
2026-01-20 05:39:21.83	289.95	9.22	-48.6	-60.2	3.8	7.44e-01	0	38	104	320864256	69	13161
2026-01-20 05:39:22.84	289.83	9.15	-51.6	-64.2	3.8	7.45e-01	0	38	104	320864256	73	16574
2026-01-20 05:39:23.85	289.70	9.08	-47.9	-59.1	3.8	7.46e-01	0	38	104	320864256	67	13022
2026-01-20 05:39:24.85	289.57	9.01	-47.9	-58.9	3.8	7.46e-01	0	38	104	320864256	67	12782
2026-01-20 05:39:25.86	289.45	8.94	-47.7	-58.8	3.8	7.45e-01	0	38	104	320864256	67	12597
2026-01-20 05:39:26.87	289.32	8.87	-50.2	-62.0	3.8	7.47e-01	0	38	104	320864256	70	15324
2026-01-20 05:39:27.88	289.20	8.80	-49.7	-61.5	3.8	7.43e-01	0	39	104	320864256	70	14539
2026-01-20 05:39:28.89	289.08	8.73	-51.6	-64.3	3.8	7.47e-01	0	39	104	320864256	73	16756
2026-01-20 05:39:29.90	288.95	8.66	-49.8	-61.5	3.8	7.46e-01	0	38	104	320864256	71	13724
2026-01-20 05:39:30.90	288.83	8.59	-53.0	-67.0	3.8	7.43e-01	0	38	104	320864256	76	19352
2026-01-20 05:39:31.91	288.71	8.52	-48.4	-59.8	3.8	7.44e-01	0	38	104	320864256	68	13272
2026-01-20 05:39:32.92	288.59	8.45	-48.4	-59.7	3.8	7.45e-01	0	39	104	320864256	68	13212
2026-01-20 05:39:33.93	288.47	8.38	-48.1	-59.3	3.8	7.44e-01	0	39	104	320864256	68	12615
2026-01-20 05:39:34.93	288.35	8.31	-51.2	-63.6	3.8	7.42e-01	0	38	104	320864256	72	16352
2026-01-20 05:39:35.94	288.23	8.24	-50.4	-62.4	3.8	7.43e-01	0	38	104	320864256	71	15088
2026-01-20 05:39:36.95	288.12	8.17	-53.0	-67.2	3.8	7.49e-01	0	38	104	320864256	76	19657
2026-01-20 05:39:37.96	288.00	8.11	-49.3	-60.9	3.8	7.43e-01	0	38	104	320864256	70	13540
2026-01-20 05:39:38.97	287.88	8.04	-51.8	-64.6	3.8	7.41e-01	0	38	104	320864256	74	16457
2026-01-20 05:39:39.97	287.77	7.97	-48.6	-60.0	3.8	7.42e-01	0	38	104	320864256	69	12869
2026-01-20 05:39:40.98	287.65	7.90	-48.5	-60.0	3.8	7.46e-01	0	38	104	320864256	69	12833
2026-01-20 05:39:41.99	287.53	7.83	-48.4	-59.9	3.8	7.44e-01	0	39	104	320864256	68	13420
2026-01-20 05:39:43.00	287.42	7.76	-52.7	-66.7	3.8	7.45e-01	0	38	104	320864256	75	19752
2026-01-20 05:39:44.01	287.31	7.70	-49.2	-60.9	3.8	7.46e-01	0	38	104	320864256	70	13467
2026-01-20 05:39:45.01	287.19	7.63	-51.8	-64.6	3.8	7.45e-01	0	38	104	320864256	74	16390
2026-01-20 05:39:46.02	287.08	7.56	-49.9	-61.7	3.8	7.46e-01	0	38	104	320864256	71	14001
2026-01-20 05:39:47.03	286.97	7.49	-53.6	-68.8	3.8	7.46e-01	0	38	104	320864256	77	22514
2026-01-20 05:39:48.04	286.86	7.42	-48.3	-59.5	3.8	7.44e-01	0	39	104	320864256	68	12932
2026-01-20 05:39:49.05	286.74	7.36	-48.4	-59.7	3.8	7.42e-01	0	38	104	320864256	68	13131
2026-01-20 05:39:50.06	286.63	7.29	-48.1	-59.4	3.8	7.46e-01	0	38	104	320864256	67	13487
2026-01-20 05:39:51.06	286.53	7.22	-51.4	-64.1	3.8	7.46e-01	0	38	104	320864256	73	16453
2026-01-20 05:39:52.07	286.42	7.16	-49.2	-60.9	3.8	7.46e-01	0	39	104	320864256	70	13431
2026-01-20 05:39:53.08	286.31	7.09	-51.7	-64.6	3.8	7.44e-01	0	38	104	320864256	74	16318
2026-01-20 05:39:54.09	286.20	7.02	-49.3	-60.9	3.8	7.45e-01	0	38	104	320864256	70	13542
2026-01-20 05:39:55.09	286.09	6.95	-53.3	-68.4	3.9	7.45e-01	0	39	104	320864256	77	21358
2026-01-20 05:39:56.10	285.98	6.89	-48.6	-60.1	3.8	7.45e-01	0	38	104	320864256	69	13016
2026-01-20 05:39:57.11	285.88	6.82	-48.2	-59.5	3.8	7.45e-01	0	39	104	320864256	68	12906
2026-01-20 05:39:58.12	285.77	6.75	-48.0	-59.3	3.8	7.42e-01	0	38	104	320864256	67	13340
2026-01-20 05:39:59.13	285.67	6.69	-50.5	-62.7	3.8	7.47e-01	0	39	104	320864256	71	15752
2026-01-20 05:40:00.13	285.56	6.62	-48.8	-60.3	3.8	7.45e-01	0	38	104	320864256	69	13375
2026-01-20 05:40:01.12	285.46	6.56	-51.6	-56.1	4.3	7.01e-01	0	39	104	320864256	74	6160
2026-01-20 05:40:02.13	285.36	6.49	-49.6	-52.1	18.6	6.02e-01	0	39	0	320864256	71	4618
2026-01-20 05:40:03.14	285.25	6.42	-52.7	-58.4	12.2	6.04e-01	0	38	0	322961408	76	7160
2026-01-20 05:40:04.15	285.15	6.36	-48.3	-50.3	20.9	6.00e-01	0	39	0	325058560	68	4468
2026-01-20 05:40:05.16	285.05	6.29	-48.3	-50.2	21.0	6.01e-01	0	38	0	326631424	68	4439
2026-01-20 05:40:06.16	284.95	6.23	-48.4	-50.4	20.8	6.02e-01	0	38	0	328728576	68	4496
2026-01-20 05:40:07.17	284.85	6.16	-48.0	-49.9	21.3	6.02e-01	0	38	0	330301440	67	4507
2026-01-20 05:40:08.18	284.74	6.10	-48.7	-50.8	20.4	6.01e-01	0	38	0	332398592	68	4737
2026-01-20 05:40:09.19	284.64	6.03	-48.2	-50.2	20.9	6.01e-01	0	38	0	334495744	68	4404
2026-01-20 05:40:10.19	284.54	5.96	-47.7	-49.5	21.8	6.00e-01	0	38	0	336068608	67	4307
2026-01-20 05:40:11.20	284.45	5.90	-48.1	-50.0	21.3	6.01e-01	0	39	0	338165760	67	4549
2026-01-20 05:40:12.21	284.35	5.83	-48.0	-49.9	21.3	6.03e-01	0	38	0	339738624	67	4523
2026-01-20 05:40:13.22	284.25	5.77	-47.9	-49.8	21.5	6.02e-01	0	38	0	341835776	67	4449
2026-01-20 05:40:14.23	284.15	5.70	-48.2	-50.1	21.1	6.02e-01	0	39	0	343932928	67	4645
2026-01-20 05:40:15.23	284.05	5.64	-48.4	-50.5	20.7	6.02e-01	0	38	0	345505792	67	4827
2026-01-20 05:40:16.24	283.96	5.57	-48.5	-50.6	20.7	6.02e-01	0	38	0	347602944	67	4881
2026-01-20 05:40:17.25	283.86	5.51	-48.4	-50.5	20.7	6.01e-01	0	38	0	349175808	67	4830
2026-01-20 05:40:18.26	283.76	5.45	-48.2	-50.1	21.1	6.01e-01	0	38	0	351272960	67	4644
2026-01-20 05:40:19.26	283.67	5.38	-48.7	-50.9	20.3	6.00e-01	0	38	0	353370112	67	5043
2026-01-20 05:40:20.27	283.58	5.32	-48.1	-50.1	21.0	6.02e-01	0	38	0	354942976	67	4616
2026-01-20 05:40:21.28	283.48	5.25	-48.5	-50.6	20.5	6.00e-01	0	38	0	357040128	67	4878
2026-01-20 05:40:22.29	283.39	5.19	-48.6	-50.8	20.2	6.01e-01	0	38	0	359137280	68	4730
2026-01-20 05:40:23.29	283.29	5.12	-48.8	-51.1	20.0	5.99e-01	0	38	0	360710144	68	4883
2026-01-20 05:40:24.30	283.20	5.06	-48.2	-50.2	20.8	6.02e-01	0	38	0	362807296	68	4421
2026-01-20 05:40:25.31	283.11	5.00	-48.8	-51.0	20.1	6.00e-01	0	38	0	364380160	68	4848
2026-01-20 05:40:26.32	283.02	4.93	-54.4	-72.2	3.8	7.47e-01	0	38	104	365428736	79	29401
2026-01-20 05:40:27.33	282.92	4.87	-54.7	-72.4	3.8	7.45e-01	0	38	104	365428736	79	30371
2026-01-20 05:40:28.33	282.83	4.81	-54.8	-72.6	3.8	7.47e-01	0	38	104	365428736	80	29308
2026-01-20 05:40:29.34	282.74	4.74	-54.9	-72.7	3.8	7.43e-01	0	38	104	365428736	80	29619
2026-01-20 05:40:30.35	282.65	4.68	-55.0	-72.8	3.8	7.43e-01	0	39	104	365428736	80	29935
2026-01-20 05:40:31.36	282.56	4.62	-55.1	-72.9	3.8	7.46e-01	0	38	104	365428736	80	30264
2026-01-20 05:40:32.36	282.47	4.55	-55.2	-73.0	3.8	7.48e-01	0	38	104	365428736	80	30441
2026-01-20 05:40:33.37	282.39	4.49	-55.2	-73.0	3.8	7.43e-01	0	38	104	365428736	81	29004
2026-01-20 05:40:34.38	282.30	4.43	-55.3	-73.1	3.8	7.44e-01	0	38	104	365428736	81	29217
2026-01-20 05:40:35.39	282.21	4.36	-55.3	-73.1	3.8	7.47e-01	0	39	104	365428736	81	29323
2026-01-20 05:40:36.39	282.12	4.30	-55.4	-73.2	3.8	7.42e-01	0	38	104	365428736	81	29557
2026-01-20 05:40:37.40	282.03	4.24	-55.4	-73.2	3.8	7.44e-01	0	38	104	365428736	81	29661
2026-01-20 05:40:38.41	281.95	4.18	-55.4	-73.3	3.8	7.45e-01	0	38	104	365428736	81	29721
2026-01-20 05:40:39.42	281.86	4.11	-55.5	-73.3	3.8	7.41e-01	0	39	104	365428736	81	29911
2026-01-20 05:40:40.43	281.77	4.05	-55.5	-73.3	3.8	7.46e-01	0	38	104	365428736	81	29926
2026-01-20 05:40:41.44	281.69	3.99	-55.5	-73.4	3.8	7.47e-01	0	39	104	365428736	81	30055
2026-01-20 05:40:42.44	281.60	3.93	-55.5	-73.4	3.8	7.45e-01	0	38	104	365428736	81	30150
2026-01-20 05:40:43.45	281.52	3.87	-55.5	-73.4	3.8	7.46e-01	0	38	104	365428736	81	30098
2026-01-20 05:40:44.45	281.44	3.81	-55.6	-73.4	3.8	7.44e-01	0	38	104	365428736	81	30331
2026-01-20 05:40:45.46	281.35	3.74	-55.6	-73.4	3.8	7.45e-01	0	38	104	365428736	81	30252
2026-01-20 05:40:46.47	281.27	3.68	-55.6	-73.4	3.8	7.47e-01	0	38	104	365428736	81	30275
2026-01-20 05:40:47.48	281.18	3.62	-55.6	-73.5	3.8	7.45e-01	0	38	104	365428736	81	30403
2026-01-20 05:40:48.49	281.10	3.56	-55.6	-73.5	3.8	7.49e-01	0	39	104	365428736	81	30442
2026-01-20 05:40:49.50	281.02	3.50	-55.6	-73.5	3.8	7.44e-01	0	39	104	365428736	81	30418
2026-01-20 05:40:50.50	280.94	3.44	-55.6	-73.5	3.8	7.48e-01	0	39	104	365428736	81	30431
2026-01-20 05:40:51.51	280.86	3.38	-55.6	-73.4	3.8	7.46e-01	0	39	104	365428736	81	30329
2026-01-20 05:40:52.52	280.78	3.31	-55.6	-73.4	3.8	7.46e-01	0	39	104	365428736	81	30264
2026-01-20 05:40:53.53	280.69	3.25	-55.6	-73.4	3.8	7.44e-01	0	39	104	365428736	81	30178
2026-01-20 05:40:54.54	280.61	3.19	-55.5	-73.4	3.8	7.44e-01	0	39	104	365428736	81	30065
2026-01-20 05:40:55.54	280.53	3.13	-55.5	-73.3	3.8	7.47e-01	0	39	104	365428736	81	29968
2026-01-20 05:40:56.55	280.45	3.07	-55.5	-73.3	3.8	7.45e-01	0	39	104	365428736	81	29944
2026-01-20 05:40:57.55	280.38	3.01	-55.5	-73.3	3.8	7.44e-01	0	38	104	365428736	81	29814
2026-01-20 05:40:58.56	280.30	2.95	-55.5	-73.3	3.8	7.46e-01	0	38	104	365428736	81	29958
2026-01-20 05:40:59.57	280.22	2.89	-55.5	-73.3	3.8	7.47e-01	0	38	104	365428736	81	29870
2026-01-20 05:41:00.58	280.14	2.83	-55.5	-73.3	3.8	7.44e-01	0	39	104	365428736	81	29819
2026-01-20 05:41:01.59	280.06	2.77	-55.5	-73.3	3.8	7.45e-01	0	38	104	365428736	81	29883
2026-01-20 05:41:02.59	279.99	2.71	-55.4	-73.3	3.8	7.46e-01	0	38	104	365428736	81	29810
2026-01-20 05:41:03.60	279.91	2.65	-55.4	-73.3	3.8	7.44e-01	0	39	104	365428736	81	29728
2026-01-20 05:41:04.61	279.83	2.59	-55.4	-73.3	3.8	7.44e-01	0	38	104	365428736	81	29722
2026-01-20 05:41:05.62	279.75	2.53	-55.4	-73.3	3.8	7.44e-01	0	38	104	365428736	81	29702
2026-01-20 05:41:06.63	279.68	2.47	-55.4	-73.3	3.8	7.47e-01	0	38	104	365428736	81	29691
2026-01-20 05:41:07.63	279.60	2.41	-55.4	-73.3	3.8	7.41e-01	0	39	104	365428736	81	29695
2026-01-20 05:41:08.64	279.53	2.35	-55.4	-73.2	3.8	7.47e-01	0	39	104	365428736	81	29638
2026-01-20 05:41:09.65	279.45	2.29	-55.4	-73.3	3.8	7.47e-01	0	38	104	365428736	81	29726
2026-01-20 05:41:10.65	279.38	2.23	-55.4	-73.2	3.8	7.48e-01	0	38	104	365428736	81	29665
2026-01-20 05:41:11.66	279.30	2.17	-55.4	-73.2	3.8	7.47e-01	0	39	104	365428736	81	29652
2026-01-20 05:41:12.67	279.23	2.11	-55.4	-73.3	3.8	7.45e-01	0	39	104	365428736	81	29698
2026-01-20 05:41:13.68	279.16	2.06	-55.4	-73.2	3.8	7.44e-01	0	39	104	365428736	81	29645
2026-01-20 05:41:14.69	279.08	2.00	-55.4	-73.3	3.8	7.47e-01	0	38	104	365428736	81	29692
2026-01-20 05:41:15.70	279.01	1.94	-55.4	-73.2	3.8	7.47e-01	0	38	104	365428736	81	29669
2026-01-20 05:41:16.70	278.94	1.88	-55.4	-73.3	3.8	7.47e-01	0	38	104	365428736	81	29695

#Closed at: 2026-01-20 05:41:17
#Recorded file [365 MB]: D:/lorett/data/31041_260120_083003.dat