passes_logs/2026/01/20/R3.2S_Murmansk/R3.2S_Murmansk__20260120_004809_NOAA_21_JPSS-2_rec.log

#Pass ID: 20260120_004809_NOAA 21 (JPSS-2)
#Satellite: NOAA 21 (JPSS-2)
#Configuration: NOAA-21
#almurnet v.1.7.20251203
#Start time: 2026-01-20 00:48:11

#Version: 2.2.20231116
#Station: R3.2S_Murmansk
#Location: 33.079688 lon 68.888172 lat
#TLE: 1 54234U 22150A   26019.31231101  .00000073  00000+0  55355-4 0  9994
#TLE: 2 54234  98.7504 320.1599 0000604 258.3686 101.7423 14.19535697165426

#Time	Az	El	Level	Level2	SNR	BER	BlckErr	Temp	State	Recorded	gain1	gain2
2026-01-20 00:48:11.22	24.93	2.08	-51.6	-64.3	3.8	1.49e+00	0	37	0	0	75	14898
2026-01-20 00:48:12.22	24.93	2.15	-51.6	-64.3	3.8	1.49e+00	0	37	104	0	73	16757
2026-01-20 00:48:13.23	24.93	2.21	-51.5	-64.1	3.8	1.49e+00	0	37	104	0	73	16490
2026-01-20 00:48:14.23	24.93	2.28	-51.5	-64.1	3.8	1.49e+00	0	37	104	0	73	16458
2026-01-20 00:48:15.24	24.94	2.34	-51.5	-64.0	3.8	1.49e+00	0	37	104	0	73	16194
2026-01-20 00:48:16.25	24.94	2.41	-51.5	-64.0	3.8	1.49e+00	0	37	104	0	73	16240
2026-01-20 00:48:17.26	24.94	2.47	-51.5	-63.9	3.8	1.49e+00	0	37	104	0	73	16050
2026-01-20 00:48:18.27	24.94	2.54	-51.5	-63.8	3.8	1.49e+00	0	37	104	0	73	15778
2026-01-20 00:48:19.27	24.94	2.60	-51.5	-63.8	3.8	1.49e+00	0	37	104	0	73	15827
2026-01-20 00:48:20.28	24.94	2.67	-51.5	-63.7	3.8	1.49e+00	0	37	104	0	73	15612
2026-01-20 00:48:21.29	24.94	2.74	-51.5	-63.2	3.8	1.49e+00	0	37	104	0	73	14740
2026-01-20 00:48:22.29	24.94	2.80	-51.4	-62.7	3.8	1.49e+00	0	37	104	0	73	14045
2026-01-20 00:48:23.30	24.94	2.87	-51.3	-61.2	4.1	1.48e+00	0	37	104	0	73	11799
2026-01-20 00:48:24.31	24.94	2.93	-51.1	-59.9	4.4	1.46e+00	0	37	104	0	73	10104
2026-01-20 00:48:25.32	24.94	3.00	-50.9	-58.7	5.0	7.41e-01	0	37	0	0	73	8799
2026-01-20 00:48:26.33	24.94	3.07	-50.4	-56.3	6.7	2.61e-01	0	37	0	3145728	72	7096
2026-01-20 00:48:27.33	24.94	3.13	-49.8	-54.4	8.7	5.01e-02	0	37	0	6291456	71	6015
2026-01-20 00:48:28.34	24.94	3.20	-49.4	-53.3	9.8	2.15e-02	0	37	0	9437184	70	5598
2026-01-20 00:48:29.35	24.94	3.27	-48.6	-51.8	11.4	1.70e-03	0	37	0	12582912	69	4995
2026-01-20 00:48:30.36	24.94	3.34	-48.1	-50.9	12.2	3.36e-04	0	37	0	15728640	68	4800
2026-01-20 00:48:31.37	24.94	3.40	-47.6	-50.2	12.9	7.32e-05	0	37	0	18874368	67	4662
2026-01-20 00:48:32.37	24.94	3.47	-47.0	-49.2	13.9	5.30e-06	0	37	0	22020096	66	4408
2026-01-20 00:48:33.38	24.94	3.54	-46.6	-48.7	14.4	0.00e+00	0	37	0	25165824	65	4402
2026-01-20 00:48:34.39	24.94	3.61	-46.6	-48.6	14.6	7.00e-07	0	37	0	28311552	65	4345
2026-01-20 00:48:35.40	24.94	3.67	-45.9	-47.7	15.6	0.00e+00	0	37	0	31457280	63	4398
2026-01-20 00:48:36.41	24.94	3.74	-47.1	-49.3	13.8	2.20e-06	0	37	0	34603008	64	5027
2026-01-20 00:48:37.41	24.94	3.81	-46.6	-48.7	14.5	0.00e+00	0	37	0	37748736	64	4654
2026-01-20 00:48:38.42	24.94	3.88	-46.7	-48.8	14.3	0.00e+00	0	37	0	40894464	64	4750
2026-01-20 00:48:39.43	24.94	3.95	-46.8	-48.9	14.2	7.00e-07	0	37	0	45088768	64	4786
2026-01-20 00:48:40.44	24.94	4.02	-47.0	-49.2	13.9	7.00e-07	0	37	0	48234496	64	4958
2026-01-20 00:48:41.44	24.94	4.09	-47.6	-50.2	12.9	1.30e-04	0	37	0	51380224	66	4938
2026-01-20 00:48:42.45	24.94	4.16	-48.1	-51.0	12.1	4.57e-05	0	37	0	53477376	66	5459
2026-01-20 00:48:43.46	24.94	4.23	-48.7	-52.0	11.0	1.13e-03	0	37	0	56623104	67	5783
2026-01-20 00:48:44.46	24.94	4.30	-49.0	-52.5	10.7	1.77e-03	0	37	0	59768832	68	5741
2026-01-20 00:48:45.47	24.94	4.37	-49.2	-53.1	10.0	8.55e-03	0	37	0	62914560	69	5805
2026-01-20 00:48:46.48	24.94	4.44	-49.7	-54.0	9.0	2.14e-02	0	38	0	66060288	69	6486
2026-01-20 00:48:47.49	24.94	4.51	-50.0	-54.8	8.2	3.37e-02	0	38	0	69206016	70	6678
2026-01-20 00:48:48.49	24.94	4.58	-50.4	-56.0	7.1	1.21e-01	0	38	0	72351744	71	7264
2026-01-20 00:48:49.50	24.94	4.65	-50.7	-57.3	6.0	2.62e-01	0	38	0	75497472	71	8403
2026-01-20 00:48:50.51	24.94	4.72	-50.8	-57.9	5.5	4.62e-01	0	38	0	78643200	72	8554
2026-01-20 00:48:51.52	24.94	4.79	-50.6	-57.1	6.0	3.62e-01	0	38	0	81788928	72	7788
2026-01-20 00:48:52.53	24.94	4.86	-50.7	-57.6	5.7	4.18e-01	0	38	0	85983232	72	8215
2026-01-20 00:48:53.53	24.94	4.93	-51.1	-60.1	4.0	1.21e+00	0	38	104	88080384	72	11015
2026-01-20 00:48:54.54	24.94	5.00	-51.1	-59.8	4.5	1.42e+00	0	38	104	88080384	72	10627
2026-01-20 00:48:55.55	24.94	5.07	-50.6	-56.0	7.1	1.02e+00	0	38	104	88080384	72	6862
2026-01-20 00:48:56.56	24.94	5.15	-49.6	-53.2	10.3	8.17e-03	0	38	0	91226112	71	5278
2026-01-20 00:48:57.57	24.94	5.22	-51.3	-60.6	4.3	2.55e-01	2	38	0	94371840	73	10995
2026-01-20 00:48:58.57	24.94	5.29	-51.3	-60.7	3.9	1.49e+00	0	38	104	94371840	73	11144
2026-01-20 00:48:59.58	24.94	5.36	-50.0	-54.1	9.4	4.45e-02	0	38	0	95420416	72	5480
2026-01-20 00:49:00.59	24.94	5.44	-50.3	-54.8	8.8	3.76e-02	0	38	0	97517568	71	6324
2026-01-20 00:49:01.60	24.94	5.51	-50.2	-54.4	9.2	1.65e-02	0	38	0	100663296	71	6055
2026-01-20 00:49:02.61	24.94	5.58	-50.1	-54.3	9.4	1.74e-02	0	38	0	103809024	71	5962
2026-01-20 00:49:03.61	24.94	5.66	-50.2	-54.2	9.5	1.63e-02	0	38	0	106954752	71	5921
2026-01-20 00:49:04.62	24.94	5.73	-50.2	-54.3	9.4	1.94e-02	0	38	0	110100480	71	5992
2026-01-20 00:49:05.63	24.93	5.80	-50.1	-54.1	9.7	9.23e-03	0	38	0	114294784	71	5828
2026-01-20 00:49:06.64	24.93	5.88	-50.4	-54.7	9.1	2.59e-02	0	38	0	117440512	71	6231
2026-01-20 00:49:07.65	24.93	5.95	-50.3	-54.6	9.3	1.38e-02	0	38	0	120586240	71	6159
2026-01-20 00:49:08.66	24.93	6.03	-50.4	-54.7	9.2	2.65e-02	0	38	0	123731968	71	6205
2026-01-20 00:49:09.66	24.93	6.10	-50.3	-54.5	9.4	1.39e-02	0	38	0	126877696	71	6091
2026-01-20 00:49:10.67	24.93	6.18	-50.1	-53.9	10.0	8.67e-03	0	38	0	130023424	71	5713
2026-01-20 00:49:11.68	24.93	6.25	-50.2	-54.2	9.7	9.28e-03	0	38	0	133169152	71	5900
2026-01-20 00:49:12.69	24.93	6.33	-49.8	-53.3	10.6	4.95e-03	0	38	0	136314880	71	5336
2026-01-20 00:49:13.69	24.93	6.40	-49.3	-52.3	11.8	1.02e-03	0	38	0	139460608	70	5007
2026-01-20 00:49:14.70	24.93	6.48	-48.9	-51.6	12.6	1.63e-04	0	38	0	142606336	69	4901
2026-01-20 00:49:15.71	24.93	6.55	-49.0	-51.7	12.5	1.80e-04	0	38	0	145752064	69	4959
2026-01-20 00:49:16.72	24.93	6.63	-49.0	-51.9	12.3	1.99e-04	0	38	0	147849216	69	5043
2026-01-20 00:49:17.73	24.93	6.71	-48.4	-50.7	13.5	2.59e-05	0	38	0	152043520	68	4693
2026-01-20 00:49:18.73	24.92	6.78	-48.5	-51.0	13.3	3.20e-05	0	38	0	155189248	68	4836
2026-01-20 00:49:19.74	24.92	6.86	-48.3	-50.6	13.7	2.20e-06	0	38	0	158334976	68	4599
2026-01-20 00:49:20.75	24.92	6.94	-48.3	-50.5	13.7	1.83e-05	0	38	0	161480704	68	4590
2026-01-20 00:49:21.75	24.92	7.01	-47.6	-49.6	14.6	0.00e+00	0	38	0	164626432	67	4371
2026-01-20 00:49:22.76	24.92	7.09	-47.3	-49.2	15.0	0.00e+00	0	38	0	167772160	66	4440
2026-01-20 00:49:23.77	24.92	7.17	-47.2	-49.0	15.3	0.00e+00	0	38	0	170917888	66	4309
2026-01-20 00:49:24.78	24.92	7.25	-47.0	-48.8	15.4	0.00e+00	0	38	0	174063616	66	4227
2026-01-20 00:49:25.79	24.92	7.32	-46.1	-47.6	16.6	0.00e+00	0	38	0	177209344	64	4119
2026-01-20 00:49:26.79	24.92	7.40	-46.2	-47.8	16.5	0.00e+00	0	38	0	180355072	64	4201
2026-01-20 00:49:27.80	24.92	7.48	-46.2	-47.8	16.5	0.00e+00	0	38	0	183500800	64	4197
2026-01-20 00:49:28.81	24.91	7.56	-46.1	-47.6	16.6	0.00e+00	0	38	0	186646528	64	4139
2026-01-20 00:49:29.82	24.91	7.64	-46.6	-48.3	15.9	0.00e+00	0	38	0	189792256	64	4474
2026-01-20 00:49:30.83	24.91	7.72	-46.1	-47.6	16.7	0.00e+00	0	38	0	192937984	64	4138
2026-01-20 00:49:31.84	24.91	7.80	-46.4	-47.9	16.3	0.00e+00	0	38	0	196083712	64	4285
2026-01-20 00:49:32.84	24.91	7.88	-46.3	-47.9	16.4	0.00e+00	0	38	0	199229440	64	4278
2026-01-20 00:49:33.85	24.91	7.96	-45.7	-47.1	17.2	0.00e+00	0	38	0	202375168	63	4135
2026-01-20 00:49:34.86	24.91	8.04	-46.0	-47.4	17.0	0.00e+00	0	38	0	205520896	63	4276
2026-01-20 00:49:35.87	24.91	8.12	-46.1	-47.6	16.7	0.00e+00	0	38	0	208666624	63	4379
2026-01-20 00:49:36.88	24.90	8.20	-45.5	-46.8	17.6	0.00e+00	0	38	0	211812352	63	3984
2026-01-20 00:49:37.88	24.90	8.28	-45.6	-47.0	17.4	0.00e+00	0	38	0	214958080	62	4303
2026-01-20 00:49:38.89	24.90	8.36	-45.7	-47.1	17.3	0.00e+00	0	38	0	218103808	62	4353
2026-01-20 00:49:39.90	24.90	8.45	-45.3	-46.6	17.8	0.00e+00	0	38	0	221249536	62	4120
2026-01-20 00:49:40.91	24.90	8.53	-45.3	-46.6	17.8	0.00e+00	0	38	0	224395264	62	4144
2026-01-20 00:49:41.92	24.90	8.61	-45.4	-46.7	17.8	0.00e+00	0	38	0	227540992	62	4168
2026-01-20 00:49:42.93	24.89	8.69	-45.4	-46.7	17.8	0.00e+00	0	38	0	230686720	62	4151
2026-01-20 00:49:43.93	24.89	8.78	-45.6	-47.0	17.5	0.00e+00	0	38	0	233832448	62	4312
2026-01-20 00:49:44.94	24.89	8.86	-45.6	-46.9	17.6	0.00e+00	0	38	0	236978176	62	4279
2026-01-20 00:49:45.95	24.89	8.94	-45.0	-46.2	18.2	0.00e+00	0	38	0	240123904	62	3947
2026-01-20 00:49:46.96	24.89	9.03	-45.5	-46.8	17.6	0.00e+00	0	38	0	243269632	62	4236
2026-01-20 00:49:47.97	24.89	9.11	-45.0	-46.3	18.2	0.00e+00	0	38	0	246415360	62	3962
2026-01-20 00:49:48.97	24.88	9.19	-45.2	-46.5	18.0	0.00e+00	0	38	0	249561088	61	4325
2026-01-20 00:49:49.98	24.88	9.28	-45.1	-46.4	18.0	0.00e+00	0	38	0	252706816	61	4261
2026-01-20 00:49:50.99	24.88	9.36	-45.3	-46.6	17.9	0.00e+00	0	38	0	255852544	61	4366
2026-01-20 00:49:52.00	24.88	9.45	-45.1	-46.3	18.1	0.00e+00	0	38	0	258998272	61	4242
2026-01-20 00:49:53.01	24.88	9.53	-45.2	-46.5	18.0	0.00e+00	0	38	0	262144000	61	4302
2026-01-20 00:49:54.02	24.87	9.62	-45.3	-46.5	18.0	0.00e+00	0	38	0	265289728	61	4326
2026-01-20 00:49:55.02	24.87	9.71	-45.1	-46.3	18.2	0.00e+00	0	38	0	268435456	61	4232
2026-01-20 00:49:56.03	24.87	9.79	-45.3	-46.6	17.9	0.00e+00	0	38	0	271581184	61	4378
2026-01-20 00:49:57.04	24.87	9.88	-45.1	-46.3	18.2	0.00e+00	0	38	0	274726912	61	4229
2026-01-20 00:49:58.05	24.87	9.97	-45.1	-46.3	18.2	0.00e+00	0	38	0	277872640	61	4210
2026-01-20 00:49:59.05	24.86	10.05	-45.0	-46.2	18.4	0.00e+00	0	38	0	281018368	61	4157
2026-01-20 00:50:00.06	24.86	10.14	-45.1	-46.4	18.2	0.00e+00	0	38	0	284164096	61	4253
2026-01-20 00:50:01.07	24.86	10.23	-44.9	-46.1	18.4	0.00e+00	0	38	0	287309824	61	4127
2026-01-20 00:50:02.08	24.86	10.32	-44.8	-45.9	18.6	0.00e+00	0	38	0	290455552	61	4045
2026-01-20 00:50:03.09	24.85	10.41	-44.8	-46.0	18.5	0.00e+00	0	38	0	293601280	61	4071
2026-01-20 00:50:04.09	24.85	10.49	-44.9	-46.1	18.4	0.00e+00	0	38	0	296747008	61	4138
2026-01-20 00:50:05.10	24.85	10.58	-44.8	-46.0	18.5	0.00e+00	0	38	0	299892736	61	4070
2026-01-20 00:50:06.11	24.85	10.67	-44.8	-46.0	18.5	0.00e+00	0	38	0	303038464	61	4081
2026-01-20 00:50:07.12	24.84	10.76	-44.8	-45.9	18.6	0.00e+00	0	38	0	306184192	61	4037
2026-01-20 00:50:08.13	24.84	10.85	-44.9	-46.1	18.5	0.00e+00	0	38	0	309329920	61	4104
2026-01-20 00:50:09.14	24.84	10.94	-44.8	-46.0	18.5	0.00e+00	0	38	0	312475648	61	4079
2026-01-20 00:50:10.14	24.84	11.03	-44.7	-45.9	18.7	0.00e+00	0	38	0	315621376	61	4012
2026-01-20 00:50:11.15	24.83	11.12	-44.5	-45.6	18.9	0.00e+00	0	38	0	318767104	60	4142
2026-01-20 00:50:12.16	24.83	11.22	-44.5	-45.6	18.9	0.00e+00	0	38	0	321912832	60	4132
2026-01-20 00:50:13.17	24.83	11.31	-44.6	-45.7	18.8	0.00e+00	0	38	0	325058560	60	4179
2026-01-20 00:50:14.17	24.82	11.40	-44.5	-45.7	18.9	0.00e+00	0	38	0	328204288	60	4146
2026-01-20 00:50:15.18	24.82	11.49	-44.3	-45.4	19.2	0.00e+00	0	38	0	331350016	60	4028
2026-01-20 00:50:16.19	24.82	11.58	-44.6	-45.7	18.9	0.00e+00	0	38	0	334495744	60	4173
2026-01-20 00:50:17.20	24.82	11.68	-44.7	-45.8	18.8	0.00e+00	0	38	0	337641472	60	4228
2026-01-20 00:50:18.21	24.81	11.77	-44.4	-45.5	19.0	0.00e+00	0	38	0	340787200	60	4094
2026-01-20 00:50:19.21	24.81	11.86	-44.5	-45.6	19.0	0.00e+00	0	38	0	343932928	60	4105
2026-01-20 00:50:20.22	24.81	11.96	-44.3	-45.4	19.2	0.00e+00	0	38	0	347078656	60	4037
2026-01-20 00:50:21.23	24.80	12.05	-44.4	-45.4	19.1	0.00e+00	0	38	0	350224384	60	4049
2026-01-20 00:50:22.24	24.80	12.15	-44.4	-45.5	19.1	0.00e+00	0	38	0	353370112	60	4055
2026-01-20 00:50:23.25	24.80	12.24	-44.2	-45.3	19.3	0.00e+00	0	38	0	356515840	60	3996
2026-01-20 00:50:24.26	24.79	12.34	-44.2	-45.3	19.4	0.00e+00	0	38	0	359661568	60	3959
2026-01-20 00:50:25.26	24.79	12.44	-44.4	-45.4	19.2	0.00e+00	0	38	0	362807296	60	4050
2026-01-20 00:50:26.27	24.79	12.53	-44.0	-45.1	19.5	0.00e+00	0	38	0	365953024	60	3880
2026-01-20 00:50:27.28	24.78	12.63	-44.3	-45.4	19.2	0.00e+00	0	38	0	369098752	60	4022
2026-01-20 00:50:28.29	24.78	12.73	-44.3	-45.4	19.2	0.00e+00	0	38	0	372244480	60	4020
2026-01-20 00:50:29.30	24.78	12.82	-44.4	-45.4	19.2	0.00e+00	0	38	0	375390208	60	4046
2026-01-20 00:50:30.30	24.77	12.92	-44.1	-45.1	19.5	0.00e+00	0	38	0	378535936	60	3888
2026-01-20 00:50:31.31	24.77	13.02	-44.2	-45.3	19.4	0.00e+00	0	38	0	381681664	60	3967
2026-01-20 00:50:32.32	24.76	13.12	-44.2	-45.2	19.4	0.00e+00	0	38	0	384827392	60	3939
2026-01-20 00:50:33.33	24.76	13.22	-44.2	-45.3	19.3	0.00e+00	0	38	0	387973120	60	3974
2026-01-20 00:50:34.33	24.76	13.32	-44.1	-45.1	19.5	0.00e+00	0	38	0	391118848	60	3901
2026-01-20 00:50:35.34	24.75	13.42	-44.2	-45.3	19.4	0.00e+00	0	38	0	394264576	60	3959
2026-01-20 00:50:36.35	24.75	13.52	-44.1	-45.1	19.5	0.00e+00	0	38	0	397410304	60	3905
2026-01-20 00:50:37.35	24.74	13.62	-44.2	-45.3	19.4	0.00e+00	0	38	0	400556032	60	3980
2026-01-20 00:50:38.36	24.74	13.72	-44.3	-45.3	19.6	0.00e+00	0	38	0	403701760	59	4239
2026-01-20 00:50:39.37	24.74	13.82	-44.4	-45.5	19.5	0.00e+00	0	38	0	406847488	59	4301
2026-01-20 00:50:40.38	24.73	13.92	-44.4	-45.4	19.5	0.00e+00	0	38	0	409993216	59	4290
2026-01-20 00:50:41.39	24.73	14.03	-44.3	-45.4	19.6	0.00e+00	0	38	0	413138944	59	4274
2026-01-20 00:50:42.39	24.72	14.13	-44.1	-45.2	19.8	0.00e+00	0	38	0	416284672	59	4149
2026-01-20 00:50:43.40	24.72	14.23	-44.4	-45.4	19.6	0.00e+00	0	38	0	419430400	59	4271
2026-01-20 00:50:44.41	24.71	14.34	-44.2	-45.2	19.7	0.00e+00	0	38	0	422576128	59	4183
2026-01-20 00:50:45.42	24.71	14.44	-44.2	-45.2	19.8	0.00e+00	0	38	0	425721856	59	4173
2026-01-20 00:50:46.42	24.71	14.55	-44.1	-45.2	19.8	0.00e+00	0	38	0	428867584	59	4154
2026-01-20 00:50:47.43	24.70	14.65	-44.1	-45.1	19.9	0.00e+00	0	38	0	432013312	59	4124
2026-01-20 00:50:48.44	24.70	14.76	-44.3	-45.3	19.7	0.00e+00	0	38	0	435159040	59	4225
2026-01-20 00:50:49.45	24.69	14.86	-44.2	-45.2	19.8	0.00e+00	0	38	0	438304768	59	4166
2026-01-20 00:50:50.45	24.69	14.97	-44.1	-45.2	19.8	0.00e+00	0	38	0	441450496	59	4147
2026-01-20 00:50:51.46	24.68	15.08	-44.2	-45.2	19.8	0.00e+00	0	38	0	444596224	59	4178
2026-01-20 00:50:52.47	24.68	15.18	-44.2	-45.2	19.8	0.00e+00	0	38	0	447741952	59	4171
2026-01-20 00:50:53.48	24.67	15.29	-44.2	-45.2	19.8	0.00e+00	0	38	0	450887680	59	4185
2026-01-20 00:50:54.49	24.67	15.40	-44.2	-45.2	19.8	0.00e+00	0	38	0	454033408	59	4175
2026-01-20 00:50:55.49	24.66	15.51	-44.1	-45.1	19.9	0.00e+00	0	38	0	457179136	59	4110
2026-01-20 00:50:56.50	24.66	15.62	-44.2	-45.3	19.7	0.00e+00	0	38	0	460324864	59	4205
2026-01-20 00:50:57.51	24.65	15.73	-44.1	-45.1	19.9	0.00e+00	0	38	0	463470592	59	4132
2026-01-20 00:50:58.52	24.65	15.84	-44.2	-45.2	19.8	0.00e+00	0	38	0	466616320	59	4156
2026-01-20 00:50:59.53	24.64	15.95	-44.1	-45.1	19.9	0.00e+00	0	38	0	469762048	59	4143
2026-01-20 00:51:00.54	24.63	16.06	-44.2	-45.2	19.8	0.00e+00	0	38	0	472907776	59	4169
2026-01-20 00:51:01.54	24.63	16.17	-44.3	-45.3	19.7	0.00e+00	0	38	0	476053504	59	4215
2026-01-20 00:51:02.56	24.62	16.29	-44.3	-45.3	19.7	0.00e+00	0	38	0	479199232	59	4222
2026-01-20 00:51:03.56	24.62	16.40	-44.3	-45.3	19.8	0.00e+00	0	38	0	482344960	59	4209
2026-01-20 00:51:04.57	24.61	16.51	-44.3	-45.4	19.7	0.00e+00	0	38	0	485490688	59	4251
2026-01-20 00:51:05.58	24.61	16.63	-44.2	-45.3	19.8	0.00e+00	0	38	0	488636416	59	4196
2026-01-20 00:51:06.58	24.60	16.74	-44.2	-45.2	19.8	0.00e+00	0	38	0	491782144	59	4182
2026-01-20 00:51:07.59	24.59	16.86	-44.2	-45.3	19.8	0.00e+00	0	38	0	494927872	59	4205
2026-01-20 00:51:08.60	24.59	16.97	-44.2	-45.2	19.8	0.00e+00	0	38	0	498073600	59	4179
2026-01-20 00:51:09.61	24.58	17.09	-44.2	-45.3	19.8	0.00e+00	0	38	0	501219328	59	4194
2026-01-20 00:51:10.61	24.58	17.20	-44.3	-45.3	19.8	0.00e+00	0	38	0	504365056	59	4230
2026-01-20 00:51:11.62	24.57	17.32	-44.3	-45.4	19.7	0.00e+00	0	38	0	507510784	59	4246
2026-01-20 00:51:12.63	24.56	17.44	-44.3	-45.3	19.8	0.00e+00	0	38	0	510656512	59	4227
2026-01-20 00:51:13.64	24.56	17.56	-44.3	-45.3	19.7	0.00e+00	0	39	0	513802240	59	4238
2026-01-20 00:51:14.65	24.55	17.68	-44.2	-45.3	19.8	0.00e+00	0	38	0	516947968	59	4196
2026-01-20 00:51:15.65	24.54	17.80	-44.2	-45.2	19.8	0.00e+00	0	38	0	520093696	59	4180
2026-01-20 00:51:16.66	24.54	17.92	-44.2	-45.2	19.9	0.00e+00	0	38	0	523239424	59	4167
2026-01-20 00:51:17.67	24.53	18.04	-44.2	-45.2	19.9	0.00e+00	0	38	0	526385152	59	4162
2026-01-20 00:51:18.68	24.52	18.16	-44.1	-45.2	19.9	0.00e+00	0	39	0	529530880	59	4151
2026-01-20 00:51:19.69	24.52	18.28	-44.2	-45.2	19.9	0.00e+00	0	39	0	532676608	59	4169
2026-01-20 00:51:20.70	24.51	18.40	-44.2	-45.3	19.8	0.00e+00	0	38	0	535822336	59	4200
2026-01-20 00:51:21.70	24.50	18.53	-44.1	-45.1	20.0	0.00e+00	0	38	0	538968064	59	4127
2026-01-20 00:51:22.71	24.49	18.65	-44.1	-45.1	20.0	0.00e+00	0	38	0	542113792	59	4122
2026-01-20 00:51:23.72	24.49	18.78	-44.3	-45.3	19.8	0.00e+00	0	39	0	545259520	59	4223
2026-01-20 00:51:24.72	24.48	18.90	-44.1	-45.1	20.0	0.00e+00	0	38	0	548405248	59	4110
2026-01-20 00:51:25.73	24.47	19.03	-44.0	-45.0	20.1	0.00e+00	0	39	0	551550976	59	4083
2026-01-20 00:51:26.74	24.46	19.15	-44.0	-45.0	20.1	0.00e+00	0	38	0	554696704	59	4078
2026-01-20 00:51:27.75	24.46	19.28	-44.1	-45.1	20.1	0.00e+00	0	38	0	557842432	59	4101
2026-01-20 00:51:28.75	24.45	19.41	-43.9	-44.9	20.2	0.00e+00	0	38	0	560988160	59	4036
2026-01-20 00:51:29.76	24.44	19.54	-43.9	-44.9	20.2	0.00e+00	0	38	0	564133888	59	4045
2026-01-20 00:51:30.77	24.43	19.66	-43.9	-44.9	20.2	0.00e+00	0	39	0	567279616	59	4043
2026-01-20 00:51:31.78	24.42	19.79	-44.0	-44.9	20.1	0.00e+00	0	38	0	570425344	59	4048
2026-01-20 00:51:32.79	24.41	19.92	-43.9	-44.9	20.2	0.00e+00	0	38	0	573571072	59	4043
2026-01-20 00:51:33.79	24.41	20.05	-44.0	-45.0	20.1	0.00e+00	0	38	0	576716800	59	4096
2026-01-20 00:51:34.80	24.40	20.19	-44.1	-45.1	20.0	0.00e+00	0	38	0	579862528	59	4135
2026-01-20 00:51:35.81	24.39	20.32	-43.9	-44.9	20.2	0.00e+00	0	39	0	583008256	59	4017
2026-01-20 00:51:36.82	24.38	20.45	-43.9	-44.8	20.3	0.00e+00	0	38	0	586153984	59	4002
2026-01-20 00:51:37.83	24.37	20.59	-43.8	-44.8	20.3	0.00e+00	0	39	0	589299712	59	3988
2026-01-20 00:51:38.84	24.36	20.72	-43.9	-44.9	20.3	0.00e+00	0	38	0	592445440	59	4012
2026-01-20 00:51:39.85	24.35	20.86	-43.9	-44.9	20.2	0.00e+00	0	38	0	595591168	59	4029
2026-01-20 00:51:40.85	24.34	20.99	-43.8	-44.8	20.3	0.00e+00	0	39	0	598736896	59	3990
2026-01-20 00:51:41.86	24.33	21.13	-43.7	-44.6	20.5	0.00e+00	0	38	0	601882624	59	3913
2026-01-20 00:51:42.87	24.33	21.27	-43.6	-44.5	20.6	0.00e+00	0	38	0	605028352	59	3856
2026-01-20 00:51:43.88	24.32	21.41	-43.5	-44.5	20.6	0.00e+00	0	38	0	608174080	59	3836
2026-01-20 00:51:44.89	24.31	21.55	-43.4	-44.3	20.7	0.00e+00	0	38	0	611319808	58	4001
2026-01-20 00:51:45.89	24.30	21.68	-43.4	-44.3	20.8	0.00e+00	0	38	0	614465536	58	3989
2026-01-20 00:51:46.90	24.29	21.82	-43.3	-44.2	20.9	0.00e+00	0	39	0	617611264	58	3930
2026-01-20 00:51:47.91	24.28	21.97	-43.3	-44.2	20.8	0.00e+00	0	39	0	620756992	58	3949
2026-01-20 00:51:48.92	24.27	22.11	-43.4	-44.3	20.8	0.00e+00	0	39	0	623902720	58	3973
2026-01-20 00:51:49.93	24.26	22.25	-43.1	-44.0	21.0	0.00e+00	0	39	0	627048448	58	3844
2026-01-20 00:51:50.94	24.24	22.40	-43.1	-44.0	21.1	0.00e+00	0	39	0	630194176	58	3839
2026-01-20 00:51:51.94	24.23	22.54	-43.1	-44.0	21.1	0.00e+00	0	39	0	633339904	58	3850
2026-01-20 00:51:52.95	24.22	22.68	-43.1	-44.0	21.1	0.00e+00	0	39	0	636485632	58	3848
2026-01-20 00:51:53.96	24.21	22.83	-42.9	-43.8	21.3	0.00e+00	0	39	0	639631360	57	3962
2026-01-20 00:51:54.97	24.20	22.98	-42.9	-43.8	21.2	0.00e+00	0	39	0	642777088	57	3985
2026-01-20 00:51:55.97	24.19	23.13	-42.9	-43.7	21.3	0.00e+00	0	39	0	645922816	57	3955
2026-01-20 00:51:56.98	24.18	23.27	-42.8	-43.7	21.4	0.00e+00	0	38	0	649068544	57	3914
2026-01-20 00:51:57.99	24.17	23.42	-42.8	-43.7	21.3	0.00e+00	0	39	0	652214272	57	3929
2026-01-20 00:51:59.00	24.16	23.58	-42.9	-43.7	21.3	0.00e+00	0	39	0	655360000	57	3948
2026-01-20 00:52:00.01	24.14	23.73	-42.7	-43.6	21.4	0.00e+00	0	38	0	658505728	57	3892
2026-01-20 00:52:01.01	24.13	23.88	-42.8	-43.7	21.3	0.00e+00	0	39	0	661651456	57	3922
2026-01-20 00:52:02.02	24.12	24.03	-42.8	-43.7	21.4	0.00e+00	0	39	0	664797184	57	3929
2026-01-20 00:52:03.03	24.11	24.19	-42.9	-43.8	21.3	0.00e+00	0	38	0	667942912	57	3988
2026-01-20 00:52:04.04	24.10	24.34	-42.9	-43.8	21.3	0.00e+00	0	38	0	671088640	57	3974
2026-01-20 00:52:05.05	24.08	24.50	-43.0	-43.9	21.2	0.00e+00	0	38	0	674234368	57	4011
2026-01-20 00:52:06.06	24.07	24.65	-42.9	-43.8	21.2	0.00e+00	0	39	0	677380096	57	3978
2026-01-20 00:52:07.06	24.06	24.81	-42.8	-43.7	21.3	0.00e+00	0	39	0	680525824	57	3934
2026-01-20 00:52:08.07	24.04	24.97	-42.8	-43.7	21.3	0.00e+00	0	39	0	683671552	57	3940
2026-01-20 00:52:09.08	24.03	25.13	-42.8	-43.7	21.3	0.00e+00	0	38	0	686817280	57	3930
2026-01-20 00:52:10.09	24.02	25.29	-42.9	-43.8	21.3	0.00e+00	0	39	0	689963008	57	3961
2026-01-20 00:52:11.10	24.00	25.45	-42.9	-43.8	21.3	0.00e+00	0	39	0	693108736	57	3967
2026-01-20 00:52:12.10	23.99	25.61	-43.0	-43.9	21.2	0.00e+00	0	38	0	696254464	57	4033
2026-01-20 00:52:13.11	23.98	25.78	-43.1	-44.0	21.1	0.00e+00	0	38	0	699400192	57	4058
2026-01-20 00:52:14.12	23.96	25.94	-43.3	-44.2	20.9	0.00e+00	0	38	0	702545920	57	4159
2026-01-20 00:52:15.13	23.95	26.11	-43.4	-44.3	20.9	0.00e+00	0	39	0	705691648	57	4204
2026-01-20 00:52:16.13	23.93	26.27	-43.5	-44.4	20.7	0.00e+00	0	39	0	708837376	57	4278
2026-01-20 00:52:17.14	23.92	26.44	-43.5	-44.5	20.7	0.00e+00	0	39	0	711983104	57	4300
2026-01-20 00:52:18.15	23.90	26.61	-43.8	-44.7	20.4	0.00e+00	0	39	0	715128832	58	4188
2026-01-20 00:52:19.16	23.89	26.78	-43.9	-44.9	20.3	0.00e+00	0	39	0	718274560	58	4275
2026-01-20 00:52:20.17	23.87	26.95	-44.0	-45.0	20.2	0.00e+00	0	39	0	721420288	58	4305
2026-01-20 00:52:21.17	23.86	27.12	-44.2	-45.1	20.1	0.00e+00	0	38	0	724566016	58	4383
2026-01-20 00:52:22.18	23.84	27.30	-44.1	-45.1	20.1	0.00e+00	0	38	0	727711744	58	4376
2026-01-20 00:52:23.19	23.82	27.47	-44.2	-45.1	20.1	0.00e+00	0	38	0	730857472	58	4385
2026-01-20 00:52:24.20	23.81	27.65	-44.3	-45.3	20.0	0.00e+00	0	39	0	734003200	59	4210
2026-01-20 00:52:25.21	23.79	27.82	-44.2	-45.2	20.0	0.00e+00	0	39	0	737148928	59	4184
2026-01-20 00:52:26.22	23.78	28.00	-44.4	-45.4	19.9	0.00e+00	0	39	0	740294656	59	4250
2026-01-20 00:52:27.23	23.76	28.18	-44.3	-45.4	19.9	0.00e+00	0	38	0	744488960	59	4249
2026-01-20 00:52:28.23	23.74	28.36	-44.3	-45.3	19.9	0.00e+00	0	39	0	747634688	59	4241
2026-01-20 00:52:29.24	23.72	28.54	-44.3	-45.3	19.9	0.00e+00	0	39	0	749731840	59	4229
2026-01-20 00:52:30.25	23.71	28.72	-44.3	-45.3	19.9	0.00e+00	0	39	0	752877568	59	4230
2026-01-20 00:52:31.26	23.69	28.91	-44.3	-45.3	20.0	0.00e+00	0	39	0	756023296	59	4201
2026-01-20 00:52:32.27	23.67	29.09	-44.2	-45.2	20.1	0.00e+00	0	39	0	759169024	59	4154
2026-01-20 00:52:33.28	23.65	29.28	-44.3	-45.3	20.0	0.00e+00	0	38	0	762314752	59	4198
2026-01-20 00:52:34.29	23.63	29.46	-44.2	-45.2	20.1	0.00e+00	0	39	0	765460480	59	4160
2026-01-20 00:52:35.29	23.61	29.65	-44.2	-45.3	20.0	0.00e+00	0	38	0	768606208	59	4204
2026-01-20 00:52:36.30	23.59	29.84	-44.2	-45.2	20.1	0.00e+00	0	39	0	771751936	59	4185
2026-01-20 00:52:37.31	23.58	30.03	-44.2	-45.2	20.1	0.00e+00	0	39	0	774897664	59	4190
2026-01-20 00:52:38.32	23.56	30.22	-44.0	-45.0	20.3	0.00e+00	0	38	0	778043392	59	4069
2026-01-20 00:52:39.33	23.54	30.42	-44.0	-45.0	20.3	0.00e+00	0	39	0	782237696	59	4067
2026-01-20 00:52:40.33	23.52	30.61	-44.1	-45.1	20.3	0.00e+00	0	39	0	785383424	59	4108
2026-01-20 00:52:41.34	23.49	30.81	-44.1	-45.1	20.3	0.00e+00	0	39	0	788529152	59	4111
2026-01-20 00:52:42.35	23.47	31.00	-44.1	-45.1	20.3	0.00e+00	0	39	0	791674880	59	4115
2026-01-20 00:52:43.36	23.45	31.20	-44.0	-45.0	20.4	0.00e+00	0	38	0	794820608	59	4054
2026-01-20 00:52:44.37	23.43	31.40	-43.9	-44.9	20.4	0.00e+00	0	38	0	796917760	59	4013
2026-01-20 00:52:45.37	23.41	31.60	-44.0	-45.0	20.3	0.00e+00	0	39	0	800063488	59	4054
2026-01-20 00:52:46.38	23.39	31.81	-43.9	-44.8	20.5	0.00e+00	0	39	0	803209216	59	3991
2026-01-20 00:52:47.39	23.36	32.01	-43.9	-44.8	20.4	0.00e+00	0	39	0	806354944	59	3999
2026-01-20 00:52:48.40	23.34	32.22	-44.0	-45.0	20.3	0.00e+00	0	38	0	809500672	59	4052
2026-01-20 00:52:49.40	23.32	32.42	-44.0	-45.0	20.3	0.00e+00	0	39	0	812646400	59	4065
2026-01-20 00:52:50.41	23.29	32.63	-44.2	-45.2	20.1	0.00e+00	0	38	0	815792128	59	4153
2026-01-20 00:52:51.42	23.27	32.84	-44.4	-45.4	20.0	0.00e+00	0	39	0	818937856	59	4273
2026-01-20 00:52:52.43	23.25	33.05	-44.4	-45.4	20.0	0.00e+00	0	39	0	823132160	59	4243
2026-01-20 00:52:53.44	23.22	33.27	-44.5	-45.5	19.9	0.00e+00	0	39	0	826277888	59	4320
2026-01-20 00:52:54.44	23.20	33.48	-44.6	-45.7	19.7	0.00e+00	0	39	0	829423616	59	4397
2026-01-20 00:52:55.45	23.17	33.69	-44.6	-45.7	19.7	0.00e+00	0	38	0	832569344	59	4398
2026-01-20 00:52:56.46	23.15	33.91	-44.5	-45.5	19.5	0.00e+00	0	39	0	835715072	60	4097
2026-01-20 00:52:57.47	23.12	34.13	-44.7	-45.7	19.4	0.00e+00	0	39	0	838860800	60	4191
2026-01-20 00:52:58.47	23.09	34.35	-44.7	-45.7	19.4	0.00e+00	0	39	0	842006528	60	4177
2026-01-20 00:52:59.48	23.07	34.57	-45.0	-46.1	19.0	0.00e+00	0	39	0	844103680	60	4358
2026-01-20 00:53:00.49	23.04	34.80	-45.0	-46.1	19.0	0.00e+00	0	39	0	847249408	60	4379
2026-01-20 00:53:01.50	23.01	35.02	-45.2	-46.4	18.7	0.00e+00	0	39	0	850395136	61	4256
2026-01-20 00:53:02.51	22.98	35.25	-45.3	-46.5	18.7	0.00e+00	0	39	0	853540864	61	4306
2026-01-20 00:53:03.51	22.95	35.48	-45.5	-46.6	18.5	0.00e+00	0	39	0	856686592	61	4386
2026-01-20 00:53:04.52	22.92	35.71	-45.5	-46.7	18.5	0.00e+00	0	39	0	859832320	61	4408
2026-01-20 00:53:05.53	22.89	35.94	-45.6	-46.8	18.4	0.00e+00	0	39	0	864026624	61	4463
2026-01-20 00:53:06.54	22.86	36.17	-45.5	-46.7	18.5	0.00e+00	0	39	0	867172352	61	4423
2026-01-20 00:53:07.54	22.83	36.40	-45.6	-46.9	18.4	0.00e+00	0	38	0	870318080	61	4494
2026-01-20 00:53:08.55	22.80	36.64	-45.4	-46.6	18.6	0.00e+00	0	39	0	873463808	61	4357
2026-01-20 00:53:09.56	22.77	36.88	-45.5	-46.6	18.5	0.00e+00	0	39	0	876609536	61	4387
2026-01-20 00:53:10.57	22.74	37.12	-45.3	-46.5	18.7	0.00e+00	0	39	0	879755264	61	4304
2026-01-20 00:53:11.58	22.70	37.36	-45.4	-46.6	18.6	0.00e+00	0	39	0	882900992	61	4350
2026-01-20 00:53:12.59	22.67	37.61	-45.4	-46.6	18.7	0.00e+00	0	39	0	886046720	61	4345
2026-01-20 00:53:13.59	22.64	37.85	-45.4	-46.6	18.6	0.00e+00	0	39	0	889192448	61	4360
2026-01-20 00:53:14.60	22.60	38.10	-45.4	-46.5	18.7	0.00e+00	0	39	0	891289600	61	4321
2026-01-20 00:53:15.61	22.57	38.35	-45.6	-46.8	18.4	0.00e+00	0	39	0	894435328	61	4473
2026-01-20 00:53:16.62	22.53	38.60	-45.6	-46.7	18.5	0.00e+00	0	39	0	897581056	61	4429
2026-01-20 00:53:17.63	22.50	38.85	-45.7	-46.8	18.4	0.00e+00	0	39	0	901775360	62	4225
2026-01-20 00:53:18.63	22.46	39.11	-45.6	-46.7	18.5	0.00e+00	0	39	0	904921088	62	4174
2026-01-20 00:53:19.64	22.42	39.36	-45.5	-46.7	18.5	0.00e+00	0	39	0	908066816	62	4154
2026-01-20 00:53:20.65	22.38	39.62	-45.5	-46.6	18.6	0.00e+00	0	38	0	911212544	62	4136
2026-01-20 00:53:21.66	22.34	39.88	-45.5	-46.6	18.6	0.00e+00	0	39	0	914358272	62	4142
2026-01-20 00:53:22.67	22.30	40.15	-45.5	-46.7	18.5	0.00e+00	0	39	0	917504000	62	4174
2026-01-20 00:53:23.67	22.26	40.41	-45.7	-46.9	18.3	0.00e+00	0	38	0	920649728	62	4291
2026-01-20 00:53:24.68	22.22	40.67	-45.7	-46.9	18.4	0.00e+00	0	38	0	923795456	62	4268
2026-01-20 00:53:25.69	22.18	40.94	-45.9	-47.2	18.1	0.00e+00	0	39	0	926941184	62	4423
2026-01-20 00:53:26.70	22.14	41.21	-46.1	-47.4	17.9	0.00e+00	0	39	0	930086912	62	4532
2026-01-20 00:53:27.71	22.09	41.49	-46.2	-47.5	17.9	0.00e+00	0	39	0	933232640	62	4553
2026-01-20 00:53:28.71	22.05	41.76	-46.1	-47.5	17.8	0.00e+00	0	39	0	936378368	62	4548
2026-01-20 00:53:29.72	22.00	42.04	-46.1	-47.4	17.9	0.00e+00	0	39	0	938475520	62	4517
2026-01-20 00:53:30.73	21.96	42.31	-45.9	-47.1	18.2	0.00e+00	0	39	0	942669824	62	4367
2026-01-20 00:53:31.73	21.91	42.59	-46.0	-47.2	18.1	0.00e+00	0	38	0	945815552	62	4439
2026-01-20 00:53:32.74	21.86	42.88	-46.0	-47.2	18.1	0.00e+00	0	38	0	948961280	62	4414
2026-01-20 00:53:33.75	21.82	43.16	-46.0	-47.3	18.0	0.00e+00	0	39	0	952107008	62	4443
2026-01-20 00:53:34.76	21.77	43.45	-46.2	-47.5	17.8	0.00e+00	0	39	0	955252736	63	4321
2026-01-20 00:53:35.77	21.72	43.74	-46.4	-47.7	17.5	0.00e+00	0	39	0	958398464	63	4441
2026-01-20 00:53:36.77	21.66	44.03	-46.5	-47.8	17.5	0.00e+00	0	39	0	961544192	63	4481
2026-01-20 00:53:37.78	21.61	44.32	-46.7	-48.1	17.2	0.00e+00	0	39	0	964689920	64	4356
2026-01-20 00:53:38.79	21.56	44.62	-46.8	-48.3	17.0	0.00e+00	0	39	0	967835648	64	4468
2026-01-20 00:53:39.80	21.50	44.91	-46.8	-48.3	17.1	0.00e+00	0	39	0	970981376	64	4446
2026-01-20 00:53:40.81	21.45	45.22	-46.6	-48.0	17.3	0.00e+00	0	39	0	974127104	64	4330
2026-01-20 00:53:41.81	21.39	45.51	-46.4	-47.8	17.5	0.00e+00	0	38	0	977272832	64	4224
2026-01-20 00:53:42.82	21.33	45.82	-46.5	-47.8	17.5	0.00e+00	0	39	0	980418560	64	4219
2026-01-20 00:53:43.83	21.27	46.13	-46.3	-47.7	17.6	0.00e+00	0	39	0	983564288	64	4153
2026-01-20 00:53:44.84	21.21	46.44	-46.1	-47.3	18.1	0.00e+00	0	39	0	986710016	63	4221
2026-01-20 00:53:45.85	21.15	46.75	-45.9	-47.1	18.3	0.00e+00	0	38	0	989855744	63	4104
2026-01-20 00:53:46.85	21.09	47.06	-45.8	-47.0	18.3	0.00e+00	0	39	0	993001472	63	4068
2026-01-20 00:53:47.86	21.02	47.38	-45.5	-46.6	18.5	0.00e+00	0	39	0	996147200	63	3908
2026-01-20 00:53:48.87	20.96	47.69	-45.2	-46.3	18.8	0.00e+00	0	39	0	999292928	62	3974
2026-01-20 00:53:49.88	20.89	48.02	-45.1	-46.2	18.9	0.00e+00	0	39	0	1002438656	62	3947
2026-01-20 00:53:50.89	20.82	48.34	-44.7	-45.7	19.4	0.00e+00	0	39	0	1005584384	61	3957
2026-01-20 00:53:51.90	20.75	48.66	-44.6	-45.6	19.6	0.00e+00	0	39	0	1008730112	61	3890
2026-01-20 00:53:52.90	20.68	48.99	-44.6	-45.6	19.6	0.00e+00	0	39	0	1011875840	61	3907
2026-01-20 00:53:53.91	20.60	49.32	-44.5	-45.5	19.7	0.00e+00	0	39	0	1015021568	61	3847
2026-01-20 00:53:54.92	20.53	49.65	-44.8	-45.8	19.5	0.00e+00	0	39	0	1018167296	61	3990
2026-01-20 00:53:55.93	20.45	49.99	-45.0	-46.1	19.2	0.00e+00	0	39	0	1021313024	61	4120
2026-01-20 00:53:56.93	20.37	50.32	-45.0	-46.1	19.2	0.00e+00	0	39	0	1024458752	61	4100
2026-01-20 00:53:57.94	20.29	50.66	-45.1	-46.2	19.0	0.00e+00	0	39	0	1027604480	61	4184
2026-01-20 00:53:58.95	20.21	51.01	-45.2	-46.3	18.9	0.00e+00	0	39	0	1030750208	61	4230
2026-01-20 00:53:59.96	20.12	51.35	-45.3	-46.4	18.9	0.00e+00	0	39	0	1033895936	61	4260
2026-01-20 00:54:00.97	20.04	51.70	-45.2	-46.3	19.0	0.00e+00	0	39	0	1037041664	61	4234
2026-01-20 00:54:01.97	19.95	52.05	-45.1	-46.2	19.1	0.00e+00	0	38	0	1040187392	61	4150
2026-01-20 00:54:02.98	19.86	52.40	-45.0	-46.1	19.3	0.00e+00	0	39	0	1043333120	61	4105
2026-01-20 00:54:03.99	19.76	52.75	-44.6	-45.6	19.7	0.00e+00	0	39	0	1046478848	61	3875
2026-01-20 00:54:04.99	19.67	53.11	-44.2	-45.2	20.0	0.00e+00	0	39	0	1049624576	60	3917
2026-01-20 00:54:06.00	19.57	53.47	-44.1	-45.0	20.2	0.00e+00	0	39	0	1052770304	60	3862
2026-01-20 00:54:07.01	19.47	53.83	-44.3	-45.2	20.3	0.00e+00	0	38	0	1055916032	59	4193
2026-01-20 00:54:08.02	19.36	54.20	-44.3	-45.3	20.3	0.00e+00	0	38	0	1059061760	59	4206
2026-01-20 00:54:09.03	19.26	54.56	-44.2	-45.1	20.4	0.00e+00	0	39	0	1062207488	59	4142
2026-01-20 00:54:10.03	19.15	54.93	-44.2	-45.1	20.4	0.00e+00	0	39	0	1065353216	59	4133
2026-01-20 00:54:11.04	19.04	55.30	-44.2	-45.1	20.3	0.00e+00	0	39	0	1068498944	59	4129
2026-01-20 00:54:12.05	18.92	55.68	-43.7	-44.6	20.9	0.00e+00	0	39	0	1071644672	59	3883
2026-01-20 00:54:13.06	18.80	56.05	-43.4	-44.3	21.2	0.00e+00	0	38	0	1074790400	58	3982
2026-01-20 00:54:14.06	18.68	56.43	-43.6	-44.4	21.1	0.00e+00	0	39	0	1077936128	58	4050
2026-01-20 00:54:15.07	18.56	56.81	-43.7	-44.5	21.0	0.00e+00	0	39	0	1081081856	58	4098
2026-01-20 00:54:16.08	18.43	57.20	-43.6	-44.5	21.0	0.00e+00	0	38	0	1084227584	58	4083
2026-01-20 00:54:17.09	18.29	57.59	-43.5	-44.4	21.1	0.00e+00	0	39	0	1087373312	58	4019
2026-01-20 00:54:18.10	18.16	57.97	-43.6	-44.5	21.0	0.00e+00	0	39	0	1090519040	58	4069
2026-01-20 00:54:19.11	18.01	58.37	-43.5	-44.4	21.1	0.00e+00	0	39	0	1093664768	58	4045
2026-01-20 00:54:20.11	17.87	58.76	-43.6	-44.5	21.0	0.00e+00	0	39	0	1096810496	58	4055
2026-01-20 00:54:21.12	17.72	59.16	-43.5	-44.4	21.1	0.00e+00	0	39	0	1099956224	58	4039
2026-01-20 00:54:22.13	17.56	59.56	-43.6	-44.4	21.0	0.00e+00	0	39	0	1103101952	58	4051
2026-01-20 00:54:23.14	17.40	59.96	-43.4	-44.3	21.1	0.00e+00	0	39	0	1106247680	58	3967
2026-01-20 00:54:24.15	17.24	60.36	-43.6	-44.5	21.0	0.00e+00	0	39	0	1109393408	58	4061
2026-01-20 00:54:25.16	17.07	60.77	-43.6	-44.5	20.8	0.00e+00	0	39	0	1112539136	58	4094
2026-01-20 00:54:26.16	16.89	61.17	-43.6	-44.5	21.0	0.00e+00	0	39	0	1115684864	58	4080
2026-01-20 00:54:27.17	16.71	61.58	-43.2	-44.1	21.4	0.00e+00	0	39	0	1118830592	58	3886
2026-01-20 00:54:28.18	16.52	62.00	-43.1	-44.0	21.5	0.00e+00	0	39	0	1121976320	58	3842
2026-01-20 00:54:29.19	16.33	62.41	-43.0	-43.8	21.6	0.00e+00	0	38	0	1125122048	57	3996
2026-01-20 00:54:30.19	16.13	62.83	-42.9	-43.7	21.6	0.00e+00	0	39	0	1128267776	57	3958
2026-01-20 00:54:31.20	15.92	63.25	-43.0	-43.8	21.6	0.00e+00	0	39	0	1131413504	57	4000
2026-01-20 00:54:32.21	15.70	63.67	-42.8	-43.6	21.7	0.00e+00	0	39	0	1134559232	57	3909
2026-01-20 00:54:33.22	15.47	64.10	-42.8	-43.6	21.7	0.00e+00	0	39	0	1137704960	57	3911
2026-01-20 00:54:34.23	15.24	64.52	-42.8	-43.6	21.8	0.00e+00	0	39	0	1140850688	57	3907
2026-01-20 00:54:35.23	15.00	64.95	-42.7	-43.5	21.8	0.00e+00	0	39	0	1143996416	57	3867
2026-01-20 00:54:36.24	14.75	65.38	-42.5	-43.3	22.0	0.00e+00	0	39	0	1147142144	57	3770
2026-01-20 00:54:37.25	14.48	65.81	-42.5	-43.3	22.0	0.00e+00	0	39	0	1150287872	56	3971
2026-01-20 00:54:38.25	14.21	66.24	-42.3	-43.1	22.2	0.00e+00	0	39	0	1153433600	56	3879
2026-01-20 00:54:39.26	13.93	66.68	-42.1	-42.8	22.4	0.00e+00	0	39	0	1156579328	56	3780
2026-01-20 00:54:40.27	13.63	67.12	-42.2	-43.0	22.3	0.00e+00	0	38	0	1159725056	56	3853
2026-01-20 00:54:41.28	13.32	67.56	-42.4	-43.2	22.2	0.00e+00	0	39	0	1162870784	56	3914
2026-01-20 00:54:42.29	13.00	68.00	-42.5	-43.3	22.1	0.00e+00	0	39	0	1166016512	56	3967
2026-01-20 00:54:43.29	12.66	68.44	-42.4	-43.2	22.2	0.00e+00	0	39	0	1169162240	56	3926
2026-01-20 00:54:44.30	12.31	68.88	-42.6	-43.4	22.0	0.00e+00	0	39	0	1172307968	56	4017
2026-01-20 00:54:45.31	11.94	69.33	-42.8	-43.7	21.7	0.00e+00	0	39	0	1175453696	56	4161
2026-01-20 00:54:46.32	11.55	69.77	-42.9	-43.8	21.6	0.00e+00	0	39	0	1178599424	56	4207
2026-01-20 00:54:47.33	11.14	70.22	-43.0	-43.8	21.5	0.00e+00	0	39	0	1181745152	56	4225
2026-01-20 00:54:48.33	10.72	70.67	-42.9	-43.7	21.5	0.00e+00	0	39	0	1184890880	56	4166
2026-01-20 00:54:49.34	10.27	71.12	-43.2	-44.0	21.4	0.00e+00	0	39	0	1188036608	56	4339
2026-01-20 00:54:50.35	9.79	71.57	-43.1	-44.0	21.4	0.00e+00	0	39	0	1191182336	56	4333
2026-01-20 00:54:51.36	9.29	72.02	-43.2	-44.1	21.4	0.00e+00	0	39	0	1194328064	57	4125
2026-01-20 00:54:52.37	8.77	72.47	-43.3	-44.1	21.4	0.00e+00	0	39	0	1197473792	57	4143
2026-01-20 00:54:53.37	8.22	72.92	-43.3	-44.2	21.2	0.00e+00	0	39	0	1200619520	57	4153
2026-01-20 00:54:54.38	7.63	73.38	-43.3	-44.2	21.2	0.00e+00	0	39	0	1203765248	57	4184
2026-01-20 00:54:55.39	7.01	73.83	-43.0	-43.8	21.5	0.00e+00	0	38	0	1206910976	57	4002
2026-01-20 00:54:56.40	6.35	74.28	-42.7	-43.5	21.9	0.00e+00	0	39	0	1210056704	57	3839
2026-01-20 00:54:57.41	5.65	74.73	-42.7	-43.6	21.8	0.00e+00	0	39	0	1213202432	57	3881
2026-01-20 00:54:58.41	4.91	75.18	-42.7	-43.5	21.8	0.00e+00	0	39	0	1216348160	57	3853
2026-01-20 00:54:59.42	4.11	75.63	-42.7	-43.5	21.9	0.00e+00	0	39	0	1219493888	57	3856
2026-01-20 00:55:00.43	3.26	76.08	-42.6	-43.4	21.9	0.00e+00	0	39	0	1222639616	57	3820
2026-01-20 00:55:01.44	2.36	76.53	-42.8	-43.6	21.8	0.00e+00	0	39	0	1225785344	57	3887
2026-01-20 00:55:02.45	1.39	76.97	-43.0	-43.9	21.6	0.00e+00	0	38	0	1228931072	57	4018
2026-01-20 00:55:03.45	0.36	77.41	-43.1	-43.9	21.5	0.00e+00	0	39	0	1232076800	57	4046
2026-01-20 00:55:04.46	359.24	77.85	-43.1	-43.9	21.5	0.00e+00	0	39	0	1235222528	57	4048
2026-01-20 00:55:05.47	358.03	78.29	-43.1	-43.9	21.5	0.00e+00	0	38	0	1238368256	57	4038
2026-01-20 00:55:06.48	356.73	78.72	-43.2	-44.1	21.1	0.00e+00	0	39	0	1241513984	57	4106
2026-01-20 00:55:07.49	355.32	79.14	-43.1	-44.0	21.3	0.00e+00	0	39	0	1244659712	57	4072
2026-01-20 00:55:08.49	353.82	79.56	-43.0	-43.8	21.6	0.00e+00	0	39	0	1247805440	57	3972
2026-01-20 00:55:09.50	352.16	79.97	-42.7	-43.6	21.8	0.00e+00	0	39	0	1250951168	57	3873
2026-01-20 00:55:10.51	350.37	80.38	-42.9	-43.7	21.6	0.00e+00	0	39	0	1254096896	57	3944
2026-01-20 00:55:11.52	348.42	80.77	-42.8	-43.7	21.7	0.00e+00	0	39	0	1257242624	57	3928
2026-01-20 00:55:12.53	346.29	81.16	-42.8	-43.7	21.7	0.00e+00	0	39	0	1260388352	57	3923
2026-01-20 00:55:13.53	343.99	81.53	-42.9	-43.8	21.6	0.00e+00	0	38	0	1263534080	57	3968
2026-01-20 00:55:14.54	341.45	81.89	-42.9	-43.8	21.6	0.00e+00	0	38	0	1266679808	57	3961
2026-01-20 00:55:15.55	338.69	82.23	-43.3	-44.2	21.1	0.00e+00	0	39	0	1269825536	57	4189
2026-01-20 00:55:16.56	335.68	82.55	-43.5	-44.4	20.9	0.00e+00	0	39	0	1272971264	57	4252
2026-01-20 00:55:17.57	332.39	82.85	-43.8	-44.7	20.7	0.00e+00	0	39	0	1276116992	58	4192
2026-01-20 00:55:18.57	328.87	83.12	-44.0	-45.0	20.6	0.00e+00	0	39	0	1279262720	58	4299
2026-01-20 00:55:19.58	325.03	83.37	-43.8	-44.7	20.8	0.00e+00	0	39	0	1282408448	58	4166
2026-01-20 00:55:20.59	320.91	83.59	-43.6	-44.5	21.0	0.00e+00	0	39	0	1285554176	58	4057
2026-01-20 00:55:21.60	316.53	83.77	-43.5	-44.4	21.1	0.00e+00	0	39	0	1288699904	58	4012
2026-01-20 00:55:22.61	311.91	83.91	-43.1	-43.9	21.5	0.00e+00	0	39	0	1291845632	58	3820
2026-01-20 00:55:23.62	307.10	84.01	-42.9	-43.7	21.7	0.00e+00	0	39	0	1294991360	57	3953
2026-01-20 00:55:24.62	302.20	84.07	-42.3	-43.1	22.2	0.00e+00	0	38	0	1298137088	56	3890
2026-01-20 00:55:25.63	297.20	84.08	-42.5	-43.2	22.0	0.00e+00	0	39	0	1301282816	56	3956
2026-01-20 00:55:26.64	292.21	84.05	-42.9	-43.8	21.7	0.00e+00	0	39	0	1304428544	56	4210
2026-01-20 00:55:27.65	287.31	83.98	-43.5	-44.4	21.0	0.00e+00	0	39	0	1307574272	57	4286
2026-01-20 00:55:28.66	282.57	83.86	-43.6	-44.5	21.0	0.00e+00	0	39	0	1310720000	58	4060
2026-01-20 00:55:29.66	278.08	83.71	-43.8	-44.7	20.8	0.00e+00	0	39	0	1313865728	58	4192
2026-01-20 00:55:30.67	273.79	83.51	-43.6	-44.5	21.0	0.00e+00	0	39	0	1317011456	58	4091
2026-01-20 00:55:31.68	269.77	83.28	-43.3	-44.1	21.4	0.00e+00	0	39	0	1320157184	58	3903
2026-01-20 00:55:32.69	266.04	83.02	-42.8	-43.6	21.8	0.00e+00	0	39	0	1323302912	57	3907
2026-01-20 00:55:33.69	262.62	82.74	-42.9	-43.7	21.6	0.00e+00	0	39	0	1326448640	57	3941
2026-01-20 00:55:34.70	259.44	82.43	-43.2	-44.1	21.4	0.00e+00	0	39	0	1329594368	57	4108
2026-01-20 00:55:35.71	256.52	82.10	-42.6	-43.4	21.9	0.00e+00	0	38	0	1332740096	57	3795
2026-01-20 00:55:36.72	253.84	81.75	-42.3	-43.0	22.2	0.00e+00	0	38	0	1335885824	56	3856
2026-01-20 00:55:37.73	251.39	81.39	-42.6	-43.4	21.9	0.00e+00	0	39	0	1339031552	56	4045
2026-01-20 00:55:38.73	249.16	81.02	-43.0	-43.8	21.6	0.00e+00	0	39	0	1342177280	56	4214
2026-01-20 00:55:39.74	247.10	80.63	-42.9	-43.7	21.7	0.00e+00	0	38	0	1345323008	56	4158
2026-01-20 00:55:40.75	245.21	80.23	-43.1	-43.9	21.5	0.00e+00	0	39	0	1348468736	56	4270
2026-01-20 00:55:41.75	243.48	79.82	-43.3	-44.1	21.3	0.00e+00	0	38	0	1351614464	57	4145
2026-01-20 00:55:42.76	241.88	79.40	-43.0	-43.9	21.3	0.00e+00	0	39	0	1354760192	57	4029
2026-01-20 00:55:43.77	240.40	78.98	-43.0	-43.9	21.6	0.00e+00	0	38	0	1357905920	57	4010
2026-01-20 00:55:44.78	239.04	78.55	-43.3	-44.1	21.3	0.00e+00	0	39	0	1361051648	57	4133
2026-01-20 00:55:45.79	237.77	78.12	-43.6	-44.6	21.0	0.00e+00	0	39	0	1364197376	57	4350
2026-01-20 00:55:46.79	236.61	77.69	-43.5	-44.4	21.2	0.00e+00	0	38	0	1367343104	57	4245
2026-01-20 00:55:47.80	235.52	77.24	-43.1	-43.9	21.5	0.00e+00	0	39	0	1370488832	57	4019
2026-01-20 00:55:48.81	234.51	76.80	-42.7	-43.5	21.8	0.00e+00	0	39	0	1373634560	57	3852
2026-01-20 00:55:49.82	233.56	76.35	-42.9	-43.7	21.6	0.00e+00	0	39	0	1376780288	57	3945
2026-01-20 00:55:50.83	232.68	75.91	-42.6	-43.4	21.8	0.00e+00	0	39	0	1379926016	57	3799
2026-01-20 00:55:51.84	231.85	75.46	-43.0	-43.8	21.6	0.00e+00	0	39	0	1383071744	57	4001
2026-01-20 00:55:52.84	231.08	75.01	-43.5	-44.4	21.2	0.00e+00	0	39	0	1386217472	57	4244
2026-01-20 00:55:53.85	230.35	74.56	-43.0	-43.8	21.6	0.00e+00	0	39	0	1389363200	57	3974
2026-01-20 00:55:54.86	229.66	74.10	-42.4	-43.2	22.2	0.00e+00	0	39	0	1392508928	56	3922
2026-01-20 00:55:55.86	229.02	73.65	-42.3	-43.0	22.2	0.00e+00	0	39	0	1395654656	56	3852
2026-01-20 00:55:56.88	228.41	73.20	-42.5	-43.3	22.1	0.00e+00	0	38	0	1398800384	56	3978
2026-01-20 00:55:57.88	227.84	72.75	-43.0	-43.9	21.5	0.00e+00	0	39	0	1401946112	56	4274
2026-01-20 00:55:58.89	227.29	72.29	-43.2	-44.1	21.2	0.00e+00	0	39	0	1405091840	56	4349
2026-01-20 00:55:59.90	226.78	71.84	-43.3	-44.2	21.0	0.00e+00	0	39	0	1408237568	57	4165
2026-01-20 00:56:00.91	226.29	71.39	-42.6	-43.4	21.8	0.00e+00	0	39	0	1411383296	57	3800
2026-01-20 00:56:01.91	225.83	70.94	-42.0	-42.8	22.3	0.00e+00	0	38	0	1414529024	56	3754
2026-01-20 00:56:02.92	225.39	70.49	-42.0	-42.8	22.4	0.00e+00	0	38	0	1417674752	55	3964
2026-01-20 00:56:03.93	224.97	70.04	-42.8	-43.7	21.7	0.00e+00	0	39	0	1420820480	56	4154
2026-01-20 00:56:04.94	224.57	69.59	-43.5	-44.5	21.1	0.00e+00	0	39	0	1423966208	57	4297
2026-01-20 00:56:05.95	224.18	69.14	-43.7	-44.6	20.9	0.00e+00	0	39	0	1427111936	58	4138
2026-01-20 00:56:06.95	223.82	68.70	-43.3	-44.2	21.3	0.00e+00	0	39	0	1430257664	58	3932
2026-01-20 00:56:07.96	223.48	68.26	-42.9	-43.7	21.7	0.00e+00	0	39	0	1433403392	57	3949
2026-01-20 00:56:08.97	223.14	67.81	-42.3	-43.1	22.2	0.00e+00	0	39	0	1436549120	56	3879
2026-01-20 00:56:09.98	222.82	67.37	-42.1	-42.9	22.3	0.00e+00	0	39	0	1439694848	56	3793
2026-01-20 00:56:10.99	222.52	66.93	-42.2	-43.0	21.9	0.00e+00	0	39	0	1442840576	56	3843
2026-01-20 00:56:12.00	222.23	66.49	-42.5	-43.3	21.9	0.00e+00	0	38	0	1445986304	56	3997
2026-01-20 00:56:13.01	221.94	66.06	-43.1	-43.9	21.4	0.00e+00	0	39	0	1449132032	56	4289
2026-01-20 00:56:14.01	221.68	65.63	-43.3	-44.2	20.9	0.00e+00	0	39	0	1452277760	57	4167
2026-01-20 00:56:15.02	221.42	65.19	-43.0	-43.9	21.1	0.00e+00	0	39	0	1455423488	57	4020
2026-01-20 00:56:16.03	221.17	64.76	-42.4	-43.1	22.1	0.00e+00	0	39	0	1458569216	56	3904
2026-01-20 00:56:17.04	220.93	64.33	-41.6	-42.4	22.7	0.00e+00	0	39	0	1461714944	55	3781
2026-01-20 00:56:18.05	220.70	63.91	-41.5	-42.2	22.9	0.00e+00	0	39	0	1464860672	55	3724
2026-01-20 00:56:19.05	220.48	63.49	-42.0	-42.7	22.5	0.00e+00	0	39	0	1468006400	54	4181
2026-01-20 00:56:20.06	220.26	63.06	-42.6	-43.4	21.8	0.00e+00	0	39	0	1471152128	55	4270
2026-01-20 00:56:21.07	220.06	62.64	-43.2	-44.1	21.4	0.00e+00	0	39	0	1474297856	57	4124
2026-01-20 00:56:22.08	219.86	62.23	-43.7	-44.6	20.8	0.00e+00	0	39	0	1477443584	57	4349
2026-01-20 00:56:23.09	219.66	61.81	-43.3	-44.2	20.8	0.00e+00	0	39	0	1480589312	57	4155
2026-01-20 00:56:24.09	219.48	61.40	-42.8	-43.6	21.4	0.00e+00	0	39	0	1483735040	57	3901
2026-01-20 00:56:25.10	219.30	60.99	-42.5	-43.3	21.8	0.00e+00	0	39	0	1486880768	57	3773
2026-01-20 00:56:26.11	219.12	60.58	-42.1	-42.8	22.3	0.00e+00	0	39	0	1490026496	56	3770
2026-01-20 00:56:27.12	218.96	60.17	-42.0	-42.8	22.3	0.00e+00	0	39	0	1493172224	55	3975
2026-01-20 00:56:28.13	218.79	59.77	-42.6	-43.4	21.6	0.00e+00	0	39	0	1496317952	55	4260
2026-01-20 00:56:29.14	218.63	59.37	-43.1	-43.9	21.2	0.00e+00	0	39	0	1499463680	56	4263
2026-01-20 00:56:30.14	218.48	58.97	-43.5	-44.4	21.0	0.00e+00	0	39	0	1502609408	57	4248
2026-01-20 00:56:31.15	218.33	58.57	-44.2	-45.1	20.3	0.00e+00	0	39	0	1505755136	58	4372
2026-01-20 00:56:32.16	218.19	58.18	-44.3	-45.3	20.1	0.00e+00	0	39	0	1508900864	59	4212
2026-01-20 00:56:33.17	218.05	57.79	-43.8	-44.7	20.5	0.00e+00	0	39	0	1512046592	59	3928
2026-01-20 00:56:34.17	217.91	57.40	-43.3	-44.1	21.0	0.00e+00	0	39	0	1515192320	58	3896
2026-01-20 00:56:35.18	217.78	57.01	-43.0	-43.8	21.4	0.00e+00	0	39	0	1518338048	57	3994
2026-01-20 00:56:36.19	217.65	56.63	-43.0	-43.9	21.4	0.00e+00	0	39	0	1521483776	57	4007
2026-01-20 00:56:37.20	217.53	56.25	-43.5	-44.4	21.0	0.00e+00	0	39	0	1524629504	57	4268
2026-01-20 00:56:38.21	217.41	55.87	-43.9	-44.8	20.7	0.00e+00	0	39	0	1527775232	58	4227
2026-01-20 00:56:39.21	217.29	55.49	-44.4	-45.4	19.9	0.00e+00	0	39	0	1530920960	60	4042
2026-01-20 00:56:40.22	217.18	55.12	-44.7	-45.8	19.5	0.00e+00	0	39	0	1534066688	60	4200
2026-01-20 00:56:41.23	217.07	54.74	-44.4	-45.4	19.9	0.00e+00	0	38	0	1538260992	60	4023
2026-01-20 00:56:42.24	216.96	54.37	-44.9	-46.0	19.3	0.00e+00	0	39	0	1540358144	60	4314
2026-01-20 00:56:43.25	216.85	54.01	-45.2	-46.4	18.8	0.00e+00	0	39	0	1543503872	61	4249
2026-01-20 00:56:44.25	216.75	53.65	-45.2	-46.4	18.6	0.00e+00	0	39	0	1546649600	61	4253
2026-01-20 00:56:45.26	216.65	53.28	-44.7	-45.8	19.2	0.00e+00	0	39	0	1549795328	61	3975
2026-01-20 00:56:46.27	216.55	52.92	-44.3	-45.3	19.8	0.00e+00	0	39	0	1552941056	60	3976
2026-01-20 00:56:47.28	216.46	52.57	-44.1	-45.0	20.1	0.00e+00	0	39	0	1556086784	60	3846
2026-01-20 00:56:48.29	216.36	52.21	-44.1	-45.1	20.1	0.00e+00	0	39	0	1559232512	60	3889
2026-01-20 00:56:49.30	216.27	51.86	-44.9	-45.9	19.3	0.00e+00	0	39	0	1562378240	60	4281
2026-01-20 00:56:50.30	216.18	51.51	-45.7	-46.9	18.4	0.00e+00	0	39	0	1565523968	61	4520
2026-01-20 00:56:51.31	216.10	51.16	-46.0	-47.3	18.1	0.00e+00	0	39	0	1568669696	62	4447
2026-01-20 00:56:52.32	216.01	50.82	-45.7	-46.9	18.5	0.00e+00	0	39	0	1571815424	62	4269
2026-01-20 00:56:53.32	215.93	50.48	-45.5	-46.6	18.7	0.00e+00	0	39	0	1574961152	62	4142
2026-01-20 00:56:54.33	215.85	50.14	-45.8	-47.0	18.4	0.00e+00	0	39	0	1579155456	62	4298
2026-01-20 00:56:55.34	215.77	49.80	-46.3	-47.6	17.8	0.00e+00	0	38	0	1582301184	63	4371
2026-01-20 00:56:56.35	215.70	49.47	-46.6	-48.0	17.3	0.00e+00	0	39	0	1585446912	64	4321
2026-01-20 00:56:57.36	215.62	49.13	-46.9	-48.4	17.0	0.00e+00	0	39	0	1587544064	64	4513
2026-01-20 00:56:58.36	215.55	48.81	-46.7	-48.2	17.1	0.00e+00	0	39	0	1590689792	64	4409
2026-01-20 00:56:59.37	215.48	48.48	-46.1	-47.4	17.8	0.00e+00	0	39	0	1593835520	64	4041
2026-01-20 00:57:00.38	215.41	48.15	-45.6	-46.8	18.5	0.00e+00	0	39	0	1596981248	63	3980
2026-01-20 00:57:01.39	215.34	47.83	-45.2	-46.3	19.0	0.00e+00	0	39	0	1600126976	62	3972
2026-01-20 00:57:02.39	215.27	47.51	-44.9	-46.0	19.3	0.00e+00	0	39	0	1603272704	61	4063
2026-01-20 00:57:03.40	215.21	47.19	-45.0	-46.0	19.2	0.00e+00	0	39	0	1606418432	61	4092
2026-01-20 00:57:04.41	215.14	46.88	-45.6	-46.8	18.5	0.00e+00	0	39	0	1609564160	61	4460
2026-01-20 00:57:05.42	215.08	46.56	-46.0	-47.3	18.1	0.00e+00	0	38	0	1612709888	62	4455
2026-01-20 00:57:06.43	215.02	46.25	-46.3	-47.5	17.9	0.00e+00	0	39	0	1616904192	63	4337
2026-01-20 00:57:07.43	214.96	45.94	-46.5	-47.8	17.5	0.00e+00	0	39	0	1620049920	63	4467
2026-01-20 00:57:08.44	214.90	45.64	-46.5	-47.8	17.5	0.00e+00	0	39	0	1623195648	63	4489
2026-01-20 00:57:09.45	214.84	45.33	-46.4	-47.8	17.6	0.00e+00	0	39	0	1626341376	63	4446
2026-01-20 00:57:10.46	214.78	45.03	-46.7	-48.0	17.3	0.00e+00	0	39	0	1629487104	63	4589
2026-01-20 00:57:11.46	214.73	44.73	-47.0	-48.5	16.7	0.00e+00	0	39	0	1632632832	64	4593
2026-01-20 00:57:12.47	214.67	44.43	-47.4	-49.0	16.1	0.00e+00	0	39	0	1634729984	65	4568
2026-01-20 00:57:13.48	214.62	44.14	-47.5	-49.2	16.0	0.00e+00	0	39	0	1637875712	65	4665
2026-01-20 00:57:14.49	214.57	43.85	-47.3	-48.9	16.3	0.00e+00	0	39	0	1641021440	65	4538
2026-01-20 00:57:15.49	214.52	43.56	-46.8	-48.3	17.0	0.00e+00	0	39	0	1644167168	65	4218
2026-01-20 00:57:16.50	214.47	43.27	-46.5	-47.8	17.4	0.00e+00	0	39	0	1647312896	65	3996
2026-01-20 00:57:17.51	214.42	42.98	-46.4	-47.7	17.5	0.00e+00	0	39	0	1650458624	64	4154
2026-01-20 00:57:18.52	214.37	42.69	-45.9	-47.2	18.1	0.00e+00	0	39	0	1653604352	63	4148
2026-01-20 00:57:19.53	214.32	42.41	-45.4	-46.5	18.8	0.00e+00	0	38	0	1657798656	62	4074
2026-01-20 00:57:20.53	214.27	42.13	-45.5	-46.6	18.7	0.00e+00	0	39	0	1660944384	62	4125
2026-01-20 00:57:21.54	214.23	41.85	-46.0	-47.2	18.1	0.00e+00	0	39	0	1664090112	62	4440
2026-01-20 00:57:22.55	214.18	41.58	-46.3	-47.6	17.7	0.00e+00	0	38	0	1667235840	63	4389
2026-01-20 00:57:23.56	214.14	41.30	-46.6	-48.0	17.3	0.00e+00	0	39	0	1670381568	63	4565
2026-01-20 00:57:24.56	214.10	41.03	-46.5	-47.9	17.5	0.00e+00	0	38	0	1673527296	63	4499
2026-01-20 00:57:25.57	214.05	40.76	-46.3	-47.6	17.7	0.00e+00	0	39	0	1676673024	63	4367
2026-01-20 00:57:26.58	214.01	40.49	-46.3	-47.5	17.8	0.00e+00	0	39	0	1679818752	63	4338
2026-01-20 00:57:27.59	213.97	40.23	-46.2	-47.5	17.8	0.00e+00	0	39	0	1681915904	63	4322
2026-01-20 00:57:28.59	213.93	39.97	-46.2	-47.4	17.9	0.00e+00	0	39	0	1685061632	63	4289
2026-01-20 00:57:29.60	213.89	39.70	-46.0	-47.2	18.0	0.00e+00	0	39	0	1688207360	63	4192
2026-01-20 00:57:30.61	213.85	39.44	-46.1	-47.3	18.0	0.00e+00	0	39	0	1691353088	63	4213
2026-01-20 00:57:31.62	213.81	39.18	-46.0	-47.2	18.1	0.00e+00	0	39	0	1694498816	63	4186
2026-01-20 00:57:32.63	213.77	38.93	-45.9	-47.1	18.2	0.00e+00	0	39	0	1698693120	63	4121
2026-01-20 00:57:33.63	213.74	38.67	-45.8	-47.0	18.3	0.00e+00	0	39	0	1701838848	63	4084
2026-01-20 00:57:34.64	213.70	38.42	-45.8	-47.1	18.3	0.00e+00	0	38	0	1704984576	63	4105
2026-01-20 00:57:35.65	213.67	38.17	-46.0	-47.2	18.1	0.00e+00	0	39	0	1708130304	63	4186
2026-01-20 00:57:36.66	213.63	37.92	-46.0	-47.3	18.0	0.00e+00	0	38	0	1711276032	63	4216
2026-01-20 00:57:37.67	213.60	37.67	-45.9	-47.1	18.2	0.00e+00	0	39	0	1714421760	63	4124
2026-01-20 00:57:38.68	213.56	37.43	-45.4	-46.6	18.6	0.00e+00	0	38	0	1717567488	62	4133
2026-01-20 00:57:39.68	213.53	37.18	-45.2	-46.4	18.9	0.00e+00	0	38	0	1720713216	62	4010
2026-01-20 00:57:40.69	213.50	36.94	-45.2	-46.3	19.0	0.00e+00	0	39	0	1723858944	62	3974
2026-01-20 00:57:41.70	213.46	36.70	-44.9	-45.9	19.2	0.00e+00	0	39	0	1727004672	61	4050
2026-01-20 00:57:42.71	213.43	36.46	-44.3	-45.3	19.8	0.00e+00	0	39	0	1729101824	60	3988
2026-01-20 00:57:43.71	213.40	36.23	-44.2	-45.2	19.9	0.00e+00	0	39	0	1732247552	60	3933
2026-01-20 00:57:44.72	213.37	35.99	-44.4	-45.4	19.7	0.00e+00	0	39	0	1735393280	60	4012
2026-01-20 00:57:45.73	213.34	35.76	-44.3	-45.2	19.9	0.00e+00	0	39	0	1739587584	60	3954
2026-01-20 00:57:46.74	213.31	35.53	-44.5	-45.5	19.6	0.00e+00	0	39	0	1742733312	60	4075
2026-01-20 00:57:47.74	213.28	35.30	-44.7	-45.7	19.4	0.00e+00	0	39	0	1745879040	60	4174
2026-01-20 00:57:48.75	213.25	35.07	-44.8	-45.8	19.3	0.00e+00	0	38	0	1749024768	60	4237
2026-01-20 00:57:49.76	213.22	34.84	-44.9	-46.0	19.1	0.00e+00	0	39	0	1752170496	60	4329
2026-01-20 00:57:50.77	213.19	34.62	-44.9	-46.0	19.1	0.00e+00	0	39	0	1755316224	60	4330
2026-01-20 00:57:51.77	213.17	34.40	-44.9	-46.0	19.2	0.00e+00	0	39	0	1758461952	60	4323
2026-01-20 00:57:52.78	213.14	34.17	-44.9	-46.0	19.2	0.00e+00	0	39	0	1761607680	60	4304
2026-01-20 00:57:53.79	213.11	33.95	-45.0	-46.1	19.1	0.00e+00	0	39	0	1764753408	60	4355
2026-01-20 00:57:54.80	213.09	33.73	-44.8	-45.8	19.3	0.00e+00	0	38	0	1767899136	60	4226
2026-01-20 00:57:55.80	213.06	33.52	-44.8	-45.8	19.3	0.00e+00	0	39	0	1771044864	60	4237
2026-01-20 00:57:56.81	213.04	33.30	-44.4	-45.4	19.7	0.00e+00	0	39	0	1774190592	60	4036
2026-01-20 00:57:57.82	213.01	33.09	-44.1	-45.1	20.0	0.00e+00	0	39	0	1776287744	60	3893
2026-01-20 00:57:58.83	212.98	32.87	-44.1	-45.1	20.0	0.00e+00	0	39	0	1780482048	60	3882
2026-01-20 00:57:59.84	212.96	32.66	-44.1	-45.1	20.3	0.00e+00	0	39	0	1783627776	59	4112
2026-01-20 00:58:00.85	212.94	32.45	-44.0	-44.9	20.4	0.00e+00	0	39	0	1786773504	59	4050
2026-01-20 00:58:01.85	212.91	32.24	-44.0	-45.0	20.3	0.00e+00	0	39	0	1789919232	59	4071
2026-01-20 00:58:02.86	212.89	32.04	-44.0	-45.0	20.3	0.00e+00	0	39	0	1793064960	59	4074
2026-01-20 00:58:03.87	212.87	31.83	-44.1	-45.1	20.2	0.00e+00	0	39	0	1796210688	59	4124
2026-01-20 00:58:04.88	212.84	31.63	-44.4	-45.4	20.0	0.00e+00	0	39	0	1799356416	59	4266
2026-01-20 00:58:05.89	212.82	31.42	-44.5	-45.6	19.8	0.00e+00	0	39	0	1802502144	59	4360
2026-01-20 00:58:06.89	212.80	31.22	-44.7	-45.7	19.6	0.00e+00	0	39	0	1805647872	59	4439
2026-01-20 00:58:07.90	212.78	31.02	-44.4	-45.4	19.6	0.00e+00	0	39	0	1808793600	60	4040
2026-01-20 00:58:08.91	212.76	30.83	-44.4	-45.4	19.6	0.00e+00	0	39	0	1811939328	60	4027
2026-01-20 00:58:09.92	212.73	30.63	-44.3	-45.3	19.7	0.00e+00	0	39	0	1815085056	60	3990
2026-01-20 00:58:10.93	212.71	30.43	-44.4	-45.4	19.6	0.00e+00	0	39	0	1818230784	60	4036
2026-01-20 00:58:11.93	212.69	30.24	-44.2	-45.3	19.8	0.00e+00	0	39	0	1821376512	60	3966
2026-01-20 00:58:12.94	212.67	30.04	-44.1	-45.1	19.9	0.00e+00	0	39	0	1824522240	60	3875
2026-01-20 00:58:13.95	212.65	29.85	-44.1	-45.2	19.9	0.00e+00	0	39	0	1827667968	60	3919
2026-01-20 00:58:14.96	212.63	29.66	-44.0	-45.0	20.0	0.00e+00	0	39	0	1830813696	60	3861
2026-01-20 00:58:15.97	212.61	29.47	-44.1	-45.1	19.9	0.00e+00	0	39	0	1833959424	60	3871
2026-01-20 00:58:16.97	212.59	29.29	-44.0	-45.0	20.0	0.00e+00	0	39	0	1837105152	60	3847
2026-01-20 00:58:17.98	212.58	29.10	-44.3	-45.3	20.0	0.00e+00	0	39	0	1840250880	59	4226
2026-01-20 00:58:18.99	212.56	28.91	-44.3	-45.3	20.0	0.00e+00	0	39	0	1843396608	59	4209
2026-01-20 00:58:20.00	212.54	28.73	-44.3	-45.3	19.9	0.00e+00	0	39	0	1846542336	59	4210
2026-01-20 00:58:21.01	212.52	28.54	-44.3	-45.3	19.9	0.00e+00	0	39	0	1849688064	59	4203
2026-01-20 00:58:22.01	212.50	28.36	-44.2	-45.2	20.0	0.00e+00	0	39	0	1852833792	59	4175
2026-01-20 00:58:23.02	212.49	28.18	-44.1	-45.0	20.1	0.00e+00	0	39	0	1855979520	59	4090
2026-01-20 00:58:24.03	212.47	28.00	-44.0	-45.0	20.3	0.00e+00	0	39	0	1859125248	59	4052
2026-01-20 00:58:25.04	212.45	27.82	-44.0	-44.9	20.3	0.00e+00	0	39	0	1862270976	59	4036
2026-01-20 00:58:26.06	212.43	27.64	-43.9	-44.9	20.3	0.00e+00	0	39	0	1865416704	59	4010
2026-01-20 00:58:27.06	212.42	27.47	-43.9	-44.8	20.4	0.00e+00	0	39	0	1868562432	59	3979
2026-01-20 00:58:28.07	212.40	27.29	-43.8	-44.7	20.5	0.00e+00	0	39	0	1871708160	59	3951
2026-01-20 00:58:29.08	212.38	27.12	-43.7	-44.6	20.6	0.00e+00	0	39	0	1874853888	59	3887
2026-01-20 00:58:30.09	212.37	26.94	-43.6	-44.5	20.7	0.00e+00	0	39	0	1877999616	59	3841
2026-01-20 00:58:31.09	212.35	26.77	-43.6	-44.5	20.7	0.00e+00	0	39	0	1881145344	59	3846
2026-01-20 00:58:32.10	212.34	26.60	-43.6	-44.5	20.6	0.00e+00	0	39	0	1884291072	59	3861
2026-01-20 00:58:33.11	212.32	26.43	-43.5	-44.5	20.7	0.00e+00	0	39	0	1887436800	59	3832
2026-01-20 00:58:34.12	212.31	26.26	-43.5	-44.4	20.8	0.00e+00	0	39	0	1890582528	58	4032
2026-01-20 00:58:35.13	212.29	26.10	-43.5	-44.4	20.7	0.00e+00	0	39	0	1893728256	58	4048
2026-01-20 00:58:36.14	212.28	25.93	-43.5	-44.4	20.8	0.00e+00	0	39	0	1896873984	58	4019
2026-01-20 00:58:37.15	212.26	25.76	-43.5	-44.5	20.7	0.00e+00	0	39	0	1900019712	58	4056
2026-01-20 00:58:38.16	212.25	25.60	-43.4	-44.4	20.8	0.00e+00	0	39	0	1903165440	58	4009
2026-01-20 00:58:39.16	212.23	25.44	-43.5	-44.4	20.7	0.00e+00	0	39	0	1906311168	58	4043
2026-01-20 00:58:40.17	212.22	25.27	-43.5	-44.4	20.8	0.00e+00	0	39	0	1909456896	58	4020
2026-01-20 00:58:41.18	212.20	25.11	-43.4	-44.4	20.8	0.00e+00	0	39	0	1912602624	58	4009
2026-01-20 00:58:42.19	212.19	24.95	-43.4	-44.3	20.8	0.00e+00	0	39	0	1915748352	58	4001
2026-01-20 00:58:43.19	212.18	24.79	-43.4	-44.3	20.8	0.00e+00	0	39	0	1918894080	58	4003
2026-01-20 00:58:44.20	212.16	24.63	-43.4	-44.4	20.8	0.00e+00	0	38	0	1922039808	58	4009
2026-01-20 00:58:45.21	212.15	24.47	-43.5	-44.4	20.7	0.00e+00	0	39	0	1925185536	58	4020
2026-01-20 00:58:46.21	212.14	24.32	-43.4	-44.3	20.7	0.00e+00	0	39	0	1928331264	58	4004
2026-01-20 00:58:47.22	212.12	24.16	-43.6	-44.5	20.6	0.00e+00	0	38	0	1931476992	58	4082
2026-01-20 00:58:48.23	212.11	24.01	-43.6	-44.5	20.6	0.00e+00	0	39	0	1934622720	58	4093
2026-01-20 00:58:49.24	212.10	23.85	-43.6	-44.5	20.6	0.00e+00	0	39	0	1937768448	58	4091
2026-01-20 00:58:50.25	212.09	23.70	-43.6	-44.6	20.5	0.00e+00	0	39	0	1940914176	58	4113
2026-01-20 00:58:51.26	212.07	23.55	-43.7	-44.7	20.4	0.00e+00	0	39	0	1944059904	58	4161
2026-01-20 00:58:52.26	212.06	23.40	-43.7	-44.6	20.5	0.00e+00	0	39	0	1947205632	58	4138
2026-01-20 00:58:53.27	212.05	23.25	-43.7	-44.7	20.5	0.00e+00	0	39	0	1950351360	58	4151
2026-01-20 00:58:54.28	212.04	23.10	-43.6	-44.6	20.5	0.00e+00	0	39	0	1953497088	58	4104
2026-01-20 00:58:55.29	212.03	22.95	-43.6	-44.6	20.5	0.00e+00	0	39	0	1956642816	58	4114
2026-01-20 00:58:56.30	212.02	22.80	-43.5	-44.5	20.6	0.00e+00	0	39	0	1959788544	58	4061
2026-01-20 00:58:57.30	212.00	22.65	-43.5	-44.5	20.6	0.00e+00	0	39	0	1962934272	58	4058
2026-01-20 00:58:58.31	211.99	22.51	-43.6	-44.6	20.6	0.00e+00	0	39	0	1966080000	58	4115
2026-01-20 00:58:59.32	211.98	22.36	-43.5	-44.4	20.7	0.00e+00	0	39	0	1969225728	58	4021
2026-01-20 00:59:00.33	211.97	22.22	-43.4	-44.3	20.8	0.00e+00	0	39	0	1972371456	58	3962
2026-01-20 00:59:01.33	211.96	22.07	-43.4	-44.3	20.8	0.00e+00	0	39	0	1975517184	58	3974
2026-01-20 00:59:02.34	211.95	21.93	-43.5	-44.4	20.7	0.00e+00	0	39	0	1978662912	58	4030
2026-01-20 00:59:03.35	211.94	21.79	-43.3	-44.2	20.8	0.00e+00	0	39	0	1981808640	58	3957
2026-01-20 00:59:04.36	211.93	21.65	-43.4	-44.3	20.8	0.00e+00	0	39	0	1984954368	58	3981
2026-01-20 00:59:05.37	211.92	21.51	-43.5	-44.4	20.7	0.00e+00	0	39	0	1988100096	58	4040
2026-01-20 00:59:06.37	211.91	21.37	-43.5	-44.4	20.7	0.00e+00	0	39	0	1991245824	58	4028
2026-01-20 00:59:07.38	211.90	21.23	-43.4	-44.3	20.8	0.00e+00	0	39	0	1994391552	58	3993
2026-01-20 00:59:08.39	211.89	21.09	-43.5	-44.4	20.7	0.00e+00	0	39	0	1997537280	58	4028
2026-01-20 00:59:09.40	211.88	20.95	-43.4	-44.4	20.7	0.00e+00	0	39	0	2000683008	58	4013
2026-01-20 00:59:10.41	211.87	20.82	-43.4	-44.4	20.7	0.00e+00	0	39	0	2003828736	58	4005
2026-01-20 00:59:11.41	211.86	20.68	-43.4	-44.3	20.8	0.00e+00	0	39	0	2006974464	58	3966
2026-01-20 00:59:12.42	211.85	20.54	-43.4	-44.3	20.8	0.00e+00	0	39	0	2010120192	58	3970
2026-01-20 00:59:13.43	211.84	20.41	-43.4	-44.4	20.7	0.00e+00	0	39	0	2013265920	58	4008
2026-01-20 00:59:14.44	211.83	20.28	-43.6	-44.5	20.6	0.00e+00	0	39	0	2016411648	58	4068
2026-01-20 00:59:15.45	211.82	20.14	-43.6	-44.6	20.5	0.00e+00	0	39	0	2019557376	58	4107
2026-01-20 00:59:16.45	211.81	20.01	-43.7	-44.7	20.4	0.00e+00	0	39	0	2022703104	58	4162
2026-01-20 00:59:17.46	211.80	19.88	-43.8	-44.7	20.4	0.00e+00	0	38	0	2025848832	58	4170
2026-01-20 00:59:18.47	211.79	19.75	-43.7	-44.7	20.4	0.00e+00	0	39	0	2028994560	58	4148
2026-01-20 00:59:19.48	211.79	19.62	-43.7	-44.6	20.4	0.00e+00	0	39	0	2032140288	58	4142
2026-01-20 00:59:20.49	211.78	19.49	-43.7	-44.6	20.4	0.00e+00	0	39	0	2035286016	58	4143
2026-01-20 00:59:21.49	211.77	19.36	-43.7	-44.7	20.4	0.00e+00	0	39	0	2038431744	58	4165
2026-01-20 00:59:22.50	211.76	19.23	-43.8	-44.8	20.3	0.00e+00	0	39	0	2041577472	58	4202
2026-01-20 00:59:23.51	211.75	19.10	-43.8	-44.7	20.3	0.00e+00	0	39	0	2044723200	58	4167
2026-01-20 00:59:24.52	211.74	18.98	-43.8	-44.8	20.3	0.00e+00	0	39	0	2047868928	58	4200
2026-01-20 00:59:25.53	211.74	18.85	-43.9	-44.9	20.2	0.00e+00	0	39	0	2051014656	58	4246
2026-01-20 00:59:26.54	211.73	18.72	-44.0	-44.9	20.1	0.00e+00	0	39	0	2054160384	58	4281
2026-01-20 00:59:27.54	211.72	18.60	-44.0	-45.0	20.1	0.00e+00	0	39	0	2057306112	58	4306
2026-01-20 00:59:28.55	211.71	18.47	-44.0	-44.9	20.1	0.00e+00	0	39	0	2060451840	58	4289
2026-01-20 00:59:29.56	211.70	18.35	-44.0	-45.0	20.0	0.00e+00	0	39	0	2063597568	58	4334
2026-01-20 00:59:30.57	211.70	18.23	-44.2	-45.2	19.9	0.00e+00	0	39	0	2066743296	58	4402
2026-01-20 00:59:31.57	211.69	18.10	-44.1	-45.1	20.0	0.00e+00	0	39	0	2069889024	58	4372
2026-01-20 00:59:32.58	211.68	17.98	-44.2	-45.2	19.8	0.00e+00	0	39	0	2073034752	59	4182
2026-01-20 00:59:33.59	211.67	17.86	-44.3	-45.3	19.8	0.00e+00	0	39	0	2076180480	59	4225
2026-01-20 00:59:34.59	211.67	17.74	-44.3	-45.4	19.7	0.00e+00	0	39	0	2079326208	59	4260
2026-01-20 00:59:35.60	211.66	17.62	-44.3	-45.3	19.8	0.00e+00	0	39	0	2082471936	59	4212
2026-01-20 00:59:36.61	211.65	17.50	-44.3	-45.4	19.7	0.00e+00	0	39	0	2085617664	59	4251
2026-01-20 00:59:37.62	211.64	17.38	-44.4	-45.4	19.7	0.00e+00	0	39	0	2088763392	59	4266
2026-01-20 00:59:38.63	211.64	17.26	-44.4	-45.5	19.6	0.00e+00	0	39	0	2091909120	59	4295
2026-01-20 00:59:39.64	211.63	17.14	-44.3	-45.3	19.7	0.00e+00	0	39	0	2095054848	59	4228
2026-01-20 00:59:40.65	211.62	17.03	-44.3	-45.4	19.7	0.00e+00	0	39	0	2098200576	59	4244
2026-01-20 00:59:41.66	211.62	16.91	-44.4	-45.4	19.6	0.00e+00	0	39	0	2101346304	59	4289
2026-01-20 00:59:42.66	211.61	16.79	-44.4	-45.4	19.6	0.00e+00	0	39	0	2104492032	59	4282
2026-01-20 00:59:43.67	211.60	16.68	-44.5	-45.5	19.5	0.00e+00	0	39	0	2107637760	59	4328
