passes_logs/2026/01/20/R3.2S_Murmansk/R3.2S_Murmansk__20260120_113710_NOAA_20_JPSS-1_rec.log

#Pass ID: 20260120_113710_NOAA 20 (JPSS-1)
#Satellite: NOAA 20 (JPSS-1)
#Configuration: NOAA 20
#almurnet v.1.7.20251203
#Start time: 2026-01-20 11:37:10

#Version: 2.2.20231116
#Station: R3.2S_Murmansk
#Location: 33.079688 lon 68.888172 lat
#TLE: 1 43013U 17073A   26019.91154542  .00000116  00000+0  76014-4 0  9997
#TLE: 2 43013  98.7642 320.7991 0001304  32.0041 328.1214 14.19537346423438

#Time	Az	El	Level	Level2	SNR	BER	BlckErr	Temp	State	Recorded	gain1	gain2
2026-01-20 11:37:10.01	204.20	1.98	-49.1	-64.0	3.8	1.49e+00	0	37	0	0	69	20311
2026-01-20 11:37:11.02	204.26	2.04	-49.1	-64.0	3.8	1.49e+00	0	37	104	0	68	21660
2026-01-20 11:37:12.03	204.33	2.10	-49.1	-64.0	3.8	1.49e+00	0	37	104	0	68	21564
2026-01-20 11:37:13.03	204.39	2.16	-49.1	-64.0	3.8	1.49e+00	0	37	104	0	68	21520
2026-01-20 11:37:14.04	204.45	2.21	-49.1	-64.0	3.8	1.49e+00	0	37	104	0	68	21560
2026-01-20 11:37:15.05	204.51	2.27	-49.1	-64.0	3.8	1.49e+00	0	37	104	0	68	21533
2026-01-20 11:37:16.06	204.58	2.33	-49.1	-64.0	3.8	1.49e+00	0	37	104	0	68	21532
2026-01-20 11:37:17.07	204.64	2.39	-49.1	-64.0	3.8	1.49e+00	0	37	104	0	68	21538
2026-01-20 11:37:18.08	204.71	2.45	-49.1	-64.0	3.8	1.49e+00	0	37	104	0	68	21542
2026-01-20 11:37:19.08	204.77	2.51	-49.1	-63.9	3.8	1.49e+00	0	37	104	0	68	21399
2026-01-20 11:37:20.09	204.84	2.56	-49.1	-63.9	3.8	1.49e+00	0	37	104	0	68	21337
2026-01-20 11:37:21.10	204.90	2.62	-49.1	-63.9	3.8	1.49e+00	0	37	104	0	68	21395
2026-01-20 11:37:22.11	204.97	2.68	-49.1	-63.8	3.8	1.49e+00	0	37	104	0	68	21228
2026-01-20 11:37:23.11	205.03	2.74	-49.1	-63.7	3.8	1.49e+00	0	37	104	0	68	20863
2026-01-20 11:37:24.12	205.10	2.80	-49.1	-63.8	3.8	1.49e+00	0	37	104	0	68	21234
2026-01-20 11:37:25.13	205.16	2.86	-49.1	-63.7	3.8	1.49e+00	0	37	104	0	68	20809
2026-01-20 11:37:26.13	205.23	2.92	-49.1	-63.8	3.8	1.49e+00	0	37	104	0	68	21037
2026-01-20 11:37:27.14	205.30	2.98	-49.1	-63.7	3.8	1.49e+00	0	38	104	0	68	20935
2026-01-20 11:37:28.15	205.36	3.04	-49.1	-63.7	3.8	1.49e+00	0	38	104	0	68	20983
2026-01-20 11:37:29.16	205.43	3.10	-49.1	-63.8	3.8	1.49e+00	0	37	104	0	68	21187
2026-01-20 11:37:30.17	205.50	3.16	-49.1	-63.8	3.8	1.49e+00	0	38	104	0	68	21111
2026-01-20 11:37:31.17	205.56	3.22	-49.1	-63.8	3.8	1.49e+00	0	38	104	0	68	21221
2026-01-20 11:37:32.18	205.63	3.28	-49.1	-63.9	3.8	1.49e+00	0	38	104	0	68	21350
2026-01-20 11:37:33.19	205.70	3.34	-49.1	-63.9	3.8	1.49e+00	0	37	104	0	68	21342
2026-01-20 11:37:34.20	205.77	3.40	-49.1	-63.9	3.8	1.49e+00	0	38	104	0	68	21309
2026-01-20 11:37:35.21	205.84	3.46	-49.1	-63.9	3.8	1.49e+00	0	38	104	0	68	21476
2026-01-20 11:37:36.21	205.90	3.52	-49.1	-63.9	3.8	1.49e+00	0	38	104	0	68	21464
2026-01-20 11:37:37.22	205.97	3.58	-49.1	-63.9	3.8	1.49e+00	0	38	104	0	68	21414
2026-01-20 11:37:38.23	206.04	3.64	-49.1	-63.9	3.8	1.49e+00	0	38	104	0	68	21386
2026-01-20 11:37:39.24	206.11	3.70	-49.1	-63.9	3.8	1.49e+00	0	38	104	0	68	21451
2026-01-20 11:37:40.25	206.18	3.76	-49.1	-63.9	3.8	1.49e+00	0	38	104	0	68	21314
2026-01-20 11:37:41.25	206.25	3.82	-49.1	-63.9	3.8	1.49e+00	0	38	104	0	68	21381
2026-01-20 11:37:42.26	206.32	3.88	-49.1	-63.9	3.8	1.49e+00	0	38	104	0	68	21381
2026-01-20 11:37:43.27	206.39	3.94	-49.1	-63.9	3.8	1.49e+00	0	38	104	0	68	21278
2026-01-20 11:37:44.28	206.46	4.00	-49.1	-63.9	3.8	1.49e+00	0	38	104	0	68	21384
2026-01-20 11:37:45.29	206.54	4.06	-49.1	-63.9	3.8	1.49e+00	0	38	104	0	68	21311
2026-01-20 11:37:46.29	206.61	4.12	-49.1	-63.9	3.8	1.49e+00	0	38	104	0	68	21290
2026-01-20 11:37:47.30	206.68	4.18	-49.1	-63.9	3.8	1.49e+00	0	38	104	0	68	21369
2026-01-20 11:37:48.31	206.75	4.25	-49.1	-63.9	3.8	1.49e+00	0	38	104	0	68	21412
2026-01-20 11:37:49.32	206.82	4.31	-49.1	-63.9	3.8	1.49e+00	0	38	104	0	68	21441
2026-01-20 11:37:50.33	206.90	4.37	-49.1	-63.9	3.8	1.49e+00	0	38	104	0	68	21347
2026-01-20 11:37:51.33	206.97	4.43	-49.1	-63.8	3.8	1.49e+00	0	38	104	0	68	21157
2026-01-20 11:37:52.34	207.04	4.49	-49.1	-63.6	3.8	1.49e+00	0	38	104	0	68	20630
2026-01-20 11:37:53.35	207.12	4.56	-49.0	-63.2	3.8	1.49e+00	0	38	104	0	68	19693
2026-01-20 11:37:54.36	207.19	4.62	-49.0	-62.7	3.8	1.49e+00	0	38	104	0	68	18551
2026-01-20 11:37:55.37	207.26	4.68	-49.0	-62.0	3.8	1.49e+00	0	38	104	0	68	17217
2026-01-20 11:37:56.37	207.34	4.74	-48.9	-61.4	4.0	1.49e+00	0	38	104	0	68	16000
2026-01-20 11:37:57.38	207.41	4.80	-48.9	-60.2	4.3	1.46e+00	0	38	0	0	68	13961
2026-01-20 11:37:58.39	207.49	4.87	-48.8	-60.1	4.3	1.36e+00	128	38	0	0	68	13744
2026-01-20 11:37:59.40	207.56	4.93	-48.8	-59.7	4.4	1.35e+00	123	38	0	0	68	13114
2026-01-20 11:38:00.41	207.64	4.99	-48.8	-59.3	4.6	9.71e-01	0	38	0	2097152	68	12622
2026-01-20 11:38:01.42	207.72	5.06	-48.8	-59.4	4.5	1.01e+00	0	38	0	4194304	68	12704
2026-01-20 11:38:02.43	207.79	5.12	-48.9	-60.5	4.2	1.36e+00	0	38	0	4194304	68	14528
2026-01-20 11:38:03.43	207.87	5.18	-48.8	-58.8	4.7	1.46e+00	0	38	104	4194304	68	11908
2026-01-20 11:38:04.44	207.94	5.24	-48.9	-60.1	4.3	1.47e+00	0	38	104	4194304	68	13827
2026-01-20 11:38:05.45	208.02	5.31	-48.8	-59.3	4.6	1.33e+00	2	38	0	4194304	68	12621
2026-01-20 11:38:06.46	208.10	5.37	-49.0	-61.7	3.8	1.49e+00	0	38	104	4194304	68	16560
2026-01-20 11:38:07.47	208.18	5.43	-48.8	-59.3	4.6	9.71e-01	3	38	0	4194304	68	12640
2026-01-20 11:38:08.48	208.26	5.50	-48.7	-58.5	4.9	8.49e-01	0	38	0	6291456	68	11537
2026-01-20 11:38:09.48	208.33	5.56	-48.7	-58.8	4.8	8.80e-01	0	38	0	8388608	68	11940
2026-01-20 11:38:10.49	208.41	5.63	-48.7	-58.6	4.9	8.43e-01	0	38	0	10485760	68	11562
2026-01-20 11:38:11.50	208.49	5.69	-48.7	-58.7	4.9	7.70e-01	0	38	0	12582912	68	11710
2026-01-20 11:38:12.51	208.57	5.75	-48.7	-58.2	5.1	6.95e-01	0	38	0	14680064	68	11096
2026-01-20 11:38:13.52	208.65	5.82	-48.6	-57.9	5.3	5.96e-01	0	38	0	15728640	68	10672
2026-01-20 11:38:14.52	208.73	5.88	-48.8	-59.1	4.8	7.89e-01	0	38	0	17825792	68	12257
2026-01-20 11:38:15.53	208.81	5.95	-48.9	-60.5	3.9	1.49e+00	0	38	104	17825792	68	14388
2026-01-20 11:38:16.54	208.89	6.01	-48.6	-57.9	5.3	1.31e+00	0	38	0	17825792	68	10761
2026-01-20 11:38:17.54	208.97	6.07	-48.8	-59.4	4.5	1.40e+00	121	38	0	18874368	68	12768
2026-01-20 11:38:18.55	209.05	6.14	-48.7	-58.5	4.9	7.01e-01	0	38	0	20971520	68	11499
2026-01-20 11:38:19.56	209.14	6.20	-48.6	-58.0	5.2	6.99e-01	0	38	0	23068672	68	10827
2026-01-20 11:38:20.57	209.22	6.27	-48.6	-57.9	5.3	5.09e-01	0	38	0	24117248	68	10714
2026-01-20 11:38:21.57	209.30	6.33	-48.6	-57.7	5.4	5.78e-01	0	38	0	26214400	68	10533
2026-01-20 11:38:22.58	209.38	6.40	-48.6	-57.9	5.3	5.51e-01	0	38	0	28311552	68	10759
2026-01-20 11:38:23.59	209.47	6.46	-48.7	-58.4	5.0	5.94e-01	0	38	0	30408704	68	11367
2026-01-20 11:38:24.60	209.55	6.53	-48.7	-58.0	5.3	7.73e-01	0	38	0	32505856	68	10794
2026-01-20 11:38:25.61	209.63	6.60	-48.9	-60.1	4.4	6.45e-01	52	38	0	34603008	68	13769
2026-01-20 11:38:26.61	209.72	6.66	-48.8	-59.6	4.0	1.48e+00	0	38	104	34603008	68	13023
2026-01-20 11:38:27.62	209.80	6.73	-48.7	-58.2	5.2	7.37e-01	0	38	0	35651584	68	11086
2026-01-20 11:38:28.63	209.89	6.79	-48.7	-58.6	4.9	1.37e+00	0	38	0	36700160	68	11563
2026-01-20 11:38:29.64	209.97	6.86	-48.6	-57.9	5.3	5.83e-01	0	39	0	37748736	68	10731
2026-01-20 11:38:30.65	210.06	6.93	-48.6	-57.8	5.4	5.48e-01	0	38	0	39845888	68	10574
2026-01-20 11:38:31.65	210.15	6.99	-48.6	-57.5	5.6	4.61e-01	0	38	0	41943040	68	10211
2026-01-20 11:38:32.66	210.23	7.06	-48.6	-57.7	5.5	4.97e-01	0	38	0	44040192	68	10420
2026-01-20 11:38:33.67	210.32	7.12	-48.6	-57.4	5.6	4.43e-01	0	39	0	46137344	68	10147
2026-01-20 11:38:34.68	210.41	7.19	-48.7	-58.4	5.1	5.29e-01	0	38	0	47185920	68	11338
2026-01-20 11:38:35.69	210.49	7.26	-48.7	-58.4	5.0	8.17e-01	0	39	0	49283072	68	11325
2026-01-20 11:38:36.69	210.58	7.32	-48.9	-59.9	4.5	6.72e-01	27	39	0	51380224	68	13477
2026-01-20 11:38:37.70	210.67	7.39	-48.9	-60.5	4.2	1.49e+00	0	39	104	51380224	68	14483
2026-01-20 11:38:38.71	210.76	7.46	-48.8	-59.1	4.7	1.07e+00	0	39	0	52428800	68	12322
2026-01-20 11:38:39.72	210.85	7.53	-48.7	-58.5	4.9	9.51e-01	0	38	0	53477376	68	11523
2026-01-20 11:38:40.73	210.94	7.59	-48.7	-58.2	5.1	6.95e-01	0	38	0	54525952	68	11121
2026-01-20 11:38:41.73	211.03	7.66	-48.7	-58.0	5.2	5.91e-01	0	39	0	56623104	68	10888
2026-01-20 11:38:42.74	211.12	7.73	-48.6	-57.5	5.6	5.56e-01	0	39	0	58720256	68	10212
2026-01-20 11:38:43.75	211.21	7.80	-48.6	-57.7	5.5	4.75e-01	0	39	0	60817408	68	10439
2026-01-20 11:38:44.76	211.30	7.86	-48.6	-57.3	5.7	4.53e-01	0	38	0	62914560	68	10035
2026-01-20 11:38:45.77	211.39	7.93	-48.8	-58.6	4.9	4.36e-01	0	39	0	63963136	68	11665
2026-01-20 11:38:46.77	211.48	8.00	-48.6	-57.5	5.6	4.89e-01	0	38	0	66060288	68	10276
2026-01-20 11:38:47.78	211.58	8.07	-49.0	-61.3	4.0	5.37e-01	0	39	0	68157440	68	15894
2026-01-20 11:38:48.79	211.67	8.14	-48.9	-59.5	4.5	1.49e+00	2	39	104	68157440	68	12850
2026-01-20 11:38:49.80	211.76	8.20	-48.8	-58.8	4.9	9.45e-01	0	39	0	69206016	68	11865
2026-01-20 11:38:50.81	211.86	8.27	-48.7	-57.9	5.3	9.16e-01	0	39	0	70254592	68	10723
2026-01-20 11:38:51.81	211.95	8.34	-48.6	-57.7	5.5	4.81e-01	0	39	0	72351744	68	10434
2026-01-20 11:38:52.82	212.04	8.41	-48.6	-57.3	5.7	4.80e-01	0	39	0	74448896	68	10024
2026-01-20 11:38:53.83	212.14	8.48	-48.6	-57.6	5.5	4.57e-01	0	39	0	76546048	68	10324
2026-01-20 11:38:54.84	212.23	8.55	-48.6	-57.6	5.5	5.15e-01	0	39	0	78643200	68	10369
2026-01-20 11:38:55.85	212.33	8.62	-48.6	-57.6	5.5	4.64e-01	0	39	0	79691776	68	10341
2026-01-20 11:38:56.85	212.43	8.69	-48.7	-58.4	5.1	4.98e-01	0	39	0	81788928	68	11298
2026-01-20 11:38:57.86	212.52	8.76	-48.7	-58.3	5.1	6.99e-01	0	39	0	83886080	68	11224
2026-01-20 11:38:58.87	212.62	8.82	-49.1	-62.1	3.9	4.98e-01	0	39	0	84934656	68	17461
2026-01-20 11:38:59.88	212.72	8.89	-48.9	-59.7	4.5	1.36e+00	90	39	104	84934656	68	13239
2026-01-20 11:39:00.88	212.81	8.96	-48.8	-59.2	4.7	5.19e-01	0	39	0	85983232	68	12487
2026-01-20 11:39:01.89	212.91	9.03	-48.6	-57.6	5.5	1.04e+00	0	39	0	87031808	68	10311
2026-01-20 11:39:02.90	213.01	9.10	-48.6	-57.4	5.7	4.47e-01	0	39	0	89128960	68	10068
2026-01-20 11:39:03.91	213.11	9.17	-48.6	-57.2	5.8	4.01e-01	0	39	0	91226112	68	9908
2026-01-20 11:39:04.91	213.21	9.24	-48.6	-57.2	5.8	3.99e-01	0	39	0	93323264	68	9914
2026-01-20 11:39:05.92	213.31	9.31	-48.6	-57.4	5.7	3.91e-01	0	39	0	95420416	68	10127
2026-01-20 11:39:06.93	213.41	9.39	-48.6	-57.4	5.7	4.45e-01	0	39	0	96468992	68	10156
2026-01-20 11:39:07.94	213.51	9.46	-48.6	-57.2	5.8	3.94e-01	0	39	0	98566144	68	9879
2026-01-20 11:39:08.95	213.61	9.53	-48.7	-57.8	5.4	3.73e-01	0	39	0	100663296	68	10571
2026-01-20 11:39:09.95	213.72	9.60	-49.1	-62.7	3.8	1.15e+00	0	39	104	101711872	68	18657
2026-01-20 11:39:10.96	213.82	9.67	-48.9	-59.7	4.4	1.30e+00	60	39	104	101711872	68	13209
2026-01-20 11:39:11.97	213.92	9.74	-48.9	-59.7	4.5	4.68e-01	18	39	0	102760448	68	13186
2026-01-20 11:39:12.98	214.03	9.81	-48.6	-57.2	5.8	1.02e+00	0	39	0	104857600	68	9940
2026-01-20 11:39:13.99	214.13	9.88	-48.6	-57.3	5.8	4.04e-01	0	39	0	106954752	68	10003
2026-01-20 11:39:14.99	214.23	9.95	-48.6	-57.1	5.9	3.80e-01	0	39	0	109051904	68	9796
2026-01-20 11:39:16.00	214.34	10.03	-48.6	-57.4	5.7	3.93e-01	0	39	0	110100480	68	10068
2026-01-20 11:39:17.01	214.44	10.10	-48.6	-57.3	5.7	4.12e-01	0	39	0	112197632	68	10053
2026-01-20 11:39:18.01	214.55	10.17	-48.6	-57.0	6.0	3.80e-01	0	39	0	114294784	68	9696
2026-01-20 11:39:19.02	214.66	10.24	-48.7	-57.9	5.4	3.51e-01	0	39	0	116391936	68	10680
2026-01-20 11:39:20.03	214.76	10.31	-48.6	-57.5	5.6	3.86e-01	0	39	0	118489088	68	10177
2026-01-20 11:39:21.04	214.87	10.39	-49.1	-62.8	3.8	8.98e-01	0	39	104	119537664	68	18904
2026-01-20 11:39:22.05	214.98	10.46	-48.9	-59.5	4.5	1.36e+00	15	39	0	119537664	68	12902
2026-01-20 11:39:23.05	215.09	10.53	-48.9	-59.7	4.5	6.36e-01	20	39	0	121634816	68	13129
2026-01-20 11:39:24.06	215.20	10.60	-48.6	-56.9	6.1	4.32e-01	0	39	0	122683392	68	9533
2026-01-20 11:39:25.07	215.31	10.68	-48.5	-56.7	6.2	3.03e-01	0	39	0	124780544	68	9320
2026-01-20 11:39:26.08	215.42	10.75	-48.6	-57.0	6.0	2.89e-01	0	39	0	126877696	68	9614
2026-01-20 11:39:27.09	215.53	10.82	-48.6	-57.0	6.0	3.30e-01	0	39	0	128974848	68	9627
2026-01-20 11:39:28.09	215.64	10.89	-48.6	-56.9	6.1	3.25e-01	0	39	0	130023424	68	9506
2026-01-20 11:39:29.10	215.75	10.97	-48.6	-57.0	6.0	3.29e-01	0	39	0	132120576	68	9629
2026-01-20 11:39:30.11	215.86	11.04	-48.8	-58.4	5.0	5.63e-01	0	39	0	134217728	68	11380
2026-01-20 11:39:31.12	215.97	11.11	-48.6	-57.2	5.8	5.47e-01	0	39	0	136314880	68	9902
2026-01-20 11:39:32.13	216.09	11.19	-49.1	-62.6	3.8	7.09e-01	0	39	104	137363456	68	18450
2026-01-20 11:39:33.14	216.20	11.26	-48.9	-59.3	4.6	1.24e+00	29	39	0	137363456	68	12576
2026-01-20 11:39:34.14	216.32	11.34	-48.9	-59.6	4.5	5.48e-01	86	39	0	139460608	68	12997
2026-01-20 11:39:35.15	216.43	11.41	-48.6	-57.3	5.8	5.77e-01	0	39	0	140509184	68	9955
2026-01-20 11:39:36.15	216.55	11.48	-48.6	-57.2	5.8	3.72e-01	0	39	0	142606336	68	9930
2026-01-20 11:39:37.16	216.66	11.56	-48.6	-57.3	5.8	3.99e-01	0	39	0	144703488	68	10033
2026-01-20 11:39:38.17	216.78	11.63	-48.6	-57.1	5.9	3.74e-01	0	39	0	146800640	68	9786
2026-01-20 11:39:39.18	216.90	11.71	-48.6	-57.0	6.0	3.67e-01	0	39	0	147849216	68	9679
2026-01-20 11:39:40.19	217.01	11.78	-48.6	-57.0	6.0	3.31e-01	0	39	0	149946368	68	9644
2026-01-20 11:39:41.19	217.13	11.86	-48.7	-57.8	5.4	4.70e-01	0	39	0	152043520	68	10562
2026-01-20 11:39:42.20	217.25	11.93	-48.6	-57.2	5.8	3.86e-01	0	39	0	154140672	68	9894
2026-01-20 11:39:43.21	217.37	12.01	-49.1	-62.1	3.8	1.46e+00	0	39	104	155189248	68	17471
2026-01-20 11:39:44.22	217.49	12.08	-48.8	-58.5	4.9	1.24e+00	0	39	0	155189248	68	11489
2026-01-20 11:39:45.23	217.61	12.16	-48.9	-59.1	4.7	4.00e-01	0	39	0	157286400	68	12263
2026-01-20 11:39:46.23	217.73	12.23	-48.6	-57.0	6.0	3.36e-01	0	39	0	159383552	68	9673
2026-01-20 11:39:47.24	217.85	12.31	-48.6	-57.1	5.9	3.59e-01	0	39	0	160432128	68	9774
2026-01-20 11:39:48.25	217.98	12.38	-48.6	-56.7	6.2	3.23e-01	0	39	0	162529280	68	9386
2026-01-20 11:39:49.25	218.10	12.46	-48.6	-56.9	6.1	3.25e-01	0	39	0	164626432	68	9537
2026-01-20 11:39:50.26	218.22	12.53	-48.6	-56.7	6.2	2.96e-01	0	39	0	166723584	68	9312
2026-01-20 11:39:51.27	218.35	12.61	-48.6	-56.7	6.2	2.87e-01	0	39	0	167772160	68	9324
2026-01-20 11:39:52.28	218.47	12.69	-48.8	-58.1	5.2	3.80e-01	0	39	0	169869312	68	11003
2026-01-20 11:39:53.29	218.60	12.76	-48.6	-56.8	6.1	4.32e-01	0	39	0	171966464	68	9432
2026-01-20 11:39:54.29	218.72	12.84	-49.1	-62.1	3.8	1.38e+00	0	39	104	173015040	68	17452
2026-01-20 11:39:55.30	218.85	12.91	-48.8	-58.3	5.0	1.14e+00	0	39	0	173015040	68	11283
2026-01-20 11:39:56.31	218.98	12.99	-48.8	-58.2	5.2	7.47e-01	0	39	0	175112192	68	11063
2026-01-20 11:39:57.32	219.11	13.07	-48.6	-56.8	6.2	2.82e-01	0	39	0	177209344	68	9434
2026-01-20 11:39:58.32	219.23	13.14	-48.5	-56.6	6.3	2.87e-01	0	39	0	179306496	68	9199
2026-01-20 11:39:59.33	219.36	13.22	-48.5	-56.5	6.4	2.40e-01	0	39	0	180355072	68	9110
2026-01-20 11:40:00.34	219.49	13.30	-48.5	-56.5	6.4	2.59e-01	0	39	0	182452224	68	9152
2026-01-20 11:40:01.35	219.62	13.37	-48.5	-56.5	6.4	2.37e-01	0	39	0	184549376	68	9090
2026-01-20 11:40:02.36	219.76	13.45	-48.6	-56.7	6.2	2.50e-01	0	39	0	186646528	68	9374
2026-01-20 11:40:03.36	219.89	13.53	-48.7	-57.8	5.4	7.07e-01	0	39	0	188743680	68	10600
2026-01-20 11:40:04.37	220.02	13.61	-48.5	-56.6	6.3	3.87e-01	0	39	0	189792256	68	9269
2026-01-20 11:40:05.38	220.15	13.68	-49.1	-61.5	3.9	1.23e+00	0	39	104	190840832	68	16287
2026-01-20 11:40:06.39	220.29	13.76	-48.7	-57.6	5.4	1.15e+00	0	39	0	190840832	68	10407
2026-01-20 11:40:07.39	220.42	13.84	-48.8	-58.4	5.0	7.10e-01	0	39	0	192937984	68	11404
2026-01-20 11:40:08.40	220.56	13.92	-48.6	-57.0	6.0	3.46e-01	0	39	0	195035136	68	9611
2026-01-20 11:40:09.41	220.69	13.99	-48.6	-56.8	6.2	2.93e-01	0	39	0	197132288	68	9400
2026-01-20 11:40:10.42	220.83	14.07	-48.6	-56.9	6.1	2.89e-01	0	39	0	198180864	68	9521
2026-01-20 11:40:11.43	220.97	14.15	-48.6	-56.7	6.2	2.82e-01	0	39	0	200278016	68	9337
2026-01-20 11:40:12.44	221.11	14.23	-48.5	-56.6	6.3	2.75e-01	0	39	0	202375168	68	9237
2026-01-20 11:40:13.44	221.24	14.31	-48.6	-56.9	6.1	2.62e-01	0	39	0	204472320	68	9593
2026-01-20 11:40:14.45	221.38	14.39	-48.7	-57.5	5.6	7.17e-01	0	39	0	206569472	68	10239
2026-01-20 11:40:15.45	221.52	14.46	-48.6	-56.9	6.1	3.10e-01	0	39	0	207618048	68	9551
2026-01-20 11:40:16.46	221.66	14.54	-49.0	-60.6	3.9	1.49e+00	0	39	104	208666624	68	14654
2026-01-20 11:40:17.47	221.81	14.62	-48.6	-56.9	6.0	1.21e+00	0	39	0	208666624	68	9520
2026-01-20 11:40:18.48	221.95	14.70	-48.7	-57.7	5.4	5.65e-01	0	39	0	210763776	68	10517
2026-01-20 11:40:19.49	222.09	14.78	-48.6	-56.7	6.2	2.98e-01	0	39	0	212860928	68	9369
2026-01-20 11:40:20.50	222.24	14.86	-48.6	-56.7	6.2	2.74e-01	0	39	0	214958080	68	9369
2026-01-20 11:40:21.50	222.38	14.94	-48.5	-56.6	6.3	2.82e-01	0	39	0	216006656	68	9208
2026-01-20 11:40:22.51	222.53	15.02	-48.5	-56.6	6.4	2.60e-01	0	39	0	218103808	68	9182
2026-01-20 11:40:23.52	222.67	15.10	-48.5	-56.4	6.4	2.53e-01	0	39	0	220200960	68	9065
2026-01-20 11:40:24.53	222.82	15.18	-48.5	-56.5	6.4	2.41e-01	0	39	0	222298112	68	9164
2026-01-20 11:40:25.53	222.96	15.25	-48.6	-57.0	6.0	3.79e-01	0	39	0	224395264	68	9676
2026-01-20 11:40:26.54	223.11	15.33	-48.8	-57.9	5.6	2.97e-01	0	39	0	226492416	68	10750
2026-01-20 11:40:27.55	223.26	15.41	-49.0	-59.8	4.0	1.49e+00	0	39	104	226492416	68	13315
2026-01-20 11:40:28.56	223.41	15.49	-48.5	-56.4	6.5	5.51e-01	0	39	0	226492416	68	9002
2026-01-20 11:40:29.57	223.56	15.57	-48.6	-57.0	5.9	6.45e-01	0	39	0	228589568	68	9687
2026-01-20 11:40:30.57	223.71	15.65	-48.5	-56.4	6.4	2.45e-01	0	39	0	230686720	68	9042
2026-01-20 11:40:31.58	223.87	15.73	-48.5	-56.4	6.5	2.37e-01	0	39	0	232783872	68	9029
2026-01-20 11:40:32.59	224.02	15.81	-48.5	-56.4	6.5	2.30e-01	0	39	0	234881024	68	9001
2026-01-20 11:40:33.60	224.17	15.89	-48.5	-56.5	6.4	2.32e-01	0	39	0	235929600	68	9113
2026-01-20 11:40:34.61	224.33	15.97	-48.5	-56.4	6.4	2.51e-01	0	39	0	238026752	68	9057
2026-01-20 11:40:35.61	224.48	16.05	-48.7	-57.3	5.9	2.35e-01	0	39	0	240123904	68	10026
2026-01-20 11:40:36.62	224.64	16.13	-48.6	-57.0	6.0	5.12e-01	0	39	0	242221056	68	9701
2026-01-20 11:40:37.63	224.80	16.21	-49.0	-59.7	4.6	3.12e-01	2	39	0	244318208	68	13238
2026-01-20 11:40:38.63	224.95	16.29	-48.9	-59.4	4.1	1.48e+00	0	39	104	244318208	68	12746
2026-01-20 11:40:39.64	225.11	16.37	-48.5	-56.3	6.6	6.88e-01	0	39	0	245366784	68	8948
2026-01-20 11:40:40.65	225.27	16.45	-48.5	-56.4	6.5	5.26e-01	0	39	0	246415360	68	8984
2026-01-20 11:40:41.66	225.43	16.54	-48.5	-56.1	6.7	1.86e-01	0	39	0	248512512	68	8712
2026-01-20 11:40:42.66	225.59	16.62	-48.4	-56.1	6.8	1.84e-01	0	39	0	250609664	68	8664
2026-01-20 11:40:43.67	225.75	16.70	-48.4	-56.0	6.9	1.79e-01	0	39	0	252706816	68	8625
2026-01-20 11:40:44.68	225.92	16.78	-48.5	-56.1	6.8	1.83e-01	0	39	0	254803968	68	8718
2026-01-20 11:40:45.69	226.08	16.86	-48.4	-56.0	6.9	1.72e-01	0	39	0	255852544	68	8586
2026-01-20 11:40:46.69	226.25	16.94	-48.6	-57.2	6.0	1.83e-01	0	39	0	257949696	68	9841
2026-01-20 11:40:47.70	226.41	17.02	-48.6	-56.6	6.3	4.75e-01	0	39	0	260046848	68	9276
2026-01-20 11:40:48.71	226.58	17.10	-49.1	-60.9	4.1	3.11e-01	37	39	0	262144000	68	15205
2026-01-20 11:40:49.72	226.74	17.18	-49.0	-59.8	4.5	1.48e+00	4	39	104	262144000	68	13264
2026-01-20 11:40:50.72	226.91	17.26	-48.5	-56.5	6.5	8.45e-01	0	39	0	263192576	68	9106
2026-01-20 11:40:51.74	227.08	17.34	-48.5	-56.0	6.8	2.86e-01	0	39	0	265289728	68	8643
2026-01-20 11:40:52.74	227.25	17.42	-48.4	-56.0	6.8	1.72e-01	0	39	0	266338304	68	8635
2026-01-20 11:40:53.75	227.42	17.50	-48.5	-56.2	6.7	1.84e-01	0	39	0	268435456	68	8834
2026-01-20 11:40:54.75	227.59	17.59	-48.4	-55.8	7.0	1.63e-01	0	39	0	270532608	68	8407
2026-01-20 11:40:55.76	227.76	17.67	-48.4	-55.8	7.0	1.52e-01	0	39	0	272629760	68	8451
2026-01-20 11:40:56.77	227.94	17.75	-48.4	-55.8	7.0	1.52e-01	0	39	0	274726912	68	8370
2026-01-20 11:40:57.78	228.11	17.83	-48.5	-56.1	6.7	1.52e-01	0	39	0	275775488	68	8741
2026-01-20 11:40:58.79	228.29	17.91	-48.5	-56.5	6.4	1.99e-01	0	39	0	277872640	68	9118
2026-01-20 11:40:59.79	228.46	17.99	-49.1	-60.9	4.2	2.10e-01	40	39	0	279969792	68	15145
2026-01-20 11:41:00.80	228.64	18.07	-49.0	-59.7	4.5	1.49e+00	5	39	104	279969792	68	13156
2026-01-20 11:41:01.81	228.82	18.15	-48.6	-56.8	6.3	2.21e-01	0	39	0	281018368	68	9435
2026-01-20 11:41:02.82	229.00	18.23	-48.5	-56.0	6.8	3.35e-01	0	39	0	283115520	68	8646
2026-01-20 11:41:03.82	229.17	18.32	-48.4	-55.8	7.0	1.73e-01	0	39	0	285212672	68	8421
2026-01-20 11:41:04.83	229.36	18.40	-48.4	-55.8	7.0	1.42e-01	0	39	0	286261248	68	8406
2026-01-20 11:41:05.84	229.54	18.48	-48.4	-55.5	7.3	1.31e-01	0	39	0	288358400	68	8143
2026-01-20 11:41:06.85	229.72	18.56	-48.4	-55.6	7.2	1.24e-01	0	39	0	290455552	68	8200
2026-01-20 11:41:07.85	229.90	18.64	-48.4	-55.6	7.2	1.34e-01	0	39	0	292552704	68	8215
2026-01-20 11:41:08.86	230.09	18.72	-48.4	-56.0	6.8	1.32e-01	0	39	0	293601280	68	8647
2026-01-20 11:41:09.87	230.27	18.80	-48.6	-56.6	6.4	1.78e-01	0	39	0	295698432	68	9203
2026-01-20 11:41:10.88	230.46	18.88	-49.1	-61.7	4.0	1.76e-01	0	39	0	297795584	68	16694
2026-01-20 11:41:11.89	230.65	18.96	-49.0	-60.0	4.4	1.36e+00	77	39	104	297795584	68	13579
2026-01-20 11:41:12.90	230.84	19.05	-48.6	-56.6	6.5	2.60e-01	0	39	0	298844160	68	9186
2026-01-20 11:41:13.90	231.02	19.13	-48.3	-55.4	7.4	2.87e-01	0	39	0	300941312	68	8067
2026-01-20 11:41:14.91	231.21	19.21	-48.3	-55.5	7.3	1.18e-01	0	39	0	303038464	68	8111
2026-01-20 11:41:15.92	231.41	19.29	-48.3	-55.4	7.4	1.09e-01	0	39	0	305135616	68	8028
2026-01-20 11:41:16.93	231.60	19.37	-48.3	-55.5	7.3	1.16e-01	0	39	0	306184192	68	8094
2026-01-20 11:41:17.93	231.79	19.45	-48.3	-55.4	7.4	1.11e-01	0	39	0	308281344	68	8064
2026-01-20 11:41:18.94	231.98	19.53	-48.3	-55.5	7.3	1.17e-01	0	39	0	310378496	68	8102
2026-01-20 11:41:19.95	232.18	19.61	-48.8	-58.5	5.1	2.13e-01	0	39	0	312475648	68	11512
2026-01-20 11:41:20.95	232.37	19.69	-48.6	-56.6	6.3	4.40e-01	0	39	0	313524224	68	9265
2026-01-20 11:41:21.96	232.57	19.77	-49.1	-62.2	3.8	8.23e-01	0	39	104	315621376	68	17628
2026-01-20 11:41:22.97	232.77	19.85	-49.0	-60.3	4.3	1.45e+00	123	39	104	315621376	68	14069
2026-01-20 11:41:23.98	232.97	19.93	-48.6	-56.9	6.1	3.79e-01	0	39	0	316669952	68	9532
2026-01-20 11:41:24.99	233.17	20.01	-48.3	-55.4	7.4	1.24e-01	0	39	0	318767104	68	7992
2026-01-20 11:41:25.99	233.37	20.09	-48.3	-55.4	7.5	1.11e-01	0	39	0	320864256	68	8001
2026-01-20 11:41:27.00	233.57	20.17	-48.3	-55.3	7.5	1.03e-01	0	39	0	321912832	68	7921
2026-01-20 11:41:28.01	233.78	20.25	-48.3	-55.2	7.6	9.81e-02	0	39	0	324009984	68	7840
2026-01-20 11:41:29.02	233.98	20.33	-48.3	-55.2	7.6	9.64e-02	0	39	0	326107136	68	7870
2026-01-20 11:41:30.03	234.19	20.41	-48.3	-55.2	7.7	9.97e-02	0	39	0	328204288	68	7855
2026-01-20 11:41:31.03	234.39	20.49	-48.6	-57.1	5.9	2.72e-01	0	39	0	330301440	68	9762
2026-01-20 11:41:32.04	234.60	20.57	-48.5	-56.3	6.5	2.27e-01	0	39	0	332398592	68	8959
2026-01-20 11:41:33.05	234.81	20.65	-49.2	-62.3	3.8	5.46e-01	0	39	104	333447168	68	17819
2026-01-20 11:41:34.06	235.02	20.73	-49.0	-60.3	4.3	1.19e+00	0	39	0	333447168	68	14055
2026-01-20 11:41:35.07	235.23	20.81	-48.6	-56.9	6.1	1.55e-01	0	39	0	335544320	68	9597
2026-01-20 11:41:36.07	235.44	20.89	-48.3	-55.4	7.4	1.56e-01	0	39	0	337641472	68	8048
2026-01-20 11:41:37.08	235.65	20.97	-48.4	-55.5	7.3	1.19e-01	0	39	0	338690048	68	8161
2026-01-20 11:41:38.09	235.87	21.05	-48.3	-55.3	7.6	1.06e-01	0	39	0	340787200	68	7944
2026-01-20 11:41:39.09	236.08	21.13	-48.3	-55.4	7.4	1.10e-01	0	39	0	342884352	68	8059
2026-01-20 11:41:40.10	236.29	21.20	-48.3	-55.2	7.6	9.80e-02	0	39	0	344981504	68	7811
2026-01-20 11:41:41.11	236.51	21.28	-48.3	-55.2	7.7	9.41e-02	0	39	0	347078656	68	7814
2026-01-20 11:41:42.12	236.73	21.36	-48.5	-56.0	6.9	1.46e-01	0	39	0	348127232	68	8595
2026-01-20 11:41:43.13	236.95	21.44	-48.4	-56.0	6.8	1.99e-01	0	39	0	350224384	68	8588
2026-01-20 11:41:44.13	237.17	21.52	-49.1	-61.9	3.8	1.45e+00	0	39	104	351272960	68	16889
2026-01-20 11:41:45.14	237.39	21.59	-48.9	-59.4	4.5	1.18e+00	30	39	0	351272960	68	12713
2026-01-20 11:41:46.15	237.61	21.67	-48.5	-56.5	6.4	1.21e-01	0	39	0	353370112	68	9108
2026-01-20 11:41:47.15	237.83	21.75	-48.3	-55.3	7.5	1.47e-01	0	39	0	355467264	68	7980
2026-01-20 11:41:48.16	238.06	21.83	-48.3	-55.3	7.5	9.92e-02	0	39	0	357564416	68	7900
2026-01-20 11:41:49.17	238.28	21.90	-48.3	-55.3	7.5	9.86e-02	0	39	0	358612992	68	7934
2026-01-20 11:41:50.18	238.51	21.98	-48.2	-55.0	7.8	8.95e-02	0	39	0	360710144	68	7653
2026-01-20 11:41:51.19	238.74	22.06	-48.2	-54.9	7.9	7.50e-02	0	39	0	362807296	68	7555
2026-01-20 11:41:52.19	238.97	22.13	-48.2	-54.8	7.9	7.16e-02	0	39	0	364904448	68	7526
2026-01-20 11:41:53.20	239.20	22.21	-48.5	-56.1	6.7	1.42e-01	0	39	0	365953024	68	8759
2026-01-20 11:41:54.21	239.43	22.28	-48.3	-55.2	7.5	2.08e-01	0	39	0	368050176	68	7872
2026-01-20 11:41:55.22	239.66	22.36	-49.1	-61.1	4.1	1.30e+00	0	39	104	369098752	68	15493
2026-01-20 11:41:56.23	239.89	22.43	-48.8	-58.3	5.0	1.07e+00	0	39	0	369098752	68	11195
2026-01-20 11:41:57.23	240.13	22.51	-48.5	-56.2	6.7	1.81e-01	0	39	0	371195904	68	8783
2026-01-20 11:41:58.24	240.36	22.58	-48.3	-55.1	7.6	9.08e-02	0	39	0	373293056	68	7791
2026-01-20 11:41:59.25	240.60	22.66	-48.3	-55.2	7.6	9.42e-02	0	39	0	375390208	68	7885
2026-01-20 11:42:00.26	240.84	22.73	-48.3	-55.1	7.7	8.91e-02	0	39	0	376438784	68	7758
2026-01-20 11:42:01.27	241.08	22.81	-48.3	-55.0	7.8	8.67e-02	0	39	0	378535936	68	7707
2026-01-20 11:42:02.27	241.31	22.88	-48.3	-55.2	7.6	9.34e-02	0	39	0	380633088	68	7825
2026-01-20 11:42:03.28	241.56	22.95	-48.3	-55.3	7.5	9.80e-02	0	39	0	382730240	68	7961
2026-01-20 11:42:04.29	241.80	23.03	-48.4	-55.8	7.1	1.67e-01	0	39	0	384827392	68	8370
2026-01-20 11:42:05.29	242.04	23.10	-48.6	-57.0	6.0	3.75e-01	0	39	0	385875968	68	9612
2026-01-20 11:42:06.30	242.28	23.17	-48.9	-59.6	4.5	1.00e+00	43	39	0	387973120	68	13039
2026-01-20 11:42:07.31	242.53	23.24	-48.4	-55.7	7.1	2.49e-01	0	39	0	390070272	68	8342
2026-01-20 11:42:08.32	242.78	23.31	-49.0	-60.5	4.1	1.47e+00	0	39	104	390070272	68	14430
2026-01-20 11:42:09.33	243.02	23.39	-48.5	-56.1	6.8	2.22e-01	0	39	0	391118848	68	8723
2026-01-20 11:42:10.34	243.27	23.46	-48.5	-56.1	6.7	1.86e-01	0	39	0	393216000	68	8709
2026-01-20 11:42:11.34	243.52	23.53	-48.5	-56.1	6.8	1.91e-01	0	39	0	395313152	68	8703
2026-01-20 11:42:12.35	243.77	23.60	-48.4	-55.9	6.9	1.78e-01	0	39	0	396361728	68	8558
2026-01-20 11:42:13.36	244.02	23.67	-48.4	-55.8	7.1	1.68e-01	0	39	0	398458880	68	8422
2026-01-20 11:42:14.37	244.28	23.74	-48.4	-55.9	7.0	1.53e-01	0	39	0	400556032	68	8466
2026-01-20 11:42:15.37	244.53	23.81	-48.6	-56.7	6.2	5.31e-01	0	39	0	402653184	68	9312
2026-01-20 11:42:16.38	244.78	23.87	-48.6	-56.7	6.1	3.64e-01	0	39	0	404750336	68	9365
2026-01-20 11:42:17.39	245.04	23.94	-48.9	-58.9	4.7	1.38e+00	30	39	104	404750336	68	12031
2026-01-20 11:42:18.40	245.30	24.01	-48.4	-55.7	7.1	2.76e-01	0	39	0	405798912	68	8310
2026-01-20 11:42:19.40	245.56	24.08	-49.0	-60.5	4.2	1.42e+00	0	39	104	406847488	68	14423
2026-01-20 11:42:20.41	245.82	24.14	-48.4	-55.9	7.0	1.61e-01	0	39	0	407896064	68	8483
2026-01-20 11:42:21.42	246.08	24.21	-48.4	-55.9	6.9	1.59e-01	0	39	0	409993216	68	8554
2026-01-20 11:42:22.43	246.34	24.28	-48.4	-56.0	6.9	1.68e-01	0	39	0	412090368	68	8630
2026-01-20 11:42:23.44	246.60	24.34	-48.5	-56.1	6.7	1.86e-01	0	39	0	414187520	68	8714
2026-01-20 11:42:24.45	246.87	24.41	-48.5	-56.1	6.7	1.88e-01	0	39	0	415236096	68	8747
2026-01-20 11:42:25.45	247.13	24.47	-48.5	-56.5	6.4	1.89e-01	0	39	0	417333248	68	9152
2026-01-20 11:42:26.46	247.39	24.54	-48.6	-56.6	6.2	1.08e+00	0	39	0	419430400	68	9253
2026-01-20 11:42:27.47	247.66	24.60	-48.7	-57.2	6.0	4.42e-01	0	39	0	421527552	68	9842
2026-01-20 11:42:28.48	247.93	24.66	-48.8	-58.4	5.0	1.47e+00	0	39	104	421527552	68	11404
2026-01-20 11:42:29.49	248.20	24.73	-48.6	-56.7	6.4	4.00e-01	0	39	0	422576128	68	9350
2026-01-20 11:42:30.49	248.47	24.79	-48.9	-59.4	4.5	1.45e+00	17	39	104	422576128	68	12748
2026-01-20 11:42:31.50	248.74	24.85	-48.5	-56.5	6.4	2.36e-01	0	39	0	423624704	68	9072
2026-01-20 11:42:32.51	249.01	24.91	-48.6	-56.6	6.3	2.60e-01	0	39	0	425721856	68	9266
2026-01-20 11:42:33.52	249.29	24.97	-48.6	-56.7	6.2	2.77e-01	0	39	0	427819008	68	9387
2026-01-20 11:42:34.53	249.56	25.03	-48.6	-56.9	6.1	3.05e-01	0	39	0	429916160	68	9526
2026-01-20 11:42:35.53	249.83	25.09	-48.6	-56.9	6.1	3.23e-01	0	39	0	432013312	68	9560
2026-01-20 11:42:36.54	250.11	25.15	-48.9	-59.1	4.8	4.52e-01	0	39	0	433061888	68	12245
2026-01-20 11:42:37.55	250.39	25.21	-48.7	-57.4	5.7	1.23e+00	0	39	104	433061888	68	10117
2026-01-20 11:42:38.55	250.66	25.27	-48.9	-59.0	4.9	6.11e-01	0	39	0	434110464	68	12109
2026-01-20 11:42:39.56	250.94	25.33	-48.9	-58.7	4.9	1.48e+00	0	39	104	435159040	68	11736
2026-01-20 11:42:40.57	251.22	25.38	-48.9	-58.6	5.2	4.19e-01	0	39	0	436207616	68	11646
2026-01-20 11:42:41.58	251.51	25.44	-48.8	-58.7	4.9	1.48e+00	10	39	0	437256192	68	11697
2026-01-20 11:42:42.59	251.79	25.50	-48.7	-57.2	5.9	3.71e-01	0	39	0	438304768	68	9879
2026-01-20 11:42:43.60	252.07	25.55	-48.7	-57.4	5.8	3.86e-01	0	39	0	440401920	68	10063
2026-01-20 11:42:44.60	252.35	25.60	-48.7	-57.4	5.7	4.02e-01	0	39	0	442499072	68	10166
2026-01-20 11:42:45.61	252.64	25.66	-48.7	-57.6	5.5	4.51e-01	0	39	0	444596224	68	10411
2026-01-20 11:42:46.62	252.93	25.71	-48.7	-57.8	5.4	4.86e-01	0	39	0	446693376	68	10611
2026-01-20 11:42:47.63	253.21	25.76	-49.0	-60.3	4.3	5.60e-01	73	39	0	448790528	68	14108
2026-01-20 11:42:48.64	253.50	25.82	-48.8	-58.4	5.1	1.38e+00	0	39	0	448790528	68	11367
2026-01-20 11:42:49.64	253.79	25.87	-49.1	-61.2	4.1	8.85e-01	47	39	0	449839104	68	15699
2026-01-20 11:42:50.65	254.08	25.92	-48.9	-59.6	4.5	1.48e+00	12	39	104	449839104	68	13002
2026-01-20 11:42:51.66	254.37	25.97	-49.1	-61.2	4.1	7.59e-01	41	39	0	450887680	68	15601
2026-01-20 11:42:52.67	254.66	26.02	-48.9	-58.9	4.8	1.49e+00	1	39	104	450887680	68	11999
2026-01-20 11:42:53.67	254.95	26.06	-48.8	-58.4	5.1	6.60e-01	0	39	0	451936256	68	11391
2026-01-20 11:42:54.68	255.24	26.11	-48.8	-58.4	5.1	6.51e-01	0	39	0	454033408	68	11392
2026-01-20 11:42:55.69	255.54	26.16	-48.8	-58.4	5.1	6.59e-01	0	39	0	455081984	68	11367
2026-01-20 11:42:56.70	255.83	26.21	-48.8	-58.5	5.1	6.56e-01	0	39	0	457179136	68	11425
2026-01-20 11:42:57.71	256.13	26.25	-48.8	-58.5	5.1	6.69e-01	0	39	0	459276288	68	11420
2026-01-20 11:42:58.71	256.42	26.30	-49.1	-61.1	4.1	6.66e-01	0	39	0	461373440	68	15485
2026-01-20 11:42:59.72	256.72	26.34	-48.9	-58.9	4.8	8.43e-01	0	39	0	461373440	68	12001
2026-01-20 11:43:00.73	257.02	26.38	-49.1	-62.1	3.9	9.28e-01	0	39	0	463470592	68	17474
2026-01-20 11:43:01.74	257.32	26.43	-49.0	-60.0	4.4	1.48e+00	159	39	104	463470592	68	13664
2026-01-20 11:43:02.74	257.62	26.47	-49.2	-62.1	3.9	9.71e-01	0	39	0	464519168	68	17293
2026-01-20 11:43:03.75	257.92	26.51	-48.8	-58.5	5.0	1.39e+00	0	39	104	464519168	68	11421
2026-01-20 11:43:04.76	258.22	26.55	-48.8	-58.3	5.2	6.06e-01	0	39	0	465567744	68	11190
2026-01-20 11:43:05.77	258.52	26.59	-48.8	-58.1	5.3	5.79e-01	0	39	0	467664896	68	10981
2026-01-20 11:43:06.77	258.82	26.63	-48.8	-58.1	5.3	5.74e-01	0	39	0	469762048	68	10937
2026-01-20 11:43:07.78	259.13	26.67	-48.8	-58.1	5.3	5.55e-01	0	39	0	470810624	68	10963
2026-01-20 11:43:08.79	259.43	26.71	-48.8	-58.2	5.2	5.90e-01	0	39	0	472907776	68	11112
2026-01-20 11:43:09.80	259.74	26.74	-49.2	-62.4	3.8	1.19e+00	0	39	104	475004928	68	17971
2026-01-20 11:43:10.81	260.04	26.78	-48.9	-59.0	4.8	1.23e+00	0	39	104	475004928	68	12182
2026-01-20 11:43:11.81	260.35	26.81	-49.2	-62.8	3.8	8.73e-01	0	39	104	476053504	68	18917
2026-01-20 11:43:12.82	260.65	26.85	-49.0	-60.5	4.2	1.42e+00	0	39	104	476053504	68	14468
2026-01-20 11:43:13.83	260.96	26.88	-49.2	-62.8	3.8	9.38e-01	0	39	104	476053504	68	18774
2026-01-20 11:43:14.84	261.27	26.91	-48.9	-58.5	5.0	1.47e+00	0	39	104	476053504	68	11483
2026-01-20 11:43:15.85	261.58	26.94	-48.8	-58.4	5.0	6.61e-01	0	39	0	477102080	68	11410
2026-01-20 11:43:16.85	261.89	26.97	-48.8	-58.3	5.2	6.22e-01	0	39	0	479199232	68	11190
2026-01-20 11:43:17.86	262.20	27.01	-48.8	-58.0	5.3	5.98e-01	0	39	0	481296384	68	10884
2026-01-20 11:43:18.87	262.51	27.03	-48.8	-58.0	5.3	5.33e-01	0	39	0	483393536	68	10807
2026-01-20 11:43:19.88	262.82	27.06	-48.8	-57.8	5.5	5.04e-01	0	39	0	484442112	68	10619
2026-01-20 11:43:20.88	263.13	27.09	-49.1	-61.5	4.0	8.45e-01	0	39	0	486539264	68	16314
2026-01-20 11:43:21.89	263.44	27.12	-48.8	-57.8	5.5	9.45e-01	0	39	0	486539264	68	10645
2026-01-20 11:43:22.90	263.75	27.14	-49.2	-62.5	3.8	5.26e-01	0	39	104	487587840	68	18167
2026-01-20 11:43:23.91	264.07	27.17	-49.0	-59.9	4.4	1.35e+00	142	39	0	487587840	68	13483
2026-01-20 11:43:24.92	264.38	27.19	-49.2	-62.8	3.8	6.09e-01	0	39	104	488636416	68	18815
2026-01-20 11:43:25.93	264.69	27.21	-48.8	-58.0	5.3	6.61e-01	0	39	0	488636416	68	10901
2026-01-20 11:43:26.93	265.01	27.24	-48.8	-58.2	5.2	5.65e-01	0	39	0	490733568	68	11087
2026-01-20 11:43:27.94	265.32	27.26	-48.8	-58.3	5.2	6.21e-01	0	39	0	491782144	68	11200
2026-01-20 11:43:28.95	265.64	27.28	-48.8	-58.2	5.2	6.24e-01	0	39	0	493879296	68	11140
2026-01-20 11:43:29.96	265.95	27.30	-48.9	-58.3	5.2	6.21e-01	0	39	0	495976448	68	11261
2026-01-20 11:43:30.97	266.27	27.32	-48.8	-58.2	5.2	6.22e-01	0	39	0	498073600	68	11111
2026-01-20 11:43:31.97	266.58	27.33	-49.2	-62.7	3.8	9.06e-01	0	39	104	499122176	68	18679
2026-01-20 11:43:32.98	266.90	27.35	-48.9	-58.6	5.0	6.57e-01	0	39	0	499122176	68	11556
2026-01-20 11:43:33.99	267.22	27.37	-49.2	-63.0	3.8	1.21e+00	0	39	104	500170752	69	18210
2026-01-20 11:43:34.99	267.53	27.38	-49.0	-60.0	4.4	1.37e+00	148	39	0	500170752	69	12871
2026-01-20 11:43:36.00	267.85	27.39	-49.3	-63.1	3.8	7.11e-01	0	39	104	501219328	69	18376
2026-01-20 11:43:37.01	268.17	27.41	-48.8	-57.9	5.4	9.27e-01	0	39	0	501219328	69	10082
2026-01-20 11:43:38.02	268.49	27.42	-48.8	-57.8	5.5	4.93e-01	0	39	0	503316480	69	10046
2026-01-20 11:43:39.03	268.80	27.43	-48.8	-57.8	5.5	4.85e-01	0	39	0	504365056	69	9976
2026-01-20 11:43:40.04	269.12	27.44	-48.8	-57.8	5.5	4.74e-01	0	39	0	506462208	69	10009
2026-01-20 11:43:41.04	269.44	27.45	-48.8	-57.5	5.7	4.57e-01	0	39	0	508559360	69	9640
2026-01-20 11:43:42.05	269.76	27.46	-48.8	-57.4	5.8	4.04e-01	0	39	0	510656512	69	9526
2026-01-20 11:43:43.06	270.08	27.47	-49.2	-62.3	3.8	1.40e+00	0	39	104	511705088	69	16714
2026-01-20 11:43:44.07	270.40	27.47	-48.8	-57.7	5.6	8.13e-01	0	39	0	511705088	69	9861
2026-01-20 11:43:45.07	270.71	27.48	-49.3	-62.6	3.8	8.78e-01	0	39	104	512753664	69	17467
2026-01-20 11:43:46.08	271.03	27.48	-49.0	-59.7	4.5	1.09e+00	17	39	0	512753664	69	12391
2026-01-20 11:43:47.09	271.35	27.49	-49.2	-62.5	3.8	1.01e+00	0	39	104	513802240	69	17209
2026-01-20 11:43:48.09	271.67	27.49	-48.7	-57.0	6.1	8.05e-01	0	39	0	513802240	69	9151
2026-01-20 11:43:49.10	271.99	27.49	-48.7	-57.0	6.1	3.25e-01	0	39	0	515899392	69	9137
2026-01-20 11:43:50.11	272.31	27.49	-48.7	-57.1	6.0	3.27e-01	0	39	0	517996544	69	9235
2026-01-20 11:43:51.12	272.63	27.49	-48.7	-57.2	6.0	3.28e-01	0	39	0	520093696	69	9305
2026-01-20 11:43:52.13	272.95	27.49	-48.7	-57.2	6.0	3.44e-01	0	39	0	522190848	69	9340
2026-01-20 11:43:53.14	273.27	27.49	-48.8	-57.2	5.9	3.55e-01	0	39	0	524288000	69	9369
2026-01-20 11:43:54.14	273.58	27.49	-49.0	-59.3	4.7	7.77e-01	7	39	0	525336576	69	11839
2026-01-20 11:43:55.15	273.90	27.48	-48.7	-56.7	6.3	3.49e-01	0	39	0	527433728	69	8854
2026-01-20 11:43:56.16	274.22	27.48	-49.2	-62.0	3.8	1.47e+00	0	39	104	528482304	69	16273
2026-01-20 11:43:57.16	274.54	27.47	-48.9	-58.4	5.1	1.11e+00	0	39	0	528482304	69	10693
2026-01-20 11:43:58.17	274.86	27.47	-49.2	-62.0	3.8	6.47e-01	0	39	104	529530880	69	16163
2026-01-20 11:43:59.18	275.18	27.46	-48.7	-56.7	6.4	2.65e-01	0	39	0	529530880	69	8796
2026-01-20 11:44:00.18	275.49	27.45	-48.7	-56.8	6.3	2.71e-01	0	39	0	531628032	69	8884
2026-01-20 11:44:01.19	275.81	27.44	-48.7	-56.8	6.2	2.73e-01	0	39	0	533725184	69	8931
2026-01-20 11:44:02.19	276.13	27.43	-48.7	-56.9	6.2	2.78e-01	0	39	0	535822336	69	8994
2026-01-20 11:44:03.20	276.45	27.42	-48.7	-57.0	6.2	2.95e-01	0	39	0	537919488	69	9098
2026-01-20 11:44:04.21	276.76	27.41	-48.7	-56.8	6.3	2.77e-01	0	39	0	540016640	69	8909
2026-01-20 11:44:05.22	277.08	27.40	-48.9	-58.3	5.2	8.17e-01	0	39	0	541065216	69	10620
2026-01-20 11:44:06.23	277.40	27.38	-48.8	-57.1	6.1	2.83e-01	0	39	0	543162368	69	9191
2026-01-20 11:44:07.23	277.71	27.37	-49.3	-61.9	3.8	1.46e+00	0	39	104	544210944	69	15965
2026-01-20 11:44:08.24	278.03	27.35	-49.0	-58.4	5.1	1.23e+00	0	39	0	544210944	69	10668
2026-01-20 11:44:09.25	278.35	27.33	-49.3	-62.0	3.8	1.48e+00	0	39	104	545259520	69	16142
2026-01-20 11:44:10.26	278.66	27.32	-48.8	-57.5	5.8	5.82e-01	0	39	0	545259520	69	9704
2026-01-20 11:44:11.26	278.98	27.30	-48.8	-57.6	5.7	4.24e-01	0	39	0	547356672	69	9749
2026-01-20 11:44:12.27	279.29	27.28	-48.9	-57.7	5.6	4.21e-01	0	39	0	549453824	69	9899
2026-01-20 11:44:13.27	279.60	27.26	-48.9	-57.7	5.6	4.34e-01	0	39	0	550502400	69	9938
2026-01-20 11:44:14.28	279.92	27.24	-48.9	-57.8	5.6	4.42e-01	0	39	0	552599552	69	9962
2026-01-20 11:44:15.29	280.23	27.22	-48.9	-57.7	5.7	4.46e-01	0	39	0	554696704	69	9882
2026-01-20 11:44:16.30	280.55	27.19	-49.0	-58.6	5.0	8.77e-01	0	39	0	556793856	69	10978
2026-01-20 11:44:17.31	280.86	27.17	-48.9	-57.7	5.7	3.60e-01	0	39	0	558891008	69	9910
2026-01-20 11:44:18.31	281.17	27.14	-49.3	-61.4	3.9	1.49e+00	0	39	104	558891008	69	15147
2026-01-20 11:44:19.32	281.48	27.12	-48.9	-57.3	5.8	1.29e+00	0	39	0	558891008	69	9453
2026-01-20 11:44:20.33	281.80	27.09	-49.2	-60.0	4.4	1.35e+00	21	39	104	559939584	69	12871
2026-01-20 11:44:21.34	282.11	27.07	-48.8	-57.1	6.1	3.48e-01	0	39	0	560988160	69	9177
2026-01-20 11:44:22.35	282.42	27.04	-48.8	-57.2	6.0	3.16e-01	0	39	0	563085312	69	9364
2026-01-20 11:44:23.35	282.73	27.01	-48.9	-57.2	6.0	3.40e-01	0	39	0	564133888	69	9371
2026-01-20 11:44:24.36	283.04	26.98	-48.9	-57.3	6.0	3.35e-01	0	39	0	566231040	69	9424
2026-01-20 11:44:25.37	283.35	26.95	-48.9	-57.3	5.9	3.49e-01	0	39	0	568328192	69	9473
2026-01-20 11:44:26.38	283.65	26.92	-48.9	-57.6	5.8	3.56e-01	0	39	0	570425344	69	9826
2026-01-20 11:44:27.39	283.96	26.88	-49.2	-59.9	4.4	1.43e+00	18	39	104	570425344	69	12751
2026-01-20 11:44:28.39	284.27	26.85	-49.0	-57.9	5.7	4.02e-01	0	39	0	571473920	69	10084
2026-01-20 11:44:29.40	284.57	26.82	-49.3	-61.7	3.9	1.49e+00	0	39	104	571473920	69	15672
2026-01-20 11:44:30.41	284.88	26.78	-48.9	-57.1	6.0	1.48e+00	0	39	104	571473920	69	9227
2026-01-20 11:44:31.42	285.19	26.75	-49.1	-58.6	5.0	1.27e+00	0	39	104	571473920	69	10980
2026-01-20 11:44:32.42	285.49	26.71	-48.9	-57.2	6.1	3.17e-01	0	39	0	572522496	69	9283
2026-01-20 11:44:33.43	285.79	26.67	-48.9	-57.4	5.9	3.30e-01	0	39	0	574619648	69	9555
2026-01-20 11:44:34.44	286.09	26.64	-48.9	-57.3	6.0	3.54e-01	0	39	0	576716800	69	9462
2026-01-20 11:44:35.45	286.40	26.60	-48.8	-57.1	6.1	3.08e-01	0	39	0	577765376	69	9208
2026-01-20 11:44:36.45	286.70	26.56	-48.8	-57.0	6.2	2.87e-01	0	39	0	579862528	69	9115
2026-01-20 11:44:37.46	287.00	26.52	-48.9	-57.4	6.0	2.94e-01	0	39	0	581959680	69	9500
2026-01-20 11:44:38.47	287.30	26.48	-49.0	-57.7	5.6	6.80e-01	0	39	0	584056832	69	9931
2026-01-20 11:44:39.48	287.60	26.43	-49.1	-58.5	5.4	2.61e-01	0	39	0	586153984	69	10850
2026-01-20 11:44:40.49	287.90	26.39	-49.3	-61.1	3.9	1.49e+00	0	39	104	586153984	69	14611
2026-01-20 11:44:41.49	288.19	26.35	-48.8	-56.7	4.7	1.47e+00	52	39	104	586153984	69	8851
2026-01-20 11:44:42.50	288.49	26.30	-49.1	-58.5	5.1	1.25e+00	0	39	0	586153984	69	10818
2026-01-20 11:44:43.51	288.78	26.26	-48.8	-56.4	6.7	2.30e-01	0	39	0	588251136	69	8545
2026-01-20 11:44:44.52	289.08	26.21	-48.8	-56.4	6.7	1.90e-01	0	39	0	590348288	69	8514
2026-01-20 11:44:45.53	289.38	26.17	-48.7	-56.3	6.9	1.74e-01	0	39	0	592445440	69	8436
2026-01-20 11:44:46.53	289.67	26.12	-48.8	-56.2	6.9	1.80e-01	0	39	0	593494016	69	8358
2026-01-20 11:44:47.54	289.96	26.07	-48.7	-55.9	7.2	1.58e-01	0	39	0	595591168	69	8060
2026-01-20 11:44:48.55	290.25	26.02	-48.8	-56.7	6.6	1.35e-01	0	39	0	597688320	69	8820
2026-01-20 11:44:49.56	290.54	25.98	-48.7	-56.2	6.8	3.50e-01	0	39	0	599785472	69	8350
2026-01-20 11:44:50.57	290.83	25.93	-49.2	-59.3	5.0	1.27e-01	0	39	0	601882624	69	11889
2026-01-20 11:44:51.57	291.12	25.88	-49.4	-60.9	4.2	1.40e+00	0	39	104	601882624	69	14279
2026-01-20 11:44:52.58	291.41	25.82	-48.6	-55.7	4.9	1.48e+00	3	39	104	601882624	69	7860
2026-01-20 11:44:53.59	291.70	25.77	-48.8	-56.5	6.6	8.31e-01	0	39	0	602931200	69	8594
2026-01-20 11:44:54.60	291.98	25.72	-48.6	-55.6	7.5	1.06e-01	0	39	0	603979776	69	7751
2026-01-20 11:44:55.61	292.27	25.67	-48.6	-55.6	7.5	1.05e-01	0	39	0	606076928	69	7801
2026-01-20 11:44:56.61	292.55	25.61	-48.6	-55.7	7.4	1.09e-01	0	39	0	608174080	69	7892
2026-01-20 11:44:57.62	292.83	25.56	-48.7	-55.8	7.4	1.16e-01	0	39	0	610271232	69	7907
2026-01-20 11:44:58.62	293.11	25.51	-48.6	-55.7	7.4	1.11e-01	0	39	0	612368384	69	7856
2026-01-20 11:44:59.63	293.40	25.45	-49.0	-57.5	5.9	1.18e-01	0	39	0	614465536	69	9629
2026-01-20 11:45:00.64	293.68	25.39	-48.7	-55.8	7.3	4.54e-01	0	39	0	615514112	69	7953
2026-01-20 11:45:01.65	293.96	25.34	-49.3	-60.2	4.5	2.81e-01	20	39	0	617611264	69	13244
2026-01-20 11:45:02.66	294.24	25.28	-49.5	-61.8	4.0	1.39e+00	0	39	0	617611264	69	15938
2026-01-20 11:45:03.67	294.52	25.22	-48.7	-55.9	7.4	1.48e+00	0	39	104	617611264	69	8077
2026-01-20 11:45:04.67	294.79	25.17	-48.7	-55.9	7.2	5.55e-01	0	39	0	618659840	69	8046
2026-01-20 11:45:05.68	295.07	25.11	-48.7	-55.8	7.4	1.09e-01	0	39	0	620756992	69	7941
2026-01-20 11:45:06.69	295.34	25.05	-48.7	-55.9	7.2	1.29e-01	0	39	0	622854144	69	8059
2026-01-20 11:45:07.70	295.61	24.99	-48.7	-56.0	7.2	1.29e-01	0	39	0	623902720	69	8117
2026-01-20 11:45:08.71	295.89	24.93	-48.7	-55.9	7.2	1.29e-01	0	39	0	625999872	69	8083
2026-01-20 11:45:09.71	296.16	24.87	-48.7	-55.8	7.4	1.26e-01	0	39	0	628097024	69	7903
2026-01-20 11:45:10.72	296.43	24.80	-49.0	-57.4	6.0	1.06e-01	0	39	0	630194176	69	9585
2026-01-20 11:45:11.73	296.70	24.74	-48.6	-55.5	7.6	1.38e-01	0	39	0	632291328	69	7683
2026-01-20 11:45:12.74	296.97	24.68	-49.5	-61.4	4.1	2.21e-01	32	39	0	633339904	69	15140
2026-01-20 11:45:13.75	297.23	24.62	-49.5	-63.0	3.8	1.43e+00	0	39	104	633339904	69	18298
2026-01-20 11:45:14.76	297.50	24.55	-48.9	-56.8	6.6	7.46e-01	0	39	104	633339904	69	8866
2026-01-20 11:45:15.77	297.77	24.49	-48.8	-56.3	6.8	3.43e-01	0	39	0	634388480	69	8452
2026-01-20 11:45:16.77	298.03	24.43	-48.7	-56.0	7.1	1.49e-01	0	39	0	636485632	69	8166
2026-01-20 11:45:17.78	298.29	24.36	-48.8	-56.3	6.9	1.40e-01	0	39	0	638582784	69	8392
2026-01-20 11:45:18.79	298.55	24.29	-48.8	-56.4	6.8	1.77e-01	0	39	0	640679936	69	8499
2026-01-20 11:45:19.80	298.82	24.23	-48.8	-56.4	6.8	1.88e-01	0	39	0	641728512	69	8535
2026-01-20 11:45:20.81	299.08	24.16	-48.9	-56.7	6.6	1.91e-01	0	39	0	643825664	69	8782
2026-01-20 11:45:21.81	299.33	24.10	-49.0	-57.3	6.1	2.34e-01	0	39	0	645922816	69	9492
2026-01-20 11:45:22.82	299.59	24.03	-49.0	-57.2	6.1	3.05e-01	0	39	0	648019968	69	9320
2026-01-20 11:45:23.83	299.85	23.96	-49.5	-62.4	3.9	3.65e-01	0	39	0	649068544	69	17017
2026-01-20 11:45:24.83	300.10	23.89	-49.6	-64.0	3.8	1.47e+00	0	39	104	649068544	69	20535
2026-01-20 11:45:25.84	300.36	23.83	-49.1	-57.9	5.7	8.17e-01	0	39	0	649068544	69	10149
2026-01-20 11:45:26.84	300.61	23.76	-48.9	-56.6	6.6	4.15e-01	0	39	0	651165696	69	8725
2026-01-20 11:45:27.85	300.86	23.69	-48.8	-56.4	6.8	1.77e-01	0	39	0	652214272	69	8508
2026-01-20 11:45:28.85	301.11	23.62	-48.9	-56.5	6.8	1.75e-01	0	39	0	654311424	69	8587
2026-01-20 11:45:29.86	301.36	23.55	-48.8	-56.3	6.9	1.77e-01	0	39	0	656408576	69	8446
2026-01-20 11:45:30.87	301.61	23.48	-48.8	-56.3	6.9	1.67e-01	0	39	0	658505728	69	8382
2026-01-20 11:45:31.88	301.86	23.41	-48.8	-56.3	6.9	1.72e-01	0	39	0	659554304	69	8412
2026-01-20 11:45:32.89	302.10	23.34	-48.9	-56.9	6.4	1.62e-01	0	39	0	661651456	69	9025
2026-01-20 11:45:33.89	302.35	23.27	-49.0	-57.3	6.1	2.02e-01	0	39	0	663748608	69	9392
2026-01-20 11:45:34.90	302.59	23.20	-49.5	-62.5	3.8	1.12e+00	0	39	104	664797184	69	17122
2026-01-20 11:45:35.91	302.84	23.12	-49.6	-64.5	3.8	1.46e+00	0	39	104	664797184	69	21551
2026-01-20 11:45:36.92	303.08	23.05	-49.1	-57.8	5.7	1.08e+00	0	39	0	664797184	69	9990
2026-01-20 11:45:37.93	303.32	22.98	-48.9	-56.8	6.5	2.73e-01	0	39	0	666894336	69	8884
2026-01-20 11:45:38.93	303.56	22.91	-48.9	-56.7	6.6	2.32e-01	0	39	0	668991488	69	8810
2026-01-20 11:45:39.94	303.80	22.83	-48.8	-56.2	7.1	1.91e-01	0	39	0	670040064	69	8326
2026-01-20 11:45:40.95	304.04	22.76	-48.8	-56.0	7.2	1.31e-01	0	39	0	672137216	69	8138
2026-01-20 11:45:41.96	304.28	22.69	-48.8	-56.1	7.1	1.40e-01	0	39	0	674234368	69	8208
2026-01-20 11:45:42.96	304.51	22.61	-48.8	-56.2	7.0	1.45e-01	0	39	0	676331520	69	8322
2026-01-20 11:45:43.97	304.74	22.54	-49.0	-57.1	6.3	1.73e-01	0	39	0	677380096	69	9182
2026-01-20 11:45:44.98	304.98	22.46	-49.0	-57.6	5.9	2.53e-01	0	39	0	679477248	69	9762
2026-01-20 11:45:45.98	305.21	22.39	-49.5	-62.5	3.8	9.16e-01	0	39	104	680525824	69	17196
2026-01-20 11:45:46.99	305.44	22.31	-49.6	-64.1	3.8	1.47e+00	0	39	104	680525824	69	20541
2026-01-20 11:45:48.00	305.67	22.24	-49.1	-58.1	5.5	3.32e-01	0	39	0	680525824	69	10359
2026-01-20 11:45:49.01	305.90	22.16	-49.0	-57.3	6.1	3.83e-01	0	39	0	682622976	69	9474
2026-01-20 11:45:50.01	306.13	22.09	-49.0	-57.4	6.0	3.09e-01	0	39	0	684720128	69	9579
2026-01-20 11:45:51.02	306.35	22.01	-49.0	-57.5	5.9	3.44e-01	0	39	0	686817280	69	9697
2026-01-20 11:45:52.03	306.58	21.94	-49.0	-57.1	6.2	3.14e-01	0	39	0	687865856	69	9265
2026-01-20 11:45:53.04	306.81	21.86	-49.0	-57.2	6.1	2.90e-01	0	39	0	689963008	69	9366
2026-01-20 11:45:54.05	307.03	21.78	-49.0	-57.1	6.3	2.71e-01	0	39	0	692060160	69	9218
2026-01-20 11:45:55.06	307.25	21.71	-48.9	-56.8	6.4	2.66e-01	0	39	0	694157312	69	8951
2026-01-20 11:45:56.07	307.48	21.63	-49.2	-58.6	5.2	4.59e-01	0	39	0	696254464	69	10941
2026-01-20 11:45:57.07	307.69	21.55	-49.6	-63.8	3.8	7.36e-01	0	39	104	697303040	69	19896
2026-01-20 11:45:58.08	307.91	21.48	-49.5	-62.2	3.8	1.48e+00	0	39	104	697303040	69	16641
2026-01-20 11:45:59.09	308.13	21.40	-49.1	-57.8	5.8	6.34e-01	0	39	0	697303040	69	9970
2026-01-20 11:46:00.09	308.35	21.32	-49.1	-57.9	5.6	4.33e-01	0	39	0	699400192	69	10139
2026-01-20 11:46:01.11	308.57	21.24	-49.0	-57.8	5.7	4.68e-01	0	39	0	701497344	69	10041
2026-01-20 11:46:02.11	308.78	21.16	-48.9	-56.9	6.3	3.15e-01	0	39	0	702545920	69	9067
2026-01-20 11:46:03.12	309.00	21.09	-48.8	-56.6	6.7	2.28e-01	0	39	0	704643072	69	8663
2026-01-20 11:46:04.13	309.21	21.01	-48.9	-56.7	6.5	2.11e-01	0	39	0	706740224	69	8841
2026-01-20 11:46:05.13	309.42	20.93	-48.9	-56.8	6.4	2.27e-01	0	39	0	708837376	69	8956
2026-01-20 11:46:06.14	309.63	20.85	-48.9	-57.1	6.2	2.51e-01	0	39	0	710934528	69	9203
2026-01-20 11:46:07.15	309.84	20.77	-49.2	-59.1	4.9	7.08e-01	0	39	0	711983104	69	11639
2026-01-20 11:46:08.16	310.05	20.69	-49.5	-62.9	3.8	1.48e+00	0	39	104	713031680	69	18010
2026-01-20 11:46:09.17	310.26	20.61	-49.5	-63.8	3.8	1.49e+00	0	39	104	713031680	69	20068
2026-01-20 11:46:10.17	310.46	20.54	-49.2	-58.7	5.1	1.11e+00	0	39	0	713031680	69	11135
2026-01-20 11:46:11.18	310.67	20.46	-49.1	-58.3	5.3	5.71e-01	0	39	0	715128832	69	10642
2026-01-20 11:46:12.19	310.88	20.38	-49.0	-57.6	5.8	4.48e-01	0	39	0	717225984	69	9828
2026-01-20 11:46:13.19	311.08	20.30	-48.9	-57.3	6.0	3.45e-01	0	39	0	718274560	69	9422
2026-01-20 11:46:14.19	311.28	20.22	-48.9	-57.2	6.1	2.92e-01	0	39	0	720371712	69	9286
2026-01-20 11:46:15.20	311.48	20.14	-48.9	-57.1	6.1	2.86e-01	0	39	0	722468864	69	9272
2026-01-20 11:46:16.21	311.68	20.06	-49.0	-57.4	6.0	3.27e-01	0	39	0	724566016	69	9583
2026-01-20 11:46:17.22	311.88	19.98	-49.1	-57.9	5.6	4.22e-01	0	39	0	726663168	69	10102
2026-01-20 11:46:18.22	312.08	19.90	-49.3	-59.7	4.6	8.99e-01	0	39	0	727711744	69	12438
2026-01-20 11:46:19.23	312.28	19.82	-49.5	-62.7	3.8	1.47e+00	0	39	104	728760320	69	17661
2026-01-20 11:46:20.24	312.47	19.74	-49.5	-62.9	3.8	1.49e+00	0	39	104	728760320	69	17936
2026-01-20 11:46:21.25	312.67	19.66	-49.0	-57.3	6.0	3.72e-01	0	39	0	728760320	69	9469
2026-01-20 11:46:22.25	312.86	19.58	-48.9	-57.2	6.1	3.13e-01	0	39	0	730857472	69	9367
2026-01-20 11:46:23.26	313.06	19.50	-49.0	-57.4	6.0	3.49e-01	0	39	0	732954624	69	9564
2026-01-20 11:46:24.27	313.25	19.42	-49.0	-57.5	5.9	3.35e-01	0	39	0	735051776	69	9661
2026-01-20 11:46:25.27	313.44	19.34	-49.0	-57.9	5.6	3.95e-01	0	39	0	736100352	69	10083
2026-01-20 11:46:26.28	313.63	19.26	-49.1	-58.1	5.5	4.45e-01	0	39	0	738197504	69	10325
2026-01-20 11:46:27.29	313.82	19.18	-49.0	-57.8	5.6	4.42e-01	0	39	0	740294656	69	10050
2026-01-20 11:46:28.30	314.01	19.10	-49.1	-58.1	5.5	4.97e-01	0	39	0	742391808	69	10330
2026-01-20 11:46:29.31	314.20	19.02	-49.1	-58.1	5.5	6.75e-01	0	39	0	744488960	69	10335
2026-01-20 11:46:30.31	314.38	18.94	-49.4	-62.6	3.8	1.49e+00	0	39	104	744488960	69	17370
2026-01-20 11:46:31.32	314.57	18.86	-49.2	-59.8	4.1	1.48e+00	0	39	104	744488960	69	12564
2026-01-20 11:46:32.33	314.76	18.78	-49.0	-57.4	6.0	2.87e-01	0	39	0	744488960	69	9560
2026-01-20 11:46:33.34	314.94	18.70	-49.0	-57.6	5.8	3.84e-01	0	39	0	746586112	69	9822
2026-01-20 11:46:34.34	315.12	18.62	-49.0	-57.9	5.6	4.62e-01	0	39	0	748683264	69	10148
2026-01-20 11:46:35.35	315.30	18.54	-49.0	-58.2	5.4	5.21e-01	0	39	0	750780416	69	10511
2026-01-20 11:46:36.36	315.49	18.46	-49.0	-57.8	5.6	4.90e-01	0	39	0	752877568	69	10058
2026-01-20 11:46:37.37	315.67	18.37	-49.0	-57.6	5.8	4.02e-01	0	39	0	753926144	69	9737
2026-01-20 11:46:38.38	315.85	18.29	-48.9	-57.2	6.1	3.44e-01	0	39	0	756023296	69	9283
2026-01-20 11:46:39.38	316.02	18.21	-48.8	-56.6	6.6	2.88e-01	0	39	0	758120448	69	8691
2026-01-20 11:46:40.39	316.20	18.13	-49.1	-58.7	5.1	7.43e-01	0	39	0	760217600	69	11117
2026-01-20 11:46:41.39	316.38	18.05	-49.4	-62.1	3.8	1.49e+00	0	39	104	760217600	69	16503
2026-01-20 11:46:42.40	316.55	17.97	-49.3	-61.2	3.9	1.49e+00	0	39	104	760217600	69	14714
2026-01-20 11:46:43.41	316.73	17.89	-49.0	-57.7	5.8	3.94e-01	0	39	0	760217600	69	9832
2026-01-20 11:46:44.42	316.90	17.81	-49.1	-58.3	5.3	4.81e-01	0	39	0	762314752	69	10607
2026-01-20 11:46:45.43	317.07	17.73	-49.1	-58.4	5.3	5.49e-01	0	39	0	764411904	69	10687
2026-01-20 11:46:46.43	317.24	17.65	-49.1	-58.9	5.0	6.23e-01	0	39	0	766509056	69	11337
2026-01-20 11:46:47.44	317.42	17.57	-49.1	-59.0	4.9	7.06e-01	0	39	0	768606208	69	11475
2026-01-20 11:46:48.45	317.59	17.49	-49.1	-58.8	5.0	7.05e-01	0	39	0	769654784	69	11230
2026-01-20 11:46:49.45	317.75	17.41	-49.1	-58.8	5.1	6.39e-01	0	39	0	771751936	69	11176
2026-01-20 11:46:50.46	317.92	17.33	-49.1	-58.7	5.1	6.96e-01	0	39	0	773849088	69	11114
2026-01-20 11:46:51.47	318.09	17.25	-49.2	-59.8	4.7	5.70e-01	0	39	0	775946240	69	12559
2026-01-20 11:46:52.48	318.26	17.17	-49.4	-62.3	3.8	1.49e+00	0	39	104	775946240	69	16761
2026-01-20 11:46:53.49	318.42	17.09	-49.1	-58.7	5.0	1.27e+00	0	39	0	775946240	69	11033
2026-01-20 11:46:54.49	318.59	17.01	-49.0	-57.9	5.6	4.40e-01	0	39	0	778043392	69	10066
2026-01-20 11:46:55.50	318.75	16.93	-49.0	-58.1	5.4	4.31e-01	0	39	0	779091968	69	10301
2026-01-20 11:46:56.51	318.92	16.85	-48.9	-57.5	5.8	4.12e-01	0	39	0	781189120	69	9714
2026-01-20 11:46:57.52	319.08	16.77	-48.8	-57.0	6.2	3.22e-01	0	39	0	783286272	69	9121
2026-01-20 11:46:58.53	319.24	16.69	-48.8	-57.0	6.2	2.86e-01	0	39	0	785383424	69	9089
2026-01-20 11:46:59.53	319.40	16.61	-48.8	-57.1	6.1	2.84e-01	0	39	0	787480576	69	9192
2026-01-20 11:47:00.54	319.56	16.53	-48.8	-56.6	6.6	2.39e-01	0	39	0	788529152	69	8682
2026-01-20 11:47:01.55	319.72	16.45	-49.0	-57.9	5.7	2.18e-01	0	39	0	790626304	69	10107
2026-01-20 11:47:02.56	319.88	16.37	-49.3	-60.8	4.3	9.27e-01	95	39	0	792723456	69	14063
2026-01-20 11:47:03.56	320.04	16.29	-49.4	-62.9	3.8	1.49e+00	0	39	104	792723456	69	17925
2026-01-20 11:47:04.57	320.19	16.21	-49.1	-58.5	5.1	1.49e+00	1	39	104	792723456	69	10872
2026-01-20 11:47:05.58	320.35	16.13	-49.0	-57.9	5.5	4.28e-01	0	39	0	793772032	69	10166
2026-01-20 11:47:06.58	320.50	16.05	-49.0	-58.3	5.3	5.01e-01	0	39	0	795869184	69	10535
2026-01-20 11:47:07.59	320.66	15.97	-49.0	-58.2	5.3	5.26e-01	0	39	0	796917760	69	10454
2026-01-20 11:47:08.60	320.81	15.89	-49.0	-58.1	5.4	5.53e-01	0	39	0	799014912	69	10411
2026-01-20 11:47:09.61	320.96	15.81	-49.0	-58.0	5.5	5.41e-01	0	39	0	801112064	69	10234
2026-01-20 11:47:10.61	321.12	15.73	-48.9	-57.3	6.0	3.78e-01	0	39	0	803209216	69	9438
2026-01-20 11:47:11.62	321.27	15.65	-48.8	-57.2	6.0	3.08e-01	0	39	0	805306368	69	9354
2026-01-20 11:47:12.63	321.42	15.57	-48.9	-57.9	5.6	3.13e-01	0	39	0	807403520	69	10062
2026-01-20 11:47:13.63	321.57	15.49	-49.4	-62.6	3.8	7.75e-01	0	39	104	808452096	69	17370
2026-01-20 11:47:14.64	321.72	15.41	-49.3	-62.1	3.8	1.49e+00	0	39	104	808452096	69	16395
2026-01-20 11:47:15.65	321.86	15.34	-48.8	-56.9	6.3	1.44e+00	0	39	0	808452096	69	9001
2026-01-20 11:47:16.66	322.01	15.26	-48.8	-56.9	6.2	2.99e-01	0	39	0	810549248	69	9034
2026-01-20 11:47:17.67	322.16	15.18	-48.8	-57.3	6.0	3.18e-01	0	39	0	812646400	69	9451
2026-01-20 11:47:18.67	322.30	15.10	-48.8	-57.3	6.0	3.50e-01	0	39	0	814743552	69	9430
2026-01-20 11:47:19.68	322.45	15.02	-48.8	-57.2	6.0	3.67e-01	0	39	0	815792128	69	9311
2026-01-20 11:47:20.68	322.59	14.94	-48.8	-56.9	6.2	2.98e-01	0	39	0	817889280	69	9068
2026-01-20 11:47:21.69	322.74	14.86	-48.8	-57.1	6.1	2.95e-01	0	39	0	819986432	69	9254
2026-01-20 11:47:22.70	322.88	14.79	-48.8	-56.9	6.2	3.14e-01	0	39	0	822083584	69	9039
2026-01-20 11:47:23.70	323.02	14.71	-49.1	-59.2	4.8	4.56e-01	0	39	0	823132160	69	11782
2026-01-20 11:47:24.71	323.16	14.63	-49.3	-62.7	3.8	1.18e+00	0	39	104	825229312	69	17487
2026-01-20 11:47:25.72	323.30	14.55	-49.4	-63.3	3.8	1.49e+00	0	39	104	825229312	69	18803
2026-01-20 11:47:26.73	323.44	14.47	-48.9	-57.9	5.5	1.19e+00	0	39	104	825229312	69	10062
2026-01-20 11:47:27.73	323.58	14.40	-48.9	-57.7	5.7	4.11e-01	0	39	0	826277888	69	9894
2026-01-20 11:47:28.74	323.72	14.32	-48.9	-57.4	5.8	4.14e-01	0	39	0	828375040	69	9549
2026-01-20 11:47:29.75	323.86	14.24	-48.8	-57.5	5.8	3.63e-01	0	39	0	830472192	69	9630
2026-01-20 11:47:30.76	324.00	14.16	-48.8	-57.3	5.9	3.76e-01	0	39	0	832569344	69	9488
2026-01-20 11:47:31.77	324.13	14.08	-48.8	-57.5	5.8	3.59e-01	0	39	0	833617920	69	9675
2026-01-20 11:47:32.78	324.27	14.01	-48.8	-57.5	5.8	3.93e-01	0	39	0	835715072	69	9668
2026-01-20 11:47:33.78	324.40	13.93	-49.0	-58.9	5.0	5.56e-01	0	39	0	837812224	69	11291
2026-01-20 11:47:34.79	324.54	13.85	-48.9	-58.2	5.3	6.88e-01	0	39	0	839909376	69	10520
2026-01-20 11:47:35.80	324.67	13.78	-49.4	-63.3	3.8	5.78e-01	0	39	104	840957952	69	18734
2026-01-20 11:47:36.80	324.81	13.70	-49.3	-62.2	3.8	1.49e+00	0	39	104	840957952	69	16666
2026-01-20 11:47:37.81	324.94	13.62	-48.8	-57.2	6.0	1.08e+00	0	39	0	840957952	69	9330
2026-01-20 11:47:38.82	325.07	13.55	-48.8	-57.3	5.9	3.73e-01	0	39	0	843055104	69	9483
2026-01-20 11:47:39.83	325.20	13.47	-48.8	-57.1	6.1	3.47e-01	0	39	0	844103680	69	9220
2026-01-20 11:47:40.83	325.33	13.39	-48.8	-57.3	5.9	3.59e-01	0	39	0	846200832	69	9459
2026-01-20 11:47:41.84	325.46	13.32	-48.8	-57.5	5.8	3.72e-01	0	39	0	848297984	69	9638
2026-01-20 11:47:42.85	325.59	13.24	-48.8	-57.0	6.1	3.17e-01	0	39	0	850395136	69	9130
2026-01-20 11:47:43.85	325.72	13.16	-48.8	-57.2	6.0	3.13e-01	0	39	0	851443712	69	9333
2026-01-20 11:47:44.86	325.85	13.09	-48.7	-57.0	6.1	3.22e-01	0	39	0	853540864	69	9086
2026-01-20 11:47:45.87	325.97	13.01	-48.9	-58.2	5.3	3.19e-01	0	39	0	855638016	69	10474
2026-01-20 11:47:46.88	326.10	12.94	-49.3	-63.5	3.8	1.39e+00	0	39	104	856686592	69	19281
2026-01-20 11:47:47.88	326.23	12.86	-49.3	-62.4	3.8	1.49e+00	0	39	104	856686592	69	16964
2026-01-20 11:47:48.89	326.35	12.79	-48.8	-57.5	5.8	1.28e+00	0	39	0	856686592	69	9644
2026-01-20 11:47:49.89	326.48	12.71	-48.8	-57.3	5.9	3.77e-01	0	39	0	858783744	69	9478
2026-01-20 11:47:50.90	326.60	12.63	-48.8	-57.3	5.9	3.63e-01	0	39	0	859832320	69	9432
2026-01-20 11:47:51.91	326.73	12.56	-48.8	-57.3	5.9	3.86e-01	0	39	0	861929472	69	9471
2026-01-20 11:47:52.92	326.85	12.48	-48.7	-57.0	6.1	3.20e-01	0	39	0	864026624	69	9079
2026-01-20 11:47:53.93	326.97	12.41	-48.7	-57.0	6.1	3.00e-01	0	39	0	866123776	69	9089
2026-01-20 11:47:54.94	327.09	12.33	-48.7	-57.0	6.1	3.14e-01	0	39	0	868220928	69	9144
2026-01-20 11:47:55.94	327.21	12.26	-48.7	-56.9	6.2	2.86e-01	0	39	0	869269504	69	9025
2026-01-20 11:47:56.95	327.33	12.18	-48.9	-58.1	5.3	4.31e-01	0	39	0	871366656	69	10366
2026-01-20 11:47:57.96	327.46	12.11	-49.3	-63.4	3.8	1.27e+00	0	39	104	872415232	69	19085
2026-01-20 11:47:58.97	327.57	12.04	-49.3	-62.3	3.9	1.49e+00	0	39	104	872415232	69	16860
2026-01-20 11:47:59.98	327.69	11.96	-48.8	-57.5	5.8	4.21e-01	0	39	0	873463808	69	9708
2026-01-20 11:48:00.98	327.81	11.89	-48.8	-57.3	5.9	3.90e-01	0	39	0	874512384	69	9401
2026-01-20 11:48:01.99	327.93	11.81	-48.8	-57.4	5.8	3.77e-01	0	39	0	876609536	69	9583
2026-01-20 11:48:03.00	328.05	11.74	-48.8	-57.6	5.7	4.26e-01	0	39	0	878706688	69	9769
2026-01-20 11:48:04.01	328.16	11.66	-48.8	-57.6	5.6	4.35e-01	0	39	0	880803840	69	9793
2026-01-20 11:48:05.01	328.28	11.59	-48.9	-58.0	5.4	4.59e-01	0	39	0	882900992	69	10181
2026-01-20 11:48:06.02	328.40	11.52	-48.8	-57.9	5.5	4.91e-01	0	39	0	884998144	69	10109
2026-01-20 11:48:07.03	328.51	11.44	-48.9	-58.6	5.0	6.22e-01	0	39	0	886046720	69	11001
2026-01-20 11:48:08.04	328.63	11.37	-49.0	-59.3	4.7	8.00e-01	0	39	0	888143872	69	11854
2026-01-20 11:48:09.05	328.74	11.30	-49.3	-63.6	3.8	1.49e+00	0	39	104	889192448	69	19576
2026-01-20 11:48:10.05	328.85	11.22	-49.2	-62.7	3.8	1.49e+00	0	39	104	889192448	69	17632
2026-01-20 11:48:11.06	328.97	11.15	-49.0	-58.8	4.9	8.63e-01	0	39	0	889192448	69	11264
2026-01-20 11:48:12.07	329.08	11.08	-48.9	-58.6	5.0	7.33e-01	0	39	0	891289600	69	10991
2026-01-20 11:48:13.08	329.19	11.01	-48.9	-58.7	5.0	6.97e-01	0	39	0	893386752	69	11045
2026-01-20 11:48:14.09	329.30	10.93	-48.9	-58.7	5.0	7.00e-01	0	39	0	895483904	69	11069
2026-01-20 11:48:15.09	329.41	10.86	-48.9	-58.5	5.1	6.56e-01	0	39	0	896532480	69	10842
2026-01-20 11:48:16.10	329.52	10.79	-48.9	-58.5	5.1	6.66e-01	0	39	0	898629632	69	10793
2026-01-20 11:48:17.11	329.63	10.72	-48.9	-58.3	5.2	6.15e-01	0	39	0	900726784	69	10582
2026-01-20 11:48:18.11	329.74	10.64	-48.9	-58.8	4.9	6.79e-01	0	39	0	902823936	69	11239
2026-01-20 11:48:19.12	329.85	10.57	-49.0	-59.7	4.5	9.37e-01	3	39	0	904921088	69	12500
2026-01-20 11:48:20.13	329.96	10.50	-49.3	-63.6	3.8	1.49e+00	0	39	104	904921088	69	19452
2026-01-20 11:48:21.14	330.06	10.43	-49.2	-62.4	3.8	1.49e+00	0	39	104	904921088	69	16912
2026-01-20 11:48:22.15	330.17	10.36	-48.9	-58.9	4.9	7.28e-01	0	39	0	904921088	69	11343
2026-01-20 11:48:23.15	330.28	10.29	-48.9	-58.9	4.9	7.38e-01	0	39	0	907018240	69	11302
2026-01-20 11:48:24.16	330.38	10.21	-48.9	-58.7	5.0	7.59e-01	0	39	0	909115392	69	11031
2026-01-20 11:48:25.17	330.49	10.14	-48.9	-58.4	5.1	6.89e-01	0	39	0	911212544	69	10701
2026-01-20 11:48:26.17	330.59	10.07	-48.9	-58.4	5.1	6.28e-01	0	39	0	913309696	69	10703
2026-01-20 11:48:27.18	330.70	10.00	-48.8	-58.2	5.2	6.30e-01	0	39	0	914358272	69	10474
2026-01-20 11:48:28.19	330.80	9.93	-48.8	-57.9	5.4	5.44e-01	0	39	0	916455424	69	10173
2026-01-20 11:48:29.20	330.91	9.86	-48.8	-58.2	5.2	5.76e-01	0	39	0	918552576	69	10441
2026-01-20 11:48:30.21	331.01	9.79	-49.0	-59.9	4.5	8.39e-01	30	39	0	920649728	69	12724
2026-01-20 11:48:31.22	331.11	9.72	-49.2	-63.4	3.8	1.49e+00	0	39	104	920649728	69	19120
2026-01-20 11:48:32.22	331.22	9.65	-49.1	-61.5	3.8	1.49e+00	0	39	104	920649728	69	15258
2026-01-20 11:48:33.23	331.32	9.58	-48.9	-58.4	5.1	6.30e-01	0	39	0	921698304	69	10777
2026-01-20 11:48:34.24	331.42	9.51	-48.9	-58.5	5.0	6.43e-01	0	39	0	922746880	69	10867
2026-01-20 11:48:35.25	331.52	9.44	-48.9	-58.5	5.0	6.81e-01	0	39	0	924844032	69	10896
2026-01-20 11:48:36.25	331.62	9.37	-48.8	-58.2	5.2	5.89e-01	0	39	0	926941184	69	10458
2026-01-20 11:48:37.26	331.72	9.30	-48.8	-58.4	5.1	6.45e-01	0	39	0	929038336	69	10733
2026-01-20 11:48:38.27	331.82	9.23	-48.9	-58.6	5.0	6.79e-01	0	39	0	931135488	69	10997
2026-01-20 11:48:39.28	331.92	9.16	-48.8	-58.5	5.0	7.13e-01	0	39	0	932184064	69	10818
2026-01-20 11:48:40.29	332.02	9.09	-48.8	-58.5	5.0	6.42e-01	0	39	0	934281216	69	10898
2026-01-20 11:48:41.29	332.12	9.02	-49.1	-61.9	3.9	1.42e+00	0	39	104	935329792	69	15985
2026-01-20 11:48:42.30	332.21	8.95	-49.2	-63.5	3.8	1.49e+00	0	39	104	935329792	69	19365
2026-01-20 11:48:43.31	332.31	8.88	-49.2	-63.1	3.8	1.49e+00	0	39	104	935329792	69	18311
2026-01-20 11:48:44.32	332.41	8.81	-48.9	-58.8	4.9	9.68e-01	0	39	0	935329792	69	11275
2026-01-20 11:48:45.33	332.51	8.74	-48.9	-58.8	4.9	7.97e-01	0	39	0	937426944	69	11201
