passes_logs/2026/01/20/R3.2S_Murmansk/R3.2S_Murmansk__20260120_102802_JL1KF02B02_rec.log

#Pass ID: 20260120_102802_JL1KF02B02
#Satellite: JL1KF02B02
#Configuration: 01B_900M
#almurnet v.1.7.20251203
#Start time: 2026-01-20 10:28:03

#Version: 2.2.20231116
#Station: R3.2S_Murmansk
#Location: 33.079688 lon 68.888172 lat
#TLE: 1 61193U 24169E   26019.62438445  .00004394  00000+0  27612-3 0  9996
#TLE: 2 61193  97.5742 111.4362 0013795 119.4106 240.8502 15.09695978 73427

#Time	Az	El	Level	Level2	SNR	BER	BlckErr	Temp	State	Recorded	gain1	gain2
2026-01-20 10:28:03.35	21.25	2.09	-49.8	-52.0	6.2	0.00e+00	0	39	0	0	71	18225
2026-01-20 10:28:04.35	21.26	2.16	-49.8	-52.0	6.2	0.00e+00	0	39	104	0	71	18341
2026-01-20 10:28:05.36	21.27	2.23	-49.8	-52.0	6.2	0.00e+00	0	39	104	0	71	18315
2026-01-20 10:28:06.37	21.27	2.30	-49.8	-52.0	6.2	0.00e+00	0	39	104	0	71	18264
2026-01-20 10:28:07.38	21.28	2.37	-49.8	-52.0	6.2	0.00e+00	0	38	104	0	71	18286
2026-01-20 10:28:08.39	21.29	2.44	-49.8	-52.0	6.2	0.00e+00	0	39	104	0	71	18278
2026-01-20 10:28:09.39	21.30	2.51	-49.8	-52.0	6.2	0.00e+00	0	39	104	0	71	18229
2026-01-20 10:28:10.40	21.30	2.58	-49.8	-52.0	6.2	0.00e+00	0	39	104	0	71	18264
2026-01-20 10:28:11.41	21.31	2.65	-49.8	-52.0	6.2	0.00e+00	0	39	104	0	71	18256
2026-01-20 10:28:12.42	21.32	2.73	-49.8	-52.0	6.2	0.00e+00	0	39	104	0	71	18321
2026-01-20 10:28:13.43	21.33	2.80	-49.8	-52.0	6.2	0.00e+00	0	39	104	0	71	18188
2026-01-20 10:28:14.44	21.33	2.87	-49.8	-52.0	6.2	0.00e+00	0	39	104	0	71	18208
2026-01-20 10:28:15.44	21.34	2.94	-49.8	-52.0	6.2	0.00e+00	0	39	104	0	71	18298
2026-01-20 10:28:16.45	21.35	3.01	-49.8	-52.0	6.2	0.00e+00	0	39	104	0	71	18228
2026-01-20 10:28:17.45	21.36	3.09	-49.8	-52.0	6.2	0.00e+00	0	39	104	0	71	18210
2026-01-20 10:28:18.46	21.36	3.16	-49.8	-52.0	6.2	0.00e+00	0	39	104	0	71	18196
2026-01-20 10:28:19.47	21.37	3.23	-49.8	-52.0	6.2	0.00e+00	0	39	104	0	71	18281
2026-01-20 10:28:20.48	21.38	3.31	-49.8	-52.0	6.2	0.00e+00	0	39	104	0	71	18211
2026-01-20 10:28:21.49	21.39	3.38	-49.8	-52.0	6.2	0.00e+00	0	39	104	0	71	18258
2026-01-20 10:28:22.49	21.39	3.45	-49.8	-52.0	6.2	0.00e+00	0	39	104	0	71	18249
2026-01-20 10:28:23.50	21.40	3.53	-49.8	-52.0	6.2	0.00e+00	0	39	104	0	71	18231
2026-01-20 10:28:24.51	21.41	3.60	-49.8	-52.0	6.2	0.00e+00	0	39	104	0	71	18234
2026-01-20 10:28:25.52	21.42	3.68	-49.8	-52.0	6.2	0.00e+00	0	39	104	0	71	18194
2026-01-20 10:28:26.53	21.42	3.75	-49.8	-52.0	6.2	0.00e+00	0	39	104	0	71	18265
2026-01-20 10:28:27.53	21.43	3.83	-49.8	-52.0	6.2	0.00e+00	0	39	104	0	71	18307
2026-01-20 10:28:28.54	21.44	3.90	-49.8	-52.0	6.2	0.00e+00	0	39	104	0	71	18231
2026-01-20 10:28:29.55	21.45	3.98	-49.8	-52.0	6.2	0.00e+00	0	39	104	0	71	18253
2026-01-20 10:28:30.56	21.45	4.06	-49.8	-51.9	6.2	0.00e+00	0	39	104	0	71	18172
2026-01-20 10:28:31.57	21.46	4.13	-49.8	-52.0	6.2	0.00e+00	0	39	104	0	71	18232
2026-01-20 10:28:32.58	21.47	4.21	-49.8	-52.0	6.2	0.00e+00	0	39	104	0	71	18268
2026-01-20 10:28:33.58	21.48	4.29	-49.8	-52.0	6.2	0.00e+00	0	39	104	0	71	18193
2026-01-20 10:28:34.59	21.48	4.36	-49.8	-52.0	6.2	0.00e+00	0	39	104	0	71	18240
2026-01-20 10:28:35.60	21.49	4.44	-49.8	-52.0	6.2	0.00e+00	0	39	104	0	71	18260
2026-01-20 10:28:36.61	21.50	4.52	-49.8	-52.0	6.2	0.00e+00	0	39	104	0	71	18229
2026-01-20 10:28:37.61	21.51	4.60	-49.8	-52.0	6.2	0.00e+00	0	40	104	0	71	18225
2026-01-20 10:28:38.62	21.52	4.68	-49.8	-52.0	6.2	0.00e+00	0	39	104	0	71	18222
2026-01-20 10:28:39.63	21.52	4.76	-49.8	-52.0	6.2	0.00e+00	0	39	104	0	71	18292
2026-01-20 10:28:40.64	21.53	4.83	-49.8	-52.0	6.2	0.00e+00	0	39	104	0	71	18259
2026-01-20 10:28:41.65	21.54	4.91	-49.8	-52.0	6.2	0.00e+00	0	39	104	0	71	18257
2026-01-20 10:28:42.65	21.55	4.99	-49.8	-52.0	6.2	0.00e+00	0	39	104	0	71	18286
2026-01-20 10:28:43.66	21.56	5.07	-49.9	-52.0	6.2	0.00e+00	0	40	104	0	71	18225
2026-01-20 10:28:44.67	21.56	5.15	-49.8	-52.0	6.2	0.00e+00	0	39	104	0	71	18272
2026-01-20 10:28:45.68	21.57	5.23	-49.9	-52.0	6.2	0.00e+00	0	39	104	0	71	18332
2026-01-20 10:28:46.69	21.58	5.32	-49.9	-52.0	6.2	0.00e+00	0	39	104	0	71	18362
2026-01-20 10:28:47.69	21.59	5.40	-49.8	-52.0	6.2	0.00e+00	0	40	104	0	71	18255
2026-01-20 10:28:48.70	21.60	5.48	-49.8	-52.0	6.2	0.00e+00	0	40	104	0	71	18243
2026-01-20 10:28:49.71	21.60	5.56	-49.9	-52.0	6.2	0.00e+00	0	39	104	0	71	18293
2026-01-20 10:28:50.72	21.61	5.64	-49.9	-52.0	6.2	0.00e+00	0	40	104	0	71	18353
2026-01-20 10:28:51.73	21.62	5.73	-49.9	-52.0	6.2	0.00e+00	0	40	104	0	71	18291
2026-01-20 10:28:52.73	21.63	5.81	-49.8	-52.0	6.2	0.00e+00	0	40	104	0	71	18239
2026-01-20 10:28:53.74	21.64	5.89	-49.9	-52.0	6.2	0.00e+00	0	40	104	0	71	18283
2026-01-20 10:28:54.75	21.65	5.98	-49.9	-52.1	6.2	0.00e+00	0	40	104	0	71	18391
2026-01-20 10:28:55.76	21.65	6.06	-49.8	-52.0	6.2	0.00e+00	0	40	104	0	71	18270
2026-01-20 10:28:56.76	21.66	6.14	-49.9	-52.0	6.2	0.00e+00	0	40	104	0	71	18279
2026-01-20 10:28:57.77	21.67	6.23	-49.9	-52.0	6.2	0.00e+00	0	40	104	0	71	18374
2026-01-20 10:28:58.78	21.68	6.31	-49.9	-52.0	6.2	0.00e+00	0	40	104	0	71	18387
2026-01-20 10:28:59.78	21.69	6.40	-49.8	-52.0	6.2	0.00e+00	0	40	104	0	71	18251
2026-01-20 10:29:00.79	21.70	6.48	-49.9	-52.0	6.2	0.00e+00	0	40	104	0	71	18279
2026-01-20 10:29:01.80	21.70	6.57	-49.9	-52.0	6.2	0.00e+00	0	39	104	0	71	18335
2026-01-20 10:29:02.81	21.71	6.66	-49.9	-52.1	6.2	0.00e+00	0	40	104	0	71	18460
2026-01-20 10:29:03.81	21.72	6.74	-49.9	-52.1	6.2	0.00e+00	0	40	104	0	71	18405
2026-01-20 10:29:04.82	21.73	6.83	-49.9	-52.0	6.2	0.00e+00	0	40	104	0	71	18316
2026-01-20 10:29:05.83	21.74	6.92	-49.9	-52.0	6.2	0.00e+00	0	40	104	0	71	18346
2026-01-20 10:29:06.84	21.75	7.01	-49.9	-52.1	6.2	0.00e+00	0	40	104	0	71	18516
2026-01-20 10:29:07.85	21.76	7.10	-49.9	-52.0	6.2	0.00e+00	0	40	104	0	71	18361
2026-01-20 10:29:08.85	21.76	7.18	-49.9	-52.0	6.2	0.00e+00	0	40	104	0	71	18388
2026-01-20 10:29:09.86	21.77	7.27	-49.9	-52.1	6.2	0.00e+00	0	40	104	0	71	18440
2026-01-20 10:29:10.87	21.78	7.36	-49.9	-52.1	6.2	0.00e+00	0	40	104	0	71	18472
2026-01-20 10:29:11.88	21.79	7.45	-49.9	-52.0	6.2	0.00e+00	0	40	104	0	71	18372
2026-01-20 10:29:12.88	21.80	7.54	-49.9	-52.1	6.2	0.00e+00	0	40	104	0	71	18391
2026-01-20 10:29:13.89	21.81	7.64	-49.9	-52.1	6.2	0.00e+00	0	40	104	0	71	18408
2026-01-20 10:29:14.90	21.82	7.73	-49.9	-52.1	6.2	0.00e+00	0	40	104	0	71	18555
2026-01-20 10:29:15.91	21.83	7.82	-49.9	-52.1	6.2	0.00e+00	0	40	104	0	71	18402
2026-01-20 10:29:16.91	21.83	7.91	-49.9	-52.0	6.2	0.00e+00	0	40	104	0	71	18348
2026-01-20 10:29:17.92	21.84	8.00	-49.9	-52.1	6.2	0.00e+00	0	40	104	0	71	18408
2026-01-20 10:29:18.93	21.85	8.10	-50.0	-52.1	6.2	0.00e+00	0	40	104	0	71	18520
2026-01-20 10:29:19.94	21.86	8.19	-49.9	-52.1	6.2	0.00e+00	0	40	104	0	71	18408
2026-01-20 10:29:20.94	21.87	8.28	-49.9	-52.1	6.2	0.00e+00	0	40	104	0	71	18444
2026-01-20 10:29:21.95	21.88	8.38	-49.9	-52.1	6.2	0.00e+00	0	40	104	0	71	18426
2026-01-20 10:29:22.96	21.89	8.47	-50.0	-52.1	6.2	0.00e+00	0	40	104	0	71	18527
2026-01-20 10:29:23.97	21.90	8.57	-49.9	-52.1	6.2	0.00e+00	0	40	104	0	71	18403
2026-01-20 10:29:24.98	21.91	8.66	-49.9	-52.1	6.2	0.00e+00	0	40	104	0	71	18422
2026-01-20 10:29:25.98	21.92	8.76	-49.9	-52.1	6.2	0.00e+00	0	40	104	0	71	18474
2026-01-20 10:29:26.99	21.93	8.86	-50.0	-52.1	6.2	0.00e+00	0	40	104	0	71	18531
2026-01-20 10:29:28.00	21.94	8.95	-49.9	-52.1	6.2	0.00e+00	0	40	104	0	71	18463
2026-01-20 10:29:29.01	21.94	9.05	-49.9	-52.1	6.2	0.00e+00	0	40	104	0	71	18476
2026-01-20 10:29:30.02	21.95	9.15	-49.9	-52.1	6.2	0.00e+00	0	40	104	0	71	18538
2026-01-20 10:29:31.02	21.96	9.25	-50.0	-52.1	6.2	0.00e+00	0	40	104	0	71	18536
2026-01-20 10:29:32.03	21.97	9.35	-49.9	-52.1	6.2	0.00e+00	0	40	104	0	71	18466
2026-01-20 10:29:33.04	21.98	9.45	-49.9	-52.0	6.2	0.00e+00	0	40	104	0	71	18388
2026-01-20 10:29:34.04	21.99	9.55	-49.9	-52.1	6.2	0.00e+00	0	40	104	0	71	18514
2026-01-20 10:29:35.05	22.00	9.65	-50.0	-52.1	6.2	0.00e+00	0	40	104	0	71	18587
2026-01-20 10:29:36.05	22.01	9.75	-49.9	-52.1	6.2	0.00e+00	0	40	104	0	71	18453
2026-01-20 10:29:37.06	22.02	9.85	-49.9	-52.1	6.2	0.00e+00	0	40	104	0	71	18471
2026-01-20 10:29:38.07	22.03	9.96	-49.9	-52.1	6.2	0.00e+00	0	40	104	0	71	18475
2026-01-20 10:29:39.08	22.04	10.06	-50.0	-52.1	6.2	0.00e+00	0	40	104	0	71	18539
2026-01-20 10:29:40.09	22.05	10.16	-49.9	-52.1	6.2	0.00e+00	0	40	104	0	71	18474
2026-01-20 10:29:41.09	22.06	10.27	-49.9	-52.1	6.2	0.00e+00	0	40	104	0	71	18474
2026-01-20 10:29:42.10	22.07	10.37	-49.9	-52.1	6.2	0.00e+00	0	40	104	0	71	18495
2026-01-20 10:29:43.11	22.08	10.48	-50.0	-52.1	6.2	0.00e+00	0	40	104	0	71	18521
2026-01-20 10:29:44.12	22.09	10.58	-49.9	-52.1	6.2	0.00e+00	0	40	104	0	71	18478
2026-01-20 10:29:45.13	22.10	10.69	-49.9	-52.1	6.2	0.00e+00	0	40	104	0	71	18481
2026-01-20 10:29:46.13	22.11	10.80	-50.0	-52.1	6.2	0.00e+00	0	40	104	0	71	18570
2026-01-20 10:29:47.14	22.12	10.90	-50.0	-52.1	6.2	0.00e+00	0	40	104	0	71	18532
2026-01-20 10:29:48.15	22.13	11.01	-50.0	-52.1	6.2	0.00e+00	0	40	104	0	71	18484
2026-01-20 10:29:49.16	22.14	11.12	-50.0	-52.1	6.2	0.00e+00	0	40	104	0	71	18525
2026-01-20 10:29:50.16	22.15	11.23	-50.0	-52.1	6.2	0.00e+00	0	40	104	0	71	18533
2026-01-20 10:29:51.17	22.16	11.34	-50.0	-52.2	6.2	0.00e+00	0	40	104	0	71	18603
2026-01-20 10:29:52.17	22.17	11.45	-50.0	-52.1	6.2	0.00e+00	0	40	104	0	71	18514
2026-01-20 10:29:53.18	22.18	11.56	-50.0	-52.1	6.2	0.00e+00	0	40	104	0	71	18521
2026-01-20 10:29:54.19	22.20	11.67	-50.0	-52.1	6.2	0.00e+00	0	40	104	0	71	18587
2026-01-20 10:29:55.20	22.21	11.79	-50.0	-52.2	6.2	0.00e+00	0	40	104	0	71	18614
2026-01-20 10:29:56.21	22.22	11.90	-50.0	-52.1	6.2	0.00e+00	0	40	104	0	71	18561
2026-01-20 10:29:57.21	22.23	12.01	-50.0	-52.1	6.2	0.00e+00	0	40	104	0	71	18516
2026-01-20 10:29:58.22	22.24	12.13	-50.0	-52.1	6.2	0.00e+00	0	40	104	0	71	18576
2026-01-20 10:29:59.23	22.25	12.25	-50.0	-52.1	6.2	0.00e+00	0	40	104	0	71	18599
2026-01-20 10:30:00.24	22.26	12.36	-50.0	-52.1	6.2	0.00e+00	0	40	104	0	71	18512
2026-01-20 10:30:01.25	22.27	12.48	-50.0	-52.1	6.2	0.00e+00	0	40	104	0	71	18551
2026-01-20 10:30:02.25	22.28	12.60	-50.0	-52.1	6.2	0.00e+00	0	41	104	0	71	18529
2026-01-20 10:30:03.25	22.29	12.71	-50.0	-52.2	6.2	0.00e+00	0	40	104	0	71	18614
2026-01-20 10:30:04.26	22.30	12.83	-50.0	-52.1	6.2	0.00e+00	0	40	104	0	71	18547
2026-01-20 10:30:05.27	22.32	12.95	-50.0	-52.1	6.2	0.00e+00	0	40	104	0	71	18556
2026-01-20 10:30:06.27	22.33	13.07	-50.0	-52.1	6.2	0.00e+00	0	40	104	0	71	18593
2026-01-20 10:30:07.28	22.34	13.19	-50.0	-52.2	6.2	0.00e+00	0	40	104	0	71	18656
2026-01-20 10:30:08.29	22.35	13.32	-50.0	-52.1	6.2	0.00e+00	0	40	104	0	71	18592
2026-01-20 10:30:09.30	22.36	13.44	-50.0	-52.1	6.2	0.00e+00	0	41	104	0	71	18517
2026-01-20 10:30:10.30	22.37	13.56	-50.0	-52.1	6.2	0.00e+00	0	41	104	0	71	18591
2026-01-20 10:30:11.31	22.39	13.69	-50.0	-52.2	6.2	0.00e+00	0	40	104	0	71	18613
2026-01-20 10:30:12.32	22.40	13.81	-50.0	-52.1	6.2	0.00e+00	0	40	104	0	71	18522
2026-01-20 10:30:13.33	22.41	13.94	-50.0	-52.1	6.2	0.00e+00	0	40	104	0	71	18583
2026-01-20 10:30:14.34	22.42	14.07	-50.0	-52.1	6.2	0.00e+00	0	40	104	0	71	18597
2026-01-20 10:30:15.34	22.43	14.19	-50.0	-52.2	6.2	0.00e+00	0	41	104	0	71	18616
2026-01-20 10:30:16.35	22.45	14.32	-50.0	-52.2	6.2	0.00e+00	0	40	104	0	71	18617
2026-01-20 10:30:17.36	22.46	14.45	-50.0	-52.2	6.2	0.00e+00	0	41	104	0	71	18649
2026-01-20 10:30:18.37	22.47	14.58	-50.0	-52.2	6.2	0.00e+00	0	41	104	0	71	18647
2026-01-20 10:30:19.37	22.48	14.72	-50.0	-52.2	6.2	0.00e+00	0	41	104	0	71	18652
2026-01-20 10:30:20.38	22.49	14.85	-50.0	-52.2	6.2	0.00e+00	0	40	104	0	71	18692
2026-01-20 10:30:21.39	22.51	14.98	-50.0	-52.2	6.2	0.00e+00	0	40	104	0	71	18604
2026-01-20 10:30:22.40	22.52	15.12	-50.0	-52.2	6.2	0.00e+00	0	40	104	0	71	18688
2026-01-20 10:30:23.41	22.53	15.25	-50.0	-52.2	6.2	0.00e+00	0	41	104	0	71	18653
2026-01-20 10:30:24.42	22.55	15.39	-50.0	-52.2	6.2	0.00e+00	0	40	104	0	71	18672
2026-01-20 10:30:25.42	22.56	15.52	-50.0	-52.1	6.2	0.00e+00	0	40	104	0	71	18602
2026-01-20 10:30:26.43	22.57	15.66	-50.0	-52.2	6.2	0.00e+00	0	40	104	0	71	18699
2026-01-20 10:30:27.44	22.58	15.80	-50.0	-52.2	6.2	0.00e+00	0	41	104	0	71	18643
2026-01-20 10:30:28.44	22.60	15.94	-50.0	-52.2	6.2	0.00e+00	0	41	104	0	71	18604
2026-01-20 10:30:29.45	22.61	16.08	-50.0	-52.2	6.2	0.00e+00	0	40	104	0	71	18614
2026-01-20 10:30:30.46	22.62	16.22	-50.0	-52.2	6.2	0.00e+00	0	40	104	0	71	18722
2026-01-20 10:30:31.47	22.64	16.37	-50.0	-52.2	6.2	0.00e+00	0	41	104	0	71	18696
2026-01-20 10:30:32.48	22.65	16.51	-50.0	-52.2	6.2	0.00e+00	0	40	104	0	71	18682
2026-01-20 10:30:33.48	22.66	16.66	-50.0	-52.2	6.2	0.00e+00	0	41	104	0	71	18715
2026-01-20 10:30:34.49	22.68	16.80	-50.0	-52.2	6.2	0.00e+00	0	41	104	0	71	18754
2026-01-20 10:30:35.50	22.69	16.95	-50.0	-52.2	6.2	0.00e+00	0	41	104	0	71	18702
2026-01-20 10:30:36.51	22.71	17.10	-50.0	-52.2	6.2	0.00e+00	0	41	104	0	71	18637
2026-01-20 10:30:37.51	22.72	17.25	-50.0	-52.2	6.2	0.00e+00	0	41	104	0	71	18641
2026-01-20 10:30:38.52	22.73	17.40	-50.0	-52.2	6.2	0.00e+00	0	41	104	0	71	18672
2026-01-20 10:30:39.53	22.75	17.55	-50.0	-52.2	6.2	0.00e+00	0	41	104	0	71	18661
2026-01-20 10:30:40.54	22.76	17.71	-50.0	-52.2	6.2	0.00e+00	0	41	104	0	71	18635
2026-01-20 10:30:41.55	22.78	17.86	-50.0	-52.2	6.2	0.00e+00	0	41	104	0	71	18710
2026-01-20 10:30:42.55	22.79	18.02	-50.1	-52.2	6.2	0.00e+00	0	41	104	0	71	18782
2026-01-20 10:30:43.56	22.81	18.17	-50.1	-52.2	6.2	0.00e+00	0	40	104	0	71	18748
2026-01-20 10:30:44.57	22.82	18.33	-50.0	-52.2	6.2	0.00e+00	0	41	104	0	71	18715
2026-01-20 10:30:45.58	22.84	18.49	-50.0	-52.2	6.2	0.00e+00	0	41	104	0	71	18684
2026-01-20 10:30:46.59	22.85	18.65	-50.1	-52.2	6.2	0.00e+00	0	41	104	0	71	18703
2026-01-20 10:30:47.60	22.87	18.82	-50.1	-52.2	6.2	0.00e+00	0	41	104	0	71	18684
2026-01-20 10:30:48.61	22.88	18.98	-50.1	-52.2	6.2	0.00e+00	0	41	104	0	71	18698
2026-01-20 10:30:49.61	22.90	19.14	-50.0	-52.2	6.2	0.00e+00	0	41	104	0	71	18702
2026-01-20 10:30:50.62	22.92	19.31	-50.1	-52.2	6.2	0.00e+00	0	41	104	0	71	18786
2026-01-20 10:30:51.63	22.93	19.48	-50.1	-52.2	6.2	0.00e+00	0	41	104	0	71	18747
2026-01-20 10:30:52.64	22.95	19.65	-50.1	-52.2	6.2	0.00e+00	0	40	104	0	71	18730
2026-01-20 10:30:53.64	22.96	19.82	-50.1	-52.2	6.2	0.00e+00	0	41	104	0	71	18733
2026-01-20 10:30:54.65	22.98	19.99	-50.1	-52.2	6.2	0.00e+00	0	41	104	0	71	18779
2026-01-20 10:30:55.66	23.00	20.16	-50.1	-52.2	6.2	0.00e+00	0	41	104	0	71	18731
2026-01-20 10:30:56.67	23.01	20.34	-50.1	-52.2	6.2	0.00e+00	0	41	104	0	71	18704
2026-01-20 10:30:57.68	23.03	20.52	-50.1	-52.2	6.2	0.00e+00	0	41	104	0	71	18753
2026-01-20 10:30:58.68	23.05	20.69	-50.1	-52.2	6.2	0.00e+00	0	41	104	0	71	18743
2026-01-20 10:30:59.69	23.06	20.87	-50.1	-52.2	6.2	0.00e+00	0	41	104	0	71	18799
2026-01-20 10:31:00.70	23.08	21.05	-50.1	-52.2	6.2	0.00e+00	0	41	104	0	71	18746
2026-01-20 10:31:01.71	23.10	21.24	-50.1	-52.2	6.2	0.00e+00	0	41	104	0	71	18780
2026-01-20 10:31:02.71	23.12	21.42	-50.1	-52.2	6.2	0.00e+00	0	41	104	0	71	18791
2026-01-20 10:31:03.72	23.13	21.61	-50.1	-52.2	6.2	0.00e+00	0	41	104	0	71	18729
2026-01-20 10:31:04.73	23.15	21.79	-50.1	-52.2	6.2	0.00e+00	0	41	104	0	71	18738
2026-01-20 10:31:05.74	23.17	21.98	-50.1	-52.2	6.2	0.00e+00	0	41	104	0	71	18742
2026-01-20 10:31:06.75	23.19	22.18	-50.1	-52.2	6.2	0.00e+00	0	41	104	0	71	18811
2026-01-20 10:31:07.75	23.21	22.37	-50.1	-52.2	6.2	0.00e+00	0	41	104	0	71	18796
2026-01-20 10:31:08.76	23.23	22.56	-50.1	-52.2	6.2	0.00e+00	0	41	104	0	71	18808
2026-01-20 10:31:09.77	23.25	22.76	-50.1	-52.2	6.2	0.00e+00	0	41	104	0	71	18741
2026-01-20 10:31:10.78	23.27	22.96	-50.1	-52.2	6.2	0.00e+00	0	41	104	0	71	18775
2026-01-20 10:31:11.79	23.29	23.16	-50.1	-52.2	6.2	0.00e+00	0	41	104	0	71	18812
2026-01-20 10:31:12.79	23.30	23.36	-50.1	-52.2	6.2	0.00e+00	0	41	104	0	71	18810
2026-01-20 10:31:13.80	23.32	23.56	-50.1	-52.2	6.2	0.00e+00	0	41	104	0	71	18803
2026-01-20 10:31:14.81	23.35	23.77	-50.1	-52.3	6.2	0.00e+00	0	41	104	0	71	18860
2026-01-20 10:31:15.81	23.37	23.98	-50.1	-52.3	6.2	0.00e+00	0	41	104	0	71	18872
2026-01-20 10:31:16.82	23.39	24.19	-50.1	-52.3	6.2	0.00e+00	0	41	104	0	71	18848
2026-01-20 10:31:17.83	23.41	24.40	-50.1	-52.3	6.2	0.00e+00	0	41	104	0	71	18849
2026-01-20 10:31:18.84	23.43	24.62	-50.1	-52.3	6.2	0.00e+00	0	41	104	0	71	18877
2026-01-20 10:31:19.85	23.45	24.83	-50.1	-52.3	6.2	0.00e+00	0	41	104	0	71	18823
2026-01-20 10:31:20.85	23.47	25.05	-50.1	-52.3	6.2	0.00e+00	0	41	104	0	71	18881
2026-01-20 10:31:21.86	23.49	25.27	-50.1	-52.3	6.2	0.00e+00	0	41	104	0	71	18865
2026-01-20 10:31:22.87	23.52	25.49	-50.1	-52.3	6.2	0.00e+00	0	41	104	0	71	18838
2026-01-20 10:31:23.88	23.54	25.72	-50.1	-52.3	6.2	0.00e+00	0	41	104	0	71	18856
2026-01-20 10:31:24.88	23.56	25.95	-50.1	-52.3	6.2	0.00e+00	0	41	104	0	71	18843
2026-01-20 10:31:25.89	23.58	26.18	-50.1	-52.3	6.2	0.00e+00	0	41	104	0	71	18887
2026-01-20 10:31:26.90	23.61	26.41	-50.1	-52.3	6.2	0.00e+00	0	41	104	0	71	18892
2026-01-20 10:31:27.91	23.63	26.64	-50.1	-52.3	6.2	0.00e+00	0	41	104	0	71	18866
2026-01-20 10:31:28.91	23.65	26.88	-50.1	-52.3	6.2	0.00e+00	0	41	104	0	71	18866
2026-01-20 10:31:29.92	23.68	27.12	-50.1	-52.3	6.2	0.00e+00	0	41	104	0	71	18897
2026-01-20 10:31:30.93	23.70	27.36	-50.1	-52.3	6.2	0.00e+00	0	41	104	0	71	18908
2026-01-20 10:31:31.94	23.73	27.61	-50.1	-52.3	6.2	0.00e+00	0	41	104	0	71	18917
2026-01-20 10:31:32.94	23.75	27.85	-50.1	-52.3	6.2	0.00e+00	0	41	104	0	71	18920
2026-01-20 10:31:33.95	23.78	28.10	-50.1	-52.3	6.2	0.00e+00	0	41	104	0	71	18927
2026-01-20 10:31:34.96	23.81	28.36	-50.1	-52.3	6.2	0.00e+00	0	41	104	0	71	18903
2026-01-20 10:31:35.97	23.83	28.61	-50.1	-52.3	6.2	0.00e+00	0	41	104	0	71	18857
2026-01-20 10:31:36.97	23.86	28.87	-50.1	-52.3	6.2	0.00e+00	0	41	104	0	71	18923
2026-01-20 10:31:37.98	23.89	29.13	-50.1	-52.3	6.2	0.00e+00	0	41	104	0	71	18923
2026-01-20 10:31:38.99	23.91	29.39	-50.2	-52.3	6.2	0.00e+00	0	41	104	0	71	18965
2026-01-20 10:31:40.00	23.94	29.66	-50.2	-52.3	6.2	0.00e+00	0	41	104	0	71	18929
2026-01-20 10:31:41.01	23.97	29.93	-50.2	-52.3	6.2	0.00e+00	0	41	104	0	71	18895
2026-01-20 10:31:42.01	24.00	30.20	-50.2	-52.3	6.2	0.00e+00	0	41	104	0	71	18973
2026-01-20 10:31:43.02	24.03	30.48	-50.2	-52.3	6.2	0.00e+00	0	41	104	0	71	19006
2026-01-20 10:31:44.03	24.06	30.76	-50.2	-52.3	6.2	0.00e+00	0	41	104	0	71	18981
2026-01-20 10:31:45.04	24.09	31.04	-50.2	-52.3	6.2	0.00e+00	0	41	104	0	71	18932
2026-01-20 10:31:46.05	24.12	31.33	-50.2	-52.3	6.2	0.00e+00	0	41	104	0	71	18987
2026-01-20 10:31:47.05	24.15	31.61	-50.2	-52.3	6.2	0.00e+00	0	41	104	0	71	19005
2026-01-20 10:31:48.06	24.18	31.90	-50.2	-52.3	6.2	0.00e+00	0	41	104	0	71	18960
2026-01-20 10:31:49.07	24.22	32.20	-50.2	-52.3	6.2	0.00e+00	0	41	104	0	71	18981
2026-01-20 10:31:50.08	24.25	32.50	-50.2	-52.3	6.2	0.00e+00	0	41	104	0	71	18974
2026-01-20 10:31:51.08	24.28	32.80	-50.2	-52.4	6.2	0.00e+00	0	41	104	0	71	19044
2026-01-20 10:31:52.09	24.32	33.10	-50.2	-52.3	6.2	0.00e+00	0	41	104	0	71	19005
2026-01-20 10:31:53.10	24.35	33.41	-50.2	-52.3	6.2	0.00e+00	0	41	104	0	71	18989
2026-01-20 10:31:54.11	24.39	33.73	-50.2	-52.3	6.2	0.00e+00	0	41	104	0	71	19016
2026-01-20 10:31:55.12	24.42	34.05	-50.2	-52.4	6.2	0.00e+00	0	41	104	0	71	19058
2026-01-20 10:31:56.12	24.46	34.36	-50.2	-52.3	6.2	0.00e+00	0	41	104	0	71	19030
2026-01-20 10:31:57.13	24.50	34.69	-50.2	-52.4	6.2	0.00e+00	0	41	104	0	71	19041
2026-01-20 10:31:58.14	24.54	35.02	-50.2	-52.4	6.2	0.00e+00	0	41	104	0	71	19068
2026-01-20 10:31:59.14	24.58	35.35	-50.2	-52.3	6.2	0.00e+00	0	41	104	0	71	19027
2026-01-20 10:32:00.15	24.61	35.68	-50.2	-52.3	6.2	0.00e+00	0	41	104	0	71	18993
2026-01-20 10:32:01.16	24.66	36.02	-50.2	-52.4	6.2	0.00e+00	0	41	104	0	71	19057
2026-01-20 10:32:02.17	24.70	36.37	-50.2	-52.4	6.2	0.00e+00	0	41	104	0	71	19122
2026-01-20 10:32:03.18	24.74	36.72	-50.2	-52.4	6.2	0.00e+00	0	41	104	0	71	19088
2026-01-20 10:32:04.18	24.78	37.07	-50.2	-52.4	6.2	0.00e+00	0	41	104	0	71	19067
2026-01-20 10:32:05.19	24.83	37.43	-50.2	-52.4	6.2	0.00e+00	0	41	104	0	71	19094
2026-01-20 10:32:06.20	24.87	37.79	-50.2	-52.4	6.2	0.00e+00	0	41	104	0	71	19121
2026-01-20 10:32:07.21	24.92	38.15	-50.2	-52.4	6.2	0.00e+00	0	41	104	0	71	19149
2026-01-20 10:32:08.22	24.96	38.53	-50.2	-52.4	6.2	0.00e+00	0	41	104	0	71	19137
2026-01-20 10:32:09.22	25.01	38.90	-50.2	-52.4	6.2	0.00e+00	0	41	104	0	71	19157
2026-01-20 10:32:10.23	25.06	39.28	-50.3	-52.4	6.2	0.00e+00	0	41	104	0	71	19144
2026-01-20 10:32:11.24	25.11	39.66	-50.2	-52.4	6.2	0.00e+00	0	41	104	0	71	19153
2026-01-20 10:32:12.25	25.16	40.05	-50.2	-52.4	6.2	0.00e+00	0	41	104	0	71	19078
2026-01-20 10:32:13.25	25.21	40.45	-50.3	-52.4	6.2	0.00e+00	0	41	104	0	71	19164
2026-01-20 10:32:14.26	25.27	40.85	-50.3	-52.4	6.2	0.00e+00	0	41	104	0	71	19139
2026-01-20 10:32:15.27	25.32	41.25	-50.3	-52.4	6.2	0.00e+00	0	41	104	0	71	19225
2026-01-20 10:32:16.27	25.38	41.66	-50.2	-52.4	6.2	0.00e+00	0	41	104	0	71	19127
2026-01-20 10:32:17.28	25.44	42.07	-50.3	-52.4	6.2	0.00e+00	0	41	104	0	71	19178
2026-01-20 10:32:18.29	25.49	42.49	-50.3	-52.4	6.2	0.00e+00	0	41	104	0	71	19220
2026-01-20 10:32:19.29	25.55	42.91	-50.3	-52.4	6.2	0.00e+00	0	41	104	0	71	19243
2026-01-20 10:32:20.30	25.62	43.35	-50.3	-52.4	6.2	0.00e+00	0	41	104	0	71	19191
2026-01-20 10:32:21.31	25.68	43.78	-50.3	-52.5	6.2	0.00e+00	0	41	104	0	71	19290
2026-01-20 10:32:22.32	25.75	44.23	-50.3	-52.5	6.2	0.00e+00	0	41	104	0	71	19317
2026-01-20 10:32:23.33	25.81	44.67	-50.3	-52.5	6.2	0.00e+00	0	41	104	0	71	19299
2026-01-20 10:32:24.34	25.88	45.13	-50.3	-52.4	6.2	0.00e+00	0	41	104	0	71	19214
2026-01-20 10:32:25.34	25.95	45.58	-50.3	-52.5	6.2	0.00e+00	0	41	104	0	71	19288
2026-01-20 10:32:26.35	26.03	46.05	-50.3	-52.5	6.2	0.00e+00	0	41	104	0	71	19274
2026-01-20 10:32:27.36	26.10	46.52	-50.3	-52.5	6.2	0.00e+00	0	41	104	0	71	19279
2026-01-20 10:32:28.37	26.18	47.00	-50.3	-52.5	6.2	0.00e+00	0	41	104	0	71	19261
2026-01-20 10:32:29.37	26.26	47.48	-50.3	-52.5	6.2	0.00e+00	0	41	104	0	71	19336
2026-01-20 10:32:30.38	26.34	47.96	-50.3	-52.5	6.2	0.00e+00	0	41	104	0	71	19370
2026-01-20 10:32:31.39	26.43	48.46	-50.3	-52.5	6.2	0.00e+00	0	41	104	0	71	19309
2026-01-20 10:32:32.40	26.52	48.96	-50.3	-52.5	6.2	0.00e+00	0	41	104	0	71	19306
2026-01-20 10:32:33.41	26.61	49.47	-50.3	-52.5	6.2	0.00e+00	0	41	104	0	71	19357
2026-01-20 10:32:34.42	26.70	49.98	-50.3	-52.5	6.2	0.00e+00	0	41	104	0	71	19394
2026-01-20 10:32:35.42	26.80	50.50	-50.3	-52.5	6.2	0.00e+00	0	41	104	0	71	19387
2026-01-20 10:32:36.43	26.90	51.03	-50.3	-52.5	6.2	0.00e+00	0	41	104	0	71	19327
2026-01-20 10:32:37.43	27.00	51.56	-50.4	-52.5	6.2	0.00e+00	0	41	104	0	71	19318
2026-01-20 10:32:38.44	27.11	52.10	-50.4	-52.5	6.2	0.00e+00	0	41	104	0	71	19402
2026-01-20 10:32:39.45	27.22	52.64	-50.4	-52.5	6.2	0.00e+00	0	41	104	0	71	19377
2026-01-20 10:32:40.46	27.34	53.20	-50.4	-52.5	6.2	0.00e+00	0	41	104	0	71	19374
2026-01-20 10:32:41.47	27.46	53.76	-50.4	-52.5	6.2	0.00e+00	0	41	104	0	71	19415
2026-01-20 10:32:42.48	27.58	54.32	-50.4	-52.5	6.2	0.00e+00	0	41	104	0	71	19408
2026-01-20 10:32:43.48	27.71	54.89	-50.4	-52.5	6.2	0.00e+00	0	41	104	0	71	19374
2026-01-20 10:32:44.49	27.85	55.47	-50.4	-52.5	6.2	0.00e+00	0	41	104	0	71	19428
2026-01-20 10:32:45.50	27.99	56.06	-50.4	-52.5	6.2	0.00e+00	0	41	104	0	71	19448
2026-01-20 10:32:46.51	28.13	56.65	-50.4	-52.5	6.2	0.00e+00	0	41	104	0	71	19372
2026-01-20 10:32:47.51	28.29	57.25	-50.4	-52.5	6.2	0.00e+00	0	41	104	0	71	19434
2026-01-20 10:32:48.52	28.45	57.85	-50.4	-52.5	6.2	0.00e+00	0	41	104	0	71	19354
2026-01-20 10:32:49.53	28.61	58.47	-50.4	-52.5	6.2	0.00e+00	0	41	104	0	71	19418
2026-01-20 10:32:50.54	28.79	59.09	-50.4	-52.5	6.2	0.00e+00	0	41	104	0	71	19477
2026-01-20 10:32:51.54	28.97	59.71	-50.4	-52.5	6.2	0.00e+00	0	41	104	0	71	19471
2026-01-20 10:32:52.55	29.16	60.34	-50.4	-52.5	6.2	0.00e+00	0	41	104	0	71	19436
2026-01-20 10:32:53.56	29.37	60.98	-50.4	-52.5	6.2	0.00e+00	0	41	104	0	71	19474
2026-01-20 10:32:54.56	29.58	61.62	-50.4	-52.6	6.2	0.00e+00	0	41	104	0	71	19490
2026-01-20 10:32:55.57	29.80	62.28	-50.4	-52.5	6.2	0.00e+00	0	41	104	0	71	19452
2026-01-20 10:32:56.58	30.04	62.94	-50.4	-52.5	6.2	0.00e+00	0	41	104	0	71	19477
2026-01-20 10:32:57.59	30.29	63.61	-50.4	-52.6	6.2	0.00e+00	0	41	104	0	71	19502
2026-01-20 10:32:58.59	30.55	64.27	-50.4	-52.6	6.2	0.00e+00	0	41	104	0	71	19513
2026-01-20 10:32:59.60	30.83	64.95	-50.4	-52.5	6.2	0.00e+00	0	41	104	0	71	19464
2026-01-20 10:33:00.61	31.13	65.64	-50.4	-52.6	6.2	0.00e+00	0	41	104	0	71	19515
2026-01-20 10:33:01.62	31.45	66.33	-50.4	-52.6	6.2	0.00e+00	0	41	104	0	71	19576
2026-01-20 10:33:02.63	31.78	67.02	-50.4	-52.6	6.2	0.00e+00	0	41	104	0	71	19530
2026-01-20 10:33:03.63	32.14	67.72	-50.4	-52.6	6.2	0.00e+00	0	41	104	0	71	19576
2026-01-20 10:33:04.64	32.53	68.43	-50.4	-52.6	6.2	0.00e+00	0	41	104	0	71	19609
2026-01-20 10:33:05.65	32.94	69.14	-50.4	-52.6	6.2	0.00e+00	0	41	104	0	71	19522
2026-01-20 10:33:06.66	33.39	69.86	-50.4	-52.6	6.2	0.00e+00	0	41	104	0	71	19579
2026-01-20 10:33:07.67	33.87	70.58	-50.4	-52.6	6.2	0.00e+00	0	41	104	0	71	19498
2026-01-20 10:33:08.67	34.39	71.30	-50.4	-52.6	6.2	0.00e+00	0	41	104	0	71	19519
2026-01-20 10:33:09.68	34.96	72.03	-50.5	-52.6	6.2	0.00e+00	0	41	104	0	71	19568
2026-01-20 10:33:10.69	35.58	72.76	-50.4	-52.6	6.2	0.00e+00	0	41	104	0	71	19594
2026-01-20 10:33:11.70	36.25	73.50	-50.4	-52.6	6.2	0.00e+00	0	41	104	0	71	19609
2026-01-20 10:33:12.70	36.98	74.23	-50.5	-52.6	6.2	0.00e+00	0	41	104	0	71	19491
2026-01-20 10:33:13.71	37.80	74.97	-50.4	-52.6	6.2	0.00e+00	0	41	104	0	71	19573
2026-01-20 10:33:14.72	38.71	75.72	-50.4	-52.6	6.2	0.00e+00	0	41	104	0	71	19615
2026-01-20 10:33:15.73	39.72	76.46	-50.4	-52.6	6.2	0.00e+00	0	41	104	0	71	19500
2026-01-20 10:33:16.74	40.84	77.20	-50.5	-52.6	6.2	0.00e+00	0	41	104	0	71	19583
2026-01-20 10:33:17.74	42.10	77.94	-50.5	-52.6	6.2	0.00e+00	0	41	104	0	71	19576
2026-01-20 10:33:18.75	43.54	78.68	-50.5	-52.6	6.2	0.00e+00	0	41	104	0	71	19572
2026-01-20 10:33:19.76	45.19	79.41	-50.4	-52.6	6.2	0.00e+00	0	41	104	0	71	19487
2026-01-20 10:33:20.77	47.09	80.14	-50.5	-52.6	6.2	0.00e+00	0	41	104	0	71	19584
2026-01-20 10:33:21.77	49.26	80.85	-50.5	-52.6	6.2	0.00e+00	0	41	104	0	71	19619
2026-01-20 10:33:22.78	51.83	81.55	-50.5	-52.6	6.2	0.00e+00	0	41	104	0	71	19631
2026-01-20 10:33:23.79	54.87	82.24	-50.4	-52.6	6.2	0.00e+00	0	41	104	0	71	19558
2026-01-20 10:33:24.80	58.50	82.91	-50.5	-52.6	6.2	0.00e+00	0	41	104	0	71	19617
2026-01-20 10:33:25.81	62.86	83.54	-50.5	-52.6	6.2	0.00e+00	0	41	104	0	71	19619
2026-01-20 10:33:26.81	68.08	84.12	-50.5	-52.6	6.2	0.00e+00	0	41	104	0	71	19662
2026-01-20 10:33:27.82	74.46	84.65	-50.4	-52.6	6.2	0.00e+00	0	41	104	0	71	19563
2026-01-20 10:33:28.83	82.13	85.10	-50.5	-52.6	6.2	0.00e+00	0	41	104	0	71	19619
2026-01-20 10:33:29.84	91.15	85.45	-50.5	-52.6	6.2	0.00e+00	0	41	104	0	71	19652
2026-01-20 10:33:30.85	101.38	85.67	-50.5	-52.6	6.2	0.00e+00	0	41	104	0	71	19669
2026-01-20 10:33:31.86	112.30	85.74	-50.4	-52.6	6.2	0.00e+00	0	41	104	0	71	19537
2026-01-20 10:33:32.86	123.08	85.65	-50.5	-52.6	6.2	0.00e+00	0	41	104	0	71	19581
2026-01-20 10:33:33.87	133.20	85.42	-50.5	-52.6	6.2	0.00e+00	0	41	104	0	71	19619
2026-01-20 10:33:34.88	142.10	85.06	-50.5	-52.6	6.2	0.00e+00	0	41	104	0	71	19632
2026-01-20 10:33:35.89	149.64	84.60	-50.4	-52.6	6.2	0.00e+00	0	41	104	0	71	19584
2026-01-20 10:33:36.89	155.84	84.07	-50.5	-52.6	6.2	0.00e+00	0	41	104	0	71	19677
2026-01-20 10:33:37.90	161.02	83.48	-50.5	-52.6	6.2	0.00e+00	0	41	104	0	71	19693
2026-01-20 10:33:38.91	165.30	82.84	-50.5	-52.6	6.2	0.00e+00	0	41	104	0	71	19683
2026-01-20 10:33:39.92	168.87	82.17	-50.5	-52.6	6.2	0.00e+00	0	41	104	0	71	19595
2026-01-20 10:33:40.92	171.83	81.49	-50.5	-52.6	6.2	0.00e+00	0	41	104	0	71	19628
2026-01-20 10:33:41.93	174.37	80.78	-50.5	-52.6	6.2	0.00e+00	0	41	104	0	71	19693
2026-01-20 10:33:42.94	176.54	80.06	-50.5	-52.6	6.2	0.00e+00	0	41	104	0	71	19625
2026-01-20 10:33:43.95	178.40	79.33	-50.4	-52.6	6.2	0.00e+00	0	41	104	0	71	19605
2026-01-20 10:33:44.95	180.01	78.61	-50.5	-52.6	6.2	0.00e+00	0	41	104	0	71	19636
2026-01-20 10:33:45.96	181.44	77.87	-50.5	-52.6	6.2	0.00e+00	0	41	104	0	71	19679
2026-01-20 10:33:46.97	182.70	77.12	-50.5	-52.6	6.2	0.00e+00	0	41	104	0	71	19634
2026-01-20 10:33:47.98	183.81	76.38	-50.5	-52.6	6.2	0.00e+00	0	41	104	0	71	19626
2026-01-20 10:33:48.99	184.81	75.63	-50.5	-52.6	6.2	0.00e+00	0	41	104	0	71	19626
2026-01-20 10:33:49.99	185.70	74.90	-50.5	-52.6	6.2	0.00e+00	0	41	104	0	71	19636
2026-01-20 10:33:51.00	186.51	74.15	-50.5	-52.6	6.2	0.00e+00	0	41	104	0	71	19666
2026-01-20 10:33:52.01	187.24	73.41	-50.4	-52.6	6.2	0.00e+00	0	41	104	0	71	19621
2026-01-20 10:33:53.02	187.91	72.68	-50.5	-52.6	6.2	0.00e+00	0	41	104	0	71	19643
2026-01-20 10:33:54.03	188.52	71.94	-50.5	-52.6	6.2	0.00e+00	0	41	104	0	71	19619
2026-01-20 10:33:55.04	189.09	71.21	-50.4	-52.6	6.2	0.00e+00	0	41	104	0	71	19576
2026-01-20 10:33:56.04	189.60	70.49	-50.4	-52.6	6.2	0.00e+00	0	41	104	0	71	19543
2026-01-20 10:33:57.05	190.08	69.77	-50.4	-52.6	6.2	0.00e+00	0	41	104	0	71	19578
2026-01-20 10:33:58.06	190.52	69.05	-50.5	-52.6	6.2	0.00e+00	0	41	104	0	71	19599
2026-01-20 10:33:59.07	190.93	68.33	-50.4	-52.6	6.2	0.00e+00	0	41	104	0	71	19536
2026-01-20 10:34:00.07	191.31	67.63	-50.4	-52.6	6.2	0.00e+00	0	41	104	0	71	19517
2026-01-20 10:34:01.08	191.67	66.93	-50.4	-52.6	6.2	0.00e+00	0	41	104	0	71	19480
2026-01-20 10:34:02.09	192.01	66.23	-50.4	-52.6	6.2	0.00e+00	0	41	104	0	71	19534
2026-01-20 10:34:03.10	192.32	65.54	-50.4	-52.5	6.2	0.00e+00	0	41	104	0	71	19461
2026-01-20 10:34:04.11	192.62	64.85	-50.4	-52.5	6.2	0.00e+00	0	41	104	0	71	19441
2026-01-20 10:34:05.11	192.90	64.18	-50.4	-52.5	6.2	0.00e+00	0	41	104	0	71	19472
2026-01-20 10:34:06.12	193.16	63.51	-50.4	-52.6	6.2	0.00e+00	0	41	104	0	71	19515
2026-01-20 10:34:07.13	193.41	62.84	-50.4	-52.5	6.2	0.00e+00	0	41	104	0	71	19436
2026-01-20 10:34:08.14	193.64	62.18	-50.4	-52.5	6.2	0.00e+00	0	41	104	0	71	19423
2026-01-20 10:34:09.15	193.87	61.52	-50.4	-52.6	6.2	0.00e+00	0	41	104	0	71	19481
2026-01-20 10:34:10.15	194.08	60.88	-50.4	-52.6	6.2	0.00e+00	0	41	104	0	71	19480
2026-01-20 10:34:11.16	194.28	60.24	-50.4	-52.5	6.2	0.00e+00	0	41	104	0	71	19422
2026-01-20 10:34:12.17	194.47	59.61	-50.4	-52.5	6.2	0.00e+00	0	41	104	0	71	19426
2026-01-20 10:34:13.18	194.65	58.98	-50.4	-52.5	6.2	0.00e+00	0	41	104	0	71	19444
2026-01-20 10:34:14.19	194.83	58.36	-50.4	-52.5	6.2	0.00e+00	0	41	104	0	71	19412
2026-01-20 10:34:15.20	194.99	57.74	-50.3	-52.5	6.2	0.00e+00	0	41	104	0	71	19393
2026-01-20 10:34:16.20	195.15	57.14	-50.4	-52.5	6.2	0.00e+00	0	41	104	0	71	19348
2026-01-20 10:34:17.21	195.30	56.54	-50.4	-52.5	6.2	0.00e+00	0	41	104	0	71	19397
2026-01-20 10:34:18.22	195.45	55.94	-50.4	-52.5	6.2	0.00e+00	0	41	104	0	71	19419
2026-01-20 10:34:19.22	195.59	55.36	-50.3	-52.5	6.2	0.00e+00	0	41	104	0	71	19413
2026-01-20 10:34:20.23	195.72	54.78	-50.4	-52.5	6.2	0.00e+00	0	41	104	0	71	19394
2026-01-20 10:34:21.24	195.85	54.21	-50.4	-52.5	6.2	0.00e+00	0	41	104	0	71	19405
2026-01-20 10:34:22.25	195.98	53.64	-50.3	-52.5	6.2	0.00e+00	0	41	104	0	71	19347
2026-01-20 10:34:23.26	196.10	53.08	-50.3	-52.5	6.2	0.00e+00	0	41	104	0	71	19378
2026-01-20 10:34:24.26	196.21	52.53	-50.3	-52.5	6.2	0.00e+00	0	41	104	0	71	19385
2026-01-20 10:34:25.27	196.32	51.98	-50.3	-52.5	6.2	0.00e+00	0	41	104	0	71	19431
2026-01-20 10:34:26.28	196.43	51.44	-50.3	-52.5	6.2	0.00e+00	0	41	104	0	71	19414
2026-01-20 10:34:27.29	196.53	50.90	-50.3	-52.5	6.2	0.00e+00	0	41	104	0	71	19383
2026-01-20 10:34:28.30	196.63	50.38	-50.3	-52.5	6.2	0.00e+00	0	41	104	0	71	19328
2026-01-20 10:34:29.30	196.73	49.86	-50.3	-52.5	6.2	0.00e+00	0	41	104	0	71	19353
2026-01-20 10:34:30.31	196.82	49.34	-50.3	-52.5	6.2	0.00e+00	0	41	104	0	71	19292
2026-01-20 10:34:31.32	196.91	48.84	-50.3	-52.5	6.2	0.00e+00	0	41	104	0	71	19351
2026-01-20 10:34:32.33	197.00	48.33	-50.3	-52.4	6.2	0.00e+00	0	41	104	0	71	19239
2026-01-20 10:34:33.34	197.09	47.84	-50.3	-52.5	6.2	0.00e+00	0	41	104	0	71	19366
2026-01-20 10:34:34.34	197.17	47.35	-50.3	-52.5	6.2	0.00e+00	0	41	104	0	71	19295
2026-01-20 10:34:35.35	197.25	46.87	-50.3	-52.5	6.2	0.00e+00	0	41	104	0	71	19294
2026-01-20 10:34:36.36	197.32	46.39	-50.3	-52.5	6.2	0.00e+00	0	41	104	0	71	19298
2026-01-20 10:34:37.37	197.40	45.92	-50.3	-52.4	6.2	0.00e+00	0	41	104	0	71	19213
2026-01-20 10:34:38.37	197.47	45.46	-50.3	-52.4	6.2	0.00e+00	0	41	104	0	71	19242
2026-01-20 10:34:39.38	197.54	45.00	-50.3	-52.5	6.2	0.00e+00	0	41	104	0	71	19289
2026-01-20 10:34:40.39	197.61	44.54	-50.3	-52.5	6.2	0.00e+00	0	41	104	0	71	19266
2026-01-20 10:34:41.40	197.68	44.09	-50.3	-52.4	6.2	0.00e+00	0	41	104	0	71	19248
2026-01-20 10:34:42.41	197.74	43.65	-50.3	-52.4	6.2	0.00e+00	0	41	104	0	71	19237
2026-01-20 10:34:43.41	197.81	43.22	-50.3	-52.4	6.2	0.00e+00	0	41	104	0	71	19216
2026-01-20 10:34:44.42	197.87	42.78	-50.3	-52.4	6.2	0.00e+00	0	41	104	0	71	19224
2026-01-20 10:34:45.43	197.93	42.36	-50.3	-52.4	6.2	0.00e+00	0	41	104	0	71	19181
2026-01-20 10:34:46.44	197.99	41.94	-50.3	-52.4	6.2	0.00e+00	0	41	104	0	71	19174
2026-01-20 10:34:47.45	198.05	41.52	-50.3	-52.4	6.2	0.00e+00	0	41	104	0	71	19223
2026-01-20 10:34:48.45	198.10	41.11	-50.3	-52.4	6.2	0.00e+00	0	41	104	0	71	19174
2026-01-20 10:34:49.46	198.16	40.71	-50.3	-52.4	6.2	0.00e+00	0	41	104	0	71	19150
2026-01-20 10:34:50.47	198.21	40.31	-50.2	-52.4	6.2	0.00e+00	0	41	104	0	71	19183
2026-01-20 10:34:51.48	198.26	39.91	-50.3	-52.4	6.2	0.00e+00	0	41	104	0	71	19171
2026-01-20 10:34:52.49	198.31	39.52	-50.2	-52.4	6.2	0.00e+00	0	41	104	0	71	19097
2026-01-20 10:34:53.49	198.36	39.14	-50.2	-52.4	6.2	0.00e+00	0	41	104	0	71	19098
2026-01-20 10:34:54.50	198.41	38.76	-50.2	-52.4	6.2	0.00e+00	0	41	104	0	71	19178
2026-01-20 10:34:55.51	198.46	38.38	-50.2	-52.4	6.2	0.00e+00	0	41	104	0	71	19111
2026-01-20 10:34:56.52	198.51	38.01	-50.2	-52.4	6.2	0.00e+00	0	41	104	0	71	19094
2026-01-20 10:34:57.53	198.55	37.64	-50.2	-52.4	6.2	0.00e+00	0	41	104	0	71	19132
2026-01-20 10:34:58.54	198.60	37.28	-50.2	-52.4	6.2	0.00e+00	0	41	104	0	71	19086
2026-01-20 10:34:59.54	198.64	36.92	-50.2	-52.4	6.2	0.00e+00	0	41	104	0	71	19082
2026-01-20 10:35:00.55	198.68	36.57	-50.2	-52.4	6.2	0.00e+00	0	41	104	0	71	19087
2026-01-20 10:35:01.56	198.72	36.22	-50.2	-52.4	6.2	0.00e+00	0	41	104	0	71	19066
2026-01-20 10:35:02.56	198.76	35.88	-50.2	-52.3	6.2	0.00e+00	0	41	104	0	71	19020
2026-01-20 10:35:03.57	198.81	35.54	-50.2	-52.4	6.2	0.00e+00	0	41	104	0	71	19054
2026-01-20 10:35:04.58	198.84	35.20	-50.2	-52.3	6.2	0.00e+00	0	41	104	0	71	19031
2026-01-20 10:35:05.59	198.88	34.87	-50.2	-52.3	6.2	0.00e+00	0	41	104	0	71	19022
2026-01-20 10:35:06.59	198.92	34.54	-50.2	-52.4	6.2	0.00e+00	0	41	104	0	71	19062
2026-01-20 10:35:07.60	198.96	34.21	-50.2	-52.4	6.2	0.00e+00	0	41	104	0	71	19064
2026-01-20 10:35:08.61	198.99	33.89	-50.2	-52.4	6.2	0.00e+00	0	41	104	0	71	19050
2026-01-20 10:35:09.62	199.03	33.57	-50.2	-52.3	6.2	0.00e+00	0	41	104	0	71	19035
2026-01-20 10:35:10.63	199.07	33.26	-50.2	-52.3	6.2	0.00e+00	0	41	104	0	71	18982
2026-01-20 10:35:11.63	199.10	32.95	-50.2	-52.3	6.2	0.00e+00	0	41	104	0	71	18988
2026-01-20 10:35:12.64	199.13	32.65	-50.2	-52.3	6.2	0.00e+00	0	41	104	0	71	19011
2026-01-20 10:35:13.65	199.17	32.34	-50.2	-52.3	6.2	0.00e+00	0	41	104	0	71	18971
2026-01-20 10:35:14.66	199.20	32.04	-50.1	-52.3	6.2	0.00e+00	0	41	104	0	71	18972
2026-01-20 10:35:15.66	199.23	31.75	-50.2	-52.4	6.2	0.00e+00	0	41	104	0	71	19045
2026-01-20 10:35:16.67	199.26	31.46	-50.2	-52.3	6.2	0.00e+00	0	41	104	0	71	18964
2026-01-20 10:35:17.68	199.30	31.17	-50.2	-52.3	6.2	0.00e+00	0	41	104	0	71	18961
2026-01-20 10:35:18.69	199.33	30.88	-50.1	-52.3	6.2	0.00e+00	0	41	104	0	71	18947
2026-01-20 10:35:19.70	199.36	30.60	-50.2	-52.3	6.2	0.00e+00	0	41	104	0	71	18915
2026-01-20 10:35:20.70	199.39	30.32	-50.1	-52.3	6.2	0.00e+00	0	41	104	0	71	18981
2026-01-20 10:35:21.71	199.41	30.05	-50.1	-52.3	6.2	0.00e+00	0	41	104	0	71	18897
2026-01-20 10:35:22.72	199.44	29.77	-50.1	-52.3	6.2	0.00e+00	0	41	104	0	71	18939
2026-01-20 10:35:23.73	199.47	29.50	-50.1	-52.3	6.2	0.00e+00	0	41	104	0	71	18875
2026-01-20 10:35:24.73	199.50	29.24	-50.1	-52.3	6.2	0.00e+00	0	41	104	0	71	18899
2026-01-20 10:35:25.74	199.53	28.97	-50.1	-52.3	6.2	0.00e+00	0	41	104	0	71	18877
2026-01-20 10:35:26.75	199.55	28.71	-50.1	-52.3	6.2	0.00e+00	0	41	104	0	71	18934
2026-01-20 10:35:27.76	199.58	28.45	-50.1	-52.3	6.2	0.00e+00	0	41	104	0	71	18836
2026-01-20 10:35:28.77	199.61	28.19	-50.1	-52.3	6.2	0.00e+00	0	41	104	0	71	18908
2026-01-20 10:35:29.77	199.63	27.94	-50.1	-52.3	6.2	0.00e+00	0	41	104	0	71	18851
2026-01-20 10:35:30.78	199.66	27.69	-50.1	-52.3	6.2	0.00e+00	0	41	104	0	71	18872
2026-01-20 10:35:31.79	199.68	27.45	-50.1	-52.3	6.2	0.00e+00	0	41	104	0	71	18856
2026-01-20 10:35:32.80	199.71	27.20	-50.1	-52.3	6.2	0.00e+00	0	41	104	0	71	18846
2026-01-20 10:35:33.81	199.73	26.96	-50.1	-52.2	6.2	0.00e+00	0	41	104	0	71	18799
2026-01-20 10:35:34.81	199.76	26.72	-50.1	-52.2	6.2	0.00e+00	0	41	104	0	71	18750
2026-01-20 10:35:35.82	199.78	26.48	-50.1	-52.3	6.2	0.00e+00	0	41	104	0	71	18840
2026-01-20 10:35:36.83	199.80	26.25	-50.1	-52.3	6.2	0.00e+00	0	41	104	0	71	18866
2026-01-20 10:35:37.83	199.83	26.01	-50.1	-52.2	6.2	0.00e+00	0	41	104	0	71	18787
2026-01-20 10:35:38.84	199.85	25.78	-50.1	-52.2	6.2	0.00e+00	0	41	104	0	71	18808
2026-01-20 10:35:39.85	199.87	25.56	-50.1	-52.3	6.2	0.00e+00	0	41	104	0	71	18826
2026-01-20 10:35:40.86	199.89	25.33	-50.1	-52.2	6.2	0.00e+00	0	41	104	0	71	18767
2026-01-20 10:35:41.87	199.92	25.11	-50.1	-52.2	6.2	0.00e+00	0	41	104	0	71	18794
2026-01-20 10:35:42.87	199.94	24.89	-50.1	-52.2	6.2	0.00e+00	0	41	104	0	71	18794
2026-01-20 10:35:43.88	199.96	24.67	-50.1	-52.2	6.2	0.00e+00	0	41	104	0	71	18701
2026-01-20 10:35:44.89	199.98	24.45	-50.1	-52.2	6.2	0.00e+00	0	41	104	0	71	18771
2026-01-20 10:35:45.90	200.00	24.24	-50.1	-52.2	6.2	0.00e+00	0	41	104	0	71	18751
2026-01-20 10:35:46.91	200.02	24.02	-50.1	-52.2	6.2	0.00e+00	0	41	104	0	71	18716
2026-01-20 10:35:47.91	200.04	23.81	-50.1	-52.2	6.2	0.00e+00	0	41	104	0	71	18727
2026-01-20 10:35:48.92	200.06	23.61	-50.1	-52.2	6.2	0.00e+00	0	41	104	0	71	18725
2026-01-20 10:35:49.93	200.08	23.40	-50.1	-52.2	6.2	0.00e+00	0	41	104	0	71	18708
2026-01-20 10:35:50.94	200.10	23.19	-50.0	-52.2	6.2	0.00e+00	0	41	104	0	71	18737
2026-01-20 10:35:51.95	200.12	22.99	-50.1	-52.2	6.2	0.00e+00	0	41	104	0	71	18738
2026-01-20 10:35:52.95	200.14	22.79	-50.0	-52.2	6.2	0.00e+00	0	41	104	0	71	18690
2026-01-20 10:35:53.96	200.16	22.59	-50.0	-52.2	6.2	0.00e+00	0	41	104	0	71	18678
2026-01-20 10:35:54.97	200.18	22.40	-50.0	-52.2	6.2	0.00e+00	0	41	104	0	71	18670
2026-01-20 10:35:55.98	200.20	22.20	-50.0	-52.2	6.2	0.00e+00	0	41	104	0	71	18693
2026-01-20 10:35:56.99	200.22	22.01	-50.0	-52.2	6.2	0.00e+00	0	41	104	0	71	18620
2026-01-20 10:35:57.99	200.23	21.82	-50.0	-52.2	6.2	0.00e+00	0	41	104	0	71	18675
2026-01-20 10:35:59.00	200.25	21.63	-50.0	-52.2	6.2	0.00e+00	0	41	104	0	71	18668
2026-01-20 10:36:00.01	200.27	21.44	-50.0	-52.2	6.2	0.00e+00	0	41	104	0	71	18675
2026-01-20 10:36:01.01	200.29	21.25	-50.0	-52.2	6.2	0.00e+00	0	41	104	0	71	18681
2026-01-20 10:36:02.02	200.30	21.07	-50.0	-52.2	6.2	0.00e+00	0	41	104	0	71	18675
2026-01-20 10:36:03.03	200.32	20.88	-50.0	-52.2	6.2	0.00e+00	0	41	104	0	71	18624
2026-01-20 10:36:04.04	200.34	20.70	-50.0	-52.2	6.2	0.00e+00	0	41	104	0	71	18614
2026-01-20 10:36:05.05	200.35	20.52	-50.0	-52.2	6.2	0.00e+00	0	41	104	0	71	18647
2026-01-20 10:36:06.06	200.37	20.34	-50.0	-52.2	6.2	0.00e+00	0	41	104	0	71	18617
2026-01-20 10:36:07.06	200.39	20.17	-50.0	-52.1	6.2	0.00e+00	0	41	104	0	71	18576
2026-01-20 10:36:08.07	200.40	19.99	-50.0	-52.1	6.2	0.00e+00	0	41	104	0	71	18567
2026-01-20 10:36:09.08	200.42	19.82	-50.0	-52.2	6.2	0.00e+00	0	41	104	0	71	18640
2026-01-20 10:36:10.09	200.44	19.65	-50.0	-52.1	6.2	0.00e+00	0	41	104	0	71	18596
2026-01-20 10:36:11.09	200.45	19.48	-50.0	-52.2	6.2	0.00e+00	0	41	104	0	71	18604
2026-01-20 10:36:12.10	200.47	19.31	-50.0	-52.1	6.2	0.00e+00	0	41	104	0	71	18525
2026-01-20 10:36:13.11	200.48	19.14	-50.0	-52.1	6.2	0.00e+00	0	41	104	0	71	18559
2026-01-20 10:36:14.12	200.50	18.97	-50.0	-52.1	6.2	0.00e+00	0	41	104	0	71	18551
2026-01-20 10:36:15.13	200.51	18.81	-50.0	-52.1	6.2	0.00e+00	0	41	104	0	71	18538
2026-01-20 10:36:16.13	200.53	18.65	-50.0	-52.1	6.2	0.00e+00	0	41	104	0	71	18562
2026-01-20 10:36:17.14	200.54	18.48	-50.0	-52.1	6.2	0.00e+00	0	41	104	0	71	18566
2026-01-20 10:36:18.15	200.56	18.32	-50.0	-52.1	6.2	0.00e+00	0	41	104	0	71	18560
2026-01-20 10:36:19.15	200.57	18.16	-50.0	-52.1	6.2	0.00e+00	0	41	104	0	71	18570
2026-01-20 10:36:20.16	200.59	18.00	-50.0	-52.1	6.2	0.00e+00	0	41	104	0	71	18590
2026-01-20 10:36:21.17	200.60	17.85	-50.0	-52.1	6.2	0.00e+00	0	41	104	0	71	18485
2026-01-20 10:36:22.18	200.62	17.69	-50.0	-52.1	6.2	0.00e+00	0	41	104	0	71	18493
2026-01-20 10:36:23.19	200.63	17.53	-50.0	-52.1	6.2	0.00e+00	0	41	104	0	71	18491
2026-01-20 10:36:24.19	200.65	17.38	-50.0	-52.1	6.2	0.00e+00	0	41	104	0	71	18571
2026-01-20 10:36:25.20	200.66	17.23	-50.0	-52.1	6.2	0.00e+00	0	41	104	0	71	18508
2026-01-20 10:36:26.21	200.67	17.08	-50.0	-52.1	6.2	0.00e+00	0	41	104	0	71	18527
2026-01-20 10:36:27.22	200.69	16.93	-50.0	-52.1	6.2	0.00e+00	0	41	104	0	71	18468
2026-01-20 10:36:28.23	200.70	16.78	-50.0	-52.1	6.2	0.00e+00	0	41	104	0	71	18480
2026-01-20 10:36:29.24	200.71	16.63	-50.0	-52.1	6.2	0.00e+00	0	41	104	0	71	18509
2026-01-20 10:36:30.24	200.73	16.48	-50.0	-52.1	6.2	0.00e+00	0	41	104	0	71	18514
2026-01-20 10:36:31.25	200.74	16.34	-50.0	-52.1	6.2	0.00e+00	0	41	104	0	71	18465
2026-01-20 10:36:32.26	200.75	16.19	-50.0	-52.1	6.2	0.00e+00	0	41	104	0	71	18528
2026-01-20 10:36:33.27	200.77	16.05	-50.0	-52.1	6.2	0.00e+00	0	41	104	0	71	18478
2026-01-20 10:36:34.28	200.78	15.91	-49.9	-52.1	6.2	0.00e+00	0	41	104	0	71	18477
2026-01-20 10:36:35.28	200.79	15.77	-50.0	-52.1	6.2	0.00e+00	0	41	104	0	71	18532
2026-01-20 10:36:36.29	200.81	15.63	-50.0	-52.1	6.2	0.00e+00	0	41	104	0	71	18442
2026-01-20 10:36:37.30	200.82	15.49	-49.9	-52.1	6.2	0.00e+00	0	41	104	0	71	18503
2026-01-20 10:36:38.31	200.83	15.35	-49.9	-52.1	6.2	0.00e+00	0	41	104	0	71	18525
2026-01-20 10:36:39.32	200.84	15.21	-49.9	-52.1	6.2	0.00e+00	0	41	104	0	71	18427
2026-01-20 10:36:40.32	200.86	15.08	-49.9	-52.1	6.2	0.00e+00	0	41	104	0	71	18469
2026-01-20 10:36:41.33	200.87	14.94	-49.9	-52.1	6.2	0.00e+00	0	41	104	0	71	18440
2026-01-20 10:36:42.33	200.88	14.81	-49.9	-52.1	6.2	0.00e+00	0	41	104	0	71	18476
2026-01-20 10:36:43.34	200.89	14.67	-49.9	-52.1	6.2	0.00e+00	0	41	104	0	71	18520
2026-01-20 10:36:44.35	200.91	14.54	-49.9	-52.1	6.2	0.00e+00	0	41	104	0	71	18428
2026-01-20 10:36:45.36	200.92	14.41	-49.9	-52.1	6.2	0.00e+00	0	41	104	0	71	18475
2026-01-20 10:36:46.37	200.93	14.28	-49.9	-52.1	6.2	0.00e+00	0	41	104	0	71	18417
2026-01-20 10:36:47.37	200.94	14.15	-49.9	-52.1	6.2	0.00e+00	0	42	104	0	71	18436
2026-01-20 10:36:48.38	200.95	14.02	-49.9	-52.1	6.2	0.00e+00	0	41	104	0	71	18402
2026-01-20 10:36:49.39	200.96	13.89	-49.9	-52.1	6.2	0.00e+00	0	41	104	0	71	18423
2026-01-20 10:36:50.39	200.98	13.76	-49.9	-52.1	6.2	0.00e+00	0	41	104	0	71	18448
2026-01-20 10:36:51.40	200.99	13.64	-49.9	-52.1	6.2	0.00e+00	0	41	104	0	71	18458
2026-01-20 10:36:52.41	201.00	13.51	-49.9	-52.1	6.2	0.00e+00	0	41	104	0	71	18485
2026-01-20 10:36:53.42	201.01	13.39	-49.9	-52.1	6.2	0.00e+00	0	41	104	0	71	18425
2026-01-20 10:36:54.42	201.02	13.26	-49.9	-52.1	6.2	0.00e+00	0	41	104	0	71	18399
2026-01-20 10:36:55.43	201.03	13.14	-49.9	-52.1	6.2	0.00e+00	0	41	104	0	71	18414
2026-01-20 10:36:56.44	201.04	13.02	-49.9	-52.1	6.2	0.00e+00	0	41	104	0	71	18468
2026-01-20 10:36:57.45	201.05	12.90	-49.9	-52.1	6.2	0.00e+00	0	41	104	0	71	18415
2026-01-20 10:36:58.46	201.07	12.78	-49.9	-52.0	6.2	0.00e+00	0	41	104	0	71	18389
2026-01-20 10:36:59.47	201.08	12.65	-49.9	-52.0	6.2	0.00e+00	0	41	104	0	71	18354
2026-01-20 10:37:00.47	201.09	12.54	-49.9	-52.1	6.2	0.00e+00	0	41	104	0	71	18419
2026-01-20 10:37:01.48	201.10	12.42	-49.9	-52.1	6.2	0.00e+00	0	41	104	0	71	18392
2026-01-20 10:37:02.49	201.11	12.30	-49.9	-52.1	6.2	0.00e+00	0	41	104	0	71	18399
2026-01-20 10:37:03.50	201.12	12.18	-49.9	-52.0	6.2	0.00e+00	0	41	104	0	71	18386
2026-01-20 10:37:04.51	201.13	12.07	-49.9	-52.0	6.2	0.00e+00	0	41	104	0	71	18381
2026-01-20 10:37:05.51	201.14	11.95	-49.9	-52.0	6.2	0.00e+00	0	41	104	0	71	18337
2026-01-20 10:37:06.52	201.15	11.84	-49.9	-52.0	6.2	0.00e+00	0	41	104	0	71	18337
2026-01-20 10:37:07.53	201.16	11.72	-49.9	-52.0	6.2	0.00e+00	0	41	104	0	71	18363
2026-01-20 10:37:08.54	201.17	11.61	-49.9	-52.0	6.2	0.00e+00	0	41	104	0	71	18354
2026-01-20 10:37:09.55	201.18	11.49	-49.9	-52.0	6.2	0.00e+00	0	41	104	0	71	18308
2026-01-20 10:37:10.55	201.19	11.38	-49.9	-52.0	6.2	0.00e+00	0	41	104	0	71	18299
2026-01-20 10:37:11.56	201.20	11.27	-49.9	-52.0	6.2	0.00e+00	0	41	104	0	71	18336
2026-01-20 10:37:12.57	201.21	11.16	-49.9	-52.0	6.2	0.00e+00	0	41	104	0	71	18358
2026-01-20 10:37:13.58	201.22	11.05	-49.9	-52.0	6.2	0.00e+00	0	41	104	0	71	18315
2026-01-20 10:37:14.58	201.23	10.94	-49.9	-52.0	6.2	0.00e+00	0	41	104	0	71	18290
2026-01-20 10:37:15.59	201.24	10.83	-49.9	-52.0	6.2	0.00e+00	0	41	104	0	71	18317
2026-01-20 10:37:16.60	201.25	10.72	-49.9	-52.0	6.2	0.00e+00	0	41	104	0	71	18325
2026-01-20 10:37:17.61	201.26	10.61	-49.8	-52.0	6.2	0.00e+00	0	42	104	0	71	18323
2026-01-20 10:37:18.61	201.27	10.51	-49.8	-52.0	6.2	0.00e+00	0	41	104	0	71	18230
2026-01-20 10:37:19.62	201.28	10.40	-49.9	-52.0	6.2	0.00e+00	0	41	104	0	71	18333
2026-01-20 10:37:20.63	201.29	10.29	-49.8	-52.0	6.2	0.00e+00	0	41	104	0	71	18250
2026-01-20 10:37:21.64	201.30	10.19	-49.8	-52.0	6.2	0.00e+00	0	41	104	0	71	18231
2026-01-20 10:37:22.65	201.31	10.08	-49.8	-52.0	6.2	0.00e+00	0	41	104	0	71	18254
2026-01-20 10:37:23.65	201.32	9.98	-49.8	-52.0	6.2	0.00e+00	0	41	104	0	71	18250
2026-01-20 10:37:24.66	201.33	9.88	-49.8	-52.0	6.2	0.00e+00	0	41	104	0	71	18229
2026-01-20 10:37:25.67	201.34	9.77	-49.8	-52.0	6.2	0.00e+00	0	41	104	0	71	18212
2026-01-20 10:37:26.68	201.35	9.67	-49.8	-52.0	6.2	0.00e+00	0	41	104	0	71	18218
2026-01-20 10:37:27.69	201.36	9.57	-49.8	-52.0	6.2	0.00e+00	0	41	104	0	71	18216
2026-01-20 10:37:28.69	201.37	9.47	-49.8	-52.0	6.2	0.00e+00	0	41	104	0	71	18199
2026-01-20 10:37:29.70	201.37	9.37	-49.8	-52.0	6.2	0.00e+00	0	41	104	0	71	18205
2026-01-20 10:37:30.71	201.38	9.27	-49.8	-51.9	6.2	0.00e+00	0	41	104	0	71	18161
2026-01-20 10:37:31.71	201.39	9.17	-49.8	-52.0	6.2	0.00e+00	0	41	104	0	71	18203
2026-01-20 10:37:32.72	201.40	9.07	-49.8	-51.9	6.2	0.00e+00	0	41	104	0	71	18168
2026-01-20 10:37:33.73	201.41	8.97	-49.8	-51.9	6.2	0.00e+00	0	41	104	0	71	18177
2026-01-20 10:37:34.74	201.42	8.87	-49.8	-51.9	6.2	0.00e+00	0	41	104	0	71	18093
2026-01-20 10:37:35.74	201.43	8.77	-49.8	-51.9	6.2	0.00e+00	0	41	104	0	71	18166
2026-01-20 10:37:36.75	201.44	8.67	-49.8	-51.9	6.2	0.00e+00	0	41	104	0	71	18141
2026-01-20 10:37:37.76	201.45	8.58	-49.8	-51.9	6.2	0.00e+00	0	41	104	0	71	18133
2026-01-20 10:37:38.77	201.46	8.48	-49.8	-51.9	6.2	0.00e+00	0	41	104	0	71	18174
2026-01-20 10:37:39.77	201.46	8.39	-49.8	-51.9	6.2	0.00e+00	0	41	104	0	71	18162
2026-01-20 10:37:40.78	201.47	8.29	-49.8	-51.9	6.2	0.00e+00	0	41	104	0	71	18088
2026-01-20 10:37:41.79	201.48	8.19	-49.8	-51.9	6.2	0.00e+00	0	41	104	0	71	18130
2026-01-20 10:37:42.80	201.49	8.10	-49.8	-51.9	6.2	0.00e+00	0	41	104	0	71	18145
2026-01-20 10:37:43.80	201.50	8.01	-49.8	-51.9	6.2	0.00e+00	0	41	104	0	71	18136
2026-01-20 10:37:44.81	201.51	7.91	-49.8	-51.9	6.2	0.00e+00	0	41	104	0	71	18078
2026-01-20 10:37:45.82	201.52	7.82	-49.7	-51.9	6.2	0.00e+00	0	41	104	0	71	18059
2026-01-20 10:37:46.83	201.52	7.73	-49.7	-51.9	6.2	0.00e+00	0	42	104	0	71	18069
2026-01-20 10:37:47.84	201.53	7.63	-49.8	-51.9	6.2	0.00e+00	0	41	104	0	71	18122
2026-01-20 10:37:48.84	201.54	7.54	-49.8	-51.9	6.2	0.00e+00	0	41	104	0	71	18060
2026-01-20 10:37:49.85	201.55	7.45	-49.8	-51.9	6.2	0.00e+00	0	41	104	0	71	18090
2026-01-20 10:37:50.85	201.56	7.36	-49.7	-51.9	6.2	0.00e+00	0	41	104	0	71	18033
2026-01-20 10:37:51.86	201.57	7.27	-49.8	-51.9	6.2	0.00e+00	0	41	104	0	71	18105
2026-01-20 10:37:52.87	201.57	7.18	-49.7	-51.9	6.2	0.00e+00	0	41	104	0	71	18098
2026-01-20 10:37:53.88	201.58	7.09	-49.7	-51.9	6.2	0.00e+00	0	41	104	0	71	18025
2026-01-20 10:37:54.89	201.59	7.00	-49.7	-51.9	6.2	0.00e+00	0	41	104	0	71	17994
2026-01-20 10:37:55.90	201.60	6.91	-49.7	-51.9	6.2	0.00e+00	0	41	104	0	71	18046
2026-01-20 10:37:56.90	201.61	6.82	-49.7	-51.9	6.2	0.00e+00	0	41	104	0	71	18018
2026-01-20 10:37:57.91	201.61	6.73	-49.7	-51.9	6.2	0.00e+00	0	41	104	0	71	18030
2026-01-20 10:37:58.91	201.62	6.65	-49.7	-51.8	6.2	0.00e+00	0	41	104	0	71	17945
2026-01-20 10:37:59.92	201.63	6.56	-49.7	-51.9	6.2	0.00e+00	0	41	104	0	71	18001
2026-01-20 10:38:00.93	201.64	6.47	-49.7	-51.9	6.2	0.00e+00	0	41	104	0	71	17990
2026-01-20 10:38:01.94	201.65	6.39	-49.7	-51.8	6.2	0.00e+00	0	41	104	0	71	17952
2026-01-20 10:38:02.95	201.65	6.30	-49.7	-51.8	6.2	0.00e+00	0	41	104	0	71	17930
2026-01-20 10:38:03.95	201.66	6.21	-49.7	-51.9	6.2	0.00e+00	0	41	104	0	71	18072
2026-01-20 10:38:04.96	201.67	6.13	-49.7	-51.8	6.2	0.00e+00	0	41	104	0	71	17935
2026-01-20 10:38:05.97	201.68	6.04	-49.7	-51.8	6.2	0.00e+00	0	41	104	0	71	17906
2026-01-20 10:38:06.98	201.69	5.96	-49.6	-51.8	6.2	0.00e+00	0	41	104	0	71	17813
2026-01-20 10:38:07.99	201.69	5.87	-49.7	-51.9	6.2	0.00e+00	0	41	104	0	71	18000
2026-01-20 10:38:08.99	201.70	5.79	-49.7	-51.8	6.2	0.00e+00	0	41	104	0	71	17947
2026-01-20 10:38:10.00	201.71	5.71	-49.7	-51.8	6.2	0.00e+00	0	41	104	0	71	17912
2026-01-20 10:38:11.01	201.72	5.62	-49.6	-51.8	6.2	0.00e+00	0	41	104	0	71	17778
2026-01-20 10:38:12.02	201.72	5.54	-49.7	-51.8	6.2	0.00e+00	0	41	104	0	71	17935
2026-01-20 10:38:13.03	201.73	5.46	-49.6	-51.8	6.2	0.00e+00	0	41	104	0	71	17771
2026-01-20 10:38:14.04	201.74	5.37	-49.6	-51.8	6.2	0.00e+00	0	41	104	0	71	17823
2026-01-20 10:38:15.04	201.75	5.29	-49.6	-51.7	6.2	0.00e+00	0	41	104	0	71	17721
2026-01-20 10:38:16.05	201.75	5.21	-49.7	-51.8	6.2	0.00e+00	0	41	104	0	71	17865
2026-01-20 10:38:17.05	201.76	5.13	-49.6	-51.8	6.2	0.00e+00	0	41	104	0	71	17792
2026-01-20 10:38:18.06	201.77	5.05	-49.6	-51.8	6.2	0.00e+00	0	41	104	0	71	17785
2026-01-20 10:38:19.07	201.78	4.97	-49.7	-51.9	6.2	0.00e+00	0	41	104	0	71	18039
2026-01-20 10:38:20.08	201.78	4.89	-49.9	-52.0	6.2	0.00e+00	0	41	104	0	71	18375
2026-01-20 10:38:21.09	201.79	4.81	-50.0	-52.1	6.2	0.00e+00	0	41	104	0	71	18571
2026-01-20 10:38:22.09	201.80	4.73	-50.0	-52.2	6.2	0.00e+00	0	41	104	0	71	18642
2026-01-20 10:38:23.10	201.81	4.65	-50.1	-52.2	6.2	0.00e+00	0	41	104	0	71	18806
2026-01-20 10:38:24.11	201.81	4.57	-50.1	-52.3	6.2	0.00e+00	0	41	104	0	71	18893
2026-01-20 10:38:25.12	201.82	4.49	-50.1	-52.3	6.2	0.00e+00	0	41	104	0	71	18909
2026-01-20 10:38:26.13	201.83	4.41	-50.2	-52.3	6.2	0.00e+00	0	41	104	0	71	19006
2026-01-20 10:38:27.14	201.84	4.33	-50.2	-52.4	6.2	0.00e+00	0	41	104	0	71	19037
2026-01-20 10:38:28.14	201.84	4.25	-50.2	-52.4	6.2	0.00e+00	0	41	104	0	71	19040
2026-01-20 10:38:29.15	201.85	4.18	-50.2	-52.4	6.2	0.00e+00	0	41	104	0	71	19153
2026-01-20 10:38:30.16	201.86	4.10	-50.3	-52.4	6.2	0.00e+00	0	41	104	0	71	19180
2026-01-20 10:38:31.17	201.86	4.02	-50.3	-52.4	6.2	0.00e+00	0	41	104	0	71	19186
2026-01-20 10:38:32.18	201.87	3.95	-50.3	-52.5	6.2	0.00e+00	0	41	104	0	71	19270
2026-01-20 10:38:33.19	201.88	3.87	-50.3	-52.5	6.2	0.00e+00	0	41	104	0	71	19366
2026-01-20 10:38:34.19	201.88	3.79	-50.3	-52.5	6.2	0.00e+00	0	41	104	0	71	19338
2026-01-20 10:38:35.20	201.89	3.72	-50.4	-52.5	6.2	0.00e+00	0	41	104	0	71	19361
2026-01-20 10:38:36.21	201.90	3.64	-50.4	-52.5	6.2	0.00e+00	0	41	104	0	71	19465
2026-01-20 10:38:37.22	201.91	3.56	-50.4	-52.6	6.2	0.00e+00	0	41	104	0	71	19536
2026-01-20 10:38:38.23	201.91	3.49	-50.4	-52.6	6.2	0.00e+00	0	41	104	0	71	19511
2026-01-20 10:38:39.24	201.92	3.41	-50.5	-52.6	6.2	0.00e+00	0	41	104	0	71	19581
2026-01-20 10:38:40.24	201.93	3.34	-50.5	-52.6	6.2	0.00e+00	0	41	104	0	71	19662
2026-01-20 10:38:41.25	201.93	3.27	-50.5	-52.6	6.2	0.00e+00	0	41	104	0	71	19649
2026-01-20 10:38:42.26	201.94	3.19	-50.4	-52.6	6.2	0.00e+00	0	41	104	0	71	19608
2026-01-20 10:38:43.27	201.95	3.12	-50.4	-52.6	6.2	0.00e+00	0	41	104	0	71	19521
2026-01-20 10:38:44.27	201.95	3.04	-50.4	-52.6	6.2	0.00e+00	0	41	104	0	71	19563
2026-01-20 10:38:45.28	201.96	2.97	-50.4	-52.6	6.2	0.00e+00	0	41	104	0	71	19575
2026-01-20 10:38:46.29	201.97	2.90	-50.4	-52.6	6.2	0.00e+00	0	41	104	0	71	19537
2026-01-20 10:38:47.30	201.97	2.82	-50.4	-52.6	6.2	0.00e+00	0	41	104	0	71	19508
2026-01-20 10:38:48.31	201.98	2.75	-50.4	-52.6	6.2	0.00e+00	0	41	104	0	71	19494
2026-01-20 10:38:49.31	201.99	2.68	-50.4	-52.6	6.2	0.00e+00	0	41	104	0	71	19482
2026-01-20 10:38:50.32	201.99	2.61	-50.4	-52.5	6.2	0.00e+00	0	41	104	0	71	19454
2026-01-20 10:38:51.33	202.00	2.54	-50.4	-52.5	6.2	0.00e+00	0	42	104	0	71	19479
2026-01-20 10:38:52.34	202.01	2.46	-50.4	-52.6	6.2	0.00e+00	0	41	104	0	71	19502
2026-01-20 10:38:53.34	202.01	2.39	-50.4	-52.6	6.2	0.00e+00	0	41	104	0	71	19490
2026-01-20 10:38:54.35	202.02	2.32	-50.4	-52.5	6.2	0.00e+00	0	41	104	0	71	19454
2026-01-20 10:38:55.36	202.03	2.25	-50.4	-52.5	6.2	0.00e+00	0	41	104	0	71	19418
2026-01-20 10:38:56.37	202.03	2.18	-50.4	-52.5	6.2	0.00e+00	0	41	104	0	71	19412
2026-01-20 10:38:57.38	202.04	2.11	-50.4	-52.5	6.2	0.00e+00	0	41	104	0	71	19456
2026-01-20 10:38:58.38	202.05	2.04	-50.4	-52.5	6.2	0.00e+00	0	41	104	0	71	19377

#Closed at: 2026-01-20 10:38:59
#Recorded file [0 MB]: D:/lorett/data/31041_260120_132803.dat