passes_logs/2026/01/20/R3.2S_Murmansk/R3.2S_Murmansk__20260120_031830_NOAA_20_JPSS-1_rec.log

#Pass ID: 20260120_031830_NOAA 20 (JPSS-1)
#Satellite: NOAA 20 (JPSS-1)
#Configuration: NOAA 20
#almurnet v.1.7.20251203
#Start time: 2026-01-20 03:18:30

#Version: 2.2.20231116
#Station: R3.2S_Murmansk
#Location: 33.079688 lon 68.888172 lat
#TLE: 1 43013U 17073A   26019.27717929  .00000087  00000+0  62288-4 0  9995
#TLE: 2 43013  98.7641 320.1715 0001339  33.1986 326.9274 14.19537047423343

#Time	Az	El	Level	Level2	SNR	BER	BlckErr	Temp	State	Recorded	gain1	gain2
2026-01-20 03:18:30.74	40.22	2.03	-51.8	-66.7	3.8	1.49e+00	0	37	0	0	75	19783
2026-01-20 03:18:31.73	40.17	2.09	-51.7	-66.7	3.8	1.49e+00	0	37	104	0	74	21003
2026-01-20 03:18:32.74	40.12	2.15	-51.8	-66.7	3.8	1.49e+00	0	36	104	0	74	20959
2026-01-20 03:18:33.75	40.06	2.21	-51.8	-66.7	3.8	1.49e+00	0	37	104	0	74	20960
2026-01-20 03:18:34.76	40.01	2.27	-51.8	-66.7	3.8	1.49e+00	0	37	104	0	74	20937
2026-01-20 03:18:35.77	39.96	2.33	-51.8	-66.7	3.8	1.49e+00	0	37	104	0	74	20918
2026-01-20 03:18:36.78	39.91	2.39	-51.8	-66.7	3.8	1.49e+00	0	37	104	0	74	20880
2026-01-20 03:18:37.79	39.85	2.45	-51.8	-66.7	3.8	1.49e+00	0	37	104	0	74	20889
2026-01-20 03:18:38.79	39.80	2.51	-51.8	-66.7	3.8	1.49e+00	0	37	104	0	74	20903
2026-01-20 03:18:39.80	39.75	2.58	-51.8	-66.7	3.8	1.49e+00	0	37	104	0	74	20879
2026-01-20 03:18:40.81	39.69	2.64	-51.8	-66.7	3.8	1.49e+00	0	37	104	0	74	20885
2026-01-20 03:18:41.82	39.64	2.70	-51.8	-66.7	3.8	1.49e+00	0	37	104	0	74	20905
2026-01-20 03:18:42.82	39.59	2.76	-51.8	-66.7	3.8	1.49e+00	0	37	104	0	74	20882
2026-01-20 03:18:43.83	39.53	2.82	-51.8	-66.7	3.8	1.49e+00	0	37	104	0	74	20856
2026-01-20 03:18:44.84	39.48	2.88	-51.8	-66.7	3.8	1.49e+00	0	37	104	0	74	20951
2026-01-20 03:18:45.85	39.42	2.94	-51.8	-66.7	3.8	1.49e+00	0	37	104	0	74	20845
2026-01-20 03:18:46.85	39.37	3.00	-51.8	-66.7	3.8	1.49e+00	0	37	104	0	74	20860
2026-01-20 03:18:47.86	39.31	3.06	-51.8	-66.7	3.8	1.49e+00	0	37	104	0	74	20810
2026-01-20 03:18:48.87	39.25	3.13	-51.8	-66.7	3.8	1.49e+00	0	37	104	0	74	20814
2026-01-20 03:18:49.88	39.20	3.19	-51.8	-66.7	3.8	1.49e+00	0	37	104	0	74	20851
2026-01-20 03:18:50.89	39.14	3.25	-51.8	-66.7	3.8	1.49e+00	0	37	104	0	74	20872
2026-01-20 03:18:51.89	39.09	3.31	-51.8	-66.7	3.8	1.49e+00	0	37	104	0	74	20823
2026-01-20 03:18:52.90	39.03	3.37	-51.8	-66.6	3.8	1.49e+00	0	37	104	0	74	20772
2026-01-20 03:18:53.91	38.97	3.44	-51.8	-66.6	3.8	1.49e+00	0	37	104	0	74	20576
2026-01-20 03:18:54.92	38.92	3.50	-51.8	-66.5	3.8	1.49e+00	0	37	104	0	74	20306
2026-01-20 03:18:55.93	38.86	3.56	-51.8	-66.3	3.8	1.49e+00	0	37	104	0	74	19915
2026-01-20 03:18:56.94	38.80	3.62	-51.7	-66.1	3.8	1.49e+00	0	37	104	0	74	19445
2026-01-20 03:18:57.94	38.74	3.69	-51.7	-65.8	3.8	1.49e+00	0	37	104	0	74	18888
2026-01-20 03:18:58.95	38.68	3.75	-51.7	-65.5	3.8	1.49e+00	0	37	104	0	74	18289
2026-01-20 03:18:59.96	38.63	3.81	-51.7	-65.0	3.8	1.49e+00	0	37	104	0	74	17189
2026-01-20 03:19:00.96	38.57	3.87	-51.6	-64.1	4.0	1.48e+00	0	37	104	0	74	15550
2026-01-20 03:19:01.97	38.51	3.94	-51.6	-64.4	3.8	1.48e+00	0	37	104	0	74	16108
2026-01-20 03:19:02.98	38.45	4.00	-51.6	-63.5	4.1	1.46e+00	0	38	0	0	74	14454
2026-01-20 03:19:03.99	38.39	4.06	-51.5	-62.8	4.3	1.41e+00	0	37	0	0	74	13364
2026-01-20 03:19:05.00	38.33	4.13	-51.4	-61.6	4.7	1.14e+00	0	38	0	1048576	74	11652
2026-01-20 03:19:06.01	38.27	4.19	-51.5	-62.1	4.6	8.94e-01	0	37	0	3145728	74	12267
2026-01-20 03:19:07.01	38.21	4.25	-51.4	-61.4	4.8	9.39e-01	0	38	0	5242880	74	11313
2026-01-20 03:19:08.02	38.15	4.32	-51.3	-60.5	5.4	5.91e-01	0	37	0	6291456	74	10250
2026-01-20 03:19:09.03	38.09	4.38	-51.3	-60.5	5.4	5.37e-01	0	38	0	8388608	74	10226
2026-01-20 03:19:10.04	38.03	4.45	-51.4	-61.1	5.0	5.88e-01	0	38	0	10485760	74	10910
2026-01-20 03:19:11.05	37.96	4.51	-51.3	-60.6	5.4	5.38e-01	0	38	0	12582912	74	10324
2026-01-20 03:19:12.06	37.90	4.57	-51.4	-60.9	5.1	6.51e-01	0	38	0	14680064	74	10722
2026-01-20 03:19:13.06	37.84	4.64	-51.4	-61.2	5.0	6.57e-01	0	37	0	16777216	74	11065
2026-01-20 03:19:14.07	37.78	4.70	-51.4	-61.3	4.9	7.09e-01	0	38	0	17825792	74	11182
2026-01-20 03:19:15.08	37.71	4.77	-51.5	-62.1	4.5	9.35e-01	0	38	0	19922944	74	12308
2026-01-20 03:19:16.08	37.65	4.83	-51.5	-62.4	4.4	1.17e+00	115	38	0	22020096	74	12679
2026-01-20 03:19:17.09	37.59	4.90	-51.6	-63.1	4.2	1.21e+00	0	38	0	23068672	74	13805
2026-01-20 03:19:18.10	37.52	4.96	-51.6	-63.4	4.1	1.39e+00	0	38	0	23068672	74	14244
2026-01-20 03:19:19.11	37.46	5.03	-51.6	-64.3	4.0	1.48e+00	0	38	104	23068672	74	15819
2026-01-20 03:19:20.11	37.40	5.09	-51.2	-58.3	7.4	4.84e-01	0	38	0	24117248	74	7975
2026-01-20 03:19:21.12	37.33	5.16	-51.6	-61.6	4.9	3.86e-01	0	38	0	25165824	74	11558
2026-01-20 03:19:22.13	37.27	5.22	-51.6	-65.7	3.8	1.49e+00	0	38	104	26214400	74	18630
2026-01-20 03:19:23.14	37.20	5.29	-50.9	-56.9	9.1	4.36e-01	0	38	0	26214400	73	7140
2026-01-20 03:19:24.15	37.14	5.35	-51.8	-65.8	3.8	9.47e-01	0	38	104	27262976	74	18736
2026-01-20 03:19:25.16	37.07	5.42	-50.8	-56.4	9.4	6.30e-02	0	38	0	27262976	73	6754
2026-01-20 03:19:26.16	37.00	5.49	-50.7	-56.1	9.7	1.69e-02	0	38	0	29360128	73	6520
2026-01-20 03:19:27.17	36.94	5.55	-50.3	-54.9	11.1	4.55e-03	0	38	0	31457280	72	6036
2026-01-20 03:19:28.18	36.87	5.62	-50.0	-54.2	11.9	4.56e-04	0	38	0	32505856	72	5553
2026-01-20 03:19:29.19	36.80	5.69	-49.7	-53.5	12.7	1.65e-04	0	38	0	34603008	71	5412
2026-01-20 03:19:30.19	36.74	5.75	-49.8	-53.5	12.7	3.73e-05	0	38	0	36700160	71	5456
2026-01-20 03:19:31.20	36.67	5.82	-49.8	-53.5	12.7	1.24e-04	0	38	0	38797312	71	5427
2026-01-20 03:19:32.21	36.60	5.89	-49.5	-53.0	13.3	3.43e-05	0	38	0	40894464	71	5145
2026-01-20 03:19:33.22	36.53	5.95	-49.6	-53.2	13.0	4.04e-05	0	38	0	41943040	71	5264
2026-01-20 03:19:34.23	36.46	6.02	-49.3	-52.5	13.8	7.60e-06	0	38	0	44040192	70	5132
2026-01-20 03:19:35.23	36.40	6.09	-49.4	-52.8	13.5	8.30e-06	0	38	0	46137344	70	5301
2026-01-20 03:19:36.24	36.33	6.15	-49.3	-52.4	13.9	7.60e-06	0	38	0	48234496	70	5097
2026-01-20 03:19:37.25	36.26	6.22	-49.3	-52.5	13.9	6.80e-06	0	38	0	50331648	70	5110
2026-01-20 03:19:38.25	36.19	6.29	-49.4	-52.8	13.6	4.50e-06	0	38	0	52428800	70	5281
2026-01-20 03:19:39.26	36.12	6.36	-49.3	-52.5	13.9	5.30e-06	0	38	0	53477376	70	5117
2026-01-20 03:19:40.27	36.05	6.42	-49.3	-52.4	14.0	4.50e-06	0	38	0	55574528	70	5070
2026-01-20 03:19:41.28	35.97	6.49	-49.2	-52.2	14.3	7.00e-07	0	38	0	57671680	70	4969
2026-01-20 03:19:42.29	35.90	6.56	-49.0	-51.9	14.5	0.00e+00	0	38	0	59768832	70	4811
2026-01-20 03:19:43.29	35.83	6.63	-48.9	-51.7	14.7	1.50e-06	0	38	0	60817408	69	4983
2026-01-20 03:19:44.30	35.76	6.70	-49.0	-51.9	14.5	7.00e-07	0	38	0	62914560	69	5087
2026-01-20 03:19:45.31	35.69	6.77	-48.7	-51.4	15.0	7.00e-07	0	38	0	65011712	69	4811
2026-01-20 03:19:46.32	35.61	6.83	-48.8	-51.5	15.0	0.00e+00	0	38	0	67108864	69	4844
2026-01-20 03:19:47.33	35.54	6.90	-48.8	-51.6	14.9	0.00e+00	0	38	0	69206016	69	4912
2026-01-20 03:19:48.34	35.47	6.97	-48.8	-51.6	14.9	7.00e-07	0	38	0	70254592	69	4901
2026-01-20 03:19:49.34	35.39	7.04	-48.7	-51.4	15.1	0.00e+00	0	38	0	72351744	69	4791
2026-01-20 03:19:50.35	35.32	7.11	-48.8	-51.5	15.0	0.00e+00	0	38	0	74448896	69	4857
2026-01-20 03:19:51.36	35.24	7.18	-48.7	-51.4	15.1	0.00e+00	0	38	0	76546048	69	4779
2026-01-20 03:19:52.37	35.17	7.25	-48.7	-51.4	15.1	0.00e+00	0	38	0	78643200	69	4785
2026-01-20 03:19:53.37	35.09	7.32	-48.7	-51.4	15.2	0.00e+00	0	38	0	80740352	69	4779
2026-01-20 03:19:54.38	35.02	7.39	-48.8	-51.5	15.0	0.00e+00	0	38	0	81788928	69	4854
2026-01-20 03:19:55.39	34.94	7.46	-48.7	-51.4	15.1	0.00e+00	0	38	0	83886080	69	4812
2026-01-20 03:19:56.40	34.87	7.53	-48.8	-51.4	15.1	0.00e+00	0	38	0	85983232	69	4814
2026-01-20 03:19:57.41	34.79	7.60	-49.0	-51.8	14.7	0.00e+00	0	38	0	88080384	69	5018
2026-01-20 03:19:58.41	34.71	7.67	-48.9	-51.8	14.8	0.00e+00	0	38	0	89128960	69	4991
2026-01-20 03:19:59.42	34.63	7.74	-48.7	-51.4	15.2	0.00e+00	0	38	0	91226112	69	4771
2026-01-20 03:20:00.43	34.56	7.81	-48.7	-51.4	15.2	0.00e+00	0	38	0	93323264	69	4786
2026-01-20 03:20:01.44	34.48	7.88	-48.8	-51.5	15.1	0.00e+00	0	38	0	95420416	69	4861
2026-01-20 03:20:02.45	34.40	7.95	-48.7	-51.4	15.2	0.00e+00	0	38	0	97517568	69	4797
2026-01-20 03:20:03.45	34.32	8.02	-48.6	-51.2	15.3	0.00e+00	0	38	0	99614720	69	4678
2026-01-20 03:20:04.46	34.24	8.09	-48.7	-51.4	15.2	0.00e+00	0	38	0	100663296	69	4797
2026-01-20 03:20:05.47	34.16	8.16	-48.6	-51.2	15.4	0.00e+00	0	38	0	102760448	69	4703
2026-01-20 03:20:06.48	34.08	8.24	-48.5	-51.1	15.5	0.00e+00	0	38	0	104857600	69	4602
2026-01-20 03:20:07.49	34.00	8.31	-48.5	-51.1	15.5	0.00e+00	0	38	0	106954752	68	4875
2026-01-20 03:20:08.49	33.92	8.38	-48.5	-50.9	15.7	0.00e+00	0	38	0	109051904	68	4811
2026-01-20 03:20:09.50	33.83	8.45	-48.4	-50.8	15.8	0.00e+00	0	38	0	110100480	68	4740
2026-01-20 03:20:10.51	33.75	8.52	-48.4	-50.8	15.9	0.00e+00	0	38	0	112197632	68	4714
2026-01-20 03:20:11.52	33.67	8.60	-48.4	-50.9	15.8	0.00e+00	0	38	0	114294784	68	4790
2026-01-20 03:20:12.53	33.59	8.67	-48.4	-50.8	15.9	0.00e+00	0	38	0	116391936	68	4719
2026-01-20 03:20:13.53	33.50	8.74	-48.2	-50.6	16.1	0.00e+00	0	38	0	117440512	68	4603
2026-01-20 03:20:14.54	33.42	8.81	-48.3	-50.7	16.0	0.00e+00	0	38	0	119537664	68	4657
2026-01-20 03:20:15.55	33.33	8.89	-48.2	-50.5	16.2	0.00e+00	0	38	0	121634816	68	4565
2026-01-20 03:20:16.56	33.25	8.96	-48.0	-50.3	16.3	0.00e+00	0	38	0	123731968	67	4720
2026-01-20 03:20:17.57	33.16	9.03	-48.4	-50.9	15.7	0.00e+00	0	38	0	125829120	67	5068
2026-01-20 03:20:18.57	33.08	9.11	-48.2	-50.5	16.1	0.00e+00	0	38	0	127926272	67	4853
2026-01-20 03:20:19.58	32.99	9.18	-48.3	-50.7	15.9	0.00e+00	0	38	0	128974848	67	4951
2026-01-20 03:20:20.59	32.91	9.25	-48.3	-50.7	16.0	0.00e+00	0	38	0	131072000	67	4946
2026-01-20 03:20:21.60	32.82	9.33	-48.3	-50.7	15.9	0.00e+00	0	38	0	133169152	67	4956
2026-01-20 03:20:22.60	32.73	9.40	-48.2	-50.6	16.1	0.00e+00	0	38	0	135266304	67	4875
2026-01-20 03:20:23.61	32.64	9.47	-48.0	-50.3	16.3	0.00e+00	0	38	0	137363456	67	4740
2026-01-20 03:20:24.62	32.55	9.55	-48.2	-50.5	16.2	0.00e+00	0	38	0	138412032	67	4865
2026-01-20 03:20:25.63	32.47	9.62	-48.1	-50.4	16.2	0.00e+00	0	38	0	140509184	67	4807
2026-01-20 03:20:26.63	32.38	9.70	-48.2	-50.5	16.1	0.00e+00	0	38	0	142606336	67	4864
2026-01-20 03:20:27.64	32.29	9.77	-48.2	-50.6	16.1	0.00e+00	0	38	0	144703488	67	4871
2026-01-20 03:20:28.65	32.20	9.85	-48.1	-50.4	16.3	0.00e+00	0	38	0	146800640	67	4771
2026-01-20 03:20:29.66	32.11	9.92	-48.2	-50.5	16.2	0.00e+00	0	38	0	147849216	67	4862
2026-01-20 03:20:30.67	32.01	10.00	-48.1	-50.4	16.3	0.00e+00	0	38	0	149946368	67	4782
2026-01-20 03:20:31.67	31.92	10.07	-48.0	-50.3	16.4	0.00e+00	0	38	0	152043520	67	4715
2026-01-20 03:20:32.68	31.83	10.15	-48.0	-50.2	16.5	0.00e+00	0	38	0	154140672	67	4695
2026-01-20 03:20:33.69	31.74	10.22	-48.0	-50.2	16.5	0.00e+00	0	38	0	156237824	67	4704
2026-01-20 03:20:34.70	31.64	10.30	-48.0	-50.1	16.6	0.00e+00	0	38	0	157286400	67	4643
2026-01-20 03:20:35.71	31.55	10.37	-47.9	-50.1	16.6	0.00e+00	0	38	0	159383552	67	4636
2026-01-20 03:20:36.72	31.46	10.45	-48.1	-50.3	16.5	0.00e+00	0	38	0	161480704	67	4726
2026-01-20 03:20:37.72	31.36	10.53	-47.9	-50.1	16.6	0.00e+00	0	38	0	163577856	67	4635
2026-01-20 03:20:38.74	31.26	10.60	-47.9	-50.1	16.7	0.00e+00	0	38	0	165675008	67	4604
2026-01-20 03:20:39.74	31.17	10.68	-47.9	-50.0	16.7	0.00e+00	0	38	0	167772160	67	4596
2026-01-20 03:20:40.75	31.07	10.76	-47.9	-50.0	16.8	0.00e+00	0	38	0	168820736	67	4554
2026-01-20 03:20:41.76	30.98	10.83	-47.8	-49.9	16.8	0.00e+00	0	38	0	170917888	67	4538
2026-01-20 03:20:42.77	30.88	10.91	-47.7	-49.8	17.0	0.00e+00	0	38	0	173015040	67	4461
2026-01-20 03:20:43.77	30.78	10.99	-47.8	-49.8	16.9	0.00e+00	0	38	0	175112192	67	4480
2026-01-20 03:20:44.78	30.68	11.06	-47.8	-49.9	16.9	0.00e+00	0	38	0	176160768	67	4518
2026-01-20 03:20:45.79	30.58	11.14	-47.8	-49.8	17.0	0.00e+00	0	38	0	178257920	67	4488
2026-01-20 03:20:46.79	30.48	11.22	-47.8	-49.8	17.0	0.00e+00	0	38	0	180355072	67	4477
2026-01-20 03:20:47.80	30.38	11.30	-47.8	-49.9	16.9	0.00e+00	0	38	0	182452224	67	4535
2026-01-20 03:20:48.81	30.28	11.37	-47.8	-49.9	16.9	0.00e+00	0	38	0	184549376	67	4524
2026-01-20 03:20:49.82	30.18	11.45	-47.9	-50.0	16.8	0.00e+00	0	38	0	185597952	67	4567
2026-01-20 03:20:50.83	30.08	11.53	-47.9	-50.0	16.8	0.00e+00	0	38	0	187695104	67	4565
2026-01-20 03:20:51.83	29.98	11.61	-47.9	-50.0	16.8	0.00e+00	0	38	0	189792256	67	4598
2026-01-20 03:20:52.84	29.87	11.69	-48.0	-50.1	16.7	0.00e+00	0	38	0	191889408	67	4622
2026-01-20 03:20:53.85	29.77	11.77	-47.9	-50.0	16.8	0.00e+00	0	38	0	193986560	67	4557
2026-01-20 03:20:54.86	29.67	11.85	-47.9	-50.0	16.9	0.00e+00	0	38	0	196083712	67	4549
2026-01-20 03:20:55.87	29.56	11.92	-47.9	-50.0	16.8	0.00e+00	0	38	0	197132288	67	4597
2026-01-20 03:20:56.87	29.46	12.00	-48.0	-50.1	16.7	0.00e+00	0	38	0	199229440	67	4629
2026-01-20 03:20:57.88	29.35	12.08	-48.0	-50.1	16.7	0.00e+00	0	38	0	201326592	67	4628
2026-01-20 03:20:58.89	29.24	12.16	-47.9	-50.0	16.8	0.00e+00	0	38	0	203423744	67	4592
2026-01-20 03:20:59.90	29.14	12.24	-47.9	-50.1	16.8	0.00e+00	0	38	0	204472320	67	4614
2026-01-20 03:21:00.91	29.03	12.32	-48.0	-50.1	16.7	0.00e+00	0	38	0	206569472	67	4650
2026-01-20 03:21:01.91	28.92	12.40	-48.0	-50.2	16.7	0.00e+00	0	38	0	208666624	67	4672
2026-01-20 03:21:02.92	28.81	12.48	-48.0	-50.2	16.7	0.00e+00	0	38	0	210763776	67	4686
2026-01-20 03:21:03.93	28.70	12.56	-48.0	-50.1	16.7	0.00e+00	0	38	0	212860928	67	4626
2026-01-20 03:21:04.94	28.59	12.64	-48.1	-50.3	16.6	0.00e+00	0	38	0	214958080	67	4711
2026-01-20 03:21:05.95	28.48	12.72	-48.0	-50.1	16.8	0.00e+00	0	38	0	216006656	67	4609
2026-01-20 03:21:06.96	28.37	12.80	-48.0	-50.1	16.8	0.00e+00	0	38	0	218103808	67	4631
2026-01-20 03:21:07.96	28.26	12.89	-48.1	-50.3	16.7	0.00e+00	0	38	0	220200960	67	4718
2026-01-20 03:21:08.97	28.15	12.97	-48.0	-50.1	16.8	0.00e+00	0	38	0	222298112	67	4631
2026-01-20 03:21:09.98	28.03	13.05	-47.9	-50.0	16.9	0.00e+00	0	38	0	224395264	67	4590
2026-01-20 03:21:10.99	27.92	13.13	-47.9	-50.0	16.9	0.00e+00	0	38	0	225443840	67	4588
2026-01-20 03:21:11.99	27.81	13.21	-48.0	-50.1	16.8	0.00e+00	0	38	0	227540992	67	4648
2026-01-20 03:21:13.00	27.69	13.29	-48.0	-50.1	16.8	0.00e+00	0	38	0	229638144	67	4640
2026-01-20 03:21:14.01	27.57	13.37	-48.1	-50.2	16.7	0.00e+00	0	38	0	231735296	67	4696
2026-01-20 03:21:15.02	27.46	13.46	-48.1	-50.2	16.7	0.00e+00	0	38	0	232783872	67	4676
2026-01-20 03:21:16.03	27.34	13.54	-48.0	-50.1	16.8	0.00e+00	0	38	0	234881024	67	4649
2026-01-20 03:21:17.03	27.22	13.62	-48.1	-50.2	16.7	0.00e+00	0	38	0	236978176	67	4685
2026-01-20 03:21:18.04	27.11	13.70	-48.0	-50.1	16.9	0.00e+00	0	38	0	239075328	67	4609
2026-01-20 03:21:19.05	26.99	13.79	-48.1	-50.2	16.7	0.00e+00	0	38	0	241172480	67	4689
2026-01-20 03:21:20.06	26.87	13.87	-48.0	-50.1	16.8	0.00e+00	0	38	0	243269632	67	4650
2026-01-20 03:21:21.06	26.75	13.95	-47.9	-50.0	17.0	0.00e+00	0	38	0	244318208	67	4589
2026-01-20 03:21:22.07	26.62	14.03	-48.0	-50.1	16.8	0.00e+00	0	38	0	246415360	67	4633
2026-01-20 03:21:23.08	26.50	14.12	-47.9	-50.0	17.0	0.00e+00	0	39	0	248512512	67	4548
2026-01-20 03:21:24.09	26.38	14.20	-48.0	-50.1	16.9	0.00e+00	0	38	0	250609664	67	4607
2026-01-20 03:21:25.09	26.26	14.28	-48.0	-50.2	16.8	0.00e+00	0	38	0	252706816	67	4652
2026-01-20 03:21:26.10	26.13	14.37	-48.1	-50.2	16.8	0.00e+00	0	38	0	253755392	67	4687
2026-01-20 03:21:27.11	26.01	14.45	-48.0	-50.0	17.0	0.00e+00	0	38	0	255852544	67	4582
2026-01-20 03:21:28.12	25.88	14.54	-47.9	-50.0	17.0	0.00e+00	0	38	0	257949696	67	4558
2026-01-20 03:21:29.13	25.76	14.62	-47.8	-49.8	17.1	0.00e+00	0	38	0	260046848	67	4489
2026-01-20 03:21:30.14	25.63	14.71	-47.8	-49.8	17.2	0.00e+00	0	38	0	261095424	67	4459
2026-01-20 03:21:31.14	25.50	14.79	-47.6	-49.6	17.4	0.00e+00	0	38	0	263192576	67	4348
2026-01-20 03:21:32.15	25.37	14.87	-47.6	-49.5	17.5	0.00e+00	0	38	0	265289728	67	4323
2026-01-20 03:21:33.16	25.24	14.96	-47.6	-49.6	17.4	0.00e+00	0	38	0	267386880	67	4351
2026-01-20 03:21:34.17	25.11	15.04	-47.7	-49.6	17.4	0.00e+00	0	38	0	269484032	67	4372
2026-01-20 03:21:35.17	24.98	15.13	-47.7	-49.6	17.4	0.00e+00	0	38	0	271581184	67	4372
2026-01-20 03:21:36.18	24.85	15.21	-47.8	-49.7	17.3	0.00e+00	0	38	0	272629760	67	4429
2026-01-20 03:21:37.19	24.72	15.30	-47.7	-49.7	17.4	0.00e+00	0	38	0	274726912	67	4402
2026-01-20 03:21:38.20	24.59	15.38	-47.7	-49.6	17.4	0.00e+00	0	38	0	276824064	67	4379
2026-01-20 03:21:39.21	24.45	15.47	-47.6	-49.5	17.5	0.00e+00	0	38	0	278921216	67	4305
2026-01-20 03:21:40.21	24.32	15.56	-47.7	-49.7	17.4	0.00e+00	0	38	0	281018368	67	4401
2026-01-20 03:21:41.22	24.18	15.64	-47.7	-49.6	17.4	0.00e+00	0	38	0	282066944	67	4388
2026-01-20 03:21:42.23	24.05	15.73	-47.8	-49.8	17.3	0.00e+00	0	38	0	284164096	67	4442
2026-01-20 03:21:43.24	23.91	15.81	-47.8	-49.7	17.3	0.00e+00	0	38	0	286261248	67	4433
2026-01-20 03:21:44.25	23.77	15.90	-47.7	-49.7	17.4	0.00e+00	0	38	0	288358400	67	4417
2026-01-20 03:21:45.25	23.63	15.99	-47.8	-49.8	17.3	0.00e+00	0	38	0	290455552	67	4445
2026-01-20 03:21:46.26	23.49	16.07	-47.7	-49.7	17.4	0.00e+00	0	38	0	291504128	67	4393
2026-01-20 03:21:47.27	23.35	16.16	-47.6	-49.5	17.6	0.00e+00	0	38	0	293601280	67	4324
2026-01-20 03:21:48.28	23.21	16.25	-47.6	-49.5	17.6	0.00e+00	0	38	0	295698432	67	4307
2026-01-20 03:21:49.28	23.07	16.33	-47.5	-49.4	17.7	0.00e+00	0	38	0	297795584	67	4273
2026-01-20 03:21:50.29	22.93	16.42	-47.5	-49.3	17.7	0.00e+00	0	38	0	299892736	66	4477
2026-01-20 03:21:51.30	22.78	16.51	-47.4	-49.3	17.8	0.00e+00	0	38	0	300941312	66	4450
2026-01-20 03:21:52.31	22.64	16.60	-47.4	-49.2	17.9	0.00e+00	0	38	0	303038464	66	4402
2026-01-20 03:21:53.31	22.49	16.68	-47.3	-49.1	18.0	0.00e+00	0	38	0	305135616	66	4366
2026-01-20 03:21:54.32	22.35	16.77	-47.2	-49.0	18.1	0.00e+00	0	38	0	307232768	66	4321
2026-01-20 03:21:55.33	22.20	16.86	-47.3	-49.1	18.0	0.00e+00	0	38	0	309329920	66	4370
2026-01-20 03:21:56.34	22.05	16.95	-47.3	-49.1	18.0	0.00e+00	0	38	0	310378496	66	4369
2026-01-20 03:21:57.35	21.90	17.03	-47.3	-49.1	18.0	0.00e+00	0	38	0	312475648	66	4363
2026-01-20 03:21:58.35	21.76	17.12	-47.2	-49.0	18.1	0.00e+00	0	38	0	314572800	66	4299
2026-01-20 03:21:59.36	21.60	17.21	-47.3	-49.1	18.0	0.00e+00	0	38	0	316669952	66	4370
2026-01-20 03:22:00.37	21.45	17.30	-47.2	-49.0	18.1	0.00e+00	0	38	0	318767104	66	4308
2026-01-20 03:22:01.38	21.30	17.39	-47.3	-49.0	18.0	0.00e+00	0	38	0	319815680	66	4333
2026-01-20 03:22:02.39	21.15	17.47	-47.2	-48.9	18.2	0.00e+00	0	38	0	321912832	66	4282
2026-01-20 03:22:03.39	20.99	17.56	-47.2	-49.0	18.1	0.00e+00	0	39	0	324009984	66	4313
2026-01-20 03:22:04.40	20.84	17.65	-47.3	-49.0	18.1	0.00e+00	0	38	0	326107136	66	4336
2026-01-20 03:22:05.41	20.68	17.74	-47.2	-48.9	18.2	0.00e+00	0	38	0	328204288	66	4276
2026-01-20 03:22:06.42	20.52	17.83	-47.1	-48.9	18.3	0.00e+00	0	38	0	329252864	66	4248
2026-01-20 03:22:07.43	20.37	17.92	-47.1	-48.9	18.2	0.00e+00	0	38	0	331350016	66	4258
2026-01-20 03:22:08.43	20.21	18.01	-47.1	-48.8	18.3	0.00e+00	0	38	0	333447168	66	4237
2026-01-20 03:22:09.44	20.05	18.10	-47.3	-49.1	18.1	0.00e+00	0	39	0	335544320	66	4368
2026-01-20 03:22:10.45	19.89	18.19	-47.1	-48.8	18.3	0.00e+00	0	38	0	337641472	66	4228
2026-01-20 03:22:11.46	19.72	18.27	-47.2	-49.0	18.2	0.00e+00	0	38	0	338690048	66	4305
2026-01-20 03:22:12.47	19.56	18.36	-47.2	-48.9	18.2	0.00e+00	0	38	0	340787200	66	4268
2026-01-20 03:22:13.48	19.40	18.45	-47.1	-48.8	18.4	0.00e+00	0	38	0	342884352	66	4196
2026-01-20 03:22:14.49	19.23	18.54	-47.1	-48.8	18.3	0.00e+00	0	38	0	344981504	66	4214
2026-01-20 03:22:15.49	19.07	18.63	-47.1	-48.8	18.3	0.00e+00	0	38	0	347078656	66	4230
2026-01-20 03:22:16.50	18.90	18.72	-47.0	-48.6	18.5	0.00e+00	0	38	0	348127232	66	4129
2026-01-20 03:22:17.51	18.73	18.81	-47.2	-48.9	18.3	0.00e+00	0	38	0	350224384	66	4255
2026-01-20 03:22:18.52	18.56	18.90	-47.0	-48.7	18.4	0.00e+00	0	38	0	352321536	66	4165
2026-01-20 03:22:19.53	18.39	18.99	-46.9	-48.5	18.6	0.00e+00	0	38	0	354418688	65	4335
2026-01-20 03:22:20.53	18.22	19.08	-47.0	-48.7	18.4	0.00e+00	0	38	0	356515840	65	4406
2026-01-20 03:22:21.54	18.05	19.17	-47.1	-48.8	18.4	0.00e+00	0	38	0	358612992	65	4451
2026-01-20 03:22:22.55	17.88	19.26	-47.0	-48.7	18.4	0.00e+00	0	38	0	359661568	65	4414
2026-01-20 03:22:23.56	17.70	19.35	-47.2	-48.9	18.2	0.00e+00	0	38	0	361758720	65	4525
2026-01-20 03:22:24.56	17.53	19.44	-47.2	-48.9	18.2	0.00e+00	0	38	0	363855872	65	4527
2026-01-20 03:22:25.57	17.35	19.53	-47.2	-49.0	18.2	0.00e+00	0	38	0	365953024	65	4560
2026-01-20 03:22:26.57	17.18	19.62	-47.2	-49.0	18.2	0.00e+00	0	38	0	367001600	65	4549
2026-01-20 03:22:27.58	17.00	19.71	-47.2	-49.0	18.2	0.00e+00	0	38	0	369098752	65	4571
2026-01-20 03:22:28.59	16.82	19.80	-47.3	-49.1	18.1	0.00e+00	0	38	0	371195904	65	4617
2026-01-20 03:22:29.60	16.64	19.89	-47.4	-49.2	18.0	0.00e+00	0	38	0	373293056	65	4653
2026-01-20 03:22:30.61	16.46	19.98	-47.3	-49.1	18.1	0.00e+00	0	38	0	375390208	65	4632
2026-01-20 03:22:31.61	16.28	20.07	-47.4	-49.2	18.0	0.00e+00	0	38	0	376438784	65	4667
2026-01-20 03:22:32.62	16.09	20.16	-47.4	-49.2	18.0	0.00e+00	0	38	0	378535936	65	4666
2026-01-20 03:22:33.63	15.91	20.25	-47.4	-49.2	18.0	0.00e+00	0	38	0	380633088	65	4673
2026-01-20 03:22:34.64	15.72	20.35	-47.4	-49.1	18.0	0.00e+00	0	38	0	382730240	65	4645
2026-01-20 03:22:35.65	15.53	20.44	-47.4	-49.2	18.0	0.00e+00	0	38	0	384827392	65	4654
2026-01-20 03:22:36.65	15.35	20.53	-47.5	-49.3	17.9	0.00e+00	0	38	0	386924544	65	4712
2026-01-20 03:22:37.66	15.16	20.62	-47.4	-49.2	18.0	0.00e+00	0	38	0	387973120	65	4677
2026-01-20 03:22:38.67	14.97	20.71	-47.5	-49.3	17.9	0.00e+00	0	38	0	390070272	65	4755
2026-01-20 03:22:39.68	14.77	20.80	-47.5	-49.3	17.9	0.00e+00	0	38	0	392167424	65	4713
2026-01-20 03:22:40.69	14.58	20.89	-47.3	-49.1	18.1	0.00e+00	0	38	0	394264576	65	4602
2026-01-20 03:22:41.70	14.39	20.98	-47.2	-48.9	18.2	0.00e+00	0	38	0	395313152	65	4545
2026-01-20 03:22:42.71	14.19	21.07	-47.3	-49.0	18.2	0.00e+00	0	38	0	397410304	65	4581
2026-01-20 03:22:43.71	14.00	21.16	-47.2	-49.0	18.2	0.00e+00	0	38	0	399507456	65	4563
2026-01-20 03:22:44.72	13.80	21.25	-47.2	-48.9	18.3	0.00e+00	0	38	0	401604608	65	4527
2026-01-20 03:22:45.73	13.60	21.34	-47.1	-48.7	18.5	0.00e+00	0	38	0	403701760	65	4440
2026-01-20 03:22:46.74	13.40	21.43	-47.0	-48.7	18.4	0.00e+00	0	38	0	405798912	65	4431
2026-01-20 03:22:47.75	13.20	21.52	-47.0	-48.7	18.5	0.00e+00	0	38	0	406847488	65	4398
2026-01-20 03:22:48.76	13.00	21.61	-47.1	-48.7	18.5	0.00e+00	0	38	0	408944640	65	4435
2026-01-20 03:22:49.77	12.79	21.70	-46.9	-48.5	18.7	0.00e+00	0	38	0	411041792	65	4329
2026-01-20 03:22:50.77	12.59	21.79	-46.9	-48.5	18.7	0.00e+00	0	38	0	413138944	65	4325
2026-01-20 03:22:51.78	12.39	21.88	-46.9	-48.6	18.6	0.00e+00	0	38	0	415236096	65	4354
2026-01-20 03:22:52.79	12.18	21.97	-47.0	-48.7	18.5	0.00e+00	0	38	0	416284672	65	4417
2026-01-20 03:22:53.80	11.97	22.06	-47.1	-48.8	18.4	0.00e+00	0	38	0	418381824	65	4490
2026-01-20 03:22:54.81	11.76	22.15	-46.9	-48.6	18.6	0.00e+00	0	38	0	420478976	65	4349
2026-01-20 03:22:55.81	11.55	22.24	-47.0	-48.6	18.6	0.00e+00	0	38	0	422576128	65	4385
2026-01-20 03:22:56.82	11.34	22.33	-46.9	-48.5	18.7	0.00e+00	0	38	0	423624704	65	4340
2026-01-20 03:22:57.83	11.13	22.42	-46.7	-48.2	19.0	0.00e+00	0	38	0	425721856	65	4188
2026-01-20 03:22:58.84	10.91	22.51	-46.8	-48.4	18.9	0.00e+00	0	38	0	427819008	65	4243
2026-01-20 03:22:59.85	10.70	22.59	-46.7	-48.3	18.9	0.00e+00	0	38	0	429916160	65	4229
2026-01-20 03:23:00.85	10.48	22.68	-46.6	-48.1	19.1	0.00e+00	0	38	0	432013312	65	4139
2026-01-20 03:23:01.86	10.26	22.77	-46.5	-48.1	19.1	0.00e+00	0	38	0	434110464	65	4108
2026-01-20 03:23:02.87	10.04	22.86	-46.5	-48.0	19.2	0.00e+00	0	38	0	435159040	64	4316
2026-01-20 03:23:03.88	9.82	22.95	-46.5	-48.1	19.2	0.00e+00	0	38	0	437256192	64	4349
2026-01-20 03:23:04.89	9.60	23.04	-46.6	-48.1	19.1	0.00e+00	0	38	0	439353344	64	4382
2026-01-20 03:23:05.89	9.38	23.12	-46.6	-48.2	19.1	0.00e+00	0	38	0	441450496	64	4418
2026-01-20 03:23:06.90	9.15	23.21	-46.5	-48.1	19.1	0.00e+00	0	38	0	443547648	64	4354
2026-01-20 03:23:07.91	8.93	23.30	-46.4	-47.9	19.3	0.00e+00	0	38	0	444596224	64	4271
2026-01-20 03:23:08.92	8.70	23.39	-46.5	-48.0	19.3	0.00e+00	0	38	0	446693376	64	4304
2026-01-20 03:23:09.93	8.47	23.48	-46.4	-47.9	19.3	0.00e+00	0	38	0	448790528	64	4284
2026-01-20 03:23:10.93	8.25	23.56	-46.2	-47.7	19.6	0.00e+00	0	38	0	450887680	64	4148
2026-01-20 03:23:11.94	8.01	23.65	-46.3	-47.8	19.5	0.00e+00	0	38	0	452984832	64	4199
2026-01-20 03:23:12.95	7.78	23.74	-46.2	-47.7	19.6	0.00e+00	0	38	0	454033408	64	4150
2026-01-20 03:23:13.96	7.55	23.82	-46.1	-47.5	19.7	0.00e+00	0	38	0	456130560	64	4069
2026-01-20 03:23:14.97	7.31	23.91	-46.2	-47.6	19.6	0.00e+00	0	39	0	458227712	64	4125
2026-01-20 03:23:15.98	7.08	24.00	-46.2	-47.6	19.6	0.00e+00	0	38	0	460324864	64	4137
2026-01-20 03:23:16.99	6.84	24.08	-46.1	-47.5	19.7	0.00e+00	0	38	0	462422016	64	4060
2026-01-20 03:23:18.00	6.60	24.17	-46.0	-47.4	19.8	0.00e+00	0	38	0	463470592	64	4047
2026-01-20 03:23:19.00	6.36	24.25	-46.1	-47.5	19.8	0.00e+00	0	38	0	465567744	63	4304
2026-01-20 03:23:20.01	6.12	24.34	-46.0	-47.4	19.9	0.00e+00	0	38	0	467664896	63	4282
2026-01-20 03:23:21.02	5.88	24.42	-46.0	-47.4	19.9	0.00e+00	0	38	0	469762048	63	4284
2026-01-20 03:23:22.03	5.63	24.51	-46.1	-47.5	19.8	0.00e+00	0	38	0	471859200	63	4329
2026-01-20 03:23:23.04	5.39	24.59	-46.2	-47.6	19.7	0.00e+00	0	38	0	473956352	63	4361
2026-01-20 03:23:24.04	5.14	24.67	-46.2	-47.6	19.7	0.00e+00	0	38	0	475004928	63	4388
2026-01-20 03:23:25.05	4.90	24.76	-46.2	-47.7	19.7	0.00e+00	0	39	0	477102080	63	4402
2026-01-20 03:23:26.05	4.65	24.84	-46.2	-47.6	19.7	0.00e+00	0	38	0	479199232	63	4389
2026-01-20 03:23:27.06	4.40	24.92	-46.2	-47.6	19.7	0.00e+00	0	38	0	481296384	63	4374
2026-01-20 03:23:28.07	4.15	25.01	-46.3	-47.7	19.6	0.00e+00	0	38	0	482344960	63	4431
2026-01-20 03:23:29.08	3.89	25.09	-46.5	-47.9	19.4	0.00e+00	0	38	0	484442112	63	4542
2026-01-20 03:23:30.09	3.64	25.17	-46.5	-48.0	19.4	0.00e+00	0	38	0	486539264	63	4558
2026-01-20 03:23:31.10	3.38	25.25	-46.5	-48.0	19.3	0.00e+00	0	38	0	488636416	63	4570
2026-01-20 03:23:32.10	3.13	25.33	-46.6	-48.2	19.2	0.00e+00	0	38	0	490733568	63	4654
2026-01-20 03:23:33.11	2.87	25.41	-46.6	-48.2	19.1	0.00e+00	0	38	0	491782144	64	4407
2026-01-20 03:23:34.12	2.61	25.49	-46.7	-48.2	19.0	0.00e+00	0	38	0	493879296	64	4414
2026-01-20 03:23:35.13	2.35	25.57	-46.4	-47.9	19.3	0.00e+00	0	38	0	495976448	64	4278
2026-01-20 03:23:36.13	2.08	25.65	-46.4	-47.9	19.4	0.00e+00	0	38	0	498073600	64	4259
2026-01-20 03:23:37.14	1.82	25.73	-46.5	-48.0	19.2	0.00e+00	0	38	0	500170752	64	4339
2026-01-20 03:23:38.15	1.56	25.81	-46.7	-48.2	19.1	0.00e+00	0	38	0	502267904	64	4439
2026-01-20 03:23:39.15	1.29	25.89	-46.8	-48.4	18.9	0.00e+00	0	38	0	503316480	64	4506
2026-01-20 03:23:40.16	1.02	25.96	-46.7	-48.3	19.0	0.00e+00	0	38	0	505413632	64	4467
2026-01-20 03:23:41.17	0.75	26.04	-46.7	-48.2	19.1	0.00e+00	0	38	0	507510784	64	4418
2026-01-20 03:23:42.18	0.48	26.12	-46.5	-48.0	19.3	0.00e+00	0	38	0	509607936	64	4311
2026-01-20 03:23:43.19	0.21	26.20	-46.6	-48.2	19.1	0.00e+00	0	38	0	510656512	64	4392
2026-01-20 03:23:44.20	359.94	26.27	-46.8	-48.4	18.9	0.00e+00	0	38	0	512753664	64	4534
2026-01-20 03:23:45.20	359.66	26.35	-47.0	-48.6	18.7	0.00e+00	0	38	0	514850816	64	4635
2026-01-20 03:23:46.21	359.39	26.42	-47.0	-48.6	18.7	0.00e+00	0	38	0	516947968	64	4627
2026-01-20 03:23:47.22	359.11	26.49	-47.0	-48.6	18.7	0.00e+00	0	38	0	519045120	64	4632
2026-01-20 03:23:48.23	358.83	26.57	-47.1	-48.7	18.6	0.00e+00	0	38	0	520093696	64	4688
2026-01-20 03:23:49.23	358.56	26.64	-47.0	-48.6	18.7	0.00e+00	0	38	0	522190848	64	4642
2026-01-20 03:23:50.24	358.27	26.71	-47.0	-48.6	18.7	0.00e+00	0	38	0	524288000	64	4639
2026-01-20 03:23:51.25	357.99	26.79	-47.0	-48.6	18.7	0.00e+00	0	38	0	526385152	64	4612
2026-01-20 03:23:52.26	357.71	26.86	-47.0	-48.7	18.7	0.00e+00	0	38	0	528482304	64	4657
2026-01-20 03:23:53.27	357.42	26.93	-46.9	-48.5	18.8	0.00e+00	0	38	0	530579456	64	4571
2026-01-20 03:23:54.27	357.14	27.00	-47.0	-48.6	18.7	0.00e+00	0	38	0	531628032	64	4650
2026-01-20 03:23:55.28	356.85	27.07	-46.8	-48.4	18.9	0.00e+00	0	38	0	533725184	64	4527
2026-01-20 03:23:56.29	356.56	27.14	-46.9	-48.5	18.8	0.00e+00	0	38	0	535822336	64	4579
2026-01-20 03:23:57.30	356.27	27.20	-47.0	-48.6	18.7	0.00e+00	0	38	0	537919488	64	4631
2026-01-20 03:23:58.31	355.98	27.27	-46.7	-48.3	19.0	0.00e+00	0	38	0	538968064	64	4462
2026-01-20 03:23:59.31	355.69	27.34	-46.7	-48.3	19.1	0.00e+00	0	38	0	541065216	64	4450
2026-01-20 03:24:00.32	355.40	27.40	-46.7	-48.2	19.1	0.00e+00	0	38	0	543162368	64	4433
2026-01-20 03:24:01.33	355.10	27.47	-46.8	-48.4	18.9	0.00e+00	0	38	0	545259520	64	4535
2026-01-20 03:24:02.34	354.80	27.53	-46.9	-48.6	18.8	0.00e+00	0	38	0	547356672	64	4605
2026-01-20 03:24:03.35	354.51	27.60	-47.0	-48.7	18.6	0.00e+00	0	38	0	549453824	64	4669
2026-01-20 03:24:04.36	354.21	27.66	-47.0	-48.6	18.8	0.00e+00	0	38	0	550502400	64	4609
2026-01-20 03:24:05.36	353.91	27.72	-47.0	-48.7	18.6	0.00e+00	0	38	0	552599552	64	4660
2026-01-20 03:24:06.37	353.61	27.79	-46.9	-48.6	18.8	0.00e+00	0	38	0	554696704	64	4601
2026-01-20 03:24:07.38	353.31	27.85	-47.0	-48.6	18.7	0.00e+00	0	38	0	556793856	64	4634
2026-01-20 03:24:08.39	353.00	27.91	-47.1	-48.7	18.6	0.00e+00	0	38	0	558891008	64	4694
2026-01-20 03:24:09.40	352.70	27.97	-47.3	-49.0	18.3	0.00e+00	0	38	0	559939584	65	4577
2026-01-20 03:24:10.40	352.40	28.03	-47.4	-49.1	18.3	0.00e+00	0	38	0	562036736	65	4630
2026-01-20 03:24:11.41	352.09	28.09	-47.4	-49.2	18.1	0.00e+00	0	38	0	564133888	65	4690
2026-01-20 03:24:12.42	351.78	28.14	-47.4	-49.1	18.2	0.00e+00	0	38	0	566231040	65	4634
2026-01-20 03:24:13.43	351.47	28.20	-47.4	-49.2	18.2	0.00e+00	0	38	0	567279616	65	4659
2026-01-20 03:24:14.44	351.16	28.26	-47.3	-49.0	18.3	0.00e+00	0	38	0	569376768	65	4582
2026-01-20 03:24:15.44	350.85	28.31	-47.3	-49.0	18.3	0.00e+00	0	38	0	571473920	65	4594
2026-01-20 03:24:16.45	350.54	28.36	-47.5	-49.3	18.0	0.00e+00	0	38	0	573571072	65	4748
2026-01-20 03:24:17.46	350.23	28.42	-47.5	-49.3	18.0	0.00e+00	0	38	0	575668224	65	4747
2026-01-20 03:24:18.47	349.91	28.47	-47.5	-49.3	18.0	0.00e+00	0	38	0	577765376	65	4759
2026-01-20 03:24:19.48	349.60	28.52	-47.4	-49.2	18.2	0.00e+00	0	38	0	578813952	65	4668
2026-01-20 03:24:20.49	349.28	28.57	-47.5	-49.3	18.0	0.00e+00	0	38	0	580911104	65	4753
2026-01-20 03:24:21.49	348.97	28.62	-47.6	-49.4	18.0	0.00e+00	0	38	0	583008256	65	4781
2026-01-20 03:24:22.50	348.65	28.67	-47.7	-49.6	17.7	0.00e+00	0	38	0	585105408	66	4623
2026-01-20 03:24:23.51	348.33	28.72	-47.9	-49.9	17.6	0.00e+00	0	38	0	587202560	66	4767
2026-01-20 03:24:24.52	348.01	28.77	-47.9	-49.8	17.6	0.00e+00	0	38	0	588251136	66	4716
2026-01-20 03:24:25.52	347.69	28.81	-47.8	-49.6	17.8	0.00e+00	0	38	0	590348288	66	4627
2026-01-20 03:24:26.53	347.37	28.86	-47.6	-49.4	18.0	0.00e+00	0	38	0	592445440	66	4529
2026-01-20 03:24:27.54	347.04	28.90	-47.5	-49.3	18.0	0.00e+00	0	38	0	594542592	66	4472
2026-01-20 03:24:28.55	346.72	28.94	-47.4	-49.1	18.3	0.00e+00	0	38	0	596639744	66	4385
2026-01-20 03:24:29.55	346.40	28.99	-47.5	-49.2	18.2	0.00e+00	0	38	0	597688320	66	4425
2026-01-20 03:24:30.56	346.07	29.03	-47.6	-49.5	18.0	0.00e+00	0	38	0	599785472	66	4546
2026-01-20 03:24:31.57	345.75	29.07	-47.7	-49.6	17.9	0.00e+00	0	38	0	601882624	66	4608
2026-01-20 03:24:32.57	345.42	29.11	-47.6	-49.4	17.9	0.00e+00	0	38	0	603979776	66	4534
2026-01-20 03:24:33.58	345.09	29.15	-47.5	-49.3	18.1	0.00e+00	0	38	0	606076928	66	4456
2026-01-20 03:24:34.59	344.76	29.18	-47.6	-49.4	18.0	0.00e+00	0	38	0	607125504	66	4501
2026-01-20 03:24:35.60	344.43	29.22	-47.9	-49.8	17.6	0.00e+00	0	38	0	609222656	66	4711
2026-01-20 03:24:36.61	344.10	29.25	-47.9	-49.7	17.6	0.00e+00	0	38	0	611319808	66	4704
2026-01-20 03:24:37.61	343.78	29.29	-47.9	-49.8	17.6	0.00e+00	0	39	0	613416960	66	4733
2026-01-20 03:24:38.62	343.44	29.32	-48.0	-49.9	17.6	0.00e+00	0	38	0	615514112	66	4760
2026-01-20 03:24:39.63	343.11	29.35	-47.8	-49.6	17.8	0.00e+00	0	38	0	616562688	66	4623
2026-01-20 03:24:40.64	342.78	29.39	-47.6	-49.3	18.1	0.00e+00	0	38	0	618659840	66	4487
2026-01-20 03:24:41.64	342.45	29.42	-47.6	-49.3	18.1	0.00e+00	0	38	0	620756992	66	4477
2026-01-20 03:24:42.65	342.11	29.45	-47.7	-49.6	17.9	0.00e+00	0	39	0	622854144	66	4601
2026-01-20 03:24:43.66	341.78	29.47	-48.0	-49.9	17.5	0.00e+00	0	38	0	624951296	66	4761
2026-01-20 03:24:44.67	341.44	29.50	-48.2	-50.1	17.3	0.00e+00	0	38	0	625999872	66	4919
2026-01-20 03:24:45.68	341.10	29.53	-48.3	-50.3	17.1	0.00e+00	0	38	0	628097024	67	4729
2026-01-20 03:24:46.69	340.77	29.55	-48.1	-50.1	17.3	0.00e+00	0	38	0	630194176	67	4624
2026-01-20 03:24:47.69	340.43	29.57	-48.2	-50.2	17.2	0.00e+00	0	38	0	632291328	67	4682
2026-01-20 03:24:48.70	340.10	29.60	-48.3	-50.3	17.2	0.00e+00	0	38	0	634388480	67	4716
2026-01-20 03:24:49.71	339.76	29.62	-48.5	-50.5	16.9	0.00e+00	0	38	0	635437056	67	4861
2026-01-20 03:24:50.72	339.42	29.64	-48.6	-50.7	16.7	0.00e+00	0	38	0	637534208	67	4982
2026-01-20 03:24:51.73	339.08	29.66	-48.5	-50.7	16.7	0.00e+00	0	38	0	639631360	67	4943
2026-01-20 03:24:52.73	338.74	29.68	-48.5	-50.6	16.8	0.00e+00	0	38	0	641728512	67	4924
2026-01-20 03:24:53.74	338.40	29.69	-48.4	-50.5	16.9	0.00e+00	0	38	0	643825664	67	4822
2026-01-20 03:24:54.75	338.06	29.71	-48.5	-50.5	16.9	0.00e+00	0	39	0	644874240	67	4862
2026-01-20 03:24:55.76	337.72	29.72	-48.4	-50.4	17.0	0.00e+00	0	38	0	646971392	67	4795
2026-01-20 03:24:56.76	337.38	29.74	-48.5	-50.7	16.8	0.00e+00	0	38	0	649068544	67	4947
2026-01-20 03:24:57.77	337.04	29.75	-48.5	-50.6	16.8	0.00e+00	0	38	0	651165696	67	4877
2026-01-20 03:24:58.78	336.70	29.76	-48.5	-50.6	16.8	0.00e+00	0	38	0	653262848	67	4913
2026-01-20 03:24:59.79	336.36	29.77	-48.5	-50.6	16.9	0.00e+00	0	38	0	654311424	67	4891
2026-01-20 03:25:00.79	336.02	29.78	-48.6	-50.7	16.7	0.00e+00	0	38	0	656408576	67	4955
2026-01-20 03:25:01.80	335.68	29.79	-48.6	-50.7	16.8	0.00e+00	0	38	0	658505728	67	4966
2026-01-20 03:25:02.81	335.34	29.80	-48.6	-50.7	16.8	0.00e+00	0	38	0	660602880	67	4964
2026-01-20 03:25:03.82	334.99	29.80	-48.5	-50.6	16.8	0.00e+00	0	38	0	662700032	67	4914
2026-01-20 03:25:04.83	334.65	29.81	-48.5	-50.7	16.8	0.00e+00	0	38	0	663748608	67	4931
2026-01-20 03:25:05.84	334.31	29.81	-48.6	-50.8	16.6	0.00e+00	0	38	0	665845760	67	4994
2026-01-20 03:25:06.84	333.97	29.81	-48.8	-50.9	16.6	0.00e+00	0	38	0	667942912	68	4807
2026-01-20 03:25:07.85	333.63	29.81	-48.8	-51.0	16.6	0.00e+00	0	38	0	670040064	68	4860
2026-01-20 03:25:08.86	333.28	29.81	-48.8	-51.0	16.6	0.00e+00	0	38	0	672137216	68	4857
2026-01-20 03:25:09.87	332.94	29.81	-48.8	-51.0	16.6	0.00e+00	0	38	0	673185792	68	4853
2026-01-20 03:25:10.87	332.60	29.81	-48.7	-50.8	16.7	0.00e+00	0	38	0	675282944	68	4757
2026-01-20 03:25:11.88	332.26	29.81	-48.5	-50.6	16.9	0.00e+00	0	38	0	677380096	68	4629
2026-01-20 03:25:12.89	331.91	29.80	-48.4	-50.4	17.1	0.00e+00	0	38	0	679477248	68	4537
2026-01-20 03:25:13.89	331.58	29.80	-48.5	-50.6	17.0	0.00e+00	0	38	0	681574400	68	4604
2026-01-20 03:25:14.90	331.23	29.79	-48.4	-50.4	17.1	0.00e+00	0	38	0	682622976	68	4534
2026-01-20 03:25:15.91	330.89	29.78	-48.4	-50.4	17.1	0.00e+00	0	38	0	684720128	68	4527
2026-01-20 03:25:16.92	330.55	29.77	-48.3	-50.3	17.2	0.00e+00	0	38	0	686817280	68	4479
2026-01-20 03:25:17.93	330.21	29.76	-48.3	-50.3	17.3	0.00e+00	0	38	0	688914432	68	4442
2026-01-20 03:25:18.94	329.87	29.75	-48.1	-50.0	17.5	0.00e+00	0	38	0	691011584	68	4326
2026-01-20 03:25:19.94	329.53	29.74	-48.2	-50.1	17.5	0.00e+00	0	38	0	693108736	68	4375
2026-01-20 03:25:20.95	329.19	29.72	-48.1	-50.0	17.6	0.00e+00	0	38	0	694157312	68	4317
2026-01-20 03:25:21.96	328.85	29.71	-48.4	-50.4	17.2	0.00e+00	0	38	0	696254464	68	4516
2026-01-20 03:25:22.97	328.50	29.69	-48.4	-50.5	17.1	0.00e+00	0	38	0	698351616	68	4550
2026-01-20 03:25:23.97	328.17	29.68	-48.2	-50.2	17.4	0.00e+00	0	38	0	700448768	68	4400
2026-01-20 03:25:24.98	327.83	29.66	-47.9	-49.7	17.8	0.00e+00	0	38	0	701497344	67	4427
2026-01-20 03:25:25.99	327.49	29.64	-47.9	-49.8	17.7	0.00e+00	0	38	0	703594496	67	4442
2026-01-20 03:25:27.00	327.15	29.62	-47.6	-49.3	18.2	0.00e+00	0	38	0	705691648	67	4226
2026-01-20 03:25:28.01	326.81	29.60	-47.5	-49.2	18.3	0.00e+00	0	38	0	707788800	67	4176
2026-01-20 03:25:29.01	326.48	29.57	-47.6	-49.3	18.2	0.00e+00	0	38	0	709885952	67	4224
2026-01-20 03:25:30.02	326.14	29.55	-47.7	-49.5	18.1	0.00e+00	0	38	0	710934528	67	4292
2026-01-20 03:25:31.03	325.80	29.53	-47.8	-49.6	17.9	0.00e+00	0	38	0	713031680	67	4352
2026-01-20 03:25:32.04	325.47	29.50	-47.9	-49.7	17.9	0.00e+00	0	38	0	715128832	67	4408
2026-01-20 03:25:33.05	325.13	29.47	-47.8	-49.7	17.8	0.00e+00	0	38	0	717225984	67	4397
2026-01-20 03:25:34.05	324.80	29.45	-47.7	-49.5	17.9	0.00e+00	0	38	0	719323136	67	4335
2026-01-20 03:25:35.06	324.46	29.42	-47.7	-49.5	18.0	0.00e+00	0	38	0	721420288	67	4301
2026-01-20 03:25:36.07	324.13	29.39	-47.4	-49.1	18.4	0.00e+00	0	38	0	722468864	66	4363
2026-01-20 03:25:37.08	323.79	29.35	-47.3	-49.0	18.5	0.00e+00	0	38	0	724566016	66	4299
2026-01-20 03:25:38.09	323.46	29.32	-47.2	-48.9	18.5	0.00e+00	0	38	0	726663168	66	4261
2026-01-20 03:25:39.09	323.13	29.29	-47.4	-49.0	18.4	0.00e+00	0	39	0	728760320	66	4338
2026-01-20 03:25:40.10	322.80	29.26	-47.5	-49.2	18.3	0.00e+00	0	38	0	729808896	66	4438
2026-01-20 03:25:41.11	322.47	29.22	-47.5	-49.3	18.2	0.00e+00	0	38	0	731906048	66	4455
2026-01-20 03:25:42.11	322.14	29.18	-47.6	-49.4	18.1	0.00e+00	0	38	0	734003200	66	4494
2026-01-20 03:25:43.12	321.81	29.15	-47.7	-49.5	18.0	0.00e+00	0	38	0	736100352	66	4565
2026-01-20 03:25:44.13	321.49	29.11	-47.7	-49.5	18.0	0.00e+00	0	38	0	738197504	66	4584
2026-01-20 03:25:45.14	321.16	29.07	-47.6	-49.3	18.2	0.00e+00	0	38	0	740294656	66	4466
2026-01-20 03:25:46.15	320.83	29.03	-47.4	-49.1	18.4	0.00e+00	0	38	0	741343232	66	4380
2026-01-20 03:25:47.15	320.51	28.99	-47.3	-49.0	18.4	0.00e+00	0	38	0	743440384	66	4316
2026-01-20 03:25:48.16	320.18	28.94	-47.3	-48.9	18.5	0.00e+00	0	38	0	745537536	66	4290
2026-01-20 03:25:49.17	319.86	28.90	-47.3	-48.9	18.6	0.00e+00	0	38	0	747634688	66	4279
2026-01-20 03:25:50.18	319.54	28.86	-47.3	-49.0	18.5	0.00e+00	0	38	0	749731840	66	4306
2026-01-20 03:25:51.19	319.21	28.81	-47.4	-49.1	18.4	0.00e+00	0	38	0	750780416	66	4364
2026-01-20 03:25:52.20	318.89	28.77	-47.5	-49.2	18.3	0.00e+00	0	38	0	752877568	66	4402
2026-01-20 03:25:53.20	318.57	28.72	-47.5	-49.2	18.3	0.00e+00	0	38	0	754974720	66	4416
2026-01-20 03:25:54.21	318.25	28.67	-47.6	-49.3	18.1	0.00e+00	0	39	0	757071872	66	4488
2026-01-20 03:25:55.21	317.94	28.62	-47.7	-49.5	18.0	0.00e+00	0	38	0	759169024	66	4568
2026-01-20 03:25:56.22	317.62	28.57	-47.8	-49.7	17.9	0.00e+00	0	38	0	760217600	66	4654
2026-01-20 03:25:57.23	317.30	28.52	-47.9	-49.7	17.8	0.00e+00	0	38	0	762314752	66	4701
2026-01-20 03:25:58.24	316.99	28.47	-48.0	-49.9	17.6	0.00e+00	0	38	0	764411904	66	4763
2026-01-20 03:25:59.25	316.67	28.42	-48.1	-50.0	17.5	0.00e+00	0	38	0	766509056	66	4863
2026-01-20 03:26:00.26	316.36	28.36	-48.1	-50.1	17.4	0.00e+00	0	38	0	768606208	66	4898
2026-01-20 03:26:01.27	316.05	28.31	-48.2	-50.1	17.4	0.00e+00	0	38	0	769654784	66	4913
2026-01-20 03:26:02.27	315.74	28.26	-48.3	-50.3	17.2	0.00e+00	0	38	0	771751936	67	4715
2026-01-20 03:26:03.28	315.43	28.20	-48.1	-50.0	17.5	0.00e+00	0	38	0	773849088	67	4586
2026-01-20 03:26:04.29	315.12	28.14	-48.1	-50.0	17.5	0.00e+00	0	38	0	775946240	67	4583
2026-01-20 03:26:05.29	314.81	28.09	-48.2	-50.2	17.4	0.00e+00	0	38	0	778043392	67	4657
2026-01-20 03:26:06.30	314.51	28.03	-48.4	-50.4	17.1	0.00e+00	0	39	0	779091968	67	4796
2026-01-20 03:26:07.31	314.20	27.97	-48.4	-50.5	17.0	0.00e+00	0	38	0	781189120	67	4829
2026-01-20 03:26:08.32	313.89	27.91	-48.4	-50.5	17.0	0.00e+00	0	38	0	783286272	67	4819
2026-01-20 03:26:09.33	313.59	27.85	-48.4	-50.4	17.1	0.00e+00	0	38	0	785383424	67	4789
2026-01-20 03:26:10.34	313.29	27.79	-48.2	-50.1	17.4	0.00e+00	0	38	0	787480576	67	4636
2026-01-20 03:26:11.34	312.99	27.72	-48.1	-50.1	17.4	0.00e+00	0	38	0	788529152	67	4604
2026-01-20 03:26:12.35	312.69	27.66	-48.1	-50.1	17.4	0.00e+00	0	38	0	790626304	67	4605
2026-01-20 03:26:13.36	312.39	27.60	-48.2	-50.2	17.2	0.00e+00	0	38	0	792723456	67	4702
2026-01-20 03:26:14.37	312.09	27.53	-48.3	-50.3	17.1	0.00e+00	0	38	0	794820608	67	4743
2026-01-20 03:26:15.37	311.80	27.47	-48.3	-50.3	17.2	0.00e+00	0	39	0	796917760	67	4749
2026-01-20 03:26:16.38	311.50	27.40	-48.4	-50.4	17.1	0.00e+00	0	38	0	797966336	67	4788
2026-01-20 03:26:17.39	311.21	27.34	-48.4	-50.4	17.1	0.00e+00	0	38	0	800063488	67	4793
2026-01-20 03:26:18.39	310.92	27.27	-48.4	-50.4	17.1	0.00e+00	0	38	0	802160640	67	4779
2026-01-20 03:26:19.40	310.63	27.20	-48.3	-50.3	17.2	0.00e+00	0	38	0	804257792	67	4728
2026-01-20 03:26:20.41	310.34	27.14	-48.3	-50.3	17.2	0.00e+00	0	38	0	806354944	67	4710
2026-01-20 03:26:21.42	310.05	27.07	-48.2	-50.1	17.3	0.00e+00	0	38	0	807403520	67	4636
2026-01-20 03:26:22.43	309.76	27.00	-48.1	-50.1	17.4	0.00e+00	0	38	0	809500672	67	4609
2026-01-20 03:26:23.44	309.47	26.93	-48.2	-50.2	17.3	0.00e+00	0	38	0	811597824	67	4684
2026-01-20 03:26:24.44	309.19	26.86	-48.2	-50.1	17.3	0.00e+00	0	38	0	813694976	67	4651
2026-01-20 03:26:25.45	308.90	26.78	-48.2	-50.1	17.4	0.00e+00	0	38	0	815792128	67	4631
2026-01-20 03:26:26.45	308.62	26.71	-48.1	-50.1	17.4	0.00e+00	0	38	0	816840704	67	4605
2026-01-20 03:26:27.46	308.34	26.64	-48.1	-50.0	17.4	0.00e+00	0	38	0	818937856	67	4593
2026-01-20 03:26:28.47	308.06	26.57	-48.1	-50.0	17.5	0.00e+00	0	38	0	821035008	67	4589
2026-01-20 03:26:29.48	307.78	26.49	-48.2	-50.2	17.3	0.00e+00	0	38	0	823132160	67	4663
2026-01-20 03:26:30.49	307.51	26.42	-48.1	-50.0	17.5	0.00e+00	0	38	0	825229312	67	4568
2026-01-20 03:26:31.49	307.23	26.34	-48.1	-50.0	17.5	0.00e+00	0	38	0	826277888	67	4564
2026-01-20 03:26:32.50	306.96	26.27	-47.9	-49.8	17.7	0.00e+00	0	38	0	828375040	67	4474
2026-01-20 03:26:33.51	306.68	26.19	-47.8	-49.6	17.9	0.00e+00	0	39	0	830472192	67	4373
2026-01-20 03:26:34.52	306.41	26.12	-47.6	-49.4	18.1	0.00e+00	0	38	0	832569344	67	4261
2026-01-20 03:26:35.53	306.14	26.04	-47.7	-49.5	18.0	0.00e+00	0	38	0	834666496	67	4327
2026-01-20 03:26:36.53	305.87	25.96	-47.5	-49.3	18.1	0.00e+00	0	38	0	835715072	67	4210
2026-01-20 03:26:37.54	305.60	25.89	-47.7	-49.5	18.0	0.00e+00	0	38	0	837812224	67	4330
2026-01-20 03:26:38.55	305.34	25.81	-47.7	-49.5	18.0	0.00e+00	0	39	0	839909376	67	4326
2026-01-20 03:26:39.56	305.07	25.73	-47.7	-49.5	18.0	0.00e+00	0	38	0	842006528	67	4308
2026-01-20 03:26:40.57	304.81	25.65	-47.7	-49.5	18.0	0.00e+00	0	38	0	844103680	67	4317
2026-01-20 03:26:41.57	304.55	25.57	-47.7	-49.6	17.9	0.00e+00	0	38	0	845152256	67	4350
2026-01-20 03:26:42.58	304.28	25.49	-47.5	-49.3	18.2	0.00e+00	0	38	0	847249408	67	4200
2026-01-20 03:26:43.59	304.02	25.41	-47.2	-48.8	18.6	0.00e+00	0	38	0	849346560	66	4240
2026-01-20 03:26:44.60	303.76	25.33	-47.2	-48.9	18.4	0.00e+00	0	38	0	851443712	66	4269
2026-01-20 03:26:45.60	303.51	25.25	-47.3	-49.0	18.6	0.00e+00	0	39	0	853540864	66	4294
2026-01-20 03:26:46.61	303.25	25.17	-47.1	-48.7	18.7	0.00e+00	0	38	0	854589440	66	4191
2026-01-20 03:26:47.62	303.00	25.09	-47.1	-48.7	18.8	0.00e+00	0	38	0	856686592	66	4161
2026-01-20 03:26:48.63	302.74	25.00	-47.2	-48.8	18.6	0.00e+00	0	38	0	858783744	66	4235
2026-01-20 03:26:49.64	302.49	24.92	-47.1	-48.7	18.7	0.00e+00	0	38	0	860880896	66	4187
2026-01-20 03:26:50.64	302.24	24.84	-47.2	-48.8	18.6	0.00e+00	0	38	0	862978048	66	4231
2026-01-20 03:26:51.65	301.99	24.75	-47.1	-48.8	18.7	0.00e+00	0	38	0	865075200	66	4202
2026-01-20 03:26:52.66	301.74	24.67	-47.0	-48.6	18.9	0.00e+00	0	38	0	866123776	66	4123
2026-01-20 03:26:53.67	301.50	24.59	-46.8	-48.3	19.1	0.00e+00	0	38	0	868220928	65	4221
2026-01-20 03:26:54.67	301.25	24.50	-46.6	-48.1	19.4	0.00e+00	0	38	0	870318080	65	4113
2026-01-20 03:26:55.68	301.01	24.42	-46.6	-48.0	19.4	0.00e+00	0	38	0	872415232	65	4086
2026-01-20 03:26:56.69	300.76	24.33	-46.6	-48.1	19.4	0.00e+00	0	38	0	873463808	65	4112
2026-01-20 03:26:57.70	300.52	24.25	-46.5	-48.0	19.4	0.00e+00	0	38	0	875560960	65	4077
2026-01-20 03:26:58.71	300.28	24.16	-46.6	-48.1	19.4	0.00e+00	0	38	0	877658112	65	4106
2026-01-20 03:26:59.71	300.04	24.08	-46.6	-48.1	19.3	0.00e+00	0	38	0	879755264	65	4119
2026-01-20 03:27:00.72	299.81	23.99	-46.6	-48.1	19.3	0.00e+00	0	38	0	881852416	65	4133
2026-01-20 03:27:01.73	299.57	23.91	-46.5	-48.0	19.5	0.00e+00	0	38	0	882900992	65	4052
2026-01-20 03:27:02.73	299.34	23.82	-46.4	-47.8	19.6	0.00e+00	0	38	0	884998144	64	4231
2026-01-20 03:27:03.74	299.10	23.73	-46.4	-47.9	19.5	0.00e+00	0	38	0	887095296	64	4259
2026-01-20 03:27:04.75	298.87	23.65	-46.4	-47.9	19.5	0.00e+00	0	38	0	889192448	64	4267
2026-01-20 03:27:05.76	298.64	23.56	-46.5	-48.0	19.4	0.00e+00	0	38	0	891289600	64	4292
2026-01-20 03:27:06.77	298.41	23.47	-46.2	-47.7	19.8	0.00e+00	0	38	0	893386752	64	4146
2026-01-20 03:27:07.77	298.18	23.38	-46.2	-47.6	19.8	0.00e+00	0	38	0	894435328	64	4128
2026-01-20 03:27:08.78	297.95	23.30	-46.2	-47.6	19.8	0.00e+00	0	38	0	896532480	64	4137
2026-01-20 03:27:09.79	297.73	23.21	-46.1	-47.5	19.9	0.00e+00	0	38	0	898629632	64	4091
2026-01-20 03:27:10.80	297.50	23.12	-46.2	-47.6	19.8	0.00e+00	0	38	0	900726784	64	4135
2026-01-20 03:27:11.81	297.28	23.03	-46.2	-47.6	19.8	0.00e+00	0	38	0	901775360	64	4122
2026-01-20 03:27:12.81	297.06	22.94	-46.1	-47.4	19.9	0.00e+00	0	38	0	903872512	64	4049
2026-01-20 03:27:13.82	296.84	22.86	-45.9	-47.2	20.2	0.00e+00	0	38	0	905969664	63	4178
2026-01-20 03:27:14.83	296.62	22.77	-45.9	-47.2	20.2	0.00e+00	0	38	0	908066816	63	4161
2026-01-20 03:27:15.83	296.40	22.68	-45.9	-47.2	20.3	0.00e+00	0	38	0	910163968	63	4171
2026-01-20 03:27:16.84	296.18	22.59	-45.7	-47.0	20.4	0.00e+00	0	38	0	912261120	63	4092
2026-01-20 03:27:17.85	295.97	22.50	-45.7	-47.0	20.5	0.00e+00	0	38	0	913309696	63	4077
2026-01-20 03:27:18.86	295.75	22.41	-45.8	-47.1	20.4	0.00e+00	0	38	0	915406848	63	4104
2026-01-20 03:27:19.87	295.54	22.32	-45.7	-47.0	20.5	0.00e+00	0	38	0	917504000	63	4054
2026-01-20 03:27:20.87	295.33	22.23	-45.7	-47.0	20.4	0.00e+00	0	38	0	919601152	63	4069
2026-01-20 03:27:21.88	295.12	22.14	-45.8	-47.1	20.4	0.00e+00	0	38	0	921698304	63	4124
2026-01-20 03:27:22.89	294.91	22.05	-45.5	-46.8	20.7	0.00e+00	0	38	0	922746880	63	3977
2026-01-20 03:27:23.90	294.70	21.96	-45.3	-46.6	20.9	0.00e+00	0	38	0	924844032	62	4108
2026-01-20 03:27:24.91	294.49	21.87	-45.2	-46.4	21.0	0.00e+00	0	38	0	926941184	62	4012
2026-01-20 03:27:25.91	294.29	21.78	-45.2	-46.4	21.0	0.00e+00	0	38	0	929038336	62	4040
2026-01-20 03:27:26.92	294.08	21.69	-45.1	-46.3	21.1	0.00e+00	0	38	0	930086912	62	3976
2026-01-20 03:27:27.93	293.88	21.60	-45.1	-46.3	21.1	0.00e+00	0	38	0	932184064	62	3997
2026-01-20 03:27:28.94	293.67	21.51	-45.2	-46.5	21.0	0.00e+00	0	38	0	934281216	62	4053
2026-01-20 03:27:29.95	293.47	21.42	-45.3	-46.5	20.9	0.00e+00	0	38	0	936378368	62	4087
2026-01-20 03:27:30.96	293.27	21.33	-45.4	-46.6	20.8	0.00e+00	0	38	0	938475520	62	4142
2026-01-20 03:27:31.96	293.08	21.24	-45.3	-46.6	20.8	0.00e+00	0	38	0	940572672	62	4115
2026-01-20 03:27:32.97	292.88	21.15	-45.3	-46.6	20.8	0.00e+00	0	38	0	941621248	62	4099
2026-01-20 03:27:33.98	292.68	21.06	-45.3	-46.5	20.9	0.00e+00	0	38	0	943718400	62	4097
2026-01-20 03:27:34.99	292.49	20.97	-45.2	-46.4	21.0	0.00e+00	0	38	0	945815552	62	4017
2026-01-20 03:27:35.99	292.29	20.88	-45.2	-46.4	20.9	0.00e+00	0	38	0	947912704	62	4051
2026-01-20 03:27:37.00	292.10	20.79	-45.2	-46.4	21.0	0.00e+00	0	38	0	950009856	62	4045
2026-01-20 03:27:38.01	291.91	20.70	-45.2	-46.5	20.9	0.00e+00	0	38	0	951058432	62	4063
2026-01-20 03:27:39.02	291.72	20.61	-45.3	-46.5	20.9	0.00e+00	0	38	0	953155584	62	4088
2026-01-20 03:27:40.03	291.53	20.52	-45.4	-46.6	20.8	0.00e+00	0	38	0	955252736	62	4123
2026-01-20 03:27:41.04	291.34	20.43	-45.4	-46.7	20.7	0.00e+00	0	38	0	957349888	62	4165
2026-01-20 03:27:42.04	291.15	20.34	-45.5	-46.7	20.7	0.00e+00	0	38	0	959447040	62	4180
2026-01-20 03:27:43.05	290.96	20.25	-45.5	-46.8	20.5	0.00e+00	0	38	0	960495616	62	4235
2026-01-20 03:27:44.05	290.78	20.16	-45.5	-46.8	20.6	0.00e+00	0	38	0	962592768	62	4219
2026-01-20 03:27:45.06	290.60	20.07	-45.5	-46.8	20.6	0.00e+00	0	39	0	964689920	62	4229
2026-01-20 03:27:46.07	290.41	19.98	-45.6	-46.8	20.6	0.00e+00	0	38	0	966787072	62	4234
2026-01-20 03:27:47.08	290.23	19.89	-45.6	-46.9	20.5	0.00e+00	0	38	0	968884224	62	4266
2026-01-20 03:27:48.09	290.05	19.79	-45.7	-47.0	20.4	0.00e+00	0	38	0	969932800	62	4338
2026-01-20 03:27:49.09	289.87	19.70	-45.6	-46.8	20.5	0.00e+00	0	38	0	972029952	62	4241
2026-01-20 03:27:50.10	289.69	19.61	-45.7	-47.0	20.4	0.00e+00	0	38	0	974127104	62	4322
2026-01-20 03:27:51.11	289.52	19.52	-45.7	-47.0	20.4	0.00e+00	0	38	0	976224256	62	4324
2026-01-20 03:27:52.12	289.34	19.43	-45.8	-47.2	20.2	0.00e+00	0	38	0	978321408	62	4398
2026-01-20 03:27:53.13	289.16	19.34	-45.8	-47.1	20.3	0.00e+00	0	38	0	979369984	62	4356
2026-01-20 03:27:54.13	288.99	19.25	-45.8	-47.1	20.2	0.00e+00	0	38	0	981467136	62	4386
2026-01-20 03:27:55.14	288.82	19.16	-45.8	-47.2	20.2	0.00e+00	0	38	0	983564288	62	4402
2026-01-20 03:27:56.15	288.64	19.07	-45.8	-47.1	20.2	0.00e+00	0	38	0	985661440	62	4381
2026-01-20 03:27:57.16	288.47	18.98	-45.9	-47.2	20.2	0.00e+00	0	38	0	987758592	62	4440
2026-01-20 03:27:58.17	288.30	18.89	-45.9	-47.3	20.1	0.00e+00	0	38	0	988807168	62	4442
2026-01-20 03:27:59.17	288.13	18.80	-46.0	-47.4	20.0	0.00e+00	0	38	0	990904320	62	4511
2026-01-20 03:28:00.18	287.97	18.71	-46.2	-47.6	19.9	0.00e+00	0	38	0	993001472	62	4600
2026-01-20 03:28:01.19	287.80	18.62	-46.3	-47.7	19.7	0.00e+00	0	38	0	995098624	63	4403
2026-01-20 03:28:02.20	287.63	18.53	-46.3	-47.8	19.6	0.00e+00	0	38	0	997195776	63	4444
2026-01-20 03:28:03.21	287.47	18.44	-46.4	-47.9	19.6	0.00e+00	0	38	0	998244352	63	4502
2026-01-20 03:28:04.21	287.30	18.35	-46.5	-48.0	19.4	0.00e+00	0	38	0	1000341504	63	4582
2026-01-20 03:28:05.22	287.14	18.26	-46.5	-48.0	19.4	0.00e+00	0	38	0	1002438656	63	4552
2026-01-20 03:28:06.23	286.98	18.17	-46.4	-47.9	19.5	0.00e+00	0	38	0	1004535808	63	4503
2026-01-20 03:28:07.23	286.82	18.09	-46.5	-47.9	19.4	0.00e+00	0	38	0	1006632960	63	4541
2026-01-20 03:28:08.24	286.66	18.00	-46.5	-48.0	19.4	0.00e+00	0	38	0	1008730112	63	4574
2026-01-20 03:28:09.25	286.50	17.91	-46.6	-48.1	19.3	0.00e+00	0	38	0	1009778688	63	4601
2026-01-20 03:28:10.26	286.34	17.82	-46.6	-48.1	19.3	0.00e+00	0	38	0	1011875840	63	4629
2026-01-20 03:28:11.27	286.18	17.73	-46.6	-48.1	19.2	0.00e+00	0	39	0	1013972992	63	4646
2026-01-20 03:28:12.28	286.02	17.64	-46.6	-48.1	19.2	0.00e+00	0	38	0	1016070144	63	4649
2026-01-20 03:28:13.28	285.87	17.55	-46.5	-48.0	19.4	0.00e+00	0	38	0	1017118720	63	4548
2026-01-20 03:28:14.29	285.71	17.46	-46.5	-48.0	19.3	0.00e+00	0	38	0	1019215872	63	4573
2026-01-20 03:28:15.30	285.56	17.37	-46.4	-47.9	19.4	0.00e+00	0	38	0	1021313024	63	4519
2026-01-20 03:28:16.31	285.41	17.29	-46.6	-48.0	19.3	0.00e+00	0	38	0	1023410176	63	4593
2026-01-20 03:28:17.31	285.26	17.20	-46.5	-48.0	19.3	0.00e+00	0	38	0	1025507328	63	4595
2026-01-20 03:28:18.32	285.10	17.11	-46.5	-48.1	19.3	0.00e+00	0	38	0	1026555904	63	4603
2026-01-20 03:28:19.33	284.95	17.02	-46.7	-48.2	19.1	0.00e+00	0	38	0	1028653056	63	4702
2026-01-20 03:28:20.34	284.80	16.93	-46.7	-48.3	19.0	0.00e+00	0	38	0	1030750208	64	4477
2026-01-20 03:28:21.35	284.66	16.84	-46.7	-48.3	19.0	0.00e+00	0	38	0	1032847360	64	4445
2026-01-20 03:28:22.35	284.51	16.76	-46.7	-48.3	18.9	0.00e+00	0	38	0	1034944512	64	4483
2026-01-20 03:28:23.36	284.36	16.67	-46.8	-48.4	18.9	0.00e+00	0	38	0	1037041664	64	4501
2026-01-20 03:28:24.37	284.22	16.58	-46.8	-48.4	18.8	0.00e+00	0	38	0	1038090240	64	4525
2026-01-20 03:28:25.38	284.07	16.49	-46.8	-48.5	18.8	0.00e+00	0	38	0	1040187392	64	4548
2026-01-20 03:28:26.39	283.93	16.41	-46.8	-48.4	18.8	0.00e+00	0	38	0	1042284544	64	4529
2026-01-20 03:28:27.39	283.78	16.32	-46.8	-48.4	18.8	0.00e+00	0	38	0	1044381696	64	4530
2026-01-20 03:28:28.40	283.64	16.23	-46.8	-48.4	18.9	0.00e+00	0	38	0	1045430272	64	4503
2026-01-20 03:28:29.41	283.50	16.15	-46.9	-48.5	18.7	0.00e+00	0	38	0	1047527424	64	4574
2026-01-20 03:28:30.42	283.36	16.06	-46.9	-48.5	18.7	0.00e+00	0	38	0	1049624576	64	4560
2026-01-20 03:28:31.43	283.22	15.97	-46.9	-48.5	18.7	0.00e+00	0	38	0	1051721728	64	4574
2026-01-20 03:28:32.44	283.08	15.89	-46.9	-48.6	18.7	0.00e+00	0	38	0	1053818880	64	4610
2026-01-20 03:28:33.44	282.94	15.80	-46.8	-48.4	18.8	0.00e+00	0	38	0	1055916032	64	4543
2026-01-20 03:28:34.45	282.81	15.71	-46.9	-48.5	18.7	0.00e+00	0	38	0	1056964608	64	4582
2026-01-20 03:28:35.46	282.67	15.63	-47.0	-48.6	18.6	0.00e+00	0	38	0	1059061760	64	4623
2026-01-20 03:28:36.47	282.53	15.54	-47.1	-48.8	18.5	0.00e+00	0	38	0	1061158912	64	4714
2026-01-20 03:28:37.47	282.40	15.46	-47.1	-48.8	18.4	0.00e+00	0	38	0	1063256064	64	4725
2026-01-20 03:28:38.48	282.26	15.37	-47.1	-48.8	18.4	0.00e+00	0	38	0	1065353216	64	4737
2026-01-20 03:28:39.49	282.13	15.28	-47.1	-48.8	18.4	0.00e+00	0	38	0	1066401792	64	4757
2026-01-20 03:28:40.50	282.00	15.20	-47.1	-48.8	18.4	0.00e+00	0	38	0	1068498944	64	4730
2026-01-20 03:28:41.51	281.87	15.11	-47.1	-48.7	18.5	0.00e+00	0	38	0	1070596096	64	4698
2026-01-20 03:28:42.51	281.74	15.03	-47.0	-48.7	18.5	0.00e+00	0	38	0	1072693248	64	4678
2026-01-20 03:28:43.52	281.60	14.94	-47.1	-48.8	18.4	0.00e+00	0	38	0	1073741824	64	4749
2026-01-20 03:28:44.53	281.47	14.86	-47.1	-48.8	18.4	0.00e+00	0	38	0	1075838976	64	4717
2026-01-20 03:28:45.54	281.35	14.77	-47.2	-48.9	18.3	0.00e+00	0	38	0	1077936128	64	4801
2026-01-20 03:28:46.55	281.22	14.69	-47.2	-48.9	18.3	0.00e+00	0	38	0	1080033280	65	4528
2026-01-20 03:28:47.56	281.09	14.60	-47.3	-49.0	18.2	0.00e+00	0	38	0	1082130432	65	4586
2026-01-20 03:28:48.57	280.96	14.52	-47.4	-49.3	18.0	0.00e+00	0	38	0	1084227584	65	4707
2026-01-20 03:28:49.57	280.84	14.44	-47.5	-49.3	17.9	0.00e+00	0	38	0	1085276160	65	4734
2026-01-20 03:28:50.58	280.71	14.35	-47.6	-49.4	17.8	0.00e+00	0	38	0	1087373312	65	4797
2026-01-20 03:28:51.59	280.59	14.27	-47.6	-49.4	17.8	0.00e+00	0	38	0	1089470464	65	4802
2026-01-20 03:28:52.60	280.46	14.18	-47.6	-49.5	17.7	0.00e+00	0	38	0	1091567616	65	4853
2026-01-20 03:28:53.61	280.34	14.10	-47.7	-49.5	17.6	0.00e+00	0	38	0	1093664768	65	4868
2026-01-20 03:28:54.61	280.22	14.02	-47.7	-49.5	17.6	0.00e+00	0	38	0	1094713344	65	4861
2026-01-20 03:28:55.62	280.10	13.93	-47.7	-49.6	17.6	0.00e+00	0	38	0	1096810496	65	4909
2026-01-20 03:28:56.63	279.98	13.85	-47.9	-49.9	17.4	0.00e+00	0	38	0	1098907648	66	4768
2026-01-20 03:28:57.63	279.86	13.77	-47.9	-49.9	17.3	0.00e+00	0	38	0	1101004800	66	4797
2026-01-20 03:28:58.64	279.74	13.69	-48.0	-50.0	17.2	0.00e+00	0	38	0	1103101952	66	4821
2026-01-20 03:28:59.65	279.62	13.60	-48.1	-50.1	17.1	0.00e+00	0	38	0	1104150528	66	4893
2026-01-20 03:29:00.66	279.50	13.52	-47.9	-49.9	17.3	0.00e+00	0	38	0	1106247680	66	4782
2026-01-20 03:29:01.67	279.38	13.44	-47.9	-49.9	17.3	0.00e+00	0	38	0	1108344832	66	4764
2026-01-20 03:29:02.67	279.27	13.36	-47.9	-49.9	17.3	0.00e+00	0	38	0	1110441984	66	4808
2026-01-20 03:29:03.68	279.15	13.27	-48.0	-50.0	17.2	0.00e+00	0	38	0	1112539136	66	4839
2026-01-20 03:29:04.69	279.03	13.19	-47.9	-49.9	17.3	0.00e+00	0	38	0	1113587712	66	4796
2026-01-20 03:29:05.70	278.92	13.11	-47.9	-49.9	17.3	0.00e+00	0	39	0	1115684864	66	4790
2026-01-20 03:29:06.71	278.80	13.03	-48.0	-50.1	17.1	0.00e+00	0	38	0	1117782016	66	4876
2026-01-20 03:29:07.71	278.69	12.95	-47.9	-49.9	17.3	0.00e+00	0	38	0	1119879168	66	4769
2026-01-20 03:29:08.72	278.58	12.87	-47.9	-49.8	17.3	0.00e+00	0	38	0	1121976320	66	4754
2026-01-20 03:29:09.73	278.47	12.79	-47.8	-49.7	17.4	0.00e+00	0	39	0	1123024896	66	4689
2026-01-20 03:29:10.74	278.35	12.70	-47.8	-49.8	17.4	0.00e+00	0	38	0	1125122048	66	4721
2026-01-20 03:29:11.75	278.24	12.62	-47.8	-49.7	17.4	0.00e+00	0	38	0	1127219200	66	4693
2026-01-20 03:29:12.75	278.13	12.54	-47.9	-49.8	17.3	0.00e+00	0	38	0	1129316352	66	4756
2026-01-20 03:29:13.76	278.02	12.46	-48.0	-50.0	17.2	0.00e+00	0	38	0	1131413504	66	4823
2026-01-20 03:29:14.77	277.91	12.38	-47.8	-49.7	17.4	0.00e+00	0	38	0	1132462080	66	4693
2026-01-20 03:29:15.78	277.81	12.30	-47.8	-49.8	17.4	0.00e+00	0	38	0	1134559232	66	4719
2026-01-20 03:29:16.79	277.70	12.22	-48.0	-50.0	17.2	0.00e+00	0	38	0	1136656384	66	4833
2026-01-20 03:29:17.79	277.59	12.14	-47.9	-49.9	17.2	0.00e+00	0	38	0	1138753536	66	4806
2026-01-20 03:29:18.80	277.48	12.06	-47.9	-49.9	17.2	0.00e+00	0	38	0	1140850688	66	4809
2026-01-20 03:29:19.81	277.38	11.98	-48.0	-50.1	17.0	0.00e+00	0	38	0	1141899264	66	4893
2026-01-20 03:29:20.82	277.27	11.90	-48.0	-50.0	17.1	0.00e+00	0	38	0	1143996416	66	4846
2026-01-20 03:29:21.83	277.17	11.83	-48.0	-50.1	17.1	0.00e+00	0	38	0	1146093568	66	4874
2026-01-20 03:29:22.84	277.06	11.75	-48.0	-50.0	17.1	0.00e+00	0	38	0	1148190720	66	4861
2026-01-20 03:29:23.84	276.96	11.67	-47.9	-49.9	17.2	0.00e+00	0	38	0	1150287872	66	4801
2026-01-20 03:29:24.85	276.86	11.59	-48.1	-50.2	16.9	0.00e+00	0	38	0	1151336448	66	4936
2026-01-20 03:29:25.86	276.75	11.51	-47.9	-49.9	17.1	0.00e+00	0	38	0	1153433600	66	4799
2026-01-20 03:29:26.87	276.65	11.43	-47.9	-50.0	17.1	0.00e+00	0	38	0	1155530752	66	4823
2026-01-20 03:29:27.87	276.55	11.35	-48.0	-50.1	17.0	0.00e+00	0	38	0	1157627904	66	4886
2026-01-20 03:29:28.88	276.45	11.28	-48.1	-50.2	16.9	0.00e+00	0	38	0	1159725056	66	4927
2026-01-20 03:29:29.89	276.35	11.20	-48.2	-50.3	16.8	0.00e+00	0	38	0	1160773632	66	5009
2026-01-20 03:29:30.89	276.25	11.12	-48.2	-50.3	16.8	0.00e+00	0	39	0	1162870784	67	4750
2026-01-20 03:29:31.90	276.15	11.04	-48.2	-50.3	16.8	0.00e+00	0	38	0	1164967936	67	4727
2026-01-20 03:29:32.91	276.05	10.97	-48.3	-50.5	16.5	0.00e+00	0	38	0	1167065088	67	4848
2026-01-20 03:29:33.92	275.95	10.89	-48.3	-50.5	16.6	0.00e+00	0	38	0	1169162240	67	4832
2026-01-20 03:29:34.93	275.85	10.81	-48.4	-50.7	16.4	0.00e+00	0	38	0	1170210816	67	4929
2026-01-20 03:29:35.94	275.76	10.73	-48.4	-50.6	16.5	0.00e+00	0	38	0	1172307968	67	4893
2026-01-20 03:29:36.94	275.66	10.66	-48.4	-50.6	16.4	0.00e+00	0	38	0	1174405120	67	4915
2026-01-20 03:29:37.95	275.56	10.58	-48.3	-50.5	16.5	0.00e+00	0	38	0	1176502272	67	4866
2026-01-20 03:29:38.96	275.47	10.50	-48.3	-50.5	16.5	0.00e+00	0	38	0	1178599424	67	4852
2026-01-20 03:29:39.97	275.37	10.43	-48.2	-50.4	16.6	0.00e+00	0	38	0	1179648000	67	4788
2026-01-20 03:29:40.97	275.28	10.35	-48.4	-50.6	16.4	0.00e+00	0	38	0	1181745152	67	4899
2026-01-20 03:29:41.98	275.18	10.28	-48.4	-50.6	16.4	0.00e+00	0	39	0	1183842304	67	4883
2026-01-20 03:29:42.99	275.09	10.20	-48.4	-50.7	16.3	0.00e+00	0	38	0	1185939456	67	4945
2026-01-20 03:29:44.00	275.00	10.12	-48.4	-50.6	16.4	0.00e+00	0	38	0	1188036608	67	4912
2026-01-20 03:29:45.01	274.90	10.05	-48.5	-50.8	16.2	0.00e+00	0	38	0	1189085184	67	5032
2026-01-20 03:29:46.01	274.81	9.97	-48.5	-50.9	16.1	0.00e+00	0	38	0	1191182336	67	5042
2026-01-20 03:29:47.02	274.72	9.90	-48.6	-51.0	16.0	0.00e+00	0	38	0	1193279488	67	5125
2026-01-20 03:29:48.03	274.63	9.82	-48.9	-51.3	15.8	0.00e+00	0	38	0	1195376640	68	5034
2026-01-20 03:29:49.04	274.54	9.75	-48.9	-51.5	15.6	0.00e+00	0	39	0	1197473792	68	5114
2026-01-20 03:29:50.05	274.45	9.67	-49.0	-51.6	15.5	0.00e+00	0	38	0	1199570944	68	5190
2026-01-20 03:29:51.05	274.36	9.60	-49.0	-51.6	15.4	0.00e+00	0	38	0	1200619520	68	5182
2026-01-20 03:29:52.06	274.27	9.53	-49.0	-51.6	15.4	0.00e+00	0	38	0	1202716672	68	5192
2026-01-20 03:29:53.07	274.18	9.45	-48.9	-51.4	15.6	0.00e+00	0	38	0	1204813824	68	5096
2026-01-20 03:29:54.08	274.09	9.38	-48.8	-51.3	15.7	0.00e+00	0	38	0	1206910976	68	5016
2026-01-20 03:29:55.09	274.00	9.30	-48.8	-51.2	15.9	0.00e+00	0	38	0	1207959552	68	4941
2026-01-20 03:29:56.09	273.92	9.23	-48.7	-51.1	16.0	0.00e+00	0	38	0	1210056704	68	4873
2026-01-20 03:29:57.10	273.83	9.16	-48.6	-51.0	16.1	0.00e+00	0	38	0	1212153856	68	4828
2026-01-20 03:29:58.11	273.74	9.08	-48.6	-50.9	16.1	0.00e+00	0	38	0	1214251008	68	4810
2026-01-20 03:29:59.12	273.66	9.01	-48.5	-50.9	16.2	0.00e+00	0	38	0	1216348160	68	4764
2026-01-20 03:30:00.12	273.57	8.94	-48.6	-50.9	16.1	0.00e+00	0	38	0	1217396736	68	4805
2026-01-20 03:30:01.13	273.49	8.86	-48.5	-50.9	16.1	0.00e+00	0	38	0	1219493888	68	4772
2026-01-20 03:30:02.14	273.40	8.79	-48.7	-51.1	16.0	0.00e+00	0	38	0	1221591040	68	4871
2026-01-20 03:30:03.15	273.32	8.72	-48.7	-51.2	15.8	0.00e+00	0	38	0	1223688192	68	4952
2026-01-20 03:30:04.16	273.23	8.64	-48.5	-50.9	16.1	0.00e+00	0	39	0	1225785344	68	4767
2026-01-20 03:30:05.16	273.15	8.57	-48.6	-51.1	15.9	0.00e+00	0	38	0	1227882496	68	4874
2026-01-20 03:30:06.17	273.07	8.50	-48.9	-51.4	15.6	0.00e+00	0	38	0	1228931072	68	5071
