passes_logs/2026/01/20/R3.2S_Murmansk/R3.2S_Murmansk__20260120_214549_JL1KF02B06_rec.log

#Pass ID: 20260120_214549_JL1KF02B06
#Satellite: JL1KF02B06
#Configuration: 01B_900M
#almurnet v.1.7.20251203
#Start time: 2026-01-20 21:45:49

#Version: 2.2.20231116
#Station: R3.2S_Murmansk
#Location: 33.079688 lon 68.888172 lat
#TLE: 1 61192U 24169D   26019.96962642  .00006246  00000+0  39251-3 0  9993
#TLE: 2 61192  97.5635 111.0833 0007142  89.5016 270.7032 15.09582421 73475

#Time	Az	El	Level	Level2	SNR	BER	BlckErr	Temp	State	Recorded	gain1	gain2
2026-01-20 21:45:49.99	211.65	2.05	-54.3	-56.4	6.2	0.00e+00	0	41	0	0	79	19188
2026-01-20 21:45:50.96	211.74	2.10	-54.3	-56.5	6.2	0.00e+00	0	40	104	0	80	18311
2026-01-20 21:45:51.93	211.83	2.16	-54.3	-56.4	6.2	0.00e+00	0	41	104	0	80	18088
2026-01-20 21:45:52.90	211.92	2.22	-54.2	-56.4	6.2	0.00e+00	0	40	104	0	80	18087
2026-01-20 21:45:53.87	212.02	2.28	-54.2	-56.3	6.2	0.00e+00	0	40	104	0	80	17962
2026-01-20 21:45:54.84	212.11	2.34	-54.1	-56.3	6.2	0.00e+00	0	41	104	0	80	17820
2026-01-20 21:45:55.81	212.20	2.39	-54.1	-56.2	6.2	0.00e+00	0	41	104	0	80	17706
2026-01-20 21:45:56.78	212.29	2.45	-54.1	-56.2	6.2	0.00e+00	0	40	104	0	80	17632
2026-01-20 21:45:57.75	212.38	2.51	-54.0	-56.1	6.2	0.00e+00	0	40	104	0	80	17560
2026-01-20 21:45:58.72	212.48	2.57	-54.0	-56.1	6.2	0.00e+00	0	41	104	0	80	17436
2026-01-20 21:45:59.68	212.57	2.63	-54.0	-56.2	6.2	0.00e+00	0	41	104	0	79	18650
2026-01-20 21:46:00.65	212.66	2.69	-54.0	-56.1	6.2	0.00e+00	0	41	104	0	79	18456
2026-01-20 21:46:01.62	212.76	2.75	-53.9	-56.1	6.2	0.00e+00	0	41	104	0	79	18399
2026-01-20 21:46:02.59	212.85	2.81	-53.8	-55.9	6.2	0.00e+00	0	41	104	0	79	18170
2026-01-20 21:46:03.56	212.95	2.86	-53.8	-55.9	6.2	0.00e+00	0	41	104	0	79	18002
2026-01-20 21:46:04.53	213.04	2.92	-53.7	-55.8	6.2	0.00e+00	0	41	104	0	79	17957
2026-01-20 21:46:05.50	213.14	2.98	-53.6	-55.7	6.2	0.00e+00	0	41	104	0	79	17737
2026-01-20 21:46:06.47	213.23	3.04	-53.4	-55.5	6.2	0.00e+00	0	41	104	0	78	18384
2026-01-20 21:46:07.44	213.33	3.10	-53.2	-55.3	6.2	0.00e+00	0	41	104	0	78	17963
2026-01-20 21:46:08.41	213.43	3.16	-52.9	-55.0	6.2	0.00e+00	0	41	104	0	77	18284
2026-01-20 21:46:09.38	213.53	3.22	-52.8	-55.0	6.2	0.00e+00	0	41	104	0	77	18223
2026-01-20 21:46:10.35	213.63	3.28	-52.8	-55.0	6.2	0.00e+00	0	41	104	0	77	18306
2026-01-20 21:46:11.32	213.72	3.34	-52.8	-55.0	6.2	0.00e+00	0	41	104	0	77	18209
2026-01-20 21:46:12.29	213.82	3.40	-52.8	-55.0	6.2	0.00e+00	0	41	104	0	77	18247
2026-01-20 21:46:13.25	213.92	3.46	-52.8	-55.0	6.2	0.00e+00	0	41	104	0	77	18207
2026-01-20 21:46:14.22	214.02	3.52	-52.8	-55.0	6.2	0.00e+00	0	41	104	0	77	18187
2026-01-20 21:46:15.19	214.12	3.58	-52.8	-54.9	6.2	0.00e+00	0	41	104	0	77	18178
2026-01-20 21:46:16.17	214.23	3.64	-52.8	-54.9	6.2	0.00e+00	0	41	104	0	77	18150
2026-01-20 21:46:17.14	214.33	3.71	-52.8	-54.9	6.2	0.00e+00	0	41	104	0	77	18155
2026-01-20 21:46:18.10	214.43	3.77	-52.8	-54.9	6.2	0.00e+00	0	41	104	0	77	18161
2026-01-20 21:46:19.07	214.53	3.83	-52.8	-55.0	6.2	0.00e+00	0	41	104	0	77	18229
2026-01-20 21:46:20.04	214.64	3.89	-52.8	-54.9	6.2	0.00e+00	0	41	104	0	77	18173
2026-01-20 21:46:21.01	214.74	3.95	-52.8	-55.0	6.2	0.00e+00	0	41	104	0	77	18189
2026-01-20 21:46:21.98	214.84	4.01	-52.8	-55.0	6.2	0.00e+00	0	41	104	0	77	18204
2026-01-20 21:46:22.95	214.95	4.07	-52.8	-54.9	6.2	0.00e+00	0	41	104	0	77	18141
2026-01-20 21:46:23.92	215.06	4.13	-52.8	-54.9	6.2	0.00e+00	0	41	104	0	77	18178
2026-01-20 21:46:24.88	215.16	4.19	-52.8	-54.9	6.2	0.00e+00	0	41	104	0	77	18162
2026-01-20 21:46:25.85	215.27	4.26	-52.8	-55.0	6.2	0.00e+00	0	41	104	0	77	18180
2026-01-20 21:46:26.82	215.37	4.32	-52.8	-55.0	6.2	0.00e+00	0	41	104	0	77	18189
2026-01-20 21:46:27.79	215.48	4.38	-52.8	-54.9	6.2	0.00e+00	0	41	104	0	77	18115
2026-01-20 21:46:28.77	215.59	4.44	-52.8	-55.0	6.2	0.00e+00	0	41	104	0	77	18183
2026-01-20 21:46:29.74	215.70	4.51	-52.8	-55.0	6.2	0.00e+00	0	41	104	0	77	18207
2026-01-20 21:46:30.72	215.81	4.57	-52.8	-54.9	6.2	0.00e+00	0	41	104	0	77	18114
2026-01-20 21:46:31.69	215.92	4.63	-52.8	-54.9	6.2	0.00e+00	0	41	104	0	77	18132
2026-01-20 21:46:32.65	216.03	4.69	-52.8	-54.9	6.2	0.00e+00	0	42	104	0	77	18124
2026-01-20 21:46:33.63	216.14	4.76	-52.8	-54.9	6.2	0.00e+00	0	41	104	0	77	18155
2026-01-20 21:46:34.60	216.25	4.82	-52.8	-54.9	6.2	0.00e+00	0	42	104	0	77	18099
2026-01-20 21:46:35.57	216.36	4.88	-52.8	-54.9	6.2	0.00e+00	0	42	104	0	77	18169
2026-01-20 21:46:36.54	216.48	4.94	-52.8	-54.9	6.2	0.00e+00	0	41	104	0	77	18037
2026-01-20 21:46:37.51	216.59	5.01	-52.8	-54.9	6.2	0.00e+00	0	41	104	0	77	18064
2026-01-20 21:46:38.48	216.70	5.07	-52.8	-55.0	6.2	0.00e+00	0	41	104	0	77	18239
2026-01-20 21:46:39.46	216.82	5.13	-52.9	-55.0	6.2	0.00e+00	0	42	104	0	77	18331
2026-01-20 21:46:40.43	216.93	5.20	-52.8	-55.0	6.2	0.00e+00	0	42	104	0	77	18187
2026-01-20 21:46:41.41	217.05	5.26	-52.8	-54.9	6.2	0.00e+00	0	41	104	0	77	18056
2026-01-20 21:46:42.38	217.17	5.33	-52.7	-54.9	6.2	0.00e+00	0	41	104	0	77	18026
2026-01-20 21:46:43.35	217.28	5.39	-52.9	-55.0	6.2	0.00e+00	0	42	104	0	77	18380
2026-01-20 21:46:44.31	217.40	5.45	-52.8	-55.0	6.2	0.00e+00	0	42	104	0	77	18223
2026-01-20 21:46:45.28	217.52	5.52	-52.8	-54.9	6.2	0.00e+00	0	41	104	0	77	18120
2026-01-20 21:46:46.26	217.64	5.58	-52.7	-54.9	6.2	0.00e+00	0	42	104	0	77	18068
2026-01-20 21:46:47.23	217.76	5.65	-52.9	-55.1	6.2	0.00e+00	0	42	104	0	77	18419
2026-01-20 21:46:48.20	217.88	5.71	-52.8	-55.0	6.2	0.00e+00	0	41	104	0	77	18238
2026-01-20 21:46:49.16	218.00	5.77	-52.8	-55.0	6.2	0.00e+00	0	42	104	0	77	18182
2026-01-20 21:46:50.13	218.12	5.84	-52.7	-54.9	6.2	0.00e+00	0	42	104	0	77	18093
2026-01-20 21:46:51.10	218.24	5.90	-52.9	-55.1	6.2	0.00e+00	0	42	104	0	77	18465
2026-01-20 21:46:52.08	218.36	5.97	-52.9	-55.0	6.2	0.00e+00	0	42	104	0	77	18258
2026-01-20 21:46:53.04	218.48	6.03	-52.8	-55.0	6.2	0.00e+00	0	42	104	0	77	18238
2026-01-20 21:46:54.01	218.61	6.10	-52.8	-54.9	6.2	0.00e+00	0	42	104	0	77	18120
2026-01-20 21:46:54.98	218.73	6.16	-52.9	-55.1	6.2	0.00e+00	0	42	104	0	77	18421
2026-01-20 21:46:55.95	218.86	6.23	-52.9	-55.0	6.2	0.00e+00	0	42	104	0	77	18303
2026-01-20 21:46:56.92	218.98	6.30	-52.8	-55.0	6.2	0.00e+00	0	42	104	0	77	18303
2026-01-20 21:46:57.89	219.11	6.36	-52.8	-55.0	6.2	0.00e+00	0	42	104	0	77	18213
2026-01-20 21:46:58.86	219.24	6.43	-52.9	-55.1	6.2	0.00e+00	0	42	104	0	77	18427
2026-01-20 21:46:59.82	219.36	6.49	-52.9	-55.1	6.2	0.00e+00	0	42	104	0	77	18400
2026-01-20 21:47:00.79	219.49	6.56	-52.9	-55.0	6.2	0.00e+00	0	42	104	0	77	18332
2026-01-20 21:47:01.76	219.62	6.62	-52.8	-54.9	6.2	0.00e+00	0	42	104	0	77	18168
2026-01-20 21:47:02.73	219.75	6.69	-52.9	-55.1	6.2	0.00e+00	0	42	104	0	77	18433
2026-01-20 21:47:03.70	219.88	6.76	-52.9	-55.1	6.2	0.00e+00	0	42	104	0	77	18408
2026-01-20 21:47:04.67	220.01	6.82	-52.9	-55.0	6.2	0.00e+00	0	42	104	0	77	18369
2026-01-20 21:47:05.64	220.14	6.89	-52.8	-55.0	6.2	0.00e+00	0	42	104	0	77	18285
2026-01-20 21:47:06.61	220.28	6.95	-52.9	-55.0	6.2	0.00e+00	0	42	104	0	77	18369
2026-01-20 21:47:07.58	220.41	7.02	-52.9	-55.1	6.2	0.00e+00	0	42	104	0	77	18450
2026-01-20 21:47:08.55	220.54	7.09	-52.9	-55.1	6.2	0.00e+00	0	42	104	0	77	18419
2026-01-20 21:47:09.52	220.68	7.16	-52.8	-55.0	6.2	0.00e+00	0	42	104	0	77	18320
2026-01-20 21:47:10.49	220.81	7.22	-52.9	-55.1	6.2	0.00e+00	0	42	104	0	77	18433
2026-01-20 21:47:11.46	220.95	7.29	-53.0	-55.1	6.2	0.00e+00	0	42	104	0	77	18479
2026-01-20 21:47:12.43	221.09	7.36	-52.9	-55.1	6.2	0.00e+00	0	42	104	0	77	18442
2026-01-20 21:47:13.40	221.22	7.42	-52.9	-55.1	6.2	0.00e+00	0	42	104	0	77	18418
2026-01-20 21:47:14.37	221.36	7.49	-52.9	-55.0	6.2	0.00e+00	0	42	104	0	77	18369
2026-01-20 21:47:15.34	221.50	7.56	-53.0	-55.1	6.2	0.00e+00	0	42	104	0	77	18533
2026-01-20 21:47:16.30	221.64	7.63	-52.9	-55.1	6.2	0.00e+00	0	42	104	0	77	18460
2026-01-20 21:47:17.28	221.78	7.69	-52.9	-55.1	6.2	0.00e+00	0	42	104	0	77	18445
2026-01-20 21:47:18.24	221.92	7.76	-52.9	-55.0	6.2	0.00e+00	0	42	104	0	77	18362
2026-01-20 21:47:19.21	222.06	7.83	-53.0	-55.2	6.2	0.00e+00	0	42	104	0	77	18668
2026-01-20 21:47:20.18	222.21	7.90	-53.0	-55.1	6.2	0.00e+00	0	42	104	0	77	18491
2026-01-20 21:47:21.15	222.35	7.97	-52.9	-55.1	6.2	0.00e+00	0	42	104	0	77	18515
2026-01-20 21:47:22.12	222.50	8.03	-52.9	-55.1	6.2	0.00e+00	0	42	104	0	77	18444
2026-01-20 21:47:23.09	222.64	8.10	-53.0	-55.1	6.2	0.00e+00	0	42	104	0	77	18576
2026-01-20 21:47:24.05	222.79	8.17	-53.0	-55.1	6.2	0.00e+00	0	42	104	0	77	18549
2026-01-20 21:47:25.02	222.93	8.24	-53.0	-55.1	6.2	0.00e+00	0	42	104	0	77	18467
2026-01-20 21:47:26.00	223.08	8.31	-52.9	-55.1	6.2	0.00e+00	0	42	104	0	77	18464
2026-01-20 21:47:26.97	223.23	8.38	-53.0	-55.2	6.2	0.00e+00	0	42	104	0	77	18635
2026-01-20 21:47:27.94	223.38	8.45	-53.0	-55.1	6.2	0.00e+00	0	42	104	0	77	18572
2026-01-20 21:47:28.91	223.53	8.51	-53.0	-55.1	6.2	0.00e+00	0	42	104	0	77	18530
2026-01-20 21:47:29.87	223.68	8.58	-52.9	-55.1	6.2	0.00e+00	0	42	104	0	77	18493
2026-01-20 21:47:30.84	223.83	8.65	-53.0	-55.2	6.2	0.00e+00	0	42	104	0	77	18641
2026-01-20 21:47:31.81	223.99	8.72	-52.9	-55.0	6.2	0.00e+00	0	42	104	0	77	18284
2026-01-20 21:47:32.78	224.14	8.79	-50.1	-51.0	6.6	0.00e+00	0	42	104	0	70	17217
2026-01-20 21:47:33.75	224.29	8.86	-50.1	-51.1	6.6	0.00e+00	0	42	104	0	71	16429
2026-01-20 21:47:34.72	224.45	8.93	-51.9	-53.5	6.3	0.00e+00	0	42	104	0	74	18346
2026-01-20 21:47:35.68	224.60	9.00	-50.8	-52.0	6.4	0.00e+00	0	42	104	0	73	16284
2026-01-20 21:47:36.65	224.76	9.07	-49.7	-50.6	6.7	0.00e+00	0	42	104	0	71	15630
2026-01-20 21:47:37.62	224.92	9.14	-49.7	-50.6	6.7	0.00e+00	0	42	104	0	71	15496
2026-01-20 21:47:38.59	225.08	9.21	-49.9	-50.9	6.6	0.00e+00	0	42	104	0	71	16086
2026-01-20 21:47:39.55	225.24	9.28	-49.5	-50.4	6.7	0.00e+00	0	42	104	0	71	15215
2026-01-20 21:47:40.52	225.40	9.35	-50.5	-51.6	6.5	0.00e+00	0	42	104	0	71	17453
2026-01-20 21:47:41.49	225.56	9.42	-52.2	-53.9	6.2	0.00e+00	0	42	104	0	76	16976
2026-01-20 21:47:42.46	225.72	9.49	-50.4	-51.5	6.4	0.00e+00	0	42	104	0	72	16250
2026-01-20 21:47:43.43	225.88	9.56	-51.5	-52.9	6.3	0.00e+00	0	42	104	0	74	17023
2026-01-20 21:47:44.40	226.05	9.63	-50.6	-51.8	6.5	0.00e+00	0	42	104	0	73	15851
2026-01-20 21:47:45.37	226.21	9.70	-50.7	-51.9	6.5	0.00e+00	0	42	104	0	73	16060
2026-01-20 21:47:46.34	226.38	9.77	-50.7	-51.8	6.5	0.00e+00	0	42	104	0	73	15959
2026-01-20 21:47:47.31	226.55	9.84	-50.8	-51.9	6.5	0.00e+00	0	42	104	0	73	16147
2026-01-20 21:47:48.28	226.71	9.91	-28.8	-28.7	17.8	9.50e-06	0	42	104	0	29	14004
2026-01-20 21:47:49.25	226.88	9.98	-42.7	-42.7	11.2	1.71e-02	0	42	0	92274688	57	13985
2026-01-20 21:47:50.22	227.05	10.05	-29.1	-28.9	17.9	1.90e-06	0	42	0	209715200	30	13574
2026-01-20 21:47:51.19	227.22	10.12	-34.9	-34.7	15.9	8.58e-05	0	42	0	318767104	41	14061
2026-01-20 21:47:52.16	227.40	10.19	-28.5	-28.4	17.9	0.00e+00	0	42	0	419430400	29	13478
2026-01-20 21:47:53.13	227.57	10.26	-28.2	-28.0	18.2	1.90e-06	0	42	0	536870912	28	13753
2026-01-20 21:47:54.10	227.74	10.34	-28.0	-27.8	18.3	0.00e+00	0	42	0	645922816	27	14216
2026-01-20 21:47:55.07	227.92	10.41	-28.1	-27.9	18.2	0.00e+00	0	43	0	746586112	27	14359
2026-01-20 21:47:56.04	228.09	10.48	-27.8	-27.7	18.3	0.00e+00	0	42	0	864026624	27	13989
2026-01-20 21:47:57.01	228.27	10.55	-27.8	-27.7	18.4	0.00e+00	0	42	0	973078528	27	13975
2026-01-20 21:47:57.97	228.45	10.62	-27.9	-27.7	18.3	0.00e+00	0	43	0	1073741824	27	14071
2026-01-20 21:47:58.94	228.62	10.69	-27.7	-27.5	18.4	0.00e+00	0	42	0	1191182336	27	13719
2026-01-20 21:47:59.92	228.81	10.76	-27.7	-27.6	18.4	0.00e+00	0	43	0	1300234240	27	13804
2026-01-20 21:48:00.88	228.98	10.83	-27.6	-27.4	18.4	0.00e+00	0	43	0	1400897536	27	13631
2026-01-20 21:48:01.85	229.17	10.91	-27.7	-27.5	18.3	1.90e-06	0	43	0	1509949440	27	13790
2026-01-20 21:48:02.83	229.35	10.98	-27.8	-27.6	18.3	0.00e+00	0	42	0	1627389952	27	13938
2026-01-20 21:48:03.79	229.53	11.05	-27.9	-27.7	18.3	1.90e-06	0	42	0	1736441856	27	14048
2026-01-20 21:48:04.76	229.72	11.12	-27.8	-27.6	18.3	0.00e+00	0	42	0	1837105152	27	13884
2026-01-20 21:48:05.73	229.90	11.19	-27.6	-27.4	18.3	0.00e+00	0	42	0	1954545664	27	13617
2026-01-20 21:48:06.70	230.09	11.26	-27.6	-27.5	18.3	0.00e+00	0	42	0	2063597568	27	13662
2026-01-20 21:48:07.67	230.28	11.33	-27.6	-27.4	18.2	0.00e+00	0	43	0	2164260864	27	13608
2026-01-20 21:48:08.64	230.47	11.41	-27.4	-27.2	18.3	0.00e+00	0	43	0	2281701376	26	14044
2026-01-20 21:48:09.61	230.66	11.48	-27.5	-27.3	18.3	1.90e-06	0	43	0	2390753280	26	14186
2026-01-20 21:48:10.58	230.85	11.55	-27.4	-27.3	18.2	0.00e+00	0	43	0	2491416576	26	14149
2026-01-20 21:48:11.55	231.04	11.62	-27.2	-27.1	18.3	0.00e+00	0	43	0	2608857088	26	13839
2026-01-20 21:48:12.52	231.24	11.69	-27.3	-27.1	18.2	1.90e-06	0	43	0	2717908992	26	13863
2026-01-20 21:48:13.49	231.43	11.77	-27.4	-27.2	18.1	0.00e+00	0	43	0	2818572288	26	14057
2026-01-20 21:48:14.45	231.62	11.84	-27.3	-27.1	18.1	0.00e+00	0	43	0	2927624192	26	13935
2026-01-20 21:48:15.42	231.82	11.91	-27.3	-27.2	18.2	1.90e-06	0	43	0	3045064704	26	13995
2026-01-20 21:48:16.39	232.02	11.98	-27.2	-27.1	18.3	0.00e+00	0	43	0	3154116608	26	13847
2026-01-20 21:48:17.36	232.22	12.05	-27.4	-27.2	18.3	0.00e+00	0	43	0	3254779904	26	14025
2026-01-20 21:48:18.33	232.42	12.12	-27.1	-27.0	18.3	1.90e-06	0	43	0	3372220416	26	13647
2026-01-20 21:48:19.30	232.62	12.19	-27.1	-27.0	18.2	0.00e+00	0	43	0	3481272320	26	13684
2026-01-20 21:48:20.27	232.82	12.27	-27.2	-27.0	18.1	0.00e+00	0	43	0	3581935616	26	13707
2026-01-20 21:48:21.24	233.02	12.34	-27.1	-26.9	18.1	0.00e+00	0	43	0	3699376128	26	13581
2026-01-20 21:48:22.21	233.23	12.41	-27.0	-26.9	18.1	0.00e+00	0	43	0	3808428032	26	13525
2026-01-20 21:48:23.18	233.44	12.48	-26.9	-26.7	18.2	0.00e+00	0	43	0	3909091328	25	14042
2026-01-20 21:48:24.15	233.64	12.55	-26.8	-26.7	18.3	0.00e+00	0	43	0	4026531840	25	14006
2026-01-20 21:48:25.12	233.85	12.62	-27.0	-26.8	18.2	0.00e+00	0	43	0	4135583744	25	14269
2026-01-20 21:48:26.09	234.06	12.70	-26.9	-26.7	18.0	0.00e+00	0	43	0	4244635648	25	14100
2026-01-20 21:48:27.06	234.27	12.77	-26.8	-26.7	18.0	0.00e+00	0	43	0	4345298944	25	13990
2026-01-20 21:48:28.03	234.48	12.84	-26.7	-26.6	18.2	0.00e+00	0	43	0	4462739456	25	13806
2026-01-20 21:48:29.00	234.69	12.91	-26.8	-26.7	18.1	0.00e+00	0	43	0	4571791360	25	14012
2026-01-20 21:48:29.97	234.91	12.98	-26.8	-26.6	18.1	1.90e-06	0	43	0	4672454656	25	13881
2026-01-20 21:48:30.95	235.13	13.05	-26.8	-26.7	18.2	1.90e-06	0	43	0	4789895168	25	13983
2026-01-20 21:48:31.92	235.34	13.13	-26.8	-26.6	18.1	0.00e+00	0	43	0	4898947072	25	13926
2026-01-20 21:48:32.89	235.56	13.20	-26.7	-26.5	18.1	0.00e+00	0	43	0	5016387584	25	13751
2026-01-20 21:48:33.86	235.78	13.27	-26.7	-26.6	18.2	0.00e+00	0	43	0	5117050880	25	13834
2026-01-20 21:48:34.82	236.00	13.34	-26.8	-26.6	18.2	0.00e+00	0	43	0	5226102784	25	13940
2026-01-20 21:48:35.79	236.22	13.41	-26.9	-26.7	18.1	0.00e+00	0	43	0	5335154688	25	14072
2026-01-20 21:48:36.76	236.44	13.48	-26.8	-26.6	17.9	0.00e+00	0	43	0	5444206592	25	13940
2026-01-20 21:48:37.73	236.66	13.55	-26.7	-26.5	18.0	0.00e+00	0	43	0	5553258496	25	13720
2026-01-20 21:48:38.70	236.89	13.62	-26.6	-26.5	18.2	0.00e+00	0	43	0	5662310400	25	13677
2026-01-20 21:48:39.67	237.11	13.69	-26.6	-26.5	18.0	0.00e+00	0	43	0	5762973696	25	13667
2026-01-20 21:48:40.64	237.34	13.76	-26.7	-26.6	18.1	0.00e+00	0	43	0	5880414208	25	13802
2026-01-20 21:48:41.61	237.57	13.83	-26.6	-26.4	18.2	0.00e+00	0	43	0	5989466112	25	13541
2026-01-20 21:48:42.58	237.80	13.90	-26.6	-26.4	18.2	0.00e+00	0	43	0	6090129408	25	13593
2026-01-20 21:48:43.55	238.03	13.97	-26.6	-26.4	18.3	0.00e+00	0	43	0	6207569920	25	13607
2026-01-20 21:48:44.53	238.26	14.04	-26.6	-26.4	18.1	0.00e+00	0	43	0	6316621824	25	13568
2026-01-20 21:48:45.50	238.50	14.11	-26.5	-26.4	18.2	0.00e+00	0	43	0	6434062336	25	13477
2026-01-20 21:48:46.47	238.73	14.18	-26.5	-26.3	18.1	0.00e+00	0	43	0	6534725632	25	13435
2026-01-20 21:48:47.44	238.97	14.25	-26.5	-26.4	18.1	0.00e+00	0	43	0	6643777536	25	13531
2026-01-20 21:48:48.40	239.20	14.32	-26.4	-26.3	18.1	0.00e+00	0	43	0	6752829440	24	14131
2026-01-20 21:48:49.37	239.44	14.39	-26.6	-26.4	18.0	0.00e+00	0	43	0	6853492736	24	14414
2026-01-20 21:48:50.34	239.68	14.46	-26.7	-26.6	18.0	0.00e+00	0	43	0	6970933248	24	14641
2026-01-20 21:48:51.31	239.92	14.53	-26.5	-26.3	17.9	0.00e+00	0	43	0	7079985152	24	14273
2026-01-20 21:48:52.28	240.17	14.60	-26.5	-26.3	18.0	0.00e+00	0	43	0	7180648448	24	14261
2026-01-20 21:48:53.25	240.41	14.67	-26.3	-26.2	18.2	0.00e+00	0	43	0	7298088960	24	14015
2026-01-20 21:48:54.21	240.65	14.73	-26.4	-26.3	17.9	0.00e+00	0	43	0	7407140864	24	14139
2026-01-20 21:48:55.18	240.90	14.80	-26.3	-26.1	17.8	0.00e+00	0	43	0	7507804160	24	13910
2026-01-20 21:48:56.15	241.14	14.87	-26.3	-26.1	18.1	1.90e-06	0	43	0	7625244672	24	13891
2026-01-20 21:48:57.12	241.39	14.94	-26.3	-26.1	18.0	0.00e+00	0	43	0	7734296576	24	13927
2026-01-20 21:48:58.10	241.65	15.01	-26.2	-26.0	18.0	0.00e+00	0	43	0	7851737088	24	13779
2026-01-20 21:48:59.07	241.90	15.07	-26.3	-26.1	17.8	0.00e+00	0	43	0	7952400384	24	13876
2026-01-20 21:49:00.04	242.15	15.14	-26.3	-26.1	17.8	0.00e+00	0	43	0	8061452288	24	13945
2026-01-20 21:49:01.01	242.40	15.21	-26.3	-26.2	17.7	0.00e+00	0	43	0	8170504192	24	13982
2026-01-20 21:49:01.98	242.66	15.27	-26.3	-26.2	17.7	0.00e+00	0	43	0	8271167488	24	14002
2026-01-20 21:49:02.94	242.91	15.34	-26.2	-26.0	17.5	0.00e+00	0	43	0	8388608000	24	13681
2026-01-20 21:49:03.91	243.17	15.41	-26.2	-26.0	17.7	0.00e+00	0	43	0	8497659904	24	13691
2026-01-20 21:49:04.89	243.43	15.47	-26.1	-26.0	17.6	0.00e+00	0	43	0	8598323200	24	13643
2026-01-20 21:49:05.85	243.69	15.54	-26.2	-26.1	17.8	0.00e+00	0	43	0	8715763712	24	13820
2026-01-20 21:49:06.83	243.95	15.60	-26.1	-25.9	17.7	0.00e+00	0	43	0	8824815616	24	13571
2026-01-20 21:49:07.80	244.22	15.67	-26.1	-26.0	17.4	0.00e+00	0	43	0	8942256128	24	13687
2026-01-20 21:49:08.76	244.48	15.73	-26.1	-25.9	17.5	0.00e+00	0	43	0	9042919424	24	13532
2026-01-20 21:49:09.73	244.74	15.80	-26.1	-25.9	17.5	0.00e+00	0	43	0	9151971328	24	13559
2026-01-20 21:49:10.70	245.01	15.86	-25.9	-25.8	17.5	0.00e+00	0	43	0	9261023232	23	14143
2026-01-20 21:49:11.67	245.28	15.92	-26.0	-25.8	17.5	1.90e-06	0	43	0	9370075136	23	14262
2026-01-20 21:49:12.64	245.55	15.99	-26.0	-25.9	17.3	0.00e+00	0	43	0	9479127040	23	14329
2026-01-20 21:49:13.62	245.82	16.05	-26.0	-25.8	17.2	0.00e+00	0	43	0	9588178944	23	14213
2026-01-20 21:49:14.58	246.09	16.11	-26.0	-25.9	17.5	0.00e+00	0	43	0	9688842240	23	14279
2026-01-20 21:49:15.56	246.37	16.18	-25.9	-25.7	17.4	0.00e+00	0	43	0	9806282752	23	13992
2026-01-20 21:49:16.52	246.64	16.24	-25.9	-25.8	17.3	0.00e+00	0	43	0	9915334656	23	14116
2026-01-20 21:49:17.49	246.91	16.30	-25.9	-25.8	17.4	0.00e+00	0	43	0	10032775168	23	14148
2026-01-20 21:49:18.46	247.19	16.36	-25.8	-25.6	17.4	0.00e+00	0	43	0	10133438464	23	13929
2026-01-20 21:49:19.43	247.47	16.42	-25.8	-25.6	17.1	0.00e+00	0	43	0	10242490368	23	13910
2026-01-20 21:49:20.40	247.75	16.48	-25.8	-25.7	17.0	0.00e+00	0	43	0	10359930880	23	13966
2026-01-20 21:49:21.36	248.03	16.54	-25.6	-25.5	17.2	1.90e-06	0	43	0	10460594176	23	13679
2026-01-20 21:49:22.33	248.31	16.60	-25.7	-25.5	17.5	0.00e+00	0	43	0	10569646080	23	13790
2026-01-20 21:49:23.30	248.59	16.66	-25.8	-25.6	17.3	0.00e+00	0	43	0	10678697984	23	13856
2026-01-20 21:49:24.27	248.87	16.72	-25.7	-25.5	16.8	0.00e+00	0	43	0	10787749888	23	13761
2026-01-20 21:49:25.24	249.16	16.78	-25.6	-25.5	17.1	0.00e+00	0	43	0	10896801792	23	13635
2026-01-20 21:49:26.21	249.45	16.84	-25.6	-25.4	17.3	0.00e+00	0	43	0	11005853696	23	13593
2026-01-20 21:49:27.18	249.74	16.89	-25.5	-25.3	16.8	0.00e+00	0	43	0	11106516992	23	13476
2026-01-20 21:49:28.15	250.03	16.95	-25.6	-25.4	16.9	0.00e+00	0	43	0	11223957504	23	13558
2026-01-20 21:49:29.11	250.31	17.01	-25.6	-25.4	17.4	0.00e+00	0	43	0	11333009408	23	13610
2026-01-20 21:49:30.08	250.60	17.06	-25.6	-25.4	17.1	0.00e+00	0	43	0	11433672704	23	13611
2026-01-20 21:49:31.05	250.90	17.12	-25.6	-25.4	17.0	0.00e+00	0	43	0	11551113216	23	13587
2026-01-20 21:49:32.02	251.19	17.17	-25.5	-25.3	17.0	0.00e+00	0	43	0	11660165120	23	13453
2026-01-20 21:49:32.98	251.48	17.23	-25.5	-25.3	16.6	0.00e+00	0	43	0	11760828416	23	13422
2026-01-20 21:49:33.95	251.78	17.28	-25.5	-25.4	17.1	0.00e+00	0	43	0	11878268928	22	14346
2026-01-20 21:49:34.92	252.08	17.33	-25.5	-25.3	17.0	0.00e+00	0	43	0	11987320832	22	14206
2026-01-20 21:49:35.89	252.38	17.39	-25.4	-25.3	16.7	0.00e+00	0	43	0	12096372736	22	14176
2026-01-20 21:49:36.86	252.68	17.44	-25.4	-25.2	16.8	0.00e+00	0	43	0	12205424640	22	14088
2026-01-20 21:49:37.83	252.98	17.49	-25.4	-25.2	16.6	0.00e+00	0	43	0	12314476544	22	14077
2026-01-20 21:49:38.80	253.28	17.54	-25.4	-25.2	16.9	1.90e-06	0	43	0	12423528448	22	14016
2026-01-20 21:49:39.77	253.59	17.59	-25.3	-25.2	16.3	0.00e+00	0	43	0	12524191744	22	13964
2026-01-20 21:49:40.74	253.89	17.64	-25.4	-25.2	16.8	0.00e+00	0	43	0	12641632256	22	14029
2026-01-20 21:49:41.70	254.19	17.69	-25.4	-25.2	16.5	0.00e+00	0	43	0	12750684160	22	14056
2026-01-20 21:49:42.67	254.50	17.74	-25.4	-25.2	16.6	0.00e+00	0	43	0	12851347456	22	14017
2026-01-20 21:49:43.64	254.81	17.79	-25.5	-25.3	16.4	0.00e+00	0	43	0	12968787968	22	14174
2026-01-20 21:49:44.61	255.12	17.84	-25.5	-25.4	16.8	0.00e+00	0	43	0	13077839872	22	14276
2026-01-20 21:49:45.58	255.43	17.89	-25.4	-25.3	16.9	1.90e-06	0	43	0	13178503168	22	14161
2026-01-20 21:49:46.55	255.74	17.93	-25.4	-25.2	16.2	0.00e+00	0	43	0	13295943680	22	14045
2026-01-20 21:49:47.52	256.05	17.98	-25.4	-25.2	16.6	0.00e+00	0	43	0	13404995584	22	14082
2026-01-20 21:49:48.48	256.36	18.02	-25.4	-25.2	16.4	0.00e+00	0	43	0	13505658880	22	14021
2026-01-20 21:49:49.45	256.68	18.07	-25.3	-25.1	16.4	1.90e-06	0	43	0	13623099392	22	13940
2026-01-20 21:49:50.42	256.99	18.11	-25.3	-25.2	16.7	0.00e+00	0	43	0	13732151296	22	13955
2026-01-20 21:49:51.40	257.31	18.16	-25.4	-25.2	16.4	1.90e-06	0	43	0	13841203200	22	14076
2026-01-20 21:49:52.37	257.63	18.20	-25.5	-25.3	16.5	0.00e+00	0	43	0	13941866496	22	14187
2026-01-20 21:49:53.34	257.95	18.24	-25.3	-25.2	16.8	0.00e+00	0	43	0	14059307008	22	13996
2026-01-20 21:49:54.30	258.26	18.28	-25.4	-25.2	16.3	0.00e+00	0	43	0	14168358912	22	14067
2026-01-20 21:49:55.27	258.58	18.32	-25.4	-25.2	16.1	3.80e-06	0	43	0	14269022208	22	14091
2026-01-20 21:49:56.25	258.91	18.36	-25.4	-25.2	16.4	1.90e-06	0	43	0	14386462720	22	14035
2026-01-20 21:49:57.22	259.23	18.40	-25.4	-25.3	16.9	0.00e+00	0	43	0	14495514624	22	14173
2026-01-20 21:49:58.19	259.55	18.44	-25.4	-25.3	16.8	0.00e+00	0	43	0	14612955136	22	14138
2026-01-20 21:49:59.16	259.88	18.48	-25.5	-25.4	16.7	0.00e+00	0	43	0	14713618432	22	14276
2026-01-20 21:50:00.12	260.20	18.51	-25.3	-25.2	16.6	0.00e+00	0	43	0	14822670336	22	13976
2026-01-20 21:50:01.09	260.53	18.55	-25.4	-25.2	16.9	1.90e-06	0	43	0	14931722240	22	14025
2026-01-20 21:50:02.06	260.85	18.59	-25.4	-25.2	17.1	0.00e+00	0	43	0	15032385536	22	14030
2026-01-20 21:50:03.03	261.18	18.62	-25.2	-25.1	17.0	1.90e-06	0	43	0	15149826048	22	13808
2026-01-20 21:50:04.00	261.51	18.65	-25.2	-25.1	16.9	0.00e+00	0	43	0	15258877952	22	13826
2026-01-20 21:50:04.97	261.84	18.69	-25.2	-25.1	17.0	0.00e+00	0	43	0	15359541248	22	13835
2026-01-20 21:50:05.94	262.17	18.72	-25.3	-25.1	16.9	0.00e+00	0	43	0	15476981760	22	13910
2026-01-20 21:50:06.91	262.50	18.75	-25.1	-25.0	16.7	0.00e+00	0	43	0	15586033664	22	13674
2026-01-20 21:50:07.88	262.83	18.78	-25.2	-25.1	16.7	0.00e+00	0	43	0	15686696960	22	13809
2026-01-20 21:50:08.85	263.16	18.81	-25.2	-25.0	16.8	0.00e+00	0	43	0	15804137472	22	13738
2026-01-20 21:50:09.82	263.50	18.84	-25.2	-25.0	16.8	0.00e+00	0	43	0	15913189376	22	13770
2026-01-20 21:50:10.79	263.83	18.87	-25.3	-25.1	16.9	0.00e+00	0	43	0	16030629888	22	13859
2026-01-20 21:50:11.76	264.16	18.90	-25.2	-25.0	17.0	0.00e+00	0	43	0	16131293184	22	13689
2026-01-20 21:50:12.73	264.50	18.92	-25.2	-25.0	17.1	1.90e-06	0	43	0	16240345088	22	13748
2026-01-20 21:50:13.70	264.83	18.95	-25.2	-25.1	17.0	1.90e-06	0	43	0	16349396992	22	13809
2026-01-20 21:50:14.67	265.17	18.97	-25.2	-25.0	17.1	0.00e+00	0	43	0	16450060288	22	13721
2026-01-20 21:50:15.65	265.51	19.00	-25.2	-25.0	17.3	0.00e+00	0	43	0	16567500800	22	13778
2026-01-20 21:50:16.62	265.85	19.02	-25.2	-25.0	17.2	0.00e+00	0	43	0	16676552704	22	13775
2026-01-20 21:50:17.59	266.19	19.04	-25.1	-25.0	17.3	0.00e+00	0	43	0	16793993216	22	13651
2026-01-20 21:50:18.56	266.52	19.06	-25.1	-25.0	17.5	0.00e+00	0	43	0	16894656512	22	13690
2026-01-20 21:50:19.53	266.86	19.09	-25.2	-25.1	17.8	1.90e-06	0	43	0	17003708416	22	13818
2026-01-20 21:50:20.50	267.20	19.10	-25.1	-24.9	17.9	0.00e+00	0	43	0	17121148928	22	13632
2026-01-20 21:50:21.47	267.54	19.12	-25.3	-25.1	17.8	0.00e+00	0	43	0	17221812224	22	13882
2026-01-20 21:50:22.44	267.88	19.14	-25.2	-25.1	17.6	0.00e+00	0	43	0	17330864128	22	13836
2026-01-20 21:50:23.41	268.22	19.16	-25.2	-25.0	17.7	0.00e+00	0	43	0	17439916032	22	13790
2026-01-20 21:50:24.38	268.56	19.17	-25.3	-25.1	18.1	0.00e+00	0	43	0	17548967936	22	13929
2026-01-20 21:50:25.34	268.90	19.19	-25.2	-25.0	18.0	0.00e+00	0	43	0	17658019840	22	13758
2026-01-20 21:50:26.32	269.25	19.20	-25.2	-25.0	17.8	0.00e+00	0	43	0	17767071744	22	13790
2026-01-20 21:50:27.29	269.59	19.22	-25.2	-25.0	18.2	0.00e+00	0	43	0	17884512256	22	13783
2026-01-20 21:50:28.26	269.93	19.23	-25.2	-25.0	18.5	0.00e+00	0	43	0	17985175552	22	13718
2026-01-20 21:50:29.23	270.27	19.24	-25.2	-25.0	18.3	0.00e+00	0	43	0	18094227456	22	13755
2026-01-20 21:50:30.20	270.62	19.25	-25.2	-25.1	18.5	0.00e+00	0	43	0	18211667968	22	13840
2026-01-20 21:50:31.17	270.96	19.26	-25.2	-25.1	18.5	0.00e+00	0	43	0	18312331264	22	13795
2026-01-20 21:50:32.13	271.30	19.27	-25.3	-25.1	18.7	0.00e+00	0	43	0	18421383168	22	13845
2026-01-20 21:50:33.10	271.65	19.28	-25.3	-25.1	18.6	0.00e+00	0	43	0	18538823680	22	13949
2026-01-20 21:50:34.07	271.99	19.29	-25.3	-25.1	18.7	0.00e+00	0	44	0	18639486976	22	13949
2026-01-20 21:50:35.04	272.33	19.29	-25.4	-25.2	18.8	0.00e+00	0	43	0	18748538880	22	14089
2026-01-20 21:50:36.01	272.68	19.30	-25.3	-25.2	18.9	0.00e+00	0	43	0	18857590784	22	13968
2026-01-20 21:50:36.98	273.02	19.30	-25.4	-25.2	18.7	0.00e+00	0	43	0	18966642688	22	14019
2026-01-20 21:50:37.95	273.37	19.30	-25.4	-25.2	19.0	0.00e+00	0	43	0	19075694592	22	14071
2026-01-20 21:50:38.92	273.71	19.31	-25.3	-25.2	19.0	0.00e+00	0	43	0	19184746496	22	13969
2026-01-20 21:50:39.89	274.06	19.31	-25.4	-25.2	18.8	0.00e+00	0	43	0	19302187008	22	14073
2026-01-20 21:50:40.86	274.40	19.31	-25.4	-25.2	18.8	0.00e+00	0	43	0	19402850304	22	14000
2026-01-20 21:50:41.82	274.74	19.31	-25.4	-25.2	18.9	0.00e+00	0	43	0	19511902208	22	14101
2026-01-20 21:50:42.79	275.09	19.31	-25.5	-25.3	18.8	0.00e+00	0	43	0	19629342720	22	14175
2026-01-20 21:50:43.76	275.43	19.31	-25.4	-25.2	18.6	0.00e+00	0	43	0	19730006016	22	14036
2026-01-20 21:50:44.72	275.77	19.30	-25.4	-25.2	18.7	0.00e+00	0	43	0	19839057920	22	14043
2026-01-20 21:50:45.69	276.11	19.30	-25.6	-25.4	18.6	0.00e+00	0	43	0	19956498432	22	14340
2026-01-20 21:50:46.66	276.46	19.29	-25.5	-25.3	18.6	0.00e+00	0	43	0	20057161728	22	14157
2026-01-20 21:50:47.63	276.80	19.29	-25.5	-25.3	18.6	0.00e+00	0	43	0	20166213632	22	14161
2026-01-20 21:50:48.60	277.15	19.28	-25.5	-25.3	18.5	0.00e+00	0	43	0	20275265536	22	14260
2026-01-20 21:50:49.57	277.49	19.27	-25.5	-25.3	18.5	0.00e+00	0	43	0	20384317440	22	14209
2026-01-20 21:50:50.54	277.83	19.26	-25.4	-25.2	18.5	0.00e+00	0	43	0	20493369344	22	13996
2026-01-20 21:50:51.52	278.18	19.25	-25.5	-25.3	18.4	0.00e+00	0	43	0	20602421248	22	14183
2026-01-20 21:50:52.49	278.52	19.24	-25.5	-25.3	18.4	0.00e+00	0	43	0	20719861760	22	14158
2026-01-20 21:50:53.46	278.87	19.23	-25.5	-25.3	18.3	0.00e+00	0	43	0	20820525056	22	14225
2026-01-20 21:50:54.43	279.21	19.22	-25.5	-25.3	18.4	0.00e+00	0	43	0	20929576960	22	14246
2026-01-20 21:50:55.40	279.55	19.21	-25.6	-25.4	18.4	0.00e+00	0	43	0	21047017472	22	14332
2026-01-20 21:50:56.37	279.89	19.19	-25.6	-25.4	18.5	0.00e+00	0	43	0	21147680768	22	14435
2026-01-20 21:50:57.34	280.23	19.18	-25.6	-25.5	18.5	0.00e+00	0	43	0	21256732672	22	14464
2026-01-20 21:50:58.31	280.57	19.16	-25.6	-25.4	18.5	0.00e+00	0	43	0	21374173184	22	14393
2026-01-20 21:50:59.28	280.92	19.14	-25.6	-25.4	18.6	0.00e+00	0	43	0	21474836480	22	14406
2026-01-20 21:51:00.25	281.26	19.13	-25.7	-25.5	18.5	0.00e+00	0	43	0	21583888384	22	14506
2026-01-20 21:51:01.22	281.59	19.11	-25.6	-25.4	18.5	1.90e-06	0	43	0	21692940288	22	14392
2026-01-20 21:51:02.19	281.93	19.09	-25.7	-25.5	18.6	0.00e+00	0	43	0	21810380800	22	14563
2026-01-20 21:51:03.16	282.27	19.07	-25.8	-25.6	18.8	0.00e+00	0	43	0	21911044096	22	14690
2026-01-20 21:51:04.14	282.61	19.05	-25.8	-25.6	18.5	0.00e+00	0	43	0	22020096000	22	14706
2026-01-20 21:51:05.10	282.95	19.02	-25.8	-25.6	18.6	0.00e+00	0	43	0	22137536512	22	14695
2026-01-20 21:51:06.07	283.28	19.00	-25.9	-25.7	18.7	0.00e+00	0	43	0	22238199808	22	14843
2026-01-20 21:51:07.04	283.62	18.98	-25.8	-25.7	18.7	0.00e+00	0	43	0	22347251712	22	14796
2026-01-20 21:51:08.01	283.96	18.95	-25.7	-25.6	18.7	0.00e+00	0	43	0	22464692224	22	14637
2026-01-20 21:51:08.98	284.29	18.93	-25.8	-25.6	19.0	0.00e+00	0	43	0	22565355520	22	14755
2026-01-20 21:51:09.95	284.63	18.90	-25.9	-25.8	18.8	0.00e+00	0	43	0	22674407424	22	14952
2026-01-20 21:51:10.92	284.96	18.87	-25.8	-25.7	18.8	1.90e-06	0	43	0	22791847936	22	14804
2026-01-20 21:51:11.89	285.29	18.85	-25.8	-25.6	18.8	0.00e+00	0	43	0	22900899840	22	14774
2026-01-20 21:51:12.86	285.63	18.82	-25.9	-25.7	18.9	0.00e+00	0	43	0	23001563136	22	14892
2026-01-20 21:51:13.83	285.96	18.79	-25.9	-25.7	18.9	0.00e+00	0	43	0	23110615040	22	14931
2026-01-20 21:51:14.81	286.29	18.76	-25.9	-25.7	18.9	0.00e+00	0	43	0	23228055552	22	14871
2026-01-20 21:51:15.78	286.62	18.72	-25.9	-25.7	18.9	0.00e+00	0	43	0	23328718848	22	14872
2026-01-20 21:51:16.75	286.95	18.69	-25.9	-25.8	19.1	0.00e+00	0	43	0	23437770752	22	14986
2026-01-20 21:51:17.72	287.28	18.66	-25.9	-25.7	18.8	0.00e+00	0	43	0	23555211264	22	14939
2026-01-20 21:51:18.68	287.61	18.63	-25.9	-25.7	18.8	0.00e+00	0	43	0	23655874560	22	14941
2026-01-20 21:51:19.65	287.93	18.59	-26.0	-25.8	18.7	0.00e+00	0	43	0	23764926464	22	15095
2026-01-20 21:51:20.62	288.26	18.56	-26.0	-25.8	18.7	0.00e+00	0	43	0	23882366976	22	15094
2026-01-20 21:51:21.59	288.58	18.52	-26.1	-25.9	18.9	0.00e+00	0	43	0	23991418880	22	15247
2026-01-20 21:51:22.56	288.91	18.48	-25.9	-25.7	18.8	0.00e+00	0	43	0	24092082176	22	14944
2026-01-20 21:51:23.52	289.23	18.45	-26.0	-25.8	18.7	0.00e+00	0	43	0	24201134080	22	15111
2026-01-20 21:51:24.49	289.55	18.41	-26.0	-25.8	18.9	0.00e+00	0	43	0	24318574592	22	15068
2026-01-20 21:51:25.47	289.88	18.37	-26.1	-26.0	18.7	0.00e+00	0	43	0	24419237888	22	15298
2026-01-20 21:51:26.44	290.20	18.33	-26.2	-26.0	18.5	0.00e+00	0	43	0	24528289792	23	14598
2026-01-20 21:51:27.40	290.51	18.29	-26.2	-26.0	18.6	0.00e+00	0	43	0	24645730304	23	14518
2026-01-20 21:51:28.37	290.83	18.25	-26.3	-26.1	18.7	0.00e+00	0	43	0	24746393600	23	14759
2026-01-20 21:51:29.34	291.15	18.21	-26.2	-26.0	18.7	0.00e+00	0	43	0	24855445504	23	14537
2026-01-20 21:51:30.31	291.47	18.17	-26.2	-26.0	18.6	0.00e+00	0	43	0	24972886016	23	14576
2026-01-20 21:51:31.28	291.78	18.12	-26.4	-26.2	18.3	0.00e+00	0	43	0	25073549312	23	14819
2026-01-20 21:51:32.25	292.10	18.08	-26.3	-26.1	18.4	0.00e+00	0	43	0	25182601216	23	14683
2026-01-20 21:51:33.22	292.41	18.03	-26.3	-26.1	18.6	0.00e+00	0	43	0	25300041728	23	14709
2026-01-20 21:51:34.18	292.72	17.99	-26.4	-26.2	18.5	0.00e+00	0	43	0	25400705024	23	14945
2026-01-20 21:51:35.15	293.03	17.94	-26.3	-26.1	18.6	0.00e+00	0	43	0	25509756928	23	14758
2026-01-20 21:51:36.12	293.34	17.90	-26.3	-26.2	18.5	0.00e+00	0	43	0	25618808832	23	14796
2026-01-20 21:51:37.09	293.65	17.85	-26.5	-26.3	18.3	0.00e+00	0	43	0	25736249344	23	15068
2026-01-20 21:51:38.06	293.96	17.80	-26.3	-26.1	18.3	0.00e+00	0	43	0	25836912640	23	14757
2026-01-20 21:51:39.03	294.27	17.75	-26.3	-26.2	18.4	0.00e+00	0	43	0	25945964544	23	14805
2026-01-20 21:51:40.00	294.58	17.71	-26.4	-26.2	18.3	0.00e+00	0	43	0	26063405056	23	14899
2026-01-20 21:51:40.97	294.88	17.66	-26.4	-26.2	18.5	0.00e+00	0	43	0	26164068352	23	14828
2026-01-20 21:51:41.94	295.19	17.61	-26.3	-26.2	18.6	0.00e+00	0	43	0	26273120256	23	14812
2026-01-20 21:51:42.91	295.49	17.56	-26.4	-26.2	18.4	0.00e+00	0	43	0	26390560768	23	14925
2026-01-20 21:51:43.88	295.79	17.51	-26.4	-26.2	18.6	0.00e+00	0	43	0	26491224064	23	14872
2026-01-20 21:51:44.85	296.09	17.45	-26.4	-26.2	18.6	0.00e+00	0	43	0	26600275968	23	14871
2026-01-20 21:51:45.82	296.39	17.40	-26.4	-26.2	18.4	0.00e+00	0	43	0	26717716480	23	14908
2026-01-20 21:51:46.79	296.69	17.35	-26.5	-26.4	18.5	0.00e+00	0	43	0	26826768384	23	15143
2026-01-20 21:51:47.77	296.99	17.29	-26.6	-26.5	18.2	0.00e+00	0	43	0	26927431680	23	15310
2026-01-20 21:51:48.74	297.28	17.24	-26.6	-26.4	18.1	0.00e+00	0	43	0	27036483584	23	15242
2026-01-20 21:51:49.71	297.58	17.19	-26.6	-26.4	18.2	0.00e+00	0	43	0	27153924096	23	15194
2026-01-20 21:51:50.68	297.87	17.13	-26.5	-26.3	18.3	0.00e+00	0	43	0	27254587392	23	15073
2026-01-20 21:51:51.65	298.17	17.08	-26.6	-26.4	18.4	0.00e+00	0	43	0	27363639296	23	15204
2026-01-20 21:51:52.61	298.45	17.02	-26.6	-26.4	18.5	0.00e+00	0	43	0	27481079808	23	15293
2026-01-20 21:51:53.58	298.74	16.97	-26.5	-26.4	18.6	0.00e+00	0	43	0	27581743104	23	15156
2026-01-20 21:51:54.55	299.03	16.91	-26.6	-26.4	18.7	1.90e-06	0	43	0	27690795008	23	15275
2026-01-20 21:51:55.52	299.32	16.85	-26.6	-26.4	18.7	0.00e+00	0	43	0	27808235520	23	15174
2026-01-20 21:51:56.49	299.61	16.79	-26.7	-26.5	18.5	0.00e+00	0	43	0	27917287424	23	15354
2026-01-20 21:51:57.46	299.89	16.74	-26.7	-26.5	18.5	0.00e+00	0	43	0	28017950720	23	15459
2026-01-20 21:51:58.43	300.17	16.68	-26.6	-26.5	18.6	0.00e+00	0	43	0	28135391232	24	14475
2026-01-20 21:51:59.40	300.46	16.62	-26.6	-26.4	18.6	0.00e+00	0	43	0	28244443136	24	14308
2026-01-20 21:52:00.36	300.73	16.56	-26.6	-26.4	18.5	0.00e+00	0	43	0	28345106432	24	14351
2026-01-20 21:52:01.33	301.01	16.50	-26.6	-26.4	18.3	0.00e+00	0	43	0	28454158336	24	14409
2026-01-20 21:52:02.30	301.29	16.44	-26.7	-26.5	18.5	0.00e+00	0	43	0	28571598848	24	14566
2026-01-20 21:52:03.27	301.57	16.38	-26.7	-26.5	18.6	0.00e+00	0	43	0	28672262144	24	14543
2026-01-20 21:52:04.24	301.85	16.32	-26.7	-26.5	18.4	0.00e+00	0	43	0	28781314048	24	14486
2026-01-20 21:52:05.21	302.12	16.26	-26.6	-26.4	18.6	0.00e+00	0	43	0	28898754560	24	14416
2026-01-20 21:52:06.18	302.40	16.20	-26.6	-26.5	18.6	0.00e+00	0	43	0	28999417856	24	14494
2026-01-20 21:52:07.15	302.67	16.13	-26.7	-26.5	18.7	0.00e+00	0	43	0	29108469760	24	14566
2026-01-20 21:52:08.12	302.94	16.07	-26.8	-26.6	18.7	0.00e+00	0	43	0	29225910272	24	14718
2026-01-20 21:52:09.08	303.21	16.01	-26.7	-26.5	18.8	0.00e+00	0	43	0	29326573568	24	14518
2026-01-20 21:52:10.05	303.47	15.95	-26.7	-26.5	18.5	0.00e+00	0	44	0	29435625472	24	14601
2026-01-20 21:52:11.02	303.74	15.88	-26.5	-26.3	18.9	0.00e+00	0	43	0	29544677376	24	14265
2026-01-20 21:52:11.99	304.01	15.82	-26.7	-26.5	18.7	0.00e+00	0	43	0	29662117888	24	14590
2026-01-20 21:52:12.96	304.27	15.76	-26.7	-26.5	18.5	0.00e+00	0	43	0	29762781184	24	14552
2026-01-20 21:52:13.93	304.54	15.69	-26.7	-26.6	18.8	0.00e+00	0	43	0	29871833088	24	14614
2026-01-20 21:52:14.90	304.80	15.63	-26.8	-26.6	18.5	0.00e+00	0	43	0	29989273600	24	14724
2026-01-20 21:52:15.87	305.06	15.56	-26.8	-26.6	18.5	0.00e+00	0	43	0	30089936896	24	14746
2026-01-20 21:52:16.84	305.32	15.50	-26.9	-26.7	18.5	0.00e+00	0	43	0	30198988800	24	14873
2026-01-20 21:52:17.81	305.58	15.43	-26.8	-26.6	18.5	0.00e+00	0	43	0	30316429312	24	14675
2026-01-20 21:52:18.78	305.83	15.37	-26.9	-26.7	18.7	0.00e+00	0	43	0	30417092608	24	14925
2026-01-20 21:52:19.76	306.09	15.30	-26.9	-26.7	18.4	0.00e+00	0	43	0	30526144512	24	14896
2026-01-20 21:52:20.72	306.34	15.23	-26.9	-26.7	18.6	0.00e+00	0	43	0	30643585024	24	14875
2026-01-20 21:52:21.69	306.60	15.17	-26.9	-26.7	18.4	0.00e+00	0	43	0	30752636928	24	14894
2026-01-20 21:52:22.66	306.85	15.10	-26.9	-26.7	18.5	0.00e+00	0	43	0	30853300224	24	14868
2026-01-20 21:52:23.64	307.10	15.03	-27.0	-26.8	18.3	0.00e+00	0	43	0	30962352128	24	15056
2026-01-20 21:52:24.60	307.35	14.97	-27.0	-26.8	18.5	0.00e+00	0	43	0	31079792640	24	15085
2026-01-20 21:52:25.58	307.60	14.90	-27.0	-26.8	18.2	0.00e+00	0	43	0	31180455936	24	15054
2026-01-20 21:52:26.54	307.84	14.83	-27.1	-26.9	18.5	0.00e+00	0	43	0	31289507840	24	15222
2026-01-20 21:52:27.52	308.09	14.76	-27.0	-26.8	18.1	1.90e-06	0	43	0	31406948352	24	15103
2026-01-20 21:52:28.49	308.33	14.70	-27.0	-26.8	18.2	0.00e+00	0	43	0	31516000256	24	15063
2026-01-20 21:52:29.45	308.57	14.63	-27.0	-26.8	18.2	0.00e+00	0	43	0	31616663552	24	15105
2026-01-20 21:52:30.42	308.82	14.56	-27.3	-27.1	18.2	0.00e+00	0	43	0	31734104064	25	14673
2026-01-20 21:52:31.39	309.06	14.49	-27.1	-27.0	18.4	0.00e+00	0	44	0	31843155968	25	14506
2026-01-20 21:52:32.36	309.30	14.42	-27.3	-27.1	18.2	0.00e+00	0	43	0	31943819264	25	14680
2026-01-20 21:52:33.33	309.53	14.35	-27.3	-27.1	18.3	0.00e+00	0	43	0	32061259776	25	14741
2026-01-20 21:52:34.30	309.77	14.29	-27.4	-27.2	18.3	0.00e+00	0	43	0	32170311680	25	14854
2026-01-20 21:52:35.26	310.00	14.22	-27.3	-27.2	17.9	0.00e+00	0	43	0	32270974976	25	14799
2026-01-20 21:52:36.23	310.24	14.15	-27.4	-27.3	18.2	0.00e+00	0	43	0	32380026880	25	14954
2026-01-20 21:52:37.21	310.47	14.08	-27.5	-27.4	18.1	0.00e+00	0	43	0	32497467392	25	15155
2026-01-20 21:52:38.18	310.70	14.01	-27.4	-27.2	18.0	0.00e+00	0	43	0	32598130688	25	14889
2026-01-20 21:52:39.15	310.93	13.94	-27.5	-27.3	18.1	0.00e+00	0	43	0	32707182592	25	15030
2026-01-20 21:52:40.11	311.16	13.87	-27.5	-27.3	18.0	0.00e+00	0	43	0	32824623104	25	14999
2026-01-20 21:52:41.08	311.39	13.80	-27.4	-27.3	17.8	0.00e+00	0	43	0	32925286400	25	14982
2026-01-20 21:52:42.05	311.62	13.73	-27.6	-27.4	17.9	0.00e+00	0	43	0	33034338304	25	15194
2026-01-20 21:52:43.02	311.84	13.66	-27.6	-27.4	18.0	0.00e+00	0	43	0	33151778816	25	15235
2026-01-20 21:52:43.99	312.06	13.59	-27.7	-27.5	17.8	0.00e+00	0	43	0	33260830720	26	14551
2026-01-20 21:52:44.96	312.29	13.52	-27.7	-27.5	17.7	0.00e+00	0	43	0	33361494016	26	14487
2026-01-20 21:52:45.93	312.51	13.45	-27.6	-27.4	17.9	0.00e+00	0	43	0	33478934528	26	14397
2026-01-20 21:52:46.89	312.73	13.38	-27.6	-27.5	18.0	0.00e+00	0	43	0	33587986432	26	14448
2026-01-20 21:52:47.86	312.95	13.31	-27.6	-27.4	17.9	0.00e+00	0	43	0	33688649728	26	14350
2026-01-20 21:52:48.83	313.17	13.24	-27.7	-27.6	17.9	1.90e-06	0	43	0	33797701632	26	14626
2026-01-20 21:52:49.80	313.38	13.17	-27.6	-27.5	18.0	1.90e-06	0	43	0	33915142144	26	14469
2026-01-20 21:52:50.78	313.60	13.10	-27.7	-27.5	18.1	0.00e+00	0	43	0	34015805440	26	14558
2026-01-20 21:52:51.75	313.81	13.02	-27.7	-27.6	18.0	0.00e+00	0	43	0	34124857344	26	14635
2026-01-20 21:52:52.72	314.03	12.95	-27.7	-27.5	18.0	0.00e+00	0	43	0	34242297856	26	14544
2026-01-20 21:52:53.69	314.24	12.88	-27.8	-27.7	17.9	0.00e+00	0	43	0	34351349760	26	14795
2026-01-20 21:52:54.66	314.45	12.81	-27.8	-27.7	18.0	0.00e+00	0	43	0	34452013056	26	14818
2026-01-20 21:52:55.63	314.66	12.74	-27.8	-27.6	18.1	0.00e+00	0	43	0	34569453568	26	14721
2026-01-20 21:52:56.60	314.87	12.67	-27.8	-27.7	18.1	0.00e+00	0	43	0	34678505472	26	14800
2026-01-20 21:52:57.56	315.08	12.60	-27.8	-27.7	18.1	0.00e+00	0	43	0	34779168768	26	14799
2026-01-20 21:52:58.53	315.28	12.53	-27.8	-27.7	18.0	1.90e-06	0	43	0	34896609280	26	14806
2026-01-20 21:52:59.49	315.48	12.46	-28.0	-27.9	17.9	0.00e+00	0	43	0	35005661184	26	15134
2026-01-20 21:53:00.46	315.69	12.39	-28.0	-27.8	17.9	0.00e+00	0	43	0	35106324480	26	15077
2026-01-20 21:53:01.43	315.89	12.31	-28.1	-27.9	17.9	0.00e+00	0	43	0	35215376384	26	15221
2026-01-20 21:53:02.40	316.09	12.24	-27.9	-27.8	18.0	0.00e+00	0	43	0	35332816896	26	14953
2026-01-20 21:53:03.37	316.29	12.17	-28.1	-27.9	17.9	0.00e+00	0	43	0	35433480192	26	15197
2026-01-20 21:53:04.34	316.49	12.10	-28.0	-27.8	17.8	0.00e+00	0	43	0	35542532096	26	15078
2026-01-20 21:53:05.31	316.69	12.03	-28.1	-27.9	17.7	0.00e+00	0	43	0	35659972608	26	15252
2026-01-20 21:53:06.27	316.89	11.96	-28.1	-27.9	17.6	1.90e-06	0	43	0	35760635904	26	15228
2026-01-20 21:53:07.25	317.09	11.89	-28.2	-28.0	17.5	0.00e+00	0	43	0	35869687808	26	15374
2026-01-20 21:53:08.22	317.28	11.82	-28.2	-28.0	17.5	5.70e-06	0	43	0	35987128320	26	15443
2026-01-20 21:53:09.18	317.47	11.75	-28.2	-28.1	17.4	1.90e-06	0	43	0	36087791616	27	14634
2026-01-20 21:53:10.15	317.67	11.67	-28.3	-28.1	17.4	0.00e+00	0	43	0	36196843520	27	14706
2026-01-20 21:53:11.12	317.86	11.60	-28.4	-28.2	17.3	0.00e+00	0	43	0	36305895424	27	14853
2026-01-20 21:53:12.10	318.05	11.53	-28.2	-28.1	17.4	1.90e-06	0	43	0	36423335936	27	14651
2026-01-20 21:53:13.07	318.24	11.46	-28.2	-28.0	17.5	0.00e+00	0	43	0	36523999232	27	14557
2026-01-20 21:53:14.03	318.43	11.39	-28.5	-28.4	17.5	1.90e-06	0	43	0	36633051136	27	15163
2026-01-20 21:53:15.00	318.62	11.32	-28.3	-28.2	17.5	1.90e-06	0	43	0	36750491648	27	14813
2026-01-20 21:53:15.97	318.80	11.25	-28.3	-28.1	17.4	0.00e+00	0	43	0	36851154944	27	14710
2026-01-20 21:53:16.94	318.99	11.18	-28.3	-28.1	17.5	3.80e-06	0	43	0	36960206848	27	14730
2026-01-20 21:53:17.91	319.17	11.10	-28.5	-28.3	17.4	1.90e-06	0	43	0	37077647360	27	15032
2026-01-20 21:53:18.88	319.36	11.03	-28.5	-28.3	17.6	0.00e+00	0	43	0	37178310656	27	15070
2026-01-20 21:53:19.86	319.54	10.96	-28.5	-28.4	17.6	1.90e-06	0	43	0	37287362560	27	15126
2026-01-20 21:53:20.83	319.72	10.89	-28.6	-28.4	17.5	0.00e+00	0	43	0	37404803072	27	15222
2026-01-20 21:53:21.80	319.90	10.82	-28.6	-28.4	17.5	0.00e+00	0	43	0	37513854976	27	15260
2026-01-20 21:53:22.76	320.08	10.75	-28.6	-28.5	17.5	1.90e-06	0	43	0	37614518272	27	15299
2026-01-20 21:53:23.73	320.26	10.68	-28.4	-28.3	17.5	0.00e+00	0	43	0	37723570176	27	14954
2026-01-20 21:53:24.70	320.43	10.61	-28.8	-28.6	17.3	0.00e+00	0	43	0	37841010688	28	14669
2026-01-20 21:53:25.68	320.61	10.54	-28.7	-28.5	18.8	0.00e+00	0	43	0	37941673984	28	14515
2026-01-20 21:53:26.65	320.79	10.47	-53.1	-55.4	6.2	0.00e+00	0	43	104	38017171456	76	20298
2026-01-20 21:53:27.62	320.96	10.39	-53.0	-55.3	6.2	0.00e+00	0	43	104	38017171456	76	20079
2026-01-20 21:53:28.58	321.13	10.33	-53.0	-55.3	6.2	0.00e+00	0	43	104	38017171456	76	19965
2026-01-20 21:53:29.55	321.31	10.25	-53.0	-55.3	6.2	0.00e+00	0	43	104	38017171456	76	19965
2026-01-20 21:53:30.52	321.48	10.18	-53.1	-55.2	6.2	0.00e+00	0	43	104	38017171456	76	19928
2026-01-20 21:53:31.50	321.65	10.11	-53.1	-55.2	6.2	0.00e+00	0	43	104	38017171456	76	19799
2026-01-20 21:53:32.46	321.82	10.04	-53.1	-55.2	6.2	0.00e+00	0	43	104	38017171456	76	19835
2026-01-20 21:53:33.43	321.99	9.97	-53.1	-55.2	6.2	0.00e+00	0	43	104	38017171456	76	19872
2026-01-20 21:53:34.40	322.16	9.90	-53.1	-55.2	6.2	0.00e+00	0	43	104	38017171456	76	19878
2026-01-20 21:53:35.38	322.32	9.83	-53.1	-55.2	6.2	0.00e+00	0	43	104	38017171456	76	19843
2026-01-20 21:53:36.35	322.49	9.76	-53.1	-55.2	6.2	0.00e+00	0	43	104	38017171456	76	19797
2026-01-20 21:53:37.31	322.65	9.69	-53.1	-55.2	6.2	0.00e+00	0	43	104	38017171456	76	19807
2026-01-20 21:53:38.29	322.82	9.62	-53.0	-55.1	6.2	0.00e+00	0	43	104	38017171456	76	19584
2026-01-20 21:53:39.26	322.98	9.55	-53.0	-55.2	6.2	0.00e+00	0	43	104	38017171456	76	19825
2026-01-20 21:53:40.24	323.15	9.48	-53.0	-55.1	6.2	0.00e+00	0	43	104	38017171456	76	19694
2026-01-20 21:53:41.20	323.30	9.41	-53.0	-55.2	6.2	0.00e+00	0	43	104	38017171456	76	19737
2026-01-20 21:53:42.17	323.47	9.34	-53.0	-55.1	6.2	0.00e+00	0	43	104	38017171456	76	19530
2026-01-20 21:53:43.14	323.62	9.27	-53.0	-55.1	6.2	0.00e+00	0	43	104	38017171456	76	19695
2026-01-20 21:53:44.11	323.78	9.20	-52.9	-55.0	6.2	0.00e+00	0	43	104	38017171456	76	19470
2026-01-20 21:53:45.08	323.94	9.13	-53.0	-55.1	6.2	0.00e+00	0	43	104	38017171456	76	19675
2026-01-20 21:53:46.04	324.10	9.07	-52.9	-55.1	6.2	0.00e+00	0	43	104	38017171456	76	19520
2026-01-20 21:53:47.01	324.25	9.00	-53.0	-55.1	6.2	0.00e+00	0	43	104	38017171456	76	19657
2026-01-20 21:53:47.99	324.41	8.93	-52.9	-55.0	6.2	0.00e+00	0	43	104	38017171456	76	19370
2026-01-20 21:53:48.95	324.56	8.86	-53.0	-55.1	6.2	0.00e+00	0	43	104	38017171456	76	19585
2026-01-20 21:53:49.92	324.72	8.79	-52.9	-55.0	6.2	0.00e+00	0	43	104	38017171456	76	19306
2026-01-20 21:53:50.89	324.87	8.72	-52.9	-55.1	6.2	0.00e+00	0	43	104	38017171456	76	19575
2026-01-20 21:53:51.86	325.02	8.65	-52.8	-54.9	6.2	0.00e+00	0	43	104	38017171456	76	19189
2026-01-20 21:53:52.83	325.17	8.58	-52.9	-55.0	6.2	0.00e+00	0	43	104	38017171456	76	19406
2026-01-20 21:53:53.80	325.32	8.52	-52.8	-54.9	6.2	0.00e+00	0	43	104	38017171456	76	19054
2026-01-20 21:53:54.78	325.47	8.45	-52.9	-55.1	6.2	0.00e+00	0	43	104	38017171456	76	19510
2026-01-20 21:53:55.75	325.62	8.38	-52.8	-54.9	6.2	0.00e+00	0	43	104	38017171456	76	19136
2026-01-20 21:53:56.71	325.77	8.31	-52.8	-54.9	6.2	0.00e+00	0	43	104	38017171456	76	19246
2026-01-20 21:53:57.68	325.91	8.24	-52.8	-54.8	6.2	0.00e+00	0	43	104	38017171456	76	19014
2026-01-20 21:53:58.65	326.06	8.17	-52.8	-55.0	6.2	0.00e+00	0	43	104	38017171456	76	19266
2026-01-20 21:53:59.62	326.20	8.11	-52.8	-54.9	6.2	0.00e+00	0	43	104	38017171456	76	19043
2026-01-20 21:54:00.58	326.35	8.04	-52.8	-54.9	6.2	0.00e+00	0	43	104	38017171456	76	19136
2026-01-20 21:54:01.56	326.49	7.97	-52.7	-54.8	6.2	0.00e+00	0	43	104	38017171456	76	18914
2026-01-20 21:54:02.53	326.63	7.90	-52.7	-54.9	6.2	0.00e+00	0	43	104	38017171456	76	19049
2026-01-20 21:54:03.50	326.78	7.84	-52.7	-54.8	6.2	0.00e+00	0	43	104	38017171456	76	18986
2026-01-20 21:54:04.47	326.92	7.77	-52.8	-54.9	6.2	0.00e+00	0	43	104	38017171456	76	19110
2026-01-20 21:54:05.43	327.06	7.70	-52.7	-54.8	6.2	0.00e+00	0	43	104	38017171456	76	18973
2026-01-20 21:54:06.40	327.20	7.63	-52.7	-54.9	6.2	0.00e+00	0	43	104	38017171456	76	19044
2026-01-20 21:54:07.37	327.34	7.57	-52.7	-54.8	6.2	0.00e+00	0	43	104	38017171456	76	18865
2026-01-20 21:54:08.34	327.47	7.50	-51.3	-52.7	6.3	0.00e+00	0	43	104	38017171456	74	16708
2026-01-20 21:54:09.31	327.61	7.43	-52.5	-54.6	6.2	0.00e+00	0	43	104	38017171456	75	19519
2026-01-20 21:54:10.29	327.75	7.37	-51.2	-52.6	6.3	0.00e+00	0	43	104	38017171456	74	16569
2026-01-20 21:54:11.26	327.89	7.30	-50.9	-52.3	6.3	0.00e+00	0	43	104	38017171456	73	16936
2026-01-20 21:54:12.23	328.02	7.23	-50.6	-51.8	6.4	0.00e+00	0	43	104	38017171456	73	16011
2026-01-20 21:54:13.20	328.16	7.17	-49.5	-50.5	6.7	0.00e+00	0	43	104	38017171456	71	15396
2026-01-20 21:54:14.17	328.29	7.10	-50.1	-51.3	6.5	0.00e+00	0	43	104	38017171456	70	17903
2026-01-20 21:54:15.13	328.42	7.03	-52.4	-54.8	6.2	0.00e+00	0	43	104	38017171456	75	20022
2026-01-20 21:54:16.10	328.55	6.97	-48.0	-48.6	7.0	0.00e+00	0	43	104	38017171456	68	14776
2026-01-20 21:54:17.07	328.69	6.90	-51.8	-53.6	6.2	0.00e+00	0	42	104	38017171456	74	18501
2026-01-20 21:54:18.04	328.82	6.84	-47.5	-48.1	7.2	0.00e+00	0	42	104	38017171456	66	15645
2026-01-20 21:54:19.01	328.95	6.77	-46.2	-46.7	7.5	0.00e+00	0	43	104	38017171456	64	14931
2026-01-20 21:54:19.98	329.08	6.70	-44.0	-44.3	8.1	0.00e+00	0	43	104	38017171456	60	14133
2026-01-20 21:54:20.95	329.21	6.64	-46.4	-46.9	7.6	0.00e+00	0	43	104	38017171456	63	16164
2026-01-20 21:54:21.92	329.33	6.57	-45.1	-45.5	7.9	0.00e+00	0	43	104	38017171456	60	16378
2026-01-20 21:54:22.88	329.46	6.51	-52.6	-54.9	6.2	0.00e+00	0	43	104	38017171456	75	20293
2026-01-20 21:54:23.85	329.59	6.44	-46.3	-46.8	7.5	0.00e+00	0	42	104	38017171456	64	15057
2026-01-20 21:54:24.82	329.71	6.38	-48.7	-49.6	6.9	0.00e+00	0	42	104	38017171456	68	16513
2026-01-20 21:54:25.79	329.84	6.31	-44.0	-44.4	8.0	0.00e+00	0	42	104	38017171456	59	15146
2026-01-20 21:54:26.76	329.96	6.25	-43.4	-43.7	8.2	0.00e+00	0	43	0	38017171456	58	14885
2026-01-20 21:54:27.73	330.09	6.18	-43.0	-43.3	8.4	0.00e+00	0	43	0	38017171456	58	14244
2026-01-20 21:54:28.70	330.21	6.12	-46.0	-46.6	7.6	0.00e+00	0	43	104	38017171456	62	16448
2026-01-20 21:54:29.67	330.34	6.05	-42.0	-42.2	8.4	0.00e+00	0	43	104	38017171456	56	14101
2026-01-20 21:54:30.64	330.46	5.99	-52.4	-54.7	6.2	0.00e+00	0	43	104	38017171456	75	19877
2026-01-20 21:54:31.60	330.58	5.93	-45.1	-45.4	7.8	0.00e+00	0	42	104	38017171456	62	14320
2026-01-20 21:54:32.58	330.70	5.86	-42.6	-42.8	8.6	0.00e+00	0	43	0	38017171456	55	15985
2026-01-20 21:54:33.54	330.82	5.80	-42.5	-42.7	8.4	0.00e+00	0	43	104	38017171456	57	14061
2026-01-20 21:54:34.52	330.94	5.73	-41.2	-41.5	8.8	0.00e+00	0	43	0	38017171456	54	14469
2026-01-20 21:54:35.48	331.06	5.67	-41.5	-41.7	8.8	0.00e+00	0	43	0	38017171456	54	14862
2026-01-20 21:54:36.45	331.18	5.61	-41.6	-41.9	8.7	0.00e+00	0	43	0	38017171456	53	16037
2026-01-20 21:54:37.42	331.30	5.54	-41.5	-41.8	8.8	0.00e+00	0	43	0	38017171456	55	14147
2026-01-20 21:54:38.40	331.41	5.48	-48.0	-48.9	7.0	0.00e+00	0	43	0	38017171456	66	17084
2026-01-20 21:54:39.38	331.53	5.41	-51.9	-53.8	6.2	0.00e+00	0	43	104	38017171456	75	17883
2026-01-20 21:54:40.35	331.65	5.35	-40.9	-41.1	8.9	0.00e+00	0	43	0	38017171456	53	14702
2026-01-20 21:54:41.31	331.76	5.29	-44.7	-45.1	7.9	0.00e+00	0	43	104	38017171456	61	14660
2026-01-20 21:54:42.28	331.88	5.23	-40.4	-40.7	8.9	0.00e+00	0	43	0	38017171456	52	14779
2026-01-20 21:54:43.25	331.99	5.16	-40.4	-40.6	8.9	0.00e+00	0	43	0	38017171456	52	14757
2026-01-20 21:54:44.22	332.11	5.10	-40.6	-40.8	8.9	0.00e+00	0	43	0	38017171456	52	14984
2026-01-20 21:54:45.19	332.22	5.04	-44.5	-44.9	8.0	0.00e+00	0	43	0	38017171456	59	16171
2026-01-20 21:54:46.16	332.33	4.97	-52.6	-54.9	6.2	0.00e+00	0	43	104	38017171456	75	20190
2026-01-20 21:54:47.12	332.44	4.91	-52.9	-55.1	6.2	0.00e+00	0	43	104	38017171456	76	19611
2026-01-20 21:54:48.09	332.56	4.85	-53.2	-55.3	6.2	0.00e+00	0	43	104	38017171456	76	20098
2026-01-20 21:54:49.06	332.67	4.79	-53.3	-55.4	6.2	0.00e+00	0	42	104	38017171456	77	19226
2026-01-20 21:54:50.03	332.78	4.72	-53.4	-55.5	6.2	0.00e+00	0	43	104	38017171456	77	19387
2026-01-20 21:54:51.00	332.89	4.66	-53.5	-55.6	6.2	0.00e+00	0	43	104	38017171456	77	19566
2026-01-20 21:54:51.97	333.00	4.60	-53.5	-55.6	6.2	0.00e+00	0	43	104	38017171456	77	19683
2026-01-20 21:54:52.94	333.11	4.54	-53.5	-55.7	6.2	0.00e+00	0	42	104	38017171456	77	19780
2026-01-20 21:54:53.91	333.21	4.48	-53.5	-55.7	6.2	0.00e+00	0	42	104	38017171456	77	19723
2026-01-20 21:54:54.88	333.32	4.42	-53.5	-55.6	6.2	0.00e+00	0	42	104	38017171456	77	19584
2026-01-20 21:54:55.85	333.43	4.35	-53.4	-55.5	6.2	0.00e+00	0	43	104	38017171456	77	19425
2026-01-20 21:54:56.82	333.54	4.29	-53.3	-55.4	6.2	0.00e+00	0	43	104	38017171456	77	19239
2026-01-20 21:54:57.79	333.64	4.23	-53.3	-55.4	6.2	0.00e+00	0	42	104	38017171456	77	19208
2026-01-20 21:54:58.76	333.75	4.17	-53.3	-55.5	6.2	0.00e+00	0	43	104	38017171456	77	19270
2026-01-20 21:54:59.72	333.85	4.11	-53.3	-55.5	6.2	0.00e+00	0	43	104	38017171456	77	19348
2026-01-20 21:55:00.69	333.96	4.05	-53.4	-55.6	6.2	0.00e+00	0	42	104	38017171456	77	19503
2026-01-20 21:55:01.66	334.06	3.99	-53.4	-55.6	6.2	0.00e+00	0	43	104	38017171456	77	19548
2026-01-20 21:55:02.63	334.16	3.93	-53.5	-55.6	6.2	0.00e+00	0	43	104	38017171456	77	19587
2026-01-20 21:55:03.60	334.27	3.87	-53.5	-55.6	6.2	0.00e+00	0	43	104	38017171456	77	19682
2026-01-20 21:55:04.57	334.37	3.81	-53.5	-55.6	6.2	0.00e+00	0	43	104	38017171456	77	19642
2026-01-20 21:55:05.54	334.47	3.75	-53.5	-55.7	6.2	0.00e+00	0	42	104	38017171456	77	19785
2026-01-20 21:55:06.51	334.57	3.69	-53.6	-55.7	6.2	0.00e+00	0	43	104	38017171456	77	19822
2026-01-20 21:55:07.48	334.67	3.62	-53.6	-55.7	6.2	0.00e+00	0	43	104	38017171456	77	19744
2026-01-20 21:55:08.45	334.77	3.56	-53.5	-55.7	6.2	0.00e+00	0	43	104	38017171456	77	19749
2026-01-20 21:55:09.42	334.87	3.50	-53.5	-55.7	6.2	0.00e+00	0	43	104	38017171456	77	19705
2026-01-20 21:55:10.40	334.98	3.44	-53.5	-55.6	6.2	0.00e+00	0	43	104	38017171456	77	19682
2026-01-20 21:55:11.36	335.07	3.39	-53.5	-55.6	6.2	0.00e+00	0	42	104	38017171456	77	19700
2026-01-20 21:55:12.33	335.17	3.33	-53.5	-55.6	6.2	0.00e+00	0	43	104	38017171456	77	19652
2026-01-20 21:55:13.30	335.27	3.27	-53.5	-55.6	6.2	0.00e+00	0	43	104	38017171456	77	19594
2026-01-20 21:55:14.28	335.37	3.21	-53.4	-55.6	6.2	0.00e+00	0	43	104	38017171456	77	19569
2026-01-20 21:55:15.25	335.47	3.15	-53.4	-55.6	6.2	0.00e+00	0	43	104	38017171456	77	19525
2026-01-20 21:55:16.22	335.56	3.09	-53.4	-55.6	6.2	0.00e+00	0	42	104	38017171456	77	19548
2026-01-20 21:55:17.19	335.66	3.03	-53.4	-55.6	6.2	0.00e+00	0	43	104	38017171456	77	19546
2026-01-20 21:55:18.16	335.76	2.97	-53.4	-55.6	6.2	0.00e+00	0	42	104	38017171456	77	19548
2026-01-20 21:55:19.13	335.85	2.91	-53.4	-55.6	6.2	0.00e+00	0	42	104	38017171456	77	19519
2026-01-20 21:55:20.10	335.95	2.85	-53.5	-55.6	6.2	0.00e+00	0	42	104	38017171456	77	19616
2026-01-20 21:55:21.07	336.04	2.79	-53.5	-55.6	6.2	0.00e+00	0	43	104	38017171456	77	19535
2026-01-20 21:55:22.04	336.14	2.73	-53.5	-55.6	6.2	0.00e+00	0	43	104	38017171456	77	19543
2026-01-20 21:55:23.00	336.23	2.68	-53.5	-55.6	6.2	0.00e+00	0	43	104	38017171456	77	19566
2026-01-20 21:55:23.97	336.32	2.62	-53.4	-55.6	6.2	0.00e+00	0	43	104	38017171456	77	19525
2026-01-20 21:55:24.94	336.41	2.56	-53.5	-55.6	6.2	0.00e+00	0	43	104	38017171456	77	19567
2026-01-20 21:55:25.91	336.51	2.50	-53.4	-55.6	6.2	0.00e+00	0	43	104	38017171456	77	19521
2026-01-20 21:55:26.89	336.60	2.44	-53.5	-55.6	6.2	0.00e+00	0	43	104	38017171456	77	19521
2026-01-20 21:55:27.86	336.69	2.38	-53.4	-55.6	6.2	0.00e+00	0	43	104	38017171456	77	19522
2026-01-20 21:55:28.83	336.78	2.33	-53.4	-55.6	6.2	0.00e+00	0	42	104	38017171456	77	19494
2026-01-20 21:55:29.80	336.87	2.27	-53.4	-55.5	6.2	0.00e+00	0	43	104	38017171456	77	19479
2026-01-20 21:55:30.77	336.96	2.21	-53.4	-55.6	6.2	0.00e+00	0	43	104	38017171456	77	19524
2026-01-20 21:55:31.73	337.05	2.15	-53.4	-55.6	6.2	0.00e+00	0	42	104	38017171456	77	19536
2026-01-20 21:55:32.70	337.14	2.10	-53.4	-55.6	6.2	0.00e+00	0	43	104	38017171456	77	19537
2026-01-20 21:55:33.67	337.23	2.04	-53.4	-55.6	6.2	0.00e+00	0	43	104	38017171456	77	19501
2026-01-20 21:55:34.65	337.32	1.98	-53.4	-55.5	6.2	0.00e+00	0	43	104	38017171456	77	19478
2026-01-20 21:55:35.62	337.41	1.92	-53.4	-55.6	6.2	0.00e+00	0	42	104	38017171456	77	19510
2026-01-20 21:55:36.59	337.50	1.87	-53.4	-55.5	6.2	0.00e+00	0	43	104	38017171456	77	19428

#Closed at: 2026-01-20 21:55:36
#Recorded file [38017 MB]: D:/lorett/data/31041_260121_004549.dat