passes_logs/2026/01/20/R3.2S_Murmansk/R3.2S_Murmansk__20260120_095532_NOAA_20_JPSS-1_rec.log

#Pass ID: 20260120_095532_NOAA 20 (JPSS-1)
#Satellite: NOAA 20 (JPSS-1)
#Configuration: NOAA 20
#almurnet v.1.7.20251203
#Start time: 2026-01-20 09:55:34

#Version: 2.2.20231116
#Station: R3.2S_Murmansk
#Location: 33.079688 lon 68.888172 lat
#TLE: 1 43013U 17073A   26019.91154542  .00000116  00000+0  76014-4 0  9997
#TLE: 2 43013  98.7642 320.7991 0001304  32.0041 328.1214 14.19537346423438

#Time	Az	El	Level	Level2	SNR	BER	BlckErr	Temp	State	Recorded	gain1	gain2
2026-01-20 09:55:34.95	161.37	2.14	-49.7	-64.6	3.8	1.49e+00	0	37	0	0	71	19535
2026-01-20 09:55:35.95	161.38	2.20	-49.7	-64.6	3.8	1.49e+00	0	37	104	0	69	21928
2026-01-20 09:55:36.95	161.40	2.27	-49.7	-64.6	3.8	1.49e+00	0	37	104	0	69	21902
2026-01-20 09:55:37.96	161.41	2.33	-49.7	-64.6	3.8	1.49e+00	0	37	104	0	69	21854
2026-01-20 09:55:38.97	161.42	2.40	-49.7	-64.6	3.8	1.49e+00	0	37	104	0	69	21855
2026-01-20 09:55:39.98	161.44	2.46	-49.7	-64.5	3.8	1.49e+00	0	37	104	0	69	21753
2026-01-20 09:55:40.99	161.45	2.53	-49.7	-64.5	3.8	1.49e+00	0	37	104	0	69	21663
2026-01-20 09:55:41.99	161.47	2.60	-49.7	-64.5	3.8	1.49e+00	0	37	104	0	69	21593
2026-01-20 09:55:43.00	161.48	2.66	-49.7	-64.4	3.8	1.49e+00	0	37	104	0	69	21409
2026-01-20 09:55:44.01	161.50	2.73	-49.7	-64.4	3.8	1.49e+00	0	37	104	0	69	21394
2026-01-20 09:55:45.01	161.51	2.79	-49.7	-64.3	3.8	1.49e+00	0	37	104	0	69	21051
2026-01-20 09:55:46.02	161.52	2.86	-49.7	-64.2	3.8	1.49e+00	0	37	104	0	69	21016
2026-01-20 09:55:47.03	161.54	2.93	-49.7	-64.2	3.8	1.49e+00	0	37	104	0	69	20803
2026-01-20 09:55:48.03	161.55	2.99	-49.7	-64.1	3.8	1.49e+00	0	37	104	0	69	20716
2026-01-20 09:55:49.04	161.57	3.06	-49.7	-64.1	3.8	1.49e+00	0	37	104	0	69	20740
2026-01-20 09:55:50.05	161.58	3.13	-49.7	-64.2	3.8	1.49e+00	0	37	104	0	69	20898
2026-01-20 09:55:51.06	161.60	3.19	-49.7	-64.1	3.8	1.49e+00	0	37	104	0	69	20727
2026-01-20 09:55:52.07	161.61	3.26	-49.7	-64.2	3.8	1.49e+00	0	37	104	0	69	20966
2026-01-20 09:55:53.08	161.63	3.33	-49.7	-64.3	3.8	1.49e+00	0	37	104	0	69	21155
2026-01-20 09:55:54.08	161.64	3.40	-49.7	-64.4	3.8	1.49e+00	0	37	104	0	69	21275
2026-01-20 09:55:55.09	161.66	3.46	-49.7	-64.4	3.8	1.49e+00	0	37	104	0	69	21451
2026-01-20 09:55:56.10	161.67	3.53	-49.7	-64.5	3.8	1.49e+00	0	37	104	0	69	21546
2026-01-20 09:55:57.11	161.69	3.60	-49.7	-64.5	3.8	1.49e+00	0	37	104	0	69	21564
2026-01-20 09:55:58.11	161.70	3.67	-49.7	-64.5	3.8	1.49e+00	0	37	104	0	69	21581
2026-01-20 09:55:59.12	161.72	3.74	-49.7	-64.5	3.8	1.49e+00	0	37	104	0	69	21625
2026-01-20 09:56:00.13	161.73	3.81	-49.7	-64.5	3.8	1.49e+00	0	37	104	0	69	21563
2026-01-20 09:56:01.13	161.75	3.87	-49.7	-64.4	3.8	1.49e+00	0	37	104	0	69	21388
2026-01-20 09:56:02.14	161.76	3.94	-49.7	-64.4	3.8	1.49e+00	0	37	104	0	69	21321
2026-01-20 09:56:03.15	161.78	4.01	-49.7	-64.3	3.8	1.49e+00	0	37	104	0	69	21159
2026-01-20 09:56:04.16	161.79	4.08	-49.6	-64.0	3.8	1.49e+00	0	37	104	0	69	20394
2026-01-20 09:56:05.17	161.81	4.15	-49.6	-64.0	3.8	1.49e+00	0	37	104	0	69	20437
2026-01-20 09:56:06.17	161.83	4.22	-49.6	-63.6	3.8	1.49e+00	0	37	104	0	69	19473
2026-01-20 09:56:07.18	161.84	4.29	-49.6	-63.3	3.8	1.49e+00	0	37	104	0	69	18796
2026-01-20 09:56:08.19	161.86	4.36	-49.6	-62.9	3.8	1.49e+00	0	37	104	0	69	17909
2026-01-20 09:56:09.20	161.87	4.43	-49.5	-61.9	4.0	1.49e+00	0	37	104	0	69	16127
2026-01-20 09:56:10.21	161.89	4.50	-49.5	-61.5	4.1	1.44e+00	0	37	0	0	69	15388
2026-01-20 09:56:11.21	161.90	4.57	-49.5	-60.9	4.3	1.38e+00	0	37	0	0	69	14216
2026-01-20 09:56:12.22	161.92	4.64	-49.4	-60.0	4.6	1.19e+00	0	38	0	1048576	69	12849
2026-01-20 09:56:13.23	161.94	4.71	-49.3	-59.3	4.8	8.65e-01	0	37	0	3145728	69	11875
2026-01-20 09:56:14.24	161.95	4.79	-49.2	-58.5	5.3	7.24e-01	0	37	0	5242880	69	10845
2026-01-20 09:56:15.25	161.97	4.86	-49.2	-58.1	5.6	4.87e-01	0	38	0	6291456	69	10359
2026-01-20 09:56:16.25	161.98	4.93	-49.1	-57.8	5.8	4.38e-01	0	37	0	8388608	69	10006
2026-01-20 09:56:17.26	162.00	5.00	-49.0	-57.1	6.3	3.69e-01	0	38	0	10485760	69	9219
2026-01-20 09:56:18.27	162.02	5.07	-49.0	-57.0	6.4	2.34e-01	0	37	0	12582912	69	9107
2026-01-20 09:56:19.28	162.03	5.14	-49.4	-59.8	4.7	8.42e-01	0	37	0	14680064	69	12554
2026-01-20 09:56:20.29	162.05	5.22	-49.4	-59.8	4.6	1.42e+00	26	37	0	14680064	69	12599
2026-01-20 09:56:21.29	162.07	5.29	-49.2	-58.4	5.3	3.80e-01	0	38	0	16777216	69	10751
2026-01-20 09:56:22.30	162.08	5.36	-48.8	-55.8	7.5	1.54e-01	0	37	0	18874368	69	7938
2026-01-20 09:56:23.31	162.10	5.43	-49.5	-61.1	3.9	1.44e+00	0	37	104	19922944	69	14708
2026-01-20 09:56:24.32	162.12	5.51	-48.7	-55.5	7.8	1.05e-01	0	38	0	20971520	69	7693
2026-01-20 09:56:25.32	162.13	5.58	-48.7	-55.5	7.8	7.78e-02	0	38	0	22020096	69	7674
2026-01-20 09:56:26.33	162.15	5.65	-48.7	-55.2	8.0	6.84e-02	0	38	0	24117248	69	7441
2026-01-20 09:56:27.34	162.17	5.73	-48.6	-55.1	8.2	6.05e-02	0	38	0	26214400	69	7323
2026-01-20 09:56:28.35	162.18	5.80	-48.6	-55.1	8.2	5.67e-02	0	38	0	28311552	69	7310
2026-01-20 09:56:29.35	162.20	5.88	-48.6	-55.1	8.2	6.01e-02	0	38	0	30408704	69	7367
2026-01-20 09:56:30.36	162.22	5.95	-48.6	-55.0	8.4	5.72e-02	0	38	0	32505856	69	7218
2026-01-20 09:56:31.37	162.24	6.03	-48.6	-55.0	8.3	4.62e-02	0	38	0	33554432	69	7273
2026-01-20 09:56:32.38	162.25	6.10	-48.7	-55.2	8.1	6.07e-02	0	38	0	35651584	69	7408
2026-01-20 09:56:33.39	162.27	6.18	-48.7	-55.3	8.0	5.98e-02	0	38	0	37748736	69	7513
2026-01-20 09:56:34.39	162.29	6.25	-48.7	-55.5	7.9	7.21e-02	0	38	0	39845888	69	7644
2026-01-20 09:56:35.40	162.31	6.33	-48.7	-55.4	8.0	8.09e-02	0	38	0	40894464	69	7577
2026-01-20 09:56:36.41	162.32	6.40	-48.6	-55.0	8.4	5.17e-02	0	38	0	42991616	69	7213
2026-01-20 09:56:37.42	162.34	6.48	-48.6	-55.0	8.4	4.30e-02	0	38	0	45088768	69	7218
2026-01-20 09:56:38.43	162.36	6.55	-48.6	-54.7	8.6	4.29e-02	0	38	0	47185920	69	7028
2026-01-20 09:56:39.43	162.38	6.63	-48.6	-54.7	8.7	3.24e-02	0	38	0	49283072	69	6996
2026-01-20 09:56:40.44	162.39	6.71	-48.6	-54.7	8.7	3.87e-02	0	38	0	50331648	69	6987
2026-01-20 09:56:41.45	162.41	6.78	-48.6	-54.7	8.7	3.64e-02	0	38	0	52428800	69	7014
2026-01-20 09:56:42.45	162.43	6.86	-48.6	-54.7	8.7	3.70e-02	0	38	0	54525952	69	7001
2026-01-20 09:56:43.46	162.45	6.94	-48.6	-54.8	8.6	3.28e-02	0	38	0	56623104	69	7075
2026-01-20 09:56:44.47	162.47	7.01	-48.5	-54.4	9.0	3.05e-02	0	38	0	58720256	69	6781
2026-01-20 09:56:45.48	162.48	7.09	-48.5	-54.5	8.9	2.78e-02	0	38	0	60817408	69	6868
2026-01-20 09:56:46.48	162.50	7.17	-48.6	-54.6	8.8	3.36e-02	0	38	0	61865984	69	6895
2026-01-20 09:56:47.49	162.52	7.25	-48.6	-54.6	8.8	3.15e-02	0	38	0	63963136	69	6919
2026-01-20 09:56:48.50	162.54	7.33	-48.6	-54.6	8.7	3.57e-02	0	38	0	66060288	69	6954
2026-01-20 09:56:49.51	162.56	7.41	-48.5	-54.3	9.1	2.24e-02	0	38	0	68157440	68	7089
2026-01-20 09:56:50.51	162.58	7.48	-48.5	-54.3	9.1	2.37e-02	0	38	0	69206016	68	7079
2026-01-20 09:56:51.52	162.60	7.56	-48.6	-54.6	8.8	2.32e-02	0	38	0	71303168	68	7342
2026-01-20 09:56:52.53	162.61	7.64	-48.5	-54.4	9.0	2.74e-02	0	38	0	73400320	68	7181
2026-01-20 09:56:53.54	162.63	7.72	-48.5	-54.4	9.0	2.46e-02	0	38	0	75497472	68	7183
2026-01-20 09:56:54.55	162.65	7.80	-48.5	-54.2	9.2	2.44e-02	0	38	0	77594624	68	7004
2026-01-20 09:56:55.55	162.67	7.88	-48.5	-54.3	9.1	2.06e-02	0	38	0	79691776	68	7103
2026-01-20 09:56:56.56	162.69	7.96	-48.5	-54.4	9.1	2.18e-02	0	38	0	80740352	68	7140
2026-01-20 09:56:57.57	162.71	8.04	-48.4	-54.1	9.3	2.22e-02	0	38	0	82837504	68	6953
2026-01-20 09:56:58.58	162.73	8.12	-48.5	-54.2	9.2	2.21e-02	0	38	0	84934656	68	7036
2026-01-20 09:56:59.59	162.75	8.21	-48.4	-54.1	9.4	2.05e-02	0	38	0	87031808	68	6932
2026-01-20 09:57:00.59	162.77	8.29	-48.4	-54.0	9.5	1.62e-02	0	38	0	89128960	68	6829
2026-01-20 09:57:01.60	162.79	8.37	-48.4	-54.0	9.4	1.46e-02	0	38	0	90177536	68	6845
2026-01-20 09:57:02.61	162.81	8.45	-48.4	-53.9	9.5	1.42e-02	0	38	0	92274688	68	6772
2026-01-20 09:57:03.62	162.83	8.53	-48.4	-53.8	9.7	1.35e-02	0	38	0	94371840	68	6716
2026-01-20 09:57:04.62	162.85	8.61	-48.4	-53.8	9.6	1.18e-02	0	38	0	96468992	68	6721
2026-01-20 09:57:05.63	162.87	8.70	-48.4	-54.1	9.4	1.52e-02	0	38	0	97517568	68	6922
2026-01-20 09:57:06.64	162.89	8.78	-48.3	-53.8	9.7	1.45e-02	0	38	0	99614720	68	6661
2026-01-20 09:57:07.65	162.91	8.86	-48.3	-53.7	9.8	1.13e-02	0	38	0	101711872	68	6602
2026-01-20 09:57:08.66	162.93	8.95	-48.3	-53.8	9.7	1.07e-02	0	38	0	103809024	68	6669
2026-01-20 09:57:09.66	162.95	9.03	-48.3	-53.7	9.8	1.37e-02	0	38	0	105906176	68	6621
2026-01-20 09:57:10.67	162.97	9.11	-48.4	-53.8	9.7	8.77e-03	0	38	0	108003328	68	6709
2026-01-20 09:57:11.68	162.99	9.20	-48.3	-53.7	9.7	1.14e-02	0	38	0	109051904	68	6632
2026-01-20 09:57:12.69	163.01	9.28	-48.3	-53.7	9.8	1.06e-02	0	38	0	111149056	68	6646
2026-01-20 09:57:13.69	163.03	9.37	-48.3	-53.6	9.9	1.01e-02	0	38	0	113246208	68	6509
2026-01-20 09:57:14.70	163.05	9.45	-48.3	-53.6	10.0	8.15e-03	0	38	0	115343360	68	6503
2026-01-20 09:57:15.71	163.07	9.54	-48.3	-53.5	10.0	7.48e-03	0	38	0	117440512	68	6469
2026-01-20 09:57:16.72	163.09	9.63	-48.3	-53.6	9.9	8.62e-03	0	38	0	118489088	68	6501
2026-01-20 09:57:17.73	163.11	9.71	-48.3	-53.6	9.9	8.26e-03	0	38	0	120586240	68	6531
2026-01-20 09:57:18.73	163.14	9.80	-48.3	-53.7	9.8	1.01e-02	0	38	0	122683392	68	6594
2026-01-20 09:57:19.74	163.16	9.88	-48.2	-53.4	10.0	8.55e-03	0	38	0	124780544	68	6420
2026-01-20 09:57:20.75	163.18	9.97	-48.2	-53.3	10.2	6.54e-03	0	38	0	126877696	68	6324
2026-01-20 09:57:21.76	163.20	10.06	-48.2	-53.3	10.2	6.05e-03	0	38	0	127926272	68	6291
2026-01-20 09:57:22.77	163.22	10.15	-48.2	-53.2	10.3	5.89e-03	0	38	0	130023424	68	6260
2026-01-20 09:57:23.77	163.24	10.23	-48.2	-53.3	10.2	4.78e-03	0	38	0	132120576	68	6336
2026-01-20 09:57:24.78	163.26	10.32	-48.2	-53.4	10.1	5.95e-03	0	38	0	134217728	68	6367
2026-01-20 09:57:25.79	163.29	10.41	-48.2	-53.3	10.3	5.34e-03	0	38	0	136314880	68	6287
2026-01-20 09:57:26.80	163.31	10.50	-48.1	-53.1	10.5	4.35e-03	0	38	0	137363456	68	6147
2026-01-20 09:57:27.81	163.33	10.59	-48.1	-53.1	10.5	4.05e-03	0	38	0	139460608	68	6167
2026-01-20 09:57:28.81	163.35	10.68	-48.1	-53.2	10.3	4.80e-03	0	38	0	141557760	68	6216
2026-01-20 09:57:29.82	163.38	10.77	-48.1	-53.1	10.4	4.94e-03	0	38	0	143654912	68	6195
2026-01-20 09:57:30.83	163.40	10.86	-48.1	-53.1	10.5	5.00e-03	0	38	0	145752064	68	6141
2026-01-20 09:57:31.84	163.42	10.95	-48.2	-53.2	10.4	4.56e-03	0	38	0	146800640	68	6226
2026-01-20 09:57:32.85	163.44	11.04	-48.2	-53.2	10.4	4.68e-03	0	38	0	148897792	68	6254
2026-01-20 09:57:33.85	163.47	11.13	-48.1	-53.1	10.4	4.79e-03	0	38	0	150994944	68	6183
2026-01-20 09:57:34.86	163.49	11.22	-48.1	-53.1	10.4	4.36e-03	0	38	0	153092096	68	6176
2026-01-20 09:57:35.87	163.51	11.32	-48.2	-53.3	10.2	4.73e-03	0	38	0	155189248	68	6305
2026-01-20 09:57:36.88	163.54	11.41	-48.1	-53.1	10.5	5.08e-03	0	38	0	156237824	68	6157
2026-01-20 09:57:37.89	163.56	11.50	-48.1	-53.2	10.3	4.30e-03	0	38	0	158334976	68	6247
2026-01-20 09:57:38.89	163.58	11.59	-48.0	-52.9	10.6	3.53e-03	0	38	0	160432128	68	6053
2026-01-20 09:57:39.90	163.61	11.69	-48.1	-53.1	10.5	3.66e-03	0	38	0	162529280	68	6165
2026-01-20 09:57:40.91	163.63	11.78	-48.0	-52.7	10.8	3.84e-03	0	38	0	164626432	68	5921
2026-01-20 09:57:41.92	163.65	11.87	-48.0	-52.9	10.7	3.07e-03	0	38	0	165675008	68	6027
2026-01-20 09:57:42.93	163.68	11.97	-48.1	-52.9	10.7	3.26e-03	0	38	0	167772160	68	6049
2026-01-20 09:57:43.93	163.70	12.06	-48.1	-52.9	10.7	2.68e-03	0	38	0	169869312	68	6051
2026-01-20 09:57:44.94	163.73	12.16	-48.0	-52.7	10.8	2.58e-03	0	38	0	171966464	68	5909
2026-01-20 09:57:45.95	163.75	12.25	-48.0	-52.8	10.7	2.81e-03	0	38	0	174063616	68	5982
2026-01-20 09:57:46.96	163.78	12.35	-48.1	-52.9	10.7	2.90e-03	0	38	0	176160768	68	6051
2026-01-20 09:57:47.97	163.80	12.45	-48.0	-52.9	10.8	2.87e-03	0	38	0	177209344	68	5999
2026-01-20 09:57:48.97	163.83	12.54	-48.1	-52.9	10.7	3.31e-03	0	38	0	179306496	68	6040
2026-01-20 09:57:49.98	163.85	12.64	-48.0	-52.7	11.0	2.54e-03	0	38	0	181403648	68	5872
2026-01-20 09:57:50.99	163.88	12.74	-47.9	-52.5	11.0	1.85e-03	0	38	0	183500800	67	6093
2026-01-20 09:57:52.00	163.90	12.83	-47.8	-52.4	11.1	1.84e-03	0	38	0	184549376	67	6049
2026-01-20 09:57:53.01	163.93	12.93	-47.9	-52.6	11.0	1.83e-03	0	38	0	186646528	67	6134
2026-01-20 09:57:54.01	163.95	13.03	-47.8	-52.4	11.0	2.27e-03	0	38	0	188743680	67	6047
2026-01-20 09:57:55.02	163.98	13.13	-47.8	-52.4	11.1	1.80e-03	0	38	0	190840832	67	6045
2026-01-20 09:57:56.03	164.00	13.23	-47.8	-52.4	11.1	1.61e-03	0	38	0	192937984	67	6043
2026-01-20 09:57:57.04	164.03	13.33	-47.8	-52.3	11.3	1.50e-03	0	38	0	193986560	67	5936
2026-01-20 09:57:58.04	164.06	13.43	-47.8	-52.4	11.1	1.26e-03	0	38	0	196083712	67	6036
2026-01-20 09:57:59.05	164.08	13.53	-47.8	-52.4	11.1	1.51e-03	0	38	0	198180864	67	6034
2026-01-20 09:58:00.06	164.11	13.63	-47.8	-52.3	11.2	1.48e-03	0	38	0	200278016	67	5991
2026-01-20 09:58:01.07	164.14	13.73	-47.8	-52.3	11.2	1.40e-03	0	38	0	202375168	67	5953
2026-01-20 09:58:02.07	164.16	13.83	-47.8	-52.3	11.2	1.10e-03	0	38	0	204472320	67	5948
2026-01-20 09:58:03.08	164.19	13.93	-47.8	-52.3	11.3	1.47e-03	0	38	0	205520896	67	5955
2026-01-20 09:58:04.09	164.22	14.04	-47.8	-52.4	11.1	1.30e-03	0	38	0	207618048	67	6014
2026-01-20 09:58:05.10	164.24	14.14	-47.8	-52.3	11.3	1.15e-03	0	38	0	209715200	67	5947
2026-01-20 09:58:06.11	164.27	14.24	-47.8	-52.2	11.3	1.03e-03	0	38	0	211812352	67	5902
2026-01-20 09:58:07.11	164.30	14.35	-47.8	-52.2	11.3	1.02e-03	0	38	0	212860928	67	5898
2026-01-20 09:58:08.12	164.33	14.45	-47.8	-52.2	11.3	1.04e-03	0	38	0	214958080	67	5899
2026-01-20 09:58:09.13	164.35	14.56	-47.8	-52.2	11.3	1.19e-03	0	38	0	217055232	67	5923
2026-01-20 09:58:10.14	164.38	14.66	-47.8	-52.2	11.4	1.15e-03	0	38	0	219152384	67	5892
2026-01-20 09:58:11.15	164.41	14.77	-47.7	-52.2	11.4	1.23e-03	0	38	0	221249536	67	5860
2026-01-20 09:58:12.15	164.44	14.87	-47.8	-52.3	11.2	1.17e-03	0	38	0	223346688	67	5967
2026-01-20 09:58:13.16	164.47	14.98	-47.8	-52.3	11.3	1.21e-03	0	38	0	224395264	67	5944
2026-01-20 09:58:14.17	164.50	15.09	-47.8	-52.3	11.2	1.45e-03	0	38	0	226492416	67	5974
2026-01-20 09:58:15.18	164.53	15.20	-47.8	-52.2	11.4	1.19e-03	0	38	0	228589568	67	5865
2026-01-20 09:58:16.18	164.56	15.30	-47.7	-52.1	11.5	9.30e-04	0	38	0	230686720	67	5828
2026-01-20 09:58:17.19	164.58	15.41	-47.7	-52.1	11.4	8.89e-04	0	38	0	232783872	67	5853
2026-01-20 09:58:18.20	164.61	15.52	-47.7	-52.1	11.4	8.70e-04	0	38	0	233832448	67	5840
2026-01-20 09:58:19.21	164.64	15.63	-47.7	-52.1	11.5	9.69e-04	0	38	0	235929600	67	5838
2026-01-20 09:58:20.22	164.67	15.74	-47.7	-52.0	11.5	8.97e-04	0	38	0	238026752	67	5779
2026-01-20 09:58:21.23	164.70	15.85	-47.8	-52.2	11.5	8.87e-04	0	38	0	240123904	67	5859
2026-01-20 09:58:22.23	164.73	15.96	-47.7	-52.1	11.5	9.22e-04	0	38	0	241172480	67	5836
2026-01-20 09:58:23.24	164.76	16.07	-47.8	-52.2	11.4	8.71e-04	0	38	0	243269632	67	5858
2026-01-20 09:58:24.25	164.80	16.19	-47.7	-52.1	11.5	9.63e-04	0	38	0	245366784	67	5815
2026-01-20 09:58:25.26	164.83	16.30	-47.8	-52.3	11.3	1.10e-03	0	38	0	247463936	67	5935
2026-01-20 09:58:26.27	164.86	16.41	-47.8	-52.3	11.3	1.10e-03	0	38	0	249561088	67	5957
2026-01-20 09:58:27.27	164.89	16.52	-47.8	-52.2	11.4	1.12e-03	0	38	0	251658240	67	5911
2026-01-20 09:58:28.28	164.92	16.64	-47.8	-52.3	11.3	1.00e-03	0	38	0	252706816	67	5972
2026-01-20 09:58:29.29	164.95	16.75	-47.8	-52.4	11.2	1.38e-03	0	38	0	254803968	67	6014
2026-01-20 09:58:30.29	164.98	16.87	-47.8	-52.3	11.3	1.23e-03	0	38	0	256901120	67	5977
2026-01-20 09:58:31.30	165.02	16.98	-47.8	-52.2	11.3	1.29e-03	0	38	0	258998272	67	5917
2026-01-20 09:58:32.31	165.05	17.10	-47.8	-52.3	11.3	1.31e-03	0	38	0	261095424	67	5973
2026-01-20 09:58:33.32	165.08	17.22	-47.8	-52.3	11.3	1.39e-03	0	38	0	262144000	67	5979
2026-01-20 09:58:34.33	165.11	17.33	-47.9	-52.4	11.1	1.40e-03	0	38	0	264241152	67	6054
2026-01-20 09:58:35.33	165.15	17.45	-47.8	-52.3	11.3	1.49e-03	0	38	0	266338304	67	5960
2026-01-20 09:58:36.34	165.18	17.57	-47.9	-52.5	11.1	1.48e-03	0	38	0	268435456	67	6067
2026-01-20 09:58:37.35	165.21	17.69	-47.9	-52.4	11.2	1.49e-03	0	38	0	269484032	67	6057
2026-01-20 09:58:38.36	165.25	17.81	-47.9	-52.5	11.1	1.43e-03	0	38	0	271581184	67	6082
2026-01-20 09:58:39.36	165.28	17.93	-47.9	-52.5	11.0	1.72e-03	0	38	0	273678336	67	6113
2026-01-20 09:58:40.37	165.32	18.05	-47.9	-52.5	11.0	1.63e-03	0	38	0	275775488	67	6109
2026-01-20 09:58:41.38	165.35	18.17	-47.9	-52.6	11.0	2.04e-03	0	38	0	277872640	67	6139
2026-01-20 09:58:42.39	165.39	18.29	-47.9	-52.5	11.1	1.81e-03	0	38	0	279969792	67	6082
2026-01-20 09:58:43.39	165.42	18.41	-47.9	-52.5	11.0	1.88e-03	0	38	0	281018368	67	6109
2026-01-20 09:58:44.40	165.46	18.54	-48.0	-52.6	11.0	1.65e-03	0	38	0	283115520	67	6168
2026-01-20 09:58:45.41	165.49	18.66	-47.9	-52.6	11.0	1.95e-03	0	38	0	285212672	67	6134
2026-01-20 09:58:46.42	165.53	18.78	-48.0	-52.8	10.8	2.07e-03	0	38	0	287309824	67	6280
2026-01-20 09:58:47.43	165.56	18.91	-48.0	-52.7	10.9	2.25e-03	0	38	0	289406976	67	6246
2026-01-20 09:58:48.43	165.60	19.03	-48.0	-52.8	10.7	2.58e-03	0	38	0	290455552	67	6342
2026-01-20 09:58:49.44	165.64	19.16	-48.0	-52.8	10.8	2.87e-03	0	38	0	292552704	67	6318
2026-01-20 09:58:50.45	165.67	19.29	-48.0	-52.8	10.7	2.62e-03	0	38	0	294649856	67	6324
2026-01-20 09:58:51.46	165.71	19.42	-48.1	-53.0	10.6	3.53e-03	0	38	0	296747008	67	6435
2026-01-20 09:58:52.46	165.75	19.54	-48.1	-52.9	10.6	3.55e-03	0	38	0	298844160	67	6416
2026-01-20 09:58:53.47	165.78	19.67	-48.1	-53.0	10.6	3.25e-03	0	38	0	299892736	67	6468
2026-01-20 09:58:54.48	165.82	19.80	-48.1	-53.1	10.5	4.53e-03	0	38	0	301989888	67	6533
2026-01-20 09:58:55.49	165.86	19.93	-48.2	-53.1	10.4	4.71e-03	0	38	0	304087040	67	6567
2026-01-20 09:58:56.49	165.90	20.06	-48.2	-53.2	10.4	4.32e-03	0	38	0	306184192	67	6580
2026-01-20 09:58:57.50	165.94	20.19	-48.2	-53.2	10.3	5.38e-03	0	38	0	308281344	67	6645
2026-01-20 09:58:58.51	165.98	20.33	-48.2	-53.2	10.3	5.35e-03	0	38	0	309329920	67	6644
2026-01-20 09:58:59.51	166.02	20.46	-48.2	-53.4	10.1	6.63e-03	0	38	0	311427072	67	6765
2026-01-20 09:59:00.52	166.06	20.59	-48.2	-53.4	10.2	5.70e-03	0	38	0	313524224	67	6746
2026-01-20 09:59:01.53	166.10	20.72	-48.2	-53.3	10.2	6.37e-03	0	38	0	315621376	67	6649
2026-01-20 09:59:02.54	166.14	20.86	-48.3	-53.5	10.0	7.96e-03	0	38	0	317718528	67	6864
2026-01-20 09:59:03.55	166.18	21.00	-48.2	-53.4	10.1	7.29e-03	0	38	0	318767104	67	6789
2026-01-20 09:59:04.55	166.22	21.13	-48.3	-53.5	10.0	7.28e-03	0	38	0	320864256	67	6860
2026-01-20 09:59:05.56	166.26	21.27	-48.3	-53.6	9.9	7.42e-03	0	38	0	322961408	67	6913
2026-01-20 09:59:06.57	166.30	21.41	-48.3	-53.6	9.9	8.62e-03	0	38	0	325058560	67	6901
2026-01-20 09:59:07.58	166.34	21.55	-48.3	-53.6	9.9	9.03e-03	0	38	0	327155712	67	6917
2026-01-20 09:59:08.59	166.39	21.68	-48.3	-53.6	9.9	8.73e-03	0	38	0	328204288	67	6900
2026-01-20 09:59:09.59	166.43	21.82	-48.3	-53.5	10.1	9.09e-03	0	38	0	330301440	67	6851
2026-01-20 09:59:10.60	166.47	21.96	-48.3	-53.6	9.9	8.80e-03	0	38	0	332398592	67	6911
2026-01-20 09:59:11.61	166.52	22.11	-48.3	-53.6	10.0	8.72e-03	0	38	0	334495744	67	6892
2026-01-20 09:59:12.61	166.56	22.25	-48.3	-53.5	10.0	8.31e-03	0	38	0	336592896	67	6870
2026-01-20 09:59:13.62	166.60	22.39	-48.3	-53.6	9.8	9.62e-03	0	38	0	337641472	67	6953
2026-01-20 09:59:14.63	166.65	22.54	-48.3	-53.7	9.8	9.70e-03	0	38	0	339738624	67	7032
2026-01-20 09:59:15.64	166.69	22.68	-48.3	-53.7	9.9	9.50e-03	0	38	0	341835776	67	6974
2026-01-20 09:59:16.64	166.74	22.82	-48.3	-53.6	9.9	9.64e-03	0	38	0	343932928	67	6924
2026-01-20 09:59:17.65	166.78	22.97	-48.3	-53.7	9.8	9.58e-03	0	38	0	346030080	67	7024
2026-01-20 09:59:18.66	166.83	23.12	-48.3	-53.5	9.9	9.17e-03	0	38	0	348127232	67	6869
2026-01-20 09:59:19.67	166.88	23.27	-48.3	-53.6	9.9	9.10e-03	0	38	0	349175808	67	6923
2026-01-20 09:59:20.67	166.92	23.41	-48.3	-53.6	9.9	7.55e-03	0	38	0	351272960	67	6905
2026-01-20 09:59:21.68	166.97	23.56	-48.3	-53.5	10.0	7.90e-03	0	38	0	353370112	67	6844
2026-01-20 09:59:22.69	167.02	23.72	-48.3	-53.6	10.0	7.29e-03	0	38	0	355467264	67	6884
2026-01-20 09:59:23.69	167.07	23.87	-48.3	-53.5	10.0	7.36e-03	0	38	0	356515840	67	6870
2026-01-20 09:59:24.70	167.12	24.02	-48.2	-53.2	10.3	6.93e-03	0	38	0	358612992	67	6637
2026-01-20 09:59:25.71	167.16	24.17	-48.2	-53.3	10.3	5.51e-03	0	38	0	360710144	67	6651
2026-01-20 09:59:26.72	167.21	24.33	-48.1	-53.1	10.4	5.19e-03	0	38	0	362807296	67	6537
2026-01-20 09:59:27.72	167.26	24.48	-48.1	-53.0	10.5	4.50e-03	0	38	0	364904448	67	6464
2026-01-20 09:59:28.73	167.31	24.64	-48.1	-53.0	10.5	4.03e-03	0	38	0	365953024	67	6465
2026-01-20 09:59:29.74	167.36	24.79	-48.1	-52.9	10.6	3.38e-03	0	38	0	368050176	67	6393
2026-01-20 09:59:30.75	167.42	24.95	-48.0	-52.8	10.7	3.21e-03	0	38	0	370147328	67	6329
2026-01-20 09:59:31.75	167.47	25.11	-48.1	-52.9	10.6	3.88e-03	0	38	0	372244480	67	6419
2026-01-20 09:59:32.76	167.52	25.27	-48.0	-52.8	10.7	3.34e-03	0	38	0	374341632	67	6335
2026-01-20 09:59:33.77	167.57	25.43	-48.0	-52.9	10.7	2.69e-03	0	38	0	376438784	67	6348
2026-01-20 09:59:34.78	167.63	25.59	-48.0	-52.7	10.8	2.93e-03	0	38	0	377487360	67	6227
2026-01-20 09:59:35.79	167.68	25.75	-48.0	-52.8	10.8	2.54e-03	0	38	0	379584512	67	6285
2026-01-20 09:59:36.79	167.73	25.91	-48.0	-52.7	10.8	2.55e-03	0	38	0	381681664	67	6262
2026-01-20 09:59:37.80	167.79	26.08	-48.0	-52.7	10.9	2.20e-03	0	38	0	383778816	67	6236
2026-01-20 09:59:38.81	167.84	26.24	-48.0	-52.9	10.8	2.62e-03	0	38	0	384827392	67	6351
2026-01-20 09:59:39.82	167.90	26.41	-48.0	-52.8	10.7	2.89e-03	0	38	0	386924544	67	6342
2026-01-20 09:59:40.83	167.96	26.58	-48.0	-52.9	10.6	3.20e-03	0	38	0	389021696	66	6742
2026-01-20 09:59:41.83	168.01	26.74	-48.1	-53.1	10.5	3.93e-03	0	38	0	391118848	66	6920
2026-01-20 09:59:42.84	168.07	26.91	-48.1	-53.1	10.4	3.88e-03	0	38	0	393216000	66	6953
2026-01-20 09:59:43.85	168.13	27.08	-48.2	-53.3	10.3	5.36e-03	0	38	0	394264576	66	7087
2026-01-20 09:59:44.85	168.19	27.25	-48.2	-53.4	10.1	6.63e-03	0	38	0	396361728	67	6746
2026-01-20 09:59:45.86	168.25	27.43	-48.3	-53.7	9.7	9.09e-03	0	38	0	398458880	67	7020
2026-01-20 09:59:46.87	168.31	27.60	-48.4	-53.8	9.7	1.11e-02	0	38	0	400556032	67	7071
2026-01-20 09:59:47.88	168.37	27.78	-48.4	-54.0	9.5	1.29e-02	0	38	0	402653184	67	7252
2026-01-20 09:59:48.89	168.43	27.95	-48.5	-54.1	9.4	1.56e-02	0	39	0	404750336	67	7366
2026-01-20 09:59:49.89	168.49	28.13	-48.5	-54.1	9.3	1.77e-02	0	38	0	405798912	67	7343
2026-01-20 09:59:50.90	168.55	28.31	-48.5	-54.3	9.1	2.00e-02	0	38	0	407896064	67	7532
2026-01-20 09:59:51.91	168.62	28.48	-48.5	-54.4	9.1	2.18e-02	0	38	0	409993216	67	7584
2026-01-20 09:59:52.92	168.68	28.67	-48.5	-54.4	9.1	2.30e-02	0	38	0	412090368	67	7563
2026-01-20 09:59:53.92	168.74	28.84	-48.6	-54.5	8.9	2.75e-02	0	38	0	413138944	67	7670
2026-01-20 09:59:54.93	168.81	29.03	-48.6	-54.6	8.9	2.67e-02	0	38	0	415236096	67	7736
2026-01-20 09:59:55.94	168.87	29.21	-48.6	-54.7	8.8	3.33e-02	0	38	0	417333248	67	7844
2026-01-20 09:59:56.95	168.94	29.40	-48.7	-54.8	8.7	3.56e-02	0	38	0	419430400	67	7940
2026-01-20 09:59:57.95	169.01	29.58	-48.6	-54.7	8.7	3.48e-02	0	38	0	421527552	67	7895
2026-01-20 09:59:58.96	169.08	29.77	-48.7	-54.9	8.6	3.47e-02	0	38	0	423624704	67	7995
2026-01-20 09:59:59.97	169.14	29.96	-48.7	-55.0	8.5	3.82e-02	0	38	0	424673280	67	8087
2026-01-20 10:00:00.98	169.21	30.15	-48.8	-55.1	8.4	4.23e-02	0	38	0	426770432	68	7790
2026-01-20 10:00:01.98	169.28	30.34	-48.8	-55.2	8.3	4.57e-02	0	38	0	428867584	68	7894
2026-01-20 10:00:02.99	169.35	30.53	-48.9	-55.4	8.1	5.37e-02	0	38	0	430964736	68	8051
2026-01-20 10:00:04.00	169.43	30.72	-48.9	-55.4	8.2	6.52e-02	0	38	0	433061888	68	8034
2026-01-20 10:00:05.01	169.50	30.92	-48.9	-55.5	8.1	6.04e-02	0	39	0	434110464	68	8107
2026-01-20 10:00:06.02	169.57	31.11	-48.9	-55.5	8.0	6.56e-02	0	38	0	436207616	68	8144
2026-01-20 10:00:07.02	169.65	31.31	-48.9	-55.6	7.9	7.23e-02	0	39	0	438304768	68	8208
2026-01-20 10:00:08.03	169.72	31.51	-48.9	-55.6	7.9	6.40e-02	0	38	0	440401920	68	8200
2026-01-20 10:00:09.04	169.80	31.70	-48.9	-55.5	8.1	6.73e-02	0	38	0	441450496	68	8104
2026-01-20 10:00:10.04	169.87	31.90	-48.9	-55.5	8.0	6.21e-02	0	38	0	443547648	68	8127
2026-01-20 10:00:11.05	169.95	32.11	-48.9	-55.4	8.2	5.65e-02	0	38	0	445644800	68	8021
2026-01-20 10:00:12.05	170.03	32.31	-48.8	-55.2	8.3	5.46e-02	0	38	0	447741952	68	7886
2026-01-20 10:00:13.06	170.11	32.51	-48.8	-55.1	8.4	4.73e-02	0	38	0	449839104	68	7795
2026-01-20 10:00:14.07	170.19	32.72	-48.7	-54.9	8.6	4.11e-02	0	38	0	451936256	68	7563
2026-01-20 10:00:15.08	170.27	32.93	-48.2	-54.8	8.7	4.05e-02	0	38	0	452984832	68	7532
2026-01-20 10:00:16.09	170.36	33.14	-48.6	-54.6	8.8	3.11e-02	0	39	0	455081984	67	7758
2026-01-20 10:00:17.09	170.44	33.34	-48.5	-54.3	9.1	2.40e-02	0	39	0	457179136	67	7541
2026-01-20 10:00:18.10	170.52	33.56	-48.5	-54.2	9.3	2.26e-02	0	38	0	459276288	67	7401
2026-01-20 10:00:19.11	170.61	33.77	-48.5	-54.0	9.4	1.75e-02	0	38	0	461373440	67	7287
2026-01-20 10:00:20.12	170.70	33.98	-48.4	-53.9	9.5	1.34e-02	0	38	0	462422016	67	7179
2026-01-20 10:00:21.13	170.78	34.20	-48.4	-53.8	9.7	1.09e-02	0	38	0	464519168	67	7049
2026-01-20 10:00:22.13	170.87	34.42	-48.3	-53.5	10.0	9.71e-03	0	38	0	466616320	67	6876
2026-01-20 10:00:23.14	170.96	34.64	-48.3	-53.5	10.0	7.50e-03	0	38	0	468713472	67	6864
2026-01-20 10:00:24.15	171.05	34.86	-48.2	-53.2	10.3	4.95e-03	0	38	0	469762048	67	6621
2026-01-20 10:00:25.16	171.15	35.08	-48.2	-53.3	10.3	4.98e-03	0	38	0	471859200	67	6686
2026-01-20 10:00:26.17	171.24	35.30	-48.2	-53.4	10.2	5.75e-03	0	39	0	473956352	67	6747
2026-01-20 10:00:27.17	171.33	35.52	-48.2	-53.4	10.2	5.62e-03	0	38	0	476053504	67	6746
2026-01-20 10:00:28.18	171.43	35.75	-48.2	-53.3	10.2	6.11e-03	0	38	0	478150656	67	6671
2026-01-20 10:00:29.19	171.53	35.98	-48.2	-53.3	10.2	5.17e-03	0	38	0	480247808	67	6700
2026-01-20 10:00:30.20	171.63	36.21	-48.2	-53.3	10.3	5.44e-03	0	38	0	481296384	67	6650
2026-01-20 10:00:31.21	171.73	36.44	-48.2	-53.3	10.4	4.80e-03	0	38	0	483393536	67	6650
2026-01-20 10:00:32.21	171.83	36.67	-48.1	-52.9	10.6	4.06e-03	0	38	0	485490688	67	6369
2026-01-20 10:00:33.22	171.93	36.90	-48.1	-52.9	10.6	3.40e-03	0	38	0	487587840	67	6383
2026-01-20 10:00:34.23	172.04	37.14	-48.1	-52.9	10.7	3.41e-03	0	38	0	489684992	67	6386
2026-01-20 10:00:35.23	172.14	37.38	-47.9	-53.0	10.5	3.42e-03	0	38	0	490733568	67	6466
2026-01-20 10:00:36.24	172.25	37.61	-48.2	-53.3	10.3	4.91e-03	0	38	0	492830720	67	6659
2026-01-20 10:00:37.25	172.36	37.86	-48.3	-53.4	10.2	5.70e-03	0	38	0	494927872	67	6766
2026-01-20 10:00:38.25	172.47	38.10	-48.3	-53.6	10.0	6.36e-03	0	38	0	497025024	67	6901
2026-01-20 10:00:39.26	172.58	38.34	-48.4	-53.8	9.7	1.02e-02	0	38	0	499122176	67	7090
2026-01-20 10:00:40.27	172.69	38.58	-48.3	-53.7	9.8	1.12e-02	0	39	0	500170752	67	7026
2026-01-20 10:00:41.28	172.81	38.83	-48.4	-54.0	9.5	1.13e-02	0	38	0	502267904	67	7209
2026-01-20 10:00:42.29	172.93	39.08	-48.4	-53.8	9.6	1.27e-02	0	39	0	504365056	67	7090
2026-01-20 10:00:43.29	173.04	39.33	-48.4	-53.8	9.6	1.18e-02	0	38	0	506462208	67	7103
2026-01-20 10:00:44.30	173.17	39.58	-48.4	-53.9	9.6	1.19e-02	0	39	0	508559360	67	7151
2026-01-20 10:00:45.31	173.29	39.83	-48.4	-53.8	9.6	1.26e-02	0	38	0	509607936	67	7092
2026-01-20 10:00:46.32	173.41	40.09	-48.4	-54.0	9.5	1.25e-02	0	38	0	511705088	67	7242
2026-01-20 10:00:47.33	173.54	40.35	-48.4	-54.0	9.4	1.75e-02	0	38	0	513802240	67	7267
2026-01-20 10:00:48.34	173.67	40.61	-48.5	-54.2	9.3	1.67e-02	0	38	0	515899392	67	7395
2026-01-20 10:00:49.34	173.80	40.87	-48.5	-54.3	9.1	2.20e-02	0	38	0	517996544	67	7512
2026-01-20 10:00:50.35	173.93	41.13	-48.6	-54.4	9.1	2.19e-02	0	38	0	519045120	67	7570
2026-01-20 10:00:51.36	174.06	41.39	-48.5	-54.3	9.1	2.30e-02	0	38	0	521142272	67	7496
2026-01-20 10:00:52.37	174.20	41.66	-48.5	-54.2	9.3	1.98e-02	0	38	0	523239424	67	7441
2026-01-20 10:00:53.38	174.34	41.93	-48.4	-54.0	9.5	1.43e-02	0	38	0	525336576	67	7230
2026-01-20 10:00:54.38	174.48	42.19	-48.4	-53.9	9.7	1.08e-02	0	38	0	527433728	67	7122
2026-01-20 10:00:55.39	174.62	42.46	-48.4	-53.9	9.7	1.26e-02	0	38	0	528482304	67	7137
2026-01-20 10:00:56.40	174.77	42.74	-48.5	-54.3	9.2	1.56e-02	0	38	0	530579456	67	7478
2026-01-20 10:00:57.40	174.91	43.01	-48.6	-54.4	9.1	1.71e-02	0	38	0	532676608	67	7601
2026-01-20 10:00:58.41	175.06	43.29	-48.6	-54.5	8.9	2.23e-02	0	38	0	534773760	67	7676
2026-01-20 10:00:59.42	175.22	43.57	-48.7	-54.9	8.6	3.54e-02	0	38	0	536870912	67	8051
2026-01-20 10:01:00.42	175.37	43.84	-48.8	-55.1	8.5	4.37e-02	0	38	0	537919488	68	7765
2026-01-20 10:01:01.43	175.53	44.12	-48.8	-55.2	8.4	4.35e-02	0	38	0	540016640	68	7868
2026-01-20 10:01:02.44	175.69	44.41	-48.8	-55.0	8.6	3.95e-02	0	38	0	542113792	68	7709
2026-01-20 10:01:03.45	175.85	44.69	-48.8	-55.1	8.6	3.99e-02	0	38	0	544210944	68	7725
2026-01-20 10:01:04.46	176.02	44.98	-48.7	-54.8	8.7	3.67e-02	0	38	0	546308096	68	7543
2026-01-20 10:01:05.46	176.19	45.27	-48.8	-55.1	8.5	4.04e-02	0	38	0	547356672	68	7741
2026-01-20 10:01:06.47	176.36	45.56	-48.8	-55.2	8.3	4.83e-02	0	38	0	549453824	68	7889
2026-01-20 10:01:07.48	176.54	45.85	-48.9	-55.6	8.0	5.92e-02	0	38	0	551550976	68	8186
2026-01-20 10:01:08.49	176.72	46.15	-48.8	-55.1	8.4	5.16e-02	0	38	0	553648128	68	7782
2026-01-20 10:01:09.50	176.90	46.45	-48.8	-54.9	8.6	4.18e-02	0	38	0	555745280	68	7610
2026-01-20 10:01:10.51	177.09	46.74	-48.8	-55.1	8.5	4.05e-02	0	39	0	556793856	68	7745
2026-01-20 10:01:11.51	177.27	47.04	-48.9	-55.3	8.3	4.52e-02	0	38	0	558891008	68	7922
2026-01-20 10:01:12.51	177.47	47.34	-48.9	-55.6	7.9	6.66e-02	0	38	0	560988160	68	8271
2026-01-20 10:01:13.52	177.66	47.64	-49.0	-55.7	7.8	7.21e-02	0	38	0	563085312	68	8367
2026-01-20 10:01:14.53	177.86	47.95	-49.0	-55.9	7.7	8.93e-02	0	39	0	565182464	68	8492
2026-01-20 10:01:15.53	178.07	48.26	-49.0	-55.7	7.8	8.48e-02	0	39	0	566231040	68	8348
2026-01-20 10:01:16.54	178.27	48.56	-48.8	-55.3	8.3	6.65e-02	0	38	0	568328192	68	7931
2026-01-20 10:01:17.55	178.49	48.88	-48.6	-54.4	9.2	3.76e-02	0	38	0	570425344	68	7129
2026-01-20 10:01:18.56	178.70	49.19	-48.5	-54.0	9.6	1.62e-02	0	39	0	572522496	68	6815
2026-01-20 10:01:19.57	178.93	49.50	-48.4	-53.7	9.9	9.78e-03	0	38	0	574619648	68	6627
2026-01-20 10:01:20.57	179.15	49.82	-48.3	-53.5	10.2	7.99e-03	0	38	0	575668224	68	6486
2026-01-20 10:01:21.58	179.38	50.14	-48.1	-53.0	10.5	4.49e-03	0	38	0	577765376	67	6428
2026-01-20 10:01:22.59	179.62	50.46	-48.0	-52.8	10.8	3.23e-03	0	38	0	579862528	67	6317
2026-01-20 10:01:23.59	179.85	50.77	-47.9	-52.4	11.1	2.09e-03	0	38	0	581959680	67	6052
2026-01-20 10:01:24.60	180.10	51.10	-47.8	-52.1	11.4	1.18e-03	0	38	0	584056832	67	5852
2026-01-20 10:01:25.61	180.35	51.42	-47.6	-51.8	11.9	5.51e-04	0	38	0	585105408	67	5618
2026-01-20 10:01:26.62	180.60	51.75	-47.4	-51.3	12.3	2.77e-04	0	38	0	587202560	66	5653
2026-01-20 10:01:27.62	180.86	52.08	-47.3	-51.1	12.6	1.46e-04	0	38	0	589299712	66	5512
2026-01-20 10:01:28.63	181.13	52.41	-47.3	-51.0	12.7	1.17e-04	0	38	0	591396864	66	5430
2026-01-20 10:01:29.63	181.40	52.73	-47.2	-50.8	12.8	7.40e-05	0	38	0	593494016	66	5319
2026-01-20 10:01:30.64	181.68	53.07	-47.1	-50.7	13.0	5.11e-05	0	38	0	594542592	66	5230
2026-01-20 10:01:31.65	181.97	53.40	-47.1	-50.6	13.1	3.66e-05	0	38	0	596639744	66	5196
2026-01-20 10:01:32.65	182.26	53.74	-47.1	-50.7	13.0	2.36e-05	0	38	0	598736896	65	5569
2026-01-20 10:01:33.66	182.56	54.07	-47.0	-50.5	13.2	1.98e-05	0	38	0	600834048	65	5444
2026-01-20 10:01:34.67	182.86	54.41	-46.9	-50.3	13.4	1.67e-05	0	38	0	602931200	65	5291
2026-01-20 10:01:35.68	183.17	54.75	-46.8	-50.1	13.6	1.22e-05	0	38	0	603979776	65	5199
2026-01-20 10:01:36.69	183.50	55.09	-47.0	-50.4	13.3	3.80e-06	0	38	0	606076928	65	5354
2026-01-20 10:01:37.69	183.82	55.43	-47.2	-50.8	12.8	2.36e-05	0	38	0	608174080	65	5634
2026-01-20 10:01:38.70	184.16	55.78	-47.4	-51.3	12.4	1.43e-04	0	38	0	610271232	65	5957
2026-01-20 10:01:39.71	184.50	56.13	-47.5	-51.6	12.0	2.06e-04	0	38	0	612368384	65	6200
2026-01-20 10:01:40.72	184.86	56.47	-47.6	-51.8	11.9	3.76e-04	0	39	0	613416960	65	6275
2026-01-20 10:01:41.73	185.22	56.82	-47.7	-52.0	11.6	5.84e-04	0	38	0	615514112	65	6456
2026-01-20 10:01:42.74	185.59	57.17	-47.7	-52.0	11.6	5.75e-04	0	38	0	617611264	65	6460
2026-01-20 10:01:43.74	185.97	57.52	-47.7	-52.0	11.6	6.61e-04	0	38	0	619708416	66	6116
2026-01-20 10:01:44.75	186.36	57.87	-47.6	-51.7	12.0	4.67e-04	0	38	0	621805568	66	5870
2026-01-20 10:01:45.75	186.75	58.22	-47.6	-51.7	11.9	4.17e-04	0	39	0	623902720	66	5903
2026-01-20 10:01:46.76	187.16	58.57	-47.4	-51.4	12.2	2.69e-04	0	38	0	624951296	66	5679
2026-01-20 10:01:47.77	187.59	58.92	-47.4	-51.4	12.2	1.66e-04	0	39	0	627048448	66	5671
2026-01-20 10:01:48.78	188.02	59.28	-47.3	-51.0	12.7	1.21e-04	0	38	0	629145600	66	5427
2026-01-20 10:01:49.79	188.47	59.63	-47.1	-50.7	12.9	3.66e-05	0	38	0	631242752	66	5266
2026-01-20 10:01:50.79	188.92	59.98	-47.1	-50.6	13.1	4.95e-05	0	38	0	632291328	66	5191
2026-01-20 10:01:51.80	189.39	60.34	-46.9	-50.2	13.5	2.13e-05	0	39	0	634388480	65	5243
2026-01-20 10:01:52.81	189.87	60.69	-46.5	-49.5	14.2	3.00e-06	0	38	0	636485632	65	4858
2026-01-20 10:01:53.82	190.37	61.05	-46.3	-49.2	14.5	1.50e-06	0	39	0	638582784	64	4947
2026-01-20 10:01:54.82	190.88	61.40	-46.3	-49.2	14.5	7.00e-07	0	38	0	640679936	64	4983
2026-01-20 10:01:55.83	191.40	61.76	-46.5	-49.5	14.2	1.50e-06	0	39	0	641728512	64	5149
2026-01-20 10:01:56.84	191.94	62.11	-46.6	-49.7	14.0	1.50e-06	0	38	0	643825664	64	5255
2026-01-20 10:01:57.85	192.50	62.47	-46.6	-49.7	14.1	2.20e-06	0	38	0	645922816	64	5223
2026-01-20 10:01:58.85	193.07	62.82	-46.6	-49.8	13.9	3.00e-06	0	39	0	648019968	64	5305
2026-01-20 10:01:59.86	193.66	63.17	-46.6	-49.7	13.9	4.50e-06	0	38	0	650117120	64	5275
2026-01-20 10:02:00.87	194.26	63.53	-46.7	-49.8	13.9	3.80e-06	0	38	0	652214272	64	5339
2026-01-20 10:02:01.88	194.89	63.88	-46.8	-50.1	13.5	6.10e-06	0	38	0	653262848	64	5507
2026-01-20 10:02:02.89	195.54	64.23	-47.1	-50.6	13.0	2.13e-05	0	38	0	655360000	64	5831
2026-01-20 10:02:03.89	196.19	64.58	-47.4	-51.3	12.4	6.40e-05	0	38	0	657457152	65	5938
2026-01-20 10:02:04.90	196.88	64.92	-47.5	-51.6	12.1	2.43e-04	0	38	0	659554304	65	6147
2026-01-20 10:02:05.91	197.59	65.27	-47.6	-51.8	11.9	4.03e-04	0	39	0	660602880	65	6298
2026-01-20 10:02:06.92	198.31	65.62	-47.7	-52.0	11.6	4.87e-04	0	39	0	662700032	66	6110
2026-01-20 10:02:07.93	199.07	65.96	-48.0	-52.7	11.0	9.49e-04	0	38	0	664797184	66	6610
2026-01-20 10:02:08.93	199.83	66.29	-48.2	-53.1	10.4	3.99e-03	0	38	0	666894336	66	6946
2026-01-20 10:02:09.94	200.63	66.63	-48.3	-53.6	10.0	6.15e-03	0	38	0	668991488	67	6905
2026-01-20 10:02:10.95	201.46	66.97	-48.3	-53.6	9.9	8.34e-03	0	38	0	671088640	67	6922
2026-01-20 10:02:11.96	202.31	67.30	-48.3	-53.5	10.1	6.78e-03	0	39	0	672137216	67	6849
2026-01-20 10:02:12.96	203.18	67.62	-48.6	-54.4	9.2	1.24e-02	0	38	0	674234368	67	7560
2026-01-20 10:02:13.97	204.09	67.95	-48.7	-54.8	8.7	2.61e-02	0	38	0	676331520	67	7978
2026-01-20 10:02:14.98	205.03	68.27	-48.7	-54.7	8.9	3.61e-02	0	38	0	678428672	68	7419
2026-01-20 10:02:15.99	205.99	68.58	-48.6	-54.1	9.6	1.99e-02	0	38	0	680525824	68	6925
2026-01-20 10:02:16.99	206.98	68.89	-48.4	-53.6	10.0	9.58e-03	0	39	0	681574400	68	6557
2026-01-20 10:02:18.00	208.01	69.20	-48.4	-53.7	9.9	7.99e-03	0	39	0	683671552	68	6627
2026-01-20 10:02:19.01	209.07	69.50	-48.6	-54.2	9.5	1.17e-02	0	39	0	685768704	68	7002
2026-01-20 10:02:20.02	210.16	69.80	-48.6	-54.2	9.3	1.62e-02	0	38	0	687865856	68	6997
2026-01-20 10:02:21.02	211.28	70.08	-48.7	-54.4	9.2	1.46e-02	0	38	0	688914432	68	7153
2026-01-20 10:02:22.03	212.45	70.37	-48.8	-55.1	8.5	3.07e-02	0	38	0	691011584	68	7736
2026-01-20 10:02:23.04	213.64	70.64	-48.9	-55.3	8.4	4.89e-02	0	39	0	693108736	68	7916
2026-01-20 10:02:24.05	214.88	70.91	-48.6	-54.2	9.5	3.18e-02	0	38	0	695205888	68	6996
2026-01-20 10:02:25.05	216.14	71.17	-48.4	-53.6	10.1	7.46e-03	0	38	0	697303040	68	6505
2026-01-20 10:02:26.06	217.45	71.42	-48.4	-53.7	10.0	6.29e-03	0	38	0	699400192	68	6572
2026-01-20 10:02:27.07	218.80	71.66	-48.5	-54.0	9.7	9.89e-03	0	38	0	700448768	68	6853
2026-01-20 10:02:28.07	220.17	71.90	-48.8	-54.8	8.9	2.33e-02	0	38	0	702545920	68	7469
2026-01-20 10:02:29.08	221.59	72.12	-48.8	-55.1	8.5	3.79e-02	0	38	0	704643072	68	7738
2026-01-20 10:02:30.09	223.05	72.33	-48.7	-54.5	9.2	3.47e-02	0	38	0	706740224	68	7252
2026-01-20 10:02:31.10	224.54	72.54	-48.6	-54.0	9.7	1.31e-02	0	38	0	708837376	68	6861
2026-01-20 10:02:32.11	226.08	72.73	-48.5	-53.8	9.9	7.46e-03	0	38	0	709885952	68	6696
2026-01-20 10:02:33.11	227.63	72.91	-48.6	-54.1	9.5	8.87e-03	0	39	0	711983104	68	6936
2026-01-20 10:02:34.12	229.23	73.08	-48.8	-55.0	8.8	1.79e-02	0	38	0	714080256	68	7642
2026-01-20 10:02:35.13	230.86	73.24	-48.9	-55.1	8.6	3.42e-02	0	39	0	716177408	68	7740
2026-01-20 10:02:36.14	232.52	73.38	-48.8	-54.7	9.0	2.84e-02	0	39	0	717225984	68	7388
2026-01-20 10:02:37.15	234.22	73.51	-48.3	-53.3	10.4	1.03e-02	0	39	0	719323136	68	6330
2026-01-20 10:02:38.16	235.93	73.63	-48.1	-52.7	11.1	2.01e-03	0	38	0	721420288	68	5891
2026-01-20 10:02:39.16	237.66	73.73	-48.2	-52.9	10.8	2.63e-03	0	39	0	723517440	68	6034
2026-01-20 10:02:40.17	239.42	73.82	-48.0	-52.5	11.1	1.93e-03	0	39	0	725614592	68	5788
2026-01-20 10:02:41.18	241.21	73.89	-47.9	-52.4	11.4	1.06e-03	0	39	0	727711744	67	6007
2026-01-20 10:02:42.19	243.00	73.95	-48.2	-53.0	10.6	1.88e-03	0	39	0	728760320	67	6469
2026-01-20 10:02:43.19	244.80	73.99	-48.3	-53.4	10.2	5.30e-03	0	39	0	730857472	67	6735
2026-01-20 10:02:44.20	246.61	74.02	-48.1	-52.9	10.8	3.04e-03	0	38	0	732954624	67	6356
2026-01-20 10:02:45.21	248.44	74.03	-48.1	-52.7	10.9	2.60e-03	0	39	0	735051776	67	6230
2026-01-20 10:02:46.22	250.26	74.03	-48.0	-52.6	11.0	1.98e-03	0	38	0	737148928	67	6171
2026-01-20 10:02:47.22	252.06	74.01	-48.2	-53.0	10.7	1.85e-03	0	38	0	738197504	67	6468
2026-01-20 10:02:48.23	253.88	73.98	-48.4	-53.8	9.9	7.21e-03	0	39	0	740294656	67	7077
2026-01-20 10:02:49.24	255.68	73.93	-48.6	-54.2	9.3	1.29e-02	0	39	0	742391808	67	7431
2026-01-20 10:02:50.25	257.48	73.86	-48.6	-54.1	9.5	1.58e-02	0	38	0	744488960	67	7331
2026-01-20 10:02:51.25	259.24	73.79	-48.6	-54.2	9.4	1.58e-02	0	39	0	746586112	67	7441
2026-01-20 10:02:52.26	260.99	73.69	-48.5	-53.9	9.7	1.41e-02	0	38	0	747634688	67	7160
2026-01-20 10:02:53.27	262.73	73.59	-48.6	-54.3	9.4	1.04e-02	0	38	0	749731840	67	7466
2026-01-20 10:02:54.28	264.44	73.47	-49.0	-55.6	8.1	3.78e-02	0	39	0	751828992	68	8233
2026-01-20 10:02:55.29	266.12	73.33	-49.2	-56.2	7.5	9.34e-02	0	39	0	753926144	68	8807
2026-01-20 10:02:56.29	267.75	73.18	-49.1	-55.9	7.9	9.53e-02	0	38	0	756023296	68	8529
2026-01-20 10:02:57.30	269.38	73.02	-49.0	-55.5	8.3	5.62e-02	0	38	0	757071872	68	8090
2026-01-20 10:02:58.31	270.96	72.85	-48.9	-55.2	8.5	4.69e-02	0	38	0	759169024	68	7850
2026-01-20 10:02:59.32	272.52	72.67	-48.8	-54.6	9.1	2.84e-02	0	38	0	761266176	68	7295
2026-01-20 10:03:00.33	274.04	72.47	-48.9	-55.3	8.4	2.91e-02	0	39	0	763363328	68	7954
2026-01-20 10:03:01.33	275.50	72.26	-49.0	-55.7	8.0	7.13e-02	0	39	0	765460480	68	8323
2026-01-20 10:03:02.34	276.95	72.05	-48.8	-54.6	9.0	4.37e-02	0	39	0	766509056	68	7304
2026-01-20 10:03:03.34	278.34	71.82	-48.7	-54.3	9.4	1.51e-02	0	39	0	768606208	68	7066
2026-01-20 10:03:04.35	279.71	71.58	-48.5	-53.9	9.9	9.71e-03	0	38	0	770703360	68	6747
2026-01-20 10:03:05.36	281.05	71.34	-48.5	-53.8	9.9	1.18e-02	0	39	0	772800512	68	6668
2026-01-20 10:03:06.36	282.33	71.09	-48.5	-53.8	10.0	7.78e-03	0	38	0	774897664	68	6676
2026-01-20 10:03:07.37	283.59	70.82	-48.7	-54.5	9.2	1.69e-02	0	39	0	775946240	68	7271
2026-01-20 10:03:08.38	284.81	70.55	-48.9	-55.2	8.5	2.84e-02	0	39	0	778043392	68	7813
2026-01-20 10:03:09.39	286.00	70.27	-48.9	-55.2	8.5	5.05e-02	0	38	0	780140544	68	7844
2026-01-20 10:03:10.40	287.15	69.99	-48.8	-54.7	8.9	2.98e-02	0	38	0	782237696	68	7444
2026-01-20 10:03:11.41	288.27	69.70	-48.8	-54.7	9.0	2.72e-02	0	39	0	784334848	68	7432
2026-01-20 10:03:12.41	289.34	69.40	-48.8	-55.0	8.7	2.73e-02	0	38	0	785383424	68	7632
2026-01-20 10:03:13.42	290.39	69.10	-49.2	-56.2	7.6	4.94e-02	0	39	0	787480576	68	8816
2026-01-20 10:03:14.43	291.40	68.79	-49.4	-57.3	6.5	2.15e-01	0	38	0	789577728	69	9422
2026-01-20 10:03:15.44	292.39	68.48	-49.0	-55.7	8.0	1.38e-01	0	39	0	791674880	69	7818
2026-01-20 10:03:16.44	293.33	68.17	-48.8	-54.6	9.0	3.20e-02	0	39	0	793772032	69	6958
2026-01-20 10:03:17.45	294.26	67.85	-49.0	-55.6	8.0	4.51e-02	0	38	0	795869184	69	7794
2026-01-20 10:03:18.46	295.16	67.52	-49.3	-56.8	6.9	1.26e-01	0	38	0	796917760	69	8925
2026-01-20 10:03:19.47	296.03	67.19	-49.1	-56.1	7.6	1.35e-01	0	39	0	799014912	69	8194
2026-01-20 10:03:20.48	296.87	66.86	-49.0	-55.6	8.0	7.93e-02	0	38	0	801112064	69	7806
2026-01-20 10:03:21.48	297.68	66.53	-49.1	-55.7	8.0	5.52e-02	0	38	0	803209216	69	7813
2026-01-20 10:03:22.49	298.47	66.19	-48.9	-55.1	8.5	6.28e-02	0	38	0	804257792	69	7371
2026-01-20 10:03:23.50	299.23	65.85	-48.8	-54.6	9.1	2.39e-02	0	38	0	806354944	69	6924
2026-01-20 10:03:24.51	299.98	65.51	-48.4	-53.5	10.2	1.13e-02	0	38	0	808452096	68	6483
2026-01-20 10:03:25.51	300.69	65.17	-48.1	-52.7	11.1	2.60e-03	0	38	0	810549248	68	5872
2026-01-20 10:03:26.52	301.39	64.82	-48.1	-52.5	11.4	1.68e-03	0	39	0	812646400	68	5756
2026-01-20 10:03:27.53	302.07	64.47	-47.9	-52.3	11.5	7.03e-04	0	38	0	813694976	67	5927
2026-01-20 10:03:28.53	302.72	64.13	-47.6	-51.6	12.2	6.96e-04	0	38	0	815792128	67	5512
2026-01-20 10:03:29.54	303.36	63.77	-46.7	-49.7	14.0	2.89e-05	0	39	0	817889280	65	4979
2026-01-20 10:03:30.55	303.98	63.42	-46.1	-48.8	15.0	0.00e+00	0	38	0	819986432	64	4744
2026-01-20 10:03:31.56	304.58	63.07	-46.1	-48.8	15.1	0.00e+00	0	38	0	822083584	64	4732
2026-01-20 10:03:32.57	305.16	62.72	-46.3	-49.1	14.8	7.00e-07	0	39	0	824180736	64	4882
2026-01-20 10:03:33.58	305.73	62.36	-46.3	-49.0	14.8	7.00e-07	0	38	0	825229312	64	4861
2026-01-20 10:03:34.58	306.27	62.01	-46.2	-48.9	15.0	0.00e+00	0	39	0	827326464	64	4778
2026-01-20 10:03:35.59	306.81	61.66	-46.1	-48.6	15.3	0.00e+00	0	38	0	829423616	63	4918
2026-01-20 10:03:36.60	307.33	61.30	-46.1	-48.8	15.3	0.00e+00	0	38	0	831520768	63	4984
2026-01-20 10:03:37.61	307.83	60.95	-46.8	-50.0	13.9	7.00e-07	0	38	0	832569344	64	5413
2026-01-20 10:03:38.61	308.32	60.60	-47.7	-51.9	11.9	7.93e-05	0	39	0	834666496	65	6356
2026-01-20 10:03:39.62	308.80	60.24	-47.8	-52.1	11.7	7.20e-04	0	38	0	836763648	66	6176
2026-01-20 10:03:40.63	309.27	59.89	-47.6	-51.6	12.2	2.69e-04	0	38	0	838860800	66	5845
2026-01-20 10:03:41.64	309.72	59.53	-47.4	-51.1	12.7	1.20e-04	0	39	0	840957952	66	5506
2026-01-20 10:03:42.64	310.16	59.18	-47.9	-52.2	11.6	1.83e-04	0	38	0	842006528	66	6271
2026-01-20 10:03:43.65	310.59	58.83	-48.5	-54.0	9.7	5.43e-03	0	38	0	844103680	67	7241
2026-01-20 10:03:44.66	311.00	58.48	-49.0	-55.6	8.1	3.42e-02	0	38	0	846200832	68	8257
2026-01-20 10:03:45.67	311.41	58.13	-48.9	-55.2	8.4	6.96e-02	0	39	0	848297984	68	7891
2026-01-20 10:03:46.67	311.80	57.78	-48.4	-53.5	10.3	1.06e-02	0	38	0	850395136	68	6441
2026-01-20 10:03:47.68	312.19	57.43	-47.7	-51.8	11.9	9.70e-04	0	38	0	852492288	67	5609
2026-01-20 10:03:48.69	312.57	57.08	-47.6	-51.6	12.2	2.14e-04	0	38	0	853540864	67	5473
2026-01-20 10:03:49.70	312.94	56.73	-47.9	-52.3	11.4	2.78e-04	0	38	0	855638016	67	5991
2026-01-20 10:03:50.71	313.30	56.39	-48.5	-53.8	9.9	5.11e-03	0	39	0	857735168	67	7046
2026-01-20 10:03:51.72	313.65	56.04	-48.3	-53.4	10.2	7.92e-03	0	38	0	859832320	67	6793
2026-01-20 10:03:52.72	313.98	55.70	-48.0	-52.5	11.2	2.81e-03	0	39	0	860880896	67	6102
2026-01-20 10:03:53.73	314.32	55.36	-47.9	-52.3	11.5	8.68e-04	0	38	0	862978048	67	5939
2026-01-20 10:03:54.74	314.64	55.01	-47.7	-51.9	12.0	5.22e-04	0	39	0	865075200	67	5665
2026-01-20 10:03:55.75	314.96	54.67	-47.6	-51.4	12.3	1.92e-04	0	39	0	867172352	67	5385
2026-01-20 10:03:56.75	315.27	54.34	-47.1	-50.6	13.2	2.36e-05	0	38	0	869269504	66	5176
2026-01-20 10:03:57.76	315.57	54.00	-47.2	-50.6	13.2	1.52e-05	0	38	0	871366656	66	5203
2026-01-20 10:03:58.77	315.87	53.66	-47.2	-50.7	13.1	2.59e-05	0	38	0	872415232	66	5250
2026-01-20 10:03:59.78	316.16	53.33	-46.8	-49.9	13.9	3.80e-06	0	38	0	874512384	65	5071
2026-01-20 10:04:00.79	316.44	53.00	-46.6	-49.7	14.2	2.20e-06	0	38	0	876609536	65	4930
2026-01-20 10:04:01.79	316.72	52.67	-46.3	-49.1	14.7	0.00e+00	0	38	0	878706688	64	4900
2026-01-20 10:04:02.80	316.99	52.34	-46.7	-49.8	14.1	0.00e+00	0	38	0	880803840	64	5295
2026-01-20 10:04:03.81	317.25	52.01	-47.2	-50.7	13.1	1.83e-05	0	39	0	881852416	65	5580
2026-01-20 10:04:04.82	317.51	51.68	-47.7	-51.8	12.0	1.66e-04	0	38	0	883949568	66	5972
2026-01-20 10:04:05.82	317.77	51.36	-48.1	-52.7	11.0	9.22e-04	0	38	0	886046720	66	6635
2026-01-20 10:04:06.83	318.01	51.04	-48.2	-53.1	10.7	2.65e-03	0	38	0	888143872	66	6916
2026-01-20 10:04:07.84	318.26	50.71	-48.2	-53.0	10.7	3.49e-03	0	38	0	889192448	67	6433
2026-01-20 10:04:08.85	318.50	50.39	-48.2	-52.9	10.8	2.93e-03	0	38	0	891289600	67	6419
2026-01-20 10:04:09.86	318.73	50.07	-48.2	-53.0	10.6	2.54e-03	0	38	0	893386752	67	6493
2026-01-20 10:04:10.86	318.96	49.76	-48.6	-54.2	9.5	7.60e-03	0	39	0	895483904	67	7381
2026-01-20 10:04:11.87	319.18	49.45	-49.3	-56.7	7.2	4.22e-02	0	38	0	897581056	69	8793
2026-01-20 10:04:12.88	319.40	49.13	-49.7	-59.6	4.9	5.66e-01	0	38	0	899678208	69	12263
2026-01-20 10:04:13.88	319.61	48.82	-49.7	-59.9	4.8	9.40e-01	0	39	0	900726784	70	11970
2026-01-20 10:04:14.89	319.83	48.51	-49.4	-57.7	6.1	4.97e-01	0	38	0	902823936	70	9335
2026-01-20 10:04:15.90	320.03	48.21	-49.2	-56.2	7.4	1.93e-01	0	39	0	904921088	70	7841
2026-01-20 10:04:16.91	320.24	47.90	-49.0	-55.5	8.1	8.48e-02	0	38	0	907018240	70	7279
2026-01-20 10:04:17.91	320.43	47.60	-49.2	-56.3	7.4	2.34e-02	0	38	0	909115392	69	8445
2026-01-20 10:04:18.92	320.63	47.30	-50.1	-64.6	3.8	7.54e-01	0	38	104	909115392	70	20696
2026-01-20 10:04:19.93	320.82	47.00	-49.3	-56.8	6.9	1.40e+00	1	39	104	909115392	70	8381
2026-01-20 10:04:20.93	321.01	46.70	-50.1	-64.5	3.8	7.22e-01	0	38	104	909115392	70	20328
2026-01-20 10:04:21.94	321.19	46.40	-49.5	-58.1	5.9	1.39e+00	0	38	104	909115392	70	9762
2026-01-20 10:04:22.95	321.37	46.11	-49.4	-57.4	6.4	3.01e-01	0	39	0	911212544	70	8996
2026-01-20 10:04:23.96	321.55	45.81	-49.1	-55.9	7.7	1.50e-01	0	39	0	912261120	70	7578
2026-01-20 10:04:24.97	321.73	45.52	-48.7	-54.4	9.2	4.67e-02	0	38	0	914358272	69	6782
2026-01-20 10:04:25.97	321.90	45.24	-48.4	-53.4	10.3	7.45e-03	0	38	0	916455424	68	6358
2026-01-20 10:04:26.98	322.07	44.95	-48.2	-52.9	10.8	2.88e-03	0	39	0	918552576	68	6023
2026-01-20 10:04:27.99	322.23	44.66	-48.0	-52.4	11.2	1.60e-03	0	38	0	919601152	67	6037
2026-01-20 10:04:29.00	322.40	44.38	-48.1	-52.7	10.9	1.41e-03	0	38	0	921698304	67	6259
2026-01-20 10:04:30.01	322.56	44.10	-48.4	-53.6	10.0	4.88e-03	0	39	0	923795456	67	6908
2026-01-20 10:04:31.01	322.71	43.82	-48.5	-54.0	9.7	1.11e-02	0	38	0	925892608	67	7225
2026-01-20 10:04:32.02	322.87	43.54	-48.5	-54.2	9.4	1.72e-02	0	38	0	927989760	67	7389
2026-01-20 10:04:33.03	323.02	43.26	-48.5	-53.9	9.7	1.40e-02	0	39	0	929038336	67	7149
2026-01-20 10:04:34.04	323.17	42.99	-48.2	-53.1	10.4	5.80e-03	0	39	0	931135488	67	6549
2026-01-20 10:04:35.05	323.32	42.71	-47.9	-52.4	11.2	2.62e-03	0	38	0	933232640	67	6039
2026-01-20 10:04:36.06	323.46	42.44	-47.7	-51.9	11.8	6.58e-04	0	38	0	935329792	67	5692
2026-01-20 10:04:37.06	323.60	42.17	-47.6	-51.6	12.1	3.65e-04	0	39	0	937426944	66	5853
2026-01-20 10:04:38.07	323.74	41.91	-47.4	-51.2	12.5	1.65e-04	0	38	0	939524096	66	5566
2026-01-20 10:04:39.08	323.88	41.64	-47.4	-51.3	12.5	1.19e-04	0	38	0	940572672	66	5595
2026-01-20 10:04:40.09	324.02	41.38	-47.7	-51.9	11.8	3.00e-04	0	38	0	942669824	66	6058
2026-01-20 10:04:41.09	324.15	41.11	-48.2	-53.2	10.4	1.77e-03	0	38	0	944766976	66	7023
2026-01-20 10:04:42.10	324.28	40.85	-48.6	-54.4	9.1	9.89e-03	0	38	0	946864128	67	7605
2026-01-20 10:04:43.11	324.41	40.59	-49.0	-55.7	7.9	5.07e-02	0	38	0	947912704	68	8351
2026-01-20 10:04:44.12	324.54	40.34	-48.9	-55.5	8.1	7.90e-02	0	39	0	950009856	68	8165
2026-01-20 10:04:45.13	324.66	40.08	-48.7	-54.6	9.0	4.20e-02	0	38	0	952107008	68	7349
2026-01-20 10:04:46.14	324.79	39.83	-48.6	-54.2	9.4	1.92e-02	0	38	0	954204160	68	7009
2026-01-20 10:04:47.14	324.91	39.58	-48.5	-54.0	9.5	1.48e-02	0	39	0	956301312	68	6869
2026-01-20 10:04:48.15	325.03	39.33	-48.4	-53.7	9.8	1.03e-02	0	38	0	958398464	67	7028
2026-01-20 10:04:49.16	325.15	39.08	-48.2	-53.0	10.6	4.51e-03	0	38	0	959447040	67	6478
2026-01-20 10:04:50.17	325.26	38.83	-48.2	-53.2	10.3	3.24e-03	0	39	0	961544192	67	6646
2026-01-20 10:04:51.18	325.38	38.58	-48.3	-53.4	10.2	6.29e-03	0	38	0	963641344	67	6725
2026-01-20 10:04:52.18	325.49	38.34	-48.5	-54.1	9.5	1.18e-02	0	39	0	965738496	67	7322
2026-01-20 10:04:53.19	325.60	38.10	-48.6	-54.4	9.1	1.77e-02	0	39	0	967835648	67	7595
2026-01-20 10:04:54.20	325.71	37.86	-48.7	-54.8	8.7	2.83e-02	0	38	0	968884224	67	7959
2026-01-20 10:04:55.20	325.82	37.62	-48.8	-55.1	8.5	3.78e-02	0	38	0	970981376	68	7780
2026-01-20 10:04:56.21	325.93	37.38	-48.8	-55.1	8.5	4.62e-02	0	38	0	973078528	68	7752
2026-01-20 10:04:57.22	326.03	37.15	-48.7	-54.7	8.9	3.32e-02	0	38	0	975175680	68	7395
2026-01-20 10:04:58.23	326.14	36.91	-48.6	-54.2	9.4	2.37e-02	0	39	0	976224256	68	6962
2026-01-20 10:04:59.24	326.24	36.68	-48.4	-53.9	9.7	1.14e-02	0	38	0	978321408	68	6732
2026-01-20 10:05:00.24	326.34	36.45	-48.3	-53.4	10.3	6.16e-03	0	38	0	980418560	68	6388
2026-01-20 10:05:01.25	326.44	36.22	-48.2	-53.1	10.5	4.20e-03	0	38	0	982515712	68	6180
2026-01-20 10:05:02.26	326.54	35.99	-48.2	-53.1	10.5	4.07e-03	0	39	0	984612864	68	6164
2026-01-20 10:05:03.27	326.64	35.77	-48.1	-52.9	10.7	2.93e-03	0	38	0	986710016	68	6042
2026-01-20 10:05:04.27	326.73	35.54	-48.2	-53.1	10.5	3.51e-03	0	38	0	987758592	68	6181
2026-01-20 10:05:05.28	326.83	35.32	-48.3	-53.4	10.2	4.98e-03	0	38	0	989855744	68	6382
2026-01-20 10:05:06.29	326.92	35.10	-48.3	-53.5	10.1	6.20e-03	0	38	0	991952896	68	6494
2026-01-20 10:05:07.30	327.02	34.88	-48.4	-53.6	10.0	7.91e-03	0	38	0	994050048	68	6557
2026-01-20 10:05:08.31	327.11	34.66	-48.4	-54.0	9.5	9.97e-03	0	38	0	996147200	67	7244
2026-01-20 10:05:09.31	327.20	34.44	-48.5	-54.1	9.3	1.67e-02	0	38	0	997195776	67	7341
2026-01-20 10:05:10.32	327.28	34.22	-48.5	-54.2	9.3	1.72e-02	0	39	0	999292928	67	7381
2026-01-20 10:05:11.33	327.37	34.01	-48.6	-54.5	9.0	2.02e-02	0	39	0	1001390080	67	7645
2026-01-20 10:05:12.34	327.46	33.80	-48.6	-54.7	8.8	2.99e-02	0	38	0	1003487232	67	7831
2026-01-20 10:05:13.35	327.55	33.58	-48.6	-54.7	8.8	3.25e-02	0	38	0	1004535808	67	7837
2026-01-20 10:05:14.35	327.63	33.37	-48.7	-54.8	8.6	3.60e-02	0	39	0	1006632960	67	7960
2026-01-20 10:05:15.36	327.71	33.17	-48.8	-55.0	8.5	4.39e-02	0	39	0	1008730112	68	7676
2026-01-20 10:05:16.37	327.80	32.96	-48.8	-55.0	8.5	4.33e-02	0	39	0	1010827264	68	7694
2026-01-20 10:05:17.38	327.88	32.75	-48.8	-55.0	8.5	4.18e-02	0	38	0	1012924416	68	7658
2026-01-20 10:05:18.39	327.96	32.55	-48.7	-54.9	8.7	3.98e-02	0	38	0	1015021568	68	7553
2026-01-20 10:05:19.39	328.04	32.34	-48.7	-54.8	8.7	3.40e-02	0	39	0	1016070144	68	7509
2026-01-20 10:05:20.40	328.12	32.14	-48.8	-55.0	8.5	3.54e-02	0	39	0	1018167296	68	7702
2026-01-20 10:05:21.41	328.19	31.94	-48.8	-55.0	8.5	4.24e-02	0	39	0	1020264448	68	7684
2026-01-20 10:05:22.42	328.27	31.74	-48.8	-55.1	8.4	4.58e-02	0	38	0	1022361600	68	7794
2026-01-20 10:05:23.43	328.35	31.54	-48.8	-55.1	8.4	4.75e-02	0	38	0	1024458752	68	7788
2026-01-20 10:05:24.44	328.42	31.34	-48.8	-55.1	8.4	4.94e-02	0	39	0	1025507328	68	7780
2026-01-20 10:05:25.44	328.50	31.15	-48.7	-54.9	8.6	4.06e-02	0	39	0	1027604480	68	7621
2026-01-20 10:05:26.45	328.57	30.95	-48.8	-55.0	8.5	3.67e-02	0	38	0	1029701632	68	7695
2026-01-20 10:05:27.46	328.64	30.76	-48.7	-54.8	8.7	3.41e-02	0	38	0	1031798784	68	7527
2026-01-20 10:05:28.47	328.71	30.57	-48.7	-54.6	8.9	2.98e-02	0	38	0	1033895936	68	7345
2026-01-20 10:05:29.47	328.78	30.38	-48.7	-54.7	8.9	2.89e-02	0	38	0	1034944512	68	7387
2026-01-20 10:05:30.48	328.85	30.19	-48.6	-54.6	8.9	2.96e-02	0	38	0	1037041664	68	7330
2026-01-20 10:05:31.49	328.92	30.00	-48.6	-54.6	8.9	2.83e-02	0	38	0	1039138816	68	7324
2026-01-20 10:05:32.49	328.99	29.81	-48.7	-54.7	8.8	3.00e-02	0	39	0	1041235968	68	7396
2026-01-20 10:05:33.50	329.06	29.63	-48.7	-54.8	8.7	3.25e-02	0	38	0	1043333120	68	7476
2026-01-20 10:05:34.51	329.13	29.44	-48.7	-54.7	8.8	3.05e-02	0	39	0	1044381696	68	7413
2026-01-20 10:05:35.51	329.19	29.26	-48.7	-54.8	8.7	3.36e-02	0	38	0	1046478848	68	7543
2026-01-20 10:05:36.52	329.26	29.08	-48.7	-54.8	8.7	3.24e-02	0	38	0	1048576000	68	7521
2026-01-20 10:05:37.53	329.32	28.90	-48.6	-54.6	8.9	3.21e-02	0	38	0	1050673152	68	7293
2026-01-20 10:05:38.54	329.39	28.72	-48.6	-54.5	9.0	2.49e-02	0	38	0	1052770304	68	7259
2026-01-20 10:05:39.55	329.45	28.54	-48.5	-54.3	9.3	2.24e-02	0	38	0	1053818880	68	7078
2026-01-20 10:05:40.55	329.52	28.36	-48.4	-53.9	9.6	1.50e-02	0	39	0	1055916032	68	6767
2026-01-20 10:05:41.56	329.58	28.18	-48.4	-53.8	9.8	1.08e-02	0	38	0	1058013184	68	6672
2026-01-20 10:05:42.57	329.64	28.01	-48.4	-53.8	9.7	1.13e-02	0	38	0	1060110336	68	6714
2026-01-20 10:05:43.58	329.70	27.83	-48.3	-53.4	10.2	9.31e-03	0	39	0	1062207488	68	6367
2026-01-20 10:05:44.59	329.76	27.66	-48.1	-53.0	10.6	4.86e-03	0	38	0	1063256064	68	6108
2026-01-20 10:05:45.60	329.82	27.48	-48.0	-52.7	10.9	2.62e-03	0	38	0	1065353216	68	5874
2026-01-20 10:05:46.60	329.88	27.31	-47.8	-52.4	11.1	1.63e-03	0	38	0	1067450368	67	6004
2026-01-20 10:05:47.61	329.94	27.14	-47.8	-52.3	11.2	1.47e-03	0	38	0	1069547520	67	5933
2026-01-20 10:05:48.62	330.00	26.97	-47.8	-52.3	11.2	1.09e-03	0	38	0	1071644672	67	5961
2026-01-20 10:05:49.62	330.06	26.81	-47.8	-52.3	11.2	1.32e-03	0	38	0	1072693248	67	5976
2026-01-20 10:05:50.63	330.11	26.64	-47.8	-52.4	11.1	1.51e-03	0	38	0	1074790400	67	6028
2026-01-20 10:05:51.64	330.17	26.47	-48.0	-52.7	10.8	1.89e-03	0	39	0	1076887552	67	6257
2026-01-20 10:05:52.65	330.23	26.31	-48.0	-52.8	10.7	2.93e-03	0	38	0	1078984704	67	6286
2026-01-20 10:05:53.66	330.28	26.14	-48.1	-53.0	10.4	3.68e-03	0	38	0	1081081856	67	6485
2026-01-20 10:05:54.66	330.34	25.98	-48.1	-53.2	10.3	5.05e-03	0	38	0	1083179008	67	6625
2026-01-20 10:05:55.67	330.39	25.82	-48.1	-53.3	10.2	5.65e-03	0	38	0	1084227584	67	6664
2026-01-20 10:05:56.68	330.44	25.66	-48.2	-53.4	10.0	6.37e-03	0	38	0	1086324736	67	6768
2026-01-20 10:05:57.69	330.50	25.49	-48.2	-53.3	10.2	6.11e-03	0	39	0	1088421888	67	6674
2026-01-20 10:05:58.69	330.55	25.34	-48.1	-53.1	10.3	5.26e-03	0	38	0	1090519040	67	6564
2026-01-20 10:05:59.70	330.60	25.18	-48.1	-53.1	10.3	5.01e-03	0	38	0	1091567616	67	6533
2026-01-20 10:06:00.71	330.66	25.02	-48.1	-53.0	10.4	4.98e-03	0	38	0	1093664768	67	6484
2026-01-20 10:06:01.71	330.71	24.86	-48.0	-53.0	10.4	4.24e-03	0	38	0	1095761920	67	6452
2026-01-20 10:06:02.72	330.76	24.71	-48.0	-52.9	10.5	4.36e-03	0	38	0	1097859072	67	6419
2026-01-20 10:06:03.73	330.81	24.55	-47.8	-52.4	11.0	2.84e-03	0	39	0	1099956224	67	6028
2026-01-20 10:06:04.74	330.86	24.40	-47.7	-52.1	11.4	1.44e-03	0	38	0	1101004800	67	5850
2026-01-20 10:06:05.75	330.91	24.24	-47.7	-52.0	11.5	7.54e-04	0	38	0	1103101952	67	5746
2026-01-20 10:06:06.75	330.96	24.09	-47.7	-52.1	11.4	8.54e-04	0	38	0	1105199104	67	5827
2026-01-20 10:06:07.76	331.01	23.94	-47.6	-51.8	11.7	5.27e-04	0	38	0	1107296256	67	5622
2026-01-20 10:06:08.77	331.05	23.79	-47.6	-51.7	11.8	4.94e-04	0	38	0	1109393408	67	5584
2026-01-20 10:06:09.78	331.10	23.64	-47.5	-51.7	11.8	4.67e-04	0	38	0	1111490560	67	5531
2026-01-20 10:06:10.79	331.15	23.49	-47.5	-51.7	11.9	3.97e-04	0	38	0	1112539136	67	5545
2026-01-20 10:06:11.79	331.20	23.34	-47.5	-51.7	11.8	4.10e-04	0	38	0	1114636288	66	5886
2026-01-20 10:06:12.80	331.24	23.20	-47.5	-51.8	11.7	5.44e-04	0	39	0	1116733440	66	5936
2026-01-20 10:06:13.81	331.29	23.05	-47.6	-51.9	11.6	4.76e-04	0	38	0	1118830592	66	5994
2026-01-20 10:06:14.81	331.34	22.91	-47.6	-52.0	11.5	7.31e-04	0	38	0	1119879168	66	6099
2026-01-20 10:06:15.82	331.38	22.76	-47.7	-52.1	11.4	8.79e-04	0	39	0	1121976320	66	6132
2026-01-20 10:06:16.83	331.43	22.62	-47.6	-52.0	11.5	8.54e-04	0	38	0	1124073472	66	6086
2026-01-20 10:06:17.84	331.47	22.47	-47.7	-52.1	11.4	7.97e-04	0	38	0	1126170624	66	6137
2026-01-20 10:06:18.85	331.52	22.33	-47.7	-52.2	11.2	1.12e-03	0	38	0	1128267776	66	6251
2026-01-20 10:06:19.86	331.56	22.19	-47.7	-52.2	11.2	9.50e-04	0	38	0	1130364928	66	6253
2026-01-20 10:06:20.86	331.60	22.05	-47.7	-52.2	11.3	1.34e-03	0	38	0	1131413504	66	6246
2026-01-20 10:06:21.87	331.65	21.91	-47.7	-52.2	11.2	1.42e-03	0	39	0	1133510656	66	6247
2026-01-20 10:06:22.88	331.69	21.77	-47.7	-52.1	11.3	1.12e-03	0	38	0	1135607808	66	6190
2026-01-20 10:06:23.88	331.73	21.63	-47.7	-52.1	11.3	1.14e-03	0	38	0	1137704960	66	6187
2026-01-20 10:06:24.89	331.77	21.49	-47.7	-52.2	11.2	1.16e-03	0	38	0	1139802112	66	6264
2026-01-20 10:06:25.90	331.82	21.35	-47.7	-52.1	11.3	1.21e-03	0	38	0	1140850688	66	6176
2026-01-20 10:06:26.91	331.86	21.22	-47.7	-52.2	11.3	1.10e-03	0	38	0	1142947840	66	6207
2026-01-20 10:06:27.91	331.90	21.08	-47.7	-52.2	11.2	1.12e-03	0	38	0	1145044992	66	6242
2026-01-20 10:06:28.92	331.94	20.95	-47.6	-52.0	11.4	9.72e-04	0	38	0	1147142144	66	6130
2026-01-20 10:06:29.93	331.98	20.81	-47.6	-52.0	11.4	9.73e-04	0	38	0	1148190720	66	6121
2026-01-20 10:06:30.94	332.02	20.68	-47.6	-51.9	11.5	8.18e-04	0	38	0	1150287872	66	6049
2026-01-20 10:06:31.95	332.06	20.55	-47.6	-52.0	11.5	8.22e-04	0	39	0	1152385024	66	6084
2026-01-20 10:06:32.95	332.10	20.42	-47.6	-51.9	11.5	7.68e-04	0	38	0	1154482176	66	6050
2026-01-20 10:06:33.96	332.14	20.28	-47.6	-52.0	11.5	8.46e-04	0	38	0	1156579328	66	6071
2026-01-20 10:06:34.97	332.18	20.15	-47.6	-52.0	11.5	8.54e-04	0	39	0	1158676480	66	6068
2026-01-20 10:06:35.98	332.22	20.02	-47.7	-52.1	11.3	9.30e-04	0	38	0	1159725056	66	6163
2026-01-20 10:06:36.99	332.26	19.89	-47.7	-52.1	11.3	1.06e-03	0	38	0	1161822208	66	6169
2026-01-20 10:06:37.99	332.30	19.77	-47.7	-52.2	11.3	1.26e-03	0	38	0	1163919360	66	6203
2026-01-20 10:06:39.00	332.33	19.64	-47.6	-52.0	11.4	1.07e-03	0	38	0	1166016512	66	6127
2026-01-20 10:06:40.01	332.37	19.51	-47.7	-52.2	11.2	1.12e-03	0	39	0	1168113664	66	6253
2026-01-20 10:06:41.02	332.41	19.38	-47.7	-52.3	11.2	1.38e-03	0	39	0	1169162240	66	6282
2026-01-20 10:06:42.03	332.45	19.26	-47.7	-52.2	11.2	1.30e-03	0	38	0	1171259392	66	6231
2026-01-20 10:06:43.03	332.48	19.13	-47.7	-52.3	11.1	1.55e-03	0	38	0	1173356544	66	6337
2026-01-20 10:06:44.04	332.52	19.01	-47.8	-52.4	11.0	1.82e-03	0	38	0	1175453696	66	6391
2026-01-20 10:06:45.05	332.56	18.88	-47.8	-52.5	10.9	2.43e-03	0	38	0	1177550848	66	6456
2026-01-20 10:06:46.06	332.59	18.76	-47.8	-52.5	10.8	2.22e-03	0	38	0	1178599424	66	6478
2026-01-20 10:06:47.07	332.63	18.63	-47.8	-52.6	10.7	2.77e-03	0	38	0	1180696576	66	6555
2026-01-20 10:06:48.07	332.66	18.51	-47.9	-52.8	10.6	3.11e-03	0	38	0	1182793728	66	6686
2026-01-20 10:06:49.08	332.70	18.39	-48.0	-53.0	10.3	4.05e-03	0	38	0	1184890880	66	6838
2026-01-20 10:06:50.09	332.74	18.27	-47.9	-52.9	10.4	4.63e-03	0	38	0	1186988032	66	6773
2026-01-20 10:06:51.10	332.77	18.15	-47.9	-52.8	10.6	3.72e-03	0	38	0	1188036608	66	6657
2026-01-20 10:06:52.10	332.80	18.03	-47.9	-52.9	10.5	3.46e-03	0	39	0	1190133760	66	6748
2026-01-20 10:06:53.11	332.84	17.91	-48.0	-53.0	10.3	4.90e-03	0	38	0	1192230912	66	6852
2026-01-20 10:06:54.12	332.87	17.79	-48.0	-53.0	10.4	4.64e-03	0	38	0	1194328064	66	6842
2026-01-20 10:06:55.13	332.91	17.67	-48.0	-53.1	10.2	5.65e-03	0	38	0	1196425216	66	6940
2026-01-20 10:06:56.13	332.94	17.55	-48.0	-53.2	10.1	6.31e-03	0	39	0	1197473792	66	7001
2026-01-20 10:06:57.14	332.97	17.44	-48.0	-53.0	10.3	5.95e-03	0	39	0	1199570944	66	6828
2026-01-20 10:06:58.15	333.01	17.32	-48.0	-53.1	10.2	5.66e-03	0	39	0	1201668096	66	6928
2026-01-20 10:06:59.16	333.04	17.20	-48.0	-53.2	10.1	7.05e-03	0	38	0	1203765248	66	6992
2026-01-20 10:07:00.17	333.07	17.09	-48.0	-53.3	10.1	7.06e-03	0	38	0	1205862400	66	7041
2026-01-20 10:07:01.17	333.11	16.97	-48.1	-53.3	10.0	6.59e-03	0	38	0	1206910976	66	7052
2026-01-20 10:07:02.18	333.14	16.86	-48.1	-53.3	10.0	8.41e-03	0	39	0	1209008128	66	7063
2026-01-20 10:07:03.19	333.17	16.74	-48.0	-53.2	10.1	7.56e-03	0	38	0	1211105280	66	6984
2026-01-20 10:07:04.20	333.20	16.63	-48.0	-53.2	10.1	7.25e-03	0	39	0	1213202432	66	7016
2026-01-20 10:07:05.20	333.23	16.52	-48.0	-53.3	10.0	7.04e-03	0	38	0	1215299584	66	7049
2026-01-20 10:07:06.21	333.27	16.40	-48.0	-53.2	10.1	7.58e-03	0	38	0	1216348160	66	7021
2026-01-20 10:07:07.22	333.30	16.29	-48.1	-53.3	10.0	7.53e-03	0	39	0	1218445312	66	7104
2026-01-20 10:07:08.23	333.33	16.18	-48.0	-53.2	10.0	7.37e-03	0	39	0	1220542464	66	7039
2026-01-20 10:07:09.23	333.36	16.07	-48.0	-53.2	10.1	7.47e-03	0	38	0	1222639616	66	6968
