passes_logs/2026/01/20/R3.2S_Murmansk/R3.2S_Murmansk__20260120_121326_FENGYUN_3D_rec.log

#Pass ID: 20260120_121326_FENGYUN 3D
#Satellite: FENGYUN 3D
#Configuration: FENGYUN 3D
#almurnet v.1.7.20251203
#Start time: 2026-01-20 12:13:29

#Version: 2.2.20231116
#Station: R3.2S_Murmansk
#Location: 33.079688 lon 68.888172 lat
#TLE: 1 43010U 17072A   26019.93695019 -.00000250  00000+0 -96545-4 0  9996
#TLE: 2 43010  98.9942 351.8290 0002452 100.7901 259.3550 14.19695974423957

#Time	Az	El	Level	Level2	SNR	BER	BlckErr	Temp	State	Recorded	gain1	gain2
2026-01-20 12:13:29.03	167.39	2.14	-49.0	-60.6	3.8	8.45e-01	0	37	0	0	68	14603
2026-01-20 12:13:30.03	167.42	2.21	-49.0	-60.7	3.8	8.45e-01	0	37	104	0	68	14869
2026-01-20 12:13:31.04	167.44	2.27	-49.0	-60.8	3.8	8.46e-01	0	37	104	0	68	14949
2026-01-20 12:13:32.05	167.46	2.34	-49.0	-60.8	3.8	8.46e-01	0	37	104	0	68	14880
2026-01-20 12:13:33.06	167.48	2.40	-49.0	-60.8	3.8	8.47e-01	0	37	104	0	68	14984
2026-01-20 12:13:34.06	167.50	2.47	-49.0	-60.8	3.8	8.46e-01	0	37	104	0	68	14884
2026-01-20 12:13:35.07	167.53	2.53	-49.0	-60.7	3.8	8.46e-01	0	38	104	0	68	14753
2026-01-20 12:13:36.08	167.55	2.60	-49.0	-60.6	3.8	8.45e-01	0	38	104	0	68	14615
2026-01-20 12:13:37.09	167.57	2.66	-49.0	-60.5	3.8	8.45e-01	0	37	104	0	68	14480
2026-01-20 12:13:38.09	167.59	2.73	-49.0	-60.4	3.8	8.46e-01	0	37	104	0	68	14260
2026-01-20 12:13:39.10	167.62	2.79	-48.9	-60.1	3.8	8.46e-01	0	38	104	0	68	13767
2026-01-20 12:13:40.11	167.64	2.86	-48.9	-60.0	3.8	8.47e-01	0	38	104	0	68	13627
2026-01-20 12:13:41.12	167.66	2.93	-48.9	-59.8	3.8	8.46e-01	0	38	104	0	68	13354
2026-01-20 12:13:42.13	167.68	2.99	-48.9	-60.0	3.8	8.46e-01	0	38	104	0	68	13622
2026-01-20 12:13:43.13	167.71	3.06	-48.9	-60.0	3.8	8.46e-01	0	38	104	0	68	13607
2026-01-20 12:13:44.14	167.73	3.12	-48.9	-59.9	3.8	8.46e-01	0	38	104	0	68	13454
2026-01-20 12:13:45.15	167.75	3.19	-48.9	-59.7	3.8	8.46e-01	0	38	104	0	68	13229
2026-01-20 12:13:46.16	167.78	3.26	-48.9	-59.8	3.8	8.45e-01	0	38	104	0	68	13310
2026-01-20 12:13:47.17	167.80	3.33	-48.9	-59.9	3.8	8.46e-01	0	38	104	0	68	13478
2026-01-20 12:13:48.17	167.82	3.39	-48.9	-59.8	3.8	8.46e-01	0	38	104	0	68	13316
2026-01-20 12:13:49.18	167.85	3.46	-48.9	-59.8	3.8	8.47e-01	0	38	104	0	68	13331
2026-01-20 12:13:50.19	167.87	3.53	-48.9	-59.9	3.8	8.47e-01	0	38	104	0	68	13415
2026-01-20 12:13:51.19	167.89	3.59	-48.9	-60.1	3.8	8.45e-01	0	38	104	0	68	13817
2026-01-20 12:13:52.20	167.92	3.66	-49.0	-60.4	3.8	8.47e-01	0	38	104	0	68	14234
2026-01-20 12:13:53.21	167.94	3.73	-48.9	-60.2	3.8	8.45e-01	0	38	104	0	68	14034
2026-01-20 12:13:54.22	167.97	3.80	-49.0	-60.3	3.8	8.46e-01	0	38	104	0	68	14168
2026-01-20 12:13:55.23	167.99	3.87	-49.0	-60.4	3.8	8.46e-01	0	38	104	0	68	14338
2026-01-20 12:13:56.24	168.01	3.94	-49.0	-60.4	3.8	8.47e-01	0	38	104	0	68	14343
2026-01-20 12:13:57.24	168.04	4.00	-48.9	-60.4	3.8	8.47e-01	0	38	104	0	68	14242
2026-01-20 12:13:58.25	168.06	4.07	-48.9	-60.2	3.8	8.46e-01	0	38	104	0	68	13984
2026-01-20 12:13:59.26	168.09	4.14	-48.9	-60.1	3.8	8.46e-01	0	38	104	0	68	13797
2026-01-20 12:14:00.27	168.11	4.21	-48.9	-59.8	3.8	8.46e-01	0	38	104	0	68	13353
2026-01-20 12:14:01.27	168.14	4.28	-48.9	-59.5	3.8	8.46e-01	0	38	104	0	68	12947
2026-01-20 12:14:02.28	168.16	4.35	-48.8	-59.1	3.8	8.45e-01	0	38	104	0	68	12364
2026-01-20 12:14:03.29	168.18	4.42	-48.8	-58.5	3.9	8.45e-01	0	38	104	0	68	11521
2026-01-20 12:14:04.30	168.21	4.49	-48.7	-57.7	4.1	8.42e-01	0	38	0	0	68	10485
2026-01-20 12:14:05.31	168.23	4.56	-48.6	-57.4	4.2	8.38e-01	0	38	0	0	68	10085
2026-01-20 12:14:06.31	168.26	4.63	-48.5	-56.9	4.3	8.35e-01	0	38	0	0	67	10133
2026-01-20 12:14:07.32	168.28	4.70	-48.4	-56.4	4.4	8.30e-01	0	38	0	0	67	9520
2026-01-20 12:14:08.33	168.31	4.77	-48.3	-55.6	4.8	7.87e-01	0	38	0	0	67	8742
2026-01-20 12:14:09.33	168.34	4.84	-48.3	-55.6	4.7	8.16e-01	0	38	0	0	67	8756
2026-01-20 12:14:10.34	168.36	4.91	-48.1	-54.9	5.2	7.24e-01	0	38	0	0	67	8019
2026-01-20 12:14:11.35	168.39	4.98	-48.0	-54.5	5.4	7.26e-01	0	38	0	0	67	7671
2026-01-20 12:14:12.36	168.41	5.05	-47.9	-54.1	5.7	4.57e-01	0	38	0	2097152	67	7308
2026-01-20 12:14:13.37	168.44	5.13	-48.3	-55.6	4.8	7.70e-01	0	38	0	2097152	67	8740
2026-01-20 12:14:14.38	168.46	5.20	-48.3	-55.6	4.8	8.37e-01	0	38	0	2097152	67	8723
2026-01-20 12:14:15.38	168.49	5.27	-48.1	-54.8	5.2	7.75e-01	0	38	0	4194304	67	7970
2026-01-20 12:14:16.39	168.52	5.34	-47.9	-54.1	5.6	7.70e-01	0	38	0	5242880	67	7355
2026-01-20 12:14:17.40	168.54	5.41	-48.4	-56.2	4.5	8.36e-01	0	38	0	6291456	67	9310
2026-01-20 12:14:18.41	168.57	5.49	-47.9	-54.2	5.6	5.01e-01	0	38	0	10485760	67	7425
2026-01-20 12:14:19.41	168.60	5.56	-47.9	-54.1	5.7	5.74e-01	0	38	0	13631488	67	7336
2026-01-20 12:14:20.42	168.62	5.63	-47.8	-53.9	5.9	4.79e-01	0	38	0	18874368	66	7586
2026-01-20 12:14:21.43	168.65	5.70	-47.8	-53.8	5.9	3.97e-01	0	38	0	25165824	66	7492
2026-01-20 12:14:22.44	168.68	5.78	-47.9	-54.2	5.7	6.07e-01	0	38	0	29360128	66	7840
2026-01-20 12:14:23.44	168.70	5.85	-47.9	-53.8	5.9	3.95e-01	0	38	0	35651584	66	7533
2026-01-20 12:14:24.45	168.73	5.92	-47.8	-53.6	6.0	4.79e-01	0	38	0	38797312	66	7356
2026-01-20 12:14:25.46	168.76	6.00	-47.8	-53.7	6.1	7.01e-01	0	38	0	41943040	66	7380
2026-01-20 12:14:26.47	168.78	6.07	-48.3	-55.6	4.8	8.39e-01	0	38	0	42991616	67	8753
2026-01-20 12:14:27.47	168.81	6.15	-47.8	-53.7	6.0	5.40e-01	0	38	0	45088768	67	6986
2026-01-20 12:14:28.48	168.84	6.22	-48.2	-55.3	4.9	8.35e-01	0	38	0	45088768	67	8410
2026-01-20 12:14:29.49	168.87	6.30	-47.8	-53.7	6.0	3.84e-01	0	38	0	50331648	67	7003
2026-01-20 12:14:30.50	168.90	6.37	-47.8	-53.5	6.1	3.78e-01	0	38	0	55574528	67	6878
2026-01-20 12:14:31.51	168.92	6.45	-47.8	-53.6	6.0	3.63e-01	0	38	0	61865984	67	6953
2026-01-20 12:14:32.51	168.95	6.52	-47.8	-53.6	6.1	3.30e-01	0	38	0	67108864	67	6910
2026-01-20 12:14:33.52	168.98	6.60	-47.8	-53.6	6.1	3.44e-01	0	38	0	72351744	67	6891
2026-01-20 12:14:34.53	169.01	6.67	-47.8	-53.7	6.1	3.28e-01	0	39	0	78643200	67	6966
2026-01-20 12:14:35.54	169.04	6.75	-48.0	-54.7	5.3	7.33e-01	0	38	0	80740352	67	7825
2026-01-20 12:14:36.55	169.07	6.82	-47.9	-54.1	5.8	5.35e-01	0	38	0	83886080	67	7304
2026-01-20 12:14:37.55	169.09	6.90	-48.1	-54.7	5.3	7.88e-01	0	39	0	83886080	67	7853
2026-01-20 12:14:38.56	169.12	6.98	-47.9	-54.0	5.8	3.90e-01	0	38	0	87031808	67	7270
2026-01-20 12:14:39.57	169.15	7.05	-47.9	-54.0	5.7	8.29e-01	0	38	0	88080384	67	7286
2026-01-20 12:14:40.58	169.18	7.13	-47.6	-53.2	6.4	2.87e-01	0	38	0	93323264	66	6971
2026-01-20 12:14:41.58	169.21	7.21	-47.6	-53.1	6.5	2.78e-01	0	39	0	99614720	66	6899
2026-01-20 12:14:42.59	169.24	7.29	-47.6	-52.9	6.6	2.41e-01	0	38	0	104857600	66	6798
2026-01-20 12:14:43.60	169.27	7.36	-47.6	-53.0	6.6	2.41e-01	0	39	0	110100480	66	6802
2026-01-20 12:14:44.61	169.30	7.44	-47.6	-53.0	6.6	2.41e-01	0	38	0	116391936	66	6841
2026-01-20 12:14:45.61	169.33	7.52	-48.0	-54.2	5.7	2.45e-01	0	38	0	121634816	66	7835
2026-01-20 12:14:46.62	169.36	7.60	-48.2	-55.1	5.1	7.99e-01	0	38	0	121634816	67	8188
2026-01-20 12:14:47.63	169.39	7.68	-47.9	-53.8	6.1	2.89e-01	0	38	0	125829120	67	7063
2026-01-20 12:14:48.64	169.42	7.76	-48.5	-56.7	4.4	8.25e-01	0	38	0	125829120	67	9920
2026-01-20 12:14:49.65	169.45	7.84	-47.6	-52.8	6.8	6.43e-01	0	38	0	127926272	67	6282
2026-01-20 12:14:50.65	169.48	7.91	-47.7	-53.2	6.4	3.39e-01	0	38	0	133169152	67	6644
2026-01-20 12:14:51.66	169.51	7.99	-47.6	-53.0	6.6	2.38e-01	0	39	0	138412032	66	6849
2026-01-20 12:14:52.67	169.54	8.07	-47.6	-52.8	6.7	2.07e-01	0	38	0	143654912	66	6721
2026-01-20 12:14:53.68	169.57	8.15	-47.6	-52.9	6.6	2.04e-01	0	38	0	149946368	66	6782
2026-01-20 12:14:54.69	169.60	8.23	-47.6	-52.9	6.6	2.37e-01	0	38	0	155189248	66	6792
2026-01-20 12:14:55.70	169.64	8.32	-47.5	-52.7	6.9	1.98e-01	0	38	0	160432128	66	6593
2026-01-20 12:14:56.71	169.67	8.40	-47.5	-52.6	6.9	2.01e-01	0	38	0	166723584	66	6562
2026-01-20 12:14:57.71	169.70	8.48	-47.7	-53.1	6.5	2.05e-01	0	39	0	171966464	66	6959
2026-01-20 12:14:58.72	169.73	8.56	-48.1	-54.8	5.3	2.33e-01	0	39	0	177209344	66	8438
2026-01-20 12:14:59.73	169.76	8.64	-47.7	-53.1	6.6	7.98e-01	0	39	0	179306496	67	6515
2026-01-20 12:15:00.74	169.79	8.72	-48.2	-55.0	5.2	1.72e-01	0	38	0	184549376	66	8608
2026-01-20 12:15:01.74	169.83	8.80	-47.4	-52.4	7.1	2.54e-01	0	39	0	186646528	66	6373
2026-01-20 12:15:02.75	169.86	8.89	-47.4	-52.4	7.2	1.51e-01	0	39	0	192937984	66	6354
2026-01-20 12:15:03.76	169.89	8.97	-47.4	-52.3	7.2	1.44e-01	0	39	0	198180864	66	6314
2026-01-20 12:15:04.77	169.92	9.05	-47.4	-52.4	7.2	1.52e-01	0	39	0	203423744	66	6353
2026-01-20 12:15:05.78	169.96	9.14	-47.4	-52.3	7.2	1.37e-01	0	39	0	209715200	66	6333
2026-01-20 12:15:06.78	169.99	9.22	-47.4	-52.3	7.3	1.42e-01	0	38	0	214958080	66	6313
2026-01-20 12:15:07.79	170.02	9.30	-48.0	-54.3	5.6	1.74e-01	0	38	0	220200960	66	7967
2026-01-20 12:15:08.79	170.06	9.39	-47.6	-53.0	6.7	1.61e-01	0	39	0	224395264	66	6811
2026-01-20 12:15:09.80	170.09	9.47	-48.3	-55.6	4.9	2.14e-01	0	38	0	229638144	67	8719
2026-01-20 12:15:10.81	170.12	9.56	-48.4	-56.2	4.6	7.86e-01	0	38	0	229638144	67	9306
2026-01-20 12:15:11.82	170.16	9.64	-47.5	-52.5	7.1	2.45e-01	0	39	0	231735296	66	6452
2026-01-20 12:15:12.83	170.19	9.73	-47.4	-52.4	7.2	2.77e-01	0	39	0	238026752	66	6389
2026-01-20 12:15:13.83	170.23	9.81	-47.4	-52.3	7.2	1.42e-01	0	38	0	244318208	66	6302
2026-01-20 12:15:14.84	170.26	9.90	-47.4	-52.2	7.4	1.37e-01	0	38	0	249561088	66	6226
2026-01-20 12:15:15.85	170.30	9.98	-47.3	-52.1	7.4	1.27e-01	0	38	0	254803968	66	6185
2026-01-20 12:15:16.86	170.33	10.07	-47.3	-52.0	7.5	1.24e-01	0	39	0	261095424	66	6124
2026-01-20 12:15:17.87	170.37	10.16	-47.3	-52.1	7.4	1.21e-01	0	39	0	266338304	66	6194
2026-01-20 12:15:18.87	170.40	10.24	-47.5	-52.6	7.0	1.26e-01	0	39	0	272629760	66	6562
2026-01-20 12:15:19.88	170.44	10.33	-47.8	-53.4	6.3	1.79e-01	0	39	0	277872640	66	7154
2026-01-20 12:15:20.89	170.47	10.42	-48.5	-56.5	4.5	2.94e-01	0	38	0	282066944	67	9683
2026-01-20 12:15:21.90	170.51	10.51	-47.6	-52.9	6.7	2.06e-01	0	39	0	285212672	67	6420
2026-01-20 12:15:22.91	170.54	10.60	-48.4	-55.9	4.7	2.79e-01	0	39	0	289406976	67	9039
2026-01-20 12:15:23.91	170.58	10.68	-47.4	-52.2	7.3	5.03e-01	0	39	0	292552704	66	6228
2026-01-20 12:15:24.92	170.62	10.77	-47.4	-52.2	7.4	1.33e-01	0	39	0	297795584	66	6228
2026-01-20 12:15:25.93	170.65	10.86	-47.3	-52.2	7.4	1.36e-01	0	38	0	304087040	66	6225
2026-01-20 12:15:26.94	170.69	10.95	-47.3	-52.1	7.4	1.32e-01	0	39	0	310378496	66	6189
2026-01-20 12:15:27.95	170.73	11.04	-47.3	-52.2	7.4	1.32e-01	0	38	0	315621376	66	6206
2026-01-20 12:15:28.96	170.76	11.13	-47.4	-52.2	7.3	1.42e-01	0	39	0	320864256	66	6260
2026-01-20 12:15:29.97	170.80	11.22	-48.2	-55.0	5.2	2.69e-01	0	39	0	326107136	66	8625
2026-01-20 12:15:30.98	170.84	11.31	-47.9	-53.8	6.0	2.14e-01	0	39	0	330301440	66	7469
2026-01-20 12:15:31.98	170.88	11.40	-48.6	-57.1	4.3	4.67e-01	0	38	0	334495744	67	10312
2026-01-20 12:15:32.99	170.91	11.50	-48.6	-56.9	4.3	8.13e-01	0	39	0	334495744	67	10120
2026-01-20 12:15:34.00	170.95	11.59	-47.8	-53.4	6.3	1.46e-01	0	39	0	337641472	66	7175
2026-01-20 12:15:35.01	170.99	11.68	-47.4	-52.4	7.2	1.51e-01	0	39	0	342884352	66	6348
2026-01-20 12:15:36.01	171.03	11.77	-47.4	-52.4	7.2	1.55e-01	0	39	0	349175808	66	6418
2026-01-20 12:15:37.02	171.07	11.86	-47.4	-52.4	7.2	1.52e-01	0	39	0	354418688	66	6391
2026-01-20 12:15:38.03	171.11	11.96	-47.5	-52.4	7.2	1.63e-01	0	39	0	360710144	66	6418
2026-01-20 12:15:39.04	171.15	12.05	-47.5	-52.4	7.2	1.52e-01	0	38	0	365953024	66	6412
2026-01-20 12:15:40.05	171.19	12.15	-47.4	-52.2	7.4	1.47e-01	0	38	0	372244480	66	6255
2026-01-20 12:15:41.05	171.23	12.24	-47.6	-52.8	6.8	1.90e-01	0	39	0	377487360	66	6687
2026-01-20 12:15:42.06	171.27	12.33	-47.9	-53.7	6.0	2.56e-01	0	38	0	383778816	66	7438
2026-01-20 12:15:43.07	171.31	12.43	-48.6	-57.1	4.3	5.76e-01	0	39	0	386924544	67	10313
2026-01-20 12:15:44.08	171.35	12.52	-47.7	-53.1	6.6	2.14e-01	0	39	0	390070272	67	6544
2026-01-20 12:15:45.09	171.39	12.62	-48.5	-56.5	4.4	5.63e-01	0	39	0	394264576	67	9668
2026-01-20 12:15:46.09	171.43	12.71	-47.3	-52.0	7.6	1.20e-01	0	39	0	397410304	66	6089
2026-01-20 12:15:47.10	171.47	12.81	-47.3	-52.1	7.5	1.18e-01	0	39	0	403701760	66	6159
2026-01-20 12:15:48.11	171.51	12.91	-47.3	-52.1	7.5	1.15e-01	0	39	0	408944640	66	6139
2026-01-20 12:15:49.12	171.55	13.01	-47.4	-52.2	7.4	1.23e-01	0	39	0	414187520	66	6224
2026-01-20 12:15:50.12	171.60	13.10	-47.3	-52.0	7.6	1.07e-01	0	39	0	420478976	66	6079
2026-01-20 12:15:51.13	171.64	13.20	-47.3	-51.9	7.7	9.98e-02	0	39	0	425721856	66	6028
2026-01-20 12:15:52.14	171.68	13.30	-48.3	-55.3	5.0	7.73e-01	0	39	0	429916160	67	8402
2026-01-20 12:15:53.15	171.72	13.40	-47.7	-53.3	6.4	3.34e-01	0	39	0	434110464	67	6654
2026-01-20 12:15:54.15	171.77	13.50	-48.5	-56.3	4.5	8.28e-01	0	39	0	437256192	67	9401
2026-01-20 12:15:55.16	171.81	13.60	-47.5	-52.5	7.1	1.48e-01	0	39	0	441450496	67	6079
2026-01-20 12:15:56.17	171.85	13.70	-48.4	-56.0	4.7	6.54e-01	0	39	0	444596224	67	9109
2026-01-20 12:15:57.18	171.90	13.80	-47.2	-51.7	7.9	8.48e-02	0	39	0	448790528	66	5860
2026-01-20 12:15:58.19	171.94	13.90	-47.2	-51.7	7.9	8.44e-02	0	39	0	455081984	66	5898
2026-01-20 12:15:59.20	171.98	14.00	-47.2	-51.7	8.0	8.75e-02	0	39	0	460324864	66	5868
2026-01-20 12:16:00.20	172.03	14.10	-47.1	-51.5	8.1	7.66e-02	0	39	0	465567744	66	5778
2026-01-20 12:16:01.21	172.07	14.20	-47.1	-51.5	8.1	7.28e-02	0	39	0	471859200	66	5735
2026-01-20 12:16:02.21	172.12	14.30	-47.1	-51.5	8.1	7.02e-02	0	39	0	477102080	66	5768
2026-01-20 12:16:03.22	172.16	14.40	-47.1	-51.6	8.1	7.55e-02	0	39	0	482344960	66	5789
2026-01-20 12:16:04.23	172.21	14.51	-47.1	-51.4	8.2	6.60e-02	0	39	0	488636416	66	5673
2026-01-20 12:16:05.24	172.26	14.61	-47.1	-51.4	8.2	6.49e-02	0	39	0	494927872	66	5711
2026-01-20 12:16:06.25	172.30	14.72	-47.1	-51.4	8.2	7.08e-02	0	39	0	500170752	66	5706
2026-01-20 12:16:07.26	172.35	14.82	-47.0	-51.2	8.4	5.97e-02	0	39	0	505413632	66	5577
2026-01-20 12:16:08.26	172.40	14.92	-47.0	-51.2	8.5	5.14e-02	0	39	0	511705088	65	5856
2026-01-20 12:16:09.27	172.44	15.03	-46.9	-50.9	8.7	4.23e-02	0	39	0	516947968	65	5702
2026-01-20 12:16:10.28	172.49	15.14	-46.9	-51.0	8.6	4.59e-02	0	39	0	522190848	65	5773
2026-01-20 12:16:11.28	172.54	15.24	-46.8	-50.8	8.9	3.55e-02	0	39	0	528482304	65	5628
2026-01-20 12:16:12.29	172.59	15.35	-46.8	-50.8	8.9	3.44e-02	0	39	0	533725184	65	5606
2026-01-20 12:16:13.30	172.64	15.45	-46.8	-50.8	8.9	3.51e-02	0	39	0	540016640	65	5623
2026-01-20 12:16:14.31	172.68	15.56	-46.8	-50.7	9.0	3.38e-02	0	39	0	545259520	65	5557
2026-01-20 12:16:15.32	172.73	15.67	-46.8	-50.7	8.9	2.96e-02	0	39	0	550502400	65	5567
2026-01-20 12:16:16.32	172.78	15.78	-46.8	-50.7	9.0	3.00e-02	0	39	0	556793856	65	5548
2026-01-20 12:16:17.33	172.83	15.89	-46.7	-50.6	9.1	2.83e-02	0	39	0	562036736	65	5486
2026-01-20 12:16:18.34	172.88	16.00	-46.7	-50.4	9.2	2.50e-02	0	39	0	568328192	65	5394
2026-01-20 12:16:19.34	172.93	16.11	-46.7	-50.6	9.0	2.71e-02	0	39	0	573571072	65	5511
2026-01-20 12:16:20.35	172.98	16.22	-46.7	-50.5	9.2	2.65e-02	0	39	0	579862528	65	5436
2026-01-20 12:16:21.36	173.04	16.33	-46.7	-50.4	9.3	2.19e-02	0	39	0	585105408	65	5388
2026-01-20 12:16:22.37	173.09	16.44	-46.7	-50.5	9.2	2.50e-02	0	39	0	590348288	65	5433
2026-01-20 12:16:23.37	173.14	16.55	-46.8	-50.6	9.0	3.08e-02	0	39	0	596639744	65	5524
2026-01-20 12:16:24.38	173.19	16.66	-46.7	-50.4	9.3	2.39e-02	0	39	0	601882624	65	5359
2026-01-20 12:16:25.39	173.24	16.77	-46.6	-50.3	9.3	2.16e-02	0	38	0	607125504	65	5332
2026-01-20 12:16:26.40	173.30	16.89	-46.7	-50.4	9.3	2.24e-02	0	39	0	613416960	65	5390
2026-01-20 12:16:27.41	173.35	17.00	-46.7	-50.4	9.3	2.42e-02	0	38	0	618659840	65	5379
2026-01-20 12:16:28.42	173.40	17.12	-46.6	-50.4	9.3	2.11e-02	0	39	0	624951296	65	5351
2026-01-20 12:16:29.42	173.46	17.23	-46.6	-50.3	9.4	2.18e-02	0	39	0	630194176	65	5306
2026-01-20 12:16:30.43	173.51	17.35	-46.6	-50.2	9.5	1.92e-02	0	39	0	635437056	65	5263
2026-01-20 12:16:31.44	173.57	17.46	-46.6	-50.3	9.4	1.88e-02	0	38	0	641728512	65	5295
2026-01-20 12:16:32.45	173.62	17.58	-46.6	-50.2	9.5	1.72e-02	0	38	0	648019968	65	5242
2026-01-20 12:16:33.45	173.68	17.69	-46.6	-50.3	9.4	1.91e-02	0	38	0	653262848	65	5302
2026-01-20 12:16:34.46	173.73	17.81	-46.6	-50.3	9.4	1.88e-02	0	39	0	658505728	65	5284
2026-01-20 12:16:35.47	173.79	17.93	-46.6	-50.2	9.5	1.80e-02	0	38	0	664797184	65	5259
2026-01-20 12:16:36.47	173.85	18.05	-46.6	-50.2	9.5	1.75e-02	0	39	0	670040064	65	5237
2026-01-20 12:16:37.48	173.90	18.17	-46.6	-50.3	9.4	1.92e-02	0	38	0	675282944	65	5328
2026-01-20 12:16:38.49	173.96	18.29	-46.6	-50.3	9.5	1.92e-02	0	39	0	681574400	65	5287
2026-01-20 12:16:39.50	174.02	18.41	-46.6	-50.2	9.5	1.80e-02	0	39	0	686817280	65	5223
2026-01-20 12:16:40.51	174.08	18.53	-46.6	-50.3	9.4	1.86e-02	0	38	0	692060160	65	5291
2026-01-20 12:16:41.51	174.14	18.65	-46.6	-50.3	9.4	2.07e-02	0	38	0	698351616	65	5314
2026-01-20 12:16:42.52	174.20	18.77	-46.6	-50.3	9.4	2.00e-02	0	39	0	703594496	65	5336
2026-01-20 12:16:43.53	174.26	18.89	-46.6	-50.3	9.4	2.05e-02	0	39	0	709885952	65	5314
2026-01-20 12:16:44.54	174.32	19.02	-46.6	-50.2	9.5	1.89e-02	0	39	0	715128832	65	5278
2026-01-20 12:16:45.54	174.38	19.14	-46.6	-50.2	9.5	1.68e-02	0	39	0	721420288	65	5266
2026-01-20 12:16:46.55	174.44	19.26	-46.5	-50.2	9.5	1.72e-02	0	39	0	726663168	65	5225
2026-01-20 12:16:47.56	174.50	19.39	-46.6	-50.2	9.5	1.81e-02	0	39	0	732954624	65	5269
2026-01-20 12:16:48.57	174.56	19.51	-46.5	-50.1	9.6	1.73e-02	0	38	0	738197504	65	5193
2026-01-20 12:16:49.58	174.63	19.64	-46.5	-50.0	9.7	1.44e-02	0	39	0	743440384	64	5436
2026-01-20 12:16:50.58	174.69	19.77	-46.4	-49.9	9.8	1.26e-02	0	38	0	749731840	64	5393
2026-01-20 12:16:51.59	174.75	19.89	-46.4	-49.9	9.8	1.25e-02	0	39	0	754974720	64	5373
2026-01-20 12:16:52.60	174.82	20.02	-46.4	-49.9	9.8	1.26e-02	0	39	0	760217600	64	5396
2026-01-20 12:16:53.61	174.88	20.15	-46.4	-49.8	9.9	1.17e-02	0	39	0	766509056	64	5331
2026-01-20 12:16:54.61	174.95	20.28	-46.4	-49.9	9.9	1.14e-02	0	39	0	771751936	64	5343
2026-01-20 12:16:55.62	175.01	20.41	-46.4	-50.0	9.8	1.21e-02	0	39	0	776994816	64	5413
2026-01-20 12:16:56.63	175.08	20.54	-46.4	-49.8	9.9	1.11e-02	0	39	0	783286272	64	5316
2026-01-20 12:16:57.64	175.15	20.67	-46.4	-49.8	9.9	1.07e-02	0	39	0	789577728	64	5333
2026-01-20 12:16:58.65	175.21	20.80	-46.4	-49.8	9.9	1.07e-02	0	39	0	794820608	64	5327
2026-01-20 12:16:59.66	175.28	20.93	-46.4	-49.8	10.0	1.01e-02	0	39	0	800063488	64	5300
2026-01-20 12:17:00.66	175.35	21.07	-46.3	-49.7	10.1	9.65e-03	0	39	0	806354944	64	5270
2026-01-20 12:17:01.67	175.42	21.20	-46.3	-49.6	10.1	7.92e-03	0	39	0	811597824	64	5198
2026-01-20 12:17:02.68	175.49	21.33	-46.3	-49.6	10.2	8.42e-03	0	39	0	817889280	64	5187
2026-01-20 12:17:03.68	175.56	21.47	-46.2	-49.5	10.3	7.81e-03	0	39	0	823132160	64	5125
2026-01-20 12:17:04.69	175.63	21.60	-46.3	-49.6	10.2	7.89e-03	0	38	0	828375040	64	5175
2026-01-20 12:17:05.70	175.70	21.74	-46.2	-49.5	10.2	7.04e-03	0	39	0	834666496	64	5155
2026-01-20 12:17:06.71	175.77	21.88	-46.3	-49.6	10.2	7.85e-03	0	39	0	839909376	64	5194
2026-01-20 12:17:07.71	175.84	22.02	-46.2	-49.6	10.2	7.82e-03	0	38	0	845152256	64	5161
2026-01-20 12:17:08.72	175.92	22.15	-46.2	-49.5	10.2	8.58e-03	0	38	0	851443712	64	5151
2026-01-20 12:17:09.73	175.99	22.29	-46.2	-49.4	10.3	6.90e-03	0	39	0	856686592	64	5094
2026-01-20 12:17:10.74	176.06	22.43	-46.2	-49.5	10.4	6.75e-03	0	39	0	862978048	64	5102
2026-01-20 12:17:11.75	176.14	22.57	-46.1	-49.4	10.4	6.07e-03	0	39	0	868220928	64	5059
2026-01-20 12:17:12.75	176.21	22.71	-46.3	-49.6	10.2	6.36e-03	0	39	0	874512384	64	5177
2026-01-20 12:17:13.76	176.29	22.86	-46.1	-49.3	10.4	5.74e-03	0	39	0	879755264	64	5037
2026-01-20 12:17:14.77	176.37	23.00	-46.1	-49.3	10.5	5.74e-03	0	39	0	884998144	64	5012
2026-01-20 12:17:15.77	176.44	23.14	-46.1	-49.2	10.5	4.78e-03	0	39	0	891289600	64	4970
2026-01-20 12:17:16.78	176.52	23.29	-46.1	-49.2	10.5	4.49e-03	0	38	0	896532480	64	4965
2026-01-20 12:17:17.79	176.60	23.43	-46.1	-49.2	10.6	4.88e-03	0	39	0	902823936	64	4971
2026-01-20 12:17:18.79	176.68	23.58	-46.1	-49.2	10.6	4.40e-03	0	39	0	908066816	64	4982
2026-01-20 12:17:19.80	176.76	23.72	-46.1	-49.2	10.6	4.41e-03	0	39	0	913309696	64	4966
2026-01-20 12:17:20.81	176.84	23.87	-46.1	-49.2	10.6	4.62e-03	0	38	0	919601152	64	4945
2026-01-20 12:17:21.82	176.92	24.02	-46.1	-49.2	10.6	5.05e-03	0	38	0	924844032	64	4967
2026-01-20 12:17:22.82	177.01	24.17	-46.1	-49.3	10.5	5.20e-03	0	39	0	930086912	64	5012
2026-01-20 12:17:23.83	177.09	24.32	-46.1	-49.3	10.6	4.25e-03	0	39	0	936378368	63	5283
2026-01-20 12:17:24.84	177.17	24.47	-46.1	-49.3	10.6	4.76e-03	0	38	0	942669824	63	5301
2026-01-20 12:17:25.84	177.26	24.62	-46.0	-49.0	10.9	3.54e-03	0	39	0	947912704	63	5146
2026-01-20 12:17:26.85	177.34	24.77	-46.0	-49.1	10.8	3.27e-03	0	39	0	953155584	63	5168
2026-01-20 12:17:27.86	177.43	24.93	-46.0	-49.1	10.8	3.28e-03	0	39	0	959447040	63	5176
2026-01-20 12:17:28.87	177.52	25.08	-46.0	-49.1	10.8	3.03e-03	0	38	0	964689920	63	5169
2026-01-20 12:17:29.88	177.61	25.23	-46.1	-49.1	10.8	3.45e-03	0	39	0	969932800	63	5209
2026-01-20 12:17:30.89	177.70	25.39	-46.1	-49.2	10.7	3.71e-03	0	39	0	976224256	63	5254
2026-01-20 12:17:31.89	177.78	25.55	-46.0	-49.1	10.8	3.70e-03	0	39	0	981467136	63	5183
2026-01-20 12:17:32.90	177.87	25.70	-46.0	-49.1	10.8	3.65e-03	0	39	0	987758592	63	5193
2026-01-20 12:17:33.91	177.97	25.86	-46.0	-49.0	10.9	2.88e-03	0	39	0	993001472	63	5143
2026-01-20 12:17:34.92	178.06	26.02	-46.0	-49.0	10.9	2.93e-03	0	39	0	998244352	63	5135
2026-01-20 12:17:35.93	178.15	26.18	-46.0	-48.9	11.0	2.89e-03	0	39	0	1004535808	63	5083
2026-01-20 12:17:36.93	178.25	26.34	-46.0	-49.1	10.8	2.80e-03	0	39	0	1010827264	63	5169
2026-01-20 12:17:37.94	178.34	26.50	-46.0	-49.0	10.9	3.00e-03	0	39	0	1016070144	63	5116
2026-01-20 12:17:38.95	178.44	26.67	-45.9	-48.9	11.0	2.93e-03	0	39	0	1021313024	63	5085
2026-01-20 12:17:39.96	178.53	26.83	-46.0	-49.0	10.9	3.29e-03	0	39	0	1027604480	63	5154
2026-01-20 12:17:40.97	178.63	26.99	-46.0	-49.0	10.9	2.95e-03	0	39	0	1032847360	63	5143
2026-01-20 12:17:41.98	178.73	27.16	-46.0	-49.0	11.0	2.78e-03	0	38	0	1038090240	63	5108
2026-01-20 12:17:42.98	178.83	27.32	-46.0	-49.1	10.9	2.93e-03	0	39	0	1044381696	63	5170
2026-01-20 12:17:43.99	178.93	27.49	-45.9	-48.9	11.0	2.64e-03	0	39	0	1049624576	63	5065
2026-01-20 12:17:44.99	179.03	27.66	-45.9	-48.8	11.2	2.10e-03	0	39	0	1054867456	63	5007
2026-01-20 12:17:46.00	179.13	27.83	-45.9	-48.8	11.1	2.03e-03	0	39	0	1061158912	63	5029
2026-01-20 12:17:47.01	179.24	28.00	-45.9	-48.8	11.1	2.15e-03	0	39	0	1066401792	63	5019
2026-01-20 12:17:48.02	179.34	28.17	-45.8	-48.7	11.3	1.58e-03	0	38	0	1072693248	63	4939
2026-01-20 12:17:49.02	179.45	28.34	-45.9	-48.8	11.1	2.09e-03	0	39	0	1077936128	63	5029
2026-01-20 12:17:50.03	179.56	28.51	-45.9	-48.8	11.1	2.18e-03	0	39	0	1083179008	63	5030
2026-01-20 12:17:51.04	179.66	28.69	-45.9	-48.9	11.1	2.44e-03	0	39	0	1089470464	63	5062
2026-01-20 12:17:52.05	179.77	28.86	-46.0	-49.0	11.0	2.53e-03	0	39	0	1095761920	63	5128
2026-01-20 12:17:53.05	179.88	29.04	-45.9	-48.9	11.0	2.48e-03	0	39	0	1101004800	63	5073
2026-01-20 12:17:54.06	180.00	29.21	-46.0	-48.9	11.0	2.86e-03	0	39	0	1106247680	63	5093
2026-01-20 12:17:55.07	180.11	29.39	-46.0	-49.0	10.9	3.17e-03	0	39	0	1112539136	63	5155
2026-01-20 12:17:56.08	180.22	29.57	-46.0	-49.1	10.8	3.48e-03	0	39	0	1117782016	63	5181
2026-01-20 12:17:57.09	180.34	29.75	-46.0	-49.1	10.8	3.10e-03	0	39	0	1123024896	63	5179
2026-01-20 12:17:58.09	180.45	29.93	-46.0	-48.9	11.0	3.19e-03	0	39	0	1129316352	63	5090
2026-01-20 12:17:59.10	180.57	30.11	-45.9	-48.8	11.1	2.39e-03	0	39	0	1134559232	63	5034
2026-01-20 12:18:00.11	180.69	30.30	-45.9	-48.8	11.2	1.86e-03	0	39	0	1139802112	63	5001
2026-01-20 12:18:01.12	180.81	30.48	-45.9	-48.8	11.2	1.69e-03	0	39	0	1146093568	63	5000
2026-01-20 12:18:02.13	180.93	30.66	-45.8	-48.7	11.2	1.87e-03	0	39	0	1151336448	63	4972
2026-01-20 12:18:03.13	181.06	30.85	-45.8	-48.7	11.3	2.04e-03	0	39	0	1157627904	63	4952
2026-01-20 12:18:04.14	181.18	31.04	-45.8	-48.7	11.3	1.85e-03	0	39	0	1162870784	63	4952
2026-01-20 12:18:05.15	181.31	31.23	-45.8	-48.7	11.3	2.05e-03	0	39	0	1169162240	63	4966
2026-01-20 12:18:06.16	181.43	31.41	-45.7	-48.6	11.4	1.64e-03	0	39	0	1174405120	63	4891
2026-01-20 12:18:07.17	181.56	31.61	-45.8	-48.6	11.3	1.78e-03	0	39	0	1180696576	63	4909
2026-01-20 12:18:08.18	181.69	31.80	-45.8	-48.7	11.3	1.48e-03	0	38	0	1185939456	63	4949
2026-01-20 12:18:09.19	181.82	31.99	-45.7	-48.5	11.4	1.60e-03	0	39	0	1191182336	63	4863
2026-01-20 12:18:10.19	181.96	32.18	-45.7	-48.5	11.5	1.51e-03	0	39	0	1197473792	63	4853
2026-01-20 12:18:11.20	182.09	32.38	-45.8	-48.7	11.3	1.58e-03	0	39	0	1202716672	63	4940
2026-01-20 12:18:12.21	182.23	32.57	-45.8	-48.6	11.4	1.21e-03	0	39	0	1207959552	63	4885
2026-01-20 12:18:13.22	182.37	32.77	-45.7	-48.5	11.5	1.14e-03	0	39	0	1214251008	63	4845
2026-01-20 12:18:14.22	182.51	32.97	-45.7	-48.5	11.5	1.24e-03	0	39	0	1219493888	63	4849
2026-01-20 12:18:15.23	182.65	33.17	-45.7	-48.5	11.5	1.12e-03	0	39	0	1224736768	63	4821
2026-01-20 12:18:16.23	182.79	33.36	-45.6	-48.2	11.8	8.07e-04	0	39	0	1231028224	63	4677
2026-01-20 12:18:17.24	182.93	33.57	-45.6	-48.2	11.8	8.72e-04	0	39	0	1237319680	63	4694
2026-01-20 12:18:18.25	183.08	33.77	-45.6	-48.3	11.7	7.87e-04	0	39	0	1242562560	63	4759
2026-01-20 12:18:19.26	183.23	33.97	-45.7	-48.5	11.5	1.10e-03	0	39	0	1247805440	63	4837
2026-01-20 12:18:20.26	183.38	34.18	-45.8	-48.6	11.3	1.42e-03	0	39	0	1254096896	63	4920
2026-01-20 12:18:21.27	183.53	34.38	-45.8	-48.6	11.4	1.42e-03	0	39	0	1259339776	63	4882
2026-01-20 12:18:22.28	183.68	34.59	-45.8	-48.6	11.3	1.54e-03	0	39	0	1265631232	63	4905
2026-01-20 12:18:23.29	183.84	34.80	-45.8	-48.6	11.4	1.60e-03	0	39	0	1270874112	63	4881
2026-01-20 12:18:24.29	184.00	35.01	-45.6	-48.3	11.7	9.81e-04	0	39	0	1276116992	63	4711
2026-01-20 12:18:25.30	184.16	35.22	-45.7	-48.4	11.6	8.89e-04	0	38	0	1282408448	63	4795
2026-01-20 12:18:26.31	184.32	35.43	-45.6	-48.2	11.8	7.76e-04	0	39	0	1287651328	63	4697
2026-01-20 12:18:27.32	184.48	35.64	-45.6	-48.3	11.7	7.74e-04	0	38	0	1292894208	63	4758
2026-01-20 12:18:28.33	184.65	35.86	-45.6	-48.2	11.8	6.52e-04	0	39	0	1299185664	63	4702
2026-01-20 12:18:29.34	184.81	36.07	-45.5	-48.2	11.8	6.99e-04	0	39	0	1305477120	63	4668
2026-01-20 12:18:30.34	184.98	36.29	-45.6	-48.2	11.8	6.27e-04	0	38	0	1310720000	63	4700
2026-01-20 12:18:31.35	185.16	36.51	-45.6	-48.2	11.8	7.75e-04	0	39	0	1315962880	63	4692
2026-01-20 12:18:32.36	185.33	36.72	-45.5	-48.1	11.9	7.33e-04	0	39	0	1322254336	62	4914
2026-01-20 12:18:33.37	185.51	36.95	-45.6	-48.3	11.7	7.06e-04	0	39	0	1327497216	62	5009
2026-01-20 12:18:34.38	185.69	37.17	-45.6	-48.3	11.7	7.38e-04	0	38	0	1332740096	62	4994
2026-01-20 12:18:35.38	185.87	37.39	-45.7	-48.4	11.6	9.22e-04	0	38	0	1339031552	62	5075
2026-01-20 12:18:36.39	186.05	37.61	-45.7	-48.5	11.5	1.07e-03	0	38	0	1344274432	62	5121
2026-01-20 12:18:37.40	186.24	37.84	-45.8	-48.7	11.3	1.46e-03	0	39	0	1350565888	62	5225
2026-01-20 12:18:38.41	186.43	38.06	-45.9	-48.8	11.2	1.78e-03	0	39	0	1355808768	62	5322
2026-01-20 12:18:39.41	186.62	38.29	-45.9	-48.7	11.3	1.85e-03	0	39	0	1361051648	62	5267
2026-01-20 12:18:40.42	186.81	38.52	-45.8	-48.7	11.3	1.74e-03	0	39	0	1367343104	62	5233
2026-01-20 12:18:41.43	187.01	38.75	-45.6	-48.3	11.7	8.43e-04	0	39	0	1372585984	62	5026
2026-01-20 12:18:42.44	187.21	38.98	-45.5	-48.2	11.8	7.23e-04	0	38	0	1378877440	62	4955
2026-01-20 12:18:43.45	187.41	39.21	-45.6	-48.3	11.8	7.52e-04	0	38	0	1384120320	62	4986
2026-01-20 12:18:44.45	187.62	39.44	-45.5	-48.1	11.9	5.62e-04	0	39	0	1390411776	62	4894
2026-01-20 12:18:45.46	187.82	39.68	-45.6	-48.2	11.7	7.28e-04	0	39	0	1395654656	62	4973
2026-01-20 12:18:46.47	188.04	39.91	-45.6	-48.2	11.8	7.07e-04	0	39	0	1400897536	62	4980
2026-01-20 12:18:47.48	188.25	40.15	-45.8	-48.5	11.5	1.23e-03	0	39	0	1407188992	62	5157
2026-01-20 12:18:48.48	188.47	40.38	-45.8	-48.7	11.3	1.53e-03	0	39	0	1412431872	62	5257
2026-01-20 12:18:49.49	188.69	40.62	-45.9	-48.8	11.2	1.64e-03	0	39	0	1417674752	62	5280
2026-01-20 12:18:50.50	188.91	40.86	-45.9	-48.8	11.2	1.43e-03	0	38	0	1423966208	62	5284
2026-01-20 12:18:51.51	189.14	41.10	-45.9	-48.7	11.3	1.72e-03	0	38	0	1429209088	62	5268
2026-01-20 12:18:52.51	189.37	41.34	-45.9	-48.8	11.2	1.72e-03	0	39	0	1435500544	62	5323
2026-01-20 12:18:53.52	189.60	41.59	-45.9	-48.8	11.1	2.11e-03	0	39	0	1440743424	62	5338
2026-01-20 12:18:54.53	189.84	41.83	-45.9	-48.8	11.2	1.93e-03	0	39	0	1445986304	62	5298
2026-01-20 12:18:55.54	190.08	42.08	-45.9	-48.7	11.3	1.44e-03	0	39	0	1452277760	62	5261
2026-01-20 12:18:56.54	190.32	42.32	-45.9	-48.8	11.2	1.82e-03	0	39	0	1458569216	62	5302
2026-01-20 12:18:57.55	190.57	42.57	-46.0	-49.0	11.0	2.42e-03	0	39	0	1463812096	62	5422
2026-01-20 12:18:58.56	190.82	42.82	-46.1	-49.0	10.9	2.75e-03	0	39	0	1469054976	62	5464
2026-01-20 12:18:59.57	191.08	43.07	-46.0	-48.9	11.1	2.39e-03	0	39	0	1475346432	62	5394
2026-01-20 12:19:00.57	191.33	43.32	-45.9	-48.8	11.3	1.95e-03	0	39	0	1480589312	62	5283
2026-01-20 12:19:01.58	191.60	43.57	-46.0	-48.9	11.2	1.82e-03	0	39	0	1485832192	62	5355
2026-01-20 12:19:02.59	191.87	43.82	-46.0	-48.9	11.1	2.39e-03	0	39	0	1492123648	62	5389
2026-01-20 12:19:03.60	192.14	44.08	-45.9	-48.7	11.3	1.87e-03	0	38	0	1497366528	62	5263
2026-01-20 12:19:04.60	192.41	44.33	-45.8	-48.7	11.4	1.51e-03	0	39	0	1502609408	62	5233
2026-01-20 12:19:05.61	192.69	44.59	-45.9	-48.7	11.3	1.66e-03	0	39	0	1508900864	62	5238
2026-01-20 12:19:06.62	192.98	44.84	-45.8	-48.6	11.3	1.42e-03	0	39	0	1514143744	62	5216
2026-01-20 12:19:07.63	193.27	45.10	-45.9	-48.7	11.3	1.44e-03	0	39	0	1520435200	62	5235
2026-01-20 12:19:08.64	193.56	45.36	-45.8	-48.7	11.3	1.47e-03	0	38	0	1525678080	62	5229
2026-01-20 12:19:09.65	193.86	45.62	-45.8	-48.6	11.4	1.66e-03	0	39	0	1531969536	62	5217
2026-01-20 12:19:10.65	194.17	45.88	-46.0	-49.0	11.0	1.99e-03	0	38	0	1537212416	62	5409
2026-01-20 12:19:11.66	194.47	46.14	-45.9	-48.8	11.2	1.93e-03	0	39	0	1543503872	62	5319
2026-01-20 12:19:12.67	194.79	46.40	-46.0	-48.9	11.1	1.99e-03	0	38	0	1548746752	62	5370
2026-01-20 12:19:13.68	195.11	46.66	-46.1	-49.1	10.9	2.08e-03	0	39	0	1553989632	62	5474
2026-01-20 12:19:14.69	195.43	46.93	-46.0	-48.9	11.1	2.34e-03	0	39	0	1560281088	62	5390
2026-01-20 12:19:15.69	195.76	47.19	-45.9	-48.8	11.2	1.80e-03	0	39	0	1565523968	62	5338
2026-01-20 12:19:16.70	196.10	47.45	-46.0	-49.0	11.0	1.92e-03	0	39	0	1570766848	62	5443
2026-01-20 12:19:17.71	196.44	47.72	-46.0	-49.0	11.1	2.38e-03	0	39	0	1577058304	62	5410
2026-01-20 12:19:18.72	196.79	47.99	-46.0	-49.0	11.0	2.81e-03	0	39	0	1582301184	62	5444
2026-01-20 12:19:19.73	197.14	48.25	-46.2	-49.3	10.7	3.42e-03	0	39	0	1587544064	62	5626
2026-01-20 12:19:20.73	197.49	48.52	-46.3	-49.6	10.4	5.02e-03	0	39	0	1593835520	63	5472
2026-01-20 12:19:21.74	197.86	48.78	-46.3	-49.5	10.4	6.96e-03	0	39	0	1600126976	63	5460
2026-01-20 12:19:22.75	198.23	49.05	-46.3	-49.5	10.5	4.99e-03	0	39	0	1605369856	63	5419
2026-01-20 12:19:23.76	198.61	49.32	-46.1	-49.2	10.9	3.81e-03	0	39	0	1610612736	63	5221
2026-01-20 12:19:24.77	199.00	49.59	-46.0	-48.9	11.1	2.08e-03	0	38	0	1616904192	63	5063
2026-01-20 12:19:25.78	199.39	49.86	-46.1	-49.1	11.0	2.74e-03	0	39	0	1622147072	63	5173
2026-01-20 12:19:26.78	199.78	50.12	-46.2	-49.2	10.7	3.88e-03	0	39	0	1628438528	63	5262
2026-01-20 12:19:27.79	200.19	50.39	-46.3	-49.4	10.6	4.26e-03	0	38	0	1633681408	63	5370
2026-01-20 12:19:28.80	200.60	50.66	-46.2	-49.3	10.7	4.03e-03	0	39	0	1638924288	63	5324
2026-01-20 12:19:29.81	201.02	50.93	-46.1	-49.1	10.9	3.19e-03	0	39	0	1645215744	63	5173
2026-01-20 12:19:30.81	201.44	51.19	-46.1	-49.2	10.9	2.63e-03	0	39	0	1650458624	63	5222
2026-01-20 12:19:31.82	201.88	51.46	-46.2	-49.2	10.8	3.27e-03	0	39	0	1655701504	63	5277
2026-01-20 12:19:32.83	202.32	51.73	-46.3	-49.5	10.6	4.29e-03	0	38	0	1661992960	63	5412
2026-01-20 12:19:33.83	202.77	52.00	-46.3	-49.5	10.5	4.98e-03	0	39	0	1668284416	63	5433
2026-01-20 12:19:34.84	203.23	52.26	-46.3	-49.5	10.5	5.79e-03	0	39	0	1673527296	63	5444
2026-01-20 12:19:35.85	203.69	52.53	-46.4	-49.6	10.3	6.04e-03	0	39	0	1678770176	63	5528
2026-01-20 12:19:36.86	204.17	52.80	-46.4	-49.6	10.4	6.07e-03	0	39	0	1685061632	63	5476
2026-01-20 12:19:37.86	204.65	53.06	-46.4	-49.7	10.3	6.65e-03	0	38	0	1690304512	63	5574
2026-01-20 12:19:38.87	205.14	53.33	-46.3	-49.4	10.5	5.44e-03	0	39	0	1695547392	63	5402
2026-01-20 12:19:39.88	205.64	53.59	-46.2	-49.3	10.7	4.57e-03	0	39	0	1701838848	63	5323
2026-01-20 12:19:40.89	206.16	53.86	-46.2	-49.3	10.7	4.14e-03	0	39	0	1707081728	63	5331
2026-01-20 12:19:41.90	206.68	54.12	-46.4	-49.6	10.4	4.38e-03	0	39	0	1713373184	63	5475
2026-01-20 12:19:42.90	207.20	54.38	-46.6	-50.0	10.0	9.45e-03	0	39	0	1718616064	63	5766
2026-01-20 12:19:43.91	207.74	54.64	-46.7	-50.2	9.8	1.34e-02	0	38	0	1723858944	63	5916
2026-01-20 12:19:44.92	208.29	54.90	-46.5	-49.9	10.0	1.01e-02	0	39	0	1730150400	63	5688
2026-01-20 12:19:45.93	208.85	55.16	-46.5	-49.8	10.2	8.63e-03	0	39	0	1735393280	63	5617
2026-01-20 12:19:46.94	209.42	55.42	-46.5	-49.9	10.1	8.23e-03	0	39	0	1741684736	63	5676
2026-01-20 12:19:47.94	209.99	55.67	-46.4	-49.6	10.5	6.60e-03	0	39	0	1746927616	63	5478
2026-01-20 12:19:48.95	210.58	55.92	-46.3	-49.5	10.5	4.99e-03	0	39	0	1753219072	63	5428
2026-01-20 12:19:49.96	211.18	56.18	-46.3	-49.5	10.5	5.18e-03	0	39	0	1758461952	63	5445
2026-01-20 12:19:50.97	211.80	56.43	-46.3	-49.5	10.5	4.80e-03	0	39	0	1763704832	63	5421
2026-01-20 12:19:51.97	212.41	56.67	-46.4	-49.6	10.3	6.23e-03	0	39	0	1769996288	63	5512
2026-01-20 12:19:52.98	213.05	56.92	-46.4	-49.7	10.3	6.57e-03	0	39	0	1775239168	63	5537
2026-01-20 12:19:53.99	213.69	57.16	-46.4	-49.7	10.3	6.30e-03	0	39	0	1780482048	63	5530
2026-01-20 12:19:55.00	214.35	57.40	-46.3	-49.4	10.6	4.83e-03	0	39	0	1786773504	63	5381
2026-01-20 12:19:56.01	215.02	57.64	-46.3	-49.5	10.6	4.41e-03	0	39	0	1792016384	63	5410
2026-01-20 12:19:57.01	215.69	57.87	-46.3	-49.5	10.6	4.53e-03	0	39	0	1798307840	63	5406
2026-01-20 12:19:58.02	216.38	58.11	-46.2	-49.3	10.7	3.74e-03	0	39	0	1803550720	63	5327
2026-01-20 12:19:59.03	217.09	58.34	-46.3	-49.3	10.7	4.00e-03	0	39	0	1808793600	63	5336
2026-01-20 12:20:00.04	217.80	58.56	-46.2	-49.2	10.8	3.58e-03	0	39	0	1815085056	63	5236
2026-01-20 12:20:01.05	218.53	58.79	-46.1	-49.1	11.0	2.80e-03	0	39	0	1821376512	63	5170
2026-01-20 12:20:02.05	219.26	59.00	-46.1	-49.1	10.9	2.68e-03	0	39	0	1826619392	63	5216
2026-01-20 12:20:03.06	220.01	59.22	-46.2	-49.2	10.9	2.75e-03	0	39	0	1831862272	63	5241
2026-01-20 12:20:04.07	220.78	59.43	-46.1	-49.0	11.0	3.32e-03	0	39	0	1838153728	63	5155
2026-01-20 12:20:05.08	221.56	59.64	-45.9	-48.6	11.5	1.51e-03	0	39	0	1843396608	63	4917
2026-01-20 12:20:06.08	222.34	59.84	-45.9	-48.7	11.4	1.13e-03	0	38	0	1848639488	63	4934
2026-01-20 12:20:07.09	223.14	60.04	-46.0	-49.0	11.2	1.67e-03	0	39	0	1854930944	63	5105
2026-01-20 12:20:08.10	223.95	60.24	-46.1	-49.0	11.0	2.65e-03	0	39	0	1860173824	63	5155
2026-01-20 12:20:09.11	224.78	60.43	-45.9	-48.7	11.4	1.35e-03	0	39	0	1865416704	63	4944
2026-01-20 12:20:10.11	225.61	60.62	-45.8	-48.4	11.7	8.91e-04	0	39	0	1871708160	63	4804
2026-01-20 12:20:11.12	226.46	60.80	-46.0	-48.8	11.3	1.20e-03	0	39	0	1876951040	63	5004
2026-01-20 12:20:12.13	227.32	60.98	-46.1	-49.1	11.0	2.17e-03	0	38	0	1883242496	63	5186
2026-01-20 12:20:13.14	228.20	61.15	-46.2	-49.3	10.7	3.56e-03	0	39	0	1888485376	63	5329
2026-01-20 12:20:14.15	229.08	61.31	-46.0	-48.9	11.2	2.86e-03	0	39	0	1894776832	63	5077
2026-01-20 12:20:15.15	229.97	61.47	-45.8	-48.6	11.5	1.15e-03	0	39	0	1900019712	63	4895
2026-01-20 12:20:16.16	230.88	61.63	-45.9	-48.8	11.4	1.34e-03	0	39	0	1906311168	63	5001
2026-01-20 12:20:17.17	231.80	61.78	-45.8	-48.6	11.6	1.18e-03	0	39	0	1911554048	63	4874
2026-01-20 12:20:18.17	232.73	61.92	-45.8	-48.4	11.7	7.76e-04	0	39	0	1916796928	63	4813
2026-01-20 12:20:19.18	233.67	62.05	-46.0	-48.8	11.3	1.09e-03	0	39	0	1923088384	63	5028
2026-01-20 12:20:20.19	234.62	62.18	-46.0	-48.9	11.2	1.72e-03	0	39	0	1928331264	63	5086
2026-01-20 12:20:21.20	235.58	62.31	-45.9	-48.7	11.4	1.60e-03	0	39	0	1933574144	63	4949
2026-01-20 12:20:22.21	236.55	62.42	-45.9	-48.7	11.5	1.19e-03	0	39	0	1939865600	63	4946
2026-01-20 12:20:23.21	237.52	62.53	-46.0	-48.8	11.3	1.31e-03	0	39	0	1945108480	63	5016
2026-01-20 12:20:24.22	238.51	62.64	-46.1	-48.9	11.2	1.94e-03	0	39	0	1950351360	63	5096
2026-01-20 12:20:25.23	239.51	62.73	-45.9	-48.7	11.5	1.30e-03	0	39	0	1956642816	63	4929
2026-01-20 12:20:26.24	240.52	62.82	-45.9	-48.6	11.5	1.10e-03	0	39	0	1962934272	63	4909
2026-01-20 12:20:27.25	241.53	62.91	-45.8	-48.6	11.6	1.03e-03	0	39	0	1968177152	63	4873
2026-01-20 12:20:28.25	242.54	62.98	-45.8	-48.6	11.6	7.67e-04	0	39	0	1973420032	63	4886
2026-01-20 12:20:29.26	243.56	63.05	-45.7	-48.4	11.8	7.69e-04	0	39	0	1979711488	63	4787
2026-01-20 12:20:30.27	244.59	63.11	-45.8	-48.5	11.7	7.63e-04	0	39	0	1984954368	63	4843
2026-01-20 12:20:31.28	245.63	63.16	-45.8	-48.5	11.7	9.26e-04	0	39	0	1991245824	63	4857
2026-01-20 12:20:32.29	246.67	63.20	-45.8	-48.5	11.6	8.97e-04	0	38	0	1996488704	63	4855
2026-01-20 12:20:33.29	247.70	63.24	-45.8	-48.6	11.6	1.02e-03	0	39	0	2001731584	63	4872
2026-01-20 12:20:34.30	248.75	63.27	-45.8	-48.5	11.6	8.51e-04	0	38	0	2008023040	63	4849
2026-01-20 12:20:35.31	249.79	63.29	-45.8	-48.5	11.6	9.05e-04	0	39	0	2013265920	63	4843
2026-01-20 12:20:36.32	250.84	63.30	-45.7	-48.3	11.9	7.70e-04	0	39	0	2018508800	63	4737
2026-01-20 12:20:37.33	251.89	63.31	-45.7	-48.4	11.7	6.51e-04	0	39	0	2024800256	63	4806
2026-01-20 12:20:38.33	252.93	63.31	-45.7	-48.4	11.8	7.24e-04	0	38	0	2031091712	63	4792
2026-01-20 12:20:39.34	253.98	63.30	-45.7	-48.4	11.8	6.81e-04	0	38	0	2036334592	63	4781
2026-01-20 12:20:40.35	255.03	63.28	-45.8	-48.5	11.7	8.17e-04	0	39	0	2041577472	63	4841
2026-01-20 12:20:41.36	256.08	63.26	-45.9	-48.7	11.5	1.05e-03	0	38	0	2047868928	63	4936
2026-01-20 12:20:42.37	257.12	63.22	-45.9	-48.7	11.5	1.18e-03	0	39	0	2053111808	63	4947
2026-01-20 12:20:43.38	258.16	63.18	-45.9	-48.7	11.5	1.24e-03	0	39	0	2058354688	63	4934
2026-01-20 12:20:44.38	259.19	63.13	-45.9	-48.6	11.6	1.14e-03	0	39	0	2064646144	63	4908
2026-01-20 12:20:45.39	260.22	63.08	-45.9	-48.7	11.5	1.11e-03	0	39	0	2069889024	63	4934
2026-01-20 12:20:46.40	261.25	63.01	-45.8	-48.5	11.7	9.13e-04	0	38	0	2076180480	63	4836
2026-01-20 12:20:47.41	262.27	62.94	-45.8	-48.5	11.7	7.13e-04	0	39	0	2081423360	63	4852
2026-01-20 12:20:48.42	263.29	62.86	-45.8	-48.6	11.6	9.30e-04	0	39	0	2086666240	63	4888
2026-01-20 12:20:49.42	264.29	62.78	-46.0	-48.9	11.3	1.50e-03	0	38	0	2092957696	63	5060
2026-01-20 12:20:50.43	265.29	62.68	-45.9	-48.7	11.5	1.45e-03	0	39	0	2098200576	63	4973
2026-01-20 12:20:51.44	266.28	62.58	-45.9	-48.7	11.5	1.22e-03	0	39	0	2104492032	63	4963
2026-01-20 12:20:52.44	267.25	62.48	-46.0	-48.8	11.3	1.44e-03	0	39	0	2109734912	63	5039
2026-01-20 12:20:53.45	268.23	62.36	-46.1	-49.0	11.2	1.61e-03	0	39	0	2116026368	63	5121
2026-01-20 12:20:54.46	269.19	62.24	-45.9	-48.8	11.4	1.34e-03	0	39	0	2121269248	63	4987
2026-01-20 12:20:55.47	270.15	62.11	-45.8	-48.4	11.8	7.59e-04	0	39	0	2126512128	63	4805
2026-01-20 12:20:56.47	271.09	61.98	-45.9	-48.7	11.5	8.25e-04	0	38	0	2132803584	63	4930
2026-01-20 12:20:57.48	272.02	61.84	-46.1	-49.0	11.2	1.80e-03	0	39	0	2138046464	63	5127
2026-01-20 12:20:58.49	272.95	61.70	-46.1	-49.0	11.1	1.91e-03	0	39	0	2143289344	63	5155
2026-01-20 12:20:59.50	273.86	61.54	-46.1	-49.0	11.2	1.75e-03	0	39	0	2149580800	63	5101
2026-01-20 12:21:00.51	274.76	61.39	-46.0	-48.9	11.3	1.78e-03	0	38	0	2154823680	63	5072
2026-01-20 12:21:01.51	275.65	61.23	-46.1	-48.9	11.2	1.83e-03	0	38	0	2161115136	63	5098
2026-01-20 12:21:02.52	276.53	61.06	-46.0	-48.9	11.3	1.66e-03	0	39	0	2166358016	63	5084
2026-01-20 12:21:03.53	277.39	60.88	-46.1	-49.0	11.2	1.77e-03	0	38	0	2171600896	63	5103
2026-01-20 12:21:04.54	278.25	60.70	-46.0	-48.8	11.4	1.39e-03	0	39	0	2177892352	63	5032
2026-01-20 12:21:05.54	279.08	60.52	-46.0	-48.9	11.3	1.53e-03	0	39	0	2184183808	63	5070
2026-01-20 12:21:06.55	279.91	60.33	-46.1	-49.0	11.2	1.89e-03	0	39	0	2189426688	63	5105
2026-01-20 12:21:07.56	280.73	60.14	-46.1	-49.1	11.1	2.16e-03	0	39	0	2194669568	63	5173
2026-01-20 12:21:08.57	281.54	59.94	-46.2	-49.2	11.0	2.36e-03	0	39	0	2200961024	63	5248
2026-01-20 12:21:09.57	282.33	59.74	-46.3	-49.3	10.8	3.34e-03	0	39	0	2206203904	63	5334
2026-01-20 12:21:10.58	283.11	59.53	-46.3	-49.4	10.8	3.46e-03	0	39	0	2211446784	63	5348
2026-01-20 12:21:11.59	283.88	59.32	-46.4	-49.5	10.7	3.69e-03	0	39	0	2217738240	63	5437
2026-01-20 12:21:12.60	284.64	59.11	-46.4	-49.4	10.7	3.87e-03	0	38	0	2222981120	63	5399
2026-01-20 12:21:13.60	285.37	58.89	-46.3	-49.4	10.7	3.57e-03	0	38	0	2228224000	63	5373
2026-01-20 12:21:14.61	286.11	58.67	-46.4	-49.5	10.6	4.12e-03	0	39	0	2234515456	63	5426
2026-01-20 12:21:15.62	286.83	58.45	-46.4	-49.5	10.6	4.41e-03	0	39	0	2239758336	63	5456
2026-01-20 12:21:16.62	287.53	58.22	-46.4	-49.6	10.6	4.47e-03	0	39	0	2246049792	63	5476
2026-01-20 12:21:17.63	288.22	57.99	-46.5	-49.7	10.4	5.13e-03	0	39	0	2251292672	63	5546
2026-01-20 12:21:18.64	288.91	57.76	-46.5	-49.7	10.5	5.86e-03	0	38	0	2257584128	63	5550
2026-01-20 12:21:19.65	289.58	57.52	-46.4	-49.5	10.6	4.81e-03	0	38	0	2262827008	63	5462
2026-01-20 12:21:20.65	290.24	57.28	-46.3	-49.4	10.8	3.67e-03	0	39	0	2269118464	63	5341
2026-01-20 12:21:21.66	290.89	57.04	-46.4	-49.5	10.6	3.96e-03	0	39	0	2274361344	63	5443
2026-01-20 12:21:22.67	291.53	56.80	-46.5	-49.8	10.4	5.31e-03	0	38	0	2279604224	63	5598
2026-01-20 12:21:23.68	292.15	56.55	-46.7	-50.0	10.2	7.69e-03	0	38	0	2285895680	63	5760
2026-01-20 12:21:24.69	292.77	56.30	-46.6	-50.0	10.1	8.91e-03	0	39	0	2291138560	64	5405
2026-01-20 12:21:25.69	293.37	56.05	-46.7	-50.1	10.0	9.78e-03	0	39	0	2296381440	64	5479
2026-01-20 12:21:26.70	293.96	55.80	-46.8	-50.3	9.7	1.25e-02	0	39	0	2302672896	64	5605
2026-01-20 12:21:27.71	294.55	55.55	-46.8	-50.4	9.6	1.51e-02	0	39	0	2307915776	64	5688
2026-01-20 12:21:28.72	295.12	55.29	-46.8	-50.4	9.7	1.67e-02	0	39	0	2313158656	64	5673
2026-01-20 12:21:29.73	295.68	55.03	-46.7	-50.1	10.0	1.08e-02	0	39	0	2319450112	64	5470
2026-01-20 12:21:30.74	296.24	54.78	-46.8	-50.2	9.8	1.19e-02	0	39	0	2325741568	64	5579
2026-01-20 12:21:31.74	296.78	54.52	-46.8	-50.4	9.7	1.49e-02	0	38	0	2330984448	64	5672
2026-01-20 12:21:32.75	297.31	54.26	-46.9	-50.6	9.5	1.78e-02	0	39	0	2336227328	64	5792
2026-01-20 12:21:33.76	297.83	54.00	-46.8	-50.3	9.7	1.54e-02	0	38	0	2342518784	64	5652
2026-01-20 12:21:34.77	298.35	53.73	-46.8	-50.3	9.7	1.41e-02	0	39	0	2347761664	64	5637
2026-01-20 12:21:35.78	298.85	53.47	-46.8	-50.3	9.7	1.46e-02	0	39	0	2354053120	64	5630
2026-01-20 12:21:36.78	299.35	53.21	-46.8	-50.3	9.7	1.33e-02	0	39	0	2359296000	64	5624
2026-01-20 12:21:37.79	299.83	52.94	-46.8	-50.3	9.7	1.56e-02	0	39	0	2364538880	64	5653
2026-01-20 12:21:38.80	300.31	52.68	-46.7	-50.0	10.0	1.15e-02	0	39	0	2370830336	64	5452
2026-01-20 12:21:39.80	300.78	52.41	-46.5	-49.8	10.3	7.38e-03	0	39	0	2376073216	64	5304
2026-01-20 12:21:40.81	301.24	52.15	-46.6	-49.9	10.2	7.26e-03	0	39	0	2381316096	64	5379
2026-01-20 12:21:41.82	301.70	51.88	-46.7	-50.1	10.0	9.25e-03	0	39	0	2387607552	64	5471
2026-01-20 12:21:42.83	302.14	51.61	-46.7	-50.0	10.0	9.38e-03	0	39	0	2392850432	64	5451
2026-01-20 12:21:43.84	302.58	51.34	-46.5	-49.7	10.4	6.67e-03	0	39	0	2399141888	64	5237
2026-01-20 12:21:44.85	303.01	51.07	-46.4	-49.6	10.5	5.51e-03	0	38	0	2404384768	64	5175
2026-01-20 12:21:45.85	303.43	50.81	-46.3	-49.4	10.7	4.32e-03	0	39	0	2410676224	64	5100
2026-01-20 12:21:46.86	303.85	50.54	-46.3	-49.3	10.8	3.74e-03	0	39	0	2415919104	64	5023
2026-01-20 12:21:47.87	304.25	50.27	-46.5	-49.7	10.4	5.18e-03	0	39	0	2421161984	64	5261
2026-01-20 12:21:48.88	304.66	50.01	-46.6	-49.9	10.2	7.45e-03	0	39	0	2427453440	64	5379
2026-01-20 12:21:49.88	305.05	49.74	-46.5	-49.8	10.3	7.72e-03	0	39	0	2432696320	64	5305
2026-01-20 12:21:50.89	305.43	49.47	-46.4	-49.6	10.5	5.44e-03	0	38	0	2438987776	64	5187
2026-01-20 12:21:51.90	305.81	49.21	-46.4	-49.5	10.6	4.73e-03	0	39	0	2444230656	64	5151
2026-01-20 12:21:52.91	306.19	48.94	-46.2	-49.2	10.9	3.43e-03	0	39	0	2449473536	64	4980
2026-01-20 12:21:53.91	306.55	48.67	-46.2	-49.2	10.9	2.76e-03	0	39	0	2455764992	64	4964
2026-01-20 12:21:54.92	306.92	48.41	-46.2	-49.2	10.9	3.00e-03	0	38	0	2461007872	64	4967
2026-01-20 12:21:55.93	307.27	48.14	-46.2	-49.3	10.9	2.88e-03	0	38	0	2466250752	64	4998
2026-01-20 12:21:56.94	307.62	47.88	-46.2	-49.3	10.9	3.53e-03	0	39	0	2472542208	64	4987
2026-01-20 12:21:57.95	307.97	47.61	-46.2	-49.2	11.0	2.67e-03	0	38	0	2478833664	64	4929
2026-01-20 12:21:58.96	308.30	47.35	-46.1	-49.1	11.0	2.29e-03	0	39	0	2484076544	64	4886
2026-01-20 12:21:59.96	308.63	47.09	-46.2	-49.2	10.9	2.75e-03	0	39	0	2489319424	64	4941
2026-01-20 12:22:00.97	308.96	46.82	-46.3	-49.3	10.8	3.02e-03	0	39	0	2495610880	64	5002
2026-01-20 12:22:01.98	309.28	46.56	-46.3	-49.3	10.8	3.41e-03	0	39	0	2500853760	64	5024
2026-01-20 12:22:02.98	309.60	46.30	-46.3	-49.3	10.8	3.35e-03	0	39	0	2506096640	64	5038
2026-01-20 12:22:03.99	309.91	46.04	-46.3	-49.4	10.7	3.82e-03	0	39	0	2512388096	64	5081
2026-01-20 12:22:05.00	310.21	45.78	-46.2	-49.2	10.9	3.09e-03	0	39	0	2517630976	64	4963
2026-01-20 12:22:06.01	310.52	45.52	-46.2	-49.1	11.0	2.63e-03	0	38	0	2523922432	64	4911
2026-01-20 12:22:07.01	310.81	45.27	-46.1	-49.1	11.1	2.32e-03	0	39	0	2529165312	64	4877
2026-01-20 12:22:08.02	311.10	45.01	-46.2	-49.2	10.9	2.42e-03	0	39	0	2534408192	64	4932
2026-01-20 12:22:09.03	311.39	44.75	-46.1	-49.1	11.0	2.42e-03	0	39	0	2540699648	64	4895
2026-01-20 12:22:10.04	311.67	44.50	-46.1	-49.1	11.0	2.39e-03	0	38	0	2546991104	64	4889
2026-01-20 12:22:11.05	311.95	44.24	-46.1	-49.1	11.1	2.49e-03	0	38	0	2552233984	64	4894
2026-01-20 12:22:12.05	312.22	43.99	-46.2	-49.1	11.0	2.34e-03	0	39	0	2557476864	64	4923
2026-01-20 12:22:13.06	312.49	43.74	-46.2	-49.2	10.9	2.67e-03	0	38	0	2563768320	64	4966
2026-01-20 12:22:14.07	312.76	43.49	-46.2	-49.2	10.9	3.05e-03	0	39	0	2569011200	64	4954
2026-01-20 12:22:15.08	313.02	43.24	-46.2	-49.2	10.9	3.16e-03	0	39	0	2574254080	64	4959
2026-01-20 12:22:16.09	313.28	42.99	-46.1	-49.0	11.1	2.30e-03	0	38	0	2580545536	64	4870
2026-01-20 12:22:17.09	313.53	42.74	-46.2	-49.2	11.0	2.49e-03	0	38	0	2585788416	64	4941
2026-01-20 12:22:18.10	313.78	42.49	-46.3	-49.3	10.8	3.67e-03	0	38	0	2591031296	64	5034
2026-01-20 12:22:19.11	314.03	42.25	-46.3	-49.3	10.8	3.72e-03	0	38	0	2597322752	64	5034
2026-01-20 12:22:20.12	314.27	42.00	-46.2	-49.3	10.9	3.29e-03	0	38	0	2602565632	64	4992
2026-01-20 12:22:21.13	314.51	41.75	-46.2	-49.1	11.0	2.97e-03	0	39	0	2608857088	64	4908
2026-01-20 12:22:22.13	314.74	41.51	-46.1	-49.0	11.2	1.99e-03	0	39	0	2614099968	64	4837
2026-01-20 12:22:23.14	314.97	41.27	-46.1	-49.0	11.2	1.95e-03	0	39	0	2620391424	64	4829
2026-01-20 12:22:24.15	315.20	41.03	-46.1	-49.1	11.1	2.34e-03	0	38	0	2625634304	64	4878
2026-01-20 12:22:25.16	315.43	40.79	-46.1	-49.0	11.1	1.88e-03	0	38	0	2631925760	64	4835
2026-01-20 12:22:26.17	315.65	40.55	-46.1	-49.0	11.2	1.82e-03	0	39	0	2637168640	64	4838
2026-01-20 12:22:27.17	315.87	40.32	-46.1	-49.0	11.1	2.31e-03	0	38	0	2642411520	64	4860
2026-01-20 12:22:28.18	316.08	40.08	-46.0	-48.9	11.3	1.74e-03	0	38	0	2648702976	64	4778
2026-01-20 12:22:29.19	316.29	39.84	-46.1	-48.9	11.3	1.54e-03	0	39	0	2653945856	63	5090
2026-01-20 12:22:30.20	316.50	39.61	-46.1	-49.0	11.2	1.77e-03	0	39	0	2659188736	63	5120
2026-01-20 12:22:31.21	316.71	39.38	-46.1	-49.0	11.2	1.77e-03	0	39	0	2665480192	63	5146
2026-01-20 12:22:32.22	316.92	39.14	-46.0	-48.8	11.5	1.41e-03	0	38	0	2670723072	63	4996
2026-01-20 12:22:33.22	317.11	38.92	-46.0	-48.8	11.5	1.16e-03	0	39	0	2675965952	63	4992
2026-01-20 12:22:34.23	317.31	38.69	-45.9	-48.7	11.5	1.06e-03	0	39	0	2682257408	63	4946
2026-01-20 12:22:35.24	317.51	38.46	-46.0	-48.8	11.5	1.20e-03	0	39	0	2688548864	63	4984
2026-01-20 12:22:36.25	317.70	38.23	-46.0	-48.9	11.3	1.43e-03	0	38	0	2693791744	63	5071
2026-01-20 12:22:37.25	317.89	38.01	-46.0	-48.8	11.4	1.39e-03	0	39	0	2699034624	63	5024
2026-01-20 12:22:38.26	318.08	37.78	-46.1	-48.9	11.3	1.66e-03	0	38	0	2705326080	63	5069
2026-01-20 12:22:39.27	318.26	37.56	-46.1	-48.9	11.3	1.33e-03	0	38	0	2710568960	63	5071
2026-01-20 12:22:40.28	318.45	37.34	-45.9	-48.7	11.6	1.16e-03	0	39	0	2716860416	63	4944
2026-01-20 12:22:41.28	318.63	37.12	-46.0	-48.8	11.5	1.08e-03	0	38	0	2722103296	63	4989
2026-01-20 12:22:42.29	318.80	36.90	-46.0	-48.8	11.4	1.42e-03	0	39	0	2727346176	63	5012
2026-01-20 12:22:43.30	318.98	36.68	-45.9	-48.7	11.5	1.22e-03	0	38	0	2733637632	63	4950
2026-01-20 12:22:44.31	319.15	36.46	-46.0	-48.7	11.5	1.05e-03	0	38	0	2738880512	63	4983
2026-01-20 12:22:45.31	319.32	36.24	-46.0	-48.7	11.5	1.19e-03	0	38	0	2744123392	63	4966
2026-01-20 12:22:46.32	319.49	36.03	-46.0	-48.8	11.5	1.13e-03	0	39	0	2750414848	63	4986
2026-01-20 12:22:47.33	319.66	35.81	-46.0	-48.9	11.3	1.40e-03	0	38	0	2755657728	63	5070
2026-01-20 12:22:48.34	319.83	35.60	-46.0	-48.9	11.3	1.66e-03	0	38	0	2761949184	63	5065
2026-01-20 12:22:49.34	319.99	35.39	-46.0	-48.8	11.4	1.49e-03	0	39	0	2767192064	63	5033
2026-01-20 12:22:50.35	320.15	35.18	-46.0	-48.8	11.3	1.47e-03	0	39	0	2773483520	63	5033
2026-01-20 12:22:51.36	320.31	34.97	-46.0	-48.8	11.4	1.39e-03	0	38	0	2778726400	63	5001
2026-01-20 12:22:52.37	320.46	34.76	-46.0	-48.8	11.3	1.43e-03	0	39	0	2783969280	63	5039
2026-01-20 12:22:53.37	320.62	34.56	-46.0	-48.8	11.4	1.47e-03	0	38	0	2790260736	63	5000
2026-01-20 12:22:54.38	320.77	34.35	-45.9	-48.7	11.6	1.02e-03	0	38	0	2795503616	63	4933
2026-01-20 12:22:55.39	320.92	34.15	-46.0	-48.7	11.5	1.21e-03	0	38	0	2801795072	63	4970
2026-01-20 12:22:56.40	321.07	33.94	-46.0	-48.8	11.3	1.32e-03	0	38	0	2807037952	63	5038
2026-01-20 12:22:57.41	321.22	33.74	-46.0	-48.8	11.3	1.49e-03	0	39	0	2812280832	63	5035
2026-01-20 12:22:58.41	321.36	33.54	-46.1	-49.0	11.2	1.65e-03	0	39	0	2818572288	63	5105
2026-01-20 12:22:59.42	321.51	33.34	-46.1	-49.0	11.1	1.84e-03	0	39	0	2823815168	63	5147
2026-01-20 12:23:00.43	321.65	33.14	-46.2	-49.1	11.0	2.49e-03	0	38	0	2829058048	63	5210
2026-01-20 12:23:01.44	321.79	32.94	-46.1	-49.0	11.2	1.90e-03	0	38	0	2835349504	63	5142
2026-01-20 12:23:02.45	321.93	32.74	-46.1	-49.0	11.2	2.09e-03	0	38	0	2841640960	63	5115
2026-01-20 12:23:03.46	322.07	32.55	-46.1	-48.9	11.2	1.71e-03	0	38	0	2846883840	63	5099
2026-01-20 12:23:04.46	322.20	32.36	-46.0	-48.9	11.3	1.49e-03	0	39	0	2852126720	63	5044
2026-01-20 12:23:05.47	322.34	32.16	-46.0	-48.8	11.4	1.63e-03	0	38	0	2858418176	63	5020
2026-01-20 12:23:06.48	322.47	31.97	-46.0	-48.9	11.3	1.53e-03	0	39	0	2863661056	63	5055
2026-01-20 12:23:07.49	322.60	31.78	-46.0	-48.9	11.3	1.57e-03	0	38	0	2868903936	63	5044
2026-01-20 12:23:08.50	322.73	31.59	-46.0	-48.9	11.3	1.74e-03	0	38	0	2875195392	63	5075
2026-01-20 12:23:09.50	322.86	31.40	-46.0	-48.9	11.3	1.70e-03	0	39	0	2880438272	63	5071
2026-01-20 12:23:10.51	322.98	31.21	-46.1	-49.0	11.2	1.84e-03	0	38	0	2886729728	63	5106
2026-01-20 12:23:11.52	323.11	31.02	-46.1	-49.0	11.1	2.01e-03	0	38	0	2891972608	63	5139
2026-01-20 12:23:12.53	323.23	30.84	-46.1	-49.0	11.2	2.06e-03	0	38	0	2897215488	63	5107
2026-01-20 12:23:13.53	323.35	30.65	-46.1	-48.9	11.3	1.70e-03	0	38	0	2903506944	63	5070
2026-01-20 12:23:14.54	323.48	30.47	-46.1	-48.9	11.2	1.78e-03	0	39	0	2909798400	63	5091
2026-01-20 12:23:15.55	323.60	30.29	-46.0	-48.9	11.3	1.60e-03	0	38	0	2915041280	63	5054
2026-01-20 12:23:16.56	323.71	30.10	-46.1	-49.0	11.2	1.70e-03	0	38	0	2920284160	63	5101
2026-01-20 12:23:17.57	323.83	29.92	-46.1	-48.9	11.2	1.83e-03	0	39	0	2926575616	63	5094
2026-01-20 12:23:18.57	323.95	29.74	-46.1	-49.0	11.1	2.17e-03	0	38	0	2931818496	63	5157
2026-01-20 12:23:19.58	324.06	29.57	-46.1	-49.0	11.1	2.07e-03	0	38	0	2937061376	63	5140
2026-01-20 12:23:20.59	324.18	29.39	-46.2	-49.2	11.0	2.45e-03	0	38	0	2943352832	63	5240
2026-01-20 12:23:21.60	324.29	29.21	-46.2	-49.2	11.0	2.53e-03	0	39	0	2948595712	63	5221
2026-01-20 12:23:22.61	324.40	29.03	-46.2	-49.1	11.0	2.49e-03	0	39	0	2953838592	63	5212
2026-01-20 12:23:23.61	324.51	28.86	-46.2	-49.2	10.9	2.69e-03	0	38	0	2960130048	63	5254
2026-01-20 12:23:24.62	324.62	28.69	-46.2	-49.2	11.0	2.68e-03	0	38	0	2965372928	63	5236
2026-01-20 12:23:25.63	324.73	28.51	-46.2	-49.2	10.9	2.88e-03	0	38	0	2971664384	63	5245
2026-01-20 12:23:26.64	324.83	28.34	-46.2	-49.2	10.9	2.75e-03	0	38	0	2976907264	63	5242
2026-01-20 12:23:27.65	324.94	28.17	-46.2	-49.1	11.0	3.11e-03	0	38	0	2983198720	63	5214
2026-01-20 12:23:28.65	325.04	28.00	-46.0	-48.9	11.2	2.13e-03	0	38	0	2988441600	63	5091
2026-01-20 12:23:29.66	325.15	27.83	-46.0	-48.9	11.3	1.65e-03	0	38	0	2994733056	63	5051
2026-01-20 12:23:30.67	325.25	27.67	-46.1	-49.0	11.1	2.15e-03	0	39	0	2999975936	63	5131
2026-01-20 12:23:31.67	325.35	27.50	-46.1	-49.0	11.1	2.19e-03	0	39	0	3005218816	63	5156
2026-01-20 12:23:32.68	325.45	27.33	-46.0	-48.8	11.3	1.73e-03	0	39	0	3011510272	63	5039
2026-01-20 12:23:33.69	325.55	27.17	-45.9	-48.7	11.4	1.43e-03	0	38	0	3016753152	63	4963
2026-01-20 12:23:34.70	325.65	27.00	-45.9	-48.7	11.4	1.29e-03	0	39	0	3021996032	63	4943
2026-01-20 12:23:35.71	325.75	26.84	-46.0	-48.9	11.2	1.60e-03	0	38	0	3028287488	63	5069
2026-01-20 12:23:36.71	325.84	26.68	-46.1	-49.0	11.1	1.79e-03	0	38	0	3033530368	63	5117
2026-01-20 12:23:37.72	325.94	26.52	-46.1	-49.0	11.1	2.14e-03	0	38	0	3038773248	63	5149
2026-01-20 12:23:38.73	326.03	26.36	-46.0	-48.9	11.2	2.21e-03	0	38	0	3045064704	63	5079
2026-01-20 12:23:39.74	326.13	26.20	-46.1	-49.0	11.2	1.96e-03	0	38	0	3051356160	63	5109
2026-01-20 12:23:40.75	326.22	26.04	-46.1	-49.0	11.1	2.20e-03	0	38	0	3056599040	63	5151
2026-01-20 12:23:41.75	326.31	25.88	-46.2	-49.1	11.0	2.41e-03	0	38	0	3061841920	63	5211
2026-01-20 12:23:42.76	326.40	25.72	-46.2	-49.2	10.9	2.76e-03	0	38	0	3068133376	63	5241
2026-01-20 12:23:43.77	326.49	25.57	-46.2	-49.3	10.8	3.45e-03	0	38	0	3073376256	63	5296
2026-01-20 12:23:44.78	326.58	25.41	-46.3	-49.3	10.8	3.62e-03	0	38	0	3079667712	63	5335
2026-01-20 12:23:45.79	326.67	25.25	-46.3	-49.3	10.7	3.70e-03	0	38	0	3084910592	63	5339
2026-01-20 12:23:46.79	326.76	25.10	-46.3	-49.4	10.7	3.71e-03	0	38	0	3090153472	63	5346
2026-01-20 12:23:47.80	326.85	24.95	-46.3	-49.4	10.7	4.33e-03	0	38	0	3096444928	63	5381
2026-01-20 12:23:48.81	326.93	24.80	-46.3	-49.5	10.6	4.21e-03	0	39	0	3101687808	63	5405
2026-01-20 12:23:49.82	327.02	24.64	-46.3	-49.4	10.6	4.27e-03	0	39	0	3106930688	63	5377
2026-01-20 12:23:50.83	327.10	24.49	-46.3	-49.3	10.7	4.02e-03	0	39	0	3113222144	63	5334
2026-01-20 12:23:51.84	327.19	24.34	-46.3	-49.4	10.7	3.96e-03	0	38	0	3119513600	63	5356
2026-01-20 12:23:52.85	327.27	24.19	-46.3	-49.4	10.7	3.97e-03	0	39	0	3124756480	63	5374
2026-01-20 12:23:53.85	327.35	24.05	-46.4	-49.5	10.6	4.31e-03	0	38	0	3129999360	63	5424
2026-01-20 12:23:54.86	327.44	23.90	-46.3	-49.5	10.6	4.85e-03	0	38	0	3136290816	63	5441
2026-01-20 12:23:55.86	327.52	23.75	-46.3	-49.4	10.7	4.26e-03	0	38	0	3141533696	63	5355
2026-01-20 12:23:56.87	327.60	23.61	-46.3	-49.4	10.7	3.80e-03	0	38	0	3146776576	63	5363
2026-01-20 12:23:57.88	327.68	23.46	-46.3	-49.4	10.6	4.34e-03	0	38	0	3153068032	63	5391
2026-01-20 12:23:58.89	327.75	23.32	-46.3	-49.4	10.7	4.17e-03	0	39	0	3158310912	63	5356
2026-01-20 12:23:59.89	327.83	23.18	-46.3	-49.4	10.6	4.52e-03	0	38	0	3164602368	63	5399
2026-01-20 12:24:00.90	327.91	23.03	-46.3	-49.4	10.6	4.34e-03	0	38	0	3169845248	63	5399
2026-01-20 12:24:01.91	327.99	22.89	-46.4	-49.6	10.5	4.80e-03	0	38	0	3175088128	63	5466
2026-01-20 12:24:02.92	328.06	22.75	-46.3	-49.5	10.6	4.89e-03	0	38	0	3181379584	63	5423
2026-01-20 12:24:03.93	328.14	22.61	-46.4	-49.5	10.5	5.22e-03	0	39	0	3186622464	63	5453
2026-01-20 12:24:04.93	328.21	22.47	-46.4	-49.7	10.4	6.13e-03	0	38	0	3192913920	63	5533
2026-01-20 12:24:05.94	328.29	22.33	-46.4	-49.7	10.3	5.95e-03	0	38	0	3198156800	63	5533
2026-01-20 12:24:06.95	328.36	22.19	-46.5	-49.8	10.2	7.56e-03	0	38	0	3204448256	63	5612
2026-01-20 12:24:07.96	328.43	22.05	-46.5	-49.8	10.2	7.70e-03	0	38	0	3209691136	63	5625
2026-01-20 12:24:08.97	328.51	21.92	-46.5	-49.8	10.2	7.55e-03	0	38	0	3214934016	63	5602
2026-01-20 12:24:09.97	328.58	21.78	-46.5	-49.8	10.2	7.70e-03	0	39	0	3221225472	63	5635
2026-01-20 12:24:10.98	328.65	21.64	-46.5	-49.8	10.2	8.51e-03	0	39	0	3226468352	63	5656
2026-01-20 12:24:11.99	328.72	21.51	-46.6	-50.0	10.0	9.42e-03	0	39	0	3231711232	63	5767
2026-01-20 12:24:13.00	328.79	21.38	-46.6	-50.0	10.0	9.74e-03	0	39	0	3238002688	63	5777
2026-01-20 12:24:14.01	328.86	21.24	-46.7	-50.1	9.9	1.10e-02	0	39	0	3243245568	63	5822
2026-01-20 12:24:15.01	328.93	21.11	-46.6	-50.1	9.9	1.16e-02	0	38	0	3249537024	63	5812
2026-01-20 12:24:16.02	329.00	20.98	-46.7	-50.1	9.8	1.18e-02	0	39	0	3254779904	63	5853
2026-01-20 12:24:17.03	329.07	20.84	-46.7	-50.1	9.9	1.23e-02	0	38	0	3260022784	63	5824
2026-01-20 12:24:18.04	329.13	20.71	-46.7	-50.1	9.8	1.16e-02	0	38	0	3266314240	63	5834
2026-01-20 12:24:19.05	329.20	20.58	-46.7	-50.2	9.8	1.27e-02	0	38	0	3272605696	63	5894
2026-01-20 12:24:20.06	329.27	20.45	-46.6	-50.1	9.7	1.43e-02	0	39	0	3277848576	64	5521
2026-01-20 12:24:21.06	329.33	20.33	-46.6	-50.1	9.8	1.34e-02	0	38	0	3283091456	64	5506
2026-01-20 12:24:22.07	329.40	20.20	-46.6	-50.2	9.7	1.43e-02	0	38	0	3289382912	64	5529
2026-01-20 12:24:23.08	329.46	20.07	-46.7	-50.3	9.6	1.49e-02	0	39	0	3294625792	64	5601
2026-01-20 12:24:24.09	329.53	19.94	-46.7	-50.3	9.6	1.57e-02	0	38	0	3299868672	64	5599
2026-01-20 12:24:25.09	329.59	19.82	-46.7	-50.4	9.5	1.73e-02	0	38	0	3306160128	64	5675
2026-01-20 12:24:26.10	329.65	19.69	-46.7	-50.3	9.5	1.81e-02	0	38	0	3311403008	64	5624
2026-01-20 12:24:27.11	329.72	19.56	-46.7	-50.3	9.5	1.65e-02	0	38	0	3316645888	64	5644
2026-01-20 12:24:28.12	329.78	19.44	-46.7	-50.4	9.5	1.83e-02	0	38	0	3322937344	64	5672
2026-01-20 12:24:29.13	329.84	19.31	-46.8	-50.5	9.4	2.02e-02	0	38	0	3328180224	64	5747
2026-01-20 12:24:30.13	329.90	19.19	-46.7	-50.4	9.5	1.89e-02	0	38	0	3334471680	64	5687
2026-01-20 12:24:31.14	329.96	19.07	-46.8	-50.5	9.3	2.11e-02	0	39	0	3339714560	64	5752
2026-01-20 12:24:32.15	330.02	18.95	-46.8	-50.5	9.3	2.22e-02	0	38	0	3346006016	64	5767
2026-01-20 12:24:33.16	330.08	18.82	-46.8	-50.5	9.3	2.17e-02	0	38	0	3351248896	64	5784
2026-01-20 12:24:34.17	330.14	18.70	-46.8	-50.5	9.3	2.27e-02	0	38	0	3357540352	64	5782
2026-01-20 12:24:35.18	330.20	18.58	-46.8	-50.5	9.3	2.24e-02	0	38	0	3362783232	64	5751
2026-01-20 12:24:36.18	330.26	18.46	-46.8	-50.6	9.3	2.36e-02	0	38	0	3368026112	64	5812
2026-01-20 12:24:37.19	330.32	18.34	-46.8	-50.5	9.3	2.25e-02	0	38	0	3374317568	64	5774
2026-01-20 12:24:38.20	330.38	18.22	-46.8	-50.5	9.3	2.27e-02	0	39	0	3379560448	64	5756
2026-01-20 12:24:39.21	330.44	18.11	-46.8	-50.6	9.2	2.35e-02	0	38	0	3384803328	64	5801
2026-01-20 12:24:40.22	330.49	17.99	-46.8	-50.5	9.3	2.38e-02	0	38	0	3391094784	64	5762
2026-01-20 12:24:41.23	330.55	17.87	-46.8	-50.6	9.2	2.31e-02	0	39	0	3396337664	64	5801
2026-01-20 12:24:42.23	330.61	17.75	-46.8	-50.6	9.1	2.58e-02	0	38	0	3402629120	64	5855
2026-01-20 12:24:43.24	330.66	17.64	-46.9	-50.7	9.1	2.59e-02	0	38	0	3407872000	64	5867
2026-01-20 12:24:44.25	330.72	17.52	-46.8	-50.6	9.2	2.75e-02	0	39	0	3414163456	64	5803
2026-01-20 12:24:45.26	330.77	17.41	-46.8	-50.5	9.3	2.24e-02	0	38	0	3419406336	64	5740
2026-01-20 12:24:46.27	330.83	17.29	-46.8	-50.6	9.2	2.42e-02	0	38	0	3424649216	64	5797
2026-01-20 12:24:47.28	330.88	17.18	-46.9	-50.7	9.1	2.71e-02	0	38	0	3430940672	64	5868
2026-01-20 12:24:48.28	330.94	17.06	-46.9	-50.7	9.1	2.74e-02	0	38	0	3436183552	64	5880
2026-01-20 12:24:49.29	330.99	16.95	-46.9	-50.8	9.0	3.15e-02	0	38	0	3442475008	64	5957
2026-01-20 12:24:50.29	331.04	16.84	-46.9	-50.7	9.1	2.91e-02	0	38	0	3447717888	64	5893
2026-01-20 12:24:51.30	331.10	16.73	-46.8	-50.6	9.2	2.50e-02	0	39	0	3452960768	64	5798
2026-01-20 12:24:52.31	331.15	16.61	-46.9	-50.8	9.0	2.99e-02	0	38	0	3459252224	64	5956
2026-01-20 12:24:53.32	331.20	16.50	-46.9	-50.7	9.0	2.93e-02	0	38	0	3464495104	64	5882
2026-01-20 12:24:54.33	331.25	16.39	-46.9	-50.8	8.9	3.28e-02	0	38	0	3469737984	64	5981
2026-01-20 12:24:55.34	331.30	16.28	-47.0	-51.0	8.8	3.68e-02	0	38	0	3476029440	64	6077
2026-01-20 12:24:56.34	331.35	16.17	-47.0	-50.9	8.8	3.57e-02	0	38	0	3482320896	64	6044
2026-01-20 12:24:57.35	331.41	16.06	-47.0	-51.0	8.7	3.52e-02	0	38	0	3487563776	64	6094
2026-01-20 12:24:58.35	331.46	15.96	-46.9	-50.9	8.8	3.55e-02	0	38	0	3492806656	64	6032
2026-01-20 12:24:59.36	331.51	15.85	-47.0	-51.0	8.8	3.60e-02	0	38	0	3499098112	64	6069
