passes_logs/2026/01/20/R3.2S_Murmansk/R3.2S_Murmansk__20260120_045752_NOAA_20_JPSS-1_rec.log

#Pass ID: 20260120_045752_NOAA 20 (JPSS-1)
#Satellite: NOAA 20 (JPSS-1)
#Configuration: NOAA 20
#almurnet v.1.7.20251203
#Start time: 2026-01-20 04:57:52

#Version: 2.2.20231116
#Station: R3.2S_Murmansk
#Location: 33.079688 lon 68.888172 lat
#TLE: 1 43013U 17073A   26019.27717929  .00000087  00000+0  62288-4 0  9995
#TLE: 2 43013  98.7641 320.1715 0001339  33.1986 326.9274 14.19537047423343

#Time	Az	El	Level	Level2	SNR	BER	BlckErr	Temp	State	Recorded	gain1	gain2
2026-01-20 04:57:52.98	59.18	2.04	-51.9	-66.8	3.8	1.49e+00	0	37	0	0	75	20011
2026-01-20 04:57:53.99	59.12	2.10	-51.9	-66.8	3.8	1.49e+00	0	37	104	0	74	21163
2026-01-20 04:57:55.00	59.05	2.15	-51.9	-66.8	3.8	1.49e+00	0	37	104	0	74	21117
2026-01-20 04:57:56.01	58.99	2.21	-51.9	-66.8	3.8	1.49e+00	0	37	104	0	74	21140
2026-01-20 04:57:57.01	58.92	2.27	-51.9	-66.8	3.8	1.49e+00	0	37	104	0	74	21180
2026-01-20 04:57:58.03	58.86	2.33	-51.9	-66.8	3.8	1.49e+00	0	37	104	0	74	21178
2026-01-20 04:57:59.03	58.79	2.38	-51.9	-66.8	3.8	1.49e+00	0	37	104	0	74	21162
2026-01-20 04:58:00.04	58.73	2.44	-51.9	-66.8	3.8	1.49e+00	0	37	104	0	74	21147
2026-01-20 04:58:01.05	58.66	2.50	-51.9	-66.8	3.8	1.49e+00	0	37	104	0	74	21201
2026-01-20 04:58:02.06	58.59	2.56	-51.9	-66.8	3.8	1.49e+00	0	37	104	0	74	21206
2026-01-20 04:58:03.07	58.53	2.62	-51.9	-66.8	3.8	1.49e+00	0	37	104	0	74	21136
2026-01-20 04:58:04.07	58.46	2.67	-51.9	-66.8	3.8	1.49e+00	0	37	104	0	74	21139
2026-01-20 04:58:05.08	58.39	2.73	-51.9	-66.8	3.8	1.49e+00	0	37	104	0	74	21197
2026-01-20 04:58:06.09	58.32	2.79	-51.9	-66.8	3.8	1.49e+00	0	37	104	0	74	21153
2026-01-20 04:58:07.10	58.26	2.85	-51.9	-66.8	3.8	1.49e+00	0	37	104	0	74	21112
2026-01-20 04:58:08.11	58.19	2.91	-51.9	-66.8	3.8	1.49e+00	0	37	104	0	74	21158
2026-01-20 04:58:09.11	58.12	2.96	-51.9	-66.8	3.8	1.49e+00	0	37	104	0	74	21127
2026-01-20 04:58:10.12	58.05	3.02	-51.9	-66.8	3.8	1.49e+00	0	37	104	0	74	21085
2026-01-20 04:58:11.13	57.98	3.08	-51.9	-66.8	3.8	1.49e+00	0	37	104	0	74	21085
2026-01-20 04:58:12.14	57.91	3.14	-51.9	-66.8	3.8	1.49e+00	0	37	104	0	74	21172
2026-01-20 04:58:13.15	57.84	3.20	-51.9	-66.8	3.8	1.49e+00	0	37	104	0	74	21158
2026-01-20 04:58:14.16	57.77	3.26	-51.9	-66.8	3.8	1.49e+00	0	37	104	0	74	21196
2026-01-20 04:58:15.17	57.70	3.32	-51.9	-66.8	3.8	1.49e+00	0	37	104	0	74	21144
2026-01-20 04:58:16.17	57.63	3.37	-51.9	-66.8	3.8	1.49e+00	0	37	104	0	74	21130
2026-01-20 04:58:17.18	57.56	3.43	-51.9	-66.7	3.8	1.49e+00	0	38	104	0	74	20996
2026-01-20 04:58:18.19	57.49	3.49	-51.9	-66.8	3.8	1.49e+00	0	37	104	0	74	21032
2026-01-20 04:58:19.20	57.42	3.55	-51.9	-66.7	3.8	1.49e+00	0	37	104	0	74	20966
2026-01-20 04:58:20.21	57.34	3.61	-51.9	-66.8	3.8	1.49e+00	0	38	104	0	74	21026
2026-01-20 04:58:21.21	57.27	3.67	-51.9	-66.8	3.8	1.49e+00	0	37	104	0	74	21103
2026-01-20 04:58:22.22	57.20	3.73	-51.9	-66.8	3.8	1.49e+00	0	37	104	0	74	21169
2026-01-20 04:58:23.23	57.13	3.79	-51.9	-66.8	3.8	1.49e+00	0	38	104	0	74	21160
2026-01-20 04:58:24.24	57.05	3.85	-51.9	-66.7	3.8	1.49e+00	0	37	104	0	74	20973
2026-01-20 04:58:25.25	56.98	3.91	-51.9	-66.6	3.8	1.49e+00	0	37	104	0	74	20609
2026-01-20 04:58:26.26	56.91	3.97	-51.9	-66.4	3.8	1.49e+00	0	38	104	0	74	20096
2026-01-20 04:58:27.26	56.83	4.03	-51.8	-66.0	3.8	1.49e+00	0	38	104	0	74	19179
2026-01-20 04:58:28.27	56.76	4.09	-51.8	-65.3	3.8	1.49e+00	0	37	104	0	74	17741
2026-01-20 04:58:29.28	56.68	4.15	-51.8	-65.0	3.8	1.49e+00	0	37	104	0	74	17104
2026-01-20 04:58:30.29	56.61	4.21	-51.8	-64.3	3.9	1.49e+00	0	37	104	0	74	15788
2026-01-20 04:58:31.29	56.53	4.27	-51.7	-63.8	4.1	1.46e+00	0	38	0	0	74	15032
2026-01-20 04:58:32.30	56.46	4.33	-51.7	-63.1	4.2	1.42e+00	0	38	0	0	74	13876
2026-01-20 04:58:33.31	56.38	4.39	-51.6	-62.4	4.5	1.29e+00	59	37	0	1048576	74	12705
2026-01-20 04:58:34.32	56.31	4.45	-51.6	-62.3	4.5	8.83e-01	3	37	0	2097152	74	12599
2026-01-20 04:58:35.33	56.23	4.51	-51.5	-61.1	5.1	9.75e-01	0	38	0	4194304	74	10922
2026-01-20 04:58:36.33	56.15	4.57	-51.5	-61.2	5.0	7.48e-01	0	38	0	6291456	74	11074
2026-01-20 04:58:37.34	56.08	4.63	-51.5	-61.0	5.1	6.61e-01	0	38	0	8388608	74	10875
2026-01-20 04:58:38.35	56.00	4.69	-51.5	-61.5	4.9	7.00e-01	0	38	0	10485760	74	11436
2026-01-20 04:58:39.36	55.92	4.75	-51.5	-61.1	5.1	6.23e-01	0	38	0	11534336	74	11006
2026-01-20 04:58:40.36	55.84	4.81	-51.5	-61.4	4.9	7.65e-01	0	38	0	13631488	74	11413
2026-01-20 04:58:41.37	55.76	4.88	-51.6	-61.9	4.7	8.55e-01	0	38	0	15728640	74	12091
2026-01-20 04:58:42.38	55.68	4.94	-51.6	-62.1	4.6	9.15e-01	0	38	0	17825792	74	12363
2026-01-20 04:58:43.39	55.61	5.00	-51.7	-62.9	4.3	1.34e+00	23	38	0	18874368	74	13559
2026-01-20 04:58:44.39	55.53	5.06	-51.6	-62.7	4.3	1.38e+00	12	38	0	18874368	74	13165
2026-01-20 04:58:45.40	55.45	5.12	-51.6	-61.2	5.1	6.78e-01	0	38	0	20971520	74	11060
2026-01-20 04:58:46.41	55.37	5.18	-51.7	-62.4	4.6	6.53e-01	0	38	0	23068672	74	12780
2026-01-20 04:58:47.42	55.28	5.24	-51.7	-63.5	3.9	1.49e+00	0	38	104	23068672	74	14518
2026-01-20 04:58:48.43	55.20	5.31	-51.4	-59.7	6.4	1.55e-02	0	38	0	23068672	73	9849
2026-01-20 04:58:49.43	55.12	5.37	-51.7	-63.4	3.9	1.48e+00	0	38	104	24117248	74	14329
2026-01-20 04:58:50.44	55.04	5.43	-50.5	-55.6	10.1	9.65e-03	0	38	0	24117248	73	6200
2026-01-20 04:58:51.45	54.96	5.49	-49.8	-53.7	12.4	6.64e-04	0	38	0	26214400	71	5534
2026-01-20 04:58:52.46	54.88	5.55	-49.1	-52.2	13.9	2.36e-05	0	38	0	28311552	70	4965
2026-01-20 04:58:53.47	54.79	5.62	-49.4	-52.8	13.3	1.22e-05	0	38	0	30408704	70	5340
2026-01-20 04:58:54.47	54.71	5.68	-49.3	-52.7	13.5	1.83e-05	0	38	0	32505856	70	5229
2026-01-20 04:58:55.48	54.63	5.74	-49.1	-52.3	13.9	3.80e-06	0	38	0	34603008	70	5004
2026-01-20 04:58:56.49	54.54	5.80	-49.0	-52.1	14.1	4.50e-06	0	38	0	35651584	70	4898
2026-01-20 04:58:57.49	54.46	5.86	-49.1	-52.3	14.0	3.80e-06	0	38	0	37748736	70	4986
2026-01-20 04:58:58.50	54.37	5.93	-49.2	-52.4	13.9	3.80e-06	0	38	0	39845888	70	5044
2026-01-20 04:58:59.51	54.29	5.99	-49.2	-52.5	13.8	3.80e-06	0	38	0	41943040	70	5124
2026-01-20 04:59:00.52	54.20	6.05	-49.1	-52.2	14.0	7.00e-07	0	38	0	44040192	70	4982
2026-01-20 04:59:01.53	54.12	6.12	-49.1	-52.3	14.0	1.50e-06	0	38	0	45088768	70	5003
2026-01-20 04:59:02.54	54.03	6.18	-48.9	-51.8	14.4	1.50e-06	0	38	0	47185920	69	5036
2026-01-20 04:59:03.54	53.94	6.24	-48.9	-51.9	14.4	7.00e-07	0	38	0	49283072	69	5093
2026-01-20 04:59:04.55	53.86	6.31	-49.0	-52.1	14.2	7.00e-07	0	38	0	51380224	69	5160
2026-01-20 04:59:05.56	53.77	6.37	-49.0	-52.1	14.2	0.00e+00	0	38	0	52428800	69	5194
2026-01-20 04:59:06.57	53.68	6.43	-49.0	-52.1	14.3	0.00e+00	0	38	0	54525952	69	5167
2026-01-20 04:59:07.57	53.59	6.49	-49.0	-52.0	14.4	1.50e-06	0	38	0	56623104	69	5101
2026-01-20 04:59:08.58	53.51	6.56	-49.0	-52.0	14.3	1.50e-06	0	38	0	58720256	69	5122
2026-01-20 04:59:09.59	53.42	6.62	-49.0	-52.0	14.3	0.00e+00	0	38	0	60817408	69	5145
2026-01-20 04:59:10.60	53.33	6.69	-49.1	-52.2	14.2	1.50e-06	0	38	0	62914560	69	5222
2026-01-20 04:59:11.61	53.24	6.75	-49.0	-52.0	14.4	7.00e-07	0	38	0	63963136	69	5117
2026-01-20 04:59:12.61	53.15	6.81	-49.0	-51.9	14.4	0.00e+00	0	38	0	66060288	69	5083
2026-01-20 04:59:13.62	53.06	6.88	-49.1	-52.2	14.2	1.50e-06	0	38	0	68157440	69	5251
2026-01-20 04:59:14.63	52.97	6.94	-48.9	-51.8	14.5	2.20e-06	0	38	0	70254592	69	5037
2026-01-20 04:59:15.64	52.87	7.01	-49.1	-52.2	14.2	7.00e-07	0	38	0	72351744	69	5229
2026-01-20 04:59:16.65	52.78	7.07	-49.0	-52.0	14.5	7.00e-07	0	38	0	73400320	69	5110
2026-01-20 04:59:17.65	52.69	7.13	-49.0	-52.0	14.5	0.00e+00	0	38	0	75497472	69	5110
2026-01-20 04:59:18.66	52.60	7.20	-49.2	-52.2	14.2	2.20e-06	0	38	0	77594624	69	5259
2026-01-20 04:59:19.67	52.50	7.26	-49.1	-52.1	14.4	0.00e+00	0	38	0	79691776	69	5172
2026-01-20 04:59:20.68	52.41	7.33	-49.2	-52.2	14.2	2.20e-06	0	38	0	80740352	69	5272
2026-01-20 04:59:21.69	52.32	7.39	-49.0	-51.9	14.6	7.00e-07	0	38	0	82837504	69	5066
2026-01-20 04:59:22.69	52.22	7.46	-49.0	-51.9	14.5	0.00e+00	0	38	0	84934656	69	5090
2026-01-20 04:59:23.70	52.13	7.52	-49.0	-51.9	14.6	7.00e-07	0	38	0	87031808	69	5055
2026-01-20 04:59:24.71	52.03	7.59	-49.0	-52.0	14.5	1.50e-06	0	38	0	89128960	69	5116
2026-01-20 04:59:25.72	51.94	7.65	-49.0	-51.9	14.5	0.00e+00	0	38	0	91226112	69	5094
2026-01-20 04:59:26.73	51.84	7.72	-49.0	-51.8	14.7	0.00e+00	0	38	0	92274688	69	5026
2026-01-20 04:59:27.74	51.74	7.78	-49.0	-51.9	14.6	0.00e+00	0	38	0	94371840	69	5066
2026-01-20 04:59:28.74	51.65	7.85	-48.8	-51.6	14.9	0.00e+00	0	38	0	96468992	69	4910
2026-01-20 04:59:29.75	51.55	7.91	-48.9	-51.7	14.8	0.00e+00	0	38	0	98566144	69	4966
2026-01-20 04:59:30.76	51.45	7.98	-48.9	-51.6	14.9	0.00e+00	0	38	0	100663296	69	4917
2026-01-20 04:59:31.77	51.35	8.04	-48.8	-51.6	15.0	0.00e+00	0	38	0	101711872	69	4874
2026-01-20 04:59:32.77	51.25	8.11	-48.8	-51.5	15.1	0.00e+00	0	38	0	103809024	69	4838
2026-01-20 04:59:33.78	51.15	8.17	-48.7	-51.4	15.2	0.00e+00	0	38	0	105906176	69	4774
2026-01-20 04:59:34.79	51.05	8.24	-48.6	-51.2	15.4	0.00e+00	0	38	0	108003328	69	4680
2026-01-20 04:59:35.80	50.95	8.31	-48.6	-51.2	15.4	0.00e+00	0	38	0	110100480	69	4696
2026-01-20 04:59:36.81	50.85	8.37	-48.7	-51.3	15.3	0.00e+00	0	38	0	111149056	69	4715
2026-01-20 04:59:37.82	50.75	8.44	-48.6	-51.2	15.4	0.00e+00	0	38	0	113246208	69	4679
2026-01-20 04:59:38.82	50.65	8.50	-48.6	-51.2	15.4	0.00e+00	0	38	0	115343360	69	4685
2026-01-20 04:59:39.83	50.55	8.57	-48.6	-51.1	15.5	0.00e+00	0	38	0	117440512	69	4648
2026-01-20 04:59:40.84	50.44	8.64	-48.6	-51.1	15.5	0.00e+00	0	38	0	119537664	69	4608
2026-01-20 04:59:41.85	50.34	8.70	-48.6	-51.2	15.4	0.00e+00	0	38	0	120586240	69	4686
2026-01-20 04:59:42.85	50.24	8.77	-48.5	-51.0	15.6	0.00e+00	0	38	0	122683392	69	4589
2026-01-20 04:59:43.86	50.13	8.84	-48.6	-51.1	15.6	0.00e+00	0	38	0	124780544	69	4614
2026-01-20 04:59:44.87	50.03	8.90	-48.7	-51.3	15.4	0.00e+00	0	38	0	126877696	69	4709
2026-01-20 04:59:45.87	49.92	8.97	-48.6	-51.1	15.6	0.00e+00	0	38	0	128974848	69	4633
2026-01-20 04:59:46.88	49.82	9.04	-48.5	-51.0	15.6	0.00e+00	0	38	0	130023424	69	4591
2026-01-20 04:59:47.89	49.71	9.10	-48.5	-51.1	15.6	0.00e+00	0	38	0	132120576	68	4873
2026-01-20 04:59:48.90	49.61	9.17	-48.6	-51.1	15.6	0.00e+00	0	38	0	134217728	68	4900
2026-01-20 04:59:49.91	49.50	9.24	-48.6	-51.1	15.6	0.00e+00	0	38	0	136314880	68	4901
2026-01-20 04:59:50.92	49.39	9.30	-48.6	-51.2	15.5	0.00e+00	0	38	0	138412032	68	4927
2026-01-20 04:59:51.93	49.28	9.37	-48.7	-51.3	15.4	0.00e+00	0	38	0	139460608	68	4992
2026-01-20 04:59:52.93	49.17	9.44	-48.8	-51.4	15.3	0.00e+00	0	38	0	141557760	68	5085
2026-01-20 04:59:53.94	49.06	9.51	-48.8	-51.4	15.3	0.00e+00	0	38	0	143654912	68	5057
2026-01-20 04:59:54.95	48.95	9.57	-48.7	-51.3	15.4	0.00e+00	0	38	0	145752064	68	5002
2026-01-20 04:59:55.96	48.84	9.64	-48.8	-51.4	15.3	0.00e+00	0	38	0	147849216	68	5057
2026-01-20 04:59:56.97	48.73	9.71	-48.7	-51.3	15.4	0.00e+00	0	38	0	148897792	68	4985
2026-01-20 04:59:57.97	48.62	9.78	-48.8	-51.5	15.2	0.00e+00	0	38	0	150994944	68	5125
2026-01-20 04:59:58.98	48.51	9.84	-48.9	-51.6	15.1	0.00e+00	0	38	0	153092096	68	5180
2026-01-20 04:59:59.99	48.40	9.91	-49.0	-51.7	15.0	0.00e+00	0	38	0	155189248	68	5243
2026-01-20 05:00:01.00	48.29	9.98	-48.9	-51.6	15.1	0.00e+00	0	38	0	157286400	68	5165
2026-01-20 05:00:02.01	48.17	10.05	-48.9	-51.6	15.1	0.00e+00	0	38	0	159383552	68	5189
2026-01-20 05:00:03.01	48.06	10.12	-48.9	-51.6	15.1	0.00e+00	0	38	0	160432128	68	5205
2026-01-20 05:00:04.02	47.94	10.18	-48.8	-51.4	15.3	0.00e+00	0	38	0	162529280	68	5095
2026-01-20 05:00:05.03	47.83	10.25	-48.8	-51.5	15.3	0.00e+00	0	38	0	164626432	68	5117
2026-01-20 05:00:06.03	47.71	10.32	-48.9	-51.6	15.2	0.00e+00	0	38	0	166723584	68	5168
2026-01-20 05:00:07.04	47.60	10.39	-48.8	-51.4	15.4	0.00e+00	0	38	0	167772160	68	5042
2026-01-20 05:00:08.05	47.48	10.46	-48.7	-51.3	15.5	0.00e+00	0	38	0	169869312	68	4986
2026-01-20 05:00:09.06	47.36	10.53	-48.6	-51.1	15.6	0.00e+00	0	38	0	171966464	68	4926
2026-01-20 05:00:10.07	47.24	10.60	-48.7	-51.3	15.5	0.00e+00	0	38	0	174063616	68	5011
2026-01-20 05:00:11.08	47.13	10.66	-48.7	-51.2	15.6	0.00e+00	0	38	0	176160768	68	4961
2026-01-20 05:00:12.09	47.01	10.73	-48.6	-51.1	15.7	0.00e+00	0	38	0	178257920	68	4885
2026-01-20 05:00:13.09	46.89	10.80	-48.6	-51.0	15.7	0.00e+00	0	38	0	179306496	68	4858
2026-01-20 05:00:14.10	46.77	10.87	-48.6	-51.1	15.7	0.00e+00	0	38	0	181403648	68	4881
2026-01-20 05:00:15.11	46.65	10.94	-48.4	-50.8	16.0	0.00e+00	0	38	0	183500800	68	4715
2026-01-20 05:00:16.12	46.53	11.01	-48.4	-50.8	16.0	0.00e+00	0	38	0	185597952	68	4751
2026-01-20 05:00:17.13	46.40	11.08	-48.5	-50.8	15.9	0.00e+00	0	38	0	187695104	68	4757
2026-01-20 05:00:18.13	46.28	11.15	-48.5	-50.9	15.9	0.00e+00	0	38	0	188743680	68	4786
2026-01-20 05:00:19.14	46.16	11.22	-48.5	-51.0	15.8	0.00e+00	0	38	0	190840832	68	4828
2026-01-20 05:00:20.15	46.03	11.28	-48.5	-50.9	15.9	0.00e+00	0	38	0	192937984	68	4797
2026-01-20 05:00:21.16	45.91	11.35	-48.3	-50.5	16.3	0.00e+00	0	38	0	195035136	68	4593
2026-01-20 05:00:22.16	45.79	11.42	-48.1	-50.4	16.4	0.00e+00	0	38	0	196083712	68	4499
2026-01-20 05:00:23.17	45.66	11.49	-48.2	-50.5	16.4	0.00e+00	0	38	0	198180864	68	4546
2026-01-20 05:00:24.18	45.53	11.56	-48.2	-50.5	16.3	0.00e+00	0	38	0	200278016	68	4551
2026-01-20 05:00:25.19	45.41	11.63	-48.2	-50.4	16.4	0.00e+00	0	38	0	202375168	68	4505
2026-01-20 05:00:26.19	45.28	11.70	-48.1	-50.3	16.5	0.00e+00	0	38	0	204472320	68	4474
2026-01-20 05:00:27.20	45.15	11.77	-48.2	-50.4	16.4	0.00e+00	0	38	0	206569472	68	4540
2026-01-20 05:00:28.21	45.02	11.84	-48.2	-50.5	16.4	0.00e+00	0	38	0	207618048	68	4568
2026-01-20 05:00:29.22	44.89	11.91	-48.2	-50.5	16.4	0.00e+00	0	38	0	209715200	68	4547
2026-01-20 05:00:30.23	44.76	11.98	-48.2	-50.4	16.5	0.00e+00	0	38	0	211812352	68	4515
2026-01-20 05:00:31.23	44.63	12.05	-48.2	-50.4	16.4	0.00e+00	0	38	0	213909504	68	4539
2026-01-20 05:00:32.24	44.50	12.12	-48.1	-50.3	16.6	0.00e+00	0	38	0	216006656	68	4459
2026-01-20 05:00:33.25	44.37	12.19	-48.1	-50.3	16.6	0.00e+00	0	38	0	217055232	68	4469
2026-01-20 05:00:34.26	44.24	12.26	-48.1	-50.3	16.5	0.00e+00	0	38	0	219152384	68	4491
2026-01-20 05:00:35.27	44.11	12.33	-48.2	-50.4	16.5	0.00e+00	0	38	0	221249536	68	4494
2026-01-20 05:00:36.28	43.97	12.40	-48.1	-50.2	16.7	0.00e+00	0	38	0	223346688	68	4436
2026-01-20 05:00:37.28	43.84	12.47	-48.1	-50.3	16.7	0.00e+00	0	38	0	225443840	68	4450
2026-01-20 05:00:38.29	43.70	12.54	-48.0	-50.1	16.8	0.00e+00	0	38	0	226492416	68	4363
2026-01-20 05:00:39.30	43.57	12.61	-48.0	-50.1	16.8	0.00e+00	0	38	0	228589568	68	4384
2026-01-20 05:00:40.31	43.43	12.68	-48.0	-50.1	16.8	0.00e+00	0	38	0	230686720	68	4391
2026-01-20 05:00:41.31	43.29	12.75	-48.0	-50.1	16.8	0.00e+00	0	38	0	232783872	68	4377
2026-01-20 05:00:42.32	43.16	12.82	-47.8	-49.8	17.0	0.00e+00	0	38	0	234881024	67	4485
2026-01-20 05:00:43.33	43.02	12.89	-47.7	-49.7	17.1	0.00e+00	0	38	0	235929600	67	4429
2026-01-20 05:00:44.33	42.88	12.96	-47.7	-49.7	17.2	0.00e+00	0	38	0	238026752	67	4404
2026-01-20 05:00:45.34	42.74	13.03	-47.6	-49.5	17.3	0.00e+00	0	38	0	240123904	67	4330
2026-01-20 05:00:46.35	42.60	13.10	-47.6	-49.5	17.3	0.00e+00	0	38	0	242221056	67	4337
2026-01-20 05:00:47.36	42.46	13.17	-47.5	-49.4	17.4	0.00e+00	0	38	0	244318208	67	4286
2026-01-20 05:00:48.36	42.32	13.24	-47.4	-49.3	17.5	0.00e+00	0	38	0	245366784	66	4468
2026-01-20 05:00:49.37	42.17	13.32	-47.5	-49.4	17.5	0.00e+00	0	38	0	247463936	66	4518
2026-01-20 05:00:50.38	42.03	13.39	-47.5	-49.4	17.5	0.00e+00	0	38	0	249561088	66	4520
2026-01-20 05:00:51.39	41.89	13.46	-47.5	-49.4	17.5	0.00e+00	0	38	0	251658240	66	4519
2026-01-20 05:00:52.40	41.74	13.53	-47.5	-49.4	17.5	0.00e+00	0	38	0	253755392	66	4513
2026-01-20 05:00:53.41	41.60	13.60	-47.6	-49.5	17.3	0.00e+00	0	38	0	254803968	66	4586
2026-01-20 05:00:54.41	41.45	13.67	-47.5	-49.4	17.4	0.00e+00	0	38	0	256901120	66	4539
2026-01-20 05:00:55.42	41.30	13.74	-47.4	-49.3	17.6	0.00e+00	0	38	0	258998272	66	4472
2026-01-20 05:00:56.43	41.16	13.81	-47.5	-49.5	17.4	0.00e+00	0	38	0	261095424	66	4552
2026-01-20 05:00:57.44	41.01	13.88	-47.7	-49.7	17.2	0.00e+00	0	38	0	263192576	66	4681
2026-01-20 05:00:58.45	40.86	13.95	-47.8	-49.8	17.1	0.00e+00	0	38	0	264241152	66	4722
2026-01-20 05:00:59.45	40.71	14.02	-47.8	-49.8	17.1	0.00e+00	0	38	0	266338304	66	4719
2026-01-20 05:01:00.46	40.56	14.09	-47.8	-49.8	17.1	0.00e+00	0	38	0	268435456	66	4714
2026-01-20 05:01:01.47	40.41	14.16	-47.7	-49.7	17.2	0.00e+00	0	38	0	270532608	66	4691
2026-01-20 05:01:02.48	40.26	14.24	-47.7	-49.7	17.2	0.00e+00	0	38	0	272629760	66	4693
2026-01-20 05:01:03.49	40.10	14.31	-47.7	-49.7	17.2	0.00e+00	0	38	0	273678336	66	4669
2026-01-20 05:01:04.49	39.95	14.38	-47.8	-49.9	17.0	0.00e+00	0	38	0	275775488	66	4791
2026-01-20 05:01:05.50	39.80	14.45	-47.8	-49.8	17.1	0.00e+00	0	38	0	277872640	66	4730
2026-01-20 05:01:06.51	39.64	14.52	-47.8	-49.8	17.1	0.00e+00	0	38	0	279969792	66	4755
2026-01-20 05:01:07.52	39.49	14.59	-47.8	-49.9	17.0	0.00e+00	0	38	0	282066944	66	4787
2026-01-20 05:01:08.52	39.33	14.66	-47.8	-49.9	17.0	0.00e+00	0	38	0	283115520	66	4771
2026-01-20 05:01:09.53	39.18	14.73	-47.8	-49.9	17.1	0.00e+00	0	38	0	285212672	66	4771
2026-01-20 05:01:10.54	39.02	14.80	-47.9	-50.0	16.9	0.00e+00	0	38	0	287309824	66	4851
2026-01-20 05:01:11.55	38.86	14.87	-47.9	-50.0	16.9	0.00e+00	0	38	0	289406976	66	4838
2026-01-20 05:01:12.55	38.70	14.94	-48.0	-50.1	16.8	0.00e+00	0	38	0	291504128	66	4915
2026-01-20 05:01:13.56	38.54	15.01	-48.0	-50.2	16.8	0.00e+00	0	38	0	292552704	66	4947
2026-01-20 05:01:14.57	38.38	15.08	-48.0	-50.2	16.8	0.00e+00	0	38	0	294649856	66	4930
2026-01-20 05:01:15.58	38.22	15.16	-48.1	-50.3	16.7	0.00e+00	0	38	0	296747008	66	4999
2026-01-20 05:01:16.59	38.05	15.23	-48.2	-50.4	16.6	0.00e+00	0	38	0	298844160	66	5043
2026-01-20 05:01:17.59	37.89	15.30	-48.2	-50.5	16.5	0.00e+00	0	38	0	300941312	66	5102
2026-01-20 05:01:18.60	37.73	15.37	-48.2	-50.4	16.5	0.00e+00	0	38	0	301989888	67	4780
2026-01-20 05:01:19.61	37.56	15.44	-48.2	-50.4	16.5	0.00e+00	0	38	0	304087040	67	4791
2026-01-20 05:01:20.62	37.40	15.51	-48.2	-50.3	16.6	0.00e+00	0	38	0	306184192	67	4749
2026-01-20 05:01:21.63	37.23	15.58	-48.2	-50.3	16.6	0.00e+00	0	38	0	308281344	67	4741
2026-01-20 05:01:22.63	37.07	15.65	-48.1	-50.3	16.7	0.00e+00	0	38	0	310378496	67	4715
2026-01-20 05:01:23.64	36.90	15.72	-48.1	-50.3	16.7	0.00e+00	0	38	0	311427072	67	4728
2026-01-20 05:01:24.65	36.73	15.79	-48.2	-50.3	16.7	0.00e+00	0	38	0	313524224	67	4744
2026-01-20 05:01:25.65	36.56	15.86	-48.1	-50.2	16.8	0.00e+00	0	38	0	315621376	67	4661
2026-01-20 05:01:26.66	36.39	15.93	-48.0	-50.1	16.8	0.00e+00	0	38	0	317718528	67	4643
2026-01-20 05:01:27.67	36.22	16.00	-48.1	-50.3	16.7	0.00e+00	0	38	0	319815680	67	4708
2026-01-20 05:01:28.68	36.05	16.07	-48.2	-50.3	16.7	0.00e+00	0	38	0	320864256	67	4747
2026-01-20 05:01:29.69	35.87	16.14	-48.2	-50.4	16.6	0.00e+00	0	38	0	322961408	67	4784
2026-01-20 05:01:30.69	35.70	16.21	-48.2	-50.4	16.6	0.00e+00	0	38	0	325058560	67	4793
2026-01-20 05:01:31.70	35.53	16.28	-48.3	-50.5	16.5	0.00e+00	0	38	0	327155712	67	4826
2026-01-20 05:01:32.71	35.35	16.35	-48.2	-50.4	16.6	0.00e+00	0	38	0	329252864	67	4806
2026-01-20 05:01:33.71	35.17	16.42	-48.2	-50.4	16.5	0.00e+00	0	38	0	330301440	67	4805
2026-01-20 05:01:34.72	35.00	16.49	-48.3	-50.5	16.5	0.00e+00	0	38	0	332398592	67	4844
2026-01-20 05:01:35.73	34.82	16.56	-48.3	-50.5	16.5	0.00e+00	0	38	0	334495744	67	4859
2026-01-20 05:01:36.74	34.64	16.63	-48.2	-50.4	16.6	0.00e+00	0	38	0	336592896	67	4769
2026-01-20 05:01:37.75	34.46	16.70	-48.2	-50.4	16.6	0.00e+00	0	38	0	338690048	67	4769
2026-01-20 05:01:38.76	34.28	16.77	-48.3	-50.5	16.5	0.00e+00	0	38	0	339738624	67	4839
2026-01-20 05:01:39.77	34.10	16.84	-48.3	-50.5	16.5	0.00e+00	0	38	0	341835776	67	4825
2026-01-20 05:01:40.77	33.92	16.91	-48.4	-50.6	16.4	0.00e+00	0	38	0	343932928	67	4901
2026-01-20 05:01:41.78	33.74	16.97	-48.2	-50.4	16.6	0.00e+00	0	38	0	346030080	67	4773
2026-01-20 05:01:42.79	33.55	17.04	-48.1	-50.2	16.8	0.00e+00	0	38	0	348127232	67	4685
2026-01-20 05:01:43.80	33.37	17.11	-48.1	-50.2	16.8	0.00e+00	0	38	0	350224384	67	4703
2026-01-20 05:01:44.81	33.18	17.18	-48.2	-50.4	16.7	0.00e+00	0	38	0	351272960	67	4777
2026-01-20 05:01:45.81	33.00	17.25	-48.1	-50.2	16.8	0.00e+00	0	38	0	353370112	67	4681
2026-01-20 05:01:46.82	32.81	17.32	-48.1	-50.2	16.9	0.00e+00	0	38	0	355467264	67	4655
2026-01-20 05:01:47.83	32.62	17.39	-48.0	-50.0	17.0	0.00e+00	0	38	0	357564416	67	4582
2026-01-20 05:01:48.84	32.43	17.45	-47.9	-49.9	17.1	0.00e+00	0	38	0	358612992	67	4527
2026-01-20 05:01:49.84	32.24	17.52	-47.8	-49.8	17.2	0.00e+00	0	38	0	360710144	67	4477
2026-01-20 05:01:50.85	32.05	17.59	-47.8	-49.7	17.4	0.00e+00	0	38	0	362807296	67	4412
2026-01-20 05:01:51.86	31.86	17.66	-47.7	-49.7	17.4	0.00e+00	0	38	0	364904448	67	4392
2026-01-20 05:01:52.87	31.67	17.73	-47.7	-49.6	17.4	0.00e+00	0	38	0	367001600	67	4384
2026-01-20 05:01:53.88	31.47	17.79	-47.7	-49.6	17.5	0.00e+00	0	38	0	368050176	67	4370
2026-01-20 05:01:54.88	31.28	17.86	-47.4	-49.2	17.8	0.00e+00	0	38	0	370147328	66	4439
2026-01-20 05:01:55.89	31.09	17.93	-47.3	-49.1	18.0	0.00e+00	0	38	0	372244480	66	4372
2026-01-20 05:01:56.90	30.89	17.99	-47.3	-49.1	17.8	0.00e+00	0	38	0	374341632	66	4380
2026-01-20 05:01:57.91	30.69	18.06	-47.1	-48.8	18.2	0.00e+00	0	38	0	376438784	66	4218
2026-01-20 05:01:58.91	30.50	18.13	-47.0	-48.7	18.4	0.00e+00	0	38	0	378535936	66	4162
2026-01-20 05:01:59.92	30.30	18.19	-47.0	-48.7	18.4	0.00e+00	0	38	0	379584512	65	4410
2026-01-20 05:02:00.93	30.10	18.26	-46.7	-48.4	18.7	0.00e+00	0	38	0	381681664	65	4247
2026-01-20 05:02:01.94	29.90	18.33	-46.7	-48.3	18.8	0.00e+00	0	38	0	383778816	65	4209
2026-01-20 05:02:02.95	29.70	18.39	-46.7	-48.3	18.8	0.00e+00	0	38	0	385875968	65	4218
2026-01-20 05:02:03.96	29.49	18.46	-46.6	-48.2	18.9	0.00e+00	0	38	0	386924544	65	4156
2026-01-20 05:02:04.96	29.29	18.52	-46.6	-48.1	18.9	0.00e+00	0	38	0	389021696	65	4137
2026-01-20 05:02:05.97	29.09	18.59	-46.4	-48.0	19.1	0.00e+00	0	38	0	391118848	64	4311
2026-01-20 05:02:06.98	28.88	18.65	-46.5	-48.0	19.0	0.00e+00	0	38	0	393216000	64	4335
2026-01-20 05:02:07.99	28.68	18.72	-46.5	-48.1	19.0	0.00e+00	0	38	0	395313152	64	4367
2026-01-20 05:02:08.99	28.47	18.78	-46.4	-47.9	19.2	0.00e+00	0	38	0	397410304	64	4266
2026-01-20 05:02:10.00	28.27	18.85	-46.3	-47.8	19.2	0.00e+00	0	38	0	398458880	64	4218
2026-01-20 05:02:11.01	28.06	18.91	-46.4	-47.9	19.1	0.00e+00	0	38	0	400556032	64	4267
2026-01-20 05:02:12.02	27.85	18.98	-46.3	-47.7	19.3	0.00e+00	0	38	0	402653184	64	4190
2026-01-20 05:02:13.03	27.64	19.04	-46.1	-47.6	19.4	0.00e+00	0	38	0	404750336	64	4129
2026-01-20 05:02:14.04	27.43	19.10	-46.1	-47.5	19.6	0.00e+00	0	38	0	406847488	64	4076
2026-01-20 05:02:15.04	27.22	19.17	-46.1	-47.6	19.5	0.00e+00	0	38	0	407896064	64	4107
2026-01-20 05:02:16.05	27.00	19.23	-46.0	-47.5	19.6	0.00e+00	0	38	0	409993216	64	4059
2026-01-20 05:02:17.06	26.79	19.29	-46.2	-47.6	19.6	0.00e+00	0	38	0	412090368	63	4364
2026-01-20 05:02:18.07	26.57	19.35	-46.2	-47.6	19.5	0.00e+00	0	38	0	414187520	63	4385
2026-01-20 05:02:19.07	26.36	19.42	-46.1	-47.6	19.6	0.00e+00	0	38	0	415236096	63	4354
2026-01-20 05:02:20.08	26.14	19.48	-46.2	-47.7	19.5	0.00e+00	0	38	0	417333248	63	4423
2026-01-20 05:02:21.09	25.93	19.54	-46.0	-47.4	19.7	0.00e+00	0	38	0	419430400	63	4279
2026-01-20 05:02:22.10	25.71	19.60	-45.9	-47.3	19.9	0.00e+00	0	38	0	421527552	63	4195
2026-01-20 05:02:23.11	25.49	19.66	-45.8	-47.2	19.9	0.00e+00	0	38	0	423624704	63	4184
2026-01-20 05:02:24.11	25.27	19.72	-45.9	-47.3	19.9	0.00e+00	0	38	0	425721856	63	4205
2026-01-20 05:02:25.12	25.05	19.78	-45.9	-47.3	19.8	0.00e+00	0	38	0	426770432	63	4225
2026-01-20 05:02:26.13	24.83	19.84	-46.0	-47.4	19.7	0.00e+00	0	38	0	428867584	63	4281
2026-01-20 05:02:27.14	24.61	19.90	-45.9	-47.3	19.9	0.00e+00	0	38	0	430964736	63	4205
2026-01-20 05:02:28.15	24.38	19.96	-46.0	-47.4	19.8	0.00e+00	0	38	0	433061888	63	4247
2026-01-20 05:02:29.16	24.16	20.02	-46.0	-47.4	19.8	0.00e+00	0	38	0	435159040	63	4271
2026-01-20 05:02:30.16	23.94	20.08	-45.9	-47.3	19.8	0.00e+00	0	38	0	436207616	63	4229
2026-01-20 05:02:31.17	23.71	20.14	-46.0	-47.4	19.8	0.00e+00	0	38	0	438304768	63	4244
2026-01-20 05:02:32.18	23.48	20.20	-46.1	-47.5	19.6	0.00e+00	0	38	0	440401920	63	4332
2026-01-20 05:02:33.19	23.25	20.26	-46.2	-47.6	19.5	0.00e+00	0	38	0	442499072	63	4385
2026-01-20 05:02:34.20	23.02	20.32	-46.1	-47.6	19.6	0.00e+00	0	38	0	444596224	63	4353
2026-01-20 05:02:35.21	22.80	20.37	-46.0	-47.4	19.8	0.00e+00	0	38	0	445644800	63	4249
2026-01-20 05:02:36.21	22.57	20.43	-46.1	-47.5	19.6	0.00e+00	0	38	0	447741952	63	4337
2026-01-20 05:02:37.22	22.34	20.49	-46.2	-47.6	19.6	0.00e+00	0	38	0	449839104	63	4369
2026-01-20 05:02:38.23	22.10	20.54	-46.2	-47.7	19.5	0.00e+00	0	38	0	451936256	63	4408
2026-01-20 05:02:39.24	21.87	20.60	-46.2	-47.6	19.6	0.00e+00	0	38	0	454033408	63	4367
2026-01-20 05:02:40.25	21.64	20.65	-46.1	-47.6	19.6	0.00e+00	0	38	0	455081984	63	4346
2026-01-20 05:02:41.25	21.40	20.71	-46.1	-47.5	19.7	0.00e+00	0	38	0	457179136	63	4325
2026-01-20 05:02:42.26	21.17	20.76	-46.0	-47.4	19.7	0.00e+00	0	38	0	459276288	63	4289
2026-01-20 05:02:43.27	20.93	20.82	-46.1	-47.5	19.7	0.00e+00	0	38	0	461373440	63	4339
2026-01-20 05:02:44.28	20.69	20.87	-46.1	-47.5	19.7	0.00e+00	0	38	0	463470592	63	4333
2026-01-20 05:02:45.29	20.46	20.92	-46.1	-47.5	19.7	0.00e+00	0	38	0	465567744	63	4304
2026-01-20 05:02:46.29	20.22	20.98	-46.0	-47.4	19.8	0.00e+00	0	38	0	466616320	63	4259
2026-01-20 05:02:47.30	19.98	21.03	-45.9	-47.2	19.9	0.00e+00	0	38	0	468713472	63	4187
2026-01-20 05:02:48.31	19.74	21.08	-45.9	-47.3	19.9	0.00e+00	0	38	0	470810624	63	4238
2026-01-20 05:02:49.32	19.50	21.13	-45.9	-47.3	19.9	0.00e+00	0	38	0	472907776	63	4207
2026-01-20 05:02:50.33	19.25	21.18	-45.9	-47.3	19.9	0.00e+00	0	38	0	473956352	63	4211
2026-01-20 05:02:51.34	19.01	21.24	-45.7	-47.1	20.1	0.00e+00	0	38	0	476053504	63	4111
2026-01-20 05:02:52.34	18.77	21.29	-45.7	-47.0	20.2	0.00e+00	0	38	0	478150656	63	4086
2026-01-20 05:02:53.35	18.53	21.34	-45.6	-46.9	20.3	0.00e+00	0	38	0	480247808	63	4023
2026-01-20 05:02:54.36	18.28	21.39	-45.4	-46.6	20.5	0.00e+00	0	38	0	482344960	62	4143
2026-01-20 05:02:55.37	18.03	21.43	-45.6	-46.9	20.3	0.00e+00	0	38	0	483393536	62	4259
2026-01-20 05:02:56.37	17.79	21.48	-45.6	-46.9	20.3	0.00e+00	0	38	0	485490688	62	4264
2026-01-20 05:02:57.38	17.54	21.53	-45.7	-47.0	20.2	0.00e+00	0	38	0	487587840	62	4319
2026-01-20 05:02:58.39	17.29	21.58	-45.6	-46.9	20.3	0.00e+00	0	38	0	489684992	62	4288
2026-01-20 05:02:59.40	17.04	21.63	-45.5	-46.8	20.4	0.00e+00	0	38	0	491782144	62	4232
2026-01-20 05:03:00.41	16.79	21.67	-45.4	-46.7	20.4	0.00e+00	0	38	0	493879296	62	4185
2026-01-20 05:03:01.41	16.54	21.72	-45.4	-46.7	20.5	0.00e+00	0	38	0	494927872	62	4149
2026-01-20 05:03:02.42	16.29	21.76	-45.4	-46.7	20.5	0.00e+00	0	38	0	497025024	62	4163
2026-01-20 05:03:03.43	16.04	21.81	-45.6	-46.9	20.3	0.00e+00	0	38	0	499122176	62	4267
2026-01-20 05:03:04.44	15.79	21.85	-45.4	-46.7	20.5	0.00e+00	0	38	0	501219328	62	4164
2026-01-20 05:03:05.45	15.53	21.90	-45.4	-46.7	20.5	0.00e+00	0	38	0	502267904	62	4159
2026-01-20 05:03:06.45	15.28	21.94	-45.3	-46.6	20.6	0.00e+00	0	38	0	504365056	62	4134
2026-01-20 05:03:07.46	15.03	21.98	-45.3	-46.6	20.6	0.00e+00	0	38	0	506462208	62	4099
2026-01-20 05:03:08.47	14.77	22.03	-45.4	-46.6	20.6	0.00e+00	0	38	0	508559360	62	4143
2026-01-20 05:03:09.48	14.51	22.07	-45.4	-46.7	20.5	0.00e+00	0	38	0	510656512	62	4164
2026-01-20 05:03:10.49	14.25	22.11	-45.6	-47.0	20.3	0.00e+00	0	38	0	512753664	62	4292
2026-01-20 05:03:11.49	14.00	22.15	-45.5	-46.8	20.4	0.00e+00	0	38	0	513802240	62	4238
2026-01-20 05:03:12.50	13.74	22.19	-45.6	-46.9	20.3	0.00e+00	0	38	0	515899392	62	4270
2026-01-20 05:03:13.51	13.48	22.23	-45.7	-47.1	20.1	0.00e+00	0	39	0	517996544	62	4364
2026-01-20 05:03:14.52	13.22	22.27	-45.8	-47.1	20.1	0.00e+00	0	38	0	520093696	62	4383
2026-01-20 05:03:15.53	12.96	22.31	-45.9	-47.3	19.9	0.00e+00	0	38	0	522190848	62	4471
2026-01-20 05:03:16.53	12.70	22.35	-45.8	-47.2	20.0	0.00e+00	0	38	0	523239424	62	4401
2026-01-20 05:03:17.54	12.44	22.38	-45.8	-47.2	20.0	0.00e+00	0	38	0	525336576	62	4408
2026-01-20 05:03:18.55	12.18	22.42	-45.7	-47.0	20.2	0.00e+00	0	38	0	527433728	62	4334
2026-01-20 05:03:19.56	11.91	22.46	-45.6	-46.9	20.3	0.00e+00	0	38	0	529530880	62	4263
2026-01-20 05:03:20.57	11.65	22.49	-45.6	-46.9	20.3	0.00e+00	0	38	0	530579456	62	4265
2026-01-20 05:03:21.57	11.39	22.53	-45.8	-47.2	20.1	0.00e+00	0	38	0	532676608	62	4412
2026-01-20 05:03:22.58	11.12	22.56	-46.0	-47.4	19.9	0.00e+00	0	38	0	534773760	62	4513
2026-01-20 05:03:23.59	10.86	22.60	-46.2	-47.6	19.7	0.00e+00	0	38	0	536870912	62	4623
2026-01-20 05:03:24.60	10.59	22.63	-46.3	-47.7	19.5	0.00e+00	0	38	0	538968064	63	4435
2026-01-20 05:03:25.61	10.32	22.66	-46.4	-47.9	19.3	0.00e+00	0	38	0	541065216	63	4532
2026-01-20 05:03:26.61	10.06	22.69	-46.5	-48.1	19.2	0.00e+00	0	38	0	542113792	63	4601
2026-01-20 05:03:27.62	9.79	22.72	-46.7	-48.2	19.0	0.00e+00	0	38	0	544210944	63	4691
2026-01-20 05:03:28.63	9.52	22.76	-46.7	-48.3	18.9	0.00e+00	0	38	0	546308096	64	4469
2026-01-20 05:03:29.64	9.25	22.79	-46.7	-48.2	18.9	0.00e+00	0	38	0	548405248	64	4438
2026-01-20 05:03:30.64	8.99	22.81	-46.7	-48.3	18.8	0.00e+00	0	38	0	550502400	64	4456
2026-01-20 05:03:31.65	8.71	22.84	-46.7	-48.3	18.9	0.00e+00	0	38	0	551550976	64	4442
2026-01-20 05:03:32.66	8.44	22.87	-46.8	-48.4	18.7	0.00e+00	0	38	0	553648128	64	4514
2026-01-20 05:03:33.67	8.17	22.90	-46.8	-48.4	18.7	0.00e+00	0	38	0	555745280	64	4516
2026-01-20 05:03:34.67	7.90	22.93	-46.9	-48.5	18.6	0.00e+00	0	38	0	557842432	64	4586
2026-01-20 05:03:35.68	7.63	22.95	-47.0	-48.6	18.5	0.00e+00	0	38	0	559939584	64	4645
2026-01-20 05:03:36.69	7.36	22.98	-47.0	-48.7	18.4	0.00e+00	0	38	0	560988160	64	4692
2026-01-20 05:03:37.70	7.09	23.00	-47.0	-48.6	18.6	0.00e+00	0	39	0	563085312	64	4626
2026-01-20 05:03:38.71	6.81	23.03	-46.9	-48.6	18.6	0.00e+00	0	38	0	565182464	64	4600
2026-01-20 05:03:39.71	6.54	23.05	-46.9	-48.6	18.6	0.00e+00	0	38	0	567279616	64	4601
2026-01-20 05:03:40.72	6.27	23.07	-47.0	-48.7	18.5	0.00e+00	0	38	0	569376768	64	4677
2026-01-20 05:03:41.73	5.99	23.09	-47.3	-49.0	18.2	0.00e+00	0	39	0	570425344	65	4592
2026-01-20 05:03:42.74	5.72	23.12	-47.5	-49.3	17.9	0.00e+00	0	38	0	572522496	65	4753
2026-01-20 05:03:43.75	5.44	23.14	-47.5	-49.3	17.9	0.00e+00	0	38	0	574619648	65	4737
2026-01-20 05:03:44.75	5.17	23.16	-47.4	-49.2	18.0	0.00e+00	0	38	0	576716800	65	4687
2026-01-20 05:03:45.76	4.89	23.18	-47.4	-49.3	17.9	0.00e+00	0	38	0	578813952	65	4713
2026-01-20 05:03:46.77	4.62	23.19	-47.4	-49.2	18.0	0.00e+00	0	38	0	579862528	65	4656
2026-01-20 05:03:47.78	4.34	23.21	-47.5	-49.3	18.0	0.00e+00	0	38	0	581959680	65	4718
2026-01-20 05:03:48.79	4.06	23.23	-47.6	-49.4	17.8	0.00e+00	0	38	0	584056832	65	4784
2026-01-20 05:03:49.79	3.79	23.25	-47.6	-49.5	17.7	0.00e+00	0	38	0	586153984	65	4819
2026-01-20 05:03:50.80	3.51	23.26	-47.4	-49.2	18.0	0.00e+00	0	38	0	588251136	65	4691
2026-01-20 05:03:51.81	3.23	23.28	-47.3	-49.1	18.1	0.00e+00	0	38	0	589299712	65	4605
2026-01-20 05:03:52.82	2.96	23.29	-47.2	-49.0	18.2	0.00e+00	0	38	0	591396864	65	4557
2026-01-20 05:03:53.83	2.68	23.30	-47.2	-48.9	18.3	0.00e+00	0	38	0	593494016	65	4515
2026-01-20 05:03:54.83	2.40	23.32	-47.2	-48.9	18.3	0.00e+00	0	38	0	595591168	65	4497
2026-01-20 05:03:55.84	2.12	23.33	-47.2	-48.9	18.2	0.00e+00	0	38	0	597688320	65	4535
2026-01-20 05:03:56.85	1.84	23.34	-47.3	-49.1	18.1	0.00e+00	0	38	0	598736896	65	4605
2026-01-20 05:03:57.86	1.56	23.35	-47.3	-49.1	18.1	0.00e+00	0	38	0	600834048	65	4620
2026-01-20 05:03:58.87	1.29	23.36	-47.4	-49.1	18.1	0.00e+00	0	38	0	602931200	65	4631
2026-01-20 05:03:59.87	1.01	23.37	-47.3	-49.0	18.2	0.00e+00	0	38	0	605028352	65	4581
2026-01-20 05:04:00.88	0.73	23.38	-47.1	-48.8	18.3	0.00e+00	0	38	0	607125504	65	4490
2026-01-20 05:04:01.89	0.45	23.39	-47.2	-48.9	18.3	0.00e+00	0	38	0	608174080	65	4510
2026-01-20 05:04:02.90	0.17	23.39	-47.3	-49.0	18.2	0.00e+00	0	38	0	610271232	65	4569
2026-01-20 05:04:03.91	359.89	23.40	-47.3	-49.0	18.2	0.00e+00	0	38	0	612368384	65	4579
2026-01-20 05:04:04.91	359.61	23.40	-47.4	-49.2	18.1	0.00e+00	0	38	0	614465536	65	4653
2026-01-20 05:04:05.92	359.33	23.41	-47.3	-49.0	18.2	0.00e+00	0	38	0	616562688	65	4568
2026-01-20 05:04:06.93	359.05	23.41	-47.1	-48.8	18.4	0.00e+00	0	38	0	617611264	65	4445
2026-01-20 05:04:07.94	358.77	23.42	-47.1	-48.7	18.5	0.00e+00	0	38	0	619708416	65	4438
2026-01-20 05:04:08.95	358.49	23.42	-47.0	-48.6	18.5	0.00e+00	0	38	0	621805568	65	4391
2026-01-20 05:04:09.95	358.21	23.42	-47.1	-48.8	18.4	0.00e+00	0	38	0	623902720	65	4460
2026-01-20 05:04:10.96	357.93	23.42	-47.1	-48.7	18.4	0.00e+00	0	38	0	625999872	65	4433
2026-01-20 05:04:11.97	357.65	23.42	-47.1	-48.8	18.4	0.00e+00	0	38	0	627048448	65	4468
2026-01-20 05:04:12.98	357.37	23.42	-47.0	-48.7	18.5	0.00e+00	0	38	0	629145600	65	4401
2026-01-20 05:04:13.99	357.09	23.42	-46.9	-48.5	18.6	0.00e+00	0	38	0	631242752	65	4340
2026-01-20 05:04:14.99	356.81	23.42	-46.7	-48.3	18.9	0.00e+00	0	38	0	633339904	65	4234
2026-01-20 05:04:16.00	356.53	23.42	-46.6	-48.1	19.0	0.00e+00	0	38	0	635437056	65	4141
2026-01-20 05:04:17.01	356.25	23.41	-46.5	-48.0	19.2	0.00e+00	0	38	0	636485632	64	4299
2026-01-20 05:04:18.02	355.97	23.41	-46.4	-47.9	19.2	0.00e+00	0	38	0	638582784	64	4276
2026-01-20 05:04:19.03	355.69	23.40	-46.4	-47.9	19.3	0.00e+00	0	38	0	640679936	64	4281
2026-01-20 05:04:20.03	355.41	23.40	-46.5	-48.0	19.1	0.00e+00	0	38	0	642777088	64	4329
2026-01-20 05:04:21.04	355.13	23.39	-46.5	-48.0	19.2	0.00e+00	0	38	0	644874240	64	4322
2026-01-20 05:04:22.05	354.85	23.39	-46.4	-47.9	19.2	0.00e+00	0	38	0	645922816	64	4259
2026-01-20 05:04:23.06	354.57	23.38	-46.3	-47.8	19.3	0.00e+00	0	38	0	648019968	64	4222
2026-01-20 05:04:24.07	354.29	23.37	-46.1	-47.6	19.5	0.00e+00	0	38	0	650117120	64	4115
2026-01-20 05:04:25.07	354.01	23.36	-46.1	-47.5	19.6	0.00e+00	0	39	0	652214272	64	4096
2026-01-20 05:04:26.08	353.74	23.35	-46.0	-47.5	19.7	0.00e+00	0	38	0	654311424	64	4056
2026-01-20 05:04:27.09	353.46	23.34	-46.1	-47.5	19.6	0.00e+00	0	38	0	656408576	64	4085
2026-01-20 05:04:28.10	353.18	23.33	-46.0	-47.4	19.8	0.00e+00	0	38	0	657457152	64	4025
2026-01-20 05:04:29.11	352.90	23.32	-46.0	-47.4	19.8	0.00e+00	0	38	0	659554304	63	4280
2026-01-20 05:04:30.12	352.62	23.30	-45.9	-47.3	19.9	0.00e+00	0	38	0	661651456	63	4215
2026-01-20 05:04:31.12	352.34	23.29	-45.7	-47.1	20.2	0.00e+00	0	38	0	663748608	63	4102
2026-01-20 05:04:32.13	352.07	23.28	-45.7	-47.0	20.2	0.00e+00	0	38	0	664797184	63	4074
2026-01-20 05:04:33.14	351.79	23.26	-45.6	-46.9	20.3	0.00e+00	0	38	0	666894336	63	4039
2026-01-20 05:04:34.14	351.51	23.24	-45.4	-46.7	20.5	0.00e+00	0	38	0	668991488	62	4171
2026-01-20 05:04:35.15	351.24	23.23	-45.4	-46.6	20.6	0.00e+00	0	38	0	671088640	62	4139
2026-01-20 05:04:36.16	350.96	23.21	-45.3	-46.5	20.7	0.00e+00	0	38	0	673185792	62	4078
2026-01-20 05:04:37.17	350.68	23.19	-45.2	-46.5	20.6	0.00e+00	0	38	0	674234368	62	4067
2026-01-20 05:04:38.17	350.41	23.17	-45.2	-46.4	20.8	0.00e+00	0	38	0	676331520	62	4048
2026-01-20 05:04:39.18	350.13	23.16	-45.3	-46.6	20.7	0.00e+00	0	38	0	678428672	62	4103
2026-01-20 05:04:40.19	349.86	23.14	-45.2	-46.5	20.7	0.00e+00	0	38	0	680525824	62	4066
2026-01-20 05:04:41.20	349.58	23.11	-45.4	-46.7	20.5	0.00e+00	0	38	0	682622976	62	4163
2026-01-20 05:04:42.21	349.31	23.09	-45.2	-46.5	20.7	0.00e+00	0	38	0	684720128	62	4073
2026-01-20 05:04:43.22	349.03	23.07	-45.1	-46.4	20.8	0.00e+00	0	38	0	685768704	62	4008
2026-01-20 05:04:44.22	348.76	23.05	-45.0	-46.2	21.0	0.00e+00	0	38	0	687865856	61	4155
2026-01-20 05:04:45.23	348.49	23.02	-44.7	-45.9	21.2	0.00e+00	0	38	0	689963008	61	4024
2026-01-20 05:04:46.24	348.21	23.00	-44.8	-46.0	21.1	0.00e+00	0	38	0	692060160	61	4083
2026-01-20 05:04:47.25	347.94	22.98	-44.9	-46.1	21.1	0.00e+00	0	38	0	693108736	61	4103
2026-01-20 05:04:48.25	347.67	22.95	-45.0	-46.2	21.0	0.00e+00	0	38	0	695205888	61	4155
2026-01-20 05:04:49.26	347.40	22.92	-45.1	-46.4	20.8	0.00e+00	0	38	0	697303040	61	4243
2026-01-20 05:04:50.27	347.13	22.90	-45.2	-46.4	20.8	0.00e+00	0	38	0	699400192	61	4266
2026-01-20 05:04:51.28	346.86	22.87	-45.2	-46.5	20.8	0.00e+00	0	38	0	701497344	61	4293
2026-01-20 05:04:52.28	346.59	22.84	-45.3	-46.5	20.7	0.00e+00	0	38	0	703594496	61	4324
2026-01-20 05:04:53.29	346.32	22.81	-45.3	-46.6	20.6	0.00e+00	0	38	0	704643072	61	4363
2026-01-20 05:04:54.30	346.05	22.78	-45.4	-46.6	20.5	0.00e+00	0	38	0	706740224	61	4389
2026-01-20 05:04:55.31	345.78	22.75	-45.2	-46.5	20.7	0.00e+00	0	38	0	708837376	61	4308
2026-01-20 05:04:56.31	345.51	22.72	-45.3	-46.6	20.6	0.00e+00	0	38	0	710934528	61	4352
2026-01-20 05:04:57.32	345.25	22.69	-45.3	-46.5	20.6	0.00e+00	0	38	0	713031680	61	4333
2026-01-20 05:04:58.33	344.98	22.66	-45.5	-46.8	20.4	0.00e+00	0	38	0	714080256	61	4455
2026-01-20 05:04:59.34	344.71	22.63	-45.6	-47.0	20.2	0.00e+00	0	38	0	716177408	61	4564
2026-01-20 05:05:00.35	344.45	22.59	-45.6	-46.9	20.3	0.00e+00	0	38	0	718274560	61	4531
2026-01-20 05:05:01.36	344.18	22.56	-45.7	-47.0	20.2	0.00e+00	0	38	0	720371712	61	4589
2026-01-20 05:05:02.37	343.91	22.53	-45.7	-47.0	20.2	0.00e+00	0	38	0	721420288	62	4339
2026-01-20 05:05:03.37	343.65	22.49	-45.8	-47.1	20.1	0.00e+00	0	38	0	723517440	62	4390
2026-01-20 05:05:04.38	343.39	22.46	-45.9	-47.2	20.0	0.00e+00	0	38	0	725614592	62	4441
2026-01-20 05:05:05.39	343.13	22.42	-45.9	-47.3	19.9	0.00e+00	0	38	0	727711744	62	4475
2026-01-20 05:05:06.40	342.86	22.38	-46.0	-47.5	19.8	0.00e+00	0	38	0	729808896	62	4551
2026-01-20 05:05:07.41	342.60	22.34	-46.2	-47.6	19.6	0.00e+00	0	38	0	731906048	62	4639
2026-01-20 05:05:08.41	342.34	22.31	-46.2	-47.6	19.6	0.00e+00	0	38	0	732954624	63	4391
2026-01-20 05:05:09.42	342.08	22.27	-46.4	-47.8	19.4	0.00e+00	0	38	0	735051776	63	4492
2026-01-20 05:05:10.43	341.82	22.23	-46.4	-47.8	19.4	0.00e+00	0	38	0	737148928	63	4487
2026-01-20 05:05:11.44	341.56	22.19	-46.3	-47.8	19.5	0.00e+00	0	38	0	739246080	63	4464
2026-01-20 05:05:12.45	341.30	22.15	-46.3	-47.8	19.5	0.00e+00	0	38	0	741343232	63	4459
2026-01-20 05:05:13.45	341.05	22.11	-46.4	-47.9	19.3	0.00e+00	0	38	0	742391808	63	4528
2026-01-20 05:05:14.46	340.79	22.07	-46.5	-48.1	19.2	0.00e+00	0	38	0	744488960	63	4599
2026-01-20 05:05:15.47	340.53	22.02	-46.6	-48.1	19.1	0.00e+00	0	38	0	746586112	63	4651
2026-01-20 05:05:16.48	340.28	21.98	-46.7	-48.3	19.0	0.00e+00	0	38	0	748683264	63	4721
2026-01-20 05:05:17.49	340.02	21.94	-46.7	-48.3	18.8	0.00e+00	0	38	0	750780416	64	4473
2026-01-20 05:05:18.49	339.77	21.90	-46.8	-48.4	18.8	0.00e+00	0	38	0	751828992	64	4511
2026-01-20 05:05:19.50	339.52	21.85	-46.7	-48.3	18.9	0.00e+00	0	38	0	753926144	64	4451
2026-01-20 05:05:20.51	339.26	21.81	-46.6	-48.1	19.1	0.00e+00	0	38	0	756023296	64	4367
2026-01-20 05:05:21.52	339.01	21.76	-46.6	-48.1	19.1	0.00e+00	0	38	0	758120448	64	4373
2026-01-20 05:05:22.53	338.76	21.72	-46.6	-48.2	19.0	0.00e+00	0	38	0	760217600	64	4403
2026-01-20 05:05:23.53	338.51	21.67	-46.6	-48.1	19.0	0.00e+00	0	38	0	761266176	64	4387
2026-01-20 05:05:24.54	338.26	21.62	-46.7	-48.3	18.9	0.00e+00	0	38	0	763363328	64	4457
2026-01-20 05:05:25.55	338.01	21.58	-46.7	-48.2	18.9	0.00e+00	0	38	0	765460480	64	4425
2026-01-20 05:05:26.56	337.76	21.53	-46.9	-48.5	18.7	0.00e+00	0	38	0	767557632	64	4582
2026-01-20 05:05:27.56	337.52	21.48	-46.9	-48.6	18.6	0.00e+00	0	38	0	769654784	64	4605
2026-01-20 05:05:28.57	337.27	21.43	-47.1	-48.8	18.3	0.00e+00	0	38	0	770703360	64	4734
2026-01-20 05:05:29.58	337.02	21.38	-47.0	-48.7	18.4	0.00e+00	0	38	0	772800512	64	4695
2026-01-20 05:05:30.59	336.78	21.33	-47.0	-48.7	18.4	0.00e+00	0	38	0	774897664	64	4683
2026-01-20 05:05:31.60	336.53	21.28	-47.1	-48.8	18.3	0.00e+00	0	38	0	776994816	64	4757
2026-01-20 05:05:32.61	336.29	21.23	-47.2	-49.0	18.2	0.00e+00	0	38	0	779091968	65	4556
2026-01-20 05:05:33.61	336.05	21.18	-47.2	-48.9	18.3	0.00e+00	0	38	0	780140544	65	4519
2026-01-20 05:05:34.62	335.81	21.13	-47.2	-48.9	18.3	0.00e+00	0	39	0	782237696	65	4511
2026-01-20 05:05:35.63	335.57	21.08	-47.0	-48.7	18.4	0.00e+00	0	38	0	784334848	65	4425
2026-01-20 05:05:36.63	335.33	21.03	-46.9	-48.5	18.6	0.00e+00	0	38	0	786432000	65	4328
2026-01-20 05:05:37.64	335.09	20.97	-46.8	-48.4	18.7	0.00e+00	0	39	0	788529152	65	4284
2026-01-20 05:05:38.65	334.85	20.92	-46.8	-48.4	18.7	0.00e+00	0	38	0	789577728	65	4283
2026-01-20 05:05:39.66	334.61	20.87	-47.0	-48.7	18.4	0.00e+00	0	38	0	791674880	65	4427
2026-01-20 05:05:40.67	334.37	20.81	-47.3	-49.1	18.1	0.00e+00	0	38	0	793772032	65	4602
2026-01-20 05:05:41.68	334.14	20.76	-47.2	-48.9	18.2	0.00e+00	0	38	0	795869184	65	4539
2026-01-20 05:05:42.68	333.90	20.71	-47.2	-49.0	18.1	0.00e+00	0	38	0	797966336	65	4560
2026-01-20 05:05:43.69	333.67	20.65	-47.0	-48.7	18.5	0.00e+00	0	38	0	800063488	65	4398
2026-01-20 05:05:44.70	333.43	20.59	-46.9	-48.6	18.6	0.00e+00	0	38	0	801112064	65	4355
2026-01-20 05:05:45.71	333.20	20.54	-46.9	-48.6	18.5	0.00e+00	0	38	0	803209216	65	4364
2026-01-20 05:05:46.71	332.97	20.48	-46.9	-48.5	18.6	0.00e+00	0	39	0	805306368	65	4335
2026-01-20 05:05:47.72	332.74	20.43	-47.0	-48.6	18.5	0.00e+00	0	38	0	807403520	65	4373
2026-01-20 05:05:48.73	332.51	20.37	-46.9	-48.6	18.6	0.00e+00	0	38	0	808452096	65	4344
2026-01-20 05:05:49.74	332.28	20.31	-46.9	-48.5	18.6	0.00e+00	0	38	0	810549248	65	4317
2026-01-20 05:05:50.75	332.05	20.25	-47.0	-48.7	18.4	0.00e+00	0	38	0	812646400	65	4396
2026-01-20 05:05:51.76	331.82	20.20	-47.0	-48.7	18.5	0.00e+00	0	38	0	814743552	65	4415
2026-01-20 05:05:52.76	331.60	20.14	-46.9	-48.5	18.6	0.00e+00	0	38	0	816840704	65	4324
2026-01-20 05:05:53.77	331.37	20.08	-47.0	-48.7	18.4	0.00e+00	0	38	0	817889280	65	4407
2026-01-20 05:05:54.78	331.15	20.02	-47.0	-48.7	18.4	0.00e+00	0	38	0	819986432	65	4415
2026-01-20 05:05:55.78	330.92	19.96	-47.0	-48.7	18.4	0.00e+00	0	38	0	822083584	65	4426
2026-01-20 05:05:56.79	330.70	19.90	-46.7	-48.3	18.8	0.00e+00	0	38	0	824180736	65	4231
2026-01-20 05:05:57.80	330.48	19.84	-46.8	-48.4	18.7	0.00e+00	0	38	0	826277888	65	4255
2026-01-20 05:05:58.81	330.26	19.78	-46.7	-48.2	18.9	0.00e+00	0	38	0	828375040	65	4189
2026-01-20 05:05:59.81	330.04	19.72	-46.7	-48.3	18.8	0.00e+00	0	39	0	829423616	65	4214
2026-01-20 05:06:00.82	329.82	19.66	-46.7	-48.3	18.8	0.00e+00	0	38	0	831520768	65	4203
2026-01-20 05:06:01.83	329.60	19.60	-46.8	-48.4	18.7	0.00e+00	0	38	0	833617920	65	4249
2026-01-20 05:06:02.84	329.38	19.54	-46.6	-48.1	19.0	0.00e+00	0	38	0	835715072	65	4143
2026-01-20 05:06:03.85	329.16	19.48	-46.6	-48.2	18.9	0.00e+00	0	38	0	836763648	64	4405
2026-01-20 05:06:04.85	328.95	19.41	-46.6	-48.2	18.9	0.00e+00	0	38	0	838860800	64	4403
2026-01-20 05:06:05.86	328.73	19.35	-46.6	-48.2	18.9	0.00e+00	0	38	0	840957952	64	4421
2026-01-20 05:06:06.87	328.52	19.29	-46.6	-48.2	18.8	0.00e+00	0	38	0	843055104	64	4433
2026-01-20 05:06:07.88	328.31	19.23	-46.7	-48.3	18.8	0.00e+00	0	38	0	845152256	64	4467
2026-01-20 05:06:08.89	328.09	19.16	-46.7	-48.3	18.8	0.00e+00	0	38	0	847249408	64	4465
2026-01-20 05:06:09.89	327.88	19.10	-46.7	-48.4	18.7	0.00e+00	0	38	0	848297984	64	4502
2026-01-20 05:06:10.90	327.67	19.04	-46.7	-48.3	18.7	0.00e+00	0	38	0	850395136	64	4486
2026-01-20 05:06:11.91	327.46	18.97	-46.7	-48.4	18.7	0.00e+00	0	38	0	852492288	64	4497
2026-01-20 05:06:12.92	327.25	18.91	-46.7	-48.2	18.8	0.00e+00	0	38	0	854589440	64	4438
2026-01-20 05:06:13.93	327.04	18.84	-46.6	-48.2	18.9	0.00e+00	0	38	0	856686592	64	4403
2026-01-20 05:06:14.93	326.84	18.78	-46.6	-48.2	18.8	0.00e+00	0	38	0	857735168	64	4421
2026-01-20 05:06:15.94	326.63	18.72	-46.6	-48.2	18.8	0.00e+00	0	39	0	859832320	64	4420
2026-01-20 05:06:16.95	326.43	18.65	-46.6	-48.2	18.9	0.00e+00	0	38	0	861929472	64	4418
2026-01-20 05:06:17.96	326.22	18.59	-46.6	-48.2	18.8	0.00e+00	0	38	0	864026624	64	4434
2026-01-20 05:06:18.97	326.02	18.52	-46.8	-48.5	18.6	0.00e+00	0	38	0	865075200	64	4547
2026-01-20 05:06:19.97	325.82	18.46	-46.8	-48.5	18.6	0.00e+00	0	38	0	867172352	64	4552
2026-01-20 05:06:20.98	325.61	18.39	-46.9	-48.6	18.5	0.00e+00	0	38	0	869269504	64	4599
2026-01-20 05:06:21.99	325.41	18.32	-46.8	-48.5	18.6	0.00e+00	0	38	0	871366656	64	4549
2026-01-20 05:06:23.00	325.21	18.26	-46.8	-48.5	18.6	0.00e+00	0	38	0	873463808	64	4554
2026-01-20 05:06:24.01	325.01	18.19	-46.9	-48.6	18.4	0.00e+00	0	38	0	875560960	64	4641
2026-01-20 05:06:25.02	324.81	18.12	-46.9	-48.6	18.4	0.00e+00	0	38	0	876609536	64	4651
2026-01-20 05:06:26.02	324.62	18.06	-46.9	-48.6	18.4	0.00e+00	0	38	0	878706688	64	4622
2026-01-20 05:06:27.03	324.42	17.99	-46.8	-48.5	18.5	0.00e+00	0	38	0	880803840	64	4560
2026-01-20 05:06:28.04	324.22	17.92	-46.8	-48.5	18.6	0.00e+00	0	38	0	882900992	64	4552
2026-01-20 05:06:29.05	324.03	17.86	-46.9	-48.6	18.4	0.00e+00	0	38	0	884998144	64	4612
2026-01-20 05:06:30.05	323.84	17.79	-46.9	-48.6	18.4	0.00e+00	0	38	0	886046720	64	4615
2026-01-20 05:06:31.06	323.64	17.72	-46.9	-48.6	18.4	0.00e+00	0	38	0	888143872	64	4618
2026-01-20 05:06:32.07	323.45	17.66	-46.9	-48.5	18.5	0.00e+00	0	38	0	890241024	64	4583
2026-01-20 05:06:33.08	323.26	17.59	-46.9	-48.5	18.5	0.00e+00	0	38	0	892338176	64	4590
2026-01-20 05:06:34.09	323.07	17.52	-46.9	-48.6	18.4	0.00e+00	0	38	0	894435328	64	4634
2026-01-20 05:06:35.10	322.88	17.45	-46.8	-48.5	18.5	0.00e+00	0	38	0	895483904	64	4566
2026-01-20 05:06:36.11	322.69	17.38	-46.9	-48.5	18.5	0.00e+00	0	38	0	897581056	64	4589
2026-01-20 05:06:37.12	322.50	17.31	-47.0	-48.7	18.3	0.00e+00	0	39	0	899678208	64	4655
2026-01-20 05:06:38.12	322.31	17.25	-47.0	-48.7	18.3	0.00e+00	0	38	0	901775360	64	4686
2026-01-20 05:06:39.13	322.13	17.18	-46.9	-48.6	18.4	0.00e+00	0	38	0	903872512	64	4636
2026-01-20 05:06:40.14	321.94	17.11	-46.8	-48.5	18.5	0.00e+00	0	38	0	904921088	64	4569
2026-01-20 05:06:41.15	321.76	17.04	-46.8	-48.5	18.5	0.00e+00	0	38	0	907018240	64	4577
2026-01-20 05:06:42.15	321.58	16.97	-46.8	-48.5	18.5	0.00e+00	0	38	0	909115392	64	4565
2026-01-20 05:06:43.16	321.39	16.90	-46.8	-48.5	18.5	0.00e+00	0	38	0	911212544	64	4572
2026-01-20 05:06:44.17	321.21	16.83	-46.7	-48.4	18.6	0.00e+00	0	38	0	913309696	64	4523
2026-01-20 05:06:45.18	321.03	16.76	-46.7	-48.3	18.7	0.00e+00	0	38	0	914358272	64	4468
2026-01-20 05:06:46.18	320.85	16.70	-46.6	-48.2	18.8	0.00e+00	0	38	0	916455424	64	4399
2026-01-20 05:06:47.19	320.67	16.63	-46.6	-48.2	18.8	0.00e+00	0	38	0	918552576	64	4418
2026-01-20 05:06:48.20	320.49	16.56	-46.5	-48.1	18.9	0.00e+00	0	38	0	920649728	64	4351
2026-01-20 05:06:49.21	320.31	16.49	-46.4	-48.0	19.0	0.00e+00	0	38	0	922746880	64	4304
2026-01-20 05:06:50.21	320.14	16.42	-46.3	-47.8	19.2	0.00e+00	0	38	0	923795456	64	4220
2026-01-20 05:06:51.22	319.96	16.35	-46.3	-47.8	19.1	0.00e+00	0	38	0	925892608	64	4235
2026-01-20 05:06:52.23	319.79	16.28	-46.3	-47.8	19.2	0.00e+00	0	38	0	927989760	64	4207
2026-01-20 05:06:53.24	319.61	16.21	-46.2	-47.8	19.2	0.00e+00	0	38	0	930086912	64	4202
2026-01-20 05:06:54.25	319.44	16.14	-46.4	-47.9	19.0	0.00e+00	0	38	0	932184064	64	4282
2026-01-20 05:06:55.25	319.27	16.07	-46.5	-48.1	18.9	0.00e+00	0	38	0	933232640	64	4359
2026-01-20 05:06:56.26	319.09	16.00	-46.5	-48.1	18.9	0.00e+00	0	38	0	935329792	64	4363
2026-01-20 05:06:57.27	318.92	15.93	-46.4	-48.0	19.0	0.00e+00	0	38	0	937426944	64	4326
2026-01-20 05:06:58.28	318.75	15.86	-46.4	-47.9	19.0	0.00e+00	0	38	0	939524096	64	4290
2026-01-20 05:06:59.29	318.58	15.79	-46.3	-47.8	19.1	0.00e+00	0	38	0	941621248	64	4233
2026-01-20 05:07:00.29	318.42	15.72	-46.3	-47.9	19.1	0.00e+00	0	38	0	942669824	64	4245
2026-01-20 05:07:01.30	318.25	15.65	-46.2	-47.7	19.3	0.00e+00	0	38	0	944766976	64	4155
2026-01-20 05:07:02.31	318.08	15.58	-46.1	-47.6	19.4	0.00e+00	0	38	0	946864128	64	4099
2026-01-20 05:07:03.32	317.91	15.51	-46.0	-47.5	19.6	0.00e+00	0	39	0	948961280	63	4300
2026-01-20 05:07:04.33	317.75	15.44	-46.0	-47.5	19.5	0.00e+00	0	38	0	951058432	63	4307
2026-01-20 05:07:05.34	317.58	15.36	-46.0	-47.4	19.6	0.00e+00	0	38	0	952107008	63	4276
2026-01-20 05:07:06.34	317.42	15.29	-45.9	-47.3	19.7	0.00e+00	0	38	0	954204160	63	4236
2026-01-20 05:07:07.35	317.26	15.22	-45.9	-47.3	19.7	0.00e+00	0	38	0	956301312	63	4238
2026-01-20 05:07:08.35	317.10	15.15	-46.0	-47.4	19.6	0.00e+00	0	38	0	958398464	63	4261
2026-01-20 05:07:09.36	316.93	15.08	-46.1	-47.5	19.5	0.00e+00	0	38	0	960495616	63	4333
2026-01-20 05:07:10.37	316.77	15.01	-46.1	-47.5	19.5	0.00e+00	0	38	0	961544192	63	4338
2026-01-20 05:07:11.38	316.61	14.94	-46.1	-47.6	19.4	0.00e+00	0	38	0	963641344	63	4358
2026-01-20 05:07:12.39	316.45	14.87	-46.2	-47.6	19.4	0.00e+00	0	39	0	965738496	63	4389
2026-01-20 05:07:13.39	316.30	14.80	-46.1	-47.6	19.4	0.00e+00	0	39	0	967835648	63	4381
2026-01-20 05:07:14.40	316.14	14.73	-46.0	-47.4	19.6	0.00e+00	0	38	0	969932800	63	4277
2026-01-20 05:07:15.41	315.98	14.66	-45.9	-47.3	19.7	0.00e+00	0	38	0	970981376	63	4205
2026-01-20 05:07:16.42	315.82	14.59	-46.0	-47.5	19.5	0.00e+00	0	38	0	973078528	63	4312
2026-01-20 05:07:17.43	315.67	14.52	-46.0	-47.5	19.5	0.00e+00	0	38	0	975175680	63	4305
2026-01-20 05:07:18.44	315.51	14.45	-45.9	-47.4	19.6	0.00e+00	0	38	0	977272832	63	4254
2026-01-20 05:07:19.44	315.36	14.38	-46.0	-47.5	19.5	0.00e+00	0	38	0	979369984	63	4298
2026-01-20 05:07:20.45	315.21	14.30	-46.0	-47.5	19.5	0.00e+00	0	38	0	980418560	63	4314
2026-01-20 05:07:21.46	315.05	14.23	-46.0	-47.4	19.6	0.00e+00	0	38	0	982515712	63	4279
2026-01-20 05:07:22.47	314.90	14.16	-46.0	-47.5	19.5	0.00e+00	0	38	0	984612864	63	4315
2026-01-20 05:07:23.47	314.75	14.09	-46.1	-47.6	19.4	0.00e+00	0	38	0	986710016	63	4349
2026-01-20 05:07:24.48	314.60	14.02	-46.1	-47.6	19.4	0.00e+00	0	38	0	988807168	63	4359
2026-01-20 05:07:25.49	314.45	13.95	-46.3	-47.8	19.2	0.00e+00	0	38	0	990904320	63	4470
2026-01-20 05:07:26.50	314.30	13.88	-46.2	-47.7	19.3	0.00e+00	0	38	0	991952896	63	4397
2026-01-20 05:07:27.51	314.15	13.81	-46.3	-47.9	19.1	0.00e+00	0	38	0	994050048	63	4497
2026-01-20 05:07:28.51	314.01	13.74	-46.3	-47.8	19.2	0.00e+00	0	38	0	996147200	63	4452
2026-01-20 05:07:29.52	313.86	13.67	-46.2	-47.7	19.3	0.00e+00	0	38	0	998244352	63	4432
2026-01-20 05:07:30.53	313.72	13.60	-46.3	-47.9	19.1	0.00e+00	0	38	0	999292928	63	4500
2026-01-20 05:07:31.54	313.57	13.53	-46.4	-47.9	19.1	0.00e+00	0	38	0	1001390080	63	4527
2026-01-20 05:07:32.55	313.43	13.46	-46.5	-48.1	18.9	0.00e+00	0	38	0	1003487232	63	4614
2026-01-20 05:07:33.55	313.28	13.38	-46.6	-48.2	18.8	0.00e+00	0	38	0	1005584384	63	4655
2026-01-20 05:07:34.56	313.14	13.31	-46.6	-48.2	18.7	0.00e+00	0	38	0	1007681536	63	4700
2026-01-20 05:07:35.57	313.00	13.24	-46.5	-48.1	18.8	0.00e+00	0	38	0	1008730112	63	4643
2026-01-20 05:07:36.57	312.86	13.17	-46.7	-48.3	18.6	0.00e+00	0	39	0	1010827264	64	4490
2026-01-20 05:07:37.58	312.72	13.10	-46.7	-48.4	18.5	0.00e+00	0	38	0	1012924416	64	4496
2026-01-20 05:07:38.59	312.57	13.03	-46.7	-48.4	18.5	0.00e+00	0	38	0	1015021568	64	4499
2026-01-20 05:07:39.60	312.43	12.96	-46.7	-48.4	18.5	0.00e+00	0	39	0	1017118720	64	4519
2026-01-20 05:07:40.61	312.30	12.89	-46.7	-48.4	18.5	0.00e+00	0	38	0	1019215872	64	4514
2026-01-20 05:07:41.62	312.16	12.82	-46.6	-48.3	18.6	0.00e+00	0	38	0	1020264448	64	4448
2026-01-20 05:07:42.62	312.02	12.75	-46.6	-48.2	18.7	0.00e+00	0	38	0	1022361600	64	4404
2026-01-20 05:07:43.63	311.88	12.68	-46.5	-48.1	18.8	0.00e+00	0	39	0	1024458752	64	4360
2026-01-20 05:07:44.64	311.75	12.61	-46.5	-48.1	18.8	0.00e+00	0	38	0	1026555904	64	4346
2026-01-20 05:07:45.65	311.61	12.54	-46.5	-48.2	18.7	0.00e+00	0	38	0	1027604480	64	4398
2026-01-20 05:07:46.65	311.48	12.47	-46.4	-48.0	18.8	0.00e+00	0	38	0	1029701632	64	4328
2026-01-20 05:07:47.66	311.34	12.40	-46.5	-48.1	18.7	0.00e+00	0	38	0	1031798784	64	4388
2026-01-20 05:07:48.67	311.21	12.33	-46.6	-48.3	18.5	0.00e+00	0	38	0	1033895936	64	4466
2026-01-20 05:07:49.68	311.08	12.26	-46.8	-48.5	18.4	0.00e+00	0	38	0	1035993088	64	4560
2026-01-20 05:07:50.68	310.94	12.19	-46.8	-48.5	18.4	0.00e+00	0	38	0	1038090240	64	4558
2026-01-20 05:07:51.69	310.81	12.12	-46.8	-48.5	18.3	0.00e+00	0	38	0	1039138816	64	4593
2026-01-20 05:07:52.70	310.68	12.05	-47.0	-48.8	18.1	0.00e+00	0	38	0	1041235968	64	4725
2026-01-20 05:07:53.71	310.55	11.98	-46.9	-48.6	18.2	0.00e+00	0	38	0	1043333120	64	4646
2026-01-20 05:07:54.71	310.42	11.91	-47.0	-48.7	18.1	0.00e+00	0	38	0	1045430272	64	4683
2026-01-20 05:07:55.72	310.29	11.84	-46.9	-48.7	18.1	0.00e+00	0	38	0	1047527424	64	4657
2026-01-20 05:07:56.73	310.16	11.77	-46.9	-48.7	18.1	0.00e+00	0	38	0	1048576000	64	4672
2026-01-20 05:07:57.74	310.03	11.70	-47.0	-48.8	18.0	0.00e+00	0	38	0	1050673152	64	4744
2026-01-20 05:07:58.75	309.91	11.63	-47.0	-48.8	18.1	0.00e+00	0	38	0	1052770304	64	4720
2026-01-20 05:07:59.75	309.78	11.56	-46.9	-48.7	18.1	0.00e+00	0	38	0	1054867456	64	4673
2026-01-20 05:08:00.76	309.66	11.49	-47.0	-48.8	18.0	0.00e+00	0	38	0	1055916032	64	4751
2026-01-20 05:08:01.77	309.53	11.42	-47.0	-48.8	18.0	0.00e+00	0	38	0	1058013184	64	4736
2026-01-20 05:08:02.78	309.40	11.35	-47.0	-48.8	18.1	0.00e+00	0	38	0	1060110336	64	4723
2026-01-20 05:08:03.78	309.28	11.28	-47.2	-49.0	17.8	0.00e+00	0	39	0	1062207488	64	4839
2026-01-20 05:08:04.79	309.16	11.21	-47.1	-48.9	17.9	0.00e+00	0	38	0	1064304640	64	4762
2026-01-20 05:08:05.80	309.03	11.15	-47.1	-49.0	17.8	0.00e+00	0	38	0	1066401792	64	4828
2026-01-20 05:08:06.81	308.91	11.08	-47.2	-49.1	17.7	0.00e+00	0	38	0	1067450368	65	4621
2026-01-20 05:08:07.82	308.79	11.01	-47.4	-49.3	17.5	0.00e+00	0	38	0	1069547520	65	4754
2026-01-20 05:08:08.82	308.67	10.94	-47.3	-49.2	17.5	0.00e+00	0	38	0	1071644672	65	4690
2026-01-20 05:08:09.83	308.55	10.87	-47.1	-48.9	17.9	0.00e+00	0	38	0	1073741824	65	4540
2026-01-20 05:08:10.84	308.43	10.80	-47.3	-49.1	17.6	0.00e+00	0	39	0	1075838976	65	4634
2026-01-20 05:08:11.85	308.31	10.73	-47.1	-48.9	17.9	0.00e+00	0	38	0	1076887552	65	4536
2026-01-20 05:08:12.85	308.19	10.66	-47.2	-49.0	17.8	0.00e+00	0	39	0	1078984704	65	4568
2026-01-20 05:08:13.86	308.07	10.59	-47.3	-49.2	17.5	0.00e+00	0	39	0	1081081856	65	4703
2026-01-20 05:08:14.87	307.95	10.53	-47.4	-49.3	17.5	0.00e+00	0	38	0	1083179008	65	4713
2026-01-20 05:08:15.88	307.84	10.46	-47.4	-49.3	17.4	0.00e+00	0	38	0	1084227584	65	4756
2026-01-20 05:08:16.89	307.72	10.39	-47.4	-49.3	17.5	0.00e+00	0	38	0	1086324736	65	4744
2026-01-20 05:08:17.89	307.60	10.32	-47.5	-49.5	17.3	0.00e+00	0	38	0	1088421888	65	4820
2026-01-20 05:08:18.90	307.49	10.25	-47.4	-49.3	17.5	0.00e+00	0	38	0	1090519040	65	4714
2026-01-20 05:08:19.91	307.37	10.18	-47.6	-49.7	17.1	0.00e+00	0	38	0	1092616192	65	4929
2026-01-20 05:08:20.92	307.26	10.12	-47.5	-49.4	17.3	0.00e+00	0	38	0	1094713344	65	4801
2026-01-20 05:08:21.93	307.14	10.05	-47.7	-49.7	17.0	0.00e+00	0	38	0	1095761920	65	4967
2026-01-20 05:08:22.93	307.03	9.98	-47.9	-50.1	16.7	0.00e+00	0	38	0	1097859072	66	4893
2026-01-20 05:08:23.94	306.92	9.91	-47.9	-50.0	16.7	0.00e+00	0	39	0	1099956224	66	4862
2026-01-20 05:08:24.95	306.81	9.84	-47.7	-49.7	17.0	0.00e+00	0	38	0	1102053376	66	4705
2026-01-20 05:08:25.96	306.69	9.78	-47.6	-49.7	17.1	0.00e+00	0	38	0	1104150528	66	4661
2026-01-20 05:08:26.97	306.58	9.71	-47.6	-49.5	17.2	0.00e+00	0	39	0	1105199104	66	4594
2026-01-20 05:08:27.97	306.47	9.64	-47.3	-49.2	17.5	0.00e+00	0	39	0	1107296256	66	4438
2026-01-20 05:08:28.98	306.36	9.57	-47.5	-49.5	17.2	0.00e+00	0	38	0	1109393408	66	4567
2026-01-20 05:08:29.99	306.25	9.51	-47.3	-49.3	17.5	0.00e+00	0	38	0	1111490560	66	4447
2026-01-20 05:08:31.00	306.14	9.44	-47.4	-49.4	17.4	0.00e+00	0	38	0	1113587712	66	4513
2026-01-20 05:08:32.00	306.03	9.37	-47.6	-49.6	17.1	0.00e+00	0	38	0	1114636288	66	4613
2026-01-20 05:08:33.01	305.93	9.30	-47.4	-49.4	17.3	0.00e+00	0	38	0	1116733440	66	4512
2026-01-20 05:08:34.02	305.82	9.24	-47.6	-49.7	17.1	0.00e+00	0	38	0	1118830592	66	4663
2026-01-20 05:08:35.03	305.71	9.17	-47.5	-49.5	17.2	0.00e+00	0	39	0	1120927744	66	4591
2026-01-20 05:08:36.04	305.60	9.10	-47.8	-49.9	16.8	0.00e+00	0	38	0	1123024896	66	4773
2026-01-20 05:08:37.04	305.50	9.04	-47.9	-50.1	16.6	0.00e+00	0	39	0	1124073472	66	4886
2026-01-20 05:08:38.05	305.39	8.97	-48.0	-50.2	16.5	0.00e+00	0	38	0	1126170624	66	4955
2026-01-20 05:08:39.06	305.29	8.90	-48.0	-50.2	16.5	0.00e+00	0	38	0	1128267776	66	4945
2026-01-20 05:08:40.07	305.18	8.84	-48.0	-50.2	16.5	0.00e+00	0	38	0	1130364928	66	4962
2026-01-20 05:08:41.08	305.08	8.77	-48.1	-50.3	16.3	0.00e+00	0	38	0	1132462080	66	5032
2026-01-20 05:08:42.09	304.97	8.70	-48.1	-50.3	16.3	0.00e+00	0	38	0	1134559232	66	5030
2026-01-20 05:08:43.10	304.87	8.64	-48.1	-50.3	16.3	0.00e+00	0	38	0	1135607808	66	5024
2026-01-20 05:08:44.10	304.77	8.57	-48.0	-50.2	16.5	0.00e+00	0	38	0	1137704960	66	4945
2026-01-20 05:08:45.11	304.67	8.50	-48.0	-50.2	16.4	0.00e+00	0	39	0	1139802112	66	4974
2026-01-20 05:08:46.12	304.57	8.44	-48.2	-50.5	16.2	0.00e+00	0	39	0	1141899264	66	5104
2026-01-20 05:08:47.13	304.46	8.37	-48.1	-50.4	16.3	0.00e+00	0	38	0	1142947840	67	4763
2026-01-20 05:08:48.14	304.36	8.31	-48.2	-50.5	16.1	0.00e+00	0	38	0	1145044992	67	4869
2026-01-20 05:08:49.14	304.26	8.24	-48.1	-50.4	16.2	0.00e+00	0	38	0	1147142144	67	4803
2026-01-20 05:08:50.15	304.16	8.17	-48.2	-50.5	16.1	0.00e+00	0	38	0	1149239296	67	4856
2026-01-20 05:08:51.15	304.06	8.11	-48.3	-50.7	15.9	0.00e+00	0	39	0	1151336448	67	4947
2026-01-20 05:08:52.16	303.97	8.04	-48.2	-50.6	16.0	0.00e+00	0	38	0	1152385024	67	4903
2026-01-20 05:08:53.17	303.87	7.98	-48.6	-51.1	15.5	0.00e+00	0	38	0	1154482176	67	5197
2026-01-20 05:08:54.17	303.77	7.91	-48.6	-51.1	15.5	0.00e+00	0	39	0	1156579328	67	5199
2026-01-20 05:08:55.18	303.67	7.85	-48.6	-51.1	15.5	0.00e+00	0	38	0	1158676480	67	5197
2026-01-20 05:08:56.19	303.57	7.78	-48.7	-51.3	15.3	0.00e+00	0	38	0	1160773632	68	5001
2026-01-20 05:08:57.20	303.48	7.72	-48.8	-51.4	15.3	0.00e+00	0	38	0	1162870784	68	5069
2026-01-20 05:08:58.21	303.38	7.65	-48.6	-51.1	15.5	0.00e+00	0	38	0	1163919360	68	4926
2026-01-20 05:08:59.21	303.29	7.59	-48.5	-50.9	15.7	0.00e+00	0	38	0	1166016512	68	4813
2026-01-20 05:09:00.22	303.19	7.52	-48.5	-51.0	15.7	0.00e+00	0	39	0	1168113664	68	4832
2026-01-20 05:09:01.23	303.10	7.46	-48.6	-51.2	15.5	0.00e+00	0	38	0	1170210816	68	4927
2026-01-20 05:09:02.24	303.00	7.39	-48.6	-51.1	15.5	0.00e+00	0	38	0	1171259392	68	4895
2026-01-20 05:09:03.24	302.91	7.33	-48.7	-51.3	15.3	0.00e+00	0	38	0	1173356544	68	4999
2026-01-20 05:09:04.25	302.81	7.26	-48.8	-51.4	15.2	0.00e+00	0	39	0	1175453696	68	5083
2026-01-20 05:09:05.26	302.72	7.20	-48.7	-51.4	15.2	7.00e-07	0	38	0	1177550848	68	5053
2026-01-20 05:09:06.27	302.63	7.14	-48.7	-51.4	15.2	0.00e+00	0	38	0	1179648000	68	5060
2026-01-20 05:09:07.28	302.54	7.07	-48.8	-51.5	15.1	0.00e+00	0	38	0	1180696576	68	5149
2026-01-20 05:09:08.29	302.44	7.01	-49.0	-51.8	14.7	0.00e+00	0	38	0	1182793728	68	5314
2026-01-20 05:09:09.29	302.35	6.94	-48.9	-51.6	14.9	0.00e+00	0	38	0	1184890880	68	5196
2026-01-20 05:09:10.30	302.26	6.88	-48.7	-51.3	15.2	0.00e+00	0	39	0	1186988032	68	5014
2026-01-20 05:09:11.31	302.17	6.81	-48.9	-51.7	14.9	0.00e+00	0	38	0	1189085184	68	5225
2026-01-20 05:09:12.32	302.08	6.75	-48.8	-51.5	15.1	0.00e+00	0	39	0	1191182336	68	5121
2026-01-20 05:09:13.33	301.99	6.69	-49.0	-51.9	14.6	0.00e+00	0	38	0	1192230912	68	5396
2026-01-20 05:09:14.34	301.90	6.62	-48.9	-51.7	14.9	0.00e+00	0	39	0	1194328064	68	5221
2026-01-20 05:09:15.34	301.81	6.56	-48.8	-51.6	14.9	7.00e-07	0	38	0	1196425216	68	5185
2026-01-20 05:09:16.35	301.72	6.50	-49.1	-52.0	14.5	0.00e+00	0	38	0	1198522368	68	5419
2026-01-20 05:09:17.36	301.64	6.43	-48.9	-51.7	14.8	0.00e+00	0	39	0	1199570944	68	5277
2026-01-20 05:09:18.37	301.55	6.37	-48.9	-51.7	14.8	0.00e+00	0	38	0	1201668096	68	5224
2026-01-20 05:09:19.38	301.46	6.31	-49.0	-52.0	14.5	7.00e-07	0	38	0	1203765248	68	5416
2026-01-20 05:09:20.38	301.37	6.24	-49.0	-51.9	14.6	0.00e+00	0	38	0	1205862400	68	5395
2026-01-20 05:09:21.39	301.29	6.18	-49.4	-52.7	13.8	5.30e-06	0	38	0	1207959552	69	5536
2026-01-20 05:09:22.40	301.20	6.12	-49.3	-52.4	14.0	2.20e-06	0	39	0	1210056704	69	5357
2026-01-20 05:09:23.41	301.11	6.05	-49.2	-52.3	14.2	3.80e-06	0	38	0	1211105280	69	5319
2026-01-20 05:09:24.41	301.03	5.99	-48.6	-51.3	15.1	7.00e-07	0	38	0	1213202432	69	4713
2026-01-20 05:09:25.42	300.94	5.93	-48.9	-51.8	14.7	0.00e+00	0	39	0	1215299584	69	5033
2026-01-20 05:09:26.43	300.86	5.87	-49.6	-53.1	13.3	6.80e-06	0	38	0	1217396736	69	5827
2026-01-20 05:09:27.44	300.77	5.80	-49.0	-51.9	14.5	9.90e-06	0	38	0	1219493888	70	4801
2026-01-20 05:09:28.44	300.69	5.74	-48.7	-51.4	15.0	0.00e+00	0	38	0	1220542464	69	4801
2026-01-20 05:09:29.46	300.61	5.68	-48.9	-51.8	14.6	0.00e+00	0	39	0	1222639616	69	5030
2026-01-20 05:09:30.46	300.52	5.62	-49.0	-51.9	14.5	1.50e-06	0	38	0	1224736768	69	5077
