passes_logs/2026/01/20/R3.2S_Murmansk/R3.2S_Murmansk__20260120_035621_FENGYUN_3D_rec.log

#Pass ID: 20260120_035621_FENGYUN 3D
#Satellite: FENGYUN 3D
#Configuration: FENGYUN 3D
#almurnet v.1.7.20251203
#Start time: 2026-01-20 03:56:21

#Version: 2.2.20231116
#Station: R3.2S_Murmansk
#Location: 33.079688 lon 68.888172 lat
#TLE: 1 43010U 17072A   26019.30265705  .00000224  00000+0  12791-3 0  9991
#TLE: 2 43010  98.9940 351.1850 0002428 100.8496 259.2953 14.19697535423864

#Time	Az	El	Level	Level2	SNR	BER	BlckErr	Temp	State	Recorded	gain1	gain2
2026-01-20 03:56:21.21	30.52	2.00	-51.6	-63.5	3.8	8.46e-01	0	37	0	0	75	13654
2026-01-20 03:56:22.21	30.50	2.06	-51.6	-63.5	3.8	8.46e-01	0	37	104	0	73	15383
2026-01-20 03:56:23.21	30.47	2.13	-51.6	-63.5	3.8	8.46e-01	0	37	104	0	73	15311
2026-01-20 03:56:24.22	30.45	2.19	-51.6	-63.5	3.8	8.46e-01	0	37	104	0	73	15332
2026-01-20 03:56:25.23	30.42	2.26	-51.6	-63.5	3.8	8.46e-01	0	37	104	0	73	15268
2026-01-20 03:56:26.24	30.40	2.32	-51.6	-63.5	3.8	8.46e-01	0	37	104	0	73	15259
2026-01-20 03:56:27.25	30.37	2.38	-51.6	-63.5	3.8	8.46e-01	0	37	104	0	73	15306
2026-01-20 03:56:28.25	30.35	2.45	-51.6	-63.5	3.8	8.46e-01	0	37	104	0	73	15337
2026-01-20 03:56:29.26	30.32	2.51	-51.6	-63.5	3.8	8.46e-01	0	37	104	0	73	15329
2026-01-20 03:56:30.27	30.30	2.58	-51.6	-63.5	3.8	8.47e-01	0	37	104	0	73	15287
2026-01-20 03:56:31.28	30.27	2.64	-51.6	-63.4	3.8	8.46e-01	0	37	104	0	73	15193
2026-01-20 03:56:32.29	30.25	2.71	-51.6	-63.2	3.8	8.47e-01	0	37	104	0	73	14732
2026-01-20 03:56:33.29	30.22	2.77	-51.5	-62.8	3.8	8.46e-01	0	37	104	0	73	14137
2026-01-20 03:56:34.30	30.19	2.84	-51.5	-62.1	3.8	8.46e-01	0	37	104	0	73	13107
2026-01-20 03:56:35.31	30.17	2.90	-51.5	-62.0	3.8	8.45e-01	0	37	104	0	73	12888
2026-01-20 03:56:36.31	30.14	2.97	-51.5	-62.0	3.8	8.46e-01	0	37	104	0	73	12927
2026-01-20 03:56:37.32	30.12	3.03	-51.4	-60.9	4.0	8.45e-01	0	37	104	0	73	11343
2026-01-20 03:56:38.33	30.09	3.10	-51.5	-62.1	3.8	8.45e-01	0	37	104	0	73	12975
2026-01-20 03:56:39.34	30.06	3.16	-51.5	-62.1	3.8	8.47e-01	0	37	104	0	73	12992
2026-01-20 03:56:40.35	30.04	3.23	-51.5	-62.5	3.8	8.47e-01	0	37	104	0	73	13682
2026-01-20 03:56:41.35	30.01	3.30	-51.5	-62.7	3.8	8.47e-01	0	37	104	0	73	13955
2026-01-20 03:56:42.36	29.98	3.36	-51.5	-62.2	3.8	8.45e-01	0	37	104	0	73	13243
2026-01-20 03:56:43.37	29.96	3.43	-51.4	-61.2	3.9	8.46e-01	0	37	104	0	73	11744
2026-01-20 03:56:44.37	29.93	3.50	-51.1	-59.3	4.4	8.34e-01	0	37	0	0	73	9478
2026-01-20 03:56:45.38	29.90	3.56	-50.8	-57.6	5.2	8.01e-01	0	37	0	0	73	7773
2026-01-20 03:56:46.39	29.87	3.63	-50.5	-56.5	5.9	5.86e-01	0	37	0	0	73	6849
2026-01-20 03:56:47.40	29.85	3.70	-49.8	-54.1	8.2	1.36e-01	0	37	0	5242880	71	5831
2026-01-20 03:56:48.40	29.82	3.76	-49.4	-53.3	9.0	8.13e-02	0	37	0	11534336	70	5620
2026-01-20 03:56:49.41	29.79	3.83	-48.8	-52.2	10.2	8.18e-03	0	37	0	17825792	69	5235
2026-01-20 03:56:50.42	29.76	3.90	-48.1	-50.9	11.5	1.25e-03	0	37	0	23068672	68	4787
2026-01-20 03:56:51.43	29.73	3.97	-47.7	-50.3	12.1	7.27e-04	0	38	0	28311552	67	4731
2026-01-20 03:56:52.43	29.71	4.03	-47.0	-49.3	13.2	4.00e-05	0	37	0	34603008	66	4445
2026-01-20 03:56:53.44	29.68	4.10	-47.1	-49.3	13.1	2.43e-04	0	37	0	39845888	66	4488
2026-01-20 03:56:54.45	29.65	4.17	-47.0	-49.1	13.3	1.14e-04	0	37	0	46137344	66	4388
2026-01-20 03:56:55.46	29.62	4.24	-46.7	-48.7	13.7	1.37e-05	0	37	0	51380224	65	4439
2026-01-20 03:56:56.47	29.59	4.31	-46.8	-48.9	13.5	6.80e-06	0	37	0	56623104	65	4529
2026-01-20 03:56:57.48	29.56	4.38	-47.2	-49.5	12.9	4.69e-05	0	37	0	62914560	65	4870
2026-01-20 03:56:58.49	29.53	4.44	-47.6	-50.1	12.3	2.18e-04	0	37	0	68157440	65	5213
2026-01-20 03:56:59.49	29.50	4.51	-48.3	-51.4	11.0	1.21e-03	0	37	0	73400320	67	5363
2026-01-20 03:57:00.50	29.47	4.58	-48.4	-51.5	10.8	4.14e-03	0	38	0	79691776	67	5453
2026-01-20 03:57:01.51	29.44	4.65	-48.4	-51.4	10.9	2.48e-03	0	38	0	85983232	67	5381
2026-01-20 03:57:02.52	29.41	4.72	-49.0	-52.6	9.8	6.46e-03	0	38	0	91226112	68	5815
2026-01-20 03:57:03.53	29.38	4.79	-49.7	-54.0	8.3	5.40e-02	0	37	0	96468992	69	6465
2026-01-20 03:57:04.53	29.35	4.86	-50.1	-55.0	7.4	8.58e-02	0	38	0	102760448	70	6829
2026-01-20 03:57:05.54	29.32	4.93	-49.9	-54.6	7.7	1.58e-01	0	38	0	108003328	70	6551
2026-01-20 03:57:06.55	29.29	5.00	-50.1	-54.9	7.4	9.37e-02	0	38	0	113246208	70	6773
2026-01-20 03:57:07.56	29.26	5.07	-48.6	-51.4	11.0	1.94e-01	0	37	0	119537664	69	4813
2026-01-20 03:57:08.56	29.23	5.14	-46.6	-48.4	14.5	0.00e+00	0	38	0	124780544	64	4526
2026-01-20 03:57:09.57	29.20	5.21	-50.5	-56.0	6.7	2.88e-03	0	38	0	131072000	71	7267
2026-01-20 03:57:10.58	29.17	5.28	-50.1	-54.8	7.4	6.69e-01	0	38	0	132120576	72	5988
2026-01-20 03:57:11.59	29.14	5.36	-48.0	-50.5	12.5	0.00e+00	0	38	0	137363456	66	5145
2026-01-20 03:57:12.60	29.10	5.43	-48.1	-50.6	12.1	1.42e-01	0	38	0	143654912	68	4637
2026-01-20 03:57:13.61	29.07	5.50	-46.0	-47.6	15.6	0.00e+00	0	38	0	148897792	63	4370
2026-01-20 03:57:14.62	29.04	5.57	-45.6	-47.1	16.1	0.00e+00	0	38	0	155189248	63	4102
2026-01-20 03:57:15.62	29.01	5.64	-45.4	-46.9	16.3	0.00e+00	0	38	0	160432128	62	4274
2026-01-20 03:57:16.63	28.98	5.71	-44.9	-46.3	17.0	0.00e+00	0	38	0	166723584	61	4219
2026-01-20 03:57:17.64	28.94	5.79	-44.5	-45.8	17.5	0.00e+00	0	38	0	171966464	60	4218
2026-01-20 03:57:18.65	28.91	5.86	-44.7	-46.0	17.3	0.00e+00	0	38	0	177209344	60	4316
2026-01-20 03:57:19.65	28.88	5.93	-44.3	-45.5	17.8	0.00e+00	0	38	0	183500800	60	4086
2026-01-20 03:57:20.66	28.84	6.00	-44.3	-45.6	17.8	0.00e+00	0	38	0	188743680	60	4104
2026-01-20 03:57:21.67	28.81	6.08	-45.0	-46.3	17.0	0.00e+00	0	38	0	193986560	60	4480
2026-01-20 03:57:22.68	28.78	6.15	-44.4	-45.6	17.7	0.00e+00	0	38	0	200278016	60	4133
2026-01-20 03:57:23.68	28.74	6.22	-44.9	-46.2	17.2	0.00e+00	0	38	0	205520896	60	4416
2026-01-20 03:57:24.69	28.71	6.30	-44.8	-46.1	17.3	0.00e+00	0	38	0	210763776	60	4378
2026-01-20 03:57:25.70	28.68	6.37	-44.7	-45.9	17.4	0.00e+00	0	38	0	217055232	60	4288
2026-01-20 03:57:26.71	28.64	6.44	-44.6	-45.9	17.5	0.00e+00	0	38	0	223346688	60	4259
2026-01-20 03:57:27.71	28.61	6.52	-44.5	-45.8	17.6	0.00e+00	0	38	0	228589568	60	4215
2026-01-20 03:57:28.72	28.57	6.59	-44.5	-45.7	17.7	0.00e+00	0	38	0	233832448	60	4177
2026-01-20 03:57:29.73	28.54	6.67	-44.5	-45.8	17.6	0.00e+00	0	38	0	240123904	60	4209
2026-01-20 03:57:30.74	28.50	6.74	-44.2	-45.4	17.9	0.00e+00	0	38	0	245366784	60	4049
2026-01-20 03:57:31.75	28.47	6.82	-44.5	-45.8	18.0	0.00e+00	0	38	0	251658240	59	4452
2026-01-20 03:57:32.75	28.43	6.89	-44.5	-45.7	18.0	0.00e+00	0	38	0	256901120	59	4421
2026-01-20 03:57:33.76	28.40	6.97	-44.4	-45.7	18.1	0.00e+00	0	38	0	262144000	59	4392
2026-01-20 03:57:34.78	28.36	7.04	-44.3	-45.5	18.2	0.00e+00	0	38	0	268435456	59	4334
2026-01-20 03:57:35.78	28.32	7.12	-44.6	-45.8	18.0	0.00e+00	0	38	0	273678336	59	4464
2026-01-20 03:57:36.79	28.29	7.20	-44.5	-45.8	17.7	0.00e+00	0	38	0	278921216	60	4215
2026-01-20 03:57:37.80	28.25	7.27	-44.5	-45.7	17.7	0.00e+00	0	38	0	285212672	60	4169
2026-01-20 03:57:38.81	28.22	7.35	-44.3	-45.5	17.9	0.00e+00	0	38	0	290455552	60	4075
2026-01-20 03:57:39.81	28.18	7.42	-44.4	-45.6	18.2	0.00e+00	0	38	0	296747008	59	4357
2026-01-20 03:57:40.82	28.14	7.50	-44.2	-45.4	18.4	0.00e+00	0	38	0	301989888	59	4252
2026-01-20 03:57:41.83	28.10	7.58	-44.1	-45.3	18.5	0.00e+00	0	38	0	308281344	59	4213
2026-01-20 03:57:42.84	28.07	7.66	-44.1	-45.3	18.5	0.00e+00	0	38	0	313524224	59	4211
2026-01-20 03:57:43.85	28.03	7.73	-44.3	-45.4	18.4	0.00e+00	0	38	0	318767104	59	4286
2026-01-20 03:57:44.86	27.99	7.81	-44.1	-45.2	18.6	0.00e+00	0	38	0	325058560	59	4175
2026-01-20 03:57:45.87	27.95	7.89	-43.8	-44.9	18.9	0.00e+00	0	38	0	330301440	59	4045
2026-01-20 03:57:46.87	27.91	7.97	-43.8	-45.0	18.9	0.00e+00	0	38	0	336592896	59	4057
2026-01-20 03:57:47.88	27.88	8.05	-44.0	-45.1	18.7	0.00e+00	0	38	0	341835776	59	4141
2026-01-20 03:57:48.89	27.84	8.13	-44.1	-45.2	18.6	0.00e+00	0	38	0	347078656	59	4178
2026-01-20 03:57:49.90	27.80	8.20	-43.8	-44.9	18.9	0.00e+00	0	38	0	353370112	59	4051
2026-01-20 03:57:50.91	27.76	8.28	-44.0	-45.2	18.7	0.00e+00	0	38	0	359661568	59	4161
2026-01-20 03:57:51.91	27.72	8.36	-44.1	-45.2	18.6	0.00e+00	0	38	0	364904448	59	4187
2026-01-20 03:57:52.92	27.68	8.44	-43.9	-45.0	18.9	0.00e+00	0	38	0	370147328	59	4070
2026-01-20 03:57:53.93	27.64	8.52	-44.0	-45.1	18.7	0.00e+00	0	38	0	376438784	59	4130
2026-01-20 03:57:54.94	27.60	8.60	-43.8	-44.9	18.9	0.00e+00	0	38	0	381681664	59	4045
2026-01-20 03:57:55.94	27.56	8.68	-43.9	-45.0	18.9	0.00e+00	0	38	0	386924544	59	4080
2026-01-20 03:57:56.95	27.52	8.76	-43.8	-44.9	19.0	0.00e+00	0	38	0	393216000	59	4040
2026-01-20 03:57:57.96	27.48	8.84	-43.9	-45.0	18.9	0.00e+00	0	38	0	398458880	59	4086
2026-01-20 03:57:58.97	27.43	8.93	-43.8	-44.9	19.0	0.00e+00	0	38	0	403701760	59	4031
2026-01-20 03:57:59.97	27.39	9.01	-43.8	-44.9	19.0	0.00e+00	0	38	0	409993216	59	4025
2026-01-20 03:58:00.98	27.35	9.09	-43.8	-44.9	19.1	0.00e+00	0	38	0	415236096	59	4007
2026-01-20 03:58:01.99	27.31	9.17	-43.7	-44.8	19.1	0.00e+00	0	38	0	421527552	59	3963
2026-01-20 03:58:03.00	27.27	9.25	-43.6	-44.7	19.2	0.00e+00	0	38	0	426770432	59	3936
2026-01-20 03:58:04.00	27.22	9.33	-43.8	-44.9	19.1	0.00e+00	0	38	0	432013312	59	4011
2026-01-20 03:58:05.01	27.18	9.42	-43.5	-44.5	19.4	0.00e+00	0	38	0	438304768	58	4079
2026-01-20 03:58:06.02	27.14	9.50	-43.6	-44.7	19.3	0.00e+00	0	38	0	444596224	58	4166
2026-01-20 03:58:07.03	27.09	9.58	-43.6	-44.6	19.3	0.00e+00	0	38	0	449839104	58	4131
2026-01-20 03:58:08.04	27.05	9.67	-43.6	-44.7	19.3	0.00e+00	0	38	0	455081984	58	4174
2026-01-20 03:58:09.05	27.01	9.75	-43.6	-44.7	19.3	0.00e+00	0	38	0	461373440	58	4166
2026-01-20 03:58:10.06	26.96	9.84	-43.6	-44.7	19.3	0.00e+00	0	38	0	466616320	58	4151
2026-01-20 03:58:11.06	26.92	9.92	-43.6	-44.7	19.3	0.00e+00	0	38	0	471859200	58	4169
2026-01-20 03:58:12.07	26.87	10.00	-43.6	-44.7	19.3	0.00e+00	0	38	0	478150656	58	4148
2026-01-20 03:58:13.08	26.83	10.09	-43.8	-44.9	19.1	0.00e+00	0	38	0	483393536	58	4268
2026-01-20 03:58:14.09	26.78	10.17	-43.6	-44.7	19.3	0.00e+00	0	38	0	488636416	58	4171
2026-01-20 03:58:15.09	26.74	10.26	-43.6	-44.7	19.3	0.00e+00	0	38	0	494927872	58	4178
2026-01-20 03:58:16.10	26.69	10.34	-43.7	-44.8	19.3	0.00e+00	0	38	0	500170752	58	4208
2026-01-20 03:58:17.11	26.64	10.43	-43.7	-44.8	19.2	0.00e+00	0	38	0	506462208	58	4194
2026-01-20 03:58:18.12	26.60	10.52	-43.8	-44.8	19.2	0.00e+00	0	38	0	511705088	58	4241
2026-01-20 03:58:19.13	26.55	10.60	-43.5	-44.6	19.5	0.00e+00	0	38	0	517996544	58	4104
2026-01-20 03:58:20.13	26.50	10.69	-43.7	-44.7	19.3	0.00e+00	0	38	0	523239424	58	4184
2026-01-20 03:58:21.14	26.46	10.78	-43.6	-44.6	19.4	0.00e+00	0	38	0	529530880	58	4143
2026-01-20 03:58:22.15	26.41	10.86	-43.5	-44.5	19.5	0.00e+00	0	38	0	534773760	58	4094
2026-01-20 03:58:23.16	26.36	10.95	-43.5	-44.5	19.5	0.00e+00	0	38	0	540016640	58	4092
2026-01-20 03:58:24.17	26.31	11.04	-43.7	-44.8	19.3	0.00e+00	0	38	0	546308096	58	4199
2026-01-20 03:58:25.17	26.26	11.13	-43.8	-44.9	19.2	0.00e+00	0	38	0	551550976	58	4247
2026-01-20 03:58:26.18	26.21	11.21	-43.5	-44.6	19.5	0.00e+00	0	38	0	556793856	58	4110
2026-01-20 03:58:27.19	26.16	11.30	-43.6	-44.6	19.4	0.00e+00	0	38	0	563085312	58	4134
2026-01-20 03:58:28.20	26.11	11.39	-43.5	-44.6	19.5	0.00e+00	0	38	0	568328192	58	4099
2026-01-20 03:58:29.21	26.06	11.48	-43.3	-44.3	19.8	0.00e+00	0	38	0	573571072	58	3985
2026-01-20 03:58:30.22	26.01	11.57	-43.4	-44.4	19.7	0.00e+00	0	38	0	579862528	58	4033
2026-01-20 03:58:31.22	25.96	11.66	-43.4	-44.4	19.7	0.00e+00	0	38	0	586153984	58	4039
2026-01-20 03:58:32.23	25.91	11.75	-43.4	-44.4	19.7	0.00e+00	0	38	0	591396864	58	4015
2026-01-20 03:58:33.24	25.86	11.84	-43.2	-44.2	19.9	0.00e+00	0	38	0	596639744	58	3932
2026-01-20 03:58:34.25	25.81	11.93	-43.1	-44.1	20.0	0.00e+00	0	38	0	602931200	58	3907
2026-01-20 03:58:35.26	25.76	12.02	-43.2	-44.2	19.9	0.00e+00	0	38	0	608174080	58	3950
2026-01-20 03:58:36.27	25.70	12.12	-43.1	-44.1	20.0	0.00e+00	0	38	0	614465536	58	3906
2026-01-20 03:58:37.28	25.65	12.21	-43.3	-44.3	19.8	0.00e+00	0	38	0	619708416	58	3992
2026-01-20 03:58:38.28	25.60	12.30	-43.4	-44.4	19.8	0.00e+00	0	38	0	624951296	58	4025
2026-01-20 03:58:39.29	25.55	12.39	-43.1	-44.1	20.1	0.00e+00	0	38	0	631242752	58	3874
2026-01-20 03:58:40.30	25.49	12.49	-43.1	-44.1	20.0	0.00e+00	0	38	0	636485632	58	3907
2026-01-20 03:58:41.31	25.44	12.58	-43.0	-44.0	20.1	0.00e+00	0	38	0	642777088	58	3858
2026-01-20 03:58:42.32	25.38	12.67	-43.0	-44.0	20.2	0.00e+00	0	38	0	648019968	57	4053
2026-01-20 03:58:43.32	25.33	12.77	-42.9	-43.9	20.2	0.00e+00	0	38	0	654311424	57	4012
2026-01-20 03:58:44.33	25.27	12.86	-43.0	-43.9	20.2	0.00e+00	0	38	0	659554304	57	4045
2026-01-20 03:58:45.34	25.22	12.95	-42.8	-43.7	20.4	0.00e+00	0	38	0	664797184	57	3946
2026-01-20 03:58:46.35	25.16	13.05	-42.9	-43.8	20.3	0.00e+00	0	38	0	671088640	57	4003
2026-01-20 03:58:47.35	25.11	13.14	-42.9	-43.8	20.3	0.00e+00	0	38	0	676331520	57	3994
2026-01-20 03:58:48.36	25.05	13.24	-42.6	-43.6	20.6	0.00e+00	0	38	0	681574400	57	3884
2026-01-20 03:58:49.37	24.99	13.34	-42.7	-43.7	20.5	0.00e+00	0	38	0	687865856	57	3921
2026-01-20 03:58:50.38	24.93	13.43	-42.6	-43.5	20.6	0.00e+00	0	38	0	693108736	57	3864
2026-01-20 03:58:51.39	24.87	13.53	-42.6	-43.5	20.6	0.00e+00	0	38	0	699400192	57	3855
2026-01-20 03:58:52.40	24.82	13.63	-42.7	-43.6	20.5	0.00e+00	0	38	0	704643072	57	3900
2026-01-20 03:58:53.41	24.76	13.72	-42.7	-43.6	20.5	0.00e+00	0	38	0	710934528	57	3911
2026-01-20 03:58:54.41	24.70	13.82	-42.6	-43.6	20.6	0.00e+00	0	38	0	716177408	57	3876
2026-01-20 03:58:55.42	24.64	13.92	-42.8	-43.7	20.4	0.00e+00	0	38	0	722468864	57	3946
2026-01-20 03:58:56.43	24.58	14.02	-42.6	-43.6	20.6	0.00e+00	0	38	0	727711744	57	3877
2026-01-20 03:58:57.44	24.52	14.12	-42.6	-43.5	20.7	0.00e+00	0	38	0	732954624	57	3851
2026-01-20 03:58:58.45	24.46	14.21	-42.6	-43.5	20.6	0.00e+00	0	38	0	739246080	57	3864
2026-01-20 03:58:59.46	24.40	14.31	-42.6	-43.5	20.7	0.00e+00	0	38	0	744488960	57	3845
2026-01-20 03:59:00.46	24.33	14.41	-42.6	-43.6	20.6	0.00e+00	0	38	0	749731840	57	3886
2026-01-20 03:59:01.47	24.27	14.51	-42.6	-43.6	20.6	0.00e+00	0	38	0	756023296	57	3871
2026-01-20 03:59:02.48	24.21	14.61	-42.6	-43.6	20.6	0.00e+00	0	38	0	761266176	57	3886
2026-01-20 03:59:03.49	24.15	14.72	-42.5	-43.4	20.7	0.00e+00	0	38	0	766509056	57	3820
2026-01-20 03:59:04.49	24.08	14.82	-42.6	-43.6	20.6	0.00e+00	0	38	0	772800512	57	3875
2026-01-20 03:59:05.50	24.02	14.92	-42.6	-43.6	20.6	0.00e+00	0	38	0	778043392	57	3878
2026-01-20 03:59:06.51	23.95	15.02	-42.4	-43.4	20.8	0.00e+00	0	38	0	784334848	56	4009
2026-01-20 03:59:07.52	23.89	15.12	-42.4	-43.3	20.9	0.00e+00	0	38	0	789577728	56	3996
2026-01-20 03:59:08.53	23.82	15.23	-42.3	-43.2	21.0	0.00e+00	0	38	0	795869184	56	3947
2026-01-20 03:59:09.53	23.76	15.33	-42.3	-43.2	21.0	0.00e+00	0	38	0	801112064	56	3950
2026-01-20 03:59:10.54	23.69	15.43	-42.2	-43.2	21.1	0.00e+00	0	38	0	807403520	56	3920
2026-01-20 03:59:11.55	23.62	15.54	-42.3	-43.2	21.1	0.00e+00	0	38	0	812646400	56	3918
2026-01-20 03:59:12.56	23.56	15.64	-42.3	-43.2	21.0	0.00e+00	0	38	0	817889280	56	3946
2026-01-20 03:59:13.57	23.49	15.75	-42.1	-43.0	21.2	0.00e+00	0	38	0	824180736	56	3849
2026-01-20 03:59:14.57	23.42	15.85	-42.0	-42.9	21.3	0.00e+00	0	38	0	829423616	56	3813
2026-01-20 03:59:15.58	23.35	15.96	-41.8	-42.7	21.4	0.00e+00	0	38	0	834666496	55	3940
2026-01-20 03:59:16.59	23.28	16.06	-41.8	-42.6	21.5	0.00e+00	0	38	0	840957952	55	3910
2026-01-20 03:59:17.60	23.21	16.17	-41.7	-42.6	21.5	0.00e+00	0	39	0	846200832	55	3887
2026-01-20 03:59:18.61	23.14	16.28	-41.7	-42.5	21.6	0.00e+00	0	38	0	852492288	55	3862
2026-01-20 03:59:19.61	23.07	16.38	-41.6	-42.5	21.7	0.00e+00	0	38	0	857735168	55	3825
2026-01-20 03:59:20.62	23.00	16.49	-41.6	-42.5	21.6	0.00e+00	0	38	0	864026624	55	3848
2026-01-20 03:59:21.63	22.93	16.60	-41.6	-42.5	21.7	0.00e+00	0	38	0	869269504	55	3831
2026-01-20 03:59:22.64	22.85	16.71	-41.6	-42.4	21.7	0.00e+00	0	38	0	874512384	55	3817
2026-01-20 03:59:23.65	22.78	16.82	-41.6	-42.4	21.7	0.00e+00	0	38	0	880803840	55	3820
2026-01-20 03:59:24.66	22.71	16.93	-41.7	-42.6	21.6	0.00e+00	0	38	0	886046720	55	3871
2026-01-20 03:59:25.66	22.63	17.04	-41.5	-42.4	21.8	0.00e+00	0	38	0	892338176	55	3782
2026-01-20 03:59:26.67	22.56	17.15	-41.5	-42.3	21.8	0.00e+00	0	38	0	897581056	54	3983
2026-01-20 03:59:27.68	22.48	17.26	-41.6	-42.4	21.7	0.00e+00	0	38	0	902823936	54	4041
2026-01-20 03:59:28.69	22.40	17.37	-41.6	-42.5	21.7	0.00e+00	0	38	0	909115392	54	4053
2026-01-20 03:59:29.69	22.33	17.48	-41.8	-42.6	21.5	0.00e+00	0	38	0	914358272	54	4133
2026-01-20 03:59:30.70	22.25	17.59	-41.6	-42.4	21.7	0.00e+00	0	38	0	919601152	54	4036
2026-01-20 03:59:31.71	22.17	17.71	-41.6	-42.4	21.7	0.00e+00	0	38	0	925892608	54	4050
2026-01-20 03:59:32.72	22.09	17.82	-41.5	-42.4	21.8	0.00e+00	0	39	0	932184064	54	4016
2026-01-20 03:59:33.73	22.01	17.93	-41.5	-42.3	21.9	0.00e+00	0	38	0	937426944	54	3989
2026-01-20 03:59:34.73	21.94	18.05	-41.4	-42.3	21.9	0.00e+00	0	38	0	942669824	54	3978
2026-01-20 03:59:35.74	21.85	18.16	-41.4	-42.3	21.9	0.00e+00	0	38	0	948961280	54	3969
2026-01-20 03:59:36.75	21.77	18.28	-41.5	-42.3	21.9	0.00e+00	0	38	0	954204160	54	3990
2026-01-20 03:59:37.76	21.69	18.39	-41.4	-42.3	21.9	0.00e+00	0	38	0	959447040	54	3977
2026-01-20 03:59:38.77	21.61	18.51	-41.3	-42.1	22.0	0.00e+00	0	38	0	965738496	54	3907
2026-01-20 03:59:39.77	21.53	18.62	-41.2	-42.0	22.1	0.00e+00	0	38	0	970981376	54	3865
2026-01-20 03:59:40.78	21.44	18.74	-41.1	-41.9	22.2	0.00e+00	0	38	0	977272832	54	3812
2026-01-20 03:59:41.79	21.36	18.86	-41.1	-41.9	22.2	0.00e+00	0	38	0	982515712	54	3814
2026-01-20 03:59:42.80	21.27	18.98	-41.1	-41.9	22.3	0.00e+00	0	38	0	987758592	54	3793
2026-01-20 03:59:43.80	21.19	19.09	-40.9	-41.7	22.4	0.00e+00	0	38	0	994050048	53	3954
2026-01-20 03:59:44.81	21.10	19.21	-40.9	-41.7	22.5	0.00e+00	0	38	0	1000341504	53	3947
2026-01-20 03:59:45.82	21.01	19.33	-40.9	-41.7	22.4	0.00e+00	0	38	0	1005584384	53	3945
2026-01-20 03:59:46.83	20.93	19.45	-40.9	-41.7	22.5	0.00e+00	0	38	0	1010827264	53	3938
2026-01-20 03:59:47.84	20.84	19.57	-40.8	-41.6	22.5	0.00e+00	0	38	0	1017118720	53	3911
2026-01-20 03:59:48.84	20.75	19.69	-40.8	-41.6	22.6	0.00e+00	0	38	0	1022361600	53	3904
2026-01-20 03:59:49.85	20.66	19.81	-40.8	-41.6	22.6	0.00e+00	0	38	0	1027604480	53	3894
2026-01-20 03:59:50.86	20.57	19.94	-40.7	-41.5	22.7	0.00e+00	0	38	0	1033895936	53	3852
2026-01-20 03:59:51.87	20.48	20.06	-40.8	-41.6	22.6	0.00e+00	0	38	0	1039138816	53	3895
2026-01-20 03:59:52.87	20.38	20.18	-40.8	-41.6	22.6	0.00e+00	0	39	0	1044381696	53	3891
2026-01-20 03:59:53.88	20.29	20.31	-40.8	-41.6	22.6	0.00e+00	0	38	0	1050673152	53	3895
2026-01-20 03:59:54.89	20.20	20.43	-40.8	-41.6	22.6	0.00e+00	0	38	0	1055916032	53	3874
2026-01-20 03:59:55.90	20.10	20.55	-40.7	-41.5	22.7	0.00e+00	0	38	0	1062207488	53	3841
2026-01-20 03:59:56.91	20.01	20.68	-40.7	-41.5	22.7	0.00e+00	0	38	0	1067450368	53	3861
2026-01-20 03:59:57.91	19.91	20.80	-40.7	-41.5	22.7	0.00e+00	0	38	0	1073741824	53	3829
2026-01-20 03:59:58.92	19.81	20.93	-40.7	-41.5	22.7	0.00e+00	0	38	0	1078984704	53	3837
2026-01-20 03:59:59.93	19.71	21.06	-40.6	-41.4	22.8	0.00e+00	0	38	0	1085276160	53	3782
2026-01-20 04:00:00.94	19.62	21.19	-40.6	-41.4	22.8	0.00e+00	0	38	0	1090519040	53	3800
2026-01-20 04:00:01.95	19.52	21.31	-40.6	-41.4	22.8	0.00e+00	0	38	0	1095761920	53	3809
2026-01-20 04:00:02.95	19.42	21.44	-40.6	-41.4	22.8	0.00e+00	0	38	0	1102053376	53	3815
2026-01-20 04:00:03.96	19.31	21.57	-40.5	-41.3	22.9	0.00e+00	0	38	0	1107296256	53	3762
2026-01-20 04:00:04.97	19.21	21.70	-40.5	-41.3	22.9	0.00e+00	0	38	0	1112539136	53	3763
2026-01-20 04:00:05.98	19.11	21.83	-40.6	-41.4	22.8	0.00e+00	0	38	0	1118830592	53	3790
2026-01-20 04:00:06.98	19.01	21.96	-40.5	-41.3	22.9	0.00e+00	0	38	0	1124073472	53	3763
2026-01-20 04:00:07.99	18.90	22.09	-40.5	-41.3	22.9	0.00e+00	0	38	0	1129316352	53	3778
2026-01-20 04:00:09.00	18.79	22.22	-40.6	-41.4	22.8	0.00e+00	0	38	0	1135607808	53	3792
2026-01-20 04:00:10.01	18.69	22.36	-40.6	-41.4	22.9	0.00e+00	0	38	0	1141899264	53	3784
2026-01-20 04:00:11.01	18.58	22.49	-40.6	-41.4	22.8	0.00e+00	0	38	0	1147142144	53	3817
2026-01-20 04:00:12.02	18.47	22.62	-40.6	-41.4	22.9	0.00e+00	0	38	0	1152385024	53	3785
2026-01-20 04:00:13.03	18.36	22.76	-40.6	-41.4	22.8	0.00e+00	0	38	0	1158676480	53	3823
2026-01-20 04:00:14.04	18.25	22.89	-40.5	-41.3	22.9	0.00e+00	0	38	0	1163919360	53	3776
2026-01-20 04:00:15.05	18.14	23.03	-40.5	-41.3	23.0	0.00e+00	0	38	0	1170210816	52	3968
2026-01-20 04:00:16.05	18.03	23.16	-40.5	-41.3	22.9	0.00e+00	0	39	0	1175453696	52	4000
2026-01-20 04:00:17.06	17.91	23.30	-40.5	-41.3	22.9	0.00e+00	0	38	0	1180696576	52	3962
2026-01-20 04:00:18.07	17.80	23.43	-40.5	-41.3	23.0	0.00e+00	0	38	0	1186988032	52	3960
2026-01-20 04:00:19.07	17.68	23.57	-40.4	-41.2	23.0	0.00e+00	0	38	0	1192230912	52	3924
2026-01-20 04:00:20.08	17.57	23.71	-40.3	-41.1	23.1	0.00e+00	0	39	0	1197473792	52	3891
2026-01-20 04:00:21.09	17.45	23.85	-40.1	-40.9	23.3	0.00e+00	0	38	0	1203765248	52	3812
2026-01-20 04:00:22.10	17.33	23.99	-40.2	-40.9	23.3	0.00e+00	0	38	0	1209008128	52	3819
2026-01-20 04:00:23.11	17.21	24.13	-40.1	-40.9	23.3	0.00e+00	0	38	0	1214251008	52	3800
2026-01-20 04:00:24.11	17.09	24.27	-40.1	-40.9	23.3	0.00e+00	0	38	0	1220542464	52	3797
2026-01-20 04:00:25.12	16.97	24.41	-40.1	-40.8	23.4	0.00e+00	0	38	0	1226833920	52	3768
2026-01-20 04:00:26.13	16.84	24.55	-40.1	-40.9	23.4	0.00e+00	0	38	0	1232076800	51	4026
2026-01-20 04:00:27.14	16.72	24.70	-40.0	-40.8	23.5	0.00e+00	0	38	0	1237319680	51	3990
2026-01-20 04:00:28.15	16.59	24.84	-40.0	-40.8	23.5	0.00e+00	0	39	0	1243611136	51	3963
2026-01-20 04:00:29.15	16.47	24.98	-40.0	-40.8	23.5	0.00e+00	0	38	0	1248854016	51	3963
2026-01-20 04:00:30.16	16.34	25.13	-40.1	-40.9	23.4	0.00e+00	0	38	0	1255145472	51	4012
2026-01-20 04:00:31.17	16.21	25.27	-40.2	-41.0	23.3	0.00e+00	0	38	0	1260388352	51	4068
2026-01-20 04:00:32.17	16.08	25.42	-40.2	-40.9	23.4	0.00e+00	0	38	0	1265631232	51	4038
2026-01-20 04:00:33.18	15.95	25.56	-40.2	-40.9	23.4	0.00e+00	0	38	0	1271922688	51	4051
2026-01-20 04:00:34.19	15.81	25.71	-40.2	-40.9	23.4	0.00e+00	0	39	0	1277165568	51	4049
2026-01-20 04:00:35.20	15.68	25.86	-40.2	-40.9	23.4	0.00e+00	0	38	0	1282408448	51	4042
2026-01-20 04:00:36.21	15.54	26.01	-40.1	-40.9	23.4	0.00e+00	0	38	0	1288699904	51	4023
2026-01-20 04:00:37.21	15.41	26.15	-40.0	-40.8	23.5	0.00e+00	0	38	0	1294991360	51	3972
2026-01-20 04:00:38.22	15.27	26.30	-40.0	-40.8	23.5	0.00e+00	0	38	0	1300234240	51	3974
2026-01-20 04:00:39.23	15.13	26.45	-40.0	-40.8	23.6	0.00e+00	0	38	0	1305477120	51	3960
2026-01-20 04:00:40.24	14.99	26.61	-39.9	-40.7	23.7	0.00e+00	0	38	0	1311768576	51	3917
2026-01-20 04:00:41.25	14.84	26.76	-40.0	-40.7	23.6	0.00e+00	0	38	0	1317011456	51	3943
2026-01-20 04:00:42.26	14.70	26.91	-40.1	-40.8	23.5	0.00e+00	0	38	0	1322254336	51	3993
2026-01-20 04:00:43.26	14.56	27.06	-40.0	-40.8	23.5	0.00e+00	0	38	0	1328545792	51	3988
2026-01-20 04:00:44.27	14.41	27.22	-40.2	-41.0	23.4	0.00e+00	0	38	0	1333788672	51	4053
2026-01-20 04:00:45.28	14.26	27.37	-40.2	-40.9	23.4	0.00e+00	0	38	0	1340080128	51	4048
2026-01-20 04:00:46.29	14.11	27.52	-40.2	-41.0	23.4	0.00e+00	0	38	0	1345323008	51	4056
2026-01-20 04:00:47.29	13.96	27.68	-40.1	-40.9	23.5	0.00e+00	0	38	0	1350565888	51	4028
2026-01-20 04:00:48.30	13.81	27.84	-40.2	-41.0	23.4	0.00e+00	0	38	0	1356857344	51	4080
2026-01-20 04:00:49.31	13.65	27.99	-40.1	-40.8	23.5	0.00e+00	0	38	0	1363148800	51	4002
2026-01-20 04:00:50.32	13.50	28.15	-40.0	-40.8	23.6	0.00e+00	0	38	0	1368391680	51	3983
2026-01-20 04:00:51.32	13.34	28.31	-39.8	-40.6	23.8	0.00e+00	0	38	0	1373634560	51	3883
2026-01-20 04:00:52.33	13.18	28.47	-39.9	-40.6	23.7	0.00e+00	0	38	0	1379926016	51	3907
2026-01-20 04:00:53.34	13.02	28.63	-39.8	-40.6	23.8	0.00e+00	0	39	0	1385168896	51	3890
2026-01-20 04:00:54.35	12.86	28.79	-39.9	-40.7	23.7	0.00e+00	0	38	0	1390411776	51	3939
2026-01-20 04:00:55.35	12.70	28.94	-40.0	-40.8	23.6	0.00e+00	0	38	0	1396703232	51	3963
2026-01-20 04:00:56.36	12.53	29.11	-40.0	-40.8	23.6	0.00e+00	0	38	0	1401946112	51	3981
2026-01-20 04:00:57.37	12.36	29.27	-40.0	-40.7	23.7	0.00e+00	0	38	0	1407188992	51	3939
2026-01-20 04:00:58.38	12.19	29.43	-40.0	-40.7	23.6	0.00e+00	0	38	0	1413480448	51	3950
2026-01-20 04:00:59.39	12.02	29.60	-39.8	-40.6	23.8	0.00e+00	0	39	0	1418723328	51	3886
2026-01-20 04:01:00.39	11.85	29.76	-39.8	-40.5	23.9	0.00e+00	0	38	0	1425014784	51	3843
2026-01-20 04:01:01.40	11.68	29.92	-39.8	-40.6	23.8	0.00e+00	0	38	0	1430257664	51	3874
2026-01-20 04:01:02.41	11.50	30.09	-39.8	-40.5	23.8	0.00e+00	0	38	0	1436549120	51	3864
2026-01-20 04:01:03.42	11.32	30.25	-39.9	-40.7	23.8	0.00e+00	0	39	0	1441792000	51	3921
2026-01-20 04:01:04.42	11.14	30.42	-40.0	-40.8	23.6	0.00e+00	0	38	0	1448083456	51	3972
2026-01-20 04:01:05.44	10.96	30.59	-39.9	-40.7	23.7	0.00e+00	0	39	0	1453326336	51	3937
2026-01-20 04:01:06.44	10.78	30.76	-39.9	-40.7	23.7	0.00e+00	0	38	0	1458569216	51	3935
2026-01-20 04:01:07.45	10.59	30.92	-40.0	-40.8	23.7	0.00e+00	0	38	0	1464860672	51	3971
2026-01-20 04:01:08.46	10.41	31.09	-39.8	-40.6	23.8	0.00e+00	0	38	0	1470103552	51	3882
2026-01-20 04:01:09.46	10.22	31.26	-39.8	-40.5	23.9	0.00e+00	0	38	0	1475346432	51	3861
2026-01-20 04:01:10.47	10.03	31.43	-39.7	-40.5	23.9	0.00e+00	0	38	0	1481637888	51	3830
2026-01-20 04:01:11.48	9.83	31.60	-39.4	-40.1	24.2	0.00e+00	0	38	0	1486880768	50	3899
2026-01-20 04:01:12.49	9.64	31.78	-39.3	-40.0	24.3	0.00e+00	0	38	0	1492123648	50	3858
2026-01-20 04:01:13.49	9.44	31.95	-39.3	-40.0	24.3	0.00e+00	0	38	0	1498415104	50	3864
2026-01-20 04:01:14.50	9.24	32.12	-39.3	-40.0	24.4	0.00e+00	0	38	0	1503657984	50	3834
2026-01-20 04:01:15.51	9.04	32.29	-39.3	-40.0	24.4	0.00e+00	0	38	0	1509949440	50	3835
2026-01-20 04:01:16.52	8.83	32.47	-39.2	-40.0	24.4	0.00e+00	0	38	0	1515192320	50	3831
2026-01-20 04:01:17.53	8.62	32.64	-39.3	-40.0	24.3	0.00e+00	0	38	0	1521483776	50	3856
2026-01-20 04:01:18.53	8.42	32.82	-39.4	-40.1	24.3	0.00e+00	0	38	0	1526726656	50	3889
2026-01-20 04:01:19.54	8.21	32.99	-39.4	-40.1	24.2	0.00e+00	0	38	0	1533018112	50	3912
2026-01-20 04:01:20.55	7.99	33.17	-39.5	-40.3	24.1	0.00e+00	0	38	0	1538260992	50	3972
2026-01-20 04:01:21.56	7.77	33.35	-39.6	-40.3	24.1	0.00e+00	0	38	0	1543503872	50	3985
2026-01-20 04:01:22.57	7.56	33.52	-39.5	-40.3	24.1	0.00e+00	0	38	0	1549795328	50	3960
2026-01-20 04:01:23.57	7.34	33.70	-39.4	-40.2	24.2	0.00e+00	0	38	0	1555038208	50	3927
2026-01-20 04:01:24.58	7.11	33.88	-39.4	-40.2	24.2	0.00e+00	0	38	0	1560281088	50	3928
2026-01-20 04:01:25.59	6.89	34.06	-39.5	-40.2	24.2	0.00e+00	0	38	0	1566572544	50	3952
2026-01-20 04:01:26.59	6.66	34.24	-39.5	-40.3	24.1	0.00e+00	0	38	0	1571815424	50	3970
2026-01-20 04:01:27.60	6.43	34.42	-39.7	-40.4	24.0	0.00e+00	0	38	0	1577058304	50	4038
2026-01-20 04:01:28.61	6.20	34.60	-39.6	-40.3	24.1	0.00e+00	0	38	0	1583349760	50	3997
2026-01-20 04:01:29.62	5.96	34.78	-39.6	-40.4	24.1	0.00e+00	0	38	0	1589641216	50	4006
2026-01-20 04:01:30.63	5.72	34.96	-39.7	-40.4	24.0	0.00e+00	0	39	0	1594884096	50	4028
2026-01-20 04:01:31.63	5.48	35.14	-39.7	-40.4	24.0	0.00e+00	0	38	0	1600126976	50	4048
2026-01-20 04:01:32.64	5.24	35.32	-39.5	-40.3	24.2	0.00e+00	0	38	0	1606418432	50	3961
2026-01-20 04:01:33.65	4.99	35.51	-39.5	-40.2	24.2	0.00e+00	0	38	0	1611661312	50	3951
2026-01-20 04:01:34.65	4.74	35.69	-39.6	-40.3	24.1	0.00e+00	0	38	0	1617952768	50	3985
2026-01-20 04:01:35.66	4.49	35.87	-39.5	-40.3	24.2	0.00e+00	0	38	0	1623195648	50	3969
2026-01-20 04:01:36.67	4.23	36.06	-39.4	-40.1	24.3	0.00e+00	0	38	0	1628438528	50	3888
2026-01-20 04:01:37.68	3.97	36.24	-39.4	-40.2	24.2	0.00e+00	0	38	0	1634729984	50	3922
2026-01-20 04:01:38.68	3.71	36.43	-39.4	-40.2	24.3	0.00e+00	0	38	0	1639972864	50	3928
2026-01-20 04:01:39.69	3.45	36.61	-39.6	-40.4	24.1	0.00e+00	0	38	0	1645215744	50	4020
2026-01-20 04:01:40.70	3.18	36.80	-39.5	-40.3	24.2	0.00e+00	0	38	0	1651507200	50	3968
2026-01-20 04:01:41.71	2.91	36.98	-39.6	-40.4	24.1	0.00e+00	0	38	0	1657798656	50	4008
2026-01-20 04:01:42.72	2.63	37.17	-39.6	-40.4	24.1	0.00e+00	0	38	0	1663041536	50	4009
2026-01-20 04:01:43.73	2.36	37.36	-39.5	-40.2	24.2	0.00e+00	0	39	0	1668284416	50	3953
2026-01-20 04:01:44.74	2.08	37.55	-39.4	-40.1	24.3	0.00e+00	0	39	0	1674575872	50	3893
2026-01-20 04:01:45.75	1.79	37.73	-39.4	-40.1	24.3	0.00e+00	0	38	0	1679818752	50	3911
2026-01-20 04:01:46.75	1.51	37.92	-39.4	-40.2	24.3	0.00e+00	0	38	0	1685061632	50	3924
2026-01-20 04:01:47.76	1.22	38.11	-39.6	-40.3	24.2	0.00e+00	0	38	0	1691353088	50	3989
2026-01-20 04:01:48.77	0.92	38.29	-39.6	-40.3	24.2	0.00e+00	0	38	0	1696595968	50	3985
2026-01-20 04:01:49.78	0.62	38.48	-39.5	-40.3	24.2	0.00e+00	0	38	0	1702887424	50	3978
2026-01-20 04:01:50.79	0.32	38.67	-39.6	-40.4	24.1	0.00e+00	0	38	0	1708130304	50	4018
2026-01-20 04:01:51.79	0.02	38.86	-39.6	-40.3	24.2	0.00e+00	0	38	0	1713373184	50	3981
2026-01-20 04:01:52.80	359.71	39.05	-39.7	-40.5	24.0	0.00e+00	0	38	0	1719664640	50	4056
2026-01-20 04:01:53.81	359.40	39.24	-39.8	-40.6	23.9	0.00e+00	0	39	0	1725956096	50	4104
2026-01-20 04:01:54.82	359.09	39.42	-39.7	-40.4	24.1	0.00e+00	0	38	0	1731198976	50	4047
2026-01-20 04:01:55.83	358.77	39.61	-39.7	-40.5	24.1	0.00e+00	0	38	0	1736441856	50	4052
2026-01-20 04:01:56.83	358.45	39.80	-39.4	-40.2	24.3	0.00e+00	0	38	0	1742733312	50	3915
2026-01-20 04:01:57.84	358.12	39.99	-39.4	-40.1	24.4	0.00e+00	0	38	0	1747976192	50	3891
2026-01-20 04:01:58.85	357.79	40.18	-39.5	-40.2	24.3	0.00e+00	0	38	0	1753219072	50	3934
2026-01-20 04:01:59.86	357.45	40.37	-39.6	-40.3	24.2	0.00e+00	0	38	0	1759510528	50	3976
2026-01-20 04:02:00.87	357.12	40.55	-39.8	-40.5	24.1	0.00e+00	0	39	0	1764753408	50	4076
2026-01-20 04:02:01.88	356.77	40.74	-39.9	-40.6	23.9	0.00e+00	0	38	0	1769996288	50	4135
2026-01-20 04:02:02.89	356.43	40.93	-39.9	-40.6	23.9	0.00e+00	0	38	0	1776287744	50	4138
2026-01-20 04:02:03.90	356.08	41.12	-39.8	-40.6	24.0	0.00e+00	0	38	0	1781530624	50	4118
2026-01-20 04:02:04.91	355.72	41.31	-39.8	-40.6	24.0	0.00e+00	0	38	0	1787822080	50	4112
2026-01-20 04:02:05.91	355.37	41.49	-39.6	-40.4	24.2	0.00e+00	0	38	0	1793064960	50	4006
2026-01-20 04:02:06.92	355.00	41.68	-39.6	-40.3	24.3	0.00e+00	0	38	0	1799356416	50	3970
2026-01-20 04:02:07.93	354.63	41.87	-39.7	-40.4	24.2	0.00e+00	0	38	0	1804599296	50	4029
2026-01-20 04:02:08.94	354.26	42.05	-39.7	-40.4	24.2	0.00e+00	0	38	0	1810890752	50	4015
2026-01-20 04:02:09.95	353.89	42.24	-39.6	-40.3	24.3	0.00e+00	0	38	0	1816133632	50	3985
2026-01-20 04:02:10.95	353.51	42.42	-39.6	-40.4	24.2	0.00e+00	0	38	0	1821376512	50	4008
2026-01-20 04:02:11.96	353.13	42.61	-39.7	-40.5	24.1	0.00e+00	0	38	0	1827667968	50	4059
2026-01-20 04:02:12.97	352.74	42.79	-39.8	-40.5	24.1	0.00e+00	0	38	0	1832910848	50	4084
2026-01-20 04:02:13.98	352.34	42.97	-39.7	-40.4	24.1	0.00e+00	0	39	0	1838153728	50	4044
2026-01-20 04:02:14.99	351.94	43.16	-39.7	-40.5	24.1	0.00e+00	0	38	0	1844445184	50	4062
2026-01-20 04:02:15.99	351.54	43.34	-39.5	-40.2	24.3	0.00e+00	0	38	0	1849688064	50	3942
2026-01-20 04:02:17.00	351.14	43.52	-39.5	-40.2	24.4	0.00e+00	0	38	0	1854930944	50	3933
2026-01-20 04:02:18.01	350.72	43.70	-39.5	-40.3	24.3	0.00e+00	0	38	0	1861222400	50	3960
2026-01-20 04:02:19.02	350.31	43.88	-39.6	-40.3	24.2	0.00e+00	0	39	0	1867513856	50	4001
2026-01-20 04:02:20.03	349.88	44.06	-39.7	-40.5	24.1	0.00e+00	0	38	0	1872756736	50	4061
2026-01-20 04:02:21.03	349.46	44.23	-39.7	-40.4	24.2	0.00e+00	0	39	0	1877999616	50	4029
2026-01-20 04:02:22.04	349.03	44.41	-39.7	-40.4	24.2	0.00e+00	0	38	0	1884291072	50	4029
2026-01-20 04:02:23.05	348.59	44.59	-39.7	-40.5	24.1	0.00e+00	0	38	0	1889533952	50	4059
2026-01-20 04:02:24.06	348.15	44.76	-39.7	-40.5	24.1	0.00e+00	0	38	0	1895825408	50	4057
2026-01-20 04:02:25.06	347.71	44.93	-39.9	-40.7	23.9	0.00e+00	0	38	0	1901068288	50	4168
2026-01-20 04:02:26.07	347.26	45.11	-40.0	-40.8	23.8	0.00e+00	0	38	0	1906311168	50	4204
2026-01-20 04:02:27.08	346.80	45.28	-39.8	-40.5	24.1	0.00e+00	0	38	0	1912602624	50	4066
2026-01-20 04:02:28.09	346.34	45.45	-39.7	-40.5	24.1	0.00e+00	0	38	0	1917845504	50	4053
2026-01-20 04:02:29.09	345.88	45.62	-39.5	-40.2	24.4	0.00e+00	0	38	0	1923088384	50	3919
2026-01-20 04:02:30.10	345.41	45.78	-39.5	-40.2	24.4	0.00e+00	0	38	0	1929379840	50	3943
2026-01-20 04:02:31.11	344.94	45.95	-39.6	-40.3	24.3	0.00e+00	0	38	0	1935671296	50	3999
2026-01-20 04:02:32.12	344.46	46.11	-39.7	-40.5	24.1	0.00e+00	0	38	0	1940914176	50	4054
2026-01-20 04:02:33.13	343.97	46.28	-39.8	-40.5	24.1	0.00e+00	0	38	0	1946157056	50	4095
2026-01-20 04:02:34.13	343.48	46.43	-39.8	-40.5	24.0	0.00e+00	0	38	0	1952448512	50	4096
2026-01-20 04:02:35.14	342.99	46.59	-40.1	-40.8	23.8	0.00e+00	0	38	0	1957691392	50	4242
2026-01-20 04:02:36.15	342.49	46.75	-40.3	-41.0	23.7	0.00e+00	0	38	0	1962934272	51	4079
2026-01-20 04:02:37.16	341.98	46.91	-40.3	-41.0	23.7	0.00e+00	0	38	0	1969225728	51	4087
2026-01-20 04:02:38.16	341.47	47.06	-40.2	-40.9	23.8	0.00e+00	0	39	0	1974468608	51	4032
2026-01-20 04:02:39.17	340.96	47.21	-40.1	-40.9	23.8	0.00e+00	0	38	0	1980760064	51	4019
2026-01-20 04:02:40.18	340.44	47.36	-40.2	-41.0	23.7	0.00e+00	0	38	0	1986002944	51	4059
2026-01-20 04:02:41.19	339.91	47.51	-40.3	-41.1	23.6	0.00e+00	0	38	0	1991245824	51	4102
2026-01-20 04:02:42.19	339.38	47.65	-40.2	-40.9	23.8	0.00e+00	0	38	0	1997537280	51	4044
2026-01-20 04:02:43.20	338.85	47.79	-40.2	-41.0	23.7	0.00e+00	0	38	0	2002780160	51	4060
2026-01-20 04:02:44.21	338.31	47.94	-40.4	-41.1	23.6	0.00e+00	0	38	0	2009071616	51	4139
2026-01-20 04:02:45.22	337.76	48.07	-40.5	-41.3	23.5	0.00e+00	0	38	0	2014314496	51	4199
2026-01-20 04:02:46.23	337.21	48.21	-40.5	-41.2	23.5	0.00e+00	0	38	0	2020605952	51	4193
2026-01-20 04:02:47.23	336.66	48.34	-40.6	-41.4	23.3	0.00e+00	0	38	0	2025848832	51	4258
2026-01-20 04:02:48.24	336.10	48.47	-40.7	-41.5	23.2	0.00e+00	0	38	0	2031091712	52	4071
2026-01-20 04:02:49.25	335.53	48.60	-40.7	-41.5	23.2	0.00e+00	0	39	0	2037383168	52	4085
2026-01-20 04:02:50.26	334.96	48.73	-40.8	-41.5	23.1	0.00e+00	0	38	0	2042626048	52	4091
2026-01-20 04:02:51.27	334.39	48.85	-40.5	-41.3	23.4	0.00e+00	0	39	0	2047868928	52	3962
2026-01-20 04:02:52.27	333.81	48.97	-40.5	-41.2	23.4	0.00e+00	0	39	0	2054160384	52	3951
2026-01-20 04:02:53.28	333.23	49.09	-40.4	-41.2	23.4	0.00e+00	0	39	0	2059403264	52	3945
2026-01-20 04:02:54.29	332.64	49.20	-40.4	-41.2	23.5	0.00e+00	0	38	0	2065694720	52	3924
2026-01-20 04:02:55.29	332.05	49.31	-40.4	-41.2	23.5	0.00e+00	0	38	0	2070937600	52	3920
2026-01-20 04:02:56.30	331.46	49.42	-40.4	-41.1	23.5	0.00e+00	0	38	0	2076180480	52	3902
2026-01-20 04:02:57.31	330.86	49.53	-40.4	-41.2	23.5	0.00e+00	0	38	0	2082471936	52	3926
2026-01-20 04:02:58.32	330.25	49.63	-40.6	-41.4	23.3	0.00e+00	0	38	0	2088763392	52	4009
2026-01-20 04:02:59.33	329.64	49.73	-40.6	-41.4	23.2	0.00e+00	0	38	0	2094006272	52	4030
2026-01-20 04:03:00.34	329.03	49.82	-40.5	-41.3	23.4	0.00e+00	0	39	0	2099249152	52	3965
2026-01-20 04:03:01.34	328.42	49.91	-40.6	-41.3	23.3	0.00e+00	0	38	0	2105540608	52	4003
2026-01-20 04:03:02.35	327.80	50.00	-40.6	-41.4	23.3	0.00e+00	0	38	0	2110783488	52	4042
2026-01-20 04:03:03.36	327.17	50.09	-40.7	-41.5	23.1	0.00e+00	0	39	0	2116026368	52	4085
2026-01-20 04:03:04.37	326.54	50.17	-40.6	-41.4	23.3	0.00e+00	0	38	0	2122317824	52	4016
2026-01-20 04:03:05.37	325.92	50.25	-40.3	-41.1	23.5	0.00e+00	0	38	0	2127560704	52	3894
2026-01-20 04:03:06.38	325.28	50.32	-40.2	-41.0	23.7	0.00e+00	0	38	0	2132803584	52	3841
2026-01-20 04:03:07.39	324.65	50.40	-40.4	-41.2	23.4	0.00e+00	0	38	0	2139095040	52	3936
2026-01-20 04:03:08.39	324.01	50.46	-40.5	-41.2	23.4	0.00e+00	0	38	0	2144337920	52	3943
2026-01-20 04:03:09.40	323.37	50.53	-40.6	-41.3	23.3	0.00e+00	0	39	0	2150629376	52	3993
2026-01-20 04:03:10.41	322.72	50.59	-40.7	-41.5	23.2	0.00e+00	0	38	0	2155872256	52	4064
2026-01-20 04:03:11.42	322.07	50.64	-40.8	-41.6	23.1	0.00e+00	0	39	0	2162163712	52	4118
2026-01-20 04:03:12.43	321.42	50.70	-40.6	-41.4	23.3	0.00e+00	0	38	0	2167406592	52	4036
2026-01-20 04:03:13.43	320.78	50.74	-40.7	-41.5	23.2	0.00e+00	0	39	0	2173698048	52	4061
2026-01-20 04:03:14.44	320.12	50.79	-40.7	-41.5	23.1	0.00e+00	0	38	0	2178940928	52	4082
2026-01-20 04:03:15.45	319.46	50.83	-40.9	-41.7	22.9	0.00e+00	0	38	0	2184183808	52	4177
2026-01-20 04:03:16.45	318.81	50.87	-40.7	-41.4	23.2	0.00e+00	0	38	0	2190475264	52	4042
2026-01-20 04:03:17.46	318.15	50.90	-40.7	-41.4	23.2	0.00e+00	0	38	0	2195718144	52	4051
2026-01-20 04:03:18.47	317.49	50.93	-40.5	-41.3	23.4	0.00e+00	0	38	0	2200961024	52	3980
2026-01-20 04:03:19.48	316.83	50.95	-40.3	-41.1	23.6	0.00e+00	0	38	0	2207252480	52	3882
2026-01-20 04:03:20.49	316.16	50.97	-40.4	-41.1	23.5	0.00e+00	0	39	0	2212495360	52	3902
2026-01-20 04:03:21.49	315.50	50.99	-40.3	-41.1	23.6	0.00e+00	0	39	0	2217738240	52	3869
2026-01-20 04:03:22.50	314.84	51.00	-40.2	-40.9	23.7	0.00e+00	0	38	0	2224029696	52	3807
2026-01-20 04:03:23.51	314.17	51.01	-40.3	-41.1	23.6	0.00e+00	0	38	0	2230321152	52	3871
2026-01-20 04:03:24.52	313.51	51.02	-40.4	-41.2	23.5	0.00e+00	0	39	0	2235564032	52	3931
2026-01-20 04:03:25.53	312.84	51.02	-40.5	-41.2	23.4	0.00e+00	0	39	0	2240806912	52	3958
2026-01-20 04:03:26.54	312.17	51.01	-40.6	-41.3	23.4	0.00e+00	0	38	0	2247098368	52	3996
2026-01-20 04:03:27.54	311.51	51.01	-40.7	-41.5	23.3	0.00e+00	0	38	0	2252341248	52	4055
2026-01-20 04:03:28.55	310.85	51.00	-40.7	-41.5	23.2	0.00e+00	0	38	0	2258632704	52	4062
2026-01-20 04:03:29.56	310.18	50.98	-40.7	-41.5	23.2	0.00e+00	0	39	0	2263875584	52	4092
2026-01-20 04:03:30.57	309.52	50.96	-40.6	-41.4	23.3	0.00e+00	0	38	0	2269118464	52	4041
2026-01-20 04:03:31.57	308.86	50.94	-40.6	-41.4	23.3	0.00e+00	0	38	0	2275409920	52	4022
2026-01-20 04:03:32.58	308.20	50.91	-40.7	-41.4	23.3	0.00e+00	0	38	0	2280652800	52	4043
2026-01-20 04:03:33.59	307.54	50.88	-40.5	-41.3	23.4	0.00e+00	0	39	0	2285895680	52	3975
2026-01-20 04:03:34.60	306.88	50.84	-40.2	-40.9	23.7	0.00e+00	0	38	0	2292187136	52	3819
2026-01-20 04:03:35.61	306.22	50.80	-40.2	-40.9	23.7	0.00e+00	0	39	0	2298478592	52	3796
2026-01-20 04:03:36.61	305.57	50.76	-40.4	-41.2	23.5	0.00e+00	0	38	0	2303721472	52	3917
2026-01-20 04:03:37.62	304.92	50.71	-40.5	-41.3	23.4	0.00e+00	0	39	0	2308964352	52	3985
2026-01-20 04:03:38.63	304.26	50.66	-40.2	-41.0	23.7	0.00e+00	0	38	0	2315255808	52	3827
2026-01-20 04:03:39.64	303.62	50.60	-40.1	-40.8	23.8	0.00e+00	0	39	0	2320498688	52	3772
2026-01-20 04:03:40.65	302.97	50.55	-40.1	-40.8	23.9	0.00e+00	0	39	0	2325741568	51	3990
2026-01-20 04:03:41.65	302.33	50.48	-40.3	-41.1	23.7	0.00e+00	0	38	0	2332033024	51	4103
2026-01-20 04:03:42.66	301.69	50.42	-40.7	-41.4	23.3	0.00e+00	0	38	0	2337275904	51	4282
2026-01-20 04:03:43.67	301.05	50.35	-40.4	-41.2	23.6	0.00e+00	0	39	0	2343567360	51	4167
2026-01-20 04:03:44.67	300.42	50.27	-40.4	-41.2	23.6	0.00e+00	0	39	0	2348810240	51	4155
2026-01-20 04:03:45.68	299.79	50.20	-40.3	-41.1	23.7	0.00e+00	0	38	0	2354053120	51	4126
2026-01-20 04:03:46.69	299.16	50.11	-40.3	-41.1	23.7	0.00e+00	0	38	0	2360344576	51	4107
2026-01-20 04:03:47.70	298.53	50.03	-40.3	-41.0	23.7	0.00e+00	0	39	0	2365587456	51	4078
2026-01-20 04:03:48.71	297.91	49.94	-40.4	-41.2	23.6	0.00e+00	0	39	0	2370830336	51	4170
2026-01-20 04:03:49.72	297.29	49.85	-40.6	-41.4	23.4	0.00e+00	0	39	0	2377121792	51	4267
2026-01-20 04:03:50.72	296.68	49.76	-40.4	-41.1	23.5	0.00e+00	0	39	0	2383413248	52	3911
2026-01-20 04:03:51.73	296.07	49.66	-40.2	-41.0	23.7	0.00e+00	0	39	0	2388656128	52	3826
2026-01-20 04:03:52.74	295.46	49.56	-40.4	-41.2	23.5	0.00e+00	0	38	0	2393899008	52	3923
2026-01-20 04:03:53.75	294.86	49.45	-40.4	-41.2	23.5	0.00e+00	0	39	0	2400190464	52	3931
2026-01-20 04:03:54.75	294.27	49.35	-40.2	-40.9	23.7	0.00e+00	0	39	0	2405433344	52	3803
2026-01-20 04:03:55.76	293.67	49.24	-40.1	-40.8	23.8	0.00e+00	0	39	0	2410676224	52	3763
2026-01-20 04:03:56.77	293.08	49.12	-40.2	-41.0	23.7	0.00e+00	0	39	0	2416967680	52	3825
2026-01-20 04:03:57.78	292.50	49.00	-40.3	-41.1	23.6	0.00e+00	0	39	0	2422210560	52	3893
2026-01-20 04:03:58.79	291.91	48.89	-40.1	-40.9	23.8	0.00e+00	0	38	0	2428502016	52	3788
2026-01-20 04:03:59.79	291.34	48.76	-40.0	-40.7	23.9	0.00e+00	0	38	0	2433744896	52	3730
2026-01-20 04:04:00.80	290.77	48.64	-40.1	-40.9	23.8	0.00e+00	0	38	0	2438987776	52	3784
2026-01-20 04:04:01.81	290.20	48.51	-40.1	-40.9	23.8	0.00e+00	0	39	0	2445279232	52	3781
2026-01-20 04:04:02.82	289.64	48.38	-40.2	-41.0	23.7	0.00e+00	0	38	0	2451570688	52	3848
2026-01-20 04:04:03.83	289.08	48.25	-40.3	-41.0	23.6	0.00e+00	0	38	0	2456813568	52	3862
2026-01-20 04:04:04.83	288.53	48.11	-40.2	-40.9	23.7	0.00e+00	0	38	0	2462056448	52	3811
2026-01-20 04:04:05.84	287.99	47.98	-40.2	-40.9	23.7	0.00e+00	0	39	0	2468347904	52	3809
2026-01-20 04:04:06.85	287.44	47.83	-40.2	-40.9	23.7	0.00e+00	0	38	0	2473590784	52	3824
2026-01-20 04:04:07.85	286.91	47.69	-40.3	-41.0	23.6	0.00e+00	0	39	0	2478833664	52	3865
2026-01-20 04:04:08.86	286.38	47.55	-40.3	-41.0	23.6	0.00e+00	0	39	0	2485125120	52	3860
2026-01-20 04:04:09.87	285.85	47.40	-40.1	-40.9	23.8	0.00e+00	0	39	0	2490368000	52	3796
2026-01-20 04:04:10.88	285.32	47.25	-40.1	-40.9	23.8	0.00e+00	0	39	0	2495610880	52	3802
2026-01-20 04:04:11.89	284.81	47.10	-40.1	-40.8	23.8	0.00e+00	0	39	0	2501902336	52	3770
2026-01-20 04:04:12.90	284.29	46.95	-40.0	-40.7	24.0	0.00e+00	0	39	0	2507145216	51	3938
2026-01-20 04:04:13.90	283.79	46.79	-39.9	-40.6	24.1	0.00e+00	0	39	0	2513436672	51	3911
2026-01-20 04:04:14.91	283.29	46.64	-39.9	-40.6	24.0	0.00e+00	0	39	0	2518679552	51	3913
2026-01-20 04:04:15.92	282.79	46.48	-39.8	-40.5	24.1	0.00e+00	0	39	0	2524971008	51	3864
2026-01-20 04:04:16.93	282.29	46.32	-39.6	-40.4	24.3	0.00e+00	0	39	0	2530213888	51	3797
2026-01-20 04:04:17.94	281.81	46.15	-39.6	-40.3	24.4	0.00e+00	0	38	0	2536505344	51	3747
2026-01-20 04:04:18.95	281.32	45.99	-39.3	-40.0	24.6	0.00e+00	0	38	0	2541748224	50	3850
2026-01-20 04:04:19.96	280.84	45.82	-39.3	-40.0	24.6	0.00e+00	0	39	0	2546991104	50	3853
2026-01-20 04:04:20.96	280.38	45.66	-39.4	-40.2	24.5	0.00e+00	0	39	0	2553282560	50	3922
2026-01-20 04:04:21.97	279.91	45.49	-39.4	-40.1	24.5	0.00e+00	0	39	0	2558525440	50	3891
2026-01-20 04:04:22.98	279.45	45.32	-39.5	-40.2	24.4	0.00e+00	0	39	0	2563768320	50	3947
2026-01-20 04:04:23.99	278.99	45.15	-39.5	-40.2	24.4	0.00e+00	0	38	0	2570059776	50	3953
2026-01-20 04:04:24.99	278.54	44.98	-39.7	-40.4	24.2	0.00e+00	0	39	0	2575302656	50	4041
2026-01-20 04:04:26.00	278.09	44.80	-39.8	-40.6	24.1	0.00e+00	0	39	0	2580545536	50	4114
2026-01-20 04:04:27.01	277.65	44.63	-39.6	-40.3	24.3	0.00e+00	0	38	0	2586836992	50	3990
2026-01-20 04:04:28.01	277.21	44.46	-39.5	-40.3	24.4	0.00e+00	0	38	0	2593128448	50	3968
2026-01-20 04:04:29.02	276.78	44.28	-39.6	-40.3	24.3	0.00e+00	0	39	0	2598371328	50	3986
2026-01-20 04:04:30.03	276.35	44.10	-39.6	-40.4	24.3	0.00e+00	0	39	0	2603614208	50	4006
2026-01-20 04:04:31.04	275.93	43.92	-39.7	-40.4	24.2	0.00e+00	0	38	0	2609905664	50	4045
2026-01-20 04:04:32.05	275.51	43.74	-39.5	-40.2	24.4	0.00e+00	0	38	0	2615148544	50	3937
2026-01-20 04:04:33.06	275.09	43.56	-39.3	-40.0	24.6	0.00e+00	0	38	0	2621440000	50	3867
2026-01-20 04:04:34.06	274.69	43.38	-39.4	-40.1	24.5	0.00e+00	0	39	0	2626682880	50	3883
2026-01-20 04:04:35.07	274.28	43.20	-39.4	-40.1	24.5	0.00e+00	0	39	0	2631925760	50	3891
2026-01-20 04:04:36.08	273.88	43.02	-39.2	-39.9	24.7	0.00e+00	0	38	0	2638217216	50	3789
2026-01-20 04:04:37.09	273.49	42.83	-39.2	-39.9	24.7	0.00e+00	0	39	0	2643460096	50	3818
2026-01-20 04:04:38.09	273.10	42.65	-39.4	-40.1	24.5	0.00e+00	0	38	0	2648702976	50	3893
2026-01-20 04:04:39.10	272.71	42.46	-39.6	-40.3	24.3	0.00e+00	0	38	0	2654994432	50	3987
2026-01-20 04:04:40.11	272.33	42.28	-39.7	-40.4	24.2	0.00e+00	0	38	0	2661285888	50	4042
2026-01-20 04:04:41.12	271.95	42.09	-39.8	-40.5	24.2	0.00e+00	0	39	0	2666528768	50	4084
2026-01-20 04:04:42.13	271.58	41.91	-39.8	-40.5	24.1	0.00e+00	0	39	0	2671771648	50	4088
2026-01-20 04:04:43.14	271.21	41.72	-39.7	-40.5	24.2	0.00e+00	0	39	0	2678063104	50	4060
2026-01-20 04:04:44.15	270.84	41.53	-39.8	-40.6	24.1	0.00e+00	0	38	0	2683305984	50	4119
2026-01-20 04:04:45.15	270.48	41.34	-39.6	-40.3	24.3	0.00e+00	0	38	0	2688548864	50	3975
2026-01-20 04:04:46.16	270.13	41.16	-39.5	-40.2	24.4	0.00e+00	0	38	0	2694840320	50	3926
2026-01-20 04:04:47.17	269.78	40.97	-39.5	-40.3	24.4	0.00e+00	0	38	0	2700083200	50	3968
2026-01-20 04:04:48.18	269.43	40.78	-39.7	-40.4	24.2	0.00e+00	0	39	0	2706374656	50	4040
2026-01-20 04:04:49.19	269.08	40.59	-39.7	-40.5	24.2	0.00e+00	0	38	0	2711617536	50	4067
2026-01-20 04:04:50.19	268.75	40.40	-39.6	-40.3	24.3	0.00e+00	0	38	0	2716860416	50	3991
2026-01-20 04:04:51.20	268.41	40.22	-39.6	-40.3	24.3	0.00e+00	0	39	0	2723151872	50	3974
2026-01-20 04:04:52.21	268.08	40.03	-39.6	-40.3	24.3	0.00e+00	0	38	0	2729443328	50	3972
2026-01-20 04:04:53.21	267.75	39.84	-39.6	-40.3	24.3	0.00e+00	0	38	0	2734686208	50	4000
2026-01-20 04:04:54.22	267.43	39.65	-39.6	-40.3	24.3	0.00e+00	0	39	0	2739929088	50	3981
2026-01-20 04:04:55.23	267.10	39.46	-39.5	-40.2	24.4	0.00e+00	0	38	0	2746220544	50	3944
2026-01-20 04:04:56.24	266.79	39.27	-39.5	-40.2	24.4	0.00e+00	0	39	0	2751463424	50	3936
2026-01-20 04:04:57.25	266.47	39.08	-39.2	-39.9	24.6	0.00e+00	0	39	0	2756706304	50	3820
2026-01-20 04:04:58.25	266.17	38.89	-39.3	-40.0	24.6	0.00e+00	0	38	0	2762997760	50	3842
2026-01-20 04:04:59.26	265.86	38.71	-39.1	-39.8	24.7	0.00e+00	0	38	0	2768240640	50	3765
2026-01-20 04:05:00.27	265.56	38.52	-39.1	-39.8	24.8	0.00e+00	0	38	0	2773483520	50	3753
2026-01-20 04:05:01.28	265.26	38.33	-39.0	-39.7	24.8	0.00e+00	0	38	0	2779774976	50	3702
2026-01-20 04:05:02.29	264.96	38.14	-39.1	-39.8	24.8	0.00e+00	0	38	0	2785017856	49	3965
2026-01-20 04:05:03.29	264.67	37.95	-39.1	-39.8	24.7	0.00e+00	0	39	0	2791309312	49	3967
2026-01-20 04:05:04.30	264.38	37.76	-39.1	-39.8	24.7	0.00e+00	0	39	0	2796552192	49	3984
2026-01-20 04:05:05.31	264.10	37.58	-39.2	-39.9	24.6	0.00e+00	0	38	0	2802843648	49	4045
2026-01-20 04:05:06.32	263.82	37.39	-39.3	-40.0	24.5	0.00e+00	0	39	0	2808086528	49	4088
2026-01-20 04:05:07.32	263.54	37.20	-39.4	-40.2	24.4	0.00e+00	0	39	0	2814377984	49	4146
2026-01-20 04:05:08.34	263.26	37.01	-39.5	-40.2	24.3	0.00e+00	0	38	0	2819620864	49	4191
2026-01-20 04:05:09.34	262.99	36.83	-39.4	-40.2	24.4	0.00e+00	0	38	0	2824863744	49	4151
2026-01-20 04:05:10.35	262.72	36.64	-39.4	-40.2	24.4	0.00e+00	0	38	0	2831155200	49	4151
2026-01-20 04:05:11.36	262.45	36.46	-39.2	-39.9	24.6	0.00e+00	0	38	0	2836398080	49	4028
2026-01-20 04:05:12.37	262.19	36.27	-39.1	-39.8	24.7	0.00e+00	0	38	0	2841640960	49	3998
2026-01-20 04:05:13.37	261.93	36.09	-39.1	-39.8	24.7	0.00e+00	0	38	0	2847932416	49	3959
2026-01-20 04:05:14.38	261.68	35.90	-39.1	-39.8	24.7	0.00e+00	0	38	0	2853175296	49	3979
2026-01-20 04:05:15.39	261.42	35.72	-39.2	-39.9	24.6	0.00e+00	0	39	0	2858418176	49	4033
2026-01-20 04:05:16.40	261.17	35.53	-39.1	-39.8	24.7	0.00e+00	0	39	0	2864709632	49	3992
2026-01-20 04:05:17.41	260.92	35.35	-39.1	-39.9	24.6	0.00e+00	0	39	0	2871001088	49	4005
2026-01-20 04:05:18.42	260.67	35.16	-39.1	-39.8	24.7	0.00e+00	0	38	0	2876243968	49	3997
2026-01-20 04:05:19.43	260.43	34.98	-39.1	-39.9	24.6	0.00e+00	0	38	0	2881486848	49	4008
2026-01-20 04:05:20.44	260.19	34.80	-39.1	-39.8	24.7	0.00e+00	0	38	0	2887778304	49	3986
2026-01-20 04:05:21.44	259.96	34.62	-39.2	-39.9	24.6	0.00e+00	0	38	0	2893021184	49	4031
2026-01-20 04:05:22.45	259.72	34.44	-39.2	-40.0	24.5	0.00e+00	0	38	0	2899312640	49	4064
2026-01-20 04:05:23.46	259.49	34.26	-39.3	-40.0	24.5	0.00e+00	0	38	0	2904555520	49	4095
2026-01-20 04:05:24.47	259.26	34.08	-39.2	-39.9	24.6	0.00e+00	0	38	0	2909798400	49	4034
2026-01-20 04:05:25.47	259.03	33.90	-39.1	-39.8	24.7	0.00e+00	0	38	0	2916089856	49	3967
2026-01-20 04:05:26.48	258.81	33.72	-39.0	-39.7	24.7	0.00e+00	0	38	0	2921332736	49	3957
2026-01-20 04:05:27.49	258.59	33.54	-39.1	-39.8	24.6	0.00e+00	0	38	0	2926575616	49	3995
2026-01-20 04:05:28.50	258.37	33.36	-39.2	-39.9	24.5	0.00e+00	0	39	0	2932867072	49	4036
2026-01-20 04:05:29.51	258.15	33.18	-39.3	-40.0	24.5	0.00e+00	0	39	0	2938109952	49	4080
2026-01-20 04:05:30.51	257.94	33.01	-39.4	-40.1	24.4	0.00e+00	0	38	0	2944401408	49	4133
2026-01-20 04:05:31.52	257.72	32.83	-39.4	-40.1	24.3	0.00e+00	0	39	0	2949644288	49	4144
2026-01-20 04:05:32.53	257.51	32.65	-39.5	-40.3	24.2	0.00e+00	0	39	0	2955935744	49	4205
2026-01-20 04:05:33.54	257.30	32.48	-39.6	-40.4	24.2	0.00e+00	0	38	0	2961178624	49	4251
2026-01-20 04:05:34.55	257.10	32.30	-39.7	-40.4	24.1	0.00e+00	0	38	0	2966421504	49	4280
2026-01-20 04:05:35.55	256.90	32.13	-39.7	-40.5	24.0	0.00e+00	0	38	0	2972712960	50	4058
2026-01-20 04:05:36.56	256.69	31.96	-39.6	-40.3	24.1	0.00e+00	0	38	0	2977955840	50	3997
2026-01-20 04:05:37.57	256.50	31.78	-39.5	-40.2	24.3	0.00e+00	0	38	0	2984247296	50	3932
2026-01-20 04:05:38.58	256.30	31.61	-39.4	-40.1	24.4	0.00e+00	0	38	0	2989490176	50	3891
2026-01-20 04:05:39.59	256.10	31.44	-39.2	-39.9	24.6	0.00e+00	0	38	0	2994733056	50	3787
2026-01-20 04:05:40.59	255.91	31.27	-39.3	-40.0	24.5	0.00e+00	0	38	0	3001024512	50	3841
2026-01-20 04:05:41.60	255.72	31.10	-39.2	-39.9	24.5	0.00e+00	0	38	0	3006267392	50	3810
2026-01-20 04:05:42.61	255.53	30.93	-39.4	-40.1	24.4	0.00e+00	0	38	0	3012558848	50	3888
2026-01-20 04:05:43.62	255.35	30.76	-39.5	-40.3	24.2	0.00e+00	0	38	0	3017801728	50	3962
2026-01-20 04:05:44.63	255.16	30.59	-39.6	-40.3	24.2	0.00e+00	0	38	0	3024093184	50	3998
2026-01-20 04:05:45.64	254.98	30.42	-39.6	-40.3	24.2	0.00e+00	0	39	0	3029336064	50	3980
2026-01-20 04:05:46.64	254.80	30.26	-39.6	-40.3	24.2	0.00e+00	0	38	0	3034578944	50	3988
2026-01-20 04:05:47.65	254.62	30.09	-39.6	-40.4	24.1	0.00e+00	0	39	0	3040870400	50	4007
2026-01-20 04:05:48.66	254.44	29.92	-39.6	-40.3	24.2	0.00e+00	0	38	0	3046113280	50	3995
2026-01-20 04:05:49.67	254.27	29.76	-39.7	-40.4	24.1	0.00e+00	0	38	0	3051356160	50	4036
2026-01-20 04:05:50.67	254.09	29.60	-39.6	-40.4	24.1	0.00e+00	0	39	0	3057647616	50	4012
2026-01-20 04:05:51.68	253.92	29.43	-39.7	-40.5	24.0	0.00e+00	0	39	0	3062890496	50	4062
2026-01-20 04:05:52.69	253.75	29.27	-39.7	-40.5	24.0	0.00e+00	0	39	0	3069181952	50	4055
2026-01-20 04:05:53.70	253.58	29.11	-39.9	-40.6	23.9	0.00e+00	0	38	0	3074424832	50	4124
2026-01-20 04:05:54.71	253.42	28.94	-39.8	-40.5	24.0	0.00e+00	0	38	0	3079667712	50	4082
2026-01-20 04:05:55.71	253.25	28.78	-40.0	-40.7	23.8	0.00e+00	0	38	0	3085959168	50	4168
2026-01-20 04:05:56.72	253.09	28.62	-39.9	-40.7	23.8	0.00e+00	0	38	0	3092250624	50	4152
2026-01-20 04:05:57.73	252.93	28.46	-40.0	-40.8	23.7	0.00e+00	0	38	0	3097493504	50	4198
2026-01-20 04:05:58.74	252.77	28.30	-40.1	-40.8	23.7	0.00e+00	0	38	0	3102736384	50	4220
2026-01-20 04:05:59.74	252.61	28.14	-40.1	-40.8	23.7	0.00e+00	0	39	0	3109027840	50	4224
2026-01-20 04:06:00.75	252.45	27.99	-40.1	-40.8	23.7	0.00e+00	0	38	0	3114270720	50	4221
2026-01-20 04:06:01.76	252.30	27.83	-40.0	-40.8	23.7	0.00e+00	0	38	0	3119513600	50	4202
2026-01-20 04:06:02.77	252.15	27.67	-39.9	-40.7	23.8	0.00e+00	0	38	0	3125805056	50	4168
2026-01-20 04:06:03.78	251.99	27.52	-39.9	-40.6	23.8	0.00e+00	0	39	0	3131047936	50	4142
2026-01-20 04:06:04.79	251.84	27.36	-39.9	-40.6	23.9	0.00e+00	0	39	0	3136290816	50	4126
2026-01-20 04:06:05.79	251.69	27.21	-39.9	-40.6	23.8	0.00e+00	0	39	0	3142582272	50	4145
2026-01-20 04:06:06.80	251.55	27.05	-39.9	-40.6	23.8	0.00e+00	0	38	0	3147825152	50	4121
2026-01-20 04:06:07.81	251.40	26.90	-39.8	-40.6	23.9	0.00e+00	0	39	0	3154116608	50	4113
2026-01-20 04:06:08.82	251.26	26.75	-39.8	-40.6	23.8	0.00e+00	0	38	0	3159359488	50	4119
2026-01-20 04:06:09.83	251.11	26.59	-39.7	-40.4	24.0	0.00e+00	0	39	0	3165650944	50	4033
2026-01-20 04:06:10.84	250.97	26.44	-39.8	-40.5	23.9	0.00e+00	0	38	0	3170893824	50	4068
2026-01-20 04:06:11.85	250.83	26.29	-39.8	-40.5	23.9	0.00e+00	0	39	0	3177185280	50	4085
2026-01-20 04:06:12.85	250.69	26.14	-39.8	-40.6	23.9	0.00e+00	0	39	0	3182428160	50	4105
2026-01-20 04:06:13.86	250.55	25.99	-39.8	-40.5	23.9	0.00e+00	0	38	0	3187671040	50	4075
2026-01-20 04:06:14.87	250.42	25.84	-39.8	-40.5	23.9	0.00e+00	0	38	0	3193962496	50	4073
2026-01-20 04:06:15.88	250.28	25.69	-39.7	-40.5	23.9	0.00e+00	0	39	0	3199205376	50	4069
2026-01-20 04:06:16.89	250.15	25.55	-39.7	-40.5	23.9	0.00e+00	0	39	0	3204448256	50	4067
2026-01-20 04:06:17.89	250.02	25.40	-39.9	-40.7	23.8	0.00e+00	0	39	0	3210739712	50	4157
2026-01-20 04:06:18.90	249.88	25.25	-39.9	-40.7	23.8	0.00e+00	0	38	0	3215982592	50	4148
2026-01-20 04:06:19.91	249.75	25.11	-39.9	-40.6	23.8	0.00e+00	0	39	0	3222274048	50	4143
2026-01-20 04:06:20.92	249.62	24.96	-40.0	-40.7	23.7	0.00e+00	0	38	0	3227516928	50	4170
2026-01-20 04:06:21.93	249.50	24.82	-40.0	-40.8	23.7	0.00e+00	0	38	0	3233808384	50	4199
2026-01-20 04:06:22.94	249.37	24.67	-40.0	-40.8	23.6	0.00e+00	0	38	0	3239051264	50	4208
2026-01-20 04:06:23.95	249.24	24.53	-39.9	-40.6	23.8	0.00e+00	0	38	0	3244294144	50	4138
2026-01-20 04:06:24.95	249.12	24.39	-39.9	-40.7	23.7	0.00e+00	0	38	0	3250585600	50	4167
2026-01-20 04:06:25.96	249.00	24.25	-40.0	-40.7	23.7	0.00e+00	0	38	0	3255828480	50	4175
2026-01-20 04:06:26.97	248.88	24.11	-40.0	-40.7	23.7	0.00e+00	0	39	0	3262119936	50	4191
2026-01-20 04:06:27.98	248.75	23.97	-40.0	-40.8	23.6	0.00e+00	0	38	0	3267362816	50	4207
2026-01-20 04:06:28.98	248.64	23.83	-40.1	-40.9	23.5	0.00e+00	0	38	0	3272605696	50	4254
2026-01-20 04:06:29.99	248.52	23.69	-40.1	-40.8	23.6	0.00e+00	0	38	0	3278897152	50	4235
2026-01-20 04:06:31.00	248.40	23.55	-40.2	-40.9	23.5	0.00e+00	0	38	0	3284140032	51	4040
2026-01-20 04:06:32.01	248.28	23.41	-40.1	-40.9	23.5	0.00e+00	0	38	0	3290431488	51	4027
2026-01-20 04:06:33.02	248.17	23.27	-40.2	-41.0	23.4	0.00e+00	0	38	0	3295674368	51	4076
2026-01-20 04:06:34.03	248.05	23.13	-40.2	-40.9	23.5	0.00e+00	0	38	0	3301965824	51	4045
2026-01-20 04:06:35.04	247.94	23.00	-40.2	-41.0	23.4	0.00e+00	0	39	0	3307208704	51	4052
2026-01-20 04:06:36.04	247.83	22.86	-40.1	-40.9	23.5	0.00e+00	0	39	0	3312451584	51	4013
2026-01-20 04:06:37.05	247.72	22.73	-40.2	-40.9	23.5	0.00e+00	0	39	0	3318743040	51	4048
2026-01-20 04:06:38.06	247.61	22.59	-40.1	-40.9	23.5	0.00e+00	0	38	0	3323985920	51	4030
2026-01-20 04:06:39.07	247.50	22.46	-40.0	-40.8	23.6	0.00e+00	0	38	0	3329228800	51	3967
2026-01-20 04:06:40.07	247.39	22.33	-40.1	-40.8	23.5	0.00e+00	0	38	0	3335520256	51	3990
2026-01-20 04:06:41.08	247.28	22.19	-40.1	-40.8	23.6	0.00e+00	0	39	0	3340763136	51	3984
2026-01-20 04:06:42.09	247.17	22.06	-39.9	-40.6	23.7	0.00e+00	0	39	0	3347054592	51	3908
2026-01-20 04:06:43.09	247.07	21.93	-39.9	-40.7	23.7	0.00e+00	0	39	0	3352297472	51	3916
2026-01-20 04:06:44.10	246.96	21.80	-39.8	-40.6	23.8	0.00e+00	0	38	0	3357540352	51	3881
2026-01-20 04:06:45.11	246.86	21.67	-39.9	-40.6	23.7	0.00e+00	0	38	0	3363831808	51	3910
2026-01-20 04:06:46.12	246.76	21.54	-40.0	-40.7	23.6	0.00e+00	0	38	0	3370123264	51	3935
2026-01-20 04:06:47.13	246.65	21.41	-40.0	-40.7	23.6	0.00e+00	0	38	0	3375366144	51	3951
2026-01-20 04:06:48.14	246.55	21.28	-40.0	-40.7	23.6	0.00e+00	0	39	0	3380609024	51	3955
2026-01-20 04:06:49.14	246.45	21.15	-40.1	-40.9	23.5	0.00e+00	0	39	0	3386900480	51	4008
2026-01-20 04:06:50.15	246.35	21.02	-40.2	-40.9	23.4	0.00e+00	0	38	0	3392143360	51	4050
2026-01-20 04:06:51.16	246.26	20.90	-40.3	-41.0	23.3	0.00e+00	0	38	0	3397386240	51	4082
2026-01-20 04:06:52.17	246.16	20.77	-40.4	-41.2	23.2	0.00e+00	0	38	0	3403677696	51	4160
2026-01-20 04:06:53.17	246.06	20.64	-40.4	-41.1	23.2	0.00e+00	0	39	0	3408920576	51	4132
2026-01-20 04:06:54.18	245.96	20.52	-40.5	-41.3	23.1	0.00e+00	0	39	0	3414163456	51	4217
2026-01-20 04:06:55.19	245.87	20.39	-40.6	-41.4	23.0	0.00e+00	0	38	0	3420454912	51	4244
2026-01-20 04:06:56.20	245.77	20.27	-40.6	-41.4	22.9	0.00e+00	0	38	0	3425697792	52	4044
2026-01-20 04:06:57.21	245.68	20.14	-40.7	-41.5	22.8	0.00e+00	0	38	0	3431989248	52	4069
2026-01-20 04:06:58.21	245.59	20.02	-40.7	-41.5	22.8	0.00e+00	0	39	0	3437232128	52	4088
2026-01-20 04:06:59.22	245.50	19.90	-40.8	-41.6	22.7	0.00e+00	0	38	0	3443523584	52	4119
2026-01-20 04:07:00.23	245.40	19.78	-40.9	-41.8	22.6	0.00e+00	0	39	0	3448766464	52	4194
2026-01-20 04:07:01.24	245.31	19.65	-40.9	-41.7	22.6	0.00e+00	0	38	0	3455057920	52	4174
2026-01-20 04:07:02.25	245.22	19.53	-40.9	-41.7	22.6	0.00e+00	0	38	0	3460300800	52	4176
2026-01-20 04:07:03.25	245.13	19.41	-41.0	-41.8	22.5	0.00e+00	0	38	0	3465543680	52	4224
2026-01-20 04:07:04.26	245.05	19.29	-41.0	-41.8	22.5	0.00e+00	0	38	0	3471835136	52	4223
2026-01-20 04:07:05.27	244.96	19.17	-40.9	-41.8	22.6	0.00e+00	0	38	0	3477078016	52	4195
2026-01-20 04:07:06.28	244.87	19.05	-40.9	-41.8	22.6	0.00e+00	0	38	0	3482320896	52	4203
2026-01-20 04:07:07.28	244.79	18.93	-40.8	-41.6	22.6	0.00e+00	0	38	0	3488612352	52	4145
2026-01-20 04:07:08.29	244.70	18.82	-40.9	-41.7	22.6	0.00e+00	0	38	0	3493855232	52	4160
2026-01-20 04:07:09.30	244.61	18.70	-41.0	-41.8	22.5	0.00e+00	0	39	0	3499098112	52	4231
2026-01-20 04:07:10.31	244.53	18.58	-40.9	-41.8	22.5	0.00e+00	0	39	0	3505389568	52	4196
2026-01-20 04:07:11.32	244.45	18.46	-40.9	-41.7	22.6	0.00e+00	0	39	0	3511681024	52	4163
2026-01-20 04:07:12.33	244.36	18.35	-41.0	-41.8	22.5	0.00e+00	0	38	0	3516923904	52	4208
2026-01-20 04:07:13.33	244.28	18.23	-41.1	-41.9	22.4	0.00e+00	0	39	0	3522166784	52	4253
2026-01-20 04:07:14.34	244.20	18.12	-41.1	-41.9	22.4	0.00e+00	0	38	0	3528458240	52	4266
2026-01-20 04:07:15.35	244.12	18.00	-41.1	-41.9	22.4	0.00e+00	0	38	0	3533701120	52	4263
2026-01-20 04:07:16.36	244.04	17.89	-41.1	-41.9	22.4	0.00e+00	0	38	0	3539992576	52	4277
2026-01-20 04:07:17.37	243.96	17.77	-41.2	-42.0	22.3	0.00e+00	0	39	0	3545235456	52	4317
2026-01-20 04:07:18.37	243.88	17.66	-41.2	-42.0	22.2	0.00e+00	0	39	0	3550478336	53	4083
2026-01-20 04:07:19.38	243.80	17.55	-41.1	-41.9	22.4	0.00e+00	0	38	0	3556769792	53	4037
2026-01-20 04:07:20.39	243.72	17.43	-41.2	-42.0	22.3	0.00e+00	0	38	0	3562012672	53	4070
2026-01-20 04:07:21.40	243.64	17.32	-41.3	-42.1	22.2	0.00e+00	0	39	0	3567255552	53	4119
2026-01-20 04:07:22.41	243.57	17.21	-41.2	-42.0	22.2	0.00e+00	0	39	0	3573547008	53	4095
2026-01-20 04:07:23.41	243.49	17.10	-41.2	-42.1	22.2	0.00e+00	0	38	0	3579838464	53	4102
2026-01-20 04:07:24.42	243.42	16.99	-41.3	-42.1	22.2	0.00e+00	0	39	0	3585081344	53	4116
2026-01-20 04:07:25.43	243.34	16.88	-41.4	-42.3	22.0	0.00e+00	0	39	0	3590324224	53	4194
2026-01-20 04:07:26.44	243.27	16.77	-41.3	-42.1	22.1	0.00e+00	0	39	0	3596615680	53	4130
2026-01-20 04:07:27.44	243.19	16.66	-41.4	-42.2	22.1	0.00e+00	0	38	0	3601858560	53	4162
2026-01-20 04:07:28.45	243.12	16.55	-41.5	-42.3	22.0	0.00e+00	0	38	0	3607101440	53	4211
2026-01-20 04:07:29.46	243.05	16.44	-41.5	-42.3	21.9	0.00e+00	0	38	0	3613392896	53	4214
2026-01-20 04:07:30.47	242.97	16.33	-41.5	-42.4	21.9	0.00e+00	0	39	0	3618635776	53	4257
2026-01-20 04:07:31.47	242.90	16.23	-41.6	-42.5	21.8	0.00e+00	0	38	0	3624927232	53	4298
2026-01-20 04:07:32.48	242.83	16.12	-41.7	-42.6	21.7	0.00e+00	0	39	0	3630170112	54	4120
2026-01-20 04:07:33.49	242.76	16.01	-41.8	-42.6	21.6	0.00e+00	0	38	0	3635412992	54	4137
2026-01-20 04:07:34.50	242.69	15.91	-41.8	-42.7	21.5	0.00e+00	0	38	0	3641704448	54	4184
2026-01-20 04:07:35.51	242.62	15.80	-41.8	-42.7	21.6	0.00e+00	0	39	0	3647995904	54	4160
2026-01-20 04:07:36.51	242.55	15.69	-41.9	-42.8	21.4	0.00e+00	0	38	0	3653238784	54	4233
2026-01-20 04:07:37.52	242.48	15.59	-42.0	-42.9	21.4	0.00e+00	0	39	0	3658481664	54	4258
2026-01-20 04:07:38.53	242.42	15.48	-42.1	-43.0	21.3	0.00e+00	0	38	0	3664773120	54	4298
2026-01-20 04:07:39.54	242.35	15.38	-42.0	-42.9	21.4	0.00e+00	0	38	0	3670016000	54	4260
2026-01-20 04:07:40.54	242.28	15.28	-42.0	-42.9	21.3	0.00e+00	0	38	0	3675258880	54	4274
2026-01-20 04:07:41.55	242.22	15.17	-42.1	-43.0	21.3	0.00e+00	0	38	0	3681550336	54	4314
2026-01-20 04:07:42.56	242.15	15.07	-42.1	-43.0	21.2	0.00e+00	0	38	0	3686793216	54	4326
2026-01-20 04:07:43.57	242.08	14.97	-42.2	-43.1	21.1	0.00e+00	0	39	0	3692036096	54	4389
2026-01-20 04:07:44.57	242.02	14.86	-42.1	-43.0	21.2	0.00e+00	0	38	0	3698327552	55	4084
2026-01-20 04:07:45.58	241.95	14.76	-42.1	-43.0	21.3	0.00e+00	0	38	0	3703570432	55	4052
2026-01-20 04:07:46.60	241.89	14.66	-42.0	-42.9	21.4	0.00e+00	0	38	0	3709861888	55	4030
2026-01-20 04:07:47.60	241.83	14.56	-42.0	-42.9	21.3	0.00e+00	0	38	0	3715104768	55	4050
2026-01-20 04:07:48.61	241.76	14.46	-42.0	-42.9	21.4	0.00e+00	0	38	0	3721396224	55	4012
2026-01-20 04:07:49.62	241.70	14.36	-42.1	-43.0	21.3	0.00e+00	0	38	0	3726639104	55	4076
2026-01-20 04:07:50.63	241.64	14.26	-42.0	-42.9	21.4	0.00e+00	0	39	0	3732930560	55	4014
2026-01-20 04:07:51.63	241.57	14.16	-42.0	-42.9	21.4	0.00e+00	0	38	0	3738173440	55	4012
