passes_logs/2026/01/20/R3.2S_Murmansk/R3.2S_Murmansk__20260120_072554_NOAA_21_JPSS-2_rec.log

#Pass ID: 20260120_072554_NOAA 21 (JPSS-2)
#Satellite: NOAA 21 (JPSS-2)
#Configuration: NOAA-21
#almurnet v.1.7.20251203
#Start time: 2026-01-20 07:25:55

#Version: 2.2.20231116
#Station: R3.2S_Murmansk
#Location: 33.079688 lon 68.888172 lat
#TLE: 1 54234U 22150A   26019.94667805  .00000106  00000+0  71222-4 0  9995
#TLE: 2 54234  98.7505 320.7866 0000607 253.4528 106.6582 14.19535964165511

#Time	Az	El	Level	Level2	SNR	BER	BlckErr	Temp	State	Recorded	gain1	gain2
2026-01-20 07:25:55.51	103.96	2.04	-51.3	-64.0	3.8	1.49e+00	0	37	0	0	74	15291
2026-01-20 07:25:56.52	103.91	2.11	-51.3	-64.0	3.8	1.49e+00	0	37	104	0	73	16225
2026-01-20 07:25:57.53	103.87	2.17	-51.3	-64.0	3.8	1.49e+00	0	37	104	0	73	16147
2026-01-20 07:25:58.54	103.82	2.23	-51.3	-63.9	3.8	1.49e+00	0	37	104	0	73	16054
2026-01-20 07:25:59.54	103.78	2.29	-51.3	-63.9	3.8	1.49e+00	0	37	104	0	73	16096
2026-01-20 07:26:00.55	103.73	2.35	-51.3	-63.9	3.8	1.49e+00	0	37	104	0	73	16092
2026-01-20 07:26:01.56	103.69	2.41	-51.3	-63.9	3.8	1.49e+00	0	37	104	0	73	16040
2026-01-20 07:26:02.57	103.64	2.48	-51.3	-63.9	3.8	1.49e+00	0	37	104	0	73	16006
2026-01-20 07:26:03.57	103.60	2.54	-51.3	-63.9	3.8	1.49e+00	0	37	104	0	73	15995
2026-01-20 07:26:04.58	103.55	2.60	-51.3	-63.9	3.8	1.49e+00	0	37	104	0	73	16052
2026-01-20 07:26:05.59	103.50	2.66	-51.3	-63.9	3.8	1.49e+00	0	37	104	0	73	16033
2026-01-20 07:26:06.59	103.46	2.72	-51.3	-63.9	3.8	1.49e+00	0	37	104	0	73	16012
2026-01-20 07:26:07.60	103.41	2.79	-51.3	-63.9	3.8	1.49e+00	0	37	104	0	73	16104
2026-01-20 07:26:08.61	103.36	2.85	-51.3	-63.9	3.8	1.49e+00	0	37	104	0	73	16047
2026-01-20 07:26:09.62	103.32	2.91	-51.3	-63.9	3.8	1.49e+00	0	37	104	0	73	16016
2026-01-20 07:26:10.63	103.27	2.98	-51.3	-63.9	3.8	1.49e+00	0	37	104	0	73	16024
2026-01-20 07:26:11.64	103.22	3.04	-51.3	-63.9	3.8	1.49e+00	0	37	104	0	73	15986
2026-01-20 07:26:12.64	103.17	3.10	-51.3	-63.9	3.8	1.49e+00	0	37	104	0	73	15999
2026-01-20 07:26:13.65	103.12	3.17	-51.3	-63.9	3.8	1.49e+00	0	37	104	0	73	15980
2026-01-20 07:26:14.66	103.08	3.23	-51.3	-63.9	3.8	1.49e+00	0	37	104	0	73	16044
2026-01-20 07:26:15.67	103.03	3.29	-51.3	-63.9	3.8	1.49e+00	0	37	104	0	73	16050
2026-01-20 07:26:16.67	102.98	3.36	-51.3	-63.9	3.8	1.49e+00	0	37	104	0	73	16107
2026-01-20 07:26:17.68	102.93	3.42	-51.3	-64.0	3.8	1.49e+00	0	37	104	0	73	16192
2026-01-20 07:26:18.69	102.88	3.48	-51.3	-64.0	3.8	1.49e+00	0	37	104	0	73	16155
2026-01-20 07:26:19.69	102.83	3.55	-51.3	-63.9	3.8	1.49e+00	0	37	104	0	73	15982
2026-01-20 07:26:20.70	102.78	3.61	-51.3	-63.7	3.8	1.49e+00	0	37	104	0	73	15743
2026-01-20 07:26:21.71	102.73	3.68	-51.2	-63.5	3.8	1.49e+00	0	37	104	0	73	15227
2026-01-20 07:26:22.72	102.68	3.74	-51.2	-63.1	3.8	1.49e+00	0	37	104	0	73	14587
2026-01-20 07:26:23.73	102.63	3.81	-51.2	-62.8	3.8	1.49e+00	0	37	104	0	73	14147
2026-01-20 07:26:24.74	102.58	3.87	-51.1	-62.3	3.8	1.49e+00	0	37	104	0	73	13377
2026-01-20 07:26:25.74	102.53	3.94	-51.1	-61.4	4.0	1.49e+00	0	37	104	0	73	12091
2026-01-20 07:26:26.75	102.48	4.00	-51.0	-61.0	4.0	1.48e+00	0	37	104	0	73	11511
2026-01-20 07:26:27.76	102.43	4.07	-50.9	-60.1	4.3	1.47e+00	0	38	104	0	73	10336
2026-01-20 07:26:28.77	102.38	4.13	-50.9	-59.8	4.4	1.45e+00	0	37	104	0	73	10042
2026-01-20 07:26:29.77	102.33	4.20	-50.8	-59.9	4.0	1.12e+00	0	37	104	0	73	10123
2026-01-20 07:26:30.78	102.27	4.26	-50.7	-58.3	5.1	6.25e-01	0	38	0	1048576	73	8387
2026-01-20 07:26:31.79	102.22	4.33	-50.5	-57.3	5.7	4.04e-01	0	37	0	4194304	72	7947
2026-01-20 07:26:32.80	102.17	4.39	-50.3	-56.5	6.3	2.69e-01	0	37	0	7340032	72	7249
2026-01-20 07:26:33.80	102.12	4.46	-50.1	-56.0	6.8	2.04e-01	0	38	0	10485760	72	6822
2026-01-20 07:26:34.81	102.06	4.53	-50.0	-55.6	7.1	1.58e-01	0	38	0	13631488	72	6551
2026-01-20 07:26:35.82	102.01	4.59	-49.9	-55.1	7.6	9.51e-02	0	38	0	16777216	71	6550
2026-01-20 07:26:36.83	101.96	4.66	-50.0	-55.3	7.5	9.78e-02	0	38	0	19922944	71	6668
2026-01-20 07:26:37.84	101.90	4.73	-50.1	-55.6	7.2	1.32e-01	0	38	0	23068672	71	6910
2026-01-20 07:26:38.84	101.85	4.79	-50.0	-55.5	7.4	9.16e-02	0	38	0	26214400	71	6804
2026-01-20 07:26:39.85	101.79	4.86	-50.0	-55.4	7.4	1.10e-01	0	38	0	29360128	71	6746
2026-01-20 07:26:40.86	101.74	4.93	-50.2	-56.0	6.7	1.85e-01	0	38	0	32505856	71	7287
2026-01-20 07:26:41.87	101.68	4.99	-50.3	-56.4	6.4	2.35e-01	0	38	0	35651584	71	7621
2026-01-20 07:26:42.88	101.63	5.06	-49.4	-53.5	9.3	3.78e-02	0	38	0	38797312	70	5765
2026-01-20 07:26:43.88	101.57	5.13	-49.9	-54.8	8.1	4.78e-02	0	38	0	41943040	70	6650
2026-01-20 07:26:44.89	101.52	5.19	-51.1	-61.3	3.9	2.58e-01	0	38	104	44040192	72	12649
2026-01-20 07:26:45.90	101.46	5.26	-47.6	-50.1	12.9	6.54e-02	0	38	0	45088768	67	4632
2026-01-20 07:26:46.90	101.41	5.33	-50.9	-59.0	4.9	2.13e-01	0	37	0	47185920	72	9663
2026-01-20 07:26:47.91	101.35	5.40	-47.7	-50.3	12.7	2.09e-02	0	38	0	49283072	67	4719
2026-01-20 07:26:48.92	101.29	5.47	-47.4	-49.8	13.4	2.21e-05	0	38	0	52428800	66	4720
2026-01-20 07:26:49.93	101.24	5.53	-47.2	-49.5	13.6	6.80e-06	0	38	0	55574528	66	4556
2026-01-20 07:26:50.94	101.18	5.60	-46.7	-48.7	14.4	7.00e-07	0	38	0	58720256	65	4417
2026-01-20 07:26:51.94	101.12	5.67	-46.7	-48.7	14.4	1.50e-06	0	38	0	61865984	65	4429
2026-01-20 07:26:52.95	101.06	5.74	-46.7	-48.8	14.3	0.00e+00	0	38	0	65011712	65	4458
2026-01-20 07:26:53.96	101.00	5.81	-46.7	-48.7	14.4	0.00e+00	0	38	0	68157440	65	4420
2026-01-20 07:26:54.97	100.95	5.88	-46.8	-49.0	14.1	5.30e-06	0	38	0	71303168	65	4560
2026-01-20 07:26:55.97	100.89	5.95	-46.5	-48.6	14.6	7.00e-07	0	38	0	74448896	64	4600
2026-01-20 07:26:56.98	100.83	6.02	-46.4	-48.3	14.8	7.00e-07	0	38	0	77594624	64	4470
2026-01-20 07:26:57.99	100.77	6.09	-46.4	-48.4	14.8	7.00e-07	0	38	0	80740352	64	4494
2026-01-20 07:26:58.99	100.71	6.16	-46.4	-48.3	14.7	0.00e+00	0	38	0	83886080	64	4487
2026-01-20 07:27:00.00	100.65	6.23	-46.5	-48.5	14.7	7.00e-07	0	38	0	87031808	64	4562
2026-01-20 07:27:01.01	100.59	6.30	-46.4	-48.3	14.8	0.00e+00	0	38	0	90177536	64	4455
2026-01-20 07:27:02.02	100.53	6.37	-46.5	-48.4	14.7	0.00e+00	0	38	0	93323264	64	4540
2026-01-20 07:27:03.03	100.47	6.44	-46.5	-48.5	14.6	0.00e+00	0	38	0	96468992	64	4589
2026-01-20 07:27:04.03	100.41	6.51	-46.5	-48.5	14.6	1.50e-06	0	38	0	99614720	64	4597
2026-01-20 07:27:05.04	100.35	6.58	-46.5	-48.5	14.6	0.00e+00	0	38	0	102760448	64	4581
2026-01-20 07:27:06.05	100.28	6.65	-46.4	-48.3	14.8	0.00e+00	0	38	0	105906176	64	4474
2026-01-20 07:27:07.06	100.22	6.72	-46.3	-48.2	15.0	0.00e+00	0	38	0	109051904	64	4392
2026-01-20 07:27:08.07	100.16	6.79	-46.2	-48.1	15.1	0.00e+00	0	38	0	112197632	64	4364
2026-01-20 07:27:09.08	100.10	6.86	-46.2	-48.1	15.1	0.00e+00	0	38	0	115343360	64	4373
2026-01-20 07:27:10.08	100.03	6.93	-46.1	-48.0	15.2	0.00e+00	0	38	0	118489088	64	4305
2026-01-20 07:27:11.09	99.97	7.00	-46.3	-48.2	15.0	0.00e+00	0	38	0	121634816	64	4395
2026-01-20 07:27:12.09	99.91	7.07	-46.2	-48.1	15.1	0.00e+00	0	38	0	124780544	64	4378
2026-01-20 07:27:13.10	99.84	7.15	-46.2	-48.1	15.1	0.00e+00	0	38	0	127926272	64	4373
2026-01-20 07:27:14.11	99.78	7.22	-46.0	-47.8	15.3	0.00e+00	0	38	0	131072000	64	4240
2026-01-20 07:27:15.12	99.71	7.29	-46.0	-47.7	15.6	0.00e+00	0	38	0	134217728	63	4436
2026-01-20 07:27:16.13	99.65	7.36	-46.0	-47.8	15.5	0.00e+00	0	38	0	137363456	63	4482
2026-01-20 07:27:17.14	99.58	7.44	-45.9	-47.6	15.7	0.00e+00	0	38	0	140509184	63	4363
2026-01-20 07:27:18.14	99.52	7.51	-46.0	-47.7	15.6	0.00e+00	0	38	0	143654912	63	4426
2026-01-20 07:27:19.15	99.45	7.58	-45.8	-47.5	15.8	0.00e+00	0	38	0	146800640	63	4318
2026-01-20 07:27:20.16	99.38	7.66	-45.9	-47.6	15.8	0.00e+00	0	38	0	149946368	63	4363
2026-01-20 07:27:21.17	99.32	7.73	-45.8	-47.5	15.8	0.00e+00	0	38	0	153092096	63	4323
2026-01-20 07:27:22.18	99.25	7.80	-45.8	-47.5	15.9	0.00e+00	0	38	0	156237824	63	4299
2026-01-20 07:27:23.19	99.18	7.88	-45.6	-47.2	16.1	0.00e+00	0	38	0	159383552	63	4161
2026-01-20 07:27:24.19	99.11	7.95	-45.7	-47.3	16.0	0.00e+00	0	38	0	162529280	63	4211
2026-01-20 07:27:25.20	99.05	8.02	-45.6	-47.2	16.1	0.00e+00	0	38	0	165675008	63	4173
2026-01-20 07:27:26.21	98.98	8.10	-45.7	-47.3	16.0	0.00e+00	0	38	0	168820736	63	4217
2026-01-20 07:27:27.22	98.91	8.17	-45.5	-47.1	16.2	0.00e+00	0	38	0	171966464	63	4111
2026-01-20 07:27:28.22	98.84	8.25	-45.6	-47.2	16.1	0.00e+00	0	38	0	175112192	62	4425
2026-01-20 07:27:29.23	98.77	8.32	-45.6	-47.2	16.2	0.00e+00	0	38	0	178257920	62	4398
2026-01-20 07:27:30.24	98.70	8.40	-45.6	-47.2	16.1	0.00e+00	0	38	0	181403648	62	4412
2026-01-20 07:27:31.25	98.63	8.47	-45.6	-47.2	16.2	0.00e+00	0	38	0	184549376	62	4398
2026-01-20 07:27:32.25	98.56	8.55	-45.4	-47.0	16.3	0.00e+00	0	38	0	187695104	62	4317
2026-01-20 07:27:33.26	98.49	8.62	-45.5	-47.1	16.2	0.00e+00	0	38	0	190840832	62	4390
2026-01-20 07:27:34.27	98.42	8.70	-45.6	-47.2	16.2	0.00e+00	0	38	0	193986560	62	4419
2026-01-20 07:27:35.28	98.34	8.77	-45.5	-47.1	16.2	0.00e+00	0	38	0	197132288	62	4381
2026-01-20 07:27:36.29	98.27	8.85	-45.6	-47.3	16.1	0.00e+00	0	38	0	200278016	62	4447
2026-01-20 07:27:37.30	98.20	8.93	-45.5	-47.1	16.3	0.00e+00	0	38	0	203423744	62	4348
2026-01-20 07:27:38.30	98.13	9.00	-45.4	-47.0	16.4	0.00e+00	0	38	0	206569472	62	4308
2026-01-20 07:27:39.31	98.05	9.08	-45.4	-46.9	16.5	0.00e+00	0	38	0	209715200	62	4264
2026-01-20 07:27:40.31	97.98	9.15	-45.4	-46.9	16.5	0.00e+00	0	38	0	212860928	62	4279
2026-01-20 07:27:41.32	97.90	9.23	-45.3	-46.8	16.6	0.00e+00	0	38	0	216006656	62	4242
2026-01-20 07:27:42.33	97.83	9.31	-45.3	-46.9	16.5	0.00e+00	0	38	0	219152384	62	4248
2026-01-20 07:27:43.34	97.75	9.39	-45.2	-46.7	16.7	0.00e+00	0	38	0	222298112	62	4177
2026-01-20 07:27:44.35	97.68	9.46	-45.2	-46.7	16.7	0.00e+00	0	38	0	225443840	62	4187
2026-01-20 07:27:45.36	97.60	9.54	-45.2	-46.7	16.7	0.00e+00	0	38	0	228589568	62	4170
2026-01-20 07:27:46.36	97.53	9.62	-45.1	-46.6	16.8	0.00e+00	0	38	0	231735296	62	4126
2026-01-20 07:27:47.37	97.45	9.70	-45.0	-46.4	17.0	0.00e+00	0	38	0	234881024	62	4049
2026-01-20 07:27:48.38	97.37	9.77	-44.9	-46.4	17.0	0.00e+00	0	38	0	238026752	61	4246
2026-01-20 07:27:49.39	97.29	9.85	-44.9	-46.3	17.1	0.00e+00	0	38	0	241172480	61	4225
2026-01-20 07:27:50.39	97.22	9.93	-44.8	-46.2	17.2	0.00e+00	0	38	0	244318208	61	4174
2026-01-20 07:27:51.40	97.14	10.01	-44.9	-46.3	17.1	0.00e+00	0	38	0	247463936	61	4205
2026-01-20 07:27:52.41	97.06	10.09	-44.8	-46.1	17.3	0.00e+00	0	38	0	250609664	61	4135
2026-01-20 07:27:53.42	96.98	10.17	-44.9	-46.2	17.2	0.00e+00	0	38	0	253755392	61	4193
2026-01-20 07:27:54.43	96.90	10.25	-44.8	-46.2	17.2	0.00e+00	0	38	0	256901120	61	4190
2026-01-20 07:27:55.43	96.82	10.33	-44.9	-46.3	17.1	0.00e+00	0	38	0	260046848	61	4228
2026-01-20 07:27:56.44	96.74	10.41	-44.6	-46.0	17.4	0.00e+00	0	38	0	263192576	61	4064
2026-01-20 07:27:57.45	96.66	10.49	-44.8	-46.2	17.2	0.00e+00	0	38	0	266338304	61	4176
2026-01-20 07:27:58.46	96.57	10.57	-44.7	-46.1	17.4	0.00e+00	0	38	0	269484032	61	4125
2026-01-20 07:27:59.47	96.49	10.65	-44.8	-46.1	17.3	0.00e+00	0	38	0	272629760	61	4141
2026-01-20 07:28:00.48	96.41	10.73	-44.7	-46.1	17.3	0.00e+00	0	38	0	275775488	61	4131
2026-01-20 07:28:01.49	96.33	10.81	-44.7	-46.0	17.4	0.00e+00	0	38	0	278921216	61	4089
2026-01-20 07:28:02.49	96.24	10.89	-44.9	-46.3	17.2	0.00e+00	0	38	0	282066944	61	4195
2026-01-20 07:28:03.50	96.16	10.97	-44.7	-46.1	17.4	0.00e+00	0	38	0	285212672	61	4100
2026-01-20 07:28:04.51	96.07	11.05	-44.7	-46.1	17.3	0.00e+00	0	38	0	288358400	61	4127
2026-01-20 07:28:05.52	95.99	11.13	-44.7	-46.1	17.3	0.00e+00	0	38	0	291504128	61	4112
2026-01-20 07:28:06.53	95.90	11.22	-44.6	-45.9	17.5	0.00e+00	0	38	0	294649856	61	4049
2026-01-20 07:28:07.53	95.82	11.30	-44.6	-46.0	17.5	0.00e+00	0	38	0	297795584	61	4069
2026-01-20 07:28:08.54	95.73	11.38	-44.6	-46.0	17.4	0.00e+00	0	38	0	300941312	61	4081
2026-01-20 07:28:09.55	95.64	11.46	-44.7	-46.1	17.4	0.00e+00	0	38	0	304087040	61	4108
2026-01-20 07:28:10.56	95.55	11.55	-44.6	-45.9	17.5	0.00e+00	0	38	0	307232768	61	4045
2026-01-20 07:28:11.57	95.47	11.63	-44.6	-46.0	17.5	0.00e+00	0	38	0	310378496	61	4053
2026-01-20 07:28:12.57	95.38	11.71	-44.6	-45.9	17.5	0.00e+00	0	38	0	313524224	61	4042
2026-01-20 07:28:13.58	95.29	11.79	-44.6	-45.9	17.5	0.00e+00	0	38	0	316669952	61	4040
2026-01-20 07:28:14.59	95.20	11.88	-44.6	-45.9	17.5	0.00e+00	0	38	0	319815680	61	4047
2026-01-20 07:28:15.60	95.11	11.96	-44.6	-45.9	17.5	0.00e+00	0	38	0	322961408	61	4030
2026-01-20 07:28:16.61	95.02	12.05	-44.5	-45.8	17.7	0.00e+00	0	38	0	326107136	60	4204
2026-01-20 07:28:17.61	94.93	12.13	-44.6	-45.9	17.5	0.00e+00	0	38	0	329252864	60	4269
2026-01-20 07:28:18.62	94.84	12.21	-44.6	-46.0	17.5	0.00e+00	0	38	0	332398592	60	4297
2026-01-20 07:28:19.63	94.74	12.30	-44.6	-45.9	17.5	0.00e+00	0	38	0	335544320	60	4270
2026-01-20 07:28:20.64	94.65	12.38	-44.7	-46.0	17.4	0.00e+00	0	38	0	338690048	60	4321
2026-01-20 07:28:21.65	94.56	12.47	-44.5	-45.9	17.6	0.00e+00	0	38	0	341835776	60	4250
2026-01-20 07:28:22.65	94.46	12.55	-44.5	-45.8	17.6	0.00e+00	0	38	0	344981504	60	4239
2026-01-20 07:28:23.66	94.37	12.64	-44.6	-46.0	17.5	0.00e+00	0	38	0	348127232	60	4299
2026-01-20 07:28:24.67	94.27	12.72	-44.6	-46.0	17.5	0.00e+00	0	38	0	351272960	60	4303
2026-01-20 07:28:25.68	94.18	12.81	-44.5	-45.9	17.6	0.00e+00	0	38	0	354418688	60	4244
2026-01-20 07:28:26.69	94.08	12.90	-44.6	-45.9	17.6	0.00e+00	0	38	0	357564416	60	4258
2026-01-20 07:28:27.69	93.98	12.98	-44.6	-45.9	17.6	0.00e+00	0	38	0	360710144	60	4274
2026-01-20 07:28:28.70	93.89	13.07	-44.5	-45.8	17.7	0.00e+00	0	38	0	363855872	60	4205
2026-01-20 07:28:29.71	93.79	13.16	-44.4	-45.7	17.8	0.00e+00	0	38	0	367001600	60	4158
2026-01-20 07:28:30.72	93.69	13.24	-44.5	-45.8	17.7	0.00e+00	0	38	0	370147328	60	4232
2026-01-20 07:28:31.72	93.59	13.33	-44.4	-45.7	17.8	0.00e+00	0	38	0	373293056	60	4170
2026-01-20 07:28:32.73	93.49	13.42	-44.3	-45.6	17.9	0.00e+00	0	38	0	376438784	60	4109
2026-01-20 07:28:33.74	93.39	13.51	-44.3	-45.6	17.9	0.00e+00	0	38	0	379584512	60	4124
2026-01-20 07:28:34.75	93.29	13.59	-44.4	-45.7	17.8	0.00e+00	0	38	0	382730240	60	4157
2026-01-20 07:28:35.75	93.19	13.68	-44.5	-45.8	17.7	0.00e+00	0	38	0	385875968	60	4224
2026-01-20 07:28:36.76	93.09	13.77	-44.4	-45.6	17.9	0.00e+00	0	38	0	389021696	60	4141
2026-01-20 07:28:37.77	92.98	13.86	-44.4	-45.7	17.8	0.00e+00	0	38	0	392167424	60	4169
2026-01-20 07:28:38.78	92.88	13.95	-44.4	-45.7	17.8	0.00e+00	0	38	0	395313152	60	4178
2026-01-20 07:28:39.79	92.77	14.04	-44.6	-45.9	17.6	0.00e+00	0	38	0	398458880	60	4290
2026-01-20 07:28:40.79	92.67	14.13	-44.4	-45.7	17.8	0.00e+00	0	38	0	401604608	60	4190
2026-01-20 07:28:41.80	92.56	14.21	-44.4	-45.7	17.8	0.00e+00	0	38	0	404750336	60	4182
2026-01-20 07:28:42.81	92.46	14.30	-44.5	-45.8	17.7	0.00e+00	0	38	0	407896064	60	4230
2026-01-20 07:28:43.82	92.35	14.39	-44.4	-45.7	17.8	0.00e+00	0	38	0	411041792	60	4168
2026-01-20 07:28:44.83	92.24	14.49	-44.3	-45.6	17.9	0.00e+00	0	38	0	414187520	60	4117
2026-01-20 07:28:45.84	92.13	14.58	-44.1	-46.0	17.9	0.00e+00	0	38	0	417333248	59	4553
2026-01-20 07:28:46.84	92.03	14.67	-44.5	-45.8	17.8	0.00e+00	0	38	0	420478976	60	4196
2026-01-20 07:28:47.85	91.92	14.76	-44.4	-45.6	17.9	0.00e+00	0	38	0	423624704	60	4143
2026-01-20 07:28:48.86	91.81	14.85	-44.7	-46.0	17.9	0.00e+00	0	39	0	426770432	59	4585
2026-01-20 07:28:49.87	91.70	14.94	-44.7	-46.0	17.9	0.00e+00	0	38	0	429916160	59	4571
2026-01-20 07:28:50.88	91.58	15.03	-44.4	-45.7	17.9	0.00e+00	0	38	0	433061888	60	4157
2026-01-20 07:28:51.88	91.47	15.12	-44.5	-45.8	17.8	0.00e+00	0	38	0	436207616	60	4206
2026-01-20 07:28:52.89	91.36	15.21	-44.4	-45.7	17.9	0.00e+00	0	38	0	439353344	60	4152
2026-01-20 07:28:53.90	91.24	15.31	-44.4	-45.7	17.9	0.00e+00	0	38	0	442499072	60	4168
2026-01-20 07:28:54.91	91.13	15.40	-44.4	-45.6	17.9	0.00e+00	0	38	0	445644800	60	4139
2026-01-20 07:28:55.91	91.02	15.49	-44.5	-45.7	17.8	0.00e+00	0	38	0	448790528	60	4191
2026-01-20 07:28:56.92	90.90	15.58	-44.3	-45.5	18.0	0.00e+00	0	38	0	451936256	60	4096
2026-01-20 07:28:57.93	90.78	15.68	-44.4	-45.6	18.0	0.00e+00	0	39	0	455081984	60	4137
2026-01-20 07:28:58.94	90.66	15.77	-44.4	-45.6	17.9	0.00e+00	0	39	0	458227712	60	4141
2026-01-20 07:28:59.95	90.55	15.87	-44.4	-45.7	17.9	0.00e+00	0	38	0	461373440	60	4168
2026-01-20 07:29:00.95	90.43	15.96	-44.4	-45.7	17.9	0.00e+00	0	38	0	464519168	60	4157
2026-01-20 07:29:01.96	90.31	16.05	-44.4	-45.7	17.9	0.00e+00	0	38	0	467664896	60	4159
2026-01-20 07:29:02.97	90.19	16.15	-44.5	-45.8	17.8	0.00e+00	0	38	0	470810624	60	4227
2026-01-20 07:29:03.97	90.07	16.24	-44.5	-45.7	17.9	0.00e+00	0	38	0	473956352	60	4177
2026-01-20 07:29:04.98	89.95	16.34	-44.5	-45.8	17.8	0.00e+00	0	39	0	477102080	60	4229
2026-01-20 07:29:05.99	89.82	16.43	-44.7	-46.0	17.6	0.00e+00	0	38	0	480247808	60	4304
2026-01-20 07:29:07.00	89.70	16.53	-44.5	-45.7	17.9	0.00e+00	0	39	0	483393536	60	4185
2026-01-20 07:29:08.01	89.57	16.62	-44.5	-45.7	17.9	0.00e+00	0	38	0	486539264	60	4185
2026-01-20 07:29:09.01	89.45	16.72	-44.4	-45.6	18.0	0.00e+00	0	38	0	489684992	60	4138
2026-01-20 07:29:10.02	89.32	16.81	-44.4	-45.7	17.9	0.00e+00	0	39	0	492830720	60	4148
2026-01-20 07:29:11.03	89.20	16.91	-44.4	-45.6	18.0	0.00e+00	0	38	0	495976448	60	4139
2026-01-20 07:29:12.04	89.07	17.01	-44.4	-45.6	18.0	0.00e+00	0	38	0	499122176	60	4117
2026-01-20 07:29:13.04	88.94	17.10	-44.4	-45.7	17.9	0.00e+00	0	38	0	502267904	60	4153
2026-01-20 07:29:14.05	88.81	17.20	-44.5	-45.8	17.8	0.00e+00	0	39	0	505413632	60	4216
2026-01-20 07:29:15.06	88.68	17.30	-44.5	-45.8	17.8	0.00e+00	0	38	0	508559360	60	4226
2026-01-20 07:29:16.07	88.55	17.40	-44.7	-46.0	17.7	0.00e+00	0	38	0	511705088	60	4293
2026-01-20 07:29:17.08	88.42	17.49	-44.7	-46.0	17.7	0.00e+00	0	38	0	514850816	60	4300
2026-01-20 07:29:18.08	88.28	17.59	-44.7	-46.0	17.6	0.00e+00	0	38	0	517996544	60	4320
2026-01-20 07:29:19.09	88.15	17.69	-44.8	-46.2	17.4	0.00e+00	0	38	0	521142272	60	4415
2026-01-20 07:29:20.10	88.02	17.79	-44.7	-46.0	17.6	0.00e+00	0	39	0	524288000	60	4324
2026-01-20 07:29:21.10	87.88	17.88	-44.7	-46.1	17.6	0.00e+00	0	38	0	527433728	60	4343
2026-01-20 07:29:22.11	87.74	17.98	-44.7	-46.0	17.7	0.00e+00	0	38	0	530579456	60	4306
2026-01-20 07:29:23.12	87.61	18.08	-44.7	-46.0	17.7	0.00e+00	0	38	0	533725184	60	4295
2026-01-20 07:29:24.13	87.47	18.18	-44.6	-45.9	17.8	0.00e+00	0	38	0	536870912	60	4251
2026-01-20 07:29:25.13	87.33	18.28	-44.5	-45.8	17.8	0.00e+00	0	38	0	540016640	60	4227
2026-01-20 07:29:26.14	87.19	18.38	-44.6	-45.9	17.8	0.00e+00	0	38	0	543162368	60	4272
2026-01-20 07:29:27.15	87.05	18.48	-44.6	-45.9	17.7	0.00e+00	0	38	0	546308096	60	4275
2026-01-20 07:29:28.16	86.91	18.58	-44.5	-45.8	17.8	0.00e+00	0	38	0	549453824	60	4223
2026-01-20 07:29:29.17	86.76	18.68	-44.6	-45.9	17.7	0.00e+00	0	38	0	552599552	60	4278
2026-01-20 07:29:30.17	86.62	18.78	-44.5	-45.7	17.9	0.00e+00	0	38	0	555745280	60	4187
2026-01-20 07:29:31.18	86.48	18.88	-44.5	-45.7	17.9	0.00e+00	0	38	0	558891008	60	4190
2026-01-20 07:29:32.19	86.33	18.98	-44.6	-45.9	17.8	0.00e+00	0	38	0	562036736	60	4274
2026-01-20 07:29:33.20	86.18	19.08	-44.6	-45.9	17.8	0.00e+00	0	38	0	565182464	60	4273
2026-01-20 07:29:34.21	86.03	19.19	-44.5	-45.8	17.9	0.00e+00	0	38	0	568328192	60	4195
2026-01-20 07:29:35.21	85.89	19.29	-44.5	-45.7	17.9	0.00e+00	0	39	0	571473920	60	4186
2026-01-20 07:29:36.22	85.74	19.39	-44.2	-45.4	18.2	0.00e+00	0	39	0	574619648	60	4042
2026-01-20 07:29:37.23	85.58	19.49	-44.2	-45.4	18.2	0.00e+00	0	38	0	577765376	60	4046
2026-01-20 07:29:38.24	85.43	19.59	-44.1	-45.3	18.4	0.00e+00	0	38	0	580911104	60	3975
2026-01-20 07:29:39.25	85.28	19.70	-44.1	-45.3	18.3	0.00e+00	0	38	0	584056832	60	3994
2026-01-20 07:29:40.25	85.13	19.80	-44.3	-45.5	18.5	0.00e+00	0	38	0	587202560	59	4319
2026-01-20 07:29:41.26	84.97	19.90	-44.3	-45.5	18.5	0.00e+00	0	39	0	590348288	59	4328
2026-01-20 07:29:42.27	84.81	20.00	-44.3	-45.5	18.5	0.00e+00	0	38	0	593494016	59	4308
2026-01-20 07:29:43.28	84.66	20.11	-44.1	-45.3	18.7	0.00e+00	0	38	0	596639744	59	4213
2026-01-20 07:29:44.29	84.50	20.21	-44.1	-45.3	18.6	0.00e+00	0	39	0	599785472	59	4224
2026-01-20 07:29:45.29	84.34	20.31	-44.2	-45.4	18.6	0.00e+00	0	38	0	602931200	59	4246
2026-01-20 07:29:46.30	84.18	20.42	-44.1	-45.3	18.7	0.00e+00	0	38	0	606076928	59	4208
2026-01-20 07:29:47.31	84.02	20.52	-44.1	-45.3	18.7	0.00e+00	0	39	0	609222656	59	4202
2026-01-20 07:29:48.32	83.86	20.63	-44.1	-45.3	18.7	0.00e+00	0	38	0	612368384	59	4231
2026-01-20 07:29:49.33	83.69	20.73	-44.1	-45.2	18.7	0.00e+00	0	38	0	615514112	59	4182
2026-01-20 07:29:50.34	83.53	20.84	-43.9	-45.1	18.9	0.00e+00	0	38	0	618659840	59	4118
2026-01-20 07:29:51.34	83.36	20.94	-43.9	-45.1	18.9	0.00e+00	0	38	0	621805568	59	4119
2026-01-20 07:29:52.35	83.19	21.04	-43.9	-45.1	18.9	0.00e+00	0	38	0	624951296	59	4113
2026-01-20 07:29:53.36	83.02	21.15	-43.9	-45.0	18.9	0.00e+00	0	38	0	628097024	59	4091
2026-01-20 07:29:54.37	82.85	21.25	-43.7	-44.8	19.1	0.00e+00	0	38	0	631242752	59	3995
2026-01-20 07:29:55.37	82.69	21.36	-43.7	-44.8	19.2	0.00e+00	0	39	0	634388480	59	3965
2026-01-20 07:29:56.38	82.51	21.46	-43.7	-44.8	19.2	0.00e+00	0	38	0	637534208	59	3960
2026-01-20 07:29:57.39	82.34	21.57	-43.7	-44.8	19.2	0.00e+00	0	38	0	640679936	59	3968
2026-01-20 07:29:58.40	82.17	21.68	-43.7	-44.8	19.2	0.00e+00	0	39	0	643825664	59	3959
2026-01-20 07:29:59.41	81.99	21.78	-43.6	-44.7	19.3	0.00e+00	0	38	0	646971392	59	3922
2026-01-20 07:30:00.41	81.81	21.89	-43.7	-44.8	19.1	0.00e+00	0	39	0	651165696	59	3996
2026-01-20 07:30:01.42	81.64	21.99	-43.8	-44.9	19.1	0.00e+00	0	38	0	654311424	59	4024
2026-01-20 07:30:02.43	81.46	22.10	-43.8	-44.9	19.0	0.00e+00	0	38	0	656408576	59	4049
2026-01-20 07:30:03.44	81.28	22.21	-43.9	-45.0	19.0	0.00e+00	0	38	0	659554304	59	4085
2026-01-20 07:30:04.45	81.09	22.32	-43.8	-45.0	19.0	0.00e+00	0	38	0	662700032	59	4060
2026-01-20 07:30:05.45	80.91	22.42	-43.8	-44.9	19.1	0.00e+00	0	39	0	665845760	59	4042
2026-01-20 07:30:06.46	80.73	22.53	-43.7	-44.8	19.2	0.00e+00	0	38	0	668991488	59	3999
2026-01-20 07:30:07.47	80.54	22.64	-43.8	-44.9	19.1	0.00e+00	0	39	0	672137216	59	4016
2026-01-20 07:30:08.48	80.35	22.74	-43.7	-44.8	19.2	0.00e+00	0	39	0	675282944	59	3985
2026-01-20 07:30:09.49	80.17	22.85	-43.7	-44.8	19.2	0.00e+00	0	38	0	678428672	59	3988
2026-01-20 07:30:10.49	79.98	22.96	-43.6	-44.7	19.3	0.00e+00	0	39	0	681574400	59	3924
2026-01-20 07:30:11.50	79.79	23.06	-43.7	-44.8	19.2	0.00e+00	0	38	0	684720128	59	3961
2026-01-20 07:30:12.51	79.59	23.17	-43.7	-44.8	19.1	0.00e+00	0	38	0	688914432	59	3997
2026-01-20 07:30:13.52	79.40	23.28	-43.9	-45.1	18.9	0.00e+00	0	38	0	692060160	59	4103
2026-01-20 07:30:14.52	79.21	23.39	-43.9	-45.0	19.0	0.00e+00	0	38	0	695205888	59	4080
2026-01-20 07:30:15.54	79.01	23.50	-44.0	-45.1	18.9	0.00e+00	0	38	0	698351616	59	4125
2026-01-20 07:30:16.54	78.81	23.60	-44.0	-45.1	18.9	0.00e+00	0	38	0	701497344	59	4123
2026-01-20 07:30:17.55	78.61	23.71	-43.8	-44.9	19.1	0.00e+00	0	38	0	703594496	59	4051
2026-01-20 07:30:18.55	78.42	23.82	-43.9	-45.0	19.0	0.00e+00	0	38	0	706740224	59	4065
2026-01-20 07:30:19.56	78.21	23.93	-43.8	-44.9	19.2	0.00e+00	0	38	0	709885952	59	4012
2026-01-20 07:30:20.57	78.01	24.04	-43.7	-44.8	19.3	0.00e+00	0	38	0	713031680	59	3959
2026-01-20 07:30:21.58	77.80	24.14	-43.7	-44.7	19.3	0.00e+00	0	38	0	716177408	59	3957
2026-01-20 07:30:22.59	77.60	24.25	-43.7	-44.8	19.2	0.00e+00	0	38	0	719323136	59	3981
2026-01-20 07:30:23.59	77.39	24.36	-43.9	-45.0	19.0	0.00e+00	0	38	0	722468864	59	4069
2026-01-20 07:30:24.60	77.18	24.47	-44.0	-45.1	18.9	0.00e+00	0	38	0	725614592	59	4123
2026-01-20 07:30:25.61	76.97	24.58	-44.0	-45.2	18.9	0.00e+00	0	38	0	729808896	59	4160
2026-01-20 07:30:26.62	76.76	24.69	-44.1	-45.3	18.8	0.00e+00	0	39	0	732954624	59	4197
2026-01-20 07:30:27.63	76.55	24.80	-44.1	-45.2	18.8	0.00e+00	0	38	0	736100352	59	4187
2026-01-20 07:30:28.63	76.33	24.90	-44.0	-45.1	19.0	0.00e+00	0	38	0	739246080	59	4116
2026-01-20 07:30:29.64	76.12	25.01	-44.0	-45.1	19.0	0.00e+00	0	38	0	742391808	59	4104
2026-01-20 07:30:30.65	75.90	25.12	-43.8	-44.9	19.2	0.00e+00	0	39	0	745537536	59	4020
2026-01-20 07:30:31.65	75.68	25.23	-43.9	-45.0	19.1	0.00e+00	0	38	0	748683264	59	4068
2026-01-20 07:30:32.66	75.46	25.34	-43.8	-44.9	19.1	0.00e+00	0	38	0	750780416	59	4038
2026-01-20 07:30:33.67	75.24	25.45	-43.8	-44.9	19.1	0.00e+00	0	38	0	753926144	59	4048
2026-01-20 07:30:34.68	75.01	25.55	-44.0	-45.1	19.0	0.00e+00	0	39	0	757071872	59	4111
2026-01-20 07:30:35.69	74.79	25.66	-44.2	-45.4	18.7	0.00e+00	0	39	0	760217600	59	4252
2026-01-20 07:30:36.69	74.56	25.77	-44.4	-45.6	18.5	0.00e+00	0	38	0	763363328	59	4358
2026-01-20 07:30:37.70	74.33	25.88	-44.4	-45.7	18.4	0.00e+00	0	38	0	766509056	59	4395
2026-01-20 07:30:38.71	74.10	25.99	-44.5	-45.7	18.4	0.00e+00	0	38	0	770703360	59	4429
2026-01-20 07:30:39.72	73.87	26.10	-44.5	-45.8	18.4	0.00e+00	0	39	0	773849088	59	4447
2026-01-20 07:30:40.73	73.64	26.20	-44.5	-45.7	18.4	0.00e+00	0	38	0	776994816	59	4429
2026-01-20 07:30:41.74	73.40	26.31	-44.5	-45.7	18.4	0.00e+00	0	38	0	780140544	59	4400
2026-01-20 07:30:42.74	73.17	26.42	-44.6	-45.9	18.2	0.00e+00	0	39	0	783286272	59	4506
2026-01-20 07:30:43.75	72.93	26.53	-44.6	-45.9	18.3	0.00e+00	0	38	0	786432000	59	4518
2026-01-20 07:30:44.75	72.69	26.63	-44.7	-46.0	18.2	0.00e+00	0	38	0	789577728	59	4561
2026-01-20 07:30:45.76	72.45	26.74	-44.4	-45.6	18.2	0.00e+00	0	39	0	792723456	60	4117
2026-01-20 07:30:46.77	72.21	26.85	-44.4	-45.6	18.2	0.00e+00	0	38	0	795869184	60	4126
2026-01-20 07:30:47.78	71.96	26.96	-44.4	-45.6	18.3	0.00e+00	0	38	0	797966336	60	4102
2026-01-20 07:30:48.79	71.71	27.06	-44.3	-45.4	18.4	0.00e+00	0	38	0	801112064	60	4050
2026-01-20 07:30:49.79	71.47	27.17	-44.4	-45.6	18.3	0.00e+00	0	39	0	804257792	60	4107
2026-01-20 07:30:50.80	71.22	27.27	-44.2	-45.4	18.4	0.00e+00	0	38	0	807403520	60	4029
2026-01-20 07:30:51.81	70.96	27.38	-44.1	-45.3	18.5	0.00e+00	0	38	0	811597824	60	3982
2026-01-20 07:30:52.82	70.71	27.49	-44.1	-45.2	18.6	0.00e+00	0	39	0	814743552	60	3944
2026-01-20 07:30:53.82	70.46	27.59	-44.0	-45.2	18.6	0.00e+00	0	38	0	817889280	60	3934
2026-01-20 07:30:54.83	70.20	27.70	-44.0	-45.2	18.6	0.00e+00	0	38	0	821035008	60	3936
2026-01-20 07:30:55.84	69.94	27.80	-44.1	-45.2	18.6	0.00e+00	0	39	0	824180736	60	3945
2026-01-20 07:30:56.85	69.68	27.91	-44.3	-45.5	18.7	0.00e+00	0	38	0	827326464	59	4305
2026-01-20 07:30:57.86	69.42	28.02	-44.3	-45.5	18.7	0.00e+00	0	38	0	830472192	59	4311
2026-01-20 07:30:58.86	69.16	28.12	-44.3	-45.4	18.7	0.00e+00	0	38	0	833617920	59	4285
2026-01-20 07:30:59.87	68.89	28.22	-44.3	-45.5	18.6	0.00e+00	0	38	0	836763648	59	4311
2026-01-20 07:31:00.88	68.63	28.33	-44.3	-45.4	18.7	0.00e+00	0	38	0	839909376	59	4285
2026-01-20 07:31:01.89	68.36	28.43	-44.2	-45.4	18.7	0.00e+00	0	38	0	843055104	59	4262
2026-01-20 07:31:02.89	68.09	28.53	-44.2	-45.4	18.7	0.00e+00	0	39	0	845152256	59	4268
2026-01-20 07:31:03.90	67.82	28.64	-44.2	-45.4	18.7	0.00e+00	0	38	0	848297984	59	4267
2026-01-20 07:31:04.91	67.54	28.74	-44.2	-45.3	18.8	0.00e+00	0	38	0	851443712	59	4224
2026-01-20 07:31:05.92	67.27	28.84	-44.2	-45.3	18.8	0.00e+00	0	38	0	855638016	59	4223
2026-01-20 07:31:06.92	66.99	28.94	-44.3	-45.4	18.7	0.00e+00	0	38	0	858783744	59	4275
2026-01-20 07:31:07.93	66.71	29.05	-44.4	-45.6	18.6	0.00e+00	0	38	0	861929472	59	4348
2026-01-20 07:31:08.94	66.43	29.15	-44.4	-45.6	18.5	0.00e+00	0	38	0	865075200	59	4381
2026-01-20 07:31:09.95	66.15	29.25	-44.5	-45.7	18.5	0.00e+00	0	38	0	868220928	59	4401
2026-01-20 07:31:10.95	65.86	29.35	-44.5	-45.7	18.5	0.00e+00	0	38	0	871366656	59	4405
2026-01-20 07:31:11.96	65.58	29.45	-44.3	-45.5	18.6	0.00e+00	0	38	0	874512384	59	4331
2026-01-20 07:31:12.97	65.29	29.55	-44.3	-45.5	18.6	0.00e+00	0	38	0	877658112	59	4314
2026-01-20 07:31:13.98	65.00	29.65	-44.4	-45.6	18.6	0.00e+00	0	38	0	880803840	59	4343
2026-01-20 07:31:14.99	64.71	29.75	-44.3	-45.5	18.6	0.00e+00	0	38	0	883949568	59	4318
2026-01-20 07:31:16.00	64.41	29.84	-44.4	-45.5	18.6	0.00e+00	0	39	0	887095296	59	4337
2026-01-20 07:31:17.00	64.12	29.94	-44.3	-45.4	18.7	0.00e+00	0	38	0	890241024	59	4266
2026-01-20 07:31:18.01	63.82	30.04	-44.1	-45.3	18.9	0.00e+00	0	38	0	893386752	59	4212
2026-01-20 07:31:19.02	63.52	30.13	-44.3	-45.4	18.7	0.00e+00	0	38	0	896532480	59	4275
2026-01-20 07:31:20.03	63.22	30.23	-44.3	-45.4	18.7	0.00e+00	0	38	0	899678208	59	4278
2026-01-20 07:31:21.03	62.92	30.32	-44.2	-45.3	18.9	0.00e+00	0	38	0	902823936	59	4217
2026-01-20 07:31:22.04	62.62	30.42	-44.2	-45.3	18.8	0.00e+00	0	38	0	905969664	59	4218
2026-01-20 07:31:23.05	62.31	30.51	-44.2	-45.4	18.8	0.00e+00	0	38	0	909115392	59	4254
2026-01-20 07:31:24.05	62.00	30.61	-44.2	-45.3	18.8	0.00e+00	0	38	0	912261120	59	4226
2026-01-20 07:31:25.06	61.69	30.70	-44.2	-45.4	18.8	0.00e+00	0	38	0	915406848	59	4251
2026-01-20 07:31:26.07	61.38	30.79	-44.3	-45.5	18.7	0.00e+00	0	38	0	918552576	59	4301
2026-01-20 07:31:27.08	61.07	30.88	-44.3	-45.5	18.7	0.00e+00	0	38	0	921698304	59	4309
2026-01-20 07:31:28.08	60.75	30.97	-44.4	-45.6	18.6	0.00e+00	0	38	0	924844032	59	4368
2026-01-20 07:31:29.10	60.43	31.06	-44.5	-45.7	18.5	0.00e+00	0	38	0	927989760	59	4409
2026-01-20 07:31:30.10	60.12	31.15	-44.4	-45.6	18.6	0.00e+00	0	39	0	931135488	59	4381
2026-01-20 07:31:31.11	59.80	31.24	-44.5	-45.6	18.5	0.00e+00	0	38	0	934281216	59	4390
2026-01-20 07:31:32.11	59.48	31.33	-44.4	-45.6	18.6	0.00e+00	0	38	0	937426944	59	4382
2026-01-20 07:31:33.12	59.15	31.42	-44.5	-45.6	18.5	0.00e+00	0	39	0	940572672	59	4390
2026-01-20 07:31:34.13	58.83	31.50	-44.5	-45.7	18.6	0.00e+00	0	38	0	943718400	59	4399
2026-01-20 07:31:35.14	58.50	31.59	-44.6	-45.8	18.4	0.00e+00	0	39	0	946864128	59	4454
2026-01-20 07:31:36.15	58.17	31.67	-44.6	-45.8	18.4	0.00e+00	0	39	0	950009856	59	4479
2026-01-20 07:31:37.15	57.84	31.76	-44.6	-45.8	18.4	0.00e+00	0	38	0	953155584	59	4488
2026-01-20 07:31:38.16	57.51	31.84	-44.5	-45.7	18.2	0.00e+00	0	39	0	956301312	60	4160
2026-01-20 07:31:39.17	57.17	31.92	-44.7	-45.9	18.0	0.00e+00	0	39	0	959447040	60	4272
2026-01-20 07:31:40.18	56.84	32.00	-44.7	-46.0	17.9	0.00e+00	0	38	0	962592768	60	4308
2026-01-20 07:31:41.19	56.50	32.08	-44.8	-46.1	17.8	0.00e+00	0	39	0	965738496	60	4350
2026-01-20 07:31:42.19	56.16	32.16	-44.9	-46.2	17.8	0.00e+00	0	38	0	968884224	60	4395
2026-01-20 07:31:43.20	55.82	32.24	-44.9	-46.2	17.7	0.00e+00	0	38	0	972029952	60	4436
2026-01-20 07:31:44.20	55.48	32.32	-44.9	-46.3	17.7	0.00e+00	0	38	0	975175680	60	4450
2026-01-20 07:31:45.21	55.14	32.39	-44.9	-46.2	17.7	0.00e+00	0	38	0	978321408	60	4410
2026-01-20 07:31:46.21	54.79	32.47	-44.8	-46.1	17.8	0.00e+00	0	39	0	981467136	60	4370
2026-01-20 07:31:47.22	54.45	32.54	-44.8	-46.1	17.8	0.00e+00	0	39	0	984612864	60	4378
2026-01-20 07:31:48.23	54.10	32.62	-44.8	-46.0	17.9	0.00e+00	0	38	0	987758592	60	4338
2026-01-20 07:31:49.24	53.75	32.69	-44.7	-45.9	18.0	0.00e+00	0	39	0	990904320	60	4282
2026-01-20 07:31:50.25	53.39	32.76	-44.7	-45.9	18.0	0.00e+00	0	39	0	994050048	60	4265
2026-01-20 07:31:51.25	53.04	32.83	-44.7	-45.9	18.0	0.00e+00	0	39	0	997195776	60	4277
2026-01-20 07:31:52.26	52.69	32.90	-44.8	-46.0	17.9	0.00e+00	0	38	0	1000341504	60	4325
2026-01-20 07:31:53.27	52.33	32.97	-44.8	-46.1	17.8	0.00e+00	0	38	0	1003487232	60	4380
2026-01-20 07:31:54.28	51.97	33.04	-44.8	-46.0	17.9	0.00e+00	0	38	0	1006632960	60	4324
2026-01-20 07:31:55.29	51.61	33.10	-44.8	-46.1	17.9	0.00e+00	0	39	0	1009778688	60	4341
2026-01-20 07:31:56.30	51.25	33.17	-44.8	-46.0	17.9	0.00e+00	0	38	0	1012924416	60	4325
2026-01-20 07:31:57.30	50.89	33.23	-44.8	-46.1	17.9	0.00e+00	0	38	0	1016070144	60	4374
2026-01-20 07:31:58.31	50.52	33.29	-44.9	-46.2	17.8	0.00e+00	0	39	0	1019215872	60	4398
2026-01-20 07:31:59.32	50.16	33.36	-45.0	-46.3	17.7	0.00e+00	0	38	0	1022361600	60	4457
2026-01-20 07:32:00.33	49.79	33.42	-44.9	-46.2	17.7	0.00e+00	0	38	0	1025507328	60	4423
2026-01-20 07:32:01.33	49.43	33.47	-44.9	-46.2	17.7	0.00e+00	0	38	0	1028653056	60	4426
2026-01-20 07:32:02.34	49.06	33.53	-45.0	-46.3	17.6	0.00e+00	0	38	0	1031798784	60	4463
2026-01-20 07:32:03.35	48.68	33.59	-45.1	-46.4	17.6	0.00e+00	0	38	0	1034944512	60	4513
2026-01-20 07:32:04.36	48.31	33.64	-45.1	-46.4	17.5	0.00e+00	0	38	0	1038090240	60	4521
2026-01-20 07:32:05.36	47.94	33.70	-44.9	-46.3	17.7	0.00e+00	0	38	0	1041235968	60	4445
2026-01-20 07:32:06.37	47.57	33.75	-44.9	-46.2	17.7	0.00e+00	0	39	0	1044381696	60	4436
2026-01-20 07:32:07.38	47.19	33.80	-45.0	-46.3	17.7	0.00e+00	0	38	0	1047527424	60	4452
2026-01-20 07:32:08.38	46.82	33.85	-44.9	-46.2	17.7	0.00e+00	0	39	0	1050673152	60	4398
2026-01-20 07:32:09.40	46.43	33.90	-44.9	-46.2	17.8	0.00e+00	0	38	0	1053818880	60	4410
2026-01-20 07:32:10.40	46.06	33.95	-44.8	-46.0	17.9	0.00e+00	0	38	0	1056964608	60	4328
2026-01-20 07:32:11.41	45.68	33.99	-44.7	-46.0	18.0	0.00e+00	0	38	0	1060110336	60	4301
2026-01-20 07:32:12.42	45.30	34.04	-44.8	-46.1	17.8	0.00e+00	0	39	0	1063256064	60	4341
2026-01-20 07:32:13.43	44.91	34.08	-44.9	-46.1	17.8	0.00e+00	0	39	0	1066401792	60	4387
2026-01-20 07:32:14.43	44.53	34.12	-44.9	-46.1	17.8	0.00e+00	0	38	0	1069547520	60	4390
2026-01-20 07:32:15.44	44.15	34.16	-45.0	-46.3	17.6	0.00e+00	0	38	0	1072693248	60	4488
2026-01-20 07:32:16.45	43.76	34.20	-45.2	-46.5	17.4	0.00e+00	0	38	0	1075838976	60	4596
2026-01-20 07:32:17.46	43.38	34.24	-45.1	-46.4	17.5	0.00e+00	0	38	0	1078984704	61	4273
2026-01-20 07:32:18.46	42.99	34.27	-45.1	-46.4	17.6	0.00e+00	0	38	0	1082130432	61	4270
2026-01-20 07:32:19.47	42.60	34.31	-44.9	-46.2	17.7	0.00e+00	0	38	0	1085276160	61	4173
2026-01-20 07:32:20.48	42.21	34.34	-45.0	-46.3	17.7	0.00e+00	0	38	0	1088421888	61	4220
2026-01-20 07:32:21.49	41.82	34.37	-45.0	-46.3	17.7	0.00e+00	0	38	0	1091567616	61	4225
2026-01-20 07:32:22.49	41.44	34.40	-45.1	-46.4	17.6	0.00e+00	0	39	0	1094713344	61	4267
2026-01-20 07:32:23.50	41.05	34.43	-45.0	-46.3	17.6	0.00e+00	0	39	0	1097859072	61	4239
2026-01-20 07:32:24.51	40.65	34.46	-45.0	-46.3	17.6	0.00e+00	0	38	0	1101004800	61	4222
2026-01-20 07:32:25.51	40.27	34.48	-45.1	-46.5	17.5	0.00e+00	0	38	0	1104150528	61	4317
2026-01-20 07:32:26.52	39.87	34.51	-45.2	-46.5	17.4	0.00e+00	0	38	0	1107296256	61	4337
2026-01-20 07:32:27.53	39.48	34.53	-45.1	-46.5	17.5	0.00e+00	0	38	0	1110441984	61	4294
2026-01-20 07:32:28.54	39.08	34.55	-45.1	-46.4	17.6	0.00e+00	0	38	0	1113587712	61	4264
2026-01-20 07:32:29.55	38.69	34.57	-45.0	-46.4	17.6	0.00e+00	0	38	0	1116733440	61	4250
2026-01-20 07:32:30.55	38.30	34.59	-45.0	-46.3	17.7	0.00e+00	0	38	0	1119879168	61	4204
2026-01-20 07:32:31.56	37.90	34.61	-45.0	-46.3	17.6	0.00e+00	0	38	0	1123024896	61	4234
2026-01-20 07:32:32.57	37.51	34.62	-45.1	-46.5	17.5	0.00e+00	0	39	0	1126170624	61	4295
2026-01-20 07:32:33.58	37.11	34.63	-45.1	-46.5	17.5	0.00e+00	0	39	0	1129316352	61	4296
2026-01-20 07:32:34.58	36.72	34.65	-45.4	-46.7	17.2	0.00e+00	0	39	0	1132462080	61	4441
2026-01-20 07:32:35.59	36.32	34.66	-45.4	-46.9	17.1	0.00e+00	0	38	0	1135607808	61	4494
2026-01-20 07:32:36.60	35.92	34.66	-45.3	-46.7	17.3	0.00e+00	0	38	0	1138753536	61	4394
2026-01-20 07:32:37.60	35.53	34.67	-45.2	-46.6	17.4	0.00e+00	0	38	0	1141899264	61	4351
2026-01-20 07:32:38.61	35.13	34.68	-45.4	-46.8	17.2	0.00e+00	0	38	0	1145044992	61	4452
2026-01-20 07:32:39.62	34.73	34.68	-45.2	-46.6	17.4	0.00e+00	0	38	0	1148190720	61	4367
2026-01-20 07:32:40.63	34.34	34.68	-45.0	-46.3	17.7	0.00e+00	0	38	0	1151336448	61	4197
2026-01-20 07:32:41.64	33.94	34.68	-44.8	-46.0	17.9	0.00e+00	0	38	0	1154482176	61	4082
2026-01-20 07:32:42.64	33.54	34.68	-44.8	-46.1	17.9	0.00e+00	0	38	0	1157627904	61	4120
2026-01-20 07:32:43.65	33.15	34.68	-44.9	-46.2	17.7	0.00e+00	0	39	0	1160773632	61	4167
2026-01-20 07:32:44.66	32.75	34.68	-44.9	-46.2	17.8	0.00e+00	0	38	0	1163919360	61	4151
2026-01-20 07:32:45.66	32.36	34.67	-45.0	-46.4	17.6	0.00e+00	0	38	0	1167065088	61	4248
2026-01-20 07:32:46.67	31.96	34.66	-45.2	-46.5	17.4	0.00e+00	0	38	0	1170210816	61	4333
2026-01-20 07:32:47.68	31.56	34.66	-45.2	-46.6	17.4	0.00e+00	0	38	0	1173356544	61	4355
2026-01-20 07:32:48.69	31.16	34.65	-45.3	-46.7	17.3	0.00e+00	0	38	0	1176502272	61	4398
2026-01-20 07:32:49.70	30.77	34.63	-45.3	-46.6	17.3	0.00e+00	0	39	0	1179648000	61	4386
2026-01-20 07:32:50.70	30.37	34.62	-45.3	-46.7	17.3	0.00e+00	0	39	0	1182793728	61	4424
2026-01-20 07:32:51.71	29.98	34.61	-45.3	-46.7	17.2	0.00e+00	0	39	0	1185939456	61	4435
2026-01-20 07:32:52.72	29.58	34.59	-45.3	-46.7	17.3	0.00e+00	0	39	0	1189085184	61	4429
2026-01-20 07:32:53.72	29.19	34.57	-45.1	-46.5	17.6	0.00e+00	0	38	0	1192230912	61	4295
2026-01-20 07:32:54.73	28.80	34.55	-45.1	-46.4	17.5	0.00e+00	0	38	0	1195376640	61	4277
2026-01-20 07:32:55.74	28.40	34.53	-45.3	-46.6	17.3	0.00e+00	0	38	0	1198522368	61	4385
2026-01-20 07:32:56.75	28.01	34.51	-45.4	-46.8	17.2	0.00e+00	0	38	0	1201668096	61	4461
2026-01-20 07:32:57.75	27.62	34.49	-45.2	-46.6	17.4	0.00e+00	0	38	0	1204813824	61	4347
2026-01-20 07:32:58.76	27.23	34.46	-45.1	-46.5	17.5	0.00e+00	0	39	0	1207959552	61	4307
2026-01-20 07:32:59.77	26.83	34.43	-45.1	-46.4	17.5	0.00e+00	0	39	0	1211105280	61	4285
2026-01-20 07:33:00.78	26.44	34.41	-45.1	-46.4	17.6	0.00e+00	0	38	0	1214251008	61	4253
2026-01-20 07:33:01.79	26.05	34.38	-45.1	-46.4	17.6	0.00e+00	0	39	0	1217396736	61	4254
2026-01-20 07:33:02.79	25.67	34.34	-45.3	-46.7	17.3	0.00e+00	0	39	0	1220542464	61	4395
2026-01-20 07:33:03.80	25.28	34.31	-45.5	-46.9	17.1	0.00e+00	0	38	0	1223688192	61	4509
2026-01-20 07:33:04.81	24.89	34.28	-45.4	-46.9	17.1	0.00e+00	0	39	0	1226833920	61	4494
2026-01-20 07:33:05.81	24.51	34.24	-45.3	-46.7	17.3	0.00e+00	0	39	0	1229979648	61	4405
2026-01-20 07:33:06.82	24.12	34.20	-45.3	-46.6	17.4	0.00e+00	0	39	0	1233125376	61	4386
2026-01-20 07:33:07.83	23.73	34.17	-45.1	-46.4	17.6	0.00e+00	0	39	0	1236271104	61	4279
2026-01-20 07:33:08.83	23.35	34.13	-45.0	-46.3	17.6	0.00e+00	0	39	0	1239416832	61	4232
2026-01-20 07:33:09.84	22.97	34.08	-44.7	-46.0	18.0	0.00e+00	0	39	0	1242562560	61	4053
2026-01-20 07:33:10.85	22.59	34.04	-44.6	-45.8	18.2	0.00e+00	0	39	0	1245708288	61	3994
2026-01-20 07:33:11.86	22.21	34.00	-44.5	-45.7	18.2	0.00e+00	0	39	0	1248854016	60	4158
2026-01-20 07:33:12.87	21.82	33.95	-44.5	-45.8	18.2	0.00e+00	0	39	0	1251999744	60	4199
2026-01-20 07:33:13.87	21.45	33.90	-44.7	-46.0	18.0	0.00e+00	0	38	0	1255145472	60	4307
2026-01-20 07:33:14.88	21.07	33.86	-44.8	-46.1	17.9	0.00e+00	0	38	0	1258291200	60	4358
2026-01-20 07:33:15.89	20.69	33.81	-44.9	-46.2	17.7	0.00e+00	0	39	0	1261436928	60	4438
2026-01-20 07:33:16.90	20.32	33.75	-44.9	-46.3	17.7	0.00e+00	0	38	0	1264582656	60	4442
2026-01-20 07:33:17.91	19.94	33.70	-45.0	-46.4	17.6	0.00e+00	0	38	0	1267728384	60	4504
2026-01-20 07:33:18.91	19.57	33.65	-45.0	-46.3	17.6	0.00e+00	0	38	0	1270874112	60	4469
2026-01-20 07:33:19.92	19.20	33.59	-45.1	-46.4	17.6	0.00e+00	0	38	0	1274019840	60	4528
2026-01-20 07:33:20.93	18.83	33.54	-45.1	-46.4	17.5	0.00e+00	0	39	0	1277165568	60	4535
2026-01-20 07:33:21.93	18.46	33.48	-45.2	-46.6	17.4	0.00e+00	0	39	0	1280311296	61	4358
2026-01-20 07:33:22.94	18.09	33.42	-45.3	-46.7	17.3	0.00e+00	0	38	0	1283457024	61	4428
2026-01-20 07:33:23.95	17.73	33.36	-45.3	-46.7	17.2	0.00e+00	0	39	0	1286602752	61	4429
2026-01-20 07:33:24.96	17.36	33.30	-45.2	-46.5	17.4	0.00e+00	0	38	0	1289748480	61	4328
2026-01-20 07:33:25.97	17.00	33.24	-45.0	-46.3	17.6	0.00e+00	0	38	0	1292894208	61	4241
2026-01-20 07:33:26.97	16.64	33.18	-45.1	-46.4	17.5	0.00e+00	0	38	0	1296039936	61	4284
2026-01-20 07:33:27.98	16.28	33.11	-44.9	-46.2	17.7	0.00e+00	0	38	0	1299185664	61	4188
2026-01-20 07:33:28.99	15.92	33.05	-44.9	-46.2	17.7	0.00e+00	0	39	0	1302331392	61	4175
2026-01-20 07:33:29.99	15.56	32.98	-44.9	-46.2	17.8	0.00e+00	0	38	0	1305477120	61	4164
2026-01-20 07:33:31.00	15.20	32.91	-44.8	-46.1	17.9	0.00e+00	0	38	0	1308622848	61	4128
2026-01-20 07:33:32.01	14.85	32.84	-44.7	-46.0	18.0	0.00e+00	0	39	0	1311768576	61	4052
2026-01-20 07:33:33.02	14.49	32.77	-44.7	-45.9	18.0	0.00e+00	0	39	0	1314914304	61	4041
2026-01-20 07:33:34.03	14.14	32.70	-44.5	-45.7	18.2	0.00e+00	0	38	0	1318060032	61	3939
2026-01-20 07:33:35.04	13.79	32.63	-44.5	-45.7	18.2	0.00e+00	0	39	0	1321205760	60	4180
2026-01-20 07:33:36.04	13.45	32.55	-44.4	-45.6	18.3	0.00e+00	0	39	0	1324351488	60	4118
2026-01-20 07:33:37.05	13.10	32.48	-44.4	-45.5	18.3	0.00e+00	0	39	0	1327497216	60	4095
2026-01-20 07:33:38.06	12.75	32.40	-44.6	-45.8	18.1	0.00e+00	0	38	0	1330642944	60	4240
2026-01-20 07:33:39.07	12.41	32.33	-44.5	-45.7	18.3	0.00e+00	0	39	0	1333788672	60	4152
2026-01-20 07:33:40.07	12.07	32.25	-44.4	-45.6	18.3	0.00e+00	0	39	0	1336934400	60	4116
2026-01-20 07:33:41.08	11.73	32.17	-44.3	-45.5	18.4	0.00e+00	0	39	0	1340080128	60	4091
2026-01-20 07:33:42.09	11.39	32.09	-44.2	-45.4	18.5	0.00e+00	0	38	0	1343225856	60	4023
2026-01-20 07:33:43.09	11.05	32.01	-44.1	-45.2	18.7	0.00e+00	0	38	0	1346371584	60	3935
2026-01-20 07:33:44.10	10.72	31.93	-44.3	-45.4	18.5	0.00e+00	0	39	0	1349517312	60	4038
2026-01-20 07:33:45.11	10.38	31.85	-44.6	-45.9	18.1	0.00e+00	0	38	0	1352663040	60	4261
2026-01-20 07:33:46.12	10.05	31.77	-44.8	-46.1	17.8	0.00e+00	0	39	0	1355808768	60	4388
2026-01-20 07:33:47.13	9.72	31.68	-44.9	-46.2	17.8	0.00e+00	0	39	0	1358954496	60	4414
2026-01-20 07:33:48.13	9.39	31.60	-44.7	-46.0	17.9	0.00e+00	0	38	0	1362100224	60	4323
2026-01-20 07:33:49.14	9.06	31.52	-44.6	-45.9	18.0	0.00e+00	0	38	0	1365245952	60	4267
2026-01-20 07:33:50.15	8.74	31.43	-44.6	-45.9	18.1	0.00e+00	0	39	0	1368391680	60	4246
2026-01-20 07:33:51.15	8.42	31.34	-44.5	-45.7	18.3	0.00e+00	0	38	0	1371537408	60	4163
2026-01-20 07:33:52.16	8.10	31.26	-44.2	-45.4	18.5	0.00e+00	0	38	0	1374683136	60	4022
2026-01-20 07:33:53.17	7.77	31.17	-44.4	-45.6	18.3	0.00e+00	0	39	0	1377828864	60	4135
2026-01-20 07:33:54.18	7.46	31.08	-44.8	-46.1	17.9	0.00e+00	0	38	0	1380974592	60	4366
2026-01-20 07:33:55.19	7.14	30.99	-45.0	-46.3	17.7	0.00e+00	0	39	0	1384120320	60	4471
2026-01-20 07:33:56.19	6.83	30.90	-44.9	-46.2	17.7	0.00e+00	0	39	0	1387266048	60	4423
2026-01-20 07:33:57.20	6.51	30.81	-44.6	-45.9	18.0	0.00e+00	0	39	0	1390411776	60	4249
2026-01-20 07:33:58.21	6.20	30.71	-44.3	-45.5	18.4	0.00e+00	0	39	0	1393557504	60	4065
2026-01-20 07:33:59.22	5.89	30.62	-44.3	-45.5	18.7	0.00e+00	0	39	0	1396703232	59	4306
2026-01-20 07:34:00.23	5.58	30.53	-44.3	-45.4	18.8	0.00e+00	0	39	0	1399848960	59	4287
2026-01-20 07:34:01.23	5.28	30.44	-44.5	-45.6	18.6	0.00e+00	0	39	0	1402994688	59	4379
2026-01-20 07:34:02.24	4.98	30.34	-44.6	-45.8	18.4	0.00e+00	0	39	0	1406140416	59	4478
2026-01-20 07:34:03.25	4.67	30.25	-44.6	-45.9	18.0	0.00e+00	0	38	0	1409286144	60	4260
2026-01-20 07:34:04.25	4.38	30.15	-45.0	-46.3	17.6	0.00e+00	0	39	0	1412431872	60	4484
2026-01-20 07:34:05.26	4.08	30.05	-45.1	-46.4	17.6	0.00e+00	0	39	0	1415577600	60	4523
2026-01-20 07:34:06.27	3.78	29.96	-45.0	-46.3	17.6	0.00e+00	0	39	0	1418723328	60	4460
2026-01-20 07:34:07.28	3.48	29.86	-44.7	-45.9	18.0	0.00e+00	0	39	0	1421869056	60	4280
2026-01-20 07:34:08.29	3.19	29.76	-44.5	-45.7	18.2	0.00e+00	0	38	0	1425014784	60	4182
2026-01-20 07:34:09.29	2.90	29.66	-44.2	-45.3	18.6	0.00e+00	0	38	0	1428160512	60	3984
2026-01-20 07:34:10.30	2.61	29.57	-44.1	-45.3	18.6	0.00e+00	0	39	0	1431306240	60	3973
2026-01-20 07:34:11.31	2.32	29.47	-44.3	-45.4	18.5	0.00e+00	0	39	0	1434451968	60	4051
2026-01-20 07:34:12.32	2.04	29.37	-44.5	-45.7	18.2	0.00e+00	0	39	0	1437597696	60	4171
2026-01-20 07:34:13.33	1.75	29.27	-44.5	-45.7	18.2	0.00e+00	0	38	0	1440743424	60	4177
2026-01-20 07:34:14.34	1.47	29.17	-44.6	-45.8	18.1	0.00e+00	0	39	0	1443889152	60	4221
2026-01-20 07:34:15.34	1.19	29.07	-44.5	-45.7	18.2	0.00e+00	0	39	0	1447034880	60	4190
2026-01-20 07:34:16.35	0.91	28.96	-44.5	-45.8	18.2	0.00e+00	0	38	0	1450180608	60	4210
2026-01-20 07:34:17.36	0.63	28.86	-44.6	-45.8	18.1	0.00e+00	0	39	0	1453326336	60	4232
2026-01-20 07:34:18.37	0.36	28.76	-44.6	-45.9	18.0	0.00e+00	0	38	0	1456472064	60	4270
2026-01-20 07:34:19.37	0.09	28.66	-44.6	-45.9	18.1	0.00e+00	0	39	0	1459617792	60	4251
2026-01-20 07:34:20.38	359.81	28.55	-44.4	-45.6	18.3	0.00e+00	0	38	0	1462763520	60	4124
2026-01-20 07:34:21.39	359.54	28.45	-44.4	-45.7	18.3	0.00e+00	0	39	0	1465909248	60	4151
2026-01-20 07:34:22.40	359.27	28.35	-44.3	-45.5	18.3	0.00e+00	0	39	0	1469054976	60	4093
2026-01-20 07:34:23.41	359.01	28.24	-44.2	-45.4	18.5	0.00e+00	0	39	0	1472200704	60	4021
2026-01-20 07:34:24.41	358.74	28.14	-44.0	-45.1	18.8	0.00e+00	0	38	0	1475346432	60	3904
2026-01-20 07:34:25.42	358.48	28.04	-44.3	-45.5	18.7	0.00e+00	0	39	0	1478492160	59	4310
2026-01-20 07:34:26.43	358.22	27.93	-44.2	-45.3	18.9	0.00e+00	0	38	0	1481637888	59	4232
2026-01-20 07:34:27.43	357.96	27.83	-44.0	-45.1	19.2	0.00e+00	0	39	0	1484783616	59	4100
2026-01-20 07:34:28.44	357.70	27.72	-44.0	-45.1	19.1	0.00e+00	0	39	0	1487929344	59	4119
2026-01-20 07:34:29.45	357.45	27.62	-44.1	-45.3	18.9	0.00e+00	0	38	0	1491075072	59	4195
2026-01-20 07:34:30.46	357.19	27.51	-44.4	-45.6	18.7	0.00e+00	0	38	0	1494220800	59	4343
2026-01-20 07:34:31.47	356.94	27.40	-44.5	-45.7	18.6	0.00e+00	0	39	0	1497366528	59	4407
2026-01-20 07:34:32.47	356.69	27.30	-44.5	-45.8	18.5	0.00e+00	0	39	0	1500512256	59	4448
2026-01-20 07:34:33.48	356.44	27.19	-44.4	-45.6	18.6	0.00e+00	0	39	0	1503657984	59	4379
2026-01-20 07:34:34.49	356.19	27.08	-44.2	-45.3	18.9	0.00e+00	0	39	0	1506803712	59	4218
2026-01-20 07:34:35.49	355.95	26.98	-44.0	-45.1	19.1	0.00e+00	0	39	0	1509949440	59	4132
2026-01-20 07:34:36.50	355.70	26.87	-43.9	-45.0	19.2	0.00e+00	0	38	0	1513095168	59	4072
2026-01-20 07:34:37.51	355.46	26.76	-44.0	-45.1	19.1	0.00e+00	0	39	0	1516240896	59	4106
2026-01-20 07:34:38.52	355.22	26.66	-44.0	-45.1	19.1	0.00e+00	0	39	0	1519386624	59	4125
2026-01-20 07:34:39.53	354.98	26.55	-44.1	-45.2	19.0	0.00e+00	0	39	0	1522532352	59	4184
2026-01-20 07:34:40.53	354.74	26.44	-44.1	-45.2	19.0	0.00e+00	0	39	0	1525678080	59	4192
2026-01-20 07:34:41.54	354.51	26.34	-44.2	-45.3	18.9	0.00e+00	0	39	0	1528823808	59	4231
2026-01-20 07:34:42.55	354.27	26.23	-44.2	-45.3	18.9	0.00e+00	0	39	0	1531969536	59	4235
2026-01-20 07:34:43.56	354.04	26.12	-44.2	-45.3	18.8	0.00e+00	0	39	0	1535115264	59	4242
2026-01-20 07:34:44.56	353.81	26.01	-44.2	-45.4	18.7	0.00e+00	0	39	0	1538260992	59	4264
2026-01-20 07:34:45.57	353.58	25.91	-44.1	-45.3	18.9	0.00e+00	0	39	0	1541406720	59	4210
2026-01-20 07:34:46.58	353.35	25.80	-44.1	-45.3	18.9	0.00e+00	0	39	0	1544552448	59	4214
2026-01-20 07:34:47.59	353.12	25.69	-44.1	-45.2	18.9	0.00e+00	0	39	0	1547698176	59	4160
2026-01-20 07:34:48.60	352.90	25.58	-44.1	-45.2	18.9	0.00e+00	0	39	0	1550843904	59	4168
2026-01-20 07:34:49.60	352.67	25.47	-44.2	-45.3	18.9	0.00e+00	0	38	0	1553989632	59	4209
2026-01-20 07:34:50.61	352.45	25.36	-44.0	-45.1	19.0	0.00e+00	0	39	0	1557135360	59	4135
2026-01-20 07:34:51.62	352.23	25.26	-43.9	-45.0	19.1	0.00e+00	0	39	0	1560281088	59	4082
2026-01-20 07:34:52.63	352.01	25.15	-44.0	-45.1	19.0	0.00e+00	0	39	0	1563426816	59	4141
2026-01-20 07:34:53.64	351.79	25.04	-44.1	-45.2	19.0	0.00e+00	0	38	0	1566572544	59	4155
2026-01-20 07:34:54.64	351.58	24.93	-44.1	-45.2	18.9	0.00e+00	0	38	0	1569718272	59	4183
2026-01-20 07:34:55.65	351.37	24.82	-44.1	-45.2	19.0	0.00e+00	0	39	0	1572864000	59	4168
2026-01-20 07:34:56.66	351.15	24.72	-44.1	-45.2	18.9	0.00e+00	0	38	0	1576009728	59	4167
2026-01-20 07:34:57.67	350.94	24.61	-44.0	-45.2	19.0	0.00e+00	0	38	0	1579155456	59	4150
2026-01-20 07:34:58.67	350.73	24.50	-43.8	-44.9	19.3	0.00e+00	0	38	0	1582301184	59	4009
2026-01-20 07:34:59.68	350.52	24.39	-43.8	-44.9	19.2	0.00e+00	0	38	0	1585446912	59	4025
2026-01-20 07:35:00.69	350.32	24.28	-43.8	-44.8	19.3	0.00e+00	0	38	0	1588592640	59	4000
2026-01-20 07:35:01.70	350.11	24.17	-43.7	-44.7	19.4	0.00e+00	0	38	0	1591738368	59	3947
2026-01-20 07:35:02.70	349.91	24.07	-43.5	-44.6	19.4	0.00e+00	0	39	0	1594884096	59	3892
2026-01-20 07:35:03.71	349.70	23.96	-43.4	-44.5	19.5	0.00e+00	0	38	0	1598029824	58	4058
2026-01-20 07:35:04.72	349.50	23.85	-43.3	-44.4	19.6	0.00e+00	0	39	0	1601175552	58	4010
2026-01-20 07:35:05.73	349.30	23.74	-43.4	-44.4	19.6	0.00e+00	0	39	0	1604321280	58	4018
2026-01-20 07:35:06.74	349.10	23.63	-43.5	-44.5	19.5	0.00e+00	0	39	0	1607467008	58	4078
2026-01-20 07:35:07.74	348.91	23.53	-43.6	-44.6	19.4	0.00e+00	0	38	0	1610612736	58	4145
2026-01-20 07:35:08.75	348.71	23.42	-43.8	-44.9	19.1	0.00e+00	0	39	0	1613758464	58	4276
2026-01-20 07:35:09.76	348.52	23.31	-43.9	-45.1	19.0	0.00e+00	0	39	0	1616904192	58	4350
2026-01-20 07:35:10.77	348.32	23.20	-44.0	-45.2	18.9	0.00e+00	0	39	0	1620049920	58	4408
2026-01-20 07:35:11.77	348.13	23.10	-44.1	-45.2	18.8	0.00e+00	0	39	0	1623195648	58	4437
2026-01-20 07:35:12.78	347.94	22.99	-44.2	-45.3	18.7	0.00e+00	0	39	0	1626341376	58	4492
2026-01-20 07:35:13.79	347.75	22.88	-44.2	-45.4	18.7	0.00e+00	0	39	0	1629487104	59	4261
2026-01-20 07:35:14.80	347.56	22.78	-44.3	-45.5	18.6	0.00e+00	0	39	0	1632632832	59	4300
2026-01-20 07:35:15.81	347.38	22.67	-44.2	-45.4	18.7	0.00e+00	0	38	0	1635778560	59	4266
2026-01-20 07:35:16.81	347.19	22.56	-44.1	-45.2	18.9	0.00e+00	0	39	0	1638924288	59	4161
2026-01-20 07:35:17.82	347.01	22.46	-44.1	-45.2	18.9	0.00e+00	0	39	0	1642070016	59	4188
2026-01-20 07:35:18.83	346.83	22.35	-44.1	-45.2	18.9	0.00e+00	0	39	0	1645215744	59	4179
2026-01-20 07:35:19.84	346.65	22.24	-44.1	-45.3	18.9	0.00e+00	0	39	0	1648361472	59	4205
2026-01-20 07:35:20.85	346.46	22.14	-44.2	-45.3	18.8	0.00e+00	0	39	0	1651507200	59	4225
2026-01-20 07:35:21.85	346.29	22.03	-44.2	-45.4	18.8	0.00e+00	0	39	0	1654652928	59	4250
2026-01-20 07:35:22.86	346.11	21.92	-44.3	-45.5	18.7	0.00e+00	0	39	0	1657798656	59	4292
2026-01-20 07:35:23.87	345.93	21.82	-44.2	-45.3	18.8	0.00e+00	0	39	0	1660944384	59	4241
2026-01-20 07:35:24.88	345.76	21.71	-44.1	-45.2	18.9	0.00e+00	0	39	0	1664090112	59	4187
2026-01-20 07:35:25.89	345.58	21.61	-44.0	-45.2	18.9	0.00e+00	0	38	0	1667235840	59	4163
2026-01-20 07:35:26.90	345.41	21.50	-44.1	-45.3	18.9	0.00e+00	0	39	0	1670381568	59	4203
2026-01-20 07:35:27.90	345.24	21.40	-43.9	-45.0	19.1	0.00e+00	0	39	0	1673527296	59	4081
2026-01-20 07:35:28.91	345.07	21.29	-44.0	-45.2	19.0	0.00e+00	0	39	0	1677721600	59	4149
2026-01-20 07:35:29.92	344.90	21.19	-44.1	-45.2	18.9	0.00e+00	0	39	0	1680867328	59	4182
2026-01-20 07:35:30.93	344.73	21.08	-44.3	-45.4	18.7	0.00e+00	0	39	0	1682964480	59	4282
2026-01-20 07:35:31.93	344.57	20.98	-44.4	-45.6	18.5	0.00e+00	0	39	0	1686110208	59	4372
2026-01-20 07:35:32.94	344.40	20.87	-44.4	-45.7	18.5	0.00e+00	0	39	0	1689255936	59	4403
2026-01-20 07:35:33.95	344.24	20.77	-44.5	-45.7	18.4	0.00e+00	0	39	0	1692401664	59	4435
2026-01-20 07:35:34.96	344.07	20.66	-44.5	-45.7	18.4	0.00e+00	0	39	0	1695547392	59	4428
2026-01-20 07:35:35.97	343.91	20.56	-44.5	-45.8	18.4	0.00e+00	0	39	0	1698693120	59	4459
2026-01-20 07:35:36.97	343.75	20.46	-44.5	-45.7	18.5	0.00e+00	0	38	0	1701838848	59	4412
2026-01-20 07:35:37.98	343.59	20.35	-44.4	-45.6	18.5	0.00e+00	0	39	0	1704984576	59	4388
2026-01-20 07:35:38.99	343.43	20.25	-44.5	-45.7	18.5	0.00e+00	0	38	0	1708130304	59	4414
2026-01-20 07:35:39.99	343.27	20.15	-44.5	-45.7	18.4	0.00e+00	0	39	0	1711276032	59	4422
2026-01-20 07:35:41.00	343.12	20.04	-44.4	-45.6	18.5	0.00e+00	0	39	0	1714421760	59	4357
2026-01-20 07:35:42.01	342.96	19.94	-44.2	-45.3	18.8	0.00e+00	0	38	0	1718616064	59	4239
2026-01-20 07:35:43.02	342.80	19.84	-44.2	-45.3	18.8	0.00e+00	0	39	0	1721761792	59	4225
2026-01-20 07:35:44.02	342.65	19.74	-44.1	-45.3	18.9	0.00e+00	0	39	0	1724907520	59	4196
2026-01-20 07:35:45.03	342.50	19.63	-44.1	-45.2	18.9	0.00e+00	0	39	0	1728053248	59	4164
2026-01-20 07:35:46.04	342.35	19.53	-44.1	-45.2	18.9	0.00e+00	0	39	0	1730150400	59	4178
2026-01-20 07:35:47.05	342.20	19.43	-44.1	-45.2	18.9	0.00e+00	0	39	0	1733296128	59	4180
2026-01-20 07:35:48.05	342.05	19.33	-44.2	-45.3	18.8	0.00e+00	0	38	0	1736441856	59	4229
2026-01-20 07:35:49.06	341.90	19.23	-44.2	-45.4	18.7	0.00e+00	0	39	0	1739587584	59	4262
2026-01-20 07:35:50.07	341.75	19.13	-44.2	-45.4	18.7	0.00e+00	0	39	0	1742733312	59	4255
2026-01-20 07:35:51.08	341.60	19.02	-44.2	-45.4	18.6	0.00e+00	0	39	0	1745879040	59	4276
2026-01-20 07:35:52.09	341.46	18.92	-44.3	-45.5	18.5	0.00e+00	0	38	0	1749024768	59	4330
2026-01-20 07:35:53.09	341.32	18.82	-44.4	-45.6	18.5	0.00e+00	0	39	0	1752170496	59	4351
2026-01-20 07:35:54.10	341.17	18.72	-44.5	-45.7	18.3	0.00e+00	0	39	0	1755316224	59	4407
2026-01-20 07:35:55.11	341.03	18.62	-44.4	-45.6	18.4	0.00e+00	0	39	0	1759510528	59	4362
2026-01-20 07:35:56.12	340.89	18.52	-44.4	-45.6	18.3	0.00e+00	0	38	0	1762656256	59	4391
2026-01-20 07:35:57.13	340.75	18.42	-44.3	-45.5	18.4	0.00e+00	0	39	0	1765801984	59	4330
2026-01-20 07:35:58.13	340.61	18.33	-44.3	-45.5	18.4	0.00e+00	0	38	0	1768947712	59	4313
2026-01-20 07:35:59.14	340.47	18.23	-44.4	-45.6	18.4	0.00e+00	0	39	0	1772093440	59	4349
2026-01-20 07:36:00.15	340.33	18.13	-44.3	-45.5	18.4	0.00e+00	0	39	0	1775239168	59	4335
2026-01-20 07:36:01.16	340.19	18.03	-44.3	-45.4	18.5	0.00e+00	0	39	0	1777336320	59	4287
2026-01-20 07:36:02.17	340.06	17.93	-44.4	-45.6	18.4	0.00e+00	0	39	0	1780482048	59	4350
2026-01-20 07:36:03.17	339.92	17.83	-44.5	-45.7	18.3	0.00e+00	0	39	0	1783627776	59	4430
2026-01-20 07:36:04.18	339.79	17.73	-44.4	-45.6	18.4	0.00e+00	0	39	0	1786773504	59	4362
2026-01-20 07:36:05.19	339.65	17.63	-44.6	-45.8	18.2	0.00e+00	0	38	0	1789919232	59	4458
2026-01-20 07:36:06.20	339.52	17.54	-44.6	-45.9	18.1	0.00e+00	0	38	0	1793064960	59	4515
2026-01-20 07:36:07.20	339.39	17.44	-44.7	-45.9	18.1	0.00e+00	0	39	0	1796210688	59	4533
2026-01-20 07:36:08.21	339.26	17.34	-44.4	-45.6	18.1	0.00e+00	0	39	0	1800404992	60	4141
2026-01-20 07:36:09.22	339.13	17.25	-44.6	-45.8	17.9	0.00e+00	0	39	0	1803550720	60	4242
2026-01-20 07:36:10.23	339.00	17.15	-44.7	-45.9	17.8	0.00e+00	0	39	0	1806696448	60	4290
2026-01-20 07:36:11.24	338.87	17.05	-44.7	-46.0	17.8	0.00e+00	0	39	0	1809842176	60	4304
2026-01-20 07:36:12.24	338.75	16.96	-44.8	-46.1	17.6	0.00e+00	0	39	0	1812987904	60	4370
2026-01-20 07:36:13.25	338.62	16.86	-44.7	-46.0	17.7	0.00e+00	0	39	0	1816133632	60	4336
2026-01-20 07:36:14.26	338.49	16.76	-44.6	-45.9	17.8	0.00e+00	0	39	0	1819279360	60	4278
2026-01-20 07:36:15.27	338.37	16.67	-44.6	-45.9	17.9	0.00e+00	0	39	0	1822425088	60	4252
2026-01-20 07:36:16.27	338.24	16.57	-44.6	-45.8	17.9	0.00e+00	0	39	0	1824522240	60	4239
2026-01-20 07:36:17.28	338.12	16.48	-44.5	-45.7	18.0	0.00e+00	0	39	0	1827667968	60	4167
2026-01-20 07:36:18.29	338.00	16.38	-44.3	-45.6	18.2	0.00e+00	0	39	0	1830813696	60	4105
2026-01-20 07:36:19.30	337.88	16.29	-44.4	-45.6	18.1	0.00e+00	0	38	0	1833959424	60	4140
2026-01-20 07:36:20.31	337.76	16.19	-44.4	-45.7	18.1	0.00e+00	0	39	0	1837105152	60	4159
2026-01-20 07:36:21.31	337.64	16.10	-44.4	-45.7	18.1	0.00e+00	0	39	0	1841299456	60	4149
2026-01-20 07:36:22.32	337.52	16.01	-44.6	-45.8	17.9	0.00e+00	0	39	0	1844445184	60	4226
2026-01-20 07:36:23.33	337.40	15.91	-44.7	-46.1	17.7	0.00e+00	0	39	0	1847590912	60	4341
2026-01-20 07:36:24.33	337.28	15.82	-44.7	-46.0	17.8	0.00e+00	0	39	0	1850736640	60	4292
2026-01-20 07:36:25.34	337.16	15.73	-44.7	-46.0	17.7	0.00e+00	0	38	0	1853882368	60	4337
2026-01-20 07:36:26.35	337.05	15.63	-44.8	-46.1	17.6	0.00e+00	0	39	0	1857028096	60	4389
2026-01-20 07:36:27.36	336.93	15.54	-44.8	-46.2	17.6	0.00e+00	0	39	0	1860173824	60	4395
2026-01-20 07:36:28.37	336.82	15.45	-45.0	-46.3	17.4	0.00e+00	0	38	0	1863319552	60	4475
2026-01-20 07:36:29.38	336.70	15.36	-44.9	-46.3	17.5	0.00e+00	0	39	0	1866465280	60	4454
2026-01-20 07:36:30.38	336.59	15.26	-45.0	-46.4	17.4	0.00e+00	0	39	0	1869611008	60	4499
2026-01-20 07:36:31.39	336.48	15.17	-44.9	-46.3	17.4	0.00e+00	0	39	0	1871708160	60	4449
2026-01-20 07:36:32.40	336.36	15.08	-45.0	-46.4	17.3	0.00e+00	0	38	0	1874853888	60	4509
2026-01-20 07:36:33.41	336.25	14.99	-44.9	-46.3	17.4	0.00e+00	0	39	0	1877999616	60	4461
2026-01-20 07:36:34.41	336.14	14.90	-44.9	-46.2	17.5	0.00e+00	0	39	0	1882193920	60	4416
2026-01-20 07:36:35.42	336.03	14.81	-44.8	-46.2	17.5	0.00e+00	0	39	0	1885339648	60	4407
2026-01-20 07:36:36.43	335.92	14.72	-44.8	-46.2	17.5	0.00e+00	0	39	0	1888485376	60	4394
2026-01-20 07:36:37.44	335.81	14.63	-44.8	-46.1	17.6	0.00e+00	0	39	0	1891631104	60	4377
2026-01-20 07:36:38.45	335.71	14.54	-44.7	-46.0	17.7	0.00e+00	0	38	0	1894776832	60	4296
2026-01-20 07:36:39.45	335.60	14.45	-44.6	-45.9	17.8	0.00e+00	0	39	0	1897922560	60	4263
2026-01-20 07:36:40.46	335.49	14.36	-44.7	-46.0	17.7	0.00e+00	0	38	0	1901068288	60	4300
2026-01-20 07:36:41.47	335.39	14.27	-44.5	-45.8	17.9	0.00e+00	0	38	0	1904214016	60	4202
2026-01-20 07:36:42.48	335.28	14.18	-44.6	-45.9	17.8	0.00e+00	0	39	0	1907359744	60	4261
2026-01-20 07:36:43.49	335.18	14.09	-44.5	-45.8	17.9	0.00e+00	0	39	0	1910505472	60	4225
2026-01-20 07:36:44.49	335.07	14.00	-44.7	-45.9	17.7	0.00e+00	0	39	0	1913651200	60	4289
2026-01-20 07:36:45.50	334.97	13.91	-44.5	-45.7	17.9	0.00e+00	0	38	0	1916796928	60	4193
2026-01-20 07:36:46.51	334.87	13.82	-44.5	-45.7	17.9	0.00e+00	0	39	0	1919942656	60	4180
2026-01-20 07:36:47.52	334.77	13.73	-44.6	-45.9	17.8	0.00e+00	0	39	0	1923088384	60	4262
2026-01-20 07:36:48.53	334.66	13.65	-44.6	-45.9	17.7	0.00e+00	0	38	0	1926234112	60	4280
2026-01-20 07:36:49.53	334.56	13.56	-44.7	-46.0	17.6	0.00e+00	0	39	0	1929379840	60	4336
2026-01-20 07:36:50.54	334.46	13.47	-44.8	-46.2	17.5	0.00e+00	0	38	0	1932525568	60	4413
2026-01-20 07:36:51.55	334.36	13.38	-44.9	-46.3	17.4	0.00e+00	0	39	0	1935671296	60	4449
2026-01-20 07:36:52.56	334.27	13.30	-45.1	-46.5	17.2	0.00e+00	0	38	0	1938817024	60	4564
2026-01-20 07:36:53.57	334.17	13.21	-45.0	-46.4	17.3	0.00e+00	0	38	0	1941962752	60	4502
2026-01-20 07:36:54.57	334.07	13.12	-45.0	-46.4	17.3	0.00e+00	0	39	0	1945108480	60	4500
2026-01-20 07:36:55.58	333.97	13.04	-45.0	-46.4	17.2	0.00e+00	0	39	0	1948254208	60	4533
2026-01-20 07:36:56.59	333.88	12.95	-45.1	-46.5	17.1	0.00e+00	0	39	0	1951399936	60	4561
2026-01-20 07:36:57.60	333.78	12.86	-45.0	-46.4	17.2	0.00e+00	0	39	0	1954545664	60	4531
2026-01-20 07:36:58.61	333.68	12.78	-45.0	-46.4	17.2	0.00e+00	0	38	0	1957691392	60	4512
2026-01-20 07:36:59.61	333.59	12.69	-45.0	-46.4	17.2	0.00e+00	0	39	0	1960837120	60	4527
2026-01-20 07:37:00.62	333.50	12.61	-44.9	-46.3	17.2	0.00e+00	0	39	0	1963982848	60	4475
2026-01-20 07:37:01.63	333.40	12.52	-44.8	-46.2	17.4	0.00e+00	0	39	0	1967128576	60	4396
2026-01-20 07:37:02.64	333.31	12.44	-44.7	-46.0	17.5	0.00e+00	0	38	0	1970274304	60	4322
2026-01-20 07:37:03.65	333.22	12.35	-44.7	-46.0	17.5	0.00e+00	0	38	0	1973420032	60	4323
2026-01-20 07:37:04.66	333.12	12.27	-44.7	-46.0	17.5	0.00e+00	0	38	0	1976565760	60	4336
2026-01-20 07:37:05.66	333.03	12.18	-44.7	-46.0	17.5	0.00e+00	0	39	0	1979711488	60	4328
2026-01-20 07:37:06.67	332.94	12.10	-44.7	-46.0	17.6	0.00e+00	0	39	0	1982857216	60	4320
2026-01-20 07:37:07.68	332.85	12.02	-44.7	-46.0	17.6	0.00e+00	0	39	0	1986002944	60	4321
2026-01-20 07:37:08.69	332.76	11.93	-44.6	-45.9	17.7	0.00e+00	0	39	0	1989148672	60	4274
2026-01-20 07:37:09.69	332.67	11.85	-44.8	-46.1	17.4	0.00e+00	0	38	0	1992294400	60	4382
2026-01-20 07:37:10.70	332.58	11.77	-44.8	-46.1	17.5	0.00e+00	0	38	0	1995440128	60	4373
2026-01-20 07:37:11.71	332.50	11.68	-44.8	-46.2	17.5	0.00e+00	0	39	0	1998585856	60	4394
2026-01-20 07:37:12.72	332.41	11.60	-44.8	-46.2	17.5	0.00e+00	0	38	0	2001731584	60	4403
2026-01-20 07:37:13.73	332.32	11.52	-44.9	-46.2	17.4	0.00e+00	0	39	0	2004877312	60	4427
2026-01-20 07:37:14.74	332.23	11.43	-45.0	-46.4	17.2	0.00e+00	0	39	0	2008023040	60	4503
2026-01-20 07:37:15.74	332.15	11.35	-45.0	-46.4	17.2	0.00e+00	0	38	0	2011168768	60	4510
2026-01-20 07:37:16.75	332.06	11.27	-45.1	-46.5	17.1	0.00e+00	0	39	0	2014314496	60	4565
2026-01-20 07:37:17.76	331.98	11.19	-45.1	-46.5	17.1	0.00e+00	0	39	0	2017460224	60	4589
2026-01-20 07:37:18.77	331.89	11.11	-45.1	-46.6	17.1	0.00e+00	0	39	0	2020605952	60	4600
2026-01-20 07:37:19.78	331.81	11.03	-45.2	-46.7	17.0	0.00e+00	0	39	0	2023751680	61	4404
2026-01-20 07:37:20.78	331.72	10.95	-45.3	-46.7	16.9	0.00e+00	0	39	0	2026897408	61	4436
2026-01-20 07:37:21.79	331.64	10.87	-45.3	-46.8	16.8	0.00e+00	0	38	0	2030043136	61	4471
2026-01-20 07:37:22.80	331.56	10.78	-45.4	-46.9	16.7	0.00e+00	0	39	0	2033188864	61	4519
2026-01-20 07:37:23.80	331.48	10.70	-45.3	-46.8	16.8	0.00e+00	0	38	0	2036334592	61	4459
2026-01-20 07:37:24.81	331.39	10.62	-45.3	-46.8	16.8	0.00e+00	0	38	0	2039480320	61	4481
2026-01-20 07:37:25.82	331.31	10.54	-45.4	-46.8	16.7	0.00e+00	0	38	0	2042626048	61	4492
2026-01-20 07:37:26.83	331.23	10.46	-45.4	-46.9	16.7	0.00e+00	0	39	0	2045771776	61	4507
2026-01-20 07:37:27.83	331.15	10.38	-45.4	-46.9	16.7	0.00e+00	0	38	0	2048917504	61	4513
2026-01-20 07:37:28.84	331.07	10.31	-45.4	-46.9	16.7	0.00e+00	0	38	0	2052063232	61	4499
2026-01-20 07:37:29.85	330.99	10.23	-45.2	-46.7	16.9	0.00e+00	0	38	0	2055208960	61	4400
