passes_logs/2026/01/20/R3.2S_Murmansk/R3.2S_Murmansk__20260120_081536_NOAA_20_JPSS-1_rec.log

#Pass ID: 20260120_081536_NOAA 20 (JPSS-1)
#Satellite: NOAA 20 (JPSS-1)
#Configuration: NOAA 20
#almurnet v.1.7.20251203
#Start time: 2026-01-20 08:15:36

#Version: 2.2.20231116
#Station: R3.2S_Murmansk
#Location: 33.079688 lon 68.888172 lat
#TLE: 1 43013U 17073A   26019.91154542  .00000116  00000+0  76014-4 0  9997
#TLE: 2 43013  98.7642 320.7991 0001304  32.0041 328.1214 14.19537346423438

#Time	Az	El	Level	Level2	SNR	BER	BlckErr	Temp	State	Recorded	gain1	gain2
2026-01-20 08:15:36.13	122.15	1.97	-50.8	-65.8	3.8	1.49e+00	0	37	0	0	73	19883
2026-01-20 08:15:37.13	122.13	2.03	-50.8	-65.8	3.8	1.49e+00	0	37	104	0	72	21079
2026-01-20 08:15:38.13	122.10	2.09	-50.8	-65.8	3.8	1.49e+00	0	36	104	0	72	21091
2026-01-20 08:15:39.14	122.07	2.16	-50.8	-65.8	3.8	1.49e+00	0	37	104	0	72	21018
2026-01-20 08:15:40.15	122.04	2.22	-50.8	-65.7	3.8	1.49e+00	0	37	104	0	72	21017
2026-01-20 08:15:41.16	122.01	2.29	-50.8	-65.7	3.8	1.49e+00	0	37	104	0	72	20941
2026-01-20 08:15:42.17	121.98	2.35	-50.8	-65.8	3.8	1.49e+00	0	37	104	0	72	21027
2026-01-20 08:15:43.17	121.95	2.41	-50.8	-65.8	3.8	1.49e+00	0	37	104	0	72	21047
2026-01-20 08:15:44.18	121.93	2.48	-50.8	-65.8	3.8	1.49e+00	0	37	104	0	72	21048
2026-01-20 08:15:45.19	121.90	2.54	-50.8	-65.7	3.8	1.49e+00	0	37	104	0	72	20994
2026-01-20 08:15:46.20	121.87	2.61	-50.8	-65.7	3.8	1.49e+00	0	37	104	0	72	21002
2026-01-20 08:15:47.21	121.84	2.67	-50.8	-65.8	3.8	1.49e+00	0	37	104	0	72	21026
2026-01-20 08:15:48.22	121.81	2.74	-50.8	-65.8	3.8	1.49e+00	0	37	104	0	72	21033
2026-01-20 08:15:49.22	121.78	2.80	-50.8	-65.7	3.8	1.49e+00	0	37	104	0	72	20981
2026-01-20 08:15:50.23	121.75	2.87	-50.8	-65.7	3.8	1.49e+00	0	37	104	0	72	20970
2026-01-20 08:15:51.24	121.72	2.93	-50.8	-65.7	3.8	1.49e+00	0	37	104	0	72	20957
2026-01-20 08:15:52.25	121.69	3.00	-50.8	-65.7	3.8	1.49e+00	0	37	104	0	72	20973
2026-01-20 08:15:53.25	121.66	3.06	-50.8	-65.7	3.8	1.49e+00	0	37	104	0	72	20920
2026-01-20 08:15:54.26	121.63	3.13	-50.8	-65.7	3.8	1.49e+00	0	37	104	0	72	20892
2026-01-20 08:15:55.27	121.59	3.20	-50.8	-65.7	3.8	1.49e+00	0	37	104	0	72	20939
2026-01-20 08:15:56.28	121.56	3.26	-50.8	-65.7	3.8	1.49e+00	0	37	104	0	72	20785
2026-01-20 08:15:57.29	121.53	3.33	-50.8	-65.6	3.8	1.49e+00	0	37	104	0	72	20718
2026-01-20 08:15:58.29	121.50	3.39	-50.8	-65.6	3.8	1.49e+00	0	37	104	0	72	20697
2026-01-20 08:15:59.30	121.47	3.46	-50.8	-65.6	3.8	1.49e+00	0	37	104	0	72	20562
2026-01-20 08:16:00.31	121.44	3.53	-50.8	-65.4	3.8	1.49e+00	0	37	104	0	72	20171
2026-01-20 08:16:01.32	121.41	3.59	-50.8	-65.2	3.8	1.49e+00	0	38	104	0	72	19797
2026-01-20 08:16:02.33	121.37	3.66	-50.8	-65.1	3.8	1.49e+00	0	38	104	0	72	19492
2026-01-20 08:16:03.34	121.34	3.73	-50.8	-64.5	3.8	1.49e+00	0	37	104	0	72	18132
2026-01-20 08:16:04.34	121.31	3.79	-50.8	-64.6	3.8	1.49e+00	0	37	104	0	72	18324
2026-01-20 08:16:05.35	121.28	3.86	-50.8	-64.3	3.8	1.49e+00	0	37	104	0	72	17737
2026-01-20 08:16:06.36	121.24	3.93	-50.7	-63.8	3.8	1.49e+00	0	37	104	0	72	16737
2026-01-20 08:16:07.37	121.21	4.00	-50.7	-63.7	3.8	1.49e+00	0	37	104	0	72	16568
2026-01-20 08:16:08.38	121.18	4.07	-50.7	-63.4	4.0	1.48e+00	0	37	104	0	72	15997
2026-01-20 08:16:09.38	121.15	4.13	-50.7	-63.0	4.0	1.49e+00	0	37	104	0	72	15328
2026-01-20 08:16:10.39	121.11	4.20	-50.7	-63.8	3.8	1.47e+00	0	38	104	0	72	16695
2026-01-20 08:16:11.40	121.08	4.27	-50.7	-63.1	3.8	1.45e+00	0	37	104	0	72	15499
2026-01-20 08:16:12.41	121.05	4.34	-50.6	-62.5	4.1	1.44e+00	0	38	0	0	72	14399
2026-01-20 08:16:13.42	121.01	4.41	-50.6	-61.4	4.4	1.40e+00	113	38	0	0	72	12706
2026-01-20 08:16:14.43	120.98	4.48	-50.5	-60.8	4.7	9.84e-01	0	38	0	2097152	72	11854
2026-01-20 08:16:15.43	120.94	4.54	-50.4	-59.9	5.2	6.67e-01	0	37	0	4194304	72	10662
2026-01-20 08:16:16.44	120.91	4.61	-50.3	-59.1	5.7	5.12e-01	0	37	0	5242880	72	9749
2026-01-20 08:16:17.45	120.88	4.68	-50.0	-57.2	7.2	1.93e-01	0	38	0	7340032	72	7824
2026-01-20 08:16:18.45	120.84	4.75	-49.9	-56.5	7.9	1.01e-01	0	38	0	9437184	71	7712
2026-01-20 08:16:19.46	120.81	4.82	-49.8	-56.2	8.3	4.92e-02	0	38	0	11534336	71	7420
2026-01-20 08:16:20.47	120.77	4.89	-49.4	-54.7	9.8	1.37e-02	0	38	0	12582912	70	6638
2026-01-20 08:16:21.48	120.74	4.96	-49.3	-54.6	9.9	8.24e-03	0	38	0	14680064	70	6536
2026-01-20 08:16:22.49	120.70	5.03	-48.9	-53.5	11.1	4.75e-03	0	37	0	16777216	69	6116
2026-01-20 08:16:23.49	120.67	5.10	-50.4	-58.7	6.4	1.58e-03	0	38	0	18874368	71	9915
2026-01-20 08:16:24.50	120.63	5.17	-50.5	-60.2	4.2	1.49e+00	0	38	104	18874368	72	11066
2026-01-20 08:16:25.51	120.59	5.24	-49.0	-53.5	11.4	1.32e-03	0	38	0	19922944	69	6123
2026-01-20 08:16:26.52	120.56	5.32	-50.1	-57.3	7.2	4.59e-01	0	38	0	20971520	71	8379
2026-01-20 08:16:27.53	120.52	5.39	-48.7	-52.8	11.7	1.84e-01	0	38	0	23068672	69	5630
2026-01-20 08:16:28.54	120.48	5.46	-48.6	-52.5	12.2	2.13e-03	0	38	0	25165824	69	5451
2026-01-20 08:16:29.54	120.45	5.53	-48.5	-52.4	12.4	1.49e-04	0	38	0	27262976	69	5354
2026-01-20 08:16:30.55	120.41	5.60	-48.4	-52.1	12.7	8.54e-05	0	38	0	29360128	68	5493
2026-01-20 08:16:31.56	120.37	5.67	-48.3	-51.9	12.9	4.34e-05	0	38	0	31457280	68	5370
2026-01-20 08:16:32.57	120.34	5.74	-48.4	-52.1	12.8	4.73e-05	0	38	0	32505856	68	5483
2026-01-20 08:16:33.58	120.30	5.82	-48.5	-52.3	12.6	7.70e-05	0	37	0	34603008	68	5601
2026-01-20 08:16:34.58	120.26	5.89	-48.2	-51.6	13.2	5.26e-05	0	38	0	36700160	68	5199
2026-01-20 08:16:35.59	120.22	5.96	-48.2	-51.7	13.2	1.90e-05	0	38	0	38797312	68	5279
2026-01-20 08:16:36.60	120.19	6.03	-48.4	-52.1	12.8	4.11e-05	0	38	0	39845888	68	5499
2026-01-20 08:16:37.61	120.15	6.11	-48.2	-51.7	13.2	2.05e-05	0	38	0	41943040	68	5259
2026-01-20 08:16:38.61	120.11	6.18	-48.3	-51.8	13.1	3.66e-05	0	38	0	44040192	68	5323
2026-01-20 08:16:39.62	120.07	6.25	-48.4	-52.0	13.0	3.73e-05	0	38	0	46137344	68	5415
2026-01-20 08:16:40.63	120.03	6.33	-48.3	-51.9	13.1	3.43e-05	0	38	0	48234496	68	5346
2026-01-20 08:16:41.64	119.99	6.40	-48.4	-52.0	13.0	2.82e-05	0	38	0	50331648	68	5431
2026-01-20 08:16:42.65	119.95	6.47	-48.5	-52.1	12.8	5.41e-05	0	38	0	51380224	68	5518
2026-01-20 08:16:43.65	119.91	6.55	-48.3	-51.7	13.2	2.36e-05	0	38	0	53477376	68	5278
2026-01-20 08:16:44.66	119.87	6.62	-48.2	-51.6	13.3	1.44e-05	0	38	0	55574528	68	5208
2026-01-20 08:16:45.67	119.83	6.70	-48.4	-52.1	12.8	3.73e-05	0	38	0	57671680	68	5515
2026-01-20 08:16:46.68	119.79	6.77	-48.3	-51.9	13.1	2.97e-05	0	38	0	59768832	68	5357
2026-01-20 08:16:47.69	119.75	6.85	-48.4	-51.9	13.1	3.43e-05	0	38	0	60817408	68	5377
2026-01-20 08:16:48.70	119.71	6.92	-48.3	-51.7	13.2	2.89e-05	0	38	0	62914560	68	5260
2026-01-20 08:16:49.70	119.67	7.00	-48.3	-51.8	13.1	2.28e-05	0	38	0	65011712	68	5340
2026-01-20 08:16:50.71	119.63	7.07	-48.2	-51.6	13.4	1.67e-05	0	38	0	67108864	68	5170
2026-01-20 08:16:51.72	119.59	7.15	-48.2	-51.5	13.5	1.44e-05	0	38	0	68157440	68	5137
2026-01-20 08:16:52.73	119.55	7.23	-48.2	-51.5	13.5	1.06e-05	0	38	0	70254592	68	5144
2026-01-20 08:16:53.74	119.50	7.30	-48.2	-51.5	13.5	1.52e-05	0	38	0	72351744	68	5159
2026-01-20 08:16:54.74	119.46	7.38	-48.3	-51.7	13.4	1.44e-05	0	38	0	74448896	68	5248
2026-01-20 08:16:55.75	119.42	7.45	-48.2	-51.6	13.4	6.80e-06	0	38	0	76546048	68	5211
2026-01-20 08:16:56.76	119.38	7.53	-48.2	-51.5	13.6	9.90e-06	0	38	0	78643200	68	5106
2026-01-20 08:16:57.76	119.33	7.61	-48.2	-51.5	13.6	7.60e-06	0	38	0	79691776	68	5149
2026-01-20 08:16:58.77	119.29	7.68	-48.1	-51.4	13.7	9.10e-06	0	38	0	81788928	68	5078
2026-01-20 08:16:59.78	119.25	7.76	-48.2	-51.6	13.5	1.06e-05	0	38	0	83886080	68	5189
2026-01-20 08:17:00.79	119.20	7.84	-48.2	-51.6	13.4	1.83e-05	0	38	0	85983232	68	5204
2026-01-20 08:17:01.79	119.16	7.92	-48.3	-51.7	13.3	1.29e-05	0	38	0	88080384	68	5246
2026-01-20 08:17:02.80	119.12	8.00	-48.2	-51.6	13.5	1.06e-05	0	38	0	89128960	68	5183
2026-01-20 08:17:03.80	119.07	8.07	-48.1	-51.4	13.7	6.10e-06	0	38	0	91226112	68	5054
2026-01-20 08:17:04.81	119.03	8.15	-48.1	-51.2	13.9	5.30e-06	0	38	0	93323264	68	4979
2026-01-20 08:17:05.82	118.98	8.23	-48.1	-51.4	13.7	6.80e-06	0	38	0	95420416	68	5074
2026-01-20 08:17:06.82	118.94	8.31	-48.1	-51.3	13.9	3.80e-06	0	38	0	96468992	68	4992
2026-01-20 08:17:07.83	118.89	8.39	-48.1	-51.3	13.8	3.00e-06	0	38	0	98566144	68	5020
2026-01-20 08:17:08.84	118.85	8.47	-48.2	-51.5	13.7	1.50e-06	0	38	0	100663296	68	5112
2026-01-20 08:17:09.85	118.80	8.55	-48.1	-51.3	13.8	6.10e-06	0	38	0	102760448	68	5031
2026-01-20 08:17:10.85	118.76	8.63	-48.1	-51.2	13.9	4.50e-06	0	38	0	104857600	68	4981
2026-01-20 08:17:11.86	118.71	8.71	-48.1	-51.2	13.9	4.50e-06	0	38	0	106954752	68	4973
2026-01-20 08:17:12.87	118.66	8.79	-47.9	-51.0	14.0	6.10e-06	0	38	0	108003328	67	5129
2026-01-20 08:17:13.88	118.62	8.87	-47.8	-50.8	14.3	7.00e-07	0	38	0	110100480	67	5015
2026-01-20 08:17:14.89	118.57	8.95	-47.9	-51.0	14.1	1.50e-06	0	38	0	112197632	67	5146
2026-01-20 08:17:15.89	118.52	9.03	-48.0	-51.2	13.9	7.00e-07	0	38	0	114294784	67	5222
2026-01-20 08:17:16.90	118.47	9.11	-47.9	-51.0	14.0	2.20e-06	0	38	0	116391936	67	5158
2026-01-20 08:17:17.91	118.43	9.19	-48.0	-51.1	14.0	2.20e-06	0	38	0	117440512	67	5188
2026-01-20 08:17:18.91	118.38	9.28	-47.9	-51.0	14.1	3.00e-06	0	38	0	119537664	67	5132
2026-01-20 08:17:19.92	118.33	9.36	-47.8	-50.9	14.2	2.20e-06	0	38	0	121634816	67	5042
2026-01-20 08:17:20.93	118.28	9.44	-47.9	-51.0	14.1	1.50e-06	0	38	0	123731968	67	5115
2026-01-20 08:17:21.94	118.23	9.52	-48.0	-51.1	14.0	4.50e-06	0	38	0	125829120	67	5186
2026-01-20 08:17:22.95	118.18	9.61	-47.8	-50.8	14.3	7.00e-07	0	38	0	126877696	67	5008
2026-01-20 08:17:23.95	118.13	9.69	-47.9	-51.0	14.1	3.00e-06	0	38	0	128974848	67	5140
2026-01-20 08:17:24.96	118.08	9.77	-47.9	-50.9	14.2	3.00e-06	0	38	0	131072000	67	5065
2026-01-20 08:17:25.97	118.03	9.86	-47.8	-50.7	14.4	7.00e-07	0	38	0	133169152	67	4958
2026-01-20 08:17:26.98	117.98	9.94	-47.8	-50.7	14.5	1.50e-06	0	38	0	135266304	67	4945
2026-01-20 08:17:27.99	117.93	10.02	-47.7	-50.6	14.6	0.00e+00	0	38	0	136314880	67	4879
2026-01-20 08:17:28.99	117.88	10.11	-47.7	-50.6	14.5	1.50e-06	0	38	0	138412032	67	4922
2026-01-20 08:17:30.00	117.83	10.19	-47.8	-50.7	14.4	7.00e-07	0	38	0	140509184	67	4982
2026-01-20 08:17:31.01	117.77	10.28	-47.8	-50.8	14.4	7.00e-07	0	38	0	142606336	67	4996
2026-01-20 08:17:32.02	117.72	10.36	-47.7	-50.6	14.6	0.00e+00	0	38	0	144703488	67	4875
2026-01-20 08:17:33.03	117.67	10.45	-47.8	-50.7	14.5	0.00e+00	0	38	0	145752064	67	4973
2026-01-20 08:17:34.03	117.62	10.53	-47.7	-50.6	14.6	7.00e-07	0	38	0	147849216	67	4896
2026-01-20 08:17:35.04	117.56	10.62	-47.7	-50.6	14.6	0.00e+00	0	38	0	149946368	67	4888
2026-01-20 08:17:36.05	117.51	10.71	-47.7	-50.5	14.7	1.50e-06	0	38	0	152043520	67	4870
2026-01-20 08:17:37.06	117.45	10.79	-47.7	-50.6	14.6	0.00e+00	0	38	0	154140672	67	4889
2026-01-20 08:17:38.06	117.40	10.88	-47.7	-50.5	14.7	0.00e+00	0	38	0	155189248	67	4862
2026-01-20 08:17:39.07	117.35	10.97	-47.6	-50.4	14.8	0.00e+00	0	38	0	157286400	67	4806
2026-01-20 08:17:40.08	117.29	11.05	-47.6	-50.4	14.8	7.00e-07	0	38	0	159383552	67	4803
2026-01-20 08:17:41.09	117.24	11.14	-47.6	-50.4	14.8	0.00e+00	0	38	0	161480704	67	4796
2026-01-20 08:17:42.10	117.18	11.23	-47.6	-50.4	14.9	0.00e+00	0	38	0	163577856	67	4760
2026-01-20 08:17:43.10	117.12	11.32	-47.6	-50.4	14.8	0.00e+00	0	38	0	164626432	67	4771
2026-01-20 08:17:44.11	117.07	11.41	-47.6	-50.4	14.9	0.00e+00	0	38	0	166723584	67	4764
2026-01-20 08:17:45.12	117.01	11.50	-47.6	-50.3	14.9	0.00e+00	0	38	0	168820736	67	4734
2026-01-20 08:17:46.13	116.95	11.59	-47.5	-50.2	15.0	0.00e+00	0	38	0	170917888	67	4681
2026-01-20 08:17:47.14	116.90	11.68	-47.5	-50.1	15.1	0.00e+00	0	38	0	173015040	66	4913
2026-01-20 08:17:48.14	116.84	11.76	-47.5	-50.3	15.0	0.00e+00	0	38	0	175112192	66	4991
2026-01-20 08:17:49.15	116.78	11.85	-47.5	-50.2	15.0	0.00e+00	0	38	0	176160768	66	4954
2026-01-20 08:17:50.16	116.72	11.94	-47.4	-50.1	15.2	0.00e+00	0	38	0	178257920	66	4877
2026-01-20 08:17:51.17	116.66	12.04	-47.5	-50.1	15.1	0.00e+00	0	38	0	180355072	66	4910
2026-01-20 08:17:52.17	116.60	12.13	-47.4	-50.1	15.1	0.00e+00	0	38	0	182452224	66	4895
2026-01-20 08:17:53.18	116.54	12.22	-47.4	-50.1	15.2	0.00e+00	0	38	0	183500800	66	4901
2026-01-20 08:17:54.19	116.48	12.31	-47.6	-50.3	15.0	0.00e+00	0	38	0	185597952	66	5002
2026-01-20 08:17:55.20	116.42	12.40	-47.4	-49.9	15.3	0.00e+00	0	38	0	187695104	66	4811
2026-01-20 08:17:56.21	116.36	12.49	-47.5	-50.1	15.1	0.00e+00	0	38	0	189792256	66	4926
2026-01-20 08:17:57.21	116.30	12.59	-47.5	-50.1	15.2	0.00e+00	0	38	0	191889408	66	4901
2026-01-20 08:17:58.22	116.24	12.68	-47.3	-49.9	15.4	0.00e+00	0	38	0	192937984	66	4783
2026-01-20 08:17:59.23	116.18	12.77	-47.3	-49.9	15.4	0.00e+00	0	38	0	195035136	66	4795
2026-01-20 08:18:00.24	116.11	12.87	-47.4	-50.0	15.2	0.00e+00	0	38	0	197132288	66	4854
2026-01-20 08:18:01.25	116.05	12.96	-47.4	-50.0	15.2	0.00e+00	0	38	0	199229440	66	4855
2026-01-20 08:18:02.25	115.99	13.05	-47.3	-49.9	15.4	0.00e+00	0	38	0	201326592	66	4777
2026-01-20 08:18:03.26	115.92	13.15	-47.3	-49.8	15.5	0.00e+00	0	38	0	203423744	66	4739
2026-01-20 08:18:04.27	115.86	13.24	-47.3	-49.8	15.5	0.00e+00	0	38	0	204472320	66	4725
2026-01-20 08:18:05.28	115.79	13.34	-47.3	-49.8	15.6	0.00e+00	0	38	0	206569472	66	4713
2026-01-20 08:18:06.28	115.73	13.43	-47.3	-49.8	15.5	0.00e+00	0	38	0	208666624	66	4749
2026-01-20 08:18:07.29	115.66	13.53	-47.3	-49.8	15.5	0.00e+00	0	38	0	210763776	66	4729
2026-01-20 08:18:08.30	115.60	13.62	-47.2	-49.7	15.6	0.00e+00	0	38	0	211812352	66	4676
2026-01-20 08:18:09.31	115.53	13.72	-47.3	-49.8	15.5	0.00e+00	0	38	0	213909504	66	4742
2026-01-20 08:18:10.31	115.46	13.82	-47.3	-49.9	15.5	0.00e+00	0	38	0	216006656	66	4765
2026-01-20 08:18:11.32	115.40	13.92	-47.3	-49.9	15.5	0.00e+00	0	38	0	218103808	66	4774
2026-01-20 08:18:12.33	115.33	14.01	-47.3	-49.9	15.5	0.00e+00	0	38	0	220200960	66	4768
2026-01-20 08:18:13.34	115.26	14.11	-47.3	-49.8	15.6	0.00e+00	0	38	0	222298112	66	4713
2026-01-20 08:18:14.35	115.19	14.21	-47.3	-49.9	15.5	0.00e+00	0	38	0	223346688	66	4776
2026-01-20 08:18:15.35	115.12	14.31	-47.4	-49.9	15.4	0.00e+00	0	38	0	225443840	66	4792
2026-01-20 08:18:16.36	115.05	14.41	-47.4	-49.9	15.4	0.00e+00	0	38	0	227540992	66	4804
2026-01-20 08:18:17.37	114.98	14.51	-47.3	-49.8	15.5	0.00e+00	0	38	0	229638144	66	4743
2026-01-20 08:18:18.38	114.91	14.61	-47.4	-49.9	15.4	0.00e+00	0	38	0	231735296	66	4796
2026-01-20 08:18:19.38	114.84	14.70	-47.3	-49.9	15.5	0.00e+00	0	38	0	232783872	66	4776
2026-01-20 08:18:20.39	114.77	14.81	-47.2	-49.7	15.6	0.00e+00	0	38	0	234881024	66	4680
2026-01-20 08:18:21.40	114.69	14.91	-47.2	-49.7	15.7	0.00e+00	0	38	0	236978176	66	4669
2026-01-20 08:18:22.41	114.62	15.01	-47.3	-49.8	15.6	0.00e+00	0	38	0	239075328	66	4711
2026-01-20 08:18:23.41	114.55	15.11	-47.2	-49.7	15.6	0.00e+00	0	38	0	240123904	66	4693
2026-01-20 08:18:24.42	114.48	15.21	-47.3	-49.7	15.6	0.00e+00	0	38	0	242221056	66	4700
2026-01-20 08:18:25.43	114.40	15.31	-47.3	-49.8	15.6	0.00e+00	0	38	0	244318208	66	4718
2026-01-20 08:18:26.44	114.33	15.42	-47.3	-49.8	15.5	0.00e+00	0	38	0	246415360	66	4720
2026-01-20 08:18:27.45	114.25	15.52	-47.3	-49.8	15.5	7.00e-07	0	38	0	248512512	66	4752
2026-01-20 08:18:28.45	114.17	15.62	-47.2	-49.6	15.7	0.00e+00	0	38	0	250609664	66	4651
2026-01-20 08:18:29.46	114.10	15.73	-47.2	-49.7	15.7	0.00e+00	0	38	0	251658240	66	4677
2026-01-20 08:18:30.47	114.02	15.83	-47.3	-49.8	15.6	0.00e+00	0	38	0	253755392	66	4706
2026-01-20 08:18:31.48	113.94	15.93	-47.2	-49.7	15.6	0.00e+00	0	38	0	255852544	66	4689
2026-01-20 08:18:32.48	113.87	16.04	-47.1	-49.5	15.8	0.00e+00	0	38	0	257949696	66	4594
2026-01-20 08:18:33.49	113.79	16.14	-47.1	-49.6	15.8	0.00e+00	0	38	0	260046848	66	4600
2026-01-20 08:18:34.50	113.71	16.25	-47.2	-49.6	15.8	0.00e+00	0	38	0	261095424	66	4615
2026-01-20 08:18:35.51	113.63	16.36	-47.1	-49.6	15.8	0.00e+00	0	38	0	263192576	66	4620
2026-01-20 08:18:36.51	113.55	16.46	-47.2	-49.6	15.7	0.00e+00	0	38	0	265289728	66	4636
2026-01-20 08:18:37.52	113.47	16.57	-47.2	-49.7	15.7	0.00e+00	0	38	0	267386880	66	4653
2026-01-20 08:18:38.53	113.38	16.68	-47.2	-49.7	15.7	0.00e+00	0	38	0	269484032	66	4667
2026-01-20 08:18:39.54	113.30	16.78	-47.1	-49.5	15.8	0.00e+00	0	38	0	270532608	66	4578
2026-01-20 08:18:40.54	113.22	16.89	-47.1	-49.5	15.9	0.00e+00	0	38	0	272629760	66	4556
2026-01-20 08:18:41.55	113.14	17.00	-47.2	-49.6	15.8	0.00e+00	0	38	0	274726912	66	4625
2026-01-20 08:18:42.56	113.05	17.11	-47.1	-49.5	15.9	0.00e+00	0	38	0	276824064	66	4551
2026-01-20 08:18:43.57	112.97	17.22	-47.1	-49.5	15.9	0.00e+00	0	38	0	278921216	66	4566
2026-01-20 08:18:44.57	112.88	17.33	-47.1	-49.6	15.8	0.00e+00	0	38	0	279969792	66	4613
2026-01-20 08:18:45.58	112.79	17.44	-47.2	-49.7	15.6	0.00e+00	0	38	0	282066944	66	4692
2026-01-20 08:18:46.59	112.71	17.55	-47.2	-49.6	15.7	0.00e+00	0	38	0	284164096	66	4651
2026-01-20 08:18:47.60	112.62	17.66	-47.3	-49.7	15.6	0.00e+00	0	38	0	286261248	66	4702
2026-01-20 08:18:48.60	112.53	17.77	-47.2	-49.7	15.7	0.00e+00	0	38	0	288358400	66	4668
2026-01-20 08:18:49.61	112.44	17.88	-47.3	-49.8	15.6	0.00e+00	0	38	0	289406976	66	4717
2026-01-20 08:18:50.62	112.35	18.00	-47.2	-49.7	15.7	0.00e+00	0	38	0	291504128	66	4664
2026-01-20 08:18:51.63	112.26	18.11	-47.3	-49.7	15.6	0.00e+00	0	39	0	293601280	66	4694
2026-01-20 08:18:52.63	112.17	18.22	-47.3	-49.9	15.5	0.00e+00	0	39	0	295698432	66	4778
2026-01-20 08:18:53.64	112.08	18.34	-47.4	-50.0	15.4	0.00e+00	0	39	0	297795584	66	4843
2026-01-20 08:18:54.65	111.99	18.45	-47.5	-50.1	15.3	0.00e+00	0	38	0	298844160	66	4878
2026-01-20 08:18:55.66	111.90	18.57	-47.5	-50.1	15.2	0.00e+00	0	38	0	300941312	66	4906
2026-01-20 08:18:56.67	111.80	18.68	-47.6	-50.2	15.1	0.00e+00	0	38	0	303038464	66	4967
2026-01-20 08:18:57.67	111.71	18.80	-47.6	-50.2	15.1	0.00e+00	0	39	0	305135616	66	4967
2026-01-20 08:18:58.68	111.61	18.91	-47.5	-50.2	15.1	0.00e+00	0	38	0	307232768	66	4959
2026-01-20 08:18:59.69	111.52	19.03	-47.6	-50.2	15.1	0.00e+00	0	38	0	308281344	66	4973
2026-01-20 08:19:00.70	111.42	19.15	-47.6	-50.2	15.1	0.00e+00	0	38	0	310378496	66	4970
2026-01-20 08:19:01.71	111.32	19.26	-47.6	-50.2	15.1	0.00e+00	0	38	0	312475648	66	4981
2026-01-20 08:19:02.71	111.23	19.38	-47.6	-50.3	15.1	0.00e+00	0	38	0	314572800	66	5009
2026-01-20 08:19:03.72	111.13	19.50	-47.6	-50.3	15.0	0.00e+00	0	38	0	316669952	66	5012
2026-01-20 08:19:04.72	111.03	19.62	-47.7	-50.5	14.9	0.00e+00	0	38	0	317718528	66	5115
2026-01-20 08:19:05.74	110.93	19.74	-47.7	-50.5	14.8	0.00e+00	0	38	0	319815680	66	5135
2026-01-20 08:19:06.74	110.82	19.86	-47.8	-50.6	14.7	0.00e+00	0	38	0	321912832	66	5190
2026-01-20 08:19:07.75	110.72	19.98	-47.8	-50.6	14.8	0.00e+00	0	38	0	324009984	66	5172
2026-01-20 08:19:08.76	110.62	20.10	-47.7	-50.5	14.9	7.00e-07	0	38	0	326107136	66	5128
2026-01-20 08:19:09.77	110.51	20.22	-47.8	-50.7	14.6	0.00e+00	0	38	0	327155712	66	5251
2026-01-20 08:19:10.77	110.41	20.34	-47.8	-50.6	14.8	7.00e-07	0	38	0	329252864	66	5171
2026-01-20 08:19:11.78	110.30	20.46	-47.8	-50.6	14.7	7.00e-07	0	39	0	331350016	66	5205
2026-01-20 08:19:12.79	110.20	20.59	-47.8	-50.7	14.7	0.00e+00	0	38	0	333447168	66	5240
2026-01-20 08:19:13.80	110.09	20.71	-47.9	-50.8	14.5	0.00e+00	0	39	0	335544320	66	5304
2026-01-20 08:19:14.81	109.98	20.83	-47.8	-50.7	14.6	7.00e-07	0	38	0	336592896	66	5238
2026-01-20 08:19:15.81	109.87	20.96	-47.9	-50.8	14.6	1.50e-06	0	39	0	338690048	66	5292
2026-01-20 08:19:16.82	109.76	21.08	-47.8	-50.7	14.6	0.00e+00	0	38	0	340787200	66	5247
2026-01-20 08:19:17.83	109.65	21.21	-47.9	-50.8	14.5	1.50e-06	0	38	0	342884352	66	5326
2026-01-20 08:19:18.83	109.54	21.33	-47.9	-50.9	14.5	0.00e+00	0	39	0	344981504	66	5345
2026-01-20 08:19:19.84	109.43	21.46	-47.9	-50.8	14.5	7.00e-07	0	39	0	347078656	66	5327
2026-01-20 08:19:20.85	109.31	21.58	-48.0	-50.9	14.4	0.00e+00	0	38	0	348127232	66	5358
2026-01-20 08:19:21.86	109.20	21.71	-48.0	-50.9	14.4	0.00e+00	0	38	0	350224384	66	5392
2026-01-20 08:19:22.87	109.08	21.84	-48.0	-51.0	14.4	1.50e-06	0	39	0	352321536	66	5406
2026-01-20 08:19:23.88	108.97	21.97	-48.0	-51.1	14.3	1.50e-06	0	39	0	354418688	66	5470
2026-01-20 08:19:24.88	108.85	22.10	-48.0	-51.0	14.4	7.00e-07	0	38	0	355467264	66	5418
2026-01-20 08:19:25.89	108.73	22.23	-48.1	-51.1	14.3	0.00e+00	0	38	0	357564416	66	5475
2026-01-20 08:19:26.90	108.61	22.36	-48.0	-50.9	14.4	7.00e-07	0	39	0	359661568	66	5359
2026-01-20 08:19:27.91	108.49	22.49	-47.9	-50.8	14.5	0.00e+00	0	38	0	361758720	66	5299
2026-01-20 08:19:28.91	108.37	22.62	-47.9	-50.8	14.6	1.50e-06	0	39	0	363855872	66	5293
2026-01-20 08:19:29.92	108.25	22.75	-47.9	-50.8	14.5	7.00e-07	0	38	0	364904448	66	5310
2026-01-20 08:19:30.93	108.12	22.88	-47.9	-50.8	14.5	7.00e-07	0	38	0	367001600	66	5328
2026-01-20 08:19:31.93	108.00	23.01	-48.0	-51.0	14.4	0.00e+00	0	38	0	369098752	66	5411
2026-01-20 08:19:32.94	107.87	23.14	-48.0	-51.0	14.3	0.00e+00	0	38	0	371195904	66	5435
2026-01-20 08:19:33.95	107.74	23.28	-48.0	-51.0	14.3	0.00e+00	0	38	0	373293056	66	5449
2026-01-20 08:19:34.96	107.62	23.41	-48.0	-51.1	14.3	1.50e-06	0	38	0	375390208	66	5472
2026-01-20 08:19:35.97	107.49	23.55	-48.1	-51.1	14.2	7.00e-07	0	38	0	376438784	66	5487
2026-01-20 08:19:36.97	107.36	23.68	-48.0	-51.0	14.3	0.00e+00	0	38	0	378535936	66	5445
2026-01-20 08:19:37.98	107.22	23.82	-48.1	-51.2	14.1	1.50e-06	0	38	0	380633088	66	5547
2026-01-20 08:19:38.99	107.09	23.95	-48.0	-51.0	14.3	0.00e+00	0	38	0	382730240	66	5424
2026-01-20 08:19:39.99	106.96	24.09	-47.9	-50.8	14.5	0.00e+00	0	38	0	383778816	66	5337
2026-01-20 08:19:41.00	106.82	24.23	-47.9	-50.8	14.6	0.00e+00	0	38	0	385875968	66	5287
2026-01-20 08:19:42.01	106.69	24.36	-47.9	-50.8	14.5	7.00e-07	0	38	0	387973120	66	5315
2026-01-20 08:19:43.02	106.55	24.50	-47.8	-50.7	14.7	0.00e+00	0	38	0	390070272	66	5220
2026-01-20 08:19:44.03	106.41	24.64	-47.8	-50.6	14.8	0.00e+00	0	38	0	392167424	66	5167
2026-01-20 08:19:45.04	106.27	24.78	-47.8	-50.5	14.8	7.00e-07	0	39	0	394264576	66	5146
2026-01-20 08:19:46.04	106.13	24.92	-47.8	-50.6	14.8	0.00e+00	0	39	0	395313152	66	5169
2026-01-20 08:19:47.05	105.98	25.06	-47.8	-50.6	14.8	7.00e-07	0	38	0	397410304	66	5165
2026-01-20 08:19:48.06	105.84	25.20	-47.8	-50.6	14.8	0.00e+00	0	38	0	399507456	66	5179
2026-01-20 08:19:49.07	105.69	25.34	-47.8	-50.6	14.7	7.00e-07	0	38	0	401604608	66	5207
2026-01-20 08:19:50.07	105.55	25.49	-47.8	-50.6	14.7	0.00e+00	0	39	0	403701760	66	5207
2026-01-20 08:19:51.08	105.40	25.63	-47.8	-50.6	14.7	1.50e-06	0	38	0	404750336	66	5201
2026-01-20 08:19:52.09	105.25	25.77	-47.8	-50.6	14.8	0.00e+00	0	38	0	406847488	66	5178
2026-01-20 08:19:53.09	105.10	25.91	-47.7	-50.5	14.9	7.00e-07	0	38	0	408944640	66	5116
2026-01-20 08:19:54.10	104.95	26.06	-47.8	-50.6	14.8	0.00e+00	0	39	0	411041792	66	5186
2026-01-20 08:19:55.11	104.80	26.20	-47.9	-50.7	14.6	0.00e+00	0	38	0	412090368	66	5262
2026-01-20 08:19:56.12	104.64	26.35	-47.9	-50.9	14.5	7.00e-07	0	38	0	414187520	66	5344
2026-01-20 08:19:57.13	104.48	26.50	-47.9	-50.8	14.6	7.00e-07	0	38	0	416284672	66	5314
2026-01-20 08:19:58.13	104.33	26.64	-47.9	-50.7	14.6	7.00e-07	0	38	0	418381824	66	5257
2026-01-20 08:19:59.14	104.17	26.79	-47.9	-50.7	14.6	0.00e+00	0	38	0	420478976	66	5266
2026-01-20 08:20:00.15	104.01	26.94	-47.8	-50.6	14.7	1.50e-06	0	39	0	422576128	66	5195
2026-01-20 08:20:01.16	103.84	27.09	-47.6	-50.3	15.0	0.00e+00	0	38	0	423624704	66	5026
2026-01-20 08:20:02.17	103.68	27.23	-47.7	-50.5	14.9	0.00e+00	0	38	0	425721856	66	5110
2026-01-20 08:20:03.17	103.51	27.38	-47.9	-50.8	14.6	0.00e+00	0	38	0	427819008	66	5327
2026-01-20 08:20:04.18	103.35	27.53	-47.9	-50.8	14.5	1.50e-06	0	38	0	429916160	66	5321
2026-01-20 08:20:05.19	103.18	27.68	-48.0	-50.9	14.5	0.00e+00	0	39	0	432013312	66	5360
2026-01-20 08:20:06.20	103.01	27.83	-47.9	-50.9	14.5	7.00e-07	0	38	0	433061888	66	5349
2026-01-20 08:20:07.21	102.83	27.99	-47.9	-50.8	14.5	7.00e-07	0	38	0	435159040	66	5318
2026-01-20 08:20:08.21	102.66	28.14	-47.9	-50.8	14.6	0.00e+00	0	38	0	437256192	66	5286
2026-01-20 08:20:09.22	102.49	28.29	-47.8	-50.6	14.7	0.00e+00	0	38	0	439353344	66	5192
2026-01-20 08:20:10.23	102.31	28.44	-47.8	-50.6	14.7	0.00e+00	0	38	0	441450496	66	5214
2026-01-20 08:20:11.24	102.13	28.60	-47.8	-50.6	14.8	0.00e+00	0	39	0	442499072	66	5183
2026-01-20 08:20:12.25	101.95	28.75	-47.8	-50.5	14.8	0.00e+00	0	38	0	444596224	66	5154
2026-01-20 08:20:13.25	101.77	28.91	-47.7	-50.5	14.9	0.00e+00	0	38	0	446693376	66	5103
2026-01-20 08:20:14.26	101.58	29.06	-47.8	-50.5	14.8	0.00e+00	0	39	0	448790528	66	5157
2026-01-20 08:20:15.27	101.40	29.22	-47.7	-50.4	14.9	7.00e-07	0	38	0	450887680	66	5079
2026-01-20 08:20:16.28	101.21	29.37	-47.8	-50.6	14.8	0.00e+00	0	38	0	451936256	66	5179
2026-01-20 08:20:17.29	101.02	29.53	-47.8	-50.6	14.7	0.00e+00	0	39	0	454033408	66	5194
2026-01-20 08:20:18.29	100.83	29.69	-47.9	-50.7	14.6	0.00e+00	0	38	0	456130560	66	5276
2026-01-20 08:20:19.30	100.63	29.84	-48.0	-51.0	14.4	0.00e+00	0	38	0	458227712	66	5409
2026-01-20 08:20:20.31	100.44	30.00	-48.1	-51.2	14.2	7.00e-07	0	39	0	460324864	66	5542
2026-01-20 08:20:21.32	100.24	30.16	-48.2	-51.3	14.0	3.80e-06	0	38	0	461373440	66	5638
2026-01-20 08:20:22.33	100.04	30.32	-48.4	-51.7	13.6	4.50e-06	0	39	0	463470592	67	5568
2026-01-20 08:20:23.34	99.84	30.48	-48.6	-52.0	13.3	1.14e-05	0	38	0	465567744	67	5763
2026-01-20 08:20:24.34	99.64	30.64	-48.6	-52.1	13.2	1.37e-05	0	38	0	467664896	67	5844
2026-01-20 08:20:25.35	99.43	30.80	-48.6	-52.2	13.2	2.13e-05	0	39	0	469762048	67	5867
2026-01-20 08:20:26.36	99.22	30.96	-48.6	-52.1	13.2	2.67e-05	0	39	0	470810624	67	5817
2026-01-20 08:20:27.37	99.01	31.12	-48.8	-52.3	13.1	3.20e-05	0	39	0	472907776	68	5649
2026-01-20 08:20:28.37	98.80	31.28	-48.8	-52.5	12.9	2.82e-05	0	39	0	475004928	68	5734
2026-01-20 08:20:29.38	98.59	31.45	-48.9	-52.6	12.8	5.03e-05	0	38	0	477102080	68	5844
2026-01-20 08:20:30.39	98.37	31.61	-48.9	-52.6	12.8	4.73e-05	0	38	0	479199232	68	5795
2026-01-20 08:20:31.40	98.15	31.77	-49.0	-52.8	12.6	7.40e-05	0	38	0	480247808	68	5926
2026-01-20 08:20:32.41	97.93	31.94	-49.0	-52.8	12.7	1.09e-04	0	39	0	482344960	68	5938
2026-01-20 08:20:33.41	97.71	32.10	-49.0	-52.7	12.7	6.56e-05	0	39	0	484442112	68	5872
2026-01-20 08:20:34.42	97.49	32.27	-48.9	-52.7	12.7	7.78e-05	0	39	0	486539264	68	5865
2026-01-20 08:20:35.43	97.26	32.43	-48.9	-52.6	12.8	5.79e-05	0	39	0	488636416	68	5809
2026-01-20 08:20:36.44	97.03	32.60	-48.9	-52.6	12.8	6.17e-05	0	39	0	489684992	68	5846
2026-01-20 08:20:37.45	96.80	32.76	-48.9	-52.6	12.7	4.34e-05	0	38	0	491782144	68	5844
2026-01-20 08:20:38.45	96.56	32.93	-48.9	-52.7	12.7	5.18e-05	0	38	0	493879296	68	5876
2026-01-20 08:20:39.46	96.33	33.09	-49.0	-52.7	12.7	6.71e-05	0	38	0	495976448	68	5910
2026-01-20 08:20:40.47	96.09	33.26	-48.9	-52.8	12.5	1.11e-04	0	38	0	498073600	68	5982
2026-01-20 08:20:41.48	95.84	33.43	-49.0	-52.9	12.4	1.64e-04	0	38	0	499122176	68	6029
2026-01-20 08:20:42.49	95.60	33.60	-49.1	-53.0	12.4	1.70e-04	0	39	0	501219328	68	6125
2026-01-20 08:20:43.49	95.35	33.76	-49.2	-53.3	12.1	2.08e-04	0	39	0	503316480	69	5940
2026-01-20 08:20:44.50	95.10	33.93	-49.3	-53.4	12.1	3.81e-04	0	38	0	505413632	69	5996
2026-01-20 08:20:45.51	94.85	34.10	-49.2	-53.1	12.2	2.89e-04	0	38	0	507510784	69	5849
2026-01-20 08:20:46.51	94.60	34.27	-49.1	-53.1	12.3	2.33e-04	0	38	0	508559360	69	5817
2026-01-20 08:20:47.52	94.34	34.44	-49.1	-53.1	12.3	1.75e-04	0	38	0	510656512	69	5815
2026-01-20 08:20:48.53	94.08	34.61	-49.1	-53.0	12.4	1.27e-04	0	39	0	512753664	69	5759
2026-01-20 08:20:49.54	93.82	34.78	-49.1	-53.0	12.3	2.01e-04	0	38	0	514850816	69	5780
2026-01-20 08:20:50.55	93.55	34.94	-49.1	-53.0	12.4	1.73e-04	0	38	0	516947968	69	5785
2026-01-20 08:20:51.55	93.28	35.11	-49.1	-53.1	12.3	1.59e-04	0	38	0	517996544	69	5825
2026-01-20 08:20:52.56	93.01	35.28	-49.1	-52.9	12.6	1.36e-04	0	38	0	520093696	69	5661
2026-01-20 08:20:53.57	92.74	35.45	-48.9	-52.6	12.9	4.95e-05	0	39	0	522190848	69	5488
2026-01-20 08:20:54.58	92.46	35.62	-48.8	-52.3	13.1	4.50e-05	0	38	0	524288000	69	5337
2026-01-20 08:20:55.58	92.18	35.79	-48.8	-52.2	13.2	2.36e-05	0	38	0	526385152	69	5259
2026-01-20 08:20:56.59	91.90	35.96	-48.7	-52.1	13.4	1.75e-05	0	38	0	527433728	69	5162
2026-01-20 08:20:57.60	91.61	36.14	-48.7	-52.0	13.4	1.44e-05	0	38	0	529530880	69	5158
2026-01-20 08:20:58.61	91.32	36.31	-48.6	-52.0	13.4	9.10e-06	0	38	0	531628032	69	5113
2026-01-20 08:20:59.62	91.03	36.48	-48.7	-52.0	13.4	9.10e-06	0	38	0	533725184	69	5150
2026-01-20 08:21:00.63	90.73	36.65	-48.8	-52.2	13.2	1.83e-05	0	38	0	535822336	69	5277
2026-01-20 08:21:01.63	90.44	36.82	-48.7	-52.1	13.4	1.29e-05	0	38	0	537919488	69	5214
2026-01-20 08:21:02.64	90.14	36.99	-48.6	-52.0	13.5	1.37e-05	0	38	0	538968064	69	5136
2026-01-20 08:21:03.65	89.83	37.16	-48.5	-51.9	13.6	1.44e-05	0	39	0	541065216	69	5050
2026-01-20 08:21:04.66	89.52	37.33	-48.4	-51.6	13.9	6.80e-06	0	38	0	543162368	68	5198
2026-01-20 08:21:05.66	89.21	37.50	-48.2	-51.2	14.2	2.20e-06	0	38	0	545259520	68	4982
2026-01-20 08:21:06.67	88.90	37.67	-48.3	-51.4	14.2	0.00e+00	0	39	0	546308096	68	5044
2026-01-20 08:21:07.68	88.58	37.84	-48.3	-51.3	14.2	7.00e-07	0	38	0	548405248	68	5036
2026-01-20 08:21:08.69	88.26	38.01	-48.4	-51.5	14.0	3.80e-06	0	38	0	550502400	68	5154
2026-01-20 08:21:09.69	87.94	38.18	-48.5	-51.8	13.7	3.80e-06	0	38	0	552599552	68	5293
2026-01-20 08:21:10.70	87.61	38.35	-48.6	-52.0	13.6	1.29e-05	0	38	0	554696704	68	5418
2026-01-20 08:21:11.71	87.28	38.52	-48.6	-51.9	13.6	1.44e-05	0	38	0	555745280	68	5360
2026-01-20 08:21:12.72	86.94	38.69	-48.5	-51.7	13.8	6.10e-06	0	38	0	557842432	68	5275
2026-01-20 08:21:13.73	86.60	38.86	-48.7	-52.1	13.4	9.10e-06	0	38	0	559939584	68	5491
2026-01-20 08:21:14.74	86.26	39.03	-48.7	-52.0	13.5	1.14e-05	0	39	0	562036736	68	5432
2026-01-20 08:21:15.74	85.92	39.19	-48.8	-52.3	13.2	1.14e-05	0	39	0	564133888	68	5603
2026-01-20 08:21:16.75	85.57	39.36	-48.7	-52.2	13.3	2.21e-05	0	39	0	566231040	68	5557
2026-01-20 08:21:17.76	85.21	39.53	-48.7	-52.0	13.5	2.36e-05	0	38	0	567279616	68	5454
2026-01-20 08:21:18.77	84.86	39.70	-48.6	-51.9	13.6	4.50e-06	0	39	0	569376768	68	5375
2026-01-20 08:21:19.77	84.50	39.86	-48.7	-52.0	13.5	9.10e-06	0	38	0	571473920	68	5440
2026-01-20 08:21:20.78	84.14	40.03	-48.8	-52.4	13.1	1.44e-05	0	39	0	573571072	68	5693
2026-01-20 08:21:21.79	83.77	40.19	-49.0	-52.8	12.6	4.50e-05	0	39	0	574619648	68	5970
2026-01-20 08:21:22.80	83.39	40.36	-49.2	-53.1	12.4	1.38e-04	0	38	0	576716800	68	6147
2026-01-20 08:21:23.81	83.02	40.52	-49.1	-53.0	12.4	1.56e-04	0	39	0	578813952	68	6123
2026-01-20 08:21:24.81	82.64	40.69	-49.1	-52.9	12.6	9.53e-05	0	39	0	580911104	68	6044
2026-01-20 08:21:25.82	82.26	40.85	-49.0	-52.8	12.7	1.25e-04	0	39	0	583008256	68	5979
2026-01-20 08:21:26.83	81.87	41.01	-49.1	-53.0	12.5	9.00e-05	0	39	0	585105408	68	6087
2026-01-20 08:21:27.83	81.48	41.17	-49.2	-53.2	12.2	1.61e-04	0	39	0	586153984	69	5916
2026-01-20 08:21:28.84	81.09	41.33	-49.2	-53.2	12.3	2.72e-04	0	39	0	588251136	69	5909
2026-01-20 08:21:29.85	80.69	41.49	-49.0	-52.8	12.7	1.31e-04	0	39	0	590348288	69	5613
2026-01-20 08:21:30.86	80.29	41.65	-48.8	-52.4	13.2	3.28e-05	0	39	0	592445440	69	5347
2026-01-20 08:21:31.87	79.88	41.81	-48.5	-51.6	13.9	1.60e-05	0	39	0	594542592	68	5208
2026-01-20 08:21:32.87	79.47	41.96	-48.2	-51.2	14.4	7.00e-07	0	38	0	595591168	68	4939
2026-01-20 08:21:33.88	79.06	42.12	-48.1	-51.0	14.5	7.00e-07	0	39	0	597688320	68	4850
2026-01-20 08:21:34.89	78.64	42.28	-47.8	-50.5	14.9	7.00e-07	0	38	0	599785472	67	4857
2026-01-20 08:21:35.90	78.21	42.43	-47.7	-50.4	15.0	0.00e+00	0	38	0	601882624	67	4803
2026-01-20 08:21:36.91	77.79	42.58	-47.8	-50.6	14.9	0.00e+00	0	38	0	602931200	67	4879
2026-01-20 08:21:37.91	77.36	42.73	-47.4	-50.0	15.5	0.00e+00	0	39	0	605028352	66	4825
2026-01-20 08:21:38.92	76.92	42.88	-47.3	-49.7	15.6	0.00e+00	0	39	0	607125504	66	4704
2026-01-20 08:21:39.93	76.48	43.03	-47.0	-49.3	16.1	0.00e+00	0	38	0	609222656	66	4458
2026-01-20 08:21:40.94	76.04	43.18	-47.1	-49.5	16.0	0.00e+00	0	39	0	611319808	65	4843
2026-01-20 08:21:41.95	75.59	43.33	-47.1	-49.4	16.1	0.00e+00	0	39	0	613416960	65	4781
2026-01-20 08:21:42.95	75.15	43.47	-47.2	-49.5	15.9	0.00e+00	0	38	0	614465536	65	4858
2026-01-20 08:21:43.96	74.69	43.61	-47.2	-49.6	15.8	0.00e+00	0	38	0	616562688	65	4901
2026-01-20 08:21:44.97	74.23	43.75	-47.3	-49.7	15.7	0.00e+00	0	38	0	618659840	65	4959
2026-01-20 08:21:45.98	73.77	43.89	-47.1	-49.5	15.9	0.00e+00	0	39	0	620756992	65	4834
2026-01-20 08:21:46.99	73.30	44.03	-47.2	-49.5	15.9	0.00e+00	0	39	0	622854144	65	4857
2026-01-20 08:21:48.00	72.82	44.17	-47.0	-49.3	16.1	0.00e+00	0	39	0	623902720	65	4758
2026-01-20 08:21:49.00	72.35	44.30	-47.0	-49.2	16.2	0.00e+00	0	38	0	625999872	65	4693
2026-01-20 08:21:50.01	71.87	44.44	-47.0	-49.2	16.2	0.00e+00	0	39	0	628097024	65	4694
2026-01-20 08:21:51.02	71.39	44.57	-46.9	-49.2	16.2	0.00e+00	0	39	0	630194176	65	4680
2026-01-20 08:21:52.03	70.90	44.70	-47.1	-49.4	16.1	0.00e+00	0	38	0	631242752	65	4790
2026-01-20 08:21:53.04	70.41	44.83	-47.5	-50.1	15.4	0.00e+00	0	39	0	633339904	65	5183
2026-01-20 08:21:54.04	69.92	44.95	-47.9	-50.8	14.7	0.00e+00	0	38	0	635437056	66	5317
2026-01-20 08:21:55.05	69.42	45.07	-48.2	-51.2	14.3	0.00e+00	0	39	0	637534208	67	5251
2026-01-20 08:21:56.06	68.91	45.20	-48.3	-51.4	14.1	2.20e-06	0	38	0	639631360	67	5358
2026-01-20 08:21:57.07	68.40	45.32	-48.2	-51.3	14.1	2.20e-06	0	39	0	641728512	67	5323
2026-01-20 08:21:58.07	67.90	45.43	-48.1	-51.0	14.4	7.00e-07	0	39	0	642777088	67	5137
2026-01-20 08:21:59.08	67.38	45.55	-48.0	-50.9	14.5	0.00e+00	0	39	0	644874240	67	5099
2026-01-20 08:22:00.09	66.86	45.66	-48.2	-51.2	14.2	0.00e+00	0	38	0	646971392	67	5257
2026-01-20 08:22:01.10	66.34	45.77	-48.3	-51.3	14.1	1.50e-06	0	38	0	649068544	67	5317
2026-01-20 08:22:02.11	65.81	45.88	-48.3	-51.3	14.1	7.00e-07	0	39	0	651165696	67	5325
2026-01-20 08:22:03.11	65.29	45.98	-48.4	-51.5	14.0	3.80e-06	0	38	0	652214272	67	5445
2026-01-20 08:22:04.12	64.75	46.09	-48.5	-51.7	13.8	6.10e-06	0	39	0	654311424	67	5549
2026-01-20 08:22:05.13	64.22	46.19	-48.6	-51.9	13.5	7.60e-06	0	39	0	656408576	67	5710
2026-01-20 08:22:06.14	63.68	46.29	-48.8	-52.2	13.3	1.37e-05	0	39	0	658505728	68	5555
2026-01-20 08:22:07.15	63.13	46.38	-49.0	-52.7	12.8	3.20e-05	0	39	0	660602880	68	5905
2026-01-20 08:22:08.16	62.58	46.48	-49.1	-52.8	12.6	7.24e-05	0	38	0	661651456	68	5986
2026-01-20 08:22:09.16	62.04	46.57	-49.1	-52.9	12.6	1.14e-04	0	39	0	663748608	68	6048
2026-01-20 08:22:10.17	61.49	46.65	-49.1	-52.8	12.6	9.76e-05	0	39	0	665845760	68	5991
2026-01-20 08:22:11.18	60.93	46.74	-49.0	-52.7	12.8	8.01e-05	0	39	0	667942912	68	5895
2026-01-20 08:22:12.19	60.37	46.82	-49.2	-53.2	12.4	1.51e-04	0	39	0	670040064	69	5875
2026-01-20 08:22:13.19	59.81	46.90	-49.3	-53.4	12.1	1.98e-04	0	39	0	671088640	69	6006
2026-01-20 08:22:14.20	59.25	46.97	-49.3	-53.4	12.2	2.68e-04	0	39	0	673185792	69	6022
2026-01-20 08:22:15.21	58.68	47.05	-49.2	-53.0	12.5	2.66e-04	0	39	0	675282944	69	5772
2026-01-20 08:22:16.22	58.11	47.12	-49.0	-52.6	12.9	4.73e-05	0	39	0	677380096	69	5517
2026-01-20 08:22:17.23	57.53	47.19	-48.7	-52.0	13.5	3.05e-05	0	39	0	679477248	69	5135
2026-01-20 08:22:18.23	56.96	47.25	-48.7	-52.1	13.5	9.90e-06	0	39	0	681574400	69	5162
2026-01-20 08:22:19.24	56.39	47.31	-48.8	-52.2	13.4	1.37e-05	0	39	0	682622976	69	5250
2026-01-20 08:22:20.25	55.81	47.37	-48.8	-52.3	13.3	2.28e-05	0	39	0	684720128	69	5291
2026-01-20 08:22:21.26	55.22	47.42	-48.9	-52.5	13.0	2.44e-05	0	39	0	686817280	69	5461
2026-01-20 08:22:22.27	54.64	47.48	-48.9	-52.5	13.0	4.34e-05	0	39	0	688914432	69	5459
2026-01-20 08:22:23.28	54.05	47.52	-48.9	-52.5	13.0	3.89e-05	0	39	0	689963008	69	5447
2026-01-20 08:22:24.28	53.47	47.57	-49.0	-52.7	12.8	4.19e-05	0	39	0	692060160	69	5590
2026-01-20 08:22:25.29	52.88	47.61	-49.0	-52.6	12.9	6.40e-05	0	39	0	694157312	69	5480
2026-01-20 08:22:26.29	52.30	47.65	-49.0	-52.6	13.0	5.11e-05	0	38	0	696254464	69	5510
2026-01-20 08:22:27.30	51.70	47.69	-48.7	-52.1	13.4	3.66e-05	0	38	0	698351616	69	5200
2026-01-20 08:22:28.31	51.11	47.72	-48.7	-52.1	13.4	1.29e-05	0	39	0	699400192	69	5185
2026-01-20 08:22:29.32	50.52	47.75	-48.9	-52.4	13.2	3.05e-05	0	39	0	701497344	69	5379
2026-01-20 08:22:30.33	49.92	47.77	-49.0	-52.8	12.7	5.41e-05	0	39	0	703594496	69	5643
2026-01-20 08:22:31.34	49.32	47.79	-49.0	-52.8	12.8	8.46e-05	0	39	0	705691648	69	5594
2026-01-20 08:22:32.34	48.73	47.81	-48.9	-52.7	12.9	5.49e-05	0	39	0	707788800	69	5552
2026-01-20 08:22:33.35	48.13	47.83	-48.6	-52.6	13.0	4.80e-05	0	38	0	709885952	69	5480
2026-01-20 08:22:34.36	47.53	47.84	-48.3	-52.4	13.0	5.95e-05	0	39	0	710934528	68	5711
2026-01-20 08:22:35.37	46.93	47.85	-48.4	-52.1	13.4	1.90e-05	0	39	0	713031680	68	5491
2026-01-20 08:22:36.37	46.34	47.85	-48.7	-52.2	13.3	1.44e-05	0	39	0	715128832	68	5535
2026-01-20 08:22:37.38	45.74	47.86	-48.8	-52.3	13.3	1.29e-05	0	39	0	717225984	68	5604
2026-01-20 08:22:38.39	45.14	47.85	-48.8	-52.2	13.3	1.60e-05	0	38	0	718274560	68	5572
2026-01-20 08:22:39.40	44.54	47.85	-48.7	-52.1	13.4	1.14e-05	0	39	0	720371712	68	5515
2026-01-20 08:22:40.41	43.94	47.84	-48.9	-52.4	13.1	1.37e-05	0	39	0	722468864	68	5719
2026-01-20 08:22:41.42	43.34	47.83	-49.1	-52.8	12.7	3.96e-05	0	39	0	724566016	68	5962
2026-01-20 08:22:42.42	42.75	47.81	-49.0	-52.7	12.8	5.95e-05	0	39	0	726663168	68	5916
2026-01-20 08:22:43.43	42.15	47.80	-48.8	-52.3	13.3	4.04e-05	0	39	0	728760320	68	5595
2026-01-20 08:22:44.44	41.56	47.77	-48.8	-52.2	13.4	1.44e-05	0	39	0	729808896	68	5537
2026-01-20 08:22:45.45	40.96	47.75	-48.7	-52.1	13.5	1.60e-05	0	38	0	731906048	68	5487
2026-01-20 08:22:46.46	40.37	47.72	-48.8	-52.2	13.3	1.37e-05	0	38	0	734003200	68	5548
2026-01-20 08:22:47.46	39.78	47.69	-49.0	-52.6	13.0	3.12e-05	0	39	0	736100352	68	5820
2026-01-20 08:22:48.47	39.19	47.65	-48.9	-52.5	13.0	4.04e-05	0	39	0	738197504	68	5760
2026-01-20 08:22:49.48	38.60	47.61	-48.9	-52.5	13.0	4.04e-05	0	38	0	739246080	68	5777
2026-01-20 08:22:50.49	38.01	47.57	-49.0	-52.6	12.9	3.28e-05	0	39	0	741343232	68	5849
2026-01-20 08:22:51.49	37.43	47.53	-49.1	-52.7	12.8	5.87e-05	0	39	0	743440384	68	5912
2026-01-20 08:22:52.50	36.84	47.48	-48.9	-52.5	13.1	5.56e-05	0	38	0	745537536	68	5731
2026-01-20 08:22:53.51	36.26	47.43	-48.8	-52.2	13.3	1.90e-05	0	39	0	746586112	68	5581
2026-01-20 08:22:54.52	35.67	47.37	-48.9	-52.5	13.2	1.83e-05	0	39	0	748683264	68	5759
2026-01-20 08:22:55.53	35.09	47.31	-49.0	-52.6	13.0	4.42e-05	0	38	0	750780416	68	5829
2026-01-20 08:22:56.53	34.52	47.25	-49.1	-52.8	12.9	6.25e-05	0	39	0	752877568	68	5931
2026-01-20 08:22:57.54	33.95	47.19	-49.3	-53.3	12.3	1.81e-04	0	39	0	754974720	69	5926
2026-01-20 08:22:58.55	33.37	47.12	-49.3	-53.2	12.4	1.95e-04	0	39	0	757071872	69	5887
2026-01-20 08:22:59.56	32.80	47.05	-49.1	-52.9	12.6	1.32e-04	0	39	0	758120448	69	5679
2026-01-20 08:23:00.57	32.24	46.98	-49.0	-52.6	12.9	6.33e-05	0	39	0	760217600	69	5492
2026-01-20 08:23:01.58	31.67	46.90	-49.0	-52.7	12.8	3.58e-05	0	39	0	762314752	69	5548
2026-01-20 08:23:02.58	31.11	46.83	-49.2	-53.0	12.5	7.62e-05	0	39	0	764411904	69	5784
2026-01-20 08:23:03.59	30.55	46.74	-49.1	-52.7	12.8	9.68e-05	0	39	0	766509056	69	5587
2026-01-20 08:23:04.60	30.00	46.66	-48.9	-52.4	13.2	3.73e-05	0	39	0	767557632	69	5391
2026-01-20 08:23:05.61	29.44	46.57	-48.8	-52.3	13.3	2.05e-05	0	39	0	769654784	69	5304
2026-01-20 08:23:06.61	28.90	46.48	-48.9	-52.5	13.1	2.44e-05	0	38	0	771751936	69	5431
2026-01-20 08:23:07.62	28.35	46.39	-49.0	-52.7	12.8	5.18e-05	0	39	0	773849088	69	5570
2026-01-20 08:23:08.63	27.81	46.29	-48.9	-52.5	13.1	3.50e-05	0	39	0	774897664	69	5424
2026-01-20 08:23:09.64	27.27	46.20	-48.6	-51.8	13.8	1.75e-05	0	39	0	776994816	69	5016
2026-01-20 08:23:10.64	26.74	46.10	-48.5	-51.7	13.8	7.60e-06	0	39	0	779091968	69	4956
2026-01-20 08:23:11.65	26.20	45.99	-48.6	-51.8	13.8	6.10e-06	0	39	0	781189120	69	5039
2026-01-20 08:23:12.66	25.67	45.89	-48.7	-52.0	13.6	6.10e-06	0	39	0	783286272	69	5133
2026-01-20 08:23:13.67	25.15	45.78	-48.7	-52.0	13.6	9.10e-06	0	39	0	785383424	69	5145
2026-01-20 08:23:14.67	24.63	45.67	-48.7	-51.9	13.6	9.10e-06	0	39	0	786432000	69	5099
2026-01-20 08:23:15.68	24.11	45.56	-48.4	-51.5	14.1	3.00e-06	0	39	0	788529152	68	5130
2026-01-20 08:23:16.69	23.60	45.44	-48.3	-51.2	14.4	3.00e-06	0	39	0	790626304	68	4982
2026-01-20 08:23:17.70	23.08	45.33	-48.2	-51.1	14.5	7.00e-07	0	38	0	792723456	68	4905
2026-01-20 08:23:18.71	22.58	45.21	-48.0	-50.8	14.8	1.50e-06	0	39	0	794820608	68	4728
2026-01-20 08:23:19.71	22.08	45.09	-47.8	-50.5	15.0	0.00e+00	0	39	0	795869184	67	4867
2026-01-20 08:23:20.72	21.58	44.96	-47.6	-50.1	15.4	0.00e+00	0	39	0	797966336	67	4621
2026-01-20 08:23:21.73	21.08	44.84	-47.6	-50.1	15.4	0.00e+00	0	39	0	800063488	67	4640
2026-01-20 08:23:22.73	20.60	44.71	-47.6	-50.2	15.4	0.00e+00	0	39	0	802160640	67	4665
2026-01-20 08:23:23.74	20.11	44.58	-47.5	-50.1	15.5	0.00e+00	0	39	0	804257792	67	4619
2026-01-20 08:23:24.75	19.62	44.45	-47.4	-49.8	15.8	0.00e+00	0	39	0	805306368	66	4731
2026-01-20 08:23:25.76	19.14	44.32	-47.3	-49.7	15.8	0.00e+00	0	39	0	807403520	66	4702
2026-01-20 08:23:26.77	18.67	44.18	-47.4	-49.8	15.7	0.00e+00	0	39	0	809500672	66	4753
2026-01-20 08:23:27.77	18.20	44.05	-47.4	-49.8	15.7	0.00e+00	0	39	0	811597824	66	4752
2026-01-20 08:23:28.77	17.74	43.91	-47.4	-49.8	15.8	0.00e+00	0	38	0	813694976	66	4735
2026-01-20 08:23:29.78	17.27	43.77	-47.1	-49.3	16.2	0.00e+00	0	38	0	814743552	66	4492
2026-01-20 08:23:30.79	16.81	43.63	-47.1	-49.5	16.1	0.00e+00	0	39	0	816840704	66	4554
2026-01-20 08:23:31.79	16.36	43.49	-47.0	-49.2	16.3	0.00e+00	0	39	0	818937856	65	4694
2026-01-20 08:23:32.80	15.91	43.34	-46.9	-49.1	16.4	0.00e+00	0	39	0	821035008	65	4624
2026-01-20 08:23:33.81	15.46	43.20	-46.8	-49.0	16.6	0.00e+00	0	39	0	823132160	65	4556
2026-01-20 08:23:34.82	15.02	43.05	-46.9	-49.1	16.4	0.00e+00	0	39	0	824180736	65	4638
2026-01-20 08:23:35.83	14.58	42.90	-46.9	-49.0	16.5	0.00e+00	0	39	0	826277888	65	4590
2026-01-20 08:23:36.83	14.15	42.75	-46.7	-48.8	16.8	0.00e+00	0	39	0	828375040	65	4460
2026-01-20 08:23:37.84	13.72	42.60	-46.7	-48.8	16.8	0.00e+00	0	39	0	830472192	65	4446
2026-01-20 08:23:38.85	13.29	42.45	-46.6	-48.7	16.9	0.00e+00	0	39	0	832569344	65	4394
2026-01-20 08:23:39.86	12.87	42.30	-46.6	-48.6	16.9	0.00e+00	0	38	0	833617920	65	4373
2026-01-20 08:23:40.87	12.45	42.14	-46.7	-48.9	16.7	0.00e+00	0	39	0	835715072	65	4504
2026-01-20 08:23:41.87	12.04	41.99	-46.8	-49.0	16.5	0.00e+00	0	39	0	837812224	65	4590
2026-01-20 08:23:42.88	11.63	41.83	-47.0	-49.3	16.3	0.00e+00	0	39	0	839909376	65	4721
2026-01-20 08:23:43.89	11.22	41.67	-47.1	-49.4	16.1	0.00e+00	0	39	0	842006528	65	4770
2026-01-20 08:23:44.90	10.82	41.52	-47.0	-49.3	16.2	0.00e+00	0	39	0	843055104	65	4724
2026-01-20 08:23:45.90	10.43	41.36	-46.9	-49.2	16.4	0.00e+00	0	39	0	845152256	65	4660
2026-01-20 08:23:46.91	10.03	41.20	-47.0	-49.2	16.3	0.00e+00	0	38	0	847249408	65	4684
2026-01-20 08:23:47.92	9.64	41.04	-47.2	-49.5	16.0	0.00e+00	0	39	0	849346560	65	4854
2026-01-20 08:23:48.92	9.26	40.88	-47.0	-49.4	16.1	0.00e+00	0	38	0	851443712	65	4760
2026-01-20 08:23:49.93	8.87	40.71	-47.1	-49.5	16.0	0.00e+00	0	38	0	852492288	65	4817
2026-01-20 08:23:50.94	8.49	40.55	-47.0	-49.3	16.2	0.00e+00	0	39	0	854589440	65	4754
2026-01-20 08:23:51.95	8.12	40.39	-47.1	-49.4	16.1	0.00e+00	0	38	0	856686592	65	4774
2026-01-20 08:23:52.95	7.75	40.22	-47.0	-49.2	16.2	0.00e+00	0	38	0	858783744	65	4703
2026-01-20 08:23:53.96	7.38	40.06	-47.0	-49.3	16.2	0.00e+00	0	39	0	860880896	65	4756
2026-01-20 08:23:54.97	7.02	39.89	-47.2	-49.5	16.0	0.00e+00	0	39	0	861929472	65	4865
2026-01-20 08:23:55.98	6.66	39.73	-47.2	-49.6	15.9	0.00e+00	0	38	0	864026624	65	4909
2026-01-20 08:23:56.99	6.30	39.56	-47.2	-49.6	15.9	0.00e+00	0	38	0	866123776	65	4899
2026-01-20 08:23:57.99	5.95	39.39	-47.1	-49.4	16.1	0.00e+00	0	39	0	868220928	65	4784
2026-01-20 08:23:59.00	5.60	39.23	-47.0	-49.3	16.2	0.00e+00	0	38	0	870318080	65	4714
2026-01-20 08:24:00.01	5.26	39.06	-47.2	-49.5	16.0	0.00e+00	0	39	0	871366656	65	4853
2026-01-20 08:24:01.02	4.91	38.89	-47.3	-49.8	15.7	0.00e+00	0	38	0	873463808	65	4995
2026-01-20 08:24:02.03	4.58	38.72	-47.4	-49.9	15.6	0.00e+00	0	38	0	875560960	65	5068
2026-01-20 08:24:03.03	4.24	38.55	-47.6	-50.2	15.3	0.00e+00	0	39	0	877658112	65	5228
2026-01-20 08:24:04.04	3.91	38.38	-47.7	-50.4	15.2	0.00e+00	0	39	0	879755264	66	5083
2026-01-20 08:24:05.05	3.58	38.21	-47.9	-50.6	14.9	7.00e-07	0	39	0	880803840	66	5196
2026-01-20 08:24:06.05	3.26	38.05	-47.8	-50.6	14.9	0.00e+00	0	38	0	882900992	66	5174
2026-01-20 08:24:07.05	2.94	37.88	-47.8	-50.5	15.0	0.00e+00	0	38	0	884998144	66	5145
2026-01-20 08:24:08.06	2.63	37.71	-47.9	-50.6	14.9	0.00e+00	0	39	0	887095296	66	5213
2026-01-20 08:24:09.07	2.31	37.54	-47.9	-50.8	14.8	0.00e+00	0	38	0	889192448	66	5282
2026-01-20 08:24:10.07	2.00	37.37	-48.1	-51.1	14.4	0.00e+00	0	38	0	890241024	66	5468
2026-01-20 08:24:11.08	1.70	37.20	-48.2	-51.2	14.3	7.00e-07	0	38	0	892338176	67	5226
2026-01-20 08:24:12.09	1.39	37.03	-48.2	-51.3	14.2	0.00e+00	0	39	0	894435328	67	5286
2026-01-20 08:24:13.10	1.09	36.86	-48.5	-51.7	13.8	5.30e-06	0	39	0	896532480	67	5560
2026-01-20 08:24:14.11	0.79	36.69	-48.7	-52.1	13.4	1.37e-05	0	39	0	898629632	67	5799
2026-01-20 08:24:15.11	0.50	36.52	-48.8	-52.3	13.3	1.52e-05	0	38	0	899678208	68	5655
2026-01-20 08:24:16.12	0.21	36.35	-48.9	-52.4	13.1	2.59e-05	0	39	0	901775360	68	5712
2026-01-20 08:24:17.13	359.92	36.18	-48.9	-52.5	13.1	3.12e-05	0	39	0	903872512	68	5739
2026-01-20 08:24:18.14	359.63	36.01	-49.1	-52.9	12.7	4.65e-05	0	39	0	905969664	68	6008
2026-01-20 08:24:19.15	359.35	35.84	-49.1	-53.0	12.5	7.55e-05	0	39	0	908066816	68	6086
2026-01-20 08:24:20.15	359.07	35.67	-49.2	-53.1	12.4	1.36e-04	0	38	0	909115392	68	6186
2026-01-20 08:24:21.16	358.79	35.50	-49.1	-52.9	12.6	1.36e-04	0	38	0	911212544	68	6054
2026-01-20 08:24:22.17	358.52	35.33	-49.3	-53.3	12.1	1.94e-04	0	39	0	913309696	69	5990
2026-01-20 08:24:23.18	358.25	35.16	-49.3	-53.3	12.2	2.20e-04	0	39	0	915406848	69	5968
2026-01-20 08:24:24.18	357.98	34.99	-49.4	-53.5	12.0	2.64e-04	0	39	0	917504000	69	6083
2026-01-20 08:24:25.19	357.72	34.82	-49.3	-53.2	12.2	2.11e-04	0	39	0	918552576	69	5917
2026-01-20 08:24:26.20	357.45	34.65	-49.3	-53.2	12.2	2.16e-04	0	39	0	920649728	69	5902
2026-01-20 08:24:27.21	357.19	34.48	-49.2	-53.1	12.4	1.38e-04	0	39	0	922746880	69	5855
2026-01-20 08:24:28.21	356.94	34.32	-49.3	-53.3	12.2	2.38e-04	0	39	0	924844032	69	5966
2026-01-20 08:24:29.22	356.68	34.15	-49.3	-53.4	12.0	2.68e-04	0	39	0	926941184	69	6053
2026-01-20 08:24:30.23	356.43	33.98	-49.5	-53.9	11.6	5.81e-04	0	38	0	929038336	69	6350
2026-01-20 08:24:31.24	356.18	33.81	-49.4	-53.6	11.8	4.39e-04	0	39	0	930086912	69	6179
2026-01-20 08:24:32.25	355.93	33.64	-49.4	-53.5	12.0	3.79e-04	0	39	0	932184064	69	6109
2026-01-20 08:24:33.25	355.69	33.48	-49.3	-53.4	12.1	3.07e-04	0	39	0	934281216	69	6033
2026-01-20 08:24:34.26	355.45	33.31	-49.2	-53.0	12.4	2.01e-04	0	38	0	936378368	69	5767
2026-01-20 08:24:35.27	355.21	33.15	-49.0	-52.7	12.8	8.08e-05	0	39	0	937426944	69	5550
2026-01-20 08:24:36.28	354.97	32.98	-49.0	-52.8	12.7	5.18e-05	0	39	0	939524096	69	5602
2026-01-20 08:24:37.29	354.74	32.81	-49.1	-52.8	12.7	7.01e-05	0	39	0	941621248	69	5620
2026-01-20 08:24:38.29	354.51	32.65	-49.1	-53.0	12.5	9.00e-05	0	39	0	943718400	69	5742
2026-01-20 08:24:39.30	354.28	32.48	-49.1	-52.9	12.6	1.11e-04	0	39	0	945815552	69	5672
2026-01-20 08:24:40.31	354.05	32.32	-49.0	-52.8	12.8	6.56e-05	0	39	0	946864128	69	5593
2026-01-20 08:24:41.32	353.83	32.15	-48.9	-52.6	13.1	5.03e-05	0	39	0	948961280	69	5466
2026-01-20 08:24:42.33	353.60	31.99	-48.8	-52.4	13.1	3.05e-05	0	39	0	951058432	69	5365
2026-01-20 08:24:43.33	353.38	31.83	-48.8	-52.3	13.2	2.74e-05	0	38	0	953155584	69	5310
2026-01-20 08:24:44.34	353.17	31.67	-48.9	-52.6	12.9	3.81e-05	0	39	0	955252736	69	5471
2026-01-20 08:24:45.35	352.95	31.50	-48.9	-52.6	12.9	5.49e-05	0	39	0	957349888	69	5492
2026-01-20 08:24:46.36	352.74	31.34	-49.0	-52.7	12.8	5.56e-05	0	39	0	958398464	69	5544
2026-01-20 08:24:47.36	352.53	31.18	-49.0	-52.7	12.8	7.24e-05	0	39	0	960495616	69	5548
2026-01-20 08:24:48.37	352.32	31.02	-49.0	-52.7	12.7	4.73e-05	0	39	0	962592768	69	5582
2026-01-20 08:24:49.38	352.11	30.86	-49.0	-52.7	12.8	6.94e-05	0	39	0	964689920	69	5573
2026-01-20 08:24:50.39	351.90	30.70	-49.0	-52.7	12.8	5.87e-05	0	39	0	965738496	69	5540
2026-01-20 08:24:51.39	351.70	30.54	-49.0	-52.7	12.7	7.85e-05	0	39	0	967835648	69	5577
2026-01-20 08:24:52.40	351.50	30.38	-49.0	-52.8	12.7	5.26e-05	0	39	0	969932800	69	5614
2026-01-20 08:24:53.41	351.30	30.22	-49.0	-52.6	12.8	6.79e-05	0	38	0	972029952	69	5509
2026-01-20 08:24:54.42	351.10	30.06	-48.8	-52.3	13.2	3.81e-05	0	39	0	974127104	69	5330
2026-01-20 08:24:55.42	350.91	29.91	-48.7	-52.2	13.3	1.60e-05	0	38	0	975175680	69	5241
2026-01-20 08:24:56.43	350.72	29.75	-48.7	-52.1	13.4	1.44e-05	0	39	0	977272832	69	5197
2026-01-20 08:24:57.44	350.53	29.59	-48.6	-51.9	13.5	1.22e-05	0	39	0	979369984	69	5092
2026-01-20 08:24:58.45	350.34	29.43	-48.6	-51.9	13.6	9.90e-06	0	39	0	981467136	69	5071
2026-01-20 08:24:59.45	350.15	29.28	-48.6	-51.8	13.7	4.50e-06	0	39	0	983564288	69	5037
2026-01-20 08:25:00.46	349.96	29.12	-48.5	-51.7	13.8	7.60e-06	0	39	0	985661440	68	5242
2026-01-20 08:25:01.47	349.78	28.97	-48.5	-51.7	13.8	6.80e-06	0	39	0	986710016	68	5263
2026-01-20 08:25:02.48	349.60	28.81	-48.5	-51.7	13.8	4.50e-06	0	39	0	988807168	68	5262
2026-01-20 08:25:03.49	349.42	28.66	-48.6	-52.0	13.5	4.50e-06	0	39	0	990904320	68	5403
2026-01-20 08:25:04.49	349.24	28.51	-48.7	-52.1	13.3	1.22e-05	0	39	0	993001472	68	5521
2026-01-20 08:25:05.50	349.06	28.36	-48.7	-52.1	13.4	1.22e-05	0	38	0	994050048	68	5518
2026-01-20 08:25:06.51	348.89	28.20	-48.6	-52.0	13.5	9.90e-06	0	39	0	996147200	68	5405
2026-01-20 08:25:07.52	348.71	28.05	-48.5	-51.8	13.7	6.80e-06	0	39	0	998244352	68	5291
2026-01-20 08:25:08.53	348.54	27.90	-48.4	-51.5	14.0	5.30e-06	0	38	0	1000341504	68	5118
2026-01-20 08:25:09.53	348.37	27.75	-48.3	-51.3	14.1	7.00e-07	0	38	0	1002438656	68	5028
2026-01-20 08:25:10.54	348.20	27.60	-48.3	-51.4	14.1	1.50e-06	0	39	0	1004535808	68	5043
2026-01-20 08:25:11.55	348.04	27.45	-48.3	-51.4	14.1	3.00e-06	0	39	0	1005584384	68	5083
2026-01-20 08:25:12.55	347.87	27.30	-48.2	-51.3	14.2	3.00e-06	0	39	0	1007681536	68	5004
2026-01-20 08:25:13.56	347.71	27.15	-48.2	-51.3	14.2	0.00e+00	0	38	0	1009778688	68	5002
2026-01-20 08:25:14.57	347.55	27.01	-48.3	-51.3	14.1	1.50e-06	0	38	0	1011875840	68	5028
2026-01-20 08:25:15.57	347.39	26.86	-48.2	-51.2	14.3	1.50e-06	0	39	0	1013972992	68	4949
2026-01-20 08:25:16.58	347.23	26.71	-48.2	-51.3	14.2	7.00e-07	0	39	0	1015021568	68	5003
2026-01-20 08:25:17.59	347.07	26.57	-48.2	-51.3	14.2	0.00e+00	0	39	0	1017118720	68	5011
2026-01-20 08:25:18.59	346.91	26.42	-48.2	-51.2	14.2	7.00e-07	0	39	0	1019215872	68	4963
2026-01-20 08:25:19.60	346.76	26.28	-48.3	-51.4	14.1	2.20e-06	0	39	0	1021313024	68	5045
2026-01-20 08:25:20.61	346.61	26.13	-48.2	-51.3	14.2	2.20e-06	0	38	0	1022361600	68	5013
2026-01-20 08:25:21.62	346.45	25.99	-48.2	-51.3	14.2	0.00e+00	0	39	0	1024458752	68	4996
2026-01-20 08:25:22.63	346.30	25.84	-48.3	-51.4	14.1	2.20e-06	0	39	0	1026555904	68	5042
2026-01-20 08:25:23.63	346.15	25.70	-48.3	-51.4	14.1	1.50e-06	0	39	0	1028653056	68	5044
2026-01-20 08:25:24.64	346.01	25.56	-48.3	-51.4	14.0	3.00e-06	0	39	0	1030750208	68	5093
2026-01-20 08:25:25.65	345.86	25.42	-48.3	-51.4	14.1	4.50e-06	0	39	0	1032847360	68	5069
2026-01-20 08:25:26.66	345.71	25.28	-48.3	-51.4	14.0	1.50e-06	0	39	0	1033895936	68	5077
2026-01-20 08:25:27.67	345.57	25.14	-48.2	-51.2	14.2	5.30e-06	0	39	0	1035993088	68	4952
2026-01-20 08:25:28.68	345.43	25.00	-48.1	-51.1	14.4	2.20e-06	0	39	0	1038090240	68	4875
2026-01-20 08:25:29.68	345.29	24.86	-48.1	-51.1	14.4	1.50e-06	0	39	0	1040187392	68	4878
2026-01-20 08:25:30.69	345.15	24.72	-47.9	-50.7	14.6	0.00e+00	0	39	0	1042284544	67	4981
2026-01-20 08:25:31.70	345.01	24.58	-47.9	-50.7	14.6	0.00e+00	0	39	0	1043333120	67	4972
2026-01-20 08:25:32.71	344.87	24.44	-47.8	-50.6	14.7	0.00e+00	0	39	0	1045430272	67	4902
2026-01-20 08:25:33.71	344.74	24.30	-47.8	-50.6	14.8	0.00e+00	0	39	0	1047527424	67	4891
2026-01-20 08:25:34.72	344.60	24.17	-47.6	-50.4	15.0	0.00e+00	0	39	0	1049624576	67	4769
2026-01-20 08:25:35.73	344.47	24.03	-47.6	-50.3	15.0	0.00e+00	0	38	0	1050673152	67	4748
2026-01-20 08:25:36.73	344.33	23.90	-47.7	-50.4	15.0	0.00e+00	0	38	0	1052770304	67	4780
2026-01-20 08:25:37.74	344.20	23.76	-47.7	-50.5	14.9	0.00e+00	0	38	0	1054867456	67	4841
2026-01-20 08:25:38.75	344.07	23.62	-47.8	-50.6	14.7	0.00e+00	0	39	0	1056964608	67	4889
2026-01-20 08:25:39.76	343.94	23.49	-47.8	-50.6	14.7	0.00e+00	0	39	0	1059061760	67	4898
2026-01-20 08:25:40.76	343.82	23.36	-47.8	-50.7	14.7	0.00e+00	0	39	0	1061158912	67	4929
2026-01-20 08:25:41.77	343.69	23.22	-47.8	-50.6	14.8	0.00e+00	0	38	0	1062207488	67	4873
2026-01-20 08:25:42.78	343.56	23.09	-47.7	-50.5	14.8	0.00e+00	0	39	0	1064304640	67	4864
2026-01-20 08:25:43.79	343.44	22.96	-47.8	-50.6	14.7	0.00e+00	0	39	0	1066401792	67	4901
2026-01-20 08:25:44.79	343.32	22.83	-47.8	-50.6	14.7	7.00e-07	0	39	0	1068498944	67	4909
2026-01-20 08:25:45.81	343.19	22.70	-47.8	-50.6	14.7	0.00e+00	0	38	0	1070596096	67	4903
2026-01-20 08:25:46.81	343.07	22.57	-47.8	-50.7	14.7	1.50e-06	0	38	0	1071644672	67	4939
2026-01-20 08:25:47.82	342.95	22.44	-47.7	-50.5	14.8	0.00e+00	0	38	0	1073741824	67	4851
2026-01-20 08:25:48.83	342.83	22.31	-47.7	-50.5	14.7	0.00e+00	0	39	0	1075838976	67	4869
2026-01-20 08:25:49.84	342.71	22.18	-47.8	-50.6	14.7	0.00e+00	0	38	0	1077936128	67	4925
2026-01-20 08:25:50.85	342.60	22.05	-47.8	-50.6	14.7	0.00e+00	0	39	0	1080033280	67	4892
2026-01-20 08:25:51.85	342.48	21.92	-47.7	-50.4	14.9	0.00e+00	0	39	0	1081081856	67	4801
2026-01-20 08:25:52.86	342.36	21.79	-47.7	-50.4	14.9	0.00e+00	0	38	0	1083179008	67	4785
2026-01-20 08:25:53.87	342.25	21.67	-47.7	-50.4	14.9	7.00e-07	0	39	0	1085276160	67	4806
2026-01-20 08:25:54.88	342.14	21.54	-47.7	-50.4	14.9	0.00e+00	0	39	0	1087373312	67	4804
2026-01-20 08:25:55.89	342.02	21.41	-47.7	-50.4	14.9	0.00e+00	0	39	0	1089470464	67	4812
2026-01-20 08:25:56.89	341.91	21.29	-47.6	-50.3	15.0	0.00e+00	0	39	0	1090519040	67	4744
2026-01-20 08:25:57.90	341.80	21.16	-47.6	-50.3	15.0	0.00e+00	0	38	0	1092616192	67	4714
2026-01-20 08:25:58.91	341.69	21.04	-47.6	-50.3	15.0	0.00e+00	0	39	0	1094713344	67	4751
2026-01-20 08:25:59.91	341.58	20.92	-47.5	-50.2	15.1	0.00e+00	0	38	0	1096810496	67	4677
2026-01-20 08:26:00.92	341.48	20.79	-47.6	-50.3	15.0	7.00e-07	0	39	0	1098907648	67	4749
2026-01-20 08:26:01.93	341.37	20.67	-47.6	-50.3	15.0	0.00e+00	0	39	0	1101004800	67	4741
2026-01-20 08:26:02.94	341.26	20.55	-47.6	-50.3	14.9	0.00e+00	0	39	0	1102053376	67	4746
2026-01-20 08:26:03.95	341.16	20.43	-47.6	-50.3	15.0	0.00e+00	0	39	0	1104150528	67	4749
2026-01-20 08:26:04.96	341.05	20.30	-47.6	-50.3	15.0	0.00e+00	0	38	0	1106247680	67	4740
2026-01-20 08:26:05.97	340.95	20.18	-47.6	-50.4	15.0	7.00e-07	0	38	0	1108344832	67	4762
2026-01-20 08:26:06.98	340.85	20.06	-47.7	-50.4	14.9	0.00e+00	0	38	0	1109393408	67	4800
2026-01-20 08:26:07.99	340.74	19.94	-47.7	-50.4	14.9	0.00e+00	0	38	0	1111490560	67	4803
2026-01-20 08:26:08.99	340.64	19.82	-47.6	-50.2	15.1	0.00e+00	0	38	0	1113587712	67	4699
2026-01-20 08:26:10.00	340.54	19.70	-47.7	-50.5	14.9	0.00e+00	0	39	0	1115684864	67	4818
2026-01-20 08:26:11.01	340.44	19.59	-47.7	-50.4	14.9	0.00e+00	0	39	0	1117782016	67	4797
2026-01-20 08:26:12.02	340.34	19.47	-47.7	-50.5	14.8	0.00e+00	0	39	0	1118830592	67	4830
2026-01-20 08:26:13.03	340.25	19.35	-47.8	-50.6	14.6	7.00e-07	0	39	0	1120927744	67	4922
2026-01-20 08:26:14.03	340.15	19.23	-47.8	-50.7	14.6	0.00e+00	0	38	0	1123024896	67	4937
2026-01-20 08:26:15.04	340.05	19.12	-47.7	-50.4	14.8	0.00e+00	0	39	0	1125122048	67	4800
2026-01-20 08:26:16.05	339.96	19.00	-47.7	-50.4	14.8	0.00e+00	0	39	0	1127219200	67	4810
2026-01-20 08:26:17.06	339.86	18.88	-47.7	-50.5	14.8	0.00e+00	0	38	0	1129316352	67	4845
2026-01-20 08:26:18.07	339.77	18.77	-47.7	-50.5	14.8	7.00e-07	0	38	0	1130364928	67	4835
2026-01-20 08:26:19.07	339.68	18.65	-47.8	-50.7	14.6	0.00e+00	0	38	0	1132462080	67	4929
2026-01-20 08:26:20.08	339.58	18.54	-47.8	-50.7	14.5	0.00e+00	0	39	0	1134559232	67	4969
2026-01-20 08:26:21.09	339.49	18.43	-47.9	-50.8	14.5	7.00e-07	0	39	0	1136656384	67	5033
2026-01-20 08:26:22.09	339.40	18.31	-47.9	-50.8	14.4	0.00e+00	0	38	0	1137704960	67	5018
2026-01-20 08:26:23.10	339.31	18.20	-47.9	-50.8	14.4	0.00e+00	0	39	0	1139802112	67	5033
2026-01-20 08:26:24.11	339.22	18.09	-47.9	-50.9	14.3	1.50e-06	0	39	0	1141899264	67	5096
2026-01-20 08:26:25.12	339.13	17.97	-47.9	-50.8	14.5	0.00e+00	0	38	0	1143996416	67	5005
2026-01-20 08:26:26.13	339.04	17.86	-47.9	-50.9	14.4	7.00e-07	0	39	0	1146093568	67	5052
2026-01-20 08:26:27.13	338.95	17.75	-47.9	-50.9	14.3	1.50e-06	0	39	0	1148190720	67	5084
2026-01-20 08:26:28.14	338.87	17.64	-48.0	-51.0	14.3	2.20e-06	0	39	0	1149239296	67	5111
2026-01-20 08:26:29.15	338.78	17.53	-47.9	-50.9	14.3	7.00e-07	0	39	0	1151336448	67	5099
2026-01-20 08:26:30.15	338.70	17.42	-47.9	-50.9	14.3	0.00e+00	0	38	0	1153433600	67	5069
2026-01-20 08:26:31.16	338.61	17.31	-47.9	-50.9	14.4	7.00e-07	0	39	0	1155530752	67	5065
2026-01-20 08:26:32.17	338.53	17.20	-47.9	-51.0	14.3	7.00e-07	0	38	0	1157627904	67	5107
2026-01-20 08:26:33.18	338.44	17.09	-47.9	-50.8	14.4	7.00e-07	0	38	0	1158676480	67	5028
2026-01-20 08:26:34.19	338.36	16.98	-47.8	-50.7	14.5	0.00e+00	0	38	0	1160773632	67	4950
2026-01-20 08:26:35.19	338.28	16.88	-47.8	-50.7	14.5	1.50e-06	0	38	0	1162870784	67	4976
2026-01-20 08:26:36.20	338.19	16.77	-47.7	-50.5	14.7	7.00e-07	0	39	0	1164967936	67	4840
2026-01-20 08:26:37.21	338.11	16.66	-47.7	-50.5	14.7	0.00e+00	0	38	0	1166016512	67	4849
2026-01-20 08:26:38.21	338.03	16.56	-47.7	-50.6	14.6	0.00e+00	0	39	0	1168113664	67	4875
2026-01-20 08:26:39.22	337.95	16.45	-47.7	-50.5	14.7	0.00e+00	0	39	0	1170210816	67	4857
2026-01-20 08:26:40.23	337.87	16.34	-47.8	-50.7	14.5	0.00e+00	0	39	0	1172307968	67	4977
2026-01-20 08:26:41.24	337.79	16.24	-47.7	-50.6	14.6	0.00e+00	0	39	0	1174405120	67	4889
2026-01-20 08:26:42.25	337.72	16.13	-47.8	-50.7	14.5	0.00e+00	0	39	0	1176502272	67	4939
2026-01-20 08:26:43.26	337.64	16.03	-47.8	-50.7	14.5	7.00e-07	0	39	0	1177550848	67	4964
2026-01-20 08:26:44.26	337.56	15.92	-47.7	-50.6	14.6	0.00e+00	0	39	0	1179648000	67	4896
2026-01-20 08:26:45.27	337.48	15.82	-47.8	-50.7	14.5	0.00e+00	0	38	0	1181745152	67	4939
2026-01-20 08:26:46.28	337.41	15.72	-47.7	-50.5	14.7	0.00e+00	0	39	0	1183842304	67	4851
2026-01-20 08:26:47.28	337.33	15.61	-47.8	-50.8	14.4	7.00e-07	0	39	0	1185939456	67	4991
2026-01-20 08:26:48.29	337.26	15.51	-47.8	-50.8	14.4	7.00e-07	0	39	0	1186988032	67	5013
2026-01-20 08:26:49.30	337.18	15.41	-47.9	-50.9	14.2	1.50e-06	0	39	0	1189085184	67	5097
2026-01-20 08:26:50.31	337.11	15.31	-48.0	-51.0	14.2	7.00e-07	0	39	0	1191182336	67	5132
2026-01-20 08:26:51.31	337.04	15.20	-48.0	-51.0	14.2	4.50e-06	0	39	0	1193279488	67	5150
2026-01-20 08:26:52.32	336.96	15.10	-48.1	-51.2	14.0	3.00e-06	0	39	0	1194328064	67	5253
2026-01-20 08:26:53.33	336.89	15.00	-48.1	-51.2	13.9	3.00e-06	0	38	0	1196425216	67	5272
2026-01-20 08:26:54.34	336.82	14.90	-48.1	-51.2	13.9	4.50e-06	0	39	0	1198522368	67	5261
2026-01-20 08:26:55.35	336.75	14.80	-48.2	-51.4	13.7	3.00e-06	0	39	0	1200619520	67	5368
2026-01-20 08:26:56.35	336.68	14.70	-48.2	-51.4	13.7	4.50e-06	0	39	0	1202716672	67	5401
2026-01-20 08:26:57.36	336.61	14.60	-48.2	-51.4	13.7	9.90e-06	0	39	0	1204813824	67	5386
2026-01-20 08:26:58.37	336.54	14.50	-48.2	-51.4	13.8	2.20e-06	0	39	0	1205862400	67	5370
2026-01-20 08:26:59.38	336.47	14.40	-48.3	-51.6	13.6	7.60e-06	0	39	0	1207959552	67	5480
2026-01-20 08:27:00.39	336.40	14.31	-48.2	-51.4	13.7	3.80e-06	0	39	0	1210056704	67	5401
2026-01-20 08:27:01.39	336.33	14.21	-48.2	-51.4	13.8	6.10e-06	0	39	0	1212153856	67	5359
2026-01-20 08:27:02.40	336.26	14.11	-48.3	-51.6	13.6	9.90e-06	0	39	0	1214251008	67	5472
2026-01-20 08:27:03.41	336.19	14.01	-48.2	-51.5	13.6	8.30e-06	0	39	0	1215299584	67	5454
2026-01-20 08:27:04.42	336.13	13.92	-48.3	-51.6	13.5	8.30e-06	0	39	0	1217396736	67	5503
2026-01-20 08:27:05.43	336.06	13.82	-48.3	-51.7	13.4	1.22e-05	0	39	0	1219493888	67	5531
2026-01-20 08:27:06.44	335.99	13.72	-48.3	-51.6	13.5	6.80e-06	0	39	0	1221591040	67	5504
2026-01-20 08:27:07.44	335.93	13.63	-48.3	-51.8	13.4	1.06e-05	0	39	0	1223688192	67	5603
2026-01-20 08:27:08.45	335.86	13.53	-48.3	-51.7	13.4	1.52e-05	0	39	0	1224736768	67	5558
2026-01-20 08:27:09.46	335.80	13.44	-48.3	-51.8	13.4	2.05e-05	0	38	0	1226833920	67	5610
2026-01-20 08:27:10.46	335.73	13.34	-48.4	-51.8	13.3	1.22e-05	0	38	0	1228931072	67	5642
