passes_logs/2026/01/20/R3.2S_Murmansk/R3.2S_Murmansk__20260120_091348_TY-42_rec.log

#Pass ID: 20260120_091348_TY-42
#Satellite: TY-42
#Configuration: TY-42_900M
#almurnet v.1.7.20251203
#Start time: 2026-01-20 09:13:49

#Version: 2.2.20231116
#Station: R3.2S_Murmansk
#Location: 33.079688 lon 68.888172 lat
#TLE: 1 64048U 25103A   26019.69670139  .00008010  00000-0  38191-3 0 09996
#TLE: 2 64048 097.4123 095.0255 0001753 094.0404 196.1589 15.19169419 37525

#Time	Az	El	Level	Level2	SNR	BER	BlckErr	Temp	State	Recorded	gain1	gain2
2026-01-20 09:13:49.80	20.82	2.07	-50.4	-52.5	6.2	0.00e+00	0	45	0	0	72	18377
2026-01-20 09:13:50.80	20.83	2.14	-50.4	-52.6	6.2	0.00e+00	0	45	104	0	72	18429
2026-01-20 09:13:51.81	20.84	2.21	-50.4	-52.6	6.2	0.00e+00	0	45	104	0	72	18410
2026-01-20 09:13:52.82	20.86	2.28	-50.4	-52.5	6.2	0.00e+00	0	45	104	0	72	18350
2026-01-20 09:13:53.83	20.87	2.35	-50.4	-52.5	6.2	0.00e+00	0	45	104	0	72	18381
2026-01-20 09:13:54.83	20.88	2.42	-50.4	-52.5	6.2	0.00e+00	0	45	104	0	72	18310
2026-01-20 09:13:55.84	20.89	2.50	-50.4	-52.5	6.2	0.00e+00	0	45	104	0	72	18389
2026-01-20 09:13:56.85	20.91	2.57	-50.4	-52.5	6.2	0.00e+00	0	45	104	0	72	18289
2026-01-20 09:13:57.86	20.92	2.64	-50.4	-52.5	6.2	0.00e+00	0	45	104	0	72	18310
2026-01-20 09:13:58.87	20.93	2.71	-50.4	-52.6	6.2	0.00e+00	0	45	104	0	72	18399
2026-01-20 09:13:59.88	20.95	2.78	-50.4	-52.5	6.2	0.00e+00	0	45	104	0	72	18362
2026-01-20 09:14:00.88	20.96	2.86	-50.4	-52.5	6.2	0.00e+00	0	45	104	0	72	18373
2026-01-20 09:14:01.89	20.97	2.93	-50.4	-52.5	6.2	0.00e+00	0	45	104	0	72	18282
2026-01-20 09:14:02.90	20.98	3.00	-50.4	-52.5	6.2	0.00e+00	0	45	104	0	72	18337
2026-01-20 09:14:03.91	21.00	3.08	-50.4	-52.5	6.2	0.00e+00	0	45	104	0	72	18305
2026-01-20 09:14:04.91	21.01	3.15	-50.4	-52.5	6.2	0.00e+00	0	45	104	0	72	18310
2026-01-20 09:14:05.92	21.02	3.22	-50.4	-52.5	6.2	0.00e+00	0	46	104	0	72	18338
2026-01-20 09:14:06.93	21.04	3.30	-50.4	-52.5	6.2	0.00e+00	0	46	104	0	72	18271
2026-01-20 09:14:07.94	21.05	3.37	-50.4	-52.5	6.2	0.00e+00	0	46	104	0	72	18355
2026-01-20 09:14:08.95	21.06	3.45	-50.4	-52.6	6.2	0.00e+00	0	46	104	0	72	18391
2026-01-20 09:14:09.96	21.08	3.52	-50.4	-52.5	6.2	0.00e+00	0	46	104	0	72	18320
2026-01-20 09:14:10.96	21.09	3.60	-50.4	-52.5	6.2	0.00e+00	0	46	104	0	72	18347
2026-01-20 09:14:11.97	21.11	3.67	-50.4	-52.5	6.2	0.00e+00	0	46	104	0	72	18375
2026-01-20 09:14:12.98	21.12	3.75	-50.4	-52.6	6.2	0.00e+00	0	46	104	0	72	18401
2026-01-20 09:14:13.99	21.13	3.82	-50.4	-52.5	6.2	0.00e+00	0	46	104	0	72	18309
2026-01-20 09:14:15.00	21.15	3.90	-50.4	-52.5	6.2	0.00e+00	0	46	104	0	72	18297
2026-01-20 09:14:16.00	21.16	3.97	-50.4	-52.5	6.2	0.00e+00	0	46	104	0	72	18342
2026-01-20 09:14:17.01	21.17	4.05	-50.4	-52.5	6.2	0.00e+00	0	46	104	0	72	18298
2026-01-20 09:14:18.02	21.19	4.13	-50.4	-52.5	6.2	0.00e+00	0	46	104	0	72	18289
2026-01-20 09:14:19.03	21.20	4.21	-50.4	-52.5	6.2	0.00e+00	0	46	104	0	72	18202
2026-01-20 09:14:20.04	21.22	4.28	-50.4	-52.5	6.2	0.00e+00	0	46	104	0	72	18253
2026-01-20 09:14:21.04	21.23	4.36	-50.4	-52.5	6.2	0.00e+00	0	46	104	0	72	18312
2026-01-20 09:14:22.05	21.25	4.44	-50.4	-52.5	6.2	0.00e+00	0	46	104	0	72	18330
2026-01-20 09:14:23.06	21.26	4.52	-50.4	-52.5	6.2	0.00e+00	0	46	104	0	72	18285
2026-01-20 09:14:24.06	21.27	4.60	-50.4	-52.5	6.2	0.00e+00	0	46	104	0	72	18352
2026-01-20 09:14:25.07	21.29	4.68	-50.4	-52.5	6.2	0.00e+00	0	47	104	0	72	18344
2026-01-20 09:14:26.08	21.30	4.76	-50.4	-52.5	6.2	0.00e+00	0	46	104	0	72	18258
2026-01-20 09:14:27.09	21.32	4.84	-50.4	-52.5	6.2	0.00e+00	0	47	104	0	72	18359
2026-01-20 09:14:28.09	21.33	4.92	-50.4	-52.5	6.2	0.00e+00	0	46	104	0	72	18351
2026-01-20 09:14:29.10	21.35	5.00	-50.4	-52.5	6.2	0.00e+00	0	46	104	0	72	18318
2026-01-20 09:14:30.11	21.36	5.08	-50.4	-52.5	6.2	0.00e+00	0	47	104	0	72	18253
2026-01-20 09:14:31.12	21.38	5.16	-50.4	-52.5	6.2	0.00e+00	0	46	104	0	72	18370
2026-01-20 09:14:32.13	21.39	5.24	-50.5	-52.6	6.2	0.00e+00	0	47	104	0	72	18503
2026-01-20 09:14:33.13	21.41	5.32	-50.3	-52.5	6.2	0.00e+00	0	47	104	0	72	18209
2026-01-20 09:14:34.14	21.42	5.40	-50.4	-52.5	6.2	0.00e+00	0	47	104	0	72	18367
2026-01-20 09:14:35.15	21.44	5.49	-50.4	-52.6	6.2	0.00e+00	0	47	104	0	72	18434
2026-01-20 09:14:36.16	21.45	5.57	-50.5	-52.6	6.2	0.00e+00	0	47	104	0	72	18559
2026-01-20 09:14:37.17	21.47	5.65	-49.9	-51.7	6.2	0.00e+00	0	47	104	0	70	18708
2026-01-20 09:14:38.17	21.48	5.73	-50.0	-51.9	6.2	0.00e+00	0	47	104	0	70	19219
2026-01-20 09:14:39.18	21.50	5.82	-49.5	-51.1	6.3	0.00e+00	0	47	104	0	70	17468
2026-01-20 09:14:40.19	21.51	5.90	-49.5	-51.1	6.3	0.00e+00	0	47	104	0	70	17401
2026-01-20 09:14:41.19	21.53	5.99	-49.5	-51.1	6.3	0.00e+00	0	47	104	0	70	17442
2026-01-20 09:14:42.20	21.55	6.07	-49.3	-50.8	6.3	0.00e+00	0	47	104	0	70	16869
2026-01-20 09:14:43.21	21.56	6.16	-48.6	-49.8	6.5	0.00e+00	0	47	104	0	69	15918
2026-01-20 09:14:44.22	21.58	6.24	-48.2	-49.2	6.7	0.00e+00	0	47	104	0	67	16771
2026-01-20 09:14:45.23	21.59	6.33	-49.4	-51.0	6.3	0.00e+00	0	47	104	0	69	18233
2026-01-20 09:14:46.23	21.61	6.41	-45.1	-45.5	8.3	0.00e+00	0	47	104	0	60	16214
2026-01-20 09:14:47.24	21.63	6.50	-49.8	-51.6	6.3	0.00e+00	0	47	104	0	70	18418
2026-01-20 09:14:48.25	21.64	6.59	-44.2	-44.5	8.7	0.00e+00	0	47	104	0	60	14454
2026-01-20 09:14:49.26	21.66	6.68	-44.3	-44.6	8.7	0.00e+00	0	47	104	0	59	15533
2026-01-20 09:14:50.26	21.68	6.76	-44.3	-44.6	8.7	0.00e+00	0	47	104	0	59	15547
2026-01-20 09:14:51.28	21.69	6.85	-44.0	-44.3	8.9	0.00e+00	15	47	104	0	59	15071
2026-01-20 09:14:52.28	21.71	6.94	-44.1	-44.4	8.8	0.00e+00	0	47	104	0	59	15150
2026-01-20 09:14:53.29	21.73	7.03	-43.6	-43.9	9.2	0.00e+00	10909	50	0	8388608	58	15181
2026-01-20 09:14:54.30	21.74	7.12	-46.7	-47.4	7.4	0.00e+00	0	48	104	67108864	63	17144
2026-01-20 09:14:55.31	21.76	7.21	-49.7	-51.4	6.3	0.00e+00	0	48	104	67108864	70	18141
2026-01-20 09:14:56.31	21.78	7.30	-47.9	-48.9	6.8	0.00e+00	0	48	104	67108864	67	16098
2026-01-20 09:14:57.32	21.79	7.39	-44.5	-44.8	8.6	0.00e+00	0	48	104	67108864	59	15855
2026-01-20 09:14:58.33	21.81	7.48	-44.1	-44.4	8.8	0.00e+00	0	47	104	67108864	59	15161
2026-01-20 09:14:59.33	21.83	7.57	-43.5	-43.8	9.1	0.00e+00	0	48	104	67108864	59	14112
2026-01-20 09:15:00.34	21.85	7.67	-42.8	-43.0	9.6	0.00e+00	11031	49	104	67108864	57	14455
2026-01-20 09:15:01.34	21.86	7.76	-42.5	-42.6	9.9	1.59e-01	11021	51	0	167772160	56	14728
2026-01-20 09:15:02.35	21.88	7.85	-42.2	-42.4	10.0	1.59e-01	10913	51	0	285212672	56	14292
2026-01-20 09:15:03.36	21.90	7.94	-42.0	-42.1	10.2	1.59e-01	11028	51	0	394264576	55	14734
2026-01-20 09:15:04.37	21.92	8.04	-41.8	-41.9	10.4	5.11e-01	11022	52	0	503316480	55	14293
2026-01-20 09:15:05.37	21.93	8.13	-41.7	-41.8	10.4	5.11e-01	10911	52	0	620756992	55	14270
2026-01-20 09:15:06.38	21.95	8.23	-41.9	-42.0	10.3	4.18e-01	10916	52	0	729808896	55	14604
2026-01-20 09:15:07.39	21.97	8.32	-41.7	-41.9	10.4	4.18e-01	10908	52	0	847249408	55	14282
2026-01-20 09:15:08.40	21.99	8.42	-41.6	-41.7	10.4	4.18e-01	11023	52	0	956301312	55	14067
2026-01-20 09:15:09.40	22.01	8.51	-41.6	-41.7	10.5	4.13e-01	10919	52	0	1065353216	55	13999
2026-01-20 09:15:10.41	22.03	8.61	-41.7	-41.8	10.4	4.13e-01	11025	53	0	1191182336	55	14168
2026-01-20 09:15:11.42	22.04	8.71	-41.4	-41.4	10.6	3.78e-01	11028	53	0	1308622848	54	14433
2026-01-20 09:15:12.43	22.06	8.81	-41.5	-41.6	10.5	3.78e-01	11025	53	0	1417674752	54	14633
2026-01-20 09:15:13.44	22.08	8.91	-41.3	-41.4	10.6	3.78e-01	11025	53	0	1526726656	54	14348
2026-01-20 09:15:14.45	22.10	9.00	-41.4	-41.5	10.6	3.57e-01	11028	53	0	1644167168	54	14518
2026-01-20 09:15:15.45	22.12	9.10	-41.2	-41.3	10.7	3.57e-01	11017	53	0	1753219072	54	14198
2026-01-20 09:15:16.46	22.14	9.20	-41.3	-41.3	10.7	3.57e-01	10915	53	0	1870659584	54	14264
2026-01-20 09:15:17.47	22.16	9.30	-41.2	-41.3	10.7	3.53e-01	11028	54	0	1979711488	54	14117
2026-01-20 09:15:18.48	22.18	9.40	-41.2	-41.3	10.7	3.53e-01	11022	54	0	2088763392	54	14194
2026-01-20 09:15:19.48	22.20	9.51	-41.2	-41.3	10.7	3.53e-01	11030	54	0	2206203904	54	14140
2026-01-20 09:15:20.49	22.22	9.61	-41.0	-41.1	10.8	3.26e-01	10915	54	0	2315255808	54	13858
2026-01-20 09:15:21.50	22.24	9.71	-41.0	-41.1	10.8	3.26e-01	11025	54	0	2432696320	54	13818
2026-01-20 09:15:22.51	22.26	9.81	-41.0	-41.0	10.8	3.26e-01	11031	54	0	2550136832	53	14568
2026-01-20 09:15:23.51	22.28	9.92	-40.9	-41.0	10.9	3.13e-01	11083	54	0	2667577344	53	14546
2026-01-20 09:15:24.52	22.30	10.02	-40.9	-41.0	10.9	3.13e-01	11085	54	0	2776629248	53	14544
2026-01-20 09:15:25.53	22.32	10.13	-40.7	-40.8	11.0	3.13e-01	10987	55	0	2894069760	53	14118
2026-01-20 09:15:26.54	22.34	10.23	-40.7	-40.7	11.0	2.78e-01	10905	54	0	3003121664	53	14064
2026-01-20 09:15:27.54	22.36	10.34	-40.6	-40.7	11.0	2.78e-01	10975	55	0	3112173568	53	14013
2026-01-20 09:15:28.55	22.38	10.44	-40.6	-40.7	11.1	2.78e-01	11022	55	0	3229614080	53	13982
2026-01-20 09:15:29.56	22.40	10.55	-40.5	-40.6	11.1	2.62e-01	10910	55	0	3338665984	53	13813
2026-01-20 09:15:30.57	22.42	10.66	-40.6	-40.6	11.1	2.62e-01	11078	55	0	3456106496	53	13916
2026-01-20 09:15:31.58	22.44	10.77	-40.5	-40.6	11.1	2.62e-01	11033	55	0	3565158400	52	14653
2026-01-20 09:15:32.58	22.46	10.88	-40.5	-40.6	11.1	2.56e-01	11019	55	0	3682598912	52	14641
2026-01-20 09:15:33.59	22.49	10.99	-40.3	-40.4	11.2	2.56e-01	11005	55	0	3791650816	52	14286
2026-01-20 09:15:34.60	22.51	11.10	-40.4	-40.5	11.2	2.56e-01	11006	55	0	3900702720	52	14496
2026-01-20 09:15:35.61	22.53	11.21	-40.4	-40.4	11.2	2.45e-01	10909	55	0	4026531840	52	14333
2026-01-20 09:15:36.61	22.55	11.32	-40.2	-40.2	11.3	2.45e-01	10602	56	0	4143972352	52	14093
2026-01-20 09:15:37.62	22.57	11.43	-40.2	-40.2	11.3	2.45e-01	10141	55	0	4253024256	52	14066
2026-01-20 09:15:38.63	22.60	11.54	-40.1	-40.1	11.4	2.33e-01	9816	55	0	4362076160	52	13949
2026-01-20 09:15:39.64	22.62	11.66	-40.0	-40.1	11.4	2.33e-01	8544	56	0	4479516672	52	13793
2026-01-20 09:15:40.64	22.64	11.77	-40.1	-40.2	11.4	2.19e-01	10083	56	0	4588568576	52	13974
2026-01-20 09:15:41.65	22.67	11.89	-40.1	-40.1	11.5	2.19e-01	6848	56	0	4706009088	51	14637
2026-01-20 09:15:42.66	22.69	12.00	-40.0	-40.0	11.5	2.19e-01	5055	56	0	4815060992	51	14500
2026-01-20 09:15:43.67	22.71	12.12	-40.0	-40.0	11.5	2.11e-01	6640	56	0	4924112896	51	14584
2026-01-20 09:15:44.68	22.74	12.24	-40.0	-40.0	11.5	2.11e-01	5405	56	0	5041553408	51	14568
2026-01-20 09:15:45.68	22.76	12.36	-40.1	-40.2	11.4	2.11e-01	8577	56	0	5150605312	51	14795
2026-01-20 09:15:46.69	22.78	12.47	-39.9	-39.9	11.5	2.04e-01	4163	56	0	5268045824	51	14431
2026-01-20 09:15:47.70	22.81	12.59	-39.9	-39.9	11.6	2.04e-01	2788	56	0	5377097728	51	14379
2026-01-20 09:15:48.71	22.83	12.71	-39.8	-39.8	11.6	2.04e-01	2213	55	0	5486149632	51	14241
2026-01-20 09:15:49.71	22.86	12.83	-39.6	-39.6	11.7	1.96e-01	289	55	0	5611978752	51	13867
2026-01-20 09:15:50.72	22.88	12.96	-39.6	-39.6	11.7	1.96e-01	274	55	0	5729419264	51	13915
2026-01-20 09:15:51.73	22.90	13.08	-39.6	-39.6	11.8	1.76e-01	177	55	0	5838471168	51	13833
2026-01-20 09:15:52.74	22.93	13.20	-39.6	-39.7	11.7	1.76e-01	429	55	0	5947523072	51	13956
2026-01-20 09:15:53.75	22.96	13.33	-39.4	-39.4	11.9	1.76e-01	21	55	0	6064963584	50	14341
2026-01-20 09:15:54.76	22.98	13.45	-39.4	-39.4	11.8	1.66e-01	24	55	0	6174015488	50	14391
2026-01-20 09:15:55.76	23.01	13.58	-39.4	-39.4	11.8	1.66e-01	46	55	0	6291456000	50	14435
2026-01-20 09:15:56.77	23.03	13.71	-39.3	-39.3	11.9	1.56e-01	11	55	0	6400507904	50	14256
2026-01-20 09:15:57.77	23.06	13.83	-39.2	-39.2	12.0	1.56e-01	0	55	0	6517948416	50	14048
2026-01-20 09:15:58.78	23.08	13.96	-39.2	-39.2	12.0	1.56e-01	2	55	0	6627000320	50	14056
2026-01-20 09:15:59.79	23.11	14.09	-39.2	-39.2	12.0	1.48e-01	1	54	0	6736052224	50	14084
2026-01-20 09:16:00.79	23.14	14.22	-39.2	-39.2	12.0	1.48e-01	3	55	0	6853492736	50	14054
2026-01-20 09:16:01.80	23.16	14.35	-39.1	-39.1	12.0	1.48e-01	0	55	0	6962544640	50	13879
2026-01-20 09:16:02.81	23.19	14.48	-39.0	-39.0	12.1	1.48e-01	0	54	0	7088373760	50	13769
2026-01-20 09:16:03.82	23.22	14.62	-39.0	-39.0	12.1	1.42e-01	0	54	0	7197425664	50	13718
2026-01-20 09:16:04.83	23.25	14.75	-38.9	-38.9	12.2	1.42e-01	0	55	0	7314866176	49	14301
2026-01-20 09:16:05.83	23.28	14.89	-38.9	-38.9	12.1	1.30e-01	0	54	0	7423918080	49	14382
2026-01-20 09:16:06.84	23.30	15.02	-38.9	-38.9	12.1	1.30e-01	0	54	0	7541358592	49	14356
2026-01-20 09:16:07.85	23.33	15.16	-39.0	-39.0	12.1	1.29e-01	0	54	0	7650410496	49	14498
2026-01-20 09:16:08.86	23.36	15.30	-39.0	-38.9	12.1	1.29e-01	0	54	0	7759462400	49	14426
2026-01-20 09:16:09.86	23.39	15.44	-38.8	-38.8	12.2	1.29e-01	0	54	0	7876902912	49	14144
2026-01-20 09:16:10.87	23.42	15.58	-38.8	-38.8	12.2	1.30e-01	0	54	0	7985954816	49	14223
2026-01-20 09:16:11.88	23.45	15.72	-38.8	-38.8	12.2	1.30e-01	0	54	0	8103395328	49	14127
2026-01-20 09:16:12.89	23.48	15.86	-38.7	-38.7	12.3	1.30e-01	0	54	0	8212447232	49	14071
2026-01-20 09:16:13.89	23.51	16.00	-38.6	-38.5	12.4	1.30e-01	0	54	0	8321499136	49	13784
2026-01-20 09:16:14.90	23.54	16.15	-38.6	-38.5	12.4	1.21e-01	0	54	0	8438939648	49	13752
2026-01-20 09:16:15.91	23.57	16.29	-38.5	-38.5	12.4	1.21e-01	0	54	0	8564768768	49	13665
2026-01-20 09:16:16.92	23.60	16.44	-38.6	-38.6	12.3	1.12e-01	0	54	0	8673820672	49	13828
2026-01-20 09:16:17.93	23.63	16.59	-38.6	-38.5	12.3	1.12e-01	0	54	0	8782872576	49	13780
2026-01-20 09:16:18.94	23.66	16.74	-38.4	-38.3	12.4	1.10e-01	0	54	0	8900313088	48	14247
2026-01-20 09:16:19.94	23.70	16.89	-38.3	-38.3	12.5	1.10e-01	0	54	0	9009364992	48	14214
2026-01-20 09:16:20.95	23.73	17.04	-38.4	-38.4	12.4	1.10e-01	0	54	0	9126805504	48	14289
2026-01-20 09:16:21.96	23.76	17.19	-38.3	-38.3	12.5	1.04e-01	0	54	0	9235857408	48	14135
2026-01-20 09:16:22.97	23.79	17.34	-38.3	-38.2	12.5	1.04e-01	0	54	0	9344909312	48	14072
2026-01-20 09:16:23.97	23.83	17.50	-38.3	-38.2	12.5	1.04e-01	0	54	0	9462349824	48	14087
2026-01-20 09:16:24.98	23.86	17.65	-38.1	-38.1	12.6	9.95e-02	0	54	0	9571401728	48	13891
2026-01-20 09:16:25.99	23.90	17.81	-38.0	-38.0	12.7	9.95e-02	0	54	0	9688842240	48	13702
2026-01-20 09:16:26.99	23.93	17.97	-37.1	-37.1	12.4	9.81e-02	0	54	0	9797894144	46	13838
2026-01-20 09:16:28.00	23.97	18.13	-37.0	-37.0	12.5	9.81e-02	0	54	0	9915334656	46	13676
2026-01-20 09:16:29.01	24.00	18.29	-37.0	-37.0	12.5	9.81e-02	0	54	0	10032775168	46	13660
2026-01-20 09:16:30.02	24.04	18.45	-36.8	-36.8	12.5	9.81e-02	0	54	0	10150215680	45	14213
2026-01-20 09:16:31.03	24.07	18.62	-36.7	-36.7	12.6	1.00e-01	0	54	0	10259267584	45	13999
2026-01-20 09:16:32.03	24.11	18.78	-36.7	-36.7	12.6	1.00e-01	0	54	0	10376708096	45	14010
2026-01-20 09:16:33.04	24.14	18.95	-36.9	-36.9	12.5	9.36e-02	0	54	0	10485760000	45	14289
2026-01-20 09:16:34.05	24.18	19.12	-36.7	-36.6	12.7	9.36e-02	0	54	0	10594811904	45	13931
2026-01-20 09:16:35.05	24.22	19.29	-36.6	-36.5	12.7	9.36e-02	0	54	0	10712252416	45	13770
2026-01-20 09:16:36.06	24.26	19.46	-36.5	-36.4	12.8	8.78e-02	0	54	0	10821304320	45	13631
2026-01-20 09:16:37.07	24.30	19.63	-36.4	-36.4	12.8	8.78e-02	0	54	0	10938744832	44	14292
2026-01-20 09:16:38.07	24.33	19.80	-36.4	-36.4	12.8	7.94e-02	0	54	0	11047796736	44	14286
2026-01-20 09:16:39.08	24.37	19.98	-36.5	-36.5	12.8	7.94e-02	0	54	0	11156848640	44	14442
2026-01-20 09:16:40.09	24.41	20.16	-36.3	-36.3	12.9	7.94e-02	0	54	0	11274289152	44	14161
2026-01-20 09:16:41.10	24.45	20.33	-36.3	-36.3	12.8	7.77e-02	0	53	0	11383341056	44	14159
2026-01-20 09:16:42.10	24.49	20.51	-36.3	-36.3	12.8	7.77e-02	0	53	0	11500781568	44	14187
2026-01-20 09:16:43.11	24.54	20.70	-36.1	-36.1	13.0	7.77e-02	0	54	0	11618222080	44	13841
2026-01-20 09:16:44.12	24.58	20.88	-36.0	-35.9	13.1	7.77e-02	0	54	0	11735662592	44	13589
2026-01-20 09:16:45.13	24.62	21.07	-36.0	-35.9	13.1	7.11e-02	0	53	0	11844714496	43	14409
2026-01-20 09:16:46.13	24.66	21.25	-35.9	-35.9	13.1	7.11e-02	0	53	0	11962155008	43	14345
2026-01-20 09:16:47.14	24.71	21.44	-35.9	-35.8	13.2	7.11e-02	0	53	0	12071206912	43	14225
2026-01-20 09:16:48.15	24.75	21.63	-35.8	-35.8	13.2	5.91e-02	0	54	0	12180258816	43	14163
2026-01-20 09:16:49.16	24.79	21.82	-35.8	-35.8	13.2	5.91e-02	0	53	0	12297699328	43	14139
2026-01-20 09:16:50.16	24.84	22.02	-35.9	-35.9	13.1	5.91e-02	0	54	0	12406751232	43	14294
2026-01-20 09:16:51.17	24.88	22.21	-35.6	-35.5	13.3	5.89e-02	0	53	0	12524191744	43	13780
2026-01-20 09:16:52.18	24.93	22.41	-35.4	-35.4	13.4	5.89e-02	0	54	0	12633243648	42	14304
2026-01-20 09:16:53.19	24.98	22.61	-35.4	-35.3	13.4	4.85e-02	0	53	0	12742295552	42	14160
2026-01-20 09:16:54.19	25.02	22.81	-35.5	-35.4	13.4	4.85e-02	0	53	0	12859736064	42	14365
2026-01-20 09:16:55.20	25.07	23.01	-35.5	-35.4	13.4	4.85e-02	0	53	0	12968787968	42	14371
2026-01-20 09:16:56.20	25.12	23.22	-35.3	-35.2	13.5	4.83e-02	0	54	0	13086228480	42	14065
2026-01-20 09:16:57.21	25.17	23.43	-35.1	-35.0	13.6	4.83e-02	0	53	0	13203668992	42	13775
2026-01-20 09:16:58.22	25.22	23.64	-35.1	-35.1	13.6	4.83e-02	0	53	0	13321109504	42	13840
2026-01-20 09:16:59.23	25.27	23.85	-34.9	-34.8	13.7	4.08e-02	0	53	0	13430161408	41	14266
2026-01-20 09:17:00.24	25.32	24.06	-34.8	-34.8	13.7	4.08e-02	0	53	0	13547601920	41	14123
2026-01-20 09:17:01.24	25.37	24.28	-34.7	-34.6	13.8	4.08e-02	0	53	0	13656653824	41	13909
2026-01-20 09:17:02.25	25.43	24.49	-34.7	-34.6	13.8	3.46e-02	0	53	0	13774094336	41	13855
2026-01-20 09:17:03.26	25.48	24.71	-34.7	-34.6	13.8	3.46e-02	0	53	0	13883146240	41	13918
2026-01-20 09:17:04.27	25.54	24.94	-34.4	-34.3	13.9	3.46e-02	0	53	0	13992198144	40	14264
2026-01-20 09:17:05.27	25.59	25.16	-34.3	-34.2	14.0	2.98e-02	0	53	0	14109638656	40	14030
2026-01-20 09:17:06.28	25.65	25.39	-34.3	-34.3	14.0	2.98e-02	0	53	0	14218690560	40	14140
2026-01-20 09:17:07.29	25.70	25.62	-34.0	-34.0	14.1	2.98e-02	0	53	0	14336131072	40	13646
2026-01-20 09:17:08.29	25.76	25.85	-34.0	-34.0	14.2	2.45e-02	0	53	0	14445182976	39	14464
2026-01-20 09:17:09.30	25.82	26.08	-33.8	-33.7	14.3	2.45e-02	0	53	0	14554234880	39	14102
2026-01-20 09:17:10.31	25.88	26.32	-33.7	-33.6	14.3	2.02e-02	0	53	0	14680064000	39	13950
2026-01-20 09:17:11.32	25.94	26.56	-33.6	-33.6	14.3	2.02e-02	0	53	0	14797504512	39	13812
2026-01-20 09:17:12.32	26.00	26.80	-33.5	-33.5	14.4	2.02e-02	0	53	0	14906556416	39	13639
2026-01-20 09:17:13.33	26.06	27.04	-33.6	-33.5	14.4	1.66e-02	0	53	0	15015608320	39	13691
2026-01-20 09:17:14.34	26.13	27.29	-33.4	-33.3	14.5	1.66e-02	0	53	0	15133048832	38	14158
2026-01-20 09:17:15.34	26.19	27.54	-33.3	-33.2	14.5	1.66e-02	0	53	0	15242100736	38	14044
2026-01-20 09:17:16.35	26.26	27.79	-33.2	-33.2	14.5	1.50e-02	0	53	0	15359541248	38	13964
2026-01-20 09:17:17.36	26.32	28.05	-33.3	-33.2	14.5	1.50e-02	0	53	0	15468593152	38	13973
2026-01-20 09:17:18.37	26.39	28.31	-33.2	-33.1	14.5	1.33e-02	0	53	0	15577645056	38	13935
2026-01-20 09:17:19.37	26.46	28.57	-33.1	-33.0	14.6	1.33e-02	0	53	0	15695085568	38	13724
2026-01-20 09:17:20.38	26.53	28.83	-33.0	-32.9	14.7	1.23e-02	0	53	0	15804137472	38	13519
2026-01-20 09:17:21.39	26.60	29.10	-32.9	-32.8	14.7	1.23e-02	0	53	0	15921577984	37	14140
2026-01-20 09:17:22.40	26.67	29.37	-32.7	-32.6	14.8	1.02e-02	0	53	0	16030629888	37	13927
2026-01-20 09:17:23.40	26.74	29.64	-32.5	-32.4	14.9	1.02e-02	0	53	0	16148070400	37	13605
2026-01-20 09:17:24.41	26.82	29.91	-32.6	-32.5	14.8	1.02e-02	0	53	0	16265510912	37	13718
2026-01-20 09:17:25.42	26.89	30.19	-32.7	-32.6	14.8	8.23e-03	0	53	0	16382951424	37	13842
2026-01-20 09:17:26.43	26.97	30.48	-32.4	-32.3	14.9	8.23e-03	0	53	0	16492003328	36	14193
2026-01-20 09:17:27.44	27.05	30.76	-32.3	-32.2	14.9	8.04e-03	0	53	0	16609443840	36	14051
2026-01-20 09:17:28.44	27.13	31.05	-32.4	-32.3	14.9	8.04e-03	0	53	0	16718495744	36	14188
2026-01-20 09:17:29.45	27.21	31.34	-32.1	-32.1	15.0	8.04e-03	0	53	0	16827547648	36	13791
2026-01-20 09:17:30.46	27.30	31.64	-32.0	-31.9	15.1	6.65e-03	0	53	0	16944988160	36	13501
2026-01-20 09:17:31.47	27.38	31.94	-29.6	-29.5	14.8	6.65e-03	0	53	0	17054040064	31	13731
2026-01-20 09:17:32.47	27.47	32.24	-29.7	-29.6	14.8	6.65e-03	0	53	0	17171480576	31	13927
2026-01-20 09:17:33.48	27.56	32.55	-29.6	-29.5	14.9	9.33e-03	0	53	0	17280532480	31	13689
2026-01-20 09:17:34.49	27.65	32.86	-29.3	-29.2	15.0	9.33e-03	0	53	0	17389584384	30	13967
2026-01-20 09:17:35.49	27.74	33.17	-29.1	-29.0	15.1	9.33e-03	0	53	0	17507024896	30	13662
2026-01-20 09:17:36.50	27.83	33.48	-29.2	-29.1	15.1	1.19e-02	0	53	0	17616076800	30	13811
2026-01-20 09:17:37.51	27.93	33.81	-29.2	-29.1	15.1	1.19e-02	0	53	0	17741905920	30	13824
2026-01-20 09:17:38.52	28.02	34.13	-28.9	-28.8	15.2	1.19e-02	0	53	0	17850957824	29	14147
2026-01-20 09:17:39.53	28.12	34.46	-28.9	-28.8	15.2	1.09e-02	0	53	0	17968398336	29	14193
2026-01-20 09:17:40.53	28.22	34.79	-28.6	-28.5	15.3	1.09e-02	0	53	0	18077450240	29	13739
2026-01-20 09:17:41.54	28.33	35.13	-50.9	-53.2	6.2	9.49e-03	0	52	104	18161336320	72	19846
2026-01-20 09:17:42.55	28.43	35.47	-50.9	-53.1	6.2	9.49e-03	0	52	104	18161336320	72	19639
2026-01-20 09:17:43.56	28.54	35.82	-50.9	-53.1	6.2	9.49e-03	0	52	104	18161336320	72	19564
2026-01-20 09:17:44.56	28.65	36.16	-50.9	-53.0	6.2	9.49e-03	0	52	104	18161336320	72	19419
2026-01-20 09:17:45.57	28.76	36.52	-50.9	-53.0	6.2	9.49e-03	0	52	104	18161336320	72	19427
2026-01-20 09:17:46.58	28.88	36.88	-50.9	-53.0	6.2	9.49e-03	0	51	104	18161336320	72	19452
2026-01-20 09:17:47.59	29.00	37.24	-50.9	-53.0	6.2	9.49e-03	0	51	104	18161336320	72	19458
2026-01-20 09:17:48.59	29.12	37.60	-50.9	-53.1	6.2	9.49e-03	0	51	104	18161336320	72	19538
2026-01-20 09:17:49.60	29.24	37.98	-50.9	-53.0	6.2	9.49e-03	0	51	104	18161336320	72	19474
2026-01-20 09:17:50.61	29.37	38.35	-50.9	-53.0	6.2	9.49e-03	0	51	104	18161336320	72	19452
2026-01-20 09:17:51.62	29.50	38.73	-50.9	-53.1	6.2	9.49e-03	0	51	104	18161336320	72	19494
2026-01-20 09:17:52.62	29.63	39.12	-51.0	-53.1	6.2	9.49e-03	0	51	104	18161336320	72	19532
2026-01-20 09:17:53.63	29.76	39.51	-50.9	-53.1	6.2	9.49e-03	0	51	104	18161336320	72	19534
2026-01-20 09:17:54.64	29.90	39.90	-50.9	-53.1	6.2	0.00e+00	0	51	104	18161336320	72	19516
2026-01-20 09:17:55.64	30.04	40.30	-50.9	-53.1	6.2	0.00e+00	0	51	104	18161336320	72	19570
2026-01-20 09:17:56.65	30.19	40.71	-51.0	-53.1	6.2	0.00e+00	0	51	104	18161336320	72	19539
2026-01-20 09:17:57.66	30.34	41.12	-50.9	-53.1	6.2	0.00e+00	0	51	104	18161336320	72	19540
2026-01-20 09:17:58.67	30.50	41.54	-50.9	-53.1	6.2	0.00e+00	0	51	104	18161336320	72	19516
2026-01-20 09:17:59.67	30.65	41.95	-51.0	-53.1	6.2	0.00e+00	0	51	104	18161336320	72	19614
2026-01-20 09:18:00.68	30.82	42.38	-51.0	-53.1	6.2	0.00e+00	0	51	104	18161336320	72	19601
2026-01-20 09:18:01.69	30.98	42.81	-51.0	-53.1	6.2	0.00e+00	0	51	104	18161336320	72	19625
2026-01-20 09:18:02.70	31.15	43.25	-51.0	-53.1	6.2	0.00e+00	0	51	104	18161336320	72	19565
2026-01-20 09:18:03.71	31.33	43.69	-51.0	-53.1	6.2	0.00e+00	0	51	104	18161336320	72	19631
2026-01-20 09:18:04.71	31.51	44.14	-51.0	-53.1	6.2	0.00e+00	0	50	104	18161336320	72	19587
2026-01-20 09:18:05.72	31.70	44.59	-51.0	-53.1	6.2	0.00e+00	0	51	104	18161336320	72	19570
2026-01-20 09:18:06.73	31.89	45.05	-51.0	-53.1	6.2	0.00e+00	0	51	104	18161336320	72	19589
2026-01-20 09:18:07.74	32.09	45.52	-51.0	-53.1	6.2	0.00e+00	0	51	104	18161336320	72	19691
2026-01-20 09:18:08.74	32.29	45.98	-51.0	-53.1	6.2	0.00e+00	0	51	104	18161336320	72	19630
2026-01-20 09:18:09.75	32.50	46.46	-51.0	-53.1	6.2	0.00e+00	0	51	104	18161336320	72	19571
2026-01-20 09:18:10.76	32.72	46.94	-51.0	-53.1	6.2	0.00e+00	0	50	104	18161336320	72	19576
2026-01-20 09:18:11.77	32.94	47.43	-51.0	-53.1	6.2	0.00e+00	0	50	104	18161336320	72	19591
2026-01-20 09:18:12.77	33.17	47.92	-51.0	-53.1	6.2	0.00e+00	0	50	104	18161336320	72	19671
2026-01-20 09:18:13.78	33.41	48.42	-51.0	-53.1	6.2	0.00e+00	0	50	104	18161336320	72	19578
2026-01-20 09:18:14.79	33.66	48.93	-51.0	-53.2	6.2	0.00e+00	0	50	104	18161336320	72	19722
2026-01-20 09:18:15.80	33.91	49.44	-51.0	-53.2	6.2	0.00e+00	0	50	104	18161336320	72	19721
2026-01-20 09:18:16.81	34.18	49.96	-51.0	-53.2	6.2	0.00e+00	0	50	104	18161336320	72	19741
2026-01-20 09:18:17.81	34.45	50.48	-51.0	-53.1	6.2	0.00e+00	0	50	104	18161336320	72	19654
2026-01-20 09:18:18.82	34.73	51.01	-51.0	-53.2	6.2	0.00e+00	0	50	104	18161336320	72	19707
2026-01-20 09:18:19.83	35.02	51.54	-51.0	-53.2	6.2	0.00e+00	0	50	104	18161336320	72	19743
2026-01-20 09:18:20.84	35.33	52.08	-51.0	-53.2	6.2	0.00e+00	0	50	104	18161336320	72	19741
2026-01-20 09:18:21.85	35.64	52.63	-51.0	-53.1	6.2	0.00e+00	0	50	104	18161336320	72	19673
2026-01-20 09:18:22.85	35.97	53.18	-51.0	-53.2	6.2	0.00e+00	0	50	104	18161336320	72	19727
2026-01-20 09:18:23.86	36.31	53.74	-51.0	-53.1	6.2	0.00e+00	0	50	104	18161336320	72	19666
2026-01-20 09:18:24.87	36.66	54.31	-51.0	-53.2	6.2	0.00e+00	0	50	104	18161336320	72	19830
2026-01-20 09:18:25.88	37.03	54.88	-51.0	-53.2	6.2	0.00e+00	0	50	104	18161336320	72	19708
2026-01-20 09:18:26.89	37.42	55.45	-51.0	-53.2	6.2	0.00e+00	0	50	104	18161336320	72	19738
2026-01-20 09:18:27.89	37.81	56.03	-51.0	-53.2	6.2	0.00e+00	0	50	104	18161336320	72	19784
2026-01-20 09:18:28.90	38.23	56.62	-51.1	-53.2	6.2	0.00e+00	0	50	104	18161336320	72	19859
2026-01-20 09:18:29.91	38.67	57.21	-51.0	-53.2	6.2	0.00e+00	0	50	104	18161336320	72	19737
2026-01-20 09:18:30.92	39.12	57.81	-51.0	-53.2	6.2	0.00e+00	0	50	104	18161336320	72	19771
2026-01-20 09:18:31.93	39.60	58.41	-51.0	-53.2	6.2	0.00e+00	0	50	104	18161336320	72	19738
2026-01-20 09:18:32.94	40.10	59.02	-51.0	-53.2	6.2	0.00e+00	0	50	104	18161336320	72	19816
2026-01-20 09:18:33.94	40.61	59.63	-51.0	-53.2	6.2	0.00e+00	0	50	104	18161336320	72	19745
2026-01-20 09:18:34.95	41.16	60.25	-51.0	-53.2	6.2	0.00e+00	0	50	104	18161336320	72	19792
2026-01-20 09:18:35.95	41.73	60.86	-51.0	-53.2	6.2	0.00e+00	0	50	104	18161336320	72	19776
2026-01-20 09:18:36.96	42.34	61.49	-51.0	-53.2	6.2	0.00e+00	0	50	104	18161336320	72	19736
2026-01-20 09:18:37.97	42.97	62.12	-51.0	-53.2	6.2	0.00e+00	0	50	104	18161336320	72	19753
2026-01-20 09:18:38.98	43.64	62.75	-51.0	-53.2	6.2	0.00e+00	0	50	104	18161336320	72	19728
2026-01-20 09:18:39.99	44.35	63.39	-51.1	-53.2	6.2	0.00e+00	0	50	104	18161336320	72	19782
2026-01-20 09:18:40.99	45.09	64.02	-51.1	-53.2	6.2	0.00e+00	0	50	104	18161336320	72	19819
2026-01-20 09:18:42.00	45.87	64.66	-51.0	-53.2	6.2	0.00e+00	0	50	104	18161336320	72	19711
2026-01-20 09:18:43.01	46.71	65.30	-51.1	-53.2	6.2	0.00e+00	0	50	104	18161336320	72	19793
2026-01-20 09:18:44.02	47.59	65.94	-51.0	-53.1	6.2	0.00e+00	0	50	104	18161336320	72	19683
2026-01-20 09:18:45.03	48.53	66.59	-51.1	-53.2	6.2	0.00e+00	0	50	104	18161336320	72	19818
2026-01-20 09:18:46.03	49.51	67.22	-51.0	-53.2	6.2	0.00e+00	0	50	104	18161336320	72	19751
2026-01-20 09:18:47.04	50.57	67.86	-51.1	-53.2	6.2	0.00e+00	0	50	104	18161336320	72	19763
2026-01-20 09:18:48.05	51.70	68.50	-51.1	-53.2	6.2	0.00e+00	0	50	104	18161336320	72	19815
2026-01-20 09:18:49.06	52.90	69.14	-51.1	-53.2	6.2	0.00e+00	0	49	104	18161336320	72	19845
2026-01-20 09:18:50.07	54.18	69.77	-51.0	-53.2	6.2	0.00e+00	0	49	104	18161336320	72	19743
2026-01-20 09:18:51.07	55.54	70.39	-51.1	-53.2	6.2	0.00e+00	0	50	104	18161336320	72	19819
2026-01-20 09:18:52.08	57.01	71.01	-51.1	-53.2	6.2	0.00e+00	0	50	104	18161336320	72	19814
2026-01-20 09:18:53.09	58.58	71.62	-51.1	-53.2	6.2	0.00e+00	0	49	104	18161336320	72	19775
2026-01-20 09:18:54.10	60.27	72.22	-51.1	-53.2	6.2	0.00e+00	0	50	104	18161336320	72	19823
2026-01-20 09:18:55.11	62.08	72.81	-51.1	-53.2	6.2	0.00e+00	0	50	104	18161336320	72	19799
2026-01-20 09:18:56.11	64.00	73.37	-51.1	-53.2	6.2	0.00e+00	0	49	104	18161336320	72	19853
2026-01-20 09:18:57.12	66.08	73.93	-51.1	-53.2	6.2	0.00e+00	0	50	104	18161336320	72	19858
2026-01-20 09:18:58.13	68.32	74.47	-51.0	-53.2	6.2	0.00e+00	0	50	104	18161336320	72	19776
2026-01-20 09:18:59.14	70.73	74.99	-51.1	-53.2	6.2	0.00e+00	0	49	104	18161336320	72	19825
2026-01-20 09:19:00.15	73.31	75.48	-51.1	-53.2	6.2	0.00e+00	0	50	104	18161336320	72	19846
2026-01-20 09:19:01.15	76.04	75.94	-51.1	-53.2	6.2	0.00e+00	0	50	104	18161336320	72	19864
2026-01-20 09:19:02.16	78.99	76.37	-51.0	-53.2	6.2	0.00e+00	0	49	104	18161336320	72	19716
2026-01-20 09:19:03.17	82.13	76.77	-51.1	-53.2	6.2	0.00e+00	0	49	104	18161336320	72	19844
2026-01-20 09:19:04.18	85.46	77.12	-51.1	-53.2	6.2	0.00e+00	0	49	104	18161336320	72	19866
2026-01-20 09:19:05.19	88.97	77.44	-51.1	-53.2	6.2	0.00e+00	0	49	104	18161336320	72	19795
2026-01-20 09:19:06.19	92.61	77.70	-51.0	-53.2	6.2	0.00e+00	0	49	104	18161336320	72	19791
2026-01-20 09:19:07.20	96.44	77.91	-51.1	-53.2	6.2	0.00e+00	0	50	104	18161336320	72	19830
2026-01-20 09:19:08.21	100.40	78.07	-51.1	-53.2	6.2	0.00e+00	0	50	104	18161336320	72	19874
2026-01-20 09:19:09.21	104.40	78.18	-51.1	-53.2	6.2	0.00e+00	0	49	104	18161336320	72	19854
2026-01-20 09:19:10.22	108.50	78.22	-51.1	-53.2	6.2	0.00e+00	0	49	104	18161336320	72	19770
2026-01-20 09:19:11.23	112.61	78.21	-51.1	-53.2	6.2	0.00e+00	0	49	104	18161336320	72	19848
2026-01-20 09:19:12.24	116.69	78.14	-51.1	-53.2	6.2	0.00e+00	0	49	104	18161336320	72	19880
2026-01-20 09:19:13.25	120.70	78.01	-51.1	-53.2	6.2	0.00e+00	0	49	104	18161336320	72	19839
2026-01-20 09:19:14.25	124.57	77.83	-51.0	-53.2	6.2	0.00e+00	0	49	104	18161336320	72	19819
2026-01-20 09:19:15.26	128.34	77.59	-51.1	-53.2	6.2	0.00e+00	0	49	104	18161336320	72	19863
2026-01-20 09:19:16.27	131.95	77.31	-51.1	-53.2	6.2	0.00e+00	0	50	104	18161336320	72	19871
2026-01-20 09:19:17.28	135.39	76.97	-51.1	-53.2	6.2	0.00e+00	0	49	104	18161336320	72	19839
2026-01-20 09:19:18.29	138.64	76.60	-51.1	-53.2	6.2	0.00e+00	0	49	104	18161336320	72	19768
2026-01-20 09:19:19.29	141.67	76.19	-51.1	-53.2	6.2	0.00e+00	0	49	104	18161336320	72	19872
2026-01-20 09:19:20.30	144.54	75.75	-51.1	-53.2	6.2	0.00e+00	0	49	104	18161336320	72	19874
2026-01-20 09:19:21.31	147.22	75.27	-51.1	-53.2	6.2	0.00e+00	0	49	104	18161336320	72	19899
2026-01-20 09:19:22.32	149.73	74.77	-51.1	-53.2	6.2	0.00e+00	0	49	104	18161336320	72	19857
2026-01-20 09:19:23.33	152.06	74.24	-51.1	-53.2	6.2	0.00e+00	0	49	104	18161336320	72	19896
2026-01-20 09:19:24.34	154.24	73.69	-51.1	-53.2	6.2	0.00e+00	0	49	104	18161336320	72	19868
2026-01-20 09:19:25.34	156.24	73.13	-51.1	-53.2	6.2	0.00e+00	0	49	104	18161336320	72	19882
2026-01-20 09:19:26.35	158.13	72.55	-51.1	-53.2	6.2	0.00e+00	0	49	104	18161336320	72	19844
2026-01-20 09:19:27.35	159.86	71.96	-51.1	-53.2	6.2	0.00e+00	0	49	104	18161336320	72	19881
2026-01-20 09:19:28.36	161.50	71.36	-51.1	-53.2	6.2	0.00e+00	0	49	104	18161336320	72	19912
2026-01-20 09:19:29.37	163.03	70.74	-51.1	-53.2	6.2	0.00e+00	0	49	104	18161336320	72	19837
2026-01-20 09:19:30.38	164.46	70.12	-51.1	-53.2	6.2	0.00e+00	0	49	104	18161336320	72	19861
2026-01-20 09:19:31.39	165.79	69.49	-51.1	-53.2	6.2	0.00e+00	0	49	104	18161336320	72	19906
2026-01-20 09:19:32.39	167.03	68.86	-51.1	-53.2	6.2	0.00e+00	0	49	104	18161336320	72	19870
2026-01-20 09:19:33.40	168.20	68.22	-51.1	-53.2	6.2	0.00e+00	0	49	104	18161336320	72	19826
2026-01-20 09:19:34.41	169.30	67.58	-51.1	-53.2	6.2	0.00e+00	0	49	104	18161336320	72	19873
2026-01-20 09:19:35.42	170.33	66.94	-51.1	-53.2	6.2	0.00e+00	0	49	104	18161336320	72	19884
2026-01-20 09:19:36.43	171.30	66.29	-51.1	-53.2	6.2	0.00e+00	0	49	104	18161336320	72	19884
2026-01-20 09:19:37.43	172.20	65.66	-51.1	-53.2	6.2	0.00e+00	0	49	104	18161336320	72	19873
2026-01-20 09:19:38.44	173.06	65.01	-51.1	-53.2	6.2	0.00e+00	0	49	104	18161336320	72	19814
2026-01-20 09:19:39.45	173.88	64.37	-51.1	-53.2	6.2	0.00e+00	0	49	104	18161336320	72	19894
2026-01-20 09:19:40.46	174.65	63.73	-51.1	-53.2	6.2	0.00e+00	0	49	104	18161336320	72	19840
2026-01-20 09:19:41.47	175.38	63.09	-51.1	-53.2	6.2	0.00e+00	0	49	104	18161336320	72	19784
2026-01-20 09:19:42.47	176.06	62.46	-51.1	-53.2	6.2	0.00e+00	0	49	104	18161336320	72	19784
2026-01-20 09:19:43.48	176.72	61.83	-51.1	-53.2	6.2	0.00e+00	0	49	104	18161336320	72	19853
2026-01-20 09:19:44.48	177.33	61.21	-51.1	-53.2	6.2	0.00e+00	0	49	104	18161336320	72	19825
2026-01-20 09:19:45.49	177.92	60.58	-51.1	-53.2	6.2	0.00e+00	0	49	104	18161336320	72	19796
2026-01-20 09:19:46.50	178.49	59.96	-51.1	-53.2	6.2	0.00e+00	0	49	104	18161336320	72	19785
2026-01-20 09:19:47.51	179.03	59.34	-51.1	-53.2	6.2	0.00e+00	0	49	104	18161336320	72	19852
2026-01-20 09:19:48.52	179.54	58.73	-51.1	-53.2	6.2	0.00e+00	0	49	104	18161336320	72	19817
2026-01-20 09:19:49.52	180.02	58.13	-51.0	-53.2	6.2	0.00e+00	0	49	104	18161336320	72	19752
2026-01-20 09:19:50.53	180.49	57.52	-51.0	-53.2	6.2	0.00e+00	0	49	104	18161336320	72	19826
2026-01-20 09:19:51.54	180.94	56.93	-51.1	-53.2	6.2	0.00e+00	0	49	104	18161336320	72	19831
2026-01-20 09:19:52.55	181.36	56.33	-51.1	-53.2	6.2	0.00e+00	0	49	104	18161336320	72	19783
2026-01-20 09:19:53.56	181.77	55.75	-51.0	-53.2	6.2	0.00e+00	0	49	104	18161336320	72	19760
2026-01-20 09:19:54.56	182.16	55.17	-51.0	-53.2	6.2	0.00e+00	0	49	104	18161336320	72	19766
2026-01-20 09:19:55.57	182.54	54.59	-51.0	-53.1	6.2	0.00e+00	0	49	104	18161336320	72	19700
2026-01-20 09:19:56.58	182.90	54.02	-51.0	-53.2	6.2	0.00e+00	0	49	104	18161336320	72	19834
2026-01-20 09:19:57.59	183.25	53.46	-51.0	-53.1	6.2	0.00e+00	0	49	104	18161336320	72	19669
2026-01-20 09:19:58.59	183.59	52.91	-51.0	-53.2	6.2	0.00e+00	0	49	104	18161336320	72	19737
2026-01-20 09:19:59.60	183.91	52.35	-51.0	-53.2	6.2	0.00e+00	0	49	104	18161336320	72	19713
2026-01-20 09:20:00.61	184.22	51.81	-51.0	-53.2	6.2	0.00e+00	0	49	104	18161336320	72	19780
2026-01-20 09:20:01.62	184.52	51.27	-51.0	-53.2	6.2	0.00e+00	0	49	104	18161336320	72	19711
2026-01-20 09:20:02.63	184.81	50.73	-51.0	-53.2	6.2	0.00e+00	0	49	104	18161336320	72	19750
2026-01-20 09:20:03.64	185.09	50.20	-51.0	-53.1	6.2	0.00e+00	0	49	104	18161336320	72	19654
2026-01-20 09:20:04.64	185.35	49.68	-51.0	-53.2	6.2	0.00e+00	0	49	104	18161336320	72	19761
2026-01-20 09:20:05.65	185.61	49.17	-51.0	-53.1	6.2	0.00e+00	0	49	104	18161336320	72	19664
2026-01-20 09:20:06.65	185.86	48.66	-51.0	-53.1	6.2	0.00e+00	0	49	104	18161336320	72	19679
2026-01-20 09:20:07.66	186.11	48.16	-51.0	-53.1	6.2	0.00e+00	0	49	104	18161336320	72	19690
2026-01-20 09:20:08.67	186.34	47.66	-51.0	-53.2	6.2	0.00e+00	0	49	104	18161336320	72	19813
2026-01-20 09:20:09.68	186.57	47.16	-51.0	-53.1	6.2	0.00e+00	0	49	104	18161336320	72	19668
2026-01-20 09:20:10.68	186.79	46.68	-51.0	-53.1	6.2	0.00e+00	0	49	104	18161336320	72	19649
2026-01-20 09:20:11.69	187.00	46.20	-51.0	-53.1	6.2	0.00e+00	0	49	104	18161336320	72	19676
2026-01-20 09:20:12.70	187.21	45.72	-51.0	-53.1	6.2	0.00e+00	0	49	104	18161336320	72	19695
2026-01-20 09:20:13.71	187.41	45.25	-51.0	-53.1	6.2	0.00e+00	0	49	104	18161336320	72	19665
2026-01-20 09:20:14.71	187.61	44.79	-51.0	-53.1	6.2	0.00e+00	0	49	104	18161336320	72	19663
2026-01-20 09:20:15.72	187.80	44.33	-51.0	-53.1	6.2	0.00e+00	0	49	104	18161336320	72	19635
2026-01-20 09:20:16.73	187.98	43.88	-51.0	-53.1	6.2	0.00e+00	0	49	104	18161336320	72	19607
2026-01-20 09:20:17.74	188.16	43.43	-51.0	-53.1	6.2	0.00e+00	0	49	104	18161336320	72	19560
2026-01-20 09:20:18.75	188.34	42.99	-51.0	-53.1	6.2	0.00e+00	0	49	104	18161336320	72	19603
2026-01-20 09:20:19.75	188.50	42.56	-51.0	-53.1	6.2	0.00e+00	0	49	104	18161336320	72	19627
2026-01-20 09:20:20.76	188.67	42.13	-51.0	-53.1	6.2	0.00e+00	0	49	104	18161336320	72	19576
2026-01-20 09:20:21.77	188.83	41.70	-51.0	-53.1	6.2	0.00e+00	0	49	104	18161336320	72	19532
2026-01-20 09:20:22.78	188.99	41.28	-51.0	-53.1	6.2	0.00e+00	0	49	104	18161336320	72	19542
2026-01-20 09:20:23.78	189.14	40.87	-51.0	-53.1	6.2	0.00e+00	0	49	104	18161336320	72	19575
2026-01-20 09:20:24.79	189.29	40.46	-51.0	-53.1	6.2	0.00e+00	0	49	104	18161336320	72	19604
2026-01-20 09:20:25.80	189.43	40.06	-50.9	-53.1	6.2	0.00e+00	0	49	104	18161336320	72	19509
2026-01-20 09:20:26.81	189.57	39.66	-51.0	-53.1	6.2	0.00e+00	0	49	104	18161336320	72	19532
2026-01-20 09:20:27.81	189.71	39.26	-50.9	-53.1	6.2	0.00e+00	0	49	104	18161336320	72	19570
2026-01-20 09:20:28.82	189.84	38.87	-50.9	-53.1	6.2	0.00e+00	0	49	104	18161336320	72	19528
2026-01-20 09:20:29.83	189.97	38.49	-50.9	-53.0	6.2	0.00e+00	0	49	104	18161336320	72	19476
2026-01-20 09:20:30.84	190.10	38.11	-50.9	-53.1	6.2	0.00e+00	0	49	104	18161336320	72	19531
2026-01-20 09:20:31.85	190.23	37.73	-50.9	-53.0	6.2	0.00e+00	0	49	104	18161336320	72	19464
2026-01-20 09:20:32.85	190.35	37.36	-50.9	-53.1	6.2	0.00e+00	0	49	104	18161336320	72	19512
2026-01-20 09:20:33.86	190.47	37.00	-50.9	-53.0	6.2	0.00e+00	0	49	104	18161336320	72	19440
2026-01-20 09:20:34.87	190.59	36.64	-50.9	-53.1	6.2	0.00e+00	0	49	104	18161336320	72	19514
2026-01-20 09:20:35.88	190.70	36.28	-50.9	-53.0	6.2	0.00e+00	0	49	104	18161336320	72	19473
2026-01-20 09:20:36.89	190.81	35.92	-50.9	-53.0	6.2	0.00e+00	0	49	104	18161336320	72	19463
2026-01-20 09:20:37.90	190.92	35.57	-50.9	-53.0	6.2	0.00e+00	0	49	104	18161336320	72	19452
2026-01-20 09:20:38.91	191.03	35.23	-50.9	-53.0	6.2	0.00e+00	0	49	104	18161336320	72	19446
2026-01-20 09:20:39.91	191.13	34.89	-50.9	-53.0	6.2	0.00e+00	0	49	104	18161336320	72	19378
2026-01-20 09:20:40.92	191.23	34.56	-50.9	-53.0	6.2	0.00e+00	0	49	104	18161336320	72	19457
2026-01-20 09:20:41.93	191.33	34.22	-50.9	-53.0	6.2	0.00e+00	0	49	104	18161336320	72	19394
2026-01-20 09:20:42.94	191.43	33.89	-50.9	-53.0	6.2	0.00e+00	0	49	104	18161336320	72	19384
2026-01-20 09:20:43.95	191.53	33.57	-50.9	-53.0	6.2	0.00e+00	0	49	104	18161336320	72	19354
2026-01-20 09:20:44.95	191.62	33.25	-50.9	-53.0	6.2	0.00e+00	0	49	104	18161336320	72	19404
2026-01-20 09:20:45.96	191.72	32.94	-50.9	-53.0	6.2	0.00e+00	0	49	104	18161336320	72	19402
2026-01-20 09:20:46.97	191.81	32.62	-50.9	-53.0	6.2	0.00e+00	0	49	104	18161336320	72	19377
2026-01-20 09:20:47.98	191.90	32.31	-50.9	-53.0	6.2	0.00e+00	0	49	104	18161336320	72	19292
2026-01-20 09:20:48.99	191.98	32.01	-50.9	-53.0	6.2	0.00e+00	0	49	104	18161336320	72	19323
2026-01-20 09:20:50.00	192.07	31.70	-50.8	-53.0	6.2	0.00e+00	0	49	104	18161336320	72	19352
2026-01-20 09:20:51.01	192.15	31.41	-50.8	-53.0	6.2	0.00e+00	0	49	104	18161336320	72	19298
2026-01-20 09:20:52.01	192.23	31.11	-50.8	-53.0	6.2	0.00e+00	0	49	104	18161336320	72	19320
2026-01-20 09:20:53.02	192.32	30.82	-50.8	-53.0	6.2	0.00e+00	0	49	104	18161336320	72	19309
2026-01-20 09:20:54.03	192.40	30.53	-50.8	-53.0	6.2	0.00e+00	0	49	104	18161336320	72	19257
2026-01-20 09:20:55.04	192.47	30.25	-50.8	-52.9	6.2	0.00e+00	0	49	104	18161336320	72	19245
2026-01-20 09:20:56.05	192.55	29.96	-50.8	-52.9	6.2	0.00e+00	0	49	104	18161336320	72	19219
2026-01-20 09:20:57.05	192.62	29.69	-50.8	-52.9	6.2	0.00e+00	0	49	104	18161336320	72	19199
2026-01-20 09:20:58.06	192.70	29.41	-50.8	-52.9	6.2	0.00e+00	0	49	104	18161336320	72	19218
2026-01-20 09:20:59.07	192.77	29.14	-50.8	-52.9	6.2	0.00e+00	0	49	104	18161336320	72	19247
2026-01-20 09:21:00.07	192.84	28.87	-50.8	-52.9	6.2	0.00e+00	0	49	104	18161336320	72	19222
2026-01-20 09:21:01.08	192.91	28.61	-50.8	-52.9	6.2	0.00e+00	0	49	104	18161336320	72	19216
2026-01-20 09:21:02.09	192.98	28.34	-50.8	-52.9	6.2	0.00e+00	0	49	104	18161336320	72	19211
2026-01-20 09:21:03.10	193.05	28.08	-50.8	-53.0	6.2	0.00e+00	0	49	104	18161336320	72	19264
2026-01-20 09:21:04.11	193.12	27.82	-50.8	-52.9	6.2	0.00e+00	0	49	104	18161336320	72	19192
2026-01-20 09:21:05.11	193.18	27.57	-50.8	-52.9	6.2	0.00e+00	0	49	104	18161336320	72	19148
2026-01-20 09:21:06.12	193.25	27.32	-50.8	-52.9	6.2	0.00e+00	0	49	104	18161336320	72	19168
2026-01-20 09:21:07.13	193.31	27.07	-50.8	-52.9	6.2	0.00e+00	0	49	104	18161336320	72	19154
2026-01-20 09:21:08.13	193.37	26.82	-50.8	-52.9	6.2	0.00e+00	0	49	104	18161336320	72	19133
2026-01-20 09:21:09.14	193.43	26.58	-50.8	-52.9	6.2	0.00e+00	0	49	104	18161336320	72	19193
2026-01-20 09:21:10.15	193.50	26.34	-50.8	-52.9	6.2	0.00e+00	0	49	104	18161336320	72	19051
2026-01-20 09:21:11.16	193.55	26.10	-50.8	-52.9	6.2	0.00e+00	0	49	104	18161336320	72	19167
2026-01-20 09:21:12.17	193.61	25.86	-50.8	-52.9	6.2	0.00e+00	0	49	104	18161336320	72	19109
2026-01-20 09:21:13.17	193.67	25.63	-50.8	-52.9	6.2	0.00e+00	0	49	104	18161336320	72	19093
2026-01-20 09:21:14.18	193.73	25.40	-50.8	-52.9	6.2	0.00e+00	0	49	104	18161336320	72	19098
2026-01-20 09:21:15.19	193.78	25.17	-50.7	-52.9	6.2	0.00e+00	0	49	104	18161336320	72	19108
2026-01-20 09:21:16.20	193.84	24.94	-50.7	-52.9	6.2	0.00e+00	0	49	104	18161336320	72	19073
2026-01-20 09:21:17.21	193.89	24.72	-50.7	-52.9	6.2	0.00e+00	0	49	104	18161336320	72	19050
2026-01-20 09:21:18.21	193.95	24.50	-50.7	-52.9	6.2	0.00e+00	0	49	104	18161336320	72	19103
2026-01-20 09:21:19.22	194.00	24.28	-50.7	-52.8	6.2	0.00e+00	0	49	104	18161336320	72	19016
2026-01-20 09:21:20.23	194.05	24.06	-50.7	-52.9	6.2	0.00e+00	0	49	104	18161336320	72	19054
2026-01-20 09:21:21.24	194.11	23.84	-50.7	-52.9	6.2	0.00e+00	0	49	104	18161336320	72	19047
2026-01-20 09:21:22.24	194.16	23.63	-50.7	-52.9	6.2	0.00e+00	0	49	104	18161336320	72	19059
2026-01-20 09:21:23.25	194.21	23.42	-50.7	-52.8	6.2	0.00e+00	0	49	104	18161336320	72	19035
2026-01-20 09:21:24.25	194.26	23.21	-50.7	-52.8	6.2	0.00e+00	0	49	104	18161336320	72	19030
2026-01-20 09:21:25.26	194.30	23.01	-50.7	-52.8	6.2	0.00e+00	0	49	104	18161336320	72	18968
2026-01-20 09:21:26.27	194.35	22.80	-50.7	-52.8	6.2	0.00e+00	0	49	104	18161336320	72	19027
2026-01-20 09:21:27.27	194.40	22.60	-50.7	-52.8	6.2	0.00e+00	0	49	104	18161336320	72	19026
2026-01-20 09:21:28.28	194.45	22.40	-50.7	-52.8	6.2	0.00e+00	0	49	104	18161336320	72	18985
2026-01-20 09:21:29.29	194.49	22.20	-50.7	-52.8	6.2	0.00e+00	0	49	104	18161336320	72	18987
2026-01-20 09:21:30.30	194.54	22.00	-50.7	-52.8	6.2	0.00e+00	0	49	104	18161336320	72	19000
2026-01-20 09:21:31.31	194.58	21.80	-50.7	-52.8	6.2	0.00e+00	0	49	104	18161336320	72	19005
2026-01-20 09:21:32.31	194.63	21.61	-50.7	-52.8	6.2	0.00e+00	0	49	104	18161336320	72	19001
2026-01-20 09:21:33.32	194.67	21.42	-50.7	-52.8	6.2	0.00e+00	0	49	104	18161336320	72	18965
2026-01-20 09:21:34.33	194.71	21.23	-50.7	-52.8	6.2	0.00e+00	0	49	104	18161336320	72	18975
2026-01-20 09:21:35.34	194.76	21.04	-50.7	-52.8	6.2	0.00e+00	0	49	104	18161336320	72	18919
2026-01-20 09:21:36.35	194.80	20.85	-50.7	-52.8	6.2	0.00e+00	0	49	104	18161336320	72	18944
2026-01-20 09:21:37.35	194.84	20.67	-50.7	-52.8	6.2	0.00e+00	0	49	104	18161336320	72	18939
2026-01-20 09:21:38.36	194.88	20.49	-50.7	-52.8	6.2	0.00e+00	0	49	104	18161336320	72	18904
2026-01-20 09:21:39.37	194.92	20.31	-50.7	-52.8	6.2	0.00e+00	0	49	104	18161336320	72	18870
2026-01-20 09:21:40.38	194.96	20.13	-50.7	-52.8	6.2	0.00e+00	0	49	104	18161336320	72	18953
2026-01-20 09:21:41.39	195.00	19.95	-50.7	-52.8	6.2	0.00e+00	0	49	104	18161336320	72	18888
2026-01-20 09:21:42.39	195.04	19.77	-50.7	-52.8	6.2	0.00e+00	0	49	104	18161336320	72	18959
2026-01-20 09:21:43.40	195.08	19.60	-50.6	-52.8	6.2	0.00e+00	0	49	104	18161336320	72	18858
2026-01-20 09:21:44.41	195.12	19.42	-50.7	-52.8	6.2	0.00e+00	0	49	104	18161336320	72	18876
2026-01-20 09:21:45.42	195.16	19.25	-50.6	-52.8	6.2	0.00e+00	0	49	104	18161336320	72	18907
2026-01-20 09:21:46.42	195.20	19.08	-50.6	-52.8	6.2	0.00e+00	0	49	104	18161336320	72	18908
2026-01-20 09:21:47.43	195.23	18.91	-50.6	-52.8	6.2	0.00e+00	0	49	104	18161336320	72	18824
2026-01-20 09:21:48.44	195.27	18.74	-50.6	-52.8	6.2	0.00e+00	0	49	104	18161336320	72	18863
2026-01-20 09:21:49.45	195.31	18.58	-50.6	-52.8	6.2	0.00e+00	0	49	104	18161336320	72	18831
2026-01-20 09:21:50.45	195.34	18.41	-50.6	-52.8	6.2	0.00e+00	0	49	104	18161336320	72	18878
2026-01-20 09:21:51.46	195.38	18.25	-50.6	-52.8	6.2	0.00e+00	0	49	104	18161336320	72	18826
2026-01-20 09:21:52.47	195.41	18.09	-50.6	-52.8	6.2	0.00e+00	0	49	104	18161336320	72	18868
2026-01-20 09:21:53.48	195.45	17.92	-50.6	-52.7	6.2	0.00e+00	0	49	104	18161336320	72	18813
2026-01-20 09:21:54.49	195.48	17.76	-50.6	-52.7	6.2	0.00e+00	0	49	104	18161336320	72	18809
2026-01-20 09:21:55.49	195.51	17.61	-50.6	-52.8	6.2	0.00e+00	0	49	104	18161336320	72	18824
2026-01-20 09:21:56.50	195.55	17.45	-50.6	-52.8	6.2	0.00e+00	0	49	104	18161336320	72	18845
2026-01-20 09:21:57.51	195.58	17.29	-50.6	-52.8	6.2	0.00e+00	0	49	104	18161336320	72	18832
2026-01-20 09:21:58.52	195.61	17.14	-50.6	-52.7	6.2	0.00e+00	0	49	104	18161336320	72	18784
2026-01-20 09:21:59.53	195.65	16.99	-50.6	-52.7	6.2	0.00e+00	0	49	104	18161336320	72	18793
2026-01-20 09:22:00.53	195.68	16.83	-50.6	-52.7	6.2	0.00e+00	0	49	104	18161336320	72	18807
2026-01-20 09:22:01.54	195.71	16.68	-50.6	-52.7	6.2	0.00e+00	0	49	104	18161336320	72	18763
2026-01-20 09:22:02.55	195.74	16.53	-50.6	-52.7	6.2	0.00e+00	0	49	104	18161336320	72	18774
2026-01-20 09:22:03.56	195.77	16.38	-50.6	-52.7	6.2	0.00e+00	0	49	104	18161336320	72	18739
2026-01-20 09:22:04.57	195.80	16.24	-50.6	-52.7	6.2	0.00e+00	0	49	104	18161336320	72	18755
2026-01-20 09:22:05.58	195.83	16.09	-50.6	-52.7	6.2	0.00e+00	0	49	104	18161336320	72	18802
2026-01-20 09:22:06.58	195.87	15.95	-50.6	-52.7	6.2	0.00e+00	0	49	104	18161336320	72	18745
2026-01-20 09:22:07.59	195.90	15.80	-50.6	-52.7	6.2	0.00e+00	0	49	104	18161336320	72	18755
2026-01-20 09:22:08.60	195.92	15.66	-50.6	-52.7	6.2	0.00e+00	0	49	104	18161336320	72	18729
2026-01-20 09:22:09.61	195.95	15.52	-50.6	-52.7	6.2	0.00e+00	0	49	104	18161336320	72	18799
2026-01-20 09:22:10.61	195.98	15.38	-50.6	-52.7	6.2	0.00e+00	0	49	104	18161336320	72	18757
2026-01-20 09:22:11.62	196.01	15.24	-50.6	-52.7	6.2	0.00e+00	0	49	104	18161336320	72	18714
2026-01-20 09:22:12.63	196.04	15.10	-50.6	-52.7	6.2	0.00e+00	0	49	104	18161336320	72	18735
2026-01-20 09:22:13.64	196.07	14.96	-50.6	-52.7	6.2	0.00e+00	0	49	104	18161336320	72	18758
2026-01-20 09:22:14.65	196.10	14.82	-50.6	-52.7	6.2	0.00e+00	0	49	104	18161336320	72	18759
2026-01-20 09:22:15.65	196.12	14.69	-50.6	-52.7	6.2	0.00e+00	0	49	104	18161336320	72	18706
2026-01-20 09:22:16.66	196.15	14.55	-50.6	-52.7	6.2	0.00e+00	0	49	104	18161336320	72	18721
2026-01-20 09:22:17.67	196.18	14.42	-50.6	-52.7	6.2	0.00e+00	0	49	104	18161336320	72	18692
2026-01-20 09:22:18.68	196.21	14.28	-50.6	-52.7	6.2	0.00e+00	0	49	104	18161336320	72	18672
2026-01-20 09:22:19.69	196.23	14.15	-50.6	-52.7	6.2	0.00e+00	0	49	104	18161336320	72	18677
2026-01-20 09:22:20.69	196.26	14.02	-50.6	-52.7	6.2	0.00e+00	0	49	104	18161336320	72	18678
2026-01-20 09:22:21.70	196.29	13.89	-50.6	-52.7	6.2	0.00e+00	0	49	104	18161336320	72	18732
2026-01-20 09:22:22.71	196.31	13.76	-50.6	-52.7	6.2	0.00e+00	0	49	104	18161336320	72	18684
2026-01-20 09:22:23.71	196.34	13.63	-50.5	-52.7	6.2	0.00e+00	0	49	104	18161336320	72	18638
2026-01-20 09:22:24.72	196.36	13.51	-50.5	-52.7	6.2	0.00e+00	0	49	104	18161336320	72	18660
2026-01-20 09:22:25.73	196.39	13.38	-50.5	-52.7	6.2	0.00e+00	0	49	104	18161336320	72	18651
2026-01-20 09:22:26.73	196.41	13.26	-50.5	-52.7	6.2	0.00e+00	0	49	104	18161336320	72	18614
2026-01-20 09:22:27.74	196.44	13.13	-50.5	-52.7	6.2	0.00e+00	0	49	104	18161336320	72	18646
2026-01-20 09:22:28.75	196.46	13.01	-50.5	-52.7	6.2	0.00e+00	0	49	104	18161336320	72	18616
2026-01-20 09:22:29.76	196.49	12.88	-50.5	-52.7	6.2	0.00e+00	0	49	104	18161336320	72	18627
2026-01-20 09:22:30.77	196.51	12.76	-50.5	-52.7	6.2	0.00e+00	0	49	104	18161336320	72	18626
2026-01-20 09:22:31.78	196.54	12.64	-50.5	-52.6	6.2	0.00e+00	0	49	104	18161336320	72	18594
2026-01-20 09:22:32.78	196.56	12.52	-50.5	-52.6	6.2	0.00e+00	0	49	104	18161336320	72	18594
2026-01-20 09:22:33.79	196.58	12.40	-50.5	-52.6	6.2	0.00e+00	0	49	104	18161336320	72	18593
2026-01-20 09:22:34.80	196.61	12.28	-50.5	-52.6	6.2	0.00e+00	0	49	104	18161336320	72	18599
2026-01-20 09:22:35.81	196.63	12.16	-50.5	-52.6	6.2	0.00e+00	0	49	104	18161336320	72	18542
2026-01-20 09:22:36.81	196.65	12.04	-50.5	-52.6	6.2	0.00e+00	0	49	104	18161336320	72	18584
2026-01-20 09:22:37.82	196.68	11.92	-50.5	-52.7	6.2	0.00e+00	0	49	104	18161336320	72	18605
2026-01-20 09:22:38.83	196.70	11.81	-50.5	-52.6	6.2	0.00e+00	0	49	104	18161336320	72	18536
2026-01-20 09:22:39.84	196.72	11.69	-50.5	-52.6	6.2	0.00e+00	0	49	104	18161336320	72	18496
2026-01-20 09:22:40.85	196.75	11.58	-50.5	-52.6	6.2	0.00e+00	0	49	104	18161336320	72	18500
2026-01-20 09:22:41.85	196.77	11.46	-50.5	-52.6	6.2	0.00e+00	0	49	104	18161336320	72	18577
2026-01-20 09:22:42.86	196.79	11.35	-50.5	-52.6	6.2	0.00e+00	0	49	104	18161336320	72	18445
2026-01-20 09:22:43.87	196.81	11.24	-50.5	-52.6	6.2	0.00e+00	0	49	104	18161336320	72	18514
2026-01-20 09:22:44.88	196.83	11.12	-50.5	-52.6	6.2	0.00e+00	0	49	104	18161336320	72	18430
2026-01-20 09:22:45.89	196.85	11.01	-50.5	-52.6	6.2	0.00e+00	0	49	104	18161336320	72	18540
2026-01-20 09:22:46.89	196.88	10.90	-50.4	-52.6	6.2	0.00e+00	0	49	104	18161336320	72	18512
2026-01-20 09:22:47.90	196.90	10.79	-50.5	-52.6	6.2	0.00e+00	0	49	104	18161336320	72	18491
2026-01-20 09:22:48.91	196.92	10.68	-50.4	-52.6	6.2	0.00e+00	0	49	104	18161336320	72	18418
2026-01-20 09:22:49.91	196.94	10.57	-50.4	-52.6	6.2	0.00e+00	0	49	104	18161336320	72	18411
2026-01-20 09:22:50.92	196.96	10.46	-50.4	-52.6	6.2	0.00e+00	0	49	104	18161336320	72	18433
2026-01-20 09:22:51.93	196.98	10.36	-50.4	-52.6	6.2	0.00e+00	0	49	104	18161336320	72	18439
2026-01-20 09:22:52.94	197.00	10.25	-50.4	-52.5	6.2	0.00e+00	0	49	104	18161336320	72	18354
2026-01-20 09:22:53.95	197.02	10.14	-50.5	-52.6	6.2	0.00e+00	0	49	104	18161336320	72	18465
2026-01-20 09:22:54.95	197.04	10.04	-50.4	-52.5	6.2	0.00e+00	0	49	104	18161336320	72	18377
2026-01-20 09:22:55.96	197.06	9.93	-50.4	-52.6	6.2	0.00e+00	0	49	104	18161336320	72	18398
2026-01-20 09:22:56.97	197.08	9.83	-50.4	-52.6	6.2	0.00e+00	0	49	104	18161336320	72	18395
2026-01-20 09:22:57.98	197.10	9.72	-50.4	-52.6	6.2	0.00e+00	0	49	104	18161336320	72	18392
2026-01-20 09:22:58.99	197.12	9.62	-50.4	-52.5	6.2	0.00e+00	0	49	104	18161336320	72	18348
2026-01-20 09:22:59.99	197.14	9.52	-50.4	-52.5	6.2	0.00e+00	0	49	104	18161336320	72	18324
2026-01-20 09:23:01.00	197.16	9.41	-50.4	-52.5	6.2	0.00e+00	0	49	104	18161336320	72	18356
2026-01-20 09:23:02.01	197.18	9.31	-50.4	-52.5	6.2	0.00e+00	0	49	104	18161336320	72	18349
2026-01-20 09:23:03.01	197.20	9.21	-50.4	-52.5	6.2	0.00e+00	0	49	104	18161336320	72	18305
2026-01-20 09:23:04.02	197.22	9.11	-50.4	-52.5	6.2	0.00e+00	0	49	104	18161336320	72	18355
2026-01-20 09:23:05.03	197.24	9.01	-50.4	-52.5	6.2	0.00e+00	0	49	104	18161336320	72	18217
2026-01-20 09:23:06.04	197.25	8.91	-50.4	-52.5	6.2	0.00e+00	0	49	104	18161336320	72	18273
2026-01-20 09:23:07.05	197.27	8.81	-50.4	-52.5	6.2	0.00e+00	0	49	104	18161336320	72	18245
2026-01-20 09:23:08.05	197.29	8.71	-50.4	-52.5	6.2	0.00e+00	0	49	104	18161336320	72	18270
2026-01-20 09:23:09.06	197.31	8.61	-50.3	-52.5	6.2	0.00e+00	0	49	104	18161336320	72	18259
2026-01-20 09:23:10.07	197.33	8.52	-50.4	-52.5	6.2	0.00e+00	0	49	104	18161336320	72	18279
2026-01-20 09:23:11.08	197.35	8.42	-50.3	-52.5	6.2	0.00e+00	0	49	104	18161336320	72	18210
2026-01-20 09:23:12.09	197.36	8.32	-50.3	-52.5	6.2	0.00e+00	0	49	104	18161336320	72	18242
2026-01-20 09:23:13.10	197.38	8.23	-50.3	-52.5	6.2	0.00e+00	0	49	104	18161336320	72	18180
2026-01-20 09:23:14.11	197.40	8.13	-50.3	-52.5	6.2	0.00e+00	0	49	104	18161336320	72	18269
2026-01-20 09:23:15.11	197.42	8.03	-50.3	-52.4	6.2	0.00e+00	0	49	104	18161336320	72	18170
2026-01-20 09:23:16.12	197.43	7.94	-50.3	-52.5	6.2	0.00e+00	0	49	104	18161336320	72	18196
2026-01-20 09:23:17.13	197.45	7.85	-50.3	-52.4	6.2	0.00e+00	0	49	104	18161336320	72	18121
2026-01-20 09:23:18.14	197.47	7.75	-50.3	-52.5	6.2	0.00e+00	0	49	104	18161336320	72	18223
2026-01-20 09:23:19.14	197.49	7.66	-50.3	-52.4	6.2	0.00e+00	0	49	104	18161336320	72	18144
2026-01-20 09:23:20.15	197.50	7.57	-50.3	-52.4	6.2	0.00e+00	0	49	104	18161336320	72	18106
2026-01-20 09:23:21.16	197.52	7.47	-50.3	-52.4	6.2	0.00e+00	0	49	104	18161336320	72	18124
2026-01-20 09:23:22.17	197.54	7.38	-50.3	-52.4	6.2	0.00e+00	0	49	104	18161336320	72	18138
2026-01-20 09:23:23.18	197.55	7.29	-50.3	-52.4	6.2	0.00e+00	0	49	104	18161336320	72	18132
2026-01-20 09:23:24.19	197.57	7.20	-50.3	-52.4	6.2	0.00e+00	0	49	104	18161336320	72	18143
2026-01-20 09:23:25.19	197.59	7.11	-50.3	-52.4	6.2	0.00e+00	0	49	104	18161336320	72	18044
2026-01-20 09:23:26.20	197.60	7.02	-50.3	-52.4	6.2	0.00e+00	0	49	104	18161336320	72	18119
2026-01-20 09:23:27.21	197.62	6.93	-50.3	-52.4	6.2	0.00e+00	0	49	104	18161336320	72	18036
2026-01-20 09:23:28.22	197.64	6.84	-50.3	-52.4	6.2	0.00e+00	0	49	104	18161336320	72	18035
2026-01-20 09:23:29.22	197.65	6.75	-50.2	-52.4	6.2	0.00e+00	0	49	104	18161336320	72	18031
2026-01-20 09:23:30.23	197.67	6.66	-50.3	-52.4	6.2	0.00e+00	0	49	104	18161336320	72	18095
2026-01-20 09:23:31.24	197.68	6.57	-50.2	-52.4	6.2	0.00e+00	0	49	104	18161336320	72	18014
2026-01-20 09:23:32.25	197.70	6.48	-50.2	-52.4	6.2	0.00e+00	0	49	104	18161336320	72	18039
2026-01-20 09:23:33.25	197.72	6.40	-50.2	-52.4	6.2	0.00e+00	0	49	104	18161336320	72	17989
2026-01-20 09:23:34.26	197.73	6.31	-50.3	-52.4	6.2	0.00e+00	0	49	104	18161336320	72	18002
2026-01-20 09:23:35.27	197.75	6.22	-50.2	-52.3	6.2	0.00e+00	0	49	104	18161336320	72	17891
2026-01-20 09:23:36.28	197.76	6.14	-50.2	-52.4	6.2	0.00e+00	0	49	104	18161336320	72	17980
2026-01-20 09:23:37.29	197.78	6.05	-50.2	-52.3	6.2	0.00e+00	0	49	104	18161336320	72	17921
2026-01-20 09:23:38.29	197.79	5.97	-50.2	-52.4	6.2	0.00e+00	0	49	104	18161336320	72	17977
2026-01-20 09:23:39.30	197.81	5.88	-50.2	-52.3	6.2	0.00e+00	0	49	104	18161336320	72	17866
2026-01-20 09:23:40.31	197.82	5.79	-50.2	-52.3	6.2	0.00e+00	0	49	104	18161336320	72	17903
2026-01-20 09:23:41.32	197.84	5.71	-50.2	-52.3	6.2	0.00e+00	0	49	104	18161336320	72	17894
2026-01-20 09:23:42.33	197.85	5.63	-50.2	-52.3	6.2	0.00e+00	0	49	104	18161336320	72	17963
2026-01-20 09:23:43.33	197.87	5.54	-50.2	-52.3	6.2	0.00e+00	0	49	104	18161336320	72	17885
2026-01-20 09:23:44.34	197.88	5.46	-50.1	-52.3	6.2	0.00e+00	0	49	104	18161336320	72	17799
2026-01-20 09:23:45.35	197.90	5.38	-50.1	-52.3	6.2	0.00e+00	0	49	104	18161336320	72	17791
2026-01-20 09:23:46.36	197.91	5.29	-50.2	-52.3	6.2	0.00e+00	0	49	104	18161336320	72	17841
2026-01-20 09:23:47.37	197.93	5.21	-50.1	-52.3	6.2	0.00e+00	0	49	104	18161336320	72	17803
2026-01-20 09:23:48.37	197.94	5.13	-50.1	-52.2	6.2	0.00e+00	0	49	104	18161336320	72	17740
2026-01-20 09:23:49.38	197.96	5.05	-50.1	-52.2	6.2	0.00e+00	0	49	104	18161336320	72	17637
2026-01-20 09:23:50.39	197.97	4.97	-50.3	-52.4	6.2	0.00e+00	0	49	104	18161336320	72	18062
2026-01-20 09:23:51.39	197.99	4.89	-50.5	-52.6	6.2	0.00e+00	0	49	104	18161336320	72	18455
2026-01-20 09:23:52.40	198.00	4.80	-50.6	-52.7	6.2	0.00e+00	0	49	104	18161336320	72	18653
2026-01-20 09:23:53.41	198.01	4.72	-50.7	-52.8	6.2	0.00e+00	0	49	104	18161336320	72	18873
2026-01-20 09:23:54.42	198.03	4.64	-50.7	-52.8	6.2	0.00e+00	0	49	104	18161336320	72	18928
2026-01-20 09:23:55.43	198.04	4.56	-50.7	-52.9	6.2	0.00e+00	0	49	104	18161336320	72	19073
2026-01-20 09:23:56.44	198.06	4.48	-50.8	-52.9	6.2	0.00e+00	0	49	104	18161336320	72	19139
2026-01-20 09:23:57.44	198.07	4.41	-50.8	-52.9	6.2	0.00e+00	0	49	104	18161336320	72	19202
2026-01-20 09:23:58.45	198.08	4.33	-50.8	-53.0	6.2	0.00e+00	0	49	104	18161336320	72	19269
2026-01-20 09:23:59.45	198.10	4.25	-50.8	-53.0	6.2	0.00e+00	0	49	104	18161336320	72	19327
2026-01-20 09:24:00.46	198.11	4.17	-50.9	-53.0	6.2	0.00e+00	0	49	104	18161336320	72	19357
2026-01-20 09:24:01.47	198.12	4.09	-50.9	-53.0	6.2	0.00e+00	0	49	104	18161336320	72	19462
2026-01-20 09:24:02.48	198.14	4.02	-50.9	-53.0	6.2	0.00e+00	0	49	104	18161336320	72	19359
2026-01-20 09:24:03.49	198.15	3.94	-50.9	-53.0	6.2	0.00e+00	0	49	104	18161336320	72	19362
2026-01-20 09:24:04.50	198.16	3.86	-50.9	-53.0	6.2	0.00e+00	0	49	104	18161336320	72	19320
2026-01-20 09:24:05.50	198.18	3.78	-50.8	-53.0	6.2	0.00e+00	0	49	104	18161336320	72	19335
2026-01-20 09:24:06.51	198.19	3.71	-50.8	-53.0	6.2	0.00e+00	0	49	104	18161336320	72	19259
2026-01-20 09:24:07.52	198.20	3.63	-50.9	-53.0	6.2	0.00e+00	0	49	104	18161336320	72	19451
2026-01-20 09:24:08.53	198.22	3.56	-50.9	-53.1	6.2	0.00e+00	0	49	104	18161336320	72	19491
2026-01-20 09:24:09.53	198.23	3.48	-50.9	-53.1	6.2	0.00e+00	0	49	104	18161336320	72	19516
2026-01-20 09:24:10.54	198.24	3.40	-51.0	-53.1	6.2	0.00e+00	0	49	104	18161336320	72	19578
2026-01-20 09:24:11.55	198.26	3.33	-51.0	-53.1	6.2	0.00e+00	0	49	104	18161336320	72	19629
2026-01-20 09:24:12.56	198.27	3.25	-51.0	-53.1	6.2	0.00e+00	0	49	104	18161336320	72	19702
2026-01-20 09:24:13.57	198.28	3.18	-51.0	-53.2	6.2	0.00e+00	0	49	104	18161336320	72	19755
2026-01-20 09:24:14.57	198.29	3.11	-51.0	-53.2	6.2	0.00e+00	0	49	104	18161336320	72	19751
2026-01-20 09:24:15.58	198.31	3.03	-51.1	-53.2	6.2	0.00e+00	0	49	104	18161336320	72	19876
2026-01-20 09:24:16.59	198.32	2.96	-51.1	-53.2	6.2	0.00e+00	0	49	104	18161336320	72	19891
2026-01-20 09:24:17.60	198.33	2.88	-51.1	-53.2	6.2	0.00e+00	0	49	104	18161336320	72	19931
2026-01-20 09:24:18.61	198.35	2.81	-51.1	-53.2	6.2	0.00e+00	0	49	104	18161336320	72	19933
2026-01-20 09:24:19.62	198.36	2.74	-51.1	-53.2	6.2	0.00e+00	0	49	104	18161336320	72	19888
2026-01-20 09:24:20.62	198.37	2.67	-51.1	-53.2	6.2	0.00e+00	0	49	104	18161336320	72	19841
2026-01-20 09:24:21.63	198.38	2.59	-51.1	-53.2	6.2	0.00e+00	0	49	104	18161336320	72	19781
2026-01-20 09:24:22.64	198.39	2.52	-51.1	-53.2	6.2	0.00e+00	0	49	104	18161336320	72	19820
2026-01-20 09:24:23.65	198.41	2.45	-51.1	-53.2	6.2	0.00e+00	0	49	104	18161336320	72	19775
2026-01-20 09:24:24.65	198.42	2.38	-51.1	-53.2	6.2	0.00e+00	0	49	104	18161336320	72	19931
2026-01-20 09:24:25.66	198.43	2.31	-51.1	-53.2	6.2	0.00e+00	0	49	104	18161336320	72	19761
2026-01-20 09:24:26.67	198.44	2.23	-51.0	-53.2	6.2	0.00e+00	0	49	104	18161336320	72	19758
2026-01-20 09:24:27.68	198.46	2.16	-51.0	-53.2	6.2	0.00e+00	0	49	104	18161336320	72	19752
2026-01-20 09:24:28.69	198.47	2.09	-51.0	-53.2	6.2	0.00e+00	0	49	104	18161336320	72	19734
2026-01-20 09:24:29.70	198.48	2.02	-51.0	-53.1	6.2	0.00e+00	0	49	104	18161336320	72	19703

#Closed at: 2026-01-20 09:24:30
#Recorded file [18161 MB]: D:/lorett/data/31041_260120_121349.dat