passes_logs/2026/01/20/R3.2S_Murmansk/R3.2S_Murmansk__20260120_084222_AQUA_rec.log

#Pass ID: 20260120_084222_AQUA
#Satellite: AQUA
#Configuration: AQUA
#almurnet v.1.7.20251203
#Start time: 2026-01-20 08:42:24

#Version: 2.2.20231116
#Station: R3.2S_Murmansk
#Location: 33.079688 lon 68.888172 lat
#TLE: 1 27424U 02022A   26019.95447505  .00001296  00000+0  26931-3 0  9993
#TLE: 2 27424  98.4091 346.4652 0001983  72.1988 359.6274 14.61832814261618

#Time	Az	El	Level	Level2	SNR	BER	BlckErr	Temp	State	Recorded	gain1	gain2
2026-01-20 08:42:24.42	91.40	2.14	-51.9	-69.6	3.8	7.47e-01	0	37	0	0	75	27491
2026-01-20 08:42:25.42	91.34	2.20	-51.9	-69.4	3.8	7.44e-01	0	37	104	0	74	28516
2026-01-20 08:42:26.43	91.27	2.26	-51.8	-69.4	3.8	7.46e-01	0	37	104	0	74	28412
2026-01-20 08:42:27.44	91.20	2.32	-51.9	-69.4	3.8	7.45e-01	0	36	104	0	74	28426
2026-01-20 08:42:28.45	91.14	2.38	-51.9	-69.3	3.8	7.50e-01	0	37	104	0	74	28196
2026-01-20 08:42:29.46	91.07	2.44	-51.8	-69.4	3.8	7.44e-01	0	37	104	0	74	28629
2026-01-20 08:42:30.46	91.00	2.50	-51.8	-69.4	3.8	7.43e-01	0	37	104	0	74	28552
2026-01-20 08:42:31.47	90.93	2.57	-51.8	-69.5	3.8	7.44e-01	0	37	104	0	74	28943
2026-01-20 08:42:32.48	90.86	2.63	-51.9	-69.4	3.8	7.43e-01	0	37	104	0	74	28652
2026-01-20 08:42:33.49	90.79	2.69	-51.8	-69.4	3.8	7.44e-01	0	37	104	0	74	28535
2026-01-20 08:42:34.50	90.72	2.75	-51.8	-69.4	3.8	7.45e-01	0	37	104	0	74	28427
2026-01-20 08:42:35.51	90.65	2.81	-51.8	-69.3	3.8	7.46e-01	0	37	104	0	74	28079
2026-01-20 08:42:36.51	90.58	2.87	-51.8	-69.1	3.8	7.44e-01	0	37	104	0	74	27568
2026-01-20 08:42:37.52	90.51	2.94	-51.8	-68.9	3.8	7.45e-01	0	37	104	0	74	26981
2026-01-20 08:42:38.53	90.44	3.00	-51.8	-68.9	3.8	7.43e-01	0	37	104	0	74	26848
2026-01-20 08:42:39.54	90.37	3.06	-51.8	-68.8	3.8	7.42e-01	0	37	104	0	74	26629
2026-01-20 08:42:40.55	90.30	3.13	-51.8	-68.7	3.8	7.42e-01	0	37	104	0	74	26212
2026-01-20 08:42:41.56	90.23	3.19	-51.8	-68.5	3.8	7.44e-01	0	37	104	0	74	25798
2026-01-20 08:42:42.57	90.16	3.25	-51.8	-69.0	3.8	7.45e-01	0	37	104	0	74	27205
2026-01-20 08:42:43.57	90.09	3.31	-51.8	-68.8	3.8	7.44e-01	0	37	104	0	74	26611
2026-01-20 08:42:44.58	90.01	3.38	-51.8	-68.9	3.8	7.42e-01	0	37	104	0	74	26860
2026-01-20 08:42:45.59	89.94	3.44	-51.8	-68.8	3.8	7.45e-01	0	37	104	0	74	26765
2026-01-20 08:42:46.60	89.87	3.50	-51.8	-69.1	3.8	7.41e-01	0	37	104	0	74	27438
2026-01-20 08:42:47.61	89.79	3.57	-51.8	-69.2	3.8	7.46e-01	0	37	104	0	74	27765
2026-01-20 08:42:48.61	89.72	3.63	-51.8	-69.1	3.8	7.42e-01	0	37	104	0	74	27576
2026-01-20 08:42:49.62	89.64	3.69	-51.8	-69.1	3.8	7.43e-01	0	37	104	0	74	27674
2026-01-20 08:42:50.63	89.57	3.76	-51.8	-68.7	3.8	7.47e-01	0	37	104	0	74	26179
2026-01-20 08:42:51.64	89.49	3.82	-51.8	-68.4	3.8	7.45e-01	0	37	104	0	74	25558
2026-01-20 08:42:52.65	89.42	3.89	-51.8	-68.0	3.8	7.44e-01	0	37	104	0	74	24202
2026-01-20 08:42:53.66	89.34	3.95	-51.8	-67.1	4.0	7.38e-01	0	37	104	0	74	21836
2026-01-20 08:42:54.66	89.26	4.01	-51.7	-66.1	4.2	7.33e-01	0	37	104	0	74	19577
2026-01-20 08:42:55.67	89.19	4.08	-51.7	-65.2	4.5	7.23e-01	0	37	104	0	74	17600
2026-01-20 08:42:56.68	89.11	4.14	-51.6	-64.0	5.0	7.08e-01	0	37	104	0	74	15324
2026-01-20 08:42:57.69	89.03	4.21	-51.6	-62.9	5.7	6.88e-01	34	37	0	0	74	13541
2026-01-20 08:42:58.70	88.95	4.27	-51.4	-61.1	7.2	6.61e-01	184	37	0	1572864	74	11016
2026-01-20 08:42:59.70	88.88	4.34	-51.3	-60.4	8.0	6.48e-01	177	37	0	3145728	74	10095
2026-01-20 08:43:00.71	88.80	4.40	-50.9	-58.5	9.9	6.24e-01	0	37	0	5242880	73	8583
2026-01-20 08:43:01.72	88.72	4.47	-50.8	-58.0	10.5	6.22e-01	0	38	0	7340032	73	8154
2026-01-20 08:43:02.73	88.64	4.53	-50.6	-56.9	11.6	6.12e-01	0	37	0	9437184	73	7166
2026-01-20 08:43:03.73	88.56	4.60	-50.6	-57.1	11.4	6.15e-01	0	37	0	11010048	73	7312
2026-01-20 08:43:04.74	88.48	4.66	-50.7	-57.3	11.2	6.14e-01	0	38	0	13107200	73	7504
2026-01-20 08:43:05.75	88.40	4.73	-50.6	-57.1	11.4	6.14e-01	0	38	0	14680064	73	7356
2026-01-20 08:43:06.76	88.32	4.80	-50.9	-58.1	10.4	6.21e-01	0	38	0	16777216	73	8204
2026-01-20 08:43:07.77	88.23	4.86	-50.9	-58.4	10.1	6.26e-01	0	37	0	18350080	73	8510
2026-01-20 08:43:08.77	88.15	4.93	-51.2	-59.7	8.8	6.38e-01	3	38	0	20447232	73	9876
2026-01-20 08:43:09.78	88.07	4.99	-51.3	-60.8	7.6	6.55e-01	182	38	0	22544384	73	11232
2026-01-20 08:43:10.79	87.99	5.06	-50.9	-57.9	10.6	6.19e-01	0	38	0	24117248	73	7991
2026-01-20 08:43:11.79	87.90	5.13	-50.6	-56.7	12.0	6.11e-01	0	38	0	26214400	73	6980
2026-01-20 08:43:12.80	87.82	5.19	-51.6	-63.9	5.3	7.04e-01	48	38	0	27787264	73	16003
2026-01-20 08:43:13.81	87.74	5.26	-49.3	-53.3	15.1	6.07e-01	0	38	0	27787264	70	5600
2026-01-20 08:43:14.82	87.65	5.33	-51.4	-61.0	7.9	6.54e-01	123	37	0	29884416	73	11526
2026-01-20 08:43:15.83	87.57	5.39	-49.2	-53.0	15.6	6.09e-01	0	38	0	31457280	70	5405
2026-01-20 08:43:16.83	87.48	5.46	-48.8	-52.3	16.6	6.05e-01	0	38	0	33554432	69	5281
2026-01-20 08:43:17.84	87.39	5.53	-48.9	-52.5	16.4	6.07e-01	0	38	0	35127296	69	5436
2026-01-20 08:43:18.85	87.31	5.60	-48.8	-52.2	16.7	6.06e-01	0	38	0	37224448	69	5234
2026-01-20 08:43:19.86	87.22	5.66	-48.9	-52.3	16.5	6.05e-01	0	38	0	38797312	69	5324
2026-01-20 08:43:20.87	87.13	5.73	-48.9	-52.4	16.6	6.07e-01	0	38	0	40894464	69	5361
2026-01-20 08:43:21.87	87.05	5.80	-48.9	-52.4	16.5	6.05e-01	0	38	0	42467328	69	5373
2026-01-20 08:43:22.88	86.96	5.87	-48.9	-52.4	16.7	6.06e-01	0	38	0	44564480	69	5366
2026-01-20 08:43:23.89	86.87	5.94	-48.9	-52.4	16.6	6.07e-01	0	38	0	46661632	69	5365
2026-01-20 08:43:24.90	86.78	6.00	-48.8	-52.2	16.8	6.06e-01	0	38	0	48234496	69	5221
2026-01-20 08:43:25.91	86.69	6.07	-48.8	-52.3	16.7	6.07e-01	0	38	0	50331648	69	5284
2026-01-20 08:43:26.91	86.60	6.14	-48.9	-52.5	16.4	6.08e-01	0	38	0	51904512	69	5439
2026-01-20 08:43:27.92	86.51	6.21	-48.6	-51.8	17.2	6.07e-01	0	38	0	54001664	69	4997
2026-01-20 08:43:28.93	86.42	6.28	-48.4	-51.4	17.6	6.06e-01	0	38	0	56098816	68	5079
2026-01-20 08:43:29.94	86.33	6.35	-48.2	-51.1	17.8	6.07e-01	0	38	0	57671680	68	4924
2026-01-20 08:43:30.95	86.23	6.42	-48.3	-51.4	17.6	6.06e-01	0	38	0	59768832	68	5066
2026-01-20 08:43:31.95	86.14	6.48	-48.2	-51.1	17.9	6.06e-01	0	38	0	61865984	68	4904
2026-01-20 08:43:32.96	86.05	6.55	-48.2	-51.1	17.9	6.06e-01	0	38	0	63438848	68	4908
2026-01-20 08:43:33.97	85.95	6.62	-48.1	-51.0	18.0	6.06e-01	0	38	0	65536000	68	4856
2026-01-20 08:43:34.98	85.86	6.69	-48.2	-51.1	17.9	6.08e-01	0	38	0	67108864	68	4910
2026-01-20 08:43:35.99	85.77	6.76	-48.2	-51.2	17.9	6.05e-01	0	38	0	69206016	68	4933
2026-01-20 08:43:36.99	85.67	6.83	-48.1	-51.0	18.1	6.05e-01	0	38	0	70778880	68	4828
2026-01-20 08:43:38.00	85.58	6.90	-48.2	-51.1	17.9	6.06e-01	0	38	0	72876032	68	4897
2026-01-20 08:43:39.01	85.48	6.97	-48.1	-50.9	18.1	6.07e-01	0	38	0	74973184	68	4809
2026-01-20 08:43:40.01	85.38	7.04	-48.2	-51.1	17.9	6.06e-01	0	38	0	76546048	68	4910
2026-01-20 08:43:41.02	85.29	7.11	-48.0	-50.8	18.2	6.05e-01	0	38	0	78643200	68	4756
2026-01-20 08:43:42.03	85.19	7.18	-48.1	-51.0	18.1	6.04e-01	0	38	0	80740352	68	4846
2026-01-20 08:43:43.04	85.09	7.25	-48.2	-51.0	18.1	6.06e-01	0	38	0	82313216	68	4863
2026-01-20 08:43:44.05	84.99	7.33	-48.2	-51.1	18.1	6.06e-01	0	38	0	84410368	67	5191
2026-01-20 08:43:45.06	84.89	7.40	-48.1	-51.0	18.2	6.07e-01	0	38	0	85983232	67	5118
2026-01-20 08:43:46.06	84.79	7.47	-48.0	-50.8	18.3	6.05e-01	0	38	0	88080384	67	5033
2026-01-20 08:43:47.07	84.69	7.54	-48.0	-50.8	18.4	6.07e-01	0	38	0	90177536	67	5005
2026-01-20 08:43:48.08	84.59	7.61	-48.1	-50.8	18.3	6.06e-01	0	38	0	91750400	67	5022
2026-01-20 08:43:49.09	84.49	7.68	-48.1	-50.9	18.2	6.06e-01	0	38	0	93847552	67	5077
2026-01-20 08:43:50.10	84.39	7.75	-47.9	-50.6	18.5	6.03e-01	0	38	0	95420416	67	4918
2026-01-20 08:43:51.10	84.28	7.83	-48.0	-50.7	18.5	6.07e-01	0	38	0	97517568	67	4965
2026-01-20 08:43:52.11	84.18	7.90	-48.0	-50.8	18.4	6.05e-01	0	38	0	99090432	67	5012
2026-01-20 08:43:53.12	84.08	7.97	-48.1	-50.8	18.4	6.06e-01	0	38	0	101187584	67	5024
2026-01-20 08:43:54.13	83.97	8.04	-47.9	-50.6	18.6	6.05e-01	0	38	0	103284736	67	4892
2026-01-20 08:43:55.13	83.87	8.11	-48.0	-50.7	18.5	6.06e-01	0	38	0	105381888	67	4981
2026-01-20 08:43:56.14	83.76	8.19	-47.9	-50.6	18.5	6.03e-01	0	38	0	106954752	67	4901
2026-01-20 08:43:57.15	83.66	8.26	-47.9	-50.5	18.7	6.07e-01	0	38	0	109051904	67	4848
2026-01-20 08:43:58.16	83.55	8.33	-47.9	-50.6	18.6	6.06e-01	0	38	0	110624768	67	4897
2026-01-20 08:43:59.17	83.44	8.41	-48.0	-50.7	18.6	6.07e-01	0	38	0	112721920	67	4936
2026-01-20 08:44:00.17	83.33	8.48	-47.8	-50.4	18.7	6.06e-01	0	38	0	114294784	67	4802
2026-01-20 08:44:01.17	83.23	8.55	-47.8	-50.3	18.9	6.09e-01	0	38	0	116391936	67	4758
2026-01-20 08:44:02.18	83.12	8.62	-47.9	-50.5	18.7	6.06e-01	0	38	0	118489088	67	4849
2026-01-20 08:44:03.19	83.01	8.70	-47.9	-50.5	18.7	6.07e-01	0	38	0	120061952	67	4838
2026-01-20 08:44:04.20	82.90	8.77	-47.9	-50.5	18.7	6.04e-01	0	38	0	122159104	67	4839
2026-01-20 08:44:05.20	82.79	8.85	-47.8	-50.4	18.8	6.04e-01	0	38	0	123731968	67	4798
2026-01-20 08:44:06.21	82.68	8.92	-47.8	-50.4	18.8	6.05e-01	0	38	0	125829120	67	4809
2026-01-20 08:44:07.22	82.56	8.99	-47.9	-50.5	18.8	6.05e-01	0	38	0	127926272	67	4835
2026-01-20 08:44:08.23	82.45	9.07	-47.8	-50.4	18.8	6.08e-01	0	38	0	129499136	67	4807
2026-01-20 08:44:09.24	82.34	9.14	-47.8	-50.4	18.9	6.08e-01	0	38	0	131596288	67	4770
2026-01-20 08:44:10.25	82.22	9.22	-47.8	-50.3	18.9	6.07e-01	0	38	0	133693440	67	4758
2026-01-20 08:44:11.25	82.11	9.29	-47.8	-50.4	18.8	6.08e-01	0	38	0	135266304	67	4800
2026-01-20 08:44:12.26	81.99	9.37	-47.8	-50.4	18.8	6.06e-01	0	38	0	137363456	67	4778
2026-01-20 08:44:13.27	81.88	9.44	-47.8	-50.4	18.9	6.05e-01	0	38	0	138936320	67	4778
2026-01-20 08:44:14.28	81.76	9.52	-47.8	-50.4	18.9	6.07e-01	0	38	0	141033472	67	4785
2026-01-20 08:44:15.29	81.64	9.59	-47.9	-50.5	18.7	6.07e-01	0	38	0	142606336	67	4852
2026-01-20 08:44:16.30	81.52	9.67	-47.8	-50.4	18.8	6.07e-01	0	38	0	144703488	67	4763
2026-01-20 08:44:17.30	81.40	9.74	-47.8	-50.4	18.9	6.06e-01	0	38	0	146800640	67	4762
2026-01-20 08:44:18.31	81.28	9.82	-47.8	-50.4	18.8	6.07e-01	0	38	0	148373504	67	4809
2026-01-20 08:44:19.32	81.16	9.90	-47.8	-50.3	18.9	6.06e-01	0	38	0	150470656	67	4745
2026-01-20 08:44:20.32	81.04	9.97	-47.8	-50.4	18.9	6.04e-01	0	38	0	152567808	67	4782
2026-01-20 08:44:21.33	80.92	10.05	-47.7	-50.3	18.9	6.05e-01	0	38	0	154140672	67	4729
2026-01-20 08:44:22.34	80.80	10.12	-47.8	-50.4	18.9	6.06e-01	0	38	0	156237824	67	4783
2026-01-20 08:44:23.35	80.68	10.20	-47.7	-50.2	19.1	6.07e-01	0	38	0	157810688	67	4662
2026-01-20 08:44:24.35	80.55	10.28	-47.6	-50.1	19.1	6.07e-01	0	38	0	159907840	67	4644
2026-01-20 08:44:25.36	80.43	10.35	-47.7	-50.1	19.1	6.06e-01	0	38	0	162004992	67	4649
2026-01-20 08:44:26.37	80.30	10.43	-47.5	-50.0	19.3	6.07e-01	0	38	0	163577856	67	4563
2026-01-20 08:44:27.38	80.18	10.51	-47.6	-50.1	19.2	6.06e-01	0	38	0	165675008	67	4601
2026-01-20 08:44:28.39	80.05	10.59	-47.5	-50.0	19.3	6.07e-01	0	38	0	167247872	67	4569
2026-01-20 08:44:29.39	79.92	10.66	-47.3	-49.7	19.6	6.04e-01	0	38	0	169345024	66	4672
2026-01-20 08:44:30.40	79.80	10.74	-47.4	-49.8	19.5	6.04e-01	0	38	0	170917888	66	4711
2026-01-20 08:44:31.41	79.67	10.82	-47.6	-50.1	19.2	6.05e-01	0	38	0	173015040	66	4887
2026-01-20 08:44:32.42	79.54	10.89	-47.5	-49.9	19.4	6.09e-01	0	38	0	175112192	66	4777
2026-01-20 08:44:33.42	79.41	10.97	-47.3	-49.7	19.6	6.07e-01	0	38	0	177209344	66	4670
2026-01-20 08:44:34.43	79.28	11.05	-47.3	-49.6	19.7	6.07e-01	0	38	0	178782208	66	4623
2026-01-20 08:44:35.44	79.14	11.13	-47.5	-49.9	19.5	6.04e-01	0	38	0	180879360	66	4767
2026-01-20 08:44:36.45	79.01	11.21	-47.4	-49.8	19.5	6.07e-01	0	38	0	182452224	66	4728
2026-01-20 08:44:37.45	78.88	11.28	-47.2	-49.5	19.8	6.06e-01	0	38	0	184549376	66	4592
2026-01-20 08:44:38.46	78.74	11.36	-47.3	-49.6	19.8	6.07e-01	0	38	0	186122240	66	4618
2026-01-20 08:44:39.47	78.61	11.44	-47.1	-49.4	19.9	6.04e-01	0	38	0	188219392	66	4519
2026-01-20 08:44:40.48	78.47	11.52	-47.2	-49.5	19.7	6.07e-01	0	38	0	190316544	66	4595
2026-01-20 08:44:41.49	78.34	11.60	-47.2	-49.5	19.8	6.06e-01	0	38	0	191889408	66	4588
2026-01-20 08:44:42.49	78.20	11.68	-47.3	-49.6	19.7	6.07e-01	0	38	0	193986560	66	4643
2026-01-20 08:44:43.50	78.06	11.76	-47.3	-49.6	19.7	6.05e-01	0	38	0	195559424	66	4638
2026-01-20 08:44:44.51	77.92	11.84	-47.3	-49.6	19.7	6.06e-01	0	38	0	197656576	66	4625
2026-01-20 08:44:45.51	77.78	11.92	-47.4	-49.7	19.6	6.05e-01	0	38	0	199229440	66	4677
2026-01-20 08:44:46.52	77.64	12.00	-47.4	-49.7	19.6	6.06e-01	0	38	0	201326592	66	4687
2026-01-20 08:44:47.53	77.50	12.08	-47.4	-49.8	19.6	6.04e-01	0	38	0	203423744	66	4719
2026-01-20 08:44:48.54	77.36	12.16	-47.4	-49.8	19.5	6.06e-01	0	38	0	205520896	66	4710
2026-01-20 08:44:49.54	77.22	12.24	-47.7	-59.5	3.8	7.46e-01	0	38	104	206569472	66	14527
2026-01-20 08:44:50.55	77.07	12.32	-47.6	-59.4	3.8	7.47e-01	0	38	104	206569472	66	14366
2026-01-20 08:44:51.56	76.93	12.40	-49.3	-61.5	3.8	7.46e-01	0	38	104	206569472	68	16230
2026-01-20 08:44:52.57	76.78	12.48	-47.9	-59.8	3.8	7.45e-01	0	38	104	206569472	67	14146
2026-01-20 08:44:53.58	76.63	12.56	-51.7	-67.2	3.8	7.47e-01	0	38	104	206569472	73	23505
2026-01-20 08:44:54.59	76.48	12.64	-50.8	-64.8	3.9	7.44e-01	0	38	104	206569472	73	17807
2026-01-20 08:44:55.60	76.34	12.72	-49.7	-62.5	3.7	7.44e-01	0	38	104	206569472	69	17125
2026-01-20 08:44:56.61	76.19	12.80	-49.5	-62.3	3.8	7.43e-01	0	38	104	206569472	71	15000
2026-01-20 08:44:57.61	76.04	12.88	-48.4	-60.5	3.8	7.45e-01	0	38	104	206569472	68	14429
2026-01-20 08:44:58.62	75.89	12.96	-48.3	-60.4	3.8	7.43e-01	0	38	104	206569472	68	14264
2026-01-20 08:44:59.63	75.73	13.04	-50.2	-63.5	3.8	7.46e-01	0	38	104	206569472	70	18127
2026-01-20 08:45:00.64	75.58	13.12	-48.0	-60.0	3.8	7.46e-01	0	38	104	206569472	68	13578
2026-01-20 08:45:01.65	75.43	13.20	-51.8	-67.8	3.8	7.43e-01	0	38	104	206569472	74	23798
2026-01-20 08:45:02.65	75.27	13.29	-49.9	-62.8	3.8	7.44e-01	0	38	104	206569472	71	15763
2026-01-20 08:45:03.66	75.12	13.37	-50.7	-64.4	3.7	7.49e-01	0	38	104	206569472	71	18986
2026-01-20 08:45:04.67	74.96	13.45	-48.7	-60.8	4.0	7.35e-01	0	38	104	206569472	69	14053
2026-01-20 08:45:05.68	74.80	13.53	-48.3	-60.2	3.7	7.46e-01	0	38	104	206569472	68	14017
2026-01-20 08:45:06.69	74.64	13.61	-48.3	-60.0	3.9	7.36e-01	0	38	104	206569472	68	13717
2026-01-20 08:45:07.69	74.48	13.69	-50.7	-64.8	3.9	7.42e-01	0	38	104	206569472	72	18779
2026-01-20 08:45:08.70	74.32	13.78	-48.1	-60.0	3.8	7.42e-01	0	38	104	206569472	68	13622
2026-01-20 08:45:09.71	74.16	13.86	-51.9	-67.9	3.8	7.46e-01	0	38	104	206569472	74	23944
2026-01-20 08:45:10.72	74.00	13.94	-49.8	-62.8	3.9	7.43e-01	0	38	104	206569472	71	15788
2026-01-20 08:45:11.72	73.84	14.02	-51.0	-65.3	3.8	7.47e-01	0	38	104	206569472	72	20066
2026-01-20 08:45:12.73	73.67	14.10	-48.6	-60.7	3.8	7.46e-01	0	38	104	206569472	69	13888
2026-01-20 08:45:13.74	73.51	14.19	-48.4	-60.5	3.8	7.42e-01	0	38	104	206569472	68	14415
2026-01-20 08:45:14.75	73.34	14.27	-48.1	-60.1	3.8	7.43e-01	0	38	104	206569472	68	13768
2026-01-20 08:45:15.76	73.17	14.35	-51.0	-65.2	3.8	7.48e-01	0	38	104	206569472	72	19619
2026-01-20 08:45:16.77	73.00	14.44	-48.5	-60.5	3.8	7.43e-01	0	38	104	206569472	68	14457
2026-01-20 08:45:17.77	72.83	14.52	-52.0	-68.4	3.8	7.45e-01	0	38	104	206569472	74	25447
2026-01-20 08:45:18.78	72.66	14.60	-49.4	-61.9	3.9	7.47e-01	0	38	104	206569472	70	15088
2026-01-20 08:45:19.79	72.49	14.68	-51.0	-65.4	3.8	7.46e-01	0	38	104	206569472	72	20155
2026-01-20 08:45:20.80	72.32	14.77	-48.8	-61.0	3.9	7.46e-01	0	38	104	206569472	69	14440
2026-01-20 08:45:21.81	72.14	14.85	-48.3	-60.3	3.8	7.44e-01	0	38	104	206569472	68	14052
2026-01-20 08:45:22.81	71.97	14.93	-48.0	-59.9	3.8	7.46e-01	0	38	104	206569472	67	14261
2026-01-20 08:45:23.83	71.79	15.02	-50.7	-64.6	3.8	7.43e-01	0	38	104	206569472	71	19415
2026-01-20 08:45:24.83	71.62	15.10	-48.6	-60.8	3.8	7.48e-01	0	38	104	206569472	68	15044
2026-01-20 08:45:25.84	71.44	15.18	-52.1	-68.8	3.8	7.47e-01	0	38	104	206569472	74	26699
2026-01-20 08:45:26.85	71.26	15.27	-49.0	-61.3	3.8	7.46e-01	0	38	104	206569472	70	14121
2026-01-20 08:45:27.85	71.08	15.35	-51.5	-66.6	3.7	7.48e-01	0	38	104	206569472	73	21791
2026-01-20 08:45:28.86	70.90	15.43	-48.5	-60.6	3.8	7.44e-01	0	38	104	206569472	69	13799
2026-01-20 08:45:29.87	70.72	15.52	-48.3	-60.2	3.8	7.44e-01	0	38	104	206569472	68	14034
2026-01-20 08:45:30.88	70.53	15.60	-47.9	-59.7	3.8	7.48e-01	0	38	104	206569472	67	13942
2026-01-20 08:45:31.89	70.35	15.68	-50.5	-64.1	3.9	7.45e-01	0	38	104	206569472	71	18448
2026-01-20 08:45:32.89	70.16	15.77	-48.7	-60.8	3.8	7.45e-01	0	38	104	206569472	67	15883
2026-01-20 08:45:33.90	69.98	15.85	-52.1	-68.9	3.8	7.49e-01	0	38	104	206569472	74	26788
2026-01-20 08:45:34.91	69.79	15.93	-49.0	-61.4	3.8	7.46e-01	0	38	104	206569472	70	14267
2026-01-20 08:45:35.92	69.60	16.02	-51.6	-66.8	3.8	7.45e-01	0	38	104	206569472	73	22426
2026-01-20 08:45:36.93	69.41	16.10	-48.5	-60.5	3.8	7.45e-01	0	38	104	206569472	68	14463
2026-01-20 08:45:37.94	69.22	16.18	-48.4	-60.4	3.8	7.46e-01	0	38	104	206569472	68	14318
2026-01-20 08:45:38.94	69.03	16.27	-48.5	-60.5	3.8	7.45e-01	0	38	104	206569472	68	14449
2026-01-20 08:45:39.95	68.83	16.35	-51.0	-65.4	3.8	7.45e-01	0	38	104	206569472	72	20255
2026-01-20 08:45:40.96	68.64	16.43	-48.9	-61.2	3.8	7.46e-01	0	38	104	206569472	68	15636
2026-01-20 08:45:41.97	68.44	16.52	-52.2	-69.1	3.8	7.50e-01	0	39	104	206569472	74	27574
2026-01-20 08:45:42.97	68.25	16.60	-49.0	-61.3	3.8	7.41e-01	0	38	104	206569472	70	14081
2026-01-20 08:45:43.98	68.05	16.68	-51.8	-67.8	3.8	7.48e-01	0	38	104	206569472	74	23706
2026-01-20 08:45:44.99	67.85	16.77	-48.6	-60.7	3.8	7.47e-01	0	38	104	206569472	69	13924
2026-01-20 08:45:46.00	67.65	16.85	-48.5	-60.6	3.8	7.45e-01	0	38	104	206569472	68	14552
2026-01-20 08:45:47.01	67.44	16.93	-48.3	-60.3	3.8	7.46e-01	0	38	104	206569472	68	14197
2026-01-20 08:45:48.02	67.24	17.02	-51.6	-66.9	3.8	7.45e-01	0	38	104	206569472	73	22730
2026-01-20 08:45:49.02	67.04	17.10	-49.0	-61.3	3.8	7.46e-01	0	38	104	206569472	68	15816
2026-01-20 08:45:50.03	66.83	17.18	-52.2	-69.2	3.8	7.45e-01	0	38	104	206569472	74	27952
2026-01-20 08:45:51.04	66.63	17.27	-48.9	-61.2	3.8	7.47e-01	0	38	104	206569472	69	14779
2026-01-20 08:45:52.05	66.42	17.35	-51.8	-67.8	3.8	7.44e-01	0	38	104	206569472	74	23637
2026-01-20 08:45:53.06	66.21	17.43	-48.6	-60.7	3.8	7.47e-01	0	38	104	206569472	69	14026
2026-01-20 08:45:54.07	66.00	17.52	-48.3	-60.2	3.8	7.47e-01	0	38	104	206569472	68	14025
2026-01-20 08:45:55.07	65.79	17.60	-47.8	-59.6	3.8	7.42e-01	0	38	104	206569472	67	13876
2026-01-20 08:45:56.08	65.57	17.68	-50.6	-64.5	3.8	7.43e-01	0	38	104	206569472	72	18226
2026-01-20 08:45:57.09	65.36	17.77	-49.1	-61.4	3.8	7.47e-01	0	38	104	206569472	68	16083
2026-01-20 08:45:58.10	65.14	17.85	-52.2	-69.2	3.8	7.49e-01	0	38	104	206569472	74	28010
2026-01-20 08:45:59.11	64.93	17.93	-49.0	-61.4	3.8	7.41e-01	0	38	104	206569472	70	14210
2026-01-20 08:46:00.11	64.71	18.01	-51.9	-67.9	3.8	7.46e-01	0	39	104	206569472	74	23937
2026-01-20 08:46:01.12	64.49	18.10	-48.8	-61.0	3.8	7.42e-01	0	38	104	206569472	69	14504
2026-01-20 08:46:02.13	64.27	18.18	-48.8	-61.1	3.8	7.44e-01	0	38	104	206569472	69	14672
2026-01-20 08:46:03.13	64.05	18.26	-48.2	-60.1	3.8	7.45e-01	0	38	104	206569472	68	13808
2026-01-20 08:46:04.14	63.83	18.34	-50.1	-63.3	3.9	7.41e-01	0	38	104	206569472	71	16715
2026-01-20 08:46:05.15	63.60	18.42	-49.6	-62.2	3.8	7.45e-01	0	38	104	206569472	69	16556
2026-01-20 08:46:06.15	63.38	18.51	-52.2	-69.1	3.8	7.44e-01	0	38	104	206569472	74	27481
2026-01-20 08:46:07.16	63.15	18.59	-48.9	-61.2	3.9	7.46e-01	0	38	104	206569472	69	14780
2026-01-20 08:46:08.17	62.92	18.67	-51.8	-67.5	3.8	7.44e-01	0	38	104	206569472	74	22885
2026-01-20 08:46:09.18	62.69	18.75	-48.8	-61.1	3.8	7.44e-01	0	39	104	206569472	69	14551
2026-01-20 08:46:10.19	62.46	18.83	-48.3	-60.3	3.8	7.42e-01	0	38	104	206569472	68	14108
2026-01-20 08:46:11.19	62.23	18.91	-48.0	-59.9	3.8	7.47e-01	0	39	104	206569472	67	14217
2026-01-20 08:46:12.20	62.00	18.99	-50.2	-63.6	3.9	7.42e-01	0	38	104	206569472	72	16475
2026-01-20 08:46:13.21	61.76	19.07	-49.6	-62.3	3.9	7.43e-01	0	38	104	206569472	69	16766
2026-01-20 08:46:14.22	61.53	19.15	-52.2	-69.1	3.8	7.43e-01	0	38	104	206569472	75	25988
2026-01-20 08:46:15.23	61.29	19.23	-48.8	-61.0	3.8	7.44e-01	0	38	104	206569472	69	14469
2026-01-20 08:46:16.24	61.05	19.31	-51.6	-67.0	3.8	7.43e-01	0	38	104	206569472	74	21719
2026-01-20 08:46:17.24	60.81	19.39	-48.9	-61.3	3.8	7.43e-01	0	39	104	206569472	69	14884
2026-01-20 08:46:18.25	60.57	19.47	-48.4	-60.4	3.8	7.43e-01	0	38	104	206569472	68	14287
2026-01-20 08:46:19.26	60.33	19.55	-47.9	-59.8	3.8	7.45e-01	0	38	104	206569472	67	14054
2026-01-20 08:46:20.27	60.08	19.63	-49.7	-62.5	3.9	7.46e-01	0	38	104	206569472	71	15275
2026-01-20 08:46:21.28	59.84	19.71	-50.4	-63.7	3.9	7.43e-01	0	38	104	206569472	71	17545
2026-01-20 08:46:22.28	59.59	19.79	-52.2	-68.9	3.8	7.39e-01	0	38	104	206569472	75	25368
2026-01-20 08:46:23.29	59.34	19.87	-48.9	-61.1	3.8	7.49e-01	0	38	104	206569472	69	14622
2026-01-20 08:46:24.30	59.09	19.95	-51.6	-66.9	3.8	7.45e-01	0	39	104	206569472	74	21295
2026-01-20 08:46:25.31	58.84	20.02	-48.9	-61.2	3.8	7.43e-01	0	38	104	206569472	69	14828
2026-01-20 08:46:26.31	58.59	20.10	-49.1	-61.4	3.8	7.44e-01	0	38	104	206569472	69	15177
2026-01-20 08:46:27.32	58.34	20.18	-49.1	-61.4	3.8	7.41e-01	0	38	104	206569472	69	15140
2026-01-20 08:46:28.33	58.08	20.25	-49.9	-63.6	3.9	7.39e-01	0	38	104	206569472	72	16362
2026-01-20 08:46:29.33	57.83	20.33	-51.0	-65.0	3.8	7.46e-01	0	39	104	206569472	72	19274
2026-01-20 08:46:30.34	57.57	20.41	-52.0	-68.2	3.8	7.45e-01	0	38	104	206569472	75	23323
2026-01-20 08:46:31.35	57.31	20.48	-49.0	-61.3	3.8	7.43e-01	0	39	104	206569472	69	14986
2026-01-20 08:46:32.36	57.05	20.56	-51.0	-65.3	3.9	7.42e-01	0	38	104	206569472	74	17802
2026-01-20 08:46:33.37	56.79	20.63	-49.0	-61.3	3.8	7.44e-01	0	38	104	206569472	70	14067
2026-01-20 08:46:34.37	56.53	20.71	-48.8	-61.0	3.8	7.45e-01	0	38	104	206569472	69	14483
2026-01-20 08:46:35.38	56.26	20.78	-49.0	-61.3	3.8	7.48e-01	0	38	104	206569472	69	15013
2026-01-20 08:46:36.39	56.00	20.86	-50.0	-63.0	3.8	7.42e-01	0	39	104	206569472	72	15382
2026-01-20 08:46:37.40	55.73	20.93	-51.0	-65.1	3.8	7.49e-01	0	38	104	206569472	72	19398
2026-01-20 08:46:38.41	55.46	21.00	-51.9	-68.1	3.8	7.42e-01	0	39	104	206569472	75	23311
2026-01-20 08:46:39.41	55.19	21.08	-49.1	-61.4	3.8	7.48e-01	0	38	104	206569472	70	14317
2026-01-20 08:46:40.42	54.92	21.15	-50.5	-64.3	3.9	7.43e-01	0	38	104	206569472	73	16708
2026-01-20 08:46:41.43	54.65	21.22	-49.1	-61.5	3.8	7.45e-01	0	39	104	206569472	70	14440
2026-01-20 08:46:42.44	54.37	21.29	-48.8	-60.9	3.8	7.42e-01	0	38	104	206569472	69	14343
2026-01-20 08:46:43.45	54.10	21.36	-48.8	-60.9	3.8	7.47e-01	0	38	104	206569472	68	15096
2026-01-20 08:46:44.45	53.83	21.43	-48.9	-61.1	3.8	7.41e-01	0	38	104	206569472	69	14641
2026-01-20 08:46:45.46	53.55	21.50	-51.5	-66.4	3.8	7.47e-01	0	38	104	206569472	73	21400
2026-01-20 08:46:46.47	53.27	21.57	-51.7	-67.1	3.9	7.43e-01	0	38	104	206569472	75	20600
2026-01-20 08:46:47.48	52.99	21.64	-49.4	-61.9	3.8	7.47e-01	0	39	104	206569472	70	15154
2026-01-20 08:46:48.49	52.70	21.71	-50.1	-63.5	3.9	7.47e-01	0	39	104	206569472	72	16205
2026-01-20 08:46:49.49	52.42	21.78	-49.1	-61.4	3.8	7.41e-01	0	38	104	206569472	70	14368
2026-01-20 08:46:50.50	52.14	21.85	-48.6	-60.8	3.8	7.45e-01	0	39	104	206569472	69	14144
2026-01-20 08:46:51.51	51.85	21.91	-49.8	-62.9	3.8	7.42e-01	0	38	104	206569472	70	16947
2026-01-20 08:46:52.52	51.57	21.98	-49.7	-62.6	3.8	7.44e-01	0	38	104	206569472	71	15535
2026-01-20 08:46:53.52	51.28	22.04	-51.8	-67.6	3.8	7.48e-01	0	38	104	206569472	74	23226
2026-01-20 08:46:54.53	50.99	22.11	-51.1	-65.5	3.9	7.44e-01	0	39	104	206569472	74	18156
2026-01-20 08:46:55.54	50.70	22.18	-49.9	-62.8	3.8	7.50e-01	0	38	104	206569472	70	16744
2026-01-20 08:46:56.55	50.41	22.24	-49.9	-62.8	3.9	7.45e-01	0	38	104	206569472	71	15892
2026-01-20 08:46:57.55	50.11	22.30	-49.2	-61.7	3.8	7.45e-01	0	39	104	206569472	70	14759
2026-01-20 08:46:58.56	49.82	22.37	-48.7	-60.9	3.8	7.44e-01	0	39	104	206569472	69	14253
2026-01-20 08:46:59.57	49.52	22.43	-50.3	-62.9	3.8	7.48e-01	0	38	104	206569472	70	17073
2026-01-20 08:47:00.58	49.23	22.49	-48.8	-61.0	3.8	7.46e-01	0	38	104	206569472	69	14398
2026-01-20 08:47:01.59	48.93	22.55	-51.8	-67.6	3.8	7.43e-01	0	39	104	206569472	74	23183
2026-01-20 08:47:02.59	48.63	22.61	-51.0	-65.4	3.9	7.42e-01	0	39	104	206569472	74	18057
2026-01-20 08:47:03.60	48.33	22.67	-50.0	-62.9	3.8	7.48e-01	0	39	104	206569472	70	17018
2026-01-20 08:47:04.61	48.03	22.73	-49.9	-62.8	3.9	7.46e-01	0	38	104	206569472	71	15875
2026-01-20 08:47:05.61	47.73	22.79	-49.3	-61.9	3.8	7.44e-01	0	38	104	206569472	70	15141
2026-01-20 08:47:06.62	47.42	22.85	-48.7	-60.9	3.9	7.46e-01	0	38	104	206569472	69	14302
2026-01-20 08:47:07.63	47.11	22.90	-50.8	-64.8	3.8	7.45e-01	0	39	104	206569472	72	18812
2026-01-20 08:47:08.64	46.81	22.96	-48.8	-60.9	3.9	7.44e-01	0	38	104	206569472	69	14317
2026-01-20 08:47:09.65	46.50	23.02	-52.1	-68.5	3.8	7.46e-01	0	39	104	206569472	74	25780
2026-01-20 08:47:10.65	46.19	23.07	-50.6	-64.3	3.9	7.45e-01	0	38	104	206569472	73	16784
2026-01-20 08:47:11.66	45.88	23.12	-50.6	-64.2	3.8	7.43e-01	0	38	104	206569472	71	18623
2026-01-20 08:47:12.67	45.57	23.18	-49.3	-61.8	3.9	7.44e-01	0	39	104	206569472	70	14934
2026-01-20 08:47:13.67	45.26	23.23	-49.3	-61.8	3.8	7.44e-01	0	39	104	206569472	70	14905
2026-01-20 08:47:14.68	44.95	23.28	-48.8	-61.1	3.8	7.42e-01	0	39	104	206569472	69	14616
2026-01-20 08:47:15.69	44.63	23.33	-51.5	-66.6	3.7	7.44e-01	0	38	104	206569472	73	21840
2026-01-20 08:47:16.70	44.31	23.38	-48.9	-61.2	3.8	7.44e-01	0	39	104	206569472	69	14715
2026-01-20 08:47:17.71	44.00	23.43	-52.1	-68.5	3.8	7.45e-01	0	38	104	206569472	74	25566
2026-01-20 08:47:18.71	43.68	23.48	-50.6	-64.4	3.8	7.46e-01	0	39	104	206569472	73	16937
2026-01-20 08:47:19.72	43.36	23.53	-51.1	-65.5	3.8	7.45e-01	0	38	104	206569472	72	20313
2026-01-20 08:47:20.73	43.04	23.58	-49.3	-61.8	3.8	7.43e-01	0	39	104	206569472	70	14984
2026-01-20 08:47:21.74	42.72	23.62	-49.2	-61.6	3.8	7.47e-01	0	38	104	206569472	70	14600
2026-01-20 08:47:22.74	42.40	23.67	-48.7	-60.9	3.9	7.44e-01	0	39	104	206569472	69	14255
2026-01-20 08:47:23.75	42.08	23.71	-51.5	-66.4	3.7	7.47e-01	0	39	104	206569472	73	21376
2026-01-20 08:47:24.76	41.75	23.76	-48.9	-61.2	3.8	7.45e-01	0	39	104	206569472	69	14809
2026-01-20 08:47:25.77	41.43	23.80	-52.2	-69.1	3.8	7.45e-01	0	39	104	206569472	74	27411
2026-01-20 08:47:26.78	41.10	23.84	-50.3	-63.7	3.9	7.44e-01	0	38	104	206569472	72	16660
2026-01-20 08:47:27.78	40.78	23.88	-51.0	-65.2	3.8	7.47e-01	0	38	104	206569472	72	19776
2026-01-20 08:47:28.79	40.45	23.92	-49.4	-61.9	3.8	7.47e-01	0	38	104	206569472	70	15159
2026-01-20 08:47:29.80	40.12	23.96	-49.3	-61.8	3.8	7.44e-01	0	39	104	206569472	70	14951
2026-01-20 08:47:30.81	39.79	24.00	-48.8	-61.1	3.8	7.45e-01	0	38	104	206569472	69	14562
2026-01-20 08:47:31.81	39.47	24.04	-51.1	-65.4	3.8	7.47e-01	0	38	104	206569472	72	20200
2026-01-20 08:47:32.82	39.13	24.07	-49.2	-61.6	3.8	7.44e-01	0	39	104	206569472	69	15420
2026-01-20 08:47:33.83	38.80	24.11	-52.3	-69.4	3.8	7.45e-01	0	39	104	206569472	75	27004
2026-01-20 08:47:34.84	38.47	24.14	-50.1	-63.3	3.9	7.45e-01	0	39	104	206569472	72	15871
2026-01-20 08:47:35.85	38.14	24.18	-51.5	-66.4	3.8	7.49e-01	0	38	104	206569472	73	21459
2026-01-20 08:47:36.85	37.80	24.21	-49.4	-61.9	3.8	7.44e-01	0	38	104	206569472	70	15071
2026-01-20 08:47:37.86	37.47	24.24	-49.3	-61.9	3.8	7.46e-01	0	38	104	206569472	70	15068
2026-01-20 08:47:38.87	37.13	24.27	-48.8	-61.1	3.8	7.45e-01	0	39	104	206569472	69	14697
2026-01-20 08:47:39.87	36.80	24.30	-51.7	-67.3	3.8	7.45e-01	0	39	104	206569472	73	23609
2026-01-20 08:47:40.88	36.46	24.33	-49.1	-61.5	3.8	7.45e-01	0	38	104	206569472	69	15276
2026-01-20 08:47:41.89	36.13	24.36	-52.3	-69.4	3.8	7.44e-01	0	39	104	206569472	75	27059
2026-01-20 08:47:42.90	35.79	24.38	-50.2	-63.4	3.8	7.43e-01	0	39	104	206569472	72	16080
2026-01-20 08:47:43.91	35.45	24.41	-51.5	-66.4	3.8	7.45e-01	0	39	104	206569472	73	21361
2026-01-20 08:47:44.91	35.11	24.43	-49.4	-62.0	3.8	7.40e-01	0	39	104	206569472	70	15311
2026-01-20 08:47:45.92	34.77	24.46	-49.2	-61.6	3.8	7.43e-01	0	39	104	206569472	70	14616
2026-01-20 08:47:46.93	34.43	24.48	-48.7	-60.9	3.8	7.45e-01	0	39	104	206569472	69	14273
2026-01-20 08:47:47.94	34.09	24.50	-51.5	-66.7	3.8	7.44e-01	0	39	104	206569472	73	22071
2026-01-20 08:47:48.95	33.75	24.52	-49.4	-61.9	3.8	7.44e-01	0	39	104	206569472	69	16088
2026-01-20 08:47:49.95	33.41	24.54	-52.3	-69.6	3.8	7.44e-01	0	38	104	206569472	75	27390
2026-01-20 08:47:50.96	33.07	24.56	-50.2	-63.4	3.8	7.46e-01	0	38	104	206569472	72	15948
2026-01-20 08:47:51.97	32.73	24.58	-51.6	-66.9	3.8	7.44e-01	0	39	104	206569472	73	22654
2026-01-20 08:47:52.98	32.38	24.59	-49.5	-62.2	3.8	7.44e-01	0	38	104	206569472	71	14837
2026-01-20 08:47:53.99	32.04	24.61	-49.4	-62.0	3.8	7.44e-01	0	39	104	206569472	70	15387
2026-01-20 08:47:54.99	31.70	24.62	-49.1	-61.5	3.8	7.43e-01	0	39	104	206569472	70	14464
2026-01-20 08:47:56.00	31.35	24.63	-50.8	-64.7	3.8	7.45e-01	0	39	104	206569472	72	18581
2026-01-20 08:47:57.01	31.01	24.65	-49.4	-62.0	3.8	7.47e-01	0	39	104	206569472	70	15285
2026-01-20 08:47:58.01	30.67	24.66	-52.3	-69.6	3.8	7.46e-01	0	39	104	206569472	75	27431
2026-01-20 08:47:59.02	30.32	24.67	-50.1	-63.2	3.8	7.47e-01	0	39	104	206569472	72	15637
2026-01-20 08:48:00.03	29.98	24.68	-51.7	-67.2	3.8	7.45e-01	0	39	104	206569472	73	23523
2026-01-20 08:48:01.04	29.63	24.68	-49.4	-62.0	3.8	7.42e-01	0	39	104	206569472	70	15236
2026-01-20 08:48:02.05	29.29	24.69	-49.1	-61.5	3.8	7.43e-01	0	39	104	206569472	70	14540
2026-01-20 08:48:03.06	28.94	24.70	-49.0	-61.3	3.8	7.41e-01	0	38	104	206569472	69	15024
2026-01-20 08:48:04.06	28.60	24.70	-51.1	-65.6	3.8	7.44e-01	0	38	104	206569472	73	19446
2026-01-20 08:48:05.07	28.26	24.70	-49.5	-62.0	3.8	7.46e-01	0	38	104	206569472	70	15392
2026-01-20 08:48:06.08	27.91	24.70	-52.3	-69.6	3.8	7.48e-01	0	39	104	206569472	75	27609
2026-01-20 08:48:07.09	27.56	24.71	-50.1	-63.3	3.8	7.44e-01	0	39	104	206569472	72	15841
2026-01-20 08:48:08.09	27.22	24.71	-51.6	-67.0	3.8	7.45e-01	0	39	104	206569472	73	23020
2026-01-20 08:48:09.10	26.88	24.70	-49.5	-62.1	3.8	7.41e-01	0	39	104	206569472	70	15407
2026-01-20 08:48:10.11	26.53	24.70	-49.3	-61.8	3.8	7.48e-01	0	38	104	206569472	70	15046
2026-01-20 08:48:11.12	26.18	24.70	-48.8	-61.1	3.8	7.46e-01	0	39	104	206569472	69	14568
2026-01-20 08:48:12.13	25.84	24.69	-49.7	-62.5	3.8	7.46e-01	0	39	104	206569472	70	16221
2026-01-20 08:48:13.14	25.49	24.69	-49.9	-62.8	3.8	7.46e-01	0	39	104	206569472	70	16779
2026-01-20 08:48:14.14	25.15	24.68	-52.2	-69.4	3.8	7.46e-01	0	39	104	206569472	75	27026
2026-01-20 08:48:15.15	24.81	24.67	-50.0	-63.0	3.8	7.46e-01	0	38	104	206569472	72	15326
2026-01-20 08:48:16.16	24.46	24.67	-51.5	-66.7	3.8	7.43e-01	0	38	104	206569472	73	22053
2026-01-20 08:48:17.17	24.12	24.66	-49.5	-62.1	3.8	7.46e-01	0	39	104	206569472	70	15464
2026-01-20 08:48:18.18	23.77	24.64	-49.1	-61.5	3.8	7.47e-01	0	38	104	206569472	70	14375
2026-01-20 08:48:19.18	23.43	24.63	-48.5	-60.5	3.8	7.45e-01	0	38	104	206569472	69	13720
2026-01-20 08:48:20.19	23.09	24.62	-50.1	-63.3	3.9	7.46e-01	0	39	104	206569472	71	16757
2026-01-20 08:48:21.20	22.74	24.61	-50.0	-63.0	3.8	7.47e-01	0	39	104	206569472	70	17278
2026-01-20 08:48:22.21	22.40	24.59	-52.2	-69.4	3.8	7.46e-01	0	38	104	206569472	75	26886
2026-01-20 08:48:23.21	22.06	24.57	-50.0	-63.1	3.8	7.41e-01	0	39	104	206569472	72	15404
2026-01-20 08:48:24.22	21.72	24.56	-51.5	-66.6	3.8	7.45e-01	0	38	104	206569472	73	21867
2026-01-20 08:48:25.23	21.38	24.54	-49.5	-62.2	3.8	7.45e-01	0	39	104	206569472	70	15725
2026-01-20 08:48:26.23	21.04	24.52	-49.1	-61.6	3.8	7.47e-01	0	38	104	206569472	70	14578
2026-01-20 08:48:27.24	20.70	24.50	-48.5	-60.5	3.8	7.46e-01	0	39	104	206569472	69	13700
2026-01-20 08:48:28.25	20.36	24.48	-49.6	-62.5	3.8	7.42e-01	0	39	104	206569472	71	15314
2026-01-20 08:48:29.25	20.02	24.45	-50.5	-63.9	3.8	7.43e-01	0	38	104	206569472	71	17994
2026-01-20 08:48:30.26	19.68	24.43	-52.2	-69.1	3.8	7.43e-01	0	39	104	206569472	75	26077
2026-01-20 08:48:31.27	19.34	24.41	-49.7	-62.6	3.8	7.45e-01	0	39	104	206569472	71	15469
2026-01-20 08:48:32.27	19.00	24.38	-51.2	-65.9	3.8	7.45e-01	0	39	104	206569472	73	20149
2026-01-20 08:48:33.28	18.67	24.35	-49.4	-62.0	3.8	7.46e-01	0	39	104	206569472	70	15303
2026-01-20 08:48:34.29	18.33	24.33	-49.3	-61.7	3.8	7.44e-01	0	38	104	206569472	70	14827
2026-01-20 08:48:35.30	17.99	24.30	-48.8	-61.1	3.8	7.48e-01	0	39	104	206569472	69	14698
2026-01-20 08:48:36.31	17.66	24.27	-50.1	-63.3	3.8	7.42e-01	0	39	104	206569472	72	15791
2026-01-20 08:48:37.31	17.32	24.24	-50.5	-63.8	3.8	7.46e-01	0	38	104	206569472	71	17861
2026-01-20 08:48:38.32	16.99	24.20	-52.2	-69.2	3.8	7.45e-01	0	39	104	206569472	75	26158
2026-01-20 08:48:39.33	16.66	24.17	-49.5	-62.3	3.8	7.45e-01	0	39	104	206569472	71	14981
2026-01-20 08:48:40.34	16.32	24.14	-50.7	-64.6	3.9	7.44e-01	0	39	104	206569472	73	17339
2026-01-20 08:48:41.35	15.99	24.10	-49.4	-62.0	3.8	7.44e-01	0	39	104	206569472	70	15301
2026-01-20 08:48:42.35	15.66	24.07	-48.9	-61.1	3.8	7.47e-01	0	39	104	206569472	69	14618
2026-01-20 08:48:43.36	15.33	24.03	-48.4	-60.4	3.8	7.47e-01	0	39	104	206569472	68	14327
2026-01-20 08:48:44.37	15.00	23.99	-49.4	-62.0	3.9	7.45e-01	0	38	104	206569472	70	15367
2026-01-20 08:48:45.38	14.67	23.96	-51.0	-65.2	3.8	7.46e-01	0	39	104	206569472	72	19694
2026-01-20 08:48:46.39	14.34	23.92	-52.0	-68.4	3.9	7.45e-01	0	39	104	206569472	75	23970
2026-01-20 08:48:47.39	14.02	23.88	-49.5	-62.0	3.8	7.46e-01	0	39	104	206569472	71	14517
2026-01-20 08:48:48.40	13.69	23.84	-50.7	-64.6	3.9	7.48e-01	0	39	104	206569472	73	17426
2026-01-20 08:48:49.41	13.37	23.79	-49.4	-62.0	3.8	7.46e-01	0	38	104	206569472	70	15338
2026-01-20 08:48:50.42	13.04	23.75	-49.4	-61.9	3.8	7.46e-01	0	39	104	206569472	70	15086
2026-01-20 08:48:51.43	12.72	23.71	-49.8	-62.6	3.8	7.46e-01	0	39	104	206569472	70	16355
2026-01-20 08:48:52.44	12.39	23.66	-49.5	-62.3	3.9	7.45e-01	0	39	104	206569472	71	14996
2026-01-20 08:48:53.44	12.08	23.62	-51.5	-66.6	3.8	7.46e-01	0	38	104	206569472	73	21809
2026-01-20 08:48:54.45	11.76	23.57	-51.7	-67.2	3.9	7.44e-01	0	39	104	206569472	75	20878
2026-01-20 08:48:55.46	11.44	23.52	-49.3	-61.9	3.8	7.44e-01	0	39	104	206569472	70	15134
2026-01-20 08:48:56.47	11.12	23.48	-50.5	-64.2	3.9	7.42e-01	0	39	104	206569472	73	16589
2026-01-20 08:48:57.47	10.80	23.43	-49.7	-62.6	3.8	7.45e-01	0	39	104	206569472	71	15580
2026-01-20 08:48:58.48	10.49	23.38	-49.1	-61.6	3.8	7.43e-01	0	39	104	206569472	70	14581
2026-01-20 08:48:59.49	10.17	23.33	-48.2	-60.1	3.8	7.42e-01	0	39	104	206569472	68	13820
2026-01-20 08:49:00.49	9.86	23.28	-48.4	-60.6	3.8	7.39e-01	0	39	104	206569472	68	14589
2026-01-20 08:49:01.50	9.54	23.22	-51.5	-66.5	3.7	7.45e-01	0	39	104	206569472	73	21649
2026-01-20 08:49:02.51	9.23	23.17	-51.7	-67.2	3.9	7.44e-01	0	39	104	206569472	75	20983
2026-01-20 08:49:03.52	8.92	23.12	-49.3	-61.8	3.8	7.42e-01	0	39	104	206569472	70	14948
2026-01-20 08:49:04.53	8.61	23.06	-49.6	-62.4	3.9	7.43e-01	0	38	104	206569472	71	15166
2026-01-20 08:49:05.54	8.30	23.01	-49.2	-61.7	3.8	7.46e-01	0	39	104	206569472	70	14780
2026-01-20 08:49:06.54	8.00	22.95	-49.2	-61.6	3.8	7.46e-01	0	39	104	206569472	70	14619
2026-01-20 08:49:07.55	7.69	22.90	-50.5	-64.0	3.8	7.44e-01	0	39	104	206569472	71	18130
2026-01-20 08:49:08.56	7.39	22.84	-49.2	-61.8	3.8	7.44e-01	0	39	104	206569472	70	14949
2026-01-20 08:49:09.57	7.08	22.78	-51.8	-67.8	3.8	7.45e-01	0	39	104	206569472	74	23699
2026-01-20 08:49:10.57	6.78	22.72	-51.2	-65.9	3.9	7.45e-01	0	39	104	206569472	74	19118
2026-01-20 08:49:11.58	6.48	22.66	-49.5	-62.1	3.8	7.46e-01	0	39	104	206569472	70	15562
2026-01-20 08:49:12.59	6.18	22.60	-49.9	-62.9	3.9	7.47e-01	0	38	104	206569472	71	16117
2026-01-20 08:49:13.60	5.88	22.54	-49.5	-62.2	3.8	7.43e-01	0	39	104	206569472	70	15594
2026-01-20 08:49:14.61	5.58	22.48	-49.4	-62.0	3.8	7.43e-01	0	39	104	206569472	70	15375
2026-01-20 08:49:15.61	5.29	22.42	-48.5	-60.6	3.8	7.42e-01	0	39	104	206569472	69	13824
2026-01-20 08:49:16.62	4.99	22.36	-48.8	-61.1	3.8	7.42e-01	0	39	104	206569472	69	14574
2026-01-20 08:49:17.63	4.70	22.30	-52.1	-68.6	3.8	7.49e-01	0	39	104	206569472	74	26060
2026-01-20 08:49:18.64	4.40	22.23	-50.9	-65.0	3.9	7.42e-01	0	39	104	206569472	73	18180
2026-01-20 08:49:19.64	4.11	22.17	-49.8	-62.5	3.8	7.42e-01	0	38	104	206569472	70	16308
2026-01-20 08:49:20.65	3.82	22.10	-49.5	-62.2	3.8	7.46e-01	0	39	104	206569472	71	14711
2026-01-20 08:49:21.66	3.53	22.04	-49.3	-61.8	3.8	7.41e-01	0	39	104	206569472	70	15007
2026-01-20 08:49:22.66	3.25	21.97	-49.0	-61.3	3.8	7.43e-01	0	39	104	206569472	70	14178
2026-01-20 08:49:23.67	2.96	21.91	-48.8	-61.1	3.8	7.43e-01	0	39	104	206569472	68	15531
2026-01-20 08:49:24.68	2.68	21.84	-48.7	-60.9	3.8	7.47e-01	0	39	104	206569472	69	14359
2026-01-20 08:49:25.69	2.39	21.77	-52.0	-68.5	3.8	7.49e-01	0	39	104	206569472	74	25648
2026-01-20 08:49:26.70	2.11	21.70	-50.8	-64.9	3.9	7.45e-01	0	39	104	206569472	73	17898
2026-01-20 08:49:27.70	1.83	21.63	-49.6	-62.3	3.8	7.45e-01	0	39	104	206569472	70	15897
2026-01-20 08:49:28.71	1.55	21.57	-49.4	-61.9	3.8	7.44e-01	0	39	104	206569472	70	15081
2026-01-20 08:49:29.72	1.27	21.50	-49.1	-61.6	3.8	7.46e-01	0	38	104	206569472	70	14619
2026-01-20 08:49:30.73	1.00	21.43	-48.6	-60.7	3.8	7.41e-01	0	39	104	206569472	69	14038
2026-01-20 08:49:31.74	0.72	21.35	-48.6	-60.6	3.8	7.44e-01	0	39	104	206569472	67	15565
2026-01-20 08:49:32.75	0.44	21.28	-48.6	-60.9	3.8	7.44e-01	0	39	104	206569472	68	15106
2026-01-20 08:49:33.75	0.17	21.21	-52.1	-69.0	3.8	7.46e-01	0	39	104	206569472	74	27156
2026-01-20 08:49:34.76	359.90	21.14	-50.7	-64.6	3.8	7.48e-01	0	39	104	206569472	73	17426
2026-01-20 08:49:35.77	359.63	21.07	-50.0	-63.1	3.8	7.44e-01	0	39	104	206569472	70	17296
2026-01-20 08:49:36.78	359.36	21.00	-49.1	-61.5	3.8	7.43e-01	0	39	104	206569472	70	14450
2026-01-20 08:49:37.78	359.10	20.92	-48.9	-61.1	3.8	7.47e-01	0	39	104	206569472	69	14600
2026-01-20 08:49:38.79	358.83	20.85	-48.5	-60.7	3.8	7.43e-01	0	39	104	206569472	69	13902
2026-01-20 08:49:39.80	358.56	20.78	-48.5	-60.6	3.8	7.49e-01	0	39	104	206569472	67	15414
2026-01-20 08:49:40.80	358.30	20.70	-48.6	-60.7	3.8	7.42e-01	0	39	104	206569472	67	15624
2026-01-20 08:49:41.81	358.04	20.63	-52.1	-68.9	3.8	7.44e-01	0	39	104	206569472	74	26907
2026-01-20 08:49:42.82	357.78	20.55	-50.7	-64.5	3.8	7.45e-01	0	39	104	206569472	73	17272
2026-01-20 08:49:43.82	357.52	20.48	-50.4	-63.8	3.8	7.44e-01	0	38	104	206569472	71	17777
2026-01-20 08:49:44.83	357.26	20.40	-49.0	-61.4	3.8	7.47e-01	0	39	104	206569472	70	14339
2026-01-20 08:49:45.83	357.01	20.33	-49.0	-61.4	3.8	7.45e-01	0	39	104	206569472	70	14218
2026-01-20 08:49:46.84	356.75	20.25	-48.6	-60.8	3.8	7.45e-01	0	39	104	206569472	69	14170
2026-01-20 08:49:47.85	356.50	20.17	-48.5	-60.6	3.8	7.42e-01	0	38	104	206569472	67	15566
2026-01-20 08:49:48.85	356.25	20.10	-48.6	-60.6	3.8	7.46e-01	0	39	104	206569472	67	15510
2026-01-20 08:49:49.86	355.99	20.02	-52.1	-69.1	3.8	7.46e-01	0	39	104	206569472	74	27560
2026-01-20 08:49:50.87	355.74	19.94	-50.6	-64.2	3.8	7.42e-01	0	39	104	206569472	73	16665
2026-01-20 08:49:51.88	355.49	19.86	-50.7	-64.2	3.8	7.48e-01	0	39	104	206569472	71	18698
2026-01-20 08:49:52.88	355.25	19.79	-49.0	-61.3	3.8	7.45e-01	0	39	104	206569472	70	14098
2026-01-20 08:49:53.89	355.00	19.71	-48.7	-60.9	3.9	7.44e-01	0	39	104	206569472	69	14260
2026-01-20 08:49:54.90	354.76	19.63	-48.2	-60.2	3.8	7.43e-01	0	38	104	206569472	68	13906
2026-01-20 08:49:55.91	354.51	19.55	-48.6	-60.8	3.8	7.46e-01	0	39	104	206569472	67	15761
2026-01-20 08:49:56.91	354.27	19.47	-48.6	-60.7	3.8	7.49e-01	0	38	104	206569472	67	15712
2026-01-20 08:49:57.92	354.03	19.39	-52.1	-69.2	3.8	7.44e-01	0	39	104	206569472	74	27774
2026-01-20 08:49:58.93	353.79	19.31	-50.5	-64.0	3.8	7.45e-01	0	38	104	206569472	73	16313
2026-01-20 08:49:59.94	353.56	19.23	-50.4	-63.9	3.8	7.43e-01	0	39	104	206569472	71	18054
2026-01-20 08:50:00.94	353.32	19.15	-48.8	-61.2	3.8	7.45e-01	0	38	104	206569472	69	14818
2026-01-20 08:50:01.95	353.08	19.07	-48.9	-61.2	3.8	7.45e-01	0	39	104	206569472	69	14847
2026-01-20 08:50:02.96	352.85	18.99	-48.6	-60.7	3.8	7.44e-01	0	39	104	206569472	69	14015
2026-01-20 08:50:03.97	352.62	18.91	-49.6	-62.4	3.8	7.50e-01	0	39	104	206569472	69	17017
2026-01-20 08:50:04.97	352.39	18.83	-48.5	-60.6	3.8	7.45e-01	0	39	104	206569472	69	13815
2026-01-20 08:50:05.98	352.16	18.75	-52.1	-69.2	3.8	7.45e-01	0	39	104	206569472	74	27765
2026-01-20 08:50:06.99	351.93	18.67	-50.6	-64.5	3.8	7.45e-01	0	38	104	206569472	73	17168
2026-01-20 08:50:08.00	351.70	18.59	-50.4	-64.1	3.9	7.48e-01	0	38	104	206569472	71	18394
2026-01-20 08:50:09.01	351.47	18.50	-49.1	-61.3	3.8	7.44e-01	0	39	104	206569472	70	14183
2026-01-20 08:50:10.01	351.25	18.42	-48.8	-61.2	3.8	7.46e-01	0	38	104	206569472	69	14798
2026-01-20 08:50:11.02	351.03	18.34	-48.4	-60.6	3.8	7.44e-01	0	39	104	206569472	68	14619
2026-01-20 08:50:12.03	350.80	18.26	-48.6	-61.0	3.8	7.44e-01	0	38	104	206569472	68	15269
2026-01-20 08:50:13.04	350.58	18.18	-48.5	-60.6	3.8	7.46e-01	0	38	104	206569472	68	14574
2026-01-20 08:50:14.04	350.36	18.10	-52.1	-69.1	3.8	7.45e-01	0	39	104	206569472	74	27429
2026-01-20 08:50:15.05	350.15	18.01	-50.2	-63.7	3.8	7.42e-01	0	39	104	206569472	72	16538
2026-01-20 08:50:16.06	349.93	17.93	-50.2	-63.5	3.8	7.45e-01	0	39	104	206569472	70	18209
2026-01-20 08:50:17.07	349.71	17.85	-48.6	-61.0	3.8	7.45e-01	0	38	104	206569472	69	14515
2026-01-20 08:50:18.07	349.50	17.77	-48.3	-60.2	3.8	7.40e-01	0	39	104	206569472	68	13982
2026-01-20 08:50:19.08	349.29	17.68	-48.0	-60.1	3.8	7.47e-01	0	38	104	206569472	68	13807
2026-01-20 08:50:20.09	349.07	17.60	-49.3	-61.9	3.8	7.42e-01	0	39	104	206569472	69	16002
2026-01-20 08:50:21.10	348.86	17.52	-48.4	-60.6	3.8	7.42e-01	0	39	104	206569472	68	14614
2026-01-20 08:50:22.10	348.65	17.44	-52.1	-69.1	3.8	7.47e-01	0	38	104	206569472	74	27412
2026-01-20 08:50:23.11	348.44	17.35	-50.4	-63.8	3.8	7.41e-01	0	38	104	206569472	72	16699
2026-01-20 08:50:24.12	348.24	17.27	-50.3	-63.9	3.8	7.45e-01	0	39	104	206569472	71	18012
2026-01-20 08:50:25.13	348.03	17.19	-48.9	-61.1	3.8	7.47e-01	0	39	104	206569472	69	14683
2026-01-20 08:50:26.13	347.83	17.10	-49.0	-61.6	3.9	7.44e-01	0	39	104	206569472	69	15429
2026-01-20 08:50:27.14	347.62	17.02	-48.9	-61.4	3.8	7.44e-01	0	39	104	206569472	69	15205
2026-01-20 08:50:28.15	347.42	16.94	-48.9	-61.2	3.8	7.49e-01	0	38	104	206569472	69	14744
2026-01-20 08:50:29.15	347.22	16.86	-48.9	-61.3	3.8	7.47e-01	0	39	104	206569472	68	15817
2026-01-20 08:50:30.16	347.02	16.77	-52.0	-68.6	3.8	7.44e-01	0	39	104	206569472	74	26032
2026-01-20 08:50:31.17	346.82	16.69	-50.0	-63.1	3.9	7.44e-01	0	39	104	206569472	71	16349
2026-01-20 08:50:32.17	346.63	16.61	-50.0	-63.3	3.8	7.43e-01	0	39	104	206569472	70	17713
2026-01-20 08:50:33.18	346.43	16.52	-48.8	-61.2	3.8	7.45e-01	0	39	104	206569472	69	14771
2026-01-20 08:50:34.19	346.23	16.44	-48.7	-61.3	3.8	7.42e-01	0	39	104	206569472	69	14935
2026-01-20 08:50:35.20	346.04	16.36	-48.3	-60.0	3.8	7.43e-01	0	39	104	206569472	68	13582
2026-01-20 08:50:36.21	345.85	16.27	-47.8	-60.0	3.8	7.46e-01	0	38	104	206569472	67	14417
2026-01-20 08:50:37.22	345.65	16.19	-48.8	-60.7	3.8	7.43e-01	0	38	104	206569472	68	14802
2026-01-20 08:50:38.22	345.47	16.11	-52.0	-68.9	3.8	7.45e-01	0	39	104	206569472	74	26860
2026-01-20 08:50:39.23	345.28	16.02	-49.5	-62.1	3.8	7.45e-01	0	38	104	206569472	71	14555
2026-01-20 08:50:40.23	345.09	15.94	-49.6	-62.9	3.8	7.42e-01	0	38	104	206569472	70	17046
2026-01-20 08:50:41.24	344.90	15.86	-48.5	-60.4	3.8	7.46e-01	0	39	104	206569472	68	14213
2026-01-20 08:50:42.25	344.71	15.77	-48.4	-60.6	3.8	7.44e-01	0	39	104	206569472	68	14671
2026-01-20 08:50:43.26	344.53	15.69	-48.0	-59.8	3.8	7.44e-01	0	39	104	206569472	67	14069
2026-01-20 08:50:44.26	344.35	15.61	-48.2	-60.1	3.8	7.45e-01	0	38	104	206569472	67	14598
2026-01-20 08:50:45.27	344.16	15.52	-49.5	-62.4	3.8	7.44e-01	0	39	104	206569472	69	16908
2026-01-20 08:50:46.28	343.98	15.44	-51.8	-68.1	3.8	7.45e-01	0	39	104	206569472	74	24620
2026-01-20 08:50:47.29	343.80	15.36	-49.5	-62.7	3.8	7.46e-01	0	39	104	206569472	71	15632
2026-01-20 08:50:48.29	343.62	15.27	-49.4	-62.0	3.8	7.43e-01	0	39	104	206569472	70	15377
2026-01-20 08:50:49.30	343.44	15.19	-48.5	-60.9	3.8	7.45e-01	0	39	104	206569472	68	15189
2026-01-20 08:50:50.31	343.27	15.11	-48.2	-60.1	3.8	7.45e-01	0	38	104	206569472	68	13832
2026-01-20 08:50:51.32	343.09	15.02	-47.9	-59.9	3.8	7.44e-01	0	38	104	206569472	67	14300
2026-01-20 08:50:52.33	342.92	14.94	-48.2	-59.8	3.8	7.45e-01	0	38	104	206569472	67	14172
2026-01-20 08:50:53.34	342.74	14.86	-50.3	-64.1	3.8	7.44e-01	0	38	104	206569472	71	18468
2026-01-20 08:50:54.34	342.57	14.78	-51.6	-67.3	3.9	7.42e-01	0	39	104	206569472	74	22399
2026-01-20 08:50:55.35	342.40	14.69	-49.0	-61.2	3.8	7.43e-01	0	39	104	206569472	70	14042
2026-01-20 08:50:56.36	342.23	14.61	-49.2	-62.2	3.8	7.43e-01	0	39	104	206569472	70	15713
2026-01-20 08:50:57.37	342.06	14.53	-48.4	-59.9	3.8	7.45e-01	0	38	104	206569472	68	13531
2026-01-20 08:50:58.37	341.89	14.45	-48.3	-61.3	3.8	7.44e-01	0	38	104	206569472	68	15782
2026-01-20 08:50:59.38	341.72	14.36	-48.5	-60.0	3.8	7.41e-01	0	39	104	206569472	68	13617
2026-01-20 08:51:00.39	341.55	14.28	-49.2	-62.6	3.8	7.40e-01	0	39	104	206569472	70	16417
2026-01-20 08:51:01.40	341.39	14.20	-50.3	-63.6	3.8	7.45e-01	0	38	104	206569472	71	17379
2026-01-20 08:51:02.41	341.22	14.12	-51.6	-67.8	3.9	7.41e-01	0	39	104	206569472	74	23763
2026-01-20 08:51:03.41	341.06	14.03	-49.3	-61.7	3.9	7.42e-01	0	38	104	206569472	70	14734
2026-01-20 08:51:04.42	340.90	13.95	-49.6	-62.8	3.8	7.46e-01	0	38	104	206569472	70	16801
2026-01-20 08:51:05.43	340.73	13.87	-48.9	-61.2	3.8	7.43e-01	0	38	104	206569472	69	14724
2026-01-20 08:51:06.43	340.57	13.79	-48.7	-60.9	3.8	7.43e-01	0	39	104	206569472	69	14222
2026-01-20 08:51:07.44	340.41	13.71	-48.7	-61.3	3.8	7.46e-01	0	39	104	206569472	69	14939
2026-01-20 08:51:08.45	340.25	13.62	-48.6	-60.3	3.8	7.47e-01	0	38	104	206569472	69	13383
2026-01-20 08:51:09.46	340.10	13.54	-51.0	-65.9	3.8	7.47e-01	0	38	104	206569472	72	21295
2026-01-20 08:51:10.47	339.94	13.46	-51.3	-66.2	3.9	7.42e-01	0	39	104	206569472	74	19637
2026-01-20 08:51:11.48	339.78	13.38	-48.5	-60.8	3.8	7.47e-01	0	39	104	206569472	69	14184
2026-01-20 08:51:12.48	339.63	13.30	-49.0	-61.6	3.8	7.44e-01	0	38	104	206569472	69	15521
2026-01-20 08:51:13.49	339.47	13.22	-48.6	-60.5	3.8	7.46e-01	0	38	104	206569472	69	13717
2026-01-20 08:51:14.50	339.32	13.14	-48.6	-61.2	3.8	7.47e-01	0	39	104	206569472	69	14871
2026-01-20 08:51:15.51	339.17	13.06	-48.0	-59.7	3.8	7.46e-01	0	38	104	206569472	68	13194
2026-01-20 08:51:16.52	339.01	12.97	-48.1	-60.0	3.8	7.46e-01	0	39	104	206569472	67	14533
2026-01-20 08:51:17.52	338.87	12.89	-51.5	-67.1	3.8	7.43e-01	0	39	104	206569472	73	23145
2026-01-20 08:51:18.53	338.72	12.81	-50.4	-64.9	3.8	7.44e-01	0	38	104	206569472	73	17944
2026-01-20 08:51:19.54	338.57	12.73	-48.5	-51.5	17.4	6.01e-01	0	38	0	206569472	69	4855
2026-01-20 08:51:20.54	338.42	12.65	-48.5	-51.6	17.4	6.04e-01	0	38	0	208666624	69	4881
2026-01-20 08:51:21.55	338.27	12.57	-48.3	-51.2	17.9	5.99e-01	0	38	0	210239488	68	4945
2026-01-20 08:51:22.56	338.13	12.49	-48.3	-51.3	17.7	6.01e-01	0	38	0	212336640	68	5000
2026-01-20 08:51:23.57	337.98	12.41	-47.7	-50.2	19.0	6.01e-01	0	38	0	213909504	67	4695
2026-01-20 08:51:24.57	337.84	12.33	-48.0	-50.8	18.4	5.99e-01	0	38	0	216006656	67	5013
2026-01-20 08:51:25.58	337.69	12.25	-48.0	-50.7	18.4	6.02e-01	0	38	0	217579520	67	4982
2026-01-20 08:51:26.59	337.55	12.17	-48.0	-50.6	18.6	6.01e-01	0	38	0	219676672	67	4897
2026-01-20 08:51:27.60	337.41	12.09	-48.5	-51.6	17.8	6.02e-01	0	38	0	221773824	67	5493
2026-01-20 08:51:28.60	337.27	12.01	-48.3	-51.2	17.9	6.01e-01	0	38	0	223346688	67	5267
2026-01-20 08:51:29.61	337.13	11.93	-48.0	-50.7	18.5	5.99e-01	0	39	0	225443840	67	4950
2026-01-20 08:51:30.62	336.99	11.85	-48.3	-51.2	18.0	5.99e-01	0	38	0	227016704	67	5242
2026-01-20 08:51:31.63	336.85	11.78	-48.0	-50.6	18.5	6.02e-01	0	39	0	229113856	67	4916
2026-01-20 08:51:32.63	336.71	11.70	-47.9	-50.6	18.6	5.99e-01	0	38	0	231211008	67	4886
2026-01-20 08:51:33.64	336.58	11.62	-48.2	-51.0	18.3	6.01e-01	0	39	0	232783872	67	5119
2026-01-20 08:51:34.65	336.44	11.54	-47.8	-50.4	18.8	6.00e-01	0	38	0	234881024	67	4785
2026-01-20 08:51:35.66	336.30	11.46	-47.6	-50.1	19.1	6.04e-01	0	38	0	236978176	67	4635
2026-01-20 08:51:36.67	336.17	11.38	-47.8	-50.4	18.8	6.02e-01	0	39	0	238551040	67	4807
2026-01-20 08:51:37.68	336.03	11.30	-47.8	-50.4	18.8	5.99e-01	0	38	0	240648192	67	4804
2026-01-20 08:51:38.68	335.90	11.23	-48.0	-50.7	18.6	6.00e-01	0	38	0	242221056	67	4933
2026-01-20 08:51:39.69	335.77	11.15	-48.0	-50.7	18.5	6.01e-01	0	38	0	244318208	67	4966
2026-01-20 08:51:40.70	335.64	11.07	-48.0	-50.8	18.4	5.99e-01	0	38	0	245891072	67	5010
2026-01-20 08:51:41.71	335.51	10.99	-47.9	-50.6	18.6	6.00e-01	0	39	0	247988224	67	4891
2026-01-20 08:51:42.71	335.38	10.91	-47.9	-50.6	18.6	6.02e-01	0	38	0	250085376	67	4887
2026-01-20 08:51:43.72	335.25	10.84	-47.9	-50.5	18.6	5.99e-01	0	38	0	251658240	67	4857
2026-01-20 08:51:44.73	335.12	10.76	-47.9	-50.5	18.6	6.00e-01	0	38	0	253755392	67	4863
2026-01-20 08:51:45.74	334.99	10.68	-48.0	-50.8	18.4	6.01e-01	0	38	0	255852544	67	4990
2026-01-20 08:51:46.75	334.87	10.60	-48.0	-50.7	18.5	5.99e-01	0	38	0	257425408	67	4949
2026-01-20 08:51:47.75	334.74	10.53	-48.0	-50.8	18.4	5.99e-01	0	38	0	259522560	67	5013
2026-01-20 08:51:48.76	334.62	10.45	-48.0	-50.8	18.4	6.01e-01	0	38	0	261095424	67	4984
2026-01-20 08:51:49.77	334.49	10.37	-48.0	-50.8	18.4	6.03e-01	0	38	0	263192576	67	5001
2026-01-20 08:51:50.78	334.37	10.30	-48.1	-50.9	18.3	6.01e-01	0	38	0	265289728	67	5047
2026-01-20 08:51:51.78	334.24	10.22	-47.9	-50.5	18.7	6.01e-01	0	38	0	266862592	67	4843
2026-01-20 08:51:52.79	334.12	10.15	-48.1	-50.9	18.2	6.04e-01	0	38	0	268959744	67	5089
2026-01-20 08:51:53.80	334.00	10.07	-48.1	-50.9	18.2	6.00e-01	0	39	0	270532608	67	5087
2026-01-20 08:51:54.81	333.88	9.99	-48.1	-50.9	18.2	6.02e-01	0	39	0	272629760	67	5085
2026-01-20 08:51:55.82	333.76	9.92	-48.2	-51.1	18.0	6.01e-01	0	38	0	274202624	67	5190
2026-01-20 08:51:56.82	333.64	9.84	-48.2	-51.0	18.1	6.02e-01	0	38	0	276299776	67	5135
2026-01-20 08:51:57.83	333.52	9.77	-48.1	-51.0	18.2	6.02e-01	0	38	0	278396928	67	5106
2026-01-20 08:51:58.84	333.40	9.69	-48.1	-50.9	18.3	6.00e-01	0	38	0	280494080	67	5052
2026-01-20 08:51:59.84	333.28	9.62	-48.1	-51.0	18.2	6.03e-01	0	38	0	282066944	67	5128
2026-01-20 08:52:00.85	333.17	9.54	-48.1	-50.9	18.2	5.99e-01	0	38	0	284164096	67	5100
2026-01-20 08:52:01.86	333.05	9.47	-48.1	-50.9	18.3	6.00e-01	0	39	0	285736960	67	5060
2026-01-20 08:52:02.87	332.93	9.39	-48.1	-51.0	18.1	6.03e-01	0	39	0	287834112	67	5115
2026-01-20 08:52:03.87	332.82	9.32	-48.3	-51.2	17.9	6.04e-01	0	38	0	289406976	67	5245
2026-01-20 08:52:04.88	332.71	9.24	-48.3	-51.3	17.9	6.02e-01	0	38	0	291504128	67	5290
2026-01-20 08:52:05.89	332.59	9.17	-48.2	-51.0	18.1	6.01e-01	0	38	0	293601280	67	5130
2026-01-20 08:52:06.90	332.48	9.09	-48.3	-51.2	17.9	6.01e-01	0	38	0	295174144	67	5246
2026-01-20 08:52:07.90	332.37	9.02	-48.2	-51.1	18.0	5.99e-01	0	39	0	297271296	67	5215
2026-01-20 08:52:08.91	332.26	8.94	-48.2	-51.2	18.0	5.99e-01	0	38	0	298844160	67	5229
2026-01-20 08:52:09.92	332.14	8.87	-48.3	-51.2	17.9	6.03e-01	0	38	0	300941312	67	5265
2026-01-20 08:52:10.92	332.03	8.80	-48.3	-51.3	17.8	6.02e-01	0	38	0	303038464	67	5293
2026-01-20 08:52:11.93	331.92	8.72	-48.3	-51.2	17.9	5.99e-01	0	38	0	304611328	67	5253
2026-01-20 08:52:12.94	331.82	8.65	-48.2	-51.1	18.0	6.01e-01	0	39	0	306708480	67	5181
2026-01-20 08:52:13.95	331.71	8.58	-48.1	-50.9	18.2	6.01e-01	0	38	0	308805632	67	5067
2026-01-20 08:52:14.96	331.60	8.50	-48.3	-51.3	17.9	6.04e-01	0	38	0	310378496	67	5281
2026-01-20 08:52:15.96	331.49	8.43	-48.2	-51.1	18.0	6.00e-01	0	38	0	312475648	67	5199
2026-01-20 08:52:16.97	331.38	8.36	-48.4	-51.5	17.6	6.00e-01	0	38	0	314048512	67	5432
2026-01-20 08:52:17.98	331.28	8.29	-48.4	-51.5	17.5	6.01e-01	0	38	0	316145664	67	5453
2026-01-20 08:52:18.99	331.17	8.21	-48.3	-51.3	17.7	6.02e-01	0	38	0	317718528	67	5333
2026-01-20 08:52:19.99	331.07	8.14	-48.4	-51.4	17.7	6.00e-01	0	39	0	319815680	67	5381
2026-01-20 08:52:21.00	330.96	8.07	-48.4	-51.4	17.7	6.03e-01	0	38	0	321912832	67	5358
2026-01-20 08:52:22.01	330.86	8.00	-48.2	-51.1	17.9	6.03e-01	0	38	0	323485696	67	5197
2026-01-20 08:52:23.02	330.76	7.92	-48.3	-51.2	17.8	6.01e-01	0	38	0	325582848	67	5271
2026-01-20 08:52:24.03	330.65	7.85	-48.4	-51.4	17.6	6.03e-01	0	38	0	327680000	67	5382
2026-01-20 08:52:25.03	330.55	7.78	-48.4	-51.4	17.7	6.00e-01	0	39	0	329252864	67	5381
2026-01-20 08:52:26.04	330.45	7.71	-48.4	-51.4	17.7	6.02e-01	0	38	0	331350016	67	5379
2026-01-20 08:52:27.05	330.35	7.64	-48.4	-51.5	17.6	6.00e-01	0	38	0	332922880	67	5413
2026-01-20 08:52:28.06	330.25	7.57	-48.5	-51.6	17.5	6.01e-01	0	38	0	335020032	67	5475
2026-01-20 08:52:29.07	330.15	7.49	-48.5	-51.7	17.4	6.00e-01	0	38	0	337117184	67	5554
2026-01-20 08:52:30.07	330.05	7.42	-48.7	-52.0	17.1	6.00e-01	0	39	0	338690048	67	5739
2026-01-20 08:52:31.08	329.95	7.35	-48.6	-51.8	17.2	6.02e-01	0	38	0	340787200	67	5610
2026-01-20 08:52:32.09	329.85	7.28	-48.6	-51.8	17.3	6.00e-01	0	39	0	342360064	67	5607
2026-01-20 08:52:33.10	329.75	7.21	-48.4	-51.5	17.6	6.01e-01	0	39	0	344457216	67	5425
2026-01-20 08:52:34.11	329.66	7.14	-48.6	-51.9	17.2	5.98e-01	0	38	0	346030080	67	5657
2026-01-20 08:52:35.11	329.56	7.07	-48.6	-51.9	17.2	6.03e-01	0	38	0	348127232	67	5670
2026-01-20 08:52:36.12	329.46	7.00	-48.6	-51.7	17.3	6.01e-01	0	38	0	350224384	67	5587
2026-01-20 08:52:37.13	329.37	6.93	-48.6	-51.7	17.3	6.00e-01	0	38	0	351797248	67	5565
2026-01-20 08:52:38.13	329.27	6.86	-48.3	-51.3	17.7	6.02e-01	0	38	0	353894400	67	5310
2026-01-20 08:52:39.14	329.18	6.79	-48.4	-51.5	17.6	6.02e-01	0	39	0	355991552	67	5421
2026-01-20 08:52:40.15	329.08	6.72	-48.5	-51.7	17.4	6.01e-01	0	38	0	357564416	67	5546
2026-01-20 08:52:41.16	328.99	6.65	-48.7	-52.0	17.1	6.00e-01	0	38	0	359661568	67	5728
2026-01-20 08:52:42.17	328.90	6.58	-48.7	-52.0	17.0	6.00e-01	0	39	0	361234432	67	5740
2026-01-20 08:52:43.17	328.81	6.51	-48.8	-52.2	16.8	6.04e-01	0	38	0	363331584	68	5542
2026-01-20 08:52:44.18	328.71	6.45	-48.7	-52.1	16.9	5.99e-01	0	39	0	365428736	68	5501
2026-01-20 08:52:45.19	328.62	6.38	-48.8	-52.3	16.6	6.04e-01	0	38	0	367001600	68	5615
2026-01-20 08:52:46.19	328.53	6.31	-48.5	-51.8	17.2	6.01e-01	0	38	0	369098752	68	5289
2026-01-20 08:52:47.20	328.44	6.24	-48.7	-52.1	16.8	6.00e-01	0	38	0	370671616	68	5471
2026-01-20 08:52:48.21	328.35	6.17	-48.6	-51.8	17.1	6.03e-01	0	38	0	372768768	68	5339
2026-01-20 08:52:49.22	328.26	6.10	-48.7	-52.1	16.8	6.02e-01	0	39	0	374341632	68	5467
2026-01-20 08:52:50.23	328.17	6.03	-48.7	-52.0	16.8	6.01e-01	0	38	0	376438784	68	5463
2026-01-20 08:52:51.24	328.08	5.97	-48.8	-52.4	16.5	6.01e-01	0	38	0	378535936	68	5665
2026-01-20 08:52:52.24	327.99	5.90	-48.7	-52.0	16.8	6.01e-01	0	39	0	380108800	68	5459
2026-01-20 08:52:53.25	327.91	5.83	-48.6	-52.0	17.0	6.02e-01	0	38	0	382205952	68	5403
2026-01-20 08:52:54.26	327.82	5.76	-48.9	-52.4	16.5	5.97e-01	0	38	0	384303104	68	5684
2026-01-20 08:52:55.27	327.73	5.69	-48.9	-52.5	16.4	6.00e-01	0	38	0	385875968	68	5732
2026-01-20 08:52:56.28	327.65	5.63	-48.8	-52.3	16.6	6.03e-01	0	38	0	387973120	68	5639
2026-01-20 08:52:57.28	327.56	5.56	-48.8	-52.3	16.6	6.00e-01	0	39	0	389545984	68	5627
2026-01-20 08:52:58.29	327.47	5.49	-48.9	-52.6	16.3	6.02e-01	0	38	0	391643136	68	5815
2026-01-20 08:52:59.30	327.39	5.43	-48.9	-52.5	16.4	6.00e-01	0	38	0	393740288	68	5744
2026-01-20 08:53:00.31	327.30	5.36	-49.1	-52.8	16.0	5.99e-01	0	38	0	395313152	68	5949
2026-01-20 08:53:01.31	327.22	5.29	-48.7	-52.1	16.6	6.00e-01	0	38	0	397410304	68	5511
2026-01-20 08:53:02.32	327.14	5.23	-48.8	-52.3	16.6	6.02e-01	0	38	0	399507456	68	5595
2026-01-20 08:53:03.33	327.05	5.16	-49.0	-52.6	16.3	6.02e-01	0	38	0	401080320	68	5846
2026-01-20 08:53:04.34	326.97	5.09	-48.9	-52.4	16.4	6.02e-01	0	38	0	403177472	69	5367
2026-01-20 08:53:05.34	326.89	5.03	-48.7	-52.2	16.8	6.02e-01	0	39	0	404750336	69	5240
2026-01-20 08:53:06.35	326.81	4.96	-52.0	-69.4	3.8	7.47e-01	0	39	104	405798912	74	28666
2026-01-20 08:53:07.36	326.72	4.89	-52.2	-69.9	3.8	7.45e-01	0	38	104	405798912	74	30343
2026-01-20 08:53:08.37	326.64	4.83	-52.3	-70.1	3.8	7.47e-01	0	39	104	405798912	75	29204
2026-01-20 08:53:09.37	326.56	4.76	-52.4	-70.2	3.8	7.46e-01	0	39	104	405798912	75	29553
2026-01-20 08:53:10.38	326.48	4.70	-52.4	-70.3	3.8	7.43e-01	0	38	104	405798912	75	29818
2026-01-20 08:53:11.39	326.40	4.63	-52.5	-70.4	3.8	7.45e-01	0	38	104	405798912	75	30062
2026-01-20 08:53:12.40	326.32	4.57	-52.6	-70.4	3.8	7.45e-01	0	38	104	405798912	75	30332
2026-01-20 08:53:13.41	326.24	4.50	-52.6	-70.5	3.8	7.43e-01	0	38	104	405798912	75	30507
2026-01-20 08:53:14.42	326.16	4.44	-52.7	-70.6	3.8	7.48e-01	0	39	104	405798912	75	30732
2026-01-20 08:53:15.43	326.09	4.37	-52.8	-70.6	3.8	7.42e-01	0	38	104	405798912	76	29210
2026-01-20 08:53:16.43	326.01	4.31	-52.8	-70.6	3.8	7.46e-01	0	39	104	405798912	76	29250
2026-01-20 08:53:17.44	325.93	4.24	-52.8	-70.7	3.8	7.42e-01	0	39	104	405798912	76	29354
2026-01-20 08:53:18.45	325.85	4.18	-52.8	-70.7	3.8	7.44e-01	0	39	104	405798912	76	29385
2026-01-20 08:53:19.46	325.78	4.11	-52.9	-70.7	3.8	7.49e-01	0	39	104	405798912	76	29523
2026-01-20 08:53:20.46	325.70	4.05	-52.9	-70.7	3.8	7.46e-01	0	39	104	405798912	76	29598
2026-01-20 08:53:21.47	325.62	3.98	-52.9	-70.7	3.8	7.42e-01	0	38	104	405798912	76	29526
2026-01-20 08:53:22.48	325.55	3.92	-52.9	-70.7	3.8	7.44e-01	0	38	104	405798912	76	29629
2026-01-20 08:53:23.49	325.47	3.86	-52.9	-70.7	3.8	7.46e-01	0	38	104	405798912	76	29668
2026-01-20 08:53:24.49	325.40	3.79	-52.9	-70.7	3.8	7.45e-01	0	38	104	405798912	76	29649
2026-01-20 08:53:25.50	325.32	3.73	-52.9	-70.7	3.8	7.43e-01	0	39	104	405798912	76	29645
2026-01-20 08:53:26.51	325.25	3.67	-52.9	-70.8	3.8	7.43e-01	0	38	104	405798912	76	29741
2026-01-20 08:53:27.52	325.18	3.60	-52.9	-70.7	3.8	7.48e-01	0	38	104	405798912	76	29571
2026-01-20 08:53:28.53	325.10	3.54	-52.9	-70.7	3.8	7.43e-01	0	39	104	405798912	76	29400
2026-01-20 08:53:29.53	325.03	3.48	-52.8	-70.7	3.8	7.48e-01	0	38	104	405798912	76	29382
2026-01-20 08:53:30.54	324.96	3.41	-52.8	-70.7	3.8	7.44e-01	0	39	104	405798912	76	29370
2026-01-20 08:53:31.55	324.89	3.35	-52.8	-70.6	3.8	7.47e-01	0	38	104	405798912	76	29342
2026-01-20 08:53:32.56	324.81	3.29	-52.8	-70.7	3.8	7.48e-01	0	38	104	405798912	76	29445
2026-01-20 08:53:33.57	324.74	3.22	-52.8	-70.6	3.8	7.46e-01	0	39	104	405798912	76	29302
2026-01-20 08:53:34.57	324.67	3.16	-52.8	-70.7	3.8	7.43e-01	0	39	104	405798912	76	29395
2026-01-20 08:53:35.58	324.60	3.10	-52.8	-70.6	3.8	7.45e-01	0	38	104	405798912	76	29282
2026-01-20 08:53:36.59	324.53	3.04	-52.8	-70.6	3.8	7.44e-01	0	38	104	405798912	76	29275
2026-01-20 08:53:37.60	324.46	2.97	-52.8	-70.6	3.8	7.45e-01	0	38	104	405798912	76	29208
2026-01-20 08:53:38.61	324.39	2.91	-52.8	-70.6	3.8	7.46e-01	0	39	104	405798912	76	29271
2026-01-20 08:53:39.62	324.32	2.85	-52.8	-70.6	3.8	7.43e-01	0	39	104	405798912	76	29268
2026-01-20 08:53:40.62	324.25	2.79	-52.8	-70.6	3.8	7.42e-01	0	38	104	405798912	76	29286
2026-01-20 08:53:41.64	324.18	2.73	-52.8	-70.6	3.8	7.44e-01	0	39	104	405798912	76	29181
2026-01-20 08:53:42.64	324.11	2.66	-52.8	-70.6	3.8	7.47e-01	0	39	104	405798912	76	29195
2026-01-20 08:53:43.65	324.04	2.60	-52.8	-70.6	3.8	7.43e-01	0	38	104	405798912	76	29179
2026-01-20 08:53:44.66	323.98	2.54	-52.8	-70.6	3.8	7.45e-01	0	38	104	405798912	76	29225
2026-01-20 08:53:45.66	323.91	2.48	-52.8	-70.6	3.8	7.48e-01	0	39	104	405798912	76	29125
2026-01-20 08:53:46.67	323.84	2.42	-52.7	-70.6	3.8	7.44e-01	0	39	104	405798912	76	29113
2026-01-20 08:53:47.68	323.78	2.36	-52.8	-70.6	3.8	7.50e-01	0	39	104	405798912	76	29155
2026-01-20 08:53:48.69	323.71	2.30	-52.7	-70.6	3.8	7.43e-01	0	39	104	405798912	76	29064
2026-01-20 08:53:49.69	323.64	2.24	-52.8	-70.6	3.8	7.46e-01	0	38	104	405798912	76	29113
2026-01-20 08:53:50.70	323.58	2.17	-52.7	-70.6	3.8	7.46e-01	0	39	104	405798912	76	29056
2026-01-20 08:53:51.71	323.51	2.11	-52.7	-70.6	3.8	7.44e-01	0	39	104	405798912	76	29015
2026-01-20 08:53:52.72	323.45	2.05	-52.7	-70.5	3.8	7.44e-01	0	39	104	405798912	76	28976
2026-01-20 08:53:53.73	323.38	1.99	-52.7	-70.5	3.8	7.43e-01	0	39	104	405798912	76	28997
