passes_logs/2026/01/20/R3.2S_Murmansk/R3.2S_Murmansk__20260120_013829_NOAA_20_JPSS-1_rec.log

#Pass ID: 20260120_013829_NOAA 20 (JPSS-1)
#Satellite: NOAA 20 (JPSS-1)
#Configuration: NOAA 20
#almurnet v.1.7.20251203
#Start time: 2026-01-20 01:38:29

#Version: 2.2.20231116
#Station: R3.2S_Murmansk
#Location: 33.079688 lon 68.888172 lat
#TLE: 1 43013U 17073A   26019.27717929  .00000087  00000+0  62288-4 0  9995
#TLE: 2 43013  98.7641 320.1715 0001339  33.1986 326.9274 14.19537047423343

#Time	Az	El	Level	Level2	SNR	BER	BlckErr	Temp	State	Recorded	gain1	gain2
2026-01-20 01:38:29.47	28.76	2.00	-51.6	-66.5	3.8	1.49e+00	0	37	0	0	75	19302
2026-01-20 01:38:30.47	28.74	2.06	-51.6	-66.4	3.8	1.49e+00	0	37	104	0	73	21461
2026-01-20 01:38:31.48	28.72	2.12	-51.6	-66.4	3.8	1.49e+00	0	37	104	0	73	21348
2026-01-20 01:38:32.48	28.70	2.19	-51.5	-66.2	3.8	1.49e+00	0	37	104	0	73	20910
2026-01-20 01:38:33.49	28.68	2.25	-51.5	-66.2	3.8	1.49e+00	0	37	104	0	73	20984
2026-01-20 01:38:34.50	28.66	2.32	-51.5	-66.0	3.8	1.49e+00	0	37	104	0	73	20347
2026-01-20 01:38:35.51	28.64	2.38	-51.5	-65.9	3.8	1.49e+00	0	37	104	0	73	20148
2026-01-20 01:38:36.52	28.62	2.45	-51.5	-65.9	3.8	1.49e+00	0	37	104	0	73	20136
2026-01-20 01:38:37.52	28.60	2.51	-51.5	-65.6	3.8	1.49e+00	0	37	104	0	73	19582
2026-01-20 01:38:38.53	28.58	2.57	-51.5	-65.6	3.8	1.49e+00	0	37	104	0	73	19456
2026-01-20 01:38:39.54	28.56	2.64	-51.5	-65.0	3.8	1.49e+00	0	37	104	0	73	18298
2026-01-20 01:38:40.55	28.53	2.71	-51.5	-65.1	3.8	1.49e+00	0	37	104	0	73	18373
2026-01-20 01:38:41.55	28.51	2.77	-51.5	-64.5	3.8	1.49e+00	0	37	104	0	73	17124
2026-01-20 01:38:42.56	28.49	2.84	-51.5	-64.3	3.8	1.48e+00	0	37	104	0	73	16813
2026-01-20 01:38:43.57	28.47	2.90	-51.5	-64.5	3.8	1.49e+00	0	38	104	0	73	17271
2026-01-20 01:38:44.58	28.45	2.97	-51.5	-65.0	3.8	1.49e+00	0	37	104	0	73	18268
2026-01-20 01:38:45.58	28.43	3.03	-51.5	-65.4	3.8	1.49e+00	0	37	104	0	73	19081
2026-01-20 01:38:46.59	28.40	3.10	-51.5	-65.8	3.8	1.49e+00	0	37	104	0	73	19861
2026-01-20 01:38:47.60	28.38	3.16	-51.5	-65.1	3.8	1.49e+00	0	37	104	0	73	18379
2026-01-20 01:38:48.61	28.36	3.23	-51.4	-63.4	4.1	1.48e+00	0	38	104	0	73	15194
2026-01-20 01:38:49.62	28.34	3.30	-51.2	-61.4	4.7	1.12e+00	0	38	0	1048576	73	12053
2026-01-20 01:38:50.63	28.31	3.36	-50.9	-59.2	6.1	5.62e-01	0	37	0	2097152	73	9353
2026-01-20 01:38:51.63	28.29	3.43	-50.8	-58.3	7.0	1.77e-01	0	38	0	4194304	73	8414
2026-01-20 01:38:52.64	28.27	3.50	-50.5	-56.9	8.2	1.03e-01	0	38	0	6291456	73	7203
2026-01-20 01:38:53.65	28.25	3.57	-50.2	-55.9	9.3	3.72e-02	0	38	0	8388608	72	6750
2026-01-20 01:38:54.66	28.22	3.63	-50.1	-55.7	9.5	2.42e-02	0	38	0	10485760	72	6581
2026-01-20 01:38:55.67	28.20	3.70	-49.9	-54.9	10.4	8.71e-03	0	38	0	11534336	71	6362
2026-01-20 01:38:56.67	28.18	3.77	-49.8	-54.6	10.9	1.91e-03	0	38	0	13631488	71	6138
2026-01-20 01:38:57.68	28.15	3.83	-49.6	-54.0	11.4	1.61e-03	0	38	0	15728640	71	5746
2026-01-20 01:38:58.69	28.13	3.90	-49.5	-53.9	11.6	9.42e-04	0	38	0	17825792	71	5685
2026-01-20 01:38:59.70	28.11	3.97	-49.5	-53.8	11.6	9.79e-04	0	38	0	19922944	71	5623
2026-01-20 01:39:00.70	28.08	4.04	-49.7	-54.3	11.1	9.66e-04	0	38	0	20971520	70	6329
2026-01-20 01:39:01.70	28.06	4.11	-49.8	-54.7	10.6	3.05e-03	0	38	0	23068672	70	6634
2026-01-20 01:39:02.71	28.04	4.18	-49.7	-54.3	11.1	1.57e-03	0	38	0	25165824	70	6330
2026-01-20 01:39:03.72	28.01	4.24	-49.9	-55.0	10.3	4.59e-03	0	38	0	27262976	70	6832
2026-01-20 01:39:04.73	27.99	4.31	-50.3	-56.2	9.1	1.30e-02	0	38	0	29360128	71	7411
2026-01-20 01:39:05.73	27.96	4.38	-50.3	-56.2	9.1	1.96e-02	0	38	0	30408704	71	7429
2026-01-20 01:39:06.74	27.94	4.45	-50.4	-56.5	8.7	3.44e-02	0	38	0	32505856	71	7645
2026-01-20 01:39:07.75	27.91	4.52	-50.7	-57.4	7.8	5.85e-02	0	38	0	34603008	71	8555
2026-01-20 01:39:08.76	27.89	4.59	-50.8	-58.5	6.7	1.31e-01	0	38	0	36700160	72	9134
2026-01-20 01:39:09.77	27.86	4.66	-50.9	-59.1	6.2	2.44e-01	0	38	0	38797312	72	9826
2026-01-20 01:39:10.77	27.84	4.73	-51.0	-59.7	5.8	3.27e-01	0	38	0	40894464	72	10527
2026-01-20 01:39:11.78	27.81	4.80	-51.1	-60.5	5.3	5.21e-01	0	38	0	41943040	72	11427
2026-01-20 01:39:12.79	27.79	4.87	-51.1	-60.8	5.1	5.81e-01	0	38	0	44040192	72	11819
2026-01-20 01:39:13.79	27.76	4.94	-51.2	-61.2	4.8	6.99e-01	0	38	0	46137344	72	12491
2026-01-20 01:39:14.80	27.74	5.01	-51.3	-62.8	4.2	1.15e+00	0	38	0	47185920	73	14085
2026-01-20 01:39:15.81	27.71	5.08	-50.1	-54.7	10.8	9.77e-01	0	38	0	48234496	72	5921
2026-01-20 01:39:16.82	27.69	5.15	-51.4	-60.5	5.6	1.73e-03	0	38	0	50331648	73	10876
2026-01-20 01:39:17.83	27.66	5.22	-51.3	-64.3	3.8	1.03e+00	0	38	104	52428800	73	16810
2026-01-20 01:39:18.83	27.63	5.30	-51.0	-57.8	7.5	1.39e+00	0	38	104	52428800	73	7975
2026-01-20 01:39:19.84	27.61	5.37	-51.4	-64.6	3.8	1.80e-01	0	38	104	53477376	73	17392
2026-01-20 01:39:20.85	27.58	5.44	-50.9	-57.4	7.9	8.82e-01	0	38	104	53477376	73	7617
2026-01-20 01:39:21.86	27.55	5.51	-50.8	-56.9	8.8	3.11e-02	0	38	0	54525952	73	7183
2026-01-20 01:39:22.87	27.53	5.58	-50.9	-56.9	8.8	3.28e-02	0	38	0	56623104	73	7171
2026-01-20 01:39:23.88	27.50	5.66	-50.8	-56.5	9.2	1.98e-02	0	38	0	58720256	73	6877
2026-01-20 01:39:24.88	27.47	5.73	-50.5	-55.5	10.4	9.22e-03	0	38	0	60817408	73	6104
2026-01-20 01:39:25.89	27.45	5.80	-50.0	-54.1	11.9	1.03e-03	0	38	0	62914560	72	5527
2026-01-20 01:39:26.90	27.42	5.87	-49.9	-53.9	12.3	1.33e-04	0	38	0	63963136	71	5660
2026-01-20 01:39:27.91	27.39	5.95	-49.7	-53.3	12.9	1.01e-04	0	38	0	66060288	71	5325
2026-01-20 01:39:28.91	27.36	6.02	-49.8	-53.5	12.7	3.89e-05	0	38	0	68157440	71	5444
2026-01-20 01:39:29.92	27.33	6.09	-49.4	-52.7	13.5	5.64e-05	0	38	0	70254592	70	5278
2026-01-20 01:39:30.93	27.31	6.17	-49.6	-53.0	13.3	3.00e-06	0	38	0	71303168	70	5458
2026-01-20 01:39:31.94	27.28	6.24	-48.9	-51.7	14.7	0.00e+00	0	38	0	73400320	69	4958
2026-01-20 01:39:32.95	27.25	6.32	-48.4	-51.0	15.5	0.00e+00	0	38	0	75497472	68	4826
2026-01-20 01:39:33.95	27.22	6.39	-48.9	-51.8	14.5	7.00e-07	0	38	0	77594624	68	5333
2026-01-20 01:39:34.96	27.19	6.46	-48.9	-51.8	14.6	7.00e-07	0	38	0	79691776	68	5326
2026-01-20 01:39:35.97	27.16	6.54	-48.4	-51.0	15.4	0.00e+00	0	38	0	81788928	68	4834
2026-01-20 01:39:36.98	27.13	6.61	-47.8	-50.0	16.4	0.00e+00	0	38	0	82837504	67	4577
2026-01-20 01:39:37.98	27.10	6.69	-47.9	-50.1	16.3	0.00e+00	0	38	0	84934656	67	4642
2026-01-20 01:39:38.99	27.08	6.76	-47.3	-49.4	17.1	0.00e+00	0	38	0	87031808	66	4498
2026-01-20 01:39:40.00	27.05	6.84	-47.2	-49.2	17.3	0.00e+00	0	38	0	89128960	66	4407
2026-01-20 01:39:41.01	27.02	6.92	-47.1	-49.1	17.4	0.00e+00	0	38	0	91226112	66	4352
2026-01-20 01:39:42.01	26.99	6.99	-47.1	-49.0	17.5	0.00e+00	0	38	0	92274688	66	4335
2026-01-20 01:39:43.02	26.96	7.07	-46.9	-48.8	17.7	0.00e+00	0	38	0	94371840	65	4459
2026-01-20 01:39:44.03	26.93	7.14	-47.3	-49.2	17.3	0.00e+00	0	38	0	96468992	65	4697
2026-01-20 01:39:45.04	26.89	7.22	-47.0	-48.8	17.7	0.00e+00	0	39	0	98566144	65	4490
2026-01-20 01:39:46.05	26.86	7.30	-47.0	-48.8	17.7	0.00e+00	0	38	0	99614720	65	4489
2026-01-20 01:39:47.06	26.83	7.37	-46.9	-48.8	17.7	0.00e+00	0	38	0	101711872	65	4458
2026-01-20 01:39:48.06	26.80	7.45	-47.0	-48.8	17.7	0.00e+00	0	38	0	103809024	65	4475
2026-01-20 01:39:49.07	26.77	7.53	-46.9	-48.7	17.8	0.00e+00	0	38	0	105906176	65	4420
2026-01-20 01:39:50.08	26.74	7.61	-47.0	-48.8	17.7	0.00e+00	0	38	0	108003328	65	4490
2026-01-20 01:39:51.09	26.71	7.68	-46.9	-48.7	17.8	0.00e+00	0	38	0	110100480	65	4433
2026-01-20 01:39:52.09	26.68	7.76	-47.0	-48.8	17.7	0.00e+00	0	38	0	111149056	65	4478
2026-01-20 01:39:53.10	26.64	7.84	-46.9	-48.8	17.8	0.00e+00	0	38	0	113246208	65	4448
2026-01-20 01:39:54.11	26.61	7.92	-46.9	-48.8	17.8	0.00e+00	0	38	0	115343360	65	4445
2026-01-20 01:39:55.12	26.58	8.00	-46.8	-48.6	17.9	0.00e+00	0	38	0	117440512	65	4376
2026-01-20 01:39:56.12	26.55	8.08	-47.0	-48.9	17.7	0.00e+00	0	38	0	119537664	65	4505
2026-01-20 01:39:57.13	26.51	8.16	-47.0	-48.9	17.7	0.00e+00	0	38	0	120586240	65	4520
2026-01-20 01:39:58.14	26.48	8.24	-47.1	-49.0	17.6	0.00e+00	0	38	0	122683392	65	4561
2026-01-20 01:39:59.15	26.45	8.32	-47.2	-49.1	17.4	0.00e+00	0	38	0	124780544	65	4642
2026-01-20 01:40:00.15	26.41	8.40	-47.3	-49.2	17.4	0.00e+00	0	38	0	126877696	65	4671
2026-01-20 01:40:01.16	26.38	8.48	-47.3	-49.2	17.3	0.00e+00	0	38	0	127926272	65	4697
2026-01-20 01:40:02.17	26.35	8.56	-47.3	-49.3	17.3	0.00e+00	0	38	0	130023424	65	4707
2026-01-20 01:40:03.18	26.31	8.64	-47.1	-49.0	17.6	0.00e+00	0	38	0	132120576	65	4565
2026-01-20 01:40:04.19	26.28	8.72	-47.4	-49.4	17.2	0.00e+00	0	38	0	134217728	65	4800
2026-01-20 01:40:05.19	26.24	8.80	-47.2	-49.1	17.5	0.00e+00	0	38	0	136314880	65	4613
2026-01-20 01:40:06.20	26.21	8.88	-46.6	-48.3	18.3	0.00e+00	0	38	0	138412032	65	4217
2026-01-20 01:40:07.21	26.17	8.96	-46.7	-48.4	18.3	0.00e+00	0	38	0	139460608	64	4517
2026-01-20 01:40:08.22	26.14	9.05	-46.8	-48.6	18.1	0.00e+00	0	38	0	141557760	64	4605
2026-01-20 01:40:09.23	26.10	9.13	-46.8	-48.5	18.2	0.00e+00	0	39	0	143654912	64	4570
2026-01-20 01:40:10.24	26.07	9.21	-46.6	-48.3	18.4	0.00e+00	0	38	0	145752064	64	4456
2026-01-20 01:40:11.24	26.03	9.29	-46.5	-48.1	18.5	0.00e+00	0	38	0	147849216	64	4381
2026-01-20 01:40:12.25	26.00	9.38	-46.6	-48.3	18.4	0.00e+00	0	38	0	148897792	64	4449
2026-01-20 01:40:13.26	25.96	9.46	-46.5	-48.2	18.5	0.00e+00	0	38	0	150994944	64	4424
2026-01-20 01:40:14.26	25.92	9.54	-46.5	-48.2	18.5	0.00e+00	0	38	0	153092096	64	4413
2026-01-20 01:40:15.27	25.89	9.63	-46.5	-48.1	18.5	0.00e+00	0	38	0	155189248	64	4388
2026-01-20 01:40:16.28	25.85	9.71	-46.5	-48.1	18.6	0.00e+00	0	38	0	157286400	64	4387
2026-01-20 01:40:17.29	25.81	9.80	-46.6	-48.2	18.5	0.00e+00	0	38	0	158334976	64	4435
2026-01-20 01:40:18.30	25.78	9.88	-46.5	-48.1	18.6	0.00e+00	0	38	0	160432128	64	4391
2026-01-20 01:40:19.31	25.74	9.97	-46.5	-48.2	18.5	0.00e+00	0	38	0	162529280	64	4408
2026-01-20 01:40:20.31	25.70	10.05	-46.6	-48.3	18.5	0.00e+00	0	39	0	164626432	64	4460
2026-01-20 01:40:21.32	25.66	10.14	-46.5	-48.1	18.6	0.00e+00	0	38	0	166723584	64	4361
2026-01-20 01:40:22.33	25.62	10.22	-46.5	-48.1	18.6	0.00e+00	0	38	0	167772160	64	4367
2026-01-20 01:40:23.33	25.58	10.31	-46.4	-48.1	18.7	0.00e+00	0	39	0	169869312	64	4352
2026-01-20 01:40:24.34	25.55	10.40	-46.5	-48.1	18.6	0.00e+00	0	38	0	171966464	64	4383
2026-01-20 01:40:25.35	25.51	10.48	-46.4	-48.1	18.7	0.00e+00	0	38	0	174063616	64	4342
2026-01-20 01:40:26.36	25.47	10.57	-46.5	-48.1	18.6	0.00e+00	0	38	0	176160768	64	4383
2026-01-20 01:40:27.37	25.43	10.66	-46.4	-48.0	18.8	0.00e+00	0	38	0	177209344	64	4314
2026-01-20 01:40:28.37	25.39	10.74	-46.3	-47.9	18.8	0.00e+00	0	38	0	179306496	64	4281
2026-01-20 01:40:29.38	25.35	10.83	-46.4	-48.0	18.7	0.00e+00	0	38	0	181403648	64	4330
2026-01-20 01:40:30.39	25.31	10.92	-46.4	-48.0	18.8	0.00e+00	0	38	0	183500800	64	4295
2026-01-20 01:40:31.40	25.27	11.01	-46.4	-48.0	18.8	0.00e+00	0	39	0	185597952	64	4298
2026-01-20 01:40:32.41	25.22	11.10	-46.3	-47.9	18.9	0.00e+00	0	38	0	186646528	64	4244
2026-01-20 01:40:33.41	25.18	11.19	-46.4	-48.0	18.8	0.00e+00	0	38	0	188743680	64	4340
2026-01-20 01:40:34.42	25.14	11.28	-46.5	-48.1	18.7	0.00e+00	0	38	0	190840832	64	4378
2026-01-20 01:40:35.43	25.10	11.37	-46.5	-48.1	18.7	0.00e+00	0	38	0	192937984	64	4370
2026-01-20 01:40:36.44	25.06	11.46	-46.4	-48.0	18.8	0.00e+00	0	39	0	195035136	64	4307
2026-01-20 01:40:37.44	25.02	11.55	-46.4	-48.0	18.8	0.00e+00	0	39	0	196083712	64	4300
2026-01-20 01:40:38.45	24.97	11.64	-46.4	-48.0	18.8	0.00e+00	0	39	0	198180864	64	4303
2026-01-20 01:40:39.46	24.93	11.73	-46.5	-48.1	18.7	0.00e+00	0	39	0	200278016	64	4353
2026-01-20 01:40:40.47	24.89	11.82	-46.4	-48.0	18.8	0.00e+00	0	38	0	202375168	64	4310
2026-01-20 01:40:41.47	24.84	11.91	-46.3	-47.8	19.0	0.00e+00	0	38	0	204472320	64	4232
2026-01-20 01:40:42.48	24.80	12.00	-46.2	-47.8	19.1	0.00e+00	0	39	0	205520896	64	4203
2026-01-20 01:40:43.49	24.75	12.10	-46.2	-47.7	19.1	0.00e+00	0	39	0	207618048	64	4186
2026-01-20 01:40:44.50	24.71	12.19	-46.2	-47.8	19.1	0.00e+00	0	39	0	209715200	64	4215
2026-01-20 01:40:45.51	24.67	12.28	-46.2	-47.7	19.1	0.00e+00	0	38	0	211812352	64	4178
2026-01-20 01:40:46.51	24.62	12.38	-46.2	-47.7	19.1	0.00e+00	0	39	0	213909504	64	4185
2026-01-20 01:40:47.52	24.57	12.47	-46.3	-47.8	19.0	0.00e+00	0	39	0	214958080	64	4237
2026-01-20 01:40:48.53	24.53	12.56	-46.3	-47.8	19.1	0.00e+00	0	38	0	217055232	64	4230
2026-01-20 01:40:49.54	24.48	12.66	-46.2	-47.8	19.1	0.00e+00	0	39	0	219152384	64	4214
2026-01-20 01:40:50.55	24.44	12.75	-46.2	-47.8	19.1	0.00e+00	0	39	0	221249536	64	4211
2026-01-20 01:40:51.55	24.39	12.85	-46.2	-47.7	19.1	0.00e+00	0	39	0	223346688	64	4185
2026-01-20 01:40:52.56	24.34	12.94	-46.2	-47.8	19.1	0.00e+00	0	39	0	224395264	64	4199
2026-01-20 01:40:53.57	24.30	13.04	-46.3	-47.9	19.0	0.00e+00	0	38	0	226492416	64	4244
2026-01-20 01:40:54.58	24.25	13.13	-46.3	-47.8	19.0	0.00e+00	0	39	0	228589568	64	4234
2026-01-20 01:40:55.59	24.20	13.23	-46.3	-47.9	19.0	0.00e+00	0	38	0	230686720	64	4246
2026-01-20 01:40:56.59	24.15	13.33	-46.4	-48.0	18.9	0.00e+00	0	39	0	232783872	64	4313
2026-01-20 01:40:57.60	24.10	13.42	-46.3	-47.8	19.1	0.00e+00	0	39	0	233832448	64	4226
2026-01-20 01:40:58.61	24.05	13.52	-46.3	-47.9	19.0	0.00e+00	0	38	0	235929600	64	4273
2026-01-20 01:40:59.62	24.00	13.62	-46.3	-47.9	19.1	0.00e+00	0	39	0	238026752	64	4244
2026-01-20 01:41:00.62	23.95	13.72	-46.4	-48.0	18.9	0.00e+00	0	39	0	240123904	64	4320
2026-01-20 01:41:01.63	23.90	13.82	-46.3	-47.9	19.0	0.00e+00	0	39	0	242221056	64	4249
2026-01-20 01:41:02.64	23.85	13.92	-46.3	-47.9	19.1	0.00e+00	0	39	0	243269632	64	4249
2026-01-20 01:41:03.65	23.80	14.02	-46.1	-47.6	19.3	0.00e+00	0	39	0	245366784	64	4120
2026-01-20 01:41:04.66	23.75	14.12	-46.2	-47.7	19.2	0.00e+00	0	39	0	247463936	64	4181
2026-01-20 01:41:05.66	23.70	14.22	-46.3	-47.8	19.2	0.00e+00	0	39	0	249561088	64	4214
2026-01-20 01:41:06.67	23.65	14.32	-46.2	-47.7	19.2	0.00e+00	0	39	0	251658240	64	4187
2026-01-20 01:41:07.68	23.60	14.42	-46.1	-47.6	19.4	0.00e+00	0	39	0	253755392	64	4101
2026-01-20 01:41:08.69	23.54	14.52	-46.2	-47.7	19.3	0.00e+00	0	39	0	254803968	64	4180
2026-01-20 01:41:09.69	23.49	14.62	-46.0	-47.5	19.5	0.00e+00	0	38	0	256901120	64	4070
2026-01-20 01:41:10.70	23.44	14.72	-46.1	-47.6	19.3	0.00e+00	0	39	0	258998272	64	4123
2026-01-20 01:41:11.71	23.38	14.83	-46.0	-47.5	19.5	0.00e+00	0	39	0	261095424	64	4077
2026-01-20 01:41:12.71	23.33	14.93	-46.0	-47.5	19.5	0.00e+00	0	39	0	262144000	64	4070
2026-01-20 01:41:13.72	23.27	15.03	-46.0	-47.5	19.5	0.00e+00	0	39	0	264241152	64	4072
2026-01-20 01:41:14.73	23.22	15.13	-46.0	-47.5	19.5	0.00e+00	0	39	0	266338304	64	4070
2026-01-20 01:41:15.74	23.16	15.24	-46.0	-47.5	19.5	0.00e+00	0	39	0	268435456	64	4052
2026-01-20 01:41:16.75	23.11	15.34	-46.1	-47.6	19.5	0.00e+00	0	38	0	270532608	63	4363
2026-01-20 01:41:17.75	23.05	15.45	-46.1	-47.6	19.5	0.00e+00	0	39	0	271581184	63	4354
2026-01-20 01:41:18.76	22.99	15.55	-46.1	-47.5	19.6	0.00e+00	0	39	0	273678336	63	4314
2026-01-20 01:41:19.77	22.94	15.66	-46.1	-47.6	19.5	0.00e+00	0	39	0	275775488	63	4345
2026-01-20 01:41:20.78	22.88	15.77	-46.1	-47.6	19.5	0.00e+00	0	38	0	277872640	63	4358
2026-01-20 01:41:21.79	22.82	15.87	-46.1	-47.6	19.5	0.00e+00	0	39	0	279969792	63	4373
2026-01-20 01:41:22.79	22.76	15.98	-46.1	-47.6	19.5	0.00e+00	0	39	0	282066944	63	4347
2026-01-20 01:41:23.80	22.70	16.09	-46.1	-47.6	19.5	0.00e+00	0	38	0	283115520	63	4345
2026-01-20 01:41:24.81	22.64	16.20	-46.1	-47.6	19.5	0.00e+00	0	39	0	285212672	63	4343
2026-01-20 01:41:25.81	22.58	16.30	-46.1	-47.5	19.6	0.00e+00	0	39	0	287309824	63	4313
2026-01-20 01:41:26.82	22.52	16.41	-46.1	-47.6	19.6	0.00e+00	0	39	0	289406976	63	4344
2026-01-20 01:41:27.83	22.46	16.52	-46.0	-47.4	19.7	0.00e+00	0	38	0	290455552	63	4282
2026-01-20 01:41:28.84	22.40	16.63	-46.0	-47.4	19.7	0.00e+00	0	39	0	292552704	63	4284
2026-01-20 01:41:29.85	22.34	16.74	-46.1	-47.5	19.6	0.00e+00	0	39	0	294649856	63	4325
2026-01-20 01:41:30.85	22.28	16.85	-46.0	-47.5	19.6	0.00e+00	0	39	0	296747008	63	4303
2026-01-20 01:41:31.86	22.21	16.97	-46.1	-47.5	19.6	0.00e+00	0	39	0	298844160	63	4335
2026-01-20 01:41:32.87	22.15	17.08	-46.1	-47.5	19.6	0.00e+00	0	39	0	300941312	63	4326
2026-01-20 01:41:33.88	22.09	17.19	-46.1	-47.5	19.6	0.00e+00	0	39	0	301989888	63	4312
2026-01-20 01:41:34.89	22.02	17.30	-46.2	-47.7	19.5	0.00e+00	0	39	0	304087040	63	4395
2026-01-20 01:41:35.89	21.96	17.41	-46.3	-47.7	19.4	0.00e+00	0	39	0	306184192	63	4436
2026-01-20 01:41:36.90	21.89	17.53	-46.2	-47.7	19.5	0.00e+00	0	39	0	308281344	63	4420
2026-01-20 01:41:37.91	21.83	17.64	-46.2	-47.7	19.5	0.00e+00	0	39	0	310378496	63	4396
2026-01-20 01:41:38.92	21.76	17.76	-46.1	-47.6	19.5	0.00e+00	0	39	0	311427072	63	4360
2026-01-20 01:41:39.92	21.69	17.87	-46.1	-47.6	19.6	0.00e+00	0	39	0	313524224	63	4358
2026-01-20 01:41:40.93	21.63	17.99	-46.2	-47.6	19.6	0.00e+00	0	39	0	315621376	63	4363
2026-01-20 01:41:41.94	21.56	18.10	-46.2	-47.6	19.6	0.00e+00	0	39	0	317718528	63	4383
2026-01-20 01:41:42.95	21.49	18.22	-46.1	-47.5	19.6	0.00e+00	0	39	0	318767104	63	4337
2026-01-20 01:41:43.95	21.42	18.34	-46.2	-47.7	19.5	0.00e+00	0	39	0	320864256	63	4404
2026-01-20 01:41:44.96	21.35	18.46	-46.1	-47.6	19.6	0.00e+00	0	39	0	322961408	63	4342
2026-01-20 01:41:45.97	21.28	18.57	-46.1	-47.5	19.7	0.00e+00	0	39	0	325058560	63	4328
2026-01-20 01:41:46.98	21.21	18.69	-46.0	-47.5	19.7	0.00e+00	0	39	0	327155712	63	4297
2026-01-20 01:41:47.99	21.14	18.81	-46.1	-47.5	19.7	0.00e+00	0	39	0	329252864	63	4303
2026-01-20 01:41:48.99	21.07	18.93	-46.0	-47.5	19.7	0.00e+00	0	39	0	330301440	63	4299
2026-01-20 01:41:50.00	20.99	19.05	-46.1	-47.5	19.7	0.00e+00	0	39	0	332398592	63	4319
2026-01-20 01:41:51.01	20.92	19.17	-46.1	-47.5	19.7	0.00e+00	0	39	0	334495744	63	4333
2026-01-20 01:41:52.02	20.85	19.29	-46.0	-47.5	19.7	0.00e+00	0	39	0	336592896	63	4296
2026-01-20 01:41:53.03	20.77	19.42	-46.0	-47.4	19.8	0.00e+00	0	39	0	338690048	63	4247
2026-01-20 01:41:54.04	20.70	19.54	-45.9	-47.3	19.9	0.00e+00	0	39	0	339738624	63	4217
2026-01-20 01:41:55.04	20.62	19.66	-45.9	-47.3	19.9	0.00e+00	0	39	0	341835776	63	4213
2026-01-20 01:41:56.05	20.54	19.79	-45.9	-47.3	19.9	0.00e+00	0	39	0	343932928	63	4214
2026-01-20 01:41:57.06	20.47	19.91	-46.0	-47.4	19.9	0.00e+00	0	39	0	346030080	63	4244
2026-01-20 01:41:58.07	20.39	20.03	-45.9	-47.3	19.9	0.00e+00	0	38	0	347078656	63	4206
2026-01-20 01:41:59.07	20.31	20.16	-45.9	-47.2	20.0	0.00e+00	0	38	0	349175808	63	4178
2026-01-20 01:42:00.08	20.23	20.28	-45.9	-47.2	20.0	0.00e+00	0	39	0	351272960	63	4193
2026-01-20 01:42:01.09	20.15	20.41	-45.9	-47.2	20.0	0.00e+00	0	39	0	353370112	63	4193
2026-01-20 01:42:02.10	20.07	20.54	-45.9	-47.3	20.0	0.00e+00	0	39	0	355467264	63	4196
2026-01-20 01:42:03.11	19.99	20.67	-45.9	-47.2	20.0	0.00e+00	0	39	0	357564416	63	4179
2026-01-20 01:42:04.11	19.91	20.79	-45.9	-47.2	20.0	0.00e+00	0	39	0	358612992	63	4183
2026-01-20 01:42:05.12	19.83	20.92	-45.9	-47.2	20.0	0.00e+00	0	39	0	360710144	63	4188
2026-01-20 01:42:06.13	19.74	21.05	-45.8	-47.2	20.1	0.00e+00	0	39	0	362807296	63	4171
2026-01-20 01:42:07.14	19.66	21.18	-45.8	-47.2	20.1	0.00e+00	0	38	0	364904448	63	4165
2026-01-20 01:42:08.15	19.57	21.31	-45.9	-47.2	20.0	0.00e+00	0	39	0	367001600	63	4192
2026-01-20 01:42:09.15	19.49	21.44	-45.9	-47.3	20.0	0.00e+00	0	38	0	368050176	63	4207
2026-01-20 01:42:10.16	19.40	21.58	-45.8	-47.2	20.1	0.00e+00	0	39	0	370147328	63	4157
2026-01-20 01:42:11.17	19.32	21.71	-45.8	-47.2	20.1	0.00e+00	0	39	0	372244480	63	4163
2026-01-20 01:42:12.18	19.23	21.84	-45.9	-47.3	20.0	0.00e+00	0	39	0	374341632	63	4218
2026-01-20 01:42:13.19	19.14	21.98	-45.8	-47.2	20.1	0.00e+00	0	39	0	376438784	63	4154
2026-01-20 01:42:14.19	19.05	22.11	-45.9	-47.3	20.0	0.00e+00	0	39	0	377487360	63	4212
2026-01-20 01:42:15.20	18.96	22.24	-45.9	-47.3	19.9	0.00e+00	0	39	0	379584512	63	4220
2026-01-20 01:42:16.21	18.87	22.38	-46.0	-47.4	19.8	0.00e+00	0	38	0	381681664	63	4265
2026-01-20 01:42:17.22	18.78	22.52	-46.0	-47.4	19.9	0.00e+00	0	39	0	383778816	63	4254
2026-01-20 01:42:18.23	18.68	22.65	-46.1	-47.5	19.8	0.00e+00	0	39	0	385875968	63	4296
2026-01-20 01:42:19.24	18.59	22.79	-46.1	-47.4	19.9	0.00e+00	0	38	0	386924544	63	4291
2026-01-20 01:42:20.24	18.50	22.93	-46.2	-47.7	19.6	0.00e+00	0	39	0	389021696	63	4406
2026-01-20 01:42:21.25	18.40	23.07	-46.3	-47.7	19.6	0.00e+00	0	39	0	391118848	63	4433
2026-01-20 01:42:22.26	18.31	23.21	-46.4	-47.9	19.4	0.00e+00	0	39	0	393216000	63	4526
2026-01-20 01:42:23.27	18.21	23.35	-46.4	-47.9	19.4	0.00e+00	0	39	0	395313152	63	4499
2026-01-20 01:42:24.27	18.11	23.49	-46.4	-47.8	19.5	0.00e+00	0	38	0	397410304	63	4485
2026-01-20 01:42:25.28	18.01	23.63	-46.4	-47.9	19.4	0.00e+00	0	39	0	398458880	63	4531
2026-01-20 01:42:26.29	17.91	23.77	-46.5	-47.9	19.4	0.00e+00	0	39	0	400556032	63	4544
2026-01-20 01:42:27.30	17.81	23.91	-46.5	-48.0	19.3	0.00e+00	0	39	0	402653184	63	4567
2026-01-20 01:42:28.31	17.71	24.06	-46.6	-48.1	19.2	0.00e+00	0	39	0	404750336	63	4621
2026-01-20 01:42:29.31	17.61	24.20	-46.7	-48.3	19.0	0.00e+00	0	39	0	405798912	64	4451
2026-01-20 01:42:30.32	17.50	24.35	-46.8	-48.4	18.9	0.00e+00	0	39	0	407896064	64	4517
2026-01-20 01:42:31.33	17.40	24.49	-46.9	-48.6	18.7	0.00e+00	0	39	0	409993216	64	4606
2026-01-20 01:42:32.34	17.29	24.64	-47.0	-48.7	18.6	0.00e+00	0	39	0	412090368	64	4663
2026-01-20 01:42:33.34	17.19	24.78	-47.1	-48.8	18.5	0.00e+00	0	39	0	414187520	64	4729
2026-01-20 01:42:34.35	17.08	24.93	-47.1	-48.7	18.5	0.00e+00	0	39	0	415236096	64	4696
2026-01-20 01:42:35.36	16.97	25.08	-47.1	-48.8	18.5	0.00e+00	0	39	0	417333248	64	4744
2026-01-20 01:42:36.37	16.86	25.23	-47.3	-49.0	18.3	0.00e+00	0	38	0	419430400	65	4564
2026-01-20 01:42:37.38	16.75	25.38	-47.4	-49.1	18.1	0.00e+00	0	39	0	421527552	65	4651
2026-01-20 01:42:38.38	16.64	25.53	-47.4	-49.1	18.1	0.00e+00	0	39	0	423624704	65	4643
2026-01-20 01:42:39.39	16.52	25.68	-47.4	-49.2	18.1	0.00e+00	0	39	0	425721856	65	4680
2026-01-20 01:42:40.40	16.41	25.83	-47.5	-49.2	18.0	0.00e+00	0	39	0	426770432	65	4703
2026-01-20 01:42:41.41	16.29	25.99	-47.6	-49.4	17.9	0.00e+00	0	39	0	428867584	65	4799
2026-01-20 01:42:42.41	16.18	26.14	-47.8	-49.7	17.7	0.00e+00	0	39	0	430964736	66	4654
2026-01-20 01:42:43.42	16.06	26.29	-48.0	-49.9	17.5	0.00e+00	0	39	0	433061888	66	4777
2026-01-20 01:42:44.43	15.94	26.45	-48.0	-50.0	17.3	0.00e+00	0	39	0	434110464	66	4857
2026-01-20 01:42:45.44	15.82	26.60	-48.1	-50.0	17.3	0.00e+00	0	39	0	436207616	66	4853
2026-01-20 01:42:46.44	15.70	26.76	-48.1	-50.1	17.2	0.00e+00	0	39	0	438304768	66	4915
2026-01-20 01:42:47.45	15.58	26.92	-48.3	-50.3	17.0	0.00e+00	0	39	0	440401920	67	4756
2026-01-20 01:42:48.46	15.45	27.08	-48.4	-50.4	16.9	0.00e+00	0	39	0	442499072	67	4797
2026-01-20 01:42:49.47	15.33	27.24	-48.5	-50.6	16.8	0.00e+00	0	39	0	444596224	67	4892
2026-01-20 01:42:50.47	15.20	27.39	-48.5	-50.7	16.7	0.00e+00	0	39	0	445644800	67	4927
2026-01-20 01:42:51.48	15.08	27.55	-48.5	-50.7	16.7	0.00e+00	0	39	0	447741952	67	4928
2026-01-20 01:42:52.49	14.95	27.72	-48.6	-50.7	16.6	0.00e+00	0	39	0	449839104	67	4971
2026-01-20 01:42:53.50	14.82	27.88	-48.6	-50.8	16.6	0.00e+00	0	39	0	451936256	67	4996
2026-01-20 01:42:54.51	14.68	28.04	-48.6	-50.8	16.6	0.00e+00	0	39	0	454033408	67	5032
2026-01-20 01:42:55.51	14.55	28.20	-48.8	-51.0	16.4	0.00e+00	0	39	0	455081984	68	4859
2026-01-20 01:42:56.52	14.42	28.37	-48.7	-50.8	16.6	0.00e+00	0	39	0	457179136	68	4748
2026-01-20 01:42:57.53	14.28	28.53	-48.8	-51.1	16.4	0.00e+00	0	39	0	459276288	68	4874
2026-01-20 01:42:58.54	14.14	28.70	-48.8	-51.1	16.4	0.00e+00	0	39	0	461373440	68	4900
2026-01-20 01:42:59.55	14.00	28.87	-48.7	-51.0	16.5	0.00e+00	0	39	0	462422016	68	4817
2026-01-20 01:43:00.55	13.86	29.03	-48.8	-51.0	16.5	0.00e+00	0	39	0	464519168	68	4835
2026-01-20 01:43:01.56	13.72	29.20	-48.6	-50.8	16.7	0.00e+00	0	39	0	466616320	68	4742
2026-01-20 01:43:02.57	13.58	29.37	-48.6	-50.7	16.8	0.00e+00	0	39	0	468713472	68	4676
2026-01-20 01:43:03.57	13.44	29.54	-48.7	-50.8	16.7	0.00e+00	0	39	0	470810624	68	4757
2026-01-20 01:43:04.58	13.29	29.71	-48.5	-50.5	17.0	0.00e+00	0	39	0	472907776	68	4585
2026-01-20 01:43:05.59	13.14	29.88	-48.6	-50.7	16.9	0.00e+00	0	39	0	473956352	68	4656
2026-01-20 01:43:06.60	12.99	30.05	-48.5	-50.6	16.9	0.00e+00	0	39	0	476053504	68	4606
2026-01-20 01:43:07.61	12.84	30.23	-48.4	-50.4	17.1	0.00e+00	0	39	0	478150656	68	4534
2026-01-20 01:43:08.61	12.69	30.40	-48.4	-50.4	17.1	0.00e+00	0	39	0	480247808	68	4523
2026-01-20 01:43:09.62	12.53	30.58	-48.4	-50.4	17.1	0.00e+00	0	39	0	482344960	68	4505
2026-01-20 01:43:10.63	12.37	30.75	-48.3	-50.3	17.2	0.00e+00	0	39	0	483393536	68	4482
2026-01-20 01:43:11.64	12.22	30.93	-48.4	-50.5	17.0	0.00e+00	0	39	0	485490688	68	4564
2026-01-20 01:43:12.65	12.06	31.11	-48.2	-50.2	17.4	0.00e+00	0	39	0	487587840	68	4395
2026-01-20 01:43:13.65	11.90	31.28	-48.4	-50.4	17.1	0.00e+00	0	39	0	489684992	68	4529
2026-01-20 01:43:14.66	11.73	31.46	-48.4	-50.5	17.1	0.00e+00	0	39	0	490733568	68	4550
2026-01-20 01:43:15.67	11.57	31.64	-48.5	-50.6	16.9	0.00e+00	0	39	0	492830720	68	4616
2026-01-20 01:43:16.68	11.40	31.82	-48.4	-50.4	17.1	0.00e+00	0	39	0	494927872	68	4533
2026-01-20 01:43:17.69	11.23	32.00	-48.3	-50.3	17.2	0.00e+00	0	39	0	497025024	68	4477
2026-01-20 01:43:18.70	11.06	32.19	-48.3	-50.3	17.3	0.00e+00	0	39	0	499122176	68	4453
2026-01-20 01:43:19.70	10.89	32.37	-48.2	-50.2	17.4	0.00e+00	0	39	0	501219328	68	4397
2026-01-20 01:43:20.71	10.71	32.55	-48.2	-50.1	17.5	0.00e+00	0	39	0	502267904	68	4368
2026-01-20 01:43:21.71	10.53	32.74	-48.3	-50.2	17.3	0.00e+00	0	39	0	504365056	68	4427
2026-01-20 01:43:22.72	10.35	32.92	-48.3	-50.3	17.4	0.00e+00	0	39	0	506462208	68	4443
2026-01-20 01:43:23.73	10.17	33.11	-48.4	-50.5	17.1	0.00e+00	0	39	0	508559360	68	4550
2026-01-20 01:43:24.74	9.99	33.30	-48.4	-50.5	17.1	0.00e+00	0	39	0	510656512	68	4550
2026-01-20 01:43:25.75	9.80	33.48	-48.5	-50.5	17.0	0.00e+00	0	39	0	511705088	68	4595
2026-01-20 01:43:26.76	9.61	33.67	-48.5	-50.6	17.0	0.00e+00	0	39	0	513802240	68	4606
2026-01-20 01:43:27.76	9.43	33.86	-48.6	-50.7	16.9	0.00e+00	0	39	0	515899392	68	4685
2026-01-20 01:43:28.77	9.23	34.05	-48.8	-51.0	16.6	0.00e+00	0	39	0	517996544	68	4822
2026-01-20 01:43:29.78	9.04	34.24	-48.8	-51.0	16.6	0.00e+00	0	39	0	520093696	68	4820
2026-01-20 01:43:30.79	8.84	34.44	-48.9	-51.1	16.5	0.00e+00	0	39	0	521142272	68	4892
2026-01-20 01:43:31.79	8.64	34.63	-49.0	-51.3	16.2	0.00e+00	0	39	0	523239424	68	5020
2026-01-20 01:43:32.80	8.44	34.82	-49.2	-51.6	16.0	0.00e+00	0	39	0	525336576	69	4878
2026-01-20 01:43:33.81	8.24	35.02	-49.1	-51.5	16.1	0.00e+00	0	39	0	527433728	69	4837
2026-01-20 01:43:34.81	8.03	35.21	-49.2	-51.6	15.9	0.00e+00	0	39	0	529530880	69	4905
2026-01-20 01:43:35.82	7.82	35.40	-49.2	-51.6	16.0	0.00e+00	0	39	0	530579456	69	4915
2026-01-20 01:43:36.83	7.61	35.60	-49.1	-51.4	16.2	0.00e+00	0	39	0	532676608	69	4789
2026-01-20 01:43:37.84	7.39	35.80	-49.2	-51.5	16.1	0.00e+00	0	39	0	534773760	69	4849
2026-01-20 01:43:38.85	7.18	36.00	-49.3	-51.8	15.7	0.00e+00	0	39	0	536870912	69	4987
2026-01-20 01:43:39.85	6.96	36.20	-49.5	-52.0	15.6	0.00e+00	0	39	0	538968064	69	5153
2026-01-20 01:43:40.86	6.73	36.39	-49.6	-52.2	15.4	0.00e+00	0	39	0	540016640	69	5239
2026-01-20 01:43:41.87	6.51	36.60	-49.5	-52.0	15.6	0.00e+00	0	39	0	542113792	69	5122
2026-01-20 01:43:42.88	6.28	36.80	-49.6	-52.3	15.4	0.00e+00	0	39	0	544210944	69	5280
2026-01-20 01:43:43.89	6.05	37.00	-49.7	-52.3	15.3	0.00e+00	0	39	0	546308096	69	5339
2026-01-20 01:43:44.89	5.82	37.20	-49.8	-52.5	15.2	0.00e+00	0	39	0	548405248	70	5127
2026-01-20 01:43:45.90	5.58	37.40	-49.7	-52.4	15.3	0.00e+00	0	39	0	549453824	70	5042
2026-01-20 01:43:46.91	5.34	37.61	-49.7	-52.4	15.1	0.00e+00	0	39	0	551550976	70	5073
2026-01-20 01:43:47.92	5.09	37.81	-49.6	-52.1	15.5	0.00e+00	0	39	0	553648128	70	4918
2026-01-20 01:43:48.93	4.85	38.02	-49.6	-52.1	15.5	0.00e+00	0	39	0	555745280	70	4891
2026-01-20 01:43:49.93	4.60	38.22	-49.6	-52.3	15.4	0.00e+00	0	39	0	557842432	70	4988
2026-01-20 01:43:50.94	4.35	38.43	-49.6	-52.2	15.4	0.00e+00	0	39	0	558891008	70	4969
2026-01-20 01:43:51.95	4.09	38.64	-49.7	-52.3	15.4	0.00e+00	0	39	0	560988160	70	5003
2026-01-20 01:43:52.96	3.83	38.84	-49.9	-52.6	15.0	0.00e+00	0	39	0	563085312	70	5175
2026-01-20 01:43:53.97	3.57	39.05	-50.0	-52.8	14.9	1.50e-06	0	39	0	565182464	70	5294
2026-01-20 01:43:54.97	3.30	39.26	-50.1	-52.9	14.7	0.00e+00	0	39	0	567279616	70	5382
2026-01-20 01:43:55.98	3.03	39.47	-50.0	-52.8	14.9	0.00e+00	0	39	0	569376768	70	5282
2026-01-20 01:43:56.99	2.76	39.68	-49.9	-52.6	15.0	0.00e+00	0	39	0	570425344	70	5211
2026-01-20 01:43:58.00	2.48	39.89	-49.7	-52.3	15.3	0.00e+00	0	39	0	572522496	70	5038
2026-01-20 01:43:59.01	2.20	40.10	-49.8	-52.5	15.2	0.00e+00	0	39	0	574619648	70	5129
2026-01-20 01:44:00.02	1.92	40.31	-49.7	-52.4	15.3	0.00e+00	0	39	0	576716800	70	5055
2026-01-20 01:44:01.03	1.63	40.52	-49.9	-52.6	15.1	0.00e+00	0	39	0	577765376	70	5171
2026-01-20 01:44:02.03	1.34	40.73	-49.9	-52.7	15.0	0.00e+00	0	39	0	579862528	70	5224
2026-01-20 01:44:03.04	1.04	40.95	-49.8	-52.4	15.3	7.00e-07	0	39	0	581959680	70	5089
2026-01-20 01:44:04.05	0.74	41.16	-49.8	-52.5	15.2	0.00e+00	0	39	0	584056832	70	5126
2026-01-20 01:44:05.06	0.44	41.37	-49.5	-52.0	15.7	0.00e+00	0	39	0	586153984	70	4831
2026-01-20 01:44:06.07	0.13	41.59	-49.2	-51.5	16.3	0.00e+00	0	39	0	588251136	70	4569
2026-01-20 01:44:07.07	359.82	41.80	-49.1	-51.4	16.3	0.00e+00	0	39	0	589299712	70	4527
2026-01-20 01:44:08.08	359.51	42.02	-49.1	-51.4	16.3	0.00e+00	0	39	0	591396864	70	4524
2026-01-20 01:44:09.09	359.19	42.23	-48.7	-50.8	16.9	0.00e+00	0	39	0	593494016	69	4484
2026-01-20 01:44:10.10	358.86	42.44	-48.6	-50.7	17.1	0.00e+00	0	39	0	595591168	69	4411
2026-01-20 01:44:11.11	358.53	42.66	-48.7	-50.8	16.9	0.00e+00	0	39	0	597688320	69	4480
2026-01-20 01:44:12.11	358.20	42.87	-48.6	-50.6	17.2	0.00e+00	0	39	0	598736896	69	4365
2026-01-20 01:44:13.12	357.86	43.09	-48.7	-50.8	16.9	0.00e+00	0	39	0	600834048	69	4453
2026-01-20 01:44:14.13	357.52	43.30	-48.5	-50.5	17.2	0.00e+00	0	39	0	602931200	68	4566
2026-01-20 01:44:15.14	357.17	43.52	-48.4	-50.3	17.4	0.00e+00	0	39	0	605028352	68	4467
2026-01-20 01:44:16.15	356.82	43.73	-48.3	-50.2	17.6	0.00e+00	0	39	0	606076928	68	4409
2026-01-20 01:44:17.15	356.46	43.95	-48.4	-50.4	17.3	0.00e+00	0	39	0	608174080	68	4520
2026-01-20 01:44:18.16	356.10	44.16	-48.6	-50.7	17.1	0.00e+00	0	39	0	610271232	68	4658
2026-01-20 01:44:19.17	355.73	44.38	-48.7	-50.7	17.1	0.00e+00	0	39	0	612368384	68	4683
2026-01-20 01:44:20.18	355.36	44.59	-48.8	-50.9	16.8	0.00e+00	0	39	0	614465536	68	4796
2026-01-20 01:44:21.18	354.99	44.81	-48.8	-50.9	16.9	0.00e+00	0	39	0	616562688	68	4773
2026-01-20 01:44:22.19	354.61	45.02	-48.9	-51.1	16.7	0.00e+00	0	39	0	617611264	68	4889
2026-01-20 01:44:23.20	354.22	45.24	-48.9	-51.1	16.7	0.00e+00	0	39	0	619708416	68	4899
2026-01-20 01:44:24.21	353.82	45.45	-48.8	-50.9	16.9	0.00e+00	0	39	0	621805568	68	4779
2026-01-20 01:44:25.22	353.43	45.66	-48.5	-50.4	17.3	0.00e+00	0	39	0	623902720	68	4535
2026-01-20 01:44:26.22	353.03	45.87	-48.3	-50.2	17.6	0.00e+00	0	39	0	625999872	68	4395
2026-01-20 01:44:27.23	352.62	46.09	-48.5	-50.4	17.3	0.00e+00	0	39	0	627048448	68	4538
2026-01-20 01:44:28.24	352.20	46.30	-48.5	-50.5	17.3	0.00e+00	0	39	0	629145600	68	4548
2026-01-20 01:44:29.25	351.78	46.51	-48.7	-50.8	17.1	0.00e+00	0	39	0	631242752	68	4708
2026-01-20 01:44:30.25	351.36	46.72	-48.6	-50.6	17.2	0.00e+00	0	39	0	633339904	68	4636
2026-01-20 01:44:31.26	350.93	46.93	-48.8	-50.9	16.9	0.00e+00	0	39	0	634388480	68	4800
2026-01-20 01:44:32.27	350.49	47.14	-48.9	-51.1	16.7	0.00e+00	0	39	0	636485632	68	4878
2026-01-20 01:44:33.28	350.04	47.35	-49.2	-51.4	16.4	0.00e+00	0	39	0	638582784	68	5095
2026-01-20 01:44:34.29	349.59	47.56	-49.2	-51.5	16.3	0.00e+00	0	39	0	640679936	69	4842
2026-01-20 01:44:35.30	349.14	47.76	-49.0	-51.2	16.5	0.00e+00	0	39	0	642777088	69	4678
2026-01-20 01:44:36.30	348.68	47.97	-49.3	-51.7	16.1	0.00e+00	0	39	0	644874240	69	4929
2026-01-20 01:44:37.31	348.21	48.17	-49.2	-51.5	16.4	0.00e+00	0	39	0	645922816	69	4824
2026-01-20 01:44:38.32	347.74	48.37	-49.2	-51.5	16.3	0.00e+00	0	39	0	648019968	69	4840
2026-01-20 01:44:39.33	347.25	48.58	-49.0	-51.2	16.6	0.00e+00	0	39	0	650117120	69	4705
2026-01-20 01:44:40.34	346.77	48.78	-48.9	-51.1	16.7	0.00e+00	0	39	0	652214272	69	4612
2026-01-20 01:44:41.34	346.28	48.98	-48.9	-51.0	16.8	0.00e+00	0	39	0	654311424	69	4586
2026-01-20 01:44:42.35	345.78	49.17	-48.8	-50.9	16.8	0.00e+00	0	39	0	655360000	69	4526
2026-01-20 01:44:43.36	345.27	49.37	-48.8	-50.9	16.9	0.00e+00	0	39	0	657457152	69	4537
2026-01-20 01:44:44.37	344.76	49.57	-48.6	-50.7	17.1	0.00e+00	0	39	0	659554304	69	4397
2026-01-20 01:44:45.37	344.24	49.76	-48.4	-50.3	17.4	0.00e+00	0	39	0	661651456	68	4492
2026-01-20 01:44:46.38	343.72	49.95	-48.1	-49.9	17.8	0.00e+00	0	39	0	663748608	68	4291
2026-01-20 01:44:47.39	343.18	50.14	-47.8	-49.5	18.3	0.00e+00	0	39	0	664797184	67	4308
2026-01-20 01:44:48.40	342.64	50.33	-47.4	-49.1	18.6	0.00e+00	0	39	0	666894336	66	4345
2026-01-20 01:44:49.41	342.10	50.51	-46.8	-48.3	19.3	0.00e+00	0	39	0	668991488	65	4234
2026-01-20 01:44:50.41	341.55	50.69	-46.4	-47.7	19.9	0.00e+00	0	39	0	671088640	64	4190
2026-01-20 01:44:51.42	340.99	50.88	-46.3	-47.7	20.0	0.00e+00	0	39	0	673185792	64	4153
2026-01-20 01:44:52.43	340.42	51.06	-46.2	-47.6	20.1	0.00e+00	0	39	0	674234368	64	4103
2026-01-20 01:44:53.44	339.85	51.23	-46.0	-47.3	20.3	0.00e+00	0	39	0	676331520	64	4003
2026-01-20 01:44:54.45	339.26	51.41	-45.8	-47.1	20.6	0.00e+00	0	39	0	678428672	63	4104
2026-01-20 01:44:55.46	338.68	51.58	-45.8	-47.1	20.6	0.00e+00	0	39	0	680525824	63	4107
2026-01-20 01:44:56.46	338.09	51.75	-45.9	-47.2	20.6	0.00e+00	0	39	0	682622976	63	4153
2026-01-20 01:44:57.47	337.49	51.92	-46.3	-47.7	20.1	0.00e+00	0	39	0	683671552	63	4393
2026-01-20 01:44:58.48	336.88	52.08	-46.4	-47.7	20.1	0.00e+00	0	39	0	685768704	63	4433
2026-01-20 01:44:59.48	336.27	52.24	-46.2	-47.5	20.3	0.00e+00	0	39	0	687865856	63	4333
2026-01-20 01:45:00.49	335.65	52.40	-46.1	-47.5	20.3	0.00e+00	0	39	0	689963008	63	4293
2026-01-20 01:45:01.50	335.02	52.55	-46.4	-47.7	20.1	0.00e+00	0	39	0	692060160	63	4429
2026-01-20 01:45:02.51	334.39	52.71	-46.7	-48.1	19.7	0.00e+00	0	39	0	693108736	63	4614
2026-01-20 01:45:03.52	333.74	52.86	-46.9	-48.4	19.3	0.00e+00	0	39	0	695205888	64	4517
2026-01-20 01:45:04.52	333.10	53.00	-47.1	-48.6	19.0	0.00e+00	0	39	0	697303040	64	4649
2026-01-20 01:45:05.53	332.45	53.14	-47.3	-48.9	18.8	0.00e+00	0	39	0	699400192	65	4538
2026-01-20 01:45:06.54	331.79	53.28	-47.3	-49.0	18.8	0.00e+00	0	39	0	701497344	65	4556
2026-01-20 01:45:07.54	331.13	53.42	-47.3	-48.9	18.9	0.00e+00	0	39	0	702545920	65	4533
2026-01-20 01:45:08.55	330.45	53.55	-47.2	-48.8	19.0	0.00e+00	0	39	0	704643072	65	4462
2026-01-20 01:45:09.56	329.77	53.68	-47.0	-48.5	19.2	0.00e+00	0	39	0	706740224	65	4323
2026-01-20 01:45:10.57	329.09	53.80	-46.2	-47.6	20.0	0.00e+00	0	39	0	708837376	64	4113
2026-01-20 01:45:11.57	328.40	53.92	-46.1	-47.5	20.2	0.00e+00	0	39	0	710934528	64	4066
2026-01-20 01:45:12.58	327.71	54.04	-45.9	-47.2	20.5	0.00e+00	0	39	0	711983104	63	4174
2026-01-20 01:45:13.59	327.00	54.15	-45.9	-47.2	20.6	0.00e+00	0	39	0	714080256	63	4166
2026-01-20 01:45:14.60	326.30	54.26	-45.7	-46.9	20.9	0.00e+00	0	39	0	716177408	63	4027
2026-01-20 01:45:15.61	325.58	54.36	-45.7	-46.9	20.8	0.00e+00	0	39	0	718274560	63	4046
2026-01-20 01:45:16.61	324.87	54.46	-46.0	-47.3	20.5	0.00e+00	0	39	0	720371712	63	4216
2026-01-20 01:45:17.62	324.15	54.56	-46.3	-47.6	20.2	0.00e+00	0	39	0	721420288	63	4369
2026-01-20 01:45:18.63	323.42	54.65	-46.1	-47.5	20.3	0.00e+00	0	39	0	723517440	63	4292
2026-01-20 01:45:19.63	322.70	54.73	-46.0	-47.3	20.5	0.00e+00	0	39	0	725614592	63	4213
2026-01-20 01:45:20.64	321.96	54.82	-46.0	-47.3	20.5	0.00e+00	0	39	0	727711744	63	4227
2026-01-20 01:45:21.65	321.22	54.89	-45.6	-46.9	20.9	0.00e+00	0	39	0	729808896	63	4010
2026-01-20 01:45:22.66	320.47	54.97	-45.1	-46.3	21.4	0.00e+00	0	39	0	730857472	62	3965
2026-01-20 01:45:23.67	319.72	55.03	-44.7	-45.8	21.8	0.00e+00	0	39	0	732954624	61	3980
2026-01-20 01:45:24.68	318.97	55.10	-44.7	-45.8	21.9	0.00e+00	0	39	0	735051776	61	3965
2026-01-20 01:45:25.69	318.22	55.16	-44.6	-45.7	22.0	0.00e+00	0	39	0	737148928	61	3926
2026-01-20 01:45:26.70	317.46	55.21	-44.6	-45.7	22.1	0.00e+00	0	39	0	739246080	61	3915
2026-01-20 01:45:27.70	316.70	55.26	-44.4	-45.5	22.2	0.00e+00	0	39	0	740294656	60	4055
2026-01-20 01:45:28.71	315.94	55.30	-44.3	-45.4	22.2	0.00e+00	0	39	0	742391808	60	4011
2026-01-20 01:45:29.72	315.17	55.34	-44.3	-45.4	22.2	0.00e+00	0	39	0	744488960	60	4014
2026-01-20 01:45:30.72	314.41	55.37	-44.4	-45.5	22.1	0.00e+00	0	39	0	746586112	60	4078
2026-01-20 01:45:31.73	313.64	55.40	-44.6	-45.7	22.0	0.00e+00	0	39	0	748683264	60	4175
2026-01-20 01:45:32.74	312.87	55.42	-44.3	-45.4	22.3	0.00e+00	0	39	0	749731840	60	4024
2026-01-20 01:45:33.75	312.10	55.44	-44.4	-45.4	22.2	0.00e+00	0	39	0	751828992	60	4032
2026-01-20 01:45:34.76	311.33	55.45	-44.5	-45.6	22.1	0.00e+00	0	39	0	753926144	60	4102
2026-01-20 01:45:35.76	310.56	55.46	-44.6	-45.6	22.0	0.00e+00	0	39	0	756023296	60	4135
2026-01-20 01:45:36.77	309.79	55.46	-44.7	-45.8	21.8	0.00e+00	0	39	0	758120448	60	4231
2026-01-20 01:45:37.78	309.01	55.46	-44.9	-46.1	21.6	0.00e+00	0	39	0	760217600	60	4359
2026-01-20 01:45:38.79	308.24	55.45	-44.9	-46.0	21.7	0.00e+00	0	39	0	761266176	60	4324
2026-01-20 01:45:39.79	307.47	55.44	-44.9	-46.0	21.7	0.00e+00	0	39	0	763363328	60	4314
2026-01-20 01:45:40.80	306.70	55.42	-45.1	-46.3	21.5	0.00e+00	0	39	0	765460480	60	4444
2026-01-20 01:45:41.81	305.93	55.40	-45.3	-46.5	21.2	0.00e+00	0	39	0	767557632	61	4308
2026-01-20 01:45:42.82	305.16	55.37	-45.3	-46.5	21.3	0.00e+00	0	39	0	768606208	61	4305
2026-01-20 01:45:43.83	304.39	55.34	-45.2	-46.4	21.3	0.00e+00	0	39	0	770703360	61	4284
2026-01-20 01:45:44.83	303.63	55.30	-45.2	-46.4	21.4	0.00e+00	0	39	0	772800512	61	4277
2026-01-20 01:45:45.84	302.87	55.26	-45.0	-46.1	21.6	0.00e+00	0	39	0	774897664	61	4118
2026-01-20 01:45:46.85	302.11	55.21	-44.7	-45.8	21.9	0.00e+00	0	39	0	776994816	61	3964
2026-01-20 01:45:47.86	301.35	55.16	-44.8	-45.9	21.8	0.00e+00	0	39	0	778043392	61	4006
2026-01-20 01:45:48.87	300.59	55.10	-44.5	-45.6	22.1	0.00e+00	0	39	0	780140544	61	3874
2026-01-20 01:45:49.87	299.85	55.04	-44.1	-45.2	22.4	0.00e+00	0	39	0	782237696	60	3920
2026-01-20 01:45:50.88	299.10	54.97	-44.2	-45.2	22.7	0.00e+00	0	39	0	784334848	59	4180
2026-01-20 01:45:51.89	298.35	54.90	-44.3	-45.3	22.5	0.00e+00	0	39	0	786432000	59	4216
2026-01-20 01:45:52.90	297.61	54.82	-44.2	-45.3	22.6	0.00e+00	0	39	0	788529152	59	4198
2026-01-20 01:45:53.91	296.87	54.74	-44.4	-45.4	22.5	0.00e+00	0	39	0	789577728	59	4279
2026-01-20 01:45:54.91	296.15	54.65	-44.3	-45.4	22.6	0.00e+00	0	39	0	791674880	59	4251
2026-01-20 01:45:55.92	295.42	54.56	-44.1	-45.1	22.8	0.00e+00	0	39	0	793772032	59	4129
2026-01-20 01:45:56.93	294.70	54.46	-43.9	-44.9	22.9	0.00e+00	0	39	0	795869184	59	4048
2026-01-20 01:45:57.94	293.98	54.36	-43.8	-44.8	23.1	0.00e+00	0	39	0	796917760	59	3967
2026-01-20 01:45:58.94	293.27	54.26	-43.7	-44.7	23.2	0.00e+00	0	39	0	799014912	59	3915
2026-01-20 01:45:59.95	292.56	54.15	-44.1	-45.1	22.8	0.00e+00	0	39	0	801112064	59	4135
2026-01-20 01:46:00.96	291.86	54.04	-44.5	-45.6	22.3	0.00e+00	0	39	0	803209216	59	4352
2026-01-20 01:46:01.97	291.16	53.92	-44.5	-45.6	22.1	0.00e+00	0	39	0	805306368	60	4120
2026-01-20 01:46:02.97	290.48	53.80	-44.7	-45.9	21.8	0.00e+00	0	39	0	807403520	60	4244
2026-01-20 01:46:03.98	289.79	53.68	-44.8	-45.9	21.8	0.00e+00	0	39	0	808452096	60	4271
2026-01-20 01:46:04.99	289.11	53.55	-44.8	-46.0	21.7	0.00e+00	0	39	0	810549248	60	4295
2026-01-20 01:46:06.00	288.44	53.42	-44.8	-46.0	21.7	0.00e+00	0	39	0	812646400	60	4295
2026-01-20 01:46:07.01	287.77	53.28	-45.1	-46.2	21.4	0.00e+00	0	39	0	814743552	60	4437
2026-01-20 01:46:08.01	287.11	53.15	-45.6	-46.8	20.9	0.00e+00	0	39	0	816840704	61	4487
2026-01-20 01:46:09.02	286.46	53.00	-46.2	-47.6	20.2	0.00e+00	0	39	0	817889280	62	4602
2026-01-20 01:46:10.03	285.81	52.86	-46.6	-48.0	19.6	0.00e+00	0	39	0	819986432	64	4340
2026-01-20 01:46:11.04	285.17	52.71	-46.7	-48.2	19.5	0.00e+00	0	39	0	822083584	64	4411
2026-01-20 01:46:12.05	284.53	52.55	-46.4	-47.8	19.9	0.00e+00	0	39	0	824180736	64	4230
2026-01-20 01:46:13.05	283.91	52.40	-46.3	-47.6	20.1	0.00e+00	0	39	0	825229312	64	4125
2026-01-20 01:46:14.06	283.29	52.24	-46.1	-47.4	20.2	0.00e+00	0	39	0	827326464	64	4031
2026-01-20 01:46:15.07	282.67	52.08	-46.1	-47.5	20.2	0.00e+00	0	39	0	829423616	64	4055
2026-01-20 01:46:16.07	282.07	51.92	-46.4	-47.8	19.9	0.00e+00	0	39	0	831520768	64	4211
2026-01-20 01:46:17.08	281.47	51.75	-46.9	-48.4	19.3	0.00e+00	0	39	0	833617920	64	4530
2026-01-20 01:46:18.09	280.87	51.58	-47.0	-48.5	19.2	0.00e+00	0	39	0	835715072	64	4578
2026-01-20 01:46:19.10	280.28	51.41	-46.9	-48.3	19.3	0.00e+00	0	39	0	836763648	64	4491
2026-01-20 01:46:20.11	279.70	51.23	-46.6	-48.0	19.7	0.00e+00	0	39	0	838860800	64	4337
2026-01-20 01:46:21.11	279.13	51.06	-46.5	-48.0	19.8	0.00e+00	0	39	0	840957952	64	4304
2026-01-20 01:46:22.12	278.56	50.88	-46.6	-48.0	19.7	0.00e+00	0	39	0	843055104	64	4325
2026-01-20 01:46:23.13	278.00	50.69	-46.8	-48.2	19.4	0.00e+00	0	39	0	845152256	64	4438
2026-01-20 01:46:24.14	277.45	50.51	-47.3	-48.9	18.9	0.00e+00	0	39	0	846200832	65	4530
2026-01-20 01:46:25.14	276.91	50.32	-47.8	-49.6	18.1	0.00e+00	0	39	0	848297984	66	4629
2026-01-20 01:46:26.15	276.36	50.14	-48.2	-50.0	17.7	0.00e+00	0	39	0	850395136	66	4854
2026-01-20 01:46:27.16	275.83	49.95	-47.9	-49.7	18.1	0.00e+00	0	39	0	852492288	67	4410
2026-01-20 01:46:28.17	275.30	49.75	-47.4	-49.0	18.7	0.00e+00	0	39	0	854589440	66	4305
2026-01-20 01:46:29.18	274.78	49.56	-47.5	-49.1	18.6	0.00e+00	0	39	0	855638016	66	4377
2026-01-20 01:46:30.18	274.27	49.37	-47.8	-49.5	18.3	0.00e+00	0	39	0	857735168	66	4570
2026-01-20 01:46:31.19	273.76	49.17	-48.4	-50.3	17.5	0.00e+00	0	39	0	859832320	67	4713
2026-01-20 01:46:32.20	273.26	48.97	-49.1	-51.3	16.5	0.00e+00	0	39	0	861929472	68	5021
2026-01-20 01:46:33.21	272.77	48.77	-49.8	-52.4	15.5	0.00e+00	0	39	0	864026624	70	5042
2026-01-20 01:46:34.21	272.29	48.57	-49.7	-52.2	15.7	0.00e+00	0	39	0	865075200	70	4934
2026-01-20 01:46:35.22	271.80	48.37	-49.7	-52.2	15.6	0.00e+00	0	39	0	867172352	70	4955
2026-01-20 01:46:36.23	271.33	48.17	-49.6	-52.1	15.8	0.00e+00	0	39	0	869269504	70	4923
2026-01-20 01:46:37.24	270.86	47.96	-49.8	-52.4	15.4	0.00e+00	0	39	0	871366656	70	5099
2026-01-20 01:46:38.25	270.40	47.75	-49.9	-52.6	15.2	0.00e+00	0	39	0	873463808	70	5198
2026-01-20 01:46:39.26	269.94	47.55	-50.4	-53.5	14.4	0.00e+00	0	39	0	874512384	71	5415
2026-01-20 01:46:40.26	269.49	47.34	-50.7	-54.0	13.8	0.00e+00	0	39	0	876609536	71	5762
2026-01-20 01:46:41.27	269.05	47.13	-50.7	-54.0	13.7	1.06e-05	0	39	0	878706688	72	5428
2026-01-20 01:46:42.28	268.61	46.92	-50.6	-53.9	13.8	6.10e-06	0	39	0	880803840	72	5364
2026-01-20 01:46:43.29	268.18	46.71	-50.4	-53.4	14.3	6.10e-06	0	39	0	882900992	72	5052
2026-01-20 01:46:44.30	267.75	46.50	-50.2	-53.0	14.7	1.50e-06	0	39	0	883949568	72	4851
2026-01-20 01:46:45.30	267.33	46.29	-49.9	-52.6	15.3	0.00e+00	0	39	0	886046720	71	4871
2026-01-20 01:46:46.31	266.91	46.08	-49.7	-52.2	15.6	0.00e+00	0	39	0	888143872	71	4698
2026-01-20 01:46:47.32	266.50	45.86	-49.8	-52.3	15.5	0.00e+00	0	39	0	890241024	71	4756
2026-01-20 01:46:48.33	266.10	45.65	-49.9	-52.5	15.3	0.00e+00	0	39	0	892338176	71	4831
2026-01-20 01:46:49.33	265.70	45.44	-50.0	-52.8	15.0	0.00e+00	0	39	0	893386752	71	5002
2026-01-20 01:46:50.34	265.31	45.22	-50.0	-52.7	15.1	0.00e+00	0	39	0	895483904	71	4931
2026-01-20 01:46:51.35	264.92	45.01	-49.6	-52.1	15.6	0.00e+00	0	39	0	897581056	71	4639
2026-01-20 01:46:52.36	264.54	44.79	-49.1	-51.3	16.6	0.00e+00	0	39	0	899678208	70	4471
2026-01-20 01:46:53.37	264.16	44.58	-48.8	-50.9	16.9	0.00e+00	0	39	0	901775360	69	4512
2026-01-20 01:46:54.37	263.79	44.37	-48.8	-50.8	16.9	0.00e+00	0	39	0	903872512	69	4487
2026-01-20 01:46:55.38	263.42	44.15	-48.7	-50.8	17.1	0.00e+00	0	39	0	904921088	69	4445
2026-01-20 01:46:56.39	263.06	43.93	-48.9	-51.1	16.7	0.00e+00	0	39	0	907018240	69	4631
2026-01-20 01:46:57.40	262.70	43.72	-49.2	-51.5	16.3	0.00e+00	0	39	0	909115392	69	4837
2026-01-20 01:46:58.41	262.35	43.50	-49.3	-51.6	16.1	0.00e+00	0	39	0	911212544	69	4916
2026-01-20 01:46:59.41	262.00	43.29	-49.2	-51.5	16.3	0.00e+00	0	39	0	912261120	69	4847
2026-01-20 01:47:00.42	261.66	43.07	-48.5	-50.5	17.2	0.00e+00	0	39	0	914358272	69	4325
2026-01-20 01:47:01.43	261.32	42.86	-48.5	-50.5	17.2	0.00e+00	0	39	0	916455424	69	4335
2026-01-20 01:47:02.44	260.99	42.64	-48.6	-50.6	17.2	0.00e+00	0	39	0	918552576	69	4376
2026-01-20 01:47:03.45	260.66	42.42	-48.9	-51.0	16.8	0.00e+00	0	39	0	920649728	69	4562
2026-01-20 01:47:04.46	260.33	42.21	-49.1	-51.4	16.4	0.00e+00	0	39	0	921698304	69	4771
2026-01-20 01:47:05.47	260.01	41.99	-49.5	-52.0	15.9	0.00e+00	0	39	0	923795456	69	5122
2026-01-20 01:47:06.47	259.70	41.78	-49.9	-52.5	15.2	0.00e+00	0	39	0	925892608	70	5156
2026-01-20 01:47:07.48	259.38	41.57	-50.0	-52.7	15.0	0.00e+00	0	39	0	927989760	70	5279
2026-01-20 01:47:08.49	259.07	41.35	-49.7	-52.2	15.5	0.00e+00	0	39	0	930086912	70	4982
2026-01-20 01:47:09.50	258.77	41.14	-49.7	-52.2	15.6	0.00e+00	0	39	0	932184064	70	4960
2026-01-20 01:47:10.51	258.47	40.92	-49.8	-52.4	15.4	0.00e+00	0	39	0	933232640	70	5073
2026-01-20 01:47:11.51	258.18	40.71	-50.0	-52.7	15.1	0.00e+00	0	39	0	935329792	70	5266
2026-01-20 01:47:12.52	257.88	40.50	-50.1	-52.9	14.8	0.00e+00	0	39	0	937426944	70	5364
2026-01-20 01:47:13.53	257.59	40.29	-50.0	-52.7	15.0	0.00e+00	0	39	0	939524096	70	5277
2026-01-20 01:47:14.54	257.31	40.08	-50.0	-52.7	15.0	0.00e+00	0	39	0	940572672	70	5240
2026-01-20 01:47:15.55	257.03	39.86	-50.0	-52.7	15.1	0.00e+00	0	39	0	942669824	70	5231
2026-01-20 01:47:16.55	256.75	39.65	-49.7	-52.2	15.5	0.00e+00	0	39	0	944766976	70	4947
2026-01-20 01:47:17.56	256.48	39.44	-49.7	-52.3	15.5	0.00e+00	0	39	0	946864128	70	4984
2026-01-20 01:47:18.57	256.21	39.23	-49.8	-52.4	15.3	0.00e+00	0	39	0	948961280	70	5066
2026-01-20 01:47:19.58	255.94	39.02	-50.0	-52.8	14.8	0.00e+00	0	39	0	951058432	70	5326
2026-01-20 01:47:20.59	255.68	38.82	-50.1	-53.0	14.7	0.00e+00	0	39	0	952107008	70	5442
2026-01-20 01:47:21.59	255.42	38.61	-50.0	-52.8	15.0	0.00e+00	0	39	0	954204160	70	5286
2026-01-20 01:47:22.60	255.16	38.40	-49.7	-52.3	15.4	0.00e+00	0	39	0	956301312	70	5035
2026-01-20 01:47:23.61	254.91	38.19	-49.4	-51.9	15.9	0.00e+00	0	39	0	958398464	70	4771
2026-01-20 01:47:24.62	254.66	37.99	-49.3	-51.6	16.1	0.00e+00	0	39	0	960495616	70	4621
2026-01-20 01:47:25.62	254.41	37.78	-49.4	-51.8	16.0	0.00e+00	0	39	0	961544192	70	4710
2026-01-20 01:47:26.63	254.17	37.58	-49.2	-51.6	16.1	0.00e+00	0	39	0	963641344	70	4614
2026-01-20 01:47:27.64	253.93	37.37	-49.1	-51.3	16.5	0.00e+00	0	39	0	965738496	70	4461
2026-01-20 01:47:28.65	253.69	37.17	-49.0	-51.2	16.5	0.00e+00	0	39	0	967835648	69	4703
2026-01-20 01:47:29.65	253.46	36.97	-49.2	-51.5	16.2	0.00e+00	0	39	0	968884224	69	4834
2026-01-20 01:47:30.66	253.23	36.77	-49.4	-51.9	15.9	0.00e+00	0	39	0	970981376	69	5050
2026-01-20 01:47:31.67	253.00	36.56	-49.6	-52.2	15.5	0.00e+00	0	39	0	973078528	69	5242
2026-01-20 01:47:32.68	252.77	36.36	-49.6	-52.1	15.5	0.00e+00	0	39	0	975175680	69	5196
2026-01-20 01:47:33.69	252.55	36.16	-49.4	-51.9	15.8	0.00e+00	0	39	0	977272832	69	5049
2026-01-20 01:47:34.69	252.33	35.96	-48.9	-51.1	16.6	0.00e+00	0	39	0	979369984	69	4625
2026-01-20 01:47:35.70	252.11	35.77	-48.7	-50.7	16.9	0.00e+00	0	39	0	980418560	69	4433
2026-01-20 01:47:36.71	251.89	35.57	-48.5	-50.5	17.2	0.00e+00	0	39	0	982515712	68	4566
2026-01-20 01:47:37.72	251.68	35.37	-48.6	-50.6	17.1	0.00e+00	0	39	0	984612864	68	4614
2026-01-20 01:47:38.72	251.47	35.17	-48.6	-50.6	17.1	0.00e+00	0	39	0	986710016	68	4635
2026-01-20 01:47:39.73	251.27	34.98	-48.6	-50.7	17.0	0.00e+00	0	39	0	988807168	68	4685
2026-01-20 01:47:40.74	251.06	34.78	-48.9	-51.1	16.6	0.00e+00	0	39	0	989855744	68	4904
2026-01-20 01:47:41.75	250.86	34.59	-49.1	-51.4	16.3	0.00e+00	0	39	0	991952896	68	5060
2026-01-20 01:47:42.75	250.66	34.40	-49.3	-51.7	16.0	0.00e+00	0	39	0	994050048	69	4940
2026-01-20 01:47:43.76	250.46	34.21	-49.1	-51.4	16.3	0.00e+00	0	39	0	996147200	69	4795
2026-01-20 01:47:44.77	250.27	34.01	-49.1	-51.4	16.3	0.00e+00	0	39	0	998244352	69	4770
2026-01-20 01:47:45.78	250.07	33.82	-48.9	-51.0	16.6	0.00e+00	0	39	0	999292928	69	4595
2026-01-20 01:47:46.79	249.88	33.63	-49.0	-51.3	16.4	0.00e+00	0	39	0	1001390080	69	4736
2026-01-20 01:47:47.79	249.69	33.44	-49.0	-51.3	16.4	0.00e+00	0	39	0	1003487232	69	4734
2026-01-20 01:47:48.80	249.51	33.26	-49.1	-51.3	16.3	0.00e+00	0	39	0	1005584384	69	4759
2026-01-20 01:47:49.81	249.32	33.07	-49.1	-51.4	16.3	0.00e+00	0	39	0	1007681536	69	4777
2026-01-20 01:47:50.82	249.14	32.88	-49.0	-51.2	16.4	0.00e+00	0	39	0	1008730112	69	4702
2026-01-20 01:47:51.83	248.96	32.69	-48.9	-51.1	16.5	0.00e+00	0	39	0	1010827264	69	4605
2026-01-20 01:47:52.83	248.79	32.51	-48.9	-51.1	16.5	0.00e+00	0	39	0	1012924416	69	4633
2026-01-20 01:47:53.84	248.61	32.33	-48.9	-51.1	16.6	0.00e+00	0	39	0	1015021568	69	4617
2026-01-20 01:47:54.85	248.44	32.14	-49.0	-51.2	16.4	0.00e+00	0	39	0	1017118720	69	4685
2026-01-20 01:47:55.86	248.26	31.96	-49.0	-51.2	16.4	0.00e+00	0	39	0	1018167296	69	4672
2026-01-20 01:47:56.87	248.09	31.78	-49.1	-51.3	16.3	0.00e+00	0	39	0	1020264448	69	4759
2026-01-20 01:47:57.87	247.93	31.60	-49.1	-51.4	16.2	0.00e+00	0	39	0	1022361600	69	4792
2026-01-20 01:47:58.88	247.76	31.42	-49.2	-51.5	16.1	0.00e+00	0	39	0	1024458752	69	4866
2026-01-20 01:47:59.89	247.60	31.24	-49.2	-51.6	16.1	0.00e+00	0	39	0	1026555904	69	4887
2026-01-20 01:48:00.90	247.43	31.06	-49.2	-51.6	16.0	0.00e+00	0	39	0	1027604480	69	4914
2026-01-20 01:48:01.91	247.27	30.88	-49.1	-51.4	16.2	0.00e+00	0	39	0	1029701632	69	4814
2026-01-20 01:48:02.91	247.12	30.70	-49.1	-51.5	16.2	0.00e+00	0	39	0	1031798784	69	4817
2026-01-20 01:48:03.92	246.96	30.53	-48.9	-51.1	16.5	0.00e+00	0	39	0	1033895936	69	4638
2026-01-20 01:48:04.93	246.80	30.35	-48.9	-51.2	16.5	0.00e+00	0	39	0	1035993088	69	4665
2026-01-20 01:48:05.94	246.65	30.18	-48.9	-51.1	16.6	0.00e+00	0	39	0	1037041664	69	4608
2026-01-20 01:48:06.95	246.50	30.00	-48.8	-51.0	16.6	0.00e+00	0	39	0	1039138816	69	4581
2026-01-20 01:48:07.96	246.35	29.83	-48.7	-50.8	16.8	0.00e+00	0	39	0	1041235968	69	4465
2026-01-20 01:48:08.96	246.20	29.66	-48.4	-50.4	17.1	0.00e+00	0	39	0	1043333120	68	4540
2026-01-20 01:48:09.97	246.05	29.49	-48.3	-50.3	17.3	0.00e+00	0	39	0	1045430272	68	4460
2026-01-20 01:48:10.98	245.91	29.32	-48.2	-50.1	17.5	0.00e+00	0	39	0	1046478848	68	4341
2026-01-20 01:48:11.99	245.76	29.15	-48.2	-50.1	17.5	0.00e+00	0	39	0	1048576000	68	4370
2026-01-20 01:48:12.99	245.62	28.98	-48.1	-50.0	17.6	0.00e+00	0	39	0	1050673152	68	4331
2026-01-20 01:48:14.00	245.48	28.81	-48.1	-50.0	17.6	0.00e+00	0	39	0	1052770304	68	4336
2026-01-20 01:48:15.01	245.34	28.65	-48.2	-50.2	17.4	0.00e+00	0	39	0	1054867456	68	4394
2026-01-20 01:48:16.02	245.20	28.48	-48.2	-50.2	17.4	0.00e+00	0	39	0	1055916032	68	4405
2026-01-20 01:48:17.02	245.07	28.32	-48.1	-50.0	17.6	0.00e+00	0	39	0	1058013184	68	4322
2026-01-20 01:48:18.03	244.93	28.15	-48.1	-50.0	17.6	0.00e+00	0	39	0	1060110336	68	4315
2026-01-20 01:48:19.04	244.80	27.99	-47.9	-49.7	17.8	0.00e+00	0	39	0	1062207488	67	4431
2026-01-20 01:48:20.05	244.67	27.82	-47.9	-49.7	17.8	0.00e+00	0	39	0	1064304640	67	4425
2026-01-20 01:48:21.05	244.54	27.66	-47.8	-49.6	17.9	0.00e+00	0	39	0	1065353216	67	4356
2026-01-20 01:48:22.06	244.41	27.50	-47.7	-49.5	18.0	0.00e+00	0	39	0	1067450368	67	4310
2026-01-20 01:48:23.07	244.28	27.34	-47.7	-49.5	18.0	0.00e+00	0	39	0	1069547520	67	4322
2026-01-20 01:48:24.07	244.15	27.18	-47.8	-49.6	17.9	0.00e+00	0	39	0	1071644672	67	4345
2026-01-20 01:48:25.08	244.03	27.02	-47.7	-49.5	18.0	0.00e+00	0	39	0	1073741824	67	4316
2026-01-20 01:48:26.09	243.90	26.86	-47.7	-49.5	17.9	0.00e+00	0	39	0	1074790400	67	4323
2026-01-20 01:48:27.10	243.78	26.70	-47.8	-49.6	17.9	0.00e+00	0	39	0	1076887552	67	4352
2026-01-20 01:48:28.11	243.66	26.55	-47.8	-49.7	17.8	0.00e+00	0	39	0	1078984704	67	4402
2026-01-20 01:48:29.11	243.54	26.39	-47.9	-49.7	17.8	0.00e+00	0	39	0	1081081856	67	4428
2026-01-20 01:48:30.12	243.42	26.24	-47.8	-49.7	17.8	0.00e+00	0	39	0	1083179008	67	4395
2026-01-20 01:48:31.13	243.30	26.08	-47.9	-49.8	17.6	0.00e+00	0	39	0	1084227584	67	4488
2026-01-20 01:48:32.14	243.18	25.93	-47.9	-49.8	17.6	0.00e+00	0	39	0	1086324736	67	4459
2026-01-20 01:48:33.15	243.07	25.77	-47.8	-49.6	17.8	0.00e+00	0	39	0	1088421888	67	4381
2026-01-20 01:48:34.15	242.95	25.62	-47.8	-49.6	17.8	0.00e+00	0	39	0	1090519040	67	4380
2026-01-20 01:48:35.16	242.84	25.47	-47.8	-49.7	17.8	0.00e+00	0	39	0	1092616192	67	4406
2026-01-20 01:48:36.17	242.73	25.32	-47.6	-49.4	18.0	0.00e+00	0	39	0	1094713344	67	4273
2026-01-20 01:48:37.18	242.62	25.17	-47.6	-49.4	18.0	0.00e+00	0	39	0	1095761920	67	4274
2026-01-20 01:48:38.19	242.51	25.02	-47.6	-49.4	18.1	0.00e+00	0	39	0	1097859072	67	4245
2026-01-20 01:48:39.20	242.40	24.87	-47.6	-49.4	18.0	0.00e+00	0	39	0	1099956224	67	4255
2026-01-20 01:48:40.20	242.29	24.72	-47.5	-49.3	18.1	0.00e+00	0	39	0	1102053376	67	4223
2026-01-20 01:48:41.21	242.18	24.58	-47.4	-49.1	18.2	0.00e+00	0	39	0	1103101952	66	4387
2026-01-20 01:48:42.22	242.08	24.43	-47.4	-49.1	18.3	0.00e+00	0	39	0	1105199104	66	4349
2026-01-20 01:48:43.23	241.97	24.28	-47.2	-48.9	18.5	0.00e+00	0	39	0	1107296256	66	4274
2026-01-20 01:48:44.24	241.87	24.14	-47.0	-48.6	18.7	0.00e+00	0	39	0	1109393408	66	4144
2026-01-20 01:48:45.24	241.76	23.99	-47.1	-48.7	18.7	0.00e+00	0	39	0	1111490560	66	4161
2026-01-20 01:48:46.25	241.66	23.85	-46.9	-48.4	18.9	0.00e+00	0	39	0	1112539136	65	4286
2026-01-20 01:48:47.26	241.56	23.71	-46.9	-48.4	18.9	0.00e+00	0	39	0	1114636288	65	4290
2026-01-20 01:48:48.27	241.46	23.56	-46.8	-48.4	18.9	0.00e+00	0	39	0	1116733440	65	4260
2026-01-20 01:48:49.27	241.36	23.42	-46.9	-48.5	18.8	0.00e+00	0	39	0	1118830592	65	4330
2026-01-20 01:48:50.28	241.26	23.28	-47.0	-48.6	18.8	0.00e+00	0	39	0	1120927744	65	4350
2026-01-20 01:48:51.29	241.16	23.14	-47.1	-48.7	18.6	0.00e+00	0	39	0	1123024896	65	4435
2026-01-20 01:48:52.29	241.07	23.00	-47.1	-48.7	18.6	0.00e+00	0	39	0	1124073472	65	4431
2026-01-20 01:48:53.30	240.97	22.86	-47.2	-48.9	18.4	0.00e+00	0	39	0	1126170624	65	4527
2026-01-20 01:48:54.31	240.88	22.72	-47.3	-49.0	18.4	0.00e+00	0	39	0	1128267776	65	4560
2026-01-20 01:48:55.32	240.78	22.59	-47.3	-49.1	18.3	0.00e+00	0	39	0	1130364928	65	4602
2026-01-20 01:48:56.33	240.69	22.45	-47.4	-49.1	18.2	0.00e+00	0	39	0	1131413504	65	4630
2026-01-20 01:48:57.33	240.60	22.31	-47.3	-49.0	18.4	0.00e+00	0	39	0	1133510656	65	4560
2026-01-20 01:48:58.34	240.51	22.18	-47.2	-48.9	18.4	0.00e+00	0	39	0	1135607808	65	4523
2026-01-20 01:48:59.35	240.42	22.04	-47.3	-49.1	18.2	0.00e+00	0	39	0	1137704960	65	4616
2026-01-20 01:49:00.36	240.33	21.91	-47.3	-49.0	18.3	0.00e+00	0	39	0	1139802112	65	4575
2026-01-20 01:49:01.37	240.24	21.77	-47.4	-49.2	18.2	0.00e+00	0	39	0	1140850688	65	4654
2026-01-20 01:49:02.37	240.15	21.64	-47.2	-48.9	18.4	0.00e+00	0	39	0	1142947840	65	4502
2026-01-20 01:49:03.38	240.06	21.51	-47.3	-49.0	18.3	0.00e+00	0	39	0	1145044992	65	4575
2026-01-20 01:49:04.39	239.98	21.38	-47.2	-48.9	18.4	0.00e+00	0	39	0	1147142144	65	4507
2026-01-20 01:49:05.40	239.89	21.24	-47.4	-49.1	18.2	0.00e+00	0	39	0	1149239296	65	4643
2026-01-20 01:49:06.41	239.80	21.11	-47.4	-49.1	18.2	0.00e+00	0	39	0	1151336448	65	4622
2026-01-20 01:49:07.41	239.72	20.98	-47.4	-49.1	18.2	0.00e+00	0	39	0	1152385024	65	4624
2026-01-20 01:49:08.42	239.64	20.85	-47.4	-49.2	18.1	0.00e+00	0	39	0	1154482176	65	4686
2026-01-20 01:49:09.43	239.55	20.72	-47.5	-49.3	18.0	0.00e+00	0	39	0	1156579328	65	4721
2026-01-20 01:49:10.43	239.47	20.60	-47.5	-49.3	18.0	0.00e+00	0	39	0	1158676480	65	4722
2026-01-20 01:49:11.44	239.39	20.47	-47.6	-49.4	17.9	0.00e+00	0	39	0	1159725056	65	4764
2026-01-20 01:49:12.45	239.31	20.34	-47.6	-49.4	17.8	0.00e+00	0	39	0	1161822208	65	4803
2026-01-20 01:49:13.46	239.23	20.21	-47.6	-49.4	17.9	0.00e+00	0	39	0	1163919360	65	4771
2026-01-20 01:49:14.47	239.15	20.09	-47.5	-49.3	17.9	0.00e+00	0	39	0	1166016512	65	4750
2026-01-20 01:49:15.48	239.07	19.96	-47.5	-49.3	17.9	0.00e+00	0	39	0	1168113664	65	4727
2026-01-20 01:49:16.49	238.99	19.84	-47.3	-49.0	18.3	0.00e+00	0	39	0	1170210816	65	4565
2026-01-20 01:49:17.50	238.92	19.71	-47.4	-49.1	18.1	0.00e+00	0	39	0	1171259392	65	4646
2026-01-20 01:49:18.50	238.84	19.59	-47.2	-48.9	18.3	0.00e+00	0	39	0	1173356544	65	4521
2026-01-20 01:49:19.51	238.76	19.47	-47.0	-48.7	18.5	0.00e+00	0	39	0	1175453696	65	4410
2026-01-20 01:49:20.52	238.69	19.34	-46.9	-48.6	18.6	0.00e+00	0	39	0	1177550848	65	4355
2026-01-20 01:49:21.53	238.61	19.22	-46.9	-48.5	18.8	0.00e+00	0	39	0	1179648000	65	4308
2026-01-20 01:49:22.53	238.54	19.10	-46.8	-48.4	18.8	0.00e+00	0	39	0	1180696576	65	4279
2026-01-20 01:49:23.54	238.46	18.98	-46.8	-48.4	18.9	0.00e+00	0	39	0	1182793728	65	4256
2026-01-20 01:49:24.55	238.39	18.86	-46.9	-48.5	18.7	0.00e+00	0	39	0	1184890880	65	4328
2026-01-20 01:49:25.55	238.32	18.74	-47.0	-48.7	18.6	0.00e+00	0	39	0	1186988032	65	4392
2026-01-20 01:49:26.56	238.25	18.62	-47.0	-48.6	18.6	0.00e+00	0	39	0	1188036608	65	4375
2026-01-20 01:49:27.57	238.18	18.50	-47.1	-48.8	18.4	0.00e+00	0	39	0	1190133760	65	4457
2026-01-20 01:49:28.58	238.10	18.38	-47.1	-48.8	18.4	0.00e+00	0	39	0	1192230912	65	4469
2026-01-20 01:49:29.59	238.03	18.26	-47.2	-48.9	18.3	0.00e+00	0	39	0	1194328064	65	4527
2026-01-20 01:49:30.59	237.97	18.15	-47.2	-48.9	18.3	0.00e+00	0	39	0	1196425216	65	4509
2026-01-20 01:49:31.60	237.90	18.03	-47.2	-48.9	18.3	0.00e+00	0	39	0	1198522368	65	4494
2026-01-20 01:49:32.61	237.83	17.91	-47.3	-49.1	18.1	0.00e+00	0	39	0	1199570944	65	4611
2026-01-20 01:49:33.61	237.76	17.80	-47.1	-48.7	18.5	0.00e+00	0	39	0	1201668096	65	4441
2026-01-20 01:49:34.62	237.69	17.68	-47.2	-48.9	18.3	0.00e+00	0	39	0	1203765248	65	4519
2026-01-20 01:49:35.63	237.63	17.57	-47.2	-48.9	18.3	0.00e+00	0	39	0	1205862400	65	4508
2026-01-20 01:49:36.64	237.56	17.45	-47.2	-49.0	18.2	0.00e+00	0	39	0	1207959552	65	4546
2026-01-20 01:49:37.65	237.49	17.34	-47.1	-48.8	18.4	0.00e+00	0	39	0	1209008128	65	4448
2026-01-20 01:49:38.65	237.43	17.23	-47.1	-48.8	18.4	0.00e+00	0	39	0	1211105280	65	4459
2026-01-20 01:49:39.66	237.36	17.11	-47.2	-48.9	18.1	0.00e+00	0	39	0	1213202432	65	4535
2026-01-20 01:49:40.67	237.30	17.00	-47.2	-48.9	18.2	0.00e+00	0	39	0	1215299584	65	4545
2026-01-20 01:49:41.68	237.24	16.89	-47.3	-49.1	18.1	0.00e+00	0	39	0	1217396736	65	4600
2026-01-20 01:49:42.69	237.17	16.78	-47.4	-49.2	17.9	0.00e+00	0	39	0	1218445312	65	4705
2026-01-20 01:49:43.70	237.11	16.67	-47.4	-49.2	17.9	0.00e+00	0	39	0	1220542464	65	4698
2026-01-20 01:49:44.70	237.05	16.56	-47.6	-49.5	17.7	0.00e+00	0	39	0	1222639616	65	4847
2026-01-20 01:49:45.71	236.99	16.45	-47.6	-49.5	17.7	0.00e+00	0	39	0	1224736768	65	4839
2026-01-20 01:49:46.72	236.92	16.34	-47.7	-49.6	17.5	0.00e+00	0	39	0	1226833920	65	4916
2026-01-20 01:49:47.73	236.86	16.23	-47.8	-49.8	17.4	0.00e+00	0	39	0	1227882496	66	4719
2026-01-20 01:49:48.73	236.80	16.12	-47.8	-49.7	17.4	0.00e+00	0	39	0	1229979648	66	4681
2026-01-20 01:49:49.74	236.74	16.01	-47.8	-49.7	17.5	0.00e+00	0	39	0	1232076800	66	4684
2026-01-20 01:49:50.75	236.68	15.90	-47.8	-49.8	17.4	0.00e+00	0	39	0	1234173952	66	4716
2026-01-20 01:49:51.76	236.62	15.79	-47.8	-49.8	17.4	0.00e+00	0	39	0	1236271104	66	4708
2026-01-20 01:49:52.76	236.57	15.69	-47.7	-49.6	17.6	0.00e+00	0	39	0	1237319680	66	4603
2026-01-20 01:49:53.77	236.51	15.58	-47.8	-49.7	17.4	0.00e+00	0	39	0	1239416832	66	4680
2026-01-20 01:49:54.78	236.45	15.47	-47.7	-49.7	17.5	0.00e+00	0	39	0	1241513984	66	4656
2026-01-20 01:49:55.79	236.39	15.37	-47.6	-49.4	17.7	0.00e+00	0	39	0	1243611136	66	4539
2026-01-20 01:49:56.80	236.34	15.26	-47.6	-49.4	17.7	0.00e+00	0	39	0	1245708288	66	4524
2026-01-20 01:49:57.81	236.28	15.16	-47.6	-49.4	17.7	0.00e+00	0	39	0	1246756864	66	4534
2026-01-20 01:49:58.81	236.22	15.05	-47.5	-49.3	17.8	0.00e+00	0	39	0	1248854016	66	4485
2026-01-20 01:49:59.82	236.17	14.95	-47.5	-49.3	17.8	0.00e+00	0	39	0	1250951168	66	4478
2026-01-20 01:50:00.83	236.11	14.85	-47.5	-49.3	17.8	0.00e+00	0	39	0	1253048320	66	4482
2026-01-20 01:50:01.84	236.06	14.74	-47.5	-49.3	17.8	0.00e+00	0	39	0	1255145472	66	4476
2026-01-20 01:50:02.85	236.00	14.64	-47.5	-49.3	17.8	0.00e+00	0	39	0	1256194048	66	4467
2026-01-20 01:50:03.86	235.95	14.54	-47.5	-49.3	17.8	0.00e+00	0	39	0	1258291200	66	4486
