passes_logs/2026/01/20/R3.2S_Murmansk/R3.2S_Murmansk__20260120_063640_NOAA_20_JPSS-1_rec.log

#Pass ID: 20260120_063640_NOAA 20 (JPSS-1)
#Satellite: NOAA 20 (JPSS-1)
#Configuration: NOAA 20
#almurnet v.1.7.20251203
#Start time: 2026-01-20 06:36:42

#Version: 2.2.20231116
#Station: R3.2S_Murmansk
#Location: 33.079688 lon 68.888172 lat
#TLE: 1 43013U 17073A   26019.91154542  .00000116  00000+0  76014-4 0  9997
#TLE: 2 43013  98.7642 320.7991 0001304  32.0041 328.1214 14.19537346423438

#Time	Az	El	Level	Level2	SNR	BER	BlckErr	Temp	State	Recorded	gain1	gain2
2026-01-20 06:36:42.38	87.08	2.10	-51.9	-66.8	3.8	1.49e+00	0	37	0	0	74	21100
2026-01-20 06:36:43.38	87.03	2.16	-51.9	-66.9	3.8	1.49e+00	0	37	104	0	74	21321
2026-01-20 06:36:44.39	86.97	2.22	-51.9	-66.8	3.8	1.49e+00	0	37	104	0	74	21212
2026-01-20 06:36:45.40	86.91	2.28	-51.9	-66.8	3.8	1.49e+00	0	37	104	0	74	21240
2026-01-20 06:36:46.41	86.86	2.33	-51.9	-66.8	3.8	1.49e+00	0	37	104	0	74	21224
2026-01-20 06:36:47.42	86.80	2.39	-51.9	-66.8	3.8	1.49e+00	0	37	104	0	74	21188
2026-01-20 06:36:48.42	86.74	2.45	-51.9	-66.8	3.8	1.49e+00	0	37	104	0	74	21186
2026-01-20 06:36:49.43	86.68	2.51	-51.9	-66.8	3.8	1.49e+00	0	37	104	0	74	21183
2026-01-20 06:36:50.44	86.63	2.57	-51.9	-66.8	3.8	1.49e+00	0	37	104	0	74	21219
2026-01-20 06:36:51.45	86.57	2.63	-51.9	-66.8	3.8	1.49e+00	0	37	104	0	74	21176
2026-01-20 06:36:52.46	86.51	2.69	-51.9	-66.8	3.8	1.49e+00	0	37	104	0	74	21157
2026-01-20 06:36:53.46	86.45	2.75	-51.9	-66.8	3.8	1.49e+00	0	37	104	0	74	21127
2026-01-20 06:36:54.47	86.39	2.81	-51.9	-66.8	3.8	1.49e+00	0	37	104	0	74	21155
2026-01-20 06:36:55.48	86.33	2.88	-51.9	-66.8	3.8	1.49e+00	0	37	104	0	74	21134
2026-01-20 06:36:56.49	86.27	2.94	-51.9	-66.8	3.8	1.49e+00	0	37	104	0	74	21087
2026-01-20 06:36:57.49	86.21	3.00	-51.9	-66.8	3.8	1.49e+00	0	37	104	0	74	21172
2026-01-20 06:36:58.50	86.15	3.06	-51.9	-66.8	3.8	1.49e+00	0	37	104	0	74	21162
2026-01-20 06:36:59.51	86.09	3.12	-51.9	-66.8	3.8	1.49e+00	0	37	104	0	74	21191
2026-01-20 06:37:00.52	86.03	3.18	-51.9	-66.8	3.8	1.49e+00	0	37	104	0	74	21160
2026-01-20 06:37:01.53	85.97	3.24	-51.9	-66.8	3.8	1.49e+00	0	37	104	0	74	21227
2026-01-20 06:37:02.54	85.91	3.30	-51.9	-66.8	3.8	1.49e+00	0	37	104	0	74	21150
2026-01-20 06:37:03.54	85.85	3.36	-51.9	-66.8	3.8	1.49e+00	0	37	104	0	74	21075
2026-01-20 06:37:04.55	85.78	3.42	-51.9	-66.8	3.8	1.49e+00	0	37	104	0	74	21140
2026-01-20 06:37:05.56	85.72	3.48	-51.9	-66.8	3.8	1.49e+00	0	37	104	0	74	21097
2026-01-20 06:37:06.57	85.66	3.55	-51.9	-66.8	3.8	1.49e+00	0	37	104	0	74	21158
2026-01-20 06:37:07.57	85.60	3.61	-51.9	-66.8	3.8	1.49e+00	0	37	104	0	74	21191
2026-01-20 06:37:08.58	85.53	3.67	-51.9	-66.9	3.8	1.49e+00	0	37	104	0	74	21261
2026-01-20 06:37:09.59	85.47	3.73	-51.9	-66.8	3.8	1.49e+00	0	37	104	0	74	21209
2026-01-20 06:37:10.60	85.41	3.79	-51.9	-66.8	3.8	1.49e+00	0	38	104	0	74	21044
2026-01-20 06:37:11.61	85.34	3.86	-51.9	-66.7	3.8	1.49e+00	0	37	104	0	74	20781
2026-01-20 06:37:12.61	85.28	3.92	-51.9	-66.4	3.8	1.49e+00	0	37	104	0	74	20172
2026-01-20 06:37:13.62	85.22	3.98	-51.9	-66.2	3.8	1.49e+00	0	38	104	0	74	19636
2026-01-20 06:37:14.63	85.15	4.04	-51.8	-65.8	3.8	1.49e+00	0	38	104	0	74	18808
2026-01-20 06:37:15.64	85.09	4.11	-51.8	-65.5	3.8	1.49e+00	0	37	104	0	74	18160
2026-01-20 06:37:16.65	85.02	4.17	-51.8	-64.8	3.8	1.49e+00	0	37	104	0	74	16698
2026-01-20 06:37:17.65	84.96	4.23	-51.8	-64.5	3.8	1.49e+00	0	37	104	0	74	16192
2026-01-20 06:37:18.66	84.89	4.29	-51.7	-63.4	4.2	1.43e+00	0	38	0	0	74	14294
2026-01-20 06:37:19.67	84.82	4.36	-51.7	-62.9	4.3	1.37e+00	129	38	0	0	74	13427
2026-01-20 06:37:20.67	84.76	4.42	-51.6	-62.4	4.5	1.12e+00	62	38	0	1048576	74	12692
2026-01-20 06:37:21.68	84.69	4.48	-51.6	-62.0	4.6	7.99e-01	0	38	0	3145728	74	12201
2026-01-20 06:37:22.69	84.62	4.55	-51.4	-60.5	5.5	6.44e-01	0	38	0	5242880	74	10232
2026-01-20 06:37:23.70	84.56	4.61	-51.4	-60.6	5.4	4.98e-01	0	37	0	7340032	73	10998
2026-01-20 06:37:24.71	84.49	4.67	-51.4	-60.4	5.5	5.38e-01	0	38	0	9437184	73	10722
2026-01-20 06:37:25.71	84.42	4.74	-51.3	-59.7	6.0	3.50e-01	0	37	0	11534336	73	9933
2026-01-20 06:37:26.72	84.35	4.80	-51.4	-60.2	5.8	4.04e-01	0	38	0	12582912	73	10457
2026-01-20 06:37:27.73	84.28	4.86	-51.4	-60.4	5.5	5.34e-01	0	37	0	14680064	73	10743
2026-01-20 06:37:28.74	84.22	4.93	-51.4	-60.4	5.6	3.88e-01	0	37	0	16777216	73	10666
2026-01-20 06:37:29.74	84.15	4.99	-51.5	-60.8	5.2	6.39e-01	0	38	0	18874368	73	11279
2026-01-20 06:37:30.75	84.08	5.06	-50.6	-56.0	9.6	3.42e-01	0	38	0	19922944	73	6490
2026-01-20 06:37:31.76	84.01	5.12	-51.3	-58.9	7.0	1.53e-02	0	37	0	22020096	73	8987
2026-01-20 06:37:32.77	83.94	5.18	-51.7	-62.9	4.4	3.02e-01	77	38	0	24117248	73	14240
2026-01-20 06:37:33.77	83.87	5.25	-50.5	-55.8	9.8	6.57e-01	0	38	0	24117248	73	6304
2026-01-20 06:37:34.78	83.80	5.31	-51.7	-63.1	4.3	7.80e-02	59	38	0	26214400	73	14669
2026-01-20 06:37:35.79	83.72	5.38	-50.6	-56.1	9.4	1.44e+00	0	38	0	26214400	73	6512
2026-01-20 06:37:36.80	83.65	5.44	-50.2	-54.9	11.0	2.45e-03	0	38	0	28311552	72	5998
2026-01-20 06:37:37.81	83.58	5.51	-50.1	-54.5	11.3	9.01e-04	0	38	0	30408704	72	5785
2026-01-20 06:37:38.81	83.51	5.57	-50.1	-54.6	11.4	9.57e-04	0	38	0	31457280	72	5790
2026-01-20 06:37:39.82	83.44	5.64	-50.0	-54.3	11.8	8.65e-04	0	38	0	33554432	71	5933
2026-01-20 06:37:40.83	83.36	5.70	-49.6	-53.4	12.7	1.67e-04	0	38	0	35651584	71	5375
2026-01-20 06:37:41.84	83.29	5.77	-49.4	-52.8	13.3	2.82e-05	0	38	0	37748736	70	5310
2026-01-20 06:37:42.84	83.22	5.83	-49.4	-52.8	13.3	3.80e-06	0	38	0	38797312	70	5301
2026-01-20 06:37:43.85	83.14	5.90	-49.1	-52.3	13.8	9.10e-06	0	38	0	40894464	70	5034
2026-01-20 06:37:44.86	83.07	5.97	-48.8	-51.7	14.5	7.00e-07	0	38	0	42991616	69	4968
2026-01-20 06:37:45.87	83.00	6.03	-48.9	-51.9	14.3	1.50e-06	0	38	0	45088768	69	5051
2026-01-20 06:37:46.87	82.92	6.10	-48.9	-52.0	14.2	2.20e-06	0	38	0	47185920	69	5109
2026-01-20 06:37:47.88	82.85	6.16	-49.0	-52.2	14.0	1.50e-06	0	38	0	48234496	69	5228
2026-01-20 06:37:48.89	82.77	6.23	-49.0	-52.0	14.1	2.20e-06	0	38	0	50331648	69	5143
2026-01-20 06:37:49.90	82.69	6.30	-48.8	-51.8	14.4	1.50e-06	0	38	0	52428800	69	4997
2026-01-20 06:37:50.91	82.62	6.36	-49.1	-52.3	13.9	1.50e-06	0	38	0	54525952	69	5287
2026-01-20 06:37:51.91	82.54	6.43	-48.8	-51.8	14.5	0.00e+00	0	38	0	56623104	69	4995
2026-01-20 06:37:52.92	82.46	6.50	-48.9	-52.0	14.3	0.00e+00	0	38	0	58720256	69	5102
2026-01-20 06:37:53.93	82.39	6.56	-48.8	-51.7	14.6	7.00e-07	0	38	0	59768832	69	4947
2026-01-20 06:37:54.94	82.31	6.63	-48.8	-51.7	14.6	1.50e-06	0	38	0	61865984	69	4971
2026-01-20 06:37:55.95	82.23	6.70	-48.8	-51.7	14.5	0.00e+00	0	38	0	63963136	69	4980
2026-01-20 06:37:56.96	82.15	6.77	-48.9	-51.8	14.4	0.00e+00	0	38	0	66060288	69	5030
2026-01-20 06:37:57.97	82.07	6.83	-48.7	-51.6	14.7	0.00e+00	0	38	0	67108864	69	4887
2026-01-20 06:37:58.97	81.99	6.90	-48.8	-51.8	14.5	0.00e+00	0	38	0	69206016	69	5003
2026-01-20 06:37:59.98	81.91	6.97	-48.8	-51.6	14.7	0.00e+00	0	38	0	71303168	69	4916
2026-01-20 06:38:00.99	81.83	7.04	-48.6	-51.3	15.0	0.00e+00	0	38	0	73400320	69	4745
2026-01-20 06:38:02.00	81.75	7.10	-48.7	-51.5	14.8	0.00e+00	0	38	0	75497472	69	4839
2026-01-20 06:38:03.01	81.67	7.17	-48.6	-51.3	15.0	0.00e+00	0	38	0	77594624	69	4756
2026-01-20 06:38:04.01	81.59	7.24	-48.7	-51.5	14.8	0.00e+00	0	38	0	78643200	69	4848
2026-01-20 06:38:05.02	81.51	7.31	-48.6	-51.4	15.0	7.00e-07	0	38	0	80740352	69	4767
2026-01-20 06:38:06.03	81.43	7.38	-48.6	-51.4	15.0	0.00e+00	0	38	0	82837504	69	4781
2026-01-20 06:38:07.04	81.35	7.45	-48.7	-51.5	14.9	0.00e+00	0	38	0	84934656	69	4826
2026-01-20 06:38:08.05	81.26	7.51	-48.8	-51.7	14.8	0.00e+00	0	38	0	87031808	69	4929
2026-01-20 06:38:09.05	81.18	7.58	-48.8	-51.7	14.7	0.00e+00	0	38	0	88080384	69	4952
2026-01-20 06:38:10.06	81.10	7.65	-48.7	-51.5	14.8	0.00e+00	0	38	0	90177536	69	4854
2026-01-20 06:38:11.07	81.01	7.72	-48.8	-51.6	14.7	7.00e-07	0	38	0	92274688	69	4921
2026-01-20 06:38:12.07	80.93	7.79	-48.6	-51.3	15.1	0.00e+00	0	38	0	94371840	69	4733
2026-01-20 06:38:13.08	80.84	7.86	-48.6	-51.2	15.2	0.00e+00	0	38	0	95420416	69	4699
2026-01-20 06:38:14.09	80.76	7.93	-48.5	-51.1	15.3	0.00e+00	0	38	0	97517568	68	4912
2026-01-20 06:38:15.10	80.67	8.00	-48.6	-51.3	15.2	0.00e+00	0	38	0	99614720	68	5013
2026-01-20 06:38:16.11	80.59	8.07	-48.6	-51.3	15.2	0.00e+00	0	38	0	101711872	68	4994
2026-01-20 06:38:17.11	80.50	8.14	-48.6	-51.3	15.1	0.00e+00	0	38	0	103809024	68	5009
2026-01-20 06:38:18.12	80.41	8.21	-48.6	-51.3	15.2	0.00e+00	0	38	0	105906176	68	4986
2026-01-20 06:38:19.13	80.33	8.28	-48.7	-51.4	15.1	0.00e+00	0	38	0	106954752	68	5050
2026-01-20 06:38:20.14	80.24	8.35	-48.6	-51.2	15.2	0.00e+00	0	38	0	109051904	68	4959
2026-01-20 06:38:21.14	80.15	8.42	-48.6	-51.3	15.2	0.00e+00	0	38	0	111149056	68	4988
2026-01-20 06:38:22.15	80.06	8.49	-48.6	-51.2	15.3	0.00e+00	0	38	0	113246208	68	4970
2026-01-20 06:38:23.16	79.97	8.56	-48.6	-51.2	15.2	0.00e+00	0	38	0	115343360	68	4983
2026-01-20 06:38:24.17	79.88	8.63	-48.6	-51.1	15.4	0.00e+00	0	38	0	116391936	68	4922
2026-01-20 06:38:25.17	79.79	8.70	-48.5	-51.1	15.4	0.00e+00	0	38	0	118489088	68	4918
2026-01-20 06:38:26.18	79.70	8.77	-48.6	-51.2	15.3	0.00e+00	0	38	0	120586240	68	4954
2026-01-20 06:38:27.19	79.61	8.84	-48.6	-51.2	15.3	0.00e+00	0	38	0	122683392	68	4962
2026-01-20 06:38:28.20	79.52	8.91	-48.7	-51.3	15.2	0.00e+00	0	38	0	124780544	68	5025
2026-01-20 06:38:29.21	79.43	8.98	-48.6	-51.2	15.4	0.00e+00	0	38	0	125829120	68	4960
2026-01-20 06:38:30.21	79.34	9.06	-48.5	-51.0	15.6	0.00e+00	0	38	0	127926272	68	4857
2026-01-20 06:38:31.22	79.24	9.13	-48.6	-51.1	15.5	0.00e+00	0	38	0	130023424	68	4907
2026-01-20 06:38:32.23	79.15	9.20	-48.6	-51.1	15.5	0.00e+00	0	38	0	132120576	68	4902
2026-01-20 06:38:33.24	79.06	9.27	-48.4	-50.9	15.7	0.00e+00	0	38	0	134217728	68	4788
2026-01-20 06:38:34.25	78.96	9.34	-48.5	-51.1	15.5	0.00e+00	0	38	0	135266304	68	4873
2026-01-20 06:38:35.25	78.87	9.42	-48.5	-51.0	15.6	0.00e+00	0	38	0	137363456	68	4841
2026-01-20 06:38:36.26	78.77	9.49	-48.4	-50.9	15.7	0.00e+00	0	38	0	139460608	68	4805
2026-01-20 06:38:37.27	78.68	9.56	-48.5	-51.0	15.6	0.00e+00	0	38	0	141557760	68	4868
2026-01-20 06:38:38.27	78.58	9.63	-48.5	-51.0	15.6	0.00e+00	0	38	0	143654912	68	4821
2026-01-20 06:38:39.28	78.48	9.71	-48.5	-51.1	15.6	0.00e+00	0	38	0	144703488	68	4872
2026-01-20 06:38:40.29	78.39	9.78	-48.5	-50.9	15.7	0.00e+00	0	38	0	146800640	68	4812
2026-01-20 06:38:41.30	78.29	9.85	-48.4	-50.9	15.8	0.00e+00	0	38	0	148897792	68	4772
2026-01-20 06:38:42.31	78.19	9.92	-48.5	-51.0	15.6	0.00e+00	0	38	0	150994944	68	4863
2026-01-20 06:38:43.31	78.09	10.00	-48.5	-50.9	15.7	0.00e+00	0	38	0	153092096	68	4811
2026-01-20 06:38:44.32	77.99	10.07	-48.4	-50.9	15.7	0.00e+00	0	38	0	154140672	68	4783
2026-01-20 06:38:45.33	77.89	10.14	-48.4	-50.9	15.8	0.00e+00	0	38	0	156237824	68	4784
2026-01-20 06:38:46.34	77.79	10.22	-48.4	-50.8	15.8	0.00e+00	0	38	0	158334976	68	4756
2026-01-20 06:38:47.35	77.69	10.29	-48.5	-51.0	15.7	0.00e+00	0	38	0	160432128	68	4842
2026-01-20 06:38:48.35	77.59	10.36	-48.6	-51.1	15.6	0.00e+00	0	38	0	162529280	68	4879
2026-01-20 06:38:49.36	77.49	10.44	-48.6	-51.1	15.6	0.00e+00	0	38	0	163577856	68	4873
2026-01-20 06:38:50.37	77.39	10.51	-48.4	-50.9	15.8	0.00e+00	0	38	0	165675008	68	4768
2026-01-20 06:38:51.38	77.28	10.59	-48.5	-51.0	15.7	0.00e+00	0	38	0	167772160	68	4832
2026-01-20 06:38:52.39	77.18	10.66	-48.5	-51.0	15.7	7.00e-07	0	38	0	169869312	68	4840
2026-01-20 06:38:53.40	77.07	10.74	-48.5	-50.9	15.7	0.00e+00	0	38	0	171966464	68	4814
2026-01-20 06:38:54.40	76.97	10.81	-48.5	-51.0	15.7	0.00e+00	0	38	0	173015040	68	4822
2026-01-20 06:38:55.41	76.87	10.89	-48.4	-50.8	15.9	0.00e+00	0	38	0	175112192	68	4728
2026-01-20 06:38:56.42	76.76	10.96	-48.5	-50.9	15.8	0.00e+00	0	38	0	177209344	68	4796
2026-01-20 06:38:57.43	76.65	11.04	-48.4	-50.8	15.9	0.00e+00	0	38	0	179306496	68	4715
2026-01-20 06:38:58.43	76.55	11.11	-48.4	-50.8	15.9	0.00e+00	0	38	0	181403648	68	4755
2026-01-20 06:38:59.44	76.44	11.19	-48.4	-50.8	15.9	0.00e+00	0	38	0	182452224	68	4749
2026-01-20 06:39:00.45	76.33	11.26	-48.4	-50.9	15.9	0.00e+00	0	38	0	184549376	68	4770
2026-01-20 06:39:01.46	76.22	11.34	-48.4	-50.7	16.0	0.00e+00	0	38	0	186646528	68	4703
2026-01-20 06:39:02.47	76.11	11.41	-48.4	-50.8	15.9	0.00e+00	0	38	0	188743680	68	4739
2026-01-20 06:39:03.47	76.01	11.49	-48.4	-50.8	16.0	0.00e+00	0	38	0	190840832	68	4739
2026-01-20 06:39:04.48	75.90	11.56	-48.4	-50.8	16.0	0.00e+00	0	38	0	191889408	68	4718
2026-01-20 06:39:05.49	75.78	11.64	-48.3	-50.6	16.2	0.00e+00	0	38	0	193986560	68	4626
2026-01-20 06:39:06.50	75.67	11.72	-48.2	-50.5	16.3	0.00e+00	0	38	0	196083712	68	4591
2026-01-20 06:39:07.50	75.56	11.79	-48.4	-50.7	16.1	0.00e+00	0	38	0	198180864	68	4673
2026-01-20 06:39:08.51	75.45	11.87	-48.2	-50.5	16.3	0.00e+00	0	38	0	200278016	68	4557
2026-01-20 06:39:09.52	75.34	11.95	-48.2	-50.4	16.4	0.00e+00	0	38	0	201326592	68	4525
2026-01-20 06:39:10.53	75.22	12.02	-48.1	-50.3	16.5	0.00e+00	0	38	0	203423744	68	4483
2026-01-20 06:39:11.53	75.11	12.10	-48.3	-50.5	16.2	0.00e+00	0	38	0	205520896	68	4592
2026-01-20 06:39:12.54	74.99	12.18	-48.2	-50.4	16.4	0.00e+00	0	38	0	207618048	68	4533
2026-01-20 06:39:13.55	74.88	12.25	-48.1	-50.4	16.4	0.00e+00	0	38	0	209715200	68	4513
2026-01-20 06:39:14.56	74.76	12.33	-48.2	-50.4	16.4	0.00e+00	0	38	0	210763776	68	4537
2026-01-20 06:39:15.57	74.64	12.41	-48.1	-50.3	16.5	0.00e+00	0	38	0	212860928	68	4490
2026-01-20 06:39:16.57	74.53	12.49	-48.2	-50.4	16.4	0.00e+00	0	38	0	214958080	68	4527
2026-01-20 06:39:17.58	74.41	12.56	-48.2	-50.4	16.3	0.00e+00	0	38	0	217055232	68	4532
2026-01-20 06:39:18.59	74.29	12.64	-48.1	-50.4	16.5	0.00e+00	0	38	0	219152384	68	4511
2026-01-20 06:39:19.59	74.17	12.72	-48.3	-50.6	16.2	0.00e+00	0	38	0	221249536	68	4627
2026-01-20 06:39:20.60	74.05	12.80	-48.3	-50.5	16.3	0.00e+00	0	38	0	222298112	68	4582
2026-01-20 06:39:21.61	73.93	12.88	-48.3	-50.6	16.2	0.00e+00	0	38	0	224395264	68	4629
2026-01-20 06:39:22.62	73.81	12.95	-48.2	-50.4	16.4	0.00e+00	0	38	0	226492416	68	4530
2026-01-20 06:39:23.62	73.69	13.03	-48.1	-50.3	16.5	0.00e+00	0	38	0	228589568	68	4481
2026-01-20 06:39:24.63	73.56	13.11	-48.2	-50.4	16.4	0.00e+00	0	38	0	229638144	68	4533
2026-01-20 06:39:25.64	73.44	13.19	-48.1	-50.3	16.5	0.00e+00	0	38	0	231735296	68	4473
2026-01-20 06:39:26.65	73.32	13.27	-48.1	-50.3	16.5	0.00e+00	0	38	0	233832448	68	4479
2026-01-20 06:39:27.66	73.19	13.35	-48.2	-50.5	16.4	0.00e+00	0	38	0	235929600	68	4554
2026-01-20 06:39:28.67	73.07	13.43	-48.0	-50.2	16.7	0.00e+00	0	38	0	238026752	68	4411
2026-01-20 06:39:29.67	72.94	13.50	-48.1	-50.2	16.6	0.00e+00	0	38	0	239075328	68	4420
2026-01-20 06:39:30.68	72.81	13.58	-48.0	-50.2	16.7	0.00e+00	0	38	0	241172480	68	4398
2026-01-20 06:39:31.69	72.69	13.66	-47.8	-49.9	16.9	0.00e+00	0	38	0	243269632	67	4533
2026-01-20 06:39:32.70	72.56	13.74	-47.8	-49.9	16.9	0.00e+00	0	38	0	245366784	67	4498
2026-01-20 06:39:33.71	72.43	13.82	-47.7	-49.8	17.0	0.00e+00	0	38	0	247463936	67	4463
2026-01-20 06:39:34.71	72.30	13.90	-47.7	-49.8	17.0	0.00e+00	0	38	0	249561088	67	4443
2026-01-20 06:39:35.72	72.17	13.98	-47.7	-49.7	17.1	0.00e+00	0	38	0	250609664	67	4409
2026-01-20 06:39:36.73	72.04	14.06	-47.6	-49.6	17.2	0.00e+00	0	38	0	252706816	67	4367
2026-01-20 06:39:37.74	71.91	14.14	-47.7	-49.7	17.1	0.00e+00	0	38	0	254803968	67	4426
2026-01-20 06:39:38.74	71.77	14.22	-47.7	-49.8	17.0	0.00e+00	0	38	0	256901120	67	4458
2026-01-20 06:39:39.75	71.64	14.30	-47.6	-49.6	17.2	0.00e+00	0	38	0	257949696	67	4382
2026-01-20 06:39:40.76	71.51	14.38	-47.7	-49.7	17.1	0.00e+00	0	38	0	260046848	67	4436
2026-01-20 06:39:41.77	71.37	14.46	-47.7	-49.8	17.1	0.00e+00	0	38	0	262144000	67	4451
2026-01-20 06:39:42.78	71.24	14.54	-47.7	-49.7	17.1	0.00e+00	0	38	0	264241152	67	4440
2026-01-20 06:39:43.78	71.10	14.62	-47.7	-49.7	17.1	0.00e+00	0	38	0	266338304	67	4430
2026-01-20 06:39:44.79	70.96	14.70	-47.5	-49.5	17.3	0.00e+00	0	38	0	268435456	67	4321
2026-01-20 06:39:45.80	70.83	14.78	-47.6	-49.6	17.2	0.00e+00	0	38	0	269484032	67	4351
2026-01-20 06:39:46.81	70.69	14.87	-47.7	-49.7	17.1	0.00e+00	0	38	0	271581184	67	4417
2026-01-20 06:39:47.81	70.55	14.95	-47.6	-49.6	17.3	0.00e+00	0	38	0	273678336	67	4354
2026-01-20 06:39:48.82	70.41	15.03	-47.5	-49.5	17.3	0.00e+00	0	38	0	275775488	67	4311
2026-01-20 06:39:49.83	70.27	15.11	-47.4	-49.3	17.6	0.00e+00	0	38	0	277872640	66	4452
2026-01-20 06:39:50.84	70.13	15.19	-47.4	-49.3	17.5	0.00e+00	0	38	0	278921216	66	4466
2026-01-20 06:39:51.85	69.98	15.27	-47.4	-49.3	17.6	0.00e+00	0	38	0	281018368	66	4462
2026-01-20 06:39:52.85	69.84	15.35	-47.4	-49.2	17.6	0.00e+00	0	38	0	283115520	66	4439
2026-01-20 06:39:53.86	69.70	15.43	-47.4	-49.3	17.5	0.00e+00	0	38	0	285212672	66	4478
2026-01-20 06:39:54.87	69.55	15.52	-47.5	-49.4	17.4	0.00e+00	0	38	0	286261248	66	4525
2026-01-20 06:39:55.88	69.41	15.60	-47.4	-49.4	17.5	0.00e+00	0	38	0	288358400	66	4498
2026-01-20 06:39:56.89	69.26	15.68	-47.4	-49.3	17.6	0.00e+00	0	38	0	290455552	66	4450
2026-01-20 06:39:57.89	69.11	15.76	-47.4	-49.3	17.6	0.00e+00	0	38	0	292552704	66	4453
2026-01-20 06:39:58.90	68.97	15.84	-47.5	-49.4	17.4	0.00e+00	0	38	0	294649856	66	4522
2026-01-20 06:39:59.91	68.82	15.93	-47.5	-49.5	17.4	0.00e+00	0	38	0	296747008	66	4555
2026-01-20 06:40:00.92	68.67	16.01	-47.5	-49.4	17.4	0.00e+00	0	38	0	297795584	66	4531
2026-01-20 06:40:01.93	68.52	16.09	-47.4	-49.4	17.5	0.00e+00	0	38	0	299892736	66	4500
2026-01-20 06:40:02.93	68.37	16.17	-47.5	-49.5	17.4	0.00e+00	0	38	0	301989888	66	4561
2026-01-20 06:40:03.94	68.21	16.25	-47.4	-49.3	17.6	0.00e+00	0	38	0	304087040	66	4456
2026-01-20 06:40:04.95	68.06	16.34	-47.4	-49.2	17.6	0.00e+00	0	38	0	306184192	66	4424
2026-01-20 06:40:05.96	67.91	16.42	-47.5	-49.4	17.5	0.00e+00	0	38	0	307232768	66	4512
2026-01-20 06:40:06.97	67.75	16.50	-47.4	-49.3	17.6	0.00e+00	0	38	0	309329920	66	4473
2026-01-20 06:40:07.97	67.60	16.58	-47.4	-49.3	17.5	0.00e+00	0	38	0	311427072	66	4481
2026-01-20 06:40:08.98	67.44	16.67	-47.5	-49.4	17.4	0.00e+00	0	38	0	313524224	66	4541
2026-01-20 06:40:09.99	67.28	16.75	-47.4	-49.3	17.6	0.00e+00	0	38	0	315621376	66	4464
2026-01-20 06:40:10.99	67.13	16.83	-47.4	-49.3	17.6	0.00e+00	0	38	0	316669952	66	4453
2026-01-20 06:40:12.00	66.97	16.91	-47.4	-49.3	17.6	0.00e+00	0	38	0	318767104	66	4449
2026-01-20 06:40:13.01	66.81	17.00	-47.5	-49.4	17.4	0.00e+00	0	38	0	320864256	66	4531
2026-01-20 06:40:14.02	66.64	17.08	-47.5	-49.4	17.5	0.00e+00	0	38	0	322961408	66	4514
2026-01-20 06:40:15.03	66.48	17.16	-47.5	-49.5	17.4	0.00e+00	0	38	0	325058560	66	4553
2026-01-20 06:40:16.03	66.32	17.25	-47.5	-49.4	17.5	0.00e+00	0	38	0	326107136	66	4530
2026-01-20 06:40:17.04	66.16	17.33	-47.4	-49.3	17.6	0.00e+00	0	38	0	328204288	66	4484
2026-01-20 06:40:18.05	65.99	17.41	-47.5	-49.4	17.5	0.00e+00	0	38	0	330301440	66	4531
2026-01-20 06:40:19.06	65.83	17.50	-47.6	-49.5	17.3	0.00e+00	0	38	0	332398592	66	4598
2026-01-20 06:40:20.07	65.66	17.58	-47.6	-49.5	17.4	0.00e+00	0	38	0	334495744	66	4592
2026-01-20 06:40:21.07	65.49	17.66	-47.6	-49.6	17.3	0.00e+00	0	38	0	335544320	66	4621
2026-01-20 06:40:22.08	65.33	17.75	-47.7	-49.7	17.3	0.00e+00	0	38	0	337641472	66	4657
2026-01-20 06:40:23.09	65.16	17.83	-47.7	-49.7	17.2	0.00e+00	0	38	0	339738624	66	4677
2026-01-20 06:40:24.09	64.99	17.91	-47.7	-49.6	17.3	0.00e+00	0	38	0	341835776	66	4626
2026-01-20 06:40:25.10	64.82	17.99	-47.7	-49.6	17.3	0.00e+00	0	38	0	343932928	66	4643
2026-01-20 06:40:26.11	64.64	18.08	-47.7	-49.6	17.3	0.00e+00	0	38	0	344981504	66	4641
2026-01-20 06:40:27.12	64.47	18.16	-47.6	-49.5	17.4	0.00e+00	0	38	0	347078656	66	4593
2026-01-20 06:40:28.13	64.30	18.25	-47.6	-49.6	17.4	0.00e+00	0	38	0	349175808	66	4603
2026-01-20 06:40:29.13	64.12	18.33	-47.7	-49.7	17.3	0.00e+00	0	38	0	351272960	66	4662
2026-01-20 06:40:30.14	63.95	18.41	-47.6	-49.6	17.4	0.00e+00	0	38	0	353370112	66	4608
2026-01-20 06:40:31.15	63.77	18.49	-47.7	-49.7	17.2	0.00e+00	0	38	0	354418688	66	4679
2026-01-20 06:40:32.15	63.59	18.58	-47.7	-49.6	17.3	0.00e+00	0	38	0	356515840	66	4634
2026-01-20 06:40:33.16	63.41	18.66	-47.6	-49.5	17.4	0.00e+00	0	38	0	358612992	66	4596
2026-01-20 06:40:34.17	63.23	18.74	-47.6	-49.5	17.4	0.00e+00	0	38	0	360710144	66	4580
2026-01-20 06:40:35.18	63.05	18.83	-47.4	-49.2	17.7	0.00e+00	0	38	0	362807296	66	4441
2026-01-20 06:40:36.19	62.87	18.91	-47.5	-49.4	17.5	0.00e+00	0	38	0	364904448	66	4529
2026-01-20 06:40:37.19	62.69	18.99	-47.6	-49.5	17.4	0.00e+00	0	38	0	365953024	66	4595
2026-01-20 06:40:38.20	62.50	19.08	-47.6	-49.5	17.4	0.00e+00	0	38	0	368050176	66	4563
2026-01-20 06:40:39.21	62.32	19.16	-47.6	-49.6	17.4	0.00e+00	0	38	0	370147328	66	4609
2026-01-20 06:40:40.22	62.13	19.24	-47.7	-49.6	17.3	0.00e+00	0	38	0	372244480	66	4641
2026-01-20 06:40:41.23	61.95	19.33	-47.6	-49.6	17.4	0.00e+00	0	39	0	373293056	66	4610
2026-01-20 06:40:42.24	61.76	19.41	-47.6	-49.6	17.4	0.00e+00	0	38	0	375390208	66	4619
2026-01-20 06:40:43.24	61.57	19.49	-47.7	-49.7	17.3	0.00e+00	0	38	0	377487360	66	4688
2026-01-20 06:40:44.25	61.38	19.58	-47.7	-49.6	17.3	0.00e+00	0	38	0	379584512	66	4647
2026-01-20 06:40:45.26	61.19	19.66	-47.8	-49.8	17.1	0.00e+00	0	38	0	381681664	66	4733
2026-01-20 06:40:46.27	60.99	19.74	-47.6	-49.6	17.4	0.00e+00	0	38	0	382730240	66	4615
2026-01-20 06:40:47.27	60.80	19.82	-47.5	-49.5	17.5	0.00e+00	0	38	0	384827392	66	4546
2026-01-20 06:40:48.28	60.61	19.91	-47.4	-49.3	17.7	0.00e+00	0	38	0	386924544	66	4451
2026-01-20 06:40:49.29	60.41	19.99	-47.4	-49.2	17.8	0.00e+00	0	38	0	389021696	66	4427
2026-01-20 06:40:50.30	60.22	20.07	-47.3	-49.1	17.9	0.00e+00	0	38	0	391118848	66	4365
2026-01-20 06:40:51.31	60.02	20.15	-47.2	-49.1	17.9	0.00e+00	0	38	0	393216000	66	4347
2026-01-20 06:40:52.31	59.82	20.24	-47.2	-49.0	17.9	0.00e+00	0	38	0	394264576	66	4332
2026-01-20 06:40:53.32	59.62	20.32	-47.2	-49.0	17.9	0.00e+00	0	38	0	396361728	66	4329
2026-01-20 06:40:54.33	59.42	20.40	-47.1	-48.8	18.1	0.00e+00	0	38	0	398458880	66	4225
2026-01-20 06:40:55.34	59.22	20.48	-47.1	-48.8	18.1	0.00e+00	0	38	0	400556032	66	4224
2026-01-20 06:40:56.35	59.01	20.56	-47.1	-48.9	18.1	0.00e+00	0	38	0	401604608	66	4276
2026-01-20 06:40:57.36	58.81	20.65	-47.0	-48.8	18.2	0.00e+00	0	38	0	403701760	66	4194
2026-01-20 06:40:58.36	58.61	20.73	-47.0	-48.8	18.2	0.00e+00	0	38	0	405798912	66	4203
2026-01-20 06:40:59.37	58.40	20.81	-46.9	-48.6	18.3	0.00e+00	0	38	0	407896064	65	4369
2026-01-20 06:41:00.36	58.20	20.89	-46.9	-48.6	18.3	0.00e+00	0	38	0	409993216	65	4366
2026-01-20 06:41:01.36	57.99	20.97	-46.8	-48.4	18.5	0.00e+00	0	38	0	411041792	65	4287
2026-01-20 06:41:02.36	57.78	21.05	-46.6	-48.3	18.7	0.00e+00	0	38	0	413138944	65	4194
2026-01-20 06:41:03.37	57.57	21.13	-46.6	-48.2	18.7	0.00e+00	0	38	0	415236096	65	4185
2026-01-20 06:41:04.38	57.36	21.21	-46.6	-48.2	18.8	0.00e+00	0	38	0	417333248	65	4164
2026-01-20 06:41:05.39	57.15	21.29	-46.6	-48.2	18.8	0.00e+00	0	38	0	419430400	65	4152
2026-01-20 06:41:06.39	56.93	21.37	-46.6	-48.2	18.6	0.00e+00	0	38	0	421527552	65	4157
2026-01-20 06:41:07.40	56.72	21.45	-46.5	-48.1	18.9	0.00e+00	0	38	0	422576128	64	4352
2026-01-20 06:41:08.41	56.50	21.53	-46.5	-48.1	18.9	0.00e+00	0	38	0	424673280	64	4378
2026-01-20 06:41:09.42	56.28	21.61	-46.5	-48.0	18.9	0.00e+00	0	38	0	426770432	64	4328
2026-01-20 06:41:10.43	56.07	21.69	-46.4	-48.0	18.9	0.00e+00	0	38	0	428867584	64	4321
2026-01-20 06:41:11.43	55.85	21.77	-46.3	-47.8	19.1	0.00e+00	0	38	0	429916160	64	4239
2026-01-20 06:41:12.44	55.63	21.85	-46.2	-47.7	19.2	0.00e+00	0	38	0	432013312	64	4182
2026-01-20 06:41:13.45	55.40	21.93	-46.1	-47.5	19.4	0.00e+00	0	38	0	434110464	64	4097
2026-01-20 06:41:14.46	55.18	22.01	-46.0	-47.5	19.6	0.00e+00	0	38	0	436207616	63	4297
2026-01-20 06:41:15.47	54.96	22.09	-45.9	-47.4	19.7	0.00e+00	0	38	0	438304768	63	4248
2026-01-20 06:41:16.47	54.73	22.17	-46.0	-47.5	19.6	0.00e+00	0	38	0	439353344	63	4313
2026-01-20 06:41:17.48	54.51	22.25	-46.0	-47.4	19.6	0.00e+00	0	38	0	441450496	63	4260
2026-01-20 06:41:18.49	54.28	22.32	-46.0	-47.5	19.6	0.00e+00	0	38	0	443547648	63	4298
2026-01-20 06:41:19.50	54.05	22.40	-46.1	-47.5	19.5	0.00e+00	0	38	0	445644800	63	4340
2026-01-20 06:41:20.50	53.82	22.48	-46.1	-47.6	19.5	0.00e+00	0	38	0	447741952	63	4372
2026-01-20 06:41:21.51	53.59	22.56	-46.1	-47.6	19.5	0.00e+00	0	38	0	449839104	63	4357
2026-01-20 06:41:22.52	53.36	22.63	-46.1	-47.6	19.5	0.00e+00	0	38	0	450887680	63	4353
2026-01-20 06:41:23.53	53.12	22.71	-46.1	-47.5	19.5	0.00e+00	0	38	0	452984832	63	4328
2026-01-20 06:41:24.54	52.89	22.79	-46.1	-47.6	19.4	0.00e+00	0	38	0	455081984	63	4374
2026-01-20 06:41:25.54	52.65	22.86	-46.1	-47.6	19.5	0.00e+00	0	38	0	457179136	63	4365
2026-01-20 06:41:26.55	52.42	22.94	-46.2	-47.6	19.5	0.00e+00	0	38	0	458227712	63	4380
2026-01-20 06:41:27.56	52.18	23.01	-46.1	-47.6	19.5	0.00e+00	0	38	0	460324864	63	4352
2026-01-20 06:41:28.57	51.94	23.09	-46.1	-47.6	19.5	0.00e+00	0	38	0	462422016	63	4344
2026-01-20 06:41:29.57	51.70	23.16	-46.2	-47.6	19.5	0.00e+00	0	38	0	464519168	63	4384
2026-01-20 06:41:30.58	51.46	23.24	-46.2	-47.7	19.4	0.00e+00	0	38	0	466616320	63	4398
2026-01-20 06:41:31.59	51.21	23.31	-46.3	-47.8	19.3	0.00e+00	0	38	0	468713472	63	4443
2026-01-20 06:41:32.60	50.97	23.39	-46.2	-47.7	19.3	0.00e+00	0	38	0	469762048	63	4424
2026-01-20 06:41:33.61	50.72	23.46	-46.1	-47.5	19.5	0.00e+00	0	38	0	471859200	63	4336
2026-01-20 06:41:34.61	50.48	23.53	-46.1	-47.5	19.6	0.00e+00	0	38	0	473956352	63	4315
2026-01-20 06:41:35.62	50.23	23.60	-46.0	-47.5	19.6	0.00e+00	0	38	0	476053504	63	4306
2026-01-20 06:41:36.63	49.98	23.68	-46.0	-47.5	19.6	0.00e+00	0	38	0	478150656	63	4295
2026-01-20 06:41:37.64	49.73	23.75	-46.1	-47.5	19.5	0.00e+00	0	38	0	479199232	63	4340
2026-01-20 06:41:38.65	49.48	23.82	-46.1	-47.5	19.6	0.00e+00	0	38	0	481296384	63	4315
2026-01-20 06:41:39.65	49.23	23.89	-46.1	-47.5	19.5	0.00e+00	0	38	0	483393536	63	4338
2026-01-20 06:41:40.66	48.98	23.96	-46.2	-47.6	19.4	0.00e+00	0	38	0	485490688	63	4379
2026-01-20 06:41:41.67	48.72	24.03	-46.2	-47.7	19.3	0.00e+00	0	38	0	486539264	63	4432
2026-01-20 06:41:42.67	48.47	24.10	-46.3	-47.8	19.3	0.00e+00	0	38	0	488636416	63	4461
2026-01-20 06:41:43.68	48.21	24.17	-46.4	-47.9	19.2	0.00e+00	0	38	0	490733568	63	4507
2026-01-20 06:41:44.69	47.96	24.24	-46.3	-47.8	19.2	0.00e+00	0	38	0	492830720	63	4490
2026-01-20 06:41:45.70	47.70	24.31	-46.4	-47.9	19.2	0.00e+00	0	38	0	494927872	63	4540
2026-01-20 06:41:46.71	47.44	24.38	-46.5	-48.0	19.0	0.00e+00	0	38	0	497025024	63	4591
2026-01-20 06:41:47.71	47.18	24.44	-46.5	-48.1	19.0	0.00e+00	0	38	0	498073600	63	4614
2026-01-20 06:41:48.72	46.91	24.51	-46.6	-48.1	19.0	0.00e+00	0	38	0	500170752	63	4640
2026-01-20 06:41:49.73	46.65	24.58	-46.4	-47.9	19.2	0.00e+00	0	38	0	502267904	63	4528
2026-01-20 06:41:50.74	46.39	24.64	-46.4	-47.9	19.2	0.00e+00	0	38	0	504365056	63	4527
2026-01-20 06:41:51.75	46.12	24.71	-46.3	-47.8	19.3	0.00e+00	0	38	0	506462208	63	4454
2026-01-20 06:41:52.75	45.86	24.77	-46.3	-47.8	19.3	0.00e+00	0	38	0	507510784	63	4455
2026-01-20 06:41:53.76	45.59	24.84	-46.3	-47.7	19.4	0.00e+00	0	38	0	509607936	63	4441
2026-01-20 06:41:54.77	45.32	24.90	-46.3	-47.8	19.3	0.00e+00	0	38	0	511705088	63	4455
2026-01-20 06:41:55.78	45.05	24.97	-46.2	-47.6	19.5	0.00e+00	0	38	0	513802240	63	4373
2026-01-20 06:41:56.79	44.78	25.03	-46.1	-47.5	19.6	0.00e+00	0	38	0	515899392	63	4317
2026-01-20 06:41:57.79	44.51	25.09	-46.2	-47.6	19.5	0.00e+00	0	38	0	516947968	63	4375
2026-01-20 06:41:58.80	44.23	25.15	-46.2	-47.6	19.5	0.00e+00	0	38	0	519045120	63	4388
2026-01-20 06:41:59.81	43.96	25.22	-46.0	-47.4	19.7	0.00e+00	0	38	0	521142272	63	4253
2026-01-20 06:42:00.81	43.68	25.28	-46.0	-47.5	19.6	0.00e+00	0	38	0	523239424	63	4300
2026-01-20 06:42:01.82	43.41	25.34	-46.1	-47.6	19.5	0.00e+00	0	38	0	525336576	63	4348
2026-01-20 06:42:02.83	43.13	25.40	-46.0	-47.4	19.6	0.00e+00	0	38	0	526385152	63	4288
2026-01-20 06:42:03.84	42.85	25.45	-46.1	-47.5	19.6	0.00e+00	0	38	0	528482304	63	4316
2026-01-20 06:42:04.85	42.57	25.51	-46.0	-47.4	19.6	0.00e+00	0	38	0	530579456	63	4291
2026-01-20 06:42:05.86	42.29	25.57	-45.9	-47.3	19.8	0.00e+00	0	38	0	532676608	63	4210
2026-01-20 06:42:06.86	42.01	25.63	-45.8	-47.2	19.9	0.00e+00	0	38	0	534773760	63	4148
2026-01-20 06:42:07.87	41.73	25.68	-45.8	-47.2	19.9	0.00e+00	0	38	0	535822336	63	4147
2026-01-20 06:42:08.88	41.44	25.74	-45.9	-47.3	19.8	0.00e+00	0	38	0	537919488	63	4218
2026-01-20 06:42:09.89	41.16	25.79	-45.9	-47.3	19.8	0.00e+00	0	38	0	540016640	63	4218
2026-01-20 06:42:10.89	40.87	25.85	-45.9	-47.3	19.7	0.00e+00	0	38	0	542113792	63	4230
2026-01-20 06:42:11.90	40.59	25.90	-46.0	-47.5	19.7	0.00e+00	0	38	0	544210944	63	4297
2026-01-20 06:42:12.91	40.30	25.96	-46.1	-47.5	19.6	0.00e+00	0	38	0	545259520	63	4340
2026-01-20 06:42:13.91	40.01	26.01	-46.1	-47.6	19.5	0.00e+00	0	38	0	547356672	63	4370
2026-01-20 06:42:14.92	39.72	26.06	-46.2	-47.7	19.4	0.00e+00	0	38	0	549453824	63	4419
2026-01-20 06:42:15.93	39.43	26.11	-46.3	-47.8	19.3	0.00e+00	0	38	0	551550976	63	4474
2026-01-20 06:42:16.94	39.14	26.16	-46.3	-47.8	19.3	0.00e+00	0	38	0	553648128	63	4483
2026-01-20 06:42:17.95	38.85	26.21	-46.4	-47.9	19.2	0.00e+00	0	38	0	554696704	63	4514
2026-01-20 06:42:18.96	38.55	26.26	-46.5	-48.1	19.0	0.00e+00	0	38	0	556793856	63	4619
2026-01-20 06:42:19.96	38.26	26.31	-46.7	-48.3	18.8	0.00e+00	0	38	0	558891008	64	4451
2026-01-20 06:42:20.97	37.97	26.35	-46.7	-48.3	18.7	0.00e+00	0	38	0	560988160	64	4478
2026-01-20 06:42:21.98	37.67	26.40	-46.8	-48.5	18.6	0.00e+00	0	38	0	563085312	64	4548
2026-01-20 06:42:22.99	37.37	26.45	-46.7	-48.3	18.7	0.00e+00	0	38	0	564133888	64	4474
2026-01-20 06:42:23.99	37.08	26.49	-46.8	-48.5	18.6	0.00e+00	0	38	0	566231040	64	4568
2026-01-20 06:42:25.00	36.78	26.54	-47.0	-48.7	18.3	0.00e+00	0	38	0	568328192	64	4691
2026-01-20 06:42:26.01	36.48	26.58	-47.0	-48.8	18.3	0.00e+00	0	38	0	570425344	64	4720
2026-01-20 06:42:27.02	36.18	26.62	-47.0	-48.7	18.3	0.00e+00	0	38	0	572522496	64	4698
2026-01-20 06:42:28.02	35.88	26.66	-47.1	-48.9	18.2	0.00e+00	0	38	0	573571072	64	4772
2026-01-20 06:42:29.03	35.58	26.70	-47.1	-48.9	18.2	0.00e+00	0	38	0	575668224	64	4785
2026-01-20 06:42:30.04	35.28	26.74	-47.1	-48.8	18.3	0.00e+00	0	38	0	577765376	64	4722
2026-01-20 06:42:31.05	34.97	26.78	-47.0	-48.7	18.3	0.00e+00	0	38	0	579862528	64	4702
2026-01-20 06:42:32.05	34.67	26.82	-47.2	-48.9	18.2	0.00e+00	0	38	0	581959680	64	4796
2026-01-20 06:42:33.06	34.36	26.86	-47.1	-48.8	18.2	0.00e+00	0	38	0	583008256	64	4733
2026-01-20 06:42:34.07	34.06	26.90	-47.2	-49.0	18.0	0.00e+00	0	38	0	585105408	64	4825
2026-01-20 06:42:35.08	33.75	26.93	-47.4	-49.2	17.9	0.00e+00	0	38	0	587202560	65	4689
2026-01-20 06:42:36.09	33.45	26.97	-47.3	-49.1	17.9	0.00e+00	0	38	0	589299712	65	4639
2026-01-20 06:42:37.10	33.14	27.00	-47.3	-49.2	17.9	0.00e+00	0	38	0	591396864	65	4654
2026-01-20 06:42:38.10	32.83	27.03	-47.4	-49.2	17.8	0.00e+00	0	38	0	592445440	65	4672
2026-01-20 06:42:39.11	32.52	27.07	-47.4	-49.3	17.8	0.00e+00	0	38	0	594542592	65	4721
2026-01-20 06:42:40.11	32.22	27.10	-47.5	-49.3	17.8	0.00e+00	0	38	0	596639744	65	4729
2026-01-20 06:42:41.12	31.91	27.13	-47.4	-49.3	17.8	0.00e+00	0	38	0	598736896	65	4722
2026-01-20 06:42:42.13	31.59	27.16	-47.6	-49.5	17.6	0.00e+00	0	38	0	600834048	65	4831
2026-01-20 06:42:43.14	31.28	27.19	-47.5	-49.4	17.7	0.00e+00	0	38	0	601882624	65	4783
2026-01-20 06:42:44.15	30.97	27.22	-47.5	-49.4	17.6	0.00e+00	0	38	0	603979776	65	4793
2026-01-20 06:42:45.16	30.66	27.24	-47.5	-49.4	17.6	0.00e+00	0	38	0	606076928	65	4784
2026-01-20 06:42:46.16	30.35	27.27	-47.4	-49.3	17.8	0.00e+00	0	38	0	608174080	65	4731
2026-01-20 06:42:47.17	30.03	27.29	-47.5	-49.4	17.6	0.00e+00	0	38	0	610271232	65	4799
2026-01-20 06:42:48.18	29.72	27.32	-47.6	-49.5	17.6	0.00e+00	0	38	0	611319808	65	4849
2026-01-20 06:42:49.18	29.41	27.34	-47.7	-49.6	17.5	0.00e+00	0	38	0	613416960	66	4616
2026-01-20 06:42:50.19	29.09	27.36	-47.8	-49.7	17.4	0.00e+00	0	38	0	615514112	66	4688
2026-01-20 06:42:51.20	28.78	27.39	-47.8	-49.7	17.3	0.00e+00	0	38	0	617611264	66	4700
2026-01-20 06:42:52.21	28.46	27.41	-48.0	-50.0	17.1	0.00e+00	0	38	0	619708416	66	4834
2026-01-20 06:42:53.21	28.15	27.43	-47.9	-49.9	17.1	0.00e+00	0	38	0	621805568	66	4811
2026-01-20 06:42:54.22	27.83	27.44	-47.8	-49.8	17.2	0.00e+00	0	38	0	622854144	66	4727
2026-01-20 06:42:55.23	27.51	27.46	-47.8	-49.8	17.2	0.00e+00	0	38	0	624951296	66	4744
2026-01-20 06:42:56.24	27.20	27.48	-47.9	-49.9	17.2	0.00e+00	0	38	0	627048448	66	4782
2026-01-20 06:42:57.25	26.88	27.50	-47.9	-49.9	17.2	0.00e+00	0	38	0	629145600	66	4760
2026-01-20 06:42:58.25	26.56	27.51	-48.0	-50.0	17.1	0.00e+00	0	38	0	630194176	66	4856
2026-01-20 06:42:59.26	26.25	27.52	-48.1	-50.2	16.9	0.00e+00	0	38	0	632291328	66	4948
2026-01-20 06:43:00.27	25.93	27.54	-48.3	-50.5	16.5	0.00e+00	0	38	0	634388480	67	4849
2026-01-20 06:43:01.28	25.61	27.55	-48.0	-50.1	16.9	0.00e+00	0	38	0	636485632	67	4635
2026-01-20 06:43:02.28	25.29	27.56	-48.0	-50.1	17.0	0.00e+00	0	38	0	638582784	67	4628
2026-01-20 06:43:03.29	24.97	27.57	-47.9	-49.9	17.1	0.00e+00	0	38	0	640679936	67	4544
2026-01-20 06:43:04.30	24.65	27.58	-47.7	-49.6	17.4	0.00e+00	0	38	0	641728512	67	4385
2026-01-20 06:43:05.31	24.33	27.59	-47.7	-49.6	17.4	0.00e+00	0	38	0	643825664	67	4383
2026-01-20 06:43:06.31	24.02	27.59	-47.4	-49.3	17.8	0.00e+00	0	38	0	645922816	66	4462
2026-01-20 06:43:07.32	23.70	27.60	-47.3	-49.1	17.9	0.00e+00	0	38	0	648019968	66	4386
2026-01-20 06:43:08.33	23.38	27.60	-47.2	-49.0	18.1	0.00e+00	0	38	0	650117120	66	4299
2026-01-20 06:43:09.34	23.06	27.61	-47.3	-49.0	18.0	0.00e+00	0	38	0	651165696	66	4333
2026-01-20 06:43:10.35	22.74	27.61	-47.3	-49.1	17.9	0.00e+00	0	38	0	653262848	66	4355
2026-01-20 06:43:11.35	22.42	27.61	-47.3	-49.1	17.9	0.00e+00	0	38	0	655360000	66	4376
2026-01-20 06:43:12.36	22.10	27.61	-47.5	-49.3	17.7	0.00e+00	0	39	0	657457152	66	4483
2026-01-20 06:43:13.37	21.78	27.61	-47.2	-49.0	18.1	0.00e+00	0	38	0	658505728	66	4305
2026-01-20 06:43:14.38	21.46	27.61	-47.2	-48.9	18.2	0.00e+00	0	38	0	660602880	66	4276
2026-01-20 06:43:15.39	21.14	27.61	-47.1	-48.8	18.3	0.00e+00	0	38	0	662700032	66	4198
2026-01-20 06:43:16.39	20.82	27.61	-47.1	-48.8	18.2	0.00e+00	0	38	0	664797184	66	4231
2026-01-20 06:43:17.40	20.50	27.60	-47.2	-48.9	18.2	0.00e+00	0	38	0	666894336	66	4268
2026-01-20 06:43:18.41	20.18	27.60	-47.2	-49.0	18.1	0.00e+00	0	38	0	668991488	66	4299
2026-01-20 06:43:19.42	19.86	27.59	-46.9	-48.6	18.4	0.00e+00	0	38	0	670040064	65	4380
2026-01-20 06:43:20.43	19.54	27.59	-46.9	-48.6	18.5	0.00e+00	0	38	0	672137216	65	4346
2026-01-20 06:43:21.43	19.22	27.58	-46.8	-48.5	18.6	0.00e+00	0	39	0	674234368	65	4295
2026-01-20 06:43:22.44	18.90	27.57	-46.9	-48.5	18.5	0.00e+00	0	38	0	676331520	65	4332
2026-01-20 06:43:23.45	18.59	27.56	-47.0	-48.7	18.4	0.00e+00	0	39	0	678428672	65	4403
2026-01-20 06:43:24.45	18.27	27.55	-47.1	-48.8	18.2	0.00e+00	0	38	0	679477248	65	4462
2026-01-20 06:43:25.46	17.95	27.54	-47.0	-48.7	18.3	0.00e+00	0	38	0	681574400	65	4409
2026-01-20 06:43:26.47	17.63	27.52	-46.8	-48.4	18.6	0.00e+00	0	38	0	683671552	65	4277
2026-01-20 06:43:27.48	17.31	27.51	-46.7	-48.4	18.7	0.00e+00	0	38	0	685768704	65	4250
2026-01-20 06:43:28.48	17.00	27.50	-46.7	-48.3	18.8	0.00e+00	0	39	0	687865856	65	4202
2026-01-20 06:43:29.49	16.68	27.48	-46.5	-48.0	19.0	0.00e+00	0	38	0	688914432	64	4337
2026-01-20 06:43:30.50	16.36	27.46	-46.5	-48.1	18.9	0.00e+00	0	38	0	691011584	64	4378
2026-01-20 06:43:31.51	16.05	27.45	-46.5	-48.1	18.9	0.00e+00	0	38	0	693108736	64	4360
2026-01-20 06:43:32.52	15.73	27.43	-46.4	-48.0	19.0	0.00e+00	0	38	0	695205888	64	4307
2026-01-20 06:43:33.52	15.42	27.41	-46.4	-48.0	19.1	0.00e+00	0	38	0	697303040	64	4294
2026-01-20 06:43:34.53	15.10	27.39	-46.3	-47.8	19.3	0.00e+00	0	38	0	698351616	64	4205
2026-01-20 06:43:35.54	14.79	27.37	-46.3	-47.8	19.2	0.00e+00	0	38	0	700448768	64	4211
2026-01-20 06:43:36.55	14.47	27.34	-46.2	-47.7	19.3	0.00e+00	0	38	0	702545920	64	4170
2026-01-20 06:43:37.55	14.16	27.32	-46.3	-47.8	19.3	0.00e+00	0	38	0	704643072	64	4215
2026-01-20 06:43:38.56	13.84	27.30	-46.2	-47.7	19.3	0.00e+00	0	38	0	706740224	64	4161
2026-01-20 06:43:39.57	13.53	27.27	-46.2	-47.7	19.3	0.00e+00	0	38	0	707788800	64	4185
2026-01-20 06:43:40.58	13.22	27.25	-46.2	-47.7	19.3	0.00e+00	0	38	0	709885952	64	4179
2026-01-20 06:43:41.59	12.91	27.22	-46.4	-47.9	19.2	0.00e+00	0	38	0	711983104	64	4278
2026-01-20 06:43:42.59	12.60	27.19	-46.2	-47.7	19.3	0.00e+00	0	39	0	714080256	64	4164
2026-01-20 06:43:43.60	12.28	27.16	-46.2	-47.7	19.4	0.00e+00	0	38	0	716177408	64	4161
2026-01-20 06:43:44.61	11.97	27.13	-46.2	-47.7	19.4	0.00e+00	0	38	0	717225984	64	4147
2026-01-20 06:43:45.62	11.66	27.10	-46.3	-47.8	19.2	0.00e+00	0	38	0	719323136	64	4220
2026-01-20 06:43:46.63	11.35	27.07	-46.4	-47.9	19.1	0.00e+00	0	38	0	721420288	64	4275
2026-01-20 06:43:47.63	11.05	27.04	-46.4	-48.0	19.0	0.00e+00	0	38	0	723517440	64	4321
2026-01-20 06:43:48.64	10.74	27.00	-46.3	-47.8	19.2	0.00e+00	0	38	0	725614592	64	4225
2026-01-20 06:43:49.65	10.43	26.97	-46.3	-47.8	19.2	0.00e+00	0	38	0	726663168	64	4231
2026-01-20 06:43:50.66	10.12	26.93	-46.4	-47.9	19.1	0.00e+00	0	38	0	728760320	64	4280
2026-01-20 06:43:51.67	9.82	26.90	-46.3	-47.8	19.2	0.00e+00	0	38	0	730857472	64	4212
2026-01-20 06:43:52.67	9.52	26.86	-46.4	-47.9	19.1	0.00e+00	0	38	0	732954624	64	4258
2026-01-20 06:43:53.68	9.21	26.82	-46.5	-48.1	18.9	0.00e+00	0	38	0	735051776	64	4344
2026-01-20 06:43:54.69	8.91	26.79	-46.6	-48.2	18.8	0.00e+00	0	38	0	736100352	64	4430
2026-01-20 06:43:55.69	8.61	26.75	-46.4	-48.0	19.0	0.00e+00	0	38	0	738197504	64	4314
2026-01-20 06:43:56.70	8.30	26.71	-46.6	-48.2	18.9	0.00e+00	0	38	0	740294656	64	4396
2026-01-20 06:43:57.71	8.00	26.67	-46.7	-48.3	18.7	0.00e+00	0	38	0	742391808	64	4473
2026-01-20 06:43:58.71	7.70	26.62	-46.7	-48.3	18.7	0.00e+00	0	38	0	744488960	64	4458
2026-01-20 06:43:59.72	7.40	26.58	-46.7	-48.3	18.7	0.00e+00	0	38	0	745537536	64	4488
2026-01-20 06:44:00.73	7.10	26.54	-46.8	-48.5	18.5	0.00e+00	0	38	0	747634688	64	4572
2026-01-20 06:44:01.74	6.80	26.49	-46.8	-48.5	18.5	0.00e+00	0	38	0	749731840	64	4581
2026-01-20 06:44:02.75	6.51	26.45	-46.9	-48.6	18.5	0.00e+00	0	38	0	751828992	64	4613
2026-01-20 06:44:03.75	6.21	26.40	-46.9	-48.6	18.4	0.00e+00	0	38	0	753926144	64	4646
2026-01-20 06:44:04.76	5.92	26.36	-47.1	-48.8	18.2	0.00e+00	0	39	0	754974720	64	4722
2026-01-20 06:44:05.77	5.62	26.31	-47.1	-48.8	18.2	0.00e+00	0	38	0	757071872	64	4739
2026-01-20 06:44:06.78	5.33	26.26	-47.1	-48.9	18.1	0.00e+00	0	39	0	759169024	64	4765
2026-01-20 06:44:07.79	5.03	26.21	-47.2	-49.0	18.0	0.00e+00	0	38	0	761266176	65	4561
2026-01-20 06:44:08.80	4.74	26.16	-47.3	-49.1	17.9	0.00e+00	0	38	0	763363328	65	4621
2026-01-20 06:44:09.80	4.45	26.12	-47.4	-49.3	17.8	0.00e+00	0	38	0	764411904	65	4720
2026-01-20 06:44:10.81	4.16	26.06	-47.5	-49.4	17.6	0.00e+00	0	38	0	766509056	65	4792
2026-01-20 06:44:11.82	3.87	26.01	-47.5	-49.4	17.7	0.00e+00	0	38	0	768606208	65	4760
2026-01-20 06:44:12.83	3.58	25.96	-47.6	-49.5	17.5	0.00e+00	0	38	0	770703360	65	4837
2026-01-20 06:44:13.83	3.30	25.91	-47.5	-49.5	17.6	0.00e+00	0	39	0	772800512	65	4815
2026-01-20 06:44:14.84	3.01	25.85	-47.6	-49.5	17.5	0.00e+00	0	38	0	773849088	65	4825
2026-01-20 06:44:15.85	2.72	25.80	-47.5	-49.4	17.6	0.00e+00	0	39	0	775946240	65	4805
2026-01-20 06:44:16.85	2.44	25.75	-47.5	-49.4	17.6	0.00e+00	0	38	0	778043392	65	4794
2026-01-20 06:44:17.86	2.16	25.69	-47.5	-49.4	17.6	0.00e+00	0	38	0	780140544	65	4766
2026-01-20 06:44:18.87	1.88	25.63	-47.5	-49.4	17.6	0.00e+00	0	39	0	782237696	65	4800
2026-01-20 06:44:19.88	1.59	25.58	-47.5	-49.4	17.6	0.00e+00	0	38	0	783286272	65	4800
2026-01-20 06:44:20.89	1.31	25.52	-47.6	-49.6	17.4	0.00e+00	0	38	0	785383424	65	4880
2026-01-20 06:44:21.90	1.03	25.46	-47.6	-49.5	17.5	0.00e+00	0	39	0	787480576	65	4862
2026-01-20 06:44:22.90	0.76	25.40	-47.6	-49.6	17.5	0.00e+00	0	38	0	789577728	65	4871
2026-01-20 06:44:23.91	0.48	25.34	-47.6	-49.5	17.5	0.00e+00	0	39	0	791674880	65	4839
2026-01-20 06:44:24.92	0.20	25.28	-47.6	-49.5	17.5	0.00e+00	0	39	0	792723456	65	4860
2026-01-20 06:44:25.93	359.93	25.22	-47.6	-49.6	17.4	0.00e+00	0	38	0	794820608	65	4871
2026-01-20 06:44:26.94	359.65	25.16	-47.7	-49.6	17.3	0.00e+00	0	38	0	796917760	65	4924
2026-01-20 06:44:27.94	359.38	25.10	-47.7	-49.7	17.3	0.00e+00	0	38	0	799014912	66	4665
2026-01-20 06:44:28.95	359.11	25.04	-47.6	-49.5	17.5	0.00e+00	0	38	0	801112064	66	4574
2026-01-20 06:44:29.95	358.84	24.97	-47.6	-49.5	17.5	0.00e+00	0	38	0	802160640	66	4588
2026-01-20 06:44:30.96	358.57	24.91	-47.6	-49.5	17.5	0.00e+00	0	38	0	804257792	66	4592
2026-01-20 06:44:31.97	358.30	24.85	-47.6	-49.5	17.5	0.00e+00	0	38	0	806354944	66	4569
2026-01-20 06:44:32.98	358.03	24.78	-47.6	-49.6	17.4	0.00e+00	0	39	0	808452096	66	4613
2026-01-20 06:44:33.99	357.77	24.72	-47.5	-49.3	17.6	0.00e+00	0	38	0	810549248	66	4489
2026-01-20 06:44:34.99	357.50	24.65	-47.5	-49.4	17.6	0.00e+00	0	38	0	812646400	66	4495
2026-01-20 06:44:36.00	357.24	24.59	-47.4	-49.2	17.7	0.00e+00	0	38	0	813694976	66	4426
2026-01-20 06:44:37.01	356.98	24.52	-47.3	-49.2	17.8	0.00e+00	0	38	0	815792128	66	4395
2026-01-20 06:44:38.02	356.71	24.45	-47.3	-49.2	17.8	0.00e+00	0	39	0	817889280	66	4410
2026-01-20 06:44:39.03	356.45	24.38	-47.5	-49.4	17.6	0.00e+00	0	38	0	819986432	66	4494
2026-01-20 06:44:40.04	356.19	24.32	-47.4	-49.3	17.7	0.00e+00	0	38	0	821035008	66	4463
2026-01-20 06:44:41.05	355.93	24.25	-47.5	-49.4	17.6	0.00e+00	0	38	0	823132160	66	4497
2026-01-20 06:44:42.05	355.68	24.18	-47.4	-49.2	17.7	0.00e+00	0	38	0	825229312	66	4439
2026-01-20 06:44:43.06	355.42	24.11	-47.4	-49.2	17.7	0.00e+00	0	38	0	827326464	66	4433
2026-01-20 06:44:44.07	355.17	24.04	-47.3	-49.2	17.8	0.00e+00	0	38	0	829423616	66	4408
2026-01-20 06:44:45.08	354.91	23.97	-47.1	-48.9	18.0	0.00e+00	0	38	0	830472192	66	4282
2026-01-20 06:44:46.09	354.66	23.90	-47.1	-48.8	18.1	0.00e+00	0	39	0	832569344	66	4234
2026-01-20 06:44:47.09	354.41	23.83	-46.9	-48.6	18.3	0.00e+00	0	38	0	834666496	65	4359
2026-01-20 06:44:48.10	354.16	23.76	-46.9	-48.6	18.3	0.00e+00	0	38	0	836763648	65	4379
2026-01-20 06:44:49.11	353.91	23.69	-46.9	-48.6	18.3	0.00e+00	0	39	0	838860800	65	4382
2026-01-20 06:44:50.12	353.66	23.61	-46.9	-48.6	18.4	0.00e+00	0	39	0	840957952	65	4347
2026-01-20 06:44:51.13	353.41	23.54	-46.7	-48.4	18.5	0.00e+00	0	39	0	842006528	65	4254
2026-01-20 06:44:52.13	353.17	23.47	-46.6	-48.2	18.7	0.00e+00	0	38	0	844103680	65	4170
2026-01-20 06:44:53.14	352.92	23.39	-46.5	-48.0	18.8	0.00e+00	0	39	0	846200832	65	4095
2026-01-20 06:44:54.15	352.68	23.32	-46.5	-48.1	18.8	0.00e+00	0	38	0	848297984	64	4388
2026-01-20 06:44:55.15	352.44	23.25	-46.5	-48.1	18.8	0.00e+00	0	38	0	849346560	64	4357
2026-01-20 06:44:56.16	352.20	23.17	-46.4	-48.0	18.9	0.00e+00	0	38	0	851443712	64	4313
2026-01-20 06:44:57.17	351.96	23.10	-46.5	-48.1	18.8	0.00e+00	0	38	0	853540864	64	4350
2026-01-20 06:44:58.18	351.72	23.02	-46.5	-48.1	18.8	0.00e+00	0	38	0	855638016	64	4355
2026-01-20 06:44:59.19	351.48	22.95	-46.4	-48.0	18.9	0.00e+00	0	38	0	857735168	64	4321
2026-01-20 06:45:00.20	351.24	22.87	-46.2	-47.8	19.1	0.00e+00	0	38	0	859832320	64	4212
2026-01-20 06:45:01.20	351.01	22.80	-46.2	-47.7	19.1	0.00e+00	0	39	0	860880896	64	4187
2026-01-20 06:45:02.21	350.77	22.72	-46.2	-47.8	19.1	0.00e+00	0	39	0	862978048	64	4202
2026-01-20 06:45:03.21	350.54	22.64	-46.2	-47.7	19.1	0.00e+00	0	39	0	865075200	64	4162
2026-01-20 06:45:04.22	350.31	22.57	-46.2	-47.7	19.1	0.00e+00	0	38	0	867172352	64	4180
2026-01-20 06:45:05.23	350.08	22.49	-46.1	-47.6	19.3	0.00e+00	0	38	0	869269504	64	4104
2026-01-20 06:45:06.24	349.85	22.41	-46.1	-47.6	19.2	0.00e+00	0	38	0	870318080	64	4140
2026-01-20 06:45:07.25	349.62	22.34	-46.2	-47.7	19.2	0.00e+00	0	39	0	872415232	64	4164
2026-01-20 06:45:08.26	349.39	22.26	-46.3	-47.8	19.0	0.00e+00	0	39	0	874512384	64	4239
2026-01-20 06:45:09.26	349.17	22.18	-46.3	-47.9	19.0	0.00e+00	0	39	0	876609536	64	4279
2026-01-20 06:45:10.27	348.94	22.10	-46.3	-47.8	19.0	0.00e+00	0	39	0	877658112	64	4232
2026-01-20 06:45:11.28	348.72	22.02	-46.3	-47.8	19.0	0.00e+00	0	38	0	879755264	64	4226
2026-01-20 06:45:12.29	348.50	21.94	-46.1	-47.7	19.2	0.00e+00	0	39	0	881852416	64	4148
2026-01-20 06:45:13.29	348.28	21.87	-46.1	-47.6	19.2	0.00e+00	0	38	0	883949568	64	4116
2026-01-20 06:45:14.30	348.06	21.79	-46.1	-47.6	19.3	0.00e+00	0	38	0	886046720	63	4347
2026-01-20 06:45:15.31	347.84	21.71	-46.1	-47.6	19.4	0.00e+00	0	38	0	888143872	63	4354
2026-01-20 06:45:16.32	347.62	21.63	-46.0	-47.5	19.4	0.00e+00	0	38	0	889192448	63	4314
2026-01-20 06:45:17.33	347.40	21.55	-46.0	-47.5	19.4	0.00e+00	0	38	0	891289600	63	4313
2026-01-20 06:45:18.34	347.18	21.47	-46.0	-47.4	19.5	0.00e+00	0	38	0	893386752	63	4279
2026-01-20 06:45:19.34	346.97	21.39	-45.8	-47.2	19.7	0.00e+00	0	38	0	895483904	63	4192
2026-01-20 06:45:20.35	346.76	21.31	-45.8	-47.3	19.6	0.00e+00	0	38	0	897581056	63	4194
2026-01-20 06:45:21.36	346.54	21.23	-45.7	-47.1	19.8	0.00e+00	0	38	0	898629632	63	4129
2026-01-20 06:45:22.37	346.33	21.15	-45.6	-47.0	19.8	0.00e+00	0	38	0	900726784	63	4095
2026-01-20 06:45:23.38	346.12	21.06	-45.7	-47.1	19.8	0.00e+00	0	38	0	902823936	63	4124
2026-01-20 06:45:24.38	345.91	20.98	-45.7	-47.1	19.8	0.00e+00	0	39	0	904921088	63	4112
2026-01-20 06:45:25.39	345.71	20.90	-45.5	-46.9	20.0	0.00e+00	0	38	0	907018240	63	4009
2026-01-20 06:45:26.40	345.50	20.82	-45.4	-46.8	20.1	0.00e+00	0	39	0	908066816	62	4202
2026-01-20 06:45:27.41	345.29	20.74	-45.5	-46.8	20.0	0.00e+00	0	38	0	910163968	62	4224
2026-01-20 06:45:28.41	345.09	20.66	-45.4	-46.7	20.1	0.00e+00	0	39	0	912261120	62	4190
2026-01-20 06:45:29.42	344.89	20.58	-45.4	-46.8	20.1	0.00e+00	0	39	0	914358272	62	4199
2026-01-20 06:45:30.43	344.68	20.50	-45.4	-46.8	20.1	0.00e+00	0	38	0	916455424	62	4200
2026-01-20 06:45:31.44	344.48	20.41	-45.4	-46.7	20.1	0.00e+00	0	38	0	917504000	62	4173
2026-01-20 06:45:32.45	344.28	20.33	-45.2	-46.4	20.3	0.00e+00	0	38	0	919601152	62	4049
2026-01-20 06:45:33.45	344.08	20.25	-45.1	-46.4	20.4	0.00e+00	0	38	0	921698304	62	4010
2026-01-20 06:45:34.46	343.88	20.17	-45.0	-46.3	20.6	0.00e+00	0	38	0	923795456	62	3959
2026-01-20 06:45:35.47	343.69	20.09	-45.1	-46.4	20.4	0.00e+00	0	38	0	925892608	61	4263
2026-01-20 06:45:36.48	343.49	20.00	-45.1	-46.4	20.4	0.00e+00	0	39	0	926941184	61	4283
2026-01-20 06:45:37.48	343.30	19.92	-45.2	-46.5	20.3	0.00e+00	0	38	0	929038336	61	4316
2026-01-20 06:45:38.49	343.10	19.84	-45.2	-46.5	20.3	0.00e+00	0	39	0	931135488	61	4312
2026-01-20 06:45:39.50	342.91	19.76	-45.3	-46.6	20.2	0.00e+00	0	38	0	933232640	61	4373
2026-01-20 06:45:40.51	342.72	19.67	-45.2	-46.5	20.2	0.00e+00	0	38	0	935329792	61	4336
2026-01-20 06:45:41.51	342.53	19.59	-45.3	-46.6	20.2	0.00e+00	0	39	0	936378368	61	4389
2026-01-20 06:45:42.52	342.34	19.51	-45.2	-46.5	20.2	0.00e+00	0	39	0	938475520	61	4338
2026-01-20 06:45:43.53	342.15	19.42	-45.1	-46.4	20.4	0.00e+00	0	38	0	940572672	61	4252
2026-01-20 06:45:44.54	341.96	19.34	-45.1	-46.4	20.3	0.00e+00	0	38	0	942669824	61	4268
2026-01-20 06:45:45.55	341.77	19.26	-45.1	-46.4	20.3	0.00e+00	0	38	0	944766976	61	4271
2026-01-20 06:45:46.56	341.59	19.18	-45.1	-46.4	20.3	0.00e+00	0	39	0	945815552	61	4277
2026-01-20 06:45:47.56	341.40	19.09	-45.0	-46.3	20.4	0.00e+00	0	38	0	947912704	61	4224
2026-01-20 06:45:48.57	341.22	19.01	-45.1	-46.4	20.3	0.00e+00	0	38	0	950009856	61	4272
2026-01-20 06:45:49.58	341.04	18.93	-45.2	-46.5	20.3	0.00e+00	0	38	0	952107008	61	4296
2026-01-20 06:45:50.59	340.86	18.84	-45.3	-46.6	20.2	0.00e+00	0	38	0	954204160	61	4364
2026-01-20 06:45:51.59	340.68	18.76	-45.2	-46.6	20.2	0.00e+00	0	39	0	956301312	61	4341
2026-01-20 06:45:52.60	340.50	18.68	-45.2	-46.6	20.2	0.00e+00	0	38	0	957349888	61	4347
2026-01-20 06:45:53.61	340.32	18.59	-45.3	-46.7	20.1	0.00e+00	0	38	0	959447040	61	4408
2026-01-20 06:45:54.61	340.14	18.51	-45.2	-46.6	20.2	0.00e+00	0	38	0	961544192	61	4348
2026-01-20 06:45:55.62	339.97	18.43	-45.4	-46.7	20.0	0.00e+00	0	38	0	963641344	61	4441
2026-01-20 06:45:56.63	339.79	18.35	-45.4	-46.8	20.0	0.00e+00	0	38	0	964689920	61	4442
2026-01-20 06:45:57.64	339.61	18.26	-45.5	-46.9	19.8	0.00e+00	0	39	0	966787072	61	4534
2026-01-20 06:45:58.64	339.44	18.18	-45.6	-47.0	19.8	0.00e+00	0	38	0	968884224	61	4562
2026-01-20 06:45:59.65	339.27	18.10	-45.6	-47.1	19.7	0.00e+00	0	38	0	970981376	61	4600
2026-01-20 06:46:00.66	339.10	18.01	-45.6	-47.0	19.8	0.00e+00	0	38	0	973078528	61	4561
2026-01-20 06:46:01.67	338.93	17.93	-45.6	-47.0	19.7	0.00e+00	0	38	0	974127104	61	4588
2026-01-20 06:46:02.67	338.76	17.85	-45.6	-47.1	19.6	0.00e+00	0	38	0	976224256	61	4600
2026-01-20 06:46:03.68	338.59	17.76	-45.8	-47.2	19.5	0.00e+00	0	38	0	978321408	62	4417
2026-01-20 06:46:04.69	338.42	17.68	-45.8	-47.2	19.5	0.00e+00	0	39	0	980418560	62	4430
2026-01-20 06:46:05.70	338.25	17.60	-46.0	-47.5	19.3	0.00e+00	0	38	0	982515712	62	4575
2026-01-20 06:46:06.71	338.09	17.51	-46.0	-47.5	19.3	0.00e+00	0	38	0	984612864	62	4547
2026-01-20 06:46:07.72	337.92	17.43	-46.1	-47.6	19.1	0.00e+00	0	38	0	985661440	62	4612
2026-01-20 06:46:08.73	337.76	17.35	-46.1	-47.6	19.1	0.00e+00	0	39	0	987758592	62	4644
2026-01-20 06:46:09.73	337.60	17.27	-46.2	-47.7	19.0	0.00e+00	0	38	0	989855744	62	4702
2026-01-20 06:46:10.74	337.43	17.18	-46.3	-47.9	18.9	0.00e+00	0	38	0	991952896	63	4507
2026-01-20 06:46:11.75	337.27	17.10	-46.3	-47.9	18.8	0.00e+00	0	38	0	993001472	63	4526
2026-01-20 06:46:12.76	337.11	17.02	-46.4	-48.0	18.8	0.00e+00	0	38	0	995098624	63	4559
2026-01-20 06:46:13.77	336.95	16.93	-46.4	-48.1	18.7	0.00e+00	0	38	0	997195776	63	4608
2026-01-20 06:46:14.78	336.79	16.85	-46.7	-48.4	18.4	0.00e+00	0	38	0	999292928	63	4782
2026-01-20 06:46:15.79	336.63	16.77	-46.6	-48.4	18.3	0.00e+00	0	39	0	1001390080	64	4499
2026-01-20 06:46:16.79	336.48	16.69	-46.5	-48.2	18.5	0.00e+00	0	38	0	1003487232	64	4403
2026-01-20 06:46:17.81	336.32	16.60	-46.6	-48.3	18.4	0.00e+00	0	39	0	1004535808	64	4457
2026-01-20 06:46:18.82	336.16	16.52	-46.6	-48.3	18.3	0.00e+00	0	38	0	1006632960	64	4475
2026-01-20 06:46:19.82	336.01	16.44	-46.6	-48.3	18.3	0.00e+00	0	38	0	1008730112	64	4488
2026-01-20 06:46:20.83	335.86	16.36	-46.6	-48.3	18.3	0.00e+00	0	38	0	1010827264	64	4458
2026-01-20 06:46:21.84	335.70	16.27	-46.3	-47.9	18.7	0.00e+00	0	38	0	1012924416	64	4280
2026-01-20 06:46:22.85	335.55	16.19	-46.5	-48.2	18.4	0.00e+00	0	38	0	1013972992	64	4402
2026-01-20 06:46:23.85	335.40	16.11	-46.6	-48.3	18.3	0.00e+00	0	38	0	1016070144	64	4447
2026-01-20 06:46:24.86	335.25	16.03	-46.5	-48.2	18.4	0.00e+00	0	38	0	1018167296	64	4421
2026-01-20 06:46:25.87	335.10	15.95	-46.4	-48.0	18.6	0.00e+00	0	38	0	1020264448	64	4308
2026-01-20 06:46:26.88	334.95	15.86	-46.6	-48.3	18.4	0.00e+00	0	38	0	1021313024	64	4444
2026-01-20 06:46:27.89	334.81	15.78	-46.5	-48.2	18.4	0.00e+00	0	38	0	1023410176	64	4401
2026-01-20 06:46:28.89	334.66	15.70	-46.6	-48.4	18.2	0.00e+00	0	38	0	1025507328	64	4494
2026-01-20 06:46:29.90	334.51	15.62	-46.5	-48.2	18.4	0.00e+00	0	38	0	1027604480	64	4400
2026-01-20 06:46:30.84	334.38	15.54	-46.6	-48.4	18.2	0.00e+00	0	38	0	1029701632	64	4500
2026-01-20 06:46:31.85	334.23	15.46	-46.7	-48.5	18.1	0.00e+00	0	38	0	1031798784	64	4553
2026-01-20 06:46:32.86	334.09	15.38	-46.6	-48.3	18.2	0.00e+00	0	38	0	1032847360	64	4492
2026-01-20 06:46:33.87	333.95	15.30	-46.6	-48.4	18.2	0.00e+00	0	38	0	1034944512	64	4513
2026-01-20 06:46:34.87	333.81	15.22	-46.8	-48.6	18.0	0.00e+00	0	38	0	1037041664	64	4600
2026-01-20 06:46:35.88	333.66	15.14	-46.8	-48.5	18.0	0.00e+00	0	38	0	1039138816	64	4598
2026-01-20 06:46:36.89	333.52	15.06	-46.7	-48.5	18.0	0.00e+00	0	38	0	1041235968	64	4574
2026-01-20 06:46:37.89	333.38	14.98	-46.7	-48.5	18.1	0.00e+00	0	38	0	1042284544	64	4572
2026-01-20 06:46:38.90	333.25	14.89	-46.8	-48.6	17.9	0.00e+00	0	38	0	1044381696	64	4631
2026-01-20 06:46:39.91	333.11	14.81	-46.9	-48.7	17.8	0.00e+00	0	38	0	1046478848	64	4704
2026-01-20 06:46:40.92	332.97	14.73	-46.9	-48.7	17.8	0.00e+00	0	38	0	1048576000	64	4677
2026-01-20 06:46:41.93	332.83	14.65	-46.9	-48.7	17.7	0.00e+00	0	38	0	1050673152	64	4703
2026-01-20 06:46:42.93	332.70	14.57	-46.9	-48.8	17.8	0.00e+00	0	38	0	1051721728	64	4708
2026-01-20 06:46:43.94	332.56	14.49	-47.0	-48.9	17.7	0.00e+00	0	39	0	1053818880	64	4766
2026-01-20 06:46:44.95	332.43	14.41	-47.1	-49.0	17.5	0.00e+00	0	38	0	1055916032	64	4822
2026-01-20 06:46:45.96	332.29	14.33	-47.0	-48.9	17.6	0.00e+00	0	38	0	1058013184	64	4802
2026-01-20 06:46:46.97	332.16	14.25	-47.1	-49.0	17.5	0.00e+00	0	38	0	1060110336	64	4835
2026-01-20 06:46:47.97	332.03	14.17	-47.1	-49.0	17.6	0.00e+00	0	39	0	1061158912	64	4820
2026-01-20 06:46:48.98	331.90	14.09	-47.0	-48.8	17.7	0.00e+00	0	39	0	1063256064	64	4745
2026-01-20 06:46:49.99	331.77	14.01	-47.0	-48.9	17.6	0.00e+00	0	38	0	1065353216	64	4760
2026-01-20 06:46:51.00	331.64	13.93	-47.1	-49.0	17.5	0.00e+00	0	38	0	1067450368	64	4822
2026-01-20 06:46:52.00	331.51	13.85	-47.0	-48.9	17.6	0.00e+00	0	38	0	1069547520	64	4779
2026-01-20 06:46:53.01	331.38	13.77	-47.1	-49.0	17.5	0.00e+00	0	38	0	1070596096	64	4826
2026-01-20 06:46:54.02	331.25	13.69	-47.0	-48.9	17.6	0.00e+00	0	38	0	1072693248	64	4774
2026-01-20 06:46:55.03	331.12	13.61	-47.1	-49.0	17.5	0.00e+00	0	38	0	1074790400	64	4859
2026-01-20 06:46:56.04	331.00	13.54	-47.1	-49.1	17.4	0.00e+00	0	38	0	1076887552	64	4882
2026-01-20 06:46:57.04	330.87	13.46	-47.3	-49.2	17.2	0.00e+00	0	38	0	1078984704	65	4703
2026-01-20 06:46:58.05	330.75	13.38	-47.2	-49.2	17.3	0.00e+00	0	38	0	1080033280	65	4680
2026-01-20 06:46:59.06	330.62	13.30	-47.3	-49.3	17.2	0.00e+00	0	39	0	1082130432	65	4754
2026-01-20 06:47:00.07	330.50	13.22	-47.3	-49.3	17.2	0.00e+00	0	38	0	1084227584	65	4738
2026-01-20 06:47:01.07	330.38	13.14	-47.4	-49.4	17.0	0.00e+00	0	39	0	1086324736	65	4812
2026-01-20 06:47:02.08	330.25	13.06	-47.5	-49.5	16.9	0.00e+00	0	39	0	1088421888	65	4869
2026-01-20 06:47:03.09	330.13	12.99	-47.5	-49.5	17.0	0.00e+00	0	38	0	1089470464	65	4862
2026-01-20 06:47:04.09	330.01	12.91	-47.5	-49.6	16.8	0.00e+00	0	38	0	1091567616	65	4925
2026-01-20 06:47:05.10	329.89	12.83	-47.7	-49.8	16.6	0.00e+00	0	39	0	1093664768	65	5031
2026-01-20 06:47:06.11	329.77	12.75	-47.7	-49.9	16.5	0.00e+00	0	39	0	1095761920	65	5068
2026-01-20 06:47:07.12	329.65	12.67	-47.8	-50.0	16.5	0.00e+00	0	39	0	1097859072	66	4856
2026-01-20 06:47:08.13	329.53	12.60	-47.8	-50.1	16.4	0.00e+00	0	38	0	1098907648	66	4889
2026-01-20 06:47:09.13	329.42	12.52	-47.8	-50.1	16.4	0.00e+00	0	38	0	1101004800	66	4871
2026-01-20 06:47:10.14	329.30	12.44	-47.9	-50.2	16.3	0.00e+00	0	38	0	1103101952	66	4932
2026-01-20 06:47:11.15	329.18	12.36	-47.8	-50.0	16.5	0.00e+00	0	38	0	1105199104	66	4836
2026-01-20 06:47:12.16	329.07	12.29	-47.8	-50.0	16.4	0.00e+00	0	38	0	1107296256	66	4868
2026-01-20 06:47:13.17	328.95	12.21	-47.7	-49.9	16.5	0.00e+00	0	38	0	1108344832	66	4792
2026-01-20 06:47:14.17	328.84	12.13	-47.7	-49.9	16.6	0.00e+00	0	38	0	1110441984	66	4777
2026-01-20 06:47:15.18	328.72	12.06	-47.7	-49.9	16.5	0.00e+00	0	38	0	1112539136	66	4798
2026-01-20 06:47:16.19	328.61	11.98	-47.7	-49.9	16.5	0.00e+00	0	39	0	1114636288	66	4777
2026-01-20 06:47:17.20	328.50	11.90	-47.8	-50.0	16.5	0.00e+00	0	38	0	1116733440	66	4830
2026-01-20 06:47:18.21	328.38	11.83	-47.7	-49.9	16.5	0.00e+00	0	38	0	1117782016	66	4812
2026-01-20 06:47:19.21	328.27	11.75	-47.8	-50.0	16.5	0.00e+00	0	38	0	1119879168	66	4816
2026-01-20 06:47:20.22	328.16	11.68	-47.9	-50.1	16.3	0.00e+00	0	38	0	1121976320	66	4919
2026-01-20 06:47:21.23	328.05	11.60	-48.0	-50.3	16.1	0.00e+00	0	39	0	1124073472	66	5012
2026-01-20 06:47:22.24	327.94	11.52	-47.9	-50.2	16.2	0.00e+00	0	39	0	1126170624	66	4948
2026-01-20 06:47:23.25	327.83	11.45	-47.9	-50.2	16.2	0.00e+00	0	39	0	1127219200	66	4974
2026-01-20 06:47:24.25	327.72	11.37	-48.0	-50.3	16.1	0.00e+00	0	38	0	1129316352	66	5041
2026-01-20 06:47:25.26	327.62	11.30	-48.0	-50.4	16.0	0.00e+00	0	38	0	1131413504	66	5081
2026-01-20 06:47:26.27	327.51	11.22	-48.1	-50.4	16.0	0.00e+00	0	39	0	1133510656	66	5092
2026-01-20 06:47:27.28	327.40	11.15	-48.0	-50.3	16.1	0.00e+00	0	38	0	1135607808	66	5017
2026-01-20 06:47:28.29	327.29	11.07	-47.9	-50.3	16.1	0.00e+00	0	38	0	1136656384	66	4994
2026-01-20 06:47:29.29	327.19	11.00	-47.9	-50.3	16.1	0.00e+00	0	38	0	1138753536	66	5007
2026-01-20 06:47:30.30	327.08	10.92	-47.9	-50.2	16.1	0.00e+00	0	38	0	1140850688	66	4982
2026-01-20 06:47:31.31	326.98	10.85	-47.9	-50.2	16.2	0.00e+00	0	39	0	1142947840	66	4945
2026-01-20 06:47:32.32	326.87	10.77	-47.9	-50.2	16.1	0.00e+00	0	38	0	1145044992	66	4980
2026-01-20 06:47:33.33	326.77	10.70	-48.0	-50.3	16.1	0.00e+00	0	39	0	1147142144	66	5001
2026-01-20 06:47:34.33	326.67	10.62	-48.1	-50.5	15.9	0.00e+00	0	39	0	1148190720	66	5133
2026-01-20 06:47:35.34	326.56	10.55	-47.9	-50.2	16.1	0.00e+00	0	38	0	1150287872	66	4948
2026-01-20 06:47:36.35	326.46	10.48	-48.0	-50.4	16.0	0.00e+00	0	38	0	1152385024	66	5054
2026-01-20 06:47:37.36	326.36	10.40	-48.0	-50.4	15.9	0.00e+00	0	38	0	1154482176	66	5085
2026-01-20 06:47:38.36	326.26	10.33	-48.0	-50.4	15.9	0.00e+00	0	38	0	1155530752	66	5100
2026-01-20 06:47:39.37	326.16	10.25	-48.1	-50.5	15.8	0.00e+00	0	38	0	1157627904	66	5159
2026-01-20 06:47:40.38	326.06	10.18	-48.2	-50.7	15.6	0.00e+00	0	39	0	1159725056	66	5261
2026-01-20 06:47:41.39	325.96	10.11	-48.2	-50.8	15.6	0.00e+00	0	38	0	1161822208	67	4989
2026-01-20 06:47:42.39	325.86	10.03	-48.2	-50.6	15.7	0.00e+00	0	38	0	1163919360	67	4908
2026-01-20 06:47:43.40	325.76	9.96	-48.3	-50.8	15.5	0.00e+00	0	39	0	1164967936	67	5014
2026-01-20 06:47:44.41	325.67	9.89	-48.2	-50.7	15.6	0.00e+00	0	38	0	1167065088	67	4934
2026-01-20 06:47:45.42	325.57	9.82	-48.2	-50.8	15.5	0.00e+00	0	38	0	1169162240	67	5002
2026-01-20 06:47:46.43	325.47	9.74	-48.3	-50.9	15.4	0.00e+00	0	38	0	1171259392	67	5056
2026-01-20 06:47:47.44	325.37	9.67	-48.3	-50.9	15.4	0.00e+00	0	38	0	1173356544	67	5083
2026-01-20 06:47:48.44	325.28	9.60	-48.4	-51.1	15.2	0.00e+00	0	38	0	1175453696	67	5165
2026-01-20 06:47:49.45	325.18	9.53	-48.4	-51.1	15.2	0.00e+00	0	39	0	1176502272	67	5189
2026-01-20 06:47:50.46	325.09	9.45	-48.3	-50.9	15.3	0.00e+00	0	39	0	1178599424	67	5082
2026-01-20 06:47:51.47	324.99	9.38	-48.4	-51.1	15.1	0.00e+00	0	38	0	1180696576	67	5205
2026-01-20 06:47:52.47	324.90	9.31	-48.6	-51.3	14.9	7.00e-07	0	39	0	1182793728	67	5319
2026-01-20 06:47:53.48	324.81	9.24	-48.6	-51.3	14.9	0.00e+00	0	38	0	1183842304	67	5314
2026-01-20 06:47:54.49	324.71	9.17	-48.6	-51.5	14.8	7.00e-07	0	38	0	1185939456	67	5420
2026-01-20 06:47:55.49	324.62	9.10	-48.6	-51.4	14.8	7.00e-07	0	39	0	1188036608	67	5389
2026-01-20 06:47:56.50	324.53	9.02	-48.7	-51.6	14.6	7.00e-07	0	38	0	1190133760	67	5489
2026-01-20 06:47:57.51	324.44	8.95	-48.8	-51.7	14.6	1.50e-06	0	39	0	1192230912	68	5247
2026-01-20 06:47:58.52	324.35	8.88	-48.9	-51.8	14.5	0.00e+00	0	39	0	1194328064	68	5300
2026-01-20 06:47:59.53	324.26	8.81	-48.8	-51.6	14.7	7.00e-07	0	39	0	1195376640	68	5210
2026-01-20 06:48:00.54	324.17	8.74	-48.6	-51.5	14.7	0.00e+00	0	39	0	1197473792	67	5416
2026-01-20 06:48:01.54	324.08	8.67	-48.6	-51.5	14.7	0.00e+00	0	38	0	1199570944	67	5419
2026-01-20 06:48:02.55	323.99	8.60	-48.6	-51.4	14.8	0.00e+00	0	39	0	1201668096	68	5086
2026-01-20 06:48:03.56	323.90	8.53	-48.5	-51.3	14.9	0.00e+00	0	38	0	1203765248	67	5298
2026-01-20 06:48:04.57	323.81	8.46	-48.4	-51.1	15.0	0.00e+00	0	38	0	1204813824	67	5209
2026-01-20 06:48:05.57	323.72	8.39	-48.5	-51.3	14.8	0.00e+00	0	38	0	1206910976	67	5301
2026-01-20 06:48:06.58	323.63	8.32	-48.5	-51.3	14.8	0.00e+00	0	39	0	1209008128	67	5311
2026-01-20 06:48:07.59	323.55	8.25	-48.3	-50.8	15.3	0.00e+00	0	39	0	1211105280	67	5040
2026-01-20 06:48:08.60	323.46	8.18	-48.5	-51.3	14.8	0.00e+00	0	38	0	1212153856	67	5333
2026-01-20 06:48:09.60	323.37	8.11	-48.4	-51.0	15.1	0.00e+00	0	39	0	1214251008	67	5144
2026-01-20 06:48:10.61	323.29	8.04	-48.5	-51.3	14.8	0.00e+00	0	38	0	1216348160	67	5317
2026-01-20 06:48:11.62	323.20	7.97	-48.4	-51.2	15.0	0.00e+00	0	38	0	1218445312	67	5224
2026-01-20 06:48:12.63	323.12	7.90	-48.5	-51.2	14.9	0.00e+00	0	39	0	1220542464	67	5270
2026-01-20 06:48:13.63	323.03	7.83	-48.5	-51.3	14.8	0.00e+00	0	39	0	1222639616	67	5316
2026-01-20 06:48:14.64	322.95	7.76	-48.5	-51.3	14.8	0.00e+00	0	38	0	1223688192	67	5326
2026-01-20 06:48:15.65	322.87	7.69	-48.6	-51.5	14.6	0.00e+00	0	38	0	1225785344	67	5445
2026-01-20 06:48:16.66	322.78	7.62	-48.8	-51.8	14.4	1.50e-06	0	39	0	1227882496	68	5320
2026-01-20 06:48:17.67	322.70	7.55	-48.8	-51.8	14.4	0.00e+00	0	39	0	1229979648	68	5320
2026-01-20 06:48:18.68	322.62	7.49	-48.8	-51.8	14.4	0.00e+00	0	38	0	1232076800	68	5315
2026-01-20 06:48:19.68	322.54	7.42	-49.0	-52.2	14.0	7.00e-07	0	38	0	1233125376	68	5551
