passes_logs/2026/01/20/R3.2S_Murmansk/R3.2S_Murmansk__20260120_061627_SUOMI_NPP_rec.log

#Pass ID: 20260120_061627_SUOMI NPP
#Satellite: SUOMI NPP
#Configuration: NPP
#almurnet v.1.7.20251203
#Start time: 2026-01-20 06:16:28

#Version: 2.2.20231116
#Station: R3.2S_Murmansk
#Location: 33.079688 lon 68.888172 lat
#TLE: 1 37849U 11061A   26019.89702167  .00000121  00000+0  78274-4 0  9993
#TLE: 2 37849  98.7817 321.9035 0002338  55.0397 305.0998 14.19526700737401

#Time	Az	El	Level	Level2	SNR	BER	BlckErr	Temp	State	Recorded	gain1	gain2
2026-01-20 06:16:28.19	79.40	2.02	-51.9	-66.8	3.8	1.49e+00	0	37	0	0	75	20050
2026-01-20 06:16:29.19	79.34	2.08	-51.9	-66.9	3.8	1.49e+00	0	37	104	0	74	21390
2026-01-20 06:16:30.20	79.28	2.14	-51.9	-66.9	3.8	1.49e+00	0	37	104	0	74	21272
2026-01-20 06:16:31.21	79.22	2.20	-51.9	-66.9	3.8	1.49e+00	0	37	104	0	74	21266
2026-01-20 06:16:32.21	79.16	2.25	-51.9	-66.9	3.8	1.49e+00	0	37	104	0	74	21274
2026-01-20 06:16:33.22	79.10	2.31	-51.9	-66.8	3.8	1.49e+00	0	37	104	0	74	21257
2026-01-20 06:16:34.23	79.04	2.37	-51.9	-66.9	3.8	1.49e+00	0	37	104	0	74	21321
2026-01-20 06:16:35.24	78.98	2.43	-51.9	-66.9	3.8	1.49e+00	0	37	104	0	74	21304
2026-01-20 06:16:36.24	78.92	2.49	-51.9	-66.8	3.8	1.49e+00	0	37	104	0	74	21253
2026-01-20 06:16:37.25	78.85	2.55	-51.9	-66.9	3.8	1.49e+00	0	37	104	0	74	21268
2026-01-20 06:16:38.26	78.79	2.61	-51.9	-66.8	3.8	1.49e+00	0	37	104	0	74	21175
2026-01-20 06:16:39.27	78.73	2.67	-51.9	-66.8	3.8	1.49e+00	0	37	104	0	74	21229
2026-01-20 06:16:40.28	78.67	2.73	-51.9	-66.9	3.8	1.49e+00	0	37	104	0	74	21286
2026-01-20 06:16:41.29	78.60	2.78	-51.9	-66.8	3.8	1.49e+00	0	37	104	0	74	21197
2026-01-20 06:16:42.29	78.54	2.84	-51.9	-66.8	3.8	1.49e+00	0	37	104	0	74	21152
2026-01-20 06:16:43.30	78.48	2.90	-51.9	-66.8	3.8	1.49e+00	0	37	104	0	74	21157
2026-01-20 06:16:44.31	78.41	2.96	-51.9	-66.8	3.8	1.49e+00	0	37	104	0	74	21191
2026-01-20 06:16:45.32	78.35	3.02	-51.9	-66.8	3.8	1.49e+00	0	37	104	0	74	21219
2026-01-20 06:16:46.33	78.28	3.08	-51.9	-66.8	3.8	1.49e+00	0	37	104	0	74	21235
2026-01-20 06:16:47.33	78.22	3.14	-51.9	-66.9	3.8	1.49e+00	0	37	104	0	74	21262
2026-01-20 06:16:48.34	78.15	3.20	-51.9	-66.9	3.8	1.49e+00	0	37	104	0	74	21290
2026-01-20 06:16:49.35	78.09	3.26	-51.9	-66.9	3.8	1.49e+00	0	37	104	0	74	21269
2026-01-20 06:16:50.36	78.02	3.32	-51.9	-66.8	3.8	1.49e+00	0	37	104	0	74	21175
2026-01-20 06:16:51.37	77.96	3.38	-51.9	-66.8	3.8	1.49e+00	0	37	104	0	74	21134
2026-01-20 06:16:52.37	77.89	3.44	-51.9	-66.8	3.8	1.49e+00	0	37	104	0	74	21090
2026-01-20 06:16:53.38	77.82	3.50	-51.9	-66.8	3.8	1.49e+00	0	37	104	0	74	21228
2026-01-20 06:16:54.39	77.76	3.56	-51.9	-66.9	3.8	1.49e+00	0	37	104	0	74	21288
2026-01-20 06:16:55.40	77.69	3.62	-51.9	-66.9	3.8	1.49e+00	0	37	104	0	74	21295
2026-01-20 06:16:56.41	77.62	3.69	-51.9	-66.8	3.8	1.49e+00	0	37	104	0	74	21145
2026-01-20 06:16:57.42	77.55	3.75	-51.9	-66.7	3.8	1.49e+00	0	37	104	0	74	20940
2026-01-20 06:16:58.42	77.49	3.81	-51.9	-66.5	3.8	1.49e+00	0	37	104	0	74	20308
2026-01-20 06:16:59.43	77.42	3.87	-51.9	-66.3	3.8	1.49e+00	0	38	104	0	74	19894
2026-01-20 06:17:00.44	77.35	3.93	-51.9	-65.8	3.8	1.49e+00	0	37	104	0	74	18783
2026-01-20 06:17:01.45	77.28	3.99	-51.9	-65.6	3.8	1.49e+00	0	37	104	0	74	18451
2026-01-20 06:17:02.45	77.21	4.05	-51.8	-65.3	3.8	1.49e+00	0	37	104	0	74	17721
2026-01-20 06:17:03.46	77.14	4.11	-51.8	-64.5	3.9	1.49e+00	0	38	104	0	74	16293
2026-01-20 06:17:04.47	77.07	4.17	-51.8	-64.2	3.8	1.49e+00	0	37	104	0	74	15721
2026-01-20 06:17:05.48	77.00	4.24	-51.7	-63.5	4.1	1.45e+00	0	37	0	0	74	14470
2026-01-20 06:17:06.49	76.93	4.30	-51.6	-62.2	4.6	1.27e+00	14	38	0	0	74	12461
2026-01-20 06:17:07.50	76.86	4.36	-51.6	-62.3	4.5	1.10e+00	68	38	0	2097152	74	12651
2026-01-20 06:17:08.50	76.79	4.42	-51.6	-61.8	4.7	7.71e-01	0	37	0	4194304	74	11893
2026-01-20 06:17:09.51	76.72	4.48	-51.5	-61.5	4.9	6.61e-01	0	37	0	5242880	74	11465
2026-01-20 06:17:10.51	76.65	4.55	-51.4	-60.6	5.4	5.95e-01	0	38	0	7340032	74	10378
2026-01-20 06:17:11.52	76.57	4.61	-51.4	-60.2	5.7	5.04e-01	0	38	0	9437184	74	9893
2026-01-20 06:17:12.53	76.50	4.67	-51.3	-59.8	6.0	3.53e-01	0	38	0	11534336	74	9394
2026-01-20 06:17:13.54	76.43	4.73	-51.3	-59.8	6.0	3.39e-01	0	38	0	12582912	74	9407
2026-01-20 06:17:14.55	76.36	4.80	-51.4	-60.7	5.3	3.85e-01	0	38	0	14680064	74	10494
2026-01-20 06:17:15.55	76.28	4.86	-51.4	-60.7	5.3	5.87e-01	0	38	0	16777216	74	10513
2026-01-20 06:17:16.56	76.21	4.92	-51.5	-61.6	4.8	7.07e-01	0	38	0	18874368	74	11676
2026-01-20 06:17:17.57	76.14	4.98	-51.6	-61.8	4.7	7.78e-01	0	38	0	20971520	74	11949
2026-01-20 06:17:18.58	76.06	5.05	-51.5	-60.8	5.3	1.00e+00	0	38	0	22020096	74	10607
2026-01-20 06:17:19.59	75.99	5.11	-51.4	-59.9	6.0	2.78e-01	0	38	0	24117248	74	9536
2026-01-20 06:17:20.60	75.91	5.17	-51.7	-62.9	4.4	3.62e-01	65	38	0	26214400	73	14282
2026-01-20 06:17:21.60	75.84	5.24	-51.0	-57.2	8.0	1.48e+00	0	38	104	26214400	74	7018
2026-01-20 06:17:22.61	75.76	5.30	-51.6	-61.6	5.1	7.15e-02	0	38	0	27262976	73	12239
2026-01-20 06:17:23.61	75.68	5.36	-51.0	-57.4	8.0	1.35e+00	0	38	0	28311552	74	7139
2026-01-20 06:17:24.62	75.61	5.43	-49.6	-53.3	12.8	1.36e-04	0	38	0	30408704	70	5613
2026-01-20 06:17:25.63	75.53	5.49	-49.6	-53.3	12.7	8.46e-05	0	38	0	31457280	70	5625
2026-01-20 06:17:26.64	75.45	5.55	-49.4	-53.0	13.1	3.35e-05	0	38	0	33554432	70	5446
2026-01-20 06:17:27.64	75.38	5.62	-49.6	-53.4	12.6	4.11e-05	0	38	0	35651584	70	5719
2026-01-20 06:17:28.65	75.30	5.68	-49.7	-53.6	12.6	8.08e-05	0	38	0	37748736	70	5812
2026-01-20 06:17:29.66	75.22	5.74	-49.3	-52.7	13.4	2.13e-05	0	38	0	38797312	70	5266
2026-01-20 06:17:30.67	75.14	5.81	-49.3	-52.7	13.4	2.28e-05	0	38	0	40894464	70	5264
2026-01-20 06:17:31.67	75.06	5.87	-49.3	-52.7	13.4	3.81e-05	0	38	0	42991616	70	5277
2026-01-20 06:17:32.68	74.98	5.94	-49.1	-52.4	13.8	3.80e-06	0	38	0	45088768	69	5384
2026-01-20 06:17:33.69	74.91	6.00	-49.1	-52.3	13.9	5.30e-06	0	38	0	47185920	69	5315
2026-01-20 06:17:34.70	74.83	6.07	-49.1	-52.3	13.9	5.30e-06	0	38	0	49283072	69	5337
2026-01-20 06:17:35.70	74.75	6.13	-49.0	-52.1	14.0	3.80e-06	0	38	0	50331648	69	5213
2026-01-20 06:17:36.71	74.66	6.20	-49.0	-52.2	14.0	7.00e-07	0	38	0	52428800	69	5278
2026-01-20 06:17:37.72	74.58	6.26	-49.0	-52.2	14.0	4.50e-06	0	38	0	54525952	69	5250
2026-01-20 06:17:38.72	74.50	6.33	-49.2	-52.5	13.8	5.30e-06	0	38	0	56623104	69	5408
2026-01-20 06:17:39.73	74.42	6.39	-49.0	-52.2	14.1	7.00e-07	0	38	0	58720256	69	5245
2026-01-20 06:17:40.74	74.34	6.46	-48.8	-51.8	14.5	2.20e-06	0	38	0	59768832	69	4990
2026-01-20 06:17:41.75	74.26	6.52	-48.7	-51.7	14.6	7.00e-07	0	38	0	61865984	69	4960
2026-01-20 06:17:42.76	74.17	6.59	-48.6	-51.5	14.8	0.00e+00	0	38	0	63963136	69	4828
2026-01-20 06:17:43.77	74.09	6.65	-48.8	-51.7	14.6	7.00e-07	0	38	0	66060288	69	4975
2026-01-20 06:17:44.77	74.01	6.72	-48.5	-51.3	15.0	0.00e+00	0	38	0	67108864	69	4756
2026-01-20 06:17:45.78	73.92	6.78	-48.6	-51.4	14.9	0.00e+00	0	38	0	69206016	69	4789
2026-01-20 06:17:46.79	73.84	6.85	-48.8	-51.8	14.5	0.00e+00	0	38	0	71303168	69	5032
2026-01-20 06:17:47.79	73.75	6.92	-48.6	-51.4	14.9	0.00e+00	0	38	0	73400320	69	4789
2026-01-20 06:17:48.80	73.67	6.98	-48.4	-51.1	15.2	0.00e+00	0	38	0	75497472	68	4902
2026-01-20 06:17:49.81	73.58	7.05	-48.7	-51.6	14.8	0.00e+00	0	38	0	77594624	68	5197
2026-01-20 06:17:50.82	73.49	7.11	-48.6	-51.3	15.1	0.00e+00	0	38	0	78643200	68	5019
2026-01-20 06:17:51.83	73.41	7.18	-48.7	-51.6	14.8	0.00e+00	0	38	0	80740352	68	5182
2026-01-20 06:17:52.83	73.32	7.25	-48.6	-51.3	15.0	0.00e+00	0	38	0	82837504	68	5028
2026-01-20 06:17:53.84	73.23	7.31	-48.6	-51.4	15.0	0.00e+00	0	38	0	84934656	68	5091
2026-01-20 06:17:54.85	73.15	7.38	-48.7	-51.5	15.0	0.00e+00	0	38	0	87031808	68	5111
2026-01-20 06:17:55.85	73.06	7.45	-48.3	-50.9	15.5	0.00e+00	0	38	0	88080384	68	4762
2026-01-20 06:17:56.86	72.97	7.51	-48.6	-51.3	15.1	0.00e+00	0	38	0	90177536	68	5024
2026-01-20 06:17:57.87	72.88	7.58	-48.4	-51.1	15.3	0.00e+00	0	38	0	92274688	68	4918
2026-01-20 06:17:58.88	72.79	7.65	-48.6	-51.3	15.1	0.00e+00	0	38	0	94371840	68	5031
2026-01-20 06:17:59.89	72.70	7.72	-48.6	-51.4	15.0	0.00e+00	0	38	0	95420416	68	5074
2026-01-20 06:18:00.89	72.61	7.78	-48.4	-51.1	15.3	0.00e+00	0	38	0	97517568	68	4895
2026-01-20 06:18:01.90	72.52	7.85	-48.7	-51.6	14.9	0.00e+00	0	38	0	99614720	68	5184
2026-01-20 06:18:02.91	72.43	7.92	-48.5	-51.2	15.2	0.00e+00	0	38	0	101711872	68	4971
2026-01-20 06:18:03.91	72.34	7.99	-48.6	-51.4	15.0	0.00e+00	0	38	0	103809024	68	5063
2026-01-20 06:18:04.92	72.25	8.05	-48.6	-51.5	14.9	0.00e+00	0	38	0	105906176	68	5103
2026-01-20 06:18:05.93	72.15	8.12	-48.8	-51.8	14.7	0.00e+00	0	38	0	106954752	68	5285
2026-01-20 06:18:06.93	72.06	8.19	-49.0	-52.1	14.4	7.00e-07	0	38	0	109051904	68	5477
2026-01-20 06:18:07.94	71.97	8.26	-49.0	-52.1	14.4	2.20e-06	0	38	0	111149056	68	5481
2026-01-20 06:18:08.95	71.87	8.33	-49.0	-52.1	14.4	7.00e-07	0	38	0	113246208	68	5498
2026-01-20 06:18:09.96	71.78	8.39	-48.9	-52.0	14.5	0.00e+00	0	38	0	115343360	68	5428
2026-01-20 06:18:10.97	71.68	8.46	-49.0	-52.0	14.4	7.00e-07	0	38	0	116391936	68	5449
2026-01-20 06:18:11.97	71.59	8.53	-48.9	-51.8	14.6	1.50e-06	0	38	0	118489088	68	5327
2026-01-20 06:18:12.98	71.49	8.60	-48.7	-51.5	14.9	7.00e-07	0	38	0	120586240	68	5139
2026-01-20 06:18:13.99	71.40	8.67	-48.6	-51.4	15.0	0.00e+00	0	38	0	122683392	68	5084
2026-01-20 06:18:15.00	71.30	8.74	-48.3	-50.9	15.6	0.00e+00	0	38	0	124780544	68	4790
2026-01-20 06:18:16.01	71.20	8.81	-48.3	-50.9	15.6	0.00e+00	0	38	0	125829120	68	4762
2026-01-20 06:18:17.01	71.11	8.88	-48.6	-51.3	15.2	0.00e+00	0	38	0	127926272	68	5019
2026-01-20 06:18:18.02	71.01	8.94	-48.6	-51.4	15.1	0.00e+00	0	38	0	130023424	68	5047
2026-01-20 06:18:19.03	70.91	9.01	-48.5	-51.2	15.3	0.00e+00	0	38	0	132120576	68	4964
2026-01-20 06:18:20.04	70.81	9.08	-48.5	-51.2	15.3	0.00e+00	0	38	0	134217728	68	4978
2026-01-20 06:18:21.04	70.71	9.15	-48.4	-51.1	15.4	0.00e+00	0	38	0	135266304	68	4894
2026-01-20 06:18:22.05	70.61	9.22	-48.4	-51.0	15.5	0.00e+00	0	38	0	137363456	68	4869
2026-01-20 06:18:23.06	70.51	9.29	-48.2	-50.8	15.7	0.00e+00	0	38	0	139460608	68	4713
2026-01-20 06:18:24.06	70.41	9.36	-48.2	-50.7	15.8	0.00e+00	0	38	0	141557760	68	4696
2026-01-20 06:18:25.07	70.31	9.43	-48.0	-50.4	16.1	0.00e+00	0	38	0	143654912	68	4544
2026-01-20 06:18:26.08	70.21	9.50	-48.0	-50.5	16.1	0.00e+00	0	38	0	144703488	68	4547
2026-01-20 06:18:27.09	70.10	9.57	-47.9	-50.3	16.2	0.00e+00	0	38	0	146800640	67	4725
2026-01-20 06:18:28.10	70.00	9.64	-48.0	-50.5	16.0	0.00e+00	0	38	0	148897792	67	4842
2026-01-20 06:18:29.11	69.90	9.71	-48.2	-50.7	15.7	0.00e+00	0	38	0	150994944	67	4960
2026-01-20 06:18:30.11	69.79	9.78	-48.1	-50.6	15.8	0.00e+00	0	38	0	153092096	67	4910
2026-01-20 06:18:31.12	69.69	9.86	-47.8	-50.1	16.3	0.00e+00	0	38	0	154140672	67	4635
2026-01-20 06:18:32.13	69.58	9.93	-48.1	-50.6	15.9	0.00e+00	0	38	0	156237824	67	4921
2026-01-20 06:18:33.14	69.48	10.00	-48.2	-50.7	15.8	0.00e+00	0	38	0	158334976	67	4952
2026-01-20 06:18:34.15	69.37	10.07	-48.2	-50.7	15.8	0.00e+00	0	38	0	160432128	67	4954
2026-01-20 06:18:35.16	69.26	10.14	-48.2	-50.7	15.8	0.00e+00	0	38	0	162529280	67	4981
2026-01-20 06:18:36.16	69.16	10.21	-48.1	-50.6	15.9	0.00e+00	0	38	0	163577856	67	4882
2026-01-20 06:18:37.17	69.05	10.28	-48.2	-50.7	15.8	0.00e+00	0	38	0	165675008	67	4940
2026-01-20 06:18:38.18	68.94	10.35	-47.9	-50.2	16.3	0.00e+00	0	38	0	167772160	67	4699
2026-01-20 06:18:39.19	68.83	10.42	-48.0	-50.4	16.1	0.00e+00	0	38	0	169869312	67	4805
2026-01-20 06:18:40.19	68.72	10.50	-48.1	-50.5	16.1	0.00e+00	0	38	0	171966464	67	4851
2026-01-20 06:18:41.20	68.61	10.57	-47.8	-50.1	16.4	0.00e+00	0	38	0	174063616	67	4626
2026-01-20 06:18:42.21	68.50	10.64	-48.1	-50.4	16.1	0.00e+00	0	38	0	175112192	67	4810
2026-01-20 06:18:43.22	68.39	10.71	-48.0	-50.4	16.2	0.00e+00	0	38	0	177209344	67	4776
2026-01-20 06:18:44.23	68.28	10.78	-47.9	-50.2	16.3	0.00e+00	0	38	0	179306496	67	4693
2026-01-20 06:18:45.24	68.17	10.86	-48.0	-50.4	16.2	0.00e+00	0	38	0	181403648	67	4798
2026-01-20 06:18:46.24	68.06	10.93	-48.1	-50.5	16.1	0.00e+00	0	38	0	182452224	67	4819
2026-01-20 06:18:47.25	67.94	11.00	-48.1	-50.4	16.1	0.00e+00	0	38	0	184549376	67	4805
2026-01-20 06:18:48.26	67.83	11.07	-48.1	-50.4	16.1	0.00e+00	0	38	0	186646528	67	4810
2026-01-20 06:18:49.26	67.71	11.15	-48.0	-50.3	16.3	0.00e+00	0	38	0	188743680	67	4730
2026-01-20 06:18:50.27	67.60	11.22	-48.0	-50.3	16.2	0.00e+00	0	38	0	190840832	67	4740
2026-01-20 06:18:51.28	67.48	11.29	-48.2	-50.6	16.0	0.00e+00	0	38	0	191889408	67	4909
2026-01-20 06:18:52.29	67.37	11.36	-48.1	-50.5	16.1	0.00e+00	0	38	0	193986560	67	4864
2026-01-20 06:18:53.30	67.25	11.44	-48.3	-50.8	15.8	0.00e+00	0	38	0	196083712	67	5011
2026-01-20 06:18:54.31	67.13	11.51	-48.3	-50.8	15.8	0.00e+00	0	38	0	198180864	67	5026
2026-01-20 06:18:55.31	67.01	11.58	-48.2	-50.6	16.0	0.00e+00	0	38	0	200278016	67	4879
2026-01-20 06:18:56.32	66.90	11.66	-48.3	-50.7	15.8	0.00e+00	0	38	0	202375168	67	4972
2026-01-20 06:18:57.33	66.78	11.73	-48.3	-50.8	15.8	0.00e+00	0	38	0	203423744	67	4999
2026-01-20 06:18:58.34	66.66	11.80	-48.5	-51.0	15.6	0.00e+00	0	38	0	205520896	67	5155
2026-01-20 06:18:59.35	66.54	11.88	-48.4	-51.0	15.6	0.00e+00	0	38	0	207618048	67	5121
2026-01-20 06:19:00.35	66.42	11.95	-48.3	-50.8	15.9	0.00e+00	0	38	0	209715200	67	5001
2026-01-20 06:19:01.36	66.29	12.02	-48.3	-50.7	15.9	0.00e+00	0	38	0	210763776	67	4972
2026-01-20 06:19:02.37	66.17	12.10	-48.2	-50.7	16.0	0.00e+00	0	38	0	212860928	67	4939
2026-01-20 06:19:03.37	66.05	12.17	-48.2	-50.7	16.0	0.00e+00	0	38	0	214958080	67	4928
2026-01-20 06:19:04.38	65.93	12.25	-48.3	-50.7	15.9	0.00e+00	0	38	0	217055232	67	4956
2026-01-20 06:19:05.39	65.80	12.32	-48.1	-50.4	16.2	0.00e+00	0	38	0	219152384	67	4800
2026-01-20 06:19:06.40	65.68	12.39	-48.0	-50.4	16.2	0.00e+00	0	38	0	221249536	67	4774
2026-01-20 06:19:07.41	65.55	12.47	-48.0	-50.3	16.3	0.00e+00	0	38	0	222298112	67	4724
2026-01-20 06:19:08.41	65.42	12.54	-47.8	-49.9	16.7	0.00e+00	0	38	0	224395264	67	4530
2026-01-20 06:19:09.42	65.30	12.62	-47.4	-49.5	17.1	0.00e+00	0	38	0	226492416	66	4570
2026-01-20 06:19:10.43	65.17	12.69	-47.4	-49.4	17.2	0.00e+00	0	38	0	228589568	66	4531
2026-01-20 06:19:11.44	65.04	12.77	-47.4	-49.4	17.2	0.00e+00	0	38	0	230686720	66	4512
2026-01-20 06:19:12.44	64.91	12.84	-47.2	-49.1	17.5	0.00e+00	0	38	0	231735296	66	4366
2026-01-20 06:19:13.45	64.78	12.92	-47.3	-49.3	17.3	0.00e+00	0	38	0	233832448	66	4465
2026-01-20 06:19:14.46	64.65	12.99	-47.5	-49.6	17.1	0.00e+00	0	38	0	235929600	66	4603
2026-01-20 06:19:15.47	64.52	13.07	-47.4	-49.5	17.1	0.00e+00	0	38	0	238026752	66	4589
2026-01-20 06:19:16.47	64.39	13.14	-47.3	-49.3	17.4	0.00e+00	0	38	0	239075328	66	4457
2026-01-20 06:19:17.48	64.26	13.22	-47.2	-49.1	17.5	0.00e+00	0	38	0	241172480	66	4388
2026-01-20 06:19:18.49	64.13	13.29	-47.2	-49.2	17.4	0.00e+00	0	38	0	243269632	66	4414
2026-01-20 06:19:19.50	63.99	13.37	-47.3	-49.3	17.3	0.00e+00	0	38	0	245366784	66	4480
2026-01-20 06:19:20.51	63.86	13.44	-47.2	-49.2	17.4	0.00e+00	0	38	0	247463936	66	4420
2026-01-20 06:19:21.51	63.72	13.52	-47.2	-49.3	17.3	0.00e+00	0	38	0	249561088	66	4472
2026-01-20 06:19:22.52	63.59	13.59	-47.3	-49.5	17.2	0.00e+00	0	38	0	250609664	66	4548
2026-01-20 06:19:23.53	63.45	13.67	-47.4	-49.5	17.1	0.00e+00	0	38	0	252706816	66	4583
2026-01-20 06:19:24.54	63.31	13.74	-47.2	-49.2	17.4	0.00e+00	0	38	0	254803968	66	4425
2026-01-20 06:19:25.54	63.18	13.82	-47.3	-49.3	17.3	0.00e+00	0	38	0	256901120	66	4459
2026-01-20 06:19:26.55	63.04	13.89	-47.2	-49.2	17.5	0.00e+00	0	38	0	258998272	66	4424
2026-01-20 06:19:27.56	62.90	13.97	-47.2	-49.2	17.4	0.00e+00	0	38	0	260046848	66	4416
2026-01-20 06:19:28.57	62.76	14.05	-47.1	-49.0	17.7	0.00e+00	0	38	0	262144000	66	4309
2026-01-20 06:19:29.57	62.62	14.12	-47.1	-49.0	17.6	0.00e+00	0	38	0	264241152	66	4321
2026-01-20 06:19:30.58	62.48	14.20	-47.1	-49.0	17.6	0.00e+00	0	38	0	266338304	66	4294
2026-01-20 06:19:31.59	62.33	14.27	-47.1	-49.1	17.6	0.00e+00	0	38	0	267386880	66	4356
2026-01-20 06:19:32.60	62.19	14.35	-47.3	-49.3	17.4	0.00e+00	0	38	0	269484032	66	4463
2026-01-20 06:19:33.60	62.05	14.43	-47.0	-48.9	17.7	0.00e+00	0	38	0	271581184	65	4516
2026-01-20 06:19:34.61	61.90	14.50	-47.1	-49.1	17.6	0.00e+00	0	38	0	273678336	65	4617
2026-01-20 06:19:35.62	61.76	14.58	-47.1	-49.1	17.5	0.00e+00	0	39	0	275775488	65	4624
2026-01-20 06:19:36.62	61.61	14.65	-47.1	-49.0	17.6	0.00e+00	0	38	0	277872640	65	4591
2026-01-20 06:19:37.63	61.47	14.73	-47.2	-49.2	17.5	0.00e+00	0	38	0	278921216	65	4666
2026-01-20 06:19:38.64	61.32	14.81	-46.9	-48.7	17.8	0.00e+00	0	39	0	281018368	65	4439
2026-01-20 06:19:39.65	61.17	14.88	-47.0	-49.0	17.7	0.00e+00	0	39	0	283115520	65	4555
2026-01-20 06:19:40.65	61.02	14.96	-47.1	-49.0	17.7	0.00e+00	0	38	0	285212672	65	4574
2026-01-20 06:19:41.66	60.87	15.04	-47.0	-49.0	17.7	0.00e+00	0	38	0	287309824	65	4559
2026-01-20 06:19:42.67	60.72	15.11	-47.1	-49.1	17.6	0.00e+00	0	38	0	288358400	65	4638
2026-01-20 06:19:43.68	60.57	15.19	-47.2	-49.2	17.5	0.00e+00	0	38	0	290455552	65	4654
2026-01-20 06:19:44.69	60.42	15.27	-47.4	-49.5	17.1	0.00e+00	0	38	0	292552704	65	4845
2026-01-20 06:19:45.70	60.26	15.34	-47.4	-49.5	17.2	0.00e+00	0	38	0	294649856	65	4827
2026-01-20 06:19:46.71	60.11	15.42	-47.3	-49.4	17.2	0.00e+00	0	38	0	296747008	65	4800
2026-01-20 06:19:47.71	59.96	15.50	-47.3	-49.4	17.3	0.00e+00	0	38	0	297795584	65	4771
2026-01-20 06:19:48.72	59.80	15.57	-47.4	-49.5	17.2	0.00e+00	0	38	0	299892736	65	4821
2026-01-20 06:19:49.73	59.64	15.65	-47.6	-49.8	16.9	0.00e+00	0	38	0	301989888	65	4988
2026-01-20 06:19:50.74	59.49	15.73	-47.6	-49.8	16.8	0.00e+00	0	38	0	304087040	65	5041
2026-01-20 06:19:51.75	59.33	15.81	-47.7	-50.0	16.7	0.00e+00	0	38	0	306184192	66	4839
2026-01-20 06:19:52.75	59.17	15.88	-47.9	-50.2	16.6	0.00e+00	0	38	0	307232768	66	4948
2026-01-20 06:19:53.76	59.01	15.96	-47.7	-49.9	16.8	0.00e+00	0	38	0	309329920	66	4810
2026-01-20 06:19:54.77	58.85	16.04	-47.6	-49.7	16.9	0.00e+00	0	38	0	311427072	66	4696
2026-01-20 06:19:55.78	58.69	16.11	-47.6	-49.8	16.9	0.00e+00	0	38	0	313524224	66	4746
2026-01-20 06:19:56.79	58.53	16.19	-47.7	-49.9	16.9	0.00e+00	0	38	0	315621376	66	4763
2026-01-20 06:19:57.79	58.37	16.27	-47.8	-50.1	16.7	0.00e+00	0	38	0	316669952	66	4875
2026-01-20 06:19:58.80	58.20	16.34	-47.9	-50.2	16.6	0.00e+00	0	38	0	318767104	66	4943
2026-01-20 06:19:59.81	58.04	16.42	-47.7	-49.9	16.8	0.00e+00	0	38	0	320864256	66	4770
2026-01-20 06:20:00.82	57.87	16.50	-47.8	-50.1	16.7	0.00e+00	0	38	0	322961408	66	4880
2026-01-20 06:20:01.83	57.70	16.58	-47.8	-50.0	16.7	0.00e+00	0	38	0	325058560	66	4843
2026-01-20 06:20:02.83	57.54	16.65	-47.8	-50.1	16.7	0.00e+00	0	38	0	326107136	66	4897
2026-01-20 06:20:03.84	57.37	16.73	-48.0	-50.3	16.5	0.00e+00	0	38	0	328204288	66	4993
2026-01-20 06:20:04.85	57.20	16.81	-47.9	-50.1	16.6	0.00e+00	0	38	0	330301440	66	4922
2026-01-20 06:20:05.86	57.03	16.88	-48.0	-50.3	16.4	0.00e+00	0	38	0	332398592	66	5026
2026-01-20 06:20:06.87	56.86	16.96	-47.9	-50.2	16.5	0.00e+00	0	38	0	334495744	66	4975
2026-01-20 06:20:07.87	56.69	17.04	-47.8	-50.0	16.8	0.00e+00	0	38	0	335544320	66	4828
2026-01-20 06:20:08.88	56.52	17.11	-47.8	-50.0	16.7	0.00e+00	0	38	0	337641472	66	4870
2026-01-20 06:20:09.89	56.34	17.19	-47.7	-49.9	16.8	0.00e+00	0	38	0	339738624	66	4790
2026-01-20 06:20:10.89	56.17	17.27	-47.6	-49.8	17.0	0.00e+00	0	38	0	341835776	66	4729
2026-01-20 06:20:11.90	55.99	17.34	-47.5	-49.6	17.1	0.00e+00	0	38	0	343932928	66	4621
2026-01-20 06:20:12.91	55.82	17.42	-47.5	-49.6	17.1	0.00e+00	0	38	0	344981504	66	4638
2026-01-20 06:20:13.92	55.64	17.50	-47.4	-49.4	17.3	0.00e+00	0	38	0	347078656	66	4501
2026-01-20 06:20:14.93	55.46	17.57	-47.3	-49.3	17.5	0.00e+00	0	38	0	349175808	66	4444
2026-01-20 06:20:15.93	55.28	17.65	-47.3	-49.2	17.5	0.00e+00	0	38	0	351272960	66	4437
2026-01-20 06:20:16.94	55.10	17.73	-47.6	-49.7	17.1	0.00e+00	0	38	0	353370112	66	4663
2026-01-20 06:20:17.95	54.92	17.80	-47.7	-49.9	16.8	0.00e+00	0	38	0	354418688	66	4813
2026-01-20 06:20:18.95	54.74	17.88	-47.8	-50.0	16.7	0.00e+00	0	38	0	356515840	66	4854
2026-01-20 06:20:19.96	54.56	17.96	-47.8	-50.0	16.7	0.00e+00	0	38	0	358612992	66	4838
2026-01-20 06:20:20.97	54.38	18.03	-47.9	-50.1	16.7	0.00e+00	0	38	0	360710144	66	4905
2026-01-20 06:20:21.98	54.19	18.11	-47.7	-49.8	17.0	0.00e+00	0	38	0	362807296	66	4724
2026-01-20 06:20:22.99	54.01	18.18	-47.5	-49.5	17.3	0.00e+00	0	39	0	363855872	66	4590
2026-01-20 06:20:24.00	53.82	18.26	-47.7	-49.8	17.0	0.00e+00	0	38	0	365953024	66	4737
2026-01-20 06:20:25.00	53.63	18.34	-47.8	-49.9	16.9	0.00e+00	0	38	0	368050176	66	4804
2026-01-20 06:20:26.01	53.45	18.41	-47.5	-49.6	17.2	0.00e+00	0	38	0	370147328	66	4642
2026-01-20 06:20:27.02	53.26	18.49	-47.5	-49.6	17.2	0.00e+00	0	38	0	372244480	66	4600
2026-01-20 06:20:28.03	53.07	18.56	-47.6	-49.7	17.1	0.00e+00	0	39	0	373293056	66	4667
2026-01-20 06:20:29.03	52.88	18.64	-47.3	-49.3	17.5	0.00e+00	0	38	0	375390208	66	4458
2026-01-20 06:20:30.04	52.68	18.71	-47.4	-49.5	17.3	0.00e+00	0	38	0	377487360	66	4548
2026-01-20 06:20:31.05	52.49	18.79	-47.5	-49.5	17.3	0.00e+00	0	38	0	379584512	66	4581
2026-01-20 06:20:32.06	52.30	18.87	-47.8	-50.1	16.7	0.00e+00	0	38	0	381681664	66	4893
2026-01-20 06:20:33.07	52.10	18.94	-47.5	-49.6	17.2	0.00e+00	0	38	0	382730240	66	4651
2026-01-20 06:20:34.07	51.91	19.02	-47.4	-49.4	17.4	0.00e+00	0	38	0	384827392	66	4508
2026-01-20 06:20:35.08	51.71	19.09	-47.5	-49.6	17.3	0.00e+00	0	38	0	386924544	66	4622
2026-01-20 06:20:36.09	51.51	19.17	-47.3	-49.3	17.5	0.00e+00	0	38	0	389021696	66	4491
2026-01-20 06:20:37.10	51.31	19.24	-47.5	-49.5	17.3	0.00e+00	0	38	0	391118848	66	4569
2026-01-20 06:20:38.11	51.11	19.32	-47.1	-49.0	17.8	0.00e+00	0	38	0	393216000	66	4296
2026-01-20 06:20:39.11	50.91	19.39	-47.2	-49.1	17.7	0.00e+00	0	38	0	394264576	66	4368
2026-01-20 06:20:40.12	50.71	19.46	-47.1	-49.0	17.8	0.00e+00	0	38	0	396361728	66	4299
2026-01-20 06:20:41.13	50.51	19.54	-46.9	-48.7	18.0	0.00e+00	0	38	0	398458880	65	4428
2026-01-20 06:20:42.14	50.30	19.61	-46.8	-48.6	18.2	0.00e+00	0	38	0	400556032	65	4348
2026-01-20 06:20:43.15	50.10	19.69	-46.8	-48.6	18.1	0.00e+00	0	38	0	401604608	65	4380
2026-01-20 06:20:44.16	49.89	19.76	-46.9	-48.8	18.0	0.00e+00	0	38	0	403701760	65	4451
2026-01-20 06:20:45.16	49.69	19.83	-46.7	-48.6	18.1	0.00e+00	0	38	0	405798912	65	4353
2026-01-20 06:20:46.17	49.48	19.91	-46.6	-48.4	18.3	0.00e+00	0	38	0	407896064	65	4276
2026-01-20 06:20:47.18	49.27	19.98	-46.6	-48.4	18.3	0.00e+00	0	38	0	409993216	65	4283
2026-01-20 06:20:48.19	49.06	20.05	-46.5	-48.3	18.4	0.00e+00	0	38	0	411041792	64	4457
2026-01-20 06:20:49.19	48.85	20.12	-46.4	-48.1	18.6	0.00e+00	0	38	0	413138944	64	4383
2026-01-20 06:20:50.20	48.64	20.20	-46.3	-48.0	18.6	0.00e+00	0	38	0	415236096	64	4329
2026-01-20 06:20:51.21	48.42	20.27	-46.2	-47.9	18.8	0.00e+00	0	38	0	417333248	64	4256
2026-01-20 06:20:52.21	48.21	20.34	-46.2	-47.8	18.8	0.00e+00	0	38	0	419430400	64	4236
2026-01-20 06:20:53.22	48.00	20.41	-46.1	-47.6	19.0	0.00e+00	0	38	0	421527552	64	4139
2026-01-20 06:20:54.23	47.78	20.48	-46.1	-47.7	19.0	0.00e+00	0	38	0	422576128	64	4174
2026-01-20 06:20:55.24	47.56	20.55	-46.0	-47.6	19.2	0.00e+00	0	38	0	424673280	63	4366
2026-01-20 06:20:56.25	47.34	20.63	-46.1	-47.7	19.1	0.00e+00	0	38	0	426770432	63	4394
2026-01-20 06:20:57.25	47.13	20.70	-45.9	-47.4	19.3	0.00e+00	0	38	0	428867584	63	4261
2026-01-20 06:20:58.26	46.91	20.77	-46.0	-47.5	19.2	0.00e+00	0	38	0	429916160	63	4335
2026-01-20 06:20:59.27	46.69	20.84	-46.0	-47.5	19.3	0.00e+00	0	38	0	432013312	63	4313
2026-01-20 06:21:00.28	46.46	20.91	-46.0	-47.6	19.2	0.00e+00	0	38	0	434110464	63	4378
2026-01-20 06:21:01.29	46.24	20.98	-46.2	-47.8	19.0	0.00e+00	0	38	0	436207616	63	4482
2026-01-20 06:21:02.29	46.02	21.05	-46.2	-47.8	19.1	0.00e+00	0	38	0	438304768	63	4442
2026-01-20 06:21:03.30	45.79	21.12	-46.2	-47.8	19.0	0.00e+00	0	38	0	440401920	63	4488
2026-01-20 06:21:04.31	45.57	21.19	-45.9	-47.4	19.4	0.00e+00	0	38	0	441450496	63	4257
2026-01-20 06:21:05.32	45.34	21.25	-45.9	-47.5	19.3	0.00e+00	0	39	0	443547648	63	4296
2026-01-20 06:21:06.33	45.11	21.32	-45.8	-47.3	19.4	0.00e+00	0	39	0	445644800	63	4241
2026-01-20 06:21:07.33	44.88	21.39	-45.9	-47.4	19.4	0.00e+00	0	38	0	447741952	63	4248
2026-01-20 06:21:08.34	44.65	21.46	-45.8	-47.2	19.5	0.00e+00	0	39	0	449839104	63	4192
2026-01-20 06:21:09.35	44.42	21.53	-45.8	-47.3	19.5	0.00e+00	0	38	0	450887680	63	4214
2026-01-20 06:21:10.36	44.19	21.59	-45.6	-47.1	19.6	0.00e+00	0	38	0	452984832	63	4110
2026-01-20 06:21:11.37	43.95	21.66	-45.6	-47.0	19.7	0.00e+00	0	38	0	455081984	63	4095
2026-01-20 06:21:12.37	43.72	21.73	-45.7	-47.2	19.6	0.00e+00	0	38	0	457179136	63	4167
2026-01-20 06:21:13.38	43.49	21.79	-45.7	-47.2	19.6	0.00e+00	0	38	0	458227712	63	4178
2026-01-20 06:21:14.39	43.25	21.86	-45.8	-47.3	19.5	0.00e+00	0	38	0	460324864	63	4197
2026-01-20 06:21:15.40	43.01	21.92	-45.8	-47.2	19.5	0.00e+00	0	38	0	462422016	63	4192
2026-01-20 06:21:16.41	42.77	21.99	-45.6	-47.1	19.7	0.00e+00	0	38	0	464519168	63	4110
2026-01-20 06:21:17.41	42.54	22.05	-45.7	-47.1	19.7	0.00e+00	0	38	0	466616320	63	4138
2026-01-20 06:21:18.42	42.30	22.12	-45.6	-47.1	19.7	0.00e+00	0	38	0	468713472	63	4115
2026-01-20 06:21:19.43	42.05	22.18	-45.5	-47.0	19.9	0.00e+00	0	38	0	469762048	63	4053
2026-01-20 06:21:20.44	41.81	22.25	-45.5	-46.9	19.9	0.00e+00	0	38	0	471859200	62	4250
2026-01-20 06:21:21.44	41.57	22.31	-45.4	-46.8	20.0	0.00e+00	0	38	0	473956352	62	4236
2026-01-20 06:21:22.45	41.32	22.37	-45.6	-47.0	19.8	0.00e+00	0	39	0	476053504	62	4339
2026-01-20 06:21:23.46	41.08	22.43	-45.7	-47.2	19.7	0.00e+00	0	38	0	478150656	62	4413
2026-01-20 06:21:24.47	40.83	22.50	-45.8	-47.3	19.6	0.00e+00	0	38	0	479199232	62	4448
2026-01-20 06:21:25.47	40.59	22.56	-45.7	-47.2	19.6	0.00e+00	0	38	0	481296384	62	4397
2026-01-20 06:21:26.48	40.34	22.62	-45.8	-47.2	19.6	0.00e+00	0	38	0	483393536	62	4426
2026-01-20 06:21:27.49	40.09	22.68	-45.5	-46.9	19.9	0.00e+00	0	38	0	485490688	62	4277
2026-01-20 06:21:28.50	39.84	22.74	-45.6	-47.0	19.8	0.00e+00	0	38	0	487587840	62	4315
2026-01-20 06:21:29.51	39.59	22.80	-45.7	-47.2	19.7	0.00e+00	0	38	0	488636416	62	4407
2026-01-20 06:21:30.51	39.34	22.86	-45.8	-47.2	19.6	0.00e+00	0	38	0	490733568	62	4433
2026-01-20 06:21:31.52	39.08	22.92	-45.6	-47.0	19.8	0.00e+00	0	38	0	492830720	62	4297
2026-01-20 06:21:32.53	38.83	22.98	-45.4	-46.8	20.0	0.00e+00	0	38	0	494927872	62	4202
2026-01-20 06:21:33.54	38.57	23.03	-45.3	-46.7	20.1	0.00e+00	0	38	0	497025024	62	4172
2026-01-20 06:21:34.55	38.32	23.09	-45.5	-46.9	19.9	0.00e+00	0	38	0	498073600	62	4258
2026-01-20 06:21:35.55	38.06	23.15	-45.5	-46.9	19.8	0.00e+00	0	38	0	500170752	62	4272
2026-01-20 06:21:36.56	37.80	23.20	-45.6	-47.1	19.8	0.00e+00	0	38	0	502267904	62	4346
2026-01-20 06:21:37.57	37.54	23.26	-45.7	-47.2	19.7	0.00e+00	0	38	0	504365056	62	4401
2026-01-20 06:21:38.58	37.28	23.32	-45.8	-47.2	19.6	0.00e+00	0	38	0	506462208	62	4423
2026-01-20 06:21:39.59	37.02	23.37	-45.7	-47.2	19.7	0.00e+00	0	38	0	507510784	62	4418
2026-01-20 06:21:40.59	36.76	23.43	-45.9	-47.3	19.5	0.00e+00	0	39	0	509607936	62	4486
2026-01-20 06:21:41.60	36.50	23.48	-45.9	-47.4	19.5	0.00e+00	0	38	0	511705088	62	4510
2026-01-20 06:21:42.61	36.24	23.53	-45.9	-47.4	19.5	0.00e+00	0	38	0	513802240	62	4496
2026-01-20 06:21:43.62	35.97	23.59	-45.7	-47.1	19.7	0.00e+00	0	38	0	515899392	62	4372
2026-01-20 06:21:44.63	35.71	23.64	-45.6	-47.1	19.8	0.00e+00	0	38	0	516947968	62	4342
2026-01-20 06:21:45.63	35.44	23.69	-45.5	-46.9	19.9	0.00e+00	0	38	0	519045120	62	4285
2026-01-20 06:21:46.64	35.18	23.74	-45.5	-46.9	20.0	0.00e+00	0	38	0	521142272	62	4254
2026-01-20 06:21:47.65	34.91	23.79	-45.8	-47.2	19.7	0.00e+00	0	38	0	523239424	62	4436
2026-01-20 06:21:48.66	34.64	23.84	-46.0	-47.4	19.5	0.00e+00	0	38	0	525336576	62	4545
2026-01-20 06:21:49.66	34.37	23.89	-45.5	-46.9	19.9	0.00e+00	0	38	0	526385152	62	4278
2026-01-20 06:21:50.67	34.10	23.94	-45.6	-47.0	19.9	0.00e+00	0	38	0	528482304	62	4307
2026-01-20 06:21:51.68	33.83	23.99	-45.2	-46.6	20.3	0.00e+00	0	39	0	530579456	62	4101
2026-01-20 06:21:52.69	33.56	24.03	-45.4	-46.7	20.1	0.00e+00	0	38	0	532676608	62	4186
2026-01-20 06:21:53.69	33.28	24.08	-45.3	-46.7	20.2	0.00e+00	0	38	0	534773760	62	4161
2026-01-20 06:21:54.70	33.01	24.13	-45.4	-46.7	20.1	0.00e+00	0	38	0	536870912	62	4171
2026-01-20 06:21:55.71	32.74	24.17	-45.2	-46.5	20.3	0.00e+00	0	38	0	537919488	62	4071
2026-01-20 06:21:56.72	32.46	24.22	-45.1	-46.3	20.4	0.00e+00	0	38	0	540016640	62	4001
2026-01-20 06:21:57.73	32.18	24.26	-45.0	-46.3	20.5	0.00e+00	0	38	0	542113792	62	3971
2026-01-20 06:21:58.74	31.91	24.31	-45.2	-46.5	20.3	0.00e+00	0	38	0	544210944	62	4052
2026-01-20 06:21:59.74	31.63	24.35	-45.5	-46.9	19.9	0.00e+00	0	38	0	545259520	62	4274
2026-01-20 06:22:00.75	31.35	24.39	-45.5	-46.9	20.0	0.00e+00	0	38	0	547356672	62	4244
2026-01-20 06:22:01.76	31.07	24.43	-46.0	-47.5	19.4	0.00e+00	0	38	0	549453824	62	4567
2026-01-20 06:22:02.76	30.79	24.47	-45.9	-47.3	19.5	0.00e+00	0	38	0	551550976	62	4490
2026-01-20 06:22:03.77	30.51	24.51	-46.2	-47.7	19.2	0.00e+00	0	38	0	553648128	62	4684
2026-01-20 06:22:04.78	30.23	24.55	-46.4	-48.0	18.9	0.00e+00	0	38	0	554696704	63	4593
2026-01-20 06:22:05.79	29.95	24.59	-46.7	-48.3	18.7	0.00e+00	0	38	0	556793856	63	4756
2026-01-20 06:22:06.80	29.67	24.63	-46.7	-48.3	18.6	0.00e+00	0	38	0	558891008	64	4487
2026-01-20 06:22:07.81	29.38	24.67	-47.0	-48.9	18.0	0.00e+00	0	38	0	560988160	64	4765
2026-01-20 06:22:08.81	29.10	24.70	-47.7	-49.7	17.3	0.00e+00	0	38	0	563085312	65	4964
2026-01-20 06:22:09.82	28.82	24.74	-47.8	-50.0	17.0	0.00e+00	0	38	0	565182464	66	4824
2026-01-20 06:22:10.83	28.53	24.78	-47.3	-49.2	17.8	0.00e+00	0	38	0	566231040	66	4394
2026-01-20 06:22:11.83	28.25	24.81	-47.0	-48.8	18.1	0.00e+00	0	39	0	568328192	65	4476
2026-01-20 06:22:12.84	27.96	24.84	-46.6	-48.3	18.6	0.00e+00	0	38	0	570425344	65	4204
2026-01-20 06:22:13.85	27.67	24.88	-46.6	-48.2	18.6	0.00e+00	0	38	0	572522496	64	4432
2026-01-20 06:22:14.86	27.38	24.91	-46.8	-48.6	18.3	0.00e+00	0	38	0	573571072	64	4622
2026-01-20 06:22:15.87	27.09	24.94	-46.8	-48.5	18.3	0.00e+00	0	38	0	575668224	64	4589
2026-01-20 06:22:16.87	26.81	24.97	-46.7	-48.5	18.4	0.00e+00	0	38	0	577765376	64	4557
2026-01-20 06:22:17.88	26.52	25.00	-46.7	-48.4	18.5	0.00e+00	0	38	0	579862528	64	4516
2026-01-20 06:22:18.89	26.23	25.03	-46.8	-48.6	18.3	0.00e+00	0	38	0	581959680	64	4630
2026-01-20 06:22:19.90	25.93	25.06	-46.9	-48.7	18.1	0.00e+00	0	38	0	584056832	64	4690
2026-01-20 06:22:20.91	25.64	25.09	-47.1	-48.9	18.0	0.00e+00	0	38	0	585105408	64	4809
2026-01-20 06:22:21.91	25.35	25.12	-47.2	-49.1	17.8	0.00e+00	0	38	0	587202560	64	4882
2026-01-20 06:22:22.92	25.06	25.14	-46.9	-48.7	18.2	0.00e+00	0	38	0	589299712	64	4656
2026-01-20 06:22:23.93	24.77	25.17	-46.8	-48.6	18.2	0.00e+00	0	38	0	591396864	64	4626
2026-01-20 06:22:24.94	24.47	25.19	-47.1	-48.9	17.9	0.00e+00	0	38	0	593494016	64	4810
2026-01-20 06:22:25.95	24.18	25.22	-47.5	-49.6	17.3	0.00e+00	0	38	0	594542592	65	4892
2026-01-20 06:22:26.95	23.89	25.24	-47.7	-49.8	17.1	0.00e+00	0	38	0	596639744	66	4715
2026-01-20 06:22:27.96	23.59	25.26	-47.8	-49.9	17.0	0.00e+00	0	38	0	598736896	66	4785
2026-01-20 06:22:28.97	23.30	25.28	-47.7	-49.8	17.2	0.00e+00	0	38	0	600834048	66	4730
2026-01-20 06:22:29.98	23.00	25.30	-47.3	-49.2	17.7	0.00e+00	0	38	0	601882624	66	4408
2026-01-20 06:22:30.98	22.71	25.32	-47.4	-49.4	17.5	0.00e+00	0	38	0	603979776	66	4511
2026-01-20 06:22:31.99	22.41	25.34	-47.4	-49.4	17.5	0.00e+00	0	38	0	606076928	66	4536
2026-01-20 06:22:33.00	22.12	25.36	-47.2	-49.1	17.7	0.00e+00	0	38	0	608174080	66	4381
2026-01-20 06:22:34.01	21.82	25.38	-47.1	-48.9	18.0	0.00e+00	0	39	0	610271232	66	4264
2026-01-20 06:22:35.01	21.52	25.39	-46.9	-48.7	18.2	0.00e+00	0	38	0	612368384	65	4416
2026-01-20 06:22:36.02	21.23	25.41	-46.6	-48.3	18.5	0.00e+00	0	38	0	613416960	65	4232
2026-01-20 06:22:37.03	20.93	25.42	-46.8	-48.6	18.2	0.00e+00	0	38	0	615514112	65	4361
2026-01-20 06:22:38.04	20.63	25.44	-47.2	-49.1	17.7	0.00e+00	0	38	0	617611264	65	4621
2026-01-20 06:22:39.04	20.33	25.45	-47.3	-49.3	17.6	0.00e+00	0	38	0	619708416	65	4717
2026-01-20 06:22:40.05	20.04	25.46	-47.4	-49.4	17.5	0.00e+00	0	38	0	621805568	65	4763
2026-01-20 06:22:41.06	19.74	25.48	-47.4	-49.4	17.5	0.00e+00	0	38	0	622854144	65	4795
2026-01-20 06:22:42.07	19.44	25.49	-47.3	-49.2	17.6	0.00e+00	0	38	0	624951296	65	4689
2026-01-20 06:22:43.07	19.14	25.50	-47.2	-49.1	17.8	0.00e+00	0	38	0	627048448	65	4605
2026-01-20 06:22:44.08	18.84	25.50	-47.2	-49.1	17.8	0.00e+00	0	39	0	629145600	65	4638
2026-01-20 06:22:45.09	18.54	25.51	-47.3	-49.2	17.7	0.00e+00	0	38	0	630194176	65	4655
2026-01-20 06:22:46.10	18.24	25.52	-46.9	-48.7	18.1	0.00e+00	0	39	0	632291328	65	4430
2026-01-20 06:22:47.11	17.94	25.53	-46.7	-48.4	18.5	0.00e+00	0	38	0	634388480	65	4253
2026-01-20 06:22:48.11	17.64	25.53	-46.3	-47.9	18.9	0.00e+00	0	38	0	636485632	64	4257
2026-01-20 06:22:49.12	17.34	25.54	-46.3	-47.9	18.9	0.00e+00	0	38	0	638582784	64	4255
2026-01-20 06:22:50.13	17.04	25.54	-46.3	-47.9	18.9	0.00e+00	0	38	0	640679936	64	4284
2026-01-20 06:22:51.14	16.74	25.54	-46.7	-48.4	18.5	0.00e+00	0	38	0	641728512	64	4530
2026-01-20 06:22:52.15	16.44	25.55	-47.0	-48.8	18.1	0.00e+00	0	38	0	643825664	64	4741
2026-01-20 06:22:53.15	16.14	25.55	-47.4	-49.3	17.6	0.00e+00	0	38	0	645922816	65	4743
2026-01-20 06:22:54.16	15.84	25.55	-47.5	-49.6	17.3	0.00e+00	0	38	0	648019968	65	4892
2026-01-20 06:22:55.17	15.54	25.55	-47.5	-49.6	17.3	0.00e+00	0	38	0	650117120	65	4902
2026-01-20 06:22:56.18	15.24	25.54	-47.5	-49.5	17.4	0.00e+00	0	38	0	651165696	65	4834
2026-01-20 06:22:57.19	14.94	25.54	-47.4	-49.4	17.5	0.00e+00	0	39	0	653262848	65	4773
2026-01-20 06:22:58.19	14.65	25.54	-47.5	-49.5	17.4	0.00e+00	0	38	0	655360000	65	4838
2026-01-20 06:22:59.20	14.35	25.54	-47.4	-49.4	17.5	0.00e+00	0	38	0	657457152	65	4802
2026-01-20 06:23:00.21	14.04	25.53	-47.1	-49.0	17.9	0.00e+00	0	39	0	659554304	65	4546
2026-01-20 06:23:01.22	13.74	25.52	-46.7	-48.5	18.3	0.00e+00	0	38	0	660602880	65	4319
2026-01-20 06:23:02.23	13.44	25.52	-46.3	-47.9	18.9	0.00e+00	0	39	0	662700032	64	4250
2026-01-20 06:23:03.23	13.15	25.51	-46.0	-47.5	19.2	0.00e+00	0	38	0	664797184	64	4084
2026-01-20 06:23:04.24	12.85	25.50	-45.9	-47.4	19.5	0.00e+00	0	39	0	666894336	63	4258
2026-01-20 06:23:05.25	12.55	25.49	-45.8	-47.3	19.5	0.00e+00	0	39	0	668991488	63	4199
2026-01-20 06:23:06.26	12.25	25.48	-45.9	-47.4	19.3	0.00e+00	0	39	0	670040064	63	4255
2026-01-20 06:23:07.26	11.95	25.47	-46.0	-47.4	19.4	0.00e+00	0	38	0	672137216	63	4285
2026-01-20 06:23:08.27	11.65	25.46	-46.0	-47.5	19.4	0.00e+00	0	38	0	674234368	63	4335
2026-01-20 06:23:09.28	11.36	25.45	-45.7	-47.2	19.7	0.00e+00	0	39	0	676331520	63	4147
2026-01-20 06:23:10.29	11.06	25.44	-45.8	-47.3	19.6	0.00e+00	0	38	0	678428672	63	4226
2026-01-20 06:23:11.29	10.76	25.42	-45.8	-47.2	19.7	0.00e+00	0	38	0	679477248	63	4184
2026-01-20 06:23:12.30	10.46	25.41	-45.7	-47.1	19.8	0.00e+00	0	38	0	681574400	63	4118
2026-01-20 06:23:13.31	10.17	25.39	-45.4	-46.7	20.1	0.00e+00	0	38	0	683671552	62	4182
2026-01-20 06:23:14.32	9.87	25.37	-45.1	-46.4	20.4	0.00e+00	0	38	0	685768704	61	4287
2026-01-20 06:23:15.33	9.57	25.36	-44.7	-45.9	20.9	0.00e+00	0	38	0	687865856	61	4018
2026-01-20 06:23:16.33	9.28	25.34	-44.8	-46.0	20.7	0.00e+00	0	38	0	688914432	61	4084
2026-01-20 06:23:17.34	8.98	25.32	-44.9	-46.2	20.6	0.00e+00	0	38	0	691011584	61	4159
2026-01-20 06:23:18.35	8.69	25.30	-44.9	-46.2	20.6	0.00e+00	0	38	0	693108736	61	4149
2026-01-20 06:23:19.36	8.39	25.28	-44.9	-46.1	20.7	0.00e+00	0	38	0	695205888	61	4111
2026-01-20 06:23:20.37	8.09	25.26	-44.7	-45.9	20.9	0.00e+00	0	39	0	697303040	60	4252
2026-01-20 06:23:21.37	7.80	25.23	-44.7	-45.9	20.9	0.00e+00	0	38	0	698351616	60	4247
2026-01-20 06:23:22.38	7.51	25.21	-44.9	-46.2	20.6	0.00e+00	0	39	0	700448768	60	4398
2026-01-20 06:23:23.39	7.21	25.19	-45.1	-46.4	20.4	0.00e+00	0	38	0	702545920	60	4543
2026-01-20 06:23:24.40	6.92	25.16	-45.4	-46.8	20.1	0.00e+00	0	38	0	704643072	61	4449
2026-01-20 06:23:25.40	6.63	25.14	-45.2	-46.5	20.2	0.00e+00	0	38	0	706740224	61	4331
2026-01-20 06:23:26.41	6.34	25.11	-45.2	-46.6	20.3	0.00e+00	0	38	0	707788800	61	4342
2026-01-20 06:23:27.42	6.05	25.08	-45.3	-46.6	20.2	0.00e+00	0	38	0	709885952	61	4378
2026-01-20 06:23:28.43	5.76	25.05	-45.5	-46.9	20.0	0.00e+00	0	38	0	711983104	61	4499
2026-01-20 06:23:29.43	5.47	25.03	-45.5	-46.9	20.0	0.00e+00	0	38	0	714080256	61	4514
2026-01-20 06:23:30.44	5.18	25.00	-45.4	-46.7	20.2	0.00e+00	0	38	0	716177408	61	4408
2026-01-20 06:23:31.45	4.89	24.97	-45.7	-47.1	19.8	0.00e+00	0	38	0	717225984	61	4601
2026-01-20 06:23:32.46	4.60	24.93	-46.0	-47.4	19.5	0.00e+00	0	38	0	719323136	62	4523
2026-01-20 06:23:33.47	4.31	24.90	-46.0	-47.5	19.5	0.00e+00	0	38	0	721420288	62	4568
2026-01-20 06:23:34.47	4.02	24.87	-46.0	-47.4	19.5	0.00e+00	0	38	0	723517440	62	4534
2026-01-20 06:23:35.48	3.74	24.84	-45.8	-47.3	19.7	0.00e+00	0	38	0	725614592	62	4444
2026-01-20 06:23:36.49	3.45	24.80	-45.8	-47.2	19.7	0.00e+00	0	38	0	726663168	62	4439
2026-01-20 06:23:37.49	3.17	24.77	-45.9	-47.3	19.7	0.00e+00	0	38	0	728760320	62	4471
2026-01-20 06:23:38.50	2.88	24.73	-46.4	-47.9	19.1	0.00e+00	0	38	0	730857472	63	4544
2026-01-20 06:23:39.51	2.60	24.70	-46.7	-48.4	18.5	0.00e+00	0	38	0	732954624	64	4501
2026-01-20 06:23:40.51	2.32	24.66	-46.7	-48.4	18.5	0.00e+00	0	38	0	735051776	64	4504
2026-01-20 06:23:41.52	2.03	24.62	-46.3	-47.9	19.0	0.00e+00	0	39	0	736100352	64	4261
2026-01-20 06:23:42.53	1.75	24.58	-46.2	-47.7	19.1	0.00e+00	0	38	0	738197504	64	4182
2026-01-20 06:23:43.54	1.47	24.54	-46.1	-47.6	19.2	0.00e+00	0	38	0	740294656	64	4139
2026-01-20 06:23:44.55	1.19	24.50	-46.2	-47.8	19.2	0.00e+00	0	38	0	742391808	63	4443
2026-01-20 06:23:45.55	0.91	24.46	-46.6	-48.2	18.8	0.00e+00	0	38	0	744488960	63	4672
2026-01-20 06:23:46.56	0.63	24.42	-46.7	-48.4	18.6	0.00e+00	0	38	0	745537536	64	4500
2026-01-20 06:23:47.57	0.35	24.38	-46.6	-48.2	18.7	0.00e+00	0	39	0	747634688	64	4440
2026-01-20 06:23:48.58	0.07	24.34	-46.8	-48.5	18.5	0.00e+00	0	38	0	749731840	64	4547
2026-01-20 06:23:49.59	359.79	24.30	-47.0	-48.8	18.1	0.00e+00	0	38	0	751828992	64	4711
2026-01-20 06:23:50.59	359.52	24.25	-47.4	-49.3	17.6	0.00e+00	0	38	0	753926144	65	4734
2026-01-20 06:23:51.60	359.24	24.21	-47.2	-49.0	17.9	0.00e+00	0	38	0	756023296	65	4589
2026-01-20 06:23:52.61	358.97	24.16	-47.3	-49.3	17.7	0.00e+00	0	38	0	757071872	65	4713
2026-01-20 06:23:53.62	358.69	24.12	-47.4	-49.3	17.6	0.00e+00	0	38	0	759169024	65	4746
2026-01-20 06:23:54.62	358.42	24.07	-47.2	-49.1	17.8	0.00e+00	0	38	0	761266176	65	4643
2026-01-20 06:23:55.63	358.15	24.02	-47.5	-49.6	17.4	0.00e+00	0	38	0	763363328	65	4891
2026-01-20 06:23:56.64	357.88	23.98	-47.5	-49.5	17.4	0.00e+00	0	38	0	764411904	65	4859
2026-01-20 06:23:57.65	357.60	23.93	-47.4	-49.4	17.5	0.00e+00	0	38	0	766509056	66	4504
2026-01-20 06:23:58.65	357.34	23.88	-47.2	-49.1	17.8	0.00e+00	0	38	0	768606208	66	4386
2026-01-20 06:23:59.66	357.07	23.83	-47.0	-48.8	18.0	0.00e+00	0	39	0	770703360	65	4481
2026-01-20 06:24:00.67	356.80	23.78	-47.0	-48.8	18.1	0.00e+00	0	39	0	772800512	65	4479
2026-01-20 06:24:01.68	356.53	23.73	-47.1	-48.9	17.9	0.00e+00	0	38	0	773849088	65	4531
2026-01-20 06:24:02.69	356.26	23.68	-47.2	-49.1	17.8	0.00e+00	0	39	0	775946240	65	4625
2026-01-20 06:24:03.69	356.00	23.63	-47.5	-49.5	17.4	0.00e+00	0	39	0	778043392	65	4845
2026-01-20 06:24:04.70	355.74	23.57	-47.6	-49.7	17.2	0.00e+00	0	38	0	780140544	65	4953
2026-01-20 06:24:05.71	355.47	23.52	-47.6	-49.7	17.2	0.00e+00	0	38	0	782237696	66	4660
2026-01-20 06:24:06.72	355.21	23.47	-47.7	-49.8	17.2	0.00e+00	0	38	0	784334848	66	4708
2026-01-20 06:24:07.73	354.95	23.41	-47.4	-49.4	17.5	0.00e+00	0	38	0	785383424	66	4500
2026-01-20 06:24:08.73	354.69	23.36	-47.3	-49.2	17.6	0.00e+00	0	39	0	787480576	66	4392
2026-01-20 06:24:09.74	354.43	23.30	-47.2	-49.1	17.8	0.00e+00	0	38	0	789577728	66	4342
2026-01-20 06:24:10.75	354.17	23.25	-47.2	-49.1	17.7	0.00e+00	0	38	0	791674880	66	4381
2026-01-20 06:24:11.76	353.91	23.19	-47.2	-49.1	17.8	0.00e+00	0	38	0	792723456	66	4345
2026-01-20 06:24:12.77	353.65	23.14	-47.1	-49.0	18.0	0.00e+00	0	38	0	794820608	66	4293
2026-01-20 06:24:13.77	353.40	23.08	-47.1	-48.9	18.0	0.00e+00	0	38	0	796917760	65	4529
2026-01-20 06:24:14.78	353.14	23.02	-47.3	-49.2	17.6	0.00e+00	0	38	0	799014912	65	4689
2026-01-20 06:24:15.79	352.89	22.96	-47.5	-49.5	17.4	0.00e+00	0	38	0	801112064	65	4834
2026-01-20 06:24:16.80	352.63	22.90	-47.9	-50.1	16.8	0.00e+00	0	38	0	803209216	66	4883
2026-01-20 06:24:17.81	352.38	22.85	-47.9	-50.2	16.7	0.00e+00	0	38	0	804257792	66	4927
2026-01-20 06:24:18.81	352.13	22.79	-47.8	-50.0	16.9	0.00e+00	0	39	0	806354944	66	4846
2026-01-20 06:24:19.82	351.88	22.73	-47.6	-49.6	17.2	0.00e+00	0	38	0	808452096	66	4650
2026-01-20 06:24:20.83	351.63	22.67	-47.3	-49.3	17.5	0.00e+00	0	38	0	810549248	66	4466
2026-01-20 06:24:21.84	351.38	22.61	-47.4	-49.4	17.5	0.00e+00	0	38	0	812646400	66	4517
2026-01-20 06:24:22.84	351.13	22.55	-47.2	-49.1	17.7	0.00e+00	0	38	0	813694976	66	4380
2026-01-20 06:24:23.85	350.89	22.48	-47.2	-49.1	17.7	0.00e+00	0	38	0	815792128	66	4377
2026-01-20 06:24:24.86	350.64	22.42	-47.4	-49.5	17.4	0.00e+00	0	38	0	817889280	66	4551
2026-01-20 06:24:25.86	350.40	22.36	-47.7	-49.8	17.0	0.00e+00	0	39	0	819986432	66	4747
2026-01-20 06:24:26.87	350.15	22.30	-47.6	-49.8	17.1	0.00e+00	0	38	0	821035008	66	4721
2026-01-20 06:24:27.88	349.91	22.23	-48.1	-50.6	16.3	0.00e+00	0	39	0	823132160	66	5165
2026-01-20 06:24:28.89	349.67	22.17	-48.0	-50.3	16.5	0.00e+00	0	38	0	825229312	66	5039
2026-01-20 06:24:29.90	349.43	22.11	-47.7	-49.8	17.0	0.00e+00	0	38	0	827326464	66	4754
2026-01-20 06:24:30.90	349.19	22.04	-47.3	-49.3	17.6	0.00e+00	0	38	0	829423616	66	4457
2026-01-20 06:24:31.91	348.95	21.98	-46.9	-48.7	18.1	0.00e+00	0	38	0	831520768	65	4428
2026-01-20 06:24:32.92	348.71	21.91	-46.7	-48.5	18.4	0.00e+00	0	38	0	832569344	65	4312
2026-01-20 06:24:33.93	348.47	21.85	-46.7	-48.4	18.4	0.00e+00	0	38	0	834666496	65	4279
2026-01-20 06:24:34.94	348.24	21.78	-46.7	-48.5	18.3	0.00e+00	0	39	0	836763648	65	4315
2026-01-20 06:24:35.95	348.00	21.71	-46.9	-48.7	18.1	0.00e+00	0	38	0	838860800	65	4423
2026-01-20 06:24:36.95	347.77	21.65	-46.8	-48.6	18.1	0.00e+00	0	39	0	840957952	65	4341
2026-01-20 06:24:37.96	347.54	21.58	-46.9	-48.8	18.0	0.00e+00	0	38	0	842006528	65	4466
2026-01-20 06:24:38.97	347.31	21.51	-47.2	-49.1	17.6	0.00e+00	0	38	0	844103680	65	4639
2026-01-20 06:24:39.98	347.07	21.45	-47.1	-49.0	17.8	0.00e+00	0	38	0	846200832	65	4576
2026-01-20 06:24:40.99	346.84	21.38	-47.0	-48.8	17.9	0.00e+00	0	39	0	848297984	65	4483
2026-01-20 06:24:41.99	346.62	21.31	-46.7	-48.5	18.3	0.00e+00	0	38	0	850395136	65	4294
2026-01-20 06:24:43.00	346.39	21.24	-46.5	-48.2	18.6	0.00e+00	0	38	0	851443712	65	4156
2026-01-20 06:24:44.01	346.16	21.17	-46.1	-47.6	19.1	0.00e+00	0	39	0	853540864	63	4390
2026-01-20 06:24:45.02	345.94	21.10	-45.8	-47.3	19.4	0.00e+00	0	39	0	855638016	63	4206
2026-01-20 06:24:46.03	345.71	21.03	-45.6	-47.1	19.7	0.00e+00	0	38	0	857735168	63	4102
2026-01-20 06:24:47.04	345.49	20.96	-45.4	-46.8	19.9	0.00e+00	0	38	0	859832320	62	4206
2026-01-20 06:24:48.04	345.27	20.90	-45.2	-46.5	20.2	0.00e+00	0	39	0	860880896	62	4092
2026-01-20 06:24:49.05	345.05	20.82	-45.4	-46.8	19.9	0.00e+00	0	38	0	862978048	62	4232
2026-01-20 06:24:50.05	344.83	20.76	-45.7	-47.2	19.4	0.00e+00	0	38	0	865075200	62	4439
2026-01-20 06:24:51.06	344.61	20.68	-45.9	-47.4	19.4	0.00e+00	0	38	0	867172352	62	4537
2026-01-20 06:24:52.07	344.39	20.61	-46.2	-47.8	19.0	0.00e+00	0	39	0	869269504	63	4492
2026-01-20 06:24:53.08	344.17	20.54	-46.3	-48.0	18.8	0.00e+00	0	39	0	870318080	63	4554
2026-01-20 06:24:54.09	343.95	20.47	-46.4	-48.0	18.8	0.00e+00	0	38	0	872415232	63	4575
2026-01-20 06:24:55.10	343.74	20.40	-46.4	-48.1	18.8	0.00e+00	0	38	0	874512384	63	4617
2026-01-20 06:24:56.10	343.53	20.33	-46.4	-48.1	18.7	0.00e+00	0	39	0	876609536	63	4636
2026-01-20 06:24:57.11	343.31	20.26	-46.5	-48.2	18.6	0.00e+00	0	39	0	878706688	63	4684
2026-01-20 06:24:58.12	343.10	20.18	-46.4	-48.1	18.7	0.00e+00	0	38	0	879755264	63	4615
2026-01-20 06:24:59.13	342.89	20.11	-46.3	-48.0	18.8	0.00e+00	0	38	0	881852416	63	4567
2026-01-20 06:25:00.13	342.68	20.04	-46.3	-48.0	18.8	0.00e+00	0	39	0	883949568	63	4568
2026-01-20 06:25:01.14	342.47	19.97	-46.3	-47.9	18.8	0.00e+00	0	39	0	886046720	63	4527
2026-01-20 06:25:02.15	342.26	19.89	-46.2	-47.8	18.9	0.00e+00	0	39	0	888143872	63	4465
2026-01-20 06:25:03.16	342.05	19.82	-46.2	-47.9	18.8	0.00e+00	0	39	0	889192448	63	4517
2026-01-20 06:25:04.17	341.85	19.75	-46.3	-48.0	18.8	0.00e+00	0	38	0	891289600	63	4559
2026-01-20 06:25:05.17	341.64	19.67	-46.2	-47.8	19.0	0.00e+00	0	39	0	893386752	63	4468
2026-01-20 06:25:06.18	341.44	19.60	-45.8	-47.3	19.4	0.00e+00	0	38	0	895483904	63	4210
2026-01-20 06:25:07.19	341.24	19.53	-45.9	-47.4	19.4	0.00e+00	0	39	0	897581056	63	4269
2026-01-20 06:25:08.19	341.04	19.45	-45.8	-47.3	19.4	0.00e+00	0	39	0	899678208	63	4239
2026-01-20 06:25:09.20	340.83	19.38	-46.2	-47.9	18.9	0.00e+00	0	39	0	900726784	63	4507
2026-01-20 06:25:10.21	340.63	19.30	-46.4	-48.1	18.7	0.00e+00	0	39	0	902823936	63	4611
2026-01-20 06:25:11.22	340.43	19.23	-46.6	-48.4	18.4	0.00e+00	0	39	0	904921088	63	4785
2026-01-20 06:25:12.23	340.23	19.15	-46.5	-48.2	18.6	0.00e+00	0	39	0	907018240	63	4667
2026-01-20 06:25:13.23	340.04	19.08	-46.2	-47.8	18.9	0.00e+00	0	38	0	908066816	63	4453
2026-01-20 06:25:14.24	339.84	19.01	-46.0	-47.5	19.1	0.00e+00	0	38	0	910163968	63	4317
2026-01-20 06:25:15.25	339.65	18.93	-46.1	-47.6	19.1	0.00e+00	0	39	0	912261120	63	4370
2026-01-20 06:25:16.25	339.45	18.86	-46.1	-47.6	19.1	0.00e+00	0	39	0	914358272	63	4383
2026-01-20 06:25:17.26	339.26	18.78	-46.2	-47.8	19.0	0.00e+00	0	38	0	916455424	63	4459
2026-01-20 06:25:18.27	339.07	18.70	-46.5	-48.2	18.6	0.00e+00	0	39	0	917504000	63	4676
2026-01-20 06:25:19.28	338.88	18.63	-46.6	-48.3	18.6	0.00e+00	0	38	0	919601152	63	4716
2026-01-20 06:25:20.29	338.68	18.55	-46.4	-48.1	18.6	0.00e+00	0	39	0	921698304	64	4358
2026-01-20 06:25:21.29	338.50	18.48	-46.0	-47.6	19.0	0.00e+00	0	39	0	923795456	64	4129
2026-01-20 06:25:22.30	338.31	18.40	-45.9	-47.4	19.4	0.00e+00	0	39	0	925892608	63	4284
2026-01-20 06:25:23.31	338.12	18.33	-45.8	-47.3	19.4	0.00e+00	0	38	0	927989760	63	4206
2026-01-20 06:25:24.31	337.93	18.25	-45.6	-47.1	19.6	0.00e+00	0	39	0	929038336	63	4102
2026-01-20 06:25:25.32	337.75	18.18	-45.9	-47.4	19.4	0.00e+00	0	38	0	931135488	63	4264
2026-01-20 06:25:26.33	337.56	18.10	-45.7	-47.2	19.5	0.00e+00	0	38	0	933232640	63	4150
2026-01-20 06:25:27.34	337.38	18.02	-45.7	-47.2	19.6	0.00e+00	0	39	0	935329792	63	4163
2026-01-20 06:25:28.35	337.20	17.95	-45.5	-46.9	19.8	0.00e+00	0	38	0	936378368	62	4245
2026-01-20 06:25:29.35	337.02	17.87	-45.6	-47.0	19.7	0.00e+00	0	38	0	938475520	62	4322
2026-01-20 06:25:30.36	336.83	17.79	-45.5	-46.9	19.8	0.00e+00	0	39	0	940572672	62	4259
2026-01-20 06:25:31.37	336.65	17.72	-45.7	-47.2	19.6	0.00e+00	0	38	0	942669824	62	4416
2026-01-20 06:25:32.38	336.47	17.64	-46.0	-47.5	19.3	0.00e+00	0	39	0	944766976	62	4573
2026-01-20 06:25:33.39	336.30	17.56	-46.0	-47.5	19.2	0.00e+00	0	38	0	945815552	62	4563
2026-01-20 06:25:34.39	336.12	17.49	-45.9	-47.4	19.3	0.00e+00	0	38	0	947912704	62	4533
2026-01-20 06:25:35.40	335.94	17.41	-45.8	-47.2	19.5	0.00e+00	0	39	0	950009856	62	4438
2026-01-20 06:25:36.41	335.77	17.34	-45.5	-46.9	19.7	0.00e+00	0	38	0	952107008	62	4282
2026-01-20 06:25:37.42	335.59	17.26	-45.2	-46.6	20.1	0.00e+00	0	38	0	954204160	62	4104
2026-01-20 06:25:38.43	335.42	17.18	-45.1	-46.4	20.3	0.00e+00	0	38	0	956301312	62	4046
2026-01-20 06:25:39.43	335.25	17.11	-45.2	-46.5	20.1	0.00e+00	0	38	0	957349888	62	4097
2026-01-20 06:25:40.44	335.07	17.03	-45.3	-46.6	20.1	0.00e+00	0	39	0	959447040	62	4126
2026-01-20 06:25:41.44	334.90	16.95	-45.2	-46.5	20.1	0.00e+00	0	39	0	961544192	62	4084
2026-01-20 06:25:42.45	334.73	16.88	-45.5	-46.9	19.8	0.00e+00	0	38	0	963641344	62	4261
2026-01-20 06:25:43.46	334.56	16.80	-45.6	-47.0	19.7	0.00e+00	0	38	0	964689920	62	4321
2026-01-20 06:25:44.47	334.40	16.72	-45.8	-47.3	19.4	0.00e+00	0	39	0	966787072	62	4478
2026-01-20 06:25:45.47	334.23	16.65	-45.8	-47.2	19.5	0.00e+00	0	39	0	968884224	62	4433
2026-01-20 06:25:46.48	334.06	16.57	-45.8	-47.3	19.4	0.00e+00	0	38	0	970981376	62	4486
2026-01-20 06:25:47.49	333.90	16.49	-45.8	-47.3	19.4	0.00e+00	0	38	0	973078528	62	4473
2026-01-20 06:25:48.50	333.73	16.41	-45.9	-47.4	19.4	0.00e+00	0	39	0	975175680	62	4503
2026-01-20 06:25:49.51	333.57	16.34	-45.9	-47.5	19.3	0.00e+00	0	38	0	976224256	62	4546
2026-01-20 06:25:50.51	333.40	16.26	-45.7	-47.1	19.6	0.00e+00	0	38	0	978321408	62	4370
2026-01-20 06:25:51.52	333.24	16.18	-45.4	-46.8	19.9	0.00e+00	0	38	0	980418560	62	4204
2026-01-20 06:25:52.53	333.08	16.11	-45.3	-46.6	20.0	0.00e+00	0	38	0	982515712	62	4126
2026-01-20 06:25:53.54	332.92	16.03	-45.2	-46.6	20.1	0.00e+00	0	39	0	984612864	62	4101
2026-01-20 06:25:54.55	332.76	15.95	-45.3	-46.6	20.0	0.00e+00	0	39	0	985661440	62	4127
2026-01-20 06:25:55.55	332.60	15.88	-45.3	-46.7	19.9	0.00e+00	0	38	0	987758592	62	4159
2026-01-20 06:25:56.56	332.44	15.80	-45.6	-47.0	19.6	0.00e+00	0	39	0	989855744	62	4324
2026-01-20 06:25:57.57	332.28	15.72	-45.6	-47.1	19.6	0.00e+00	0	38	0	991952896	62	4347
2026-01-20 06:25:58.58	332.13	15.65	-46.2	-47.8	18.9	0.00e+00	0	38	0	993001472	62	4721
2026-01-20 06:25:59.59	331.97	15.57	-46.6	-48.2	18.4	0.00e+00	0	39	0	995098624	63	4704
2026-01-20 06:26:00.59	331.82	15.49	-46.7	-48.4	18.3	0.00e+00	0	38	0	997195776	63	4790
2026-01-20 06:26:01.60	331.66	15.42	-46.6	-48.4	18.3	0.00e+00	0	39	0	999292928	64	4500
2026-01-20 06:26:02.61	331.51	15.34	-46.6	-48.3	18.4	0.00e+00	0	38	0	1001390080	64	4463
2026-01-20 06:26:03.62	331.36	15.26	-46.3	-47.9	18.7	0.00e+00	0	39	0	1003487232	64	4266
2026-01-20 06:26:04.63	331.21	15.19	-46.1	-47.7	18.9	0.00e+00	0	38	0	1004535808	64	4182
2026-01-20 06:26:05.63	331.06	15.11	-46.2	-47.8	18.9	0.00e+00	0	38	0	1006632960	63	4450
2026-01-20 06:26:06.64	330.91	15.03	-46.2	-47.7	19.0	0.00e+00	0	38	0	1008730112	63	4438
2026-01-20 06:26:07.65	330.76	14.96	-45.8	-47.3	19.3	0.00e+00	0	39	0	1010827264	63	4218
2026-01-20 06:26:08.66	330.61	14.88	-45.9	-47.4	19.3	0.00e+00	0	38	0	1012924416	63	4260
2026-01-20 06:26:09.66	330.46	14.80	-46.1	-47.7	19.0	0.00e+00	0	39	0	1013972992	63	4406
2026-01-20 06:26:10.67	330.31	14.73	-45.9	-47.4	19.3	0.00e+00	0	38	0	1016070144	63	4267
2026-01-20 06:26:11.68	330.17	14.65	-46.1	-47.7	19.0	0.00e+00	0	39	0	1018167296	63	4428
2026-01-20 06:26:12.69	330.02	14.58	-46.2	-47.9	18.8	0.00e+00	0	39	0	1020264448	63	4499
2026-01-20 06:26:13.69	329.88	14.50	-46.3	-47.9	18.8	0.00e+00	0	38	0	1022361600	63	4526
2026-01-20 06:26:14.70	329.73	14.42	-46.4	-48.0	18.7	0.00e+00	0	38	0	1023410176	63	4589
2026-01-20 06:26:15.71	329.59	14.35	-46.6	-48.3	18.3	0.00e+00	0	38	0	1025507328	64	4475
2026-01-20 06:26:16.72	329.45	14.27	-47.0	-48.9	17.7	0.00e+00	0	39	0	1027604480	64	4789
2026-01-20 06:26:17.73	329.30	14.20	-47.2	-49.2	17.5	0.00e+00	0	38	0	1029701632	64	4945
2026-01-20 06:26:18.73	329.16	14.12	-47.5	-49.5	17.2	0.00e+00	0	38	0	1031798784	65	4864
2026-01-20 06:26:19.74	329.02	14.04	-47.4	-49.4	17.3	0.00e+00	0	38	0	1032847360	65	4784
2026-01-20 06:26:20.75	328.88	13.97	-47.2	-49.2	17.4	0.00e+00	0	39	0	1034944512	65	4685
2026-01-20 06:26:21.75	328.75	13.89	-47.0	-48.9	17.7	0.00e+00	0	38	0	1037041664	65	4505
2026-01-20 06:26:22.76	328.61	13.82	-46.8	-48.6	18.0	0.00e+00	0	38	0	1039138816	65	4359
2026-01-20 06:26:23.77	328.47	13.74	-46.7	-48.4	18.1	0.00e+00	0	38	0	1041235968	65	4290
2026-01-20 06:26:24.78	328.33	13.67	-46.3	-47.9	18.7	0.00e+00	0	38	0	1042284544	64	4271
2026-01-20 06:26:25.79	328.20	13.59	-46.2	-47.9	18.7	0.00e+00	0	38	0	1044381696	64	4248
2026-01-20 06:26:26.80	328.06	13.51	-45.8	-47.3	19.2	0.00e+00	0	38	0	1046478848	63	4230
2026-01-20 06:26:27.80	327.93	13.44	-46.2	-47.8	18.8	0.00e+00	0	38	0	1048576000	63	4485
2026-01-20 06:26:28.81	327.79	13.36	-46.3	-47.9	18.8	0.00e+00	0	38	0	1050673152	63	4513
2026-01-20 06:26:29.82	327.66	13.29	-46.2	-47.8	18.8	0.00e+00	0	38	0	1051721728	63	4468
2026-01-20 06:26:30.82	327.53	13.21	-46.4	-48.0	18.6	0.00e+00	0	39	0	1053818880	63	4582
2026-01-20 06:26:31.83	327.40	13.14	-46.4	-48.1	18.5	0.00e+00	0	39	0	1055916032	63	4620
2026-01-20 06:26:32.84	327.27	13.06	-46.5	-48.2	18.4	0.00e+00	0	38	0	1058013184	63	4671
2026-01-20 06:26:33.84	327.14	12.99	-46.5	-48.1	18.5	0.00e+00	0	39	0	1060110336	63	4634
2026-01-20 06:26:34.85	327.01	12.92	-46.6	-48.3	18.2	0.00e+00	0	39	0	1061158912	63	4742
2026-01-20 06:26:35.86	326.88	12.84	-46.4	-48.1	18.6	0.00e+00	0	38	0	1063256064	63	4603
2026-01-20 06:26:36.87	326.75	12.77	-46.4	-48.0	18.6	0.00e+00	0	38	0	1065353216	63	4597
2026-01-20 06:26:37.87	326.62	12.69	-46.5	-48.2	18.4	0.00e+00	0	39	0	1067450368	63	4689
2026-01-20 06:26:38.88	326.50	12.62	-46.6	-48.3	18.4	0.00e+00	0	39	0	1069547520	63	4714
2026-01-20 06:26:39.89	326.37	12.54	-46.7	-48.5	18.1	0.00e+00	0	39	0	1070596096	64	4564
2026-01-20 06:26:40.90	326.24	12.47	-46.7	-48.5	18.1	0.00e+00	0	38	0	1072693248	64	4551
2026-01-20 06:26:41.91	326.12	12.39	-46.7	-48.5	18.0	0.00e+00	0	39	0	1074790400	64	4578
2026-01-20 06:26:42.91	325.99	12.32	-46.7	-48.5	18.0	0.00e+00	0	38	0	1076887552	64	4589
2026-01-20 06:26:43.92	325.87	12.25	-46.9	-48.8	17.7	0.00e+00	0	38	0	1078984704	64	4738
2026-01-20 06:26:44.93	325.75	12.17	-46.8	-48.6	17.9	0.00e+00	0	39	0	1080033280	64	4630
2026-01-20 06:26:45.93	325.62	12.10	-46.9	-48.7	17.8	0.00e+00	0	38	0	1082130432	64	4704
2026-01-20 06:26:46.94	325.50	12.03	-46.9	-48.8	17.8	0.00e+00	0	38	0	1084227584	64	4708
2026-01-20 06:26:47.95	325.38	11.95	-46.9	-48.7	17.8	0.00e+00	0	38	0	1086324736	64	4696
2026-01-20 06:26:48.96	325.26	11.88	-47.1	-49.0	17.5	0.00e+00	0	39	0	1088421888	64	4842
2026-01-20 06:26:49.97	325.14	11.80	-47.3	-49.3	17.3	0.00e+00	0	39	0	1089470464	65	4722
2026-01-20 06:26:50.97	325.02	11.73	-47.5	-49.6	17.0	0.00e+00	0	38	0	1091567616	65	4883
2026-01-20 06:26:51.98	324.90	11.66	-47.3	-49.4	17.2	0.00e+00	0	39	0	1093664768	65	4762
2026-01-20 06:26:52.99	324.78	11.59	-47.5	-49.6	17.0	0.00e+00	0	39	0	1095761920	65	4897
2026-01-20 06:26:54.00	324.67	11.51	-47.6	-49.7	16.8	0.00e+00	0	39	0	1097859072	65	4978
2026-01-20 06:26:55.01	324.55	11.44	-47.5	-49.7	16.9	0.00e+00	0	38	0	1098907648	65	4931
2026-01-20 06:26:56.02	324.43	11.37	-47.6	-49.7	16.8	0.00e+00	0	38	0	1101004800	65	4952
2026-01-20 06:26:57.03	324.32	11.29	-47.4	-49.5	17.0	0.00e+00	0	39	0	1103101952	65	4847
2026-01-20 06:26:58.03	324.20	11.22	-47.5	-49.6	17.0	0.00e+00	0	39	0	1105199104	65	4879
2026-01-20 06:26:59.04	324.09	11.15	-47.0	-48.9	17.6	0.00e+00	0	39	0	1107296256	65	4529
2026-01-20 06:27:00.05	323.97	11.08	-47.1	-49.1	17.4	0.00e+00	0	39	0	1108344832	65	4608
2026-01-20 06:27:01.05	323.86	11.00	-46.9	-48.7	17.8	0.00e+00	0	39	0	1110441984	65	4432
2026-01-20 06:27:02.06	323.75	10.93	-46.9	-48.7	17.8	0.00e+00	0	39	0	1112539136	65	4409
2026-01-20 06:27:03.07	323.63	10.86	-46.9	-48.8	17.7	0.00e+00	0	39	0	1114636288	65	4456
2026-01-20 06:27:04.08	323.52	10.79	-46.7	-48.5	18.0	0.00e+00	0	39	0	1116733440	65	4337
2026-01-20 06:27:05.09	323.41	10.72	-46.9	-48.7	17.8	0.00e+00	0	38	0	1117782016	65	4418
2026-01-20 06:27:06.09	323.30	10.64	-47.2	-49.2	17.3	0.00e+00	0	38	0	1119879168	65	4677
2026-01-20 06:27:07.10	323.19	10.57	-47.4	-49.5	17.1	0.00e+00	0	38	0	1121976320	65	4815
2026-01-20 06:27:08.11	323.08	10.50	-47.4	-49.5	17.0	0.00e+00	0	39	0	1124073472	65	4833
2026-01-20 06:27:09.12	322.97	10.43	-47.5	-49.6	16.8	0.00e+00	0	38	0	1126170624	65	4920
2026-01-20 06:27:10.13	322.86	10.36	-47.6	-49.8	16.7	0.00e+00	0	39	0	1127219200	65	5015
2026-01-20 06:27:11.13	322.76	10.29	-47.9	-50.1	16.4	0.00e+00	0	38	0	1129316352	66	4906
2026-01-20 06:27:12.14	322.65	10.22	-48.0	-50.3	16.2	0.00e+00	0	39	0	1131413504	66	5019
2026-01-20 06:27:13.15	322.54	10.14	-47.8	-50.0	16.6	0.00e+00	0	38	0	1133510656	66	4825
2026-01-20 06:27:14.16	322.44	10.07	-47.7	-49.9	16.5	0.00e+00	0	39	0	1135607808	66	4801
2026-01-20 06:27:15.16	322.33	10.00	-47.7	-49.8	16.7	0.00e+00	0	39	0	1136656384	66	4757
2026-01-20 06:27:16.17	322.22	9.93	-47.4	-49.5	17.0	0.00e+00	0	38	0	1138753536	66	4554
2026-01-20 06:27:17.18	322.12	9.86	-47.5	-49.6	16.9	0.00e+00	0	38	0	1140850688	66	4620
2026-01-20 06:27:18.19	322.02	9.79	-47.3	-49.3	17.2	0.00e+00	0	38	0	1142947840	66	4470
2026-01-20 06:27:19.19	321.91	9.72	-47.2	-49.2	17.2	0.00e+00	0	39	0	1145044992	66	4435
2026-01-20 06:27:20.20	321.81	9.65	-47.1	-49.1	17.4	0.00e+00	0	39	0	1147142144	66	4347
2026-01-20 06:27:21.21	321.71	9.58	-47.1	-49.0	17.5	0.00e+00	0	39	0	1148190720	66	4311
2026-01-20 06:27:22.22	321.60	9.51	-47.2	-49.1	17.4	0.00e+00	0	38	0	1150287872	66	4390
2026-01-20 06:27:23.22	321.50	9.44	-47.2	-49.1	17.3	0.00e+00	0	39	0	1152385024	66	4380
2026-01-20 06:27:24.23	321.40	9.37	-47.4	-49.4	17.0	0.00e+00	0	39	0	1154482176	66	4519
2026-01-20 06:27:25.23	321.30	9.30	-47.4	-49.5	17.0	0.00e+00	0	38	0	1155530752	66	4547
2026-01-20 06:27:26.24	321.20	9.23	-47.7	-49.9	16.6	0.00e+00	0	39	0	1157627904	66	4768
2026-01-20 06:27:27.25	321.10	9.16	-47.5	-49.7	16.8	0.00e+00	0	38	0	1159725056	66	4652
2026-01-20 06:27:28.26	321.00	9.09	-47.8	-50.1	16.4	0.00e+00	0	38	0	1161822208	66	4892
2026-01-20 06:27:29.27	320.90	9.02	-47.9	-50.2	16.3	0.00e+00	0	39	0	1163919360	66	4958
2026-01-20 06:27:30.27	320.81	8.95	-47.8	-50.1	16.3	0.00e+00	0	38	0	1164967936	66	4895
2026-01-20 06:27:31.28	320.71	8.88	-48.1	-50.6	15.9	0.00e+00	0	38	0	1167065088	66	5178
2026-01-20 06:27:32.29	320.61	8.81	-48.1	-50.5	15.9	0.00e+00	0	38	0	1169162240	66	5127
2026-01-20 06:27:33.30	320.51	8.75	-48.2	-50.7	15.7	0.00e+00	0	39	0	1171259392	67	4958
2026-01-20 06:27:34.31	320.42	8.68	-48.4	-50.9	15.5	0.00e+00	0	39	0	1173356544	67	5080
2026-01-20 06:27:35.31	320.32	8.61	-48.4	-50.9	15.6	0.00e+00	0	38	0	1175453696	67	5063
2026-01-20 06:27:36.32	320.23	8.54	-48.3	-50.8	15.7	0.00e+00	0	38	0	1176502272	67	4988
2026-01-20 06:27:37.33	320.13	8.47	-48.5	-51.1	15.3	0.00e+00	0	39	0	1178599424	67	5218
2026-01-20 06:27:38.34	320.04	8.40	-48.5	-51.2	15.1	0.00e+00	0	38	0	1180696576	67	5236
2026-01-20 06:27:39.34	319.94	8.33	-48.5	-51.0	15.4	0.00e+00	0	38	0	1182793728	67	5157
2026-01-20 06:27:40.35	319.85	8.27	-48.4	-51.0	15.4	0.00e+00	0	38	0	1183842304	67	5148
2026-01-20 06:27:41.36	319.76	8.20	-48.5	-51.1	15.4	0.00e+00	0	38	0	1185939456	67	5172
2026-01-20 06:27:42.37	319.66	8.13	-48.2	-50.7	15.6	0.00e+00	0	38	0	1188036608	67	4965
2026-01-20 06:27:43.37	319.57	8.06	-48.3	-50.8	15.6	0.00e+00	0	39	0	1190133760	67	5036
2026-01-20 06:27:44.38	319.48	7.99	-48.3	-50.9	15.6	0.00e+00	0	38	0	1192230912	67	5042
2026-01-20 06:27:45.39	319.39	7.93	-48.3	-50.8	15.6	0.00e+00	0	39	0	1193279488	67	4997
2026-01-20 06:27:46.40	319.30	7.86	-48.2	-50.7	15.8	0.00e+00	0	38	0	1195376640	67	4930
2026-01-20 06:27:47.41	319.21	7.79	-48.3	-50.9	15.5	0.00e+00	0	38	0	1197473792	67	5054
2026-01-20 06:27:48.41	319.12	7.73	-48.3	-50.8	15.6	0.00e+00	0	38	0	1199570944	67	5003
2026-01-20 06:27:49.42	319.03	7.66	-48.3	-50.9	15.6	0.00e+00	0	39	0	1201668096	67	5054
2026-01-20 06:27:50.42	318.94	7.59	-48.4	-51.0	15.4	0.00e+00	0	38	0	1203765248	67	5121
2026-01-20 06:27:51.43	318.85	7.52	-48.4	-51.0	15.3	0.00e+00	0	38	0	1204813824	67	5155
2026-01-20 06:27:52.43	318.76	7.46	-48.5	-51.2	15.1	0.00e+00	0	39	0	1206910976	67	5255
2026-01-20 06:27:53.44	318.68	7.39	-48.9	-51.7	14.8	0.00e+00	0	38	0	1209008128	68	5250
2026-01-20 06:27:54.45	318.59	7.32	-48.9	-51.7	14.7	0.00e+00	0	39	0	1211105280	68	5268
2026-01-20 06:27:55.46	318.50	7.26	-48.9	-51.7	14.7	0.00e+00	0	38	0	1212153856	68	5275
2026-01-20 06:27:56.46	318.42	7.19	-49.2	-52.3	14.2	7.00e-07	0	38	0	1214251008	68	5620
2026-01-20 06:27:57.47	318.33	7.13	-49.2	-52.4	14.0	1.50e-06	0	39	0	1216348160	69	5363
2026-01-20 06:27:58.48	318.24	7.06	-49.2	-52.3	14.2	2.20e-06	0	38	0	1218445312	69	5290
2026-01-20 06:27:59.49	318.16	6.99	-49.3	-52.5	13.9	1.50e-06	0	38	0	1220542464	69	5442
2026-01-20 06:28:00.49	318.07	6.93	-49.4	-52.8	13.6	3.80e-06	0	39	0	1222639616	69	5626
2026-01-20 06:28:01.50	317.99	6.86	-49.3	-52.6	13.8	8.30e-06	0	38	0	1223688192	69	5477
2026-01-20 06:28:02.51	317.91	6.80	-49.1	-52.2	14.3	1.50e-06	0	38	0	1225785344	69	5235
2026-01-20 06:28:03.52	317.82	6.73	-49.3	-52.6	13.8	6.80e-06	0	39	0	1227882496	69	5475
2026-01-20 06:28:04.52	317.74	6.66	-48.8	-51.7	14.7	2.20e-06	0	39	0	1229979648	69	4969
2026-01-20 06:28:05.53	317.66	6.60	-48.7	-51.5	14.9	7.00e-07	0	39	0	1232076800	69	4844
