passes_logs/2026/01/20/R3.2S_Murmansk/R3.2S_Murmansk__20260120_210352_JL1KF02B01_rec.log

#Pass ID: 20260120_210352_JL1KF02B01
#Satellite: JL1KF02B01
#Configuration: 01B_900M
#almurnet v.1.7.20251203
#Start time: 2026-01-20 21:03:54

#Version: 2.2.20231116
#Station: R3.2S_Murmansk
#Location: 33.079688 lon 68.888172 lat
#TLE: 1 61191U 24169C   26020.27218679  .00009686  00000+0  60538-3 0  9995
#TLE: 2 61191  97.5705 111.7623 0014571 107.1494 253.1332 15.09568673 73513

#Time	Az	El	Level	Level2	SNR	BER	BlckErr	Temp	State	Recorded	gain1	gain2
2026-01-20 21:03:54.80	190.37	2.15	-54.2	-56.3	6.3	0.00e+00	0	40	0	0	79	19015
2026-01-20 21:03:55.82	190.44	2.21	-54.3	-56.5	6.2	0.00e+00	0	40	104	0	80	18336
2026-01-20 21:03:56.82	190.50	2.28	-54.3	-56.5	6.2	0.00e+00	0	40	104	0	80	18264
2026-01-20 21:03:57.83	190.56	2.35	-54.3	-56.5	6.2	0.00e+00	0	40	104	0	80	18264
2026-01-20 21:03:58.84	190.62	2.41	-54.3	-56.5	6.2	0.00e+00	0	40	104	0	80	18194
2026-01-20 21:03:59.85	190.68	2.48	-54.3	-56.4	6.2	0.00e+00	0	40	104	0	80	18170
2026-01-20 21:04:00.86	190.74	2.55	-54.3	-56.4	6.2	0.00e+00	0	40	104	0	80	18104
2026-01-20 21:04:01.86	190.80	2.62	-54.2	-56.4	6.2	0.00e+00	0	40	104	0	80	17994
2026-01-20 21:04:02.87	190.87	2.68	-54.2	-56.3	6.2	0.00e+00	0	40	104	0	80	17913
2026-01-20 21:04:03.88	190.93	2.75	-54.1	-56.3	6.2	0.00e+00	0	40	104	0	80	17803
2026-01-20 21:04:04.89	190.99	2.82	-53.9	-56.3	6.2	0.00e+00	0	40	104	0	79	18882
2026-01-20 21:04:05.90	191.06	2.89	-54.1	-56.2	6.2	0.00e+00	0	40	104	0	79	18807
2026-01-20 21:04:06.90	191.12	2.96	-53.9	-56.2	6.2	0.00e+00	0	40	104	0	79	18705
2026-01-20 21:04:07.91	191.19	3.03	-53.7	-56.1	6.2	0.00e+00	0	40	104	0	79	18564
2026-01-20 21:04:08.92	191.25	3.09	-52.2	-55.8	6.3	0.00e+00	0	40	104	0	76	21271
2026-01-20 21:04:09.92	191.32	3.16	-53.7	-56.0	6.2	0.00e+00	0	40	104	0	77	20417
2026-01-20 21:04:10.93	191.38	3.23	-51.0	-55.3	6.4	0.00e+00	0	40	104	0	74	22465
2026-01-20 21:04:11.94	191.45	3.30	-53.1	-55.8	6.2	0.00e+00	0	40	104	0	76	21249
2026-01-20 21:04:12.95	191.51	3.37	-53.4	-55.7	6.2	0.00e+00	0	40	104	0	77	19915
2026-01-20 21:04:13.95	191.58	3.44	-53.2	-55.6	6.2	0.00e+00	0	40	104	0	77	19608
2026-01-20 21:04:14.96	191.65	3.51	-53.1	-55.3	6.2	0.00e+00	0	40	104	0	77	18868
2026-01-20 21:04:15.97	191.71	3.58	-52.8	-55.1	6.2	0.00e+00	0	40	104	0	77	18566
2026-01-20 21:04:16.98	191.78	3.65	-52.8	-55.1	6.2	0.00e+00	0	40	104	0	77	18489
2026-01-20 21:04:17.99	191.85	3.72	-52.8	-55.1	6.2	0.00e+00	0	40	104	0	77	18478
2026-01-20 21:04:18.99	191.92	3.79	-53.0	-55.1	6.2	0.00e+00	0	40	104	0	77	18514
2026-01-20 21:04:20.00	191.99	3.87	-53.0	-55.1	6.2	0.00e+00	0	40	104	0	77	18478
2026-01-20 21:04:21.01	192.06	3.94	-53.0	-55.1	6.2	0.00e+00	0	41	104	0	77	18508
2026-01-20 21:04:22.02	192.13	4.01	-53.0	-55.1	6.2	0.00e+00	0	41	104	0	77	18419
2026-01-20 21:04:23.02	192.20	4.08	-53.0	-55.1	6.2	0.00e+00	0	40	104	0	77	18463
2026-01-20 21:04:24.03	192.27	4.15	-53.0	-55.1	6.2	0.00e+00	0	40	104	0	77	18527
2026-01-20 21:04:25.04	192.34	4.22	-53.0	-55.1	6.2	0.00e+00	0	41	104	0	77	18481
2026-01-20 21:04:26.05	192.41	4.30	-53.0	-55.1	6.2	0.00e+00	0	40	104	0	77	18501
2026-01-20 21:04:27.06	192.48	4.37	-53.0	-55.1	6.2	0.00e+00	0	41	104	0	77	18487
2026-01-20 21:04:28.07	192.55	4.44	-53.0	-55.1	6.2	0.00e+00	0	40	104	0	77	18474
2026-01-20 21:04:29.08	192.63	4.52	-52.9	-55.1	6.2	0.00e+00	0	41	104	0	77	18483
2026-01-20 21:04:30.08	192.70	4.59	-53.0	-55.1	6.2	0.00e+00	0	41	104	0	77	18435
2026-01-20 21:04:31.09	192.77	4.66	-52.9	-55.1	6.2	0.00e+00	0	40	104	0	77	18456
2026-01-20 21:04:32.10	192.85	4.74	-52.9	-55.1	6.2	0.00e+00	0	40	104	0	77	18496
2026-01-20 21:04:33.11	192.92	4.81	-52.9	-55.1	6.2	0.00e+00	0	41	104	0	77	18443
2026-01-20 21:04:34.12	193.00	4.88	-52.9	-55.1	6.2	0.00e+00	0	41	104	0	77	18420
2026-01-20 21:04:35.13	193.07	4.96	-52.9	-55.1	6.2	0.00e+00	0	40	104	0	77	18401
2026-01-20 21:04:36.13	193.15	5.03	-52.9	-55.1	6.2	0.00e+00	0	41	104	0	77	18435
2026-01-20 21:04:37.14	193.22	5.11	-52.9	-55.1	6.2	0.00e+00	0	41	104	0	77	18408
2026-01-20 21:04:38.15	193.30	5.18	-52.8	-55.0	6.2	0.00e+00	0	41	104	0	77	18327
2026-01-20 21:04:39.16	193.38	5.26	-53.0	-55.2	6.2	0.00e+00	0	41	104	0	77	18665
2026-01-20 21:04:40.17	193.45	5.34	-53.0	-55.2	6.2	0.00e+00	0	41	104	0	77	18629
2026-01-20 21:04:41.17	193.53	5.41	-52.9	-55.0	6.2	0.00e+00	0	41	104	0	77	18378
2026-01-20 21:04:42.18	193.61	5.49	-52.9	-55.0	6.2	0.00e+00	0	41	104	0	77	18379
2026-01-20 21:04:43.19	193.69	5.56	-53.1	-55.2	6.2	0.00e+00	0	41	104	0	77	18643
2026-01-20 21:04:44.20	193.77	5.64	-53.0	-55.2	6.2	0.00e+00	0	41	104	0	77	18630
2026-01-20 21:04:45.21	193.85	5.72	-52.9	-55.0	6.2	0.00e+00	0	41	104	0	77	18388
2026-01-20 21:04:46.21	193.93	5.79	-52.9	-55.0	6.2	0.00e+00	0	41	104	0	77	18381
2026-01-20 21:04:47.22	194.01	5.87	-53.1	-55.2	6.2	0.00e+00	0	41	104	0	77	18744
2026-01-20 21:04:48.23	194.09	5.95	-53.0	-55.1	6.2	0.00e+00	0	41	104	0	77	18571
2026-01-20 21:04:49.24	194.17	6.03	-52.9	-55.1	6.2	0.00e+00	0	41	104	0	77	18475
2026-01-20 21:04:50.25	194.26	6.11	-52.9	-55.1	6.2	0.00e+00	0	41	104	0	77	18394
2026-01-20 21:04:51.26	194.34	6.18	-52.9	-55.1	6.2	0.00e+00	0	41	104	0	76	19587
2026-01-20 21:04:52.26	194.42	6.26	-52.8	-55.1	6.2	0.00e+00	0	41	104	0	76	19493
2026-01-20 21:04:53.27	194.51	6.34	-52.7	-54.9	6.2	0.00e+00	0	41	104	0	76	19082
2026-01-20 21:04:54.28	194.59	6.42	-52.6	-54.9	6.2	0.00e+00	0	41	104	0	76	19192
2026-01-20 21:04:55.29	194.68	6.50	-52.2	-54.7	6.2	0.00e+00	0	41	104	0	76	18813
2026-01-20 21:04:56.29	194.76	6.58	-52.7	-54.9	6.2	0.00e+00	0	41	104	0	76	19218
2026-01-20 21:04:57.30	194.85	6.66	-52.5	-54.8	6.2	0.00e+00	0	41	104	0	76	18915
2026-01-20 21:04:58.31	194.93	6.74	-52.5	-55.0	6.2	0.00e+00	0	41	104	0	76	19280
2026-01-20 21:04:59.32	195.02	6.82	-52.7	-55.1	6.2	0.00e+00	0	41	104	0	76	19540
2026-01-20 21:05:00.32	195.11	6.90	-52.7	-55.1	6.2	0.00e+00	0	41	104	0	76	19574
2026-01-20 21:05:01.33	195.20	6.98	-52.5	-54.9	6.2	0.00e+00	0	41	104	0	76	19182
2026-01-20 21:05:02.34	195.29	7.07	-52.6	-55.0	6.2	0.00e+00	0	41	104	0	76	19322
2026-01-20 21:05:03.35	195.38	7.15	-52.8	-55.1	6.2	0.00e+00	0	41	104	0	76	19655
2026-01-20 21:05:04.35	195.47	7.23	-52.6	-54.9	6.2	0.00e+00	0	41	104	0	76	19072
2026-01-20 21:05:05.36	195.56	7.31	-52.4	-55.0	6.2	0.00e+00	0	41	104	0	76	19324
2026-01-20 21:05:06.37	195.65	7.39	-52.5	-54.7	6.2	0.00e+00	0	41	104	0	76	18802
2026-01-20 21:05:07.38	195.74	7.48	-52.0	-54.9	6.3	0.00e+00	0	41	104	0	76	19237
2026-01-20 21:05:08.38	195.83	7.56	-52.4	-55.0	6.2	0.00e+00	0	41	104	0	76	19260
2026-01-20 21:05:09.39	195.93	7.64	-52.5	-55.1	6.2	0.00e+00	0	41	104	0	76	19520
2026-01-20 21:05:10.40	196.02	7.73	-51.9	-54.9	6.3	0.00e+00	0	41	104	0	75	20198
2026-01-20 21:05:11.41	196.11	7.81	-52.2	-54.7	6.2	0.00e+00	0	41	104	0	75	19928
2026-01-20 21:05:12.42	196.21	7.90	-52.8	-54.8	6.2	0.00e+00	0	41	104	0	76	18922
2026-01-20 21:05:13.43	196.31	7.98	-52.6	-54.9	6.2	0.00e+00	0	41	104	0	76	19059
2026-01-20 21:05:14.43	196.40	8.07	-52.5	-55.1	6.2	0.00e+00	0	41	104	0	76	19530
2026-01-20 21:05:15.44	196.50	8.15	-52.3	-54.6	6.2	0.00e+00	0	41	104	0	76	18394
2026-01-20 21:05:16.45	196.60	8.24	-52.5	-54.8	6.2	0.00e+00	0	42	104	0	76	18905
2026-01-20 21:05:17.45	196.69	8.32	-52.4	-54.6	6.3	0.00e+00	0	41	104	0	76	18546
2026-01-20 21:05:18.46	196.79	8.41	-48.8	-49.5	6.9	0.00e+00	0	41	104	0	69	15339
2026-01-20 21:05:19.47	196.89	8.50	-47.9	-48.8	6.3	0.00e+00	0	41	104	0	67	15845
2026-01-20 21:05:20.48	196.99	8.58	-46.3	-46.8	6.2	0.00e+00	0	41	104	0	64	15101
2026-01-20 21:05:21.49	197.10	8.67	-50.1	-51.0	6.3	0.00e+00	0	41	104	0	72	15457
2026-01-20 21:05:22.49	197.20	8.76	-46.2	-46.6	6.3	0.00e+00	0	41	104	0	64	14679
2026-01-20 21:05:23.50	197.30	8.85	-46.0	-46.5	6.3	0.00e+00	0	41	104	0	64	14492
2026-01-20 21:05:24.51	197.40	8.94	-45.8	-46.4	6.2	0.00e+00	0	41	104	0	63	15167
2026-01-20 21:05:25.52	197.51	9.02	-45.4	-45.8	6.2	0.00e+00	0	41	104	0	62	15119
2026-01-20 21:05:26.53	197.61	9.11	-47.4	-48.0	6.3	0.00e+00	0	41	104	0	65	16343
2026-01-20 21:05:27.53	197.72	9.20	-50.0	-51.0	6.3	0.00e+00	0	41	104	0	72	15451
2026-01-20 21:05:28.54	197.82	9.29	-45.7	-46.1	6.2	0.00e+00	0	41	104	0	63	14708
2026-01-20 21:05:29.55	197.93	9.38	-47.2	-47.8	6.2	0.00e+00	0	41	104	0	66	15043
2026-01-20 21:05:30.56	198.04	9.47	-45.8	-46.5	6.3	0.00e+00	0	41	104	0	63	15378
2026-01-20 21:05:31.57	198.15	9.56	-44.6	-45.7	6.1	0.00e+00	0	41	104	0	61	15665
2026-01-20 21:05:32.58	198.26	9.66	-43.5	-45.3	6.1	0.00e+00	0	41	104	0	59	16879
2026-01-20 21:05:33.59	198.37	9.75	-43.2	-45.3	6.1	0.00e+00	0	41	104	0	57	18823
2026-01-20 21:05:34.59	198.48	9.84	-30.6	-30.9	11.4	6.89e-03	0	41	104	0	31	16096
2026-01-20 21:05:35.60	198.59	9.93	-40.1	-43.6	10.1	1.40e-02	0	41	104	0	50	23397
2026-01-20 21:05:36.61	198.70	10.02	-33.9	-35.0	15.5	1.01e-04	0	42	0	100663296	39	16320
2026-01-20 21:05:37.62	198.82	10.12	-34.2	-35.7	15.1	3.05e-04	0	41	0	209715200	39	17640
2026-01-20 21:05:38.63	198.93	10.21	-34.1	-35.0	15.4	9.15e-05	0	41	0	327155712	39	16303
2026-01-20 21:05:39.64	199.05	10.30	-33.1	-33.9	15.9	4.57e-05	0	42	0	436207616	37	16067
2026-01-20 21:05:40.64	199.16	10.40	-32.5	-33.0	16.2	1.52e-05	0	42	0	553648128	36	15412
2026-01-20 21:05:41.65	199.28	10.49	-30.0	-30.2	15.8	5.34e-05	0	42	0	662700032	31	14883
2026-01-20 21:05:42.66	199.40	10.59	-29.8	-29.9	15.9	3.81e-05	0	42	0	771751936	31	14327
2026-01-20 21:05:43.66	199.51	10.68	-29.6	-29.7	15.8	4.57e-05	0	42	0	889192448	31	14023
2026-01-20 21:05:44.67	199.63	10.78	-28.7	-28.8	16.3	9.50e-06	0	42	0	998244352	29	14223
2026-01-20 21:05:45.68	199.75	10.87	-28.3	-28.3	16.9	3.80e-06	0	42	0	1115684864	28	14201
2026-01-20 21:05:46.69	199.88	10.97	-28.1	-28.1	16.9	0.00e+00	0	42	0	1224736768	27	14669
2026-01-20 21:05:47.70	200.00	11.07	-28.1	-28.0	17.2	1.90e-06	0	42	0	1333788672	27	14602
2026-01-20 21:05:48.70	200.12	11.16	-28.0	-27.9	17.4	1.90e-06	0	42	0	1459617792	27	14386
2026-01-20 21:05:49.71	200.25	11.26	-27.9	-27.8	17.5	1.90e-06	0	42	0	1577058304	27	14199
2026-01-20 21:05:50.72	200.37	11.36	-28.0	-27.8	17.4	1.90e-06	0	42	0	1686110208	27	14253
2026-01-20 21:05:51.73	200.50	11.46	-28.0	-27.8	17.4	0.00e+00	0	42	0	1795162112	27	14201
2026-01-20 21:05:52.74	200.62	11.56	-27.9	-27.7	17.5	0.00e+00	0	42	0	1912602624	27	14012
2026-01-20 21:05:53.75	200.75	11.66	-27.7	-27.6	17.5	0.00e+00	0	42	0	2021654528	27	13818
2026-01-20 21:05:54.76	200.88	11.76	-27.8	-27.6	17.3	0.00e+00	0	42	0	2139095040	27	13844
2026-01-20 21:05:55.76	201.01	11.85	-27.8	-27.6	17.5	0.00e+00	0	42	0	2248146944	27	13849
2026-01-20 21:05:56.77	201.14	11.96	-27.7	-27.5	17.2	0.00e+00	0	42	0	2365587456	27	13786
2026-01-20 21:05:57.78	201.27	12.06	-27.6	-27.5	17.5	0.00e+00	0	42	0	2474639360	27	13663
2026-01-20 21:05:58.78	201.41	12.16	-27.6	-27.4	17.3	0.00e+00	0	42	0	2583691264	27	13535
2026-01-20 21:05:59.79	201.54	12.26	-27.4	-27.2	17.4	0.00e+00	0	42	0	2701131776	26	14086
2026-01-20 21:06:00.80	201.68	12.36	-27.4	-27.2	17.6	0.00e+00	0	42	0	2810183680	26	14103
2026-01-20 21:06:01.81	201.81	12.46	-27.5	-27.3	17.3	0.00e+00	0	42	0	2936012800	26	14212
2026-01-20 21:06:02.82	201.95	12.57	-27.4	-27.3	17.4	0.00e+00	0	42	0	3045064704	26	14130
2026-01-20 21:06:03.82	202.09	12.67	-27.4	-27.2	17.5	0.00e+00	0	42	0	3162505216	26	14077
2026-01-20 21:06:04.83	202.23	12.77	-27.5	-27.3	17.7	0.00e+00	0	42	0	3271557120	26	14260
2026-01-20 21:06:05.84	202.37	12.88	-27.3	-27.1	17.8	0.00e+00	0	42	0	3388997632	26	13926
2026-01-20 21:06:06.85	202.51	12.98	-27.4	-27.3	17.6	0.00e+00	0	42	0	3498049536	26	14115
2026-01-20 21:06:07.86	202.65	13.09	-27.4	-27.2	17.8	0.00e+00	0	42	0	3607101440	26	14069
2026-01-20 21:06:08.87	202.80	13.19	-27.3	-27.1	17.8	0.00e+00	0	42	0	3724541952	26	13866
2026-01-20 21:06:09.87	202.94	13.30	-27.2	-27.0	17.9	0.00e+00	0	42	0	3833593856	26	13681
2026-01-20 21:06:10.88	203.09	13.40	-27.2	-27.1	17.8	0.00e+00	0	42	0	3951034368	26	13812
2026-01-20 21:06:11.89	203.24	13.51	-27.2	-27.0	18.0	0.00e+00	0	42	0	4060086272	26	13697
2026-01-20 21:06:12.89	203.39	13.62	-27.3	-27.1	17.9	0.00e+00	0	42	0	4169138176	26	13923
2026-01-20 21:06:13.90	203.54	13.73	-27.1	-26.9	18.0	0.00e+00	0	42	0	4286578688	26	13573
2026-01-20 21:06:14.91	203.69	13.83	-27.0	-26.8	17.9	0.00e+00	0	42	0	4412407808	25	14188
2026-01-20 21:06:15.92	203.84	13.94	-27.1	-26.9	18.0	0.00e+00	0	42	0	4521459712	25	14370
2026-01-20 21:06:16.92	203.99	14.05	-26.9	-26.8	17.9	0.00e+00	0	42	0	4630511616	25	14143
2026-01-20 21:06:17.94	204.15	14.16	-26.9	-26.8	17.9	0.00e+00	0	42	0	4747952128	25	14136
2026-01-20 21:06:18.94	204.31	14.27	-26.9	-26.7	18.0	0.00e+00	0	42	0	4857004032	25	13984
2026-01-20 21:06:19.95	204.47	14.38	-26.8	-26.7	18.1	0.00e+00	0	42	0	4974444544	25	13959
2026-01-20 21:06:20.96	204.62	14.49	-26.9	-26.7	17.9	0.00e+00	0	42	0	5083496448	25	13990
2026-01-20 21:06:21.97	204.79	14.60	-26.6	-26.5	18.1	0.00e+00	0	42	0	5192548352	25	13656
2026-01-20 21:06:22.97	204.95	14.72	-26.7	-26.5	18.1	0.00e+00	0	42	0	5309988864	25	13755
2026-01-20 21:06:23.98	205.11	14.83	-26.7	-26.6	18.3	0.00e+00	0	42	0	5419040768	25	13807
2026-01-20 21:06:24.99	205.28	14.94	-26.5	-26.3	18.1	0.00e+00	0	42	0	5536481280	25	13455
2026-01-20 21:06:26.00	205.44	15.05	-26.5	-26.3	18.3	0.00e+00	0	42	0	5645533184	24	14224
2026-01-20 21:06:27.01	205.61	15.17	-26.5	-26.3	18.3	0.00e+00	0	42	0	5771362304	24	14271
2026-01-20 21:06:28.02	205.78	15.28	-26.5	-26.3	18.4	0.00e+00	0	42	0	5880414208	24	14179
2026-01-20 21:06:29.02	205.95	15.40	-26.4	-26.2	18.4	0.00e+00	0	42	0	5997854720	24	14037
2026-01-20 21:06:30.03	206.12	15.51	-26.4	-26.3	18.4	0.00e+00	0	42	0	6106906624	24	14131
2026-01-20 21:06:31.04	206.30	15.63	-26.3	-26.2	18.5	0.00e+00	0	42	0	6224347136	24	13986
2026-01-20 21:06:32.05	206.47	15.74	-26.2	-26.1	18.6	0.00e+00	0	42	0	6333399040	24	13797
2026-01-20 21:06:33.06	206.65	15.86	-26.2	-26.0	18.4	0.00e+00	0	42	0	6442450944	24	13737
2026-01-20 21:06:34.06	206.82	15.98	-26.2	-26.0	18.3	0.00e+00	0	42	0	6559891456	24	13675
2026-01-20 21:06:35.07	207.00	16.09	-26.1	-25.9	18.4	0.00e+00	0	42	0	6668943360	24	13611
2026-01-20 21:06:36.08	207.19	16.21	-26.0	-25.8	18.6	0.00e+00	0	42	0	6786383872	23	14153
2026-01-20 21:06:37.09	207.37	16.33	-26.0	-25.9	18.5	0.00e+00	0	43	0	6895435776	23	14295
2026-01-20 21:06:38.10	207.55	16.45	-26.0	-25.8	18.5	0.00e+00	0	42	0	7004487680	23	14258
2026-01-20 21:06:39.10	207.74	16.57	-25.9	-25.8	18.6	0.00e+00	0	42	0	7130316800	23	14114
2026-01-20 21:06:40.11	207.93	16.69	-25.8	-25.6	18.5	0.00e+00	0	42	0	7247757312	23	13904
2026-01-20 21:06:41.11	208.12	16.81	-25.7	-25.6	18.7	0.00e+00	0	42	0	7356809216	23	13799
2026-01-20 21:06:42.12	208.31	16.93	-25.7	-25.5	18.6	0.00e+00	0	42	0	7465861120	23	13687
2026-01-20 21:06:43.13	208.50	17.05	-25.6	-25.4	18.6	0.00e+00	0	42	0	7583301632	23	13620
2026-01-20 21:06:44.14	208.70	17.17	-25.6	-25.5	18.8	0.00e+00	0	42	0	7692353536	23	13677
2026-01-20 21:06:45.15	208.89	17.29	-25.6	-25.4	18.7	0.00e+00	0	42	0	7809794048	23	13543
2026-01-20 21:06:46.16	209.09	17.42	-25.6	-25.4	18.7	0.00e+00	0	42	0	7918845952	23	13525
2026-01-20 21:06:47.16	209.29	17.54	-25.5	-25.4	18.7	0.00e+00	0	42	0	8027897856	23	13478
2026-01-20 21:06:48.17	209.49	17.66	-25.4	-25.2	18.8	0.00e+00	0	42	0	8145338368	22	14035
2026-01-20 21:06:49.18	209.70	17.79	-25.3	-25.1	18.9	0.00e+00	0	42	0	8254390272	22	13929
2026-01-20 21:06:50.19	209.90	17.91	-25.4	-25.2	18.8	0.00e+00	0	42	0	8371830784	22	14016
2026-01-20 21:06:51.20	210.11	18.04	-25.3	-25.2	18.9	0.00e+00	0	42	0	8480882688	22	13984
2026-01-20 21:06:52.21	210.32	18.16	-25.4	-25.3	18.8	0.00e+00	0	42	0	8606711808	22	14123
2026-01-20 21:06:53.22	210.53	18.29	-25.2	-25.0	19.0	0.00e+00	0	43	0	8715763712	22	13777
2026-01-20 21:06:54.22	210.75	18.42	-25.2	-25.1	19.1	0.00e+00	0	42	0	8833204224	22	13809
2026-01-20 21:06:55.23	210.96	18.54	-25.1	-25.0	19.0	0.00e+00	0	43	0	8942256128	22	13664
2026-01-20 21:06:56.24	211.18	18.67	-25.1	-24.9	19.0	0.00e+00	0	42	0	9051308032	22	13630
2026-01-20 21:06:57.25	211.40	18.80	-25.1	-25.0	19.1	0.00e+00	0	42	0	9168748544	22	13634
2026-01-20 21:06:58.26	211.62	18.93	-25.1	-24.9	19.0	0.00e+00	0	42	0	9277800448	22	13567
2026-01-20 21:06:59.27	211.85	19.06	-25.1	-25.0	19.1	0.00e+00	0	42	0	9395240960	22	13657
2026-01-20 21:07:00.28	212.07	19.18	-25.1	-24.9	19.0	0.00e+00	0	43	0	9504292864	22	13538
2026-01-20 21:07:01.28	212.30	19.31	-25.1	-24.9	19.0	0.00e+00	0	43	0	9621733376	22	13547
2026-01-20 21:07:02.29	212.53	19.44	-25.0	-24.8	19.2	0.00e+00	0	42	0	9730785280	22	13424
2026-01-20 21:07:03.30	212.76	19.57	-24.9	-24.7	19.1	0.00e+00	0	42	0	9856614400	21	14023
2026-01-20 21:07:04.32	213.00	19.71	-24.8	-24.6	19.2	0.00e+00	0	43	0	9965666304	21	13933
2026-01-20 21:07:05.32	213.23	19.84	-24.8	-24.6	19.1	0.00e+00	0	42	0	10083106816	21	13843
2026-01-20 21:07:06.33	213.47	19.97	-24.7	-24.6	19.1	0.00e+00	0	43	0	10192158720	21	13816
2026-01-20 21:07:07.34	213.72	20.10	-24.8	-24.6	19.1	0.00e+00	0	42	0	10301210624	21	13839
2026-01-20 21:07:08.35	213.96	20.23	-24.7	-24.6	19.1	0.00e+00	0	42	0	10418651136	21	13807
2026-01-20 21:07:09.35	214.20	20.37	-24.6	-24.4	19.2	0.00e+00	0	42	0	10527703040	21	13594
2026-01-20 21:07:10.36	214.45	20.50	-24.6	-24.4	19.3	0.00e+00	0	42	0	10645143552	21	13554
2026-01-20 21:07:11.37	214.70	20.63	-24.6	-24.4	19.3	0.00e+00	0	42	0	10754195456	21	13624
2026-01-20 21:07:12.38	214.96	20.77	-24.6	-24.4	19.3	0.00e+00	0	42	0	10863247360	21	13533
2026-01-20 21:07:13.39	215.21	20.90	-24.3	-24.1	19.2	0.00e+00	0	43	0	10980687872	20	13917
2026-01-20 21:07:14.39	215.47	21.04	-24.3	-24.1	19.2	0.00e+00	0	42	0	11089739776	20	13857
2026-01-20 21:07:15.40	215.73	21.17	-24.2	-24.1	19.2	0.00e+00	0	42	0	11207180288	20	13791
2026-01-20 21:07:16.41	215.99	21.31	-24.2	-24.0	19.2	0.00e+00	0	42	0	11324620800	20	13779
2026-01-20 21:07:17.42	216.26	21.44	-24.2	-24.0	19.2	0.00e+00	0	42	0	11442061312	20	13729
2026-01-20 21:07:18.43	216.53	21.58	-24.2	-24.0	19.2	0.00e+00	0	42	0	11551113216	20	13725
2026-01-20 21:07:19.43	216.80	21.71	-24.1	-23.9	19.3	0.00e+00	0	42	0	11668553728	20	13602
2026-01-20 21:07:20.44	217.07	21.85	-24.1	-23.9	19.3	0.00e+00	0	43	0	11777605632	20	13593
2026-01-20 21:07:21.45	217.35	21.99	-24.1	-23.9	19.3	0.00e+00	0	43	0	11886657536	19	14356
2026-01-20 21:07:22.46	217.63	22.13	-24.1	-23.9	19.1	0.00e+00	0	43	0	12004098048	19	14409
2026-01-20 21:07:23.46	217.90	22.26	-24.0	-23.8	19.2	0.00e+00	0	43	0	12113149952	19	14183
2026-01-20 21:07:24.47	218.19	22.40	-23.9	-23.7	19.2	0.00e+00	0	43	0	12230590464	19	14014
2026-01-20 21:07:25.48	218.48	22.54	-23.9	-23.7	19.0	0.00e+00	0	43	0	12339642368	19	14034
2026-01-20 21:07:26.49	218.77	22.68	-23.9	-23.8	18.9	0.00e+00	0	42	0	12457082880	19	14128
2026-01-20 21:07:27.49	219.06	22.81	-23.8	-23.6	19.1	0.00e+00	0	43	0	12566134784	19	13888
2026-01-20 21:07:28.50	219.35	22.95	-23.8	-23.6	19.2	0.00e+00	0	43	0	12675186688	19	13832
2026-01-20 21:07:29.51	219.65	23.09	-23.7	-23.6	19.2	0.00e+00	0	43	0	12801015808	19	13806
2026-01-20 21:07:30.52	219.95	23.23	-23.6	-23.5	19.1	0.00e+00	0	43	0	12910067712	19	13660
2026-01-20 21:07:31.52	220.26	23.37	-23.6	-23.4	19.2	0.00e+00	0	43	0	13027508224	19	13629
2026-01-20 21:07:32.53	220.56	23.51	-23.5	-23.3	19.2	0.00e+00	0	43	0	13136560128	19	13415
2026-01-20 21:07:33.54	220.87	23.65	-23.5	-23.3	19.2	0.00e+00	0	43	0	13254000640	19	13444
2026-01-20 21:07:34.55	221.19	23.79	-23.4	-23.3	19.1	0.00e+00	0	42	0	13363052544	18	14135
2026-01-20 21:07:35.56	221.50	23.93	-23.4	-23.2	19.2	0.00e+00	0	43	0	13472104448	18	14087
2026-01-20 21:07:36.57	221.82	24.07	-23.4	-23.2	19.2	0.00e+00	0	43	0	13589544960	18	13997
2026-01-20 21:07:37.57	222.14	24.21	-23.4	-23.2	19.0	0.00e+00	0	43	0	13698596864	18	14036
2026-01-20 21:07:38.58	222.47	24.35	-23.4	-23.2	19.0	0.00e+00	0	43	0	13816037376	18	14069
2026-01-20 21:07:39.59	222.80	24.49	-23.3	-23.1	19.1	0.00e+00	0	43	0	13925089280	18	13922
2026-01-20 21:07:40.60	223.13	24.63	-23.2	-23.0	19.1	0.00e+00	0	43	0	14042529792	18	13669
2026-01-20 21:07:41.61	223.47	24.77	-23.3	-23.1	19.1	0.00e+00	0	43	0	14159970304	18	13857
2026-01-20 21:07:42.61	223.80	24.90	-23.2	-23.0	19.2	0.00e+00	0	42	0	14277410816	18	13729
2026-01-20 21:07:43.62	224.14	25.04	-23.3	-23.1	19.1	0.00e+00	0	43	0	14386462720	18	13831
2026-01-20 21:07:44.63	224.49	25.18	-23.2	-23.0	19.0	0.00e+00	0	43	0	14503903232	18	13724
2026-01-20 21:07:45.64	224.84	25.32	-23.3	-23.1	19.1	0.00e+00	0	43	0	14612955136	18	13908
2026-01-20 21:07:46.65	225.19	25.46	-23.3	-23.1	19.0	0.00e+00	0	43	0	14722007040	18	13858
2026-01-20 21:07:47.66	225.54	25.60	-23.1	-23.0	19.0	0.00e+00	0	43	0	14839447552	18	13660
2026-01-20 21:07:48.66	225.90	25.74	-23.2	-23.0	18.8	0.00e+00	0	43	0	14948499456	18	13677
2026-01-20 21:07:49.67	226.26	25.88	-23.1	-23.0	18.8	0.00e+00	0	43	0	15065939968	18	13642
2026-01-20 21:07:50.68	226.63	26.02	-23.1	-22.9	18.6	0.00e+00	0	43	0	15174991872	18	13516
2026-01-20 21:07:51.69	227.00	26.16	-22.9	-22.7	18.7	0.00e+00	0	42	0	15284043776	17	14007
2026-01-20 21:07:52.70	227.37	26.29	-22.9	-22.7	18.7	0.00e+00	0	42	0	15401484288	17	13997
2026-01-20 21:07:53.71	227.74	26.43	-23.0	-22.8	18.9	0.00e+00	0	43	0	15527313408	17	14188
2026-01-20 21:07:54.72	228.12	26.57	-22.9	-22.7	18.8	0.00e+00	0	43	0	15636365312	17	14095
2026-01-20 21:07:55.73	228.51	26.70	-22.7	-22.5	18.5	0.00e+00	0	43	0	15745417216	17	13787
2026-01-20 21:07:56.73	228.89	26.84	-22.8	-22.6	18.4	0.00e+00	0	43	0	15862857728	17	13826
2026-01-20 21:07:57.74	229.28	26.97	-22.7	-22.5	18.5	0.00e+00	0	43	0	15971909632	17	13723
2026-01-20 21:07:58.75	229.67	27.11	-22.7	-22.5	18.5	0.00e+00	0	43	0	16089350144	17	13710
2026-01-20 21:07:59.76	230.07	27.24	-22.8	-22.6	18.3	0.00e+00	0	42	0	16198402048	17	13854
2026-01-20 21:08:00.77	230.47	27.38	-22.7	-22.5	18.0	0.00e+00	0	43	0	16315842560	17	13721
2026-01-20 21:08:01.78	230.87	27.51	-22.7	-22.5	17.9	0.00e+00	0	43	0	16424894464	17	13713
2026-01-20 21:08:02.78	231.28	27.64	-22.5	-22.3	18.1	0.00e+00	0	43	0	16533946368	17	13461
2026-01-20 21:08:03.79	231.69	27.78	-22.4	-22.2	18.1	0.00e+00	0	43	0	16651386880	16	13991
2026-01-20 21:08:04.80	232.10	27.91	-22.3	-22.1	18.1	0.00e+00	0	43	0	16760438784	16	13941
2026-01-20 21:08:05.81	232.52	28.04	-22.3	-22.1	17.9	0.00e+00	0	43	0	16886267904	16	13886
2026-01-20 21:08:06.81	232.94	28.17	-22.3	-22.1	17.7	0.00e+00	0	43	0	16995319808	16	13821
2026-01-20 21:08:07.82	233.37	28.29	-22.2	-22.0	17.9	0.00e+00	0	43	0	17112760320	16	13716
2026-01-20 21:08:08.83	233.80	28.42	-22.2	-22.0	18.1	0.00e+00	0	43	0	17221812224	16	13724
2026-01-20 21:08:09.83	234.23	28.55	-22.3	-22.1	18.1	0.00e+00	0	43	0	17339252736	16	13822
2026-01-20 21:08:10.84	234.66	28.67	-22.2	-22.0	18.0	0.00e+00	0	43	0	17448304640	16	13756
2026-01-20 21:08:11.85	235.10	28.80	-22.0	-21.9	17.6	0.00e+00	0	43	0	17557356544	16	13502
2026-01-20 21:08:12.86	235.55	28.92	-22.1	-21.9	17.4	0.00e+00	0	43	0	17674797056	16	13538
2026-01-20 21:08:13.87	236.00	29.05	-22.1	-21.9	17.6	0.00e+00	0	43	0	17783848960	16	13552
2026-01-20 21:08:14.88	236.45	29.17	-21.8	-21.6	17.2	0.00e+00	0	43	0	17901289472	15	13895
2026-01-20 21:08:15.88	236.90	29.29	-21.9	-21.7	17.4	0.00e+00	0	43	0	18010341376	15	14065
2026-01-20 21:08:16.89	237.36	29.41	-21.9	-21.7	17.4	0.00e+00	0	43	0	18119393280	15	14034
2026-01-20 21:08:17.90	237.82	29.52	-21.8	-21.7	17.4	0.00e+00	0	43	0	18236833792	15	13964
2026-01-20 21:08:18.90	238.28	29.64	-21.8	-21.6	17.2	0.00e+00	0	43	0	18362662912	15	13880
2026-01-20 21:08:19.91	238.75	29.75	-21.9	-21.7	17.1	0.00e+00	0	43	0	18471714816	15	14098
2026-01-20 21:08:20.92	239.22	29.87	-21.8	-21.6	16.9	0.00e+00	0	43	0	18580766720	15	13851
2026-01-20 21:08:21.93	239.70	29.98	-21.7	-21.5	17.4	0.00e+00	0	43	0	18698207232	15	13699
2026-01-20 21:08:22.94	240.18	30.09	-21.6	-21.4	16.7	0.00e+00	0	43	0	18807259136	15	13584
2026-01-20 21:08:23.94	240.66	30.20	-21.7	-21.5	16.6	0.00e+00	0	43	0	18924699648	15	13727
2026-01-20 21:08:24.95	241.15	30.31	-21.7	-21.5	16.9	0.00e+00	0	43	0	19033751552	15	13707
2026-01-20 21:08:25.96	241.64	30.41	-21.5	-21.4	16.6	0.00e+00	0	43	0	19142803456	15	13486
2026-01-20 21:08:26.97	242.13	30.52	-21.6	-21.4	16.5	0.00e+00	0	43	0	19260243968	15	13612
2026-01-20 21:08:27.98	242.63	30.62	-21.5	-21.3	16.7	0.00e+00	0	43	0	19369295872	15	13419
2026-01-20 21:08:28.99	243.13	30.72	-21.3	-21.2	17.0	0.00e+00	0	43	0	19486736384	14	13980
2026-01-20 21:08:29.99	243.63	30.82	-21.4	-21.2	17.1	0.00e+00	0	43	0	19595788288	14	14014
2026-01-20 21:08:31.00	244.13	30.91	-21.3	-21.1	16.9	0.00e+00	0	43	0	19713228800	14	13926
2026-01-20 21:08:32.01	244.64	31.01	-21.5	-21.3	17.3	0.00e+00	0	43	0	19830669312	14	14167
2026-01-20 21:08:33.02	245.16	31.10	-21.3	-21.1	17.2	0.00e+00	0	43	0	19948109824	14	13932
2026-01-20 21:08:34.03	245.67	31.19	-21.4	-21.2	17.2	0.00e+00	0	43	0	20057161728	14	14000
2026-01-20 21:08:35.03	246.19	31.28	-21.4	-21.2	17.2	0.00e+00	0	43	0	20174602240	14	14095
2026-01-20 21:08:36.04	246.71	31.37	-21.3	-21.1	17.2	0.00e+00	0	43	0	20283654144	14	13948
2026-01-20 21:08:37.05	247.24	31.45	-21.4	-21.2	17.4	0.00e+00	0	43	0	20392706048	14	13978
2026-01-20 21:08:38.05	247.76	31.53	-21.3	-21.1	17.4	0.00e+00	0	43	0	20510146560	14	13937
2026-01-20 21:08:39.06	248.29	31.61	-21.3	-21.2	17.4	0.00e+00	0	43	0	20619198464	14	13974
2026-01-20 21:08:40.07	248.82	31.69	-21.3	-21.2	17.3	0.00e+00	0	43	0	20736638976	14	13961
2026-01-20 21:08:41.08	249.36	31.77	-21.4	-21.2	17.0	0.00e+00	0	43	0	20845690880	14	13993
2026-01-20 21:08:42.08	249.89	31.84	-21.2	-21.0	17.4	0.00e+00	0	43	0	20954742784	14	13787
2026-01-20 21:08:43.09	250.43	31.91	-21.3	-21.1	17.6	0.00e+00	0	43	0	21072183296	14	13929
2026-01-20 21:08:44.10	250.98	31.98	-21.3	-21.1	17.5	0.00e+00	0	43	0	21181235200	14	13903
2026-01-20 21:08:45.11	251.52	32.04	-21.4	-21.2	17.5	0.00e+00	0	43	0	21307064320	14	14037
2026-01-20 21:08:46.12	252.07	32.11	-21.4	-21.3	17.5	0.00e+00	0	43	0	21416116224	14	14129
2026-01-20 21:08:47.12	252.62	32.17	-21.3	-21.1	17.3	0.00e+00	0	43	0	21533556736	14	13812
2026-01-20 21:08:48.13	253.17	32.22	-21.4	-21.2	18.0	0.00e+00	0	42	0	21642608640	14	13986
2026-01-20 21:08:49.14	253.73	32.28	-21.3	-21.1	17.6	0.00e+00	0	43	0	21760049152	14	13905
2026-01-20 21:08:50.15	254.28	32.33	-21.2	-21.0	17.9	0.00e+00	0	43	0	21869101056	14	13711
2026-01-20 21:08:51.16	254.84	32.38	-21.2	-21.0	17.5	0.00e+00	0	43	0	21978152960	14	13720
2026-01-20 21:08:52.17	255.40	32.43	-21.2	-21.0	17.7	0.00e+00	0	43	0	22095593472	14	13774
2026-01-20 21:08:53.17	255.96	32.47	-21.1	-21.0	17.8	0.00e+00	0	43	0	22204645376	14	13648
2026-01-20 21:08:54.18	256.52	32.51	-21.2	-21.0	17.6	0.00e+00	0	43	0	22322085888	14	13732
2026-01-20 21:08:55.19	257.09	32.55	-21.2	-21.0	17.8	0.00e+00	0	43	0	22431137792	14	13741
2026-01-20 21:08:56.20	257.65	32.59	-21.1	-21.0	18.1	0.00e+00	0	43	0	22540189696	14	13667
2026-01-20 21:08:57.21	258.22	32.62	-21.2	-21.0	18.2	0.00e+00	0	43	0	22666018816	14	13720
2026-01-20 21:08:58.22	258.79	32.65	-21.2	-21.0	18.2	0.00e+00	0	43	0	22783459328	14	13779
2026-01-20 21:08:59.22	259.35	32.68	-21.2	-21.0	18.2	0.00e+00	0	43	0	22892511232	14	13713
2026-01-20 21:09:00.23	259.93	32.70	-21.4	-21.2	18.5	0.00e+00	0	43	0	23001563136	14	13994
2026-01-20 21:09:01.24	260.50	32.72	-21.3	-21.2	18.5	0.00e+00	0	43	0	23119003648	14	13996
2026-01-20 21:09:02.24	261.06	32.74	-21.4	-21.3	18.8	0.00e+00	0	43	0	23228055552	14	14147
2026-01-20 21:09:03.25	261.64	32.76	-21.4	-21.2	18.9	0.00e+00	0	43	0	23345496064	14	14077
2026-01-20 21:09:04.26	262.21	32.77	-21.5	-21.3	18.9	0.00e+00	0	43	0	23454547968	14	14165
2026-01-20 21:09:05.27	262.78	32.78	-21.4	-21.2	18.8	0.00e+00	0	43	0	23571988480	14	14021
2026-01-20 21:09:06.28	263.36	32.79	-21.5	-21.3	18.9	0.00e+00	0	43	0	23681040384	14	14240
2026-01-20 21:09:07.29	263.93	32.79	-21.5	-21.3	19.3	0.00e+00	0	43	0	23790092288	14	14193
2026-01-20 21:09:08.30	264.51	32.79	-21.5	-21.3	19.4	0.00e+00	0	43	0	23907532800	14	14233
2026-01-20 21:09:09.31	265.08	32.79	-21.5	-21.4	19.4	0.00e+00	0	43	0	24033361920	14	14275
2026-01-20 21:09:10.32	265.66	32.78	-21.4	-21.3	19.5	0.00e+00	0	43	0	24142413824	14	14131
2026-01-20 21:09:11.32	266.22	32.77	-21.5	-21.4	19.6	0.00e+00	0	43	0	24251465728	14	14278
2026-01-20 21:09:12.33	266.80	32.76	-21.5	-21.3	19.7	0.00e+00	0	43	0	24368906240	14	14192
2026-01-20 21:09:13.34	267.37	32.75	-21.5	-21.3	19.6	0.00e+00	0	43	0	24477958144	14	14251
2026-01-20 21:09:14.34	267.94	32.73	-21.6	-21.4	19.8	0.00e+00	0	43	0	24595398656	14	14431
2026-01-20 21:09:15.36	268.51	32.71	-21.6	-21.4	19.8	0.00e+00	0	43	0	24704450560	14	14366
2026-01-20 21:09:16.36	269.08	32.69	-21.6	-21.4	19.6	0.00e+00	0	43	0	24813502464	14	14391
2026-01-20 21:09:17.37	269.65	32.66	-21.6	-21.4	19.7	0.00e+00	0	43	0	24930942976	14	14309
2026-01-20 21:09:18.38	270.22	32.63	-21.5	-21.3	19.7	0.00e+00	0	43	0	25039994880	14	14164
2026-01-20 21:09:19.39	270.79	32.60	-21.5	-21.4	19.9	0.00e+00	0	43	0	25157435392	14	14283
2026-01-20 21:09:20.39	271.35	32.56	-21.5	-21.4	19.7	0.00e+00	0	43	0	25266487296	14	14298
2026-01-20 21:09:21.40	271.91	32.53	-21.6	-21.4	19.7	0.00e+00	0	43	0	25375539200	14	14348
2026-01-20 21:09:22.41	272.48	32.49	-21.6	-21.4	19.8	0.00e+00	0	43	0	25501368320	14	14386
2026-01-20 21:09:23.41	273.03	32.44	-21.6	-21.4	19.8	0.00e+00	0	43	0	25618808832	14	14408
2026-01-20 21:09:24.42	273.59	32.40	-21.6	-21.4	19.7	0.00e+00	0	43	0	25727860736	14	14440
2026-01-20 21:09:25.43	274.15	32.35	-21.7	-21.5	19.8	0.00e+00	0	43	0	25836912640	14	14487
2026-01-20 21:09:26.44	274.71	32.30	-21.7	-21.5	19.9	0.00e+00	0	43	0	25954353152	14	14553
2026-01-20 21:09:27.45	275.26	32.24	-21.7	-21.5	19.9	0.00e+00	0	43	0	26063405056	14	14481
2026-01-20 21:09:28.45	275.81	32.18	-21.7	-21.6	19.9	0.00e+00	0	43	0	26180845568	14	14621
2026-01-20 21:09:29.46	276.36	32.12	-21.8	-21.6	19.8	0.00e+00	0	43	0	26289897472	14	14705
2026-01-20 21:09:30.47	276.91	32.06	-21.7	-21.5	19.8	0.00e+00	0	43	0	26398949376	14	14525
2026-01-20 21:09:31.48	277.46	32.00	-21.8	-21.6	19.8	0.00e+00	0	43	0	26516389888	14	14709
2026-01-20 21:09:32.48	278.00	31.93	-21.8	-21.6	20.0	0.00e+00	0	43	0	26625441792	14	14734
2026-01-20 21:09:33.49	278.54	31.86	-21.8	-21.6	20.0	0.00e+00	0	43	0	26742882304	14	14684
2026-01-20 21:09:34.50	279.08	31.79	-21.9	-21.7	19.9	0.00e+00	0	43	0	26851934208	14	14831
2026-01-20 21:09:35.51	279.62	31.71	-21.8	-21.6	19.9	0.00e+00	0	43	0	26977763328	14	14726
2026-01-20 21:09:36.51	280.14	31.64	-21.9	-21.7	19.9	0.00e+00	0	43	0	27086815232	14	14904
2026-01-20 21:09:37.52	280.68	31.56	-21.9	-21.7	19.9	0.00e+00	0	43	0	27204255744	14	14878
2026-01-20 21:09:38.53	281.20	31.48	-21.8	-21.7	19.7	0.00e+00	0	43	0	27313307648	14	14793
2026-01-20 21:09:39.54	281.73	31.39	-22.0	-21.8	19.9	0.00e+00	0	43	0	27430748160	14	14985
2026-01-20 21:09:40.54	282.25	31.31	-21.9	-21.7	19.7	0.00e+00	0	43	0	27539800064	14	14938
2026-01-20 21:09:41.55	282.77	31.22	-21.9	-21.7	19.6	0.00e+00	0	43	0	27648851968	14	14903
2026-01-20 21:09:42.56	283.28	31.13	-22.0	-21.8	19.7	0.00e+00	0	43	0	27766292480	14	14977
2026-01-20 21:09:43.57	283.80	31.04	-22.0	-21.8	19.5	0.00e+00	0	43	0	27875344384	14	15011
2026-01-20 21:09:44.58	284.31	30.94	-22.0	-21.8	19.7	0.00e+00	0	43	0	27992784896	14	15102
2026-01-20 21:09:45.59	284.82	30.85	-22.0	-21.9	19.5	0.00e+00	0	43	0	28101836800	14	15142
2026-01-20 21:09:46.60	285.32	30.75	-22.0	-21.9	19.6	0.00e+00	0	43	0	28210888704	14	15164
2026-01-20 21:09:47.60	285.82	30.65	-22.1	-21.9	19.5	0.00e+00	0	43	0	28328329216	14	15186
2026-01-20 21:09:48.61	286.31	30.55	-22.1	-21.9	19.6	0.00e+00	0	43	0	28454158336	14	15259
2026-01-20 21:09:49.62	286.81	30.45	-22.1	-22.0	19.6	0.00e+00	0	43	0	28563210240	14	15316
2026-01-20 21:09:50.63	287.30	30.34	-22.3	-22.1	19.6	0.00e+00	0	43	0	28672262144	15	14707
2026-01-20 21:09:51.63	287.78	30.24	-22.2	-22.0	19.6	0.00e+00	0	43	0	28789702656	15	14551
2026-01-20 21:09:52.64	288.27	30.13	-22.2	-22.0	19.6	0.00e+00	0	43	0	28898754560	15	14554
2026-01-20 21:09:53.65	288.75	30.02	-22.3	-22.2	19.6	0.00e+00	0	43	0	29016195072	15	14794
2026-01-20 21:09:54.66	289.22	29.90	-22.3	-22.1	19.7	0.00e+00	0	43	0	29125246976	15	14692
2026-01-20 21:09:55.67	289.70	29.79	-22.3	-22.1	19.6	0.00e+00	0	43	0	29234298880	15	14702
2026-01-20 21:09:56.68	290.17	29.68	-22.4	-22.2	19.6	0.00e+00	0	43	0	29351739392	15	14895
2026-01-20 21:09:57.68	290.63	29.56	-22.4	-22.2	19.7	0.00e+00	0	43	0	29460791296	15	14913
2026-01-20 21:09:58.69	291.09	29.45	-22.4	-22.2	19.7	0.00e+00	0	43	0	29578231808	15	14889
2026-01-20 21:09:59.70	291.55	29.33	-22.4	-22.3	19.7	0.00e+00	0	43	0	29687283712	15	15013
2026-01-20 21:10:00.71	292.01	29.21	-22.6	-22.4	19.7	0.00e+00	0	43	0	29813112832	15	15214
2026-01-20 21:10:01.71	292.46	29.09	-22.5	-22.3	19.8	0.00e+00	0	43	0	29922164736	15	15105
2026-01-20 21:10:02.72	292.90	28.96	-22.7	-22.5	19.8	0.00e+00	0	43	0	30039605248	16	14441
2026-01-20 21:10:03.73	293.35	28.84	-22.9	-22.7	19.9	0.00e+00	0	43	0	30148657152	16	14893
2026-01-20 21:10:04.74	293.79	28.72	-22.8	-22.6	19.9	0.00e+00	0	43	0	30257709056	16	14639
2026-01-20 21:10:05.75	294.23	28.59	-22.9	-22.7	20.0	0.00e+00	0	43	0	30375149568	16	14808
2026-01-20 21:10:06.75	294.66	28.47	-22.8	-22.6	19.9	0.00e+00	0	43	0	30484201472	16	14637
2026-01-20 21:10:07.76	295.09	28.34	-22.9	-22.7	19.8	0.00e+00	0	43	0	30601641984	16	14936
2026-01-20 21:10:08.77	295.51	28.21	-22.8	-22.6	20.0	0.00e+00	0	43	0	30710693888	16	14771
2026-01-20 21:10:09.78	295.94	28.08	-23.0	-22.8	20.0	0.00e+00	0	43	0	30828134400	16	14997
2026-01-20 21:10:10.79	296.36	27.95	-23.0	-22.8	19.9	0.00e+00	0	43	0	30937186304	16	15076
2026-01-20 21:10:11.79	296.77	27.82	-23.0	-22.8	20.0	0.00e+00	0	43	0	31046238208	16	15021
2026-01-20 21:10:12.80	297.18	27.69	-23.0	-22.8	19.9	0.00e+00	0	43	0	31163678720	16	15004
2026-01-20 21:10:13.81	297.59	27.56	-23.1	-22.9	19.9	0.00e+00	0	43	0	31289507840	16	15227
2026-01-20 21:10:14.82	297.99	27.43	-23.2	-23.0	20.0	0.00e+00	0	43	0	31398559744	17	14514
2026-01-20 21:10:15.82	298.39	27.29	-23.2	-23.1	19.9	0.00e+00	0	43	0	31507611648	17	14626
2026-01-20 21:10:16.84	298.79	27.16	-23.1	-22.9	19.9	0.00e+00	0	43	0	31625052160	17	14381
2026-01-20 21:10:17.85	299.19	27.02	-23.3	-23.1	19.7	0.00e+00	0	43	0	31734104064	17	14680
2026-01-20 21:10:18.85	299.57	26.89	-23.2	-23.0	19.8	0.00e+00	0	43	0	31851544576	17	14495
2026-01-20 21:10:19.86	299.96	26.75	-23.4	-23.2	19.7	0.00e+00	0	43	0	31960596480	17	14925
2026-01-20 21:10:20.87	300.34	26.62	-23.4	-23.3	19.7	0.00e+00	0	43	0	32069648384	17	14966
2026-01-20 21:10:21.87	300.72	26.48	-23.4	-23.2	19.6	0.00e+00	0	43	0	32187088896	17	14793
2026-01-20 21:10:22.88	301.10	26.34	-23.4	-23.2	19.6	0.00e+00	0	43	0	32296140800	17	14857
2026-01-20 21:10:23.89	301.47	26.21	-23.3	-23.1	19.4	0.00e+00	0	43	0	32413581312	17	14725
2026-01-20 21:10:24.90	301.84	26.07	-23.3	-23.1	19.2	0.00e+00	0	43	0	32522633216	17	14705
2026-01-20 21:10:25.91	302.21	25.93	-23.4	-23.2	19.3	0.00e+00	0	43	0	32648462336	17	14898
2026-01-20 21:10:26.92	302.57	25.79	-23.5	-23.3	19.3	0.00e+00	0	43	0	32757514240	17	15046
2026-01-20 21:10:27.93	302.93	25.65	-23.5	-23.3	19.3	0.00e+00	0	43	0	32874954752	17	15032
2026-01-20 21:10:28.94	303.28	25.52	-23.5	-23.3	19.3	0.00e+00	0	43	0	32984006656	17	15026
2026-01-20 21:10:29.94	303.63	25.38	-23.6	-23.4	19.2	0.00e+00	0	43	0	33093058560	17	15268
2026-01-20 21:10:30.95	303.98	25.24	-23.7	-23.5	19.2	0.00e+00	0	43	0	33210499072	18	14558
2026-01-20 21:10:31.96	304.33	25.10	-23.7	-23.6	19.3	0.00e+00	0	43	0	33319550976	18	14624
2026-01-20 21:10:32.97	304.67	24.96	-23.8	-23.6	19.2	0.00e+00	0	43	0	33436991488	18	14753
2026-01-20 21:10:33.98	305.01	24.82	-23.8	-23.6	19.1	0.00e+00	0	43	0	33546043392	18	14673
2026-01-20 21:10:34.98	305.34	24.68	-23.9	-23.7	18.8	0.00e+00	0	43	0	33655095296	18	14845
2026-01-20 21:10:35.99	305.67	24.54	-23.9	-23.7	18.9	0.00e+00	0	43	0	33772535808	18	14842
2026-01-20 21:10:37.00	306.00	24.40	-23.8	-23.7	19.0	0.00e+00	0	43	0	33881587712	18	14822
2026-01-20 21:10:38.01	306.33	24.26	-24.0	-23.8	18.9	0.00e+00	0	43	0	34007416832	18	14999
2026-01-20 21:10:39.02	306.65	24.12	-24.0	-23.8	18.9	0.00e+00	0	43	0	34116468736	18	15114
2026-01-20 21:10:40.03	306.97	23.98	-24.0	-23.9	18.8	0.00e+00	0	43	0	34233909248	18	15139
2026-01-20 21:10:41.03	307.29	23.85	-24.1	-24.0	18.9	0.00e+00	0	43	0	34342961152	18	15309
2026-01-20 21:10:42.04	307.60	23.71	-24.1	-23.9	18.9	0.00e+00	0	43	0	34460401664	19	14407
2026-01-20 21:10:43.05	307.91	23.57	-24.2	-24.0	18.8	0.00e+00	0	43	0	34569453568	19	14486
2026-01-20 21:10:44.05	308.22	23.43	-24.2	-24.0	18.9	0.00e+00	0	43	0	34686894080	19	14562
2026-01-20 21:10:45.06	308.52	23.29	-24.3	-24.2	18.8	0.00e+00	0	43	0	34795945984	19	14809
2026-01-20 21:10:46.07	308.83	23.15	-24.4	-24.2	18.7	0.00e+00	0	43	0	34904997888	19	14842
2026-01-20 21:10:47.08	309.13	23.01	-24.4	-24.3	18.9	0.00e+00	0	43	0	35022438400	19	14993
2026-01-20 21:10:48.08	309.42	22.88	-24.4	-24.2	18.4	0.00e+00	0	43	0	35131490304	19	14855
2026-01-20 21:10:49.09	309.71	22.74	-24.6	-24.4	18.4	0.00e+00	0	43	0	35248930816	19	15193
2026-01-20 21:10:50.09	310.00	22.60	-24.5	-24.3	18.3	0.00e+00	0	43	0	35357982720	19	14997
2026-01-20 21:10:51.10	310.29	22.46	-24.5	-24.3	18.0	0.00e+00	0	43	0	35467034624	19	15108
2026-01-20 21:10:52.11	310.57	22.32	-24.6	-24.5	18.0	0.00e+00	0	43	0	35592863744	19	15297
2026-01-20 21:10:53.12	310.86	22.19	-24.7	-24.5	18.0	0.00e+00	0	43	0	35710304256	19	15360
2026-01-20 21:10:54.12	311.13	22.05	-24.6	-24.4	17.7	0.00e+00	0	43	0	35819356160	20	14415
2026-01-20 21:10:55.13	311.41	21.91	-24.6	-24.4	17.7	0.00e+00	0	43	0	35928408064	20	14326
2026-01-20 21:10:56.14	311.69	21.78	-24.6	-24.4	17.7	0.00e+00	0	43	0	36045848576	20	14367
2026-01-20 21:10:57.15	311.96	21.64	-24.7	-24.5	17.6	0.00e+00	0	43	0	36154900480	20	14504
2026-01-20 21:10:58.15	312.22	21.51	-24.7	-24.6	17.7	0.00e+00	0	43	0	36272340992	20	14639
2026-01-20 21:10:59.16	312.49	21.37	-24.7	-24.6	17.6	0.00e+00	0	43	0	36381392896	20	14643
2026-01-20 21:11:00.17	312.75	21.24	-24.7	-24.5	17.7	0.00e+00	0	43	0	36490444800	20	14595
2026-01-20 21:11:01.18	313.02	21.10	-24.8	-24.6	17.8	0.00e+00	0	43	0	36607885312	20	14688
2026-01-20 21:11:02.19	313.28	20.97	-24.9	-24.7	17.8	0.00e+00	0	43	0	36716937216	20	14898
2026-01-20 21:11:03.20	313.53	20.83	-24.8	-24.7	17.7	0.00e+00	0	43	0	36834377728	20	14809
2026-01-20 21:11:04.20	313.78	20.70	-25.0	-24.8	17.6	0.00e+00	0	43	0	36943429632	20	14995
2026-01-20 21:11:05.21	314.04	20.56	-25.0	-24.8	17.7	0.00e+00	0	43	0	37069258752	20	15041
2026-01-20 21:11:06.22	314.28	20.43	-25.0	-24.8	17.5	0.00e+00	0	43	0	37178310656	20	15099
2026-01-20 21:11:07.22	314.53	20.30	-25.1	-24.9	17.7	0.00e+00	0	43	0	37295751168	20	15290
2026-01-20 21:11:08.23	314.77	20.17	-25.0	-24.8	17.7	0.00e+00	0	43	0	37404803072	20	15114
2026-01-20 21:11:09.24	315.02	20.04	-25.1	-24.9	17.5	0.00e+00	0	43	0	37513854976	20	15290
2026-01-20 21:11:10.25	315.26	19.90	-25.3	-25.1	17.7	0.00e+00	0	43	0	37631295488	21	14657
2026-01-20 21:11:11.26	315.49	19.77	-25.2	-25.1	17.6	0.00e+00	0	43	0	37740347392	21	14624
2026-01-20 21:11:12.27	315.73	19.64	-25.4	-25.2	17.6	0.00e+00	0	43	0	37857787904	21	14844
2026-01-20 21:11:13.27	315.96	19.51	-25.3	-25.1	17.4	0.00e+00	0	43	0	37966839808	21	14739
2026-01-20 21:11:14.28	316.19	19.38	-25.4	-25.2	17.6	0.00e+00	0	43	0	38084280320	21	14857
2026-01-20 21:11:15.29	316.42	19.25	-25.4	-25.2	17.5	0.00e+00	0	43	0	38193332224	21	14869
2026-01-20 21:11:16.29	316.65	19.13	-25.4	-25.3	17.8	0.00e+00	0	43	0	38302384128	21	14955
2026-01-20 21:11:17.30	316.87	19.00	-25.4	-25.2	17.5	0.00e+00	0	43	0	38428213248	21	14921
2026-01-20 21:11:18.31	317.09	18.87	-25.4	-25.2	17.7	0.00e+00	0	43	0	38537265152	21	14913
2026-01-20 21:11:19.32	317.31	18.74	-25.5	-25.4	17.6	0.00e+00	0	43	0	38654705664	21	15133
2026-01-20 21:11:20.33	317.53	18.61	-25.5	-25.3	17.4	0.00e+00	0	43	0	38763757568	21	15099
2026-01-20 21:11:21.34	317.75	18.49	-25.6	-25.5	17.3	0.00e+00	0	43	0	38881198080	21	15299
2026-01-20 21:11:22.34	317.96	18.36	-25.7	-25.5	17.5	0.00e+00	0	43	0	38990249984	21	15430
2026-01-20 21:11:23.35	318.17	18.23	-25.8	-25.6	17.5	0.00e+00	0	43	0	39107690496	22	14757
2026-01-20 21:11:24.36	318.38	18.11	-25.7	-25.5	17.6	0.00e+00	0	43	0	39216742400	22	14549
2026-01-20 21:11:25.37	318.59	17.98	-25.8	-25.6	17.6	0.00e+00	0	43	0	39325794304	22	14682
2026-01-20 21:11:26.38	318.80	17.86	-25.8	-25.7	17.4	0.00e+00	0	43	0	39443234816	22	14799
2026-01-20 21:11:27.39	319.00	17.74	-25.8	-25.7	17.5	0.00e+00	0	43	0	39552286720	22	14787
2026-01-20 21:11:28.39	319.21	17.61	-26.0	-25.8	17.4	0.00e+00	0	43	0	39669727232	22	15023
2026-01-20 21:11:29.40	319.41	17.49	-26.0	-25.8	17.2	0.00e+00	0	43	0	39778779136	22	15079
2026-01-20 21:11:30.41	319.61	17.37	-26.1	-25.9	17.3	0.00e+00	0	43	0	39904608256	22	15184
2026-01-20 21:11:31.42	319.80	17.24	-26.1	-25.9	17.2	1.90e-06	0	43	0	40013660160	22	15240
2026-01-20 21:11:32.43	320.00	17.12	-26.0	-25.9	17.0	0.00e+00	0	43	0	40131100672	22	15164
2026-01-20 21:11:33.43	320.19	17.00	-26.2	-26.0	17.0	0.00e+00	0	43	0	40240152576	22	15397
2026-01-20 21:11:34.44	320.38	16.88	-26.3	-26.1	17.4	0.00e+00	0	43	0	40349204480	23	14714
2026-01-20 21:11:35.45	320.57	16.76	-26.3	-26.2	17.2	0.00e+00	0	43	0	40466644992	23	14777
2026-01-20 21:11:36.46	320.76	16.64	-26.3	-26.2	17.1	0.00e+00	0	43	0	40575696896	23	14791
2026-01-20 21:11:37.47	320.95	16.52	-26.4	-26.3	17.5	0.00e+00	0	43	0	40693137408	23	14950
2026-01-20 21:11:38.48	321.14	16.40	-26.5	-26.3	17.1	0.00e+00	0	43	0	40802189312	23	15030
2026-01-20 21:11:39.48	321.32	16.29	-26.7	-26.5	17.3	0.00e+00	0	43	0	40911241216	23	15359
2026-01-20 21:11:40.49	321.50	16.17	-26.6	-26.4	17.4	0.00e+00	0	43	0	41028681728	23	15257
2026-01-20 21:11:41.50	321.68	16.05	-26.7	-26.5	17.4	0.00e+00	0	43	0	41137733632	23	15350
2026-01-20 21:11:42.50	321.86	15.93	-26.6	-26.5	17.5	0.00e+00	0	43	0	41263562752	24	14473
2026-01-20 21:11:43.51	322.04	15.82	-26.7	-26.5	17.4	0.00e+00	0	43	0	41372614656	24	14555
2026-01-20 21:11:44.52	322.21	15.70	-26.8	-26.6	17.3	0.00e+00	0	43	0	41490055168	24	14709
2026-01-20 21:11:45.53	322.39	15.59	-26.8	-26.7	17.5	0.00e+00	0	43	0	41599107072	24	14790
2026-01-20 21:11:46.54	322.56	15.47	-26.8	-26.6	17.5	0.00e+00	0	43	0	41716547584	24	14758
2026-01-20 21:11:47.54	322.73	15.36	-27.0	-26.8	17.3	0.00e+00	0	43	0	41825599488	24	15053
2026-01-20 21:11:48.55	322.90	15.24	-27.1	-26.9	17.4	0.00e+00	0	43	0	41943040000	24	15193
2026-01-20 21:11:49.56	323.07	15.13	-27.1	-26.9	17.6	0.00e+00	0	43	0	42052091904	24	15281
2026-01-20 21:11:50.57	323.24	15.02	-27.0	-26.9	17.8	0.00e+00	0	43	0	42161143808	24	15127
2026-01-20 21:11:51.58	323.40	14.90	-27.1	-26.9	17.8	0.00e+00	0	43	0	42278584320	24	15194
2026-01-20 21:11:52.58	323.56	14.79	-27.2	-27.0	17.7	0.00e+00	0	43	0	42387636224	25	14483
2026-01-20 21:11:53.59	323.73	14.68	-27.2	-27.1	17.8	0.00e+00	0	43	0	42505076736	25	14613
2026-01-20 21:11:54.60	323.89	14.57	-27.3	-27.1	17.8	0.00e+00	0	43	0	42614128640	25	14755
2026-01-20 21:11:55.61	324.05	14.46	-27.3	-27.2	17.7	0.00e+00	0	43	0	42739957760	25	14784
2026-01-20 21:11:56.61	324.21	14.35	-27.4	-27.3	17.7	0.00e+00	0	43	0	42849009664	25	14975
2026-01-20 21:11:57.62	324.36	14.24	-27.4	-27.2	17.8	0.00e+00	0	43	0	42966450176	25	14841
2026-01-20 21:11:58.63	324.52	14.13	-27.3	-27.1	17.9	0.00e+00	0	43	0	43075502080	25	14770
2026-01-20 21:11:59.64	324.67	14.02	-27.5	-27.3	17.8	0.00e+00	0	43	0	43184553984	25	15005
2026-01-20 21:12:00.64	324.83	13.91	-27.5	-27.3	17.7	0.00e+00	0	43	0	43301994496	25	15053
2026-01-20 21:12:01.65	324.98	13.80	-27.6	-27.5	17.7	0.00e+00	0	43	0	43411046400	25	15310
2026-01-20 21:12:02.66	325.13	13.70	-27.6	-27.4	17.9	0.00e+00	0	43	0	43528486912	25	15269
2026-01-20 21:12:03.67	325.28	13.59	-27.6	-27.5	17.8	1.90e-06	0	43	0	43637538816	25	15356
2026-01-20 21:12:04.68	325.43	13.48	-27.7	-27.5	17.8	1.90e-06	0	43	0	43746590720	25	15394
2026-01-20 21:12:05.68	325.58	13.38	-27.7	-27.6	18.0	1.90e-06	0	43	0	43864031232	26	14636
2026-01-20 21:12:06.69	325.72	13.27	-28.0	-27.8	17.8	0.00e+00	0	43	0	43973083136	26	15025
2026-01-20 21:12:07.70	325.87	13.16	-27.8	-27.7	18.0	0.00e+00	0	43	0	44090523648	26	14783
2026-01-20 21:12:08.71	326.01	13.06	-28.0	-27.8	18.9	0.00e+00	0	43	0	44207964160	26	15106
2026-01-20 21:12:09.72	326.15	12.95	-53.2	-55.6	6.2	0.00e+00	0	43	104	44266684416	76	20800
2026-01-20 21:12:10.72	326.29	12.85	-53.2	-55.6	6.2	0.00e+00	0	43	104	44266684416	76	20642
2026-01-20 21:12:11.73	326.43	12.75	-53.2	-55.5	6.2	0.00e+00	0	43	104	44266684416	77	19438
2026-01-20 21:12:12.74	326.57	12.64	-53.3	-55.5	6.2	0.00e+00	0	43	104	44266684416	77	19462
2026-01-20 21:12:13.75	326.71	12.54	-53.4	-55.5	6.2	0.00e+00	0	42	104	44266684416	77	19476
2026-01-20 21:12:14.75	326.85	12.44	-53.4	-55.6	6.2	0.00e+00	0	43	104	44266684416	77	19492
2026-01-20 21:12:15.76	326.98	12.34	-53.3	-55.5	6.2	0.00e+00	0	43	104	44266684416	77	19429
2026-01-20 21:12:16.77	327.12	12.24	-53.4	-55.5	6.2	0.00e+00	0	42	104	44266684416	77	19469
2026-01-20 21:12:17.78	327.25	12.13	-53.3	-55.5	6.2	0.00e+00	0	43	104	44266684416	77	19375
2026-01-20 21:12:18.78	327.38	12.03	-53.4	-55.5	6.2	0.00e+00	0	43	104	44266684416	77	19346
2026-01-20 21:12:19.79	327.52	11.93	-53.2	-55.5	6.2	0.00e+00	0	42	104	44266684416	77	19330
2026-01-20 21:12:20.80	327.65	11.83	-53.4	-55.5	6.2	0.00e+00	0	43	104	44266684416	77	19385
2026-01-20 21:12:21.81	327.78	11.73	-53.3	-55.5	6.2	0.00e+00	0	43	104	44266684416	77	19350
2026-01-20 21:12:22.82	327.91	11.64	-53.3	-55.5	6.2	0.00e+00	0	43	104	44266684416	77	19327
2026-01-20 21:12:23.83	328.03	11.54	-53.3	-55.5	6.2	0.00e+00	0	42	104	44266684416	77	19297
2026-01-20 21:12:24.83	328.16	11.44	-53.3	-55.5	6.2	0.00e+00	0	42	104	44266684416	77	19294
2026-01-20 21:12:25.84	328.28	11.34	-53.2	-55.5	6.2	0.00e+00	0	42	104	44266684416	77	19274
2026-01-20 21:12:26.85	328.41	11.24	-53.3	-55.4	6.2	0.00e+00	0	42	104	44266684416	77	19209
2026-01-20 21:12:27.86	328.53	11.15	-53.2	-55.4	6.2	0.00e+00	0	42	104	44266684416	77	19242
2026-01-20 21:12:28.86	328.66	11.05	-53.3	-55.4	6.2	0.00e+00	0	42	104	44266684416	77	19192
2026-01-20 21:12:29.87	328.78	10.95	-53.2	-55.4	6.2	0.00e+00	0	43	104	44266684416	77	19200
2026-01-20 21:12:30.88	328.90	10.86	-53.3	-55.4	6.2	0.00e+00	0	42	104	44266684416	77	19128
2026-01-20 21:12:31.89	329.02	10.76	-53.2	-55.4	6.2	0.00e+00	0	42	104	44266684416	77	19172
2026-01-20 21:12:32.89	329.14	10.67	-53.3	-55.4	6.2	0.00e+00	0	42	104	44266684416	77	19115
2026-01-20 21:12:33.90	329.26	10.57	-53.2	-55.4	6.2	0.00e+00	0	42	104	44266684416	77	19104
2026-01-20 21:12:34.91	329.37	10.48	-53.2	-55.4	6.2	0.00e+00	0	42	104	44266684416	77	19057
2026-01-20 21:12:35.92	329.49	10.38	-53.2	-55.4	6.2	0.00e+00	0	42	104	44266684416	77	19152
2026-01-20 21:12:36.93	329.61	10.29	-53.2	-55.4	6.2	0.00e+00	0	42	104	44266684416	77	19082
2026-01-20 21:12:37.93	329.72	10.20	-53.2	-55.3	6.2	0.00e+00	0	42	104	44266684416	77	19035
2026-01-20 21:12:38.94	329.84	10.10	-53.2	-55.3	6.2	0.00e+00	0	42	104	44266684416	77	18964
2026-01-20 21:12:39.95	329.95	10.01	-53.1	-55.3	6.2	0.00e+00	0	42	104	44266684416	77	18976
2026-01-20 21:12:40.96	330.06	9.92	-53.2	-55.3	6.2	0.00e+00	0	43	104	44266684416	77	18935
2026-01-20 21:12:41.96	330.17	9.83	-53.1	-55.3	6.2	0.00e+00	0	42	104	44266684416	77	19002
2026-01-20 21:12:42.97	330.28	9.74	-53.2	-55.3	6.2	0.00e+00	0	42	104	44266684416	77	18901
2026-01-20 21:12:43.98	330.39	9.65	-53.1	-55.3	6.2	0.00e+00	0	42	104	44266684416	77	18943
2026-01-20 21:12:44.99	330.50	9.56	-53.1	-55.3	6.2	0.00e+00	0	42	104	44266684416	77	18899
2026-01-20 21:12:46.00	330.61	9.46	-53.1	-55.3	6.2	0.00e+00	0	42	104	44266684416	77	18905
2026-01-20 21:12:47.01	330.72	9.37	-53.1	-55.2	6.2	0.00e+00	0	42	104	44266684416	77	18789
2026-01-20 21:12:48.01	330.83	9.29	-53.1	-55.3	6.2	0.00e+00	0	42	104	44266684416	77	18896
2026-01-20 21:12:49.02	330.93	9.20	-53.1	-55.3	6.2	0.00e+00	0	42	104	44266684416	77	18831
2026-01-20 21:12:50.03	331.04	9.11	-53.1	-55.3	6.2	0.00e+00	0	42	104	44266684416	77	18854
2026-01-20 21:12:51.04	331.14	9.02	-53.1	-55.2	6.2	0.00e+00	0	42	104	44266684416	77	18763
2026-01-20 21:12:52.04	331.25	8.93	-53.0	-55.2	6.2	0.00e+00	0	42	104	44266684416	77	18781
2026-01-20 21:12:53.06	331.35	8.84	-53.1	-55.2	6.2	0.00e+00	0	42	104	44266684416	77	18755
2026-01-20 21:12:54.06	331.45	8.75	-53.1	-55.2	6.2	0.00e+00	0	42	104	44266684416	77	18724
2026-01-20 21:12:55.06	331.55	8.67	-53.1	-55.2	6.2	0.00e+00	0	42	104	44266684416	77	18748
2026-01-20 21:12:56.07	331.65	8.58	-53.1	-55.2	6.2	0.00e+00	0	42	104	44266684416	77	18781
2026-01-20 21:12:57.08	331.75	8.49	-53.1	-55.2	6.2	0.00e+00	0	42	104	44266684416	77	18645
2026-01-20 21:12:58.09	331.85	8.41	-53.0	-55.2	6.2	0.00e+00	0	42	104	44266684416	77	18653
2026-01-20 21:12:59.10	331.95	8.32	-53.0	-55.2	6.2	0.00e+00	0	42	104	44266684416	77	18644
2026-01-20 21:13:00.11	332.05	8.24	-53.0	-55.2	6.2	0.00e+00	0	42	104	44266684416	77	18698
2026-01-20 21:13:01.11	332.15	8.15	-53.0	-55.1	6.2	0.00e+00	0	42	104	44266684416	77	18595
2026-01-20 21:13:02.12	332.25	8.07	-53.0	-55.2	6.2	0.00e+00	0	42	104	44266684416	77	18687
2026-01-20 21:13:03.13	332.34	7.98	-53.0	-55.2	6.2	0.00e+00	0	42	104	44266684416	77	18615
2026-01-20 21:13:04.14	332.44	7.90	-53.0	-55.2	6.2	0.00e+00	0	42	104	44266684416	77	18614
2026-01-20 21:13:05.15	332.53	7.81	-53.0	-55.2	6.2	0.00e+00	0	42	104	44266684416	77	18603
2026-01-20 21:13:06.16	332.63	7.73	-53.0	-55.2	6.2	0.00e+00	0	42	104	44266684416	77	18636
2026-01-20 21:13:07.16	332.72	7.64	-53.0	-55.1	6.2	0.00e+00	0	42	104	44266684416	77	18499
2026-01-20 21:13:08.17	332.82	7.56	-52.9	-55.1	6.2	0.00e+00	0	42	104	44266684416	77	18551
2026-01-20 21:13:09.17	332.91	7.48	-53.0	-55.1	6.2	0.00e+00	0	42	104	44266684416	77	18483
2026-01-20 21:13:10.18	333.00	7.40	-53.0	-55.1	6.2	0.00e+00	0	42	104	44266684416	77	18533
2026-01-20 21:13:11.19	333.09	7.31	-52.9	-55.1	6.2	0.00e+00	0	42	104	44266684416	77	18426
2026-01-20 21:13:12.20	333.18	7.23	-53.0	-55.1	6.2	0.00e+00	0	42	104	44266684416	77	18567
2026-01-20 21:13:13.21	333.27	7.15	-52.9	-55.1	6.2	0.00e+00	0	42	104	44266684416	77	18446
2026-01-20 21:13:14.22	333.36	7.07	-52.9	-55.1	6.2	0.00e+00	0	42	104	44266684416	77	18464
2026-01-20 21:13:15.23	333.45	6.99	-52.9	-55.0	6.2	0.00e+00	0	42	104	44266684416	77	18381
2026-01-20 21:13:16.23	333.54	6.91	-53.0	-55.1	6.2	0.00e+00	0	42	104	44266684416	77	18525
2026-01-20 21:13:17.24	333.63	6.83	-52.9	-55.0	6.2	0.00e+00	0	42	104	44266684416	77	18353
2026-01-20 21:13:18.24	333.71	6.75	-52.9	-55.1	6.2	0.00e+00	0	42	104	44266684416	77	18409
2026-01-20 21:13:19.25	333.80	6.67	-52.9	-55.0	6.2	0.00e+00	0	42	104	44266684416	77	18314
2026-01-20 21:13:20.26	333.89	6.59	-52.9	-55.1	6.2	0.00e+00	0	42	104	44266684416	77	18476
2026-01-20 21:13:21.27	333.97	6.51	-52.9	-55.0	6.2	0.00e+00	0	42	104	44266684416	77	18286
2026-01-20 21:13:22.28	334.06	6.43	-52.9	-55.0	6.2	0.00e+00	0	42	104	44266684416	77	18355
2026-01-20 21:13:23.28	334.14	6.35	-52.8	-54.9	6.2	0.00e+00	0	42	104	44266684416	77	18141
2026-01-20 21:13:24.29	334.23	6.27	-52.9	-55.0	6.2	0.00e+00	0	42	104	44266684416	77	18389
2026-01-20 21:13:25.30	334.31	6.19	-52.7	-54.8	6.2	0.00e+00	0	42	104	44266684416	77	17878
2026-01-20 21:13:26.31	334.39	6.11	-52.8	-54.9	6.2	0.00e+00	0	42	104	44266684416	77	18148
2026-01-20 21:13:27.32	334.48	6.03	-52.5	-54.6	6.2	0.00e+00	0	42	104	44266684416	76	18543
2026-01-20 21:13:28.32	334.56	5.96	-52.8	-54.9	6.2	0.00e+00	0	42	104	44266684416	76	19248
2026-01-20 21:13:29.33	334.64	5.88	-52.0	-54.1	6.2	0.00e+00	0	42	104	44266684416	76	17520
2026-01-20 21:13:30.34	334.72	5.80	-51.8	-53.9	6.2	0.00e+00	0	42	104	44266684416	75	18102
2026-01-20 21:13:31.34	334.80	5.73	-51.8	-53.9	6.2	0.00e+00	0	42	104	44266684416	75	18117
2026-01-20 21:13:32.35	334.88	5.65	-52.0	-54.2	6.2	0.00e+00	0	42	104	44266684416	75	18620
2026-01-20 21:13:33.36	334.96	5.57	-52.1	-54.2	6.2	0.00e+00	0	42	104	44266684416	74	19800
2026-01-20 21:13:34.37	335.04	5.50	-52.7	-54.8	6.2	0.00e+00	0	42	104	44266684416	76	18924
2026-01-20 21:13:35.38	335.12	5.42	-52.1	-54.2	6.2	0.00e+00	0	42	104	44266684416	76	17671
2026-01-20 21:13:36.38	335.20	5.35	-51.4	-53.5	6.2	0.00e+00	0	42	104	44266684416	74	18349
2026-01-20 21:13:37.39	335.28	5.27	-51.4	-53.6	6.2	0.00e+00	0	42	104	44266684416	74	18432
2026-01-20 21:13:38.40	335.35	5.20	-51.6	-53.7	6.2	0.00e+00	0	42	104	44266684416	74	18754
2026-01-20 21:13:39.41	335.43	5.12	-51.7	-53.9	6.2	0.00e+00	0	42	104	44266684416	74	19042
2026-01-20 21:13:40.42	335.51	5.05	-52.2	-54.3	6.2	0.00e+00	0	42	104	44266684416	74	20099
2026-01-20 21:13:41.43	335.58	4.97	-52.3	-54.5	6.2	0.00e+00	0	42	104	44266684416	75	19340
2026-01-20 21:13:42.43	335.66	4.90	-53.0	-55.1	6.2	0.00e+00	0	42	104	44266684416	76	19671
2026-01-20 21:13:43.44	335.73	4.82	-53.2	-55.4	6.2	0.00e+00	0	42	104	44266684416	77	19103
2026-01-20 21:13:44.45	335.81	4.75	-53.4	-55.6	6.2	0.00e+00	0	42	104	44266684416	77	19582
2026-01-20 21:13:45.46	335.88	4.68	-53.5	-55.6	6.2	0.00e+00	0	42	104	44266684416	77	19615
2026-01-20 21:13:46.47	335.95	4.60	-53.6	-55.7	6.2	0.00e+00	0	42	104	44266684416	77	19827
2026-01-20 21:13:47.48	336.03	4.53	-53.6	-55.8	6.2	0.00e+00	0	42	104	44266684416	77	19974
2026-01-20 21:13:48.48	336.10	4.46	-53.7	-55.8	6.2	0.00e+00	0	42	104	44266684416	77	20036
2026-01-20 21:13:49.49	336.17	4.38	-53.7	-55.8	6.2	0.00e+00	0	42	104	44266684416	77	20098
2026-01-20 21:13:50.50	336.25	4.31	-53.7	-55.8	6.2	0.00e+00	0	42	104	44266684416	77	20159
2026-01-20 21:13:51.51	336.32	4.24	-53.7	-55.8	6.2	0.00e+00	0	42	104	44266684416	77	20085
2026-01-20 21:13:52.52	336.39	4.17	-53.6	-55.8	6.2	0.00e+00	0	42	104	44266684416	77	20003
2026-01-20 21:13:53.53	336.46	4.10	-53.6	-55.7	6.2	0.00e+00	0	42	104	44266684416	77	19840
2026-01-20 21:13:54.54	336.53	4.02	-53.5	-55.7	6.2	0.00e+00	0	42	104	44266684416	77	19708
2026-01-20 21:13:55.55	336.60	3.95	-53.6	-55.7	6.2	0.00e+00	0	42	104	44266684416	77	19762
2026-01-20 21:13:56.55	336.67	3.88	-53.6	-55.7	6.2	0.00e+00	0	42	104	44266684416	77	19891
2026-01-20 21:13:57.56	336.74	3.81	-53.6	-55.8	6.2	0.00e+00	0	42	104	44266684416	77	19947
2026-01-20 21:13:58.57	336.81	3.74	-53.6	-55.8	6.2	0.00e+00	0	42	104	44266684416	77	19946
2026-01-20 21:13:59.58	336.88	3.67	-53.7	-55.8	6.2	0.00e+00	0	42	104	44266684416	77	20047
2026-01-20 21:14:00.59	336.94	3.60	-53.7	-55.8	6.2	0.00e+00	0	42	104	44266684416	77	20052
2026-01-20 21:14:01.59	337.01	3.53	-53.7	-55.8	6.2	0.00e+00	0	42	104	44266684416	77	20054
2026-01-20 21:14:02.60	337.08	3.46	-53.7	-55.8	6.2	0.00e+00	0	42	104	44266684416	77	19991
2026-01-20 21:14:03.61	337.15	3.39	-53.6	-55.8	6.2	0.00e+00	0	42	104	44266684416	77	19978
2026-01-20 21:14:04.62	337.21	3.32	-53.6	-55.7	6.2	0.00e+00	0	42	104	44266684416	77	19911
2026-01-20 21:14:05.62	337.28	3.25	-53.6	-55.8	6.2	0.00e+00	0	42	104	44266684416	77	19980
2026-01-20 21:14:06.63	337.34	3.18	-53.6	-55.8	6.2	0.00e+00	0	42	104	44266684416	77	19972
2026-01-20 21:14:07.64	337.41	3.11	-53.6	-55.7	6.2	0.00e+00	0	42	104	44266684416	77	19905
2026-01-20 21:14:08.65	337.48	3.05	-53.6	-55.8	6.2	0.00e+00	0	42	104	44266684416	77	19945
2026-01-20 21:14:09.66	337.54	2.98	-53.6	-55.7	6.2	0.00e+00	0	42	104	44266684416	77	19921
2026-01-20 21:14:10.66	337.60	2.91	-53.6	-55.7	6.2	0.00e+00	0	42	104	44266684416	77	19906
2026-01-20 21:14:11.67	337.67	2.84	-53.6	-55.7	6.2	0.00e+00	0	42	104	44266684416	77	19906
2026-01-20 21:14:12.68	337.73	2.77	-53.6	-55.7	6.2	0.00e+00	0	42	104	44266684416	77	19899
2026-01-20 21:14:13.69	337.80	2.71	-53.6	-55.7	6.2	0.00e+00	0	42	104	44266684416	77	19855
2026-01-20 21:14:14.69	337.86	2.64	-53.6	-55.7	6.2	0.00e+00	0	42	104	44266684416	77	19912
2026-01-20 21:14:15.70	337.92	2.57	-53.6	-55.7	6.2	0.00e+00	0	42	104	44266684416	77	19908
2026-01-20 21:14:16.71	337.98	2.50	-53.6	-55.7	6.2	0.00e+00	0	42	104	44266684416	77	19822
2026-01-20 21:14:17.72	338.05	2.44	-53.6	-55.7	6.2	0.00e+00	0	42	104	44266684416	77	19829
2026-01-20 21:14:18.73	338.11	2.37	-53.6	-55.7	6.2	0.00e+00	0	42	104	44266684416	77	19803
2026-01-20 21:14:19.74	338.17	2.30	-53.6	-55.7	6.2	0.00e+00	0	42	104	44266684416	77	19807
2026-01-20 21:14:20.74	338.23	2.24	-53.6	-55.7	6.2	0.00e+00	0	42	104	44266684416	77	19789
2026-01-20 21:14:21.75	338.29	2.17	-53.6	-55.7	6.2	0.00e+00	0	42	104	44266684416	77	19871
2026-01-20 21:14:22.75	338.35	2.11	-53.6	-55.7	6.2	0.00e+00	0	42	104	44266684416	77	19857
2026-01-20 21:14:23.76	338.41	2.04	-53.6	-55.7	6.2	0.00e+00	0	42	104	44266684416	77	19799
2026-01-20 21:14:24.77	338.47	1.97	-53.6	-55.7	6.2	0.00e+00	0	42	104	44266684416	77	19804
2026-01-20 21:14:25.78	338.53	1.91	-53.6	-55.7	6.2	0.00e+00	0	42	104	44266684416	77	19709

#Closed at: 2026-01-20 21:14:26
#Recorded file [44266 MB]: D:/lorett/data/31041_260121_000354.dat