passes_logs/2026/01/06/R2.0S_Moscow/R2.0S_Moscow__20260106_014344_FENGYUN_3D_rec.log

#Pass ID: 20260106_014344_FENGYUN 3D
#Satellite: FENGYUN 3D
#Configuration: FENGYUN 3D
#almurnet v.1.7.20251203
#Start time: 2026-01-06 01:46:03

#Version: 2.2.20231116
#Station: R2.0S_Moscow
#Location: 37.707566 lon 55.798166 lat
#TLE: 1 43010U 17072A   26005.48915933 -.00000051  00000+0 -21983-5 0  9995
#TLE: 2 43010  98.9919 337.1582 0002001 124.6377 235.4988 14.19691925421909

#Time	Az	El	Level	Level2	SNR	BER	BlckErr	Temp	State	Recorded	gain1	gain2
2026-01-06 01:46:03.59	17.18	12.76	-46.1	-64.9	3.8	7.45e-01	0	56	0	0	63	32097
2026-01-06 01:46:04.61	17.19	12.86	-45.5	-57.4	3.8	8.46e-01	0	56	104	0	62	14262
2026-01-06 01:46:05.62	17.19	12.96	-45.4	-57.2	3.8	8.45e-01	0	56	104	0	62	14042
2026-01-06 01:46:06.63	17.19	13.05	-45.4	-57.2	3.8	8.46e-01	0	56	104	0	62	14027
2026-01-06 01:46:07.64	17.20	13.15	-45.3	-57.1	3.8	8.46e-01	0	56	104	0	62	13866
2026-01-06 01:46:08.65	17.20	13.25	-45.2	-57.0	3.8	8.47e-01	0	56	104	0	62	13698
2026-01-06 01:46:09.66	17.21	13.35	-45.0	-56.7	3.8	8.47e-01	0	56	104	0	62	13208
2026-01-06 01:46:10.67	17.21	13.45	-44.8	-56.6	3.8	8.45e-01	0	56	104	0	61	13859
2026-01-06 01:46:11.68	17.21	13.55	-44.7	-56.1	3.8	8.46e-01	0	56	104	0	61	13082
2026-01-06 01:46:12.69	17.22	13.66	-44.7	-55.7	3.8	8.47e-01	0	56	104	0	61	12432
2026-01-06 01:46:13.71	17.22	13.76	-44.7	-55.3	3.8	8.47e-01	0	56	104	0	61	11861
2026-01-06 01:46:14.72	17.23	13.86	-44.6	-54.8	3.8	8.46e-01	0	56	104	0	61	11202
2026-01-06 01:46:15.73	17.23	13.96	-44.5	-54.2	3.9	8.44e-01	0	56	104	0	61	10524
2026-01-06 01:46:16.74	17.24	14.07	-44.5	-53.8	4.0	8.43e-01	0	56	104	0	60	10578
2026-01-06 01:46:17.75	17.24	14.17	-44.4	-53.3	4.1	8.41e-01	0	56	0	0	60	9955
2026-01-06 01:46:18.76	17.24	14.27	-44.4	-53.0	4.2	8.39e-01	0	56	0	0	60	9667
2026-01-06 01:46:19.77	17.25	14.38	-44.3	-52.7	4.3	8.34e-01	0	56	0	0	60	9297
2026-01-06 01:46:20.78	17.25	14.48	-44.3	-52.5	4.3	8.31e-01	0	56	0	0	60	9103
2026-01-06 01:46:21.80	17.26	14.59	-44.3	-52.5	4.3	8.30e-01	0	56	0	0	60	9138
2026-01-06 01:46:22.81	17.26	14.70	-44.3	-52.6	4.3	8.32e-01	0	56	0	0	60	9181
2026-01-06 01:46:23.82	17.26	14.80	-44.3	-52.7	4.3	8.32e-01	0	56	0	0	60	9343
2026-01-06 01:46:24.83	17.27	14.91	-44.3	-52.7	4.3	8.33e-01	0	56	0	0	60	9348
2026-01-06 01:46:25.84	17.27	15.02	-44.3	-52.7	4.3	8.35e-01	0	56	0	0	60	9290
2026-01-06 01:46:26.85	17.28	15.12	-44.3	-52.6	4.3	8.33e-01	0	56	0	0	60	9253
2026-01-06 01:46:27.86	17.28	15.23	-44.3	-52.5	4.3	8.29e-01	0	56	0	0	60	9111
2026-01-06 01:46:28.87	17.28	15.34	-44.2	-52.3	4.4	8.29e-01	0	56	0	0	60	8935
2026-01-06 01:46:29.88	17.29	15.45	-44.1	-51.9	4.6	8.19e-01	0	56	0	0	60	8498
2026-01-06 01:46:30.89	17.29	15.56	-44.1	-51.5	4.7	8.04e-01	0	56	0	0	60	8106
2026-01-06 01:46:31.90	17.30	15.67	-44.0	-50.8	5.0	7.70e-01	0	56	0	0	59	7958
2026-01-06 01:46:32.92	17.30	15.78	-43.8	-50.2	5.4	7.35e-01	0	56	0	0	59	7416
2026-01-06 01:46:33.93	17.31	15.89	-43.7	-49.7	5.8	5.49e-01	0	56	0	2097152	59	6971
2026-01-06 01:46:34.94	17.31	16.00	-43.5	-49.2	6.1	3.58e-01	0	56	0	7340032	59	6598
2026-01-06 01:46:35.95	17.31	16.12	-43.4	-48.8	6.5	2.94e-01	0	56	0	13631488	58	6682
2026-01-06 01:46:36.96	17.32	16.23	-43.3	-48.5	6.7	2.15e-01	0	56	0	18874368	58	6473
2026-01-06 01:46:37.97	17.32	16.34	-43.3	-48.6	6.6	2.20e-01	0	56	0	25165824	58	6538
2026-01-06 01:46:38.98	17.33	16.46	-43.5	-49.0	6.3	2.82e-01	0	56	0	30408704	58	6823
2026-01-06 01:46:39.99	17.33	16.57	-43.7	-49.6	5.9	3.44e-01	0	56	0	36700160	58	7326
2026-01-06 01:46:41.00	17.33	16.69	-44.0	-50.7	5.0	7.44e-01	0	57	0	38797312	58	8365
2026-01-06 01:46:42.02	17.34	16.80	-44.3	-52.3	4.4	8.14e-01	0	56	0	38797312	59	9398
2026-01-06 01:46:43.03	17.34	16.92	-44.4	-53.2	4.1	8.40e-01	0	56	0	38797312	59	10477
2026-01-06 01:46:44.04	17.35	17.03	-44.2	-51.9	4.5	8.33e-01	0	56	0	38797312	59	9068
2026-01-06 01:46:45.05	17.35	17.15	-43.5	-49.1	6.2	5.11e-01	0	56	0	40894464	59	6550
2026-01-06 01:46:46.06	17.35	17.27	-42.4	-46.3	8.8	8.39e-02	0	56	0	47185920	56	5640
2026-01-06 01:46:47.07	17.36	17.39	-40.9	-43.8	11.2	3.15e-03	0	56	0	52428800	53	5028
2026-01-06 01:46:48.08	17.36	17.51	-39.7	-41.9	13.3	1.18e-04	0	56	0	57671680	51	4545
2026-01-06 01:46:49.09	17.37	17.63	-38.5	-40.4	14.9	2.20e-06	0	56	0	63963136	49	4277
2026-01-06 01:46:50.10	17.37	17.75	-37.3	-38.9	16.3	0.00e+00	0	56	0	69206016	46	4250
2026-01-06 01:46:51.11	17.37	17.87	-36.5	-37.9	17.2	0.00e+00	0	56	0	75497472	45	4037
2026-01-06 01:46:52.13	17.38	17.99	-35.6	-37.0	18.0	0.00e+00	0	56	0	80740352	43	4078
2026-01-06 01:46:53.14	17.38	18.11	-35.1	-36.4	18.6	0.00e+00	0	56	0	85983232	42	4046
2026-01-06 01:46:54.15	17.39	18.23	-34.8	-36.0	18.9	0.00e+00	0	56	0	92274688	41	4098
2026-01-06 01:46:55.16	17.39	18.36	-34.6	-35.8	19.1	0.00e+00	0	56	0	97517568	41	3996
2026-01-06 01:46:56.17	17.40	18.48	-34.7	-35.9	19.1	0.00e+00	0	56	0	103809024	41	4033
2026-01-06 01:46:57.18	17.40	18.60	-34.8	-36.1	18.9	0.00e+00	0	56	0	109051904	41	4119
2026-01-06 01:46:58.19	17.40	18.73	-35.2	-36.5	18.5	0.00e+00	0	56	0	115343360	41	4324
2026-01-06 01:46:59.20	17.41	18.85	-35.8	-37.1	17.9	0.00e+00	0	56	0	120586240	42	4387
2026-01-06 01:47:00.21	17.41	18.98	-38.7	-40.6	14.5	2.51e-05	0	56	0	126877696	49	4363
2026-01-06 01:47:01.22	17.42	19.11	-36.9	-38.5	16.7	0.00e+00	0	56	0	132120576	45	4301
2026-01-06 01:47:02.23	17.42	19.23	-36.2	-37.6	17.7	0.00e+00	0	56	0	137363456	44	4118
2026-01-06 01:47:03.24	17.42	19.36	-42.0	-45.7	9.1	2.36e-02	0	56	0	143654912	55	5569
2026-01-06 01:47:04.25	17.43	19.49	-34.7	-36.0	19.1	0.00e+00	0	56	0	148897792	41	4058
2026-01-06 01:47:05.26	17.43	19.62	-34.6	-35.8	19.2	0.00e+00	0	56	0	155189248	41	3985
2026-01-06 01:47:06.27	17.44	19.75	-34.4	-35.6	19.4	0.00e+00	0	56	0	160432128	40	4121
2026-01-06 01:47:07.28	17.44	19.88	-34.3	-35.5	19.5	0.00e+00	0	57	0	165675008	40	4089
2026-01-06 01:47:08.29	17.44	20.01	-34.4	-35.5	19.5	0.00e+00	0	57	0	171966464	40	4097
2026-01-06 01:47:09.30	17.45	20.14	-34.4	-35.6	19.4	0.00e+00	0	56	0	177209344	40	4105
2026-01-06 01:47:10.31	17.45	20.28	-34.3	-35.4	19.6	0.00e+00	0	56	0	183500800	40	4049
2026-01-06 01:47:11.32	17.46	20.41	-34.3	-35.4	19.6	0.00e+00	0	56	0	188743680	40	4051
2026-01-06 01:47:12.33	17.46	20.55	-34.3	-35.4	19.6	0.00e+00	0	56	0	193986560	40	4046
2026-01-06 01:47:13.35	17.46	20.68	-34.3	-35.4	19.6	0.00e+00	0	56	0	200278016	40	4039
2026-01-06 01:47:14.35	17.47	20.82	-34.2	-35.4	19.6	0.00e+00	0	56	0	205520896	40	4021
2026-01-06 01:47:15.36	17.47	20.95	-34.2	-35.4	19.7	0.00e+00	0	56	0	211812352	40	4009
2026-01-06 01:47:16.37	17.48	21.09	-34.0	-35.1	19.9	0.00e+00	0	56	0	217055232	40	3911
2026-01-06 01:47:17.38	17.48	21.23	-34.1	-35.3	19.8	0.00e+00	0	56	0	223346688	39	4218
2026-01-06 01:47:18.39	17.49	21.37	-34.1	-35.3	19.8	0.00e+00	0	56	0	228589568	39	4213
2026-01-06 01:47:19.40	17.49	21.51	-34.1	-35.3	19.8	0.00e+00	0	57	0	234881024	39	4219
2026-01-06 01:47:20.41	17.49	21.65	-34.1	-35.3	19.8	0.00e+00	0	56	0	240123904	39	4214
2026-01-06 01:47:21.42	17.50	21.79	-34.1	-35.3	19.8	0.00e+00	0	56	0	245366784	39	4216
2026-01-06 01:47:22.43	17.50	21.93	-34.1	-35.3	19.8	0.00e+00	0	56	0	251658240	39	4206
2026-01-06 01:47:23.44	17.51	22.07	-34.0	-35.2	19.9	0.00e+00	0	56	0	256901120	39	4171
2026-01-06 01:47:24.44	17.51	22.21	-34.1	-35.2	19.9	0.00e+00	0	56	0	263192576	39	4188
2026-01-06 01:47:25.45	17.51	22.36	-33.9	-35.1	20.0	0.00e+00	0	56	0	268435456	39	4120
2026-01-06 01:47:26.46	17.52	22.50	-34.0	-35.2	20.0	0.00e+00	0	56	0	273678336	39	4154
2026-01-06 01:47:27.47	17.52	22.65	-33.9	-35.0	20.1	0.00e+00	0	56	0	279969792	39	4090
2026-01-06 01:47:28.48	17.53	22.80	-33.9	-35.1	20.1	0.00e+00	0	56	0	285212672	39	4106
2026-01-06 01:47:29.49	17.53	22.94	-33.8	-35.0	20.2	0.00e+00	0	56	0	290455552	39	4071
2026-01-06 01:47:30.50	17.53	23.09	-33.8	-35.0	20.1	0.00e+00	0	56	0	296747008	39	4066
2026-01-06 01:47:31.51	17.54	23.24	-33.8	-34.9	20.2	0.00e+00	0	56	0	301989888	39	4040
2026-01-06 01:47:32.52	17.54	23.39	-33.8	-34.9	20.3	0.00e+00	0	56	0	308281344	39	4021
2026-01-06 01:47:33.53	17.55	23.54	-33.7	-34.8	20.3	0.00e+00	0	56	0	313524224	39	4001
2026-01-06 01:47:34.54	17.55	23.70	-33.7	-34.9	20.2	0.00e+00	0	56	0	319815680	39	4016
2026-01-06 01:47:35.55	17.56	23.85	-33.7	-34.8	20.3	0.00e+00	0	56	0	325058560	39	4002
2026-01-06 01:47:36.57	17.56	24.00	-33.8	-34.9	20.2	0.00e+00	0	56	0	331350016	39	4027
2026-01-06 01:47:37.58	17.56	24.16	-33.7	-34.9	20.3	0.00e+00	0	57	0	336592896	39	4018
2026-01-06 01:47:38.59	17.57	24.32	-33.7	-34.8	20.3	0.00e+00	0	56	0	341835776	39	4004
2026-01-06 01:47:39.59	17.57	24.47	-33.6	-34.7	20.4	0.00e+00	0	56	0	348127232	39	3956
2026-01-06 01:47:40.60	17.58	24.63	-33.6	-34.7	20.5	0.00e+00	0	56	0	353370112	39	3933
2026-01-06 01:47:41.61	17.58	24.79	-33.5	-34.6	20.5	0.00e+00	0	56	0	359661568	39	3904
2026-01-06 01:47:42.62	17.58	24.95	-33.5	-34.6	20.6	0.00e+00	0	56	0	364904448	38	4124
2026-01-06 01:47:43.63	17.59	25.11	-33.5	-34.6	20.6	0.00e+00	0	56	0	370147328	38	4102
2026-01-06 01:47:44.64	17.59	25.27	-33.4	-34.5	20.7	0.00e+00	0	56	0	376438784	38	4069
2026-01-06 01:47:45.65	17.60	25.43	-33.4	-34.5	20.7	0.00e+00	0	56	0	381681664	38	4054
2026-01-06 01:47:46.67	17.60	25.60	-33.4	-34.5	20.6	0.00e+00	0	56	0	387973120	38	4083
2026-01-06 01:47:47.68	17.60	25.76	-33.4	-34.5	20.7	0.00e+00	0	56	0	393216000	38	4071
2026-01-06 01:47:48.69	17.61	25.93	-33.4	-34.5	20.7	0.00e+00	0	56	0	398458880	38	4062
2026-01-06 01:47:49.70	17.61	26.09	-33.4	-34.5	20.7	0.00e+00	0	56	0	404750336	38	4075
2026-01-06 01:47:50.71	17.62	26.26	-33.4	-34.6	20.6	0.00e+00	0	56	0	409993216	38	4100
2026-01-06 01:47:51.72	17.62	26.43	-33.4	-34.5	20.7	0.00e+00	0	56	0	416284672	38	4066
2026-01-06 01:47:52.73	17.63	26.60	-33.3	-34.4	20.8	0.00e+00	0	56	0	421527552	38	4025
2026-01-06 01:47:53.74	17.63	26.77	-33.3	-34.4	20.8	0.00e+00	0	56	0	427819008	38	4036
2026-01-06 01:47:54.74	17.63	26.94	-33.3	-34.4	20.8	0.00e+00	0	56	0	433061888	38	4049
2026-01-06 01:47:55.75	17.64	27.11	-33.3	-34.4	20.8	0.00e+00	0	57	0	439353344	38	4029
2026-01-06 01:47:56.77	17.64	27.29	-33.3	-34.3	20.8	0.00e+00	0	57	0	444596224	38	4004
2026-01-06 01:47:57.78	17.65	27.46	-33.2	-34.3	20.9	0.00e+00	0	56	0	449839104	38	3959
2026-01-06 01:47:58.79	17.65	27.64	-33.1	-34.2	21.0	0.00e+00	0	57	0	456130560	38	3922
2026-01-06 01:47:59.80	17.65	27.82	-33.0	-34.1	21.1	0.00e+00	0	56	0	461373440	38	3886
2026-01-06 01:48:00.81	17.66	28.00	-33.0	-34.1	21.1	0.00e+00	0	57	0	467664896	38	3870
2026-01-06 01:48:01.82	17.66	28.18	-33.0	-34.1	21.1	0.00e+00	0	57	0	472907776	38	3877
2026-01-06 01:48:02.83	17.67	28.36	-33.1	-34.1	21.1	0.00e+00	0	57	0	478150656	38	3902
2026-01-06 01:48:03.84	17.67	28.54	-33.2	-34.2	21.0	0.00e+00	0	56	0	484442112	38	3949
2026-01-06 01:48:04.85	17.68	28.72	-33.3	-34.4	20.9	0.00e+00	0	56	0	489684992	38	4008
2026-01-06 01:48:05.86	17.68	28.91	-33.4	-34.4	20.8	0.00e+00	0	56	0	495976448	38	4044
2026-01-06 01:48:06.87	17.68	29.09	-33.5	-34.6	20.7	0.00e+00	0	56	0	501219328	38	4109
2026-01-06 01:48:07.88	17.69	29.28	-33.5	-34.6	20.7	0.00e+00	0	56	0	506462208	38	4109
2026-01-06 01:48:08.89	17.69	29.47	-33.4	-34.5	20.7	0.00e+00	0	56	0	512753664	38	4078
2026-01-06 01:48:09.90	17.70	29.66	-33.4	-34.5	20.7	0.00e+00	0	56	0	517996544	38	4082
2026-01-06 01:48:10.91	17.70	29.85	-33.4	-34.5	20.7	0.00e+00	0	56	0	524288000	38	4062
2026-01-06 01:48:11.92	17.71	30.04	-33.4	-34.5	20.8	0.00e+00	0	56	0	529530880	38	4054
2026-01-06 01:48:12.93	17.71	30.24	-33.3	-34.4	20.8	0.00e+00	0	56	0	535822336	38	4044
2026-01-06 01:48:13.94	17.71	30.43	-33.4	-34.5	20.8	0.00e+00	0	56	0	541065216	38	4061
2026-01-06 01:48:14.96	17.72	30.63	-33.4	-34.6	20.7	0.00e+00	0	56	0	547356672	38	4101
2026-01-06 01:48:15.96	17.72	30.82	-33.5	-34.6	20.7	0.00e+00	0	56	0	552599552	38	4112
2026-01-06 01:48:16.97	17.73	31.02	-33.4	-34.5	20.7	0.00e+00	0	56	0	557842432	38	4076
2026-01-06 01:48:17.99	17.73	31.23	-33.4	-34.5	20.7	0.00e+00	0	56	0	564133888	38	4074
2026-01-06 01:48:19.00	17.73	31.43	-33.3	-34.4	20.8	0.00e+00	0	56	0	569376768	38	4040
2026-01-06 01:48:20.01	17.74	31.63	-33.3	-34.4	20.9	0.00e+00	0	56	0	575668224	38	4017
2026-01-06 01:48:21.02	17.74	31.83	-33.2	-34.2	21.0	0.00e+00	0	57	0	580911104	38	3957
2026-01-06 01:48:22.03	17.75	32.04	-33.1	-34.1	21.1	0.00e+00	0	56	0	586153984	38	3909
2026-01-06 01:48:23.04	17.75	32.25	-32.9	-34.0	21.2	0.00e+00	0	57	0	592445440	37	4070
2026-01-06 01:48:24.05	17.76	32.46	-32.7	-33.8	21.4	0.00e+00	0	57	0	597688320	37	3964
2026-01-06 01:48:25.06	17.76	32.67	-32.7	-33.7	21.4	0.00e+00	0	56	0	603979776	37	3948
2026-01-06 01:48:26.07	17.76	32.88	-32.6	-33.6	21.6	0.00e+00	0	56	0	609222656	37	3900
2026-01-06 01:48:27.08	17.77	33.09	-32.7	-33.7	21.5	0.00e+00	0	56	0	614465536	37	3927
2026-01-06 01:48:28.09	17.77	33.31	-32.7	-33.8	21.4	0.00e+00	0	56	0	620756992	37	3973
2026-01-06 01:48:29.10	17.78	33.52	-32.8	-33.9	21.3	0.00e+00	0	56	0	625999872	37	4023
2026-01-06 01:48:30.11	17.78	33.74	-32.9	-33.9	21.3	0.00e+00	0	56	0	632291328	37	4037
2026-01-06 01:48:31.12	17.79	33.96	-32.8	-33.9	21.4	0.00e+00	0	57	0	637534208	37	4020
2026-01-06 01:48:32.13	17.79	34.18	-32.8	-33.8	21.4	0.00e+00	0	56	0	643825664	37	3988
2026-01-06 01:48:33.14	17.79	34.40	-32.7	-33.8	21.4	0.00e+00	0	56	0	649068544	37	3977
2026-01-06 01:48:34.15	17.80	34.63	-32.8	-33.8	21.4	0.00e+00	0	56	0	655360000	37	3986
2026-01-06 01:48:35.16	17.80	34.85	-32.7	-33.8	21.5	0.00e+00	0	56	0	660602880	37	3977
2026-01-06 01:48:36.17	17.81	35.08	-32.7	-33.8	21.5	0.00e+00	0	56	0	665845760	37	3971
2026-01-06 01:48:37.19	17.81	35.31	-32.7	-33.8	21.5	0.00e+00	0	56	0	672137216	37	3976
2026-01-06 01:48:38.19	17.82	35.54	-32.8	-33.8	21.4	0.00e+00	0	56	0	677380096	37	3999
2026-01-06 01:48:39.20	17.82	35.78	-32.8	-33.8	21.4	0.00e+00	0	56	0	683671552	37	4000
2026-01-06 01:48:40.21	17.83	36.01	-32.9	-33.9	21.3	0.00e+00	0	56	0	688914432	37	4036
2026-01-06 01:48:41.22	17.83	36.25	-32.8	-33.9	21.4	0.00e+00	0	56	0	694157312	37	4010
2026-01-06 01:48:42.23	17.83	36.48	-32.8	-33.8	21.4	0.00e+00	0	56	0	700448768	37	3989
2026-01-06 01:48:43.24	17.84	36.72	-32.6	-33.6	21.6	0.00e+00	0	57	0	705691648	37	3909
2026-01-06 01:48:44.25	17.84	36.96	-32.5	-33.5	21.7	0.00e+00	0	56	0	711983104	36	4081
2026-01-06 01:48:45.26	17.85	37.21	-32.4	-33.5	21.8	0.00e+00	0	56	0	717225984	36	4056
2026-01-06 01:48:46.27	17.85	37.45	-32.6	-33.6	21.7	0.00e+00	0	56	0	722468864	36	4116
2026-01-06 01:48:47.28	17.86	37.70	-32.7	-33.7	21.5	0.00e+00	0	56	0	728760320	36	4180
2026-01-06 01:48:48.29	17.86	37.95	-32.8	-33.9	21.4	0.00e+00	0	56	0	734003200	36	4262
2026-01-06 01:48:49.30	17.87	38.20	-32.9	-34.0	21.3	0.00e+00	0	56	0	740294656	36	4311
2026-01-06 01:48:50.31	17.87	38.45	-32.9	-34.0	21.3	0.00e+00	0	56	0	745537536	36	4310
2026-01-06 01:48:51.32	17.87	38.70	-32.9	-34.0	21.3	0.00e+00	0	56	0	751828992	36	4303
2026-01-06 01:48:52.33	17.88	38.96	-32.8	-33.9	21.4	0.00e+00	0	56	0	757071872	36	4264
2026-01-06 01:48:53.34	17.88	39.22	-32.8	-33.8	21.5	0.00e+00	0	56	0	762314752	36	4227
2026-01-06 01:48:54.35	17.89	39.48	-32.7	-33.8	21.5	0.00e+00	0	56	0	768606208	36	4196
2026-01-06 01:48:55.36	17.89	39.74	-32.9	-33.9	21.4	0.00e+00	0	56	0	773849088	36	4280
2026-01-06 01:48:56.37	17.90	40.01	-33.1	-34.1	21.2	0.00e+00	0	56	0	780140544	36	4391
2026-01-06 01:48:57.38	17.90	40.27	-33.3	-34.3	21.0	0.00e+00	0	56	0	785383424	37	4235
2026-01-06 01:48:58.39	17.91	40.54	-33.2	-34.3	21.0	0.00e+00	0	56	0	790626304	37	4217
2026-01-06 01:48:59.40	17.91	40.81	-33.1	-34.1	21.2	0.00e+00	0	56	0	796917760	37	4131
2026-01-06 01:49:00.41	17.91	41.08	-32.9	-34.0	21.3	0.00e+00	0	56	0	802160640	37	4065
2026-01-06 01:49:01.42	17.92	41.36	-33.0	-34.0	21.2	0.00e+00	0	56	0	808452096	37	4097
2026-01-06 01:49:02.43	17.92	41.63	-33.1	-34.1	21.2	0.00e+00	0	56	0	813694976	37	4123
2026-01-06 01:49:03.43	17.93	41.91	-33.2	-34.2	21.1	0.00e+00	0	56	0	818937856	37	4187
2026-01-06 01:49:04.44	17.93	42.19	-33.2	-34.3	21.0	0.00e+00	0	57	0	825229312	37	4223
2026-01-06 01:49:05.45	17.94	42.47	-33.3	-34.4	20.9	0.00e+00	0	56	0	830472192	37	4271
2026-01-06 01:49:06.46	17.94	42.76	-33.5	-34.6	20.8	0.00e+00	0	56	0	836763648	37	4354
2026-01-06 01:49:07.47	17.95	43.04	-33.5	-34.6	20.7	0.00e+00	0	56	0	842006528	37	4378
2026-01-06 01:49:08.48	17.95	43.33	-33.4	-34.5	20.8	0.00e+00	0	56	0	848297984	37	4315
2026-01-06 01:49:09.49	17.96	43.62	-33.3	-34.4	20.9	0.00e+00	0	56	0	853540864	37	4257
2026-01-06 01:49:10.50	17.96	43.92	-33.2	-34.2	21.1	0.00e+00	0	56	0	859832320	37	4177
2026-01-06 01:49:11.51	17.97	44.21	-33.2	-34.2	21.1	0.00e+00	0	57	0	865075200	37	4182
2026-01-06 01:49:12.52	17.97	44.51	-33.1	-34.2	21.1	0.00e+00	0	56	0	870318080	37	4167
2026-01-06 01:49:13.53	17.98	44.81	-33.2	-34.3	21.0	0.00e+00	0	56	0	876609536	37	4223
2026-01-06 01:49:14.54	17.98	45.12	-33.4	-34.5	20.8	0.00e+00	0	56	0	881852416	37	4337
2026-01-06 01:49:15.55	17.99	45.42	-33.6	-34.8	20.6	0.00e+00	0	56	0	888143872	37	4450
2026-01-06 01:49:16.56	17.99	45.73	-33.5	-34.6	20.7	0.00e+00	0	56	0	893386752	37	4366
2026-01-06 01:49:17.57	18.00	46.04	-33.3	-34.4	20.9	0.00e+00	0	56	0	898629632	37	4259
2026-01-06 01:49:18.58	18.00	46.35	-33.3	-34.3	21.0	0.00e+00	0	56	0	904921088	37	4237
2026-01-06 01:49:19.59	18.01	46.66	-33.2	-34.3	21.1	0.00e+00	0	57	0	910163968	37	4200
2026-01-06 01:49:20.60	18.01	46.98	-32.9	-34.1	20.8	0.00e+00	0	56	0	916455424	37	4122
2026-01-06 01:49:21.61	18.02	47.30	-32.8	-34.0	20.9	0.00e+00	0	56	0	921698304	37	4069
2026-01-06 01:49:22.61	18.02	47.62	-32.8	-34.0	20.9	0.00e+00	0	56	0	926941184	37	4058
2026-01-06 01:49:23.63	18.03	47.95	-32.8	-34.0	20.9	0.00e+00	0	56	0	933232640	37	4058
2026-01-06 01:49:24.64	18.03	48.27	-32.8	-34.0	20.9	0.00e+00	0	56	0	938475520	37	4059
2026-01-06 01:49:25.65	18.04	48.60	-32.9	-34.0	20.9	0.00e+00	0	56	0	944766976	37	4082
2026-01-06 01:49:26.66	18.04	48.94	-32.9	-34.1	20.8	0.00e+00	0	56	0	950009856	37	4107
2026-01-06 01:49:27.67	18.05	49.27	-33.0	-34.1	20.8	0.00e+00	0	57	0	956301312	37	4139
2026-01-06 01:49:28.68	18.05	49.61	-33.1	-34.2	20.7	0.00e+00	0	57	0	961544192	37	4180
2026-01-06 01:49:29.69	18.06	49.95	-33.3	-34.4	20.5	0.00e+00	0	56	0	966787072	37	4286
2026-01-06 01:49:30.70	18.06	50.29	-33.7	-34.9	20.0	0.00e+00	0	57	0	973078528	37	4540
2026-01-06 01:49:31.71	18.07	50.63	-34.0	-35.3	19.8	0.00e+00	0	56	0	978321408	38	4443
2026-01-06 01:49:32.72	18.07	50.98	-33.9	-35.2	19.8	0.00e+00	0	56	0	984612864	38	4405
2026-01-06 01:49:33.73	18.08	51.33	-33.8	-35.0	20.0	0.00e+00	0	56	0	989855744	38	4301
2026-01-06 01:49:34.74	18.08	51.68	-33.9	-35.1	19.8	0.00e+00	0	56	0	995098624	38	4391
2026-01-06 01:49:35.75	18.09	52.04	-34.4	-35.6	19.3	0.00e+00	0	57	0	1001390080	39	4386
2026-01-06 01:49:36.76	18.09	52.40	-34.5	-35.8	19.2	0.00e+00	0	57	0	1006632960	39	4450
2026-01-06 01:49:37.77	18.10	52.76	-34.3	-35.6	19.4	0.00e+00	0	56	0	1012924416	39	4348
2026-01-06 01:49:38.78	18.11	53.12	-34.2	-35.4	19.5	0.00e+00	0	56	0	1018167296	39	4288
2026-01-06 01:49:39.79	18.11	53.49	-34.1	-35.4	19.6	0.00e+00	0	56	0	1023410176	39	4244
2026-01-06 01:49:40.80	18.12	53.85	-34.2	-35.4	19.6	0.00e+00	0	57	0	1029701632	39	4280
2026-01-06 01:49:41.81	18.12	54.23	-34.2	-35.5	19.5	0.00e+00	0	56	0	1034944512	39	4309
2026-01-06 01:49:42.82	18.13	54.60	-34.2	-35.5	19.5	0.00e+00	0	56	0	1041235968	39	4310
2026-01-06 01:49:43.83	18.13	54.98	-34.0	-35.3	19.7	0.00e+00	0	56	0	1046478848	39	4210
2026-01-06 01:49:44.84	18.14	55.36	-33.8	-35.0	20.0	0.00e+00	0	56	0	1052770304	39	4077
2026-01-06 01:49:45.85	18.15	55.74	-33.7	-34.9	20.1	0.00e+00	0	57	0	1058013184	39	4007
2026-01-06 01:49:46.86	18.15	56.12	-33.9	-35.2	19.8	0.00e+00	0	57	0	1064304640	39	4158
2026-01-06 01:49:47.87	18.16	56.51	-34.2	-35.5	19.6	0.00e+00	0	56	0	1069547520	39	4304
2026-01-06 01:49:48.88	18.16	56.90	-34.2	-35.5	19.5	0.00e+00	0	56	0	1074790400	39	4302
2026-01-06 01:49:49.89	18.17	57.29	-34.2	-35.5	19.5	0.00e+00	0	56	0	1081081856	39	4305
2026-01-06 01:49:50.90	18.18	57.69	-34.2	-35.5	19.5	0.00e+00	0	56	0	1086324736	39	4327
2026-01-06 01:49:51.91	18.18	58.09	-34.0	-35.3	19.7	0.00e+00	0	56	0	1092616192	39	4204
2026-01-06 01:49:52.92	18.19	58.49	-33.9	-35.1	19.8	0.00e+00	0	57	0	1097859072	39	4134
2026-01-06 01:49:53.94	18.20	58.90	-33.8	-35.0	19.9	0.00e+00	0	56	0	1103101952	39	4083
2026-01-06 01:49:54.94	18.20	59.30	-33.7	-34.9	20.0	0.00e+00	0	56	0	1109393408	39	4050
2026-01-06 01:49:55.95	18.21	59.71	-33.2	-34.4	20.5	0.00e+00	0	56	0	1114636288	38	4029
2026-01-06 01:49:56.97	18.22	60.12	-32.9	-34.0	20.8	0.00e+00	0	56	0	1120927744	37	4094
2026-01-06 01:49:57.98	18.22	60.54	-33.0	-34.2	20.7	0.00e+00	0	56	0	1126170624	37	4166
2026-01-06 01:49:58.98	18.23	60.95	-33.5	-34.7	20.3	0.00e+00	0	57	0	1131413504	37	4410
2026-01-06 01:49:59.99	18.24	61.37	-33.3	-34.5	20.5	0.00e+00	0	56	0	1137704960	37	4319
2026-01-06 01:50:01.00	18.25	61.79	-33.0	-34.2	20.8	0.00e+00	0	56	0	1142947840	37	4147
2026-01-06 01:50:02.01	18.25	62.22	-32.8	-33.9	21.0	0.00e+00	0	56	0	1149239296	37	4050
2026-01-06 01:50:03.02	18.26	62.65	-33.1	-34.2	20.7	0.00e+00	0	56	0	1154482176	37	4189
2026-01-06 01:50:04.03	18.27	63.08	-33.1	-34.3	20.6	0.00e+00	0	56	0	1160773632	37	4202
2026-01-06 01:50:05.04	18.28	63.51	-32.7	-33.9	20.9	0.00e+00	0	56	0	1166016512	37	4024
2026-01-06 01:50:06.05	18.28	63.95	-32.6	-33.7	21.1	0.00e+00	0	56	0	1172307968	37	3946
2026-01-06 01:50:07.06	18.29	64.39	-32.7	-33.8	20.9	0.00e+00	0	57	0	1177550848	37	4002
2026-01-06 01:50:08.06	18.30	64.83	-32.5	-33.6	21.1	0.00e+00	0	56	0	1182793728	37	3894
2026-01-06 01:50:09.07	18.31	65.27	-32.3	-33.5	21.2	0.00e+00	0	57	0	1189085184	36	4061
2026-01-06 01:50:10.08	18.32	65.72	-32.0	-33.1	21.6	0.00e+00	0	56	0	1194328064	36	3904
2026-01-06 01:50:11.10	18.33	66.17	-31.3	-32.4	21.5	0.00e+00	0	56	0	1200619520	34	4037
2026-01-06 01:50:12.11	18.34	66.62	-31.6	-32.8	21.2	0.00e+00	0	56	0	1205862400	34	4195
2026-01-06 01:50:13.11	18.35	67.07	-31.5	-32.7	21.3	0.00e+00	0	56	0	1211105280	34	4151
2026-01-06 01:50:14.12	18.36	67.53	-31.5	-32.6	21.3	0.00e+00	0	56	0	1217396736	34	4142
2026-01-06 01:50:15.13	18.37	67.99	-31.7	-32.9	21.1	0.00e+00	0	56	0	1222639616	34	4263
2026-01-06 01:50:16.14	18.38	68.45	-31.4	-32.6	21.3	0.00e+00	0	56	0	1228931072	34	4112
2026-01-06 01:50:17.16	18.39	68.92	-31.4	-32.5	21.4	0.00e+00	0	57	0	1234173952	34	4078
2026-01-06 01:50:18.17	18.40	69.38	-31.5	-32.7	21.3	0.00e+00	0	57	0	1239416832	34	4151
2026-01-06 01:50:19.18	18.41	69.85	-31.3	-32.5	21.4	0.00e+00	0	57	0	1245708288	34	4071
2026-01-06 01:50:20.19	18.42	70.32	-31.0	-32.1	21.8	0.00e+00	0	56	0	1250951168	33	4100
2026-01-06 01:50:21.20	18.44	70.80	-31.1	-32.2	21.6	0.00e+00	0	56	0	1257242624	33	4192
2026-01-06 01:50:22.21	18.45	71.27	-31.2	-32.3	21.6	0.00e+00	0	56	0	1262485504	33	4212
2026-01-06 01:50:23.22	18.46	71.75	-31.0	-32.1	21.7	0.00e+00	0	56	0	1268776960	33	4142
2026-01-06 01:50:24.23	18.48	72.23	-31.2	-32.3	21.5	0.00e+00	0	56	0	1274019840	33	4222
2026-01-06 01:50:25.24	18.49	72.71	-31.2	-32.3	21.5	0.00e+00	0	56	0	1279262720	33	4231
2026-01-06 01:50:26.25	18.50	73.20	-30.9	-32.0	21.8	0.00e+00	0	56	0	1285554176	33	4058
2026-01-06 01:50:27.26	18.52	73.69	-31.0	-32.1	21.7	0.00e+00	0	56	0	1290797056	33	4119
2026-01-06 01:50:28.27	18.54	74.17	-31.0	-32.1	21.6	0.00e+00	0	57	0	1297088512	33	4136
2026-01-06 01:50:29.28	18.55	74.66	-30.9	-32.1	21.6	0.00e+00	0	56	0	1302331392	33	4120
2026-01-06 01:50:30.29	18.57	75.16	-31.0	-32.1	21.5	0.00e+00	0	57	0	1307574272	33	4144
2026-01-06 01:50:31.30	18.59	75.65	-30.9	-32.0	21.6	0.00e+00	0	56	0	1313865728	33	4086
2026-01-06 01:50:32.31	18.61	76.15	-30.8	-31.9	21.7	0.00e+00	0	57	0	1319108608	33	4034
2026-01-06 01:50:33.32	18.64	76.64	-30.5	-31.6	22.1	0.00e+00	0	56	0	1325400064	32	4110
2026-01-06 01:50:34.33	18.66	77.14	-30.5	-31.6	22.1	0.00e+00	0	57	0	1330642944	32	4110
2026-01-06 01:50:35.34	18.68	77.65	-30.6	-31.8	21.8	0.00e+00	0	56	0	1335885824	32	4208
2026-01-06 01:50:36.35	18.71	78.15	-30.2	-31.3	22.3	0.00e+00	0	56	0	1342177280	32	3975
2026-01-06 01:50:37.36	18.74	78.65	-30.1	-31.1	22.4	0.00e+00	0	56	0	1347420160	32	3912
2026-01-06 01:50:38.37	18.77	79.16	-30.1	-31.2	22.3	0.00e+00	0	56	0	1353711616	32	3954
2026-01-06 01:50:39.38	18.81	79.67	-30.1	-31.2	22.2	0.00e+00	0	57	0	1358954496	32	3941
2026-01-06 01:50:40.39	18.84	80.17	-29.6	-30.6	22.6	0.00e+00	0	57	0	1365245952	31	3906
2026-01-06 01:50:41.40	18.89	80.68	-29.3	-30.4	22.9	0.00e+00	0	56	0	1370488832	30	4013
2026-01-06 01:50:42.41	18.93	81.20	-29.6	-30.7	22.6	0.00e+00	0	56	0	1376780288	30	4167
2026-01-06 01:50:43.43	18.98	81.71	-29.7	-30.8	22.4	0.00e+00	0	57	0	1382023168	30	4228
2026-01-06 01:50:44.44	19.04	82.23	-29.0	-30.0	23.2	0.00e+00	0	56	0	1387266048	30	3860
2026-01-06 01:50:45.45	19.11	82.74	-29.1	-30.1	23.1	0.00e+00	0	56	0	1393557504	29	4113
2026-01-06 01:50:46.46	19.18	83.26	-29.2	-30.2	23.0	0.00e+00	0	57	0	1398800384	29	4184
2026-01-06 01:50:47.47	19.27	83.77	-29.3	-30.4	22.9	0.00e+00	0	56	0	1405091840	29	4244
2026-01-06 01:50:48.48	19.37	84.29	-29.6	-30.7	22.5	0.00e+00	0	56	0	1410334720	29	4412
2026-01-06 01:50:49.49	19.49	84.81	-29.7	-30.8	22.4	0.00e+00	0	56	0	1415577600	29	4462
2026-01-06 01:50:50.50	19.64	85.33	-29.9	-31.0	22.3	0.00e+00	0	56	0	1421869056	30	4308
2026-01-06 01:50:51.51	19.83	85.85	-29.9	-31.0	22.4	0.00e+00	0	56	0	1427111936	30	4316
2026-01-06 01:50:52.52	20.07	86.37	-29.8	-30.9	22.4	0.00e+00	0	56	0	1433403392	30	4271
2026-01-06 01:50:53.53	20.38	86.89	-30.0	-31.1	22.2	0.00e+00	0	56	0	1438646272	30	4388
2026-01-06 01:50:54.54	20.82	87.41	-30.0	-31.1	22.2	0.00e+00	0	56	0	1443889152	30	4386
2026-01-06 01:50:55.55	21.48	87.93	-30.1	-31.3	22.1	0.00e+00	0	56	0	1450180608	30	4452
2026-01-06 01:50:56.56	22.59	88.45	-29.9	-31.0	22.1	0.00e+00	0	56	0	1455423488	30	4323
2026-01-06 01:50:57.57	24.80	88.97	-30.4	-31.5	21.6	0.00e+00	0	57	0	1461714944	31	4339
2026-01-06 01:50:58.58	31.47	89.48	-30.7	-31.9	21.3	0.00e+00	0	56	0	1466957824	31	4504
2026-01-06 01:50:59.59	117.73	89.88	-30.9	-32.1	21.4	0.00e+00	0	56	0	1473249280	33	4100
2026-01-06 01:51:00.60	185.92	89.45	-30.8	-32.0	21.6	0.00e+00	0	56	0	1478492160	33	4059
2026-01-06 01:51:01.61	191.89	88.93	-30.7	-31.9	21.6	0.00e+00	0	56	0	1484783616	33	4009
2026-01-06 01:51:02.62	193.97	88.41	-30.4	-31.5	21.9	0.00e+00	0	56	0	1490026496	32	4083
2026-01-06 01:51:03.64	195.04	87.88	-30.3	-31.5	21.9	0.00e+00	0	56	0	1495269376	32	4054
2026-01-06 01:51:04.65	195.68	87.36	-30.2	-31.3	22.1	0.00e+00	0	56	0	1501560832	32	3993
2026-01-06 01:51:05.66	196.10	86.84	-30.2	-31.3	22.1	0.00e+00	0	56	0	1506803712	32	3988
2026-01-06 01:51:06.66	196.41	86.33	-29.7	-30.8	22.4	0.00e+00	0	56	0	1513095168	31	3998
2026-01-06 01:51:07.67	196.64	85.81	-29.5	-30.6	22.6	0.00e+00	0	56	0	1518338048	31	3878
2026-01-06 01:51:08.68	196.82	85.29	-29.7	-30.8	22.4	0.00e+00	0	57	0	1523580928	31	3989
2026-01-06 01:51:09.70	196.97	84.76	-29.5	-30.5	22.6	0.00e+00	0	56	0	1529872384	30	4085
2026-01-06 01:51:10.71	197.09	84.24	-29.5	-30.6	22.6	0.00e+00	0	57	0	1535115264	30	4134
2026-01-06 01:51:11.72	197.19	83.73	-29.3	-30.4	22.8	0.00e+00	0	56	0	1541406720	30	4022
2026-01-06 01:51:12.73	197.28	83.21	-29.3	-30.4	22.8	0.00e+00	0	56	0	1546649600	30	4038
2026-01-06 01:51:13.74	197.35	82.69	-29.5	-30.6	22.5	0.00e+00	0	57	0	1551892480	30	4112
2026-01-06 01:51:14.75	197.42	82.18	-29.1	-30.2	22.9	0.00e+00	0	56	0	1558183936	30	3926
2026-01-06 01:51:15.76	197.47	81.66	-29.1	-30.2	22.9	0.00e+00	0	56	0	1563426816	30	3933
2026-01-06 01:51:16.77	197.52	81.15	-29.2	-30.3	22.8	0.00e+00	0	56	0	1569718272	30	3979
2026-01-06 01:51:17.78	197.57	80.64	-29.3	-30.3	22.8	0.00e+00	0	56	0	1574961152	30	3992
2026-01-06 01:51:18.79	197.61	80.13	-29.4	-30.5	22.7	0.00e+00	0	56	0	1581252608	30	4053
2026-01-06 01:51:19.80	197.65	79.62	-29.3	-30.4	22.8	0.00e+00	0	56	0	1586495488	30	4025
2026-01-06 01:51:20.81	197.68	79.11	-29.4	-30.5	22.8	0.00e+00	0	56	0	1592786944	30	4063
2026-01-06 01:51:21.82	197.71	78.61	-29.8	-30.9	22.5	0.00e+00	0	57	0	1598029824	30	4249
2026-01-06 01:51:22.83	197.74	78.10	-29.9	-31.0	22.4	0.00e+00	0	56	0	1603272704	30	4305
2026-01-06 01:51:23.84	197.77	77.60	-29.8	-30.8	22.5	0.00e+00	0	56	0	1609564160	30	4234
2026-01-06 01:51:24.86	197.80	77.09	-30.0	-31.1	22.3	0.00e+00	0	56	0	1614807040	30	4348
2026-01-06 01:51:25.87	197.82	76.59	-30.3	-31.4	22.0	0.00e+00	0	56	0	1621098496	31	4253
2026-01-06 01:51:26.88	197.84	76.09	-30.4	-31.5	21.9	0.00e+00	0	56	0	1626341376	31	4339
2026-01-06 01:51:27.89	197.86	75.60	-30.3	-31.4	22.0	0.00e+00	0	57	0	1631584256	31	4265
2026-01-06 01:51:28.90	197.88	75.10	-30.3	-31.5	21.9	0.00e+00	0	56	0	1637875712	31	4296
2026-01-06 01:51:29.91	197.90	74.61	-30.4	-31.5	21.9	0.00e+00	0	56	0	1643118592	31	4323
2026-01-06 01:51:30.92	197.92	74.12	-30.4	-31.5	21.9	0.00e+00	0	56	0	1649410048	31	4321
2026-01-06 01:51:31.93	197.93	73.63	-30.6	-31.8	21.7	0.00e+00	0	56	0	1654652928	31	4459
2026-01-06 01:51:32.94	197.95	73.14	-30.6	-31.7	21.8	0.00e+00	0	56	0	1659895808	31	4409
2026-01-06 01:51:33.95	197.96	72.66	-30.2	-31.3	22.1	0.00e+00	0	56	0	1666187264	31	4219
2026-01-06 01:51:34.96	197.98	72.17	-30.6	-31.8	21.7	0.00e+00	0	56	0	1671430144	31	4451
2026-01-06 01:51:35.97	197.99	71.69	-31.4	-32.6	21.2	0.00e+00	0	56	0	1677721600	33	4366
2026-01-06 01:51:36.98	198.00	71.21	-31.2	-32.3	21.5	0.00e+00	0	57	0	1682964480	33	4223
2026-01-06 01:51:37.99	198.02	70.74	-31.0	-32.1	21.7	0.00e+00	0	57	0	1689255936	33	4120
2026-01-06 01:51:39.00	198.03	70.26	-31.3	-32.5	21.4	0.00e+00	0	57	0	1694498816	33	4313
2026-01-06 01:51:40.01	198.04	69.79	-31.4	-32.6	21.2	0.00e+00	0	57	0	1700790272	33	4361
2026-01-06 01:51:41.02	198.05	69.32	-31.2	-32.4	21.4	0.00e+00	0	56	0	1706033152	33	4252
2026-01-06 01:51:42.03	198.06	68.85	-31.2	-32.4	21.4	0.00e+00	0	56	0	1711276032	33	4247
2026-01-06 01:51:43.04	198.07	68.39	-31.3	-32.4	21.3	0.00e+00	0	56	0	1717567488	33	4286
2026-01-06 01:51:44.04	198.08	67.93	-31.3	-32.4	21.3	0.00e+00	0	56	0	1722810368	33	4279
2026-01-06 01:51:45.05	198.09	67.47	-31.4	-32.5	21.2	0.00e+00	0	56	0	1729101824	33	4326
2026-01-06 01:51:46.06	198.10	67.01	-31.6	-32.8	21.0	0.00e+00	0	57	0	1734344704	33	4448
2026-01-06 01:51:47.07	198.11	66.56	-31.6	-32.8	20.9	0.00e+00	0	56	0	1739587584	33	4483
2026-01-06 01:51:48.08	198.12	66.10	-31.5	-32.6	21.1	0.00e+00	0	57	0	1745879040	33	4373
2026-01-06 01:51:49.09	198.13	65.65	-31.3	-32.4	21.3	0.00e+00	0	57	0	1751121920	33	4279
2026-01-06 01:51:50.10	198.14	65.21	-31.5	-32.7	21.2	0.00e+00	0	57	0	1757413376	33	4395
2026-01-06 01:51:51.11	198.15	64.76	-31.7	-32.8	21.1	0.00e+00	0	56	0	1762656256	33	4488
2026-01-06 01:51:52.12	198.16	64.32	-31.5	-32.7	21.2	0.00e+00	0	57	0	1767899136	33	4401
2026-01-06 01:51:53.13	198.16	63.88	-31.4	-32.5	21.4	0.00e+00	0	56	0	1774190592	33	4332
2026-01-06 01:51:54.14	198.17	63.44	-31.4	-32.5	21.4	0.00e+00	0	56	0	1779433472	33	4339
2026-01-06 01:51:55.15	198.18	63.01	-31.5	-32.6	21.4	0.00e+00	0	56	0	1785724928	33	4357
2026-01-06 01:51:56.16	198.19	62.57	-31.7	-32.8	21.2	0.00e+00	0	56	0	1790967808	33	4474
2026-01-06 01:51:57.17	198.20	62.14	-31.9	-33.1	20.9	0.00e+00	0	57	0	1797259264	34	4361
2026-01-06 01:51:58.18	198.20	61.72	-31.8	-32.9	21.1	0.00e+00	0	56	0	1802502144	34	4283
2026-01-06 01:51:59.19	198.21	61.29	-31.5	-32.6	21.4	0.00e+00	0	56	0	1807745024	34	4107
2026-01-06 01:52:00.20	198.22	60.87	-31.4	-32.5	21.4	0.00e+00	0	56	0	1814036480	34	4094
2026-01-06 01:52:01.21	198.22	60.45	-31.7	-32.8	21.2	0.00e+00	0	57	0	1819279360	34	4216
2026-01-06 01:52:02.21	198.23	60.04	-31.8	-32.9	21.1	0.00e+00	0	56	0	1825570816	34	4277
2026-01-06 01:52:03.22	198.24	59.63	-31.8	-32.9	21.1	0.00e+00	0	57	0	1830813696	34	4258
2026-01-06 01:52:04.23	198.24	59.22	-31.9	-33.0	21.0	0.00e+00	0	56	0	1836056576	34	4312
2026-01-06 01:52:05.24	198.25	58.81	-32.2	-33.3	20.7	0.00e+00	0	57	0	1842348032	34	4471
2026-01-06 01:52:06.25	198.26	58.41	-32.2	-33.4	20.7	0.00e+00	0	57	0	1847590912	35	4275
2026-01-06 01:52:07.26	198.26	58.00	-32.4	-33.6	20.4	0.00e+00	0	56	0	1853882368	35	4374
2026-01-06 01:52:08.27	198.27	57.60	-33.4	-34.6	20.2	0.00e+00	0	57	0	1859125248	37	4370
2026-01-06 01:52:09.28	198.28	57.21	-33.8	-35.1	19.8	0.00e+00	0	57	0	1864368128	38	4373
2026-01-06 01:52:10.29	198.28	56.81	-34.0	-35.3	19.6	0.00e+00	0	56	0	1870659584	38	4475
2026-01-06 01:52:11.30	198.29	56.42	-34.0	-35.2	19.6	0.00e+00	0	56	0	1875902464	38	4433
2026-01-06 01:52:12.31	198.29	56.03	-33.9	-35.1	19.7	0.00e+00	0	56	0	1882193920	38	4379
2026-01-06 01:52:13.32	198.30	55.65	-33.9	-35.2	19.7	0.00e+00	0	57	0	1887436800	38	4409
2026-01-06 01:52:14.33	198.31	55.27	-33.9	-35.2	19.7	0.00e+00	0	56	0	1893728256	38	4413
2026-01-06 01:52:15.34	198.31	54.89	-33.8	-35.1	19.7	0.00e+00	0	57	0	1898971136	38	4364
2026-01-06 01:52:16.35	198.32	54.51	-33.8	-35.0	19.8	0.00e+00	0	57	0	1905262592	38	4334
2026-01-06 01:52:17.36	198.32	54.13	-33.7	-35.0	19.9	0.00e+00	0	57	0	1910505472	38	4301
2026-01-06 01:52:18.37	198.33	53.76	-33.6	-34.8	20.0	0.00e+00	0	57	0	1915748352	38	4234
2026-01-06 01:52:19.38	198.33	53.39	-33.6	-34.8	20.0	0.00e+00	0	56	0	1922039808	38	4224
2026-01-06 01:52:20.39	198.34	53.02	-33.6	-34.9	19.9	0.00e+00	0	56	0	1927282688	38	4248
2026-01-06 01:52:21.40	198.34	52.66	-33.7	-35.0	19.8	0.00e+00	0	56	0	1933574144	38	4303
2026-01-06 01:52:22.41	198.35	52.30	-33.7	-34.9	19.9	0.00e+00	0	56	0	1938817024	38	4287
2026-01-06 01:52:23.42	198.35	51.94	-33.5	-34.7	20.1	0.00e+00	0	57	0	1944059904	38	4176
2026-01-06 01:52:24.43	198.36	51.58	-33.4	-34.6	20.2	0.00e+00	0	56	0	1950351360	38	4124
2026-01-06 01:52:25.44	198.36	51.23	-33.4	-34.6	20.2	0.00e+00	0	57	0	1955594240	38	4136
2026-01-06 01:52:26.45	198.37	50.88	-33.4	-34.6	20.2	0.00e+00	0	56	0	1961885696	38	4119
2026-01-06 01:52:27.46	198.38	50.53	-33.2	-34.4	20.4	0.00e+00	0	56	0	1967128576	38	4029
2026-01-06 01:52:28.47	198.38	50.19	-32.9	-34.1	20.7	0.00e+00	0	56	0	1972371456	37	4101
2026-01-06 01:52:29.48	198.39	49.84	-32.8	-33.9	20.8	0.00e+00	0	57	0	1978662912	37	4039
2026-01-06 01:52:30.49	198.39	49.50	-32.8	-33.9	20.8	0.00e+00	0	56	0	1983905792	37	4036
2026-01-06 01:52:31.50	198.39	49.16	-33.0	-34.2	20.6	0.00e+00	0	56	0	1990197248	37	4158
2026-01-06 01:52:32.51	198.40	48.83	-33.1	-34.3	20.5	0.00e+00	0	56	0	1995440128	37	4225
2026-01-06 01:52:33.52	198.40	48.50	-33.1	-34.3	20.5	0.00e+00	0	56	0	2001731584	37	4219
2026-01-06 01:52:34.53	198.41	48.16	-32.9	-34.0	20.7	0.00e+00	0	57	0	2006974464	37	4094
2026-01-06 01:52:35.54	198.41	47.84	-32.6	-33.7	21.0	0.00e+00	0	56	0	2012217344	37	3939
2026-01-06 01:52:36.55	198.42	47.51	-32.5	-33.6	21.1	0.00e+00	0	57	0	2018508800	37	3892
2026-01-06 01:52:37.56	198.42	47.19	-32.6	-33.7	21.0	0.00e+00	0	57	0	2023751680	37	3947
2026-01-06 01:52:38.57	198.43	46.87	-32.7	-33.9	20.8	0.00e+00	0	57	0	2030043136	37	4022
2026-01-06 01:52:39.58	198.43	46.55	-32.8	-34.0	20.7	0.00e+00	0	57	0	2035286016	37	4093
2026-01-06 01:52:40.59	198.44	46.23	-32.9	-34.1	20.6	0.00e+00	0	56	0	2040528896	37	4141
2026-01-06 01:52:41.60	198.44	45.92	-33.0	-34.2	20.6	0.00e+00	0	56	0	2046820352	37	4151
2026-01-06 01:52:42.61	198.45	45.61	-32.9	-34.1	20.6	0.00e+00	0	57	0	2052063232	37	4118
2026-01-06 01:52:43.62	198.45	45.30	-32.8	-34.0	20.7	0.00e+00	0	56	0	2058354688	37	4075
2026-01-06 01:52:44.63	198.46	45.00	-32.7	-33.9	20.8	0.00e+00	0	56	0	2063597568	37	4033
2026-01-06 01:52:45.64	198.46	44.69	-32.6	-33.8	20.9	0.00e+00	0	56	0	2068840448	37	3978
2026-01-06 01:52:46.65	198.47	44.39	-32.6	-33.7	20.9	0.00e+00	0	56	0	2075131904	37	3940
2026-01-06 01:52:47.66	198.47	44.09	-32.5	-33.7	20.9	0.00e+00	0	56	0	2080374784	37	3927
2026-01-06 01:52:48.67	198.47	43.79	-32.6	-33.7	20.8	0.00e+00	0	56	0	2086666240	37	3958
2026-01-06 01:52:49.68	198.48	43.50	-32.7	-33.9	20.7	0.00e+00	0	57	0	2091909120	37	4017
2026-01-06 01:52:50.69	198.48	43.21	-32.8	-34.1	20.5	0.00e+00	0	56	0	2098200576	37	4110
2026-01-06 01:52:51.70	198.49	42.92	-32.9	-34.2	20.4	0.00e+00	0	56	0	2103443456	37	4167
2026-01-06 01:52:52.71	198.49	42.63	-33.0	-34.2	20.3	0.00e+00	0	56	0	2109734912	37	4172
2026-01-06 01:52:53.72	198.50	42.34	-32.9	-34.1	20.4	0.00e+00	0	56	0	2114977792	37	4127
2026-01-06 01:52:54.73	198.50	42.06	-32.8	-34.0	20.6	0.00e+00	0	56	0	2120220672	37	4056
2026-01-06 01:52:55.74	198.50	41.78	-32.6	-33.8	20.7	0.00e+00	0	57	0	2126512128	37	3966
2026-01-06 01:52:56.75	198.51	41.50	-32.5	-33.6	20.9	0.00e+00	0	57	0	2131755008	37	3912
2026-01-06 01:52:57.76	198.51	41.22	-32.4	-33.6	20.9	0.00e+00	0	56	0	2138046464	36	4107
2026-01-06 01:52:58.77	198.52	40.95	-32.3	-33.5	21.0	0.00e+00	0	56	0	2143289344	36	4070
2026-01-06 01:52:59.78	198.52	40.67	-32.3	-33.5	21.0	0.00e+00	0	56	0	2148532224	36	4064
2026-01-06 01:53:00.79	198.53	40.40	-32.3	-33.4	21.0	0.00e+00	0	56	0	2154823680	36	4040
2026-01-06 01:53:01.80	198.53	40.13	-32.2	-33.4	21.0	0.00e+00	0	56	0	2160066560	36	4024
2026-01-06 01:53:02.81	198.53	39.87	-32.2	-33.3	21.1	0.00e+00	0	56	0	2166358016	36	3998
2026-01-06 01:53:03.82	198.54	39.60	-32.1	-33.3	21.1	0.00e+00	0	56	0	2171600896	36	3979
2026-01-06 01:53:04.83	198.54	39.34	-32.1	-33.3	21.1	0.00e+00	0	56	0	2176843776	36	3963
2026-01-06 01:53:05.84	198.55	39.08	-32.0	-33.2	21.2	0.00e+00	0	56	0	2183135232	36	3917
2026-01-06 01:53:06.85	198.55	38.82	-31.3	-32.5	21.1	0.00e+00	0	57	0	2188378112	34	4056
2026-01-06 01:53:07.86	198.55	38.56	-31.2	-32.3	21.2	0.00e+00	0	56	0	2194669568	34	3998
2026-01-06 01:53:08.87	198.56	38.31	-31.1	-32.3	21.3	0.00e+00	0	56	0	2199912448	34	3963
2026-01-06 01:53:09.88	198.56	38.05	-31.1	-32.2	21.4	0.00e+00	0	56	0	2206203904	34	3939
2026-01-06 01:53:10.89	198.57	37.80	-31.1	-32.2	21.3	0.00e+00	0	56	0	2211446784	34	3936
2026-01-06 01:53:11.90	198.57	37.55	-31.1	-32.3	21.3	0.00e+00	0	56	0	2217738240	34	3962
2026-01-06 01:53:12.92	198.57	37.30	-31.2	-32.4	21.2	0.00e+00	0	56	0	2222981120	34	4006
2026-01-06 01:53:13.93	198.58	37.06	-31.4	-32.6	21.0	0.00e+00	0	56	0	2228224000	34	4117
2026-01-06 01:53:14.94	198.58	36.81	-31.6	-32.8	20.9	0.00e+00	0	56	0	2234515456	34	4198
2026-01-06 01:53:15.94	198.59	36.58	-31.8	-33.0	20.7	0.00e+00	0	56	0	2239758336	34	4309
2026-01-06 01:53:16.95	198.59	36.34	-31.8	-33.1	20.6	0.00e+00	0	56	0	2246049792	34	4343
2026-01-06 01:53:17.96	198.59	36.10	-31.8	-33.1	20.6	0.00e+00	0	56	0	2251292672	34	4358
2026-01-06 01:53:18.97	198.60	35.86	-31.8	-33.0	20.6	0.00e+00	0	57	0	2256535552	34	4340
2026-01-06 01:53:19.98	198.60	35.62	-31.7	-33.0	20.7	0.00e+00	0	56	0	2262827008	34	4301
2026-01-06 01:53:20.99	198.61	35.39	-31.7	-32.9	20.7	0.00e+00	0	56	0	2268069888	34	4253
2026-01-06 01:53:22.00	198.61	35.16	-31.6	-32.8	20.8	0.00e+00	0	57	0	2274361344	34	4204
2026-01-06 01:53:23.01	198.61	34.93	-31.5	-32.7	20.9	0.00e+00	0	56	0	2279604224	34	4156
2026-01-06 01:53:24.02	198.62	34.70	-31.4	-32.6	20.9	0.00e+00	0	57	0	2284847104	34	4131
2026-01-06 01:53:25.03	198.62	34.48	-31.5	-32.6	20.9	0.00e+00	0	57	0	2291138560	34	4134
2026-01-06 01:53:26.04	198.63	34.25	-31.4	-32.6	21.0	0.00e+00	0	57	0	2296381440	34	4104
2026-01-06 01:53:27.05	198.63	34.03	-31.5	-32.6	20.9	0.00e+00	0	57	0	2302672896	34	4144
2026-01-06 01:53:28.06	198.63	33.81	-31.5	-32.7	20.9	0.00e+00	0	57	0	2307915776	34	4182
2026-01-06 01:53:29.07	198.64	33.59	-31.6	-32.8	20.8	0.00e+00	0	57	0	2314207232	34	4231
2026-01-06 01:53:30.08	198.64	33.37	-31.7	-32.9	20.7	0.00e+00	0	56	0	2319450112	34	4263
2026-01-06 01:53:31.09	198.65	33.15	-31.8	-33.0	20.6	0.00e+00	0	56	0	2324692992	34	4302
2026-01-06 01:53:32.10	198.65	32.93	-31.9	-33.1	20.6	0.00e+00	0	57	0	2330984448	34	4350
2026-01-06 01:53:33.11	198.65	32.72	-31.9	-33.2	20.5	0.00e+00	0	57	0	2336227328	34	4401
2026-01-06 01:53:34.12	198.66	32.51	-32.1	-33.3	20.4	0.00e+00	0	57	0	2342518784	34	4459
2026-01-06 01:53:35.13	198.66	32.30	-32.1	-33.4	20.3	0.00e+00	0	57	0	2347761664	34	4508
2026-01-06 01:53:36.14	198.66	32.09	-32.2	-33.5	20.2	0.00e+00	0	57	0	2353004544	34	4561
2026-01-06 01:53:37.15	198.67	31.88	-32.3	-33.5	20.1	0.00e+00	0	57	0	2359296000	35	4338
2026-01-06 01:53:38.16	198.67	31.67	-32.3	-33.6	20.1	0.00e+00	0	56	0	2364538880	35	4368
2026-01-06 01:53:39.17	198.68	31.47	-32.4	-33.7	20.0	0.00e+00	0	57	0	2370830336	35	4403
2026-01-06 01:53:40.18	198.68	31.26	-32.4	-33.7	20.0	0.00e+00	0	56	0	2376073216	35	4423
2026-01-06 01:53:41.19	198.68	31.06	-32.4	-33.7	20.0	0.00e+00	0	56	0	2381316096	35	4432
2026-01-06 01:53:42.20	198.69	30.86	-32.5	-33.8	19.9	0.00e+00	0	57	0	2387607552	35	4457
2026-01-06 01:53:43.21	198.69	30.66	-32.5	-33.8	19.9	0.00e+00	0	57	0	2392850432	35	4456
2026-01-06 01:53:44.22	198.69	30.46	-32.5	-33.7	19.9	0.00e+00	0	56	0	2399141888	35	4439
2026-01-06 01:53:45.23	198.70	30.27	-32.4	-33.7	20.0	0.00e+00	0	57	0	2404384768	35	4422
2026-01-06 01:53:46.24	198.70	30.07	-32.4	-33.7	20.0	0.00e+00	0	57	0	2410676224	35	4425
2026-01-06 01:53:47.25	198.71	29.88	-32.4	-33.7	20.0	0.00e+00	0	56	0	2415919104	35	4403
2026-01-06 01:53:48.26	198.71	29.68	-32.4	-33.6	20.1	0.00e+00	0	56	0	2422210560	35	4378
2026-01-06 01:53:49.27	198.71	29.49	-32.3	-33.6	20.1	0.00e+00	0	56	0	2427453440	35	4366
2026-01-06 01:53:50.28	198.72	29.30	-32.3	-33.5	20.1	0.00e+00	0	56	0	2432696320	35	4334
2026-01-06 01:53:51.29	198.72	29.11	-32.2	-33.5	20.2	0.00e+00	0	56	0	2438987776	35	4306
2026-01-06 01:53:52.30	198.72	28.93	-32.1	-33.4	20.3	0.00e+00	0	56	0	2444230656	35	4263
2026-01-06 01:53:53.31	198.73	28.74	-32.1	-33.3	20.3	0.00e+00	0	57	0	2450522112	35	4233
2026-01-06 01:53:54.32	198.73	28.55	-32.0	-33.3	20.4	0.00e+00	0	57	0	2455764992	35	4201
2026-01-06 01:53:55.33	198.73	28.37	-31.9	-33.2	20.5	0.00e+00	0	56	0	2461007872	35	4146
2026-01-06 01:53:56.34	198.74	28.19	-31.9	-33.1	20.6	0.00e+00	0	56	0	2467299328	35	4105
2026-01-06 01:53:57.35	198.74	28.01	-31.8	-33.0	20.6	0.00e+00	0	56	0	2472542208	35	4074
2026-01-06 01:53:58.36	198.75	27.83	-31.8	-32.9	20.7	0.00e+00	0	57	0	2478833664	35	4044
2026-01-06 01:53:59.37	198.75	27.65	-31.7	-32.9	20.7	0.00e+00	0	57	0	2484076544	35	4024
2026-01-06 01:54:00.38	198.75	27.47	-31.7	-32.8	20.8	0.00e+00	0	56	0	2489319424	35	3994
2026-01-06 01:54:01.39	198.76	27.29	-31.7	-32.8	20.8	0.00e+00	0	56	0	2495610880	35	4001
2026-01-06 01:54:02.40	198.76	27.12	-31.6	-32.8	20.8	0.00e+00	0	57	0	2500853760	35	3989
2026-01-06 01:54:03.41	198.76	26.94	-31.7	-32.8	20.8	0.00e+00	0	56	0	2507145216	35	4001
2026-01-06 01:54:04.43	198.77	26.77	-31.7	-32.9	20.7	0.00e+00	0	57	0	2512388096	35	4032
2026-01-06 01:54:05.44	198.77	26.59	-31.7	-32.9	20.7	0.00e+00	0	57	0	2518679552	35	4040
2026-01-06 01:54:06.45	198.77	26.42	-31.8	-33.0	20.6	0.00e+00	0	56	0	2523922432	35	4059
2026-01-06 01:54:07.45	198.78	26.25	-31.8	-33.0	20.6	0.00e+00	0	56	0	2530213888	35	4098
2026-01-06 01:54:08.47	198.78	26.08	-31.9	-33.1	20.5	0.00e+00	0	56	0	2535456768	35	4117
2026-01-06 01:54:09.48	198.79	25.92	-31.9	-33.2	20.5	0.00e+00	0	57	0	2540699648	35	4158
2026-01-06 01:54:10.49	198.79	25.75	-32.0	-33.2	20.4	0.00e+00	0	57	0	2546991104	35	4193
2026-01-06 01:54:11.50	198.79	25.58	-32.1	-33.3	20.3	0.00e+00	0	57	0	2552233984	35	4221
2026-01-06 01:54:12.51	198.80	25.42	-32.1	-33.3	20.3	0.00e+00	0	57	0	2558525440	35	4235
2026-01-06 01:54:13.52	198.80	25.25	-32.1	-33.4	20.3	0.00e+00	0	56	0	2563768320	35	4245
2026-01-06 01:54:14.53	198.80	25.09	-32.1	-33.4	20.2	0.00e+00	0	57	0	2569011200	35	4259
2026-01-06 01:54:15.54	198.81	24.93	-32.2	-33.5	20.2	0.00e+00	0	57	0	2575302656	35	4294
2026-01-06 01:54:16.55	198.81	24.77	-32.2	-33.5	20.1	0.00e+00	0	56	0	2580545536	35	4324
2026-01-06 01:54:17.56	198.81	24.61	-32.2	-33.5	20.1	0.00e+00	0	57	0	2586836992	35	4318
2026-01-06 01:54:18.57	198.82	24.45	-32.3	-33.5	20.1	0.00e+00	0	57	0	2592079872	35	4336
2026-01-06 01:54:19.58	198.82	24.29	-32.3	-33.6	20.0	0.00e+00	0	56	0	2597322752	35	4354
2026-01-06 01:54:20.60	198.82	24.13	-32.3	-33.6	20.0	0.00e+00	0	57	0	2603614208	35	4363
2026-01-06 01:54:21.60	198.83	23.98	-32.4	-33.6	20.0	0.00e+00	0	57	0	2608857088	35	4375
2026-01-06 01:54:22.61	198.83	23.82	-32.4	-33.6	20.0	0.00e+00	0	57	0	2615148544	35	4377
2026-01-06 01:54:23.62	198.83	23.67	-32.4	-33.7	19.9	0.00e+00	0	57	0	2620391424	35	4397
2026-01-06 01:54:24.63	198.84	23.51	-32.4	-33.6	20.0	0.00e+00	0	57	0	2626682880	35	4387
2026-01-06 01:54:25.64	198.84	23.36	-32.5	-33.7	19.9	0.00e+00	0	57	0	2631925760	35	4421
2026-01-06 01:54:26.66	198.84	23.21	-32.5	-33.7	19.9	0.00e+00	0	56	0	2638217216	35	4433
2026-01-06 01:54:27.67	198.85	23.06	-32.5	-33.8	19.9	0.00e+00	0	56	0	2643460096	35	4447
2026-01-06 01:54:28.68	198.85	22.91	-32.6	-33.8	19.8	0.00e+00	0	57	0	2648702976	35	4473
2026-01-06 01:54:29.69	198.86	22.76	-32.6	-33.9	19.8	0.00e+00	0	57	0	2654994432	35	4497
2026-01-06 01:54:30.70	198.86	22.61	-32.7	-33.9	19.7	0.00e+00	0	57	0	2660237312	35	4541
2026-01-06 01:54:31.71	198.86	22.46	-32.7	-33.9	19.7	0.00e+00	0	56	0	2666528768	35	4540
2026-01-06 01:54:32.72	198.87	22.32	-32.7	-34.0	19.7	0.00e+00	0	57	0	2671771648	35	4563
2026-01-06 01:54:33.73	198.87	22.17	-33.4	-34.6	19.8	0.00e+00	0	56	0	2677014528	37	4390
2026-01-06 01:54:34.74	198.87	22.03	-33.4	-34.7	19.7	0.00e+00	0	56	0	2683305984	37	4418
2026-01-06 01:54:35.75	198.88	21.88	-33.5	-34.8	19.7	0.00e+00	0	56	0	2688548864	37	4444
2026-01-06 01:54:36.76	198.88	21.74	-33.5	-34.8	19.7	0.00e+00	0	56	0	2694840320	37	4468
2026-01-06 01:54:37.77	198.88	21.60	-33.6	-34.9	19.6	0.00e+00	0	56	0	2700083200	37	4497
2026-01-06 01:54:38.78	198.89	21.46	-33.6	-34.9	19.6	0.00e+00	0	57	0	2705326080	37	4515
2026-01-06 01:54:39.79	198.89	21.32	-33.7	-35.0	19.5	0.00e+00	0	57	0	2711617536	37	4552
2026-01-06 01:54:40.80	198.89	21.18	-33.7	-35.0	19.5	0.00e+00	0	57	0	2716860416	38	4333
2026-01-06 01:54:41.81	198.90	21.04	-33.7	-35.0	19.5	0.00e+00	0	57	0	2723151872	38	4333
2026-01-06 01:54:42.82	198.90	20.90	-33.8	-35.1	19.4	0.00e+00	0	56	0	2728394752	38	4368
2026-01-06 01:54:43.83	198.90	20.76	-33.8	-35.1	19.4	0.00e+00	0	57	0	2734686208	38	4378
2026-01-06 01:54:44.84	198.91	20.62	-33.9	-35.1	19.3	0.00e+00	0	57	0	2739929088	38	4391
2026-01-06 01:54:45.85	198.91	20.49	-33.9	-35.2	19.3	0.00e+00	0	57	0	2746220544	38	4419
2026-01-06 01:54:46.86	198.91	20.35	-33.9	-35.2	19.3	0.00e+00	0	57	0	2751463424	38	4436
2026-01-06 01:54:47.87	198.92	20.22	-33.9	-35.2	19.3	0.00e+00	0	57	0	2756706304	38	4439
2026-01-06 01:54:48.89	198.92	20.08	-34.0	-35.3	19.2	0.00e+00	0	57	0	2762997760	38	4465
2026-01-06 01:54:49.90	198.92	19.95	-34.0	-35.4	19.1	0.00e+00	0	57	0	2768240640	38	4496
2026-01-06 01:54:50.91	198.93	19.82	-34.0	-35.3	19.1	0.00e+00	0	57	0	2774532096	38	4493
2026-01-06 01:54:51.92	198.93	19.69	-34.1	-35.4	19.1	0.00e+00	0	57	0	2779774976	38	4530
2026-01-06 01:54:52.93	198.93	19.55	-34.1	-35.5	19.1	0.00e+00	0	57	0	2785017856	38	4556
2026-01-06 01:54:53.94	198.94	19.42	-34.1	-35.4	19.1	0.00e+00	0	56	0	2791309312	38	4545
2026-01-06 01:54:54.95	198.94	19.29	-34.2	-35.5	19.0	0.00e+00	0	57	0	2796552192	38	4576
2026-01-06 01:54:55.96	198.94	19.17	-34.2	-35.5	19.0	0.00e+00	0	57	0	2802843648	38	4565
2026-01-06 01:54:56.97	198.95	19.04	-34.2	-35.5	19.0	0.00e+00	0	57	0	2808086528	38	4594
2026-01-06 01:54:57.98	198.95	18.91	-34.2	-35.6	18.9	0.00e+00	0	57	0	2813329408	39	4362
2026-01-06 01:54:59.00	198.95	18.78	-34.3	-35.6	18.9	0.00e+00	0	57	0	2819620864	39	4381
2026-01-06 01:55:00.00	198.96	18.66	-34.3	-35.6	18.9	0.00e+00	0	57	0	2824863744	39	4389
2026-01-06 01:55:01.02	198.96	18.53	-34.3	-35.7	18.8	0.00e+00	0	56	0	2831155200	39	4412
2026-01-06 01:55:02.03	198.96	18.40	-34.4	-35.8	18.8	0.00e+00	0	57	0	2836398080	39	4444
2026-01-06 01:55:03.04	198.97	18.28	-34.3	-35.7	18.8	0.00e+00	0	57	0	2842689536	39	4417
2026-01-06 01:55:04.04	198.97	18.16	-34.4	-35.7	18.8	0.00e+00	0	57	0	2847932416	39	4439
2026-01-06 01:55:05.05	198.97	18.03	-34.4	-35.8	18.7	0.00e+00	0	56	0	2853175296	39	4473
2026-01-06 01:55:06.06	198.98	17.91	-34.5	-35.8	18.7	0.00e+00	0	57	0	2859466752	39	4486
2026-01-06 01:55:07.07	198.98	17.79	-34.5	-35.9	18.7	0.00e+00	0	57	0	2864709632	39	4503
2026-01-06 01:55:08.08	198.98	17.67	-34.5	-35.9	18.6	0.00e+00	0	56	0	2871001088	39	4534
2026-01-06 01:55:09.09	198.99	17.55	-34.5	-35.9	18.6	0.00e+00	0	56	0	2876243968	39	4527
2026-01-06 01:55:10.11	198.99	17.43	-34.6	-36.0	18.5	0.00e+00	0	57	0	2882535424	39	4566
2026-01-06 01:55:11.12	198.99	17.31	-34.7	-36.1	18.5	0.00e+00	0	57	0	2887778304	39	4609
2026-01-06 01:55:12.13	199.00	17.19	-34.7	-36.1	18.5	0.00e+00	0	57	0	2893021184	39	4613
2026-01-06 01:55:13.14	199.00	17.07	-34.7	-36.1	18.5	0.00e+00	0	56	0	2899312640	39	4608
2026-01-06 01:55:14.15	199.00	16.95	-34.7	-36.1	18.4	0.00e+00	0	56	0	2904555520	39	4632
2026-01-06 01:55:15.16	199.01	16.83	-34.7	-36.1	18.4	0.00e+00	0	57	0	2910846976	40	4357
2026-01-06 01:55:16.17	199.01	16.72	-34.7	-36.1	18.4	0.00e+00	0	56	0	2916089856	40	4358
2026-01-06 01:55:17.18	199.01	16.60	-34.7	-36.1	18.4	0.00e+00	0	57	0	2921332736	40	4356
2026-01-06 01:55:18.19	199.02	16.48	-34.7	-36.1	18.3	0.00e+00	0	57	0	2927624192	40	4387
2026-01-06 01:55:19.19	199.02	16.37	-34.7	-36.1	18.3	0.00e+00	0	57	0	2932867072	40	4386
2026-01-06 01:55:20.20	199.02	16.26	-34.8	-36.2	18.3	0.00e+00	0	57	0	2939158528	40	4413
2026-01-06 01:55:21.21	199.03	16.14	-34.8	-36.2	18.3	0.00e+00	0	56	0	2944401408	40	4397
2026-01-06 01:55:22.22	199.03	16.03	-34.8	-36.3	18.2	0.00e+00	0	57	0	2949644288	40	4447
2026-01-06 01:55:23.23	199.03	15.92	-34.9	-36.3	18.1	0.00e+00	0	56	0	2955935744	40	4487
2026-01-06 01:55:24.24	199.04	15.80	-34.9	-36.3	18.2	0.00e+00	0	56	0	2961178624	40	4468
2026-01-06 01:55:25.25	199.04	15.69	-34.9	-36.4	18.1	0.00e+00	0	56	0	2967470080	40	4507
2026-01-06 01:55:26.26	199.04	15.58	-35.0	-36.4	18.0	0.00e+00	0	57	0	2972712960	40	4545
2026-01-06 01:55:27.27	199.05	15.47	-35.0	-36.5	18.0	0.00e+00	0	56	0	2979004416	40	4564
2026-01-06 01:55:28.28	199.05	15.36	-34.9	-36.4	18.1	0.00e+00	0	57	0	2984247296	40	4512
2026-01-06 01:55:29.29	199.05	15.25	-34.9	-36.3	18.1	0.00e+00	0	57	0	2989490176	40	4492
2026-01-06 01:55:30.30	199.06	15.14	-35.0	-36.5	18.0	0.00e+00	0	57	0	2995781632	40	4565
2026-01-06 01:55:31.31	199.06	15.03	-35.1	-36.6	17.9	0.00e+00	0	56	0	3001024512	40	4604
2026-01-06 01:55:32.32	199.06	14.92	-35.1	-36.6	17.9	0.00e+00	0	56	0	3007315968	40	4613
2026-01-06 01:55:33.33	199.07	14.81	-35.1	-36.5	17.9	0.00e+00	0	57	0	3012558848	40	4590
2026-01-06 01:55:34.34	199.07	14.71	-35.0	-36.5	18.0	0.00e+00	0	57	0	3017801728	40	4559
2026-01-06 01:55:35.35	199.07	14.60	-35.1	-36.6	17.9	0.00e+00	0	56	0	3024093184	40	4628
2026-01-06 01:55:36.36	199.08	14.49	-35.2	-36.6	17.8	0.00e+00	0	57	0	3029336064	40	4629
2026-01-06 01:55:37.37	199.08	14.39	-35.2	-36.6	17.9	0.00e+00	0	56	0	3035627520	40	4629
2026-01-06 01:55:38.38	199.08	14.28	-35.2	-36.7	17.8	0.00e+00	0	56	0	3040870400	41	4393
2026-01-06 01:55:39.39	199.08	14.18	-35.2	-36.7	17.7	0.00e+00	0	56	0	3046113280	41	4415
2026-01-06 01:55:40.40	199.09	14.07	-35.3	-36.8	17.7	0.00e+00	0	56	0	3052404736	41	4460
2026-01-06 01:55:41.41	199.09	13.97	-35.3	-36.8	17.7	0.00e+00	0	57	0	3057647616	41	4448
2026-01-06 01:55:42.42	199.09	13.86	-35.3	-36.8	17.7	0.00e+00	0	57	0	3063939072	41	4468
2026-01-06 01:55:43.43	199.10	13.76	-35.2	-36.6	17.8	0.00e+00	0	56	0	3069181952	41	4387
2026-01-06 01:55:44.44	199.10	13.66	-35.2	-36.6	17.8	0.00e+00	0	57	0	3075473408	41	4382
2026-01-06 01:55:45.45	199.10	13.56	-35.2	-36.7	17.8	0.00e+00	0	56	0	3080716288	41	4399
2026-01-06 01:55:46.46	199.11	13.45	-35.2	-36.7	17.7	0.00e+00	0	56	0	3087007744	41	4404
2026-01-06 01:55:47.47	199.11	13.35	-35.3	-36.8	17.6	0.00e+00	0	57	0	3092250624	41	4455
2026-01-06 01:55:48.48	199.11	13.25	-35.3	-36.8	17.6	0.00e+00	0	57	0	3097493504	41	4447
2026-01-06 01:55:49.49	199.12	13.15	-35.2	-36.7	17.7	0.00e+00	0	56	0	3103784960	41	4427
2026-01-06 01:55:50.50	199.12	13.05	-35.4	-36.9	17.5	0.00e+00	0	57	0	3109027840	41	4540
2026-01-06 01:55:51.51	199.12	12.95	-35.4	-36.9	17.5	0.00e+00	0	57	0	3115319296	41	4543
2026-01-06 01:55:52.52	199.13	12.85	-35.4	-36.9	17.5	0.00e+00	0	57	0	3120562176	41	4496
2026-01-06 01:55:53.53	199.13	12.75	-35.3	-36.7	17.6	0.00e+00	0	57	0	3125805056	41	4440
2026-01-06 01:55:54.55	199.13	12.65	-35.3	-36.7	17.6	0.00e+00	0	56	0	3132096512	41	4434
2026-01-06 01:55:55.55	199.14	12.55	-35.4	-36.9	17.5	0.00e+00	0	57	0	3137339392	41	4502
2026-01-06 01:55:56.57	199.14	12.45	-35.4	-36.9	17.5	0.00e+00	0	57	0	3143630848	41	4513
2026-01-06 01:55:57.58	199.14	12.36	-35.4	-36.9	17.5	0.00e+00	0	56	0	3148873728	41	4527
2026-01-06 01:55:58.59	199.15	12.26	-35.4	-36.9	17.4	0.00e+00	0	57	0	3154116608	41	4528
2026-01-06 01:55:59.59	199.15	12.16	-35.4	-36.9	17.4	0.00e+00	0	56	0	3160408064	41	4538
2026-01-06 01:56:00.60	199.15	12.07	-35.5	-37.0	17.4	0.00e+00	0	57	0	3165650944	41	4576
2026-01-06 01:56:01.61	199.15	11.97	-35.6	-37.1	17.3	0.00e+00	0	56	0	3171942400	41	4615
2026-01-06 01:56:02.62	199.16	11.88	-35.5	-37.0	17.3	0.00e+00	0	56	0	3177185280	41	4592
2026-01-06 01:56:03.63	199.16	11.78	-35.5	-37.0	17.3	0.00e+00	0	56	0	3183476736	41	4582
2026-01-06 01:56:04.64	199.16	11.69	-35.6	-37.1	17.2	0.00e+00	0	57	0	3188719616	41	4622
2026-01-06 01:56:05.65	199.17	11.59	-35.5	-37.1	17.3	0.00e+00	0	56	0	3195011072	41	4604
2026-01-06 01:56:06.66	199.17	11.50	-35.6	-37.1	17.2	0.00e+00	0	56	0	3200253952	41	4616
2026-01-06 01:56:07.67	199.17	11.40	-35.6	-37.1	17.2	0.00e+00	0	57	0	3205496832	41	4619
2026-01-06 01:56:08.68	199.18	11.31	-35.7	-37.2	17.1	0.00e+00	0	56	0	3211788288	41	4676
2026-01-06 01:56:09.69	199.18	11.22	-35.7	-37.2	17.1	0.00e+00	0	56	0	3217031168	41	4677
2026-01-06 01:56:10.71	199.18	11.12	-35.8	-37.3	17.0	0.00e+00	0	57	0	3223322624	42	4478
2026-01-06 01:56:11.71	199.19	11.03	-35.8	-37.4	16.9	0.00e+00	0	56	0	3228565504	42	4527
2026-01-06 01:56:12.72	199.19	10.94	-35.9	-37.5	16.8	0.00e+00	0	56	0	3233808384	42	4590
2026-01-06 01:56:13.73	199.19	10.85	-36.0	-37.6	16.7	0.00e+00	0	57	0	3240099840	42	4644
2026-01-06 01:56:14.74	199.20	10.76	-36.1	-37.7	16.6	0.00e+00	0	56	0	3245342720	42	4693
2026-01-06 01:56:15.75	199.20	10.67	-35.9	-37.5	16.9	0.00e+00	0	56	0	3251634176	42	4553
2026-01-06 01:56:16.76	199.20	10.58	-36.0	-37.7	16.6	0.00e+00	0	56	0	3256877056	42	4658
2026-01-06 01:56:17.77	199.21	10.49	-36.0	-37.7	16.7	0.00e+00	0	56	0	3262119936	42	4656
2026-01-06 01:56:18.78	199.21	10.40	-36.2	-37.8	16.4	0.00e+00	0	56	0	3268411392	43	4489
2026-01-06 01:56:19.79	199.21	10.31	-36.2	-37.8	16.5	0.00e+00	0	56	0	3273654272	43	4462
2026-01-06 01:56:20.80	199.21	10.22	-36.2	-37.9	16.4	0.00e+00	0	56	0	3279945728	43	4503
2026-01-06 01:56:21.81	199.22	10.13	-36.2	-37.8	16.4	0.00e+00	0	57	0	3285188608	43	4488
2026-01-06 01:56:22.82	199.22	10.04	-36.0	-37.6	16.7	0.00e+00	0	56	0	3291480064	43	4356
2026-01-06 01:56:23.83	199.22	9.95	-35.9	-37.6	16.7	0.00e+00	0	57	0	3296722944	43	4346
2026-01-06 01:56:24.84	199.23	9.86	-35.9	-37.5	16.7	0.00e+00	0	57	0	3301965824	43	4335
2026-01-06 01:56:25.85	199.23	9.78	-35.9	-37.6	16.7	0.00e+00	0	57	0	3308257280	43	4341
2026-01-06 01:56:26.86	199.23	9.69	-36.0	-37.6	16.6	0.00e+00	0	56	0	3313500160	43	4367
2026-01-06 01:56:27.87	199.24	9.60	-36.1	-37.7	16.5	0.00e+00	0	57	0	3319791616	43	4414
2026-01-06 01:56:28.88	199.24	9.51	-36.1	-37.8	16.5	0.00e+00	0	57	0	3325034496	43	4446
2026-01-06 01:56:29.89	199.24	9.43	-36.2	-37.8	16.4	0.00e+00	0	56	0	3330277376	43	4475
2026-01-06 01:56:30.90	199.25	9.34	-36.2	-37.8	16.4	0.00e+00	0	57	0	3336568832	43	4493
2026-01-06 01:56:31.91	199.25	9.26	-36.4	-38.2	16.0	0.00e+00	0	57	0	3341811712	43	4662
2026-01-06 01:56:32.92	199.25	9.17	-36.5	-38.2	16.0	0.00e+00	0	56	0	3348103168	43	4676
2026-01-06 01:56:33.93	199.25	9.08	-36.5	-38.2	16.0	0.00e+00	0	56	0	3353346048	43	4699
2026-01-06 01:56:34.94	199.26	9.00	-36.6	-38.3	15.8	0.00e+00	0	56	0	3359637504	43	4750
2026-01-06 01:56:35.95	199.26	8.91	-36.6	-38.4	15.8	0.00e+00	0	56	0	3364880384	43	4785
2026-01-06 01:56:36.97	199.26	8.83	-36.5	-38.2	15.9	0.00e+00	0	57	0	3370123264	43	4675
2026-01-06 01:56:37.97	199.27	8.75	-36.4	-38.2	16.0	0.00e+00	0	57	0	3376414720	43	4652
2026-01-06 01:56:38.98	199.27	8.66	-36.3	-38.0	16.1	0.00e+00	0	57	0	3381657600	43	4589
2026-01-06 01:56:39.99	199.27	8.58	-36.3	-38.0	16.1	0.00e+00	0	57	0	3387949056	43	4597
2026-01-06 01:56:41.00	199.28	8.50	-36.4	-38.2	15.9	0.00e+00	0	57	0	3393191936	43	4656
2026-01-06 01:56:42.01	199.28	8.41	-36.4	-38.2	15.9	0.00e+00	0	57	0	3399483392	43	4677
2026-01-06 01:56:43.02	199.28	8.33	-36.5	-38.3	15.7	0.00e+00	0	57	0	3404726272	43	4732
2026-01-06 01:56:44.03	199.29	8.25	-36.6	-38.4	15.6	0.00e+00	0	56	0	3409969152	43	4778
2026-01-06 01:56:45.04	199.29	8.16	-36.5	-38.3	15.7	0.00e+00	0	57	0	3416260608	43	4724
2026-01-06 01:56:46.05	199.29	8.08	-36.4	-38.2	15.8	0.00e+00	0	56	0	3421503488	43	4674
2026-01-06 01:56:47.06	199.29	8.00	-36.5	-38.3	15.7	0.00e+00	0	56	0	3427794944	43	4752
2026-01-06 01:56:48.07	199.30	7.92	-44.1	-53.4	3.9	7.96e-01	0	57	104	3430940672	58	11292
2026-01-06 01:56:49.08	199.30	7.84	-44.7	-56.4	3.8	8.47e-01	0	57	104	3430940672	60	14302
2026-01-06 01:56:50.09	199.30	7.76	-44.9	-56.6	3.8	8.46e-01	0	56	104	3430940672	60	14658
2026-01-06 01:56:51.11	199.31	7.68	-45.0	-56.8	3.8	8.47e-01	0	56	104	3430940672	60	14932
2026-01-06 01:56:52.12	199.31	7.60	-45.1	-56.9	3.8	8.46e-01	0	57	104	3430940672	60	15162
2026-01-06 01:56:53.13	199.31	7.52	-45.1	-57.0	3.8	8.46e-01	0	57	104	3430940672	60	15230
2026-01-06 01:56:54.14	199.32	7.44	-45.2	-57.0	3.8	8.47e-01	0	57	104	3430940672	60	15264
2026-01-06 01:56:55.15	199.32	7.36	-45.2	-57.0	3.8	8.45e-01	0	57	104	3430940672	60	15275
2026-01-06 01:56:56.16	199.32	7.28	-45.2	-57.0	3.8	8.47e-01	0	57	104	3430940672	60	15317
2026-01-06 01:56:57.17	199.32	7.20	-45.2	-57.0	3.8	8.47e-01	0	57	104	3430940672	60	15258
2026-01-06 01:56:58.18	199.33	7.12	-45.1	-57.0	3.8	8.47e-01	0	57	104	3430940672	60	15271
2026-01-06 01:56:59.19	199.33	7.04	-45.1	-56.9	3.8	8.46e-01	0	57	104	3430940672	60	15214
2026-01-06 01:57:00.20	199.33	6.96	-45.1	-56.9	3.8	8.45e-01	0	57	104	3430940672	60	15221
2026-01-06 01:57:01.21	199.34	6.88	-45.1	-56.9	3.8	8.47e-01	0	56	104	3430940672	60	15222
2026-01-06 01:57:02.22	199.34	6.81	-45.1	-57.0	3.8	8.47e-01	0	57	104	3430940672	60	15296
2026-01-06 01:57:03.23	199.34	6.73	-45.1	-57.0	3.8	8.45e-01	0	57	104	3430940672	60	15281
2026-01-06 01:57:04.24	199.35	6.65	-45.1	-57.0	3.8	8.46e-01	0	56	104	3430940672	60	15231
2026-01-06 01:57:05.25	199.35	6.57	-45.1	-57.0	3.8	8.47e-01	0	56	104	3430940672	60	15230
2026-01-06 01:57:06.26	199.35	6.50	-45.1	-56.9	3.8	8.44e-01	0	56	104	3430940672	60	15203
2026-01-06 01:57:07.27	199.35	6.42	-45.1	-56.9	3.8	8.46e-01	0	57	104	3430940672	60	15182
2026-01-06 01:57:08.28	199.36	6.34	-45.1	-57.0	3.8	8.46e-01	0	57	104	3430940672	60	15240
2026-01-06 01:57:09.29	199.36	6.27	-45.1	-56.9	3.8	8.46e-01	0	56	104	3430940672	60	15200
2026-01-06 01:57:10.30	199.36	6.19	-45.1	-56.9	3.8	8.47e-01	0	57	104	3430940672	60	15168
2026-01-06 01:57:11.31	199.37	6.11	-45.1	-56.9	3.8	8.46e-01	0	56	104	3430940672	60	15191
2026-01-06 01:57:12.32	199.37	6.04	-45.1	-56.9	3.8	8.45e-01	0	57	104	3430940672	60	15210
2026-01-06 01:57:13.33	199.37	5.96	-45.1	-56.9	3.8	8.46e-01	0	57	104	3430940672	60	15220
2026-01-06 01:57:14.34	199.38	5.89	-45.1	-56.9	3.8	8.46e-01	0	56	104	3430940672	60	15191
2026-01-06 01:57:15.36	199.38	5.81	-45.1	-56.9	3.8	8.46e-01	0	57	104	3430940672	60	15206
2026-01-06 01:57:16.37	199.38	5.74	-45.1	-56.9	3.8	8.47e-01	0	57	104	3430940672	60	15197
2026-01-06 01:57:17.38	199.38	5.66	-45.1	-56.9	3.8	8.47e-01	0	57	104	3430940672	60	15174
2026-01-06 01:57:18.39	199.39	5.59	-45.1	-56.9	3.8	8.46e-01	0	57	104	3430940672	60	15209
2026-01-06 01:57:19.40	199.39	5.52	-45.1	-56.9	3.8	8.46e-01	0	56	104	3430940672	60	15200
2026-01-06 01:57:20.41	199.39	5.44	-45.1	-56.9	3.8	8.45e-01	0	57	104	3430940672	60	15199
2026-01-06 01:57:21.42	199.40	5.37	-45.1	-56.9	3.8	8.47e-01	0	57	104	3430940672	60	15210
2026-01-06 01:57:22.44	199.40	5.29	-45.1	-56.9	3.8	8.46e-01	0	57	104	3430940672	60	15174
2026-01-06 01:57:23.45	199.40	5.22	-45.1	-56.9	3.8	8.45e-01	0	57	104	3430940672	60	15149
2026-01-06 01:57:24.46	199.41	5.15	-45.1	-56.9	3.8	8.46e-01	0	57	104	3430940672	60	15155
2026-01-06 01:57:25.47	199.41	5.07	-45.1	-56.9	3.8	8.47e-01	0	57	104	3430940672	60	15174
2026-01-06 01:57:26.48	199.41	5.00	-45.1	-56.9	3.8	8.46e-01	0	57	104	3430940672	60	15149
2026-01-06 01:57:27.49	199.41	4.93	-45.1	-56.9	3.8	8.45e-01	0	57	104	3430940672	60	15156
2026-01-06 01:57:28.50	199.42	4.86	-45.1	-56.9	3.8	8.47e-01	0	56	104	3430940672	60	15182
2026-01-06 01:57:29.51	199.42	4.78	-45.1	-56.9	3.8	8.47e-01	0	57	104	3430940672	60	15164
2026-01-06 01:57:30.53	199.42	4.71	-45.1	-56.9	3.8	8.47e-01	0	57	104	3430940672	60	15105
2026-01-06 01:57:31.54	199.43	4.64	-45.1	-56.9	3.8	8.46e-01	0	57	104	3430940672	60	15189
2026-01-06 01:57:32.55	199.43	4.57	-45.1	-56.9	3.8	8.46e-01	0	57	104	3430940672	60	15133
2026-01-06 01:57:33.56	199.43	4.50	-45.1	-56.9	3.8	8.45e-01	0	57	104	3430940672	60	15189
2026-01-06 01:57:34.57	199.44	4.43	-45.1	-56.9	3.8	8.47e-01	0	57	104	3430940672	60	15151
