passes_logs/2026/01/06/R2.0S_Moscow/R2.0S_Moscow__20260106_230445_NOAA_20_JPSS-1_rec.log

#Pass ID: 20260106_230445_NOAA 20 (JPSS-1)
#Satellite: NOAA 20 (JPSS-1)
#Configuration: NOAA 20
#almurnet v.1.7.20251203
#Start time: 2026-01-06 23:04:46

#Version: 2.2.20231116
#Station: R2.0S_Moscow
#Location: 37.707566 lon 55.798166 lat
#TLE: 1 43013U 17073A   26006.30790171  .00000126  00000+0  80695-4 0  9991
#TLE: 2 43013  98.7629 307.3394 0001808  51.8724 308.2615 14.19533762421505

#Time	Az	El	Level	Level2	SNR	BER	BlckErr	Temp	State	Recorded	gain1	gain2
2026-01-06 23:04:46.03	19.09	2.02	-40.9	-56.0	3.8	1.49e+00	0	48	0	0	53	20425
2026-01-06 23:04:47.03	19.12	2.08	-40.9	-56.0	3.8	1.49e+00	0	48	104	0	53	20458
2026-01-06 23:04:48.04	19.15	2.15	-40.9	-56.0	3.8	1.49e+00	0	48	104	0	53	20482
2026-01-06 23:04:49.05	19.18	2.21	-40.9	-56.0	3.8	1.49e+00	0	48	104	0	53	20384
2026-01-06 23:04:50.06	19.21	2.27	-40.9	-56.0	3.8	1.49e+00	0	48	104	0	53	20406
2026-01-06 23:04:51.07	19.24	2.34	-40.9	-56.0	3.8	1.49e+00	0	48	104	0	53	20463
2026-01-06 23:04:52.09	19.27	2.40	-40.9	-56.0	3.8	1.49e+00	0	49	104	0	53	20425
2026-01-06 23:04:53.10	19.30	2.46	-40.9	-56.0	3.8	1.49e+00	0	48	104	0	53	20415
2026-01-06 23:04:54.11	19.34	2.53	-40.8	-56.0	3.8	1.49e+00	0	49	104	0	53	20456
2026-01-06 23:04:55.12	19.37	2.59	-40.9	-56.0	3.8	1.49e+00	0	49	104	0	53	20419
2026-01-06 23:04:56.13	19.40	2.66	-40.9	-56.0	3.8	1.49e+00	0	49	104	0	53	20374
2026-01-06 23:04:57.14	19.43	2.72	-40.8	-56.0	3.8	1.49e+00	0	49	104	0	53	20414
2026-01-06 23:04:58.15	19.46	2.79	-40.9	-56.0	3.8	1.49e+00	0	49	104	0	53	20457
2026-01-06 23:04:59.16	19.49	2.85	-40.9	-56.0	3.8	1.49e+00	0	49	104	0	53	20442
2026-01-06 23:05:00.17	19.53	2.91	-40.9	-56.0	3.8	1.49e+00	0	49	104	0	53	20361
2026-01-06 23:05:01.18	19.56	2.98	-40.9	-56.0	3.8	1.49e+00	0	49	104	0	53	20393
2026-01-06 23:05:02.19	19.59	3.04	-40.9	-56.0	3.8	1.49e+00	0	49	104	0	53	20400
2026-01-06 23:05:03.20	19.62	3.11	-40.9	-56.0	3.8	1.49e+00	0	49	104	0	53	20365
2026-01-06 23:05:04.21	19.66	3.17	-40.9	-56.0	3.8	1.49e+00	0	49	104	0	53	20436
2026-01-06 23:05:05.22	19.69	3.24	-40.9	-56.0	3.8	1.49e+00	0	49	104	0	53	20396
2026-01-06 23:05:06.23	19.72	3.31	-40.9	-56.0	3.8	1.49e+00	0	49	104	0	53	20431
2026-01-06 23:05:07.25	19.76	3.37	-40.9	-56.0	3.8	1.49e+00	0	49	104	0	53	20459
2026-01-06 23:05:08.26	19.79	3.44	-40.9	-56.0	3.8	1.49e+00	0	49	104	0	53	20355
2026-01-06 23:05:09.27	19.82	3.50	-40.9	-56.0	3.8	1.49e+00	0	50	104	0	53	20376
2026-01-06 23:05:10.28	19.86	3.57	-40.9	-56.0	3.8	1.49e+00	0	50	104	0	53	20436
2026-01-06 23:05:11.29	19.89	3.64	-40.9	-56.0	3.8	1.49e+00	0	50	104	0	53	20402
2026-01-06 23:05:12.30	19.92	3.70	-40.9	-56.0	3.8	1.49e+00	0	50	104	0	53	20372
2026-01-06 23:05:13.31	19.96	3.77	-40.9	-56.0	3.8	1.49e+00	0	50	104	0	53	20357
2026-01-06 23:05:14.32	19.99	3.84	-40.9	-56.0	3.8	1.49e+00	0	50	104	0	53	20381
2026-01-06 23:05:15.33	20.02	3.90	-40.9	-56.0	3.8	1.49e+00	0	50	104	0	53	20444
2026-01-06 23:05:16.34	20.06	3.97	-40.9	-56.0	3.8	1.49e+00	0	50	104	0	53	20373
2026-01-06 23:05:17.35	20.09	4.04	-40.9	-56.0	3.8	1.49e+00	0	50	104	0	53	20384
2026-01-06 23:05:18.36	20.13	4.11	-40.9	-56.0	3.8	1.49e+00	0	50	104	0	53	20355
2026-01-06 23:05:19.38	20.16	4.17	-40.9	-56.0	3.8	1.49e+00	0	50	104	0	53	20441
2026-01-06 23:05:20.39	20.20	4.24	-40.9	-56.0	3.8	1.49e+00	0	50	104	0	53	20360
2026-01-06 23:05:21.39	20.23	4.31	-40.9	-56.0	3.8	1.49e+00	0	50	104	0	53	20405
2026-01-06 23:05:22.40	20.27	4.38	-40.9	-56.0	3.8	1.49e+00	0	50	104	0	53	20414
2026-01-06 23:05:23.41	20.30	4.45	-40.9	-56.0	3.8	1.49e+00	0	50	104	0	53	20393
2026-01-06 23:05:24.43	20.34	4.51	-40.9	-56.0	3.8	1.49e+00	0	50	104	0	53	20342
2026-01-06 23:05:25.44	20.37	4.58	-40.9	-56.0	3.8	1.49e+00	0	50	104	0	53	20360
2026-01-06 23:05:26.45	20.41	4.65	-40.9	-56.0	3.8	1.49e+00	0	51	104	0	53	20409
2026-01-06 23:05:27.46	20.44	4.72	-40.9	-56.0	3.8	1.49e+00	0	51	104	0	53	20449
2026-01-06 23:05:28.47	20.48	4.79	-40.8	-56.0	3.8	1.49e+00	0	51	104	0	53	20370
2026-01-06 23:05:29.48	20.52	4.86	-40.9	-56.0	3.8	1.49e+00	0	51	104	0	53	20369
2026-01-06 23:05:30.49	20.55	4.93	-40.9	-56.0	3.8	1.49e+00	0	51	104	0	53	20309
2026-01-06 23:05:31.50	20.59	5.00	-40.8	-56.0	3.8	1.49e+00	0	51	104	0	53	20353
2026-01-06 23:05:32.51	20.62	5.07	-40.9	-56.0	3.8	1.49e+00	0	51	104	0	53	20388
2026-01-06 23:05:33.53	20.66	5.14	-40.9	-56.0	3.8	1.49e+00	0	51	104	0	53	20311
2026-01-06 23:05:34.54	20.70	5.21	-40.9	-56.0	3.8	1.49e+00	0	51	104	0	53	20432
2026-01-06 23:05:35.55	20.73	5.28	-40.9	-56.0	3.8	1.49e+00	0	51	104	0	53	20409
2026-01-06 23:05:36.56	20.77	5.35	-40.8	-56.0	3.8	1.49e+00	0	51	104	0	53	20402
2026-01-06 23:05:37.57	20.81	5.42	-40.9	-56.0	3.8	1.49e+00	0	51	104	0	53	20363
2026-01-06 23:05:38.58	20.85	5.49	-40.9	-56.0	3.8	1.49e+00	0	51	104	0	53	20412
2026-01-06 23:05:39.59	20.88	5.56	-40.9	-56.0	3.8	1.49e+00	0	51	104	0	53	20408
2026-01-06 23:05:40.60	20.92	5.63	-40.9	-56.0	3.8	1.49e+00	0	51	104	0	53	20388
2026-01-06 23:05:41.61	20.96	5.71	-40.9	-56.0	3.8	1.49e+00	0	52	104	0	53	20398
2026-01-06 23:05:42.62	21.00	5.78	-40.9	-56.0	3.8	1.49e+00	0	52	104	0	53	20368
2026-01-06 23:05:43.64	21.04	5.85	-40.9	-56.0	3.8	1.49e+00	0	52	104	0	53	20383
2026-01-06 23:05:44.65	21.07	5.92	-40.9	-56.0	3.8	1.49e+00	0	52	104	0	53	20384
2026-01-06 23:05:45.66	21.11	5.99	-40.9	-56.0	3.8	1.49e+00	0	52	104	0	53	20387
2026-01-06 23:05:46.67	21.15	6.07	-40.8	-56.0	3.8	1.49e+00	0	52	104	0	53	20360
2026-01-06 23:05:47.68	21.19	6.14	-40.8	-56.0	3.8	1.49e+00	0	52	104	0	53	20323
2026-01-06 23:05:48.69	21.23	6.21	-40.9	-56.0	3.8	1.49e+00	0	52	104	0	53	20359
2026-01-06 23:05:49.70	21.27	6.28	-40.9	-55.9	3.8	1.49e+00	0	52	104	0	53	20264
2026-01-06 23:05:50.71	21.31	6.36	-40.9	-56.0	3.8	1.49e+00	0	52	104	0	53	20310
2026-01-06 23:05:51.72	21.35	6.43	-40.8	-55.9	3.8	1.49e+00	0	52	104	0	53	20234
2026-01-06 23:05:52.73	21.39	6.50	-40.9	-56.0	3.8	1.49e+00	0	52	104	0	53	20314
2026-01-06 23:05:53.75	21.43	6.58	-40.9	-56.0	3.8	1.49e+00	0	52	104	0	53	20346
2026-01-06 23:05:54.76	21.47	6.65	-40.9	-56.0	3.8	1.49e+00	0	52	104	0	53	20357
2026-01-06 23:05:55.77	21.51	6.73	-40.9	-56.0	3.8	1.49e+00	0	52	104	0	53	20343
2026-01-06 23:05:56.78	21.55	6.80	-40.9	-55.9	3.8	1.49e+00	0	52	104	0	53	20270
2026-01-06 23:05:57.79	21.59	6.88	-40.9	-55.9	3.8	1.49e+00	0	52	104	0	53	20199
2026-01-06 23:05:58.80	21.63	6.95	-40.9	-55.8	3.8	1.49e+00	0	52	104	0	53	20011
2026-01-06 23:05:59.81	21.67	7.03	-40.8	-55.7	3.8	1.49e+00	0	52	104	0	53	19737
2026-01-06 23:06:00.82	21.71	7.10	-40.8	-55.5	3.8	1.49e+00	0	52	104	0	53	19291
2026-01-06 23:06:01.83	21.75	7.18	-40.8	-55.3	3.8	1.49e+00	0	52	104	0	53	18883
2026-01-06 23:06:02.84	21.80	7.25	-40.8	-55.2	3.8	1.49e+00	0	53	104	0	53	18525
2026-01-06 23:06:03.85	21.84	7.33	-40.8	-55.0	3.8	1.49e+00	0	52	104	0	53	18250
2026-01-06 23:06:04.86	21.88	7.40	-40.8	-54.9	3.8	1.49e+00	0	52	104	0	53	18004
2026-01-06 23:06:05.88	21.92	7.48	-40.8	-54.6	3.8	1.49e+00	0	52	104	0	53	17452
2026-01-06 23:06:06.89	21.96	7.56	-40.8	-54.0	3.8	1.49e+00	0	53	104	0	53	16176
2026-01-06 23:06:07.90	22.01	7.63	-40.7	-52.8	4.1	1.48e+00	0	53	104	0	53	14048
2026-01-06 23:06:08.91	22.05	7.71	-40.6	-51.4	4.5	1.29e+00	3	52	0	0	53	12094
2026-01-06 23:06:09.92	22.09	7.79	-40.5	-50.3	5.1	8.66e-01	0	53	0	2097152	52	11158
2026-01-06 23:06:10.93	22.14	7.87	-40.3	-49.1	5.9	5.07e-01	0	53	0	4194304	52	9737
2026-01-06 23:06:11.94	22.18	7.94	-40.1	-48.1	6.7	2.39e-01	0	53	0	6291456	52	8677
2026-01-06 23:06:12.95	22.22	8.02	-40.0	-47.6	7.1	1.78e-01	0	53	0	8388608	52	8211
2026-01-06 23:06:13.96	22.27	8.10	-40.3	-46.3	9.2	9.44e-02	0	53	0	9437184	52	7058
2026-01-06 23:06:14.97	22.31	8.18	-40.5	-53.3	4.0	7.19e-01	0	53	0	11534336	51	16751
2026-01-06 23:06:15.99	22.36	8.26	-41.3	-47.2	9.0	2.05e-01	0	53	0	11534336	53	7399
2026-01-06 23:06:16.99	22.40	8.34	-42.0	-48.8	7.6	2.00e-02	0	53	0	13631488	54	8416
2026-01-06 23:06:18.00	22.44	8.41	-40.7	-49.8	5.5	9.83e-02	0	53	0	15728640	52	10581
2026-01-06 23:06:19.01	22.49	8.49	-40.1	-44.4	11.7	2.42e-02	0	53	0	17825792	52	5696
2026-01-06 23:06:20.02	22.53	8.57	-40.1	-44.3	12.0	4.02e-04	0	53	0	18874368	52	5613
2026-01-06 23:06:21.03	22.58	8.65	-40.3	-44.5	11.8	4.09e-04	0	53	0	20971520	52	5777
2026-01-06 23:06:22.04	22.63	8.73	-40.6	-45.3	11.0	1.12e-03	0	53	0	23068672	52	6298
2026-01-06 23:06:23.05	22.67	8.81	-40.7	-45.4	10.9	2.11e-03	0	53	0	25165824	52	6414
2026-01-06 23:06:24.06	22.72	8.89	-40.8	-45.4	11.0	2.01e-03	0	53	0	27262976	52	6357
2026-01-06 23:06:25.07	22.76	8.97	-40.8	-45.3	11.1	1.58e-03	0	53	0	28311552	52	6324
2026-01-06 23:06:26.08	22.81	9.06	-40.6	-45.0	11.5	8.93e-04	0	53	0	30408704	52	6096
2026-01-06 23:06:27.09	22.86	9.14	-40.6	-44.9	11.6	6.36e-04	0	53	0	32505856	52	6006
2026-01-06 23:06:28.10	22.90	9.22	-40.6	-44.8	11.7	8.93e-04	0	53	0	34603008	52	5970
2026-01-06 23:06:29.10	22.95	9.30	-40.6	-44.8	11.8	4.26e-04	0	53	0	36700160	52	5944
2026-01-06 23:06:30.12	23.00	9.38	-40.6	-44.7	11.8	5.75e-04	0	53	0	38797312	52	5900
2026-01-06 23:06:31.13	23.05	9.46	-40.6	-44.8	11.8	4.17e-04	0	53	0	39845888	52	5980
2026-01-06 23:06:32.14	23.09	9.55	-40.6	-44.7	12.0	5.17e-04	0	53	0	41943040	52	5872
2026-01-06 23:06:33.15	23.14	9.63	-40.5	-44.6	12.1	3.14e-04	0	54	0	44040192	52	5810
2026-01-06 23:06:34.16	23.19	9.71	-40.5	-44.5	12.2	2.81e-04	0	53	0	46137344	52	5783
2026-01-06 23:06:35.17	23.24	9.80	-40.6	-44.6	12.1	2.48e-04	0	53	0	48234496	52	5843
2026-01-06 23:06:36.18	23.29	9.88	-40.4	-44.2	12.5	1.75e-04	0	54	0	49283072	52	5591
2026-01-06 23:06:37.19	23.34	9.96	-40.4	-44.2	12.6	6.94e-05	0	54	0	51380224	52	5556
2026-01-06 23:06:38.20	23.39	10.05	-40.5	-44.3	12.5	1.50e-04	0	54	0	53477376	52	5621
2026-01-06 23:06:39.21	23.44	10.13	-40.4	-44.1	12.8	7.78e-05	0	54	0	55574528	52	5476
2026-01-06 23:06:40.22	23.49	10.22	-40.5	-44.2	12.7	6.86e-05	0	54	0	57671680	52	5572
2026-01-06 23:06:41.23	23.54	10.30	-40.4	-43.9	13.0	5.26e-05	0	54	0	58720256	52	5382
2026-01-06 23:06:42.23	23.59	10.38	-40.5	-44.1	12.8	4.04e-05	0	54	0	60817408	52	5514
2026-01-06 23:06:43.24	23.64	10.47	-40.4	-43.9	13.1	5.72e-05	0	54	0	62914560	52	5355
2026-01-06 23:06:44.25	23.69	10.56	-40.4	-43.9	13.1	2.74e-05	0	54	0	65011712	52	5392
2026-01-06 23:06:45.26	23.74	10.64	-40.4	-43.9	13.1	2.59e-05	0	54	0	67108864	52	5375
2026-01-06 23:06:46.27	23.79	10.73	-40.4	-43.8	13.2	2.51e-05	0	54	0	68157440	52	5330
2026-01-06 23:06:47.28	23.84	10.82	-40.5	-43.9	13.1	3.50e-05	0	54	0	70254592	52	5400
2026-01-06 23:06:48.29	23.90	10.90	-40.4	-43.8	13.3	2.13e-05	0	54	0	72351744	52	5280
2026-01-06 23:06:49.30	23.95	10.99	-40.4	-43.8	13.3	1.44e-05	0	54	0	74448896	52	5313
2026-01-06 23:06:50.31	24.00	11.08	-40.4	-43.8	13.3	1.60e-05	0	54	0	76546048	52	5292
2026-01-06 23:06:51.32	24.05	11.16	-40.4	-43.7	13.4	2.13e-05	0	54	0	77594624	52	5268
2026-01-06 23:06:52.33	24.11	11.25	-40.4	-43.7	13.4	9.90e-06	0	54	0	79691776	52	5251
2026-01-06 23:06:53.34	24.16	11.34	-40.4	-43.7	13.5	9.90e-06	0	54	0	81788928	52	5246
2026-01-06 23:06:54.35	24.21	11.43	-40.3	-43.6	13.7	3.00e-06	0	54	0	83886080	52	5163
2026-01-06 23:06:55.36	24.27	11.52	-40.2	-43.4	13.8	8.30e-06	0	54	0	85983232	52	5044
2026-01-06 23:06:56.37	24.32	11.61	-40.2	-43.3	13.9	4.50e-06	0	54	0	87031808	52	5037
2026-01-06 23:06:57.38	24.38	11.70	-40.2	-43.3	13.9	6.10e-06	0	54	0	89128960	52	5027
2026-01-06 23:06:58.38	24.43	11.79	-40.2	-43.3	14.0	4.50e-06	0	54	0	91226112	52	5013
2026-01-06 23:06:59.39	24.49	11.88	-40.2	-43.3	14.0	2.20e-06	0	54	0	93323264	52	5012
2026-01-06 23:07:00.40	24.54	11.97	-40.2	-43.3	14.0	3.80e-06	0	54	0	95420416	52	4999
2026-01-06 23:07:01.41	24.60	12.06	-40.1	-43.2	14.0	3.80e-06	0	54	0	96468992	52	4967
2026-01-06 23:07:02.42	24.66	12.15	-40.1	-43.1	14.2	3.00e-06	0	54	0	98566144	52	4899
2026-01-06 23:07:03.43	24.71	12.24	-40.1	-43.1	14.2	2.20e-06	0	54	0	100663296	52	4902
2026-01-06 23:07:04.44	24.77	12.33	-40.1	-43.0	14.3	2.20e-06	0	54	0	102760448	52	4869
2026-01-06 23:07:05.45	24.83	12.42	-40.0	-43.0	14.3	7.00e-07	0	54	0	104857600	52	4846
2026-01-06 23:07:06.46	24.88	12.52	-40.1	-43.1	14.2	1.50e-06	0	54	0	106954752	52	4913
2026-01-06 23:07:07.47	24.94	12.61	-40.0	-43.0	14.3	7.00e-07	0	54	0	108003328	52	4862
2026-01-06 23:07:08.48	25.00	12.70	-40.1	-43.0	14.3	7.00e-07	0	54	0	110100480	52	4852
2026-01-06 23:07:09.48	25.06	12.79	-40.0	-42.9	14.5	0.00e+00	0	54	0	112197632	52	4778
2026-01-06 23:07:10.49	25.12	12.89	-40.1	-43.0	14.5	7.00e-07	0	55	0	114294784	51	5104
2026-01-06 23:07:11.50	25.18	12.98	-40.0	-42.9	14.5	7.00e-07	0	54	0	116391936	51	5088
2026-01-06 23:07:12.51	25.24	13.08	-40.0	-42.9	14.6	7.00e-07	0	54	0	117440512	51	5059
2026-01-06 23:07:13.52	25.30	13.17	-40.0	-42.8	14.7	0.00e+00	0	55	0	119537664	51	5004
2026-01-06 23:07:14.53	25.36	13.27	-39.9	-42.6	14.9	0.00e+00	0	55	0	121634816	51	4902
2026-01-06 23:07:15.54	25.42	13.36	-39.8	-42.5	15.0	0.00e+00	0	55	0	123731968	51	4865
2026-01-06 23:07:16.55	25.48	13.46	-39.9	-42.6	14.9	0.00e+00	0	55	0	125829120	51	4909
2026-01-06 23:07:17.56	25.54	13.55	-39.8	-42.5	15.0	0.00e+00	0	54	0	126877696	51	4863
2026-01-06 23:07:18.57	25.60	13.65	-39.8	-42.5	15.0	0.00e+00	0	55	0	128974848	51	4870
2026-01-06 23:07:19.58	25.66	13.75	-39.8	-42.5	15.1	0.00e+00	0	55	0	131072000	51	4832
2026-01-06 23:07:20.59	25.73	13.85	-39.8	-42.5	15.1	0.00e+00	0	55	0	133169152	51	4829
2026-01-06 23:07:21.60	25.79	13.94	-39.8	-42.5	15.2	7.00e-07	0	55	0	135266304	51	4829
2026-01-06 23:07:22.61	25.85	14.04	-39.8	-42.4	15.2	0.00e+00	0	55	0	136314880	51	4805
2026-01-06 23:07:23.62	25.92	14.14	-39.8	-42.4	15.3	0.00e+00	0	55	0	138412032	51	4785
2026-01-06 23:07:24.63	25.98	14.24	-39.8	-42.5	15.2	0.00e+00	0	55	0	140509184	51	4825
2026-01-06 23:07:25.64	26.05	14.34	-39.8	-42.4	15.3	0.00e+00	0	55	0	142606336	51	4796
2026-01-06 23:07:26.65	26.11	14.44	-39.8	-42.4	15.3	0.00e+00	0	55	0	144703488	51	4776
2026-01-06 23:07:27.66	26.18	14.54	-39.8	-42.4	15.3	0.00e+00	0	55	0	145752064	51	4765
2026-01-06 23:07:28.67	26.24	14.64	-39.8	-42.4	15.3	0.00e+00	0	55	0	147849216	51	4780
2026-01-06 23:07:29.68	26.31	14.74	-39.8	-42.3	15.4	0.00e+00	0	55	0	149946368	51	4748
2026-01-06 23:07:30.69	26.38	14.84	-39.7	-42.3	15.5	0.00e+00	0	55	0	152043520	51	4710
2026-01-06 23:07:31.70	26.44	14.94	-39.7	-42.3	15.4	0.00e+00	0	55	0	154140672	51	4729
2026-01-06 23:07:32.71	26.51	15.04	-39.7	-42.2	15.5	0.00e+00	0	55	0	155189248	51	4684
2026-01-06 23:07:33.72	26.58	15.14	-39.7	-42.2	15.5	0.00e+00	0	55	0	157286400	51	4684
2026-01-06 23:07:34.73	26.65	15.25	-39.7	-42.2	15.6	0.00e+00	0	55	0	159383552	51	4656
2026-01-06 23:07:35.74	26.72	15.35	-39.7	-42.2	15.5	0.00e+00	0	55	0	161480704	51	4694
2026-01-06 23:07:36.75	26.78	15.45	-39.7	-42.3	15.5	0.00e+00	0	55	0	163577856	51	4722
2026-01-06 23:07:37.76	26.85	15.56	-39.7	-42.2	15.5	0.00e+00	0	55	0	164626432	51	4687
2026-01-06 23:07:38.77	26.92	15.66	-39.7	-42.2	15.6	0.00e+00	0	55	0	166723584	51	4656
2026-01-06 23:07:39.78	27.00	15.76	-39.7	-42.2	15.6	0.00e+00	0	55	0	168820736	51	4678
2026-01-06 23:07:40.79	27.07	15.87	-39.6	-42.1	15.7	0.00e+00	0	55	0	170917888	51	4627
2026-01-06 23:07:41.80	27.14	15.98	-39.6	-42.1	15.7	0.00e+00	0	55	0	173015040	51	4633
2026-01-06 23:07:42.81	27.21	16.08	-39.7	-42.2	15.6	0.00e+00	0	55	0	175112192	51	4678
2026-01-06 23:07:43.82	27.28	16.19	-39.6	-42.1	15.7	0.00e+00	0	55	0	176160768	51	4647
2026-01-06 23:07:44.83	27.36	16.29	-39.6	-42.1	15.7	0.00e+00	0	55	0	178257920	51	4620
2026-01-06 23:07:45.83	27.43	16.40	-39.6	-42.1	15.7	0.00e+00	0	55	0	180355072	51	4604
2026-01-06 23:07:46.84	27.50	16.51	-39.6	-42.0	15.8	0.00e+00	0	55	0	182452224	51	4573
2026-01-06 23:07:47.85	27.58	16.62	-39.6	-42.0	15.8	0.00e+00	0	55	0	184549376	51	4571
2026-01-06 23:07:48.86	27.65	16.72	-39.5	-41.9	15.9	0.00e+00	0	55	0	185597952	51	4521
2026-01-06 23:07:49.87	27.73	16.83	-39.5	-41.9	15.9	0.00e+00	0	55	0	187695104	51	4543
2026-01-06 23:07:50.88	27.80	16.94	-39.6	-42.0	15.9	0.00e+00	0	55	0	189792256	51	4562
2026-01-06 23:07:51.89	27.88	17.05	-39.5	-41.9	15.9	0.00e+00	0	55	0	191889408	51	4545
2026-01-06 23:07:52.91	27.96	17.16	-39.5	-41.9	16.0	0.00e+00	0	55	0	193986560	51	4533
2026-01-06 23:07:53.92	28.04	17.27	-39.5	-41.9	16.0	0.00e+00	0	55	0	195035136	51	4523
2026-01-06 23:07:54.93	28.11	17.39	-39.6	-42.0	16.0	0.00e+00	0	55	0	197132288	51	4547
2026-01-06 23:07:55.94	28.19	17.50	-39.5	-41.8	16.1	0.00e+00	0	55	0	199229440	51	4488
2026-01-06 23:07:56.95	28.27	17.61	-39.5	-41.8	16.1	0.00e+00	0	55	0	201326592	50	4748
2026-01-06 23:07:57.95	28.35	17.72	-39.5	-41.8	16.1	0.00e+00	0	55	0	203423744	50	4745
2026-01-06 23:07:58.96	28.43	17.83	-39.5	-41.8	16.2	0.00e+00	0	55	0	204472320	50	4724
2026-01-06 23:07:59.97	28.51	17.95	-39.5	-41.8	16.2	0.00e+00	0	55	0	206569472	50	4717
2026-01-06 23:08:00.98	28.59	18.06	-39.4	-41.8	16.2	0.00e+00	0	55	0	208666624	50	4709
2026-01-06 23:08:01.99	28.68	18.18	-39.4	-41.7	16.3	0.00e+00	0	55	0	210763776	50	4705
2026-01-06 23:08:03.00	28.76	18.29	-39.4	-41.8	16.2	0.00e+00	0	55	0	212860928	50	4712
2026-01-06 23:08:04.01	28.84	18.41	-39.4	-41.7	16.3	0.00e+00	0	55	0	213909504	50	4702
2026-01-06 23:08:05.02	28.93	18.52	-39.4	-41.7	16.3	0.00e+00	0	55	0	216006656	50	4684
2026-01-06 23:08:06.03	29.01	18.64	-39.5	-41.8	16.2	0.00e+00	0	55	0	218103808	50	4741
2026-01-06 23:08:07.04	29.10	18.75	-39.5	-41.8	16.2	0.00e+00	0	55	0	220200960	50	4740
2026-01-06 23:08:08.05	29.18	18.87	-39.5	-41.8	16.2	0.00e+00	0	56	0	222298112	50	4739
2026-01-06 23:08:09.06	29.27	18.99	-39.5	-41.8	16.2	0.00e+00	0	55	0	223346688	50	4752
2026-01-06 23:08:10.07	29.35	19.11	-39.5	-41.9	16.2	0.00e+00	0	55	0	225443840	50	4773
2026-01-06 23:08:11.08	29.44	19.23	-39.6	-41.9	16.1	0.00e+00	0	55	0	227540992	50	4793
2026-01-06 23:08:12.09	29.53	19.35	-39.6	-42.0	16.1	0.00e+00	0	55	0	229638144	50	4823
2026-01-06 23:08:13.10	29.62	19.47	-39.6	-42.0	16.1	0.00e+00	0	55	0	231735296	50	4828
2026-01-06 23:08:14.11	29.71	19.59	-39.5	-41.9	16.2	0.00e+00	0	55	0	232783872	50	4768
2026-01-06 23:08:15.12	29.80	19.71	-39.6	-41.9	16.1	0.00e+00	0	55	0	234881024	50	4796
2026-01-06 23:08:16.13	29.89	19.83	-39.5	-41.8	16.2	0.00e+00	0	55	0	236978176	50	4750
2026-01-06 23:08:17.14	29.98	19.95	-39.5	-41.8	16.2	0.00e+00	0	56	0	239075328	50	4750
2026-01-06 23:08:18.15	30.07	20.07	-39.5	-41.8	16.2	0.00e+00	0	56	0	241172480	50	4747
2026-01-06 23:08:19.16	30.17	20.20	-39.5	-41.8	16.3	0.00e+00	0	55	0	243269632	50	4722
2026-01-06 23:08:20.17	30.26	20.32	-39.4	-41.7	16.3	0.00e+00	0	56	0	244318208	50	4688
2026-01-06 23:08:21.18	30.36	20.45	-39.5	-41.8	16.2	0.00e+00	0	55	0	246415360	50	4724
2026-01-06 23:08:22.19	30.45	20.57	-39.5	-41.8	16.2	0.00e+00	0	55	0	248512512	50	4732
2026-01-06 23:08:23.20	30.55	20.70	-39.5	-41.8	16.3	0.00e+00	0	55	0	250609664	50	4734
2026-01-06 23:08:24.21	30.64	20.82	-39.5	-41.8	16.2	0.00e+00	0	56	0	252706816	50	4748
2026-01-06 23:08:25.22	30.74	20.95	-39.6	-41.9	16.2	0.00e+00	0	55	0	253755392	50	4781
2026-01-06 23:08:26.23	30.84	21.07	-39.5	-41.8	16.3	0.00e+00	0	55	0	255852544	50	4755
2026-01-06 23:08:27.24	30.94	21.20	-39.5	-41.8	16.3	0.00e+00	0	56	0	257949696	50	4757
2026-01-06 23:08:28.24	31.04	21.33	-39.6	-41.9	16.2	0.00e+00	0	55	0	260046848	50	4802
2026-01-06 23:08:29.25	31.14	21.46	-39.6	-42.0	16.2	0.00e+00	0	55	0	262144000	50	4815
2026-01-06 23:08:30.26	31.24	21.59	-39.7	-42.0	16.1	0.00e+00	0	55	0	263192576	50	4843
2026-01-06 23:08:31.27	31.34	21.72	-39.6	-41.9	16.2	0.00e+00	0	55	0	265289728	50	4808
2026-01-06 23:08:32.28	31.45	21.85	-39.6	-41.9	16.3	0.00e+00	0	55	0	267386880	50	4782
2026-01-06 23:08:33.29	31.55	21.98	-39.6	-41.9	16.2	0.00e+00	0	56	0	269484032	50	4794
2026-01-06 23:08:34.30	31.65	22.11	-39.5	-41.8	16.4	0.00e+00	0	56	0	271581184	50	4730
2026-01-06 23:08:35.31	31.76	22.24	-39.5	-41.7	16.4	0.00e+00	0	56	0	272629760	50	4676
2026-01-06 23:08:36.32	31.87	22.37	-39.4	-41.7	16.5	0.00e+00	0	56	0	274726912	50	4660
2026-01-06 23:08:37.33	31.97	22.51	-39.5	-41.7	16.4	0.00e+00	0	55	0	276824064	50	4685
2026-01-06 23:08:38.34	32.08	22.64	-39.4	-41.6	16.5	0.00e+00	0	56	0	278921216	50	4639
2026-01-06 23:08:39.35	32.19	22.78	-39.5	-41.8	16.4	0.00e+00	0	56	0	281018368	50	4709
2026-01-06 23:08:40.36	32.30	22.91	-39.5	-41.7	16.4	0.00e+00	0	56	0	282066944	50	4704
2026-01-06 23:08:41.37	32.41	23.05	-39.6	-41.9	16.3	0.00e+00	0	56	0	284164096	50	4767
2026-01-06 23:08:42.38	32.52	23.18	-39.6	-41.9	16.3	0.00e+00	0	55	0	286261248	50	4765
2026-01-06 23:08:43.39	32.64	23.32	-39.6	-41.9	16.3	0.00e+00	0	56	0	288358400	50	4775
2026-01-06 23:08:44.40	32.75	23.46	-39.7	-42.0	16.2	0.00e+00	0	56	0	290455552	50	4848
2026-01-06 23:08:45.41	32.87	23.60	-39.7	-42.0	16.2	0.00e+00	0	56	0	291504128	50	4833
2026-01-06 23:08:46.42	32.98	23.74	-39.7	-42.0	16.2	0.00e+00	0	56	0	293601280	50	4855
2026-01-06 23:08:47.43	33.10	23.87	-39.7	-42.0	16.2	0.00e+00	0	56	0	295698432	50	4824
2026-01-06 23:08:48.44	33.22	24.02	-39.6	-41.8	16.3	0.00e+00	0	56	0	297795584	50	4754
2026-01-06 23:08:49.44	33.33	24.15	-39.5	-41.8	16.4	0.00e+00	0	56	0	299892736	50	4730
2026-01-06 23:08:50.45	33.45	24.30	-39.5	-41.7	16.5	0.00e+00	0	56	0	300941312	50	4679
2026-01-06 23:08:51.47	33.58	24.44	-39.5	-41.8	16.4	0.00e+00	0	56	0	303038464	50	4712
2026-01-06 23:08:52.48	33.70	24.58	-39.5	-41.7	16.5	0.00e+00	0	56	0	305135616	50	4676
2026-01-06 23:08:53.48	33.82	24.72	-39.5	-41.8	16.5	0.00e+00	0	56	0	307232768	50	4708
2026-01-06 23:08:54.50	33.95	24.87	-39.5	-41.8	16.4	0.00e+00	0	56	0	309329920	50	4735
2026-01-06 23:08:55.51	34.07	25.01	-39.6	-41.8	16.4	0.00e+00	0	56	0	311427072	50	4758
2026-01-06 23:08:56.52	34.20	25.16	-39.6	-41.9	16.3	0.00e+00	0	56	0	312475648	50	4808
2026-01-06 23:08:57.52	34.32	25.30	-39.7	-42.0	16.2	0.00e+00	0	56	0	314572800	50	4862
2026-01-06 23:08:58.53	34.45	25.45	-39.9	-42.2	16.0	0.00e+00	0	56	0	316669952	50	4976
2026-01-06 23:08:59.54	34.58	25.60	-39.9	-42.3	15.9	7.00e-07	0	56	0	318767104	50	5029
2026-01-06 23:09:00.55	34.71	25.75	-39.9	-42.3	16.0	0.00e+00	0	56	0	320864256	50	4999
2026-01-06 23:09:01.56	34.84	25.90	-39.9	-42.3	15.9	0.00e+00	0	56	0	321912832	50	5016
2026-01-06 23:09:02.57	34.98	26.04	-39.9	-42.3	15.9	0.00e+00	0	56	0	324009984	50	5023
2026-01-06 23:09:03.58	35.11	26.20	-39.8	-42.1	16.1	0.00e+00	0	56	0	326107136	50	4915
2026-01-06 23:09:04.59	35.25	26.35	-39.8	-42.2	16.1	0.00e+00	0	56	0	328204288	50	4933
2026-01-06 23:09:05.60	35.39	26.50	-39.8	-42.1	16.1	0.00e+00	0	56	0	330301440	50	4926
2026-01-06 23:09:06.61	35.52	26.65	-39.8	-42.2	16.0	0.00e+00	0	56	0	331350016	50	4962
2026-01-06 23:09:07.62	35.66	26.80	-39.9	-42.3	15.9	0.00e+00	0	56	0	333447168	50	5022
2026-01-06 23:09:08.63	35.80	26.96	-39.9	-42.3	16.0	0.00e+00	0	56	0	335544320	50	5023
2026-01-06 23:09:09.64	35.95	27.11	-40.0	-42.4	15.9	0.00e+00	0	56	0	337641472	50	5069
2026-01-06 23:09:10.65	36.09	27.27	-40.1	-42.6	15.7	0.00e+00	0	56	0	339738624	50	5197
2026-01-06 23:09:11.66	36.24	27.42	-40.3	-42.8	15.4	0.00e+00	0	56	0	340787200	51	5022
2026-01-06 23:09:12.67	36.38	27.58	-40.4	-43.0	15.3	0.00e+00	0	56	0	342884352	51	5127
2026-01-06 23:09:13.68	36.53	27.73	-40.5	-43.2	15.1	0.00e+00	0	56	0	344981504	51	5227
2026-01-06 23:09:14.69	36.68	27.89	-40.6	-43.3	15.0	0.00e+00	0	56	0	347078656	51	5304
2026-01-06 23:09:15.70	36.83	28.05	-40.6	-43.3	15.0	0.00e+00	0	56	0	349175808	51	5313
2026-01-06 23:09:16.71	36.98	28.21	-40.7	-43.4	14.9	0.00e+00	0	56	0	350224384	51	5390
2026-01-06 23:09:17.72	37.14	28.37	-40.6	-43.4	14.9	0.00e+00	0	56	0	352321536	51	5346
2026-01-06 23:09:18.73	37.29	28.53	-40.6	-43.4	14.8	0.00e+00	0	56	0	354418688	51	5360
2026-01-06 23:09:19.74	37.45	28.69	-40.6	-43.4	14.8	7.00e-07	0	56	0	356515840	52	5085
2026-01-06 23:09:20.75	37.61	28.85	-40.8	-43.6	14.6	0.00e+00	0	56	0	358612992	52	5194
2026-01-06 23:09:21.76	37.77	29.02	-40.8	-43.7	14.4	0.00e+00	0	56	0	359661568	52	5248
2026-01-06 23:09:22.77	37.93	29.18	-41.0	-43.9	14.3	2.20e-06	0	56	0	361758720	52	5392
2026-01-06 23:09:23.78	38.09	29.34	-41.0	-43.9	14.2	1.50e-06	0	56	0	363855872	52	5401
2026-01-06 23:09:24.79	38.25	29.51	-41.1	-44.2	14.0	7.00e-07	0	56	0	365953024	52	5532
2026-01-06 23:09:25.80	38.42	29.67	-41.2	-44.3	13.9	4.50e-06	0	56	0	368050176	52	5619
2026-01-06 23:09:26.81	38.59	29.84	-41.2	-44.4	13.8	3.00e-06	0	56	0	369098752	53	5347
2026-01-06 23:09:27.82	38.76	30.01	-41.4	-44.7	13.5	5.30e-06	0	56	0	371195904	53	5529
2026-01-06 23:09:28.83	38.93	30.18	-41.5	-44.8	13.4	9.90e-06	0	56	0	373293056	53	5628
2026-01-06 23:09:29.84	39.10	30.34	-41.4	-44.7	13.4	2.21e-05	0	56	0	375390208	53	5569
2026-01-06 23:09:30.85	39.28	30.51	-41.4	-44.8	13.4	1.06e-05	0	56	0	377487360	53	5604
2026-01-06 23:09:31.86	39.45	30.68	-41.6	-45.0	13.2	1.60e-05	0	56	0	379584512	53	5745
2026-01-06 23:09:32.87	39.63	30.85	-41.6	-45.0	13.2	2.89e-05	0	56	0	380633088	53	5747
2026-01-06 23:09:33.88	39.81	31.03	-41.6	-45.0	13.1	1.90e-05	0	56	0	382730240	53	5775
2026-01-06 23:09:34.89	39.99	31.20	-41.5	-44.9	13.3	2.13e-05	0	56	0	384827392	53	5679
2026-01-06 23:09:35.90	40.18	31.37	-41.5	-44.8	13.3	2.13e-05	0	56	0	386924544	53	5647
2026-01-06 23:09:36.91	40.36	31.54	-41.3	-44.6	13.6	1.29e-05	0	56	0	389021696	53	5486
2026-01-06 23:09:37.92	40.55	31.72	-41.3	-44.5	13.7	1.06e-05	0	56	0	390070272	53	5425
2026-01-06 23:09:38.92	40.74	31.89	-41.3	-44.5	13.6	7.60e-06	0	56	0	392167424	53	5461
2026-01-06 23:09:39.94	40.93	32.07	-41.3	-44.4	13.7	7.60e-06	0	56	0	394264576	53	5397
2026-01-06 23:09:40.95	41.13	32.25	-41.4	-44.7	13.5	6.80e-06	0	56	0	396361728	53	5570
2026-01-06 23:09:41.95	41.32	32.42	-41.5	-44.8	13.4	6.80e-06	0	56	0	398458880	53	5613
2026-01-06 23:09:42.96	41.52	32.60	-41.4	-44.7	13.5	9.10e-06	0	56	0	399507456	53	5586
2026-01-06 23:09:43.97	41.72	32.78	-41.3	-44.5	13.7	9.90e-06	0	56	0	401604608	53	5461
2026-01-06 23:09:44.98	41.92	32.96	-41.2	-44.4	13.8	7.60e-06	0	56	0	403701760	53	5352
2026-01-06 23:09:45.99	42.13	33.14	-41.0	-44.0	14.3	3.00e-06	0	56	0	405798912	53	5102
2026-01-06 23:09:47.00	42.34	33.32	-41.0	-43.9	14.3	0.00e+00	0	56	0	407896064	53	5084
2026-01-06 23:09:48.01	42.54	33.50	-40.9	-43.8	14.4	1.50e-06	0	56	0	408944640	53	4994
2026-01-06 23:09:49.02	42.76	33.68	-40.9	-43.8	14.5	0.00e+00	0	56	0	411041792	53	4984
2026-01-06 23:09:50.03	42.97	33.86	-40.8	-43.6	14.6	7.00e-07	0	56	0	413138944	53	4896
2026-01-06 23:09:51.04	43.19	34.05	-40.8	-43.6	14.6	0.00e+00	0	56	0	415236096	53	4891
2026-01-06 23:09:52.05	43.40	34.23	-40.8	-43.6	14.6	7.00e-07	0	56	0	417333248	53	4925
2026-01-06 23:09:53.06	43.63	34.41	-40.8	-43.6	14.7	0.00e+00	0	56	0	418381824	53	4877
2026-01-06 23:09:54.07	43.85	34.60	-40.8	-43.7	14.6	0.00e+00	0	56	0	420478976	53	4934
2026-01-06 23:09:55.08	44.08	34.78	-40.7	-43.5	14.8	7.00e-07	0	56	0	422576128	53	4837
2026-01-06 23:09:56.09	44.30	34.97	-40.5	-43.1	15.1	0.00e+00	0	56	0	424673280	53	4633
2026-01-06 23:09:57.10	44.53	35.16	-40.3	-42.9	15.3	0.00e+00	0	56	0	426770432	52	4793
2026-01-06 23:09:58.11	44.77	35.35	-40.2	-42.7	15.6	0.00e+00	0	56	0	427819008	52	4700
2026-01-06 23:09:59.12	45.01	35.53	-40.2	-42.7	15.5	0.00e+00	0	56	0	429916160	52	4700
2026-01-06 23:10:00.13	45.24	35.72	-40.2	-42.7	15.5	0.00e+00	0	56	0	432013312	52	4698
2026-01-06 23:10:01.14	45.49	35.91	-40.2	-42.6	15.7	0.00e+00	0	56	0	434110464	52	4645
2026-01-06 23:10:02.15	45.73	36.10	-40.1	-42.6	15.7	0.00e+00	0	56	0	436207616	52	4607
2026-01-06 23:10:03.16	45.98	36.29	-40.0	-42.3	16.0	0.00e+00	0	56	0	437256192	51	4756
2026-01-06 23:10:04.17	46.23	36.48	-39.7	-42.0	16.4	0.00e+00	0	56	0	439353344	51	4553
2026-01-06 23:10:05.18	46.48	36.67	-39.6	-41.7	16.6	0.00e+00	0	56	0	441450496	51	4440
2026-01-06 23:10:06.19	46.74	36.87	-39.5	-41.6	16.7	0.00e+00	0	56	0	443547648	50	4646
2026-01-06 23:10:07.19	46.99	37.06	-39.5	-41.7	16.7	0.00e+00	0	56	0	445644800	50	4663
2026-01-06 23:10:08.20	47.26	37.25	-39.6	-41.8	16.5	0.00e+00	0	56	0	447741952	50	4756
2026-01-06 23:10:09.21	47.52	37.44	-39.9	-42.2	16.2	0.00e+00	0	56	0	448790528	50	4978
2026-01-06 23:10:10.22	47.79	37.64	-40.1	-42.5	15.9	0.00e+00	0	56	0	450887680	50	5158
2026-01-06 23:10:11.23	48.06	37.83	-40.1	-42.6	15.8	0.00e+00	0	56	0	452984832	51	4874
2026-01-06 23:10:12.24	48.34	38.03	-40.0	-42.4	16.0	0.00e+00	0	56	0	455081984	51	4765
2026-01-06 23:10:13.25	48.62	38.22	-39.7	-42.0	16.4	0.00e+00	0	56	0	457179136	51	4552
2026-01-06 23:10:14.26	48.90	38.42	-39.6	-41.8	16.6	0.00e+00	0	57	0	458227712	51	4462
2026-01-06 23:10:15.27	49.18	38.61	-39.5	-41.6	16.7	0.00e+00	0	56	0	460324864	51	4382
2026-01-06 23:10:16.27	49.47	38.81	-39.6	-41.8	16.6	0.00e+00	0	56	0	462422016	50	4737
2026-01-06 23:10:17.29	49.76	39.01	-39.8	-42.1	16.3	0.00e+00	0	56	0	464519168	50	4886
2026-01-06 23:10:18.29	50.05	39.20	-40.0	-42.4	16.1	0.00e+00	0	56	0	466616320	50	5054
2026-01-06 23:10:19.30	50.35	39.40	-40.1	-42.5	15.9	0.00e+00	0	56	0	467664896	50	5148
2026-01-06 23:10:20.31	50.65	39.60	-40.2	-42.6	15.8	0.00e+00	0	56	0	469762048	50	5204
2026-01-06 23:10:21.32	50.96	39.79	-40.1	-42.5	15.9	0.00e+00	0	56	0	471859200	50	5155
2026-01-06 23:10:22.33	51.27	39.99	-40.2	-42.6	15.8	0.00e+00	0	56	0	473956352	50	5204
2026-01-06 23:10:23.34	51.58	40.19	-40.1	-42.5	16.0	0.00e+00	0	56	0	476053504	50	5102
2026-01-06 23:10:24.35	51.90	40.39	-40.0	-42.4	16.1	0.00e+00	0	57	0	477102080	50	5062
2026-01-06 23:10:25.37	52.22	40.59	-40.0	-42.3	16.1	0.00e+00	0	56	0	479199232	50	5028
2026-01-06 23:10:26.37	52.55	40.79	-40.0	-42.3	16.1	0.00e+00	0	56	0	481296384	50	5012
2026-01-06 23:10:27.38	52.87	40.99	-39.9	-42.2	16.2	0.00e+00	0	56	0	483393536	50	4983
2026-01-06 23:10:28.39	53.21	41.18	-39.9	-42.2	16.3	0.00e+00	0	56	0	485490688	50	4943
2026-01-06 23:10:29.40	53.54	41.38	-40.0	-42.3	16.2	0.00e+00	0	56	0	486539264	50	5013
2026-01-06 23:10:30.41	53.89	41.58	-40.2	-42.6	15.9	0.00e+00	0	57	0	488636416	50	5178
2026-01-06 23:10:31.42	54.23	41.78	-40.3	-42.7	15.7	0.00e+00	0	56	0	490733568	51	4973
2026-01-06 23:10:32.43	54.58	41.98	-40.4	-42.9	15.6	0.00e+00	0	57	0	492830720	51	5057
2026-01-06 23:10:33.44	54.93	42.18	-40.5	-43.1	15.4	0.00e+00	0	56	0	494927872	51	5173
2026-01-06 23:10:34.45	55.29	42.38	-40.5	-43.2	15.3	0.00e+00	0	56	0	495976448	51	5222
2026-01-06 23:10:35.45	55.65	42.57	-40.5	-43.1	15.4	0.00e+00	0	56	0	498073600	51	5165
2026-01-06 23:10:36.46	56.02	42.77	-40.2	-42.7	15.8	0.00e+00	0	56	0	500170752	51	4933
2026-01-06 23:10:37.48	56.39	42.97	-40.0	-42.4	16.1	0.00e+00	0	57	0	502267904	51	4778
2026-01-06 23:10:38.48	56.76	43.17	-40.0	-42.4	16.1	0.00e+00	0	56	0	504365056	51	4774
2026-01-06 23:10:39.49	57.15	43.36	-40.4	-42.9	15.6	0.00e+00	0	56	0	505413632	51	5061
2026-01-06 23:10:40.50	57.53	43.56	-40.7	-43.4	15.2	0.00e+00	0	57	0	507510784	51	5341
2026-01-06 23:10:41.51	57.92	43.76	-40.8	-43.6	14.9	0.00e+00	0	57	0	509607936	52	5190
2026-01-06 23:10:42.52	58.31	43.95	-40.6	-43.3	15.1	7.00e-07	0	56	0	511705088	52	5008
2026-01-06 23:10:43.53	58.71	44.15	-40.5	-43.0	15.4	0.00e+00	0	57	0	513802240	52	4865
2026-01-06 23:10:44.54	59.12	44.34	-40.2	-42.7	15.7	0.00e+00	0	57	0	515899392	52	4672
2026-01-06 23:10:45.55	59.53	44.54	-40.3	-42.7	15.7	0.00e+00	0	56	0	516947968	52	4691
2026-01-06 23:10:46.56	59.94	44.73	-40.5	-43.1	15.3	0.00e+00	0	57	0	519045120	52	4902
2026-01-06 23:10:47.57	60.36	44.93	-41.1	-44.0	14.4	1.50e-06	0	57	0	521142272	52	5440
2026-01-06 23:10:48.58	60.79	45.12	-41.5	-44.8	13.5	6.10e-06	0	57	0	523239424	53	5623
2026-01-06 23:10:49.59	61.22	45.31	-41.9	-45.4	13.0	1.44e-05	0	57	0	525336576	54	5696
2026-01-06 23:10:50.60	61.65	45.50	-41.8	-45.3	13.1	2.67e-05	0	56	0	526385152	54	5604
2026-01-06 23:10:51.61	62.09	45.69	-41.6	-44.9	13.5	1.98e-05	0	56	0	528482304	54	5391
2026-01-06 23:10:52.62	62.54	45.88	-41.2	-44.3	14.2	5.30e-06	0	57	0	530579456	54	4995
2026-01-06 23:10:53.63	62.99	46.07	-41.0	-43.8	14.6	7.00e-07	0	56	0	532676608	54	4736
2026-01-06 23:10:54.64	63.44	46.25	-41.0	-43.8	14.6	1.50e-06	0	57	0	534773760	53	5017
2026-01-06 23:10:55.65	63.90	46.44	-41.2	-44.1	14.3	7.00e-07	0	57	0	535822336	53	5204
2026-01-06 23:10:56.66	64.37	46.63	-41.4	-44.6	13.8	7.00e-07	0	56	0	537919488	53	5497
2026-01-06 23:10:57.67	64.84	46.81	-41.6	-45.0	13.5	1.06e-05	0	57	0	540016640	53	5723
2026-01-06 23:10:58.68	65.32	46.99	-41.4	-44.5	13.9	5.30e-06	0	57	0	542113792	53	5410
2026-01-06 23:10:59.69	65.80	47.17	-41.1	-44.0	14.4	2.20e-06	0	57	0	544210944	53	5120
2026-01-06 23:11:00.70	66.29	47.35	-40.8	-43.6	14.9	7.00e-07	0	57	0	545259520	53	4878
2026-01-06 23:11:01.71	66.79	47.53	-40.7	-43.4	15.0	7.00e-07	0	56	0	547356672	53	4789
2026-01-06 23:11:02.72	67.29	47.71	-40.7	-43.4	15.1	0.00e+00	0	56	0	549453824	53	4777
2026-01-06 23:11:03.73	67.79	47.88	-40.7	-43.5	15.0	7.00e-07	0	57	0	551550976	53	4824
2026-01-06 23:11:04.74	68.30	48.05	-40.9	-43.8	14.7	0.00e+00	0	57	0	553648128	53	4998
2026-01-06 23:11:05.75	68.82	48.22	-40.9	-43.8	14.7	0.00e+00	0	57	0	554696704	53	4987
2026-01-06 23:11:06.76	69.34	48.39	-40.7	-43.3	15.1	0.00e+00	0	57	0	556793856	53	4740
2026-01-06 23:11:07.77	69.87	48.56	-40.5	-43.1	15.3	0.00e+00	0	57	0	558891008	53	4641
2026-01-06 23:11:08.78	70.40	48.73	-40.3	-42.8	15.7	0.00e+00	0	57	0	560988160	52	4721
2026-01-06 23:11:09.78	70.94	48.89	-40.2	-42.7	15.8	0.00e+00	0	57	0	563085312	52	4675
2026-01-06 23:11:10.79	71.48	49.05	-40.2	-42.7	15.7	0.00e+00	0	57	0	564133888	52	4664
2026-01-06 23:11:11.80	72.04	49.21	-40.4	-42.9	15.6	0.00e+00	0	57	0	566231040	52	4762
2026-01-06 23:11:12.81	72.59	49.37	-40.3	-42.7	15.7	0.00e+00	0	57	0	568328192	52	4691
2026-01-06 23:11:13.82	73.15	49.52	-40.0	-42.3	16.2	0.00e+00	0	57	0	570425344	51	4752
2026-01-06 23:11:14.83	73.72	49.67	-39.8	-42.0	16.6	0.00e+00	0	57	0	572522496	51	4561
2026-01-06 23:11:15.84	74.30	49.82	-39.9	-42.2	16.4	0.00e+00	0	57	0	573571072	51	4661
2026-01-06 23:11:16.85	74.88	49.97	-40.1	-42.5	16.1	0.00e+00	0	56	0	575668224	51	4846
2026-01-06 23:11:17.86	75.46	50.12	-40.5	-43.0	15.6	0.00e+00	0	57	0	577765376	51	5120
2026-01-06 23:11:18.87	76.05	50.26	-40.7	-43.4	15.1	0.00e+00	0	57	0	579862528	52	5056
2026-01-06 23:11:19.88	76.65	50.40	-40.7	-43.4	15.1	0.00e+00	0	57	0	581959680	52	5056
2026-01-06 23:11:20.89	77.25	50.53	-40.5	-43.1	15.4	0.00e+00	0	57	0	584056832	52	4888
2026-01-06 23:11:21.90	77.85	50.67	-40.1	-42.5	16.0	0.00e+00	0	57	0	585105408	52	4567
2026-01-06 23:11:22.91	78.47	50.80	-40.0	-42.3	16.2	0.00e+00	0	57	0	587202560	51	4723
2026-01-06 23:11:23.92	79.08	50.93	-40.0	-42.3	16.2	0.00e+00	0	57	0	589299712	51	4746
2026-01-06 23:11:24.93	79.71	51.05	-40.4	-42.9	15.7	0.00e+00	0	57	0	591396864	51	5054
2026-01-06 23:11:25.94	80.33	51.17	-40.6	-43.2	15.3	0.00e+00	0	56	0	593494016	51	5253
2026-01-06 23:11:26.95	80.97	51.29	-40.5	-43.1	15.4	0.00e+00	0	57	0	594542592	52	4883
2026-01-06 23:11:27.96	81.60	51.40	-40.1	-42.5	16.0	0.00e+00	0	57	0	596639744	52	4553
2026-01-06 23:11:28.97	82.25	51.52	-39.9	-42.1	16.5	0.00e+00	0	56	0	598736896	51	4638
2026-01-06 23:11:29.98	82.89	51.62	-39.8	-42.0	16.5	0.00e+00	0	56	0	600834048	51	4590
2026-01-06 23:11:30.99	83.54	51.73	-40.1	-42.5	16.1	0.00e+00	0	57	0	602931200	51	4838
2026-01-06 23:11:32.00	84.20	51.83	-40.2	-42.6	15.9	0.00e+00	0	56	0	603979776	51	4900
2026-01-06 23:11:33.01	84.86	51.93	-40.1	-42.4	16.1	0.00e+00	0	56	0	606076928	51	4811
2026-01-06 23:11:34.01	85.52	52.02	-40.0	-42.4	16.2	0.00e+00	0	57	0	608174080	51	4761
2026-01-06 23:11:35.02	86.19	52.11	-40.0	-42.3	16.2	0.00e+00	0	57	0	610271232	51	4749
2026-01-06 23:11:36.03	86.86	52.19	-40.3	-42.8	15.8	0.00e+00	0	57	0	612368384	51	5001
2026-01-06 23:11:37.04	87.54	52.28	-40.5	-43.0	15.6	0.00e+00	0	57	0	613416960	51	5145
2026-01-06 23:11:38.05	88.22	52.35	-40.0	-42.3	16.2	0.00e+00	0	57	0	615514112	51	4717
2026-01-06 23:11:39.06	88.90	52.43	-39.4	-41.4	17.1	0.00e+00	0	57	0	617611264	50	4517
2026-01-06 23:11:40.07	89.59	52.50	-39.2	-41.2	17.3	0.00e+00	0	57	0	619708416	50	4419
2026-01-06 23:11:41.08	90.28	52.56	-39.4	-41.5	17.1	0.00e+00	0	57	0	621805568	50	4567
2026-01-06 23:11:42.09	90.97	52.63	-39.7	-41.9	16.7	0.00e+00	0	57	0	622854144	50	4781
2026-01-06 23:11:43.10	91.67	52.68	-39.8	-42.0	16.6	0.00e+00	0	57	0	624951296	50	4858
2026-01-06 23:11:44.11	92.37	52.74	-39.5	-41.6	17.0	0.00e+00	0	57	0	627048448	50	4611
2026-01-06 23:11:45.12	93.07	52.79	-39.0	-40.9	17.7	0.00e+00	0	57	0	629145600	50	4273
2026-01-06 23:11:46.13	93.77	52.83	-38.8	-40.7	17.8	0.00e+00	0	57	0	631242752	49	4399
2026-01-06 23:11:47.14	94.48	52.87	-39.1	-41.0	17.5	0.00e+00	0	57	0	632291328	49	4592
2026-01-06 23:11:48.15	95.19	52.91	-39.1	-41.0	17.5	0.00e+00	0	57	0	634388480	49	4587
2026-01-06 23:11:49.16	95.89	52.94	-39.1	-41.0	17.6	0.00e+00	0	57	0	636485632	49	4571
2026-01-06 23:11:50.17	96.60	52.97	-38.8	-40.7	17.8	0.00e+00	0	57	0	638582784	49	4420
2026-01-06 23:11:51.18	97.32	52.99	-38.9	-40.8	17.7	0.00e+00	0	57	0	640679936	49	4470
2026-01-06 23:11:52.19	98.03	53.01	-39.1	-41.1	17.4	0.00e+00	0	57	0	641728512	49	4625
2026-01-06 23:11:53.20	98.74	53.02	-39.0	-40.9	17.6	0.00e+00	0	57	0	643825664	49	4537
2026-01-06 23:11:54.21	99.46	53.03	-38.9	-40.8	17.7	0.00e+00	0	57	0	645922816	49	4481
2026-01-06 23:11:55.22	100.17	53.04	-38.8	-40.7	17.8	0.00e+00	0	57	0	648019968	49	4414
2026-01-06 23:11:56.23	100.89	53.04	-39.0	-41.0	17.6	0.00e+00	0	57	0	650117120	49	4566
2026-01-06 23:11:57.24	101.60	53.03	-39.2	-41.2	17.4	0.00e+00	0	57	0	652214272	49	4660
2026-01-06 23:11:58.25	102.31	53.02	-39.4	-41.4	17.1	0.00e+00	0	57	0	653262848	49	4801
2026-01-06 23:11:59.26	103.03	53.01	-39.1	-41.1	17.5	0.00e+00	0	57	0	655360000	49	4628
2026-01-06 23:12:00.25	103.73	52.99	-38.9	-40.8	17.7	0.00e+00	0	57	0	657457152	49	4470
2026-01-06 23:12:01.26	104.44	52.97	-39.1	-41.1	17.4	0.00e+00	0	57	0	659554304	49	4599
2026-01-06 23:12:02.27	105.15	52.95	-39.3	-41.3	17.2	0.00e+00	0	57	0	661651456	49	4721
2026-01-06 23:12:03.28	105.86	52.92	-39.0	-41.0	17.5	0.00e+00	0	57	0	662700032	49	4554
2026-01-06 23:12:04.29	106.57	52.88	-38.6	-40.5	18.0	0.00e+00	0	57	0	664797184	49	4300
2026-01-06 23:12:05.30	107.28	52.84	-38.3	-40.1	18.4	0.00e+00	0	57	0	666894336	48	4368
2026-01-06 23:12:06.31	107.98	52.80	-38.6	-40.5	18.0	0.00e+00	0	57	0	668991488	48	4551
2026-01-06 23:12:07.32	108.68	52.75	-38.9	-40.9	17.6	0.00e+00	0	57	0	670040064	48	4780
2026-01-06 23:12:08.33	109.38	52.70	-38.6	-40.4	18.1	0.00e+00	0	57	0	672137216	48	4514
2026-01-06 23:12:09.34	110.08	52.64	-38.4	-40.2	18.3	0.00e+00	0	56	0	674234368	48	4415
2026-01-06 23:12:10.35	110.77	52.58	-38.6	-40.4	18.1	0.00e+00	0	56	0	676331520	48	4523
2026-01-06 23:12:11.36	111.47	52.52	-39.2	-41.2	17.3	0.00e+00	0	57	0	678428672	48	4937
2026-01-06 23:12:12.37	112.15	52.45	-39.5	-41.6	16.9	0.00e+00	0	57	0	680525824	49	4893
2026-01-06 23:12:13.38	112.84	52.37	-39.5	-41.6	16.9	0.00e+00	0	57	0	681574400	49	4887
2026-01-06 23:12:14.39	113.52	52.30	-39.1	-41.1	17.3	0.00e+00	0	57	0	683671552	49	4628
2026-01-06 23:12:15.40	114.20	52.22	-39.0	-41.0	17.5	0.00e+00	0	57	0	685768704	49	4578
2026-01-06 23:12:16.41	114.87	52.13	-39.5	-41.7	16.8	0.00e+00	0	57	0	687865856	49	4939
2026-01-06 23:12:17.42	115.54	52.04	-39.7	-41.9	16.6	0.00e+00	0	57	0	689963008	50	4783
2026-01-06 23:12:18.42	116.21	51.95	-39.6	-41.8	16.7	0.00e+00	0	57	0	691011584	50	4709
2026-01-06 23:12:19.43	116.87	51.85	-39.5	-41.6	16.9	0.00e+00	0	57	0	693108736	50	4627
2026-01-06 23:12:20.44	117.53	51.75	-39.9	-42.2	16.3	0.00e+00	0	57	0	695205888	50	4966
2026-01-06 23:12:21.45	118.18	51.65	-40.6	-43.2	15.3	0.00e+00	0	57	0	697303040	51	5220
2026-01-06 23:12:22.46	118.83	51.54	-41.0	-43.8	14.6	0.00e+00	0	57	0	699400192	52	5334
2026-01-06 23:12:23.47	119.47	51.43	-40.6	-43.2	15.2	0.00e+00	0	57	0	700448768	52	4936
2026-01-06 23:12:24.48	120.11	51.32	-40.3	-42.7	15.7	0.00e+00	0	57	0	702545920	52	4692
2026-01-06 23:12:25.49	120.75	51.20	-40.5	-43.1	15.4	0.00e+00	0	57	0	704643072	52	4876
2026-01-06 23:12:26.50	121.38	51.08	-41.0	-43.8	14.6	0.00e+00	0	57	0	706740224	52	5333
2026-01-06 23:12:27.51	122.00	50.96	-41.2	-44.2	14.2	0.00e+00	0	57	0	708837376	53	5275
2026-01-06 23:12:28.52	122.62	50.83	-40.9	-43.7	14.7	7.00e-07	0	57	0	709885952	53	4963
2026-01-06 23:12:29.53	123.24	50.70	-40.6	-43.2	15.2	0.00e+00	0	57	0	711983104	53	4701
2026-01-06 23:12:30.54	123.85	50.57	-40.6	-43.2	15.2	0.00e+00	0	57	0	714080256	53	4695
2026-01-06 23:12:31.55	124.45	50.43	-40.9	-43.6	14.8	0.00e+00	0	57	0	716177408	53	4919
2026-01-06 23:12:32.56	125.05	50.29	-41.4	-44.5	13.9	2.20e-06	0	57	0	718274560	53	5457
2026-01-06 23:12:33.57	125.64	50.15	-41.6	-44.9	13.5	9.90e-06	0	57	0	719323136	53	5716
2026-01-06 23:12:34.58	126.23	50.01	-42.1	-45.8	12.6	5.26e-05	0	57	0	721420288	54	5946
2026-01-06 23:12:35.58	126.80	49.86	-42.5	-46.7	11.6	3.71e-04	0	57	0	723517440	55	6240
2026-01-06 23:12:36.59	127.38	49.71	-43.1	-47.9	10.6	1.92e-03	0	57	0	725614592	56	6729
2026-01-06 23:12:37.60	127.95	49.56	-43.0	-47.6	10.8	3.04e-03	0	57	0	727711744	56	6567
2026-01-06 23:12:38.61	128.52	49.40	-42.8	-47.2	11.3	1.64e-03	0	57	0	728760320	56	6222
2026-01-06 23:12:39.62	129.08	49.25	-42.8	-47.0	11.5	1.22e-03	0	57	0	730857472	56	6106
2026-01-06 23:12:40.63	129.63	49.09	-42.5	-46.5	12.1	3.83e-04	0	57	0	732954624	56	5740
2026-01-06 23:12:41.64	130.18	48.93	-42.5	-46.4	12.1	2.23e-04	0	57	0	735051776	56	5674
2026-01-06 23:12:42.65	130.72	48.76	-42.7	-46.8	11.7	3.00e-04	0	57	0	737148928	56	5984
2026-01-06 23:12:43.66	131.26	48.60	-43.1	-47.8	10.6	1.26e-03	0	57	0	738197504	56	6699
2026-01-06 23:12:44.67	131.79	48.43	-43.1	-47.8	10.6	4.76e-03	0	57	0	740294656	57	6343
2026-01-06 23:12:45.68	132.31	48.26	-42.8	-47.1	11.3	1.94e-03	0	57	0	742391808	57	5844
2026-01-06 23:12:46.69	132.83	48.09	-42.6	-46.6	11.9	1.02e-03	0	57	0	744488960	57	5466
2026-01-06 23:12:47.70	133.35	47.91	-42.7	-46.8	11.6	5.58e-04	0	57	0	746586112	57	5654
2026-01-06 23:12:48.71	133.85	47.74	-43.2	-47.9	10.5	1.89e-03	0	57	0	748683264	57	6399
2026-01-06 23:12:49.72	134.36	47.56	-43.5	-48.8	9.5	8.39e-03	0	57	0	749731840	57	7083
2026-01-06 23:12:50.73	134.85	47.38	-43.2	-48.0	10.3	9.91e-03	0	57	0	751828992	57	6492
2026-01-06 23:12:51.74	135.34	47.21	-42.2	-45.9	12.6	5.56e-04	0	57	0	753926144	56	5368
2026-01-06 23:12:52.75	135.83	47.02	-41.7	-45.1	13.2	3.05e-05	0	57	0	756023296	55	5199
2026-01-06 23:12:53.76	136.31	46.84	-42.0	-45.5	12.8	1.90e-05	0	57	0	758120448	55	5456
2026-01-06 23:12:54.77	136.78	46.66	-42.3	-46.2	12.1	2.04e-04	0	57	0	759169024	55	5873
2026-01-06 23:12:55.78	137.25	46.47	-42.0	-45.6	12.7	2.71e-04	0	57	0	761266176	55	5476
2026-01-06 23:12:56.79	137.72	46.29	-41.1	-44.0	14.4	1.14e-05	0	57	0	763363328	54	4825
2026-01-06 23:12:57.80	138.18	46.10	-40.7	-43.4	15.0	0.00e+00	0	57	0	765460480	53	4781
2026-01-06 23:12:58.81	138.63	45.91	-40.8	-43.5	14.8	0.00e+00	0	57	0	767557632	53	4866
2026-01-06 23:12:59.82	139.08	45.72	-41.2	-44.2	14.1	0.00e+00	0	57	0	768606208	53	5267
2026-01-06 23:13:00.83	139.52	45.53	-41.4	-44.6	13.8	1.50e-06	0	57	0	770703360	53	5479
2026-01-06 23:13:01.83	139.95	45.34	-41.8	-45.3	13.1	1.14e-05	0	57	0	772800512	54	5604
2026-01-06 23:13:02.84	140.38	45.15	-41.8	-45.2	13.1	5.95e-05	0	57	0	774897664	54	5544
2026-01-06 23:13:03.85	140.81	44.96	-41.4	-44.5	13.8	4.50e-06	0	57	0	776994816	54	5121
2026-01-06 23:13:04.86	141.23	44.76	-41.1	-44.0	14.3	1.50e-06	0	57	0	778043392	54	4839
2026-01-06 23:13:05.87	141.65	44.57	-41.0	-43.9	14.5	0.00e+00	0	57	0	780140544	53	5050
2026-01-06 23:13:06.88	142.06	44.37	-41.3	-44.5	13.9	1.50e-06	0	57	0	782237696	53	5407
2026-01-06 23:13:07.89	142.47	44.18	-41.8	-45.3	13.1	1.44e-05	0	57	0	784334848	54	5620
2026-01-06 23:13:08.90	142.87	43.98	-42.4	-46.6	11.7	2.03e-04	0	57	0	786432000	55	6139
2026-01-06 23:13:09.91	143.26	43.78	-42.4	-46.4	11.9	6.26e-04	0	57	0	787480576	55	6024
2026-01-06 23:13:10.92	143.66	43.59	-41.7	-45.2	13.1	8.39e-05	0	57	0	789577728	55	5230
2026-01-06 23:13:11.93	144.04	43.39	-41.1	-44.0	14.4	3.00e-06	0	57	0	791674880	54	4818
2026-01-06 23:13:12.94	144.43	43.19	-41.0	-43.8	14.5	1.50e-06	0	57	0	793772032	53	5025
2026-01-06 23:13:13.95	144.80	42.99	-41.3	-44.4	14.0	1.50e-06	0	57	0	795869184	53	5343
2026-01-06 23:13:14.96	145.18	42.79	-42.4	-46.5	11.7	4.95e-05	0	57	0	796917760	55	6102
2026-01-06 23:13:15.96	145.54	42.60	-43.3	-48.5	9.8	3.02e-03	0	57	0	799014912	57	6868
2026-01-06 23:13:16.97	145.91	42.40	-43.3	-48.4	9.8	1.49e-02	0	57	0	801112064	57	6789
2026-01-06 23:13:17.98	146.27	42.20	-42.7	-47.0	11.4	3.16e-03	0	57	0	803209216	57	5758
2026-01-06 23:13:18.99	146.62	42.00	-42.6	-46.7	11.7	6.26e-04	0	57	0	805306368	57	5551
2026-01-06 23:13:20.00	146.97	41.80	-42.9	-47.4	11.1	1.03e-03	0	57	0	806354944	57	5993
2026-01-06 23:13:21.01	147.32	41.60	-43.4	-48.8	9.5	5.67e-03	0	57	0	808452096	57	7110
2026-01-06 23:13:22.02	147.66	41.40	-44.1	-51.3	7.0	5.27e-02	0	57	0	810549248	58	8917
2026-01-06 23:13:23.03	148.00	41.20	-44.3	-52.6	5.9	3.50e-01	0	57	0	812646400	59	9776
2026-01-06 23:13:24.04	148.34	41.00	-43.8	-50.6	7.5	1.94e-01	0	57	0	814743552	59	7724
2026-01-06 23:13:25.05	148.67	40.80	-43.0	-48.0	10.0	3.27e-02	0	57	0	816840704	58	6104
2026-01-06 23:13:26.06	148.99	40.60	-42.7	-47.3	10.7	4.15e-03	0	57	0	817889280	57	5936
2026-01-06 23:13:27.07	149.32	40.40	-42.6	-47.2	10.8	2.45e-03	0	57	0	819986432	57	5859
2026-01-06 23:13:28.08	149.64	40.20	-43.2	-48.9	9.0	8.16e-03	0	57	0	822083584	57	7191
2026-01-06 23:13:29.09	149.95	40.00	-43.9	-51.5	6.6	7.10e-02	0	57	0	824180736	58	9118
2026-01-06 23:13:30.10	150.26	39.80	-44.3	-52.7	5.7	4.61e-01	0	57	0	826277888	59	9921
2026-01-06 23:13:31.11	150.57	39.60	-43.9	-50.6	7.6	1.97e-01	0	57	0	827326464	59	7728
2026-01-06 23:13:32.12	150.87	39.40	-43.3	-48.5	9.7	3.43e-02	0	57	0	829423616	58	6494
2026-01-06 23:13:33.13	151.17	39.21	-43.1	-48.0	10.3	7.52e-03	0	57	0	831520768	58	6085
2026-01-06 23:13:34.14	151.47	39.01	-42.8	-47.3	11.0	2.58e-03	0	57	0	833617920	57	5945
2026-01-06 23:13:35.15	151.76	38.81	-43.1	-47.9	10.3	2.38e-03	0	57	0	835715072	57	6409
2026-01-06 23:13:36.16	152.05	38.61	-43.3	-48.5	9.8	9.32e-03	0	57	0	836763648	57	6832
2026-01-06 23:13:37.17	152.34	38.41	-43.4	-48.8	9.5	1.27e-02	0	57	0	838860800	57	7042
2026-01-06 23:13:38.18	152.62	38.22	-43.5	-49.1	9.3	1.72e-02	0	57	0	840957952	57	7335
2026-01-06 23:13:39.19	152.90	38.02	-43.4	-48.8	9.4	1.93e-02	0	57	0	843055104	57	7111
2026-01-06 23:13:40.20	153.18	37.83	-43.1	-48.1	10.2	8.97e-03	0	57	0	845152256	57	6496
2026-01-06 23:13:41.21	153.45	37.63	-42.7	-47.0	11.4	2.69e-03	0	57	0	846200832	57	5727
2026-01-06 23:13:42.23	153.72	37.43	-42.3	-46.2	12.2	2.77e-04	0	57	0	848297984	56	5589
2026-01-06 23:13:43.23	153.98	37.24	-42.2	-45.9	12.5	1.24e-04	0	57	0	850395136	56	5377
2026-01-06 23:13:44.24	154.25	37.05	-42.4	-46.4	12.0	1.81e-04	0	57	0	852492288	56	5665
2026-01-06 23:13:45.25	154.51	36.85	-42.9	-47.5	10.8	7.51e-04	0	57	0	854589440	56	6430
2026-01-06 23:13:46.26	154.77	36.66	-43.0	-47.8	10.5	4.08e-03	0	57	0	855638016	56	6722
2026-01-06 23:13:47.27	155.02	36.47	-43.0	-47.7	10.6	4.60e-03	0	57	0	857735168	56	6599
2026-01-06 23:13:48.28	155.27	36.27	-42.6	-46.8	11.5	1.81e-03	0	57	0	859832320	56	5985
2026-01-06 23:13:49.29	155.52	36.08	-42.3	-46.2	12.2	2.64e-04	0	57	0	861929472	56	5590
2026-01-06 23:13:50.30	155.76	35.89	-42.1	-45.8	12.6	1.84e-04	0	57	0	864026624	56	5295
2026-01-06 23:13:51.31	156.01	35.70	-41.8	-45.3	12.9	8.39e-05	0	57	0	865075200	55	5324
2026-01-06 23:13:52.32	156.25	35.51	-41.6	-45.1	13.2	2.74e-05	0	57	0	867172352	55	5162
2026-01-06 23:13:53.33	156.49	35.32	-41.4	-44.7	13.5	1.06e-05	0	57	0	869269504	54	5264
2026-01-06 23:13:54.34	156.72	35.13	-41.8	-45.4	12.8	1.29e-05	0	57	0	871366656	54	5686
2026-01-06 23:13:55.35	156.95	34.95	-42.3	-46.3	11.9	1.27e-04	0	57	0	873463808	55	5989
2026-01-06 23:13:56.36	157.18	34.76	-42.4	-46.6	11.6	6.64e-04	0	57	0	874512384	55	6166
2026-01-06 23:13:57.37	157.41	34.57	-42.2	-46.2	12.0	5.96e-04	0	57	0	876609536	55	5864
2026-01-06 23:13:58.38	157.63	34.38	-41.6	-45.0	13.2	1.30e-04	0	57	0	878706688	55	5133
2026-01-06 23:13:59.39	157.85	34.20	-41.1	-44.1	14.2	3.00e-06	0	57	0	880803840	54	4900
2026-01-06 23:14:00.39	158.07	34.02	-40.9	-43.8	14.5	7.00e-07	0	57	0	882900992	53	4986
2026-01-06 23:14:01.40	158.29	33.83	-40.7	-43.4	14.8	7.00e-07	0	57	0	884998144	53	4784
2026-01-06 23:14:02.41	158.50	33.65	-40.8	-43.7	14.6	7.00e-07	0	57	0	886046720	53	4954
2026-01-06 23:14:03.42	158.72	33.46	-41.4	-44.6	13.7	2.20e-06	0	57	0	888143872	53	5491
2026-01-06 23:14:04.43	158.93	33.28	-42.1	-46.0	12.3	5.26e-05	0	57	0	890241024	54	6090
2026-01-06 23:14:05.44	159.13	33.10	-42.4	-46.7	11.4	7.09e-04	0	57	0	892338176	55	6244
2026-01-06 23:14:06.45	159.34	32.92	-42.5	-47.0	11.2	1.54e-03	0	57	0	894435328	55	6427
2026-01-06 23:14:07.46	159.54	32.74	-42.2	-46.3	11.9	8.03e-04	0	57	0	895483904	55	5938
2026-01-06 23:14:08.47	159.74	32.56	-42.0	-45.9	12.2	3.03e-04	0	57	0	897581056	55	5701
2026-01-06 23:14:09.48	159.94	32.38	-41.7	-45.2	12.9	9.30e-05	0	57	0	899678208	55	5268
2026-01-06 23:14:10.49	160.14	32.20	-41.6	-45.0	13.2	3.50e-05	0	57	0	901775360	55	5126
2026-01-06 23:14:11.50	160.33	32.03	-41.4	-44.7	13.5	1.83e-05	0	57	0	903872512	54	5253
2026-01-06 23:14:12.51	160.52	31.85	-41.7	-45.1	13.1	1.60e-05	0	57	0	904921088	54	5523
2026-01-06 23:14:13.51	160.71	31.67	-42.0	-45.8	12.4	6.33e-05	0	57	0	907018240	54	5959
2026-01-06 23:14:14.52	160.90	31.50	-42.1	-46.0	12.2	1.15e-04	0	57	0	909115392	54	6095
2026-01-06 23:14:15.53	161.09	31.32	-42.5	-46.9	11.3	8.14e-04	0	57	0	911212544	55	6354
2026-01-06 23:14:16.54	161.27	31.15	-42.6	-47.2	10.8	2.11e-03	0	57	0	913309696	55	6632
2026-01-06 23:14:17.55	161.46	30.98	-42.7	-47.4	10.7	2.28e-03	0	57	0	914358272	55	6777
2026-01-06 23:14:18.56	161.64	30.80	-42.7	-47.4	10.7	2.76e-03	0	57	0	916455424	55	6755
2026-01-06 23:14:19.57	161.82	30.63	-42.4	-46.7	11.4	1.80e-03	0	57	0	918552576	55	6216
2026-01-06 23:14:20.58	161.99	30.46	-42.1	-46.1	12.0	6.61e-04	0	57	0	920649728	55	5820
2026-01-06 23:14:21.59	162.17	30.29	-41.9	-45.7	12.4	1.28e-04	0	57	0	922746880	55	5557
2026-01-06 23:14:22.60	162.34	30.12	-41.9	-45.6	12.6	1.01e-04	0	57	0	923795456	55	5489
2026-01-06 23:14:23.61	162.51	29.95	-41.6	-45.1	13.1	5.72e-05	0	57	0	925892608	55	5162
2026-01-06 23:14:24.62	162.68	29.78	-41.5	-45.0	13.2	2.59e-05	0	57	0	927989760	54	5412
2026-01-06 23:14:25.63	162.85	29.62	-41.4	-44.7	13.4	2.21e-05	0	57	0	930086912	54	5263
2026-01-06 23:14:26.64	163.02	29.45	-41.1	-44.3	13.9	3.80e-06	0	57	0	932184064	54	4993
2026-01-06 23:14:27.65	163.18	29.28	-41.1	-44.2	14.0	4.50e-06	0	57	0	933232640	54	4949
2026-01-06 23:14:28.66	163.35	29.12	-40.8	-43.7	14.4	7.00e-07	0	57	0	935329792	53	4976
2026-01-06 23:14:29.67	163.51	28.96	-40.8	-43.7	14.5	7.00e-07	0	57	0	937426944	53	4930
2026-01-06 23:14:30.68	163.67	28.79	-40.9	-43.8	14.3	1.50e-06	0	57	0	939524096	53	5020
2026-01-06 23:14:31.68	163.82	28.63	-40.9	-43.9	14.2	7.00e-07	0	57	0	941621248	53	5065
2026-01-06 23:14:32.69	163.98	28.47	-41.2	-44.3	13.8	4.50e-06	0	57	0	942669824	53	5332
2026-01-06 23:14:33.70	164.14	28.31	-41.3	-44.6	13.5	7.60e-06	0	57	0	944766976	53	5528
2026-01-06 23:14:34.71	164.29	28.14	-41.4	-44.8	13.3	1.44e-05	0	57	0	946864128	53	5611
2026-01-06 23:14:35.72	164.44	27.98	-41.4	-44.8	13.3	1.52e-05	0	57	0	948961280	53	5640
2026-01-06 23:14:36.73	164.59	27.83	-41.3	-44.5	13.6	1.22e-05	0	57	0	951058432	53	5452
2026-01-06 23:14:37.74	164.74	27.67	-41.0	-44.1	14.1	6.10e-06	0	57	0	953155584	53	5180
2026-01-06 23:14:38.75	164.89	27.51	-40.8	-43.7	14.4	2.20e-06	0	57	0	954204160	53	4976
2026-01-06 23:14:39.76	165.04	27.35	-40.7	-43.6	14.5	7.00e-07	0	57	0	956301312	53	4908
2026-01-06 23:14:40.77	165.18	27.19	-40.5	-43.3	14.9	0.00e+00	0	57	0	958398464	52	4989
2026-01-06 23:14:41.77	165.32	27.04	-40.5	-43.3	14.9	0.00e+00	0	57	0	960495616	52	5008
2026-01-06 23:14:42.78	165.47	26.88	-40.6	-43.5	14.7	0.00e+00	0	57	0	962592768	52	5128
2026-01-06 23:14:43.79	165.61	26.73	-40.8	-43.8	14.4	0.00e+00	0	57	0	963641344	52	5281
2026-01-06 23:14:44.80	165.75	26.58	-41.1	-44.3	13.8	2.20e-06	0	57	0	965738496	52	5609
2026-01-06 23:14:45.81	165.89	26.42	-41.2	-44.4	13.7	7.60e-06	0	57	0	967835648	52	5695
2026-01-06 23:14:46.82	166.02	26.27	-41.3	-44.7	13.4	1.37e-05	0	57	0	969932800	53	5558
2026-01-06 23:14:47.83	166.16	26.12	-41.4	-44.9	13.2	2.67e-05	0	57	0	972029952	53	5694
2026-01-06 23:14:48.84	166.29	25.97	-41.4	-44.8	13.3	1.22e-05	0	57	0	973078528	53	5622
2026-01-06 23:14:49.85	166.43	25.82	-41.3	-44.7	13.4	1.14e-05	0	57	0	975175680	53	5551
2026-01-06 23:14:50.86	166.56	25.67	-41.3	-44.6	13.4	1.44e-05	0	57	0	977272832	53	5516
2026-01-06 23:14:51.87	166.69	25.52	-41.2	-44.5	13.6	9.10e-06	0	57	0	979369984	53	5407
2026-01-06 23:14:52.88	166.82	25.37	-41.2	-44.4	13.6	6.10e-06	0	57	0	981467136	53	5382
2026-01-06 23:14:53.89	166.95	25.22	-41.1	-44.3	13.7	9.10e-06	0	57	0	982515712	53	5327
2026-01-06 23:14:54.90	167.08	25.08	-41.1	-44.4	13.7	5.30e-06	0	57	0	984612864	53	5357
2026-01-06 23:14:55.91	167.20	24.93	-41.1	-44.3	13.8	1.50e-06	0	57	0	986710016	53	5290
2026-01-06 23:14:56.92	167.33	24.78	-41.0	-44.1	14.0	1.50e-06	0	57	0	988807168	53	5175
2026-01-06 23:14:57.93	167.45	24.64	-40.9	-43.9	14.1	7.00e-07	0	57	0	990904320	53	5070
2026-01-06 23:14:58.94	167.57	24.49	-40.7	-43.7	14.4	7.00e-07	0	57	0	991952896	53	4947
2026-01-06 23:14:59.95	167.70	24.35	-40.6	-43.4	14.6	2.20e-06	0	57	0	994050048	53	4803
2026-01-06 23:15:00.96	167.82	24.21	-40.5	-43.2	14.8	0.00e+00	0	57	0	996147200	52	4975
2026-01-06 23:15:01.97	167.94	24.07	-40.4	-43.2	14.9	0.00e+00	0	57	0	998244352	52	4932
2026-01-06 23:15:02.98	168.06	23.92	-40.4	-43.2	14.9	0.00e+00	0	57	0	1000341504	52	4941
2026-01-06 23:15:03.98	168.17	23.78	-40.5	-43.3	14.8	0.00e+00	0	57	0	1001390080	52	5023
2026-01-06 23:15:04.99	168.29	23.64	-40.6	-43.5	14.5	0.00e+00	0	57	0	1003487232	52	5149
2026-01-06 23:15:06.00	168.41	23.50	-40.8	-43.7	14.3	0.00e+00	0	57	0	1005584384	52	5274
2026-01-06 23:15:07.01	168.52	23.36	-41.0	-44.1	13.9	1.50e-06	0	57	0	1007681536	52	5519
2026-01-06 23:15:08.02	168.63	23.23	-41.1	-44.4	13.6	6.10e-06	0	57	0	1009778688	52	5704
2026-01-06 23:15:09.03	168.75	23.09	-41.3	-44.8	13.2	1.98e-05	0	57	0	1010827264	53	5607
2026-01-06 23:15:10.04	168.86	22.95	-41.4	-44.9	13.1	2.51e-05	0	57	0	1012924416	53	5680
2026-01-06 23:15:11.05	168.97	22.81	-41.4	-44.9	13.2	3.66e-05	0	57	0	1015021568	53	5661
2026-01-06 23:15:12.05	169.08	22.68	-41.3	-44.6	13.4	1.52e-05	0	57	0	1017118720	53	5526
2026-01-06 23:15:13.06	169.19	22.54	-41.1	-44.4	13.6	1.29e-05	0	57	0	1019215872	53	5383
2026-01-06 23:15:14.07	169.30	22.41	-40.9	-44.1	13.9	7.60e-06	0	57	0	1020264448	53	5186
2026-01-06 23:15:15.08	169.40	22.28	-40.8	-43.9	14.1	0.00e+00	0	57	0	1022361600	53	5061
2026-01-06 23:15:16.09	169.51	22.14	-40.6	-43.6	14.4	7.00e-07	0	57	0	1024458752	53	4886
2026-01-06 23:15:17.10	169.61	22.01	-40.4	-43.3	14.7	0.00e+00	0	57	0	1026555904	52	4995
2026-01-06 23:15:18.11	169.72	21.88	-40.3	-43.1	14.9	0.00e+00	0	57	0	1028653056	52	4887
2026-01-06 23:15:19.12	169.82	21.74	-40.3	-43.0	15.0	0.00e+00	0	57	0	1030750208	52	4853
2026-01-06 23:15:20.13	169.93	21.61	-40.3	-43.0	15.1	0.00e+00	0	57	0	1031798784	52	4815
2026-01-06 23:15:21.14	170.03	21.48	-40.3	-43.0	15.0	0.00e+00	0	57	0	1033895936	52	4865
2026-01-06 23:15:22.15	170.13	21.35	-40.3	-43.0	15.0	0.00e+00	0	57	0	1035993088	52	4846
2026-01-06 23:15:23.16	170.23	21.22	-40.3	-43.1	14.9	0.00e+00	0	57	0	1038090240	52	4900
2026-01-06 23:15:24.17	170.33	21.09	-40.4	-43.2	14.7	7.00e-07	0	57	0	1039138816	52	4981
2026-01-06 23:15:25.18	170.43	20.97	-40.4	-43.2	14.8	0.00e+00	0	57	0	1041235968	52	4975
2026-01-06 23:15:26.19	170.53	20.84	-40.5	-43.3	14.7	7.00e-07	0	57	0	1043333120	52	5025
2026-01-06 23:15:27.20	170.62	20.71	-40.5	-43.3	14.6	0.00e+00	0	57	0	1045430272	52	5040
2026-01-06 23:15:28.21	170.72	20.58	-40.5	-43.3	14.7	7.00e-07	0	57	0	1047527424	52	5035
2026-01-06 23:15:29.22	170.81	20.46	-40.4	-43.2	14.7	7.00e-07	0	57	0	1049624576	52	4972
2026-01-06 23:15:30.23	170.91	20.33	-40.4	-43.2	14.8	0.00e+00	0	57	0	1050673152	52	4972
2026-01-06 23:15:31.24	171.00	20.21	-40.4	-43.2	14.7	7.00e-07	0	57	0	1052770304	52	4972
2026-01-06 23:15:32.25	171.10	20.08	-40.3	-43.0	15.0	0.00e+00	0	57	0	1054867456	52	4860
2026-01-06 23:15:33.26	171.19	19.96	-40.2	-42.9	15.1	0.00e+00	0	57	0	1056964608	52	4807
2026-01-06 23:15:34.27	171.28	19.84	-40.1	-42.8	15.2	0.00e+00	0	57	0	1059061760	52	4730
2026-01-06 23:15:35.28	171.37	19.71	-40.1	-42.7	15.3	0.00e+00	0	57	0	1060110336	51	4957
2026-01-06 23:15:36.29	171.46	19.59	-40.0	-42.5	15.5	0.00e+00	0	57	0	1062207488	51	4859
2026-01-06 23:15:37.30	171.55	19.47	-39.9	-42.4	15.7	0.00e+00	0	57	0	1064304640	51	4771
2026-01-06 23:15:38.31	171.64	19.35	-39.9	-42.4	15.7	0.00e+00	0	57	0	1066401792	51	4775
2026-01-06 23:15:39.32	171.73	19.23	-39.9	-42.3	15.7	0.00e+00	0	57	0	1068498944	51	4758
2026-01-06 23:15:40.33	171.82	19.11	-39.8	-42.3	15.7	0.00e+00	0	57	0	1069547520	51	4716
2026-01-06 23:15:41.34	171.91	18.99	-39.8	-42.3	15.7	0.00e+00	0	57	0	1071644672	51	4715
2026-01-06 23:15:42.35	171.99	18.87	-39.7	-42.2	15.8	0.00e+00	0	57	0	1073741824	51	4674
2026-01-06 23:15:43.36	172.08	18.75	-39.8	-42.2	15.7	0.00e+00	0	57	0	1075838976	51	4700
2026-01-06 23:15:44.37	172.17	18.63	-39.7	-42.2	15.8	0.00e+00	0	57	0	1077936128	51	4654
2026-01-06 23:15:45.38	172.25	18.52	-39.7	-42.2	15.8	0.00e+00	0	57	0	1078984704	51	4671
2026-01-06 23:15:46.38	172.33	18.40	-39.8	-42.3	15.6	0.00e+00	0	57	0	1081081856	51	4752
2026-01-06 23:15:47.39	172.42	18.28	-39.8	-42.3	15.7	0.00e+00	0	57	0	1083179008	51	4726
2026-01-06 23:15:48.40	172.50	18.17	-39.8	-42.4	15.6	0.00e+00	0	57	0	1085276160	51	4768
2026-01-06 23:15:49.41	172.58	18.05	-39.9	-42.5	15.5	0.00e+00	0	57	0	1087373312	51	4817
2026-01-06 23:15:50.42	172.66	17.94	-39.9	-42.4	15.5	0.00e+00	0	57	0	1088421888	51	4795
2026-01-06 23:15:51.43	172.74	17.82	-40.0	-42.7	15.3	0.00e+00	0	57	0	1090519040	51	4931
2026-01-06 23:15:52.44	172.83	17.71	-40.0	-42.6	15.3	0.00e+00	0	57	0	1092616192	51	4924
2026-01-06 23:15:53.45	172.91	17.59	-40.1	-42.7	15.2	0.00e+00	0	57	0	1094713344	51	4960
2026-01-06 23:15:54.46	172.98	17.48	-40.2	-42.9	15.1	0.00e+00	0	57	0	1096810496	51	5046
2026-01-06 23:15:55.47	173.06	17.37	-40.1	-42.8	15.1	0.00e+00	0	57	0	1098907648	51	5021
2026-01-06 23:15:56.48	173.14	17.26	-40.2	-42.9	15.0	0.00e+00	0	57	0	1099956224	51	5079
2026-01-06 23:15:57.49	173.22	17.14	-40.2	-43.0	14.9	0.00e+00	0	57	0	1102053376	51	5105
2026-01-06 23:15:58.50	173.30	17.03	-40.2	-42.9	14.9	0.00e+00	0	57	0	1104150528	51	5084
2026-01-06 23:15:59.51	173.37	16.92	-40.2	-42.9	14.9	0.00e+00	0	57	0	1106247680	51	5100
2026-01-06 23:16:00.52	173.45	16.81	-40.1	-42.9	15.0	7.00e-07	0	57	0	1108344832	51	5055
2026-01-06 23:16:01.53	173.52	16.70	-40.1	-42.8	15.1	0.00e+00	0	57	0	1109393408	51	5009
2026-01-06 23:16:02.54	173.60	16.59	-40.1	-42.8	15.1	0.00e+00	0	57	0	1111490560	51	4988
2026-01-06 23:16:03.55	173.67	16.48	-40.0	-42.6	15.3	0.00e+00	0	57	0	1113587712	51	4878
2026-01-06 23:16:04.56	173.75	16.37	-39.9	-42.5	15.3	0.00e+00	0	57	0	1115684864	51	4868
2026-01-06 23:16:05.57	173.82	16.27	-39.9	-42.5	15.4	7.00e-07	0	57	0	1116733440	51	4817
2026-01-06 23:16:06.58	173.89	16.16	-39.9	-42.4	15.4	7.00e-07	0	57	0	1118830592	51	4812
2026-01-06 23:16:07.59	173.97	16.05	-39.8	-42.4	15.4	0.00e+00	0	57	0	1120927744	51	4792
2026-01-06 23:16:08.60	174.04	15.94	-39.8	-42.3	15.5	0.00e+00	0	57	0	1123024896	51	4735
2026-01-06 23:16:09.61	174.11	15.84	-39.8	-42.3	15.5	0.00e+00	0	57	0	1125122048	51	4735
2026-01-06 23:16:10.62	174.18	15.73	-39.8	-42.4	15.4	0.00e+00	0	57	0	1127219200	51	4770
2026-01-06 23:16:11.62	174.25	15.63	-39.8	-42.3	15.5	0.00e+00	0	57	0	1128267776	51	4750
2026-01-06 23:16:12.63	174.32	15.52	-39.8	-42.4	15.4	0.00e+00	0	57	0	1130364928	51	4779
2026-01-06 23:16:13.64	174.39	15.42	-39.8	-42.4	15.3	0.00e+00	0	57	0	1132462080	51	4781
2026-01-06 23:16:14.65	174.46	15.31	-39.9	-42.4	15.3	0.00e+00	0	57	0	1134559232	51	4804
2026-01-06 23:16:15.66	174.53	15.21	-39.9	-42.5	15.2	0.00e+00	0	57	0	1136656384	51	4864
2026-01-06 23:16:16.67	174.60	15.11	-39.9	-42.5	15.3	0.00e+00	0	57	0	1137704960	51	4846
2026-01-06 23:16:17.68	174.66	15.00	-40.0	-42.6	15.1	7.00e-07	0	57	0	1139802112	51	4905
2026-01-06 23:16:18.69	174.73	14.90	-40.1	-42.8	15.0	0.00e+00	0	57	0	1141899264	51	5022
2026-01-06 23:16:19.70	174.80	14.80	-40.1	-42.8	15.0	0.00e+00	0	57	0	1143996416	51	5006
2026-01-06 23:16:20.71	174.86	14.70	-40.2	-42.9	14.8	0.00e+00	0	57	0	1146093568	51	5094
2026-01-06 23:16:21.72	174.93	14.59	-40.1	-42.9	14.8	0.00e+00	0	57	0	1147142144	51	5079
2026-01-06 23:16:22.73	175.00	14.49	-40.2	-43.0	14.8	0.00e+00	0	57	0	1149239296	51	5113
2026-01-06 23:16:23.74	175.06	14.39	-40.2	-43.0	14.7	0.00e+00	0	57	0	1151336448	51	5159
2026-01-06 23:16:24.75	175.13	14.29	-40.2	-43.1	14.6	7.00e-07	0	57	0	1153433600	51	5177
2026-01-06 23:16:25.76	175.19	14.19	-40.3	-43.2	14.5	0.00e+00	0	57	0	1155530752	51	5234
2026-01-06 23:16:26.78	175.26	14.09	-40.4	-43.3	14.4	7.00e-07	0	57	0	1156579328	51	5321
2026-01-06 23:16:27.78	175.32	13.99	-40.4	-43.3	14.4	7.00e-07	0	57	0	1158676480	51	5304
