passes_logs/2026/01/06/R2.0S_Moscow/R2.0S_Moscow__20260106_221437_NOAA_21_JPSS-2_rec.log

#Pass ID: 20260106_221437_NOAA 21 (JPSS-2)
#Satellite: NOAA 21 (JPSS-2)
#Configuration: NOAA-21
#almurnet v.1.7.20251203
#Start time: 2026-01-06 22:14:39

#Version: 2.2.20231116
#Station: R2.0S_Moscow
#Location: 37.707566 lon 55.798166 lat
#TLE: 1 54234U 22150A   26005.56767909  .00000152  00000+0  92756-4 0  9990
#TLE: 2 54234  98.7490 306.5820 0001036 340.2747  19.8389 14.19532370163472

#Time	Az	El	Level	Level2	SNR	BER	BlckErr	Temp	State	Recorded	gain1	gain2
2026-01-06 22:14:39.86	24.70	2.12	-41.6	-54.9	3.8	1.49e+00	0	47	0	0	55	15994
2026-01-06 22:14:40.86	24.77	2.18	-41.6	-54.9	3.8	1.49e+00	0	47	104	0	53	17896
2026-01-06 22:14:41.87	24.83	2.24	-41.6	-54.9	3.8	1.49e+00	0	48	104	0	53	17924
2026-01-06 22:14:42.88	24.90	2.29	-41.6	-54.9	3.8	1.49e+00	0	47	104	0	53	17950
2026-01-06 22:14:43.89	24.97	2.35	-41.6	-54.8	3.8	1.49e+00	0	48	104	0	53	17882
2026-01-06 22:14:44.90	25.04	2.40	-41.6	-54.9	3.8	1.49e+00	0	48	104	0	53	17946
2026-01-06 22:14:45.91	25.11	2.46	-41.6	-54.9	3.8	1.49e+00	0	48	104	0	53	17917
2026-01-06 22:14:46.92	25.18	2.52	-41.6	-54.8	3.8	1.49e+00	0	48	104	0	53	17870
2026-01-06 22:14:47.93	25.25	2.57	-41.6	-54.9	3.8	1.49e+00	0	48	104	0	53	17905
2026-01-06 22:14:48.94	25.32	2.63	-41.6	-54.8	3.8	1.49e+00	0	48	104	0	53	17875
2026-01-06 22:14:49.95	25.40	2.69	-41.6	-54.8	3.8	1.49e+00	0	48	104	0	53	17851
2026-01-06 22:14:50.96	25.47	2.74	-41.6	-54.8	3.8	1.49e+00	0	48	104	0	53	17877
2026-01-06 22:14:51.97	25.54	2.80	-41.6	-54.8	3.8	1.49e+00	0	48	104	0	53	17862
2026-01-06 22:14:52.98	25.61	2.86	-41.6	-54.8	3.8	1.49e+00	0	48	104	0	53	17863
2026-01-06 22:14:53.99	25.68	2.92	-41.6	-54.8	3.8	1.49e+00	0	48	104	0	53	17885
2026-01-06 22:14:55.00	25.75	2.97	-41.6	-54.9	3.8	1.49e+00	0	48	104	0	53	17901
2026-01-06 22:14:56.01	25.83	3.03	-41.6	-54.8	3.8	1.49e+00	0	48	104	0	53	17885
2026-01-06 22:14:57.02	25.90	3.09	-41.6	-54.8	3.8	1.49e+00	0	49	104	0	53	17846
2026-01-06 22:14:58.03	25.97	3.15	-41.6	-54.8	3.8	1.49e+00	0	49	104	0	53	17853
2026-01-06 22:14:59.04	26.05	3.20	-41.6	-54.8	3.8	1.49e+00	0	49	104	0	53	17851
2026-01-06 22:15:00.05	26.12	3.26	-41.6	-54.9	3.8	1.49e+00	0	49	104	0	53	17900
2026-01-06 22:15:01.06	26.19	3.32	-41.6	-54.8	3.8	1.49e+00	0	49	104	0	53	17868
2026-01-06 22:15:02.08	26.27	3.38	-41.6	-54.8	3.8	1.49e+00	0	49	104	0	53	17878
2026-01-06 22:15:03.09	26.34	3.43	-41.6	-54.8	3.8	1.49e+00	0	49	104	0	53	17888
2026-01-06 22:15:04.10	26.42	3.49	-41.6	-54.8	3.8	1.49e+00	0	49	104	0	53	17870
2026-01-06 22:15:05.11	26.49	3.55	-41.6	-54.8	3.8	1.49e+00	0	49	104	0	53	17860
2026-01-06 22:15:06.12	26.57	3.61	-41.6	-54.8	3.8	1.49e+00	0	49	104	0	53	17867
2026-01-06 22:15:07.13	26.64	3.67	-41.6	-54.9	3.8	1.49e+00	0	49	104	0	53	17934
2026-01-06 22:15:08.14	26.72	3.73	-41.6	-54.8	3.8	1.49e+00	0	49	104	0	53	17883
2026-01-06 22:15:09.15	26.80	3.78	-41.6	-54.8	3.8	1.49e+00	0	49	104	0	53	17847
2026-01-06 22:15:10.16	26.87	3.84	-41.6	-54.8	3.8	1.49e+00	0	50	104	0	53	17888
2026-01-06 22:15:11.17	26.95	3.90	-41.6	-54.9	3.8	1.49e+00	0	49	104	0	53	17903
2026-01-06 22:15:12.19	27.03	3.96	-41.6	-54.8	3.8	1.49e+00	0	50	104	0	53	17846
2026-01-06 22:15:13.19	27.10	4.02	-41.6	-54.9	3.8	1.49e+00	0	50	104	0	53	17907
2026-01-06 22:15:14.20	27.18	4.08	-41.6	-54.8	3.8	1.49e+00	0	49	104	0	53	17886
2026-01-06 22:15:15.22	27.26	4.14	-41.6	-54.9	3.8	1.49e+00	0	50	104	0	53	17903
2026-01-06 22:15:16.23	27.34	4.20	-41.6	-54.9	3.8	1.49e+00	0	50	104	0	53	17916
2026-01-06 22:15:17.24	27.42	4.25	-41.6	-54.9	3.8	1.49e+00	0	50	104	0	53	17917
2026-01-06 22:15:18.25	27.50	4.31	-41.6	-54.9	3.8	1.49e+00	0	50	104	0	53	17899
2026-01-06 22:15:19.26	27.57	4.37	-41.6	-54.8	3.8	1.49e+00	0	50	104	0	53	17869
2026-01-06 22:15:20.27	27.65	4.43	-41.6	-54.8	3.8	1.49e+00	0	50	104	0	53	17855
2026-01-06 22:15:21.28	27.73	4.49	-41.6	-54.9	3.8	1.49e+00	0	50	104	0	53	17893
2026-01-06 22:15:22.29	27.81	4.55	-41.6	-54.9	3.8	1.49e+00	0	50	104	0	53	17890
2026-01-06 22:15:23.30	27.89	4.61	-41.6	-54.9	3.8	1.49e+00	0	50	104	0	53	17921
2026-01-06 22:15:24.31	27.97	4.67	-41.6	-54.8	3.8	1.49e+00	0	50	104	0	53	17859
2026-01-06 22:15:25.32	28.05	4.73	-41.6	-54.8	3.8	1.49e+00	0	50	104	0	53	17841
2026-01-06 22:15:26.33	28.14	4.79	-41.6	-54.9	3.8	1.49e+00	0	50	104	0	53	17890
2026-01-06 22:15:27.34	28.22	4.85	-41.6	-54.9	3.8	1.49e+00	0	50	104	0	53	17889
2026-01-06 22:15:28.35	28.30	4.91	-41.5	-54.9	3.8	1.49e+00	0	50	104	0	53	17901
2026-01-06 22:15:29.36	28.38	4.97	-41.6	-54.9	3.8	1.49e+00	0	51	104	0	53	17912
2026-01-06 22:15:30.38	28.46	5.03	-41.6	-54.9	3.8	1.49e+00	0	51	104	0	53	17916
2026-01-06 22:15:31.39	28.55	5.09	-41.6	-54.8	3.8	1.49e+00	0	50	104	0	53	17847
2026-01-06 22:15:32.40	28.63	5.15	-41.6	-54.9	3.8	1.49e+00	0	51	104	0	53	17905
2026-01-06 22:15:33.41	28.71	5.21	-41.6	-54.8	3.8	1.49e+00	0	51	104	0	53	17853
2026-01-06 22:15:34.42	28.80	5.27	-41.6	-54.8	3.8	1.49e+00	0	51	104	0	53	17870
2026-01-06 22:15:35.43	28.88	5.34	-41.6	-54.8	3.8	1.49e+00	0	51	104	0	53	17859
2026-01-06 22:15:36.44	28.97	5.40	-41.6	-54.8	3.8	1.49e+00	0	51	104	0	53	17888
2026-01-06 22:15:37.45	29.05	5.46	-41.6	-54.9	3.8	1.49e+00	0	51	104	0	53	17935
2026-01-06 22:15:38.46	29.14	5.52	-41.6	-54.8	3.8	1.49e+00	0	51	104	0	53	17877
2026-01-06 22:15:39.47	29.22	5.58	-41.6	-54.8	3.8	1.49e+00	0	51	104	0	53	17837
2026-01-06 22:15:40.48	29.31	5.64	-41.6	-54.8	3.8	1.49e+00	0	51	104	0	53	17872
2026-01-06 22:15:41.49	29.39	5.70	-41.6	-54.9	3.8	1.49e+00	0	51	104	0	53	17919
2026-01-06 22:15:42.50	29.48	5.76	-41.6	-54.8	3.8	1.49e+00	0	51	104	0	53	17830
2026-01-06 22:15:43.51	29.57	5.82	-41.6	-54.8	3.8	1.49e+00	0	51	104	0	53	17824
2026-01-06 22:15:44.52	29.65	5.89	-41.6	-54.8	3.8	1.49e+00	0	51	104	0	53	17828
2026-01-06 22:15:45.53	29.74	5.95	-41.6	-54.8	3.8	1.49e+00	0	51	104	0	53	17797
2026-01-06 22:15:46.54	29.83	6.01	-41.6	-54.8	3.8	1.49e+00	0	51	104	0	53	17878
2026-01-06 22:15:47.55	29.92	6.07	-41.6	-54.8	3.8	1.49e+00	0	51	104	0	53	17829
2026-01-06 22:15:48.56	30.01	6.13	-41.6	-54.8	3.8	1.49e+00	0	51	104	0	53	17828
2026-01-06 22:15:49.57	30.10	6.20	-41.6	-54.8	3.8	1.49e+00	0	51	104	0	53	17835
2026-01-06 22:15:50.58	30.18	6.26	-41.6	-54.8	3.8	1.49e+00	0	52	104	0	53	17796
2026-01-06 22:15:51.59	30.27	6.32	-41.6	-54.8	3.8	1.49e+00	0	51	104	0	53	17701
2026-01-06 22:15:52.60	30.36	6.38	-41.6	-54.8	3.8	1.49e+00	0	52	104	0	53	17719
2026-01-06 22:15:53.62	30.46	6.45	-41.6	-54.7	3.8	1.49e+00	0	52	104	0	53	17585
2026-01-06 22:15:54.63	30.55	6.51	-41.6	-54.7	3.8	1.49e+00	0	52	104	0	53	17639
2026-01-06 22:15:55.63	30.64	6.57	-41.6	-54.6	3.8	1.49e+00	0	52	104	0	53	17474
2026-01-06 22:15:56.64	30.73	6.63	-41.5	-54.4	3.8	1.49e+00	0	52	104	0	53	17048
2026-01-06 22:15:57.65	30.82	6.70	-41.6	-54.3	3.8	1.49e+00	0	52	104	0	53	16881
2026-01-06 22:15:58.67	30.91	6.76	-41.6	-54.0	3.8	1.49e+00	0	52	104	0	53	16239
2026-01-06 22:15:59.68	31.01	6.82	-41.5	-54.0	3.8	1.49e+00	0	52	104	0	53	16174
2026-01-06 22:16:00.69	31.10	6.88	-41.5	-54.0	3.8	1.49e+00	0	52	104	0	53	16256
2026-01-06 22:16:01.69	31.19	6.95	-41.5	-54.1	3.8	1.49e+00	0	52	104	0	53	16409
2026-01-06 22:16:02.71	31.29	7.01	-41.5	-54.2	3.8	1.49e+00	0	52	104	0	53	16574
2026-01-06 22:16:03.71	31.38	7.07	-41.5	-54.5	3.8	1.49e+00	0	52	104	0	53	17126
2026-01-06 22:16:04.73	31.47	7.14	-41.6	-54.4	3.8	1.49e+00	0	52	104	0	53	17055
2026-01-06 22:16:05.74	31.57	7.20	-41.6	-54.7	3.8	1.49e+00	0	52	104	0	53	17615
2026-01-06 22:16:06.75	31.66	7.27	-41.5	-54.1	3.8	1.49e+00	0	52	104	0	53	16482
2026-01-06 22:16:07.76	31.76	7.33	-41.5	-53.4	3.8	1.49e+00	0	52	104	0	53	15188
2026-01-06 22:16:08.77	31.86	7.39	-41.4	-51.7	4.1	1.48e+00	0	52	104	0	53	12483
2026-01-06 22:16:09.78	31.95	7.46	-41.0	-50.4	4.0	1.23e+00	0	52	104	0	53	10774
2026-01-06 22:16:10.79	32.05	7.52	-40.9	-48.5	5.5	5.79e-01	0	52	0	2097152	53	8607
2026-01-06 22:16:11.80	32.15	7.59	-40.3	-46.2	7.3	1.71e-01	0	52	0	5242880	52	7011
2026-01-06 22:16:12.81	32.24	7.65	-39.9	-44.8	8.8	3.90e-02	0	53	0	8388608	51	6325
2026-01-06 22:16:13.82	32.34	7.71	-39.3	-43.3	10.3	7.31e-03	0	52	0	11534336	50	5652
2026-01-06 22:16:14.83	32.44	7.78	-38.7	-42.2	11.5	1.75e-03	0	52	0	14680064	49	5239
2026-01-06 22:16:15.84	32.54	7.84	-38.3	-41.5	12.2	3.30e-04	0	52	0	17825792	48	5138
2026-01-06 22:16:16.86	32.64	7.91	-38.2	-41.3	12.4	1.32e-04	0	53	0	20971520	48	5032
2026-01-06 22:16:17.86	32.74	7.97	-38.3	-41.5	12.2	1.65e-04	0	53	0	24117248	48	5144
2026-01-06 22:16:18.88	32.84	8.04	-38.5	-41.8	11.9	3.07e-04	0	53	0	27262976	48	5313
2026-01-06 22:16:19.89	32.94	8.10	-39.7	-43.1	11.2	2.96e-04	0	53	0	30408704	49	5843
2026-01-06 22:16:20.89	33.04	8.17	-40.6	-50.8	3.9	4.83e-01	2	53	104	33554432	51	12559
2026-01-06 22:16:21.90	33.14	8.23	-39.6	-42.8	11.7	1.66e-02	0	53	0	34603008	49	5634
2026-01-06 22:16:22.92	33.25	8.30	-40.7	-44.8	9.7	2.33e-03	0	53	0	37748736	51	6301
2026-01-06 22:16:23.93	33.35	8.36	-39.9	-43.9	10.2	1.65e-04	0	53	0	40894464	50	6060
2026-01-06 22:16:24.94	33.45	8.43	-39.0	-42.0	12.3	3.96e-04	0	53	0	44040192	50	4848
2026-01-06 22:16:25.95	33.55	8.49	-38.8	-41.6	12.7	7.09e-05	0	53	0	47185920	49	4913
2026-01-06 22:16:26.96	33.66	8.56	-38.7	-41.4	12.9	4.19e-05	0	53	0	50331648	49	4783
2026-01-06 22:16:27.97	33.76	8.62	-38.7	-41.3	13.0	4.11e-05	0	53	0	53477376	49	4759
2026-01-06 22:16:28.98	33.87	8.69	-38.6	-41.3	13.1	2.59e-05	0	53	0	56623104	49	4709
2026-01-06 22:16:29.99	33.97	8.76	-38.5	-41.0	13.4	1.83e-05	0	53	0	59768832	49	4580
2026-01-06 22:16:31.00	34.08	8.82	-38.6	-41.1	13.4	1.37e-05	0	53	0	62914560	49	4603
2026-01-06 22:16:32.01	34.18	8.89	-38.5	-40.9	13.5	1.22e-05	0	53	0	66060288	49	4543
2026-01-06 22:16:33.02	34.29	8.95	-38.5	-40.9	13.6	6.80e-06	0	53	0	69206016	49	4516
2026-01-06 22:16:34.03	34.40	9.02	-38.6	-41.1	13.4	1.90e-05	0	53	0	72351744	49	4622
2026-01-06 22:16:35.04	34.50	9.09	-38.5	-40.9	13.6	6.80e-06	0	53	0	75497472	48	4793
2026-01-06 22:16:36.05	34.61	9.15	-38.6	-41.0	13.5	9.10e-06	0	53	0	78643200	48	4867
2026-01-06 22:16:37.06	34.72	9.22	-38.5	-40.9	13.6	1.06e-05	0	53	0	81788928	48	4805
2026-01-06 22:16:38.07	34.83	9.29	-38.5	-40.8	13.8	3.00e-06	0	53	0	84934656	48	4744
2026-01-06 22:16:39.08	34.94	9.35	-38.4	-40.7	13.9	2.20e-06	0	53	0	88080384	48	4689
2026-01-06 22:16:40.09	35.05	9.42	-38.6	-40.9	13.7	5.30e-06	0	53	0	91226112	48	4791
2026-01-06 22:16:41.10	35.16	9.49	-38.4	-40.7	13.9	6.10e-06	0	53	0	94371840	48	4697
2026-01-06 22:16:42.11	35.27	9.55	-38.3	-40.6	14.1	7.00e-07	0	53	0	97517568	48	4614
2026-01-06 22:16:43.12	35.38	9.62	-38.4	-40.6	14.0	1.50e-06	0	53	0	100663296	48	4628
2026-01-06 22:16:44.13	35.49	9.69	-38.3	-40.6	14.1	2.20e-06	0	53	0	103809024	48	4601
2026-01-06 22:16:45.14	35.60	9.75	-38.3	-40.5	14.2	3.80e-06	0	53	0	106954752	48	4592
2026-01-06 22:16:46.15	35.72	9.82	-38.4	-40.6	14.1	1.50e-06	0	53	0	110100480	48	4638
2026-01-06 22:16:47.16	35.83	9.89	-38.3	-40.5	14.2	3.00e-06	0	53	0	113246208	48	4577
2026-01-06 22:16:48.17	35.94	9.96	-38.3	-40.5	14.3	0.00e+00	0	53	0	116391936	48	4580
2026-01-06 22:16:49.18	36.06	10.02	-38.2	-40.3	14.5	0.00e+00	0	53	0	119537664	48	4485
2026-01-06 22:16:50.19	36.17	10.09	-38.3	-40.4	14.4	7.00e-07	0	53	0	122683392	48	4510
2026-01-06 22:16:51.20	36.29	10.16	-38.2	-40.3	14.5	0.00e+00	0	54	0	125829120	48	4470
2026-01-06 22:16:52.21	36.40	10.23	-38.3	-40.4	14.5	1.50e-06	0	54	0	128974848	48	4516
2026-01-06 22:16:53.22	36.52	10.30	-38.2	-40.3	14.6	1.50e-06	0	53	0	132120576	48	4451
2026-01-06 22:16:54.23	36.64	10.36	-38.2	-40.3	14.6	0.00e+00	0	54	0	135266304	48	4459
2026-01-06 22:16:55.24	36.75	10.43	-38.1	-40.1	14.8	0.00e+00	0	54	0	138412032	48	4362
2026-01-06 22:16:56.25	36.87	10.50	-38.2	-40.3	14.7	0.00e+00	0	54	0	141557760	48	4452
2026-01-06 22:16:57.26	36.99	10.57	-38.2	-40.2	14.7	0.00e+00	0	54	0	144703488	48	4413
2026-01-06 22:16:58.26	37.11	10.64	-38.1	-40.1	14.9	0.00e+00	0	54	0	147849216	48	4349
2026-01-06 22:16:59.27	37.23	10.70	-38.1	-40.0	15.0	0.00e+00	0	54	0	150994944	48	4333
2026-01-06 22:17:00.28	37.35	10.77	-38.2	-40.2	14.8	0.00e+00	0	53	0	154140672	48	4407
2026-01-06 22:17:01.30	37.47	10.84	-38.1	-40.2	14.8	0.00e+00	0	54	0	157286400	48	4392
2026-01-06 22:17:02.30	37.59	10.91	-38.1	-40.1	15.0	0.00e+00	0	54	0	160432128	48	4343
2026-01-06 22:17:03.31	37.71	10.98	-38.1	-40.1	15.0	7.00e-07	0	54	0	163577856	48	4347
2026-01-06 22:17:04.32	37.83	11.05	-38.1	-40.0	15.0	0.00e+00	0	54	0	166723584	48	4323
2026-01-06 22:17:05.33	37.95	11.12	-38.0	-40.0	15.1	0.00e+00	0	54	0	169869312	48	4294
2026-01-06 22:17:06.34	38.08	11.19	-38.0	-40.0	15.1	0.00e+00	0	54	0	173015040	48	4303
2026-01-06 22:17:07.36	38.20	11.26	-37.9	-39.8	15.1	0.00e+00	0	54	0	176160768	47	4489
2026-01-06 22:17:08.37	38.33	11.32	-37.9	-39.8	15.2	0.00e+00	0	54	0	179306496	47	4457
2026-01-06 22:17:09.38	38.45	11.39	-37.9	-39.8	15.2	0.00e+00	0	54	0	182452224	47	4483
2026-01-06 22:17:10.39	38.58	11.46	-37.9	-39.8	15.3	0.00e+00	0	54	0	185597952	47	4451
2026-01-06 22:17:11.40	38.70	11.53	-37.9	-39.8	15.2	0.00e+00	0	54	0	188743680	47	4468
2026-01-06 22:17:12.41	38.83	11.60	-37.9	-39.8	15.3	0.00e+00	0	54	0	191889408	47	4471
2026-01-06 22:17:13.41	38.96	11.67	-37.9	-39.8	15.2	0.00e+00	0	54	0	195035136	47	4467
2026-01-06 22:17:14.42	39.08	11.74	-37.9	-39.8	15.3	0.00e+00	0	54	0	198180864	47	4455
2026-01-06 22:17:15.43	39.21	11.81	-37.9	-39.8	15.3	0.00e+00	0	54	0	201326592	47	4465
2026-01-06 22:17:16.44	39.34	11.88	-37.8	-39.7	15.4	0.00e+00	0	54	0	204472320	47	4404
2026-01-06 22:17:17.45	39.47	11.95	-37.9	-39.8	15.3	0.00e+00	0	54	0	207618048	47	4451
2026-01-06 22:17:18.46	39.60	12.02	-37.8	-39.7	15.4	0.00e+00	0	54	0	210763776	47	4403
2026-01-06 22:17:19.47	39.73	12.09	-37.7	-39.6	15.5	0.00e+00	0	54	0	213909504	47	4352
2026-01-06 22:17:20.48	39.86	12.16	-37.7	-39.5	15.6	0.00e+00	0	54	0	217055232	47	4335
2026-01-06 22:17:21.49	40.00	12.23	-37.6	-39.4	15.7	0.00e+00	0	54	0	220200960	47	4273
2026-01-06 22:17:22.50	40.13	12.30	-37.5	-39.3	15.8	0.00e+00	0	54	0	223346688	47	4220
2026-01-06 22:17:23.51	40.26	12.37	-37.5	-39.3	15.8	0.00e+00	0	54	0	227540992	47	4221
2026-01-06 22:17:24.52	40.39	12.44	-37.5	-39.2	15.9	0.00e+00	0	54	0	230686720	46	4441
2026-01-06 22:17:25.53	40.53	12.51	-37.4	-39.2	16.0	0.00e+00	0	54	0	233832448	46	4410
2026-01-06 22:17:26.54	40.66	12.58	-37.5	-39.2	15.9	0.00e+00	0	54	0	235929600	46	4433
2026-01-06 22:17:27.55	40.80	12.65	-37.4	-39.2	16.0	0.00e+00	0	54	0	239075328	46	4405
2026-01-06 22:17:28.56	40.94	12.72	-37.5	-39.3	15.9	0.00e+00	0	54	0	243269632	46	4452
2026-01-06 22:17:29.57	41.07	12.79	-37.6	-39.3	15.8	0.00e+00	0	54	0	246415360	46	4472
2026-01-06 22:17:30.58	41.21	12.86	-37.6	-39.4	15.8	0.00e+00	0	54	0	249561088	46	4495
2026-01-06 22:17:31.59	41.35	12.93	-37.7	-39.5	15.7	0.00e+00	0	54	0	252706816	46	4546
2026-01-06 22:17:32.60	41.49	13.01	-37.7	-39.5	15.7	0.00e+00	0	54	0	255852544	46	4597
2026-01-06 22:17:33.61	41.63	13.08	-37.7	-39.5	15.7	0.00e+00	0	54	0	258998272	46	4582
2026-01-06 22:17:34.62	41.77	13.15	-37.7	-39.5	15.7	0.00e+00	0	54	0	262144000	46	4581
2026-01-06 22:17:35.63	41.91	13.22	-37.7	-39.5	15.8	0.00e+00	0	55	0	265289728	46	4548
2026-01-06 22:17:36.64	42.05	13.29	-37.6	-39.4	15.8	0.00e+00	0	54	0	268435456	46	4522
2026-01-06 22:17:37.65	42.19	13.36	-37.7	-39.5	15.8	0.00e+00	0	54	0	271581184	46	4554
2026-01-06 22:17:38.66	42.33	13.43	-37.6	-39.4	15.9	0.00e+00	0	55	0	274726912	46	4495
2026-01-06 22:17:39.67	42.48	13.50	-37.6	-39.3	15.9	0.00e+00	0	54	0	277872640	46	4477
2026-01-06 22:17:40.68	42.62	13.57	-37.6	-39.3	15.9	0.00e+00	0	55	0	281018368	46	4479
2026-01-06 22:17:41.69	42.77	13.64	-37.6	-39.4	15.8	0.00e+00	0	54	0	284164096	46	4512
2026-01-06 22:17:42.70	42.91	13.72	-37.7	-39.4	15.8	0.00e+00	0	54	0	287309824	46	4532
2026-01-06 22:17:43.72	43.06	13.79	-37.7	-39.5	15.8	0.00e+00	0	54	0	290455552	46	4550
2026-01-06 22:17:44.73	43.21	13.86	-37.7	-39.5	15.7	0.00e+00	0	54	0	293601280	46	4588
2026-01-06 22:17:45.74	43.35	13.93	-37.7	-39.5	15.7	0.00e+00	0	54	0	296747008	46	4593
2026-01-06 22:17:46.75	43.50	14.00	-37.8	-39.6	15.7	0.00e+00	0	55	0	299892736	46	4615
2026-01-06 22:17:47.76	43.65	14.07	-37.8	-39.6	15.7	0.00e+00	0	54	0	303038464	46	4610
2026-01-06 22:17:48.77	43.80	14.15	-37.8	-39.6	15.7	0.00e+00	0	55	0	306184192	46	4618
2026-01-06 22:17:49.78	43.95	14.22	-37.7	-39.5	15.7	0.00e+00	0	55	0	309329920	46	4598
2026-01-06 22:17:50.79	44.10	14.29	-37.8	-39.6	15.7	0.00e+00	0	55	0	312475648	46	4611
2026-01-06 22:17:51.80	44.25	14.36	-37.7	-39.5	15.8	0.00e+00	0	55	0	315621376	46	4587
2026-01-06 22:17:52.81	44.41	14.43	-37.6	-39.4	15.9	0.00e+00	0	55	0	318767104	46	4513
2026-01-06 22:17:53.82	44.56	14.50	-37.6	-39.4	15.9	0.00e+00	0	55	0	321912832	46	4509
2026-01-06 22:17:54.83	44.71	14.58	-37.6	-39.3	16.0	0.00e+00	0	55	0	325058560	46	4454
2026-01-06 22:17:55.84	44.87	14.65	-37.5	-39.3	16.1	0.00e+00	0	54	0	328204288	46	4443
2026-01-06 22:17:56.85	45.02	14.72	-37.5	-39.2	16.1	0.00e+00	0	55	0	331350016	46	4409
2026-01-06 22:17:57.86	45.18	14.79	-37.5	-39.2	16.1	0.00e+00	0	55	0	334495744	46	4411
2026-01-06 22:17:58.87	45.34	14.86	-37.5	-39.2	16.1	0.00e+00	0	55	0	337641472	46	4402
2026-01-06 22:17:59.87	45.49	14.93	-37.5	-39.2	16.1	0.00e+00	0	55	0	340787200	46	4434
2026-01-06 22:18:00.88	45.65	15.01	-37.5	-39.2	16.1	0.00e+00	0	55	0	343932928	46	4439
2026-01-06 22:18:01.90	45.81	15.08	-37.6	-39.3	16.0	0.00e+00	0	55	0	347078656	46	4452
2026-01-06 22:18:02.91	45.97	15.15	-37.6	-39.4	16.0	0.00e+00	0	55	0	350224384	46	4497
2026-01-06 22:18:03.92	46.13	15.22	-37.6	-39.4	16.0	0.00e+00	0	55	0	353370112	46	4502
2026-01-06 22:18:04.93	46.29	15.29	-37.6	-39.4	16.0	0.00e+00	0	55	0	356515840	46	4502
2026-01-06 22:18:05.94	46.45	15.37	-37.6	-39.3	16.0	0.00e+00	0	55	0	359661568	46	4484
2026-01-06 22:18:06.95	46.62	15.44	-37.6	-39.4	16.0	0.00e+00	0	55	0	362807296	46	4513
2026-01-06 22:18:07.96	46.78	15.51	-37.6	-39.3	16.0	0.00e+00	0	55	0	365953024	46	4471
2026-01-06 22:18:08.97	46.94	15.58	-37.5	-39.2	16.1	0.00e+00	0	55	0	369098752	46	4430
2026-01-06 22:18:09.98	47.11	15.65	-37.6	-39.3	16.1	0.00e+00	0	55	0	372244480	46	4453
2026-01-06 22:18:10.99	47.27	15.73	-37.5	-39.3	16.1	0.00e+00	0	55	0	375390208	46	4448
2026-01-06 22:18:12.00	47.44	15.80	-37.5	-39.3	16.1	0.00e+00	0	55	0	378535936	46	4455
2026-01-06 22:18:13.01	47.61	15.87	-37.6	-39.3	16.1	0.00e+00	0	55	0	381681664	46	4474
2026-01-06 22:18:14.02	47.78	15.94	-37.6	-39.3	16.1	0.00e+00	0	55	0	384827392	46	4450
2026-01-06 22:18:15.03	47.95	16.01	-37.5	-39.2	16.2	0.00e+00	0	55	0	387973120	46	4435
2026-01-06 22:18:16.04	48.12	16.08	-37.5	-39.2	16.2	0.00e+00	0	55	0	391118848	46	4433
2026-01-06 22:18:17.05	48.29	16.16	-37.5	-39.2	16.2	0.00e+00	0	55	0	394264576	46	4393
2026-01-06 22:18:18.06	48.46	16.23	-37.4	-39.1	16.3	0.00e+00	0	55	0	397410304	46	4349
2026-01-06 22:18:19.07	48.63	16.30	-37.3	-39.0	16.4	0.00e+00	0	55	0	400556032	46	4320
2026-01-06 22:18:20.08	48.80	16.37	-37.3	-38.9	16.4	0.00e+00	0	55	0	403701760	46	4291
2026-01-06 22:18:21.09	48.98	16.44	-37.3	-39.0	16.4	0.00e+00	0	55	0	406847488	46	4320
2026-01-06 22:18:22.10	49.15	16.51	-37.3	-39.0	16.4	0.00e+00	0	55	0	409993216	46	4304
2026-01-06 22:18:23.12	49.33	16.59	-37.3	-38.9	16.5	0.00e+00	0	55	0	413138944	46	4289
2026-01-06 22:18:24.13	49.50	16.66	-37.3	-39.0	16.4	0.00e+00	0	55	0	416284672	46	4316
2026-01-06 22:18:25.14	49.68	16.73	-37.3	-39.0	16.4	0.00e+00	0	55	0	419430400	46	4310
2026-01-06 22:18:26.15	49.86	16.80	-37.3	-39.0	16.4	0.00e+00	0	55	0	422576128	46	4303
2026-01-06 22:18:27.16	50.04	16.87	-37.4	-39.0	16.4	0.00e+00	0	55	0	425721856	46	4319
2026-01-06 22:18:28.17	50.22	16.94	-37.3	-39.0	16.4	0.00e+00	0	55	0	428867584	46	4321
2026-01-06 22:18:29.17	50.39	17.01	-37.3	-38.9	16.5	0.00e+00	0	55	0	432013312	46	4271
2026-01-06 22:18:30.18	50.58	17.09	-37.3	-38.9	16.4	0.00e+00	0	55	0	435159040	46	4290
2026-01-06 22:18:31.19	50.76	17.16	-37.3	-39.0	16.4	0.00e+00	0	55	0	438304768	46	4302
2026-01-06 22:18:32.20	50.94	17.23	-37.3	-38.9	16.5	0.00e+00	0	55	0	441450496	46	4265
2026-01-06 22:18:33.21	51.12	17.30	-37.3	-39.0	16.4	0.00e+00	0	55	0	444596224	46	4296
2026-01-06 22:18:34.22	51.31	17.37	-37.3	-39.0	16.5	0.00e+00	0	55	0	447741952	46	4301
2026-01-06 22:18:35.23	51.49	17.44	-37.3	-38.9	16.5	0.00e+00	0	55	0	450887680	46	4268
2026-01-06 22:18:36.24	51.68	17.51	-37.4	-39.0	16.4	0.00e+00	0	55	0	454033408	46	4327
2026-01-06 22:18:37.25	51.87	17.58	-37.4	-39.0	16.4	0.00e+00	0	55	0	457179136	46	4338
2026-01-06 22:18:38.26	52.06	17.65	-37.3	-39.0	16.5	0.00e+00	0	55	0	460324864	46	4297
2026-01-06 22:18:39.27	52.24	17.72	-37.4	-39.0	16.4	0.00e+00	0	55	0	463470592	46	4320
2026-01-06 22:18:40.28	52.43	17.79	-37.4	-39.0	16.4	0.00e+00	0	55	0	466616320	46	4314
2026-01-06 22:18:41.29	52.62	17.86	-37.3	-39.0	16.5	0.00e+00	0	55	0	469762048	46	4298
2026-01-06 22:18:42.30	52.82	17.93	-37.4	-39.0	16.4	0.00e+00	0	55	0	472907776	46	4320
2026-01-06 22:18:43.31	53.01	18.00	-37.3	-39.0	16.4	0.00e+00	0	55	0	476053504	46	4307
2026-01-06 22:18:44.32	53.20	18.07	-37.4	-39.0	16.4	0.00e+00	0	55	0	479199232	46	4327
2026-01-06 22:18:45.33	53.39	18.14	-37.4	-39.1	16.4	0.00e+00	0	55	0	482344960	46	4376
2026-01-06 22:18:46.34	53.59	18.21	-37.4	-39.1	16.3	0.00e+00	0	55	0	485490688	46	4375
2026-01-06 22:18:47.35	53.79	18.28	-37.4	-39.1	16.4	0.00e+00	0	55	0	488636416	46	4355
2026-01-06 22:18:48.36	53.98	18.35	-37.4	-39.1	16.4	0.00e+00	0	55	0	491782144	46	4370
2026-01-06 22:18:49.37	54.18	18.42	-37.4	-39.0	16.5	0.00e+00	0	55	0	494927872	46	4328
2026-01-06 22:18:50.38	54.38	18.49	-37.4	-39.0	16.5	0.00e+00	0	55	0	498073600	46	4315
2026-01-06 22:18:51.39	54.58	18.56	-37.3	-38.9	16.6	0.00e+00	0	55	0	501219328	46	4290
2026-01-06 22:18:52.40	54.78	18.63	-37.3	-38.9	16.6	0.00e+00	0	55	0	504365056	46	4269
2026-01-06 22:18:53.41	54.98	18.70	-37.2	-38.8	16.7	0.00e+00	0	55	0	507510784	46	4222
2026-01-06 22:18:54.42	55.18	18.77	-37.3	-38.9	16.6	0.00e+00	0	55	0	510656512	46	4279
2026-01-06 22:18:55.43	55.38	18.84	-37.3	-38.9	16.5	0.00e+00	0	55	0	513802240	46	4289
2026-01-06 22:18:56.44	55.59	18.91	-37.4	-39.0	16.5	0.00e+00	0	55	0	516947968	46	4323
2026-01-06 22:18:57.45	55.79	18.97	-37.4	-39.1	16.4	0.00e+00	0	55	0	520093696	46	4365
2026-01-06 22:18:58.46	56.00	19.04	-37.5	-39.2	16.3	0.00e+00	0	55	0	524288000	46	4407
2026-01-06 22:18:59.47	56.20	19.11	-37.5	-39.2	16.3	0.00e+00	0	55	0	527433728	46	4419
2026-01-06 22:19:00.48	56.41	19.18	-37.6	-39.3	16.2	0.00e+00	0	55	0	529530880	46	4449
2026-01-06 22:19:01.49	56.62	19.24	-37.6	-39.3	16.2	0.00e+00	0	55	0	532676608	46	4464
2026-01-06 22:19:02.50	56.83	19.31	-37.6	-39.3	16.2	0.00e+00	0	55	0	535822336	46	4470
2026-01-06 22:19:03.51	57.04	19.38	-37.6	-39.3	16.2	0.00e+00	0	55	0	540016640	46	4456
2026-01-06 22:19:04.52	57.25	19.45	-37.6	-39.3	16.2	0.00e+00	0	55	0	543162368	46	4451
2026-01-06 22:19:05.53	57.46	19.51	-37.5	-39.2	16.3	0.00e+00	0	55	0	546308096	46	4434
2026-01-06 22:19:06.54	57.67	19.58	-37.5	-39.2	16.4	0.00e+00	0	55	0	549453824	46	4405
2026-01-06 22:19:07.55	57.89	19.65	-37.4	-39.1	16.4	0.00e+00	0	56	0	551550976	46	4363
2026-01-06 22:19:08.56	58.10	19.71	-37.4	-39.1	16.4	0.00e+00	0	55	0	555745280	46	4362
2026-01-06 22:19:09.57	58.32	19.78	-37.5	-39.2	16.3	0.00e+00	0	56	0	558891008	46	4425
2026-01-06 22:19:10.58	58.53	19.84	-37.5	-39.2	16.3	0.00e+00	0	55	0	562036736	46	4417
2026-01-06 22:19:11.59	58.75	19.91	-37.6	-39.3	16.2	0.00e+00	0	55	0	565182464	46	4474
2026-01-06 22:19:12.60	58.97	19.97	-37.6	-39.4	16.2	0.00e+00	0	55	0	568328192	46	4494
2026-01-06 22:19:13.61	59.19	20.04	-37.6	-39.4	16.1	0.00e+00	0	55	0	571473920	46	4498
2026-01-06 22:19:14.63	59.41	20.10	-37.6	-39.3	16.2	0.00e+00	0	55	0	574619648	46	4482
2026-01-06 22:19:15.64	59.63	20.17	-37.6	-39.3	16.2	0.00e+00	0	55	0	577765376	46	4459
2026-01-06 22:19:16.65	59.85	20.23	-37.5	-39.2	16.3	0.00e+00	0	56	0	580911104	46	4406
2026-01-06 22:19:17.66	60.07	20.30	-37.4	-39.1	16.4	0.00e+00	0	55	0	584056832	46	4358
2026-01-06 22:19:18.67	60.30	20.36	-37.3	-39.0	16.5	0.00e+00	0	55	0	587202560	46	4304
2026-01-06 22:19:19.68	60.52	20.43	-37.2	-38.9	16.7	0.00e+00	0	55	0	590348288	46	4245
2026-01-06 22:19:20.69	60.75	20.49	-37.2	-38.8	16.7	0.00e+00	0	56	0	593494016	46	4239
2026-01-06 22:19:21.70	60.97	20.55	-37.3	-38.9	16.6	0.00e+00	0	55	0	596639744	46	4270
2026-01-06 22:19:22.71	61.20	20.61	-37.3	-38.9	16.6	0.00e+00	0	55	0	599785472	46	4258
2026-01-06 22:19:23.72	61.43	20.68	-37.4	-39.0	16.5	0.00e+00	0	56	0	602931200	46	4326
2026-01-06 22:19:24.73	61.66	20.74	-37.4	-39.1	16.4	0.00e+00	0	56	0	606076928	46	4353
2026-01-06 22:19:25.74	61.89	20.80	-37.4	-39.1	16.4	0.00e+00	0	56	0	609222656	46	4351
2026-01-06 22:19:26.75	62.12	20.86	-37.5	-39.1	16.3	0.00e+00	0	55	0	612368384	46	4389
2026-01-06 22:19:27.76	62.35	20.92	-37.4	-39.0	16.5	0.00e+00	0	56	0	615514112	46	4332
2026-01-06 22:19:28.77	62.59	20.98	-37.3	-38.9	16.6	0.00e+00	0	55	0	618659840	46	4280
2026-01-06 22:19:29.78	62.82	21.04	-37.3	-38.9	16.6	0.00e+00	0	56	0	621805568	46	4261
2026-01-06 22:19:30.79	63.05	21.10	-37.2	-38.8	16.7	0.00e+00	0	55	0	624951296	46	4206
2026-01-06 22:19:31.80	63.29	21.16	-37.1	-38.7	16.8	0.00e+00	0	56	0	628097024	46	4169
2026-01-06 22:19:32.82	63.53	21.22	-37.2	-38.8	16.8	0.00e+00	0	56	0	631242752	46	4198
2026-01-06 22:19:33.83	63.76	21.28	-37.2	-38.8	16.7	0.00e+00	0	56	0	634388480	46	4195
2026-01-06 22:19:34.84	64.00	21.34	-37.1	-38.7	16.8	0.00e+00	0	56	0	637534208	46	4179
2026-01-06 22:19:35.84	64.24	21.40	-37.2	-38.8	16.8	0.00e+00	0	56	0	640679936	46	4197
2026-01-06 22:19:36.86	64.48	21.46	-37.1	-38.7	16.8	0.00e+00	0	56	0	643825664	46	4170
2026-01-06 22:19:37.86	64.72	21.52	-37.1	-38.7	16.8	0.00e+00	0	56	0	646971392	46	4167
2026-01-06 22:19:38.87	64.96	21.57	-37.1	-38.7	16.8	0.00e+00	0	56	0	650117120	46	4149
2026-01-06 22:19:39.88	65.20	21.63	-37.0	-38.5	16.9	0.00e+00	0	56	0	653262848	46	4094
2026-01-06 22:19:40.89	65.45	21.69	-36.9	-38.4	17.0	0.00e+00	0	56	0	656408576	45	4286
2026-01-06 22:19:41.90	65.69	21.74	-36.9	-38.4	17.1	0.00e+00	0	55	0	659554304	45	4258
2026-01-06 22:19:42.92	65.94	21.80	-36.9	-38.5	17.0	0.00e+00	0	55	0	662700032	45	4298
2026-01-06 22:19:43.93	66.19	21.85	-36.9	-38.5	17.0	0.00e+00	0	56	0	665845760	45	4292
2026-01-06 22:19:44.94	66.43	21.91	-37.0	-38.5	16.9	0.00e+00	0	56	0	668991488	45	4322
2026-01-06 22:19:45.95	66.68	21.96	-37.0	-38.6	16.9	0.00e+00	0	55	0	672137216	45	4361
2026-01-06 22:19:46.96	66.93	22.02	-37.1	-38.6	16.8	0.00e+00	0	56	0	675282944	45	4384
2026-01-06 22:19:47.97	67.18	22.07	-37.1	-38.6	16.8	0.00e+00	0	55	0	678428672	45	4382
2026-01-06 22:19:48.98	67.43	22.12	-37.0	-38.5	16.9	0.00e+00	0	56	0	681574400	45	4336
2026-01-06 22:19:49.99	67.68	22.18	-36.9	-38.5	17.0	0.00e+00	0	56	0	684720128	45	4295
2026-01-06 22:19:51.00	67.93	22.23	-36.9	-38.4	17.0	0.00e+00	0	56	0	687865856	45	4264
2026-01-06 22:19:52.01	68.19	22.28	-36.8	-38.3	17.1	0.00e+00	0	56	0	691011584	45	4220
2026-01-06 22:19:53.01	68.44	22.33	-36.9	-38.4	17.0	0.00e+00	0	56	0	694157312	45	4259
2026-01-06 22:19:54.02	68.69	22.38	-37.0	-38.5	16.8	0.00e+00	0	56	0	697303040	45	4337
2026-01-06 22:19:55.03	68.95	22.43	-37.1	-38.7	16.7	0.00e+00	0	56	0	700448768	45	4421
2026-01-06 22:19:56.04	69.20	22.48	-37.3	-38.9	16.5	0.00e+00	0	56	0	703594496	45	4540
2026-01-06 22:19:57.05	69.46	22.53	-37.3	-38.9	16.5	0.00e+00	0	56	0	706740224	45	4520
2026-01-06 22:19:58.06	69.72	22.58	-37.2	-38.8	16.6	0.00e+00	0	56	0	709885952	45	4468
2026-01-06 22:19:59.07	69.98	22.63	-37.0	-38.6	16.7	0.00e+00	0	56	0	713031680	45	4383
2026-01-06 22:20:00.08	70.23	22.68	-37.0	-38.6	16.7	0.00e+00	0	56	0	716177408	45	4364
2026-01-06 22:20:01.09	70.49	22.73	-36.9	-38.5	16.8	0.00e+00	0	56	0	719323136	45	4295
2026-01-06 22:20:02.10	70.76	22.77	-37.0	-38.6	16.7	0.00e+00	0	56	0	722468864	45	4347
2026-01-06 22:20:03.11	71.02	22.82	-37.1	-38.7	16.6	0.00e+00	0	56	0	725614592	45	4417
2026-01-06 22:20:04.12	71.28	22.87	-37.1	-38.8	16.5	0.00e+00	0	56	0	728760320	45	4447
2026-01-06 22:20:05.13	71.54	22.91	-37.2	-38.9	16.4	0.00e+00	0	56	0	731906048	45	4504
2026-01-06 22:20:06.14	71.81	22.96	-37.2	-38.9	16.4	0.00e+00	0	56	0	735051776	45	4506
2026-01-06 22:20:07.15	72.07	23.00	-37.1	-38.8	16.4	0.00e+00	0	56	0	738197504	45	4465
2026-01-06 22:20:08.16	72.34	23.04	-37.0	-38.6	16.6	0.00e+00	0	56	0	741343232	45	4370
2026-01-06 22:20:09.17	72.60	23.09	-37.0	-38.6	16.6	0.00e+00	0	56	0	744488960	45	4351
2026-01-06 22:20:10.19	72.87	23.13	-36.9	-38.5	16.8	0.00e+00	0	56	0	747634688	45	4307
2026-01-06 22:20:11.20	73.14	23.17	-36.9	-38.5	16.8	0.00e+00	0	56	0	750780416	45	4305
2026-01-06 22:20:12.21	73.41	23.22	-37.0	-38.6	16.6	0.00e+00	0	56	0	753926144	45	4363
2026-01-06 22:20:13.22	73.68	23.26	-37.1	-38.7	16.5	0.00e+00	0	56	0	757071872	45	4413
2026-01-06 22:20:14.23	73.95	23.30	-37.0	-38.7	16.6	0.00e+00	0	56	0	760217600	45	4402
2026-01-06 22:20:15.24	74.22	23.34	-37.1	-38.7	16.6	0.00e+00	0	56	0	763363328	45	4408
2026-01-06 22:20:16.25	74.49	23.38	-37.1	-38.7	16.5	0.00e+00	0	56	0	766509056	45	4418
2026-01-06 22:20:17.26	74.76	23.41	-37.0	-38.6	16.7	0.00e+00	0	56	0	769654784	45	4374
2026-01-06 22:20:18.27	75.03	23.45	-37.0	-38.5	16.7	0.00e+00	0	56	0	772800512	45	4338
2026-01-06 22:20:19.28	75.31	23.49	-36.9	-38.5	16.8	0.00e+00	0	56	0	775946240	45	4322
2026-01-06 22:20:20.29	75.58	23.53	-37.0	-38.6	16.7	0.00e+00	0	56	0	779091968	45	4349
2026-01-06 22:20:21.30	75.86	23.56	-36.9	-38.5	16.8	0.00e+00	0	56	0	782237696	45	4324
2026-01-06 22:20:22.31	76.13	23.60	-37.0	-38.6	16.8	0.00e+00	0	56	0	785383424	45	4357
2026-01-06 22:20:23.32	76.41	23.63	-36.7	-38.2	17.0	0.00e+00	0	56	0	788529152	45	4190
2026-01-06 22:20:24.33	76.68	23.67	-36.6	-38.1	17.1	0.00e+00	0	56	0	791674880	45	4145
2026-01-06 22:20:25.34	76.96	23.70	-36.7	-38.2	17.1	0.00e+00	0	56	0	794820608	45	4175
2026-01-06 22:20:26.35	77.24	23.73	-36.8	-38.4	17.0	0.00e+00	0	56	0	797966336	45	4265
2026-01-06 22:20:27.36	77.51	23.77	-36.8	-38.3	17.0	0.00e+00	0	56	0	801112064	45	4242
2026-01-06 22:20:28.37	77.79	23.80	-36.8	-38.3	17.0	0.00e+00	0	56	0	804257792	45	4238
2026-01-06 22:20:29.38	78.07	23.83	-36.8	-38.4	17.0	0.00e+00	0	56	0	807403520	45	4260
2026-01-06 22:20:30.39	78.35	23.86	-36.9	-38.4	17.0	0.00e+00	0	56	0	810549248	45	4276
2026-01-06 22:20:31.40	78.63	23.89	-36.8	-38.3	17.1	0.00e+00	0	56	0	813694976	45	4208
2026-01-06 22:20:32.41	78.91	23.92	-36.7	-38.2	17.1	0.00e+00	0	56	0	816840704	45	4179
2026-01-06 22:20:33.41	79.19	23.95	-36.7	-38.2	17.2	0.00e+00	0	56	0	821035008	45	4167
2026-01-06 22:20:34.42	79.47	23.98	-36.7	-38.2	17.2	0.00e+00	0	56	0	823132160	45	4165
2026-01-06 22:20:35.43	79.76	24.00	-36.6	-38.1	17.3	0.00e+00	0	56	0	826277888	45	4125
2026-01-06 22:20:36.44	80.04	24.03	-36.6	-38.1	17.3	0.00e+00	0	56	0	829423616	45	4129
2026-01-06 22:20:37.45	80.32	24.05	-36.6	-38.1	17.3	0.00e+00	0	56	0	832569344	45	4111
2026-01-06 22:20:38.46	80.60	24.08	-36.6	-38.1	17.3	0.00e+00	0	56	0	836763648	45	4112
2026-01-06 22:20:39.47	80.89	24.10	-36.6	-38.0	17.4	0.00e+00	0	56	0	839909376	45	4095
2026-01-06 22:20:40.48	81.17	24.13	-36.6	-38.1	17.3	0.00e+00	0	56	0	843055104	45	4134
2026-01-06 22:20:41.49	81.46	24.15	-36.7	-38.2	17.3	0.00e+00	0	56	0	845152256	45	4158
2026-01-06 22:20:42.50	81.74	24.17	-36.7	-38.2	17.2	0.00e+00	0	56	0	848297984	45	4157
2026-01-06 22:20:43.51	82.03	24.19	-36.7	-38.2	17.2	0.00e+00	0	56	0	852492288	45	4184
2026-01-06 22:20:44.52	82.32	24.21	-36.8	-38.3	17.1	0.00e+00	0	56	0	855638016	45	4216
2026-01-06 22:20:45.53	82.60	24.23	-36.8	-38.3	17.2	0.00e+00	0	56	0	858783744	45	4204
2026-01-06 22:20:46.54	82.89	24.25	-36.7	-38.2	17.2	0.00e+00	0	56	0	861929472	45	4176
2026-01-06 22:20:47.55	83.18	24.27	-36.8	-38.3	17.1	0.00e+00	0	56	0	865075200	45	4207
2026-01-06 22:20:48.56	83.46	24.29	-36.9	-38.5	16.9	0.00e+00	0	56	0	868220928	45	4297
2026-01-06 22:20:49.57	83.75	24.31	-37.0	-38.6	16.8	0.00e+00	0	56	0	871366656	45	4385
2026-01-06 22:20:50.58	84.04	24.32	-37.0	-38.6	16.8	0.00e+00	0	56	0	874512384	45	4360
2026-01-06 22:20:51.59	84.33	24.34	-37.0	-38.6	16.8	0.00e+00	0	56	0	877658112	45	4362
2026-01-06 22:20:52.60	84.62	24.35	-37.0	-38.6	16.9	0.00e+00	0	56	0	880803840	45	4345
2026-01-06 22:20:53.61	84.91	24.37	-37.0	-38.5	16.9	0.00e+00	0	56	0	883949568	45	4332
2026-01-06 22:20:54.62	85.20	24.38	-37.0	-38.7	16.7	0.00e+00	0	56	0	887095296	45	4402
2026-01-06 22:20:55.63	85.48	24.39	-37.2	-38.8	16.6	0.00e+00	0	56	0	890241024	45	4454
2026-01-06 22:20:56.64	85.77	24.41	-37.2	-38.8	16.6	0.00e+00	0	56	0	893386752	45	4456
2026-01-06 22:20:57.65	86.06	24.42	-37.0	-38.5	16.8	0.00e+00	0	56	0	896532480	45	4340
2026-01-06 22:20:58.66	86.35	24.43	-36.9	-38.5	17.0	0.00e+00	0	56	0	899678208	45	4292
2026-01-06 22:20:59.67	86.64	24.44	-36.8	-38.3	17.2	0.00e+00	0	56	0	902823936	45	4199
2026-01-06 22:21:00.68	86.94	24.45	-36.7	-38.2	17.2	0.00e+00	0	56	0	905969664	45	4157
2026-01-06 22:21:01.69	87.23	24.46	-36.6	-38.1	17.3	0.00e+00	0	56	0	909115392	45	4132
2026-01-06 22:21:02.70	87.52	24.46	-36.8	-38.3	17.1	0.00e+00	0	56	0	912261120	45	4225
2026-01-06 22:21:03.71	87.81	24.47	-36.9	-38.5	17.0	0.00e+00	0	56	0	915406848	45	4295
2026-01-06 22:21:04.72	88.10	24.47	-36.9	-38.5	17.0	0.00e+00	0	56	0	918552576	45	4311
2026-01-06 22:21:05.73	88.39	24.48	-36.9	-38.4	17.0	0.00e+00	0	56	0	921698304	45	4290
2026-01-06 22:21:06.75	88.68	24.48	-36.8	-38.3	17.1	0.00e+00	0	56	0	924844032	45	4232
2026-01-06 22:21:07.76	88.98	24.49	-36.9	-38.4	17.1	0.00e+00	0	56	0	927989760	45	4260
2026-01-06 22:21:08.76	89.26	24.49	-36.9	-38.5	17.0	0.00e+00	0	56	0	931135488	45	4293
2026-01-06 22:21:09.78	89.56	24.49	-36.9	-38.5	17.0	0.00e+00	0	56	0	934281216	45	4295
2026-01-06 22:21:10.79	89.85	24.49	-36.9	-38.4	17.1	0.00e+00	0	56	0	937426944	45	4249
2026-01-06 22:21:11.79	90.14	24.49	-36.9	-38.5	17.0	0.00e+00	0	56	0	940572672	45	4300
2026-01-06 22:21:12.80	90.43	24.49	-36.9	-38.5	17.0	0.00e+00	0	56	0	943718400	45	4316
2026-01-06 22:21:13.82	90.73	24.49	-36.8	-38.3	17.2	0.00e+00	0	56	0	946864128	45	4235
2026-01-06 22:21:14.83	91.02	24.49	-36.8	-38.4	17.1	0.00e+00	0	56	0	950009856	45	4248
2026-01-06 22:21:15.84	91.31	24.49	-36.8	-38.3	17.2	0.00e+00	0	56	0	953155584	45	4241
2026-01-06 22:21:16.85	91.60	24.49	-36.8	-38.3	17.2	0.00e+00	0	56	0	956301312	45	4221
2026-01-06 22:21:17.86	91.89	24.48	-36.7	-38.2	17.3	0.00e+00	0	56	0	959447040	45	4191
2026-01-06 22:21:18.87	92.18	24.48	-36.7	-38.2	17.3	0.00e+00	0	56	0	962592768	45	4165
2026-01-06 22:21:19.88	92.47	24.47	-36.8	-38.3	17.3	0.00e+00	0	56	0	965738496	45	4204
2026-01-06 22:21:20.89	92.77	24.46	-36.6	-38.1	17.4	0.00e+00	0	56	0	968884224	45	4138
2026-01-06 22:21:21.90	93.06	24.46	-36.6	-38.1	17.4	0.00e+00	0	56	0	972029952	45	4133
2026-01-06 22:21:22.91	93.35	24.45	-36.6	-38.1	17.4	0.00e+00	0	56	0	975175680	45	4128
2026-01-06 22:21:23.92	93.64	24.44	-36.6	-38.1	17.4	0.00e+00	0	56	0	978321408	45	4126
2026-01-06 22:21:24.93	93.93	24.43	-36.6	-38.1	17.5	0.00e+00	0	56	0	981467136	45	4118
2026-01-06 22:21:25.94	94.22	24.42	-36.6	-38.1	17.5	0.00e+00	0	56	0	984612864	45	4107
2026-01-06 22:21:26.95	94.51	24.41	-36.7	-38.1	17.4	0.00e+00	0	56	0	987758592	45	4131
2026-01-06 22:21:27.96	94.80	24.40	-36.7	-38.1	17.4	0.00e+00	0	56	0	990904320	45	4144
2026-01-06 22:21:28.98	95.09	24.39	-36.8	-38.3	17.3	0.00e+00	0	56	0	994050048	45	4197
2026-01-06 22:21:29.99	95.38	24.37	-36.8	-38.2	17.3	0.00e+00	0	56	0	997195776	45	4188
2026-01-06 22:21:31.00	95.67	24.36	-36.7	-38.1	17.4	0.00e+00	0	56	0	1000341504	45	4142
2026-01-06 22:21:32.01	95.96	24.34	-36.5	-38.0	17.6	0.00e+00	0	56	0	1003487232	45	4063
2026-01-06 22:21:33.02	96.25	24.33	-36.4	-37.8	17.7	0.00e+00	0	56	0	1006632960	44	4242
2026-01-06 22:21:34.03	96.54	24.31	-36.4	-37.8	17.7	0.00e+00	0	56	0	1009778688	44	4215
2026-01-06 22:21:35.04	96.83	24.30	-36.4	-37.8	17.7	0.00e+00	0	56	0	1012924416	44	4242
2026-01-06 22:21:36.05	97.11	24.28	-36.5	-37.9	17.6	0.00e+00	0	56	0	1016070144	44	4281
2026-01-06 22:21:37.06	97.40	24.26	-36.5	-37.9	17.6	0.00e+00	0	56	0	1019215872	44	4289
2026-01-06 22:21:38.07	97.69	24.24	-36.5	-37.9	17.7	0.00e+00	0	56	0	1022361600	44	4254
2026-01-06 22:21:39.08	97.98	24.22	-36.5	-37.9	17.6	0.00e+00	0	56	0	1025507328	44	4273
2026-01-06 22:21:40.09	98.26	24.20	-36.5	-38.0	17.6	0.00e+00	0	56	0	1028653056	44	4306
2026-01-06 22:21:41.10	98.55	24.18	-36.5	-38.0	17.6	0.00e+00	0	56	0	1031798784	44	4307
2026-01-06 22:21:42.11	98.84	24.16	-36.6	-38.0	17.5	0.00e+00	0	56	0	1034944512	44	4337
2026-01-06 22:21:43.12	99.12	24.13	-36.7	-38.2	17.4	0.00e+00	0	56	0	1038090240	44	4415
2026-01-06 22:21:44.13	99.41	24.11	-36.8	-38.3	17.3	0.00e+00	0	56	0	1041235968	44	4469
2026-01-06 22:21:45.14	99.69	24.09	-36.8	-38.3	17.3	0.00e+00	0	56	0	1044381696	44	4479
2026-01-06 22:21:46.15	99.97	24.06	-36.8	-38.3	17.3	0.00e+00	0	56	0	1047527424	44	4471
2026-01-06 22:21:47.16	100.26	24.04	-36.7	-38.2	17.4	0.00e+00	0	56	0	1050673152	44	4413
2026-01-06 22:21:48.17	100.54	24.01	-36.7	-38.2	17.4	0.00e+00	0	56	0	1053818880	44	4402
2026-01-06 22:21:49.18	100.83	23.98	-36.8	-38.2	17.3	0.00e+00	0	56	0	1056964608	44	4436
2026-01-06 22:21:50.19	101.11	23.96	-36.8	-38.3	17.3	0.00e+00	0	56	0	1060110336	44	4464
2026-01-06 22:21:51.20	101.39	23.93	-36.8	-38.3	17.2	0.00e+00	0	56	0	1063256064	44	4479
2026-01-06 22:21:52.21	101.67	23.90	-36.9	-38.4	17.2	0.00e+00	0	56	0	1066401792	44	4519
2026-01-06 22:21:53.22	101.95	23.87	-36.9	-38.4	17.2	0.00e+00	0	56	0	1069547520	44	4537
2026-01-06 22:21:54.23	102.23	23.84	-36.8	-38.3	17.3	0.00e+00	0	56	0	1072693248	44	4473
2026-01-06 22:21:55.24	102.51	23.81	-36.8	-38.3	17.3	0.00e+00	0	56	0	1075838976	44	4460
2026-01-06 22:21:56.25	102.79	23.78	-36.8	-38.3	17.3	0.00e+00	0	56	0	1078984704	44	4455
2026-01-06 22:21:57.26	103.07	23.74	-36.7	-38.2	17.3	0.00e+00	0	56	0	1082130432	44	4428
2026-01-06 22:21:58.27	103.35	23.71	-36.8	-38.2	17.4	0.00e+00	0	56	0	1085276160	44	4436
2026-01-06 22:21:59.28	103.63	23.68	-36.6	-38.1	17.5	0.00e+00	0	56	0	1088421888	44	4375
2026-01-06 22:22:00.29	103.90	23.64	-36.6	-38.1	17.5	0.00e+00	0	56	0	1091567616	44	4372
2026-01-06 22:22:01.30	104.18	23.61	-36.7	-38.1	17.4	0.00e+00	0	56	0	1094713344	44	4387
2026-01-06 22:22:02.31	104.46	23.57	-36.8	-38.3	17.3	0.00e+00	0	56	0	1097859072	44	4472
2026-01-06 22:22:03.31	104.73	23.54	-36.9	-38.4	17.2	0.00e+00	0	56	0	1101004800	44	4514
2026-01-06 22:22:04.32	105.00	23.50	-36.9	-38.4	17.1	0.00e+00	0	56	0	1104150528	44	4538
2026-01-06 22:22:05.33	105.28	23.46	-36.9	-38.4	17.2	0.00e+00	0	56	0	1107296256	44	4529
2026-01-06 22:22:06.34	105.55	23.42	-36.9	-38.5	17.1	0.00e+00	0	56	0	1110441984	44	4549
2026-01-06 22:22:07.35	105.82	23.39	-37.0	-38.5	17.1	0.00e+00	0	56	0	1113587712	44	4561
2026-01-06 22:22:08.36	106.10	23.35	-36.8	-38.3	17.3	0.00e+00	0	56	0	1116733440	44	4486
2026-01-06 22:22:09.37	106.37	23.31	-36.9	-38.4	17.3	0.00e+00	0	56	0	1119879168	44	4497
2026-01-06 22:22:10.38	106.64	23.27	-36.9	-38.4	17.2	0.00e+00	0	56	0	1123024896	44	4526
2026-01-06 22:22:11.39	106.91	23.22	-36.9	-38.4	17.2	0.00e+00	0	56	0	1126170624	44	4536
2026-01-06 22:22:12.40	107.18	23.18	-36.9	-38.5	17.1	0.00e+00	0	56	0	1129316352	44	4549
2026-01-06 22:22:13.41	107.45	23.14	-36.9	-38.4	17.2	0.00e+00	0	56	0	1133510656	44	4538
2026-01-06 22:22:14.42	107.71	23.10	-37.0	-38.5	17.1	0.00e+00	0	56	0	1136656384	44	4557
2026-01-06 22:22:15.43	107.98	23.06	-37.0	-38.5	17.1	0.00e+00	0	56	0	1138753536	44	4561
2026-01-06 22:22:16.44	108.25	23.01	-37.0	-38.5	17.0	0.00e+00	0	56	0	1141899264	44	4598
2026-01-06 22:22:17.45	108.51	22.97	-37.0	-38.6	17.0	0.00e+00	0	56	0	1145044992	44	4613
2026-01-06 22:22:18.46	108.78	22.92	-37.0	-38.5	17.1	0.00e+00	0	56	0	1149239296	44	4578
2026-01-06 22:22:19.47	109.04	22.88	-37.0	-38.6	17.0	0.00e+00	0	56	0	1152385024	44	4620
2026-01-06 22:22:20.48	109.31	22.83	-37.1	-38.6	16.9	0.00e+00	0	56	0	1155530752	44	4650
2026-01-06 22:22:21.49	109.57	22.78	-37.1	-38.6	17.0	0.00e+00	0	56	0	1158676480	44	4651
2026-01-06 22:22:22.50	109.83	22.74	-37.1	-38.6	17.0	0.00e+00	0	56	0	1160773632	44	4645
2026-01-06 22:22:23.51	110.09	22.69	-37.2	-38.7	16.9	0.00e+00	0	56	0	1164967936	44	4682
2026-01-06 22:22:24.52	110.35	22.64	-37.3	-38.9	16.7	0.00e+00	0	56	0	1168113664	45	4497
2026-01-06 22:22:25.53	110.61	22.59	-37.3	-38.9	16.7	0.00e+00	0	56	0	1171259392	45	4499
2026-01-06 22:22:26.54	110.87	22.54	-37.2	-38.8	16.8	0.00e+00	0	56	0	1174405120	45	4463
2026-01-06 22:22:27.55	111.13	22.49	-37.1	-38.7	16.9	0.00e+00	0	56	0	1177550848	45	4412
2026-01-06 22:22:28.56	111.39	22.44	-37.1	-38.7	16.9	0.00e+00	0	56	0	1180696576	45	4396
2026-01-06 22:22:29.57	111.64	22.39	-37.0	-38.5	17.0	0.00e+00	0	56	0	1183842304	45	4330
2026-01-06 22:22:30.58	111.90	22.34	-37.1	-38.6	17.0	0.00e+00	0	56	0	1186988032	45	4369
2026-01-06 22:22:31.59	112.15	22.29	-37.1	-38.6	17.0	0.00e+00	0	56	0	1190133760	45	4364
2026-01-06 22:22:32.60	112.41	22.24	-37.1	-38.7	16.9	0.00e+00	0	56	0	1193279488	45	4393
2026-01-06 22:22:33.61	112.66	22.18	-37.1	-38.7	16.9	0.00e+00	0	56	0	1196425216	45	4409
2026-01-06 22:22:34.62	112.91	22.13	-37.2	-38.7	16.9	0.00e+00	0	56	0	1199570944	45	4420
2026-01-06 22:22:35.63	113.17	22.08	-37.1	-38.7	16.9	0.00e+00	0	57	0	1202716672	45	4416
2026-01-06 22:22:36.64	113.42	22.02	-37.0	-38.6	17.0	0.00e+00	0	56	0	1205862400	45	4355
2026-01-06 22:22:37.65	113.67	21.97	-37.0	-38.6	17.0	0.00e+00	0	56	0	1209008128	45	4362
2026-01-06 22:22:38.66	113.91	21.92	-37.1	-38.6	16.9	0.00e+00	0	56	0	1212153856	45	4371
2026-01-06 22:22:39.68	114.17	21.86	-37.0	-38.5	17.0	0.00e+00	0	57	0	1215299584	45	4337
2026-01-06 22:22:40.69	114.41	21.80	-37.0	-38.5	17.0	0.00e+00	0	56	0	1218445312	45	4339
2026-01-06 22:22:41.70	114.66	21.75	-37.0	-38.6	17.0	0.00e+00	0	56	0	1221591040	45	4358
2026-01-06 22:22:42.71	114.90	21.69	-37.0	-38.5	17.0	0.00e+00	0	56	0	1224736768	45	4326
2026-01-06 22:22:43.72	115.15	21.64	-37.0	-38.5	17.0	0.00e+00	0	56	0	1227882496	45	4332
2026-01-06 22:22:44.73	115.39	21.58	-37.1	-38.6	16.9	0.00e+00	0	56	0	1231028224	45	4368
2026-01-06 22:22:45.74	115.64	21.52	-37.2	-38.7	16.8	0.00e+00	0	56	0	1234173952	45	4439
2026-01-06 22:22:46.75	115.88	21.46	-37.2	-38.7	16.8	0.00e+00	0	57	0	1237319680	45	4435
2026-01-06 22:22:47.76	116.12	21.40	-37.1	-38.7	16.9	0.00e+00	0	56	0	1240465408	45	4419
2026-01-06 22:22:48.77	116.36	21.35	-37.1	-38.6	16.9	0.00e+00	0	56	0	1243611136	45	4370
2026-01-06 22:22:49.78	116.60	21.29	-37.0	-38.6	17.0	0.00e+00	0	56	0	1246756864	45	4357
2026-01-06 22:22:50.79	116.84	21.23	-37.0	-38.5	17.1	0.00e+00	0	56	0	1249902592	45	4304
2026-01-06 22:22:51.80	117.07	21.17	-36.8	-38.3	17.2	0.00e+00	0	56	0	1253048320	45	4235
2026-01-06 22:22:52.81	117.31	21.11	-36.9	-38.3	17.2	0.00e+00	0	56	0	1256194048	45	4236
2026-01-06 22:22:53.82	117.55	21.05	-36.9	-38.3	17.2	0.00e+00	0	57	0	1259339776	45	4240
2026-01-06 22:22:54.83	117.78	20.99	-36.9	-38.5	17.1	0.00e+00	0	56	0	1262485504	45	4296
2026-01-06 22:22:55.84	118.02	20.92	-37.0	-38.5	17.0	0.00e+00	0	56	0	1265631232	45	4324
2026-01-06 22:22:56.85	118.25	20.86	-37.0	-38.5	17.0	0.00e+00	0	56	0	1268776960	45	4338
2026-01-06 22:22:57.86	118.48	20.80	-37.1	-38.7	16.9	0.00e+00	0	56	0	1271922688	45	4405
2026-01-06 22:22:58.87	118.71	20.74	-37.2	-38.7	16.8	0.00e+00	0	56	0	1275068416	45	4437
2026-01-06 22:22:59.88	118.94	20.68	-37.2	-38.8	16.8	0.00e+00	0	56	0	1278214144	45	4461
2026-01-06 22:23:00.89	119.17	20.61	-37.3	-38.9	16.7	0.00e+00	0	56	0	1281359872	45	4494
2026-01-06 22:23:01.90	119.40	20.55	-37.3	-38.9	16.7	0.00e+00	0	57	0	1284505600	45	4504
2026-01-06 22:23:02.91	119.63	20.49	-37.1	-38.7	16.8	0.00e+00	0	57	0	1287651328	45	4424
2026-01-06 22:23:03.92	119.85	20.42	-37.0	-38.5	17.0	0.00e+00	0	56	0	1290797056	45	4334
2026-01-06 22:23:04.93	120.08	20.36	-36.9	-38.4	17.1	0.00e+00	0	57	0	1293942784	45	4276
2026-01-06 22:23:05.94	120.31	20.30	-36.9	-38.4	17.1	0.00e+00	0	56	0	1297088512	45	4277
2026-01-06 22:23:06.95	120.53	20.23	-36.9	-38.4	17.0	0.00e+00	0	56	0	1300234240	45	4275
2026-01-06 22:23:07.96	120.75	20.17	-36.9	-38.4	17.1	0.00e+00	0	57	0	1303379968	45	4259
2026-01-06 22:23:08.97	120.97	20.10	-36.9	-38.4	17.1	0.00e+00	0	56	0	1306525696	44	4525
2026-01-06 22:23:09.98	121.20	20.04	-36.9	-38.4	17.0	0.00e+00	0	56	0	1309671424	44	4543
2026-01-06 22:23:10.99	121.42	19.97	-37.0	-38.5	17.0	0.00e+00	0	56	0	1312817152	44	4588
2026-01-06 22:23:12.00	121.64	19.91	-36.9	-38.5	17.0	0.00e+00	0	56	0	1315962880	44	4565
2026-01-06 22:23:13.01	121.85	19.84	-37.1	-38.6	16.9	0.00e+00	0	57	0	1319108608	44	4639
2026-01-06 22:23:14.02	122.07	19.77	-37.1	-38.7	16.8	0.00e+00	0	57	0	1322254336	44	4664
2026-01-06 22:23:15.03	122.29	19.71	-37.1	-38.7	16.8	0.00e+00	0	56	0	1325400064	44	4676
2026-01-06 22:23:16.04	122.50	19.64	-37.1	-38.7	16.9	0.00e+00	0	56	0	1328545792	44	4657
2026-01-06 22:23:17.05	122.72	19.57	-37.0	-38.6	16.9	0.00e+00	0	56	0	1331691520	44	4626
2026-01-06 22:23:18.06	122.93	19.51	-37.0	-38.6	16.9	0.00e+00	0	56	0	1334837248	44	4605
2026-01-06 22:23:19.07	123.15	19.44	-37.0	-38.6	16.9	0.00e+00	0	57	0	1337982976	44	4603
2026-01-06 22:23:20.08	123.36	19.37	-37.0	-38.5	16.9	0.00e+00	0	56	0	1341128704	44	4589
2026-01-06 22:23:21.09	123.57	19.30	-37.0	-38.6	16.9	0.00e+00	0	57	0	1344274432	44	4634
2026-01-06 22:23:22.10	123.78	19.24	-36.8	-38.6	16.9	0.00e+00	0	57	0	1347420160	44	4631
2026-01-06 22:23:23.12	123.99	19.17	-37.1	-38.6	16.8	0.00e+00	0	56	0	1350565888	44	4638
2026-01-06 22:23:24.12	124.20	19.10	-37.0	-38.6	16.9	0.00e+00	0	57	0	1353711616	44	4599
2026-01-06 22:23:25.13	124.40	19.03	-37.0	-38.6	16.9	0.00e+00	0	57	0	1356857344	44	4601
2026-01-06 22:23:26.15	124.61	18.96	-37.0	-38.5	16.9	0.00e+00	0	57	0	1360003072	44	4589
2026-01-06 22:23:27.16	124.82	18.89	-37.0	-38.5	16.9	0.00e+00	0	57	0	1363148800	44	4580
2026-01-06 22:23:28.17	125.02	18.82	-37.0	-38.5	16.9	0.00e+00	0	57	0	1366294528	44	4586
2026-01-06 22:23:29.17	125.23	18.76	-37.1	-38.6	16.8	0.00e+00	0	57	0	1369440256	44	4637
2026-01-06 22:23:30.18	125.43	18.69	-36.9	-38.7	16.7	7.00e-07	0	57	0	1372585984	44	4675
2026-01-06 22:23:31.19	125.63	18.62	-37.1	-38.7	16.8	0.00e+00	0	56	0	1375731712	44	4683
2026-01-06 22:23:32.20	125.83	18.55	-37.2	-38.8	16.6	0.00e+00	0	56	0	1378877440	45	4482
2026-01-06 22:23:33.21	126.03	18.48	-37.2	-38.8	16.6	0.00e+00	0	57	0	1382023168	45	4492
2026-01-06 22:23:34.22	126.23	18.41	-37.3	-38.9	16.6	0.00e+00	0	56	0	1385168896	45	4514
2026-01-06 22:23:35.23	126.43	18.34	-37.3	-38.9	16.6	0.00e+00	0	57	0	1388314624	45	4519
2026-01-06 22:23:36.24	126.63	18.27	-37.2	-38.8	16.6	0.00e+00	0	56	0	1391460352	45	4477
2026-01-06 22:23:37.25	126.82	18.20	-37.2	-38.8	16.7	0.00e+00	0	57	0	1394606080	45	4450
2026-01-06 22:23:38.26	127.02	18.13	-37.2	-38.8	16.7	0.00e+00	0	56	0	1397751808	45	4467
2026-01-06 22:23:39.27	127.22	18.06	-37.2	-38.7	16.7	0.00e+00	0	57	0	1400897536	45	4433
2026-01-06 22:23:40.28	127.41	17.99	-37.2	-38.8	16.6	0.00e+00	0	56	0	1404043264	45	4471
2026-01-06 22:23:41.29	127.60	17.91	-37.1	-38.8	16.6	0.00e+00	0	57	0	1407188992	45	4476
2026-01-06 22:23:42.30	127.79	17.84	-37.2	-38.8	16.6	0.00e+00	0	57	0	1410334720	45	4469
2026-01-06 22:23:43.31	127.99	17.77	-37.0	-38.8	16.6	0.00e+00	0	56	0	1413480448	45	4462
2026-01-06 22:23:44.32	128.18	17.70	-37.2	-38.8	16.5	0.00e+00	0	57	0	1416626176	45	4492
2026-01-06 22:23:45.33	128.37	17.63	-37.2	-38.8	16.5	0.00e+00	0	56	0	1419771904	45	4481
2026-01-06 22:23:46.34	128.56	17.56	-37.3	-38.9	16.5	3.00e-06	0	56	0	1422917632	45	4515
2026-01-06 22:23:47.35	128.74	17.49	-37.2	-38.9	16.5	1.50e-06	0	56	0	1426063360	45	4505
2026-01-06 22:23:48.37	128.93	17.42	-37.3	-38.9	16.5	7.00e-07	0	56	0	1429209088	45	4532
2026-01-06 22:23:49.38	129.12	17.34	-37.3	-39.0	16.4	2.05e-04	0	57	0	1432354816	45	4553
2026-01-06 22:23:50.39	129.30	17.27	-37.1	-38.9	16.4	7.00e-07	0	56	0	1435500544	45	4540
2026-01-06 22:23:51.40	129.49	17.20	-37.3	-38.9	16.5	4.50e-06	0	56	0	1438646272	45	4524
2026-01-06 22:23:52.41	129.67	17.13	-37.3	-39.0	16.4	7.00e-07	0	57	0	1441792000	45	4550
2026-01-06 22:23:53.41	129.85	17.06	-37.3	-38.9	16.4	3.00e-06	0	56	0	1445986304	45	4536
2026-01-06 22:23:54.42	130.04	16.99	-36.8	-38.9	16.0	9.25e-04	0	57	0	1449132032	45	4513
2026-01-06 22:23:55.43	130.22	16.91	-37.3	-39.0	16.3	1.50e-06	0	57	0	1452277760	45	4568
2026-01-06 22:23:56.44	130.40	16.84	-37.4	-39.0	16.2	1.12e-04	0	57	0	1454374912	45	4590
2026-01-06 22:23:57.45	130.58	16.77	-37.5	-39.2	16.1	1.30e-03	0	57	0	1457520640	45	4655
2026-01-06 22:23:58.47	130.76	16.70	-37.5	-39.2	14.3	1.48e-04	0	56	0	1461714944	45	4703
2026-01-06 22:23:59.48	130.93	16.63	-37.6	-39.3	14.1	5.09e-03	0	56	0	1464860672	44	5004
2026-01-06 22:24:00.49	131.11	16.55	-37.5	-39.4	15.8	3.23e-04	0	57	0	1468006400	45	4787
2026-01-06 22:24:01.50	131.29	16.48	-37.4	-39.4	15.5	1.83e-03	0	57	0	1471152128	45	4766
2026-01-06 22:24:02.51	131.46	16.41	-37.0	-39.3	14.9	1.20e-03	0	57	0	1474297856	45	4746
2026-01-06 22:24:03.52	131.64	16.34	-37.4	-39.4	15.3	8.69e-04	0	57	0	1477443584	45	4782
2026-01-06 22:24:04.53	131.81	16.26	-35.7	-39.2	13.5	1.46e-02	0	57	0	1480589312	44	4946
2026-01-06 22:24:05.54	131.98	16.19	-37.4	-39.5	15.5	9.12e-04	0	57	0	1483735040	45	4826
2026-01-06 22:24:06.55	132.16	16.12	-37.6	-39.5	15.4	8.82e-04	0	57	0	1486880768	45	4858
2026-01-06 22:24:07.56	132.33	16.05	-37.5	-39.5	15.0	8.18e-04	0	57	0	1490026496	45	4834
2026-01-06 22:24:08.57	132.50	15.97	-37.1	-39.5	15.2	4.57e-03	0	57	0	1493172224	45	4844
2026-01-06 22:24:09.58	132.67	15.90	-37.5	-39.5	15.0	4.20e-03	0	57	0	1496317952	45	4841
2026-01-06 22:24:10.59	132.84	15.83	-37.4	-39.5	15.5	1.98e-03	0	57	0	1499463680	45	4845
2026-01-06 22:24:11.60	133.01	15.76	-37.7	-39.5	15.5	1.62e-03	0	57	0	1502609408	45	4858
2026-01-06 22:24:12.61	133.17	15.68	-36.7	-39.6	14.9	2.94e-03	0	57	0	1505755136	46	4606
2026-01-06 22:24:13.62	133.34	15.61	-37.6	-39.6	15.5	7.78e-03	0	56	0	1508900864	45	4900
2026-01-06 22:24:14.63	133.51	15.54	-37.6	-39.6	15.5	7.76e-04	0	57	0	1512046592	45	4874
2026-01-06 22:24:15.64	133.67	15.47	-37.4	-39.5	13.2	7.76e-03	0	57	0	1515192320	42	5724
2026-01-06 22:24:16.65	133.83	15.39	-32.9	-38.9	11.5	2.06e-02	0	57	0	1518338048	43	5048
2026-01-06 22:24:17.66	134.00	15.32	-34.4	-39.4	13.9	9.87e-02	0	57	0	1521483776	44	5049
2026-01-06 22:24:18.67	134.16	15.25	-36.0	-39.1	11.8	1.79e-01	0	57	0	1524629504	40	6195
2026-01-06 22:24:19.68	134.32	15.18	-35.3	-38.6	12.2	1.10e-01	0	56	0	1527775232	40	5793
2026-01-06 22:24:20.69	134.48	15.10	-37.5	-39.4	15.1	1.47e-02	0	57	0	1530920960	45	4805
2026-01-06 22:24:21.70	134.64	15.03	-31.9	-38.5	11.0	5.64e-02	0	57	0	1534066688	41	5462
2026-01-06 22:24:22.71	134.80	14.96	-31.9	-38.5	11.3	5.26e-02	2	56	0	1537212416	42	5126
2026-01-06 22:24:23.72	134.96	14.89	-30.8	-39.1	8.7	4.73e-02	0	57	0	1540358144	42	5468
2026-01-06 22:24:24.73	135.12	14.81	-37.8	-39.8	15.1	3.28e-02	0	57	0	1543503872	46	4725
2026-01-06 22:24:25.74	135.28	14.74	-35.9	-39.7	13.3	1.40e-01	0	57	0	1546649600	40	6613
2026-01-06 22:24:26.75	135.43	14.67	-32.3	-39.3	9.2	4.74e-02	0	57	0	1549795328	42	5604
2026-01-06 22:24:27.76	135.59	14.60	-34.6	-40.0	12.0	1.72e-01	0	57	0	1552941056	43	5746
2026-01-06 22:24:28.77	135.75	14.52	-30.9	-38.9	7.3	1.47e-01	0	57	0	1556086784	31	10078
2026-01-06 22:24:29.78	135.90	14.45	-37.0	-40.1	13.2	2.69e-02	0	57	0	1559232512	44	5513
2026-01-06 22:24:30.79	136.05	14.38	-38.0	-40.0	14.5	5.14e-02	0	57	0	1562378240	46	4861
2026-01-06 22:24:31.80	136.21	14.31	-37.9	-39.8	9.8	2.70e-02	0	57	0	1565523968	40	6710
2026-01-06 22:24:32.81	136.36	14.23	-33.1	-39.6	9.6	1.14e-01	0	57	0	1568669696	41	6197
2026-01-06 22:24:33.82	136.51	14.16	-38.0	-40.0	13.9	2.97e-02	0	57	0	1571815424	46	4856
2026-01-06 22:24:34.83	136.66	14.09	-37.9	-40.0	14.6	5.77e-02	0	57	0	1574961152	46	4830
2026-01-06 22:24:35.84	136.81	14.02	-38.2	-40.0	13.5	2.26e-02	0	56	0	1578106880	44	5460
2026-01-06 22:24:36.85	136.96	13.95	-37.8	-39.8	13.1	1.42e-02	0	57	0	1581252608	43	5630
2026-01-06 22:24:37.86	137.11	13.87	-35.8	-39.6	12.1	1.68e-01	6	56	0	1584398336	42	5804
2026-01-06 22:24:38.87	137.26	13.80	-33.4	-39.7	12.8	4.14e-02	0	57	0	1587544064	38	7394
2026-01-06 22:24:39.88	137.40	13.73	-34.2	-39.7	14.0	1.91e-02	0	57	0	1590689792	44	5251
2026-01-06 22:24:40.89	137.55	13.66	-34.2	-39.9	13.2	1.57e-02	0	56	0	1593835520	45	5068
2026-01-06 22:24:41.90	137.70	13.58	-36.8	-39.7	14.0	2.09e-02	0	57	0	1596981248	45	4934
2026-01-06 22:24:42.91	137.84	13.51	-36.5	-40.2	13.2	5.46e-02	0	57	0	1600126976	45	5273
2026-01-06 22:24:43.92	137.99	13.44	-36.9	-40.2	13.5	2.26e-02	0	57	0	1603272704	45	5256
2026-01-06 22:24:44.93	138.13	13.37	-38.2	-40.3	14.0	1.27e-02	0	57	0	1606418432	46	5034
2026-01-06 22:24:45.95	138.28	13.30	-38.1	-40.4	14.4	4.43e-02	0	57	0	1609564160	47	4782
2026-01-06 22:24:46.96	138.42	13.22	-38.3	-40.4	13.6	5.48e-03	0	57	0	1612709888	47	4783
2026-01-06 22:24:47.97	138.56	13.15	-37.9	-40.4	14.1	4.24e-03	0	57	0	1615855616	46	5070
2026-01-06 22:24:48.98	138.70	13.08	-38.2	-40.3	14.2	2.33e-03	0	57	0	1619001344	47	4708
2026-01-06 22:24:49.99	138.84	13.01	-38.2	-40.3	13.2	5.84e-03	0	57	0	1622147072	46	4995
2026-01-06 22:24:51.00	138.98	12.94	-35.0	-40.2	13.1	1.63e-02	0	57	0	1625292800	44	5533
2026-01-06 22:24:52.01	139.12	12.87	-37.9	-40.2	13.9	1.23e-03	0	56	0	1628438528	46	4953
2026-01-06 22:24:53.01	139.26	12.80	-38.1	-40.2	13.3	1.97e-03	0	56	0	1631584256	44	5561
2026-01-06 22:24:54.02	139.40	12.72	-38.1	-40.3	14.2	6.50e-03	0	57	0	1634729984	46	4998
2026-01-06 22:24:55.03	139.53	12.65	-38.2	-40.3	14.2	3.27e-03	0	57	0	1637875712	46	5000
2026-01-06 22:24:56.05	139.67	12.58	-38.2	-40.3	14.4	6.87e-04	0	57	0	1641021440	46	4997
2026-01-06 22:24:57.05	139.81	12.51	-38.2	-40.3	13.9	6.96e-04	0	56	0	1644167168	46	4989
2026-01-06 22:24:58.06	139.94	12.44	-38.2	-40.2	14.6	2.17e-04	0	57	0	1647312896	46	4983
2026-01-06 22:24:59.07	140.08	12.37	-37.9	-40.3	14.6	1.26e-04	0	57	0	1650458624	47	4718
2026-01-06 22:25:00.08	140.21	12.30	-38.0	-40.3	14.5	7.22e-04	0	56	0	1653604352	47	4757
2026-01-06 22:25:01.09	140.34	12.23	-38.3	-40.4	14.5	5.03e-05	0	57	0	1656750080	47	4765
2026-01-06 22:25:02.10	140.48	12.15	-38.2	-40.4	14.5	2.97e-05	0	57	0	1659895808	47	4799
2026-01-06 22:25:03.11	140.61	12.08	-38.4	-40.5	14.4	2.13e-05	0	57	0	1663041536	47	4843
2026-01-06 22:25:04.13	140.74	12.01	-38.3	-40.5	14.5	0.00e+00	0	57	0	1666187264	47	4823
2026-01-06 22:25:05.13	140.87	11.94	-38.4	-40.4	14.5	1.50e-06	0	57	0	1669332992	47	4810
2026-01-06 22:25:06.15	141.00	11.87	-38.4	-40.5	14.4	0.00e+00	0	57	0	1672478720	47	4848
2026-01-06 22:25:07.16	141.13	11.80	-38.5	-40.6	14.4	0.00e+00	0	57	0	1675624448	47	4884
2026-01-06 22:25:08.17	141.26	11.73	-38.5	-40.6	14.3	2.20e-06	0	57	0	1678770176	47	4912
2026-01-06 22:25:09.17	141.39	11.66	-38.4	-40.5	14.5	7.00e-07	0	57	0	1681915904	47	4835
2026-01-06 22:25:10.18	141.52	11.59	-38.3	-40.4	14.6	0.00e+00	0	57	0	1685061632	47	4778
2026-01-06 22:25:11.19	141.64	11.52	-38.4	-40.4	14.5	0.00e+00	0	57	0	1688207360	47	4800
2026-01-06 22:25:12.20	141.77	11.45	-38.4	-40.5	14.4	0.00e+00	0	57	0	1691353088	47	4845
2026-01-06 22:25:13.21	141.90	11.38	-38.4	-40.5	14.4	0.00e+00	0	57	0	1694498816	47	4862
2026-01-06 22:25:14.22	142.02	11.31	-38.4	-40.5	14.4	1.50e-06	0	57	0	1697644544	47	4856
2026-01-06 22:25:15.23	142.15	11.24	-38.5	-40.6	14.3	7.00e-07	0	57	0	1700790272	47	4885
2026-01-06 22:25:16.24	142.27	11.17	-38.4	-40.5	14.4	2.20e-06	0	57	0	1703936000	47	4858
2026-01-06 22:25:17.25	142.40	11.10	-38.4	-40.5	14.4	0.00e+00	0	56	0	1707081728	47	4861
2026-01-06 22:25:18.26	142.52	11.03	-38.5	-40.6	14.3	0.00e+00	0	57	0	1710227456	47	4899
2026-01-06 22:25:19.27	142.64	10.96	-38.5	-40.6	14.3	7.00e-07	0	57	0	1713373184	47	4908
2026-01-06 22:25:20.28	142.77	10.89	-38.4	-40.5	14.5	0.00e+00	0	57	0	1716518912	47	4817
2026-01-06 22:25:21.29	142.89	10.82	-38.3	-40.4	14.5	2.20e-06	0	57	0	1719664640	47	4768
2026-01-06 22:25:22.30	143.01	10.75	-38.3	-40.4	14.5	1.50e-06	0	57	0	1722810368	47	4795
2026-01-06 22:25:23.31	143.13	10.68	-38.3	-40.4	14.5	2.20e-06	0	57	0	1725956096	47	4782
2026-01-06 22:25:24.32	143.25	10.61	-38.3	-40.4	14.4	0.00e+00	0	57	0	1729101824	47	4793
2026-01-06 22:25:25.33	143.37	10.54	-38.3	-40.4	14.4	0.00e+00	0	57	0	1732247552	47	4787
2026-01-06 22:25:26.34	143.49	10.48	-38.5	-40.6	14.2	1.50e-06	0	57	0	1735393280	47	4899
2026-01-06 22:25:27.35	143.61	10.41	-38.5	-40.6	14.2	1.50e-06	0	57	0	1738539008	47	4922
2026-01-06 22:25:28.36	143.72	10.34	-38.6	-40.8	14.0	3.80e-06	0	57	0	1741684736	47	5019
2026-01-06 22:25:29.37	143.84	10.27	-38.7	-41.0	13.8	6.10e-06	0	57	0	1744830464	47	5103
2026-01-06 22:25:30.38	143.96	10.20	-38.7	-40.9	13.9	6.10e-06	0	57	0	1747976192	47	5073
2026-01-06 22:25:31.39	144.07	10.13	-38.9	-41.1	13.7	7.60e-06	0	57	0	1751121920	48	4918
2026-01-06 22:25:32.40	144.19	10.06	-38.9	-41.2	13.7	6.80e-06	0	57	0	1754267648	48	4948
2026-01-06 22:25:33.41	144.30	9.99	-38.9	-41.2	13.6	9.90e-06	0	56	0	1757413376	48	4977
2026-01-06 22:25:34.42	144.42	9.93	-39.0	-41.3	13.5	1.29e-05	0	57	0	1760559104	48	5029
2026-01-06 22:25:35.43	144.53	9.86	-39.0	-41.3	13.5	2.44e-05	0	57	0	1763704832	48	5037
2026-01-06 22:25:36.44	144.65	9.79	-38.8	-41.1	13.7	1.22e-05	0	57	0	1766850560	48	4911
2026-01-06 22:25:37.45	144.76	9.72	-38.8	-41.1	13.7	6.80e-06	0	57	0	1769996288	48	4890
2026-01-06 22:25:38.46	144.87	9.65	-38.9	-41.1	13.7	9.10e-06	0	57	0	1773142016	48	4922
2026-01-06 22:25:39.47	144.99	9.59	-38.9	-41.1	13.7	3.80e-06	0	57	0	1776287744	48	4922
2026-01-06 22:25:40.48	145.10	9.52	-38.8	-41.1	13.6	1.37e-05	0	57	0	1779433472	48	4919
2026-01-06 22:25:41.49	145.21	9.45	-38.7	-41.0	13.7	8.30e-06	0	57	0	1782579200	48	4855
2026-01-06 22:25:42.50	145.32	9.38	-38.9	-41.2	13.6	9.90e-06	0	57	0	1785724928	48	4936
2026-01-06 22:25:43.51	145.43	9.32	-38.7	-41.1	13.6	5.30e-06	0	57	0	1788870656	48	4889
2026-01-06 22:25:44.52	145.54	9.25	-38.8	-41.1	13.6	1.22e-05	0	57	0	1792016384	48	4875
2026-01-06 22:25:45.53	145.65	9.18	-38.8	-41.1	13.6	9.90e-06	0	57	0	1795162112	48	4909
2026-01-06 22:25:46.54	145.76	9.11	-38.8	-41.2	13.5	8.30e-06	0	57	0	1798307840	48	4936
2026-01-06 22:25:47.55	145.86	9.05	-38.8	-41.1	13.5	6.80e-06	0	57	0	1801453568	48	4926
2026-01-06 22:25:48.57	145.97	8.98	-38.9	-41.2	13.4	1.22e-05	0	57	0	1804599296	48	4978
2026-01-06 22:25:49.57	146.08	8.91	-39.0	-41.4	13.2	4.73e-05	0	57	0	1807745024	48	5056
2026-01-06 22:25:50.59	146.19	8.84	-39.0	-41.4	13.2	1.98e-05	0	57	0	1810890752	48	5073
2026-01-06 22:25:51.60	146.29	8.78	-39.0	-41.4	13.2	2.36e-05	0	57	0	1814036480	48	5074
2026-01-06 22:25:52.61	146.40	8.71	-39.1	-41.6	12.9	3.50e-05	0	57	0	1818230784	48	5195
2026-01-06 22:25:53.62	146.51	8.64	-39.2	-41.8	12.8	5.79e-05	0	57	0	1821376512	49	4989
2026-01-06 22:25:54.63	146.61	8.58	-39.2	-41.7	12.8	6.71e-05	0	57	0	1824522240	49	4965
2026-01-06 22:25:55.63	146.71	8.51	-39.3	-41.9	12.6	8.85e-05	0	57	0	1826619392	49	5059
2026-01-06 22:25:56.64	146.82	8.45	-39.3	-41.9	12.6	7.24e-05	0	57	0	1829765120	49	5049
2026-01-06 22:25:57.65	146.92	8.38	-39.2	-41.8	12.7	6.17e-05	0	57	0	1832910848	49	4995
2026-01-06 22:25:58.66	147.02	8.31	-39.2	-41.8	12.7	9.38e-05	0	57	0	1837105152	49	5011
2026-01-06 22:25:59.67	147.13	8.25	-39.1	-41.8	12.7	9.76e-05	0	57	0	1840250880	49	5014
2026-01-06 22:26:00.68	147.23	8.18	-39.2	-41.7	12.7	4.50e-05	0	57	0	1843396608	49	4971
2026-01-06 22:26:01.69	147.33	8.12	-39.1	-41.7	12.7	1.14e-04	0	57	0	1846542336	49	4957
2026-01-06 22:26:02.70	147.43	8.05	-39.1	-41.8	12.7	7.47e-05	0	57	0	1848639488	49	4988
2026-01-06 22:26:03.71	147.53	7.98	-43.6	-55.2	3.8	1.77e-02	0	57	104	1851785216	57	14726
2026-01-06 22:26:04.72	147.63	7.92	-44.3	-56.4	3.8	1.49e+00	0	57	104	1851785216	59	15207
2026-01-06 22:26:05.74	147.73	7.85	-44.7	-56.8	3.8	1.49e+00	0	57	104	1851785216	59	15899
2026-01-06 22:26:06.74	147.83	7.79	-44.9	-57.2	3.8	1.49e+00	0	57	104	1851785216	60	15754
2026-01-06 22:26:07.75	147.93	7.72	-45.0	-57.5	3.8	1.49e+00	0	57	104	1851785216	60	16150
2026-01-06 22:26:08.76	148.03	7.66	-45.2	-57.6	3.8	1.49e+00	0	57	104	1851785216	60	16384
2026-01-06 22:26:09.78	148.13	7.59	-45.2	-57.7	3.8	1.49e+00	0	57	104	1851785216	61	15596
2026-01-06 22:26:10.79	148.23	7.53	-45.2	-57.7	3.8	1.49e+00	0	57	104	1851785216	61	15607
2026-01-06 22:26:11.79	148.32	7.46	-45.3	-57.7	3.8	1.49e+00	0	57	104	1851785216	61	15684
2026-01-06 22:26:12.80	148.42	7.40	-45.3	-57.7	3.8	1.49e+00	0	57	104	1851785216	61	15751
2026-01-06 22:26:13.81	148.52	7.33	-45.2	-57.7	3.8	1.49e+00	0	57	104	1851785216	61	15705
2026-01-06 22:26:14.82	148.61	7.27	-45.1	-57.7	3.8	1.49e+00	0	57	104	1851785216	61	15584
2026-01-06 22:26:15.83	148.71	7.20	-45.1	-57.6	3.8	1.49e+00	0	57	104	1851785216	61	15511
2026-01-06 22:26:16.85	148.81	7.14	-45.1	-57.7	3.8	1.49e+00	0	57	104	1851785216	61	15619
2026-01-06 22:26:17.86	148.90	7.08	-45.0	-57.6	3.8	1.49e+00	0	57	104	1851785216	61	15552
2026-01-06 22:26:18.87	149.00	7.01	-45.0	-57.6	3.8	1.49e+00	0	57	104	1851785216	61	15536
2026-01-06 22:26:19.87	149.09	6.95	-45.0	-57.6	3.8	1.49e+00	0	57	104	1851785216	61	15540
