passes_logs/2026/01/06/R2.0S_Moscow/R2.0S_Moscow__20260106_224404_SUOMI_NPP_rec.log

#Pass ID: 20260106_224404_SUOMI NPP
#Satellite: SUOMI NPP
#Configuration: NPP
#almurnet v.1.7.20251203
#Start time: 2026-01-06 22:44:04

#Version: 2.2.20231116
#Station: R2.0S_Moscow
#Location: 37.707566 lon 55.798166 lat
#TLE: 1 37849U 11061A   26005.94084933  .00000134  00000+0  84554-4 0  9990
#TLE: 2 37849  98.7803 308.0679 0002567  79.1029 281.0436 14.19522657735426

#Time	Az	El	Level	Level2	SNR	BER	BlckErr	Temp	State	Recorded	gain1	gain2
2026-01-06 22:44:04.41	21.62	1.99	-42.1	-57.3	3.8	1.49e+00	0	47	0	0	56	19957
2026-01-06 22:44:05.41	21.67	2.05	-41.9	-57.1	3.8	1.49e+00	0	47	104	0	54	21993
2026-01-06 22:44:06.42	21.72	2.11	-41.9	-57.2	3.8	1.49e+00	0	47	104	0	54	22050
2026-01-06 22:44:07.44	21.77	2.17	-41.9	-57.2	3.8	1.49e+00	0	48	104	0	54	22044
2026-01-06 22:44:08.45	21.82	2.23	-41.9	-57.1	3.8	1.49e+00	0	47	104	0	54	21958
2026-01-06 22:44:09.46	21.87	2.29	-41.9	-57.1	3.8	1.49e+00	0	48	104	0	54	22002
2026-01-06 22:44:10.47	21.92	2.35	-41.9	-57.1	3.8	1.49e+00	0	47	104	0	54	21986
2026-01-06 22:44:11.48	21.97	2.41	-41.9	-57.1	3.8	1.49e+00	0	48	104	0	54	21995
2026-01-06 22:44:12.49	22.02	2.47	-41.9	-57.2	3.8	1.49e+00	0	48	104	0	54	22038
2026-01-06 22:44:13.50	22.08	2.53	-41.9	-57.1	3.8	1.49e+00	0	48	104	0	54	21998
2026-01-06 22:44:14.51	22.13	2.59	-41.9	-57.2	3.8	1.49e+00	0	48	104	0	54	22009
2026-01-06 22:44:15.52	22.18	2.65	-41.9	-57.1	3.8	1.49e+00	0	48	104	0	54	21995
2026-01-06 22:44:16.53	22.23	2.72	-41.9	-57.1	3.8	1.49e+00	0	48	104	0	54	21943
2026-01-06 22:44:17.54	22.28	2.78	-41.9	-57.1	3.8	1.49e+00	0	48	104	0	54	22006
2026-01-06 22:44:18.55	22.33	2.84	-41.9	-57.1	3.8	1.49e+00	0	48	104	0	54	21976
2026-01-06 22:44:19.57	22.39	2.90	-41.9	-57.1	3.8	1.49e+00	0	48	104	0	54	21994
2026-01-06 22:44:20.58	22.44	2.96	-41.9	-57.1	3.8	1.49e+00	0	48	104	0	54	21987
2026-01-06 22:44:21.59	22.49	3.02	-41.9	-57.1	3.8	1.49e+00	0	48	104	0	54	21991
2026-01-06 22:44:22.60	22.55	3.09	-41.9	-57.1	3.8	1.49e+00	0	48	104	0	54	21990
2026-01-06 22:44:23.61	22.60	3.15	-41.9	-57.2	3.8	1.49e+00	0	48	104	0	54	22014
2026-01-06 22:44:24.62	22.65	3.21	-41.9	-57.1	3.8	1.49e+00	0	49	104	0	54	21912
2026-01-06 22:44:25.63	22.71	3.27	-41.9	-57.1	3.8	1.49e+00	0	49	104	0	54	21963
2026-01-06 22:44:26.64	22.76	3.34	-41.9	-57.2	3.8	1.49e+00	0	49	104	0	54	22042
2026-01-06 22:44:27.65	22.81	3.40	-41.9	-57.1	3.8	1.49e+00	0	49	104	0	54	21965
2026-01-06 22:44:28.66	22.87	3.46	-41.9	-57.1	3.8	1.49e+00	0	49	104	0	54	21912
2026-01-06 22:44:29.67	22.92	3.52	-41.9	-57.1	3.8	1.49e+00	0	49	104	0	54	21946
2026-01-06 22:44:30.68	22.98	3.59	-41.9	-57.1	3.8	1.49e+00	0	49	104	0	54	22006
2026-01-06 22:44:31.69	23.03	3.65	-41.9	-57.1	3.8	1.49e+00	0	49	104	0	54	22005
2026-01-06 22:44:32.70	23.09	3.71	-41.9	-57.1	3.8	1.49e+00	0	49	104	0	54	21979
2026-01-06 22:44:33.72	23.14	3.78	-41.9	-57.1	3.8	1.49e+00	0	49	104	0	54	21983
2026-01-06 22:44:34.73	23.20	3.84	-41.9	-57.1	3.8	1.49e+00	0	49	104	0	54	21954
2026-01-06 22:44:35.74	23.25	3.91	-41.9	-57.1	3.8	1.49e+00	0	49	104	0	54	21995
2026-01-06 22:44:36.75	23.31	3.97	-41.9	-57.2	3.8	1.49e+00	0	49	104	0	54	22011
2026-01-06 22:44:37.76	23.37	4.03	-41.9	-57.1	3.8	1.49e+00	0	49	104	0	54	21914
2026-01-06 22:44:38.77	23.42	4.10	-41.9	-57.1	3.8	1.49e+00	0	49	104	0	54	21942
2026-01-06 22:44:39.78	23.48	4.16	-41.9	-57.1	3.8	1.49e+00	0	49	104	0	54	21950
2026-01-06 22:44:40.79	23.54	4.23	-41.9	-57.1	3.8	1.49e+00	0	49	104	0	54	21916
2026-01-06 22:44:41.80	23.59	4.29	-41.9	-57.1	3.8	1.49e+00	0	49	104	0	54	21889
2026-01-06 22:44:42.81	23.65	4.36	-41.9	-57.1	3.8	1.49e+00	0	50	104	0	54	21955
2026-01-06 22:44:43.82	23.71	4.42	-41.9	-57.1	3.8	1.49e+00	0	50	104	0	54	21983
2026-01-06 22:44:44.84	23.77	4.49	-41.9	-57.1	3.8	1.49e+00	0	50	104	0	54	21963
2026-01-06 22:44:45.85	23.82	4.55	-41.9	-57.1	3.8	1.49e+00	0	50	104	0	54	21889
2026-01-06 22:44:46.86	23.88	4.62	-41.9	-57.1	3.8	1.49e+00	0	50	104	0	54	21899
2026-01-06 22:44:47.87	23.94	4.68	-41.9	-57.1	3.8	1.49e+00	0	50	104	0	54	21920
2026-01-06 22:44:48.88	24.00	4.75	-41.9	-57.1	3.8	1.49e+00	0	50	104	0	54	21970
2026-01-06 22:44:49.89	24.06	4.81	-41.9	-57.1	3.8	1.49e+00	0	50	104	0	54	22000
2026-01-06 22:44:50.90	24.12	4.88	-41.9	-57.1	3.8	1.49e+00	0	50	104	0	54	21931
2026-01-06 22:44:51.91	24.18	4.94	-41.9	-57.1	3.8	1.49e+00	0	50	104	0	54	21947
2026-01-06 22:44:52.92	24.24	5.01	-41.9	-57.1	3.8	1.49e+00	0	50	104	0	54	21932
2026-01-06 22:44:53.93	24.30	5.08	-41.9	-57.1	3.8	1.49e+00	0	50	104	0	54	21908
2026-01-06 22:44:54.94	24.36	5.14	-41.9	-57.1	3.8	1.49e+00	0	50	104	0	54	21933
2026-01-06 22:44:55.95	24.42	5.21	-41.9	-57.1	3.8	1.49e+00	0	50	104	0	54	21964
2026-01-06 22:44:56.96	24.48	5.28	-41.9	-57.1	3.8	1.49e+00	0	50	104	0	54	21979
2026-01-06 22:44:57.97	24.54	5.34	-41.9	-57.1	3.8	1.49e+00	0	51	104	0	54	21939
2026-01-06 22:44:58.98	24.60	5.41	-41.9	-57.1	3.8	1.49e+00	0	50	104	0	54	22006
2026-01-06 22:44:59.99	24.66	5.48	-41.9	-57.1	3.8	1.49e+00	0	51	104	0	54	21953
2026-01-06 22:45:01.00	24.72	5.54	-41.9	-57.1	3.8	1.49e+00	0	51	104	0	54	21935
2026-01-06 22:45:02.01	24.79	5.61	-41.9	-57.1	3.8	1.49e+00	0	51	104	0	54	21941
2026-01-06 22:45:03.03	24.85	5.68	-41.9	-57.1	3.8	1.49e+00	0	51	104	0	54	21932
2026-01-06 22:45:04.04	24.91	5.75	-41.9	-57.1	3.8	1.49e+00	0	51	104	0	54	21940
2026-01-06 22:45:05.05	24.97	5.81	-41.9	-57.1	3.8	1.49e+00	0	51	104	0	54	21901
2026-01-06 22:45:06.05	25.04	5.88	-41.9	-57.1	3.8	1.49e+00	0	51	104	0	54	21910
2026-01-06 22:45:07.07	25.10	5.95	-41.9	-57.1	3.8	1.49e+00	0	51	104	0	54	21893
2026-01-06 22:45:08.08	25.16	6.02	-41.9	-57.1	3.8	1.49e+00	0	51	104	0	54	21925
2026-01-06 22:45:09.09	25.23	6.09	-41.9	-57.1	3.8	1.49e+00	0	51	104	0	54	21886
2026-01-06 22:45:10.10	25.29	6.16	-41.9	-57.1	3.8	1.49e+00	0	51	104	0	54	21896
2026-01-06 22:45:11.11	25.36	6.22	-41.9	-57.1	3.8	1.49e+00	0	51	104	0	54	21947
2026-01-06 22:45:12.12	25.42	6.29	-41.9	-57.1	3.8	1.49e+00	0	51	104	0	54	21910
2026-01-06 22:45:13.13	25.49	6.36	-41.9	-57.1	3.8	1.49e+00	0	51	104	0	54	21920
2026-01-06 22:45:14.14	25.55	6.43	-41.9	-57.1	3.8	1.49e+00	0	51	104	0	54	21904
2026-01-06 22:45:15.15	25.62	6.50	-41.9	-57.1	3.8	1.49e+00	0	51	104	0	54	21903
2026-01-06 22:45:16.16	25.68	6.57	-41.9	-57.1	3.8	1.49e+00	0	51	104	0	54	21862
2026-01-06 22:45:17.17	25.75	6.64	-41.9	-57.1	3.8	1.49e+00	0	51	104	0	54	21889
2026-01-06 22:45:18.18	25.82	6.71	-41.9	-57.1	3.8	1.49e+00	0	52	104	0	54	21897
2026-01-06 22:45:19.20	25.88	6.78	-41.9	-57.1	3.8	1.49e+00	0	51	104	0	54	21951
2026-01-06 22:45:20.21	25.95	6.85	-41.9	-57.1	3.8	1.49e+00	0	52	104	0	54	21910
2026-01-06 22:45:21.22	26.02	6.92	-41.9	-57.0	3.8	1.49e+00	0	52	104	0	54	21710
2026-01-06 22:45:22.23	26.09	6.99	-41.9	-56.9	3.8	1.49e+00	0	51	104	0	54	21303
2026-01-06 22:45:23.24	26.15	7.06	-41.9	-56.7	3.8	1.49e+00	0	52	104	0	54	20800
2026-01-06 22:45:24.25	26.22	7.13	-41.9	-56.3	3.8	1.49e+00	0	52	104	0	54	20058
2026-01-06 22:45:25.26	26.29	7.20	-41.9	-56.1	3.8	1.49e+00	0	52	104	0	54	19487
2026-01-06 22:45:26.27	26.36	7.27	-41.8	-55.6	3.8	1.49e+00	0	52	104	0	54	18384
2026-01-06 22:45:27.28	26.43	7.35	-41.8	-54.8	3.8	1.49e+00	0	52	104	0	54	16865
2026-01-06 22:45:28.29	26.50	7.42	-41.7	-53.9	4.1	1.46e+00	0	52	0	0	54	15065
2026-01-06 22:45:29.30	26.57	7.49	-41.6	-52.5	4.6	1.36e+00	0	52	0	0	54	12879
2026-01-06 22:45:30.31	26.64	7.56	-41.4	-50.5	5.6	6.31e-01	0	52	0	2097152	54	10217
2026-01-06 22:45:31.32	26.71	7.63	-41.1	-48.8	7.0	2.75e-01	0	52	0	4194304	54	8419
2026-01-06 22:45:32.34	26.78	7.70	-40.8	-47.4	8.3	9.26e-02	0	52	0	6291456	53	7582
2026-01-06 22:45:33.35	26.85	7.78	-40.4	-46.2	9.6	1.38e-02	0	52	0	7340032	52	6987
2026-01-06 22:45:34.36	26.92	7.85	-40.1	-45.4	10.4	6.28e-03	0	52	0	9437184	52	6416
2026-01-06 22:45:35.37	27.00	7.92	-40.0	-44.9	11.0	2.90e-03	0	52	0	11534336	51	6375
2026-01-06 22:45:36.38	27.07	7.99	-39.9	-44.7	11.2	1.02e-03	0	52	0	13631488	51	6252
2026-01-06 22:45:37.39	27.14	8.07	-40.2	-45.0	11.1	1.41e-03	0	52	0	15728640	51	6472
2026-01-06 22:45:38.40	27.21	8.14	-40.8	-45.9	10.4	3.21e-03	0	53	0	16777216	52	6741
2026-01-06 22:45:39.41	27.29	8.21	-40.8	-45.8	10.5	1.27e-02	0	52	0	18874368	53	6322
2026-01-06 22:45:40.42	27.36	8.29	-40.9	-49.8	5.9	4.59e-01	0	53	0	20971520	53	9974
2026-01-06 22:45:41.43	27.43	8.36	-41.3	-47.5	8.0	1.22e+00	0	53	104	22020096	54	7210
2026-01-06 22:45:42.44	27.51	8.44	-41.2	-46.2	10.2	3.21e-02	0	52	0	23068672	54	6219
2026-01-06 22:45:43.45	27.58	8.51	-40.5	-44.8	11.7	7.64e-04	0	52	0	25165824	53	5623
2026-01-06 22:45:44.46	27.66	8.58	-40.5	-44.8	11.7	5.22e-04	0	52	0	26214400	52	5977
2026-01-06 22:45:45.46	27.73	8.66	-40.5	-44.6	11.9	2.62e-04	0	53	0	28311552	52	5840
2026-01-06 22:45:46.47	27.81	8.73	-40.6	-44.8	11.7	3.53e-04	0	53	0	30408704	52	5971
2026-01-06 22:45:47.48	27.89	8.81	-40.5	-44.6	12.0	3.89e-04	0	53	0	32505856	52	5847
2026-01-06 22:45:48.49	27.96	8.88	-40.5	-44.5	12.1	2.74e-04	0	53	0	34603008	52	5760
2026-01-06 22:45:49.50	28.04	8.96	-40.4	-44.4	12.2	2.38e-04	0	53	0	36700160	52	5686
2026-01-06 22:45:50.52	28.12	9.03	-40.5	-44.4	12.3	2.18e-04	0	53	0	37748736	52	5700
2026-01-06 22:45:51.52	28.19	9.11	-40.4	-44.2	12.5	1.75e-04	0	53	0	39845888	52	5556
2026-01-06 22:45:52.54	28.27	9.18	-40.3	-44.0	12.8	1.04e-04	0	53	0	41943040	52	5407
2026-01-06 22:45:53.54	28.35	9.26	-40.5	-44.3	12.6	1.17e-04	0	53	0	44040192	52	5602
2026-01-06 22:45:54.56	28.43	9.34	-40.4	-44.0	12.8	7.17e-05	0	53	0	46137344	52	5426
2026-01-06 22:45:55.57	28.51	9.41	-40.4	-44.0	12.8	5.95e-05	0	53	0	47185920	52	5444
2026-01-06 22:45:56.58	28.59	9.49	-40.4	-44.0	12.9	4.95e-05	0	53	0	49283072	52	5453
2026-01-06 22:45:57.59	28.67	9.56	-40.4	-44.0	12.9	6.25e-05	0	53	0	51380224	52	5448
2026-01-06 22:45:58.60	28.75	9.64	-40.3	-43.9	13.1	3.50e-05	0	53	0	53477376	52	5341
2026-01-06 22:45:59.61	28.83	9.72	-40.4	-44.0	12.9	3.58e-05	0	53	0	55574528	52	5453
2026-01-06 22:46:00.62	28.91	9.80	-40.3	-43.7	13.2	4.50e-05	0	53	0	56623104	52	5268
2026-01-06 22:46:01.63	28.99	9.87	-40.4	-43.9	13.2	1.60e-05	0	53	0	58720256	52	5361
2026-01-06 22:46:02.64	29.07	9.95	-40.3	-43.7	13.3	2.21e-05	0	53	0	60817408	52	5256
2026-01-06 22:46:03.65	29.16	10.03	-40.3	-43.7	13.3	2.13e-05	0	53	0	62914560	52	5274
2026-01-06 22:46:04.66	29.24	10.11	-40.4	-43.8	13.3	1.90e-05	0	53	0	65011712	52	5313
2026-01-06 22:46:05.67	29.32	10.18	-40.4	-43.8	13.2	1.90e-05	0	53	0	66060288	52	5320
2026-01-06 22:46:06.67	29.40	10.26	-40.3	-43.6	13.4	6.80e-06	0	53	0	68157440	52	5207
2026-01-06 22:46:07.68	29.49	10.34	-40.1	-43.3	13.8	1.37e-05	0	53	0	70254592	52	5010
2026-01-06 22:46:08.69	29.57	10.42	-40.2	-43.4	13.7	1.06e-05	0	53	0	72351744	52	5081
2026-01-06 22:46:09.70	29.66	10.50	-40.1	-43.3	13.9	6.80e-06	0	53	0	74448896	52	4989
2026-01-06 22:46:10.71	29.74	10.58	-40.1	-43.2	14.0	4.50e-06	0	53	0	75497472	52	4942
2026-01-06 22:46:11.72	29.83	10.66	-40.1	-43.1	14.0	1.50e-06	0	54	0	77594624	52	4925
2026-01-06 22:46:12.73	29.91	10.74	-40.1	-43.2	14.1	0.00e+00	0	53	0	79691776	51	5240
2026-01-06 22:46:13.74	30.00	10.82	-40.0	-43.0	14.3	0.00e+00	0	53	0	81788928	51	5136
2026-01-06 22:46:14.75	30.09	10.90	-40.0	-42.9	14.4	7.00e-07	0	54	0	83886080	51	5067
2026-01-06 22:46:15.76	30.18	10.98	-39.9	-42.8	14.5	7.00e-07	0	54	0	84934656	51	5019
2026-01-06 22:46:16.77	30.26	11.06	-39.9	-42.7	14.7	1.50e-06	0	53	0	87031808	51	4954
2026-01-06 22:46:17.78	30.35	11.14	-39.9	-42.6	14.8	0.00e+00	0	54	0	89128960	51	4926
2026-01-06 22:46:18.79	30.44	11.22	-39.8	-42.6	14.8	0.00e+00	0	53	0	91226112	51	4899
2026-01-06 22:46:19.80	30.53	11.30	-39.9	-42.7	14.6	0.00e+00	0	53	0	93323264	51	4965
2026-01-06 22:46:20.81	30.62	11.38	-39.9	-42.8	14.7	0.00e+00	0	54	0	94371840	51	5001
2026-01-06 22:46:21.82	30.71	11.46	-39.9	-42.7	14.8	7.00e-07	0	53	0	96468992	51	4935
2026-01-06 22:46:22.83	30.80	11.54	-39.9	-42.7	14.7	7.00e-07	0	54	0	98566144	51	4967
2026-01-06 22:46:23.84	30.89	11.63	-39.9	-42.6	14.8	7.00e-07	0	54	0	100663296	51	4922
2026-01-06 22:46:24.85	30.98	11.71	-40.1	-43.1	14.4	0.00e+00	0	54	0	102760448	51	5173
2026-01-06 22:46:25.86	31.08	11.79	-40.1	-43.0	14.4	0.00e+00	0	54	0	104857600	51	5156
2026-01-06 22:46:26.87	31.17	11.87	-40.1	-43.1	14.4	7.00e-07	0	54	0	105906176	51	5198
2026-01-06 22:46:27.88	31.26	11.96	-40.2	-43.2	14.3	0.00e+00	0	54	0	108003328	51	5231
2026-01-06 22:46:28.89	31.36	12.04	-40.2	-43.2	14.3	1.50e-06	0	54	0	110100480	51	5241
2026-01-06 22:46:29.90	31.45	12.12	-40.2	-43.2	14.3	1.50e-06	0	54	0	112197632	51	5235
2026-01-06 22:46:30.91	31.55	12.21	-40.2	-43.1	14.4	7.00e-07	0	54	0	114294784	51	5214
2026-01-06 22:46:31.92	31.64	12.29	-40.2	-43.2	14.4	1.50e-06	0	54	0	115343360	51	5229
2026-01-06 22:46:32.93	31.74	12.37	-40.3	-43.3	14.1	0.00e+00	0	54	0	117440512	51	5340
2026-01-06 22:46:33.94	31.83	12.46	-40.2	-43.1	14.4	0.00e+00	0	54	0	119537664	51	5196
2026-01-06 22:46:34.95	31.93	12.54	-40.4	-43.4	14.1	2.20e-06	0	54	0	121634816	51	5393
2026-01-06 22:46:35.96	32.03	12.63	-40.2	-43.2	14.4	0.00e+00	0	54	0	123731968	51	5220
2026-01-06 22:46:36.97	32.12	12.71	-40.2	-43.1	14.5	0.00e+00	0	54	0	124780544	51	5187
2026-01-06 22:46:37.98	32.22	12.80	-40.1	-43.0	14.5	0.00e+00	0	54	0	126877696	51	5133
2026-01-06 22:46:38.99	32.32	12.88	-40.0	-42.8	14.8	1.50e-06	0	54	0	128974848	51	4997
2026-01-06 22:46:40.00	32.42	12.97	-40.0	-42.8	14.8	0.00e+00	0	54	0	131072000	51	4991
2026-01-06 22:46:41.01	32.52	13.05	-40.1	-42.9	14.7	0.00e+00	0	54	0	133169152	51	5053
2026-01-06 22:46:42.02	32.62	13.14	-40.0	-42.7	14.8	0.00e+00	0	54	0	134217728	51	4973
2026-01-06 22:46:43.03	32.72	13.22	-39.9	-42.6	15.0	7.00e-07	0	54	0	136314880	51	4890
2026-01-06 22:46:44.04	32.83	13.31	-39.9	-42.7	14.9	0.00e+00	0	54	0	138412032	51	4949
2026-01-06 22:46:45.05	32.93	13.40	-39.9	-42.6	15.0	0.00e+00	0	54	0	140509184	51	4910
2026-01-06 22:46:46.06	33.03	13.48	-39.8	-42.4	15.2	0.00e+00	0	54	0	142606336	51	4777
2026-01-06 22:46:47.07	33.13	13.57	-39.8	-42.5	15.1	0.00e+00	0	54	0	144703488	51	4827
2026-01-06 22:46:48.08	33.24	13.66	-39.7	-42.3	15.3	0.00e+00	0	54	0	145752064	51	4720
2026-01-06 22:46:49.09	33.34	13.75	-39.7	-42.3	15.3	0.00e+00	0	54	0	147849216	51	4750
2026-01-06 22:46:50.09	33.45	13.83	-39.8	-42.5	15.1	0.00e+00	0	54	0	149946368	51	4824
2026-01-06 22:46:51.10	33.55	13.92	-39.5	-42.0	15.6	0.00e+00	0	54	0	152043520	51	4594
2026-01-06 22:46:52.11	33.66	14.01	-39.7	-42.2	15.4	0.00e+00	0	54	0	154140672	51	4693
2026-01-06 22:46:53.12	33.77	14.10	-39.9	-42.6	14.9	0.00e+00	0	54	0	155189248	51	4906
2026-01-06 22:46:54.13	33.87	14.19	-39.7	-42.3	15.3	0.00e+00	0	54	0	157286400	51	4742
2026-01-06 22:46:55.14	33.98	14.27	-39.9	-42.5	15.2	0.00e+00	0	54	0	159383552	51	4858
2026-01-06 22:46:56.15	34.09	14.36	-40.0	-42.8	14.9	0.00e+00	0	54	0	161480704	51	4986
2026-01-06 22:46:57.16	34.20	14.45	-39.9	-42.6	15.1	0.00e+00	0	54	0	163577856	51	4871
2026-01-06 22:46:58.17	34.31	14.54	-40.0	-42.8	14.9	0.00e+00	0	54	0	164626432	51	5006
2026-01-06 22:46:59.18	34.42	14.63	-40.1	-42.9	14.7	0.00e+00	0	54	0	166723584	51	5075
2026-01-06 22:47:00.19	34.53	14.72	-40.2	-43.0	14.7	0.00e+00	0	54	0	168820736	51	5149
2026-01-06 22:47:01.20	34.65	14.81	-40.3	-43.1	14.6	0.00e+00	0	54	0	170917888	51	5209
2026-01-06 22:47:02.21	34.76	14.90	-40.3	-43.1	14.5	7.00e-07	0	54	0	173015040	51	5210
2026-01-06 22:47:03.22	34.87	14.99	-40.3	-43.2	14.4	0.00e+00	0	55	0	174063616	51	5276
2026-01-06 22:47:04.23	34.99	15.09	-40.4	-43.3	14.4	7.00e-07	0	55	0	176160768	51	5296
2026-01-06 22:47:05.24	35.10	15.18	-40.4	-43.3	14.4	0.00e+00	0	55	0	178257920	51	5340
2026-01-06 22:47:06.25	35.22	15.27	-40.2	-43.0	14.7	7.00e-07	0	54	0	180355072	51	5129
2026-01-06 22:47:07.26	35.33	15.36	-40.2	-43.0	14.8	7.00e-07	0	54	0	182452224	51	5134
2026-01-06 22:47:08.27	35.45	15.45	-40.3	-43.1	14.6	7.00e-07	0	54	0	183500800	51	5214
2026-01-06 22:47:09.28	35.57	15.54	-40.2	-43.0	14.8	1.50e-06	0	54	0	185597952	51	5108
2026-01-06 22:47:10.29	35.68	15.64	-40.3	-43.1	14.6	0.00e+00	0	55	0	187695104	51	5200
2026-01-06 22:47:11.30	35.80	15.73	-40.2	-43.0	14.8	0.00e+00	0	55	0	189792256	51	5148
2026-01-06 22:47:12.31	35.92	15.82	-40.1	-42.8	15.0	0.00e+00	0	54	0	191889408	51	5032
2026-01-06 22:47:13.32	36.04	15.92	-40.3	-43.1	14.7	0.00e+00	0	55	0	192937984	51	5175
2026-01-06 22:47:14.33	36.16	16.01	-40.4	-43.2	14.5	0.00e+00	0	55	0	195035136	51	5258
2026-01-06 22:47:15.34	36.29	16.10	-40.4	-43.2	14.6	0.00e+00	0	55	0	197132288	51	5256
2026-01-06 22:47:16.35	36.41	16.20	-40.3	-43.2	14.6	7.00e-07	0	55	0	199229440	51	5222
2026-01-06 22:47:17.35	36.53	16.29	-40.5	-43.4	14.4	0.00e+00	0	55	0	201326592	51	5383
2026-01-06 22:47:18.36	36.66	16.38	-40.5	-43.3	14.5	7.00e-07	0	55	0	202375168	51	5338
2026-01-06 22:47:19.38	36.78	16.48	-40.5	-43.4	14.5	7.00e-07	0	55	0	204472320	51	5344
2026-01-06 22:47:20.39	36.91	16.57	-40.7	-43.7	14.1	7.00e-07	0	55	0	206569472	51	5580
2026-01-06 22:47:21.40	37.03	16.67	-40.5	-43.5	14.4	1.50e-06	0	55	0	208666624	51	5417
2026-01-06 22:47:22.41	37.16	16.77	-40.4	-43.3	14.5	1.50e-06	0	55	0	210763776	51	5312
2026-01-06 22:47:23.42	37.29	16.86	-40.6	-43.5	14.4	1.50e-06	0	55	0	212860928	51	5440
2026-01-06 22:47:24.43	37.42	16.96	-40.6	-43.6	14.3	0.00e+00	0	55	0	213909504	51	5503
2026-01-06 22:47:25.44	37.55	17.05	-40.6	-43.5	14.3	0.00e+00	0	55	0	216006656	51	5442
2026-01-06 22:47:26.45	37.68	17.15	-40.5	-43.3	14.5	0.00e+00	0	55	0	218103808	51	5331
2026-01-06 22:47:27.45	37.81	17.24	-40.4	-43.3	14.6	0.00e+00	0	55	0	220200960	51	5306
2026-01-06 22:47:28.47	37.94	17.34	-40.4	-43.2	14.7	0.00e+00	0	55	0	222298112	51	5237
2026-01-06 22:47:29.47	38.07	17.44	-40.4	-43.3	14.6	7.00e-07	0	55	0	223346688	51	5303
2026-01-06 22:47:30.48	38.20	17.54	-40.5	-43.3	14.6	0.00e+00	0	55	0	225443840	51	5313
2026-01-06 22:47:31.49	38.34	17.63	-40.4	-43.2	14.7	0.00e+00	0	55	0	227540992	51	5239
2026-01-06 22:47:32.51	38.48	17.73	-40.5	-43.3	14.6	0.00e+00	0	55	0	229638144	51	5331
2026-01-06 22:47:33.52	38.61	17.83	-40.4	-43.3	14.6	0.00e+00	0	55	0	231735296	51	5293
2026-01-06 22:47:34.53	38.75	17.93	-40.5	-43.4	14.5	7.00e-07	0	55	0	232783872	51	5348
2026-01-06 22:47:35.54	38.89	18.03	-40.6	-43.5	14.4	1.50e-06	0	55	0	234881024	51	5437
2026-01-06 22:47:36.55	39.02	18.13	-40.6	-43.6	14.4	0.00e+00	0	55	0	236978176	51	5471
2026-01-06 22:47:37.56	39.16	18.23	-40.6	-43.5	14.4	0.00e+00	0	55	0	239075328	51	5459
2026-01-06 22:47:38.57	39.30	18.32	-40.7	-43.7	14.3	0.00e+00	0	55	0	241172480	51	5532
2026-01-06 22:47:39.58	39.45	18.42	-40.6	-43.5	14.3	3.80e-06	0	55	0	242221056	52	5149
2026-01-06 22:47:40.59	39.59	18.52	-40.6	-43.5	14.3	3.00e-06	0	55	0	244318208	52	5137
2026-01-06 22:47:41.60	39.73	18.62	-40.6	-43.6	14.2	0.00e+00	0	55	0	246415360	52	5185
2026-01-06 22:47:42.61	39.88	18.72	-40.6	-43.5	14.3	0.00e+00	0	55	0	248512512	52	5139
2026-01-06 22:47:43.61	40.02	18.82	-40.5	-43.4	14.4	2.20e-06	0	55	0	250609664	52	5076
2026-01-06 22:47:44.62	40.17	18.92	-40.5	-43.5	14.4	7.00e-07	0	55	0	251658240	52	5113
2026-01-06 22:47:45.63	40.31	19.03	-40.6	-43.5	14.3	7.00e-07	0	55	0	253755392	52	5153
2026-01-06 22:47:46.64	40.46	19.13	-40.6	-43.6	14.3	7.00e-07	0	55	0	255852544	52	5166
2026-01-06 22:47:47.65	40.61	19.23	-40.7	-43.7	14.1	0.00e+00	0	55	0	257949696	52	5259
2026-01-06 22:47:48.66	40.76	19.33	-40.7	-43.8	14.1	7.00e-07	0	55	0	260046848	52	5288
2026-01-06 22:47:49.67	40.91	19.43	-40.7	-43.7	14.2	2.20e-06	0	55	0	261095424	52	5231
2026-01-06 22:47:50.68	41.06	19.53	-40.7	-43.8	14.1	7.00e-07	0	55	0	263192576	52	5287
2026-01-06 22:47:51.69	41.21	19.64	-40.7	-43.7	14.1	1.50e-06	0	55	0	265289728	52	5274
2026-01-06 22:47:52.70	41.37	19.74	-40.6	-43.6	14.3	7.00e-07	0	55	0	267386880	52	5183
2026-01-06 22:47:53.71	41.52	19.84	-40.6	-43.6	14.3	2.20e-06	0	55	0	269484032	52	5186
2026-01-06 22:47:54.72	41.68	19.94	-40.4	-43.2	14.6	7.00e-07	0	55	0	270532608	52	4960
2026-01-06 22:47:55.73	41.83	20.05	-40.3	-43.0	14.8	0.00e+00	0	55	0	272629760	52	4858
2026-01-06 22:47:56.74	41.99	20.15	-40.2	-42.9	15.0	7.00e-07	0	55	0	274726912	52	4772
2026-01-06 22:47:57.75	42.15	20.26	-40.2	-42.9	15.0	0.00e+00	0	55	0	276824064	52	4765
2026-01-06 22:47:58.76	42.31	20.36	-40.0	-42.6	15.2	0.00e+00	0	55	0	278921216	52	4631
2026-01-06 22:47:59.77	42.47	20.46	-40.1	-42.7	15.3	0.00e+00	0	55	0	281018368	51	4938
2026-01-06 22:48:00.77	42.63	20.57	-40.1	-42.7	15.3	0.00e+00	0	55	0	282066944	51	4943
2026-01-06 22:48:01.78	42.79	20.67	-40.2	-42.9	15.1	0.00e+00	0	55	0	284164096	51	5061
2026-01-06 22:48:02.79	42.96	20.78	-40.3	-43.0	15.0	0.00e+00	0	55	0	286261248	51	5119
2026-01-06 22:48:03.80	43.12	20.88	-40.2	-42.9	15.1	0.00e+00	0	55	0	288358400	51	5067
2026-01-06 22:48:04.81	43.29	20.99	-40.1	-42.7	15.2	0.00e+00	0	55	0	289406976	51	4927
2026-01-06 22:48:05.82	43.46	21.09	-40.1	-42.7	15.3	0.00e+00	0	55	0	291504128	51	4941
2026-01-06 22:48:06.83	43.63	21.20	-39.9	-42.3	15.7	0.00e+00	0	55	0	293601280	51	4747
2026-01-06 22:48:07.84	43.79	21.30	-39.8	-42.2	15.8	0.00e+00	0	55	0	295698432	51	4663
2026-01-06 22:48:08.85	43.97	21.41	-39.6	-41.9	16.1	0.00e+00	0	55	0	297795584	51	4538
2026-01-06 22:48:09.86	44.14	21.52	-39.4	-41.7	16.4	0.00e+00	0	55	0	298844160	50	4655
2026-01-06 22:48:10.87	44.31	21.62	-39.3	-41.5	16.5	0.00e+00	0	55	0	300941312	50	4582
2026-01-06 22:48:11.88	44.48	21.73	-39.2	-41.4	16.6	0.00e+00	0	55	0	303038464	50	4510
2026-01-06 22:48:12.89	44.66	21.83	-39.3	-41.5	16.6	0.00e+00	0	55	0	305135616	50	4547
2026-01-06 22:48:13.90	44.84	21.94	-39.3	-41.5	16.5	0.00e+00	0	55	0	307232768	50	4588
2026-01-06 22:48:14.91	45.01	22.05	-39.3	-41.5	16.5	0.00e+00	0	55	0	309329920	50	4556
2026-01-06 22:48:15.92	45.19	22.16	-39.2	-41.4	16.6	0.00e+00	0	55	0	310378496	50	4528
2026-01-06 22:48:16.93	45.37	22.26	-39.3	-41.5	16.5	0.00e+00	0	55	0	312475648	50	4591
2026-01-06 22:48:17.94	45.55	22.37	-39.3	-41.5	16.5	0.00e+00	0	55	0	314572800	50	4577
2026-01-06 22:48:18.95	45.74	22.48	-39.3	-41.5	16.6	0.00e+00	0	55	0	316669952	50	4551
2026-01-06 22:48:19.96	45.92	22.59	-39.5	-41.7	16.3	0.00e+00	0	56	0	318767104	50	4701
2026-01-06 22:48:20.97	46.11	22.70	-39.4	-41.7	16.3	0.00e+00	0	55	0	319815680	50	4677
2026-01-06 22:48:21.98	46.29	22.80	-39.4	-41.6	16.5	0.00e+00	0	55	0	321912832	50	4619
2026-01-06 22:48:22.99	46.48	22.91	-39.6	-41.9	16.1	0.00e+00	0	55	0	324009984	50	4801
2026-01-06 22:48:24.00	46.67	23.02	-39.4	-41.7	16.3	0.00e+00	0	55	0	326107136	50	4668
2026-01-06 22:48:25.01	46.86	23.13	-39.5	-41.8	16.2	0.00e+00	0	55	0	328204288	50	4730
2026-01-06 22:48:26.02	47.05	23.24	-39.4	-41.7	16.4	0.00e+00	0	55	0	329252864	50	4657
2026-01-06 22:48:27.03	47.24	23.35	-39.4	-41.7	16.4	0.00e+00	0	55	0	331350016	50	4664
2026-01-06 22:48:28.04	47.44	23.46	-39.3	-41.5	16.5	0.00e+00	0	55	0	333447168	50	4567
2026-01-06 22:48:29.05	47.63	23.57	-39.5	-41.7	16.3	0.00e+00	0	56	0	335544320	50	4701
2026-01-06 22:48:30.06	47.83	23.68	-39.4	-41.6	16.4	0.00e+00	0	56	0	337641472	50	4634
2026-01-06 22:48:31.07	48.03	23.79	-39.3	-41.5	16.6	0.00e+00	0	56	0	338690048	50	4551
2026-01-06 22:48:32.08	48.23	23.90	-39.4	-41.6	16.4	0.00e+00	0	55	0	340787200	50	4650
2026-01-06 22:48:33.09	48.43	24.00	-39.3	-41.5	16.6	0.00e+00	0	56	0	342884352	50	4546
2026-01-06 22:48:34.10	48.63	24.11	-39.3	-41.5	16.6	0.00e+00	0	56	0	344981504	50	4565
2026-01-06 22:48:35.10	48.83	24.22	-39.1	-41.2	16.8	0.00e+00	0	55	0	347078656	50	4423
2026-01-06 22:48:36.11	49.04	24.33	-39.1	-41.2	16.7	0.00e+00	0	55	0	349175808	50	4429
2026-01-06 22:48:37.12	49.24	24.44	-39.1	-41.3	16.7	0.00e+00	0	55	0	350224384	50	4458
2026-01-06 22:48:38.13	49.45	24.55	-39.0	-41.1	16.9	0.00e+00	0	55	0	352321536	50	4390
2026-01-06 22:48:39.14	49.66	24.66	-39.1	-41.2	16.8	0.00e+00	0	55	0	354418688	50	4425
2026-01-06 22:48:40.15	49.87	24.78	-39.3	-41.5	16.5	0.00e+00	0	55	0	356515840	50	4567
2026-01-06 22:48:41.16	50.08	24.89	-39.4	-41.7	16.4	0.00e+00	0	55	0	357564416	50	4666
2026-01-06 22:48:42.17	50.30	25.00	-39.5	-41.8	16.4	0.00e+00	0	55	0	359661568	50	4710
2026-01-06 22:48:43.18	50.51	25.11	-39.6	-41.9	16.1	0.00e+00	0	56	0	361758720	50	4799
2026-01-06 22:48:44.19	50.73	25.22	-39.7	-42.0	16.2	0.00e+00	0	56	0	363855872	50	4838
2026-01-06 22:48:45.20	50.95	25.33	-39.5	-41.7	16.3	0.00e+00	0	56	0	365953024	50	4689
2026-01-06 22:48:46.22	51.17	25.44	-39.5	-41.8	16.3	0.00e+00	0	56	0	368050176	50	4752
2026-01-06 22:48:47.23	51.39	25.55	-39.6	-41.9	16.2	0.00e+00	0	56	0	369098752	50	4791
2026-01-06 22:48:48.24	51.61	25.66	-39.6	-41.9	16.2	0.00e+00	0	56	0	371195904	50	4792
2026-01-06 22:48:49.24	51.84	25.77	-39.5	-41.8	16.3	0.00e+00	0	56	0	373293056	50	4751
2026-01-06 22:48:50.26	52.06	25.88	-39.5	-41.8	16.3	0.00e+00	0	55	0	375390208	50	4728
2026-01-06 22:48:51.26	52.29	25.99	-39.5	-41.8	16.3	0.00e+00	0	56	0	377487360	50	4719
2026-01-06 22:48:52.27	52.52	26.10	-39.5	-41.8	16.3	0.00e+00	0	55	0	378535936	50	4736
2026-01-06 22:48:53.28	52.75	26.21	-39.6	-41.8	16.3	0.00e+00	0	56	0	380633088	50	4738
2026-01-06 22:48:54.30	52.98	26.33	-39.7	-42.0	16.1	0.00e+00	0	56	0	382730240	50	4827
2026-01-06 22:48:55.31	53.22	26.44	-39.7	-42.1	16.1	0.00e+00	0	56	0	384827392	50	4882
2026-01-06 22:48:56.32	53.45	26.55	-39.9	-42.3	15.8	0.00e+00	0	55	0	386924544	50	5037
2026-01-06 22:48:57.33	53.69	26.66	-39.8	-42.2	16.0	0.00e+00	0	56	0	387973120	50	4934
2026-01-06 22:48:58.34	53.93	26.77	-39.7	-42.1	16.1	0.00e+00	0	56	0	390070272	50	4891
2026-01-06 22:48:59.35	54.17	26.88	-39.8	-42.1	16.1	0.00e+00	0	56	0	392167424	50	4910
2026-01-06 22:49:00.36	54.41	26.99	-39.9	-42.3	15.9	0.00e+00	0	56	0	394264576	50	5003
2026-01-06 22:49:01.37	54.65	27.10	-39.8	-42.2	15.9	0.00e+00	0	56	0	396361728	50	4957
2026-01-06 22:49:02.38	54.90	27.21	-40.0	-42.4	15.7	0.00e+00	0	56	0	397410304	50	5092
2026-01-06 22:49:03.39	55.14	27.32	-40.1	-42.7	15.5	0.00e+00	0	56	0	399507456	51	4928
2026-01-06 22:49:04.39	55.39	27.43	-40.2	-42.7	15.5	0.00e+00	0	56	0	401604608	51	4954
2026-01-06 22:49:05.40	55.64	27.54	-40.3	-42.8	15.3	0.00e+00	0	56	0	403701760	51	5023
2026-01-06 22:49:06.41	55.89	27.65	-40.4	-43.0	15.1	1.50e-06	0	56	0	405798912	51	5146
2026-01-06 22:49:07.42	56.14	27.76	-40.5	-43.2	14.9	0.00e+00	0	56	0	406847488	51	5259
2026-01-06 22:49:08.43	56.40	27.87	-40.6	-43.3	14.9	0.00e+00	0	56	0	408944640	51	5310
2026-01-06 22:49:09.44	56.66	27.98	-40.7	-43.6	14.6	0.00e+00	0	56	0	411041792	52	5172
2026-01-06 22:49:10.45	56.92	28.09	-40.7	-43.6	14.5	0.00e+00	0	55	0	413138944	52	5163
2026-01-06 22:49:11.46	57.18	28.20	-40.7	-43.6	14.5	2.20e-06	0	56	0	415236096	52	5203
2026-01-06 22:49:12.47	57.44	28.31	-40.6	-43.5	14.7	7.00e-07	0	56	0	417333248	52	5104
2026-01-06 22:49:13.48	57.70	28.41	-40.7	-43.5	14.6	0.00e+00	0	56	0	418381824	52	5138
2026-01-06 22:49:14.49	57.97	28.52	-40.7	-43.5	14.6	7.00e-07	0	56	0	420478976	52	5156
2026-01-06 22:49:15.50	58.24	28.63	-40.7	-43.6	14.5	0.00e+00	0	56	0	422576128	52	5195
2026-01-06 22:49:16.51	58.50	28.74	-41.0	-44.1	14.0	1.50e-06	0	56	0	424673280	52	5472
2026-01-06 22:49:17.52	58.78	28.85	-41.3	-44.6	13.5	6.10e-06	0	56	0	426770432	53	5493
2026-01-06 22:49:18.53	59.05	28.95	-41.4	-44.8	13.3	2.59e-05	0	56	0	427819008	53	5624
2026-01-06 22:49:19.53	59.32	29.06	-41.6	-45.2	12.8	2.44e-05	0	55	0	429916160	54	5546
2026-01-06 22:49:20.55	59.60	29.17	-41.8	-45.5	12.6	8.39e-05	0	56	0	432013312	54	5739
2026-01-06 22:49:21.56	59.88	29.27	-41.9	-45.7	12.4	1.27e-04	0	56	0	434110464	54	5863
2026-01-06 22:49:22.57	60.16	29.38	-41.9	-45.6	12.5	1.52e-04	0	56	0	436207616	54	5813
2026-01-06 22:49:23.57	60.44	29.48	-41.7	-45.3	12.7	8.46e-05	0	56	0	437256192	54	5649
2026-01-06 22:49:24.58	60.72	29.59	-41.9	-45.6	12.5	7.62e-05	0	56	0	439353344	54	5816
2026-01-06 22:49:25.59	61.01	29.70	-41.8	-45.5	12.7	9.76e-05	0	56	0	441450496	54	5747
2026-01-06 22:49:26.60	61.29	29.80	-41.8	-45.5	12.6	7.70e-05	0	56	0	443547648	54	5752
2026-01-06 22:49:27.61	61.58	29.90	-42.0	-45.8	12.2	1.27e-04	0	56	0	445644800	54	5983
2026-01-06 22:49:28.62	61.87	30.01	-42.1	-46.0	12.1	2.30e-04	0	56	0	446693376	54	6101
2026-01-06 22:49:29.63	62.17	30.11	-42.0	-45.8	12.3	1.89e-04	0	56	0	448790528	54	5975
2026-01-06 22:49:30.64	62.46	30.21	-42.1	-46.1	12.0	1.79e-04	0	56	0	450887680	54	6161
2026-01-06 22:49:31.65	62.76	30.32	-42.3	-46.5	11.6	3.33e-04	0	56	0	452984832	55	6072
2026-01-06 22:49:32.66	63.06	30.42	-42.5	-46.8	11.2	4.00e-04	0	56	0	455081984	55	6324
2026-01-06 22:49:33.67	63.36	30.52	-42.6	-47.1	11.0	1.70e-03	0	56	0	456130560	55	6523
2026-01-06 22:49:34.68	63.66	30.62	-42.6	-47.2	10.9	1.94e-03	0	56	0	458227712	55	6576
2026-01-06 22:49:35.69	63.96	30.72	-42.7	-47.2	10.9	2.39e-03	0	56	0	460324864	56	6247
2026-01-06 22:49:36.70	64.27	30.82	-42.5	-46.7	11.6	1.34e-03	0	56	0	462422016	56	5880
2026-01-06 22:49:37.71	64.58	30.92	-42.5	-46.6	11.6	7.70e-04	0	56	0	464519168	56	5832
2026-01-06 22:49:38.72	64.89	31.02	-42.4	-46.5	11.8	5.47e-04	0	56	0	465567744	56	5740
2026-01-06 22:49:39.73	65.20	31.12	-42.5	-46.7	11.6	6.23e-04	0	56	0	467664896	56	5890
2026-01-06 22:49:40.74	65.51	31.22	-42.6	-47.0	11.3	7.18e-04	0	56	0	469762048	56	6091
2026-01-06 22:49:41.75	65.83	31.32	-42.8	-47.2	11.0	1.57e-03	0	56	0	471859200	56	6265
2026-01-06 22:49:42.76	66.14	31.41	-42.7	-47.2	11.1	2.04e-03	0	56	0	473956352	56	6269
2026-01-06 22:49:43.77	66.46	31.51	-42.7	-47.1	11.2	1.84e-03	0	56	0	475004928	56	6162
2026-01-06 22:49:44.78	66.78	31.60	-42.5	-46.7	11.6	8.99e-04	0	56	0	477102080	56	5874
2026-01-06 22:49:45.78	67.10	31.70	-42.5	-46.8	11.4	4.81e-04	0	56	0	479199232	56	5949
2026-01-06 22:49:46.79	67.43	31.79	-42.3	-46.4	11.9	4.10e-04	0	56	0	481296384	56	5664
2026-01-06 22:49:47.80	67.75	31.89	-42.1	-45.8	12.5	2.80e-04	0	56	0	483393536	56	5300
2026-01-06 22:49:48.81	68.08	31.98	-41.4	-44.7	13.4	3.28e-05	0	56	0	485490688	54	5249
2026-01-06 22:49:49.82	68.41	32.07	-41.3	-44.5	13.7	8.30e-06	0	56	0	486539264	54	5117
2026-01-06 22:49:50.83	68.74	32.16	-41.3	-44.5	13.8	9.90e-06	0	56	0	488636416	54	5106
2026-01-06 22:49:51.84	69.08	32.25	-41.6	-45.0	13.2	6.10e-06	0	56	0	490733568	54	5413
2026-01-06 22:49:52.85	69.41	32.34	-42.0	-45.9	12.4	7.24e-05	0	56	0	492830720	54	5993
2026-01-06 22:49:53.86	69.75	32.43	-42.5	-46.9	11.4	4.94e-04	0	56	0	493879296	55	6374
2026-01-06 22:49:54.87	70.09	32.52	-42.7	-47.0	11.2	1.64e-03	0	56	0	495976448	56	6106
2026-01-06 22:49:55.88	70.43	32.61	-42.7	-47.1	11.2	1.87e-03	0	56	0	498073600	56	6151
2026-01-06 22:49:56.89	70.78	32.69	-42.5	-46.7	11.6	1.30e-03	0	56	0	500170752	56	5888
2026-01-06 22:49:57.90	71.12	32.78	-42.3	-46.2	12.2	6.35e-04	0	56	0	502267904	56	5542
2026-01-06 22:49:58.91	71.47	32.86	-41.8	-45.5	12.7	6.56e-05	0	56	0	504365056	55	5408
2026-01-06 22:49:59.92	71.82	32.95	-41.5	-44.9	13.3	2.44e-05	0	56	0	505413632	55	5055
2026-01-06 22:50:00.93	72.17	33.03	-41.7	-45.1	13.1	1.22e-05	0	56	0	507510784	54	5494
2026-01-06 22:50:01.94	72.52	33.11	-42.0	-45.8	12.5	7.70e-05	0	56	0	509607936	54	5937
2026-01-06 22:50:02.95	72.87	33.19	-42.3	-46.4	11.8	4.54e-04	0	56	0	511705088	55	6001
2026-01-06 22:50:03.96	73.23	33.27	-42.7	-47.3	10.9	1.60e-03	0	56	0	513802240	55	6694
2026-01-06 22:50:04.98	73.59	33.35	-42.9	-47.6	10.6	2.36e-03	0	56	0	514850816	56	6554
2026-01-06 22:50:05.99	73.95	33.43	-42.7	-47.1	11.2	1.91e-03	0	56	0	516947968	56	6184
2026-01-06 22:50:07.00	74.31	33.51	-42.6	-46.9	11.5	1.17e-03	0	56	0	519045120	56	6049
2026-01-06 22:50:08.01	74.67	33.58	-42.8	-47.4	10.8	1.42e-03	0	56	0	521142272	56	6364
2026-01-06 22:50:09.02	75.03	33.66	-43.0	-48.0	10.3	5.37e-03	0	56	0	523239424	56	6830
2026-01-06 22:50:10.03	75.40	33.73	-43.1	-48.0	10.3	6.76e-03	0	56	0	524288000	56	6864
2026-01-06 22:50:11.04	75.77	33.80	-43.0	-47.9	10.4	5.08e-03	0	56	0	526385152	56	6746
2026-01-06 22:50:12.04	76.13	33.87	-43.0	-48.0	10.3	5.28e-03	0	56	0	528482304	56	6868
2026-01-06 22:50:13.05	76.50	33.94	-43.1	-48.3	10.0	8.32e-03	0	56	0	530579456	56	7047
2026-01-06 22:50:14.06	76.87	34.01	-43.4	-48.9	9.3	9.31e-03	0	56	0	532676608	57	7177
2026-01-06 22:50:15.07	77.25	34.08	-43.5	-49.2	9.2	1.72e-02	0	56	0	533725184	57	7437
2026-01-06 22:50:16.08	77.62	34.15	-43.3	-48.6	9.7	1.90e-02	0	56	0	535822336	57	6881
2026-01-06 22:50:17.09	78.00	34.21	-43.0	-47.8	10.5	9.24e-03	0	56	0	537919488	57	6329
2026-01-06 22:50:18.10	78.38	34.28	-42.7	-47.0	11.3	1.96e-03	0	56	0	540016640	57	5762
2026-01-06 22:50:19.11	78.76	34.34	-42.6	-46.7	11.6	9.03e-04	0	56	0	542113792	57	5582
2026-01-06 22:50:20.12	79.14	34.40	-42.9	-47.4	11.0	1.37e-03	0	56	0	543162368	57	6007
2026-01-06 22:50:21.13	79.52	34.46	-43.1	-47.9	10.3	3.05e-03	0	56	0	545259520	57	6412
2026-01-06 22:50:22.14	79.90	34.52	-42.9	-47.6	10.7	3.63e-03	0	56	0	547356672	57	6147
2026-01-06 22:50:23.15	80.29	34.58	-42.4	-46.5	11.7	1.18e-03	0	56	0	549453824	57	5421
2026-01-06 22:50:24.16	80.67	34.64	-42.2	-46.0	12.3	3.38e-04	0	56	0	551550976	56	5464
2026-01-06 22:50:25.17	81.06	34.69	-42.2	-46.0	12.4	1.94e-04	0	56	0	553648128	56	5422
2026-01-06 22:50:26.18	81.45	34.74	-42.6	-46.7	11.6	3.70e-04	0	56	0	554696704	56	5902
2026-01-06 22:50:27.19	81.84	34.80	-43.0	-47.7	10.5	1.47e-03	0	56	0	556793856	56	6604
2026-01-06 22:50:28.20	82.23	34.85	-42.6	-46.9	11.5	1.30e-03	0	56	0	558891008	56	5998
2026-01-06 22:50:29.21	82.63	34.90	-42.4	-46.3	12.0	3.49e-04	0	56	0	560988160	56	5612
2026-01-06 22:50:30.21	83.02	34.95	-42.3	-46.0	12.3	2.16e-04	0	56	0	563085312	56	5461
2026-01-06 22:50:31.22	83.41	34.99	-42.4	-46.3	12.1	2.20e-04	0	56	0	564133888	56	5648
2026-01-06 22:50:32.23	83.81	35.04	-42.4	-46.4	11.9	3.58e-04	0	56	0	566231040	56	5711
2026-01-06 22:50:33.24	84.21	35.08	-42.6	-46.8	11.6	8.23e-04	0	56	0	568328192	56	5930
2026-01-06 22:50:34.25	84.60	35.13	-42.5	-46.6	11.7	5.62e-04	0	56	0	570425344	56	5803
2026-01-06 22:50:35.26	85.00	35.17	-42.7	-46.9	11.5	6.65e-04	0	56	0	571473920	56	5995
2026-01-06 22:50:36.27	85.40	35.21	-42.7	-46.9	11.5	1.05e-03	0	56	0	573571072	56	5993
2026-01-06 22:50:37.28	85.81	35.25	-42.7	-46.9	11.4	9.65e-04	0	56	0	575668224	56	6026
2026-01-06 22:50:38.29	86.21	35.28	-42.6	-46.8	11.5	8.60e-04	0	56	0	577765376	56	5990
2026-01-06 22:50:39.30	86.61	35.32	-42.5	-46.6	11.9	4.32e-04	0	56	0	579862528	56	5796
2026-01-06 22:50:40.31	87.02	35.35	-42.8	-47.1	11.2	7.03e-04	0	56	0	581959680	56	6184
2026-01-06 22:50:41.32	87.42	35.38	-43.0	-47.6	10.8	2.44e-03	0	56	0	583008256	56	6515
2026-01-06 22:50:42.33	87.83	35.41	-43.2	-48.2	10.0	5.97e-03	0	56	0	585105408	57	6644
2026-01-06 22:50:43.34	88.23	35.44	-43.1	-48.0	10.3	5.70e-03	0	56	0	587202560	57	6443
2026-01-06 22:50:44.35	88.64	35.47	-42.9	-47.6	10.8	3.52e-03	0	56	0	589299712	57	6167
2026-01-06 22:50:45.36	89.05	35.50	-42.9	-47.6	10.7	3.14e-03	0	56	0	591396864	57	6170
2026-01-06 22:50:46.37	89.46	35.52	-43.2	-48.3	9.9	5.17e-03	0	56	0	592445440	57	6704
2026-01-06 22:50:47.38	89.86	35.54	-43.1	-47.9	10.3	6.73e-03	0	56	0	594542592	57	6401
2026-01-06 22:50:48.39	90.27	35.56	-43.1	-47.9	10.4	5.15e-03	0	56	0	596639744	57	6381
2026-01-06 22:50:49.40	90.68	35.58	-42.9	-47.5	10.8	3.90e-03	0	56	0	598736896	57	6124
2026-01-06 22:50:50.41	91.10	35.60	-42.6	-46.8	11.6	1.46e-03	0	56	0	600834048	57	5594
2026-01-06 22:50:51.42	91.51	35.62	-42.6	-46.8	11.4	8.56e-04	0	56	0	601882624	57	5633
2026-01-06 22:50:52.43	91.92	35.63	-42.7	-47.1	11.2	1.02e-03	0	56	0	603979776	57	5802
2026-01-06 22:50:53.44	92.33	35.65	-43.1	-47.9	10.3	2.95e-03	0	56	0	606076928	57	6399
2026-01-06 22:50:54.45	92.74	35.66	-43.4	-48.9	9.3	1.10e-02	0	56	0	608174080	57	7175
2026-01-06 22:50:55.46	93.15	35.67	-43.3	-48.5	9.7	1.50e-02	0	56	0	610271232	57	6864
2026-01-06 22:50:56.47	93.57	35.68	-43.1	-48.0	10.2	7.85e-03	0	56	0	611319808	57	6487
2026-01-06 22:50:57.48	93.98	35.68	-43.1	-48.1	10.2	6.36e-03	0	56	0	613416960	57	6527
2026-01-06 22:50:58.49	94.39	35.69	-42.5	-46.6	11.6	2.14e-03	0	56	0	615514112	57	5528
2026-01-06 22:50:59.51	94.81	35.69	-42.1	-45.8	12.5	3.16e-04	0	56	0	617611264	56	5313
2026-01-06 22:51:00.52	95.22	35.69	-41.6	-44.9	13.3	3.12e-05	0	56	0	619708416	55	5084
2026-01-06 22:51:01.53	95.64	35.69	-41.4	-44.6	13.6	1.14e-05	0	56	0	621805568	54	5198
2026-01-06 22:51:02.54	96.05	35.69	-41.3	-44.4	13.8	6.80e-06	0	56	0	622854144	54	5080
2026-01-06 22:51:03.55	96.46	35.69	-41.2	-44.2	14.0	6.10e-06	0	56	0	624951296	54	4965
2026-01-06 22:51:04.56	96.88	35.68	-41.4	-44.6	13.6	6.10e-06	0	56	0	627048448	54	5188
2026-01-06 22:51:05.57	97.29	35.68	-41.9	-45.5	12.7	2.21e-05	0	56	0	629145600	54	5765
2026-01-06 22:51:06.58	97.70	35.67	-42.6	-46.9	11.3	2.75e-04	0	56	0	631242752	55	6384
2026-01-06 22:51:07.59	98.11	35.66	-43.3	-48.6	9.6	6.92e-03	0	56	0	632291328	57	6938
2026-01-06 22:51:08.60	98.53	35.65	-43.6	-49.4	8.8	3.30e-02	0	56	0	634388480	57	7596
2026-01-06 22:51:09.61	98.94	35.63	-43.3	-48.6	9.6	2.76e-02	0	56	0	636485632	57	6935
2026-01-06 22:51:10.62	99.35	35.62	-42.6	-46.9	11.3	2.53e-03	0	56	0	638582784	57	5683
2026-01-06 22:51:11.63	99.76	35.60	-42.4	-46.4	12.0	6.31e-04	0	56	0	640679936	56	5695
2026-01-06 22:51:12.64	100.17	35.59	-42.5	-46.6	11.7	3.11e-04	0	56	0	641728512	56	5837
2026-01-06 22:51:13.65	100.58	35.57	-42.7	-47.0	11.3	1.06e-03	0	56	0	643825664	56	6090
2026-01-06 22:51:14.66	100.99	35.55	-42.7	-46.9	11.4	1.40e-03	0	56	0	645922816	56	6030
2026-01-06 22:51:15.67	101.40	35.52	-42.3	-46.1	12.3	6.06e-04	0	56	0	648019968	56	5475
2026-01-06 22:51:16.68	101.81	35.50	-42.4	-46.2	12.1	2.39e-04	0	56	0	650117120	56	5574
2026-01-06 22:51:17.69	102.22	35.47	-42.7	-47.0	11.3	7.41e-04	0	56	0	651165696	56	6131
2026-01-06 22:51:18.70	102.63	35.45	-43.2	-48.2	10.1	1.86e-03	0	56	0	653262848	56	6961
2026-01-06 22:51:19.71	103.03	35.42	-43.5	-49.0	9.1	1.20e-02	0	56	0	655360000	57	7272
2026-01-06 22:51:20.72	103.44	35.39	-43.3	-48.5	9.7	2.32e-02	0	56	0	657457152	57	6816
2026-01-06 22:51:21.73	103.84	35.35	-43.0	-47.7	10.5	8.36e-03	0	56	0	659554304	57	6228
2026-01-06 22:51:22.74	104.25	35.32	-42.7	-46.9	11.4	1.94e-03	0	56	0	660602880	57	5681
2026-01-06 22:51:23.75	104.65	35.29	-42.7	-47.1	11.3	9.43e-04	0	57	0	662700032	57	5808
2026-01-06 22:51:24.75	105.05	35.25	-43.0	-47.7	10.5	2.25e-03	0	56	0	664797184	57	6207
2026-01-06 22:51:25.76	105.45	35.21	-43.3	-48.6	9.6	8.29e-03	0	56	0	666894336	57	6935
2026-01-06 22:51:26.77	105.86	35.17	-43.2	-48.1	10.1	8.08e-03	0	56	0	668991488	57	6517
2026-01-06 22:51:27.78	106.26	35.13	-43.0	-47.7	10.6	4.34e-03	0	56	0	670040064	57	6251
2026-01-06 22:51:28.80	106.66	35.09	-43.2	-48.1	10.3	3.18e-03	0	56	0	672137216	57	6503
2026-01-06 22:51:29.81	107.06	35.04	-43.6	-49.3	8.9	1.94e-02	0	57	0	674234368	57	7531
2026-01-06 22:51:30.82	107.45	35.00	-43.7	-49.6	8.5	4.58e-02	0	56	0	676331520	58	7368
2026-01-06 22:51:31.83	107.85	34.95	-43.5	-49.1	9.1	4.17e-02	0	56	0	678428672	58	6948
2026-01-06 22:51:32.83	108.24	34.90	-43.4	-48.8	9.3	2.16e-02	0	57	0	679477248	58	6705
2026-01-06 22:51:33.84	108.63	34.85	-43.5	-48.9	9.3	1.50e-02	0	56	0	681574400	58	6791
2026-01-06 22:51:34.85	109.03	34.80	-43.6	-49.2	8.9	1.52e-02	0	56	0	683671552	58	7030
2026-01-06 22:51:35.86	109.42	34.75	-43.8	-50.1	8.1	5.17e-02	0	56	0	685768704	58	7761
2026-01-06 22:51:36.87	109.81	34.69	-44.1	-51.2	7.1	9.77e-02	0	56	0	687865856	58	8848
2026-01-06 22:51:37.88	110.20	34.64	-43.8	-50.1	8.2	9.31e-02	0	57	0	689963008	58	7735
2026-01-06 22:51:38.89	110.58	34.58	-43.9	-50.3	7.9	5.91e-02	0	57	0	691011584	58	7932
2026-01-06 22:51:39.90	110.97	34.52	-43.8	-50.1	8.1	6.88e-02	0	56	0	693108736	58	7766
2026-01-06 22:51:40.91	111.35	34.47	-43.8	-50.0	8.1	5.21e-02	0	56	0	695205888	58	7698
2026-01-06 22:51:41.92	111.74	34.40	-43.3	-48.3	9.9	3.73e-02	0	56	0	697303040	58	6346
2026-01-06 22:51:42.93	112.12	34.34	-42.8	-47.2	11.1	3.40e-03	0	57	0	699400192	57	5857
2026-01-06 22:51:43.94	112.50	34.28	-42.3	-46.2	12.1	5.35e-04	0	56	0	700448768	56	5565
2026-01-06 22:51:44.95	112.88	34.22	-42.1	-45.6	12.7	7.01e-05	0	57	0	702545920	56	5216
2026-01-06 22:51:45.96	113.26	34.15	-42.1	-45.7	12.5	1.23e-04	0	57	0	704643072	56	5250
2026-01-06 22:51:46.97	113.63	34.08	-41.8	-45.3	12.8	6.71e-05	0	56	0	706740224	55	5329
2026-01-06 22:51:47.99	114.01	34.01	-41.8	-45.3	12.8	1.16e-04	0	56	0	708837376	55	5326
2026-01-06 22:51:48.99	114.38	33.95	-41.6	-44.9	13.2	3.50e-05	0	56	0	709885952	55	5083
2026-01-06 22:51:50.00	114.75	33.88	-41.8	-45.4	12.9	3.35e-05	0	57	0	711983104	55	5348
2026-01-06 22:51:51.01	115.12	33.80	-42.2	-46.1	12.0	1.33e-04	0	56	0	714080256	55	5837
2026-01-06 22:51:52.02	115.49	33.73	-42.6	-47.0	11.2	1.28e-03	0	57	0	716177408	55	6460
2026-01-06 22:51:53.03	115.86	33.66	-42.8	-47.2	11.1	2.91e-03	0	56	0	718274560	56	6238
2026-01-06 22:51:54.04	116.22	33.58	-42.7	-47.0	11.3	2.94e-03	0	56	0	719323136	56	6095
2026-01-06 22:51:55.05	116.58	33.51	-42.2	-45.9	12.4	7.80e-04	0	57	0	721420288	56	5369
2026-01-06 22:51:56.06	116.95	33.43	-42.2	-45.9	12.4	1.36e-04	0	56	0	723517440	56	5368
2026-01-06 22:51:57.07	117.31	33.35	-42.6	-46.7	11.6	3.98e-04	0	56	0	725614592	56	5871
2026-01-06 22:51:58.08	117.66	33.27	-42.6	-46.8	11.5	8.12e-04	0	57	0	727711744	56	5985
2026-01-06 22:51:59.09	118.02	33.19	-42.6	-46.8	11.5	7.97e-04	0	56	0	728760320	56	5945
2026-01-06 22:52:00.10	118.38	33.11	-41.8	-45.3	12.9	4.42e-04	0	56	0	730857472	55	5301
2026-01-06 22:52:01.11	118.73	33.03	-41.4	-44.6	13.6	5.26e-05	0	57	0	732954624	54	5163
2026-01-06 22:52:02.12	119.08	32.95	-41.1	-44.2	14.0	2.20e-06	0	57	0	735051776	54	4927
2026-01-06 22:52:03.13	119.43	32.86	-41.1	-44.1	14.1	7.00e-07	0	57	0	737148928	54	4878
2026-01-06 22:52:04.14	119.78	32.78	-41.6	-45.0	13.2	5.30e-06	0	57	0	738197504	54	5444
2026-01-06 22:52:05.15	120.12	32.69	-41.7	-45.2	12.9	5.18e-05	0	57	0	740294656	54	5533
2026-01-06 22:52:06.16	120.47	32.60	-41.5	-44.7	13.5	4.04e-05	0	56	0	742391808	54	5246
2026-01-06 22:52:07.17	120.81	32.52	-41.4	-44.7	13.5	8.30e-06	0	57	0	744488960	54	5226
2026-01-06 22:52:08.18	121.15	32.43	-41.8	-45.5	12.9	1.60e-05	0	56	0	746586112	54	5729
2026-01-06 22:52:09.19	121.49	32.34	-42.5	-46.8	11.4	3.97e-04	0	56	0	747634688	55	6288
2026-01-06 22:52:10.20	121.83	32.25	-43.3	-48.7	9.5	7.66e-03	0	57	0	749731840	57	6977
2026-01-06 22:52:11.21	122.16	32.16	-43.5	-49.4	8.7	3.66e-02	0	56	0	751828992	57	7608
2026-01-06 22:52:12.22	122.49	32.07	-42.5	-46.6	11.5	3.71e-03	0	57	0	753926144	57	5505
2026-01-06 22:52:13.23	122.82	31.97	-40.6	-43.2	14.8	2.74e-05	0	56	0	756023296	53	4700
2026-01-06 22:52:14.23	123.15	31.88	-39.8	-42.0	16.1	0.00e+00	0	57	0	758120448	51	4590
2026-01-06 22:52:15.24	123.48	31.79	-39.9	-42.2	16.0	0.00e+00	0	57	0	759169024	51	4673
2026-01-06 22:52:16.25	123.80	31.69	-40.4	-43.0	15.2	0.00e+00	0	56	0	761266176	51	5157
2026-01-06 22:52:17.26	124.13	31.60	-40.8	-43.7	14.5	7.00e-07	0	56	0	763363328	52	5232
2026-01-06 22:52:18.27	124.45	31.50	-40.9	-43.8	14.3	2.20e-06	0	57	0	765460480	52	5335
2026-01-06 22:52:19.28	124.77	31.41	-40.3	-42.9	15.3	0.00e+00	0	57	0	767557632	52	4761
2026-01-06 22:52:20.29	125.09	31.31	-40.1	-42.4	15.8	0.00e+00	0	57	0	768606208	51	4814
2026-01-06 22:52:21.30	125.41	31.21	-40.0	-42.4	15.8	0.00e+00	0	57	0	770703360	51	4785
2026-01-06 22:52:22.31	125.72	31.11	-40.4	-43.0	15.3	0.00e+00	0	57	0	772800512	51	5105
2026-01-06 22:52:23.32	126.03	31.01	-40.8	-43.7	14.4	7.00e-07	0	57	0	774897664	52	5253
2026-01-06 22:52:24.33	126.34	30.91	-40.8	-43.6	14.5	1.50e-06	0	57	0	776994816	52	5196
2026-01-06 22:52:25.34	126.65	30.81	-40.4	-43.1	15.1	0.00e+00	0	57	0	778043392	52	4879
2026-01-06 22:52:26.35	126.96	30.71	-39.8	-42.1	16.1	0.00e+00	0	57	0	780140544	51	4631
2026-01-06 22:52:27.36	127.26	30.61	-39.5	-41.7	16.6	0.00e+00	0	56	0	782237696	50	4677
2026-01-06 22:52:28.37	127.57	30.51	-39.8	-42.1	16.2	0.00e+00	0	56	0	784334848	50	4882
2026-01-06 22:52:29.38	127.87	30.41	-40.6	-43.3	14.9	0.00e+00	0	56	0	786432000	51	5328
2026-01-06 22:52:30.39	128.17	30.30	-41.4	-44.7	13.4	3.00e-06	0	57	0	787480576	53	5592
2026-01-06 22:52:31.40	128.47	30.20	-41.3	-44.6	13.5	1.60e-05	0	56	0	789577728	53	5488
2026-01-06 22:52:32.41	128.76	30.10	-40.7	-43.5	14.6	3.00e-06	0	57	0	791674880	53	4841
2026-01-06 22:52:33.42	129.06	29.99	-39.7	-42.0	16.2	0.00e+00	0	56	0	793772032	51	4572
2026-01-06 22:52:34.43	129.35	29.89	-39.5	-41.7	16.4	0.00e+00	0	56	0	795869184	51	4432
2026-01-06 22:52:35.44	129.64	29.78	-39.9	-42.3	15.9	0.00e+00	0	57	0	796917760	50	4995
2026-01-06 22:52:36.45	129.93	29.68	-40.8	-43.6	14.5	7.00e-07	0	57	0	799014912	52	5207
2026-01-06 22:52:37.46	130.21	29.57	-41.0	-44.0	14.1	2.20e-06	0	56	0	801112064	52	5456
2026-01-06 22:52:38.47	130.50	29.47	-40.8	-43.8	14.4	1.50e-06	0	56	0	803209216	52	5288
2026-01-06 22:52:39.48	130.78	29.36	-40.5	-43.2	14.8	0.00e+00	0	57	0	805306368	52	4967
2026-01-06 22:52:40.49	131.06	29.25	-40.0	-42.4	15.8	0.00e+00	0	57	0	806354944	51	4785
2026-01-06 22:52:41.50	131.34	29.15	-40.5	-43.1	15.0	0.00e+00	0	57	0	808452096	51	5217
2026-01-06 22:52:42.51	131.62	29.04	-40.8	-43.8	14.3	7.00e-07	0	56	0	810549248	52	5295
2026-01-06 22:52:43.52	131.89	28.93	-41.6	-45.1	13.0	2.20e-06	0	57	0	812646400	53	5794
2026-01-06 22:52:44.53	132.17	28.82	-41.8	-45.5	12.5	1.27e-04	0	57	0	814743552	54	5767
2026-01-06 22:52:45.54	132.44	28.72	-41.4	-44.7	13.4	4.27e-05	0	57	0	815792128	54	5236
2026-01-06 22:52:46.55	132.71	28.61	-40.8	-43.7	14.4	2.20e-06	0	57	0	817889280	53	4933
2026-01-06 22:52:47.56	132.98	28.50	-40.4	-43.0	15.1	7.00e-07	0	56	0	819986432	52	4858
2026-01-06 22:52:48.57	133.25	28.39	-40.4	-43.1	15.0	0.00e+00	0	56	0	822083584	52	4872
2026-01-06 22:52:49.58	133.51	28.28	-40.5	-43.2	14.9	0.00e+00	0	57	0	824180736	52	4950
2026-01-06 22:52:50.59	133.77	28.17	-40.7	-43.6	14.5	1.50e-06	0	57	0	826277888	52	5177
2026-01-06 22:52:51.60	134.03	28.06	-40.3	-43.0	15.1	0.00e+00	0	57	0	827326464	52	4822
2026-01-06 22:52:52.61	134.29	27.95	-39.4	-41.6	16.5	0.00e+00	0	57	0	829423616	50	4601
2026-01-06 22:52:53.62	134.55	27.84	-38.7	-40.7	17.4	0.00e+00	0	56	0	831520768	49	4405
2026-01-06 22:52:54.62	134.81	27.73	-38.6	-40.5	17.6	0.00e+00	0	57	0	833617920	48	4547
2026-01-06 22:52:55.63	135.06	27.62	-38.9	-40.9	17.2	0.00e+00	0	57	0	835715072	48	4781
2026-01-06 22:52:56.64	135.31	27.51	-40.0	-42.4	15.8	0.00e+00	0	57	0	836763648	50	5069
2026-01-06 22:52:57.65	135.56	27.40	-40.8	-43.7	14.4	0.00e+00	0	57	0	838860800	52	5237
2026-01-06 22:52:58.66	135.81	27.29	-40.9	-44.0	14.1	7.00e-07	0	57	0	840957952	52	5405
2026-01-06 22:52:59.67	136.06	27.18	-40.5	-43.2	14.8	3.00e-06	0	57	0	843055104	52	4973
2026-01-06 22:53:00.68	136.31	27.07	-40.1	-42.6	15.4	0.00e+00	0	57	0	845152256	52	4642
2026-01-06 22:53:01.69	136.55	26.96	-39.8	-42.1	16.0	0.00e+00	0	56	0	846200832	51	4625
2026-01-06 22:53:02.70	136.79	26.84	-39.8	-42.1	16.0	0.00e+00	0	57	0	848297984	51	4628
2026-01-06 22:53:03.71	137.03	26.73	-40.0	-42.4	15.8	0.00e+00	0	57	0	850395136	51	4776
2026-01-06 22:53:04.72	137.27	26.62	-40.1	-42.5	15.6	0.00e+00	0	56	0	852492288	51	4838
2026-01-06 22:53:05.73	137.51	26.51	-39.8	-42.1	16.0	0.00e+00	0	57	0	854589440	51	4637
2026-01-06 22:53:06.74	137.75	26.40	-39.3	-41.5	16.6	0.00e+00	0	57	0	855638016	50	4562
2026-01-06 22:53:07.75	137.98	26.29	-39.0	-41.0	17.1	0.00e+00	0	57	0	857735168	49	4563
2026-01-06 22:53:08.75	138.21	26.18	-38.8	-40.8	17.2	0.00e+00	0	57	0	859832320	49	4476
2026-01-06 22:53:09.77	138.45	26.06	-38.7	-40.6	17.5	0.00e+00	0	57	0	861929472	49	4361
2026-01-06 22:53:10.78	138.67	25.95	-38.8	-40.8	17.3	0.00e+00	0	57	0	864026624	49	4450
2026-01-06 22:53:11.78	138.90	25.84	-39.2	-41.4	16.7	0.00e+00	0	57	0	865075200	49	4777
2026-01-06 22:53:12.79	139.13	25.73	-39.5	-41.7	16.4	0.00e+00	0	57	0	867172352	49	4956
2026-01-06 22:53:13.80	139.35	25.62	-39.8	-42.2	15.9	0.00e+00	0	57	0	869269504	50	4954
2026-01-06 22:53:14.81	139.58	25.51	-40.0	-42.4	15.7	0.00e+00	0	57	0	871366656	50	5067
2026-01-06 22:53:15.82	139.80	25.40	-39.8	-42.1	16.1	0.00e+00	0	57	0	873463808	50	4880
2026-01-06 22:53:16.83	140.02	25.28	-39.6	-41.8	16.3	0.00e+00	0	57	0	874512384	50	4733
2026-01-06 22:53:17.84	140.24	25.17	-39.5	-41.7	16.4	0.00e+00	0	57	0	876609536	50	4685
2026-01-06 22:53:18.85	140.45	25.06	-39.6	-41.9	16.3	0.00e+00	0	57	0	878706688	50	4768
2026-01-06 22:53:19.86	140.67	24.95	-39.9	-42.2	15.9	0.00e+00	0	57	0	880803840	50	4965
2026-01-06 22:53:20.87	140.88	24.84	-40.1	-42.5	15.6	0.00e+00	0	57	0	882900992	50	5152
2026-01-06 22:53:21.88	141.10	24.73	-40.1	-42.6	15.6	0.00e+00	0	57	0	883949568	50	5160
2026-01-06 22:53:22.89	141.31	24.62	-40.0	-42.4	15.7	0.00e+00	0	57	0	886046720	50	5069
2026-01-06 22:53:23.90	141.52	24.50	-39.5	-41.8	16.3	0.00e+00	0	57	0	888143872	50	4727
2026-01-06 22:53:24.91	141.73	24.39	-39.2	-41.2	16.8	0.00e+00	0	57	0	890241024	50	4441
2026-01-06 22:53:25.92	141.93	24.28	-38.9	-41.0	17.1	0.00e+00	0	56	0	892338176	49	4557
2026-01-06 22:53:26.93	142.14	24.17	-38.6	-40.6	17.4	0.00e+00	0	57	0	894435328	49	4354
2026-01-06 22:53:27.94	142.34	24.06	-38.5	-40.4	17.7	0.00e+00	0	57	0	895483904	48	4497
2026-01-06 22:53:28.95	142.55	23.95	-38.6	-40.5	17.5	0.00e+00	0	57	0	897581056	48	4586
2026-01-06 22:53:29.96	142.75	23.84	-38.8	-40.8	17.3	0.00e+00	0	56	0	899678208	48	4723
2026-01-06 22:53:30.97	142.95	23.73	-39.1	-41.2	16.9	0.00e+00	0	57	0	901775360	48	4936
2026-01-06 22:53:31.98	143.15	23.62	-39.2	-41.4	16.7	0.00e+00	0	57	0	903872512	49	4781
2026-01-06 22:53:32.99	143.34	23.51	-39.3	-41.5	16.5	0.00e+00	0	57	0	904921088	49	4868
2026-01-06 22:53:34.00	143.54	23.40	-39.3	-41.5	16.5	0.00e+00	0	57	0	907018240	49	4829
2026-01-06 22:53:35.01	143.73	23.29	-39.3	-41.5	16.6	0.00e+00	0	57	0	909115392	49	4840
2026-01-06 22:53:36.02	143.93	23.18	-39.2	-41.3	16.7	0.00e+00	0	57	0	911212544	49	4742
2026-01-06 22:53:37.03	144.12	23.07	-38.9	-40.9	17.1	0.00e+00	0	56	0	913309696	49	4509
2026-01-06 22:53:38.04	144.31	22.96	-38.6	-40.6	17.4	0.00e+00	0	57	0	914358272	49	4359
2026-01-06 22:53:39.05	144.50	22.85	-38.8	-40.8	17.2	0.00e+00	0	57	0	916455424	49	4443
2026-01-06 22:53:40.06	144.69	22.74	-38.8	-40.8	17.2	0.00e+00	0	57	0	918552576	49	4474
2026-01-06 22:53:41.07	144.87	22.63	-39.1	-41.2	16.9	0.00e+00	0	57	0	920649728	49	4658
2026-01-06 22:53:42.08	145.06	22.52	-39.0	-41.1	16.9	0.00e+00	0	57	0	922746880	49	4625
2026-01-06 22:53:43.09	145.24	22.41	-39.3	-41.5	16.6	0.00e+00	0	57	0	923795456	49	4837
2026-01-06 22:53:44.10	145.43	22.30	-39.3	-41.5	16.5	0.00e+00	0	57	0	925892608	49	4860
2026-01-06 22:53:45.11	145.61	22.20	-39.2	-41.4	16.6	0.00e+00	0	57	0	927989760	49	4799
2026-01-06 22:53:46.12	145.79	22.09	-39.1	-41.2	16.8	0.00e+00	0	57	0	930086912	49	4673
2026-01-06 22:53:47.13	145.97	21.98	-39.0	-41.1	16.9	0.00e+00	0	57	0	932184064	49	4603
2026-01-06 22:53:48.14	146.15	21.87	-38.8	-40.8	17.1	0.00e+00	0	56	0	933232640	49	4487
2026-01-06 22:53:49.15	146.32	21.76	-38.8	-40.9	17.1	0.00e+00	0	57	0	935329792	49	4496
2026-01-06 22:53:50.16	146.50	21.66	-38.9	-40.9	17.1	0.00e+00	0	57	0	937426944	49	4532
2026-01-06 22:53:51.17	146.67	21.55	-38.9	-40.9	17.1	0.00e+00	0	57	0	939524096	49	4511
2026-01-06 22:53:52.18	146.85	21.44	-39.0	-41.0	16.9	0.00e+00	0	57	0	941621248	49	4593
2026-01-06 22:53:53.18	147.02	21.34	-39.1	-41.2	16.7	0.00e+00	0	56	0	942669824	49	4704
2026-01-06 22:53:54.19	147.19	21.23	-38.9	-41.0	16.9	0.00e+00	0	57	0	944766976	49	4576
2026-01-06 22:53:55.20	147.36	21.12	-39.2	-41.4	16.6	0.00e+00	0	57	0	946864128	49	4779
2026-01-06 22:53:56.21	147.53	21.02	-39.2	-41.4	16.6	0.00e+00	0	57	0	948961280	49	4780
2026-01-06 22:53:57.22	147.69	20.91	-39.3	-41.4	16.6	0.00e+00	0	57	0	951058432	49	4812
2026-01-06 22:53:58.23	147.86	20.80	-39.4	-41.6	16.3	0.00e+00	0	57	0	952107008	49	4917
2026-01-06 22:53:59.24	148.03	20.70	-39.3	-41.6	16.4	0.00e+00	0	57	0	954204160	49	4882
2026-01-06 22:54:00.25	148.19	20.59	-39.3	-41.5	16.4	0.00e+00	0	57	0	956301312	49	4865
2026-01-06 22:54:01.26	148.35	20.49	-39.4	-41.7	16.3	0.00e+00	0	57	0	958398464	49	4936
2026-01-06 22:54:02.27	148.52	20.38	-39.4	-41.7	16.3	0.00e+00	0	57	0	960495616	49	4940
2026-01-06 22:54:03.28	148.68	20.28	-39.5	-41.8	16.1	0.00e+00	0	57	0	962592768	49	5031
2026-01-06 22:54:04.29	148.84	20.17	-39.3	-41.5	16.4	0.00e+00	0	57	0	963641344	49	4859
2026-01-06 22:54:05.30	149.00	20.07	-39.4	-41.6	16.4	0.00e+00	0	57	0	965738496	49	4887
2026-01-06 22:54:06.31	149.15	19.96	-39.3	-41.5	16.5	0.00e+00	0	57	0	967835648	49	4853
2026-01-06 22:54:07.32	149.31	19.86	-39.3	-41.5	16.4	0.00e+00	0	57	0	969932800	49	4842
2026-01-06 22:54:08.33	149.47	19.76	-39.6	-41.9	16.1	0.00e+00	0	57	0	972029952	49	5058
2026-01-06 22:54:09.33	149.62	19.65	-39.5	-41.8	16.2	0.00e+00	0	57	0	973078528	49	4997
2026-01-06 22:54:10.35	149.77	19.55	-39.6	-42.0	16.0	0.00e+00	0	57	0	975175680	49	5115
2026-01-06 22:54:11.35	149.93	19.45	-39.9	-42.3	15.6	0.00e+00	0	57	0	977272832	50	5027
2026-01-06 22:54:12.36	150.08	19.34	-39.9	-42.4	15.6	0.00e+00	0	57	0	979369984	50	5064
2026-01-06 22:54:13.37	150.23	19.24	-40.3	-42.9	15.1	0.00e+00	0	56	0	981467136	51	5070
2026-01-06 22:54:14.38	150.38	19.14	-40.3	-43.0	15.0	0.00e+00	0	57	0	982515712	51	5120
2026-01-06 22:54:15.39	150.53	19.04	-40.2	-42.8	15.1	0.00e+00	0	56	0	984612864	51	5014
2026-01-06 22:54:16.40	150.67	18.94	-40.4	-43.1	14.8	0.00e+00	0	57	0	986710016	51	5192
2026-01-06 22:54:17.41	150.82	18.83	-40.4	-43.1	14.8	0.00e+00	0	57	0	988807168	51	5183
2026-01-06 22:54:18.42	150.97	18.73	-40.5	-43.4	14.6	0.00e+00	0	57	0	990904320	51	5343
2026-01-06 22:54:19.43	151.11	18.63	-40.7	-43.6	14.2	7.00e-07	0	56	0	991952896	52	5187
2026-01-06 22:54:20.44	151.26	18.53	-40.6	-43.5	14.4	7.00e-07	0	56	0	994050048	52	5111
2026-01-06 22:54:21.44	151.40	18.43	-40.9	-44.0	13.8	1.50e-06	0	57	0	996147200	52	5443
2026-01-06 22:54:22.45	151.54	18.33	-41.0	-44.2	13.6	6.10e-06	0	57	0	998244352	52	5580
2026-01-06 22:54:23.46	151.68	18.23	-41.1	-44.5	13.4	1.22e-05	0	57	0	1000341504	52	5734
2026-01-06 22:54:24.47	151.82	18.13	-41.3	-44.8	12.9	3.12e-05	0	57	0	1001390080	53	5649
2026-01-06 22:54:25.48	151.96	18.03	-41.2	-44.6	13.2	2.05e-05	0	57	0	1003487232	53	5467
2026-01-06 22:54:26.49	152.10	17.93	-41.1	-44.4	13.4	1.44e-05	0	57	0	1005584384	53	5369
2026-01-06 22:54:27.50	152.24	17.83	-40.9	-44.0	13.8	1.67e-05	0	57	0	1007681536	53	5130
2026-01-06 22:54:28.51	152.38	17.73	-40.6	-43.5	14.3	0.00e+00	0	57	0	1009778688	53	4837
2026-01-06 22:54:29.52	152.51	17.63	-40.5	-43.4	14.4	7.00e-07	0	57	0	1010827264	52	5074
2026-01-06 22:54:30.53	152.65	17.53	-40.2	-42.9	14.9	7.00e-07	0	57	0	1012924416	52	4772
2026-01-06 22:54:31.54	152.78	17.44	-40.1	-42.7	15.1	0.00e+00	0	57	0	1015021568	52	4676
2026-01-06 22:54:32.55	152.91	17.34	-40.0	-42.6	15.3	0.00e+00	0	57	0	1017118720	51	4888
2026-01-06 22:54:33.56	153.05	17.24	-39.9	-42.4	15.4	0.00e+00	0	57	0	1019215872	51	4777
2026-01-06 22:54:34.57	153.18	17.14	-39.9	-42.4	15.4	0.00e+00	0	57	0	1020264448	51	4774
2026-01-06 22:54:35.58	153.31	17.04	-40.0	-42.6	15.3	0.00e+00	0	57	0	1022361600	51	4880
2026-01-06 22:54:36.59	153.44	16.95	-40.2	-42.9	14.9	0.00e+00	0	57	0	1024458752	51	5083
2026-01-06 22:54:37.60	153.57	16.85	-40.5	-43.3	14.5	0.00e+00	0	57	0	1026555904	51	5313
2026-01-06 22:54:38.61	153.70	16.75	-40.5	-43.3	14.5	1.50e-06	0	57	0	1028653056	51	5324
2026-01-06 22:54:39.62	153.83	16.66	-40.5	-43.4	14.5	7.00e-07	0	57	0	1029701632	51	5349
2026-01-06 22:54:40.63	153.95	16.56	-40.5	-43.4	14.4	7.00e-07	0	57	0	1031798784	51	5377
2026-01-06 22:54:41.64	154.08	16.47	-40.6	-43.6	14.2	0.00e+00	0	57	0	1033895936	51	5472
2026-01-06 22:54:42.65	154.20	16.37	-40.4	-43.3	14.5	0.00e+00	0	57	0	1035993088	51	5304
2026-01-06 22:54:43.66	154.33	16.27	-40.4	-43.3	14.5	7.00e-07	0	57	0	1038090240	51	5307
2026-01-06 22:54:44.67	154.45	16.18	-40.4	-43.2	14.5	0.00e+00	0	57	0	1040187392	51	5264
2026-01-06 22:54:45.68	154.58	16.08	-40.4	-43.3	14.4	7.00e-07	0	57	0	1041235968	51	5306
2026-01-06 22:54:46.69	154.70	15.99	-40.3	-43.1	14.6	0.00e+00	0	57	0	1043333120	51	5205
2026-01-06 22:54:47.70	154.82	15.90	-40.3	-43.0	14.7	0.00e+00	0	57	0	1045430272	51	5145
2026-01-06 22:54:48.71	154.94	15.80	-40.3	-43.1	14.6	0.00e+00	0	57	0	1047527424	51	5174
2026-01-06 22:54:49.72	155.06	15.71	-40.4	-43.2	14.6	7.00e-07	0	57	0	1049624576	51	5232
2026-01-06 22:54:50.73	155.18	15.61	-40.4	-43.2	14.6	0.00e+00	0	57	0	1050673152	51	5260
2026-01-06 22:54:51.74	155.30	15.52	-40.4	-43.3	14.4	0.00e+00	0	57	0	1052770304	51	5291
2026-01-06 22:54:52.75	155.42	15.43	-40.6	-43.5	14.2	3.00e-06	0	57	0	1054867456	51	5460
2026-01-06 22:54:53.76	155.53	15.33	-40.6	-43.6	14.0	7.00e-07	0	57	0	1056964608	52	5189
2026-01-06 22:54:54.77	155.65	15.24	-40.5	-43.6	14.1	0.00e+00	0	57	0	1059061760	52	5163
2026-01-06 22:54:55.78	155.77	15.15	-40.4	-43.3	14.3	2.20e-06	0	57	0	1060110336	52	5017
2026-01-06 22:54:56.79	155.88	15.06	-40.4	-43.3	14.3	3.80e-06	0	56	0	1062207488	52	5020
2026-01-06 22:54:57.80	156.00	14.97	-40.4	-43.3	14.3	0.00e+00	0	57	0	1064304640	52	5022
2026-01-06 22:54:58.81	156.11	14.87	-40.4	-43.3	14.3	0.00e+00	0	57	0	1066401792	52	4993
2026-01-06 22:54:59.82	156.22	14.78	-40.4	-43.3	14.2	0.00e+00	0	57	0	1068498944	52	5041
2026-01-06 22:55:00.83	156.34	14.69	-40.3	-43.2	14.4	1.50e-06	0	57	0	1069547520	52	4952
2026-01-06 22:55:01.84	156.45	14.60	-40.3	-43.1	14.4	7.00e-07	0	56	0	1071644672	52	4920
2026-01-06 22:55:02.85	156.56	14.51	-40.2	-43.0	14.6	0.00e+00	0	57	0	1073741824	52	4840
2026-01-06 22:55:03.86	156.67	14.42	-40.0	-42.7	14.8	0.00e+00	0	57	0	1075838976	52	4690
2026-01-06 22:55:04.87	156.78	14.33	-40.1	-42.8	14.7	0.00e+00	0	57	0	1077936128	52	4758
2026-01-06 22:55:05.88	156.89	14.24	-40.2	-43.0	14.6	0.00e+00	0	57	0	1078984704	52	4829
2026-01-06 22:55:06.89	157.00	14.15	-40.4	-43.4	14.2	0.00e+00	0	57	0	1081081856	52	5054
2026-01-06 22:55:07.90	157.10	14.06	-40.5	-43.5	14.0	1.50e-06	0	57	0	1083179008	52	5128
2026-01-06 22:55:08.91	157.21	13.97	-40.6	-43.8	13.8	2.20e-06	0	57	0	1085276160	52	5288
2026-01-06 22:55:09.92	157.32	13.88	-40.7	-43.8	13.7	4.50e-06	0	57	0	1087373312	52	5327
2026-01-06 22:55:10.93	157.43	13.79	-40.8	-44.1	13.5	1.22e-05	0	57	0	1088421888	52	5471
2026-01-06 22:55:11.94	157.53	13.70	-40.9	-44.1	13.4	8.30e-06	0	57	0	1090519040	52	5527
2026-01-06 22:55:12.95	157.64	13.62	-41.1	-44.6	12.9	2.28e-05	0	57	0	1092616192	52	5795
2026-01-06 22:55:13.96	157.74	13.53	-41.2	-44.7	12.7	8.77e-05	0	57	0	1094713344	52	5923
2026-01-06 22:55:14.97	157.84	13.44	-41.4	-45.2	12.3	9.76e-05	0	57	0	1096810496	53	5865
2026-01-06 22:55:15.98	157.95	13.35	-41.5	-45.4	12.1	2.12e-04	0	57	0	1097859072	53	6028
2026-01-06 22:55:16.99	158.05	13.26	-41.4	-45.3	12.2	2.91e-04	0	57	0	1099956224	53	5939
2026-01-06 22:55:17.99	158.15	13.18	-41.4	-45.2	12.2	2.63e-04	0	57	0	1102053376	53	5867
2026-01-06 22:55:19.00	158.25	13.09	-41.3	-45.0	12.4	1.80e-04	0	57	0	1104150528	53	5782
2026-01-06 22:55:20.01	158.35	13.00	-41.1	-44.7	12.6	1.66e-04	0	57	0	1106247680	53	5576
2026-01-06 22:55:21.02	158.45	12.92	-41.2	-44.8	12.6	1.17e-04	0	57	0	1108344832	53	5616
2026-01-06 22:55:22.03	158.55	12.83	-41.1	-44.7	12.7	8.46e-05	0	57	0	1109393408	53	5545
2026-01-06 22:55:23.04	158.65	12.75	-41.2	-44.8	12.6	7.01e-05	0	57	0	1111490560	53	5615
2026-01-06 22:55:24.05	158.75	12.66	-41.1	-44.6	12.8	7.09e-05	0	57	0	1113587712	53	5481
2026-01-06 22:55:25.06	158.85	12.57	-40.9	-44.3	13.1	4.95e-05	0	57	0	1115684864	53	5289
2026-01-06 22:55:26.07	158.94	12.49	-40.7	-43.8	13.6	1.22e-05	0	57	0	1117782016	53	5028
2026-01-06 22:55:27.07	159.04	12.41	-40.7	-43.9	13.6	1.29e-05	0	57	0	1118830592	53	5055
2026-01-06 22:55:28.08	159.14	12.32	-40.6	-43.7	13.7	6.10e-06	0	57	0	1120927744	53	4959
2026-01-06 22:55:29.09	159.23	12.24	-40.5	-43.7	13.7	7.60e-06	0	57	0	1123024896	53	4936
2026-01-06 22:55:30.11	159.33	12.15	-40.6	-43.8	13.6	6.80e-06	0	57	0	1125122048	53	5018
2026-01-06 22:55:31.11	159.42	12.07	-40.6	-43.7	13.7	2.20e-06	0	57	0	1127219200	52	5255
2026-01-06 22:55:32.12	159.52	11.98	-40.6	-43.7	13.6	1.50e-06	0	57	0	1128267776	52	5263
2026-01-06 22:55:33.13	159.61	11.90	-40.5	-43.6	13.8	5.30e-06	0	57	0	1130364928	52	5180
2026-01-06 22:55:34.15	159.71	11.81	-40.4	-43.4	13.9	2.20e-06	0	57	0	1132462080	52	5092
2026-01-06 22:55:35.15	159.80	11.73	-40.4	-43.5	13.9	3.80e-06	0	57	0	1134559232	52	5124
2026-01-06 22:55:36.16	159.89	11.65	-40.4	-43.5	13.8	5.30e-06	0	57	0	1136656384	52	5129
2026-01-06 22:55:37.17	159.98	11.57	-40.4	-43.5	13.8	5.30e-06	0	57	0	1137704960	52	5138
2026-01-06 22:55:38.18	160.07	11.48	-40.5	-43.6	13.7	6.10e-06	0	57	0	1139802112	52	5185
2026-01-06 22:55:39.19	160.16	11.40	-40.4	-43.5	13.8	3.80e-06	0	57	0	1141899264	52	5156
2026-01-06 22:55:40.20	160.25	11.32	-40.4	-43.6	13.8	2.20e-06	0	57	0	1143996416	52	5167
2026-01-06 22:55:41.21	160.34	11.24	-40.4	-43.5	13.8	2.20e-06	0	57	0	1146093568	52	5113
2026-01-06 22:55:42.22	160.43	11.16	-40.6	-43.9	13.4	6.10e-06	0	57	0	1147142144	52	5343
2026-01-06 22:55:43.23	160.52	11.07	-40.5	-43.7	13.6	6.80e-06	0	57	0	1149239296	52	5255
2026-01-06 22:55:44.24	160.61	10.99	-40.5	-43.6	13.7	4.50e-06	0	57	0	1151336448	52	5209
2026-01-06 22:55:45.25	160.70	10.91	-40.5	-43.6	13.6	9.90e-06	0	57	0	1153433600	52	5194
2026-01-06 22:55:46.26	160.78	10.83	-40.4	-43.6	13.7	5.30e-06	0	57	0	1155530752	52	5171
