passes_logs/2026/01/06/R2.0S_Moscow/R2.0S_Moscow__20260106_004312_SUOMI_NPP_rec.log

#Pass ID: 20260106_004312_SUOMI NPP
#Satellite: SUOMI NPP
#Configuration: NPP
#almurnet v.1.7.20251203
#Start time: 2026-01-06 00:43:14

#Version: 2.2.20231116
#Station: R2.0S_Moscow
#Location: 37.707566 lon 55.798166 lat
#TLE: 1 37849U 11061A   26004.95404768  .00000136  00000+0  85334-4 0  9991
#TLE: 2 37849  98.7801 307.0898 0002575  80.6707 279.4760 14.19522289735281

#Time	Az	El	Level	Level2	SNR	BER	BlckErr	Temp	State	Recorded	gain1	gain2
2026-01-06 00:43:14.11	12.36	2.09	-40.0	-54.4	3.8	1.49e+00	0	47	0	0	51	19157
2026-01-06 00:43:15.11	12.32	2.16	-39.9	-54.5	3.8	1.49e+00	0	47	104	0	51	19172
2026-01-06 00:43:16.12	12.29	2.22	-40.0	-54.5	3.8	1.49e+00	0	47	104	0	51	19168
2026-01-06 00:43:17.14	12.25	2.28	-39.9	-54.4	3.8	1.49e+00	0	47	104	0	51	19137
2026-01-06 00:43:18.15	12.21	2.34	-39.9	-54.5	3.8	1.49e+00	0	47	104	0	51	19182
2026-01-06 00:43:19.16	12.17	2.41	-39.9	-54.4	3.8	1.49e+00	0	48	104	0	51	19118
2026-01-06 00:43:20.17	12.13	2.47	-39.9	-54.4	3.8	1.49e+00	0	47	104	0	51	19154
2026-01-06 00:43:21.18	12.09	2.53	-40.0	-54.5	3.8	1.49e+00	0	48	104	0	51	19194
2026-01-06 00:43:22.19	12.05	2.60	-39.9	-54.4	3.8	1.49e+00	0	48	104	0	51	19142
2026-01-06 00:43:23.20	12.01	2.66	-40.0	-54.5	3.8	1.49e+00	0	48	104	0	51	19170
2026-01-06 00:43:24.21	11.97	2.72	-40.0	-54.5	3.8	1.49e+00	0	48	104	0	51	19181
2026-01-06 00:43:25.22	11.93	2.79	-39.9	-54.4	3.8	1.49e+00	0	48	104	0	51	19148
2026-01-06 00:43:26.23	11.89	2.85	-39.9	-54.5	3.8	1.49e+00	0	48	104	0	51	19173
2026-01-06 00:43:27.25	11.85	2.91	-39.9	-54.4	3.8	1.49e+00	0	48	104	0	51	19108
2026-01-06 00:43:28.26	11.81	2.98	-39.9	-54.4	3.8	1.49e+00	0	48	104	0	51	19127
2026-01-06 00:43:29.27	11.77	3.04	-39.9	-54.4	3.8	1.49e+00	0	48	104	0	51	19092
2026-01-06 00:43:30.28	11.73	3.11	-39.9	-54.4	3.8	1.49e+00	0	48	104	0	51	19137
2026-01-06 00:43:31.29	11.69	3.17	-39.9	-54.4	3.8	1.49e+00	0	48	104	0	51	19120
2026-01-06 00:43:32.30	11.64	3.23	-39.9	-54.4	3.8	1.49e+00	0	48	104	0	51	19127
2026-01-06 00:43:33.31	11.60	3.30	-39.9	-54.4	3.8	1.49e+00	0	49	104	0	51	19134
2026-01-06 00:43:34.32	11.56	3.36	-39.9	-54.4	3.8	1.49e+00	0	49	104	0	51	19131
2026-01-06 00:43:35.33	11.52	3.43	-39.9	-54.4	3.8	1.49e+00	0	49	104	0	51	19122
2026-01-06 00:43:36.35	11.48	3.49	-39.9	-54.4	3.8	1.49e+00	0	48	104	0	51	19043
2026-01-06 00:43:37.36	11.43	3.56	-39.9	-54.4	3.8	1.49e+00	0	49	104	0	51	19079
2026-01-06 00:43:38.37	11.39	3.62	-39.9	-54.4	3.8	1.49e+00	0	49	104	0	51	19118
2026-01-06 00:43:39.38	11.35	3.69	-39.9	-54.4	3.8	1.49e+00	0	49	104	0	51	19022
2026-01-06 00:43:40.39	11.30	3.75	-39.9	-54.4	3.8	1.49e+00	0	49	104	0	51	18980
2026-01-06 00:43:41.40	11.26	3.82	-39.9	-54.4	3.8	1.49e+00	0	49	104	0	51	18991
2026-01-06 00:43:42.41	11.22	3.89	-39.9	-54.4	3.8	1.49e+00	0	49	104	0	51	18999
2026-01-06 00:43:43.42	11.17	3.95	-39.9	-54.4	3.8	1.49e+00	0	49	104	0	51	19049
2026-01-06 00:43:44.43	11.13	4.02	-39.9	-54.4	3.8	1.49e+00	0	49	104	0	51	19092
2026-01-06 00:43:45.44	11.09	4.08	-39.9	-54.4	3.8	1.49e+00	0	49	104	0	51	19021
2026-01-06 00:43:46.46	11.04	4.15	-39.9	-54.4	3.8	1.49e+00	0	49	104	0	51	19062
2026-01-06 00:43:47.47	11.00	4.22	-39.9	-54.4	3.8	1.49e+00	0	49	104	0	51	19003
2026-01-06 00:43:48.48	10.95	4.28	-39.9	-54.4	3.8	1.49e+00	0	49	104	0	51	19080
2026-01-06 00:43:49.49	10.91	4.35	-39.9	-54.4	3.8	1.49e+00	0	49	104	0	51	19113
2026-01-06 00:43:50.50	10.86	4.42	-39.9	-54.4	3.8	1.49e+00	0	50	104	0	51	19055
2026-01-06 00:43:51.51	10.82	4.48	-39.9	-54.4	3.8	1.49e+00	0	49	104	0	51	19094
2026-01-06 00:43:52.52	10.77	4.55	-39.9	-54.4	3.8	1.49e+00	0	50	104	0	51	19109
2026-01-06 00:43:53.53	10.72	4.62	-39.9	-54.4	3.8	1.49e+00	0	50	104	0	51	19016
2026-01-06 00:43:54.54	10.68	4.69	-39.9	-54.4	3.8	1.49e+00	0	50	104	0	51	19063
2026-01-06 00:43:55.55	10.63	4.75	-39.9	-54.4	3.8	1.49e+00	0	50	104	0	51	19086
2026-01-06 00:43:56.57	10.58	4.82	-39.9	-54.4	3.8	1.49e+00	0	50	104	0	51	19091
2026-01-06 00:43:57.58	10.54	4.89	-39.9	-54.4	3.8	1.49e+00	0	50	104	0	51	19090
2026-01-06 00:43:58.59	10.49	4.96	-39.9	-54.4	3.8	1.49e+00	0	50	104	0	51	19103
2026-01-06 00:43:59.60	10.44	5.03	-39.9	-54.4	3.8	1.49e+00	0	50	104	0	51	19075
2026-01-06 00:44:00.61	10.39	5.10	-39.9	-54.4	3.8	1.49e+00	0	50	104	0	51	19098
2026-01-06 00:44:01.62	10.35	5.16	-39.9	-54.4	3.8	1.49e+00	0	50	104	0	51	19100
2026-01-06 00:44:02.63	10.30	5.23	-39.9	-54.4	3.8	1.49e+00	0	50	104	0	51	19133
2026-01-06 00:44:03.64	10.25	5.30	-39.9	-54.4	3.8	1.49e+00	0	50	104	0	51	19076
2026-01-06 00:44:04.65	10.20	5.37	-39.9	-54.4	3.8	1.49e+00	0	50	104	0	51	19103
2026-01-06 00:44:05.66	10.15	5.44	-39.9	-54.4	3.8	1.49e+00	0	50	104	0	51	19133
2026-01-06 00:44:06.68	10.10	5.51	-39.9	-54.4	3.8	1.49e+00	0	50	104	0	51	19114
2026-01-06 00:44:07.69	10.05	5.58	-39.9	-54.4	3.8	1.49e+00	0	51	104	0	51	19118
2026-01-06 00:44:08.70	10.00	5.65	-39.9	-54.4	3.8	1.49e+00	0	50	104	0	51	19076
2026-01-06 00:44:09.71	9.95	5.72	-39.9	-54.4	3.8	1.49e+00	0	51	104	0	51	19081
2026-01-06 00:44:10.72	9.90	5.79	-39.9	-54.4	3.8	1.49e+00	0	50	104	0	51	19135
2026-01-06 00:44:11.73	9.85	5.86	-39.9	-54.4	3.8	1.49e+00	0	51	104	0	51	19142
2026-01-06 00:44:12.74	9.80	5.93	-39.9	-54.4	3.8	1.49e+00	0	51	104	0	51	19118
2026-01-06 00:44:13.76	9.75	6.00	-39.9	-54.4	3.8	1.49e+00	0	51	104	0	51	19097
2026-01-06 00:44:14.76	9.70	6.07	-39.9	-54.4	3.8	1.49e+00	0	51	104	0	51	19116
2026-01-06 00:44:15.78	9.65	6.14	-39.9	-54.4	3.8	1.49e+00	0	51	104	0	51	19063
2026-01-06 00:44:16.79	9.60	6.21	-39.9	-54.4	3.8	1.49e+00	0	51	104	0	51	19140
2026-01-06 00:44:17.80	9.54	6.28	-39.9	-54.4	3.8	1.49e+00	0	51	104	0	51	19099
2026-01-06 00:44:18.81	9.49	6.36	-39.9	-54.4	3.8	1.49e+00	0	51	104	0	51	19067
2026-01-06 00:44:19.82	9.44	6.43	-39.9	-54.4	3.8	1.49e+00	0	51	104	0	51	19124
2026-01-06 00:44:20.83	9.39	6.50	-39.9	-54.4	3.8	1.49e+00	0	51	104	0	51	19123
2026-01-06 00:44:21.84	9.33	6.57	-39.9	-54.4	3.8	1.49e+00	0	51	104	0	51	19090
2026-01-06 00:44:22.85	9.28	6.64	-39.9	-54.4	3.8	1.49e+00	0	51	104	0	51	19083
2026-01-06 00:44:23.87	9.22	6.72	-39.9	-54.4	3.8	1.49e+00	0	51	104	0	51	19069
2026-01-06 00:44:24.88	9.17	6.79	-39.9	-54.4	3.8	1.49e+00	0	51	104	0	51	19104
2026-01-06 00:44:25.89	9.12	6.86	-39.9	-54.4	3.8	1.49e+00	0	51	104	0	51	19139
2026-01-06 00:44:26.90	9.06	6.93	-39.9	-54.4	3.8	1.49e+00	0	51	104	0	51	19104
2026-01-06 00:44:27.91	9.01	7.01	-39.9	-54.4	3.8	1.49e+00	0	51	104	0	51	19081
2026-01-06 00:44:28.92	8.95	7.08	-39.9	-54.4	3.8	1.49e+00	0	51	104	0	51	19058
2026-01-06 00:44:29.93	8.90	7.15	-39.9	-54.4	3.8	1.49e+00	0	51	104	0	51	19058
2026-01-06 00:44:30.94	8.84	7.23	-39.9	-54.4	3.8	1.49e+00	0	51	104	0	51	19153
2026-01-06 00:44:31.95	8.78	7.30	-39.9	-54.4	3.8	1.49e+00	0	51	104	0	51	19080
2026-01-06 00:44:32.97	8.73	7.37	-39.9	-54.4	3.8	1.49e+00	0	52	104	0	51	19093
2026-01-06 00:44:33.98	8.67	7.45	-39.9	-54.4	3.8	1.49e+00	0	51	104	0	51	19110
2026-01-06 00:44:34.99	8.61	7.52	-39.9	-54.4	3.8	1.49e+00	0	51	104	0	51	19099
2026-01-06 00:44:36.00	8.56	7.60	-39.9	-54.4	3.8	1.49e+00	0	52	104	0	51	19109
2026-01-06 00:44:37.01	8.50	7.67	-39.9	-54.4	3.8	1.49e+00	0	52	104	0	51	19115
2026-01-06 00:44:38.02	8.44	7.75	-39.9	-54.4	3.8	1.49e+00	0	52	104	0	51	19070
2026-01-06 00:44:39.03	8.38	7.82	-39.9	-54.4	3.8	1.49e+00	0	52	104	0	51	19062
2026-01-06 00:44:40.04	8.32	7.90	-39.9	-54.4	3.8	1.49e+00	0	52	104	0	51	19163
2026-01-06 00:44:41.05	8.26	7.97	-39.9	-54.4	3.8	1.49e+00	0	52	104	0	51	19148
2026-01-06 00:44:42.06	8.20	8.05	-39.9	-54.4	3.8	1.49e+00	0	52	104	0	51	19104
2026-01-06 00:44:43.08	8.14	8.12	-39.9	-54.3	3.8	1.49e+00	0	52	104	0	51	18872
2026-01-06 00:44:44.08	8.08	8.20	-40.0	-54.5	3.8	1.49e+00	0	52	104	0	51	19299
2026-01-06 00:44:45.09	8.02	8.28	-39.9	-54.3	3.8	1.49e+00	0	52	104	0	51	18881
2026-01-06 00:44:46.10	7.96	8.35	-40.0	-54.5	3.8	1.49e+00	0	52	104	0	51	19201
2026-01-06 00:44:47.11	7.90	8.43	-40.0	-54.5	3.8	1.49e+00	0	52	104	0	51	19213
2026-01-06 00:44:48.12	7.84	8.51	-40.0	-54.5	3.8	1.49e+00	0	52	104	0	51	19235
2026-01-06 00:44:49.13	7.78	8.58	-40.0	-54.5	3.8	1.49e+00	0	52	104	0	51	19216
2026-01-06 00:44:50.14	7.72	8.66	-40.1	-54.5	3.8	1.49e+00	0	52	104	0	51	19253
2026-01-06 00:44:51.15	7.66	8.74	-39.9	-54.3	3.8	1.49e+00	0	52	104	0	51	18862
2026-01-06 00:44:52.16	7.59	8.81	-40.1	-54.5	3.8	1.49e+00	0	52	104	0	51	19257
2026-01-06 00:44:53.17	7.53	8.89	-39.9	-54.3	3.8	1.49e+00	0	52	104	0	51	18911
2026-01-06 00:44:54.18	7.47	8.97	-40.0	-54.5	3.8	1.49e+00	0	52	104	0	51	19219
2026-01-06 00:44:55.19	7.40	9.05	-39.9	-54.4	3.8	1.49e+00	0	52	104	0	51	19099
2026-01-06 00:44:56.20	7.34	9.13	-40.0	-54.5	3.8	1.49e+00	0	52	104	0	51	19238
2026-01-06 00:44:57.21	7.27	9.21	-39.9	-54.4	3.8	1.49e+00	0	52	104	0	51	19084
2026-01-06 00:44:58.22	7.21	9.28	-40.0	-54.5	3.8	1.49e+00	0	52	104	0	51	19284
2026-01-06 00:44:59.23	7.14	9.36	-39.9	-54.3	3.8	1.49e+00	0	52	104	0	51	18864
2026-01-06 00:45:00.24	7.08	9.44	-40.1	-54.5	3.8	1.49e+00	0	52	104	0	51	19296
2026-01-06 00:45:01.25	7.01	9.52	-39.9	-54.3	3.8	1.49e+00	0	52	104	0	51	18887
2026-01-06 00:45:02.26	6.95	9.60	-40.1	-54.6	3.8	1.49e+00	0	53	104	0	51	19424
2026-01-06 00:45:03.27	6.88	9.68	-40.0	-54.4	3.8	1.49e+00	0	52	104	0	51	19003
2026-01-06 00:45:04.28	6.81	9.76	-40.1	-54.6	3.8	1.49e+00	0	52	104	0	51	19530
2026-01-06 00:45:05.29	6.74	9.84	-40.0	-54.4	3.8	1.49e+00	0	52	104	0	51	19073
2026-01-06 00:45:06.30	6.68	9.92	-40.1	-54.6	3.8	1.49e+00	0	52	104	0	51	19519
2026-01-06 00:45:07.31	6.61	10.00	-39.9	-54.4	3.8	1.49e+00	0	53	104	0	51	19018
2026-01-06 00:45:08.32	6.54	10.09	-40.2	-54.6	3.8	1.49e+00	0	53	104	0	51	19602
2026-01-06 00:45:09.33	6.47	10.17	-39.9	-54.4	3.8	1.49e+00	0	52	104	0	51	19083
2026-01-06 00:45:10.34	6.40	10.25	-40.2	-54.7	3.8	1.49e+00	0	53	104	0	51	19798
2026-01-06 00:45:11.35	6.33	10.33	-40.0	-54.5	3.8	1.49e+00	0	52	104	0	51	19272
2026-01-06 00:45:12.36	6.26	10.41	-40.2	-54.7	3.8	1.49e+00	0	53	104	0	51	19780
2026-01-06 00:45:13.37	6.19	10.49	-40.1	-54.5	3.8	1.49e+00	0	53	104	0	51	19359
2026-01-06 00:45:14.38	6.12	10.58	-40.3	-54.7	3.8	1.49e+00	0	53	104	0	51	19628
2026-01-06 00:45:15.39	6.05	10.66	-40.1	-54.6	3.8	1.49e+00	0	53	104	0	51	19462
2026-01-06 00:45:16.40	5.97	10.74	-40.4	-54.8	3.8	1.49e+00	0	53	104	0	51	19918
2026-01-06 00:45:17.41	5.90	10.82	-40.0	-54.6	3.8	1.49e+00	0	53	104	0	51	19505
2026-01-06 00:45:18.42	5.83	10.91	-40.3	-54.6	3.8	1.49e+00	0	53	104	0	51	19533
2026-01-06 00:45:19.43	5.75	10.99	-40.2	-54.7	3.8	1.49e+00	0	53	104	0	51	19694
2026-01-06 00:45:20.44	5.68	11.08	-40.3	-54.4	3.8	1.49e+00	0	53	104	0	51	18986
2026-01-06 00:45:21.45	5.61	11.16	-40.3	-54.7	3.8	1.49e+00	0	53	104	0	51	19737
2026-01-06 00:45:22.46	5.53	11.24	-40.3	-54.0	3.8	1.49e+00	0	53	104	0	52	17099
2026-01-06 00:45:23.47	5.46	11.33	-40.1	-54.4	3.8	1.49e+00	0	53	104	0	51	19106
2026-01-06 00:45:24.48	5.38	11.41	-40.5	-53.4	3.8	1.49e+00	0	53	104	0	51	16978
2026-01-06 00:45:25.49	5.30	11.50	-40.4	-53.0	3.8	1.49e+00	0	53	104	0	51	16144
2026-01-06 00:45:26.50	5.23	11.58	-40.4	-52.1	4.0	1.47e+00	0	53	104	0	51	14566
2026-01-06 00:45:27.51	5.15	11.67	-40.3	-51.4	4.2	1.42e+00	0	53	0	0	51	13520
2026-01-06 00:45:28.52	5.07	11.75	-40.3	-50.4	4.6	1.18e+00	0	53	0	0	51	11973
2026-01-06 00:45:29.54	5.00	11.84	-40.3	-49.1	5.3	7.21e-01	0	53	0	2097152	51	10363
2026-01-06 00:45:30.55	4.92	11.93	-40.3	-48.5	5.9	4.20e-01	0	53	0	4194304	51	9652
2026-01-06 00:45:31.56	4.84	12.01	-40.3	-48.1	6.2	2.92e-01	0	53	0	6291456	51	9199
2026-01-06 00:45:32.57	4.76	12.10	-40.3	-47.9	6.5	2.19e-01	0	53	0	8388608	51	9004
2026-01-06 00:45:33.58	4.68	12.19	-40.4	-48.0	6.5	2.51e-01	0	53	0	9437184	51	9137
2026-01-06 00:45:34.59	4.60	12.28	-40.5	-48.5	6.1	2.81e-01	0	53	0	11534336	51	9702
2026-01-06 00:45:35.60	4.52	12.36	-40.6	-48.7	6.0	3.22e-01	0	53	0	13631488	51	9934
2026-01-06 00:45:36.61	4.44	12.45	-40.5	-48.6	6.1	3.48e-01	0	53	0	15728640	51	9746
2026-01-06 00:45:37.62	4.35	12.54	-40.5	-48.4	6.2	3.13e-01	0	53	0	17825792	51	9588
2026-01-06 00:45:38.63	4.27	12.63	-40.6	-48.1	6.5	2.31e-01	0	54	0	18874368	51	9277
2026-01-06 00:45:39.64	4.19	12.72	-40.5	-48.2	6.4	2.20e-01	0	53	0	20971520	51	9336
2026-01-06 00:45:40.65	4.10	12.80	-40.6	-48.4	6.4	2.31e-01	0	54	0	23068672	51	9521
2026-01-06 00:45:41.66	4.02	12.89	-40.7	-48.7	6.1	3.04e-01	0	54	0	25165824	51	9843
2026-01-06 00:45:42.67	3.94	12.98	-40.7	-48.8	6.1	3.08e-01	0	53	0	27262976	52	9410
2026-01-06 00:45:43.68	3.85	13.07	-40.8	-48.6	6.3	3.22e-01	0	53	0	28311552	52	9241
2026-01-06 00:45:44.69	3.76	13.16	-40.6	-47.1	7.9	1.07e-01	0	53	0	30408704	52	7733
2026-01-06 00:45:45.70	3.68	13.25	-40.4	-45.9	9.3	3.62e-02	0	54	0	32505856	52	6779
2026-01-06 00:45:46.71	3.59	13.34	-40.1	-44.8	10.7	8.50e-03	0	54	0	34603008	52	5953
2026-01-06 00:45:47.72	3.50	13.43	-40.0	-44.1	11.9	6.82e-04	0	54	0	36700160	51	5802
2026-01-06 00:45:48.73	3.42	13.52	-40.0	-43.9	12.3	2.03e-04	0	54	0	37748736	51	5691
2026-01-06 00:45:49.74	3.33	13.62	-39.8	-43.5	12.7	1.71e-04	0	54	0	39845888	51	5423
2026-01-06 00:45:50.75	3.24	13.71	-39.5	-42.9	13.4	1.37e-05	0	53	0	41943040	51	5064
2026-01-06 00:45:51.76	3.15	13.80	-39.6	-43.0	13.4	7.60e-06	0	54	0	44040192	50	5406
2026-01-06 00:45:52.77	3.06	13.89	-39.6	-42.9	13.5	7.60e-06	0	54	0	46137344	50	5389
2026-01-06 00:45:53.78	2.97	13.98	-39.7	-43.1	13.4	9.10e-06	0	54	0	48234496	50	5470
2026-01-06 00:45:54.79	2.88	14.08	-40.1	-43.8	12.7	3.43e-05	0	54	0	49283072	50	5953
2026-01-06 00:45:55.80	2.79	14.17	-40.3	-44.2	12.3	9.84e-05	0	54	0	51380224	51	5920
2026-01-06 00:45:56.81	2.69	14.26	-40.6	-44.7	11.9	2.71e-04	0	54	0	53477376	51	6221
2026-01-06 00:45:57.82	2.60	14.35	-40.3	-44.2	12.4	1.96e-04	0	54	0	55574528	51	5861
2026-01-06 00:45:58.83	2.51	14.45	-40.3	-44.0	12.5	1.04e-04	0	54	0	57671680	51	5752
2026-01-06 00:45:59.84	2.41	14.54	-40.2	-43.8	12.8	1.04e-04	0	54	0	58720256	51	5605
2026-01-06 00:46:00.84	2.32	14.64	-40.0	-43.4	13.3	2.51e-05	0	54	0	60817408	51	5349
2026-01-06 00:46:01.85	2.22	14.73	-40.1	-43.6	13.1	3.43e-05	0	54	0	62914560	51	5497
2026-01-06 00:46:02.86	2.13	14.83	-40.2	-43.7	13.0	1.83e-05	0	54	0	65011712	51	5592
2026-01-06 00:46:03.87	2.03	14.92	-40.3	-43.8	13.0	3.05e-05	0	54	0	67108864	51	5621
2026-01-06 00:46:04.88	1.93	15.02	-40.2	-43.6	13.2	2.67e-05	0	54	0	68157440	51	5487
2026-01-06 00:46:05.89	1.83	15.11	-40.1	-43.5	13.4	2.21e-05	0	54	0	70254592	51	5424
2026-01-06 00:46:06.90	1.73	15.21	-40.0	-43.2	13.7	7.60e-06	0	54	0	72351744	51	5253
2026-01-06 00:46:07.91	1.63	15.30	-40.3	-43.6	13.4	1.22e-05	0	54	0	74448896	51	5507
2026-01-06 00:46:08.92	1.53	15.40	-40.2	-43.5	13.6	1.06e-05	0	54	0	76546048	51	5412
2026-01-06 00:46:09.93	1.43	15.50	-40.2	-43.4	13.7	9.90e-06	0	54	0	77594624	51	5379
2026-01-06 00:46:10.94	1.33	15.59	-40.2	-43.4	13.8	6.10e-06	0	54	0	79691776	51	5348
2026-01-06 00:46:11.95	1.23	15.69	-40.1	-43.2	14.0	0.00e+00	0	54	0	81788928	51	5250
2026-01-06 00:46:12.96	1.13	15.79	-40.0	-42.9	14.3	0.00e+00	0	54	0	83886080	51	5073
2026-01-06 00:46:13.97	1.02	15.89	-39.9	-42.8	14.5	7.00e-07	0	54	0	85983232	51	5022
2026-01-06 00:46:14.98	0.92	15.99	-40.0	-42.9	14.4	7.00e-07	0	54	0	87031808	51	5096
2026-01-06 00:46:15.99	0.81	16.08	-40.1	-43.1	14.4	0.00e+00	0	54	0	89128960	51	5162
2026-01-06 00:46:17.00	0.71	16.18	-40.1	-43.0	14.4	0.00e+00	0	54	0	91226112	51	5120
2026-01-06 00:46:18.01	0.60	16.28	-40.2	-43.1	14.3	7.00e-07	0	54	0	93323264	51	5187
2026-01-06 00:46:19.01	0.50	16.38	-40.2	-43.2	14.3	7.00e-07	0	54	0	95420416	51	5234
2026-01-06 00:46:20.02	0.39	16.48	-40.3	-43.4	14.1	7.00e-07	0	54	0	96468992	51	5361
2026-01-06 00:46:21.03	0.28	16.58	-40.2	-43.1	14.4	0.00e+00	0	54	0	98566144	51	5165
2026-01-06 00:46:22.04	0.17	16.68	-40.3	-43.3	14.3	7.00e-07	0	54	0	100663296	51	5281
2026-01-06 00:46:23.05	0.06	16.78	-40.3	-43.2	14.3	1.50e-06	0	54	0	102760448	51	5262
2026-01-06 00:46:24.06	359.95	16.88	-40.4	-43.5	14.2	0.00e+00	0	54	0	104857600	51	5405
2026-01-06 00:46:25.07	359.84	16.98	-40.4	-43.5	14.1	7.00e-07	0	54	0	105906176	51	5451
2026-01-06 00:46:26.08	359.72	17.09	-40.3	-43.2	14.3	2.20e-06	0	54	0	108003328	51	5244
2026-01-06 00:46:27.09	359.61	17.19	-40.4	-43.5	14.2	3.80e-06	0	54	0	110100480	51	5425
2026-01-06 00:46:28.10	359.50	17.29	-40.3	-43.3	14.3	7.00e-07	0	54	0	112197632	51	5289
2026-01-06 00:46:29.11	359.38	17.39	-40.1	-42.9	14.7	7.00e-07	0	54	0	114294784	51	5098
2026-01-06 00:46:30.12	359.27	17.50	-40.2	-43.1	14.5	0.00e+00	0	54	0	116391936	51	5200
2026-01-06 00:46:31.13	359.15	17.60	-40.3	-43.3	14.3	0.00e+00	0	54	0	117440512	51	5302
2026-01-06 00:46:32.14	359.03	17.70	-40.4	-43.3	14.3	1.50e-06	0	54	0	119537664	51	5316
2026-01-06 00:46:33.15	358.91	17.81	-40.2	-43.0	14.6	0.00e+00	0	54	0	121634816	51	5154
2026-01-06 00:46:34.16	358.79	17.91	-40.2	-43.0	14.5	1.50e-06	0	54	0	123731968	51	5129
2026-01-06 00:46:35.17	358.67	18.02	-40.2	-43.0	14.5	7.00e-07	0	54	0	125829120	51	5151
2026-01-06 00:46:36.18	358.55	18.12	-40.2	-43.1	14.4	7.00e-07	0	55	0	126877696	51	5201
2026-01-06 00:46:37.19	358.43	18.23	-40.0	-42.8	14.7	0.00e+00	0	55	0	128974848	51	5034
2026-01-06 00:46:38.20	358.31	18.33	-40.0	-42.8	14.8	0.00e+00	0	54	0	131072000	51	4995
2026-01-06 00:46:39.21	358.19	18.44	-40.2	-43.1	14.5	7.00e-07	0	54	0	133169152	51	5189
2026-01-06 00:46:40.22	358.06	18.54	-40.3	-43.2	14.3	0.00e+00	0	54	0	135266304	51	5249
2026-01-06 00:46:41.23	357.94	18.65	-40.2	-43.2	14.3	7.00e-07	0	54	0	136314880	51	5237
2026-01-06 00:46:42.24	357.81	18.76	-40.3	-43.3	14.0	0.00e+00	0	55	0	138412032	51	5339
2026-01-06 00:46:43.25	357.68	18.86	-40.3	-43.4	14.1	1.50e-06	0	54	0	140509184	51	5348
2026-01-06 00:46:44.26	357.56	18.97	-40.2	-43.2	14.2	3.00e-06	0	55	0	142606336	51	5247
2026-01-06 00:46:45.27	357.43	19.08	-40.2	-43.2	14.3	7.00e-07	0	55	0	144703488	51	5219
2026-01-06 00:46:46.28	357.30	19.19	-40.0	-42.8	14.6	0.00e+00	0	54	0	145752064	51	5015
2026-01-06 00:46:47.29	357.17	19.29	-39.9	-42.6	14.8	0.00e+00	0	54	0	147849216	51	4908
2026-01-06 00:46:48.30	357.04	19.40	-40.0	-42.9	14.5	0.00e+00	0	55	0	149946368	51	5057
2026-01-06 00:46:49.31	356.90	19.51	-40.0	-42.9	14.4	7.00e-07	0	54	0	152043520	51	5071
2026-01-06 00:46:50.32	356.77	19.62	-40.0	-43.0	14.2	7.00e-07	0	55	0	154140672	51	5136
2026-01-06 00:46:51.33	356.63	19.73	-40.3	-43.5	13.7	5.30e-06	0	55	0	155189248	51	5421
2026-01-06 00:46:52.33	356.50	19.84	-40.6	-44.1	12.9	2.97e-05	0	54	0	157286400	51	5824
2026-01-06 00:46:53.35	356.36	19.95	-40.6	-44.3	12.6	4.95e-05	0	55	0	159383552	51	5978
2026-01-06 00:46:54.36	356.23	20.06	-40.7	-44.5	12.3	9.76e-05	0	55	0	161480704	51	6070
2026-01-06 00:46:55.36	356.09	20.17	-40.7	-44.7	12.0	2.49e-04	0	55	0	163577856	52	5857
2026-01-06 00:46:56.37	355.95	20.28	-40.7	-44.7	11.9	4.25e-04	0	55	0	164626432	52	5860
2026-01-06 00:46:57.38	355.81	20.39	-40.8	-44.8	11.9	5.13e-04	0	55	0	166723584	52	5962
2026-01-06 00:46:58.40	355.66	20.50	-40.7	-44.6	12.2	4.41e-04	0	55	0	168820736	52	5803
2026-01-06 00:46:59.40	355.52	20.62	-40.8	-44.7	12.2	2.53e-04	0	55	0	170917888	52	5896
2026-01-06 00:47:00.41	355.38	20.73	-40.8	-44.6	12.3	2.07e-04	0	55	0	173015040	52	5834
2026-01-06 00:47:01.42	355.23	20.84	-40.7	-44.4	12.6	1.42e-04	0	55	0	174063616	52	5699
2026-01-06 00:47:02.43	355.09	20.95	-40.4	-43.8	13.2	2.44e-05	0	55	0	176160768	52	5337
2026-01-06 00:47:03.44	354.94	21.07	-40.3	-43.6	13.5	1.14e-05	0	55	0	178257920	52	5205
2026-01-06 00:47:04.45	354.79	21.18	-40.3	-43.5	13.5	9.90e-06	0	55	0	180355072	52	5155
2026-01-06 00:47:05.46	354.64	21.29	-40.1	-43.2	13.8	1.22e-05	0	55	0	182452224	52	4957
2026-01-06 00:47:06.47	354.49	21.41	-40.0	-43.1	14.0	1.29e-05	0	55	0	184549376	51	5191
2026-01-06 00:47:07.48	354.34	21.52	-40.1	-43.3	13.8	9.10e-06	0	55	0	185597952	51	5312
2026-01-06 00:47:08.49	354.19	21.64	-40.0	-43.2	13.9	2.20e-06	0	55	0	187695104	51	5230
2026-01-06 00:47:09.50	354.04	21.75	-40.1	-43.2	13.9	7.00e-07	0	55	0	189792256	51	5242
2026-01-06 00:47:10.51	353.88	21.87	-40.1	-43.3	13.9	1.50e-06	0	55	0	191889408	51	5290
2026-01-06 00:47:11.52	353.72	21.98	-40.2	-43.3	13.8	6.80e-06	0	55	0	193986560	51	5338
2026-01-06 00:47:12.53	353.57	22.10	-40.1	-43.3	13.9	7.00e-07	0	55	0	195035136	51	5300
2026-01-06 00:47:13.54	353.41	22.22	-40.3	-43.5	13.7	2.20e-06	0	55	0	197132288	51	5454
2026-01-06 00:47:14.55	353.25	22.33	-40.3	-43.5	13.8	4.50e-06	0	55	0	199229440	51	5417
2026-01-06 00:47:15.56	353.09	22.45	-40.7	-44.2	13.1	1.83e-05	0	55	0	201326592	51	5866
2026-01-06 00:47:16.57	352.92	22.57	-40.8	-44.4	12.8	4.42e-05	0	55	0	203423744	52	5689
2026-01-06 00:47:17.58	352.76	22.68	-40.8	-44.5	12.8	4.65e-05	0	55	0	204472320	52	5736
2026-01-06 00:47:18.59	352.60	22.80	-40.9	-44.6	12.7	7.62e-05	0	55	0	206569472	52	5817
2026-01-06 00:47:19.60	352.43	22.92	-40.5	-43.8	13.5	2.59e-05	0	55	0	208666624	52	5280
2026-01-06 00:47:20.61	352.26	23.04	-40.5	-43.8	13.7	8.30e-06	0	55	0	210763776	52	5301
2026-01-06 00:47:21.62	352.09	23.16	-40.7	-44.0	13.6	9.10e-06	0	55	0	212860928	52	5421
2026-01-06 00:47:22.63	351.92	23.28	-40.8	-44.2	13.5	9.90e-06	0	55	0	213909504	52	5530
2026-01-06 00:47:23.64	351.75	23.39	-40.8	-44.1	13.5	9.90e-06	0	55	0	216006656	52	5512
2026-01-06 00:47:24.65	351.58	23.51	-40.9	-44.1	13.6	3.00e-06	0	55	0	218103808	52	5516
2026-01-06 00:47:25.66	351.41	23.63	-40.7	-43.8	14.0	1.50e-06	0	55	0	220200960	52	5319
2026-01-06 00:47:26.66	351.23	23.75	-40.7	-43.8	14.1	0.00e+00	0	55	0	222298112	52	5295
2026-01-06 00:47:27.67	351.05	23.87	-40.5	-43.4	14.4	3.00e-06	0	55	0	223346688	52	5095
2026-01-06 00:47:28.68	350.88	23.99	-40.7	-43.7	14.1	4.50e-06	0	55	0	225443840	52	5278
2026-01-06 00:47:29.70	350.70	24.11	-40.7	-43.7	14.2	7.00e-07	0	55	0	227540992	52	5247
2026-01-06 00:47:30.71	350.51	24.23	-40.6	-43.6	14.2	2.20e-06	0	55	0	229638144	52	5187
2026-01-06 00:47:31.72	350.33	24.36	-40.5	-43.4	14.4	7.00e-07	0	55	0	231735296	52	5086
2026-01-06 00:47:32.73	350.15	24.48	-40.6	-43.5	14.3	7.00e-07	0	55	0	232783872	52	5106
2026-01-06 00:47:33.74	349.96	24.60	-40.5	-43.4	14.6	0.00e+00	0	55	0	234881024	52	5057
2026-01-06 00:47:34.75	349.78	24.72	-40.3	-43.0	14.9	0.00e+00	0	55	0	236978176	52	4833
2026-01-06 00:47:35.75	349.59	24.84	-40.0	-42.6	15.3	0.00e+00	0	55	0	239075328	52	4630
2026-01-06 00:47:36.76	349.40	24.96	-40.4	-43.2	14.7	0.00e+00	0	55	0	241172480	52	4952
2026-01-06 00:47:37.77	349.21	25.09	-40.5	-43.3	14.6	0.00e+00	0	55	0	242221056	52	5006
2026-01-06 00:47:38.78	349.02	25.21	-40.5	-43.3	14.7	0.00e+00	0	55	0	244318208	51	5301
2026-01-06 00:47:39.79	348.82	25.33	-40.6	-43.4	14.7	0.00e+00	0	55	0	246415360	51	5355
2026-01-06 00:47:40.80	348.63	25.46	-40.5	-43.3	14.8	0.00e+00	0	55	0	248512512	51	5292
2026-01-06 00:47:41.81	348.43	25.58	-40.6	-43.3	14.7	7.00e-07	0	55	0	250609664	51	5339
2026-01-06 00:47:42.82	348.23	25.70	-40.6	-43.4	14.7	7.00e-07	0	55	0	252706816	51	5373
2026-01-06 00:47:43.83	348.03	25.83	-40.7	-43.5	14.6	0.00e+00	0	55	0	253755392	51	5462
2026-01-06 00:47:44.84	347.83	25.95	-40.9	-44.0	14.0	1.50e-06	0	55	0	255852544	52	5440
2026-01-06 00:47:45.85	347.62	26.07	-40.9	-43.9	14.1	1.50e-06	0	55	0	257949696	52	5380
2026-01-06 00:47:46.86	347.42	26.20	-41.2	-44.5	13.5	3.00e-06	0	55	0	260046848	52	5755
2026-01-06 00:47:47.87	347.21	26.32	-41.1	-44.4	13.6	9.90e-06	0	55	0	262144000	53	5353
2026-01-06 00:47:48.88	347.00	26.45	-41.2	-44.4	13.6	1.06e-05	0	55	0	263192576	53	5363
2026-01-06 00:47:49.89	346.79	26.57	-41.2	-44.4	13.6	1.60e-05	0	55	0	265289728	53	5395
2026-01-06 00:47:50.90	346.58	26.70	-41.2	-44.5	13.6	7.60e-06	0	55	0	267386880	53	5429
2026-01-06 00:47:51.91	346.37	26.82	-41.5	-44.9	13.2	3.05e-05	0	55	0	269484032	53	5694
2026-01-06 00:47:52.92	346.15	26.95	-41.5	-44.9	13.1	2.67e-05	0	55	0	271581184	53	5719
2026-01-06 00:47:53.93	345.93	27.07	-41.6	-45.2	12.8	6.25e-05	0	55	0	272629760	53	5916
2026-01-06 00:47:54.94	345.71	27.20	-41.8	-45.5	12.6	8.08e-05	0	55	0	274726912	54	5767
2026-01-06 00:47:55.95	345.49	27.32	-41.8	-45.6	12.4	1.17e-04	0	55	0	276824064	54	5826
2026-01-06 00:47:56.96	345.27	27.45	-41.8	-45.5	12.4	1.92e-04	0	55	0	278921216	54	5770
2026-01-06 00:47:57.97	345.05	27.57	-42.1	-46.0	12.0	4.18e-04	0	55	0	281018368	55	5782
2026-01-06 00:47:58.98	344.82	27.70	-42.3	-46.5	11.6	5.87e-04	0	55	0	282066944	55	6106
2026-01-06 00:47:59.99	344.59	27.83	-42.3	-46.5	11.6	6.92e-04	0	55	0	284164096	55	6090
2026-01-06 00:48:01.00	344.36	27.95	-42.2	-46.3	11.8	3.89e-04	0	55	0	286261248	55	5945
2026-01-06 00:48:02.01	344.13	28.08	-42.1	-46.1	12.0	3.36e-04	0	55	0	288358400	55	5841
2026-01-06 00:48:03.02	343.90	28.20	-42.2	-46.4	11.7	2.59e-04	0	55	0	290455552	55	5993
2026-01-06 00:48:04.03	343.66	28.33	-42.3	-46.5	11.6	7.81e-04	0	56	0	291504128	55	6095
2026-01-06 00:48:05.04	343.43	28.46	-42.0	-46.0	12.2	5.26e-04	0	55	0	293601280	55	5746
2026-01-06 00:48:06.04	343.19	28.58	-42.3	-46.5	11.6	6.02e-04	0	55	0	295698432	55	6074
2026-01-06 00:48:07.05	342.95	28.71	-42.3	-46.5	11.6	4.71e-04	0	56	0	297795584	55	6090
2026-01-06 00:48:08.06	342.71	28.83	-42.3	-46.5	11.6	4.10e-04	0	55	0	299892736	55	6118
2026-01-06 00:48:09.07	342.46	28.96	-42.1	-46.1	12.0	6.30e-04	0	56	0	300941312	55	5842
2026-01-06 00:48:10.08	342.21	29.09	-41.9	-45.6	12.4	1.45e-04	0	55	0	303038464	55	5503
2026-01-06 00:48:11.09	341.97	29.21	-41.8	-45.4	12.7	7.85e-05	0	55	0	305135616	55	5400
2026-01-06 00:48:12.10	341.71	29.34	-41.5	-44.9	13.3	3.43e-05	0	56	0	307232768	55	5053
2026-01-06 00:48:13.11	341.46	29.46	-41.3	-44.5	13.6	1.29e-05	0	55	0	309329920	54	5149
2026-01-06 00:48:14.12	341.21	29.59	-41.1	-44.2	14.1	5.30e-06	0	55	0	310378496	54	4932
2026-01-06 00:48:15.13	340.95	29.72	-40.9	-43.8	14.3	7.00e-07	0	56	0	312475648	53	5004
2026-01-06 00:48:16.14	340.69	29.84	-40.9	-43.9	14.4	7.00e-07	0	56	0	314572800	53	5043
2026-01-06 00:48:17.15	340.43	29.97	-40.9	-43.8	14.4	7.00e-07	0	56	0	316669952	53	5024
2026-01-06 00:48:18.16	340.17	30.09	-40.8	-43.7	14.5	7.00e-07	0	55	0	318767104	53	4943
2026-01-06 00:48:19.17	339.90	30.22	-41.0	-44.0	14.2	0.00e+00	0	56	0	320864256	53	5138
2026-01-06 00:48:20.18	339.64	30.34	-41.4	-44.6	13.6	3.80e-06	0	56	0	321912832	53	5510
2026-01-06 00:48:21.19	339.37	30.47	-41.8	-45.5	12.7	1.98e-05	0	55	0	324009984	54	5738
2026-01-06 00:48:22.20	339.10	30.59	-42.1	-46.1	12.1	6.63e-05	0	56	0	326107136	54	6139
2026-01-06 00:48:23.21	338.82	30.72	-42.3	-46.5	11.7	3.90e-04	0	55	0	328204288	55	6104
2026-01-06 00:48:24.22	338.55	30.84	-42.1	-46.0	12.1	5.52e-04	0	55	0	330301440	55	5766
2026-01-06 00:48:25.23	338.27	30.97	-42.0	-45.8	12.4	2.21e-04	0	55	0	331350016	55	5649
2026-01-06 00:48:26.24	337.99	31.09	-41.9	-45.5	12.8	1.06e-04	0	55	0	333447168	55	5444
2026-01-06 00:48:27.25	337.71	31.21	-41.6	-44.9	13.3	2.28e-05	0	56	0	335544320	55	5097
2026-01-06 00:48:28.26	337.42	31.34	-41.5	-44.8	13.4	1.60e-05	0	56	0	337641472	55	5039
2026-01-06 00:48:29.27	337.14	31.46	-41.3	-44.5	13.8	1.22e-05	0	55	0	339738624	54	5121
2026-01-06 00:48:30.28	336.85	31.58	-41.4	-44.6	13.7	6.80e-06	0	56	0	340787200	54	5206
2026-01-06 00:48:31.28	336.56	31.71	-41.7	-45.1	13.2	2.21e-05	0	56	0	342884352	54	5498
2026-01-06 00:48:32.29	336.27	31.83	-41.6	-44.9	13.4	2.59e-05	0	55	0	344981504	54	5362
2026-01-06 00:48:33.30	335.97	31.95	-41.6	-44.9	13.3	1.90e-05	0	56	0	347078656	54	5365
2026-01-06 00:48:34.31	335.67	32.07	-41.6	-44.9	13.4	9.90e-06	0	56	0	349175808	54	5377
2026-01-06 00:48:35.32	335.38	32.19	-41.4	-44.5	13.8	1.67e-05	0	56	0	350224384	54	5143
2026-01-06 00:48:36.33	335.07	32.31	-41.6	-45.0	13.3	8.30e-06	0	56	0	352321536	54	5452
2026-01-06 00:48:37.34	334.77	32.43	-41.6	-45.0	13.3	2.36e-05	0	55	0	354418688	54	5418
2026-01-06 00:48:38.35	334.46	32.55	-41.5	-44.8	13.5	1.60e-05	0	56	0	356515840	54	5295
2026-01-06 00:48:39.36	334.15	32.67	-41.5	-44.8	13.5	1.37e-05	0	56	0	358612992	54	5335
2026-01-06 00:48:40.37	333.84	32.79	-41.4	-44.6	13.8	1.14e-05	0	56	0	359661568	54	5164
2026-01-06 00:48:41.37	333.53	32.91	-41.3	-44.4	13.9	3.00e-06	0	56	0	361758720	54	5050
2026-01-06 00:48:42.38	333.22	33.03	-41.4	-44.6	13.7	1.22e-05	0	56	0	363855872	54	5178
2026-01-06 00:48:43.39	332.90	33.14	-41.5	-44.8	13.5	1.29e-05	0	56	0	365953024	54	5288
2026-01-06 00:48:44.40	332.58	33.26	-41.8	-45.4	12.9	2.44e-05	0	56	0	368050176	54	5658
2026-01-06 00:48:45.41	332.25	33.38	-42.0	-45.6	12.6	1.17e-04	0	56	0	369098752	54	5832
2026-01-06 00:48:46.42	331.93	33.49	-42.2	-46.0	12.2	2.12e-04	0	56	0	371195904	55	5765
2026-01-06 00:48:47.43	331.60	33.61	-42.2	-46.1	12.1	3.01e-04	0	55	0	373293056	55	5824
2026-01-06 00:48:48.44	331.27	33.72	-42.3	-46.2	12.1	1.79e-04	0	56	0	375390208	55	5904
2026-01-06 00:48:49.45	330.94	33.84	-42.3	-46.4	11.9	3.34e-04	0	55	0	377487360	55	6009
2026-01-06 00:48:50.46	330.61	33.95	-42.3	-46.4	11.8	4.77e-04	0	56	0	378535936	55	6027
2026-01-06 00:48:51.46	330.27	34.06	-42.6	-47.1	11.2	8.30e-04	0	56	0	380633088	55	6515
2026-01-06 00:48:52.47	329.93	34.17	-43.2	-48.3	10.1	5.56e-03	0	55	0	382730240	57	6647
2026-01-06 00:48:53.48	329.59	34.28	-43.2	-48.3	10.0	1.07e-02	0	56	0	384827392	57	6713
2026-01-06 00:48:54.50	329.24	34.39	-43.3	-48.5	9.8	1.02e-02	0	56	0	386924544	57	6875
2026-01-06 00:48:55.51	328.90	34.50	-43.3	-48.6	9.5	1.11e-02	0	56	0	387973120	57	6913
2026-01-06 00:48:56.52	328.55	34.61	-43.3	-48.5	10.0	1.23e-02	0	56	0	390070272	57	6813
2026-01-06 00:48:57.53	328.20	34.72	-43.4	-48.7	9.6	9.06e-03	0	56	0	392167424	57	6995
2026-01-06 00:48:58.53	327.85	34.83	-43.5	-49.0	9.3	1.51e-02	0	56	0	394264576	57	7205
2026-01-06 00:48:59.55	327.49	34.93	-43.3	-48.4	9.8	1.19e-02	0	56	0	396361728	57	6790
2026-01-06 00:49:00.56	327.13	35.04	-43.0	-47.7	10.6	5.80e-03	0	56	0	397410304	57	6216
2026-01-06 00:49:01.57	326.77	35.14	-42.5	-46.5	12.0	8.51e-04	0	56	0	399507456	56	5785
2026-01-06 00:49:02.58	326.41	35.24	-42.0	-45.5	12.9	9.68e-05	0	56	0	401604608	56	5128
2026-01-06 00:49:03.59	326.04	35.35	-41.6	-44.9	13.4	3.05e-05	0	56	0	403701760	55	5061
2026-01-06 00:49:04.60	325.68	35.45	-42.1	-45.8	12.5	2.97e-05	0	56	0	405798912	54	5924
2026-01-06 00:49:05.61	325.31	35.55	-42.5	-46.6	11.6	4.84e-04	0	56	0	406847488	55	6196
2026-01-06 00:49:06.61	324.94	35.65	-43.0	-47.7	10.8	1.19e-03	0	56	0	408944640	56	6600
2026-01-06 00:49:07.62	324.57	35.74	-43.1	-47.9	10.5	3.00e-03	0	56	0	411041792	56	6771
2026-01-06 00:49:08.63	324.19	35.84	-43.0	-47.6	10.8	3.99e-03	0	56	0	413138944	56	6560
2026-01-06 00:49:09.64	323.81	35.94	-42.8	-47.3	11.1	3.02e-03	0	56	0	415236096	57	5926
2026-01-06 00:49:10.65	323.43	36.03	-42.5	-46.6	11.9	4.90e-04	0	56	0	417333248	56	5853
2026-01-06 00:49:11.66	323.05	36.12	-42.2	-46.0	12.4	3.34e-04	0	56	0	418381824	56	5419
2026-01-06 00:49:12.67	322.66	36.22	-41.7	-45.0	13.2	4.50e-05	0	56	0	420478976	55	5157
2026-01-06 00:49:13.68	322.27	36.31	-41.7	-45.0	13.3	3.73e-05	0	56	0	422576128	55	5139
2026-01-06 00:49:14.69	321.89	36.40	-41.7	-45.2	13.1	1.75e-05	0	56	0	424673280	55	5255
2026-01-06 00:49:15.70	321.49	36.49	-42.0	-45.7	12.7	5.18e-05	0	56	0	426770432	55	5557
2026-01-06 00:49:16.71	321.10	36.57	-42.0	-45.7	12.5	4.19e-05	0	56	0	427819008	55	5584
2026-01-06 00:49:17.72	320.70	36.66	-41.6	-45.0	13.3	1.60e-05	0	56	0	429916160	55	5110
2026-01-06 00:49:18.73	320.31	36.74	-41.1	-44.1	14.2	1.50e-06	0	56	0	432013312	54	4893
2026-01-06 00:49:19.74	319.91	36.83	-40.8	-43.6	14.7	0.00e+00	0	56	0	434110464	53	4902
2026-01-06 00:49:20.75	319.50	36.91	-40.7	-43.4	14.9	7.00e-07	0	56	0	436207616	53	4782
2026-01-06 00:49:21.76	319.10	36.99	-40.7	-43.5	14.9	0.00e+00	0	56	0	437256192	53	4817
2026-01-06 00:49:22.77	318.69	37.07	-40.8	-43.6	14.7	0.00e+00	0	56	0	439353344	53	4910
2026-01-06 00:49:23.78	318.29	37.15	-41.3	-44.4	13.9	0.00e+00	0	56	0	441450496	53	5355
2026-01-06 00:49:24.79	317.87	37.22	-41.3	-44.5	13.7	1.50e-06	0	56	0	443547648	53	5414
2026-01-06 00:49:25.80	317.46	37.30	-41.2	-44.2	14.1	3.00e-06	0	56	0	445644800	53	5252
2026-01-06 00:49:26.81	317.05	37.37	-41.3	-44.5	13.9	1.50e-06	0	56	0	446693376	53	5433
2026-01-06 00:49:27.82	316.63	37.44	-41.3	-44.5	13.8	6.10e-06	0	56	0	448790528	53	5458
2026-01-06 00:49:28.83	316.22	37.51	-40.6	-43.3	15.0	0.00e+00	0	56	0	450887680	53	4755
2026-01-06 00:49:29.83	315.80	37.58	-40.3	-42.8	15.5	0.00e+00	0	56	0	452984832	52	4715
2026-01-06 00:49:30.84	315.38	37.64	-39.7	-41.9	16.5	0.00e+00	0	56	0	455081984	51	4508
2026-01-06 00:49:31.85	314.96	37.71	-40.0	-42.4	16.0	0.00e+00	0	56	0	456130560	51	4788
2026-01-06 00:49:32.86	314.53	37.77	-40.2	-42.6	15.4	0.00e+00	0	56	0	458227712	51	4921
2026-01-06 00:49:33.88	314.10	37.83	-40.6	-43.4	15.0	0.00e+00	0	56	0	460324864	52	5071
2026-01-06 00:49:34.89	313.67	37.89	-40.4	-43.1	15.3	0.00e+00	0	56	0	462422016	52	4888
2026-01-06 00:49:35.89	313.25	37.95	-40.4	-42.9	15.5	0.00e+00	0	56	0	464519168	52	4798
2026-01-06 00:49:36.90	312.82	38.01	-40.7	-43.4	14.9	0.00e+00	0	56	0	465567744	52	5081
2026-01-06 00:49:37.91	312.39	38.06	-40.9	-43.9	14.5	0.00e+00	0	56	0	467664896	52	5366
2026-01-06 00:49:38.92	311.95	38.12	-40.7	-43.4	14.9	1.50e-06	0	56	0	469762048	52	5093
2026-01-06 00:49:39.93	311.52	38.17	-40.4	-43.0	15.3	0.00e+00	0	56	0	471859200	52	4857
2026-01-06 00:49:40.94	311.08	38.22	-40.0	-42.5	15.9	0.00e+00	0	56	0	473956352	51	4822
2026-01-06 00:49:41.95	310.64	38.26	-39.3	-41.4	17.0	0.00e+00	0	56	0	475004928	50	4523
2026-01-06 00:49:42.96	310.20	38.31	-38.6	-40.5	17.8	0.00e+00	0	56	0	477102080	49	4312
2026-01-06 00:49:43.97	309.76	38.35	-38.7	-40.6	17.7	0.00e+00	0	56	0	479199232	49	4368
2026-01-06 00:49:44.98	309.32	38.39	-39.1	-41.1	17.3	0.00e+00	0	56	0	481296384	49	4603
2026-01-06 00:49:45.99	308.88	38.43	-39.5	-41.7	16.7	0.00e+00	0	56	0	483393536	49	4932
2026-01-06 00:49:47.00	308.43	38.47	-39.6	-41.8	16.6	0.00e+00	0	56	0	485490688	49	5001
2026-01-06 00:49:48.01	307.99	38.51	-39.4	-41.5	16.9	0.00e+00	0	56	0	486539264	49	4833
2026-01-06 00:49:49.02	307.54	38.54	-39.3	-41.4	17.0	0.00e+00	0	56	0	488636416	49	4795
2026-01-06 00:49:50.03	307.10	38.58	-39.3	-41.4	17.0	0.00e+00	0	56	0	490733568	49	4805
2026-01-06 00:49:51.04	306.65	38.61	-39.8	-42.0	16.4	0.00e+00	0	56	0	492830720	50	4863
2026-01-06 00:49:52.05	306.20	38.63	-40.2	-42.6	15.8	0.00e+00	0	56	0	494927872	50	5211
2026-01-06 00:49:53.06	305.75	38.66	-40.2	-42.7	15.8	0.00e+00	0	56	0	495976448	51	4963
2026-01-06 00:49:54.07	305.30	38.68	-40.1	-42.6	15.9	0.00e+00	0	56	0	498073600	51	4900
2026-01-06 00:49:55.08	304.85	38.71	-40.1	-42.5	16.0	0.00e+00	0	56	0	500170752	51	4832
2026-01-06 00:49:56.09	304.40	38.73	-39.6	-41.8	16.6	0.00e+00	0	56	0	502267904	51	4478
2026-01-06 00:49:57.10	303.95	38.75	-39.4	-41.6	16.8	0.00e+00	0	56	0	504365056	50	4621
2026-01-06 00:49:58.11	303.50	38.76	-39.3	-41.3	17.0	0.00e+00	0	56	0	505413632	50	4480
2026-01-06 00:49:59.12	303.04	38.78	-39.5	-41.7	16.8	0.00e+00	0	56	0	507510784	50	4654
2026-01-06 00:50:00.13	302.59	38.79	-39.6	-41.8	16.6	0.00e+00	0	56	0	509607936	50	4753
2026-01-06 00:50:01.14	302.14	38.80	-39.6	-41.7	16.7	0.00e+00	0	56	0	511705088	50	4689
2026-01-06 00:50:02.15	301.68	38.81	-39.7	-41.9	16.5	0.00e+00	0	56	0	513802240	50	4798
2026-01-06 00:50:03.16	301.23	38.81	-39.9	-42.3	16.1	0.00e+00	0	56	0	514850816	50	4997
2026-01-06 00:50:04.17	300.78	38.82	-39.7	-41.9	16.4	0.00e+00	0	56	0	516947968	50	4812
2026-01-06 00:50:05.18	300.32	38.82	-39.8	-42.1	16.4	0.00e+00	0	56	0	519045120	50	4882
2026-01-06 00:50:06.18	299.87	38.82	-40.0	-42.3	16.2	0.00e+00	0	56	0	521142272	50	5006
2026-01-06 00:50:07.20	299.41	38.82	-40.5	-43.1	15.4	0.00e+00	0	56	0	523239424	51	5192
2026-01-06 00:50:08.21	298.96	38.81	-40.8	-43.6	14.8	0.00e+00	0	56	0	524288000	52	5164
2026-01-06 00:50:09.22	298.51	38.81	-41.0	-43.9	14.4	0.00e+00	0	56	0	526385152	52	5366
2026-01-06 00:50:10.23	298.05	38.80	-40.7	-43.5	14.9	7.00e-07	0	56	0	528482304	52	5130
2026-01-06 00:50:11.24	297.60	38.79	-40.7	-43.6	14.8	0.00e+00	0	56	0	530579456	52	5161
2026-01-06 00:50:12.25	297.15	38.78	-41.2	-44.4	14.0	1.50e-06	0	56	0	532676608	53	5356
2026-01-06 00:50:13.25	296.70	38.76	-41.3	-44.5	13.8	3.80e-06	0	56	0	533725184	53	5452
2026-01-06 00:50:14.26	296.24	38.75	-41.3	-44.4	13.9	4.50e-06	0	56	0	535822336	53	5397
2026-01-06 00:50:15.27	295.79	38.73	-41.0	-44.0	14.4	2.20e-06	0	56	0	537919488	53	5109
2026-01-06 00:50:16.28	295.34	38.71	-40.8	-43.6	14.7	0.00e+00	0	56	0	540016640	53	4903
2026-01-06 00:50:17.29	294.89	38.69	-40.7	-43.4	14.9	1.50e-06	0	56	0	542113792	53	4789
2026-01-06 00:50:18.30	294.44	38.66	-40.9	-43.7	14.6	7.00e-07	0	56	0	543162368	53	4962
2026-01-06 00:50:19.31	293.99	38.64	-40.7	-43.4	14.9	0.00e+00	0	56	0	545259520	53	4794
2026-01-06 00:50:20.32	293.54	38.61	-40.8	-43.5	14.8	0.00e+00	0	56	0	547356672	53	4864
2026-01-06 00:50:21.33	293.09	38.58	-40.6	-43.2	15.1	0.00e+00	0	56	0	549453824	53	4704
2026-01-06 00:50:22.34	292.65	38.54	-40.7	-43.5	14.8	0.00e+00	0	56	0	551550976	53	4839
2026-01-06 00:50:23.35	292.20	38.51	-41.0	-44.0	14.4	1.50e-06	0	56	0	553648128	53	5108
2026-01-06 00:50:24.36	291.76	38.47	-41.8	-45.3	13.0	2.05e-05	0	56	0	554696704	54	5625
2026-01-06 00:50:25.37	291.31	38.44	-42.1	-45.9	12.4	5.49e-05	0	56	0	556793856	54	6025
2026-01-06 00:50:26.38	290.87	38.40	-42.4	-46.5	11.8	3.14e-04	0	56	0	558891008	55	6062
2026-01-06 00:50:27.39	290.43	38.35	-42.2	-46.1	12.2	2.12e-04	0	56	0	560988160	55	5802
2026-01-06 00:50:28.41	289.98	38.31	-42.0	-45.7	12.6	1.52e-04	0	56	0	563085312	55	5568
2026-01-06 00:50:29.41	289.55	38.27	-42.1	-45.8	12.5	9.91e-05	0	56	0	564133888	55	5619
2026-01-06 00:50:30.42	289.11	38.22	-42.3	-46.3	12.0	2.34e-04	0	56	0	566231040	55	5939
2026-01-06 00:50:31.43	288.67	38.17	-42.3	-46.2	12.2	1.66e-04	0	56	0	568328192	55	5886
2026-01-06 00:50:32.44	288.23	38.12	-42.2	-46.1	12.2	2.50e-04	0	56	0	570425344	55	5817
2026-01-06 00:50:33.45	287.80	38.06	-42.4	-46.4	11.8	4.05e-04	0	56	0	572522496	55	6046
2026-01-06 00:50:34.46	287.37	38.01	-42.7	-47.2	11.1	4.93e-04	0	56	0	573571072	55	6635
2026-01-06 00:50:35.47	286.93	37.95	-42.2	-46.1	12.2	2.76e-04	0	56	0	575668224	55	5805
2026-01-06 00:50:36.48	286.50	37.90	-42.4	-46.4	11.9	1.12e-04	0	56	0	577765376	55	6061
2026-01-06 00:50:37.49	286.08	37.84	-42.3	-46.3	12.0	6.71e-05	0	56	0	579862528	55	5939
2026-01-06 00:50:38.50	285.65	37.77	-42.1	-46.0	12.2	3.41e-04	0	56	0	581959680	55	5741
2026-01-06 00:50:39.51	285.22	37.71	-41.9	-45.5	12.7	8.46e-05	0	56	0	583008256	55	5423
2026-01-06 00:50:40.52	284.80	37.65	-42.0	-45.6	12.7	5.64e-05	0	56	0	585105408	55	5500
2026-01-06 00:50:41.53	284.38	37.58	-42.4	-46.5	11.7	1.82e-04	0	56	0	587202560	55	6128
2026-01-06 00:50:42.53	283.96	37.51	-43.3	-48.6	9.7	5.04e-03	0	56	0	589299712	57	6938
2026-01-06 00:50:43.55	283.54	37.44	-43.5	-49.3	9.0	7.95e-03	0	56	0	591396864	57	7469
2026-01-06 00:50:44.55	283.13	37.37	-43.7	-50.1	8.2	3.63e-02	0	56	0	592445440	58	7804
2026-01-06 00:50:45.56	282.71	37.30	-43.5	-49.2	9.1	3.63e-02	0	56	0	594542592	58	7031
2026-01-06 00:50:46.57	282.30	37.22	-43.0	-47.7	10.6	9.54e-03	0	56	0	596639744	58	5904
2026-01-06 00:50:47.58	281.89	37.15	-42.2	-46.1	12.4	7.35e-04	0	56	0	598736896	56	5467
2026-01-06 00:50:48.59	281.48	37.07	-41.7	-45.2	13.2	6.10e-05	0	56	0	600834048	55	5231
2026-01-06 00:50:49.60	281.07	36.99	-41.2	-44.2	14.1	0.00e+00	0	56	0	601882624	54	4956
2026-01-06 00:50:50.61	280.67	36.91	-40.9	-43.8	14.6	0.00e+00	0	56	0	603979776	53	4999
2026-01-06 00:50:51.62	280.26	36.83	-41.1	-44.1	14.2	7.00e-07	0	56	0	606076928	53	5170
2026-01-06 00:50:52.63	279.86	36.74	-41.8	-45.4	12.9	1.90e-05	0	56	0	608174080	54	5671
2026-01-06 00:50:53.64	279.46	36.66	-42.1	-46.0	12.4	1.38e-04	0	56	0	610271232	54	6097
2026-01-06 00:50:54.65	279.07	36.57	-41.4	-44.7	13.6	8.92e-05	0	56	0	611319808	54	5235
2026-01-06 00:50:55.66	278.67	36.49	-40.3	-42.9	15.4	1.50e-06	0	56	0	613416960	52	4768
2026-01-06 00:50:56.68	278.28	36.40	-39.9	-42.2	16.2	0.00e+00	0	56	0	615514112	51	4659
2026-01-06 00:50:57.69	277.89	36.31	-39.9	-42.2	16.1	0.00e+00	0	56	0	617611264	51	4699
2026-01-06 00:50:58.69	277.50	36.22	-39.8	-42.0	16.3	0.00e+00	0	56	0	619708416	51	4598
2026-01-06 00:50:59.70	277.12	36.12	-39.7	-42.0	16.4	0.00e+00	0	56	0	621805568	51	4569
2026-01-06 00:51:00.71	276.73	36.03	-40.0	-42.3	16.0	0.00e+00	0	56	0	622854144	51	4741
2026-01-06 00:51:01.72	276.35	35.94	-40.0	-42.4	16.0	0.00e+00	0	56	0	624951296	51	4796
2026-01-06 00:51:02.73	275.97	35.84	-40.4	-43.0	15.4	0.00e+00	0	56	0	627048448	51	5123
2026-01-06 00:51:03.74	275.59	35.74	-40.6	-43.2	15.1	0.00e+00	0	56	0	629145600	51	5272
2026-01-06 00:51:04.75	275.22	35.65	-40.9	-43.8	14.5	0.00e+00	0	56	0	631242752	52	5330
2026-01-06 00:51:05.76	274.85	35.55	-40.9	-43.9	14.4	1.50e-06	0	56	0	632291328	52	5372
2026-01-06 00:51:06.77	274.47	35.45	-40.6	-43.3	14.9	0.00e+00	0	56	0	634388480	52	5038
2026-01-06 00:51:07.78	274.11	35.34	-40.4	-43.0	15.3	0.00e+00	0	56	0	636485632	52	4862
2026-01-06 00:51:08.79	273.74	35.24	-40.6	-43.4	15.0	0.00e+00	0	56	0	638582784	52	5082
2026-01-06 00:51:09.80	273.38	35.14	-41.1	-44.2	14.1	3.00e-06	0	56	0	640679936	52	5570
2026-01-06 00:51:10.80	273.02	35.03	-41.3	-44.5	13.8	5.30e-06	0	56	0	641728512	53	5462
2026-01-06 00:51:11.81	272.66	34.93	-41.1	-44.2	14.1	2.20e-06	0	56	0	643825664	53	5245
2026-01-06 00:51:12.82	272.30	34.82	-41.3	-44.4	13.9	3.00e-06	0	56	0	645922816	53	5362
2026-01-06 00:51:13.83	271.95	34.72	-41.4	-44.6	13.7	7.00e-07	0	56	0	648019968	53	5513
2026-01-06 00:51:14.85	271.59	34.61	-41.2	-44.2	14.1	3.00e-06	0	56	0	650117120	53	5267
2026-01-06 00:51:15.85	271.25	34.50	-40.9	-43.8	14.5	7.00e-07	0	56	0	651165696	53	5002
2026-01-06 00:51:16.87	270.90	34.39	-40.5	-43.1	15.2	0.00e+00	0	56	0	653262848	52	4926
2026-01-06 00:51:17.88	270.55	34.28	-40.3	-42.8	15.4	0.00e+00	0	56	0	655360000	52	4739
2026-01-06 00:51:18.89	270.21	34.17	-40.2	-42.6	15.7	0.00e+00	0	56	0	657457152	52	4646
2026-01-06 00:51:19.90	269.87	34.06	-40.0	-42.4	15.8	0.00e+00	0	56	0	659554304	52	4524
2026-01-06 00:51:20.90	269.53	33.94	-40.0	-42.3	16.0	0.00e+00	0	56	0	660602880	51	4752
2026-01-06 00:51:21.92	269.20	33.83	-40.3	-42.8	15.6	0.00e+00	0	56	0	662700032	51	4988
2026-01-06 00:51:22.92	268.87	33.72	-40.7	-43.4	15.0	0.00e+00	0	56	0	664797184	51	5372
2026-01-06 00:51:23.94	268.53	33.60	-41.0	-43.9	14.4	0.00e+00	0	56	0	666894336	52	5393
2026-01-06 00:51:24.95	268.20	33.48	-40.6	-43.3	15.0	0.00e+00	0	56	0	668991488	52	4997
2026-01-06 00:51:25.96	267.88	33.37	-40.3	-42.8	15.4	0.00e+00	0	56	0	670040064	52	4716
2026-01-06 00:51:26.97	267.55	33.25	-40.2	-42.7	15.6	0.00e+00	0	56	0	672137216	52	4658
2026-01-06 00:51:27.98	267.23	33.13	-40.6	-43.4	14.9	0.00e+00	0	56	0	674234368	52	5053
2026-01-06 00:51:28.99	266.91	33.02	-40.6	-43.3	14.9	0.00e+00	0	56	0	676331520	52	5040
2026-01-06 00:51:30.00	266.60	32.90	-40.7	-43.5	14.7	0.00e+00	0	56	0	678428672	52	5146
2026-01-06 00:51:31.00	266.28	32.78	-40.8	-43.6	14.6	0.00e+00	0	56	0	679477248	52	5209
2026-01-06 00:51:32.01	265.97	32.66	-41.1	-44.2	14.1	2.20e-06	0	56	0	681574400	52	5539
2026-01-06 00:51:33.02	265.66	32.54	-41.2	-44.3	14.0	1.50e-06	0	56	0	683671552	53	5282
2026-01-06 00:51:34.04	265.35	32.42	-40.9	-43.8	14.4	1.50e-06	0	56	0	685768704	53	5040
2026-01-06 00:51:35.04	265.05	32.30	-40.7	-43.5	14.8	0.00e+00	0	56	0	687865856	53	4848
2026-01-06 00:51:36.05	264.75	32.18	-41.2	-44.3	13.9	7.00e-07	0	56	0	689963008	53	5281
2026-01-06 00:51:37.06	264.44	32.06	-41.2	-44.4	13.9	3.00e-06	0	56	0	691011584	53	5363
2026-01-06 00:51:38.07	264.15	31.94	-41.8	-45.5	12.8	5.18e-05	0	56	0	693108736	54	5729
2026-01-06 00:51:39.08	263.85	31.81	-42.0	-45.7	12.5	7.01e-05	0	56	0	695205888	54	5890
2026-01-06 00:51:40.09	263.56	31.69	-41.9	-45.6	12.6	1.64e-04	0	56	0	697303040	54	5855
2026-01-06 00:51:41.10	263.26	31.57	-41.9	-45.5	12.8	7.40e-05	0	56	0	699400192	54	5757
2026-01-06 00:51:42.11	262.97	31.44	-42.3	-46.4	11.8	2.94e-04	0	56	0	700448768	55	5998
2026-01-06 00:51:43.12	262.69	31.32	-42.6	-47.2	11.0	1.20e-03	0	56	0	702545920	55	6618
2026-01-06 00:51:44.13	262.40	31.20	-43.1	-48.3	10.0	4.56e-03	0	56	0	704643072	57	6655
2026-01-06 00:51:45.14	262.12	31.07	-42.7	-47.0	11.3	2.83e-03	0	56	0	706740224	57	5768
2026-01-06 00:51:46.15	261.84	30.95	-42.3	-46.3	12.1	4.91e-04	0	56	0	708837376	56	5603
2026-01-06 00:51:47.16	261.56	30.82	-42.2	-45.9	12.4	1.64e-04	0	56	0	709885952	56	5387
2026-01-06 00:51:48.17	261.28	30.70	-42.2	-46.0	12.4	1.60e-04	0	56	0	711983104	56	5453
2026-01-06 00:51:49.18	261.01	30.57	-42.4	-46.4	11.9	3.43e-04	0	56	0	714080256	56	5695
2026-01-06 00:51:50.19	260.73	30.45	-42.2	-45.9	12.4	2.29e-04	0	56	0	716177408	56	5377
2026-01-06 00:51:51.20	260.46	30.32	-41.7	-45.2	12.9	5.72e-05	0	56	0	718274560	55	5258
2026-01-06 00:51:52.21	260.20	30.20	-41.5	-44.8	13.4	1.90e-05	0	56	0	719323136	55	5004
2026-01-06 00:51:53.22	259.93	30.07	-41.2	-44.3	14.0	3.00e-06	0	56	0	721420288	54	5000
2026-01-06 00:51:54.23	259.67	29.94	-41.1	-44.1	14.2	2.20e-06	0	56	0	723517440	54	4923
2026-01-06 00:51:55.24	259.40	29.82	-40.8	-43.7	14.5	2.20e-06	0	56	0	725614592	53	4960
2026-01-06 00:51:56.25	259.15	29.69	-40.5	-43.2	15.0	0.00e+00	0	56	0	727711744	53	4687
2026-01-06 00:51:57.26	258.89	29.57	-40.3	-42.9	15.3	0.00e+00	0	56	0	728760320	52	4765
2026-01-06 00:51:58.27	258.63	29.44	-40.0	-42.4	15.9	0.00e+00	0	56	0	730857472	51	4760
2026-01-06 00:51:59.28	258.38	29.31	-40.0	-42.4	15.8	0.00e+00	0	56	0	732954624	51	4801
2026-01-06 00:52:00.29	258.13	29.19	-40.3	-42.8	15.5	0.00e+00	0	56	0	735051776	51	5026
2026-01-06 00:52:01.29	257.88	29.06	-40.6	-43.4	14.9	0.00e+00	0	56	0	737148928	51	5357
2026-01-06 00:52:02.30	257.63	28.93	-40.7	-43.4	14.8	7.00e-07	0	56	0	738197504	52	5093
2026-01-06 00:52:03.31	257.39	28.81	-41.0	-44.0	14.1	0.00e+00	0	56	0	740294656	52	5456
2026-01-06 00:52:04.32	257.14	28.68	-41.3	-44.5	13.8	6.10e-06	0	56	0	742391808	53	5407
2026-01-06 00:52:05.33	256.90	28.55	-41.4	-44.6	13.5	6.10e-06	0	56	0	744488960	53	5520
2026-01-06 00:52:06.34	256.66	28.43	-41.2	-44.4	13.7	9.90e-06	0	56	0	746586112	53	5389
2026-01-06 00:52:07.35	256.42	28.30	-41.0	-44.0	14.1	7.00e-07	0	56	0	747634688	53	5151
2026-01-06 00:52:08.36	256.18	28.17	-40.8	-43.7	14.5	7.00e-07	0	56	0	749731840	53	4964
2026-01-06 00:52:09.37	255.95	28.05	-40.5	-43.2	15.0	0.00e+00	0	56	0	751828992	53	4685
2026-01-06 00:52:10.38	255.72	27.92	-40.6	-43.3	15.0	0.00e+00	0	56	0	753926144	52	5008
2026-01-06 00:52:11.39	255.49	27.80	-40.8	-43.7	14.5	7.00e-07	0	56	0	756023296	52	5247
2026-01-06 00:52:12.41	255.26	27.67	-40.8	-43.8	14.5	0.00e+00	0	56	0	758120448	52	5283
2026-01-06 00:52:13.42	255.03	27.54	-41.0	-44.1	14.1	3.00e-06	0	56	0	759169024	52	5466
2026-01-06 00:52:14.43	254.80	27.41	-40.8	-43.7	14.5	2.20e-06	0	56	0	761266176	52	5228
2026-01-06 00:52:15.44	254.58	27.29	-40.4	-43.1	15.0	0.00e+00	0	56	0	763363328	52	4875
2026-01-06 00:52:16.44	254.36	27.16	-40.0	-42.4	15.7	0.00e+00	0	56	0	765460480	52	4545
2026-01-06 00:52:17.45	254.14	27.04	-39.9	-42.3	16.0	0.00e+00	0	56	0	767557632	51	4718
2026-01-06 00:52:18.46	253.92	26.91	-40.2	-42.7	15.6	0.00e+00	0	57	0	768606208	51	4927
2026-01-06 00:52:19.47	253.71	26.79	-40.1	-42.6	15.6	0.00e+00	0	56	0	770703360	51	4915
2026-01-06 00:52:20.48	253.49	26.66	-39.9	-42.3	15.9	0.00e+00	0	56	0	772800512	51	4759
2026-01-06 00:52:21.49	253.28	26.54	-39.8	-42.2	16.0	0.00e+00	0	56	0	774897664	51	4654
2026-01-06 00:52:22.50	253.07	26.41	-40.0	-42.5	15.8	0.00e+00	0	56	0	776994816	51	4841
2026-01-06 00:52:23.51	252.86	26.29	-40.2	-42.7	15.4	0.00e+00	0	56	0	778043392	51	4962
2026-01-06 00:52:24.52	252.65	26.16	-40.3	-42.8	15.4	0.00e+00	0	56	0	780140544	51	5040
2026-01-06 00:52:25.53	252.44	26.04	-40.4	-43.1	15.2	0.00e+00	0	56	0	782237696	51	5170
2026-01-06 00:52:26.54	252.24	25.91	-40.5	-43.3	14.9	0.00e+00	0	56	0	784334848	52	5028
2026-01-06 00:52:27.55	252.04	25.79	-40.5	-43.3	14.9	0.00e+00	0	56	0	786432000	52	4989
2026-01-06 00:52:28.56	251.83	25.66	-40.6	-43.4	14.7	0.00e+00	0	56	0	787480576	52	5087
2026-01-06 00:52:29.57	251.63	25.54	-40.6	-43.4	14.7	0.00e+00	0	56	0	789577728	52	5061
2026-01-06 00:52:30.58	251.44	25.41	-40.5	-43.3	14.8	0.00e+00	0	56	0	791674880	52	5027
2026-01-06 00:52:31.59	251.24	25.29	-40.2	-42.8	15.3	0.00e+00	0	56	0	793772032	52	4759
2026-01-06 00:52:32.60	251.04	25.17	-40.3	-43.0	15.1	0.00e+00	0	56	0	795869184	52	4850
2026-01-06 00:52:33.60	250.85	25.04	-40.5	-43.2	14.9	0.00e+00	0	56	0	796917760	52	4952
2026-01-06 00:52:34.62	250.66	24.92	-40.4	-43.1	15.0	0.00e+00	0	56	0	799014912	52	4893
2026-01-06 00:52:35.62	250.47	24.80	-40.5	-43.2	14.9	0.00e+00	0	56	0	801112064	52	4962
2026-01-06 00:52:36.63	250.28	24.68	-40.4	-43.0	15.1	0.00e+00	0	56	0	803209216	52	4863
2026-01-06 00:52:37.64	250.09	24.55	-40.3	-43.0	15.1	0.00e+00	0	56	0	805306368	52	4820
2026-01-06 00:52:38.65	249.91	24.43	-40.2	-42.8	15.3	0.00e+00	0	56	0	806354944	52	4721
2026-01-06 00:52:39.66	249.72	24.31	-40.2	-42.7	15.4	0.00e+00	0	56	0	808452096	51	4979
2026-01-06 00:52:40.67	249.54	24.19	-40.2	-42.8	15.4	0.00e+00	0	57	0	810549248	51	5012
2026-01-06 00:52:41.68	249.36	24.07	-40.2	-42.8	15.4	0.00e+00	0	56	0	812646400	51	4985
2026-01-06 00:52:42.69	249.17	23.95	-40.3	-42.9	15.3	0.00e+00	0	56	0	814743552	51	5053
2026-01-06 00:52:43.70	249.00	23.83	-40.4	-43.1	15.1	0.00e+00	0	56	0	815792128	51	5197
2026-01-06 00:52:44.71	248.82	23.70	-40.4	-43.1	15.1	7.00e-07	0	56	0	817889280	51	5165
2026-01-06 00:52:45.72	248.64	23.58	-40.2	-42.8	15.4	0.00e+00	0	56	0	819986432	51	5021
2026-01-06 00:52:46.73	248.47	23.46	-40.4	-43.0	15.1	0.00e+00	0	56	0	822083584	51	5154
2026-01-06 00:52:47.74	248.29	23.34	-40.2	-42.8	15.4	0.00e+00	0	56	0	824180736	51	5026
2026-01-06 00:52:48.75	248.12	23.22	-40.3	-42.9	15.3	0.00e+00	0	56	0	826277888	51	5066
2026-01-06 00:52:49.76	247.95	23.11	-40.5	-43.2	15.0	0.00e+00	0	56	0	827326464	51	5238
2026-01-06 00:52:50.77	247.78	22.99	-40.7	-43.5	14.5	7.00e-07	0	57	0	829423616	52	5155
2026-01-06 00:52:51.78	247.61	22.87	-40.4	-43.2	14.9	7.00e-07	0	56	0	831520768	52	4928
2026-01-06 00:52:52.79	247.44	22.75	-40.6	-43.4	14.5	0.00e+00	0	56	0	833617920	52	5078
2026-01-06 00:52:53.80	247.28	22.63	-40.7	-43.6	14.4	2.20e-06	0	56	0	835715072	52	5204
2026-01-06 00:52:54.81	247.11	22.51	-40.8	-43.7	14.4	1.50e-06	0	56	0	836763648	52	5266
2026-01-06 00:52:55.82	246.95	22.40	-40.8	-43.8	14.2	7.00e-07	0	56	0	838860800	52	5302
2026-01-06 00:52:56.83	246.79	22.28	-41.1	-44.2	13.8	0.00e+00	0	56	0	840957952	52	5560
2026-01-06 00:52:57.84	246.63	22.16	-41.2	-44.4	13.6	5.30e-06	0	56	0	843055104	52	5721
2026-01-06 00:52:58.85	246.47	22.04	-41.1	-44.3	13.8	6.10e-06	0	57	0	845152256	53	5308
2026-01-06 00:52:59.86	246.31	21.93	-41.1	-44.4	13.6	9.10e-06	0	56	0	846200832	53	5354
2026-01-06 00:53:00.88	246.15	21.81	-41.0	-44.2	13.8	3.80e-06	0	56	0	848297984	53	5252
2026-01-06 00:53:01.88	246.00	21.70	-40.9	-44.0	14.1	7.00e-07	0	56	0	850395136	53	5103
2026-01-06 00:53:02.89	245.84	21.58	-40.6	-43.5	14.5	7.00e-07	0	56	0	852492288	53	4823
2026-01-06 00:53:03.90	245.69	21.47	-40.3	-43.1	15.0	0.00e+00	0	57	0	854589440	52	4888
2026-01-06 00:53:04.92	245.53	21.35	-40.2	-42.8	15.3	0.00e+00	0	57	0	855638016	52	4718
2026-01-06 00:53:05.92	245.38	21.24	-39.9	-42.4	15.8	0.00e+00	0	57	0	857735168	51	4762
2026-01-06 00:53:06.94	245.23	21.12	-40.0	-42.5	15.6	0.00e+00	0	57	0	859832320	51	4821
2026-01-06 00:53:07.95	245.08	21.01	-40.0	-42.4	15.7	0.00e+00	0	56	0	861929472	51	4808
2026-01-06 00:53:08.96	244.94	20.89	-40.2	-42.8	15.3	0.00e+00	0	56	0	864026624	51	5006
2026-01-06 00:53:09.97	244.79	20.78	-40.4	-43.1	15.1	7.00e-07	0	56	0	866123776	51	5175
2026-01-06 00:53:10.98	244.64	20.67	-40.6	-43.4	14.7	0.00e+00	0	56	0	867172352	51	5388
2026-01-06 00:53:11.99	244.50	20.55	-40.3	-42.9	15.1	0.00e+00	0	56	0	869269504	51	5096
2026-01-06 00:53:13.00	244.35	20.44	-40.3	-43.0	15.1	0.00e+00	0	57	0	871366656	51	5115
2026-01-06 00:53:14.00	244.21	20.33	-40.2	-42.8	15.3	0.00e+00	0	57	0	873463808	51	5026
2026-01-06 00:53:15.01	244.07	20.22	-39.9	-42.3	15.8	0.00e+00	0	56	0	874512384	51	4734
2026-01-06 00:53:16.02	243.93	20.11	-39.7	-42.0	16.1	0.00e+00	0	57	0	876609536	51	4585
2026-01-06 00:53:17.03	243.79	20.00	-39.5	-41.7	16.3	0.00e+00	0	57	0	878706688	51	4419
2026-01-06 00:53:18.04	243.65	19.88	-39.3	-41.5	16.6	0.00e+00	0	56	0	880803840	50	4558
2026-01-06 00:53:19.05	243.52	19.77	-39.4	-41.6	16.5	0.00e+00	0	56	0	882900992	50	4636
2026-01-06 00:53:20.06	243.38	19.66	-39.7	-42.1	16.0	0.00e+00	0	57	0	883949568	50	4874
2026-01-06 00:53:21.07	243.24	19.55	-39.8	-42.3	15.8	0.00e+00	0	56	0	886046720	50	4986
2026-01-06 00:53:22.08	243.11	19.44	-40.2	-42.8	15.3	0.00e+00	0	56	0	888143872	50	5290
2026-01-06 00:53:23.09	242.98	19.33	-40.5	-43.3	14.8	7.00e-07	0	56	0	890241024	51	5321
2026-01-06 00:53:24.10	242.84	19.23	-40.7	-43.7	14.3	7.00e-07	0	56	0	892338176	52	5234
2026-01-06 00:53:25.11	242.71	19.12	-41.1	-44.4	13.6	6.10e-06	0	56	0	894435328	52	5686
2026-01-06 00:53:26.12	242.58	19.01	-41.4	-44.9	13.0	1.29e-05	0	56	0	895483904	53	5694
2026-01-06 00:53:27.13	242.45	18.90	-41.6	-45.4	12.6	6.79e-05	0	56	0	897581056	53	5995
2026-01-06 00:53:28.14	242.32	18.79	-41.7	-45.5	12.5	1.68e-04	0	57	0	899678208	54	5726
2026-01-06 00:53:29.15	242.19	18.69	-42.0	-46.0	11.9	2.99e-04	0	56	0	901775360	54	6086
2026-01-06 00:53:30.16	242.07	18.58	-41.9	-45.8	12.1	4.05e-04	0	57	0	903872512	54	5972
2026-01-06 00:53:31.16	241.94	18.47	-41.8	-45.6	12.3	1.98e-04	0	57	0	904921088	54	5851
2026-01-06 00:53:32.17	241.82	18.37	-41.4	-45.0	13.0	8.23e-05	0	56	0	907018240	54	5411
2026-01-06 00:53:33.18	241.69	18.26	-41.1	-44.4	13.5	1.29e-05	0	57	0	909115392	54	5083
2026-01-06 00:53:34.19	241.57	18.15	-40.7	-43.7	14.2	6.80e-06	0	57	0	911212544	53	4961
2026-01-06 00:53:35.20	241.45	18.05	-40.4	-43.3	14.7	7.00e-07	0	57	0	913309696	52	4997
2026-01-06 00:53:36.21	241.33	17.94	-40.5	-43.3	14.6	0.00e+00	0	57	0	914358272	52	5017
2026-01-06 00:53:37.22	241.21	17.84	-40.3	-43.0	14.9	0.00e+00	0	57	0	916455424	52	4851
2026-01-06 00:53:38.23	241.09	17.73	-40.5	-43.3	14.7	7.00e-07	0	57	0	918552576	52	5034
2026-01-06 00:53:39.24	240.97	17.63	-40.4	-43.3	14.7	0.00e+00	0	57	0	920649728	52	4999
2026-01-06 00:53:40.24	240.85	17.53	-40.5	-43.4	14.5	0.00e+00	0	57	0	922746880	52	5071
2026-01-06 00:53:41.25	240.73	17.42	-40.8	-43.9	14.1	1.50e-06	0	56	0	923795456	52	5381
2026-01-06 00:53:42.26	240.61	17.32	-41.0	-44.2	13.7	3.00e-06	0	56	0	925892608	52	5537
2026-01-06 00:53:43.28	240.50	17.22	-41.2	-44.5	13.3	1.67e-05	0	57	0	927989760	52	5777
2026-01-06 00:53:44.28	240.38	17.11	-41.1	-44.4	13.5	1.60e-05	0	56	0	930086912	53	5344
2026-01-06 00:53:45.29	240.27	17.01	-41.0	-44.2	13.7	7.60e-06	0	56	0	932184064	53	5259
2026-01-06 00:53:46.30	240.16	16.91	-41.0	-44.1	13.7	4.50e-06	0	56	0	933232640	53	5211
2026-01-06 00:53:47.31	240.04	16.81	-40.7	-43.8	14.1	3.80e-06	0	56	0	935329792	53	5006
2026-01-06 00:53:48.32	239.93	16.71	-40.6	-43.4	14.4	1.50e-06	0	56	0	937426944	53	4807
2026-01-06 00:53:49.33	239.82	16.61	-40.3	-43.0	14.9	0.00e+00	0	56	0	939524096	52	4831
2026-01-06 00:53:50.34	239.71	16.51	-40.2	-43.0	14.9	7.00e-07	0	56	0	941621248	52	4825
2026-01-06 00:53:51.35	239.60	16.40	-40.1	-42.8	15.1	0.00e+00	0	57	0	942669824	52	4725
2026-01-06 00:53:52.36	239.49	16.30	-40.3	-43.1	14.8	0.00e+00	0	56	0	944766976	52	4877
2026-01-06 00:53:53.37	239.38	16.20	-40.4	-43.2	14.7	0.00e+00	0	56	0	946864128	52	4946
2026-01-06 00:53:54.38	239.28	16.11	-40.5	-43.4	14.5	7.00e-07	0	57	0	948961280	52	5051
2026-01-06 00:53:55.39	239.17	16.01	-40.6	-43.5	14.4	7.00e-07	0	57	0	951058432	52	5156
2026-01-06 00:53:56.40	239.06	15.91	-40.7	-43.7	14.2	1.50e-06	0	56	0	952107008	52	5276
2026-01-06 00:53:57.41	238.96	15.81	-40.8	-43.8	14.0	1.50e-06	0	56	0	954204160	52	5324
2026-01-06 00:53:58.42	238.85	15.71	-40.8	-43.9	14.0	2.20e-06	0	56	0	956301312	52	5370
2026-01-06 00:53:59.42	238.75	15.61	-40.9	-44.0	13.9	2.20e-06	0	56	0	958398464	52	5421
2026-01-06 00:54:00.43	238.65	15.51	-40.9	-44.0	13.9	6.10e-06	0	57	0	960495616	52	5423
2026-01-06 00:54:01.44	238.55	15.42	-40.9	-44.0	13.8	5.30e-06	0	56	0	962592768	52	5462
2026-01-06 00:54:02.45	238.44	15.32	-40.9	-44.0	13.9	4.50e-06	0	57	0	963641344	52	5435
2026-01-06 00:54:03.46	238.34	15.22	-40.8	-44.0	13.9	2.20e-06	0	56	0	965738496	52	5414
2026-01-06 00:54:04.47	238.24	15.13	-40.9	-44.0	13.8	6.80e-06	0	57	0	967835648	52	5455
2026-01-06 00:54:05.48	238.14	15.03	-40.9	-44.1	13.8	9.10e-06	0	57	0	969932800	52	5486
2026-01-06 00:54:06.49	238.04	14.93	-40.9	-44.1	13.8	7.00e-07	0	56	0	972029952	52	5480
2026-01-06 00:54:07.49	237.95	14.84	-40.9	-44.1	13.9	3.00e-06	0	57	0	973078528	52	5474
2026-01-06 00:54:08.50	237.85	14.74	-40.9	-44.0	13.8	4.50e-06	0	56	0	975175680	52	5420
2026-01-06 00:54:09.51	237.75	14.65	-40.9	-44.0	13.8	7.60e-06	0	56	0	977272832	52	5417
2026-01-06 00:54:10.53	237.65	14.55	-40.8	-43.9	13.9	4.50e-06	0	56	0	979369984	52	5361
2026-01-06 00:54:11.53	237.56	14.46	-40.8	-43.8	14.0	6.10e-06	0	56	0	981467136	52	5326
2026-01-06 00:54:12.54	237.46	14.36	-40.5	-43.4	14.4	7.00e-07	0	56	0	982515712	52	5065
2026-01-06 00:54:13.55	237.37	14.27	-40.4	-43.2	14.6	1.50e-06	0	56	0	984612864	52	4947
2026-01-06 00:54:14.56	237.27	14.18	-40.4	-43.3	14.5	0.00e+00	0	56	0	986710016	52	4993
2026-01-06 00:54:15.57	237.18	14.08	-40.3	-43.0	14.8	0.00e+00	0	56	0	988807168	52	4865
2026-01-06 00:54:16.58	237.09	13.99	-40.3	-43.1	14.7	0.00e+00	0	57	0	990904320	52	4888
2026-01-06 00:54:17.59	237.00	13.90	-40.4	-43.2	14.5	0.00e+00	0	56	0	991952896	52	4940
2026-01-06 00:54:18.60	236.90	13.81	-40.4	-43.3	14.5	2.20e-06	0	56	0	994050048	52	5006
2026-01-06 00:54:19.61	236.81	13.71	-40.5	-43.4	14.4	0.00e+00	0	56	0	996147200	52	5066
2026-01-06 00:54:20.62	236.72	13.62	-40.6	-43.7	14.1	7.00e-07	0	56	0	998244352	52	5226
2026-01-06 00:54:21.63	236.63	13.53	-40.8	-44.0	13.8	3.00e-06	0	57	0	1000341504	52	5427
2026-01-06 00:54:22.64	236.54	13.44	-41.0	-44.3	13.4	7.60e-06	0	56	0	1001390080	52	5655
2026-01-06 00:54:23.65	236.45	13.35	-41.2	-44.6	13.1	3.89e-05	0	56	0	1003487232	53	5501
2026-01-06 00:54:24.66	236.37	13.26	-41.4	-45.0	12.7	5.95e-05	0	56	0	1005584384	53	5771
2026-01-06 00:54:25.67	236.28	13.16	-41.5	-45.4	12.3	1.43e-04	0	57	0	1007681536	53	6004
2026-01-06 00:54:26.68	236.19	13.07	-41.6	-45.5	12.2	2.14e-04	0	56	0	1009778688	53	6069
2026-01-06 00:54:27.69	236.10	12.98	-41.7	-45.7	12.0	3.97e-04	0	57	0	1010827264	54	5919
2026-01-06 00:54:28.70	236.02	12.89	-41.7	-45.7	12.0	3.97e-04	0	57	0	1012924416	54	5891
2026-01-06 00:54:29.71	235.93	12.80	-41.7	-45.7	12.0	2.51e-04	0	57	0	1015021568	54	5881
2026-01-06 00:54:30.72	235.85	12.72	-41.5	-45.4	12.3	2.03e-04	0	56	0	1017118720	54	5687
2026-01-06 00:54:31.73	235.76	12.63	-41.4	-45.1	12.5	1.42e-04	0	57	0	1019215872	54	5521
2026-01-06 00:54:32.74	235.68	12.54	-41.3	-44.9	12.8	9.23e-05	0	57	0	1020264448	54	5347
2026-01-06 00:54:33.75	235.60	12.45	-41.2	-44.7	12.9	4.11e-05	0	57	0	1022361600	54	5267
2026-01-06 00:54:34.76	235.51	12.36	-41.1	-44.5	13.2	1.52e-05	0	56	0	1024458752	53	5429
2026-01-06 00:54:35.77	235.43	12.27	-41.0	-44.3	13.4	1.44e-05	0	56	0	1026555904	53	5294
2026-01-06 00:54:36.78	235.35	12.18	-40.9	-44.2	13.5	1.22e-05	0	56	0	1028653056	53	5250
2026-01-06 00:54:37.79	235.27	12.10	-40.8	-44.0	13.7	6.10e-06	0	56	0	1030750208	53	5116
2026-01-06 00:54:38.80	235.19	12.01	-40.8	-44.0	13.6	8.30e-06	0	56	0	1031798784	53	5158
2026-01-06 00:54:39.81	235.11	11.92	-40.7	-43.8	13.8	8.30e-06	0	57	0	1033895936	53	5041
2026-01-06 00:54:40.82	235.03	11.84	-40.5	-43.6	14.1	6.10e-06	0	56	0	1035993088	53	4896
2026-01-06 00:54:41.83	234.95	11.75	-40.7	-43.8	13.8	3.00e-06	0	57	0	1038090240	53	5032
2026-01-06 00:54:42.84	234.87	11.66	-40.6	-43.8	13.9	3.80e-06	0	56	0	1040187392	53	4995
2026-01-06 00:54:43.85	234.79	11.58	-40.6	-43.8	13.9	5.30e-06	0	56	0	1041235968	53	4998
2026-01-06 00:54:44.86	234.71	11.49	-40.6	-43.7	13.9	3.80e-06	0	56	0	1043333120	53	4952
2026-01-06 00:54:45.87	234.63	11.41	-40.6	-43.8	13.8	5.30e-06	0	57	0	1045430272	53	4985
2026-01-06 00:54:46.88	234.56	11.32	-40.6	-43.7	13.9	3.00e-06	0	57	0	1047527424	53	4952
2026-01-06 00:54:47.89	234.48	11.24	-40.7	-43.8	13.8	4.50e-06	0	56	0	1049624576	53	5027
2026-01-06 00:54:48.90	234.40	11.15	-40.6	-43.6	14.0	2.20e-06	0	57	0	1050673152	53	4916
2026-01-06 00:54:49.91	234.33	11.07	-40.5	-43.5	14.1	2.20e-06	0	57	0	1052770304	53	4845
2026-01-06 00:54:50.92	234.25	10.98	-40.6	-43.7	13.9	7.00e-07	0	57	0	1054867456	53	4960
2026-01-06 00:54:51.93	234.18	10.90	-40.5	-43.6	14.0	3.00e-06	0	56	0	1056964608	53	4877
2026-01-06 00:54:52.94	234.10	10.81	-40.5	-43.6	14.0	2.20e-06	0	56	0	1059061760	52	5191
2026-01-06 00:54:53.95	234.03	10.73	-40.5	-43.5	14.1	2.20e-06	0	56	0	1060110336	52	5113
2026-01-06 00:54:54.96	233.95	10.65	-40.6	-43.7	13.9	4.50e-06	0	56	0	1062207488	52	5250
2026-01-06 00:54:55.97	233.88	10.56	-40.6	-43.8	13.8	3.80e-06	0	56	0	1064304640	52	5308
2026-01-06 00:54:56.98	233.81	10.48	-40.7	-43.9	13.7	5.30e-06	0	57	0	1066401792	52	5356
2026-01-06 00:54:57.99	233.74	10.40	-40.8	-44.0	13.5	6.10e-06	0	57	0	1068498944	52	5454
2026-01-06 00:54:59.00	233.66	10.32	-40.7	-44.0	13.6	5.30e-06	0	56	0	1069547520	52	5418
