passes_logs/2026/01/06/R2.0S_Moscow/R2.0S_Moscow__20260106_100406_NOAA_21_JPSS-2_rec.log

#Pass ID: 20260106_100406_NOAA 21 (JPSS-2)
#Satellite: NOAA 21 (JPSS-2)
#Configuration: NOAA-21
#almurnet v.1.7.20251203
#Start time: 2026-01-06 10:08:13

#Version: 2.2.20231116
#Station: R2.0S_Moscow
#Location: 37.707566 lon 55.798166 lat
#TLE: 1 54234U 22150A   26005.21525222  .00000150  00000+0  91957-4 0  9992
#TLE: 2 54234  98.7490 306.2339 0001053 341.6032  18.5106 14.19532220163427

#Time	Az	El	Level	Level2	SNR	BER	BlckErr	Temp	State	Recorded	gain1	gain2
2026-01-06 10:08:13.76	169.27	26.83	-45.0	-56.9	3.8	8.45e-01	0	56	0	0	61	14287
2026-01-06 10:08:14.76	169.30	27.00	-45.3	-57.9	3.8	1.49e+00	0	56	104	0	62	15085
2026-01-06 10:08:15.77	169.34	27.18	-45.3	-57.9	3.8	1.49e+00	0	56	104	0	62	15058
2026-01-06 10:08:16.78	169.38	27.35	-45.3	-57.9	3.8	1.49e+00	0	56	104	0	62	15082
2026-01-06 10:08:17.79	169.42	27.53	-45.3	-57.8	3.8	1.49e+00	0	56	104	0	62	14973
2026-01-06 10:08:18.80	169.45	27.71	-45.2	-57.8	3.8	1.49e+00	0	56	104	0	62	14894
2026-01-06 10:08:19.81	169.49	27.88	-45.2	-57.7	3.8	1.49e+00	0	56	104	0	62	14721
2026-01-06 10:08:20.83	169.53	28.06	-45.2	-57.6	3.8	1.49e+00	0	56	104	0	62	14610
2026-01-06 10:08:21.84	169.57	28.25	-45.2	-57.6	3.8	1.49e+00	0	56	104	0	62	14554
2026-01-06 10:08:22.85	169.61	28.43	-45.1	-57.6	3.8	1.49e+00	0	56	104	0	62	14546
2026-01-06 10:08:23.86	169.65	28.61	-45.1	-57.5	3.8	1.49e+00	0	56	104	0	62	14529
2026-01-06 10:08:24.87	169.69	28.79	-45.1	-57.5	3.8	1.49e+00	0	56	104	0	62	14529
2026-01-06 10:08:25.88	169.73	28.98	-45.1	-57.6	3.8	1.49e+00	0	56	104	0	62	14573
2026-01-06 10:08:26.89	169.77	29.16	-45.1	-57.6	3.8	1.49e+00	0	56	104	0	62	14632
2026-01-06 10:08:27.90	169.81	29.35	-45.1	-57.6	3.8	1.49e+00	0	56	104	0	62	14613
2026-01-06 10:08:28.91	169.86	29.54	-45.1	-57.6	3.8	1.49e+00	0	56	104	0	62	14659
2026-01-06 10:08:29.92	169.90	29.73	-45.1	-57.6	3.8	1.49e+00	0	56	104	0	62	14675
2026-01-06 10:08:30.93	169.94	29.92	-45.1	-57.6	3.8	1.49e+00	0	56	104	0	62	14708
2026-01-06 10:08:31.94	169.99	30.11	-45.2	-57.7	3.8	1.49e+00	0	56	104	0	62	14784
2026-01-06 10:08:32.95	170.03	30.31	-45.1	-57.6	3.8	1.49e+00	0	56	104	0	62	14695
2026-01-06 10:08:33.97	170.08	30.51	-45.1	-57.6	3.8	1.49e+00	0	56	104	0	62	14677
2026-01-06 10:08:34.98	170.12	30.70	-45.1	-57.6	3.8	1.49e+00	0	56	104	0	62	14629
2026-01-06 10:08:35.99	170.17	30.90	-45.1	-57.6	3.8	1.49e+00	0	57	104	0	62	14656
2026-01-06 10:08:37.00	170.21	31.10	-45.1	-57.6	3.8	1.49e+00	0	56	104	0	62	14626
2026-01-06 10:08:38.01	170.26	31.30	-45.1	-57.6	3.8	1.49e+00	0	56	104	0	62	14676
2026-01-06 10:08:39.02	170.31	31.50	-45.1	-57.7	3.8	1.49e+00	0	56	104	0	62	14758
2026-01-06 10:08:40.03	170.35	31.70	-45.1	-57.6	3.8	1.49e+00	0	57	104	0	62	14619
2026-01-06 10:08:41.04	170.40	31.91	-45.1	-57.5	3.8	1.49e+00	0	56	104	0	62	14527
2026-01-06 10:08:42.05	170.45	32.12	-45.1	-57.4	3.8	1.49e+00	0	56	104	0	62	14367
2026-01-06 10:08:43.06	170.50	32.32	-45.1	-57.4	3.8	1.49e+00	0	56	104	0	62	14240
2026-01-06 10:08:44.07	170.55	32.53	-45.1	-57.4	3.8	1.49e+00	0	56	104	0	62	14290
2026-01-06 10:08:45.09	170.60	32.74	-45.1	-57.5	3.8	1.49e+00	0	56	104	0	62	14375
2026-01-06 10:08:46.10	170.65	32.96	-45.1	-57.5	3.8	1.49e+00	0	56	104	0	62	14508
2026-01-06 10:08:47.11	170.71	33.17	-45.1	-57.6	3.8	1.49e+00	0	56	104	0	62	14616
2026-01-06 10:08:48.12	170.76	33.38	-45.1	-57.7	3.8	1.49e+00	0	56	104	0	62	14727
2026-01-06 10:08:49.13	170.81	33.60	-45.1	-57.6	3.8	1.49e+00	0	56	104	0	62	14694
2026-01-06 10:08:50.14	170.87	33.82	-45.1	-57.7	3.8	1.49e+00	0	56	104	0	62	14717
2026-01-06 10:08:51.15	170.92	34.04	-45.1	-57.6	3.8	1.49e+00	0	56	104	0	62	14548
2026-01-06 10:08:52.16	170.98	34.26	-45.1	-57.5	3.8	1.49e+00	0	57	104	0	62	14380
2026-01-06 10:08:53.17	171.03	34.48	-45.1	-57.4	3.8	1.49e+00	0	56	104	0	62	14319
2026-01-06 10:08:54.18	171.09	34.70	-45.1	-57.5	3.8	1.49e+00	0	56	104	0	62	14396
2026-01-06 10:08:55.19	171.15	34.93	-45.1	-57.6	3.8	1.49e+00	0	56	104	0	62	14587
2026-01-06 10:08:56.20	171.21	35.16	-45.1	-57.6	3.8	1.49e+00	0	56	104	0	62	14701
2026-01-06 10:08:57.21	171.26	35.38	-45.1	-57.5	3.8	1.49e+00	0	56	104	0	62	14463
2026-01-06 10:08:58.23	171.32	35.62	-45.1	-57.3	3.8	1.49e+00	0	57	104	0	62	14157
2026-01-06 10:08:59.24	171.39	35.85	-45.1	-57.3	3.8	1.49e+00	0	56	104	0	62	14066
2026-01-06 10:09:00.25	171.45	36.08	-45.1	-57.3	3.8	1.49e+00	0	56	104	0	62	14095
2026-01-06 10:09:01.26	171.51	36.32	-45.0	-56.9	3.8	1.49e+00	0	56	104	0	62	13420
2026-01-06 10:09:02.27	171.57	36.56	-44.8	-54.1	4.2	1.49e+00	0	57	104	0	61	10409
2026-01-06 10:09:03.28	171.64	36.79	-44.2	-50.9	5.7	6.16e-01	0	56	0	1048576	60	7547
2026-01-06 10:09:04.29	171.70	37.03	-43.2	-47.8	8.4	8.48e-02	0	56	0	4194304	58	5947
2026-01-06 10:09:05.30	171.77	37.28	-42.0	-45.3	11.0	3.37e-03	0	56	0	7340032	56	5007
2026-01-06 10:09:06.31	171.83	37.52	-40.7	-43.2	13.0	8.23e-05	0	56	0	10485760	53	4702
2026-01-06 10:09:07.32	171.90	37.77	-39.8	-41.9	14.4	4.50e-06	0	56	0	13631488	51	4508
2026-01-06 10:09:08.33	171.97	38.01	-39.8	-41.9	14.5	7.00e-07	0	56	0	16777216	50	4770
2026-01-06 10:09:09.34	172.04	38.26	-43.1	-47.5	8.9	4.85e-02	0	57	0	19922944	57	6062
2026-01-06 10:09:10.35	172.11	38.51	-42.2	-45.7	10.4	4.21e-01	0	56	0	23068672	56	5253
2026-01-06 10:09:11.36	172.18	38.77	-40.6	-43.1	13.1	5.26e-05	0	57	0	26214400	52	4913
2026-01-06 10:09:12.37	172.26	39.02	-39.9	-42.4	13.2	1.21e-02	0	56	0	29360128	52	4507
2026-01-06 10:09:13.38	172.33	39.28	-41.6	-44.8	11.3	6.41e-03	0	56	0	32505856	55	4985
2026-01-06 10:09:14.40	172.41	39.54	-39.3	-41.3	15.0	7.00e-07	0	56	0	35651584	50	4473
2026-01-06 10:09:15.41	172.48	39.80	-39.1	-41.0	15.3	0.00e+00	0	56	0	38797312	50	4308
2026-01-06 10:09:16.42	172.56	40.06	-39.2	-41.1	15.2	0.00e+00	0	56	0	41943040	50	4350
2026-01-06 10:09:17.42	172.64	40.32	-39.2	-41.1	15.2	0.00e+00	0	56	0	45088768	50	4356
2026-01-06 10:09:18.44	172.72	40.59	-39.2	-41.2	15.1	0.00e+00	0	56	0	48234496	50	4413
2026-01-06 10:09:19.45	172.80	40.86	-39.2	-41.2	15.1	0.00e+00	0	56	0	51380224	50	4405
2026-01-06 10:09:20.46	172.88	41.13	-39.3	-41.3	15.0	7.00e-07	0	56	0	54525952	50	4456
2026-01-06 10:09:21.47	172.97	41.40	-39.3	-41.2	15.0	0.00e+00	0	57	0	57671680	50	4421
2026-01-06 10:09:22.48	173.05	41.67	-39.4	-41.4	14.8	0.00e+00	0	56	0	60817408	50	4516
2026-01-06 10:09:23.49	173.14	41.95	-39.5	-41.5	14.8	7.00e-07	0	56	0	63963136	50	4590
2026-01-06 10:09:24.50	173.22	42.23	-39.8	-41.9	14.4	0.00e+00	0	56	0	67108864	50	4808
2026-01-06 10:09:25.51	173.31	42.51	-40.0	-42.2	14.0	2.20e-06	0	56	0	70254592	50	4981
2026-01-06 10:09:26.52	173.41	42.79	-40.3	-42.6	13.7	6.10e-06	0	56	0	73400320	51	4883
2026-01-06 10:09:27.53	173.50	43.07	-40.4	-42.8	13.5	1.37e-05	0	56	0	76546048	51	4988
2026-01-06 10:09:28.54	173.59	43.36	-40.4	-42.7	13.5	1.06e-05	0	56	0	79691776	51	4981
2026-01-06 10:09:29.55	173.69	43.65	-40.5	-42.9	13.4	1.44e-05	0	56	0	82837504	51	5083
2026-01-06 10:09:30.56	173.79	43.94	-40.6	-43.0	13.2	2.59e-05	0	56	0	85983232	51	5158
2026-01-06 10:09:31.57	173.88	44.23	-40.5	-43.0	13.3	1.90e-05	0	56	0	89128960	51	5121
2026-01-06 10:09:32.58	173.99	44.52	-40.6	-43.1	13.1	2.44e-05	0	56	0	92274688	51	5192
2026-01-06 10:09:33.58	174.09	44.82	-40.6	-43.2	13.0	4.27e-05	0	56	0	95420416	52	4938
2026-01-06 10:09:34.59	174.19	45.12	-40.7	-43.3	12.9	4.11e-05	0	56	0	98566144	52	4994
2026-01-06 10:09:35.60	174.30	45.42	-40.8	-43.4	12.8	5.11e-05	0	56	0	101711872	52	5090
2026-01-06 10:09:36.61	174.41	45.72	-40.8	-43.4	12.8	7.09e-05	0	56	0	104857600	52	5066
2026-01-06 10:09:37.62	174.52	46.02	-40.4	-42.9	13.3	3.58e-05	0	56	0	108003328	52	4775
2026-01-06 10:09:38.63	174.63	46.33	-40.4	-42.8	13.4	1.44e-05	0	56	0	111149056	52	4710
2026-01-06 10:09:39.64	174.74	46.64	-40.2	-42.6	13.6	9.10e-06	0	56	0	114294784	52	4606
2026-01-06 10:09:40.65	174.86	46.95	-40.2	-42.6	13.7	4.50e-06	0	56	0	117440512	52	4604
2026-01-06 10:09:41.66	174.98	47.27	-40.0	-42.3	13.9	3.00e-06	0	56	0	120586240	52	4476
2026-01-06 10:09:42.67	175.10	47.58	-39.9	-42.1	14.3	3.80e-06	0	57	0	123731968	51	4599
2026-01-06 10:09:43.68	175.23	47.90	-39.8	-42.0	14.4	7.00e-07	0	56	0	126877696	51	4546
2026-01-06 10:09:44.69	175.35	48.22	-39.5	-41.6	14.7	7.00e-07	0	56	0	130023424	51	4366
2026-01-06 10:09:45.70	175.48	48.54	-39.4	-41.4	14.9	0.00e+00	0	56	0	133169152	50	4514
2026-01-06 10:09:46.71	175.61	48.87	-39.4	-41.4	14.9	0.00e+00	0	56	0	136314880	50	4543
2026-01-06 10:09:47.72	175.75	49.20	-39.4	-41.4	14.9	0.00e+00	0	56	0	139460608	50	4524
2026-01-06 10:09:48.73	175.89	49.53	-39.3	-41.2	15.2	0.00e+00	0	56	0	142606336	50	4410
2026-01-06 10:09:49.74	176.03	49.86	-39.1	-40.9	15.4	0.00e+00	0	56	0	145752064	50	4284
2026-01-06 10:09:50.75	176.17	50.19	-38.9	-40.7	15.6	0.00e+00	0	56	0	148897792	49	4405
2026-01-06 10:09:51.76	176.32	50.53	-38.8	-40.6	15.7	0.00e+00	0	56	0	152043520	49	4358
2026-01-06 10:09:52.78	176.47	50.87	-38.6	-40.4	15.9	0.00e+00	0	56	0	155189248	49	4245
2026-01-06 10:09:53.79	176.62	51.21	-38.7	-40.4	15.8	0.00e+00	0	56	0	158334976	49	4282
2026-01-06 10:09:54.80	176.78	51.55	-38.8	-40.6	15.7	0.00e+00	0	56	0	161480704	49	4361
2026-01-06 10:09:55.81	176.94	51.90	-39.0	-40.9	15.4	0.00e+00	0	56	0	164626432	49	4531
2026-01-06 10:09:56.82	177.10	52.25	-39.0	-40.9	15.4	0.00e+00	0	56	0	167772160	49	4532
2026-01-06 10:09:57.83	177.27	52.60	-38.9	-40.7	15.6	0.00e+00	0	56	0	170917888	49	4408
2026-01-06 10:09:58.84	177.44	52.95	-38.7	-40.4	15.8	0.00e+00	0	56	0	174063616	49	4289
2026-01-06 10:09:59.85	177.62	53.30	-38.6	-40.3	16.0	0.00e+00	0	57	0	177209344	49	4226
2026-01-06 10:10:00.86	177.80	53.66	-38.6	-40.3	16.0	0.00e+00	0	57	0	180355072	49	4231
2026-01-06 10:10:01.87	177.98	54.02	-38.7	-40.5	15.8	0.00e+00	0	56	0	183500800	49	4313
2026-01-06 10:10:02.88	178.17	54.38	-38.6	-40.3	16.0	0.00e+00	0	56	0	186646528	49	4232
2026-01-06 10:10:03.89	178.36	54.74	-38.2	-39.9	16.4	0.00e+00	0	56	0	189792256	48	4259
2026-01-06 10:10:04.90	178.56	55.11	-37.8	-39.4	16.7	0.00e+00	0	56	0	192937984	47	4290
2026-01-06 10:10:05.91	178.77	55.47	-37.7	-39.3	16.9	0.00e+00	0	56	0	197132288	47	4204
2026-01-06 10:10:06.92	178.98	55.84	-37.7	-39.3	16.9	0.00e+00	0	56	0	200278016	47	4194
2026-01-06 10:10:07.93	179.19	56.22	-37.9	-39.5	16.7	0.00e+00	0	56	0	202375168	47	4306
2026-01-06 10:10:08.95	179.41	56.59	-37.9	-39.5	16.6	0.00e+00	0	56	0	205520896	47	4335
2026-01-06 10:10:09.95	179.64	56.97	-38.1	-39.8	16.5	0.00e+00	0	56	0	208666624	47	4451
2026-01-06 10:10:10.96	179.87	57.34	-38.0	-39.7	16.5	0.00e+00	0	56	0	212860928	47	4430
2026-01-06 10:10:11.97	180.11	57.72	-37.8	-39.5	16.7	0.00e+00	0	56	0	216006656	47	4303
2026-01-06 10:10:12.98	180.35	58.11	-37.8	-39.5	16.7	0.00e+00	0	56	0	219152384	47	4309
2026-01-06 10:10:13.99	180.61	58.49	-37.7	-39.3	16.9	0.00e+00	0	56	0	222298112	47	4236
2026-01-06 10:10:15.00	180.87	58.88	-37.5	-39.1	17.1	0.00e+00	0	56	0	225443840	47	4111
2026-01-06 10:10:16.01	181.13	59.26	-37.3	-38.9	17.3	0.00e+00	0	56	0	227540992	46	4245
2026-01-06 10:10:17.02	181.41	59.65	-37.0	-38.5	17.6	0.00e+00	0	56	0	231735296	46	4068
2026-01-06 10:10:18.03	181.69	60.05	-36.9	-38.3	17.8	0.00e+00	0	56	0	234881024	45	4241
2026-01-06 10:10:19.04	181.99	60.44	-36.9	-38.3	17.8	0.00e+00	0	56	0	238026752	45	4221
2026-01-06 10:10:20.05	182.29	60.84	-36.9	-38.3	17.8	0.00e+00	0	57	0	241172480	45	4218
2026-01-06 10:10:21.06	182.60	61.23	-36.6	-38.0	18.1	0.00e+00	0	56	0	244318208	45	4088
2026-01-06 10:10:22.07	182.92	61.63	-36.5	-37.9	18.2	0.00e+00	0	56	0	247463936	44	4256
2026-01-06 10:10:23.08	183.25	62.03	-36.5	-37.9	18.2	0.00e+00	0	56	0	250609664	44	4260
2026-01-06 10:10:24.09	183.59	62.43	-36.6	-37.9	18.1	0.00e+00	0	56	0	253755392	44	4274
2026-01-06 10:10:25.10	183.95	62.84	-36.4	-37.8	18.3	0.00e+00	0	56	0	256901120	44	4195
2026-01-06 10:10:26.11	184.31	63.24	-36.2	-37.5	18.6	0.00e+00	0	56	0	260046848	44	4072
2026-01-06 10:10:27.12	184.69	63.65	-36.3	-37.6	18.5	0.00e+00	0	56	0	263192576	44	4117
2026-01-06 10:10:28.13	185.08	64.06	-36.3	-37.6	18.5	0.00e+00	0	56	0	266338304	44	4135
2026-01-06 10:10:29.14	185.49	64.46	-36.1	-37.4	18.7	0.00e+00	0	56	0	269484032	44	4024
2026-01-06 10:10:30.15	185.91	64.87	-35.6	-36.8	19.0	0.00e+00	0	56	0	272629760	43	3984
2026-01-06 10:10:31.16	186.34	65.29	-35.6	-36.9	19.0	0.00e+00	0	56	0	275775488	43	4031
2026-01-06 10:10:32.17	186.80	65.70	-36.0	-37.3	18.6	0.00e+00	0	56	0	278921216	43	4236
2026-01-06 10:10:33.18	187.27	66.11	-36.2	-37.5	18.4	0.00e+00	0	56	0	282066944	43	4340
2026-01-06 10:10:34.20	187.76	66.53	-36.1	-37.5	18.4	0.00e+00	0	56	0	285212672	43	4298
2026-01-06 10:10:35.21	188.26	66.94	-35.9	-37.2	18.7	0.00e+00	0	56	0	288358400	43	4148
2026-01-06 10:10:36.22	188.79	67.35	-35.9	-37.2	18.7	0.00e+00	0	56	0	291504128	43	4191
2026-01-06 10:10:37.23	189.34	67.77	-35.9	-37.2	18.7	0.00e+00	0	56	0	294649856	43	4157
2026-01-06 10:10:38.24	189.91	68.18	-35.8	-37.1	18.7	0.00e+00	0	56	0	297795584	43	4121
2026-01-06 10:10:39.25	190.50	68.59	-35.9	-37.2	18.7	0.00e+00	0	56	0	300941312	43	4152
2026-01-06 10:10:40.26	191.12	69.01	-36.0	-37.3	18.4	0.00e+00	0	56	0	304087040	43	4240
2026-01-06 10:10:41.27	191.77	69.42	-36.0	-37.3	18.4	0.00e+00	0	56	0	307232768	43	4235
2026-01-06 10:10:42.28	192.44	69.83	-35.9	-37.2	18.6	0.00e+00	0	56	0	310378496	43	4187
2026-01-06 10:10:43.29	193.14	70.25	-35.8	-37.1	18.7	0.00e+00	0	56	0	313524224	43	4124
2026-01-06 10:10:44.30	193.88	70.66	-35.7	-36.9	18.9	0.00e+00	0	56	0	316669952	43	4046
2026-01-06 10:10:45.31	194.65	71.06	-35.8	-37.1	18.7	0.00e+00	0	56	0	319815680	43	4140
2026-01-06 10:10:46.32	195.45	71.47	-36.3	-37.7	18.2	0.00e+00	0	56	0	322961408	43	4399
2026-01-06 10:10:47.33	196.30	71.88	-36.3	-37.7	18.1	0.00e+00	0	56	0	326107136	43	4435
2026-01-06 10:10:48.34	197.18	72.28	-36.4	-37.9	18.0	0.00e+00	0	57	0	329252864	43	4500
2026-01-06 10:10:49.35	198.11	72.68	-36.3	-37.7	18.2	0.00e+00	0	56	0	332398592	43	4414
2026-01-06 10:10:50.36	199.08	73.08	-36.0	-37.3	18.5	0.00e+00	0	56	0	335544320	43	4214
2026-01-06 10:10:51.37	200.10	73.47	-35.8	-37.1	18.7	0.00e+00	0	56	0	338690048	43	4104
2026-01-06 10:10:52.38	201.18	73.86	-35.6	-36.9	18.9	0.00e+00	0	56	0	341835776	43	4032
2026-01-06 10:10:53.39	202.30	74.24	-35.9	-37.2	18.7	0.00e+00	0	56	0	344981504	43	4151
2026-01-06 10:10:54.41	203.50	74.63	-35.9	-37.2	18.7	0.00e+00	0	56	0	348127232	43	4172
2026-01-06 10:10:55.42	204.75	75.00	-35.9	-37.2	18.6	7.00e-07	0	56	0	351272960	43	4155
2026-01-06 10:10:56.43	206.07	75.37	-35.7	-37.0	18.8	7.00e-07	0	56	0	354418688	43	4057
2026-01-06 10:10:57.44	207.45	75.73	-35.9	-37.2	18.6	0.00e+00	0	56	0	357564416	43	4154
2026-01-06 10:10:58.45	208.91	76.09	-36.0	-37.3	18.5	0.00e+00	0	56	0	360710144	43	4239
2026-01-06 10:10:59.46	210.45	76.43	-36.1	-37.4	18.4	0.00e+00	0	56	0	363855872	43	4283
2026-01-06 10:11:00.47	212.06	76.77	-36.1	-37.5	18.3	0.00e+00	0	56	0	367001600	43	4305
2026-01-06 10:11:01.48	213.77	77.10	-35.9	-37.2	18.6	0.00e+00	0	56	0	370147328	43	4174
2026-01-06 10:11:02.49	215.56	77.41	-35.5	-36.7	19.1	0.00e+00	0	56	0	373293056	43	3940
2026-01-06 10:11:03.50	217.44	77.72	-35.4	-36.7	19.1	0.00e+00	0	56	0	376438784	42	4155
2026-01-06 10:11:04.51	219.42	78.01	-35.6	-36.8	19.0	0.00e+00	0	56	0	379584512	42	4220
2026-01-06 10:11:05.52	221.50	78.28	-35.7	-36.9	18.9	0.00e+00	0	56	0	382730240	42	4281
2026-01-06 10:11:06.53	223.68	78.55	-35.5	-36.7	19.0	0.00e+00	0	56	0	385875968	42	4185
2026-01-06 10:11:07.54	225.96	78.79	-35.4	-36.6	19.2	0.00e+00	0	56	0	389021696	42	4136
2026-01-06 10:11:08.55	228.34	79.02	-35.7	-37.0	18.7	0.00e+00	0	56	0	392167424	42	4323
2026-01-06 10:11:09.56	230.82	79.23	-36.3	-37.7	18.2	0.00e+00	0	56	0	395313152	43	4398
2026-01-06 10:11:10.57	233.39	79.41	-36.4	-37.8	18.0	0.00e+00	0	56	0	398458880	43	4493
2026-01-06 10:11:11.58	236.05	79.58	-36.2	-37.6	18.2	0.00e+00	0	56	0	401604608	43	4348
2026-01-06 10:11:12.59	238.79	79.72	-36.1	-37.4	18.4	0.00e+00	0	56	0	404750336	43	4287
2026-01-06 10:11:13.60	241.60	79.84	-36.0	-37.3	18.6	0.00e+00	0	56	0	407896064	43	4227
2026-01-06 10:11:14.61	244.48	79.94	-35.8	-37.1	18.7	0.00e+00	0	56	0	411041792	43	4106
2026-01-06 10:11:15.62	247.40	80.01	-35.9	-37.2	18.7	0.00e+00	0	56	0	414187520	43	4169
2026-01-06 10:11:16.63	250.36	80.06	-35.8	-37.1	18.7	0.00e+00	0	56	0	417333248	43	4140
2026-01-06 10:11:17.64	253.34	80.07	-35.9	-37.2	18.7	0.00e+00	0	56	0	420478976	43	4158
2026-01-06 10:11:18.65	256.32	80.07	-36.1	-37.5	18.4	0.00e+00	0	56	0	423624704	43	4314
2026-01-06 10:11:19.66	259.29	80.03	-36.3	-37.7	18.2	7.00e-07	0	56	0	426770432	43	4392
2026-01-06 10:11:20.67	262.23	79.97	-36.0	-37.4	18.5	0.00e+00	0	56	0	429916160	43	4259
2026-01-06 10:11:21.68	265.13	79.89	-36.0	-37.3	18.5	0.00e+00	0	56	0	433061888	43	4226
2026-01-06 10:11:22.70	267.99	79.77	-35.9	-37.2	18.6	0.00e+00	0	56	0	436207616	43	4153
2026-01-06 10:11:23.71	270.76	79.64	-35.7	-36.9	18.9	0.00e+00	0	56	0	439353344	43	4039
2026-01-06 10:11:24.72	273.46	79.48	-35.4	-36.6	19.1	0.00e+00	0	57	0	442499072	42	4144
2026-01-06 10:11:25.73	276.06	79.30	-35.7	-37.0	18.9	0.00e+00	0	56	0	445644800	42	4299
2026-01-06 10:11:26.74	278.58	79.10	-35.9	-37.2	18.6	0.00e+00	0	56	0	448790528	42	4427
2026-01-06 10:11:27.75	280.99	78.88	-36.0	-37.4	18.5	0.00e+00	0	56	0	451936256	42	4514
2026-01-06 10:11:28.76	283.31	78.64	-36.2	-37.5	18.4	0.00e+00	0	56	0	455081984	42	4598
2026-01-06 10:11:29.77	285.53	78.39	-36.6	-38.0	17.9	0.00e+00	0	56	0	458227712	43	4571
2026-01-06 10:11:30.78	287.64	78.12	-36.4	-37.7	18.1	0.00e+00	0	56	0	461373440	43	4440
2026-01-06 10:11:31.79	289.66	77.83	-35.9	-37.2	18.7	0.00e+00	0	56	0	464519168	43	4165
2026-01-06 10:11:32.81	291.60	77.53	-35.6	-36.9	19.0	0.00e+00	0	56	0	467664896	43	4017
2026-01-06 10:11:33.82	293.43	77.22	-35.6	-36.8	18.9	0.00e+00	0	56	0	470810624	43	3990
2026-01-06 10:11:34.83	295.16	76.90	-35.4	-36.6	19.1	0.00e+00	0	56	0	473956352	42	4135
2026-01-06 10:11:35.84	296.81	76.57	-35.4	-36.6	19.2	0.00e+00	0	56	0	477102080	42	4130
2026-01-06 10:11:36.85	298.37	76.22	-35.6	-36.8	18.9	0.00e+00	0	56	0	480247808	42	4234
2026-01-06 10:11:37.86	299.86	75.87	-35.8	-37.1	18.6	0.00e+00	0	56	0	483393536	42	4380
2026-01-06 10:11:38.86	301.26	75.52	-36.1	-37.5	18.4	0.00e+00	0	56	0	487587840	42	4573
2026-01-06 10:11:39.87	302.60	75.15	-36.2	-37.6	18.3	0.00e+00	0	56	0	490733568	43	4360
2026-01-06 10:11:40.88	303.87	74.78	-36.5	-37.9	17.9	0.00e+00	0	56	0	493879296	43	4528
2026-01-06 10:11:41.89	305.08	74.41	-36.1	-37.4	18.4	0.00e+00	0	56	0	495976448	43	4265
2026-01-06 10:11:42.91	306.25	74.02	-35.7	-37.0	18.9	0.00e+00	0	56	0	499122176	43	4052
2026-01-06 10:11:43.92	307.34	73.63	-35.6	-36.9	18.9	0.00e+00	0	56	0	503316480	43	4021
2026-01-06 10:11:44.93	308.38	73.24	-35.7	-37.0	18.9	0.00e+00	0	56	0	506462208	43	4055
2026-01-06 10:11:45.94	309.37	72.85	-35.6	-36.9	18.9	0.00e+00	0	56	0	509607936	42	4263
2026-01-06 10:11:46.95	310.32	72.45	-36.2	-37.6	18.3	0.00e+00	0	56	0	512753664	42	4600
2026-01-06 10:11:47.96	311.22	72.05	-36.1	-37.4	18.4	0.00e+00	0	56	0	515899392	43	4285
2026-01-06 10:11:48.97	312.07	71.64	-35.9	-37.2	18.7	0.00e+00	0	56	0	519045120	43	4148
2026-01-06 10:11:49.98	312.89	71.24	-35.6	-36.8	19.1	0.00e+00	0	56	0	522190848	43	3984
2026-01-06 10:11:50.99	313.68	70.83	-35.4	-36.6	19.2	0.00e+00	0	56	0	525336576	42	4131
2026-01-06 10:11:52.00	314.43	70.42	-34.9	-36.0	19.7	0.00e+00	0	56	0	528482304	41	4098
2026-01-06 10:11:53.01	315.14	70.01	-34.9	-36.0	19.7	0.00e+00	0	56	0	531628032	41	4087
2026-01-06 10:11:54.01	315.82	69.61	-35.8	-37.1	18.7	0.00e+00	0	56	0	534773760	42	4355
2026-01-06 10:11:55.02	316.48	69.19	-36.2	-37.6	18.3	0.00e+00	0	56	0	537919488	43	4368
2026-01-06 10:11:56.03	317.11	68.78	-36.4	-37.7	18.2	0.00e+00	0	56	0	541065216	43	4433
2026-01-06 10:11:57.04	317.71	68.37	-36.0	-37.3	18.6	0.00e+00	0	56	0	544210944	43	4232
2026-01-06 10:11:58.05	318.29	67.96	-35.9	-37.2	18.7	0.00e+00	0	56	0	547356672	43	4151
2026-01-06 10:11:59.06	318.85	67.54	-35.2	-36.4	19.4	7.00e-07	0	56	0	550502400	42	4050
2026-01-06 10:12:00.07	319.38	67.13	-35.2	-36.4	19.4	0.00e+00	0	56	0	553648128	42	4035
2026-01-06 10:12:01.06	319.88	66.73	-35.8	-37.1	18.8	0.00e+00	0	56	0	556793856	42	4377
2026-01-06 10:12:02.07	320.38	66.31	-36.4	-37.8	18.2	0.00e+00	0	57	0	559939584	43	4477
2026-01-06 10:12:03.08	320.86	65.90	-36.5	-37.9	18.1	0.00e+00	0	56	0	563085312	43	4509
2026-01-06 10:12:04.09	321.32	65.49	-36.2	-37.6	18.3	0.00e+00	0	56	0	566231040	43	4346
2026-01-06 10:12:05.10	321.76	65.08	-36.0	-37.4	18.5	0.00e+00	0	56	0	569376768	43	4244
2026-01-06 10:12:06.11	322.18	64.67	-35.6	-36.8	19.1	0.00e+00	0	56	0	572522496	43	4003
2026-01-06 10:12:07.12	322.60	64.27	-35.3	-36.5	19.3	0.00e+00	0	56	0	575668224	42	4088
2026-01-06 10:12:08.13	322.99	63.86	-36.0	-37.2	18.7	0.00e+00	0	56	0	578813952	42	4440
2026-01-06 10:12:09.14	323.38	63.45	-37.1	-38.6	17.6	0.00e+00	0	56	0	581959680	44	4609
2026-01-06 10:12:10.16	323.75	63.05	-37.4	-38.9	17.0	0.00e+00	0	56	0	585105408	45	4538
2026-01-06 10:12:11.16	324.11	62.65	-37.1	-38.6	17.4	0.00e+00	0	56	0	588251136	45	4356
2026-01-06 10:12:12.18	324.46	62.24	-36.5	-37.9	18.2	0.00e+00	0	56	0	591396864	45	4024
2026-01-06 10:12:13.19	324.80	61.84	-36.4	-37.7	18.4	0.00e+00	0	56	0	594542592	44	4183
2026-01-06 10:12:14.20	325.12	61.44	-36.0	-37.3	18.7	0.00e+00	0	56	0	597688320	44	3992
2026-01-06 10:12:15.21	325.44	61.05	-36.1	-37.4	18.7	0.00e+00	0	56	0	600834048	44	4047
2026-01-06 10:12:16.22	325.74	60.65	-36.7	-38.1	18.0	0.00e+00	0	56	0	603979776	44	4353
2026-01-06 10:12:17.23	326.04	60.26	-37.3	-38.8	17.3	0.00e+00	0	56	0	607125504	45	4490
2026-01-06 10:12:18.24	326.33	59.87	-38.1	-39.8	16.5	0.00e+00	0	56	0	610271232	46	4716
2026-01-06 10:12:19.25	326.60	59.48	-37.8	-39.4	16.7	0.00e+00	0	56	0	613416960	46	4512
2026-01-06 10:12:20.26	326.88	59.09	-36.9	-38.3	17.7	0.00e+00	0	56	0	616562688	45	4233
2026-01-06 10:12:21.27	327.14	58.70	-36.2	-37.5	18.6	0.00e+00	0	56	0	619708416	44	4080
2026-01-06 10:12:22.28	327.39	58.32	-36.0	-37.2	18.9	0.00e+00	0	57	0	622854144	44	3944
2026-01-06 10:12:23.29	327.64	57.94	-36.1	-37.4	18.6	0.00e+00	0	56	0	625999872	43	4259
2026-01-06 10:12:24.30	327.88	57.56	-37.1	-38.6	17.6	0.00e+00	0	56	0	629145600	44	4610
2026-01-06 10:12:25.31	328.12	57.18	-38.0	-39.6	16.7	0.00e+00	0	56	0	632291328	46	4633
2026-01-06 10:12:26.32	328.35	56.81	-38.7	-40.5	15.7	0.00e+00	0	56	0	635437056	47	4852
2026-01-06 10:12:27.33	328.57	56.43	-39.2	-41.2	15.2	0.00e+00	0	56	0	638582784	49	4658
2026-01-06 10:12:28.34	328.79	56.06	-39.4	-41.4	14.9	0.00e+00	0	56	0	641728512	49	4795
2026-01-06 10:12:29.35	329.00	55.69	-39.2	-41.1	15.0	0.00e+00	0	56	0	644874240	49	4642
2026-01-06 10:12:30.36	329.21	55.32	-38.5	-40.2	16.0	0.00e+00	0	56	0	648019968	48	4412
2026-01-06 10:12:31.37	329.41	54.96	-37.5	-39.0	17.1	0.00e+00	0	56	0	651165696	47	4078
2026-01-06 10:12:32.38	329.60	54.60	-37.4	-38.8	17.3	0.00e+00	0	56	0	654311424	46	4237
2026-01-06 10:12:33.39	329.79	54.24	-37.5	-39.0	17.1	0.00e+00	0	56	0	657457152	46	4317
2026-01-06 10:12:34.40	329.98	53.88	-38.1	-39.7	16.4	0.00e+00	0	56	0	660602880	46	4683
2026-01-06 10:12:35.41	330.16	53.52	-38.6	-40.4	15.7	0.00e+00	0	56	0	663748608	47	4771
2026-01-06 10:12:36.42	330.34	53.17	-38.9	-40.7	15.5	0.00e+00	0	56	0	666894336	48	4676
2026-01-06 10:12:37.43	330.51	52.82	-38.8	-40.6	15.7	0.00e+00	0	56	0	670040064	48	4635
2026-01-06 10:12:38.44	330.68	52.47	-39.1	-41.0	15.4	0.00e+00	0	56	0	673185792	48	4821
2026-01-06 10:12:39.45	330.85	52.12	-39.5	-41.5	14.9	0.00e+00	0	56	0	676331520	49	4841
2026-01-06 10:12:40.46	331.01	51.77	-39.6	-41.7	14.7	0.00e+00	0	56	0	679477248	49	4937
2026-01-06 10:12:41.47	331.17	51.43	-39.5	-41.5	14.8	0.00e+00	0	56	0	682622976	49	4850
2026-01-06 10:12:42.48	331.32	51.09	-39.0	-40.9	15.5	0.00e+00	0	56	0	685768704	49	4499
2026-01-06 10:12:43.49	331.48	50.75	-38.3	-39.9	16.4	0.00e+00	0	56	0	688914432	48	4272
2026-01-06 10:12:44.50	331.62	50.42	-38.1	-39.7	16.6	0.00e+00	0	56	0	692060160	48	4162
2026-01-06 10:12:45.51	331.77	50.08	-38.4	-40.0	16.2	0.00e+00	0	57	0	695205888	48	4334
2026-01-06 10:12:46.52	331.91	49.75	-38.7	-40.5	15.6	0.00e+00	0	56	0	698351616	48	4563
2026-01-06 10:12:47.54	332.05	49.42	-39.1	-40.9	15.2	0.00e+00	0	57	0	701497344	48	4786
2026-01-06 10:12:48.55	332.19	49.09	-39.3	-41.2	15.0	0.00e+00	0	56	0	704643072	49	4695
2026-01-06 10:12:49.56	332.32	48.77	-39.4	-41.3	14.9	0.00e+00	0	56	0	707788800	49	4748
2026-01-06 10:12:50.56	332.45	48.45	-39.1	-40.9	15.2	0.00e+00	0	56	0	710934528	49	4537
2026-01-06 10:12:51.57	332.58	48.13	-39.1	-40.9	15.3	0.00e+00	0	56	0	714080256	49	4529
2026-01-06 10:12:52.58	332.70	47.81	-39.0	-40.9	15.4	0.00e+00	0	56	0	717225984	49	4497
2026-01-06 10:12:53.59	332.83	47.50	-39.3	-41.2	15.1	0.00e+00	0	56	0	720371712	49	4686
2026-01-06 10:12:54.60	332.95	47.18	-39.5	-41.5	14.8	0.00e+00	0	56	0	723517440	49	4858
2026-01-06 10:12:55.61	333.06	46.87	-39.8	-41.9	14.5	7.00e-07	0	56	0	726663168	50	4782
2026-01-06 10:12:56.62	333.18	46.56	-39.7	-41.7	14.6	7.00e-07	0	56	0	729808896	50	4705
2026-01-06 10:12:57.63	333.29	46.26	-39.4	-41.3	15.0	0.00e+00	0	56	0	732954624	50	4485
2026-01-06 10:12:58.64	333.41	45.95	-39.3	-41.2	15.1	0.00e+00	0	56	0	736100352	50	4426
2026-01-06 10:12:59.65	333.52	45.65	-39.5	-41.5	14.9	0.00e+00	0	56	0	739246080	50	4549
2026-01-06 10:13:00.66	333.62	45.35	-39.8	-41.9	14.4	0.00e+00	0	56	0	742391808	50	4801
2026-01-06 10:13:01.67	333.73	45.05	-40.1	-42.3	14.0	2.20e-06	0	56	0	745537536	50	5015
2026-01-06 10:13:02.68	333.83	44.75	-40.2	-42.5	13.8	2.20e-06	0	56	0	748683264	50	5141
2026-01-06 10:13:03.69	333.94	44.46	-40.3	-42.7	13.6	4.50e-06	0	56	0	751828992	51	4959
2026-01-06 10:13:04.70	334.04	44.17	-40.4	-42.8	13.2	2.05e-05	0	56	0	754974720	51	5032
2026-01-06 10:13:05.71	334.13	43.88	-40.5	-42.9	13.2	1.67e-05	0	56	0	758120448	51	5061
2026-01-06 10:13:06.72	334.23	43.59	-40.2	-42.5	13.7	9.10e-06	0	56	0	761266176	51	4860
2026-01-06 10:13:07.73	334.33	43.30	-39.8	-41.9	14.3	7.00e-07	0	56	0	764411904	51	4535
2026-01-06 10:13:08.74	334.42	43.02	-39.5	-41.5	14.7	0.00e+00	0	56	0	767557632	51	4306
2026-01-06 10:13:09.75	334.51	42.74	-39.3	-41.1	15.0	0.00e+00	0	56	0	770703360	50	4391
2026-01-06 10:13:10.76	334.60	42.46	-39.2	-41.1	15.1	0.00e+00	0	56	0	773849088	50	4389
2026-01-06 10:13:11.77	334.69	42.18	-39.2	-41.1	15.2	0.00e+00	0	56	0	776994816	50	4351
2026-01-06 10:13:12.78	334.78	41.91	-39.4	-41.3	15.0	7.00e-07	0	56	0	780140544	50	4487
2026-01-06 10:13:13.79	334.86	41.63	-39.5	-41.5	14.8	7.00e-07	0	56	0	783286272	50	4591
2026-01-06 10:13:14.80	334.95	41.36	-39.5	-41.6	14.7	0.00e+00	0	56	0	786432000	50	4607
2026-01-06 10:13:15.81	335.03	41.09	-39.2	-41.1	15.2	0.00e+00	0	56	0	789577728	50	4391
2026-01-06 10:13:16.82	335.11	40.82	-39.2	-41.0	15.3	0.00e+00	0	56	0	792723456	50	4338
2026-01-06 10:13:17.83	335.20	40.56	-39.2	-41.1	15.2	0.00e+00	0	56	0	795869184	50	4384
2026-01-06 10:13:18.84	335.28	40.29	-39.6	-41.6	14.7	7.00e-07	0	56	0	799014912	50	4629
2026-01-06 10:13:19.85	335.35	40.03	-40.0	-42.2	14.1	7.00e-07	0	56	0	802160640	50	4939
2026-01-06 10:13:20.86	335.43	39.77	-40.3	-42.6	13.5	1.14e-05	0	56	0	806354944	51	4925
2026-01-06 10:13:21.88	335.51	39.51	-40.4	-42.8	13.4	2.13e-05	0	56	0	809500672	51	5000
2026-01-06 10:13:22.89	335.58	39.26	-40.4	-42.8	13.4	1.29e-05	0	57	0	811597824	51	5023
2026-01-06 10:13:23.90	335.66	39.00	-40.3	-42.7	13.5	1.75e-05	0	56	0	814743552	51	4973
2026-01-06 10:13:24.91	335.73	38.75	-40.1	-42.4	13.8	9.10e-06	0	56	0	817889280	51	4789
2026-01-06 10:13:25.92	335.80	38.50	-39.8	-42.0	14.2	3.00e-06	0	56	0	822083584	51	4574
2026-01-06 10:13:26.93	335.87	38.25	-39.6	-41.7	14.5	7.00e-07	0	56	0	825229312	51	4412
2026-01-06 10:13:27.94	335.94	38.00	-39.3	-41.2	15.0	0.00e+00	0	56	0	828375040	50	4423
2026-01-06 10:13:28.95	336.01	37.76	-39.0	-40.9	15.4	0.00e+00	0	56	0	831520768	50	4251
2026-01-06 10:13:29.96	336.08	37.51	-38.7	-40.5	15.7	0.00e+00	0	56	0	833617920	49	4316
2026-01-06 10:13:30.97	336.14	37.27	-38.5	-40.2	16.1	0.00e+00	0	56	0	837812224	48	4405
2026-01-06 10:13:31.98	336.21	37.03	-38.1	-39.8	16.4	0.00e+00	0	56	0	840957952	48	4206
2026-01-06 10:13:32.99	336.27	36.79	-38.2	-39.9	16.3	0.00e+00	0	56	0	844103680	48	4263
2026-01-06 10:13:34.00	336.34	36.56	-38.4	-40.1	16.1	0.00e+00	0	56	0	847249408	48	4359
2026-01-06 10:13:35.01	336.40	36.32	-38.4	-40.1	16.1	0.00e+00	0	56	0	850395136	48	4378
2026-01-06 10:13:36.02	336.46	36.09	-38.4	-40.1	16.1	0.00e+00	0	56	0	853540864	48	4358
2026-01-06 10:13:37.03	336.52	35.85	-38.4	-40.1	16.2	0.00e+00	0	56	0	856686592	48	4344
2026-01-06 10:13:38.04	336.59	35.62	-38.1	-39.7	16.5	0.00e+00	0	56	0	859832320	48	4176
2026-01-06 10:13:39.05	336.64	35.40	-38.0	-39.6	16.6	0.00e+00	0	56	0	862978048	48	4135
2026-01-06 10:13:40.06	336.70	35.17	-38.2	-39.8	16.4	0.00e+00	0	56	0	866123776	48	4231
2026-01-06 10:13:41.07	336.76	34.94	-38.2	-39.9	16.3	0.00e+00	0	56	0	869269504	48	4243
2026-01-06 10:13:42.08	336.82	34.72	-38.3	-40.0	16.2	0.00e+00	0	56	0	872415232	48	4305
2026-01-06 10:13:43.09	336.88	34.50	-38.4	-40.0	16.2	0.00e+00	0	56	0	875560960	48	4337
2026-01-06 10:13:44.10	336.93	34.28	-38.4	-40.1	16.1	0.00e+00	0	56	0	878706688	48	4351
2026-01-06 10:13:45.11	336.99	34.06	-38.3	-39.9	16.3	0.00e+00	0	56	0	881852416	48	4279
2026-01-06 10:13:46.12	337.04	33.84	-38.3	-40.0	16.2	0.00e+00	0	56	0	884998144	48	4331
2026-01-06 10:13:47.13	337.10	33.63	-38.4	-40.1	16.0	0.00e+00	0	56	0	888143872	48	4385
2026-01-06 10:13:48.14	337.15	33.41	-38.4	-40.1	16.0	0.00e+00	0	56	0	891289600	48	4379
2026-01-06 10:13:49.15	337.20	33.20	-38.4	-40.1	16.1	0.00e+00	0	56	0	894435328	48	4365
2026-01-06 10:13:50.16	337.26	32.99	-38.2	-39.9	16.3	0.00e+00	0	56	0	897581056	48	4283
2026-01-06 10:13:51.17	337.31	32.78	-38.0	-39.7	16.5	0.00e+00	0	56	0	900726784	48	4153
2026-01-06 10:13:52.18	337.36	32.57	-37.8	-39.4	16.6	0.00e+00	0	56	0	903872512	47	4287
2026-01-06 10:13:53.19	337.41	32.36	-37.7	-39.2	16.8	0.00e+00	0	56	0	907018240	47	4190
2026-01-06 10:13:54.20	337.46	32.15	-37.7	-39.3	16.7	0.00e+00	0	56	0	910163968	47	4212
2026-01-06 10:13:55.21	337.51	31.95	-37.6	-39.2	16.7	0.00e+00	0	56	0	913309696	47	4178
2026-01-06 10:13:56.22	337.56	31.75	-37.5	-39.0	17.0	0.00e+00	0	56	0	916455424	46	4326
2026-01-06 10:13:57.23	337.60	31.54	-37.5	-39.1	17.0	0.00e+00	0	57	0	919601152	46	4345
2026-01-06 10:13:58.24	337.65	31.34	-37.4	-38.9	17.1	0.00e+00	0	56	0	922746880	46	4276
2026-01-06 10:13:59.25	337.70	31.15	-37.2	-38.7	17.2	0.00e+00	0	56	0	925892608	46	4183
2026-01-06 10:14:00.26	337.74	30.95	-37.1	-38.6	17.4	0.00e+00	0	56	0	929038336	46	4128
2026-01-06 10:14:01.27	337.79	30.75	-37.1	-38.6	17.4	0.00e+00	0	56	0	932184064	46	4104
2026-01-06 10:14:02.28	337.84	30.56	-37.0	-38.4	17.5	0.00e+00	0	56	0	935329792	46	4044
2026-01-06 10:14:03.29	337.88	30.36	-37.0	-38.5	17.5	0.00e+00	0	56	0	938475520	46	4067
2026-01-06 10:14:04.30	337.92	30.17	-37.2	-38.7	17.3	0.00e+00	0	56	0	941621248	46	4154
2026-01-06 10:14:05.31	337.97	29.98	-37.2	-38.6	17.4	0.00e+00	0	56	0	944766976	46	4139
2026-01-06 10:14:06.32	338.01	29.79	-37.2	-38.7	17.3	0.00e+00	0	56	0	947912704	46	4176
2026-01-06 10:14:07.33	338.06	29.60	-37.3	-38.8	17.2	0.00e+00	0	56	0	951058432	46	4209
2026-01-06 10:14:08.34	338.10	29.41	-37.3	-38.8	17.2	0.00e+00	0	56	0	954204160	46	4207
2026-01-06 10:14:09.35	338.14	29.23	-37.3	-38.7	17.2	0.00e+00	0	56	0	957349888	46	4193
2026-01-06 10:14:10.36	338.18	29.04	-37.3	-38.8	17.1	0.00e+00	0	56	0	960495616	46	4237
2026-01-06 10:14:11.37	338.22	28.86	-37.4	-38.9	17.0	0.00e+00	0	56	0	963641344	46	4275
2026-01-06 10:14:12.38	338.26	28.68	-37.6	-39.1	16.8	0.00e+00	0	56	0	966787072	46	4378
2026-01-06 10:14:13.39	338.30	28.49	-37.6	-39.2	16.8	0.00e+00	0	56	0	969932800	46	4395
2026-01-06 10:14:14.40	338.34	28.31	-37.7	-39.3	16.6	0.00e+00	0	56	0	973078528	46	4485
2026-01-06 10:14:15.41	338.38	28.14	-37.7	-39.4	16.6	0.00e+00	0	56	0	976224256	46	4517
2026-01-06 10:14:16.41	338.42	27.96	-37.8	-39.4	16.5	0.00e+00	0	56	0	979369984	46	4522
2026-01-06 10:14:17.42	338.46	27.78	-37.7	-39.4	16.6	0.00e+00	0	56	0	982515712	46	4508
2026-01-06 10:14:18.44	338.50	27.61	-37.7	-39.3	16.6	0.00e+00	0	56	0	985661440	46	4466
2026-01-06 10:14:19.45	338.54	27.43	-37.7	-39.4	16.6	0.00e+00	0	56	0	988807168	46	4497
2026-01-06 10:14:20.46	338.58	27.26	-37.6	-39.3	16.6	0.00e+00	0	57	0	991952896	46	4444
2026-01-06 10:14:21.47	338.61	27.08	-37.5	-39.1	16.8	0.00e+00	0	56	0	995098624	46	4363
2026-01-06 10:14:22.48	338.65	26.91	-37.5	-39.1	16.8	0.00e+00	0	56	0	998244352	46	4346
2026-01-06 10:14:23.49	338.69	26.74	-37.4	-39.0	16.9	0.00e+00	0	56	0	1001390080	46	4325
2026-01-06 10:14:24.50	338.72	26.57	-37.4	-38.9	16.9	0.00e+00	0	56	0	1004535808	46	4289
2026-01-06 10:14:25.51	338.76	26.41	-37.3	-38.9	16.9	0.00e+00	0	56	0	1007681536	46	4275
2026-01-06 10:14:26.52	338.79	26.24	-37.3	-38.9	17.0	0.00e+00	0	56	0	1010827264	46	4257
2026-01-06 10:14:27.53	338.83	26.07	-37.4	-38.9	17.0	0.00e+00	0	56	0	1013972992	46	4281
2026-01-06 10:14:28.54	338.86	25.91	-37.3	-38.8	17.1	0.00e+00	0	56	0	1017118720	46	4220
2026-01-06 10:14:29.55	338.90	25.74	-37.2	-38.8	17.1	0.00e+00	0	56	0	1020264448	46	4210
2026-01-06 10:14:30.56	338.93	25.58	-37.3	-38.8	17.1	0.00e+00	0	56	0	1023410176	46	4221
2026-01-06 10:14:31.57	338.97	25.42	-37.2	-38.7	17.1	0.00e+00	0	56	0	1026555904	46	4174
2026-01-06 10:14:32.58	339.00	25.26	-37.2	-38.7	17.1	0.00e+00	0	56	0	1029701632	46	4188
2026-01-06 10:14:33.59	339.03	25.10	-37.3	-38.8	17.0	0.00e+00	0	56	0	1032847360	46	4236
2026-01-06 10:14:34.60	339.07	24.94	-37.3	-38.8	17.0	0.00e+00	0	56	0	1035993088	46	4242
2026-01-06 10:14:35.61	339.10	24.78	-37.3	-38.9	16.9	0.00e+00	0	56	0	1039138816	46	4265
2026-01-06 10:14:36.63	339.13	24.62	-37.3	-38.9	16.9	0.00e+00	0	56	0	1042284544	46	4280
2026-01-06 10:14:37.63	339.17	24.47	-37.3	-38.9	16.9	0.00e+00	0	56	0	1045430272	46	4265
2026-01-06 10:14:38.64	339.20	24.31	-37.3	-38.9	16.9	0.00e+00	0	56	0	1048576000	46	4263
2026-01-06 10:14:39.65	339.23	24.16	-37.3	-38.9	16.8	0.00e+00	0	56	0	1051721728	46	4275
2026-01-06 10:14:40.66	339.26	24.00	-37.3	-38.9	16.8	0.00e+00	0	56	0	1054867456	46	4249
2026-01-06 10:14:41.67	339.29	23.85	-37.2	-38.8	16.9	0.00e+00	0	56	0	1058013184	46	4224
2026-01-06 10:14:42.68	339.32	23.70	-37.2	-38.7	17.0	0.00e+00	0	56	0	1061158912	46	4183
2026-01-06 10:14:43.70	339.35	23.55	-37.2	-38.7	16.9	0.00e+00	0	56	0	1064304640	46	4188
2026-01-06 10:14:44.71	339.38	23.40	-37.1	-38.7	17.0	0.00e+00	0	56	0	1067450368	46	4161
2026-01-06 10:14:45.72	339.41	23.25	-37.1	-38.6	17.0	0.00e+00	0	56	0	1070596096	46	4144
2026-01-06 10:14:46.73	339.44	23.10	-37.1	-38.6	17.0	0.00e+00	0	56	0	1073741824	46	4141
2026-01-06 10:14:47.74	339.47	22.95	-37.1	-38.6	16.9	0.00e+00	0	56	0	1076887552	46	4130
2026-01-06 10:14:48.75	339.50	22.80	-37.0	-38.6	17.0	0.00e+00	0	57	0	1080033280	46	4107
2026-01-06 10:14:49.76	339.53	22.66	-36.9	-38.5	17.0	0.00e+00	0	56	0	1083179008	45	4310
2026-01-06 10:14:50.78	339.56	22.51	-37.0	-38.6	16.8	0.00e+00	0	56	0	1086324736	45	4363
2026-01-06 10:14:51.79	339.59	22.37	-36.9	-38.5	16.8	0.00e+00	0	56	0	1089470464	45	4339
2026-01-06 10:14:52.80	339.62	22.23	-36.8	-38.4	16.8	0.00e+00	0	56	0	1092616192	45	4267
2026-01-06 10:14:53.81	339.65	22.08	-36.8	-38.4	16.8	0.00e+00	0	56	0	1095761920	45	4257
2026-01-06 10:14:54.82	339.67	21.94	-36.9	-38.5	16.6	0.00e+00	0	56	0	1099956224	45	4306
2026-01-06 10:14:55.83	339.70	21.80	-36.9	-38.5	16.5	0.00e+00	0	56	0	1102053376	45	4332
2026-01-06 10:14:56.84	339.73	21.66	-36.8	-38.5	16.4	0.00e+00	0	56	0	1105199104	45	4317
2026-01-06 10:14:57.85	339.76	21.52	-36.8	-38.4	16.5	0.00e+00	0	56	0	1108344832	45	4286
2026-01-06 10:14:58.86	339.78	21.38	-36.6	-38.3	16.6	0.00e+00	0	56	0	1111490560	45	4205
2026-01-06 10:14:59.87	339.81	21.24	-36.6	-38.2	16.6	0.00e+00	0	56	0	1115684864	45	4171
2026-01-06 10:15:00.88	339.84	21.11	-36.5	-38.1	16.6	0.00e+00	0	56	0	1118830592	45	4136
2026-01-06 10:15:01.89	339.86	20.97	-36.6	-38.3	16.4	0.00e+00	0	56	0	1121976320	44	4456
2026-01-06 10:15:02.90	339.89	20.83	-36.9	-38.7	15.8	0.00e+00	0	56	0	1125122048	44	4662
2026-01-06 10:15:03.91	339.92	20.70	-37.4	-39.4	15.0	0.00e+00	0	56	0	1127219200	45	4768
2026-01-06 10:15:04.92	339.94	20.57	-37.9	-40.2	13.9	7.00e-07	0	56	0	1131413504	46	4945
2026-01-06 10:15:05.93	339.97	20.43	-38.5	-41.2	12.6	6.02e-05	0	56	0	1134559232	47	5256
2026-01-06 10:15:06.94	339.99	20.30	-39.1	-42.3	11.2	5.38e-04	0	56	0	1137704960	48	5634
2026-01-06 10:15:07.95	340.02	20.17	-39.5	-43.4	9.8	6.37e-03	0	56	0	1140850688	49	5996
2026-01-06 10:15:08.96	340.05	20.04	-39.9	-44.4	8.4	3.06e-02	0	56	0	1143996416	50	6407
2026-01-06 10:15:09.97	340.07	19.90	-40.1	-45.3	7.3	9.54e-02	0	56	0	1147142144	50	7104
2026-01-06 10:15:10.98	340.10	19.77	-40.2	-46.1	6.5	2.07e-01	0	56	0	1150287872	51	7305
2026-01-06 10:15:11.99	340.12	19.65	-40.3	-46.9	5.7	3.75e-01	0	56	0	1153433600	51	8068
2026-01-06 10:15:13.00	340.14	19.52	-40.4	-47.7	5.1	5.50e-01	0	56	0	1156579328	51	8832
2026-01-06 10:15:14.01	340.17	19.39	-40.6	-48.7	4.6	1.32e+00	2	56	104	1157627904	51	9905
2026-01-06 10:15:15.02	340.19	19.26	-40.7	-50.4	3.9	1.46e+00	0	57	104	1157627904	51	11963
2026-01-06 10:15:16.03	340.22	19.13	-40.7	-50.8	3.9	1.48e+00	0	56	104	1157627904	52	11929
2026-01-06 10:15:17.04	340.24	19.01	-40.8	-51.9	3.8	1.49e+00	0	56	104	1157627904	52	13557
2026-01-06 10:15:18.05	340.26	18.88	-41.2	-53.0	3.8	1.49e+00	0	56	104	1157627904	52	15318
2026-01-06 10:15:19.05	340.29	18.76	-40.7	-52.9	3.8	1.49e+00	0	57	104	1157627904	52	15178
2026-01-06 10:15:20.06	340.31	18.64	-41.1	-52.1	3.8	1.49e+00	0	57	104	1157627904	52	13824
2026-01-06 10:15:21.07	340.33	18.51	-40.3	-52.9	3.8	1.49e+00	0	56	104	1157627904	52	15177
2026-01-06 10:15:22.08	340.36	18.39	-41.1	-52.5	3.8	1.49e+00	0	56	104	1157627904	52	14389
2026-01-06 10:15:23.09	340.38	18.27	-41.0	-52.7	3.8	1.49e+00	0	56	104	1157627904	52	14756
2026-01-06 10:15:24.10	340.40	18.14	-41.0	-52.6	3.8	1.49e+00	0	57	104	1157627904	52	14695
2026-01-06 10:15:25.11	340.43	18.02	-42.1	-54.4	3.8	1.49e+00	0	56	104	1157627904	54	15970
2026-01-06 10:15:26.12	340.45	17.90	-41.0	-52.1	3.8	1.49e+00	0	56	104	1157627904	54	12270
2026-01-06 10:15:27.13	340.47	17.78	-40.4	-52.9	3.8	1.49e+00	0	57	104	1157627904	52	15109
2026-01-06 10:15:28.14	340.49	17.66	-40.5	-52.9	3.8	1.49e+00	0	57	104	1157627904	52	15158
2026-01-06 10:15:29.15	340.51	17.54	-41.1	-52.8	3.8	1.49e+00	0	57	104	1157627904	52	15016
2026-01-06 10:15:30.15	340.54	17.43	-40.7	-52.3	3.8	1.49e+00	0	56	104	1157627904	52	14154
2026-01-06 10:15:31.17	340.56	17.31	-40.7	-52.3	3.8	1.49e+00	0	57	104	1157627904	52	14131
2026-01-06 10:15:32.17	340.58	17.19	-40.6	-52.4	3.8	1.49e+00	0	56	104	1157627904	52	14319
2026-01-06 10:15:33.18	340.60	17.08	-40.5	-52.9	3.8	1.49e+00	0	56	104	1157627904	52	15095
2026-01-06 10:15:34.19	340.62	16.96	-40.5	-52.4	3.8	1.49e+00	0	56	104	1157627904	52	14223
2026-01-06 10:15:35.20	340.64	16.84	-40.2	-52.7	3.8	1.49e+00	0	57	104	1157627904	52	14849
2026-01-06 10:15:36.21	340.67	16.73	-40.4	-52.8	3.8	1.49e+00	0	57	104	1157627904	52	14977
2026-01-06 10:15:37.22	340.69	16.62	-40.6	-52.8	3.8	1.49e+00	0	57	104	1157627904	52	15007
2026-01-06 10:15:38.23	340.71	16.50	-40.4	-52.8	3.8	1.49e+00	0	56	104	1157627904	52	15004
2026-01-06 10:15:39.24	340.73	16.39	-40.5	-52.8	3.8	1.49e+00	0	56	104	1157627904	52	15016
2026-01-06 10:15:40.25	340.75	16.28	-40.4	-52.7	3.8	1.49e+00	0	56	104	1157627904	52	14833
2026-01-06 10:15:41.26	340.77	16.16	-40.4	-52.8	3.8	1.49e+00	0	57	104	1157627904	52	14959
2026-01-06 10:15:42.27	340.79	16.05	-40.4	-52.8	3.8	1.49e+00	0	56	104	1157627904	52	14943
2026-01-06 10:15:43.28	340.81	15.94	-40.5	-52.8	3.8	1.49e+00	0	56	104	1157627904	52	15011
2026-01-06 10:15:44.29	340.83	15.83	-40.4	-52.7	3.8	1.49e+00	0	57	104	1157627904	52	14810
2026-01-06 10:15:45.30	340.85	15.72	-40.3	-52.8	3.8	1.49e+00	0	56	104	1157627904	52	14903
2026-01-06 10:15:46.31	340.87	15.61	-40.4	-52.7	3.8	1.49e+00	0	56	104	1157627904	52	14768
2026-01-06 10:15:47.32	340.89	15.50	-40.3	-52.8	3.8	1.49e+00	0	56	104	1157627904	52	14942
2026-01-06 10:15:48.33	340.91	15.39	-40.4	-52.7	3.8	1.49e+00	0	57	104	1157627904	52	14796
2026-01-06 10:15:49.34	340.93	15.28	-40.5	-52.7	3.8	1.49e+00	0	57	104	1157627904	52	14861
2026-01-06 10:15:50.35	340.95	15.18	-40.4	-52.7	3.8	1.49e+00	0	57	104	1157627904	52	14761
2026-01-06 10:15:51.36	340.97	15.07	-40.5	-52.7	3.8	1.49e+00	0	57	104	1157627904	52	14854
2026-01-06 10:15:52.37	340.99	14.96	-40.4	-52.8	3.8	1.49e+00	0	57	104	1157627904	52	14901
2026-01-06 10:15:53.38	341.01	14.86	-40.4	-52.7	3.8	1.49e+00	0	57	104	1157627904	52	14830
2026-01-06 10:15:54.39	341.02	14.75	-40.4	-52.8	3.8	1.49e+00	0	56	104	1157627904	52	14912
2026-01-06 10:15:55.40	341.04	14.64	-40.4	-52.7	3.8	1.49e+00	0	57	104	1157627904	52	14871
2026-01-06 10:15:56.41	341.06	14.54	-40.5	-52.7	3.8	1.49e+00	0	56	104	1157627904	52	14845
2026-01-06 10:15:57.42	341.08	14.43	-40.4	-52.7	3.8	1.49e+00	0	56	104	1157627904	52	14857
2026-01-06 10:15:58.43	341.10	14.33	-40.5	-52.8	3.8	1.49e+00	0	56	104	1157627904	52	14952
2026-01-06 10:15:59.44	341.12	14.23	-40.4	-52.9	3.8	1.49e+00	0	57	104	1157627904	52	15101
2026-01-06 10:16:00.45	341.14	14.12	-40.2	-52.8	3.8	1.49e+00	0	57	104	1157627904	52	14908
2026-01-06 10:16:01.46	341.15	14.02	-40.4	-52.8	3.8	1.49e+00	0	56	104	1157627904	52	14940
2026-01-06 10:16:02.47	341.17	13.92	-40.2	-52.8	3.8	1.49e+00	0	57	104	1157627904	52	14927
2026-01-06 10:16:03.48	341.19	13.82	-40.5	-52.8	3.8	1.49e+00	0	57	104	1157627904	52	14943
2026-01-06 10:16:04.49	341.21	13.71	-40.3	-52.8	3.8	1.49e+00	0	56	104	1157627904	52	14905
2026-01-06 10:16:05.50	341.23	13.61	-40.2	-52.8	3.8	1.49e+00	0	57	104	1157627904	52	14931
2026-01-06 10:16:06.51	341.24	13.51	-40.1	-52.7	3.8	1.49e+00	0	56	104	1157627904	52	14861
2026-01-06 10:16:07.52	341.26	13.41	-40.0	-52.7	3.8	1.49e+00	0	56	104	1157627904	52	14801
2026-01-06 10:16:08.53	341.28	13.31	-40.1	-52.7	3.8	1.49e+00	0	56	104	1157627904	52	14793
2026-01-06 10:16:09.54	341.30	13.21	-40.0	-52.7	3.8	1.49e+00	0	57	104	1157627904	52	14717
2026-01-06 10:16:10.55	341.31	13.11	-40.0	-52.6	3.8	1.49e+00	0	57	104	1157627904	52	14690
2026-01-06 10:16:11.57	341.33	13.01	-40.2	-52.7	3.8	1.49e+00	0	57	104	1157627904	52	14744
2026-01-06 10:16:12.58	341.35	12.92	-40.0	-52.6	3.8	1.49e+00	0	57	104	1157627904	52	14692
2026-01-06 10:16:13.58	341.37	12.82	-40.1	-52.6	3.8	1.49e+00	0	57	104	1157627904	52	14664
2026-01-06 10:16:14.59	341.38	12.72	-40.1	-52.7	3.8	1.49e+00	0	57	104	1157627904	52	14765
2026-01-06 10:16:15.60	341.40	12.63	-40.4	-52.8	3.8	1.49e+00	0	56	104	1157627904	52	14889
2026-01-06 10:16:16.61	341.42	12.53	-40.1	-52.6	3.8	1.49e+00	0	56	104	1157627904	52	14685
2026-01-06 10:16:17.62	341.43	12.43	-40.4	-52.7	3.8	1.49e+00	0	57	104	1157627904	52	14744
2026-01-06 10:16:18.63	341.45	12.34	-40.1	-52.7	3.8	1.49e+00	0	56	104	1157627904	52	14711
2026-01-06 10:16:19.64	341.47	12.24	-40.3	-52.7	3.8	1.49e+00	0	57	104	1157627904	52	14739
2026-01-06 10:16:20.64	341.48	12.15	-40.3	-52.7	3.8	1.49e+00	0	57	104	1157627904	52	14866
2026-01-06 10:16:21.66	341.50	12.05	-40.4	-52.7	3.8	1.49e+00	0	57	104	1157627904	52	14797
2026-01-06 10:16:22.67	341.52	11.96	-40.4	-52.8	3.8	1.49e+00	0	57	104	1157627904	52	14895
2026-01-06 10:16:23.68	341.53	11.86	-40.2	-52.6	3.8	1.49e+00	0	57	104	1157627904	52	14597
2026-01-06 10:16:24.69	341.55	11.77	-40.4	-52.7	3.8	1.49e+00	0	57	104	1157627904	52	14836
2026-01-06 10:16:25.70	341.57	11.68	-40.1	-52.5	3.8	1.49e+00	0	57	104	1157627904	52	14536
2026-01-06 10:16:26.71	341.58	11.58	-40.4	-52.7	3.8	1.49e+00	0	57	104	1157627904	52	14762
2026-01-06 10:16:27.72	341.60	11.49	-40.2	-52.6	3.8	1.49e+00	0	57	104	1157627904	52	14584
2026-01-06 10:16:28.73	341.61	11.40	-40.5	-52.8	3.8	1.49e+00	0	57	104	1157627904	52	14993
2026-01-06 10:16:29.74	341.63	11.31	-40.0	-52.5	3.8	1.49e+00	0	57	104	1157627904	52	14510
2026-01-06 10:16:30.75	341.65	11.21	-40.4	-52.8	3.8	1.49e+00	0	57	104	1157627904	52	14906
2026-01-06 10:16:31.76	341.66	11.12	-40.2	-52.5	3.8	1.49e+00	0	57	104	1157627904	52	14431
2026-01-06 10:16:32.77	341.68	11.03	-40.3	-52.6	3.8	1.49e+00	0	57	104	1157627904	52	14692
2026-01-06 10:16:33.78	341.69	10.94	-40.1	-52.4	3.8	1.49e+00	0	57	104	1157627904	52	14355
2026-01-06 10:16:34.79	341.71	10.85	-40.2	-52.6	3.8	1.49e+00	0	57	104	1157627904	52	14650
2026-01-06 10:16:35.80	341.73	10.76	-40.0	-52.4	3.8	1.49e+00	0	57	104	1157627904	52	14351
2026-01-06 10:16:36.81	341.74	10.67	-40.3	-52.6	3.8	1.49e+00	0	57	104	1157627904	52	14683
2026-01-06 10:16:37.81	341.76	10.58	-40.0	-52.4	3.8	1.49e+00	0	57	104	1157627904	52	14281
2026-01-06 10:16:38.82	341.77	10.49	-40.3	-52.6	3.8	1.49e+00	0	57	104	1157627904	52	14700
2026-01-06 10:16:39.83	341.79	10.41	-40.3	-52.6	3.8	1.49e+00	0	57	104	1157627904	52	14645
2026-01-06 10:16:40.84	341.80	10.32	-40.1	-52.5	3.8	1.49e+00	0	57	104	1157627904	52	14498
2026-01-06 10:16:41.85	341.82	10.23	-40.3	-52.6	3.8	1.49e+00	0	57	104	1157627904	52	14575
2026-01-06 10:16:42.86	341.83	10.14	-40.1	-52.5	3.8	1.49e+00	0	57	104	1157627904	52	14453
2026-01-06 10:16:43.88	341.85	10.05	-40.1	-52.4	3.8	1.49e+00	0	57	104	1157627904	52	14270
2026-01-06 10:16:44.89	341.86	9.97	-40.4	-52.6	3.8	1.49e+00	0	57	104	1157627904	52	14698
2026-01-06 10:16:45.89	341.88	9.88	-40.1	-52.4	3.8	1.49e+00	0	57	104	1157627904	52	14246
2026-01-06 10:16:46.90	341.89	9.79	-40.4	-52.7	3.8	1.49e+00	0	57	104	1157627904	52	14775
2026-01-06 10:16:47.91	341.91	9.71	-40.4	-52.7	3.8	1.49e+00	0	57	104	1157627904	52	14726
2026-01-06 10:16:48.92	341.92	9.62	-40.1	-52.4	3.8	1.49e+00	0	57	104	1157627904	52	14303
2026-01-06 10:16:49.94	341.94	9.54	-40.4	-52.6	3.8	1.49e+00	0	57	104	1157627904	52	14667
2026-01-06 10:16:50.95	341.95	9.45	-40.1	-52.4	3.8	1.49e+00	0	57	104	1157627904	52	14342
2026-01-06 10:16:51.96	341.96	9.37	-40.2	-52.5	3.8	1.49e+00	0	57	104	1157627904	52	14383
2026-01-06 10:16:52.97	341.98	9.28	-40.6	-52.9	3.8	1.49e+00	0	57	104	1157627904	52	15056
2026-01-06 10:16:53.97	341.99	9.20	-40.2	-52.5	3.8	1.49e+00	0	57	104	1157627904	52	14460
2026-01-06 10:16:54.98	342.01	9.11	-40.6	-52.9	3.8	1.49e+00	0	57	104	1157627904	52	15086
2026-01-06 10:16:55.99	342.02	9.03	-40.5	-52.7	3.8	1.49e+00	0	57	104	1157627904	52	14867
2026-01-06 10:16:57.00	342.04	8.95	-40.2	-52.5	3.8	1.49e+00	0	57	104	1157627904	52	14453
2026-01-06 10:16:58.01	342.05	8.86	-40.5	-52.7	3.8	1.49e+00	0	57	104	1157627904	52	14874
2026-01-06 10:16:59.02	342.06	8.78	-40.2	-52.5	3.8	1.49e+00	0	57	104	1157627904	52	14508
2026-01-06 10:17:00.03	342.08	8.70	-40.3	-52.6	3.8	1.49e+00	0	57	104	1157627904	52	14647
2026-01-06 10:17:01.04	342.09	8.61	-40.5	-52.8	3.8	1.49e+00	0	57	104	1157627904	52	15002
2026-01-06 10:17:02.05	342.11	8.53	-40.4	-52.6	3.8	1.49e+00	0	57	104	1157627904	52	14657
2026-01-06 10:17:03.05	342.12	8.45	-40.5	-52.8	3.8	1.49e+00	0	57	104	1157627904	52	14888
2026-01-06 10:17:04.06	342.13	8.37	-40.5	-52.7	3.8	1.49e+00	0	57	104	1157627904	52	14864
2026-01-06 10:17:05.07	342.15	8.29	-40.3	-52.6	3.8	1.49e+00	0	57	104	1157627904	52	14664
2026-01-06 10:17:06.08	342.16	8.21	-40.5	-52.7	3.8	1.49e+00	0	57	104	1157627904	52	14846
2026-01-06 10:17:07.09	342.17	8.13	-40.4	-52.6	3.8	1.49e+00	0	57	104	1157627904	52	14649
2026-01-06 10:17:08.10	342.19	8.05	-40.3	-52.6	3.8	1.49e+00	0	57	104	1157627904	52	14541
2026-01-06 10:17:09.11	342.20	7.96	-40.8	-53.1	3.8	1.49e+00	0	57	104	1157627904	52	15480
2026-01-06 10:17:10.12	342.22	7.88	-43.5	-55.9	3.8	1.49e+00	0	57	104	1157627904	57	16110
2026-01-06 10:17:11.13	342.23	7.80	-44.6	-57.0	3.8	1.49e+00	0	57	104	1157627904	59	16141
2026-01-06 10:17:12.14	342.24	7.73	-44.9	-57.4	3.8	1.49e+00	0	57	104	1157627904	60	16023
2026-01-06 10:17:13.15	342.26	7.65	-45.0	-57.6	3.8	1.49e+00	0	57	104	1157627904	60	16331
2026-01-06 10:17:14.16	342.27	7.57	-45.1	-57.7	3.8	1.49e+00	0	57	104	1157627904	60	16504
2026-01-06 10:17:15.17	342.28	7.49	-45.2	-57.8	3.8	1.49e+00	0	57	104	1157627904	60	16717
2026-01-06 10:17:16.18	342.30	7.41	-45.3	-57.8	3.8	1.49e+00	0	57	104	1157627904	61	15824
2026-01-06 10:17:17.19	342.31	7.33	-45.3	-57.8	3.8	1.49e+00	0	57	104	1157627904	61	15881
2026-01-06 10:17:18.20	342.32	7.25	-45.2	-57.8	3.8	1.49e+00	0	57	104	1157627904	61	15887
2026-01-06 10:17:19.21	342.33	7.17	-45.2	-57.8	3.8	1.49e+00	0	57	104	1157627904	61	15855
2026-01-06 10:17:20.22	342.35	7.10	-45.2	-57.8	3.8	1.49e+00	0	57	104	1157627904	61	15837
2026-01-06 10:17:21.23	342.36	7.02	-45.2	-57.8	3.8	1.49e+00	0	57	104	1157627904	61	15780
2026-01-06 10:17:22.24	342.37	6.94	-45.2	-57.8	3.8	1.49e+00	0	57	104	1157627904	61	15772
2026-01-06 10:17:23.25	342.39	6.87	-45.1	-57.7	3.8	1.49e+00	0	57	104	1157627904	61	15687
2026-01-06 10:17:24.26	342.40	6.79	-45.1	-57.8	3.8	1.49e+00	0	57	104	1157627904	61	15781
2026-01-06 10:17:25.28	342.41	6.71	-45.1	-57.7	3.8	1.49e+00	0	57	104	1157627904	61	15729
2026-01-06 10:17:26.29	342.43	6.64	-44.7	-57.7	3.8	1.49e+00	0	57	104	1157627904	61	15702
2026-01-06 10:17:27.30	342.44	6.56	-45.1	-57.7	3.8	1.49e+00	0	57	104	1157627904	61	15656
2026-01-06 10:17:28.31	342.45	6.48	-45.1	-57.7	3.8	1.49e+00	0	57	104	1157627904	61	15672
2026-01-06 10:17:29.32	342.46	6.41	-45.1	-57.7	3.8	1.49e+00	0	57	104	1157627904	61	15668
2026-01-06 10:17:30.33	342.48	6.33	-45.0	-57.7	3.8	1.49e+00	0	57	104	1157627904	61	15645
2026-01-06 10:17:31.34	342.49	6.26	-45.1	-57.7	3.8	1.49e+00	0	57	104	1157627904	61	15677
2026-01-06 10:17:32.35	342.50	6.18	-45.1	-57.7	3.8	1.49e+00	0	57	104	1157627904	61	15685
2026-01-06 10:17:33.36	342.51	6.11	-45.1	-57.7	3.8	1.49e+00	0	57	104	1157627904	61	15637
2026-01-06 10:17:34.37	342.53	6.03	-45.1	-57.7	3.8	1.49e+00	0	57	104	1157627904	61	15641
2026-01-06 10:17:35.38	342.54	5.96	-45.1	-57.7	3.8	1.49e+00	0	57	104	1157627904	61	15639
2026-01-06 10:17:36.39	342.55	5.88	-45.1	-57.7	3.8	1.49e+00	0	57	104	1157627904	61	15693
2026-01-06 10:17:37.40	342.56	5.81	-45.1	-57.7	3.8	1.49e+00	0	57	104	1157627904	61	15626
2026-01-06 10:17:38.42	342.57	5.74	-45.1	-57.7	3.8	1.49e+00	0	57	104	1157627904	61	15658
2026-01-06 10:17:39.43	342.59	5.66	-45.1	-57.7	3.8	1.49e+00	0	57	104	1157627904	61	15600
2026-01-06 10:17:40.44	342.60	5.59	-45.1	-57.7	3.8	1.49e+00	0	57	104	1157627904	61	15625
2026-01-06 10:17:41.45	342.61	5.52	-45.1	-57.7	3.8	1.49e+00	0	57	104	1157627904	61	15592
2026-01-06 10:17:42.46	342.62	5.44	-45.1	-57.7	3.8	1.49e+00	0	57	104	1157627904	60	16606
2026-01-06 10:17:43.47	342.64	5.37	-45.1	-57.7	3.8	1.49e+00	0	57	104	1157627904	60	16568
2026-01-06 10:17:44.48	342.65	5.30	-45.1	-57.7	3.8	1.49e+00	0	57	104	1157627904	60	16571
2026-01-06 10:17:45.49	342.66	5.23	-45.1	-57.7	3.8	1.49e+00	0	57	104	1157627904	60	16528
2026-01-06 10:17:46.50	342.67	5.15	-45.1	-57.7	3.8	1.49e+00	0	57	104	1157627904	60	16548
2026-01-06 10:17:47.51	342.68	5.08	-45.1	-57.7	3.8	1.49e+00	0	57	104	1157627904	60	16556
2026-01-06 10:17:48.53	342.70	5.01	-45.1	-57.7	3.8	1.49e+00	0	57	104	1157627904	60	16561
2026-01-06 10:17:49.54	342.71	4.94	-45.1	-57.7	3.8	1.49e+00	0	57	104	1157627904	60	16551
2026-01-06 10:17:50.55	342.72	4.87	-45.1	-57.7	3.8	1.49e+00	0	57	104	1157627904	60	16571
2026-01-06 10:17:51.56	342.73	4.80	-45.1	-57.7	3.8	1.49e+00	0	57	104	1157627904	60	16551
2026-01-06 10:17:52.57	342.74	4.73	-45.1	-57.6	3.8	1.49e+00	0	57	104	1157627904	60	16500
2026-01-06 10:17:53.58	342.75	4.65	-45.1	-57.7	3.8	1.49e+00	0	57	104	1157627904	60	16517
2026-01-06 10:17:54.58	342.77	4.58	-45.1	-57.7	3.8	1.49e+00	0	57	104	1157627904	60	16557
2026-01-06 10:17:55.60	342.78	4.51	-45.1	-57.7	3.8	1.49e+00	0	57	104	1157627904	60	16558
2026-01-06 10:17:56.61	342.79	4.44	-45.1	-57.7	3.8	1.49e+00	0	57	104	1157627904	60	16563
2026-01-06 10:17:57.62	342.80	4.37	-45.1	-57.7	3.8	1.49e+00	0	57	104	1157627904	60	16587
2026-01-06 10:17:58.63	342.81	4.30	-45.1	-57.7	3.8	1.49e+00	0	57	104	1157627904	60	16523
2026-01-06 10:17:59.64	342.82	4.23	-45.0	-57.7	3.8	1.49e+00	0	57	104	1157627904	60	16560
2026-01-06 10:18:00.65	342.84	4.16	-45.1	-57.7	3.8	1.49e+00	0	57	104	1157627904	60	16540
2026-01-06 10:18:01.66	342.85	4.10	-45.1	-57.6	3.8	1.49e+00	0	57	104	1157627904	60	16494
2026-01-06 10:18:02.67	342.86	4.03	-45.0	-57.7	3.8	1.49e+00	0	57	104	1157627904	60	16526
2026-01-06 10:18:03.68	342.87	3.96	-45.0	-57.6	3.8	1.49e+00	0	57	104	1157627904	60	16494
2026-01-06 10:18:04.70	342.88	3.89	-45.0	-57.6	3.8	1.49e+00	0	57	104	1157627904	60	16490
2026-01-06 10:18:05.71	342.89	3.82	-45.0	-57.7	3.8	1.49e+00	0	57	104	1157627904	60	16559
2026-01-06 10:18:06.72	342.90	3.75	-45.1	-57.7	3.8	1.49e+00	0	57	104	1157627904	60	16514
2026-01-06 10:18:07.73	342.92	3.68	-45.0	-57.7	3.8	1.49e+00	0	57	104	1157627904	60	16528
2026-01-06 10:18:08.74	342.93	3.62	-45.1	-57.7	3.8	1.49e+00	0	57	104	1157627904	60	16509
2026-01-06 10:18:09.75	342.94	3.55	-45.0	-57.6	3.8	1.49e+00	0	57	104	1157627904	60	16483
2026-01-06 10:18:10.76	342.95	3.48	-45.1	-57.6	3.8	1.49e+00	0	57	104	1157627904	60	16497
2026-01-06 10:18:11.77	342.96	3.41	-45.0	-57.7	3.8	1.49e+00	0	57	104	1157627904	60	16506
2026-01-06 10:18:12.78	342.97	3.34	-45.0	-57.7	3.8	1.49e+00	0	57	104	1157627904	60	16522
2026-01-06 10:18:13.79	342.98	3.28	-45.1	-57.6	3.8	1.49e+00	0	57	104	1157627904	60	16480
2026-01-06 10:18:14.80	342.99	3.21	-45.0	-57.6	3.8	1.49e+00	0	57	104	1157627904	60	16456
2026-01-06 10:18:15.81	343.00	3.14	-45.1	-57.7	3.8	1.49e+00	0	57	104	1157627904	60	16506
2026-01-06 10:18:16.82	343.01	3.08	-45.0	-57.6	3.8	1.49e+00	0	57	104	1157627904	60	16497
2026-01-06 10:18:17.83	343.03	3.01	-45.0	-57.6	3.8	1.49e+00	0	57	104	1157627904	60	16489
2026-01-06 10:18:18.84	343.04	2.94	-45.1	-57.6	3.8	1.49e+00	0	57	104	1157627904	60	16481
2026-01-06 10:18:19.85	343.05	2.88	-45.1	-57.6	3.8	1.49e+00	0	57	104	1157627904	60	16460
2026-01-06 10:18:20.86	343.06	2.81	-45.0	-57.6	3.8	1.49e+00	0	57	104	1157627904	60	16487
2026-01-06 10:18:21.87	343.07	2.75	-45.1	-57.6	3.8	1.49e+00	0	57	104	1157627904	60	16455
2026-01-06 10:18:22.88	343.08	2.68	-45.1	-57.6	3.8	1.49e+00	0	57	104	1157627904	60	16485
2026-01-06 10:18:23.89	343.09	2.61	-45.1	-57.6	3.8	1.49e+00	0	57	104	1157627904	60	16472
2026-01-06 10:18:24.90	343.10	2.55	-45.1	-57.6	3.8	1.49e+00	0	56	104	1157627904	60	16469
2026-01-06 10:18:25.91	343.11	2.48	-45.0	-57.6	3.8	1.49e+00	0	57	104	1157627904	60	16467
2026-01-06 10:18:26.93	343.12	2.42	-45.1	-57.7	3.8	1.49e+00	0	57	104	1157627904	60	16510
2026-01-06 10:18:27.94	343.13	2.35	-45.1	-57.6	3.8	1.49e+00	0	57	104	1157627904	60	16499
2026-01-06 10:18:28.95	343.14	2.29	-45.0	-57.7	3.8	1.49e+00	0	57	104	1157627904	60	16510
2026-01-06 10:18:29.96	343.16	2.22	-45.1	-57.6	3.8	1.49e+00	0	57	104	1157627904	60	16493
2026-01-06 10:18:30.97	343.17	2.16	-44.9	-57.6	3.8	1.49e+00	0	57	104	1157627904	60	16470
2026-01-06 10:18:31.98	343.18	2.09	-45.0	-57.6	3.8	1.49e+00	0	57	104	1157627904	60	16483
2026-01-06 10:18:32.99	343.19	2.03	-45.1	-57.6	3.8	1.49e+00	0	57	104	1157627904	60	16475

#Closed at: 2026-01-06 10:18:33
#Recorded file [1157 MB]: D:/lorett/data/31039_260106_130813.dat