passes_logs/2026/01/06/R2.0S_Moscow/R2.0S_Moscow__20260106_091426_NOAA_20_JPSS-1_rec.log

#Pass ID: 20260106_091426_NOAA 20 (JPSS-1)
#Satellite: NOAA 20 (JPSS-1)
#Configuration: NOAA 20
#almurnet v.1.7.20251203
#Start time: 2026-01-06 09:14:28

#Version: 2.2.20231116
#Station: R2.0S_Moscow
#Location: 37.707566 lon 55.798166 lat
#TLE: 1 43013U 17073A   26005.46207808  .00000128  00000+0  81791-4 0  9997
#TLE: 2 43013  98.7627 306.5027 0001826  53.0458 307.0885 14.19533487421381

#Time	Az	El	Level	Level2	SNR	BER	BlckErr	Temp	State	Recorded	gain1	gain2
2026-01-06 09:14:28.49	140.79	2.15	-41.7	-56.4	3.6	1.49e+00	0	47	0	0	53	21373
2026-01-06 09:14:29.49	140.76	2.22	-42.0	-56.5	3.8	1.49e+00	0	48	104	0	54	20466
2026-01-06 09:14:30.50	140.73	2.28	-38.8	-55.9	4.0	1.49e+00	0	48	104	0	51	22531
2026-01-06 09:14:31.51	140.71	2.34	-42.0	-56.9	3.9	1.49e+00	0	48	104	0	52	23917
2026-01-06 09:14:32.52	140.68	2.41	-42.1	-56.6	3.8	1.49e+00	0	48	104	0	54	20588
2026-01-06 09:14:33.53	140.65	2.47	-42.1	-56.6	3.8	1.49e+00	0	48	104	0	54	20606
2026-01-06 09:14:34.55	140.62	2.54	-42.1	-56.6	3.8	1.49e+00	0	48	104	0	54	20584
2026-01-06 09:14:35.56	140.59	2.60	-42.0	-56.6	3.8	1.49e+00	0	48	104	0	54	20568
2026-01-06 09:14:36.57	140.56	2.67	-42.1	-56.6	3.9	1.49e+00	0	48	104	0	54	20592
2026-01-06 09:14:37.58	140.53	2.73	-39.7	-56.1	3.8	1.49e+00	0	48	104	0	53	20569
2026-01-06 09:14:38.59	140.50	2.80	-42.1	-56.5	3.8	1.49e+00	0	48	104	0	54	20386
2026-01-06 09:14:39.60	140.48	2.86	-41.7	-56.5	3.8	1.49e+00	0	48	104	0	54	20407
2026-01-06 09:14:40.61	140.45	2.93	-42.0	-56.5	3.8	1.49e+00	0	48	104	0	54	20501
2026-01-06 09:14:41.62	140.42	3.00	-42.1	-56.0	3.8	1.49e+00	0	48	104	0	53	20520
2026-01-06 09:14:42.63	140.39	3.06	-41.9	-56.8	3.9	1.49e+00	0	48	104	0	54	21206
2026-01-06 09:14:43.64	140.36	3.13	-42.0	-56.5	3.8	1.49e+00	0	48	104	0	54	20446
2026-01-06 09:14:44.65	140.33	3.19	-42.0	-56.8	3.8	1.49e+00	0	49	104	0	54	21020
2026-01-06 09:14:45.66	140.30	3.26	-42.1	-56.5	3.8	1.49e+00	0	49	104	0	54	20500
2026-01-06 09:14:46.67	140.27	3.33	-41.9	-56.5	3.8	1.49e+00	0	49	104	0	54	20500
2026-01-06 09:14:47.68	140.24	3.39	-42.1	-56.5	3.8	1.49e+00	0	49	104	0	54	20461
2026-01-06 09:14:48.70	140.20	3.46	-42.1	-56.5	3.8	1.49e+00	0	49	104	0	54	20442
2026-01-06 09:14:49.71	140.17	3.53	-41.9	-56.4	3.8	1.49e+00	0	49	104	0	54	20265
2026-01-06 09:14:50.72	140.14	3.60	-42.1	-56.5	3.8	1.49e+00	0	49	104	0	54	20479
2026-01-06 09:14:51.73	140.11	3.66	-42.1	-56.5	4.0	1.49e+00	0	49	104	0	54	20529
2026-01-06 09:14:52.74	140.08	3.73	-41.7	-56.9	3.9	1.49e+00	0	49	104	0	53	22607
2026-01-06 09:14:53.75	140.05	3.80	-42.1	-56.8	3.6	1.49e+00	0	49	104	0	54	21117
2026-01-06 09:14:54.76	140.02	3.87	-39.3	-56.3	3.9	1.49e+00	0	49	104	0	54	19875
2026-01-06 09:14:55.77	139.99	3.93	-40.9	-56.5	3.8	1.49e+00	0	49	104	0	54	20463
2026-01-06 09:14:56.78	139.95	4.00	-40.3	-56.7	3.8	1.49e+00	0	49	104	0	52	23517
2026-01-06 09:14:57.79	139.92	4.07	-42.1	-56.5	3.8	1.50e+00	0	49	104	0	54	20362
2026-01-06 09:14:58.80	139.89	4.14	-42.0	-56.4	3.8	1.49e+00	0	49	104	0	54	20278
2026-01-06 09:14:59.81	139.86	4.21	-39.1	-56.3	3.8	1.49e+00	0	50	104	0	54	20024
2026-01-06 09:15:00.82	139.83	4.28	-42.0	-56.4	4.0	1.49e+00	0	50	104	0	54	20269
2026-01-06 09:15:01.83	139.79	4.35	-42.1	-56.5	3.8	1.49e+00	0	50	104	0	54	20407
2026-01-06 09:15:02.84	139.76	4.42	-42.0	-56.5	3.8	1.49e+00	0	50	104	0	54	20313
2026-01-06 09:15:03.85	139.73	4.48	-42.1	-56.5	3.8	1.49e+00	0	50	104	0	54	20344
2026-01-06 09:15:04.86	139.69	4.55	-41.9	-56.4	3.8	1.49e+00	0	50	104	0	54	20241
2026-01-06 09:15:05.87	139.66	4.62	-41.9	-56.6	3.8	1.49e+00	0	50	104	0	54	20540
2026-01-06 09:15:06.88	139.63	4.69	-42.0	-56.5	3.8	1.49e+00	0	50	104	0	54	20324
2026-01-06 09:15:07.89	139.59	4.76	-42.0	-56.4	3.8	1.49e+00	0	50	104	0	54	20251
2026-01-06 09:15:08.90	139.56	4.83	-41.7	-56.4	3.8	1.49e+00	0	50	104	0	54	20231
2026-01-06 09:15:09.91	139.53	4.90	-42.1	-56.4	3.8	1.49e+00	0	50	104	0	54	20219
2026-01-06 09:15:10.92	139.49	4.97	-42.1	-56.4	3.8	1.49e+00	0	50	104	0	54	20104
2026-01-06 09:15:11.94	139.46	5.05	-42.1	-56.5	3.8	1.49e+00	0	50	104	0	54	20378
2026-01-06 09:15:12.95	139.42	5.12	-41.7	-56.4	3.8	1.49e+00	0	50	104	0	54	20123
2026-01-06 09:15:13.96	139.39	5.19	-35.8	-56.1	4.0	1.49e+00	0	50	104	0	52	21766
2026-01-06 09:15:14.97	139.35	5.26	-42.0	-56.4	3.8	1.49e+00	0	51	104	0	54	20184
2026-01-06 09:15:15.98	139.32	5.33	-42.2	-56.3	4.0	1.49e+00	0	50	104	0	51	23596
2026-01-06 09:15:16.99	139.28	5.40	-42.1	-56.4	3.8	1.49e+00	0	50	104	0	54	20223
2026-01-06 09:15:18.00	139.25	5.47	-42.1	-56.4	3.8	1.49e+00	0	51	104	0	54	20123
2026-01-06 09:15:19.01	139.21	5.55	-33.4	-51.8	3.9	1.49e+00	0	51	104	0	51	14131
2026-01-06 09:15:20.02	139.17	5.62	-41.9	-56.5	3.8	1.49e+00	0	51	104	0	53	21748
2026-01-06 09:15:21.03	139.14	5.69	-42.1	-56.4	3.8	1.49e+00	0	51	104	0	54	20265
2026-01-06 09:15:22.04	139.10	5.76	-42.1	-56.5	3.8	1.49e+00	0	51	104	0	54	20355
2026-01-06 09:15:23.05	139.07	5.84	-39.0	-54.7	3.8	1.49e+00	0	51	104	0	51	19749
2026-01-06 09:15:24.06	139.03	5.91	-41.9	-56.5	3.9	1.49e+00	0	51	104	0	54	20374
2026-01-06 09:15:25.07	138.99	5.98	-42.0	-56.5	3.8	1.49e+00	0	51	104	0	54	20310
2026-01-06 09:15:26.08	138.96	6.06	-41.9	-56.4	4.0	1.49e+00	0	51	104	0	54	20262
2026-01-06 09:15:27.09	138.92	6.13	-42.0	-56.5	3.8	1.49e+00	0	51	104	0	54	20478
2026-01-06 09:15:28.10	138.88	6.20	-42.1	-56.5	3.8	1.49e+00	0	51	104	0	54	20440
2026-01-06 09:15:29.11	138.84	6.28	-40.9	-56.3	3.8	1.49e+00	0	51	104	0	54	20039
2026-01-06 09:15:30.12	138.81	6.35	-41.7	-56.3	3.8	1.49e+00	0	51	104	0	54	19979
2026-01-06 09:15:31.13	138.77	6.42	-41.8	-56.5	3.8	1.49e+00	0	51	104	0	54	20390
2026-01-06 09:15:32.14	138.73	6.50	-42.1	-56.5	3.8	1.49e+00	0	51	104	0	54	20462
2026-01-06 09:15:33.15	138.69	6.57	-41.5	-56.4	3.8	1.49e+00	0	51	104	0	54	20236
2026-01-06 09:15:34.16	138.65	6.65	-41.5	-56.4	3.9	1.49e+00	0	51	104	0	54	20148
2026-01-06 09:15:35.17	138.61	6.72	-41.9	-56.7	3.7	1.49e+00	0	51	104	0	53	22057
2026-01-06 09:15:36.18	138.57	6.80	-42.1	-56.5	3.8	1.49e+00	0	51	104	0	54	20494
2026-01-06 09:15:37.19	138.53	6.88	-42.1	-56.5	3.8	1.49e+00	0	51	104	0	54	20378
2026-01-06 09:15:38.20	138.50	6.95	-42.1	-56.5	3.8	1.49e+00	0	51	104	0	54	20412
2026-01-06 09:15:39.21	138.46	7.03	-42.1	-56.5	3.8	1.49e+00	0	52	104	0	54	20430
2026-01-06 09:15:40.23	138.42	7.10	-42.1	-56.5	3.8	1.49e+00	0	51	104	0	54	20422
2026-01-06 09:15:41.24	138.37	7.18	-42.0	-56.5	3.8	1.49e+00	0	52	104	0	54	20422
2026-01-06 09:15:42.25	138.33	7.26	-42.0	-56.5	3.8	1.49e+00	0	52	104	0	54	20325
2026-01-06 09:15:43.26	138.29	7.33	-40.9	-56.1	3.8	1.49e+00	0	51	104	0	53	20632
2026-01-06 09:15:44.27	138.25	7.41	-41.8	-56.3	3.8	1.49e+00	0	52	104	0	53	21117
2026-01-06 09:15:45.28	138.21	7.49	-42.0	-56.5	3.8	1.49e+00	0	52	104	0	54	20353
2026-01-06 09:15:46.29	138.17	7.57	-42.0	-56.5	3.8	1.49e+00	0	52	104	0	54	20358
2026-01-06 09:15:47.30	138.13	7.64	-42.1	-56.5	3.8	1.49e+00	0	52	104	0	54	20365
2026-01-06 09:15:48.31	138.09	7.72	-42.0	-56.5	3.8	1.49e+00	0	52	104	0	54	20379
2026-01-06 09:15:49.32	138.05	7.80	-42.0	-56.5	3.8	1.49e+00	0	52	104	0	54	20422
2026-01-06 09:15:50.34	138.00	7.88	-42.1	-56.5	3.8	1.49e+00	0	52	104	0	54	20349
2026-01-06 09:15:51.35	137.96	7.96	-41.9	-56.3	3.8	1.49e+00	0	52	104	0	54	19914
2026-01-06 09:15:52.36	137.92	8.04	-42.0	-56.5	3.8	1.49e+00	0	52	104	0	54	20531
2026-01-06 09:15:53.37	137.87	8.11	-41.7	-56.3	3.8	1.49e+00	0	52	104	0	54	19844
2026-01-06 09:15:54.38	137.83	8.19	-41.7	-56.3	3.8	1.49e+00	0	52	104	0	54	20068
2026-01-06 09:15:55.38	137.79	8.27	-39.8	-55.3	3.9	1.49e+00	0	52	104	0	52	19973
2026-01-06 09:15:56.39	137.74	8.35	-40.5	-56.0	3.7	1.49e+00	0	52	104	0	53	20468
2026-01-06 09:15:57.40	137.70	8.43	-34.8	-53.0	4.1	1.49e+00	0	52	104	0	44	24232
2026-01-06 09:15:58.41	137.66	8.51	-42.0	-56.5	3.8	1.49e+00	0	52	104	0	54	20317
2026-01-06 09:15:59.42	137.61	8.59	-42.1	-56.5	3.8	1.49e+00	0	52	104	0	54	20330
2026-01-06 09:16:00.43	137.57	8.67	-42.0	-56.5	3.8	1.49e+00	0	52	104	0	54	20315
2026-01-06 09:16:01.44	137.52	8.76	-41.6	-56.3	3.6	1.49e+00	0	52	104	0	54	20034
2026-01-06 09:16:02.45	137.48	8.84	-42.0	-56.5	3.8	1.49e+00	0	52	104	0	54	20523
2026-01-06 09:16:03.46	137.43	8.92	-41.6	-56.3	3.7	1.49e+00	0	52	104	0	53	21166
2026-01-06 09:16:04.47	137.39	9.00	-41.8	-56.6	3.8	1.49e+00	0	52	104	0	55	19529
2026-01-06 09:16:05.48	137.34	9.08	-40.8	-55.1	3.9	1.49e+00	0	52	104	0	48	24431
2026-01-06 09:16:06.49	137.29	9.16	-41.8	-56.4	3.8	1.49e+00	0	52	104	0	54	20187
2026-01-06 09:16:07.50	137.25	9.25	-41.7	-55.6	4.1	1.49e+00	0	52	104	0	46	29319
2026-01-06 09:16:08.51	137.20	9.33	-39.6	-55.5	3.9	1.49e+00	0	52	104	0	53	19386
2026-01-06 09:16:09.52	137.15	9.41	-40.1	-55.9	4.1	1.50e+00	0	52	104	0	51	22589
2026-01-06 09:16:10.53	137.10	9.50	-41.5	-56.1	3.9	1.49e+00	0	53	104	0	54	19494
2026-01-06 09:16:11.54	137.06	9.58	-41.8	-56.2	3.9	1.49e+00	0	53	104	0	53	20933
2026-01-06 09:16:12.55	137.01	9.66	-41.9	-56.2	3.9	1.49e+00	0	52	104	0	52	22095
2026-01-06 09:16:13.56	136.96	9.75	-42.1	-57.0	3.7	1.49e+00	0	53	104	0	54	21724
2026-01-06 09:16:14.57	136.91	9.83	-42.0	-56.5	3.8	1.49e+00	0	53	104	0	54	20393
2026-01-06 09:16:15.58	136.86	9.92	-42.0	-56.5	3.8	1.49e+00	0	53	104	0	54	20395
2026-01-06 09:16:16.59	136.81	10.00	-41.9	-56.4	3.8	1.49e+00	0	53	104	0	54	20139
2026-01-06 09:16:17.60	136.76	10.09	-41.8	-56.0	3.8	1.49e+00	0	53	104	0	54	19349
2026-01-06 09:16:18.61	136.71	10.17	-42.1	-52.8	4.1	1.49e+00	0	53	104	0	53	14089
2026-01-06 09:16:19.63	136.66	10.26	-42.5	-53.9	4.0	1.47e+00	0	53	104	0	55	14330
2026-01-06 09:16:20.63	136.61	10.34	-41.4	-50.0	5.6	1.08e+00	0	53	0	0	52	10813
2026-01-06 09:16:21.65	136.56	10.43	-41.2	-48.8	6.3	9.61e-01	0	53	0	2097152	52	9423
2026-01-06 09:16:22.66	136.51	10.52	-40.2	-45.9	9.5	1.17e-01	0	53	0	3145728	51	7185
2026-01-06 09:16:23.67	136.46	10.60	-36.5	-44.3	11.2	8.52e-03	0	53	0	5242880	49	6654
2026-01-06 09:16:24.68	136.41	10.69	-39.7	-43.3	12.8	3.11e-03	0	53	0	7340032	50	5633
2026-01-06 09:16:25.69	136.36	10.78	-39.1	-42.7	13.6	1.78e-02	0	53	0	8388608	49	5546
2026-01-06 09:16:26.70	136.30	10.86	-39.5	-42.8	13.6	3.75e-03	0	53	0	10485760	49	5627
2026-01-06 09:16:27.71	136.25	10.95	-39.7	-43.5	12.7	2.55e-02	0	53	0	12582912	50	5781
2026-01-06 09:16:28.72	136.20	11.04	-40.3	-44.1	12.4	8.22e-02	0	53	0	14680064	51	5850
2026-01-06 09:16:29.73	136.14	11.13	-40.0	-43.5	12.9	1.06e-02	0	53	0	16777216	50	5777
2026-01-06 09:16:30.74	136.09	11.22	-39.5	-43.0	13.1	4.51e-03	0	53	0	17825792	48	6131
2026-01-06 09:16:31.75	136.04	11.31	-39.9	-43.4	13.2	2.35e-02	0	53	0	19922944	50	5680
2026-01-06 09:16:32.76	135.98	11.40	-39.7	-43.3	13.0	6.34e-03	0	53	0	22020096	50	5641
2026-01-06 09:16:33.77	135.93	11.49	-39.7	-43.0	13.6	8.81e-03	0	53	0	24117248	50	5403
2026-01-06 09:16:34.78	135.87	11.58	-39.7	-43.0	13.7	5.83e-03	0	53	0	26214400	50	5449
2026-01-06 09:16:35.79	135.82	11.67	-39.3	-42.8	13.4	1.48e-02	0	53	0	27262976	47	6301
2026-01-06 09:16:36.80	135.76	11.76	-39.7	-43.0	13.6	6.40e-03	0	53	0	29360128	50	5414
2026-01-06 09:16:37.81	135.70	11.85	-38.8	-42.8	13.1	3.63e-02	0	53	0	31457280	48	5969
2026-01-06 09:16:38.82	135.65	11.94	-35.3	-43.0	11.5	3.06e-02	0	53	0	33554432	48	6103
2026-01-06 09:16:39.83	135.59	12.03	-39.7	-43.3	13.2	2.02e-02	0	53	0	35651584	50	5609
2026-01-06 09:16:40.84	135.53	12.12	-39.8	-43.1	13.6	1.46e-02	0	53	0	36700160	50	5503
2026-01-06 09:16:41.84	135.48	12.21	-39.5	-43.0	13.3	1.70e-02	0	53	0	38797312	49	5733
2026-01-06 09:16:42.85	135.42	12.31	-38.0	-43.1	12.3	8.81e-03	0	53	0	40894464	47	6535
2026-01-06 09:16:43.86	135.36	12.40	-39.6	-43.0	13.4	4.71e-02	0	53	0	42991616	49	5728
2026-01-06 09:16:44.87	135.30	12.49	-34.6	-42.4	11.2	2.63e-02	0	53	0	45088768	44	7143
2026-01-06 09:16:45.88	135.24	12.59	-30.1	-42.0	8.4	9.54e-02	19	54	0	46137344	39	9090
2026-01-06 09:16:46.89	135.18	12.68	-37.5	-42.7	12.6	2.61e-02	2	54	0	48234496	47	6211
2026-01-06 09:16:47.90	135.12	12.77	-38.5	-42.8	12.6	4.07e-02	0	53	0	50331648	48	5940
2026-01-06 09:16:48.91	135.06	12.87	-32.0	-42.2	11.7	2.67e-02	3	54	0	52428800	45	6643
2026-01-06 09:16:49.92	135.00	12.96	-38.0	-42.6	12.6	8.69e-02	0	54	0	54525952	48	5855
2026-01-06 09:16:50.93	134.94	13.06	-38.0	-42.6	12.6	2.09e-02	0	54	0	55574528	46	6519
2026-01-06 09:16:51.94	134.88	13.15	-37.5	-43.0	11.9	2.53e-02	0	53	0	57671680	46	6862
2026-01-06 09:16:52.95	134.82	13.25	-38.8	-42.8	11.6	6.05e-02	2	54	0	59768832	47	6333
2026-01-06 09:16:53.96	134.75	13.35	-35.9	-42.2	13.2	3.13e-02	0	54	0	61865984	48	5561
2026-01-06 09:16:54.97	134.69	13.44	-38.0	-42.6	11.4	5.94e-02	2	54	0	63963136	45	6909
2026-01-06 09:16:55.98	134.63	13.54	-37.8	-42.5	12.3	5.32e-02	0	54	0	65011712	47	6095
2026-01-06 09:16:56.99	134.56	13.64	-37.9	-42.8	11.5	2.55e-01	0	54	0	67108864	46	6674
2026-01-06 09:16:58.00	134.50	13.73	-39.0	-42.6	8.5	2.94e-01	14	54	0	68157440	46	6566
2026-01-06 09:16:59.01	134.44	13.83	-39.4	-42.7	9.2	1.87e-01	20	54	0	70254592	47	6209
2026-01-06 09:17:00.02	134.37	13.93	-39.6	-42.8	11.9	2.93e-01	4	54	0	72351744	49	5611
2026-01-06 09:17:01.03	134.30	14.03	-35.1	-42.7	12.6	1.13e-01	0	54	0	73400320	47	6208
2026-01-06 09:17:02.04	134.24	14.13	-39.3	-42.7	13.9	7.36e-02	0	54	0	75497472	49	5554
2026-01-06 09:17:03.05	134.17	14.23	-38.9	-42.7	13.7	1.17e-02	0	54	0	77594624	49	5549
2026-01-06 09:17:04.06	134.11	14.33	-39.6	-42.6	14.1	9.90e-03	0	54	0	79691776	49	5518
2026-01-06 09:17:05.07	134.04	14.43	-27.8	-40.3	6.9	4.72e-01	44	54	0	81788928	27	14984
2026-01-06 09:17:06.08	133.97	14.53	-39.5	-42.6	13.9	1.19e-02	0	54	0	82837504	49	5510
2026-01-06 09:17:07.09	133.90	14.63	-32.9	-41.8	8.7	2.56e-02	0	54	0	84934656	44	6680
2026-01-06 09:17:08.10	133.83	14.73	-39.5	-42.5	14.1	1.08e-02	0	54	0	87031808	49	5404
2026-01-06 09:17:09.11	133.76	14.83	-39.3	-42.4	14.0	5.89e-03	0	54	0	89128960	48	5675
2026-01-06 09:17:10.12	133.69	14.93	-39.2	-42.4	8.1	8.62e-03	9	54	0	91226112	36	11330
2026-01-06 09:17:11.12	133.62	15.04	-37.4	-42.5	13.1	5.75e-03	0	54	0	92274688	47	6098
2026-01-06 09:17:12.14	133.55	15.14	-37.7	-42.1	8.6	3.01e-01	17	54	0	94371840	39	9258
2026-01-06 09:17:13.15	133.48	15.24	-30.5	-41.8	8.1	3.42e-01	12	54	0	96468992	37	10035
2026-01-06 09:17:14.16	133.41	15.35	-36.0	-42.3	10.3	1.69e-02	0	54	0	97517568	45	6707
2026-01-06 09:17:15.16	133.34	15.45	-39.6	-42.6	14.5	1.49e-02	0	54	0	99614720	50	5207
2026-01-06 09:17:16.17	133.27	15.55	-39.4	-42.4	14.7	9.87e-03	0	54	0	101711872	49	5402
2026-01-06 09:17:17.18	133.19	15.66	-39.4	-42.2	15.1	6.94e-03	0	54	0	103809024	49	5257
2026-01-06 09:17:18.20	133.12	15.76	-39.4	-42.1	14.9	1.42e-03	0	54	0	105906176	49	5208
2026-01-06 09:17:19.20	133.04	15.87	-38.6	-42.0	13.0	1.89e-02	0	54	0	106954752	45	6446
2026-01-06 09:17:20.21	132.97	15.97	-39.6	-42.3	15.2	1.58e-03	0	54	0	109051904	49	5310
2026-01-06 09:17:21.22	132.89	16.08	-39.6	-42.3	14.1	7.91e-03	0	54	0	111149056	48	5646
2026-01-06 09:17:22.23	132.82	16.19	-39.6	-42.5	15.0	9.39e-03	0	54	0	113246208	50	5120
2026-01-06 09:17:23.24	132.74	16.29	-39.5	-42.3	14.0	1.41e-02	0	54	0	115343360	49	5306
2026-01-06 09:17:24.25	132.66	16.40	-39.7	-42.3	15.3	1.40e-03	0	54	0	116391936	50	5039
2026-01-06 09:17:25.27	132.59	16.51	-39.5	-42.2	15.0	2.86e-03	0	54	0	118489088	49	5259
2026-01-06 09:17:26.27	132.51	16.62	-39.4	-42.0	15.5	2.25e-03	0	54	0	120586240	49	5159
2026-01-06 09:17:27.28	132.43	16.73	-39.5	-42.0	15.8	2.42e-03	0	54	0	122683392	49	5135
2026-01-06 09:17:28.29	132.35	16.84	-39.6	-42.0	15.7	8.81e-03	0	54	0	124780544	49	5148
2026-01-06 09:17:29.31	132.27	16.95	-39.5	-42.1	15.6	4.02e-04	0	54	0	126877696	49	5161
2026-01-06 09:17:30.31	132.19	17.06	-39.7	-42.2	15.7	7.93e-03	0	54	0	127926272	50	4934
2026-01-06 09:17:31.33	132.11	17.17	-39.7	-42.3	15.3	8.30e-03	0	54	0	130023424	50	5013
2026-01-06 09:17:32.34	132.02	17.28	-39.8	-42.4	15.5	3.66e-03	0	54	0	132120576	50	5048
2026-01-06 09:17:33.35	131.94	17.39	-39.9	-42.5	15.4	2.36e-03	0	54	0	134217728	50	5128
2026-01-06 09:17:34.36	131.86	17.50	-39.9	-42.4	15.4	1.22e-03	0	54	0	136314880	50	5096
2026-01-06 09:17:35.37	131.77	17.62	-39.8	-42.3	14.3	1.00e-03	0	54	0	137363456	49	5324
2026-01-06 09:17:36.38	131.69	17.73	-39.8	-42.2	15.7	7.19e-04	0	54	0	139460608	50	4982
2026-01-06 09:17:37.39	131.61	17.84	-39.7	-42.2	15.7	4.20e-04	0	54	0	141557760	50	4941
2026-01-06 09:17:38.39	131.52	17.95	-39.8	-42.2	15.7	9.29e-04	0	54	0	143654912	50	4954
2026-01-06 09:17:39.40	131.43	18.07	-39.8	-42.3	15.1	1.07e-04	0	54	0	145752064	50	5031
2026-01-06 09:17:40.41	131.35	18.18	-39.9	-42.4	15.5	9.99e-04	0	54	0	146800640	50	5054
2026-01-06 09:17:41.43	131.26	18.30	-39.9	-42.4	15.5	3.20e-05	0	54	0	148897792	50	5083
2026-01-06 09:17:42.43	131.17	18.41	-40.0	-42.6	15.4	8.12e-03	0	55	0	150994944	50	5174
2026-01-06 09:17:43.44	131.08	18.53	-39.8	-42.6	15.4	5.95e-05	0	54	0	153092096	50	5170
2026-01-06 09:17:44.45	130.99	18.65	-40.0	-42.6	15.4	1.16e-04	0	55	0	155189248	50	5197
2026-01-06 09:17:45.46	130.90	18.76	-40.0	-42.5	15.5	5.32e-04	0	55	0	156237824	50	5155
2026-01-06 09:17:46.47	130.81	18.88	-40.0	-42.5	15.5	1.66e-03	0	54	0	158334976	50	5150
2026-01-06 09:17:47.48	130.72	19.00	-40.0	-42.5	15.5	5.72e-05	0	54	0	160432128	50	5122
2026-01-06 09:17:48.49	130.62	19.12	-39.1	-42.7	15.3	7.09e-05	0	54	0	162529280	50	5243
2026-01-06 09:17:49.50	130.53	19.24	-40.2	-42.8	15.2	1.39e-04	0	55	0	164626432	50	5312
2026-01-06 09:17:50.51	130.44	19.36	-40.3	-42.9	15.2	1.77e-04	0	55	0	165675008	51	5069
2026-01-06 09:17:51.52	130.34	19.48	-39.9	-43.0	15.1	7.32e-05	0	55	0	167772160	51	5105
2026-01-06 09:17:52.53	130.25	19.60	-40.4	-43.1	14.9	6.80e-06	0	55	0	169869312	51	5190
2026-01-06 09:17:53.54	130.15	19.72	-40.4	-43.0	15.0	8.69e-05	0	55	0	171966464	51	5152
2026-01-06 09:17:54.55	130.05	19.84	-40.3	-42.9	15.1	9.10e-06	0	55	0	174063616	51	5098
2026-01-06 09:17:55.56	129.95	19.96	-40.4	-43.0	15.0	5.30e-06	0	55	0	175112192	51	5143
2026-01-06 09:17:56.57	129.85	20.08	-40.4	-43.0	15.1	1.37e-05	0	54	0	177209344	51	5146
2026-01-06 09:17:57.58	129.76	20.21	-40.5	-43.2	14.9	2.36e-05	0	55	0	179306496	51	5238
2026-01-06 09:17:58.59	129.65	20.33	-40.5	-43.3	14.8	0.00e+00	0	55	0	181403648	51	5300
2026-01-06 09:17:59.60	129.55	20.46	-40.6	-43.4	14.7	1.50e-06	0	55	0	183500800	51	5359
2026-01-06 09:18:00.61	129.45	20.58	-40.6	-43.4	14.7	0.00e+00	0	55	0	184549376	51	5386
2026-01-06 09:18:01.62	129.35	20.71	-40.6	-43.3	14.8	9.90e-06	0	54	0	186646528	51	5325
2026-01-06 09:18:02.63	129.24	20.83	-40.6	-43.3	14.8	0.00e+00	0	55	0	188743680	51	5332
2026-01-06 09:18:03.64	129.14	20.96	-40.5	-43.2	14.9	0.00e+00	0	55	0	190840832	51	5268
2026-01-06 09:18:04.64	129.03	21.08	-40.5	-43.2	14.9	0.00e+00	0	55	0	192937984	51	5260
2026-01-06 09:18:05.65	128.93	21.21	-40.6	-43.4	14.7	2.20e-06	0	55	0	195035136	51	5373
2026-01-06 09:18:06.66	128.82	21.34	-40.6	-43.4	14.8	0.00e+00	0	55	0	196083712	51	5360
2026-01-06 09:18:07.67	128.71	21.47	-40.6	-43.3	14.8	7.00e-07	0	55	0	198180864	51	5335
2026-01-06 09:18:08.68	128.60	21.59	-40.6	-43.3	14.8	0.00e+00	0	55	0	200278016	51	5310
2026-01-06 09:18:09.69	128.49	21.72	-40.5	-43.2	14.9	0.00e+00	0	55	0	202375168	51	5252
2026-01-06 09:18:10.70	128.38	21.85	-40.5	-43.2	14.9	0.00e+00	0	55	0	204472320	51	5267
2026-01-06 09:18:11.71	128.27	21.98	-40.5	-43.2	15.0	0.00e+00	0	55	0	205520896	51	5260
2026-01-06 09:18:12.72	128.16	22.12	-40.6	-43.3	14.8	0.00e+00	0	55	0	207618048	51	5337
2026-01-06 09:18:13.73	128.04	22.25	-40.7	-43.5	14.6	0.00e+00	0	55	0	209715200	52	5133
2026-01-06 09:18:14.74	127.93	22.38	-40.6	-43.4	14.6	0.00e+00	0	55	0	211812352	52	5092
2026-01-06 09:18:15.75	127.81	22.51	-40.5	-43.4	14.7	0.00e+00	0	55	0	213909504	52	5044
2026-01-06 09:18:16.76	127.69	22.65	-40.5	-43.3	14.8	0.00e+00	0	55	0	214958080	52	4995
2026-01-06 09:18:17.77	127.57	22.78	-40.5	-43.2	14.9	0.00e+00	0	55	0	217055232	52	4971
2026-01-06 09:18:18.78	127.46	22.91	-40.4	-43.1	15.0	0.00e+00	0	55	0	219152384	52	4893
2026-01-06 09:18:19.79	127.33	23.05	-40.5	-43.2	15.0	0.00e+00	0	55	0	221249536	52	4929
2026-01-06 09:18:20.80	127.21	23.18	-40.5	-43.2	14.9	0.00e+00	0	55	0	223346688	52	4979
2026-01-06 09:18:21.81	127.09	23.32	-40.6	-43.3	14.8	0.00e+00	0	55	0	224395264	52	5026
2026-01-06 09:18:22.82	126.97	23.46	-40.5	-43.3	14.8	0.00e+00	0	55	0	226492416	52	4997
2026-01-06 09:18:23.83	126.84	23.59	-40.6	-43.3	14.8	7.00e-07	0	55	0	228589568	52	5036
2026-01-06 09:18:24.84	126.72	23.73	-40.6	-43.4	14.7	0.00e+00	0	55	0	230686720	52	5056
2026-01-06 09:18:25.85	126.59	23.87	-40.6	-43.4	14.8	7.00e-07	0	55	0	232783872	52	5055
2026-01-06 09:18:26.86	126.46	24.01	-40.5	-43.2	14.9	7.00e-07	0	55	0	233832448	52	4979
2026-01-06 09:18:27.87	126.33	24.15	-40.6	-43.4	14.8	0.00e+00	0	55	0	235929600	52	5056
2026-01-06 09:18:28.88	126.20	24.29	-40.6	-43.3	14.8	0.00e+00	0	55	0	238026752	52	5008
2026-01-06 09:18:29.89	126.07	24.43	-40.6	-43.4	14.7	7.00e-07	0	55	0	240123904	52	5075
2026-01-06 09:18:30.90	125.94	24.57	-40.6	-43.4	14.7	0.00e+00	0	55	0	242221056	52	5060
2026-01-06 09:18:31.91	125.80	24.71	-40.6	-43.4	14.8	0.00e+00	0	55	0	243269632	52	5054
2026-01-06 09:18:32.91	125.67	24.85	-40.5	-43.2	15.0	0.00e+00	0	55	0	245366784	52	4955
2026-01-06 09:18:33.92	125.53	25.00	-40.6	-43.3	14.8	0.00e+00	0	55	0	247463936	52	5026
2026-01-06 09:18:34.93	125.40	25.14	-40.5	-43.2	14.9	0.00e+00	0	55	0	249561088	52	4973
2026-01-06 09:18:35.95	125.26	25.29	-40.6	-43.4	14.8	0.00e+00	0	55	0	251658240	52	5063
2026-01-06 09:18:36.96	125.12	25.43	-40.6	-43.4	14.8	0.00e+00	0	55	0	252706816	52	5049
2026-01-06 09:18:37.97	124.97	25.58	-40.6	-43.4	14.7	7.00e-07	0	55	0	254803968	52	5079
2026-01-06 09:18:38.98	124.83	25.72	-40.7	-43.5	14.7	1.50e-06	0	55	0	256901120	52	5117
2026-01-06 09:18:39.99	124.69	25.87	-40.6	-43.4	14.8	0.00e+00	0	55	0	258998272	52	5063
2026-01-06 09:18:41.00	124.54	26.02	-40.6	-43.3	14.9	0.00e+00	0	55	0	261095424	52	5015
2026-01-06 09:18:42.01	124.39	26.17	-40.6	-43.4	14.9	0.00e+00	0	55	0	263192576	52	5052
2026-01-06 09:18:43.02	124.25	26.31	-40.7	-43.4	14.7	0.00e+00	0	55	0	264241152	52	5090
2026-01-06 09:18:44.03	124.10	26.46	-40.7	-43.5	14.7	0.00e+00	0	55	0	266338304	52	5121
2026-01-06 09:18:45.03	123.95	26.61	-40.8	-43.6	14.5	7.00e-07	0	55	0	268435456	52	5205
2026-01-06 09:18:46.04	123.79	26.76	-40.8	-43.7	14.5	1.50e-06	0	55	0	270532608	52	5239
2026-01-06 09:18:47.05	123.64	26.91	-40.7	-43.5	14.7	2.20e-06	0	55	0	272629760	52	5153
2026-01-06 09:18:48.06	123.48	27.06	-40.7	-43.5	14.7	7.00e-07	0	55	0	273678336	52	5118
2026-01-06 09:18:49.07	123.33	27.22	-40.6	-43.4	14.8	7.00e-07	0	55	0	275775488	52	5072
2026-01-06 09:18:50.08	123.17	27.37	-40.6	-43.3	14.9	0.00e+00	0	55	0	277872640	52	5022
2026-01-06 09:18:51.09	123.01	27.52	-40.6	-43.3	14.9	0.00e+00	0	55	0	279969792	52	5024
2026-01-06 09:18:52.10	122.85	27.68	-40.6	-43.3	15.0	1.50e-06	0	55	0	282066944	52	5002
2026-01-06 09:18:53.11	122.68	27.83	-40.7	-43.4	14.8	0.00e+00	0	55	0	283115520	52	5088
2026-01-06 09:18:54.12	122.52	27.99	-40.7	-43.5	14.7	0.00e+00	0	55	0	285212672	52	5124
2026-01-06 09:18:55.13	122.35	28.14	-40.7	-43.5	14.8	0.00e+00	0	55	0	287309824	52	5102
2026-01-06 09:18:56.14	122.18	28.30	-40.7	-43.5	14.7	0.00e+00	0	55	0	289406976	52	5150
2026-01-06 09:18:57.15	122.01	28.46	-40.7	-43.5	14.7	0.00e+00	0	55	0	291504128	52	5125
2026-01-06 09:18:58.16	121.84	28.61	-40.7	-43.5	14.7	0.00e+00	0	55	0	292552704	52	5112
2026-01-06 09:18:59.17	121.67	28.77	-40.8	-43.6	14.6	0.00e+00	0	55	0	294649856	52	5178
2026-01-06 09:19:00.18	121.49	28.93	-40.8	-43.6	14.6	0.00e+00	0	55	0	296747008	52	5201
2026-01-06 09:19:01.19	121.31	29.09	-40.8	-43.6	14.6	0.00e+00	0	55	0	298844160	52	5209
2026-01-06 09:19:02.20	121.14	29.25	-40.8	-43.6	14.6	0.00e+00	0	55	0	300941312	52	5196
2026-01-06 09:19:03.21	120.96	29.41	-40.8	-43.6	14.6	0.00e+00	0	55	0	301989888	52	5180
2026-01-06 09:19:04.22	120.77	29.57	-40.8	-43.5	14.7	7.00e-07	0	55	0	304087040	52	5149
2026-01-06 09:19:05.23	120.59	29.73	-40.8	-43.6	14.6	0.00e+00	0	55	0	306184192	52	5204
2026-01-06 09:19:06.24	120.40	29.90	-40.8	-43.7	14.6	0.00e+00	0	55	0	308281344	52	5229
2026-01-06 09:19:07.25	120.21	30.06	-40.9	-43.7	14.6	0.00e+00	0	55	0	310378496	52	5250
2026-01-06 09:19:08.26	120.02	30.22	-40.9	-43.8	14.4	7.00e-07	0	55	0	311427072	52	5325
2026-01-06 09:19:09.26	119.83	30.38	-41.1	-44.1	14.2	0.00e+00	0	55	0	313524224	52	5478
2026-01-06 09:19:10.27	119.64	30.55	-41.2	-44.3	13.9	3.80e-06	0	55	0	315621376	53	5333
2026-01-06 09:19:11.28	119.45	30.71	-41.3	-44.5	13.7	5.30e-06	0	55	0	317718528	53	5417
2026-01-06 09:19:12.30	119.25	30.88	-41.5	-44.9	13.4	7.60e-06	0	55	0	319815680	53	5660
2026-01-06 09:19:13.31	119.05	31.05	-41.6	-44.9	13.3	1.37e-05	0	55	0	320864256	53	5684
2026-01-06 09:19:14.31	118.85	31.21	-41.7	-45.1	13.1	2.44e-05	0	55	0	322961408	53	5804
2026-01-06 09:19:15.32	118.64	31.38	-41.8	-45.2	13.0	5.03e-05	0	55	0	325058560	54	5583
2026-01-06 09:19:16.33	118.43	31.55	-41.8	-45.3	12.9	4.65e-05	0	55	0	327155712	54	5636
2026-01-06 09:19:17.34	118.23	31.72	-41.9	-45.6	12.6	5.64e-05	0	55	0	329252864	54	5798
2026-01-06 09:19:18.36	118.01	31.89	-41.9	-45.5	12.7	6.33e-05	0	55	0	331350016	54	5755
2026-01-06 09:19:19.37	117.80	32.06	-42.0	-45.7	12.5	1.07e-04	0	55	0	332398592	54	5900
2026-01-06 09:19:20.38	117.59	32.23	-41.9	-45.6	12.6	1.16e-04	0	55	0	334495744	54	5797
2026-01-06 09:19:21.39	117.37	32.40	-41.9	-45.4	12.8	5.56e-05	0	55	0	336592896	54	5714
2026-01-06 09:19:22.40	117.15	32.57	-41.9	-45.4	12.8	5.18e-05	0	55	0	338690048	54	5690
2026-01-06 09:19:23.41	116.93	32.74	-41.8	-45.3	12.9	5.18e-05	0	56	0	340787200	54	5642
2026-01-06 09:19:24.42	116.70	32.91	-41.9	-45.5	12.8	3.28e-05	0	55	0	341835776	54	5767
2026-01-06 09:19:25.43	116.47	33.09	-41.8	-45.4	12.9	5.18e-05	0	55	0	343932928	54	5679
2026-01-06 09:19:26.43	116.25	33.26	-41.7	-45.2	13.1	2.89e-05	0	55	0	346030080	54	5559
2026-01-06 09:19:27.44	116.02	33.43	-41.7	-45.1	13.2	3.35e-05	0	55	0	348127232	54	5468
2026-01-06 09:19:28.45	115.78	33.60	-41.6	-45.0	13.3	2.67e-05	0	55	0	350224384	54	5406
2026-01-06 09:19:29.46	115.54	33.78	-41.7	-45.2	13.1	2.59e-05	0	55	0	351272960	54	5531
2026-01-06 09:19:30.47	115.30	33.95	-41.8	-45.2	13.1	3.58e-05	0	55	0	353370112	54	5570
2026-01-06 09:19:31.48	115.06	34.13	-41.9	-45.5	12.7	5.49e-05	0	55	0	355467264	54	5771
2026-01-06 09:19:32.49	114.82	34.30	-41.7	-45.2	13.1	4.27e-05	0	55	0	357564416	54	5558
2026-01-06 09:19:33.50	114.57	34.48	-41.7	-45.1	13.2	2.21e-05	0	55	0	359661568	54	5471
2026-01-06 09:19:34.51	114.32	34.66	-41.7	-45.2	13.1	3.66e-05	0	55	0	360710144	54	5555
2026-01-06 09:19:35.52	114.07	34.83	-41.6	-44.8	13.4	1.44e-05	0	55	0	362807296	54	5334
2026-01-06 09:19:36.53	113.81	35.01	-41.5	-44.7	13.6	9.90e-06	0	55	0	364904448	54	5276
2026-01-06 09:19:37.54	113.55	35.19	-41.6	-44.9	13.4	1.29e-05	0	55	0	367001600	54	5380
2026-01-06 09:19:38.55	113.29	35.36	-41.7	-45.1	13.2	2.59e-05	0	55	0	369098752	54	5507
2026-01-06 09:19:39.56	113.03	35.54	-41.6	-45.0	13.4	2.51e-05	0	56	0	370147328	54	5412
2026-01-06 09:19:40.57	112.76	35.72	-41.5	-44.7	13.6	1.52e-05	0	55	0	372244480	54	5267
2026-01-06 09:19:41.58	112.49	35.90	-41.6	-44.9	13.4	1.37e-05	0	55	0	374341632	54	5373
2026-01-06 09:19:42.59	112.22	36.08	-41.4	-44.6	13.7	1.22e-05	0	55	0	376438784	54	5203
2026-01-06 09:19:43.59	111.95	36.26	-41.4	-44.6	13.7	6.10e-06	0	55	0	378535936	54	5211
2026-01-06 09:19:44.60	111.67	36.44	-41.4	-44.6	13.7	3.00e-06	0	55	0	379584512	54	5171
2026-01-06 09:19:45.61	111.38	36.61	-41.4	-44.6	13.7	3.80e-06	0	55	0	381681664	54	5187
2026-01-06 09:19:46.62	111.10	36.79	-41.4	-44.6	13.7	2.20e-06	0	55	0	383778816	54	5178
2026-01-06 09:19:47.63	110.81	36.97	-41.4	-44.5	13.8	5.30e-06	0	55	0	385875968	54	5137
2026-01-06 09:19:48.64	110.52	37.15	-41.4	-44.5	13.8	2.20e-06	0	56	0	387973120	54	5159
2026-01-06 09:19:49.65	110.22	37.33	-41.2	-44.3	14.1	2.20e-06	0	55	0	389021696	54	4986
2026-01-06 09:19:50.66	109.93	37.51	-41.2	-44.3	14.1	1.50e-06	0	56	0	391118848	54	4999
2026-01-06 09:19:51.67	109.62	37.69	-41.2	-44.2	14.1	2.20e-06	0	55	0	393216000	54	4955
2026-01-06 09:19:52.68	109.32	37.87	-41.2	-44.3	14.0	7.00e-07	0	55	0	395313152	54	4989
2026-01-06 09:19:53.69	109.01	38.05	-41.2	-44.2	14.1	2.20e-06	0	55	0	397410304	54	4972
2026-01-06 09:19:54.70	108.70	38.24	-41.1	-44.1	14.2	7.00e-07	0	55	0	399507456	54	4902
2026-01-06 09:19:55.71	108.38	38.42	-40.9	-43.8	14.6	0.00e+00	0	56	0	400556032	53	4988
2026-01-06 09:19:56.72	108.06	38.60	-40.9	-43.8	14.6	7.00e-07	0	56	0	402653184	53	4986
2026-01-06 09:19:57.73	107.74	38.78	-41.1	-44.1	14.2	7.00e-07	0	56	0	404750336	53	5210
2026-01-06 09:19:58.74	107.42	38.96	-41.2	-44.2	14.1	2.20e-06	0	55	0	406847488	53	5270
2026-01-06 09:19:59.75	107.09	39.14	-41.2	-44.2	14.1	3.80e-06	0	55	0	408944640	53	5252
2026-01-06 09:20:00.76	106.75	39.32	-41.1	-44.1	14.2	2.20e-06	0	55	0	409993216	53	5173
2026-01-06 09:20:01.77	106.42	39.50	-41.3	-44.3	14.0	2.20e-06	0	55	0	412090368	53	5315
2026-01-06 09:20:02.78	106.07	39.67	-41.5	-44.8	13.6	3.80e-06	0	55	0	414187520	53	5601
2026-01-06 09:20:03.79	105.73	39.85	-41.6	-45.0	13.4	1.67e-05	0	55	0	416284672	53	5727
2026-01-06 09:20:04.80	105.38	40.03	-41.7	-45.0	13.4	1.14e-05	0	55	0	418381824	53	5732
2026-01-06 09:20:05.81	105.03	40.21	-41.6	-44.8	13.5	1.22e-05	0	55	0	419430400	53	5642
2026-01-06 09:20:06.82	104.67	40.39	-41.6	-44.8	13.6	1.29e-05	0	55	0	421527552	53	5610
2026-01-06 09:20:07.82	104.32	40.57	-41.5	-44.8	13.6	9.90e-06	0	55	0	423624704	53	5595
2026-01-06 09:20:08.83	103.95	40.74	-41.6	-44.9	13.5	6.80e-06	0	55	0	425721856	53	5673
2026-01-06 09:20:09.84	103.58	40.92	-41.8	-45.2	13.1	2.97e-05	0	55	0	427819008	54	5589
2026-01-06 09:20:10.85	103.21	41.10	-41.9	-45.3	13.0	5.11e-05	0	56	0	428867584	54	5643
2026-01-06 09:20:11.86	102.84	41.27	-41.8	-45.3	13.0	2.44e-05	0	56	0	430964736	54	5634
2026-01-06 09:20:12.87	102.46	41.45	-41.8	-45.2	13.2	3.96e-05	0	55	0	433061888	54	5581
2026-01-06 09:20:13.88	102.07	41.62	-41.9	-45.4	13.0	3.66e-05	0	56	0	435159040	54	5671
2026-01-06 09:20:14.89	101.68	41.80	-41.8	-45.3	13.1	2.89e-05	0	56	0	437256192	54	5606
2026-01-06 09:20:15.90	101.29	41.97	-41.8	-45.3	13.1	3.35e-05	0	56	0	438304768	54	5605
2026-01-06 09:20:16.91	100.89	42.14	-41.7	-45.0	13.3	3.20e-05	0	56	0	440401920	54	5464
2026-01-06 09:20:17.92	100.49	42.31	-41.7	-45.0	13.4	2.13e-05	0	56	0	442499072	54	5413
2026-01-06 09:20:18.93	100.08	42.49	-41.7	-45.0	13.3	9.10e-06	0	56	0	444596224	54	5456
2026-01-06 09:20:19.94	99.67	42.66	-41.7	-45.0	13.4	1.22e-05	0	55	0	446693376	54	5405
2026-01-06 09:20:20.95	99.26	42.82	-41.6	-44.8	13.5	9.10e-06	0	56	0	447741952	54	5312
2026-01-06 09:20:21.96	98.84	42.99	-41.2	-44.2	14.2	4.50e-06	0	56	0	449839104	54	4934
2026-01-06 09:20:22.97	98.42	43.16	-41.0	-43.8	14.6	7.00e-07	0	56	0	451936256	54	4746
2026-01-06 09:20:23.98	97.99	43.33	-40.8	-43.6	14.8	7.00e-07	0	55	0	454033408	53	4899
2026-01-06 09:20:24.99	97.56	43.49	-40.7	-43.4	14.9	0.00e+00	0	56	0	456130560	53	4804
2026-01-06 09:20:26.00	97.12	43.66	-40.5	-43.1	15.3	0.00e+00	0	55	0	457179136	53	4601
2026-01-06 09:20:27.00	96.68	43.82	-40.3	-42.7	15.7	0.00e+00	0	56	0	459276288	52	4699
2026-01-06 09:20:28.01	96.24	43.98	-40.1	-42.4	16.0	0.00e+00	0	56	0	461373440	52	4538
2026-01-06 09:20:29.02	95.79	44.14	-40.1	-42.4	16.0	0.00e+00	0	56	0	463470592	52	4539
2026-01-06 09:20:30.03	95.33	44.30	-40.3	-42.8	15.6	0.00e+00	0	56	0	465567744	52	4735
2026-01-06 09:20:31.04	94.87	44.46	-40.5	-43.0	15.4	0.00e+00	0	55	0	467664896	52	4828
2026-01-06 09:20:32.05	94.41	44.61	-40.4	-42.9	15.5	0.00e+00	0	56	0	468713472	52	4801
2026-01-06 09:20:33.06	93.94	44.77	-40.4	-42.9	15.5	0.00e+00	0	55	0	470810624	52	4782
2026-01-06 09:20:34.07	93.47	44.92	-40.4	-42.9	15.5	0.00e+00	0	55	0	472907776	52	4793
2026-01-06 09:20:35.08	92.99	45.07	-40.5	-43.1	15.4	0.00e+00	0	56	0	475004928	52	4902
2026-01-06 09:20:36.09	92.51	45.22	-40.4	-42.9	15.5	0.00e+00	0	55	0	476053504	52	4767
2026-01-06 09:20:37.10	92.02	45.37	-40.3	-42.7	15.7	0.00e+00	0	56	0	478150656	52	4694
2026-01-06 09:20:38.11	91.53	45.51	-40.0	-42.3	16.1	0.00e+00	0	56	0	480247808	52	4450
2026-01-06 09:20:39.12	91.03	45.66	-40.1	-42.4	16.1	0.00e+00	0	56	0	482344960	51	4767
2026-01-06 09:20:40.13	90.53	45.80	-40.3	-42.7	15.8	0.00e+00	0	56	0	484442112	51	4933
2026-01-06 09:20:41.14	90.03	45.94	-40.6	-43.3	15.1	0.00e+00	0	56	0	485490688	52	4987
2026-01-06 09:20:42.15	89.52	46.08	-41.0	-43.8	14.6	7.00e-07	0	56	0	487587840	52	5303
2026-01-06 09:20:43.16	89.01	46.22	-41.2	-44.2	14.2	1.50e-06	0	56	0	489684992	53	5261
2026-01-06 09:20:44.16	88.49	46.35	-41.4	-44.5	13.9	7.00e-07	0	56	0	491782144	53	5459
2026-01-06 09:20:45.17	87.97	46.48	-41.5	-44.7	13.7	3.80e-06	0	56	0	493879296	53	5568
2026-01-06 09:20:46.18	87.44	46.61	-41.5	-44.7	13.7	7.60e-06	0	56	0	495976448	53	5583
2026-01-06 09:20:47.19	86.91	46.74	-41.6	-44.8	13.7	1.14e-05	0	56	0	497025024	53	5626
2026-01-06 09:20:48.20	86.38	46.87	-41.6	-44.8	13.6	6.80e-06	0	56	0	499122176	53	5624
2026-01-06 09:20:49.21	85.84	46.99	-41.5	-44.6	13.8	3.00e-06	0	56	0	501219328	53	5513
2026-01-06 09:20:50.22	85.29	47.11	-41.7	-44.9	13.5	6.10e-06	0	56	0	503316480	53	5697
2026-01-06 09:20:51.23	84.74	47.23	-42.1	-45.6	12.8	2.67e-05	0	56	0	505413632	54	5852
2026-01-06 09:20:52.24	84.19	47.34	-42.2	-45.9	12.5	9.91e-05	0	56	0	506462208	55	5658
2026-01-06 09:20:53.24	83.64	47.45	-42.3	-46.2	12.2	1.96e-04	0	56	0	508559360	55	5887
2026-01-06 09:20:54.25	83.08	47.56	-42.2	-45.8	12.6	2.20e-04	0	56	0	510656512	55	5641
2026-01-06 09:20:55.26	82.52	47.67	-42.2	-45.9	12.6	8.46e-05	0	56	0	512753664	55	5679
2026-01-06 09:20:56.27	81.95	47.78	-42.4	-46.4	11.9	2.18e-04	0	56	0	514850816	55	5995
2026-01-06 09:20:57.28	81.38	47.88	-42.6	-46.8	11.5	6.24e-04	0	56	0	515899392	55	6334
2026-01-06 09:20:58.29	80.80	47.98	-42.9	-47.1	11.4	8.48e-04	0	56	0	517996544	56	6190
2026-01-06 09:20:59.30	80.22	48.07	-42.8	-47.1	11.4	7.51e-04	0	56	0	520093696	56	6134
2026-01-06 09:21:00.31	79.64	48.17	-43.0	-47.3	11.2	1.02e-03	0	56	0	522190848	56	6336
2026-01-06 09:21:01.32	79.05	48.25	-43.0	-47.5	11.0	1.67e-03	0	55	0	524288000	56	6432
2026-01-06 09:21:02.33	78.46	48.34	-42.9	-47.1	11.5	1.15e-03	0	56	0	525336576	56	6144
2026-01-06 09:21:03.34	77.87	48.43	-42.7	-46.6	11.9	5.29e-04	0	56	0	527433728	56	5845
2026-01-06 09:21:04.35	77.27	48.51	-42.5	-46.3	12.2	2.64e-04	0	56	0	529530880	56	5655
2026-01-06 09:21:05.36	76.67	48.58	-42.5	-46.3	12.3	1.88e-04	0	56	0	531628032	56	5610
2026-01-06 09:21:06.37	76.07	48.66	-42.2	-45.8	12.8	8.08e-05	0	56	0	533725184	56	5293
2026-01-06 09:21:07.38	75.47	48.73	-42.2	-45.7	13.0	4.73e-05	0	56	0	534773760	56	5234
2026-01-06 09:21:08.39	74.86	48.79	-42.5	-46.2	12.4	1.25e-04	0	56	0	536870912	56	5565
2026-01-06 09:21:09.40	74.25	48.86	-42.4	-46.1	12.5	1.47e-04	0	56	0	538968064	56	5477
2026-01-06 09:21:10.41	73.64	48.92	-42.2	-45.7	12.9	8.01e-05	0	56	0	541065216	56	5225
2026-01-06 09:21:11.42	73.02	48.98	-42.1	-45.5	13.2	2.59e-05	0	56	0	543162368	56	5107
2026-01-06 09:21:12.43	72.40	49.03	-42.1	-45.5	13.1	2.44e-05	0	56	0	544210944	56	5146
2026-01-06 09:21:13.44	71.78	49.08	-41.7	-44.9	13.5	9.10e-06	0	56	0	546308096	55	5072
2026-01-06 09:21:14.45	71.16	49.13	-41.5	-44.6	13.9	5.30e-06	0	56	0	548405248	55	4905
2026-01-06 09:21:15.46	70.54	49.17	-41.5	-44.6	13.8	2.20e-06	0	56	0	550502400	55	4904
2026-01-06 09:21:16.47	69.91	49.21	-41.5	-44.5	14.0	6.80e-06	0	56	0	552599552	55	4867
2026-01-06 09:21:17.48	69.29	49.24	-41.4	-44.4	14.1	2.20e-06	0	56	0	553648128	54	5099
2026-01-06 09:21:18.49	68.66	49.28	-41.3	-44.3	14.3	1.50e-06	0	56	0	555745280	54	5005
2026-01-06 09:21:19.50	68.03	49.30	-41.4	-44.4	14.2	2.20e-06	0	56	0	557842432	54	5072
2026-01-06 09:21:20.51	67.40	49.33	-41.5	-44.6	13.9	7.00e-07	0	56	0	559939584	54	5179
2026-01-06 09:21:21.52	66.77	49.35	-41.5	-44.6	13.9	3.00e-06	0	56	0	562036736	54	5174
2026-01-06 09:21:22.52	66.15	49.37	-41.3	-44.3	14.3	1.50e-06	0	56	0	564133888	54	4989
2026-01-06 09:21:23.53	65.51	49.38	-41.3	-44.2	14.4	0.00e+00	0	56	0	565182464	54	4930
2026-01-06 09:21:24.54	64.88	49.39	-41.2	-44.0	14.6	7.00e-07	0	56	0	567279616	54	4836
2026-01-06 09:21:25.55	64.25	49.39	-41.4	-44.3	14.3	3.00e-06	0	56	0	569376768	54	5018
2026-01-06 09:21:26.56	63.62	49.40	-41.6	-44.7	14.0	4.50e-06	0	56	0	571473920	54	5221
2026-01-06 09:21:27.57	62.98	49.40	-41.7	-44.9	13.6	6.10e-06	0	56	0	573571072	54	5399
2026-01-06 09:21:28.58	62.35	49.39	-41.8	-45.1	13.5	6.10e-06	0	56	0	574619648	54	5476
2026-01-06 09:21:29.59	61.72	49.38	-41.6	-44.7	13.8	6.80e-06	0	56	0	576716800	54	5239
2026-01-06 09:21:30.60	61.08	49.37	-41.5	-44.5	14.0	4.50e-06	0	56	0	578813952	54	5158
2026-01-06 09:21:31.61	60.45	49.35	-41.3	-44.3	14.2	2.20e-06	0	56	0	580911104	54	4994
2026-01-06 09:21:32.62	59.82	49.33	-41.4	-44.4	14.2	7.00e-07	0	56	0	583008256	54	5055
2026-01-06 09:21:33.63	59.19	49.31	-41.2	-44.1	14.4	7.00e-07	0	56	0	584056832	54	4912
2026-01-06 09:21:34.64	58.56	49.28	-41.2	-44.1	14.5	7.00e-07	0	56	0	586153984	54	4911
2026-01-06 09:21:35.65	57.94	49.25	-41.3	-44.3	14.2	0.00e+00	0	56	0	588251136	54	4989
2026-01-06 09:21:36.65	57.32	49.21	-41.3	-44.3	14.3	3.80e-06	0	56	0	590348288	54	4990
2026-01-06 09:21:37.66	56.69	49.18	-41.1	-44.0	14.6	7.00e-07	0	56	0	592445440	54	4829
2026-01-06 09:21:38.67	56.07	49.13	-41.1	-43.9	14.6	7.00e-07	0	56	0	593494016	54	4784
2026-01-06 09:21:39.68	55.45	49.09	-41.3	-44.3	14.2	7.00e-07	0	56	0	595591168	54	5013
2026-01-06 09:21:40.69	54.83	49.04	-41.3	-44.2	14.3	7.00e-07	0	56	0	597688320	54	4928
2026-01-06 09:21:41.70	54.21	48.99	-41.2	-44.0	14.6	1.50e-06	0	56	0	599785472	54	4835
2026-01-06 09:21:42.71	53.60	48.93	-41.4	-44.4	14.1	0.00e+00	0	56	0	601882624	54	5078
2026-01-06 09:21:43.72	52.98	48.87	-41.5	-44.5	14.0	7.00e-07	0	56	0	602931200	54	5141
2026-01-06 09:21:44.73	52.37	48.81	-41.3	-44.2	14.3	1.50e-06	0	56	0	605028352	54	4970
2026-01-06 09:21:45.74	51.77	48.74	-41.0	-43.8	14.8	7.00e-07	0	56	0	607125504	54	4708
2026-01-06 09:21:46.75	51.16	48.67	-41.3	-44.2	14.4	0.00e+00	0	56	0	609222656	54	4959
2026-01-06 09:21:47.76	50.56	48.60	-41.3	-44.3	14.3	7.00e-07	0	56	0	611319808	54	5006
2026-01-06 09:21:48.77	49.96	48.52	-41.3	-44.2	14.4	7.00e-07	0	56	0	612368384	54	4929
2026-01-06 09:21:49.78	49.37	48.44	-41.1	-44.0	14.6	7.00e-07	0	56	0	614465536	54	4832
2026-01-06 09:21:50.79	48.77	48.36	-41.4	-44.3	14.3	1.50e-06	0	56	0	616562688	54	5033
2026-01-06 09:21:51.80	48.18	48.27	-41.5	-44.6	14.1	7.00e-07	0	56	0	618659840	54	5162
2026-01-06 09:21:52.81	47.60	48.18	-41.5	-44.6	14.0	2.20e-06	0	56	0	620756992	54	5180
2026-01-06 09:21:53.82	47.01	48.09	-41.6	-44.7	13.8	3.00e-06	0	56	0	621805568	54	5276
2026-01-06 09:21:54.83	46.44	47.99	-41.6	-44.8	13.7	5.30e-06	0	56	0	623902720	54	5285
2026-01-06 09:21:55.84	45.86	47.90	-41.5	-44.6	13.9	9.90e-06	0	56	0	625999872	54	5193
2026-01-06 09:21:56.85	45.29	47.79	-41.5	-44.6	13.9	3.00e-06	0	56	0	628097024	54	5188
2026-01-06 09:21:57.86	44.72	47.69	-41.6	-44.8	13.8	3.80e-06	0	56	0	630194176	54	5319
2026-01-06 09:21:58.87	44.16	47.58	-41.8	-45.0	13.5	1.22e-05	0	56	0	632291328	54	5459
2026-01-06 09:21:59.88	43.60	47.47	-41.8	-45.2	13.4	1.06e-05	0	56	0	633339904	54	5535
2026-01-06 09:22:00.89	43.04	47.36	-41.9	-45.4	13.2	2.51e-05	0	56	0	635437056	54	5673
2026-01-06 09:22:01.90	42.49	47.25	-41.8	-45.2	13.4	1.83e-05	0	56	0	637534208	54	5544
2026-01-06 09:22:02.91	41.94	47.13	-41.6	-44.9	13.7	1.67e-05	0	56	0	639631360	54	5345
2026-01-06 09:22:03.92	41.40	47.01	-41.7	-44.9	13.7	6.10e-06	0	56	0	641728512	54	5362
2026-01-06 09:22:04.93	40.86	46.89	-41.7	-44.9	13.7	6.10e-06	0	56	0	642777088	54	5374
2026-01-06 09:22:05.94	40.32	46.76	-41.6	-44.7	13.9	6.10e-06	0	56	0	644874240	54	5248
2026-01-06 09:22:06.95	39.79	46.64	-41.5	-44.6	14.0	5.30e-06	0	56	0	646971392	54	5202
2026-01-06 09:22:07.96	39.26	46.51	-41.4	-44.4	14.2	7.00e-07	0	56	0	649068544	54	5080
2026-01-06 09:22:08.97	38.74	46.38	-41.4	-44.4	14.2	2.20e-06	0	56	0	651165696	54	5045
2026-01-06 09:22:09.98	38.22	46.24	-41.1	-44.0	14.7	1.50e-06	0	56	0	652214272	54	4831
2026-01-06 09:22:10.99	37.71	46.11	-41.0	-43.7	14.9	0.00e+00	0	56	0	654311424	53	4959
2026-01-06 09:22:12.00	37.20	45.97	-40.9	-43.6	14.9	7.00e-07	0	56	0	656408576	53	4926
2026-01-06 09:22:13.01	36.70	45.83	-40.9	-43.6	14.9	7.00e-07	0	56	0	658505728	53	4917
2026-01-06 09:22:14.02	36.20	45.69	-40.9	-43.6	15.0	0.00e+00	0	56	0	660602880	53	4880
2026-01-06 09:22:15.03	35.70	45.54	-40.9	-43.6	15.0	0.00e+00	0	56	0	661651456	53	4875
2026-01-06 09:22:16.04	35.21	45.40	-40.9	-43.7	14.9	0.00e+00	0	56	0	663748608	53	4935
2026-01-06 09:22:17.05	34.73	45.25	-40.9	-43.7	14.9	0.00e+00	0	56	0	665845760	53	4942
2026-01-06 09:22:18.06	34.24	45.10	-40.9	-43.5	15.1	0.00e+00	0	56	0	667942912	53	4868
2026-01-06 09:22:19.07	33.77	44.95	-40.6	-43.2	15.3	0.00e+00	0	56	0	670040064	53	4699
2026-01-06 09:22:20.08	33.29	44.80	-40.7	-43.3	15.3	0.00e+00	0	56	0	671088640	53	4716
2026-01-06 09:22:21.09	32.83	44.64	-40.8	-43.5	15.1	0.00e+00	0	56	0	673185792	53	4846
2026-01-06 09:22:22.10	32.36	44.49	-41.0	-43.7	14.8	0.00e+00	0	56	0	675282944	53	4964
2026-01-06 09:22:23.11	31.90	44.33	-41.0	-43.7	14.8	0.00e+00	0	56	0	677380096	53	4977
2026-01-06 09:22:24.12	31.45	44.17	-41.0	-43.7	14.9	0.00e+00	0	56	0	679477248	53	4964
2026-01-06 09:22:25.13	31.00	44.01	-40.8	-43.4	15.1	7.00e-07	0	56	0	680525824	53	4806
2026-01-06 09:22:26.14	30.55	43.85	-40.9	-43.6	15.0	0.00e+00	0	56	0	682622976	53	4881
2026-01-06 09:22:27.15	30.11	43.69	-41.1	-44.0	14.6	0.00e+00	0	56	0	684720128	53	5106
2026-01-06 09:22:28.16	29.68	43.53	-41.1	-44.0	14.6	7.00e-07	0	56	0	686817280	53	5111
2026-01-06 09:22:29.17	29.25	43.36	-41.0	-43.8	14.8	0.00e+00	0	56	0	688914432	53	5022
2026-01-06 09:22:30.18	28.82	43.20	-40.9	-43.7	14.9	0.00e+00	0	56	0	689963008	53	4947
2026-01-06 09:22:31.19	28.40	43.03	-40.9	-43.7	14.9	0.00e+00	0	56	0	692060160	53	4945
2026-01-06 09:22:32.20	27.98	42.86	-40.8	-43.5	15.0	7.00e-07	0	56	0	694157312	53	4866
2026-01-06 09:22:33.21	27.56	42.70	-41.0	-43.7	14.8	7.00e-07	0	56	0	696254464	53	4972
2026-01-06 09:22:34.22	27.15	42.53	-40.8	-43.5	15.1	0.00e+00	0	56	0	698351616	53	4853
2026-01-06 09:22:35.23	26.75	42.36	-40.7	-43.3	15.2	0.00e+00	0	56	0	700448768	53	4751
2026-01-06 09:22:36.24	26.35	42.19	-40.6	-43.1	15.4	0.00e+00	0	56	0	701497344	53	4636
2026-01-06 09:22:37.26	25.95	42.01	-40.5	-43.0	15.5	0.00e+00	0	56	0	703594496	53	4590
2026-01-06 09:22:38.27	25.55	41.84	-40.6	-43.2	15.3	0.00e+00	0	56	0	705691648	53	4695
2026-01-06 09:22:39.28	25.17	41.67	-40.8	-43.5	15.1	0.00e+00	0	56	0	707788800	53	4846
2026-01-06 09:22:40.29	24.78	41.49	-40.9	-43.6	14.9	0.00e+00	0	56	0	709885952	53	4897
2026-01-06 09:22:41.30	24.40	41.32	-40.7	-43.3	15.2	0.00e+00	0	56	0	710934528	53	4748
2026-01-06 09:22:42.30	24.03	41.14	-40.7	-43.3	15.2	0.00e+00	0	56	0	713031680	53	4741
2026-01-06 09:22:43.32	23.66	40.97	-40.8	-43.5	15.1	0.00e+00	0	56	0	715128832	53	4825
2026-01-06 09:22:44.33	23.29	40.79	-41.0	-43.8	14.8	7.00e-07	0	56	0	717225984	53	5026
2026-01-06 09:22:45.34	22.92	40.61	-41.2	-44.1	14.4	0.00e+00	0	56	0	719323136	53	5210
2026-01-06 09:22:46.34	22.57	40.44	-41.4	-44.4	14.1	1.50e-06	0	56	0	720371712	53	5391
2026-01-06 09:22:47.35	22.21	40.26	-41.5	-44.7	13.8	3.80e-06	0	56	0	722468864	53	5554
2026-01-06 09:22:48.36	21.86	40.08	-41.7	-44.9	13.6	8.30e-06	0	56	0	724566016	53	5716
2026-01-06 09:22:49.37	21.51	39.91	-41.8	-45.1	13.3	1.52e-05	0	56	0	726663168	54	5513
2026-01-06 09:22:50.38	21.17	39.73	-41.9	-45.3	13.2	1.52e-05	0	56	0	728760320	54	5630
2026-01-06 09:22:51.39	20.83	39.55	-42.0	-45.6	12.9	4.42e-05	0	56	0	729808896	54	5791
2026-01-06 09:22:52.40	20.49	39.37	-42.2	-45.9	12.6	6.94e-05	0	56	0	731906048	54	5994
2026-01-06 09:22:53.41	20.16	39.19	-42.2	-45.8	12.6	1.19e-04	0	56	0	734003200	55	5653
2026-01-06 09:22:54.42	19.83	39.01	-42.1	-45.6	12.8	7.09e-05	0	56	0	736100352	55	5518
2026-01-06 09:22:55.43	19.51	38.83	-41.9	-45.4	13.1	2.89e-05	0	56	0	738197504	55	5341
2026-01-06 09:22:56.43	19.19	38.65	-42.0	-45.5	13.0	2.36e-05	0	56	0	739246080	55	5433
2026-01-06 09:22:57.44	18.87	38.48	-42.2	-46.0	12.5	7.40e-05	0	56	0	741343232	55	5733
2026-01-06 09:22:58.45	18.55	38.30	-42.4	-46.3	12.2	1.20e-04	0	56	0	743440384	55	5928
2026-01-06 09:22:59.46	18.24	38.12	-42.3	-46.1	12.3	1.94e-04	0	56	0	745537536	55	5847
2026-01-06 09:23:00.47	17.93	37.94	-42.1	-45.8	12.7	1.46e-04	0	56	0	747634688	55	5621
2026-01-06 09:23:01.48	17.63	37.76	-42.1	-45.7	12.8	6.33e-05	0	56	0	748683264	55	5545
2026-01-06 09:23:02.49	17.33	37.58	-42.2	-46.0	12.4	1.11e-04	0	56	0	750780416	55	5761
2026-01-06 09:23:03.50	17.03	37.40	-42.3	-46.1	12.3	1.39e-04	0	56	0	752877568	55	5814
2026-01-06 09:23:04.51	16.74	37.22	-42.4	-46.4	12.0	2.00e-04	0	56	0	754974720	55	6027
2026-01-06 09:23:05.52	16.45	37.04	-42.5	-46.5	11.9	3.54e-04	0	56	0	757071872	55	6113
2026-01-06 09:23:06.53	16.16	36.86	-42.5	-46.6	11.8	4.44e-04	0	56	0	758120448	55	6186
2026-01-06 09:23:07.54	15.87	36.68	-42.5	-46.6	11.8	5.16e-04	0	56	0	760217600	55	6143
2026-01-06 09:23:08.55	15.59	36.50	-42.4	-46.3	12.1	3.62e-04	0	56	0	762314752	55	5973
2026-01-06 09:23:09.56	15.31	36.33	-42.1	-45.8	12.5	1.40e-04	0	56	0	764411904	55	5646
2026-01-06 09:23:10.57	15.04	36.15	-42.2	-46.1	12.4	1.41e-04	0	56	0	766509056	55	5793
2026-01-06 09:23:11.58	14.77	35.97	-42.2	-46.0	12.4	1.14e-04	0	56	0	768606208	55	5764
2026-01-06 09:23:12.60	14.49	35.79	-42.3	-46.3	12.2	1.94e-04	0	56	0	769654784	55	5926
2026-01-06 09:23:13.60	14.23	35.61	-42.3	-46.1	12.2	2.43e-04	0	56	0	771751936	55	5846
2026-01-06 09:23:14.61	13.97	35.44	-42.3	-46.1	12.2	2.59e-04	0	56	0	773849088	55	5844
2026-01-06 09:23:15.62	13.71	35.26	-42.2	-46.0	12.4	1.50e-04	0	56	0	775946240	55	5779
2026-01-06 09:23:16.63	13.45	35.08	-42.3	-46.2	12.1	2.49e-04	0	56	0	778043392	55	5907
2026-01-06 09:23:17.64	13.19	34.91	-42.1	-45.8	12.5	1.94e-04	0	56	0	779091968	55	5638
2026-01-06 09:23:18.65	12.94	34.73	-42.1	-45.7	12.7	9.68e-05	0	56	0	781189120	55	5557
2026-01-06 09:23:19.66	12.69	34.56	-41.9	-45.4	13.0	4.50e-05	0	56	0	783286272	55	5347
2026-01-06 09:23:20.67	12.44	34.38	-42.0	-45.6	12.8	4.65e-05	0	56	0	785383424	55	5484
2026-01-06 09:23:21.68	12.20	34.21	-42.1	-45.7	12.7	7.78e-05	0	56	0	787480576	55	5589
2026-01-06 09:23:22.69	11.96	34.03	-42.1	-45.9	12.5	1.01e-04	0	56	0	788529152	55	5668
2026-01-06 09:23:23.70	11.72	33.86	-41.9	-45.5	12.9	1.05e-04	0	56	0	790626304	55	5411
2026-01-06 09:23:24.71	11.48	33.68	-41.9	-45.4	13.0	4.34e-05	0	56	0	792723456	55	5379
2026-01-06 09:23:25.72	11.25	33.51	-41.7	-45.1	13.3	2.67e-05	0	56	0	794820608	55	5198
2026-01-06 09:23:26.73	11.02	33.34	-41.7	-45.0	13.3	1.37e-05	0	56	0	796917760	55	5154
2026-01-06 09:23:27.74	10.79	33.17	-41.7	-45.1	13.3	1.90e-05	0	56	0	797966336	55	5174
2026-01-06 09:23:28.75	10.56	32.99	-41.8	-45.2	13.2	2.74e-05	0	56	0	800063488	55	5239
2026-01-06 09:23:29.76	10.34	32.82	-41.6	-44.9	13.5	1.22e-05	0	56	0	802160640	55	5061
2026-01-06 09:23:30.77	10.12	32.65	-41.6	-44.9	13.4	1.29e-05	0	56	0	804257792	55	5092
2026-01-06 09:23:31.78	9.90	32.48	-41.7	-45.0	13.3	1.52e-05	0	56	0	806354944	55	5149
2026-01-06 09:23:32.79	9.68	32.31	-41.9	-45.4	13.0	1.98e-05	0	56	0	807403520	55	5375
2026-01-06 09:23:33.80	9.47	32.14	-41.9	-45.4	12.9	4.27e-05	0	56	0	809500672	55	5386
2026-01-06 09:23:34.81	9.26	31.97	-42.0	-45.5	12.8	6.71e-05	0	56	0	811597824	55	5455
2026-01-06 09:23:35.82	9.05	31.80	-42.0	-45.6	12.7	8.54e-05	0	56	0	813694976	55	5503
2026-01-06 09:23:36.83	8.84	31.64	-42.1	-45.8	12.5	9.00e-05	0	56	0	815792128	55	5629
2026-01-06 09:23:37.83	8.63	31.47	-41.9	-45.5	12.8	1.17e-04	0	56	0	816840704	55	5440
2026-01-06 09:23:38.84	8.43	31.30	-41.8	-45.3	13.1	2.97e-05	0	56	0	818937856	55	5284
2026-01-06 09:23:39.85	8.23	31.14	-41.8	-45.2	13.1	4.11e-05	0	56	0	821035008	55	5269
2026-01-06 09:23:40.86	8.03	30.97	-41.8	-45.3	13.0	3.73e-05	0	56	0	823132160	55	5297
2026-01-06 09:23:41.87	7.83	30.81	-41.8	-45.3	13.0	3.96e-05	0	56	0	825229312	55	5295
2026-01-06 09:23:42.88	7.64	30.64	-41.9	-45.5	12.9	4.57e-05	0	56	0	826277888	55	5406
2026-01-06 09:23:43.89	7.44	30.48	-41.9	-45.5	12.9	5.49e-05	0	56	0	828375040	55	5404
2026-01-06 09:23:44.90	7.25	30.32	-41.8	-45.3	13.0	4.50e-05	0	56	0	830472192	55	5336
2026-01-06 09:23:45.91	7.06	30.15	-41.9	-45.5	12.8	5.49e-05	0	56	0	832569344	55	5438
2026-01-06 09:23:46.92	6.88	29.99	-41.9	-45.6	12.7	7.40e-05	0	56	0	834666496	55	5479
2026-01-06 09:23:47.93	6.69	29.83	-41.9	-45.6	12.7	8.77e-05	0	56	0	836763648	55	5488
2026-01-06 09:23:48.94	6.51	29.67	-42.0	-45.7	12.6	1.06e-04	0	56	0	837812224	55	5554
2026-01-06 09:23:49.95	6.32	29.51	-42.0	-45.7	12.6	1.17e-04	0	56	0	839909376	55	5561
2026-01-06 09:23:50.96	6.14	29.35	-41.9	-45.5	12.7	8.39e-05	0	56	0	842006528	55	5464
2026-01-06 09:23:51.97	5.97	29.19	-41.7	-45.2	13.1	4.42e-05	0	56	0	844103680	55	5267
2026-01-06 09:23:52.98	5.79	29.03	-41.5	-44.7	13.6	1.67e-05	0	56	0	846200832	55	4981
2026-01-06 09:23:53.99	5.62	28.87	-41.4	-44.6	13.7	3.80e-06	0	56	0	847249408	54	5178
2026-01-06 09:23:55.00	5.44	28.71	-41.3	-44.5	13.9	4.50e-06	0	56	0	849346560	54	5103
2026-01-06 09:23:56.01	5.27	28.56	-41.4	-44.6	13.7	5.30e-06	0	56	0	851443712	54	5212
2026-01-06 09:23:57.02	5.10	28.40	-41.4	-44.7	13.6	1.22e-05	0	56	0	853540864	54	5228
2026-01-06 09:23:58.03	4.93	28.24	-41.5	-44.7	13.5	8.30e-06	0	56	0	855638016	54	5262
2026-01-06 09:23:59.04	4.77	28.09	-41.4	-44.6	13.7	8.30e-06	0	56	0	856686592	54	5170
2026-01-06 09:24:00.05	4.60	27.93	-41.3	-44.4	13.9	3.00e-06	0	56	0	858783744	54	5078
2026-01-06 09:24:01.06	4.44	27.78	-41.1	-44.1	14.1	2.20e-06	0	56	0	860880896	54	4908
2026-01-06 09:24:02.07	4.28	27.63	-41.1	-44.0	14.2	1.50e-06	0	56	0	862978048	54	4868
2026-01-06 09:24:03.08	4.12	27.47	-41.0	-44.0	14.2	2.20e-06	0	56	0	865075200	54	4845
2026-01-06 09:24:04.09	3.96	27.32	-41.0	-44.0	14.3	2.20e-06	0	56	0	866123776	54	4825
2026-01-06 09:24:05.10	3.81	27.17	-41.0	-44.0	14.2	1.50e-06	0	56	0	868220928	54	4866
2026-01-06 09:24:06.11	3.65	27.02	-40.9	-43.9	14.4	7.00e-07	0	56	0	870318080	53	5047
2026-01-06 09:24:07.12	3.50	26.87	-40.9	-43.8	14.4	7.00e-07	0	56	0	872415232	53	5030
2026-01-06 09:24:08.13	3.34	26.72	-40.9	-43.8	14.4	1.50e-06	0	56	0	874512384	53	5008
2026-01-06 09:24:09.14	3.19	26.57	-40.9	-43.8	14.4	1.50e-06	0	56	0	876609536	53	5012
2026-01-06 09:24:10.15	3.04	26.42	-40.8	-43.7	14.5	7.00e-07	0	56	0	877658112	53	4961
2026-01-06 09:24:11.16	2.90	26.27	-40.8	-43.7	14.5	7.00e-07	0	56	0	879755264	53	4969
2026-01-06 09:24:12.17	2.75	26.13	-40.8	-43.7	14.5	7.00e-07	0	56	0	881852416	53	4949
2026-01-06 09:24:13.18	2.61	25.98	-40.8	-43.7	14.6	0.00e+00	0	56	0	883949568	53	4937
2026-01-06 09:24:14.19	2.46	25.83	-40.8	-43.6	14.6	7.00e-07	0	56	0	886046720	53	4901
2026-01-06 09:24:15.20	2.32	25.69	-40.7	-43.5	14.7	0.00e+00	0	56	0	887095296	53	4824
2026-01-06 09:24:16.21	2.18	25.54	-40.6	-43.3	14.9	7.00e-07	0	56	0	889192448	53	4723
2026-01-06 09:24:17.22	2.04	25.40	-40.6	-43.3	14.9	0.00e+00	0	56	0	891289600	53	4752
2026-01-06 09:24:18.23	1.90	25.25	-40.6	-43.3	14.9	0.00e+00	0	56	0	893386752	53	4725
2026-01-06 09:24:19.24	1.76	25.11	-40.6	-43.4	14.8	0.00e+00	0	56	0	895483904	53	4776
2026-01-06 09:24:20.25	1.63	24.97	-40.6	-43.4	14.8	0.00e+00	0	56	0	896532480	53	4785
2026-01-06 09:24:21.26	1.49	24.83	-40.6	-43.5	14.7	0.00e+00	0	56	0	898629632	53	4830
2026-01-06 09:24:22.27	1.36	24.69	-40.8	-43.7	14.5	7.00e-07	0	56	0	900726784	53	4946
2026-01-06 09:24:23.28	1.23	24.54	-40.8	-43.7	14.5	0.00e+00	0	56	0	902823936	53	4952
2026-01-06 09:24:24.29	1.10	24.40	-40.8	-43.7	14.4	7.00e-07	0	56	0	904921088	53	4972
2026-01-06 09:24:25.30	0.97	24.26	-40.8	-43.7	14.5	7.00e-07	0	56	0	905969664	53	4951
2026-01-06 09:24:26.31	0.84	24.13	-40.8	-43.8	14.4	0.00e+00	0	56	0	908066816	53	4991
2026-01-06 09:24:27.32	0.71	23.99	-40.7	-43.6	14.5	7.00e-07	0	56	0	910163968	53	4915
2026-01-06 09:24:28.33	0.59	23.85	-40.7	-43.7	14.5	7.00e-07	0	56	0	912261120	53	4929
2026-01-06 09:24:29.34	0.46	23.71	-40.7	-43.6	14.5	0.00e+00	0	56	0	914358272	53	4876
2026-01-06 09:24:30.35	0.34	23.58	-40.7	-43.6	14.5	7.00e-07	0	56	0	915406848	53	4881
2026-01-06 09:24:31.36	0.21	23.44	-40.6	-43.5	14.7	0.00e+00	0	56	0	917504000	53	4817
2026-01-06 09:24:32.37	0.09	23.30	-40.6	-43.4	14.7	0.00e+00	0	56	0	919601152	53	4799
2026-01-06 09:24:33.38	359.97	23.17	-40.5	-43.4	14.7	0.00e+00	0	56	0	921698304	53	4762
2026-01-06 09:24:34.39	359.85	23.03	-40.5	-43.3	14.8	0.00e+00	0	56	0	923795456	53	4742
2026-01-06 09:24:35.40	359.73	22.90	-40.5	-43.3	14.8	1.50e-06	0	56	0	924844032	53	4749
2026-01-06 09:24:36.41	359.62	22.77	-40.5	-43.4	14.7	7.00e-07	0	56	0	926941184	53	4765
2026-01-06 09:24:37.42	359.50	22.63	-40.5	-43.3	14.8	0.00e+00	0	56	0	929038336	53	4746
2026-01-06 09:24:38.43	359.38	22.50	-40.6	-43.4	14.7	7.00e-07	0	56	0	931135488	53	4785
2026-01-06 09:24:39.44	359.27	22.37	-40.6	-43.5	14.6	0.00e+00	0	56	0	933232640	53	4824
2026-01-06 09:24:40.45	359.16	22.24	-40.6	-43.6	14.5	7.00e-07	0	56	0	934281216	53	4871
2026-01-06 09:24:41.46	359.04	22.11	-40.6	-43.6	14.5	7.00e-07	0	56	0	936378368	53	4871
2026-01-06 09:24:42.47	358.93	21.98	-40.7	-43.6	14.4	7.00e-07	0	56	0	938475520	53	4910
2026-01-06 09:24:43.47	358.82	21.85	-40.7	-43.6	14.4	7.00e-07	0	56	0	940572672	53	4910
2026-01-06 09:24:44.48	358.71	21.72	-40.7	-43.7	14.3	7.00e-07	0	56	0	942669824	53	4929
2026-01-06 09:24:45.49	358.60	21.59	-40.6	-43.6	14.4	7.00e-07	0	56	0	944766976	53	4886
2026-01-06 09:24:46.50	358.50	21.46	-40.6	-43.5	14.4	0.00e+00	0	56	0	945815552	53	4847
2026-01-06 09:24:47.51	358.39	21.34	-40.6	-43.5	14.5	7.00e-07	0	56	0	947912704	53	4827
2026-01-06 09:24:48.52	358.28	21.21	-40.6	-43.5	14.4	0.00e+00	0	56	0	950009856	53	4859
2026-01-06 09:24:49.53	358.18	21.08	-40.5	-43.5	14.4	7.00e-07	0	56	0	952107008	53	4834
2026-01-06 09:24:50.54	358.07	20.96	-40.5	-43.4	14.4	1.50e-06	0	56	0	954204160	53	4801
2026-01-06 09:24:51.55	357.97	20.83	-40.6	-43.7	14.2	7.00e-07	0	56	0	955252736	53	4928
2026-01-06 09:24:52.56	357.87	20.71	-40.5	-43.5	14.3	1.50e-06	0	56	0	957349888	53	4858
2026-01-06 09:24:53.57	357.77	20.58	-40.6	-43.7	14.1	0.00e+00	0	56	0	959447040	53	4945
2026-01-06 09:24:54.58	357.67	20.46	-40.6	-43.7	14.0	3.00e-06	0	56	0	961544192	53	4971
2026-01-06 09:24:55.59	357.57	20.34	-40.6	-43.8	13.9	2.20e-06	0	56	0	963641344	53	4989
2026-01-06 09:24:56.60	357.47	20.22	-40.6	-43.8	13.9	2.20e-06	0	56	0	964689920	53	5004
2026-01-06 09:24:57.61	357.37	20.09	-40.6	-43.8	13.8	4.50e-06	0	56	0	966787072	53	5036
2026-01-06 09:24:58.62	357.27	19.97	-40.6	-43.8	13.7	5.30e-06	0	56	0	968884224	53	5033
2026-01-06 09:24:59.63	357.17	19.85	-40.6	-43.8	13.7	9.10e-06	0	56	0	970981376	53	5029
2026-01-06 09:25:00.63	357.08	19.73	-40.6	-43.8	13.6	5.30e-06	0	56	0	973078528	53	5019
2026-01-06 09:25:01.65	356.98	19.61	-40.4	-43.6	13.7	9.10e-06	0	56	0	974127104	52	5218
2026-01-06 09:25:02.66	356.89	19.49	-40.5	-43.8	13.5	6.10e-06	0	56	0	976224256	52	5286
2026-01-06 09:25:03.67	356.80	19.37	-40.4	-43.8	13.4	9.10e-06	0	56	0	978321408	52	5299
2026-01-06 09:25:04.67	356.70	19.25	-40.4	-43.9	13.2	1.83e-05	0	56	0	980418560	52	5361
2026-01-06 09:25:05.69	356.61	19.13	-40.4	-44.0	12.9	4.04e-05	0	56	0	982515712	52	5417
2026-01-06 09:25:06.69	356.52	19.02	-40.5	-44.3	12.3	9.91e-05	0	56	0	983564288	52	5649
2026-01-06 09:25:07.70	356.43	18.90	-40.6	-44.7	11.7	3.15e-04	0	56	0	985661440	52	5890
2026-01-06 09:25:08.71	356.34	18.78	-40.7	-45.1	11.1	1.20e-03	0	56	0	987758592	52	6158
2026-01-06 09:25:09.72	356.25	18.67	-40.8	-45.7	10.3	3.35e-03	0	56	0	989855744	52	6593
2026-01-06 09:25:10.73	356.16	18.55	-40.9	-46.3	9.5	9.85e-03	0	56	0	991952896	52	7066
2026-01-06 09:25:11.74	356.07	18.44	-41.0	-47.1	8.4	3.74e-02	0	56	0	993001472	52	7737
2026-01-06 09:25:12.75	355.99	18.32	-41.1	-48.0	7.4	9.14e-02	0	56	0	995098624	52	8592
2026-01-06 09:25:13.76	355.90	18.21	-41.1	-48.8	6.4	1.79e-01	0	56	0	997195776	52	9420
2026-01-06 09:25:14.77	355.82	18.09	-41.2	-49.6	5.7	3.12e-01	0	56	0	999292928	52	10399
2026-01-06 09:25:15.78	355.73	17.98	-41.1	-50.4	5.1	6.02e-01	0	56	0	1001390080	52	11404
2026-01-06 09:25:16.79	355.65	17.87	-41.1	-51.3	4.6	8.41e-01	0	56	0	1002438656	52	12585
2026-01-06 09:25:17.80	355.56	17.75	-41.0	-52.1	4.3	1.21e+00	0	57	0	1004535808	52	13778
2026-01-06 09:25:18.81	355.48	17.64	-41.0	-52.9	3.9	1.45e+00	0	56	104	1004535808	52	15130
2026-01-06 09:25:19.82	355.40	17.53	-40.9	-53.3	3.9	1.48e+00	0	56	104	1004535808	52	15908
2026-01-06 09:25:20.83	355.31	17.42	-40.8	-53.7	3.8	1.49e+00	0	56	104	1004535808	52	16516
2026-01-06 09:25:21.84	355.23	17.31	-40.8	-54.1	3.8	1.49e+00	0	56	104	1004535808	52	17316
2026-01-06 09:25:22.85	355.15	17.20	-40.7	-54.4	3.8	1.49e+00	0	56	104	1004535808	52	18009
2026-01-06 09:25:23.86	355.07	17.09	-40.6	-54.6	3.8	1.49e+00	0	56	104	1004535808	52	18424
2026-01-06 09:25:24.87	354.99	16.98	-40.6	-54.6	3.8	1.49e+00	0	56	104	1004535808	52	18481
2026-01-06 09:25:25.88	354.91	16.87	-40.6	-54.7	3.8	1.49e+00	0	56	104	1004535808	52	18627
2026-01-06 09:25:26.88	354.84	16.76	-40.5	-54.8	3.8	1.49e+00	0	56	104	1004535808	52	18900
2026-01-06 09:25:27.89	354.76	16.65	-41.0	-55.0	3.8	1.49e+00	0	56	104	1004535808	52	19329
2026-01-06 09:25:28.90	354.68	16.55	-40.4	-55.0	3.8	1.49e+00	0	56	104	1004535808	52	19226
2026-01-06 09:25:29.91	354.61	16.44	-40.4	-54.9	3.8	1.49e+00	0	56	104	1004535808	52	19077
2026-01-06 09:25:30.92	354.53	16.33	-40.7	-55.2	3.8	1.49e+00	0	56	104	1004535808	52	19648
2026-01-06 09:25:31.93	354.46	16.23	-40.4	-54.9	3.8	1.49e+00	0	56	104	1004535808	52	19129
2026-01-06 09:25:32.94	354.38	16.12	-40.6	-55.0	3.8	1.49e+00	0	56	104	1004535808	52	19378
2026-01-06 09:25:33.95	354.31	16.01	-40.3	-54.8	3.8	1.49e+00	0	56	104	1004535808	52	18913
2026-01-06 09:25:34.96	354.23	15.91	-40.5	-55.0	3.8	1.49e+00	0	56	104	1004535808	52	19218
2026-01-06 09:25:35.97	354.16	15.80	-40.3	-54.9	3.8	1.49e+00	0	56	104	1004535808	52	18949
2026-01-06 09:25:36.98	354.09	15.70	-40.5	-55.0	3.8	1.49e+00	0	56	104	1004535808	52	19213
2026-01-06 09:25:37.99	354.02	15.60	-40.1	-55.0	3.8	1.49e+00	0	56	104	1004535808	52	19242
2026-01-06 09:25:39.00	353.94	15.49	-40.4	-54.8	3.8	1.49e+00	0	56	104	1004535808	52	18929
2026-01-06 09:25:40.01	353.87	15.39	-40.0	-55.0	3.8	1.49e+00	0	56	104	1004535808	52	19316
2026-01-06 09:25:41.02	353.80	15.29	-40.4	-54.8	3.8	1.49e+00	0	56	104	1004535808	52	18891
2026-01-06 09:25:42.03	353.73	15.18	-40.4	-54.9	3.8	1.49e+00	0	56	104	1004535808	52	19153
2026-01-06 09:25:43.04	353.66	15.08	-40.4	-55.0	3.8	1.49e+00	0	56	104	1004535808	52	19187
2026-01-06 09:25:44.05	353.59	14.98	-40.4	-55.0	3.8	1.49e+00	0	56	104	1004535808	52	19286
2026-01-06 09:25:45.06	353.53	14.88	-40.4	-54.9	3.8	1.49e+00	0	56	104	1004535808	52	19015
2026-01-06 09:25:46.07	353.46	14.78	-40.2	-55.1	3.8	1.49e+00	0	56	104	1004535808	52	19467
2026-01-06 09:25:47.08	353.39	14.68	-40.4	-54.8	3.8	1.49e+00	0	57	104	1004535808	52	18934
2026-01-06 09:25:48.09	353.32	14.58	-40.4	-55.1	3.8	1.49e+00	0	56	104	1004535808	52	19605
2026-01-06 09:25:49.10	353.26	14.48	-40.3	-54.8	3.8	1.49e+00	0	56	104	1004535808	52	18935
2026-01-06 09:25:50.11	353.19	14.38	-40.6	-55.1	3.8	1.49e+00	0	56	104	1004535808	52	19579
2026-01-06 09:25:51.12	353.12	14.28	-40.3	-54.8	3.8	1.49e+00	0	56	104	1004535808	52	18868
2026-01-06 09:25:52.13	353.06	14.18	-40.5	-55.1	3.8	1.49e+00	0	57	104	1004535808	52	19516
2026-01-06 09:25:53.14	352.99	14.08	-40.3	-54.9	3.8	1.49e+00	0	56	104	1004535808	52	18951
2026-01-06 09:25:54.15	352.93	13.98	-40.6	-55.1	3.8	1.49e+00	0	56	104	1004535808	52	19470
2026-01-06 09:25:55.16	352.87	13.89	-40.3	-54.8	3.8	1.49e+00	0	56	104	1004535808	52	18906
2026-01-06 09:25:56.18	352.80	13.79	-40.6	-55.1	3.8	1.49e+00	0	56	104	1004535808	52	19547
2026-01-06 09:25:57.19	352.74	13.69	-40.2	-54.8	3.8	1.49e+00	0	56	104	1004535808	52	18866
2026-01-06 09:25:58.20	352.68	13.59	-40.4	-55.0	3.8	1.49e+00	0	56	104	1004535808	52	19389
2026-01-06 09:25:59.21	352.62	13.50	-40.4	-55.0	3.8	1.49e+00	0	56	104	1004535808	52	19379
2026-01-06 09:26:00.22	352.55	13.40	-40.4	-55.0	3.8	1.49e+00	0	56	104	1004535808	52	19371
2026-01-06 09:26:01.23	352.49	13.31	-40.5	-55.1	3.8	1.49e+00	0	56	104	1004535808	52	19415
2026-01-06 09:26:02.24	352.43	13.21	-40.6	-55.1	3.8	1.49e+00	0	57	104	1004535808	52	19582
2026-01-06 09:26:03.25	352.37	13.12	-40.1	-55.0	3.8	1.49e+00	0	56	104	1004535808	51	20487
2026-01-06 09:26:04.26	352.31	13.02	-40.7	-55.2	3.8	1.49e+00	0	57	104	1004535808	51	20798
2026-01-06 09:26:05.27	352.25	12.93	-40.0	-55.1	3.8	1.49e+00	0	56	104	1004535808	51	20606
2026-01-06 09:26:06.27	352.19	12.83	-40.5	-55.1	3.8	1.49e+00	0	56	104	1004535808	51	20604
2026-01-06 09:26:07.28	352.14	12.74	-40.6	-55.2	3.8	1.49e+00	0	57	104	1004535808	51	20795
2026-01-06 09:26:08.29	352.08	12.65	-40.5	-55.1	3.8	1.49e+00	0	56	104	1004535808	51	20622
2026-01-06 09:26:09.30	352.02	12.55	-40.6	-55.2	3.8	1.49e+00	0	57	104	1004535808	51	20843
