passes_logs/2026/01/06/R2.0S_Moscow/R2.0S_Moscow__20260106_150120_FENGYUN_3E_rec.log

#Pass ID: 20260106_150120_FENGYUN 3E
#Satellite: FENGYUN 3E
#Configuration: FENGYUN 3E
#almurnet v.1.7.20251203
#Start time: 2026-01-06 15:01:22

#Version: 2.2.20231116
#Station: R2.0S_Moscow
#Location: 37.707566 lon 55.798166 lat
#TLE: 1 49008U 21062A   26005.63346808  .00000216  00000+0  12264-3 0  9999
#TLE: 2 49008  98.7472  10.8714 0001569 158.0856 202.0387 14.19884439233512

#Time	Az	El	Level	Level2	SNR	BER	BlckErr	Temp	State	Recorded	gain1	gain2
2026-01-06 15:01:22.57	184.99	2.12	-44.4	-55.2	3.8	8.45e-01	0	47	0	0	59	12410
2026-01-06 15:01:23.58	185.03	2.18	-44.4	-55.2	3.8	8.46e-01	0	47	104	0	59	12491
2026-01-06 15:01:24.59	185.07	2.24	-44.4	-55.2	3.8	8.46e-01	0	47	104	0	59	12422
2026-01-06 15:01:25.61	185.11	2.31	-44.4	-55.2	3.8	8.47e-01	0	47	104	0	59	12383
2026-01-06 15:01:26.61	185.15	2.37	-44.4	-55.2	3.8	8.46e-01	0	47	104	0	59	12431
2026-01-06 15:01:27.62	185.19	2.43	-44.4	-55.2	3.8	8.46e-01	0	48	104	0	59	12434
2026-01-06 15:01:28.63	185.23	2.49	-44.4	-55.2	3.8	8.46e-01	0	48	104	0	59	12416
2026-01-06 15:01:29.64	185.27	2.56	-44.4	-55.2	3.8	8.46e-01	0	48	104	0	59	12426
2026-01-06 15:01:30.66	185.31	2.62	-44.4	-55.2	3.8	8.46e-01	0	48	104	0	59	12433
2026-01-06 15:01:31.67	185.35	2.69	-44.4	-55.2	3.8	8.46e-01	0	48	104	0	59	12449
2026-01-06 15:01:32.68	185.40	2.75	-44.4	-55.2	3.8	8.46e-01	0	48	104	0	59	12413
2026-01-06 15:01:33.69	185.44	2.81	-44.4	-55.2	3.8	8.46e-01	0	48	104	0	59	12397
2026-01-06 15:01:34.70	185.48	2.88	-44.4	-55.2	3.8	8.45e-01	0	48	104	0	59	12438
2026-01-06 15:01:35.71	185.52	2.94	-44.4	-55.2	3.8	8.46e-01	0	48	104	0	59	12405
2026-01-06 15:01:36.72	185.56	3.01	-44.4	-55.2	3.8	8.46e-01	0	48	104	0	59	12423
2026-01-06 15:01:37.73	185.61	3.07	-44.4	-55.2	3.8	8.46e-01	0	48	104	0	59	12427
2026-01-06 15:01:38.74	185.65	3.14	-44.4	-55.2	3.8	8.46e-01	0	48	104	0	59	12450
2026-01-06 15:01:39.75	185.69	3.20	-44.4	-55.2	3.8	8.47e-01	0	48	104	0	59	12412
2026-01-06 15:01:40.76	185.74	3.26	-44.4	-55.2	3.8	8.45e-01	0	48	104	0	59	12450
2026-01-06 15:01:41.77	185.78	3.33	-44.4	-55.2	3.8	8.45e-01	0	49	104	0	59	12426
2026-01-06 15:01:42.78	185.82	3.39	-44.4	-55.2	3.8	8.45e-01	0	49	104	0	59	12420
2026-01-06 15:01:43.79	185.87	3.46	-44.4	-55.2	3.8	8.45e-01	0	48	104	0	59	12437
2026-01-06 15:01:44.80	185.91	3.53	-44.4	-55.2	3.8	8.45e-01	0	48	104	0	59	12407
2026-01-06 15:01:45.81	185.95	3.59	-44.4	-55.2	3.8	8.46e-01	0	49	104	0	59	12454
2026-01-06 15:01:46.82	186.00	3.66	-44.4	-55.2	3.8	8.46e-01	0	49	104	0	59	12436
2026-01-06 15:01:47.83	186.04	3.72	-44.4	-55.2	3.8	8.46e-01	0	49	104	0	59	12381
2026-01-06 15:01:48.84	186.09	3.79	-44.4	-55.1	3.8	8.46e-01	0	49	104	0	59	12345
2026-01-06 15:01:49.85	186.13	3.85	-44.4	-55.2	3.8	8.47e-01	0	49	104	0	59	12407
2026-01-06 15:01:50.86	186.18	3.92	-44.4	-55.2	3.8	8.45e-01	0	49	104	0	59	12405
2026-01-06 15:01:51.87	186.22	3.99	-44.4	-55.2	3.8	8.46e-01	0	49	104	0	59	12429
2026-01-06 15:01:52.88	186.27	4.05	-44.4	-55.2	3.8	8.46e-01	0	50	104	0	59	12444
2026-01-06 15:01:53.89	186.31	4.12	-44.4	-55.2	3.8	8.47e-01	0	49	104	0	59	12429
2026-01-06 15:01:54.90	186.36	4.19	-44.4	-55.1	3.8	8.47e-01	0	49	104	0	59	12350
2026-01-06 15:01:55.91	186.41	4.26	-44.4	-54.9	3.8	8.47e-01	0	49	104	0	59	12086
2026-01-06 15:01:56.92	186.45	4.32	-44.4	-54.8	3.8	8.47e-01	0	50	104	0	59	11890
2026-01-06 15:01:57.93	186.50	4.39	-44.4	-54.6	3.8	8.46e-01	0	50	104	0	59	11615
2026-01-06 15:01:58.94	186.54	4.46	-44.3	-54.3	3.8	8.45e-01	0	50	104	0	59	11270
2026-01-06 15:01:59.96	186.59	4.53	-44.3	-54.0	3.8	8.44e-01	0	50	104	0	59	10780
2026-01-06 15:02:00.97	186.64	4.59	-44.2	-53.6	3.8	8.46e-01	0	50	104	0	59	10409
2026-01-06 15:02:01.98	186.69	4.66	-44.1	-53.0	3.8	8.46e-01	0	50	104	0	59	9705
2026-01-06 15:02:02.99	186.73	4.73	-44.1	-53.0	3.8	8.44e-01	0	50	104	0	59	9674
2026-01-06 15:02:04.00	186.78	4.80	-44.1	-52.9	3.9	8.45e-01	0	50	104	0	59	9531
2026-01-06 15:02:05.01	186.83	4.87	-44.0	-52.6	3.8	8.46e-01	0	50	104	0	59	9219
2026-01-06 15:02:06.02	186.88	4.93	-44.0	-52.6	3.8	8.44e-01	0	50	104	0	59	9212
2026-01-06 15:02:07.03	186.92	5.00	-44.1	-52.6	4.0	8.45e-01	0	50	104	0	59	9258
2026-01-06 15:02:08.05	186.97	5.07	-44.0	-52.5	4.0	8.41e-01	0	50	104	0	59	9112
2026-01-06 15:02:09.06	187.02	5.14	-44.0	-52.4	4.0	8.43e-01	0	50	0	0	59	9053
2026-01-06 15:02:10.07	187.07	5.21	-44.0	-52.5	3.9	8.43e-01	0	50	104	0	59	9170
2026-01-06 15:02:11.08	187.12	5.28	-44.0	-52.5	4.0	8.44e-01	0	50	104	0	59	9134
2026-01-06 15:02:12.09	187.17	5.35	-44.1	-53.0	3.8	8.45e-01	0	51	104	0	59	9656
2026-01-06 15:02:13.10	187.22	5.42	-44.1	-53.2	3.9	8.45e-01	0	50	104	0	59	9863
2026-01-06 15:02:14.11	187.27	5.49	-44.2	-53.6	3.8	8.45e-01	0	51	104	0	59	10303
2026-01-06 15:02:15.12	187.32	5.56	-44.2	-53.6	3.8	8.46e-01	0	51	104	0	59	10307
2026-01-06 15:02:16.13	187.37	5.63	-44.2	-53.4	3.8	8.45e-01	0	51	104	0	59	10157
2026-01-06 15:02:17.14	187.42	5.70	-44.2	-53.5	3.8	8.46e-01	0	51	104	0	59	10236
2026-01-06 15:02:18.15	187.47	5.77	-44.2	-53.4	3.8	8.46e-01	0	51	104	0	59	10175
2026-01-06 15:02:19.16	187.52	5.84	-44.2	-53.5	3.8	8.46e-01	0	51	104	0	59	10265
2026-01-06 15:02:20.17	187.57	5.91	-44.1	-53.1	3.8	8.46e-01	0	51	104	0	59	9775
2026-01-06 15:02:21.18	187.62	5.99	-44.1	-52.9	3.8	8.44e-01	0	51	104	0	59	9536
2026-01-06 15:02:22.19	187.68	6.06	-44.1	-52.9	3.9	8.44e-01	0	51	104	0	59	9563
2026-01-06 15:02:23.20	187.73	6.13	-44.1	-52.6	4.0	8.44e-01	0	51	104	0	59	9272
2026-01-06 15:02:24.22	187.78	6.20	-44.0	-52.4	3.9	8.42e-01	0	51	104	0	59	9036
2026-01-06 15:02:25.23	187.83	6.27	-44.0	-52.3	4.0	8.44e-01	0	51	104	0	59	8962
2026-01-06 15:02:26.24	187.88	6.34	-44.0	-52.3	3.9	8.42e-01	0	51	104	0	59	8935
2026-01-06 15:02:27.25	187.94	6.42	-43.8	-51.4	4.3	8.38e-01	0	51	0	0	58	8497
2026-01-06 15:02:28.26	187.99	6.49	-43.9	-51.6	4.2	8.35e-01	0	51	0	0	58	8680
2026-01-06 15:02:29.27	188.04	6.56	-43.7	-50.7	4.5	8.31e-01	0	51	0	0	58	7880
2026-01-06 15:02:30.28	188.10	6.63	-43.3	-49.5	5.0	7.78e-01	0	51	0	0	57	7278
2026-01-06 15:02:31.29	188.15	6.71	-43.1	-48.9	5.4	7.36e-01	0	51	0	0	57	6736
2026-01-06 15:02:32.30	188.21	6.78	-42.6	-47.5	6.4	2.74e-01	0	51	0	4194304	56	6127
2026-01-06 15:02:33.31	188.26	6.85	-42.0	-46.4	7.3	1.36e-01	0	51	0	11534336	55	5706
2026-01-06 15:02:34.32	188.31	6.93	-41.6	-45.6	8.1	6.48e-02	0	52	0	18874368	54	5468
2026-01-06 15:02:35.33	188.37	7.00	-41.2	-44.8	8.9	3.34e-02	0	52	0	26214400	53	5309
2026-01-06 15:02:36.34	188.42	7.08	-40.5	-43.7	10.1	7.58e-03	0	52	0	33554432	51	5240
2026-01-06 15:02:37.36	188.48	7.15	-40.0	-43.0	10.9	3.02e-03	0	52	0	40894464	51	4834
2026-01-06 15:02:38.36	188.54	7.22	-39.5	-42.2	11.6	6.91e-04	0	52	0	48234496	50	4695
2026-01-06 15:02:39.38	188.59	7.30	-39.1	-41.7	12.2	5.03e-04	0	52	0	55574528	49	4660
2026-01-06 15:02:40.39	188.65	7.37	-38.5	-40.9	13.0	5.83e-05	0	52	0	62914560	48	4510
2026-01-06 15:02:41.40	188.70	7.45	-38.1	-40.4	13.3	1.83e-05	0	52	0	70254592	47	4529
2026-01-06 15:02:42.41	188.76	7.52	-37.6	-39.9	13.8	2.20e-06	0	52	0	77594624	46	4505
2026-01-06 15:02:43.42	188.82	7.60	-37.5	-39.8	13.9	4.50e-06	0	52	0	84934656	46	4461
2026-01-06 15:02:44.43	188.88	7.67	-37.3	-39.5	14.1	0.00e+00	0	52	0	92274688	45	4584
2026-01-06 15:02:45.44	188.93	7.75	-37.0	-39.2	14.5	0.00e+00	0	52	0	99614720	45	4403
2026-01-06 15:02:46.45	188.99	7.83	-36.9	-39.0	14.7	0.00e+00	0	52	0	106954752	44	4576
2026-01-06 15:02:47.46	189.05	7.90	-37.0	-39.1	14.6	1.10e-06	0	52	0	114294784	44	4621
2026-01-06 15:02:48.47	189.11	7.98	-37.1	-39.2	14.4	1.10e-06	0	52	0	121634816	44	4692
2026-01-06 15:02:49.48	189.17	8.06	-37.4	-39.6	14.3	0.00e+00	0	52	0	128974848	44	4902
2026-01-06 15:02:50.49	189.23	8.13	-38.4	-40.7	13.1	4.89e-02	0	52	0	135266304	48	4427
2026-01-06 15:02:51.50	189.28	8.21	-37.5	-39.7	13.9	2.93e-01	0	52	0	141557760	46	4405
2026-01-06 15:02:52.51	189.34	8.29	-38.2	-40.6	13.3	6.17e-05	0	52	0	148897792	47	4617
2026-01-06 15:02:53.52	189.40	8.36	-36.6	-38.7	15.1	5.70e-06	0	52	0	156237824	44	4406
2026-01-06 15:02:54.54	189.46	8.44	-37.9	-40.2	13.4	2.75e-03	0	52	0	163577856	47	4426
2026-01-06 15:02:55.55	189.53	8.52	-36.4	-38.4	15.1	0.00e+00	0	52	0	170917888	43	4544
2026-01-06 15:02:56.56	189.59	8.60	-36.4	-38.4	15.2	0.00e+00	0	52	0	178257920	43	4531
2026-01-06 15:02:57.56	189.65	8.68	-36.4	-38.5	15.1	1.10e-06	0	52	0	185597952	43	4559
2026-01-06 15:02:58.58	189.71	8.75	-36.4	-38.4	15.2	0.00e+00	0	53	0	192937984	43	4513
2026-01-06 15:02:59.58	189.77	8.83	-36.3	-38.3	15.3	0.00e+00	0	53	0	200278016	43	4487
2026-01-06 15:03:00.59	189.83	8.91	-36.3	-38.4	15.2	0.00e+00	0	52	0	207618048	43	4509
2026-01-06 15:03:01.60	189.89	8.99	-36.4	-38.4	15.2	0.00e+00	0	53	0	214958080	43	4537
2026-01-06 15:03:02.61	189.96	9.07	-36.3	-38.3	15.4	0.00e+00	0	53	0	222298112	43	4462
2026-01-06 15:03:03.62	190.02	9.15	-36.3	-38.3	15.3	0.00e+00	0	53	0	229638144	43	4482
2026-01-06 15:03:04.63	190.08	9.23	-36.3	-38.3	15.3	0.00e+00	0	53	0	236978176	43	4480
2026-01-06 15:03:05.64	190.15	9.31	-36.4	-38.4	15.2	0.00e+00	0	53	0	244318208	43	4542
2026-01-06 15:03:06.65	190.21	9.39	-36.3	-38.3	15.4	0.00e+00	0	53	0	251658240	43	4489
2026-01-06 15:03:07.66	190.28	9.47	-36.4	-38.5	15.3	0.00e+00	0	53	0	258998272	43	4555
2026-01-06 15:03:08.67	190.34	9.55	-36.3	-38.3	15.4	0.00e+00	0	53	0	265289728	43	4468
2026-01-06 15:03:09.68	190.41	9.63	-36.3	-38.3	15.4	0.00e+00	0	53	0	273678336	43	4458
2026-01-06 15:03:10.69	190.47	9.71	-36.5	-38.5	15.2	0.00e+00	0	53	0	281018368	43	4590
2026-01-06 15:03:11.70	190.54	9.79	-36.3	-38.3	15.4	0.00e+00	0	53	0	287309824	43	4481
2026-01-06 15:03:12.71	190.60	9.88	-36.3	-38.3	15.4	0.00e+00	0	53	0	294649856	43	4468
2026-01-06 15:03:13.72	190.67	9.96	-36.2	-38.2	15.5	0.00e+00	0	53	0	303038464	43	4406
2026-01-06 15:03:14.73	190.74	10.04	-36.2	-38.2	15.5	0.00e+00	0	53	0	309329920	43	4425
2026-01-06 15:03:15.74	190.80	10.12	-36.0	-37.9	15.8	0.00e+00	0	53	0	316669952	42	4533
2026-01-06 15:03:16.75	190.87	10.21	-36.2	-38.2	15.5	0.00e+00	0	53	0	324009984	42	4703
2026-01-06 15:03:17.76	190.94	10.29	-36.2	-38.3	15.5	0.00e+00	0	53	0	331350016	42	4720
2026-01-06 15:03:18.77	191.01	10.37	-36.2	-38.3	15.5	0.00e+00	0	53	0	338690048	42	4725
2026-01-06 15:03:19.78	191.08	10.45	-36.2	-38.3	15.5	0.00e+00	0	53	0	346030080	42	4710
2026-01-06 15:03:20.79	191.15	10.54	-36.0	-38.0	15.7	0.00e+00	0	53	0	353370112	42	4584
2026-01-06 15:03:21.80	191.21	10.62	-36.1	-38.2	15.6	0.00e+00	0	53	0	360710144	42	4669
2026-01-06 15:03:22.81	191.28	10.71	-36.1	-38.1	15.6	0.00e+00	0	53	0	368050176	42	4644
2026-01-06 15:03:23.82	191.35	10.79	-35.9	-38.0	15.8	0.00e+00	0	53	0	375390208	42	4559
2026-01-06 15:03:24.83	191.43	10.88	-36.0	-38.0	15.7	0.00e+00	0	53	0	382730240	42	4583
2026-01-06 15:03:25.84	191.50	10.96	-36.0	-38.0	15.7	0.00e+00	0	53	0	390070272	42	4577
2026-01-06 15:03:26.85	191.57	11.05	-35.9	-38.0	15.8	0.00e+00	0	53	0	397410304	42	4550
2026-01-06 15:03:27.86	191.64	11.13	-35.9	-37.9	15.8	0.00e+00	0	53	0	404750336	42	4540
2026-01-06 15:03:28.86	191.71	11.22	-35.8	-37.9	15.9	0.00e+00	0	54	0	411041792	42	4499
2026-01-06 15:03:29.87	191.78	11.30	-35.7	-37.8	16.0	0.00e+00	0	53	0	419430400	42	4451
2026-01-06 15:03:30.88	191.86	11.39	-35.9	-37.9	15.9	0.00e+00	0	54	0	426770432	42	4534
2026-01-06 15:03:31.89	191.93	11.47	-35.9	-37.9	15.9	0.00e+00	0	54	0	433061888	42	4524
2026-01-06 15:03:32.91	192.00	11.56	-35.8	-37.9	15.9	0.00e+00	0	53	0	440401920	42	4522
2026-01-06 15:03:33.91	192.08	11.65	-35.8	-37.9	15.9	0.00e+00	0	54	0	447741952	42	4498
2026-01-06 15:03:34.93	192.15	11.74	-35.8	-37.8	16.0	0.00e+00	0	54	0	455081984	42	4476
2026-01-06 15:03:35.94	192.23	11.82	-35.7	-37.8	16.1	0.00e+00	0	54	0	462422016	42	4443
2026-01-06 15:03:36.95	192.30	11.91	-35.9	-38.0	15.8	0.00e+00	0	54	0	469762048	42	4589
2026-01-06 15:03:37.95	192.38	12.00	-35.8	-37.8	16.0	0.00e+00	0	54	0	477102080	42	4484
2026-01-06 15:03:38.97	192.46	12.09	-35.7	-37.7	16.1	0.00e+00	0	54	0	484442112	42	4441
2026-01-06 15:03:39.98	192.53	12.18	-35.6	-37.7	16.1	0.00e+00	0	54	0	491782144	42	4417
2026-01-06 15:03:40.99	192.61	12.27	-35.7	-37.7	16.1	0.00e+00	0	54	0	499122176	42	4434
2026-01-06 15:03:41.99	192.69	12.35	-36.0	-38.2	15.7	0.00e+00	0	54	0	506462208	42	4664
2026-01-06 15:03:43.00	192.76	12.44	-35.6	-37.7	16.2	0.00e+00	0	54	0	513802240	41	4673
2026-01-06 15:03:44.01	192.84	12.53	-35.6	-37.7	16.2	0.00e+00	0	54	0	521142272	41	4661
2026-01-06 15:03:45.02	192.92	12.62	-35.6	-37.6	16.2	0.00e+00	0	54	0	528482304	41	4640
2026-01-06 15:03:46.03	193.00	12.71	-35.4	-37.4	16.5	0.00e+00	0	54	0	535822336	41	4500
2026-01-06 15:03:47.04	193.08	12.80	-35.4	-37.4	16.4	0.00e+00	0	54	0	543162368	41	4528
2026-01-06 15:03:48.05	193.16	12.90	-35.3	-37.3	16.5	0.00e+00	0	54	0	550502400	41	4482
2026-01-06 15:03:49.06	193.24	12.99	-35.3	-37.2	16.6	0.00e+00	0	54	0	557842432	41	4436
2026-01-06 15:03:50.07	193.32	13.08	-35.2	-37.2	16.6	0.00e+00	0	54	0	564133888	41	4420
2026-01-06 15:03:51.08	193.41	13.17	-35.2	-37.2	16.7	0.00e+00	0	54	0	572522496	41	4398
2026-01-06 15:03:52.09	193.49	13.26	-35.1	-37.0	16.8	0.00e+00	0	54	0	579862528	41	4338
2026-01-06 15:03:53.10	193.57	13.35	-35.1	-37.0	16.9	0.00e+00	0	54	0	586153984	40	4559
2026-01-06 15:03:54.11	193.66	13.45	-35.0	-36.9	16.9	0.00e+00	0	54	0	593494016	40	4542
2026-01-06 15:03:55.12	193.74	13.54	-35.1	-36.9	16.9	0.00e+00	0	54	0	600834048	40	4541
2026-01-06 15:03:56.13	193.82	13.63	-35.0	-36.9	16.9	0.00e+00	0	54	0	608174080	40	4538
2026-01-06 15:03:57.14	193.91	13.73	-35.0	-36.9	17.0	0.00e+00	0	54	0	615514112	40	4502
2026-01-06 15:03:58.15	193.99	13.82	-34.9	-36.8	17.1	0.00e+00	0	54	0	622854144	40	4443
2026-01-06 15:03:59.16	194.08	13.91	-35.0	-36.9	17.0	0.00e+00	0	54	0	630194176	40	4528
2026-01-06 15:04:00.17	194.17	14.01	-34.9	-36.8	17.0	0.00e+00	0	54	0	637534208	40	4471
2026-01-06 15:04:01.18	194.25	14.10	-35.0	-36.8	17.0	0.00e+00	0	54	0	644874240	40	4492
2026-01-06 15:04:02.19	194.34	14.20	-35.0	-36.8	17.0	0.00e+00	0	54	0	652214272	40	4492
2026-01-06 15:04:03.21	194.43	14.30	-35.2	-37.1	16.8	0.00e+00	0	54	0	659554304	40	4612
2026-01-06 15:04:04.22	194.52	14.39	-35.1	-37.0	16.9	0.00e+00	0	54	0	666894336	40	4548
2026-01-06 15:04:05.23	194.61	14.49	-35.0	-36.9	17.0	0.00e+00	0	54	0	674234368	40	4522
2026-01-06 15:04:06.24	194.70	14.58	-35.1	-37.0	17.0	0.00e+00	0	54	0	681574400	40	4548
2026-01-06 15:04:07.25	194.79	14.68	-35.1	-37.0	16.9	0.00e+00	0	54	0	688914432	40	4583
2026-01-06 15:04:08.26	194.88	14.78	-35.0	-36.9	17.0	0.00e+00	0	54	0	696254464	40	4530
2026-01-06 15:04:09.27	194.97	14.87	-35.0	-36.9	17.1	0.00e+00	0	54	0	703594496	40	4512
2026-01-06 15:04:10.28	195.06	14.97	-35.1	-37.0	17.0	0.00e+00	0	54	0	710934528	40	4570
2026-01-06 15:04:11.29	195.15	15.07	-35.0	-36.9	17.0	0.00e+00	0	54	0	718274560	40	4543
2026-01-06 15:04:12.30	195.25	15.17	-34.9	-36.8	17.1	0.00e+00	0	54	0	725614592	40	4480
2026-01-06 15:04:13.31	195.34	15.27	-35.1	-37.0	17.0	0.00e+00	0	54	0	731906048	40	4559
2026-01-06 15:04:14.32	195.44	15.37	-35.1	-37.0	17.0	0.00e+00	0	54	0	740294656	40	4586
2026-01-06 15:04:15.33	195.53	15.47	-35.1	-37.0	17.0	0.00e+00	0	54	0	747634688	40	4585
2026-01-06 15:04:16.34	195.63	15.57	-35.0	-36.9	17.1	0.00e+00	0	55	0	753926144	40	4543
2026-01-06 15:04:17.35	195.72	15.67	-35.1	-37.1	16.9	0.00e+00	0	54	0	761266176	40	4600
2026-01-06 15:04:18.36	195.82	15.77	-35.0	-36.9	17.1	0.00e+00	0	55	0	768606208	40	4512
2026-01-06 15:04:19.37	195.92	15.87	-35.1	-37.0	17.0	0.00e+00	0	54	0	775946240	40	4552
2026-01-06 15:04:20.38	196.01	15.97	-34.9	-36.8	17.2	0.00e+00	0	55	0	783286272	40	4456
2026-01-06 15:04:21.39	196.11	16.07	-35.0	-36.8	17.1	0.00e+00	0	55	0	790626304	40	4490
2026-01-06 15:04:22.40	196.21	16.17	-34.8	-36.7	17.3	0.00e+00	0	54	0	797966336	40	4412
2026-01-06 15:04:23.41	196.31	16.27	-34.8	-36.7	17.3	0.00e+00	0	54	0	805306368	40	4418
2026-01-06 15:04:24.42	196.41	16.38	-34.8	-36.7	17.3	0.00e+00	0	55	0	812646400	40	4419
2026-01-06 15:04:25.43	196.51	16.48	-34.6	-36.4	17.5	0.00e+00	0	55	0	819986432	40	4291
2026-01-06 15:04:26.44	196.62	16.58	-34.6	-36.4	17.5	0.00e+00	0	55	0	827326464	40	4290
2026-01-06 15:04:27.45	196.72	16.68	-34.5	-36.3	17.6	0.00e+00	0	55	0	834666496	40	4229
2026-01-06 15:04:28.45	196.82	16.79	-34.5	-36.3	17.7	0.00e+00	0	55	0	842006528	39	4477
2026-01-06 15:04:29.46	196.93	16.89	-34.5	-36.3	17.6	0.00e+00	0	55	0	849346560	39	4482
2026-01-06 15:04:30.47	197.03	17.00	-34.4	-36.2	17.8	0.00e+00	0	55	0	856686592	39	4411
2026-01-06 15:04:31.48	197.14	17.10	-34.4	-36.1	17.8	0.00e+00	0	55	0	864026624	39	4386
2026-01-06 15:04:32.49	197.24	17.21	-34.3	-36.0	17.9	0.00e+00	0	55	0	871366656	39	4313
2026-01-06 15:04:33.50	197.35	17.31	-34.2	-35.9	18.0	0.00e+00	0	55	0	878706688	39	4262
2026-01-06 15:04:34.52	197.46	17.42	-34.6	-36.5	17.5	0.00e+00	0	55	0	884998144	39	4557
2026-01-06 15:04:35.53	197.57	17.53	-34.2	-36.0	18.0	0.00e+00	0	55	0	893386752	39	4303
2026-01-06 15:04:36.54	197.68	17.63	-34.1	-35.9	18.1	0.00e+00	0	55	0	900726784	39	4248
2026-01-06 15:04:37.55	197.79	17.74	-34.1	-35.9	18.1	0.00e+00	0	55	0	907018240	39	4252
2026-01-06 15:04:38.56	197.90	17.85	-34.1	-35.8	18.1	0.00e+00	0	55	0	914358272	39	4214
2026-01-06 15:04:39.57	198.01	17.95	-34.0	-35.7	18.3	0.00e+00	0	55	0	921698304	39	4162
2026-01-06 15:04:40.58	198.12	18.06	-34.0	-35.8	18.2	0.00e+00	0	55	0	929038336	38	4449
2026-01-06 15:04:41.59	198.23	18.17	-34.1	-35.8	18.1	0.00e+00	0	55	0	936378368	38	4468
2026-01-06 15:04:42.60	198.35	18.28	-34.0	-35.7	18.2	0.00e+00	0	55	0	943718400	38	4438
2026-01-06 15:04:43.61	198.46	18.39	-34.0	-35.6	18.3	0.00e+00	0	55	0	951058432	38	4389
2026-01-06 15:04:44.62	198.58	18.50	-34.1	-35.8	18.1	0.00e+00	0	55	0	958398464	38	4482
2026-01-06 15:04:45.63	198.69	18.61	-34.0	-35.7	18.2	0.00e+00	0	55	0	965738496	38	4439
2026-01-06 15:04:46.64	198.81	18.72	-34.0	-35.7	18.2	0.00e+00	0	55	0	973078528	38	4417
2026-01-06 15:04:47.65	198.93	18.83	-34.0	-35.7	18.2	0.00e+00	0	55	0	980418560	38	4416
2026-01-06 15:04:48.66	199.05	18.94	-34.0	-35.7	18.2	0.00e+00	0	55	0	987758592	38	4432
2026-01-06 15:04:49.67	199.16	19.05	-34.0	-35.7	18.2	0.00e+00	0	55	0	995098624	38	4435
2026-01-06 15:04:50.69	199.29	19.17	-34.1	-35.8	18.1	0.00e+00	0	55	0	1002438656	38	4463
2026-01-06 15:04:51.70	199.41	19.28	-34.1	-35.8	18.1	0.00e+00	0	55	0	1009778688	38	4480
2026-01-06 15:04:52.70	199.53	19.39	-34.1	-35.9	18.0	0.00e+00	0	55	0	1017118720	38	4511
2026-01-06 15:04:53.72	199.65	19.50	-34.1	-35.8	18.1	0.00e+00	0	55	0	1024458752	38	4493
2026-01-06 15:04:54.73	199.78	19.62	-34.1	-35.9	18.1	0.00e+00	0	55	0	1031798784	38	4517
2026-01-06 15:04:55.74	199.90	19.73	-34.1	-35.9	18.1	0.00e+00	0	55	0	1039138816	38	4500
2026-01-06 15:04:56.75	200.03	19.85	-34.1	-35.8	18.1	0.00e+00	0	55	0	1046478848	38	4485
2026-01-06 15:04:57.76	200.15	19.96	-34.0	-35.8	18.2	0.00e+00	0	55	0	1052770304	38	4475
2026-01-06 15:04:58.77	200.28	20.08	-33.9	-35.7	18.3	0.00e+00	0	55	0	1061158912	38	4423
2026-01-06 15:04:59.78	200.41	20.19	-33.9	-35.7	18.3	0.00e+00	0	55	0	1068498944	38	4398
2026-01-06 15:05:00.79	200.54	20.31	-33.8	-35.5	18.4	0.00e+00	0	55	0	1074790400	38	4319
2026-01-06 15:05:01.80	200.67	20.42	-33.8	-35.6	18.4	0.00e+00	0	55	0	1082130432	38	4348
2026-01-06 15:05:02.81	200.80	20.54	-33.9	-35.6	18.4	0.00e+00	0	55	0	1089470464	38	4358
2026-01-06 15:05:03.82	200.93	20.66	-33.8	-35.5	18.5	0.00e+00	0	55	0	1096810496	38	4301
2026-01-06 15:05:04.83	201.06	20.78	-33.7	-35.5	18.5	0.00e+00	0	55	0	1104150528	38	4292
2026-01-06 15:05:05.84	201.20	20.89	-33.8	-35.5	18.5	0.00e+00	0	55	0	1111490560	38	4298
2026-01-06 15:05:06.85	201.33	21.01	-33.8	-35.5	18.5	0.00e+00	0	55	0	1118830592	38	4328
2026-01-06 15:05:07.86	201.47	21.13	-33.8	-35.5	18.5	0.00e+00	0	55	0	1126170624	38	4308
2026-01-06 15:05:08.88	201.61	21.25	-33.8	-35.5	18.5	0.00e+00	0	55	0	1133510656	38	4320
2026-01-06 15:05:09.89	201.75	21.37	-33.8	-35.5	18.5	0.00e+00	0	55	0	1140850688	38	4329
2026-01-06 15:05:10.90	201.89	21.49	-33.9	-35.6	18.4	0.00e+00	0	55	0	1148190720	38	4363
2026-01-06 15:05:11.91	202.03	21.61	-33.9	-35.6	18.4	0.00e+00	0	55	0	1155530752	38	4373
2026-01-06 15:05:12.91	202.17	21.73	-33.9	-35.6	18.4	0.00e+00	0	55	0	1162870784	38	4375
2026-01-06 15:05:13.93	202.31	21.85	-33.9	-35.7	18.3	0.00e+00	0	55	0	1170210816	38	4413
2026-01-06 15:05:14.93	202.45	21.97	-33.9	-35.7	18.3	0.00e+00	0	55	0	1177550848	38	4420
2026-01-06 15:05:15.94	202.60	22.09	-33.9	-35.6	18.4	0.00e+00	0	55	0	1184890880	38	4381
2026-01-06 15:05:16.95	202.74	22.22	-33.8	-35.5	18.5	0.00e+00	0	55	0	1192230912	38	4329
2026-01-06 15:05:17.96	202.89	22.34	-33.8	-35.5	18.5	0.00e+00	0	55	0	1199570944	38	4339
2026-01-06 15:05:18.97	203.04	22.46	-33.8	-35.5	18.6	0.00e+00	0	55	0	1206910976	38	4314
2026-01-06 15:05:19.98	203.19	22.59	-33.8	-35.5	18.6	0.00e+00	0	55	0	1214251008	38	4310
2026-01-06 15:05:20.99	203.34	22.71	-33.8	-35.4	18.6	0.00e+00	0	55	0	1221591040	38	4283
2026-01-06 15:05:22.00	203.49	22.84	-33.6	-35.3	18.8	0.00e+00	0	55	0	1227882496	38	4205
2026-01-06 15:05:23.01	203.64	22.96	-33.7	-35.4	18.7	0.00e+00	0	55	0	1235222528	38	4251
2026-01-06 15:05:24.02	203.79	23.09	-33.7	-35.4	18.7	0.00e+00	0	55	0	1243611136	38	4250
2026-01-06 15:05:25.04	203.95	23.21	-33.7	-35.3	18.7	0.00e+00	0	55	0	1249902592	38	4239
2026-01-06 15:05:26.05	204.11	23.34	-33.6	-35.3	18.7	0.00e+00	0	55	0	1257242624	38	4214
2026-01-06 15:05:27.05	204.26	23.46	-33.6	-35.2	18.9	0.00e+00	0	55	0	1264582656	37	4437
2026-01-06 15:05:28.06	204.42	23.59	-33.6	-35.2	18.8	0.00e+00	0	56	0	1271922688	37	4435
2026-01-06 15:05:29.07	204.58	23.72	-33.6	-35.3	18.8	0.00e+00	0	56	0	1279262720	37	4462
2026-01-06 15:05:30.09	204.74	23.85	-33.6	-35.3	18.7	0.00e+00	0	55	0	1286602752	37	4461
2026-01-06 15:05:31.09	204.91	23.97	-33.6	-35.2	18.8	0.00e+00	0	56	0	1293942784	37	4439
2026-01-06 15:05:32.11	205.07	24.10	-33.7	-35.4	18.6	0.00e+00	0	55	0	1301282816	37	4517
2026-01-06 15:05:33.12	205.24	24.23	-33.5	-35.2	18.8	0.00e+00	0	56	0	1308622848	37	4432
2026-01-06 15:05:34.13	205.40	24.36	-33.5	-35.3	18.7	0.00e+00	0	55	0	1315962880	37	4442
2026-01-06 15:05:35.13	205.57	24.49	-33.6	-35.3	18.7	0.00e+00	0	56	0	1323302912	37	4457
2026-01-06 15:05:36.14	205.74	24.62	-33.5	-35.2	18.7	0.00e+00	0	55	0	1330642944	37	4433
2026-01-06 15:05:37.15	205.91	24.75	-33.5	-35.2	18.8	0.00e+00	0	55	0	1337982976	37	4431
2026-01-06 15:05:38.16	206.08	24.88	-33.6	-35.3	18.6	0.00e+00	0	56	0	1345323008	37	4475
2026-01-06 15:05:39.18	206.25	25.01	-33.5	-35.2	18.7	0.00e+00	0	56	0	1352663040	37	4425
2026-01-06 15:05:40.19	206.43	25.14	-33.5	-35.2	18.7	0.00e+00	0	56	0	1360003072	37	4433
2026-01-06 15:05:41.20	206.61	25.27	-33.5	-35.2	18.7	0.00e+00	0	56	0	1367343104	37	4430
2026-01-06 15:05:42.20	206.78	25.41	-33.5	-35.2	18.7	0.00e+00	0	56	0	1373634560	37	4433
2026-01-06 15:05:43.21	206.96	25.54	-33.5	-35.2	18.7	0.00e+00	0	56	0	1380974592	37	4434
2026-01-06 15:05:44.22	207.14	25.67	-33.4	-35.1	18.8	0.00e+00	0	56	0	1389363200	37	4382
2026-01-06 15:05:45.23	207.32	25.80	-33.4	-35.1	18.8	0.00e+00	0	56	0	1395654656	37	4384
2026-01-06 15:05:46.24	207.51	25.94	-33.4	-35.1	18.9	0.00e+00	0	56	0	1402994688	37	4374
2026-01-06 15:05:47.25	207.69	26.07	-33.3	-35.0	19.0	0.00e+00	0	56	0	1410334720	37	4317
2026-01-06 15:05:48.26	207.88	26.21	-33.3	-35.1	18.9	0.00e+00	0	56	0	1417674752	37	4346
2026-01-06 15:05:49.27	208.07	26.34	-33.2	-34.9	19.1	0.00e+00	0	56	0	1425014784	37	4275
2026-01-06 15:05:50.28	208.26	26.48	-33.2	-34.8	19.2	0.00e+00	0	56	0	1432354816	37	4238
2026-01-06 15:05:51.29	208.45	26.61	-33.0	-34.6	19.4	0.00e+00	0	56	0	1439694848	37	4132
2026-01-06 15:05:52.30	208.64	26.75	-32.9	-34.6	19.4	0.00e+00	0	56	0	1447034880	36	4345
2026-01-06 15:05:53.31	208.83	26.88	-32.9	-34.5	19.5	0.00e+00	0	56	0	1454374912	36	4313
2026-01-06 15:05:54.32	209.03	27.02	-32.8	-34.4	19.6	0.00e+00	0	56	0	1461714944	36	4270
2026-01-06 15:05:55.34	209.23	27.16	-32.8	-34.4	19.7	0.00e+00	0	56	0	1469054976	36	4252
2026-01-06 15:05:56.35	209.43	27.30	-32.7	-34.3	19.7	0.00e+00	0	56	0	1476395008	36	4231
2026-01-06 15:05:57.35	209.63	27.43	-32.7	-34.3	19.7	0.00e+00	0	56	0	1483735040	36	4224
2026-01-06 15:05:58.36	209.83	27.57	-32.7	-34.3	19.7	0.00e+00	0	56	0	1491075072	36	4205
2026-01-06 15:05:59.37	210.04	27.71	-32.8	-34.4	19.6	0.00e+00	0	56	0	1498415104	36	4256
2026-01-06 15:06:00.38	210.24	27.85	-32.8	-34.4	19.5	0.00e+00	0	56	0	1505755136	36	4280
2026-01-06 15:06:01.39	210.45	27.99	-32.9	-34.5	19.4	0.00e+00	0	56	0	1513095168	36	4338
2026-01-06 15:06:02.40	210.66	28.12	-32.9	-34.6	19.3	0.00e+00	0	56	0	1520435200	36	4375
2026-01-06 15:06:03.41	210.87	28.26	-33.0	-34.7	19.2	0.00e+00	0	56	0	1526726656	36	4432
2026-01-06 15:06:04.42	211.08	28.40	-33.0	-34.8	19.2	0.00e+00	0	56	0	1535115264	36	4443
2026-01-06 15:06:05.44	211.30	28.54	-33.0	-34.7	19.2	0.00e+00	0	55	0	1542455296	36	4431
2026-01-06 15:06:06.44	211.52	28.68	-33.0	-34.7	19.2	0.00e+00	0	56	0	1548746752	36	4412
2026-01-06 15:06:07.45	211.74	28.82	-33.0	-34.7	19.1	0.00e+00	0	56	0	1556086784	36	4435
2026-01-06 15:06:08.46	211.96	28.96	-33.1	-34.9	19.0	0.00e+00	0	56	0	1563426816	36	4508
2026-01-06 15:06:09.47	212.18	29.11	-33.1	-34.8	19.1	0.00e+00	0	56	0	1570766848	36	4469
2026-01-06 15:06:10.48	212.40	29.25	-33.0	-34.7	19.2	0.00e+00	0	56	0	1578106880	36	4417
2026-01-06 15:06:11.49	212.63	29.39	-33.0	-34.7	19.2	0.00e+00	0	56	0	1585446912	36	4413
2026-01-06 15:06:12.50	212.86	29.53	-33.0	-34.7	19.2	0.00e+00	0	56	0	1592786944	36	4398
2026-01-06 15:06:13.51	213.09	29.67	-33.0	-34.6	19.3	0.00e+00	0	56	0	1600126976	36	4378
2026-01-06 15:06:14.52	213.32	29.81	-33.1	-34.7	19.2	0.00e+00	0	56	0	1607467008	36	4430
2026-01-06 15:06:15.54	213.56	29.96	-33.1	-34.8	19.2	0.00e+00	0	56	0	1614807040	36	4451
2026-01-06 15:06:16.55	213.79	30.10	-33.3	-35.0	19.0	0.00e+00	0	56	0	1622147072	36	4550
2026-01-06 15:06:17.56	214.03	30.24	-33.2	-34.9	19.1	0.00e+00	0	56	0	1629487104	36	4511
2026-01-06 15:06:18.57	214.27	30.38	-33.2	-34.8	19.2	0.00e+00	0	56	0	1636827136	36	4466
2026-01-06 15:06:19.58	214.52	30.53	-33.0	-34.6	19.4	0.00e+00	0	56	0	1644167168	36	4341
2026-01-06 15:06:20.59	214.76	30.67	-33.1	-34.7	19.3	0.00e+00	0	56	0	1651507200	36	4404
2026-01-06 15:06:21.60	215.01	30.81	-33.0	-34.5	19.5	0.00e+00	0	56	0	1658847232	36	4331
2026-01-06 15:06:22.60	215.26	30.96	-33.0	-34.5	19.5	0.00e+00	0	56	0	1666187264	36	4336
2026-01-06 15:06:23.61	215.51	31.10	-32.9	-34.5	19.5	0.00e+00	0	56	0	1673527296	36	4334
2026-01-06 15:06:24.62	215.76	31.24	-32.9	-34.5	19.6	0.00e+00	0	56	0	1680867328	36	4301
2026-01-06 15:06:25.63	216.02	31.39	-33.0	-34.6	19.4	0.00e+00	0	56	0	1688207360	36	4359
2026-01-06 15:06:26.64	216.27	31.53	-33.0	-34.7	19.4	0.00e+00	0	56	0	1694498816	36	4406
2026-01-06 15:06:27.65	216.53	31.67	-33.0	-34.7	19.3	0.00e+00	0	56	0	1701838848	36	4419
2026-01-06 15:06:28.66	216.80	31.82	-33.1	-34.8	19.2	0.00e+00	0	56	0	1709178880	36	4461
2026-01-06 15:06:29.67	217.06	31.96	-33.1	-34.8	19.3	0.00e+00	0	56	0	1717567488	36	4442
2026-01-06 15:06:30.68	217.33	32.11	-33.1	-34.8	19.2	0.00e+00	0	56	0	1723858944	36	4448
2026-01-06 15:06:31.69	217.60	32.25	-33.0	-34.7	19.3	0.00e+00	0	56	0	1731198976	36	4411
2026-01-06 15:06:32.70	217.87	32.39	-32.9	-34.6	19.4	0.00e+00	0	56	0	1738539008	36	4359
2026-01-06 15:06:33.72	218.15	32.54	-32.8	-34.4	19.5	0.00e+00	0	56	0	1745879040	36	4279
2026-01-06 15:06:34.73	218.42	32.68	-32.8	-34.4	19.5	0.00e+00	0	56	0	1753219072	36	4269
2026-01-06 15:06:35.74	218.70	32.83	-32.9	-34.5	19.4	0.00e+00	0	56	0	1760559104	36	4336
2026-01-06 15:06:36.75	218.98	32.97	-32.8	-34.5	19.5	0.00e+00	0	56	0	1767899136	36	4314
2026-01-06 15:06:37.76	219.27	33.12	-32.9	-34.6	19.4	0.00e+00	0	56	0	1775239168	36	4342
2026-01-06 15:06:38.77	219.55	33.26	-32.9	-34.6	19.4	0.00e+00	0	56	0	1782579200	36	4345
2026-01-06 15:06:39.78	219.84	33.40	-32.9	-34.6	19.4	0.00e+00	0	56	0	1789919232	36	4352
2026-01-06 15:06:40.79	220.13	33.55	-33.0	-34.7	19.2	0.00e+00	0	56	0	1797259264	36	4392
2026-01-06 15:06:41.80	220.43	33.69	-32.9	-34.5	19.4	0.00e+00	0	56	0	1804599296	36	4330
2026-01-06 15:06:42.81	220.72	33.83	-32.9	-34.6	19.3	0.00e+00	0	56	0	1811939328	36	4348
2026-01-06 15:06:43.82	221.02	33.98	-32.8	-34.5	19.3	0.00e+00	0	56	0	1819279360	36	4305
2026-01-06 15:06:44.83	221.33	34.12	-32.8	-34.5	19.3	0.00e+00	0	56	0	1826619392	36	4326
2026-01-06 15:06:45.84	221.63	34.26	-32.8	-34.5	19.3	0.00e+00	0	56	0	1833959424	36	4323
2026-01-06 15:06:46.85	221.94	34.40	-32.9	-34.6	19.2	0.00e+00	0	56	0	1841299456	36	4365
2026-01-06 15:06:47.85	222.24	34.54	-32.9	-34.6	19.3	0.00e+00	0	56	0	1847590912	36	4371
2026-01-06 15:06:48.86	222.56	34.69	-32.8	-34.5	19.4	0.00e+00	0	56	0	1854930944	36	4300
2026-01-06 15:06:49.87	222.87	34.83	-32.9	-34.5	19.5	0.00e+00	0	56	0	1863319552	36	4297
2026-01-06 15:06:50.88	223.19	34.97	-32.9	-34.5	19.5	0.00e+00	0	56	0	1869611008	36	4317
2026-01-06 15:06:51.89	223.51	35.11	-33.0	-34.6	19.4	0.00e+00	0	56	0	1876951040	36	4372
2026-01-06 15:06:52.90	223.83	35.25	-33.0	-34.6	19.4	0.00e+00	0	56	0	1884291072	36	4374
2026-01-06 15:06:53.91	224.16	35.39	-33.0	-34.6	19.5	0.00e+00	0	56	0	1891631104	36	4349
2026-01-06 15:06:54.92	224.48	35.53	-33.0	-34.6	19.5	0.00e+00	0	56	0	1898971136	36	4362
2026-01-06 15:06:55.93	224.82	35.67	-32.9	-34.4	19.6	0.00e+00	0	56	0	1906311168	36	4289
2026-01-06 15:06:56.94	225.15	35.81	-32.9	-34.5	19.6	0.00e+00	0	56	0	1913651200	36	4320
2026-01-06 15:06:57.95	225.49	35.95	-32.9	-34.5	19.5	0.00e+00	0	56	0	1920991232	36	4340
2026-01-06 15:06:58.96	225.83	36.08	-33.0	-34.6	19.5	0.00e+00	0	56	0	1928331264	36	4368
2026-01-06 15:06:59.97	226.17	36.22	-32.9	-34.6	19.5	0.00e+00	0	56	0	1935671296	36	4346
2026-01-06 15:07:00.98	226.51	36.36	-33.0	-34.6	19.4	0.00e+00	0	56	0	1943011328	36	4369
2026-01-06 15:07:01.99	226.86	36.50	-32.9	-34.6	19.5	0.00e+00	0	56	0	1950351360	36	4362
2026-01-06 15:07:03.00	227.21	36.63	-32.9	-34.6	19.4	0.00e+00	0	56	0	1957691392	36	4372
2026-01-06 15:07:04.01	227.57	36.77	-32.9	-34.5	19.5	0.00e+00	0	56	0	1965031424	36	4316
2026-01-06 15:07:05.02	227.92	36.90	-32.9	-34.6	19.4	0.00e+00	0	56	0	1972371456	36	4353
2026-01-06 15:07:06.03	228.28	37.03	-33.0	-34.7	19.4	0.00e+00	0	56	0	1979711488	36	4405
2026-01-06 15:07:07.04	228.65	37.17	-33.2	-34.9	19.1	0.00e+00	0	56	0	1987051520	36	4508
2026-01-06 15:07:08.04	229.01	37.30	-33.3	-35.0	19.1	0.00e+00	0	56	0	1994391552	36	4577
2026-01-06 15:07:09.05	229.38	37.43	-33.3	-35.0	19.1	0.00e+00	0	56	0	2000683008	36	4585
2026-01-06 15:07:10.06	229.75	37.56	-33.3	-34.9	19.1	0.00e+00	0	56	0	2009071616	36	4544
2026-01-06 15:07:11.07	230.12	37.69	-33.3	-35.0	19.1	0.00e+00	0	56	0	2016411648	36	4553
2026-01-06 15:07:12.08	230.50	37.82	-33.2	-34.8	19.2	0.00e+00	0	56	0	2022703104	36	4493
2026-01-06 15:07:13.09	230.88	37.95	-33.1	-34.7	19.4	0.00e+00	0	56	0	2030043136	36	4407
2026-01-06 15:07:14.10	231.26	38.07	-33.0	-34.6	19.5	0.00e+00	0	57	0	2037383168	36	4370
2026-01-06 15:07:15.11	231.65	38.20	-32.8	-34.3	19.7	0.00e+00	0	56	0	2044723200	36	4240
2026-01-06 15:07:16.12	232.04	38.32	-32.8	-34.3	19.8	0.00e+00	0	56	0	2052063232	36	4226
2026-01-06 15:07:17.13	232.43	38.45	-32.8	-34.4	19.8	0.00e+00	0	56	0	2059403264	36	4243
2026-01-06 15:07:18.14	232.82	38.57	-32.9	-34.4	19.7	0.00e+00	0	56	0	2066743296	36	4270
2026-01-06 15:07:19.15	233.22	38.69	-33.0	-34.6	19.5	0.00e+00	0	56	0	2074083328	36	4347
2026-01-06 15:07:20.16	233.62	38.81	-33.1	-34.8	19.3	0.00e+00	0	56	0	2081423360	36	4449
2026-01-06 15:07:21.17	234.03	38.93	-33.2	-34.9	19.2	0.00e+00	0	56	0	2088763392	36	4520
2026-01-06 15:07:22.18	234.43	39.05	-33.3	-35.0	19.0	0.00e+00	0	56	0	2096103424	36	4582
2026-01-06 15:07:23.19	234.84	39.17	-33.2	-35.0	19.0	0.00e+00	0	56	0	2103443456	36	4582
2026-01-06 15:07:24.20	235.26	39.29	-33.3	-35.1	18.9	0.00e+00	0	56	0	2110783488	36	4609
2026-01-06 15:07:25.21	235.67	39.40	-33.3	-35.0	19.0	0.00e+00	0	56	0	2118123520	36	4577
2026-01-06 15:07:26.22	236.09	39.52	-33.2	-34.9	19.1	0.00e+00	0	57	0	2125463552	36	4519
2026-01-06 15:07:27.23	236.51	39.63	-33.2	-34.9	19.1	0.00e+00	0	56	0	2132803584	36	4542
2026-01-06 15:07:28.24	236.93	39.74	-33.4	-35.1	19.0	0.00e+00	0	56	0	2140143616	36	4603
2026-01-06 15:07:29.25	237.36	39.85	-33.6	-35.3	18.8	0.00e+00	0	56	0	2146435072	36	4744
2026-01-06 15:07:30.26	237.79	39.96	-33.8	-35.5	18.6	0.00e+00	0	56	0	2153775104	37	4569
2026-01-06 15:07:31.27	238.22	40.06	-33.7	-35.4	18.7	0.00e+00	0	56	0	2162163712	37	4511
2026-01-06 15:07:32.28	238.66	40.17	-33.6	-35.2	18.9	0.00e+00	0	56	0	2168455168	37	4440
2026-01-06 15:07:33.29	239.10	40.27	-33.3	-34.9	19.2	0.00e+00	0	56	0	2175795200	37	4276
2026-01-06 15:07:34.30	239.54	40.37	-33.2	-34.8	19.4	0.00e+00	0	56	0	2183135232	37	4202
2026-01-06 15:07:35.31	239.98	40.47	-33.0	-34.6	19.5	0.00e+00	0	56	0	2190475264	37	4111
2026-01-06 15:07:36.32	240.43	40.57	-32.8	-34.4	19.7	0.00e+00	0	56	0	2197815296	36	4271
2026-01-06 15:07:37.33	240.88	40.67	-32.7	-34.3	19.8	0.00e+00	0	57	0	2205155328	36	4210
2026-01-06 15:07:38.34	241.33	40.77	-32.7	-34.3	19.8	0.00e+00	0	57	0	2212495360	36	4204
2026-01-06 15:07:39.35	241.78	40.86	-32.6	-34.2	19.8	0.00e+00	0	56	0	2219835392	36	4170
2026-01-06 15:07:40.36	242.24	40.95	-32.6	-34.2	19.8	0.00e+00	0	56	0	2227175424	36	4169
2026-01-06 15:07:41.36	242.69	41.04	-32.7	-34.3	19.7	0.00e+00	0	56	0	2234515456	36	4220
2026-01-06 15:07:42.37	243.15	41.13	-32.9	-34.6	19.4	0.00e+00	0	56	0	2241855488	36	4345
2026-01-06 15:07:43.38	243.62	41.22	-33.5	-34.5	20.3	0.00e+00	0	56	0	2249195520	36	4313
2026-01-06 15:07:44.39	244.08	41.30	-33.7	-34.7	20.1	0.00e+00	0	56	0	2256535552	36	4402
2026-01-06 15:07:45.40	244.55	41.38	-33.6	-34.6	20.2	0.00e+00	0	56	0	2263875584	37	4124
2026-01-06 15:07:46.42	245.03	41.47	-33.8	-34.9	20.0	0.00e+00	0	57	0	2271215616	37	4255
2026-01-06 15:07:47.43	245.50	41.55	-33.8	-34.8	20.0	0.00e+00	0	56	0	2278555648	37	4240
2026-01-06 15:07:48.44	245.98	41.62	-33.9	-34.9	19.9	0.00e+00	0	56	0	2285895680	37	4265
2026-01-06 15:07:49.44	246.45	41.70	-33.9	-34.9	19.9	0.00e+00	0	56	0	2293235712	37	4274
2026-01-06 15:07:50.46	246.94	41.77	-33.8	-34.8	20.0	0.00e+00	0	56	0	2299527168	37	4239
2026-01-06 15:07:51.47	247.42	41.84	-33.8	-34.9	19.9	0.00e+00	0	56	0	2307915776	37	4254
2026-01-06 15:07:52.48	247.90	41.91	-33.7	-34.8	20.0	0.00e+00	0	56	0	2315255808	37	4195
2026-01-06 15:07:53.49	248.39	41.98	-33.8	-34.8	20.0	0.00e+00	0	56	0	2321547264	37	4209
2026-01-06 15:07:54.50	248.88	42.04	-33.7	-34.7	20.2	0.00e+00	0	56	0	2328887296	37	4156
2026-01-06 15:07:55.51	249.37	42.10	-33.5	-34.5	20.3	0.00e+00	0	57	0	2336227328	37	4087
2026-01-06 15:07:56.52	249.86	42.16	-33.5	-34.5	20.3	0.00e+00	0	56	0	2343567360	37	4064
2026-01-06 15:07:57.53	250.35	42.22	-33.6	-34.7	20.1	0.00e+00	0	57	0	2350907392	37	4153
2026-01-06 15:07:58.54	250.85	42.28	-33.9	-35.0	19.9	0.00e+00	0	57	0	2358247424	37	4311
2026-01-06 15:07:59.55	251.35	42.33	-34.1	-35.2	19.7	0.00e+00	0	57	0	2365587456	37	4427
2026-01-06 15:08:00.56	251.85	42.38	-34.2	-35.3	19.6	0.00e+00	0	57	0	2372927488	38	4214
2026-01-06 15:08:01.57	252.35	42.43	-34.1	-35.2	19.7	0.00e+00	0	56	0	2380267520	38	4146
2026-01-06 15:08:02.58	252.85	42.48	-34.1	-35.1	19.8	0.00e+00	0	57	0	2387607552	38	4118
2026-01-06 15:08:03.59	253.35	42.52	-34.0	-35.1	19.8	0.00e+00	0	56	0	2394947584	38	4101
2026-01-06 15:08:04.60	253.86	42.56	-34.0	-35.0	19.8	0.00e+00	0	56	0	2402287616	38	4077
2026-01-06 15:08:05.61	254.36	42.60	-34.0	-35.0	19.8	0.00e+00	0	56	0	2409627648	38	4079
2026-01-06 15:08:06.62	254.87	42.64	-34.0	-35.0	19.8	0.00e+00	0	56	0	2416967680	38	4082
2026-01-06 15:08:07.63	255.38	42.67	-34.0	-35.1	19.8	0.00e+00	0	57	0	2424307712	38	4115
2026-01-06 15:08:08.64	255.89	42.70	-34.0	-35.1	19.8	0.00e+00	0	56	0	2431647744	38	4100
2026-01-06 15:08:09.65	256.40	42.73	-33.8	-34.8	20.0	0.00e+00	0	57	0	2438987776	38	3995
2026-01-06 15:08:10.66	256.91	42.76	-33.7	-34.7	20.1	0.00e+00	0	56	0	2446327808	38	3951
2026-01-06 15:08:11.68	257.42	42.79	-33.8	-34.8	20.0	0.00e+00	0	57	0	2453667840	38	3995
2026-01-06 15:08:12.69	257.94	42.81	-34.0	-35.0	19.9	0.00e+00	0	56	0	2461007872	38	4074
2026-01-06 15:08:13.70	258.45	42.83	-34.0	-35.0	19.8	0.00e+00	0	57	0	2467299328	38	4073
2026-01-06 15:08:14.71	258.96	42.84	-34.0	-35.0	19.8	0.00e+00	0	56	0	2474639360	38	4075
2026-01-06 15:08:15.72	259.48	42.86	-33.8	-34.8	20.0	0.00e+00	0	56	0	2483027968	38	3998
2026-01-06 15:08:16.73	259.99	42.87	-33.6	-34.6	20.2	0.00e+00	0	56	0	2489319424	38	3909
2026-01-06 15:08:17.74	260.51	42.88	-33.5	-34.5	20.3	0.00e+00	0	56	0	2496659456	38	3854
2026-01-06 15:08:18.75	261.02	42.89	-33.4	-34.4	20.4	0.00e+00	0	56	0	2503999488	37	4041
2026-01-06 15:08:19.76	261.54	42.89	-33.5	-34.5	20.3	0.00e+00	0	56	0	2511339520	37	4066
2026-01-06 15:08:20.77	262.05	42.89	-33.7	-34.7	20.1	0.00e+00	0	57	0	2518679552	37	4159
2026-01-06 15:08:21.78	262.57	42.89	-33.8	-34.8	20.0	0.00e+00	0	57	0	2526019584	37	4227
2026-01-06 15:08:22.79	263.08	42.89	-33.8	-34.8	20.0	0.00e+00	0	56	0	2533359616	37	4229
2026-01-06 15:08:23.80	263.60	42.88	-33.9	-34.9	19.9	0.00e+00	0	57	0	2540699648	37	4271
2026-01-06 15:08:24.81	264.11	42.87	-33.8	-34.8	20.1	0.00e+00	0	56	0	2548039680	37	4202
2026-01-06 15:08:25.82	264.63	42.86	-33.8	-34.8	20.0	0.00e+00	0	56	0	2555379712	37	4228
2026-01-06 15:08:26.83	265.14	42.85	-33.9	-34.9	19.9	0.00e+00	0	57	0	2562719744	37	4272
2026-01-06 15:08:27.85	265.66	42.83	-34.1	-35.1	19.7	0.00e+00	0	57	0	2570059776	37	4372
2026-01-06 15:08:28.85	266.17	42.82	-34.2	-35.2	19.6	0.00e+00	0	57	0	2577399808	37	4432
2026-01-06 15:08:29.87	266.68	42.80	-34.1	-35.1	19.7	0.00e+00	0	57	0	2584739840	37	4367
2026-01-06 15:08:30.88	267.20	42.77	-33.9	-34.9	19.9	0.00e+00	0	57	0	2592079872	37	4285
2026-01-06 15:08:31.89	267.71	42.75	-33.9	-35.0	19.9	0.00e+00	0	56	0	2599419904	37	4299
2026-01-06 15:08:32.90	268.22	42.72	-33.9	-35.0	19.9	0.00e+00	0	57	0	2606759936	37	4297
2026-01-06 15:08:33.91	268.73	42.69	-33.9	-34.9	19.9	0.00e+00	0	57	0	2614099968	37	4276
2026-01-06 15:08:34.92	269.23	42.65	-33.8	-34.9	20.0	0.00e+00	0	57	0	2621440000	37	4244
2026-01-06 15:08:35.93	269.74	42.62	-33.7	-34.7	20.1	0.00e+00	0	57	0	2628780032	37	4173
2026-01-06 15:08:36.94	270.25	42.58	-33.7	-34.7	20.1	0.00e+00	0	57	0	2636120064	37	4172
2026-01-06 15:08:37.95	270.75	42.54	-33.7	-34.7	20.1	0.00e+00	0	57	0	2642411520	37	4182
2026-01-06 15:08:38.96	271.25	42.50	-33.8	-34.9	19.9	0.00e+00	0	57	0	2649751552	37	4253
2026-01-06 15:08:39.97	271.76	42.45	-33.9	-35.0	19.9	0.00e+00	0	57	0	2658140160	37	4300
2026-01-06 15:08:40.98	272.26	42.40	-33.9	-34.9	19.9	0.00e+00	0	57	0	2664431616	37	4267
2026-01-06 15:08:41.99	272.76	42.35	-33.9	-34.9	19.9	0.00e+00	0	57	0	2671771648	37	4275
2026-01-06 15:08:43.00	273.25	42.30	-33.9	-34.9	19.9	0.00e+00	0	56	0	2679111680	37	4291
2026-01-06 15:08:44.01	273.75	42.25	-33.9	-35.0	19.9	0.00e+00	0	56	0	2686451712	37	4305
2026-01-06 15:08:45.02	274.24	42.19	-33.9	-34.9	19.9	0.00e+00	0	57	0	2693791744	37	4289
2026-01-06 15:08:46.03	274.73	42.13	-33.9	-34.9	19.9	0.00e+00	0	57	0	2701131776	37	4271
2026-01-06 15:08:47.04	275.22	42.07	-33.9	-34.9	19.9	0.00e+00	0	57	0	2708471808	37	4280
2026-01-06 15:08:48.05	275.71	42.01	-33.9	-35.0	19.9	0.00e+00	0	57	0	2715811840	37	4297
2026-01-06 15:08:49.06	276.20	41.94	-34.0	-35.1	19.8	0.00e+00	0	57	0	2723151872	37	4353
2026-01-06 15:08:50.07	276.68	41.87	-34.0	-35.1	19.7	0.00e+00	0	57	0	2730491904	37	4352
2026-01-06 15:08:51.08	277.17	41.80	-34.0	-35.0	19.8	0.00e+00	0	57	0	2737831936	37	4318
2026-01-06 15:08:52.09	277.65	41.73	-33.9	-34.9	19.8	0.00e+00	0	56	0	2745171968	37	4287
2026-01-06 15:08:53.10	278.13	41.66	-33.9	-35.0	19.9	0.00e+00	0	57	0	2752512000	37	4302
2026-01-06 15:08:54.11	278.60	41.58	-34.1	-35.1	19.7	0.00e+00	0	57	0	2759852032	37	4380
2026-01-06 15:08:55.12	279.08	41.51	-34.1	-35.2	19.6	0.00e+00	0	57	0	2767192064	37	4421
2026-01-06 15:08:56.13	279.55	41.43	-34.1	-35.1	19.7	0.00e+00	0	57	0	2774532096	37	4367
2026-01-06 15:08:57.14	280.02	41.34	-34.0	-35.0	19.8	0.00e+00	0	57	0	2781872128	37	4314
2026-01-06 15:08:58.15	280.48	41.26	-33.8	-34.8	20.0	0.00e+00	0	57	0	2788163584	37	4220
2026-01-06 15:08:59.16	280.95	41.17	-33.6	-34.7	20.1	0.00e+00	0	57	0	2796552192	37	4146
2026-01-06 15:09:00.17	281.41	41.09	-33.7	-34.7	20.1	0.00e+00	0	57	0	2803892224	37	4154
2026-01-06 15:09:01.18	281.87	41.00	-33.7	-34.8	20.0	0.00e+00	0	57	0	2810183680	37	4205
2026-01-06 15:09:02.19	282.33	40.91	-33.9	-34.9	19.9	0.00e+00	0	57	0	2817523712	37	4286
2026-01-06 15:09:03.20	282.78	40.81	-34.2	-35.2	19.6	0.00e+00	0	57	0	2824863744	37	4433
2026-01-06 15:09:04.21	283.23	40.72	-34.4	-35.5	19.3	0.00e+00	0	57	0	2832203776	38	4302
2026-01-06 15:09:05.22	283.68	40.62	-34.3	-35.3	19.4	0.00e+00	0	57	0	2839543808	38	4232
2026-01-06 15:09:06.23	284.13	40.53	-33.9	-35.0	19.9	0.00e+00	0	57	0	2846883840	38	4060
2026-01-06 15:09:07.24	284.57	40.43	-33.6	-34.7	20.0	0.00e+00	0	57	0	2854223872	38	3915
2026-01-06 15:09:08.25	285.01	40.32	-33.5	-34.5	20.3	0.00e+00	0	57	0	2861563904	38	3866
2026-01-06 15:09:09.26	285.45	40.22	-33.5	-34.5	20.3	0.00e+00	0	56	0	2868903936	37	4080
2026-01-06 15:09:10.27	285.89	40.12	-33.6	-34.6	20.2	0.00e+00	0	57	0	2876243968	37	4137
2026-01-06 15:09:11.28	286.32	40.01	-33.6	-34.6	20.2	0.00e+00	0	57	0	2883584000	37	4135
2026-01-06 15:09:12.29	286.75	39.91	-33.6	-34.6	20.2	0.00e+00	0	57	0	2890924032	37	4121
2026-01-06 15:09:13.30	287.18	39.80	-33.5	-34.5	20.2	0.00e+00	0	57	0	2898264064	37	4094
2026-01-06 15:09:14.30	287.60	39.69	-33.6	-34.6	20.2	0.00e+00	0	57	0	2905604096	37	4122
2026-01-06 15:09:15.31	288.02	39.58	-33.6	-34.6	20.2	0.00e+00	0	57	0	2912944128	37	4127
2026-01-06 15:09:16.32	288.44	39.46	-33.5	-34.5	20.3	0.00e+00	0	57	0	2920284160	37	4070
2026-01-06 15:09:17.33	288.85	39.35	-33.4	-34.4	20.4	0.00e+00	0	57	0	2927624192	37	4028
2026-01-06 15:09:18.34	289.26	39.24	-33.5	-34.5	20.3	0.00e+00	0	57	0	2934964224	37	4071
2026-01-06 15:09:19.35	289.67	39.12	-33.6	-34.6	20.2	0.00e+00	0	56	0	2941255680	37	4103
2026-01-06 15:09:20.36	290.08	39.00	-33.6	-34.6	20.2	0.00e+00	0	57	0	2949644288	37	4107
2026-01-06 15:09:21.37	290.48	38.88	-33.6	-34.7	20.1	0.00e+00	0	57	0	2956984320	37	4149
2026-01-06 15:09:22.38	290.89	38.76	-33.7	-34.8	20.0	0.00e+00	0	56	0	2963275776	37	4195
2026-01-06 15:09:23.39	291.28	38.64	-33.7	-34.7	19.8	0.00e+00	0	57	0	2970615808	37	4183
2026-01-06 15:09:24.40	291.68	38.52	-33.9	-34.9	19.9	0.00e+00	0	57	0	2977955840	37	4260
2026-01-06 15:09:25.41	292.07	38.40	-33.9	-34.9	19.9	0.00e+00	0	57	0	2985295872	37	4261
2026-01-06 15:09:26.42	292.46	38.27	-33.9	-34.9	19.8	0.00e+00	0	57	0	2992635904	37	4284
2026-01-06 15:09:27.43	292.85	38.15	-33.9	-34.9	19.9	0.00e+00	0	57	0	2999975936	37	4280
2026-01-06 15:09:28.44	293.23	38.02	-33.8	-34.8	19.9	0.00e+00	0	57	0	3007315968	37	4220
2026-01-06 15:09:29.45	293.61	37.89	-33.8	-34.8	20.0	0.00e+00	0	57	0	3014656000	37	4205
2026-01-06 15:09:30.46	293.99	37.77	-33.7	-34.7	20.1	0.00e+00	0	57	0	3021996032	37	4150
2026-01-06 15:09:31.47	294.36	37.64	-33.7	-34.7	20.0	0.00e+00	0	57	0	3029336064	37	4177
2026-01-06 15:09:32.48	294.73	37.51	-33.7	-34.7	20.1	0.00e+00	0	57	0	3036676096	37	4166
2026-01-06 15:09:33.49	295.10	37.38	-33.7	-34.7	20.1	0.00e+00	0	57	0	3044016128	37	4161
2026-01-06 15:09:34.50	295.47	37.25	-33.8	-34.8	19.9	0.00e+00	0	57	0	3051356160	37	4213
2026-01-06 15:09:35.51	295.83	37.11	-33.7	-34.7	20.0	0.00e+00	0	57	0	3058696192	37	4182
2026-01-06 15:09:36.53	296.20	36.98	-33.8	-34.8	20.0	0.00e+00	0	57	0	3066036224	37	4215
2026-01-06 15:09:37.54	296.55	36.85	-33.6	-34.6	20.1	0.00e+00	0	57	0	3073376256	37	4126
2026-01-06 15:09:38.55	296.91	36.71	-33.5	-34.5	20.2	0.00e+00	0	57	0	3080716288	37	4070
2026-01-06 15:09:39.56	297.26	36.58	-33.6	-34.5	20.2	0.00e+00	0	57	0	3087007744	37	4097
2026-01-06 15:09:40.57	297.61	36.44	-33.5	-34.5	20.2	0.00e+00	0	57	0	3095396352	37	4089
2026-01-06 15:09:41.58	297.95	36.31	-33.5	-34.5	20.3	0.00e+00	0	57	0	3102736384	37	4073
2026-01-06 15:09:42.59	298.30	36.17	-33.6	-34.6	20.2	0.00e+00	0	57	0	3109027840	37	4107
2026-01-06 15:09:43.59	298.63	36.04	-33.6	-34.6	20.2	0.00e+00	0	57	0	3116367872	37	4116
2026-01-06 15:09:44.60	298.97	35.90	-33.5	-34.5	20.1	0.00e+00	0	57	0	3123707904	37	4055
2026-01-06 15:09:45.61	299.30	35.76	-33.5	-34.5	20.3	0.00e+00	0	57	0	3131047936	37	4057
2026-01-06 15:09:46.62	299.64	35.62	-33.2	-34.2	20.5	0.00e+00	0	57	0	3138387968	37	3931
2026-01-06 15:09:47.63	299.96	35.48	-33.2	-34.1	20.6	0.00e+00	0	57	0	3145728000	37	3911
2026-01-06 15:09:48.64	300.29	35.34	-33.3	-34.2	20.5	0.00e+00	0	57	0	3153068032	37	3950
2026-01-06 15:09:49.65	300.61	35.21	-33.4	-34.4	20.4	0.00e+00	0	57	0	3160408064	37	4013
2026-01-06 15:09:50.66	300.93	35.07	-33.6	-34.6	20.2	0.00e+00	0	57	0	3167748096	37	4107
2026-01-06 15:09:51.67	301.25	34.93	-33.8	-34.8	20.0	0.00e+00	0	57	0	3175088128	37	4213
2026-01-06 15:09:52.68	301.57	34.78	-33.9	-34.9	19.9	0.00e+00	0	57	0	3182428160	37	4283
2026-01-06 15:09:53.69	301.88	34.64	-33.9	-34.9	19.9	0.00e+00	0	57	0	3189768192	37	4278
2026-01-06 15:09:54.70	302.19	34.50	-33.9	-34.9	19.6	0.00e+00	0	57	0	3197108224	37	4270
2026-01-06 15:09:55.71	302.50	34.36	-33.8	-34.9	19.9	0.00e+00	0	57	0	3204448256	37	4257
2026-01-06 15:09:56.72	302.80	34.22	-33.8	-34.8	20.0	0.00e+00	0	57	0	3211788288	37	4241
2026-01-06 15:09:57.74	303.11	34.08	-33.7	-34.8	20.0	0.00e+00	0	57	0	3219128320	37	4194
2026-01-06 15:09:58.75	303.41	33.93	-33.6	-34.6	20.2	0.00e+00	0	57	0	3226468352	37	4131
2026-01-06 15:09:59.76	303.70	33.79	-33.5	-34.5	20.2	0.00e+00	0	57	0	3233808384	37	4095
2026-01-06 15:10:00.77	304.00	33.65	-33.5	-34.5	20.3	0.00e+00	0	57	0	3241148416	37	4058
2026-01-06 15:10:01.78	304.29	33.51	-33.4	-34.4	20.4	0.00e+00	0	57	0	3248488448	37	4025
2026-01-06 15:10:02.79	304.58	33.36	-33.3	-34.3	20.4	0.00e+00	0	57	0	3255828480	37	3988
2026-01-06 15:10:03.80	304.87	33.22	-33.4	-34.4	20.3	0.00e+00	0	56	0	3262119936	37	4036
2026-01-06 15:10:04.81	305.15	33.08	-33.5	-34.6	20.1	0.00e+00	0	57	0	3270508544	37	4105
2026-01-06 15:10:05.82	305.43	32.94	-33.6	-34.7	20.1	0.00e+00	0	57	0	3277848576	37	4147
2026-01-06 15:10:06.83	305.71	32.79	-33.8	-34.9	19.9	0.00e+00	0	57	0	3284140032	37	4248
2026-01-06 15:10:07.84	305.99	32.65	-34.0	-35.0	19.7	0.00e+00	0	57	0	3291480064	37	4326
2026-01-06 15:10:08.85	306.26	32.51	-34.1	-35.1	19.7	0.00e+00	0	57	0	3298820096	37	4378
2026-01-06 15:10:09.86	306.54	32.36	-34.1	-35.1	19.6	0.00e+00	0	57	0	3306160128	37	4384
2026-01-06 15:10:10.87	306.80	32.22	-34.1	-35.1	19.6	0.00e+00	0	57	0	3313500160	37	4384
2026-01-06 15:10:11.88	307.07	32.08	-34.0	-35.1	19.7	0.00e+00	0	57	0	3320840192	37	4351
2026-01-06 15:10:12.89	307.34	31.93	-33.9	-34.9	19.8	0.00e+00	0	57	0	3328180224	37	4283
2026-01-06 15:10:13.90	307.60	31.79	-33.8	-34.8	19.9	0.00e+00	0	57	0	3335520256	37	4222
2026-01-06 15:10:14.91	307.86	31.65	-33.6	-34.7	20.1	0.00e+00	0	57	0	3342860288	37	4156
2026-01-06 15:10:15.92	308.12	31.50	-33.6	-34.6	20.1	0.00e+00	0	57	0	3350200320	37	4117
2026-01-06 15:10:16.93	308.38	31.36	-33.5	-34.5	20.2	0.00e+00	0	57	0	3357540352	37	4098
2026-01-06 15:10:17.94	308.63	31.22	-33.5	-34.5	20.2	0.00e+00	0	57	0	3364880384	37	4097
2026-01-06 15:10:18.95	308.88	31.08	-33.6	-34.6	20.0	0.00e+00	0	57	0	3372220416	37	4145
2026-01-06 15:10:19.97	309.13	30.93	-33.7	-34.7	20.0	0.00e+00	0	57	0	3379560448	37	4186
2026-01-06 15:10:20.97	309.38	30.79	-33.8	-34.8	19.9	0.00e+00	0	57	0	3386900480	37	4233
2026-01-06 15:10:21.98	309.62	30.65	-33.9	-34.9	19.8	0.00e+00	0	57	0	3394240512	37	4280
2026-01-06 15:10:22.99	309.87	30.51	-33.9	-35.0	19.7	0.00e+00	0	57	0	3401580544	37	4319
2026-01-06 15:10:24.00	310.11	30.36	-33.9	-35.0	19.8	0.00e+00	0	57	0	3407872000	37	4309
2026-01-06 15:10:25.01	310.35	30.22	-34.0	-35.0	19.7	0.00e+00	0	57	0	3415212032	37	4325
2026-01-06 15:10:26.02	310.58	30.08	-33.9	-35.0	19.7	0.00e+00	0	57	0	3423600640	37	4308
2026-01-06 15:10:27.03	310.82	29.94	-33.9	-34.9	19.7	0.00e+00	0	57	0	3429892096	37	4265
2026-01-06 15:10:28.04	311.05	29.80	-33.9	-34.9	19.8	0.00e+00	0	57	0	3437232128	37	4264
2026-01-06 15:10:29.04	311.28	29.66	-33.8	-34.9	19.9	0.00e+00	0	57	0	3444572160	37	4243
2026-01-06 15:10:30.05	311.51	29.52	-33.8	-34.9	19.9	0.00e+00	0	57	0	3451912192	37	4250
2026-01-06 15:10:31.06	311.74	29.38	-33.8	-34.8	19.9	0.00e+00	0	57	0	3459252224	37	4223
2026-01-06 15:10:32.08	311.96	29.24	-33.8	-34.9	19.8	0.00e+00	0	57	0	3466592256	37	4249
2026-01-06 15:10:33.09	312.19	29.10	-33.8	-34.8	19.9	0.00e+00	0	57	0	3473932288	37	4242
2026-01-06 15:10:34.10	312.41	28.96	-33.9	-34.9	19.8	0.00e+00	0	57	0	3481272320	37	4282
2026-01-06 15:10:35.10	312.63	28.82	-33.9	-34.9	19.8	0.00e+00	0	57	0	3488612352	37	4285
2026-01-06 15:10:36.11	312.84	28.68	-33.9	-35.0	19.7	0.00e+00	0	57	0	3495952384	37	4292
2026-01-06 15:10:37.12	313.06	28.54	-33.9	-35.0	19.7	0.00e+00	0	57	0	3503292416	37	4294
2026-01-06 15:10:38.13	313.27	28.40	-34.0	-35.0	19.7	0.00e+00	0	57	0	3510632448	37	4327
2026-01-06 15:10:39.14	313.49	28.26	-34.0	-35.0	19.7	0.00e+00	0	57	0	3517972480	37	4339
2026-01-06 15:10:40.15	313.70	28.12	-34.0	-35.0	19.7	0.00e+00	0	57	0	3525312512	37	4329
2026-01-06 15:10:41.16	313.90	27.99	-34.0	-35.0	19.7	0.00e+00	0	57	0	3532652544	37	4329
2026-01-06 15:10:42.17	314.11	27.85	-34.0	-35.1	19.5	0.00e+00	0	57	0	3539992576	37	4348
2026-01-06 15:10:43.18	314.32	27.71	-34.0	-35.1	19.6	0.00e+00	0	57	0	3547332608	37	4358
2026-01-06 15:10:44.19	314.52	27.57	-34.1	-35.1	19.6	0.00e+00	0	57	0	3554672640	37	4375
2026-01-06 15:10:45.20	314.72	27.44	-34.0	-35.1	19.6	0.00e+00	0	57	0	3560964096	37	4348
2026-01-06 15:10:46.21	314.92	27.30	-34.0	-35.1	19.6	0.00e+00	0	57	0	3568304128	37	4357
2026-01-06 15:10:47.21	315.12	27.17	-34.0	-35.1	19.6	0.00e+00	0	57	0	3576692736	37	4370
2026-01-06 15:10:48.22	315.31	27.03	-34.1	-35.1	19.4	0.00e+00	0	57	0	3582984192	37	4378
2026-01-06 15:10:49.23	315.51	26.89	-34.1	-35.2	19.5	0.00e+00	0	57	0	3590324224	37	4420
2026-01-06 15:10:50.24	315.70	26.76	-34.1	-35.2	19.5	0.00e+00	0	57	0	3597664256	37	4409
2026-01-06 15:10:51.25	315.89	26.62	-34.2	-35.2	19.5	0.00e+00	0	57	0	3605004288	37	4425
2026-01-06 15:10:52.26	316.08	26.49	-34.1	-35.2	19.5	0.00e+00	0	57	0	3612344320	37	4412
2026-01-06 15:10:53.27	316.27	26.36	-34.1	-35.2	19.5	0.00e+00	0	57	0	3619684352	37	4396
2026-01-06 15:10:54.28	316.46	26.22	-34.0	-35.1	19.6	0.00e+00	0	57	0	3627024384	37	4350
2026-01-06 15:10:55.29	316.65	26.09	-34.0	-35.1	19.6	0.00e+00	0	57	0	3634364416	37	4345
2026-01-06 15:10:56.31	316.83	25.95	-33.8	-34.9	19.8	0.00e+00	0	57	0	3641704448	37	4259
2026-01-06 15:10:57.32	317.01	25.82	-33.7	-34.7	19.9	0.00e+00	0	57	0	3649044480	37	4185
2026-01-06 15:10:58.33	317.19	25.69	-33.6	-34.6	20.0	0.00e+00	0	57	0	3656384512	37	4133
2026-01-06 15:10:59.34	317.37	25.56	-33.6	-34.6	20.0	0.00e+00	0	57	0	3663724544	37	4103
2026-01-06 15:11:00.35	317.55	25.43	-33.5	-34.5	20.1	0.00e+00	0	57	0	3671064576	37	4065
2026-01-06 15:11:01.35	317.73	25.30	-33.5	-34.5	20.1	0.00e+00	0	57	0	3678404608	37	4059
2026-01-06 15:11:02.36	317.90	25.17	-33.5	-34.6	20.0	0.00e+00	0	57	0	3685744640	37	4104
2026-01-06 15:11:03.37	318.08	25.03	-33.6	-34.6	20.0	0.00e+00	0	57	0	3693084672	37	4138
2026-01-06 15:11:04.38	318.25	24.90	-33.7	-34.7	19.9	0.00e+00	0	57	0	3700424704	37	4185
2026-01-06 15:11:05.39	318.42	24.78	-33.9	-34.9	19.7	0.00e+00	0	57	0	3706716160	37	4274
2026-01-06 15:11:06.40	318.59	24.65	-34.0	-35.0	19.6	0.00e+00	0	57	0	3714056192	37	4324
2026-01-06 15:11:07.41	318.76	24.52	-34.1	-35.2	19.4	0.00e+00	0	56	0	3722444800	37	4420
2026-01-06 15:11:08.42	318.93	24.39	-34.3	-35.3	19.3	0.00e+00	0	57	0	3728736256	38	4226
2026-01-06 15:11:09.43	319.09	24.26	-34.3	-35.4	19.2	0.00e+00	0	57	0	3736076288	38	4259
2026-01-06 15:11:10.44	319.26	24.13	-34.4	-35.5	19.1	0.00e+00	0	57	0	3743416320	38	4320
2026-01-06 15:11:11.45	319.42	24.01	-34.4	-35.5	19.1	0.00e+00	0	57	0	3750756352	38	4337
2026-01-06 15:11:12.46	319.58	23.88	-34.4	-35.5	19.1	0.00e+00	0	57	0	3758096384	38	4310
2026-01-06 15:11:13.47	319.74	23.75	-34.3	-35.4	19.1	0.00e+00	0	57	0	3765436416	38	4271
2026-01-06 15:11:14.48	319.90	23.63	-34.2	-35.3	19.3	0.00e+00	0	57	0	3772776448	38	4218
2026-01-06 15:11:15.49	320.06	23.50	-34.2	-35.3	19.4	0.00e+00	0	57	0	3780116480	38	4208
2026-01-06 15:11:16.50	320.22	23.37	-34.1	-35.2	19.4	0.00e+00	0	57	0	3787456512	38	4162
2026-01-06 15:11:17.51	320.37	23.25	-34.1	-35.1	19.5	0.00e+00	0	57	0	3794796544	38	4139
2026-01-06 15:11:18.52	320.53	23.12	-34.0	-35.1	19.5	0.00e+00	0	57	0	3802136576	38	4126
2026-01-06 15:11:19.53	320.68	23.00	-34.0	-35.1	19.5	0.00e+00	0	57	0	3809476608	38	4126
2026-01-06 15:11:20.54	320.83	22.88	-34.0	-35.1	19.5	0.00e+00	0	57	0	3816816640	38	4121
2026-01-06 15:11:21.54	320.98	22.75	-34.1	-35.1	19.4	0.00e+00	0	57	0	3824156672	38	4144
2026-01-06 15:11:22.55	321.13	22.63	-34.2	-35.2	19.4	0.00e+00	0	57	0	3831496704	38	4183
2026-01-06 15:11:23.56	321.28	22.51	-34.2	-35.2	19.3	0.00e+00	0	57	0	3838836736	38	4192
2026-01-06 15:11:24.57	321.43	22.39	-34.2	-35.3	19.3	0.00e+00	0	57	0	3846176768	38	4206
2026-01-06 15:11:25.58	321.57	22.27	-34.3	-35.4	19.2	0.00e+00	0	57	0	3853516800	38	4271
2026-01-06 15:11:26.59	321.72	22.14	-34.4	-35.4	19.1	0.00e+00	0	57	0	3859808256	38	4288
2026-01-06 15:11:27.60	321.86	22.02	-34.4	-35.5	19.0	0.00e+00	0	57	0	3867148288	38	4313
2026-01-06 15:11:28.61	322.00	21.90	-34.5	-35.6	19.0	0.00e+00	0	57	0	3875536896	38	4354
2026-01-06 15:11:29.62	322.15	21.78	-34.6	-35.7	18.9	0.00e+00	0	57	0	3881828352	38	4396
2026-01-06 15:11:30.63	322.29	21.66	-34.5	-35.6	18.9	0.00e+00	0	57	0	3889168384	38	4390
2026-01-06 15:11:31.64	322.43	21.54	-34.5	-35.7	18.9	0.00e+00	0	57	0	3896508416	38	4396
2026-01-06 15:11:32.65	322.57	21.42	-34.6	-35.7	18.8	0.00e+00	0	57	0	3903848448	38	4438
2026-01-06 15:11:33.66	322.70	21.31	-34.6	-35.7	18.8	0.00e+00	0	57	0	3911188480	38	4415
2026-01-06 15:11:34.67	322.84	21.19	-34.5	-35.6	18.9	0.00e+00	0	57	0	3918528512	38	4382
2026-01-06 15:11:35.68	322.98	21.07	-34.5	-35.6	18.9	0.00e+00	0	57	0	3925868544	38	4386
2026-01-06 15:11:36.69	323.11	20.95	-34.4	-35.5	19.0	0.00e+00	0	57	0	3933208576	38	4319
2026-01-06 15:11:37.70	323.25	20.84	-34.4	-35.5	19.0	0.00e+00	0	57	0	3940548608	38	4303
2026-01-06 15:11:38.71	323.38	20.72	-34.4	-35.5	19.0	0.00e+00	0	57	0	3947888640	38	4297
2026-01-06 15:11:39.72	323.51	20.60	-34.4	-35.4	19.1	0.00e+00	0	57	0	3955228672	38	4290
2026-01-06 15:11:40.73	323.64	20.49	-34.4	-35.5	19.0	0.00e+00	0	57	0	3962568704	38	4303
2026-01-06 15:11:41.74	323.77	20.37	-34.4	-35.5	19.0	0.00e+00	0	57	0	3969908736	38	4323
2026-01-06 15:11:42.75	323.90	20.26	-34.5	-35.6	18.9	0.00e+00	0	57	0	3977248768	38	4377
2026-01-06 15:11:43.76	324.03	20.14	-34.6	-35.7	18.8	0.00e+00	0	57	0	3983540224	38	4400
2026-01-06 15:11:44.77	324.16	20.03	-34.6	-35.7	18.8	0.00e+00	0	57	0	3991928832	38	4439
2026-01-06 15:11:45.78	324.28	19.91	-34.7	-35.8	18.7	0.00e+00	0	57	0	3999268864	38	4484
2026-01-06 15:11:46.79	324.41	19.80	-34.7	-35.9	18.6	0.00e+00	0	57	0	4005560320	39	4250
2026-01-06 15:11:47.80	324.53	19.69	-34.8	-35.9	18.6	0.00e+00	0	57	0	4012900352	39	4284
2026-01-06 15:11:48.81	324.66	19.57	-34.9	-36.0	18.5	0.00e+00	0	57	0	4021288960	39	4334
2026-01-06 15:11:49.82	324.78	19.46	-34.9	-36.1	18.5	0.00e+00	0	57	0	4027580416	39	4348
2026-01-06 15:11:50.83	324.90	19.35	-35.0	-36.1	18.4	0.00e+00	0	57	0	4034920448	39	4381
2026-01-06 15:11:51.84	325.02	19.24	-34.9	-36.1	18.4	0.00e+00	0	57	0	4042260480	39	4348
2026-01-06 15:11:52.84	325.14	19.13	-35.0	-36.1	18.4	0.00e+00	0	57	0	4049600512	39	4386
2026-01-06 15:11:53.85	325.26	19.02	-35.0	-36.1	18.4	0.00e+00	0	57	0	4056940544	39	4376
2026-01-06 15:11:54.87	325.38	18.91	-35.0	-36.1	18.4	0.00e+00	0	57	0	4064280576	39	4373
2026-01-06 15:11:55.88	325.50	18.80	-35.0	-36.2	18.4	0.00e+00	0	57	0	4071620608	39	4402
2026-01-06 15:11:56.88	325.61	18.69	-35.0	-36.1	18.4	0.00e+00	0	57	0	4078960640	39	4382
2026-01-06 15:11:57.89	325.73	18.58	-35.0	-36.2	18.3	0.00e+00	0	57	0	4086300672	39	4395
2026-01-06 15:11:58.90	325.84	18.47	-35.0	-36.2	18.3	0.00e+00	0	57	0	4093640704	39	4395
2026-01-06 15:11:59.92	325.96	18.36	-35.0	-36.2	18.3	0.00e+00	0	57	0	4100980736	39	4415
2026-01-06 15:12:00.91	326.07	18.25	-35.0	-36.2	18.3	0.00e+00	0	57	0	4108320768	39	4422
2026-01-06 15:12:01.92	326.18	18.15	-35.0	-36.2	18.2	0.00e+00	0	57	0	4115660800	39	4416
2026-01-06 15:12:02.93	326.30	18.04	-35.1	-36.3	18.2	0.00e+00	0	57	0	4123000832	39	4477
2026-01-06 15:12:03.94	326.41	17.93	-35.1	-36.3	18.2	0.00e+00	0	57	0	4130340864	39	4455
2026-01-06 15:12:04.95	326.52	17.83	-35.1	-36.3	18.2	0.00e+00	0	57	0	4136632320	39	4471
2026-01-06 15:12:05.96	326.63	17.72	-35.2	-36.3	18.1	0.00e+00	0	57	0	4143972352	39	4489
2026-01-06 15:12:06.97	326.74	17.61	-35.1	-36.3	18.1	0.00e+00	0	57	0	4152360960	39	4471
2026-01-06 15:12:07.98	326.85	17.51	-35.2	-36.4	18.1	0.00e+00	0	57	0	4158652416	39	4510
2026-01-06 15:12:08.99	326.95	17.40	-35.2	-36.4	18.1	0.00e+00	0	57	0	4165992448	39	4497
2026-01-06 15:12:10.00	327.06	17.30	-35.2	-36.4	18.0	0.00e+00	0	57	0	4173332480	39	4510
2026-01-06 15:12:11.00	327.17	17.19	-35.2	-36.4	18.0	0.00e+00	0	57	0	4180672512	40	4246
2026-01-06 15:12:12.01	327.27	17.09	-35.2	-36.4	18.0	0.00e+00	0	57	0	4188012544	40	4253
2026-01-06 15:12:13.02	327.38	16.99	-35.2	-36.4	18.0	0.00e+00	0	57	0	4195352576	40	4255
2026-01-06 15:12:14.03	327.48	16.88	-35.2	-36.4	17.9	0.00e+00	0	57	0	4202692608	40	4262
2026-01-06 15:12:15.04	327.58	16.78	-35.2	-36.4	17.9	0.00e+00	0	57	0	4210032640	40	4273
2026-01-06 15:12:16.05	327.69	16.68	-35.2	-36.4	17.9	0.00e+00	0	57	0	4217372672	40	4266
2026-01-06 15:12:17.06	327.79	16.57	-35.2	-36.4	17.9	0.00e+00	0	57	0	4224712704	40	4259
2026-01-06 15:12:18.07	327.89	16.47	-35.2	-36.4	17.9	0.00e+00	0	57	0	4232052736	40	4278
2026-01-06 15:12:19.08	327.99	16.37	-35.3	-36.5	17.8	0.00e+00	0	57	0	4239392768	40	4325
2026-01-06 15:12:20.09	328.09	16.27	-35.4	-36.6	17.7	0.00e+00	0	57	0	4246732800	40	4360
2026-01-06 15:12:21.10	328.19	16.17	-35.4	-36.7	17.7	0.00e+00	0	57	0	4254072832	40	4393
2026-01-06 15:12:22.11	328.29	16.07	-35.4	-36.7	17.6	0.00e+00	0	57	0	4260364288	40	4401
2026-01-06 15:12:23.12	328.39	15.97	-35.5	-36.7	17.5	0.00e+00	0	57	0	4268752896	40	4431
2026-01-06 15:12:24.13	328.49	15.87	-35.5	-36.7	17.5	0.00e+00	0	57	0	4276092928	40	4424
2026-01-06 15:12:25.14	328.58	15.77	-35.5	-36.8	17.5	0.00e+00	0	57	0	4282384384	40	4456
2026-01-06 15:12:26.15	328.68	15.67	-35.5	-36.8	17.5	0.00e+00	0	57	0	4289724416	40	4447
2026-01-06 15:12:27.16	328.78	15.57	-35.6	-36.8	17.5	0.00e+00	0	57	0	4298113024	40	4487
2026-01-06 15:12:28.17	328.87	15.47	-35.7	-36.9	17.3	0.00e+00	0	57	0	4304404480	40	4543
2026-01-06 15:12:29.18	328.97	15.37	-35.8	-37.1	17.2	0.00e+00	0	57	0	4311744512	41	4357
2026-01-06 15:12:30.19	329.06	15.28	-35.9	-37.2	17.1	0.00e+00	0	57	0	4319084544	41	4400
2026-01-06 15:12:31.20	329.15	15.18	-35.8	-37.1	17.1	0.00e+00	0	57	0	4326424576	41	4350
2026-01-06 15:12:32.21	329.25	15.08	-35.9	-37.2	17.1	0.00e+00	0	57	0	4333764608	41	4395
2026-01-06 15:12:33.22	329.34	14.98	-35.8	-37.1	17.1	0.00e+00	0	57	0	4341104640	41	4384
2026-01-06 15:12:34.23	329.43	14.89	-35.8	-37.1	17.1	0.00e+00	0	57	0	4348444672	41	4358
2026-01-06 15:12:35.24	329.52	14.79	-35.8	-37.1	17.1	0.00e+00	0	57	0	4355784704	41	4349
2026-01-06 15:12:36.25	329.61	14.69	-35.8	-37.1	17.1	0.00e+00	0	57	0	4363124736	41	4386
2026-01-06 15:12:37.26	329.70	14.60	-35.8	-37.0	17.2	0.00e+00	0	57	0	4370464768	41	4336
2026-01-06 15:12:38.27	329.79	14.50	-35.8	-37.1	17.1	0.00e+00	0	57	0	4377804800	41	4348
2026-01-06 15:12:39.28	329.88	14.41	-35.9	-37.2	17.0	0.00e+00	0	57	0	4385144832	41	4419
2026-01-06 15:12:40.29	329.97	14.31	-36.0	-37.3	16.9	0.00e+00	0	57	0	4392484864	41	4484
2026-01-06 15:12:41.30	330.06	14.22	-36.1	-37.5	16.7	0.00e+00	0	57	0	4399824896	41	4561
2026-01-06 15:12:42.30	330.14	14.13	-36.2	-37.5	16.6	0.00e+00	0	57	0	4407164928	41	4594
2026-01-06 15:12:43.31	330.23	14.03	-36.1	-37.4	16.7	0.00e+00	0	57	0	4414504960	41	4545
2026-01-06 15:12:44.32	330.32	13.94	-36.1	-37.5	16.7	0.00e+00	0	57	0	4421844992	41	4554
2026-01-06 15:12:45.33	330.40	13.84	-36.1	-37.5	16.7	0.00e+00	0	57	0	4429185024	41	4551
2026-01-06 15:12:46.34	330.49	13.75	-36.1	-37.5	16.6	0.00e+00	0	57	0	4435476480	41	4562
2026-01-06 15:12:47.35	330.57	13.66	-36.3	-37.6	16.5	0.00e+00	0	57	0	4442816512	42	4388
2026-01-06 15:12:48.36	330.66	13.57	-36.4	-37.7	16.4	0.00e+00	0	57	0	4451205120	42	4438
2026-01-06 15:12:49.37	330.74	13.47	-36.3	-37.7	16.4	0.00e+00	0	57	0	4457496576	42	4406
2026-01-06 15:12:50.38	330.82	13.38	-36.3	-37.7	16.4	0.00e+00	0	57	0	4464836608	42	4408
2026-01-06 15:12:51.39	330.91	13.29	-36.4	-37.8	16.4	0.00e+00	0	57	0	4472176640	42	4445
2026-01-06 15:12:52.40	330.99	13.20	-36.4	-37.8	16.3	0.00e+00	0	57	0	4479516672	42	4455
2026-01-06 15:12:53.41	331.07	13.11	-36.4	-37.8	16.3	0.00e+00	0	57	0	4486856704	42	4469
