passes_logs/2026/01/06/R2.0S_Moscow/R2.0S_Moscow__20260106_124458_AQUA_rec.log

#Pass ID: 20260106_124458_AQUA
#Satellite: AQUA
#Configuration: AQUA
#almurnet v.1.7.20251203
#Start time: 2026-01-06 12:44:59

#Version: 2.2.20231116
#Station: R2.0S_Moscow
#Location: 37.707566 lon 55.798166 lat
#TLE: 1 27424U 02022A   26004.96787593  .00001598  00000+0  32997-3 0  9996
#TLE: 2 27424  98.4069 331.2279 0002002  90.2377   0.6092 14.61798176259425

#Time	Az	El	Level	Level2	SNR	BER	BlckErr	Temp	State	Recorded	gain1	gain2
2026-01-06 12:44:59.10	196.34	2.03	-44.5	-63.5	3.8	7.43e-01	0	46	0	0	61	30551
2026-01-06 12:45:00.10	196.40	2.09	-44.6	-63.5	3.8	7.45e-01	0	46	104	0	60	32387
2026-01-06 12:45:01.11	196.47	2.16	-44.6	-63.5	3.8	7.46e-01	0	46	104	0	60	32385
2026-01-06 12:45:02.12	196.53	2.22	-44.6	-63.5	3.8	7.43e-01	0	47	104	0	60	32411
2026-01-06 12:45:03.13	196.60	2.28	-44.5	-63.5	3.8	7.47e-01	0	47	104	0	60	32391
2026-01-06 12:45:04.15	196.66	2.34	-44.6	-63.5	3.8	7.45e-01	0	47	104	0	60	32358
2026-01-06 12:45:05.15	196.73	2.40	-44.5	-63.5	3.8	7.44e-01	0	47	104	0	60	32352
2026-01-06 12:45:06.16	196.79	2.47	-44.5	-63.5	3.8	7.46e-01	0	47	104	0	60	32392
2026-01-06 12:45:07.17	196.86	2.53	-44.6	-63.5	3.8	7.43e-01	0	47	104	0	60	32376
2026-01-06 12:45:08.18	196.92	2.59	-44.5	-63.5	3.8	7.45e-01	0	47	104	0	60	32369
2026-01-06 12:45:09.20	196.99	2.66	-44.5	-63.5	3.8	7.45e-01	0	47	104	0	60	32341
2026-01-06 12:45:10.21	197.06	2.72	-44.5	-63.5	3.8	7.45e-01	0	47	104	0	60	32338
2026-01-06 12:45:11.22	197.12	2.78	-44.5	-63.5	3.8	7.48e-01	0	47	104	0	60	32378
2026-01-06 12:45:12.23	197.19	2.85	-44.5	-63.5	3.8	7.44e-01	0	48	104	0	60	32386
2026-01-06 12:45:13.24	197.26	2.91	-44.5	-63.5	3.8	7.46e-01	0	48	104	0	60	32328
2026-01-06 12:45:14.25	197.33	2.97	-44.5	-63.5	3.8	7.44e-01	0	48	104	0	60	32438
2026-01-06 12:45:15.26	197.39	3.04	-44.5	-63.5	3.8	7.46e-01	0	48	104	0	60	32316
2026-01-06 12:45:16.27	197.46	3.10	-44.5	-63.5	3.8	7.46e-01	0	48	104	0	60	32365
2026-01-06 12:45:17.28	197.53	3.16	-44.5	-63.5	3.8	7.45e-01	0	48	104	0	60	32368
2026-01-06 12:45:18.30	197.60	3.23	-44.5	-63.5	3.8	7.43e-01	0	48	104	0	60	32377
2026-01-06 12:45:19.31	197.67	3.29	-44.5	-63.5	3.8	7.44e-01	0	48	104	0	60	32320
2026-01-06 12:45:20.32	197.74	3.36	-44.5	-63.5	3.8	7.44e-01	0	48	104	0	60	32324
2026-01-06 12:45:21.33	197.81	3.42	-44.5	-63.5	3.8	7.43e-01	0	48	104	0	60	32338
2026-01-06 12:45:22.34	197.88	3.49	-44.5	-63.5	3.8	7.45e-01	0	48	104	0	60	32362
2026-01-06 12:45:23.35	197.95	3.55	-44.5	-63.5	3.8	7.45e-01	0	48	104	0	60	32354
2026-01-06 12:45:24.36	198.02	3.62	-44.5	-63.5	3.8	7.42e-01	0	48	104	0	60	32340
2026-01-06 12:45:25.37	198.09	3.68	-44.5	-63.5	3.8	7.49e-01	0	48	104	0	60	32312
2026-01-06 12:45:26.38	198.16	3.75	-44.5	-63.5	3.8	7.46e-01	0	48	104	0	60	32344
2026-01-06 12:45:27.39	198.24	3.81	-44.5	-63.5	3.8	7.45e-01	0	48	104	0	60	32286
2026-01-06 12:45:28.40	198.31	3.88	-44.5	-63.4	3.8	7.47e-01	0	49	104	0	60	32143
2026-01-06 12:45:29.41	198.38	3.94	-44.5	-63.4	3.8	7.46e-01	0	49	104	0	60	31984
2026-01-06 12:45:30.42	198.45	4.01	-44.5	-63.4	3.8	7.42e-01	0	49	104	0	60	31920
2026-01-06 12:45:31.43	198.53	4.07	-44.5	-63.3	3.8	7.44e-01	0	49	104	0	60	31653
2026-01-06 12:45:32.45	198.60	4.14	-44.5	-63.3	3.8	7.46e-01	0	49	104	0	60	31682
2026-01-06 12:45:33.46	198.67	4.21	-44.5	-63.4	3.8	7.43e-01	0	49	104	0	60	31948
2026-01-06 12:45:34.47	198.75	4.27	-44.5	-63.3	3.8	7.44e-01	0	49	104	0	60	31751
2026-01-06 12:45:35.48	198.82	4.34	-44.5	-63.3	3.8	7.45e-01	0	49	104	0	60	31547
2026-01-06 12:45:36.49	198.90	4.40	-44.5	-63.2	3.8	7.44e-01	0	49	104	0	60	31419
2026-01-06 12:45:37.50	198.97	4.47	-44.5	-63.3	3.8	7.46e-01	0	49	104	0	60	31568
2026-01-06 12:45:38.51	199.05	4.54	-44.5	-63.4	3.8	7.46e-01	0	49	104	0	60	31912
2026-01-06 12:45:39.52	199.13	4.61	-44.5	-63.3	3.8	7.44e-01	0	49	104	0	60	31792
2026-01-06 12:45:40.53	199.20	4.67	-44.5	-63.4	3.8	7.48e-01	0	49	104	0	60	31939
2026-01-06 12:45:41.54	199.28	4.74	-44.5	-63.5	3.8	7.46e-01	0	49	104	0	60	32232
2026-01-06 12:45:42.56	199.36	4.81	-44.5	-63.5	3.8	7.45e-01	0	49	104	0	60	32324
2026-01-06 12:45:43.57	199.43	4.88	-44.5	-63.5	3.8	7.42e-01	0	49	104	0	60	32239
2026-01-06 12:45:44.58	199.51	4.94	-44.5	-63.4	3.8	7.47e-01	0	49	104	0	60	32073
2026-01-06 12:45:45.59	199.59	5.01	-44.5	-63.2	3.8	7.43e-01	0	50	104	0	60	31425
2026-01-06 12:45:46.60	199.67	5.08	-44.5	-63.2	3.8	7.43e-01	0	50	104	0	60	31253
2026-01-06 12:45:47.61	199.75	5.15	-44.5	-63.4	3.8	7.44e-01	0	50	104	0	60	31829
2026-01-06 12:45:48.62	199.83	5.22	-44.5	-63.1	3.8	7.44e-01	0	50	104	0	60	30926
2026-01-06 12:45:49.63	199.91	5.28	-44.5	-62.8	3.8	7.46e-01	0	50	104	0	60	29964
2026-01-06 12:45:50.64	199.99	5.35	-44.5	-62.6	3.8	7.43e-01	0	50	104	0	60	29224
2026-01-06 12:45:51.65	200.07	5.42	-44.5	-62.6	3.8	7.49e-01	0	50	104	0	60	29334
2026-01-06 12:45:52.66	200.15	5.49	-44.5	-62.1	3.8	7.44e-01	0	50	104	0	60	27482
2026-01-06 12:45:53.67	200.23	5.56	-44.5	-60.9	4.0	7.40e-01	0	50	104	0	60	23983
2026-01-06 12:45:54.68	200.31	5.63	-44.4	-60.8	3.8	7.40e-01	0	50	104	0	60	23608
2026-01-06 12:45:55.69	200.40	5.70	-44.4	-59.7	4.2	7.32e-01	0	50	104	0	60	20954
2026-01-06 12:45:56.70	200.48	5.77	-44.4	-59.9	3.8	7.41e-01	0	50	104	0	60	21281
2026-01-06 12:45:57.71	200.56	5.84	-44.4	-59.3	4.0	7.38e-01	0	50	104	0	60	19954
2026-01-06 12:45:58.72	200.64	5.91	-44.4	-59.0	4.0	7.38e-01	0	50	104	0	60	19318
2026-01-06 12:45:59.73	200.73	5.98	-44.4	-59.4	3.9	7.38e-01	0	50	104	0	60	20174
2026-01-06 12:46:00.74	200.81	6.05	-44.4	-59.5	4.3	7.26e-01	0	50	104	0	60	20322
2026-01-06 12:46:01.75	200.90	6.12	-44.4	-60.7	3.9	7.43e-01	0	50	104	0	60	23499
2026-01-06 12:46:02.76	200.98	6.19	-44.5	-60.8	4.0	7.40e-01	0	50	104	0	60	23734
2026-01-06 12:46:03.77	201.07	6.26	-44.5	-61.8	3.8	7.46e-01	0	50	104	0	60	26527
2026-01-06 12:46:04.78	201.15	6.33	-44.5	-62.4	3.8	7.45e-01	0	50	104	0	60	28541
2026-01-06 12:46:05.80	201.24	6.40	-44.5	-62.4	3.8	7.46e-01	0	51	104	0	60	28502
2026-01-06 12:46:06.81	201.33	6.47	-44.5	-61.6	3.8	7.45e-01	0	51	104	0	60	25965
2026-01-06 12:46:07.82	201.42	6.55	-44.4	-60.1	3.9	7.40e-01	0	51	104	0	60	21986
2026-01-06 12:46:08.83	201.50	6.62	-44.4	-59.5	4.3	7.28e-01	0	51	104	0	60	20492
2026-01-06 12:46:09.84	201.59	6.69	-44.4	-59.6	4.0	7.36e-01	0	51	104	0	60	20743
2026-01-06 12:46:10.85	201.68	6.76	-44.4	-58.5	4.7	7.21e-01	0	51	104	0	60	18209
2026-01-06 12:46:11.86	201.77	6.83	-44.3	-57.3	5.3	7.01e-01	0	51	0	0	60	15869
2026-01-06 12:46:12.87	201.86	6.91	-44.2	-55.8	6.5	6.75e-01	92	51	0	1048576	60	13399
2026-01-06 12:46:13.88	201.95	6.98	-44.1	-55.2	7.0	6.64e-01	92	51	0	2621440	60	12431
2026-01-06 12:46:14.89	202.04	7.05	-44.1	-53.3	9.2	6.31e-01	0	51	0	4718592	59	10575
2026-01-06 12:46:15.90	202.13	7.12	-43.8	-51.4	11.2	6.14e-01	0	51	0	6815744	59	8518
2026-01-06 12:46:16.91	202.22	7.20	-43.5	-50.2	12.4	6.10e-01	0	51	0	8388608	59	7419
2026-01-06 12:46:17.93	202.32	7.27	-43.1	-48.9	13.9	6.08e-01	0	51	0	10485760	58	6729
2026-01-06 12:46:18.94	202.41	7.34	-42.6	-47.5	15.2	6.05e-01	0	51	0	12058624	57	6116
2026-01-06 12:46:19.95	202.50	7.42	-42.3	-46.7	16.0	6.05e-01	0	51	0	14155776	56	5920
2026-01-06 12:46:20.96	202.60	7.49	-41.8	-45.8	16.9	6.05e-01	0	51	0	16252928	55	5637
2026-01-06 12:46:21.97	202.69	7.56	-41.4	-45.0	17.7	6.06e-01	0	51	0	17825792	54	5461
2026-01-06 12:46:22.98	202.79	7.64	-41.0	-44.4	18.3	6.08e-01	0	51	0	19922944	54	5060
2026-01-06 12:46:23.99	202.88	7.71	-40.6	-43.8	18.9	6.07e-01	0	51	0	21495808	53	5013
2026-01-06 12:46:25.00	202.98	7.79	-40.6	-43.7	19.0	6.06e-01	0	51	0	23592960	53	4945
2026-01-06 12:46:26.01	203.07	7.86	-40.7	-43.8	19.0	6.06e-01	0	52	0	25690112	53	5009
2026-01-06 12:46:27.02	203.17	7.94	-40.7	-43.8	18.9	6.08e-01	0	51	0	27262976	53	5033
2026-01-06 12:46:28.03	203.27	8.01	-40.8	-44.0	18.7	6.06e-01	0	51	0	29360128	53	5119
2026-01-06 12:46:29.04	203.36	8.09	-40.4	-43.4	19.5	6.06e-01	0	52	0	30932992	52	5056
2026-01-06 12:46:30.05	203.46	8.16	-44.4	-60.3	4.0	7.46e-01	0	51	104	33030144	59	23772
2026-01-06 12:46:31.06	203.56	8.24	-42.7	-47.3	16.0	6.06e-01	0	51	0	33554432	55	6683
2026-01-06 12:46:32.07	203.66	8.31	-42.2	-46.2	16.9	6.07e-01	0	52	0	35651584	55	5883
2026-01-06 12:46:33.08	203.76	8.39	-43.4	-49.4	13.7	6.06e-01	0	52	0	37748736	57	7565
2026-01-06 12:46:34.09	203.86	8.47	-41.2	-44.5	18.3	6.08e-01	0	52	0	39321600	54	5114
2026-01-06 12:46:35.10	203.96	8.54	-40.8	-43.8	19.3	6.03e-01	0	52	0	41418752	53	5003
2026-01-06 12:46:36.11	204.06	8.62	-40.7	-43.7	19.3	6.05e-01	0	52	0	42991616	53	4980
2026-01-06 12:46:37.12	204.16	8.69	-40.6	-43.5	19.5	6.07e-01	0	52	0	45088768	53	4865
2026-01-06 12:46:38.13	204.27	8.77	-40.6	-43.5	19.5	6.07e-01	0	52	0	47185920	53	4859
2026-01-06 12:46:39.14	204.37	8.85	-40.5	-43.4	19.7	6.06e-01	0	52	0	48758784	53	4778
2026-01-06 12:46:40.15	204.47	8.93	-40.4	-43.1	20.0	6.07e-01	0	52	0	50855936	52	4903
2026-01-06 12:46:41.16	204.58	9.00	-40.4	-43.1	20.0	6.06e-01	0	52	0	52953088	52	4899
2026-01-06 12:46:42.17	204.68	9.08	-40.5	-43.3	19.8	6.05e-01	0	52	0	54525952	52	5038
2026-01-06 12:46:43.18	204.79	9.16	-40.4	-43.2	20.0	6.08e-01	0	52	0	56623104	52	4934
2026-01-06 12:46:44.19	204.89	9.24	-40.4	-43.1	20.1	6.07e-01	0	52	0	58195968	52	4907
2026-01-06 12:46:45.20	205.00	9.31	-40.3	-42.9	20.2	6.07e-01	0	52	0	60293120	52	4811
2026-01-06 12:46:46.21	205.11	9.39	-40.2	-42.9	20.3	6.07e-01	0	52	0	62390272	52	4789
2026-01-06 12:46:47.22	205.22	9.47	-40.1	-42.7	20.5	6.05e-01	0	52	0	63963136	52	4682
2026-01-06 12:46:48.22	205.32	9.55	-40.2	-42.8	20.4	6.07e-01	0	52	0	66060288	52	4733
2026-01-06 12:46:49.23	205.43	9.63	-40.1	-42.7	20.5	6.06e-01	0	52	0	67633152	52	4685
2026-01-06 12:46:50.24	205.54	9.71	-40.1	-42.7	20.5	6.09e-01	0	52	0	69730304	52	4695
2026-01-06 12:46:51.25	205.65	9.79	-40.2	-42.8	20.4	6.06e-01	0	52	0	71827456	52	4726
2026-01-06 12:46:52.26	205.76	9.87	-40.1	-42.7	20.6	6.08e-01	0	52	0	73400320	52	4656
2026-01-06 12:46:53.27	205.88	9.95	-40.0	-42.6	20.6	6.06e-01	0	52	0	75497472	52	4647
2026-01-06 12:46:54.28	205.99	10.03	-40.0	-42.5	20.7	6.07e-01	0	52	0	77070336	52	4596
2026-01-06 12:46:55.29	206.10	10.11	-40.0	-42.6	20.7	6.07e-01	0	52	0	79167488	52	4624
2026-01-06 12:46:56.30	206.21	10.19	-40.1	-42.7	20.7	6.07e-01	0	52	0	81264640	51	4946
2026-01-06 12:46:57.31	206.33	10.27	-40.1	-42.6	20.7	6.08e-01	0	52	0	82837504	51	4914
2026-01-06 12:46:58.32	206.44	10.35	-40.0	-42.5	20.8	6.07e-01	0	52	0	84934656	51	4857
2026-01-06 12:46:59.33	206.56	10.43	-40.1	-42.6	20.8	6.06e-01	0	52	0	86507520	51	4897
2026-01-06 12:47:00.34	206.67	10.51	-40.1	-42.6	20.8	6.06e-01	0	52	0	88604672	51	4900
2026-01-06 12:47:01.35	206.79	10.59	-40.1	-42.6	20.8	6.05e-01	0	53	0	90701824	51	4891
2026-01-06 12:47:02.36	206.91	10.67	-40.0	-42.5	20.9	6.06e-01	0	52	0	92274688	51	4854
2026-01-06 12:47:03.37	207.03	10.75	-40.0	-42.4	21.0	6.07e-01	0	53	0	94371840	51	4800
2026-01-06 12:47:04.38	207.15	10.84	-40.0	-42.4	21.0	6.07e-01	0	52	0	96468992	51	4799
2026-01-06 12:47:05.39	207.27	10.92	-40.0	-42.5	20.9	6.06e-01	0	53	0	98041856	51	4838
2026-01-06 12:47:06.40	207.39	11.00	-40.0	-42.4	21.0	6.06e-01	0	53	0	100139008	51	4804
2026-01-06 12:47:07.41	207.51	11.08	-40.0	-42.4	21.0	6.05e-01	0	53	0	101711872	51	4804
2026-01-06 12:47:08.42	207.63	11.17	-40.0	-42.4	21.1	6.06e-01	0	53	0	103809024	51	4784
2026-01-06 12:47:09.43	207.75	11.25	-39.9	-42.4	21.1	6.09e-01	0	52	0	105906176	51	4771
2026-01-06 12:47:10.44	207.87	11.33	-39.9	-42.3	21.1	6.07e-01	0	53	0	107479040	51	4748
2026-01-06 12:47:11.45	208.00	11.42	-39.9	-42.4	21.1	6.05e-01	0	53	0	109576192	51	4761
2026-01-06 12:47:12.46	208.12	11.50	-40.0	-42.4	21.0	6.08e-01	0	53	0	111149056	51	4814
2026-01-06 12:47:13.47	208.25	11.58	-40.0	-42.4	21.0	6.07e-01	0	52	0	113246208	51	4809
2026-01-06 12:47:14.49	208.38	11.67	-39.9	-42.3	21.2	6.07e-01	0	53	0	115343360	51	4712
2026-01-06 12:47:15.50	208.50	11.75	-39.9	-42.3	21.2	6.06e-01	0	53	0	116916224	51	4713
2026-01-06 12:47:16.51	208.63	11.84	-39.8	-42.1	21.4	6.08e-01	0	53	0	119013376	51	4629
2026-01-06 12:47:17.51	208.76	11.92	-39.8	-42.2	21.3	6.06e-01	0	53	0	121110528	51	4667
2026-01-06 12:47:18.53	208.89	12.01	-39.9	-42.2	21.3	6.05e-01	0	53	0	122683392	51	4688
2026-01-06 12:47:19.53	209.02	12.09	-39.9	-42.2	21.3	6.07e-01	0	53	0	124780544	51	4688
2026-01-06 12:47:20.54	209.15	12.17	-39.9	-42.2	21.3	6.08e-01	0	53	0	126353408	51	4700
2026-01-06 12:47:21.56	209.28	12.26	-39.7	-42.1	21.5	6.07e-01	0	53	0	128450560	51	4600
2026-01-06 12:47:22.57	209.41	12.35	-39.7	-41.9	21.6	6.07e-01	0	53	0	130547712	51	4529
2026-01-06 12:47:23.57	209.54	12.43	-39.6	-41.9	21.7	6.05e-01	0	53	0	132120576	51	4499
2026-01-06 12:47:24.58	209.68	12.52	-39.6	-41.9	21.7	6.06e-01	0	53	0	134217728	51	4497
2026-01-06 12:47:25.59	209.81	12.60	-39.6	-41.9	21.7	6.07e-01	0	53	0	135790592	51	4523
2026-01-06 12:47:26.61	209.95	12.69	-39.8	-42.1	21.5	6.05e-01	0	53	0	137887744	51	4601
2026-01-06 12:47:27.61	210.08	12.78	-39.8	-42.2	21.5	6.06e-01	0	53	0	139984896	51	4654
2026-01-06 12:47:28.62	210.22	12.86	-39.9	-42.2	21.4	6.08e-01	0	53	0	141557760	51	4666
2026-01-06 12:47:29.63	210.36	12.95	-39.8	-42.1	21.5	6.05e-01	0	53	0	143654912	51	4646
2026-01-06 12:47:30.65	210.50	13.04	-39.8	-42.1	21.5	6.08e-01	0	53	0	145227776	51	4642
2026-01-06 12:47:31.66	210.64	13.13	-39.8	-42.1	21.5	6.06e-01	0	53	0	147324928	51	4629
2026-01-06 12:47:32.67	210.78	13.21	-39.8	-42.1	21.5	6.08e-01	0	53	0	149422080	51	4612
2026-01-06 12:47:33.68	210.92	13.30	-39.8	-42.1	21.5	6.07e-01	0	53	0	150994944	51	4620
2026-01-06 12:47:34.69	211.06	13.39	-39.8	-42.1	20.4	6.06e-01	0	53	0	153092096	51	4635
2026-01-06 12:47:35.70	211.21	13.48	-39.8	-42.1	21.5	6.05e-01	0	53	0	154664960	51	4626
2026-01-06 12:47:36.71	211.35	13.57	-39.7	-42.0	21.6	6.06e-01	0	53	0	156762112	51	4565
2026-01-06 12:47:37.72	211.50	13.66	-39.7	-41.9	21.7	6.07e-01	0	53	0	158859264	51	4523
2026-01-06 12:47:38.73	211.64	13.74	-39.6	-41.9	21.8	6.06e-01	0	53	0	160432128	51	4502
2026-01-06 12:47:39.74	211.79	13.83	-39.7	-41.9	21.7	6.04e-01	0	53	0	162529280	51	4544
2026-01-06 12:47:40.75	211.94	13.92	-39.7	-42.0	21.7	6.06e-01	0	53	0	164626432	51	4558
2026-01-06 12:47:41.76	212.09	14.01	-39.6	-41.9	21.8	6.09e-01	0	53	0	166199296	51	4501
2026-01-06 12:47:42.77	212.24	14.10	-39.8	-42.1	21.6	6.06e-01	0	53	0	168296448	51	4609
2026-01-06 12:47:43.77	212.39	14.19	-39.7	-41.9	21.8	6.05e-01	0	53	0	169869312	51	4514
2026-01-06 12:47:44.78	212.54	14.28	-39.7	-41.9	21.7	6.09e-01	0	53	0	171966464	51	4531
2026-01-06 12:47:45.79	212.69	14.37	-39.6	-41.8	21.9	6.09e-01	0	53	0	174063616	51	4443
2026-01-06 12:47:46.80	212.84	14.46	-39.7	-41.9	21.8	6.07e-01	0	53	0	175636480	51	4505
2026-01-06 12:47:47.81	213.00	14.55	-39.7	-42.0	21.7	6.06e-01	0	53	0	177733632	51	4548
2026-01-06 12:47:48.82	213.15	14.64	-39.6	-41.8	21.9	6.08e-01	0	53	0	179306496	51	4476
2026-01-06 12:47:49.83	213.31	14.73	-39.7	-42.0	21.7	6.06e-01	0	54	0	181403648	51	4552
2026-01-06 12:47:50.84	213.47	14.82	-39.7	-41.9	21.7	6.07e-01	0	53	0	183500800	51	4542
2026-01-06 12:47:51.85	213.63	14.92	-39.7	-41.9	21.8	6.08e-01	0	53	0	185073664	51	4540
2026-01-06 12:47:52.86	213.79	15.01	-39.7	-41.9	21.8	6.04e-01	0	53	0	187170816	51	4529
2026-01-06 12:47:53.87	213.95	15.10	-39.7	-41.9	21.8	6.06e-01	0	53	0	189267968	51	4509
2026-01-06 12:47:54.88	214.11	15.19	-39.7	-42.0	21.8	6.05e-01	0	54	0	190840832	51	4551
2026-01-06 12:47:55.89	214.27	15.28	-39.6	-41.8	21.9	6.07e-01	0	54	0	192937984	51	4475
2026-01-06 12:47:56.90	214.43	15.38	-39.6	-41.8	22.0	6.08e-01	0	53	0	194510848	51	4446
2026-01-06 12:47:57.91	214.60	15.47	-39.6	-41.7	22.0	6.05e-01	0	54	0	196608000	51	4430
2026-01-06 12:47:58.92	214.76	15.56	-39.6	-41.8	22.0	6.09e-01	0	54	0	198705152	51	4466
2026-01-06 12:47:59.93	214.93	15.65	-39.6	-41.8	22.0	6.06e-01	0	53	0	200278016	51	4459
2026-01-06 12:48:00.94	215.10	15.75	-39.5	-41.7	22.1	6.05e-01	0	54	0	202375168	51	4399
2026-01-06 12:48:01.96	215.27	15.84	-39.6	-41.8	22.0	6.04e-01	0	54	0	204472320	50	4726
2026-01-06 12:48:02.96	215.44	15.93	-39.7	-41.9	21.9	6.08e-01	0	53	0	206045184	50	4760
2026-01-06 12:48:03.97	215.61	16.03	-39.7	-41.9	21.8	6.07e-01	0	54	0	208142336	50	4814
2026-01-06 12:48:04.99	215.78	16.12	-39.7	-41.8	21.9	6.07e-01	0	54	0	209715200	50	4759
2026-01-06 12:48:06.00	215.96	16.21	-39.5	-41.6	22.1	6.07e-01	0	54	0	211812352	50	4644
2026-01-06 12:48:07.00	216.13	16.31	-39.4	-41.5	22.2	6.05e-01	0	54	0	213909504	50	4591
2026-01-06 12:48:08.01	216.31	16.40	-39.4	-41.5	22.3	6.05e-01	0	54	0	215482368	50	4575
2026-01-06 12:48:09.02	216.48	16.50	-39.4	-41.5	22.3	6.05e-01	0	54	0	217579520	50	4583
2026-01-06 12:48:10.03	216.66	16.59	-39.5	-41.6	22.2	6.06e-01	0	54	0	219152384	50	4634
2026-01-06 12:48:11.04	216.84	16.68	-39.5	-41.6	22.2	6.05e-01	0	54	0	221249536	50	4637
2026-01-06 12:48:12.05	217.02	16.78	-39.6	-41.7	22.1	6.05e-01	0	54	0	222822400	50	4688
2026-01-06 12:48:13.06	217.20	16.87	-39.5	-41.6	22.2	6.07e-01	0	54	0	224919552	50	4614
2026-01-06 12:48:14.07	217.38	16.97	-39.4	-41.5	22.3	6.08e-01	0	54	0	227016704	50	4557
2026-01-06 12:48:15.08	217.57	17.06	-39.5	-41.7	22.1	6.08e-01	0	54	0	228589568	50	4662
2026-01-06 12:48:16.09	217.75	17.16	-39.6	-41.8	22.0	6.07e-01	0	54	0	230686720	50	4715
2026-01-06 12:48:17.10	217.94	17.26	-39.5	-41.6	22.2	6.09e-01	0	54	0	232783872	50	4647
2026-01-06 12:48:18.11	218.13	17.35	-39.4	-41.5	22.3	6.09e-01	0	54	0	234356736	50	4598
2026-01-06 12:48:19.12	218.32	17.45	-39.4	-41.4	22.4	6.07e-01	0	54	0	236453888	50	4535
2026-01-06 12:48:20.13	218.51	17.54	-39.3	-41.4	22.3	6.06e-01	0	54	0	238026752	50	4534
2026-01-06 12:48:21.14	218.70	17.64	-39.3	-41.3	22.5	6.07e-01	0	54	0	240123904	50	4481
2026-01-06 12:48:22.15	218.89	17.73	-39.4	-41.5	22.3	6.06e-01	0	54	0	242221056	50	4565
2026-01-06 12:48:23.16	219.08	17.83	-39.4	-41.5	22.4	6.07e-01	0	54	0	243793920	50	4556
2026-01-06 12:48:24.17	219.28	17.93	-39.4	-41.5	22.4	6.07e-01	0	54	0	245891072	50	4550
2026-01-06 12:48:25.17	219.47	18.02	-39.4	-41.4	22.4	6.06e-01	0	54	0	247463936	50	4544
2026-01-06 12:48:26.18	219.67	18.12	-39.5	-41.6	22.2	6.07e-01	0	54	0	249561088	50	4630
2026-01-06 12:48:27.19	219.87	18.22	-39.5	-41.6	22.2	6.05e-01	0	54	0	251658240	50	4627
2026-01-06 12:48:28.20	220.07	18.31	-39.4	-41.5	22.3	6.05e-01	0	54	0	253231104	50	4595
2026-01-06 12:48:29.21	220.27	18.41	-39.4	-41.5	22.3	6.06e-01	0	54	0	255328256	50	4568
2026-01-06 12:48:30.22	220.47	18.51	-39.3	-41.4	22.5	6.05e-01	0	54	0	257425408	50	4514
2026-01-06 12:48:31.23	220.68	18.60	-39.3	-41.4	22.5	6.08e-01	0	54	0	258998272	50	4523
2026-01-06 12:48:32.24	220.88	18.70	-39.3	-41.4	22.4	6.06e-01	0	54	0	261095424	50	4526
2026-01-06 12:48:33.25	221.09	18.80	-39.4	-41.5	22.3	6.06e-01	0	54	0	262668288	50	4578
2026-01-06 12:48:34.25	221.30	18.89	-39.4	-41.4	22.5	6.08e-01	0	54	0	264765440	50	4539
2026-01-06 12:48:35.26	221.51	18.99	-39.4	-41.5	22.4	6.06e-01	0	54	0	266862592	50	4588
2026-01-06 12:48:36.27	221.72	19.09	-39.5	-41.6	22.3	6.06e-01	0	54	0	268435456	50	4625
2026-01-06 12:48:37.28	221.93	19.18	-39.4	-41.5	22.3	6.07e-01	0	54	0	270532608	50	4581
2026-01-06 12:48:38.29	222.14	19.28	-39.4	-41.5	22.3	6.07e-01	0	54	0	272105472	50	4595
2026-01-06 12:48:39.30	222.36	19.38	-39.5	-41.5	22.3	6.07e-01	0	54	0	274202624	50	4596
2026-01-06 12:48:40.31	222.58	19.48	-39.4	-41.5	22.3	6.08e-01	0	54	0	276299776	50	4584
2026-01-06 12:48:41.32	222.79	19.57	-39.4	-41.5	22.3	6.05e-01	0	54	0	277872640	50	4585
2026-01-06 12:48:42.33	223.01	19.67	-39.5	-41.6	22.4	6.08e-01	0	54	0	279969792	50	4605
2026-01-06 12:48:43.34	223.23	19.77	-39.5	-41.6	22.3	6.07e-01	0	54	0	281542656	50	4627
2026-01-06 12:48:44.35	223.46	19.87	-39.5	-41.5	22.3	6.04e-01	0	54	0	283639808	50	4597
2026-01-06 12:48:45.36	223.68	19.96	-39.5	-41.6	22.3	6.05e-01	0	54	0	285736960	50	4629
2026-01-06 12:48:46.37	223.91	20.06	-39.6	-41.7	22.2	6.07e-01	0	54	0	287309824	50	4664
2026-01-06 12:48:47.38	224.13	20.16	-39.6	-41.8	22.2	6.07e-01	0	54	0	289406976	50	4707
2026-01-06 12:48:48.39	224.36	20.26	-39.6	-41.7	22.2	6.05e-01	0	54	0	290979840	50	4693
2026-01-06 12:48:49.40	224.59	20.35	-39.5	-41.6	22.3	6.05e-01	0	54	0	293076992	50	4617
2026-01-06 12:48:50.41	224.82	20.45	-39.4	-41.5	22.4	6.07e-01	0	54	0	295174144	50	4572
2026-01-06 12:48:51.42	225.06	20.55	-39.5	-41.6	22.3	6.07e-01	0	54	0	296747008	50	4617
2026-01-06 12:48:52.43	225.29	20.65	-39.6	-41.7	22.2	6.07e-01	0	54	0	298844160	50	4662
2026-01-06 12:48:53.44	225.53	20.74	-39.5	-41.6	22.3	6.07e-01	0	54	0	300941312	50	4635
2026-01-06 12:48:54.45	225.76	20.84	-39.5	-41.6	22.3	6.08e-01	0	54	0	302514176	50	4645
2026-01-06 12:48:55.46	226.00	20.94	-39.5	-41.6	22.3	6.06e-01	0	54	0	304611328	50	4646
2026-01-06 12:48:56.47	226.24	21.04	-39.5	-41.7	22.2	6.07e-01	0	54	0	306184192	50	4653
2026-01-06 12:48:57.48	226.49	21.13	-39.5	-41.6	22.3	6.08e-01	0	54	0	308281344	50	4644
2026-01-06 12:48:58.49	226.73	21.23	-39.6	-41.7	22.2	6.06e-01	0	54	0	310378496	50	4683
2026-01-06 12:48:59.50	226.97	21.33	-39.6	-41.7	22.3	6.06e-01	0	54	0	311951360	50	4663
2026-01-06 12:49:00.51	227.22	21.42	-39.6	-41.7	22.2	6.05e-01	0	54	0	314048512	50	4664
2026-01-06 12:49:01.52	227.47	21.52	-39.5	-41.5	22.4	6.06e-01	0	54	0	315621376	50	4588
2026-01-06 12:49:02.53	227.72	21.62	-39.5	-41.6	22.3	6.04e-01	0	54	0	317718528	50	4635
2026-01-06 12:49:03.54	227.97	21.71	-39.6	-41.8	22.2	6.05e-01	0	54	0	319815680	50	4715
2026-01-06 12:49:04.54	228.22	21.81	-39.7	-41.9	22.1	6.06e-01	0	54	0	321388544	50	4760
2026-01-06 12:49:05.55	228.48	21.90	-39.6	-41.7	22.2	6.06e-01	0	54	0	323485696	50	4686
2026-01-06 12:49:06.56	228.73	22.00	-39.5	-41.6	22.4	6.05e-01	0	54	0	325582848	50	4611
2026-01-06 12:49:07.57	228.99	22.10	-39.7	-41.8	22.1	6.05e-01	0	54	0	327155712	50	4746
2026-01-06 12:49:08.58	229.25	22.19	-39.6	-41.7	22.2	6.07e-01	0	54	0	329252864	50	4695
2026-01-06 12:49:09.59	229.51	22.29	-39.6	-41.7	22.2	6.07e-01	0	54	0	330825728	50	4699
2026-01-06 12:49:10.60	229.78	22.38	-39.7	-41.8	22.1	6.05e-01	0	54	0	332922880	50	4743
2026-01-06 12:49:11.61	230.04	22.48	-39.7	-41.9	22.0	6.07e-01	0	54	0	335020032	50	4802
2026-01-06 12:49:12.62	230.31	22.57	-39.7	-41.9	22.1	6.06e-01	0	54	0	336592896	50	4773
2026-01-06 12:49:13.63	230.58	22.67	-39.6	-41.8	22.1	6.05e-01	0	54	0	338690048	50	4739
2026-01-06 12:49:14.64	230.84	22.76	-39.7	-41.8	22.1	6.07e-01	0	54	0	340262912	50	4747
2026-01-06 12:49:15.65	231.12	22.86	-39.7	-41.9	22.0	6.07e-01	0	54	0	342360064	50	4798
2026-01-06 12:49:16.66	231.39	22.95	-39.7	-41.8	22.1	6.06e-01	0	54	0	344457216	50	4731
2026-01-06 12:49:17.67	231.66	23.04	-39.6	-41.7	22.3	6.06e-01	0	54	0	346030080	50	4673
2026-01-06 12:49:18.68	231.94	23.14	-39.7	-41.8	22.1	6.06e-01	0	54	0	348127232	50	4733
2026-01-06 12:49:19.69	232.22	23.23	-39.8	-41.9	22.0	6.06e-01	0	54	0	349700096	50	4807
2026-01-06 12:49:20.70	232.50	23.32	-39.7	-41.8	22.1	6.05e-01	0	54	0	351797248	50	4743
2026-01-06 12:49:21.71	232.78	23.41	-39.7	-41.9	22.1	6.07e-01	0	54	0	353894400	50	4760
2026-01-06 12:49:22.72	233.06	23.51	-39.8	-42.0	22.0	6.07e-01	0	54	0	355467264	50	4833
2026-01-06 12:49:23.73	233.35	23.60	-39.8	-42.0	22.0	6.05e-01	0	55	0	357564416	50	4818
2026-01-06 12:49:24.74	233.64	23.69	-39.7	-41.9	22.1	6.09e-01	0	54	0	359137280	50	4783
2026-01-06 12:49:25.75	233.92	23.78	-39.9	-42.0	21.9	6.04e-01	0	54	0	361234432	50	4868
2026-01-06 12:49:26.76	234.21	23.87	-39.8	-41.9	22.0	6.05e-01	0	55	0	363331584	50	4809
2026-01-06 12:49:27.77	234.51	23.96	-39.8	-41.9	22.0	6.07e-01	0	54	0	364904448	50	4796
2026-01-06 12:49:28.79	234.80	24.05	-39.9	-42.1	21.9	6.06e-01	0	55	0	367001600	50	4895
2026-01-06 12:49:29.80	235.10	24.14	-39.8	-41.9	22.0	6.06e-01	0	54	0	369098752	50	4809
2026-01-06 12:49:30.81	235.39	24.23	-39.8	-42.0	22.0	6.08e-01	0	55	0	370671616	50	4833
2026-01-06 12:49:31.81	235.69	24.32	-39.8	-42.0	21.9	6.09e-01	0	55	0	372768768	50	4852
2026-01-06 12:49:32.82	235.99	24.40	-39.9	-42.1	21.9	6.07e-01	0	55	0	374341632	50	4877
2026-01-06 12:49:33.83	236.29	24.49	-39.9	-42.1	21.9	6.06e-01	0	54	0	376438784	50	4889
2026-01-06 12:49:34.84	236.60	24.58	-39.8	-42.0	22.0	6.06e-01	0	54	0	378535936	50	4853
2026-01-06 12:49:35.85	236.90	24.67	-39.9	-42.1	21.9	6.06e-01	0	55	0	380108800	50	4879
2026-01-06 12:49:36.86	237.21	24.75	-39.8	-41.9	22.0	6.07e-01	0	55	0	382205952	50	4790
2026-01-06 12:49:37.87	237.52	24.84	-39.8	-42.0	22.0	6.06e-01	0	55	0	383778816	50	4836
2026-01-06 12:49:38.88	237.83	24.92	-39.8	-42.0	21.9	6.07e-01	0	55	0	385875968	50	4859
2026-01-06 12:49:39.89	238.14	25.01	-39.8	-42.0	22.0	6.04e-01	0	54	0	387973120	50	4849
2026-01-06 12:49:40.90	238.46	25.09	-39.8	-42.0	22.0	6.06e-01	0	55	0	389545984	50	4836
2026-01-06 12:49:41.91	238.77	25.17	-39.7	-41.9	22.1	6.07e-01	0	55	0	391643136	50	4763
2026-01-06 12:49:42.92	239.09	25.26	-39.8	-42.0	22.0	6.06e-01	0	55	0	393740288	50	4820
2026-01-06 12:49:43.93	239.41	25.34	-39.9	-42.0	22.0	6.07e-01	0	54	0	395313152	50	4867
2026-01-06 12:49:44.94	239.73	25.42	-39.7	-41.8	22.1	6.07e-01	0	55	0	397410304	50	4741
2026-01-06 12:49:45.95	240.05	25.50	-39.8	-41.9	22.0	6.07e-01	0	54	0	398983168	50	4811
2026-01-06 12:49:46.96	240.38	25.58	-39.9	-42.1	21.9	6.06e-01	0	55	0	401080320	50	4874
2026-01-06 12:49:47.96	240.70	25.66	-39.7	-41.9	22.1	6.07e-01	0	55	0	403177472	50	4781
2026-01-06 12:49:48.97	241.03	25.74	-39.7	-41.8	22.2	6.06e-01	0	55	0	404750336	50	4746
2026-01-06 12:49:49.98	241.35	25.81	-39.8	-41.9	22.1	6.07e-01	0	55	0	406847488	50	4808
2026-01-06 12:49:50.99	241.69	25.89	-39.8	-42.0	22.0	6.07e-01	0	55	0	408420352	50	4823
2026-01-06 12:49:52.00	242.02	25.97	-39.8	-42.0	22.0	6.06e-01	0	55	0	410517504	50	4837
2026-01-06 12:49:53.01	242.35	26.04	-39.8	-41.9	22.0	6.08e-01	0	54	0	412614656	50	4800
2026-01-06 12:49:54.02	242.69	26.12	-39.9	-42.1	21.9	6.05e-01	0	55	0	414187520	50	4877
2026-01-06 12:49:55.03	243.02	26.19	-39.8	-41.9	22.0	6.06e-01	0	55	0	416284672	50	4807
2026-01-06 12:49:56.04	243.36	26.27	-39.7	-41.9	22.1	6.06e-01	0	55	0	417857536	50	4776
2026-01-06 12:49:57.05	243.70	26.34	-40.0	-42.2	21.9	6.05e-01	0	55	0	419954688	50	4938
2026-01-06 12:49:58.06	244.05	26.41	-40.0	-42.2	21.8	6.07e-01	0	55	0	422051840	50	4937
2026-01-06 12:49:59.07	244.39	26.48	-39.8	-42.0	22.0	6.04e-01	0	55	0	423624704	50	4829
2026-01-06 12:50:00.08	244.74	26.55	-39.8	-42.0	22.0	6.07e-01	0	55	0	425721856	50	4837
2026-01-06 12:50:01.09	245.08	26.62	-39.8	-41.9	22.1	6.05e-01	0	55	0	427294720	50	4800
2026-01-06 12:50:02.10	245.43	26.69	-39.9	-42.0	21.9	6.08e-01	0	55	0	429391872	50	4861
2026-01-06 12:50:03.11	245.78	26.76	-39.7	-41.8	22.1	6.07e-01	0	55	0	431489024	50	4754
2026-01-06 12:50:04.12	246.13	26.82	-39.7	-41.8	22.2	6.06e-01	0	55	0	433061888	50	4740
2026-01-06 12:50:05.13	246.48	26.89	-39.8	-42.0	22.1	6.08e-01	0	55	0	435159040	50	4818
2026-01-06 12:50:06.14	246.84	26.95	-39.8	-42.0	22.0	6.06e-01	0	55	0	437256192	50	4835
2026-01-06 12:50:07.15	247.19	27.02	-39.7	-41.8	22.2	6.07e-01	0	55	0	438829056	50	4742
2026-01-06 12:50:08.16	247.55	27.08	-39.8	-42.0	22.0	6.06e-01	0	55	0	440926208	50	4843
2026-01-06 12:50:09.17	247.91	27.14	-39.8	-42.0	22.0	6.04e-01	0	55	0	442499072	50	4825
2026-01-06 12:50:10.18	248.27	27.20	-39.6	-41.7	22.3	6.06e-01	0	55	0	444596224	50	4696
2026-01-06 12:50:11.19	248.63	27.26	-39.7	-41.9	22.1	6.05e-01	0	55	0	446693376	50	4781
2026-01-06 12:50:12.20	248.99	27.32	-39.8	-41.9	22.1	6.07e-01	0	55	0	448266240	50	4782
2026-01-06 12:50:13.21	249.36	27.38	-39.7	-41.8	22.2	6.07e-01	0	55	0	450363392	50	4721
2026-01-06 12:50:14.22	249.72	27.43	-39.8	-41.9	22.1	6.05e-01	0	55	0	451936256	50	4804
2026-01-06 12:50:15.23	250.09	27.49	-39.8	-41.9	22.1	6.06e-01	0	55	0	454033408	50	4796
2026-01-06 12:50:16.24	250.46	27.54	-39.6	-41.7	22.3	6.08e-01	0	55	0	456130560	50	4674
2026-01-06 12:50:17.25	250.83	27.60	-39.8	-41.9	22.1	6.07e-01	0	55	0	457703424	50	4788
2026-01-06 12:50:18.26	251.20	27.65	-39.7	-41.9	22.1	6.09e-01	0	55	0	459800576	50	4775
2026-01-06 12:50:19.27	251.57	27.70	-39.6	-41.7	22.3	6.07e-01	0	55	0	461897728	50	4653
2026-01-06 12:50:20.28	251.94	27.75	-39.7	-41.8	22.2	6.06e-01	0	55	0	463470592	50	4714
2026-01-06 12:50:21.29	252.32	27.80	-39.8	-41.9	22.1	6.05e-01	0	55	0	465567744	50	4798
2026-01-06 12:50:22.30	252.69	27.84	-39.7	-41.8	22.2	6.06e-01	0	55	0	467140608	50	4753
2026-01-06 12:50:23.31	253.07	27.89	-39.7	-41.8	22.2	6.08e-01	0	55	0	469237760	50	4745
2026-01-06 12:50:24.32	253.44	27.94	-39.6	-41.7	22.4	6.07e-01	0	55	0	471334912	50	4662
2026-01-06 12:50:25.32	253.82	27.98	-39.7	-41.8	22.3	6.08e-01	0	55	0	472907776	50	4714
2026-01-06 12:50:26.33	254.20	28.02	-39.6	-41.7	22.3	6.06e-01	0	55	0	475004928	50	4699
2026-01-06 12:50:27.34	254.58	28.06	-39.6	-41.7	22.3	6.09e-01	0	55	0	476577792	50	4655
2026-01-06 12:50:28.35	254.96	28.10	-39.6	-41.7	22.3	6.05e-01	0	55	0	478674944	50	4662
2026-01-06 12:50:29.36	255.34	28.14	-39.6	-41.7	22.3	6.06e-01	0	55	0	480772096	50	4681
2026-01-06 12:50:30.37	255.73	28.18	-39.6	-41.7	22.4	6.05e-01	0	55	0	482344960	50	4656
2026-01-06 12:50:31.38	256.11	28.22	-39.5	-41.6	22.4	6.07e-01	0	55	0	484442112	50	4631
2026-01-06 12:50:32.39	256.49	28.25	-39.5	-41.6	22.4	6.06e-01	0	55	0	486014976	50	4603
2026-01-06 12:50:33.40	256.88	28.28	-39.5	-41.5	22.5	6.05e-01	0	55	0	488112128	50	4571
2026-01-06 12:50:34.41	257.27	28.32	-39.6	-41.7	22.3	6.09e-01	0	55	0	490209280	50	4681
2026-01-06 12:50:35.42	257.65	28.35	-39.5	-41.6	22.4	6.06e-01	0	55	0	491782144	50	4617
2026-01-06 12:50:36.43	258.04	28.38	-39.5	-41.5	22.5	6.06e-01	0	55	0	493879296	50	4571
2026-01-06 12:50:37.44	258.43	28.41	-39.4	-41.5	22.5	6.06e-01	0	55	0	495452160	50	4567
2026-01-06 12:50:38.45	258.82	28.43	-39.6	-41.6	22.4	6.06e-01	0	55	0	497549312	50	4648
2026-01-06 12:50:39.46	259.21	28.46	-39.5	-41.5	22.5	6.06e-01	0	55	0	499646464	50	4594
2026-01-06 12:50:40.47	259.60	28.48	-39.6	-41.6	22.4	6.05e-01	0	55	0	501219328	50	4645
2026-01-06 12:50:41.48	259.99	28.51	-39.4	-41.5	22.5	6.05e-01	0	55	0	503316480	50	4550
2026-01-06 12:50:42.49	260.39	28.53	-39.5	-41.6	22.4	6.08e-01	0	55	0	505413632	50	4615
2026-01-06 12:50:43.50	260.78	28.55	-39.6	-41.7	22.3	6.05e-01	0	55	0	506986496	50	4672
2026-01-06 12:50:44.51	261.17	28.57	-39.4	-41.4	22.6	6.06e-01	0	55	0	509083648	50	4518
2026-01-06 12:50:45.52	261.56	28.58	-39.4	-41.5	22.6	6.08e-01	0	55	0	510656512	50	4549
2026-01-06 12:50:46.53	261.96	28.60	-39.6	-41.7	21.5	6.06e-01	0	55	0	512753664	50	4653
2026-01-06 12:50:47.53	262.35	28.61	-39.5	-41.6	22.5	6.07e-01	0	55	0	514850816	50	4606
2026-01-06 12:50:48.54	262.74	28.63	-39.4	-41.5	22.5	6.05e-01	0	55	0	516423680	50	4557
2026-01-06 12:50:49.55	263.14	28.64	-39.5	-41.5	22.5	6.07e-01	0	55	0	518520832	50	4568
2026-01-06 12:50:50.56	263.53	28.65	-39.4	-41.4	22.6	6.07e-01	0	55	0	520093696	50	4537
2026-01-06 12:50:51.57	263.93	28.66	-39.3	-41.3	22.6	6.02e-01	0	55	0	522190848	50	4493
2026-01-06 12:50:52.59	264.33	28.67	-39.5	-41.5	22.5	6.06e-01	0	55	0	524288000	50	4572
2026-01-06 12:50:53.60	264.72	28.67	-39.5	-41.5	22.5	6.06e-01	0	55	0	525860864	50	4587
2026-01-06 12:50:54.60	265.11	28.68	-39.3	-41.3	22.7	6.05e-01	0	55	0	527958016	50	4491
2026-01-06 12:50:55.61	265.51	28.68	-39.3	-41.3	22.7	6.06e-01	0	55	0	530055168	50	4463
2026-01-06 12:50:56.62	265.90	28.68	-39.6	-41.7	22.4	6.07e-01	0	55	0	531628032	50	4678
2026-01-06 12:50:57.63	266.30	28.68	-39.4	-41.4	22.6	6.06e-01	0	55	0	533725184	50	4540
2026-01-06 12:50:58.64	266.70	28.68	-39.2	-41.2	22.8	6.04e-01	0	55	0	535298048	50	4408
2026-01-06 12:50:59.65	267.09	28.68	-39.4	-41.4	22.6	6.06e-01	0	55	0	537395200	50	4514
2026-01-06 12:51:00.66	267.49	28.68	-39.4	-41.4	22.6	6.07e-01	0	55	0	539492352	50	4527
2026-01-06 12:51:01.67	267.88	28.67	-39.3	-41.3	22.8	6.06e-01	0	55	0	541065216	50	4452
2026-01-06 12:51:02.68	268.28	28.66	-39.4	-41.4	22.6	6.08e-01	0	55	0	543162368	50	4537
2026-01-06 12:51:03.69	268.67	28.66	-39.3	-41.3	22.7	6.06e-01	0	55	0	544735232	50	4484
2026-01-06 12:51:04.70	269.07	28.65	-39.2	-41.2	22.8	6.06e-01	0	55	0	546832384	50	4429
2026-01-06 12:51:05.71	269.46	28.63	-39.2	-41.2	22.8	6.06e-01	0	55	0	548929536	50	4420
2026-01-06 12:51:06.72	269.86	28.62	-39.4	-41.4	22.6	6.07e-01	0	55	0	550502400	50	4518
2026-01-06 12:51:07.73	270.25	28.61	-39.3	-41.3	22.7	6.05e-01	0	55	0	552599552	50	4481
2026-01-06 12:51:08.74	270.65	28.59	-39.2	-41.2	22.9	6.09e-01	0	55	0	554172416	50	4400
2026-01-06 12:51:09.75	271.04	28.58	-39.2	-41.1	22.9	6.05e-01	0	55	0	556269568	50	4382
2026-01-06 12:51:10.76	271.43	28.56	-39.3	-41.3	22.8	6.08e-01	0	55	0	558366720	50	4452
2026-01-06 12:51:11.77	271.82	28.54	-39.3	-41.3	22.7	6.07e-01	0	55	0	559939584	50	4480
2026-01-06 12:51:12.78	272.22	28.52	-39.2	-41.2	22.8	6.08e-01	0	55	0	562036736	50	4394
2026-01-06 12:51:13.78	272.60	28.50	-39.2	-41.2	22.8	6.07e-01	0	55	0	563609600	50	4421
2026-01-06 12:51:14.79	272.99	28.47	-39.3	-41.3	22.7	6.05e-01	0	55	0	565706752	50	4445
2026-01-06 12:51:15.80	273.38	28.45	-39.2	-41.2	22.8	6.08e-01	0	55	0	567803904	50	4412
2026-01-06 12:51:16.81	273.77	28.42	-39.2	-41.2	22.8	6.06e-01	0	55	0	569376768	50	4422
2026-01-06 12:51:17.82	274.16	28.40	-39.2	-41.2	22.8	6.05e-01	0	55	0	571473920	50	4426
2026-01-06 12:51:18.83	274.55	28.37	-39.2	-41.2	22.8	6.05e-01	0	55	0	573046784	50	4410
2026-01-06 12:51:19.84	274.94	28.34	-39.3	-41.3	22.7	6.07e-01	0	55	0	575143936	50	4482
2026-01-06 12:51:20.85	275.32	28.31	-39.3	-41.3	22.7	6.04e-01	0	55	0	577241088	50	4465
2026-01-06 12:51:21.86	275.71	28.27	-39.4	-41.4	22.6	6.06e-01	0	55	0	578813952	50	4513
2026-01-06 12:51:22.87	276.09	28.24	-39.2	-41.2	22.8	6.06e-01	0	55	0	580911104	50	4410
2026-01-06 12:51:23.88	276.48	28.20	-39.2	-41.2	22.8	6.05e-01	0	55	0	583008256	50	4415
2026-01-06 12:51:24.89	276.86	28.17	-39.3	-41.3	22.7	6.08e-01	0	55	0	584581120	50	4468
2026-01-06 12:51:25.90	277.24	28.13	-39.2	-41.1	22.8	6.07e-01	0	55	0	586678272	50	4379
2026-01-06 12:51:26.91	277.62	28.09	-39.3	-41.3	22.7	6.06e-01	0	55	0	588251136	50	4467
2026-01-06 12:51:27.92	278.00	28.05	-39.3	-41.2	22.7	6.07e-01	0	55	0	590348288	50	4438
2026-01-06 12:51:28.93	278.38	28.01	-39.2	-41.2	22.8	6.08e-01	0	55	0	592445440	50	4420
2026-01-06 12:51:29.94	278.76	27.96	-39.2	-41.1	22.8	6.06e-01	0	55	0	594018304	50	4390
2026-01-06 12:51:30.95	279.14	27.92	-39.2	-41.2	22.8	6.05e-01	0	55	0	596115456	50	4406
2026-01-06 12:51:31.96	279.52	27.87	-39.3	-41.3	22.7	6.06e-01	0	55	0	598212608	50	4453
2026-01-06 12:51:32.97	279.89	27.83	-39.3	-41.3	22.6	6.06e-01	0	55	0	599785472	50	4491
2026-01-06 12:51:33.98	280.26	27.78	-39.3	-41.3	22.7	6.07e-01	0	55	0	601882624	50	4482
2026-01-06 12:51:34.99	280.64	27.73	-39.2	-41.2	22.7	6.03e-01	0	55	0	603455488	50	4421
2026-01-06 12:51:36.01	281.01	27.68	-39.3	-41.3	22.7	6.05e-01	0	55	0	605552640	50	4447
2026-01-06 12:51:37.01	281.38	27.63	-39.3	-41.3	22.7	6.04e-01	0	55	0	607649792	50	4484
2026-01-06 12:51:38.02	281.75	27.58	-39.3	-41.3	22.7	6.06e-01	0	55	0	609222656	50	4461
2026-01-06 12:51:39.03	282.12	27.53	-39.2	-41.2	22.7	6.06e-01	0	55	0	611319808	50	4432
2026-01-06 12:51:40.04	282.48	27.47	-39.3	-41.3	22.7	6.07e-01	0	55	0	612892672	50	4471
2026-01-06 12:51:41.05	282.85	27.42	-39.3	-41.3	22.6	6.07e-01	0	55	0	614989824	50	4475
2026-01-06 12:51:42.06	283.21	27.36	-39.1	-41.1	22.8	6.06e-01	0	55	0	617086976	50	4362
2026-01-06 12:51:43.08	283.58	27.30	-39.2	-41.2	22.8	6.08e-01	0	55	0	618659840	50	4400
2026-01-06 12:51:44.08	283.93	27.24	-39.4	-41.5	22.5	6.07e-01	0	55	0	620756992	50	4557
2026-01-06 12:51:45.09	284.29	27.18	-39.3	-41.3	22.6	6.05e-01	0	55	0	622329856	50	4480
2026-01-06 12:51:46.10	284.65	27.12	-39.3	-41.4	22.6	6.05e-01	0	55	0	624427008	50	4498
2026-01-06 12:51:47.11	285.01	27.06	-39.3	-41.3	22.6	6.07e-01	0	55	0	626524160	50	4468
2026-01-06 12:51:48.12	285.37	27.00	-39.3	-41.3	22.6	6.05e-01	0	55	0	628097024	50	4472
2026-01-06 12:51:49.13	285.72	26.93	-39.4	-41.4	22.5	6.07e-01	0	55	0	630194176	50	4538
2026-01-06 12:51:50.14	286.07	26.87	-39.3	-41.3	22.7	6.07e-01	0	55	0	631767040	50	4468
2026-01-06 12:51:51.15	286.42	26.80	-39.4	-41.4	22.5	6.06e-01	0	55	0	633864192	50	4529
2026-01-06 12:51:52.16	286.77	26.74	-39.3	-41.3	22.6	6.05e-01	0	55	0	635961344	50	4479
2026-01-06 12:51:53.17	287.12	26.67	-39.4	-41.4	22.5	6.06e-01	0	55	0	637534208	50	4511
2026-01-06 12:51:54.18	287.47	26.60	-39.5	-41.6	22.4	6.05e-01	0	55	0	639631360	50	4603
2026-01-06 12:51:55.18	287.81	26.53	-39.4	-41.5	22.5	6.06e-01	0	55	0	641728512	50	4570
2026-01-06 12:51:56.19	288.15	26.46	-39.3	-41.3	22.6	6.08e-01	0	55	0	643301376	50	4476
2026-01-06 12:51:57.20	288.49	26.39	-39.2	-41.2	22.7	6.08e-01	0	55	0	645398528	50	4422
2026-01-06 12:51:58.21	288.83	26.32	-39.3	-41.3	22.7	6.04e-01	0	55	0	646971392	50	4458
2026-01-06 12:51:59.22	289.17	26.25	-39.4	-41.4	22.5	6.06e-01	0	55	0	649068544	50	4530
2026-01-06 12:52:00.23	289.51	26.18	-39.4	-41.5	22.5	6.08e-01	0	55	0	651165696	50	4546
2026-01-06 12:52:01.24	289.85	26.10	-39.3	-41.4	22.6	6.06e-01	0	55	0	652738560	50	4502
2026-01-06 12:52:02.25	290.18	26.03	-39.3	-41.4	22.5	6.06e-01	0	55	0	654835712	50	4504
2026-01-06 12:52:03.26	290.51	25.95	-39.3	-41.4	22.5	6.05e-01	0	55	0	656408576	50	4505
2026-01-06 12:52:04.27	290.84	25.87	-39.3	-41.4	22.5	6.07e-01	0	55	0	658505728	50	4502
2026-01-06 12:52:05.28	291.17	25.80	-39.3	-41.3	22.6	6.05e-01	0	55	0	660602880	50	4478
2026-01-06 12:52:06.30	291.50	25.72	-39.3	-41.4	22.5	6.07e-01	0	55	0	662175744	50	4507
2026-01-06 12:52:07.30	291.83	25.64	-39.4	-41.5	22.4	6.05e-01	0	55	0	664272896	50	4563
2026-01-06 12:52:08.32	292.15	25.56	-39.5	-41.6	22.4	6.03e-01	0	55	0	666370048	50	4604
2026-01-06 12:52:09.32	292.47	25.48	-39.4	-41.5	22.4	6.05e-01	0	55	0	667942912	50	4585
2026-01-06 12:52:10.33	292.79	25.40	-39.4	-41.5	22.4	6.06e-01	0	55	0	670040064	50	4548
2026-01-06 12:52:11.34	293.11	25.32	-39.5	-41.6	22.3	6.07e-01	0	55	0	671612928	50	4622
2026-01-06 12:52:12.35	293.43	25.24	-39.5	-41.6	22.3	6.09e-01	0	55	0	673710080	50	4634
2026-01-06 12:52:13.36	293.74	25.16	-39.3	-41.4	22.5	6.03e-01	0	55	0	675807232	50	4510
2026-01-06 12:52:14.38	294.06	25.07	-39.4	-41.5	22.5	6.06e-01	0	55	0	677380096	50	4549
2026-01-06 12:52:15.39	294.37	24.99	-39.4	-41.5	22.4	6.07e-01	0	55	0	679477248	50	4549
2026-01-06 12:52:16.40	294.68	24.91	-39.4	-41.5	22.4	6.06e-01	0	56	0	681050112	50	4567
2026-01-06 12:52:17.40	294.99	24.82	-39.5	-41.6	22.3	6.05e-01	0	56	0	683147264	50	4637
2026-01-06 12:52:18.41	295.30	24.74	-39.5	-41.6	22.3	6.09e-01	0	55	0	685244416	50	4631
2026-01-06 12:52:19.42	295.60	24.65	-39.4	-41.5	22.4	6.07e-01	0	55	0	686817280	50	4552
2026-01-06 12:52:20.43	295.91	24.57	-39.4	-41.5	22.4	6.06e-01	0	55	0	688914432	50	4579
2026-01-06 12:52:21.44	296.21	24.48	-39.4	-41.5	22.4	6.06e-01	0	55	0	690487296	50	4580
2026-01-06 12:52:22.45	296.51	24.39	-39.5	-41.6	22.3	6.04e-01	0	55	0	692584448	50	4626
2026-01-06 12:52:23.46	296.81	24.30	-39.5	-41.7	22.2	6.06e-01	0	55	0	694681600	50	4658
2026-01-06 12:52:24.47	297.10	24.22	-39.5	-41.6	22.3	6.05e-01	0	55	0	696254464	50	4624
2026-01-06 12:52:25.48	297.40	24.13	-39.6	-41.8	22.1	6.06e-01	0	55	0	698351616	50	4721
2026-01-06 12:52:26.49	297.69	24.04	-39.5	-41.6	22.3	6.06e-01	0	55	0	699924480	50	4627
2026-01-06 12:52:27.49	297.98	23.95	-39.4	-41.4	22.4	6.08e-01	0	55	0	702021632	50	4530
2026-01-06 12:52:28.50	298.27	23.86	-39.4	-41.4	22.4	6.09e-01	0	55	0	704118784	50	4523
2026-01-06 12:52:29.51	298.56	23.77	-39.4	-41.4	22.4	6.05e-01	0	55	0	705691648	50	4538
2026-01-06 12:52:30.53	298.85	23.68	-39.6	-41.7	22.2	6.06e-01	0	55	0	707788800	50	4657
2026-01-06 12:52:31.53	299.13	23.59	-39.6	-41.8	22.1	6.06e-01	0	55	0	709885952	50	4716
2026-01-06 12:52:32.55	299.42	23.50	-39.6	-41.7	22.1	6.08e-01	0	55	0	711458816	50	4688
2026-01-06 12:52:33.56	299.70	23.41	-39.5	-41.6	22.2	6.07e-01	0	55	0	713555968	50	4648
2026-01-06 12:52:34.57	299.98	23.31	-39.4	-41.5	22.3	6.07e-01	0	55	0	715128832	50	4589
2026-01-06 12:52:35.58	300.26	23.22	-39.4	-41.5	22.4	6.04e-01	0	55	0	717225984	50	4582
2026-01-06 12:52:36.59	300.53	23.13	-39.4	-41.5	22.3	6.05e-01	0	55	0	719323136	50	4577
2026-01-06 12:52:37.60	300.81	23.04	-39.4	-41.5	22.3	6.06e-01	0	55	0	720896000	50	4594
2026-01-06 12:52:38.61	301.08	22.94	-39.4	-41.5	22.3	6.05e-01	0	55	0	722993152	50	4595
2026-01-06 12:52:39.62	301.35	22.85	-39.5	-41.6	22.2	6.05e-01	0	55	0	724566016	50	4626
2026-01-06 12:52:40.63	301.62	22.76	-39.6	-41.7	22.2	6.06e-01	0	55	0	726663168	50	4670
2026-01-06 12:52:41.64	301.89	22.66	-39.6	-41.7	22.1	6.07e-01	0	55	0	728760320	50	4701
2026-01-06 12:52:42.64	302.15	22.57	-39.7	-41.9	21.9	6.06e-01	0	55	0	730333184	50	4794
2026-01-06 12:52:43.65	302.42	22.48	-39.7	-41.9	21.9	6.06e-01	0	55	0	732430336	50	4773
2026-01-06 12:52:44.66	302.68	22.38	-39.4	-41.5	22.3	6.05e-01	0	55	0	734527488	50	4586
2026-01-06 12:52:45.67	302.94	22.29	-39.4	-41.5	22.3	6.06e-01	0	55	0	736100352	50	4559
2026-01-06 12:52:46.68	303.20	22.19	-39.4	-41.5	22.3	6.05e-01	0	55	0	738197504	50	4594
2026-01-06 12:52:47.69	303.46	22.10	-39.6	-41.7	22.1	6.08e-01	0	55	0	739770368	50	4687
2026-01-06 12:52:48.70	303.72	22.00	-39.6	-41.8	22.0	6.07e-01	0	55	0	741867520	50	4740
2026-01-06 12:52:49.71	303.97	21.91	-39.6	-41.8	22.0	6.06e-01	0	55	0	743964672	50	4730
2026-01-06 12:52:50.72	304.22	21.81	-39.5	-41.6	22.1	6.05e-01	0	56	0	745537536	50	4642
2026-01-06 12:52:51.73	304.48	21.72	-39.3	-41.4	22.4	6.04e-01	0	55	0	747634688	50	4522
2026-01-06 12:52:52.74	304.73	21.62	-39.3	-41.3	22.5	6.05e-01	0	55	0	749207552	50	4467
2026-01-06 12:52:53.75	304.97	21.53	-39.4	-41.6	22.2	6.06e-01	0	55	0	751304704	50	4601
2026-01-06 12:52:54.76	305.22	21.43	-39.6	-41.8	22.0	6.05e-01	0	55	0	753401856	50	4712
2026-01-06 12:52:55.77	305.47	21.33	-39.4	-41.5	22.2	6.07e-01	0	55	0	754974720	50	4586
2026-01-06 12:52:56.78	305.71	21.24	-39.3	-41.4	22.4	6.03e-01	0	55	0	757071872	50	4510
2026-01-06 12:52:57.79	305.95	21.14	-39.3	-41.3	22.4	6.07e-01	0	55	0	758644736	50	4478
2026-01-06 12:52:58.80	306.19	21.04	-39.4	-41.5	22.3	6.06e-01	0	56	0	760741888	50	4556
2026-01-06 12:52:59.80	306.43	20.95	-39.5	-41.6	22.1	6.05e-01	0	55	0	762839040	50	4651
2026-01-06 12:53:00.82	306.67	20.85	-39.5	-41.6	22.2	6.06e-01	0	55	0	764411904	50	4608
2026-01-06 12:53:01.82	306.90	20.76	-39.4	-41.5	22.3	6.07e-01	0	55	0	766509056	50	4576
2026-01-06 12:53:02.83	307.14	20.66	-39.3	-41.4	22.3	6.08e-01	0	56	0	768081920	50	4532
2026-01-06 12:53:03.84	307.37	20.56	-39.4	-41.5	22.2	6.07e-01	0	56	0	770179072	50	4579
2026-01-06 12:53:04.86	307.60	20.47	-39.3	-41.3	22.4	6.05e-01	0	55	0	772276224	50	4481
2026-01-06 12:53:05.87	307.83	20.37	-39.2	-41.3	22.4	6.07e-01	0	55	0	773849088	50	4463
2026-01-06 12:53:06.88	308.06	20.27	-39.3	-41.3	22.4	6.07e-01	0	55	0	775946240	50	4479
2026-01-06 12:53:07.88	308.29	20.18	-39.2	-41.3	22.4	6.05e-01	0	55	0	778043392	50	4456
2026-01-06 12:53:08.90	308.52	20.08	-39.3	-41.3	22.4	6.07e-01	0	55	0	779616256	50	4475
2026-01-06 12:53:09.91	308.74	19.98	-39.3	-41.4	22.3	6.07e-01	0	55	0	781713408	50	4526
2026-01-06 12:53:10.92	308.96	19.89	-39.4	-41.5	22.2	6.06e-01	0	55	0	783286272	50	4597
2026-01-06 12:53:11.93	309.18	19.79	-39.4	-41.5	22.2	6.09e-01	0	56	0	785383424	50	4568
2026-01-06 12:53:12.94	309.40	19.69	-39.3	-41.4	22.3	6.05e-01	0	56	0	787480576	50	4507
2026-01-06 12:53:13.95	309.62	19.60	-39.2	-41.3	22.4	6.03e-01	0	55	0	789053440	50	4461
2026-01-06 12:53:14.96	309.84	19.50	-39.2	-41.3	22.4	6.05e-01	0	55	0	791150592	50	4472
2026-01-06 12:53:15.97	310.05	19.40	-39.3	-41.4	22.3	6.05e-01	0	56	0	792723456	50	4520
2026-01-06 12:53:16.98	310.27	19.31	-39.3	-41.5	22.3	6.09e-01	0	55	0	794820608	50	4551
2026-01-06 12:53:17.99	310.48	19.21	-39.4	-41.5	22.2	6.06e-01	0	56	0	796917760	50	4577
2026-01-06 12:53:19.00	310.69	19.11	-39.3	-41.4	22.3	6.07e-01	0	55	0	798490624	50	4494
2026-01-06 12:53:20.01	310.90	19.02	-39.2	-41.3	22.4	6.05e-01	0	55	0	800587776	50	4480
2026-01-06 12:53:21.02	311.11	18.92	-39.1	-41.1	22.5	6.05e-01	0	55	0	802684928	50	4390
2026-01-06 12:53:22.03	311.32	18.82	-39.2	-41.2	22.5	6.07e-01	0	56	0	804257792	50	4441
2026-01-06 12:53:23.04	311.52	18.73	-39.2	-41.3	22.4	6.05e-01	0	55	0	806354944	50	4446
2026-01-06 12:53:24.05	311.73	18.63	-39.3	-41.4	22.3	6.03e-01	0	55	0	807927808	50	4514
2026-01-06 12:53:25.06	311.93	18.53	-39.4	-41.5	22.2	6.06e-01	0	55	0	810024960	50	4572
2026-01-06 12:53:26.07	312.13	18.44	-39.4	-41.6	22.1	6.07e-01	0	56	0	812122112	50	4602
2026-01-06 12:53:27.08	312.33	18.34	-39.3	-41.4	22.2	6.09e-01	0	55	0	813694976	50	4529
2026-01-06 12:53:28.09	312.53	18.25	-39.4	-41.5	22.2	6.06e-01	0	56	0	815792128	50	4560
2026-01-06 12:53:29.10	312.73	18.15	-39.4	-41.5	22.2	6.04e-01	0	55	0	817364992	50	4572
2026-01-06 12:53:30.11	312.93	18.06	-39.2	-41.3	22.4	6.06e-01	0	56	0	819462144	50	4469
2026-01-06 12:53:31.12	313.12	17.96	-39.2	-41.2	22.4	6.07e-01	0	55	0	821559296	50	4431
2026-01-06 12:53:32.13	313.31	17.86	-39.1	-41.2	22.5	6.06e-01	0	56	0	823132160	50	4401
2026-01-06 12:53:33.14	313.51	17.77	-39.1	-41.2	22.5	6.05e-01	0	55	0	825229312	50	4406
2026-01-06 12:53:34.15	313.70	17.67	-39.2	-41.2	22.4	6.06e-01	0	56	0	826802176	50	4441
2026-01-06 12:53:35.16	313.89	17.58	-39.2	-41.2	22.4	6.07e-01	0	56	0	828899328	50	4428
2026-01-06 12:53:36.17	314.08	17.48	-39.1	-41.2	22.5	6.07e-01	0	56	0	830996480	50	4401
2026-01-06 12:53:37.18	314.27	17.39	-39.2	-41.3	22.3	6.08e-01	0	56	0	832569344	50	4466
2026-01-06 12:53:38.19	314.45	17.29	-39.2	-41.3	22.4	6.07e-01	0	56	0	834666496	50	4454
2026-01-06 12:53:39.19	314.64	17.20	-39.3	-41.4	22.2	6.09e-01	0	55	0	836239360	50	4536
2026-01-06 12:53:40.20	314.82	17.11	-39.2	-41.4	22.3	6.06e-01	0	56	0	838336512	50	4496
2026-01-06 12:53:41.21	315.00	17.01	-39.3	-41.4	22.2	6.06e-01	0	55	0	840433664	50	4507
2026-01-06 12:53:42.22	315.18	16.92	-39.3	-41.4	22.3	6.06e-01	0	56	0	842006528	50	4502
2026-01-06 12:53:43.23	315.36	16.82	-39.2	-41.3	22.3	6.06e-01	0	55	0	844103680	50	4442
2026-01-06 12:53:44.24	315.54	16.73	-39.2	-41.3	22.3	6.06e-01	0	56	0	845676544	50	4478
2026-01-06 12:53:45.25	315.72	16.64	-39.2	-41.3	22.3	6.04e-01	0	56	0	847773696	50	4490
2026-01-06 12:53:46.26	315.90	16.54	-39.2	-41.3	22.3	6.05e-01	0	56	0	849870848	50	4458
2026-01-06 12:53:47.27	316.08	16.45	-39.3	-41.4	22.2	6.07e-01	0	56	0	851443712	50	4518
2026-01-06 12:53:48.27	316.25	16.36	-39.3	-41.5	22.1	6.06e-01	0	55	0	853540864	50	4557
2026-01-06 12:53:49.28	316.42	16.26	-39.3	-41.5	22.1	6.07e-01	0	56	0	855638016	50	4555
2026-01-06 12:53:50.29	316.60	16.17	-39.5	-41.6	22.0	6.07e-01	0	56	0	857210880	50	4636
2026-01-06 12:53:51.30	316.77	16.08	-39.4	-41.6	22.0	6.05e-01	0	56	0	859308032	50	4616
2026-01-06 12:53:52.32	316.94	15.98	-39.5	-41.7	21.9	6.04e-01	0	56	0	860880896	50	4685
2026-01-06 12:53:53.33	317.11	15.89	-39.3	-41.5	22.1	6.05e-01	0	56	0	862978048	50	4558
2026-01-06 12:53:54.34	317.28	15.80	-39.4	-41.5	22.1	6.07e-01	0	56	0	865075200	50	4581
2026-01-06 12:53:55.35	317.44	15.71	-39.3	-41.4	22.2	6.05e-01	0	55	0	866648064	50	4519
2026-01-06 12:53:56.36	317.61	15.62	-39.3	-41.4	22.2	6.07e-01	0	55	0	868745216	50	4522
2026-01-06 12:53:57.37	317.77	15.52	-39.3	-41.5	22.1	6.07e-01	0	56	0	870842368	50	4547
2026-01-06 12:53:58.38	317.94	15.43	-39.4	-41.6	22.0	6.05e-01	0	56	0	872415232	50	4602
2026-01-06 12:53:59.39	318.10	15.34	-39.5	-41.7	21.9	6.08e-01	0	55	0	874512384	50	4666
2026-01-06 12:54:00.40	318.26	15.25	-39.5	-41.7	21.9	6.04e-01	0	56	0	876085248	50	4674
2026-01-06 12:54:01.41	318.42	15.16	-39.5	-41.6	21.9	6.05e-01	0	56	0	878182400	50	4644
2026-01-06 12:54:02.42	318.58	15.07	-39.2	-41.3	22.2	6.06e-01	0	56	0	880279552	50	4489
2026-01-06 12:54:03.43	318.74	14.98	-39.2	-41.3	22.2	6.07e-01	0	56	0	881852416	50	4474
2026-01-06 12:54:04.44	318.90	14.89	-39.2	-41.2	22.3	6.07e-01	0	55	0	883949568	50	4435
2026-01-06 12:54:05.44	319.06	14.80	-39.3	-41.4	22.1	6.07e-01	0	56	0	885522432	50	4528
2026-01-06 12:54:06.45	319.21	14.71	-39.2	-41.3	22.2	6.07e-01	0	56	0	887619584	50	4492
2026-01-06 12:54:07.46	319.37	14.62	-39.3	-41.5	22.0	6.06e-01	0	55	0	889716736	50	4572
2026-01-06 12:54:08.47	319.52	14.53	-39.4	-41.6	21.9	6.06e-01	0	56	0	891289600	50	4649
2026-01-06 12:54:09.48	319.67	14.44	-39.4	-41.6	22.0	6.07e-01	0	55	0	893386752	50	4616
2026-01-06 12:54:10.49	319.83	14.35	-39.4	-41.6	21.9	6.07e-01	0	55	0	894959616	50	4630
2026-01-06 12:54:11.50	319.98	14.26	-39.5	-41.7	21.8	6.02e-01	0	55	0	897056768	50	4664
2026-01-06 12:54:12.51	320.13	14.17	-39.4	-41.6	21.9	6.02e-01	0	56	0	899153920	50	4634
2026-01-06 12:54:13.52	320.28	14.08	-39.4	-41.6	21.9	6.03e-01	0	55	0	900726784	50	4634
2026-01-06 12:54:14.53	320.42	13.99	-39.4	-41.5	22.0	6.03e-01	0	56	0	902823936	50	4591
2026-01-06 12:54:15.54	320.57	13.90	-39.4	-41.6	21.9	5.99e-01	0	56	0	904396800	50	4632
2026-01-06 12:54:16.55	320.72	13.82	-39.3	-41.5	22.0	6.03e-01	0	55	0	906493952	50	4552
2026-01-06 12:54:17.56	320.86	13.73	-39.3	-41.5	22.0	6.04e-01	0	56	0	908591104	50	4557
2026-01-06 12:54:18.57	321.01	13.64	-39.4	-41.5	22.0	6.03e-01	0	56	0	910163968	50	4584
2026-01-06 12:54:19.58	321.15	13.55	-39.4	-41.5	21.9	6.02e-01	0	56	0	912261120	50	4596
2026-01-06 12:54:20.59	321.30	13.47	-39.3	-41.4	22.0	6.04e-01	0	56	0	913833984	50	4535
2026-01-06 12:54:21.60	321.44	13.38	-39.3	-41.5	22.0	6.02e-01	0	56	0	915931136	50	4578
2026-01-06 12:54:22.61	321.58	13.29	-39.4	-41.6	21.9	5.99e-01	0	55	0	918028288	50	4609
2026-01-06 12:54:23.62	321.72	13.20	-39.4	-41.6	21.9	6.01e-01	0	56	0	919601152	50	4623
2026-01-06 12:54:24.63	321.86	13.12	-39.6	-41.8	21.7	6.02e-01	0	56	0	921698304	50	4743
2026-01-06 12:54:25.64	322.00	13.03	-39.5	-41.7	21.8	6.03e-01	0	56	0	923795456	50	4686
2026-01-06 12:54:26.65	322.14	12.94	-39.6	-41.8	21.7	6.03e-01	0	56	0	925368320	50	4740
2026-01-06 12:54:27.66	322.27	12.86	-39.6	-41.9	21.6	6.01e-01	0	56	0	927465472	50	4765
2026-01-06 12:54:28.67	322.41	12.77	-39.6	-41.9	21.6	6.02e-01	0	55	0	929038336	50	4777
2026-01-06 12:54:29.67	322.54	12.69	-39.5	-41.8	21.7	6.05e-01	0	56	0	931135488	50	4708
2026-01-06 12:54:30.68	322.68	12.60	-39.7	-42.0	21.5	6.01e-01	0	56	0	933232640	50	4819
2026-01-06 12:54:31.69	322.81	12.52	-39.8	-42.1	21.3	6.02e-01	0	56	0	934805504	50	4905
2026-01-06 12:54:32.70	322.94	12.43	-39.8	-42.2	21.3	6.02e-01	0	56	0	936902656	50	4939
2026-01-06 12:54:33.71	323.08	12.35	-39.8	-42.1	21.3	5.99e-01	0	56	0	938999808	50	4924
2026-01-06 12:54:34.72	323.21	12.26	-39.8	-42.1	21.3	6.01e-01	0	56	0	940572672	50	4900
2026-01-06 12:54:35.73	323.34	12.18	-39.8	-42.2	21.2	6.02e-01	0	56	0	942669824	50	4946
2026-01-06 12:54:36.74	323.47	12.09	-40.0	-42.4	21.0	6.03e-01	0	56	0	944242688	50	5081
2026-01-06 12:54:37.75	323.60	12.01	-39.9	-42.2	21.2	6.01e-01	0	56	0	946339840	50	4977
2026-01-06 12:54:38.76	323.72	11.93	-39.9	-42.3	21.2	5.99e-01	0	56	0	948436992	50	5001
2026-01-06 12:54:39.77	323.85	11.84	-40.1	-42.6	20.8	6.03e-01	0	56	0	950009856	50	5168
2026-01-06 12:54:40.78	323.98	11.76	-39.8	-42.1	21.3	6.02e-01	0	55	0	952107008	50	4906
2026-01-06 12:54:41.79	324.10	11.68	-39.6	-41.9	21.5	6.02e-01	0	56	0	953679872	50	4790
2026-01-06 12:54:42.81	324.23	11.59	-39.6	-41.9	21.5	6.03e-01	0	56	0	955777024	50	4767
2026-01-06 12:54:43.82	324.36	11.51	-39.7	-42.0	21.4	6.01e-01	0	56	0	957874176	50	4825
2026-01-06 12:54:44.83	324.48	11.43	-39.6	-41.9	21.5	6.01e-01	0	56	0	959447040	50	4795
2026-01-06 12:54:45.83	324.60	11.35	-39.6	-41.9	21.5	6.02e-01	0	56	0	961544192	50	4784
2026-01-06 12:54:46.84	324.72	11.26	-39.6	-41.9	21.4	6.00e-01	0	56	0	963117056	50	4813
2026-01-06 12:54:47.85	324.84	11.18	-39.8	-42.2	21.2	6.01e-01	0	55	0	965214208	50	4937
2026-01-06 12:54:48.86	324.97	11.10	-39.8	-42.2	21.2	5.98e-01	0	56	0	967311360	50	4932
2026-01-06 12:54:49.87	325.09	11.02	-39.9	-42.2	21.1	6.01e-01	0	56	0	968884224	50	4983
2026-01-06 12:54:50.88	325.21	10.94	-39.9	-42.3	21.1	6.01e-01	0	56	0	970981376	50	5029
2026-01-06 12:54:51.89	325.32	10.86	-39.9	-42.4	21.0	6.03e-01	0	56	0	972554240	50	5056
2026-01-06 12:54:52.90	325.44	10.77	-39.9	-42.4	21.0	5.99e-01	0	56	0	974651392	50	5060
2026-01-06 12:54:53.91	325.56	10.69	-39.8	-42.2	21.1	6.05e-01	0	56	0	976748544	50	4974
2026-01-06 12:54:54.92	325.68	10.61	-39.7	-42.1	21.2	6.01e-01	0	56	0	978321408	50	4902
2026-01-06 12:54:55.93	325.79	10.53	-39.8	-42.2	21.2	6.02e-01	0	56	0	980418560	50	4938
2026-01-06 12:54:56.94	325.91	10.45	-39.8	-42.2	21.1	6.00e-01	0	56	0	981991424	50	4968
2026-01-06 12:54:57.95	326.02	10.37	-39.9	-42.3	21.0	6.01e-01	0	56	0	984088576	50	4995
2026-01-06 12:54:58.96	326.14	10.29	-40.0	-42.5	20.8	6.01e-01	0	56	0	986185728	50	5117
2026-01-06 12:54:59.97	326.25	10.21	-39.9	-42.4	20.9	5.98e-01	0	55	0	987758592	50	5054
2026-01-06 12:55:00.98	326.36	10.13	-40.0	-42.5	20.9	6.02e-01	0	56	0	989855744	50	5115
2026-01-06 12:55:01.99	326.48	10.05	-40.0	-42.4	20.9	6.04e-01	0	56	0	991952896	50	5089
2026-01-06 12:55:03.00	326.59	9.97	-40.0	-42.5	20.8	6.01e-01	0	55	0	993525760	50	5104
2026-01-06 12:55:04.01	326.70	9.90	-40.2	-42.7	20.6	6.02e-01	0	56	0	995622912	50	5262
2026-01-06 12:55:05.02	326.81	9.82	-40.2	-42.8	20.5	6.00e-01	0	56	0	997195776	51	5003
2026-01-06 12:55:06.03	326.92	9.74	-40.1	-42.6	20.6	6.02e-01	0	56	0	999292928	51	4907
2026-01-06 12:55:07.04	327.03	9.66	-40.3	-42.9	20.3	5.99e-01	0	56	0	1001390080	51	5086
2026-01-06 12:55:08.05	327.14	9.58	-40.2	-42.9	20.4	5.99e-01	0	56	0	1002962944	51	5044
2026-01-06 12:55:09.06	327.24	9.50	-40.3	-42.9	20.4	6.02e-01	0	56	0	1005060096	51	5067
2026-01-06 12:55:10.07	327.35	9.43	-40.3	-42.9	20.3	6.00e-01	0	56	0	1007157248	51	5067
2026-01-06 12:55:11.07	327.46	9.35	-40.2	-42.8	20.4	6.01e-01	0	56	0	1008730112	51	5009
2026-01-06 12:55:12.08	327.56	9.27	-40.3	-42.9	20.3	6.04e-01	0	56	0	1010827264	51	5065
2026-01-06 12:55:13.09	327.67	9.20	-40.3	-42.9	20.2	6.00e-01	0	56	0	1012400128	51	5096
2026-01-06 12:55:14.11	327.78	9.12	-40.3	-42.9	20.3	6.04e-01	0	56	0	1014497280	51	5093
2026-01-06 12:55:15.12	327.88	9.04	-40.2	-42.8	20.4	6.01e-01	0	56	0	1016594432	51	5028
2026-01-06 12:55:16.13	327.98	8.96	-40.3	-42.9	20.2	6.01e-01	0	56	0	1018167296	51	5083
2026-01-06 12:55:17.14	328.09	8.89	-40.2	-42.9	20.3	6.03e-01	0	56	0	1020264448	51	5066
2026-01-06 12:55:18.15	328.19	8.81	-40.4	-43.1	20.0	6.01e-01	0	56	0	1021837312	51	5201
2026-01-06 12:55:19.16	328.29	8.74	-40.3	-43.0	20.1	6.00e-01	0	56	0	1023934464	51	5117
2026-01-06 12:55:20.16	328.39	8.66	-40.3	-43.0	20.1	6.00e-01	0	56	0	1026031616	51	5155
2026-01-06 12:55:21.17	328.49	8.59	-40.3	-43.0	20.1	6.02e-01	0	56	0	1027604480	51	5130
2026-01-06 12:55:22.18	328.59	8.51	-40.3	-43.0	20.1	6.01e-01	0	56	0	1029701632	51	5119
2026-01-06 12:55:23.19	328.69	8.43	-40.2	-42.8	20.3	6.01e-01	0	56	0	1031274496	51	5034
2026-01-06 12:55:24.20	328.79	8.36	-40.3	-43.0	20.1	6.02e-01	0	56	0	1033371648	51	5141
2026-01-06 12:55:25.21	328.89	8.28	-40.3	-43.0	20.0	6.02e-01	0	56	0	1035468800	51	5156
2026-01-06 12:55:26.22	328.99	8.21	-40.4	-43.2	19.8	6.00e-01	0	56	0	1037041664	51	5258
2026-01-06 12:55:27.23	329.09	8.14	-40.3	-43.1	20.0	6.01e-01	0	56	0	1039138816	51	5192
2026-01-06 12:55:28.24	329.19	8.06	-40.1	-42.8	20.2	6.03e-01	0	55	0	1040711680	51	5020
2026-01-06 12:55:29.25	329.28	7.99	-40.2	-42.9	20.1	6.01e-01	0	56	0	1042808832	51	5059
2026-01-06 12:55:30.26	329.38	7.91	-45.2	-63.7	3.7	7.48e-01	0	56	104	1043857408	60	33006
2026-01-06 12:55:31.27	329.48	7.84	-45.5	-64.3	3.8	7.43e-01	0	56	104	1043857408	61	33619
2026-01-06 12:55:32.27	329.57	7.77	-45.7	-64.5	3.8	7.44e-01	0	56	104	1043857408	61	34213
2026-01-06 12:55:33.29	329.67	7.69	-45.9	-64.6	3.8	7.47e-01	0	56	104	1043857408	62	32706
2026-01-06 12:55:34.30	329.76	7.62	-46.0	-64.8	3.8	7.47e-01	0	56	104	1043857408	62	33653
2026-01-06 12:55:35.31	329.85	7.55	-46.1	-65.0	3.8	7.47e-01	0	56	104	1043857408	62	34130
2026-01-06 12:55:36.32	329.95	7.47	-46.2	-65.0	3.8	7.47e-01	0	56	104	1043857408	62	34295
2026-01-06 12:55:37.33	330.04	7.40	-46.2	-65.0	3.8	7.45e-01	0	56	104	1043857408	62	34375
2026-01-06 12:55:38.34	330.13	7.33	-46.1	-65.0	3.8	7.45e-01	0	56	104	1043857408	62	34407
2026-01-06 12:55:39.35	330.23	7.26	-46.1	-65.0	3.8	7.42e-01	0	56	104	1043857408	62	34429
2026-01-06 12:55:40.36	330.32	7.18	-46.1	-65.0	3.8	7.48e-01	0	56	104	1043857408	62	34321
2026-01-06 12:55:41.37	330.41	7.11	-46.1	-65.0	3.8	7.42e-01	0	56	104	1043857408	62	34258
2026-01-06 12:55:42.38	330.50	7.04	-46.1	-65.0	3.8	7.44e-01	0	56	104	1043857408	62	34284
2026-01-06 12:55:43.39	330.59	6.97	-46.1	-65.0	3.8	7.44e-01	0	56	104	1043857408	62	34347
2026-01-06 12:55:44.39	330.68	6.90	-46.1	-65.0	3.8	7.47e-01	0	56	104	1043857408	62	34149
2026-01-06 12:55:45.41	330.77	6.82	-46.0	-65.0	3.8	7.45e-01	0	56	104	1043857408	62	34133
2026-01-06 12:55:46.42	330.86	6.75	-46.1	-65.0	3.8	7.43e-01	0	56	104	1043857408	62	34184
2026-01-06 12:55:47.43	330.94	6.68	-46.1	-65.0	3.8	7.46e-01	0	56	104	1043857408	62	34176
2026-01-06 12:55:48.44	331.03	6.61	-46.0	-65.0	3.8	7.47e-01	0	56	104	1043857408	62	34090
2026-01-06 12:55:49.45	331.12	6.54	-46.1	-65.0	3.8	7.47e-01	0	56	104	1043857408	62	34122
2026-01-06 12:55:50.46	331.21	6.47	-46.0	-65.0	3.8	7.46e-01	0	56	104	1043857408	62	34104
2026-01-06 12:55:51.47	331.29	6.40	-46.0	-64.9	3.8	7.43e-01	0	56	104	1043857408	62	34024
2026-01-06 12:55:52.48	331.38	6.33	-46.0	-65.0	3.8	7.48e-01	0	56	104	1043857408	62	34171
2026-01-06 12:55:53.49	331.47	6.26	-46.0	-64.9	3.8	7.46e-01	0	56	104	1043857408	62	34070
2026-01-06 12:55:54.50	331.55	6.19	-46.0	-65.0	3.8	7.46e-01	0	56	104	1043857408	62	34158
2026-01-06 12:55:55.51	331.64	6.12	-46.0	-64.9	3.8	7.45e-01	0	56	104	1043857408	62	34082
2026-01-06 12:55:56.52	331.72	6.05	-46.0	-64.9	3.8	7.45e-01	0	56	104	1043857408	62	33978
2026-01-06 12:55:57.53	331.80	5.98	-46.0	-64.9	3.8	7.45e-01	0	56	104	1043857408	62	34032
2026-01-06 12:55:58.54	331.89	5.91	-46.0	-64.9	3.8	7.43e-01	0	56	104	1043857408	62	34047
2026-01-06 12:55:59.55	331.97	5.84	-46.0	-65.0	3.8	7.42e-01	0	56	104	1043857408	62	34090
2026-01-06 12:56:00.56	332.05	5.77	-46.0	-64.9	3.8	7.45e-01	0	56	104	1043857408	62	34062
2026-01-06 12:56:01.57	332.14	5.71	-46.0	-64.9	3.8	7.44e-01	0	56	104	1043857408	62	33971
2026-01-06 12:56:02.58	332.22	5.64	-46.0	-64.9	3.8	7.46e-01	0	56	104	1043857408	62	34048
2026-01-06 12:56:03.59	332.30	5.57	-46.0	-64.9	3.8	7.46e-01	0	56	104	1043857408	62	34022
2026-01-06 12:56:04.61	332.38	5.50	-46.0	-64.9	3.8	7.45e-01	0	56	104	1043857408	62	34044
2026-01-06 12:56:05.61	332.46	5.43	-46.0	-65.0	3.8	7.46e-01	0	56	104	1043857408	62	34098
2026-01-06 12:56:06.63	332.54	5.36	-46.0	-64.9	3.8	7.45e-01	0	56	104	1043857408	62	34027
2026-01-06 12:56:07.64	332.62	5.30	-46.0	-64.9	3.8	7.46e-01	0	56	104	1043857408	62	34081
2026-01-06 12:56:08.65	332.70	5.23	-46.0	-64.9	3.8	7.47e-01	0	56	104	1043857408	62	33949
2026-01-06 12:56:09.66	332.78	5.16	-46.0	-64.9	3.8	7.43e-01	0	56	104	1043857408	62	33975
2026-01-06 12:56:10.67	332.86	5.09	-46.0	-64.9	3.8	7.46e-01	0	56	104	1043857408	62	33998
2026-01-06 12:56:11.68	332.94	5.03	-46.0	-64.9	3.8	7.47e-01	0	56	104	1043857408	62	34007
2026-01-06 12:56:12.69	333.02	4.96	-46.0	-64.9	3.8	7.44e-01	0	56	104	1043857408	62	33966
2026-01-06 12:56:13.70	333.10	4.89	-46.0	-64.9	3.8	7.45e-01	0	56	104	1043857408	62	33987
2026-01-06 12:56:14.71	333.17	4.83	-46.0	-64.9	3.8	7.48e-01	0	56	104	1043857408	62	33971
2026-01-06 12:56:15.72	333.25	4.76	-46.0	-64.9	3.8	7.46e-01	0	56	104	1043857408	62	33968
2026-01-06 12:56:16.73	333.33	4.69	-46.0	-64.9	3.8	7.42e-01	0	56	104	1043857408	62	33982
2026-01-06 12:56:17.74	333.40	4.63	-46.0	-64.9	3.8	7.44e-01	0	56	104	1043857408	62	33962
2026-01-06 12:56:18.75	333.48	4.56	-46.0	-64.9	3.8	7.45e-01	0	56	104	1043857408	62	33920
2026-01-06 12:56:19.76	333.55	4.49	-46.0	-64.9	3.8	7.46e-01	0	56	104	1043857408	62	34009
2026-01-06 12:56:20.78	333.63	4.43	-46.0	-64.9	3.8	7.45e-01	0	56	104	1043857408	62	33986
2026-01-06 12:56:21.79	333.71	4.36	-46.0	-64.9	3.8	7.50e-01	0	56	104	1043857408	62	33913
2026-01-06 12:56:22.80	333.78	4.30	-46.0	-64.9	3.8	7.46e-01	0	56	104	1043857408	62	33983
2026-01-06 12:56:23.81	333.85	4.23	-46.0	-64.9	3.8	7.47e-01	0	56	104	1043857408	62	33981
2026-01-06 12:56:24.82	333.93	4.16	-46.0	-64.9	3.8	7.47e-01	0	56	104	1043857408	62	33892
2026-01-06 12:56:25.83	334.00	4.10	-46.0	-64.9	3.8	7.45e-01	0	56	104	1043857408	62	33868
2026-01-06 12:56:26.84	334.08	4.03	-46.0	-64.9	3.8	7.48e-01	0	56	104	1043857408	62	33916
2026-01-06 12:56:27.85	334.15	3.97	-46.0	-64.9	3.8	7.46e-01	0	56	104	1043857408	62	33921
2026-01-06 12:56:28.86	334.22	3.91	-46.0	-64.9	3.8	7.46e-01	0	56	104	1043857408	62	33924
2026-01-06 12:56:29.87	334.29	3.84	-46.0	-64.9	3.8	7.45e-01	0	56	104	1043857408	62	33928
2026-01-06 12:56:30.88	334.37	3.78	-46.0	-64.9	3.8	7.44e-01	0	56	104	1043857408	62	33893
2026-01-06 12:56:31.89	334.44	3.71	-46.0	-64.9	3.8	7.47e-01	0	56	104	1043857408	62	33884
2026-01-06 12:56:32.90	334.51	3.65	-46.0	-64.9	3.8	7.45e-01	0	56	104	1043857408	62	33860
2026-01-06 12:56:33.91	334.58	3.58	-46.0	-64.9	3.8	7.44e-01	0	56	104	1043857408	62	33903
2026-01-06 12:56:34.92	334.65	3.52	-46.0	-64.9	3.8	7.45e-01	0	56	104	1043857408	62	33884
