passes_logs/2026/01/06/R2.0S_Moscow/R2.0S_Moscow__20260106_010403_NOAA_20_JPSS-1_rec.log

#Pass ID: 20260106_010403_NOAA 20 (JPSS-1)
#Satellite: NOAA 20 (JPSS-1)
#Configuration: NOAA 20
#almurnet v.1.7.20251203
#Start time: 2026-01-06 01:04:03

#Version: 2.2.20231116
#Station: R2.0S_Moscow
#Location: 37.707566 lon 55.798166 lat
#TLE: 1 43013U 17073A   26005.46207808  .00000128  00000+0  81791-4 0  9997
#TLE: 2 43013  98.7627 306.5027 0001826  53.0458 307.0885 14.19533487421381

#Time	Az	El	Level	Level2	SNR	BER	BlckErr	Temp	State	Recorded	gain1	gain2
2026-01-06 01:04:03.03	11.05	1.99	-39.8	-54.3	3.8	1.49e+00	0	47	0	0	51	18914
2026-01-06 01:04:04.03	11.00	2.05	-39.8	-54.3	3.8	1.49e+00	0	48	104	0	51	18850
2026-01-06 01:04:05.04	10.95	2.11	-39.8	-54.3	3.8	1.49e+00	0	48	104	0	51	18941
2026-01-06 01:04:06.06	10.89	2.17	-39.8	-54.3	3.8	1.49e+00	0	48	104	0	51	18866
2026-01-06 01:04:07.07	10.83	2.22	-39.8	-54.3	3.8	1.49e+00	0	48	104	0	51	18808
2026-01-06 01:04:08.08	10.78	2.28	-39.8	-54.3	3.8	1.49e+00	0	48	104	0	51	18846
2026-01-06 01:04:09.09	10.72	2.34	-39.8	-54.3	3.8	1.49e+00	0	48	104	0	51	18857
2026-01-06 01:04:10.10	10.67	2.40	-39.8	-54.3	3.8	1.49e+00	0	48	104	0	51	18850
2026-01-06 01:04:11.11	10.61	2.46	-39.8	-54.3	3.8	1.49e+00	0	48	104	0	51	18883
2026-01-06 01:04:12.12	10.55	2.52	-39.8	-54.3	3.8	1.49e+00	0	48	104	0	51	18843
2026-01-06 01:04:13.13	10.50	2.58	-39.8	-54.3	3.8	1.49e+00	0	48	104	0	51	18865
2026-01-06 01:04:14.14	10.44	2.64	-39.8	-54.3	3.8	1.49e+00	0	48	104	0	51	18850
2026-01-06 01:04:15.16	10.38	2.70	-39.8	-54.3	3.8	1.49e+00	0	48	104	0	51	18828
2026-01-06 01:04:16.17	10.32	2.76	-39.8	-54.3	3.8	1.49e+00	0	48	104	0	51	18865
2026-01-06 01:04:17.18	10.27	2.83	-39.8	-54.3	3.8	1.49e+00	0	48	104	0	51	18826
2026-01-06 01:04:18.19	10.21	2.89	-39.8	-54.3	3.8	1.49e+00	0	48	104	0	51	18847
2026-01-06 01:04:19.20	10.15	2.95	-39.8	-54.3	3.8	1.49e+00	0	49	104	0	51	18825
2026-01-06 01:04:20.21	10.09	3.01	-39.8	-54.3	3.8	1.49e+00	0	48	104	0	51	18869
2026-01-06 01:04:21.22	10.03	3.07	-39.8	-54.3	3.8	1.49e+00	0	49	104	0	51	18833
2026-01-06 01:04:22.23	9.97	3.13	-39.8	-54.3	3.8	1.49e+00	0	49	104	0	51	18870
2026-01-06 01:04:23.25	9.91	3.19	-39.8	-54.3	3.8	1.49e+00	0	49	104	0	51	18849
2026-01-06 01:04:24.26	9.85	3.25	-39.8	-54.3	3.8	1.49e+00	0	49	104	0	51	18830
2026-01-06 01:04:25.27	9.79	3.31	-39.8	-54.3	3.8	1.49e+00	0	49	104	0	51	18844
2026-01-06 01:04:26.28	9.73	3.37	-39.8	-54.3	3.8	1.49e+00	0	49	104	0	51	18829
2026-01-06 01:04:27.29	9.67	3.44	-39.8	-54.3	3.8	1.49e+00	0	49	104	0	51	18780
2026-01-06 01:04:28.30	9.61	3.50	-39.8	-54.3	3.8	1.49e+00	0	49	104	0	51	18825
2026-01-06 01:04:29.31	9.55	3.56	-39.8	-54.3	3.8	1.49e+00	0	49	104	0	51	18846
2026-01-06 01:04:30.32	9.49	3.62	-39.8	-54.3	3.8	1.49e+00	0	49	104	0	51	18874
2026-01-06 01:04:31.33	9.43	3.68	-39.8	-54.3	3.8	1.49e+00	0	49	104	0	51	18844
2026-01-06 01:04:32.34	9.37	3.74	-39.8	-54.3	3.8	1.49e+00	0	49	104	0	51	18861
2026-01-06 01:04:33.35	9.30	3.81	-39.8	-54.3	3.8	1.49e+00	0	49	104	0	51	18815
2026-01-06 01:04:34.36	9.24	3.87	-39.8	-54.3	3.8	1.49e+00	0	49	104	0	51	18805
2026-01-06 01:04:35.38	9.18	3.93	-39.8	-54.3	3.8	1.49e+00	0	49	104	0	51	18860
2026-01-06 01:04:36.39	9.12	3.99	-39.8	-54.3	3.8	1.49e+00	0	50	104	0	51	18824
2026-01-06 01:04:37.40	9.05	4.06	-39.8	-54.3	3.8	1.49e+00	0	50	104	0	51	18802
2026-01-06 01:04:38.41	8.99	4.12	-39.8	-54.3	3.8	1.49e+00	0	49	104	0	51	18790
2026-01-06 01:04:39.42	8.93	4.18	-39.8	-54.3	3.8	1.49e+00	0	50	104	0	51	18835
2026-01-06 01:04:40.43	8.86	4.25	-39.8	-54.3	3.8	1.49e+00	0	50	104	0	51	18849
2026-01-06 01:04:41.44	8.80	4.31	-39.8	-54.3	3.8	1.49e+00	0	50	104	0	51	18849
2026-01-06 01:04:42.45	8.73	4.37	-39.8	-54.3	3.8	1.49e+00	0	50	104	0	51	18862
2026-01-06 01:04:43.47	8.67	4.44	-39.8	-54.3	3.8	1.49e+00	0	50	104	0	51	18838
2026-01-06 01:04:44.48	8.60	4.50	-39.8	-54.3	3.8	1.49e+00	0	50	104	0	51	18810
2026-01-06 01:04:45.49	8.54	4.56	-39.8	-54.3	3.8	1.49e+00	0	50	104	0	51	18883
2026-01-06 01:04:46.50	8.47	4.63	-39.8	-54.3	3.8	1.49e+00	0	50	104	0	51	18855
2026-01-06 01:04:47.51	8.40	4.69	-39.8	-54.3	3.8	1.49e+00	0	50	104	0	51	18839
2026-01-06 01:04:48.52	8.34	4.75	-39.8	-54.3	3.8	1.49e+00	0	50	104	0	51	18848
2026-01-06 01:04:49.53	8.27	4.82	-39.8	-54.3	3.8	1.49e+00	0	50	104	0	51	18828
2026-01-06 01:04:50.54	8.20	4.88	-39.8	-54.3	3.8	1.49e+00	0	50	104	0	51	18832
2026-01-06 01:04:51.55	8.14	4.95	-39.8	-54.3	3.8	1.49e+00	0	50	104	0	51	18806
2026-01-06 01:04:52.56	8.07	5.01	-39.8	-54.3	3.8	1.49e+00	0	50	104	0	51	18793
2026-01-06 01:04:53.57	8.00	5.07	-39.8	-54.3	3.8	1.49e+00	0	50	104	0	51	18836
2026-01-06 01:04:54.59	7.93	5.14	-39.8	-54.3	3.8	1.49e+00	0	50	104	0	51	18851
2026-01-06 01:04:55.59	7.86	5.20	-39.8	-54.3	3.8	1.49e+00	0	51	104	0	51	18802
2026-01-06 01:04:56.61	7.79	5.27	-39.8	-54.3	3.8	1.49e+00	0	51	104	0	51	18807
2026-01-06 01:04:57.62	7.72	5.33	-39.8	-54.3	3.8	1.49e+00	0	51	104	0	51	18815
2026-01-06 01:04:58.63	7.65	5.40	-39.8	-54.3	3.8	1.49e+00	0	51	104	0	51	18813
2026-01-06 01:04:59.64	7.58	5.46	-39.8	-54.3	3.8	1.49e+00	0	51	104	0	51	18828
2026-01-06 01:05:00.65	7.51	5.53	-39.8	-54.3	3.8	1.49e+00	0	51	104	0	51	18824
2026-01-06 01:05:01.66	7.44	5.59	-39.8	-54.3	3.8	1.49e+00	0	51	104	0	51	18769
2026-01-06 01:05:02.67	7.37	5.66	-39.8	-54.3	3.8	1.49e+00	0	51	104	0	51	18757
2026-01-06 01:05:03.68	7.30	5.73	-39.8	-54.3	3.8	1.49e+00	0	51	104	0	51	18787
2026-01-06 01:05:04.69	7.23	5.79	-39.8	-54.3	3.8	1.49e+00	0	51	104	0	51	18868
2026-01-06 01:05:05.70	7.16	5.86	-39.8	-54.3	3.8	1.49e+00	0	51	104	0	51	18841
2026-01-06 01:05:06.71	7.08	5.92	-39.8	-54.3	3.8	1.49e+00	0	51	104	0	51	18812
2026-01-06 01:05:07.72	7.01	5.99	-39.8	-54.3	3.8	1.49e+00	0	51	104	0	51	18782
2026-01-06 01:05:08.73	6.94	6.05	-39.8	-54.3	3.8	1.49e+00	0	51	104	0	51	18784
2026-01-06 01:05:09.74	6.86	6.12	-39.8	-54.3	3.8	1.49e+00	0	51	104	0	51	18800
2026-01-06 01:05:10.75	6.79	6.19	-39.8	-54.3	3.8	1.49e+00	0	51	104	0	51	18772
2026-01-06 01:05:11.77	6.72	6.25	-39.8	-54.3	3.8	1.49e+00	0	51	104	0	51	18846
2026-01-06 01:05:12.78	6.64	6.32	-39.8	-54.3	3.8	1.49e+00	0	51	104	0	51	18800
2026-01-06 01:05:13.79	6.57	6.39	-39.8	-54.3	3.8	1.49e+00	0	52	104	0	51	18882
2026-01-06 01:05:14.80	6.49	6.45	-39.8	-54.3	3.8	1.49e+00	0	51	104	0	51	18822
2026-01-06 01:05:15.81	6.42	6.52	-39.8	-54.3	3.8	1.49e+00	0	52	104	0	51	18817
2026-01-06 01:05:16.82	6.34	6.59	-39.8	-54.3	3.8	1.49e+00	0	52	104	0	51	18780
2026-01-06 01:05:17.83	6.26	6.66	-39.8	-54.3	3.8	1.49e+00	0	52	104	0	51	18820
2026-01-06 01:05:18.84	6.19	6.72	-39.8	-54.3	3.8	1.49e+00	0	52	104	0	51	18744
2026-01-06 01:05:19.86	6.11	6.79	-39.8	-54.3	3.8	1.49e+00	0	52	104	0	51	18813
2026-01-06 01:05:20.87	6.03	6.86	-39.8	-54.3	3.8	1.49e+00	0	52	104	0	51	18844
2026-01-06 01:05:21.88	5.95	6.93	-39.8	-54.3	3.8	1.49e+00	0	52	104	0	51	18791
2026-01-06 01:05:22.89	5.87	7.00	-39.8	-54.3	3.8	1.49e+00	0	52	104	0	51	18855
2026-01-06 01:05:23.90	5.80	7.06	-39.8	-54.3	3.8	1.49e+00	0	52	104	0	51	18839
2026-01-06 01:05:24.91	5.72	7.13	-39.8	-54.3	3.8	1.49e+00	0	52	104	0	51	18854
2026-01-06 01:05:25.92	5.64	7.20	-39.8	-54.3	3.8	1.49e+00	0	52	104	0	51	18816
2026-01-06 01:05:26.93	5.56	7.27	-39.8	-54.3	3.8	1.49e+00	0	52	104	0	51	18798
2026-01-06 01:05:27.94	5.48	7.34	-39.8	-54.3	3.8	1.49e+00	0	52	104	0	51	18821
2026-01-06 01:05:28.95	5.40	7.41	-39.8	-54.3	3.8	1.49e+00	0	52	104	0	51	18751
2026-01-06 01:05:29.96	5.32	7.47	-39.8	-54.3	3.8	1.49e+00	0	52	104	0	51	18809
2026-01-06 01:05:30.98	5.23	7.54	-39.8	-54.3	3.8	1.49e+00	0	52	104	0	51	18796
2026-01-06 01:05:31.99	5.15	7.61	-39.8	-54.3	3.8	1.49e+00	0	52	104	0	51	18843
2026-01-06 01:05:33.00	5.07	7.68	-39.8	-54.3	3.8	1.49e+00	0	52	104	0	51	18851
2026-01-06 01:05:34.01	4.99	7.75	-39.8	-54.3	3.8	1.49e+00	0	52	104	0	51	18828
2026-01-06 01:05:35.02	4.90	7.82	-39.8	-54.3	3.8	1.49e+00	0	52	104	0	51	18832
2026-01-06 01:05:36.03	4.82	7.89	-39.8	-54.3	3.8	1.49e+00	0	52	104	0	51	18800
2026-01-06 01:05:37.04	4.74	7.96	-39.8	-54.3	3.8	1.49e+00	0	53	104	0	51	18755
2026-01-06 01:05:38.05	4.65	8.03	-39.8	-54.3	3.8	1.49e+00	0	52	104	0	51	18857
2026-01-06 01:05:39.07	4.57	8.10	-39.9	-54.4	3.8	1.49e+00	0	52	104	0	51	18990
2026-01-06 01:05:40.08	4.48	8.17	-39.9	-54.4	3.8	1.49e+00	0	52	104	0	51	19009
2026-01-06 01:05:41.09	4.40	8.24	-39.8	-54.3	3.8	1.49e+00	0	52	104	0	51	18839
2026-01-06 01:05:42.10	4.31	8.31	-39.9	-54.3	3.8	1.49e+00	0	52	104	0	51	18918
2026-01-06 01:05:43.11	4.22	8.38	-39.9	-54.4	3.8	1.49e+00	0	53	104	0	51	19008
2026-01-06 01:05:44.12	4.14	8.45	-39.9	-54.4	3.8	1.49e+00	0	53	104	0	51	18961
2026-01-06 01:05:45.13	4.05	8.52	-39.9	-54.3	3.8	1.49e+00	0	53	104	0	51	18944
2026-01-06 01:05:46.14	3.96	8.59	-39.9	-54.4	3.8	1.49e+00	0	53	104	0	51	18956
2026-01-06 01:05:47.15	3.87	8.67	-39.9	-54.4	3.8	1.49e+00	0	53	104	0	51	18967
2026-01-06 01:05:48.16	3.79	8.74	-39.9	-54.4	3.8	1.49e+00	0	53	104	0	51	19021
2026-01-06 01:05:49.17	3.70	8.81	-39.8	-54.3	3.8	1.49e+00	0	53	104	0	51	18941
2026-01-06 01:05:50.18	3.61	8.88	-40.0	-54.5	3.8	1.49e+00	0	53	104	0	51	19234
2026-01-06 01:05:51.19	3.52	8.95	-39.8	-54.3	3.8	1.49e+00	0	53	104	0	51	18810
2026-01-06 01:05:52.20	3.43	9.02	-40.0	-54.5	3.8	1.49e+00	0	53	104	0	51	19235
2026-01-06 01:05:53.20	3.34	9.09	-39.8	-54.3	3.8	1.49e+00	0	53	104	0	51	18817
2026-01-06 01:05:54.21	3.24	9.17	-39.9	-54.4	3.8	1.49e+00	0	53	104	0	51	19037
2026-01-06 01:05:55.22	3.15	9.24	-39.8	-54.3	3.8	1.49e+00	0	53	104	0	51	18947
2026-01-06 01:05:56.23	3.06	9.31	-39.9	-54.4	3.8	1.49e+00	0	53	104	0	51	19067
2026-01-06 01:05:57.24	2.97	9.38	-39.8	-54.4	3.8	1.49e+00	0	53	104	0	51	18954
2026-01-06 01:05:58.25	2.87	9.46	-40.0	-54.5	3.8	1.49e+00	0	53	104	0	51	19222
2026-01-06 01:05:59.26	2.78	9.53	-39.9	-54.3	3.8	1.49e+00	0	53	104	0	51	18929
2026-01-06 01:06:00.27	2.69	9.60	-40.0	-54.5	3.8	1.49e+00	0	53	104	0	51	19189
2026-01-06 01:06:01.28	2.59	9.67	-39.9	-54.4	3.8	1.49e+00	0	53	104	0	51	19011
2026-01-06 01:06:02.29	2.50	9.75	-39.9	-54.4	3.8	1.49e+00	0	53	104	0	51	19090
2026-01-06 01:06:03.30	2.40	9.82	-39.8	-54.3	3.8	1.49e+00	0	53	104	0	51	18930
2026-01-06 01:06:04.31	2.30	9.89	-39.9	-54.4	3.8	1.49e+00	0	53	104	0	51	19033
2026-01-06 01:06:05.32	2.21	9.97	-39.9	-54.4	3.8	1.49e+00	0	53	104	0	51	19001
2026-01-06 01:06:06.33	2.11	10.04	-39.9	-54.4	3.8	1.49e+00	0	53	104	0	51	19088
2026-01-06 01:06:07.34	2.01	10.11	-39.9	-54.4	3.8	1.49e+00	0	53	104	0	51	19024
2026-01-06 01:06:08.35	1.91	10.19	-39.9	-54.4	3.8	1.49e+00	0	54	104	0	51	19060
2026-01-06 01:06:09.36	1.82	10.26	-39.8	-54.4	3.8	1.49e+00	0	53	104	0	51	18959
2026-01-06 01:06:10.37	1.72	10.34	-39.9	-54.4	3.8	1.49e+00	0	53	104	0	51	19074
2026-01-06 01:06:11.38	1.62	10.41	-39.8	-54.4	3.8	1.49e+00	0	54	104	0	51	18996
2026-01-06 01:06:12.40	1.51	10.49	-39.9	-54.4	3.8	1.49e+00	0	53	104	0	51	19104
2026-01-06 01:06:13.41	1.41	10.56	-39.9	-54.4	3.8	1.49e+00	0	53	104	0	51	19010
2026-01-06 01:06:14.42	1.31	10.64	-39.9	-54.4	3.8	1.49e+00	0	53	104	0	51	19126
2026-01-06 01:06:15.43	1.21	10.71	-39.8	-54.4	3.8	1.49e+00	0	53	104	0	51	18973
2026-01-06 01:06:16.44	1.11	10.79	-39.9	-54.5	3.8	1.49e+00	0	53	104	0	51	19173
2026-01-06 01:06:17.45	1.00	10.86	-39.9	-54.4	3.8	1.49e+00	0	54	104	0	51	19100
2026-01-06 01:06:18.46	0.90	10.94	-40.0	-54.5	3.8	1.49e+00	0	54	104	0	51	19226
2026-01-06 01:06:19.47	0.80	11.01	-39.9	-54.4	3.8	1.49e+00	0	54	104	0	51	19156
2026-01-06 01:06:20.48	0.69	11.09	-40.0	-54.5	3.8	1.49e+00	0	54	104	0	51	19329
2026-01-06 01:06:21.49	0.59	11.16	-40.0	-54.5	3.8	1.49e+00	0	54	104	0	51	19281
2026-01-06 01:06:22.50	0.48	11.24	-40.0	-54.6	3.8	1.49e+00	0	54	104	0	51	19425
2026-01-06 01:06:23.51	0.37	11.32	-40.0	-54.5	3.8	1.49e+00	0	54	104	0	51	19315
2026-01-06 01:06:24.52	0.27	11.39	-40.0	-54.6	3.8	1.49e+00	0	53	104	0	51	19447
2026-01-06 01:06:25.53	0.16	11.47	-39.8	-54.5	3.8	1.49e+00	0	54	104	0	51	19302
2026-01-06 01:06:26.54	0.05	11.54	-40.0	-54.6	3.8	1.49e+00	0	54	104	0	51	19474
2026-01-06 01:06:27.55	359.94	11.62	-40.0	-54.6	3.8	1.49e+00	0	54	104	0	51	19464
2026-01-06 01:06:28.56	359.83	11.70	-40.0	-54.6	3.8	1.49e+00	0	54	104	0	51	19484
2026-01-06 01:06:29.57	359.72	11.77	-40.1	-54.6	3.8	1.49e+00	0	54	104	0	51	19514
2026-01-06 01:06:30.58	359.61	11.85	-39.9	-54.5	3.8	1.49e+00	0	54	104	0	51	19367
2026-01-06 01:06:31.59	359.50	11.93	-39.9	-54.5	3.8	1.49e+00	0	54	104	0	51	19309
2026-01-06 01:06:32.59	359.39	12.00	-39.8	-54.5	3.8	1.49e+00	0	54	104	0	51	19289
2026-01-06 01:06:33.60	359.28	12.08	-39.9	-54.5	3.8	1.49e+00	0	54	104	0	51	19331
2026-01-06 01:06:34.61	359.17	12.16	-39.9	-54.5	3.8	1.49e+00	0	54	104	0	51	19282
2026-01-06 01:06:35.62	359.05	12.24	-40.1	-54.5	3.8	1.49e+00	0	54	104	0	51	19197
2026-01-06 01:06:36.63	358.94	12.31	-40.0	-54.5	3.8	1.49e+00	0	54	104	0	51	19350
2026-01-06 01:06:37.64	358.82	12.39	-40.4	-54.6	3.8	1.49e+00	0	54	104	0	51	19590
2026-01-06 01:06:38.65	358.71	12.47	-39.9	-54.5	3.8	1.49e+00	0	54	104	0	51	19225
2026-01-06 01:06:39.66	358.59	12.55	-40.4	-54.1	3.8	1.49e+00	0	54	104	0	51	18348
2026-01-06 01:06:40.67	358.48	12.63	-40.0	-54.2	3.8	1.49e+00	0	54	104	0	51	18654
2026-01-06 01:06:41.68	358.36	12.71	-40.6	-52.8	3.9	1.49e+00	0	54	104	0	51	15828
2026-01-06 01:06:42.69	358.24	12.78	-40.1	-53.2	3.8	1.16e+00	0	54	104	0	52	15618
2026-01-06 01:06:43.70	358.12	12.86	-40.3	-50.4	4.1	1.49e+00	0	54	104	0	52	11387
2026-01-06 01:06:44.71	358.00	12.94	-40.5	-47.8	7.0	3.24e-01	0	54	0	1048576	52	8460
2026-01-06 01:06:45.72	357.88	13.02	-40.4	-46.5	8.7	9.73e-02	0	54	0	3145728	52	7215
2026-01-06 01:06:46.73	357.76	13.10	-40.3	-45.6	9.9	1.51e-02	0	54	0	4194304	52	6500
2026-01-06 01:06:47.74	357.64	13.18	-40.3	-45.2	10.5	5.88e-03	0	54	0	6291456	52	6251
2026-01-06 01:06:48.75	357.52	13.26	-40.2	-44.8	10.9	3.18e-03	0	54	0	8388608	52	5964
2026-01-06 01:06:49.76	357.40	13.34	-40.1	-44.7	11.1	1.71e-03	0	54	0	10485760	52	5857
2026-01-06 01:06:50.77	357.27	13.42	-40.0	-44.3	11.6	1.10e-03	0	54	0	12582912	52	5652
2026-01-06 01:06:51.78	357.15	13.50	-40.1	-44.2	11.7	6.00e-04	0	54	0	13631488	51	5906
2026-01-06 01:06:52.79	357.02	13.58	-40.0	-44.2	11.7	5.42e-04	0	54	0	15728640	51	5880
2026-01-06 01:06:53.80	356.90	13.66	-39.8	-43.9	11.9	5.08e-04	0	54	0	17825792	51	5696
2026-01-06 01:06:54.81	356.77	13.74	-39.9	-44.1	11.6	4.70e-04	0	54	0	19922944	51	5841
2026-01-06 01:06:55.82	356.65	13.82	-39.9	-44.3	11.2	1.02e-03	0	54	0	22020096	51	5990
2026-01-06 01:06:56.83	356.52	13.90	-40.0	-44.7	10.7	1.69e-03	0	55	0	23068672	51	6237
2026-01-06 01:06:57.84	356.39	13.98	-40.2	-45.7	9.5	5.90e-03	0	54	0	25165824	51	6973
2026-01-06 01:06:58.85	356.26	14.06	-40.4	-46.6	8.3	3.70e-02	0	54	0	27262976	51	7735
2026-01-06 01:06:59.86	356.13	14.14	-40.5	-47.6	7.1	9.66e-02	0	54	0	29360128	51	8710
2026-01-06 01:07:00.87	356.00	14.22	-40.6	-49.0	5.8	2.42e-01	0	54	0	31457280	51	10216
2026-01-06 01:07:01.88	355.87	14.30	-40.6	-50.2	4.9	6.86e-01	0	54	0	32505856	51	11771
2026-01-06 01:07:02.89	355.74	14.38	-40.6	-51.3	4.3	1.07e+00	57	54	0	34603008	51	13402
2026-01-06 01:07:03.90	355.61	14.46	-40.6	-52.8	3.8	1.42e+00	0	54	104	34603008	51	15916
2026-01-06 01:07:04.91	355.47	14.54	-40.5	-53.5	3.8	1.48e+00	0	54	104	34603008	51	17192
2026-01-06 01:07:05.92	355.34	14.63	-40.5	-54.1	3.8	1.49e+00	0	55	104	34603008	51	18478
2026-01-06 01:07:06.93	355.20	14.71	-40.4	-54.5	3.8	1.49e+00	0	55	104	34603008	51	19197
2026-01-06 01:07:07.94	355.07	14.79	-40.4	-54.6	3.8	1.49e+00	0	55	104	34603008	51	19501
2026-01-06 01:07:08.95	354.93	14.87	-40.4	-54.7	3.8	1.49e+00	0	54	104	34603008	51	19817
2026-01-06 01:07:09.96	354.79	14.95	-40.4	-54.8	3.8	1.49e+00	0	54	104	34603008	51	19898
2026-01-06 01:07:10.97	354.66	15.03	-40.7	-55.1	3.8	1.49e+00	0	55	104	34603008	51	20575
2026-01-06 01:07:11.98	354.52	15.12	-40.4	-54.9	3.8	1.49e+00	0	55	104	34603008	51	20154
2026-01-06 01:07:12.99	354.38	15.20	-40.4	-54.9	3.8	1.49e+00	0	55	104	34603008	51	20270
2026-01-06 01:07:14.00	354.24	15.28	-40.5	-54.9	3.8	1.49e+00	0	55	104	34603008	51	20250
2026-01-06 01:07:15.01	354.10	15.36	-40.3	-55.0	3.8	1.49e+00	0	55	104	34603008	51	20464
2026-01-06 01:07:16.02	353.95	15.45	-40.4	-54.9	3.8	1.49e+00	0	55	104	34603008	51	20127
2026-01-06 01:07:17.03	353.81	15.53	-40.5	-55.0	3.8	1.49e+00	0	55	104	34603008	51	20362
2026-01-06 01:07:18.03	353.67	15.61	-40.3	-54.9	3.8	1.49e+00	0	55	104	34603008	51	20170
2026-01-06 01:07:19.04	353.53	15.69	-40.4	-54.9	3.8	1.49e+00	0	55	104	34603008	51	20275
2026-01-06 01:07:20.05	353.38	15.78	-40.4	-55.0	3.8	1.49e+00	0	55	104	34603008	51	20376
2026-01-06 01:07:21.06	353.23	15.86	-39.8	-55.2	3.8	1.49e+00	0	55	104	34603008	51	20808
2026-01-06 01:07:22.07	353.09	15.94	-40.4	-54.9	3.8	1.49e+00	0	55	104	34603008	51	20163
2026-01-06 01:07:23.08	352.94	16.02	-40.1	-55.2	3.8	1.49e+00	0	55	104	34603008	51	20972
2026-01-06 01:07:24.09	352.79	16.11	-40.3	-55.0	3.8	1.49e+00	0	55	104	34603008	51	20325
2026-01-06 01:07:25.10	352.64	16.19	-40.1	-55.1	3.8	1.49e+00	0	55	104	34603008	51	20748
2026-01-06 01:07:26.11	352.49	16.27	-40.5	-55.2	3.8	1.49e+00	0	55	104	34603008	51	20907
2026-01-06 01:07:27.12	352.34	16.36	-40.3	-55.2	3.8	1.49e+00	0	55	104	34603008	51	20964
2026-01-06 01:07:28.13	352.19	16.44	-40.5	-55.2	3.8	1.49e+00	0	55	104	34603008	51	20806
2026-01-06 01:07:29.14	352.04	16.53	-39.9	-55.2	3.8	1.49e+00	0	55	104	34603008	51	20848
2026-01-06 01:07:30.16	351.88	16.61	-39.8	-55.2	3.8	1.49e+00	0	55	104	34603008	51	21009
2026-01-06 01:07:31.17	351.73	16.69	-40.0	-55.3	3.8	1.49e+00	0	55	104	34603008	51	21114
2026-01-06 01:07:32.18	351.57	16.78	-40.1	-55.2	3.8	1.49e+00	0	55	104	34603008	51	20992
2026-01-06 01:07:33.19	351.42	16.86	-40.4	-55.2	3.8	1.49e+00	0	55	104	34603008	51	20910
2026-01-06 01:07:34.20	351.26	16.95	-40.2	-55.2	3.8	1.49e+00	0	55	104	34603008	51	20955
2026-01-06 01:07:35.21	351.10	17.03	-40.3	-55.2	3.8	1.49e+00	0	55	104	34603008	51	20937
2026-01-06 01:07:36.22	350.94	17.11	-40.4	-55.3	3.8	1.49e+00	0	55	104	34603008	51	21078
2026-01-06 01:07:37.23	350.78	17.20	-40.7	-55.5	3.8	1.49e+00	0	55	104	34603008	52	20406
2026-01-06 01:07:38.24	350.62	17.28	-39.9	-55.2	3.8	1.49e+00	0	55	104	34603008	51	20917
2026-01-06 01:07:39.25	350.46	17.37	-40.8	-55.4	3.8	1.49e+00	0	55	104	34603008	52	20190
2026-01-06 01:07:40.26	350.30	17.45	-40.1	-55.4	3.8	1.49e+00	0	55	104	34603008	51	21323
2026-01-06 01:07:41.26	350.14	17.53	-40.6	-55.2	3.8	1.49e+00	0	55	104	34603008	52	19770
2026-01-06 01:07:42.27	349.97	17.62	-40.7	-55.2	3.8	1.49e+00	0	55	104	34603008	52	19783
2026-01-06 01:07:43.29	349.80	17.70	-40.6	-55.2	3.8	1.49e+00	0	55	104	34603008	52	19625
2026-01-06 01:07:44.30	349.64	17.79	-40.9	-55.5	3.8	1.49e+00	0	55	104	34603008	52	20410
2026-01-06 01:07:45.30	349.47	17.87	-40.7	-55.3	3.8	1.49e+00	0	55	104	34603008	52	20046
2026-01-06 01:07:46.32	349.30	17.96	-40.7	-55.4	3.8	1.49e+00	0	55	104	34603008	52	20090
2026-01-06 01:07:47.32	349.13	18.04	-40.7	-55.3	3.8	1.49e+00	0	55	104	34603008	52	19954
2026-01-06 01:07:48.33	348.96	18.13	-40.7	-55.3	3.8	1.49e+00	0	55	104	34603008	52	19873
2026-01-06 01:07:49.34	348.79	18.21	-40.5	-55.1	3.8	1.49e+00	0	55	104	34603008	52	19458
2026-01-06 01:07:50.35	348.62	18.30	-41.4	-55.9	3.8	1.49e+00	0	55	104	34603008	53	20288
2026-01-06 01:07:51.36	348.45	18.38	-40.6	-55.1	3.8	1.49e+00	0	55	104	34603008	53	18443
2026-01-06 01:07:52.37	348.27	18.46	-40.6	-55.1	3.8	1.49e+00	0	55	104	34603008	53	18468
2026-01-06 01:07:53.38	348.10	18.55	-40.6	-55.2	3.8	1.49e+00	0	55	104	34603008	53	18562
2026-01-06 01:07:54.39	347.92	18.63	-40.5	-55.0	3.8	1.49e+00	0	55	104	34603008	52	19257
2026-01-06 01:07:55.40	347.75	18.72	-40.6	-55.2	3.8	1.49e+00	0	55	104	34603008	52	19733
2026-01-06 01:07:56.41	347.57	18.80	-40.6	-55.3	3.8	1.49e+00	0	55	104	34603008	52	19990
2026-01-06 01:07:57.42	347.39	18.89	-40.5	-55.0	3.8	1.49e+00	0	55	104	34603008	52	19353
2026-01-06 01:07:58.43	347.21	18.97	-40.6	-55.1	3.8	1.49e+00	0	55	104	34603008	52	19571
2026-01-06 01:07:59.44	347.03	19.06	-40.5	-55.0	3.8	1.49e+00	0	55	104	34603008	52	19327
2026-01-06 01:08:00.45	346.85	19.14	-40.5	-55.0	3.8	1.49e+00	0	55	104	34603008	52	19288
2026-01-06 01:08:01.46	346.66	19.23	-40.5	-55.0	3.8	1.49e+00	0	55	104	34603008	52	19183
2026-01-06 01:08:02.47	346.48	19.31	-40.4	-55.0	3.8	1.49e+00	0	55	104	34603008	52	19242
2026-01-06 01:08:03.48	346.29	19.40	-40.6	-55.1	3.8	1.49e+00	0	55	104	34603008	52	19565
2026-01-06 01:08:04.49	346.11	19.48	-40.6	-55.2	3.8	1.49e+00	0	55	104	34603008	52	19626
2026-01-06 01:08:05.50	345.92	19.57	-40.5	-55.1	3.8	1.49e+00	0	55	104	34603008	52	19443
2026-01-06 01:08:06.52	345.73	19.65	-40.5	-55.1	3.8	1.49e+00	0	55	104	34603008	52	19426
2026-01-06 01:08:07.53	345.54	19.74	-40.4	-55.0	3.8	1.49e+00	0	55	104	34603008	52	19294
2026-01-06 01:08:08.54	345.35	19.82	-40.4	-55.0	3.8	1.49e+00	0	55	104	34603008	52	19369
2026-01-06 01:08:09.55	345.16	19.91	-40.4	-55.0	3.8	1.49e+00	0	55	104	34603008	52	19190
2026-01-06 01:08:10.56	344.96	19.99	-40.4	-54.9	3.8	1.49e+00	0	55	104	34603008	52	19051
2026-01-06 01:08:11.57	344.77	20.07	-40.4	-54.9	3.8	1.49e+00	0	55	104	34603008	52	18992
2026-01-06 01:08:12.58	344.58	20.16	-40.7	-54.9	3.8	1.49e+00	0	55	104	34603008	52	19061
2026-01-06 01:08:13.58	344.38	20.24	-40.4	-54.7	3.8	1.49e+00	0	56	104	34603008	52	18614
2026-01-06 01:08:14.59	344.18	20.33	-40.4	-54.7	3.8	1.49e+00	0	55	104	34603008	52	18649
2026-01-06 01:08:15.60	343.99	20.41	-40.5	-53.2	3.8	1.49e+00	0	55	104	34603008	52	15743
2026-01-06 01:08:16.61	343.79	20.49	-40.7	-52.4	4.1	1.47e+00	0	55	104	34603008	52	14295
2026-01-06 01:08:17.62	343.59	20.58	-40.9	-51.7	4.4	1.36e+00	89	55	0	34603008	52	13124
2026-01-06 01:08:18.63	343.38	20.66	-41.2	-50.9	4.9	9.44e-01	0	55	0	36700160	52	11993
2026-01-06 01:08:19.64	343.18	20.75	-41.5	-50.4	5.3	5.98e-01	0	55	0	38797312	53	10765
2026-01-06 01:08:20.65	342.98	20.83	-41.6	-49.4	6.2	3.58e-01	0	55	0	39845888	53	9556
2026-01-06 01:08:21.66	342.77	20.91	-41.6	-48.7	7.1	1.86e-01	0	55	0	41943040	53	8793
2026-01-06 01:08:22.67	342.57	21.00	-41.6	-48.0	8.1	1.05e-01	0	56	0	44040192	53	8089
2026-01-06 01:08:23.68	342.36	21.08	-41.6	-47.3	9.0	3.27e-02	0	55	0	46137344	53	7487
2026-01-06 01:08:24.69	342.15	21.16	-41.5	-46.7	9.9	1.27e-02	0	55	0	48234496	53	6961
2026-01-06 01:08:25.70	341.94	21.25	-41.4	-46.3	10.4	7.05e-03	0	55	0	49283072	53	6688
2026-01-06 01:08:26.71	341.73	21.33	-41.2	-45.6	11.2	2.12e-03	0	55	0	51380224	53	6183
2026-01-06 01:08:27.72	341.52	21.41	-40.8	-44.7	12.2	4.90e-04	0	55	0	53477376	53	5533
2026-01-06 01:08:28.73	341.31	21.49	-40.3	-43.8	13.2	8.16e-05	0	56	0	55574528	52	5306
2026-01-06 01:08:29.74	341.09	21.58	-40.1	-43.4	13.7	5.30e-06	0	56	0	57671680	52	5047
2026-01-06 01:08:30.75	340.88	21.66	-40.0	-43.1	14.1	1.50e-06	0	56	0	58720256	51	5196
2026-01-06 01:08:31.76	340.66	21.74	-40.1	-43.2	14.1	2.20e-06	0	56	0	60817408	51	5249
2026-01-06 01:08:32.77	340.44	21.82	-40.2	-43.3	14.1	3.00e-06	0	55	0	62914560	51	5311
2026-01-06 01:08:33.78	340.23	21.90	-40.5	-43.7	13.7	6.80e-06	0	55	0	65011712	51	5583
2026-01-06 01:08:34.79	340.01	21.99	-40.6	-43.9	13.6	1.14e-05	0	55	0	67108864	52	5399
2026-01-06 01:08:35.80	339.79	22.07	-40.5	-43.7	13.9	3.80e-06	0	55	0	68157440	52	5232
2026-01-06 01:08:36.80	339.57	22.15	-40.4	-43.4	14.2	3.00e-06	0	55	0	70254592	52	5072
2026-01-06 01:08:37.82	339.34	22.23	-40.1	-42.9	14.8	7.00e-07	0	55	0	72351744	52	4806
2026-01-06 01:08:38.83	339.12	22.31	-39.9	-42.4	15.5	0.00e+00	0	56	0	74448896	51	4794
2026-01-06 01:08:39.84	338.89	22.39	-39.8	-42.4	15.6	0.00e+00	0	56	0	76546048	51	4765
2026-01-06 01:08:40.85	338.66	22.47	-39.8	-42.3	15.7	0.00e+00	0	55	0	77594624	51	4726
2026-01-06 01:08:41.86	338.43	22.55	-39.7	-42.1	15.9	0.00e+00	0	55	0	79691776	51	4635
2026-01-06 01:08:42.87	338.21	22.63	-39.7	-42.1	15.9	0.00e+00	0	55	0	81788928	51	4602
2026-01-06 01:08:43.88	337.97	22.71	-39.9	-42.4	15.6	0.00e+00	0	56	0	83886080	51	4775
2026-01-06 01:08:44.89	337.74	22.79	-39.9	-42.4	15.7	0.00e+00	0	55	0	85983232	51	4774
2026-01-06 01:08:45.90	337.51	22.87	-39.9	-42.4	15.7	0.00e+00	0	55	0	87031808	51	4780
2026-01-06 01:08:46.91	337.28	22.95	-39.9	-42.3	15.8	0.00e+00	0	56	0	89128960	51	4752
2026-01-06 01:08:47.92	337.04	23.03	-39.8	-42.2	15.9	0.00e+00	0	56	0	91226112	51	4667
2026-01-06 01:08:48.93	336.80	23.10	-39.7	-42.0	16.1	0.00e+00	0	56	0	93323264	51	4594
2026-01-06 01:08:49.94	336.57	23.18	-39.5	-41.8	16.3	0.00e+00	0	56	0	95420416	51	4467
2026-01-06 01:08:50.95	336.33	23.26	-39.5	-41.8	16.3	0.00e+00	0	56	0	96468992	51	4461
2026-01-06 01:08:51.96	336.09	23.34	-39.5	-41.7	16.5	0.00e+00	0	55	0	98566144	50	4687
2026-01-06 01:08:52.97	335.85	23.41	-39.5	-41.8	16.4	0.00e+00	0	55	0	100663296	50	4711
2026-01-06 01:08:53.98	335.60	23.49	-39.6	-41.9	16.3	0.00e+00	0	56	0	102760448	50	4794
2026-01-06 01:08:54.99	335.36	23.57	-39.7	-42.0	16.1	0.00e+00	0	55	0	104857600	50	4863
2026-01-06 01:08:56.00	335.12	23.64	-39.7	-42.0	16.2	0.00e+00	0	55	0	106954752	50	4858
2026-01-06 01:08:57.01	334.87	23.72	-39.6	-42.0	16.2	0.00e+00	0	56	0	108003328	50	4833
2026-01-06 01:08:58.02	334.62	23.79	-39.6	-41.9	16.2	0.00e+00	0	56	0	110100480	50	4810
2026-01-06 01:08:59.02	334.38	23.87	-39.5	-41.8	16.4	0.00e+00	0	55	0	112197632	50	4717
2026-01-06 01:09:00.04	334.12	23.94	-39.7	-42.0	16.2	0.00e+00	0	55	0	114294784	50	4840
2026-01-06 01:09:01.04	333.88	24.02	-39.7	-42.1	16.2	0.00e+00	0	55	0	116391936	50	4878
2026-01-06 01:09:02.05	333.62	24.09	-39.8	-42.1	16.1	0.00e+00	0	56	0	117440512	50	4926
2026-01-06 01:09:03.06	333.37	24.16	-39.7	-42.1	16.1	0.00e+00	0	55	0	119537664	50	4886
2026-01-06 01:09:04.07	333.12	24.24	-39.7	-42.1	16.1	0.00e+00	0	55	0	121634816	50	4887
2026-01-06 01:09:05.09	332.86	24.31	-39.8	-42.1	16.2	0.00e+00	0	55	0	123731968	50	4893
2026-01-06 01:09:06.10	332.60	24.38	-39.8	-42.1	16.1	0.00e+00	0	56	0	125829120	50	4908
2026-01-06 01:09:07.11	332.34	24.46	-39.9	-42.3	16.0	0.00e+00	0	56	0	126877696	50	4986
2026-01-06 01:09:08.12	332.08	24.53	-39.7	-42.1	16.2	0.00e+00	0	56	0	128974848	50	4887
2026-01-06 01:09:09.13	331.82	24.60	-39.7	-42.1	16.2	0.00e+00	0	56	0	131072000	50	4878
2026-01-06 01:09:10.14	331.56	24.67	-39.7	-42.0	16.2	0.00e+00	0	56	0	133169152	50	4848
2026-01-06 01:09:11.15	331.30	24.74	-39.7	-42.0	16.3	0.00e+00	0	55	0	135266304	50	4827
2026-01-06 01:09:12.16	331.03	24.81	-39.7	-42.0	16.2	0.00e+00	0	56	0	136314880	50	4844
2026-01-06 01:09:13.17	330.77	24.88	-39.7	-42.1	16.2	0.00e+00	0	56	0	138412032	50	4874
2026-01-06 01:09:14.18	330.50	24.94	-39.9	-42.2	16.1	0.00e+00	0	56	0	140509184	50	4975
2026-01-06 01:09:15.19	330.23	25.01	-39.9	-42.3	16.0	0.00e+00	0	55	0	142606336	50	4993
2026-01-06 01:09:16.20	329.97	25.08	-39.9	-42.2	16.0	0.00e+00	0	56	0	144703488	50	4982
2026-01-06 01:09:17.20	329.70	25.15	-39.9	-42.3	15.9	0.00e+00	0	56	0	145752064	50	5035
2026-01-06 01:09:18.21	329.43	25.21	-40.0	-42.4	15.9	0.00e+00	0	56	0	147849216	50	5073
2026-01-06 01:09:19.22	329.16	25.28	-40.0	-42.4	15.9	0.00e+00	0	56	0	149946368	50	5061
2026-01-06 01:09:20.24	328.88	25.34	-40.0	-42.5	15.8	0.00e+00	0	56	0	152043520	50	5116
2026-01-06 01:09:21.25	328.60	25.41	-40.0	-42.4	15.9	0.00e+00	0	56	0	154140672	50	5093
2026-01-06 01:09:22.26	328.33	25.47	-39.9	-42.3	16.0	0.00e+00	0	56	0	155189248	50	5013
2026-01-06 01:09:23.27	328.05	25.54	-39.9	-42.2	16.1	0.00e+00	0	56	0	157286400	50	4974
2026-01-06 01:09:24.28	327.77	25.60	-39.7	-42.0	16.3	0.00e+00	0	56	0	159383552	50	4868
2026-01-06 01:09:25.28	327.50	25.66	-39.7	-42.0	16.3	0.00e+00	0	56	0	161480704	50	4838
2026-01-06 01:09:26.29	327.22	25.72	-39.7	-41.9	16.4	0.00e+00	0	56	0	163577856	50	4797
2026-01-06 01:09:27.30	326.94	25.79	-39.6	-41.8	16.4	0.00e+00	0	56	0	164626432	50	4758
2026-01-06 01:09:28.31	326.65	25.85	-39.5	-41.7	16.6	0.00e+00	0	56	0	166723584	50	4696
2026-01-06 01:09:29.32	326.37	25.91	-39.6	-41.8	16.5	0.00e+00	0	56	0	168820736	50	4733
2026-01-06 01:09:30.33	326.09	25.97	-39.6	-41.8	16.5	0.00e+00	0	56	0	170917888	50	4758
2026-01-06 01:09:31.34	325.80	26.02	-39.6	-41.9	16.5	0.00e+00	0	56	0	173015040	50	4780
2026-01-06 01:09:32.35	325.51	26.08	-39.7	-41.9	16.4	0.00e+00	0	56	0	175112192	50	4803
2026-01-06 01:09:33.36	325.23	26.14	-39.7	-42.1	16.3	0.00e+00	0	56	0	176160768	50	4876
2026-01-06 01:09:34.37	324.94	26.20	-39.8	-42.2	16.1	0.00e+00	0	56	0	178257920	50	4960
2026-01-06 01:09:35.38	324.65	26.25	-39.8	-42.1	16.2	0.00e+00	0	56	0	180355072	50	4918
2026-01-06 01:09:36.39	324.36	26.31	-39.8	-42.2	16.2	0.00e+00	0	56	0	182452224	50	4937
2026-01-06 01:09:37.40	324.07	26.36	-39.8	-42.1	16.2	0.00e+00	0	56	0	184549376	50	4894
2026-01-06 01:09:38.41	323.77	26.42	-39.5	-41.8	16.6	0.00e+00	0	56	0	185597952	50	4706
2026-01-06 01:09:39.42	323.48	26.47	-39.4	-41.6	16.7	0.00e+00	0	56	0	187695104	50	4640
2026-01-06 01:09:40.43	323.18	26.52	-39.4	-41.6	16.8	0.00e+00	0	56	0	189792256	50	4615
2026-01-06 01:09:41.44	322.89	26.57	-39.4	-41.5	16.8	0.00e+00	0	56	0	191889408	50	4598
2026-01-06 01:09:42.45	322.59	26.62	-39.5	-41.6	16.7	0.00e+00	0	56	0	193986560	50	4648
2026-01-06 01:09:43.45	322.30	26.67	-39.6	-41.8	16.5	0.00e+00	0	56	0	195035136	50	4741
2026-01-06 01:09:44.46	322.00	26.72	-39.6	-41.8	16.6	0.00e+00	0	56	0	197132288	50	4746
2026-01-06 01:09:45.47	321.70	26.77	-39.6	-41.9	16.5	0.00e+00	0	56	0	199229440	50	4776
2026-01-06 01:09:46.49	321.39	26.82	-39.6	-41.8	16.5	0.00e+00	0	56	0	201326592	50	4747
2026-01-06 01:09:47.49	321.10	26.87	-39.6	-41.8	16.5	0.00e+00	0	56	0	203423744	50	4754
2026-01-06 01:09:48.50	320.79	26.91	-39.7	-42.0	16.4	0.00e+00	0	56	0	204472320	50	4818
2026-01-06 01:09:49.51	320.49	26.96	-39.7	-42.0	16.3	0.00e+00	0	56	0	206569472	50	4864
2026-01-06 01:09:50.52	320.19	27.00	-39.8	-42.2	16.1	0.00e+00	0	56	0	208666624	50	4951
2026-01-06 01:09:51.53	319.88	27.05	-40.1	-42.5	15.8	0.00e+00	0	56	0	210763776	50	5154
2026-01-06 01:09:52.54	319.58	27.09	-40.2	-42.8	15.6	0.00e+00	0	56	0	212860928	50	5280
2026-01-06 01:09:53.55	319.27	27.13	-40.4	-43.0	15.3	0.00e+00	0	56	0	213909504	51	5132
2026-01-06 01:09:54.56	318.96	27.18	-40.4	-43.0	15.3	0.00e+00	0	56	0	216006656	51	5149
2026-01-06 01:09:55.57	318.65	27.22	-40.3	-42.9	15.4	0.00e+00	0	56	0	218103808	51	5093
2026-01-06 01:09:56.58	318.34	27.26	-40.2	-42.8	15.6	0.00e+00	0	56	0	220200960	51	4987
2026-01-06 01:09:57.59	318.03	27.29	-40.2	-42.8	15.5	0.00e+00	0	56	0	222298112	51	4993
2026-01-06 01:09:58.60	317.72	27.33	-40.3	-42.9	15.3	0.00e+00	0	56	0	223346688	51	5100
2026-01-06 01:09:59.61	317.41	27.37	-40.4	-43.1	15.3	0.00e+00	0	56	0	225443840	51	5163
2026-01-06 01:10:00.62	317.10	27.41	-40.6	-43.3	15.0	7.00e-07	0	56	0	227540992	51	5308
2026-01-06 01:10:01.63	316.79	27.44	-40.6	-43.3	15.0	0.00e+00	0	56	0	229638144	51	5314
2026-01-06 01:10:02.64	316.47	27.47	-40.6	-43.3	15.1	7.00e-07	0	56	0	231735296	51	5299
2026-01-06 01:10:03.64	316.16	27.51	-40.5	-43.2	15.2	0.00e+00	0	56	0	232783872	51	5235
2026-01-06 01:10:04.65	315.85	27.54	-40.4	-43.0	15.3	0.00e+00	0	56	0	234881024	51	5136
2026-01-06 01:10:05.66	315.53	27.57	-40.4	-43.0	15.4	0.00e+00	0	56	0	236978176	51	5115
2026-01-06 01:10:06.67	315.22	27.60	-40.3	-42.9	15.4	0.00e+00	0	56	0	239075328	51	5076
2026-01-06 01:10:07.68	314.90	27.63	-40.4	-43.0	15.3	0.00e+00	0	56	0	241172480	51	5106
2026-01-06 01:10:08.69	314.58	27.66	-40.4	-43.1	15.2	0.00e+00	0	56	0	243269632	51	5170
2026-01-06 01:10:09.70	314.26	27.69	-40.5	-43.2	15.1	0.00e+00	0	56	0	244318208	51	5254
2026-01-06 01:10:10.71	313.95	27.72	-40.6	-43.4	15.0	7.00e-07	0	56	0	246415360	51	5365
2026-01-06 01:10:11.72	313.63	27.74	-40.5	-43.3	14.9	7.00e-07	0	56	0	248512512	52	5014
2026-01-06 01:10:12.73	313.31	27.77	-40.6	-43.5	14.8	0.00e+00	0	56	0	250609664	52	5107
2026-01-06 01:10:13.74	312.99	27.79	-40.6	-43.5	14.8	0.00e+00	0	56	0	252706816	52	5104
2026-01-06 01:10:14.75	312.67	27.81	-40.8	-43.7	14.6	7.00e-07	0	56	0	253755392	52	5228
2026-01-06 01:10:15.76	312.35	27.84	-40.9	-43.9	14.3	7.00e-07	0	56	0	255852544	52	5374
2026-01-06 01:10:16.77	312.03	27.86	-40.9	-43.9	14.3	1.50e-06	0	56	0	257949696	52	5344
2026-01-06 01:10:17.78	311.70	27.88	-40.9	-43.9	14.3	3.00e-06	0	56	0	260046848	52	5348
2026-01-06 01:10:18.78	311.38	27.90	-40.8	-43.7	14.5	1.50e-06	0	56	0	262144000	52	5273
2026-01-06 01:10:19.79	311.06	27.92	-40.8	-43.7	14.5	1.50e-06	0	56	0	263192576	52	5248
2026-01-06 01:10:20.80	310.74	27.93	-40.9	-43.8	14.4	7.00e-07	0	56	0	265289728	52	5325
2026-01-06 01:10:21.81	310.42	27.95	-41.0	-44.1	14.1	0.00e+00	0	56	0	267386880	52	5482
2026-01-06 01:10:22.82	310.09	27.96	-41.1	-44.3	13.9	3.80e-06	0	56	0	269484032	52	5594
2026-01-06 01:10:23.83	309.77	27.98	-41.2	-44.3	13.9	2.20e-06	0	56	0	271581184	52	5637
2026-01-06 01:10:24.84	309.44	27.99	-41.1	-44.2	13.9	0.00e+00	0	56	0	272629760	52	5580
2026-01-06 01:10:25.85	309.12	28.00	-41.1	-44.1	14.1	2.20e-06	0	56	0	274726912	52	5507
2026-01-06 01:10:26.86	308.79	28.01	-41.0	-44.0	14.2	7.00e-07	0	56	0	276824064	52	5433
2026-01-06 01:10:27.87	308.47	28.02	-40.8	-43.8	14.5	0.00e+00	0	56	0	278921216	52	5294
2026-01-06 01:10:28.87	308.15	28.03	-40.7	-43.6	14.7	0.00e+00	0	56	0	281018368	52	5175
2026-01-06 01:10:29.89	307.82	28.04	-40.7	-43.5	14.8	0.00e+00	0	56	0	282066944	52	5107
2026-01-06 01:10:30.89	307.50	28.05	-40.7	-43.6	14.7	0.00e+00	0	56	0	284164096	52	5162
2026-01-06 01:10:31.90	307.17	28.05	-40.8	-43.7	14.6	0.00e+00	0	56	0	286261248	52	5226
2026-01-06 01:10:32.91	306.85	28.06	-40.9	-43.9	14.3	7.00e-07	0	56	0	288358400	52	5381
2026-01-06 01:10:33.92	306.52	28.06	-41.1	-44.1	14.1	3.80e-06	0	56	0	290455552	52	5513
2026-01-06 01:10:34.93	306.19	28.07	-41.1	-44.2	14.0	1.50e-06	0	56	0	291504128	52	5577
2026-01-06 01:10:35.94	305.87	28.07	-41.1	-44.1	14.1	4.50e-06	0	56	0	293601280	52	5522
2026-01-06 01:10:36.95	305.54	28.07	-41.0	-44.1	14.1	0.00e+00	0	56	0	295698432	52	5498
2026-01-06 01:10:37.96	305.22	28.07	-40.9	-43.9	14.3	7.00e-07	0	56	0	297795584	52	5380
2026-01-06 01:10:38.97	304.89	28.07	-40.9	-43.8	14.4	1.50e-06	0	56	0	299892736	52	5331
2026-01-06 01:10:39.98	304.56	28.07	-40.8	-43.7	14.6	0.00e+00	0	56	0	300941312	52	5227
2026-01-06 01:10:40.99	304.24	28.06	-40.7	-43.6	14.7	0.00e+00	0	56	0	303038464	52	5162
2026-01-06 01:10:42.00	303.91	28.06	-40.6	-43.5	14.8	0.00e+00	0	56	0	305135616	52	5101
2026-01-06 01:10:43.01	303.59	28.05	-40.7	-43.5	14.7	0.00e+00	0	56	0	307232768	52	5150
2026-01-06 01:10:44.02	303.26	28.05	-40.6	-43.4	14.8	0.00e+00	0	56	0	309329920	52	5075
2026-01-06 01:10:45.03	302.94	28.04	-40.6	-43.4	14.8	0.00e+00	0	56	0	311427072	52	5092
2026-01-06 01:10:46.04	302.61	28.03	-40.5	-43.3	14.9	0.00e+00	0	56	0	312475648	52	5006
2026-01-06 01:10:47.05	302.29	28.02	-40.4	-43.1	15.1	0.00e+00	0	56	0	314572800	52	4916
2026-01-06 01:10:48.06	301.96	28.01	-40.5	-43.2	15.0	0.00e+00	0	56	0	316669952	52	4982
2026-01-06 01:10:49.07	301.64	28.00	-40.5	-43.2	15.1	7.00e-07	0	56	0	318767104	52	4936
2026-01-06 01:10:50.08	301.31	27.99	-40.5	-43.2	15.1	7.00e-07	0	56	0	320864256	52	4934
2026-01-06 01:10:51.09	300.99	27.97	-40.4	-43.1	15.1	7.00e-07	0	56	0	321912832	52	4903
2026-01-06 01:10:52.10	300.66	27.96	-40.4	-43.0	15.2	0.00e+00	0	56	0	324009984	52	4865
2026-01-06 01:10:53.11	300.34	27.94	-40.4	-43.1	15.1	0.00e+00	0	56	0	326107136	52	4902
2026-01-06 01:10:54.12	300.02	27.93	-40.6	-43.3	14.9	0.00e+00	0	56	0	328204288	52	5020
2026-01-06 01:10:55.13	299.69	27.91	-40.5	-43.2	15.0	0.00e+00	0	56	0	330301440	52	4979
2026-01-06 01:10:56.14	299.37	27.89	-40.4	-43.1	15.1	0.00e+00	0	56	0	331350016	52	4906
2026-01-06 01:10:57.15	299.05	27.87	-40.3	-42.9	15.3	0.00e+00	0	56	0	333447168	52	4792
2026-01-06 01:10:58.16	298.73	27.85	-40.2	-42.7	15.5	0.00e+00	0	56	0	335544320	52	4691
2026-01-06 01:10:59.16	298.41	27.83	-40.1	-42.5	15.7	0.00e+00	0	56	0	337641472	52	4595
2026-01-06 01:11:00.18	298.08	27.81	-40.0	-42.5	15.8	0.00e+00	0	56	0	339738624	52	4551
2026-01-06 01:11:01.19	297.76	27.78	-40.1	-42.5	15.8	0.00e+00	0	56	0	340787200	51	4845
2026-01-06 01:11:02.19	297.45	27.76	-40.1	-42.5	15.8	0.00e+00	0	56	0	342884352	51	4870
2026-01-06 01:11:03.20	297.13	27.73	-39.9	-42.3	16.0	0.00e+00	0	56	0	344981504	51	4756
2026-01-06 01:11:04.21	296.81	27.71	-39.9	-42.2	16.1	0.00e+00	0	56	0	347078656	51	4683
2026-01-06 01:11:05.22	296.49	27.68	-39.8	-42.1	16.2	0.00e+00	0	56	0	349175808	51	4614
2026-01-06 01:11:06.23	296.17	27.65	-39.8	-42.1	16.2	0.00e+00	0	56	0	350224384	51	4602
2026-01-06 01:11:07.24	295.85	27.62	-39.7	-42.0	16.3	0.00e+00	0	56	0	352321536	51	4593
2026-01-06 01:11:08.26	295.53	27.59	-39.7	-42.0	16.4	0.00e+00	0	56	0	354418688	51	4562
2026-01-06 01:11:09.26	295.22	27.56	-39.5	-41.7	16.6	0.00e+00	0	56	0	356515840	51	4428
2026-01-06 01:11:10.28	294.90	27.53	-39.5	-41.7	16.6	0.00e+00	0	56	0	358612992	51	4423
2026-01-06 01:11:11.29	294.59	27.50	-39.5	-41.8	16.6	0.00e+00	0	56	0	359661568	50	4706
2026-01-06 01:11:12.29	294.27	27.46	-39.5	-41.8	16.5	0.00e+00	0	56	0	361758720	50	4712
2026-01-06 01:11:13.31	293.96	27.43	-39.6	-41.8	16.5	0.00e+00	0	56	0	363855872	50	4727
2026-01-06 01:11:14.32	293.64	27.39	-39.6	-41.8	16.5	0.00e+00	0	56	0	365953024	50	4738
2026-01-06 01:11:15.33	293.33	27.36	-39.7	-42.0	16.3	0.00e+00	0	56	0	368050176	50	4828
2026-01-06 01:11:16.33	293.02	27.32	-39.7	-42.0	16.3	0.00e+00	0	56	0	369098752	50	4816
2026-01-06 01:11:17.34	292.71	27.28	-39.6	-41.9	16.4	0.00e+00	0	56	0	371195904	50	4788
2026-01-06 01:11:18.35	292.40	27.24	-39.6	-41.8	16.5	0.00e+00	0	56	0	373293056	50	4737
2026-01-06 01:11:19.36	292.09	27.20	-39.6	-41.9	16.5	0.00e+00	0	56	0	375390208	50	4767
2026-01-06 01:11:20.37	291.78	27.16	-39.5	-41.8	16.5	0.00e+00	0	56	0	377487360	50	4726
2026-01-06 01:11:21.38	291.48	27.12	-39.4	-41.6	16.7	0.00e+00	0	56	0	379584512	50	4624
2026-01-06 01:11:22.39	291.17	27.08	-39.4	-41.6	16.7	0.00e+00	0	56	0	380633088	50	4610
2026-01-06 01:11:23.40	290.86	27.03	-39.5	-41.7	16.7	0.00e+00	0	56	0	382730240	50	4656
2026-01-06 01:11:24.41	290.56	26.99	-39.5	-41.7	16.6	0.00e+00	0	56	0	384827392	50	4703
2026-01-06 01:11:25.42	290.25	26.94	-39.6	-41.9	16.4	0.00e+00	0	56	0	386924544	50	4783
2026-01-06 01:11:26.43	289.95	26.90	-39.7	-42.0	16.3	0.00e+00	0	56	0	389021696	50	4821
2026-01-06 01:11:27.44	289.65	26.85	-39.8	-42.1	16.2	0.00e+00	0	56	0	390070272	50	4907
2026-01-06 01:11:28.45	289.35	26.80	-39.8	-42.2	16.1	0.00e+00	0	56	0	392167424	50	4947
2026-01-06 01:11:29.46	289.05	26.76	-39.9	-42.3	16.0	0.00e+00	0	56	0	394264576	50	5015
2026-01-06 01:11:30.47	288.75	26.71	-40.0	-42.4	15.9	0.00e+00	0	56	0	396361728	50	5073
2026-01-06 01:11:31.48	288.45	26.66	-40.0	-42.4	15.8	0.00e+00	0	56	0	398458880	50	5097
2026-01-06 01:11:32.49	288.15	26.61	-39.9	-42.3	16.0	0.00e+00	0	56	0	399507456	50	5022
2026-01-06 01:11:33.50	287.85	26.55	-40.0	-42.4	15.9	0.00e+00	0	56	0	401604608	50	5080
2026-01-06 01:11:34.51	287.55	26.50	-39.9	-42.3	16.0	0.00e+00	0	56	0	403701760	50	5033
2026-01-06 01:11:35.52	287.26	26.45	-40.0	-42.4	15.9	0.00e+00	0	56	0	405798912	50	5087
2026-01-06 01:11:36.53	286.97	26.40	-40.1	-42.6	15.7	0.00e+00	0	56	0	407896064	50	5167
2026-01-06 01:11:37.53	286.68	26.34	-40.2	-42.7	15.6	0.00e+00	0	56	0	408944640	50	5224
2026-01-06 01:11:38.55	286.38	26.29	-40.2	-42.8	15.5	0.00e+00	0	56	0	411041792	51	4998
2026-01-06 01:11:39.56	286.09	26.23	-40.4	-43.0	15.3	0.00e+00	0	56	0	413138944	51	5104
2026-01-06 01:11:40.57	285.80	26.17	-40.5	-43.3	15.0	0.00e+00	0	56	0	415236096	51	5288
2026-01-06 01:11:41.58	285.51	26.12	-40.7	-43.5	14.8	0.00e+00	0	56	0	417333248	51	5447
2026-01-06 01:11:42.58	285.22	26.06	-40.7	-43.5	14.7	7.00e-07	0	56	0	418381824	52	5148
2026-01-06 01:11:43.59	284.94	26.00	-40.7	-43.5	14.7	0.00e+00	0	56	0	420478976	52	5119
2026-01-06 01:11:44.60	284.65	25.94	-40.7	-43.5	14.7	0.00e+00	0	56	0	422576128	52	5108
2026-01-06 01:11:45.61	284.37	25.88	-40.6	-43.4	14.8	0.00e+00	0	56	0	424673280	52	5050
2026-01-06 01:11:46.62	284.08	25.82	-40.6	-43.4	14.7	0.00e+00	0	56	0	426770432	52	5082
2026-01-06 01:11:47.63	283.80	25.76	-40.6	-43.4	14.8	0.00e+00	0	56	0	427819008	52	5063
2026-01-06 01:11:48.64	283.52	25.70	-40.6	-43.4	14.7	0.00e+00	0	56	0	429916160	52	5086
2026-01-06 01:11:49.65	283.24	25.64	-40.6	-43.5	14.7	0.00e+00	0	56	0	432013312	52	5116
2026-01-06 01:11:50.66	282.96	25.57	-40.8	-43.7	14.5	0.00e+00	0	56	0	434110464	52	5222
2026-01-06 01:11:51.67	282.68	25.51	-40.8	-43.8	14.4	0.00e+00	0	56	0	436207616	52	5298
2026-01-06 01:11:52.68	282.40	25.45	-40.9	-43.9	14.3	7.00e-07	0	56	0	437256192	52	5373
2026-01-06 01:11:53.69	282.13	25.38	-41.0	-44.0	14.1	7.00e-07	0	56	0	439353344	52	5460
2026-01-06 01:11:54.70	281.85	25.32	-40.9	-44.0	14.2	4.50e-06	0	56	0	441450496	52	5416
2026-01-06 01:11:55.71	281.58	25.25	-41.0	-44.0	14.1	2.20e-06	0	56	0	443547648	52	5420
2026-01-06 01:11:56.72	281.31	25.19	-40.7	-43.6	14.5	0.00e+00	0	56	0	445644800	52	5191
2026-01-06 01:11:57.73	281.03	25.12	-40.7	-43.6	14.5	0.00e+00	0	56	0	447741952	52	5203
2026-01-06 01:11:58.74	280.76	25.05	-40.6	-43.5	14.6	0.00e+00	0	56	0	448790528	52	5134
2026-01-06 01:11:59.75	280.49	24.98	-40.6	-43.4	14.7	7.00e-07	0	56	0	450887680	52	5089
2026-01-06 01:12:00.73	280.23	24.92	-40.6	-43.4	14.7	0.00e+00	0	56	0	452984832	52	5093
2026-01-06 01:12:01.74	279.97	24.85	-40.6	-43.5	14.7	0.00e+00	0	56	0	455081984	52	5101
2026-01-06 01:12:02.75	279.70	24.78	-40.7	-43.5	14.6	7.00e-07	0	56	0	456130560	52	5157
2026-01-06 01:12:03.76	279.44	24.71	-40.7	-43.6	14.5	7.00e-07	0	56	0	458227712	52	5202
2026-01-06 01:12:04.77	279.17	24.64	-40.8	-43.7	14.4	7.00e-07	0	56	0	460324864	52	5230
2026-01-06 01:12:05.78	278.91	24.57	-40.8	-43.8	14.3	1.50e-06	0	56	0	462422016	52	5311
2026-01-06 01:12:06.79	278.65	24.50	-40.8	-43.7	14.4	7.00e-07	0	56	0	464519168	52	5238
2026-01-06 01:12:07.80	278.39	24.43	-40.8	-43.7	14.5	0.00e+00	0	56	0	465567744	52	5226
2026-01-06 01:12:08.81	278.13	24.35	-40.6	-43.4	14.7	0.00e+00	0	56	0	467664896	52	5053
2026-01-06 01:12:09.82	277.87	24.28	-40.4	-43.1	15.0	0.00e+00	0	56	0	469762048	52	4905
2026-01-06 01:12:10.83	277.62	24.21	-40.3	-42.9	15.1	0.00e+00	0	56	0	471859200	52	4801
2026-01-06 01:12:11.84	277.36	24.13	-40.3	-42.9	15.2	0.00e+00	0	56	0	473956352	52	4811
2026-01-06 01:12:12.85	277.11	24.06	-40.3	-43.0	15.1	7.00e-07	0	56	0	476053504	52	4860
2026-01-06 01:12:13.86	276.86	23.99	-40.4	-43.1	15.0	0.00e+00	0	56	0	477102080	52	4900
2026-01-06 01:12:14.87	276.61	23.91	-40.4	-43.2	14.9	0.00e+00	0	56	0	479199232	52	4942
2026-01-06 01:12:15.88	276.35	23.84	-40.5	-43.2	14.8	0.00e+00	0	56	0	481296384	52	4982
2026-01-06 01:12:16.89	276.11	23.76	-40.4	-43.2	14.9	7.00e-07	0	56	0	483393536	52	4929
2026-01-06 01:12:17.90	275.86	23.69	-40.3	-42.9	15.2	0.00e+00	0	56	0	485490688	52	4777
2026-01-06 01:12:18.91	275.61	23.61	-40.2	-42.7	15.3	0.00e+00	0	56	0	486539264	52	4703
2026-01-06 01:12:19.92	275.37	23.53	-40.0	-42.6	15.5	0.00e+00	0	56	0	488636416	52	4616
2026-01-06 01:12:20.93	275.12	23.46	-40.0	-42.5	15.6	0.00e+00	0	56	0	490733568	52	4582
2026-01-06 01:12:21.94	274.88	23.38	-40.1	-42.6	15.6	0.00e+00	0	56	0	492830720	51	4884
2026-01-06 01:12:22.95	274.64	23.30	-40.1	-42.6	15.6	0.00e+00	0	56	0	494927872	51	4910
2026-01-06 01:12:23.96	274.40	23.22	-40.0	-42.5	15.6	0.00e+00	0	56	0	495976448	51	4852
2026-01-06 01:12:24.97	274.16	23.15	-39.9	-42.4	15.8	0.00e+00	0	56	0	498073600	51	4793
2026-01-06 01:12:25.98	273.92	23.07	-39.8	-42.2	16.0	0.00e+00	0	56	0	500170752	51	4671
2026-01-06 01:12:26.99	273.68	22.99	-39.8	-42.2	16.0	0.00e+00	0	56	0	502267904	51	4697
2026-01-06 01:12:28.00	273.45	22.91	-39.7	-42.1	16.1	0.00e+00	0	56	0	504365056	51	4616
2026-01-06 01:12:29.01	273.21	22.83	-39.6	-42.0	16.2	0.00e+00	0	56	0	505413632	51	4549
2026-01-06 01:12:30.02	272.98	22.75	-39.6	-41.9	16.2	0.00e+00	0	56	0	507510784	51	4526
2026-01-06 01:12:31.03	272.75	22.67	-39.6	-41.9	16.3	0.00e+00	0	56	0	509607936	51	4514
2026-01-06 01:12:32.04	272.51	22.59	-39.6	-41.9	16.3	0.00e+00	0	56	0	511705088	51	4505
2026-01-06 01:12:33.04	272.29	22.51	-39.6	-41.9	16.3	0.00e+00	0	56	0	513802240	51	4505
2026-01-06 01:12:34.06	272.06	22.43	-39.5	-41.8	16.4	0.00e+00	0	56	0	514850816	51	4470
2026-01-06 01:12:35.07	271.83	22.35	-39.6	-41.9	16.3	0.00e+00	0	56	0	516947968	51	4511
2026-01-06 01:12:36.08	271.60	22.27	-39.5	-41.8	16.3	0.00e+00	0	56	0	519045120	51	4486
2026-01-06 01:12:37.08	271.38	22.19	-39.5	-41.8	16.4	0.00e+00	0	56	0	521142272	51	4450
2026-01-06 01:12:38.10	271.15	22.11	-39.5	-41.8	16.4	0.00e+00	0	56	0	523239424	51	4457
2026-01-06 01:12:39.11	270.93	22.03	-39.5	-41.8	16.3	0.00e+00	0	56	0	524288000	51	4461
2026-01-06 01:12:40.12	270.71	21.94	-39.6	-41.9	16.3	0.00e+00	0	56	0	526385152	51	4511
2026-01-06 01:12:41.13	270.49	21.86	-39.6	-41.9	16.2	0.00e+00	0	56	0	528482304	51	4521
2026-01-06 01:12:42.14	270.27	21.78	-39.6	-41.9	16.2	0.00e+00	0	56	0	530579456	51	4538
2026-01-06 01:12:43.15	270.05	21.70	-39.6	-42.0	16.2	0.00e+00	0	56	0	532676608	51	4548
2026-01-06 01:12:44.16	269.83	21.62	-39.6	-41.9	16.2	0.00e+00	0	56	0	533725184	51	4544
2026-01-06 01:12:45.17	269.62	21.53	-39.6	-41.9	16.2	0.00e+00	0	56	0	535822336	51	4519
2026-01-06 01:12:46.18	269.40	21.45	-39.6	-41.9	16.2	0.00e+00	0	56	0	537919488	51	4513
2026-01-06 01:12:47.19	269.19	21.37	-39.5	-41.8	16.4	0.00e+00	0	56	0	540016640	51	4456
2026-01-06 01:12:48.20	268.98	21.28	-39.4	-41.7	16.4	0.00e+00	0	56	0	542113792	50	4687
2026-01-06 01:12:49.21	268.77	21.20	-39.5	-41.8	16.4	0.00e+00	0	56	0	544210944	50	4713
2026-01-06 01:12:50.22	268.56	21.12	-39.4	-41.7	16.5	0.00e+00	0	56	0	545259520	50	4655
2026-01-06 01:12:51.23	268.35	21.03	-39.3	-41.5	16.7	0.00e+00	0	56	0	547356672	50	4568
2026-01-06 01:12:52.24	268.14	20.95	-39.2	-41.4	16.8	0.00e+00	0	56	0	549453824	50	4496
2026-01-06 01:12:53.24	267.94	20.87	-39.1	-41.2	16.9	0.00e+00	0	56	0	551550976	50	4417
2026-01-06 01:12:54.25	267.73	20.78	-39.1	-41.2	17.0	0.00e+00	0	56	0	553648128	50	4401
2026-01-06 01:12:55.26	267.53	20.70	-39.0	-41.1	17.0	0.00e+00	0	56	0	554696704	50	4354
2026-01-06 01:12:56.27	267.32	20.62	-39.0	-41.0	17.1	0.00e+00	0	56	0	556793856	49	4594
2026-01-06 01:12:57.28	267.12	20.53	-38.9	-41.0	17.1	0.00e+00	0	56	0	558891008	49	4562
2026-01-06 01:12:58.29	266.92	20.45	-38.9	-41.0	17.1	0.00e+00	0	56	0	560988160	49	4546
2026-01-06 01:12:59.30	266.72	20.36	-38.9	-41.0	17.1	0.00e+00	0	56	0	563085312	49	4552
2026-01-06 01:13:00.31	266.52	20.28	-38.9	-41.0	17.1	0.00e+00	0	56	0	564133888	49	4551
2026-01-06 01:13:01.32	266.32	20.19	-38.9	-41.0	17.1	0.00e+00	0	56	0	566231040	49	4568
2026-01-06 01:13:02.33	266.13	20.11	-38.9	-40.9	17.2	0.00e+00	0	56	0	568328192	49	4539
2026-01-06 01:13:03.34	265.93	20.02	-38.9	-40.9	17.2	0.00e+00	0	56	0	570425344	49	4521
2026-01-06 01:13:04.35	265.74	19.94	-38.7	-40.8	17.3	0.00e+00	0	56	0	572522496	49	4450
2026-01-06 01:13:05.36	265.54	19.85	-38.6	-40.6	17.4	0.00e+00	0	56	0	573571072	49	4370
2026-01-06 01:13:06.37	265.35	19.77	-38.5	-40.4	17.7	0.00e+00	0	56	0	575668224	48	4508
2026-01-06 01:13:07.38	265.16	19.69	-38.4	-40.3	17.7	0.00e+00	0	56	0	577765376	48	4482
2026-01-06 01:13:08.39	264.97	19.60	-38.4	-40.3	17.8	0.00e+00	0	56	0	579862528	48	4462
2026-01-06 01:13:09.39	264.78	19.52	-38.4	-40.3	17.7	0.00e+00	0	56	0	581959680	48	4470
2026-01-06 01:13:10.40	264.59	19.43	-38.5	-40.4	17.6	0.00e+00	0	56	0	583008256	48	4532
2026-01-06 01:13:11.41	264.41	19.35	-38.5	-40.5	17.5	0.00e+00	0	56	0	585105408	48	4571
2026-01-06 01:13:12.42	264.22	19.26	-38.6	-40.5	17.5	0.00e+00	0	56	0	587202560	48	4593
2026-01-06 01:13:13.43	264.04	19.18	-38.6	-40.6	17.4	0.00e+00	0	56	0	589299712	48	4643
2026-01-06 01:13:14.44	263.85	19.09	-38.6	-40.6	17.4	0.00e+00	0	56	0	591396864	48	4643
2026-01-06 01:13:15.45	263.67	19.01	-38.6	-40.5	17.5	0.00e+00	0	56	0	592445440	48	4596
2026-01-06 01:13:16.46	263.49	18.92	-38.5	-40.4	17.6	0.00e+00	0	56	0	594542592	48	4525
2026-01-06 01:13:17.47	263.31	18.84	-38.5	-40.4	17.6	0.00e+00	0	56	0	596639744	48	4534
2026-01-06 01:13:18.48	263.13	18.75	-38.5	-40.4	17.6	0.00e+00	0	56	0	598736896	48	4529
2026-01-06 01:13:19.49	262.95	18.67	-38.5	-40.4	17.6	0.00e+00	0	56	0	600834048	48	4543
2026-01-06 01:13:20.50	262.77	18.58	-38.5	-40.4	17.6	0.00e+00	0	56	0	601882624	48	4545
2026-01-06 01:13:21.51	262.59	18.50	-38.6	-40.6	17.4	0.00e+00	0	56	0	603979776	48	4619
2026-01-06 01:13:22.52	262.42	18.41	-38.7	-40.7	17.3	0.00e+00	0	56	0	606076928	48	4671
2026-01-06 01:13:23.53	262.24	18.33	-38.7	-40.7	17.3	0.00e+00	0	56	0	608174080	48	4700
2026-01-06 01:13:24.54	262.07	18.24	-38.9	-41.0	17.0	0.00e+00	0	56	0	610271232	48	4829
2026-01-06 01:13:25.55	261.90	18.15	-38.8	-40.8	17.2	0.00e+00	0	56	0	611319808	48	4743
2026-01-06 01:13:26.56	261.72	18.07	-38.9	-40.9	17.1	0.00e+00	0	56	0	613416960	48	4808
2026-01-06 01:13:27.57	261.55	17.98	-38.8	-40.9	17.1	0.00e+00	0	56	0	615514112	48	4795
2026-01-06 01:13:28.58	261.38	17.90	-38.8	-40.8	17.2	0.00e+00	0	56	0	617611264	48	4741
2026-01-06 01:13:29.59	261.21	17.82	-38.8	-40.8	17.2	0.00e+00	0	56	0	619708416	48	4730
2026-01-06 01:13:30.60	261.05	17.73	-38.7	-40.8	17.2	0.00e+00	0	56	0	621805568	48	4717
2026-01-06 01:13:31.61	260.88	17.65	-38.8	-40.9	17.1	0.00e+00	0	56	0	622854144	48	4792
2026-01-06 01:13:32.62	260.71	17.56	-38.9	-41.0	17.0	0.00e+00	0	56	0	624951296	48	4825
2026-01-06 01:13:33.63	260.55	17.48	-38.9	-41.1	16.9	0.00e+00	0	56	0	627048448	48	4879
2026-01-06 01:13:34.64	260.38	17.39	-39.0	-41.1	16.9	0.00e+00	0	56	0	629145600	48	4909
2026-01-06 01:13:35.65	260.22	17.31	-39.0	-41.2	16.8	0.00e+00	0	56	0	631242752	48	4930
2026-01-06 01:13:36.66	260.06	17.22	-39.0	-41.1	16.9	0.00e+00	0	56	0	632291328	48	4922
2026-01-06 01:13:37.67	259.90	17.14	-39.1	-41.2	16.7	0.00e+00	0	56	0	634388480	48	4974
2026-01-06 01:13:38.68	259.74	17.05	-39.0	-41.2	16.8	0.00e+00	0	56	0	636485632	48	4949
2026-01-06 01:13:39.69	259.58	16.97	-39.0	-41.2	16.8	0.00e+00	0	56	0	638582784	48	4948
2026-01-06 01:13:40.70	259.42	16.88	-39.1	-41.3	16.7	0.00e+00	0	56	0	640679936	48	5019
2026-01-06 01:13:41.71	259.26	16.80	-39.2	-41.4	16.6	0.00e+00	0	56	0	641728512	48	5046
2026-01-06 01:13:42.72	259.10	16.72	-39.2	-41.4	16.5	0.00e+00	0	56	0	643825664	48	5100
2026-01-06 01:13:43.73	258.95	16.63	-39.3	-41.6	16.4	0.00e+00	0	56	0	645922816	49	4880
2026-01-06 01:13:44.73	258.79	16.55	-39.4	-41.7	16.2	0.00e+00	0	56	0	648019968	49	4967
2026-01-06 01:13:45.75	258.64	16.46	-39.5	-41.8	16.1	0.00e+00	0	56	0	650117120	49	5017
2026-01-06 01:13:46.75	258.49	16.38	-39.6	-41.9	16.0	0.00e+00	0	56	0	651165696	49	5088
2026-01-06 01:13:47.76	258.33	16.30	-39.6	-42.0	15.9	0.00e+00	0	56	0	653262848	49	5154
2026-01-06 01:13:48.77	258.18	16.21	-39.7	-42.1	15.8	0.00e+00	0	56	0	655360000	49	5187
2026-01-06 01:13:49.78	258.03	16.13	-39.7	-42.2	15.8	0.00e+00	0	56	0	657457152	49	5240
2026-01-06 01:13:50.79	257.88	16.05	-39.8	-42.2	15.7	0.00e+00	0	56	0	659554304	50	4957
2026-01-06 01:13:51.80	257.73	15.96	-39.7	-42.2	15.7	0.00e+00	0	56	0	660602880	50	4956
2026-01-06 01:13:52.81	257.58	15.88	-39.7	-42.1	15.9	0.00e+00	0	56	0	662700032	50	4891
2026-01-06 01:13:53.82	257.44	15.80	-39.6	-42.0	15.9	0.00e+00	0	56	0	664797184	50	4864
2026-01-06 01:13:54.83	257.29	15.71	-39.6	-41.9	16.0	0.00e+00	0	56	0	666894336	50	4802
2026-01-06 01:13:55.84	257.14	15.63	-39.6	-42.0	15.9	0.00e+00	0	56	0	668991488	50	4842
2026-01-06 01:13:56.85	257.00	15.55	-39.6	-41.9	16.0	0.00e+00	0	56	0	670040064	50	4802
2026-01-06 01:13:57.86	256.85	15.46	-39.6	-42.0	15.9	0.00e+00	0	56	0	672137216	50	4852
2026-01-06 01:13:58.87	256.71	15.38	-39.6	-42.0	15.9	0.00e+00	0	56	0	674234368	50	4864
2026-01-06 01:13:59.88	256.57	15.30	-39.6	-42.1	15.9	0.00e+00	0	56	0	676331520	50	4876
2026-01-06 01:14:00.88	256.43	15.22	-39.7	-42.1	15.8	0.00e+00	0	56	0	678428672	50	4922
2026-01-06 01:14:01.89	256.29	15.13	-39.8	-42.3	15.6	0.00e+00	0	56	0	679477248	50	4987
2026-01-06 01:14:02.90	256.15	15.05	-39.8	-42.3	15.6	0.00e+00	0	56	0	681574400	50	5036
2026-01-06 01:14:03.91	256.01	14.97	-39.8	-42.4	15.5	0.00e+00	0	56	0	683671552	50	5058
2026-01-06 01:14:04.92	255.87	14.89	-39.8	-42.3	15.5	0.00e+00	0	56	0	685768704	50	5040
2026-01-06 01:14:05.93	255.73	14.80	-39.8	-42.3	15.6	0.00e+00	0	56	0	687865856	50	5002
2026-01-06 01:14:06.94	255.59	14.72	-39.8	-42.3	15.6	0.00e+00	0	56	0	689963008	50	5007
2026-01-06 01:14:07.95	255.46	14.64	-39.7	-42.3	15.6	0.00e+00	0	56	0	691011584	50	4985
2026-01-06 01:14:08.96	255.32	14.56	-39.8	-42.3	15.6	0.00e+00	0	56	0	693108736	50	4990
2026-01-06 01:14:09.97	255.19	14.48	-39.8	-42.4	15.5	0.00e+00	0	56	0	695205888	50	5067
2026-01-06 01:14:10.97	255.05	14.40	-39.9	-42.4	15.4	0.00e+00	0	56	0	697303040	50	5082
2026-01-06 01:14:11.98	254.92	14.31	-40.0	-42.7	15.2	0.00e+00	0	56	0	699400192	50	5226
2026-01-06 01:14:12.99	254.79	14.23	-40.1	-42.8	15.1	0.00e+00	0	56	0	700448768	50	5287
2026-01-06 01:14:14.00	254.66	14.15	-40.2	-42.9	14.9	0.00e+00	0	56	0	702545920	50	5372
2026-01-06 01:14:15.01	254.53	14.07	-40.3	-43.0	14.8	0.00e+00	0	56	0	704643072	51	5156
2026-01-06 01:14:16.02	254.39	13.99	-40.3	-43.2	14.6	0.00e+00	0	56	0	706740224	51	5239
2026-01-06 01:14:17.03	254.27	13.91	-40.4	-43.2	14.6	2.20e-06	0	56	0	708837376	51	5269
2026-01-06 01:14:18.04	254.14	13.83	-40.2	-43.0	14.8	0.00e+00	0	56	0	709885952	51	5131
2026-01-06 01:14:19.05	254.01	13.75	-40.2	-42.9	14.9	0.00e+00	0	56	0	711983104	51	5072
2026-01-06 01:14:20.06	253.88	13.67	-40.1	-42.9	15.0	0.00e+00	0	56	0	714080256	51	5051
2026-01-06 01:14:21.07	253.75	13.59	-40.2	-42.9	14.9	0.00e+00	0	56	0	716177408	51	5091
2026-01-06 01:14:22.08	253.63	13.51	-40.2	-42.9	14.9	0.00e+00	0	56	0	718274560	51	5076
2026-01-06 01:14:23.09	253.50	13.43	-40.2	-42.9	14.9	0.00e+00	0	56	0	719323136	51	5074
2026-01-06 01:14:24.10	253.38	13.35	-40.2	-42.9	14.9	0.00e+00	0	56	0	721420288	51	5096
2026-01-06 01:14:25.11	253.25	13.27	-40.2	-42.9	14.9	0.00e+00	0	56	0	723517440	51	5088
2026-01-06 01:14:26.12	253.13	13.19	-40.2	-43.0	14.8	0.00e+00	0	56	0	725614592	51	5140
2026-01-06 01:14:27.13	253.01	13.11	-40.3	-43.1	14.7	7.00e-07	0	56	0	727711744	51	5170
2026-01-06 01:14:28.14	252.88	13.03	-40.3	-43.2	14.6	0.00e+00	0	56	0	728760320	51	5230
2026-01-06 01:14:29.14	252.76	12.95	-40.3	-43.2	14.6	1.50e-06	0	56	0	730857472	51	5232
2026-01-06 01:14:30.15	252.64	12.87	-40.4	-43.3	14.5	3.00e-06	0	56	0	732954624	51	5292
2026-01-06 01:14:31.16	252.52	12.79	-40.4	-43.4	14.4	1.50e-06	0	56	0	735051776	51	5352
2026-01-06 01:14:32.17	252.40	12.71	-40.5	-43.5	14.3	7.00e-07	0	56	0	737148928	51	5420
2026-01-06 01:14:33.18	252.29	12.63	-40.4	-43.3	14.5	2.20e-06	0	56	0	738197504	51	5283
2026-01-06 01:14:34.19	252.17	12.55	-40.3	-43.1	14.6	0.00e+00	0	56	0	740294656	51	5191
2026-01-06 01:14:35.20	252.05	12.48	-40.3	-43.2	14.5	0.00e+00	0	56	0	742391808	51	5251
2026-01-06 01:14:36.21	251.93	12.40	-40.4	-43.3	14.5	7.00e-07	0	56	0	744488960	51	5301
2026-01-06 01:14:37.22	251.82	12.32	-40.4	-43.4	14.3	0.00e+00	0	56	0	746586112	51	5374
2026-01-06 01:14:38.23	251.70	12.24	-40.5	-43.5	14.3	7.00e-07	0	56	0	747634688	51	5407
2026-01-06 01:14:39.24	251.59	12.16	-40.5	-43.5	14.2	1.50e-06	0	56	0	749731840	51	5430
2026-01-06 01:14:40.25	251.47	12.09	-40.4	-43.4	14.4	7.00e-07	0	56	0	751828992	51	5359
2026-01-06 01:14:41.26	251.36	12.01	-40.4	-43.4	14.3	0.00e+00	0	56	0	753926144	51	5371
2026-01-06 01:14:42.27	251.24	11.93	-40.5	-43.6	14.1	7.00e-07	0	56	0	756023296	51	5476
2026-01-06 01:14:43.28	251.13	11.85	-40.6	-43.8	14.0	7.00e-07	0	56	0	758120448	51	5598
2026-01-06 01:14:44.29	251.02	11.78	-40.7	-43.9	13.7	3.80e-06	0	56	0	759169024	52	5368
2026-01-06 01:14:45.30	250.91	11.70	-40.7	-43.9	13.7	5.30e-06	0	56	0	761266176	52	5391
2026-01-06 01:14:46.31	250.80	11.62	-40.8	-44.2	13.5	6.10e-06	0	56	0	763363328	52	5535
2026-01-06 01:14:47.32	250.69	11.54	-40.9	-44.3	13.3	1.83e-05	0	56	0	765460480	52	5614
2026-01-06 01:14:48.33	250.58	11.47	-41.0	-44.4	13.2	2.97e-05	0	56	0	767557632	52	5677
2026-01-06 01:14:49.34	250.47	11.39	-40.9	-44.2	13.3	2.44e-05	0	56	0	768606208	52	5592
2026-01-06 01:14:50.35	250.36	11.31	-40.8	-44.1	13.5	1.22e-05	0	56	0	770703360	52	5521
2026-01-06 01:14:51.36	250.25	11.24	-40.8	-44.2	13.4	8.30e-06	0	56	0	772800512	52	5537
2026-01-06 01:14:52.36	250.15	11.16	-40.7	-44.0	13.6	6.80e-06	0	56	0	774897664	52	5452
2026-01-06 01:14:53.37	250.04	11.09	-40.7	-44.0	13.6	1.14e-05	0	56	0	776994816	52	5427
2026-01-06 01:14:54.39	249.93	11.01	-40.7	-44.0	13.5	1.52e-05	0	56	0	778043392	52	5436
2026-01-06 01:14:55.39	249.83	10.94	-40.8	-44.1	13.4	5.30e-06	0	56	0	780140544	52	5525
2026-01-06 01:14:56.40	249.72	10.86	-40.7	-43.9	13.6	6.80e-06	0	56	0	782237696	52	5381
2026-01-06 01:14:57.41	249.62	10.78	-40.8	-44.1	13.4	9.90e-06	0	56	0	784334848	52	5521
2026-01-06 01:14:58.43	249.51	10.71	-40.8	-44.2	13.4	1.67e-05	0	56	0	786432000	52	5557
2026-01-06 01:14:59.44	249.41	10.63	-40.9	-44.4	13.2	2.13e-05	0	56	0	787480576	52	5658
2026-01-06 01:15:00.45	249.31	10.56	-41.0	-44.5	13.1	2.59e-05	0	56	0	789577728	52	5726
2026-01-06 01:15:01.45	249.21	10.48	-41.0	-44.5	13.0	2.44e-05	0	56	0	791674880	52	5741
2026-01-06 01:15:02.47	249.10	10.41	-41.0	-44.6	13.0	2.82e-05	0	56	0	793772032	52	5793
2026-01-06 01:15:03.48	249.00	10.33	-41.1	-44.6	12.9	5.41e-05	0	56	0	795869184	52	5831
2026-01-06 01:15:04.49	248.90	10.26	-41.1	-44.6	12.9	4.73e-05	0	56	0	796917760	52	5844
2026-01-06 01:15:05.49	248.80	10.18	-41.1	-44.7	12.8	6.86e-05	0	56	0	799014912	52	5917
2026-01-06 01:15:06.50	248.70	10.11	-41.2	-44.9	12.6	8.31e-05	0	56	0	801112064	52	6036
2026-01-06 01:15:07.51	248.60	10.04	-41.2	-44.9	12.6	9.68e-05	0	56	0	803209216	53	5713
2026-01-06 01:15:08.52	248.50	9.96	-41.1	-44.8	12.7	9.46e-05	0	56	0	805306368	53	5626
2026-01-06 01:15:09.53	248.41	9.89	-41.2	-44.8	12.6	8.77e-05	0	56	0	806354944	53	5650
2026-01-06 01:15:10.54	248.31	9.81	-41.0	-44.6	12.8	5.56e-05	0	56	0	808452096	53	5482
2026-01-06 01:15:11.55	248.21	9.74	-40.9	-44.4	13.0	3.43e-05	0	56	0	810549248	53	5401
2026-01-06 01:15:12.56	248.12	9.67	-40.9	-44.3	13.2	3.28e-05	0	56	0	812646400	53	5308
2026-01-06 01:15:13.57	248.02	9.59	-40.9	-44.4	13.1	2.51e-05	0	56	0	814743552	53	5348
2026-01-06 01:15:14.58	247.92	9.52	-40.9	-44.4	13.1	3.81e-05	0	56	0	815792128	53	5362
2026-01-06 01:15:15.59	247.83	9.45	-40.9	-44.4	13.1	2.97e-05	0	56	0	817889280	53	5349
2026-01-06 01:15:16.60	247.73	9.38	-40.9	-44.4	13.0	4.34e-05	0	56	0	819986432	53	5386
2026-01-06 01:15:17.61	247.64	9.30	-41.0	-44.6	12.9	4.27e-05	0	56	0	822083584	53	5481
2026-01-06 01:15:18.62	247.55	9.23	-41.0	-44.6	12.9	6.33e-05	0	56	0	824180736	53	5486
2026-01-06 01:15:19.63	247.45	9.16	-41.1	-44.8	12.6	5.87e-05	0	56	0	826277888	53	5623
2026-01-06 01:15:20.64	247.36	9.09	-41.2	-44.9	12.5	1.16e-04	0	56	0	827326464	53	5703
2026-01-06 01:15:21.65	247.27	9.01	-41.2	-44.9	12.5	1.06e-04	0	56	0	829423616	53	5708
2026-01-06 01:15:22.66	247.18	8.94	-41.2	-45.0	12.4	1.49e-04	0	56	0	831520768	53	5750
2026-01-06 01:15:23.67	247.08	8.87	-41.2	-45.0	12.4	1.52e-04	0	56	0	833617920	53	5759
2026-01-06 01:15:24.68	246.99	8.80	-41.3	-45.1	12.3	2.10e-04	0	56	0	835715072	53	5821
2026-01-06 01:15:25.69	246.90	8.73	-41.2	-44.9	12.5	1.54e-04	0	56	0	836763648	53	5697
2026-01-06 01:15:26.70	246.81	8.65	-41.2	-45.0	12.4	1.50e-04	0	56	0	838860800	53	5740
2026-01-06 01:15:27.71	246.72	8.58	-41.2	-45.0	12.3	1.65e-04	0	56	0	840957952	53	5784
2026-01-06 01:15:28.72	246.63	8.51	-41.3	-45.1	12.2	2.26e-04	0	56	0	843055104	53	5854
2026-01-06 01:15:29.73	246.55	8.44	-41.3	-45.1	12.2	2.20e-04	0	56	0	845152256	53	5849
2026-01-06 01:15:30.74	246.46	8.37	-41.3	-45.2	12.1	2.23e-04	0	56	0	846200832	53	5905
2026-01-06 01:15:31.75	246.37	8.30	-41.3	-45.3	12.0	3.03e-04	0	56	0	848297984	53	5948
2026-01-06 01:15:32.76	246.28	8.23	-41.4	-45.4	11.9	3.65e-04	0	56	0	850395136	53	6044
2026-01-06 01:15:33.77	246.19	8.16	-41.4	-45.4	11.9	4.32e-04	0	56	0	852492288	53	6034
2026-01-06 01:15:34.77	246.11	8.09	-41.4	-45.5	11.8	4.75e-04	0	56	0	854589440	53	6081
2026-01-06 01:15:35.78	246.02	8.02	-41.4	-45.5	11.8	4.49e-04	0	56	0	855638016	53	6094
2026-01-06 01:15:36.79	245.94	7.95	-44.2	-58.2	3.8	1.89e-02	0	56	104	857735168	59	18571
2026-01-06 01:15:37.80	245.85	7.88	-44.6	-59.1	3.8	1.49e+00	0	56	104	857735168	59	20542
2026-01-06 01:15:38.82	245.77	7.81	-44.7	-59.4	3.8	1.49e+00	0	56	104	857735168	60	20182
2026-01-06 01:15:39.82	245.68	7.74	-44.8	-59.6	3.8	1.49e+00	0	56	104	857735168	60	20645
2026-01-06 01:15:40.84	245.60	7.67	-44.9	-59.6	3.8	1.49e+00	0	56	104	857735168	60	20766
2026-01-06 01:15:41.85	245.51	7.60	-45.0	-59.7	3.8	1.49e+00	0	56	104	857735168	60	20984
2026-01-06 01:15:42.86	245.43	7.53	-45.1	-59.8	3.8	1.49e+00	0	56	104	857735168	60	21188
2026-01-06 01:15:43.87	245.35	7.46	-45.1	-59.9	3.8	1.49e+00	0	56	104	857735168	60	21284
2026-01-06 01:15:44.88	245.27	7.39	-45.1	-59.9	3.8	1.49e+00	0	56	104	857735168	60	21387
2026-01-06 01:15:45.89	245.18	7.32	-45.1	-59.9	3.8	1.49e+00	0	56	104	857735168	60	21361
2026-01-06 01:15:46.90	245.10	7.25	-45.1	-59.9	3.8	1.49e+00	0	56	104	857735168	60	21312
2026-01-06 01:15:47.91	245.02	7.18	-45.1	-59.9	3.8	1.49e+00	0	56	104	857735168	60	21280
