passes_logs/2026/01/06/R2.0S_Moscow/R2.0S_Moscow__20260106_025208_FENGYUN_3G_rec.log

#Pass ID: 20260106_025208_FENGYUN 3G
#Satellite: FENGYUN 3G
#Configuration: FENGYUN 3G
#almurnet v.1.7.20251203
#Start time: 2026-01-06 02:52:08

#Version: 2.2.20231116
#Station: R2.0S_Moscow
#Location: 37.707566 lon 55.798166 lat
#TLE: 1 56232U 23055A   26005.27063903  .00035143  00000+0  55802-3 0  9994
#TLE: 2 56232  49.9940 106.1098 0004225 341.8364  18.2452 15.52952562154680

#Time	Az	El	Level	Level2	SNR	BER	BlckErr	Temp	State	Recorded	gain1	gain2
2026-01-06 02:52:08.05	248.11	1.99	-44.2	-62.6	3.8	8.46e-01	0	47	0	0	60	29071
2026-01-06 02:52:09.07	248.05	2.06	-44.2	-62.5	3.8	8.44e-01	0	47	104	0	60	28957
2026-01-06 02:52:10.08	247.98	2.12	-44.2	-62.6	3.8	8.47e-01	0	47	104	0	60	29012
2026-01-06 02:52:11.09	247.92	2.19	-44.2	-62.6	3.8	8.47e-01	0	47	104	0	60	29108
2026-01-06 02:52:12.10	247.86	2.26	-44.2	-62.6	3.8	8.47e-01	0	47	104	0	60	29030
2026-01-06 02:52:13.11	247.80	2.32	-44.2	-62.6	3.8	8.46e-01	0	47	104	0	60	29072
2026-01-06 02:52:14.12	247.73	2.39	-44.2	-62.6	3.8	8.46e-01	0	48	104	0	60	29073
2026-01-06 02:52:15.13	247.67	2.46	-44.2	-62.6	3.8	8.46e-01	0	48	104	0	60	29172
2026-01-06 02:52:16.14	247.61	2.53	-44.2	-62.6	3.8	8.46e-01	0	48	104	0	60	29165
2026-01-06 02:52:17.15	247.54	2.59	-44.2	-62.6	3.8	8.45e-01	0	48	104	0	60	29170
2026-01-06 02:52:18.17	247.47	2.66	-44.2	-62.6	3.8	8.45e-01	0	48	104	0	60	29021
2026-01-06 02:52:19.18	247.41	2.73	-44.2	-62.6	3.8	8.46e-01	0	48	104	0	60	29026
2026-01-06 02:52:20.19	247.34	2.80	-44.2	-62.6	3.8	8.46e-01	0	48	104	0	60	29038
2026-01-06 02:52:21.20	247.28	2.87	-44.2	-62.6	3.8	8.46e-01	0	48	104	0	60	29046
2026-01-06 02:52:22.21	247.21	2.94	-44.2	-62.5	3.8	8.46e-01	0	48	104	0	60	29009
2026-01-06 02:52:23.22	247.14	3.01	-44.2	-62.6	3.8	8.45e-01	0	48	104	0	60	29041
2026-01-06 02:52:24.23	247.07	3.08	-44.2	-62.6	3.8	8.46e-01	0	48	104	0	60	29081
2026-01-06 02:52:25.24	247.01	3.14	-44.2	-62.6	3.8	8.46e-01	0	48	104	0	60	29022
2026-01-06 02:52:26.25	246.94	3.21	-44.2	-62.6	3.8	8.46e-01	0	48	104	0	60	29015
2026-01-06 02:52:27.27	246.87	3.29	-44.2	-62.5	3.8	8.47e-01	0	48	104	0	60	29004
2026-01-06 02:52:28.28	246.80	3.36	-44.2	-62.5	3.8	8.47e-01	0	49	104	0	60	28943
2026-01-06 02:52:29.29	246.73	3.43	-44.2	-62.5	3.8	8.46e-01	0	49	104	0	60	28937
2026-01-06 02:52:30.30	246.66	3.50	-44.2	-62.6	3.8	8.46e-01	0	49	104	0	60	29084
2026-01-06 02:52:31.31	246.58	3.57	-44.2	-62.5	3.8	8.46e-01	0	49	104	0	60	28923
2026-01-06 02:52:32.32	246.51	3.64	-44.2	-62.6	3.8	8.46e-01	0	49	104	0	60	29022
2026-01-06 02:52:33.33	246.44	3.71	-44.2	-62.6	3.8	8.45e-01	0	49	104	0	60	29015
2026-01-06 02:52:34.34	246.37	3.78	-44.2	-62.5	3.8	8.46e-01	0	49	104	0	60	28961
2026-01-06 02:52:35.35	246.29	3.86	-44.2	-62.6	3.8	8.46e-01	0	49	104	0	60	29114
2026-01-06 02:52:36.36	246.22	3.93	-44.2	-62.6	3.8	8.46e-01	0	49	104	0	60	29030
2026-01-06 02:52:37.37	246.15	4.00	-44.2	-62.5	3.8	8.46e-01	0	49	104	0	60	28881
2026-01-06 02:52:38.39	246.07	4.07	-44.2	-62.5	3.8	8.46e-01	0	49	104	0	60	28865
2026-01-06 02:52:39.40	245.99	4.15	-44.2	-62.5	3.8	8.45e-01	0	49	104	0	60	28820
2026-01-06 02:52:40.41	245.92	4.22	-44.2	-62.5	3.8	8.47e-01	0	49	104	0	60	28694
2026-01-06 02:52:41.42	245.84	4.29	-44.2	-62.5	3.8	8.47e-01	0	49	104	0	60	28917
2026-01-06 02:52:42.43	245.76	4.37	-44.2	-62.5	3.8	8.46e-01	0	49	104	0	60	28931
2026-01-06 02:52:43.44	245.69	4.44	-44.2	-62.5	3.8	8.46e-01	0	49	104	0	60	28984
2026-01-06 02:52:44.45	245.61	4.52	-44.2	-62.6	3.8	8.46e-01	0	50	104	0	60	29026
2026-01-06 02:52:45.46	245.53	4.59	-44.2	-62.5	3.8	8.45e-01	0	49	104	0	60	28964
2026-01-06 02:52:46.48	245.45	4.67	-44.2	-62.5	3.8	8.46e-01	0	50	104	0	60	28893
2026-01-06 02:52:47.49	245.37	4.74	-44.2	-62.4	3.8	8.47e-01	0	49	104	0	60	28468
2026-01-06 02:52:48.50	245.29	4.82	-44.2	-62.2	3.8	8.47e-01	0	50	104	0	60	27852
2026-01-06 02:52:49.51	245.21	4.89	-44.2	-61.9	3.8	8.46e-01	0	50	104	0	60	27002
2026-01-06 02:52:50.52	245.12	4.97	-44.1	-61.5	3.8	8.47e-01	0	50	104	0	60	25840
2026-01-06 02:52:51.53	245.04	5.05	-44.1	-61.4	3.8	8.47e-01	0	50	104	0	60	25384
2026-01-06 02:52:52.54	244.96	5.12	-44.1	-61.2	3.8	8.45e-01	0	50	104	0	60	24871
2026-01-06 02:52:53.55	244.87	5.20	-44.1	-60.9	3.8	8.45e-01	0	50	104	0	60	24045
2026-01-06 02:52:54.56	244.79	5.28	-44.1	-60.8	3.8	8.45e-01	0	50	104	0	60	23611
2026-01-06 02:52:55.57	244.70	5.35	-44.2	-61.0	3.8	8.46e-01	0	50	104	0	60	24365
2026-01-06 02:52:56.59	244.62	5.43	-44.1	-61.2	3.8	8.46e-01	0	50	104	0	60	24717
2026-01-06 02:52:57.60	244.53	5.51	-44.1	-61.3	3.8	8.46e-01	0	50	104	0	60	25226
2026-01-06 02:52:58.61	244.44	5.59	-44.2	-61.5	3.8	8.46e-01	0	50	104	0	60	25652
2026-01-06 02:52:59.62	244.35	5.67	-44.2	-61.4	3.8	8.46e-01	0	50	104	0	60	25365
2026-01-06 02:53:00.63	244.27	5.75	-44.1	-61.2	3.8	8.47e-01	0	51	104	0	60	24801
2026-01-06 02:53:01.64	244.18	5.83	-44.1	-60.9	3.8	8.47e-01	0	50	104	0	60	23980
2026-01-06 02:53:02.65	244.09	5.91	-44.1	-60.7	3.9	8.46e-01	0	50	104	0	60	23437
2026-01-06 02:53:03.66	244.00	5.99	-44.1	-60.3	3.8	8.45e-01	0	50	104	0	60	22418
2026-01-06 02:53:04.67	243.90	6.07	-44.1	-59.7	3.9	8.45e-01	0	50	104	0	60	20967
2026-01-06 02:53:05.68	243.81	6.15	-44.1	-58.6	4.3	8.44e-01	0	51	0	0	60	18436
2026-01-06 02:53:06.70	243.72	6.23	-44.0	-57.5	4.8	8.32e-01	0	50	0	0	60	16129
2026-01-06 02:53:07.71	243.63	6.31	-44.0	-56.4	5.3	8.32e-01	0	51	0	0	59	15057
2026-01-06 02:53:08.72	243.53	6.39	-44.0	-55.9	5.7	7.69e-01	0	51	0	0	59	14246
2026-01-06 02:53:09.73	243.44	6.47	-43.9	-55.4	6.1	5.55e-01	0	51	0	1048576	59	13484
2026-01-06 02:53:10.74	243.34	6.56	-43.9	-55.2	6.2	3.24e-01	0	51	0	2097152	59	13141
2026-01-06 02:53:11.75	243.24	6.64	-43.9	-55.3	6.2	3.24e-01	0	51	0	3145728	59	13302
2026-01-06 02:53:12.76	243.15	6.72	-44.0	-55.8	5.8	3.16e-01	0	51	0	4718592	59	14172
2026-01-06 02:53:13.77	243.05	6.81	-44.1	-57.3	4.9	5.33e-01	0	51	0	5242880	59	16797
2026-01-06 02:53:14.78	242.95	6.89	-44.2	-59.6	4.0	5.33e-01	0	51	0	5242880	59	21804
2026-01-06 02:53:15.79	242.85	6.97	-44.2	-61.8	3.8	8.23e-01	0	51	104	5242880	59	28084
2026-01-06 02:53:16.80	242.75	7.06	-44.2	-60.0	3.9	8.46e-01	0	51	104	5242880	59	22872
2026-01-06 02:53:17.82	242.65	7.14	-44.0	-55.7	5.8	8.46e-01	0	51	0	5242880	59	13897
2026-01-06 02:53:18.83	242.54	7.23	-43.5	-51.9	9.2	7.24e-01	0	51	0	6291456	59	9060
2026-01-06 02:53:19.84	242.44	7.31	-42.8	-49.2	12.1	6.04e-02	0	51	0	7340032	57	7444
2026-01-06 02:53:20.85	242.34	7.40	-42.0	-46.9	14.5	6.04e-02	0	51	0	8388608	56	6036
2026-01-06 02:53:21.86	242.23	7.49	-40.9	-44.7	16.6	2.46e-04	0	51	0	9437184	53	5555
2026-01-06 02:53:22.87	242.13	7.57	-40.1	-43.3	18.0	0.00e+00	0	51	0	10485760	52	5019
2026-01-06 02:53:23.88	242.02	7.66	-39.5	-42.3	19.2	0.00e+00	0	52	0	12058624	51	4708
2026-01-06 02:53:24.89	241.91	7.75	-39.0	-41.6	19.9	0.00e+00	0	51	0	13107200	50	4603
2026-01-06 02:53:25.90	241.80	7.84	-38.8	-41.3	20.2	0.00e+00	0	52	0	14155776	49	4709
2026-01-06 02:53:26.91	241.69	7.92	-38.6	-41.0	20.5	0.00e+00	0	52	0	15204352	49	4550
2026-01-06 02:53:27.92	241.58	8.01	-38.7	-41.2	20.3	0.00e+00	0	52	0	16252928	49	4666
2026-01-06 02:53:28.93	241.47	8.10	-39.8	-42.7	19.0	0.00e+00	0	52	0	17301504	50	5245
2026-01-06 02:53:29.94	241.36	8.19	-40.3	-43.4	18.1	0.00e+00	0	52	0	18874368	51	5402
2026-01-06 02:53:30.95	241.25	8.28	-42.1	-47.4	14.5	0.00e+00	0	52	0	19922944	54	7158
2026-01-06 02:53:31.96	241.13	8.37	-40.4	-43.6	18.3	3.40e-06	0	52	0	20971520	51	5495
2026-01-06 02:53:32.97	241.02	8.46	-43.7	-53.3	9.1	2.20e-06	0	52	0	22020096	57	11929
2026-01-06 02:53:33.98	240.90	8.55	-39.4	-42.1	19.5	2.20e-06	0	52	0	23068672	50	4883
2026-01-06 02:53:34.99	240.78	8.64	-39.1	-41.7	19.8	2.14e-02	0	52	0	24117248	50	4693
2026-01-06 02:53:35.99	240.67	8.73	-39.1	-41.7	19.9	0.00e+00	0	52	0	25690112	50	4677
2026-01-06 02:53:37.00	240.55	8.83	-38.8	-41.3	20.2	0.00e+00	0	52	0	26738688	49	4755
2026-01-06 02:53:38.02	240.43	8.92	-38.9	-41.4	20.2	0.00e+00	0	52	0	27787264	49	4786
2026-01-06 02:53:39.03	240.30	9.01	-38.7	-41.1	20.4	0.00e+00	0	52	0	28835840	49	4633
2026-01-06 02:53:40.03	240.18	9.10	-38.6	-41.0	20.6	0.00e+00	0	52	0	29884416	49	4556
2026-01-06 02:53:41.04	240.06	9.20	-38.7	-41.1	20.5	0.00e+00	0	52	0	30932992	49	4615
2026-01-06 02:53:42.06	239.93	9.29	-38.7	-41.1	20.5	0.00e+00	0	52	0	32505856	49	4630
2026-01-06 02:53:43.07	239.81	9.39	-38.5	-40.9	20.7	0.00e+00	0	52	0	33554432	49	4517
2026-01-06 02:53:44.07	239.68	9.48	-38.4	-40.7	20.9	0.00e+00	0	52	0	34603008	48	4680
2026-01-06 02:53:45.09	239.55	9.58	-38.6	-41.0	20.7	0.00e+00	0	52	0	35651584	48	4831
2026-01-06 02:53:46.10	239.42	9.68	-38.7	-41.1	20.5	0.00e+00	0	52	0	36700160	48	4924
2026-01-06 02:53:47.11	239.29	9.77	-38.5	-40.9	20.8	0.00e+00	0	52	0	38273024	48	4767
2026-01-06 02:53:48.12	239.16	9.87	-38.3	-40.6	21.1	0.00e+00	0	52	0	39321600	48	4607
2026-01-06 02:53:49.13	239.03	9.97	-38.3	-40.6	21.1	0.00e+00	0	52	0	40370176	48	4619
2026-01-06 02:53:50.14	238.90	10.06	-38.2	-40.5	21.1	0.00e+00	0	52	0	41418752	48	4569
2026-01-06 02:53:51.15	238.76	10.16	-37.9	-40.0	21.5	0.00e+00	0	52	0	42467328	47	4596
2026-01-06 02:53:52.15	238.63	10.26	-37.6	-39.6	21.9	0.00e+00	0	53	0	43515904	47	4388
2026-01-06 02:53:53.16	238.49	10.36	-37.4	-39.5	22.1	0.00e+00	0	52	0	44564480	46	4570
2026-01-06 02:53:54.17	238.35	10.46	-37.4	-39.4	22.2	0.00e+00	0	53	0	46137344	46	4526
2026-01-06 02:53:55.18	238.21	10.56	-37.4	-39.4	22.3	0.00e+00	0	52	0	47185920	46	4500
2026-01-06 02:53:56.19	238.07	10.66	-37.3	-39.4	22.3	0.00e+00	0	52	0	48234496	46	4495
2026-01-06 02:53:57.20	237.92	10.76	-37.4	-39.4	22.2	0.00e+00	0	52	0	49283072	46	4542
2026-01-06 02:53:58.21	237.78	10.86	-37.5	-39.5	22.2	0.00e+00	0	53	0	50331648	46	4563
2026-01-06 02:53:59.22	237.64	10.96	-37.5	-39.6	22.1	0.00e+00	0	52	0	51380224	46	4621
2026-01-06 02:54:00.23	237.49	11.07	-37.5	-39.6	22.1	0.00e+00	0	53	0	52953088	46	4600
2026-01-06 02:54:01.24	237.34	11.17	-37.5	-39.5	22.2	0.00e+00	0	53	0	54001664	46	4588
2026-01-06 02:54:02.25	237.19	11.27	-37.6	-39.6	22.0	0.00e+00	0	53	0	55050240	46	4651
2026-01-06 02:54:03.26	237.04	11.38	-37.6	-39.6	22.1	0.00e+00	0	53	0	56098816	46	4642
2026-01-06 02:54:04.27	236.89	11.48	-37.7	-39.7	22.0	0.00e+00	0	53	0	57147392	46	4704
2026-01-06 02:54:05.28	236.73	11.59	-37.6	-39.7	22.0	0.00e+00	0	53	0	58195968	46	4670
2026-01-06 02:54:06.29	236.58	11.69	-37.7	-39.8	21.9	0.00e+00	0	53	0	59768832	46	4721
2026-01-06 02:54:07.30	236.42	11.80	-37.7	-39.8	22.0	0.00e+00	0	53	0	60817408	46	4716
2026-01-06 02:54:08.31	236.26	11.91	-37.6	-39.7	22.0	0.00e+00	0	53	0	61865984	46	4680
2026-01-06 02:54:09.32	236.10	12.01	-37.5	-39.5	22.2	0.00e+00	0	53	0	62914560	46	4595
2026-01-06 02:54:10.33	235.94	12.12	-37.0	-39.0	22.7	0.00e+00	0	53	0	63963136	46	4296
2026-01-06 02:54:11.34	235.78	12.23	-36.9	-38.7	23.0	0.00e+00	0	53	0	65011712	45	4433
2026-01-06 02:54:12.35	235.61	12.34	-36.8	-38.7	23.0	0.00e+00	0	53	0	66584576	45	4427
2026-01-06 02:54:13.36	235.45	12.45	-36.7	-38.5	23.2	0.00e+00	0	53	0	67633152	45	4316
2026-01-06 02:54:14.37	235.28	12.56	-36.7	-38.5	23.2	0.00e+00	0	53	0	68681728	45	4312
2026-01-06 02:54:15.38	235.11	12.67	-36.9	-38.8	22.9	0.00e+00	0	53	0	69730304	45	4478
2026-01-06 02:54:16.39	234.94	12.78	-37.1	-39.0	22.8	0.00e+00	0	53	0	70778880	45	4577
2026-01-06 02:54:17.40	234.76	12.89	-37.2	-39.1	22.6	0.00e+00	0	53	0	71827456	45	4643
2026-01-06 02:54:18.41	234.59	13.00	-37.1	-39.1	22.7	0.00e+00	0	53	0	73400320	45	4620
2026-01-06 02:54:19.42	234.41	13.11	-37.2	-39.2	22.6	0.00e+00	0	53	0	74448896	45	4679
2026-01-06 02:54:20.43	234.24	13.23	-37.3	-39.2	22.6	0.00e+00	0	53	0	75497472	45	4677
2026-01-06 02:54:21.43	234.06	13.34	-37.3	-39.2	22.6	0.00e+00	0	53	0	76546048	45	4692
2026-01-06 02:54:22.44	233.87	13.45	-37.0	-38.9	22.9	0.00e+00	0	53	0	77594624	45	4530
2026-01-06 02:54:23.45	233.69	13.57	-36.8	-38.6	23.1	0.00e+00	0	53	0	78643200	45	4377
2026-01-06 02:54:24.46	233.51	13.68	-36.6	-38.5	23.3	0.00e+00	0	53	0	80216064	45	4292
2026-01-06 02:54:25.47	233.32	13.80	-36.5	-38.3	23.5	0.00e+00	0	53	0	81264640	45	4211
2026-01-06 02:54:26.48	233.13	13.91	-36.5	-38.2	23.5	0.00e+00	0	53	0	82313216	44	4437
2026-01-06 02:54:27.49	232.94	14.03	-36.8	-38.6	23.2	0.00e+00	0	53	0	83361792	44	4646
2026-01-06 02:54:28.50	232.74	14.15	-36.8	-38.7	23.1	0.00e+00	0	53	0	84410368	44	4655
2026-01-06 02:54:29.51	232.55	14.27	-36.9	-38.8	23.0	0.00e+00	0	53	0	85458944	44	4708
2026-01-06 02:54:30.52	232.35	14.39	-36.9	-38.8	23.1	0.00e+00	0	53	0	87031808	44	4716
2026-01-06 02:54:31.53	232.15	14.50	-36.8	-38.6	23.2	0.00e+00	0	53	0	88080384	44	4623
2026-01-06 02:54:32.54	231.95	14.62	-36.6	-38.5	23.4	0.00e+00	0	53	0	89128960	44	4557
2026-01-06 02:54:33.55	231.75	14.74	-36.6	-38.4	23.4	0.00e+00	0	53	0	90177536	44	4514
2026-01-06 02:54:34.56	231.54	14.87	-36.4	-38.2	23.6	0.00e+00	0	53	0	91226112	44	4418
2026-01-06 02:54:35.57	231.33	14.99	-36.4	-38.2	23.6	0.00e+00	0	53	0	92274688	44	4430
2026-01-06 02:54:36.58	231.12	15.11	-36.5	-38.3	23.6	0.00e+00	0	54	0	93847552	44	4452
2026-01-06 02:54:37.59	230.91	15.23	-36.6	-38.5	23.4	0.00e+00	0	53	0	94896128	44	4553
2026-01-06 02:54:38.60	230.70	15.35	-36.8	-38.6	23.3	0.00e+00	0	53	0	95944704	44	4638
2026-01-06 02:54:39.61	230.48	15.48	-36.6	-38.4	23.4	0.00e+00	0	53	0	96993280	44	4515
2026-01-06 02:54:40.62	230.26	15.60	-36.7	-38.6	23.3	0.00e+00	0	54	0	98041856	44	4610
2026-01-06 02:54:41.63	230.04	15.73	-36.3	-38.1	23.7	0.00e+00	0	53	0	99090432	44	4354
2026-01-06 02:54:42.64	229.82	15.85	-36.1	-37.8	24.0	0.00e+00	0	54	0	100663296	44	4211
2026-01-06 02:54:43.65	229.59	15.98	-35.7	-37.4	24.2	0.00e+00	0	53	0	101711872	43	4281
2026-01-06 02:54:44.66	229.36	16.10	-35.5	-37.2	24.5	0.00e+00	0	54	0	102760448	43	4156
2026-01-06 02:54:45.67	229.13	16.23	-35.8	-37.5	24.2	0.00e+00	0	54	0	103809024	43	4292
2026-01-06 02:54:46.68	228.90	16.36	-35.6	-37.3	24.4	0.00e+00	0	54	0	104857600	43	4215
2026-01-06 02:54:47.69	228.66	16.49	-35.8	-37.5	24.2	0.00e+00	0	53	0	105906176	43	4294
2026-01-06 02:54:48.70	228.42	16.62	-35.5	-37.2	24.5	0.00e+00	0	54	0	107479040	43	4149
2026-01-06 02:54:49.71	228.18	16.74	-35.4	-37.0	24.7	0.00e+00	0	53	0	108527616	42	4327
2026-01-06 02:54:50.72	227.94	16.87	-35.1	-36.6	25.0	0.00e+00	0	54	0	109576192	42	4136
2026-01-06 02:54:51.73	227.69	17.00	-35.1	-36.7	25.0	0.00e+00	0	54	0	110624768	42	4171
2026-01-06 02:54:52.74	227.44	17.13	-35.2	-36.8	24.8	0.00e+00	0	54	0	111673344	42	4240
2026-01-06 02:54:53.75	227.19	17.27	-35.3	-36.8	24.9	0.00e+00	0	54	0	112721920	42	4241
2026-01-06 02:54:54.75	226.94	17.40	-35.6	-37.2	24.5	0.00e+00	0	54	0	114294784	42	4435
2026-01-06 02:54:55.76	226.68	17.53	-35.5	-37.1	24.6	0.00e+00	0	54	0	115343360	42	4360
2026-01-06 02:54:56.78	226.42	17.66	-35.3	-36.8	24.9	0.00e+00	0	54	0	116391936	42	4242
2026-01-06 02:54:57.79	226.16	17.80	-35.2	-36.8	24.9	0.00e+00	0	54	0	117440512	42	4205
2026-01-06 02:54:58.80	225.89	17.93	-35.0	-36.6	25.1	0.00e+00	0	54	0	118489088	42	4112
2026-01-06 02:54:59.81	225.62	18.06	-34.9	-36.5	25.2	0.00e+00	0	54	0	120061952	41	4299
2026-01-06 02:55:00.82	225.35	18.20	-34.8	-36.4	25.2	0.00e+00	0	54	0	121110528	41	4250
2026-01-06 02:55:01.82	225.08	18.33	-34.9	-36.4	25.2	0.00e+00	0	54	0	122159104	41	4280
2026-01-06 02:55:02.83	224.80	18.47	-34.9	-36.5	25.1	0.00e+00	0	54	0	123207680	41	4306
2026-01-06 02:55:03.84	224.52	18.60	-35.0	-36.6	25.1	0.00e+00	0	54	0	124256256	41	4369
2026-01-06 02:55:04.85	224.24	18.74	-35.0	-36.5	25.2	0.00e+00	0	54	0	125304832	41	4335
2026-01-06 02:55:05.86	223.95	18.88	-34.8	-36.3	25.4	0.00e+00	0	54	0	126353408	41	4223
2026-01-06 02:55:06.87	223.66	19.02	-34.9	-36.4	25.3	0.00e+00	0	54	0	127926272	41	4265
2026-01-06 02:55:07.88	223.37	19.15	-35.1	-36.7	25.0	0.00e+00	0	54	0	128974848	41	4403
2026-01-06 02:55:08.89	223.07	19.29	-35.1	-36.7	25.0	0.00e+00	0	54	0	130023424	41	4436
2026-01-06 02:55:09.90	222.77	19.43	-35.2	-36.8	24.9	0.00e+00	0	54	0	131072000	41	4479
2026-01-06 02:55:10.91	222.47	19.57	-35.0	-36.5	25.2	0.00e+00	0	54	0	132120576	41	4339
2026-01-06 02:55:11.92	222.16	19.71	-35.1	-36.7	25.0	0.00e+00	0	54	0	133169152	41	4430
2026-01-06 02:55:12.93	221.85	19.85	-35.0	-36.6	25.2	0.00e+00	0	54	0	134742016	41	4351
2026-01-06 02:55:13.94	221.54	19.99	-34.9	-36.5	25.3	0.00e+00	0	54	0	135790592	41	4303
2026-01-06 02:55:14.95	221.22	20.13	-34.7	-36.3	25.5	0.00e+00	0	54	0	136839168	41	4203
2026-01-06 02:55:15.96	220.90	20.27	-34.6	-36.1	25.6	0.00e+00	0	54	0	137887744	41	4118
2026-01-06 02:55:16.97	220.58	20.41	-34.7	-36.3	25.5	0.00e+00	0	54	0	138936320	41	4196
2026-01-06 02:55:17.98	220.25	20.55	-34.5	-36.0	25.7	0.00e+00	0	54	0	139984896	40	4314
2026-01-06 02:55:18.99	219.92	20.69	-34.8	-36.3	25.4	0.00e+00	0	54	0	141557760	40	4487
2026-01-06 02:55:20.00	219.59	20.83	-34.8	-36.3	25.5	0.00e+00	0	54	0	142606336	40	4452
2026-01-06 02:55:21.01	219.25	20.97	-34.7	-36.2	25.6	0.00e+00	0	54	0	143654912	40	4409
2026-01-06 02:55:22.02	218.90	21.12	-34.7	-36.2	25.6	0.00e+00	0	54	0	144703488	40	4400
2026-01-06 02:55:23.03	218.56	21.26	-34.7	-36.2	25.6	0.00e+00	0	54	0	145752064	40	4406
2026-01-06 02:55:24.04	218.21	21.40	-35.0	-36.6	25.2	0.00e+00	0	54	0	146800640	40	4611
2026-01-06 02:55:25.05	217.86	21.54	-35.1	-36.7	25.1	0.00e+00	0	54	0	148373504	40	4669
2026-01-06 02:55:26.06	217.50	21.68	-34.8	-36.4	25.4	0.00e+00	0	54	0	149422080	40	4513
2026-01-06 02:55:27.07	217.14	21.83	-34.6	-36.1	25.6	0.00e+00	0	54	0	150470656	40	4380
2026-01-06 02:55:28.07	216.77	21.97	-34.3	-35.8	25.9	0.00e+00	0	54	0	151519232	40	4215
2026-01-06 02:55:29.08	216.40	22.11	-34.3	-35.7	26.0	0.00e+00	0	54	0	152567808	40	4172
2026-01-06 02:55:30.09	216.03	22.25	-34.3	-35.7	26.0	0.00e+00	0	54	0	153616384	40	4190
2026-01-06 02:55:31.10	215.65	22.39	-34.1	-35.6	26.2	0.00e+00	0	54	0	155189248	40	4110
2026-01-06 02:55:32.11	215.27	22.54	-34.3	-35.7	26.0	0.00e+00	0	54	0	156237824	40	4188
2026-01-06 02:55:33.12	214.89	22.68	-34.3	-35.8	26.0	0.00e+00	0	54	0	157286400	40	4206
2026-01-06 02:55:34.13	214.50	22.82	-34.2	-35.7	26.1	0.00e+00	0	54	0	158334976	40	4162
2026-01-06 02:55:35.14	214.10	22.96	-34.4	-35.9	25.9	0.00e+00	0	54	0	159383552	40	4259
2026-01-06 02:55:36.15	213.70	23.10	-34.4	-35.8	25.9	0.00e+00	0	54	0	160432128	40	4232
2026-01-06 02:55:37.16	213.30	23.24	-34.2	-35.7	26.0	0.00e+00	0	54	0	162004992	40	4158
2026-01-06 02:55:38.17	212.89	23.39	-34.0	-35.4	26.3	0.00e+00	0	54	0	163053568	40	4027
2026-01-06 02:55:39.18	212.48	23.53	-34.0	-35.4	26.4	0.00e+00	0	54	0	164102144	39	4252
2026-01-06 02:55:40.19	212.07	23.67	-33.9	-35.3	26.5	0.00e+00	0	54	0	165150720	39	4221
2026-01-06 02:55:41.20	211.65	23.81	-34.1	-35.5	26.3	0.00e+00	0	54	0	166199296	39	4335
2026-01-06 02:55:42.21	211.22	23.94	-33.9	-35.3	26.5	0.00e+00	0	54	0	167247872	39	4240
2026-01-06 02:55:43.22	210.79	24.08	-33.8	-35.2	26.6	0.00e+00	0	54	0	168820736	39	4168
2026-01-06 02:55:44.23	210.36	24.22	-33.9	-35.3	26.5	0.00e+00	0	55	0	169869312	39	4219
2026-01-06 02:55:45.23	209.93	24.36	-33.8	-35.2	26.6	0.00e+00	0	54	0	170917888	39	4181
2026-01-06 02:55:46.24	209.49	24.49	-33.8	-35.2	26.5	0.00e+00	0	54	0	171966464	39	4184
2026-01-06 02:55:47.25	209.04	24.63	-33.7	-35.1	26.7	0.00e+00	0	55	0	173015040	39	4123
2026-01-06 02:55:48.26	208.59	24.76	-33.7	-35.1	26.6	0.00e+00	0	54	0	174063616	39	4145
2026-01-06 02:55:49.27	208.13	24.90	-33.8	-35.2	26.7	0.00e+00	0	54	0	175636480	39	4151
2026-01-06 02:55:50.28	207.67	25.03	-34.1	-35.5	26.4	0.00e+00	0	54	0	176685056	39	4311
2026-01-06 02:55:51.29	207.21	25.17	-34.2	-35.6	26.2	0.00e+00	0	55	0	177733632	39	4386
2026-01-06 02:55:52.30	206.74	25.30	-34.0	-35.4	26.4	0.00e+00	0	55	0	178782208	39	4281
2026-01-06 02:55:53.31	206.27	25.43	-34.1	-35.5	26.4	0.00e+00	0	54	0	179830784	39	4312
2026-01-06 02:55:54.32	205.79	25.56	-34.0	-35.5	26.3	0.00e+00	0	55	0	180879360	39	4302
2026-01-06 02:55:55.33	205.31	25.69	-34.0	-35.5	26.4	0.00e+00	0	55	0	182452224	39	4307
2026-01-06 02:55:56.34	204.82	25.81	-34.0	-35.5	26.4	0.00e+00	0	55	0	183500800	39	4304
2026-01-06 02:55:57.35	204.33	25.94	-34.1	-35.5	26.2	0.00e+00	0	54	0	184549376	39	4314
2026-01-06 02:55:58.36	203.83	26.06	-33.7	-35.1	26.7	0.00e+00	0	55	0	185597952	39	4137
2026-01-06 02:55:59.37	203.33	26.19	-33.7	-35.1	26.7	0.00e+00	0	54	0	186646528	39	4106
2026-01-06 02:56:00.38	202.83	26.31	-33.6	-35.0	26.7	0.00e+00	0	55	0	187695104	39	4089
2026-01-06 02:56:01.39	202.32	26.43	-33.4	-34.8	26.8	0.00e+00	0	55	0	189267968	38	4233
2026-01-06 02:56:02.40	201.81	26.55	-33.2	-34.5	27.2	0.00e+00	0	55	0	190316544	38	4093
2026-01-06 02:56:03.41	201.29	26.67	-33.5	-34.9	26.9	0.00e+00	0	55	0	191365120	38	4249
2026-01-06 02:56:04.42	200.76	26.78	-33.9	-35.3	26.6	0.00e+00	0	55	0	192413696	38	4466
2026-01-06 02:56:05.43	200.24	26.90	-33.8	-35.2	26.6	0.00e+00	0	55	0	193462272	38	4416
2026-01-06 02:56:06.44	199.71	27.01	-34.0	-35.4	26.5	0.00e+00	0	55	0	194510848	38	4515
2026-01-06 02:56:07.45	199.17	27.12	-33.9	-35.3	26.6	0.00e+00	0	55	0	196083712	38	4484
2026-01-06 02:56:08.46	198.63	27.23	-33.8	-35.2	26.6	0.00e+00	0	55	0	197132288	38	4401
2026-01-06 02:56:09.47	198.09	27.33	-33.6	-35.0	26.8	0.00e+00	0	55	0	198180864	38	4326
2026-01-06 02:56:10.47	197.55	27.44	-33.7	-35.1	26.7	0.00e+00	0	55	0	199229440	38	4366
2026-01-06 02:56:11.48	197.00	27.54	-33.5	-34.9	26.9	0.00e+00	0	55	0	200278016	38	4244
2026-01-06 02:56:12.49	196.44	27.64	-33.6	-35.0	26.8	0.00e+00	0	55	0	201326592	38	4304
2026-01-06 02:56:13.50	195.88	27.74	-34.0	-35.4	26.4	0.00e+00	0	55	0	202899456	38	4542
2026-01-06 02:56:14.51	195.32	27.83	-33.7	-35.1	26.7	0.00e+00	0	55	0	203948032	38	4345
2026-01-06 02:56:15.52	194.75	27.93	-33.3	-34.6	27.1	0.00e+00	0	55	0	204996608	38	4132
2026-01-06 02:56:16.53	194.18	28.02	-33.4	-34.7	27.0	0.00e+00	0	55	0	206045184	38	4188
2026-01-06 02:56:17.54	193.60	28.11	-33.2	-34.6	27.1	0.00e+00	0	55	0	207093760	38	4126
2026-01-06 02:56:18.55	193.03	28.19	-33.0	-34.4	27.3	0.00e+00	0	55	0	208142336	38	4023
2026-01-06 02:56:19.56	192.45	28.28	-33.5	-34.9	26.9	0.00e+00	0	55	0	209715200	38	4266
2026-01-06 02:56:20.57	191.86	28.36	-33.4	-34.8	26.9	0.00e+00	0	55	0	210763776	38	4209
2026-01-06 02:56:21.58	191.27	28.43	-33.0	-34.3	27.1	0.00e+00	0	55	0	211812352	37	4223
2026-01-06 02:56:22.59	190.68	28.51	-33.5	-34.9	26.9	0.00e+00	0	55	0	212860928	37	4524
2026-01-06 02:56:23.60	190.09	28.58	-33.6	-35.0	26.7	0.00e+00	0	55	0	213909504	38	4331
2026-01-06 02:56:24.61	189.49	28.65	-33.6	-35.0	26.8	0.00e+00	0	55	0	214958080	38	4326
2026-01-06 02:56:25.62	188.89	28.72	-33.9	-35.4	26.4	0.00e+00	0	55	0	216530944	38	4514
2026-01-06 02:56:26.63	188.29	28.78	-33.9	-35.3	26.5	0.00e+00	0	55	0	217579520	38	4491
2026-01-06 02:56:27.64	187.68	28.84	-33.6	-35.1	26.8	0.00e+00	0	55	0	218628096	38	4348
2026-01-06 02:56:28.65	187.07	28.90	-33.5	-34.9	26.8	0.00e+00	0	55	0	219676672	38	4281
2026-01-06 02:56:29.66	186.46	28.95	-33.4	-34.8	26.9	0.00e+00	0	55	0	220725248	38	4227
2026-01-06 02:56:30.67	185.85	29.01	-33.7	-35.1	26.7	0.00e+00	0	55	0	221773824	38	4364
2026-01-06 02:56:31.68	185.24	29.05	-34.0	-35.4	26.4	0.00e+00	0	55	0	223346688	38	4514
2026-01-06 02:56:32.69	184.62	29.10	-33.7	-35.1	26.6	0.00e+00	0	55	0	224395264	38	4387
2026-01-06 02:56:33.70	184.00	29.14	-33.8	-35.2	26.6	0.00e+00	0	55	0	225443840	38	4422
2026-01-06 02:56:34.71	183.38	29.18	-33.3	-34.7	27.0	0.00e+00	0	55	0	226492416	38	4175
2026-01-06 02:56:35.71	182.77	29.21	-33.6	-35.0	26.9	0.00e+00	0	55	0	227540992	38	4305
2026-01-06 02:56:36.72	182.14	29.25	-33.8	-35.2	26.6	0.00e+00	0	55	0	228589568	38	4428
2026-01-06 02:56:37.74	181.51	29.27	-33.6	-35.0	26.8	0.00e+00	0	55	0	230162432	38	4335
2026-01-06 02:56:38.75	180.89	29.30	-33.5	-34.9	26.9	0.00e+00	0	55	0	231211008	38	4252
2026-01-06 02:56:39.75	180.26	29.32	-33.3	-34.6	27.1	0.00e+00	0	55	0	232259584	38	4140
2026-01-06 02:56:40.76	179.64	29.34	-33.0	-34.3	27.4	0.00e+00	0	55	0	233308160	38	4000
2026-01-06 02:56:41.77	179.01	29.35	-33.3	-34.7	27.1	0.00e+00	0	55	0	234356736	38	4158
2026-01-06 02:56:42.78	178.38	29.36	-33.5	-34.9	26.9	0.00e+00	0	55	0	235405312	38	4257
2026-01-06 02:56:43.79	177.75	29.37	-33.2	-34.6	27.2	0.00e+00	0	55	0	236978176	38	4107
2026-01-06 02:56:44.80	177.12	29.38	-33.3	-34.7	27.1	0.00e+00	0	55	0	238026752	38	4157
2026-01-06 02:56:45.81	176.49	29.38	-33.1	-34.4	27.3	0.00e+00	0	55	0	239075328	38	4039
2026-01-06 02:56:46.82	175.86	29.37	-33.3	-34.7	27.2	0.00e+00	0	55	0	240123904	38	4174
2026-01-06 02:56:47.83	175.23	29.37	-34.0	-35.4	26.6	0.00e+00	0	55	0	241172480	38	4521
2026-01-06 02:56:48.84	174.60	29.36	-33.7	-35.1	26.8	0.00e+00	0	55	0	242221056	38	4383
2026-01-06 02:56:49.85	173.98	29.34	-33.9	-35.3	26.7	0.00e+00	0	55	0	243793920	38	4453
2026-01-06 02:56:50.86	173.35	29.33	-33.6	-35.0	26.8	0.00e+00	0	55	0	244842496	38	4328
2026-01-06 02:56:51.87	172.72	29.31	-33.3	-34.6	27.2	0.00e+00	0	55	0	245891072	38	4131
2026-01-06 02:56:52.88	172.09	29.28	-33.6	-35.0	26.9	0.00e+00	0	55	0	246939648	38	4320
2026-01-06 02:56:53.89	171.47	29.26	-33.5	-34.9	27.0	0.00e+00	0	55	0	247988224	38	4289
2026-01-06 02:56:54.90	170.85	29.23	-33.4	-34.8	27.1	0.00e+00	0	55	0	249036800	38	4227
2026-01-06 02:56:55.91	170.22	29.19	-33.4	-34.8	27.0	0.00e+00	0	55	0	250609664	37	4487
2026-01-06 02:56:56.92	169.60	29.16	-33.2	-34.5	27.3	0.00e+00	0	55	0	251658240	37	4338
2026-01-06 02:56:57.93	168.98	29.12	-33.1	-34.5	27.4	0.00e+00	0	55	0	252706816	37	4299
2026-01-06 02:56:58.94	168.37	29.07	-33.3	-34.7	27.2	0.00e+00	0	55	0	253755392	37	4428
2026-01-06 02:56:59.94	167.76	29.03	-33.7	-35.1	26.8	0.00e+00	0	55	0	254803968	37	4647
2026-01-06 02:57:00.96	167.14	28.98	-33.7	-35.2	26.8	0.00e+00	0	55	0	255852544	38	4405
2026-01-06 02:57:01.96	166.53	28.92	-33.6	-35.0	26.9	0.00e+00	0	55	0	257425408	38	4309
2026-01-06 02:57:02.97	165.93	28.87	-33.6	-35.0	27.0	0.00e+00	0	55	0	258473984	38	4296
2026-01-06 02:57:03.98	165.32	28.81	-33.6	-35.0	26.9	0.00e+00	0	55	0	259522560	38	4309
2026-01-06 02:57:04.99	164.72	28.75	-33.6	-35.0	26.9	0.00e+00	0	55	0	260571136	38	4303
2026-01-06 02:57:06.00	164.11	28.68	-33.5	-34.9	27.0	0.00e+00	0	55	0	261619712	38	4287
2026-01-06 02:57:07.01	163.52	28.61	-33.3	-34.7	27.3	0.00e+00	0	55	0	262668288	38	4148
2026-01-06 02:57:08.02	162.92	28.54	-33.1	-34.5	27.4	0.00e+00	0	55	0	264241152	38	4088
2026-01-06 02:57:09.03	162.33	28.47	-33.2	-34.6	27.4	0.00e+00	0	55	0	265289728	38	4109
2026-01-06 02:57:10.04	161.74	28.39	-33.3	-34.7	27.2	0.00e+00	0	55	0	266338304	38	4149
2026-01-06 02:57:11.05	161.16	28.31	-33.5	-34.9	27.0	0.00e+00	0	55	0	267386880	38	4280
2026-01-06 02:57:12.06	160.57	28.23	-33.8	-35.2	26.7	0.00e+00	0	55	0	268435456	38	4419
2026-01-06 02:57:13.07	159.99	28.14	-33.5	-35.0	27.0	0.00e+00	0	55	0	269484032	38	4294
2026-01-06 02:57:14.08	159.42	28.06	-33.4	-34.8	27.1	0.00e+00	0	55	0	271056896	38	4205
2026-01-06 02:57:15.09	158.85	27.97	-33.3	-34.7	27.1	0.00e+00	0	55	0	272105472	38	4187
2026-01-06 02:57:16.10	158.28	27.87	-33.4	-34.9	27.0	0.00e+00	0	55	0	273154048	38	4248
2026-01-06 02:57:17.11	157.71	27.78	-33.5	-35.0	27.0	0.00e+00	0	55	0	274202624	38	4295
2026-01-06 02:57:18.12	157.15	27.68	-33.8	-35.3	26.7	0.00e+00	0	55	0	275251200	38	4446
2026-01-06 02:57:19.13	156.60	27.58	-33.7	-35.2	26.7	0.00e+00	0	55	0	276299776	38	4404
2026-01-06 02:57:20.14	156.04	27.48	-33.5	-34.9	27.0	0.00e+00	0	55	0	277872640	38	4278
2026-01-06 02:57:21.15	155.50	27.38	-33.4	-34.8	27.1	0.00e+00	0	55	0	278921216	38	4204
2026-01-06 02:57:22.16	154.95	27.27	-33.5	-34.9	27.0	0.00e+00	0	55	0	279969792	38	4256
2026-01-06 02:57:23.17	154.41	27.17	-33.8	-35.3	26.6	0.00e+00	0	55	0	281018368	38	4452
2026-01-06 02:57:24.18	153.87	27.06	-34.0	-35.4	26.5	0.00e+00	0	55	0	282066944	38	4532
2026-01-06 02:57:25.19	153.34	26.95	-33.7	-35.1	26.7	0.00e+00	0	55	0	283115520	38	4374
2026-01-06 02:57:26.19	152.82	26.83	-33.7	-35.1	26.7	0.00e+00	0	55	0	284688384	38	4355
2026-01-06 02:57:27.21	152.29	26.72	-34.2	-35.7	26.2	0.00e+00	0	55	0	285736960	38	4657
2026-01-06 02:57:28.21	151.78	26.60	-34.3	-35.8	26.1	0.00e+00	0	55	0	286785536	39	4459
2026-01-06 02:57:29.22	151.26	26.48	-33.9	-35.4	26.5	0.00e+00	0	55	0	287834112	39	4270
2026-01-06 02:57:30.23	150.75	26.36	-33.7	-35.2	26.7	0.00e+00	0	55	0	288882688	39	4158
2026-01-06 02:57:31.24	150.25	26.24	-33.4	-34.8	27.0	0.00e+00	0	55	0	289931264	38	4232
2026-01-06 02:57:32.25	149.74	26.12	-33.4	-34.8	27.0	0.00e+00	0	55	0	291504128	38	4240
2026-01-06 02:57:33.26	149.25	26.00	-33.1	-34.5	27.3	0.00e+00	0	55	0	292552704	38	4062
2026-01-06 02:57:34.27	148.75	25.87	-33.4	-34.8	27.0	0.00e+00	0	55	0	293601280	38	4206
2026-01-06 02:57:35.28	148.27	25.75	-33.6	-35.0	26.8	0.00e+00	0	55	0	294649856	38	4338
2026-01-06 02:57:36.29	147.78	25.62	-34.0	-35.5	26.4	0.00e+00	0	55	0	295698432	38	4548
2026-01-06 02:57:37.30	147.30	25.49	-34.2	-35.7	26.2	0.00e+00	0	55	0	296747008	38	4668
2026-01-06 02:57:38.31	146.83	25.36	-34.3	-35.8	26.0	0.00e+00	0	55	0	298319872	39	4481
2026-01-06 02:57:39.32	146.36	25.23	-34.1	-35.6	26.2	0.00e+00	0	55	0	299368448	39	4359
2026-01-06 02:57:40.33	145.89	25.10	-33.8	-35.3	26.5	0.00e+00	0	55	0	300417024	39	4212
2026-01-06 02:57:41.34	145.43	24.96	-33.6	-35.0	26.8	0.00e+00	0	55	0	301465600	39	4097
2026-01-06 02:57:42.35	144.98	24.83	-33.6	-35.0	26.7	0.00e+00	0	55	0	302514176	39	4097
2026-01-06 02:57:43.36	144.52	24.69	-33.7	-35.1	26.6	0.00e+00	0	55	0	303562752	39	4142
2026-01-06 02:57:44.36	144.08	24.56	-33.6	-35.0	26.7	0.00e+00	0	55	0	305135616	39	4092
2026-01-06 02:57:45.37	143.64	24.42	-33.6	-35.0	26.7	0.00e+00	0	55	0	306184192	39	4095
2026-01-06 02:57:46.38	143.20	24.29	-33.6	-35.0	26.7	0.00e+00	0	55	0	307232768	39	4075
2026-01-06 02:57:47.39	142.76	24.15	-33.8	-35.3	26.5	0.00e+00	0	55	0	308281344	39	4198
2026-01-06 02:57:48.40	142.33	24.01	-34.0	-35.5	26.3	0.00e+00	0	55	0	309329920	39	4316
2026-01-06 02:57:49.41	141.91	23.87	-34.0	-35.4	26.3	0.00e+00	0	55	0	310378496	39	4286
2026-01-06 02:57:50.42	141.49	23.73	-34.2	-35.7	26.0	0.00e+00	0	55	0	311951360	39	4425
2026-01-06 02:57:51.43	141.07	23.59	-34.2	-35.7	26.0	0.00e+00	0	55	0	312999936	39	4419
2026-01-06 02:57:52.44	140.66	23.45	-34.1	-35.5	26.2	0.00e+00	0	56	0	314048512	39	4333
2026-01-06 02:57:53.45	140.25	23.31	-33.9	-35.3	26.3	0.00e+00	0	55	0	315097088	39	4217
2026-01-06 02:57:54.46	139.85	23.17	-33.9	-35.3	26.4	0.00e+00	0	55	0	316145664	39	4215
2026-01-06 02:57:55.47	139.45	23.03	-34.0	-35.5	26.2	0.00e+00	0	55	0	317194240	39	4294
2026-01-06 02:57:56.48	139.05	22.89	-34.3	-35.8	25.8	0.00e+00	0	55	0	318767104	39	4445
2026-01-06 02:57:57.49	138.66	22.75	-34.4	-36.0	25.8	0.00e+00	0	56	0	319815680	39	4557
2026-01-06 02:57:58.50	138.27	22.61	-34.5	-36.0	25.7	0.00e+00	0	55	0	320864256	39	4594
2026-01-06 02:57:59.51	137.89	22.47	-34.3	-35.8	25.9	0.00e+00	0	55	0	321912832	39	4477
2026-01-06 02:58:00.52	137.51	22.32	-34.0	-35.5	26.2	0.00e+00	0	55	0	322961408	39	4317
2026-01-06 02:58:01.53	137.14	22.18	-34.0	-35.5	26.2	0.00e+00	0	55	0	324009984	39	4312
2026-01-06 02:58:02.53	136.77	22.04	-34.5	-36.0	25.8	0.00e+00	0	55	0	325582848	39	4562
2026-01-06 02:58:03.54	136.40	21.90	-34.6	-36.2	25.4	0.00e+00	0	55	0	326631424	40	4415
2026-01-06 02:58:04.55	136.04	21.76	-34.4	-35.9	25.7	0.00e+00	0	55	0	327680000	40	4250
2026-01-06 02:58:05.56	135.68	21.62	-34.3	-35.8	25.8	0.00e+00	0	55	0	328728576	40	4239
2026-01-06 02:58:06.57	135.33	21.47	-34.3	-35.8	25.8	0.00e+00	0	55	0	329777152	40	4222
2026-01-06 02:58:07.58	134.98	21.33	-34.5	-36.0	25.7	0.00e+00	0	55	0	330825728	40	4294
2026-01-06 02:58:08.60	134.63	21.19	-34.9	-36.5	25.2	0.00e+00	0	55	0	332398592	40	4563
2026-01-06 02:58:09.60	134.29	21.05	-35.2	-36.8	24.7	0.00e+00	0	56	0	333447168	41	4487
2026-01-06 02:58:10.61	133.95	20.91	-35.3	-36.9	24.8	0.00e+00	0	55	0	334495744	41	4524
2026-01-06 02:58:11.62	133.61	20.77	-35.1	-36.7	24.9	0.00e+00	0	55	0	335544320	41	4431
2026-01-06 02:58:12.63	133.28	20.63	-34.7	-36.3	25.3	0.00e+00	0	56	0	336592896	41	4217
2026-01-06 02:58:13.64	132.95	20.48	-34.5	-36.0	25.6	0.00e+00	0	55	0	337641472	41	4093
2026-01-06 02:58:14.65	132.63	20.34	-34.3	-35.8	25.7	0.00e+00	0	55	0	338690048	40	4232
2026-01-06 02:58:15.66	132.31	20.20	-34.4	-35.9	25.7	0.00e+00	0	55	0	340262912	40	4270
2026-01-06 02:58:16.67	131.99	20.06	-34.8	-36.3	25.3	0.00e+00	0	56	0	341311488	40	4470
2026-01-06 02:58:17.68	131.67	19.92	-34.9	-36.5	25.1	0.00e+00	0	56	0	342360064	40	4546
2026-01-06 02:58:18.69	131.36	19.78	-35.0	-36.6	25.1	0.00e+00	0	55	0	343408640	40	4599
2026-01-06 02:58:19.70	131.06	19.65	-34.9	-36.5	25.1	0.00e+00	0	55	0	344457216	40	4583
2026-01-06 02:58:20.70	130.75	19.51	-35.1	-36.8	24.8	0.00e+00	0	55	0	346030080	40	4713
2026-01-06 02:58:21.71	130.45	19.37	-35.1	-36.7	24.8	0.00e+00	0	56	0	347078656	40	4705
2026-01-06 02:58:22.72	130.16	19.23	-35.4	-37.0	24.6	0.00e+00	0	56	0	348127232	41	4595
2026-01-06 02:58:23.73	129.86	19.09	-35.2	-36.9	24.6	0.00e+00	0	56	0	349175808	41	4515
2026-01-06 02:58:24.74	129.57	18.96	-35.1	-36.7	24.8	0.00e+00	0	55	0	350224384	41	4431
2026-01-06 02:58:25.75	129.28	18.82	-35.0	-36.6	25.0	0.00e+00	0	55	0	351272960	41	4343
2026-01-06 02:58:26.76	129.00	18.68	-35.0	-36.6	24.9	0.00e+00	0	55	0	352845824	41	4382
2026-01-06 02:58:27.77	128.72	18.55	-35.1	-36.7	24.9	0.00e+00	0	55	0	353894400	41	4416
2026-01-06 02:58:28.78	128.44	18.41	-35.1	-36.7	24.9	0.00e+00	0	55	0	354942976	41	4393
2026-01-06 02:58:29.79	128.16	18.28	-34.9	-36.5	25.0	0.00e+00	0	55	0	355991552	41	4326
2026-01-06 02:58:30.80	127.89	18.14	-34.9	-36.5	25.1	0.00e+00	0	56	0	357040128	41	4294
2026-01-06 02:58:31.81	127.62	18.01	-34.8	-36.4	25.1	0.00e+00	0	55	0	358088704	41	4269
2026-01-06 02:58:32.82	127.36	17.88	-35.2	-36.8	24.8	0.00e+00	0	56	0	359661568	41	4447
2026-01-06 02:58:33.83	127.09	17.74	-35.3	-37.0	24.6	0.00e+00	0	56	0	360710144	41	4548
2026-01-06 02:58:34.84	126.83	17.61	-35.5	-37.2	24.3	0.00e+00	0	56	0	361758720	41	4687
2026-01-06 02:58:35.85	126.57	17.48	-35.6	-37.3	24.3	0.00e+00	0	56	0	362807296	41	4721
2026-01-06 02:58:36.85	126.32	17.35	-35.4	-37.1	24.4	0.00e+00	0	56	0	363855872	41	4626
2026-01-06 02:58:37.86	126.07	17.22	-35.3	-36.9	24.6	0.00e+00	0	56	0	364904448	41	4521
2026-01-06 02:58:38.87	125.82	17.09	-35.1	-36.7	24.8	0.00e+00	0	56	0	366477312	41	4406
2026-01-06 02:58:39.88	125.57	16.96	-35.2	-36.9	24.6	0.00e+00	0	56	0	367525888	41	4511
2026-01-06 02:58:40.89	125.33	16.83	-35.4	-37.1	24.4	0.00e+00	0	55	0	368574464	41	4617
2026-01-06 02:58:41.90	125.09	16.70	-35.8	-37.5	23.9	0.00e+00	0	56	0	369623040	42	4565
2026-01-06 02:58:42.91	124.85	16.57	-36.0	-37.7	23.8	0.00e+00	0	56	0	370671616	42	4692
2026-01-06 02:58:43.92	124.61	16.44	-36.1	-37.8	23.7	0.00e+00	0	55	0	371720192	42	4744
2026-01-06 02:58:44.93	124.38	16.31	-36.1	-37.9	23.6	0.00e+00	0	55	0	373293056	42	4803
2026-01-06 02:58:45.94	124.14	16.19	-36.0	-37.8	23.7	0.00e+00	0	56	0	374341632	42	4713
2026-01-06 02:58:46.95	123.92	16.06	-35.8	-37.5	23.9	0.00e+00	0	56	0	375390208	42	4594
2026-01-06 02:58:47.96	123.69	15.93	-35.6	-37.3	24.1	0.00e+00	0	56	0	376438784	42	4459
2026-01-06 02:58:48.97	123.46	15.81	-35.4	-37.0	24.4	0.00e+00	0	56	0	377487360	42	4330
2026-01-06 02:58:49.98	123.24	15.68	-35.2	-36.9	24.5	0.00e+00	0	55	0	378535936	42	4246
2026-01-06 02:58:50.99	123.02	15.56	-35.3	-37.1	24.3	0.00e+00	0	55	0	379584512	42	4345
2026-01-06 02:58:52.00	122.81	15.44	-35.5	-37.2	24.2	0.00e+00	0	56	0	381157376	42	4441
2026-01-06 02:58:53.01	122.59	15.31	-35.9	-37.8	23.7	0.00e+00	0	55	0	382205952	42	4728
2026-01-06 02:58:54.02	122.38	15.19	-36.2	-38.2	23.2	0.00e+00	0	56	0	383254528	43	4656
2026-01-06 02:58:55.02	122.17	15.07	-36.9	-39.0	22.7	0.00e+00	0	55	0	384303104	44	4841
2026-01-06 02:58:56.03	121.96	14.95	-37.1	-39.3	22.3	0.00e+00	0	56	0	385351680	44	5000
2026-01-06 02:58:57.04	121.76	14.83	-37.1	-39.2	22.4	0.00e+00	0	56	0	386400256	44	4972
2026-01-06 02:58:58.05	121.55	14.71	-36.9	-38.9	22.7	0.00e+00	0	56	0	387973120	44	4795
2026-01-06 02:58:59.06	121.35	14.59	-36.8	-38.7	22.8	0.00e+00	0	56	0	389021696	44	4679
2026-01-06 02:59:00.07	121.15	14.47	-36.6	-38.4	23.1	0.00e+00	0	56	0	390070272	44	4538
2026-01-06 02:59:01.08	120.95	14.35	-36.4	-38.3	23.2	0.00e+00	0	56	0	391118848	44	4490
2026-01-06 02:59:02.09	120.76	14.23	-36.3	-38.1	23.2	0.00e+00	0	56	0	392167424	43	4643
2026-01-06 02:59:03.10	120.56	14.11	-36.3	-38.2	23.2	0.00e+00	0	56	0	393216000	43	4659
2026-01-06 02:59:04.11	120.37	14.00	-36.4	-38.3	23.1	0.00e+00	0	56	0	394788864	43	4713
2026-01-06 02:59:05.12	120.18	13.88	-36.6	-38.6	22.8	0.00e+00	0	55	0	395837440	43	4891
2026-01-06 02:59:06.13	119.99	13.77	-36.9	-39.0	22.4	0.00e+00	0	56	0	396886016	44	4825
2026-01-06 02:59:07.14	119.81	13.65	-36.8	-38.9	22.6	0.00e+00	0	55	0	397934592	44	4775
2026-01-06 02:59:08.15	119.62	13.54	-36.9	-39.0	22.5	0.00e+00	0	56	0	398983168	44	4836
2026-01-06 02:59:09.15	119.44	13.42	-36.7	-39.0	22.3	0.00e+00	0	56	0	400556032	43	5146
2026-01-06 02:59:10.16	119.26	13.31	-36.5	-38.9	22.3	0.00e+00	0	56	0	401604608	43	5059
2026-01-06 02:59:11.17	119.08	13.20	-36.4	-39.0	21.9	0.00e+00	0	56	0	402653184	43	5112
2026-01-06 02:59:12.19	118.90	13.08	-36.6	-39.1	21.6	1.10e-06	0	56	0	403701760	43	5191
2026-01-06 02:59:13.19	118.73	12.97	-36.3	-39.1	21.1	1.10e-06	0	56	0	404750336	43	5169
2026-01-06 02:59:14.20	118.56	12.86	-36.3	-39.0	21.9	0.00e+00	0	56	0	405798912	43	5150
2026-01-06 02:59:15.21	118.38	12.75	-35.8	-39.2	21.2	3.40e-06	0	56	0	407371776	43	5259
2026-01-06 02:59:16.22	118.21	12.64	-36.1	-39.3	21.4	3.40e-06	0	56	0	408420352	43	5324
2026-01-06 02:59:17.23	118.05	12.53	-36.7	-39.7	20.9	1.02e-05	0	56	0	409468928	44	5254
2026-01-06 02:59:18.24	117.88	12.42	-36.9	-39.5	21.4	9.61e-05	0	56	0	410517504	43	5419
2026-01-06 02:59:19.25	117.71	12.31	-37.0	-39.7	21.3	0.00e+00	0	56	0	411566080	44	5223
2026-01-06 02:59:20.26	117.55	12.20	-37.4	-39.9	21.3	0.00e+00	0	56	0	412614656	45	5060
2026-01-06 02:59:21.26	117.39	12.10	-37.2	-39.8	21.3	0.00e+00	0	56	0	414187520	44	5318
2026-01-06 02:59:22.27	117.23	11.99	-37.5	-39.9	20.3	0.00e+00	0	56	0	415236096	45	5052
2026-01-06 02:59:23.28	117.07	11.88	-37.5	-39.9	21.3	0.00e+00	0	56	0	416284672	45	5053
2026-01-06 02:59:24.30	116.91	11.78	-37.3	-40.0	21.1	0.00e+00	0	56	0	417333248	45	5158
2026-01-06 02:59:25.31	116.76	11.67	-36.9	-40.1	20.1	0.00e+00	0	56	0	418381824	45	5209
2026-01-06 02:59:26.32	116.60	11.57	-37.0	-39.9	21.1	0.00e+00	0	56	0	419430400	45	5059
2026-01-06 02:59:27.33	116.45	11.46	-36.7	-39.9	21.1	0.00e+00	0	56	0	420478976	45	5049
2026-01-06 02:59:28.34	116.30	11.36	-36.4	-39.8	19.9	3.40e-06	0	56	0	422051840	43	5638
2026-01-06 02:59:29.34	116.15	11.25	-36.4	-39.8	19.9	3.40e-06	0	56	0	423100416	44	5290
2026-01-06 02:59:30.35	116.00	11.15	-36.2	-39.1	20.5	1.48e-05	0	56	0	424148992	43	5202
2026-01-06 02:59:31.36	115.85	11.05	-35.8	-39.4	19.3	5.03e-05	0	56	0	425197568	42	5689
2026-01-06 02:59:32.37	115.71	10.95	-35.9	-39.9	17.1	1.74e-04	0	56	0	426246144	42	6000
2026-01-06 02:59:33.38	115.56	10.84	-33.5	-40.0	16.0	1.74e-04	0	56	0	427294720	40	6835
2026-01-06 02:59:34.39	115.42	10.74	-33.3	-40.1	16.0	1.46e-03	0	56	0	428867584	38	7797
2026-01-06 02:59:35.40	115.28	10.64	-32.2	-38.8	15.4	7.79e-03	0	56	0	429916160	35	7932
2026-01-06 02:59:36.41	115.14	10.54	-29.6	-38.6	15.6	7.79e-03	0	56	0	430964736	34	8240
2026-01-06 02:59:37.42	115.00	10.44	-29.4	-39.0	12.4	7.97e-03	0	56	0	432013312	32	9631
2026-01-06 02:59:38.43	114.86	10.34	-29.4	-40.8	11.4	2.29e-02	0	56	0	433061888	31	12654
2026-01-06 02:59:39.44	114.72	10.24	-28.4	-42.6	9.2	2.29e-02	0	56	0	434110464	30	16494
2026-01-06 02:59:40.45	114.59	10.15	-23.3	-39.2	6.1	8.54e-02	0	56	0	435159040	13	29624
2026-01-06 02:59:41.46	114.45	10.05	-26.9	-41.1	8.0	3.69e-01	0	56	0	435683328	25	18370
2026-01-06 02:59:42.47	114.32	9.95	-28.6	-40.2	6.4	3.69e-01	0	56	0	436731904	20	22065
2026-01-06 02:59:43.48	114.19	9.85	-28.7	-44.2	7.9	4.21e-01	0	56	0	437780480	27	23539
2026-01-06 02:59:44.49	114.06	9.76	-28.3	-47.6	6.5	3.35e-01	0	56	0	438304768	27	34874
2026-01-06 02:59:45.50	113.93	9.66	-29.2	-47.4	6.7	5.52e-01	0	56	0	438304768	29	30280
2026-01-06 02:59:46.51	113.80	9.57	-26.1	-44.3	8.4	5.52e-01	0	56	0	439353344	28	22444
2026-01-06 02:59:47.52	113.67	9.47	-25.4	-45.7	7.9	4.38e-01	0	56	0	439877632	29	24850
2026-01-06 02:59:48.53	113.55	9.38	-27.5	-45.3	7.7	5.41e-01	0	56	0	439877632	28	25245
2026-01-06 02:59:49.54	113.42	9.28	-28.2	-41.6	10.1	5.41e-01	0	56	0	440926208	28	16321
2026-01-06 02:59:50.55	113.30	9.19	-27.1	-39.1	13.1	3.07e-01	0	56	0	441974784	29	11562
2026-01-06 02:59:51.56	113.18	9.09	-29.4	-38.7	12.2	5.66e-02	0	56	0	443023360	29	11061
2026-01-06 02:59:52.57	113.05	9.00	-29.7	-39.4	13.0	5.66e-02	0	56	0	444071936	30	11332
2026-01-06 02:59:53.58	112.93	8.91	-24.0	-39.6	12.7	3.82e-02	0	56	0	445120512	31	10965
2026-01-06 02:59:54.59	112.81	8.82	-30.1	-40.0	12.5	7.07e-02	0	56	0	446169088	31	11506
2026-01-06 02:59:55.59	112.70	8.73	-29.9	-40.1	12.1	7.07e-02	0	56	0	447217664	31	11561
2026-01-06 02:59:56.60	112.58	8.63	-27.7	-39.9	12.8	5.85e-02	0	56	0	448790528	31	11381
2026-01-06 02:59:57.62	112.46	8.54	-23.2	-40.8	10.9	5.24e-02	0	56	0	449839104	32	11935
2026-01-06 02:59:58.63	112.35	8.45	-29.5	-41.2	11.2	8.28e-02	0	56	0	450887680	33	11705
2026-01-06 02:59:59.64	112.23	8.36	-30.6	-40.5	13.1	8.28e-02	0	56	0	451936256	33	10879
2026-01-06 03:00:00.65	112.12	8.27	-29.7	-41.0	13.2	4.64e-02	0	56	0	452984832	34	10843
2026-01-06 03:00:01.66	112.01	8.18	-33.5	-41.5	12.4	3.78e-02	0	56	0	454557696	36	10224
2026-01-06 03:00:02.67	111.89	8.09	-33.2	-42.0	13.1	3.78e-02	0	56	0	455606272	37	10215
2026-01-06 03:00:03.68	111.78	8.01	-41.3	-58.5	5.1	3.78e-02	0	56	0	456654848	51	30530
2026-01-06 03:00:04.69	111.67	7.92	-44.6	-62.8	3.8	4.35e-01	0	56	104	456654848	59	31522
2026-01-06 03:00:05.70	111.57	7.83	-44.8	-63.1	3.8	4.35e-01	0	56	104	456654848	60	30975
2026-01-06 03:00:06.71	111.46	7.74	-45.0	-63.3	3.8	8.45e-01	0	56	104	456654848	60	31480
2026-01-06 03:00:07.72	111.35	7.65	-45.3	-63.5	3.8	8.46e-01	0	56	104	456654848	61	30642
2026-01-06 03:00:08.73	111.24	7.57	-45.4	-63.7	3.8	8.46e-01	0	56	104	456654848	61	31101
2026-01-06 03:00:09.74	111.14	7.48	-45.5	-63.7	3.8	8.46e-01	0	56	104	456654848	61	31436
2026-01-06 03:00:10.75	111.04	7.40	-45.6	-63.9	3.8	8.46e-01	0	56	104	456654848	61	31852
2026-01-06 03:00:11.76	110.93	7.31	-45.7	-64.0	3.8	8.45e-01	0	56	104	456654848	61	32194
2026-01-06 03:00:12.77	110.83	7.23	-45.7	-64.0	3.8	8.45e-01	0	56	104	456654848	61	32311
2026-01-06 03:00:13.78	110.73	7.14	-45.7	-64.0	3.8	8.46e-01	0	56	104	456654848	61	32355
2026-01-06 03:00:14.80	110.63	7.06	-45.6	-63.9	3.8	8.47e-01	0	56	104	456654848	61	32110
2026-01-06 03:00:15.81	110.53	6.97	-45.5	-63.9	3.8	8.47e-01	0	56	104	456654848	61	31830
2026-01-06 03:00:16.82	110.43	6.89	-45.4	-63.8	3.8	8.46e-01	0	56	104	456654848	61	31668
2026-01-06 03:00:17.83	110.33	6.80	-45.4	-63.8	3.8	8.46e-01	0	56	104	456654848	61	31654
2026-01-06 03:00:18.84	110.23	6.72	-45.4	-63.8	3.8	8.46e-01	0	56	104	456654848	61	31609
2026-01-06 03:00:19.85	110.13	6.64	-45.4	-63.8	3.8	8.46e-01	0	56	104	456654848	61	31671
2026-01-06 03:00:20.86	110.04	6.56	-45.3	-63.8	3.8	8.46e-01	0	56	104	456654848	61	31529
2026-01-06 03:00:21.87	109.94	6.47	-45.3	-63.8	3.8	8.46e-01	0	56	104	456654848	61	31484
2026-01-06 03:00:22.88	109.85	6.39	-45.3	-63.8	3.8	8.46e-01	0	56	104	456654848	61	31455
2026-01-06 03:00:23.89	109.75	6.31	-45.3	-63.8	3.8	8.46e-01	0	56	104	456654848	61	31450
2026-01-06 03:00:24.91	109.66	6.23	-45.3	-63.7	3.8	8.47e-01	0	56	104	456654848	61	31420
2026-01-06 03:00:25.92	109.57	6.15	-45.3	-63.7	3.8	8.47e-01	0	56	104	456654848	61	31416
2026-01-06 03:00:26.93	109.48	6.07	-45.3	-63.8	3.8	8.47e-01	0	56	104	456654848	61	31483
2026-01-06 03:00:27.94	109.39	5.99	-45.3	-63.7	3.8	8.46e-01	0	56	104	456654848	61	31358
2026-01-06 03:00:28.95	109.29	5.91	-45.3	-63.7	3.8	8.46e-01	0	56	104	456654848	61	31314
2026-01-06 03:00:29.96	109.21	5.83	-45.3	-63.7	3.8	8.46e-01	0	56	104	456654848	61	31352
2026-01-06 03:00:30.97	109.12	5.75	-45.3	-63.7	3.8	8.45e-01	0	56	104	456654848	61	31357
2026-01-06 03:00:31.98	109.03	5.67	-45.3	-63.7	3.8	8.45e-01	0	56	104	456654848	61	31346
2026-01-06 03:00:32.99	108.94	5.59	-45.3	-63.7	3.8	8.46e-01	0	56	104	456654848	61	31346
2026-01-06 03:00:34.00	108.85	5.51	-45.3	-63.7	3.8	8.45e-01	0	56	104	456654848	61	31346
2026-01-06 03:00:35.01	108.77	5.44	-45.3	-63.7	3.8	8.45e-01	0	56	104	456654848	61	31367
2026-01-06 03:00:36.03	108.68	5.36	-45.3	-63.7	3.8	8.45e-01	0	56	104	456654848	61	31314
2026-01-06 03:00:37.04	108.60	5.28	-45.3	-63.7	3.8	8.46e-01	0	56	104	456654848	61	31334
2026-01-06 03:00:38.05	108.51	5.20	-45.3	-63.7	3.8	8.46e-01	0	56	104	456654848	61	31313
2026-01-06 03:00:39.06	108.43	5.13	-45.3	-63.7	3.8	8.46e-01	0	56	104	456654848	61	31243
2026-01-06 03:00:40.07	108.35	5.05	-45.3	-63.7	3.8	8.46e-01	0	56	104	456654848	61	31238
2026-01-06 03:00:41.08	108.27	4.97	-45.3	-63.7	3.8	8.46e-01	0	56	104	456654848	61	31252
2026-01-06 03:00:42.09	108.18	4.90	-45.3	-63.7	3.8	8.46e-01	0	56	104	456654848	61	31173
2026-01-06 03:00:43.10	108.10	4.82	-45.3	-63.7	3.8	8.46e-01	0	56	104	456654848	61	31269
2026-01-06 03:00:44.11	108.02	4.75	-45.3	-63.7	3.8	8.47e-01	0	56	104	456654848	61	31327
2026-01-06 03:00:45.13	107.94	4.67	-45.3	-63.7	3.8	8.46e-01	0	56	104	456654848	61	31234
2026-01-06 03:00:46.14	107.86	4.60	-45.1	-63.7	3.8	8.46e-01	0	56	104	456654848	61	31245
2026-01-06 03:00:47.15	107.78	4.52	-45.3	-63.7	3.8	8.45e-01	0	56	104	456654848	61	31303
2026-01-06 03:00:48.16	107.71	4.45	-45.3	-63.7	3.8	8.47e-01	0	56	104	456654848	61	31192
2026-01-06 03:00:49.17	107.63	4.37	-45.3	-63.7	3.8	8.47e-01	0	56	104	456654848	61	31290
2026-01-06 03:00:50.18	107.55	4.30	-45.3	-63.7	3.8	8.45e-01	0	56	104	456654848	61	31270
2026-01-06 03:00:51.19	107.48	4.23	-45.3	-63.7	3.8	8.45e-01	0	56	104	456654848	61	31267
2026-01-06 03:00:52.20	107.40	4.15	-45.3	-63.7	3.8	8.45e-01	0	56	104	456654848	61	31145
2026-01-06 03:00:53.21	107.32	4.08	-45.3	-63.7	3.8	8.46e-01	0	56	104	456654848	61	31211
2026-01-06 03:00:54.23	107.25	4.01	-45.3	-63.7	3.8	8.48e-01	0	56	104	456654848	61	31248
2026-01-06 03:00:55.24	107.18	3.94	-45.2	-63.7	3.8	8.48e-01	0	56	104	456654848	61	31244
2026-01-06 03:00:56.25	107.10	3.86	-45.3	-63.7	3.8	8.46e-01	0	56	104	456654848	61	31191
2026-01-06 03:00:57.26	107.03	3.79	-45.3	-63.7	3.8	8.45e-01	0	56	104	456654848	61	31236
2026-01-06 03:00:58.27	106.96	3.72	-45.3	-63.7	3.8	8.46e-01	0	56	104	456654848	61	31201
2026-01-06 03:00:59.28	106.88	3.65	-45.2	-63.7	3.8	8.46e-01	0	56	104	456654848	61	31178
2026-01-06 03:01:00.29	106.81	3.58	-45.2	-63.7	3.8	8.46e-01	0	56	104	456654848	61	31153
2026-01-06 03:01:01.30	106.74	3.51	-45.2	-63.7	3.8	8.45e-01	0	56	104	456654848	61	31146
2026-01-06 03:01:02.31	106.67	3.44	-45.2	-63.7	3.8	8.45e-01	0	56	104	456654848	61	31226
2026-01-06 03:01:03.33	106.60	3.37	-45.2	-63.7	3.8	8.47e-01	0	56	104	456654848	61	31211
2026-01-06 03:01:04.34	106.53	3.29	-45.2	-63.7	3.8	8.46e-01	0	56	104	456654848	61	31235
2026-01-06 03:01:05.35	106.46	3.23	-45.2	-63.7	3.8	8.46e-01	0	56	104	456654848	61	31227
2026-01-06 03:01:06.36	106.39	3.16	-45.2	-63.7	3.8	8.47e-01	0	56	104	456654848	61	31194
2026-01-06 03:01:07.37	106.33	3.09	-45.3	-63.7	3.8	8.47e-01	0	56	104	456654848	61	31276
2026-01-06 03:01:08.38	106.26	3.02	-45.2	-63.7	3.8	8.47e-01	0	56	104	456654848	61	31200
2026-01-06 03:01:09.39	106.19	2.95	-45.2	-63.7	3.8	8.47e-01	0	56	104	456654848	61	31222
2026-01-06 03:01:10.40	106.12	2.88	-45.2	-63.7	3.8	8.46e-01	0	56	104	456654848	61	31325
2026-01-06 03:01:11.41	106.06	2.81	-45.2	-63.7	3.8	8.46e-01	0	56	104	456654848	61	31203
2026-01-06 03:01:12.42	105.99	2.74	-45.2	-63.7	3.8	8.46e-01	0	56	104	456654848	61	31272
2026-01-06 03:01:13.43	105.93	2.67	-45.2	-63.7	3.8	8.46e-01	0	56	104	456654848	61	31124
2026-01-06 03:01:14.45	105.86	2.61	-45.2	-63.7	3.8	8.46e-01	0	56	104	456654848	61	31254
2026-01-06 03:01:15.46	105.80	2.54	-45.2	-63.7	3.8	8.46e-01	0	56	104	456654848	61	31158
2026-01-06 03:01:16.47	105.73	2.47	-45.2	-63.7	3.8	8.45e-01	0	56	104	456654848	61	31210
2026-01-06 03:01:17.48	105.67	2.40	-45.2	-63.7	3.8	8.47e-01	0	56	104	456654848	61	31102
2026-01-06 03:01:18.49	105.61	2.34	-45.2	-63.7	3.8	8.47e-01	0	56	104	456654848	61	31195
2026-01-06 03:01:19.50	105.54	2.27	-45.2	-63.7	3.8	8.45e-01	0	56	104	456654848	61	31104
2026-01-06 03:01:20.51	105.48	2.20	-45.2	-63.7	3.8	8.46e-01	0	56	104	456654848	61	31148
2026-01-06 03:01:21.52	105.42	2.14	-45.2	-63.7	3.8	8.46e-01	0	56	104	456654848	61	31137
2026-01-06 03:01:22.53	105.36	2.07	-45.2	-63.7	3.8	8.45e-01	0	56	104	456654848	61	31131
2026-01-06 03:01:23.54	105.30	2.00	-45.2	-63.7	3.8	8.46e-01	0	56	104	456654848	61	31172
2026-01-06 03:01:24.55	105.24	1.94	-45.2	-63.7	3.8	8.48e-01	0	56	104	456654848	61	31254

#Closed at: 2026-01-06 03:01:24
#Recorded file [456 MB]: D:/lorett/data/31039_260106_055207.dat