passes_logs/2026/01/06/R2.0S_Moscow/R2.0S_Moscow__20260106_113421_FENGYUN_3D_rec.log

#Pass ID: 20260106_113421_FENGYUN 3D
#Satellite: FENGYUN 3D
#Configuration: FENGYUN 3D
#almurnet v.1.7.20251203
#Start time: 2026-01-06 11:34:22

#Version: 2.2.20231116
#Station: R2.0S_Moscow
#Location: 37.707566 lon 55.798166 lat
#TLE: 1 43010U 17072A   26005.48915933 -.00000051  00000+0 -21983-5 0  9995
#TLE: 2 43010  98.9919 337.1582 0002001 124.6377 235.4988 14.19691925421909

#Time	Az	El	Level	Level2	SNR	BER	BlckErr	Temp	State	Recorded	gain1	gain2
2026-01-06 11:34:22.04	149.53	2.02	-43.9	-55.3	3.8	8.46e-01	0	47	0	0	58	14174
2026-01-06 11:34:23.06	149.52	2.09	-43.9	-55.3	3.8	8.48e-01	0	47	104	0	58	14173
2026-01-06 11:34:24.07	149.51	2.15	-43.9	-55.4	3.8	8.47e-01	0	47	104	0	58	14226
2026-01-06 11:34:25.08	149.49	2.22	-43.9	-55.3	3.8	8.47e-01	0	47	104	0	58	14182
2026-01-06 11:34:26.09	149.48	2.28	-43.9	-55.4	3.8	8.45e-01	0	47	104	0	58	14224
2026-01-06 11:34:27.10	149.46	2.35	-43.9	-55.4	3.8	8.46e-01	0	47	104	0	58	14219
2026-01-06 11:34:28.12	149.45	2.42	-43.9	-55.3	3.8	8.46e-01	0	47	104	0	58	14200
2026-01-06 11:34:29.13	149.43	2.48	-43.9	-55.3	3.8	8.46e-01	0	47	104	0	58	14186
2026-01-06 11:34:30.14	149.42	2.55	-43.9	-55.3	3.8	8.47e-01	0	48	104	0	58	14206
2026-01-06 11:34:31.15	149.41	2.61	-43.9	-55.4	3.8	8.45e-01	0	48	104	0	58	14242
2026-01-06 11:34:32.16	149.39	2.68	-43.8	-55.3	3.8	8.47e-01	0	48	104	0	58	14160
2026-01-06 11:34:33.17	149.38	2.75	-43.9	-55.3	3.8	8.46e-01	0	48	104	0	58	14159
2026-01-06 11:34:34.18	149.36	2.81	-43.8	-55.4	3.8	8.46e-01	0	48	104	0	58	14218
2026-01-06 11:34:35.19	149.35	2.88	-43.9	-55.4	3.8	8.46e-01	0	48	104	0	58	14218
2026-01-06 11:34:36.20	149.33	2.95	-43.9	-55.4	3.8	8.46e-01	0	48	104	0	58	14237
2026-01-06 11:34:37.21	149.32	3.01	-43.9	-55.3	3.8	8.46e-01	0	48	104	0	58	14175
2026-01-06 11:34:38.22	149.30	3.08	-43.9	-55.4	3.8	8.46e-01	0	48	104	0	58	14221
2026-01-06 11:34:39.23	149.29	3.15	-43.9	-55.3	3.8	8.46e-01	0	48	104	0	58	14156
2026-01-06 11:34:40.25	149.27	3.21	-43.9	-55.3	3.8	8.46e-01	0	48	104	0	58	14177
2026-01-06 11:34:41.25	149.26	3.28	-43.9	-55.3	3.8	8.45e-01	0	48	104	0	58	14202
2026-01-06 11:34:42.27	149.24	3.35	-43.8	-55.3	3.8	8.47e-01	0	49	104	0	58	14164
2026-01-06 11:34:43.28	149.22	3.42	-43.8	-55.3	3.8	8.46e-01	0	49	104	0	58	14175
2026-01-06 11:34:44.29	149.21	3.49	-43.9	-55.3	3.8	8.46e-01	0	49	104	0	58	14173
2026-01-06 11:34:45.30	149.19	3.55	-43.9	-55.3	3.8	8.45e-01	0	48	104	0	58	14191
2026-01-06 11:34:46.31	149.18	3.62	-43.9	-55.3	3.8	8.46e-01	0	49	104	0	58	14203
2026-01-06 11:34:47.32	149.16	3.69	-43.9	-55.3	3.8	8.46e-01	0	49	104	0	58	14188
2026-01-06 11:34:48.33	149.15	3.76	-43.9	-55.3	3.8	8.47e-01	0	49	104	0	58	14185
2026-01-06 11:34:49.34	149.13	3.83	-43.9	-55.3	3.8	8.46e-01	0	49	104	0	58	14139
2026-01-06 11:34:50.35	149.11	3.90	-43.9	-55.3	3.8	8.46e-01	0	49	104	0	58	14144
2026-01-06 11:34:51.36	149.10	3.97	-42.7	-55.2	3.9	8.46e-01	0	49	104	0	58	13968
2026-01-06 11:34:52.38	149.08	4.04	-43.9	-55.3	3.8	8.46e-01	0	49	104	0	58	14190
2026-01-06 11:34:53.39	149.06	4.11	-43.8	-55.4	3.8	8.46e-01	0	49	104	0	58	14212
2026-01-06 11:34:54.40	149.05	4.18	-43.9	-55.3	3.8	8.46e-01	0	49	104	0	58	14183
2026-01-06 11:34:55.41	149.03	4.25	-43.9	-55.4	3.8	8.46e-01	0	49	104	0	58	14220
2026-01-06 11:34:56.42	149.01	4.32	-43.9	-55.3	3.8	8.47e-01	0	49	104	0	58	14208
2026-01-06 11:34:57.43	149.00	4.39	-43.9	-55.4	3.8	8.44e-01	0	49	104	0	58	14210
2026-01-06 11:34:58.44	148.98	4.46	-43.9	-55.3	3.8	8.47e-01	0	49	104	0	58	14184
2026-01-06 11:34:59.45	148.96	4.53	-43.8	-55.3	3.8	8.46e-01	0	50	104	0	58	14153
2026-01-06 11:35:00.46	148.95	4.60	-43.8	-55.3	3.8	8.47e-01	0	50	104	0	58	14204
2026-01-06 11:35:01.47	148.93	4.67	-43.9	-55.3	3.8	8.47e-01	0	49	104	0	58	14157
2026-01-06 11:35:02.49	148.91	4.74	-43.9	-55.3	3.8	8.45e-01	0	50	104	0	58	14157
2026-01-06 11:35:03.50	148.90	4.81	-43.8	-55.3	3.8	8.46e-01	0	50	104	0	58	14169
2026-01-06 11:35:04.51	148.88	4.89	-43.8	-55.3	3.8	8.46e-01	0	50	104	0	58	14171
2026-01-06 11:35:05.52	148.86	4.96	-43.8	-55.3	3.8	8.47e-01	0	50	104	0	58	14139
2026-01-06 11:35:06.53	148.84	5.03	-43.8	-55.3	3.8	8.46e-01	0	50	104	0	58	14130
2026-01-06 11:35:07.54	148.83	5.10	-43.8	-55.3	3.8	8.45e-01	0	50	104	0	58	14119
2026-01-06 11:35:08.55	148.81	5.17	-43.8	-55.3	3.8	8.46e-01	0	50	104	0	58	14152
2026-01-06 11:35:09.56	148.79	5.25	-43.8	-55.3	3.8	8.46e-01	0	50	104	0	58	14110
2026-01-06 11:35:10.57	148.77	5.32	-43.9	-55.3	3.8	8.46e-01	0	50	104	0	58	14085
2026-01-06 11:35:11.58	148.75	5.39	-43.8	-55.3	3.8	8.47e-01	0	50	104	0	58	14070
2026-01-06 11:35:12.59	148.74	5.47	-43.8	-55.2	3.8	8.46e-01	0	50	104	0	58	14026
2026-01-06 11:35:13.61	148.72	5.54	-43.8	-55.2	3.8	8.46e-01	0	50	104	0	58	13923
2026-01-06 11:35:14.62	148.70	5.61	-43.8	-55.2	3.8	8.47e-01	0	50	104	0	58	13894
2026-01-06 11:35:15.63	148.68	5.69	-43.8	-55.1	3.8	8.47e-01	0	50	104	0	58	13767
2026-01-06 11:35:16.64	148.66	5.76	-43.8	-54.9	3.8	8.47e-01	0	50	104	0	58	13562
2026-01-06 11:35:17.65	148.64	5.84	-43.8	-54.8	3.8	8.46e-01	0	51	104	0	58	13292
2026-01-06 11:35:18.66	148.62	5.91	-43.8	-54.5	3.8	8.47e-01	0	51	104	0	58	12931
2026-01-06 11:35:19.67	148.61	5.98	-43.7	-54.2	3.8	8.47e-01	0	51	104	0	58	12464
2026-01-06 11:35:20.68	148.59	6.06	-43.7	-54.0	3.8	8.47e-01	0	51	104	0	58	12109
2026-01-06 11:35:21.69	148.57	6.13	-43.6	-53.7	3.8	8.46e-01	0	51	104	0	57	12409
2026-01-06 11:35:22.70	148.55	6.21	-43.6	-53.4	3.8	8.46e-01	0	51	104	0	57	12088
2026-01-06 11:35:23.71	148.53	6.29	-43.6	-53.4	3.8	8.45e-01	0	51	104	0	57	12026
2026-01-06 11:35:24.72	148.51	6.36	-43.6	-53.4	3.8	8.45e-01	0	51	104	0	57	12001
2026-01-06 11:35:25.73	148.49	6.44	-43.6	-53.3	3.8	8.45e-01	0	51	104	0	57	11856
2026-01-06 11:35:26.75	148.47	6.51	-43.6	-53.4	3.8	8.45e-01	0	51	104	0	57	12077
2026-01-06 11:35:27.76	148.45	6.59	-43.7	-54.0	3.8	8.46e-01	0	51	104	0	57	12837
2026-01-06 11:35:28.77	148.43	6.67	-43.7	-54.3	3.8	8.45e-01	0	51	104	0	57	13337
2026-01-06 11:35:29.78	148.41	6.74	-43.8	-54.5	3.8	8.46e-01	0	51	104	0	58	12853
2026-01-06 11:35:30.79	148.39	6.82	-43.8	-54.7	3.8	8.47e-01	0	51	104	0	58	13215
2026-01-06 11:35:31.80	148.37	6.90	-43.8	-54.7	3.8	8.46e-01	0	51	104	0	58	13164
2026-01-06 11:35:32.81	148.35	6.98	-43.7	-53.9	3.8	8.46e-01	0	51	104	0	58	12006
2026-01-06 11:35:33.82	148.33	7.05	-43.5	-52.5	4.0	8.44e-01	0	51	104	0	58	10186
2026-01-06 11:35:34.83	148.31	7.13	-43.2	-50.9	4.5	8.33e-01	0	51	0	0	58	8476
2026-01-06 11:35:35.84	148.29	7.21	-42.8	-49.2	5.3	7.59e-01	0	51	0	0	57	7415
2026-01-06 11:35:36.86	148.27	7.29	-42.3	-47.6	6.5	3.60e-01	0	51	0	3145728	56	6565
2026-01-06 11:35:37.87	148.24	7.37	-41.7	-46.2	7.7	1.27e-01	0	51	0	9437184	55	5868
2026-01-06 11:35:38.88	148.22	7.45	-41.1	-45.0	8.8	5.02e-02	0	51	0	14680064	53	5726
2026-01-06 11:35:39.89	148.20	7.53	-40.5	-43.8	10.0	1.63e-02	0	52	0	19922944	53	5022
2026-01-06 11:35:40.90	148.18	7.60	-40.0	-42.9	11.1	3.74e-03	0	52	0	26214400	51	5066
2026-01-06 11:35:41.91	148.16	7.68	-39.4	-42.1	11.9	7.59e-04	0	52	0	31457280	50	4884
2026-01-06 11:35:42.92	148.14	7.76	-38.9	-41.4	12.6	2.13e-04	0	52	0	37748736	49	4777
2026-01-06 11:35:43.93	148.11	7.84	-38.6	-40.9	13.1	6.52e-05	0	52	0	42991616	49	4508
2026-01-06 11:35:44.94	148.09	7.93	-38.2	-40.4	13.7	2.17e-05	0	52	0	48234496	48	4496
2026-01-06 11:35:45.95	148.07	8.01	-37.8	-39.9	14.0	4.50e-06	0	52	0	54525952	47	4526
2026-01-06 11:35:46.96	148.05	8.09	-43.7	-51.3	4.5	8.41e-01	0	52	104	57671680	58	8964
2026-01-06 11:35:47.97	148.03	8.17	-42.5	-47.8	6.4	8.44e-01	0	52	104	57671680	57	6337
2026-01-06 11:35:48.98	148.00	8.25	-38.1	-40.3	13.6	2.20e-06	0	52	0	61865984	46	5019
2026-01-06 11:35:49.99	147.98	8.33	-42.1	-46.8	7.4	5.63e-03	0	52	0	68157440	54	6705
2026-01-06 11:35:51.00	147.96	8.41	-40.9	-44.8	8.9	3.16e-03	0	52	0	73400320	52	5957
2026-01-06 11:35:52.01	147.94	8.50	-37.6	-39.7	14.2	5.83e-05	0	52	0	79691776	47	4413
2026-01-06 11:35:53.02	147.91	8.58	-37.3	-39.3	14.7	0.00e+00	0	52	0	84934656	46	4454
2026-01-06 11:35:54.03	147.89	8.66	-37.1	-39.0	15.0	0.00e+00	0	52	0	90177536	46	4334
2026-01-06 11:35:55.03	147.87	8.74	-37.2	-39.2	14.9	2.20e-06	0	52	0	96468992	46	4397
2026-01-06 11:35:56.04	147.84	8.83	-37.2	-39.1	14.9	0.00e+00	0	52	0	101711872	46	4367
2026-01-06 11:35:57.05	147.82	8.91	-37.1	-39.0	15.1	0.00e+00	0	52	0	108003328	46	4305
2026-01-06 11:35:58.06	147.79	8.99	-37.2	-39.1	15.0	0.00e+00	0	52	0	113246208	46	4342
2026-01-06 11:35:59.07	147.77	9.08	-37.0	-38.9	15.2	0.00e+00	0	52	0	118489088	46	4254
2026-01-06 11:36:00.08	147.75	9.16	-37.0	-38.8	15.3	0.00e+00	0	52	0	124780544	45	4473
2026-01-06 11:36:01.09	147.72	9.25	-36.9	-38.7	15.4	0.00e+00	0	52	0	130023424	45	4417
2026-01-06 11:36:02.11	147.70	9.33	-36.8	-38.6	15.5	0.00e+00	0	52	0	136314880	45	4365
2026-01-06 11:36:03.12	147.67	9.42	-36.8	-38.5	15.6	0.00e+00	0	52	0	141557760	45	4334
2026-01-06 11:36:04.12	147.65	9.50	-36.8	-38.6	15.5	0.00e+00	0	52	0	147849216	45	4378
2026-01-06 11:36:05.13	147.62	9.59	-36.8	-38.6	15.6	0.00e+00	0	53	0	153092096	45	4346
2026-01-06 11:36:06.14	147.60	9.67	-36.8	-38.6	15.6	0.00e+00	0	52	0	159383552	45	4365
2026-01-06 11:36:07.15	147.57	9.76	-36.7	-38.5	15.7	0.00e+00	0	52	0	164626432	45	4311
2026-01-06 11:36:08.17	147.55	9.85	-36.7	-38.5	15.7	0.00e+00	0	52	0	169869312	45	4297
2026-01-06 11:36:09.18	147.52	9.94	-36.6	-38.4	15.8	0.00e+00	0	53	0	176160768	45	4269
2026-01-06 11:36:10.19	147.50	10.02	-36.6	-38.4	15.9	0.00e+00	0	53	0	181403648	45	4253
2026-01-06 11:36:11.20	147.47	10.11	-36.6	-38.4	15.8	0.00e+00	0	52	0	187695104	45	4259
2026-01-06 11:36:12.21	147.44	10.20	-36.6	-38.3	15.9	0.00e+00	0	53	0	192937984	45	4228
2026-01-06 11:36:13.22	147.42	10.29	-36.6	-38.3	15.9	0.00e+00	0	53	0	198180864	45	4216
2026-01-06 11:36:14.23	147.39	10.37	-36.5	-38.2	16.1	1.10e-06	0	53	0	204472320	44	4412
2026-01-06 11:36:15.24	147.36	10.46	-36.6	-38.3	16.0	1.71e-05	0	53	0	209715200	44	4477
2026-01-06 11:36:16.25	147.34	10.55	-36.6	-38.3	16.0	0.00e+00	0	53	0	216006656	44	4479
2026-01-06 11:36:17.26	147.31	10.64	-36.6	-38.3	16.0	0.00e+00	0	53	0	221249536	44	4482
2026-01-06 11:36:18.27	147.28	10.73	-36.6	-38.3	16.0	0.00e+00	0	53	0	226492416	44	4460
2026-01-06 11:36:19.28	147.26	10.82	-36.6	-38.3	16.1	0.00e+00	0	53	0	232783872	44	4463
2026-01-06 11:36:20.29	147.23	10.91	-36.5	-38.2	16.1	0.00e+00	0	53	0	238026752	44	4430
2026-01-06 11:36:21.30	147.20	11.00	-36.3	-38.1	16.0	0.00e+00	0	53	0	244318208	44	4369
2026-01-06 11:36:22.31	147.17	11.09	-36.5	-38.3	16.1	0.00e+00	0	53	0	249561088	44	4442
2026-01-06 11:36:23.33	147.14	11.19	-36.5	-38.2	16.2	0.00e+00	0	53	0	255852544	44	4411
2026-01-06 11:36:24.34	147.12	11.28	-36.5	-38.2	16.2	0.00e+00	0	53	0	261095424	44	4398
2026-01-06 11:36:25.34	147.09	11.37	-36.5	-38.2	16.2	0.00e+00	0	53	0	267386880	44	4410
2026-01-06 11:36:26.36	147.06	11.46	-36.5	-38.2	16.2	0.00e+00	0	53	0	272629760	44	4430
2026-01-06 11:36:27.37	147.03	11.56	-36.4	-38.1	16.3	0.00e+00	0	53	0	277872640	44	4361
2026-01-06 11:36:28.38	147.00	11.65	-36.4	-38.1	16.4	0.00e+00	0	53	0	284164096	44	4347
2026-01-06 11:36:29.39	146.97	11.74	-36.3	-38.0	16.3	0.00e+00	0	53	0	289406976	44	4334
2026-01-06 11:36:30.40	146.94	11.84	-36.3	-38.0	16.5	0.00e+00	0	53	0	295698432	44	4301
2026-01-06 11:36:31.41	146.91	11.93	-36.4	-38.0	16.4	0.00e+00	0	53	0	300941312	44	4331
2026-01-06 11:36:32.42	146.88	12.03	-36.2	-37.9	16.6	0.00e+00	0	53	0	306184192	44	4245
2026-01-06 11:36:33.43	146.85	12.12	-36.3	-37.9	16.6	0.00e+00	0	53	0	312475648	44	4263
2026-01-06 11:36:34.44	146.82	12.22	-36.3	-37.9	16.6	0.00e+00	0	53	0	317718528	44	4260
2026-01-06 11:36:35.45	146.79	12.31	-36.2	-37.8	16.6	0.00e+00	0	53	0	324009984	44	4233
2026-01-06 11:36:36.46	146.76	12.41	-36.1	-37.8	16.6	0.00e+00	0	53	0	329252864	44	4202
2026-01-06 11:36:37.47	146.73	12.50	-36.2	-37.8	16.6	0.00e+00	0	53	0	334495744	44	4233
2026-01-06 11:36:38.48	146.70	12.60	-36.2	-37.8	16.6	0.00e+00	0	54	0	340787200	44	4229
2026-01-06 11:36:39.49	146.67	12.70	-36.1	-37.7	16.8	0.00e+00	0	54	0	346030080	44	4151
2026-01-06 11:36:40.51	146.63	12.80	-36.1	-37.7	16.8	0.00e+00	0	53	0	352321536	44	4176
2026-01-06 11:36:41.52	146.60	12.89	-36.2	-37.8	16.7	0.00e+00	0	53	0	357564416	44	4204
2026-01-06 11:36:42.53	146.57	12.99	-36.1	-37.7	16.8	0.00e+00	0	53	0	363855872	44	4185
2026-01-06 11:36:43.54	146.54	13.09	-36.1	-37.6	16.9	0.00e+00	0	54	0	369098752	44	4136
2026-01-06 11:36:44.55	146.51	13.19	-36.0	-37.6	16.9	0.00e+00	0	53	0	375390208	44	4132
2026-01-06 11:36:45.56	146.47	13.29	-35.8	-37.4	17.0	0.00e+00	0	53	0	380633088	43	4244
2026-01-06 11:36:46.57	146.44	13.39	-35.9	-37.4	16.9	0.00e+00	0	54	0	385875968	43	4287
2026-01-06 11:36:47.58	146.41	13.49	-35.9	-37.4	16.9	0.00e+00	0	54	0	392167424	43	4274
2026-01-06 11:36:48.58	146.37	13.59	-35.9	-37.4	16.9	0.00e+00	0	53	0	397410304	43	4282
2026-01-06 11:36:49.59	146.34	13.69	-35.8	-37.4	17.0	0.00e+00	0	53	0	403701760	43	4245
2026-01-06 11:36:50.60	146.31	13.79	-35.9	-37.5	16.9	0.00e+00	0	54	0	408944640	43	4294
2026-01-06 11:36:51.61	146.27	13.89	-35.7	-37.3	17.1	0.00e+00	0	54	0	414187520	43	4198
2026-01-06 11:36:52.62	146.24	14.00	-35.6	-37.2	17.2	0.00e+00	0	54	0	420478976	43	4160
2026-01-06 11:36:53.63	146.20	14.10	-35.7	-37.2	17.2	0.00e+00	0	54	0	425721856	43	4193
2026-01-06 11:36:54.65	146.17	14.20	-35.6	-37.2	17.2	0.00e+00	0	54	0	432013312	43	4151
2026-01-06 11:36:55.66	146.13	14.31	-35.6	-37.1	17.3	0.00e+00	0	54	0	437256192	43	4143
2026-01-06 11:36:56.67	146.10	14.41	-35.5	-37.0	17.3	0.00e+00	0	54	0	442499072	43	4086
2026-01-06 11:36:57.68	146.06	14.52	-35.5	-37.0	17.4	0.00e+00	0	54	0	448790528	43	4092
2026-01-06 11:36:58.69	146.02	14.62	-35.4	-36.9	17.5	0.00e+00	0	54	0	454033408	42	4276
2026-01-06 11:36:59.70	145.99	14.73	-35.4	-36.9	17.5	0.00e+00	0	54	0	460324864	42	4252
2026-01-06 11:37:00.71	145.95	14.83	-35.4	-36.9	17.5	0.00e+00	0	54	0	465567744	42	4286
2026-01-06 11:37:01.72	145.91	14.94	-35.3	-36.8	17.6	0.00e+00	0	54	0	471859200	42	4226
2026-01-06 11:37:02.73	145.88	15.04	-35.3	-36.7	17.7	0.00e+00	0	54	0	477102080	42	4186
2026-01-06 11:37:03.74	145.84	15.15	-35.2	-36.7	17.7	0.00e+00	0	54	0	483393536	42	4153
2026-01-06 11:37:04.75	145.80	15.26	-35.2	-36.6	17.8	0.00e+00	0	54	0	488636416	42	4138
2026-01-06 11:37:05.76	145.76	15.37	-35.2	-36.6	17.8	0.00e+00	0	54	0	493879296	42	4144
2026-01-06 11:37:06.77	145.72	15.48	-35.1	-36.6	17.9	0.00e+00	0	54	0	500170752	42	4102
2026-01-06 11:37:07.78	145.69	15.58	-35.1	-36.6	17.9	0.00e+00	0	54	0	505413632	42	4109
2026-01-06 11:37:08.79	145.65	15.69	-35.0	-36.4	18.0	0.00e+00	0	54	0	511705088	42	4039
2026-01-06 11:37:09.80	145.61	15.80	-34.9	-36.3	18.2	0.00e+00	0	54	0	516947968	41	4204
2026-01-06 11:37:10.81	145.57	15.91	-34.9	-36.3	18.1	0.00e+00	0	54	0	522190848	41	4230
2026-01-06 11:37:11.82	145.53	16.03	-34.9	-36.3	18.2	0.00e+00	0	54	0	528482304	41	4198
2026-01-06 11:37:12.83	145.49	16.14	-34.8	-36.2	18.3	0.00e+00	0	54	0	533725184	41	4146
2026-01-06 11:37:13.84	145.45	16.25	-34.8	-36.2	18.3	0.00e+00	0	54	0	540016640	41	4152
2026-01-06 11:37:14.85	145.41	16.36	-34.7	-36.1	18.3	0.00e+00	0	54	0	545259520	41	4130
2026-01-06 11:37:15.86	145.36	16.47	-34.8	-36.2	18.3	0.00e+00	0	54	0	550502400	41	4152
2026-01-06 11:37:16.87	145.32	16.59	-34.7	-36.1	18.3	0.00e+00	0	54	0	556793856	41	4131
2026-01-06 11:37:17.88	145.28	16.70	-34.7	-36.1	18.3	0.00e+00	0	54	0	562036736	41	4123
2026-01-06 11:37:18.89	145.24	16.82	-34.7	-36.1	18.3	0.00e+00	0	54	0	568328192	41	4135
2026-01-06 11:37:19.90	145.20	16.93	-34.7	-36.1	18.3	0.00e+00	0	54	0	573571072	41	4112
2026-01-06 11:37:20.91	145.15	17.05	-34.7	-36.1	18.3	0.00e+00	0	54	0	579862528	41	4117
2026-01-06 11:37:21.92	145.11	17.16	-34.7	-36.1	18.4	0.00e+00	0	54	0	585105408	41	4110
2026-01-06 11:37:22.93	145.07	17.28	-34.6	-36.0	18.5	0.00e+00	0	54	0	591396864	41	4055
2026-01-06 11:37:23.95	145.02	17.40	-34.6	-36.0	18.5	0.00e+00	0	54	0	596639744	41	4055
2026-01-06 11:37:24.96	144.98	17.52	-34.5	-35.9	18.6	0.00e+00	0	54	0	601882624	41	4017
2026-01-06 11:37:25.97	144.93	17.63	-34.6	-36.0	18.5	0.00e+00	0	54	0	608174080	41	4075
2026-01-06 11:37:26.98	144.89	17.75	-34.6	-36.0	18.4	0.00e+00	0	54	0	613416960	41	4079
2026-01-06 11:37:27.99	144.84	17.87	-34.6	-36.0	18.5	0.00e+00	0	54	0	619708416	41	4072
2026-01-06 11:37:29.00	144.80	17.99	-34.6	-36.0	18.4	0.00e+00	0	54	0	624951296	41	4080
2026-01-06 11:37:30.01	144.75	18.11	-34.6	-36.0	18.4	0.00e+00	0	54	0	630194176	41	4085
2026-01-06 11:37:31.02	144.70	18.23	-34.6	-36.0	18.5	0.00e+00	0	54	0	636485632	41	4059
2026-01-06 11:37:32.03	144.66	18.36	-34.6	-36.0	18.5	0.00e+00	0	54	0	641728512	41	4063
2026-01-06 11:37:33.04	144.61	18.48	-34.6	-36.0	18.5	0.00e+00	0	54	0	648019968	41	4069
2026-01-06 11:37:34.05	144.56	18.60	-34.7	-36.0	18.4	0.00e+00	0	54	0	653262848	41	4097
2026-01-06 11:37:35.06	144.51	18.72	-34.6	-36.0	18.5	0.00e+00	0	54	0	658505728	41	4053
2026-01-06 11:37:36.06	144.46	18.85	-34.6	-36.0	18.5	0.00e+00	0	55	0	664797184	41	4060
2026-01-06 11:37:37.07	144.42	18.97	-34.6	-36.0	18.5	0.00e+00	0	54	0	670040064	41	4067
2026-01-06 11:37:38.09	144.37	19.10	-34.6	-36.0	18.5	0.00e+00	0	55	0	676331520	41	4083
2026-01-06 11:37:39.10	144.32	19.22	-34.6	-36.0	18.5	0.00e+00	0	54	0	681574400	41	4063
2026-01-06 11:37:40.11	144.27	19.35	-34.6	-36.0	18.5	0.00e+00	0	54	0	687865856	41	4075
2026-01-06 11:37:41.12	144.21	19.48	-34.6	-36.0	18.5	0.00e+00	0	54	0	693108736	41	4080
2026-01-06 11:37:42.13	144.16	19.61	-34.6	-36.0	18.5	0.00e+00	0	54	0	698351616	41	4082
2026-01-06 11:37:43.14	144.11	19.73	-34.6	-36.0	18.5	0.00e+00	0	55	0	704643072	41	4082
2026-01-06 11:37:44.15	144.06	19.86	-34.6	-36.0	18.5	0.00e+00	0	54	0	709885952	41	4059
2026-01-06 11:37:45.16	144.01	19.99	-34.6	-36.0	18.5	0.00e+00	0	55	0	716177408	41	4077
2026-01-06 11:37:46.17	143.95	20.12	-34.6	-36.0	18.5	0.00e+00	0	55	0	721420288	41	4053
2026-01-06 11:37:47.18	143.90	20.25	-34.6	-36.0	18.5	0.00e+00	0	54	0	726663168	41	4096
2026-01-06 11:37:48.19	143.85	20.38	-34.6	-36.0	18.5	0.00e+00	0	54	0	732954624	41	4059
2026-01-06 11:37:49.20	143.79	20.52	-34.6	-36.0	18.5	0.00e+00	0	55	0	738197504	41	4086
2026-01-06 11:37:50.21	143.74	20.65	-34.6	-35.9	18.6	0.00e+00	0	55	0	744488960	41	4043
2026-01-06 11:37:51.22	143.68	20.78	-34.5	-35.9	18.6	0.00e+00	0	54	0	749731840	41	4013
2026-01-06 11:37:52.23	143.62	20.92	-34.5	-35.8	18.6	0.00e+00	0	55	0	754974720	40	4237
2026-01-06 11:37:53.24	143.57	21.05	-34.4	-35.7	18.7	0.00e+00	0	55	0	761266176	40	4190
2026-01-06 11:37:54.25	143.51	21.19	-34.3	-35.7	18.8	0.00e+00	0	55	0	766509056	40	4158
2026-01-06 11:37:55.26	143.45	21.33	-34.2	-35.6	18.9	0.00e+00	0	55	0	772800512	40	4114
2026-01-06 11:37:56.27	143.40	21.46	-34.2	-35.5	19.0	0.00e+00	0	54	0	778043392	40	4075
2026-01-06 11:37:57.28	143.34	21.60	-34.1	-35.5	19.0	0.00e+00	0	55	0	784334848	40	4052
2026-01-06 11:37:58.29	143.28	21.74	-34.0	-35.3	19.1	0.00e+00	0	55	0	789577728	40	3998
2026-01-06 11:37:59.30	143.22	21.88	-34.0	-35.3	19.2	0.00e+00	0	55	0	795869184	39	4241
2026-01-06 11:38:00.31	143.16	22.02	-34.0	-35.3	19.3	0.00e+00	0	55	0	801112064	39	4225
2026-01-06 11:38:01.32	143.10	22.16	-34.0	-35.3	19.3	0.00e+00	0	55	0	806354944	39	4195
2026-01-06 11:38:02.33	143.03	22.30	-33.9	-35.2	19.4	0.00e+00	0	55	0	812646400	39	4165
2026-01-06 11:38:03.34	142.97	22.44	-33.9	-35.2	19.4	0.00e+00	0	54	0	817889280	39	4146
2026-01-06 11:38:04.35	142.91	22.59	-33.8	-35.1	19.4	0.00e+00	0	55	0	824180736	39	4132
2026-01-06 11:38:05.36	142.85	22.73	-33.8	-35.1	19.5	0.00e+00	0	55	0	829423616	39	4122
2026-01-06 11:38:06.37	142.78	22.87	-33.8	-35.1	19.5	0.00e+00	0	55	0	834666496	39	4106
2026-01-06 11:38:07.38	142.72	23.02	-33.8	-35.1	19.5	0.00e+00	0	55	0	840957952	39	4116
2026-01-06 11:38:08.39	142.65	23.17	-33.8	-35.0	19.5	0.00e+00	0	55	0	846200832	39	4088
2026-01-06 11:38:09.41	142.59	23.31	-33.8	-35.0	19.6	0.00e+00	0	54	0	852492288	39	4092
2026-01-06 11:38:10.42	142.52	23.46	-33.8	-35.1	19.5	0.00e+00	0	55	0	857735168	39	4107
2026-01-06 11:38:11.43	142.45	23.61	-33.8	-35.1	19.5	0.00e+00	0	55	0	862978048	39	4113
2026-01-06 11:38:12.44	142.38	23.76	-33.8	-35.1	19.6	0.00e+00	0	55	0	869269504	39	4111
2026-01-06 11:38:13.45	142.32	23.91	-33.8	-35.1	19.6	0.00e+00	0	55	0	874512384	39	4104
2026-01-06 11:38:14.46	142.25	24.06	-33.8	-35.0	19.6	0.00e+00	0	55	0	880803840	39	4092
2026-01-06 11:38:15.47	142.18	24.21	-33.8	-35.1	19.6	0.00e+00	0	55	0	886046720	39	4101
2026-01-06 11:38:16.48	142.11	24.36	-33.8	-35.1	19.5	0.00e+00	0	55	0	892338176	39	4107
2026-01-06 11:38:17.49	142.04	24.52	-33.7	-35.0	19.6	0.00e+00	0	55	0	897581056	39	4061
2026-01-06 11:38:18.50	141.96	24.67	-33.7	-34.9	19.7	0.00e+00	0	55	0	903872512	39	4049
2026-01-06 11:38:19.51	141.89	24.83	-33.7	-34.9	19.7	0.00e+00	0	55	0	909115392	39	4030
2026-01-06 11:38:20.52	141.82	24.98	-33.6	-34.8	19.8	0.00e+00	0	55	0	914358272	39	3982
2026-01-06 11:38:21.53	141.74	25.14	-33.5	-34.7	19.9	0.00e+00	0	55	0	920649728	39	3958
2026-01-06 11:38:22.54	141.67	25.30	-33.4	-34.6	20.0	0.00e+00	0	55	0	925892608	38	4124
2026-01-06 11:38:23.55	141.59	25.46	-33.4	-34.6	20.1	0.00e+00	0	55	0	932184064	38	4113
2026-01-06 11:38:24.56	141.52	25.62	-33.3	-34.5	20.1	0.00e+00	0	55	0	937426944	38	4067
2026-01-06 11:38:25.57	141.44	25.78	-33.3	-34.5	20.1	0.00e+00	0	55	0	942669824	38	4092
2026-01-06 11:38:26.58	141.36	25.94	-33.4	-34.6	20.0	0.00e+00	0	55	0	948961280	38	4131
2026-01-06 11:38:27.59	141.28	26.10	-33.3	-34.6	20.1	0.00e+00	0	55	0	954204160	38	4110
2026-01-06 11:38:28.59	141.20	26.26	-33.4	-34.6	20.1	0.00e+00	0	55	0	960495616	38	4108
2026-01-06 11:38:29.60	141.12	26.43	-33.5	-34.7	20.0	0.00e+00	0	55	0	965738496	38	4169
2026-01-06 11:38:30.62	141.04	26.59	-33.5	-34.7	19.9	0.00e+00	0	55	0	970981376	38	4172
2026-01-06 11:38:31.63	140.96	26.76	-33.6	-34.8	19.8	0.00e+00	0	55	0	977272832	38	4234
2026-01-06 11:38:32.64	140.87	26.93	-33.6	-34.9	19.8	0.00e+00	0	55	0	982515712	38	4243
2026-01-06 11:38:33.65	140.79	27.09	-33.6	-34.9	19.8	0.00e+00	0	55	0	988807168	38	4269
2026-01-06 11:38:34.66	140.70	27.26	-33.6	-34.9	19.8	0.00e+00	0	55	0	994050048	38	4250
2026-01-06 11:38:35.67	140.62	27.43	-33.5	-34.8	19.9	0.00e+00	0	55	0	1000341504	38	4197
2026-01-06 11:38:36.68	140.53	27.60	-33.5	-34.7	19.9	0.00e+00	0	55	0	1005584384	38	4171
2026-01-06 11:38:37.69	140.44	27.78	-33.4	-34.6	20.1	0.00e+00	0	55	0	1011875840	38	4115
2026-01-06 11:38:38.70	140.35	27.95	-33.3	-34.5	20.1	0.00e+00	0	55	0	1017118720	38	4068
2026-01-06 11:38:39.71	140.26	28.12	-33.2	-34.4	20.2	0.00e+00	0	55	0	1022361600	38	4044
2026-01-06 11:38:40.72	140.17	28.30	-33.3	-34.5	20.2	0.00e+00	0	55	0	1028653056	38	4074
2026-01-06 11:38:41.73	140.08	28.47	-33.3	-34.5	20.1	0.00e+00	0	55	0	1033895936	38	4074
2026-01-06 11:38:42.74	139.99	28.65	-33.3	-34.5	20.1	0.00e+00	0	55	0	1040187392	38	4074
2026-01-06 11:38:43.75	139.89	28.83	-33.3	-34.5	20.2	0.00e+00	0	55	0	1045430272	38	4074
2026-01-06 11:38:44.76	139.80	29.01	-33.3	-34.6	20.1	0.00e+00	0	55	0	1050673152	38	4100
2026-01-06 11:38:45.77	139.70	29.19	-33.3	-34.6	20.1	0.00e+00	0	55	0	1056964608	38	4105
2026-01-06 11:38:46.78	139.60	29.37	-33.3	-34.6	20.1	0.00e+00	0	55	0	1062207488	38	4107
2026-01-06 11:38:47.79	139.51	29.55	-33.4	-34.6	20.0	0.00e+00	0	55	0	1068498944	38	4138
2026-01-06 11:38:48.80	139.41	29.73	-33.4	-34.6	20.1	0.00e+00	0	55	0	1073741824	38	4130
2026-01-06 11:38:49.81	139.30	29.92	-33.3	-34.5	20.2	0.00e+00	0	55	0	1078984704	38	4072
2026-01-06 11:38:50.82	139.20	30.10	-33.3	-34.5	20.2	0.00e+00	0	55	0	1085276160	38	4074
2026-01-06 11:38:51.84	139.10	30.29	-33.2	-34.5	20.2	0.00e+00	0	55	0	1090519040	38	4053
2026-01-06 11:38:52.85	138.99	30.48	-33.2	-34.4	20.3	0.00e+00	0	55	0	1096810496	38	4017
2026-01-06 11:38:53.86	138.89	30.67	-33.1	-34.3	20.3	0.00e+00	0	55	0	1102053376	38	3986
2026-01-06 11:38:54.87	138.78	30.86	-33.0	-34.2	20.4	0.00e+00	0	55	0	1108344832	38	3957
2026-01-06 11:38:55.88	138.67	31.05	-33.0	-34.2	20.5	0.00e+00	0	55	0	1113587712	38	3931
2026-01-06 11:38:56.89	138.56	31.24	-32.9	-34.1	20.5	0.00e+00	0	55	0	1119879168	37	4139
2026-01-06 11:38:57.90	138.45	31.43	-32.9	-34.1	20.5	0.00e+00	0	55	0	1125122048	37	4132
2026-01-06 11:38:58.91	138.34	31.63	-33.0	-34.2	20.4	0.00e+00	0	55	0	1130364928	37	4175
2026-01-06 11:38:59.92	138.22	31.83	-33.1	-34.3	20.3	0.00e+00	0	55	0	1136656384	37	4222
2026-01-06 11:39:00.93	138.11	32.02	-33.1	-34.3	20.3	0.00e+00	0	55	0	1141899264	37	4232
2026-01-06 11:39:01.94	137.99	32.22	-33.1	-34.3	20.3	0.00e+00	0	55	0	1148190720	37	4238
2026-01-06 11:39:02.95	137.87	32.42	-33.0	-34.2	20.4	0.00e+00	0	55	0	1153433600	37	4188
2026-01-06 11:39:03.96	137.76	32.62	-33.0	-34.3	20.4	0.00e+00	0	55	0	1158676480	37	4194
2026-01-06 11:39:04.97	137.63	32.82	-33.0	-34.2	20.4	0.00e+00	0	55	0	1164967936	37	4152
2026-01-06 11:39:05.98	137.51	33.02	-32.9	-34.1	20.5	0.00e+00	0	55	0	1170210816	37	4122
2026-01-06 11:39:06.99	137.39	33.23	-32.9	-34.1	20.5	0.00e+00	0	55	0	1176502272	37	4143
2026-01-06 11:39:08.00	137.26	33.43	-33.0	-34.2	20.5	0.00e+00	0	55	0	1181745152	37	4149
2026-01-06 11:39:09.01	137.13	33.64	-33.1	-34.3	20.4	0.00e+00	0	55	0	1186988032	37	4202
2026-01-06 11:39:10.02	137.00	33.85	-33.1	-34.3	20.3	0.00e+00	0	55	0	1193279488	37	4223
2026-01-06 11:39:11.03	136.87	34.06	-33.1	-34.3	20.3	0.00e+00	0	55	0	1198522368	37	4206
2026-01-06 11:39:12.04	136.74	34.27	-33.1	-34.3	20.3	0.00e+00	0	55	0	1204813824	37	4210
2026-01-06 11:39:13.05	136.61	34.48	-32.9	-34.1	20.5	0.00e+00	0	55	0	1210056704	37	4142
2026-01-06 11:39:14.06	136.47	34.69	-32.9	-34.1	20.5	0.00e+00	0	55	0	1216348160	37	4132
2026-01-06 11:39:15.07	136.33	34.90	-32.9	-34.1	20.5	0.00e+00	0	55	0	1221591040	37	4132
2026-01-06 11:39:16.08	136.19	35.12	-32.9	-34.0	20.6	0.00e+00	0	55	0	1226833920	37	4097
2026-01-06 11:39:17.09	136.05	35.34	-32.9	-34.1	20.6	0.00e+00	0	55	0	1233125376	37	4109
2026-01-06 11:39:18.10	135.91	35.55	-32.9	-34.0	20.6	0.00e+00	0	55	0	1238368256	37	4092
2026-01-06 11:39:19.11	135.76	35.77	-32.8	-34.0	20.7	0.00e+00	0	55	0	1244659712	37	4065
2026-01-06 11:39:20.12	135.61	35.99	-32.8	-34.0	20.7	0.00e+00	0	55	0	1249902592	37	4055
2026-01-06 11:39:21.13	135.46	36.21	-32.9	-34.1	20.6	0.00e+00	0	55	0	1255145472	37	4108
2026-01-06 11:39:22.14	135.31	36.44	-33.0	-34.2	20.5	0.00e+00	0	55	0	1261436928	37	4177
2026-01-06 11:39:23.15	135.16	36.66	-33.1	-34.3	20.4	0.00e+00	0	55	0	1266679808	37	4232
2026-01-06 11:39:24.16	135.00	36.89	-33.1	-34.3	20.4	0.00e+00	0	55	0	1272971264	37	4226
2026-01-06 11:39:25.17	134.84	37.11	-33.1	-34.3	20.4	0.00e+00	0	55	0	1278214144	37	4235
2026-01-06 11:39:26.19	134.68	37.34	-33.1	-34.3	20.4	0.00e+00	0	55	0	1284505600	37	4199
2026-01-06 11:39:27.19	134.52	37.57	-33.0	-34.2	20.6	0.00e+00	0	55	0	1289748480	37	4154
2026-01-06 11:39:28.20	134.35	37.80	-33.0	-34.1	20.6	0.00e+00	0	55	0	1294991360	37	4141
2026-01-06 11:39:29.21	134.19	38.03	-33.0	-34.2	20.6	0.00e+00	0	55	0	1301282816	37	4175
2026-01-06 11:39:30.22	134.02	38.27	-33.1	-34.3	20.5	0.00e+00	0	55	0	1306525696	37	4201
2026-01-06 11:39:31.23	133.84	38.50	-33.2	-34.4	20.4	0.00e+00	0	55	0	1312817152	37	4264
2026-01-06 11:39:32.24	133.67	38.74	-33.2	-34.4	20.4	0.00e+00	0	55	0	1318060032	37	4281
2026-01-06 11:39:33.25	133.49	38.98	-33.1	-34.2	20.5	0.00e+00	0	55	0	1324351488	37	4191
2026-01-06 11:39:34.26	133.31	39.21	-33.0	-34.2	20.6	0.00e+00	0	56	0	1329594368	37	4168
2026-01-06 11:39:35.27	133.13	39.45	-33.1	-34.2	20.5	0.00e+00	0	55	0	1334837248	37	4193
2026-01-06 11:39:36.28	132.94	39.70	-33.1	-34.3	20.5	0.00e+00	0	55	0	1341128704	37	4236
2026-01-06 11:39:37.29	132.75	39.94	-33.2	-34.4	20.4	0.00e+00	0	55	0	1346371584	37	4272
2026-01-06 11:39:38.30	132.56	40.18	-33.2	-34.5	20.4	0.00e+00	0	56	0	1352663040	37	4297
2026-01-06 11:39:39.31	132.37	40.43	-33.2	-34.4	20.4	0.00e+00	0	56	0	1357905920	37	4287
2026-01-06 11:39:40.32	132.17	40.67	-33.2	-34.4	20.4	0.00e+00	0	55	0	1363148800	37	4246
2026-01-06 11:39:41.33	131.97	40.92	-33.2	-34.4	20.4	0.00e+00	0	55	0	1369440256	37	4257
2026-01-06 11:39:42.34	131.77	41.17	-33.3	-34.5	20.3	0.00e+00	0	55	0	1374683136	37	4310
2026-01-06 11:39:43.35	131.56	41.42	-33.3	-34.5	20.2	0.00e+00	0	56	0	1380974592	37	4340
2026-01-06 11:39:44.36	131.35	41.67	-33.3	-34.6	20.2	0.00e+00	0	55	0	1386217472	37	4351
2026-01-06 11:39:45.37	131.14	41.93	-33.3	-34.6	20.2	0.00e+00	0	55	0	1391460352	37	4347
2026-01-06 11:39:46.38	130.92	42.18	-33.3	-34.5	20.3	0.00e+00	0	55	0	1397751808	37	4317
2026-01-06 11:39:47.39	130.70	42.44	-33.3	-34.6	20.2	0.00e+00	0	55	0	1402994688	37	4351
2026-01-06 11:39:48.40	130.47	42.69	-33.5	-34.7	20.1	0.00e+00	0	55	0	1409286144	37	4427
2026-01-06 11:39:49.41	130.25	42.95	-33.6	-34.9	20.0	0.00e+00	0	56	0	1414529024	37	4516
2026-01-06 11:39:50.42	130.01	43.21	-33.6	-34.9	20.0	0.00e+00	0	56	0	1420820480	37	4497
2026-01-06 11:39:51.43	129.78	43.47	-33.6	-34.8	20.0	0.00e+00	0	56	0	1426063360	37	4484
2026-01-06 11:39:52.44	129.54	43.73	-33.6	-34.8	20.0	0.00e+00	0	56	0	1432354816	37	4490
2026-01-06 11:39:53.45	129.30	44.00	-33.6	-34.8	20.1	0.00e+00	0	56	0	1437597696	37	4457
2026-01-06 11:39:54.46	129.05	44.26	-33.5	-34.7	20.1	0.00e+00	0	55	0	1442840576	37	4432
2026-01-06 11:39:55.47	128.80	44.53	-33.4	-34.6	20.3	0.00e+00	0	56	0	1449132032	37	4347
2026-01-06 11:39:56.48	128.54	44.79	-33.3	-34.5	20.4	0.00e+00	0	56	0	1454374912	37	4332
2026-01-06 11:39:57.49	128.28	45.06	-33.4	-34.7	20.3	0.00e+00	0	56	0	1460666368	37	4400
2026-01-06 11:39:58.50	128.02	45.33	-33.4	-34.6	20.3	0.00e+00	0	55	0	1465909248	37	4390
2026-01-06 11:39:59.51	127.75	45.60	-33.5	-34.7	20.2	0.00e+00	0	55	0	1471152128	37	4419
2026-01-06 11:40:00.52	127.47	45.87	-33.4	-34.6	20.3	0.00e+00	0	56	0	1477443584	37	4381
2026-01-06 11:40:01.52	127.20	46.14	-33.4	-34.6	20.3	0.00e+00	0	56	0	1482686464	37	4381
2026-01-06 11:40:02.53	126.92	46.41	-33.5	-34.7	20.2	0.00e+00	0	56	0	1488977920	37	4414
2026-01-06 11:40:03.54	126.63	46.69	-33.4	-34.6	20.4	0.00e+00	0	56	0	1494220800	37	4362
2026-01-06 11:40:04.55	126.33	46.96	-33.3	-34.4	20.5	0.00e+00	0	55	0	1499463680	37	4291
2026-01-06 11:40:05.56	126.03	47.24	-33.4	-34.6	20.4	0.00e+00	0	56	0	1505755136	37	4367
2026-01-06 11:40:06.57	125.73	47.52	-33.7	-34.9	20.1	0.00e+00	0	56	0	1510998016	37	4533
2026-01-06 11:40:07.58	125.42	47.79	-33.8	-35.1	19.9	0.00e+00	0	56	0	1517289472	38	4346
2026-01-06 11:40:08.59	125.10	48.07	-33.8	-35.0	20.0	0.00e+00	0	56	0	1522532352	38	4305
2026-01-06 11:40:09.60	124.78	48.35	-33.7	-34.9	20.1	0.00e+00	0	56	0	1528823808	38	4266
2026-01-06 11:40:10.61	124.46	48.63	-33.7	-34.9	20.1	0.00e+00	0	55	0	1534066688	38	4250
2026-01-06 11:40:11.62	124.12	48.91	-33.6	-34.8	20.2	0.00e+00	0	56	0	1539309568	38	4205
2026-01-06 11:40:12.63	123.78	49.20	-33.9	-35.1	19.9	0.00e+00	0	56	0	1545601024	38	4381
2026-01-06 11:40:13.64	123.44	49.48	-34.4	-35.7	19.3	0.00e+00	0	55	0	1550843904	39	4397
2026-01-06 11:40:14.65	123.09	49.76	-34.5	-35.8	19.2	0.00e+00	0	56	0	1557135360	39	4461
2026-01-06 11:40:15.66	122.73	50.05	-34.5	-35.8	19.2	0.00e+00	0	56	0	1562378240	39	4469
2026-01-06 11:40:16.67	122.36	50.33	-34.3	-35.6	19.4	0.00e+00	0	56	0	1567621120	39	4373
2026-01-06 11:40:17.68	121.99	50.62	-34.3	-35.5	19.5	0.00e+00	0	56	0	1573912576	39	4325
2026-01-06 11:40:18.69	121.61	50.90	-34.3	-35.5	19.5	0.00e+00	0	56	0	1579155456	39	4337
2026-01-06 11:40:19.70	121.22	51.19	-34.4	-35.6	19.4	0.00e+00	0	56	0	1585446912	39	4390
2026-01-06 11:40:20.71	120.83	51.47	-34.2	-35.5	19.5	0.00e+00	0	56	0	1590689792	39	4308
2026-01-06 11:40:21.71	120.43	51.76	-33.7	-35.1	17.2	2.83e-03	0	56	0	1595932672	39	4138
2026-01-06 11:40:22.73	120.01	52.05	-33.5	-34.8	17.0	6.47e-03	0	56	0	1602224128	38	4241
2026-01-06 11:40:23.74	119.59	52.33	-33.6	-35.0	16.6	2.08e-02	0	56	0	1607467008	38	4314
2026-01-06 11:40:24.75	119.17	52.62	-33.9	-35.3	16.5	1.91e-02	0	56	0	1613758464	38	4450
2026-01-06 11:40:25.76	118.73	52.91	-34.1	-35.5	16.5	1.43e-02	0	56	0	1619001344	38	4595
2026-01-06 11:40:26.76	118.29	53.19	-34.1	-35.7	16.3	1.60e-02	0	55	0	1625292800	39	4424
2026-01-06 11:40:27.77	117.84	53.48	-34.1	-35.6	16.2	2.17e-02	0	55	0	1630535680	39	4353
2026-01-06 11:40:28.78	117.38	53.76	-33.9	-35.4	16.6	1.40e-02	0	56	0	1636827136	39	4265
2026-01-06 11:40:29.79	116.91	54.05	-33.8	-35.3	16.8	9.67e-03	0	56	0	1642070016	39	4209
2026-01-06 11:40:30.80	116.43	54.33	-33.9	-35.2	19.8	2.83e-03	0	56	0	1647312896	39	4149
2026-01-06 11:40:31.81	115.94	54.62	-33.9	-35.1	19.9	0.00e+00	0	56	0	1653604352	39	4138
2026-01-06 11:40:32.83	115.43	54.90	-34.1	-35.4	19.7	0.00e+00	0	56	0	1658847232	39	4261
2026-01-06 11:40:33.83	114.93	55.19	-34.3	-35.6	19.5	0.00e+00	0	56	0	1665138688	39	4347
2026-01-06 11:40:34.84	114.41	55.47	-34.2	-35.4	19.6	0.00e+00	0	56	0	1670381568	39	4283
2026-01-06 11:40:35.85	113.88	55.75	-34.1	-35.3	19.7	0.00e+00	0	56	0	1675624448	39	4216
2026-01-06 11:40:36.86	113.34	56.03	-34.1	-35.3	19.7	0.00e+00	0	56	0	1681915904	39	4214
2026-01-06 11:40:37.87	112.78	56.31	-34.3	-35.6	19.5	0.00e+00	0	56	0	1687158784	39	4344
2026-01-06 11:40:38.88	112.22	56.59	-34.3	-35.6	19.4	0.00e+00	0	56	0	1693450240	39	4357
2026-01-06 11:40:39.90	111.64	56.87	-34.0	-35.2	19.7	0.00e+00	0	56	0	1698693120	39	4182
2026-01-06 11:40:40.91	111.05	57.14	-34.1	-35.3	19.6	0.00e+00	0	56	0	1703936000	39	4218
2026-01-06 11:40:41.92	110.45	57.42	-34.2	-35.5	19.5	0.00e+00	0	56	0	1710227456	39	4305
2026-01-06 11:40:42.93	109.84	57.69	-34.2	-35.5	19.5	0.00e+00	0	56	0	1715470336	39	4321
2026-01-06 11:40:43.94	109.22	57.96	-34.0	-35.2	19.7	0.00e+00	0	56	0	1721761792	39	4176
2026-01-06 11:40:44.95	108.58	58.23	-33.7	-34.9	20.0	0.00e+00	0	56	0	1727004672	39	4048
2026-01-06 11:40:45.96	107.93	58.50	-33.8	-35.0	19.9	0.00e+00	0	56	0	1733296128	39	4088
2026-01-06 11:40:46.97	107.27	58.76	-34.0	-35.2	19.8	0.00e+00	0	56	0	1738539008	39	4179
2026-01-06 11:40:47.98	106.59	59.02	-34.0	-35.3	19.7	0.00e+00	0	56	0	1743781888	39	4205
2026-01-06 11:40:48.98	105.91	59.28	-33.6	-34.7	20.3	0.00e+00	0	56	0	1750073344	39	3953
2026-01-06 11:40:49.99	105.21	59.53	-33.4	-34.6	20.4	0.00e+00	0	56	0	1755316224	38	4119
2026-01-06 11:40:51.00	104.49	59.78	-33.6	-34.8	20.2	0.00e+00	0	56	0	1761607680	38	4225
2026-01-06 11:40:52.01	103.76	60.03	-33.7	-35.0	20.0	0.00e+00	0	56	0	1766850560	38	4292
2026-01-06 11:40:53.02	103.01	60.28	-33.6	-34.8	20.1	0.00e+00	0	55	0	1772093440	38	4217
2026-01-06 11:40:54.03	102.25	60.52	-33.8	-35.1	19.9	0.00e+00	0	56	0	1778384896	38	4345
2026-01-06 11:40:55.04	101.48	60.76	-33.8	-35.0	19.9	0.00e+00	0	56	0	1783627776	38	4304
2026-01-06 11:40:56.05	100.69	61.00	-33.7	-34.9	20.0	0.00e+00	0	56	0	1789919232	38	4288
2026-01-06 11:40:57.06	99.88	61.23	-33.8	-35.0	19.9	0.00e+00	0	56	0	1795162112	38	4306
2026-01-06 11:40:58.07	99.07	61.46	-33.4	-34.6	20.2	0.00e+00	0	56	0	1800404992	38	4137
2026-01-06 11:40:59.08	98.23	61.68	-33.4	-34.6	20.3	0.00e+00	0	56	0	1806696448	38	4107
2026-01-06 11:41:00.09	97.38	61.90	-33.6	-34.9	20.1	0.00e+00	0	56	0	1811939328	38	4257
2026-01-06 11:41:01.10	96.52	62.11	-33.5	-34.8	20.1	0.00e+00	0	56	0	1818230784	38	4198
2026-01-06 11:41:02.11	95.64	62.32	-33.3	-34.4	20.5	0.00e+00	0	56	0	1823473664	38	4039
2026-01-06 11:41:03.12	94.75	62.52	-33.5	-34.7	20.3	0.00e+00	0	56	0	1829765120	38	4179
2026-01-06 11:41:04.13	93.84	62.72	-33.5	-34.7	20.2	0.00e+00	0	56	0	1835008000	38	4193
2026-01-06 11:41:05.14	92.91	62.91	-33.3	-34.5	20.5	0.00e+00	0	56	0	1841299456	38	4067
2026-01-06 11:41:06.15	91.97	63.10	-33.2	-34.4	20.5	0.00e+00	0	56	0	1846542336	38	4032
2026-01-06 11:41:07.16	91.02	63.28	-33.0	-34.2	20.8	0.00e+00	0	56	0	1851785216	38	3923
2026-01-06 11:41:08.17	90.05	63.45	-32.8	-33.9	21.0	0.00e+00	0	56	0	1858076672	37	4051
2026-01-06 11:41:09.18	89.07	63.62	-32.8	-33.9	21.0	0.00e+00	0	56	0	1863319552	37	4018
2026-01-06 11:41:10.19	88.08	63.78	-32.6	-33.8	21.1	0.00e+00	0	56	0	1869611008	37	3973
2026-01-06 11:41:11.21	87.06	63.93	-32.7	-33.8	21.0	0.00e+00	0	56	0	1874853888	37	3992
2026-01-06 11:41:12.22	86.04	64.08	-32.8	-33.9	20.9	0.00e+00	0	56	0	1880096768	37	4039
2026-01-06 11:41:13.23	85.00	64.22	-32.5	-33.6	21.2	0.00e+00	0	56	0	1886388224	37	3908
2026-01-06 11:41:14.23	83.96	64.35	-32.8	-33.9	21.0	0.00e+00	0	56	0	1891631104	37	4044
2026-01-06 11:41:15.24	82.91	64.47	-32.8	-34.0	20.9	0.00e+00	0	56	0	1897922560	37	4069
2026-01-06 11:41:16.25	81.84	64.59	-32.6	-33.7	21.1	0.00e+00	0	56	0	1903165440	37	3947
2026-01-06 11:41:17.26	80.75	64.70	-32.4	-33.5	21.3	0.00e+00	0	56	0	1908408320	36	4074
2026-01-06 11:41:18.27	79.66	64.80	-32.5	-33.7	21.2	0.00e+00	0	56	0	1914699776	36	4155
2026-01-06 11:41:19.28	78.56	64.89	-33.0	-34.2	20.7	0.00e+00	0	56	0	1919942656	36	4427
2026-01-06 11:41:20.29	77.45	64.98	-33.0	-34.1	20.7	0.00e+00	0	56	0	1926234112	36	4391
2026-01-06 11:41:21.30	76.34	65.05	-32.3	-33.4	21.4	0.00e+00	0	56	0	1931476992	36	4033
2026-01-06 11:41:22.31	75.21	65.12	-32.2	-33.3	21.6	0.00e+00	0	56	0	1937768448	36	3967
2026-01-06 11:41:23.32	74.08	65.18	-32.5	-33.6	21.2	0.00e+00	0	56	0	1943011328	36	4116
2026-01-06 11:41:24.33	72.95	65.23	-32.5	-33.7	21.2	0.00e+00	0	56	0	1949302784	36	4146
2026-01-06 11:41:25.34	71.81	65.27	-32.6	-33.7	21.1	0.00e+00	0	56	0	1954545664	36	4174
2026-01-06 11:41:26.35	70.66	65.30	-32.5	-33.6	21.3	0.00e+00	0	56	0	1959788544	36	4107
2026-01-06 11:41:27.37	69.51	65.33	-32.1	-33.2	21.6	0.00e+00	0	56	0	1966080000	36	3930
2026-01-06 11:41:28.38	68.36	65.34	-32.2	-33.3	21.4	0.00e+00	0	56	0	1971322880	36	3979
2026-01-06 11:41:29.39	67.21	65.35	-32.2	-33.3	21.4	0.00e+00	0	56	0	1977614336	36	4004
2026-01-06 11:41:30.40	66.06	65.34	-32.1	-33.2	21.6	0.00e+00	0	56	0	1982857216	36	3914
2026-01-06 11:41:31.41	64.91	65.33	-32.2	-33.3	21.5	0.00e+00	0	56	0	1988100096	36	3984
2026-01-06 11:41:32.42	63.76	65.31	-32.2	-33.3	21.4	0.00e+00	0	56	0	1994391552	36	3993
2026-01-06 11:41:33.43	62.62	65.28	-32.1	-33.2	21.6	0.00e+00	0	56	0	1999634432	36	3926
2026-01-06 11:41:34.44	61.47	65.24	-32.2	-33.3	21.4	0.00e+00	0	56	0	2005925888	36	3983
2026-01-06 11:41:35.45	60.34	65.19	-32.4	-33.5	21.3	0.00e+00	0	56	0	2011168768	36	4071
2026-01-06 11:41:36.46	59.21	65.13	-32.4	-33.6	21.3	0.00e+00	0	56	0	2016411648	36	4108
2026-01-06 11:41:37.47	58.08	65.07	-32.3	-33.4	21.5	0.00e+00	0	56	0	2022703104	36	4031
2026-01-06 11:41:38.48	56.96	64.99	-32.3	-33.4	21.5	0.00e+00	0	56	0	2027945984	36	4014
2026-01-06 11:41:39.49	55.85	64.91	-32.1	-33.2	21.6	0.00e+00	0	56	0	2034237440	36	3956
2026-01-06 11:41:40.50	54.75	64.82	-32.3	-33.5	21.3	0.00e+00	0	56	0	2039480320	36	4060
2026-01-06 11:41:41.51	53.66	64.72	-32.5	-33.7	21.1	0.00e+00	0	56	0	2045771776	36	4158
2026-01-06 11:41:42.52	52.58	64.61	-32.5	-33.7	21.2	0.00e+00	0	56	0	2051014656	36	4161
2026-01-06 11:41:43.53	51.51	64.50	-32.5	-33.6	21.2	0.00e+00	0	56	0	2057306112	36	4124
2026-01-06 11:41:44.55	50.44	64.37	-32.8	-33.9	20.9	0.00e+00	0	56	0	2062548992	36	4276
2026-01-06 11:41:45.56	49.39	64.24	-32.9	-34.1	20.8	0.00e+00	0	56	0	2067791872	36	4343
2026-01-06 11:41:46.57	48.35	64.11	-32.7	-33.9	20.9	0.00e+00	0	56	0	2074083328	36	4265
2026-01-06 11:41:47.58	47.33	63.96	-32.8	-34.0	20.9	0.00e+00	0	56	0	2079326208	36	4319
2026-01-06 11:41:48.59	46.32	63.81	-32.8	-33.9	21.0	0.00e+00	0	56	0	2085617664	36	4276
2026-01-06 11:41:49.60	45.32	63.65	-32.7	-33.8	21.1	0.00e+00	0	56	0	2090860544	36	4226
2026-01-06 11:41:50.61	44.34	63.48	-33.0	-34.2	20.8	0.00e+00	0	56	0	2096103424	36	4397
2026-01-06 11:41:51.62	43.37	63.31	-33.1	-34.3	20.7	0.00e+00	0	56	0	2102394880	36	4452
2026-01-06 11:41:52.63	42.41	63.13	-33.0	-34.2	20.8	0.00e+00	0	56	0	2107637760	36	4396
2026-01-06 11:41:53.64	41.47	62.95	-32.9	-34.1	20.9	0.00e+00	0	56	0	2113929216	36	4342
2026-01-06 11:41:54.65	40.55	62.76	-32.9	-34.1	20.9	0.00e+00	0	56	0	2119172096	36	4346
2026-01-06 11:41:55.66	39.64	62.56	-32.9	-34.0	20.9	0.00e+00	0	56	0	2124414976	36	4326
2026-01-06 11:41:56.67	38.74	62.36	-33.3	-34.5	20.5	0.00e+00	0	56	0	2130706432	37	4296
2026-01-06 11:41:57.68	37.86	62.15	-33.4	-34.6	20.4	0.00e+00	0	56	0	2135949312	37	4364
2026-01-06 11:41:58.69	36.99	61.94	-33.2	-34.4	20.6	0.00e+00	0	56	0	2142240768	37	4255
2026-01-06 11:41:59.70	36.14	61.73	-33.1	-34.2	20.8	0.00e+00	0	56	0	2147483648	37	4178
2026-01-06 11:42:00.71	35.31	61.50	-33.2	-34.3	20.7	0.00e+00	0	56	0	2153775104	37	4231
2026-01-06 11:42:01.72	34.49	61.28	-33.0	-34.2	20.8	0.00e+00	0	56	0	2159017984	37	4160
2026-01-06 11:42:02.73	33.68	61.05	-32.9	-34.0	21.0	0.00e+00	0	56	0	2164260864	37	4070
2026-01-06 11:42:03.74	32.89	60.81	-33.0	-34.2	20.8	0.00e+00	0	56	0	2170552320	37	4151
2026-01-06 11:42:04.75	32.11	60.58	-33.2	-34.4	20.6	0.00e+00	0	56	0	2175795200	37	4248
2026-01-06 11:42:05.77	31.35	60.33	-33.4	-34.6	20.4	0.00e+00	0	56	0	2182086656	37	4351
2026-01-06 11:42:06.78	30.60	60.09	-33.5	-34.7	20.3	0.00e+00	0	56	0	2187329536	37	4413
2026-01-06 11:42:07.79	29.87	59.84	-33.5	-34.7	20.3	0.00e+00	0	56	0	2193620992	37	4400
2026-01-06 11:42:08.80	29.15	59.59	-33.6	-34.8	20.2	0.00e+00	0	56	0	2198863872	37	4459
2026-01-06 11:42:09.81	28.44	59.33	-33.9	-35.1	19.9	0.00e+00	0	56	0	2204106752	38	4374
2026-01-06 11:42:10.82	27.75	59.08	-34.0	-35.2	19.8	0.00e+00	0	56	0	2210398208	38	4431
2026-01-06 11:42:11.83	27.07	58.82	-33.8	-35.1	20.0	0.00e+00	0	56	0	2215641088	38	4342
2026-01-06 11:42:12.84	26.41	58.55	-33.4	-34.6	20.5	0.00e+00	0	56	0	2221932544	38	4114
2026-01-06 11:42:13.85	25.76	58.29	-33.4	-34.6	20.5	0.00e+00	0	56	0	2227175424	38	4111
2026-01-06 11:42:14.86	25.12	58.02	-33.6	-34.8	20.3	0.00e+00	0	56	0	2232418304	38	4242
2026-01-06 11:42:15.87	24.50	57.75	-33.6	-34.8	20.3	0.00e+00	0	56	0	2238709760	38	4223
2026-01-06 11:42:16.88	23.88	57.48	-33.6	-34.8	20.3	0.00e+00	0	56	0	2243952640	38	4228
2026-01-06 11:42:17.89	23.28	57.21	-34.1	-35.3	19.8	0.00e+00	0	56	0	2250244096	38	4472
2026-01-06 11:42:18.90	22.70	56.93	-34.3	-35.6	19.5	0.00e+00	0	56	0	2255486976	39	4386
2026-01-06 11:42:19.91	22.12	56.66	-34.2	-35.4	19.7	0.00e+00	0	56	0	2261778432	39	4278
2026-01-06 11:42:20.92	21.55	56.38	-34.0	-35.3	19.8	0.00e+00	0	56	0	2267021312	39	4204
2026-01-06 11:42:21.93	21.00	56.10	-33.8	-35.0	20.1	0.00e+00	0	56	0	2272264192	39	4064
2026-01-06 11:42:22.94	20.46	55.82	-33.7	-34.9	20.2	0.00e+00	0	56	0	2278555648	39	4031
2026-01-06 11:42:23.95	19.92	55.54	-33.5	-34.7	20.3	0.00e+00	0	56	0	2283798528	39	3946
2026-01-06 11:42:24.96	19.40	55.26	-33.7	-34.9	20.1	0.00e+00	0	56	0	2290089984	39	4049
2026-01-06 11:42:25.97	18.89	54.98	-33.9	-35.2	19.9	0.00e+00	0	56	0	2295332864	39	4162
2026-01-06 11:42:26.97	18.40	54.69	-34.0	-35.2	19.9	0.00e+00	0	56	0	2300575744	39	4183
2026-01-06 11:42:27.98	17.91	54.41	-33.8	-35.0	20.1	0.00e+00	0	56	0	2306867200	39	4084
2026-01-06 11:42:28.99	17.42	54.13	-33.8	-35.0	20.2	0.00e+00	0	56	0	2312110080	39	4068
2026-01-06 11:42:30.00	16.95	53.84	-33.7	-34.9	20.3	0.00e+00	0	56	0	2318401536	39	4023
2026-01-06 11:42:31.01	16.49	53.56	-33.8	-34.9	20.2	0.00e+00	0	56	0	2323644416	39	4046
2026-01-06 11:42:32.02	16.04	53.27	-33.9	-35.1	20.0	0.00e+00	0	56	0	2328887296	39	4138
2026-01-06 11:42:33.03	15.59	52.99	-34.0	-35.3	19.9	0.00e+00	0	56	0	2335178752	39	4195
2026-01-06 11:42:34.04	15.16	52.70	-33.9	-35.1	20.0	0.00e+00	0	56	0	2340421632	39	4112
2026-01-06 11:42:35.05	14.73	52.41	-33.9	-35.1	20.1	0.00e+00	0	56	0	2346713088	39	4101
2026-01-06 11:42:36.06	14.31	52.13	-33.9	-35.1	20.0	0.00e+00	0	56	0	2351955968	39	4106
2026-01-06 11:42:37.07	13.90	51.84	-33.9	-35.1	20.0	0.00e+00	0	56	0	2358247424	39	4112
2026-01-06 11:42:38.08	13.50	51.56	-33.8	-35.0	20.1	0.00e+00	0	56	0	2363490304	39	4053
2026-01-06 11:42:39.09	13.10	51.27	-33.7	-34.9	20.2	0.00e+00	0	56	0	2369781760	39	4019
2026-01-06 11:42:40.10	12.71	50.99	-33.7	-34.9	20.1	0.00e+00	0	56	0	2375024640	39	4051
2026-01-06 11:42:41.11	12.33	50.70	-33.9	-35.2	19.9	0.00e+00	0	56	0	2380267520	39	4151
2026-01-06 11:42:42.12	11.96	50.42	-33.8	-35.0	20.0	0.00e+00	0	56	0	2386558976	39	4081
2026-01-06 11:42:43.13	11.59	50.14	-33.5	-34.7	20.3	0.00e+00	0	56	0	2391801856	39	3927
2026-01-06 11:42:44.14	11.23	49.85	-33.4	-34.5	20.4	0.00e+00	0	56	0	2398093312	38	4091
2026-01-06 11:42:45.15	10.88	49.57	-33.3	-34.5	20.5	0.00e+00	0	56	0	2403336192	38	4059
2026-01-06 11:42:46.16	10.53	49.29	-33.3	-34.5	20.4	0.00e+00	0	56	0	2408579072	38	4079
2026-01-06 11:42:47.17	10.19	49.01	-33.4	-34.6	20.4	0.00e+00	0	56	0	2414870528	38	4122
2026-01-06 11:42:48.18	9.86	48.73	-33.5	-34.7	20.3	0.00e+00	0	56	0	2420113408	38	4168
2026-01-06 11:42:49.19	9.53	48.45	-33.5	-34.7	20.3	0.00e+00	0	56	0	2426404864	38	4181
2026-01-06 11:42:50.20	9.21	48.17	-33.4	-34.6	20.3	0.00e+00	0	56	0	2431647744	38	4138
2026-01-06 11:42:51.21	8.89	47.89	-33.4	-34.4	20.9	0.00e+00	0	56	0	2436890624	38	4047
2026-01-06 11:42:52.22	8.58	47.61	-33.2	-34.3	21.1	0.00e+00	0	56	0	2443182080	38	3961
2026-01-06 11:42:53.23	8.28	47.34	-33.2	-34.3	21.1	0.00e+00	0	56	0	2448424960	38	3963
2026-01-06 11:42:54.24	7.98	47.06	-33.3	-34.4	21.0	0.00e+00	0	56	0	2454716416	38	4005
2026-01-06 11:42:55.25	7.69	46.79	-33.3	-34.4	21.0	0.00e+00	0	56	0	2459959296	38	4039
2026-01-06 11:42:56.26	7.40	46.51	-33.2	-34.3	21.1	0.00e+00	0	56	0	2466250752	38	3977
2026-01-06 11:42:57.27	7.11	46.24	-33.0	-34.0	21.3	0.00e+00	0	56	0	2471493632	38	3858
2026-01-06 11:42:58.28	6.83	45.97	-32.9	-33.9	21.4	0.00e+00	0	56	0	2476736512	37	4039
2026-01-06 11:42:59.29	6.56	45.70	-33.1	-34.1	21.2	0.00e+00	0	56	0	2483027968	37	4120
2026-01-06 11:43:00.30	6.29	45.43	-33.3	-34.4	20.9	0.00e+00	0	56	0	2488270848	37	4269
2026-01-06 11:43:01.31	6.03	45.16	-33.4	-34.5	20.8	0.00e+00	0	56	0	2494562304	37	4340
2026-01-06 11:43:02.32	5.77	44.89	-33.4	-34.5	20.9	0.00e+00	0	56	0	2499805184	37	4294
2026-01-06 11:43:03.33	5.51	44.63	-33.3	-34.4	20.9	0.00e+00	0	56	0	2505048064	37	4289
2026-01-06 11:43:04.34	5.26	44.36	-33.3	-34.3	21.0	0.00e+00	0	56	0	2511339520	37	4227
2026-01-06 11:43:05.35	5.01	44.10	-33.3	-34.4	21.0	0.00e+00	0	56	0	2516582400	37	4259
2026-01-06 11:43:06.36	4.77	43.84	-33.4	-34.4	20.9	0.00e+00	0	56	0	2522873856	37	4290
2026-01-06 11:43:07.37	4.53	43.58	-33.3	-34.4	20.9	0.00e+00	0	56	0	2528116736	37	4269
2026-01-06 11:43:08.38	4.29	43.32	-33.2	-34.3	21.0	0.00e+00	0	56	0	2534408192	37	4230
2026-01-06 11:43:09.40	4.06	43.06	-33.2	-34.3	21.1	0.00e+00	0	56	0	2539651072	37	4196
2026-01-06 11:43:10.41	3.83	42.80	-33.2	-34.2	21.1	0.00e+00	0	56	0	2544893952	37	4191
2026-01-06 11:43:11.42	3.61	42.54	-33.1	-34.1	21.2	0.00e+00	0	56	0	2551185408	37	4140
2026-01-06 11:43:12.43	3.39	42.29	-32.9	-34.0	21.3	0.00e+00	0	56	0	2556428288	37	4053
2026-01-06 11:43:13.44	3.17	42.03	-32.9	-33.9	21.4	0.00e+00	0	56	0	2562719744	37	4030
2026-01-06 11:43:14.44	2.96	41.78	-32.7	-33.8	21.5	0.00e+00	0	56	0	2567962624	37	3969
2026-01-06 11:43:15.46	2.75	41.53	-32.8	-33.8	21.5	0.00e+00	0	56	0	2574254080	37	3976
2026-01-06 11:43:16.47	2.54	41.28	-32.8	-33.8	21.5	0.00e+00	0	56	0	2579496960	37	3992
2026-01-06 11:43:17.48	2.33	41.03	-32.8	-33.9	21.4	0.00e+00	0	56	0	2584739840	37	4019
2026-01-06 11:43:18.49	2.13	40.78	-32.9	-34.0	21.3	0.00e+00	0	56	0	2591031296	37	4066
2026-01-06 11:43:19.50	1.94	40.54	-33.0	-34.1	21.2	0.00e+00	0	56	0	2596274176	37	4120
2026-01-06 11:43:20.51	1.74	40.29	-33.0	-34.1	21.2	0.00e+00	0	56	0	2602565632	37	4113
2026-01-06 11:43:21.52	1.55	40.05	-33.0	-34.1	21.2	0.00e+00	0	56	0	2607808512	37	4108
2026-01-06 11:43:22.53	1.36	39.81	-33.0	-34.1	21.2	0.00e+00	0	56	0	2613051392	37	4117
2026-01-06 11:43:23.54	1.18	39.57	-33.0	-34.1	21.2	0.00e+00	0	56	0	2619342848	37	4119
2026-01-06 11:43:24.55	0.99	39.33	-33.0	-34.0	21.2	0.00e+00	0	56	0	2624585728	37	4097
2026-01-06 11:43:25.56	0.81	39.09	-32.9	-34.0	21.3	0.00e+00	0	56	0	2630877184	37	4052
2026-01-06 11:43:26.57	0.64	38.85	-32.8	-33.9	21.4	0.00e+00	0	56	0	2636120064	37	4010
2026-01-06 11:43:27.58	0.46	38.62	-32.8	-33.8	21.5	0.00e+00	0	56	0	2641362944	37	3977
2026-01-06 11:43:28.59	0.29	38.38	-32.8	-33.8	21.4	0.00e+00	0	56	0	2647654400	37	3993
2026-01-06 11:43:29.60	0.12	38.15	-32.8	-33.8	21.5	0.00e+00	0	56	0	2652897280	37	3984
2026-01-06 11:43:30.61	359.95	37.92	-32.8	-33.8	21.4	0.00e+00	0	56	0	2659188736	37	3989
2026-01-06 11:43:31.62	359.79	37.69	-32.7	-33.8	21.5	0.00e+00	0	56	0	2664431616	37	3965
2026-01-06 11:43:32.63	359.62	37.46	-32.6	-33.7	21.6	0.00e+00	0	56	0	2670723072	37	3922
2026-01-06 11:43:33.64	359.46	37.23	-32.6	-33.7	21.6	0.00e+00	0	56	0	2675965952	37	3921
2026-01-06 11:43:34.65	359.30	37.01	-32.7	-33.7	21.5	0.00e+00	0	56	0	2682257408	37	3938
2026-01-06 11:43:35.66	359.15	36.78	-32.7	-33.8	21.5	0.00e+00	0	56	0	2687500288	37	3971
2026-01-06 11:43:36.67	358.99	36.56	-32.9	-33.9	21.3	0.00e+00	0	56	0	2692743168	37	4038
2026-01-06 11:43:37.68	358.84	36.34	-33.0	-34.1	21.1	0.00e+00	0	56	0	2699034624	37	4123
2026-01-06 11:43:38.69	358.69	36.11	-33.1	-34.2	21.1	0.00e+00	0	56	0	2704277504	37	4156
2026-01-06 11:43:39.70	358.55	35.90	-33.2	-34.3	21.0	0.00e+00	0	56	0	2710568960	37	4198
2026-01-06 11:43:40.72	358.40	35.67	-33.1	-34.2	21.1	0.00e+00	0	56	0	2715811840	37	4168
2026-01-06 11:43:41.73	358.26	35.46	-33.1	-34.1	21.1	0.00e+00	0	56	0	2721054720	37	4143
2026-01-06 11:43:42.74	358.11	35.24	-33.0	-34.1	21.1	0.00e+00	0	56	0	2727346176	37	4112
2026-01-06 11:43:43.75	357.97	35.03	-33.0	-34.1	21.1	0.00e+00	0	56	0	2732589056	37	4113
2026-01-06 11:43:44.76	357.84	34.81	-33.1	-34.2	21.1	0.00e+00	0	56	0	2738880512	37	4154
2026-01-06 11:43:45.77	357.70	34.60	-33.1	-34.2	21.0	0.00e+00	0	56	0	2744123392	37	4171
2026-01-06 11:43:46.78	357.57	34.39	-33.1	-34.2	21.0	0.00e+00	0	56	0	2749366272	37	4171
2026-01-06 11:43:47.79	357.43	34.18	-33.1	-34.2	21.0	0.00e+00	0	56	0	2755657728	37	4173
2026-01-06 11:43:48.80	357.30	33.97	-33.1	-34.1	21.1	0.00e+00	0	56	0	2760900608	37	4144
2026-01-06 11:43:49.81	357.17	33.77	-33.0	-34.1	21.1	0.00e+00	0	56	0	2767192064	37	4137
2026-01-06 11:43:50.82	357.05	33.56	-33.0	-34.0	21.2	0.00e+00	0	56	0	2772434944	37	4091
2026-01-06 11:43:51.82	356.92	33.36	-32.9	-34.0	21.2	0.00e+00	0	56	0	2778726400	37	4075
2026-01-06 11:43:52.83	356.80	33.15	-32.9	-34.0	21.2	0.00e+00	0	56	0	2783969280	37	4063
2026-01-06 11:43:53.84	356.68	32.95	-33.0	-34.0	21.2	0.00e+00	0	56	0	2790260736	37	4086
2026-01-06 11:43:54.85	356.56	32.75	-33.0	-34.0	21.1	0.00e+00	0	56	0	2795503616	37	4097
2026-01-06 11:43:55.86	356.44	32.55	-33.1	-34.1	21.0	0.00e+00	0	56	0	2800746496	37	4141
2026-01-06 11:43:56.87	356.32	32.35	-33.1	-34.2	21.0	0.00e+00	0	56	0	2807037952	37	4159
2026-01-06 11:43:57.88	356.20	32.15	-33.1	-34.2	21.0	0.00e+00	0	56	0	2812280832	37	4155
2026-01-06 11:43:58.89	356.09	31.96	-33.1	-34.2	21.0	0.00e+00	0	56	0	2818572288	37	4160
2026-01-06 11:43:59.90	355.97	31.76	-33.1	-34.2	21.0	0.00e+00	0	56	0	2823815168	37	4161
2026-01-06 11:44:00.91	355.86	31.57	-33.1	-34.1	21.0	0.00e+00	0	56	0	2829058048	37	4135
2026-01-06 11:44:01.92	355.75	31.37	-33.1	-34.2	21.0	0.00e+00	0	56	0	2835349504	37	4149
2026-01-06 11:44:02.93	355.64	31.18	-33.1	-34.1	21.0	0.00e+00	0	56	0	2840592384	37	4137
2026-01-06 11:44:03.94	355.53	30.99	-33.2	-34.2	20.9	0.00e+00	0	56	0	2846883840	37	4181
2026-01-06 11:44:04.95	355.43	30.80	-33.2	-34.3	20.9	0.00e+00	0	56	0	2852126720	37	4213
2026-01-06 11:44:05.96	355.32	30.61	-33.2	-34.3	20.9	0.00e+00	0	56	0	2857369600	37	4202
2026-01-06 11:44:06.97	355.22	30.43	-33.2	-34.3	20.9	0.00e+00	0	56	0	2863661056	37	4199
2026-01-06 11:44:07.98	355.11	30.24	-33.3	-34.3	20.8	0.00e+00	0	56	0	2868903936	37	4237
2026-01-06 11:44:08.99	355.01	30.06	-33.3	-34.4	20.8	0.00e+00	0	56	0	2875195392	37	4251
2026-01-06 11:44:09.99	354.91	29.87	-33.3	-34.4	20.7	0.00e+00	0	56	0	2880438272	37	4266
2026-01-06 11:44:11.00	354.81	29.69	-33.3	-34.4	20.7	0.00e+00	0	56	0	2886729728	37	4274
2026-01-06 11:44:12.01	354.71	29.51	-33.3	-34.4	20.7	0.00e+00	0	56	0	2891972608	37	4283
2026-01-06 11:44:13.02	354.62	29.33	-33.3	-34.4	20.7	0.00e+00	0	56	0	2897215488	37	4251
2026-01-06 11:44:14.03	354.52	29.15	-33.3	-34.4	20.8	0.00e+00	0	56	0	2903506944	37	4243
2026-01-06 11:44:15.04	354.43	28.97	-33.2	-34.3	20.8	0.00e+00	0	56	0	2908749824	37	4211
2026-01-06 11:44:16.05	354.33	28.79	-33.2	-34.3	20.8	0.00e+00	0	56	0	2915041280	37	4204
2026-01-06 11:44:17.06	354.24	28.62	-33.2	-34.2	20.8	0.00e+00	0	56	0	2920284160	37	4188
2026-01-06 11:44:18.07	354.15	28.44	-33.1	-34.2	20.9	0.00e+00	0	56	0	2925527040	37	4177
2026-01-06 11:44:19.08	354.06	28.27	-33.2	-34.2	20.8	0.00e+00	0	56	0	2931818496	37	4192
2026-01-06 11:44:20.09	353.97	28.09	-33.2	-34.3	20.8	0.00e+00	0	56	0	2937061376	37	4195
2026-01-06 11:44:21.10	353.88	27.92	-33.2	-34.3	20.8	0.00e+00	0	56	0	2943352832	37	4210
2026-01-06 11:44:22.11	353.79	27.75	-33.3	-34.4	20.7	0.00e+00	0	56	0	2948595712	37	4256
2026-01-06 11:44:23.12	353.71	27.58	-33.3	-34.4	20.6	0.00e+00	0	56	0	2953838592	37	4289
2026-01-06 11:44:24.13	353.62	27.41	-33.4	-34.5	20.5	0.00e+00	0	56	0	2960130048	37	4313
2026-01-06 11:44:25.14	353.53	27.24	-33.4	-34.6	20.5	0.00e+00	0	56	0	2965372928	37	4350
2026-01-06 11:44:26.15	353.45	27.07	-33.5	-34.6	20.4	0.00e+00	0	56	0	2971664384	37	4385
2026-01-06 11:44:27.16	353.37	26.91	-33.5	-34.6	20.4	0.00e+00	0	56	0	2976907264	37	4370
2026-01-06 11:44:28.17	353.29	26.74	-33.5	-34.6	20.5	0.00e+00	0	56	0	2983198720	37	4357
2026-01-06 11:44:29.18	353.20	26.57	-33.5	-34.6	20.4	0.00e+00	0	56	0	2988441600	37	4366
2026-01-06 11:44:30.19	353.12	26.41	-33.4	-34.5	20.5	0.00e+00	0	56	0	2994733056	37	4338
2026-01-06 11:44:31.20	353.04	26.25	-33.3	-34.4	20.5	0.00e+00	0	56	0	2999975936	37	4282
2026-01-06 11:44:32.21	352.97	26.09	-33.3	-34.4	20.5	0.00e+00	0	56	0	3005218816	37	4278
2026-01-06 11:44:33.22	352.89	25.93	-33.3	-34.4	20.6	0.00e+00	0	56	0	3011510272	37	4256
2026-01-06 11:44:34.23	352.81	25.77	-33.4	-34.4	20.5	0.00e+00	0	56	0	3016753152	37	4283
2026-01-06 11:44:35.24	352.74	25.61	-33.3	-34.4	20.5	0.00e+00	0	56	0	3023044608	37	4273
2026-01-06 11:44:36.25	352.66	25.45	-33.5	-34.6	20.3	0.00e+00	0	56	0	3028287488	37	4357
2026-01-06 11:44:37.27	352.59	25.29	-33.5	-34.6	20.4	0.00e+00	0	56	0	3033530368	37	4350
2026-01-06 11:44:38.28	352.51	25.13	-33.6	-34.7	20.2	0.00e+00	0	56	0	3039821824	37	4430
2026-01-06 11:44:39.29	352.44	24.98	-33.7	-34.8	20.1	0.00e+00	0	56	0	3045064704	37	4465
2026-01-06 11:44:40.30	352.37	24.82	-33.8	-35.0	20.0	0.00e+00	0	56	0	3051356160	38	4303
2026-01-06 11:44:41.31	352.29	24.67	-33.8	-35.0	19.9	0.00e+00	0	56	0	3056599040	38	4320
2026-01-06 11:44:42.32	352.22	24.51	-33.9	-35.1	19.8	0.00e+00	0	56	0	3061841920	38	4375
2026-01-06 11:44:43.33	352.15	24.36	-34.0	-35.2	19.7	0.00e+00	0	56	0	3068133376	38	4408
2026-01-06 11:44:44.34	352.08	24.21	-34.0	-35.2	19.7	0.00e+00	0	56	0	3073376256	38	4412
2026-01-06 11:44:45.35	352.02	24.06	-34.0	-35.2	19.7	0.00e+00	0	56	0	3079667712	38	4399
2026-01-06 11:44:46.36	351.95	23.91	-34.1	-35.3	19.6	0.00e+00	0	56	0	3084910592	38	4458
2026-01-06 11:44:47.37	351.88	23.76	-34.0	-35.2	19.6	0.00e+00	0	56	0	3090153472	38	4402
2026-01-06 11:44:48.37	351.81	23.61	-33.9	-35.0	19.7	0.00e+00	0	56	0	3096444928	38	4339
2026-01-06 11:44:49.38	351.75	23.47	-34.0	-35.2	19.5	0.00e+00	0	57	0	3101687808	38	4398
2026-01-06 11:44:50.39	351.68	23.32	-33.9	-35.1	19.5	0.00e+00	0	56	0	3107979264	38	4382
2026-01-06 11:44:51.41	351.62	23.17	-33.8	-35.0	19.6	0.00e+00	0	56	0	3113222144	38	4296
2026-01-06 11:44:52.42	351.55	23.03	-33.6	-34.7	19.7	0.00e+00	0	56	0	3119513600	38	4188
2026-01-06 11:44:53.43	351.49	22.88	-33.8	-35.0	19.3	0.00e+00	0	56	0	3124756480	38	4314
2026-01-06 11:44:54.44	351.43	22.74	-34.0	-35.2	19.0	0.00e+00	0	56	0	3131047936	38	4417
2026-01-06 11:44:55.45	351.37	22.60	-33.9	-35.1	19.0	0.00e+00	0	56	0	3136290816	38	4378
2026-01-06 11:44:56.46	351.30	22.46	-33.7	-34.9	19.2	0.00e+00	0	56	0	3141533696	38	4274
2026-01-06 11:44:57.47	351.24	22.31	-33.5	-34.7	19.3	0.00e+00	0	56	0	3147825152	38	4182
2026-01-06 11:44:58.48	351.18	22.17	-33.4	-34.6	19.4	0.00e+00	0	56	0	3153068032	38	4123
2026-01-06 11:44:59.49	351.12	22.03	-33.2	-34.4	19.5	0.00e+00	0	56	0	3159359488	38	4039
2026-01-06 11:45:00.50	351.06	21.90	-33.2	-34.4	19.4	0.00e+00	0	56	0	3164602368	38	4043
2026-01-06 11:45:01.51	351.01	21.76	-33.5	-34.7	19.1	0.00e+00	0	56	0	3169845248	38	4175
2026-01-06 11:45:02.52	350.95	21.62	-33.8	-35.1	18.6	0.00e+00	0	57	0	3176136704	38	4382
2026-01-06 11:45:03.53	350.89	21.48	-34.4	-35.8	17.7	0.00e+00	0	56	0	3181379584	39	4477
2026-01-06 11:45:04.54	350.83	21.35	-35.1	-36.6	16.6	0.00e+00	0	56	0	3187671040	40	4641
2026-01-06 11:45:05.55	350.78	21.21	-35.9	-37.7	15.2	0.00e+00	0	56	0	3192913920	42	4702
2026-01-06 11:45:06.56	350.72	21.08	-37.0	-39.2	13.6	2.20e-06	0	56	0	3198156800	44	4959
2026-01-06 11:45:07.57	350.66	20.94	-37.9	-40.6	11.9	4.05e-04	0	56	0	3204448256	46	5190
2026-01-06 11:45:08.58	350.61	20.81	-38.7	-42.1	10.0	5.29e-03	0	56	0	3209691136	47	5818
2026-01-06 11:45:09.59	350.55	20.68	-39.4	-43.6	8.2	5.52e-02	0	56	0	3215982592	49	6196
2026-01-06 11:45:10.60	350.50	20.54	-39.9	-45.3	6.5	1.87e-01	0	56	0	3221225472	50	7049
2026-01-06 11:45:11.60	350.45	20.41	-40.1	-46.6	5.3	4.84e-01	0	56	0	3226468352	50	8217
2026-01-06 11:45:12.62	350.39	20.28	-40.3	-48.1	4.5	8.07e-01	0	57	0	3226468352	51	9183
2026-01-06 11:45:13.63	350.34	20.15	-40.4	-49.1	4.1	8.35e-01	0	56	0	3226468352	51	10371
2026-01-06 11:45:14.64	350.29	20.02	-40.5	-50.2	3.9	8.44e-01	0	56	104	3226468352	51	11758
2026-01-06 11:45:15.65	350.24	19.89	-40.5	-51.0	3.8	8.46e-01	0	56	104	3226468352	51	12874
2026-01-06 11:45:16.66	350.19	19.77	-40.6	-51.5	3.8	8.46e-01	0	56	104	3226468352	51	13637
2026-01-06 11:45:17.67	350.14	19.64	-40.6	-51.9	3.8	8.47e-01	0	57	104	3226468352	51	14214
2026-01-06 11:45:18.68	350.09	19.51	-40.7	-51.7	3.8	8.47e-01	0	57	104	3226468352	51	13939
2026-01-06 11:45:19.69	350.04	19.38	-40.6	-52.1	3.8	8.46e-01	0	56	104	3226468352	52	13848
2026-01-06 11:45:20.69	349.99	19.26	-40.6	-52.1	3.8	8.46e-01	0	56	104	3226468352	52	13867
2026-01-06 11:45:21.70	349.94	19.14	-40.6	-52.1	3.8	8.45e-01	0	56	104	3226468352	52	13792
2026-01-06 11:45:22.71	349.89	19.01	-40.6	-52.2	3.8	8.46e-01	0	56	104	3226468352	52	13887
2026-01-06 11:45:23.72	349.84	18.89	-40.6	-52.2	3.8	8.47e-01	0	56	104	3226468352	52	13897
2026-01-06 11:45:24.73	349.80	18.76	-40.7	-52.4	3.8	8.46e-01	0	56	104	3226468352	52	14231
2026-01-06 11:45:25.74	349.75	18.64	-40.6	-52.1	3.8	8.46e-01	0	56	104	3226468352	52	13827
2026-01-06 11:45:26.75	349.70	18.52	-40.8	-52.4	3.8	8.47e-01	0	56	104	3226468352	52	14358
2026-01-06 11:45:27.76	349.65	18.40	-40.6	-52.1	3.8	8.47e-01	0	57	104	3226468352	52	13846
2026-01-06 11:45:28.77	349.61	18.28	-40.5	-52.2	3.8	8.47e-01	0	56	104	3226468352	52	13945
2026-01-06 11:45:29.78	349.56	18.16	-40.8	-52.5	3.8	8.45e-01	0	56	104	3226468352	52	14506
2026-01-06 11:45:30.79	349.52	18.04	-40.6	-52.3	3.8	8.48e-01	0	56	104	3226468352	52	14108
2026-01-06 11:45:31.80	349.47	17.92	-40.8	-52.6	3.8	8.47e-01	0	56	104	3226468352	52	14563
2026-01-06 11:45:32.81	349.43	17.80	-41.0	-52.7	3.8	8.45e-01	0	56	104	3226468352	52	14839
2026-01-06 11:45:33.82	349.38	17.68	-40.6	-52.2	3.8	8.47e-01	0	57	104	3226468352	52	14005
2026-01-06 11:45:34.83	349.34	17.56	-40.5	-52.2	3.8	8.45e-01	0	56	104	3226468352	52	13902
2026-01-06 11:45:35.84	349.30	17.45	-40.6	-52.2	3.8	8.47e-01	0	56	104	3226468352	52	13957
2026-01-06 11:45:36.85	349.25	17.33	-40.6	-52.3	3.8	8.46e-01	0	56	104	3226468352	52	14073
2026-01-06 11:45:37.86	349.21	17.21	-40.7	-52.3	3.8	8.47e-01	0	57	104	3226468352	52	14108
2026-01-06 11:45:38.87	349.17	17.10	-41.5	-53.1	3.8	8.46e-01	0	56	104	3226468352	53	14590
2026-01-06 11:45:39.87	349.13	16.99	-40.7	-52.3	3.8	8.46e-01	0	56	104	3226468352	53	13319
2026-01-06 11:45:40.88	349.09	16.87	-40.3	-52.5	3.8	8.45e-01	0	56	104	3226468352	52	14474
2026-01-06 11:45:41.89	349.05	16.76	-40.7	-52.5	3.8	8.46e-01	0	56	104	3226468352	52	14403
2026-01-06 11:45:42.90	349.00	16.64	-40.6	-52.3	3.8	8.46e-01	0	57	104	3226468352	52	14110
2026-01-06 11:45:43.91	348.96	16.53	-40.4	-52.4	3.8	8.47e-01	0	56	104	3226468352	52	14239
2026-01-06 11:45:44.92	348.92	16.42	-40.5	-52.3	3.8	8.46e-01	0	57	104	3226468352	52	14207
2026-01-06 11:45:45.93	348.88	16.31	-40.5	-52.6	3.8	8.46e-01	0	57	104	3226468352	52	14602
2026-01-06 11:45:46.94	348.84	16.20	-40.4	-52.4	3.8	8.45e-01	0	56	104	3226468352	52	14353
2026-01-06 11:45:47.95	348.81	16.08	-41.7	-53.3	3.8	8.47e-01	0	56	104	3226468352	53	15041
2026-01-06 11:45:48.96	348.77	15.97	-40.9	-52.6	3.8	8.47e-01	0	56	104	3226468352	53	13822
2026-01-06 11:45:49.97	348.73	15.86	-40.6	-52.3	3.8	8.46e-01	0	57	104	3226468352	52	14091
2026-01-06 11:45:50.98	348.69	15.76	-40.3	-52.5	3.8	8.46e-01	0	57	104	3226468352	52	14535
2026-01-06 11:45:51.99	348.65	15.65	-40.4	-52.5	3.8	8.46e-01	0	57	104	3226468352	52	14468
2026-01-06 11:45:53.00	348.61	15.54	-40.5	-52.5	3.8	8.47e-01	0	56	104	3226468352	52	14504
2026-01-06 11:45:54.01	348.58	15.43	-40.9	-52.7	3.8	8.45e-01	0	56	104	3226468352	52	14724
2026-01-06 11:45:55.02	348.54	15.32	-40.6	-52.5	3.8	8.46e-01	0	57	104	3226468352	52	14508
