passes_logs/2026/01/06/R2.0S_Moscow/R2.0S_Moscow__20260106_110701_AQUA_rec.log

#Pass ID: 20260106_110701_AQUA
#Satellite: AQUA
#Configuration: AQUA
#almurnet v.1.7.20251203
#Start time: 2026-01-06 11:08:56

#Version: 2.2.20231116
#Station: R2.0S_Moscow
#Location: 37.707566 lon 55.798166 lat
#TLE: 1 27424U 02022A   26004.96787593  .00001598  00000+0  32997-3 0  9996
#TLE: 2 27424  98.4069 331.2279 0002002  90.2377   0.6092 14.61798176259425

#Time	Az	El	Level	Level2	SNR	BER	BlckErr	Temp	State	Recorded	gain1	gain2
2026-01-06 11:08:56.06	140.49	10.98	-45.1	-59.9	3.8	1.49e+00	0	56	0	0	60	21361
2026-01-06 11:08:57.06	140.44	11.08	-46.4	-65.3	3.8	7.44e-01	0	56	104	0	63	33631
2026-01-06 11:08:58.07	140.38	11.17	-46.4	-65.3	3.8	7.48e-01	0	56	104	0	63	33388
2026-01-06 11:08:59.08	140.33	11.27	-46.4	-65.1	3.8	7.44e-01	0	56	104	0	63	32756
2026-01-06 11:09:00.09	140.27	11.37	-46.3	-65.0	3.8	7.42e-01	0	56	104	0	63	32545
2026-01-06 11:09:01.10	140.22	11.46	-46.1	-64.9	3.8	7.47e-01	0	56	104	0	63	31897
2026-01-06 11:09:02.11	140.16	11.56	-46.0	-64.5	3.8	7.46e-01	0	56	104	0	63	30585
2026-01-06 11:09:03.13	140.10	11.66	-45.8	-64.2	3.8	7.47e-01	0	56	104	0	63	29455
2026-01-06 11:09:04.14	140.04	11.76	-45.6	-64.2	3.8	7.41e-01	0	56	104	0	61	33097
2026-01-06 11:09:05.15	139.99	11.86	-45.6	-64.1	3.8	7.42e-01	0	57	104	0	61	32777
2026-01-06 11:09:06.16	139.93	11.96	-45.7	-64.1	3.8	7.47e-01	0	56	104	0	61	32784
2026-01-06 11:09:07.17	139.87	12.06	-45.4	-63.3	3.8	7.43e-01	0	56	104	0	61	29707
2026-01-06 11:09:08.18	139.81	12.16	-45.6	-64.1	3.7	7.46e-01	0	56	104	0	61	32694
2026-01-06 11:09:09.19	139.75	12.26	-45.8	-62.3	4.1	7.37e-01	0	57	104	0	58	31780
2026-01-06 11:09:10.20	139.69	12.36	-45.6	-64.2	3.8	7.47e-01	0	56	104	0	61	32988
2026-01-06 11:09:11.21	139.63	12.46	-45.6	-64.2	3.8	7.48e-01	0	56	104	0	61	33230
2026-01-06 11:09:12.22	139.57	12.57	-44.8	-63.9	3.8	7.43e-01	0	56	104	0	61	32129
2026-01-06 11:09:13.23	139.51	12.67	-45.7	-64.3	3.8	7.47e-01	0	57	104	0	61	33363
2026-01-06 11:09:14.24	139.44	12.77	-45.4	-64.3	3.8	7.43e-01	0	56	104	0	61	33336
2026-01-06 11:09:15.26	139.38	12.88	-45.4	-64.1	3.8	7.48e-01	0	56	104	0	61	32621
2026-01-06 11:09:16.26	139.32	12.98	-44.4	-64.2	3.8	7.44e-01	0	56	104	0	61	33210
2026-01-06 11:09:17.27	139.25	13.09	-45.5	-64.1	3.8	7.48e-01	0	56	104	0	61	32847
2026-01-06 11:09:18.29	139.19	13.19	-45.6	-64.4	3.8	7.45e-01	0	56	104	0	61	33807
2026-01-06 11:09:19.29	139.12	13.30	-45.6	-64.3	3.8	7.43e-01	0	57	104	0	61	33388
2026-01-06 11:09:20.31	139.06	13.40	-45.6	-64.2	3.8	7.48e-01	0	56	104	0	61	33141
2026-01-06 11:09:21.32	138.99	13.51	-45.6	-63.9	3.8	7.45e-01	0	56	104	0	61	32091
2026-01-06 11:09:22.33	138.93	13.62	-45.5	-63.7	3.8	7.43e-01	0	56	104	0	61	31253
2026-01-06 11:09:23.34	138.86	13.72	-45.6	-63.7	3.8	7.43e-01	0	56	104	0	61	31227
2026-01-06 11:09:24.35	138.79	13.83	-45.6	-63.4	3.8	7.45e-01	0	56	104	0	61	30308
2026-01-06 11:09:25.36	138.72	13.94	-45.6	-63.1	3.9	7.46e-01	0	56	104	0	61	29329
2026-01-06 11:09:26.37	138.66	14.05	-45.5	-62.7	3.9	7.44e-01	0	56	104	0	61	27835
2026-01-06 11:09:27.38	138.59	14.16	-45.4	-62.4	3.8	7.43e-01	0	57	104	0	61	26775
2026-01-06 11:09:28.39	138.52	14.27	-45.6	-61.7	4.1	7.41e-01	0	57	104	0	61	24717
2026-01-06 11:09:29.40	138.45	14.38	-41.8	-61.7	4.0	7.45e-01	0	56	104	0	61	24874
2026-01-06 11:09:30.41	138.38	14.49	-45.6	-61.5	4.1	7.38e-01	0	56	104	0	61	24324
2026-01-06 11:09:31.43	138.30	14.60	-45.5	-62.0	3.8	7.45e-01	0	56	104	0	61	25770
2026-01-06 11:09:32.44	138.23	14.72	-45.6	-62.3	3.9	7.44e-01	0	56	104	0	61	26599
2026-01-06 11:09:33.45	138.16	14.83	-45.6	-62.8	3.9	7.46e-01	0	56	104	0	61	28085
2026-01-06 11:09:34.46	138.09	14.94	-39.4	-60.3	3.6	7.41e-01	0	56	104	0	55	29912
2026-01-06 11:09:35.47	138.01	15.05	-45.6	-63.4	3.8	7.42e-01	0	56	104	0	61	30041
2026-01-06 11:09:36.48	137.94	15.17	-45.5	-63.1	3.8	7.45e-01	0	56	104	0	61	29116
2026-01-06 11:09:37.49	137.86	15.28	-45.5	-62.7	3.8	7.43e-01	0	56	104	0	61	27874
2026-01-06 11:09:38.49	137.79	15.40	-45.6	-61.4	4.1	7.35e-01	0	56	104	0	61	23914
2026-01-06 11:09:39.51	137.71	15.51	-45.3	-60.2	4.0	7.40e-01	0	56	104	0	61	20828
2026-01-06 11:09:40.52	137.63	15.63	-45.2	-57.5	5.7	6.91e-01	8	57	0	0	61	15358
2026-01-06 11:09:41.53	137.56	15.75	-44.8	-55.0	7.7	6.55e-01	89	56	0	1572864	60	12205
2026-01-06 11:09:42.54	137.48	15.87	-44.7	-52.7	10.2	6.23e-01	1	56	0	3145728	60	9388
2026-01-06 11:09:43.55	137.40	15.98	-44.2	-50.6	12.5	6.10e-01	0	56	0	5242880	60	7349
2026-01-06 11:09:44.56	137.32	16.10	-43.8	-48.9	14.6	6.07e-01	0	56	0	7340032	58	6774
2026-01-06 11:09:45.57	137.24	16.22	-43.1	-47.2	16.5	6.08e-01	0	56	0	8912896	58	5584
2026-01-06 11:09:46.58	137.16	16.34	-42.3	-45.8	17.6	6.07e-01	0	56	0	11010048	56	5281
2026-01-06 11:09:47.59	137.08	16.46	-41.5	-44.5	19.1	6.06e-01	0	56	0	12582912	53	5433
2026-01-06 11:09:48.60	136.99	16.58	-40.9	-43.6	20.0	6.04e-01	0	56	0	14680064	53	4908
2026-01-06 11:09:49.62	136.91	16.71	-40.4	-42.9	20.5	6.07e-01	0	56	0	16777216	52	4798
2026-01-06 11:09:50.63	136.83	16.83	-42.2	-45.7	18.4	6.06e-01	0	56	0	18350080	54	5881
2026-01-06 11:09:51.64	136.74	16.95	-44.9	-53.0	10.8	6.21e-01	0	56	0	20447232	60	9692
2026-01-06 11:09:52.65	136.66	17.07	-39.8	-42.1	21.2	6.07e-01	0	56	0	22020096	51	4610
2026-01-06 11:09:53.66	136.57	17.20	-41.2	-44.2	19.5	6.08e-01	0	56	0	24117248	53	5255
2026-01-06 11:09:54.67	136.48	17.32	-40.8	-43.4	19.7	6.07e-01	1	56	0	26214400	52	5049
2026-01-06 11:09:55.68	136.39	17.45	-41.0	-44.0	18.2	6.05e-01	0	56	0	27787264	52	5432
2026-01-06 11:09:56.69	136.31	17.58	-40.0	-42.3	21.1	6.06e-01	0	56	0	29884416	50	4999
2026-01-06 11:09:57.70	136.22	17.70	-39.9	-42.2	20.5	6.06e-01	0	56	0	31457280	50	4964
2026-01-06 11:09:58.71	136.13	17.83	-36.3	-41.6	19.0	6.06e-01	0	56	0	33554432	46	5809
2026-01-06 11:09:59.72	136.03	17.96	-39.7	-42.0	21.2	6.07e-01	0	56	0	35651584	50	4835
2026-01-06 11:10:00.73	135.94	18.09	-39.6	-41.8	21.9	6.07e-01	0	56	0	37224448	50	4732
2026-01-06 11:10:01.74	135.85	18.22	-39.7	-41.9	21.7	6.07e-01	0	56	0	39321600	50	4806
2026-01-06 11:10:02.75	135.76	18.35	-39.5	-41.7	21.9	6.05e-01	0	56	0	40894464	50	4661
2026-01-06 11:10:03.76	135.66	18.48	-39.6	-41.8	21.9	6.05e-01	0	56	0	42991616	49	5016
2026-01-06 11:10:04.76	135.57	18.61	-39.4	-41.8	20.9	6.05e-01	0	56	0	45088768	49	5002
2026-01-06 11:10:05.77	135.47	18.74	-39.7	-41.8	18.8	6.09e-01	0	56	0	46661632	49	5014
2026-01-06 11:10:06.78	135.37	18.87	-39.6	-41.9	21.8	6.05e-01	0	56	0	48758784	49	5048
2026-01-06 11:10:07.79	135.27	19.00	-39.7	-41.8	21.9	6.03e-01	0	56	0	50855936	50	4747
2026-01-06 11:10:08.80	135.18	19.14	-38.8	-41.9	21.4	6.06e-01	0	56	0	52428800	49	5055
2026-01-06 11:10:09.81	135.08	19.27	-39.4	-41.9	21.9	6.07e-01	0	56	0	54525952	50	4787
2026-01-06 11:10:10.82	134.97	19.41	-39.8	-41.9	21.9	6.06e-01	0	56	0	56098816	50	4798
2026-01-06 11:10:11.83	134.87	19.55	-39.8	-41.9	21.8	6.06e-01	0	56	0	58195968	50	4811
2026-01-06 11:10:12.84	134.77	19.68	-39.8	-42.0	21.8	6.06e-01	0	56	0	60293120	50	4843
2026-01-06 11:10:13.85	134.67	19.82	-39.9	-42.2	21.7	6.08e-01	0	56	0	61865984	50	4936
2026-01-06 11:10:14.86	134.56	19.96	-39.9	-42.1	21.4	6.04e-01	0	56	0	63963136	50	4882
2026-01-06 11:10:15.87	134.45	20.10	-39.9	-42.1	21.7	6.03e-01	0	56	0	66060288	50	4918
2026-01-06 11:10:16.88	134.35	20.24	-39.9	-42.2	21.7	6.05e-01	0	56	0	67633152	50	4936
2026-01-06 11:10:17.89	134.24	20.38	-40.0	-42.3	21.6	6.06e-01	0	56	0	69730304	50	5002
2026-01-06 11:10:18.90	134.13	20.52	-40.1	-42.3	21.5	6.05e-01	0	56	0	71303168	50	5039
2026-01-06 11:10:19.91	134.02	20.66	-40.2	-42.5	21.4	6.07e-01	0	56	0	73400320	50	5119
2026-01-06 11:10:20.92	133.91	20.81	-40.0	-42.2	21.6	6.05e-01	0	56	0	75497472	51	4691
2026-01-06 11:10:21.93	133.80	20.95	-40.1	-42.3	21.5	6.08e-01	0	56	0	77070336	51	4758
2026-01-06 11:10:22.94	133.68	21.10	-40.1	-42.4	21.5	6.08e-01	0	56	0	79167488	51	4780
2026-01-06 11:10:23.95	133.57	21.24	-40.1	-42.4	20.9	6.08e-01	0	56	0	80740352	50	5082
2026-01-06 11:10:24.96	133.45	21.39	-40.2	-42.5	21.4	6.09e-01	0	56	0	82837504	50	5123
2026-01-06 11:10:25.97	133.33	21.53	-40.2	-42.5	21.4	6.07e-01	0	56	0	84934656	50	5140
2026-01-06 11:10:26.99	133.21	21.68	-40.2	-42.4	21.4	6.06e-01	0	56	0	86507520	50	5099
2026-01-06 11:10:27.99	133.10	21.83	-40.0	-42.3	21.6	6.06e-01	0	56	0	88604672	50	4996
2026-01-06 11:10:29.01	132.97	21.98	-40.0	-42.2	21.7	6.06e-01	0	56	0	90177536	50	4982
2026-01-06 11:10:30.02	132.85	22.13	-40.0	-42.3	21.7	6.06e-01	0	56	0	92274688	50	4990
2026-01-06 11:10:31.03	132.73	22.28	-40.0	-42.2	21.7	6.06e-01	0	56	0	94371840	50	4974
2026-01-06 11:10:32.03	132.60	22.43	-40.1	-42.4	21.5	6.07e-01	0	56	0	95944704	50	5051
2026-01-06 11:10:33.04	132.48	22.59	-40.1	-42.3	21.6	6.05e-01	0	56	0	98041856	50	5010
2026-01-06 11:10:34.06	132.35	22.74	-40.0	-42.3	21.6	6.07e-01	0	56	0	99614720	50	5003
2026-01-06 11:10:35.07	132.22	22.90	-40.1	-42.3	21.6	6.07e-01	0	56	0	101711872	50	5023
2026-01-06 11:10:36.08	132.09	23.05	-40.1	-42.3	21.6	6.06e-01	0	56	0	103809024	50	5000
2026-01-06 11:10:37.09	131.96	23.21	-40.1	-42.4	21.6	6.07e-01	0	56	0	105381888	50	5061
2026-01-06 11:10:38.10	131.83	23.37	-40.2	-42.5	21.5	6.05e-01	0	56	0	107479040	50	5122
2026-01-06 11:10:39.10	131.69	23.52	-40.3	-42.6	21.4	6.06e-01	0	56	0	109051904	51	4891
2026-01-06 11:10:40.11	131.56	23.68	-40.4	-42.7	21.3	6.08e-01	0	56	0	111149056	51	4962
2026-01-06 11:10:41.12	131.42	23.84	-40.5	-42.9	21.1	6.07e-01	0	56	0	113246208	51	5060
2026-01-06 11:10:42.13	131.28	24.00	-40.6	-43.0	21.0	6.08e-01	0	56	0	114819072	51	5111
2026-01-06 11:10:43.14	131.14	24.16	-40.6	-43.1	20.9	6.06e-01	0	56	0	116916224	51	5173
2026-01-06 11:10:44.15	131.00	24.33	-40.5	-42.8	21.2	6.07e-01	0	56	0	119013376	51	5035
2026-01-06 11:10:45.16	130.86	24.49	-40.3	-42.6	21.4	6.08e-01	0	56	0	120586240	51	4916
2026-01-06 11:10:46.17	130.71	24.65	-40.2	-42.5	21.5	6.04e-01	0	56	0	122683392	51	4819
2026-01-06 11:10:47.18	130.57	24.82	-40.1	-42.3	21.7	6.07e-01	0	56	0	124256256	51	4732
2026-01-06 11:10:48.19	130.42	24.99	-40.0	-42.2	21.9	6.05e-01	0	56	0	126353408	51	4658
2026-01-06 11:10:49.20	130.27	25.15	-40.1	-42.3	21.7	6.08e-01	0	56	0	128450560	51	4712
2026-01-06 11:10:50.21	130.12	25.32	-39.9	-42.1	21.9	6.05e-01	0	56	0	130023424	51	4604
2026-01-06 11:10:51.22	129.96	25.49	-40.0	-42.1	21.9	6.07e-01	0	56	0	132120576	51	4645
2026-01-06 11:10:52.23	129.81	25.66	-40.1	-42.3	21.7	6.06e-01	0	56	0	134217728	51	4746
2026-01-06 11:10:53.24	129.65	25.83	-40.3	-42.5	21.5	6.04e-01	0	56	0	135790592	51	4862
2026-01-06 11:10:54.25	129.49	26.00	-40.3	-42.7	21.3	6.06e-01	0	56	0	137887744	51	4938
2026-01-06 11:10:55.26	129.33	26.18	-40.5	-42.9	21.2	6.09e-01	0	56	0	139460608	51	5050
2026-01-06 11:10:56.27	129.17	26.35	-40.3	-42.6	21.4	6.07e-01	0	56	0	141557760	51	4907
2026-01-06 11:10:57.28	129.01	26.53	-40.0	-42.2	21.8	6.05e-01	0	56	0	143654912	51	4692
2026-01-06 11:10:58.29	128.84	26.70	-39.9	-42.0	22.0	6.06e-01	0	56	0	145227776	51	4587
2026-01-06 11:10:59.30	128.67	26.88	-39.9	-42.1	21.9	6.06e-01	0	56	0	147324928	51	4603
2026-01-06 11:11:00.31	128.50	27.06	-39.8	-41.9	22.1	6.06e-01	0	56	0	148897792	51	4521
2026-01-06 11:11:01.32	128.33	27.23	-39.9	-42.0	22.0	6.08e-01	0	56	0	150994944	51	4579
2026-01-06 11:11:02.33	128.16	27.41	-40.0	-42.1	21.9	6.07e-01	0	56	0	153092096	51	4645
2026-01-06 11:11:03.34	127.98	27.59	-39.9	-42.1	22.0	6.03e-01	0	56	0	154664960	51	4617
2026-01-06 11:11:04.35	127.80	27.78	-39.9	-42.0	22.0	6.05e-01	0	56	0	156762112	51	4595
2026-01-06 11:11:05.36	127.62	27.96	-39.6	-41.7	22.4	6.06e-01	0	56	0	158334976	51	4407
2026-01-06 11:11:06.37	127.44	28.14	-39.6	-41.6	22.4	6.05e-01	0	56	0	160432128	51	4381
2026-01-06 11:11:07.38	127.25	28.33	-39.5	-41.6	22.5	6.08e-01	0	56	0	162529280	51	4358
2026-01-06 11:11:08.39	127.07	28.51	-39.6	-41.6	22.4	6.05e-01	0	56	0	164102144	51	4380
2026-01-06 11:11:09.40	126.88	28.70	-39.5	-41.6	22.5	6.05e-01	0	56	0	166199296	51	4349
2026-01-06 11:11:10.41	126.69	28.89	-39.6	-41.6	22.5	6.06e-01	0	56	0	168296448	51	4370
2026-01-06 11:11:11.42	126.49	29.08	-39.6	-41.6	22.4	6.09e-01	0	56	0	169869312	51	4390
2026-01-06 11:11:12.43	126.30	29.27	-39.6	-41.7	22.4	6.08e-01	0	56	0	171966464	51	4415
2026-01-06 11:11:13.44	126.10	29.46	-39.5	-41.5	22.5	6.08e-01	0	56	0	173539328	51	4337
2026-01-06 11:11:14.45	125.90	29.65	-39.5	-41.5	22.6	6.07e-01	0	56	0	175636480	50	4552
2026-01-06 11:11:15.46	125.69	29.84	-39.4	-41.4	22.6	6.05e-01	0	56	0	177209344	50	4529
2026-01-06 11:11:16.46	125.49	30.03	-39.5	-41.5	22.6	6.05e-01	0	56	0	179306496	50	4562
2026-01-06 11:11:17.48	125.28	30.23	-39.5	-41.5	22.5	6.06e-01	0	56	0	181403648	50	4598
2026-01-06 11:11:18.49	125.07	30.42	-39.5	-41.6	22.5	6.06e-01	0	56	0	182976512	50	4611
2026-01-06 11:11:19.50	124.85	30.62	-39.5	-41.6	22.5	6.07e-01	0	56	0	185073664	50	4607
2026-01-06 11:11:20.50	124.64	30.82	-39.3	-41.3	22.8	6.06e-01	0	56	0	187170816	50	4472
2026-01-06 11:11:21.51	124.42	31.02	-39.2	-41.1	22.9	6.06e-01	0	56	0	188743680	50	4388
2026-01-06 11:11:22.52	124.19	31.21	-39.2	-41.2	22.9	6.06e-01	0	56	0	190840832	50	4421
2026-01-06 11:11:23.53	123.97	31.42	-39.4	-41.4	22.6	6.06e-01	0	56	0	192413696	50	4540
2026-01-06 11:11:24.55	123.74	31.62	-39.6	-41.7	22.4	6.06e-01	0	56	0	194510848	50	4686
2026-01-06 11:11:25.55	123.51	31.82	-39.8	-41.9	22.2	6.05e-01	0	56	0	196608000	50	4785
2026-01-06 11:11:26.56	123.27	32.02	-39.8	-41.9	22.2	6.05e-01	0	56	0	198180864	50	4771
2026-01-06 11:11:27.58	123.03	32.23	-39.7	-41.8	22.3	6.06e-01	0	56	0	200278016	50	4738
2026-01-06 11:11:28.58	122.80	32.43	-39.7	-41.8	22.4	6.08e-01	0	56	0	202375168	50	4715
2026-01-06 11:11:29.60	122.55	32.64	-39.5	-41.5	22.6	6.09e-01	0	56	0	203948032	50	4583
2026-01-06 11:11:30.61	122.30	32.85	-39.5	-41.5	22.6	6.05e-01	0	56	0	206045184	50	4580
2026-01-06 11:11:31.62	122.05	33.06	-39.8	-41.8	22.3	6.04e-01	0	56	0	207618048	50	4752
2026-01-06 11:11:32.62	121.80	33.26	-40.0	-42.1	22.0	6.08e-01	0	56	0	209715200	50	4924
2026-01-06 11:11:33.63	121.54	33.47	-39.9	-42.0	22.1	6.08e-01	0	56	0	211812352	50	4849
2026-01-06 11:11:34.64	121.28	33.68	-39.8	-41.8	22.3	6.06e-01	0	56	0	213385216	50	4756
2026-01-06 11:11:35.65	121.02	33.90	-39.7	-41.8	22.3	6.06e-01	0	56	0	215482368	50	4730
2026-01-06 11:11:36.66	120.75	34.11	-39.8	-41.9	22.3	6.06e-01	0	56	0	217055232	50	4760
2026-01-06 11:11:37.67	120.48	34.32	-39.9	-42.0	22.2	6.06e-01	0	56	0	219152384	50	4831
2026-01-06 11:11:38.68	120.21	34.54	-40.0	-42.1	22.0	6.07e-01	0	56	0	221249536	50	4923
2026-01-06 11:11:39.69	119.93	34.75	-40.0	-42.2	22.0	6.05e-01	0	56	0	222822400	50	4943
2026-01-06 11:11:40.70	119.64	34.97	-40.2	-42.4	21.8	6.06e-01	0	56	0	224919552	50	5060
2026-01-06 11:11:41.71	119.36	35.18	-40.3	-42.6	21.6	6.07e-01	0	56	0	226492416	51	4882
2026-01-06 11:11:42.72	119.07	35.40	-40.4	-42.7	21.5	6.05e-01	0	56	0	228589568	51	4948
2026-01-06 11:11:43.73	118.77	35.62	-40.5	-42.8	21.3	6.07e-01	0	56	0	230686720	51	5032
2026-01-06 11:11:44.74	118.48	35.84	-40.6	-42.9	21.2	6.06e-01	0	56	0	232259584	51	5091
2026-01-06 11:11:45.75	118.17	36.06	-40.5	-42.8	21.3	6.06e-01	0	56	0	234356736	51	5041
2026-01-06 11:11:46.76	117.87	36.28	-40.4	-42.7	21.4	6.03e-01	0	56	0	235929600	51	4975
2026-01-06 11:11:47.77	117.55	36.50	-40.6	-42.9	21.3	6.07e-01	0	56	0	238026752	51	5065
2026-01-06 11:11:48.78	117.24	36.72	-40.7	-43.2	21.0	6.08e-01	0	56	0	240123904	52	4939
2026-01-06 11:11:49.79	116.92	36.94	-41.1	-43.7	20.4	6.08e-01	0	56	0	241696768	52	5269
2026-01-06 11:11:50.80	116.59	37.17	-41.1	-43.6	19.5	6.06e-01	0	56	0	243793920	52	5200
2026-01-06 11:11:51.81	116.26	37.39	-40.7	-43.2	20.9	6.07e-01	0	56	0	245366784	52	4942
2026-01-06 11:11:52.82	115.93	37.61	-40.7	-43.1	21.1	6.06e-01	0	56	0	247463936	52	4875
2026-01-06 11:11:53.83	115.59	37.84	-40.7	-43.1	21.0	6.06e-01	0	56	0	249561088	52	4890
2026-01-06 11:11:54.84	115.25	38.06	-41.0	-43.5	20.7	6.07e-01	0	56	0	251133952	52	5133
2026-01-06 11:11:55.85	114.90	38.29	-41.2	-43.9	20.3	6.05e-01	0	56	0	253231104	53	5067
2026-01-06 11:11:56.86	114.55	38.51	-41.2	-43.8	20.4	6.07e-01	0	56	0	255328256	53	4984
2026-01-06 11:11:57.86	114.19	38.74	-40.9	-43.3	20.8	6.07e-01	0	56	0	256901120	53	4742
2026-01-06 11:11:58.88	113.83	38.96	-40.8	-43.3	20.9	6.08e-01	0	56	0	258998272	53	4707
2026-01-06 11:11:59.89	113.46	39.19	-40.7	-43.1	21.0	6.07e-01	0	56	0	260571136	53	4645
2026-01-06 11:12:00.86	113.10	39.41	-40.9	-43.5	20.7	6.05e-01	0	56	0	262668288	53	4818
2026-01-06 11:12:01.87	112.72	39.63	-41.3	-43.9	20.3	6.05e-01	0	56	0	264765440	53	5068
2026-01-06 11:12:02.88	112.33	39.86	-41.1	-43.6	20.5	6.06e-01	0	56	0	266338304	53	4893
2026-01-06 11:12:03.89	111.94	40.09	-40.8	-43.2	20.9	6.06e-01	0	56	0	268435456	53	4668
2026-01-06 11:12:04.90	111.55	40.32	-40.7	-43.1	21.1	6.07e-01	0	56	0	270008320	53	4612
2026-01-06 11:12:05.91	111.15	40.54	-40.7	-43.1	21.0	6.06e-01	0	56	0	272105472	53	4635
2026-01-06 11:12:06.92	110.74	40.77	-40.9	-43.4	20.8	6.07e-01	0	56	0	274202624	53	4810
2026-01-06 11:12:07.93	110.33	41.00	-41.1	-43.7	20.5	6.06e-01	0	56	0	275775488	53	4943
2026-01-06 11:12:08.94	109.91	41.22	-40.9	-43.3	20.8	6.07e-01	0	56	0	277872640	53	4737
2026-01-06 11:12:09.95	109.48	41.45	-40.7	-43.0	21.1	6.06e-01	0	56	0	279445504	53	4588
2026-01-06 11:12:10.96	109.05	41.68	-40.8	-43.3	20.9	6.06e-01	0	56	0	281542656	53	4722
2026-01-06 11:12:11.97	108.61	41.90	-41.0	-43.5	20.7	6.07e-01	0	56	0	283639808	53	4845
2026-01-06 11:12:12.98	108.17	42.13	-41.2	-43.8	20.4	6.08e-01	0	56	0	285212672	53	4995
2026-01-06 11:12:13.99	107.72	42.35	-40.6	-42.9	21.2	6.08e-01	0	56	0	287309824	53	4530
2026-01-06 11:12:15.00	107.26	42.58	-40.3	-42.5	21.6	6.07e-01	0	56	0	288882688	52	4597
2026-01-06 11:12:16.01	106.80	42.80	-40.4	-42.7	21.5	6.08e-01	0	56	0	290979840	52	4696
2026-01-06 11:12:17.02	106.33	43.02	-40.7	-43.1	21.1	6.04e-01	0	56	0	293076992	52	4892
2026-01-06 11:12:18.03	105.85	43.24	-40.6	-42.9	21.3	6.07e-01	0	56	0	294649856	52	4779
2026-01-06 11:12:19.04	105.37	43.46	-40.6	-42.9	21.3	6.06e-01	0	56	0	296747008	52	4778
2026-01-06 11:12:20.05	104.88	43.68	-40.3	-42.6	21.5	6.06e-01	0	56	0	298844160	52	4626
2026-01-06 11:12:21.06	104.38	43.90	-40.4	-42.6	21.6	6.06e-01	0	56	0	300417024	52	4649
2026-01-06 11:12:22.07	103.88	44.12	-40.4	-42.6	21.5	6.08e-01	0	56	0	302514176	52	4636
2026-01-06 11:12:23.08	103.37	44.34	-40.8	-43.2	21.0	6.06e-01	0	56	0	304087040	52	4949
2026-01-06 11:12:24.09	102.85	44.55	-40.6	-42.9	21.2	6.07e-01	0	56	0	306184192	52	4811
2026-01-06 11:12:25.10	102.33	44.77	-40.6	-42.9	21.3	6.06e-01	0	56	0	308281344	52	4796
2026-01-06 11:12:26.11	101.79	44.98	-40.7	-43.1	21.1	6.06e-01	0	56	0	309854208	52	4915
2026-01-06 11:12:27.12	101.25	45.19	-40.9	-43.3	20.9	6.09e-01	0	56	0	311951360	52	5037
2026-01-06 11:12:28.13	100.71	45.40	-41.0	-43.5	20.7	6.07e-01	0	56	0	313524224	52	5128
2026-01-06 11:12:29.14	100.15	45.61	-40.6	-43.0	21.2	6.07e-01	0	56	0	315621376	52	4825
2026-01-06 11:12:30.15	99.59	45.81	-40.8	-43.2	21.0	6.04e-01	0	56	0	317718528	52	4974
2026-01-06 11:12:31.16	99.02	46.02	-41.2	-43.7	20.5	6.06e-01	0	56	0	319291392	52	5279
2026-01-06 11:12:32.17	98.45	46.22	-40.8	-43.2	21.0	6.06e-01	0	56	0	321388544	52	4960
2026-01-06 11:12:33.18	97.86	46.42	-40.6	-43.0	21.2	6.08e-01	0	56	0	323485696	52	4837
2026-01-06 11:12:34.19	97.27	46.62	-40.7	-43.0	21.2	6.05e-01	0	56	0	325058560	52	4859
2026-01-06 11:12:35.20	96.67	46.81	-41.1	-43.6	20.7	6.05e-01	0	56	0	327155712	52	5175
2026-01-06 11:12:36.21	96.06	47.00	-40.9	-43.4	20.9	6.06e-01	0	56	0	328728576	52	5043
2026-01-06 11:12:37.21	95.46	47.19	-41.1	-43.7	20.6	6.08e-01	0	56	0	330825728	52	5227
2026-01-06 11:12:38.22	94.83	47.38	-41.0	-43.4	20.8	6.06e-01	0	56	0	332922880	52	5080
2026-01-06 11:12:39.23	94.20	47.56	-41.1	-43.6	20.6	6.07e-01	0	56	0	334495744	52	5213
2026-01-06 11:12:40.24	93.57	47.74	-40.7	-43.1	21.1	6.06e-01	0	56	0	336592896	52	4893
2026-01-06 11:12:41.25	92.92	47.92	-40.6	-42.9	21.3	6.08e-01	0	56	0	338165760	52	4791
2026-01-06 11:12:42.26	92.27	48.10	-41.0	-43.4	20.8	6.05e-01	0	56	0	340262912	52	5084
2026-01-06 11:12:43.27	91.61	48.27	-40.8	-43.2	21.0	6.07e-01	0	56	0	342360064	52	4977
2026-01-06 11:12:44.28	90.95	48.44	-40.4	-42.7	21.5	6.05e-01	0	56	0	343932928	52	4673
2026-01-06 11:12:45.29	90.27	48.60	-40.9	-43.4	21.0	6.04e-01	0	56	0	346030080	52	5046
2026-01-06 11:12:46.30	89.59	48.76	-40.9	-43.4	20.8	6.07e-01	0	56	0	347602944	52	5050
2026-01-06 11:12:47.31	88.90	48.92	-40.6	-42.9	21.4	6.06e-01	0	56	0	349700096	52	4770
2026-01-06 11:12:48.32	88.21	49.07	-40.5	-42.8	21.5	6.05e-01	0	56	0	351797248	52	4715
2026-01-06 11:12:49.33	87.50	49.22	-40.7	-43.0	21.3	6.06e-01	0	56	0	353370112	52	4845
2026-01-06 11:12:50.34	86.79	49.37	-40.8	-43.2	21.1	6.07e-01	0	56	0	355467264	52	4953
2026-01-06 11:12:51.35	86.08	49.51	-40.6	-42.9	21.3	6.06e-01	0	56	0	357040128	52	4760
2026-01-06 11:12:52.36	85.36	49.64	-40.2	-42.4	21.9	6.08e-01	0	56	0	359137280	52	4509
2026-01-06 11:12:53.37	84.63	49.78	-40.8	-43.2	21.1	6.06e-01	0	56	0	361234432	52	4961
2026-01-06 11:12:54.38	83.89	49.90	-40.5	-42.8	21.5	6.06e-01	0	56	0	362807296	52	4706
2026-01-06 11:12:55.39	83.15	50.03	-40.5	-42.8	21.5	6.08e-01	0	56	0	364904448	52	4727
2026-01-06 11:12:56.40	82.40	50.15	-40.6	-42.9	21.3	6.05e-01	0	56	0	367001600	52	4809
2026-01-06 11:12:57.41	81.65	50.26	-40.5	-42.8	21.4	6.06e-01	0	56	0	368574464	52	4751
2026-01-06 11:12:58.42	80.89	50.37	-40.6	-42.9	21.3	6.08e-01	0	56	0	370671616	52	4812
2026-01-06 11:12:59.44	80.12	50.47	-40.4	-42.6	21.7	6.07e-01	0	56	0	372244480	52	4612
2026-01-06 11:13:00.44	79.36	50.57	-40.4	-42.7	21.6	6.08e-01	0	56	0	374341632	52	4678
2026-01-06 11:13:01.45	78.58	50.66	-40.7	-43.0	21.3	6.05e-01	0	56	0	376438784	52	4843
2026-01-06 11:13:02.46	77.80	50.75	-40.3	-42.5	21.7	6.05e-01	0	56	0	378011648	52	4593
2026-01-06 11:13:03.47	77.02	50.83	-40.1	-42.3	22.0	6.05e-01	0	56	0	380108800	52	4468
2026-01-06 11:13:04.48	76.23	50.91	-40.4	-42.6	21.8	6.06e-01	0	56	0	381681664	52	4619
2026-01-06 11:13:05.49	75.44	50.98	-40.4	-42.7	21.7	6.08e-01	0	56	0	383778816	52	4657
2026-01-06 11:13:06.50	74.65	51.04	-40.4	-42.6	21.7	6.07e-01	0	56	0	385875968	52	4643
2026-01-06 11:13:07.51	73.85	51.10	-40.5	-42.7	21.6	6.05e-01	0	56	0	387448832	52	4703
2026-01-06 11:13:08.52	73.05	51.16	-40.5	-42.7	21.6	6.06e-01	0	56	0	389545984	52	4685
2026-01-06 11:13:09.53	72.24	51.21	-40.5	-42.8	21.5	6.05e-01	0	56	0	391643136	52	4722
2026-01-06 11:13:10.54	71.44	51.25	-40.5	-42.8	21.6	6.05e-01	0	56	0	393216000	52	4707
2026-01-06 11:13:11.55	70.63	51.28	-40.2	-42.4	21.9	6.06e-01	0	56	0	395313152	52	4526
2026-01-06 11:13:12.56	69.82	51.32	-40.2	-42.3	22.0	6.07e-01	0	56	0	396886016	52	4482
2026-01-06 11:13:13.57	69.00	51.34	-40.2	-42.4	21.9	6.08e-01	0	56	0	398983168	52	4527
2026-01-06 11:13:14.58	68.19	51.36	-40.0	-42.2	22.1	6.06e-01	0	56	0	401080320	52	4396
2026-01-06 11:13:15.59	67.38	51.37	-39.9	-42.0	22.3	6.06e-01	0	56	0	402653184	51	4555
2026-01-06 11:13:16.60	66.56	51.38	-40.3	-42.5	21.9	6.06e-01	0	56	0	404750336	51	4841
2026-01-06 11:13:17.61	65.75	51.38	-40.2	-42.3	22.0	6.07e-01	0	56	0	406323200	51	4759
2026-01-06 11:13:18.62	64.93	51.37	-40.0	-42.1	22.3	6.07e-01	0	56	0	408420352	51	4606
2026-01-06 11:13:19.63	64.12	51.36	-40.3	-42.4	21.9	6.06e-01	0	56	0	410517504	51	4798
2026-01-06 11:13:20.65	63.30	51.34	-40.0	-42.1	22.3	6.07e-01	0	56	0	412090368	51	4611
2026-01-06 11:13:21.66	62.48	51.32	-40.3	-42.5	21.9	6.05e-01	0	56	0	414187520	51	4817
2026-01-06 11:13:22.67	61.67	51.29	-40.4	-42.6	21.8	6.06e-01	0	56	0	416284672	51	4883
2026-01-06 11:13:23.68	60.87	51.26	-40.4	-42.6	21.8	6.06e-01	0	56	0	417857536	51	4893
2026-01-06 11:13:24.69	60.06	51.22	-40.6	-42.8	21.6	6.09e-01	0	56	0	419954688	51	5013
2026-01-06 11:13:25.70	59.25	51.17	-40.2	-42.3	22.1	6.06e-01	0	56	0	421527552	51	4728
2026-01-06 11:13:26.71	58.45	51.12	-40.2	-42.3	22.1	6.04e-01	0	56	0	423624704	51	4741
2026-01-06 11:13:27.71	57.66	51.06	-39.9	-42.0	22.4	6.07e-01	0	56	0	425721856	51	4581
2026-01-06 11:13:28.73	56.86	50.99	-40.2	-42.4	22.1	6.06e-01	0	56	0	427294720	51	4761
2026-01-06 11:13:29.74	56.07	50.92	-40.0	-42.1	22.3	6.08e-01	0	56	0	429391872	51	4605
2026-01-06 11:13:30.75	55.28	50.85	-39.8	-41.9	22.5	6.07e-01	0	56	0	430964736	51	4516
2026-01-06 11:13:31.76	54.50	50.77	-39.9	-41.9	22.4	6.06e-01	0	56	0	433061888	51	4517
2026-01-06 11:13:32.76	53.72	50.68	-40.1	-42.2	22.1	6.09e-01	0	56	0	435159040	51	4694
2026-01-06 11:13:33.77	52.95	50.59	-39.8	-41.8	22.5	6.07e-01	0	56	0	436731904	51	4477
2026-01-06 11:13:34.78	52.18	50.49	-39.8	-41.9	22.4	6.04e-01	0	56	0	438829056	51	4506
2026-01-06 11:13:35.79	51.42	50.39	-40.3	-42.5	21.8	6.06e-01	0	56	0	440401920	51	4822
2026-01-06 11:13:36.80	50.66	50.28	-40.0	-42.2	22.1	6.07e-01	0	56	0	442499072	51	4657
2026-01-06 11:13:37.81	49.90	50.17	-39.6	-41.6	22.6	6.05e-01	0	56	0	444596224	51	4374
2026-01-06 11:13:38.82	49.16	50.05	-39.8	-41.8	22.4	6.06e-01	0	56	0	446169088	51	4450
2026-01-06 11:13:39.83	48.41	49.93	-40.0	-42.2	22.1	6.05e-01	0	56	0	448266240	51	4662
2026-01-06 11:13:40.84	47.68	49.81	-40.1	-42.2	22.0	6.05e-01	0	56	0	449839104	51	4670
2026-01-06 11:13:41.85	46.95	49.68	-39.9	-42.0	22.2	6.06e-01	0	56	0	451936256	51	4557
2026-01-06 11:13:42.86	46.23	49.54	-40.0	-42.0	22.2	6.07e-01	0	56	0	454033408	51	4591
2026-01-06 11:13:43.87	45.51	49.40	-40.3	-42.4	21.8	6.07e-01	0	56	0	455606272	51	4812
2026-01-06 11:13:44.88	44.80	49.26	-40.0	-42.1	22.1	6.05e-01	0	56	0	457703424	51	4615
2026-01-06 11:13:45.89	44.10	49.11	-39.8	-41.9	22.4	6.08e-01	0	56	0	459800576	51	4497
2026-01-06 11:13:46.90	43.40	48.96	-39.9	-41.9	22.2	6.06e-01	0	56	0	461373440	51	4545
2026-01-06 11:13:47.91	42.71	48.80	-40.0	-42.1	22.2	6.05e-01	0	56	0	463470592	51	4624
2026-01-06 11:13:48.92	42.03	48.64	-39.9	-42.0	22.2	6.08e-01	0	56	0	465043456	51	4590
2026-01-06 11:13:49.93	41.36	48.48	-39.7	-41.8	22.5	6.08e-01	0	56	0	467140608	51	4442
2026-01-06 11:13:50.94	40.69	48.31	-40.0	-42.2	22.1	6.08e-01	0	56	0	469237760	51	4654
2026-01-06 11:13:51.95	40.03	48.14	-40.2	-42.4	21.8	6.05e-01	0	56	0	470810624	51	4772
2026-01-06 11:13:52.96	39.38	47.97	-39.7	-41.7	22.5	6.07e-01	0	56	0	472907776	51	4410
2026-01-06 11:13:53.97	38.73	47.79	-39.6	-41.5	22.7	6.06e-01	0	56	0	474480640	51	4331
2026-01-06 11:13:54.98	38.10	47.61	-39.7	-41.8	22.5	6.06e-01	0	56	0	476577792	51	4447
2026-01-06 11:13:55.99	37.47	47.43	-40.0	-42.1	22.1	6.08e-01	0	56	0	478674944	51	4627
2026-01-06 11:13:57.00	36.84	47.24	-39.6	-41.6	22.5	6.06e-01	0	56	0	480247808	51	4364
2026-01-06 11:13:58.01	36.23	47.05	-39.5	-41.5	22.7	6.07e-01	0	56	0	482344960	51	4311
2026-01-06 11:13:59.02	35.62	46.86	-39.6	-41.6	22.6	6.08e-01	0	56	0	484442112	51	4346
2026-01-06 11:14:00.03	35.02	46.67	-39.7	-41.7	22.5	6.06e-01	0	56	0	486014976	51	4405
2026-01-06 11:14:01.03	34.44	46.47	-39.7	-41.8	22.3	6.07e-01	0	56	0	488112128	51	4457
2026-01-06 11:14:02.04	33.85	46.28	-39.6	-41.6	22.5	6.08e-01	0	56	0	489684992	51	4370
2026-01-06 11:14:03.05	33.28	46.07	-39.6	-41.6	22.5	6.07e-01	0	56	0	491782144	51	4359
2026-01-06 11:14:04.07	32.70	45.87	-39.7	-41.8	22.3	6.04e-01	0	56	0	493879296	51	4443
2026-01-06 11:14:05.07	32.14	45.67	-39.8	-41.9	22.2	6.07e-01	0	56	0	495452160	51	4505
2026-01-06 11:14:06.08	31.59	45.46	-39.8	-41.9	22.2	6.06e-01	0	56	0	497549312	51	4523
2026-01-06 11:14:07.09	31.04	45.25	-39.8	-41.8	22.3	6.03e-01	0	56	0	499122176	51	4464
2026-01-06 11:14:08.10	30.50	45.04	-39.9	-42.0	22.1	6.05e-01	0	56	0	501219328	51	4555
2026-01-06 11:14:09.11	29.97	44.83	-39.8	-41.9	22.2	6.06e-01	0	56	0	502792192	51	4518
2026-01-06 11:14:10.12	29.45	44.62	-39.8	-41.9	22.2	6.04e-01	0	56	0	504889344	51	4524
2026-01-06 11:14:11.13	28.93	44.40	-39.6	-41.7	22.4	6.07e-01	0	56	0	506986496	51	4397
2026-01-06 11:14:12.14	28.42	44.19	-39.5	-41.4	22.5	6.05e-01	0	56	0	508559360	50	4545
2026-01-06 11:14:13.15	27.91	43.97	-39.6	-41.6	22.3	6.06e-01	0	56	0	510656512	50	4632
2026-01-06 11:14:14.16	27.41	43.75	-39.7	-41.7	22.2	6.06e-01	0	56	0	512753664	50	4689
2026-01-06 11:14:15.17	26.92	43.53	-39.6	-41.6	22.3	6.06e-01	0	56	0	514326528	50	4647
2026-01-06 11:14:16.18	26.44	43.31	-39.8	-41.9	22.0	6.06e-01	0	56	0	516423680	50	4787
2026-01-06 11:14:17.19	25.96	43.09	-39.7	-41.8	22.1	6.04e-01	0	56	0	517996544	50	4736
2026-01-06 11:14:18.20	25.49	42.87	-39.7	-41.8	22.1	6.07e-01	0	56	0	520093696	50	4719
2026-01-06 11:14:19.21	25.03	42.65	-39.9	-42.1	21.8	6.06e-01	0	56	0	522190848	50	4893
2026-01-06 11:14:20.22	24.57	42.43	-40.2	-42.4	21.5	6.06e-01	0	56	0	523763712	50	5061
2026-01-06 11:14:21.23	24.12	42.20	-40.2	-42.5	21.4	6.06e-01	0	56	0	525860864	51	4833
2026-01-06 11:14:22.23	23.68	41.98	-40.3	-42.5	21.4	6.05e-01	0	56	0	527958016	51	4848
2026-01-06 11:14:23.24	23.25	41.76	-40.2	-42.5	21.4	6.05e-01	0	56	0	529530880	51	4820
2026-01-06 11:14:24.25	22.82	41.53	-40.4	-42.7	21.2	6.05e-01	0	56	0	531628032	51	4937
2026-01-06 11:14:25.26	22.39	41.31	-40.4	-42.7	21.1	6.06e-01	0	56	0	533200896	51	4981
2026-01-06 11:14:26.27	21.97	41.08	-40.6	-43.0	20.9	6.05e-01	0	56	0	535298048	51	5140
2026-01-06 11:14:27.28	21.56	40.85	-40.7	-43.1	20.7	6.07e-01	0	56	0	537395200	52	4917
2026-01-06 11:14:28.29	21.15	40.63	-40.5	-42.9	20.9	6.06e-01	0	56	0	538968064	52	4795
2026-01-06 11:14:29.30	20.75	40.40	-40.4	-42.8	21.0	6.08e-01	0	56	0	541065216	52	4717
2026-01-06 11:14:30.31	20.35	40.18	-40.7	-43.2	20.7	6.08e-01	0	56	0	542638080	52	4955
2026-01-06 11:14:31.32	19.96	39.95	-41.2	-43.9	20.0	6.06e-01	0	56	0	544735232	52	5342
2026-01-06 11:14:32.32	19.58	39.73	-40.9	-43.5	20.3	6.08e-01	0	56	0	546832384	53	4836
2026-01-06 11:14:33.34	19.20	39.50	-40.8	-43.3	20.6	6.06e-01	0	56	0	548405248	53	4731
2026-01-06 11:14:34.35	18.82	39.27	-41.1	-43.7	20.2	6.08e-01	0	56	0	550502400	53	4931
2026-01-06 11:14:35.36	18.46	39.05	-40.9	-43.5	20.4	6.07e-01	0	56	0	552075264	53	4820
2026-01-06 11:14:36.36	18.10	38.82	-40.9	-43.4	20.4	6.08e-01	0	56	0	554172416	53	4797
2026-01-06 11:14:37.37	17.74	38.60	-41.2	-43.8	20.2	6.07e-01	0	56	0	556269568	53	5008
2026-01-06 11:14:38.38	17.38	38.38	-41.1	-43.7	20.4	6.05e-01	0	56	0	557842432	53	4929
2026-01-06 11:14:39.39	17.04	38.15	-40.8	-43.2	20.8	6.08e-01	0	56	0	559939584	53	4689
2026-01-06 11:14:40.40	16.69	37.93	-40.9	-43.5	20.6	6.07e-01	0	56	0	561512448	53	4820
2026-01-06 11:14:41.41	16.35	37.70	-41.3	-43.9	20.1	6.03e-01	0	56	0	563609600	53	5091
2026-01-06 11:14:42.42	16.02	37.48	-41.1	-43.6	20.4	6.08e-01	0	56	0	565706752	53	4908
2026-01-06 11:14:43.43	15.69	37.26	-40.9	-43.4	20.7	6.07e-01	0	56	0	567279616	53	4781
2026-01-06 11:14:44.44	15.37	37.04	-41.1	-43.7	20.3	6.06e-01	0	56	0	569376768	53	4982
2026-01-06 11:14:45.45	15.05	36.82	-41.3	-44.0	20.0	6.07e-01	0	56	0	570949632	53	5157
2026-01-06 11:14:46.46	14.73	36.59	-40.8	-43.3	20.7	6.06e-01	0	56	0	573046784	53	4748
2026-01-06 11:14:47.47	14.42	36.37	-40.6	-42.9	21.1	6.05e-01	0	56	0	575143936	53	4544
2026-01-06 11:14:48.48	14.11	36.16	-40.9	-43.4	20.7	6.06e-01	0	56	0	576716800	53	4800
2026-01-06 11:14:49.49	13.81	35.94	-40.7	-43.1	20.9	6.05e-01	0	56	0	578813952	53	4637
2026-01-06 11:14:50.50	13.51	35.72	-40.2	-42.4	21.6	6.05e-01	0	56	0	580911104	52	4520
2026-01-06 11:14:51.51	13.22	35.50	-40.2	-42.5	21.6	6.07e-01	0	56	0	582483968	52	4564
2026-01-06 11:14:52.52	12.93	35.28	-40.6	-43.0	21.0	6.09e-01	0	56	0	584581120	52	4852
2026-01-06 11:14:53.53	12.64	35.07	-40.4	-42.7	21.3	6.07e-01	0	56	0	586153984	52	4666
2026-01-06 11:14:54.54	12.36	34.85	-40.0	-42.2	21.9	6.06e-01	0	56	0	588251136	51	4660
2026-01-06 11:14:55.55	12.08	34.64	-40.1	-42.2	21.8	6.09e-01	0	56	0	590348288	51	4692
2026-01-06 11:14:56.56	11.81	34.43	-40.6	-42.9	21.2	6.06e-01	0	56	0	591921152	51	5081
2026-01-06 11:14:57.56	11.54	34.22	-40.4	-42.7	21.3	6.07e-01	0	56	0	594018304	51	4957
2026-01-06 11:14:58.57	11.27	34.00	-39.9	-42.1	21.9	6.06e-01	0	56	0	596115456	51	4609
2026-01-06 11:14:59.58	11.01	33.79	-39.6	-41.7	22.2	6.06e-01	0	56	0	597688320	51	4411
2026-01-06 11:15:00.59	10.74	33.58	-39.7	-41.7	22.2	6.07e-01	0	56	0	599785472	51	4437
2026-01-06 11:15:01.60	10.49	33.37	-39.7	-41.8	22.2	6.06e-01	0	56	0	601358336	51	4473
2026-01-06 11:15:02.61	10.23	33.16	-39.6	-41.7	22.0	6.04e-01	0	56	0	603455488	51	4398
2026-01-06 11:15:03.62	9.98	32.96	-39.6	-41.6	22.3	6.07e-01	0	56	0	605552640	51	4365
2026-01-06 11:15:04.63	9.74	32.75	-39.7	-41.8	22.2	6.05e-01	0	56	0	607125504	51	4476
2026-01-06 11:15:05.64	9.49	32.55	-39.8	-41.9	22.1	6.07e-01	0	56	0	609222656	51	4509
2026-01-06 11:15:06.65	9.25	32.34	-39.6	-41.6	22.3	6.06e-01	0	56	0	610795520	51	4375
2026-01-06 11:15:07.66	9.02	32.14	-39.4	-41.4	22.6	6.06e-01	0	56	0	612892672	50	4502
2026-01-06 11:15:08.67	8.78	31.93	-39.4	-41.4	22.6	6.06e-01	0	56	0	614989824	50	4517
2026-01-06 11:15:09.68	8.55	31.73	-39.6	-41.7	22.3	6.08e-01	0	56	0	616562688	50	4668
2026-01-06 11:15:10.69	8.32	31.53	-39.6	-41.7	22.3	6.07e-01	0	56	0	618659840	50	4653
2026-01-06 11:15:11.70	8.10	31.33	-39.3	-41.3	22.6	6.05e-01	0	56	0	620232704	50	4483
2026-01-06 11:15:12.71	7.87	31.13	-39.1	-41.0	22.9	6.06e-01	0	56	0	622329856	50	4330
2026-01-06 11:15:13.72	7.66	30.94	-39.1	-41.1	22.9	6.06e-01	0	56	0	624427008	50	4341
2026-01-06 11:15:14.73	7.44	30.74	-39.0	-40.9	23.0	6.06e-01	0	56	0	625999872	50	4270
2026-01-06 11:15:15.74	7.22	30.54	-39.3	-41.3	22.6	6.07e-01	0	56	0	628097024	50	4442
2026-01-06 11:15:16.75	7.01	30.35	-39.3	-41.4	22.5	6.05e-01	0	56	0	629669888	50	4494
2026-01-06 11:15:17.76	6.80	30.15	-39.3	-41.3	22.6	6.05e-01	0	56	0	631767040	50	4452
2026-01-06 11:15:18.77	6.60	29.96	-39.1	-41.0	22.8	6.05e-01	0	56	0	633864192	50	4331
2026-01-06 11:15:19.78	6.39	29.77	-39.1	-41.1	22.8	6.06e-01	0	56	0	635437056	50	4354
2026-01-06 11:15:20.79	6.19	29.58	-39.2	-41.2	22.6	6.06e-01	0	56	0	637534208	50	4428
2026-01-06 11:15:21.80	6.00	29.39	-39.3	-41.3	22.5	6.06e-01	0	56	0	639107072	50	4477
2026-01-06 11:15:22.81	5.80	29.20	-39.2	-41.2	22.7	6.06e-01	0	56	0	641204224	50	4423
2026-01-06 11:15:23.82	5.61	29.01	-39.1	-41.1	22.9	6.07e-01	0	56	0	643301376	50	4362
2026-01-06 11:15:24.83	5.41	28.82	-39.3	-41.2	22.7	6.05e-01	0	56	0	644874240	50	4436
2026-01-06 11:15:25.84	5.23	28.64	-39.5	-41.5	22.4	6.06e-01	0	56	0	646971392	50	4597
2026-01-06 11:15:26.85	5.04	28.45	-39.8	-42.0	22.0	6.05e-01	0	56	0	649068544	50	4837
2026-01-06 11:15:27.86	4.85	28.27	-39.9	-42.1	21.8	6.08e-01	0	56	0	650641408	50	4920
2026-01-06 11:15:28.87	4.67	28.09	-39.6	-41.7	22.2	6.02e-01	0	56	0	652738560	50	4688
2026-01-06 11:15:29.88	4.49	27.90	-39.3	-41.4	22.5	6.07e-01	0	56	0	654311424	50	4496
2026-01-06 11:15:30.89	4.31	27.72	-39.2	-41.2	22.7	6.08e-01	0	56	0	656408576	50	4420
2026-01-06 11:15:31.90	4.14	27.54	-39.3	-41.3	22.6	6.05e-01	0	56	0	658505728	50	4492
2026-01-06 11:15:32.91	3.96	27.36	-39.5	-41.6	22.4	6.06e-01	0	56	0	660078592	50	4611
2026-01-06 11:15:33.92	3.79	27.18	-39.5	-41.6	22.4	6.08e-01	0	56	0	662175744	50	4607
2026-01-06 11:15:34.93	3.62	27.01	-39.5	-41.6	22.3	6.07e-01	0	56	0	664272896	50	4613
2026-01-06 11:15:35.94	3.46	26.83	-39.6	-41.7	22.3	6.07e-01	0	56	0	665845760	50	4674
2026-01-06 11:15:36.95	3.29	26.66	-39.6	-41.8	22.2	6.06e-01	0	56	0	667942912	50	4709
2026-01-06 11:15:37.96	3.13	26.48	-39.7	-41.8	22.1	6.07e-01	0	56	0	669515776	50	4728
2026-01-06 11:15:38.97	2.96	26.31	-39.6	-41.7	22.1	6.04e-01	0	56	0	671612928	50	4699
2026-01-06 11:15:39.98	2.80	26.14	-39.5	-41.6	22.3	6.04e-01	0	56	0	673710080	50	4634
2026-01-06 11:15:40.99	2.65	25.96	-39.6	-41.6	22.3	6.02e-01	0	56	0	675282944	50	4643
2026-01-06 11:15:42.00	2.49	25.79	-39.5	-41.6	22.3	6.03e-01	0	56	0	677380096	50	4630
2026-01-06 11:15:43.00	2.34	25.63	-39.6	-41.6	22.3	6.01e-01	0	56	0	678952960	50	4645
2026-01-06 11:15:44.02	2.18	25.46	-39.7	-41.8	22.1	6.00e-01	0	56	0	681050112	50	4723
2026-01-06 11:15:45.02	2.03	25.29	-39.7	-41.9	22.0	6.03e-01	0	56	0	683147264	50	4789
2026-01-06 11:15:46.04	1.88	25.12	-39.8	-42.0	21.9	6.01e-01	0	56	0	684720128	50	4856
2026-01-06 11:15:47.04	1.74	24.96	-39.9	-42.1	21.8	6.03e-01	0	56	0	686817280	50	4893
2026-01-06 11:15:48.05	1.59	24.79	-39.8	-42.1	21.8	6.00e-01	0	56	0	688390144	50	4877
2026-01-06 11:15:49.06	1.45	24.63	-39.7	-41.9	22.0	5.99e-01	0	56	0	690487296	50	4781
2026-01-06 11:15:50.07	1.30	24.47	-39.7	-41.8	22.0	6.01e-01	0	56	0	692584448	50	4747
2026-01-06 11:15:51.08	1.16	24.30	-39.5	-41.6	22.2	5.99e-01	0	56	0	694157312	50	4642
2026-01-06 11:15:52.09	1.02	24.14	-39.5	-41.6	22.2	6.01e-01	0	56	0	696254464	50	4624
2026-01-06 11:15:53.10	0.88	23.98	-39.5	-41.7	22.2	6.03e-01	0	56	0	697827328	50	4656
2026-01-06 11:15:54.11	0.75	23.82	-39.6	-41.8	22.0	6.03e-01	0	56	0	699924480	50	4719
2026-01-06 11:15:55.12	0.61	23.66	-39.7	-41.9	21.9	6.03e-01	0	56	0	702021632	50	4765
2026-01-06 11:15:56.13	0.48	23.51	-39.7	-41.9	21.9	6.00e-01	0	56	0	703594496	50	4807
2026-01-06 11:15:57.15	0.34	23.35	-39.7	-41.9	21.8	6.00e-01	0	56	0	705691648	50	4809
2026-01-06 11:15:58.16	0.21	23.19	-39.8	-42.0	21.8	6.03e-01	0	56	0	707264512	50	4836
2026-01-06 11:15:59.16	0.08	23.04	-39.9	-42.1	21.7	6.00e-01	0	56	0	709361664	50	4909
2026-01-06 11:16:00.17	359.96	22.88	-39.9	-42.2	21.6	6.04e-01	0	56	0	711458816	50	4955
2026-01-06 11:16:01.18	359.83	22.73	-40.0	-42.4	21.4	6.03e-01	0	56	0	713031680	50	5059
2026-01-06 11:16:02.20	359.70	22.58	-40.0	-42.3	21.5	6.01e-01	0	56	0	715128832	50	4998
2026-01-06 11:16:03.20	359.58	22.43	-39.9	-42.2	21.5	6.03e-01	0	56	0	717225984	50	4954
2026-01-06 11:16:04.21	359.46	22.28	-39.9	-42.1	21.6	6.03e-01	0	56	0	718798848	50	4914
2026-01-06 11:16:05.22	359.33	22.13	-39.8	-42.0	21.7	6.01e-01	0	56	0	720896000	50	4839
2026-01-06 11:16:06.23	359.21	21.98	-39.8	-42.0	21.7	5.97e-01	0	56	0	722468864	50	4844
2026-01-06 11:16:07.24	359.10	21.83	-39.8	-42.0	21.7	6.02e-01	0	56	0	724566016	50	4834
2026-01-06 11:16:08.25	358.98	21.68	-39.7	-42.0	21.7	6.03e-01	0	56	0	726663168	50	4829
2026-01-06 11:16:09.26	358.86	21.53	-39.7	-42.0	21.7	6.02e-01	0	56	0	728236032	50	4821
2026-01-06 11:16:10.27	358.74	21.39	-39.8	-42.0	21.6	6.01e-01	0	56	0	730333184	50	4844
2026-01-06 11:16:11.28	358.63	21.24	-39.7	-41.9	21.7	6.01e-01	0	56	0	732430336	50	4802
2026-01-06 11:16:12.29	358.52	21.10	-39.7	-41.9	21.6	6.02e-01	0	56	0	734003200	50	4805
2026-01-06 11:16:13.30	358.41	20.95	-39.7	-41.9	21.6	6.03e-01	0	56	0	736100352	50	4790
2026-01-06 11:16:14.31	358.29	20.81	-39.6	-41.8	21.6	6.01e-01	0	56	0	737673216	50	4755
2026-01-06 11:16:15.32	358.18	20.67	-39.5	-41.7	21.8	6.01e-01	0	56	0	739770368	50	4691
2026-01-06 11:16:16.33	358.08	20.53	-39.5	-41.7	21.8	6.00e-01	0	56	0	741867520	50	4677
2026-01-06 11:16:17.34	357.97	20.39	-39.5	-41.8	21.7	5.99e-01	0	56	0	743440384	50	4720
2026-01-06 11:16:18.35	357.86	20.25	-39.6	-41.8	21.6	6.02e-01	0	56	0	745537536	50	4740
2026-01-06 11:16:19.35	357.76	20.11	-39.6	-41.8	21.5	6.03e-01	0	56	0	747110400	50	4747
2026-01-06 11:16:20.36	357.65	19.97	-39.6	-41.9	21.4	6.02e-01	0	56	0	749207552	50	4785
2026-01-06 11:16:21.37	357.55	19.84	-39.6	-42.0	21.3	6.03e-01	0	56	0	751304704	50	4835
2026-01-06 11:16:22.38	357.45	19.70	-39.6	-42.0	21.2	6.02e-01	0	56	0	752877568	50	4848
2026-01-06 11:16:23.39	357.35	19.56	-39.5	-41.8	21.3	6.00e-01	0	56	0	754974720	50	4751
2026-01-06 11:16:24.40	357.24	19.43	-39.3	-41.6	21.5	6.01e-01	0	56	0	756547584	50	4611
2026-01-06 11:16:25.41	357.14	19.29	-39.2	-41.5	21.5	6.01e-01	0	56	0	758644736	50	4582
2026-01-06 11:16:26.42	357.05	19.16	-39.2	-41.5	21.5	6.00e-01	0	56	0	760741888	50	4556
2026-01-06 11:16:27.43	356.95	19.03	-39.2	-41.5	21.5	6.03e-01	0	56	0	762314752	50	4551
2026-01-06 11:16:28.44	356.85	18.89	-39.3	-41.6	21.2	6.02e-01	0	56	0	764411904	50	4650
2026-01-06 11:16:29.45	356.76	18.76	-39.3	-41.7	21.0	6.01e-01	0	56	0	765984768	50	4703
2026-01-06 11:16:30.46	356.66	18.63	-39.5	-42.1	20.5	6.06e-01	0	56	0	768081920	50	4907
2026-01-06 11:16:31.47	356.57	18.50	-39.8	-42.6	19.9	6.01e-01	0	56	0	770179072	50	5175
2026-01-06 11:16:32.48	356.47	18.37	-40.0	-43.0	19.3	6.02e-01	0	56	0	771751936	50	5447
2026-01-06 11:16:33.49	356.38	18.24	-40.3	-43.5	18.5	6.00e-01	0	56	0	773849088	51	5446
2026-01-06 11:16:34.50	356.29	18.11	-40.6	-44.2	17.6	6.01e-01	0	56	0	775421952	51	5912
2026-01-06 11:16:35.51	356.20	17.98	-40.8	-44.9	16.7	6.01e-01	0	56	0	777519104	52	6044
2026-01-06 11:16:36.52	356.11	17.86	-41.1	-45.8	15.5	6.01e-01	0	56	0	779616256	52	6684
2026-01-06 11:16:37.53	356.02	17.73	-41.3	-46.8	14.4	6.02e-01	0	56	0	781189120	53	7052
2026-01-06 11:16:38.54	355.93	17.61	-41.5	-47.6	13.3	6.05e-01	0	56	0	783286272	53	7768
2026-01-06 11:16:39.55	355.85	17.48	-41.5	-48.4	12.3	6.07e-01	0	56	0	785383424	53	8500
2026-01-06 11:16:40.56	355.76	17.36	-41.6	-49.4	11.0	6.10e-01	0	56	0	786956288	53	9504
2026-01-06 11:16:41.57	355.67	17.23	-41.7	-50.6	9.5	6.26e-01	0	56	0	789053440	53	10951
2026-01-06 11:16:42.58	355.59	17.11	-41.6	-51.3	8.6	6.36e-01	2	56	0	790626304	53	11858
2026-01-06 11:16:43.59	355.50	16.99	-41.6	-52.3	7.4	6.52e-01	92	56	0	792723456	53	13331
2026-01-06 11:16:44.60	355.42	16.86	-41.6	-53.6	6.2	6.79e-01	92	56	0	794820608	53	15470
2026-01-06 11:16:45.61	355.34	16.74	-41.5	-54.7	5.3	7.02e-01	0	56	0	795344896	53	17553
2026-01-06 11:16:46.62	355.26	16.62	-41.5	-55.3	4.9	7.12e-01	0	56	0	795344896	53	18795
2026-01-06 11:16:47.63	355.18	16.50	-41.4	-56.6	4.3	7.30e-01	0	56	104	795344896	53	21936
2026-01-06 11:16:48.64	355.09	16.38	-41.4	-58.1	3.8	7.45e-01	0	56	104	795344896	53	25879
2026-01-06 11:16:49.65	355.02	16.26	-41.4	-58.2	3.9	7.41e-01	0	56	104	795344896	53	26285
2026-01-06 11:16:50.66	354.94	16.14	-41.6	-58.1	3.8	7.43e-01	0	56	104	795344896	53	26103
2026-01-06 11:16:51.67	354.86	16.03	-41.4	-60.0	3.8	7.41e-01	0	56	104	795344896	54	30532
2026-01-06 11:16:52.68	354.78	15.91	-41.4	-60.1	3.8	7.43e-01	0	56	104	795344896	54	30813
2026-01-06 11:16:53.68	354.70	15.79	-41.8	-58.6	3.9	7.42e-01	0	56	104	795344896	54	26041
2026-01-06 11:16:54.69	354.63	15.68	-42.1	-58.8	3.8	7.44e-01	0	56	104	795344896	54	26542
2026-01-06 11:16:55.70	354.55	15.56	-41.9	-58.7	3.9	7.43e-01	0	56	104	795344896	54	26436
2026-01-06 11:16:56.71	354.48	15.45	-41.8	-59.0	3.8	7.44e-01	0	56	104	795344896	54	27208
2026-01-06 11:16:57.72	354.40	15.33	-41.7	-58.7	3.9	7.43e-01	0	56	104	795344896	54	26306
2026-01-06 11:16:58.73	354.33	15.22	-41.4	-59.9	3.8	7.45e-01	0	56	104	795344896	54	30101
2026-01-06 11:16:59.74	354.26	15.10	-41.3	-60.2	3.8	7.43e-01	0	56	104	795344896	54	31306
2026-01-06 11:17:00.75	354.18	14.99	-41.2	-60.2	3.8	7.45e-01	0	56	104	795344896	54	31156
2026-01-06 11:17:01.76	354.11	14.88	-41.4	-60.3	3.8	7.43e-01	0	56	104	795344896	54	31519
2026-01-06 11:17:02.77	354.04	14.77	-41.2	-60.2	3.8	7.48e-01	0	56	104	795344896	54	31322
2026-01-06 11:17:03.78	353.97	14.66	-41.4	-60.3	3.8	7.46e-01	0	56	104	795344896	54	31714
2026-01-06 11:17:04.79	353.90	14.55	-41.2	-60.3	3.8	7.46e-01	0	56	104	795344896	54	31601
2026-01-06 11:17:05.80	353.83	14.44	-41.3	-60.2	3.8	7.46e-01	0	56	104	795344896	54	31299
2026-01-06 11:17:06.81	353.76	14.33	-41.2	-60.3	3.8	7.48e-01	0	56	104	795344896	54	31666
2026-01-06 11:17:07.82	353.69	14.22	-41.3	-60.2	3.8	7.48e-01	0	56	104	795344896	54	31117
2026-01-06 11:17:08.83	353.62	14.11	-41.3	-60.3	3.8	7.46e-01	0	56	104	795344896	54	31809
2026-01-06 11:17:09.84	353.56	14.00	-41.2	-60.2	3.8	7.47e-01	0	56	104	795344896	54	31278
2026-01-06 11:17:10.85	353.49	13.89	-41.2	-60.4	3.8	7.46e-01	0	56	104	795344896	54	31969
2026-01-06 11:17:11.86	353.42	13.78	-41.1	-60.1	3.8	7.44e-01	0	56	104	795344896	54	30946
2026-01-06 11:17:12.87	353.36	13.68	-41.0	-60.3	3.8	7.45e-01	0	56	104	795344896	53	33556
2026-01-06 11:17:13.88	353.29	13.57	-41.2	-60.3	3.8	7.48e-01	0	56	104	795344896	53	33324
2026-01-06 11:17:14.89	353.23	13.47	-40.9	-60.3	3.8	7.44e-01	0	56	104	795344896	53	33496
2026-01-06 11:17:15.90	353.16	13.36	-41.1	-60.2	3.8	7.45e-01	0	56	104	795344896	53	33259
2026-01-06 11:17:16.91	353.10	13.26	-41.3	-60.6	3.8	7.47e-01	0	56	104	795344896	53	34568
2026-01-06 11:17:17.92	353.04	13.15	-40.8	-60.1	3.8	7.44e-01	0	56	104	795344896	53	32814
2026-01-06 11:17:18.93	352.98	13.05	-41.5	-60.6	3.8	7.41e-01	0	57	104	795344896	53	34707
2026-01-06 11:17:19.94	352.91	12.94	-40.5	-60.1	3.8	7.48e-01	0	56	104	795344896	53	32837
2026-01-06 11:17:20.95	352.85	12.84	-40.9	-60.5	3.8	7.47e-01	0	56	104	795344896	52	36310
2026-01-06 11:17:21.96	352.79	12.74	-41.2	-60.3	3.8	7.44e-01	0	56	104	795344896	52	35467
2026-01-06 11:17:22.97	352.73	12.64	-41.1	-60.5	3.8	7.47e-01	0	56	104	795344896	52	36389
2026-01-06 11:17:23.98	352.67	12.53	-41.1	-60.3	3.8	7.48e-01	0	56	104	795344896	52	35480
2026-01-06 11:17:24.99	352.61	12.43	-41.5	-60.4	3.8	7.43e-01	0	56	104	795344896	53	34016
2026-01-06 11:17:25.99	352.55	12.33	-40.1	-60.2	3.8	7.43e-01	0	56	104	795344896	52	35082
2026-01-06 11:17:27.00	352.49	12.23	-41.4	-60.4	3.8	7.47e-01	0	56	104	795344896	53	33881
2026-01-06 11:17:28.01	352.44	12.13	-40.1	-60.2	3.8	7.46e-01	0	56	104	795344896	52	35218
2026-01-06 11:17:29.02	352.38	12.03	-41.3	-60.3	3.8	7.44e-01	0	56	104	795344896	53	33594
2026-01-06 11:17:30.03	352.32	11.93	-40.9	-60.3	3.8	7.45e-01	0	56	104	795344896	53	33668
2026-01-06 11:17:31.04	352.26	11.83	-41.2	-60.2	3.8	7.46e-01	0	56	104	795344896	53	33153
2026-01-06 11:17:32.05	352.21	11.74	-40.8	-60.4	3.8	7.42e-01	0	56	104	795344896	53	33702
2026-01-06 11:17:33.06	352.15	11.64	-41.3	-60.3	3.8	7.44e-01	0	56	104	795344896	53	33608
2026-01-06 11:17:34.07	352.10	11.54	-40.8	-60.1	3.8	7.52e-01	0	56	104	795344896	53	32900
2026-01-06 11:17:35.08	352.04	11.44	-41.4	-60.4	3.8	7.45e-01	0	56	104	795344896	53	33712
2026-01-06 11:17:36.09	351.99	11.35	-41.0	-60.1	3.8	7.43e-01	0	56	104	795344896	53	32758
2026-01-06 11:17:37.10	351.93	11.25	-41.0	-60.0	3.8	7.44e-01	0	56	104	795344896	53	32299
2026-01-06 11:17:38.11	351.88	11.16	-41.1	-60.5	3.8	7.44e-01	0	56	104	795344896	53	34345
2026-01-06 11:17:39.12	351.82	11.06	-41.0	-60.0	3.8	7.48e-01	0	56	104	795344896	53	32398
2026-01-06 11:17:40.13	351.77	10.96	-41.2	-60.5	3.8	7.45e-01	0	56	104	795344896	53	34306
2026-01-06 11:17:41.14	351.72	10.87	-41.4	-60.4	3.8	7.45e-01	0	56	104	795344896	53	34020
2026-01-06 11:17:42.15	351.67	10.78	-41.0	-60.1	3.8	7.42e-01	0	56	104	795344896	53	32604
2026-01-06 11:17:43.16	351.61	10.68	-41.3	-60.4	3.8	7.48e-01	0	56	104	795344896	53	33897
2026-01-06 11:17:44.17	351.56	10.59	-41.0	-60.1	3.8	7.45e-01	0	57	104	795344896	53	32776
2026-01-06 11:17:45.18	351.51	10.49	-41.2	-60.3	3.8	7.43e-01	0	56	104	795344896	53	33446
2026-01-06 11:17:46.19	351.46	10.40	-41.2	-60.2	3.8	7.44e-01	0	57	104	795344896	53	33214
2026-01-06 11:17:47.20	351.41	10.31	-41.4	-60.4	3.8	7.45e-01	0	56	104	795344896	53	33845
2026-01-06 11:17:48.21	351.36	10.22	-41.2	-60.1	3.8	7.45e-01	0	56	104	795344896	53	32853
2026-01-06 11:17:49.22	351.31	10.13	-41.1	-60.2	3.8	7.46e-01	0	56	104	795344896	52	35227
2026-01-06 11:17:50.23	351.26	10.03	-41.1	-60.2	3.8	7.41e-01	0	56	104	795344896	52	35011
2026-01-06 11:17:51.24	351.21	9.94	-41.2	-60.2	3.8	7.46e-01	0	56	104	795344896	52	35251
2026-01-06 11:17:52.25	351.16	9.85	-41.2	-60.2	3.8	7.45e-01	0	57	104	795344896	53	33296
2026-01-06 11:17:53.25	351.11	9.76	-41.6	-60.6	3.8	7.47e-01	0	57	104	795344896	53	34633
2026-01-06 11:17:54.26	351.07	9.67	-41.0	-60.0	3.8	7.47e-01	0	56	104	795344896	53	32294
2026-01-06 11:17:55.27	351.02	9.58	-40.9	-60.0	3.8	7.43e-01	0	57	104	795344896	53	32186
2026-01-06 11:17:56.28	350.97	9.49	-40.9	-60.0	3.8	7.45e-01	0	57	104	795344896	53	32208
2026-01-06 11:17:57.29	350.93	9.40	-40.9	-60.0	3.8	7.44e-01	0	56	104	795344896	53	32287
2026-01-06 11:17:58.30	350.88	9.32	-40.9	-60.0	3.8	7.43e-01	0	56	104	795344896	53	32271
2026-01-06 11:17:59.31	350.83	9.23	-41.3	-60.3	3.8	7.47e-01	0	57	104	795344896	53	33581
2026-01-06 11:18:00.32	350.79	9.14	-41.4	-60.4	3.8	7.43e-01	0	56	104	795344896	53	33775
2026-01-06 11:18:01.34	350.74	9.05	-41.6	-60.6	3.8	7.50e-01	0	56	104	795344896	53	34802
2026-01-06 11:18:02.35	350.70	8.96	-41.4	-60.3	3.8	7.44e-01	0	56	104	795344896	53	33587
2026-01-06 11:18:03.36	350.65	8.88	-41.6	-60.6	3.8	7.47e-01	0	56	104	795344896	53	34662
2026-01-06 11:18:04.37	350.61	8.79	-41.5	-60.4	3.8	7.48e-01	0	56	104	795344896	53	33840
2026-01-06 11:18:05.38	350.56	8.70	-41.4	-60.3	3.8	7.43e-01	0	56	104	795344896	53	33633
2026-01-06 11:18:06.39	350.52	8.62	-41.5	-60.5	3.8	7.44e-01	0	57	104	795344896	53	34378
2026-01-06 11:18:07.39	350.47	8.53	-41.4	-60.3	3.8	7.44e-01	0	56	104	795344896	53	33654
2026-01-06 11:18:08.40	350.43	8.45	-41.6	-60.6	3.8	7.44e-01	0	56	104	795344896	53	34750
2026-01-06 11:18:09.41	350.39	8.36	-41.3	-60.3	3.8	7.47e-01	0	56	104	795344896	53	33533
2026-01-06 11:18:10.42	350.34	8.28	-41.5	-60.5	3.8	7.45e-01	0	56	104	795344896	53	34223
2026-01-06 11:18:11.43	350.30	8.19	-41.3	-60.3	3.8	7.45e-01	0	56	104	795344896	53	33400
2026-01-06 11:18:12.44	350.26	8.11	-41.7	-60.6	3.8	7.46e-01	0	56	104	795344896	53	34874
2026-01-06 11:18:13.45	350.22	8.03	-41.4	-60.3	3.8	7.45e-01	0	57	104	795344896	53	33640
2026-01-06 11:18:14.46	350.18	7.94	-40.7	-60.5	3.8	7.44e-01	0	57	104	795344896	53	34187
2026-01-06 11:18:15.47	350.14	7.86	-41.8	-61.0	3.8	7.46e-01	0	57	104	795344896	54	34143
2026-01-06 11:18:16.48	350.09	7.77	-44.4	-63.5	3.8	7.45e-01	0	56	104	795344896	59	34464
2026-01-06 11:18:17.49	350.05	7.69	-45.7	-64.6	3.8	7.44e-01	0	57	104	795344896	61	34527
2026-01-06 11:18:18.50	350.01	7.61	-45.9	-64.8	3.8	7.48e-01	0	57	104	795344896	62	33373
2026-01-06 11:18:19.51	349.97	7.53	-46.0	-64.9	3.8	7.45e-01	0	57	104	795344896	62	33745
2026-01-06 11:18:20.52	349.93	7.45	-46.1	-64.9	3.8	7.43e-01	0	56	104	795344896	62	34034
2026-01-06 11:18:21.53	349.89	7.36	-46.1	-65.0	3.8	7.48e-01	0	56	104	795344896	62	34143
2026-01-06 11:18:22.54	349.85	7.28	-46.2	-65.0	3.8	7.44e-01	0	57	104	795344896	62	34449
2026-01-06 11:18:23.55	349.81	7.20	-46.2	-65.0	3.8	7.45e-01	0	57	104	795344896	62	34419
2026-01-06 11:18:24.56	349.78	7.12	-46.2	-65.0	3.8	7.49e-01	0	57	104	795344896	62	34407
2026-01-06 11:18:25.57	349.74	7.04	-46.2	-65.0	3.8	7.50e-01	0	56	104	795344896	62	34429
2026-01-06 11:18:26.58	349.70	6.96	-46.1	-65.0	3.8	7.46e-01	0	57	104	795344896	62	34281
2026-01-06 11:18:27.59	349.66	6.88	-46.1	-65.0	3.8	7.48e-01	0	57	104	795344896	62	34210
2026-01-06 11:18:28.60	349.62	6.80	-46.1	-65.0	3.8	7.47e-01	0	56	104	795344896	62	34261
2026-01-06 11:18:29.62	349.58	6.72	-46.1	-65.0	3.8	7.47e-01	0	56	104	795344896	62	34242
2026-01-06 11:18:30.63	349.55	6.64	-46.1	-65.0	3.8	7.45e-01	0	57	104	795344896	62	34116
2026-01-06 11:18:31.64	349.51	6.56	-46.1	-65.0	3.8	7.45e-01	0	56	104	795344896	62	34162
2026-01-06 11:18:32.65	349.47	6.48	-46.1	-64.9	3.8	7.39e-01	0	56	104	795344896	62	34020
2026-01-06 11:18:33.66	349.44	6.40	-46.1	-65.0	3.8	7.46e-01	0	56	104	795344896	62	34090
2026-01-06 11:18:34.67	349.40	6.33	-46.1	-64.9	3.8	7.45e-01	0	56	104	795344896	62	34031
2026-01-06 11:18:35.68	349.36	6.25	-46.0	-64.9	3.8	7.46e-01	0	57	104	795344896	62	34081
2026-01-06 11:18:36.69	349.33	6.17	-46.1	-64.9	3.8	7.46e-01	0	57	104	795344896	62	33999
2026-01-06 11:18:37.70	349.29	6.09	-46.1	-64.9	3.8	7.42e-01	0	57	104	795344896	62	34000
2026-01-06 11:18:38.71	349.26	6.02	-46.1	-64.9	3.8	7.44e-01	0	57	104	795344896	62	33921
2026-01-06 11:18:39.72	349.22	5.94	-46.1	-64.9	3.8	7.44e-01	0	56	104	795344896	62	34021
2026-01-06 11:18:40.73	349.19	5.86	-46.0	-64.9	3.8	7.46e-01	0	56	104	795344896	62	33913
2026-01-06 11:18:41.75	349.15	5.79	-46.0	-64.9	3.8	7.44e-01	0	56	104	795344896	62	33853
2026-01-06 11:18:42.75	349.12	5.71	-46.0	-64.9	3.8	7.47e-01	0	57	104	795344896	62	34058
2026-01-06 11:18:43.77	349.08	5.63	-46.1	-64.9	3.8	7.45e-01	0	56	104	795344896	62	33979
2026-01-06 11:18:44.78	349.05	5.56	-46.0	-64.9	3.8	7.49e-01	0	56	104	795344896	62	33823
2026-01-06 11:18:45.79	349.01	5.48	-46.0	-64.9	3.8	7.47e-01	0	57	104	795344896	62	33993
2026-01-06 11:18:46.80	348.98	5.41	-46.0	-64.9	3.8	7.49e-01	0	57	104	795344896	62	33989
2026-01-06 11:18:47.81	348.95	5.33	-46.0	-64.9	3.8	7.46e-01	0	57	104	795344896	62	33915
2026-01-06 11:18:48.82	348.91	5.26	-46.0	-64.9	3.8	7.46e-01	0	57	104	795344896	62	33893
2026-01-06 11:18:49.83	348.88	5.18	-46.0	-64.9	3.8	7.45e-01	0	57	104	795344896	62	33992
2026-01-06 11:18:50.84	348.85	5.11	-46.0	-64.9	3.8	7.45e-01	0	56	104	795344896	62	33900
2026-01-06 11:18:51.85	348.81	5.03	-46.0	-64.9	3.8	7.48e-01	0	56	104	795344896	62	33864
2026-01-06 11:18:52.86	348.78	4.96	-46.0	-64.9	3.8	7.44e-01	0	57	104	795344896	62	34049
2026-01-06 11:18:53.87	348.75	4.89	-46.0	-64.9	3.8	7.46e-01	0	56	104	795344896	62	33916
2026-01-06 11:18:54.88	348.72	4.81	-46.0	-64.9	3.8	7.48e-01	0	57	104	795344896	62	33969
2026-01-06 11:18:55.89	348.69	4.74	-46.0	-64.9	3.8	7.43e-01	0	57	104	795344896	62	33911
2026-01-06 11:18:56.90	348.65	4.67	-46.0	-64.9	3.8	7.45e-01	0	57	104	795344896	62	33957
2026-01-06 11:18:57.91	348.62	4.59	-46.0	-64.9	3.8	7.46e-01	0	56	104	795344896	62	33869
2026-01-06 11:18:58.92	348.59	4.52	-46.0	-64.9	3.8	7.45e-01	0	56	104	795344896	62	33932
2026-01-06 11:18:59.94	348.56	4.45	-46.0	-64.9	3.8	7.43e-01	0	57	104	795344896	62	33956
2026-01-06 11:19:00.94	348.53	4.38	-46.0	-64.9	3.8	7.46e-01	0	57	104	795344896	62	33909
2026-01-06 11:19:01.96	348.50	4.30	-46.0	-64.9	3.8	7.42e-01	0	57	104	795344896	62	33759
2026-01-06 11:19:02.97	348.47	4.23	-46.0	-64.9	3.8	7.45e-01	0	57	104	795344896	62	33903
2026-01-06 11:19:03.98	348.44	4.16	-45.9	-64.9	3.8	7.46e-01	0	56	104	795344896	62	33938
2026-01-06 11:19:04.99	348.41	4.09	-46.0	-64.9	3.8	7.45e-01	0	57	104	795344896	62	33827
2026-01-06 11:19:06.00	348.38	4.02	-46.0	-64.9	3.8	7.42e-01	0	56	104	795344896	62	33848
2026-01-06 11:19:07.01	348.35	3.95	-46.0	-64.9	3.8	7.44e-01	0	57	104	795344896	62	33907
2026-01-06 11:19:08.02	348.32	3.87	-46.0	-64.9	3.8	7.43e-01	0	56	104	795344896	62	33902
2026-01-06 11:19:09.03	348.29	3.80	-46.0	-64.9	3.8	7.44e-01	0	57	104	795344896	62	33930
2026-01-06 11:19:10.04	348.26	3.73	-46.0	-64.9	3.8	7.45e-01	0	57	104	795344896	62	33847
2026-01-06 11:19:11.05	348.23	3.66	-46.0	-64.9	3.8	7.42e-01	0	57	104	795344896	62	33891
2026-01-06 11:19:12.06	348.20	3.59	-46.0	-64.9	3.8	7.44e-01	0	57	104	795344896	62	33910
2026-01-06 11:19:13.07	348.17	3.52	-46.0	-64.9	3.8	7.44e-01	0	57	104	795344896	62	33762
2026-01-06 11:19:14.08	348.14	3.45	-46.0	-64.9	3.8	7.48e-01	0	57	104	795344896	62	33896
2026-01-06 11:19:15.09	348.12	3.38	-46.0	-64.9	3.8	7.40e-01	0	57	104	795344896	62	33930
2026-01-06 11:19:16.10	348.09	3.31	-46.0	-64.9	3.8	7.44e-01	0	56	104	795344896	62	33862
2026-01-06 11:19:17.11	348.06	3.25	-46.0	-64.9	3.8	7.44e-01	0	56	104	795344896	62	33802
2026-01-06 11:19:18.13	348.03	3.18	-46.0	-64.9	3.8	7.42e-01	0	57	104	795344896	62	33903
2026-01-06 11:19:19.14	348.00	3.11	-46.0	-64.9	3.8	7.45e-01	0	57	104	795344896	62	33877
2026-01-06 11:19:20.14	347.98	3.04	-46.0	-64.9	3.8	7.47e-01	0	57	104	795344896	62	33915
2026-01-06 11:19:21.15	347.95	2.97	-46.0	-64.9	3.8	7.46e-01	0	56	104	795344896	62	33822
2026-01-06 11:19:22.17	347.92	2.90	-46.0	-64.9	3.8	7.44e-01	0	57	104	795344896	62	33904
2026-01-06 11:19:23.18	347.89	2.83	-46.0	-64.9	3.8	7.42e-01	0	57	104	795344896	62	33930
2026-01-06 11:19:24.19	347.87	2.77	-46.0	-64.9	3.8	7.47e-01	0	57	104	795344896	62	33872
2026-01-06 11:19:25.20	347.84	2.70	-46.0	-64.9	3.8	7.42e-01	0	57	104	795344896	62	33935
2026-01-06 11:19:26.21	347.81	2.63	-46.0	-64.9	3.8	7.46e-01	0	57	104	795344896	62	33936
2026-01-06 11:19:27.22	347.79	2.56	-46.0	-64.9	3.8	7.43e-01	0	57	104	795344896	62	33899
2026-01-06 11:19:28.23	347.76	2.50	-46.0	-64.9	3.8	7.44e-01	0	57	104	795344896	62	33891
2026-01-06 11:19:29.24	347.74	2.43	-46.0	-64.9	3.8	7.45e-01	0	57	104	795344896	62	33969
2026-01-06 11:19:30.25	347.71	2.36	-46.0	-64.9	3.8	7.45e-01	0	57	104	795344896	62	33954
2026-01-06 11:19:31.26	347.68	2.30	-46.0	-64.9	3.8	7.44e-01	0	57	104	795344896	62	33904
2026-01-06 11:19:32.27	347.66	2.23	-46.0	-64.9	3.8	7.44e-01	0	57	104	795344896	62	33910
2026-01-06 11:19:33.28	347.63	2.16	-46.0	-64.9	3.8	7.47e-01	0	57	104	795344896	62	33912
2026-01-06 11:19:34.29	347.61	2.10	-46.0	-64.9	3.8	7.45e-01	0	56	104	795344896	62	33898
2026-01-06 11:19:35.30	347.58	2.03	-46.0	-64.9	3.8	7.44e-01	0	57	104	795344896	62	33827
2026-01-06 11:19:36.31	347.56	1.97	-46.0	-64.9	3.8	7.43e-01	0	57	104	795344896	62	33871
2026-01-06 11:19:37.32	347.53	1.90	-46.0	-64.9	3.8	7.44e-01	0	56	104	795344896	62	33864

#Closed at: 2026-01-06 11:19:37
#Recorded file [795 MB]: D:/lorett/data/31039_260106_140855.dat