passes_logs/2026/01/06/R2.0S_Moscow/R2.0S_Moscow__20260106_082507_NOAA_21_JPSS-2_rec.log

#Pass ID: 20260106_082507_NOAA 21 (JPSS-2)
#Satellite: NOAA 21 (JPSS-2)
#Configuration: NOAA-21
#almurnet v.1.7.20251203
#Start time: 2026-01-06 08:25:08

#Version: 2.2.20231116
#Station: R2.0S_Moscow
#Location: 37.707566 lon 55.798166 lat
#TLE: 1 54234U 22150A   26005.21525222  .00000150  00000+0  91957-4 0  9992
#TLE: 2 54234  98.7490 306.2339 0001053 341.6032  18.5106 14.19532220163427

#Time	Az	El	Level	Level2	SNR	BER	BlckErr	Temp	State	Recorded	gain1	gain2
2026-01-06 08:25:08.91	116.65	2.06	-40.0	-54.4	3.8	1.49e+00	0	46	0	0	50	20245
2026-01-06 08:25:09.92	116.59	2.12	-42.5	-55.5	3.8	1.49e+00	0	47	104	0	54	18132
2026-01-06 08:25:10.93	116.52	2.18	-42.4	-55.6	3.7	1.49e+00	0	47	104	0	54	18416
2026-01-06 08:25:11.94	116.46	2.23	-42.4	-55.0	3.8	1.49e+00	0	47	104	0	54	17094
2026-01-06 08:25:12.95	116.40	2.29	-41.4	-55.1	3.8	1.49e+00	0	47	104	0	55	16453
2026-01-06 08:25:13.96	116.34	2.35	-40.3	-54.5	3.9	1.50e+00	0	47	104	0	51	19290
2026-01-06 08:25:14.98	116.27	2.41	-42.1	-55.3	3.6	1.49e+00	0	47	104	0	51	21158
2026-01-06 08:25:15.98	116.21	2.47	-38.9	-53.9	3.5	1.49e+00	0	47	104	0	48	21465
2026-01-06 08:25:17.00	116.15	2.53	-41.8	-55.0	3.8	1.50e+00	0	47	104	0	51	20422
2026-01-06 08:25:18.01	116.08	2.59	-42.2	-55.2	3.8	1.49e+00	0	48	104	0	55	16617
2026-01-06 08:25:19.02	116.02	2.65	-41.1	-55.0	3.8	1.49e+00	0	47	104	0	53	18251
2026-01-06 08:25:20.03	115.96	2.71	-42.2	-54.9	3.9	1.49e+00	0	48	104	0	52	19025
2026-01-06 08:25:21.04	115.89	2.77	-42.0	-54.6	3.8	1.49e+00	0	47	104	0	54	16487
2026-01-06 08:25:22.05	115.83	2.83	-41.9	-55.0	3.8	1.49e+00	0	48	104	0	54	17223
2026-01-06 08:25:23.06	115.76	2.89	-42.1	-55.3	3.8	1.49e+00	0	48	104	0	53	18796
2026-01-06 08:25:24.07	115.70	2.95	-42.0	-55.2	3.8	1.49e+00	0	48	104	0	54	17593
2026-01-06 08:25:25.08	115.63	3.01	-42.2	-55.2	3.8	1.49e+00	0	48	104	0	54	17602
2026-01-06 08:25:26.10	115.57	3.07	-41.9	-55.1	3.9	1.49e+00	0	48	104	0	54	17423
2026-01-06 08:25:27.10	115.50	3.13	-42.3	-55.2	3.8	1.49e+00	0	48	104	0	54	17490
2026-01-06 08:25:28.11	115.43	3.19	-41.8	-55.1	3.7	1.49e+00	0	48	104	0	54	17451
2026-01-06 08:25:29.13	115.37	3.25	-42.4	-55.3	3.7	1.49e+00	0	48	104	0	55	16821
2026-01-06 08:25:30.14	115.30	3.31	-42.1	-55.2	3.8	1.49e+00	0	48	104	0	54	17496
2026-01-06 08:25:31.15	115.23	3.37	-42.2	-55.2	3.8	1.49e+00	0	48	104	0	55	16527
2026-01-06 08:25:32.16	115.17	3.43	-41.9	-55.2	4.0	1.49e+00	0	49	104	0	54	17598
2026-01-06 08:25:33.17	115.10	3.49	-42.3	-55.1	3.8	1.49e+00	0	48	104	0	54	17440
2026-01-06 08:25:34.18	115.03	3.55	-40.7	-53.7	4.0	1.50e+00	0	49	104	0	40	33218
2026-01-06 08:25:35.19	114.96	3.61	-40.9	-54.4	3.9	1.49e+00	0	49	104	0	54	16100
2026-01-06 08:25:36.20	114.89	3.67	-41.9	-55.4	3.9	1.49e+00	0	49	104	0	55	17009
2026-01-06 08:25:37.21	114.82	3.73	-41.5	-55.1	3.8	1.49e+00	0	49	104	0	54	17381
2026-01-06 08:25:38.22	114.76	3.79	-41.2	-54.7	3.9	1.49e+00	0	49	104	0	53	17655
2026-01-06 08:25:39.23	114.69	3.85	-42.2	-54.9	3.9	1.49e+00	0	49	104	0	53	18068
2026-01-06 08:25:40.24	114.62	3.91	-42.1	-55.1	3.8	1.49e+00	0	49	104	0	54	17297
2026-01-06 08:25:41.25	114.55	3.98	-42.3	-55.2	3.8	1.49e+00	0	49	104	0	55	16585
2026-01-06 08:25:42.26	114.48	4.04	-42.2	-55.2	3.8	1.49e+00	0	49	104	0	54	17546
2026-01-06 08:25:43.27	114.41	4.10	-42.0	-55.1	3.8	1.49e+00	0	49	104	0	54	17328
2026-01-06 08:25:44.28	114.33	4.16	-42.1	-55.4	3.9	1.49e+00	0	49	104	0	55	16980
2026-01-06 08:25:45.29	114.26	4.22	-42.3	-55.0	3.8	1.49e+00	0	49	104	0	54	17274
2026-01-06 08:25:46.30	114.19	4.28	-42.1	-55.2	3.8	1.49e+00	0	49	104	0	54	17556
2026-01-06 08:25:47.31	114.12	4.35	-42.1	-55.1	3.8	1.49e+00	0	49	104	0	54	17480
2026-01-06 08:25:48.32	114.05	4.41	-42.4	-55.2	3.8	1.49e+00	0	49	104	0	53	18721
2026-01-06 08:25:49.33	113.98	4.47	-41.8	-54.8	3.8	1.49e+00	0	49	104	0	52	18747
2026-01-06 08:25:50.34	113.90	4.53	-41.9	-55.0	3.9	1.49e+00	0	49	104	0	54	17128
2026-01-06 08:25:51.35	113.83	4.60	-41.0	-54.9	3.8	1.49e+00	0	49	104	0	53	18003
2026-01-06 08:25:52.36	113.76	4.66	-35.2	-51.8	4.1	1.50e+00	0	50	104	0	44	21141
2026-01-06 08:25:53.38	113.68	4.72	-41.9	-55.1	3.8	1.49e+00	0	50	104	0	54	17405
2026-01-06 08:25:54.39	113.61	4.78	-40.0	-54.6	3.8	1.49e+00	0	50	104	0	54	16384
2026-01-06 08:25:55.40	113.53	4.85	-39.8	-53.6	4.1	1.49e+00	0	50	104	0	50	18365
2026-01-06 08:25:56.41	113.46	4.91	-42.2	-55.1	3.7	1.49e+00	0	50	104	0	54	17446
2026-01-06 08:25:57.42	113.38	4.97	-41.1	-54.4	3.9	1.49e+00	0	50	104	0	53	17064
2026-01-06 08:25:58.43	113.31	5.04	-42.1	-55.4	3.8	1.49e+00	0	50	104	0	55	16986
2026-01-06 08:25:59.44	113.23	5.10	-42.3	-55.2	3.8	1.49e+00	0	50	104	0	54	17484
2026-01-06 08:26:00.45	113.16	5.16	-42.0	-55.2	3.8	1.49e+00	0	50	104	0	54	17585
2026-01-06 08:26:01.46	113.08	5.22	-42.2	-55.4	3.9	1.49e+00	0	50	104	0	54	18045
2026-01-06 08:26:02.47	113.00	5.29	-41.8	-55.1	3.8	1.49e+00	0	50	104	0	54	17337
2026-01-06 08:26:03.48	112.92	5.35	-42.2	-55.1	3.8	1.49e+00	0	50	104	0	55	16474
2026-01-06 08:26:04.49	112.85	5.42	-42.0	-55.1	3.8	1.49e+00	0	50	104	0	54	17446
2026-01-06 08:26:05.50	112.77	5.48	-42.2	-54.7	3.9	1.49e+00	0	50	104	0	53	17615
2026-01-06 08:26:06.52	112.69	5.54	-41.7	-55.1	3.8	1.49e+00	0	50	104	0	54	17371
2026-01-06 08:26:07.53	112.61	5.61	-42.2	-55.0	3.8	1.49e+00	0	50	104	0	54	17175
2026-01-06 08:26:08.54	112.53	5.67	-41.0	-54.9	3.8	1.49e+00	0	51	104	0	54	17056
2026-01-06 08:26:09.55	112.45	5.74	-41.4	-55.0	3.8	1.49e+00	0	51	104	0	55	16307
2026-01-06 08:26:10.56	112.37	5.80	-42.3	-55.1	3.8	1.49e+00	0	51	104	0	55	16451
2026-01-06 08:26:11.57	112.29	5.87	-42.2	-55.1	3.8	1.49e+00	0	51	104	0	55	16410
2026-01-06 08:26:12.58	112.21	5.93	-42.1	-55.1	3.8	1.49e+00	0	51	104	0	55	16357
2026-01-06 08:26:13.59	112.13	5.99	-40.1	-54.1	3.9	1.49e+00	0	51	104	0	53	16447
2026-01-06 08:26:14.60	112.05	6.06	-42.0	-55.0	3.8	1.49e+00	0	51	104	0	55	16239
2026-01-06 08:26:15.61	111.97	6.12	-42.2	-55.0	3.8	1.49e+00	0	51	104	0	55	16187
2026-01-06 08:26:16.62	111.89	6.19	-41.0	-54.8	3.8	1.49e+00	0	51	104	0	54	16724
2026-01-06 08:26:17.64	111.81	6.25	-41.7	-54.9	3.8	1.49e+00	0	51	104	0	55	16081
2026-01-06 08:26:18.64	111.72	6.32	-42.2	-54.9	3.8	1.49e+00	0	51	104	0	55	15968
2026-01-06 08:26:19.66	111.64	6.39	-42.3	-55.0	3.9	1.49e+00	0	51	104	0	54	17242
2026-01-06 08:26:20.67	111.56	6.45	-42.1	-54.8	3.9	1.49e+00	0	51	104	0	54	16739
2026-01-06 08:26:21.68	111.47	6.52	-42.0	-54.7	3.8	1.49e+00	0	51	104	0	55	15760
2026-01-06 08:26:22.69	111.39	6.58	-42.2	-54.7	3.8	1.49e+00	0	51	104	0	55	15700
2026-01-06 08:26:23.70	111.30	6.65	-42.0	-54.8	3.8	1.49e+00	0	51	104	0	54	16724
2026-01-06 08:26:24.71	111.22	6.71	-42.1	-54.6	3.8	1.49e+00	0	51	104	0	53	17418
2026-01-06 08:26:25.72	111.13	6.78	-42.1	-54.9	3.8	1.49e+00	0	51	104	0	55	16055
2026-01-06 08:26:26.73	111.05	6.85	-42.1	-55.0	3.8	1.49e+00	0	51	104	0	55	16214
2026-01-06 08:26:27.74	110.96	6.91	-42.0	-54.9	3.9	1.49e+00	0	51	104	0	54	16908
2026-01-06 08:26:28.75	110.88	6.98	-42.0	-54.7	3.8	1.49e+00	0	51	104	0	53	17533
2026-01-06 08:26:29.76	110.79	7.04	-41.6	-54.7	3.8	1.49e+00	0	51	104	0	52	18708
2026-01-06 08:26:30.77	110.70	7.11	-41.1	-54.2	4.0	1.49e+00	0	51	104	0	53	16687
2026-01-06 08:26:31.79	110.61	7.18	-41.5	-54.3	3.9	1.49e+00	0	52	104	0	52	17833
2026-01-06 08:26:32.79	110.53	7.24	-39.1	-52.6	3.8	1.49e+00	0	51	104	0	49	17313
2026-01-06 08:26:33.81	110.44	7.31	-39.5	-50.9	4.1	1.49e+00	0	51	104	0	49	14310
2026-01-06 08:26:34.82	110.35	7.38	-41.5	-50.9	4.0	1.48e+00	0	51	104	0	53	11384
2026-01-06 08:26:35.83	110.26	7.45	-40.5	-48.7	5.4	7.94e-01	2	51	0	0	52	9338
2026-01-06 08:26:36.84	110.17	7.51	-41.0	-47.2	6.7	3.33e-01	0	52	0	0	52	7882
2026-01-06 08:26:37.85	110.08	7.58	-35.4	-45.3	6.6	1.94e-01	0	52	0	3145728	47	8418
2026-01-06 08:26:38.86	109.99	7.65	-36.4	-44.3	7.4	5.33e-02	0	52	0	6291456	44	8910
2026-01-06 08:26:39.87	109.90	7.71	-39.7	-43.5	10.0	2.19e-02	0	52	0	9437184	49	6114
2026-01-06 08:26:40.88	109.80	7.78	-39.1	-42.4	11.4	8.87e-03	0	52	0	12582912	49	5381
2026-01-06 08:26:41.90	109.71	7.85	-38.5	-41.6	12.1	6.53e-03	0	52	0	15728640	47	5494
2026-01-06 08:26:42.91	109.62	7.92	-38.2	-41.2	12.5	1.08e-02	0	52	0	18874368	47	5225
2026-01-06 08:26:43.92	109.53	7.99	-38.0	-40.8	13.0	3.09e-03	0	52	0	22020096	46	5312
2026-01-06 08:26:44.93	109.43	8.05	-37.9	-40.7	13.2	2.91e-03	0	52	0	25165824	46	5266
2026-01-06 08:26:45.94	109.34	8.12	-42.0	-54.8	3.6	2.20e-01	0	52	104	27262976	52	18876
2026-01-06 08:26:46.95	109.25	8.19	-40.5	-45.6	8.4	4.67e-01	0	52	0	27262976	51	6934
2026-01-06 08:26:47.96	109.15	8.26	-39.6	-43.6	10.3	2.77e-03	0	52	0	30408704	49	6145
2026-01-06 08:26:48.97	109.06	8.33	-41.3	-48.4	6.2	5.50e-02	0	52	0	33554432	53	8470
2026-01-06 08:26:49.97	108.96	8.40	-40.1	-45.1	8.5	9.44e-03	0	52	0	36700160	50	6913
2026-01-06 08:26:50.98	108.86	8.46	-38.2	-41.1	12.7	4.63e-03	0	52	0	39845888	47	5162
2026-01-06 08:26:51.99	108.77	8.53	-37.2	-40.8	13.0	5.13e-03	0	52	0	42991616	46	5285
2026-01-06 08:26:53.00	108.67	8.60	-37.5	-40.4	12.9	7.14e-03	0	52	0	46137344	45	5370
2026-01-06 08:26:54.01	108.57	8.67	-37.7	-40.4	13.4	4.70e-03	0	52	0	49283072	46	5082
2026-01-06 08:26:55.02	108.48	8.74	-37.0	-40.3	13.3	9.20e-03	0	52	0	52428800	45	5308
2026-01-06 08:26:56.03	108.38	8.81	-37.5	-40.3	13.4	7.00e-03	0	52	0	55574528	45	5330
2026-01-06 08:26:57.04	108.28	8.88	-37.5	-40.3	13.4	8.22e-03	0	52	0	58720256	45	5320
2026-01-06 08:26:58.05	108.18	8.95	-36.5	-40.2	13.4	7.34e-03	0	52	0	61865984	45	5250
2026-01-06 08:26:59.06	108.08	9.02	-36.7	-40.2	13.3	1.34e-02	0	52	0	65011712	45	5277
2026-01-06 08:27:00.07	107.98	9.09	-37.4	-40.2	13.5	6.22e-03	0	53	0	68157440	45	5260
2026-01-06 08:27:01.08	107.88	9.16	-37.4	-40.2	13.9	4.29e-03	0	52	0	71303168	45	5221
2026-01-06 08:27:02.09	107.78	9.23	-37.3	-40.1	13.4	3.54e-03	0	52	0	74448896	45	5207
2026-01-06 08:27:03.09	107.68	9.30	-37.3	-39.9	14.2	3.85e-03	0	53	0	77594624	45	5093
2026-01-06 08:27:04.10	107.57	9.37	-37.2	-39.9	14.2	2.72e-03	0	52	0	80740352	45	5066
2026-01-06 08:27:05.11	107.47	9.44	-37.5	-40.1	13.6	2.99e-03	0	52	0	83886080	45	5177
2026-01-06 08:27:06.12	107.37	9.51	-37.4	-39.9	14.2	2.17e-03	0	52	0	87031808	45	5043
2026-01-06 08:27:07.13	107.26	9.58	-37.4	-39.8	14.4	2.48e-03	0	52	0	90177536	45	5035
2026-01-06 08:27:08.15	107.16	9.65	-37.6	-39.8	14.4	1.93e-03	0	53	0	93323264	45	5024
2026-01-06 08:27:09.16	107.05	9.72	-37.4	-39.8	14.3	3.47e-03	0	53	0	96468992	45	5038
2026-01-06 08:27:10.17	106.95	9.79	-37.4	-39.7	14.6	1.48e-03	0	53	0	99614720	45	4935
2026-01-06 08:27:11.17	106.84	9.86	-37.3	-39.8	14.7	5.90e-04	0	53	0	102760448	45	4991
2026-01-06 08:27:12.19	106.74	9.93	-37.6	-39.7	14.6	5.42e-04	0	53	0	105906176	45	4967
2026-01-06 08:27:13.20	106.63	10.00	-37.7	-39.8	14.8	1.69e-04	0	53	0	109051904	46	4732
2026-01-06 08:27:14.21	106.52	10.08	-37.8	-39.8	14.7	1.36e-03	0	53	0	112197632	46	4733
2026-01-06 08:27:15.22	106.41	10.15	-37.5	-39.7	14.5	7.61e-04	0	53	0	115343360	45	4930
2026-01-06 08:27:16.23	106.31	10.22	-37.1	-39.7	14.2	2.32e-04	0	53	0	118489088	45	4945
2026-01-06 08:27:17.24	106.20	10.29	-37.6	-39.6	15.0	3.96e-05	0	53	0	121634816	45	4904
2026-01-06 08:27:18.25	106.09	10.36	-37.6	-39.7	13.9	9.91e-05	0	53	0	124780544	45	4930
2026-01-06 08:27:19.26	105.98	10.43	-37.7	-39.7	14.8	1.40e-04	0	53	0	127926272	46	4674
2026-01-06 08:27:20.27	105.87	10.50	-37.2	-39.5	14.7	1.46e-04	0	53	0	131072000	45	4861
2026-01-06 08:27:21.28	105.75	10.58	-37.7	-39.6	15.0	1.85e-04	0	53	0	134217728	45	4923
2026-01-06 08:27:22.29	105.64	10.65	-37.6	-39.6	14.4	9.57e-04	0	53	0	137363456	45	4916
2026-01-06 08:27:23.30	105.53	10.72	-37.3	-39.6	14.9	4.80e-04	0	53	0	140509184	45	4871
2026-01-06 08:27:24.31	105.42	10.79	-37.5	-39.6	14.2	4.06e-03	0	53	0	144703488	45	4923
2026-01-06 08:27:25.32	105.30	10.87	-37.5	-39.7	14.6	2.79e-03	0	53	0	147849216	45	4931
2026-01-06 08:27:26.33	105.19	10.94	-36.8	-39.7	13.9	2.48e-03	0	53	0	149946368	45	4958
2026-01-06 08:27:27.34	105.08	11.01	-35.8	-39.3	10.9	3.79e-03	0	53	0	153092096	43	5304
2026-01-06 08:27:28.35	104.96	11.08	-37.1	-39.7	14.2	4.18e-03	0	53	0	156237824	45	4935
2026-01-06 08:27:29.36	104.84	11.16	-35.1	-39.4	9.7	8.73e-03	0	53	0	160432128	41	6023
2026-01-06 08:27:30.37	104.73	11.23	-36.9	-39.9	13.3	9.40e-03	0	53	0	163577856	45	5043
2026-01-06 08:27:31.38	104.61	11.30	-36.1	-39.4	10.8	2.53e-02	0	53	0	166723584	42	5664
2026-01-06 08:27:32.39	104.49	11.38	-37.3	-39.3	12.0	2.88e-02	0	53	0	169869312	43	5334
2026-01-06 08:27:33.41	104.37	11.45	-36.0	-39.3	13.5	1.70e-01	0	53	0	171966464	42	5651
2026-01-06 08:27:34.42	104.25	11.52	-37.3	-39.5	13.7	1.58e-02	0	53	0	176160768	45	4836
2026-01-06 08:27:35.42	104.14	11.60	-36.1	-39.4	14.0	8.52e-03	0	53	0	179306496	45	4776
2026-01-06 08:27:36.43	104.02	11.67	-34.3	-39.3	12.9	8.61e-02	0	53	0	181403648	43	5281
2026-01-06 08:27:37.44	103.90	11.74	-33.2	-38.9	8.5	1.20e-01	0	53	0	184549376	38	6776
2026-01-06 08:27:38.45	103.77	11.82	-36.6	-39.6	13.1	3.54e-01	0	53	0	187695104	45	4896
2026-01-06 08:27:39.46	103.65	11.89	-37.0	-39.4	12.8	1.90e-02	0	53	0	190840832	45	4812
2026-01-06 08:27:40.47	103.53	11.96	-37.1	-39.3	13.4	1.58e-02	0	53	0	193986560	45	4756
2026-01-06 08:27:41.48	103.41	12.04	-37.1	-39.6	12.6	1.49e-02	0	53	0	197132288	45	4904
2026-01-06 08:27:42.49	103.28	12.11	-34.5	-39.4	9.3	2.18e-01	0	53	0	200278016	42	5708
2026-01-06 08:27:43.50	103.16	12.19	-36.1	-39.5	9.8	8.60e-02	2	53	0	203423744	43	5447
2026-01-06 08:27:44.51	103.03	12.26	-35.8	-39.6	12.8	1.89e-02	0	53	0	206569472	45	4914
2026-01-06 08:27:45.52	102.91	12.33	-33.7	-39.1	12.1	1.31e-01	0	54	0	209715200	43	5214
2026-01-06 08:27:46.54	102.78	12.41	-36.3	-39.1	13.2	1.53e-01	0	53	0	212860928	43	5180
2026-01-06 08:27:47.55	102.65	12.48	-35.8	-39.0	12.6	2.43e-02	0	53	0	216006656	42	5452
2026-01-06 08:27:48.56	102.53	12.56	-36.1	-39.1	13.3	1.34e-01	0	54	0	219152384	44	4909
2026-01-06 08:27:49.57	102.40	12.63	-33.5	-39.0	8.6	6.05e-02	1	53	0	222298112	38	6858
2026-01-06 08:27:50.58	102.27	12.71	-37.0	-39.3	13.2	1.59e-02	0	53	0	225443840	44	5001
2026-01-06 08:27:51.58	102.14	12.78	-36.7	-39.5	11.3	4.58e-02	0	54	0	227540992	43	5464
2026-01-06 08:27:52.59	102.01	12.86	-36.4	-39.0	6.7	1.73e-01	18	54	0	230686720	31	10239
2026-01-06 08:27:53.60	101.88	12.93	-35.0	-40.7	10.9	5.93e-02	0	54	0	233832448	43	6224
2026-01-06 08:27:54.61	101.75	13.01	-38.6	-41.9	10.6	5.89e-02	1	54	0	236978176	48	5352
2026-01-06 08:27:55.62	101.61	13.08	-39.0	-42.6	9.9	5.91e-02	0	54	0	240123904	46	6513
2026-01-06 08:27:56.63	101.48	13.16	-38.9	-42.5	10.3	4.97e-02	4	54	0	243269632	48	5752
2026-01-06 08:27:57.64	101.35	13.23	-38.5	-42.3	8.5	4.44e-01	9	54	0	246415360	46	6289
2026-01-06 08:27:58.65	101.21	13.31	-38.9	-42.5	10.6	3.41e-02	0	54	0	248512512	49	5432
2026-01-06 08:27:59.66	101.08	13.38	-39.3	-43.0	10.3	4.74e-02	0	54	0	251658240	49	5786
2026-01-06 08:28:00.67	100.94	13.46	-39.9	-43.9	9.4	5.28e-02	0	54	0	255852544	50	6058
2026-01-06 08:28:01.67	100.81	13.54	-40.1	-44.4	9.3	1.25e-01	0	54	0	257949696	51	6023
2026-01-06 08:28:02.69	100.67	13.61	-39.5	-43.4	10.1	3.56e-02	0	54	0	261095424	49	6034
2026-01-06 08:28:03.70	100.53	13.69	-39.5	-43.4	10.0	7.11e-02	0	54	0	264241152	49	6032
2026-01-06 08:28:04.71	100.39	13.76	-39.5	-43.5	10.4	2.18e-02	0	54	0	267386880	49	6091
2026-01-06 08:28:05.72	100.25	13.84	-38.9	-43.4	10.4	2.37e-02	0	54	0	271581184	49	5995
2026-01-06 08:28:06.73	100.11	13.92	-39.4	-42.5	11.2	1.37e-02	0	54	0	274726912	49	5427
2026-01-06 08:28:07.74	99.97	13.99	-38.3	-41.1	12.9	5.18e-03	0	54	0	277872640	48	4888
2026-01-06 08:28:08.75	99.83	14.07	-38.2	-40.7	13.3	2.58e-03	0	54	0	279969792	47	4932
2026-01-06 08:28:09.76	99.69	14.14	-38.6	-42.0	11.8	2.08e-02	0	54	0	284164096	48	5416
2026-01-06 08:28:10.77	99.55	14.22	-39.3	-42.2	12.4	2.54e-03	0	54	0	287309824	49	5243
2026-01-06 08:28:11.78	99.40	14.30	-39.8	-42.7	12.0	1.18e-03	0	54	0	290455552	50	5251
2026-01-06 08:28:12.79	99.26	14.37	-39.9	-42.8	12.0	7.44e-04	0	54	0	293601280	50	5284
2026-01-06 08:28:13.80	99.11	14.45	-40.0	-42.9	12.0	7.03e-04	0	54	0	296747008	50	5359
2026-01-06 08:28:14.81	98.97	14.53	-39.9	-42.7	12.2	4.07e-04	0	54	0	299892736	50	5269
2026-01-06 08:28:15.82	98.82	14.60	-39.8	-42.6	12.3	4.03e-04	0	54	0	303038464	50	5197
2026-01-06 08:28:16.83	98.67	14.68	-39.7	-42.4	12.6	9.07e-05	0	54	0	306184192	50	5060
2026-01-06 08:28:17.83	98.52	14.75	-39.5	-42.0	13.0	3.66e-05	0	54	0	309329920	50	4853
2026-01-06 08:28:18.84	98.38	14.83	-39.3	-41.7	13.4	1.75e-05	0	54	0	312475648	50	4704
2026-01-06 08:28:19.85	98.23	14.91	-39.0	-41.3	13.8	4.50e-06	0	54	0	315621376	50	4454
2026-01-06 08:28:20.86	98.08	14.98	-38.6	-40.7	14.4	0.00e+00	0	54	0	318767104	49	4437
2026-01-06 08:28:21.87	97.92	15.06	-38.5	-40.5	14.6	0.00e+00	0	54	0	321912832	48	4588
2026-01-06 08:28:22.88	97.77	15.14	-38.2	-40.1	15.1	7.00e-07	0	54	0	325058560	48	4360
2026-01-06 08:28:23.89	97.62	15.22	-37.7	-39.5	15.6	0.00e+00	0	54	0	328204288	47	4333
2026-01-06 08:28:24.90	97.46	15.29	-37.4	-39.1	16.0	0.00e+00	0	54	0	331350016	46	4360
2026-01-06 08:28:25.91	97.31	15.37	-37.4	-39.1	16.0	0.00e+00	0	54	0	334495744	46	4364
2026-01-06 08:28:26.92	97.15	15.45	-37.5	-39.3	15.9	0.00e+00	0	54	0	337641472	46	4474
2026-01-06 08:28:27.93	97.00	15.52	-37.6	-39.4	15.8	0.00e+00	0	54	0	340787200	46	4513
2026-01-06 08:28:28.94	96.84	15.60	-37.6	-39.4	15.8	7.00e-07	0	54	0	343932928	46	4523
2026-01-06 08:28:29.95	96.68	15.68	-37.7	-39.5	15.7	0.00e+00	0	54	0	347078656	46	4580
2026-01-06 08:28:30.96	96.52	15.75	-37.7	-39.5	15.8	0.00e+00	0	54	0	350224384	46	4548
2026-01-06 08:28:31.97	96.36	15.83	-37.6	-39.4	15.9	0.00e+00	0	54	0	353370112	46	4511
2026-01-06 08:28:32.98	96.20	15.91	-37.7	-39.4	15.8	0.00e+00	0	54	0	356515840	46	4544
2026-01-06 08:28:33.99	96.04	15.99	-37.7	-39.5	15.8	0.00e+00	0	54	0	359661568	46	4574
2026-01-06 08:28:35.00	95.88	16.06	-37.7	-39.5	15.8	0.00e+00	0	54	0	362807296	46	4563
2026-01-06 08:28:36.01	95.72	16.14	-37.7	-39.4	15.9	0.00e+00	0	54	0	365953024	46	4530
2026-01-06 08:28:37.02	95.55	16.22	-37.7	-39.5	15.9	0.00e+00	0	54	0	369098752	46	4555
2026-01-06 08:28:38.03	95.39	16.29	-37.7	-39.5	15.9	0.00e+00	0	54	0	372244480	46	4548
2026-01-06 08:28:39.05	95.22	16.37	-37.7	-39.4	16.0	0.00e+00	0	54	0	375390208	46	4513
2026-01-06 08:28:40.06	95.06	16.45	-37.6	-39.3	16.1	0.00e+00	0	54	0	378535936	46	4458
2026-01-06 08:28:41.07	94.89	16.53	-37.5	-39.2	16.1	0.00e+00	0	54	0	381681664	46	4431
2026-01-06 08:28:42.08	94.72	16.60	-37.5	-39.2	16.2	0.00e+00	0	54	0	384827392	46	4414
2026-01-06 08:28:43.09	94.55	16.68	-37.4	-39.1	16.3	0.00e+00	0	54	0	387973120	46	4341
2026-01-06 08:28:44.10	94.38	16.76	-37.4	-39.1	16.3	0.00e+00	0	55	0	391118848	46	4344
2026-01-06 08:28:45.11	94.21	16.84	-37.4	-39.0	16.3	0.00e+00	0	54	0	394264576	46	4320
2026-01-06 08:28:46.12	94.04	16.91	-37.4	-39.1	16.3	0.00e+00	0	54	0	397410304	46	4343
2026-01-06 08:28:47.13	93.87	16.99	-37.4	-39.0	16.3	0.00e+00	0	54	0	400556032	46	4323
2026-01-06 08:28:48.14	93.69	17.07	-37.3	-39.0	16.3	0.00e+00	0	54	0	403701760	46	4297
2026-01-06 08:28:49.15	93.52	17.14	-37.3	-38.9	16.4	0.00e+00	0	54	0	406847488	46	4285
2026-01-06 08:28:50.16	93.35	17.22	-37.3	-38.9	16.4	0.00e+00	0	54	0	409993216	46	4270
2026-01-06 08:28:51.17	93.17	17.30	-37.2	-38.8	16.5	0.00e+00	0	54	0	413138944	46	4240
2026-01-06 08:28:52.19	92.99	17.38	-37.2	-38.8	16.5	0.00e+00	0	54	0	416284672	46	4223
2026-01-06 08:28:53.20	92.81	17.45	-37.2	-38.8	16.5	0.00e+00	0	55	0	419430400	46	4230
2026-01-06 08:28:54.21	92.63	17.53	-37.2	-38.8	16.5	0.00e+00	0	54	0	422576128	46	4206
2026-01-06 08:28:55.22	92.45	17.61	-37.2	-38.8	16.5	0.00e+00	0	55	0	425721856	46	4207
2026-01-06 08:28:56.23	92.27	17.68	-37.2	-38.8	16.4	0.00e+00	0	54	0	428867584	46	4215
2026-01-06 08:28:57.24	92.09	17.76	-37.1	-38.8	16.5	0.00e+00	0	54	0	432013312	46	4198
2026-01-06 08:28:58.25	91.91	17.84	-37.2	-38.9	16.4	0.00e+00	0	54	0	435159040	46	4253
2026-01-06 08:28:59.26	91.73	17.91	-37.3	-39.0	16.2	0.00e+00	0	54	0	438304768	46	4336
2026-01-06 08:29:00.27	91.54	17.99	-37.4	-39.1	16.1	0.00e+00	0	54	0	441450496	46	4381
2026-01-06 08:29:01.28	91.36	18.07	-37.4	-39.1	16.1	0.00e+00	0	55	0	444596224	46	4360
2026-01-06 08:29:02.29	91.17	18.14	-37.3	-39.0	16.1	0.00e+00	0	55	0	447741952	46	4334
2026-01-06 08:29:03.30	90.98	18.22	-37.3	-39.0	16.1	0.00e+00	0	55	0	450887680	46	4303
2026-01-06 08:29:04.31	90.79	18.29	-37.2	-38.9	16.1	0.00e+00	0	54	0	454033408	46	4282
2026-01-06 08:29:05.32	90.61	18.37	-37.2	-38.9	16.0	0.00e+00	0	54	0	457179136	46	4282
2026-01-06 08:29:06.33	90.42	18.45	-37.2	-38.9	16.0	0.00e+00	0	54	0	460324864	46	4275
2026-01-06 08:29:07.34	90.22	18.52	-37.3	-39.0	15.8	0.00e+00	0	55	0	463470592	46	4327
2026-01-06 08:29:08.35	90.03	18.60	-37.3	-39.1	15.6	0.00e+00	0	55	0	466616320	46	4381
2026-01-06 08:29:09.36	89.84	18.67	-37.3	-39.2	15.5	0.00e+00	0	55	0	469762048	46	4411
2026-01-06 08:29:10.37	89.65	18.75	-37.4	-39.3	15.3	0.00e+00	0	55	0	472907776	46	4454
2026-01-06 08:29:11.38	89.45	18.83	-37.5	-39.4	15.2	0.00e+00	0	55	0	476053504	46	4502
2026-01-06 08:29:12.39	89.25	18.90	-37.5	-39.4	15.1	0.00e+00	0	55	0	479199232	46	4529
2026-01-06 08:29:13.40	89.06	18.98	-37.6	-39.6	14.8	0.00e+00	0	55	0	482344960	46	4609
2026-01-06 08:29:14.41	88.86	19.05	-37.5	-39.5	14.7	0.00e+00	0	55	0	485490688	46	4596
2026-01-06 08:29:15.42	88.66	19.13	-37.5	-39.6	14.5	0.00e+00	0	55	0	488636416	46	4633
2026-01-06 08:29:16.43	88.46	19.20	-37.7	-39.8	14.2	2.20e-06	0	55	0	491782144	46	4752
2026-01-06 08:29:17.44	88.26	19.28	-37.8	-40.0	13.9	3.00e-06	0	55	0	494927872	46	4837
2026-01-06 08:29:18.44	88.06	19.35	-37.9	-40.2	13.6	6.10e-06	0	55	0	498073600	46	4978
2026-01-06 08:29:19.45	87.86	19.42	-38.0	-40.4	13.4	1.22e-05	0	55	0	501219328	46	5091
2026-01-06 08:29:20.46	87.65	19.50	-38.0	-40.4	13.3	1.29e-05	0	55	0	504365056	46	5075
2026-01-06 08:29:21.48	87.45	19.57	-38.1	-40.5	13.2	3.12e-05	0	54	0	507510784	46	5145
2026-01-06 08:29:22.48	87.24	19.65	-38.0	-40.5	13.3	1.60e-05	0	55	0	510656512	46	5114
2026-01-06 08:29:23.49	87.04	19.72	-38.1	-40.5	13.2	2.97e-05	0	55	0	513802240	46	5140
2026-01-06 08:29:24.50	86.83	19.79	-38.1	-40.5	13.3	2.05e-05	0	55	0	516947968	46	5125
2026-01-06 08:29:25.51	86.62	19.87	-38.0	-40.4	13.5	1.22e-05	0	55	0	520093696	46	5081
2026-01-06 08:29:26.52	86.41	19.94	-38.0	-40.4	13.6	6.80e-06	0	55	0	523239424	46	5043
2026-01-06 08:29:27.54	86.20	20.01	-38.0	-40.3	13.6	4.50e-06	0	55	0	526385152	46	5013
2026-01-06 08:29:28.55	85.99	20.09	-38.0	-40.2	13.8	5.30e-06	0	55	0	529530880	46	4975
2026-01-06 08:29:29.56	85.77	20.16	-37.8	-40.0	14.1	2.20e-06	0	55	0	532676608	46	4839
2026-01-06 08:29:30.57	85.56	20.23	-37.8	-39.9	14.2	3.00e-06	0	55	0	535822336	46	4795
2026-01-06 08:29:31.58	85.34	20.30	-37.8	-39.9	14.3	0.00e+00	0	55	0	538968064	46	4786
2026-01-06 08:29:32.59	85.13	20.38	-37.6	-39.7	14.6	0.00e+00	0	55	0	542113792	46	4666
2026-01-06 08:29:33.60	84.91	20.45	-37.5	-39.5	14.9	0.00e+00	0	55	0	545259520	46	4587
2026-01-06 08:29:34.60	84.70	20.52	-37.4	-39.4	15.1	7.00e-07	0	55	0	548405248	46	4513
2026-01-06 08:29:35.61	84.48	20.59	-37.4	-39.3	15.2	0.00e+00	0	55	0	551550976	46	4487
2026-01-06 08:29:36.62	84.26	20.66	-37.4	-39.3	15.3	0.00e+00	0	55	0	554696704	46	4481
2026-01-06 08:29:37.63	84.04	20.73	-37.3	-39.1	15.6	0.00e+00	0	55	0	557842432	46	4388
2026-01-06 08:29:38.64	83.81	20.80	-37.3	-39.1	15.6	0.00e+00	0	55	0	560988160	46	4375
2026-01-06 08:29:39.65	83.59	20.87	-37.2	-39.0	15.8	0.00e+00	0	55	0	564133888	46	4315
2026-01-06 08:29:40.66	83.37	20.94	-37.2	-38.9	15.9	0.00e+00	0	55	0	568328192	46	4281
2026-01-06 08:29:41.67	83.14	21.01	-37.2	-39.0	15.9	0.00e+00	0	55	0	571473920	46	4313
2026-01-06 08:29:42.69	82.91	21.08	-37.2	-39.0	15.9	0.00e+00	0	55	0	573571072	46	4292
2026-01-06 08:29:43.70	82.69	21.15	-37.2	-38.9	16.0	0.00e+00	0	55	0	576716800	46	4290
2026-01-06 08:29:44.70	82.46	21.22	-37.2	-38.9	16.0	0.00e+00	0	55	0	579862528	46	4263
2026-01-06 08:29:45.72	82.23	21.29	-37.2	-39.0	16.0	0.00e+00	0	55	0	584056832	46	4295
2026-01-06 08:29:46.73	82.00	21.36	-37.3	-39.0	15.9	0.00e+00	0	55	0	587202560	46	4339
2026-01-06 08:29:47.74	81.77	21.43	-37.2	-39.0	16.0	0.00e+00	0	55	0	590348288	46	4300
2026-01-06 08:29:48.75	81.54	21.49	-37.3	-39.0	15.9	0.00e+00	0	55	0	593494016	46	4322
2026-01-06 08:29:49.76	81.30	21.56	-37.3	-39.0	16.0	0.00e+00	0	55	0	596639744	46	4326
2026-01-06 08:29:50.77	81.07	21.63	-37.3	-39.0	15.9	0.00e+00	0	55	0	599785472	46	4332
2026-01-06 08:29:51.78	80.83	21.70	-37.3	-39.1	15.9	0.00e+00	0	55	0	602931200	46	4361
2026-01-06 08:29:52.79	80.60	21.76	-37.2	-38.9	16.1	0.00e+00	0	55	0	606076928	46	4270
2026-01-06 08:29:53.80	80.36	21.83	-37.1	-38.8	16.2	0.00e+00	0	55	0	609222656	46	4207
2026-01-06 08:29:54.81	80.12	21.89	-37.0	-38.7	16.3	0.00e+00	0	55	0	612368384	46	4159
2026-01-06 08:29:55.82	79.88	21.96	-36.9	-38.6	16.4	0.00e+00	0	55	0	615514112	45	4352
2026-01-06 08:29:56.83	79.64	22.02	-36.8	-38.4	16.6	0.00e+00	0	55	0	618659840	45	4253
2026-01-06 08:29:57.85	79.40	22.09	-36.7	-38.3	16.8	0.00e+00	0	55	0	621805568	45	4194
2026-01-06 08:29:58.86	79.16	22.15	-36.7	-38.3	16.8	0.00e+00	0	55	0	624951296	45	4209
2026-01-06 08:29:59.87	78.91	22.22	-36.8	-38.3	16.7	0.00e+00	0	55	0	628097024	45	4235
2026-01-06 08:30:00.88	78.67	22.28	-36.8	-38.3	16.8	0.00e+00	0	55	0	631242752	45	4235
2026-01-06 08:30:01.89	78.42	22.34	-36.8	-38.4	16.7	0.00e+00	0	55	0	634388480	45	4261
2026-01-06 08:30:02.90	78.18	22.41	-36.8	-38.3	16.8	0.00e+00	0	55	0	637534208	45	4238
2026-01-06 08:30:03.91	77.93	22.47	-36.8	-38.4	16.7	0.00e+00	0	55	0	640679936	45	4269
2026-01-06 08:30:04.92	77.68	22.53	-36.8	-38.4	16.8	0.00e+00	0	55	0	643825664	45	4243
2026-01-06 08:30:05.93	77.43	22.59	-36.8	-38.4	16.7	0.00e+00	0	55	0	646971392	45	4256
2026-01-06 08:30:06.94	77.18	22.65	-36.8	-38.4	16.7	0.00e+00	0	55	0	650117120	45	4268
2026-01-06 08:30:07.95	76.93	22.71	-36.8	-38.4	16.7	0.00e+00	0	55	0	653262848	45	4287
2026-01-06 08:30:08.96	76.68	22.77	-36.8	-38.4	16.7	0.00e+00	0	55	0	656408576	45	4283
2026-01-06 08:30:09.97	76.43	22.83	-36.8	-38.4	16.8	0.00e+00	0	55	0	659554304	45	4262
2026-01-06 08:30:10.98	76.17	22.89	-36.9	-38.5	16.7	0.00e+00	0	55	0	662700032	45	4310
2026-01-06 08:30:11.99	75.92	22.95	-36.9	-38.5	16.7	0.00e+00	0	55	0	665845760	45	4304
2026-01-06 08:30:13.00	75.66	23.01	-36.9	-38.5	16.7	0.00e+00	0	55	0	668991488	45	4328
2026-01-06 08:30:14.01	75.40	23.07	-36.9	-38.5	16.8	0.00e+00	0	55	0	672137216	45	4307
2026-01-06 08:30:15.02	75.15	23.12	-36.8	-38.4	16.8	0.00e+00	0	55	0	675282944	45	4274
2026-01-06 08:30:16.03	74.89	23.18	-36.8	-38.3	16.9	0.00e+00	0	55	0	678428672	45	4226
2026-01-06 08:30:17.04	74.63	23.24	-36.7	-38.3	17.0	0.00e+00	0	55	0	681574400	45	4206
2026-01-06 08:30:18.05	74.37	23.29	-36.7	-38.2	17.1	0.00e+00	0	55	0	684720128	45	4187
2026-01-06 08:30:19.06	74.10	23.35	-36.7	-38.2	17.1	0.00e+00	0	55	0	687865856	45	4173
2026-01-06 08:30:20.07	73.84	23.40	-36.7	-38.2	17.1	0.00e+00	0	55	0	691011584	45	4152
2026-01-06 08:30:21.08	73.58	23.46	-36.6	-38.1	17.2	0.00e+00	0	55	0	694157312	45	4134
2026-01-06 08:30:22.09	73.31	23.51	-36.7	-38.2	17.2	0.00e+00	0	55	0	697303040	45	4151
2026-01-06 08:30:23.10	73.05	23.56	-36.8	-38.3	17.0	0.00e+00	0	55	0	700448768	45	4218
2026-01-06 08:30:24.11	72.78	23.61	-36.8	-38.4	17.0	0.00e+00	0	55	0	703594496	45	4248
2026-01-06 08:30:25.12	72.51	23.67	-36.9	-38.4	16.9	0.00e+00	0	55	0	706740224	45	4289
2026-01-06 08:30:26.13	72.25	23.72	-36.9	-38.5	16.9	0.00e+00	0	55	0	709885952	45	4314
2026-01-06 08:30:27.14	71.98	23.77	-37.0	-38.6	16.9	0.00e+00	0	55	0	713031680	45	4344
2026-01-06 08:30:28.15	71.71	23.82	-37.1	-38.6	16.8	0.00e+00	0	55	0	716177408	45	4384
2026-01-06 08:30:29.16	71.44	23.87	-36.9	-38.5	17.0	0.00e+00	0	55	0	719323136	45	4311
2026-01-06 08:30:30.18	71.16	23.92	-36.9	-38.4	17.1	0.00e+00	0	55	0	722468864	45	4275
2026-01-06 08:30:31.19	70.89	23.96	-36.8	-38.4	17.2	0.00e+00	0	55	0	725614592	45	4253
2026-01-06 08:30:32.20	70.62	24.01	-36.9	-38.4	17.2	0.00e+00	0	55	0	728760320	45	4261
2026-01-06 08:30:33.21	70.34	24.06	-36.9	-38.4	17.2	0.00e+00	0	55	0	731906048	45	4245
2026-01-06 08:30:34.22	70.07	24.11	-36.9	-38.4	17.2	0.00e+00	0	55	0	735051776	45	4256
2026-01-06 08:30:35.23	69.79	24.15	-36.9	-38.4	17.2	0.00e+00	0	55	0	738197504	45	4258
2026-01-06 08:30:36.24	69.52	24.20	-36.9	-38.4	17.2	0.00e+00	0	55	0	741343232	45	4264
2026-01-06 08:30:37.25	69.24	24.24	-36.9	-38.4	17.2	0.00e+00	0	55	0	744488960	45	4253
2026-01-06 08:30:38.26	68.96	24.28	-36.8	-38.3	17.4	0.00e+00	0	55	0	747634688	45	4205
2026-01-06 08:30:39.27	68.68	24.33	-36.7	-38.2	17.4	0.00e+00	0	55	0	750780416	45	4174
2026-01-06 08:30:40.28	68.40	24.37	-36.8	-38.2	17.4	0.00e+00	0	55	0	753926144	45	4175
2026-01-06 08:30:41.29	68.12	24.41	-36.8	-38.2	17.4	0.00e+00	0	55	0	757071872	45	4188
2026-01-06 08:30:42.30	67.84	24.45	-36.8	-38.2	17.4	0.00e+00	0	55	0	760217600	45	4185
2026-01-06 08:30:43.31	67.56	24.49	-36.7	-38.2	17.5	0.00e+00	0	55	0	763363328	45	4155
2026-01-06 08:30:44.32	67.28	24.53	-36.7	-38.1	17.5	0.00e+00	0	55	0	766509056	45	4134
2026-01-06 08:30:45.33	67.00	24.57	-36.6	-38.1	17.6	0.00e+00	0	55	0	769654784	45	4114
2026-01-06 08:30:46.34	66.71	24.61	-36.7	-38.1	17.5	0.00e+00	0	55	0	772800512	45	4140
2026-01-06 08:30:47.35	66.43	24.65	-36.7	-38.2	17.4	0.00e+00	0	55	0	775946240	45	4167
2026-01-06 08:30:48.36	66.14	24.69	-36.8	-38.3	17.3	0.00e+00	0	55	0	779091968	45	4233
2026-01-06 08:30:49.38	65.85	24.72	-36.9	-38.4	17.3	0.00e+00	0	55	0	782237696	45	4270
2026-01-06 08:30:50.39	65.57	24.76	-36.9	-38.4	17.3	0.00e+00	0	55	0	785383424	45	4282
2026-01-06 08:30:51.40	65.28	24.79	-36.9	-38.4	17.3	0.00e+00	0	55	0	788529152	45	4265
2026-01-06 08:30:52.41	64.99	24.83	-36.8	-38.3	17.3	0.00e+00	0	55	0	791674880	45	4224
2026-01-06 08:30:53.42	64.70	24.86	-36.8	-38.3	17.4	0.00e+00	0	55	0	794820608	45	4194
2026-01-06 08:30:54.42	64.42	24.89	-36.8	-38.3	17.4	0.00e+00	0	55	0	797966336	45	4215
2026-01-06 08:30:55.43	64.13	24.92	-36.9	-38.3	17.4	0.00e+00	0	55	0	801112064	45	4238
2026-01-06 08:30:56.44	63.84	24.95	-36.9	-38.4	17.3	0.00e+00	0	55	0	804257792	45	4248
2026-01-06 08:30:57.45	63.55	24.98	-36.9	-38.3	17.3	0.00e+00	0	55	0	807403520	45	4236
2026-01-06 08:30:58.46	63.26	25.01	-36.8	-38.3	17.5	0.00e+00	0	55	0	810549248	45	4206
2026-01-06 08:30:59.47	62.96	25.04	-36.6	-38.1	17.6	0.00e+00	0	55	0	813694976	45	4118
2026-01-06 08:31:00.48	62.67	25.07	-36.5	-38.0	17.7	0.00e+00	0	55	0	816840704	45	4056
2026-01-06 08:31:01.49	62.38	25.10	-36.5	-38.0	17.7	0.00e+00	0	55	0	819986432	45	4057
2026-01-06 08:31:02.50	62.09	25.12	-36.5	-37.9	17.7	0.00e+00	0	56	0	823132160	45	4045
2026-01-06 08:31:03.51	61.79	25.15	-36.5	-38.0	17.7	0.00e+00	0	55	0	826277888	45	4063
2026-01-06 08:31:04.52	61.50	25.17	-36.5	-37.9	17.8	0.00e+00	0	55	0	829423616	45	4035
2026-01-06 08:31:05.53	61.20	25.20	-36.5	-37.9	17.8	0.00e+00	0	55	0	832569344	45	4024
2026-01-06 08:31:06.54	60.91	25.22	-36.4	-37.8	17.9	0.00e+00	0	55	0	835715072	44	4234
2026-01-06 08:31:07.55	60.61	25.24	-36.5	-37.9	17.8	0.00e+00	0	55	0	838860800	44	4258
2026-01-06 08:31:08.56	60.32	25.26	-36.6	-38.0	17.7	0.00e+00	0	55	0	842006528	44	4313
2026-01-06 08:31:09.58	60.02	25.29	-36.6	-38.0	17.7	0.00e+00	0	55	0	845152256	44	4337
2026-01-06 08:31:10.58	59.72	25.31	-36.7	-38.1	17.6	0.00e+00	0	56	0	848297984	44	4389
2026-01-06 08:31:11.59	59.43	25.32	-36.7	-38.2	17.5	0.00e+00	0	55	0	851443712	44	4413
2026-01-06 08:31:12.60	59.13	25.34	-36.8	-38.2	17.5	0.00e+00	0	55	0	854589440	44	4428
2026-01-06 08:31:13.62	58.83	25.36	-36.7	-38.2	17.6	0.00e+00	0	55	0	858783744	44	4398
2026-01-06 08:31:14.63	58.53	25.38	-36.6	-38.0	17.7	0.00e+00	0	56	0	861929472	44	4338
2026-01-06 08:31:15.64	58.23	25.39	-36.5	-37.9	17.8	0.00e+00	0	56	0	865075200	44	4268
2026-01-06 08:31:16.65	57.93	25.41	-36.5	-37.8	17.9	0.00e+00	0	56	0	867172352	44	4239
2026-01-06 08:31:17.66	57.64	25.42	-36.5	-37.8	17.9	0.00e+00	0	55	0	870318080	44	4238
2026-01-06 08:31:18.67	57.34	25.43	-36.6	-38.0	17.8	0.00e+00	0	55	0	874512384	44	4307
2026-01-06 08:31:19.68	57.04	25.45	-36.7	-38.1	17.7	0.00e+00	0	55	0	877658112	44	4364
2026-01-06 08:31:20.69	56.74	25.46	-36.7	-38.2	17.6	0.00e+00	0	55	0	880803840	44	4409
2026-01-06 08:31:21.70	56.44	25.47	-36.8	-38.3	17.5	0.00e+00	0	55	0	883949568	44	4457
2026-01-06 08:31:22.71	56.14	25.48	-36.8	-38.3	17.5	0.00e+00	0	55	0	887095296	44	4458
2026-01-06 08:31:23.72	55.84	25.49	-36.8	-38.3	17.5	0.00e+00	0	55	0	890241024	44	4459
2026-01-06 08:31:24.73	55.54	25.49	-36.8	-38.2	17.6	0.00e+00	0	55	0	893386752	44	4427
2026-01-06 08:31:25.74	55.24	25.50	-36.7	-38.2	17.6	0.00e+00	0	55	0	896532480	44	4394
2026-01-06 08:31:26.75	54.94	25.51	-36.6	-38.1	17.7	0.00e+00	0	55	0	899678208	44	4345
2026-01-06 08:31:27.77	54.63	25.51	-36.6	-38.0	17.8	0.00e+00	0	55	0	902823936	44	4301
2026-01-06 08:31:28.78	54.33	25.52	-36.6	-38.0	17.8	0.00e+00	0	55	0	905969664	44	4301
2026-01-06 08:31:29.79	54.03	25.52	-36.6	-38.0	17.8	0.00e+00	0	55	0	909115392	44	4326
2026-01-06 08:31:30.80	53.73	25.52	-36.7	-38.1	17.7	0.00e+00	0	55	0	912261120	44	4357
2026-01-06 08:31:31.81	53.43	25.53	-36.7	-38.1	17.7	0.00e+00	0	56	0	915406848	44	4385
2026-01-06 08:31:32.82	53.13	25.53	-36.8	-38.3	17.5	0.00e+00	0	56	0	918552576	44	4453
2026-01-06 08:31:33.83	52.83	25.53	-36.9	-38.4	17.4	0.00e+00	0	56	0	921698304	44	4531
2026-01-06 08:31:34.84	52.53	25.53	-37.0	-38.5	17.3	0.00e+00	0	56	0	924844032	44	4560
2026-01-06 08:31:35.85	52.23	25.53	-36.9	-38.3	17.5	0.00e+00	0	56	0	927989760	44	4492
2026-01-06 08:31:36.86	51.93	25.52	-36.7	-38.2	17.6	0.00e+00	0	55	0	931135488	44	4403
2026-01-06 08:31:37.87	51.62	25.52	-36.7	-38.2	17.7	0.00e+00	0	56	0	934281216	44	4394
2026-01-06 08:31:38.88	51.32	25.52	-36.7	-38.1	17.7	0.00e+00	0	56	0	937426944	44	4372
2026-01-06 08:31:39.90	51.02	25.51	-36.6	-38.1	17.8	0.00e+00	0	56	0	940572672	44	4344
2026-01-06 08:31:40.91	50.72	25.51	-36.7	-38.1	17.7	0.00e+00	0	56	0	943718400	44	4356
2026-01-06 08:31:41.92	50.42	25.50	-36.7	-38.1	17.7	0.00e+00	0	55	0	946864128	44	4350
2026-01-06 08:31:42.93	50.12	25.49	-36.7	-38.1	17.7	0.00e+00	0	56	0	950009856	44	4385
2026-01-06 08:31:43.94	49.82	25.48	-36.7	-38.2	17.6	0.00e+00	0	56	0	953155584	44	4414
2026-01-06 08:31:44.95	49.52	25.47	-36.7	-38.2	17.6	0.00e+00	0	56	0	956301312	44	4394
2026-01-06 08:31:45.96	49.22	25.46	-36.7	-38.2	17.6	0.00e+00	0	56	0	959447040	44	4398
2026-01-06 08:31:46.97	48.92	25.45	-36.8	-38.2	17.6	0.00e+00	0	56	0	962592768	44	4434
2026-01-06 08:31:47.98	48.62	25.44	-36.8	-38.2	17.6	0.00e+00	0	56	0	965738496	44	4423
2026-01-06 08:31:48.99	48.32	25.43	-36.8	-38.2	17.6	0.00e+00	0	56	0	968884224	44	4419
2026-01-06 08:31:50.00	48.02	25.41	-36.8	-38.2	17.6	0.00e+00	0	55	0	972029952	44	4413
2026-01-06 08:31:51.01	47.72	25.40	-36.7	-38.1	17.7	0.00e+00	0	56	0	975175680	44	4391
2026-01-06 08:31:52.02	47.43	25.39	-36.7	-38.1	17.7	0.00e+00	0	55	0	978321408	44	4377
2026-01-06 08:31:53.02	47.13	25.37	-36.7	-38.1	17.7	0.00e+00	0	56	0	981467136	44	4388
2026-01-06 08:31:54.03	46.83	25.35	-36.9	-38.3	17.5	0.00e+00	0	56	0	984612864	44	4487
2026-01-06 08:31:55.04	46.54	25.33	-36.9	-38.4	17.5	0.00e+00	0	55	0	987758592	44	4521
2026-01-06 08:31:56.06	46.24	25.32	-37.1	-38.5	17.3	0.00e+00	0	55	0	990904320	44	4597
2026-01-06 08:31:57.07	45.94	25.30	-37.1	-38.6	17.2	0.00e+00	0	56	0	994050048	44	4647
2026-01-06 08:31:58.08	45.64	25.28	-37.1	-38.5	17.3	0.00e+00	0	56	0	997195776	44	4595
2026-01-06 08:31:59.09	45.35	25.26	-36.9	-38.4	17.4	0.00e+00	0	56	0	1000341504	44	4529
2026-01-06 08:32:00.10	45.05	25.23	-36.9	-38.3	17.5	0.00e+00	0	56	0	1003487232	44	4481
2026-01-06 08:32:01.11	44.76	25.21	-36.8	-38.3	17.6	0.00e+00	0	56	0	1006632960	44	4448
2026-01-06 08:32:02.12	44.46	25.19	-36.8	-38.2	17.7	0.00e+00	0	56	0	1009778688	44	4414
2026-01-06 08:32:03.13	44.17	25.16	-36.8	-38.2	17.7	0.00e+00	0	56	0	1012924416	44	4405
2026-01-06 08:32:04.14	43.88	25.14	-36.8	-38.2	17.6	0.00e+00	0	56	0	1016070144	44	4424
2026-01-06 08:32:05.15	43.58	25.11	-36.8	-38.3	17.6	0.00e+00	0	56	0	1019215872	44	4461
2026-01-06 08:32:06.16	43.29	25.09	-36.9	-38.3	17.5	0.00e+00	0	56	0	1022361600	44	4490
2026-01-06 08:32:07.17	43.00	25.06	-37.0	-38.4	17.4	0.00e+00	0	56	0	1025507328	44	4537
2026-01-06 08:32:08.18	42.71	25.03	-37.1	-38.5	17.4	0.00e+00	0	56	0	1028653056	44	4593
2026-01-06 08:32:09.19	42.42	25.00	-37.1	-38.6	17.3	0.00e+00	0	56	0	1031798784	44	4603
2026-01-06 08:32:10.20	42.13	24.97	-37.2	-38.7	17.1	0.00e+00	0	56	0	1034944512	44	4678
2026-01-06 08:32:11.21	41.84	24.94	-37.2	-38.8	17.1	0.00e+00	0	56	0	1038090240	45	4450
2026-01-06 08:32:12.23	41.54	24.91	-37.2	-38.7	17.2	0.00e+00	0	56	0	1041235968	45	4399
2026-01-06 08:32:13.23	41.26	24.88	-37.1	-38.6	17.3	0.00e+00	0	56	0	1044381696	45	4364
2026-01-06 08:32:14.24	40.97	24.85	-37.0	-38.5	17.4	0.00e+00	0	56	0	1047527424	45	4311
2026-01-06 08:32:15.25	40.68	24.81	-36.9	-38.4	17.5	0.00e+00	0	56	0	1050673152	45	4260
2026-01-06 08:32:16.26	40.39	24.78	-36.8	-38.2	17.6	0.00e+00	0	56	0	1053818880	45	4191
2026-01-06 08:32:17.27	40.11	24.74	-36.8	-38.2	17.6	0.00e+00	0	56	0	1056964608	45	4184
2026-01-06 08:32:18.28	39.82	24.71	-36.8	-38.2	17.6	0.00e+00	0	56	0	1060110336	45	4175
2026-01-06 08:32:19.30	39.54	24.67	-36.8	-38.2	17.7	0.00e+00	0	56	0	1063256064	45	4165
2026-01-06 08:32:20.31	39.25	24.63	-36.8	-38.2	17.7	0.00e+00	0	56	0	1066401792	45	4165
2026-01-06 08:32:21.32	38.97	24.60	-36.7	-38.2	17.7	0.00e+00	0	56	0	1069547520	45	4154
2026-01-06 08:32:22.33	38.68	24.56	-36.8	-38.2	17.6	0.00e+00	0	56	0	1072693248	45	4190
2026-01-06 08:32:23.34	38.40	24.52	-36.8	-38.3	17.6	0.00e+00	0	56	0	1075838976	45	4200
2026-01-06 08:32:24.35	38.12	24.48	-36.8	-38.2	17.6	0.00e+00	0	56	0	1078984704	45	4184
2026-01-06 08:32:25.36	37.84	24.44	-36.8	-38.2	17.6	0.00e+00	0	56	0	1082130432	45	4172
2026-01-06 08:32:26.37	37.56	24.40	-36.8	-38.2	17.7	0.00e+00	0	56	0	1085276160	45	4164
2026-01-06 08:32:27.38	37.28	24.35	-36.8	-38.3	17.6	0.00e+00	0	56	0	1088421888	45	4197
2026-01-06 08:32:28.39	37.00	24.31	-36.8	-38.2	17.6	0.00e+00	0	56	0	1091567616	45	4189
2026-01-06 08:32:29.40	36.73	24.27	-36.8	-38.2	17.7	0.00e+00	0	56	0	1094713344	45	4159
2026-01-06 08:32:30.41	36.45	24.22	-36.7	-38.1	17.7	0.00e+00	0	56	0	1097859072	45	4115
2026-01-06 08:32:31.42	36.17	24.18	-36.6	-38.0	17.8	0.00e+00	0	56	0	1101004800	45	4084
2026-01-06 08:32:32.43	35.90	24.13	-36.6	-38.0	17.8	0.00e+00	0	56	0	1104150528	45	4075
2026-01-06 08:32:33.44	35.62	24.09	-36.6	-38.0	17.9	0.00e+00	0	56	0	1107296256	45	4055
2026-01-06 08:32:34.45	35.35	24.04	-36.6	-38.0	17.8	0.00e+00	0	56	0	1110441984	45	4085
2026-01-06 08:32:35.46	35.08	23.99	-36.7	-38.1	17.7	0.00e+00	0	55	0	1113587712	45	4127
2026-01-06 08:32:36.47	34.80	23.95	-36.9	-38.4	17.5	0.00e+00	0	56	0	1116733440	45	4250
2026-01-06 08:32:37.48	34.53	23.90	-37.1	-38.6	17.3	0.00e+00	0	56	0	1119879168	45	4356
2026-01-06 08:32:38.49	34.26	23.85	-37.2	-38.6	17.3	0.00e+00	0	56	0	1123024896	45	4387
2026-01-06 08:32:39.50	33.99	23.80	-37.2	-38.7	17.2	0.00e+00	0	56	0	1126170624	45	4404
2026-01-06 08:32:40.51	33.72	23.75	-37.2	-38.7	17.2	0.00e+00	0	56	0	1129316352	45	4427
2026-01-06 08:32:41.52	33.46	23.70	-37.2	-38.7	17.2	0.00e+00	0	56	0	1133510656	45	4422
2026-01-06 08:32:42.53	33.19	23.65	-37.1	-38.6	17.3	0.00e+00	0	56	0	1135607808	45	4368
2026-01-06 08:32:43.54	32.92	23.60	-37.0	-38.5	17.4	0.00e+00	0	56	0	1138753536	45	4308
2026-01-06 08:32:44.55	32.66	23.54	-37.0	-38.4	17.4	0.00e+00	0	56	0	1141899264	45	4290
2026-01-06 08:32:45.56	32.39	23.49	-36.9	-38.4	17.5	0.00e+00	0	56	0	1146093568	45	4250
2026-01-06 08:32:46.57	32.13	23.44	-37.0	-38.4	17.4	0.00e+00	0	56	0	1149239296	45	4281
2026-01-06 08:32:47.58	31.87	23.38	-37.0	-38.4	17.5	0.00e+00	0	56	0	1152385024	45	4274
2026-01-06 08:32:48.59	31.61	23.33	-36.9	-38.3	17.5	0.00e+00	0	56	0	1155530752	45	4242
2026-01-06 08:32:49.60	31.35	23.27	-36.8	-38.3	17.6	0.00e+00	0	56	0	1157627904	45	4215
2026-01-06 08:32:50.61	31.09	23.22	-36.8	-38.2	17.7	0.00e+00	0	56	0	1161822208	45	4176
2026-01-06 08:32:51.62	30.83	23.16	-36.8	-38.2	17.6	0.00e+00	0	56	0	1164967936	45	4184
2026-01-06 08:32:52.63	30.57	23.11	-36.8	-38.2	17.7	0.00e+00	0	56	0	1168113664	45	4184
2026-01-06 08:32:53.64	30.32	23.05	-36.8	-38.2	17.7	0.00e+00	0	56	0	1171259392	45	4180
2026-01-06 08:32:54.65	30.06	22.99	-36.7	-38.1	17.7	0.00e+00	0	56	0	1174405120	45	4141
2026-01-06 08:32:55.66	29.80	22.93	-36.7	-38.1	17.7	0.00e+00	0	56	0	1177550848	45	4125
2026-01-06 08:32:56.67	29.55	22.87	-36.8	-38.2	17.7	0.00e+00	0	56	0	1180696576	45	4174
2026-01-06 08:32:57.68	29.30	22.81	-36.8	-38.3	17.6	0.00e+00	0	56	0	1183842304	45	4204
2026-01-06 08:32:58.69	29.05	22.76	-36.8	-38.3	17.5	0.00e+00	0	56	0	1186988032	45	4208
2026-01-06 08:32:59.70	28.80	22.70	-36.8	-38.3	17.6	0.00e+00	0	56	0	1190133760	45	4211
2026-01-06 08:33:00.72	28.54	22.63	-36.9	-38.3	17.5	0.00e+00	0	56	0	1193279488	45	4237
2026-01-06 08:33:01.73	28.29	22.57	-37.0	-38.4	17.4	0.00e+00	0	56	0	1196425216	45	4291
2026-01-06 08:33:02.74	28.05	22.51	-37.1	-38.6	17.3	0.00e+00	0	56	0	1199570944	45	4348
2026-01-06 08:33:03.75	27.80	22.45	-37.1	-38.7	17.3	0.00e+00	0	56	0	1202716672	45	4392
2026-01-06 08:33:04.76	27.55	22.39	-37.1	-38.6	17.3	0.00e+00	0	56	0	1205862400	45	4361
2026-01-06 08:33:05.77	27.31	22.33	-37.2	-38.7	17.2	0.00e+00	0	56	0	1209008128	45	4412
2026-01-06 08:33:06.78	27.06	22.26	-37.2	-38.7	17.2	0.00e+00	0	56	0	1212153856	45	4426
2026-01-06 08:33:07.79	26.82	22.20	-37.1	-38.6	17.3	0.00e+00	0	56	0	1215299584	45	4361
2026-01-06 08:33:08.80	26.58	22.14	-36.9	-38.3	17.5	0.00e+00	0	56	0	1218445312	45	4242
2026-01-06 08:33:09.81	26.34	22.07	-36.7	-38.1	17.7	0.00e+00	0	56	0	1221591040	45	4144
2026-01-06 08:33:10.83	26.10	22.01	-36.5	-37.9	17.9	0.00e+00	0	56	0	1224736768	45	4019
2026-01-06 08:33:11.84	25.86	21.94	-36.5	-37.9	18.0	0.00e+00	0	56	0	1227882496	45	4018
2026-01-06 08:33:12.84	25.62	21.88	-36.5	-37.9	18.0	0.00e+00	0	56	0	1231028224	44	4250
2026-01-06 08:33:13.85	25.39	21.81	-36.5	-37.9	17.9	0.00e+00	0	56	0	1234173952	44	4277
2026-01-06 08:33:14.86	25.15	21.75	-36.6	-38.0	17.8	0.00e+00	0	56	0	1237319680	44	4326
2026-01-06 08:33:15.87	24.91	21.68	-36.8	-38.2	17.6	0.00e+00	0	56	0	1240465408	44	4429
2026-01-06 08:33:16.88	24.68	21.61	-36.9	-38.4	17.5	0.00e+00	0	56	0	1243611136	44	4508
2026-01-06 08:33:17.89	24.45	21.55	-37.0	-38.5	17.4	0.00e+00	0	56	0	1246756864	44	4558
2026-01-06 08:33:18.91	24.21	21.48	-36.9	-38.4	17.4	0.00e+00	0	56	0	1249902592	44	4524
2026-01-06 08:33:19.92	23.98	21.41	-36.8	-38.2	17.6	0.00e+00	0	56	0	1253048320	44	4426
2026-01-06 08:33:20.93	23.75	21.34	-36.7	-38.1	17.7	0.00e+00	0	56	0	1256194048	44	4378
2026-01-06 08:33:21.94	23.53	21.27	-36.7	-38.1	17.8	0.00e+00	0	56	0	1259339776	44	4355
2026-01-06 08:33:22.95	23.30	21.21	-36.7	-38.2	17.7	0.00e+00	0	56	0	1262485504	44	4401
2026-01-06 08:33:23.96	23.07	21.14	-36.8	-38.2	17.7	0.00e+00	0	56	0	1265631232	44	4408
2026-01-06 08:33:24.96	22.85	21.07	-36.7	-38.2	17.7	0.00e+00	0	56	0	1268776960	44	4395
2026-01-06 08:33:25.98	22.62	21.00	-36.7	-38.2	17.6	0.00e+00	0	56	0	1271922688	44	4409
2026-01-06 08:33:26.99	22.40	20.93	-36.7	-38.1	17.7	0.00e+00	0	56	0	1275068416	44	4378
2026-01-06 08:33:28.00	22.17	20.86	-36.7	-38.1	17.7	0.00e+00	0	56	0	1278214144	44	4353
2026-01-06 08:33:29.01	21.95	20.79	-36.6	-38.0	17.7	0.00e+00	0	56	0	1281359872	44	4340
2026-01-06 08:33:30.02	21.73	20.72	-36.5	-37.9	17.9	0.00e+00	0	56	0	1284505600	44	4284
2026-01-06 08:33:31.03	21.51	20.65	-36.5	-37.9	17.9	0.00e+00	0	56	0	1287651328	44	4252
2026-01-06 08:33:32.04	21.30	20.58	-36.6	-38.0	17.9	0.00e+00	0	56	0	1290797056	44	4315
2026-01-06 08:33:33.05	21.08	20.51	-36.8	-38.2	17.7	0.00e+00	0	56	0	1293942784	44	4421
2026-01-06 08:33:34.06	20.86	20.43	-36.9	-38.4	17.5	0.00e+00	0	56	0	1297088512	44	4514
2026-01-06 08:33:35.07	20.65	20.36	-37.1	-38.6	17.4	0.00e+00	0	56	0	1300234240	44	4613
2026-01-06 08:33:36.08	20.43	20.29	-37.3	-38.8	17.1	0.00e+00	0	56	0	1303379968	45	4466
2026-01-06 08:33:37.09	20.22	20.22	-37.3	-38.9	17.0	0.00e+00	0	56	0	1306525696	45	4511
2026-01-06 08:33:38.10	20.01	20.15	-37.4	-38.9	17.0	0.00e+00	0	56	0	1309671424	45	4534
2026-01-06 08:33:39.11	19.79	20.07	-37.3	-38.9	17.0	0.00e+00	0	56	0	1312817152	45	4514
2026-01-06 08:33:40.12	19.58	20.00	-37.2	-38.8	17.1	0.00e+00	0	56	0	1315962880	45	4451
2026-01-06 08:33:41.13	19.38	19.93	-37.1	-38.6	17.2	0.00e+00	0	56	0	1319108608	45	4391
2026-01-06 08:33:42.14	19.17	19.86	-37.1	-38.6	17.3	0.00e+00	0	56	0	1322254336	45	4355
2026-01-06 08:33:43.15	18.96	19.78	-37.1	-38.6	17.3	0.00e+00	0	56	0	1325400064	45	4354
2026-01-06 08:33:44.16	18.75	19.71	-37.0	-38.5	17.3	0.00e+00	0	56	0	1328545792	45	4315
2026-01-06 08:33:45.17	18.55	19.64	-37.1	-38.6	17.3	0.00e+00	0	56	0	1331691520	45	4358
2026-01-06 08:33:46.19	18.34	19.56	-37.1	-38.6	17.2	0.00e+00	0	56	0	1334837248	45	4372
2026-01-06 08:33:47.20	18.14	19.49	-37.1	-38.6	17.2	0.00e+00	0	56	0	1337982976	45	4366
2026-01-06 08:33:48.21	17.94	19.41	-37.1	-38.6	17.3	0.00e+00	0	56	0	1341128704	45	4351
2026-01-06 08:33:49.22	17.74	19.34	-37.0	-38.5	17.3	0.00e+00	0	56	0	1344274432	45	4310
2026-01-06 08:33:50.22	17.54	19.27	-37.0	-38.5	17.3	0.00e+00	0	56	0	1347420160	45	4329
2026-01-06 08:33:51.23	17.34	19.19	-37.0	-38.4	17.3	0.00e+00	0	56	0	1350565888	45	4290
2026-01-06 08:33:52.24	17.14	19.12	-37.0	-38.4	17.3	0.00e+00	0	56	0	1353711616	45	4285
2026-01-06 08:33:53.25	16.94	19.04	-37.1	-38.6	17.3	0.00e+00	0	56	0	1356857344	45	4344
2026-01-06 08:33:54.26	16.75	18.97	-37.1	-38.6	17.2	0.00e+00	0	56	0	1360003072	45	4389
2026-01-06 08:33:55.27	16.55	18.89	-37.3	-38.9	17.0	0.00e+00	0	56	0	1363148800	45	4494
2026-01-06 08:33:56.28	16.36	18.82	-37.5	-39.1	16.7	0.00e+00	0	56	0	1366294528	45	4610
2026-01-06 08:33:57.29	16.16	18.74	-37.6	-39.2	16.6	0.00e+00	0	56	0	1369440256	45	4700
2026-01-06 08:33:58.30	15.97	18.67	-37.7	-39.4	16.5	0.00e+00	0	56	0	1372585984	45	4762
2026-01-06 08:33:59.31	15.78	18.59	-37.8	-39.4	16.4	0.00e+00	0	56	0	1375731712	46	4531
2026-01-06 08:34:00.32	15.59	18.52	-37.8	-39.5	16.4	0.00e+00	0	56	0	1378877440	46	4552
2026-01-06 08:34:01.33	15.40	18.44	-37.7	-39.4	16.4	0.00e+00	0	56	0	1382023168	46	4500
2026-01-06 08:34:02.34	15.21	18.36	-37.7	-39.4	16.5	0.00e+00	0	56	0	1385168896	46	4500
2026-01-06 08:34:03.35	15.02	18.29	-37.7	-39.3	16.5	0.00e+00	0	56	0	1388314624	46	4471
2026-01-06 08:34:04.36	14.84	18.21	-37.7	-39.3	16.5	0.00e+00	0	56	0	1391460352	46	4461
2026-01-06 08:34:05.37	14.65	18.14	-37.7	-39.3	16.5	0.00e+00	0	56	0	1394606080	46	4474
2026-01-06 08:34:06.38	14.47	18.06	-37.7	-39.3	16.5	0.00e+00	0	56	0	1397751808	46	4470
2026-01-06 08:34:07.39	14.28	17.98	-37.7	-39.4	16.4	0.00e+00	0	56	0	1400897536	46	4506
2026-01-06 08:34:08.40	14.10	17.91	-37.7	-39.4	16.4	0.00e+00	0	56	0	1404043264	46	4510
2026-01-06 08:34:09.41	13.92	17.83	-37.7	-39.4	16.4	0.00e+00	0	56	0	1407188992	46	4524
2026-01-06 08:34:10.42	13.74	17.76	-37.7	-39.4	16.4	0.00e+00	0	56	0	1410334720	46	4528
2026-01-06 08:34:11.43	13.56	17.68	-37.7	-39.4	16.4	0.00e+00	0	56	0	1413480448	46	4494
2026-01-06 08:34:12.44	13.38	17.60	-37.6	-39.3	16.5	0.00e+00	0	56	0	1416626176	46	4461
2026-01-06 08:34:13.45	13.20	17.53	-37.6	-39.2	16.5	0.00e+00	0	56	0	1419771904	46	4424
2026-01-06 08:34:14.46	13.02	17.45	-37.6	-39.2	16.5	0.00e+00	0	56	0	1422917632	46	4406
2026-01-06 08:34:15.47	12.85	17.37	-37.5	-39.1	16.6	0.00e+00	0	56	0	1426063360	46	4383
2026-01-06 08:34:16.48	12.67	17.30	-37.5	-39.1	16.6	0.00e+00	0	56	0	1429209088	46	4371
2026-01-06 08:34:17.49	12.50	17.22	-37.6	-39.2	16.5	0.00e+00	0	56	0	1432354816	46	4431
2026-01-06 08:34:18.50	12.32	17.14	-37.6	-39.3	16.4	0.00e+00	0	56	0	1435500544	46	4458
2026-01-06 08:34:19.51	12.15	17.07	-37.5	-39.1	16.6	0.00e+00	0	56	0	1439694848	46	4359
2026-01-06 08:34:20.52	11.98	16.99	-37.4	-39.0	16.8	0.00e+00	0	56	0	1442840576	46	4295
2026-01-06 08:34:21.53	11.81	16.91	-37.3	-38.8	16.9	0.00e+00	0	56	0	1445986304	46	4229
2026-01-06 08:34:22.54	11.64	16.84	-37.1	-38.7	17.0	0.00e+00	0	56	0	1449132032	46	4158
2026-01-06 08:34:23.55	11.47	16.76	-37.1	-38.6	17.1	0.00e+00	0	56	0	1451229184	46	4117
2026-01-06 08:34:24.56	11.30	16.68	-37.1	-38.6	17.1	0.00e+00	0	56	0	1455423488	46	4125
2026-01-06 08:34:25.57	11.13	16.61	-37.1	-38.7	17.0	0.00e+00	0	56	0	1458569216	46	4156
2026-01-06 08:34:26.58	10.96	16.53	-37.2	-38.8	16.9	0.00e+00	0	56	0	1461714944	46	4226
2026-01-06 08:34:27.59	10.80	16.45	-37.3	-38.8	16.8	0.00e+00	0	56	0	1464860672	46	4239
2026-01-06 08:34:28.60	10.63	16.38	-37.4	-39.0	16.7	0.00e+00	0	56	0	1468006400	46	4304
2026-01-06 08:34:29.61	10.47	16.30	-37.5	-39.1	16.5	0.00e+00	0	56	0	1471152128	46	4370
2026-01-06 08:34:30.62	10.31	16.22	-37.6	-39.2	16.4	0.00e+00	0	56	0	1474297856	46	4434
2026-01-06 08:34:31.62	10.15	16.15	-37.7	-39.4	16.2	0.00e+00	0	56	0	1477443584	46	4529
2026-01-06 08:34:32.63	9.98	16.07	-37.7	-39.4	16.2	0.00e+00	0	56	0	1480589312	46	4519
2026-01-06 08:34:33.64	9.82	15.99	-37.7	-39.4	16.2	0.00e+00	0	56	0	1483735040	46	4511
2026-01-06 08:34:34.65	9.66	15.92	-37.6	-39.3	16.3	0.00e+00	0	56	0	1486880768	46	4461
2026-01-06 08:34:35.66	9.50	15.84	-37.5	-39.2	16.4	0.00e+00	0	56	0	1490026496	46	4419
2026-01-06 08:34:36.67	9.35	15.76	-37.4	-39.1	16.5	0.00e+00	0	56	0	1493172224	46	4354
2026-01-06 08:34:37.68	9.19	15.69	-37.4	-39.0	16.5	0.00e+00	0	56	0	1496317952	46	4323
2026-01-06 08:34:38.69	9.03	15.61	-37.4	-39.0	16.5	0.00e+00	0	56	0	1499463680	46	4322
2026-01-06 08:34:39.70	8.88	15.53	-37.4	-39.0	16.5	0.00e+00	0	56	0	1502609408	46	4329
2026-01-06 08:34:40.72	8.72	15.45	-37.4	-39.1	16.4	0.00e+00	0	56	0	1505755136	46	4342
2026-01-06 08:34:41.73	8.57	15.38	-37.6	-39.3	16.2	0.00e+00	0	56	0	1508900864	46	4461
2026-01-06 08:34:42.73	8.41	15.30	-37.7	-39.4	16.0	0.00e+00	0	56	0	1512046592	46	4527
2026-01-06 08:34:43.75	8.26	15.22	-37.8	-39.6	15.8	0.00e+00	0	56	0	1515192320	46	4627
2026-01-06 08:34:44.76	8.11	15.15	-37.9	-39.8	15.7	0.00e+00	0	56	0	1518338048	46	4712
2026-01-06 08:34:45.77	7.96	15.07	-38.0	-39.8	15.5	0.00e+00	0	56	0	1521483776	46	4748
2026-01-06 08:34:46.78	7.81	15.00	-38.0	-39.8	15.6	0.00e+00	0	56	0	1524629504	46	4730
2026-01-06 08:34:47.78	7.66	14.92	-37.9	-39.7	15.6	0.00e+00	0	56	0	1527775232	46	4680
2026-01-06 08:34:48.79	7.51	14.84	-37.8	-39.6	15.7	0.00e+00	0	56	0	1530920960	46	4628
2026-01-06 08:34:49.80	7.36	14.77	-37.7	-39.4	15.8	0.00e+00	0	56	0	1534066688	46	4539
2026-01-06 08:34:50.81	7.22	14.69	-37.5	-39.2	16.0	0.00e+00	0	56	0	1537212416	46	4404
2026-01-06 08:34:51.82	7.07	14.61	-37.4	-39.1	16.1	0.00e+00	0	56	0	1540358144	46	4372
2026-01-06 08:34:52.83	6.93	14.54	-37.5	-39.2	16.0	0.00e+00	0	56	0	1543503872	46	4421
2026-01-06 08:34:53.84	6.78	14.46	-37.5	-39.2	16.0	0.00e+00	0	56	0	1546649600	46	4407
2026-01-06 08:34:54.85	6.64	14.39	-37.3	-39.0	16.1	0.00e+00	0	56	0	1549795328	46	4311
2026-01-06 08:34:55.86	6.49	14.31	-37.3	-39.0	16.0	0.00e+00	0	56	0	1552941056	46	4331
2026-01-06 08:34:56.87	6.35	14.23	-37.5	-39.3	15.6	0.00e+00	0	56	0	1556086784	46	4486
2026-01-06 08:34:57.88	6.21	14.16	-37.8	-39.7	15.2	0.00e+00	0	56	0	1559232512	46	4688
2026-01-06 08:34:58.89	6.07	14.08	-38.0	-40.0	14.9	0.00e+00	0	56	0	1562378240	46	4840
2026-01-06 08:34:59.90	5.93	14.01	-38.0	-40.1	14.7	0.00e+00	0	56	0	1565523968	46	4881
2026-01-06 08:35:00.91	5.79	13.93	-38.1	-40.2	14.5	7.00e-07	0	56	0	1568669696	46	4938
2026-01-06 08:35:01.92	5.65	13.86	-38.3	-40.5	14.2	7.00e-07	0	56	0	1571815424	47	4822
2026-01-06 08:35:02.93	5.51	13.78	-38.4	-40.6	13.9	1.50e-06	0	56	0	1574961152	47	4914
2026-01-06 08:35:03.94	5.38	13.70	-38.2	-40.4	14.1	7.00e-07	0	56	0	1578106880	47	4809
2026-01-06 08:35:04.95	5.24	13.63	-38.0	-40.2	14.4	0.00e+00	0	56	0	1581252608	47	4657
2026-01-06 08:35:05.96	5.10	13.55	-37.8	-39.9	14.6	7.00e-07	0	56	0	1584398336	47	4501
2026-01-06 08:35:06.97	4.97	13.48	-37.4	-39.5	14.8	0.00e+00	0	56	0	1587544064	46	4557
2026-01-06 08:35:07.98	4.83	13.40	-37.2	-39.2	14.9	0.00e+00	0	56	0	1590689792	46	4441
2026-01-06 08:35:08.99	4.70	13.33	-37.4	-39.4	14.6	0.00e+00	0	56	0	1593835520	46	4545
2026-01-06 08:35:10.00	4.57	13.25	-37.8	-40.1	13.8	1.50e-06	0	56	0	1596981248	46	4876
2026-01-06 08:35:11.01	4.44	13.18	-38.3	-40.9	12.7	3.66e-05	0	56	0	1600126976	47	5065
2026-01-06 08:35:12.02	4.30	13.10	-38.9	-42.1	11.3	5.80e-04	0	56	0	1603272704	48	5478
2026-01-06 08:35:13.03	4.17	13.03	-39.5	-43.3	9.8	7.02e-03	0	56	0	1606418432	49	5959
2026-01-06 08:35:14.04	4.04	12.95	-40.0	-44.7	8.1	4.82e-02	0	56	0	1609564160	50	6627
2026-01-06 08:35:15.05	3.91	12.88	-40.3	-46.2	6.5	1.42e-01	0	56	0	1612709888	51	7378
2026-01-06 08:35:16.06	3.78	12.80	-40.6	-48.2	5.0	5.02e-01	0	56	0	1615855616	51	9344
2026-01-06 08:35:17.07	3.66	12.73	-40.6	-50.3	3.9	1.39e+00	0	56	104	1616904192	52	11162
2026-01-06 08:35:18.08	3.53	12.65	-40.7	-51.5	3.8	1.49e+00	0	56	104	1616904192	52	12918
2026-01-06 08:35:19.09	3.40	12.58	-40.6	-52.2	3.8	1.49e+00	0	56	104	1616904192	52	13936
2026-01-06 08:35:20.10	3.27	12.51	-40.5	-52.2	3.8	1.49e+00	0	56	104	1616904192	52	13915
2026-01-06 08:35:21.11	3.15	12.43	-41.1	-51.9	3.8	1.49e+00	0	56	104	1616904192	52	13427
2026-01-06 08:35:22.12	3.02	12.36	-40.2	-52.5	3.8	1.49e+00	0	56	104	1616904192	52	14453
2026-01-06 08:35:23.13	2.90	12.28	-40.4	-52.5	3.8	1.49e+00	0	56	104	1616904192	52	14424
2026-01-06 08:35:24.14	2.78	12.21	-41.1	-52.5	3.8	1.49e+00	0	56	104	1616904192	52	14521
2026-01-06 08:35:25.15	2.65	12.14	-40.6	-52.4	3.8	1.49e+00	0	56	104	1616904192	52	14314
2026-01-06 08:35:26.16	2.53	12.06	-40.5	-52.5	3.8	1.49e+00	0	56	104	1616904192	52	14509
2026-01-06 08:35:27.17	2.41	11.99	-40.5	-52.5	3.8	1.49e+00	0	56	104	1616904192	52	14471
2026-01-06 08:35:28.18	2.29	11.92	-40.4	-52.5	3.8	1.49e+00	0	56	104	1616904192	52	14482
2026-01-06 08:35:29.19	2.17	11.84	-40.4	-52.6	3.8	1.49e+00	0	56	104	1616904192	52	14563
2026-01-06 08:35:30.20	2.05	11.77	-40.0	-52.3	3.8	1.49e+00	0	56	104	1616904192	52	14088
2026-01-06 08:35:31.22	1.93	11.69	-40.0	-52.3	3.8	1.49e+00	0	56	104	1616904192	52	14148
2026-01-06 08:35:32.23	1.81	11.62	-40.1	-52.5	3.8	1.49e+00	0	56	104	1616904192	52	14421
2026-01-06 08:35:33.23	1.69	11.55	-40.0	-52.3	3.8	1.49e+00	0	56	104	1616904192	52	14094
2026-01-06 08:35:34.24	1.57	11.48	-40.1	-52.5	3.8	1.49e+00	0	56	104	1616904192	52	14420
2026-01-06 08:35:35.25	1.46	11.40	-40.2	-52.5	3.8	1.49e+00	0	56	104	1616904192	52	14413
2026-01-06 08:35:36.26	1.34	11.33	-40.0	-52.3	3.8	1.49e+00	0	56	104	1616904192	51	14969
2026-01-06 08:35:37.27	1.22	11.26	-40.2	-52.5	3.8	1.49e+00	0	56	104	1616904192	51	15350
2026-01-06 08:35:38.28	1.11	11.19	-40.0	-52.3	3.8	1.49e+00	0	56	104	1616904192	51	14937
2026-01-06 08:35:39.29	0.99	11.11	-40.1	-52.4	3.8	1.49e+00	0	56	104	1616904192	51	15119
2026-01-06 08:35:40.30	0.88	11.04	-40.1	-52.4	3.8	1.49e+00	0	56	104	1616904192	51	15091
2026-01-06 08:35:41.31	0.77	10.97	-40.0	-52.3	3.8	1.49e+00	0	56	104	1616904192	51	15032
2026-01-06 08:35:42.32	0.65	10.90	-40.1	-52.4	3.8	1.49e+00	0	56	104	1616904192	51	15110
2026-01-06 08:35:43.33	0.54	10.82	-40.2	-52.4	3.8	1.49e+00	0	56	104	1616904192	51	15221
2026-01-06 08:35:44.35	0.43	10.75	-39.9	-52.3	3.8	1.49e+00	0	56	104	1616904192	51	15016
2026-01-06 08:35:45.36	0.32	10.68	-40.1	-52.5	3.8	1.49e+00	0	56	104	1616904192	51	15295
2026-01-06 08:35:46.37	0.21	10.61	-39.8	-52.3	3.8	1.49e+00	0	56	104	1616904192	51	14906
2026-01-06 08:35:47.38	0.10	10.54	-39.7	-52.3	3.8	1.49e+00	0	56	104	1616904192	51	14882
2026-01-06 08:35:48.39	359.99	10.47	-40.0	-52.3	3.8	1.49e+00	0	56	104	1616904192	51	14979
2026-01-06 08:35:49.40	359.88	10.39	-39.6	-52.2	3.8	1.49e+00	0	56	104	1616904192	51	14825
2026-01-06 08:35:50.41	359.77	10.32	-40.0	-52.4	3.8	1.49e+00	0	56	104	1616904192	51	15059
2026-01-06 08:35:51.42	359.66	10.25	-39.7	-52.3	3.8	1.49e+00	0	56	104	1616904192	51	14946
2026-01-06 08:35:52.43	359.56	10.18	-39.6	-52.3	3.8	1.49e+00	0	56	104	1616904192	51	14903
2026-01-06 08:35:53.44	359.45	10.11	-39.6	-52.2	3.8	1.49e+00	0	56	104	1616904192	51	14859
2026-01-06 08:35:54.45	359.34	10.04	-39.5	-52.3	3.8	1.49e+00	0	56	104	1616904192	51	14889
2026-01-06 08:35:55.46	359.24	9.97	-39.6	-52.2	3.8	1.49e+00	0	56	104	1616904192	51	14779
2026-01-06 08:35:56.47	359.13	9.90	-39.5	-52.2	3.8	1.49e+00	0	56	104	1616904192	51	14710
2026-01-06 08:35:57.48	359.03	9.83	-39.6	-52.2	3.8	1.49e+00	0	56	104	1616904192	51	14749
2026-01-06 08:35:58.49	358.92	9.76	-39.6	-52.2	3.8	1.49e+00	0	56	104	1616904192	51	14767
2026-01-06 08:35:59.50	358.82	9.69	-39.7	-52.2	3.8	1.49e+00	0	56	104	1616904192	51	14782
2026-01-06 08:36:00.51	358.72	9.62	-39.6	-52.2	3.8	1.49e+00	0	56	104	1616904192	51	14819
2026-01-06 08:36:01.52	358.62	9.54	-39.6	-52.2	3.8	1.49e+00	0	56	104	1616904192	51	14768
2026-01-06 08:36:02.53	358.51	9.47	-39.4	-52.1	3.8	1.49e+00	0	56	104	1616904192	50	15576
2026-01-06 08:36:03.54	358.41	9.40	-39.6	-52.1	3.8	1.49e+00	0	56	104	1616904192	50	15576
2026-01-06 08:36:04.55	358.31	9.34	-39.5	-52.2	3.8	1.49e+00	0	56	104	1616904192	50	15612
2026-01-06 08:36:05.56	358.21	9.27	-39.5	-52.2	3.8	1.49e+00	0	57	104	1616904192	50	15589
2026-01-06 08:36:06.57	358.11	9.20	-39.6	-52.2	3.8	1.49e+00	0	56	104	1616904192	50	15644
2026-01-06 08:36:07.58	358.01	9.13	-39.3	-52.2	3.8	1.49e+00	0	56	104	1616904192	50	15621
2026-01-06 08:36:08.59	357.91	9.06	-39.4	-52.2	3.8	1.49e+00	0	56	104	1616904192	49	16534
2026-01-06 08:36:09.60	357.81	8.99	-39.2	-52.1	3.8	1.49e+00	0	56	104	1616904192	49	16488
2026-01-06 08:36:10.61	357.72	8.92	-38.9	-52.1	3.8	1.49e+00	0	56	104	1616904192	48	17323
2026-01-06 08:36:11.62	357.62	8.85	-39.2	-52.1	3.8	1.49e+00	0	56	104	1616904192	49	16428
2026-01-06 08:36:12.63	357.52	8.78	-39.1	-52.1	3.8	1.49e+00	0	56	104	1616904192	49	16365
2026-01-06 08:36:13.64	357.42	8.71	-39.1	-52.1	3.8	1.49e+00	0	56	104	1616904192	49	16409
2026-01-06 08:36:14.65	357.33	8.64	-39.3	-52.1	3.8	1.49e+00	0	56	104	1616904192	49	16475
2026-01-06 08:36:15.66	357.23	8.57	-38.8	-52.1	3.8	1.49e+00	0	56	104	1616904192	49	16341
2026-01-06 08:36:16.67	357.14	8.51	-39.6	-52.1	3.8	1.49e+00	0	56	104	1616904192	49	16485
2026-01-06 08:36:17.68	357.04	8.44	-38.9	-52.0	3.8	1.49e+00	0	56	104	1616904192	49	16273
2026-01-06 08:36:18.69	356.95	8.37	-39.6	-52.1	3.8	1.49e+00	0	56	104	1616904192	49	16323
2026-01-06 08:36:19.70	356.85	8.30	-39.3	-52.1	3.8	1.49e+00	0	56	104	1616904192	49	16337
2026-01-06 08:36:20.72	356.76	8.23	-39.6	-52.1	3.8	1.49e+00	0	56	104	1616904192	49	16358
2026-01-06 08:36:21.73	356.67	8.16	-39.4	-52.0	3.8	1.49e+00	0	56	104	1616904192	49	16287
2026-01-06 08:36:22.73	356.58	8.10	-39.7	-52.1	3.8	1.49e+00	0	56	104	1616904192	49	16401
2026-01-06 08:36:23.75	356.48	8.03	-39.5	-52.0	3.8	1.49e+00	0	56	104	1616904192	50	15364
2026-01-06 08:36:24.76	356.39	7.96	-38.7	-52.1	3.8	1.49e+00	0	56	104	1616904192	49	16363
2026-01-06 08:36:25.77	356.30	7.89	-40.7	-53.1	3.8	1.49e+00	0	56	104	1616904192	52	15547
2026-01-06 08:36:26.78	356.21	7.83	-44.6	-56.9	3.8	1.49e+00	0	56	104	1616904192	59	16063
2026-01-06 08:36:27.79	356.12	7.76	-44.9	-57.4	3.8	1.49e+00	0	56	104	1616904192	60	15962
2026-01-06 08:36:28.80	356.03	7.69	-45.1	-57.6	3.8	1.49e+00	0	57	104	1616904192	60	16344
2026-01-06 08:36:29.81	355.94	7.62	-45.2	-57.7	3.8	1.49e+00	0	56	104	1616904192	60	16584
2026-01-06 08:36:30.82	355.85	7.56	-45.3	-57.8	3.8	1.49e+00	0	56	104	1616904192	61	15812
2026-01-06 08:36:31.83	355.76	7.49	-45.3	-57.8	3.8	1.49e+00	0	56	104	1616904192	61	15933
2026-01-06 08:36:32.84	355.67	7.42	-45.3	-57.8	3.8	1.49e+00	0	56	104	1616904192	61	15926
2026-01-06 08:36:33.85	355.59	7.36	-45.3	-57.9	3.8	1.49e+00	0	56	104	1616904192	61	15955
2026-01-06 08:36:34.86	355.50	7.29	-45.3	-57.9	3.8	1.49e+00	0	56	104	1616904192	61	15962
2026-01-06 08:36:35.87	355.41	7.22	-45.3	-57.8	3.8	1.49e+00	0	56	104	1616904192	61	15937
2026-01-06 08:36:36.89	355.32	7.16	-45.2	-57.8	3.8	1.49e+00	0	56	104	1616904192	61	15888
2026-01-06 08:36:37.89	355.24	7.09	-45.2	-57.8	3.8	1.49e+00	0	56	104	1616904192	61	15875
2026-01-06 08:36:38.90	355.15	7.03	-45.2	-57.8	3.8	1.49e+00	0	56	104	1616904192	61	15846
2026-01-06 08:36:39.91	355.07	6.96	-45.2	-57.8	3.8	1.49e+00	0	56	104	1616904192	61	15884
2026-01-06 08:36:40.92	354.98	6.89	-45.2	-57.7	3.8	1.49e+00	0	56	104	1616904192	61	15756
2026-01-06 08:36:41.93	354.90	6.83	-45.2	-57.8	3.8	1.49e+00	0	56	104	1616904192	61	15779
2026-01-06 08:36:42.94	354.82	6.76	-45.2	-57.8	3.8	1.49e+00	0	56	104	1616904192	61	15777
2026-01-06 08:36:43.95	354.73	6.70	-45.2	-57.7	3.8	1.49e+00	0	57	104	1616904192	61	15749
2026-01-06 08:36:44.96	354.65	6.63	-45.1	-57.8	3.8	1.49e+00	0	56	104	1616904192	61	15768
2026-01-06 08:36:45.97	354.57	6.57	-45.1	-57.8	3.8	1.49e+00	0	56	104	1616904192	61	15772
2026-01-06 08:36:46.98	354.48	6.50	-45.2	-57.8	3.8	1.49e+00	0	56	104	1616904192	61	15796
2026-01-06 08:36:48.00	354.40	6.43	-45.1	-57.7	3.8	1.49e+00	0	56	104	1616904192	61	15725
