passes_logs/2026/01/06/R2.0S_Moscow/R2.0S_Moscow__20260106_105457_NOAA_20_JPSS-1_rec.log

#Pass ID: 20260106_105457_NOAA 20 (JPSS-1)
#Satellite: NOAA 20 (JPSS-1)
#Configuration: NOAA 20
#almurnet v.1.7.20251203
#Start time: 2026-01-06 10:54:57

#Version: 2.2.20231116
#Station: R2.0S_Moscow
#Location: 37.707566 lon 55.798166 lat
#TLE: 1 43013U 17073A   26005.46207808  .00000128  00000+0  81791-4 0  9997
#TLE: 2 43013  98.7627 306.5027 0001826  53.0458 307.0885 14.19533487421381

#Time	Az	El	Level	Level2	SNR	BER	BlckErr	Temp	State	Recorded	gain1	gain2
2026-01-06 10:54:57.92	190.25	2.06	-43.8	-58.4	3.8	1.49e+00	0	47	0	0	59	19126
2026-01-06 10:54:58.92	190.30	2.12	-43.8	-58.4	3.8	1.49e+00	0	47	104	0	59	19080
2026-01-06 10:54:59.93	190.34	2.18	-43.8	-58.4	3.8	1.49e+00	0	47	104	0	59	19053
2026-01-06 10:55:00.95	190.39	2.24	-43.8	-58.4	3.8	1.49e+00	0	48	104	0	59	19088
2026-01-06 10:55:01.96	190.44	2.30	-43.8	-58.4	3.8	1.49e+00	0	48	104	0	59	19038
2026-01-06 10:55:02.97	190.49	2.36	-43.8	-58.4	3.8	1.49e+00	0	48	104	0	59	19049
2026-01-06 10:55:03.98	190.54	2.42	-43.8	-58.4	3.8	1.49e+00	0	48	104	0	59	19102
2026-01-06 10:55:04.99	190.59	2.49	-43.8	-58.4	3.8	1.49e+00	0	48	104	0	59	19086
2026-01-06 10:55:06.00	190.64	2.55	-43.8	-58.4	3.8	1.49e+00	0	48	104	0	59	19056
2026-01-06 10:55:07.01	190.69	2.61	-43.8	-58.4	3.8	1.49e+00	0	48	104	0	59	19051
2026-01-06 10:55:08.02	190.74	2.67	-43.8	-58.4	3.8	1.49e+00	0	48	104	0	59	19040
2026-01-06 10:55:09.03	190.79	2.74	-43.8	-58.4	3.8	1.49e+00	0	48	104	0	59	19031
2026-01-06 10:55:10.04	190.84	2.80	-43.8	-58.4	3.8	1.49e+00	0	48	104	0	59	19041
2026-01-06 10:55:11.05	190.89	2.86	-43.8	-58.4	3.8	1.49e+00	0	48	104	0	59	19010
2026-01-06 10:55:12.06	190.94	2.92	-43.8	-58.4	3.8	1.49e+00	0	48	104	0	59	19030
2026-01-06 10:55:13.08	190.99	2.99	-43.8	-58.4	3.8	1.49e+00	0	48	104	0	59	19029
2026-01-06 10:55:14.09	191.04	3.05	-43.8	-58.4	3.8	1.49e+00	0	49	104	0	59	18979
2026-01-06 10:55:15.10	191.09	3.11	-43.8	-58.4	3.8	1.49e+00	0	49	104	0	59	18987
2026-01-06 10:55:16.11	191.15	3.18	-43.8	-58.4	3.8	1.49e+00	0	49	104	0	59	19017
2026-01-06 10:55:17.12	191.20	3.24	-43.8	-58.4	3.8	1.49e+00	0	49	104	0	59	19018
2026-01-06 10:55:18.13	191.25	3.30	-43.8	-58.4	3.8	1.49e+00	0	49	104	0	59	19016
2026-01-06 10:55:19.14	191.30	3.37	-43.8	-58.4	3.8	1.49e+00	0	49	104	0	59	19034
2026-01-06 10:55:20.15	191.35	3.43	-43.8	-58.4	3.8	1.49e+00	0	49	104	0	59	19004
2026-01-06 10:55:21.16	191.41	3.49	-43.8	-58.4	3.8	1.49e+00	0	49	104	0	59	19029
2026-01-06 10:55:22.17	191.46	3.56	-43.7	-58.4	3.8	1.49e+00	0	49	104	0	59	18987
2026-01-06 10:55:23.18	191.51	3.62	-43.7	-58.4	3.8	1.49e+00	0	49	104	0	59	19046
2026-01-06 10:55:24.19	191.57	3.69	-43.8	-58.4	3.8	1.49e+00	0	49	104	0	59	18971
2026-01-06 10:55:25.20	191.62	3.75	-43.8	-58.4	3.8	1.49e+00	0	50	104	0	59	18993
2026-01-06 10:55:26.21	191.67	3.82	-43.7	-58.4	3.8	1.49e+00	0	49	104	0	59	18955
2026-01-06 10:55:27.22	191.73	3.88	-43.7	-58.4	3.8	1.49e+00	0	49	104	0	59	18970
2026-01-06 10:55:28.23	191.78	3.95	-43.7	-58.4	3.8	1.49e+00	0	49	104	0	59	19012
2026-01-06 10:55:29.24	191.84	4.01	-43.7	-58.4	3.8	1.49e+00	0	49	104	0	59	18965
2026-01-06 10:55:30.25	191.89	4.08	-43.7	-58.4	3.8	1.49e+00	0	50	104	0	59	18990
2026-01-06 10:55:31.26	191.95	4.14	-43.7	-58.4	3.8	1.49e+00	0	50	104	0	59	18984
2026-01-06 10:55:32.27	192.00	4.21	-43.7	-58.3	3.8	1.49e+00	0	50	104	0	59	18918
2026-01-06 10:55:33.28	192.06	4.27	-43.7	-58.4	3.8	1.49e+00	0	50	104	0	59	18985
2026-01-06 10:55:34.29	192.11	4.34	-43.7	-58.4	3.8	1.49e+00	0	50	104	0	59	18960
2026-01-06 10:55:35.30	192.17	4.40	-43.7	-58.3	3.8	1.49e+00	0	50	104	0	59	18944
2026-01-06 10:55:36.31	192.22	4.47	-43.7	-58.3	3.8	1.49e+00	0	50	104	0	59	18848
2026-01-06 10:55:37.32	192.28	4.54	-43.7	-58.3	3.8	1.49e+00	0	50	104	0	59	18734
2026-01-06 10:55:38.34	192.34	4.60	-43.7	-58.3	3.8	1.49e+00	0	50	104	0	59	18818
2026-01-06 10:55:39.35	192.39	4.67	-43.7	-58.3	3.8	1.49e+00	0	50	104	0	59	18798
2026-01-06 10:55:40.35	192.45	4.74	-43.7	-58.1	3.8	1.49e+00	0	50	104	0	59	18501
2026-01-06 10:55:41.37	192.51	4.80	-43.7	-58.1	3.8	1.49e+00	0	50	104	0	59	18451
2026-01-06 10:55:42.38	192.56	4.87	-43.7	-58.1	3.8	1.49e+00	0	50	104	0	59	18318
2026-01-06 10:55:43.39	192.62	4.94	-43.7	-57.9	3.8	1.49e+00	0	50	104	0	59	18013
2026-01-06 10:55:44.40	192.68	5.00	-43.7	-57.8	3.8	1.49e+00	0	50	104	0	59	17802
2026-01-06 10:55:45.41	192.74	5.07	-43.7	-57.6	3.8	1.49e+00	0	51	104	0	59	17470
2026-01-06 10:55:46.41	192.80	5.14	-43.7	-57.5	3.8	1.49e+00	0	50	104	0	59	17223
2026-01-06 10:55:47.42	192.86	5.21	-43.7	-57.3	3.8	1.49e+00	0	50	104	0	59	16884
2026-01-06 10:55:48.43	192.91	5.27	-43.7	-57.3	3.8	1.49e+00	0	51	104	0	59	16885
2026-01-06 10:55:49.44	192.97	5.34	-43.6	-57.4	3.8	1.49e+00	0	50	104	0	59	16905
2026-01-06 10:55:50.45	193.03	5.41	-43.7	-57.4	3.8	1.49e+00	0	50	104	0	59	16912
2026-01-06 10:55:51.46	193.09	5.48	-43.7	-57.4	3.8	1.49e+00	0	51	104	0	59	16995
2026-01-06 10:55:52.47	193.15	5.55	-43.7	-57.5	3.8	1.49e+00	0	51	104	0	59	17162
2026-01-06 10:55:53.48	193.21	5.61	-43.7	-57.6	3.8	1.49e+00	0	51	104	0	59	17341
2026-01-06 10:55:54.49	193.27	5.68	-43.7	-57.8	3.8	1.49e+00	0	51	104	0	59	17759
2026-01-06 10:55:55.50	193.33	5.75	-43.7	-57.9	3.8	1.49e+00	0	51	104	0	59	18064
2026-01-06 10:55:56.51	193.40	5.82	-43.7	-58.0	3.8	1.49e+00	0	51	104	0	59	18141
2026-01-06 10:55:57.53	193.46	5.89	-43.7	-58.0	3.8	1.49e+00	0	51	104	0	59	18120
2026-01-06 10:55:58.53	193.52	5.96	-43.7	-57.9	3.8	1.49e+00	0	51	104	0	59	18046
2026-01-06 10:55:59.54	193.58	6.03	-43.7	-57.9	3.8	1.49e+00	0	51	104	0	59	18040
2026-01-06 10:56:00.56	193.64	6.10	-43.7	-57.8	3.8	1.49e+00	0	51	104	0	59	17845
2026-01-06 10:56:01.56	193.71	6.17	-43.7	-57.8	3.8	1.49e+00	0	51	104	0	59	17793
2026-01-06 10:56:02.57	193.77	6.24	-43.7	-57.7	3.8	1.49e+00	0	51	104	0	59	17502
2026-01-06 10:56:03.59	193.83	6.31	-43.7	-57.5	3.8	1.49e+00	0	51	104	0	59	17201
2026-01-06 10:56:04.60	193.90	6.38	-43.7	-57.5	3.8	1.49e+00	0	51	104	0	59	17200
2026-01-06 10:56:05.61	193.96	6.45	-43.6	-57.3	3.8	1.49e+00	0	51	104	0	59	16872
2026-01-06 10:56:06.62	194.02	6.52	-43.6	-57.2	3.8	1.49e+00	0	51	104	0	59	16574
2026-01-06 10:56:07.63	194.09	6.59	-43.6	-56.9	3.8	1.49e+00	0	51	104	0	59	16037
2026-01-06 10:56:08.64	194.15	6.66	-43.6	-56.7	3.8	1.49e+00	0	51	104	0	59	15622
2026-01-06 10:56:09.65	194.22	6.73	-43.6	-56.0	3.9	1.49e+00	0	52	104	0	59	14496
2026-01-06 10:56:10.66	194.28	6.80	-43.5	-55.1	4.1	1.46e+00	0	51	0	0	59	13016
2026-01-06 10:56:11.67	194.35	6.88	-43.4	-54.2	4.4	1.35e+00	67	51	0	0	58	12456
2026-01-06 10:56:12.68	194.41	6.95	-43.3	-53.2	4.8	1.01e+00	0	51	0	2097152	58	11089
2026-01-06 10:56:13.69	194.48	7.02	-43.2	-52.3	5.2	6.31e-01	0	51	0	3145728	58	10036
2026-01-06 10:56:14.70	194.55	7.09	-43.0	-51.2	6.0	4.16e-01	0	52	0	5242880	58	8779
2026-01-06 10:56:15.71	194.61	7.16	-42.8	-50.3	6.7	2.64e-01	0	51	0	7340032	57	8421
2026-01-06 10:56:16.72	194.68	7.23	-42.6	-49.4	7.6	1.07e-01	0	52	0	9437184	57	7595
2026-01-06 10:56:17.73	194.75	7.31	-42.4	-48.6	8.4	6.75e-02	0	51	0	11534336	56	7321
2026-01-06 10:56:18.74	194.82	7.38	-42.2	-47.9	9.1	2.95e-02	0	52	0	12582912	56	6747
2026-01-06 10:56:19.75	194.88	7.45	-42.1	-47.5	9.6	1.59e-02	0	52	0	14680064	56	6437
2026-01-06 10:56:20.76	194.95	7.53	-41.7	-46.8	10.1	7.56e-03	0	52	0	16777216	55	6336
2026-01-06 10:56:21.78	195.02	7.60	-41.5	-46.3	10.6	4.40e-03	0	52	0	18874368	55	5951
2026-01-06 10:56:22.79	195.09	7.67	-41.3	-45.8	11.2	2.67e-03	0	52	0	20971520	54	5963
2026-01-06 10:56:23.80	195.16	7.75	-41.3	-45.7	11.3	1.57e-03	0	52	0	22020096	54	5876
2026-01-06 10:56:24.81	195.23	7.82	-41.2	-45.5	11.4	1.07e-03	0	52	0	24117248	54	5786
2026-01-06 10:56:25.82	195.30	7.89	-41.3	-45.6	11.3	1.09e-03	0	52	0	26214400	54	5836
2026-01-06 10:56:26.83	195.37	7.97	-41.2	-45.6	11.4	1.08e-03	0	52	0	28311552	54	5805
2026-01-06 10:56:27.84	195.44	8.04	-41.4	-45.9	11.0	1.00e-03	0	52	0	30408704	54	6051
2026-01-06 10:56:28.85	195.51	8.12	-41.9	-46.7	10.6	1.24e-03	0	52	0	31457280	54	6598
2026-01-06 10:56:29.86	195.58	8.19	-42.0	-47.1	10.1	3.54e-03	0	52	0	33554432	54	6886
2026-01-06 10:56:30.87	195.65	8.27	-42.7	-50.4	6.9	3.58e-03	0	52	0	35651584	55	9502
2026-01-06 10:56:31.88	195.73	8.34	-43.5	-54.9	4.2	5.72e-01	0	53	0	37748736	57	14251
2026-01-06 10:56:32.88	195.80	8.41	-42.3	-47.6	9.8	2.34e-03	0	52	0	38797312	55	6924
2026-01-06 10:56:33.90	195.87	8.49	-41.4	-45.5	11.8	3.67e-03	0	52	0	40894464	54	5756
2026-01-06 10:56:34.91	195.95	8.57	-41.4	-45.5	11.8	2.98e-04	0	52	0	42991616	54	5761
2026-01-06 10:56:35.92	196.02	8.64	-41.3	-45.4	11.8	4.78e-04	0	52	0	45088768	54	5708
2026-01-06 10:56:36.93	196.09	8.72	-41.2	-45.2	11.9	3.65e-04	0	52	0	46137344	54	5560
2026-01-06 10:56:37.94	196.17	8.79	-41.1	-45.2	11.7	5.78e-04	0	52	0	48234496	54	5576
2026-01-06 10:56:38.95	196.24	8.87	-40.9	-45.1	11.7	6.44e-04	0	52	0	50331648	53	5816
2026-01-06 10:56:39.96	196.32	8.95	-40.8	-45.0	11.5	6.63e-04	0	53	0	52428800	53	5774
2026-01-06 10:56:40.97	196.39	9.02	-40.7	-45.0	11.3	1.19e-03	0	53	0	54525952	53	5754
2026-01-06 10:56:41.98	196.47	9.10	-40.5	-45.0	10.9	1.61e-03	0	52	0	55574528	53	5782
2026-01-06 10:56:42.99	196.54	9.18	-40.3	-44.9	10.8	2.74e-03	0	53	0	57671680	52	6016
2026-01-06 10:56:44.00	196.62	9.25	-40.1	-44.8	10.6	3.44e-03	0	53	0	59768832	52	5935
2026-01-06 10:56:45.01	196.70	9.33	-39.9	-44.7	10.4	3.75e-03	0	53	0	61865984	51	6212
2026-01-06 10:56:46.02	196.77	9.41	-39.9	-44.9	10.0	6.79e-03	0	53	0	63963136	51	6355
2026-01-06 10:56:47.03	196.85	9.49	-39.8	-44.7	10.0	7.24e-03	0	53	0	65011712	51	6244
2026-01-06 10:56:48.04	196.93	9.57	-39.7	-44.6	10.2	6.83e-03	0	53	0	67108864	51	6160
2026-01-06 10:56:49.04	197.01	9.64	-39.8	-44.7	10.1	6.43e-03	0	53	0	69206016	51	6223
2026-01-06 10:56:50.05	197.09	9.72	-39.9	-44.5	10.5	4.63e-03	0	53	0	71303168	51	6118
2026-01-06 10:56:51.06	197.17	9.80	-39.9	-44.5	10.6	3.37e-03	0	53	0	73400320	51	6114
2026-01-06 10:56:52.07	197.25	9.88	-40.0	-44.3	11.2	2.10e-03	0	53	0	75497472	51	5984
2026-01-06 10:56:53.08	197.33	9.96	-40.2	-44.4	11.5	1.01e-03	0	53	0	76546048	51	6023
2026-01-06 10:56:54.09	197.41	10.04	-40.4	-44.5	11.7	4.76e-04	0	53	0	78643200	51	6120
2026-01-06 10:56:55.10	197.49	10.12	-40.4	-44.3	12.3	3.72e-04	0	53	0	80740352	51	5938
2026-01-06 10:56:56.11	197.57	10.20	-40.6	-44.3	12.4	1.84e-04	0	53	0	82837504	51	5978
2026-01-06 10:56:57.12	197.65	10.28	-40.7	-44.4	12.5	1.30e-04	0	53	0	83886080	51	6000
2026-01-06 10:56:58.13	197.73	10.36	-40.7	-44.3	12.8	8.08e-05	0	53	0	85983232	51	5925
2026-01-06 10:56:59.13	197.82	10.44	-40.6	-44.1	13.0	3.96e-05	0	53	0	88080384	51	5854
2026-01-06 10:57:00.14	197.90	10.52	-40.5	-44.0	13.1	2.28e-05	0	53	0	90177536	51	5755
2026-01-06 10:57:01.15	197.98	10.60	-40.5	-44.1	12.8	5.11e-05	0	53	0	92274688	51	5804
2026-01-06 10:57:02.16	198.07	10.68	-40.6	-44.2	12.6	6.94e-05	0	53	0	93323264	51	5898
2026-01-06 10:57:03.17	198.15	10.76	-40.4	-43.9	13.0	5.18e-05	0	53	0	95420416	51	5660
2026-01-06 10:57:04.18	198.24	10.84	-40.5	-44.1	12.7	6.56e-05	0	53	0	97517568	51	5829
2026-01-06 10:57:05.19	198.32	10.92	-40.5	-43.9	13.1	3.05e-05	0	53	0	99614720	51	5711
2026-01-06 10:57:06.20	198.41	11.00	-40.3	-43.7	13.2	2.89e-05	0	53	0	101711872	51	5573
2026-01-06 10:57:07.21	198.49	11.09	-40.4	-43.7	13.2	2.82e-05	0	53	0	103809024	51	5591
2026-01-06 10:57:08.22	198.58	11.17	-40.3	-43.8	13.0	1.06e-05	0	53	0	104857600	51	5618
2026-01-06 10:57:09.23	198.67	11.25	-40.3	-43.8	13.1	3.05e-05	0	53	0	106954752	51	5593
2026-01-06 10:57:10.23	198.75	11.33	-40.3	-43.6	13.6	1.83e-05	0	53	0	109051904	51	5493
2026-01-06 10:57:11.24	198.84	11.42	-40.3	-43.5	13.8	7.60e-06	0	53	0	111149056	51	5432
2026-01-06 10:57:12.25	198.93	11.50	-40.4	-43.5	14.0	2.20e-06	0	53	0	113246208	51	5462
2026-01-06 10:57:13.26	199.02	11.58	-40.4	-43.6	14.0	4.50e-06	0	54	0	114294784	51	5478
2026-01-06 10:57:14.27	199.11	11.67	-40.4	-43.6	14.0	3.00e-06	0	53	0	116391936	51	5469
2026-01-06 10:57:15.28	199.20	11.75	-40.3	-43.5	13.9	3.00e-06	0	53	0	118489088	51	5442
2026-01-06 10:57:16.29	199.29	11.83	-40.3	-43.6	13.8	6.80e-06	0	53	0	120586240	51	5479
2026-01-06 10:57:17.30	199.38	11.92	-40.1	-43.5	13.7	4.50e-06	0	53	0	122683392	51	5445
2026-01-06 10:57:18.31	199.47	12.00	-40.1	-43.5	13.5	5.30e-06	0	54	0	123731968	51	5463
2026-01-06 10:57:19.32	199.57	12.09	-39.9	-43.4	13.6	6.80e-06	0	53	0	125829120	51	5348
2026-01-06 10:57:20.33	199.66	12.17	-40.0	-43.6	13.3	1.37e-05	0	54	0	127926272	51	5481
2026-01-06 10:57:21.34	199.75	12.26	-39.9	-43.4	13.4	1.52e-05	0	54	0	130023424	51	5393
2026-01-06 10:57:22.34	199.84	12.34	-40.0	-43.6	13.2	1.83e-05	0	54	0	132120576	51	5527
2026-01-06 10:57:23.35	199.94	12.43	-39.9	-43.4	13.4	1.44e-05	0	54	0	133169152	51	5394
2026-01-06 10:57:24.36	200.03	12.51	-39.9	-43.4	13.4	1.37e-05	0	54	0	135266304	51	5366
2026-01-06 10:57:25.37	200.13	12.60	-40.1	-43.6	13.3	1.60e-05	0	54	0	137363456	51	5473
2026-01-06 10:57:26.38	200.22	12.69	-40.0	-43.3	13.7	1.22e-05	0	54	0	139460608	51	5311
2026-01-06 10:57:27.38	200.32	12.77	-40.1	-43.3	13.9	5.30e-06	0	54	0	141557760	51	5289
2026-01-06 10:57:28.39	200.42	12.86	-40.2	-43.3	13.9	3.00e-06	0	54	0	142606336	51	5316
2026-01-06 10:57:29.40	200.51	12.95	-40.2	-43.3	14.0	1.50e-06	0	54	0	144703488	51	5330
2026-01-06 10:57:30.41	200.61	13.03	-40.2	-43.3	14.0	1.50e-06	0	54	0	146800640	51	5337
2026-01-06 10:57:31.42	200.71	13.12	-40.3	-43.5	13.8	3.00e-06	0	54	0	148897792	51	5447
2026-01-06 10:57:32.43	200.81	13.21	-40.2	-43.3	14.1	2.20e-06	0	54	0	150994944	51	5289
2026-01-06 10:57:33.44	200.91	13.30	-40.1	-43.1	14.3	0.00e+00	0	54	0	152043520	51	5172
2026-01-06 10:57:34.45	201.01	13.38	-40.2	-43.3	14.1	7.00e-07	0	54	0	154140672	51	5298
2026-01-06 10:57:35.46	201.11	13.47	-40.1	-43.1	14.3	0.00e+00	0	54	0	156237824	51	5174
2026-01-06 10:57:36.47	201.21	13.56	-40.1	-43.0	14.4	1.50e-06	0	54	0	158334976	51	5147
2026-01-06 10:57:37.48	201.31	13.65	-40.1	-43.0	14.6	0.00e+00	0	54	0	160432128	51	5115
2026-01-06 10:57:38.49	201.42	13.74	-40.2	-43.0	14.6	0.00e+00	0	54	0	161480704	51	5126
2026-01-06 10:57:39.50	201.52	13.83	-40.2	-43.1	14.6	0.00e+00	0	54	0	163577856	51	5187
2026-01-06 10:57:40.51	201.62	13.92	-40.2	-43.0	14.8	0.00e+00	0	54	0	165675008	51	5118
2026-01-06 10:57:41.51	201.73	14.01	-40.2	-43.0	14.9	0.00e+00	0	54	0	167772160	51	5113
2026-01-06 10:57:42.52	201.83	14.10	-40.2	-42.9	15.0	0.00e+00	0	54	0	169869312	51	5073
2026-01-06 10:57:43.53	201.94	14.19	-40.2	-42.9	15.0	0.00e+00	0	54	0	171966464	51	5044
2026-01-06 10:57:44.54	202.04	14.28	-40.2	-42.9	15.0	0.00e+00	0	54	0	173015040	51	5057
2026-01-06 10:57:45.55	202.15	14.37	-40.1	-42.8	15.1	0.00e+00	0	54	0	175112192	51	5021
2026-01-06 10:57:46.56	202.26	14.46	-40.2	-42.9	15.0	0.00e+00	0	54	0	177209344	51	5099
2026-01-06 10:57:47.57	202.37	14.55	-40.2	-42.9	15.0	0.00e+00	0	54	0	179306496	51	5095
2026-01-06 10:57:48.58	202.47	14.64	-40.2	-42.8	15.1	0.00e+00	0	54	0	181403648	51	5040
2026-01-06 10:57:49.59	202.58	14.74	-40.2	-42.8	15.1	0.00e+00	0	54	0	182452224	51	5041
2026-01-06 10:57:50.60	202.69	14.83	-40.2	-42.8	15.2	7.00e-07	0	54	0	184549376	51	5019
2026-01-06 10:57:51.61	202.81	14.92	-40.2	-42.8	15.3	0.00e+00	0	54	0	186646528	51	5005
2026-01-06 10:57:52.62	202.92	15.01	-40.2	-42.8	15.3	0.00e+00	0	54	0	188743680	51	5005
2026-01-06 10:57:53.63	203.03	15.11	-40.2	-42.8	15.3	0.00e+00	0	54	0	190840832	51	5030
2026-01-06 10:57:54.64	203.14	15.20	-40.1	-42.7	15.4	0.00e+00	0	54	0	191889408	51	4945
2026-01-06 10:57:55.64	203.25	15.29	-40.1	-42.7	15.5	0.00e+00	0	54	0	193986560	51	4948
2026-01-06 10:57:56.65	203.37	15.39	-40.1	-42.7	15.5	7.00e-07	0	54	0	196083712	51	4940
2026-01-06 10:57:57.67	203.48	15.48	-40.1	-42.6	15.5	0.00e+00	0	54	0	198180864	51	4912
2026-01-06 10:57:58.68	203.60	15.58	-40.0	-42.5	15.6	0.00e+00	0	54	0	200278016	51	4846
2026-01-06 10:57:59.69	203.72	15.67	-40.0	-42.5	15.6	0.00e+00	0	54	0	201326592	51	4865
2026-01-06 10:58:00.69	203.83	15.76	-40.0	-42.5	15.7	0.00e+00	0	54	0	203423744	51	4858
2026-01-06 10:58:01.70	203.95	15.86	-40.0	-42.5	15.7	0.00e+00	0	54	0	205520896	51	4837
2026-01-06 10:58:02.71	204.07	15.95	-40.0	-42.5	15.7	0.00e+00	0	54	0	207618048	51	4826
2026-01-06 10:58:03.72	204.19	16.05	-40.0	-42.4	15.7	0.00e+00	0	54	0	209715200	51	4814
2026-01-06 10:58:04.73	204.31	16.15	-40.0	-42.5	15.6	0.00e+00	0	54	0	210763776	51	4863
2026-01-06 10:58:05.74	204.43	16.24	-40.1	-42.6	15.6	0.00e+00	0	54	0	212860928	51	4889
2026-01-06 10:58:06.75	204.55	16.34	-40.1	-42.6	15.6	0.00e+00	0	54	0	214958080	51	4875
2026-01-06 10:58:07.76	204.67	16.43	-40.1	-42.6	15.6	0.00e+00	0	55	0	217055232	51	4920
2026-01-06 10:58:08.77	204.79	16.53	-40.1	-42.6	15.5	0.00e+00	0	54	0	219152384	51	4925
2026-01-06 10:58:09.78	204.92	16.63	-40.2	-42.8	15.4	0.00e+00	0	54	0	220200960	51	5015
2026-01-06 10:58:10.79	205.04	16.73	-40.3	-42.9	15.3	0.00e+00	0	54	0	222298112	51	5068
2026-01-06 10:58:11.80	205.17	16.82	-40.3	-43.0	15.2	0.00e+00	0	54	0	224395264	51	5107
2026-01-06 10:58:12.81	205.29	16.92	-40.3	-43.0	15.2	0.00e+00	0	55	0	226492416	51	5121
2026-01-06 10:58:13.82	205.42	17.02	-40.3	-43.0	15.2	7.00e-07	0	54	0	228589568	51	5102
2026-01-06 10:58:14.83	205.55	17.12	-40.3	-42.9	15.3	0.00e+00	0	54	0	229638144	51	5082
2026-01-06 10:58:15.84	205.68	17.22	-40.3	-42.9	15.3	0.00e+00	0	54	0	231735296	51	5083
2026-01-06 10:58:16.84	205.80	17.32	-40.3	-43.0	15.3	0.00e+00	0	54	0	233832448	51	5113
2026-01-06 10:58:17.85	205.93	17.41	-40.4	-43.0	15.2	0.00e+00	0	55	0	235929600	51	5121
2026-01-06 10:58:18.87	206.07	17.52	-40.3	-43.0	15.3	0.00e+00	0	55	0	238026752	51	5106
2026-01-06 10:58:19.88	206.20	17.61	-40.4	-43.1	15.2	0.00e+00	0	55	0	240123904	51	5167
2026-01-06 10:58:20.88	206.33	17.71	-40.4	-43.1	15.2	0.00e+00	0	55	0	241172480	51	5181
2026-01-06 10:58:21.89	206.46	17.81	-40.4	-43.1	15.1	0.00e+00	0	54	0	243269632	51	5200
2026-01-06 10:58:22.90	206.60	17.91	-40.4	-43.1	15.1	0.00e+00	0	55	0	245366784	51	5183
2026-01-06 10:58:23.91	206.73	18.02	-40.5	-43.2	15.0	7.00e-07	0	55	0	247463936	51	5278
2026-01-06 10:58:24.92	206.87	18.12	-40.5	-43.2	15.1	7.00e-07	0	55	0	249561088	51	5253
2026-01-06 10:58:25.93	207.01	18.22	-40.5	-43.2	15.1	0.00e+00	0	55	0	250609664	51	5271
2026-01-06 10:58:26.94	207.14	18.32	-40.6	-43.3	14.9	0.00e+00	0	55	0	252706816	51	5326
2026-01-06 10:58:27.95	207.28	18.42	-40.6	-43.3	14.9	0.00e+00	0	55	0	254803968	51	5328
2026-01-06 10:58:28.96	207.42	18.52	-40.6	-43.3	14.9	0.00e+00	0	55	0	256901120	51	5339
2026-01-06 10:58:29.97	207.56	18.63	-40.6	-43.4	14.9	0.00e+00	0	55	0	257949696	51	5359
2026-01-06 10:58:30.97	207.70	18.73	-40.6	-43.3	14.9	0.00e+00	0	54	0	260046848	51	5336
2026-01-06 10:58:31.98	207.85	18.83	-40.6	-43.4	14.9	7.00e-07	0	55	0	262144000	51	5369
2026-01-06 10:58:32.99	207.99	18.93	-40.7	-43.5	14.7	0.00e+00	0	55	0	264241152	52	5137
2026-01-06 10:58:34.00	208.13	19.04	-40.6	-43.4	14.8	0.00e+00	0	55	0	266338304	52	5061
2026-01-06 10:58:35.01	208.28	19.14	-40.6	-43.4	14.8	0.00e+00	0	55	0	268435456	52	5055
2026-01-06 10:58:36.02	208.42	19.24	-40.7	-43.5	14.7	0.00e+00	0	55	0	269484032	52	5122
2026-01-06 10:58:37.03	208.57	19.35	-40.7	-43.6	14.6	7.00e-07	0	55	0	271581184	52	5173
2026-01-06 10:58:38.04	208.72	19.45	-40.8	-43.7	14.5	7.00e-07	0	55	0	273678336	52	5243
2026-01-06 10:58:39.05	208.87	19.56	-40.8	-43.7	14.5	0.00e+00	0	55	0	275775488	52	5261
2026-01-06 10:58:40.06	209.02	19.66	-40.9	-43.8	14.4	0.00e+00	0	55	0	277872640	52	5333
2026-01-06 10:58:41.07	209.17	19.77	-40.9	-43.8	14.4	0.00e+00	0	55	0	278921216	52	5323
2026-01-06 10:58:42.08	209.32	19.87	-40.9	-43.9	14.4	0.00e+00	0	55	0	281018368	52	5348
2026-01-06 10:58:43.09	209.48	19.98	-40.9	-43.8	14.4	0.00e+00	0	55	0	283115520	52	5307
2026-01-06 10:58:44.10	209.63	20.09	-40.9	-43.8	14.4	0.00e+00	0	55	0	285212672	52	5315
2026-01-06 10:58:45.11	209.78	20.19	-40.8	-43.8	14.5	0.00e+00	0	55	0	287309824	52	5288
2026-01-06 10:58:46.12	209.94	20.30	-40.8	-43.7	14.6	0.00e+00	0	55	0	288358400	52	5239
2026-01-06 10:58:47.13	210.10	20.40	-40.8	-43.7	14.6	0.00e+00	0	55	0	290455552	52	5229
2026-01-06 10:58:48.14	210.26	20.51	-40.7	-43.5	14.7	7.00e-07	0	55	0	292552704	52	5156
2026-01-06 10:58:49.15	210.42	20.62	-40.7	-43.5	14.8	0.00e+00	0	55	0	294649856	52	5111
2026-01-06 10:58:50.16	210.58	20.73	-40.7	-43.5	14.8	1.50e-06	0	55	0	296747008	52	5103
2026-01-06 10:58:51.17	210.74	20.83	-40.7	-43.4	14.8	0.00e+00	0	55	0	297795584	52	5099
2026-01-06 10:58:52.18	210.90	20.94	-40.7	-43.4	14.8	7.00e-07	0	55	0	299892736	52	5094
2026-01-06 10:58:53.19	211.07	21.05	-40.7	-43.6	14.7	0.00e+00	0	55	0	301989888	52	5164
2026-01-06 10:58:54.20	211.23	21.16	-40.7	-43.5	14.7	0.00e+00	0	55	0	304087040	52	5157
2026-01-06 10:58:55.21	211.40	21.27	-40.7	-43.6	14.7	0.00e+00	0	55	0	306184192	52	5183
2026-01-06 10:58:56.21	211.56	21.37	-40.8	-43.7	14.6	0.00e+00	0	55	0	307232768	52	5219
2026-01-06 10:58:57.22	211.73	21.48	-40.7	-43.6	14.7	0.00e+00	0	55	0	309329920	52	5176
2026-01-06 10:58:58.23	211.90	21.59	-40.7	-43.5	14.7	0.00e+00	0	55	0	311427072	52	5149
2026-01-06 10:58:59.24	212.07	21.70	-40.8	-43.6	14.7	0.00e+00	0	55	0	313524224	52	5203
2026-01-06 10:59:00.25	212.24	21.81	-40.7	-43.6	14.7	0.00e+00	0	55	0	315621376	52	5173
2026-01-06 10:59:01.26	212.42	21.92	-40.8	-43.6	14.6	0.00e+00	0	55	0	316669952	52	5196
2026-01-06 10:59:02.27	212.59	22.03	-40.8	-43.6	14.7	0.00e+00	0	55	0	318767104	52	5200
2026-01-06 10:59:03.28	212.77	22.14	-40.8	-43.6	14.7	0.00e+00	0	55	0	320864256	52	5200
2026-01-06 10:59:04.29	212.94	22.25	-40.8	-43.7	14.6	0.00e+00	0	55	0	322961408	52	5255
2026-01-06 10:59:05.30	213.12	22.36	-40.7	-43.6	14.7	0.00e+00	0	55	0	325058560	52	5165
2026-01-06 10:59:06.31	213.30	22.47	-40.8	-43.6	14.7	7.00e-07	0	55	0	326107136	52	5174
2026-01-06 10:59:07.32	213.48	22.59	-40.7	-43.6	14.7	7.00e-07	0	55	0	328204288	52	5165
2026-01-06 10:59:08.33	213.66	22.70	-40.8	-43.6	14.7	7.00e-07	0	55	0	330301440	52	5218
2026-01-06 10:59:09.34	213.85	22.81	-40.8	-43.7	14.6	0.00e+00	0	55	0	332398592	52	5225
2026-01-06 10:59:10.35	214.03	22.92	-40.8	-43.6	14.7	0.00e+00	0	55	0	334495744	52	5217
2026-01-06 10:59:11.36	214.22	23.03	-40.7	-43.5	14.8	0.00e+00	0	55	0	336592896	52	5148
2026-01-06 10:59:12.37	214.40	23.14	-40.7	-43.5	14.8	1.50e-06	0	55	0	337641472	52	5141
2026-01-06 10:59:13.38	214.59	23.26	-40.7	-43.5	14.8	0.00e+00	0	55	0	339738624	52	5151
2026-01-06 10:59:14.38	214.78	23.37	-40.7	-43.5	14.8	7.00e-07	0	55	0	341835776	52	5132
2026-01-06 10:59:15.39	214.97	23.48	-40.7	-43.5	14.8	0.00e+00	0	55	0	343932928	52	5120
2026-01-06 10:59:16.40	215.16	23.59	-40.7	-43.4	14.9	0.00e+00	0	55	0	346030080	52	5100
2026-01-06 10:59:17.42	215.36	23.71	-40.7	-43.4	14.9	0.00e+00	0	55	0	347078656	52	5084
2026-01-06 10:59:18.42	215.55	23.82	-40.6	-43.4	15.0	0.00e+00	0	55	0	349175808	52	5046
2026-01-06 10:59:19.43	215.75	23.93	-40.7	-43.4	14.9	0.00e+00	0	55	0	351272960	52	5086
2026-01-06 10:59:20.44	215.94	24.05	-40.6	-43.3	15.0	0.00e+00	0	55	0	353370112	52	5023
2026-01-06 10:59:21.45	216.14	24.16	-40.6	-43.3	15.1	0.00e+00	0	55	0	355467264	52	4985
2026-01-06 10:59:22.46	216.34	24.27	-40.5	-43.2	15.2	0.00e+00	0	55	0	356515840	52	4940
2026-01-06 10:59:23.47	216.54	24.39	-40.4	-43.1	15.3	0.00e+00	0	55	0	358612992	52	4881
2026-01-06 10:59:24.48	216.75	24.50	-40.3	-42.8	15.5	0.00e+00	0	55	0	360710144	52	4746
2026-01-06 10:59:25.49	216.95	24.61	-40.2	-42.8	15.6	0.00e+00	0	55	0	362807296	52	4712
2026-01-06 10:59:26.50	217.16	24.73	-40.1	-42.6	15.7	0.00e+00	0	55	0	364904448	52	4605
2026-01-06 10:59:27.51	217.37	24.84	-40.1	-42.6	15.8	0.00e+00	0	55	0	365953024	52	4609
2026-01-06 10:59:28.52	217.58	24.96	-40.0	-42.4	16.0	0.00e+00	0	55	0	368050176	52	4520
2026-01-06 10:59:29.53	217.79	25.07	-40.0	-42.4	16.0	0.00e+00	0	55	0	370147328	51	4801
2026-01-06 10:59:30.54	218.00	25.19	-40.0	-42.4	16.0	0.00e+00	0	55	0	372244480	51	4807
2026-01-06 10:59:31.55	218.21	25.30	-40.1	-42.5	16.0	0.00e+00	0	55	0	374341632	51	4823
2026-01-06 10:59:32.56	218.43	25.42	-40.0	-42.4	16.0	0.00e+00	0	55	0	375390208	51	4780
2026-01-06 10:59:33.57	218.64	25.53	-40.0	-42.3	16.1	0.00e+00	0	55	0	377487360	51	4750
2026-01-06 10:59:34.58	218.86	25.65	-40.0	-42.3	16.1	0.00e+00	0	55	0	379584512	51	4747
2026-01-06 10:59:35.59	219.08	25.76	-40.0	-42.3	16.2	0.00e+00	0	55	0	381681664	51	4733
2026-01-06 10:59:36.60	219.30	25.88	-40.0	-42.4	16.1	0.00e+00	0	55	0	383778816	51	4762
2026-01-06 10:59:37.61	219.53	25.99	-40.0	-42.3	16.1	0.00e+00	0	55	0	384827392	51	4742
2026-01-06 10:59:38.61	219.75	26.10	-39.9	-42.3	16.2	0.00e+00	0	55	0	386924544	51	4730
2026-01-06 10:59:39.62	219.98	26.22	-40.0	-42.3	16.2	0.00e+00	0	55	0	389021696	51	4729
2026-01-06 10:59:40.63	220.20	26.33	-39.9	-42.3	16.1	0.00e+00	0	55	0	391118848	51	4726
2026-01-06 10:59:41.64	220.43	26.45	-40.0	-42.4	16.1	0.00e+00	0	55	0	393216000	51	4761
2026-01-06 10:59:42.65	220.66	26.56	-40.1	-42.5	15.9	0.00e+00	0	55	0	394264576	51	4854
2026-01-06 10:59:43.66	220.90	26.68	-40.1	-42.4	16.0	0.00e+00	0	56	0	396361728	51	4810
2026-01-06 10:59:44.67	221.13	26.80	-40.1	-42.6	15.9	0.00e+00	0	55	0	398458880	51	4881
2026-01-06 10:59:45.68	221.37	26.91	-40.2	-42.7	15.8	0.00e+00	0	56	0	400556032	51	4937
2026-01-06 10:59:46.69	221.60	27.03	-40.2	-42.7	15.7	0.00e+00	0	55	0	402653184	51	4961
2026-01-06 10:59:47.70	221.84	27.14	-40.3	-42.8	15.7	0.00e+00	0	55	0	404750336	51	5007
2026-01-06 10:59:48.71	222.08	27.26	-40.4	-43.0	15.5	0.00e+00	0	55	0	405798912	51	5134
2026-01-06 10:59:49.72	222.33	27.37	-40.5	-43.2	15.3	0.00e+00	0	55	0	407896064	51	5230
2026-01-06 10:59:50.73	222.57	27.49	-40.6	-43.3	15.2	0.00e+00	0	55	0	409993216	51	5300
2026-01-06 10:59:51.74	222.82	27.60	-40.6	-43.2	15.2	0.00e+00	0	55	0	412090368	51	5273
2026-01-06 10:59:52.75	223.07	27.72	-40.5	-43.1	15.4	0.00e+00	0	55	0	414187520	51	5197
2026-01-06 10:59:53.76	223.32	27.83	-40.4	-43.0	15.5	0.00e+00	0	56	0	415236096	51	5117
2026-01-06 10:59:54.77	223.57	27.94	-40.4	-43.0	15.5	0.00e+00	0	55	0	417333248	51	5120
2026-01-06 10:59:55.78	223.82	28.06	-40.4	-43.0	15.5	0.00e+00	0	56	0	419430400	51	5121
2026-01-06 10:59:56.79	224.08	28.17	-40.6	-43.2	15.3	0.00e+00	0	55	0	421527552	51	5242
2026-01-06 10:59:57.79	224.33	28.29	-40.6	-43.3	15.1	0.00e+00	0	55	0	423624704	51	5329
2026-01-06 10:59:58.81	224.59	28.40	-40.6	-43.3	15.1	0.00e+00	0	56	0	424673280	52	5031
2026-01-06 10:59:59.81	224.85	28.51	-40.7	-43.5	14.9	0.00e+00	0	55	0	426770432	52	5123
2026-01-06 11:00:00.82	225.11	28.63	-40.8	-43.7	14.8	7.00e-07	0	55	0	428867584	52	5222
2026-01-06 11:00:01.83	225.37	28.74	-40.9	-43.8	14.6	0.00e+00	0	55	0	430964736	52	5312
2026-01-06 11:00:02.84	225.64	28.85	-41.1	-44.0	14.3	0.00e+00	0	55	0	433061888	52	5439
2026-01-06 11:00:03.85	225.91	28.97	-41.2	-44.3	14.1	7.00e-07	0	56	0	434110464	52	5598
2026-01-06 11:00:04.86	226.18	29.08	-41.3	-44.4	13.9	1.50e-06	0	55	0	436207616	53	5385
2026-01-06 11:00:05.87	226.45	29.19	-41.4	-44.7	13.7	2.20e-06	0	55	0	438304768	53	5545
2026-01-06 11:00:06.88	226.72	29.31	-41.5	-44.7	13.6	4.50e-06	0	56	0	440401920	53	5589
2026-01-06 11:00:07.89	227.00	29.42	-41.5	-44.9	13.5	1.44e-05	0	56	0	442499072	53	5657
2026-01-06 11:00:08.90	227.27	29.53	-41.5	-44.8	13.6	1.14e-05	0	56	0	443547648	53	5624
2026-01-06 11:00:09.91	227.55	29.64	-41.5	-44.8	13.6	6.80e-06	0	56	0	445644800	53	5599
2026-01-06 11:00:10.92	227.83	29.75	-41.5	-44.7	13.7	4.50e-06	0	55	0	447741952	53	5570
2026-01-06 11:00:11.93	228.12	29.86	-41.4	-44.6	13.8	5.30e-06	0	55	0	449839104	53	5513
2026-01-06 11:00:12.94	228.40	29.98	-41.6	-44.9	13.5	8.30e-06	0	56	0	451936256	53	5668
2026-01-06 11:00:13.95	228.69	30.09	-41.7	-45.1	13.2	1.98e-05	0	56	0	452984832	53	5844
2026-01-06 11:00:14.96	228.98	30.20	-42.0	-45.6	12.8	5.11e-05	0	56	0	455081984	54	5809
2026-01-06 11:00:15.97	229.27	30.31	-42.2	-46.1	12.2	1.19e-04	0	55	0	457179136	55	5844
2026-01-06 11:00:16.98	229.56	30.41	-42.4	-46.5	11.8	2.66e-04	0	55	0	459276288	55	6117
2026-01-06 11:00:17.99	229.85	30.52	-42.6	-46.8	11.5	7.07e-04	0	56	0	461373440	55	6337
2026-01-06 11:00:19.00	230.15	30.63	-43.0	-47.5	11.0	1.20e-03	0	55	0	462422016	56	6479
2026-01-06 11:00:20.01	230.45	30.74	-43.1	-47.8	10.6	2.50e-03	0	56	0	464519168	56	6722
2026-01-06 11:00:21.02	230.75	30.85	-43.2	-48.1	10.3	4.97e-03	0	56	0	466616320	56	6935
2026-01-06 11:00:22.02	231.05	30.95	-43.2	-48.2	10.2	6.06e-03	0	55	0	468713472	57	6630
2026-01-06 11:00:23.03	231.35	31.06	-43.3	-48.5	9.9	6.81e-03	0	55	0	470810624	57	6824
2026-01-06 11:00:24.04	231.66	31.17	-43.3	-48.4	10.0	8.88e-03	0	56	0	472907776	57	6791
2026-01-06 11:00:25.05	231.96	31.27	-43.3	-48.4	10.0	9.44e-03	0	56	0	473956352	57	6796
2026-01-06 11:00:26.06	232.27	31.38	-43.3	-48.5	9.9	7.83e-03	0	55	0	476053504	57	6817
2026-01-06 11:00:27.07	232.59	31.48	-43.4	-48.7	9.7	1.05e-02	0	56	0	478150656	57	7002
2026-01-06 11:00:28.08	232.90	31.59	-43.3	-48.6	9.8	1.24e-02	0	56	0	480247808	57	6930
2026-01-06 11:00:29.09	233.22	31.69	-43.4	-48.7	9.6	1.15e-02	0	55	0	482344960	57	7014
2026-01-06 11:00:30.10	233.53	31.79	-43.2	-48.2	10.2	8.53e-03	0	56	0	483393536	57	6572
2026-01-06 11:00:31.11	233.85	31.90	-43.1	-47.9	10.5	4.63e-03	0	56	0	485490688	57	6411
2026-01-06 11:00:32.12	234.17	32.00	-43.0	-47.7	10.8	2.91e-03	0	56	0	487587840	57	6242
2026-01-06 11:00:33.13	234.50	32.10	-43.0	-47.7	10.7	3.21e-03	0	56	0	489684992	57	6264
2026-01-06 11:00:34.14	234.82	32.20	-43.2	-48.0	10.3	4.15e-03	0	56	0	491782144	57	6490
2026-01-06 11:00:35.15	235.15	32.30	-43.2	-48.2	10.3	5.90e-03	0	56	0	492830720	57	6595
2026-01-06 11:00:36.15	235.48	32.40	-43.1	-48.0	10.4	5.42e-03	0	56	0	494927872	57	6481
2026-01-06 11:00:37.17	235.81	32.50	-43.1	-48.0	10.5	4.55e-03	0	56	0	497025024	57	6437
2026-01-06 11:00:38.17	236.14	32.59	-43.0	-47.7	10.7	3.40e-03	0	55	0	499122176	57	6268
2026-01-06 11:00:39.19	236.48	32.69	-42.9	-47.5	11.0	2.72e-03	0	55	0	501219328	57	6089
2026-01-06 11:00:40.19	236.82	32.79	-42.9	-47.4	11.1	1.49e-03	0	56	0	502267904	57	6012
2026-01-06 11:00:41.21	237.16	32.88	-42.9	-47.3	11.2	1.61e-03	0	56	0	504365056	57	5943
2026-01-06 11:00:42.22	237.50	32.98	-42.8	-47.2	11.3	1.38e-03	0	56	0	506462208	57	5921
2026-01-06 11:00:43.23	237.84	33.07	-42.7	-46.9	11.6	1.03e-03	0	56	0	508559360	57	5686
2026-01-06 11:00:44.23	238.19	33.16	-42.6	-46.7	11.9	5.39e-04	0	56	0	510656512	57	5534
2026-01-06 11:00:45.25	238.54	33.25	-42.5	-46.4	12.1	3.27e-04	0	56	0	511705088	56	5721
2026-01-06 11:00:46.26	238.89	33.35	-42.4	-46.4	12.2	2.83e-04	0	56	0	513802240	56	5667
2026-01-06 11:00:47.27	239.24	33.44	-42.3	-46.0	12.5	1.30e-04	0	56	0	515899392	56	5439
2026-01-06 11:00:48.28	239.59	33.52	-42.2	-45.8	12.7	9.68e-05	0	56	0	517996544	56	5315
2026-01-06 11:00:49.29	239.95	33.61	-42.0	-45.5	13.0	4.88e-05	0	56	0	520093696	56	5127
2026-01-06 11:00:50.30	240.30	33.70	-41.8	-45.3	13.1	3.50e-05	0	56	0	521142272	55	5328
2026-01-06 11:00:51.30	240.66	33.79	-41.8	-45.3	13.1	3.12e-05	0	56	0	523239424	55	5335
2026-01-06 11:00:52.31	241.02	33.87	-41.9	-45.4	13.0	3.05e-05	0	56	0	525336576	55	5397
2026-01-06 11:00:53.33	241.38	33.96	-41.9	-45.4	13.0	3.12e-05	0	56	0	527433728	55	5379
2026-01-06 11:00:54.34	241.75	34.04	-41.9	-45.6	12.9	4.19e-05	0	56	0	529530880	55	5470
2026-01-06 11:00:55.35	242.11	34.12	-41.6	-44.9	13.6	2.97e-05	0	56	0	530579456	55	5049
2026-01-06 11:00:56.36	242.48	34.20	-41.3	-44.4	14.0	7.60e-06	0	56	0	532676608	54	5069
2026-01-06 11:00:57.37	242.85	34.28	-41.1	-44.1	14.3	1.50e-06	0	55	0	534773760	54	4900
2026-01-06 11:00:58.38	243.22	34.36	-41.1	-44.1	14.4	7.00e-07	0	56	0	536870912	54	4912
2026-01-06 11:00:59.39	243.60	34.44	-41.2	-44.1	14.3	7.00e-07	0	56	0	538968064	54	4922
2026-01-06 11:01:00.40	243.97	34.52	-41.2	-44.2	14.2	3.00e-06	0	56	0	541065216	54	4956
2026-01-06 11:01:01.41	244.35	34.59	-41.1	-44.0	14.4	1.50e-06	0	56	0	542113792	54	4840
2026-01-06 11:01:02.42	244.73	34.67	-41.0	-43.9	14.5	0.00e+00	0	56	0	544210944	54	4814
2026-01-06 11:01:03.43	245.11	34.74	-40.9	-43.8	14.6	7.00e-07	0	56	0	546308096	53	5004
2026-01-06 11:01:04.44	245.49	34.81	-41.1	-44.0	14.5	0.00e+00	0	56	0	548405248	53	5109
2026-01-06 11:01:05.45	245.87	34.88	-41.2	-44.2	14.2	7.00e-07	0	56	0	550502400	53	5256
2026-01-06 11:01:06.46	246.26	34.95	-41.4	-44.5	13.9	3.00e-06	0	56	0	551550976	53	5425
2026-01-06 11:01:07.47	246.64	35.02	-41.5	-44.7	13.7	6.80e-06	0	56	0	553648128	53	5568
2026-01-06 11:01:08.48	247.03	35.09	-41.6	-44.9	13.5	9.10e-06	0	55	0	555745280	53	5706
2026-01-06 11:01:09.49	247.42	35.15	-41.7	-45.0	13.4	1.90e-05	0	55	0	557842432	53	5779
2026-01-06 11:01:10.50	247.81	35.22	-41.8	-45.3	13.1	1.83e-05	0	56	0	559939584	54	5633
2026-01-06 11:01:11.51	248.20	35.28	-42.0	-45.6	12.8	4.50e-05	0	56	0	560988160	54	5821
2026-01-06 11:01:12.52	248.60	35.34	-41.9	-45.5	12.9	5.95e-05	0	56	0	563085312	54	5766
2026-01-06 11:01:13.53	248.99	35.40	-41.7	-45.0	13.4	3.28e-05	0	56	0	565182464	54	5449
2026-01-06 11:01:14.53	249.39	35.46	-41.3	-44.4	14.0	1.06e-05	0	56	0	567279616	54	5087
2026-01-06 11:01:15.55	249.79	35.52	-41.3	-44.4	14.1	4.50e-06	0	56	0	569376768	54	5065
2026-01-06 11:01:16.55	250.19	35.57	-41.4	-44.6	13.8	5.30e-06	0	56	0	570425344	54	5196
2026-01-06 11:01:17.56	250.59	35.63	-41.6	-44.8	13.6	5.30e-06	0	56	0	572522496	54	5337
2026-01-06 11:01:18.57	250.99	35.68	-41.6	-44.8	13.6	6.10e-06	0	56	0	574619648	54	5316
2026-01-06 11:01:19.58	251.39	35.73	-41.5	-44.7	13.8	1.06e-05	0	56	0	576716800	54	5227
2026-01-06 11:01:20.59	251.80	35.78	-41.3	-44.4	14.1	3.80e-06	0	56	0	578813952	54	5046
2026-01-06 11:01:21.60	252.20	35.83	-41.1	-44.0	14.4	2.20e-06	0	56	0	579862528	54	4857
2026-01-06 11:01:22.61	252.61	35.88	-40.8	-43.6	14.9	0.00e+00	0	56	0	581959680	53	4881
2026-01-06 11:01:23.62	253.02	35.92	-40.6	-43.2	15.2	0.00e+00	0	56	0	584056832	53	4702
2026-01-06 11:01:24.63	253.43	35.97	-40.6	-43.2	15.2	0.00e+00	0	56	0	586153984	53	4691
2026-01-06 11:01:25.64	253.84	36.01	-40.6	-43.2	15.3	7.00e-07	0	56	0	588251136	53	4679
2026-01-06 11:01:26.65	254.25	36.05	-40.6	-43.2	15.2	0.00e+00	0	56	0	589299712	53	4696
2026-01-06 11:01:27.66	254.66	36.09	-40.6	-43.2	15.2	0.00e+00	0	56	0	591396864	53	4695
2026-01-06 11:01:28.66	255.07	36.13	-40.7	-43.3	15.1	0.00e+00	0	56	0	593494016	53	4757
2026-01-06 11:01:29.68	255.49	36.16	-40.7	-43.4	15.1	0.00e+00	0	56	0	595591168	53	4783
2026-01-06 11:01:30.69	255.91	36.20	-40.8	-43.5	14.9	0.00e+00	0	56	0	597688320	53	4856
2026-01-06 11:01:31.70	256.32	36.23	-41.1	-44.1	14.4	0.00e+00	0	56	0	598736896	53	5167
2026-01-06 11:01:32.70	256.74	36.26	-41.3	-44.5	14.0	1.50e-06	0	56	0	600834048	53	5403
2026-01-06 11:01:33.71	257.15	36.29	-41.7	-45.0	13.4	6.10e-06	0	56	0	602931200	53	5778
2026-01-06 11:01:34.72	257.57	36.32	-42.0	-45.6	12.8	2.59e-05	0	56	0	605028352	54	5821
2026-01-06 11:01:35.73	257.99	36.35	-42.2	-45.9	12.5	1.10e-04	0	56	0	607125504	54	6051
2026-01-06 11:01:36.74	258.41	36.37	-42.1	-45.8	12.6	1.31e-04	0	56	0	609222656	55	5640
2026-01-06 11:01:37.75	258.83	36.39	-41.8	-45.3	13.1	5.87e-05	0	56	0	610271232	55	5289
2026-01-06 11:01:38.76	259.25	36.42	-41.6	-44.8	13.7	8.30e-06	0	56	0	612368384	55	4999
2026-01-06 11:01:39.77	259.67	36.44	-41.7	-45.0	13.4	7.60e-06	0	56	0	614465536	55	5130
2026-01-06 11:01:40.78	260.10	36.45	-41.9	-45.5	13.0	1.75e-05	0	56	0	616562688	55	5411
2026-01-06 11:01:41.79	260.52	36.47	-42.0	-45.7	12.7	7.01e-05	0	56	0	618659840	55	5573
2026-01-06 11:01:42.80	260.94	36.48	-42.1	-45.8	12.6	8.92e-05	0	56	0	619708416	55	5641
2026-01-06 11:01:43.81	261.36	36.50	-42.1	-45.8	12.6	9.99e-05	0	56	0	621805568	55	5607
2026-01-06 11:01:44.82	261.79	36.51	-42.1	-45.8	12.6	8.08e-05	0	56	0	623902720	55	5612
2026-01-06 11:01:45.82	262.21	36.52	-42.2	-45.9	12.5	1.01e-04	0	56	0	625999872	55	5718
2026-01-06 11:01:46.83	262.63	36.52	-42.1	-45.9	12.5	1.18e-04	0	56	0	628097024	55	5663
2026-01-06 11:01:47.84	263.05	36.53	-42.1	-45.8	12.5	9.15e-05	0	56	0	629145600	55	5631
2026-01-06 11:01:48.85	263.48	36.53	-42.0	-45.5	12.8	5.72e-05	0	56	0	631242752	55	5457
2026-01-06 11:01:49.86	263.90	36.54	-41.9	-45.3	13.1	5.03e-05	0	56	0	633339904	55	5335
2026-01-06 11:01:50.87	264.33	36.54	-41.9	-45.4	13.0	2.36e-05	0	56	0	635437056	55	5361
2026-01-06 11:01:51.88	264.75	36.54	-41.9	-45.4	13.0	3.81e-05	0	56	0	637534208	55	5357
2026-01-06 11:01:52.89	265.17	36.53	-42.0	-45.5	12.9	4.88e-05	0	56	0	638582784	55	5463
2026-01-06 11:01:53.90	265.60	36.53	-42.0	-45.6	12.8	7.24e-05	0	56	0	640679936	55	5518
2026-01-06 11:01:54.91	266.02	36.52	-42.0	-45.6	12.9	5.56e-05	0	56	0	642777088	55	5488
2026-01-06 11:01:55.92	266.44	36.51	-41.8	-45.3	13.2	3.12e-05	0	56	0	644874240	55	5292
2026-01-06 11:01:56.93	266.87	36.51	-41.5	-44.8	13.7	1.90e-05	0	56	0	646971392	55	4997
2026-01-06 11:01:57.94	267.29	36.49	-41.4	-44.5	14.0	3.80e-06	0	56	0	648019968	54	5127
2026-01-06 11:01:58.95	267.71	36.48	-41.5	-44.7	13.8	4.50e-06	0	56	0	650117120	54	5240
2026-01-06 11:01:59.96	268.14	36.47	-41.6	-44.9	13.5	6.80e-06	0	56	0	652214272	54	5385
2026-01-06 11:02:00.97	268.56	36.45	-41.7	-45.0	13.4	9.90e-06	0	56	0	654311424	54	5431
2026-01-06 11:02:01.98	268.98	36.43	-41.4	-44.5	13.9	8.30e-06	0	56	0	656408576	54	5159
2026-01-06 11:02:02.99	269.40	36.41	-41.1	-44.1	14.4	3.00e-06	0	56	0	657457152	54	4886
2026-01-06 11:02:03.99	269.82	36.39	-41.0	-43.9	14.6	7.00e-07	0	56	0	659554304	54	4794
2026-01-06 11:02:05.00	270.24	36.37	-41.0	-43.8	14.7	0.00e+00	0	56	0	661651456	53	5009
2026-01-06 11:02:06.01	270.66	36.34	-41.0	-43.9	14.6	2.20e-06	0	56	0	663748608	53	5058
2026-01-06 11:02:07.02	271.07	36.31	-41.3	-44.3	14.2	0.00e+00	0	56	0	665845760	53	5325
2026-01-06 11:02:08.03	271.49	36.29	-41.5	-44.8	13.6	4.50e-06	0	56	0	666894336	53	5634
2026-01-06 11:02:09.04	271.91	36.26	-41.6	-45.0	13.5	1.14e-05	0	56	0	668991488	53	5729
2026-01-06 11:02:10.05	272.32	36.23	-41.5	-44.7	13.8	8.30e-06	0	56	0	671088640	53	5544
2026-01-06 11:02:11.06	272.74	36.19	-41.2	-44.1	14.4	7.00e-07	0	56	0	673185792	53	5208
2026-01-06 11:02:12.07	273.15	36.16	-41.1	-44.0	14.4	0.00e+00	0	56	0	675282944	53	5156
2026-01-06 11:02:13.08	273.57	36.12	-41.2	-44.2	14.3	0.00e+00	0	56	0	677380096	53	5234
2026-01-06 11:02:14.09	273.98	36.08	-41.4	-44.6	13.8	0.00e+00	0	56	0	678428672	53	5504
2026-01-06 11:02:15.10	274.39	36.04	-41.6	-44.9	13.6	1.06e-05	0	56	0	680525824	53	5711
2026-01-06 11:02:16.10	274.80	36.00	-41.9	-45.4	13.0	2.13e-05	0	56	0	682622976	54	5714
2026-01-06 11:02:17.11	275.21	35.96	-42.1	-45.9	12.5	5.49e-05	0	56	0	684720128	54	6028
2026-01-06 11:02:18.12	275.62	35.92	-42.2	-46.1	12.3	1.30e-04	0	56	0	686817280	55	5813
2026-01-06 11:02:19.14	276.03	35.87	-42.3	-46.3	12.1	2.33e-04	0	56	0	687865856	55	5966
2026-01-06 11:02:20.15	276.44	35.82	-42.6	-46.9	11.5	4.14e-04	0	56	0	689963008	55	6362
2026-01-06 11:02:21.16	276.84	35.77	-42.9	-47.5	11.1	1.40e-03	0	56	0	692060160	56	6442
2026-01-06 11:02:22.17	277.24	35.72	-43.0	-47.6	10.9	1.85e-03	0	56	0	694157312	56	6495
2026-01-06 11:02:23.18	277.65	35.67	-42.8	-47.0	11.6	1.38e-03	0	56	0	696254464	56	6085
2026-01-06 11:02:24.19	278.05	35.62	-42.5	-46.5	12.1	3.46e-04	0	56	0	697303040	56	5759
2026-01-06 11:02:25.20	278.45	35.56	-42.4	-46.3	12.3	2.83e-04	0	56	0	699400192	56	5623
2026-01-06 11:02:26.21	278.85	35.51	-42.3	-46.1	12.5	1.11e-04	0	56	0	701497344	56	5467
2026-01-06 11:02:27.22	279.24	35.45	-42.4	-46.2	12.4	1.53e-04	0	56	0	703594496	56	5561
2026-01-06 11:02:28.22	279.64	35.39	-42.4	-46.2	12.4	1.42e-04	0	56	0	705691648	56	5573
2026-01-06 11:02:29.23	280.03	35.33	-42.3	-46.0	12.6	9.30e-05	0	56	0	706740224	56	5424
2026-01-06 11:02:30.24	280.42	35.27	-42.1	-45.7	13.0	6.79e-05	0	56	0	708837376	56	5232
2026-01-06 11:02:31.25	280.82	35.21	-42.1	-45.7	12.9	2.67e-05	0	56	0	710934528	56	5222
2026-01-06 11:02:32.26	281.21	35.14	-42.2	-45.9	12.7	5.72e-05	0	56	0	713031680	56	5351
2026-01-06 11:02:33.27	281.59	35.08	-42.4	-46.2	12.4	1.07e-04	0	56	0	715128832	56	5560
2026-01-06 11:02:34.28	281.98	35.01	-42.3	-46.1	12.5	1.40e-04	0	56	0	716177408	56	5471
2026-01-06 11:02:35.29	282.37	34.94	-42.0	-45.5	13.1	7.01e-05	0	56	0	718274560	56	5114
2026-01-06 11:02:36.30	282.75	34.87	-41.6	-44.8	13.6	1.52e-05	0	56	0	720371712	55	5032
2026-01-06 11:02:37.31	283.13	34.80	-41.4	-44.6	13.9	3.80e-06	0	56	0	722468864	54	5181
2026-01-06 11:02:38.32	283.51	34.73	-41.3	-44.4	14.1	3.00e-06	0	56	0	724566016	54	5072
2026-01-06 11:02:39.33	283.89	34.66	-41.5	-44.7	13.8	7.00e-07	0	56	0	725614592	54	5254
2026-01-06 11:02:40.34	284.27	34.58	-41.8	-45.2	13.2	1.06e-05	0	56	0	727711744	54	5563
2026-01-06 11:02:41.35	284.64	34.51	-41.8	-45.2	13.2	2.82e-05	0	56	0	729808896	54	5549
2026-01-06 11:02:42.36	285.02	34.43	-41.5	-44.7	13.7	1.29e-05	0	56	0	731906048	54	5270
2026-01-06 11:02:43.37	285.39	34.35	-41.2	-44.2	14.2	3.00e-06	0	56	0	734003200	54	4935
2026-01-06 11:02:44.38	285.76	34.27	-41.0	-43.9	14.5	0.00e+00	0	56	0	735051776	54	4813
2026-01-06 11:02:45.39	286.13	34.19	-41.1	-44.1	14.4	1.50e-06	0	56	0	737148928	54	4873
2026-01-06 11:02:46.40	286.49	34.11	-41.1	-44.0	14.5	1.50e-06	0	56	0	739246080	54	4819
2026-01-06 11:02:47.41	286.86	34.03	-40.9	-43.7	14.8	0.00e+00	0	56	0	741343232	53	4933
2026-01-06 11:02:48.42	287.22	33.95	-40.8	-43.6	14.8	0.00e+00	0	56	0	743440384	53	4912
2026-01-06 11:02:49.43	287.58	33.86	-41.0	-43.8	14.6	0.00e+00	0	56	0	745537536	53	5032
2026-01-06 11:02:50.44	287.94	33.78	-41.1	-44.1	14.4	7.00e-07	0	56	0	746586112	53	5174
2026-01-06 11:02:51.45	288.30	33.69	-41.4	-44.6	13.9	3.00e-06	0	56	0	748683264	53	5477
2026-01-06 11:02:52.46	288.65	33.60	-41.6	-44.9	13.5	9.10e-06	0	56	0	750780416	53	5718
2026-01-06 11:02:53.47	289.01	33.52	-41.7	-45.1	13.4	1.29e-05	0	56	0	752877568	54	5467
2026-01-06 11:02:54.48	289.36	33.43	-41.6	-44.9	13.5	1.22e-05	0	56	0	754974720	54	5365
2026-01-06 11:02:55.49	289.71	33.34	-41.6	-45.0	13.5	6.10e-06	0	56	0	756023296	54	5416
2026-01-06 11:02:56.50	290.06	33.25	-41.4	-44.6	13.8	4.50e-06	0	56	0	758120448	54	5189
2026-01-06 11:02:57.51	290.40	33.15	-41.3	-44.4	14.1	6.10e-06	0	56	0	760217600	54	5060
2026-01-06 11:02:58.52	290.75	33.06	-41.4	-44.6	13.8	3.00e-06	0	56	0	762314752	54	5184
2026-01-06 11:02:59.53	291.09	32.97	-41.4	-44.6	13.8	4.50e-06	0	56	0	764411904	54	5177
2026-01-06 11:03:00.54	291.43	32.87	-41.3	-44.4	14.1	0.00e+00	0	56	0	765460480	54	5054
2026-01-06 11:03:01.55	291.77	32.78	-41.2	-44.2	14.2	0.00e+00	0	56	0	767557632	54	4930
2026-01-06 11:03:02.56	292.10	32.68	-41.1	-44.0	14.4	0.00e+00	0	56	0	769654784	54	4864
2026-01-06 11:03:03.57	292.44	32.59	-41.2	-44.3	14.2	7.00e-07	0	56	0	771751936	54	4988
2026-01-06 11:03:04.58	292.77	32.49	-41.6	-45.0	13.5	7.00e-07	0	56	0	773849088	54	5416
2026-01-06 11:03:05.59	293.10	32.39	-41.8	-45.3	13.1	1.52e-05	0	56	0	774897664	54	5635
2026-01-06 11:03:06.60	293.43	32.29	-41.7	-45.2	13.2	2.05e-05	0	56	0	776994816	54	5533
2026-01-06 11:03:07.61	293.75	32.19	-41.6	-44.9	13.5	1.44e-05	0	56	0	779091968	54	5390
2026-01-06 11:03:08.62	294.08	32.09	-41.6	-44.9	13.5	1.52e-05	0	56	0	781189120	54	5354
2026-01-06 11:03:09.62	294.40	31.99	-41.7	-45.1	13.3	9.10e-06	0	56	0	783286272	54	5482
2026-01-06 11:03:10.63	294.72	31.89	-42.1	-45.9	12.5	4.27e-05	0	56	0	784334848	54	5997
2026-01-06 11:03:11.64	295.03	31.79	-42.5	-46.7	11.6	2.40e-04	0	56	0	786432000	55	6233
2026-01-06 11:03:12.65	295.35	31.69	-42.9	-47.4	11.1	1.62e-03	0	56	0	788529152	56	6395
2026-01-06 11:03:13.66	295.66	31.59	-42.7	-47.0	11.5	1.37e-03	0	56	0	790626304	56	6068
2026-01-06 11:03:14.67	295.98	31.48	-42.1	-45.6	12.9	2.10e-04	0	56	0	792723456	56	5214
2026-01-06 11:03:15.68	296.29	31.38	-41.5	-44.7	13.7	2.36e-05	0	56	0	793772032	55	4953
2026-01-06 11:03:16.69	296.60	31.27	-41.3	-44.4	14.0	2.20e-06	0	56	0	795869184	54	5095
2026-01-06 11:03:17.70	296.90	31.17	-41.6	-44.9	13.6	3.80e-06	0	56	0	797966336	54	5343
2026-01-06 11:03:18.71	297.21	31.06	-41.9	-45.4	13.0	2.05e-05	0	56	0	800063488	54	5707
2026-01-06 11:03:19.72	297.51	30.96	-42.0	-45.8	12.6	8.77e-05	0	56	0	802160640	54	5928
2026-01-06 11:03:20.73	297.81	30.85	-41.8	-45.3	13.0	7.32e-05	0	56	0	803209216	54	5655
2026-01-06 11:03:21.74	298.11	30.74	-41.4	-44.6	13.8	1.44e-05	0	56	0	805306368	54	5169
2026-01-06 11:03:22.75	298.41	30.64	-41.3	-44.3	14.0	3.00e-06	0	56	0	807403520	54	5036
2026-01-06 11:03:23.76	298.70	30.53	-41.2	-44.2	14.2	7.00e-07	0	56	0	809500672	54	4963
2026-01-06 11:03:24.77	298.99	30.42	-41.5	-44.7	13.7	3.80e-06	0	56	0	811597824	54	5267
2026-01-06 11:03:25.78	299.28	30.31	-41.9	-45.5	12.9	2.74e-05	0	56	0	813694976	54	5767
2026-01-06 11:03:26.79	299.57	30.20	-42.3	-46.2	12.1	1.88e-04	0	56	0	814743552	55	5888
2026-01-06 11:03:27.80	299.86	30.09	-42.0	-45.7	12.6	2.04e-04	0	56	0	816840704	55	5573
2026-01-06 11:03:28.81	300.14	29.98	-41.6	-44.9	13.5	5.18e-05	0	56	0	818937856	55	5063
2026-01-06 11:03:29.82	300.43	29.87	-41.3	-44.4	14.0	3.80e-06	0	56	0	821035008	54	5048
2026-01-06 11:03:30.83	300.71	29.76	-41.4	-44.7	13.8	3.00e-06	0	56	0	823132160	54	5220
2026-01-06 11:03:31.84	300.99	29.65	-41.9	-45.5	12.8	1.14e-05	0	56	0	824180736	54	5765
2026-01-06 11:03:32.85	301.27	29.54	-42.5	-46.7	11.6	3.23e-04	0	56	0	826277888	55	6226
2026-01-06 11:03:33.86	301.54	29.43	-42.7	-47.2	11.1	1.26e-03	0	56	0	828375040	55	6606
2026-01-06 11:03:34.87	301.82	29.32	-42.1	-45.9	12.3	8.55e-04	0	56	0	830472192	55	5718
2026-01-06 11:03:35.88	302.09	29.21	-41.3	-44.5	13.9	8.30e-06	0	56	0	832569344	54	5110
2026-01-06 11:03:36.89	302.36	29.09	-40.8	-43.6	14.8	1.50e-06	0	56	0	833617920	53	4877
2026-01-06 11:03:37.90	302.63	28.98	-40.8	-43.6	14.8	0.00e+00	0	56	0	835715072	53	4887
2026-01-06 11:03:38.91	302.89	28.87	-41.1	-44.2	14.2	2.20e-06	0	56	0	837812224	53	5223
2026-01-06 11:03:39.92	303.16	28.76	-41.6	-44.9	13.4	7.60e-06	0	56	0	839909376	53	5713
2026-01-06 11:03:40.93	303.42	28.64	-42.0	-45.7	12.7	4.73e-05	0	56	0	842006528	54	5856
2026-01-06 11:03:41.94	303.68	28.53	-41.8	-45.4	12.9	6.33e-05	0	56	0	843055104	54	5678
2026-01-06 11:03:42.94	303.94	28.42	-41.5	-44.7	13.6	1.52e-05	0	56	0	845152256	54	5250
2026-01-06 11:03:43.95	304.19	28.31	-41.2	-44.3	14.0	1.50e-06	0	56	0	847249408	54	5014
2026-01-06 11:03:44.96	304.45	28.19	-41.3	-44.5	13.9	2.20e-06	0	56	0	849346560	54	5116
2026-01-06 11:03:45.97	304.70	28.08	-41.5	-44.8	13.5	7.60e-06	0	56	0	851443712	54	5301
2026-01-06 11:03:46.98	304.96	27.97	-42.0	-45.7	12.6	2.59e-05	0	56	0	852492288	54	5914
2026-01-06 11:03:47.99	305.21	27.85	-42.5	-46.7	11.5	2.69e-04	0	56	0	854589440	55	6274
2026-01-06 11:03:49.00	305.45	27.74	-42.5	-46.7	11.5	1.13e-03	0	56	0	856686592	55	6263
2026-01-06 11:03:50.01	305.70	27.62	-42.1	-45.9	12.4	3.55e-04	0	56	0	858783744	55	5676
2026-01-06 11:03:51.02	305.95	27.51	-41.4	-44.6	13.7	4.57e-05	0	56	0	860880896	54	5211
2026-01-06 11:03:52.03	306.19	27.40	-41.1	-44.0	14.3	1.50e-06	0	56	0	861929472	54	4853
2026-01-06 11:03:53.04	306.43	27.28	-41.1	-44.0	14.3	0.00e+00	0	56	0	864026624	54	4865
2026-01-06 11:03:54.05	306.67	27.17	-41.3	-44.5	13.9	7.00e-07	0	56	0	866123776	54	5131
2026-01-06 11:03:55.06	306.91	27.05	-41.8	-45.4	12.9	3.05e-05	0	56	0	868220928	54	5703
2026-01-06 11:03:56.07	307.15	26.94	-42.1	-46.1	12.2	1.23e-04	0	56	0	870318080	54	6133
2026-01-06 11:03:57.08	307.38	26.83	-42.0	-45.8	12.5	2.36e-04	0	56	0	871366656	54	5940
2026-01-06 11:03:58.09	307.61	26.71	-41.4	-44.7	13.6	1.90e-05	0	56	0	873463808	54	5250
2026-01-06 11:03:59.10	307.84	26.60	-40.8	-43.7	14.6	7.00e-07	0	56	0	875560960	53	4964
2026-01-06 11:04:00.11	308.07	26.48	-40.7	-43.4	14.9	0.00e+00	0	56	0	877658112	53	4792
2026-01-06 11:04:01.12	308.30	26.37	-40.6	-43.4	14.9	0.00e+00	0	56	0	879755264	53	4769
2026-01-06 11:04:02.13	308.53	26.25	-40.8	-43.7	14.6	0.00e+00	0	56	0	881852416	53	4970
2026-01-06 11:04:03.14	308.76	26.14	-41.3	-44.4	13.9	1.50e-06	0	56	0	882900992	53	5402
2026-01-06 11:04:04.15	308.98	26.03	-41.5	-44.9	13.4	3.80e-06	0	56	0	884998144	53	5686
2026-01-06 11:04:05.16	309.20	25.91	-41.6	-45.0	13.3	2.13e-05	0	56	0	887095296	53	5736
2026-01-06 11:04:06.17	309.42	25.80	-41.4	-44.6	13.6	1.52e-05	0	56	0	889192448	53	5525
2026-01-06 11:04:07.18	309.64	25.68	-41.3	-44.4	13.9	5.30e-06	0	56	0	891289600	53	5384
2026-01-06 11:04:08.18	309.86	25.57	-41.0	-44.0	14.2	4.50e-06	0	56	0	892338176	53	5159
2026-01-06 11:04:09.19	310.07	25.46	-40.8	-43.6	14.6	7.00e-07	0	56	0	894435328	53	4922
2026-01-06 11:04:10.20	310.29	25.34	-40.7	-43.6	14.7	0.00e+00	0	56	0	896532480	53	4881
2026-01-06 11:04:11.21	310.50	25.23	-41.1	-44.1	14.2	7.00e-07	0	56	0	898629632	53	5182
2026-01-06 11:04:12.22	310.71	25.12	-41.2	-44.4	13.8	1.50e-06	0	56	0	899678208	53	5361
2026-01-06 11:04:13.23	310.92	25.00	-41.1	-44.2	14.0	5.30e-06	0	56	0	901775360	53	5239
2026-01-06 11:04:14.24	311.13	24.89	-40.8	-43.7	14.6	7.00e-07	0	56	0	903872512	53	4957
2026-01-06 11:04:15.25	311.33	24.77	-40.3	-42.9	15.4	0.00e+00	0	56	0	905969664	52	4769
2026-01-06 11:04:16.26	311.54	24.66	-39.9	-42.3	16.1	0.00e+00	0	56	0	908066816	51	4707
2026-01-06 11:04:17.27	311.74	24.55	-39.6	-41.8	16.5	0.00e+00	0	56	0	910163968	51	4478
2026-01-06 11:04:18.28	311.95	24.44	-39.5	-41.7	16.7	0.00e+00	0	56	0	911212544	51	4412
2026-01-06 11:04:19.29	312.15	24.32	-39.6	-41.8	16.5	0.00e+00	0	56	0	913309696	51	4482
2026-01-06 11:04:20.29	312.35	24.21	-39.8	-42.0	16.3	0.00e+00	0	56	0	915406848	51	4590
2026-01-06 11:04:21.30	312.54	24.10	-39.8	-42.1	16.2	0.00e+00	0	56	0	917504000	51	4638
2026-01-06 11:04:22.31	312.74	23.99	-39.8	-42.2	16.2	0.00e+00	0	56	0	919601152	51	4673
2026-01-06 11:04:23.32	312.94	23.87	-39.8	-42.2	16.2	0.00e+00	0	56	0	920649728	51	4673
2026-01-06 11:04:24.33	313.13	23.76	-39.8	-42.1	16.2	0.00e+00	0	56	0	922746880	51	4640
2026-01-06 11:04:25.34	313.32	23.65	-39.8	-42.1	16.3	0.00e+00	0	56	0	924844032	51	4601
2026-01-06 11:04:26.35	313.51	23.54	-39.4	-41.6	16.8	0.00e+00	0	56	0	926941184	50	4620
2026-01-06 11:04:27.36	313.70	23.43	-39.2	-41.3	17.0	0.00e+00	0	56	0	929038336	50	4475
2026-01-06 11:04:28.37	313.89	23.31	-39.2	-41.3	17.1	0.00e+00	0	56	0	930086912	50	4456
2026-01-06 11:04:29.38	314.08	23.20	-39.4	-41.6	16.7	0.00e+00	0	56	0	932184064	50	4620
2026-01-06 11:04:30.39	314.27	23.09	-39.5	-41.8	16.6	0.00e+00	0	56	0	934281216	50	4713
2026-01-06 11:04:31.40	314.45	22.98	-39.6	-41.9	16.4	0.00e+00	0	56	0	936378368	50	4803
2026-01-06 11:04:32.41	314.64	22.87	-39.6	-41.9	16.5	0.00e+00	0	56	0	938475520	50	4767
2026-01-06 11:04:33.42	314.82	22.76	-39.3	-41.5	16.9	0.00e+00	0	56	0	939524096	50	4546
2026-01-06 11:04:34.43	315.00	22.65	-39.2	-41.3	17.1	0.00e+00	0	56	0	941621248	50	4446
2026-01-06 11:04:35.44	315.18	22.54	-39.0	-41.0	17.3	0.00e+00	0	56	0	943718400	50	4328
2026-01-06 11:04:36.45	315.36	22.43	-38.9	-40.9	17.4	0.00e+00	0	56	0	945815552	49	4533
2026-01-06 11:04:37.45	315.53	22.32	-38.9	-40.9	17.4	0.00e+00	0	56	0	947912704	49	4539
2026-01-06 11:04:38.46	315.71	22.21	-38.8	-40.8	17.5	0.00e+00	0	56	0	948961280	49	4467
2026-01-06 11:04:39.47	315.89	22.10	-38.8	-40.8	17.5	0.00e+00	0	56	0	951058432	49	4470
2026-01-06 11:04:40.48	316.06	21.99	-39.0	-41.1	17.2	0.00e+00	0	56	0	953155584	49	4612
2026-01-06 11:04:41.49	316.23	21.88	-39.2	-41.3	17.1	0.00e+00	0	56	0	955252736	49	4708
2026-01-06 11:04:42.50	316.40	21.77	-39.3	-41.4	16.9	0.00e+00	0	56	0	957349888	49	4793
2026-01-06 11:04:43.51	316.57	21.67	-39.4	-41.6	16.7	0.00e+00	0	56	0	958398464	49	4874
2026-01-06 11:04:44.52	316.74	21.56	-39.3	-41.4	16.9	0.00e+00	0	56	0	960495616	49	4809
2026-01-06 11:04:45.53	316.91	21.45	-39.1	-41.2	17.1	0.00e+00	0	56	0	962592768	49	4665
2026-01-06 11:04:46.54	317.08	21.34	-39.0	-41.0	17.3	0.00e+00	0	56	0	964689920	49	4572
2026-01-06 11:04:47.55	317.24	21.23	-38.9	-41.0	17.3	0.00e+00	0	56	0	966787072	49	4563
2026-01-06 11:04:48.56	317.41	21.13	-38.8	-40.8	17.4	0.00e+00	0	56	0	967835648	49	4490
2026-01-06 11:04:49.57	317.57	21.02	-38.8	-40.8	17.4	0.00e+00	0	56	0	969932800	49	4486
2026-01-06 11:04:50.58	317.73	20.91	-38.9	-41.0	17.3	0.00e+00	0	56	0	972029952	49	4562
2026-01-06 11:04:51.59	317.89	20.80	-39.2	-41.3	17.0	0.00e+00	0	56	0	974127104	49	4711
2026-01-06 11:04:52.60	318.06	20.70	-39.3	-41.5	16.8	0.00e+00	0	56	0	976224256	49	4829
2026-01-06 11:04:53.61	318.21	20.59	-39.5	-41.8	16.5	0.00e+00	0	56	0	978321408	49	5009
2026-01-06 11:04:54.62	318.37	20.49	-39.8	-42.2	16.1	0.00e+00	0	56	0	979369984	50	4949
2026-01-06 11:04:55.63	318.53	20.38	-39.8	-42.2	16.1	0.00e+00	0	56	0	981467136	50	4972
2026-01-06 11:04:56.64	318.69	20.27	-39.9	-42.4	15.9	0.00e+00	0	56	0	983564288	50	5054
2026-01-06 11:04:57.65	318.84	20.17	-40.0	-42.4	15.9	0.00e+00	0	56	0	985661440	50	5088
2026-01-06 11:04:58.66	318.99	20.06	-40.1	-42.5	15.7	0.00e+00	0	56	0	987758592	50	5152
2026-01-06 11:04:59.67	319.15	19.96	-39.8	-42.1	16.2	0.00e+00	0	56	0	988807168	50	4899
2026-01-06 11:05:00.68	319.30	19.85	-39.4	-41.6	16.6	0.00e+00	0	56	0	990904320	50	4648
2026-01-06 11:05:01.69	319.45	19.75	-39.4	-41.6	16.7	0.00e+00	0	56	0	993001472	50	4606
2026-01-06 11:05:02.70	319.60	19.65	-39.5	-41.7	16.6	0.00e+00	0	56	0	995098624	50	4671
2026-01-06 11:05:03.71	319.75	19.54	-39.6	-41.9	16.4	0.00e+00	0	56	0	997195776	50	4769
2026-01-06 11:05:04.72	319.90	19.44	-39.6	-41.9	16.3	0.00e+00	0	56	0	998244352	50	4811
2026-01-06 11:05:05.73	320.04	19.34	-39.7	-42.0	16.3	0.00e+00	0	56	0	1000341504	50	4834
2026-01-06 11:05:06.74	320.19	19.23	-39.7	-42.1	16.1	0.00e+00	0	56	0	1002438656	50	4903
2026-01-06 11:05:07.75	320.33	19.13	-39.7	-42.1	16.2	0.00e+00	0	56	0	1004535808	50	4871
2026-01-06 11:05:08.76	320.48	19.03	-39.8	-42.1	16.1	0.00e+00	0	56	0	1006632960	50	4910
2026-01-06 11:05:09.77	320.62	18.92	-39.8	-42.1	16.1	0.00e+00	0	56	0	1007681536	50	4912
2026-01-06 11:05:10.78	320.76	18.82	-39.7	-42.0	16.2	0.00e+00	0	56	0	1009778688	50	4838
2026-01-06 11:05:11.79	320.91	18.72	-39.7	-42.0	16.2	0.00e+00	0	56	0	1011875840	50	4868
2026-01-06 11:05:12.80	321.05	18.62	-39.7	-42.0	16.2	0.00e+00	0	56	0	1013972992	50	4859
2026-01-06 11:05:13.81	321.19	18.52	-39.7	-42.1	16.1	0.00e+00	0	56	0	1016070144	50	4887
2026-01-06 11:05:14.82	321.32	18.42	-39.8	-42.2	16.0	0.00e+00	0	56	0	1017118720	50	4966
2026-01-06 11:05:15.83	321.46	18.32	-39.8	-42.2	15.9	0.00e+00	0	56	0	1019215872	50	4974
2026-01-06 11:05:16.83	321.60	18.22	-40.0	-42.5	15.7	0.00e+00	0	56	0	1021313024	50	5126
2026-01-06 11:05:17.84	321.73	18.12	-40.1	-42.6	15.6	0.00e+00	0	56	0	1023410176	50	5177
2026-01-06 11:05:18.85	321.87	18.02	-40.1	-42.6	15.5	0.00e+00	0	56	0	1025507328	50	5208
2026-01-06 11:05:19.86	322.00	17.92	-40.2	-42.8	15.4	0.00e+00	0	56	0	1026555904	51	5014
2026-01-06 11:05:20.87	322.14	17.82	-40.1	-42.6	15.6	0.00e+00	0	57	0	1028653056	51	4889
2026-01-06 11:05:21.88	322.27	17.72	-40.1	-42.7	15.5	0.00e+00	0	56	0	1030750208	51	4957
2026-01-06 11:05:22.89	322.40	17.62	-40.2	-42.8	15.3	7.00e-07	0	56	0	1032847360	51	5041
2026-01-06 11:05:23.90	322.53	17.52	-40.1	-42.7	15.4	0.00e+00	0	56	0	1034944512	51	4956
2026-01-06 11:05:24.91	322.66	17.42	-40.2	-42.9	15.2	0.00e+00	0	56	0	1035993088	51	5055
2026-01-06 11:05:25.92	322.79	17.32	-40.3	-43.0	15.1	0.00e+00	0	56	0	1038090240	51	5144
2026-01-06 11:05:26.93	322.92	17.23	-40.5	-43.2	14.9	0.00e+00	0	56	0	1040187392	51	5271
2026-01-06 11:05:27.94	323.05	17.13	-40.6	-43.6	14.4	0.00e+00	0	56	0	1042284544	52	5176
2026-01-06 11:05:28.95	323.17	17.03	-40.8	-43.8	14.2	7.00e-07	0	56	0	1044381696	52	5324
2026-01-06 11:05:29.96	323.30	16.93	-41.0	-44.1	13.9	2.20e-06	0	56	0	1046478848	52	5525
2026-01-06 11:05:30.96	323.42	16.84	-41.1	-44.3	13.7	2.20e-06	0	56	0	1047527424	52	5628
2026-01-06 11:05:31.97	323.55	16.74	-41.0	-44.2	13.8	7.60e-06	0	56	0	1049624576	52	5576
2026-01-06 11:05:32.98	323.67	16.65	-41.1	-44.3	13.7	3.80e-06	0	56	0	1051721728	52	5631
2026-01-06 11:05:33.99	323.79	16.55	-41.1	-44.3	13.7	4.50e-06	0	56	0	1053818880	52	5627
2026-01-06 11:05:35.00	323.92	16.45	-40.8	-43.9	14.1	3.00e-06	0	56	0	1055916032	52	5343
2026-01-06 11:05:36.01	324.04	16.36	-40.6	-43.5	14.5	7.00e-07	0	56	0	1056964608	52	5132
2026-01-06 11:05:37.02	324.16	16.26	-40.4	-43.2	14.8	0.00e+00	0	56	0	1059061760	52	4981
2026-01-06 11:05:38.03	324.28	16.17	-40.5	-43.3	14.7	7.00e-07	0	56	0	1061158912	52	5024
2026-01-06 11:05:39.04	324.40	16.07	-40.3	-43.1	14.9	0.00e+00	0	56	0	1063256064	52	4895
2026-01-06 11:05:40.05	324.52	15.98	-40.3	-43.0	15.0	0.00e+00	0	56	0	1065353216	52	4835
2026-01-06 11:05:41.06	324.63	15.88	-40.3	-43.1	14.9	0.00e+00	0	56	0	1066401792	52	4871
2026-01-06 11:05:42.07	324.75	15.79	-40.4	-43.2	14.8	0.00e+00	0	56	0	1068498944	52	4964
2026-01-06 11:05:43.08	324.87	15.70	-40.6	-43.5	14.4	0.00e+00	0	56	0	1070596096	52	5132
2026-01-06 11:05:44.09	324.98	15.60	-40.6	-43.6	14.3	7.00e-07	0	56	0	1072693248	52	5195
2026-01-06 11:05:45.10	325.10	15.51	-40.7	-43.7	14.3	0.00e+00	0	56	0	1074790400	52	5255
2026-01-06 11:05:46.10	325.21	15.42	-40.7	-43.8	14.2	7.00e-07	0	56	0	1075838976	52	5287
2026-01-06 11:05:47.11	325.33	15.32	-40.8	-43.9	14.1	3.00e-06	0	56	0	1077936128	52	5345
2026-01-06 11:05:48.12	325.44	15.23	-40.7	-43.8	14.1	2.20e-06	0	56	0	1080033280	52	5300
2026-01-06 11:05:49.13	325.55	15.14	-40.6	-43.6	14.3	0.00e+00	0	56	0	1082130432	52	5206
2026-01-06 11:05:50.14	325.66	15.05	-40.6	-43.5	14.4	7.00e-07	0	56	0	1084227584	52	5137
2026-01-06 11:05:51.15	325.77	14.96	-40.5	-43.3	14.6	0.00e+00	0	56	0	1085276160	52	5028
2026-01-06 11:05:52.15	325.88	14.87	-40.3	-43.1	14.8	0.00e+00	0	56	0	1087373312	52	4907
2026-01-06 11:05:53.16	325.99	14.77	-40.3	-43.0	14.9	0.00e+00	0	56	0	1089470464	52	4856
2026-01-06 11:05:54.17	326.10	14.68	-40.3	-43.0	14.9	0.00e+00	0	56	0	1091567616	52	4868
2026-01-06 11:05:55.18	326.21	14.59	-40.3	-43.1	14.9	7.00e-07	0	56	0	1093664768	52	4875
2026-01-06 11:05:56.19	326.32	14.50	-40.3	-43.1	14.8	0.00e+00	0	56	0	1094713344	52	4907
2026-01-06 11:05:57.20	326.42	14.41	-40.3	-43.1	14.8	0.00e+00	0	56	0	1096810496	52	4925
2026-01-06 11:05:58.21	326.53	14.32	-40.4	-43.2	14.6	0.00e+00	0	56	0	1098907648	52	4981
2026-01-06 11:05:59.22	326.64	14.23	-40.5	-43.5	14.4	7.00e-07	0	56	0	1101004800	52	5133
2026-01-06 11:06:00.23	326.74	14.14	-40.7	-43.7	14.2	7.00e-07	0	56	0	1103101952	52	5261
2026-01-06 11:06:01.24	326.85	14.05	-40.8	-43.9	14.0	1.50e-06	0	56	0	1104150528	52	5361
2026-01-06 11:06:02.25	326.95	13.96	-40.7	-43.8	14.0	3.80e-06	0	56	0	1106247680	52	5335
2026-01-06 11:06:03.26	327.05	13.87	-40.9	-44.1	13.8	3.80e-06	0	56	0	1108344832	52	5496
2026-01-06 11:06:04.26	327.16	13.79	-40.9	-44.1	13.7	9.10e-06	0	56	0	1110441984	52	5521
2026-01-06 11:06:05.27	327.26	13.70	-40.9	-44.1	13.7	3.80e-06	0	56	0	1112539136	52	5526
2026-01-06 11:06:06.28	327.36	13.61	-40.8	-44.0	13.8	3.00e-06	0	56	0	1114636288	52	5448
2026-01-06 11:06:07.29	327.46	13.52	-40.8	-43.9	14.0	5.30e-06	0	56	0	1115684864	52	5368
2026-01-06 11:06:08.30	327.56	13.44	-40.7	-43.8	14.1	7.00e-07	0	56	0	1117782016	52	5281
2026-01-06 11:06:09.31	327.66	13.35	-40.6	-43.7	14.2	0.00e+00	0	56	0	1119879168	52	5246
2026-01-06 11:06:10.32	327.76	13.26	-40.5	-43.4	14.5	2.20e-06	0	56	0	1121976320	52	5066
2026-01-06 11:06:11.33	327.86	13.17	-40.4	-43.2	14.6	2.20e-06	0	56	0	1124073472	52	4977
2026-01-06 11:06:12.34	327.96	13.09	-40.2	-43.0	14.9	0.00e+00	0	56	0	1125122048	52	4828
2026-01-06 11:06:13.34	328.06	13.00	-40.3	-43.1	14.8	7.00e-07	0	56	0	1127219200	52	4873
2026-01-06 11:06:14.35	328.15	12.92	-40.2	-43.0	14.8	0.00e+00	0	56	0	1129316352	52	4840
2026-01-06 11:06:15.36	328.25	12.83	-40.3	-43.1	14.7	0.00e+00	0	56	0	1131413504	52	4897
2026-01-06 11:06:16.38	328.35	12.74	-40.3	-43.2	14.6	0.00e+00	0	56	0	1133510656	52	4946
2026-01-06 11:06:17.38	328.44	12.66	-40.3	-43.2	14.6	0.00e+00	0	56	0	1134559232	52	4965
2026-01-06 11:06:18.39	328.54	12.57	-40.3	-43.1	14.7	0.00e+00	0	56	0	1136656384	52	4879
2026-01-06 11:06:19.40	328.63	12.49	-40.3	-43.2	14.6	0.00e+00	0	56	0	1138753536	52	4950
2026-01-06 11:06:20.41	328.73	12.40	-40.3	-43.2	14.6	0.00e+00	0	56	0	1140850688	52	4965
2026-01-06 11:06:21.42	328.82	12.32	-40.4	-43.3	14.5	2.20e-06	0	56	0	1142947840	52	5021
2026-01-06 11:06:22.43	328.91	12.24	-40.5	-43.4	14.4	0.00e+00	0	56	0	1143996416	52	5080
2026-01-06 11:06:23.44	329.01	12.15	-40.5	-43.5	14.3	7.00e-07	0	56	0	1146093568	52	5113
2026-01-06 11:06:24.45	329.10	12.07	-40.6	-43.7	14.1	1.50e-06	0	56	0	1148190720	52	5235
2026-01-06 11:06:25.46	329.19	11.98	-40.6	-43.7	14.1	7.00e-07	0	56	0	1150287872	52	5238
2026-01-06 11:06:26.47	329.28	11.90	-40.7	-43.8	13.9	4.50e-06	0	56	0	1152385024	52	5336
2026-01-06 11:06:27.48	329.37	11.82	-40.7	-43.9	13.8	2.20e-06	0	56	0	1153433600	52	5367
2026-01-06 11:06:28.49	329.46	11.73	-40.6	-43.8	13.9	3.00e-06	0	56	0	1155530752	52	5308
2026-01-06 11:06:29.50	329.55	11.65	-40.6	-43.7	14.0	3.00e-06	0	56	0	1157627904	52	5258
2026-01-06 11:06:30.50	329.64	11.57	-40.5	-43.6	14.1	7.00e-07	0	56	0	1159725056	52	5195
2026-01-06 11:06:31.51	329.73	11.49	-40.4	-43.4	14.3	7.00e-07	0	56	0	1161822208	52	5081
2026-01-06 11:06:32.52	329.82	11.41	-40.4	-43.3	14.4	7.00e-07	0	56	0	1162870784	52	5034
2026-01-06 11:06:33.53	329.90	11.32	-40.4	-43.3	14.4	0.00e+00	0	56	0	1164967936	52	5025
