passes_logs/2026/01/06/R2.0S_Moscow/R2.0S_Moscow__20260106_042826_FENGYUN_3G_rec.log

#Pass ID: 20260106_042826_FENGYUN 3G
#Satellite: FENGYUN 3G
#Configuration: FENGYUN 3G
#almurnet v.1.7.20251203
#Start time: 2026-01-06 04:28:26

#Version: 2.2.20231116
#Station: R2.0S_Moscow
#Location: 37.707566 lon 55.798166 lat
#TLE: 1 56232U 23055A   26005.27063903  .00035143  00000+0  55802-3 0  9994
#TLE: 2 56232  49.9940 106.1098 0004225 341.8364  18.2452 15.52952562154680

#Time	Az	El	Level	Level2	SNR	BER	BlckErr	Temp	State	Recorded	gain1	gain2
2026-01-06 04:28:26.78	262.69	2.03	-44.1	-62.5	3.8	8.47e-01	0	46	0	0	60	28841
2026-01-06 04:28:27.80	262.61	2.09	-44.1	-62.5	3.8	8.44e-01	0	47	104	0	60	28871
2026-01-06 04:28:28.81	262.53	2.16	-44.1	-62.5	3.8	8.46e-01	0	47	104	0	60	28852
2026-01-06 04:28:29.82	262.45	2.22	-44.1	-62.5	3.8	8.46e-01	0	47	104	0	60	28897
2026-01-06 04:28:30.83	262.37	2.29	-44.1	-62.5	3.8	8.46e-01	0	47	104	0	60	28798
2026-01-06 04:28:31.84	262.29	2.35	-44.1	-62.5	3.8	8.46e-01	0	47	104	0	60	28812
2026-01-06 04:28:32.85	262.21	2.42	-44.1	-62.5	3.8	8.47e-01	0	47	104	0	60	28857
2026-01-06 04:28:33.86	262.13	2.48	-44.1	-62.5	3.8	8.47e-01	0	47	104	0	60	28834
2026-01-06 04:28:34.87	262.05	2.55	-44.1	-62.5	3.8	8.45e-01	0	47	104	0	60	28705
2026-01-06 04:28:35.88	261.97	2.61	-44.1	-62.5	3.8	8.46e-01	0	47	104	0	60	28728
2026-01-06 04:28:36.90	261.88	2.68	-44.1	-62.5	3.8	8.46e-01	0	47	104	0	60	28733
2026-01-06 04:28:37.91	261.80	2.74	-44.1	-62.4	3.8	8.46e-01	0	47	104	0	60	28665
2026-01-06 04:28:38.92	261.72	2.81	-44.1	-62.4	3.8	8.46e-01	0	47	104	0	60	28666
2026-01-06 04:28:39.93	261.63	2.88	-44.1	-62.4	3.8	8.46e-01	0	48	104	0	60	28667
2026-01-06 04:28:40.94	261.55	2.94	-44.1	-62.5	3.8	8.46e-01	0	48	104	0	60	28714
2026-01-06 04:28:41.95	261.46	3.01	-44.1	-62.4	3.8	8.46e-01	0	47	104	0	60	28632
2026-01-06 04:28:42.96	261.38	3.08	-44.1	-62.4	3.8	8.46e-01	0	47	104	0	60	28557
2026-01-06 04:28:43.97	261.29	3.14	-44.1	-62.4	3.8	8.46e-01	0	48	104	0	60	28611
2026-01-06 04:28:44.98	261.20	3.21	-44.1	-62.4	3.8	8.48e-01	0	48	104	0	60	28487
2026-01-06 04:28:46.00	261.11	3.28	-44.1	-62.4	3.8	8.45e-01	0	48	104	0	60	28438
2026-01-06 04:28:47.01	261.03	3.35	-44.1	-62.4	3.8	8.45e-01	0	48	104	0	60	28464
2026-01-06 04:28:48.02	260.94	3.41	-44.1	-62.3	3.8	8.46e-01	0	48	104	0	60	28341
2026-01-06 04:28:49.03	260.85	3.48	-44.1	-62.4	3.8	8.45e-01	0	48	104	0	60	28454
2026-01-06 04:28:50.04	260.76	3.55	-44.1	-62.4	3.8	8.45e-01	0	48	104	0	60	28544
2026-01-06 04:28:51.05	260.67	3.62	-44.1	-62.4	3.8	8.46e-01	0	48	104	0	60	28603
2026-01-06 04:28:52.06	260.57	3.69	-44.1	-62.4	3.8	8.46e-01	0	48	104	0	60	28663
2026-01-06 04:28:53.07	260.48	3.75	-44.1	-62.4	3.8	8.46e-01	0	48	104	0	60	28670
2026-01-06 04:28:54.08	260.39	3.82	-44.1	-62.5	3.8	8.46e-01	0	48	104	0	60	28783
2026-01-06 04:28:55.09	260.30	3.89	-44.1	-62.5	3.8	8.45e-01	0	48	104	0	60	28734
2026-01-06 04:28:56.11	260.20	3.96	-44.1	-62.5	3.8	8.46e-01	0	49	104	0	60	28737
2026-01-06 04:28:57.12	260.11	4.03	-44.1	-62.5	3.8	8.46e-01	0	48	104	0	60	28681
2026-01-06 04:28:58.13	260.01	4.10	-44.1	-62.5	3.8	8.47e-01	0	49	104	0	60	28681
2026-01-06 04:28:59.14	259.92	4.17	-44.1	-62.4	3.8	8.46e-01	0	49	104	0	60	28645
2026-01-06 04:29:00.15	259.82	4.24	-44.1	-62.4	3.8	8.46e-01	0	49	104	0	60	28636
2026-01-06 04:29:01.16	259.72	4.31	-44.1	-62.4	3.8	8.45e-01	0	49	104	0	60	28521
2026-01-06 04:29:02.17	259.62	4.38	-44.1	-62.4	3.8	8.45e-01	0	49	104	0	60	28419
2026-01-06 04:29:03.18	259.53	4.45	-44.1	-62.4	3.8	8.45e-01	0	49	104	0	60	28635
2026-01-06 04:29:04.19	259.43	4.53	-44.1	-62.4	3.8	8.45e-01	0	49	104	0	60	28599
2026-01-06 04:29:05.20	259.33	4.60	-44.1	-62.5	3.8	8.47e-01	0	49	104	0	60	28715
2026-01-06 04:29:06.21	259.22	4.67	-44.1	-62.5	3.8	8.45e-01	0	49	104	0	60	28801
2026-01-06 04:29:07.23	259.12	4.74	-44.1	-62.5	3.8	8.45e-01	0	49	104	0	60	28838
2026-01-06 04:29:08.24	259.02	4.81	-44.1	-62.5	3.8	8.47e-01	0	49	104	0	60	28884
2026-01-06 04:29:09.25	258.92	4.89	-44.1	-62.5	3.8	8.47e-01	0	49	104	0	60	28781
2026-01-06 04:29:10.26	258.81	4.96	-44.1	-62.5	3.8	8.47e-01	0	49	104	0	60	28717
2026-01-06 04:29:11.27	258.71	5.03	-44.1	-62.5	3.8	8.47e-01	0	49	104	0	60	28753
2026-01-06 04:29:12.28	258.60	5.10	-44.1	-62.4	3.8	8.46e-01	0	50	104	0	60	28665
2026-01-06 04:29:13.29	258.50	5.18	-44.1	-62.5	3.8	8.46e-01	0	49	104	0	60	28692
2026-01-06 04:29:14.30	258.39	5.25	-44.1	-62.4	3.8	8.47e-01	0	49	104	0	60	28560
2026-01-06 04:29:15.31	258.28	5.32	-44.1	-62.3	3.8	8.46e-01	0	49	104	0	60	28189
2026-01-06 04:29:16.32	258.18	5.40	-44.1	-62.1	3.8	8.46e-01	0	49	104	0	60	27535
2026-01-06 04:29:17.34	258.07	5.47	-44.1	-61.8	3.8	8.46e-01	0	50	104	0	60	26675
2026-01-06 04:29:18.35	257.96	5.55	-44.1	-61.5	3.8	8.45e-01	0	50	104	0	60	25567
2026-01-06 04:29:19.36	257.85	5.62	-44.0	-61.1	3.8	8.46e-01	0	50	104	0	60	24457
2026-01-06 04:29:20.37	257.73	5.70	-44.0	-61.0	3.8	8.46e-01	0	50	104	0	60	24198
2026-01-06 04:29:21.38	257.62	5.77	-44.0	-60.8	3.8	8.46e-01	0	50	104	0	60	23719
2026-01-06 04:29:22.39	257.51	5.85	-44.0	-60.7	3.8	8.46e-01	0	50	104	0	60	23331
2026-01-06 04:29:23.40	257.39	5.92	-44.0	-60.5	3.8	8.46e-01	0	50	104	0	60	23028
2026-01-06 04:29:24.41	257.28	6.00	-44.0	-60.7	3.8	8.45e-01	0	50	104	0	60	23318
2026-01-06 04:29:25.42	257.16	6.07	-44.0	-60.6	3.8	8.46e-01	0	50	104	0	60	23163
2026-01-06 04:29:26.44	257.05	6.15	-44.0	-60.4	3.8	8.46e-01	0	50	104	0	60	22567
2026-01-06 04:29:27.45	256.93	6.23	-44.0	-59.7	3.8	8.45e-01	0	50	104	0	60	21017
2026-01-06 04:29:28.46	256.81	6.30	-44.0	-59.4	4.1	8.44e-01	0	50	0	0	60	20083
2026-01-06 04:29:29.47	256.69	6.38	-44.1	-58.8	4.1	8.39e-01	0	50	0	0	59	19970
2026-01-06 04:29:30.48	256.57	6.46	-44.0	-57.6	4.7	8.39e-01	0	50	0	0	59	17421
2026-01-06 04:29:31.49	256.45	6.54	-43.9	-56.5	5.2	8.16e-01	0	50	0	0	59	15359
2026-01-06 04:29:32.50	256.33	6.61	-43.9	-55.8	5.7	7.16e-01	0	51	0	0	59	14107
2026-01-06 04:29:33.51	256.21	6.69	-43.8	-54.8	6.5	7.16e-01	0	51	0	1048576	59	12609
2026-01-06 04:29:34.52	256.08	6.77	-43.7	-54.3	6.9	3.33e-01	0	50	0	2097152	59	11890
2026-01-06 04:29:35.53	255.96	6.85	-43.7	-54.3	7.0	1.84e-01	0	50	0	3145728	59	11876
2026-01-06 04:29:36.54	255.83	6.93	-43.7	-54.9	6.4	1.84e-01	0	51	0	4718592	59	12765
2026-01-06 04:29:37.55	255.70	7.01	-43.8	-56.3	5.4	2.21e-01	0	51	0	5767168	59	15014
2026-01-06 04:29:38.56	255.58	7.09	-44.0	-58.8	4.3	5.93e-01	0	51	0	5767168	59	19927
2026-01-06 04:29:39.57	255.45	7.17	-44.1	-61.3	3.8	5.93e-01	0	51	104	5767168	59	26730
2026-01-06 04:29:40.58	255.32	7.25	-44.0	-58.0	4.4	8.39e-01	0	51	104	5767168	59	18257
2026-01-06 04:29:41.60	255.19	7.33	-43.6	-53.4	7.6	8.00e-01	0	51	0	6291456	59	10723
2026-01-06 04:29:42.61	255.06	7.41	-43.0	-50.0	11.2	9.01e-02	0	51	0	7340032	58	7636
2026-01-06 04:29:43.62	254.92	7.49	-42.0	-47.1	14.3	9.01e-02	0	51	0	8388608	56	6160
2026-01-06 04:29:44.63	254.79	7.57	-40.9	-44.8	16.4	2.32e-04	0	51	0	9437184	53	5649
2026-01-06 04:29:45.64	254.66	7.65	-40.1	-43.4	17.9	0.00e+00	0	51	0	10485760	52	5044
2026-01-06 04:29:46.65	254.52	7.73	-39.5	-42.3	19.1	0.00e+00	0	51	0	12058624	50	5023
2026-01-06 04:29:47.66	254.38	7.82	-39.0	-41.6	19.8	0.00e+00	0	51	0	13107200	50	4627
2026-01-06 04:29:48.67	254.24	7.90	-38.9	-41.5	19.9	0.00e+00	0	51	0	14155776	49	4835
2026-01-06 04:29:49.68	254.11	7.98	-39.1	-41.9	19.5	0.00e+00	0	51	0	15204352	49	5074
2026-01-06 04:29:50.69	253.97	8.06	-39.2	-42.0	19.5	0.00e+00	0	51	0	16252928	49	5103
2026-01-06 04:29:51.70	253.82	8.15	-40.1	-43.5	18.0	0.00e+00	0	51	0	17301504	50	5756
2026-01-06 04:29:52.71	253.68	8.23	-40.6	-44.3	17.5	0.00e+00	0	51	0	18874368	51	5946
2026-01-06 04:29:53.72	253.54	8.31	-39.7	-42.7	18.9	0.00e+00	0	51	0	19922944	51	4945
2026-01-06 04:29:54.73	253.39	8.40	-41.3	-45.9	16.6	6.80e-06	0	51	0	20971520	53	6393
2026-01-06 04:29:55.74	253.25	8.48	-39.7	-42.9	18.0	4.54e-02	0	51	0	22020096	51	5053
2026-01-06 04:29:56.75	253.10	8.57	-38.9	-41.5	19.9	4.54e-02	0	51	0	23068672	49	4831
2026-01-06 04:29:57.76	252.95	8.65	-38.5	-40.9	20.5	0.00e+00	0	51	0	24117248	49	4542
2026-01-06 04:29:58.77	252.80	8.74	-38.1	-40.4	21.0	0.00e+00	0	51	0	25165824	48	4525
2026-01-06 04:29:59.78	252.65	8.82	-38.0	-40.2	21.2	0.00e+00	0	51	0	26738688	48	4435
2026-01-06 04:30:00.79	252.50	8.91	-37.9	-40.1	21.3	0.00e+00	0	51	0	27787264	47	4646
2026-01-06 04:30:01.80	252.35	8.99	-37.9	-40.1	21.4	0.00e+00	0	51	0	28835840	47	4623
2026-01-06 04:30:02.80	252.20	9.08	-38.1	-40.4	21.1	0.00e+00	0	51	0	29884416	47	4782
2026-01-06 04:30:03.81	252.04	9.16	-38.0	-40.3	21.2	0.00e+00	0	52	0	30932992	47	4732
2026-01-06 04:30:04.82	251.88	9.25	-38.0	-40.2	21.3	0.00e+00	0	51	0	31981568	47	4686
2026-01-06 04:30:05.83	251.73	9.34	-38.1	-40.4	21.1	0.00e+00	0	51	0	33554432	47	4806
2026-01-06 04:30:06.84	251.57	9.43	-38.1	-40.4	21.1	0.00e+00	0	51	0	34603008	47	4783
2026-01-06 04:30:07.85	251.41	9.51	-38.0	-40.3	21.2	0.00e+00	0	52	0	35651584	47	4711
2026-01-06 04:30:08.86	251.24	9.60	-38.1	-40.4	21.0	0.00e+00	0	51	0	36700160	47	4783
2026-01-06 04:30:09.87	251.08	9.69	-37.8	-40.0	21.4	0.00e+00	0	52	0	37748736	47	4584
2026-01-06 04:30:10.88	250.92	9.78	-37.7	-39.8	21.6	0.00e+00	0	52	0	38797312	47	4486
2026-01-06 04:30:11.89	250.75	9.87	-37.8	-40.0	21.5	0.00e+00	0	52	0	40370176	47	4570
2026-01-06 04:30:12.90	250.58	9.96	-37.7	-39.8	21.7	0.00e+00	0	52	0	41418752	47	4471
2026-01-06 04:30:13.91	250.41	10.05	-37.7	-39.9	21.7	0.00e+00	0	52	0	42467328	47	4510
2026-01-06 04:30:14.92	250.24	10.14	-37.8	-40.0	21.5	0.00e+00	0	52	0	43515904	47	4560
2026-01-06 04:30:15.93	250.07	10.23	-37.9	-40.1	21.4	0.00e+00	0	52	0	44564480	47	4629
2026-01-06 04:30:16.94	249.90	10.32	-37.9	-40.1	21.5	0.00e+00	0	52	0	46137344	47	4616
2026-01-06 04:30:17.95	249.73	10.41	-37.8	-39.9	21.6	0.00e+00	0	52	0	47185920	47	4535
2026-01-06 04:30:18.96	249.55	10.50	-37.7	-39.8	21.7	0.00e+00	0	52	0	48234496	47	4483
2026-01-06 04:30:19.97	249.37	10.59	-37.4	-39.5	22.0	0.00e+00	0	52	0	49283072	46	4580
2026-01-06 04:30:20.98	249.19	10.68	-37.3	-39.3	22.2	0.00e+00	0	52	0	50331648	46	4480
2026-01-06 04:30:21.99	249.01	10.77	-37.4	-39.5	22.1	0.00e+00	0	52	0	51380224	46	4560
2026-01-06 04:30:23.00	248.83	10.86	-37.4	-39.4	22.2	0.00e+00	0	52	0	52953088	46	4536
2026-01-06 04:30:24.01	248.65	10.96	-37.5	-39.5	22.1	0.00e+00	0	52	0	54001664	46	4580
2026-01-06 04:30:25.01	248.46	11.05	-37.5	-39.6	22.1	0.00e+00	0	52	0	55050240	46	4604
2026-01-06 04:30:26.02	248.28	11.14	-37.5	-39.6	22.0	0.00e+00	0	52	0	56098816	46	4608
2026-01-06 04:30:27.03	248.09	11.23	-37.6	-39.6	22.0	0.00e+00	0	52	0	57147392	46	4646
2026-01-06 04:30:28.05	247.90	11.33	-37.6	-39.6	22.0	0.00e+00	0	52	0	58195968	46	4649
2026-01-06 04:30:29.06	247.71	11.42	-37.4	-39.4	22.2	0.00e+00	0	52	0	59768832	46	4544
2026-01-06 04:30:30.07	247.51	11.52	-37.4	-39.4	22.2	0.00e+00	0	52	0	60817408	46	4534
2026-01-06 04:30:31.08	247.32	11.61	-37.4	-39.5	22.2	0.00e+00	0	52	0	61865984	46	4567
2026-01-06 04:30:32.09	247.12	11.71	-37.3	-39.3	22.3	0.00e+00	0	52	0	62914560	46	4477
2026-01-06 04:30:33.10	246.92	11.80	-37.4	-39.4	22.3	0.00e+00	0	52	0	63963136	46	4509
2026-01-06 04:30:34.11	246.73	11.90	-37.4	-39.4	22.2	0.00e+00	0	52	0	65011712	46	4533
2026-01-06 04:30:35.11	246.53	11.99	-37.4	-39.5	22.1	0.00e+00	0	53	0	66060288	46	4598
2026-01-06 04:30:36.12	246.32	12.09	-37.6	-39.8	21.9	0.00e+00	0	52	0	67633152	46	4743
2026-01-06 04:30:37.13	246.12	12.18	-37.6	-39.9	21.8	0.00e+00	0	53	0	68681728	46	4770
2026-01-06 04:30:38.14	245.91	12.28	-37.5	-39.7	22.0	0.00e+00	0	53	0	69730304	46	4676
2026-01-06 04:30:39.15	245.70	12.38	-37.3	-39.6	22.1	0.00e+00	0	53	0	70778880	46	4612
2026-01-06 04:30:40.16	245.49	12.47	-36.9	-39.2	22.3	0.00e+00	0	52	0	71827456	45	4702
2026-01-06 04:30:41.17	245.28	12.57	-36.8	-39.0	22.6	0.00e+00	0	52	0	72876032	45	4589
2026-01-06 04:30:42.18	245.07	12.67	-36.4	-38.8	22.8	0.00e+00	0	52	0	74448896	44	4729
2026-01-06 04:30:43.19	244.85	12.76	-36.2	-38.8	22.7	0.00e+00	0	52	0	75497472	44	4755
2026-01-06 04:30:44.20	244.63	12.86	-36.0	-38.8	22.7	0.00e+00	0	53	0	76546048	44	4723
2026-01-06 04:30:45.21	244.41	12.96	-36.5	-39.0	22.5	0.00e+00	0	53	0	77594624	44	4831
2026-01-06 04:30:46.22	244.19	13.06	-37.0	-39.1	22.5	0.00e+00	0	53	0	78643200	44	4871
2026-01-06 04:30:47.23	243.97	13.16	-36.8	-38.6	23.0	0.00e+00	0	53	0	80216064	44	4642
2026-01-06 04:30:48.24	243.74	13.26	-36.6	-38.6	23.1	0.00e+00	0	53	0	81264640	44	4605
2026-01-06 04:30:49.26	243.51	13.36	-36.3	-38.2	23.5	0.00e+00	0	53	0	82313216	44	4404
2026-01-06 04:30:50.27	243.28	13.46	-36.5	-38.3	23.4	0.00e+00	0	53	0	83361792	44	4457
2026-01-06 04:30:51.28	243.05	13.56	-36.5	-38.3	23.3	0.00e+00	0	53	0	84410368	44	4482
2026-01-06 04:30:52.29	242.82	13.66	-36.5	-38.4	23.3	0.00e+00	0	53	0	85458944	44	4508
2026-01-06 04:30:53.30	242.58	13.76	-36.7	-38.6	23.1	0.00e+00	0	53	0	87031808	44	4619
2026-01-06 04:30:54.31	242.34	13.86	-36.5	-38.4	23.4	0.00e+00	0	53	0	88080384	44	4494
2026-01-06 04:30:55.32	242.10	13.96	-36.7	-38.5	23.3	0.00e+00	0	53	0	89128960	44	4574
2026-01-06 04:30:56.33	241.86	14.06	-36.4	-38.2	23.5	0.00e+00	0	53	0	90177536	44	4421
2026-01-06 04:30:57.34	241.62	14.16	-36.2	-38.0	23.8	0.00e+00	0	53	0	91226112	44	4307
2026-01-06 04:30:58.35	241.37	14.26	-36.1	-37.9	23.9	0.00e+00	0	53	0	92274688	44	4254
2026-01-06 04:30:59.36	241.12	14.36	-36.1	-37.9	23.9	0.00e+00	0	53	0	93847552	44	4247
2026-01-06 04:31:00.37	240.87	14.46	-36.2	-38.0	23.8	0.00e+00	0	53	0	94896128	44	4303
2026-01-06 04:31:01.38	240.62	14.56	-36.2	-38.0	23.7	0.00e+00	0	53	0	95944704	44	4318
2026-01-06 04:31:02.39	240.37	14.66	-36.4	-38.2	23.6	0.00e+00	0	53	0	96993280	44	4407
2026-01-06 04:31:03.40	240.11	14.77	-36.3	-38.1	23.7	0.00e+00	0	53	0	98041856	44	4374
2026-01-06 04:31:04.41	239.85	14.87	-36.4	-38.2	23.6	0.00e+00	0	53	0	99090432	44	4405
2026-01-06 04:31:05.42	239.59	14.97	-36.4	-38.2	23.7	0.00e+00	0	53	0	100663296	44	4397
2026-01-06 04:31:06.42	239.33	15.07	-36.3	-38.1	23.7	0.00e+00	0	53	0	101711872	44	4350
2026-01-06 04:31:07.43	239.06	15.17	-36.2	-38.0	23.8	0.00e+00	0	53	0	102760448	44	4309
2026-01-06 04:31:08.44	238.79	15.28	-36.2	-38.0	23.8	0.00e+00	0	53	0	103809024	44	4303
2026-01-06 04:31:09.45	238.52	15.38	-36.1	-37.8	24.0	0.00e+00	0	53	0	104857600	44	4233
2026-01-06 04:31:10.46	238.25	15.48	-36.1	-37.8	24.0	0.00e+00	0	53	0	105906176	44	4225
2026-01-06 04:31:11.47	237.97	15.58	-36.1	-37.9	24.0	0.00e+00	0	53	0	106954752	44	4251
2026-01-06 04:31:12.48	237.69	15.69	-36.1	-37.9	23.9	0.00e+00	0	53	0	108527616	44	4254
2026-01-06 04:31:13.49	237.41	15.79	-36.3	-38.0	23.8	0.00e+00	0	53	0	109576192	44	4316
2026-01-06 04:31:14.50	237.13	15.89	-36.2	-37.9	23.9	0.00e+00	0	53	0	110624768	44	4291
2026-01-06 04:31:15.51	236.84	15.99	-36.2	-38.0	23.9	0.00e+00	0	53	0	111673344	44	4298
2026-01-06 04:31:16.52	236.56	16.10	-36.0	-37.7	24.1	0.00e+00	0	53	0	112721920	44	4159
2026-01-06 04:31:17.53	236.27	16.20	-35.8	-37.4	24.2	0.00e+00	0	53	0	114294784	43	4284
2026-01-06 04:31:18.54	235.97	16.30	-35.6	-37.3	24.3	0.00e+00	0	53	0	115343360	43	4217
2026-01-06 04:31:19.55	235.68	16.41	-35.8	-37.5	24.1	0.00e+00	0	53	0	116391936	43	4334
2026-01-06 04:31:20.56	235.38	16.51	-35.7	-37.4	24.2	0.00e+00	0	53	0	117440512	43	4282
2026-01-06 04:31:21.57	235.08	16.61	-35.8	-37.4	24.2	0.00e+00	0	53	0	118489088	43	4286
2026-01-06 04:31:22.58	234.78	16.71	-35.5	-37.1	24.5	0.00e+00	0	53	0	119537664	42	4358
2026-01-06 04:31:23.59	234.47	16.82	-35.2	-36.8	24.8	0.00e+00	0	53	0	121110528	42	4220
2026-01-06 04:31:24.60	234.16	16.92	-34.9	-36.5	25.1	0.00e+00	0	53	0	122159104	41	4307
2026-01-06 04:31:25.61	233.85	17.02	-35.1	-36.7	25.0	0.00e+00	0	53	0	123207680	41	4414
2026-01-06 04:31:26.62	233.54	17.12	-35.2	-36.8	24.9	0.00e+00	0	53	0	124256256	41	4466
2026-01-06 04:31:27.63	233.22	17.23	-35.6	-37.3	24.5	0.00e+00	0	53	0	125304832	41	4711
2026-01-06 04:31:28.64	232.90	17.33	-35.6	-37.2	24.5	0.00e+00	0	53	0	126353408	41	4687
2026-01-06 04:31:29.65	232.58	17.43	-35.6	-37.2	24.4	0.00e+00	0	53	0	127926272	41	4689
2026-01-06 04:31:30.66	232.26	17.53	-35.4	-37.0	24.7	0.00e+00	0	53	0	128974848	41	4580
2026-01-06 04:31:31.67	231.93	17.63	-35.4	-37.0	24.7	0.00e+00	0	53	0	130023424	41	4559
2026-01-06 04:31:32.68	231.60	17.73	-35.2	-36.8	24.9	0.00e+00	0	53	0	131072000	41	4473
2026-01-06 04:31:33.69	231.27	17.83	-35.2	-36.8	24.9	0.00e+00	0	53	0	132120576	41	4479
2026-01-06 04:31:34.70	230.93	17.94	-35.1	-36.7	25.0	0.00e+00	0	53	0	133169152	41	4409
2026-01-06 04:31:35.71	230.59	18.04	-34.9	-36.5	25.2	0.00e+00	0	54	0	134742016	41	4310
2026-01-06 04:31:36.71	230.25	18.14	-34.8	-36.3	25.4	0.00e+00	0	54	0	135790592	41	4234
2026-01-06 04:31:37.72	229.91	18.24	-34.6	-36.1	25.5	0.00e+00	0	53	0	136839168	41	4135
2026-01-06 04:31:38.73	229.56	18.33	-34.6	-36.1	25.6	0.00e+00	0	54	0	137887744	41	4129
2026-01-06 04:31:39.74	229.22	18.43	-34.7	-36.2	25.5	0.00e+00	0	54	0	138936320	41	4158
2026-01-06 04:31:40.75	228.86	18.53	-34.7	-36.2	25.4	0.00e+00	0	53	0	139984896	41	4157
2026-01-06 04:31:41.76	228.51	18.63	-34.7	-36.2	25.4	0.00e+00	0	53	0	141557760	41	4186
2026-01-06 04:31:42.77	228.15	18.73	-34.7	-36.2	25.5	0.00e+00	0	53	0	142606336	41	4172
2026-01-06 04:31:43.78	227.79	18.83	-34.7	-36.2	25.5	0.00e+00	0	53	0	143654912	41	4168
2026-01-06 04:31:44.79	227.43	18.92	-34.6	-36.2	25.5	0.00e+00	0	54	0	144703488	41	4147
2026-01-06 04:31:45.80	227.06	19.02	-34.8	-36.3	25.4	0.00e+00	0	54	0	145752064	41	4218
2026-01-06 04:31:46.81	226.69	19.12	-34.9	-36.4	25.3	0.00e+00	0	54	0	146800640	41	4287
2026-01-06 04:31:47.82	226.32	19.21	-35.0	-36.5	25.2	0.00e+00	0	54	0	147849216	41	4338
2026-01-06 04:31:48.83	225.95	19.31	-35.0	-36.6	25.1	0.00e+00	0	54	0	149422080	41	4346
2026-01-06 04:31:49.83	225.57	19.40	-35.1	-36.6	25.0	0.00e+00	0	53	0	150470656	41	4391
2026-01-06 04:31:50.85	225.19	19.50	-35.0	-36.6	25.1	0.00e+00	0	54	0	151519232	41	4359
2026-01-06 04:31:51.86	224.80	19.59	-34.7	-36.3	25.4	0.00e+00	0	54	0	152567808	41	4206
2026-01-06 04:31:52.87	224.42	19.68	-34.5	-36.0	25.7	0.00e+00	0	53	0	153616384	41	4085
2026-01-06 04:31:53.87	224.03	19.77	-34.4	-35.9	25.8	0.00e+00	0	54	0	154664960	40	4272
2026-01-06 04:31:54.88	223.64	19.86	-34.4	-35.9	25.8	0.00e+00	0	54	0	156237824	40	4279
2026-01-06 04:31:55.89	223.25	19.95	-34.6	-36.1	25.7	0.00e+00	0	53	0	157286400	40	4351
2026-01-06 04:31:56.90	222.85	20.04	-34.6	-36.1	25.7	0.00e+00	0	54	0	158334976	40	4344
2026-01-06 04:31:57.91	222.45	20.13	-34.4	-35.9	25.7	0.00e+00	0	54	0	159383552	40	4284
2026-01-06 04:31:58.92	222.05	20.22	-34.4	-35.9	25.8	0.00e+00	0	54	0	160432128	40	4260
2026-01-06 04:31:59.93	221.64	20.31	-34.4	-35.9	25.8	0.00e+00	0	54	0	162004992	40	4248
2026-01-06 04:32:00.94	221.23	20.39	-34.3	-35.7	25.9	0.00e+00	0	54	0	163053568	40	4189
2026-01-06 04:32:01.95	220.82	20.48	-34.3	-35.8	25.9	0.00e+00	0	54	0	164102144	40	4197
2026-01-06 04:32:02.96	220.41	20.56	-34.4	-35.9	25.9	0.00e+00	0	54	0	165150720	40	4258
2026-01-06 04:32:03.97	219.99	20.65	-34.6	-36.1	25.7	0.00e+00	0	54	0	166199296	40	4353
2026-01-06 04:32:04.98	219.57	20.73	-34.7	-36.2	25.6	0.00e+00	0	54	0	167247872	40	4398
2026-01-06 04:32:05.99	219.15	20.81	-34.7	-36.3	25.5	0.00e+00	0	54	0	168820736	40	4448
2026-01-06 04:32:07.00	218.73	20.89	-34.4	-35.9	25.9	0.00e+00	0	54	0	169869312	40	4264
2026-01-06 04:32:08.01	218.30	20.97	-34.3	-35.8	25.9	0.00e+00	0	54	0	170917888	40	4215
2026-01-06 04:32:09.02	217.87	21.05	-34.5	-36.0	25.8	0.00e+00	0	54	0	171966464	40	4296
2026-01-06 04:32:10.03	217.44	21.12	-34.5	-36.0	25.8	0.00e+00	0	54	0	173015040	40	4294
2026-01-06 04:32:11.04	217.00	21.20	-34.4	-35.9	25.9	0.00e+00	0	54	0	174063616	40	4253
2026-01-06 04:32:12.05	216.56	21.28	-34.2	-35.7	26.0	0.00e+00	0	54	0	175636480	40	4162
2026-01-06 04:32:13.06	216.12	21.35	-34.6	-36.1	25.7	0.00e+00	0	54	0	176685056	40	4349
2026-01-06 04:32:14.07	215.68	21.42	-34.6	-36.1	25.7	0.00e+00	0	54	0	177733632	40	4385
2026-01-06 04:32:15.08	215.24	21.49	-34.4	-35.9	25.8	0.00e+00	0	54	0	178782208	40	4281
2026-01-06 04:32:16.09	214.79	21.56	-34.2	-35.7	26.1	0.00e+00	0	54	0	179830784	40	4158
2026-01-06 04:32:17.10	214.34	21.63	-34.4	-35.9	25.9	0.00e+00	0	54	0	180879360	40	4250
2026-01-06 04:32:18.11	213.89	21.70	-34.2	-35.6	26.1	0.00e+00	0	54	0	182452224	40	4142
2026-01-06 04:32:19.12	213.43	21.76	-34.2	-35.6	26.1	0.00e+00	0	54	0	183500800	40	4140
2026-01-06 04:32:20.13	212.97	21.83	-34.2	-35.6	26.1	0.00e+00	0	54	0	184549376	40	4133
2026-01-06 04:32:21.14	212.52	21.89	-34.3	-35.8	26.0	0.00e+00	0	54	0	185597952	40	4205
2026-01-06 04:32:22.15	212.05	21.95	-34.0	-35.4	26.4	0.00e+00	0	54	0	186646528	39	4281
2026-01-06 04:32:23.16	211.59	22.01	-33.8	-35.2	26.5	0.00e+00	0	54	0	187695104	39	4190
2026-01-06 04:32:24.17	211.13	22.07	-34.1	-35.5	26.3	0.00e+00	0	54	0	188743680	39	4320
2026-01-06 04:32:25.18	210.66	22.12	-34.2	-35.7	26.1	0.00e+00	0	54	0	190316544	39	4412
2026-01-06 04:32:26.19	210.19	22.18	-34.3	-35.8	25.9	0.00e+00	0	54	0	191365120	39	4473
2026-01-06 04:32:27.20	209.72	22.23	-34.4	-35.8	25.9	0.00e+00	0	54	0	192413696	39	4486
2026-01-06 04:32:28.21	209.24	22.28	-34.7	-36.3	25.5	0.00e+00	0	54	0	193462272	40	4446
2026-01-06 04:32:29.21	208.77	22.33	-34.4	-35.9	25.9	0.00e+00	0	54	0	194510848	40	4253
2026-01-06 04:32:30.23	208.29	22.38	-34.2	-35.7	26.0	0.00e+00	0	54	0	195559424	40	4176
2026-01-06 04:32:31.23	207.82	22.43	-34.3	-35.8	25.9	0.00e+00	0	54	0	197132288	40	4228
2026-01-06 04:32:32.24	207.34	22.47	-34.4	-35.9	25.8	0.00e+00	0	54	0	198180864	40	4250
2026-01-06 04:32:33.25	206.86	22.51	-34.4	-35.9	25.9	0.00e+00	0	54	0	199229440	40	4273
2026-01-06 04:32:34.26	206.37	22.56	-34.4	-35.9	25.9	0.00e+00	0	54	0	200278016	40	4251
2026-01-06 04:32:35.27	205.89	22.59	-34.4	-35.8	25.9	0.00e+00	0	54	0	201326592	40	4240
2026-01-06 04:32:36.28	205.40	22.63	-34.3	-35.8	25.9	0.00e+00	0	54	0	202899456	40	4235
2026-01-06 04:32:37.29	204.91	22.67	-34.3	-35.8	25.9	0.00e+00	0	54	0	203948032	40	4236
2026-01-06 04:32:38.30	204.43	22.70	-34.5	-36.0	25.8	0.00e+00	0	54	0	204996608	40	4298
2026-01-06 04:32:39.31	203.94	22.73	-34.4	-35.9	25.9	0.00e+00	0	54	0	206045184	40	4254
2026-01-06 04:32:40.32	203.44	22.76	-34.5	-36.1	25.7	0.00e+00	0	54	0	207093760	40	4341
2026-01-06 04:32:41.33	202.95	22.79	-34.5	-36.1	25.7	0.00e+00	0	54	0	208142336	40	4344
2026-01-06 04:32:42.34	202.46	22.82	-34.3	-35.8	26.0	0.00e+00	0	54	0	209715200	40	4203
2026-01-06 04:32:43.35	201.96	22.84	-34.1	-35.5	26.2	0.00e+00	0	54	0	210763776	40	4082
2026-01-06 04:32:44.36	201.47	22.86	-34.1	-35.5	26.2	0.00e+00	0	54	0	211812352	40	4079
2026-01-06 04:32:45.37	200.97	22.88	-33.7	-35.1	26.7	0.00e+00	0	54	0	212860928	39	4114
2026-01-06 04:32:46.38	200.48	22.90	-33.6	-35.0	26.8	0.00e+00	0	54	0	213909504	39	4069
2026-01-06 04:32:47.39	199.98	22.92	-33.7	-35.1	26.6	0.00e+00	0	54	0	214958080	39	4142
2026-01-06 04:32:48.40	199.48	22.93	-33.7	-35.1	26.7	0.00e+00	0	54	0	216530944	39	4119
2026-01-06 04:32:49.41	198.98	22.95	-33.5	-34.9	26.8	0.00e+00	0	54	0	217579520	38	4243
2026-01-06 04:32:50.42	198.48	22.96	-33.6	-35.0	26.7	0.00e+00	0	54	0	218628096	38	4305
2026-01-06 04:32:51.43	197.99	22.96	-33.6	-35.1	26.6	0.00e+00	0	54	0	219676672	38	4344
2026-01-06 04:32:52.44	197.49	22.97	-33.4	-34.8	26.9	0.00e+00	0	54	0	220725248	38	4212
2026-01-06 04:32:53.45	196.99	22.98	-33.5	-34.9	26.9	0.00e+00	0	54	0	221773824	38	4249
2026-01-06 04:32:54.46	196.49	22.98	-33.9	-35.3	26.5	0.00e+00	0	54	0	223346688	38	4474
2026-01-06 04:32:55.47	195.99	22.98	-34.0	-35.4	26.4	0.00e+00	0	54	0	224395264	38	4520
2026-01-06 04:32:56.47	195.49	22.98	-33.9	-35.3	26.4	0.00e+00	0	54	0	225443840	38	4486
2026-01-06 04:32:57.49	194.99	22.97	-34.0	-35.4	26.3	0.00e+00	0	54	0	226492416	38	4522
2026-01-06 04:32:58.50	194.49	22.97	-33.9	-35.3	26.4	0.00e+00	0	54	0	227540992	38	4487
2026-01-06 04:32:59.51	193.99	22.96	-33.8	-35.2	26.5	0.00e+00	0	54	0	228589568	38	4418
2026-01-06 04:33:00.52	193.49	22.95	-33.9	-35.4	26.4	0.00e+00	0	54	0	229638144	38	4496
2026-01-06 04:33:01.53	192.99	22.94	-34.1	-35.5	26.3	0.00e+00	0	54	0	231211008	38	4568
2026-01-06 04:33:02.54	192.49	22.92	-33.9	-35.3	26.4	0.00e+00	0	54	0	232259584	38	4485
2026-01-06 04:33:03.55	192.00	22.91	-33.8	-35.2	26.5	0.00e+00	0	54	0	233308160	38	4414
2026-01-06 04:33:04.56	191.50	22.89	-33.7	-35.1	26.6	0.00e+00	0	54	0	234356736	38	4380
2026-01-06 04:33:05.57	191.00	22.87	-33.5	-34.9	26.8	0.00e+00	0	54	0	235405312	38	4267
2026-01-06 04:33:06.58	190.51	22.85	-33.7	-35.1	26.6	0.00e+00	0	54	0	236453888	38	4352
2026-01-06 04:33:07.59	190.01	22.82	-33.7	-35.1	26.6	0.00e+00	0	54	0	238026752	38	4376
2026-01-06 04:33:08.60	189.52	22.80	-33.8	-35.2	26.5	0.00e+00	0	54	0	239075328	38	4415
2026-01-06 04:33:09.61	189.03	22.77	-33.8	-35.3	26.5	0.00e+00	0	54	0	240123904	38	4443
2026-01-06 04:33:10.62	188.53	22.74	-33.9	-35.4	26.4	0.00e+00	0	54	0	241172480	38	4499
2026-01-06 04:33:11.63	188.04	22.71	-34.0	-35.4	26.3	0.00e+00	0	54	0	242221056	38	4521
2026-01-06 04:33:12.64	187.56	22.68	-34.0	-35.4	26.3	0.00e+00	0	55	0	243793920	38	4519
2026-01-06 04:33:13.65	187.07	22.64	-34.0	-35.4	26.3	0.00e+00	0	54	0	244842496	38	4544
2026-01-06 04:33:14.65	186.59	22.60	-34.0	-35.5	26.2	0.00e+00	0	54	0	245891072	38	4563
2026-01-06 04:33:15.66	186.10	22.56	-34.0	-35.5	26.3	0.00e+00	0	54	0	246939648	38	4550
2026-01-06 04:33:16.67	185.62	22.52	-33.9	-35.3	26.3	0.00e+00	0	55	0	247988224	38	4467
2026-01-06 04:33:17.68	185.13	22.48	-34.1	-35.5	26.1	0.00e+00	0	54	0	249036800	38	4592
2026-01-06 04:33:18.69	184.65	22.44	-34.1	-35.6	26.1	0.00e+00	0	54	0	250609664	38	4630
2026-01-06 04:33:19.70	184.17	22.39	-34.1	-35.6	26.1	0.00e+00	0	55	0	251658240	38	4615
2026-01-06 04:33:20.71	183.70	22.34	-34.1	-35.6	26.1	0.00e+00	0	55	0	252706816	38	4613
2026-01-06 04:33:21.72	183.22	22.29	-34.0	-35.5	26.2	0.00e+00	0	55	0	253755392	38	4566
2026-01-06 04:33:22.73	182.75	22.24	-34.1	-35.6	26.1	0.00e+00	0	55	0	254803968	38	4631
2026-01-06 04:33:23.74	182.28	22.19	-34.1	-35.5	26.2	0.00e+00	0	55	0	255852544	38	4582
2026-01-06 04:33:24.75	181.81	22.14	-34.1	-35.6	26.1	0.00e+00	0	55	0	257425408	38	4613
2026-01-06 04:33:25.76	181.34	22.08	-34.2	-35.7	26.0	0.00e+00	0	55	0	258473984	38	4660
2026-01-06 04:33:26.77	180.87	22.02	-34.0	-35.4	26.2	0.00e+00	0	55	0	259522560	39	4288
2026-01-06 04:33:27.78	180.41	21.96	-34.0	-35.4	26.2	0.00e+00	0	55	0	260571136	39	4273
2026-01-06 04:33:28.79	179.95	21.90	-33.8	-35.2	26.5	0.00e+00	0	55	0	261619712	39	4169
2026-01-06 04:33:29.80	179.49	21.84	-33.8	-35.3	26.4	0.00e+00	0	54	0	262668288	39	4210
2026-01-06 04:33:30.81	179.03	21.78	-33.8	-35.2	26.4	0.00e+00	0	54	0	263716864	39	4175
2026-01-06 04:33:31.82	178.57	21.71	-33.9	-35.4	26.4	0.00e+00	0	55	0	265289728	39	4243
2026-01-06 04:33:32.83	178.12	21.65	-33.9	-35.3	26.4	0.00e+00	0	55	0	266338304	39	4216
2026-01-06 04:33:33.84	177.67	21.58	-33.8	-35.2	26.4	0.00e+00	0	55	0	267386880	39	4181
2026-01-06 04:33:34.85	177.22	21.51	-33.9	-35.3	26.4	0.00e+00	0	55	0	268435456	39	4240
2026-01-06 04:33:35.86	176.78	21.44	-33.9	-35.4	26.3	0.00e+00	0	54	0	269484032	39	4246
2026-01-06 04:33:36.87	176.33	21.37	-34.1	-35.5	26.3	0.00e+00	0	55	0	270532608	39	4322
2026-01-06 04:33:37.87	175.90	21.29	-34.1	-35.5	26.2	0.00e+00	0	55	0	272105472	39	4334
2026-01-06 04:33:38.88	175.46	21.22	-34.3	-35.8	26.0	0.00e+00	0	54	0	273154048	39	4443
2026-01-06 04:33:39.89	175.02	21.14	-34.6	-36.1	25.8	0.00e+00	0	54	0	274202624	39	4614
2026-01-06 04:33:40.90	174.59	21.07	-34.5	-36.0	25.8	0.00e+00	0	55	0	275251200	39	4574
2026-01-06 04:33:41.91	174.16	20.99	-34.6	-36.1	25.7	0.00e+00	0	55	0	276299776	39	4631
2026-01-06 04:33:42.92	173.73	20.91	-34.6	-36.1	25.8	0.00e+00	0	55	0	277348352	39	4612
2026-01-06 04:33:43.93	173.30	20.83	-34.6	-36.1	25.7	0.00e+00	0	55	0	278921216	39	4623
2026-01-06 04:33:44.94	172.88	20.75	-34.5	-36.0	25.8	0.00e+00	0	55	0	279969792	39	4566
2026-01-06 04:33:45.95	172.46	20.67	-34.5	-36.1	25.8	0.00e+00	0	55	0	281018368	39	4610
2026-01-06 04:33:46.96	172.04	20.58	-34.7	-36.3	25.6	0.00e+00	0	55	0	282066944	40	4448
2026-01-06 04:33:47.97	171.63	20.50	-35.1	-36.7	25.1	0.00e+00	0	55	0	283115520	40	4690
2026-01-06 04:33:48.98	171.22	20.41	-35.0	-36.6	25.2	0.00e+00	0	55	0	284164096	40	4629
2026-01-06 04:33:49.99	170.81	20.33	-34.6	-36.2	25.6	0.00e+00	0	55	0	285736960	40	4400
2026-01-06 04:33:51.00	170.40	20.24	-34.4	-35.9	25.8	0.00e+00	0	55	0	286785536	40	4282
2026-01-06 04:33:52.01	170.00	20.15	-34.4	-35.9	25.9	0.00e+00	0	55	0	287834112	40	4264
2026-01-06 04:33:53.02	169.60	20.06	-34.5	-36.1	25.8	0.00e+00	0	55	0	288882688	40	4344
2026-01-06 04:33:54.03	169.20	19.98	-34.5	-36.1	25.8	0.00e+00	0	55	0	289931264	40	4342
2026-01-06 04:33:55.03	168.81	19.89	-34.6	-36.1	25.7	0.00e+00	0	55	0	291504128	40	4385
2026-01-06 04:33:56.04	168.41	19.79	-34.7	-36.2	25.7	0.00e+00	0	55	0	292552704	40	4420
2026-01-06 04:33:57.05	168.02	19.70	-34.6	-36.1	25.7	0.00e+00	0	55	0	293601280	40	4360
2026-01-06 04:33:58.06	167.64	19.61	-34.6	-36.1	25.8	0.00e+00	0	55	0	294649856	40	4351
2026-01-06 04:33:59.07	167.25	19.52	-34.8	-36.4	25.4	0.00e+00	0	55	0	295698432	40	4522
2026-01-06 04:34:00.08	166.87	19.42	-35.1	-36.7	25.1	0.00e+00	0	55	0	296747008	40	4705
2026-01-06 04:34:01.09	166.49	19.33	-35.2	-36.8	25.0	0.00e+00	0	55	0	298319872	41	4483
2026-01-06 04:34:02.10	166.12	19.23	-35.2	-36.9	25.0	0.00e+00	0	55	0	299368448	41	4500
2026-01-06 04:34:03.11	165.75	19.14	-35.1	-36.7	25.1	0.00e+00	0	55	0	300417024	41	4428
2026-01-06 04:34:04.12	165.38	19.04	-35.2	-36.8	25.1	0.00e+00	0	55	0	301465600	41	4448
2026-01-06 04:34:05.14	165.01	18.95	-35.3	-36.9	24.9	0.00e+00	0	55	0	302514176	41	4530
2026-01-06 04:34:06.14	164.64	18.85	-35.2	-36.8	25.0	0.00e+00	0	55	0	303562752	41	4489
2026-01-06 04:34:07.16	164.28	18.75	-35.2	-36.8	25.0	0.00e+00	0	55	0	304611328	41	4485
2026-01-06 04:34:08.16	163.92	18.65	-35.3	-36.9	25.0	0.00e+00	0	55	0	306184192	41	4496
2026-01-06 04:34:09.17	163.57	18.56	-35.3	-36.9	24.9	0.00e+00	0	55	0	307232768	41	4507
2026-01-06 04:34:10.18	163.22	18.46	-35.3	-36.9	24.9	0.00e+00	0	55	0	308281344	41	4531
2026-01-06 04:34:11.19	162.87	18.36	-35.4	-37.0	24.8	0.00e+00	0	55	0	309329920	41	4598
2026-01-06 04:34:12.20	162.52	18.26	-35.4	-37.1	24.7	0.00e+00	0	55	0	310378496	41	4605
2026-01-06 04:34:13.21	162.17	18.16	-35.4	-37.0	24.8	0.00e+00	0	55	0	311427072	41	4559
2026-01-06 04:34:14.22	161.83	18.06	-35.2	-36.8	25.0	0.00e+00	0	55	0	312999936	41	4474
2026-01-06 04:34:15.23	161.49	17.96	-35.1	-36.7	25.0	0.00e+00	0	55	0	314048512	41	4408
2026-01-06 04:34:16.24	161.16	17.86	-34.9	-36.5	25.2	0.00e+00	0	55	0	315097088	41	4308
2026-01-06 04:34:17.25	160.82	17.76	-35.0	-36.6	25.1	0.00e+00	0	55	0	316145664	41	4360
2026-01-06 04:34:18.26	160.49	17.65	-35.2	-36.8	24.9	0.00e+00	0	55	0	317194240	41	4486
2026-01-06 04:34:19.27	160.17	17.55	-35.3	-36.9	24.7	0.00e+00	0	55	0	318242816	41	4518
2026-01-06 04:34:20.28	159.84	17.45	-35.3	-37.0	24.7	0.00e+00	0	55	0	319815680	41	4546
2026-01-06 04:34:21.29	159.52	17.35	-35.4	-37.0	24.7	0.00e+00	0	55	0	320864256	41	4587
2026-01-06 04:34:22.30	159.20	17.25	-35.4	-37.0	24.7	0.00e+00	0	55	0	321912832	41	4583
2026-01-06 04:34:23.31	158.88	17.15	-35.7	-37.3	24.4	0.00e+00	0	55	0	322961408	41	4756
2026-01-06 04:34:24.31	158.57	17.04	-36.0	-37.7	24.1	0.00e+00	0	55	0	324009984	42	4660
2026-01-06 04:34:25.32	158.26	16.94	-36.4	-38.2	23.7	0.00e+00	0	55	0	325058560	43	4658
2026-01-06 04:34:26.33	157.95	16.84	-36.3	-38.1	23.6	0.00e+00	0	55	0	326631424	43	4623
2026-01-06 04:34:27.35	157.64	16.74	-35.9	-37.6	24.1	0.00e+00	0	55	0	327680000	43	4362
2026-01-06 04:34:28.35	157.34	16.63	-35.7	-37.4	24.3	0.00e+00	0	55	0	328728576	43	4266
2026-01-06 04:34:29.36	157.04	16.53	-35.5	-37.1	24.6	0.00e+00	0	55	0	329777152	42	4373
2026-01-06 04:34:30.37	156.74	16.43	-35.5	-37.2	24.6	0.00e+00	0	55	0	330825728	42	4405
2026-01-06 04:34:31.38	156.44	16.33	-35.4	-37.0	24.6	0.00e+00	0	55	0	332398592	42	4317
2026-01-06 04:34:32.39	156.15	16.22	-35.4	-37.0	24.6	0.00e+00	0	55	0	333447168	42	4337
2026-01-06 04:34:33.40	155.86	16.12	-35.6	-37.2	24.5	0.00e+00	0	55	0	334495744	42	4417
2026-01-06 04:34:34.41	155.57	16.02	-35.6	-37.3	24.4	0.00e+00	0	55	0	335544320	42	4455
2026-01-06 04:34:35.42	155.28	15.91	-35.8	-37.5	24.1	0.00e+00	0	55	0	336592896	42	4590
2026-01-06 04:34:36.43	155.00	15.81	-35.8	-37.6	24.1	0.00e+00	0	55	0	337641472	42	4600
2026-01-06 04:34:37.44	154.72	15.71	-36.1	-37.9	23.7	0.00e+00	0	55	0	339214336	42	4791
2026-01-06 04:34:38.45	154.44	15.61	-36.3	-38.0	23.6	0.00e+00	0	55	0	340262912	43	4592
2026-01-06 04:34:39.46	154.16	15.50	-36.2	-38.0	23.6	0.00e+00	0	55	0	341311488	43	4581
2026-01-06 04:34:40.47	153.89	15.40	-36.1	-37.9	23.7	0.00e+00	0	55	0	342360064	43	4525
2026-01-06 04:34:41.48	153.61	15.30	-36.2	-37.9	23.7	0.00e+00	0	55	0	343408640	43	4544
2026-01-06 04:34:42.49	153.34	15.20	-36.1	-37.9	23.6	0.00e+00	0	55	0	344457216	43	4515
2026-01-06 04:34:43.50	153.08	15.09	-36.1	-37.8	23.7	0.00e+00	0	55	0	345505792	43	4476
2026-01-06 04:34:44.51	152.81	14.99	-36.3	-38.1	23.5	0.00e+00	0	55	0	347078656	43	4602
2026-01-06 04:34:45.51	152.55	14.89	-36.3	-38.1	23.5	0.00e+00	0	55	0	348127232	43	4623
2026-01-06 04:34:46.52	152.29	14.79	-36.7	-38.5	23.0	0.00e+00	0	55	0	349175808	43	4863
2026-01-06 04:34:47.53	152.03	14.69	-36.9	-38.8	22.9	0.00e+00	0	55	0	350224384	44	4712
2026-01-06 04:34:48.54	151.78	14.58	-36.8	-38.6	23.1	0.00e+00	0	55	0	351272960	44	4644
2026-01-06 04:34:49.55	151.53	14.48	-36.7	-38.5	23.2	0.00e+00	0	55	0	352321536	44	4573
2026-01-06 04:34:50.56	151.27	14.38	-36.5	-38.4	23.3	0.00e+00	0	55	0	353894400	44	4513
2026-01-06 04:34:51.57	151.03	14.28	-36.4	-38.2	23.4	0.00e+00	0	55	0	354942976	44	4432
2026-01-06 04:34:52.58	150.78	14.18	-36.4	-38.3	23.4	0.00e+00	0	55	0	355991552	44	4449
2026-01-06 04:34:53.59	150.53	14.08	-36.4	-38.2	23.4	0.00e+00	0	55	0	357040128	44	4439
2026-01-06 04:34:54.60	150.29	13.98	-36.6	-38.5	23.2	0.00e+00	0	55	0	358088704	44	4554
2026-01-06 04:34:55.61	150.05	13.88	-36.7	-38.6	23.1	0.00e+00	0	55	0	359137280	44	4614
2026-01-06 04:34:56.62	149.81	13.78	-36.9	-38.8	22.9	0.00e+00	0	55	0	360710144	44	4707
2026-01-06 04:34:57.63	149.58	13.68	-37.1	-39.1	22.6	0.00e+00	0	55	0	361758720	44	4892
2026-01-06 04:34:58.64	149.34	13.58	-37.2	-39.2	22.4	0.00e+00	0	55	0	362807296	45	4691
2026-01-06 04:34:59.65	149.11	13.48	-37.2	-39.2	22.4	0.00e+00	0	55	0	363855872	45	4691
2026-01-06 04:35:00.66	148.88	13.38	-37.1	-39.1	22.5	0.00e+00	0	55	0	364904448	45	4617
2026-01-06 04:35:01.67	148.65	13.28	-36.9	-38.9	22.7	0.00e+00	0	55	0	365953024	45	4503
2026-01-06 04:35:02.68	148.42	13.18	-36.8	-38.7	22.9	0.00e+00	0	55	0	367525888	45	4424
2026-01-06 04:35:03.68	148.20	13.08	-37.0	-38.9	22.7	0.00e+00	0	55	0	368574464	45	4508
2026-01-06 04:35:04.70	147.98	12.98	-37.2	-39.2	22.4	0.00e+00	0	55	0	369623040	45	4680
2026-01-06 04:35:05.71	147.76	12.88	-37.4	-39.4	22.2	0.00e+00	0	55	0	370671616	45	4810
2026-01-06 04:35:06.72	147.54	12.79	-37.7	-39.8	21.8	0.00e+00	0	55	0	371720192	45	4988
2026-01-06 04:35:07.72	147.33	12.69	-37.7	-39.8	21.8	0.00e+00	0	55	0	372768768	46	4751
2026-01-06 04:35:08.74	147.11	12.59	-37.6	-39.7	21.9	0.00e+00	0	55	0	374341632	46	4690
2026-01-06 04:35:09.75	146.90	12.49	-37.5	-39.5	22.0	0.00e+00	0	55	0	375390208	46	4591
2026-01-06 04:35:10.76	146.68	12.40	-37.4	-39.4	22.2	0.00e+00	0	55	0	376438784	46	4504
2026-01-06 04:35:11.76	146.48	12.30	-37.2	-39.2	22.3	0.00e+00	0	55	0	377487360	46	4408
2026-01-06 04:35:12.77	146.27	12.20	-37.0	-39.0	22.5	0.00e+00	0	55	0	378535936	46	4317
2026-01-06 04:35:13.78	146.06	12.11	-37.1	-39.0	22.5	0.00e+00	0	55	0	380108800	46	4329
2026-01-06 04:35:14.79	145.86	12.01	-37.1	-39.1	22.4	0.00e+00	0	55	0	381157376	46	4370
2026-01-06 04:35:15.80	145.66	11.92	-37.3	-39.3	22.2	0.00e+00	0	55	0	382205952	46	4461
2026-01-06 04:35:16.81	145.46	11.82	-37.4	-39.5	21.9	0.00e+00	0	55	0	383254528	46	4583
2026-01-06 04:35:17.82	145.26	11.73	-37.6	-39.7	21.8	0.00e+00	0	55	0	384303104	46	4680
2026-01-06 04:35:18.83	145.06	11.63	-37.7	-39.8	21.6	0.00e+00	0	55	0	385351680	46	4756
2026-01-06 04:35:19.84	144.87	11.54	-37.8	-40.0	21.5	0.00e+00	0	55	0	386400256	46	4844
2026-01-06 04:35:20.85	144.67	11.44	-37.8	-40.0	21.5	0.00e+00	0	55	0	387973120	46	4822
2026-01-06 04:35:21.86	144.48	11.35	-37.7	-39.9	21.5	0.00e+00	0	55	0	389021696	46	4792
2026-01-06 04:35:22.87	144.29	11.25	-37.8	-40.0	21.4	0.00e+00	0	55	0	390070272	46	4836
2026-01-06 04:35:23.88	144.10	11.16	-37.8	-40.0	21.4	0.00e+00	0	55	0	391118848	46	4868
2026-01-06 04:35:24.89	143.91	11.07	-37.8	-40.0	21.4	0.00e+00	0	55	0	392167424	46	4867
2026-01-06 04:35:25.90	143.73	10.98	-37.8	-40.1	21.3	0.00e+00	0	55	0	393216000	46	4873
2026-01-06 04:35:26.91	143.54	10.88	-37.9	-40.1	21.2	0.00e+00	0	55	0	394788864	46	4921
2026-01-06 04:35:27.92	143.36	10.79	-37.9	-40.2	21.2	0.00e+00	0	55	0	395837440	46	4935
2026-01-06 04:35:28.93	143.18	10.70	-37.9	-40.1	21.2	0.00e+00	0	55	0	396886016	46	4899
2026-01-06 04:35:29.93	143.00	10.61	-37.9	-40.2	21.1	0.00e+00	0	55	0	397934592	46	4927
2026-01-06 04:35:30.94	142.83	10.52	-37.9	-40.2	21.1	0.00e+00	0	55	0	398983168	46	4947
2026-01-06 04:35:31.95	142.65	10.43	-37.9	-40.2	21.0	0.00e+00	0	55	0	400031744	46	4950
2026-01-06 04:35:32.97	142.47	10.33	-38.1	-40.4	20.8	0.00e+00	0	55	0	401604608	46	5081
2026-01-06 04:35:33.97	142.30	10.24	-38.1	-40.4	20.8	0.00e+00	0	55	0	402653184	46	5084
2026-01-06 04:35:34.98	142.13	10.15	-38.0	-40.4	20.8	0.00e+00	0	55	0	403701760	46	5064
2026-01-06 04:35:35.99	141.96	10.06	-38.1	-40.5	20.7	0.00e+00	0	55	0	404750336	46	5107
2026-01-06 04:35:37.01	141.79	9.97	-38.0	-40.4	20.8	0.00e+00	0	55	0	405798912	46	5043
2026-01-06 04:35:38.01	141.62	9.89	-38.1	-40.5	20.6	0.00e+00	0	55	0	406847488	46	5128
2026-01-06 04:35:39.02	141.45	9.80	-38.1	-40.5	20.6	0.00e+00	0	55	0	408420352	46	5131
2026-01-06 04:35:40.03	141.29	9.71	-38.4	-40.9	20.1	0.00e+00	0	55	0	409468928	47	5075
2026-01-06 04:35:41.04	141.12	9.62	-38.5	-41.1	19.9	0.00e+00	0	55	0	410517504	47	5178
2026-01-06 04:35:42.05	140.96	9.53	-38.6	-41.3	19.6	0.00e+00	0	55	0	411566080	47	5332
2026-01-06 04:35:43.06	140.80	9.44	-38.7	-41.4	19.5	0.00e+00	0	55	0	412614656	48	5084
2026-01-06 04:35:44.07	140.64	9.36	-38.8	-41.5	19.4	0.00e+00	0	55	0	413663232	48	5122
2026-01-06 04:35:45.08	140.48	9.27	-38.5	-41.0	19.9	0.00e+00	0	55	0	415236096	48	4866
2026-01-06 04:35:46.09	140.33	9.18	-38.2	-40.6	20.2	0.00e+00	0	55	0	416284672	48	4644
2026-01-06 04:35:47.10	140.17	9.10	-38.4	-41.0	19.8	0.00e+00	0	55	0	417333248	48	4836
2026-01-06 04:35:48.11	140.01	9.01	-37.6	-40.0	20.7	0.00e+00	0	55	0	418381824	47	4581
2026-01-06 04:35:49.12	139.86	8.92	-38.6	-41.4	19.2	0.00e+00	0	55	0	419430400	47	5362
2026-01-06 04:35:50.13	139.71	8.84	-37.5	-39.9	20.4	0.00e+00	0	55	0	420478976	47	4528
2026-01-06 04:35:51.14	139.56	8.75	-37.7	-40.3	19.9	0.00e+00	0	55	0	422051840	46	5015
2026-01-06 04:35:52.15	139.41	8.67	-39.3	-42.8	17.4	0.00e+00	0	55	0	423100416	49	5621
2026-01-06 04:35:53.15	139.26	8.58	-40.7	-46.0	13.8	0.00e+00	0	55	0	424148992	52	6867
2026-01-06 04:35:54.17	139.11	8.50	-41.6	-49.6	9.9	4.86e-04	0	55	0	425197568	53	9808
2026-01-06 04:35:55.17	138.97	8.41	-42.0	-53.0	6.4	4.86e-04	0	55	0	426246144	54	13712
2026-01-06 04:35:56.18	138.82	8.33	-42.2	-56.0	4.5	1.36e-01	0	55	0	426770432	54	19311
2026-01-06 04:35:57.19	138.68	8.25	-42.7	-58.4	3.9	7.89e-01	0	55	104	426770432	53	26940
2026-01-06 04:35:58.20	138.54	8.16	-42.2	-59.4	3.8	7.89e-01	0	55	104	426770432	54	28417
2026-01-06 04:35:59.21	138.39	8.08	-42.2	-60.0	3.8	8.47e-01	0	55	104	426770432	54	30437
2026-01-06 04:36:00.22	138.25	8.00	-42.2	-60.1	3.8	8.45e-01	0	55	104	426770432	54	31020
2026-01-06 04:36:01.23	138.11	7.91	-40.8	-60.5	3.9	8.45e-01	0	55	104	426770432	52	36379
2026-01-06 04:36:02.24	137.98	7.83	-44.1	-62.8	3.8	8.46e-01	0	55	104	426770432	59	31682
2026-01-06 04:36:03.25	137.84	7.75	-45.0	-63.2	3.8	8.42e-01	0	55	104	426770432	60	31334
2026-01-06 04:36:04.26	137.70	7.67	-45.2	-63.4	3.8	8.47e-01	0	55	104	426770432	60	31986
2026-01-06 04:36:05.27	137.57	7.59	-45.3	-63.5	3.8	8.47e-01	0	55	104	426770432	61	30662
2026-01-06 04:36:06.28	137.43	7.51	-45.4	-63.6	3.8	8.45e-01	0	55	104	426770432	61	30915
2026-01-06 04:36:07.29	137.30	7.42	-45.4	-63.7	3.8	8.46e-01	0	55	104	426770432	61	31400
2026-01-06 04:36:08.30	137.17	7.34	-45.5	-63.8	3.8	8.46e-01	0	55	104	426770432	61	31737
2026-01-06 04:36:09.31	137.04	7.26	-45.6	-63.9	3.8	8.46e-01	0	55	104	426770432	61	31887
2026-01-06 04:36:10.32	136.91	7.18	-45.6	-63.8	3.8	8.46e-01	0	55	104	426770432	61	31810
2026-01-06 04:36:11.34	136.78	7.10	-45.5	-63.8	3.8	8.46e-01	0	55	104	426770432	61	31727
2026-01-06 04:36:12.35	136.65	7.02	-45.4	-63.8	3.8	8.46e-01	0	55	104	426770432	61	31573
2026-01-06 04:36:13.36	136.52	6.94	-45.4	-63.8	3.8	8.45e-01	0	55	104	426770432	61	31538
2026-01-06 04:36:14.37	136.39	6.86	-45.3	-63.7	3.8	8.45e-01	0	55	104	426770432	61	31427
2026-01-06 04:36:15.38	136.27	6.79	-45.3	-63.8	3.8	8.45e-01	0	55	104	426770432	61	31632
2026-01-06 04:36:16.39	136.14	6.71	-45.3	-63.7	3.8	8.45e-01	0	56	104	426770432	61	31313
2026-01-06 04:36:17.40	136.02	6.63	-45.3	-63.7	3.8	8.47e-01	0	55	104	426770432	61	31261
2026-01-06 04:36:18.41	135.90	6.55	-45.3	-63.7	3.8	8.47e-01	0	55	104	426770432	61	31190
2026-01-06 04:36:19.43	135.78	6.47	-45.2	-63.7	3.8	8.46e-01	0	55	104	426770432	61	31273
2026-01-06 04:36:20.44	135.66	6.40	-45.3	-63.7	3.8	8.45e-01	0	55	104	426770432	61	31201
2026-01-06 04:36:21.45	135.54	6.32	-45.2	-63.7	3.8	8.45e-01	0	55	104	426770432	61	31214
2026-01-06 04:36:22.46	135.42	6.24	-45.2	-63.7	3.8	8.46e-01	0	55	104	426770432	61	31220
2026-01-06 04:36:23.47	135.30	6.16	-45.2	-63.7	3.8	8.45e-01	0	55	104	426770432	61	31195
2026-01-06 04:36:24.48	135.18	6.09	-45.2	-63.7	3.8	8.45e-01	0	55	104	426770432	61	31271
2026-01-06 04:36:25.49	135.07	6.01	-45.2	-63.7	3.8	8.46e-01	0	55	104	426770432	61	31214
2026-01-06 04:36:26.50	134.95	5.94	-45.2	-63.7	3.8	8.46e-01	0	55	104	426770432	61	31145
2026-01-06 04:36:27.51	134.84	5.86	-45.2	-63.7	3.8	8.46e-01	0	55	104	426770432	61	31239
2026-01-06 04:36:28.52	134.72	5.79	-45.2	-63.7	3.8	8.46e-01	0	55	104	426770432	61	31144
2026-01-06 04:36:29.54	134.61	5.71	-45.2	-63.7	3.8	8.45e-01	0	55	104	426770432	61	31213
2026-01-06 04:36:30.55	134.50	5.63	-45.2	-63.7	3.8	8.46e-01	0	55	104	426770432	61	31127
2026-01-06 04:36:31.56	134.39	5.56	-45.2	-63.7	3.8	8.46e-01	0	55	104	426770432	61	31107
2026-01-06 04:36:32.57	134.28	5.49	-45.2	-63.7	3.8	8.45e-01	0	55	104	426770432	61	31152
2026-01-06 04:36:33.58	134.17	5.41	-45.2	-63.6	3.8	8.46e-01	0	55	104	426770432	61	31085
2026-01-06 04:36:34.59	134.06	5.34	-45.2	-63.7	3.8	8.46e-01	0	55	104	426770432	61	31106
2026-01-06 04:36:35.60	133.95	5.26	-45.2	-63.6	3.8	8.47e-01	0	55	104	426770432	61	30990
2026-01-06 04:36:36.61	133.84	5.19	-45.2	-63.6	3.8	8.46e-01	0	55	104	426770432	61	31077
2026-01-06 04:36:37.62	133.74	5.12	-45.2	-63.7	3.8	8.46e-01	0	55	104	426770432	61	31097
2026-01-06 04:36:38.62	133.63	5.04	-45.2	-63.7	3.8	8.46e-01	0	55	104	426770432	61	31099
2026-01-06 04:36:39.64	133.53	4.97	-45.2	-63.7	3.8	8.46e-01	0	56	104	426770432	61	31127
2026-01-06 04:36:40.65	133.42	4.90	-45.2	-63.7	3.8	8.46e-01	0	55	104	426770432	61	31128
2026-01-06 04:36:41.66	133.32	4.83	-45.2	-63.6	3.8	8.46e-01	0	56	104	426770432	61	31055
2026-01-06 04:36:42.67	133.22	4.75	-45.2	-63.6	3.8	8.45e-01	0	55	104	426770432	61	30955
2026-01-06 04:36:43.68	133.11	4.68	-45.2	-63.6	3.8	8.45e-01	0	55	104	426770432	61	30984
2026-01-06 04:36:44.69	133.01	4.61	-45.2	-63.6	3.8	8.45e-01	0	55	104	426770432	61	31024
2026-01-06 04:36:45.70	132.91	4.54	-45.2	-63.6	3.8	8.46e-01	0	55	104	426770432	61	30989
2026-01-06 04:36:46.71	132.81	4.47	-45.2	-63.6	3.8	8.46e-01	0	56	104	426770432	61	30939
2026-01-06 04:36:47.73	132.71	4.40	-45.2	-63.6	3.8	8.46e-01	0	56	104	426770432	61	30847
2026-01-06 04:36:48.74	132.61	4.33	-45.2	-63.6	3.8	8.47e-01	0	55	104	426770432	61	30957
2026-01-06 04:36:49.75	132.52	4.25	-45.2	-63.6	3.8	8.46e-01	0	56	104	426770432	61	30984
2026-01-06 04:36:50.76	132.42	4.18	-45.2	-63.6	3.8	8.46e-01	0	55	104	426770432	61	30862
2026-01-06 04:36:51.77	132.32	4.11	-45.2	-63.6	3.8	8.46e-01	0	55	104	426770432	61	30947
2026-01-06 04:36:52.78	132.23	4.04	-45.1	-63.6	3.8	8.45e-01	0	56	104	426770432	61	30894
2026-01-06 04:36:53.79	132.13	3.97	-45.1	-63.6	3.8	8.46e-01	0	56	104	426770432	61	30922
2026-01-06 04:36:54.80	132.04	3.91	-45.2	-63.6	3.8	8.46e-01	0	55	104	426770432	61	30893
2026-01-06 04:36:55.81	131.94	3.84	-45.2	-63.6	3.8	8.47e-01	0	56	104	426770432	61	30861
2026-01-06 04:36:56.82	131.85	3.77	-45.1	-63.6	3.8	8.47e-01	0	55	104	426770432	61	30839
2026-01-06 04:36:57.83	131.76	3.70	-45.1	-63.6	3.8	8.47e-01	0	55	104	426770432	61	30855
2026-01-06 04:36:58.85	131.67	3.63	-45.1	-63.6	3.8	8.46e-01	0	56	104	426770432	61	30935
2026-01-06 04:36:59.86	131.57	3.56	-45.1	-63.6	3.8	8.46e-01	0	56	104	426770432	61	30856
2026-01-06 04:37:00.87	131.48	3.49	-45.1	-63.6	3.8	8.46e-01	0	55	104	426770432	61	30897
2026-01-06 04:37:01.88	131.39	3.42	-45.1	-63.6	3.8	8.46e-01	0	55	104	426770432	61	30837
2026-01-06 04:37:02.89	131.30	3.36	-45.1	-63.6	3.8	8.46e-01	0	55	104	426770432	61	30836
2026-01-06 04:37:03.90	131.22	3.29	-45.1	-63.6	3.8	8.46e-01	0	55	104	426770432	61	30877
2026-01-06 04:37:04.91	131.13	3.22	-45.2	-63.6	3.8	8.46e-01	0	55	104	426770432	61	30881
2026-01-06 04:37:05.92	131.04	3.15	-45.1	-63.6	3.8	8.45e-01	0	55	104	426770432	61	30854
2026-01-06 04:37:06.93	130.95	3.09	-45.1	-63.6	3.8	8.47e-01	0	56	104	426770432	61	30805
2026-01-06 04:37:07.94	130.87	3.02	-45.2	-63.6	3.8	8.47e-01	0	55	104	426770432	61	30904
2026-01-06 04:37:08.95	130.78	2.95	-45.1	-63.6	3.8	8.46e-01	0	55	104	426770432	61	30825
2026-01-06 04:37:09.97	130.69	2.89	-45.1	-63.6	3.8	8.46e-01	0	56	104	426770432	61	30853
2026-01-06 04:37:10.98	130.61	2.82	-45.1	-63.6	3.8	8.46e-01	0	55	104	426770432	61	30866
2026-01-06 04:37:11.99	130.52	2.75	-45.1	-63.6	3.8	8.46e-01	0	55	104	426770432	61	30825
2026-01-06 04:37:13.00	130.44	2.69	-45.1	-63.6	3.8	8.46e-01	0	55	104	426770432	61	30856
2026-01-06 04:37:14.01	130.36	2.62	-45.1	-63.6	3.8	8.46e-01	0	55	104	426770432	61	30831
2026-01-06 04:37:15.02	130.28	2.56	-45.1	-63.6	3.8	8.46e-01	0	56	104	426770432	61	30919
2026-01-06 04:37:16.03	130.19	2.49	-45.1	-63.6	3.8	8.46e-01	0	56	104	426770432	61	30743
2026-01-06 04:37:17.04	130.11	2.43	-45.1	-63.6	3.8	8.46e-01	0	55	104	426770432	61	30895
2026-01-06 04:37:18.05	130.03	2.36	-45.1	-63.6	3.8	8.46e-01	0	56	104	426770432	61	30790
2026-01-06 04:37:19.07	129.95	2.30	-45.1	-63.5	3.8	8.46e-01	0	56	104	426770432	61	30715
2026-01-06 04:37:20.08	129.87	2.23	-45.1	-63.6	3.8	8.47e-01	0	55	104	426770432	61	30795
2026-01-06 04:37:21.09	129.79	2.17	-45.1	-63.6	3.8	8.47e-01	0	56	104	426770432	61	30811
2026-01-06 04:37:22.10	129.71	2.10	-45.1	-63.6	3.8	8.46e-01	0	55	104	426770432	61	30788
2026-01-06 04:37:23.11	129.63	2.04	-45.1	-63.6	3.8	8.46e-01	0	55	104	426770432	61	30739
2026-01-06 04:37:24.12	129.55	1.98	-45.1	-63.6	3.8	8.46e-01	0	56	104	426770432	61	30777
2026-01-06 04:37:25.13	129.48	1.91	-45.1	-63.6	3.8	8.46e-01	0	56	104	426770432	61	30826

#Closed at: 2026-01-06 04:37:25
#Recorded file [426 MB]: D:/lorett/data/31039_260106_072826.dat