passes_logs/2026/01/06/R2.0S_Moscow/R2.0S_Moscow__20260106_085406_SUOMI_NPP_rec.log

#Pass ID: 20260106_085406_SUOMI NPP
#Satellite: SUOMI NPP
#Configuration: NPP
#almurnet v.1.7.20251203
#Start time: 2026-01-06 08:54:08

#Version: 2.2.20231116
#Station: R2.0S_Moscow
#Location: 37.707566 lon 55.798166 lat
#TLE: 1 37849U 11061A   26004.95404768  .00000136  00000+0  85334-4 0  9991
#TLE: 2 37849  98.7801 307.0898 0002575  80.6707 279.4760 14.19522289735281

#Time	Az	El	Level	Level2	SNR	BER	BlckErr	Temp	State	Recorded	gain1	gain2
2026-01-06 08:54:08.44	128.74	2.13	-28.5	-47.8	3.8	1.51e+00	0	46	0	0	29	31653
2026-01-06 08:54:09.44	128.70	2.19	-39.4	-56.2	4.0	1.50e+00	0	47	104	0	51	23359
2026-01-06 08:54:10.46	128.65	2.25	-39.7	-55.8	3.8	1.49e+00	0	47	104	0	51	22428
2026-01-06 08:54:11.46	128.60	2.31	-36.7	-55.0	4.1	1.50e+00	0	47	104	0	45	28800
2026-01-06 08:54:12.47	128.56	2.37	-37.5	-55.1	3.9	1.49e+00	0	47	104	0	51	20713
2026-01-06 08:54:13.48	128.51	2.44	-34.6	-50.6	3.8	1.50e+00	0	47	104	0	41	21958
2026-01-06 08:54:14.49	128.47	2.50	-37.8	-53.4	3.9	1.49e+00	0	47	104	0	48	20191
2026-01-06 08:54:15.50	128.42	2.56	-38.2	-53.6	4.0	1.50e+00	0	47	104	0	46	23142
2026-01-06 08:54:16.51	128.37	2.62	-29.5	-47.5	3.6	1.51e+00	0	47	104	0	31	27367
2026-01-06 08:54:17.52	128.33	2.69	-39.4	-54.6	3.9	1.50e+00	0	47	104	0	48	23115
2026-01-06 08:54:18.54	128.28	2.75	-36.3	-52.6	3.7	1.50e+00	0	47	104	0	44	23134
2026-01-06 08:54:19.55	128.23	2.81	-40.3	-55.7	4.0	1.50e+00	0	47	104	0	48	26449
2026-01-06 08:54:20.56	128.18	2.88	-40.8	-56.6	4.0	1.50e+00	0	48	104	0	51	24565
2026-01-06 08:54:21.57	128.14	2.94	-37.5	-54.7	3.8	1.49e+00	0	47	104	0	48	23472
2026-01-06 08:54:22.58	128.09	3.00	-37.2	-53.6	4.1	1.50e+00	0	48	104	0	47	22007
2026-01-06 08:54:23.59	128.04	3.07	-34.7	-52.1	3.7	1.50e+00	0	48	104	0	45	20553
2026-01-06 08:54:24.60	127.99	3.13	-35.9	-52.3	3.8	1.50e+00	0	48	104	0	47	18776
2026-01-06 08:54:25.61	127.94	3.19	-37.4	-53.5	4.0	1.50e+00	0	48	104	0	47	21668
2026-01-06 08:54:26.62	127.89	3.26	-37.7	-54.4	4.1	1.50e+00	0	48	104	0	47	24021
2026-01-06 08:54:27.63	127.84	3.32	-34.5	-54.5	4.0	1.50e+00	0	48	0	0	45	27306
2026-01-06 08:54:28.64	127.79	3.39	-38.9	-54.6	4.2	1.50e+00	0	48	104	0	46	26116
2026-01-06 08:54:29.65	127.75	3.45	-35.9	-55.2	4.2	1.49e+00	0	48	104	0	45	29370
2026-01-06 08:54:30.66	127.70	3.51	-41.1	-55.5	4.0	1.50e+00	0	48	104	0	51	21673
2026-01-06 08:54:31.67	127.65	3.58	-38.9	-54.6	4.0	1.49e+00	0	48	104	0	47	24547
2026-01-06 08:54:32.69	127.59	3.64	-38.8	-55.1	3.8	1.50e+00	0	48	104	0	51	20753
2026-01-06 08:54:33.70	127.54	3.71	-36.3	-53.5	4.0	1.50e+00	0	49	104	0	47	21683
2026-01-06 08:54:34.71	127.49	3.77	-33.0	-50.5	4.4	1.49e+00	0	48	104	0	46	16240
2026-01-06 08:54:35.72	127.44	3.84	-38.9	-55.8	3.9	1.50e+00	0	49	104	0	50	23780
2026-01-06 08:54:36.73	127.39	3.90	-41.3	-56.9	3.7	1.50e+00	0	49	104	0	50	26907
2026-01-06 08:54:37.74	127.34	3.97	-32.2	-49.8	3.8	1.50e+00	0	49	104	0	40	21141
2026-01-06 08:54:38.75	127.29	4.04	-38.3	-54.3	4.1	1.50e+00	0	49	104	0	48	22329
2026-01-06 08:54:39.76	127.24	4.10	-38.1	-55.0	4.0	1.50e+00	0	49	104	0	50	21626
2026-01-06 08:54:40.77	127.18	4.17	-40.4	-56.4	4.0	1.50e+00	0	49	104	0	52	22691
2026-01-06 08:54:41.78	127.13	4.23	-40.1	-55.6	4.0	1.49e+00	0	49	104	0	50	23201
2026-01-06 08:54:42.79	127.08	4.30	-39.1	-56.6	2.9	1.50e+00	0	49	0	0	43	38943
2026-01-06 08:54:43.80	127.03	4.36	-39.3	-56.1	3.9	1.50e+00	0	49	104	0	51	23263
2026-01-06 08:54:44.81	126.97	4.43	-39.6	-55.4	4.0	1.50e+00	0	49	104	0	49	24039
2026-01-06 08:54:45.82	126.92	4.50	-40.5	-55.9	4.0	1.49e+00	0	49	104	0	50	23899
2026-01-06 08:54:46.83	126.87	4.56	-40.0	-55.4	3.9	1.50e+00	0	49	104	0	49	24094
2026-01-06 08:54:47.84	126.81	4.63	-33.3	-53.6	4.2	1.50e+00	0	49	104	0	48	20666
2026-01-06 08:54:48.85	126.76	4.70	-39.4	-56.0	3.8	1.49e+00	0	49	104	0	51	22851
2026-01-06 08:54:49.86	126.70	4.76	-41.0	-56.3	3.8	1.49e+00	0	50	104	0	53	21238
2026-01-06 08:54:50.88	126.65	4.83	-37.7	-53.8	4.1	1.50e+00	0	49	104	0	48	21097
2026-01-06 08:54:51.88	126.59	4.90	-36.9	-52.0	4.0	1.50e+00	0	50	0	0	42	24331
2026-01-06 08:54:52.90	126.54	4.97	-39.1	-55.8	4.2	1.51e+00	0	49	104	0	45	31780
2026-01-06 08:54:53.91	126.48	5.03	-38.1	-55.7	4.1	1.49e+00	0	50	104	0	51	22195
2026-01-06 08:54:54.92	126.43	5.10	-41.1	-56.8	3.7	1.49e+00	0	50	104	0	52	23702
2026-01-06 08:54:55.93	126.37	5.17	-40.6	-56.7	4.0	1.50e+00	0	50	104	0	52	23320
2026-01-06 08:54:56.94	126.31	5.24	-39.8	-56.1	4.0	1.50e+00	0	50	104	0	50	24421
2026-01-06 08:54:57.95	126.26	5.31	-37.8	-54.5	4.1	1.50e+00	0	50	104	0	49	21529
2026-01-06 08:54:58.96	126.20	5.37	-36.7	-53.4	4.1	1.50e+00	0	50	104	0	49	18982
2026-01-06 08:54:59.97	126.14	5.44	-36.6	-52.2	4.0	1.49e+00	0	50	104	0	47	18639
2026-01-06 08:55:00.98	126.09	5.51	-33.6	-52.3	4.0	1.49e+00	0	50	104	0	41	26722
2026-01-06 08:55:01.99	126.03	5.58	-38.7	-54.5	3.7	1.50e+00	0	50	104	0	47	24135
2026-01-06 08:55:03.00	125.97	5.65	-29.7	-49.9	4.1	1.50e+00	0	50	104	0	36	27072
2026-01-06 08:55:04.01	125.91	5.72	-36.6	-54.0	4.0	1.50e+00	0	50	104	0	48	21626
2026-01-06 08:55:05.02	125.85	5.79	-40.6	-56.1	3.6	1.49e+00	0	50	104	0	50	24596
2026-01-06 08:55:06.03	125.80	5.86	-40.4	-56.6	4.0	1.50e+00	0	50	104	0	51	24469
2026-01-06 08:55:07.04	125.74	5.93	-34.5	-51.2	4.1	1.50e+00	0	50	104	0	44	19624
2026-01-06 08:55:08.05	125.68	6.00	-34.1	-50.6	4.2	1.50e+00	0	50	104	0	41	21965
2026-01-06 08:55:09.06	125.62	6.07	-39.8	-55.5	3.6	1.50e+00	0	50	104	0	49	24276
2026-01-06 08:55:10.07	125.56	6.14	-35.9	-54.0	4.1	1.50e+00	0	50	104	0	49	20331
2026-01-06 08:55:11.08	125.50	6.21	-38.7	-54.1	3.9	1.50e+00	0	50	104	0	45	25906
2026-01-06 08:55:12.09	125.44	6.28	-38.8	-52.9	3.9	1.50e+00	0	50	104	0	46	21358
2026-01-06 08:55:13.10	125.38	6.35	-35.9	-54.4	4.1	1.50e+00	0	51	0	0	42	31885
2026-01-06 08:55:14.11	125.31	6.42	-39.2	-56.4	3.8	1.50e+00	0	51	104	0	52	22765
2026-01-06 08:55:15.12	125.25	6.49	-39.5	-55.6	4.0	1.49e+00	0	50	104	0	51	21829
2026-01-06 08:55:16.13	125.19	6.56	-39.7	-56.0	4.0	1.50e+00	0	50	104	0	49	25693
2026-01-06 08:55:17.14	125.13	6.63	-38.8	-53.8	4.1	1.50e+00	0	51	104	0	47	22356
2026-01-06 08:55:18.15	125.07	6.70	-38.7	-54.7	4.1	1.50e+00	0	51	104	0	46	26441
2026-01-06 08:55:19.16	125.00	6.77	-39.0	-55.6	3.8	1.50e+00	0	51	104	0	51	21794
2026-01-06 08:55:20.17	124.94	6.85	-37.6	-55.2	4.1	1.50e+00	0	51	104	0	48	24747
2026-01-06 08:55:21.18	124.88	6.92	-40.2	-55.8	3.8	1.49e+00	0	51	104	0	51	22383
2026-01-06 08:55:22.20	124.81	6.99	-38.7	-56.5	3.8	1.50e+00	0	51	104	0	51	24190
2026-01-06 08:55:23.21	124.75	7.06	-38.0	-54.7	3.9	1.49e+00	0	51	104	0	50	20846
2026-01-06 08:55:24.22	124.68	7.13	-34.3	-52.1	4.1	1.50e+00	0	51	104	0	42	24585
2026-01-06 08:55:25.23	124.62	7.21	-40.7	-56.0	3.8	1.50e+00	0	51	104	0	51	22897
2026-01-06 08:55:26.24	124.55	7.28	-34.5	-51.4	3.8	1.49e+00	0	51	104	0	46	18050
2026-01-06 08:55:27.25	124.49	7.35	-38.6	-54.3	3.4	1.50e+00	0	51	104	0	47	23693
2026-01-06 08:55:28.26	124.42	7.43	-38.4	-52.1	4.0	1.49e+00	0	51	104	0	45	20686
2026-01-06 08:55:29.27	124.36	7.50	-37.8	-52.1	4.3	1.48e+00	0	51	104	0	49	16363
2026-01-06 08:55:30.28	124.29	7.57	-39.8	-51.6	4.8	1.25e+00	0	52	0	0	48	16415
2026-01-06 08:55:31.29	124.22	7.65	-39.3	-50.8	5.0	8.82e-01	0	51	0	1048576	51	12578
2026-01-06 08:55:32.30	124.16	7.72	-38.5	-49.2	5.4	6.88e-01	0	51	0	3145728	47	13260
2026-01-06 08:55:33.31	124.09	7.79	-39.9	-49.4	5.8	5.93e-01	0	51	0	5242880	49	11987
2026-01-06 08:55:34.32	124.02	7.87	-39.7	-48.6	6.3	3.59e-01	0	51	0	7340032	49	10908
2026-01-06 08:55:35.33	123.95	7.94	-37.0	-46.6	6.3	3.43e-01	0	51	0	8388608	47	9801
2026-01-06 08:55:36.34	123.88	8.02	-36.8	-45.7	6.5	3.87e-01	0	51	0	10485760	44	10453
2026-01-06 08:55:37.36	123.81	8.09	-38.5	-52.0	4.6	3.86e-01	0	51	0	12582912	47	18155
2026-01-06 08:55:38.36	123.75	8.17	-39.9	-54.9	3.9	1.49e+00	0	52	104	12582912	49	22757
2026-01-06 08:55:39.37	123.68	8.24	-35.2	-45.5	8.0	1.48e+00	0	52	104	12582912	47	8629
2026-01-06 08:55:40.38	123.61	8.32	-33.2	-44.5	5.8	4.69e-01	0	52	0	13631488	37	13592
2026-01-06 08:55:41.39	123.54	8.39	-36.5	-45.2	7.8	1.01e+00	0	52	0	15728640	46	8822
2026-01-06 08:55:42.40	123.46	8.47	-38.4	-46.8	6.9	1.70e-01	0	52	0	16777216	48	9403
2026-01-06 08:55:43.41	123.39	8.54	-37.8	-44.9	8.9	9.49e-02	0	52	0	18874368	46	8530
2026-01-06 08:55:44.42	123.32	8.62	-39.8	-46.6	8.0	1.41e-01	0	52	0	20971520	49	8685
2026-01-06 08:55:45.43	123.25	8.69	-37.7	-47.0	7.2	1.43e-01	0	52	0	23068672	49	9100
2026-01-06 08:55:46.44	123.18	8.77	-39.7	-47.5	7.9	2.54e-01	0	52	0	24117248	50	9119
2026-01-06 08:55:47.45	123.10	8.85	-39.5	-46.5	8.4	1.02e-01	0	52	0	26214400	50	8087
2026-01-06 08:55:48.46	123.03	8.92	-39.1	-45.7	9.6	5.64e-02	0	52	0	28311552	49	7821
2026-01-06 08:55:49.47	122.96	9.00	-40.2	-45.0	10.9	3.11e-02	0	52	0	30408704	51	6449
2026-01-06 08:55:50.48	122.88	9.08	-36.5	-44.3	10.5	2.37e-02	0	52	0	32505856	47	7511
2026-01-06 08:55:51.49	122.81	9.16	-31.9	-42.7	5.9	9.62e-02	0	52	0	33554432	34	13215
2026-01-06 08:55:52.50	122.73	9.23	-39.6	-45.0	9.5	5.76e-01	0	52	0	35651584	47	8168
2026-01-06 08:55:53.51	122.66	9.31	-38.0	-45.9	9.0	7.34e-02	0	52	0	37748736	51	7146
2026-01-06 08:55:54.52	122.58	9.39	-35.0	-46.1	7.8	9.97e-02	0	52	0	39845888	46	9725
2026-01-06 08:55:55.53	122.51	9.47	-40.8	-48.5	6.9	1.83e-01	0	52	0	40894464	51	9647
2026-01-06 08:55:56.54	122.43	9.54	-41.1	-49.3	6.3	3.25e-01	0	52	0	42991616	50	11265
2026-01-06 08:55:57.55	122.35	9.62	-40.6	-49.6	6.0	3.67e-01	0	52	0	45088768	52	10315
2026-01-06 08:55:58.56	122.28	9.70	-34.4	-48.8	5.3	6.12e-01	0	52	0	47185920	44	15010
2026-01-06 08:55:59.57	122.20	9.78	-39.2	-49.2	6.4	6.82e-01	0	52	0	49283072	53	9346
2026-01-06 08:56:00.58	122.12	9.86	-40.2	-49.1	6.7	3.93e-01	0	52	0	50331648	52	9789
2026-01-06 08:56:01.59	122.04	9.94	-40.3	-50.0	6.1	4.27e-01	0	52	0	52428800	50	12211
2026-01-06 08:56:02.60	121.96	10.02	-40.4	-48.2	7.3	4.17e-01	0	52	0	54525952	51	9356
2026-01-06 08:56:03.61	121.88	10.10	-38.4	-46.6	8.7	1.18e-01	0	53	0	56623104	51	7726
2026-01-06 08:56:04.61	121.81	10.18	-39.2	-46.2	9.1	6.65e-02	0	52	0	58720256	50	7853
2026-01-06 08:56:05.62	121.72	10.26	-37.7	-46.8	7.3	9.47e-02	0	52	0	59768832	46	10632
2026-01-06 08:56:06.63	121.64	10.34	-39.2	-45.9	8.5	1.38e-01	0	52	0	61865984	46	9578
2026-01-06 08:56:07.64	121.56	10.42	-37.8	-44.9	10.2	5.64e-02	0	52	0	63963136	47	8071
2026-01-06 08:56:08.65	121.48	10.50	-35.6	-43.6	10.3	1.05e-01	0	53	0	66060288	38	11660
2026-01-06 08:56:09.66	121.40	10.58	-37.8	-44.0	11.2	7.75e-02	0	53	0	68157440	47	7282
2026-01-06 08:56:10.67	121.32	10.66	-38.0	-44.0	11.0	5.80e-02	0	53	0	69206016	46	7710
2026-01-06 08:56:11.68	121.23	10.74	-38.3	-44.3	9.7	8.44e-02	0	53	0	71303168	44	8936
2026-01-06 08:56:12.69	121.15	10.82	-38.3	-44.1	9.7	8.64e-02	0	53	0	73400320	45	8262
2026-01-06 08:56:13.70	121.07	10.90	-36.3	-43.7	10.1	1.13e-01	0	53	0	75497472	46	7425
2026-01-06 08:56:14.71	120.98	10.99	-38.8	-43.7	11.0	1.75e-01	0	53	0	77594624	46	7400
2026-01-06 08:56:15.72	120.90	11.07	-38.1	-43.9	10.9	2.30e-01	0	53	0	78643200	47	7203
2026-01-06 08:56:16.73	120.81	11.15	-38.8	-44.5	11.0	5.04e-02	0	53	0	80740352	48	7220
2026-01-06 08:56:17.74	120.72	11.23	-38.4	-44.7	10.1	6.33e-02	0	53	0	82837504	47	7869
2026-01-06 08:56:18.75	120.64	11.32	-38.5	-44.5	10.9	7.38e-02	0	53	0	84934656	48	7208
2026-01-06 08:56:19.76	120.55	11.40	-36.2	-43.7	11.2	4.21e-02	0	53	0	87031808	47	7000
2026-01-06 08:56:20.77	120.46	11.48	-38.4	-44.2	11.4	3.19e-02	0	53	0	88080384	47	7410
2026-01-06 08:56:21.78	120.37	11.56	-37.6	-43.7	11.6	2.89e-02	0	53	0	90177536	47	6980
2026-01-06 08:56:22.79	120.29	11.65	-36.9	-43.7	12.3	1.55e-02	0	53	0	92274688	48	6616
2026-01-06 08:56:23.80	120.20	11.73	-37.6	-43.8	12.1	2.48e-02	0	53	0	94371840	48	6662
2026-01-06 08:56:24.81	120.11	11.82	-39.2	-43.9	11.2	3.69e-02	0	53	0	96468992	47	7143
2026-01-06 08:56:25.83	120.02	11.90	-38.0	-43.7	12.4	1.74e-02	0	53	0	97517568	49	6214
2026-01-06 08:56:26.84	119.93	11.99	-39.3	-43.7	12.7	3.09e-02	0	53	0	99614720	49	6241
2026-01-06 08:56:27.84	119.84	12.07	-37.9	-43.7	12.4	2.06e-02	0	53	0	101711872	49	6241
2026-01-06 08:56:28.85	119.74	12.15	-39.4	-43.8	12.4	2.11e-02	0	53	0	103809024	49	6341
2026-01-06 08:56:29.86	119.65	12.24	-38.7	-43.5	12.4	1.65e-02	0	53	0	105906176	47	6854
2026-01-06 08:56:30.87	119.56	12.32	-37.3	-43.1	12.1	2.12e-02	0	53	0	106954752	47	6546
2026-01-06 08:56:31.88	119.46	12.41	-38.4	-43.4	11.8	1.41e-02	0	53	0	109051904	46	7202
2026-01-06 08:56:32.89	119.37	12.50	-39.3	-43.5	13.0	1.77e-01	0	53	0	111149056	49	6116
2026-01-06 08:56:33.90	119.28	12.58	-37.6	-42.8	10.1	1.00e-01	0	53	0	113246208	34	13311
2026-01-06 08:56:34.91	119.18	12.67	-37.2	-43.6	12.2	3.60e-02	0	53	0	115343360	48	6558
2026-01-06 08:56:35.92	119.09	12.76	-38.5	-43.6	12.8	2.33e-02	0	53	0	117440512	49	6188
2026-01-06 08:56:36.94	118.99	12.84	-39.0	-43.9	11.9	6.56e-02	0	53	0	118489088	48	6784
2026-01-06 08:56:37.95	118.89	12.93	-37.1	-43.5	12.8	1.99e-02	0	53	0	120586240	49	6110
2026-01-06 08:56:38.96	118.79	13.02	-39.2	-43.2	13.4	1.44e-02	0	53	0	122683392	48	6252
2026-01-06 08:56:39.97	118.70	13.10	-39.2	-43.0	13.6	9.90e-03	0	53	0	124780544	49	5776
2026-01-06 08:56:40.98	118.60	13.19	-39.2	-43.0	13.2	5.94e-03	0	53	0	126877696	49	5743
2026-01-06 08:56:41.99	118.50	13.28	-39.6	-43.1	14.0	4.29e-03	0	53	0	127926272	50	5523
2026-01-06 08:56:43.00	118.40	13.37	-39.1	-43.1	12.9	3.89e-03	0	54	0	130023424	49	5801
2026-01-06 08:56:44.01	118.30	13.46	-39.8	-43.4	12.6	2.97e-03	0	53	0	132120576	48	6364
2026-01-06 08:56:45.02	118.20	13.54	-40.1	-43.8	12.8	3.61e-02	0	54	0	134217728	50	5940
2026-01-06 08:56:46.03	118.10	13.63	-39.6	-43.3	13.6	4.98e-03	0	53	0	136314880	50	5625
2026-01-06 08:56:47.04	117.99	13.72	-40.3	-43.4	13.7	7.73e-02	0	53	0	137363456	50	5685
2026-01-06 08:56:48.05	117.89	13.81	-39.8	-43.0	14.4	1.70e-03	0	54	0	139460608	50	5408
2026-01-06 08:56:49.06	117.79	13.90	-39.9	-42.9	14.6	6.67e-04	0	54	0	141557760	50	5351
2026-01-06 08:56:50.07	117.68	13.99	-39.3	-42.9	14.5	4.18e-03	0	53	0	143654912	50	5383
2026-01-06 08:56:51.07	117.58	14.08	-40.1	-43.0	14.3	6.26e-04	0	53	0	145752064	50	5448
2026-01-06 08:56:52.09	117.47	14.17	-40.1	-43.3	14.3	1.91e-04	0	54	0	146800640	51	5298
2026-01-06 08:56:53.10	117.37	14.26	-40.1	-43.3	14.1	1.59e-04	0	54	0	148897792	51	5286
2026-01-06 08:56:54.11	117.26	14.35	-40.0	-43.1	14.3	6.30e-03	0	54	0	150994944	51	5216
2026-01-06 08:56:55.12	117.15	14.44	-40.3	-43.3	11.7	2.77e-02	0	54	0	153092096	48	6335
2026-01-06 08:56:56.13	117.04	14.53	-40.0	-42.9	12.5	8.50e-03	0	54	0	155189248	48	6016
2026-01-06 08:56:57.14	116.93	14.63	-40.0	-42.8	14.7	1.41e-03	0	54	0	156237824	50	5296
2026-01-06 08:56:58.15	116.82	14.72	-39.9	-42.6	14.9	3.05e-05	0	54	0	158334976	50	5168
2026-01-06 08:56:59.16	116.71	14.81	-40.0	-42.7	15.0	3.35e-05	0	53	0	160432128	50	5238
2026-01-06 08:57:00.17	116.60	14.90	-40.2	-43.1	14.5	1.90e-05	0	54	0	162529280	51	5193
2026-01-06 08:57:01.18	116.49	14.99	-40.5	-43.5	14.1	2.97e-05	0	54	0	164626432	51	5464
2026-01-06 08:57:02.19	116.38	15.09	-40.3	-44.0	13.3	3.13e-04	0	54	0	165675008	51	5780
2026-01-06 08:57:03.20	116.27	15.18	-40.7	-44.0	13.5	3.84e-04	0	54	0	167772160	52	5442
2026-01-06 08:57:04.21	116.15	15.27	-40.3	-43.4	14.3	1.27e-04	0	54	0	169869312	51	5362
2026-01-06 08:57:05.22	116.04	15.37	-40.3	-43.1	14.6	1.33e-04	0	54	0	171966464	51	5191
2026-01-06 08:57:06.23	115.92	15.46	-40.0	-42.7	15.0	9.68e-05	0	54	0	174063616	50	5224
2026-01-06 08:57:07.23	115.81	15.55	-39.9	-42.5	15.2	7.09e-05	0	54	0	175112192	50	5120
2026-01-06 08:57:08.24	115.69	15.65	-40.1	-42.8	14.9	4.80e-05	0	54	0	177209344	50	5314
2026-01-06 08:57:09.25	115.57	15.74	-40.3	-43.2	14.4	1.90e-04	0	54	0	179306496	51	5249
2026-01-06 08:57:10.26	115.46	15.84	-40.4	-44.0	13.5	1.01e-04	0	54	0	181403648	52	5411
2026-01-06 08:57:11.27	115.34	15.93	-40.3	-44.0	13.7	2.44e-04	0	54	0	183500800	51	5727
2026-01-06 08:57:12.28	115.22	16.03	-40.2	-43.7	14.1	1.33e-04	0	54	0	185597952	51	5554
2026-01-06 08:57:13.29	115.10	16.12	-40.0	-43.3	14.3	1.22e-04	0	54	0	186646528	51	5336
2026-01-06 08:57:14.30	114.98	16.22	-40.0	-42.9	14.9	5.03e-05	0	54	0	188743680	51	5051
2026-01-06 08:57:15.31	114.85	16.31	-40.0	-42.7	15.0	6.10e-06	0	54	0	190840832	50	5236
2026-01-06 08:57:16.32	114.73	16.41	-40.1	-42.9	14.8	3.89e-05	0	54	0	192937984	50	5382
2026-01-06 08:57:17.33	114.61	16.50	-39.0	-42.9	14.7	5.87e-05	0	54	0	195035136	50	5370
2026-01-06 08:57:18.34	114.48	16.60	-40.3	-43.5	14.3	1.75e-05	0	54	0	196083712	51	5439
2026-01-06 08:57:19.35	114.36	16.70	-40.5	-43.5	14.1	9.90e-06	0	54	0	198180864	52	5158
2026-01-06 08:57:20.36	114.23	16.79	-40.4	-43.4	14.4	4.50e-06	0	54	0	200278016	52	5074
2026-01-06 08:57:21.37	114.10	16.89	-40.3	-43.0	14.8	7.00e-07	0	54	0	202375168	51	5145
2026-01-06 08:57:22.38	113.98	16.99	-40.1	-42.7	15.1	2.20e-06	0	54	0	204472320	51	4978
2026-01-06 08:57:23.39	113.85	17.09	-40.0	-42.5	15.3	0.00e+00	0	54	0	205520896	51	4846
2026-01-06 08:57:24.40	113.72	17.18	-40.1	-42.7	15.1	0.00e+00	0	54	0	207618048	51	4978
2026-01-06 08:57:25.41	113.59	17.28	-40.2	-42.8	15.1	0.00e+00	0	54	0	209715200	51	4994
2026-01-06 08:57:26.42	113.46	17.38	-40.3	-43.0	14.9	0.00e+00	0	54	0	211812352	51	5126
2026-01-06 08:57:27.43	113.32	17.48	-40.2	-42.8	15.1	0.00e+00	0	54	0	213909504	51	4989
2026-01-06 08:57:28.44	113.19	17.58	-40.1	-42.7	15.1	0.00e+00	0	54	0	214958080	51	4977
2026-01-06 08:57:29.45	113.06	17.68	-40.2	-42.9	15.0	0.00e+00	0	54	0	217055232	51	5049
2026-01-06 08:57:30.46	112.92	17.78	-40.4	-43.1	14.7	0.00e+00	0	54	0	219152384	51	5213
2026-01-06 08:57:31.47	112.79	17.88	-40.7	-43.7	14.1	7.00e-07	0	54	0	221249536	52	5245
2026-01-06 08:57:32.48	112.65	17.98	-40.8	-43.9	13.9	3.00e-06	0	54	0	223346688	52	5373
2026-01-06 08:57:33.49	112.51	18.08	-40.8	-43.9	13.9	2.20e-06	0	54	0	224395264	52	5401
2026-01-06 08:57:34.50	112.37	18.18	-40.8	-43.8	14.0	3.00e-06	0	54	0	226492416	52	5340
2026-01-06 08:57:35.51	112.24	18.28	-40.5	-43.4	14.3	1.50e-06	0	54	0	228589568	52	5076
2026-01-06 08:57:36.52	112.10	18.38	-40.8	-43.8	14.0	0.00e+00	0	54	0	230686720	52	5310
2026-01-06 08:57:37.53	111.95	18.48	-40.9	-44.1	13.7	3.80e-06	0	54	0	232783872	52	5488
2026-01-06 08:57:38.54	111.81	18.58	-41.1	-44.4	13.4	9.10e-06	0	54	0	233832448	52	5706
2026-01-06 08:57:39.55	111.67	18.68	-41.1	-44.5	13.3	1.44e-05	0	54	0	235929600	53	5434
2026-01-06 08:57:40.56	111.52	18.78	-40.8	-44.0	13.9	7.60e-06	0	54	0	238026752	53	5101
2026-01-06 08:57:41.57	111.38	18.89	-40.6	-43.5	14.3	3.80e-06	0	54	0	240123904	53	4837
2026-01-06 08:57:42.58	111.23	18.99	-40.5	-43.3	14.5	0.00e+00	0	55	0	242221056	52	5035
2026-01-06 08:57:43.59	111.09	19.09	-40.3	-43.1	14.7	1.50e-06	0	54	0	243269632	52	4877
2026-01-06 08:57:44.60	110.94	19.19	-40.6	-43.5	14.3	0.00e+00	0	54	0	245366784	52	5136
2026-01-06 08:57:45.61	110.79	19.30	-40.7	-43.8	14.1	1.50e-06	0	54	0	247463936	52	5310
2026-01-06 08:57:46.62	110.64	19.40	-40.8	-43.9	14.0	3.00e-06	0	54	0	249561088	52	5342
2026-01-06 08:57:47.62	110.49	19.50	-40.3	-43.1	14.8	2.20e-06	0	55	0	251658240	52	4877
2026-01-06 08:57:48.63	110.34	19.60	-40.2	-42.8	15.0	0.00e+00	0	54	0	253755392	52	4735
2026-01-06 08:57:49.64	110.18	19.71	-40.0	-42.5	15.3	0.00e+00	0	54	0	254803968	52	4581
2026-01-06 08:57:50.65	110.03	19.81	-40.1	-42.7	15.3	0.00e+00	0	54	0	256901120	51	4933
2026-01-06 08:57:51.66	109.87	19.92	-40.6	-43.4	14.5	0.00e+00	0	55	0	258998272	51	5378
2026-01-06 08:57:52.67	109.72	20.02	-40.8	-43.9	13.9	2.20e-06	0	55	0	261095424	52	5391
2026-01-06 08:57:53.68	109.56	20.13	-41.0	-44.2	13.6	3.00e-06	0	55	0	263192576	52	5585
2026-01-06 08:57:54.69	109.40	20.23	-40.8	-43.8	14.0	3.00e-06	0	55	0	264241152	52	5312
2026-01-06 08:57:55.70	109.24	20.34	-40.3	-43.1	14.7	7.00e-07	0	55	0	266338304	52	4895
2026-01-06 08:57:56.71	109.08	20.44	-40.3	-42.9	15.0	0.00e+00	0	55	0	268435456	52	4799
2026-01-06 08:57:57.72	108.92	20.55	-40.3	-43.0	14.8	0.00e+00	0	54	0	270532608	52	4870
2026-01-06 08:57:58.73	108.76	20.65	-40.6	-43.6	14.4	0.00e+00	0	55	0	272629760	52	5161
2026-01-06 08:57:59.74	108.59	20.76	-40.9	-44.0	14.0	0.00e+00	0	54	0	273678336	52	5404
2026-01-06 08:58:00.75	108.43	20.86	-40.5	-43.4	14.5	3.00e-06	0	55	0	275775488	52	5045
2026-01-06 08:58:01.76	108.26	20.97	-40.3	-42.9	15.0	0.00e+00	0	55	0	277872640	52	4802
2026-01-06 08:58:02.77	108.09	21.08	-40.3	-43.0	14.9	0.00e+00	0	55	0	279969792	52	4845
2026-01-06 08:58:03.78	107.92	21.18	-40.5	-43.3	14.6	1.50e-06	0	54	0	282066944	52	5018
2026-01-06 08:58:04.79	107.75	21.29	-40.7	-43.7	14.3	0.00e+00	0	55	0	283115520	52	5236
2026-01-06 08:58:05.80	107.58	21.40	-40.7	-43.6	14.3	2.20e-06	0	54	0	285212672	52	5175
2026-01-06 08:58:06.81	107.41	21.50	-40.5	-43.4	14.5	1.50e-06	0	55	0	287309824	52	5057
2026-01-06 08:58:07.82	107.24	21.61	-40.7	-43.6	14.3	3.80e-06	0	55	0	289406976	52	5195
2026-01-06 08:58:08.83	107.06	21.72	-40.5	-43.4	14.6	0.00e+00	0	55	0	291504128	52	5042
2026-01-06 08:58:09.84	106.89	21.83	-40.7	-43.6	14.3	7.00e-07	0	55	0	292552704	52	5181
2026-01-06 08:58:10.85	106.71	21.93	-41.0	-44.1	13.8	4.50e-06	0	55	0	294649856	52	5510
2026-01-06 08:58:11.86	106.53	22.04	-41.0	-44.2	13.7	9.90e-06	0	55	0	296747008	52	5566
2026-01-06 08:58:12.87	106.35	22.15	-41.0	-44.2	13.7	9.10e-06	0	55	0	298844160	52	5582
2026-01-06 08:58:13.88	106.17	22.26	-41.0	-44.1	13.8	6.10e-06	0	55	0	300941312	52	5528
2026-01-06 08:58:14.89	105.99	22.37	-41.1	-44.3	13.6	6.10e-06	0	55	0	301989888	52	5598
2026-01-06 08:58:15.90	105.80	22.47	-41.1	-44.3	13.5	3.80e-06	0	55	0	304087040	53	5325
2026-01-06 08:58:16.91	105.62	22.58	-41.0	-44.1	13.7	6.10e-06	0	54	0	306184192	53	5200
2026-01-06 08:58:17.92	105.43	22.69	-40.9	-44.0	13.9	6.10e-06	0	55	0	308281344	53	5135
2026-01-06 08:58:18.93	105.24	22.80	-41.0	-44.1	13.9	9.10e-06	0	54	0	310378496	53	5185
2026-01-06 08:58:19.94	105.05	22.91	-41.0	-44.2	13.8	3.80e-06	0	55	0	311427072	53	5227
2026-01-06 08:58:20.94	104.87	23.02	-40.7	-43.7	14.4	3.80e-06	0	55	0	313524224	53	4944
2026-01-06 08:58:21.95	104.67	23.13	-40.7	-43.7	14.2	1.50e-06	0	55	0	315621376	53	4951
2026-01-06 08:58:22.96	104.48	23.24	-40.7	-43.5	14.4	0.00e+00	0	55	0	317718528	53	4866
2026-01-06 08:58:23.97	104.29	23.35	-40.6	-43.4	14.5	7.00e-07	0	55	0	319815680	53	4771
2026-01-06 08:58:24.98	104.09	23.46	-40.6	-43.5	14.4	1.50e-06	0	55	0	321912832	53	4834
2026-01-06 08:58:25.99	103.89	23.57	-40.5	-43.3	14.7	0.00e+00	0	55	0	322961408	53	4741
2026-01-06 08:58:27.00	103.70	23.68	-40.3	-43.0	14.9	0.00e+00	0	55	0	325058560	52	4819
2026-01-06 08:58:28.01	103.50	23.79	-40.0	-42.5	15.4	0.00e+00	0	55	0	327155712	52	4580
2026-01-06 08:58:29.02	103.30	23.90	-40.4	-43.2	14.8	0.00e+00	0	55	0	329252864	52	4933
2026-01-06 08:58:30.03	103.09	24.01	-40.7	-43.5	14.4	1.50e-06	0	55	0	331350016	52	5158
2026-01-06 08:58:31.04	102.89	24.12	-40.7	-43.6	14.3	0.00e+00	0	55	0	332398592	52	5211
2026-01-06 08:58:32.05	102.68	24.23	-40.6	-43.4	14.6	7.00e-07	0	55	0	334495744	52	5088
2026-01-06 08:58:33.06	102.48	24.34	-40.2	-42.8	15.1	0.00e+00	0	55	0	336592896	52	4758
2026-01-06 08:58:34.07	102.27	24.45	-40.3	-42.9	15.1	0.00e+00	0	55	0	338690048	52	4767
2026-01-06 08:58:35.08	102.06	24.56	-40.4	-43.1	14.9	0.00e+00	0	55	0	340787200	52	4918
2026-01-06 08:58:36.09	101.85	24.67	-40.8	-43.7	14.3	0.00e+00	0	55	0	341835776	52	5275
2026-01-06 08:58:37.09	101.63	24.78	-41.0	-44.0	14.0	2.20e-06	0	55	0	343932928	52	5464
2026-01-06 08:58:38.10	101.42	24.89	-40.7	-43.6	14.4	0.00e+00	0	55	0	346030080	52	5186
2026-01-06 08:58:39.11	101.20	25.00	-40.6	-43.5	14.6	7.00e-07	0	55	0	348127232	52	5115
2026-01-06 08:58:40.13	100.98	25.11	-40.4	-43.0	15.0	7.00e-07	0	55	0	350224384	52	4860
2026-01-06 08:58:41.14	100.77	25.22	-40.6	-43.4	14.7	7.00e-07	0	55	0	351272960	52	5057
2026-01-06 08:58:42.15	100.54	25.33	-40.9	-44.0	14.1	7.00e-07	0	55	0	353370112	52	5406
2026-01-06 08:58:43.15	100.32	25.44	-40.5	-43.3	14.7	0.00e+00	0	55	0	355467264	52	5010
2026-01-06 08:58:44.16	100.10	25.55	-40.4	-43.1	14.9	0.00e+00	0	55	0	357564416	52	4886
2026-01-06 08:58:45.17	99.88	25.66	-40.2	-42.8	15.2	0.00e+00	0	55	0	359661568	52	4726
2026-01-06 08:58:46.18	99.65	25.77	-40.5	-43.2	14.8	0.00e+00	0	55	0	360710144	52	4947
2026-01-06 08:58:47.19	99.42	25.88	-40.5	-43.2	14.8	0.00e+00	0	55	0	362807296	52	4958
2026-01-06 08:58:48.20	99.19	25.99	-40.6	-43.3	14.8	0.00e+00	0	55	0	364904448	52	5025
2026-01-06 08:58:49.21	98.96	26.10	-40.4	-43.1	15.0	0.00e+00	0	55	0	367001600	52	4877
2026-01-06 08:58:50.22	98.72	26.21	-40.4	-43.0	15.1	7.00e-07	0	55	0	369098752	52	4844
2026-01-06 08:58:51.23	98.49	26.32	-40.4	-43.0	15.0	0.00e+00	0	55	0	370147328	52	4843
2026-01-06 08:58:52.24	98.25	26.43	-40.5	-43.2	14.9	0.00e+00	0	55	0	372244480	52	4962
2026-01-06 08:58:53.25	98.01	26.54	-41.1	-44.2	13.9	1.50e-06	0	55	0	374341632	52	5553
2026-01-06 08:58:54.26	97.77	26.65	-41.2	-44.4	13.6	4.50e-06	0	55	0	376438784	52	5704
2026-01-06 08:58:55.26	97.54	26.76	-41.2	-44.4	13.6	1.50e-06	0	55	0	378535936	53	5394
2026-01-06 08:58:56.27	97.29	26.87	-41.3	-44.5	13.6	1.14e-05	0	55	0	379584512	53	5441
2026-01-06 08:58:57.28	97.05	26.98	-41.0	-44.0	14.0	7.60e-06	0	55	0	381681664	53	5121
2026-01-06 08:58:58.29	96.80	27.09	-40.5	-43.2	14.8	7.00e-07	0	55	0	383778816	53	4676
2026-01-06 08:58:59.30	96.55	27.20	-40.1	-42.7	15.4	0.00e+00	0	55	0	385875968	52	4655
2026-01-06 08:59:00.31	96.30	27.31	-40.1	-42.5	15.6	0.00e+00	0	55	0	387973120	51	4861
2026-01-06 08:59:01.32	96.05	27.42	-40.2	-42.6	15.4	0.00e+00	0	55	0	390070272	51	4923
2026-01-06 08:59:02.33	95.80	27.53	-39.8	-42.1	16.0	0.00e+00	0	55	0	391118848	51	4625
2026-01-06 08:59:03.34	95.54	27.63	-39.6	-41.9	16.3	0.00e+00	0	55	0	393216000	51	4498
2026-01-06 08:59:04.35	95.28	27.74	-39.7	-41.9	16.2	0.00e+00	0	55	0	395313152	51	4540
2026-01-06 08:59:05.36	95.03	27.85	-39.9	-42.3	15.9	0.00e+00	0	55	0	397410304	51	4728
2026-01-06 08:59:06.37	94.76	27.96	-40.0	-42.4	15.7	0.00e+00	0	55	0	399507456	51	4795
2026-01-06 08:59:07.38	94.50	28.07	-40.3	-42.8	15.3	0.00e+00	0	55	0	400556032	51	5040
2026-01-06 08:59:08.39	94.24	28.17	-40.5	-43.1	15.0	0.00e+00	0	55	0	402653184	51	5186
2026-01-06 08:59:09.40	93.97	28.28	-40.6	-43.3	14.8	0.00e+00	0	55	0	404750336	51	5324
2026-01-06 08:59:10.41	93.70	28.39	-40.6	-43.3	14.8	0.00e+00	0	55	0	406847488	51	5338
2026-01-06 08:59:11.42	93.44	28.49	-40.6	-43.3	14.9	0.00e+00	0	55	0	408944640	51	5287
2026-01-06 08:59:12.42	93.17	28.60	-40.6	-43.4	14.8	0.00e+00	0	55	0	409993216	51	5345
2026-01-06 08:59:13.43	92.89	28.70	-40.9	-43.8	14.3	1.50e-06	0	55	0	412090368	52	5314
2026-01-06 08:59:14.44	92.62	28.81	-41.3	-44.6	13.5	2.20e-06	0	55	0	414187520	53	5500
2026-01-06 08:59:15.45	92.34	28.92	-41.8	-45.4	12.6	4.73e-05	0	55	0	416284672	54	5681
2026-01-06 08:59:16.46	92.06	29.02	-42.0	-45.8	12.2	9.84e-05	0	55	0	418381824	54	5991
2026-01-06 08:59:17.47	91.78	29.12	-42.0	-45.8	12.2	1.63e-04	0	55	0	419430400	54	5983
2026-01-06 08:59:18.48	91.50	29.23	-41.6	-45.0	13.0	3.05e-05	0	55	0	421527552	54	5459
2026-01-06 08:59:19.49	91.22	29.33	-41.5	-44.9	13.3	2.67e-05	0	55	0	423624704	54	5393
2026-01-06 08:59:20.50	90.93	29.44	-41.4	-44.7	13.4	2.67e-05	0	55	0	425721856	54	5245
2026-01-06 08:59:21.51	90.64	29.54	-41.5	-44.9	13.2	3.28e-05	0	55	0	427819008	54	5360
2026-01-06 08:59:22.52	90.35	29.64	-41.3	-44.5	13.6	1.06e-05	0	55	0	428867584	54	5150
2026-01-06 08:59:23.53	90.06	29.74	-41.2	-44.3	13.9	3.80e-06	0	55	0	430964736	54	4988
2026-01-06 08:59:24.54	89.77	29.84	-41.5	-44.8	13.3	9.90e-06	0	55	0	433061888	54	5317
2026-01-06 08:59:25.54	89.48	29.94	-41.6	-44.9	13.2	1.29e-05	0	55	0	435159040	54	5385
2026-01-06 08:59:26.56	89.18	30.05	-42.1	-45.9	12.1	7.24e-05	0	55	0	437256192	54	6044
2026-01-06 08:59:27.56	88.88	30.14	-41.9	-46.1	11.9	3.11e-04	0	55	0	438304768	54	6171
2026-01-06 08:59:28.58	88.58	30.24	-42.0	-46.4	11.4	5.50e-04	0	56	0	440401920	54	6403
2026-01-06 08:59:29.59	88.27	30.34	-42.3	-47.2	10.7	1.21e-03	0	55	0	442499072	55	6622
2026-01-06 08:59:30.60	87.97	30.44	-42.7	-48.3	9.6	9.83e-03	0	55	0	444596224	55	7510
2026-01-06 08:59:31.60	87.67	30.54	-42.6	-48.2	9.7	9.99e-03	0	55	0	446693376	55	7383
2026-01-06 08:59:32.61	87.36	30.64	-42.8	-48.4	9.7	8.70e-03	0	56	0	447741952	56	7124
2026-01-06 08:59:33.62	87.05	30.73	-42.7	-47.8	10.1	1.37e-02	0	55	0	449839104	56	6711
2026-01-06 08:59:34.63	86.74	30.83	-42.8	-48.2	9.9	1.26e-02	0	55	0	451936256	56	6965
2026-01-06 08:59:35.64	86.42	30.92	-42.8	-48.3	9.8	8.15e-03	0	55	0	454033408	56	7073
2026-01-06 08:59:36.65	86.11	31.02	-42.4	-47.1	11.0	4.75e-03	0	56	0	456130560	56	6138
2026-01-06 08:59:37.66	85.79	31.11	-42.3	-46.8	11.3	1.29e-03	0	55	0	458227712	56	5967
2026-01-06 08:59:38.67	85.47	31.20	-42.1	-46.5	11.7	6.38e-04	0	56	0	459276288	56	5748
2026-01-06 08:59:39.67	85.15	31.30	-42.0	-46.3	11.6	3.86e-04	0	55	0	461373440	55	5960
2026-01-06 08:59:40.68	84.83	31.39	-41.9	-46.2	11.8	6.43e-04	0	55	0	463470592	55	5877
2026-01-06 08:59:41.69	84.51	31.48	-42.1	-46.5	11.5	4.96e-04	0	55	0	465567744	55	6073
2026-01-06 08:59:42.70	84.18	31.57	-41.8	-45.8	12.2	2.83e-04	0	55	0	467664896	55	5636
2026-01-06 08:59:43.71	83.85	31.66	-41.9	-46.2	11.7	5.89e-04	0	55	0	468713472	55	5915
2026-01-06 08:59:44.72	83.52	31.75	-42.1	-46.5	11.4	9.41e-04	0	55	0	470810624	55	6070
2026-01-06 08:59:45.73	83.19	31.84	-42.0	-46.4	11.6	5.33e-04	0	55	0	472907776	55	6022
2026-01-06 08:59:46.74	82.86	31.92	-41.7	-45.7	12.1	5.53e-04	0	56	0	475004928	55	5566
2026-01-06 08:59:47.75	82.52	32.01	-41.8	-46.1	11.9	4.62e-04	0	55	0	477102080	55	5822
2026-01-06 08:59:48.76	82.18	32.09	-42.1	-46.7	11.3	7.18e-04	0	56	0	478150656	55	6271
2026-01-06 08:59:49.77	81.84	32.18	-42.1	-46.7	11.2	2.12e-03	0	56	0	480247808	55	6267
2026-01-06 08:59:50.78	81.50	32.26	-42.2	-47.2	10.7	2.87e-03	0	55	0	482344960	55	6624
2026-01-06 08:59:51.79	81.16	32.34	-42.4	-47.8	10.0	4.18e-03	0	55	0	484442112	55	7069
2026-01-06 08:59:52.80	80.82	32.43	-42.4	-47.9	10.0	8.16e-03	0	56	0	486539264	55	7155
2026-01-06 08:59:53.81	80.47	32.51	-41.9	-46.7	11.2	3.92e-03	0	56	0	487587840	55	6246
2026-01-06 08:59:54.82	80.12	32.59	-41.6	-45.8	12.1	3.84e-04	0	55	0	489684992	55	5633
2026-01-06 08:59:55.83	79.77	32.66	-41.4	-45.3	12.7	6.79e-05	0	56	0	491782144	54	5598
2026-01-06 08:59:56.84	79.42	32.74	-41.7	-46.0	11.9	2.43e-04	0	55	0	493879296	54	6077
2026-01-06 08:59:57.84	79.07	32.82	-41.8	-46.1	11.8	4.84e-04	0	56	0	495976448	54	6182
2026-01-06 08:59:58.85	78.72	32.89	-41.7	-45.9	12.1	3.29e-04	0	55	0	497025024	54	6040
2026-01-06 08:59:59.86	78.36	32.97	-41.5	-45.3	12.6	8.85e-05	0	55	0	499122176	54	5653
2026-01-06 09:00:00.87	78.00	33.04	-41.5	-45.5	12.5	1.84e-04	0	56	0	501219328	54	5746
2026-01-06 09:00:01.88	77.65	33.11	-41.1	-44.7	13.2	5.79e-05	0	55	0	503316480	54	5275
2026-01-06 09:00:02.89	77.28	33.18	-40.5	-43.6	14.4	3.00e-06	0	56	0	505413632	53	4889
2026-01-06 09:00:03.90	76.92	33.25	-40.3	-43.2	14.8	0.00e+00	0	56	0	506462208	52	4977
2026-01-06 09:00:04.91	76.56	33.32	-40.2	-43.1	15.0	0.00e+00	0	55	0	508559360	52	4874
2026-01-06 09:00:05.92	76.19	33.39	-40.2	-43.0	15.1	0.00e+00	0	55	0	510656512	51	5123
2026-01-06 09:00:06.93	75.83	33.46	-40.2	-43.1	15.0	0.00e+00	0	55	0	512753664	51	5186
2026-01-06 09:00:07.94	75.46	33.52	-40.3	-43.2	14.9	0.00e+00	0	55	0	514850816	51	5277
2026-01-06 09:00:08.95	75.09	33.59	-40.3	-43.1	15.0	0.00e+00	0	56	0	515899392	51	5216
2026-01-06 09:00:09.96	74.72	33.65	-40.1	-42.9	15.2	0.00e+00	0	56	0	517996544	51	5093
2026-01-06 09:00:10.97	74.34	33.71	-40.2	-43.0	15.1	0.00e+00	0	56	0	520093696	51	5154
2026-01-06 09:00:11.98	73.97	33.77	-40.4	-43.4	14.7	0.00e+00	0	56	0	522190848	51	5379
2026-01-06 09:00:12.99	73.59	33.83	-40.7	-43.9	14.1	7.00e-07	0	56	0	524288000	52	5347
2026-01-06 09:00:14.00	73.22	33.89	-41.2	-44.8	13.3	1.75e-05	0	55	0	525336576	53	5598
2026-01-06 09:00:15.01	72.84	33.95	-41.2	-44.8	13.2	2.05e-05	0	55	0	527433728	53	5629
2026-01-06 09:00:16.01	72.46	34.00	-40.9	-44.3	13.8	9.90e-06	0	56	0	529530880	53	5290
2026-01-06 09:00:17.02	72.08	34.06	-40.5	-43.6	14.4	7.00e-07	0	56	0	531628032	53	4909
2026-01-06 09:00:18.03	71.70	34.11	-40.1	-42.9	15.2	0.00e+00	0	55	0	533725184	52	4800
2026-01-06 09:00:19.04	71.31	34.16	-39.7	-42.2	15.9	0.00e+00	0	56	0	534773760	51	4682
2026-01-06 09:00:20.05	70.93	34.21	-39.7	-42.2	16.0	0.00e+00	0	55	0	536870912	51	4684
2026-01-06 09:00:21.06	70.54	34.26	-39.8	-42.4	15.7	0.00e+00	0	56	0	538968064	51	4803
2026-01-06 09:00:22.07	70.16	34.30	-39.6	-42.0	16.0	0.00e+00	0	56	0	541065216	51	4587
2026-01-06 09:00:23.08	69.77	34.35	-39.4	-41.8	16.3	0.00e+00	0	56	0	543162368	50	4759
2026-01-06 09:00:24.09	69.38	34.39	-39.4	-41.8	16.3	0.00e+00	0	56	0	544210944	50	4732
2026-01-06 09:00:25.10	68.99	34.44	-39.7	-42.2	15.9	0.00e+00	0	56	0	546308096	50	4949
2026-01-06 09:00:26.10	68.60	34.48	-40.3	-43.2	14.9	0.00e+00	0	56	0	548405248	51	5265
2026-01-06 09:00:27.11	68.21	34.52	-40.7	-43.9	14.2	7.00e-07	0	56	0	550502400	52	5346
2026-01-06 09:00:28.12	67.82	34.56	-40.8	-44.0	14.1	3.00e-06	0	56	0	552599552	52	5458
2026-01-06 09:00:29.13	67.42	34.59	-40.5	-43.5	14.6	1.50e-06	0	56	0	554696704	52	5122
2026-01-06 09:00:30.14	67.03	34.63	-40.2	-42.9	15.2	0.00e+00	0	56	0	555745280	52	4785
2026-01-06 09:00:31.15	66.63	34.66	-40.1	-42.8	15.3	0.00e+00	0	56	0	557842432	52	4742
2026-01-06 09:00:32.16	66.24	34.69	-40.7	-43.7	14.4	0.00e+00	0	55	0	559939584	52	5254
2026-01-06 09:00:33.17	65.84	34.73	-40.9	-44.0	14.2	7.00e-07	0	56	0	562036736	52	5438
2026-01-06 09:00:34.18	65.44	34.75	-41.0	-44.1	14.1	2.20e-06	0	56	0	564133888	52	5524
2026-01-06 09:00:35.19	65.04	34.78	-40.8	-43.9	14.3	2.20e-06	0	56	0	565182464	52	5341
2026-01-06 09:00:36.20	64.65	34.81	-40.8	-43.9	14.4	0.00e+00	0	56	0	567279616	52	5349
2026-01-06 09:00:37.21	64.25	34.83	-40.8	-43.8	14.3	3.80e-06	0	56	0	569376768	52	5333
2026-01-06 09:00:38.22	63.85	34.86	-40.8	-43.8	14.4	0.00e+00	0	56	0	571473920	52	5295
2026-01-06 09:00:39.23	63.44	34.88	-40.5	-43.4	14.8	7.00e-07	0	56	0	573571072	52	5069
2026-01-06 09:00:40.24	63.04	34.90	-40.4	-43.2	15.0	0.00e+00	0	56	0	574619648	52	4942
2026-01-06 09:00:41.25	62.64	34.92	-40.5	-43.3	14.9	0.00e+00	0	56	0	576716800	52	5024
2026-01-06 09:00:42.26	62.24	34.93	-40.7	-43.6	14.7	0.00e+00	0	56	0	578813952	52	5160
2026-01-06 09:00:43.26	61.84	34.95	-40.7	-43.5	14.7	0.00e+00	0	56	0	580911104	52	5153
2026-01-06 09:00:44.27	61.44	34.96	-40.7	-43.6	14.6	7.00e-07	0	56	0	583008256	52	5217
2026-01-06 09:00:45.28	61.03	34.97	-41.0	-44.2	14.0	0.00e+00	0	56	0	584056832	52	5555
2026-01-06 09:00:46.29	60.63	34.98	-41.1	-44.3	13.9	3.00e-06	0	55	0	586153984	52	5629
2026-01-06 09:00:47.30	60.23	34.99	-40.8	-43.7	14.5	7.00e-07	0	56	0	588251136	52	5252
2026-01-06 09:00:48.31	59.82	35.00	-40.5	-43.3	15.0	0.00e+00	0	56	0	590348288	52	4996
2026-01-06 09:00:49.32	59.42	35.00	-40.5	-43.4	14.8	0.00e+00	0	56	0	592445440	52	5062
2026-01-06 09:00:50.33	59.01	35.01	-40.8	-43.9	14.3	0.00e+00	0	56	0	593494016	52	5349
2026-01-06 09:00:51.34	58.61	35.01	-41.0	-44.2	14.0	2.20e-06	0	56	0	595591168	52	5559
2026-01-06 09:00:52.35	58.21	35.01	-40.7	-43.8	14.6	2.20e-06	0	56	0	597688320	52	5301
2026-01-06 09:00:53.36	57.80	35.01	-40.7	-43.7	14.5	0.00e+00	0	56	0	599785472	52	5267
2026-01-06 09:00:54.37	57.40	35.01	-41.1	-44.4	13.9	0.00e+00	0	56	0	601882624	52	5659
2026-01-06 09:00:55.38	56.99	35.00	-41.4	-45.0	13.1	1.83e-05	0	56	0	602931200	53	5764
2026-01-06 09:00:56.38	56.59	35.00	-41.5	-45.4	12.7	4.73e-05	0	56	0	605028352	53	6048
2026-01-06 09:00:57.39	56.19	34.99	-41.2	-44.8	13.3	4.50e-05	0	56	0	607125504	53	5606
2026-01-06 09:00:58.40	55.78	34.98	-40.8	-44.1	14.1	2.20e-06	0	56	0	609222656	53	5192
2026-01-06 09:00:59.42	55.38	34.97	-40.6	-43.6	14.6	0.00e+00	0	56	0	611319808	52	5182
2026-01-06 09:01:00.43	54.97	34.96	-40.5	-43.5	14.8	7.00e-07	0	56	0	612368384	52	5101
2026-01-06 09:01:01.43	54.58	34.94	-40.6	-43.7	14.4	0.00e+00	0	56	0	614465536	52	5253
2026-01-06 09:01:02.45	54.17	34.93	-41.1	-44.6	13.5	3.80e-06	0	56	0	616562688	52	5808
2026-01-06 09:01:03.46	53.77	34.91	-41.6	-45.5	12.3	5.41e-05	0	56	0	618659840	53	6121
2026-01-06 09:01:04.47	53.37	34.89	-42.0	-46.5	11.6	1.58e-04	0	56	0	620756992	54	6425
2026-01-06 09:01:05.48	52.96	34.87	-41.8	-46.0	12.0	3.62e-04	0	56	0	621805568	54	6130
2026-01-06 09:01:06.49	52.56	34.85	-41.6	-45.6	12.5	1.38e-04	0	56	0	623902720	54	5824
2026-01-06 09:01:07.50	52.16	34.83	-41.1	-44.5	13.7	1.90e-05	0	56	0	625999872	54	5139
2026-01-06 09:01:08.51	51.77	34.80	-40.9	-44.2	13.9	3.00e-06	0	56	0	628097024	53	5261
2026-01-06 09:01:09.52	51.37	34.77	-40.9	-44.2	13.9	3.80e-06	0	56	0	630194176	53	5236
2026-01-06 09:01:10.53	50.97	34.75	-40.9	-44.1	14.0	0.00e+00	0	56	0	632291328	53	5185
2026-01-06 09:01:11.54	50.57	34.72	-41.0	-44.2	13.9	6.80e-06	0	56	0	633339904	53	5268
2026-01-06 09:01:12.55	50.17	34.68	-41.5	-45.2	13.0	1.29e-05	0	56	0	635437056	53	5874
2026-01-06 09:01:13.56	49.78	34.65	-41.6	-45.5	12.7	3.58e-05	0	56	0	637534208	53	6063
2026-01-06 09:01:14.57	49.38	34.62	-41.8	-45.9	12.2	7.70e-05	0	56	0	639631360	54	6043
2026-01-06 09:01:15.58	48.99	34.58	-41.5	-45.3	12.8	6.56e-05	0	56	0	641728512	54	5608
2026-01-06 09:01:16.59	48.60	34.54	-41.3	-44.8	13.3	3.43e-05	0	56	0	642777088	54	5321
2026-01-06 09:01:17.60	48.21	34.51	-41.2	-44.6	13.5	2.97e-05	0	56	0	644874240	54	5196
2026-01-06 09:01:18.61	47.81	34.47	-41.4	-45.0	13.2	1.44e-05	0	56	0	646971392	54	5432
2026-01-06 09:01:19.62	47.42	34.42	-40.8	-44.1	14.1	6.10e-06	0	56	0	649068544	53	5163
2026-01-06 09:01:20.63	47.03	34.38	-40.9	-44.2	14.0	0.00e+00	0	56	0	651165696	53	5229
2026-01-06 09:01:21.64	46.65	34.34	-40.9	-44.1	14.1	1.50e-06	0	56	0	652214272	53	5163
2026-01-06 09:01:22.65	46.26	34.29	-41.0	-44.3	13.9	3.80e-06	0	56	0	654311424	53	5302
2026-01-06 09:01:23.66	45.87	34.24	-41.2	-44.7	13.4	8.30e-06	0	56	0	656408576	53	5546
2026-01-06 09:01:24.67	45.49	34.19	-41.3	-44.9	13.2	1.98e-05	0	56	0	658505728	53	5702
2026-01-06 09:01:25.68	45.11	34.14	-41.3	-44.9	13.2	1.29e-05	0	56	0	660602880	53	5717
2026-01-06 09:01:26.69	44.72	34.09	-41.0	-44.4	13.8	8.30e-06	0	56	0	661651456	53	5377
2026-01-06 09:01:27.70	44.34	34.04	-40.6	-43.6	14.5	2.20e-06	0	56	0	663748608	53	4889
2026-01-06 09:01:28.70	43.97	33.98	-40.3	-43.2	14.9	0.00e+00	0	56	0	665845760	52	4965
2026-01-06 09:01:29.71	43.59	33.93	-40.3	-43.2	15.0	0.00e+00	0	56	0	667942912	52	4930
2026-01-06 09:01:30.72	43.21	33.87	-40.3	-43.2	14.9	7.00e-07	0	56	0	670040064	52	4950
2026-01-06 09:01:31.73	42.83	33.81	-40.8	-44.0	14.2	0.00e+00	0	56	0	671088640	52	5439
2026-01-06 09:01:32.74	42.46	33.75	-41.2	-44.7	13.5	7.00e-07	0	56	0	673185792	52	5915
2026-01-06 09:01:33.75	42.09	33.69	-41.6	-45.6	12.6	4.88e-05	0	56	0	675282944	53	6185
2026-01-06 09:01:34.76	41.71	33.63	-41.7	-45.7	12.3	1.52e-04	0	56	0	677380096	54	5918
2026-01-06 09:01:35.77	41.34	33.57	-41.3	-44.9	13.2	8.62e-05	0	56	0	679477248	54	5387
2026-01-06 09:01:36.78	40.98	33.50	-40.7	-43.8	14.3	3.80e-06	0	56	0	680525824	53	5037
2026-01-06 09:01:37.79	40.61	33.44	-40.2	-43.0	15.2	0.00e+00	0	56	0	682622976	52	4838
2026-01-06 09:01:38.80	40.24	33.37	-40.4	-43.2	15.0	7.00e-07	0	56	0	684720128	51	5248
2026-01-06 09:01:39.81	39.88	33.30	-40.3	-43.2	15.1	0.00e+00	0	56	0	686817280	51	5231
2026-01-06 09:01:40.82	39.52	33.23	-40.7	-43.8	14.6	0.00e+00	0	56	0	688914432	51	5594
2026-01-06 09:01:41.82	39.16	33.16	-40.9	-44.1	14.0	3.00e-06	0	56	0	689963008	52	5512
2026-01-06 09:01:42.83	38.80	33.09	-41.2	-44.8	13.4	4.50e-06	0	56	0	692060160	52	5955
2026-01-06 09:01:43.84	38.44	33.02	-41.8	-46.1	12.1	5.26e-05	0	56	0	694157312	54	6136
2026-01-06 09:01:44.86	38.08	32.95	-42.0	-46.4	11.7	6.95e-04	0	56	0	696254464	54	6408
2026-01-06 09:01:45.87	37.73	32.87	-42.0	-46.5	11.6	1.06e-03	0	56	0	698351616	54	6491
2026-01-06 09:01:46.87	37.38	32.80	-42.1	-46.6	11.5	7.46e-04	0	56	0	700448768	54	6556
2026-01-06 09:01:47.88	37.03	32.72	-42.0	-46.4	11.7	7.65e-04	0	56	0	701497344	54	6366
2026-01-06 09:01:48.89	36.68	32.64	-42.0	-46.5	11.5	5.95e-04	0	56	0	703594496	54	6494
2026-01-06 09:01:49.90	36.33	32.56	-41.9	-46.2	11.9	5.23e-04	0	56	0	705691648	54	6245
2026-01-06 09:01:50.91	35.98	32.48	-41.7	-45.7	12.4	2.21e-04	0	56	0	707788800	54	5898
2026-01-06 09:01:51.92	35.64	32.40	-42.0	-46.6	11.4	6.66e-04	0	56	0	709885952	54	6509
2026-01-06 09:01:52.93	35.29	32.32	-42.0	-46.5	11.5	1.17e-03	0	56	0	710934528	54	6457
2026-01-06 09:01:53.94	34.95	32.24	-42.0	-46.5	11.5	8.56e-04	0	56	0	713031680	54	6455
2026-01-06 09:01:54.95	34.61	32.16	-41.6	-45.7	12.4	2.19e-04	0	56	0	715128832	54	5856
2026-01-06 09:01:55.96	34.28	32.07	-41.2	-44.8	13.3	7.47e-05	0	56	0	717225984	54	5319
2026-01-06 09:01:56.97	33.94	31.99	-41.0	-44.4	13.7	1.67e-05	0	56	0	719323136	54	5082
2026-01-06 09:01:57.98	33.61	31.90	-41.0	-44.4	13.7	9.10e-06	0	56	0	720371712	53	5359
2026-01-06 09:01:58.99	33.27	31.81	-40.7	-43.8	14.3	4.50e-06	0	56	0	722468864	53	5025
2026-01-06 09:02:00.00	32.94	31.72	-40.4	-43.4	14.8	1.50e-06	0	56	0	724566016	52	5088
2026-01-06 09:02:01.01	32.62	31.64	-40.2	-43.0	15.1	0.00e+00	0	56	0	726663168	52	4816
2026-01-06 09:02:02.02	32.29	31.55	-40.3	-43.2	14.9	0.00e+00	0	56	0	728760320	52	4981
2026-01-06 09:02:03.03	31.96	31.46	-40.8	-44.1	14.0	7.00e-07	0	56	0	729808896	52	5489
2026-01-06 09:02:04.04	31.64	31.37	-41.2	-44.9	13.2	1.75e-05	0	56	0	731906048	53	5679
2026-01-06 09:02:05.05	31.32	31.27	-41.4	-45.2	12.9	1.56e-04	0	56	0	734003200	54	5563
2026-01-06 09:02:06.06	31.00	31.18	-41.7	-45.7	12.4	1.38e-04	0	56	0	736100352	54	5899
2026-01-06 09:02:07.07	30.68	31.09	-41.3	-45.0	13.2	5.95e-05	0	56	0	738197504	54	5408
2026-01-06 09:02:08.09	30.36	30.99	-40.9	-44.1	14.0	4.50e-06	0	56	0	739246080	53	5216
2026-01-06 09:02:09.09	30.05	30.90	-40.3	-43.1	15.0	7.00e-07	0	56	0	741343232	52	4885
2026-01-06 09:02:10.10	29.74	30.81	-40.4	-43.4	14.8	0.00e+00	0	56	0	743440384	52	5056
2026-01-06 09:02:11.11	29.43	30.71	-40.8	-43.9	14.2	7.00e-07	0	56	0	745537536	52	5387
2026-01-06 09:02:12.12	29.12	30.61	-41.5	-45.3	12.8	1.29e-05	0	56	0	747634688	53	5988
2026-01-06 09:02:13.13	28.82	30.52	-41.9	-46.0	12.3	1.98e-04	0	56	0	748683264	54	6110
2026-01-06 09:02:14.14	28.51	30.42	-42.3	-46.9	11.4	9.39e-04	0	56	0	750780416	55	6374
2026-01-06 09:02:15.15	28.21	30.32	-42.2	-46.6	11.6	1.29e-03	0	56	0	752877568	55	6161
2026-01-06 09:02:16.16	27.91	30.22	-41.8	-45.7	12.5	4.34e-04	0	56	0	754974720	55	5577
2026-01-06 09:02:17.17	27.61	30.12	-41.3	-44.9	13.3	2.36e-05	0	56	0	757071872	54	5351
2026-01-06 09:02:18.18	27.31	30.02	-41.3	-44.8	13.6	1.75e-05	0	56	0	758120448	54	5304
2026-01-06 09:02:19.19	27.02	29.92	-41.4	-44.9	13.3	3.50e-05	0	56	0	760217600	54	5383
2026-01-06 09:02:20.20	26.72	29.82	-41.4	-45.0	13.3	1.06e-05	0	56	0	762314752	54	5420
2026-01-06 09:02:21.21	26.43	29.72	-41.3	-44.8	13.4	1.83e-05	0	56	0	764411904	54	5305
2026-01-06 09:02:22.22	26.14	29.62	-41.6	-45.3	12.9	1.90e-05	0	56	0	766509056	54	5649
2026-01-06 09:02:23.22	25.86	29.52	-41.8	-45.9	12.3	1.58e-04	0	56	0	768606208	54	5995
2026-01-06 09:02:24.23	25.57	29.42	-41.9	-45.9	12.4	2.43e-04	0	56	0	769654784	54	6009
2026-01-06 09:02:25.24	25.29	29.31	-41.8	-45.8	12.5	1.72e-04	0	56	0	771751936	54	5929
2026-01-06 09:02:26.25	25.00	29.21	-41.6	-45.3	13.0	2.28e-05	0	56	0	773849088	54	5609
2026-01-06 09:02:27.26	24.72	29.11	-41.3	-44.7	13.6	2.59e-05	0	56	0	775946240	54	5231
2026-01-06 09:02:28.27	24.45	29.00	-41.3	-44.7	13.6	9.10e-06	0	56	0	778043392	54	5222
2026-01-06 09:02:29.28	24.17	28.90	-41.2	-44.6	13.7	1.44e-05	0	56	0	779091968	54	5170
2026-01-06 09:02:30.29	23.89	28.79	-41.4	-44.8	13.5	1.06e-05	0	56	0	781189120	54	5304
2026-01-06 09:02:31.30	23.62	28.69	-41.4	-44.8	13.4	1.52e-05	0	56	0	783286272	54	5312
2026-01-06 09:02:32.31	23.35	28.58	-41.3	-44.7	13.5	9.10e-06	0	56	0	785383424	54	5243
2026-01-06 09:02:33.32	23.08	28.48	-41.3	-44.8	13.5	1.06e-05	0	56	0	787480576	54	5285
2026-01-06 09:02:34.33	22.81	28.37	-41.4	-44.9	13.3	1.67e-05	0	56	0	788529152	54	5381
2026-01-06 09:02:35.34	22.55	28.26	-41.2	-44.6	13.7	1.37e-05	0	56	0	790626304	54	5182
2026-01-06 09:02:36.35	22.28	28.16	-40.9	-43.9	14.3	1.50e-06	0	56	0	792723456	53	5098
2026-01-06 09:02:37.36	22.02	28.05	-40.4	-43.2	15.1	7.00e-07	0	56	0	794820608	52	4930
2026-01-06 09:02:38.37	21.76	27.94	-40.2	-42.8	15.6	0.00e+00	0	56	0	796917760	51	4995
2026-01-06 09:02:39.38	21.50	27.83	-40.0	-42.5	15.7	0.00e+00	0	56	0	797966336	51	4853
2026-01-06 09:02:40.39	21.24	27.73	-40.0	-42.5	15.8	0.00e+00	0	56	0	800063488	51	4846
2026-01-06 09:02:41.40	20.99	27.62	-40.2	-42.9	15.4	0.00e+00	0	56	0	802160640	51	5045
2026-01-06 09:02:42.41	20.73	27.51	-40.3	-43.0	15.3	0.00e+00	0	56	0	804257792	51	5135
2026-01-06 09:02:43.42	20.48	27.40	-40.4	-43.0	15.3	0.00e+00	0	56	0	806354944	51	5148
2026-01-06 09:02:44.43	20.23	27.29	-40.3	-42.9	15.4	0.00e+00	0	56	0	807403520	51	5074
2026-01-06 09:02:45.44	19.98	27.19	-40.4	-43.1	15.2	0.00e+00	0	56	0	809500672	51	5162
2026-01-06 09:02:46.45	19.74	27.08	-40.1	-42.7	15.6	0.00e+00	0	56	0	811597824	51	4946
2026-01-06 09:02:47.46	19.49	26.97	-39.9	-42.4	15.9	0.00e+00	0	56	0	813694976	51	4782
2026-01-06 09:02:48.47	19.25	26.86	-39.7	-42.0	16.2	0.00e+00	0	56	0	815792128	51	4578
2026-01-06 09:02:49.48	19.01	26.75	-39.7	-42.0	16.3	0.00e+00	0	56	0	816840704	51	4592
2026-01-06 09:02:50.49	18.77	26.64	-39.9	-42.3	16.0	0.00e+00	0	56	0	818937856	51	4721
2026-01-06 09:02:51.50	18.53	26.53	-40.1	-42.7	15.6	0.00e+00	0	56	0	821035008	51	4973
2026-01-06 09:02:52.51	18.29	26.42	-40.6	-43.5	14.8	0.00e+00	0	56	0	823132160	51	5418
2026-01-06 09:02:53.51	18.06	26.31	-40.6	-43.4	14.9	0.00e+00	0	56	0	825229312	51	5388
2026-01-06 09:02:54.52	17.83	26.20	-40.5	-43.3	15.0	7.00e-07	0	56	0	826277888	51	5282
2026-01-06 09:02:55.53	17.59	26.09	-40.1	-42.6	15.5	0.00e+00	0	56	0	828375040	51	4911
2026-01-06 09:02:56.54	17.36	25.98	-39.8	-42.2	16.0	0.00e+00	0	56	0	830472192	51	4687
2026-01-06 09:02:57.55	17.13	25.87	-39.5	-41.7	16.5	0.00e+00	0	56	0	832569344	51	4437
2026-01-06 09:02:58.56	16.91	25.76	-39.4	-41.7	16.6	0.00e+00	0	56	0	834666496	50	4681
2026-01-06 09:02:59.57	16.68	25.65	-39.3	-41.6	16.7	0.00e+00	0	56	0	836763648	50	4611
2026-01-06 09:03:00.58	16.46	25.54	-39.5	-41.8	16.5	0.00e+00	0	56	0	837812224	50	4718
2026-01-06 09:03:01.59	16.24	25.43	-39.6	-41.9	16.3	0.00e+00	0	56	0	839909376	50	4812
2026-01-06 09:03:02.60	16.02	25.32	-39.5	-41.8	16.4	0.00e+00	0	56	0	842006528	50	4758
2026-01-06 09:03:03.61	15.80	25.21	-39.4	-41.8	16.4	0.00e+00	0	56	0	844103680	50	4711
2026-01-06 09:03:04.62	15.58	25.10	-39.7	-42.1	16.2	0.00e+00	0	56	0	846200832	50	4875
2026-01-06 09:03:05.63	15.36	24.99	-39.8	-42.3	15.9	0.00e+00	0	56	0	847249408	50	4994
2026-01-06 09:03:06.64	15.15	24.88	-39.7	-42.2	16.1	0.00e+00	0	56	0	849346560	50	4940
2026-01-06 09:03:07.65	14.94	24.77	-39.7	-42.2	16.0	0.00e+00	0	56	0	851443712	50	4934
2026-01-06 09:03:08.66	14.72	24.66	-39.6	-41.9	16.3	0.00e+00	0	56	0	853540864	50	4799
2026-01-06 09:03:09.66	14.52	24.55	-39.6	-41.9	16.3	0.00e+00	0	56	0	855638016	50	4807
2026-01-06 09:03:10.68	14.31	24.44	-39.5	-41.7	16.5	0.00e+00	0	56	0	856686592	50	4695
2026-01-06 09:03:11.69	14.10	24.33	-39.6	-41.9	16.3	0.00e+00	0	56	0	858783744	50	4801
2026-01-06 09:03:12.70	13.89	24.22	-39.7	-42.0	16.2	0.00e+00	0	56	0	860880896	50	4865
2026-01-06 09:03:13.71	13.69	24.11	-39.7	-42.1	16.1	0.00e+00	0	56	0	862978048	50	4909
2026-01-06 09:03:14.72	13.49	24.00	-39.8	-42.2	16.1	0.00e+00	0	56	0	865075200	50	4934
2026-01-06 09:03:15.73	13.29	23.89	-40.0	-42.5	15.7	0.00e+00	0	56	0	866123776	50	5137
2026-01-06 09:03:16.74	13.09	23.79	-39.9	-42.5	15.8	0.00e+00	0	56	0	868220928	50	5105
2026-01-06 09:03:17.75	12.89	23.68	-40.0	-42.6	15.7	0.00e+00	0	56	0	870318080	50	5162
2026-01-06 09:03:18.76	12.69	23.57	-39.9	-42.4	15.8	0.00e+00	0	56	0	872415232	50	5078
2026-01-06 09:03:19.77	12.50	23.46	-40.0	-42.5	15.7	0.00e+00	0	56	0	874512384	50	5131
2026-01-06 09:03:20.78	12.30	23.35	-40.2	-42.8	15.4	0.00e+00	0	56	0	875560960	50	5319
2026-01-06 09:03:21.78	12.11	23.24	-40.4	-43.1	15.1	0.00e+00	0	56	0	877658112	51	5186
2026-01-06 09:03:22.79	11.92	23.13	-40.6	-43.5	14.7	0.00e+00	0	56	0	879755264	51	5463
2026-01-06 09:03:23.80	11.73	23.02	-40.6	-43.5	14.7	0.00e+00	0	56	0	881852416	51	5448
2026-01-06 09:03:24.81	11.54	22.91	-40.7	-43.6	14.5	1.50e-06	0	56	0	883949568	52	5181
2026-01-06 09:03:25.82	11.35	22.81	-40.6	-43.5	14.6	0.00e+00	0	56	0	884998144	52	5148
2026-01-06 09:03:26.83	11.17	22.70	-40.6	-43.5	14.7	7.00e-07	0	56	0	887095296	52	5105
2026-01-06 09:03:27.84	10.98	22.59	-40.1	-42.8	15.3	0.00e+00	0	56	0	889192448	52	4714
2026-01-06 09:03:28.85	10.80	22.48	-40.4	-43.2	14.9	0.00e+00	0	56	0	891289600	52	4937
2026-01-06 09:03:29.86	10.62	22.37	-40.6	-43.5	14.7	0.00e+00	0	56	0	893386752	52	5116
2026-01-06 09:03:30.87	10.44	22.26	-40.6	-43.5	14.6	1.50e-06	0	56	0	894435328	52	5125
2026-01-06 09:03:31.88	10.26	22.16	-40.6	-43.5	14.6	1.50e-06	0	56	0	896532480	52	5144
2026-01-06 09:03:32.89	10.08	22.05	-40.8	-44.0	14.2	7.00e-07	0	56	0	898629632	52	5418
2026-01-06 09:03:33.89	9.90	21.94	-40.7	-43.7	14.3	1.50e-06	0	56	0	900726784	52	5276
2026-01-06 09:03:34.90	9.73	21.84	-40.7	-43.7	14.3	7.00e-07	0	56	0	902823936	52	5275
2026-01-06 09:03:35.91	9.55	21.73	-40.8	-44.0	14.0	1.50e-06	0	56	0	904921088	52	5432
2026-01-06 09:03:36.92	9.38	21.62	-40.8	-43.9	14.1	3.80e-06	0	56	0	905969664	52	5376
2026-01-06 09:03:37.93	9.21	21.52	-41.0	-44.3	13.7	4.50e-06	0	56	0	908066816	52	5631
2026-01-06 09:03:38.94	9.03	21.41	-41.0	-44.2	13.8	3.80e-06	0	56	0	910163968	52	5575
2026-01-06 09:03:39.95	8.86	21.30	-41.1	-44.5	13.5	1.22e-05	0	56	0	912261120	52	5740
2026-01-06 09:03:40.96	8.70	21.20	-41.0	-44.3	13.7	2.21e-05	0	56	0	914358272	53	5319
2026-01-06 09:03:41.97	8.53	21.09	-40.9	-44.1	14.0	7.60e-06	0	56	0	915406848	53	5166
2026-01-06 09:03:42.98	8.36	20.98	-40.4	-43.3	14.6	7.00e-07	0	56	0	917504000	52	5036
2026-01-06 09:03:43.99	8.20	20.88	-40.1	-42.9	15.2	0.00e+00	0	56	0	919601152	52	4763
2026-01-06 09:03:45.00	8.03	20.77	-39.9	-42.4	15.6	0.00e+00	0	56	0	921698304	51	4804
2026-01-06 09:03:46.01	7.87	20.67	-39.7	-42.2	15.9	0.00e+00	0	56	0	923795456	51	4657
2026-01-06 09:03:47.02	7.71	20.56	-39.9	-42.5	15.5	0.00e+00	0	56	0	924844032	51	4846
2026-01-06 09:03:48.03	7.55	20.46	-39.9	-42.4	15.6	0.00e+00	0	56	0	926941184	51	4799
2026-01-06 09:03:49.04	7.39	20.35	-40.1	-42.8	15.3	0.00e+00	0	56	0	929038336	51	5030
2026-01-06 09:03:50.05	7.23	20.25	-40.3	-43.1	15.0	0.00e+00	0	56	0	931135488	51	5160
2026-01-06 09:03:51.06	7.07	20.14	-40.3	-43.1	14.9	0.00e+00	0	56	0	933232640	51	5206
2026-01-06 09:03:52.07	6.92	20.04	-40.1	-42.7	15.3	0.00e+00	0	56	0	934281216	51	4970
2026-01-06 09:03:53.08	6.76	19.94	-40.1	-42.8	15.2	0.00e+00	0	56	0	936378368	51	5036
2026-01-06 09:03:54.09	6.61	19.83	-39.9	-42.4	15.6	0.00e+00	0	56	0	938475520	51	4791
2026-01-06 09:03:55.10	6.46	19.73	-39.8	-42.3	15.7	0.00e+00	0	56	0	940572672	51	4743
2026-01-06 09:03:56.11	6.30	19.63	-39.6	-42.0	16.0	0.00e+00	0	56	0	942669824	51	4584
2026-01-06 09:03:57.12	6.15	19.52	-39.5	-41.9	16.1	0.00e+00	0	56	0	943718400	50	4774
2026-01-06 09:03:58.13	6.00	19.42	-39.5	-41.9	16.1	0.00e+00	0	56	0	945815552	50	4793
2026-01-06 09:03:59.14	5.85	19.32	-39.6	-42.1	15.9	0.00e+00	0	56	0	947912704	50	4877
2026-01-06 09:04:00.15	5.71	19.22	-39.9	-42.5	15.5	0.00e+00	0	56	0	950009856	50	5119
2026-01-06 09:04:01.16	5.56	19.11	-40.0	-42.7	15.3	0.00e+00	0	56	0	952107008	50	5222
2026-01-06 09:04:02.17	5.41	19.01	-40.3	-43.2	14.8	0.00e+00	0	56	0	953155584	51	5257
2026-01-06 09:04:03.18	5.27	18.91	-40.7	-43.7	14.2	7.00e-07	0	56	0	955252736	51	5577
2026-01-06 09:04:04.19	5.13	18.81	-40.9	-44.3	13.7	9.10e-06	0	56	0	957349888	52	5600
2026-01-06 09:04:05.20	4.98	18.71	-41.3	-44.9	12.9	1.75e-05	0	56	0	959447040	53	5710
2026-01-06 09:04:06.21	4.84	18.61	-41.5	-45.5	12.3	5.56e-05	0	56	0	961544192	53	6107
2026-01-06 09:04:07.22	4.70	18.51	-41.9	-46.4	11.4	7.74e-04	0	56	0	962592768	54	6373
2026-01-06 09:04:08.23	4.56	18.41	-41.8	-46.2	11.6	1.00e-03	0	56	0	964689920	54	6228
2026-01-06 09:04:09.24	4.42	18.31	-41.9	-46.4	11.3	1.13e-03	0	56	0	966787072	54	6406
2026-01-06 09:04:10.25	4.28	18.21	-41.7	-45.9	11.9	6.99e-04	0	56	0	968884224	54	6032
2026-01-06 09:04:11.26	4.15	18.11	-41.4	-45.4	12.4	3.13e-04	0	56	0	970981376	54	5664
2026-01-06 09:04:12.26	4.01	18.01	-41.0	-44.5	13.2	4.88e-05	0	56	0	973078528	54	5132
2026-01-06 09:04:13.27	3.88	17.91	-40.7	-44.0	13.8	6.80e-06	0	56	0	974127104	53	5103
2026-01-06 09:04:14.29	3.74	17.81	-40.4	-43.5	14.2	7.00e-07	0	56	0	976224256	52	5144
2026-01-06 09:04:15.30	3.61	17.71	-40.2	-43.1	14.7	0.00e+00	0	56	0	978321408	52	4877
2026-01-06 09:04:16.31	3.47	17.61	-40.1	-43.0	14.6	0.00e+00	0	56	0	980418560	52	4858
2026-01-06 09:04:17.32	3.34	17.51	-40.2	-43.2	14.5	7.00e-07	0	56	0	982515712	52	4945
2026-01-06 09:04:18.33	3.21	17.41	-40.4	-43.4	14.3	0.00e+00	0	56	0	983564288	52	5086
2026-01-06 09:04:19.34	3.08	17.32	-40.7	-43.9	13.8	3.80e-06	0	56	0	985661440	52	5399
2026-01-06 09:04:20.35	2.95	17.22	-40.8	-44.2	13.4	6.10e-06	0	56	0	987758592	52	5581
2026-01-06 09:04:21.36	2.82	17.12	-41.0	-44.5	13.1	1.90e-05	0	56	0	989855744	52	5767
2026-01-06 09:04:22.37	2.70	17.02	-41.1	-44.8	12.8	2.89e-05	0	56	0	991952896	52	5981
2026-01-06 09:04:23.38	2.57	16.93	-41.0	-44.7	12.9	4.73e-05	0	56	0	993001472	52	5865
2026-01-06 09:04:24.39	2.44	16.83	-40.8	-44.2	13.4	1.37e-05	0	56	0	995098624	52	5541
2026-01-06 09:04:25.40	2.32	16.73	-40.5	-43.8	13.8	1.14e-05	0	56	0	997195776	52	5289
2026-01-06 09:04:26.41	2.20	16.64	-40.4	-43.5	14.0	7.00e-07	0	56	0	999292928	52	5128
2026-01-06 09:04:27.42	2.07	16.54	-40.0	-42.9	14.6	7.00e-07	0	56	0	1001390080	52	4799
2026-01-06 09:04:28.43	1.95	16.44	-40.1	-43.0	14.6	0.00e+00	0	56	0	1002438656	51	5155
2026-01-06 09:04:29.44	1.83	16.35	-39.9	-42.8	14.8	0.00e+00	0	56	0	1004535808	51	5000
2026-01-06 09:04:30.45	1.71	16.25	-40.0	-42.9	14.7	0.00e+00	0	56	0	1006632960	51	5044
2026-01-06 09:04:31.46	1.59	16.16	-40.0	-42.9	14.5	1.50e-06	0	56	0	1008730112	51	5088
2026-01-06 09:04:32.47	1.47	16.06	-40.2	-43.3	14.2	7.00e-07	0	56	0	1010827264	51	5289
2026-01-06 09:04:33.48	1.35	15.97	-40.3	-43.5	14.0	1.50e-06	0	56	0	1011875840	51	5405
2026-01-06 09:04:34.49	1.23	15.88	-40.3	-43.6	13.8	2.20e-06	0	56	0	1013972992	51	5467
2026-01-06 09:04:35.50	1.11	15.78	-40.4	-43.7	13.6	5.30e-06	0	56	0	1016070144	51	5582
2026-01-06 09:04:36.51	1.00	15.69	-40.5	-43.8	13.5	1.90e-05	0	56	0	1018167296	51	5646
2026-01-06 09:04:37.52	0.88	15.59	-40.3	-43.6	13.7	7.60e-06	0	56	0	1020264448	51	5497
2026-01-06 09:04:38.53	0.77	15.50	-40.4	-43.8	13.4	9.10e-06	0	56	0	1021313024	51	5652
2026-01-06 09:04:39.54	0.65	15.41	-40.5	-44.1	13.1	1.14e-05	0	56	0	1023410176	51	5814
2026-01-06 09:04:40.55	0.54	15.31	-40.3	-43.7	13.4	7.60e-06	0	56	0	1025507328	51	5559
2026-01-06 09:04:41.56	0.43	15.22	-40.2	-43.6	13.5	9.10e-06	0	56	0	1027604480	51	5493
2026-01-06 09:04:42.57	0.32	15.13	-40.4	-43.9	13.1	2.67e-05	0	56	0	1029701632	51	5720
2026-01-06 09:04:43.58	0.21	15.04	-40.4	-44.1	12.9	4.57e-05	0	56	0	1030750208	51	5805
2026-01-06 09:04:44.58	0.10	14.95	-40.3	-43.9	13.0	2.89e-05	0	56	0	1032847360	51	5674
2026-01-06 09:04:45.59	359.99	14.85	-40.2	-43.7	13.1	2.82e-05	0	56	0	1034944512	51	5561
2026-01-06 09:04:46.60	359.88	14.76	-40.1	-43.6	13.2	3.05e-05	0	56	0	1037041664	51	5523
2026-01-06 09:04:47.61	359.77	14.67	-40.1	-43.7	13.0	2.82e-05	0	56	0	1039138816	51	5547
2026-01-06 09:04:48.62	359.66	14.58	-40.0	-43.5	13.1	2.28e-05	0	56	0	1041235968	51	5462
2026-01-06 09:04:49.63	359.55	14.49	-40.0	-43.6	13.1	2.59e-05	0	56	0	1042284544	51	5476
2026-01-06 09:04:50.64	359.45	14.40	-39.9	-43.4	13.2	3.35e-05	0	56	0	1044381696	51	5379
2026-01-06 09:04:51.65	359.34	14.31	-39.8	-43.3	13.2	3.35e-05	0	56	0	1046478848	51	5302
2026-01-06 09:04:52.66	359.24	14.22	-39.6	-42.8	13.7	1.75e-05	0	56	0	1048576000	51	5031
2026-01-06 09:04:53.66	359.13	14.13	-39.5	-42.7	13.8	8.30e-06	0	56	0	1050673152	50	5261
2026-01-06 09:04:54.67	359.03	14.04	-39.6	-43.0	13.4	9.10e-06	0	56	0	1051721728	50	5433
2026-01-06 09:04:55.68	358.93	13.95	-39.6	-43.2	13.1	1.52e-05	0	56	0	1053818880	50	5558
2026-01-06 09:04:56.69	358.83	13.86	-39.8	-43.7	12.5	4.88e-05	0	56	0	1055916032	50	5915
2026-01-06 09:04:57.70	358.72	13.77	-39.9	-44.1	12.1	1.59e-04	0	56	0	1058013184	50	6145
2026-01-06 09:04:58.71	358.62	13.68	-40.2	-44.8	11.2	1.14e-03	0	56	0	1060110336	50	6672
2026-01-06 09:04:59.72	358.52	13.60	-40.5	-45.6	10.2	3.93e-03	0	56	0	1061158912	51	6945
2026-01-06 09:05:00.73	358.42	13.51	-40.7	-46.3	9.4	1.11e-02	0	56	0	1063256064	51	7518
2026-01-06 09:05:01.74	358.32	13.42	-40.7	-46.9	8.6	2.55e-02	0	56	0	1065353216	52	7563
2026-01-06 09:05:02.75	358.22	13.33	-40.8	-47.4	8.0	5.45e-02	0	56	0	1067450368	52	8011
2026-01-06 09:05:03.76	358.13	13.25	-40.8	-47.5	7.9	7.12e-02	0	56	0	1069547520	52	8097
2026-01-06 09:05:04.77	358.03	13.16	-40.8	-47.7	7.6	8.83e-02	0	56	0	1070596096	52	8300
2026-01-06 09:05:05.78	357.93	13.07	-40.8	-47.6	7.7	9.20e-02	0	56	0	1072693248	52	8224
2026-01-06 09:05:06.79	357.84	12.98	-40.7	-47.4	7.8	7.23e-02	0	56	0	1074790400	52	8009
2026-01-06 09:05:07.80	357.74	12.90	-40.6	-47.3	7.7	8.12e-02	0	56	0	1076887552	52	7990
2026-01-06 09:05:08.81	357.65	12.81	-40.4	-47.5	7.4	9.70e-02	0	56	0	1078984704	52	8140
2026-01-06 09:05:09.82	357.55	12.73	-40.4	-47.5	7.5	1.10e-01	0	56	0	1080033280	52	8110
2026-01-06 09:05:10.83	357.46	12.64	-40.3	-47.3	7.7	1.01e-01	0	56	0	1082130432	52	7967
2026-01-06 09:05:11.84	357.36	12.55	-40.2	-46.7	8.4	6.97e-02	0	56	0	1084227584	52	7395
2026-01-06 09:05:12.85	357.27	12.47	-39.9	-46.0	9.1	2.79e-02	0	56	0	1086324736	51	7270
2026-01-06 09:05:13.86	357.18	12.38	-39.6	-45.9	9.0	2.14e-02	0	56	0	1088421888	51	7142
2026-01-06 09:05:14.87	357.09	12.30	-39.6	-46.1	8.6	2.71e-02	0	56	0	1089470464	51	7354
2026-01-06 09:05:15.88	357.00	12.21	-39.7	-47.2	7.4	7.63e-02	0	56	0	1091567616	51	8300
2026-01-06 09:05:16.89	356.90	12.13	-39.8	-48.2	6.4	1.72e-01	0	56	0	1093664768	51	9386
2026-01-06 09:05:17.90	356.81	12.04	-39.8	-49.4	5.4	3.54e-01	0	56	0	1095761920	51	10679
2026-01-06 09:05:18.91	356.73	11.96	-39.8	-50.3	4.8	7.10e-01	0	56	0	1097859072	51	11870
2026-01-06 09:05:19.92	356.64	11.88	-39.9	-51.2	4.4	1.01e+00	0	56	0	1098907648	51	13150
2026-01-06 09:05:20.93	356.55	11.79	-39.9	-51.8	4.1	1.36e+00	0	56	0	1099956224	51	14205
2026-01-06 09:05:21.94	356.46	11.71	-39.9	-52.7	3.8	1.47e+00	0	56	104	1099956224	51	15659
2026-01-06 09:05:22.95	356.37	11.63	-39.9	-53.3	3.8	1.49e+00	0	56	104	1099956224	51	16774
2026-01-06 09:05:23.96	356.29	11.54	-39.9	-53.7	3.8	1.49e+00	0	56	104	1099956224	51	17631
2026-01-06 09:05:24.97	356.20	11.46	-39.9	-54.0	3.8	1.49e+00	0	56	104	1099956224	51	18238
2026-01-06 09:05:25.98	356.11	11.38	-39.9	-54.3	3.8	1.49e+00	0	56	104	1099956224	51	18829
2026-01-06 09:05:26.99	356.03	11.30	-39.9	-54.4	3.8	1.49e+00	0	56	104	1099956224	51	19133
2026-01-06 09:05:28.00	355.94	11.21	-39.9	-54.5	3.8	1.49e+00	0	56	104	1099956224	51	19337
2026-01-06 09:05:29.01	355.86	11.13	-39.8	-54.5	3.8	1.49e+00	0	56	104	1099956224	51	19206
2026-01-06 09:05:30.01	355.78	11.05	-40.0	-54.6	3.8	1.49e+00	0	56	104	1099956224	51	19402
2026-01-06 09:05:31.02	355.69	10.97	-40.1	-54.8	3.8	1.49e+00	0	56	104	1099956224	51	19878
2026-01-06 09:05:32.03	355.61	10.89	-39.1	-54.4	3.8	1.49e+00	0	56	104	1099956224	50	20167
2026-01-06 09:05:33.04	355.53	10.81	-40.1	-54.7	3.8	1.49e+00	0	56	104	1099956224	50	20978
2026-01-06 09:05:34.05	355.44	10.73	-39.3	-54.4	3.8	1.49e+00	0	56	104	1099956224	50	20183
2026-01-06 09:05:35.06	355.36	10.64	-39.9	-54.5	3.8	1.49e+00	0	56	104	1099956224	50	20336
2026-01-06 09:05:36.07	355.28	10.56	-39.8	-54.5	3.8	1.49e+00	0	56	104	1099956224	50	20338
2026-01-06 09:05:37.08	355.20	10.48	-39.9	-54.4	3.8	1.49e+00	0	56	104	1099956224	50	20278
2026-01-06 09:05:38.09	355.12	10.40	-39.8	-54.5	3.8	1.49e+00	0	56	104	1099956224	50	20305
2026-01-06 09:05:39.10	355.04	10.32	-40.0	-54.5	3.8	1.49e+00	0	56	104	1099956224	50	20526
2026-01-06 09:05:40.11	354.96	10.24	-39.7	-54.5	3.8	1.49e+00	0	56	104	1099956224	50	20352
2026-01-06 09:05:41.12	354.88	10.16	-40.0	-54.6	3.8	1.49e+00	0	56	104	1099956224	50	20557
2026-01-06 09:05:42.13	354.81	10.09	-39.8	-54.5	3.8	1.49e+00	0	56	104	1099956224	50	20335
2026-01-06 09:05:43.14	354.73	10.01	-39.9	-54.5	3.8	1.49e+00	0	56	104	1099956224	50	20368
2026-01-06 09:05:44.15	354.65	9.93	-39.8	-54.5	3.8	1.49e+00	0	56	104	1099956224	50	20309
2026-01-06 09:05:45.16	354.57	9.85	-39.9	-54.5	3.8	1.49e+00	0	56	104	1099956224	50	20438
2026-01-06 09:05:46.17	354.50	9.77	-39.9	-54.5	3.8	1.49e+00	0	56	104	1099956224	50	20361
2026-01-06 09:05:47.18	354.42	9.69	-39.9	-54.5	3.8	1.49e+00	0	56	104	1099956224	50	20388
2026-01-06 09:05:48.19	354.34	9.61	-39.9	-54.5	3.8	1.49e+00	0	56	104	1099956224	50	20495
2026-01-06 09:05:49.20	354.27	9.54	-39.9	-54.5	3.8	1.49e+00	0	56	104	1099956224	50	20422
2026-01-06 09:05:50.21	354.19	9.46	-40.0	-54.6	3.8	1.49e+00	0	56	104	1099956224	50	20644
