passes_logs/2026/01/06/R2.0S_Moscow/R2.0S_Moscow__20260106_051044_FENGYUN_3E_rec.log

#Pass ID: 20260106_051044_FENGYUN 3E
#Satellite: FENGYUN 3E
#Configuration: FENGYUN 3E
#almurnet v.1.7.20251203
#Start time: 2026-01-06 05:10:46

#Version: 2.2.20231116
#Station: R2.0S_Moscow
#Location: 37.707566 lon 55.798166 lat
#TLE: 1 49008U 21062A   26005.56299987  .00000339  00000+0  18069-3 0  9991
#TLE: 2 49008  98.7472  10.8019 0001562 158.0357 202.0886 14.19884907233502

#Time	Az	El	Level	Level2	SNR	BER	BlckErr	Temp	State	Recorded	gain1	gain2
2026-01-06 05:10:46.38	11.45	2.09	-40.1	-51.1	3.8	8.45e-01	0	47	0	0	51	12299
2026-01-06 05:10:47.39	11.40	2.15	-40.1	-51.1	3.8	8.46e-01	0	47	104	0	51	12306
2026-01-06 05:10:48.40	11.35	2.21	-40.1	-51.1	3.8	8.47e-01	0	47	104	0	51	12326
2026-01-06 05:10:49.41	11.30	2.27	-40.1	-51.1	3.8	8.45e-01	0	48	104	0	51	12333
2026-01-06 05:10:50.42	11.25	2.33	-40.1	-51.1	3.8	8.46e-01	0	48	104	0	51	12327
2026-01-06 05:10:51.43	11.20	2.39	-40.1	-51.1	3.8	8.47e-01	0	48	104	0	51	12334
2026-01-06 05:10:52.45	11.15	2.45	-40.1	-51.1	3.8	8.46e-01	0	48	104	0	51	12304
2026-01-06 05:10:53.46	11.10	2.51	-40.1	-51.1	3.8	8.46e-01	0	48	104	0	51	12345
2026-01-06 05:10:54.47	11.05	2.57	-40.1	-51.1	3.8	8.45e-01	0	48	104	0	51	12311
2026-01-06 05:10:55.48	11.00	2.64	-40.1	-51.1	3.8	8.46e-01	0	48	104	0	51	12292
2026-01-06 05:10:56.49	10.95	2.70	-40.1	-51.1	3.8	8.46e-01	0	48	104	0	51	12278
2026-01-06 05:10:57.50	10.90	2.76	-40.1	-51.1	3.8	8.45e-01	0	48	104	0	51	12339
2026-01-06 05:10:58.51	10.85	2.82	-40.1	-51.1	3.8	8.45e-01	0	48	104	0	51	12322
2026-01-06 05:10:59.52	10.80	2.88	-40.1	-51.1	3.8	8.46e-01	0	48	104	0	51	12306
2026-01-06 05:11:00.53	10.75	2.94	-40.1	-51.1	3.8	8.47e-01	0	48	104	0	51	12285
2026-01-06 05:11:01.54	10.70	3.01	-40.1	-51.1	3.8	8.47e-01	0	48	104	0	51	12323
2026-01-06 05:11:02.55	10.64	3.07	-40.1	-51.1	3.8	8.46e-01	0	48	104	0	51	12294
2026-01-06 05:11:03.57	10.59	3.13	-40.1	-51.1	3.8	8.46e-01	0	49	104	0	51	12327
2026-01-06 05:11:04.58	10.54	3.19	-40.1	-51.1	3.8	8.47e-01	0	48	104	0	51	12319
2026-01-06 05:11:05.59	10.49	3.26	-40.1	-51.1	3.8	8.45e-01	0	49	104	0	51	12285
2026-01-06 05:11:06.60	10.43	3.32	-40.1	-51.1	3.8	8.45e-01	0	49	104	0	51	12346
2026-01-06 05:11:07.61	10.38	3.38	-40.1	-51.1	3.8	8.46e-01	0	49	104	0	51	12310
2026-01-06 05:11:08.62	10.33	3.44	-40.1	-51.1	3.8	8.46e-01	0	49	104	0	51	12327
2026-01-06 05:11:09.63	10.27	3.51	-40.1	-51.1	3.8	8.46e-01	0	49	104	0	51	12298
2026-01-06 05:11:10.64	10.22	3.57	-40.1	-51.1	3.8	8.46e-01	0	49	104	0	51	12285
2026-01-06 05:11:11.65	10.16	3.63	-40.1	-51.1	3.8	8.45e-01	0	49	104	0	51	12323
2026-01-06 05:11:12.66	10.11	3.70	-40.1	-51.1	3.8	8.47e-01	0	49	104	0	51	12288
2026-01-06 05:11:13.68	10.05	3.76	-40.1	-51.1	3.8	8.47e-01	0	49	104	0	51	12241
2026-01-06 05:11:14.69	10.00	3.83	-40.1	-51.1	3.8	8.46e-01	0	49	104	0	51	12316
2026-01-06 05:11:15.70	9.94	3.89	-40.1	-51.1	3.8	8.46e-01	0	49	104	0	51	12313
2026-01-06 05:11:16.71	9.89	3.95	-40.1	-51.1	3.8	8.46e-01	0	49	104	0	51	12278
2026-01-06 05:11:17.72	9.83	4.02	-40.1	-51.1	3.8	8.45e-01	0	50	104	0	51	12281
2026-01-06 05:11:18.73	9.78	4.08	-40.1	-51.1	3.8	8.47e-01	0	49	104	0	51	12299
2026-01-06 05:11:19.74	9.72	4.15	-40.1	-51.1	3.8	8.46e-01	0	50	104	0	51	12296
2026-01-06 05:11:20.75	9.66	4.21	-40.1	-51.1	3.8	8.47e-01	0	50	104	0	51	12297
2026-01-06 05:11:21.76	9.61	4.27	-40.1	-51.1	3.8	8.47e-01	0	50	104	0	51	12308
2026-01-06 05:11:22.77	9.55	4.34	-40.1	-51.1	3.8	8.46e-01	0	50	104	0	51	12262
2026-01-06 05:11:23.79	9.49	4.40	-40.1	-51.1	3.8	8.46e-01	0	50	104	0	51	12285
2026-01-06 05:11:24.80	9.44	4.47	-40.1	-51.1	3.8	8.45e-01	0	50	104	0	51	12326
2026-01-06 05:11:25.81	9.38	4.53	-40.1	-51.1	3.8	8.47e-01	0	50	104	0	51	12276
2026-01-06 05:11:26.82	9.32	4.60	-40.1	-51.1	3.8	8.46e-01	0	50	104	0	51	12269
2026-01-06 05:11:27.83	9.26	4.66	-40.1	-51.1	3.8	8.45e-01	0	50	104	0	51	12243
2026-01-06 05:11:28.84	9.20	4.73	-40.1	-51.1	3.8	8.47e-01	0	50	104	0	51	12335
2026-01-06 05:11:29.85	9.14	4.80	-40.1	-51.1	3.8	8.46e-01	0	50	104	0	51	12352
2026-01-06 05:11:30.86	9.08	4.86	-40.1	-51.1	3.8	8.46e-01	0	50	104	0	51	12298
2026-01-06 05:11:31.87	9.02	4.93	-40.1	-51.1	3.8	8.46e-01	0	50	104	0	51	12322
2026-01-06 05:11:32.88	8.96	4.99	-40.1	-51.1	3.8	8.47e-01	0	50	104	0	51	12253
2026-01-06 05:11:33.89	8.90	5.06	-40.1	-51.1	3.8	8.46e-01	0	50	104	0	51	12303
2026-01-06 05:11:34.91	8.84	5.13	-40.1	-51.1	3.8	8.46e-01	0	51	104	0	51	12305
2026-01-06 05:11:35.92	8.78	5.19	-40.1	-51.1	3.8	8.46e-01	0	50	104	0	51	12297
2026-01-06 05:11:36.93	8.72	5.26	-40.1	-51.1	3.8	8.46e-01	0	51	104	0	51	12289
2026-01-06 05:11:37.94	8.66	5.33	-40.1	-51.1	3.8	8.46e-01	0	51	104	0	51	12307
2026-01-06 05:11:38.95	8.60	5.39	-40.1	-51.1	3.8	8.46e-01	0	51	104	0	51	12325
2026-01-06 05:11:39.96	8.54	5.46	-40.1	-51.1	3.8	8.46e-01	0	51	104	0	51	12322
2026-01-06 05:11:40.97	8.47	5.53	-40.1	-51.1	3.8	8.46e-01	0	51	104	0	51	12299
2026-01-06 05:11:41.98	8.41	5.59	-40.1	-51.1	3.8	8.46e-01	0	51	104	0	51	12305
2026-01-06 05:11:42.99	8.35	5.66	-40.1	-51.1	3.8	8.47e-01	0	51	104	0	51	12315
2026-01-06 05:11:44.00	8.29	5.73	-40.1	-51.1	3.8	8.45e-01	0	51	104	0	51	12327
2026-01-06 05:11:45.02	8.22	5.80	-40.1	-51.1	3.8	8.46e-01	0	51	104	0	51	12266
2026-01-06 05:11:46.03	8.16	5.86	-40.1	-51.1	3.8	8.45e-01	0	51	104	0	51	12341
2026-01-06 05:11:47.04	8.09	5.93	-40.1	-51.1	3.8	8.45e-01	0	51	104	0	51	12296
2026-01-06 05:11:48.05	8.03	6.00	-40.1	-51.1	3.8	8.46e-01	0	51	104	0	51	12344
2026-01-06 05:11:49.06	7.96	6.07	-40.1	-51.1	3.8	8.46e-01	0	51	104	0	51	12350
2026-01-06 05:11:50.07	7.90	6.14	-40.1	-51.1	3.8	8.47e-01	0	51	104	0	51	12302
2026-01-06 05:11:51.08	7.83	6.20	-40.1	-51.1	3.8	8.45e-01	0	51	104	0	51	12313
2026-01-06 05:11:52.09	7.77	6.27	-40.1	-51.1	3.8	8.47e-01	0	51	104	0	51	12295
2026-01-06 05:11:53.10	7.70	6.34	-40.1	-51.1	3.8	8.46e-01	0	51	104	0	51	12290
2026-01-06 05:11:54.11	7.64	6.41	-40.1	-51.1	3.8	8.46e-01	0	52	104	0	51	12303
2026-01-06 05:11:55.13	7.57	6.48	-40.1	-51.1	3.8	8.47e-01	0	52	104	0	51	12291
2026-01-06 05:11:56.14	7.50	6.55	-40.1	-51.1	3.8	8.46e-01	0	52	104	0	51	12343
2026-01-06 05:11:57.15	7.43	6.62	-40.1	-51.1	3.8	8.46e-01	0	52	104	0	51	12312
2026-01-06 05:11:58.16	7.37	6.69	-40.1	-51.1	3.8	8.46e-01	0	52	104	0	51	12303
2026-01-06 05:11:59.17	7.30	6.76	-40.1	-51.1	3.8	8.46e-01	0	52	104	0	51	12332
2026-01-06 05:12:00.17	7.23	6.83	-40.1	-51.1	3.8	8.46e-01	0	52	104	0	51	12310
2026-01-06 05:12:01.17	7.16	6.90	-40.1	-51.1	3.8	8.46e-01	0	52	104	0	51	12285
2026-01-06 05:12:02.18	7.09	6.97	-40.1	-51.1	3.8	8.46e-01	0	52	104	0	51	12328
2026-01-06 05:12:03.19	7.02	7.04	-40.1	-51.1	3.8	8.46e-01	0	52	104	0	51	12359
2026-01-06 05:12:04.20	6.95	7.11	-40.1	-51.1	3.8	8.46e-01	0	52	104	0	51	12292
2026-01-06 05:12:05.21	6.88	7.18	-40.1	-51.1	3.8	8.45e-01	0	52	104	0	51	12320
2026-01-06 05:12:06.22	6.81	7.25	-40.1	-51.1	3.8	8.46e-01	0	52	104	0	51	12299
2026-01-06 05:12:07.23	6.74	7.32	-40.1	-51.1	3.8	8.47e-01	0	52	104	0	51	12327
2026-01-06 05:12:08.24	6.67	7.39	-40.1	-51.1	3.8	8.45e-01	0	52	104	0	51	12299
2026-01-06 05:12:09.26	6.60	7.46	-40.1	-51.1	3.8	8.46e-01	0	52	104	0	51	12364
2026-01-06 05:12:10.27	6.53	7.53	-40.1	-51.1	3.8	8.46e-01	0	52	104	0	51	12263
2026-01-06 05:12:11.28	6.45	7.60	-40.1	-51.1	3.8	8.46e-01	0	52	104	0	51	12294
2026-01-06 05:12:12.29	6.38	7.67	-40.1	-51.1	3.8	8.47e-01	0	52	104	0	51	12313
2026-01-06 05:12:13.30	6.31	7.75	-40.1	-51.1	3.8	8.46e-01	0	52	104	0	51	12328
2026-01-06 05:12:14.31	6.23	7.82	-40.1	-51.1	3.8	8.46e-01	0	52	104	0	51	12331
2026-01-06 05:12:15.32	6.16	7.89	-40.1	-51.1	3.8	8.47e-01	0	52	104	0	51	12357
2026-01-06 05:12:16.33	6.09	7.96	-40.1	-51.1	3.8	8.45e-01	0	52	104	0	51	12289
2026-01-06 05:12:17.34	6.01	8.03	-40.1	-51.1	3.8	8.47e-01	0	53	104	0	51	12345
2026-01-06 05:12:18.35	5.94	8.11	-40.2	-51.2	3.8	8.46e-01	0	52	104	0	51	12378
2026-01-06 05:12:19.37	5.86	8.18	-40.2	-51.2	3.8	8.46e-01	0	52	104	0	51	12419
2026-01-06 05:12:20.38	5.78	8.25	-40.2	-51.1	3.8	8.47e-01	0	52	104	0	51	12366
2026-01-06 05:12:21.39	5.71	8.33	-40.2	-51.2	3.8	8.45e-01	0	53	104	0	51	12391
2026-01-06 05:12:22.40	5.63	8.40	-40.2	-51.2	3.8	8.47e-01	0	53	104	0	51	12436
2026-01-06 05:12:23.41	5.55	8.47	-40.2	-51.2	3.8	8.46e-01	0	53	104	0	51	12436
2026-01-06 05:12:24.42	5.48	8.55	-40.2	-51.2	3.8	8.46e-01	0	53	104	0	51	12424
2026-01-06 05:12:25.43	5.40	8.62	-40.2	-51.1	3.8	8.46e-01	0	53	104	0	51	12374
2026-01-06 05:12:26.44	5.32	8.69	-40.2	-51.2	3.8	8.45e-01	0	53	104	0	51	12405
2026-01-06 05:12:27.45	5.24	8.77	-40.2	-51.2	3.8	8.46e-01	0	53	104	0	51	12443
2026-01-06 05:12:28.46	5.16	8.84	-40.2	-51.2	3.8	8.46e-01	0	53	104	0	51	12388
2026-01-06 05:12:29.47	5.08	8.92	-40.2	-51.2	3.8	8.47e-01	0	53	104	0	51	12444
2026-01-06 05:12:30.48	5.00	8.99	-40.2	-51.1	3.8	8.47e-01	0	53	104	0	51	12355
2026-01-06 05:12:31.49	4.92	9.07	-40.2	-51.2	3.8	8.46e-01	0	53	104	0	51	12426
2026-01-06 05:12:32.50	4.84	9.14	-40.2	-51.2	3.8	8.47e-01	0	53	104	0	51	12453
2026-01-06 05:12:33.52	4.76	9.22	-40.2	-51.2	3.8	8.46e-01	0	53	104	0	51	12453
2026-01-06 05:12:34.53	4.68	9.29	-40.2	-51.2	3.8	8.48e-01	0	53	104	0	51	12438
2026-01-06 05:12:35.54	4.60	9.37	-40.2	-51.2	3.8	8.47e-01	0	53	104	0	51	12482
2026-01-06 05:12:36.55	4.51	9.44	-40.2	-51.3	3.8	8.46e-01	0	53	104	0	51	12523
2026-01-06 05:12:37.56	4.43	9.52	-40.3	-51.2	3.8	8.46e-01	0	53	104	0	51	12502
2026-01-06 05:12:38.57	4.35	9.59	-40.3	-51.3	3.8	8.46e-01	0	53	104	0	51	12591
2026-01-06 05:12:39.58	4.26	9.67	-40.3	-51.3	3.8	8.46e-01	0	53	104	0	51	12622
2026-01-06 05:12:40.59	4.18	9.75	-40.3	-51.4	3.8	8.46e-01	0	53	104	0	51	12706
2026-01-06 05:12:41.60	4.09	9.82	-40.3	-51.4	3.8	8.46e-01	0	53	104	0	51	12665
2026-01-06 05:12:42.61	4.01	9.90	-40.4	-51.4	3.8	8.47e-01	0	54	104	0	51	12777
2026-01-06 05:12:43.62	3.92	9.97	-40.4	-51.4	3.8	8.46e-01	0	53	104	0	51	12709
2026-01-06 05:12:44.63	3.84	10.05	-40.4	-51.4	3.8	8.47e-01	0	53	104	0	51	12751
2026-01-06 05:12:45.64	3.75	10.13	-40.3	-51.3	3.8	8.46e-01	0	53	104	0	51	12636
2026-01-06 05:12:46.65	3.66	10.21	-40.4	-51.5	3.8	8.46e-01	0	54	104	0	51	12819
2026-01-06 05:12:47.66	3.57	10.28	-40.3	-51.4	3.8	8.45e-01	0	53	104	0	51	12671
2026-01-06 05:12:48.67	3.49	10.36	-40.4	-51.4	3.8	8.46e-01	0	54	104	0	51	12701
2026-01-06 05:12:49.68	3.40	10.44	-40.4	-51.4	3.8	8.46e-01	0	54	104	0	51	12769
2026-01-06 05:12:50.69	3.31	10.52	-40.4	-51.5	3.8	8.46e-01	0	54	104	0	51	12854
2026-01-06 05:12:51.70	3.22	10.59	-40.4	-51.4	3.8	8.45e-01	0	54	104	0	51	12794
2026-01-06 05:12:52.71	3.13	10.67	-40.5	-51.5	3.8	8.45e-01	0	54	104	0	51	12882
2026-01-06 05:12:53.72	3.04	10.75	-40.3	-51.3	3.8	8.46e-01	0	54	104	0	51	12664
2026-01-06 05:12:54.73	2.95	10.83	-40.4	-51.5	3.8	8.46e-01	0	54	104	0	51	12943
2026-01-06 05:12:55.75	2.85	10.91	-40.3	-51.3	3.8	8.46e-01	0	54	104	0	51	12619
2026-01-06 05:12:56.76	2.76	10.99	-40.4	-51.5	3.8	8.46e-01	0	54	104	0	51	12881
2026-01-06 05:12:57.77	2.67	11.07	-40.4	-51.4	3.8	8.47e-01	0	54	104	0	51	12796
2026-01-06 05:12:58.78	2.57	11.15	-40.4	-51.5	3.8	8.46e-01	0	54	104	0	51	12946
2026-01-06 05:12:59.79	2.48	11.23	-40.4	-51.4	3.8	8.45e-01	0	54	104	0	51	12745
2026-01-06 05:13:00.80	2.39	11.31	-40.4	-51.7	3.8	8.46e-01	0	54	104	0	51	13208
2026-01-06 05:13:01.81	2.29	11.39	-40.3	-51.3	3.8	8.46e-01	0	54	104	0	51	12582
2026-01-06 05:13:02.82	2.20	11.47	-40.5	-51.7	3.8	8.45e-01	0	54	104	0	51	13116
2026-01-06 05:13:03.83	2.10	11.55	-40.3	-51.3	3.8	8.45e-01	0	54	104	0	51	12653
2026-01-06 05:13:04.85	2.00	11.63	-40.5	-51.6	3.8	8.47e-01	0	54	104	0	51	13028
2026-01-06 05:13:05.86	1.90	11.71	-40.4	-51.5	3.8	8.47e-01	0	54	104	0	51	12847
2026-01-06 05:13:06.86	1.81	11.79	-40.6	-51.6	3.8	8.46e-01	0	54	104	0	51	13080
2026-01-06 05:13:07.88	1.71	11.87	-40.4	-51.5	3.8	8.47e-01	0	54	104	0	51	12865
2026-01-06 05:13:08.89	1.61	11.95	-40.8	-51.8	3.8	8.46e-01	0	54	104	0	51	13280
2026-01-06 05:13:09.90	1.51	12.03	-40.3	-51.4	3.8	8.46e-01	0	54	104	0	51	12712
2026-01-06 05:13:10.91	1.41	12.11	-40.9	-51.6	3.8	8.46e-01	0	54	104	0	51	13064
2026-01-06 05:13:11.92	1.31	12.20	-40.4	-51.5	3.8	8.46e-01	0	54	104	0	51	12818
2026-01-06 05:13:12.93	1.21	12.28	-40.7	-51.5	3.8	8.45e-01	0	54	104	0	51	12864
2026-01-06 05:13:13.93	1.11	12.36	-40.5	-51.6	3.8	8.46e-01	0	54	104	0	51	13036
2026-01-06 05:13:14.94	1.01	12.44	-40.8	-51.2	3.8	8.46e-01	0	54	104	0	51	12395
2026-01-06 05:13:15.95	0.90	12.52	-40.5	-51.6	3.8	8.45e-01	0	54	104	0	51	12980
2026-01-06 05:13:16.96	0.80	12.61	-41.4	-51.0	3.8	8.46e-01	0	54	104	0	52	11443
2026-01-06 05:13:17.98	0.70	12.69	-40.4	-51.5	3.8	8.46e-01	0	54	104	0	51	12958
2026-01-06 05:13:18.98	0.59	12.77	-40.4	-49.3	3.8	8.45e-01	0	54	104	0	51	10038
2026-01-06 05:13:19.99	0.49	12.85	-40.3	-48.0	4.3	8.35e-01	0	54	0	0	51	8564
2026-01-06 05:13:21.00	0.38	12.94	-40.1	-47.5	4.5	8.25e-01	0	54	0	0	51	8089
2026-01-06 05:13:22.01	0.27	13.02	-40.0	-46.8	4.8	8.06e-01	0	54	0	0	51	7527
2026-01-06 05:13:23.02	0.17	13.11	-39.9	-45.8	5.4	7.16e-01	0	54	0	0	50	7099
2026-01-06 05:13:24.03	0.06	13.19	-39.6	-44.7	6.4	3.04e-01	0	54	0	5242880	50	6208
2026-01-06 05:13:25.04	359.95	13.27	-39.2	-43.3	7.9	9.30e-02	0	54	0	12582912	49	5647
2026-01-06 05:13:26.05	359.84	13.36	-38.7	-42.1	9.4	2.52e-02	0	54	0	19922944	48	5181
2026-01-06 05:13:27.06	359.73	13.44	-38.1	-41.0	10.6	5.76e-03	0	54	0	27262976	47	4825
2026-01-06 05:13:28.07	359.62	13.53	-37.8	-40.4	11.4	1.32e-03	0	54	0	34603008	46	4802
2026-01-06 05:13:29.08	359.51	13.61	-37.3	-39.7	12.3	2.23e-04	0	54	0	41943040	45	4679
2026-01-06 05:13:30.09	359.40	13.70	-37.0	-39.0	13.3	3.66e-05	0	54	0	49283072	44	4590
2026-01-06 05:13:31.10	359.29	13.78	-36.5	-38.3	14.3	0.00e+00	0	55	0	56623104	44	4223
2026-01-06 05:13:32.11	359.17	13.87	-36.0	-37.7	15.1	0.00e+00	0	55	0	63963136	43	4166
2026-01-06 05:13:33.12	359.06	13.95	-35.8	-37.4	15.4	0.00e+00	0	55	0	71303168	42	4276
2026-01-06 05:13:34.13	358.95	14.04	-36.0	-37.6	15.3	0.00e+00	0	55	0	78643200	42	4382
2026-01-06 05:13:35.14	358.83	14.12	-35.9	-37.5	15.6	0.00e+00	0	55	0	85983232	42	4301
2026-01-06 05:13:36.15	358.71	14.21	-36.0	-37.6	15.4	0.00e+00	0	55	0	93323264	42	4380
2026-01-06 05:13:37.16	358.60	14.30	-36.3	-37.9	15.2	0.00e+00	0	55	0	99614720	42	4508
2026-01-06 05:13:38.17	358.48	14.38	-36.3	-38.0	15.1	0.00e+00	0	55	0	106954752	42	4548
2026-01-06 05:13:39.19	358.36	14.47	-36.3	-37.9	15.2	0.00e+00	0	55	0	115343360	43	4262
2026-01-06 05:13:40.20	358.24	14.56	-36.0	-37.6	15.5	0.00e+00	0	55	0	121634816	43	4128
2026-01-06 05:13:41.21	358.12	14.65	-35.9	-37.4	15.7	0.00e+00	0	55	0	128974848	42	4275
2026-01-06 05:13:42.22	358.00	14.73	-36.0	-37.6	15.5	0.00e+00	0	55	0	136314880	42	4362
2026-01-06 05:13:43.23	357.88	14.82	-36.2	-37.7	15.4	0.00e+00	0	55	0	143654912	42	4439
2026-01-06 05:13:44.24	357.76	14.91	-36.1	-37.7	15.5	0.00e+00	0	55	0	150994944	42	4427
2026-01-06 05:13:45.25	357.64	15.00	-36.1	-37.7	15.5	0.00e+00	0	55	0	158334976	42	4416
2026-01-06 05:13:46.26	357.52	15.08	-36.0	-37.5	15.7	0.00e+00	0	55	0	165675008	42	4320
2026-01-06 05:13:47.27	357.39	15.17	-35.6	-37.1	16.2	0.00e+00	0	55	0	173015040	42	4116
2026-01-06 05:13:48.28	357.27	15.26	-35.2	-36.5	16.8	0.00e+00	0	55	0	180355072	41	4086
2026-01-06 05:13:49.29	357.14	15.35	-35.2	-36.6	16.7	0.00e+00	0	55	0	187695104	41	4112
2026-01-06 05:13:50.30	357.02	15.44	-35.0	-36.3	17.0	0.00e+00	0	55	0	195035136	40	4224
2026-01-06 05:13:51.31	356.89	15.53	-35.0	-36.3	16.9	0.00e+00	0	55	0	202375168	40	4231
2026-01-06 05:13:52.32	356.76	15.62	-35.0	-36.4	16.8	0.00e+00	0	55	0	209715200	40	4253
2026-01-06 05:13:53.33	356.64	15.71	-35.3	-36.7	16.3	0.00e+00	0	55	0	217055232	40	4433
2026-01-06 05:13:54.34	356.51	15.79	-35.7	-37.2	15.7	0.00e+00	0	55	0	224395264	41	4427
2026-01-06 05:13:55.35	356.38	15.88	-36.4	-38.1	14.6	0.00e+00	0	55	0	231735296	42	4629
2026-01-06 05:13:56.36	356.25	15.97	-37.0	-39.0	13.5	4.50e-06	0	55	0	239075328	43	4841
2026-01-06 05:13:57.37	356.11	16.06	-38.0	-40.4	12.0	2.00e-04	0	55	0	245366784	45	5042
2026-01-06 05:13:58.38	355.98	16.15	-38.6	-41.5	10.5	3.40e-03	0	55	0	253755392	46	5425
2026-01-06 05:13:59.39	355.85	16.24	-39.6	-43.3	8.5	3.31e-02	0	55	0	261095424	48	5992
2026-01-06 05:14:00.40	355.71	16.34	-39.9	-44.5	7.1	9.78e-02	0	55	0	267386880	49	6450
2026-01-06 05:14:01.40	355.58	16.43	-40.4	-46.2	5.6	5.01e-01	0	55	0	274726912	50	7389
2026-01-06 05:14:02.41	355.45	16.52	-40.6	-47.4	4.8	7.74e-01	0	55	0	275775488	50	8538
2026-01-06 05:14:03.43	355.31	16.61	-40.7	-48.5	4.3	8.31e-01	0	55	0	275775488	50	9608
2026-01-06 05:14:04.44	355.17	16.70	-40.8	-49.9	3.8	8.42e-01	0	55	104	275775488	51	10718
2026-01-06 05:14:05.44	355.03	16.79	-40.9	-50.9	3.8	8.46e-01	0	55	104	275775488	51	11962
2026-01-06 05:14:06.45	354.89	16.88	-40.9	-51.1	3.8	8.47e-01	0	55	104	275775488	51	12288
2026-01-06 05:14:07.46	354.75	16.97	-40.9	-51.5	3.8	8.47e-01	0	55	104	275775488	51	12873
2026-01-06 05:14:08.47	354.61	17.07	-40.9	-51.9	3.8	8.46e-01	0	55	104	275775488	51	13478
2026-01-06 05:14:09.49	354.47	17.16	-40.9	-51.8	3.8	8.47e-01	0	55	104	275775488	51	13339
2026-01-06 05:14:10.50	354.33	17.25	-40.9	-51.9	3.8	8.46e-01	0	55	104	275775488	51	13503
2026-01-06 05:14:11.51	354.18	17.34	-40.9	-52.0	3.8	8.46e-01	0	55	104	275775488	51	13607
2026-01-06 05:14:12.52	354.04	17.44	-40.9	-51.9	3.8	8.46e-01	0	55	104	275775488	51	13465
2026-01-06 05:14:13.53	353.89	17.53	-40.9	-52.0	3.8	8.46e-01	0	55	104	275775488	51	13582
2026-01-06 05:14:14.54	353.75	17.62	-40.9	-52.0	3.8	8.46e-01	0	55	104	275775488	51	13608
2026-01-06 05:14:15.55	353.60	17.71	-40.8	-52.0	3.8	8.46e-01	0	55	104	275775488	51	13597
2026-01-06 05:14:16.56	353.45	17.81	-40.7	-52.1	3.8	8.47e-01	0	55	104	275775488	51	13826
2026-01-06 05:14:17.57	353.30	17.90	-40.9	-52.1	3.8	8.47e-01	0	55	104	275775488	51	13733
2026-01-06 05:14:18.58	353.15	17.99	-40.9	-52.0	3.8	8.45e-01	0	55	104	275775488	51	13662
2026-01-06 05:14:19.59	353.00	18.09	-40.9	-52.1	3.8	8.45e-01	0	55	104	275775488	51	13797
2026-01-06 05:14:20.59	352.85	18.18	-41.0	-52.0	3.8	8.46e-01	0	55	104	275775488	51	13650
2026-01-06 05:14:21.60	352.70	18.28	-41.0	-52.1	3.8	8.46e-01	0	55	104	275775488	51	13830
2026-01-06 05:14:22.61	352.55	18.37	-40.9	-52.0	3.8	8.45e-01	0	55	104	275775488	51	13693
2026-01-06 05:14:23.62	352.39	18.46	-41.0	-52.1	3.8	8.46e-01	0	56	104	275775488	51	13817
2026-01-06 05:14:24.63	352.24	18.56	-41.0	-52.0	3.8	8.46e-01	0	55	104	275775488	51	13656
2026-01-06 05:14:25.64	352.08	18.65	-41.0	-52.1	3.8	8.45e-01	0	55	104	275775488	51	13740
2026-01-06 05:14:26.65	351.92	18.75	-40.9	-52.0	3.8	8.46e-01	0	55	104	275775488	51	13597
2026-01-06 05:14:27.66	351.76	18.84	-40.9	-52.0	3.8	8.47e-01	0	55	104	275775488	51	13614
2026-01-06 05:14:28.67	351.60	18.94	-41.0	-52.0	3.8	8.46e-01	0	55	104	275775488	51	13706
2026-01-06 05:14:29.68	351.44	19.03	-40.9	-52.0	3.8	8.46e-01	0	56	104	275775488	51	13591
2026-01-06 05:14:30.69	351.28	19.13	-41.0	-52.0	3.8	8.46e-01	0	55	104	275775488	51	13711
2026-01-06 05:14:31.70	351.12	19.22	-41.0	-52.0	3.8	8.47e-01	0	55	104	275775488	51	13590
2026-01-06 05:14:32.71	350.95	19.32	-41.0	-52.0	3.8	8.45e-01	0	55	104	275775488	51	13683
2026-01-06 05:14:33.72	350.79	19.41	-40.9	-52.0	3.8	8.45e-01	0	56	104	275775488	51	13657
2026-01-06 05:14:34.73	350.62	19.51	-41.0	-52.0	3.8	8.46e-01	0	56	104	275775488	51	13590
2026-01-06 05:14:35.74	350.46	19.61	-41.0	-52.0	3.8	8.47e-01	0	56	104	275775488	51	13641
2026-01-06 05:14:36.75	350.29	19.70	-41.0	-51.3	3.8	8.47e-01	0	56	104	275775488	51	12570
2026-01-06 05:14:37.76	350.12	19.80	-41.0	-52.0	3.8	8.45e-01	0	55	104	275775488	51	13682
2026-01-06 05:14:38.77	349.95	19.89	-41.0	-51.5	3.8	8.47e-01	0	56	104	275775488	51	12864
2026-01-06 05:14:39.78	349.78	19.99	-41.1	-50.7	3.8	8.45e-01	0	55	104	275775488	52	11112
2026-01-06 05:14:40.79	349.60	20.09	-41.0	-50.4	3.8	8.44e-01	0	56	104	275775488	52	10672
2026-01-06 05:14:41.80	349.43	20.18	-41.0	-49.7	4.0	8.43e-01	0	56	104	275775488	52	9838
2026-01-06 05:14:42.81	349.26	20.28	-40.9	-49.2	4.2	8.39e-01	0	55	0	275775488	52	9336
2026-01-06 05:14:43.82	349.08	20.38	-41.0	-49.0	4.3	8.36e-01	0	56	0	275775488	52	9088
2026-01-06 05:14:44.83	348.90	20.47	-41.0	-48.2	4.6	8.18e-01	0	56	0	275775488	52	8327
2026-01-06 05:14:45.84	348.72	20.57	-41.1	-47.4	5.2	7.63e-01	0	56	0	275775488	52	7573
2026-01-06 05:14:46.85	348.55	20.67	-41.1	-46.9	5.6	6.61e-01	0	56	0	275775488	52	7187
2026-01-06 05:14:47.86	348.36	20.76	-41.1	-46.6	5.9	5.22e-01	0	56	0	279969792	52	6890
2026-01-06 05:14:48.87	348.18	20.86	-40.7	-45.4	6.9	1.97e-01	0	56	0	287309824	52	6035
2026-01-06 05:14:49.88	348.00	20.96	-40.2	-44.1	8.1	7.89e-02	0	56	0	294649856	51	5521
2026-01-06 05:14:50.89	347.82	21.05	-39.8	-43.2	9.1	2.39e-02	0	56	0	301989888	50	5262
2026-01-06 05:14:51.90	347.63	21.15	-39.3	-42.5	9.8	1.05e-02	0	56	0	309329920	49	5110
2026-01-06 05:14:52.91	347.45	21.25	-38.8	-41.6	10.6	3.61e-03	0	56	0	316669952	48	4922
2026-01-06 05:14:53.92	347.26	21.35	-38.2	-40.8	11.3	1.34e-03	0	56	0	324009984	47	4739
2026-01-06 05:14:54.93	347.07	21.44	-37.7	-40.1	12.0	3.79e-04	0	56	0	331350016	46	4639
2026-01-06 05:14:55.94	346.88	21.54	-37.4	-39.7	12.4	1.44e-04	0	56	0	338690048	45	4654
2026-01-06 05:14:56.95	346.69	21.64	-37.1	-39.3	12.8	8.92e-05	0	56	0	346030080	45	4471
2026-01-06 05:14:57.96	346.50	21.74	-36.7	-38.7	13.6	1.25e-05	0	56	0	353370112	44	4407
2026-01-06 05:14:58.97	346.30	21.83	-35.7	-37.3	15.3	0.00e+00	0	56	0	360710144	42	4200
2026-01-06 05:14:59.98	346.11	21.93	-34.8	-36.2	16.7	0.00e+00	0	56	0	368050176	40	4174
2026-01-06 05:15:00.99	345.91	22.03	-34.6	-35.9	17.3	0.00e+00	0	56	0	375390208	40	4012
2026-01-06 05:15:02.00	345.71	22.13	-34.5	-35.7	17.7	0.00e+00	0	56	0	382730240	39	4190
2026-01-06 05:15:03.01	345.51	22.22	-34.8	-36.0	17.5	0.00e+00	0	56	0	390070272	39	4335
2026-01-06 05:15:04.02	345.32	22.32	-35.0	-36.3	17.3	0.00e+00	0	56	0	397410304	39	4468
2026-01-06 05:15:05.04	345.11	22.42	-35.1	-36.4	17.3	0.00e+00	0	56	0	404750336	39	4495
2026-01-06 05:15:06.05	344.91	22.52	-35.2	-36.5	17.1	0.00e+00	0	56	0	412090368	40	4323
2026-01-06 05:15:07.05	344.71	22.61	-35.0	-36.3	17.4	0.00e+00	0	56	0	419430400	40	4231
2026-01-06 05:15:08.06	344.50	22.71	-35.2	-36.4	17.3	0.00e+00	0	56	0	425721856	40	4288
2026-01-06 05:15:09.08	344.29	22.81	-35.2	-36.5	17.3	0.00e+00	0	56	0	433061888	40	4334
2026-01-06 05:15:10.09	344.09	22.91	-34.7	-35.9	18.0	0.00e+00	0	56	0	441450496	40	4015
2026-01-06 05:15:11.10	343.88	23.00	-34.4	-35.6	18.5	0.00e+00	0	56	0	447741952	39	4127
2026-01-06 05:15:12.11	343.67	23.10	-34.5	-35.6	18.5	0.00e+00	0	56	0	455081984	39	4134
2026-01-06 05:15:13.12	343.46	23.20	-34.4	-35.6	18.7	0.00e+00	0	56	0	462422016	39	4114
2026-01-06 05:15:14.13	343.24	23.30	-34.6	-35.7	18.6	0.00e+00	0	56	0	469762048	39	4181
2026-01-06 05:15:15.14	343.03	23.39	-34.4	-35.6	18.7	0.00e+00	0	56	0	477102080	39	4105
2026-01-06 05:15:16.15	342.81	23.49	-34.3	-35.4	19.0	0.00e+00	0	56	0	484442112	39	4011
2026-01-06 05:15:17.16	342.59	23.59	-34.1	-35.1	19.2	0.00e+00	0	56	0	491782144	39	3913
2026-01-06 05:15:18.17	342.38	23.68	-33.9	-34.9	19.5	0.00e+00	0	56	0	499122176	38	4046
2026-01-06 05:15:19.18	342.16	23.78	-34.0	-35.0	19.4	0.00e+00	0	56	0	506462208	38	4094
2026-01-06 05:15:20.19	341.94	23.88	-34.1	-35.1	19.3	0.00e+00	0	56	0	513802240	38	4143
2026-01-06 05:15:21.20	341.71	23.97	-34.0	-35.1	19.4	0.00e+00	0	56	0	521142272	38	4107
2026-01-06 05:15:22.21	341.49	24.07	-34.1	-35.1	19.4	0.00e+00	0	56	0	528482304	38	4136
2026-01-06 05:15:23.22	341.26	24.17	-34.0	-35.0	19.5	0.00e+00	0	56	0	535822336	38	4098
2026-01-06 05:15:24.23	341.04	24.26	-34.1	-35.2	19.3	0.00e+00	0	56	0	543162368	38	4179
2026-01-06 05:15:25.24	340.81	24.36	-34.1	-35.1	19.4	0.00e+00	0	56	0	550502400	38	4127
2026-01-06 05:15:26.25	340.58	24.46	-34.0	-35.1	19.5	0.00e+00	0	56	0	557842432	38	4100
2026-01-06 05:15:27.26	340.35	24.55	-33.9	-34.9	19.7	0.00e+00	0	56	0	565182464	38	4035
2026-01-06 05:15:28.27	340.11	24.65	-33.8	-34.8	19.8	0.00e+00	0	56	0	571473920	38	3989
2026-01-06 05:15:29.28	339.88	24.74	-33.6	-34.7	20.0	0.00e+00	0	56	0	578813952	38	3923
2026-01-06 05:15:30.29	339.65	24.84	-33.6	-34.6	20.0	0.00e+00	0	56	0	587202560	38	3901
2026-01-06 05:15:31.30	339.41	24.93	-33.6	-34.6	20.0	0.00e+00	0	56	0	593494016	38	3906
2026-01-06 05:15:32.31	339.17	25.03	-33.5	-34.5	20.1	0.00e+00	0	56	0	600834048	38	3854
2026-01-06 05:15:33.32	338.93	25.12	-33.5	-34.5	20.1	0.00e+00	0	56	0	608174080	38	3846
2026-01-06 05:15:34.33	338.69	25.22	-33.6	-34.6	20.1	0.00e+00	0	56	0	615514112	38	3885
2026-01-06 05:15:35.34	338.45	25.31	-33.6	-34.6	20.1	0.00e+00	0	56	0	622854144	38	3893
2026-01-06 05:15:36.35	338.20	25.41	-33.7	-34.7	20.0	0.00e+00	0	56	0	630194176	38	3930
2026-01-06 05:15:37.36	337.96	25.50	-33.7	-34.8	19.9	0.00e+00	0	56	0	637534208	38	3960
2026-01-06 05:15:38.37	337.71	25.59	-33.7	-34.7	20.0	0.00e+00	0	56	0	644874240	38	3953
2026-01-06 05:15:39.38	337.46	25.69	-33.8	-34.9	19.9	0.00e+00	0	56	0	652214272	38	4005
2026-01-06 05:15:40.39	337.21	25.78	-33.9	-34.9	19.8	0.00e+00	0	56	0	659554304	38	4034
2026-01-06 05:15:41.40	336.96	25.87	-33.8	-34.9	19.9	0.00e+00	0	56	0	666894336	38	4020
2026-01-06 05:15:42.41	336.71	25.96	-33.9	-35.0	19.8	0.00e+00	0	56	0	674234368	38	4061
2026-01-06 05:15:43.42	336.45	26.06	-33.9	-34.9	19.8	0.00e+00	0	56	0	681574400	38	4037
2026-01-06 05:15:44.43	336.20	26.15	-33.8	-34.8	19.9	0.00e+00	0	56	0	688914432	38	3980
2026-01-06 05:15:45.44	335.94	26.24	-33.9	-35.0	19.8	0.00e+00	0	56	0	696254464	38	4057
2026-01-06 05:15:46.45	335.68	26.33	-33.9	-35.0	19.8	0.00e+00	0	56	0	703594496	38	4058
2026-01-06 05:15:47.46	335.42	26.42	-33.9	-34.9	19.9	0.00e+00	0	56	0	710934528	38	4021
2026-01-06 05:15:48.47	335.16	26.51	-33.9	-34.9	19.9	0.00e+00	0	56	0	718274560	38	4031
2026-01-06 05:15:49.48	334.89	26.60	-33.9	-34.9	19.8	0.00e+00	0	56	0	725614592	38	4048
2026-01-06 05:15:50.49	334.63	26.69	-34.0	-35.0	19.7	0.00e+00	0	56	0	732954624	38	4090
2026-01-06 05:15:51.50	334.36	26.78	-34.0	-35.1	19.7	0.00e+00	0	56	0	740294656	38	4108
2026-01-06 05:15:52.51	334.09	26.87	-33.9	-34.9	19.9	0.00e+00	0	56	0	746586112	38	4035
2026-01-06 05:15:53.52	333.82	26.96	-33.8	-34.8	19.9	0.00e+00	0	56	0	753926144	38	4000
2026-01-06 05:15:54.54	333.55	27.05	-33.8	-34.8	20.0	0.00e+00	0	56	0	762314752	38	3994
2026-01-06 05:15:55.54	333.28	27.14	-33.8	-34.8	19.9	0.00e+00	0	56	0	768606208	38	3986
2026-01-06 05:15:56.56	333.00	27.22	-33.8	-34.9	19.9	0.00e+00	0	56	0	775946240	38	4011
2026-01-06 05:15:57.57	332.73	27.31	-33.9	-34.9	19.9	0.00e+00	0	56	0	783286272	38	4024
2026-01-06 05:15:58.58	332.45	27.40	-33.9	-35.0	19.8	0.00e+00	0	56	0	790626304	38	4062
2026-01-06 05:15:59.59	332.17	27.48	-33.9	-35.0	19.8	0.00e+00	0	56	0	797966336	38	4074
2026-01-06 05:16:00.60	331.89	27.57	-33.9	-35.0	19.8	0.00e+00	0	56	0	805306368	38	4064
2026-01-06 05:16:01.60	331.61	27.65	-33.9	-34.9	19.9	0.00e+00	0	56	0	812646400	38	4023
2026-01-06 05:16:02.61	331.33	27.74	-33.8	-34.8	20.0	0.00e+00	0	56	0	819986432	38	3978
2026-01-06 05:16:03.62	331.04	27.82	-33.6	-34.6	20.1	0.00e+00	0	56	0	827326464	38	3908
2026-01-06 05:16:04.63	330.76	27.90	-33.5	-34.5	20.3	0.00e+00	0	56	0	834666496	38	3854
2026-01-06 05:16:05.64	330.47	27.99	-33.5	-34.5	20.3	0.00e+00	0	56	0	842006528	37	4054
2026-01-06 05:16:06.65	330.18	28.07	-33.4	-34.4	20.4	0.00e+00	0	56	0	849346560	37	4038
2026-01-06 05:16:07.66	329.89	28.15	-33.4	-34.4	20.4	0.00e+00	0	56	0	856686592	37	4010
2026-01-06 05:16:08.67	329.59	28.23	-33.4	-34.5	20.3	0.00e+00	0	56	0	864026624	37	4054
2026-01-06 05:16:09.68	329.30	28.31	-33.6	-34.6	20.2	0.00e+00	0	56	0	871366656	37	4139
2026-01-06 05:16:10.69	329.00	28.39	-33.8	-34.9	20.0	0.00e+00	0	56	0	878706688	37	4248
2026-01-06 05:16:11.70	328.71	28.47	-33.9	-34.9	19.9	0.00e+00	0	56	0	886046720	37	4267
2026-01-06 05:16:12.71	328.41	28.55	-33.8	-34.9	19.9	0.00e+00	0	56	0	892338176	37	4245
2026-01-06 05:16:13.72	328.11	28.63	-33.9	-34.9	19.9	0.00e+00	0	56	0	899678208	37	4283
2026-01-06 05:16:14.73	327.81	28.71	-33.8	-34.8	20.0	0.00e+00	0	56	0	908066816	37	4240
2026-01-06 05:16:15.75	327.50	28.78	-33.8	-34.8	20.0	0.00e+00	0	56	0	914358272	37	4211
2026-01-06 05:16:16.75	327.20	28.86	-33.7	-34.7	20.1	0.00e+00	0	56	0	921698304	37	4173
2026-01-06 05:16:17.76	326.90	28.93	-33.8	-34.8	20.0	0.00e+00	0	56	0	929038336	37	4208
2026-01-06 05:16:18.77	326.59	29.01	-33.7	-34.7	20.1	0.00e+00	0	56	0	936378368	37	4177
2026-01-06 05:16:19.78	326.28	29.08	-33.8	-34.9	20.0	0.00e+00	0	56	0	943718400	37	4244
2026-01-06 05:16:20.79	325.97	29.16	-33.8	-34.8	20.0	0.00e+00	0	56	0	951058432	37	4225
2026-01-06 05:16:21.80	325.66	29.23	-33.7	-34.8	20.0	0.00e+00	0	56	0	958398464	37	4195
2026-01-06 05:16:22.81	325.34	29.30	-33.7	-34.7	20.0	0.00e+00	0	56	0	965738496	37	4189
2026-01-06 05:16:23.82	325.03	29.37	-33.7	-34.7	20.1	0.00e+00	0	56	0	973078528	37	4184
2026-01-06 05:16:24.83	324.71	29.44	-33.7	-34.7	20.1	0.00e+00	0	56	0	980418560	37	4193
2026-01-06 05:16:25.84	324.40	29.51	-33.7	-34.7	20.1	0.00e+00	0	56	0	987758592	37	4160
2026-01-06 05:16:26.85	324.08	29.58	-33.7	-34.7	20.1	0.00e+00	0	56	0	995098624	37	4158
2026-01-06 05:16:27.86	323.76	29.65	-33.7	-34.7	20.1	0.00e+00	0	56	0	1002438656	37	4181
2026-01-06 05:16:28.87	323.44	29.71	-33.7	-34.7	20.1	0.00e+00	0	56	0	1009778688	37	4167
2026-01-06 05:16:29.89	323.11	29.78	-33.8	-34.8	20.0	0.00e+00	0	56	0	1017118720	37	4234
2026-01-06 05:16:30.90	322.79	29.84	-33.8	-34.8	20.0	0.00e+00	0	56	0	1024458752	37	4225
2026-01-06 05:16:31.90	322.47	29.91	-33.7	-34.7	20.0	0.00e+00	0	56	0	1031798784	37	4183
2026-01-06 05:16:32.91	322.14	29.97	-33.6	-34.6	20.2	0.00e+00	0	56	0	1039138816	37	4126
2026-01-06 05:16:33.92	321.81	30.03	-33.6	-34.6	20.2	0.00e+00	0	56	0	1045430272	37	4100
2026-01-06 05:16:34.94	321.48	30.09	-33.5	-34.5	20.3	0.00e+00	0	56	0	1053818880	37	4065
2026-01-06 05:16:35.95	321.15	30.15	-33.5	-34.5	20.3	0.00e+00	0	56	0	1061158912	37	4053
2026-01-06 05:16:36.96	320.82	30.21	-33.5	-34.5	20.3	0.00e+00	0	56	0	1067450368	37	4085
2026-01-06 05:16:37.97	320.49	30.27	-33.5	-34.5	20.3	0.00e+00	0	56	0	1074790400	37	4076
2026-01-06 05:16:38.98	320.15	30.33	-33.4	-34.4	20.4	0.00e+00	0	56	0	1082130432	37	4027
2026-01-06 05:16:39.98	319.82	30.39	-33.4	-34.4	20.4	0.00e+00	0	56	0	1089470464	37	4033
2026-01-06 05:16:40.99	319.48	30.44	-33.3	-34.3	20.5	0.00e+00	0	56	0	1096810496	37	3992
2026-01-06 05:16:42.00	319.15	30.50	-33.3	-34.3	20.5	0.00e+00	0	56	0	1104150528	37	3991
2026-01-06 05:16:43.01	318.81	30.55	-33.4	-34.3	20.4	0.00e+00	0	56	0	1111490560	37	3998
2026-01-06 05:16:44.02	318.47	30.60	-33.4	-34.4	20.4	0.00e+00	0	56	0	1118830592	37	4011
2026-01-06 05:16:45.04	318.12	30.65	-33.4	-34.4	20.4	0.00e+00	0	56	0	1126170624	37	4015
2026-01-06 05:16:46.05	317.78	30.70	-33.5	-34.5	20.3	0.00e+00	0	56	0	1133510656	37	4083
2026-01-06 05:16:47.06	317.44	30.75	-33.5	-34.5	20.2	0.00e+00	0	56	0	1140850688	37	4096
2026-01-06 05:16:48.06	317.10	30.80	-33.6	-34.7	20.2	0.00e+00	0	56	0	1148190720	37	4148
2026-01-06 05:16:49.08	316.75	30.85	-33.7	-34.7	20.1	0.00e+00	0	56	0	1155530752	37	4170
2026-01-06 05:16:50.08	316.40	30.89	-33.7	-34.7	20.1	0.00e+00	0	56	0	1162870784	37	4164
2026-01-06 05:16:51.10	316.05	30.94	-33.6	-34.6	20.2	0.00e+00	0	56	0	1170210816	37	4117
2026-01-06 05:16:52.11	315.71	30.98	-33.4	-34.4	20.4	0.00e+00	0	56	0	1177550848	37	4036
2026-01-06 05:16:53.12	315.36	31.03	-33.4	-34.3	20.4	0.00e+00	0	56	0	1184890880	37	4004
2026-01-06 05:16:54.13	315.01	31.07	-33.3	-34.3	20.5	0.00e+00	0	56	0	1192230912	37	3973
2026-01-06 05:16:55.14	314.66	31.11	-33.4	-34.3	20.4	0.00e+00	0	56	0	1199570944	37	4004
2026-01-06 05:16:56.15	314.30	31.15	-33.3	-34.3	20.5	0.00e+00	0	56	0	1206910976	37	3965
2026-01-06 05:16:57.16	313.95	31.19	-33.4	-34.4	20.4	0.00e+00	0	57	0	1213202432	37	4008
2026-01-06 05:16:58.17	313.60	31.22	-33.3	-34.2	20.5	0.00e+00	0	56	0	1220542464	37	3957
2026-01-06 05:16:59.18	313.24	31.26	-33.2	-34.2	20.6	0.00e+00	0	56	0	1227882496	37	3931
2026-01-06 05:17:00.19	312.89	31.29	-33.1	-34.1	20.7	0.00e+00	0	56	0	1235222528	37	3896
2026-01-06 05:17:01.20	312.53	31.33	-33.0	-34.0	20.7	0.00e+00	0	56	0	1242562560	37	3847
2026-01-06 05:17:02.21	312.18	31.36	-33.0	-34.0	20.8	0.00e+00	0	56	0	1249902592	36	4074
2026-01-06 05:17:03.21	311.82	31.39	-33.0	-34.0	20.8	0.00e+00	0	56	0	1257242624	36	4071
2026-01-06 05:17:04.22	311.46	31.42	-33.1	-34.1	20.7	0.00e+00	0	56	0	1264582656	36	4101
2026-01-06 05:17:05.23	311.11	31.45	-33.1	-34.1	20.7	0.00e+00	0	56	0	1271922688	36	4115
2026-01-06 05:17:06.25	310.74	31.47	-33.2	-34.2	20.6	0.00e+00	0	56	0	1279262720	36	4157
2026-01-06 05:17:07.26	310.38	31.50	-33.1	-34.1	20.6	0.00e+00	0	56	0	1286602752	36	4132
2026-01-06 05:17:08.27	310.02	31.52	-33.2	-34.2	20.6	0.00e+00	0	56	0	1293942784	36	4157
2026-01-06 05:17:09.28	309.66	31.55	-33.1	-34.1	20.6	0.00e+00	0	56	0	1301282816	36	4133
2026-01-06 05:17:10.29	309.30	31.57	-33.1	-34.1	20.6	0.00e+00	0	56	0	1308622848	36	4125
2026-01-06 05:17:11.30	308.94	31.59	-33.1	-34.1	20.7	0.00e+00	0	56	0	1315962880	36	4104
2026-01-06 05:17:12.31	308.58	31.61	-33.0	-34.0	20.8	0.00e+00	0	56	0	1323302912	36	4064
2026-01-06 05:17:13.32	308.21	31.63	-33.0	-34.0	20.8	0.00e+00	0	56	0	1330642944	36	4052
2026-01-06 05:17:14.33	307.85	31.65	-33.0	-34.0	20.8	0.00e+00	0	56	0	1337982976	36	4078
2026-01-06 05:17:15.34	307.49	31.66	-33.0	-34.0	20.7	0.00e+00	0	56	0	1345323008	36	4088
2026-01-06 05:17:16.35	307.12	31.68	-33.1	-34.0	20.8	0.00e+00	0	56	0	1352663040	36	4090
2026-01-06 05:17:17.36	306.76	31.69	-33.1	-34.1	20.7	0.00e+00	0	56	0	1360003072	36	4115
2026-01-06 05:17:18.37	306.39	31.70	-33.2	-34.1	20.6	0.00e+00	0	56	0	1366294528	36	4136
2026-01-06 05:17:19.38	306.03	31.71	-33.1	-34.1	20.7	0.00e+00	0	57	0	1374683136	36	4122
2026-01-06 05:17:20.39	305.66	31.72	-33.1	-34.1	20.7	0.00e+00	0	56	0	1382023168	36	4120
2026-01-06 05:17:21.40	305.30	31.73	-33.1	-34.1	20.7	0.00e+00	0	56	0	1388314624	36	4100
2026-01-06 05:17:22.41	304.93	31.74	-33.1	-34.1	20.7	0.00e+00	0	56	0	1395654656	36	4120
2026-01-06 05:17:23.42	304.57	31.74	-33.1	-34.1	20.7	0.00e+00	0	56	0	1402994688	36	4109
2026-01-06 05:17:24.43	304.20	31.74	-33.1	-34.0	20.7	0.00e+00	0	56	0	1410334720	36	4084
2026-01-06 05:17:25.44	303.83	31.75	-33.1	-34.0	20.8	0.00e+00	0	56	0	1417674752	36	4092
2026-01-06 05:17:26.44	303.47	31.75	-33.1	-34.1	20.7	0.00e+00	0	57	0	1425014784	36	4114
2026-01-06 05:17:27.46	303.10	31.75	-33.1	-34.1	20.7	0.00e+00	0	56	0	1432354816	36	4099
2026-01-06 05:17:28.47	302.74	31.75	-33.1	-34.1	20.7	0.00e+00	0	56	0	1439694848	36	4110
2026-01-06 05:17:29.48	302.37	31.74	-33.0	-34.0	20.8	0.00e+00	0	57	0	1447034880	36	4058
2026-01-06 05:17:30.49	302.00	31.74	-32.9	-33.9	20.9	0.00e+00	0	56	0	1454374912	36	4028
2026-01-06 05:17:31.50	301.64	31.74	-32.9	-33.8	20.9	0.00e+00	0	56	0	1461714944	36	4002
2026-01-06 05:17:32.51	301.27	31.73	-32.9	-33.9	20.9	0.00e+00	0	56	0	1469054976	36	4005
2026-01-06 05:17:33.52	300.91	31.72	-32.9	-33.9	20.8	0.00e+00	0	57	0	1476395008	36	4031
2026-01-06 05:17:34.53	300.54	31.71	-32.9	-33.9	20.8	0.00e+00	0	56	0	1483735040	36	4031
2026-01-06 05:17:35.54	300.18	31.70	-32.9	-33.9	20.9	0.00e+00	0	56	0	1491075072	36	4023
2026-01-06 05:17:36.55	299.81	31.69	-32.9	-33.9	20.9	0.00e+00	0	56	0	1498415104	36	4022
2026-01-06 05:17:37.56	299.45	31.68	-32.9	-33.9	20.9	0.00e+00	0	57	0	1505755136	36	4025
2026-01-06 05:17:38.57	299.08	31.66	-32.9	-33.8	20.9	0.00e+00	0	56	0	1512046592	36	3995
2026-01-06 05:17:39.58	298.72	31.65	-32.9	-33.9	20.8	0.00e+00	0	56	0	1520435200	36	4036
2026-01-06 05:17:40.59	298.36	31.63	-32.9	-33.9	20.9	0.00e+00	0	56	0	1527775232	36	4026
2026-01-06 05:17:41.60	297.99	31.61	-32.9	-33.9	20.9	0.00e+00	0	56	0	1534066688	36	4034
2026-01-06 05:17:42.61	297.63	31.59	-32.9	-33.9	20.9	0.00e+00	0	57	0	1541406720	36	4017
2026-01-06 05:17:43.62	297.27	31.57	-32.8	-33.7	21.0	0.00e+00	0	56	0	1548746752	36	3954
2026-01-06 05:17:44.64	296.90	31.55	-32.8	-33.7	21.0	0.00e+00	0	56	0	1556086784	36	3946
2026-01-06 05:17:45.65	296.54	31.52	-32.8	-33.7	21.0	0.00e+00	0	56	0	1563426816	36	3951
2026-01-06 05:17:46.66	296.18	31.50	-32.8	-33.8	20.9	0.00e+00	0	56	0	1570766848	36	3982
2026-01-06 05:17:47.67	295.82	31.47	-33.0	-33.9	20.9	0.00e+00	0	57	0	1578106880	36	4034
2026-01-06 05:17:48.68	295.46	31.45	-33.0	-34.0	20.8	0.00e+00	0	57	0	1585446912	36	4073
2026-01-06 05:17:49.69	295.10	31.42	-33.1	-34.1	20.7	0.00e+00	0	56	0	1592786944	36	4120
2026-01-06 05:17:50.70	294.74	31.39	-33.1	-34.1	20.7	0.00e+00	0	56	0	1600126976	36	4114
2026-01-06 05:17:51.71	294.39	31.36	-33.1	-34.1	20.7	0.00e+00	0	57	0	1607467008	36	4106
2026-01-06 05:17:52.72	294.03	31.33	-33.1	-34.0	20.7	0.00e+00	0	57	0	1614807040	36	4097
2026-01-06 05:17:53.73	293.67	31.29	-33.0	-33.9	20.8	0.00e+00	0	56	0	1622147072	36	4038
2026-01-06 05:17:54.74	293.32	31.26	-32.9	-33.9	20.9	0.00e+00	0	56	0	1629487104	36	4026
2026-01-06 05:17:55.75	292.96	31.22	-32.9	-33.9	20.9	0.00e+00	0	56	0	1636827136	36	4010
2026-01-06 05:17:56.76	292.61	31.19	-32.9	-33.9	20.9	0.00e+00	0	56	0	1644167168	36	4026
2026-01-06 05:17:57.77	292.25	31.15	-33.0	-34.0	20.8	0.00e+00	0	57	0	1651507200	36	4057
2026-01-06 05:17:58.78	291.90	31.11	-33.0	-34.0	20.8	0.00e+00	0	57	0	1658847232	36	4062
2026-01-06 05:17:59.79	291.55	31.07	-33.0	-33.9	20.8	0.00e+00	0	56	0	1666187264	36	4034
2026-01-06 05:18:00.80	291.20	31.03	-33.0	-33.9	20.9	0.00e+00	0	57	0	1673527296	36	4037
2026-01-06 05:18:01.81	290.85	30.98	-32.9	-33.9	20.9	0.00e+00	0	56	0	1680867328	36	4037
2026-01-06 05:18:02.82	290.50	30.94	-32.9	-33.9	20.9	0.00e+00	0	57	0	1687158784	36	4033
2026-01-06 05:18:03.83	290.15	30.89	-33.0	-33.9	20.8	0.00e+00	0	56	0	1694498816	36	4042
2026-01-06 05:18:04.84	289.81	30.85	-33.0	-34.0	20.8	0.00e+00	0	57	0	1702887424	36	4060
2026-01-06 05:18:05.85	289.46	30.80	-33.0	-34.0	20.8	0.00e+00	0	57	0	1709178880	36	4075
2026-01-06 05:18:06.86	289.12	30.75	-33.0	-34.0	20.8	0.00e+00	0	56	0	1716518912	36	4070
2026-01-06 05:18:07.87	288.77	30.70	-32.9	-33.9	20.9	0.00e+00	0	56	0	1723858944	36	4033
2026-01-06 05:18:08.88	288.43	30.65	-33.0	-33.9	20.8	0.00e+00	0	56	0	1731198976	36	4041
2026-01-06 05:18:09.89	288.09	30.60	-32.9	-33.9	20.9	0.00e+00	0	56	0	1738539008	36	4024
2026-01-06 05:18:10.90	287.75	30.55	-32.9	-33.9	20.9	0.00e+00	0	57	0	1745879040	36	4010
2026-01-06 05:18:11.91	287.41	30.49	-33.0	-33.9	20.9	0.00e+00	0	56	0	1753219072	36	4037
2026-01-06 05:18:12.92	287.07	30.44	-33.0	-34.0	20.8	0.00e+00	0	57	0	1760559104	36	4069
2026-01-06 05:18:13.93	286.73	30.38	-33.1	-34.1	20.7	0.00e+00	0	57	0	1767899136	36	4114
2026-01-06 05:18:14.95	286.39	30.33	-33.2	-34.2	20.6	0.00e+00	0	57	0	1775239168	36	4150
2026-01-06 05:18:15.96	286.06	30.27	-33.2	-34.1	20.6	0.00e+00	0	57	0	1782579200	36	4140
2026-01-06 05:18:16.97	285.72	30.21	-33.2	-34.2	20.6	0.00e+00	0	56	0	1789919232	36	4146
2026-01-06 05:18:17.97	285.39	30.15	-33.2	-34.2	20.6	0.00e+00	0	57	0	1797259264	36	4154
2026-01-06 05:18:18.99	285.06	30.09	-33.1	-34.1	20.7	0.00e+00	0	57	0	1804599296	36	4126
2026-01-06 05:18:20.00	284.73	30.03	-33.1	-34.1	20.7	0.00e+00	0	56	0	1811939328	36	4105
2026-01-06 05:18:21.01	284.40	29.97	-33.1	-34.1	20.7	0.00e+00	0	57	0	1819279360	36	4105
2026-01-06 05:18:22.02	284.07	29.90	-33.1	-34.1	20.7	0.00e+00	0	56	0	1826619392	36	4109
2026-01-06 05:18:23.03	283.75	29.84	-33.1	-34.1	20.6	0.00e+00	0	56	0	1832910848	36	4134
2026-01-06 05:18:24.04	283.42	29.77	-33.2	-34.2	20.5	0.00e+00	0	57	0	1841299456	36	4172
2026-01-06 05:18:25.05	283.10	29.71	-33.2	-34.2	20.6	0.00e+00	0	56	0	1848639488	36	4152
2026-01-06 05:18:26.05	282.78	29.64	-33.3	-34.3	20.4	0.00e+00	0	57	0	1854930944	36	4205
2026-01-06 05:18:27.06	282.46	29.57	-33.2	-34.2	20.6	0.00e+00	0	57	0	1862270976	36	4166
2026-01-06 05:18:28.07	282.14	29.51	-33.1	-34.1	20.6	0.00e+00	0	56	0	1869611008	36	4139
2026-01-06 05:18:29.08	281.82	29.44	-33.1	-34.1	20.6	0.00e+00	0	56	0	1876951040	36	4133
2026-01-06 05:18:30.09	281.51	29.37	-33.1	-34.1	20.7	0.00e+00	0	56	0	1884291072	36	4101
2026-01-06 05:18:31.10	281.19	29.30	-33.0	-34.0	20.5	0.00e+00	0	56	0	1891631104	36	4069
2026-01-06 05:18:32.11	280.88	29.22	-33.2	-34.2	20.5	0.00e+00	0	57	0	1898971136	36	4172
2026-01-06 05:18:33.12	280.56	29.15	-33.3	-34.3	20.4	0.00e+00	0	56	0	1906311168	36	4237
2026-01-06 05:18:34.13	280.25	29.08	-33.5	-34.5	20.3	0.00e+00	0	57	0	1913651200	36	4295
2026-01-06 05:18:35.14	279.94	29.00	-33.5	-34.5	20.3	0.00e+00	0	56	0	1920991232	36	4318
2026-01-06 05:18:36.16	279.63	28.93	-33.5	-34.5	20.3	0.00e+00	0	56	0	1928331264	36	4304
2026-01-06 05:18:37.17	279.32	28.85	-33.4	-34.4	20.4	0.00e+00	0	56	0	1935671296	36	4265
2026-01-06 05:18:38.18	279.02	28.78	-33.3	-34.3	20.4	0.00e+00	0	57	0	1943011328	36	4217
2026-01-06 05:18:39.19	278.72	28.70	-33.2	-34.2	20.6	0.00e+00	0	57	0	1950351360	36	4167
2026-01-06 05:18:40.20	278.41	28.62	-33.2	-34.1	20.6	0.00e+00	0	56	0	1957691392	36	4142
2026-01-06 05:18:41.20	278.11	28.54	-33.1	-34.1	20.6	0.00e+00	0	56	0	1965031424	36	4124
2026-01-06 05:18:42.21	277.82	28.47	-33.1	-34.1	20.7	0.00e+00	0	57	0	1972371456	36	4099
2026-01-06 05:18:43.22	277.52	28.39	-33.1	-34.1	20.7	0.00e+00	0	56	0	1979711488	36	4103
2026-01-06 05:18:44.23	277.22	28.31	-33.2	-34.2	20.6	0.00e+00	0	57	0	1987051520	36	4151
2026-01-06 05:18:45.24	276.93	28.22	-33.3	-34.2	20.5	0.00e+00	0	57	0	1994391552	36	4187
2026-01-06 05:18:46.25	276.63	28.14	-33.4	-34.4	20.3	0.00e+00	0	57	0	2001731584	36	4250
2026-01-06 05:18:47.26	276.34	28.06	-33.5	-34.5	20.3	0.00e+00	0	56	0	2008023040	36	4315
2026-01-06 05:18:48.27	276.05	27.98	-33.5	-34.5	20.2	0.00e+00	0	57	0	2015363072	36	4330
2026-01-06 05:18:49.28	275.76	27.90	-33.5	-34.5	20.2	0.00e+00	0	56	0	2023751680	36	4312
2026-01-06 05:18:50.29	275.47	27.81	-33.4	-34.4	20.3	0.00e+00	0	57	0	2030043136	36	4291
2026-01-06 05:18:51.30	275.19	27.73	-33.4	-34.4	20.4	0.00e+00	0	57	0	2037383168	36	4256
2026-01-06 05:18:52.31	274.90	27.64	-33.4	-34.4	20.3	0.00e+00	0	57	0	2044723200	36	4286
2026-01-06 05:18:53.32	274.62	27.56	-33.4	-34.4	20.3	0.00e+00	0	57	0	2052063232	36	4269
2026-01-06 05:18:54.33	274.34	27.47	-33.4	-34.4	20.4	0.00e+00	0	57	0	2059403264	36	4264
2026-01-06 05:18:55.34	274.06	27.39	-33.4	-34.4	20.3	0.00e+00	0	57	0	2066743296	36	4282
2026-01-06 05:18:56.35	273.78	27.30	-33.4	-34.4	20.3	0.00e+00	0	57	0	2074083328	36	4288
2026-01-06 05:18:57.36	273.50	27.21	-33.6	-34.6	20.1	0.00e+00	0	57	0	2081423360	36	4356
2026-01-06 05:18:58.37	273.23	27.12	-33.6	-34.6	20.1	0.00e+00	0	57	0	2088763392	36	4361
2026-01-06 05:18:59.38	272.95	27.04	-33.7	-34.7	20.1	0.00e+00	0	56	0	2096103424	36	4403
2026-01-06 05:19:00.39	272.68	26.95	-33.7	-34.7	20.1	0.00e+00	0	57	0	2103443456	36	4401
2026-01-06 05:19:01.40	272.41	26.86	-33.6	-34.7	20.1	0.00e+00	0	57	0	2110783488	36	4392
2026-01-06 05:19:02.41	272.14	26.77	-33.5	-34.5	20.1	0.00e+00	0	57	0	2118123520	36	4322
2026-01-06 05:19:03.42	271.87	26.68	-33.5	-34.5	20.2	0.00e+00	0	57	0	2125463552	36	4319
2026-01-06 05:19:04.43	271.61	26.59	-33.5	-34.5	20.3	0.00e+00	0	56	0	2132803584	36	4307
2026-01-06 05:19:05.44	271.34	26.50	-33.5	-34.5	20.3	0.00e+00	0	57	0	2140143616	36	4300
2026-01-06 05:19:06.45	271.08	26.41	-33.5	-34.5	20.2	0.00e+00	0	56	0	2147483648	36	4321
2026-01-06 05:19:07.46	270.82	26.32	-33.6	-34.6	20.1	0.00e+00	0	56	0	2153775104	36	4358
2026-01-06 05:19:08.47	270.56	26.22	-33.6	-34.6	20.1	0.00e+00	0	57	0	2161115136	36	4384
2026-01-06 05:19:09.48	270.30	26.13	-33.7	-34.7	20.0	0.00e+00	0	57	0	2169503744	37	4176
2026-01-06 05:19:10.49	270.04	26.04	-33.8	-34.8	19.9	0.00e+00	0	57	0	2175795200	37	4202
2026-01-06 05:19:11.50	269.78	25.95	-33.7	-34.8	20.0	0.00e+00	0	57	0	2183135232	37	4194
2026-01-06 05:19:12.51	269.53	25.85	-33.7	-34.7	20.0	0.00e+00	0	57	0	2190475264	37	4192
2026-01-06 05:19:13.53	269.27	25.76	-33.6	-34.6	20.1	0.00e+00	0	57	0	2197815296	37	4138
2026-01-06 05:19:14.54	269.02	25.67	-33.6	-34.6	20.1	0.00e+00	0	57	0	2205155328	37	4137
2026-01-06 05:19:15.55	268.77	25.57	-33.6	-34.6	20.1	0.00e+00	0	56	0	2212495360	37	4135
2026-01-06 05:19:16.55	268.53	25.48	-33.5	-34.5	20.2	0.00e+00	0	57	0	2219835392	37	4077
2026-01-06 05:19:17.56	268.28	25.39	-33.5	-34.5	20.2	0.00e+00	0	57	0	2227175424	37	4067
2026-01-06 05:19:18.57	268.04	25.29	-33.4	-34.4	20.3	0.00e+00	0	57	0	2234515456	37	4049
2026-01-06 05:19:19.59	267.79	25.20	-33.4	-34.4	20.3	0.00e+00	0	57	0	2241855488	37	4042
2026-01-06 05:19:20.60	267.55	25.10	-33.4	-34.4	20.3	0.00e+00	0	57	0	2249195520	37	4037
2026-01-06 05:19:21.60	267.31	25.01	-33.4	-34.4	20.2	0.00e+00	0	57	0	2256535552	37	4051
2026-01-06 05:19:22.61	267.07	24.91	-33.4	-34.5	20.2	0.00e+00	0	57	0	2263875584	37	4053
2026-01-06 05:19:23.62	266.83	24.82	-33.5	-34.5	20.2	0.00e+00	0	57	0	2271215616	37	4078
2026-01-06 05:19:24.63	266.59	24.72	-33.6	-34.6	20.1	0.00e+00	0	56	0	2278555648	37	4108
2026-01-06 05:19:25.64	266.36	24.62	-33.6	-34.6	20.0	0.00e+00	0	57	0	2285895680	37	4140
2026-01-06 05:19:26.65	266.13	24.53	-33.7	-34.7	20.0	0.00e+00	0	57	0	2293235712	37	4172
2026-01-06 05:19:27.66	265.89	24.43	-33.6	-34.7	20.0	0.00e+00	0	57	0	2300575744	37	4151
2026-01-06 05:19:28.67	265.66	24.33	-33.6	-34.7	20.0	0.00e+00	0	57	0	2306867200	37	4155
2026-01-06 05:19:29.69	265.43	24.24	-33.5	-34.5	20.2	0.00e+00	0	57	0	2315255808	37	4082
2026-01-06 05:19:30.69	265.20	24.14	-33.5	-34.5	20.2	0.00e+00	0	57	0	2321547264	37	4070
2026-01-06 05:19:31.70	264.98	24.04	-33.4	-34.4	20.3	0.00e+00	0	57	0	2328887296	37	4042
2026-01-06 05:19:32.72	264.75	23.95	-33.5	-34.5	20.1	0.00e+00	0	57	0	2336227328	37	4095
2026-01-06 05:19:33.73	264.53	23.85	-33.6	-34.6	20.1	0.00e+00	0	57	0	2343567360	37	4131
2026-01-06 05:19:34.74	264.30	23.75	-33.7	-34.7	20.0	0.00e+00	0	57	0	2350907392	37	4189
2026-01-06 05:19:35.75	264.08	23.65	-33.8	-34.8	19.9	0.00e+00	0	57	0	2358247424	37	4227
2026-01-06 05:19:36.76	263.86	23.56	-33.8	-34.9	19.8	0.00e+00	0	57	0	2365587456	37	4264
2026-01-06 05:19:37.77	263.65	23.46	-33.9	-34.9	19.7	0.00e+00	0	57	0	2372927488	37	4291
2026-01-06 05:19:38.78	263.43	23.36	-33.9	-34.9	19.8	0.00e+00	0	57	0	2380267520	37	4276
2026-01-06 05:19:39.79	263.21	23.26	-33.8	-34.8	19.8	0.00e+00	0	57	0	2387607552	37	4242
2026-01-06 05:19:40.80	263.00	23.17	-33.8	-34.8	19.9	0.00e+00	0	57	0	2394947584	37	4223
2026-01-06 05:19:41.81	262.79	23.07	-33.8	-34.8	19.9	0.00e+00	0	57	0	2402287616	37	4209
2026-01-06 05:19:42.82	262.57	22.97	-33.8	-34.8	19.9	0.00e+00	0	57	0	2409627648	37	4205
2026-01-06 05:19:43.83	262.36	22.87	-33.8	-34.8	19.8	0.00e+00	0	57	0	2416967680	37	4238
2026-01-06 05:19:44.84	262.16	22.78	-33.9	-35.0	19.7	0.00e+00	0	57	0	2424307712	37	4297
2026-01-06 05:19:45.85	261.95	22.68	-34.0	-35.1	19.6	0.00e+00	0	57	0	2431647744	37	4357
2026-01-06 05:19:46.86	261.74	22.58	-34.1	-35.2	19.5	0.00e+00	0	57	0	2438987776	37	4413
2026-01-06 05:19:47.87	261.54	22.48	-34.1	-35.2	19.5	0.00e+00	0	57	0	2446327808	37	4396
2026-01-06 05:19:48.88	261.33	22.38	-34.1	-35.1	19.6	0.00e+00	0	57	0	2453667840	37	4372
2026-01-06 05:19:49.89	261.13	22.29	-33.9	-34.9	19.7	0.00e+00	0	57	0	2461007872	37	4289
2026-01-06 05:19:50.90	260.93	22.19	-33.8	-34.9	19.8	0.00e+00	0	57	0	2468347904	37	4243
2026-01-06 05:19:51.91	260.73	22.09	-33.8	-34.8	19.9	0.00e+00	0	57	0	2474639360	37	4222
2026-01-06 05:19:52.92	260.53	21.99	-33.8	-34.8	19.9	0.00e+00	0	57	0	2481979392	37	4224
2026-01-06 05:19:53.93	260.33	21.89	-33.7	-34.7	19.9	0.00e+00	0	57	0	2490368000	37	4190
2026-01-06 05:19:54.95	260.14	21.79	-33.8	-34.8	19.8	0.00e+00	0	57	0	2496659456	37	4239
2026-01-06 05:19:55.96	259.94	21.70	-33.8	-34.9	19.8	0.00e+00	0	57	0	2503999488	37	4250
2026-01-06 05:19:56.97	259.75	21.60	-33.9	-35.0	19.7	0.00e+00	0	57	0	2511339520	37	4298
2026-01-06 05:19:57.97	259.56	21.50	-33.9	-35.0	19.7	0.00e+00	0	57	0	2518679552	37	4292
2026-01-06 05:19:58.99	259.36	21.40	-33.9	-35.0	19.7	0.00e+00	0	57	0	2526019584	37	4306
2026-01-06 05:20:00.00	259.17	21.30	-33.9	-35.0	19.7	0.00e+00	0	57	0	2533359616	37	4306
2026-01-06 05:20:01.01	258.99	21.21	-34.0	-35.0	19.7	0.00e+00	0	57	0	2540699648	37	4312
2026-01-06 05:20:02.02	258.80	21.11	-34.0	-35.1	19.6	0.00e+00	0	57	0	2548039680	37	4359
2026-01-06 05:20:03.03	258.61	21.01	-34.1	-35.2	19.4	0.00e+00	0	57	0	2555379712	37	4415
2026-01-06 05:20:04.04	258.43	20.91	-34.2	-35.2	19.4	0.00e+00	0	57	0	2562719744	37	4435
2026-01-06 05:20:05.05	258.24	20.82	-34.2	-35.3	19.3	0.00e+00	0	57	0	2570059776	38	4210
2026-01-06 05:20:06.05	258.06	20.72	-34.3	-35.4	19.2	0.00e+00	0	57	0	2577399808	38	4268
2026-01-06 05:20:07.06	257.88	20.62	-34.4	-35.5	19.2	0.00e+00	0	57	0	2584739840	38	4300
2026-01-06 05:20:08.08	257.70	20.52	-34.4	-35.5	19.1	0.00e+00	0	57	0	2592079872	38	4338
2026-01-06 05:20:09.09	257.52	20.43	-34.3	-35.4	19.2	0.00e+00	0	57	0	2599419904	38	4279
2026-01-06 05:20:10.10	257.34	20.33	-34.3	-35.4	19.3	0.00e+00	0	57	0	2606759936	38	4267
2026-01-06 05:20:11.11	257.16	20.23	-34.3	-35.4	19.3	0.00e+00	0	57	0	2614099968	38	4269
2026-01-06 05:20:12.12	256.99	20.14	-34.3	-35.4	19.3	0.00e+00	0	57	0	2621440000	38	4247
2026-01-06 05:20:13.13	256.81	20.04	-34.3	-35.4	19.3	0.00e+00	0	57	0	2628780032	38	4252
2026-01-06 05:20:14.14	256.64	19.94	-34.3	-35.3	19.3	0.00e+00	0	57	0	2636120064	38	4242
2026-01-06 05:20:15.15	256.47	19.84	-34.3	-35.4	19.2	0.00e+00	0	57	0	2643460096	38	4258
2026-01-06 05:20:16.16	256.30	19.75	-34.4	-35.5	19.2	0.00e+00	0	57	0	2649751552	38	4307
2026-01-06 05:20:17.17	256.13	19.65	-34.5	-35.5	19.1	0.00e+00	0	57	0	2657091584	38	4338
2026-01-06 05:20:18.18	255.96	19.56	-34.5	-35.6	19.1	0.00e+00	0	57	0	2665480192	38	4345
2026-01-06 05:20:19.19	255.79	19.46	-34.4	-35.5	19.1	0.00e+00	0	57	0	2671771648	38	4337
2026-01-06 05:20:20.20	255.62	19.36	-34.5	-35.6	19.1	0.00e+00	0	57	0	2679111680	38	4355
2026-01-06 05:20:21.21	255.46	19.27	-34.5	-35.6	19.0	0.00e+00	0	57	0	2686451712	38	4362
2026-01-06 05:20:22.22	255.29	19.17	-34.4	-35.4	19.2	0.00e+00	0	57	0	2693791744	38	4281
2026-01-06 05:20:23.23	255.13	19.08	-34.2	-35.3	19.3	0.00e+00	0	57	0	2701131776	38	4204
2026-01-06 05:20:24.24	254.96	18.98	-34.1	-35.2	19.4	0.00e+00	0	57	0	2708471808	38	4152
2026-01-06 05:20:25.25	254.80	18.88	-34.1	-35.2	19.3	0.00e+00	0	57	0	2715811840	38	4162
2026-01-06 05:20:26.26	254.64	18.79	-34.2	-35.2	19.4	0.00e+00	0	57	0	2723151872	38	4182
2026-01-06 05:20:27.27	254.48	18.69	-34.2	-35.3	19.3	0.00e+00	0	57	0	2730491904	38	4226
2026-01-06 05:20:28.28	254.32	18.60	-34.3	-35.4	19.2	0.00e+00	0	57	0	2737831936	38	4284
2026-01-06 05:20:29.29	254.16	18.50	-34.5	-35.6	19.0	0.00e+00	0	57	0	2745171968	38	4348
2026-01-06 05:20:30.30	254.01	18.41	-34.6	-35.7	18.9	0.00e+00	0	57	0	2752512000	38	4411
2026-01-06 05:20:31.31	253.85	18.31	-34.7	-35.8	18.8	0.00e+00	0	57	0	2759852032	39	4212
2026-01-06 05:20:32.32	253.70	18.22	-34.8	-36.0	18.7	0.00e+00	0	57	0	2767192064	39	4295
2026-01-06 05:20:33.33	253.54	18.12	-34.9	-36.1	18.5	0.00e+00	0	57	0	2774532096	39	4343
2026-01-06 05:20:34.34	253.39	18.03	-34.8	-36.0	18.6	0.00e+00	0	57	0	2781872128	39	4308
2026-01-06 05:20:35.35	253.24	17.94	-34.8	-36.0	18.6	0.00e+00	0	57	0	2789212160	39	4300
2026-01-06 05:20:36.36	253.09	17.84	-34.9	-36.0	18.5	0.00e+00	0	57	0	2795503616	39	4329
2026-01-06 05:20:37.37	252.94	17.75	-34.9	-36.0	18.5	0.00e+00	0	57	0	2802843648	39	4339
2026-01-06 05:20:38.38	252.79	17.65	-35.0	-36.1	18.5	0.00e+00	0	57	0	2811232256	39	4370
2026-01-06 05:20:39.39	252.64	17.56	-35.1	-36.2	18.4	0.00e+00	0	57	0	2817523712	39	4431
2026-01-06 05:20:40.40	252.49	17.47	-35.1	-36.3	18.3	0.00e+00	0	57	0	2824863744	39	4468
2026-01-06 05:20:41.41	252.35	17.37	-35.2	-36.4	18.1	0.00e+00	0	57	0	2832203776	40	4248
2026-01-06 05:20:42.42	252.20	17.28	-35.0	-36.2	18.3	0.00e+00	0	57	0	2839543808	40	4169
2026-01-06 05:20:43.43	252.06	17.19	-35.1	-36.2	18.3	0.00e+00	0	57	0	2846883840	40	4179
2026-01-06 05:20:44.43	251.91	17.10	-35.1	-36.3	18.2	0.00e+00	0	57	0	2854223872	40	4222
2026-01-06 05:20:45.44	251.77	17.00	-35.2	-36.4	18.1	0.00e+00	0	57	0	2861563904	40	4257
2026-01-06 05:20:46.45	251.63	16.91	-35.2	-36.4	18.1	0.00e+00	0	57	0	2868903936	40	4255
2026-01-06 05:20:47.46	251.49	16.82	-35.2	-36.4	18.1	0.00e+00	0	57	0	2876243968	40	4255
2026-01-06 05:20:48.47	251.35	16.73	-35.3	-36.5	18.0	0.00e+00	0	57	0	2883584000	40	4295
2026-01-06 05:20:49.48	251.21	16.64	-35.2	-36.4	18.1	0.00e+00	0	57	0	2890924032	40	4261
2026-01-06 05:20:50.49	251.07	16.54	-35.2	-36.3	18.2	0.00e+00	0	57	0	2898264064	40	4234
2026-01-06 05:20:51.50	250.93	16.45	-35.3	-36.5	18.1	0.00e+00	0	57	0	2905604096	40	4294
2026-01-06 05:20:52.51	250.80	16.36	-35.4	-36.6	17.9	0.00e+00	0	57	0	2912944128	40	4350
2026-01-06 05:20:53.52	250.66	16.27	-35.4	-36.6	17.9	0.00e+00	0	57	0	2920284160	40	4354
2026-01-06 05:20:54.54	250.52	16.18	-35.4	-36.6	17.9	0.00e+00	0	57	0	2927624192	40	4367
2026-01-06 05:20:55.55	250.39	16.09	-35.5	-36.7	17.7	0.00e+00	0	57	0	2934964224	40	4429
2026-01-06 05:20:56.56	250.26	16.00	-35.6	-36.9	17.5	0.00e+00	0	57	0	2942304256	40	4502
2026-01-06 05:20:57.57	250.12	15.91	-35.7	-37.0	17.5	0.00e+00	0	57	0	2948595712	41	4294
2026-01-06 05:20:58.58	249.99	15.82	-35.8	-37.1	17.4	0.00e+00	0	57	0	2955935744	41	4369
2026-01-06 05:20:59.59	249.86	15.73	-35.9	-37.1	17.3	0.00e+00	0	57	0	2964324352	41	4389
2026-01-06 05:21:00.60	249.73	15.64	-35.6	-36.9	17.6	0.00e+00	0	57	0	2970615808	41	4246
2026-01-06 05:21:01.60	249.60	15.55	-35.5	-36.7	17.8	0.00e+00	0	57	0	2977955840	41	4167
2026-01-06 05:21:02.61	249.47	15.46	-35.5	-36.7	17.8	0.00e+00	0	57	0	2985295872	41	4163
2026-01-06 05:21:03.62	249.35	15.37	-35.5	-36.7	17.8	0.00e+00	0	57	0	2992635904	41	4163
2026-01-06 05:21:04.63	249.22	15.28	-35.5	-36.7	17.7	0.00e+00	0	57	0	2999975936	41	4192
2026-01-06 05:21:05.64	249.09	15.19	-35.4	-36.6	17.8	0.00e+00	0	57	0	3007315968	41	4123
2026-01-06 05:21:06.65	248.97	15.10	-35.3	-36.5	18.0	0.00e+00	0	57	0	3014656000	41	4052
2026-01-06 05:21:07.66	248.84	15.01	-35.3	-36.5	17.9	0.00e+00	0	57	0	3021996032	41	4078
2026-01-06 05:21:08.67	248.72	14.92	-35.3	-36.5	18.0	0.00e+00	0	57	0	3029336064	41	4060
2026-01-06 05:21:09.68	248.60	14.84	-35.3	-36.4	18.0	0.00e+00	0	57	0	3036676096	41	4049
2026-01-06 05:21:10.69	248.47	14.75	-35.3	-36.5	17.9	0.00e+00	0	57	0	3044016128	41	4081
2026-01-06 05:21:11.70	248.35	14.66	-35.4	-36.6	17.8	0.00e+00	0	57	0	3051356160	41	4112
2026-01-06 05:21:12.71	248.23	14.57	-35.4	-36.7	17.8	0.00e+00	0	57	0	3058696192	41	4147
2026-01-06 05:21:13.73	248.11	14.48	-35.6	-36.8	17.6	0.00e+00	0	57	0	3066036224	41	4202
2026-01-06 05:21:14.74	247.99	14.40	-35.6	-36.9	17.5	0.00e+00	0	57	0	3073376256	41	4252
2026-01-06 05:21:15.75	247.87	14.31	-35.7	-36.9	17.5	0.00e+00	0	57	0	3080716288	41	4280
2026-01-06 05:21:16.76	247.75	14.22	-35.8	-37.0	17.4	0.00e+00	0	57	0	3088056320	41	4325
2026-01-06 05:21:17.77	247.64	14.14	-35.8	-37.1	17.3	0.00e+00	0	57	0	3094347776	41	4362
2026-01-06 05:21:18.78	247.52	14.05	-35.8	-37.0	17.4	0.00e+00	0	57	0	3101687808	41	4335
2026-01-06 05:21:19.79	247.40	13.96	-35.8	-37.1	17.3	0.00e+00	0	57	0	3110076416	41	4345
2026-01-06 05:21:20.80	247.29	13.88	-35.9	-37.2	17.2	0.00e+00	0	57	0	3116367872	41	4396
2026-01-06 05:21:21.81	247.17	13.79	-35.9	-37.2	17.2	0.00e+00	0	57	0	3123707904	41	4403
2026-01-06 05:21:22.82	247.06	13.70	-36.0	-37.3	17.1	0.00e+00	0	57	0	3131047936	41	4476
2026-01-06 05:21:23.83	246.95	13.62	-35.9	-37.2	17.2	0.00e+00	0	57	0	3138387968	41	4427
2026-01-06 05:21:24.84	246.83	13.53	-35.9	-37.2	17.2	0.00e+00	0	57	0	3145728000	41	4403
2026-01-06 05:21:25.85	246.72	13.45	-35.9	-37.2	17.2	0.00e+00	0	57	0	3153068032	41	4415
2026-01-06 05:21:26.86	246.61	13.36	-35.8	-37.0	17.3	0.00e+00	0	57	0	3160408064	41	4328
2026-01-06 05:21:27.87	246.50	13.28	-35.7	-37.0	17.3	0.00e+00	0	57	0	3167748096	41	4318
2026-01-06 05:21:28.88	246.39	13.19	-35.7	-36.9	17.4	0.00e+00	0	57	0	3175088128	41	4278
2026-01-06 05:21:29.89	246.28	13.11	-35.7	-36.9	17.5	0.00e+00	0	57	0	3182428160	41	4263
2026-01-06 05:21:30.90	246.17	13.02	-35.7	-36.9	17.4	0.00e+00	0	57	0	3189768192	41	4286
2026-01-06 05:21:31.91	246.06	12.94	-35.8	-37.1	17.2	0.00e+00	0	57	0	3197108224	41	4364
2026-01-06 05:21:32.92	245.95	12.86	-35.9	-37.1	17.2	0.00e+00	0	57	0	3204448256	41	4389
2026-01-06 05:21:33.94	245.85	12.77	-36.0	-37.2	17.1	0.00e+00	0	57	0	3211788288	41	4439
2026-01-06 05:21:34.95	245.74	12.69	-36.0	-37.3	17.1	0.00e+00	0	57	0	3219128320	41	4444
2026-01-06 05:21:35.96	245.63	12.61	-36.0	-37.3	17.0	0.00e+00	0	57	0	3226468352	41	4486
2026-01-06 05:21:36.97	245.53	12.52	-36.1	-37.5	16.9	0.00e+00	0	57	0	3233808384	41	4546
2026-01-06 05:21:37.98	245.42	12.44	-36.1	-37.5	16.9	0.00e+00	0	57	0	3241148416	41	4555
2026-01-06 05:21:38.99	245.32	12.36	-36.3	-37.6	16.7	0.00e+00	0	57	0	3248488448	42	4386
2026-01-06 05:21:40.00	245.22	12.27	-36.3	-37.7	16.7	0.00e+00	0	57	0	3255828480	42	4408
2026-01-06 05:21:41.01	245.11	12.19	-36.4	-37.8	16.6	0.00e+00	0	57	0	3263168512	42	4473
2026-01-06 05:21:42.02	245.01	12.11	-36.5	-37.9	16.5	0.00e+00	0	57	0	3269459968	42	4505
2026-01-06 05:21:43.03	244.91	12.03	-36.6	-38.0	16.4	0.00e+00	0	57	0	3276800000	42	4554
2026-01-06 05:21:44.04	244.81	11.95	-36.4	-37.8	16.6	0.00e+00	0	57	0	3285188608	42	4456
2026-01-06 05:21:45.05	244.71	11.86	-36.4	-37.7	16.6	0.00e+00	0	57	0	3291480064	42	4424
2026-01-06 05:21:46.05	244.61	11.78	-36.4	-37.8	16.6	0.00e+00	0	57	0	3298820096	42	4453
2026-01-06 05:21:47.06	244.51	11.70	-36.5	-37.9	16.5	0.00e+00	0	57	0	3306160128	42	4501
2026-01-06 05:21:48.08	244.41	11.62	-36.3	-37.7	16.6	0.00e+00	0	57	0	3313500160	42	4393
2026-01-06 05:21:49.08	244.31	11.54	-36.4	-37.7	16.6	0.00e+00	0	57	0	3320840192	42	4414
2026-01-06 05:21:50.09	244.22	11.46	-36.4	-37.8	16.6	0.00e+00	0	57	0	3328180224	42	4445
2026-01-06 05:21:51.10	244.12	11.38	-36.4	-37.8	16.5	0.00e+00	0	57	0	3335520256	42	4459
2026-01-06 05:21:52.11	244.02	11.30	-36.5	-37.9	16.4	0.00e+00	0	57	0	3342860288	42	4499
2026-01-06 05:21:53.12	243.93	11.22	-36.6	-38.0	16.3	0.00e+00	0	57	0	3350200320	42	4576
2026-01-06 05:21:54.13	243.83	11.14	-36.7	-38.1	16.1	0.00e+00	0	57	0	3357540352	43	4385
2026-01-06 05:21:55.14	243.74	11.06	-36.8	-38.2	16.1	0.00e+00	0	57	0	3364880384	43	4410
2026-01-06 05:21:56.15	243.64	10.98	-36.9	-38.4	15.9	0.00e+00	0	57	0	3372220416	43	4512
2026-01-06 05:21:57.16	243.55	10.90	-36.9	-38.4	15.9	0.00e+00	0	57	0	3379560448	43	4501
2026-01-06 05:21:58.17	243.46	10.82	-37.0	-38.4	15.8	0.00e+00	0	57	0	3386900480	43	4535
2026-01-06 05:21:59.18	243.36	10.74	-36.9	-38.4	15.8	0.00e+00	0	57	0	3393191936	43	4500
2026-01-06 05:22:00.19	243.27	10.66	-36.9	-38.4	15.8	0.00e+00	0	57	0	3401580544	43	4525
2026-01-06 05:22:01.19	243.18	10.58	-37.0	-38.5	15.7	0.00e+00	0	57	0	3408920576	43	4566
2026-01-06 05:22:02.20	243.09	10.50	-37.0	-38.4	15.8	0.00e+00	0	57	0	3415212032	43	4536
2026-01-06 05:22:03.21	243.00	10.43	-37.0	-38.5	15.7	0.00e+00	0	57	0	3422552064	43	4550
2026-01-06 05:22:04.22	242.91	10.35	-36.9	-38.4	15.8	0.00e+00	0	57	0	3429892096	43	4505
2026-01-06 05:22:05.23	242.82	10.27	-36.9	-38.3	15.9	0.00e+00	0	57	0	3437232128	43	4489
2026-01-06 05:22:06.24	242.73	10.19	-36.8	-38.3	15.9	0.00e+00	0	57	0	3444572160	43	4468
2026-01-06 05:22:07.25	242.64	10.11	-36.9	-38.3	15.9	0.00e+00	0	57	0	3451912192	43	4475
2026-01-06 05:22:08.26	242.55	10.04	-36.7	-38.2	16.0	0.00e+00	0	57	0	3459252224	43	4407
2026-01-06 05:22:09.27	242.46	9.96	-36.8	-38.2	16.0	0.00e+00	0	57	0	3466592256	43	4428
2026-01-06 05:22:10.28	242.38	9.88	-36.7	-38.2	16.0	0.00e+00	0	57	0	3473932288	43	4399
2026-01-06 05:22:11.29	242.29	9.81	-36.7	-38.1	16.1	0.00e+00	0	57	0	3481272320	43	4377
2026-01-06 05:22:12.30	242.20	9.73	-36.7	-38.2	16.0	0.00e+00	0	57	0	3488612352	43	4405
2026-01-06 05:22:13.31	242.12	9.65	-36.7	-38.1	16.0	0.00e+00	0	57	0	3495952384	43	4391
2026-01-06 05:22:14.33	242.03	9.58	-36.7	-38.2	16.0	0.00e+00	0	57	0	3503292416	43	4402
2026-01-06 05:22:15.34	241.95	9.50	-36.8	-38.2	15.9	0.00e+00	0	57	0	3510632448	43	4423
2026-01-06 05:22:16.35	241.86	9.42	-36.8	-38.2	15.9	0.00e+00	0	57	0	3517972480	43	4427
2026-01-06 05:22:17.36	241.78	9.35	-36.8	-38.2	15.9	0.00e+00	0	57	0	3525312512	43	4441
2026-01-06 05:22:18.37	241.69	9.27	-36.7	-38.1	16.0	0.00e+00	0	57	0	3532652544	43	4390
2026-01-06 05:22:19.38	241.61	9.20	-36.7	-38.2	15.9	0.00e+00	0	57	0	3539992576	43	4397
2026-01-06 05:22:20.39	241.53	9.12	-36.8	-38.3	15.8	0.00e+00	0	57	0	3547332608	43	4443
2026-01-06 05:22:21.40	241.44	9.05	-36.8	-38.3	15.8	0.00e+00	0	57	0	3554672640	43	4476
2026-01-06 05:22:22.41	241.36	8.97	-36.9	-38.4	15.7	0.00e+00	0	57	0	3562012672	43	4495
2026-01-06 05:22:23.42	241.28	8.90	-36.9	-38.4	15.6	0.00e+00	0	57	0	3568304128	43	4531
2026-01-06 05:22:24.43	241.20	8.82	-36.9	-38.4	15.7	0.00e+00	0	57	0	3575644160	43	4511
2026-01-06 05:22:25.44	241.12	8.75	-36.9	-38.4	15.6	0.00e+00	0	57	0	3584032768	43	4533
2026-01-06 05:22:26.45	241.04	8.67	-37.0	-38.5	15.5	0.00e+00	0	57	0	3590324224	43	4577
2026-01-06 05:22:27.46	240.96	8.60	-37.2	-38.7	15.3	0.00e+00	0	57	0	3597664256	43	4701
