passes_logs/2026/01/06/R2.0S_Moscow/R2.0S_Moscow__20260106_032416_FENGYUN_3D_rec.log

#Pass ID: 20260106_032416_FENGYUN 3D
#Satellite: FENGYUN 3D
#Configuration: FENGYUN 3D
#almurnet v.1.7.20251203
#Start time: 2026-01-06 03:24:17

#Version: 2.2.20231116
#Station: R2.0S_Moscow
#Location: 37.707566 lon 55.798166 lat
#TLE: 1 43010U 17072A   26005.48915933 -.00000051  00000+0 -21983-5 0  9995
#TLE: 2 43010  98.9919 337.1582 0002001 124.6377 235.4988 14.19691925421909

#Time	Az	El	Level	Level2	SNR	BER	BlckErr	Temp	State	Recorded	gain1	gain2
2026-01-06 03:24:17.05	10.72	2.03	-39.8	-51.4	3.8	8.46e-01	0	51	0	0	51	13513
2026-01-06 03:24:18.05	10.65	2.09	-39.8	-51.4	3.8	8.46e-01	0	51	104	0	51	13546
2026-01-06 03:24:19.06	10.59	2.14	-39.8	-51.4	3.8	8.45e-01	0	51	104	0	51	13491
2026-01-06 03:24:20.07	10.52	2.20	-39.9	-51.4	3.8	8.46e-01	0	51	104	0	51	13506
2026-01-06 03:24:21.08	10.46	2.26	-39.8	-51.4	3.8	8.46e-01	0	51	104	0	51	13505
2026-01-06 03:24:22.09	10.39	2.32	-39.8	-51.4	3.8	8.46e-01	0	51	104	0	51	13506
2026-01-06 03:24:23.11	10.33	2.37	-39.8	-51.4	3.8	8.45e-01	0	51	104	0	51	13542
2026-01-06 03:24:24.11	10.26	2.43	-39.8	-51.4	3.8	8.47e-01	0	51	104	0	51	13530
2026-01-06 03:24:25.12	10.19	2.49	-39.8	-51.4	3.8	8.45e-01	0	51	104	0	51	13510
2026-01-06 03:24:26.14	10.13	2.55	-39.8	-51.4	3.8	8.46e-01	0	51	104	0	51	13487
2026-01-06 03:24:27.15	10.06	2.60	-39.8	-51.4	3.8	8.46e-01	0	51	104	0	51	13479
2026-01-06 03:24:28.16	9.99	2.66	-39.8	-51.4	3.8	8.46e-01	0	51	104	0	51	13472
2026-01-06 03:24:29.17	9.92	2.72	-39.8	-51.4	3.8	8.45e-01	0	51	104	0	51	13478
2026-01-06 03:24:30.18	9.85	2.78	-39.8	-51.4	3.8	8.46e-01	0	51	104	0	51	13504
2026-01-06 03:24:31.19	9.79	2.84	-39.8	-51.4	3.8	8.46e-01	0	52	104	0	51	13539
2026-01-06 03:24:32.20	9.72	2.89	-39.8	-51.4	3.8	8.46e-01	0	52	104	0	51	13472
2026-01-06 03:24:33.21	9.65	2.95	-39.8	-51.4	3.8	8.46e-01	0	52	104	0	51	13506
2026-01-06 03:24:34.22	9.58	3.01	-39.8	-51.4	3.8	8.46e-01	0	52	104	0	51	13462
2026-01-06 03:24:35.24	9.51	3.07	-39.8	-51.4	3.8	8.46e-01	0	52	104	0	51	13472
2026-01-06 03:24:36.25	9.44	3.13	-39.8	-51.4	3.8	8.48e-01	0	52	104	0	51	13520
2026-01-06 03:24:37.26	9.37	3.19	-39.8	-51.4	3.8	8.46e-01	0	52	104	0	51	13489
2026-01-06 03:24:38.27	9.30	3.25	-39.8	-51.4	3.8	8.46e-01	0	52	104	0	51	13528
2026-01-06 03:24:39.28	9.23	3.30	-39.8	-51.4	3.8	8.45e-01	0	52	104	0	51	13445
2026-01-06 03:24:40.29	9.16	3.36	-39.8	-51.4	3.8	8.45e-01	0	52	104	0	51	13502
2026-01-06 03:24:41.30	9.08	3.42	-39.8	-51.4	3.8	8.46e-01	0	52	104	0	51	13521
2026-01-06 03:24:42.31	9.01	3.48	-39.8	-51.4	3.8	8.46e-01	0	52	104	0	51	13499
2026-01-06 03:24:43.32	8.94	3.54	-39.8	-51.4	3.8	8.46e-01	0	52	104	0	51	13432
2026-01-06 03:24:44.34	8.87	3.60	-39.8	-51.4	3.8	8.46e-01	0	52	104	0	51	13543
2026-01-06 03:24:45.35	8.80	3.66	-39.8	-51.4	3.8	8.46e-01	0	52	104	0	51	13520
2026-01-06 03:24:46.36	8.72	3.72	-39.8	-51.4	3.8	8.46e-01	0	52	104	0	51	13479
2026-01-06 03:24:47.37	8.65	3.78	-39.8	-51.4	3.8	8.46e-01	0	53	104	0	51	13513
2026-01-06 03:24:48.38	8.58	3.84	-39.8	-51.4	3.8	8.46e-01	0	53	104	0	51	13543
2026-01-06 03:24:49.39	8.50	3.90	-39.8	-51.4	3.8	8.47e-01	0	52	104	0	51	13478
2026-01-06 03:24:50.40	8.43	3.96	-39.8	-51.4	3.8	8.46e-01	0	53	104	0	51	13508
2026-01-06 03:24:51.41	8.35	4.02	-39.8	-51.4	3.8	8.46e-01	0	52	104	0	51	13473
2026-01-06 03:24:52.42	8.28	4.08	-39.8	-51.4	3.8	8.47e-01	0	53	104	0	51	13549
2026-01-06 03:24:53.44	8.20	4.14	-39.8	-51.4	3.8	8.46e-01	0	53	104	0	51	13485
2026-01-06 03:24:54.45	8.13	4.20	-39.8	-51.4	3.8	8.47e-01	0	53	104	0	51	13474
2026-01-06 03:24:55.46	8.05	4.26	-39.8	-51.4	3.8	8.46e-01	0	53	104	0	51	13486
2026-01-06 03:24:56.47	7.98	4.32	-39.8	-51.4	3.8	8.46e-01	0	53	104	0	51	13462
2026-01-06 03:24:57.48	7.90	4.38	-39.8	-51.4	3.8	8.46e-01	0	53	104	0	51	13493
2026-01-06 03:24:58.49	7.82	4.44	-39.8	-51.4	3.8	8.46e-01	0	53	104	0	51	13536
2026-01-06 03:24:59.50	7.75	4.50	-39.8	-51.4	3.8	8.47e-01	0	53	104	0	51	13473
2026-01-06 03:25:00.51	7.67	4.56	-39.8	-51.4	3.8	8.46e-01	0	53	104	0	51	13477
2026-01-06 03:25:01.52	7.59	4.62	-39.8	-51.4	3.8	8.46e-01	0	53	104	0	51	13485
2026-01-06 03:25:02.53	7.51	4.68	-39.8	-51.4	3.8	8.46e-01	0	53	104	0	51	13496
2026-01-06 03:25:03.54	7.43	4.74	-39.8	-51.4	3.8	8.46e-01	0	53	104	0	51	13449
2026-01-06 03:25:04.56	7.35	4.80	-39.8	-51.4	3.8	8.46e-01	0	53	104	0	51	13462
2026-01-06 03:25:05.57	7.27	4.86	-39.8	-51.4	3.8	8.44e-01	0	53	104	0	51	13464
2026-01-06 03:25:06.58	7.20	4.92	-39.8	-51.4	3.8	8.46e-01	0	53	104	0	51	13483
2026-01-06 03:25:07.59	7.12	4.98	-39.8	-51.4	3.8	8.47e-01	0	53	104	0	51	13498
2026-01-06 03:25:08.60	7.04	5.04	-39.8	-51.4	3.8	8.46e-01	0	53	104	0	51	13478
2026-01-06 03:25:09.61	6.95	5.11	-39.8	-51.4	3.8	8.46e-01	0	53	104	0	51	13473
2026-01-06 03:25:10.62	6.87	5.17	-39.8	-51.4	3.8	8.46e-01	0	53	104	0	51	13449
2026-01-06 03:25:11.63	6.79	5.23	-39.8	-51.4	3.8	8.45e-01	0	54	104	0	51	13485
2026-01-06 03:25:12.64	6.71	5.29	-39.8	-51.4	3.8	8.47e-01	0	54	104	0	51	13505
2026-01-06 03:25:13.66	6.63	5.35	-39.8	-51.4	3.8	8.47e-01	0	53	104	0	51	13479
2026-01-06 03:25:14.67	6.55	5.41	-39.8	-51.4	3.8	8.46e-01	0	54	104	0	51	13458
2026-01-06 03:25:15.68	6.46	5.48	-39.8	-51.4	3.8	8.46e-01	0	54	104	0	51	13446
2026-01-06 03:25:16.69	6.38	5.54	-39.8	-51.4	3.8	8.45e-01	0	54	104	0	51	13458
2026-01-06 03:25:17.70	6.30	5.60	-39.8	-51.4	3.8	8.46e-01	0	54	104	0	51	13418
2026-01-06 03:25:18.71	6.21	5.66	-39.8	-51.4	3.8	8.46e-01	0	54	104	0	51	13464
2026-01-06 03:25:19.72	6.13	5.72	-39.8	-51.3	3.8	8.46e-01	0	54	104	0	51	13413
2026-01-06 03:25:20.73	6.04	5.79	-39.8	-51.4	3.8	8.45e-01	0	54	104	0	51	13461
2026-01-06 03:25:21.74	5.96	5.85	-39.8	-51.4	3.8	8.46e-01	0	54	104	0	51	13427
2026-01-06 03:25:22.75	5.87	5.91	-39.8	-51.4	3.8	8.46e-01	0	54	104	0	51	13492
2026-01-06 03:25:23.77	5.79	5.97	-39.8	-51.4	3.8	8.46e-01	0	54	104	0	51	13470
2026-01-06 03:25:24.78	5.70	6.04	-39.8	-51.4	3.8	8.47e-01	0	54	104	0	51	13454
2026-01-06 03:25:25.79	5.61	6.10	-39.8	-51.4	3.8	8.46e-01	0	54	104	0	51	13498
2026-01-06 03:25:26.80	5.53	6.16	-39.8	-51.4	3.8	8.46e-01	0	54	104	0	51	13451
2026-01-06 03:25:27.81	5.44	6.22	-39.8	-51.4	3.8	8.46e-01	0	54	104	0	51	13435
2026-01-06 03:25:28.82	5.35	6.29	-39.8	-51.4	3.8	8.47e-01	0	54	104	0	51	13468
2026-01-06 03:25:29.83	5.26	6.35	-39.8	-51.4	3.8	8.46e-01	0	54	104	0	51	13448
2026-01-06 03:25:30.84	5.18	6.41	-39.8	-51.4	3.8	8.45e-01	0	54	104	0	51	13427
2026-01-06 03:25:31.85	5.09	6.48	-39.8	-51.4	3.8	8.46e-01	0	54	104	0	51	13483
2026-01-06 03:25:32.86	5.00	6.54	-39.8	-51.4	3.8	8.47e-01	0	54	104	0	51	13459
2026-01-06 03:25:33.87	4.91	6.60	-39.8	-51.4	3.8	8.45e-01	0	54	104	0	51	13482
2026-01-06 03:25:34.88	4.82	6.67	-39.8	-51.4	3.8	8.47e-01	0	54	104	0	51	13449
2026-01-06 03:25:35.90	4.73	6.73	-39.8	-51.4	3.8	8.46e-01	0	54	104	0	51	13442
2026-01-06 03:25:36.91	4.64	6.79	-39.8	-51.4	3.8	8.45e-01	0	54	104	0	51	13449
2026-01-06 03:25:37.92	4.54	6.86	-39.8	-51.4	3.8	8.46e-01	0	54	104	0	51	13486
2026-01-06 03:25:38.93	4.45	6.92	-39.8	-51.4	3.8	8.46e-01	0	54	104	0	51	13440
2026-01-06 03:25:39.94	4.36	6.98	-39.8	-51.4	3.8	8.47e-01	0	54	104	0	51	13493
2026-01-06 03:25:40.95	4.27	7.05	-39.8	-51.4	3.8	8.47e-01	0	55	104	0	51	13444
2026-01-06 03:25:41.96	4.17	7.11	-39.8	-51.4	3.8	8.46e-01	0	54	104	0	51	13482
2026-01-06 03:25:42.97	4.08	7.18	-39.8	-51.4	3.8	8.45e-01	0	54	104	0	51	13429
2026-01-06 03:25:43.98	3.99	7.24	-39.8	-51.4	3.8	8.46e-01	0	55	104	0	51	13514
2026-01-06 03:25:45.00	3.89	7.31	-39.8	-51.4	3.8	8.46e-01	0	55	104	0	51	13450
2026-01-06 03:25:46.01	3.80	7.37	-39.8	-51.4	3.8	8.46e-01	0	55	104	0	51	13469
2026-01-06 03:25:47.02	3.70	7.43	-39.8	-51.4	3.8	8.46e-01	0	55	104	0	51	13418
2026-01-06 03:25:48.03	3.61	7.50	-39.8	-51.4	3.8	8.45e-01	0	55	104	0	51	13431
2026-01-06 03:25:49.04	3.51	7.56	-39.8	-51.4	3.8	8.47e-01	0	55	104	0	51	13437
2026-01-06 03:25:50.05	3.41	7.63	-39.8	-51.4	3.8	8.46e-01	0	55	104	0	51	13444
2026-01-06 03:25:51.06	3.32	7.69	-39.8	-51.3	3.8	8.45e-01	0	55	104	0	51	13413
2026-01-06 03:25:52.07	3.22	7.76	-39.8	-51.4	3.8	8.46e-01	0	55	104	0	51	13478
2026-01-06 03:25:53.08	3.12	7.82	-39.8	-51.4	3.8	8.46e-01	0	55	104	0	51	13452
2026-01-06 03:25:54.09	3.02	7.89	-39.8	-51.4	3.8	8.46e-01	0	55	104	0	51	13460
2026-01-06 03:25:55.10	2.92	7.95	-39.8	-51.4	3.8	8.45e-01	0	55	104	0	51	13454
2026-01-06 03:25:56.11	2.83	8.02	-39.8	-51.3	3.8	8.47e-01	0	55	104	0	51	13406
2026-01-06 03:25:57.13	2.72	8.08	-39.9	-51.5	3.8	8.47e-01	0	55	104	0	51	13714
2026-01-06 03:25:58.13	2.63	8.15	-39.9	-51.5	3.8	8.46e-01	0	55	104	0	51	13723
2026-01-06 03:25:59.14	2.52	8.22	-39.9	-51.4	3.8	8.45e-01	0	55	104	0	51	13505
2026-01-06 03:26:00.15	2.42	8.28	-39.9	-51.5	3.8	8.46e-01	0	55	104	0	51	13572
2026-01-06 03:26:01.17	2.32	8.35	-39.8	-51.5	3.8	8.46e-01	0	55	104	0	51	13629
2026-01-06 03:26:02.17	2.22	8.41	-39.9	-51.5	3.8	8.45e-01	0	55	104	0	51	13618
2026-01-06 03:26:03.18	2.12	8.48	-39.8	-51.5	3.8	8.46e-01	0	55	104	0	51	13637
2026-01-06 03:26:04.19	2.01	8.54	-39.8	-51.5	3.8	8.46e-01	0	55	104	0	51	13673
2026-01-06 03:26:05.20	1.91	8.61	-39.9	-51.5	3.8	8.46e-01	0	55	104	0	51	13592
2026-01-06 03:26:06.21	1.81	8.68	-39.7	-51.5	3.8	8.46e-01	0	55	104	0	51	13620
2026-01-06 03:26:07.22	1.70	8.74	-39.9	-51.4	3.8	8.45e-01	0	55	104	0	51	13567
2026-01-06 03:26:08.23	1.60	8.81	-39.9	-51.5	3.8	8.45e-01	0	55	104	0	51	13651
2026-01-06 03:26:09.24	1.49	8.87	-39.6	-51.4	3.8	8.46e-01	0	55	104	0	51	13536
2026-01-06 03:26:10.25	1.39	8.94	-39.9	-51.5	3.8	8.47e-01	0	55	104	0	51	13585
2026-01-06 03:26:11.26	1.28	9.01	-39.5	-51.4	3.8	8.45e-01	0	55	104	0	51	13445
2026-01-06 03:26:12.27	1.17	9.07	-39.7	-51.5	3.8	8.47e-01	0	55	104	0	51	13598
2026-01-06 03:26:13.28	1.07	9.14	-39.8	-51.5	3.8	8.47e-01	0	55	104	0	51	13605
2026-01-06 03:26:14.29	0.96	9.21	-39.7	-51.5	3.8	8.46e-01	0	55	104	0	51	13633
2026-01-06 03:26:15.30	0.85	9.27	-39.8	-51.4	3.8	8.46e-01	0	55	104	0	51	13552
2026-01-06 03:26:16.31	0.74	9.34	-39.8	-51.5	3.8	8.46e-01	0	55	104	0	51	13636
2026-01-06 03:26:17.32	0.63	9.41	-39.6	-51.4	3.8	8.47e-01	0	55	104	0	51	13529
2026-01-06 03:26:18.33	0.52	9.48	-39.8	-51.5	3.8	8.45e-01	0	55	104	0	51	13624
2026-01-06 03:26:19.34	0.41	9.54	-39.6	-51.5	3.8	8.45e-01	0	55	104	0	51	13639
2026-01-06 03:26:20.35	0.30	9.61	-39.6	-51.5	3.8	8.46e-01	0	55	104	0	51	13637
2026-01-06 03:26:21.36	0.19	9.68	-39.7	-51.5	3.8	8.44e-01	0	55	104	0	51	13592
2026-01-06 03:26:22.37	0.07	9.74	-39.5	-51.5	3.8	8.45e-01	0	55	104	0	51	13590
2026-01-06 03:26:23.38	359.96	9.81	-39.7	-51.5	3.8	8.48e-01	0	55	104	0	51	13575
2026-01-06 03:26:24.39	359.85	9.88	-39.7	-51.5	3.8	8.45e-01	0	55	104	0	51	13656
2026-01-06 03:26:25.40	359.74	9.95	-39.5	-51.4	3.8	8.47e-01	0	55	104	0	50	14347
2026-01-06 03:26:26.41	359.62	10.01	-39.6	-51.5	3.8	8.45e-01	0	55	104	0	50	14455
2026-01-06 03:26:27.42	359.51	10.08	-39.4	-51.4	3.8	8.46e-01	0	55	104	0	50	14364
2026-01-06 03:26:28.43	359.39	10.15	-39.5	-51.5	3.8	8.46e-01	0	56	104	0	50	14385
2026-01-06 03:26:29.44	359.27	10.22	-39.5	-51.4	3.8	8.47e-01	0	56	104	0	50	14355
2026-01-06 03:26:30.45	359.16	10.29	-39.5	-51.4	3.8	8.46e-01	0	56	104	0	50	14338
2026-01-06 03:26:31.46	359.04	10.35	-39.6	-51.5	3.8	8.47e-01	0	55	104	0	50	14394
2026-01-06 03:26:32.47	358.92	10.42	-39.5	-51.5	3.8	8.47e-01	0	56	104	0	50	14402
2026-01-06 03:26:33.48	358.81	10.49	-39.6	-51.4	3.8	8.47e-01	0	56	104	0	50	14277
2026-01-06 03:26:34.49	358.69	10.56	-39.6	-51.5	3.8	8.45e-01	0	56	104	0	50	14438
2026-01-06 03:26:35.50	358.57	10.63	-39.6	-51.5	3.8	8.46e-01	0	56	104	0	50	14393
2026-01-06 03:26:36.51	358.45	10.69	-39.7	-51.5	3.8	8.45e-01	0	56	104	0	50	14459
2026-01-06 03:26:37.52	358.33	10.76	-39.8	-51.5	3.8	8.46e-01	0	56	104	0	50	14489
2026-01-06 03:26:38.53	358.21	10.83	-39.8	-51.6	3.8	8.46e-01	0	56	104	0	50	14547
2026-01-06 03:26:39.54	358.08	10.90	-39.7	-51.5	3.8	8.47e-01	0	56	104	0	50	14518
2026-01-06 03:26:40.55	357.96	10.97	-39.8	-51.5	3.8	8.47e-01	0	56	104	0	50	14506
2026-01-06 03:26:41.56	357.84	11.04	-39.9	-51.5	3.8	8.46e-01	0	56	104	0	50	14469
2026-01-06 03:26:42.57	357.72	11.11	-39.8	-51.5	3.8	8.47e-01	0	56	104	0	50	14447
2026-01-06 03:26:43.58	357.59	11.17	-39.6	-51.4	3.8	8.45e-01	0	56	104	0	50	14350
2026-01-06 03:26:44.59	357.47	11.24	-39.9	-51.5	3.8	8.45e-01	0	56	104	0	50	14475
2026-01-06 03:26:45.60	357.34	11.31	-39.9	-51.4	3.8	8.46e-01	0	56	104	0	50	14337
2026-01-06 03:26:46.61	357.22	11.38	-39.9	-51.5	3.8	8.48e-01	0	56	104	0	50	14397
2026-01-06 03:26:47.62	357.09	11.45	-39.8	-51.4	3.8	8.46e-01	0	56	104	0	50	14242
2026-01-06 03:26:48.63	356.96	11.52	-39.8	-51.3	3.8	8.47e-01	0	56	104	0	50	14055
2026-01-06 03:26:49.64	356.83	11.59	-39.8	-50.3	3.8	8.46e-01	0	56	104	0	50	12625
2026-01-06 03:26:50.65	356.71	11.66	-39.7	-50.9	3.8	8.45e-01	0	56	104	0	50	13424
2026-01-06 03:26:51.66	356.58	11.73	-39.6	-49.0	3.9	8.46e-01	0	56	104	0	50	10798
2026-01-06 03:26:52.67	356.45	11.80	-39.6	-48.6	4.2	8.10e-01	0	56	0	0	50	10310
2026-01-06 03:26:53.68	356.32	11.87	-39.4	-48.0	4.4	8.45e-01	0	56	104	0	50	9668
2026-01-06 03:26:54.69	356.19	11.94	-39.4	-47.5	4.7	7.94e-01	0	56	0	0	50	9124
2026-01-06 03:26:55.70	356.05	12.00	-39.7	-48.5	4.3	8.29e-01	0	56	0	0	50	10285
2026-01-06 03:26:56.71	355.92	12.07	-39.8	-49.2	4.1	8.38e-01	0	56	0	0	50	11124
2026-01-06 03:26:57.72	355.79	12.14	-39.9	-49.5	4.0	8.43e-01	0	56	104	0	50	11508
2026-01-06 03:26:58.74	355.65	12.21	-40.0	-49.8	4.0	8.43e-01	0	56	104	0	50	11844
2026-01-06 03:26:59.75	355.52	12.28	-40.0	-49.9	3.8	8.44e-01	0	56	104	0	50	12047
2026-01-06 03:27:00.76	355.39	12.35	-40.1	-50.0	3.9	8.45e-01	0	56	104	0	50	12104
2026-01-06 03:27:01.77	355.25	12.42	-40.1	-50.2	3.8	8.46e-01	0	56	104	0	50	12432
2026-01-06 03:27:02.78	355.11	12.49	-40.1	-50.5	3.8	8.46e-01	0	56	104	0	50	12901
2026-01-06 03:27:03.79	354.98	12.56	-40.1	-51.1	3.8	8.47e-01	0	56	104	0	50	13762
2026-01-06 03:27:04.79	354.84	12.63	-40.1	-51.3	3.8	8.46e-01	0	56	104	0	50	14112
2026-01-06 03:27:05.80	354.70	12.70	-40.1	-51.5	3.8	8.47e-01	0	56	104	0	50	14434
2026-01-06 03:27:06.81	354.57	12.77	-40.1	-51.6	3.8	8.45e-01	0	56	104	0	50	14667
2026-01-06 03:27:07.82	354.43	12.84	-40.1	-51.5	3.8	8.45e-01	0	56	104	0	50	14419
2026-01-06 03:27:08.83	354.29	12.91	-40.3	-51.8	3.8	8.46e-01	0	56	104	0	51	14168
2026-01-06 03:27:09.84	354.14	12.98	-40.4	-51.9	3.8	8.47e-01	0	56	104	0	51	14344
2026-01-06 03:27:10.85	354.00	13.05	-40.0	-51.8	3.8	8.46e-01	0	56	104	0	51	14201
2026-01-06 03:27:11.86	353.86	13.12	-40.4	-51.9	3.8	8.45e-01	0	56	104	0	51	14347
2026-01-06 03:27:12.87	353.72	13.19	-39.8	-51.9	3.8	8.46e-01	0	56	104	0	51	14229
2026-01-06 03:27:13.89	353.57	13.26	-40.5	-52.1	3.8	8.47e-01	0	56	104	0	51	14707
2026-01-06 03:27:14.90	353.43	13.33	-40.2	-51.8	3.8	8.46e-01	0	56	104	0	51	14137
2026-01-06 03:27:15.91	353.28	13.40	-40.7	-52.3	3.8	8.46e-01	0	56	104	0	51	14975
2026-01-06 03:27:16.92	353.14	13.47	-40.2	-51.8	3.8	8.47e-01	0	56	104	0	52	13345
2026-01-06 03:27:17.93	352.99	13.54	-40.3	-51.9	3.8	8.46e-01	0	56	104	0	52	13436
2026-01-06 03:27:18.94	352.85	13.61	-39.8	-51.9	3.8	8.46e-01	0	56	104	0	51	14322
2026-01-06 03:27:19.95	352.70	13.68	-40.3	-51.9	3.8	8.45e-01	0	56	104	0	51	14237
2026-01-06 03:27:20.96	352.55	13.75	-40.3	-52.0	3.8	8.46e-01	0	56	104	0	51	14397
2026-01-06 03:27:21.97	352.40	13.82	-40.4	-52.0	3.8	8.46e-01	0	56	104	0	51	14536
2026-01-06 03:27:22.98	352.25	13.89	-40.2	-52.0	3.8	8.46e-01	0	56	104	0	51	14528
2026-01-06 03:27:23.99	352.10	13.96	-40.5	-52.1	3.8	8.47e-01	0	57	104	0	51	14641
2026-01-06 03:27:25.00	351.95	14.03	-40.6	-52.3	3.8	8.46e-01	0	56	104	0	51	14880
2026-01-06 03:27:26.01	351.80	14.10	-40.6	-52.3	3.8	8.46e-01	0	56	104	0	51	14911
2026-01-06 03:27:27.02	351.64	14.18	-40.7	-52.3	3.8	8.46e-01	0	56	104	0	52	14078
2026-01-06 03:27:28.03	351.49	14.25	-40.6	-52.3	3.8	8.46e-01	0	56	104	0	52	14063
2026-01-06 03:27:29.04	351.34	14.32	-40.6	-52.2	3.8	8.45e-01	0	56	104	0	52	14027
2026-01-06 03:27:30.05	351.18	14.39	-40.5	-52.1	3.8	8.45e-01	0	56	104	0	52	13878
2026-01-06 03:27:31.06	351.02	14.46	-40.7	-52.4	3.8	8.47e-01	0	56	104	0	52	14237
2026-01-06 03:27:32.07	350.87	14.53	-40.5	-52.3	3.8	8.46e-01	0	56	104	0	52	14080
2026-01-06 03:27:33.08	350.71	14.60	-40.7	-52.4	3.8	8.46e-01	0	56	104	0	52	14322
2026-01-06 03:27:34.09	350.55	14.67	-40.4	-52.3	3.8	8.46e-01	0	56	104	0	52	14208
2026-01-06 03:27:35.10	350.39	14.74	-40.6	-52.2	3.8	8.47e-01	0	56	104	0	52	13914
2026-01-06 03:27:36.11	350.23	14.81	-40.5	-52.4	3.8	8.46e-01	0	56	104	0	52	14261
2026-01-06 03:27:37.12	350.07	14.88	-40.6	-52.3	3.8	8.45e-01	0	56	104	0	52	14060
2026-01-06 03:27:38.13	349.91	14.95	-40.6	-52.4	3.8	8.47e-01	0	56	104	0	52	14240
2026-01-06 03:27:39.14	349.75	15.02	-40.5	-52.3	3.8	8.46e-01	0	56	104	0	52	14114
2026-01-06 03:27:40.15	349.59	15.09	-40.4	-52.4	3.8	8.47e-01	0	56	104	0	52	14213
2026-01-06 03:27:41.16	349.42	15.16	-40.7	-52.4	3.8	8.46e-01	0	56	104	0	52	14348
2026-01-06 03:27:42.17	349.26	15.23	-41.1	-52.9	3.8	8.46e-01	0	57	104	0	52	15154
2026-01-06 03:27:43.18	349.09	15.30	-40.5	-52.3	3.8	8.46e-01	0	56	104	0	52	14166
2026-01-06 03:27:44.19	348.93	15.37	-40.5	-52.4	3.8	8.46e-01	0	56	104	0	52	14257
2026-01-06 03:27:45.20	348.76	15.44	-40.5	-52.3	3.8	8.46e-01	0	57	104	0	52	14206
2026-01-06 03:27:46.21	348.59	15.51	-40.6	-52.4	3.8	8.46e-01	0	56	104	0	52	14370
2026-01-06 03:27:47.22	348.43	15.58	-40.7	-52.5	3.8	8.46e-01	0	56	104	0	52	14428
2026-01-06 03:27:48.23	348.26	15.65	-40.8	-52.8	3.8	8.47e-01	0	56	104	0	52	14897
2026-01-06 03:27:49.24	348.09	15.72	-41.5	-53.2	3.8	8.46e-01	0	57	104	0	53	14827
2026-01-06 03:27:50.25	347.92	15.79	-41.6	-53.3	3.8	8.47e-01	0	57	104	0	54	14103
2026-01-06 03:27:51.26	347.74	15.85	-41.4	-53.2	3.8	8.46e-01	0	57	104	0	54	13895
2026-01-06 03:27:52.27	347.57	15.92	-41.7	-53.4	3.8	8.46e-01	0	57	104	0	54	14248
2026-01-06 03:27:53.28	347.40	15.99	-41.4	-53.3	3.8	8.46e-01	0	57	104	0	54	14133
2026-01-06 03:27:54.29	347.22	16.06	-41.3	-53.2	3.8	8.47e-01	0	57	104	0	54	13944
2026-01-06 03:27:55.30	347.05	16.13	-41.5	-53.2	3.8	8.45e-01	0	57	104	0	54	13902
2026-01-06 03:27:56.31	346.87	16.20	-41.2	-53.1	3.8	8.46e-01	0	57	104	0	54	13752
2026-01-06 03:27:57.32	346.70	16.27	-41.6	-53.3	3.8	8.46e-01	0	56	104	0	54	14057
2026-01-06 03:27:58.33	346.52	16.34	-41.5	-53.3	3.8	8.46e-01	0	57	104	0	54	14171
2026-01-06 03:27:59.34	346.34	16.41	-41.1	-52.9	3.8	8.46e-01	0	56	104	0	54	13547
2026-01-06 03:28:00.35	346.16	16.48	-41.3	-53.1	3.8	8.47e-01	0	57	104	0	54	13785
2026-01-06 03:28:01.36	345.98	16.55	-40.9	-52.5	3.8	8.46e-01	0	56	104	0	53	13702
2026-01-06 03:28:02.37	345.80	16.61	-40.8	-52.5	3.8	8.46e-01	0	57	104	0	53	13590
2026-01-06 03:28:03.37	345.62	16.68	-41.1	-52.9	3.8	8.46e-01	0	57	104	0	53	14219
2026-01-06 03:28:04.39	345.44	16.75	-40.8	-52.5	3.8	8.47e-01	0	57	104	0	53	13604
2026-01-06 03:28:05.40	345.26	16.82	-40.8	-52.5	3.8	8.47e-01	0	57	104	0	53	13654
2026-01-06 03:28:06.41	345.07	16.89	-40.9	-52.6	3.8	8.47e-01	0	57	104	0	53	13733
2026-01-06 03:28:07.41	344.89	16.96	-40.7	-52.4	3.8	8.45e-01	0	57	104	0	53	13463
2026-01-06 03:28:08.42	344.70	17.02	-41.0	-52.6	3.8	8.46e-01	0	57	104	0	53	13824
2026-01-06 03:28:09.43	344.52	17.09	-40.8	-52.5	3.8	8.46e-01	0	57	104	0	53	13631
2026-01-06 03:28:10.44	344.33	17.16	-41.0	-52.6	3.8	8.45e-01	0	57	104	0	53	13826
2026-01-06 03:28:11.45	344.14	17.23	-40.9	-52.4	3.8	8.47e-01	0	57	104	0	53	13537
2026-01-06 03:28:12.46	343.95	17.29	-40.8	-52.5	3.8	8.45e-01	0	57	104	0	53	13607
2026-01-06 03:28:13.47	343.76	17.36	-40.3	-52.2	3.8	8.47e-01	0	57	104	0	52	14031
2026-01-06 03:28:14.48	343.57	17.43	-40.3	-52.4	3.8	8.47e-01	0	57	104	0	51	15125
2026-01-06 03:28:15.49	343.38	17.50	-40.4	-52.3	3.8	8.46e-01	0	57	104	0	52	14169
2026-01-06 03:28:16.50	343.19	17.56	-40.0	-52.3	3.8	8.45e-01	0	57	104	0	52	14122
2026-01-06 03:28:17.51	342.99	17.63	-40.4	-52.3	3.8	8.46e-01	0	57	104	0	52	14055
2026-01-06 03:28:18.53	342.80	17.70	-40.0	-52.3	3.8	8.46e-01	0	57	104	0	52	14182
2026-01-06 03:28:19.54	342.60	17.76	-40.2	-52.4	3.8	8.46e-01	0	57	104	0	51	15199
2026-01-06 03:28:20.55	342.41	17.83	-40.3	-52.4	3.8	8.47e-01	0	57	104	0	51	15157
2026-01-06 03:28:21.56	342.21	17.90	-40.3	-52.2	3.8	8.45e-01	0	57	104	0	51	14767
2026-01-06 03:28:22.57	342.01	17.96	-40.5	-52.3	3.8	8.45e-01	0	57	104	0	51	14954
2026-01-06 03:28:23.58	341.81	18.03	-40.4	-52.2	3.8	8.46e-01	0	57	104	0	51	14766
2026-01-06 03:28:24.59	341.61	18.09	-40.4	-52.2	3.8	8.47e-01	0	57	104	0	51	14789
2026-01-06 03:28:25.60	341.41	18.16	-40.3	-52.1	3.8	8.45e-01	0	57	104	0	51	14677
2026-01-06 03:28:26.61	341.21	18.22	-40.4	-52.2	3.8	8.46e-01	0	57	104	0	51	14716
2026-01-06 03:28:27.63	341.01	18.29	-40.4	-52.2	3.8	8.46e-01	0	57	104	0	51	14719
2026-01-06 03:28:28.64	340.80	18.35	-40.5	-52.1	3.8	8.45e-01	0	57	104	0	51	14619
2026-01-06 03:28:29.64	340.60	18.42	-40.7	-51.2	3.8	8.46e-01	0	57	104	0	52	12440
2026-01-06 03:28:30.65	340.40	18.48	-40.4	-51.8	3.8	8.46e-01	0	57	104	0	52	13401
2026-01-06 03:28:31.66	340.19	18.55	-40.5	-50.2	3.8	8.46e-01	0	57	104	0	52	11131
2026-01-06 03:28:32.67	339.98	18.61	-40.5	-47.2	5.1	7.80e-01	0	57	0	0	52	7857
2026-01-06 03:28:33.68	339.78	18.67	-40.1	-45.4	6.7	3.38e-01	0	57	0	3145728	52	6350
2026-01-06 03:28:34.69	339.57	18.74	-39.6	-43.7	8.7	6.07e-02	0	57	0	8388608	51	5532
2026-01-06 03:28:35.70	339.36	18.80	-38.7	-41.8	10.9	8.63e-03	0	57	0	14680064	49	4992
2026-01-06 03:28:36.71	339.15	18.86	-37.5	-39.8	13.2	1.21e-04	0	57	0	19922944	47	4452
2026-01-06 03:28:37.72	338.94	18.93	-36.2	-37.9	15.4	1.10e-06	0	57	0	26214400	44	4287
2026-01-06 03:28:38.73	338.72	18.99	-34.9	-36.4	16.9	0.00e+00	0	57	0	31457280	41	4252
2026-01-06 03:28:39.74	338.51	19.05	-34.1	-35.5	18.0	0.00e+00	0	57	0	37748736	40	4066
2026-01-06 03:28:40.75	338.30	19.11	-33.9	-35.1	18.6	0.00e+00	0	57	0	42991616	39	4139
2026-01-06 03:28:41.76	338.08	19.17	-34.2	-35.5	18.4	0.00e+00	0	57	0	49283072	39	4325
2026-01-06 03:28:42.77	337.87	19.24	-34.5	-35.9	18.1	0.00e+00	0	57	0	54525952	39	4504
2026-01-06 03:28:43.78	337.65	19.30	-34.7	-36.1	17.9	0.00e+00	0	57	0	59768832	40	4355
2026-01-06 03:28:44.79	337.43	19.36	-34.6	-36.0	18.1	0.00e+00	0	57	0	66060288	40	4308
2026-01-06 03:28:45.80	337.22	19.42	-34.3	-35.6	18.6	0.00e+00	0	57	0	71303168	40	4128
2026-01-06 03:28:46.81	337.00	19.48	-34.4	-35.6	18.7	0.00e+00	0	57	0	77594624	40	4140
2026-01-06 03:28:47.82	336.78	19.54	-34.6	-35.9	18.5	0.00e+00	0	57	0	82837504	40	4273
2026-01-06 03:28:48.83	336.56	19.60	-34.4	-35.6	18.8	0.00e+00	0	57	0	88080384	40	4136
2026-01-06 03:28:49.84	336.33	19.66	-34.5	-35.7	18.8	0.00e+00	0	57	0	94371840	40	4189
2026-01-06 03:28:50.85	336.11	19.72	-34.5	-35.7	18.9	0.00e+00	0	57	0	99614720	40	4175
2026-01-06 03:28:51.86	335.89	19.78	-34.5	-35.8	18.9	0.00e+00	0	57	0	105906176	40	4196
2026-01-06 03:28:52.87	335.66	19.84	-34.6	-35.8	18.9	0.00e+00	0	57	0	111149056	40	4227
2026-01-06 03:28:53.88	335.44	19.89	-34.6	-35.9	18.8	0.00e+00	0	57	0	116391936	40	4256
2026-01-06 03:28:54.89	335.21	19.95	-34.3	-35.5	19.3	0.00e+00	0	57	0	122683392	40	4064
2026-01-06 03:28:55.90	334.99	20.01	-34.2	-35.4	19.4	0.00e+00	0	57	0	127926272	40	4020
2026-01-06 03:28:56.91	334.76	20.07	-34.2	-35.4	19.4	0.00e+00	0	57	0	134217728	40	4008
2026-01-06 03:28:57.92	334.53	20.12	-34.2	-35.4	19.4	0.00e+00	0	57	0	139460608	40	4048
2026-01-06 03:28:58.93	334.30	20.18	-34.2	-35.4	19.4	0.00e+00	0	57	0	145752064	40	4044
2026-01-06 03:28:59.94	334.07	20.24	-34.2	-35.4	19.4	0.00e+00	0	57	0	150994944	40	4044
2026-01-06 03:29:00.95	333.84	20.29	-34.2	-35.4	19.4	0.00e+00	0	57	0	156237824	40	4042
2026-01-06 03:29:01.97	333.60	20.35	-34.3	-35.5	19.3	0.00e+00	0	57	0	162529280	40	4089
2026-01-06 03:29:02.98	333.37	20.40	-34.3	-35.5	19.3	0.00e+00	0	57	0	167772160	40	4091
2026-01-06 03:29:03.99	333.14	20.46	-34.2	-35.4	19.4	0.00e+00	0	57	0	174063616	40	4045
2026-01-06 03:29:05.00	332.90	20.51	-34.1	-35.3	19.5	0.00e+00	0	57	0	179306496	40	3986
2026-01-06 03:29:06.01	332.67	20.56	-34.0	-35.2	19.7	0.00e+00	0	57	0	185597952	40	3933
2026-01-06 03:29:07.02	332.43	20.62	-34.1	-35.2	19.7	0.00e+00	0	57	0	190840832	39	4188
2026-01-06 03:29:08.03	332.19	20.67	-34.0	-35.2	19.8	0.00e+00	0	57	0	196083712	39	4172
2026-01-06 03:29:09.04	331.96	20.72	-34.1	-35.3	19.7	0.00e+00	0	57	0	202375168	39	4204
2026-01-06 03:29:10.05	331.72	20.78	-34.2	-35.4	19.6	0.00e+00	0	57	0	207618048	39	4252
2026-01-06 03:29:11.06	331.48	20.83	-33.9	-35.1	19.9	0.00e+00	0	57	0	213909504	39	4118
2026-01-06 03:29:12.07	331.24	20.88	-33.8	-34.9	20.0	0.00e+00	0	57	0	219152384	39	4035
2026-01-06 03:29:13.08	331.00	20.93	-33.8	-35.0	20.0	0.00e+00	0	57	0	224395264	39	4061
2026-01-06 03:29:14.09	330.75	20.98	-33.9	-35.0	19.9	0.00e+00	0	57	0	230686720	39	4097
2026-01-06 03:29:15.10	330.51	21.03	-33.9	-35.0	19.9	0.00e+00	0	57	0	235929600	39	4085
2026-01-06 03:29:16.11	330.27	21.08	-34.0	-35.2	19.8	0.00e+00	0	57	0	242221056	39	4152
2026-01-06 03:29:17.12	330.02	21.13	-34.1	-35.3	19.8	0.00e+00	0	57	0	247463936	39	4194
2026-01-06 03:29:18.13	329.78	21.18	-34.0	-35.1	19.8	0.00e+00	0	57	0	252706816	39	4140
2026-01-06 03:29:19.14	329.53	21.23	-33.9	-35.1	19.9	0.00e+00	0	57	0	258998272	39	4121
2026-01-06 03:29:20.15	329.29	21.27	-33.7	-34.8	20.2	0.00e+00	0	57	0	264241152	39	3979
2026-01-06 03:29:21.16	329.04	21.32	-33.7	-34.8	20.2	0.00e+00	0	57	0	270532608	39	3990
2026-01-06 03:29:22.17	328.79	21.37	-33.8	-34.9	20.1	0.00e+00	0	57	0	275775488	39	4035
2026-01-06 03:29:23.18	328.54	21.42	-33.9	-35.1	19.9	0.00e+00	0	57	0	282066944	39	4101
2026-01-06 03:29:24.18	328.29	21.46	-33.9	-35.0	20.0	0.00e+00	0	57	0	287309824	39	4093
2026-01-06 03:29:25.19	328.04	21.51	-33.9	-35.0	20.0	0.00e+00	0	57	0	292552704	39	4098
2026-01-06 03:29:26.21	327.79	21.55	-33.8	-35.0	20.0	0.00e+00	0	57	0	298844160	39	4055
2026-01-06 03:29:27.22	327.54	21.60	-33.6	-34.8	20.2	0.00e+00	0	57	0	304087040	39	3974
2026-01-06 03:29:28.23	327.28	21.64	-33.6	-34.7	20.3	0.00e+00	0	57	0	310378496	39	3956
2026-01-06 03:29:29.24	327.03	21.68	-33.7	-34.8	20.2	0.00e+00	0	57	0	315621376	39	3985
2026-01-06 03:29:30.25	326.78	21.73	-33.7	-34.8	20.2	0.00e+00	0	57	0	320864256	39	3988
2026-01-06 03:29:31.25	326.52	21.77	-33.7	-34.8	20.2	0.00e+00	0	57	0	327155712	39	3977
2026-01-06 03:29:32.26	326.27	21.81	-33.6	-34.7	20.3	0.00e+00	0	57	0	332398592	39	3925
2026-01-06 03:29:33.28	326.01	21.85	-33.7	-34.8	20.2	0.00e+00	0	57	0	338690048	39	3973
2026-01-06 03:29:34.29	325.75	21.89	-33.5	-34.6	20.4	0.00e+00	0	57	0	343932928	39	3899
2026-01-06 03:29:35.30	325.50	21.93	-33.6	-34.7	20.3	0.00e+00	0	57	0	350224384	39	3929
2026-01-06 03:29:36.31	325.24	21.97	-33.6	-34.8	20.2	0.00e+00	0	57	0	355467264	39	3961
2026-01-06 03:29:37.32	324.98	22.01	-33.7	-34.9	20.1	0.00e+00	0	57	0	360710144	39	4010
2026-01-06 03:29:38.33	324.72	22.05	-33.8	-34.9	20.1	0.00e+00	0	57	0	367001600	39	4032
2026-01-06 03:29:39.34	324.46	22.09	-33.8	-34.9	20.1	0.00e+00	0	57	0	372244480	39	4049
2026-01-06 03:29:40.35	324.20	22.12	-33.7	-34.9	20.2	0.00e+00	0	57	0	378535936	39	4011
2026-01-06 03:29:41.36	323.94	22.16	-33.7	-34.9	20.1	0.00e+00	0	57	0	383778816	39	4014
2026-01-06 03:29:42.38	323.67	22.20	-33.7	-34.8	20.2	0.00e+00	0	57	0	390070272	39	3985
2026-01-06 03:29:43.39	323.41	22.23	-33.6	-34.7	20.3	0.00e+00	0	57	0	395313152	39	3929
2026-01-06 03:29:44.40	323.14	22.27	-33.6	-34.7	20.3	0.00e+00	0	57	0	400556032	39	3953
2026-01-06 03:29:45.40	322.88	22.30	-33.6	-34.7	20.3	0.00e+00	0	57	0	406847488	39	3937
2026-01-06 03:29:46.41	322.62	22.33	-33.5	-34.6	20.4	0.00e+00	0	57	0	412090368	38	4103
2026-01-06 03:29:47.42	322.35	22.37	-33.4	-34.5	20.5	0.00e+00	0	57	0	418381824	38	4089
2026-01-06 03:29:48.43	322.09	22.40	-33.5	-34.6	20.4	0.00e+00	0	57	0	423624704	38	4125
2026-01-06 03:29:49.44	321.82	22.43	-33.6	-34.8	20.3	0.00e+00	0	57	0	428867584	38	4201
2026-01-06 03:29:50.45	321.55	22.46	-33.5	-34.6	20.4	0.00e+00	0	57	0	435159040	38	4134
2026-01-06 03:29:51.46	321.29	22.49	-33.5	-34.6	20.4	0.00e+00	0	57	0	440401920	38	4139
2026-01-06 03:29:52.48	321.02	22.52	-33.6	-34.7	20.3	0.00e+00	0	57	0	446693376	38	4189
2026-01-06 03:29:53.48	320.75	22.55	-33.7	-34.9	20.1	0.00e+00	0	57	0	451936256	38	4257
2026-01-06 03:29:54.50	320.48	22.58	-33.6	-34.8	20.2	0.00e+00	0	57	0	457179136	38	4207
2026-01-06 03:29:55.51	320.21	22.61	-33.7	-34.8	20.2	0.00e+00	0	57	0	463470592	38	4221
2026-01-06 03:29:56.52	319.94	22.64	-33.8	-34.9	20.1	0.00e+00	0	57	0	468713472	38	4280
2026-01-06 03:29:57.52	319.67	22.66	-33.8	-34.9	20.1	0.00e+00	0	57	0	475004928	38	4285
2026-01-06 03:29:58.54	319.40	22.69	-33.7	-34.9	20.2	0.00e+00	0	57	0	480247808	38	4243
2026-01-06 03:29:59.55	319.13	22.72	-33.7	-34.8	20.2	0.00e+00	0	57	0	486539264	38	4218
2026-01-06 03:30:00.55	318.86	22.74	-33.6	-34.8	20.2	0.00e+00	0	57	0	491782144	38	4205
2026-01-06 03:30:01.56	318.58	22.76	-33.7	-34.9	20.1	0.00e+00	0	57	0	498073600	38	4244
2026-01-06 03:30:02.57	318.31	22.79	-33.5	-34.6	20.4	0.00e+00	0	57	0	503316480	38	4140
2026-01-06 03:30:03.58	318.04	22.81	-33.5	-34.6	20.4	0.00e+00	0	57	0	508559360	38	4141
2026-01-06 03:30:04.59	317.76	22.83	-33.5	-34.6	20.4	0.00e+00	0	57	0	514850816	38	4131
2026-01-06 03:30:05.60	317.49	22.85	-33.5	-34.6	20.4	0.00e+00	0	57	0	520093696	38	4112
2026-01-06 03:30:06.61	317.22	22.87	-33.5	-34.6	20.4	0.00e+00	0	57	0	526385152	38	4126
2026-01-06 03:30:07.62	316.94	22.89	-33.3	-34.4	20.5	0.00e+00	0	57	0	531628032	38	4049
2026-01-06 03:30:08.63	316.67	22.91	-33.1	-34.2	20.7	0.00e+00	0	57	0	536870912	38	3951
2026-01-06 03:30:09.64	316.39	22.93	-33.0	-34.1	20.9	0.00e+00	0	57	0	543162368	38	3877
2026-01-06 03:30:10.65	316.12	22.95	-33.1	-34.1	20.8	0.00e+00	0	57	0	548405248	38	3904
2026-01-06 03:30:11.66	315.84	22.97	-33.0	-34.1	20.9	0.00e+00	0	57	0	554696704	38	3880
2026-01-06 03:30:12.67	315.56	22.98	-33.1	-34.2	20.8	0.00e+00	0	57	0	559939584	38	3928
2026-01-06 03:30:13.68	315.29	23.00	-33.2	-34.3	20.7	0.00e+00	0	57	0	565182464	38	3970
2026-01-06 03:30:14.69	315.01	23.01	-33.3	-34.4	20.6	0.00e+00	0	57	0	571473920	38	4010
2026-01-06 03:30:15.70	314.73	23.03	-33.3	-34.4	20.6	0.00e+00	0	57	0	576716800	38	4017
2026-01-06 03:30:16.71	314.46	23.04	-33.3	-34.5	20.5	0.00e+00	0	57	0	583008256	38	4057
2026-01-06 03:30:17.72	314.18	23.06	-33.4	-34.5	20.4	0.00e+00	0	57	0	588251136	38	4082
2026-01-06 03:30:18.73	313.90	23.07	-33.5	-34.6	20.4	0.00e+00	0	57	0	594542592	38	4106
2026-01-06 03:30:19.74	313.62	23.08	-33.3	-34.4	20.6	0.00e+00	0	57	0	599785472	38	4045
2026-01-06 03:30:20.75	313.34	23.09	-33.2	-34.3	20.6	0.00e+00	0	57	0	606076928	38	4001
2026-01-06 03:30:21.76	313.06	23.10	-33.2	-34.3	20.7	0.00e+00	0	57	0	611319808	38	3977
2026-01-06 03:30:22.77	312.79	23.11	-33.2	-34.3	20.7	0.00e+00	0	57	0	616562688	38	3980
2026-01-06 03:30:23.78	312.51	23.12	-33.1	-34.2	20.8	0.00e+00	0	57	0	622854144	38	3941
2026-01-06 03:30:24.79	312.23	23.13	-33.2	-34.2	20.8	0.00e+00	0	57	0	628097024	38	3955
2026-01-06 03:30:25.80	311.95	23.13	-33.2	-34.4	20.6	0.00e+00	0	57	0	633339904	38	4007
2026-01-06 03:30:26.80	311.67	23.14	-33.3	-34.4	20.6	0.00e+00	0	57	0	639631360	38	4005
2026-01-06 03:30:27.81	311.39	23.15	-33.3	-34.4	20.6	0.00e+00	0	57	0	644874240	38	4044
2026-01-06 03:30:28.82	311.11	23.15	-33.3	-34.4	20.6	0.00e+00	0	57	0	651165696	38	4028
2026-01-06 03:30:29.83	310.83	23.15	-33.3	-34.4	20.6	0.00e+00	0	57	0	656408576	38	4007
2026-01-06 03:30:30.85	310.55	23.16	-33.3	-34.4	20.6	0.00e+00	0	57	0	661651456	38	4018
2026-01-06 03:30:31.86	310.27	23.16	-33.3	-34.4	20.5	0.00e+00	0	57	0	667942912	38	4043
2026-01-06 03:30:32.87	309.99	23.16	-33.3	-34.4	20.6	0.00e+00	0	57	0	673185792	38	4013
2026-01-06 03:30:33.88	309.71	23.16	-33.2	-34.3	20.7	0.00e+00	0	57	0	679477248	38	3984
2026-01-06 03:30:34.89	309.43	23.16	-33.2	-34.3	20.7	0.00e+00	0	57	0	684720128	38	3994
2026-01-06 03:30:35.90	309.15	23.16	-33.2	-34.3	20.7	0.00e+00	0	57	0	691011584	38	3961
2026-01-06 03:30:36.91	308.87	23.16	-33.0	-34.1	20.8	0.00e+00	0	57	0	696254464	38	3896
2026-01-06 03:30:37.92	308.59	23.16	-33.1	-34.2	20.8	0.00e+00	0	57	0	702545920	38	3923
2026-01-06 03:30:38.93	308.31	23.16	-33.2	-34.2	20.7	0.00e+00	0	57	0	707788800	38	3953
2026-01-06 03:30:39.94	308.03	23.16	-33.2	-34.3	20.7	0.00e+00	0	57	0	713031680	38	3989
2026-01-06 03:30:40.95	307.75	23.15	-33.4	-34.5	20.5	0.00e+00	0	57	0	719323136	38	4063
2026-01-06 03:30:41.96	307.47	23.15	-33.5	-34.6	20.4	0.00e+00	0	57	0	724566016	38	4114
2026-01-06 03:30:42.97	307.19	23.14	-33.5	-34.6	20.4	0.00e+00	0	57	0	730857472	38	4131
2026-01-06 03:30:43.98	306.91	23.14	-33.4	-34.5	20.5	0.00e+00	0	57	0	736100352	38	4064
2026-01-06 03:30:44.99	306.64	23.13	-33.4	-34.5	20.5	0.00e+00	0	57	0	741343232	38	4065
2026-01-06 03:30:46.00	306.36	23.12	-33.4	-34.5	20.5	0.00e+00	0	57	0	747634688	38	4068
2026-01-06 03:30:47.01	306.08	23.11	-33.5	-34.6	20.4	0.00e+00	0	57	0	752877568	38	4132
2026-01-06 03:30:48.02	305.80	23.11	-33.5	-34.7	20.3	0.00e+00	0	57	0	759169024	38	4146
2026-01-06 03:30:49.03	305.52	23.10	-33.5	-34.6	20.4	0.00e+00	0	57	0	764411904	38	4117
2026-01-06 03:30:50.04	305.24	23.09	-33.4	-34.5	20.4	0.00e+00	0	57	0	769654784	38	4096
2026-01-06 03:30:51.05	304.96	23.07	-33.4	-34.5	20.5	0.00e+00	0	57	0	775946240	38	4090
2026-01-06 03:30:52.06	304.68	23.06	-33.4	-34.5	20.5	0.00e+00	0	57	0	781189120	38	4075
2026-01-06 03:30:53.07	304.41	23.05	-33.4	-34.5	20.4	0.00e+00	0	57	0	787480576	38	4095
2026-01-06 03:30:54.08	304.13	23.04	-33.5	-34.6	20.4	0.00e+00	0	57	0	792723456	38	4111
2026-01-06 03:30:55.09	303.85	23.02	-33.2	-34.3	20.7	0.00e+00	0	57	0	799014912	38	3990
2026-01-06 03:30:56.10	303.57	23.01	-33.1	-34.2	20.8	0.00e+00	0	57	0	804257792	38	3941
2026-01-06 03:30:57.11	303.30	22.99	-33.2	-34.3	20.7	0.00e+00	0	57	0	810549248	38	3965
2026-01-06 03:30:58.12	303.02	22.98	-33.2	-34.3	20.7	0.00e+00	0	57	0	815792128	38	3973
2026-01-06 03:30:59.14	302.74	22.96	-33.2	-34.3	20.7	0.00e+00	0	57	0	821035008	38	3998
2026-01-06 03:31:00.14	302.47	22.94	-33.3	-34.4	20.6	0.00e+00	0	57	0	827326464	38	4013
2026-01-06 03:31:01.16	302.19	22.92	-33.2	-34.3	20.7	0.00e+00	0	57	0	832569344	38	3962
2026-01-06 03:31:02.16	301.92	22.90	-33.2	-34.3	20.7	0.00e+00	0	57	0	838860800	38	3960
2026-01-06 03:31:03.18	301.64	22.88	-33.2	-34.3	20.6	0.00e+00	0	57	0	844103680	38	3990
2026-01-06 03:31:04.19	301.36	22.86	-33.4	-34.5	20.5	0.00e+00	0	57	0	849346560	38	4066
2026-01-06 03:31:05.20	301.09	22.84	-33.3	-34.4	20.6	0.00e+00	0	57	0	855638016	38	4022
2026-01-06 03:31:06.21	300.81	22.82	-33.3	-34.4	20.5	0.00e+00	0	57	0	860880896	38	4042
2026-01-06 03:31:07.22	300.54	22.80	-33.2	-34.3	20.7	0.00e+00	0	57	0	867172352	38	3980
2026-01-06 03:31:08.23	300.27	22.78	-33.1	-34.2	20.8	0.00e+00	0	57	0	872415232	38	3940
2026-01-06 03:31:09.24	299.99	22.75	-33.2	-34.2	20.7	0.00e+00	0	57	0	877658112	38	3954
2026-01-06 03:31:10.25	299.72	22.73	-33.3	-34.4	20.6	0.00e+00	0	57	0	883949568	38	4041
2026-01-06 03:31:11.26	299.45	22.70	-33.5	-34.6	20.4	0.00e+00	0	57	0	889192448	38	4114
2026-01-06 03:31:12.27	299.18	22.68	-33.5	-34.6	20.3	0.00e+00	0	57	0	895483904	38	4140
2026-01-06 03:31:13.28	298.91	22.65	-33.5	-34.6	20.4	0.00e+00	0	57	0	900726784	38	4113
2026-01-06 03:31:14.29	298.64	22.62	-33.3	-34.4	20.6	0.00e+00	0	57	0	907018240	38	4025
2026-01-06 03:31:15.30	298.37	22.60	-33.1	-34.2	20.8	0.00e+00	0	57	0	912261120	38	3924
2026-01-06 03:31:16.31	298.10	22.57	-33.1	-34.2	20.7	0.00e+00	0	57	0	918552576	38	3939
2026-01-06 03:31:17.32	297.83	22.54	-33.2	-34.3	20.7	0.00e+00	0	57	0	923795456	38	3978
2026-01-06 03:31:18.33	297.56	22.51	-33.3	-34.4	20.6	0.00e+00	0	57	0	929038336	38	4030
2026-01-06 03:31:19.35	297.29	22.48	-33.3	-34.4	20.5	0.00e+00	0	57	0	935329792	38	4036
2026-01-06 03:31:20.36	297.02	22.45	-33.4	-34.5	20.5	0.00e+00	0	57	0	940572672	38	4071
2026-01-06 03:31:21.37	296.75	22.42	-33.3	-34.4	20.5	0.00e+00	0	57	0	946864128	38	4041
2026-01-06 03:31:22.38	296.49	22.38	-33.2	-34.3	20.6	0.00e+00	0	57	0	952107008	38	4002
2026-01-06 03:31:23.39	296.22	22.35	-33.3	-34.4	20.6	0.00e+00	0	57	0	957349888	38	4006
2026-01-06 03:31:24.40	295.95	22.32	-33.2	-34.3	20.6	0.00e+00	0	57	0	963641344	38	4000
2026-01-06 03:31:25.41	295.69	22.28	-33.2	-34.4	20.6	0.00e+00	0	57	0	968884224	38	4005
2026-01-06 03:31:26.42	295.42	22.25	-33.2	-34.4	20.6	0.00e+00	0	57	0	975175680	38	4005
2026-01-06 03:31:27.43	295.16	22.21	-33.2	-34.3	20.6	0.00e+00	0	57	0	980418560	38	3984
2026-01-06 03:31:28.45	294.89	22.18	-33.2	-34.3	20.6	0.00e+00	0	57	0	985661440	38	3985
2026-01-06 03:31:29.45	294.63	22.14	-33.2	-34.3	20.6	0.00e+00	0	57	0	991952896	38	3988
2026-01-06 03:31:30.47	294.37	22.10	-33.2	-34.3	20.6	0.00e+00	0	57	0	997195776	38	3998
2026-01-06 03:31:31.48	294.11	22.07	-33.3	-34.4	20.5	0.00e+00	0	57	0	1003487232	38	4026
2026-01-06 03:31:32.49	293.85	22.03	-33.4	-34.6	20.3	0.00e+00	0	57	0	1008730112	38	4115
2026-01-06 03:31:33.50	293.59	21.99	-33.5	-34.7	20.2	0.00e+00	0	57	0	1015021568	38	4177
2026-01-06 03:31:34.51	293.33	21.95	-33.6	-34.8	20.1	0.00e+00	0	57	0	1020264448	38	4223
2026-01-06 03:31:35.52	293.07	21.91	-33.5	-34.7	20.3	0.00e+00	0	57	0	1026555904	38	4153
2026-01-06 03:31:36.53	292.81	21.87	-33.4	-34.6	20.4	0.00e+00	0	57	0	1031798784	38	4112
2026-01-06 03:31:37.54	292.55	21.83	-33.5	-34.6	20.3	0.00e+00	0	57	0	1037041664	38	4125
2026-01-06 03:31:38.55	292.30	21.79	-33.3	-34.4	20.5	0.00e+00	0	57	0	1043333120	38	4037
2026-01-06 03:31:39.56	292.04	21.75	-33.4	-34.5	20.5	0.00e+00	0	57	0	1048576000	38	4059
2026-01-06 03:31:40.57	291.79	21.70	-33.5	-34.6	20.3	0.00e+00	0	57	0	1054867456	38	4143
2026-01-06 03:31:41.58	291.53	21.66	-33.6	-34.8	20.2	0.00e+00	0	57	0	1060110336	38	4201
2026-01-06 03:31:42.59	291.28	21.62	-33.6	-34.8	20.2	0.00e+00	0	57	0	1065353216	38	4195
2026-01-06 03:31:43.60	291.03	21.57	-33.5	-34.6	20.4	0.00e+00	0	57	0	1071644672	38	4125
2026-01-06 03:31:44.61	290.77	21.53	-33.5	-34.6	20.3	0.00e+00	0	57	0	1076887552	38	4125
2026-01-06 03:31:45.62	290.52	21.48	-33.5	-34.6	20.3	0.00e+00	0	57	0	1083179008	38	4142
2026-01-06 03:31:46.63	290.27	21.44	-33.5	-34.6	20.3	0.00e+00	0	57	0	1088421888	38	4135
2026-01-06 03:31:47.64	290.02	21.39	-33.4	-34.5	20.4	0.00e+00	0	57	0	1093664768	38	4098
2026-01-06 03:31:48.65	289.77	21.34	-33.4	-34.5	20.4	0.00e+00	0	57	0	1099956224	38	4092
2026-01-06 03:31:49.66	289.52	21.30	-33.5	-34.6	20.4	0.00e+00	0	57	0	1105199104	38	4115
2026-01-06 03:31:50.68	289.27	21.25	-33.6	-34.7	20.3	0.00e+00	0	57	0	1111490560	38	4173
2026-01-06 03:31:51.69	289.02	21.20	-33.5	-34.7	20.3	0.00e+00	0	57	0	1116733440	38	4149
2026-01-06 03:31:52.70	288.78	21.15	-33.5	-34.6	20.3	0.00e+00	0	57	0	1123024896	38	4135
2026-01-06 03:31:53.71	288.53	21.10	-33.5	-34.7	20.3	0.00e+00	0	57	0	1128267776	38	4150
2026-01-06 03:31:54.72	288.29	21.05	-33.6	-34.7	20.2	0.00e+00	0	57	0	1134559232	38	4170
2026-01-06 03:31:55.73	288.04	21.00	-33.6	-34.7	20.2	0.00e+00	0	57	0	1139802112	38	4189
2026-01-06 03:31:56.74	287.80	20.95	-33.6	-34.7	20.2	0.00e+00	0	57	0	1145044992	38	4168
2026-01-06 03:31:57.75	287.56	20.90	-33.6	-34.7	20.2	0.00e+00	0	57	0	1151336448	38	4190
2026-01-06 03:31:58.76	287.32	20.85	-33.7	-34.9	20.1	0.00e+00	0	57	0	1156579328	38	4250
2026-01-06 03:31:59.77	287.08	20.80	-33.9	-35.0	19.9	0.00e+00	0	57	0	1162870784	38	4327
2026-01-06 03:32:00.78	286.84	20.75	-33.8	-35.0	20.0	0.00e+00	0	57	0	1168113664	38	4292
2026-01-06 03:32:01.79	286.60	20.69	-33.8	-34.9	20.0	0.00e+00	0	57	0	1173356544	38	4261
2026-01-06 03:32:02.80	286.36	20.64	-33.8	-35.0	20.0	0.00e+00	0	57	0	1179648000	38	4293
2026-01-06 03:32:03.82	286.12	20.59	-33.9	-35.0	19.9	0.00e+00	0	57	0	1184890880	38	4332
2026-01-06 03:32:04.83	285.88	20.53	-33.9	-35.0	19.9	0.00e+00	0	57	0	1191182336	38	4334
2026-01-06 03:32:05.84	285.65	20.48	-33.8	-35.0	19.9	0.00e+00	0	57	0	1196425216	38	4308
2026-01-06 03:32:06.85	285.41	20.42	-33.7	-34.9	20.0	0.00e+00	0	57	0	1202716672	38	4254
2026-01-06 03:32:07.86	285.18	20.37	-33.8	-34.9	20.0	0.00e+00	0	57	0	1207959552	38	4274
2026-01-06 03:32:08.87	284.94	20.31	-33.7	-34.8	20.1	0.00e+00	0	57	0	1213202432	38	4239
2026-01-06 03:32:09.88	284.71	20.26	-33.8	-34.9	20.0	0.00e+00	0	57	0	1219493888	38	4264
2026-01-06 03:32:10.89	284.48	20.20	-33.9	-35.0	19.9	0.00e+00	0	57	0	1224736768	38	4331
2026-01-06 03:32:11.90	284.25	20.14	-33.7	-34.9	20.0	0.00e+00	0	57	0	1231028224	38	4266
2026-01-06 03:32:12.91	284.02	20.09	-33.7	-34.9	20.0	0.00e+00	0	57	0	1236271104	38	4253
2026-01-06 03:32:13.92	283.79	20.03	-33.7	-34.9	20.0	0.00e+00	0	57	0	1242562560	38	4251
2026-01-06 03:32:14.93	283.56	19.97	-33.7	-34.9	20.0	0.00e+00	0	57	0	1247805440	38	4255
2026-01-06 03:32:15.94	283.33	19.91	-33.9	-35.0	19.9	0.00e+00	0	57	0	1253048320	38	4322
2026-01-06 03:32:16.95	283.11	19.86	-34.0	-35.1	19.8	0.00e+00	0	57	0	1259339776	38	4384
2026-01-06 03:32:17.96	282.88	19.80	-33.9	-35.0	19.9	0.00e+00	0	57	0	1264582656	38	4335
2026-01-06 03:32:18.97	282.66	19.74	-33.9	-35.0	19.9	0.00e+00	0	57	0	1270874112	38	4318
2026-01-06 03:32:19.98	282.43	19.68	-33.9	-35.1	19.8	0.00e+00	0	57	0	1276116992	38	4351
2026-01-06 03:32:20.99	282.21	19.62	-34.0	-35.2	19.7	0.00e+00	0	57	0	1281359872	38	4402
2026-01-06 03:32:22.00	281.99	19.56	-34.1	-35.3	19.6	0.00e+00	0	57	0	1287651328	38	4450
2026-01-06 03:32:23.02	281.76	19.50	-34.2	-35.4	19.5	0.00e+00	0	57	0	1292894208	38	4501
2026-01-06 03:32:24.03	281.54	19.44	-34.3	-35.4	19.4	0.00e+00	0	57	0	1299185664	39	4289
2026-01-06 03:32:25.04	281.32	19.38	-34.1	-35.2	19.6	0.00e+00	0	57	0	1304428544	39	4187
2026-01-06 03:32:26.05	281.10	19.32	-34.0	-35.2	19.7	0.00e+00	0	57	0	1310720000	39	4148
2026-01-06 03:32:27.06	280.89	19.26	-34.1	-35.2	19.6	0.00e+00	0	57	0	1315962880	39	4186
2026-01-06 03:32:28.07	280.67	19.19	-34.1	-35.3	19.6	0.00e+00	0	57	0	1321205760	39	4225
2026-01-06 03:32:29.08	280.45	19.13	-34.2	-35.4	19.5	0.00e+00	0	57	0	1327497216	39	4260
2026-01-06 03:32:30.09	280.24	19.07	-34.2	-35.5	19.4	0.00e+00	0	57	0	1332740096	39	4294
2026-01-06 03:32:31.09	280.03	19.01	-34.3	-35.5	19.4	0.00e+00	0	57	0	1339031552	39	4298
2026-01-06 03:32:32.10	279.81	18.95	-34.2	-35.4	19.5	0.00e+00	0	57	0	1344274432	39	4269
2026-01-06 03:32:33.12	279.60	18.88	-34.1	-35.3	19.6	0.00e+00	0	57	0	1350565888	39	4220
2026-01-06 03:32:34.13	279.39	18.82	-34.2	-35.3	19.5	0.00e+00	0	57	0	1355808768	39	4233
2026-01-06 03:32:35.14	279.18	18.76	-34.2	-35.3	19.5	0.00e+00	0	57	0	1361051648	39	4234
2026-01-06 03:32:36.15	278.97	18.69	-34.3	-35.5	19.4	0.00e+00	0	57	0	1367343104	39	4296
2026-01-06 03:32:37.16	278.76	18.63	-34.2	-35.4	19.5	0.00e+00	0	58	0	1372585984	39	4267
2026-01-06 03:32:38.17	278.55	18.57	-34.3	-35.5	19.4	0.00e+00	0	57	0	1378877440	39	4294
2026-01-06 03:32:39.18	278.34	18.50	-34.3	-35.5	19.4	0.00e+00	0	57	0	1384120320	39	4308
2026-01-06 03:32:40.19	278.14	18.44	-34.4	-35.6	19.3	0.00e+00	0	57	0	1389363200	39	4349
2026-01-06 03:32:41.20	277.93	18.37	-34.3	-35.5	19.3	0.00e+00	0	57	0	1395654656	39	4334
2026-01-06 03:32:42.21	277.73	18.31	-34.3	-35.5	19.3	0.00e+00	0	57	0	1400897536	39	4339
2026-01-06 03:32:43.22	277.52	18.24	-34.4	-35.6	19.3	0.00e+00	0	57	0	1407188992	39	4353
2026-01-06 03:32:44.23	277.32	18.18	-34.4	-35.6	19.3	0.00e+00	0	57	0	1412431872	39	4358
2026-01-06 03:32:45.24	277.12	18.11	-34.5	-35.7	19.2	0.00e+00	0	57	0	1417674752	39	4399
2026-01-06 03:32:46.25	276.92	18.04	-34.5	-35.7	19.2	0.00e+00	0	57	0	1423966208	39	4401
2026-01-06 03:32:47.26	276.72	17.98	-34.5	-35.7	19.1	0.00e+00	0	57	0	1429209088	39	4431
2026-01-06 03:32:48.27	276.52	17.91	-34.7	-35.9	18.9	0.00e+00	0	57	0	1435500544	39	4539
2026-01-06 03:32:49.28	276.32	17.85	-34.8	-36.1	18.7	0.00e+00	0	57	0	1440743424	40	4350
2026-01-06 03:32:50.29	276.12	17.78	-34.8	-36.0	18.7	0.00e+00	0	57	0	1447034880	40	4337
2026-01-06 03:32:51.29	275.93	17.71	-34.7	-35.9	18.8	0.00e+00	0	57	0	1452277760	40	4284
2026-01-06 03:32:52.30	275.73	17.65	-34.5	-35.7	19.0	0.00e+00	0	57	0	1458569216	40	4187
2026-01-06 03:32:53.31	275.54	17.58	-34.5	-35.7	19.0	0.00e+00	0	57	0	1463812096	40	4180
2026-01-06 03:32:54.32	275.34	17.51	-34.5	-35.7	19.1	0.00e+00	0	57	0	1469054976	40	4164
2026-01-06 03:32:55.33	275.15	17.45	-34.6	-35.8	18.9	0.00e+00	0	57	0	1475346432	40	4230
2026-01-06 03:32:56.34	274.96	17.38	-34.7	-35.9	18.8	0.00e+00	0	57	0	1480589312	40	4285
2026-01-06 03:32:57.35	274.76	17.31	-34.6	-35.8	18.9	0.00e+00	0	57	0	1486880768	40	4242
2026-01-06 03:32:58.37	274.57	17.24	-34.5	-35.8	19.0	0.00e+00	0	57	0	1492123648	40	4200
2026-01-06 03:32:59.38	274.38	17.18	-34.4	-35.6	19.1	0.00e+00	0	57	0	1497366528	40	4129
2026-01-06 03:33:00.39	274.19	17.11	-34.4	-35.6	19.1	0.00e+00	0	57	0	1503657984	40	4135
2026-01-06 03:33:01.40	274.01	17.04	-34.3	-35.5	19.2	0.00e+00	0	57	0	1508900864	40	4091
2026-01-06 03:33:02.41	273.82	16.97	-34.3	-35.5	19.2	0.00e+00	0	57	0	1515192320	40	4060
2026-01-06 03:33:03.42	273.63	16.90	-34.4	-35.6	19.1	0.00e+00	0	57	0	1520435200	40	4113
2026-01-06 03:33:04.43	273.45	16.83	-34.4	-35.7	19.0	0.00e+00	0	57	0	1525678080	40	4166
2026-01-06 03:33:05.44	273.26	16.77	-34.5	-35.8	18.9	0.00e+00	0	57	0	1531969536	40	4217
2026-01-06 03:33:06.45	273.08	16.70	-34.6	-35.9	18.9	0.00e+00	0	58	0	1537212416	40	4247
2026-01-06 03:33:07.46	272.90	16.63	-34.4	-35.7	19.0	0.00e+00	0	57	0	1543503872	40	4168
2026-01-06 03:33:08.47	272.71	16.56	-34.4	-35.6	19.1	0.00e+00	0	57	0	1548746752	40	4130
2026-01-06 03:33:09.48	272.53	16.49	-34.4	-35.6	19.0	0.00e+00	0	57	0	1555038208	40	4142
2026-01-06 03:33:10.50	272.35	16.42	-34.5	-35.8	18.9	0.00e+00	0	57	0	1560281088	40	4215
2026-01-06 03:33:11.51	272.17	16.35	-34.7	-35.9	18.8	0.00e+00	0	57	0	1566572544	40	4290
2026-01-06 03:33:12.52	271.99	16.28	-34.8	-36.1	18.6	0.00e+00	0	57	0	1571815424	40	4355
2026-01-06 03:33:13.52	271.82	16.21	-34.8	-36.1	18.6	0.00e+00	0	57	0	1577058304	40	4380
2026-01-06 03:33:14.53	271.64	16.14	-34.8	-36.1	18.6	0.00e+00	0	57	0	1583349760	40	4381
2026-01-06 03:33:15.54	271.46	16.07	-34.9	-36.2	18.5	0.00e+00	0	57	0	1588592640	40	4402
2026-01-06 03:33:16.56	271.28	16.00	-35.0	-36.3	18.4	0.00e+00	0	57	0	1594884096	40	4464
2026-01-06 03:33:17.57	271.11	15.93	-34.8	-36.0	18.7	0.00e+00	0	57	0	1600126976	40	4326
2026-01-06 03:33:18.58	270.94	15.86	-34.7	-35.9	18.8	0.00e+00	0	57	0	1605369856	40	4281
2026-01-06 03:33:19.59	270.76	15.80	-34.7	-36.0	18.7	0.00e+00	0	57	0	1611661312	40	4311
2026-01-06 03:33:20.60	270.59	15.73	-34.7	-36.0	18.7	0.00e+00	0	57	0	1616904192	40	4311
2026-01-06 03:33:21.61	270.42	15.66	-34.8	-36.0	18.7	0.00e+00	0	57	0	1623195648	40	4334
2026-01-06 03:33:22.62	270.25	15.59	-34.7	-36.0	18.7	0.00e+00	0	57	0	1628438528	40	4315
2026-01-06 03:33:23.63	270.08	15.52	-34.6	-35.9	18.8	0.00e+00	0	57	0	1633681408	40	4244
2026-01-06 03:33:24.64	269.91	15.45	-34.7	-36.0	18.7	0.00e+00	0	57	0	1639972864	40	4294
2026-01-06 03:33:25.65	269.74	15.38	-34.6	-35.9	18.8	0.00e+00	0	57	0	1645215744	40	4253
2026-01-06 03:33:26.66	269.58	15.31	-34.6	-35.8	18.8	0.00e+00	0	57	0	1651507200	40	4242
2026-01-06 03:33:27.67	269.41	15.23	-34.6	-35.9	18.7	0.00e+00	0	57	0	1656750080	40	4268
2026-01-06 03:33:28.68	269.24	15.16	-34.8	-36.0	18.6	0.00e+00	0	57	0	1663041536	40	4338
2026-01-06 03:33:29.69	269.08	15.09	-34.8	-36.0	18.6	0.00e+00	0	57	0	1668284416	40	4333
2026-01-06 03:33:30.70	268.91	15.02	-34.8	-36.1	18.6	0.00e+00	0	57	0	1674575872	40	4353
2026-01-06 03:33:31.72	268.75	14.95	-34.8	-36.1	18.5	0.00e+00	0	58	0	1679818752	40	4377
2026-01-06 03:33:32.73	268.59	14.88	-34.9	-36.2	18.4	0.00e+00	0	57	0	1685061632	40	4434
2026-01-06 03:33:33.74	268.42	14.81	-35.0	-36.3	18.3	0.00e+00	0	57	0	1691353088	40	4489
2026-01-06 03:33:34.75	268.26	14.74	-34.9	-36.2	18.4	0.00e+00	0	57	0	1696595968	40	4440
2026-01-06 03:33:35.76	268.10	14.67	-35.0	-36.3	18.3	0.00e+00	0	57	0	1702887424	40	4481
2026-01-06 03:33:36.77	267.94	14.60	-35.1	-36.4	18.2	0.00e+00	0	57	0	1708130304	40	4522
2026-01-06 03:33:37.78	267.78	14.53	-35.2	-36.5	18.1	0.00e+00	0	57	0	1713373184	40	4586
2026-01-06 03:33:38.79	267.63	14.46	-35.2	-36.6	18.0	0.00e+00	0	57	0	1719664640	41	4365
2026-01-06 03:33:39.80	267.47	14.39	-35.4	-36.7	17.9	0.00e+00	0	57	0	1724907520	41	4437
2026-01-06 03:33:40.81	267.31	14.32	-35.3	-36.6	18.0	0.00e+00	0	58	0	1731198976	41	4369
2026-01-06 03:33:41.82	267.16	14.25	-35.3	-36.6	18.0	0.00e+00	0	57	0	1736441856	41	4376
2026-01-06 03:33:42.82	267.00	14.18	-35.3	-36.6	18.0	0.00e+00	0	57	0	1741684736	41	4361
2026-01-06 03:33:43.83	266.85	14.11	-35.4	-36.8	17.9	0.00e+00	0	57	0	1747976192	41	4447
2026-01-06 03:33:44.84	266.70	14.04	-35.3	-36.6	18.0	0.00e+00	0	58	0	1753219072	41	4369
2026-01-06 03:33:45.85	266.54	13.97	-35.2	-36.5	18.1	0.00e+00	0	57	0	1759510528	41	4336
2026-01-06 03:33:46.86	266.39	13.90	-35.3	-36.7	17.9	0.00e+00	0	57	0	1764753408	41	4417
2026-01-06 03:33:47.87	266.24	13.83	-35.2	-36.6	18.0	0.00e+00	0	57	0	1771044864	41	4347
2026-01-06 03:33:48.88	266.09	13.76	-35.2	-36.6	18.0	0.00e+00	0	57	0	1776287744	41	4344
2026-01-06 03:33:49.89	265.94	13.68	-35.4	-36.7	17.9	0.00e+00	0	57	0	1781530624	41	4419
2026-01-06 03:33:50.90	265.79	13.61	-35.2	-36.5	18.0	0.00e+00	0	57	0	1787822080	41	4330
2026-01-06 03:33:51.91	265.64	13.54	-35.2	-36.5	18.1	0.00e+00	0	57	0	1793064960	41	4301
2026-01-06 03:33:52.92	265.49	13.47	-35.3	-36.6	18.0	0.00e+00	0	58	0	1799356416	41	4386
2026-01-06 03:33:53.93	265.35	13.40	-35.4	-36.8	17.8	0.00e+00	0	58	0	1804599296	41	4469
2026-01-06 03:33:54.94	265.20	13.33	-35.4	-36.7	17.9	0.00e+00	0	57	0	1809842176	41	4432
2026-01-06 03:33:55.95	265.05	13.26	-35.4	-36.8	17.8	0.00e+00	0	57	0	1816133632	41	4449
2026-01-06 03:33:56.96	264.91	13.19	-35.4	-36.8	17.7	0.00e+00	0	57	0	1821376512	41	4484
2026-01-06 03:33:57.97	264.77	13.12	-35.4	-36.8	17.8	0.00e+00	0	58	0	1827667968	41	4464
2026-01-06 03:33:58.98	264.62	13.05	-35.3	-36.7	17.8	0.00e+00	0	57	0	1832910848	41	4425
2026-01-06 03:33:59.99	264.48	12.98	-35.4	-36.8	17.8	0.00e+00	0	58	0	1838153728	41	4451
2026-01-06 03:34:01.00	264.34	12.91	-35.5	-36.9	17.7	0.00e+00	0	58	0	1844445184	41	4498
2026-01-06 03:34:02.00	264.20	12.84	-35.5	-36.9	17.7	0.00e+00	0	58	0	1849688064	41	4498
2026-01-06 03:34:03.01	264.06	12.77	-35.5	-36.9	17.6	0.00e+00	0	58	0	1855979520	41	4516
2026-01-06 03:34:04.02	263.92	12.70	-35.5	-36.9	17.6	0.00e+00	0	57	0	1861222400	41	4537
2026-01-06 03:34:05.03	263.78	12.63	-35.5	-36.8	17.7	0.00e+00	0	58	0	1867513856	41	4492
2026-01-06 03:34:06.04	263.64	12.56	-35.4	-36.8	17.8	0.00e+00	0	58	0	1872756736	41	4456
2026-01-06 03:34:07.05	263.50	12.49	-35.4	-36.7	17.8	0.00e+00	0	58	0	1879048192	41	4438
2026-01-06 03:34:08.06	263.36	12.42	-35.4	-36.8	17.8	0.00e+00	0	58	0	1884291072	41	4450
2026-01-06 03:34:09.07	263.23	12.35	-35.5	-36.9	17.6	0.00e+00	0	58	0	1889533952	41	4502
2026-01-06 03:34:10.08	263.09	12.28	-35.6	-37.0	17.5	0.00e+00	0	58	0	1895825408	41	4595
2026-01-06 03:34:11.09	262.95	12.21	-35.8	-37.2	17.3	0.00e+00	0	57	0	1901068288	42	4425
2026-01-06 03:34:12.10	262.82	12.14	-35.9	-37.3	17.2	0.00e+00	0	58	0	1907359744	42	4472
2026-01-06 03:34:13.11	262.69	12.07	-35.9	-37.4	17.1	0.00e+00	0	57	0	1912602624	42	4505
2026-01-06 03:34:14.12	262.55	12.00	-35.8	-37.3	17.2	0.00e+00	0	57	0	1917845504	42	4456
2026-01-06 03:34:15.13	262.42	11.93	-36.0	-37.4	17.1	0.00e+00	0	58	0	1924136960	42	4542
2026-01-06 03:34:16.14	262.29	11.86	-36.0	-37.5	17.0	0.00e+00	0	58	0	1929379840	42	4558
2026-01-06 03:34:17.15	262.16	11.79	-36.1	-37.5	16.9	0.00e+00	0	57	0	1935671296	42	4592
2026-01-06 03:34:18.16	262.02	11.72	-36.0	-37.5	17.0	0.00e+00	0	57	0	1940914176	42	4570
2026-01-06 03:34:19.17	261.89	11.65	-36.1	-37.6	16.9	0.00e+00	0	58	0	1946157056	42	4637
2026-01-06 03:34:20.18	261.76	11.58	-36.1	-37.6	16.9	0.00e+00	0	57	0	1952448512	42	4628
2026-01-06 03:34:21.19	261.64	11.51	-36.2	-37.7	16.8	0.00e+00	0	57	0	1957691392	42	4664
2026-01-06 03:34:22.20	261.51	11.44	-36.1	-37.6	16.9	0.00e+00	0	58	0	1963982848	42	4607
2026-01-06 03:34:23.21	261.38	11.37	-36.0	-37.5	17.0	0.00e+00	0	57	0	1969225728	42	4575
2026-01-06 03:34:24.22	261.25	11.31	-36.1	-37.6	16.9	0.00e+00	0	58	0	1975517184	42	4604
2026-01-06 03:34:25.23	261.13	11.24	-36.1	-37.6	16.9	0.00e+00	0	57	0	1980760064	42	4610
2026-01-06 03:34:26.24	261.00	11.17	-36.0	-37.5	17.0	0.00e+00	0	57	0	1986002944	42	4547
2026-01-06 03:34:27.25	260.87	11.10	-36.0	-37.5	17.0	0.00e+00	0	57	0	1992294400	42	4573
2026-01-06 03:34:28.26	260.75	11.03	-36.1	-37.6	16.9	0.00e+00	0	58	0	1997537280	42	4622
2026-01-06 03:34:29.27	260.62	10.96	-36.1	-37.5	16.9	0.00e+00	0	57	0	2003828736	42	4596
2026-01-06 03:34:30.28	260.50	10.89	-36.2	-37.7	16.8	0.00e+00	0	58	0	2009071616	42	4652
2026-01-06 03:34:31.29	260.38	10.82	-36.2	-37.7	16.7	0.00e+00	0	57	0	2014314496	43	4439
2026-01-06 03:34:32.30	260.26	10.75	-36.1	-37.5	16.9	0.00e+00	0	58	0	2020605952	43	4335
2026-01-06 03:34:33.31	260.13	10.68	-36.0	-37.5	16.9	0.00e+00	0	57	0	2025848832	43	4329
2026-01-06 03:34:34.32	260.01	10.62	-36.1	-37.6	16.8	0.00e+00	0	58	0	2032140288	43	4370
2026-01-06 03:34:35.34	259.89	10.55	-36.2	-37.8	16.6	0.00e+00	0	58	0	2037383168	43	4456
2026-01-06 03:34:36.35	259.77	10.48	-36.4	-37.9	16.5	0.00e+00	0	57	0	2043674624	43	4543
2026-01-06 03:34:37.36	259.65	10.41	-36.4	-38.0	16.4	0.00e+00	0	57	0	2048917504	43	4556
2026-01-06 03:34:38.37	259.53	10.34	-36.3	-37.9	16.5	0.00e+00	0	58	0	2054160384	43	4498
2026-01-06 03:34:39.38	259.41	10.27	-36.3	-37.8	16.6	0.00e+00	0	58	0	2060451840	43	4467
2026-01-06 03:34:40.39	259.30	10.20	-36.5	-38.0	16.3	0.00e+00	0	57	0	2065694720	43	4588
2026-01-06 03:34:41.40	259.18	10.14	-36.2	-37.7	16.6	0.00e+00	0	57	0	2071986176	43	4440
2026-01-06 03:34:42.41	259.06	10.07	-36.2	-37.7	16.6	0.00e+00	0	57	0	2077229056	43	4432
2026-01-06 03:34:43.42	258.95	10.00	-36.3	-37.8	16.5	0.00e+00	0	58	0	2083520512	43	4481
2026-01-06 03:34:44.43	258.83	9.93	-36.4	-38.0	16.4	0.00e+00	0	58	0	2088763392	43	4561
2026-01-06 03:34:45.44	258.71	9.86	-36.5	-38.0	16.3	0.00e+00	0	57	0	2094006272	43	4587
2026-01-06 03:34:46.45	258.60	9.80	-36.5	-38.1	16.3	0.00e+00	0	57	0	2100297728	43	4611
2026-01-06 03:34:47.46	258.49	9.73	-36.5	-38.1	16.3	0.00e+00	0	57	0	2105540608	43	4622
2026-01-06 03:34:48.47	258.37	9.66	-36.6	-38.2	16.2	0.00e+00	0	57	0	2111832064	43	4673
2026-01-06 03:34:49.48	258.26	9.59	-36.6	-38.2	16.1	0.00e+00	0	57	0	2117074944	43	4705
2026-01-06 03:34:50.49	258.15	9.53	-36.7	-38.4	16.0	0.00e+00	0	57	0	2122317824	43	4762
2026-01-06 03:34:51.50	258.04	9.46	-37.0	-38.7	15.8	0.00e+00	0	57	0	2128609280	44	4686
2026-01-06 03:34:52.51	257.92	9.39	-36.8	-38.4	16.1	0.00e+00	0	57	0	2133852160	44	4538
2026-01-06 03:34:53.52	257.81	9.32	-36.7	-38.3	16.2	0.00e+00	0	57	0	2140143616	44	4452
2026-01-06 03:34:54.53	257.70	9.26	-36.6	-38.2	16.3	0.00e+00	0	57	0	2145386496	44	4425
2026-01-06 03:34:55.54	257.59	9.19	-36.8	-38.5	16.1	0.00e+00	0	58	0	2150629376	44	4551
2026-01-06 03:34:56.55	257.48	9.12	-36.9	-38.5	16.0	0.00e+00	0	57	0	2156920832	44	4579
2026-01-06 03:34:57.56	257.37	9.06	-36.8	-38.4	16.1	0.00e+00	0	58	0	2162163712	44	4515
2026-01-06 03:34:58.57	257.27	8.99	-36.8	-38.5	16.0	0.00e+00	0	58	0	2168455168	44	4556
2026-01-06 03:34:59.58	257.16	8.92	-36.8	-38.5	16.0	0.00e+00	0	58	0	2173698048	44	4565
2026-01-06 03:35:00.59	257.05	8.86	-36.9	-38.5	16.0	0.00e+00	0	57	0	2179989504	44	4579
2026-01-06 03:35:01.60	256.94	8.79	-37.0	-38.7	15.8	0.00e+00	0	57	0	2185232384	44	4655
2026-01-06 03:35:02.60	256.84	8.72	-37.0	-38.7	15.7	0.00e+00	0	58	0	2191523840	44	4704
2026-01-06 03:35:03.61	256.73	8.66	-37.0	-38.7	15.8	0.00e+00	0	57	0	2196766720	44	4655
2026-01-06 03:35:04.62	256.63	8.59	-37.0	-38.7	15.7	0.00e+00	0	57	0	2202009600	44	4701
2026-01-06 03:35:05.63	256.52	8.52	-37.1	-38.8	15.6	0.00e+00	0	58	0	2208301056	44	4747
2026-01-06 03:35:06.64	256.42	8.46	-37.0	-38.6	15.8	0.00e+00	0	58	0	2213543936	44	4646
2026-01-06 03:35:07.65	256.32	8.39	-37.0	-38.7	15.8	0.00e+00	0	57	0	2219835392	44	4663
2026-01-06 03:35:08.66	256.21	8.33	-37.1	-38.8	15.6	0.00e+00	0	57	0	2225078272	44	4742
2026-01-06 03:35:09.67	256.11	8.26	-37.1	-38.8	15.7	0.00e+00	0	57	0	2230321152	44	4715
2026-01-06 03:35:10.68	256.01	8.19	-37.0	-38.7	15.7	0.00e+00	0	57	0	2236612608	44	4672
2026-01-06 03:35:11.69	255.91	8.13	-37.0	-38.7	15.7	0.00e+00	0	58	0	2241855488	44	4681
2026-01-06 03:35:12.70	255.80	8.06	-37.0	-38.7	15.7	0.00e+00	0	57	0	2248146944	44	4666
2026-01-06 03:35:13.71	255.70	8.00	-44.1	-54.5	3.8	1.98e-01	0	57	104	2252341248	58	12894
2026-01-06 03:35:14.72	255.60	7.93	-44.6	-56.1	3.8	8.46e-01	0	58	104	2252341248	59	14629
2026-01-06 03:35:15.73	255.50	7.87	-44.7	-56.5	3.8	8.47e-01	0	58	104	2252341248	60	14476
2026-01-06 03:35:16.74	255.40	7.80	-44.9	-56.7	3.8	8.46e-01	0	57	104	2252341248	60	14709
2026-01-06 03:35:17.75	255.30	7.74	-45.0	-56.8	3.8	8.47e-01	0	58	104	2252341248	60	14916
2026-01-06 03:35:18.76	255.20	7.67	-45.0	-56.8	3.8	8.45e-01	0	57	104	2252341248	60	15033
2026-01-06 03:35:19.78	255.11	7.60	-45.1	-56.9	3.8	8.47e-01	0	58	104	2252341248	60	15121
2026-01-06 03:35:20.79	255.01	7.54	-45.2	-57.0	3.8	8.46e-01	0	57	104	2252341248	60	15228
2026-01-06 03:35:21.80	254.91	7.48	-45.2	-57.0	3.8	8.46e-01	0	58	104	2252341248	60	15354
2026-01-06 03:35:22.81	254.81	7.41	-45.2	-57.0	3.8	8.47e-01	0	57	104	2252341248	60	15321
2026-01-06 03:35:23.82	254.72	7.35	-45.2	-57.0	3.8	8.47e-01	0	58	104	2252341248	60	15329
2026-01-06 03:35:24.83	254.62	7.28	-45.1	-57.0	3.8	8.46e-01	0	58	104	2252341248	60	15240
2026-01-06 03:35:25.84	254.53	7.22	-45.1	-56.9	3.8	8.45e-01	0	58	104	2252341248	60	15218
2026-01-06 03:35:26.85	254.43	7.15	-45.1	-56.9	3.8	8.47e-01	0	58	104	2252341248	60	15200
2026-01-06 03:35:27.86	254.34	7.09	-45.1	-56.9	3.8	8.46e-01	0	57	104	2252341248	60	15158
2026-01-06 03:35:28.87	254.24	7.02	-45.1	-57.0	3.8	8.46e-01	0	57	104	2252341248	60	15234
2026-01-06 03:35:29.88	254.15	6.96	-45.1	-57.0	3.8	8.46e-01	0	58	104	2252341248	60	15229
2026-01-06 03:35:30.89	254.05	6.89	-45.1	-56.9	3.8	8.45e-01	0	57	104	2252341248	60	15201
2026-01-06 03:35:31.90	253.96	6.83	-45.1	-57.0	3.8	8.45e-01	0	58	104	2252341248	60	15234
2026-01-06 03:35:32.91	253.87	6.77	-45.1	-56.9	3.8	8.47e-01	0	57	104	2252341248	60	15197
2026-01-06 03:35:33.92	253.78	6.70	-45.1	-56.9	3.8	8.46e-01	0	58	104	2252341248	60	15183
2026-01-06 03:35:34.93	253.68	6.64	-45.1	-57.0	3.8	8.45e-01	0	57	104	2252341248	60	15253
2026-01-06 03:35:35.94	253.59	6.58	-45.1	-56.9	3.8	8.47e-01	0	58	104	2252341248	60	15169
2026-01-06 03:35:36.95	253.50	6.51	-45.1	-56.9	3.8	8.46e-01	0	58	104	2252341248	60	15177
2026-01-06 03:35:37.96	253.41	6.45	-45.1	-56.9	3.8	8.46e-01	0	58	104	2252341248	60	15185
2026-01-06 03:35:38.97	253.32	6.39	-45.1	-56.9	3.8	8.46e-01	0	58	104	2252341248	60	15136
2026-01-06 03:35:39.98	253.23	6.32	-45.1	-56.9	3.8	8.47e-01	0	58	104	2252341248	60	15164
2026-01-06 03:35:40.99	253.14	6.26	-45.1	-56.9	3.8	8.47e-01	0	57	104	2252341248	60	15176
2026-01-06 03:35:42.01	253.05	6.19	-45.0	-56.9	3.8	8.46e-01	0	58	104	2252341248	60	15155
2026-01-06 03:35:43.02	252.96	6.13	-45.1	-56.9	3.8	8.46e-01	0	58	104	2252341248	60	15130
2026-01-06 03:35:44.03	252.88	6.07	-45.1	-56.9	3.8	8.48e-01	0	58	104	2252341248	60	15130
2026-01-06 03:35:45.04	252.79	6.01	-45.1	-56.9	3.8	8.46e-01	0	58	104	2252341248	60	15132
2026-01-06 03:35:46.05	252.70	5.94	-45.1	-56.9	3.8	8.46e-01	0	58	104	2252341248	60	15184
2026-01-06 03:35:47.06	252.61	5.88	-45.0	-56.9	3.8	8.47e-01	0	58	104	2252341248	60	15191
2026-01-06 03:35:48.07	252.53	5.82	-45.1	-56.9	3.8	8.46e-01	0	58	104	2252341248	60	15154
2026-01-06 03:35:49.08	252.44	5.76	-45.1	-56.9	3.8	8.45e-01	0	58	104	2252341248	60	15113
2026-01-06 03:35:50.09	252.35	5.69	-45.1	-56.9	3.8	8.47e-01	0	58	104	2252341248	60	15143
2026-01-06 03:35:51.11	252.27	5.63	-45.0	-56.9	3.8	8.47e-01	0	58	104	2252341248	60	15146
2026-01-06 03:35:52.12	252.18	5.57	-45.1	-56.9	3.8	8.46e-01	0	58	104	2252341248	60	15152
2026-01-06 03:35:53.13	252.10	5.51	-45.0	-56.9	3.8	8.46e-01	0	58	104	2252341248	60	15173
2026-01-06 03:35:54.14	252.01	5.44	-45.0	-56.9	3.8	8.47e-01	0	58	104	2252341248	60	15100
2026-01-06 03:35:55.15	251.93	5.38	-45.0	-56.9	3.8	8.46e-01	0	58	104	2252341248	60	15158
2026-01-06 03:35:56.16	251.85	5.32	-45.0	-56.9	3.8	8.47e-01	0	57	104	2252341248	60	15162
2026-01-06 03:35:57.17	251.76	5.26	-45.0	-56.9	3.8	8.47e-01	0	58	104	2252341248	60	15157
2026-01-06 03:35:58.18	251.68	5.20	-45.0	-56.9	3.8	8.45e-01	0	58	104	2252341248	60	15143
2026-01-06 03:35:59.19	251.60	5.13	-45.0	-56.9	3.8	8.46e-01	0	58	104	2252341248	60	15111
2026-01-06 03:36:00.21	251.51	5.07	-45.0	-56.9	3.8	8.46e-01	0	58	104	2252341248	60	15191
2026-01-06 03:36:01.22	251.43	5.01	-45.0	-56.9	3.8	8.45e-01	0	58	104	2252341248	60	15130
2026-01-06 03:36:02.23	251.35	4.95	-45.0	-56.9	3.8	8.46e-01	0	58	104	2252341248	60	15090
2026-01-06 03:36:03.24	251.27	4.89	-45.0	-56.9	3.8	8.46e-01	0	58	104	2252341248	60	15109
2026-01-06 03:36:04.25	251.19	4.83	-45.0	-56.9	3.8	8.46e-01	0	58	104	2252341248	60	15117
2026-01-06 03:36:05.26	251.11	4.77	-45.0	-56.9	3.8	8.46e-01	0	58	104	2252341248	60	15106
2026-01-06 03:36:06.27	251.03	4.71	-45.0	-56.9	3.8	8.46e-01	0	58	104	2252341248	60	15113
