passes_logs/2026/01/06/R2.0S_Moscow/R2.0S_Moscow__20260106_033017_FENGYUN_3E_rec.log

#Pass ID: 20260106_033017_FENGYUN 3E
#Satellite: FENGYUN 3E
#Configuration: FENGYUN 3E
#almurnet v.1.7.20251203
#Start time: 2026-01-06 03:37:01

#Version: 2.2.20231116
#Station: R2.0S_Moscow
#Location: 37.707566 lon 55.798166 lat
#TLE: 1 49008U 21062A   26005.56299987  .00000339  00000+0  18069-3 0  9991
#TLE: 2 49008  98.7472  10.8019 0001562 158.0357 202.0886 14.19884907233502

#Time	Az	El	Level	Level2	SNR	BER	BlckErr	Temp	State	Recorded	gain1	gain2
2026-01-06 03:37:01.73	77.06	58.41	-45.0	-56.8	3.8	8.46e-01	0	57	0	0	60	15038
2026-01-06 03:37:02.73	77.84	58.58	-45.7	-56.8	3.8	8.45e-01	0	57	104	0	62	12550
2026-01-06 03:37:03.75	78.65	58.75	-45.7	-56.8	3.8	8.46e-01	0	57	104	0	62	12619
2026-01-06 03:37:04.76	79.46	58.90	-45.7	-56.8	3.8	8.47e-01	0	57	104	0	62	12660
2026-01-06 03:37:05.77	80.28	59.06	-45.7	-56.8	3.8	8.45e-01	0	57	104	0	62	12544
2026-01-06 03:37:06.78	81.11	59.21	-45.7	-56.8	3.8	8.46e-01	0	57	104	0	62	12584
2026-01-06 03:37:07.79	81.94	59.35	-45.7	-56.8	3.8	8.46e-01	0	58	104	0	62	12592
2026-01-06 03:37:08.80	82.79	59.49	-45.7	-56.8	3.8	8.46e-01	0	57	104	0	62	12577
2026-01-06 03:37:09.81	83.65	59.63	-45.7	-56.8	3.8	8.46e-01	0	58	104	0	62	12548
2026-01-06 03:37:10.82	84.51	59.75	-45.7	-56.8	3.8	8.46e-01	0	58	104	0	62	12624
2026-01-06 03:37:11.83	85.39	59.88	-45.7	-56.8	3.8	8.46e-01	0	57	104	0	62	12607
2026-01-06 03:37:12.84	86.27	59.99	-45.7	-56.8	3.8	8.47e-01	0	57	104	0	62	12558
2026-01-06 03:37:13.85	87.16	60.10	-45.7	-56.7	3.8	8.46e-01	0	57	104	0	62	12517
2026-01-06 03:37:14.86	88.05	60.21	-45.7	-56.8	3.8	8.46e-01	0	57	104	0	62	12533
2026-01-06 03:37:15.88	88.97	60.31	-45.7	-56.8	3.8	8.46e-01	0	57	104	0	62	12532
2026-01-06 03:37:16.89	89.88	60.40	-45.7	-56.7	3.8	8.47e-01	0	57	104	0	62	12492
2026-01-06 03:37:17.90	90.80	60.49	-45.7	-56.7	3.8	8.46e-01	0	57	104	0	62	12503
2026-01-06 03:37:18.91	91.72	60.57	-45.7	-56.8	3.8	8.46e-01	0	57	104	0	62	12544
2026-01-06 03:37:19.92	92.65	60.64	-45.7	-56.7	3.8	8.47e-01	0	58	104	0	62	12497
2026-01-06 03:37:20.93	93.58	60.71	-45.7	-56.7	3.8	8.46e-01	0	57	104	0	62	12473
2026-01-06 03:37:21.94	94.52	60.77	-45.6	-56.7	3.8	8.46e-01	0	57	104	0	62	12453
2026-01-06 03:37:22.95	95.46	60.82	-45.6	-56.6	3.8	8.47e-01	0	58	104	0	62	12355
2026-01-06 03:37:23.96	96.41	60.87	-45.6	-56.7	3.8	8.46e-01	0	58	104	0	62	12476
2026-01-06 03:37:24.98	97.37	60.91	-45.6	-56.7	3.8	8.45e-01	0	58	104	0	62	12470
2026-01-06 03:37:25.99	98.32	60.94	-45.6	-56.7	3.8	8.46e-01	0	57	104	0	62	12431
2026-01-06 03:37:27.00	99.28	60.97	-45.6	-56.7	3.8	8.46e-01	0	58	104	0	62	12418
2026-01-06 03:37:28.01	100.24	60.99	-45.6	-56.6	3.8	8.45e-01	0	58	104	0	62	12374
2026-01-06 03:37:29.02	101.19	61.00	-45.6	-56.6	3.8	8.46e-01	0	58	104	0	62	12342
2026-01-06 03:37:30.03	102.15	61.00	-45.6	-56.6	3.8	8.47e-01	0	58	104	0	62	12368
2026-01-06 03:37:31.04	103.11	61.00	-45.6	-56.7	3.8	8.45e-01	0	58	104	0	62	12409
2026-01-06 03:37:32.05	104.07	60.99	-45.6	-56.7	3.8	8.47e-01	0	58	104	0	62	12397
2026-01-06 03:37:33.06	105.03	60.98	-45.6	-56.7	3.8	8.46e-01	0	58	104	0	62	12451
2026-01-06 03:37:34.08	105.99	60.95	-45.6	-56.7	3.8	8.46e-01	0	58	104	0	62	12433
2026-01-06 03:37:35.09	106.95	60.93	-45.6	-56.7	3.8	8.47e-01	0	58	104	0	62	12398
2026-01-06 03:37:36.10	107.90	60.89	-45.6	-56.6	3.8	8.46e-01	0	57	104	0	62	12334
2026-01-06 03:37:37.11	108.85	60.85	-45.6	-56.5	3.8	8.46e-01	0	58	104	0	62	12114
2026-01-06 03:37:38.12	109.79	60.80	-45.5	-55.9	3.8	8.46e-01	0	57	104	0	62	11350
2026-01-06 03:37:39.13	110.74	60.74	-45.5	-55.7	3.8	8.46e-01	0	58	104	0	62	11154
2026-01-06 03:37:40.14	111.67	60.68	-45.6	-56.5	3.8	8.45e-01	0	58	104	0	62	12108
2026-01-06 03:37:41.15	112.60	60.61	-45.6	-56.6	3.8	8.46e-01	0	58	104	0	62	12374
2026-01-06 03:37:42.16	113.53	60.53	-45.6	-56.2	3.8	8.45e-01	0	58	104	0	62	11692
2026-01-06 03:37:43.17	114.45	60.45	-45.5	-55.5	3.8	8.45e-01	0	58	104	0	62	10867
2026-01-06 03:37:44.18	115.37	60.36	-45.5	-56.3	3.8	8.46e-01	0	58	104	0	61	12566
2026-01-06 03:37:45.20	116.29	60.26	-45.5	-55.9	3.8	8.47e-01	0	58	104	0	61	12054
2026-01-06 03:37:46.21	117.19	60.16	-45.2	-53.5	4.1	8.43e-01	0	58	0	0	61	9073
2026-01-06 03:37:47.22	118.08	60.05	-45.2	-53.9	3.8	8.40e-01	0	58	104	0	61	9519
2026-01-06 03:37:48.23	118.97	59.94	-45.5	-56.4	3.8	8.46e-01	0	58	104	0	61	12804
2026-01-06 03:37:49.24	119.85	59.82	-45.3	-54.6	3.8	8.45e-01	0	58	104	0	61	10383
2026-01-06 03:37:50.25	120.72	59.69	-44.2	-49.4	5.9	7.66e-01	0	58	0	0	59	6416
2026-01-06 03:37:51.26	121.58	59.56	-43.0	-46.6	8.6	4.34e-02	0	58	0	7340032	57	5162
2026-01-06 03:37:52.27	122.43	59.42	-43.8	-48.4	6.9	7.36e-02	0	58	0	14680064	57	6367
2026-01-06 03:37:53.28	123.28	59.28	-44.3	-49.6	5.8	7.32e-01	0	58	0	16777216	59	6564
2026-01-06 03:37:54.29	124.11	59.14	-39.2	-40.9	14.4	1.27e-04	0	58	0	24117248	49	4284
2026-01-06 03:37:55.30	124.94	58.98	-35.4	-37.1	17.9	0.00e+00	0	58	0	31457280	42	4132
2026-01-06 03:37:56.31	125.75	58.83	-36.1	-37.3	17.8	0.00e+00	0	58	0	38797312	41	4463
2026-01-06 03:37:57.32	126.56	58.66	-45.4	-54.6	3.9	7.87e-01	0	58	0	40894464	60	10937
2026-01-06 03:37:58.33	127.36	58.50	-37.0	-38.3	16.8	1.10e-06	0	58	0	42991616	45	3983
2026-01-06 03:37:59.34	128.14	58.33	-42.0	-44.8	10.2	3.03e-01	0	58	0	50331648	55	4728
2026-01-06 03:38:00.35	128.92	58.15	-36.4	-37.7	17.5	3.89e-05	0	58	0	57671680	44	3914
2026-01-06 03:38:01.36	129.69	57.97	-39.6	-41.4	13.9	8.00e-06	0	58	0	65011712	49	4514
2026-01-06 03:38:02.37	130.44	57.79	-35.9	-37.1	17.9	0.00e+00	0	58	0	72351744	42	4124
2026-01-06 03:38:03.38	131.19	57.60	-35.9	-37.1	17.9	0.00e+00	0	58	0	79691776	42	4116
2026-01-06 03:38:04.39	131.92	57.41	-35.9	-37.0	18.0	0.00e+00	0	58	0	87031808	42	4091
2026-01-06 03:38:05.40	132.65	57.21	-35.5	-36.7	18.3	0.00e+00	0	57	0	94371840	41	4161
2026-01-06 03:38:06.42	133.37	57.01	-35.2	-36.3	18.7	0.00e+00	0	58	0	101711872	41	3993
2026-01-06 03:38:07.43	134.07	56.81	-35.1	-36.2	18.7	0.00e+00	0	58	0	109051904	41	3927
2026-01-06 03:38:08.44	134.77	56.60	-35.3	-36.4	18.6	0.00e+00	0	57	0	116391936	41	4040
2026-01-06 03:38:09.44	135.45	56.40	-35.5	-36.7	18.3	0.00e+00	0	58	0	123731968	41	4166
2026-01-06 03:38:10.45	136.12	56.19	-35.5	-36.7	18.4	0.00e+00	0	58	0	131072000	41	4164
2026-01-06 03:38:11.46	136.78	55.97	-35.3	-36.5	18.5	0.00e+00	0	58	0	138412032	41	4071
2026-01-06 03:38:12.47	137.44	55.75	-35.1	-36.1	18.9	0.00e+00	0	58	0	145752064	41	3909
2026-01-06 03:38:13.48	138.08	55.53	-34.8	-35.8	19.2	0.00e+00	0	58	0	152043520	40	3992
2026-01-06 03:38:14.49	138.71	55.31	-34.7	-35.8	19.0	0.00e+00	0	58	0	160432128	40	3984
2026-01-06 03:38:15.50	139.34	55.08	-35.2	-36.3	18.7	0.00e+00	0	58	0	167772160	40	4208
2026-01-06 03:38:16.52	139.96	54.86	-35.4	-36.6	18.5	0.00e+00	0	58	0	174063616	40	4363
2026-01-06 03:38:17.53	140.56	54.63	-35.5	-36.7	18.3	0.00e+00	0	57	0	181403648	40	4430
2026-01-06 03:38:18.54	141.16	54.39	-35.4	-36.6	18.5	0.00e+00	0	58	0	189792256	40	4347
2026-01-06 03:38:19.55	141.74	54.16	-35.3	-36.4	18.6	0.00e+00	0	58	0	196083712	40	4258
2026-01-06 03:38:20.56	142.32	53.92	-35.1	-36.2	18.7	0.00e+00	0	58	0	203423744	40	4180
2026-01-06 03:38:21.57	142.88	53.69	-35.2	-36.3	18.7	0.00e+00	0	58	0	210763776	40	4214
2026-01-06 03:38:22.58	143.44	53.45	-35.3	-36.5	18.6	0.00e+00	0	58	0	218103808	40	4300
2026-01-06 03:38:23.59	143.99	53.21	-35.2	-36.3	18.7	0.00e+00	0	58	0	225443840	40	4214
2026-01-06 03:38:24.60	144.53	52.97	-35.1	-36.2	18.9	0.00e+00	0	58	0	232783872	40	4154
2026-01-06 03:38:25.61	145.06	52.72	-35.0	-36.1	18.9	0.00e+00	0	58	0	240123904	40	4122
2026-01-06 03:38:26.62	145.58	52.48	-35.1	-36.2	18.8	0.00e+00	0	58	0	247463936	40	4170
2026-01-06 03:38:27.63	146.09	52.23	-35.2	-36.3	18.8	0.00e+00	0	57	0	254803968	40	4209
2026-01-06 03:38:28.64	146.60	51.99	-35.4	-36.5	18.5	0.00e+00	0	58	0	262144000	40	4328
2026-01-06 03:38:29.65	147.09	51.74	-35.6	-36.8	18.2	0.00e+00	0	58	0	269484032	40	4445
2026-01-06 03:38:30.66	147.58	51.49	-35.6	-36.8	18.3	0.00e+00	0	58	0	276824064	41	4194
2026-01-06 03:38:31.67	148.06	51.24	-35.6	-36.7	18.2	0.00e+00	0	58	0	284164096	41	4185
2026-01-06 03:38:32.68	148.54	50.99	-35.4	-36.5	18.5	0.00e+00	0	58	0	291504128	41	4094
2026-01-06 03:38:33.69	149.00	50.74	-35.3	-36.5	18.4	0.00e+00	0	58	0	298844160	41	4065
2026-01-06 03:38:34.70	149.46	50.49	-35.2	-36.3	18.7	0.00e+00	0	58	0	306184192	41	3980
2026-01-06 03:38:35.71	149.91	50.24	-35.3	-36.4	18.5	0.00e+00	0	58	0	313524224	41	4042
2026-01-06 03:38:36.72	150.35	49.99	-35.3	-36.4	18.5	0.00e+00	0	58	0	319815680	41	4051
2026-01-06 03:38:37.73	150.79	49.73	-35.3	-36.5	18.5	0.00e+00	0	58	0	328204288	41	4065
2026-01-06 03:38:38.75	151.22	49.48	-35.4	-36.5	17.9	0.00e+00	0	58	0	335544320	41	4086
2026-01-06 03:38:39.76	151.64	49.23	-35.1	-36.2	18.8	0.00e+00	0	58	0	341835776	41	3916
2026-01-06 03:38:40.77	152.05	48.97	-34.9	-36.0	19.0	0.00e+00	0	58	0	349175808	40	4078
2026-01-06 03:38:41.78	152.46	48.72	-34.9	-36.0	18.9	0.00e+00	0	58	0	356515840	40	4065
2026-01-06 03:38:42.79	152.86	48.47	-35.0	-36.1	18.9	0.00e+00	0	58	0	363855872	40	4112
2026-01-06 03:38:43.80	153.26	48.21	-35.0	-36.1	18.8	0.00e+00	0	58	0	371195904	40	4140
2026-01-06 03:38:44.81	153.64	47.96	-35.0	-36.1	18.8	0.00e+00	0	58	0	378535936	40	4126
2026-01-06 03:38:45.82	154.03	47.71	-34.9	-36.0	18.9	0.00e+00	0	58	0	385875968	40	4097
2026-01-06 03:38:46.83	154.40	47.45	-34.9	-36.0	18.9	0.00e+00	0	58	0	393216000	40	4078
2026-01-06 03:38:47.83	154.77	47.20	-34.6	-35.7	19.3	0.00e+00	0	58	0	400556032	40	3918
2026-01-06 03:38:48.84	155.13	46.95	-34.5	-35.5	19.4	0.00e+00	0	58	0	407896064	39	4084
2026-01-06 03:38:49.85	155.49	46.70	-34.3	-35.3	19.7	0.00e+00	0	58	0	415236096	39	3997
2026-01-06 03:38:50.86	155.85	46.45	-34.2	-35.2	19.7	0.00e+00	0	58	0	422576128	39	3946
2026-01-06 03:38:51.87	156.19	46.20	-34.2	-35.3	19.7	0.00e+00	0	58	0	429916160	39	3965
2026-01-06 03:38:52.88	156.53	45.95	-34.0	-35.0	20.0	0.00e+00	0	58	0	437256192	38	4082
2026-01-06 03:38:53.89	156.87	45.69	-33.9	-34.9	20.1	0.00e+00	0	58	0	444596224	38	4022
2026-01-06 03:38:54.91	157.21	45.44	-33.9	-34.9	20.0	0.00e+00	0	58	0	451936256	38	4015
2026-01-06 03:38:55.92	157.53	45.19	-33.8	-34.8	20.1	0.00e+00	0	58	0	459276288	38	3965
2026-01-06 03:38:56.93	157.85	44.94	-33.8	-34.8	20.2	0.00e+00	0	58	0	466616320	38	3964
2026-01-06 03:38:57.94	158.17	44.70	-33.8	-34.8	20.2	0.00e+00	0	58	0	473956352	38	3967
2026-01-06 03:38:58.95	158.48	44.45	-33.8	-34.8	20.1	0.00e+00	0	58	0	481296384	38	3986
2026-01-06 03:38:59.96	158.79	44.20	-33.9	-34.9	19.6	0.00e+00	0	58	0	488636416	38	4044
2026-01-06 03:39:00.97	159.09	43.96	-33.9	-35.0	19.9	0.00e+00	0	57	0	494927872	38	4052
2026-01-06 03:39:01.98	159.39	43.71	-33.9	-34.9	20.1	0.00e+00	0	58	0	502267904	38	4009
2026-01-06 03:39:02.99	159.68	43.46	-33.8	-34.8	20.1	0.00e+00	0	58	0	510656512	38	3999
2026-01-06 03:39:04.00	159.97	43.22	-33.9	-34.9	20.0	0.00e+00	0	58	0	516947968	38	4045
2026-01-06 03:39:05.01	160.25	42.98	-34.0	-35.0	19.8	0.00e+00	0	57	0	524288000	38	4074
2026-01-06 03:39:06.02	160.53	42.73	-33.9	-35.0	20.0	0.00e+00	0	58	0	531628032	38	4055
2026-01-06 03:39:07.03	160.81	42.49	-33.9	-34.9	20.1	0.00e+00	0	58	0	538968064	38	4017
2026-01-06 03:39:08.04	161.08	42.25	-33.7	-34.7	20.2	0.00e+00	0	58	0	546308096	38	3931
2026-01-06 03:39:09.05	161.35	42.01	-33.6	-34.6	20.3	0.00e+00	0	58	0	553648128	38	3883
2026-01-06 03:39:10.06	161.61	41.77	-33.5	-34.5	20.3	0.00e+00	0	58	0	560988160	38	3848
2026-01-06 03:39:11.07	161.87	41.54	-33.5	-34.5	20.3	0.00e+00	0	58	0	568328192	37	4076
2026-01-06 03:39:12.08	162.13	41.30	-33.6	-34.7	20.2	0.00e+00	0	58	0	575668224	37	4146
2026-01-06 03:39:13.09	162.38	41.06	-33.8	-34.8	20.1	0.00e+00	0	58	0	583008256	37	4220
2026-01-06 03:39:14.10	162.63	40.83	-33.9	-34.9	19.9	0.00e+00	0	58	0	590348288	37	4274
2026-01-06 03:39:15.11	162.88	40.59	-34.0	-35.0	19.9	0.00e+00	0	58	0	597688320	37	4313
2026-01-06 03:39:16.12	163.12	40.36	-34.0	-35.0	19.8	0.00e+00	0	58	0	605028352	37	4327
2026-01-06 03:39:17.13	163.36	40.13	-33.9	-35.0	19.9	0.00e+00	0	58	0	612368384	37	4300
2026-01-06 03:39:18.15	163.60	39.89	-33.8	-34.8	20.1	0.00e+00	0	58	0	619708416	37	4206
2026-01-06 03:39:19.16	163.83	39.66	-33.7	-34.7	20.2	0.00e+00	0	58	0	627048448	37	4161
2026-01-06 03:39:20.17	164.06	39.43	-33.6	-34.6	20.2	0.00e+00	0	57	0	634388480	37	4112
2026-01-06 03:39:21.18	164.29	39.20	-33.6	-34.6	20.0	0.00e+00	0	58	0	640679936	37	4118
2026-01-06 03:39:22.19	164.51	38.98	-33.7	-34.7	20.1	0.00e+00	0	58	0	649068544	37	4176
2026-01-06 03:39:23.20	164.73	38.75	-33.8	-34.8	20.0	0.00e+00	0	58	0	656408576	37	4224
2026-01-06 03:39:24.21	164.94	38.52	-33.8	-34.9	20.0	0.00e+00	0	58	0	662700032	37	4248
2026-01-06 03:39:25.22	165.16	38.30	-33.9	-34.9	19.9	0.00e+00	0	57	0	670040064	37	4288
2026-01-06 03:39:26.23	165.37	38.08	-33.9	-35.0	19.7	0.00e+00	0	58	0	677380096	37	4293
2026-01-06 03:39:27.24	165.58	37.85	-33.9	-34.9	19.9	0.00e+00	0	57	0	684720128	37	4277
2026-01-06 03:39:28.25	165.78	37.63	-33.9	-34.9	20.0	0.00e+00	0	58	0	692060160	37	4250
2026-01-06 03:39:29.26	165.99	37.41	-33.9	-34.9	19.9	0.00e+00	0	58	0	699400192	37	4287
2026-01-06 03:39:30.27	166.19	37.19	-33.9	-34.9	19.9	0.00e+00	0	58	0	706740224	37	4279
2026-01-06 03:39:31.28	166.38	36.98	-33.9	-34.9	19.9	0.00e+00	0	58	0	714080256	37	4263
2026-01-06 03:39:32.29	166.58	36.76	-33.8	-34.9	19.9	0.00e+00	0	58	0	721420288	37	4250
2026-01-06 03:39:33.30	166.77	36.54	-33.9	-34.9	19.9	0.00e+00	0	57	0	728760320	37	4261
2026-01-06 03:39:34.31	166.96	36.33	-33.8	-34.9	20.0	0.00e+00	0	58	0	736100352	37	4244
2026-01-06 03:39:35.32	167.15	36.12	-33.8	-34.8	20.0	0.00e+00	0	58	0	743440384	37	4231
2026-01-06 03:39:36.33	167.33	35.90	-33.7	-34.8	20.0	0.00e+00	0	58	0	750780416	37	4195
2026-01-06 03:39:37.34	167.52	35.69	-33.6	-34.6	20.2	0.00e+00	0	58	0	758120448	37	4117
2026-01-06 03:39:38.35	167.70	35.48	-33.5	-34.5	20.4	0.00e+00	0	58	0	765460480	37	4066
2026-01-06 03:39:39.36	167.88	35.27	-33.4	-34.4	20.4	0.00e+00	0	58	0	772800512	37	4033
2026-01-06 03:39:40.37	168.05	35.06	-33.3	-34.3	20.5	0.00e+00	0	58	0	780140544	37	3966
2026-01-06 03:39:41.38	168.23	34.86	-33.2	-34.2	20.4	0.00e+00	0	58	0	787480576	37	3925
2026-01-06 03:39:42.39	168.40	34.65	-33.3	-34.2	20.4	0.00e+00	0	58	0	794820608	37	3954
2026-01-06 03:39:43.40	168.57	34.44	-33.2	-34.2	20.6	0.00e+00	0	58	0	802160640	37	3940
2026-01-06 03:39:44.41	168.74	34.24	-33.4	-34.4	20.3	0.00e+00	0	58	0	809500672	37	4018
2026-01-06 03:39:45.42	168.90	34.04	-33.3	-34.3	20.5	0.00e+00	0	57	0	815792128	37	3990
2026-01-06 03:39:46.42	169.06	33.84	-33.5	-34.5	20.3	0.00e+00	0	58	0	823132160	37	4054
2026-01-06 03:39:47.43	169.23	33.64	-33.5	-34.5	20.3	0.00e+00	0	58	0	831520768	37	4072
2026-01-06 03:39:48.44	169.38	33.44	-33.6	-34.6	20.2	0.00e+00	0	58	0	837812224	37	4103
2026-01-06 03:39:49.45	169.54	33.24	-33.6	-34.6	20.2	0.00e+00	0	58	0	845152256	37	4126
2026-01-06 03:39:50.46	169.70	33.04	-33.6	-34.6	20.1	0.00e+00	0	58	0	852492288	37	4144
2026-01-06 03:39:51.47	169.85	32.85	-33.6	-34.6	20.0	0.00e+00	0	58	0	859832320	37	4141
2026-01-06 03:39:52.48	170.01	32.65	-33.6	-34.6	20.0	0.00e+00	0	58	0	867172352	37	4122
2026-01-06 03:39:53.49	170.16	32.46	-33.5	-34.5	20.2	0.00e+00	0	58	0	874512384	37	4092
2026-01-06 03:39:54.50	170.30	32.26	-33.5	-34.5	20.2	0.00e+00	0	57	0	881852416	37	4095
2026-01-06 03:39:55.51	170.45	32.07	-33.6	-34.6	20.2	0.00e+00	0	58	0	889192448	37	4114
2026-01-06 03:39:56.52	170.60	31.88	-33.5	-34.5	20.3	0.00e+00	0	58	0	896532480	37	4079
2026-01-06 03:39:57.53	170.74	31.69	-33.4	-34.4	20.3	0.00e+00	0	58	0	903872512	37	4048
2026-01-06 03:39:58.54	170.88	31.50	-33.5	-34.5	20.2	0.00e+00	0	58	0	911212544	37	4095
2026-01-06 03:39:59.55	171.02	31.31	-33.4	-34.5	20.3	0.00e+00	0	57	0	918552576	37	4052
2026-01-06 03:40:00.56	171.16	31.12	-33.5	-34.5	20.2	0.00e+00	0	58	0	925892608	37	4058
2026-01-06 03:40:01.57	171.30	30.94	-33.5	-34.5	20.3	0.00e+00	0	58	0	933232640	37	4056
2026-01-06 03:40:02.58	171.44	30.75	-33.4	-34.4	20.3	0.00e+00	0	58	0	940572672	37	4050
2026-01-06 03:40:03.60	171.57	30.57	-33.4	-34.4	20.1	0.00e+00	0	58	0	947912704	37	4019
2026-01-06 03:40:04.60	171.70	30.39	-33.5	-34.5	20.2	0.00e+00	0	58	0	955252736	37	4053
2026-01-06 03:40:05.61	171.84	30.20	-33.5	-34.5	20.2	0.00e+00	0	58	0	961544192	37	4063
2026-01-06 03:40:06.62	171.97	30.02	-33.6	-34.6	20.2	0.00e+00	0	58	0	968884224	37	4115
2026-01-06 03:40:07.63	172.09	29.84	-33.6	-34.6	20.1	0.00e+00	0	58	0	976224256	37	4119
2026-01-06 03:40:08.64	172.22	29.66	-33.6	-34.6	20.1	0.00e+00	0	58	0	983564288	37	4132
2026-01-06 03:40:09.65	172.35	29.48	-33.6	-34.6	20.1	0.00e+00	0	58	0	990904320	37	4144
2026-01-06 03:40:10.66	172.47	29.31	-33.7	-34.7	20.0	0.00e+00	0	58	0	998244352	37	4158
2026-01-06 03:40:11.67	172.59	29.13	-33.6	-34.6	20.1	0.00e+00	0	58	0	1005584384	37	4127
2026-01-06 03:40:12.68	172.72	28.96	-33.6	-34.6	20.1	0.00e+00	0	58	0	1012924416	37	4118
2026-01-06 03:40:13.69	172.84	28.78	-33.7	-34.7	20.0	0.00e+00	0	58	0	1020264448	37	4157
2026-01-06 03:40:14.70	172.96	28.61	-33.7	-34.7	20.0	0.00e+00	0	58	0	1027604480	37	4152
2026-01-06 03:40:15.71	173.08	28.44	-33.7	-34.7	20.0	0.00e+00	0	58	0	1034944512	37	4178
2026-01-06 03:40:16.72	173.19	28.26	-33.7	-34.8	20.0	0.00e+00	0	58	0	1042284544	37	4200
2026-01-06 03:40:17.73	173.31	28.09	-33.8	-34.8	19.9	0.00e+00	0	57	0	1049624576	37	4204
2026-01-06 03:40:18.74	173.42	27.92	-33.8	-34.8	19.9	0.00e+00	0	58	0	1056964608	37	4239
2026-01-06 03:40:19.75	173.54	27.76	-33.9	-34.9	19.8	0.00e+00	0	58	0	1064304640	37	4278
2026-01-06 03:40:20.76	173.65	27.59	-33.9	-34.9	19.8	0.00e+00	0	58	0	1071644672	37	4274
2026-01-06 03:40:21.76	173.76	27.42	-33.9	-35.0	19.8	0.00e+00	0	58	0	1078984704	37	4294
2026-01-06 03:40:22.77	173.87	27.26	-33.9	-35.0	19.6	0.00e+00	0	58	0	1086324736	37	4300
2026-01-06 03:40:23.78	173.98	27.09	-34.0	-35.0	19.7	0.00e+00	0	58	0	1092616192	37	4306
2026-01-06 03:40:24.79	174.09	26.93	-34.0	-35.0	19.6	0.00e+00	0	58	0	1101004800	37	4327
2026-01-06 03:40:25.80	174.19	26.76	-34.0	-35.1	19.6	0.00e+00	0	58	0	1108344832	37	4346
2026-01-06 03:40:26.81	174.30	26.60	-34.0	-35.1	19.6	0.00e+00	0	58	0	1114636288	37	4347
2026-01-06 03:40:27.82	174.40	26.44	-34.0	-35.0	19.7	0.00e+00	0	57	0	1121976320	37	4332
2026-01-06 03:40:28.83	174.51	26.28	-34.0	-35.0	19.7	0.00e+00	0	58	0	1129316352	37	4318
2026-01-06 03:40:29.84	174.61	26.12	-33.9	-35.0	19.7	0.00e+00	0	58	0	1136656384	37	4312
2026-01-06 03:40:30.85	174.71	25.96	-33.9	-34.9	19.8	0.00e+00	0	58	0	1143996416	37	4283
2026-01-06 03:40:31.86	174.81	25.80	-33.8	-34.9	19.8	0.00e+00	0	58	0	1151336448	37	4255
2026-01-06 03:40:32.87	174.91	25.65	-33.8	-34.8	19.9	0.00e+00	0	58	0	1158676480	37	4235
2026-01-06 03:40:33.88	175.01	25.49	-33.7	-34.7	19.9	0.00e+00	0	58	0	1166016512	37	4184
2026-01-06 03:40:34.89	175.11	25.33	-33.6	-34.6	20.0	0.00e+00	0	58	0	1173356544	37	4131
2026-01-06 03:40:35.91	175.21	25.18	-33.6	-34.6	20.0	0.00e+00	0	57	0	1180696576	37	4140
2026-01-06 03:40:36.91	175.30	25.02	-33.6	-34.6	20.1	0.00e+00	0	58	0	1188036608	37	4119
2026-01-06 03:40:37.93	175.40	24.87	-33.6	-34.6	20.1	0.00e+00	0	58	0	1195376640	37	4107
2026-01-06 03:40:38.94	175.49	24.72	-33.5	-34.5	20.1	0.00e+00	0	58	0	1202716672	37	4088
2026-01-06 03:40:39.95	175.58	24.57	-33.5	-34.6	20.1	0.00e+00	0	58	0	1210056704	37	4100
2026-01-06 03:40:40.96	175.68	24.42	-33.6	-34.6	20.1	0.00e+00	0	58	0	1217396736	37	4117
2026-01-06 03:40:41.97	175.77	24.27	-33.6	-34.6	20.0	0.00e+00	0	58	0	1224736768	37	4129
2026-01-06 03:40:42.98	175.86	24.12	-33.7	-34.7	20.0	0.00e+00	0	58	0	1232076800	37	4167
2026-01-06 03:40:43.99	175.95	23.97	-33.7	-34.7	19.9	0.00e+00	0	58	0	1239416832	37	4177
2026-01-06 03:40:45.00	176.04	23.82	-33.8	-34.8	19.8	0.00e+00	0	58	0	1246756864	37	4233
2026-01-06 03:40:46.01	176.13	23.67	-33.9	-34.9	19.7	0.00e+00	0	58	0	1254096896	37	4272
2026-01-06 03:40:47.02	176.22	23.53	-33.9	-35.0	19.7	0.00e+00	0	58	0	1260388352	37	4297
2026-01-06 03:40:48.04	176.30	23.38	-34.0	-35.0	19.6	0.00e+00	0	58	0	1268776960	37	4335
2026-01-06 03:40:49.05	176.39	23.24	-34.1	-35.1	19.5	0.00e+00	0	58	0	1276116992	37	4377
2026-01-06 03:40:50.05	176.47	23.09	-34.1	-35.1	19.5	0.00e+00	0	58	0	1282408448	37	4372
2026-01-06 03:40:51.06	176.56	22.95	-34.2	-35.3	19.4	0.00e+00	0	57	0	1289748480	37	4443
2026-01-06 03:40:52.08	176.64	22.81	-34.3	-35.3	19.3	0.00e+00	0	58	0	1297088512	38	4235
2026-01-06 03:40:53.09	176.73	22.67	-34.3	-35.3	19.4	0.00e+00	0	58	0	1304428544	38	4231
2026-01-06 03:40:54.10	176.81	22.52	-34.3	-35.3	19.3	0.00e+00	0	58	0	1311768576	38	4240
2026-01-06 03:40:55.10	176.89	22.39	-34.3	-35.3	19.3	0.00e+00	0	58	0	1319108608	38	4242
2026-01-06 03:40:56.11	176.97	22.25	-34.3	-35.3	19.2	0.00e+00	0	58	0	1326448640	38	4239
2026-01-06 03:40:57.12	177.05	22.11	-34.3	-35.3	19.3	0.00e+00	0	58	0	1333788672	38	4240
2026-01-06 03:40:58.14	177.13	21.97	-34.3	-35.3	19.3	0.00e+00	0	58	0	1341128704	38	4234
2026-01-06 03:40:59.15	177.21	21.83	-34.3	-35.4	19.3	0.00e+00	0	58	0	1348468736	38	4248
2026-01-06 03:41:00.16	177.29	21.69	-34.3	-35.3	19.3	0.00e+00	0	58	0	1355808768	38	4240
2026-01-06 03:41:01.17	177.37	21.56	-34.3	-35.3	19.3	0.00e+00	0	58	0	1363148800	38	4225
2026-01-06 03:41:02.18	177.44	21.42	-34.3	-35.3	19.3	0.00e+00	0	58	0	1370488832	38	4234
2026-01-06 03:41:03.19	177.52	21.29	-34.3	-35.4	19.3	0.00e+00	0	58	0	1377828864	38	4247
2026-01-06 03:41:04.20	177.60	21.15	-34.2	-35.3	19.4	0.00e+00	0	58	0	1385168896	38	4198
2026-01-06 03:41:05.21	177.67	21.02	-34.2	-35.2	19.3	0.00e+00	0	58	0	1392508928	38	4185
2026-01-06 03:41:06.22	177.74	20.89	-34.2	-35.2	19.4	0.00e+00	0	58	0	1399848960	38	4190
2026-01-06 03:41:07.23	177.82	20.76	-34.2	-35.3	19.3	0.00e+00	0	58	0	1407188992	38	4208
2026-01-06 03:41:08.24	177.89	20.62	-34.2	-35.3	19.3	0.00e+00	0	58	0	1414529024	38	4213
2026-01-06 03:41:09.25	177.96	20.49	-34.2	-35.2	19.3	0.00e+00	0	58	0	1421869056	38	4192
2026-01-06 03:41:10.26	178.04	20.36	-34.2	-35.2	19.4	0.00e+00	0	58	0	1429209088	38	4180
2026-01-06 03:41:11.27	178.11	20.23	-34.2	-35.3	19.3	0.00e+00	0	58	0	1435500544	38	4203
2026-01-06 03:41:12.28	178.18	20.11	-34.2	-35.3	19.3	0.00e+00	0	58	0	1442840576	38	4203
2026-01-06 03:41:13.29	178.25	19.98	-34.3	-35.3	19.2	0.00e+00	0	58	0	1451229184	38	4237
2026-01-06 03:41:14.30	178.32	19.85	-34.4	-35.4	19.1	0.00e+00	0	58	0	1457520640	38	4288
2026-01-06 03:41:15.31	178.39	19.72	-34.3	-35.4	19.1	0.00e+00	0	58	0	1464860672	38	4270
2026-01-06 03:41:16.32	178.46	19.60	-34.4	-35.5	19.1	0.00e+00	0	58	0	1472200704	38	4315
2026-01-06 03:41:17.33	178.53	19.47	-34.5	-35.6	18.9	0.00e+00	0	58	0	1479540736	38	4353
2026-01-06 03:41:18.34	178.59	19.35	-34.6	-35.7	18.9	0.00e+00	0	58	0	1486880768	38	4399
2026-01-06 03:41:19.36	178.66	19.22	-34.6	-35.7	18.9	0.00e+00	0	58	0	1494220800	38	4418
2026-01-06 03:41:20.37	178.73	19.10	-34.7	-35.8	18.8	0.00e+00	0	58	0	1501560832	38	4458
2026-01-06 03:41:21.38	178.79	18.97	-34.7	-35.8	18.7	0.00e+00	0	58	0	1508900864	38	4452
2026-01-06 03:41:22.39	178.86	18.85	-34.8	-35.9	18.7	0.00e+00	0	58	0	1516240896	39	4260
2026-01-06 03:41:23.40	178.92	18.73	-34.8	-35.9	18.6	0.00e+00	0	58	0	1523580928	39	4264
2026-01-06 03:41:24.41	178.99	18.61	-34.8	-35.9	18.5	0.00e+00	0	58	0	1530920960	39	4289
2026-01-06 03:41:25.42	179.05	18.48	-34.9	-36.0	18.5	0.00e+00	0	58	0	1538260992	39	4321
2026-01-06 03:41:26.43	179.12	18.36	-34.9	-36.0	18.5	0.00e+00	0	58	0	1545601024	39	4318
2026-01-06 03:41:27.44	179.18	18.24	-34.9	-36.1	18.5	0.00e+00	0	58	0	1552941056	39	4349
2026-01-06 03:41:28.44	179.24	18.13	-34.9	-36.1	18.5	0.00e+00	0	58	0	1560281088	39	4360
2026-01-06 03:41:29.45	179.30	18.01	-35.0	-36.2	18.4	0.00e+00	0	58	0	1567621120	39	4398
2026-01-06 03:41:30.46	179.37	17.89	-35.0	-36.2	18.4	0.00e+00	0	58	0	1574961152	39	4405
2026-01-06 03:41:31.47	179.43	17.77	-35.1	-36.3	18.3	0.00e+00	0	58	0	1581252608	39	4445
2026-01-06 03:41:32.48	179.49	17.65	-35.2	-36.4	18.2	0.00e+00	0	58	0	1588592640	39	4497
2026-01-06 03:41:33.49	179.55	17.54	-35.1	-36.2	18.3	0.00e+00	0	58	0	1596981248	39	4430
2026-01-06 03:41:34.50	179.61	17.42	-35.0	-36.2	18.3	0.00e+00	0	58	0	1603272704	39	4397
2026-01-06 03:41:35.51	179.67	17.31	-35.0	-36.1	18.4	0.00e+00	0	58	0	1610612736	39	4372
2026-01-06 03:41:36.52	179.73	17.19	-35.0	-36.1	18.4	0.00e+00	0	58	0	1617952768	39	4376
2026-01-06 03:41:37.54	179.79	17.07	-35.0	-36.1	18.3	0.00e+00	0	58	0	1625292800	39	4387
2026-01-06 03:41:38.55	179.85	16.96	-35.0	-36.1	18.4	0.00e+00	0	58	0	1632632832	39	4372
2026-01-06 03:41:39.56	179.90	16.85	-35.0	-36.2	18.3	0.00e+00	0	58	0	1639972864	39	4403
2026-01-06 03:41:40.57	179.96	16.73	-35.0	-36.2	18.3	0.00e+00	0	58	0	1647312896	39	4414
2026-01-06 03:41:41.58	180.02	16.62	-35.0	-36.1	18.4	0.00e+00	0	58	0	1654652928	39	4372
2026-01-06 03:41:42.58	180.07	16.51	-35.0	-36.2	18.3	0.00e+00	0	58	0	1661992960	39	4399
2026-01-06 03:41:43.59	180.13	16.40	-35.1	-36.3	18.2	0.00e+00	0	58	0	1669332992	39	4463
2026-01-06 03:41:44.60	180.19	16.29	-35.2	-36.4	18.1	0.00e+00	0	58	0	1676673024	39	4501
2026-01-06 03:41:45.62	180.24	16.17	-35.1	-36.3	18.2	0.00e+00	0	58	0	1684013056	39	4459
2026-01-06 03:41:46.63	180.30	16.06	-35.2	-36.4	18.1	0.00e+00	0	58	0	1691353088	39	4494
2026-01-06 03:41:47.64	180.35	15.96	-35.2	-36.4	18.0	0.00e+00	0	58	0	1698693120	40	4266
2026-01-06 03:41:48.65	180.41	15.85	-35.2	-36.4	17.9	0.00e+00	0	58	0	1706033152	40	4282
2026-01-06 03:41:49.66	180.46	15.74	-35.4	-36.6	17.8	0.00e+00	0	58	0	1713373184	40	4359
2026-01-06 03:41:50.67	180.51	15.63	-35.3	-36.5	17.9	0.00e+00	0	58	0	1720713216	40	4331
2026-01-06 03:41:51.68	180.57	15.52	-35.4	-36.6	17.8	0.00e+00	0	58	0	1728053248	40	4363
2026-01-06 03:41:52.69	180.62	15.41	-35.5	-36.7	17.7	0.00e+00	0	58	0	1735393280	40	4410
2026-01-06 03:41:53.70	180.67	15.31	-35.6	-36.8	17.5	0.00e+00	0	58	0	1742733312	40	4484
2026-01-06 03:41:54.71	180.72	15.20	-35.5	-36.7	17.6	0.00e+00	0	58	0	1750073344	40	4435
2026-01-06 03:41:55.72	180.78	15.09	-35.5	-36.8	17.6	0.00e+00	0	58	0	1756364800	40	4450
2026-01-06 03:41:56.73	180.83	14.99	-35.7	-36.9	17.4	0.00e+00	0	58	0	1763704832	40	4536
2026-01-06 03:41:57.74	180.88	14.88	-35.8	-37.1	17.3	0.00e+00	0	58	0	1772093440	41	4353
2026-01-06 03:41:58.75	180.93	14.78	-35.8	-37.1	17.3	0.00e+00	0	58	0	1778384896	41	4343
2026-01-06 03:41:59.76	180.98	14.67	-35.9	-37.1	17.2	0.00e+00	0	58	0	1785724928	41	4383
2026-01-06 03:42:00.77	181.03	14.57	-35.9	-37.2	17.1	0.00e+00	0	58	0	1793064960	41	4395
2026-01-06 03:42:01.78	181.08	14.47	-36.0	-37.3	17.1	0.00e+00	0	58	0	1800404992	41	4451
2026-01-06 03:42:02.79	181.13	14.36	-36.1	-37.4	16.9	0.00e+00	0	58	0	1807745024	41	4526
2026-01-06 03:42:03.80	181.18	14.26	-36.1	-37.5	16.9	0.00e+00	0	58	0	1815085056	41	4555
2026-01-06 03:42:04.81	181.23	14.16	-36.0	-37.3	17.0	0.00e+00	0	58	0	1822425088	41	4479
2026-01-06 03:42:05.82	181.28	14.06	-36.0	-37.3	17.0	0.00e+00	0	58	0	1829765120	41	4469
2026-01-06 03:42:06.83	181.32	13.96	-36.1	-37.4	17.0	0.00e+00	0	58	0	1837105152	41	4502
2026-01-06 03:42:07.84	181.37	13.85	-36.1	-37.5	16.8	0.00e+00	0	58	0	1844445184	41	4558
2026-01-06 03:42:08.85	181.42	13.75	-36.3	-37.6	16.7	0.00e+00	0	58	0	1851785216	42	4362
2026-01-06 03:42:09.86	181.47	13.65	-36.4	-37.7	16.6	0.00e+00	0	58	0	1859125248	42	4434
2026-01-06 03:42:10.87	181.51	13.55	-36.5	-37.9	16.4	0.00e+00	0	58	0	1866465280	42	4501
2026-01-06 03:42:11.88	181.56	13.45	-36.4	-37.7	16.6	0.00e+00	0	58	0	1873805312	42	4426
2026-01-06 03:42:12.89	181.61	13.36	-36.1	-37.4	16.9	0.00e+00	0	58	0	1881145344	42	4283
2026-01-06 03:42:13.89	181.65	13.26	-35.9	-37.2	17.1	0.00e+00	0	58	0	1888485376	42	4179
2026-01-06 03:42:14.90	181.70	13.16	-35.9	-37.2	17.2	0.00e+00	0	58	0	1895825408	42	4156
2026-01-06 03:42:15.91	181.75	13.06	-35.8	-37.1	17.2	0.00e+00	0	58	0	1902116864	42	4140
2026-01-06 03:42:16.92	181.79	12.96	-35.9	-37.2	17.1	0.00e+00	0	58	0	1909456896	42	4177
2026-01-06 03:42:17.93	181.84	12.87	-36.0	-37.3	17.0	0.00e+00	0	58	0	1916796928	42	4200
2026-01-06 03:42:18.94	181.88	12.77	-35.9	-37.1	17.2	0.00e+00	0	58	0	1924136960	42	4140
2026-01-06 03:42:19.95	181.92	12.67	-35.8	-37.1	17.2	0.00e+00	0	58	0	1931476992	42	4113
2026-01-06 03:42:20.96	181.97	12.58	-35.9	-37.2	17.2	0.00e+00	0	58	0	1938817024	42	4154
2026-01-06 03:42:21.97	182.01	12.48	-35.9	-37.2	17.1	0.00e+00	0	58	0	1946157056	42	4161
2026-01-06 03:42:22.98	182.06	12.39	-36.0	-37.3	17.0	0.00e+00	0	58	0	1953497088	42	4202
2026-01-06 03:42:23.99	182.10	12.29	-35.9	-37.2	17.1	0.00e+00	0	58	0	1960837120	42	4153
2026-01-06 03:42:25.00	182.14	12.20	-35.9	-37.2	17.1	0.00e+00	0	58	0	1968177152	42	4187
2026-01-06 03:42:26.01	182.19	12.10	-36.0	-37.3	17.0	0.00e+00	0	58	0	1975517184	42	4210
2026-01-06 03:42:27.02	182.23	12.01	-36.0	-37.4	16.9	0.00e+00	0	58	0	1982857216	42	4243
2026-01-06 03:42:28.03	182.27	11.92	-35.9	-37.2	17.1	0.00e+00	0	58	0	1990197248	42	4180
2026-01-06 03:42:29.04	182.31	11.82	-36.0	-37.3	17.0	0.00e+00	0	58	0	1997537280	42	4210
2026-01-06 03:42:30.05	182.36	11.73	-36.1	-37.4	16.9	0.00e+00	0	58	0	2004877312	42	4261
2026-01-06 03:42:31.06	182.40	11.64	-36.1	-37.5	16.8	0.00e+00	0	57	0	2012217344	42	4314
2026-01-06 03:42:32.07	182.44	11.55	-36.1	-37.4	16.8	0.00e+00	0	58	0	2019557376	42	4271
2026-01-06 03:42:33.08	182.48	11.45	-36.1	-37.4	16.9	0.00e+00	0	58	0	2026897408	42	4260
2026-01-06 03:42:34.09	182.52	11.36	-36.1	-37.4	16.8	0.00e+00	0	58	0	2034237440	42	4288
2026-01-06 03:42:35.10	182.56	11.27	-36.2	-37.6	16.7	0.00e+00	0	58	0	2041577472	42	4357
2026-01-06 03:42:36.11	182.60	11.18	-36.3	-37.7	16.6	0.00e+00	0	58	0	2048917504	42	4402
2026-01-06 03:42:37.12	182.64	11.09	-36.4	-37.8	16.5	0.00e+00	0	58	0	2055208960	42	4442
2026-01-06 03:42:38.13	182.68	11.00	-36.5	-37.9	16.3	0.00e+00	0	58	0	2062548992	42	4542
2026-01-06 03:42:39.14	182.72	10.91	-36.7	-38.1	16.1	0.00e+00	0	58	0	2070937600	42	4646
2026-01-06 03:42:40.15	182.76	10.82	-36.8	-38.3	15.9	0.00e+00	0	58	0	2077229056	43	4479
2026-01-06 03:42:41.16	182.80	10.73	-36.7	-38.2	16.0	0.00e+00	0	58	0	2084569088	43	4400
2026-01-06 03:42:42.17	182.84	10.64	-36.5	-38.0	16.2	0.00e+00	0	58	0	2091909120	43	4303
2026-01-06 03:42:43.18	182.88	10.55	-36.4	-37.8	16.4	0.00e+00	0	58	0	2099249152	43	4234
2026-01-06 03:42:44.19	182.92	10.47	-36.5	-37.9	16.3	0.00e+00	0	58	0	2106589184	43	4265
2026-01-06 03:42:45.20	182.96	10.38	-36.5	-38.0	16.2	0.00e+00	0	58	0	2113929216	43	4300
2026-01-06 03:42:46.21	182.99	10.29	-36.7	-38.1	16.1	0.00e+00	0	58	0	2121269248	43	4377
2026-01-06 03:42:47.22	183.03	10.20	-36.7	-38.1	16.1	0.00e+00	0	58	0	2128609280	43	4376
2026-01-06 03:42:48.22	183.07	10.12	-36.8	-38.2	15.9	0.00e+00	0	57	0	2135949312	43	4431
2026-01-06 03:42:49.23	183.11	10.03	-36.9	-38.4	15.7	0.00e+00	0	58	0	2143289344	43	4497
2026-01-06 03:42:50.25	183.15	9.94	-36.9	-38.4	15.7	0.00e+00	0	58	0	2150629376	43	4513
2026-01-06 03:42:51.26	183.18	9.86	-36.9	-38.4	15.7	0.00e+00	0	58	0	2157969408	43	4525
2026-01-06 03:42:52.27	183.22	9.77	-36.9	-38.4	15.8	0.00e+00	0	58	0	2165309440	43	4501
2026-01-06 03:42:53.28	183.26	9.68	-36.9	-38.5	15.6	0.00e+00	0	58	0	2172649472	43	4547
2026-01-06 03:42:54.29	183.29	9.60	-37.0	-38.5	15.6	0.00e+00	0	58	0	2179989504	43	4553
2026-01-06 03:42:55.29	183.33	9.51	-37.0	-38.6	15.5	0.00e+00	0	58	0	2187329536	43	4606
2026-01-06 03:42:56.30	183.37	9.43	-37.1	-38.6	15.4	0.00e+00	0	58	0	2194669568	43	4647
2026-01-06 03:42:57.31	183.40	9.35	-37.0	-38.6	15.5	0.00e+00	0	58	0	2200961024	43	4612
2026-01-06 03:42:58.33	183.44	9.26	-37.1	-38.7	15.4	0.00e+00	0	58	0	2208301056	43	4659
2026-01-06 03:42:59.33	183.47	9.18	-37.3	-38.9	15.3	0.00e+00	0	58	0	2216689664	44	4518
2026-01-06 03:43:00.34	183.51	9.09	-37.3	-38.9	15.3	0.00e+00	0	58	0	2222981120	44	4515
2026-01-06 03:43:01.35	183.54	9.01	-37.2	-38.8	15.4	0.00e+00	0	58	0	2230321152	44	4460
2026-01-06 03:43:02.36	183.58	8.93	-37.3	-38.9	15.3	0.00e+00	0	58	0	2237661184	44	4507
2026-01-06 03:43:03.37	183.61	8.84	-37.3	-38.9	15.3	0.00e+00	0	58	0	2245001216	44	4526
2026-01-06 03:43:04.38	183.65	8.76	-37.2	-38.8	15.4	0.00e+00	0	58	0	2252341248	44	4465
2026-01-06 03:43:05.39	183.68	8.68	-37.3	-38.9	15.3	0.00e+00	0	58	0	2259681280	44	4512
2026-01-06 03:43:06.40	183.72	8.60	-37.4	-39.0	15.1	0.00e+00	0	58	0	2267021312	44	4594
2026-01-06 03:43:07.41	183.75	8.52	-37.3	-38.9	15.3	0.00e+00	0	58	0	2274361344	44	4502
2026-01-06 03:43:08.42	183.79	8.43	-37.2	-38.8	15.3	0.00e+00	0	58	0	2281701376	44	4467
2026-01-06 03:43:09.43	183.82	8.35	-37.2	-38.7	15.4	0.00e+00	0	58	0	2289041408	44	4441
2026-01-06 03:43:10.44	183.85	8.27	-37.2	-38.8	15.3	0.00e+00	0	58	0	2296381440	44	4459
2026-01-06 03:43:11.45	183.89	8.19	-37.3	-38.8	15.2	0.00e+00	0	58	0	2303721472	44	4481
2026-01-06 03:43:12.45	183.92	8.11	-37.3	-38.8	15.2	0.00e+00	0	58	0	2311061504	44	4492
2026-01-06 03:43:13.47	183.95	8.03	-38.0	-39.8	14.4	0.00e+00	0	58	0	2318401536	45	4748
2026-01-06 03:43:14.48	183.99	7.95	-44.9	-55.4	3.8	8.48e-01	0	58	104	2319450112	59	12699
2026-01-06 03:43:15.49	184.02	7.87	-45.2	-56.0	3.8	8.46e-01	0	58	104	2319450112	59	13614
2026-01-06 03:43:16.50	184.05	7.79	-45.2	-56.3	3.8	8.45e-01	0	58	104	2319450112	60	13411
2026-01-06 03:43:17.51	184.08	7.71	-45.3	-56.5	3.8	8.46e-01	0	58	104	2319450112	60	13578
2026-01-06 03:43:18.52	184.12	7.63	-45.4	-56.5	3.8	8.46e-01	0	58	104	2319450112	60	13700
2026-01-06 03:43:19.53	184.15	7.55	-45.5	-56.6	3.8	8.46e-01	0	58	104	2319450112	60	13840
2026-01-06 03:43:20.54	184.18	7.48	-45.5	-56.7	3.8	8.46e-01	0	57	104	2319450112	60	13930
2026-01-06 03:43:21.56	184.21	7.40	-45.6	-56.7	3.8	8.46e-01	0	58	104	2319450112	60	14007
2026-01-06 03:43:22.57	184.24	7.32	-45.6	-56.7	3.8	8.46e-01	0	58	104	2319450112	60	13986
2026-01-06 03:43:23.58	184.28	7.24	-45.6	-56.7	3.8	8.48e-01	0	58	104	2319450112	60	13971
2026-01-06 03:43:24.59	184.31	7.16	-45.6	-56.7	3.8	8.45e-01	0	58	104	2319450112	60	13950
2026-01-06 03:43:25.60	184.34	7.09	-45.6	-56.7	3.8	8.47e-01	0	58	104	2319450112	60	13937
2026-01-06 03:43:26.61	184.37	7.01	-45.6	-56.7	3.8	8.48e-01	0	58	104	2319450112	60	13922
2026-01-06 03:43:27.62	184.40	6.93	-45.6	-56.7	3.8	8.46e-01	0	58	104	2319450112	60	13893
2026-01-06 03:43:28.63	184.43	6.85	-45.5	-56.6	3.8	8.45e-01	0	58	104	2319450112	60	13801
2026-01-06 03:43:29.64	184.46	6.78	-45.5	-56.6	3.8	8.47e-01	0	58	104	2319450112	60	13850
2026-01-06 03:43:30.65	184.49	6.70	-45.5	-56.6	3.8	8.46e-01	0	58	104	2319450112	60	13790
2026-01-06 03:43:31.66	184.52	6.63	-45.5	-56.6	3.8	8.47e-01	0	58	104	2319450112	60	13812
2026-01-06 03:43:32.67	184.55	6.55	-45.5	-56.6	3.8	8.47e-01	0	58	104	2319450112	60	13787
2026-01-06 03:43:33.68	184.58	6.47	-45.5	-56.6	3.8	8.48e-01	0	58	104	2319450112	60	13789
2026-01-06 03:43:34.69	184.61	6.40	-45.5	-56.6	3.8	8.46e-01	0	58	104	2319450112	60	13764
2026-01-06 03:43:35.70	184.64	6.32	-45.5	-56.6	3.8	8.46e-01	0	58	104	2319450112	60	13767
2026-01-06 03:43:36.72	184.67	6.25	-45.5	-56.6	3.8	8.46e-01	0	58	104	2319450112	60	13792
2026-01-06 03:43:37.73	184.70	6.17	-45.5	-56.6	3.8	8.45e-01	0	58	104	2319450112	60	13833
2026-01-06 03:43:38.74	184.73	6.10	-45.5	-56.6	3.8	8.47e-01	0	58	104	2319450112	60	13768
2026-01-06 03:43:39.75	184.76	6.02	-45.5	-56.6	3.8	8.46e-01	0	58	104	2319450112	60	13751
2026-01-06 03:43:40.76	184.79	5.95	-45.5	-56.6	3.8	8.46e-01	0	58	104	2319450112	60	13752
2026-01-06 03:43:41.77	184.82	5.88	-45.5	-56.5	3.8	8.46e-01	0	58	104	2319450112	60	13709
2026-01-06 03:43:42.78	184.85	5.80	-45.5	-56.6	3.8	8.46e-01	0	58	104	2319450112	60	13793
2026-01-06 03:43:43.79	184.88	5.73	-45.5	-56.5	3.8	8.47e-01	0	58	104	2319450112	60	13724
2026-01-06 03:43:44.80	184.91	5.66	-45.5	-56.5	3.8	8.45e-01	0	58	104	2319450112	60	13720
2026-01-06 03:43:45.81	184.93	5.58	-45.5	-56.6	3.8	8.46e-01	0	58	104	2319450112	60	13742
2026-01-06 03:43:46.82	184.96	5.51	-45.5	-56.5	3.8	8.46e-01	0	58	104	2319450112	60	13710
2026-01-06 03:43:47.83	184.99	5.44	-45.5	-56.5	3.8	8.46e-01	0	58	104	2319450112	60	13719
2026-01-06 03:43:48.84	185.02	5.36	-45.5	-56.5	3.8	8.46e-01	0	58	104	2319450112	60	13688
2026-01-06 03:43:49.85	185.05	5.29	-45.5	-56.5	3.8	8.47e-01	0	58	104	2319450112	60	13677
2026-01-06 03:43:50.86	185.07	5.22	-45.5	-56.5	3.8	8.46e-01	0	58	104	2319450112	60	13636
2026-01-06 03:43:51.87	185.10	5.15	-45.5	-56.5	3.8	8.45e-01	0	58	104	2319450112	60	13654
2026-01-06 03:43:52.89	185.13	5.08	-45.4	-56.5	3.8	8.47e-01	0	58	104	2319450112	60	13664
2026-01-06 03:43:53.90	185.16	5.00	-45.4	-56.5	3.8	8.47e-01	0	58	104	2319450112	60	13608
2026-01-06 03:43:54.91	185.19	4.93	-45.3	-56.5	3.8	8.46e-01	0	58	104	2319450112	60	13574
2026-01-06 03:43:55.92	185.21	4.86	-45.4	-56.5	3.8	8.46e-01	0	58	104	2319450112	60	13674
2026-01-06 03:43:56.93	185.24	4.79	-45.4	-56.5	3.8	8.46e-01	0	58	104	2319450112	60	13651
2026-01-06 03:43:57.94	185.27	4.72	-45.4	-56.5	3.8	8.45e-01	0	58	104	2319450112	60	13637
2026-01-06 03:43:58.95	185.29	4.65	-45.4	-56.5	3.8	8.45e-01	0	58	104	2319450112	60	13635
2026-01-06 03:43:59.96	185.32	4.58	-45.5	-56.5	3.8	8.46e-01	0	58	104	2319450112	60	13715
2026-01-06 03:44:00.97	185.35	4.51	-45.4	-56.5	3.8	8.46e-01	0	58	104	2319450112	60	13645
2026-01-06 03:44:01.99	185.37	4.44	-45.4	-56.5	3.8	8.46e-01	0	58	104	2319450112	60	13656
2026-01-06 03:44:03.00	185.40	4.37	-45.5	-56.5	3.8	8.46e-01	0	58	104	2319450112	60	13678
2026-01-06 03:44:04.01	185.43	4.30	-45.4	-56.5	3.8	8.46e-01	0	58	104	2319450112	60	13648
2026-01-06 03:44:05.02	185.45	4.23	-45.4	-56.5	3.8	8.45e-01	0	58	104	2319450112	60	13665
2026-01-06 03:44:06.03	185.48	4.16	-45.4	-56.5	3.8	8.45e-01	0	58	104	2319450112	60	13642
2026-01-06 03:44:07.04	185.50	4.09	-45.4	-56.5	3.8	8.46e-01	0	58	104	2319450112	60	13658
2026-01-06 03:44:08.05	185.53	4.02	-45.4	-56.5	3.8	8.47e-01	0	58	104	2319450112	60	13628
2026-01-06 03:44:09.06	185.56	3.95	-45.4	-56.5	3.8	8.47e-01	0	58	104	2319450112	60	13641
2026-01-06 03:44:10.07	185.58	3.88	-45.4	-56.5	3.8	8.45e-01	0	58	104	2319450112	60	13630
2026-01-06 03:44:11.08	185.61	3.82	-45.4	-56.5	3.8	8.46e-01	0	58	104	2319450112	60	13646
2026-01-06 03:44:12.09	185.63	3.75	-45.3	-56.4	3.8	8.46e-01	0	58	104	2319450112	60	13541
2026-01-06 03:44:13.10	185.66	3.68	-45.3	-56.5	3.8	8.45e-01	0	58	104	2319450112	60	13597
2026-01-06 03:44:14.12	185.68	3.61	-45.4	-56.5	3.8	8.47e-01	0	58	104	2319450112	60	13634
2026-01-06 03:44:15.13	185.71	3.54	-45.3	-56.4	3.8	8.46e-01	0	58	104	2319450112	60	13563
2026-01-06 03:44:16.14	185.73	3.47	-45.4	-56.5	3.8	8.47e-01	0	58	104	2319450112	60	13570
2026-01-06 03:44:17.15	185.76	3.41	-45.2	-56.4	3.8	8.46e-01	0	58	104	2319450112	60	13502
2026-01-06 03:44:18.16	185.78	3.34	-45.4	-56.5	3.8	8.46e-01	0	58	104	2319450112	60	13575
2026-01-06 03:44:19.17	185.81	3.27	-45.4	-56.5	3.8	8.46e-01	0	58	104	2319450112	60	13596
2026-01-06 03:44:20.18	185.83	3.21	-45.4	-56.4	3.8	8.47e-01	0	58	104	2319450112	60	13559
2026-01-06 03:44:21.19	185.86	3.14	-45.4	-56.5	3.8	8.45e-01	0	58	104	2319450112	60	13604
2026-01-06 03:44:22.20	185.88	3.07	-45.4	-56.4	3.8	8.46e-01	0	58	104	2319450112	60	13569
2026-01-06 03:44:23.21	185.91	3.01	-45.4	-56.5	3.8	8.46e-01	0	58	104	2319450112	60	13579
2026-01-06 03:44:24.23	185.93	2.94	-45.4	-56.4	3.8	8.46e-01	0	58	104	2319450112	60	13532
2026-01-06 03:44:25.24	185.95	2.87	-45.4	-56.4	3.8	8.46e-01	0	58	104	2319450112	60	13545
2026-01-06 03:44:26.25	185.98	2.81	-45.4	-56.4	3.8	8.45e-01	0	58	104	2319450112	60	13526
2026-01-06 03:44:27.26	186.00	2.74	-45.4	-56.4	3.8	8.45e-01	0	58	104	2319450112	60	13554
2026-01-06 03:44:28.27	186.03	2.67	-45.4	-56.4	3.8	8.46e-01	0	58	104	2319450112	60	13536
2026-01-06 03:44:29.28	186.05	2.61	-45.4	-56.5	3.8	8.46e-01	0	58	104	2319450112	60	13603
2026-01-06 03:44:30.29	186.07	2.54	-45.4	-56.4	3.8	8.45e-01	0	58	104	2319450112	60	13556
2026-01-06 03:44:31.30	186.10	2.48	-45.4	-56.4	3.8	8.45e-01	0	58	104	2319450112	60	13532
2026-01-06 03:44:32.31	186.12	2.41	-45.4	-56.4	3.8	8.46e-01	0	58	104	2319450112	60	13541
2026-01-06 03:44:33.32	186.14	2.35	-45.4	-56.5	3.8	8.47e-01	0	58	104	2319450112	60	13593
2026-01-06 03:44:34.34	186.17	2.28	-45.4	-56.4	3.8	8.46e-01	0	58	104	2319450112	60	13544
2026-01-06 03:44:35.35	186.19	2.22	-45.4	-56.4	3.8	8.46e-01	0	58	104	2319450112	60	13501
2026-01-06 03:44:36.36	186.21	2.15	-45.4	-56.4	3.8	8.46e-01	0	58	104	2319450112	60	13537
2026-01-06 03:44:37.37	186.24	2.09	-45.4	-56.4	3.8	8.47e-01	0	58	104	2319450112	60	13542
2026-01-06 03:44:38.38	186.26	2.02	-45.4	-56.4	3.8	8.45e-01	0	58	104	2319450112	60	13513

#Closed at: 2026-01-06 03:44:38
#Recorded file [2319 MB]: D:/lorett/data/31039_260106_063701.dat