passes_logs/2026/01/06/R2.0S_Moscow/R2.0S_Moscow__20260106_095617_FENGYUN_3D_rec.log

#Pass ID: 20260106_095617_FENGYUN 3D
#Satellite: FENGYUN 3D
#Configuration: FENGYUN 3D
#almurnet v.1.7.20251203
#Start time: 2026-01-06 09:56:19

#Version: 2.2.20231116
#Station: R2.0S_Moscow
#Location: 37.707566 lon 55.798166 lat
#TLE: 1 43010U 17072A   26005.48915933 -.00000051  00000+0 -21983-5 0  9995
#TLE: 2 43010  98.9919 337.1582 0002001 124.6377 235.4988 14.19691925421909

#Time	Az	El	Level	Level2	SNR	BER	BlckErr	Temp	State	Recorded	gain1	gain2
2026-01-06 09:56:19.67	101.14	2.11	-40.0	-51.6	3.8	8.46e-01	0	47	0	0	52	13038
2026-01-06 09:56:20.67	101.06	2.17	-40.0	-51.6	3.8	8.47e-01	0	47	104	0	52	13034
2026-01-06 09:56:21.68	100.98	2.22	-40.0	-51.6	3.8	8.45e-01	0	47	104	0	52	13056
2026-01-06 09:56:22.69	100.90	2.27	-40.0	-51.6	3.8	8.46e-01	0	47	104	0	52	12984
2026-01-06 09:56:23.70	100.82	2.33	-40.0	-51.6	3.8	8.47e-01	0	47	104	0	52	13027
2026-01-06 09:56:24.71	100.74	2.38	-40.0	-51.6	3.8	8.47e-01	0	47	104	0	52	12999
2026-01-06 09:56:25.72	100.66	2.44	-40.0	-51.6	3.8	8.46e-01	0	47	104	0	52	13045
2026-01-06 09:56:26.73	100.57	2.49	-40.0	-51.6	3.8	8.46e-01	0	47	104	0	52	13014
2026-01-06 09:56:27.74	100.49	2.54	-40.0	-51.6	3.8	8.46e-01	0	48	104	0	52	13056
2026-01-06 09:56:28.75	100.41	2.60	-40.0	-51.6	3.8	8.45e-01	0	48	104	0	52	13047
2026-01-06 09:56:29.76	100.33	2.65	-40.0	-51.6	3.8	8.46e-01	0	48	104	0	52	13018
2026-01-06 09:56:30.77	100.25	2.70	-40.0	-51.6	3.8	8.45e-01	0	48	104	0	52	13037
2026-01-06 09:56:31.78	100.16	2.76	-40.0	-51.6	3.8	8.47e-01	0	48	104	0	52	12995
2026-01-06 09:56:32.79	100.08	2.81	-40.0	-51.6	3.8	8.46e-01	0	48	104	0	52	13054
2026-01-06 09:56:33.80	99.99	2.87	-40.0	-51.6	3.8	8.46e-01	0	48	104	0	52	13029
2026-01-06 09:56:34.81	99.91	2.92	-40.0	-51.6	3.8	8.46e-01	0	48	104	0	52	13017
2026-01-06 09:56:35.83	99.83	2.98	-40.0	-51.6	3.8	8.46e-01	0	48	104	0	52	12967
2026-01-06 09:56:36.84	99.74	3.03	-40.0	-51.6	3.8	8.46e-01	0	48	104	0	52	13023
2026-01-06 09:56:37.85	99.66	3.08	-40.0	-51.6	3.8	8.46e-01	0	48	104	0	52	13001
2026-01-06 09:56:38.86	99.57	3.14	-40.0	-51.6	3.8	8.47e-01	0	48	104	0	52	12984
2026-01-06 09:56:39.87	99.48	3.19	-40.0	-51.6	3.8	8.47e-01	0	48	104	0	52	13001
2026-01-06 09:56:40.88	99.40	3.25	-40.0	-51.6	3.8	8.45e-01	0	49	104	0	52	13019
2026-01-06 09:56:41.89	99.31	3.30	-40.0	-51.6	3.8	8.46e-01	0	48	104	0	52	13049
2026-01-06 09:56:42.90	99.23	3.36	-40.0	-51.6	3.8	8.47e-01	0	49	104	0	52	13024
2026-01-06 09:56:43.91	99.14	3.41	-40.0	-51.6	3.8	8.46e-01	0	49	104	0	52	13005
2026-01-06 09:56:44.93	99.05	3.47	-40.0	-51.6	3.8	8.45e-01	0	49	104	0	52	12987
2026-01-06 09:56:45.94	98.96	3.52	-40.0	-51.6	3.8	8.46e-01	0	49	104	0	52	13044
2026-01-06 09:56:46.95	98.87	3.57	-40.0	-51.6	3.8	8.46e-01	0	49	104	0	52	13023
2026-01-06 09:56:47.96	98.79	3.63	-40.0	-51.6	3.8	8.47e-01	0	49	104	0	52	12975
2026-01-06 09:56:48.97	98.70	3.68	-40.0	-51.6	3.8	8.47e-01	0	49	104	0	52	13012
2026-01-06 09:56:49.98	98.61	3.74	-40.0	-51.6	3.8	8.47e-01	0	49	104	0	52	12998
2026-01-06 09:56:50.99	98.52	3.79	-40.0	-51.6	3.8	8.46e-01	0	49	104	0	52	13024
2026-01-06 09:56:52.00	98.43	3.85	-40.0	-51.5	3.8	8.45e-01	0	49	104	0	52	12954
2026-01-06 09:56:53.01	98.34	3.90	-40.0	-51.6	3.8	8.46e-01	0	49	104	0	52	13056
2026-01-06 09:56:54.02	98.25	3.96	-40.0	-51.6	3.8	8.47e-01	0	49	104	0	52	13025
2026-01-06 09:56:55.02	98.16	4.01	-40.0	-51.5	3.8	8.45e-01	0	49	104	0	52	12950
2026-01-06 09:56:56.04	98.07	4.07	-40.0	-51.6	3.8	8.46e-01	0	49	104	0	52	13008
2026-01-06 09:56:57.05	97.97	4.12	-40.0	-51.6	3.8	8.45e-01	0	49	104	0	52	13015
2026-01-06 09:56:58.06	97.88	4.18	-40.0	-51.6	3.8	8.45e-01	0	49	104	0	52	13018
2026-01-06 09:56:59.07	97.79	4.23	-40.0	-51.6	3.8	8.46e-01	0	50	104	0	52	12994
2026-01-06 09:57:00.08	97.70	4.29	-40.0	-51.6	3.8	8.44e-01	0	49	104	0	52	12988
2026-01-06 09:57:01.09	97.60	4.34	-40.0	-51.6	3.8	8.46e-01	0	50	104	0	52	13027
2026-01-06 09:57:02.10	97.51	4.40	-40.0	-51.6	3.8	8.46e-01	0	50	104	0	52	13027
2026-01-06 09:57:03.11	97.42	4.46	-40.0	-51.6	3.8	8.47e-01	0	50	104	0	52	12995
2026-01-06 09:57:04.12	97.32	4.51	-40.0	-51.6	3.8	8.46e-01	0	50	104	0	52	13027
2026-01-06 09:57:05.13	97.23	4.57	-40.0	-51.6	3.8	8.46e-01	0	50	104	0	52	12979
2026-01-06 09:57:06.14	97.13	4.62	-40.0	-51.6	3.8	8.47e-01	0	50	104	0	52	13015
2026-01-06 09:57:07.15	97.04	4.68	-40.0	-51.6	3.8	8.45e-01	0	50	104	0	52	13020
2026-01-06 09:57:08.17	96.94	4.73	-40.0	-51.6	3.8	8.46e-01	0	50	104	0	52	12997
2026-01-06 09:57:09.17	96.85	4.79	-40.0	-51.6	3.8	8.47e-01	0	50	104	0	52	12992
2026-01-06 09:57:10.18	96.75	4.84	-40.0	-51.6	3.8	8.46e-01	0	50	104	0	52	13027
2026-01-06 09:57:11.19	96.65	4.90	-40.0	-51.6	3.8	8.46e-01	0	50	104	0	52	13010
2026-01-06 09:57:12.21	96.56	4.96	-40.0	-51.6	3.8	8.47e-01	0	50	104	0	52	12992
2026-01-06 09:57:13.22	96.46	5.01	-40.0	-51.6	3.8	8.46e-01	0	50	104	0	52	12994
2026-01-06 09:57:14.23	96.36	5.07	-40.0	-51.6	3.8	8.45e-01	0	50	104	0	52	12993
2026-01-06 09:57:15.24	96.26	5.12	-40.0	-51.6	3.8	8.46e-01	0	50	104	0	52	12975
2026-01-06 09:57:16.25	96.16	5.18	-40.0	-51.6	3.8	8.45e-01	0	50	104	0	52	12972
2026-01-06 09:57:17.26	96.07	5.24	-40.0	-51.6	3.8	8.45e-01	0	51	104	0	52	12974
2026-01-06 09:57:18.27	95.97	5.29	-40.0	-51.6	3.8	8.47e-01	0	51	104	0	52	13026
2026-01-06 09:57:19.28	95.87	5.35	-40.0	-51.5	3.8	8.47e-01	0	50	104	0	52	12958
2026-01-06 09:57:20.29	95.77	5.40	-40.0	-51.5	3.8	8.47e-01	0	51	104	0	52	12956
2026-01-06 09:57:21.30	95.67	5.46	-40.0	-51.5	3.8	8.46e-01	0	51	104	0	52	12952
2026-01-06 09:57:22.31	95.57	5.52	-40.0	-51.6	3.8	8.46e-01	0	51	104	0	52	12979
2026-01-06 09:57:23.33	95.46	5.57	-40.0	-51.6	3.8	8.46e-01	0	51	104	0	52	13017
2026-01-06 09:57:24.33	95.36	5.63	-40.0	-51.6	3.8	8.46e-01	0	51	104	0	52	12993
2026-01-06 09:57:25.34	95.26	5.69	-40.0	-51.6	3.8	8.45e-01	0	51	104	0	52	13014
2026-01-06 09:57:26.36	95.16	5.74	-40.0	-51.5	3.8	8.47e-01	0	51	104	0	52	12950
2026-01-06 09:57:27.37	95.05	5.80	-40.0	-51.6	3.8	8.45e-01	0	51	104	0	52	13010
2026-01-06 09:57:28.38	94.95	5.85	-40.0	-51.6	3.8	8.47e-01	0	51	104	0	52	12984
2026-01-06 09:57:29.39	94.85	5.91	-40.0	-51.6	3.8	8.48e-01	0	51	104	0	52	13000
2026-01-06 09:57:30.40	94.74	5.97	-40.0	-51.6	3.8	8.44e-01	0	51	104	0	52	13045
2026-01-06 09:57:31.41	94.64	6.02	-40.0	-51.5	3.8	8.47e-01	0	51	104	0	52	12952
2026-01-06 09:57:32.42	94.53	6.08	-40.0	-51.6	3.8	8.47e-01	0	51	104	0	52	12990
2026-01-06 09:57:33.43	94.43	6.14	-40.0	-51.6	3.8	8.47e-01	0	51	104	0	52	12965
2026-01-06 09:57:34.44	94.32	6.19	-40.0	-51.6	3.8	8.47e-01	0	51	104	0	52	12978
2026-01-06 09:57:35.45	94.22	6.25	-40.0	-51.6	3.8	8.46e-01	0	52	104	0	52	12979
2026-01-06 09:57:36.46	94.11	6.31	-40.0	-51.6	3.8	8.46e-01	0	51	104	0	52	12989
2026-01-06 09:57:37.47	94.00	6.36	-40.0	-51.6	3.8	8.45e-01	0	52	104	0	52	12989
2026-01-06 09:57:38.48	93.89	6.42	-40.0	-51.6	3.8	8.47e-01	0	51	104	0	52	12973
2026-01-06 09:57:39.49	93.79	6.48	-40.0	-51.6	3.8	8.46e-01	0	51	104	0	52	12979
2026-01-06 09:57:40.50	93.68	6.53	-40.0	-51.6	3.8	8.47e-01	0	52	104	0	52	12991
2026-01-06 09:57:41.52	93.57	6.59	-40.0	-51.6	3.8	8.46e-01	0	52	104	0	52	12986
2026-01-06 09:57:42.53	93.46	6.65	-40.0	-51.6	3.8	8.46e-01	0	52	104	0	52	12990
2026-01-06 09:57:43.54	93.35	6.70	-40.0	-51.6	3.8	8.46e-01	0	52	104	0	52	12973
2026-01-06 09:57:44.55	93.24	6.76	-40.0	-51.6	3.8	8.46e-01	0	52	104	0	52	13025
2026-01-06 09:57:45.56	93.13	6.82	-40.0	-51.5	3.8	8.46e-01	0	52	104	0	52	12928
2026-01-06 09:57:46.57	93.02	6.88	-40.0	-51.6	3.8	8.45e-01	0	52	104	0	52	12980
2026-01-06 09:57:47.58	92.91	6.93	-40.0	-51.6	3.8	8.47e-01	0	52	104	0	52	13005
2026-01-06 09:57:48.59	92.79	6.99	-40.0	-51.6	3.8	8.46e-01	0	52	104	0	52	12994
2026-01-06 09:57:49.60	92.68	7.05	-40.0	-51.6	3.8	8.45e-01	0	52	104	0	52	12977
2026-01-06 09:57:50.61	92.57	7.10	-40.0	-51.5	3.8	8.45e-01	0	52	104	0	52	12948
2026-01-06 09:57:51.62	92.46	7.16	-40.0	-51.6	3.8	8.46e-01	0	52	104	0	52	12975
2026-01-06 09:57:52.63	92.34	7.22	-40.0	-51.5	3.8	8.45e-01	0	52	104	0	52	12925
2026-01-06 09:57:53.64	92.23	7.27	-40.0	-51.5	3.8	8.47e-01	0	52	104	0	52	12955
2026-01-06 09:57:54.65	92.11	7.33	-40.0	-51.5	3.8	8.45e-01	0	52	104	0	52	12948
2026-01-06 09:57:55.66	92.00	7.39	-40.0	-51.6	3.8	8.47e-01	0	52	104	0	52	12991
2026-01-06 09:57:56.67	91.88	7.45	-40.0	-51.5	3.8	8.46e-01	0	52	104	0	52	12959
2026-01-06 09:57:57.68	91.77	7.50	-40.0	-51.5	3.8	8.46e-01	0	52	104	0	52	12922
2026-01-06 09:57:58.69	91.65	7.56	-40.0	-51.5	3.8	8.46e-01	0	52	104	0	52	12938
2026-01-06 09:57:59.71	91.53	7.62	-40.0	-51.5	3.8	8.46e-01	0	52	104	0	52	12927
2026-01-06 09:58:00.72	91.41	7.68	-40.0	-51.5	3.8	8.45e-01	0	52	104	0	52	12913
2026-01-06 09:58:01.73	91.30	7.73	-40.0	-51.5	3.8	8.46e-01	0	52	104	0	52	12907
2026-01-06 09:58:02.74	91.18	7.79	-40.0	-51.6	3.8	8.47e-01	0	53	104	0	52	12964
2026-01-06 09:58:03.75	91.06	7.85	-40.0	-51.1	3.8	8.47e-01	0	52	104	0	51	13021
2026-01-06 09:58:04.76	90.94	7.90	-39.9	-49.8	3.8	8.46e-01	0	52	104	0	51	11217
2026-01-06 09:58:05.77	90.82	7.96	-39.7	-48.8	3.9	8.41e-01	0	52	104	0	51	10024
2026-01-06 09:58:06.78	90.70	8.02	-39.7	-48.3	4.1	8.39e-01	0	53	0	0	51	9414
2026-01-06 09:58:07.79	90.58	8.08	-41.3	-52.9	3.8	8.46e-01	0	53	104	0	53	14335
2026-01-06 09:58:08.80	90.46	8.13	-40.1	-51.4	3.8	8.46e-01	0	52	104	0	52	12805
2026-01-06 09:58:09.81	90.34	8.19	-40.0	-50.4	3.8	8.45e-01	0	53	104	0	51	11974
2026-01-06 09:58:10.82	90.21	8.25	-40.2	-50.8	3.8	8.44e-01	0	53	104	0	51	12644
2026-01-06 09:58:11.83	90.09	8.31	-40.1	-51.5	3.8	8.46e-01	0	53	104	0	51	13603
2026-01-06 09:58:12.84	89.97	8.36	-40.2	-51.3	3.8	8.45e-01	0	53	104	0	51	13298
2026-01-06 09:58:13.85	89.85	8.42	-40.2	-51.7	3.8	8.47e-01	0	53	104	0	51	13920
2026-01-06 09:58:14.86	89.72	8.48	-40.2	-51.7	3.8	8.46e-01	0	53	104	0	51	14014
2026-01-06 09:58:15.87	89.60	8.54	-40.5	-52.2	3.8	8.45e-01	0	53	104	0	51	14846
2026-01-06 09:58:16.88	89.47	8.59	-40.2	-52.0	3.8	8.46e-01	0	53	104	0	51	14495
2026-01-06 09:58:17.89	89.35	8.65	-40.2	-51.7	3.8	8.46e-01	0	53	104	0	51	13954
2026-01-06 09:58:18.90	89.22	8.71	-40.3	-52.1	3.8	8.47e-01	0	53	104	0	51	14674
2026-01-06 09:58:19.91	89.09	8.76	-40.0	-51.7	3.8	8.46e-01	0	53	104	0	51	14017
2026-01-06 09:58:20.92	88.97	8.82	-40.3	-52.2	3.8	8.45e-01	0	53	104	0	51	14719
2026-01-06 09:58:21.93	88.84	8.88	-40.1	-51.7	3.8	8.47e-01	0	53	104	0	51	14041
2026-01-06 09:58:22.94	88.71	8.94	-40.2	-51.9	3.8	8.46e-01	0	53	104	0	51	14372
2026-01-06 09:58:23.95	88.58	8.99	-40.1	-51.9	3.8	8.45e-01	0	53	104	0	51	14335
2026-01-06 09:58:24.96	88.45	9.05	-39.9	-51.9	3.8	8.46e-01	0	53	104	0	51	14333
2026-01-06 09:58:25.97	88.32	9.11	-40.1	-52.0	3.8	8.45e-01	0	53	104	0	51	14416
2026-01-06 09:58:26.98	88.19	9.17	-40.4	-52.2	3.8	8.46e-01	0	53	104	0	51	14804
2026-01-06 09:58:27.99	88.06	9.22	-40.0	-51.7	3.8	8.47e-01	0	53	104	0	51	14041
2026-01-06 09:58:29.00	87.93	9.28	-40.3	-52.2	3.8	8.45e-01	0	53	104	0	51	14725
2026-01-06 09:58:30.01	87.80	9.34	-40.2	-51.7	3.8	8.47e-01	0	53	104	0	51	14017
2026-01-06 09:58:31.02	87.67	9.40	-40.2	-51.9	3.8	8.46e-01	0	53	104	0	51	14358
2026-01-06 09:58:32.02	87.53	9.45	-40.2	-52.0	3.8	8.47e-01	0	53	104	0	51	14379
2026-01-06 09:58:33.03	87.40	9.51	-40.2	-52.0	3.8	8.47e-01	0	54	104	0	51	14411
2026-01-06 09:58:34.04	87.27	9.57	-40.2	-51.9	3.8	8.46e-01	0	53	104	0	51	14361
2026-01-06 09:58:35.05	87.13	9.62	-40.1	-52.0	3.8	8.47e-01	0	53	104	0	51	14425
2026-01-06 09:58:36.06	87.00	9.68	-40.2	-51.8	3.8	8.46e-01	0	54	104	0	51	14193
2026-01-06 09:58:37.07	86.86	9.74	-40.1	-51.9	3.8	8.46e-01	0	54	104	0	51	14362
2026-01-06 09:58:38.08	86.73	9.80	-40.2	-51.9	3.8	8.45e-01	0	53	104	0	51	14277
2026-01-06 09:58:39.09	86.59	9.85	-40.2	-51.9	3.8	8.46e-01	0	53	104	0	51	14350
2026-01-06 09:58:40.11	86.45	9.91	-40.0	-51.9	3.8	8.47e-01	0	54	104	0	51	14312
2026-01-06 09:58:41.12	86.31	9.97	-40.2	-51.9	3.8	8.45e-01	0	54	104	0	51	14291
2026-01-06 09:58:42.13	86.17	10.02	-40.2	-51.9	3.8	8.46e-01	0	54	104	0	51	14304
2026-01-06 09:58:43.14	86.04	10.08	-40.4	-51.9	3.8	8.47e-01	0	54	104	0	51	14247
2026-01-06 09:58:44.15	85.90	10.14	-40.0	-51.9	3.8	8.45e-01	0	54	104	0	51	14301
2026-01-06 09:58:45.15	85.76	10.19	-40.4	-51.9	3.8	8.46e-01	0	54	104	0	51	14273
2026-01-06 09:58:46.17	85.62	10.25	-39.9	-51.8	3.8	8.46e-01	0	53	104	0	51	14203
2026-01-06 09:58:47.18	85.47	10.31	-40.2	-51.8	3.8	8.47e-01	0	54	104	0	51	14096
2026-01-06 09:58:48.18	85.33	10.36	-40.2	-51.9	3.8	8.45e-01	0	54	104	0	51	14358
2026-01-06 09:58:49.19	85.19	10.42	-40.2	-51.7	3.8	8.47e-01	0	54	104	0	51	14009
2026-01-06 09:58:50.20	85.05	10.48	-40.2	-51.9	3.8	8.46e-01	0	54	104	0	51	14279
2026-01-06 09:58:51.21	84.91	10.54	-40.2	-51.8	3.8	8.47e-01	0	54	104	0	51	14160
2026-01-06 09:58:52.22	84.76	10.59	-40.0	-51.7	3.8	8.45e-01	0	54	104	0	51	13891
2026-01-06 09:58:53.23	84.62	10.65	-40.2	-51.8	3.8	8.47e-01	0	54	104	0	51	14076
2026-01-06 09:58:54.24	84.47	10.71	-40.0	-51.6	3.8	8.46e-01	0	54	104	0	51	13788
2026-01-06 09:58:55.25	84.33	10.76	-40.2	-51.7	3.8	8.45e-01	0	54	104	0	51	13946
2026-01-06 09:58:56.26	84.18	10.82	-40.2	-51.7	3.8	8.45e-01	0	54	104	0	51	14002
2026-01-06 09:58:57.27	84.04	10.87	-40.2	-51.7	3.8	8.46e-01	0	54	104	0	51	13943
2026-01-06 09:58:58.28	83.89	10.93	-40.2	-51.7	3.8	8.46e-01	0	54	104	0	51	13979
2026-01-06 09:58:59.29	83.74	10.99	-40.2	-51.8	3.8	8.46e-01	0	54	104	0	51	14128
2026-01-06 09:59:00.30	83.59	11.04	-40.0	-51.6	3.8	8.47e-01	0	54	104	0	51	13800
2026-01-06 09:59:01.31	83.44	11.10	-40.3	-51.8	3.8	8.46e-01	0	54	104	0	51	14123
2026-01-06 09:59:02.32	83.29	11.16	-40.1	-51.6	3.8	8.46e-01	0	54	104	0	51	13815
2026-01-06 09:59:03.33	83.14	11.21	-40.2	-51.7	3.8	8.45e-01	0	54	104	0	51	13966
2026-01-06 09:59:04.34	82.99	11.27	-40.2	-51.7	3.8	8.46e-01	0	54	104	0	51	13973
2026-01-06 09:59:05.35	82.84	11.32	-40.2	-51.7	3.8	8.45e-01	0	54	104	0	51	13991
2026-01-06 09:59:06.36	82.69	11.38	-40.2	-51.7	3.8	8.46e-01	0	54	104	0	51	14001
2026-01-06 09:59:07.37	82.54	11.44	-40.3	-51.8	3.8	8.47e-01	0	54	104	0	51	14083
2026-01-06 09:59:08.38	82.38	11.49	-40.1	-51.7	3.8	8.47e-01	0	54	104	0	51	13909
2026-01-06 09:59:09.39	82.23	11.55	-40.3	-51.8	3.8	8.47e-01	0	54	104	0	51	14082
2026-01-06 09:59:10.40	82.08	11.60	-40.1	-51.7	3.8	8.47e-01	0	54	104	0	51	13917
2026-01-06 09:59:11.41	81.92	11.66	-40.3	-51.8	3.8	8.46e-01	0	54	104	0	51	14108
2026-01-06 09:59:12.42	81.77	11.71	-40.2	-51.7	3.8	8.45e-01	0	54	104	0	51	13968
2026-01-06 09:59:13.42	81.61	11.77	-40.2	-51.8	3.8	8.47e-01	0	54	104	0	51	14092
2026-01-06 09:59:14.43	81.45	11.82	-40.3	-51.8	3.8	8.47e-01	0	54	104	0	51	14047
2026-01-06 09:59:15.44	81.30	11.88	-40.3	-51.8	3.8	8.45e-01	0	54	104	0	51	14161
2026-01-06 09:59:16.45	81.14	11.93	-40.2	-51.7	3.8	8.45e-01	0	54	104	0	51	14043
2026-01-06 09:59:17.46	80.98	11.99	-40.3	-51.8	3.8	8.48e-01	0	54	104	0	51	14153
2026-01-06 09:59:18.47	80.82	12.04	-40.3	-51.8	3.8	8.47e-01	0	54	104	0	51	14172
2026-01-06 09:59:19.48	80.66	12.10	-40.3	-51.8	3.8	8.46e-01	0	54	104	0	51	14158
2026-01-06 09:59:20.49	80.50	12.15	-40.3	-51.8	3.8	8.46e-01	0	54	104	0	51	14144
2026-01-06 09:59:21.50	80.34	12.21	-40.3	-51.9	3.8	8.44e-01	0	54	104	0	51	14276
2026-01-06 09:59:22.51	80.18	12.26	-40.3	-51.9	3.8	8.46e-01	0	54	104	0	51	14213
2026-01-06 09:59:23.52	80.02	12.32	-40.4	-51.9	3.8	8.46e-01	0	54	104	0	51	14335
2026-01-06 09:59:24.53	79.86	12.37	-40.3	-51.9	3.8	8.47e-01	0	54	104	0	51	14305
2026-01-06 09:59:25.54	79.69	12.43	-40.4	-52.0	3.8	8.45e-01	0	54	104	0	51	14393
2026-01-06 09:59:26.54	79.53	12.48	-40.4	-51.9	3.8	8.46e-01	0	54	104	0	51	14364
2026-01-06 09:59:27.55	79.37	12.53	-40.4	-52.0	3.8	8.47e-01	0	54	104	0	51	14406
2026-01-06 09:59:28.56	79.20	12.59	-40.4	-52.0	3.8	8.47e-01	0	54	104	0	51	14465
2026-01-06 09:59:29.57	79.03	12.64	-40.5	-52.0	3.8	8.46e-01	0	54	104	0	51	14451
2026-01-06 09:59:30.58	78.87	12.69	-40.5	-52.1	3.8	8.46e-01	0	55	104	0	51	14575
2026-01-06 09:59:31.59	78.70	12.75	-40.5	-52.0	3.8	8.46e-01	0	55	104	0	52	13656
2026-01-06 09:59:32.60	78.53	12.80	-40.6	-52.0	3.8	8.45e-01	0	54	104	0	52	13692
2026-01-06 09:59:33.62	78.36	12.86	-40.5	-52.1	3.8	8.45e-01	0	54	104	0	52	13772
2026-01-06 09:59:34.63	78.20	12.91	-40.6	-52.1	3.8	8.45e-01	0	54	104	0	52	13857
2026-01-06 09:59:35.64	78.03	12.96	-40.6	-52.0	3.8	8.46e-01	0	54	104	0	52	13705
2026-01-06 09:59:36.65	77.86	13.01	-40.6	-52.0	3.8	8.46e-01	0	55	104	0	52	13698
2026-01-06 09:59:37.66	77.69	13.07	-40.6	-52.1	3.8	8.46e-01	0	55	104	0	52	13769
2026-01-06 09:59:38.66	77.52	13.12	-40.8	-51.6	3.8	8.46e-01	0	55	104	0	52	13034
2026-01-06 09:59:39.68	77.34	13.17	-40.6	-52.1	3.8	8.45e-01	0	55	104	0	52	13830
2026-01-06 09:59:40.69	77.17	13.23	-40.6	-51.7	3.8	8.47e-01	0	55	104	0	52	13162
2026-01-06 09:59:41.70	77.00	13.28	-40.8	-51.3	3.8	8.46e-01	0	55	104	0	52	12570
2026-01-06 09:59:42.70	76.83	13.33	-40.8	-51.2	3.8	8.46e-01	0	55	104	0	52	12448
2026-01-06 09:59:43.71	76.65	13.38	-40.8	-51.2	3.8	8.46e-01	0	55	104	0	52	12422
2026-01-06 09:59:44.73	76.47	13.43	-40.8	-51.1	3.8	8.45e-01	0	55	104	0	52	12374
2026-01-06 09:59:45.74	76.30	13.48	-40.8	-50.9	3.8	8.47e-01	0	55	104	0	52	12094
2026-01-06 09:59:46.75	76.12	13.54	-40.8	-50.7	3.8	8.46e-01	0	55	104	0	52	11723
2026-01-06 09:59:47.76	75.95	13.59	-40.8	-50.5	3.8	8.45e-01	0	55	104	0	52	11435
2026-01-06 09:59:48.77	75.77	13.64	-40.7	-50.3	3.8	8.44e-01	0	55	104	0	52	11231
2026-01-06 09:59:49.77	75.59	13.69	-40.8	-50.4	3.9	8.45e-01	0	55	104	0	52	11290
2026-01-06 09:59:50.78	75.41	13.74	-40.8	-50.3	3.8	8.44e-01	0	55	104	0	52	11223
2026-01-06 09:59:51.79	75.23	13.79	-40.7	-49.8	3.9	8.44e-01	0	55	104	0	52	10634
2026-01-06 09:59:52.80	75.06	13.84	-40.7	-49.8	3.9	8.43e-01	0	55	104	0	52	10591
2026-01-06 09:59:53.81	74.87	13.89	-40.7	-49.3	4.1	8.44e-01	0	55	0	0	52	10048
2026-01-06 09:59:54.82	74.69	13.94	-40.6	-48.7	4.3	8.36e-01	0	55	0	0	52	9375
2026-01-06 09:59:55.83	74.51	13.99	-40.5	-48.3	4.4	8.29e-01	0	55	0	0	52	8919
2026-01-06 09:59:56.84	74.33	14.04	-40.4	-47.7	4.7	8.11e-01	0	55	0	0	52	8311
2026-01-06 09:59:57.85	74.15	14.09	-40.4	-47.5	4.8	7.92e-01	0	55	0	0	52	8087
2026-01-06 09:59:58.86	73.96	14.14	-40.4	-47.6	4.8	7.98e-01	0	55	0	0	52	8190
2026-01-06 09:59:59.87	73.78	14.19	-40.4	-47.5	4.8	7.86e-01	0	55	0	0	52	8090
2026-01-06 10:00:00.88	73.59	14.24	-40.1	-46.3	5.6	7.24e-01	0	55	0	0	52	7046
2026-01-06 10:00:01.89	73.41	14.29	-39.8	-45.4	6.2	3.61e-01	0	55	0	4194304	51	6749
2026-01-06 10:00:02.90	73.22	14.34	-39.5	-44.5	7.0	1.97e-01	0	55	0	10485760	51	6087
2026-01-06 10:00:03.91	73.04	14.38	-39.3	-44.1	7.4	1.44e-01	0	55	0	15728640	50	6136
2026-01-06 10:00:04.92	72.85	14.43	-39.2	-44.0	7.4	1.36e-01	0	55	0	22020096	50	6063
2026-01-06 10:00:05.93	72.66	14.48	-38.7	-42.9	8.4	7.81e-02	0	55	0	27262976	49	5680
2026-01-06 10:00:06.94	72.47	14.53	-38.3	-42.0	9.2	2.80e-02	0	55	0	32505856	48	5446
2026-01-06 10:00:07.95	72.28	14.58	-38.2	-42.0	9.2	2.33e-02	0	55	0	38797312	48	5422
2026-01-06 10:00:08.96	72.09	14.62	-38.2	-42.0	9.1	2.92e-02	0	55	0	44040192	48	5444
2026-01-06 10:00:09.97	71.90	14.67	-38.0	-41.7	9.4	2.08e-02	0	55	0	50331648	48	5226
2026-01-06 10:00:10.98	71.71	14.72	-38.2	-42.0	9.1	2.82e-02	0	55	0	55574528	48	5434
2026-01-06 10:00:11.99	71.52	14.76	-38.4	-42.3	8.8	3.57e-02	0	55	0	60817408	48	5640
2026-01-06 10:00:13.00	71.33	14.81	-38.6	-42.9	8.2	6.04e-02	0	55	0	67108864	48	6041
2026-01-06 10:00:14.01	71.14	14.86	-38.7	-42.9	8.3	6.98e-02	0	55	0	72351744	48	6038
2026-01-06 10:00:15.02	70.94	14.90	-38.5	-42.5	8.8	4.63e-02	0	55	0	78643200	48	5739
2026-01-06 10:00:16.03	70.75	14.95	-38.3	-42.0	9.4	2.15e-02	0	55	0	83886080	48	5438
2026-01-06 10:00:17.04	70.56	14.99	-38.0	-41.4	10.2	1.14e-02	0	55	0	89128960	48	5055
2026-01-06 10:00:18.05	70.36	15.04	-37.6	-40.7	10.9	3.24e-03	0	55	0	95420416	47	4956
2026-01-06 10:00:19.06	70.16	15.08	-37.7	-40.8	10.9	2.99e-03	0	55	0	100663296	47	5019
2026-01-06 10:00:20.06	69.97	15.13	-37.7	-40.6	11.3	1.92e-03	0	55	0	106954752	47	4917
2026-01-06 10:00:21.08	69.77	15.17	-37.3	-40.0	12.1	6.55e-04	0	55	0	112197632	46	4815
2026-01-06 10:00:22.09	69.57	15.22	-37.0	-39.5	12.6	1.49e-04	0	55	0	118489088	46	4562
2026-01-06 10:00:23.09	69.38	15.26	-36.8	-39.2	13.0	7.32e-05	0	55	0	123731968	45	4657
2026-01-06 10:00:24.10	69.18	15.30	-36.5	-38.8	13.5	2.74e-05	0	55	0	128974848	45	4446
2026-01-06 10:00:25.11	68.98	15.35	-36.4	-38.5	14.0	8.00e-06	0	55	0	135266304	44	4567
2026-01-06 10:00:26.12	68.78	15.39	-36.3	-38.4	14.1	2.20e-06	0	55	0	140509184	44	4509
2026-01-06 10:00:27.13	68.58	15.43	-36.2	-38.2	14.4	1.10e-06	0	55	0	146800640	44	4432
2026-01-06 10:00:28.14	68.38	15.47	-36.1	-38.1	14.6	2.20e-06	0	55	0	152043520	44	4370
2026-01-06 10:00:29.15	68.18	15.52	-36.0	-38.0	14.8	0.00e+00	0	55	0	157286400	44	4299
2026-01-06 10:00:30.16	67.98	15.56	-35.6	-37.5	15.3	0.00e+00	0	55	0	163577856	43	4299
2026-01-06 10:00:31.17	67.77	15.60	-35.3	-37.0	15.8	0.00e+00	0	55	0	168820736	42	4321
2026-01-06 10:00:32.18	67.57	15.64	-35.2	-36.9	16.0	0.00e+00	0	55	0	175112192	42	4267
2026-01-06 10:00:33.19	67.37	15.68	-35.1	-36.8	16.2	0.00e+00	0	55	0	180355072	42	4227
2026-01-06 10:00:34.20	67.16	15.72	-35.2	-36.8	16.3	0.00e+00	0	55	0	185597952	42	4241
2026-01-06 10:00:35.21	66.96	15.76	-35.2	-36.9	16.4	0.00e+00	0	55	0	191889408	42	4252
2026-01-06 10:00:36.22	66.75	15.80	-35.2	-36.8	16.6	0.00e+00	0	55	0	197132288	42	4216
2026-01-06 10:00:37.23	66.55	15.84	-35.1	-36.7	16.8	0.00e+00	0	55	0	203423744	42	4157
2026-01-06 10:00:38.24	66.34	15.88	-34.9	-36.5	17.0	0.00e+00	0	55	0	208666624	41	4312
2026-01-06 10:00:39.25	66.13	15.92	-34.6	-36.1	17.5	0.00e+00	0	55	0	214958080	41	4109
2026-01-06 10:00:40.26	65.92	15.96	-34.4	-35.9	17.8	0.00e+00	0	55	0	220200960	40	4256
2026-01-06 10:00:41.27	65.72	16.00	-34.5	-36.0	17.7	0.00e+00	0	55	0	226492416	40	4303
2026-01-06 10:00:42.28	65.51	16.04	-34.6	-36.1	17.7	0.00e+00	0	55	0	231735296	40	4353
2026-01-06 10:00:43.29	65.30	16.08	-34.6	-36.0	17.7	0.00e+00	0	55	0	236978176	40	4329
2026-01-06 10:00:44.30	65.09	16.11	-34.5	-36.0	17.8	0.00e+00	0	56	0	243269632	40	4293
2026-01-06 10:00:45.31	64.88	16.15	-34.4	-35.9	18.0	0.00e+00	0	55	0	248512512	40	4246
2026-01-06 10:00:46.32	64.67	16.19	-34.4	-35.8	18.1	0.00e+00	0	55	0	254803968	40	4208
2026-01-06 10:00:47.34	64.45	16.23	-34.5	-36.0	18.0	0.00e+00	0	55	0	260046848	40	4304
2026-01-06 10:00:48.35	64.24	16.26	-34.6	-36.0	17.9	0.00e+00	0	55	0	265289728	40	4329
2026-01-06 10:00:49.36	64.03	16.30	-34.6	-36.1	17.9	0.00e+00	0	55	0	271581184	40	4343
2026-01-06 10:00:50.37	63.82	16.33	-34.7	-36.1	17.9	0.00e+00	0	55	0	276824064	40	4391
2026-01-06 10:00:51.38	63.60	16.37	-34.8	-36.3	17.7	0.00e+00	0	55	0	283115520	40	4454
2026-01-06 10:00:52.38	63.39	16.40	-34.8	-36.3	17.8	0.00e+00	0	55	0	288358400	40	4462
2026-01-06 10:00:53.39	63.18	16.44	-34.8	-36.2	17.8	0.00e+00	0	55	0	293601280	40	4439
2026-01-06 10:00:54.40	62.96	16.47	-34.7	-36.2	17.9	0.00e+00	0	55	0	299892736	40	4398
2026-01-06 10:00:55.41	62.75	16.51	-34.7	-36.1	18.0	0.00e+00	0	55	0	305135616	40	4387
2026-01-06 10:00:56.42	62.53	16.54	-34.7	-36.1	18.0	0.00e+00	0	55	0	311427072	40	4380
2026-01-06 10:00:57.44	62.31	16.57	-34.7	-36.1	17.9	0.00e+00	0	55	0	316669952	40	4389
2026-01-06 10:00:58.45	62.10	16.61	-34.7	-36.1	18.0	0.00e+00	0	55	0	322961408	40	4385
2026-01-06 10:00:59.45	61.88	16.64	-34.6	-36.1	18.1	0.00e+00	0	55	0	328204288	40	4349
2026-01-06 10:01:00.46	61.66	16.67	-34.7	-36.1	18.0	0.00e+00	0	55	0	333447168	40	4380
2026-01-06 10:01:01.47	61.45	16.70	-34.6	-36.1	18.1	0.00e+00	0	55	0	339738624	40	4355
2026-01-06 10:01:02.48	61.23	16.73	-34.7	-36.1	18.1	0.00e+00	0	55	0	344981504	40	4358
2026-01-06 10:01:03.49	61.01	16.76	-34.7	-36.2	18.0	0.00e+00	0	56	0	351272960	40	4403
2026-01-06 10:01:04.50	60.79	16.79	-34.8	-36.2	18.0	0.00e+00	0	55	0	356515840	40	4426
2026-01-06 10:01:05.51	60.57	16.82	-34.8	-36.2	18.0	0.00e+00	0	56	0	361758720	40	4421
2026-01-06 10:01:06.52	60.35	16.85	-34.7	-36.2	18.0	0.00e+00	0	55	0	368050176	40	4403
2026-01-06 10:01:07.53	60.13	16.88	-34.7	-36.2	18.0	0.00e+00	0	55	0	373293056	40	4407
2026-01-06 10:01:08.54	59.91	16.91	-34.7	-36.2	18.0	0.00e+00	0	55	0	379584512	40	4409
2026-01-06 10:01:09.55	59.68	16.94	-34.7	-36.1	18.1	0.00e+00	0	55	0	384827392	40	4374
2026-01-06 10:01:10.56	59.46	16.97	-34.6	-36.0	18.2	0.00e+00	0	55	0	390070272	40	4331
2026-01-06 10:01:11.57	59.24	17.00	-34.5	-36.0	18.3	0.00e+00	0	55	0	396361728	40	4295
2026-01-06 10:01:12.58	59.02	17.02	-34.5	-35.9	18.3	0.00e+00	0	56	0	401604608	40	4245
2026-01-06 10:01:13.59	58.79	17.05	-34.4	-35.8	18.4	0.00e+00	0	55	0	407896064	40	4197
2026-01-06 10:01:14.60	58.57	17.08	-34.4	-35.8	18.5	0.00e+00	0	55	0	413138944	40	4202
2026-01-06 10:01:15.61	58.34	17.10	-34.4	-35.8	18.5	0.00e+00	0	55	0	419430400	40	4197
2026-01-06 10:01:16.63	58.12	17.13	-34.5	-35.9	18.4	0.00e+00	0	55	0	424673280	40	4245
2026-01-06 10:01:17.64	57.89	17.15	-34.5	-35.9	18.3	0.00e+00	0	55	0	430964736	40	4290
2026-01-06 10:01:18.65	57.67	17.18	-34.7	-36.0	18.6	0.00e+00	0	55	0	436207616	40	4306
2026-01-06 10:01:19.66	57.44	17.20	-34.6	-35.9	18.7	0.00e+00	0	55	0	441450496	40	4249
2026-01-06 10:01:20.67	57.22	17.23	-34.5	-35.8	18.8	0.00e+00	0	56	0	447741952	40	4196
2026-01-06 10:01:21.68	56.99	17.25	-34.5	-35.7	18.9	0.00e+00	0	56	0	452984832	40	4168
2026-01-06 10:01:22.69	56.76	17.27	-34.4	-35.7	19.0	0.00e+00	0	56	0	459276288	40	4151
2026-01-06 10:01:23.70	56.54	17.29	-34.4	-35.6	19.0	0.00e+00	0	56	0	464519168	40	4120
2026-01-06 10:01:24.71	56.31	17.32	-34.4	-35.7	18.9	0.00e+00	0	55	0	469762048	40	4159
2026-01-06 10:01:25.72	56.08	17.34	-34.6	-35.8	18.8	0.00e+00	0	56	0	476053504	40	4235
2026-01-06 10:01:26.73	55.85	17.36	-34.6	-35.9	18.7	0.00e+00	0	55	0	481296384	40	4266
2026-01-06 10:01:27.74	55.62	17.38	-34.6	-35.8	18.8	0.00e+00	0	56	0	487587840	40	4223
2026-01-06 10:01:28.75	55.40	17.40	-34.4	-35.7	18.9	0.00e+00	0	55	0	492830720	40	4153
2026-01-06 10:01:29.76	55.17	17.42	-34.4	-35.6	19.0	0.00e+00	0	55	0	498073600	40	4120
2026-01-06 10:01:30.77	54.94	17.44	-34.3	-35.5	19.1	0.00e+00	0	55	0	504365056	40	4088
2026-01-06 10:01:31.78	54.71	17.46	-34.3	-35.5	19.2	0.00e+00	0	56	0	509607936	40	4060
2026-01-06 10:01:32.79	54.48	17.48	-34.3	-35.5	19.1	0.00e+00	0	55	0	515899392	40	4085
2026-01-06 10:01:33.80	54.25	17.50	-34.3	-35.5	19.1	0.00e+00	0	56	0	521142272	40	4066
2026-01-06 10:01:34.81	54.02	17.51	-34.3	-35.6	19.1	0.00e+00	0	56	0	527433728	40	4111
2026-01-06 10:01:35.82	53.79	17.53	-34.3	-35.5	19.1	0.00e+00	0	55	0	532676608	40	4092
2026-01-06 10:01:36.83	53.56	17.55	-34.3	-35.5	19.1	0.00e+00	0	55	0	538968064	40	4092
2026-01-06 10:01:37.83	53.33	17.56	-34.3	-35.5	19.1	0.00e+00	0	55	0	544210944	40	4089
2026-01-06 10:01:38.84	53.10	17.58	-34.4	-35.6	19.1	0.00e+00	0	56	0	549453824	40	4122
2026-01-06 10:01:39.85	52.86	17.59	-34.5	-35.8	18.9	0.00e+00	0	55	0	555745280	40	4194
2026-01-06 10:01:40.86	52.63	17.61	-34.6	-35.8	18.9	0.00e+00	0	56	0	560988160	40	4235
2026-01-06 10:01:41.87	52.40	17.62	-34.6	-35.9	18.8	0.00e+00	0	55	0	567279616	40	4248
2026-01-06 10:01:42.88	52.17	17.64	-34.6	-35.9	18.8	0.00e+00	0	56	0	572522496	40	4250
2026-01-06 10:01:43.89	51.94	17.65	-34.5	-35.8	18.9	0.00e+00	0	55	0	577765376	40	4194
2026-01-06 10:01:44.90	51.70	17.66	-34.4	-35.6	19.0	0.00e+00	0	56	0	584056832	40	4143
2026-01-06 10:01:45.91	51.47	17.67	-34.4	-35.6	19.1	0.00e+00	0	56	0	589299712	40	4105
2026-01-06 10:01:46.92	51.24	17.69	-34.3	-35.5	19.2	0.00e+00	0	56	0	595591168	40	4055
2026-01-06 10:01:47.94	51.00	17.70	-34.3	-35.5	19.2	0.00e+00	0	56	0	600834048	40	4081
2026-01-06 10:01:48.95	50.77	17.71	-34.3	-35.5	19.1	0.00e+00	0	56	0	606076928	40	4093
2026-01-06 10:01:49.96	50.53	17.72	-34.3	-35.5	19.2	0.00e+00	0	55	0	612368384	40	4054
2026-01-06 10:01:50.97	50.30	17.73	-34.1	-35.3	19.3	0.00e+00	0	56	0	617611264	40	4000
2026-01-06 10:01:51.98	50.07	17.74	-34.1	-35.3	19.4	0.00e+00	0	56	0	623902720	40	3979
2026-01-06 10:01:52.99	49.83	17.75	-34.1	-35.3	19.4	0.00e+00	0	56	0	629145600	40	3968
2026-01-06 10:01:54.00	49.60	17.76	-34.0	-35.2	19.5	0.00e+00	0	56	0	635437056	40	3945
2026-01-06 10:01:55.00	49.37	17.76	-34.1	-35.2	19.5	0.00e+00	0	56	0	640679936	39	4184
2026-01-06 10:01:56.01	49.13	17.77	-34.1	-35.2	19.5	0.00e+00	0	56	0	645922816	39	4180
2026-01-06 10:01:57.02	48.90	17.78	-34.1	-35.3	19.5	0.00e+00	0	55	0	652214272	39	4210
2026-01-06 10:01:58.03	48.66	17.79	-34.1	-35.3	19.4	0.00e+00	0	56	0	657457152	39	4233
2026-01-06 10:01:59.04	48.43	17.79	-34.2	-35.3	19.4	0.00e+00	0	55	0	663748608	39	4239
2026-01-06 10:02:00.05	48.19	17.80	-34.3	-35.5	19.3	0.00e+00	0	56	0	668991488	39	4299
2026-01-06 10:02:01.06	47.96	17.80	-34.2	-35.4	19.3	0.00e+00	0	56	0	674234368	39	4280
2026-01-06 10:02:02.07	47.72	17.81	-34.3	-35.5	19.3	0.00e+00	0	55	0	680525824	39	4309
2026-01-06 10:02:03.08	47.49	17.81	-34.4	-35.6	19.2	0.00e+00	0	56	0	685768704	39	4357
2026-01-06 10:02:04.09	47.25	17.81	-34.4	-35.6	19.1	0.00e+00	0	56	0	692060160	39	4381
2026-01-06 10:02:05.10	47.02	17.82	-34.5	-35.7	19.1	0.00e+00	0	56	0	697303040	39	4408
2026-01-06 10:02:06.11	46.78	17.82	-34.5	-35.8	19.0	0.00e+00	0	56	0	702545920	39	4447
2026-01-06 10:02:07.12	46.55	17.82	-34.7	-35.9	18.9	0.00e+00	0	55	0	708837376	39	4516
2026-01-06 10:02:08.14	46.31	17.82	-34.6	-35.9	18.9	0.00e+00	0	56	0	714080256	39	4504
2026-01-06 10:02:09.15	46.08	17.83	-34.7	-35.9	18.9	0.00e+00	0	56	0	720371712	39	4543
2026-01-06 10:02:10.16	45.84	17.83	-34.6	-35.9	18.9	0.00e+00	0	55	0	725614592	39	4505
2026-01-06 10:02:11.17	45.61	17.83	-34.6	-35.9	18.9	0.00e+00	0	56	0	731906048	39	4511
2026-01-06 10:02:12.18	45.37	17.83	-34.7	-35.9	18.9	0.00e+00	0	56	0	737148928	39	4543
2026-01-06 10:02:13.19	45.14	17.82	-34.6	-35.8	18.9	0.00e+00	0	56	0	743440384	39	4493
2026-01-06 10:02:14.20	44.90	17.82	-34.6	-35.8	19.0	0.00e+00	0	56	0	748683264	39	4462
2026-01-06 10:02:15.21	44.67	17.82	-34.5	-35.7	19.1	0.00e+00	0	56	0	753926144	39	4408
2026-01-06 10:02:16.22	44.43	17.82	-34.4	-35.6	19.2	0.00e+00	0	56	0	760217600	39	4354
2026-01-06 10:02:17.23	44.19	17.82	-34.2	-35.4	19.4	0.00e+00	0	56	0	765460480	39	4258
2026-01-06 10:02:18.24	43.96	17.81	-34.1	-35.3	19.5	0.00e+00	0	56	0	771751936	39	4225
2026-01-06 10:02:19.25	43.72	17.81	-34.1	-35.3	19.5	0.00e+00	0	56	0	776994816	39	4209
2026-01-06 10:02:20.26	43.49	17.80	-34.2	-35.4	19.3	0.00e+00	0	56	0	782237696	39	4281
2026-01-06 10:02:21.27	43.26	17.80	-34.3	-35.5	19.3	0.00e+00	0	56	0	788529152	39	4301
2026-01-06 10:02:22.28	43.02	17.79	-34.3	-35.5	19.3	0.00e+00	0	56	0	793772032	39	4300
2026-01-06 10:02:23.29	42.79	17.79	-34.1	-35.3	19.5	0.00e+00	0	56	0	800063488	39	4235
2026-01-06 10:02:24.30	42.55	17.78	-34.1	-35.3	19.5	0.00e+00	0	56	0	805306368	39	4208
2026-01-06 10:02:25.30	42.32	17.78	-34.1	-35.3	19.5	0.00e+00	0	56	0	810549248	39	4197
2026-01-06 10:02:26.31	42.08	17.77	-34.2	-35.4	19.4	0.00e+00	0	56	0	816840704	39	4270
2026-01-06 10:02:27.32	41.85	17.76	-34.2	-35.4	19.4	0.00e+00	0	56	0	822083584	39	4257
2026-01-06 10:02:28.33	41.62	17.75	-34.4	-35.6	19.2	0.00e+00	0	56	0	828375040	39	4349
2026-01-06 10:02:29.34	41.38	17.74	-34.3	-35.6	19.2	0.00e+00	0	56	0	833617920	39	4341
2026-01-06 10:02:30.35	41.15	17.73	-34.4	-35.6	19.2	0.00e+00	0	56	0	839909376	39	4360
2026-01-06 10:02:31.36	40.92	17.72	-34.4	-35.6	19.2	0.00e+00	0	56	0	845152256	39	4359
2026-01-06 10:02:32.37	40.68	17.71	-34.4	-35.7	19.1	0.00e+00	0	56	0	851443712	39	4401
2026-01-06 10:02:33.38	40.45	17.70	-34.5	-35.8	19.1	0.00e+00	0	56	0	856686592	39	4443
2026-01-06 10:02:34.39	40.22	17.69	-34.6	-35.8	19.0	0.00e+00	0	56	0	861929472	39	4477
2026-01-06 10:02:35.40	39.98	17.68	-34.6	-35.9	18.9	0.00e+00	0	56	0	868220928	39	4507
2026-01-06 10:02:36.41	39.75	17.67	-34.6	-35.9	18.9	0.00e+00	0	56	0	873463808	39	4507
2026-01-06 10:02:37.42	39.52	17.66	-34.6	-35.8	19.0	0.00e+00	0	56	0	879755264	39	4466
2026-01-06 10:02:38.43	39.28	17.64	-34.5	-35.8	19.0	0.00e+00	0	56	0	884998144	39	4445
2026-01-06 10:02:39.44	39.05	17.63	-34.5	-35.7	19.1	0.00e+00	0	56	0	890241024	39	4433
2026-01-06 10:02:40.45	38.82	17.62	-34.5	-35.7	19.0	0.00e+00	0	56	0	896532480	39	4439
2026-01-06 10:02:41.46	38.59	17.60	-34.4	-35.7	19.1	0.00e+00	0	56	0	901775360	39	4392
2026-01-06 10:02:42.47	38.36	17.59	-34.5	-35.7	19.1	0.00e+00	0	56	0	907018240	39	4407
2026-01-06 10:02:43.48	38.13	17.57	-34.4	-35.7	19.1	0.00e+00	0	56	0	913309696	39	4396
2026-01-06 10:02:44.49	37.89	17.55	-34.5	-35.7	19.0	0.00e+00	0	56	0	918552576	39	4434
2026-01-06 10:02:45.50	37.66	17.54	-34.6	-35.9	18.8	0.00e+00	0	56	0	924844032	40	4261
2026-01-06 10:02:46.51	37.43	17.52	-34.7	-35.9	18.8	0.00e+00	0	56	0	930086912	40	4270
2026-01-06 10:02:47.52	37.20	17.50	-34.6	-35.8	18.9	0.00e+00	0	56	0	936378368	40	4239
2026-01-06 10:02:48.53	36.97	17.49	-34.6	-35.9	18.8	0.00e+00	0	56	0	941621248	40	4249
2026-01-06 10:02:49.54	36.74	17.47	-34.6	-35.9	18.9	0.00e+00	0	56	0	947912704	40	4250
2026-01-06 10:02:50.55	36.51	17.45	-34.6	-35.8	18.9	0.00e+00	0	56	0	953155584	40	4233
2026-01-06 10:02:51.56	36.29	17.43	-34.6	-35.8	18.9	0.00e+00	0	56	0	958398464	40	4225
2026-01-06 10:02:52.57	36.06	17.41	-34.6	-35.8	18.9	0.00e+00	0	56	0	964689920	40	4237
2026-01-06 10:02:53.58	35.83	17.39	-34.6	-35.8	18.9	0.00e+00	0	56	0	969932800	40	4239
2026-01-06 10:02:54.59	35.60	17.37	-34.6	-35.9	18.8	0.00e+00	0	56	0	976224256	40	4257
2026-01-06 10:02:55.60	35.37	17.35	-34.7	-36.0	18.7	0.00e+00	0	56	0	981467136	40	4313
2026-01-06 10:02:56.61	35.14	17.33	-34.7	-36.0	18.7	0.00e+00	0	56	0	986710016	40	4323
2026-01-06 10:02:57.62	34.92	17.31	-34.8	-36.1	18.6	0.00e+00	0	56	0	993001472	40	4356
2026-01-06 10:02:58.62	34.69	17.28	-34.9	-36.2	18.6	0.00e+00	0	56	0	998244352	40	4392
2026-01-06 10:02:59.63	34.47	17.26	-34.9	-36.1	18.6	0.00e+00	0	56	0	1004535808	40	4376
2026-01-06 10:03:00.64	34.24	17.24	-34.8	-36.1	18.7	0.00e+00	0	56	0	1009778688	40	4342
2026-01-06 10:03:01.65	34.01	17.21	-34.8	-36.0	18.7	0.00e+00	0	56	0	1015021568	40	4325
2026-01-06 10:03:02.66	33.79	17.19	-34.7	-36.0	18.7	0.00e+00	0	56	0	1021313024	40	4305
2026-01-06 10:03:03.67	33.56	17.17	-34.7	-35.9	18.8	0.00e+00	0	56	0	1026555904	40	4272
2026-01-06 10:03:04.68	33.34	17.14	-34.6	-35.9	18.9	0.00e+00	0	56	0	1032847360	40	4249
2026-01-06 10:03:05.69	33.11	17.12	-34.7	-35.9	18.8	0.00e+00	0	56	0	1038090240	40	4269
2026-01-06 10:03:06.70	32.89	17.09	-34.6	-35.9	18.9	0.00e+00	0	56	0	1044381696	40	4259
2026-01-06 10:03:07.71	32.67	17.06	-34.6	-35.9	18.8	0.00e+00	0	56	0	1049624576	40	4261
2026-01-06 10:03:08.72	32.44	17.04	-34.5	-35.8	18.9	0.00e+00	0	56	0	1055916032	40	4207
2026-01-06 10:03:09.73	32.22	17.01	-34.4	-35.7	19.0	0.00e+00	0	56	0	1061158912	40	4147
2026-01-06 10:03:10.74	32.00	16.98	-34.5	-35.7	19.0	0.00e+00	0	56	0	1066401792	40	4162
2026-01-06 10:03:11.75	31.78	16.95	-34.6	-35.8	18.8	0.00e+00	0	56	0	1072693248	40	4237
2026-01-06 10:03:12.76	31.56	16.93	-34.7	-36.0	18.7	0.00e+00	0	56	0	1077936128	40	4299
2026-01-06 10:03:13.78	31.33	16.90	-34.8	-36.0	18.7	0.00e+00	0	56	0	1084227584	40	4335
2026-01-06 10:03:14.78	31.11	16.87	-34.8	-36.1	18.7	0.00e+00	0	56	0	1089470464	40	4351
2026-01-06 10:03:15.79	30.89	16.84	-34.8	-36.1	18.6	0.00e+00	0	56	0	1094713344	40	4357
2026-01-06 10:03:16.80	30.67	16.81	-34.8	-36.1	18.6	0.00e+00	0	56	0	1101004800	40	4358
2026-01-06 10:03:17.81	30.45	16.78	-34.9	-36.1	18.6	0.00e+00	0	56	0	1106247680	40	4381
2026-01-06 10:03:18.82	30.24	16.75	-34.8	-36.1	18.6	0.00e+00	0	56	0	1112539136	40	4374
2026-01-06 10:03:19.83	30.02	16.72	-34.9	-36.2	18.5	0.00e+00	0	56	0	1117782016	40	4416
2026-01-06 10:03:20.84	29.80	16.69	-34.9	-36.2	18.5	0.00e+00	0	56	0	1123024896	40	4415
2026-01-06 10:03:21.85	29.58	16.66	-34.8	-36.1	18.6	0.00e+00	0	56	0	1129316352	40	4371
2026-01-06 10:03:22.86	29.37	16.62	-34.7	-35.9	18.8	0.00e+00	0	56	0	1134559232	40	4280
2026-01-06 10:03:23.87	29.15	16.59	-34.7	-35.9	18.8	0.00e+00	0	56	0	1140850688	40	4283
2026-01-06 10:03:24.88	28.93	16.56	-34.7	-36.0	18.7	0.00e+00	0	56	0	1146093568	40	4301
2026-01-06 10:03:25.89	28.72	16.52	-34.9	-36.1	18.6	0.00e+00	0	56	0	1152385024	40	4383
2026-01-06 10:03:26.90	28.50	16.49	-34.8	-36.1	18.6	0.00e+00	0	56	0	1157627904	40	4357
2026-01-06 10:03:27.91	28.29	16.46	-34.8	-36.1	18.6	0.00e+00	0	56	0	1162870784	40	4371
2026-01-06 10:03:28.92	28.07	16.42	-34.8	-36.1	18.6	0.00e+00	0	56	0	1169162240	40	4359
2026-01-06 10:03:29.93	27.86	16.39	-34.8	-36.0	18.7	0.00e+00	0	56	0	1174405120	40	4336
2026-01-06 10:03:30.94	27.65	16.35	-34.8	-36.1	18.6	0.00e+00	0	56	0	1180696576	40	4357
2026-01-06 10:03:31.95	27.43	16.32	-34.8	-36.1	18.6	0.00e+00	0	56	0	1185939456	40	4371
2026-01-06 10:03:32.96	27.22	16.28	-34.9	-36.2	18.5	0.00e+00	0	56	0	1191182336	40	4424
2026-01-06 10:03:33.97	27.01	16.25	-34.9	-36.2	18.5	0.00e+00	0	56	0	1197473792	40	4437
2026-01-06 10:03:34.98	26.80	16.21	-34.9	-36.2	18.5	0.00e+00	0	56	0	1202716672	40	4396
2026-01-06 10:03:35.99	26.59	16.17	-34.9	-36.1	18.6	0.00e+00	0	56	0	1209008128	40	4381
2026-01-06 10:03:37.00	26.38	16.14	-34.9	-36.2	18.4	0.00e+00	0	56	0	1214251008	40	4435
2026-01-06 10:03:38.01	26.17	16.10	-35.0	-36.3	18.4	0.00e+00	0	56	0	1219493888	40	4465
2026-01-06 10:03:39.01	25.96	16.06	-35.1	-36.5	18.2	0.00e+00	0	56	0	1225785344	40	4558
2026-01-06 10:03:40.02	25.75	16.02	-35.1	-36.5	18.2	0.00e+00	0	56	0	1231028224	40	4548
2026-01-06 10:03:41.04	25.54	15.98	-35.1	-36.4	18.3	0.00e+00	0	56	0	1237319680	40	4518
2026-01-06 10:03:42.05	25.34	15.95	-35.0	-36.3	18.3	0.00e+00	0	56	0	1242562560	40	4492
2026-01-06 10:03:43.06	25.13	15.91	-35.1	-36.5	18.2	0.00e+00	0	56	0	1248854016	40	4550
2026-01-06 10:03:44.07	24.92	15.87	-35.1	-36.4	18.2	0.00e+00	0	56	0	1254096896	40	4527
2026-01-06 10:03:45.08	24.72	15.83	-35.1	-36.4	18.3	0.00e+00	0	56	0	1260388352	40	4509
2026-01-06 10:03:46.09	24.51	15.79	-35.1	-36.4	18.3	0.00e+00	0	56	0	1265631232	40	4505
2026-01-06 10:03:47.10	24.31	15.75	-35.2	-36.5	18.1	0.00e+00	0	56	0	1270874112	40	4578
2026-01-06 10:03:48.11	24.10	15.71	-35.1	-36.4	18.3	0.00e+00	0	56	0	1277165568	40	4507
2026-01-06 10:03:49.12	23.90	15.67	-35.1	-36.5	18.2	0.00e+00	0	56	0	1282408448	40	4557
2026-01-06 10:03:50.13	23.70	15.62	-35.2	-36.5	18.1	0.00e+00	0	56	0	1288699904	40	4587
2026-01-06 10:03:51.14	23.50	15.58	-35.1	-36.5	18.2	0.00e+00	0	56	0	1293942784	41	4294
2026-01-06 10:03:52.15	23.29	15.54	-35.1	-36.4	18.2	0.00e+00	0	56	0	1299185664	41	4271
2026-01-06 10:03:53.16	23.09	15.50	-35.1	-36.4	18.2	0.00e+00	0	56	0	1305477120	41	4290
2026-01-06 10:03:54.17	22.89	15.46	-35.1	-36.5	18.2	0.00e+00	0	56	0	1310720000	41	4295
2026-01-06 10:03:55.18	22.69	15.41	-35.1	-36.5	18.2	0.00e+00	0	56	0	1317011456	41	4293
2026-01-06 10:03:56.19	22.49	15.37	-35.2	-36.5	18.1	0.00e+00	0	56	0	1322254336	41	4310
2026-01-06 10:03:57.20	22.29	15.33	-35.2	-36.5	18.1	0.00e+00	0	56	0	1327497216	41	4336
2026-01-06 10:03:58.21	22.10	15.29	-35.3	-36.6	18.0	0.00e+00	0	56	0	1333788672	41	4382
2026-01-06 10:03:59.23	21.90	15.24	-35.4	-36.7	17.9	0.00e+00	0	56	0	1339031552	41	4433
2026-01-06 10:04:00.24	21.70	15.20	-35.3	-36.7	17.9	0.00e+00	0	56	0	1345323008	41	4424
2026-01-06 10:04:01.24	21.51	15.15	-35.4	-36.7	17.9	0.00e+00	0	56	0	1350565888	41	4436
2026-01-06 10:04:02.25	21.31	15.11	-35.4	-36.7	17.9	0.00e+00	0	56	0	1356857344	41	4428
2026-01-06 10:04:03.26	21.11	15.06	-35.4	-36.7	17.9	0.00e+00	0	56	0	1362100224	41	4417
2026-01-06 10:04:04.27	20.92	15.02	-35.4	-36.7	17.9	0.00e+00	0	56	0	1368391680	41	4428
2026-01-06 10:04:05.28	20.73	14.97	-35.5	-36.8	17.7	0.00e+00	0	56	0	1373634560	41	4490
2026-01-06 10:04:06.29	20.53	14.93	-35.5	-36.9	17.7	0.00e+00	0	56	0	1378877440	41	4535
2026-01-06 10:04:07.30	20.34	14.88	-35.6	-37.1	17.5	0.00e+00	0	56	0	1385168896	41	4604
2026-01-06 10:04:08.31	20.15	14.84	-35.6	-37.0	17.6	0.00e+00	0	56	0	1390411776	41	4570
2026-01-06 10:04:09.32	19.96	14.79	-35.5	-37.0	17.6	0.00e+00	0	56	0	1396703232	41	4546
2026-01-06 10:04:10.33	19.76	14.74	-35.5	-36.9	17.7	0.00e+00	0	56	0	1401946112	41	4526
2026-01-06 10:04:11.34	19.57	14.70	-35.5	-36.9	17.7	0.00e+00	0	56	0	1407188992	41	4528
2026-01-06 10:04:12.35	19.38	14.65	-35.5	-36.9	17.7	0.00e+00	0	56	0	1413480448	41	4530
2026-01-06 10:04:13.36	19.19	14.60	-35.6	-37.0	17.6	0.00e+00	0	56	0	1418723328	41	4549
2026-01-06 10:04:14.37	19.01	14.56	-35.6	-37.0	17.5	0.00e+00	0	56	0	1425014784	41	4589
2026-01-06 10:04:15.38	18.82	14.51	-35.7	-37.1	17.4	0.00e+00	0	56	0	1430257664	41	4623
2026-01-06 10:04:16.39	18.63	14.46	-35.7	-37.1	17.4	0.00e+00	0	56	0	1435500544	41	4643
2026-01-06 10:04:17.40	18.44	14.41	-35.7	-37.1	17.4	0.00e+00	0	56	0	1441792000	42	4381
2026-01-06 10:04:18.41	18.26	14.37	-35.7	-37.1	17.5	0.00e+00	0	56	0	1447034880	42	4357
2026-01-06 10:04:19.42	18.07	14.32	-35.7	-37.1	17.5	0.00e+00	0	56	0	1453326336	42	4371
2026-01-06 10:04:20.43	17.89	14.27	-35.7	-37.2	17.4	0.00e+00	0	56	0	1458569216	42	4395
2026-01-06 10:04:21.44	17.70	14.22	-35.9	-37.3	17.3	0.00e+00	0	56	0	1464860672	42	4475
2026-01-06 10:04:22.45	17.52	14.17	-35.9	-37.4	17.2	0.00e+00	0	56	0	1470103552	42	4528
2026-01-06 10:04:23.46	17.34	14.12	-35.9	-37.4	17.2	0.00e+00	0	56	0	1475346432	42	4501
2026-01-06 10:04:24.47	17.15	14.07	-35.9	-37.4	17.1	0.00e+00	0	56	0	1481637888	42	4511
2026-01-06 10:04:25.48	16.97	14.02	-35.9	-37.3	17.2	0.00e+00	0	56	0	1486880768	42	4472
2026-01-06 10:04:26.49	16.79	13.97	-35.8	-37.2	17.3	0.00e+00	0	56	0	1493172224	42	4437
2026-01-06 10:04:27.50	16.61	13.92	-35.8	-37.2	17.4	0.00e+00	0	56	0	1498415104	42	4405
2026-01-06 10:04:28.51	16.43	13.87	-35.9	-37.3	17.2	0.00e+00	0	56	0	1503657984	42	4493
2026-01-06 10:04:29.52	16.25	13.82	-35.9	-37.4	17.2	0.00e+00	0	56	0	1509949440	42	4495
2026-01-06 10:04:30.53	16.07	13.77	-35.9	-37.4	17.1	0.00e+00	0	56	0	1515192320	42	4509
2026-01-06 10:04:31.54	15.89	13.72	-35.8	-37.3	17.2	0.00e+00	0	56	0	1521483776	42	4462
2026-01-06 10:04:32.55	15.72	13.67	-35.7	-37.1	17.4	0.00e+00	0	56	0	1526726656	42	4374
2026-01-06 10:04:33.56	15.54	13.62	-35.7	-37.1	17.4	0.00e+00	0	56	0	1531969536	42	4369
2026-01-06 10:04:34.57	15.36	13.57	-35.7	-37.1	17.4	0.00e+00	0	56	0	1538260992	42	4375
2026-01-06 10:04:35.58	15.19	13.52	-35.7	-37.1	17.4	0.00e+00	0	56	0	1543503872	42	4362
2026-01-06 10:04:36.59	15.01	13.47	-35.8	-37.3	17.2	0.00e+00	0	56	0	1549795328	42	4461
2026-01-06 10:04:37.60	14.84	13.41	-35.9	-37.4	17.1	0.00e+00	0	56	0	1555038208	42	4506
2026-01-06 10:04:38.61	14.66	13.36	-35.9	-37.4	17.1	0.00e+00	0	56	0	1561329664	42	4511
2026-01-06 10:04:39.62	14.49	13.31	-35.9	-37.4	17.1	0.00e+00	0	56	0	1566572544	42	4522
2026-01-06 10:04:40.63	14.32	13.26	-35.9	-37.4	17.0	0.00e+00	0	56	0	1572864000	42	4533
2026-01-06 10:04:41.64	14.15	13.21	-35.8	-37.3	17.2	0.00e+00	0	56	0	1578106880	42	4457
2026-01-06 10:04:42.64	13.98	13.16	-35.8	-37.2	17.2	0.00e+00	0	56	0	1583349760	42	4420
2026-01-06 10:04:43.65	13.81	13.10	-35.7	-37.2	17.2	0.00e+00	0	56	0	1589641216	42	4399
2026-01-06 10:04:44.66	13.64	13.05	-35.8	-37.2	17.2	0.00e+00	0	56	0	1594884096	42	4421
2026-01-06 10:04:45.67	13.47	13.00	-35.8	-37.3	17.1	0.00e+00	0	56	0	1601175552	42	4473
2026-01-06 10:04:46.68	13.30	12.94	-36.0	-37.5	16.9	0.00e+00	0	56	0	1606418432	42	4549
2026-01-06 10:04:47.69	13.13	12.89	-35.9	-37.4	16.9	0.00e+00	0	56	0	1611661312	42	4531
2026-01-06 10:04:48.70	12.96	12.84	-36.0	-37.5	16.8	0.00e+00	0	56	0	1617952768	42	4588
2026-01-06 10:04:49.71	12.80	12.79	-36.0	-37.5	16.8	0.00e+00	0	56	0	1623195648	42	4547
2026-01-06 10:04:50.72	12.63	12.73	-35.9	-37.4	16.9	0.00e+00	0	56	0	1629487104	42	4512
2026-01-06 10:04:51.73	12.46	12.68	-36.0	-37.5	16.8	0.00e+00	0	56	0	1634729984	42	4561
2026-01-06 10:04:52.74	12.30	12.63	-36.0	-37.6	16.7	0.00e+00	0	56	0	1639972864	42	4599
2026-01-06 10:04:53.75	12.13	12.57	-36.0	-37.6	16.6	0.00e+00	0	56	0	1646264320	42	4600
2026-01-06 10:04:54.76	11.97	12.52	-36.1	-37.7	16.4	0.00e+00	0	56	0	1651507200	42	4665
2026-01-06 10:04:55.77	11.81	12.46	-36.2	-37.9	16.2	0.00e+00	0	56	0	1657798656	43	4494
2026-01-06 10:04:56.78	11.64	12.41	-36.3	-38.0	16.0	0.00e+00	0	56	0	1663041536	43	4557
2026-01-06 10:04:57.79	11.48	12.36	-36.2	-37.9	16.0	0.00e+00	0	56	0	1669332992	43	4494
2026-01-06 10:04:58.80	11.32	12.30	-36.2	-37.8	16.0	0.00e+00	0	56	0	1674575872	43	4475
2026-01-06 10:04:59.81	11.16	12.25	-36.1	-37.7	16.1	0.00e+00	0	56	0	1679818752	43	4407
2026-01-06 10:05:00.82	11.00	12.19	-36.1	-37.8	15.9	0.00e+00	0	56	0	1686110208	43	4456
2026-01-06 10:05:01.83	10.84	12.14	-36.1	-37.8	15.8	0.00e+00	0	56	0	1691353088	43	4467
2026-01-06 10:05:02.84	10.68	12.08	-35.9	-37.6	15.9	0.00e+00	0	56	0	1697644544	43	4369
2026-01-06 10:05:03.85	10.52	12.03	-36.0	-37.7	15.8	0.00e+00	0	56	0	1702887424	43	4404
2026-01-06 10:05:04.86	10.36	11.97	-36.1	-37.9	15.6	0.00e+00	0	56	0	1708130304	43	4496
2026-01-06 10:05:05.87	10.21	11.92	-36.2	-38.0	15.4	0.00e+00	0	56	0	1714421760	43	4555
2026-01-06 10:05:06.88	10.05	11.86	-36.1	-37.9	15.3	0.00e+00	0	56	0	1719664640	43	4512
2026-01-06 10:05:07.89	9.89	11.81	-36.2	-38.1	15.0	0.00e+00	0	56	0	1725956096	43	4613
2026-01-06 10:05:08.90	9.74	11.75	-36.2	-38.1	14.8	0.00e+00	0	56	0	1731198976	43	4638
2026-01-06 10:05:09.91	9.58	11.70	-36.5	-38.6	14.2	0.00e+00	0	56	0	1736441856	43	4881
2026-01-06 10:05:10.92	9.43	11.64	-37.0	-39.2	13.6	4.50e-06	0	56	0	1742733312	44	4929
2026-01-06 10:05:11.93	9.28	11.59	-37.5	-40.0	12.6	9.15e-05	0	56	0	1747976192	45	5119
2026-01-06 10:05:12.94	9.12	11.53	-38.0	-40.8	11.6	5.70e-04	0	56	0	1754267648	46	5297
2026-01-06 10:05:13.95	8.97	11.48	-38.3	-41.4	10.8	3.10e-03	0	56	0	1759510528	47	5387
2026-01-06 10:05:14.96	8.82	11.42	-38.7	-42.2	9.8	9.91e-03	0	56	0	1765801984	47	5888
2026-01-06 10:05:15.98	8.67	11.36	-39.1	-43.0	8.9	3.02e-02	0	56	0	1771044864	48	6099
2026-01-06 10:05:16.99	8.51	11.31	-39.3	-43.7	8.1	6.35e-02	0	56	0	1777336320	49	6209
2026-01-06 10:05:18.00	8.36	11.25	-39.6	-44.4	7.2	1.17e-01	0	56	0	1782579200	49	6785
2026-01-06 10:05:19.01	8.21	11.20	-39.7	-45.1	6.5	2.27e-01	0	56	0	1787822080	49	7318
2026-01-06 10:05:20.02	8.07	11.14	-39.8	-45.7	5.9	3.37e-01	0	56	0	1794113536	50	7400
2026-01-06 10:05:21.03	7.92	11.08	-39.9	-46.3	5.4	6.64e-01	0	56	0	1798307840	50	7919
2026-01-06 10:05:22.03	7.77	11.03	-40.1	-47.4	4.7	7.72e-01	0	56	0	1798307840	50	9014
2026-01-06 10:05:23.04	7.62	10.97	-40.2	-48.5	4.3	8.31e-01	0	56	0	1798307840	51	9663
2026-01-06 10:05:24.05	7.48	10.92	-40.3	-49.6	3.9	8.41e-01	0	56	104	1798307840	51	11027
2026-01-06 10:05:25.06	7.33	10.86	-40.4	-50.6	3.8	8.45e-01	0	56	104	1798307840	51	12272
2026-01-06 10:05:26.07	7.19	10.80	-40.4	-51.2	3.8	8.47e-01	0	56	104	1798307840	51	13154
2026-01-06 10:05:27.08	7.04	10.75	-40.4	-51.5	3.8	8.47e-01	0	56	104	1798307840	51	13666
2026-01-06 10:05:28.09	6.90	10.69	-40.4	-51.7	3.8	8.45e-01	0	56	104	1798307840	51	13968
2026-01-06 10:05:29.10	6.75	10.64	-40.3	-51.7	3.8	8.46e-01	0	56	104	1798307840	51	13930
2026-01-06 10:05:30.11	6.61	10.58	-40.7	-51.8	3.8	8.46e-01	0	56	104	1798307840	52	13289
2026-01-06 10:05:31.13	6.47	10.52	-40.0	-51.5	3.8	8.46e-01	0	56	104	1798307840	51	13723
2026-01-06 10:05:32.14	6.32	10.47	-40.1	-51.7	3.8	8.46e-01	0	56	104	1798307840	51	14023
2026-01-06 10:05:33.14	6.18	10.41	-40.3	-51.8	3.8	8.45e-01	0	56	104	1798307840	51	14059
2026-01-06 10:05:34.15	6.04	10.35	-40.0	-51.7	3.8	8.47e-01	0	56	104	1798307840	51	13888
2026-01-06 10:05:35.16	5.90	10.30	-40.3	-51.8	3.8	8.46e-01	0	56	104	1798307840	51	14130
2026-01-06 10:05:36.17	5.76	10.24	-40.3	-51.8	3.8	8.46e-01	0	56	104	1798307840	51	14140
2026-01-06 10:05:37.18	5.62	10.18	-39.9	-51.4	3.8	8.46e-01	0	56	104	1798307840	51	13559
2026-01-06 10:05:38.19	5.48	10.13	-40.2	-51.7	3.8	8.47e-01	0	56	104	1798307840	51	14017
2026-01-06 10:05:39.20	5.35	10.07	-39.8	-51.4	3.8	8.46e-01	0	56	104	1798307840	51	13440
2026-01-06 10:05:40.21	5.21	10.01	-39.9	-51.5	3.8	8.47e-01	0	56	104	1798307840	51	13715
2026-01-06 10:05:41.22	5.07	9.95	-40.1	-51.7	3.8	8.46e-01	0	56	104	1798307840	51	13933
2026-01-06 10:05:42.23	4.93	9.90	-39.9	-51.5	3.8	8.47e-01	0	56	104	1798307840	51	13633
2026-01-06 10:05:43.24	4.80	9.84	-40.0	-51.6	3.8	8.47e-01	0	56	104	1798307840	51	13833
2026-01-06 10:05:44.25	4.66	9.78	-40.1	-51.7	3.8	8.48e-01	0	56	104	1798307840	51	13943
2026-01-06 10:05:45.26	4.53	9.73	-39.8	-51.4	3.8	8.46e-01	0	56	104	1798307840	51	13427
2026-01-06 10:05:46.27	4.39	9.67	-40.1	-51.7	3.8	8.47e-01	0	56	104	1798307840	51	13922
2026-01-06 10:05:47.28	4.26	9.61	-39.8	-51.4	3.8	8.46e-01	0	56	104	1798307840	51	13539
2026-01-06 10:05:48.29	4.13	9.56	-39.9	-51.5	3.8	8.46e-01	0	56	104	1798307840	51	13668
2026-01-06 10:05:49.30	3.99	9.50	-39.9	-51.5	3.8	8.46e-01	0	56	104	1798307840	51	13636
2026-01-06 10:05:50.31	3.86	9.44	-39.9	-51.4	3.8	8.45e-01	0	56	104	1798307840	51	13565
2026-01-06 10:05:51.32	3.73	9.38	-40.0	-51.6	3.8	8.47e-01	0	56	104	1798307840	51	13727
2026-01-06 10:05:52.33	3.60	9.33	-40.0	-51.6	3.8	8.48e-01	0	56	104	1798307840	51	13805
2026-01-06 10:05:53.34	3.47	9.27	-39.9	-51.4	3.8	8.46e-01	0	56	104	1798307840	51	13562
2026-01-06 10:05:54.35	3.34	9.21	-40.0	-51.6	3.8	8.46e-01	0	57	104	1798307840	51	13766
2026-01-06 10:05:55.36	3.21	9.16	-39.8	-51.4	3.8	8.46e-01	0	56	104	1798307840	51	13446
2026-01-06 10:05:56.37	3.08	9.10	-39.8	-51.4	3.8	8.47e-01	0	56	104	1798307840	51	13473
2026-01-06 10:05:57.38	2.95	9.04	-39.8	-51.4	3.8	8.46e-01	0	56	104	1798307840	51	13568
2026-01-06 10:05:58.39	2.82	8.98	-39.9	-51.4	3.8	8.46e-01	0	56	104	1798307840	51	13496
2026-01-06 10:05:59.40	2.70	8.93	-39.9	-51.5	3.8	8.46e-01	0	56	104	1798307840	51	13594
2026-01-06 10:06:00.41	2.57	8.87	-39.9	-51.4	3.8	8.46e-01	0	56	104	1798307840	51	13551
2026-01-06 10:06:01.42	2.44	8.81	-39.9	-51.4	3.8	8.46e-01	0	56	104	1798307840	51	13524
2026-01-06 10:06:02.43	2.32	8.76	-40.0	-51.5	3.8	8.46e-01	0	56	104	1798307840	51	13650
2026-01-06 10:06:03.44	2.19	8.70	-39.8	-51.5	3.8	8.45e-01	0	56	104	1798307840	51	13638
2026-01-06 10:06:04.45	2.07	8.64	-39.8	-51.5	3.8	8.47e-01	0	56	104	1798307840	51	13668
2026-01-06 10:06:05.46	1.94	8.58	-39.9	-51.5	3.8	8.46e-01	0	56	104	1798307840	51	13644
2026-01-06 10:06:06.47	1.82	8.53	-39.7	-51.4	3.8	8.46e-01	0	56	104	1798307840	51	13555
2026-01-06 10:06:07.48	1.69	8.47	-39.9	-51.5	3.8	8.46e-01	0	56	104	1798307840	51	13656
2026-01-06 10:06:08.49	1.57	8.41	-39.7	-51.5	3.8	8.46e-01	0	56	104	1798307840	51	13656
2026-01-06 10:06:09.50	1.45	8.35	-39.6	-51.5	3.8	8.46e-01	0	56	104	1798307840	51	13574
2026-01-06 10:06:10.51	1.33	8.30	-39.6	-51.5	3.8	8.45e-01	0	56	104	1798307840	51	13598
2026-01-06 10:06:11.52	1.20	8.24	-39.6	-51.4	3.8	8.46e-01	0	56	104	1798307840	51	13445
2026-01-06 10:06:12.53	1.08	8.18	-39.5	-51.4	3.8	8.45e-01	0	56	104	1798307840	51	13429
2026-01-06 10:06:13.54	0.96	8.13	-39.5	-51.4	3.8	8.46e-01	0	56	104	1798307840	51	13416
2026-01-06 10:06:14.56	0.84	8.07	-39.5	-51.3	3.8	8.47e-01	0	56	104	1798307840	51	13381
2026-01-06 10:06:15.57	0.72	8.01	-39.9	-51.5	3.8	8.47e-01	0	56	104	1798307840	51	13634
2026-01-06 10:06:16.58	0.60	7.95	-42.9	-54.6	3.8	8.47e-01	0	56	104	1798307840	56	14703
2026-01-06 10:06:17.59	0.48	7.90	-44.7	-56.2	3.8	8.46e-01	0	56	104	1798307840	59	14868
2026-01-06 10:06:18.60	0.37	7.84	-44.9	-56.7	3.8	8.45e-01	0	56	104	1798307840	60	14829
2026-01-06 10:06:19.61	0.25	7.78	-45.1	-56.8	3.8	8.47e-01	0	56	104	1798307840	60	15017
2026-01-06 10:06:20.62	0.13	7.73	-45.2	-57.0	3.8	8.47e-01	0	57	104	1798307840	60	15236
2026-01-06 10:06:21.63	0.01	7.67	-45.3	-57.0	3.8	8.47e-01	0	57	104	1798307840	61	14466
2026-01-06 10:06:22.64	359.90	7.61	-45.3	-57.1	3.8	8.45e-01	0	57	104	1798307840	61	14672
2026-01-06 10:06:23.65	359.78	7.55	-45.3	-57.1	3.8	8.46e-01	0	56	104	1798307840	61	14700
2026-01-06 10:06:24.66	359.67	7.50	-45.3	-57.1	3.8	8.46e-01	0	57	104	1798307840	61	14648
2026-01-06 10:06:25.67	359.55	7.44	-45.3	-57.1	3.8	8.47e-01	0	57	104	1798307840	61	14681
2026-01-06 10:06:26.69	359.44	7.38	-45.2	-57.1	3.8	8.46e-01	0	57	104	1798307840	61	14607
2026-01-06 10:06:27.70	359.32	7.33	-45.2	-57.1	3.8	8.47e-01	0	57	104	1798307840	61	14577
2026-01-06 10:06:28.71	359.21	7.27	-45.2	-57.1	3.8	8.46e-01	0	56	104	1798307840	61	14573
2026-01-06 10:06:29.72	359.10	7.21	-45.2	-57.0	3.8	8.46e-01	0	57	104	1798307840	61	14521
2026-01-06 10:06:30.73	358.98	7.15	-45.1	-57.0	3.8	8.46e-01	0	56	104	1798307840	61	14501
2026-01-06 10:06:31.74	358.87	7.10	-45.1	-57.0	3.8	8.47e-01	0	57	104	1798307840	61	14452
2026-01-06 10:06:32.75	358.76	7.04	-45.1	-57.0	3.8	8.47e-01	0	56	104	1798307840	61	14458
2026-01-06 10:06:33.76	358.65	6.98	-45.1	-56.9	3.8	8.46e-01	0	56	104	1798307840	61	14359
2026-01-06 10:06:34.77	358.54	6.93	-45.1	-57.0	3.8	8.46e-01	0	56	104	1798307840	61	14486
2026-01-06 10:06:35.78	358.43	6.87	-45.1	-57.0	3.8	8.47e-01	0	57	104	1798307840	61	14484
2026-01-06 10:06:36.79	358.32	6.81	-45.1	-57.0	3.8	8.46e-01	0	56	104	1798307840	61	14439
2026-01-06 10:06:37.80	358.21	6.76	-45.1	-57.0	3.8	8.45e-01	0	56	104	1798307840	61	14433
2026-01-06 10:06:38.81	358.10	6.70	-45.1	-56.9	3.8	8.47e-01	0	57	104	1798307840	61	14370
2026-01-06 10:06:39.82	357.99	6.64	-45.1	-57.0	3.8	8.46e-01	0	57	104	1798307840	61	14394
2026-01-06 10:06:40.84	357.88	6.59	-45.1	-57.0	3.8	8.45e-01	0	57	104	1798307840	61	14458
2026-01-06 10:06:41.85	357.78	6.53	-45.1	-57.0	3.8	8.46e-01	0	57	104	1798307840	61	14393
2026-01-06 10:06:42.86	357.67	6.47	-45.1	-57.0	3.8	8.47e-01	0	56	104	1798307840	61	14431
2026-01-06 10:06:43.87	357.56	6.42	-45.1	-57.0	3.8	8.46e-01	0	56	104	1798307840	61	14403
2026-01-06 10:06:44.88	357.45	6.36	-45.1	-57.0	3.8	8.46e-01	0	56	104	1798307840	61	14378
2026-01-06 10:06:45.89	357.35	6.30	-45.1	-56.9	3.8	8.47e-01	0	56	104	1798307840	61	14368
2026-01-06 10:06:46.90	357.24	6.25	-45.0	-56.9	3.8	8.46e-01	0	57	104	1798307840	61	14370
2026-01-06 10:06:47.90	357.14	6.19	-45.0	-56.9	3.8	8.45e-01	0	57	104	1798307840	61	14332
2026-01-06 10:06:48.91	357.03	6.13	-45.1	-56.9	3.8	8.46e-01	0	57	104	1798307840	61	14352
2026-01-06 10:06:49.92	356.93	6.08	-45.1	-56.9	3.8	8.46e-01	0	56	104	1798307840	61	14347
2026-01-06 10:06:50.93	356.83	6.02	-45.1	-56.9	3.8	8.47e-01	0	56	104	1798307840	61	14369
2026-01-06 10:06:51.94	356.72	5.97	-45.0	-57.0	3.8	8.47e-01	0	57	104	1798307840	61	14414
2026-01-06 10:06:52.95	356.62	5.91	-45.1	-57.0	3.8	8.46e-01	0	57	104	1798307840	61	14396
2026-01-06 10:06:53.96	356.52	5.85	-45.1	-56.9	3.8	8.45e-01	0	57	104	1798307840	61	14360
2026-01-06 10:06:54.97	356.42	5.80	-45.0	-56.9	3.8	8.46e-01	0	56	104	1798307840	61	14310
2026-01-06 10:06:55.98	356.31	5.74	-45.1	-57.0	3.8	8.46e-01	0	56	104	1798307840	61	14377
2026-01-06 10:06:56.99	356.21	5.68	-45.1	-56.9	3.8	8.47e-01	0	57	104	1798307840	61	14308
2026-01-06 10:06:58.00	356.11	5.63	-45.0	-56.9	3.8	8.46e-01	0	56	104	1798307840	61	14344
2026-01-06 10:06:59.01	356.01	5.57	-45.1	-56.9	3.8	8.46e-01	0	56	104	1798307840	61	14355
2026-01-06 10:07:00.02	355.91	5.52	-45.1	-56.9	3.8	8.45e-01	0	56	104	1798307840	61	14326
2026-01-06 10:07:01.03	355.81	5.46	-45.1	-56.9	3.8	8.46e-01	0	56	104	1798307840	61	14368
2026-01-06 10:07:02.04	355.71	5.40	-45.1	-56.9	3.8	8.46e-01	0	57	104	1798307840	61	14318
2026-01-06 10:07:03.06	355.61	5.35	-45.0	-56.9	3.8	8.45e-01	0	56	104	1798307840	61	14352
2026-01-06 10:07:04.07	355.51	5.29	-45.1	-56.9	3.8	8.47e-01	0	57	104	1798307840	61	14292
2026-01-06 10:07:05.08	355.42	5.24	-45.1	-56.9	3.8	8.46e-01	0	56	104	1798307840	61	14327
2026-01-06 10:07:06.09	355.32	5.18	-45.0	-56.9	3.8	8.45e-01	0	56	104	1798307840	61	14306
2026-01-06 10:07:07.10	355.22	5.12	-45.0	-56.9	3.8	8.47e-01	0	56	104	1798307840	61	14357
2026-01-06 10:07:08.11	355.12	5.07	-45.0	-56.9	3.8	8.46e-01	0	56	104	1798307840	61	14360
2026-01-06 10:07:09.12	355.03	5.01	-45.0	-56.9	3.8	8.46e-01	0	56	104	1798307840	61	14315
2026-01-06 10:07:10.13	354.93	4.96	-45.0	-56.9	3.8	8.46e-01	0	57	104	1798307840	61	14285
2026-01-06 10:07:11.14	354.83	4.90	-45.0	-56.9	3.8	8.46e-01	0	57	104	1798307840	61	14293
2026-01-06 10:07:12.16	354.74	4.84	-45.0	-56.9	3.8	8.46e-01	0	57	104	1798307840	61	14343
2026-01-06 10:07:13.17	354.64	4.79	-45.0	-56.9	3.8	8.46e-01	0	56	104	1798307840	61	14318
2026-01-06 10:07:14.18	354.55	4.73	-45.1	-56.9	3.8	8.45e-01	0	57	104	1798307840	61	14317
2026-01-06 10:07:15.19	354.45	4.68	-45.0	-56.9	3.8	8.46e-01	0	56	104	1798307840	61	14352
2026-01-06 10:07:16.20	354.36	4.62	-45.0	-56.9	3.8	8.46e-01	0	57	104	1798307840	61	14359
2026-01-06 10:07:17.21	354.27	4.57	-45.0	-56.9	3.8	8.46e-01	0	57	104	1798307840	61	14347
2026-01-06 10:07:18.22	354.17	4.51	-45.0	-56.9	3.8	8.48e-01	0	57	104	1798307840	61	14338
2026-01-06 10:07:19.23	354.08	4.46	-45.0	-56.9	3.8	8.45e-01	0	56	104	1798307840	61	14322
2026-01-06 10:07:20.24	353.99	4.40	-45.0	-56.9	3.8	8.46e-01	0	57	104	1798307840	61	14303
2026-01-06 10:07:21.25	353.90	4.35	-45.0	-56.9	3.8	8.47e-01	0	57	104	1798307840	61	14347
2026-01-06 10:07:22.26	353.80	4.29	-45.0	-56.9	3.8	8.46e-01	0	57	104	1798307840	61	14286
2026-01-06 10:07:23.27	353.71	4.24	-45.0	-56.9	3.8	8.46e-01	0	57	104	1798307840	61	14286
2026-01-06 10:07:24.28	353.62	4.18	-45.0	-56.9	3.8	8.46e-01	0	57	104	1798307840	61	14326
2026-01-06 10:07:25.29	353.53	4.13	-45.0	-56.9	3.8	8.45e-01	0	56	104	1798307840	61	14253
2026-01-06 10:07:26.30	353.44	4.07	-45.0	-56.9	3.8	8.46e-01	0	57	104	1798307840	61	14340
2026-01-06 10:07:27.31	353.35	4.02	-45.0	-56.9	3.8	8.46e-01	0	57	104	1798307840	61	14305
2026-01-06 10:07:28.32	353.26	3.96	-45.0	-56.9	3.8	8.45e-01	0	56	104	1798307840	61	14292
2026-01-06 10:07:29.33	353.17	3.91	-45.0	-56.9	3.8	8.47e-01	0	57	104	1798307840	61	14299
2026-01-06 10:07:30.34	353.08	3.85	-45.0	-56.9	3.8	8.46e-01	0	57	104	1798307840	61	14289
2026-01-06 10:07:31.35	352.99	3.80	-45.0	-56.9	3.8	8.45e-01	0	57	104	1798307840	61	14313
2026-01-06 10:07:32.36	352.91	3.74	-45.0	-56.9	3.8	8.46e-01	0	57	104	1798307840	61	14296
2026-01-06 10:07:33.38	352.82	3.69	-45.0	-56.9	3.8	8.47e-01	0	57	104	1798307840	61	14292
2026-01-06 10:07:34.39	352.73	3.63	-45.0	-56.9	3.8	8.46e-01	0	57	104	1798307840	61	14323
2026-01-06 10:07:35.40	352.64	3.58	-45.0	-56.9	3.8	8.46e-01	0	57	104	1798307840	61	14286
2026-01-06 10:07:36.41	352.56	3.52	-45.0	-56.9	3.8	8.47e-01	0	57	104	1798307840	61	14282
2026-01-06 10:07:37.42	352.47	3.47	-45.0	-56.9	3.8	8.46e-01	0	57	104	1798307840	61	14302
2026-01-06 10:07:38.43	352.38	3.41	-45.0	-56.9	3.8	8.47e-01	0	57	104	1798307840	61	14301
2026-01-06 10:07:39.44	352.30	3.36	-45.0	-56.9	3.8	8.46e-01	0	57	104	1798307840	61	14297
2026-01-06 10:07:40.45	352.21	3.30	-45.0	-56.9	3.8	8.46e-01	0	57	104	1798307840	61	14251
2026-01-06 10:07:41.46	352.13	3.25	-45.0	-56.9	3.8	8.46e-01	0	57	104	1798307840	61	14342
2026-01-06 10:07:42.47	352.04	3.20	-45.0	-56.9	3.8	8.46e-01	0	57	104	1798307840	61	14298
2026-01-06 10:07:43.48	351.96	3.14	-45.0	-56.9	3.8	8.46e-01	0	57	104	1798307840	61	14278
2026-01-06 10:07:44.49	351.87	3.09	-45.0	-56.9	3.8	8.46e-01	0	57	104	1798307840	61	14290
2026-01-06 10:07:45.51	351.79	3.03	-45.0	-56.9	3.8	8.47e-01	0	57	104	1798307840	61	14333
2026-01-06 10:07:46.52	351.70	2.98	-45.0	-56.9	3.8	8.45e-01	0	57	104	1798307840	61	14328
2026-01-06 10:07:47.53	351.62	2.93	-45.0	-56.9	3.8	8.46e-01	0	56	104	1798307840	61	14307
2026-01-06 10:07:48.54	351.54	2.87	-45.0	-56.9	3.8	8.47e-01	0	57	104	1798307840	61	14313
2026-01-06 10:07:49.55	351.45	2.82	-45.0	-56.9	3.8	8.46e-01	0	57	104	1798307840	61	14316
2026-01-06 10:07:50.56	351.37	2.76	-45.0	-56.9	3.8	8.46e-01	0	57	104	1798307840	61	14296
2026-01-06 10:07:51.57	351.29	2.71	-45.0	-56.9	3.8	8.48e-01	0	56	104	1798307840	61	14255
2026-01-06 10:07:52.58	351.21	2.66	-45.0	-56.9	3.8	8.46e-01	0	57	104	1798307840	61	14298
2026-01-06 10:07:53.59	351.13	2.60	-45.0	-56.9	3.8	8.46e-01	0	57	104	1798307840	61	14281
2026-01-06 10:07:54.61	351.05	2.55	-45.0	-56.9	3.8	8.46e-01	0	56	104	1798307840	61	14277
2026-01-06 10:07:55.62	350.97	2.49	-45.0	-56.9	3.8	8.48e-01	0	57	104	1798307840	61	14275
2026-01-06 10:07:56.63	350.88	2.44	-45.0	-56.9	3.8	8.46e-01	0	57	104	1798307840	61	14240
2026-01-06 10:07:57.64	350.80	2.39	-45.0	-56.9	3.8	8.46e-01	0	56	104	1798307840	61	14281
2026-01-06 10:07:58.65	350.72	2.33	-45.0	-56.9	3.8	8.46e-01	0	57	104	1798307840	61	14309
2026-01-06 10:07:59.66	350.65	2.28	-45.0	-56.9	3.8	8.47e-01	0	57	104	1798307840	61	14300
2026-01-06 10:08:00.67	350.57	2.23	-45.0	-56.9	3.8	8.46e-01	0	57	104	1798307840	61	14332
2026-01-06 10:08:01.68	350.49	2.17	-45.0	-56.9	3.8	8.45e-01	0	57	104	1798307840	61	14348
2026-01-06 10:08:02.69	350.41	2.12	-45.0	-56.9	3.8	8.48e-01	0	56	104	1798307840	61	14286
2026-01-06 10:08:03.70	350.33	2.07	-45.0	-56.9	3.8	8.47e-01	0	57	104	1798307840	61	14273
2026-01-06 10:08:04.71	350.25	2.01	-45.0	-56.9	3.8	8.46e-01	0	57	104	1798307840	61	14295
2026-01-06 10:08:05.72	350.17	1.96	-45.0	-56.9	3.8	8.46e-01	0	57	104	1798307840	61	14295

#Closed at: 2026-01-06 10:08:06
#Recorded file [1798 MB]: D:/lorett/data/31039_260106_125619.dat