passes_logs/2026/01/06/R2.0S_Moscow/R2.0S_Moscow__20260106_235444_NOAA_21_JPSS-2_rec.log

#Pass ID: 20260106_235444_NOAA 21 (JPSS-2)
#Satellite: NOAA 21 (JPSS-2)
#Configuration: NOAA-21
#almurnet v.1.7.20251203
#Start time: 2026-01-06 23:54:47

#Version: 2.2.20231116
#Station: R2.0S_Moscow
#Location: 37.707566 lon 55.798166 lat
#TLE: 1 54234U 22150A   26005.56767909  .00000152  00000+0  92756-4 0  9990
#TLE: 2 54234  98.7490 306.5820 0001036 340.2747  19.8389 14.19532370163472

#Time	Az	El	Level	Level2	SNR	BER	BlckErr	Temp	State	Recorded	gain1	gain2
2026-01-06 23:54:47.02	15.07	2.15	-42.9	-55.4	3.8	1.49e+00	0	47	0	0	57	15160
2026-01-06 23:54:48.02	15.07	2.21	-42.9	-55.4	3.8	1.49e+00	0	48	104	0	57	15186
2026-01-06 23:54:49.03	15.06	2.28	-42.9	-55.4	3.8	1.49e+00	0	48	104	0	57	15194
2026-01-06 23:54:50.04	15.05	2.34	-42.9	-55.4	3.8	1.49e+00	0	48	104	0	57	15181
2026-01-06 23:54:51.05	15.04	2.41	-42.9	-55.4	3.8	1.49e+00	0	48	104	0	57	15175
2026-01-06 23:54:52.06	15.04	2.47	-42.9	-55.4	3.8	1.49e+00	0	48	104	0	57	15202
2026-01-06 23:54:53.07	15.03	2.54	-42.9	-55.4	3.8	1.49e+00	0	48	104	0	57	15171
2026-01-06 23:54:54.09	15.02	2.60	-42.9	-55.4	3.8	1.49e+00	0	48	104	0	57	15186
2026-01-06 23:54:55.10	15.01	2.67	-42.9	-55.4	3.8	1.49e+00	0	48	104	0	57	15140
2026-01-06 23:54:56.11	15.01	2.74	-42.9	-55.4	3.8	1.49e+00	0	48	104	0	57	15192
2026-01-06 23:54:57.12	15.00	2.80	-43.0	-55.4	3.8	1.49e+00	0	48	104	0	57	15149
2026-01-06 23:54:58.13	14.99	2.87	-42.9	-55.4	3.8	1.49e+00	0	48	104	0	57	15134
2026-01-06 23:54:59.14	14.98	2.93	-42.9	-55.4	3.8	1.49e+00	0	48	104	0	57	15191
2026-01-06 23:55:00.15	14.98	3.00	-42.9	-55.5	3.8	1.49e+00	0	48	104	0	57	15230
2026-01-06 23:55:01.16	14.97	3.07	-42.9	-55.4	3.8	1.49e+00	0	49	104	0	57	15162
2026-01-06 23:55:02.17	14.96	3.13	-42.9	-55.4	3.8	1.49e+00	0	49	104	0	57	15157
2026-01-06 23:55:03.18	14.95	3.20	-42.9	-55.4	3.8	1.49e+00	0	49	104	0	57	15078
2026-01-06 23:55:04.19	14.95	3.27	-42.9	-55.4	3.8	1.49e+00	0	49	104	0	57	15168
2026-01-06 23:55:05.20	14.94	3.34	-42.9	-55.4	3.8	1.49e+00	0	49	104	0	57	15193
2026-01-06 23:55:06.21	14.93	3.40	-43.0	-55.4	3.8	1.49e+00	0	49	104	0	57	15208
2026-01-06 23:55:07.22	14.92	3.47	-42.9	-55.4	3.8	1.49e+00	0	49	104	0	57	15172
2026-01-06 23:55:08.23	14.91	3.54	-42.9	-55.4	3.8	1.49e+00	0	49	104	0	57	15174
2026-01-06 23:55:09.24	14.91	3.61	-42.9	-55.4	3.8	1.49e+00	0	49	104	0	57	15153
2026-01-06 23:55:10.25	14.90	3.67	-42.9	-55.4	3.8	1.49e+00	0	49	104	0	57	15218
2026-01-06 23:55:11.26	14.89	3.74	-42.9	-55.4	3.8	1.49e+00	0	49	104	0	57	15138
2026-01-06 23:55:12.27	14.88	3.81	-42.9	-55.4	3.8	1.49e+00	0	49	104	0	57	15137
2026-01-06 23:55:13.28	14.87	3.88	-42.9	-55.4	3.8	1.49e+00	0	49	104	0	57	15126
2026-01-06 23:55:14.29	14.86	3.95	-42.9	-55.4	3.8	1.49e+00	0	49	104	0	57	15161
2026-01-06 23:55:15.30	14.86	4.02	-42.9	-55.4	3.8	1.49e+00	0	49	104	0	57	15161
2026-01-06 23:55:16.31	14.85	4.09	-42.9	-55.4	3.8	1.49e+00	0	49	104	0	57	15182
2026-01-06 23:55:17.32	14.84	4.16	-42.9	-55.4	3.8	1.49e+00	0	50	104	0	57	15142
2026-01-06 23:55:18.33	14.83	4.23	-43.0	-55.4	3.8	1.49e+00	0	50	104	0	57	15219
2026-01-06 23:55:19.34	14.82	4.30	-42.9	-55.4	3.8	1.49e+00	0	50	104	0	57	15188
2026-01-06 23:55:20.35	14.81	4.37	-42.9	-55.4	3.8	1.49e+00	0	50	104	0	57	15132
2026-01-06 23:55:21.36	14.80	4.44	-42.9	-55.4	3.8	1.49e+00	0	50	104	0	57	15180
2026-01-06 23:55:22.38	14.79	4.51	-42.9	-55.4	3.8	1.49e+00	0	50	104	0	57	15162
2026-01-06 23:55:23.39	14.78	4.58	-42.9	-55.4	3.8	1.49e+00	0	50	104	0	57	15184
2026-01-06 23:55:24.40	14.78	4.65	-42.9	-55.4	3.8	1.49e+00	0	50	104	0	57	15129
2026-01-06 23:55:25.41	14.77	4.72	-42.9	-55.4	3.8	1.49e+00	0	50	104	0	57	15122
2026-01-06 23:55:26.42	14.76	4.79	-42.9	-55.4	3.8	1.49e+00	0	50	104	0	57	15171
2026-01-06 23:55:27.43	14.75	4.86	-42.9	-55.4	3.8	1.49e+00	0	50	104	0	57	15082
2026-01-06 23:55:28.44	14.74	4.93	-42.9	-55.4	3.8	1.49e+00	0	50	104	0	57	15109
2026-01-06 23:55:29.45	14.73	5.00	-42.9	-55.4	3.8	1.49e+00	0	50	104	0	57	15176
2026-01-06 23:55:30.46	14.72	5.08	-42.9	-55.3	3.8	1.49e+00	0	51	104	0	57	14948
2026-01-06 23:55:31.47	14.71	5.15	-42.9	-55.3	3.8	1.49e+00	0	50	104	0	57	14994
2026-01-06 23:55:32.48	14.70	5.22	-42.9	-55.4	3.8	1.49e+00	0	50	104	0	57	15180
2026-01-06 23:55:33.49	14.69	5.29	-42.9	-55.3	3.8	1.49e+00	0	51	104	0	57	14994
2026-01-06 23:55:34.50	14.68	5.36	-42.9	-55.2	3.8	1.49e+00	0	50	104	0	57	14723
2026-01-06 23:55:35.51	14.67	5.44	-42.9	-55.3	3.8	1.49e+00	0	51	104	0	57	14931
2026-01-06 23:55:36.52	14.66	5.51	-42.9	-55.4	3.8	1.49e+00	0	51	104	0	57	15145
2026-01-06 23:55:37.53	14.65	5.58	-42.9	-55.3	3.8	1.49e+00	0	51	104	0	57	14930
2026-01-06 23:55:38.54	14.64	5.66	-42.9	-55.0	3.8	1.49e+00	0	51	104	0	57	14537
2026-01-06 23:55:39.55	14.63	5.73	-42.9	-55.1	3.8	1.49e+00	0	51	104	0	57	14618
2026-01-06 23:55:40.56	14.62	5.80	-42.9	-55.3	3.8	1.49e+00	0	51	104	0	57	14911
2026-01-06 23:55:41.57	14.61	5.88	-42.9	-55.4	3.8	1.49e+00	0	51	104	0	57	15105
2026-01-06 23:55:42.59	14.60	5.95	-42.9	-55.3	3.8	1.49e+00	0	51	104	0	57	14998
2026-01-06 23:55:43.60	14.59	6.03	-42.9	-55.2	3.8	1.49e+00	0	51	104	0	57	14731
2026-01-06 23:55:44.61	14.58	6.10	-42.9	-55.2	3.8	1.49e+00	0	51	104	0	57	14730
2026-01-06 23:55:45.62	14.57	6.18	-42.9	-55.2	3.8	1.49e+00	0	51	104	0	57	14783
2026-01-06 23:55:46.63	14.56	6.25	-42.9	-55.1	3.8	1.49e+00	0	51	104	0	57	14698
2026-01-06 23:55:47.64	14.55	6.33	-42.9	-54.9	3.8	1.49e+00	0	51	104	0	57	14285
2026-01-06 23:55:48.65	14.54	6.40	-42.8	-54.4	3.8	1.49e+00	0	51	104	0	57	13551
2026-01-06 23:55:49.66	14.52	6.48	-42.8	-53.8	3.8	1.49e+00	0	51	104	0	57	12654
2026-01-06 23:55:50.67	14.51	6.55	-42.7	-53.0	3.8	1.48e+00	0	51	104	0	57	11531
2026-01-06 23:55:51.68	14.50	6.63	-42.6	-51.7	4.2	1.47e+00	0	51	104	0	57	9887
2026-01-06 23:55:52.69	14.49	6.71	-42.4	-50.6	4.6	1.33e+00	2	51	104	0	56	9269
2026-01-06 23:55:53.70	14.48	6.78	-42.2	-49.8	5.0	7.00e-01	0	52	0	1048576	56	8420
2026-01-06 23:55:54.71	14.47	6.86	-42.0	-48.6	5.8	5.01e-01	0	52	0	4194304	56	7289
2026-01-06 23:55:55.72	14.46	6.94	-41.5	-47.3	6.7	2.31e-01	0	51	0	7340032	55	6670
2026-01-06 23:55:56.73	14.45	7.01	-41.0	-45.8	8.2	9.93e-02	0	52	0	10485760	54	5952
2026-01-06 23:55:57.74	14.43	7.09	-40.3	-44.3	9.6	1.69e-02	0	52	0	13631488	52	5635
2026-01-06 23:55:58.76	14.42	7.17	-39.8	-43.2	10.9	3.27e-03	0	52	0	16777216	51	5225
2026-01-06 23:55:59.77	14.41	7.25	-39.1	-42.0	12.2	3.15e-04	0	52	0	19922944	50	4839
2026-01-06 23:56:00.78	14.40	7.33	-38.6	-41.1	13.0	6.56e-05	0	52	0	23068672	49	4642
2026-01-06 23:56:01.79	14.39	7.40	-38.4	-40.9	13.3	2.05e-05	0	52	0	26214400	48	4783
2026-01-06 23:56:02.80	14.38	7.48	-38.8	-41.4	12.7	2.74e-05	0	52	0	29360128	48	5100
2026-01-06 23:56:03.81	14.36	7.56	-39.0	-41.8	12.4	1.35e-04	0	52	0	32505856	48	5287
2026-01-06 23:56:04.82	14.35	7.64	-39.1	-42.1	12.1	3.08e-04	0	52	0	35651584	48	5469
2026-01-06 23:56:05.83	14.34	7.72	-38.6	-41.2	12.9	5.64e-05	0	52	0	38797312	48	4971
2026-01-06 23:56:06.84	14.33	7.80	-38.5	-41.1	13.1	2.67e-05	0	52	0	41943040	48	4886
2026-01-06 23:56:07.86	14.31	7.88	-38.9	-41.6	12.5	9.38e-05	0	52	0	45088768	48	5218
2026-01-06 23:56:08.87	14.30	7.96	-39.4	-42.4	11.7	2.79e-04	0	52	0	48234496	49	5384
2026-01-06 23:56:09.88	14.29	8.04	-39.3	-42.3	11.8	4.98e-04	0	52	0	51380224	49	5333
2026-01-06 23:56:10.89	14.28	8.12	-39.3	-42.1	12.3	9.53e-05	0	52	0	54525952	49	5178
2026-01-06 23:56:11.90	14.26	8.20	-40.7	-44.7	9.6	3.25e-03	0	52	0	57671680	51	6208
2026-01-06 23:56:12.91	14.25	8.28	-40.5	-44.3	9.8	1.37e-03	0	52	0	60817408	51	5966
2026-01-06 23:56:13.92	14.24	8.36	-39.9	-42.9	11.5	3.20e-04	0	52	0	63963136	50	5397
2026-01-06 23:56:14.93	14.22	8.45	-41.8	-52.3	3.9	5.81e-01	0	52	104	67108864	54	12526
2026-01-06 23:56:15.94	14.21	8.53	-39.0	-41.5	12.8	9.08e-01	0	52	0	67108864	50	4596
2026-01-06 23:56:16.95	14.20	8.61	-38.8	-41.3	13.1	3.58e-05	0	52	0	70254592	49	4736
2026-01-06 23:56:17.96	14.18	8.69	-38.7	-41.1	13.4	2.51e-05	0	52	0	73400320	49	4618
2026-01-06 23:56:18.97	14.17	8.78	-38.7	-41.1	13.4	1.83e-05	0	53	0	76546048	49	4632
2026-01-06 23:56:19.98	14.16	8.86	-38.8	-41.2	13.3	2.28e-05	0	53	0	79691776	49	4681
2026-01-06 23:56:20.99	14.14	8.94	-38.7	-41.2	13.4	2.21e-05	0	53	0	82837504	49	4659
2026-01-06 23:56:22.00	14.13	9.03	-38.7	-41.1	13.5	1.06e-05	0	53	0	85983232	49	4604
2026-01-06 23:56:23.01	14.12	9.11	-38.6	-40.9	13.6	6.10e-06	0	52	0	89128960	49	4515
2026-01-06 23:56:24.02	14.10	9.19	-38.6	-40.9	13.6	6.80e-06	0	53	0	92274688	49	4529
2026-01-06 23:56:25.02	14.09	9.28	-38.5	-40.8	13.8	1.50e-06	0	53	0	95420416	48	4711
2026-01-06 23:56:26.03	14.07	9.36	-38.4	-40.7	13.9	6.10e-06	0	53	0	98566144	48	4661
2026-01-06 23:56:27.04	14.06	9.45	-38.4	-40.7	13.9	3.00e-06	0	53	0	101711872	48	4673
2026-01-06 23:56:28.05	14.05	9.53	-38.5	-40.7	13.9	6.10e-06	0	53	0	104857600	48	4699
2026-01-06 23:56:29.06	14.03	9.62	-38.5	-40.8	13.9	3.80e-06	0	53	0	108003328	48	4707
2026-01-06 23:56:30.07	14.02	9.70	-38.6	-40.9	13.8	6.10e-06	0	53	0	111149056	48	4762
2026-01-06 23:56:31.08	14.00	9.79	-38.5	-40.7	13.9	5.30e-06	0	53	0	114294784	48	4696
2026-01-06 23:56:32.09	13.99	9.88	-38.5	-40.8	13.8	4.50e-06	0	53	0	117440512	48	4736
2026-01-06 23:56:33.10	13.97	9.96	-38.5	-40.7	13.9	4.50e-06	0	53	0	120586240	48	4679
2026-01-06 23:56:34.11	13.96	10.05	-38.4	-40.7	14.0	4.50e-06	0	53	0	123731968	48	4657
2026-01-06 23:56:35.12	13.94	10.14	-38.4	-40.6	14.1	2.20e-06	0	53	0	126877696	48	4605
2026-01-06 23:56:36.13	13.93	10.23	-38.3	-40.5	14.2	3.80e-06	0	53	0	130023424	48	4561
2026-01-06 23:56:37.14	13.91	10.31	-38.3	-40.5	14.2	0.00e+00	0	53	0	133169152	48	4561
2026-01-06 23:56:38.15	13.89	10.40	-38.3	-40.5	14.2	7.00e-07	0	53	0	136314880	48	4556
2026-01-06 23:56:39.16	13.88	10.49	-38.3	-40.4	14.4	7.00e-07	0	53	0	139460608	48	4505
2026-01-06 23:56:40.17	13.86	10.58	-38.3	-40.4	14.4	0.00e+00	0	53	0	142606336	48	4512
2026-01-06 23:56:41.18	13.85	10.67	-38.2	-40.2	14.6	7.00e-07	0	53	0	145752064	48	4411
2026-01-06 23:56:42.19	13.83	10.76	-38.1	-40.2	14.6	7.00e-07	0	53	0	148897792	48	4405
2026-01-06 23:56:43.20	13.81	10.85	-38.1	-40.1	14.7	0.00e+00	0	53	0	152043520	48	4386
2026-01-06 23:56:44.21	13.80	10.94	-38.1	-40.1	14.7	7.00e-07	0	53	0	155189248	48	4380
2026-01-06 23:56:45.22	13.78	11.03	-38.1	-40.1	14.8	7.00e-07	0	53	0	158334976	48	4362
2026-01-06 23:56:46.23	13.77	11.12	-38.2	-40.2	14.7	0.00e+00	0	53	0	161480704	48	4410
2026-01-06 23:56:47.24	13.75	11.21	-38.1	-40.2	14.7	1.50e-06	0	53	0	164626432	48	4393
2026-01-06 23:56:48.25	13.73	11.30	-38.1	-40.2	14.7	0.00e+00	0	53	0	167772160	48	4396
2026-01-06 23:56:49.26	13.72	11.39	-38.1	-40.1	14.8	1.50e-06	0	53	0	170917888	48	4370
2026-01-06 23:56:50.26	13.70	11.49	-38.1	-40.2	14.7	0.00e+00	0	53	0	174063616	48	4398
2026-01-06 23:56:51.28	13.68	11.58	-38.1	-40.1	14.8	0.00e+00	0	53	0	177209344	48	4355
2026-01-06 23:56:52.29	13.66	11.67	-38.1	-40.1	14.8	0.00e+00	0	53	0	180355072	48	4345
2026-01-06 23:56:53.30	13.65	11.76	-38.1	-40.0	14.9	0.00e+00	0	53	0	183500800	48	4340
2026-01-06 23:56:54.31	13.63	11.86	-38.0	-40.0	14.9	0.00e+00	0	53	0	186646528	48	4315
2026-01-06 23:56:55.32	13.61	11.95	-38.0	-40.0	14.9	7.00e-07	0	54	0	189792256	48	4298
2026-01-06 23:56:56.33	13.59	12.05	-37.9	-39.9	15.0	0.00e+00	0	54	0	192937984	47	4512
2026-01-06 23:56:57.34	13.57	12.14	-37.8	-39.7	15.1	0.00e+00	0	54	0	196083712	47	4433
2026-01-06 23:56:58.35	13.56	12.24	-37.8	-39.8	15.0	0.00e+00	0	54	0	199229440	47	4465
2026-01-06 23:56:59.36	13.54	12.33	-37.8	-39.8	15.1	0.00e+00	0	53	0	202375168	47	4459
2026-01-06 23:57:00.37	13.52	12.43	-37.8	-39.7	15.2	0.00e+00	0	54	0	205520896	47	4422
2026-01-06 23:57:01.38	13.50	12.52	-37.8	-39.7	15.1	0.00e+00	0	54	0	208666624	47	4438
2026-01-06 23:57:02.39	13.48	12.62	-37.8	-39.8	15.1	0.00e+00	0	54	0	211812352	47	4452
2026-01-06 23:57:03.40	13.46	12.72	-37.8	-39.7	15.2	0.00e+00	0	54	0	214958080	47	4440
2026-01-06 23:57:04.41	13.44	12.82	-37.9	-39.8	15.2	0.00e+00	0	54	0	218103808	47	4459
2026-01-06 23:57:05.42	13.43	12.91	-37.8	-39.8	15.2	0.00e+00	0	54	0	221249536	47	4455
2026-01-06 23:57:06.43	13.41	13.01	-37.8	-39.7	15.3	0.00e+00	0	54	0	224395264	47	4409
2026-01-06 23:57:07.45	13.39	13.11	-37.9	-39.8	15.3	0.00e+00	0	54	0	227540992	47	4449
2026-01-06 23:57:08.46	13.37	13.21	-37.8	-39.7	15.3	0.00e+00	0	54	0	230686720	47	4415
2026-01-06 23:57:09.47	13.35	13.31	-37.8	-39.7	15.4	7.00e-07	0	54	0	233832448	47	4394
2026-01-06 23:57:10.48	13.33	13.41	-37.7	-39.6	15.5	0.00e+00	0	54	0	236978176	47	4366
2026-01-06 23:57:11.49	13.31	13.51	-37.7	-39.6	15.5	0.00e+00	0	54	0	240123904	47	4362
2026-01-06 23:57:12.50	13.29	13.61	-37.7	-39.5	15.6	0.00e+00	0	54	0	243269632	47	4335
2026-01-06 23:57:13.51	13.27	13.71	-37.7	-39.5	15.6	0.00e+00	0	54	0	246415360	47	4325
2026-01-06 23:57:14.52	13.24	13.81	-37.7	-39.5	15.6	0.00e+00	0	54	0	249561088	47	4315
2026-01-06 23:57:15.53	13.22	13.91	-37.7	-39.5	15.6	0.00e+00	0	54	0	252706816	47	4312
2026-01-06 23:57:16.54	13.20	14.02	-37.6	-39.4	15.7	0.00e+00	0	54	0	255852544	47	4284
2026-01-06 23:57:17.55	13.18	14.12	-37.7	-39.5	15.6	0.00e+00	0	54	0	258998272	47	4306
2026-01-06 23:57:18.56	13.16	14.22	-37.6	-39.4	15.7	0.00e+00	0	54	0	262144000	47	4277
2026-01-06 23:57:19.57	13.14	14.32	-37.6	-39.4	15.7	0.00e+00	0	54	0	265289728	47	4290
2026-01-06 23:57:20.58	13.12	14.43	-37.5	-39.3	15.8	0.00e+00	0	54	0	268435456	47	4220
2026-01-06 23:57:21.59	13.10	14.53	-37.5	-39.3	15.9	0.00e+00	0	54	0	271581184	46	4448
2026-01-06 23:57:22.60	13.07	14.64	-37.5	-39.3	15.8	0.00e+00	0	54	0	274726912	46	4470
2026-01-06 23:57:23.61	13.05	14.74	-37.6	-39.4	15.8	0.00e+00	0	54	0	277872640	46	4515
2026-01-06 23:57:24.62	13.03	14.85	-37.6	-39.4	15.8	0.00e+00	0	54	0	281018368	46	4507
2026-01-06 23:57:25.63	13.01	14.95	-37.6	-39.4	15.8	0.00e+00	0	54	0	285212672	46	4495
2026-01-06 23:57:26.64	12.98	15.06	-37.6	-39.4	15.8	0.00e+00	0	54	0	287309824	46	4509
2026-01-06 23:57:27.65	12.96	15.17	-37.6	-39.4	15.8	0.00e+00	0	55	0	290455552	46	4496
2026-01-06 23:57:28.67	12.94	15.28	-37.5	-39.2	15.9	0.00e+00	0	54	0	293601280	46	4433
2026-01-06 23:57:29.68	12.91	15.39	-37.6	-39.4	15.9	0.00e+00	0	55	0	297795584	46	4497
2026-01-06 23:57:30.69	12.89	15.49	-37.6	-39.3	15.9	7.00e-07	0	54	0	300941312	46	4470
2026-01-06 23:57:31.70	12.87	15.60	-37.7	-39.4	15.8	0.00e+00	0	54	0	304087040	46	4540
2026-01-06 23:57:32.71	12.84	15.71	-37.6	-39.4	15.9	0.00e+00	0	54	0	307232768	46	4509
2026-01-06 23:57:33.72	12.82	15.82	-37.6	-39.4	15.9	0.00e+00	0	54	0	309329920	46	4515
2026-01-06 23:57:34.73	12.79	15.93	-37.7	-39.5	15.8	0.00e+00	0	54	0	313524224	46	4563
2026-01-06 23:57:35.74	12.77	16.04	-37.7	-39.4	15.9	0.00e+00	0	54	0	316669952	46	4526
2026-01-06 23:57:36.75	12.74	16.16	-37.7	-39.5	15.8	0.00e+00	0	54	0	319815680	46	4559
2026-01-06 23:57:37.76	12.72	16.27	-37.7	-39.5	15.8	0.00e+00	0	54	0	322961408	46	4561
2026-01-06 23:57:38.77	12.69	16.38	-37.8	-39.5	15.8	0.00e+00	0	55	0	326107136	46	4587
2026-01-06 23:57:39.78	12.67	16.49	-37.8	-39.6	15.8	0.00e+00	0	54	0	329252864	46	4609
2026-01-06 23:57:40.79	12.64	16.61	-37.7	-39.5	15.8	0.00e+00	0	54	0	332398592	46	4587
2026-01-06 23:57:41.80	12.62	16.72	-37.8	-39.6	15.8	0.00e+00	0	54	0	335544320	46	4632
2026-01-06 23:57:42.81	12.59	16.83	-37.9	-39.7	15.7	0.00e+00	0	54	0	338690048	46	4693
2026-01-06 23:57:43.82	12.56	16.95	-37.9	-39.7	15.7	0.00e+00	0	55	0	341835776	46	4662
2026-01-06 23:57:44.83	12.54	17.07	-37.9	-39.7	15.7	0.00e+00	0	55	0	344981504	46	4694
2026-01-06 23:57:45.84	12.51	17.18	-38.0	-39.8	15.6	0.00e+00	0	55	0	348127232	46	4728
2026-01-06 23:57:46.85	12.48	17.30	-37.9	-39.7	15.7	0.00e+00	0	55	0	351272960	46	4688
2026-01-06 23:57:47.86	12.45	17.42	-37.9	-39.8	15.6	0.00e+00	0	54	0	354418688	46	4709
2026-01-06 23:57:48.88	12.43	17.53	-37.9	-39.7	15.7	0.00e+00	0	55	0	357564416	46	4693
2026-01-06 23:57:49.89	12.40	17.65	-38.0	-39.8	15.6	0.00e+00	0	55	0	360710144	46	4721
2026-01-06 23:57:50.90	12.37	17.77	-38.0	-39.8	15.7	0.00e+00	0	55	0	363855872	46	4731
2026-01-06 23:57:51.90	12.34	17.89	-37.9	-39.7	15.7	0.00e+00	0	54	0	367001600	46	4697
2026-01-06 23:57:52.92	12.31	18.01	-37.9	-39.7	15.7	0.00e+00	0	55	0	370147328	46	4690
2026-01-06 23:57:53.93	12.28	18.13	-38.0	-39.8	15.7	0.00e+00	0	55	0	373293056	46	4730
2026-01-06 23:57:54.94	12.26	18.25	-38.0	-39.8	15.7	0.00e+00	0	55	0	376438784	46	4717
2026-01-06 23:57:55.95	12.23	18.38	-38.0	-39.8	15.7	0.00e+00	0	55	0	379584512	46	4715
2026-01-06 23:57:56.96	12.20	18.50	-38.0	-39.8	15.7	0.00e+00	0	55	0	382730240	46	4709
2026-01-06 23:57:57.97	12.17	18.62	-37.9	-39.7	15.8	0.00e+00	0	55	0	385875968	46	4671
2026-01-06 23:57:58.98	12.14	18.75	-38.0	-39.8	15.8	0.00e+00	0	55	0	389021696	46	4713
2026-01-06 23:57:59.99	12.11	18.87	-37.9	-39.7	15.8	0.00e+00	0	55	0	392167424	46	4670
2026-01-06 23:58:01.00	12.07	18.99	-37.9	-39.7	15.9	0.00e+00	0	55	0	395313152	46	4653
2026-01-06 23:58:02.01	12.04	19.12	-37.9	-39.7	15.9	0.00e+00	0	55	0	398458880	46	4668
2026-01-06 23:58:03.02	12.01	19.25	-37.9	-39.6	15.9	0.00e+00	0	55	0	401604608	46	4642
2026-01-06 23:58:04.03	11.98	19.37	-37.8	-39.5	16.0	0.00e+00	0	55	0	404750336	46	4593
2026-01-06 23:58:05.04	11.95	19.50	-37.8	-39.6	16.0	0.00e+00	0	55	0	407896064	46	4599
2026-01-06 23:58:06.05	11.92	19.63	-37.8	-39.5	16.1	0.00e+00	0	55	0	411041792	46	4569
2026-01-06 23:58:07.06	11.88	19.76	-37.8	-39.5	16.1	0.00e+00	0	55	0	414187520	46	4557
2026-01-06 23:58:08.07	11.85	19.89	-37.7	-39.4	16.2	0.00e+00	0	55	0	417333248	46	4505
2026-01-06 23:58:09.08	11.82	20.02	-37.6	-39.3	16.3	0.00e+00	0	55	0	420478976	46	4472
2026-01-06 23:58:10.09	11.78	20.15	-37.6	-39.3	16.3	0.00e+00	0	55	0	423624704	46	4461
2026-01-06 23:58:11.10	11.75	20.28	-37.6	-39.2	16.3	0.00e+00	0	55	0	426770432	46	4432
2026-01-06 23:58:12.11	11.72	20.41	-37.5	-39.2	16.4	0.00e+00	0	55	0	429916160	46	4393
2026-01-06 23:58:13.13	11.68	20.55	-37.4	-39.1	16.5	0.00e+00	0	55	0	433061888	46	4343
2026-01-06 23:58:14.13	11.65	20.68	-37.4	-39.0	16.6	0.00e+00	0	55	0	436207616	46	4315
2026-01-06 23:58:15.14	11.61	20.81	-37.3	-38.9	16.6	0.00e+00	0	55	0	439353344	46	4284
2026-01-06 23:58:16.15	11.58	20.95	-37.2	-38.8	16.8	0.00e+00	0	55	0	442499072	46	4232
2026-01-06 23:58:17.16	11.54	21.08	-37.1	-38.7	16.9	0.00e+00	0	55	0	445644800	46	4171
2026-01-06 23:58:18.17	11.50	21.22	-37.1	-38.7	16.9	0.00e+00	0	55	0	448790528	46	4170
2026-01-06 23:58:19.18	11.47	21.36	-37.0	-38.6	17.0	0.00e+00	0	55	0	451936256	46	4102
2026-01-06 23:58:20.19	11.43	21.49	-36.9	-38.5	17.1	0.00e+00	0	55	0	455081984	45	4294
2026-01-06 23:58:21.20	11.39	21.63	-36.9	-38.4	17.1	0.00e+00	0	55	0	458227712	45	4273
2026-01-06 23:58:22.21	11.36	21.77	-36.9	-38.4	17.2	0.00e+00	0	55	0	461373440	45	4245
2026-01-06 23:58:23.22	11.32	21.91	-36.8	-38.3	17.3	0.00e+00	0	55	0	464519168	45	4220
2026-01-06 23:58:24.23	11.28	22.05	-36.7	-38.2	17.4	0.00e+00	0	55	0	467664896	45	4171
2026-01-06 23:58:25.24	11.24	22.19	-36.7	-38.1	17.4	0.00e+00	0	55	0	470810624	45	4141
2026-01-06 23:58:26.25	11.20	22.34	-36.6	-38.1	17.5	0.00e+00	0	55	0	473956352	45	4118
2026-01-06 23:58:27.26	11.16	22.48	-36.6	-38.1	17.5	0.00e+00	0	55	0	477102080	45	4105
2026-01-06 23:58:28.27	11.12	22.62	-36.5	-38.0	17.6	0.00e+00	0	55	0	480247808	45	4057
2026-01-06 23:58:29.28	11.08	22.77	-36.5	-38.0	17.6	0.00e+00	0	55	0	483393536	45	4054
2026-01-06 23:58:30.29	11.04	22.91	-36.5	-37.9	17.7	0.00e+00	0	55	0	486539264	45	4043
2026-01-06 23:58:31.31	11.00	23.06	-36.5	-37.9	17.7	0.00e+00	0	55	0	489684992	44	4258
2026-01-06 23:58:32.31	10.96	23.21	-36.4	-37.9	17.7	0.00e+00	0	55	0	492830720	44	4250
2026-01-06 23:58:33.32	10.91	23.36	-36.4	-37.8	17.8	0.00e+00	0	55	0	495976448	44	4203
2026-01-06 23:58:34.33	10.87	23.50	-36.4	-37.9	17.8	0.00e+00	0	55	0	499122176	44	4243
2026-01-06 23:58:35.34	10.83	23.65	-36.5	-37.9	17.8	0.00e+00	0	55	0	502267904	44	4255
2026-01-06 23:58:36.35	10.79	23.80	-36.4	-37.8	17.8	0.00e+00	0	55	0	505413632	44	4217
2026-01-06 23:58:37.36	10.74	23.96	-36.5	-37.9	17.7	0.00e+00	0	55	0	508559360	44	4257
2026-01-06 23:58:38.37	10.70	24.11	-36.4	-37.8	17.8	0.00e+00	0	55	0	511705088	44	4236
2026-01-06 23:58:39.38	10.65	24.26	-36.4	-37.8	17.8	0.00e+00	0	55	0	514850816	44	4233
2026-01-06 23:58:40.39	10.61	24.42	-36.4	-37.9	17.8	0.00e+00	0	56	0	517996544	44	4246
2026-01-06 23:58:41.40	10.56	24.57	-36.5	-37.9	17.8	0.00e+00	0	55	0	521142272	44	4255
2026-01-06 23:58:42.41	10.52	24.73	-36.6	-38.0	17.7	0.00e+00	0	55	0	524288000	44	4310
2026-01-06 23:58:43.42	10.47	24.88	-36.6	-38.0	17.6	0.00e+00	0	55	0	527433728	44	4340
2026-01-06 23:58:44.43	10.42	25.04	-36.6	-38.1	17.6	0.00e+00	0	56	0	530579456	44	4354
2026-01-06 23:58:45.44	10.37	25.20	-36.7	-38.2	17.5	0.00e+00	0	56	0	533725184	44	4417
2026-01-06 23:58:46.45	10.33	25.36	-36.8	-38.3	17.4	0.00e+00	0	55	0	536870912	44	4472
2026-01-06 23:58:47.46	10.28	25.52	-36.9	-38.4	17.3	0.00e+00	0	55	0	540016640	44	4529
2026-01-06 23:58:48.47	10.23	25.68	-37.0	-38.5	17.2	0.00e+00	0	56	0	543162368	44	4560
2026-01-06 23:58:49.48	10.18	25.84	-37.0	-38.5	17.2	0.00e+00	0	56	0	546308096	44	4598
2026-01-06 23:58:50.49	10.13	26.01	-37.1	-38.7	17.0	0.00e+00	0	55	0	549453824	44	4671
2026-01-06 23:58:51.50	10.08	26.17	-37.3	-38.9	16.8	0.00e+00	0	55	0	552599552	45	4518
2026-01-06 23:58:52.51	10.02	26.34	-37.4	-39.0	16.7	0.00e+00	0	55	0	555745280	45	4551
2026-01-06 23:58:53.52	9.97	26.50	-37.5	-39.1	16.6	0.00e+00	0	56	0	558891008	45	4646
2026-01-06 23:58:54.53	9.92	26.67	-37.7	-39.3	16.4	0.00e+00	0	55	0	562036736	45	4759
2026-01-06 23:58:55.54	9.87	26.84	-37.8	-39.4	16.3	0.00e+00	0	55	0	565182464	46	4543
2026-01-06 23:58:56.55	9.81	27.01	-37.9	-39.6	16.2	0.00e+00	0	56	0	568328192	46	4615
2026-01-06 23:58:57.56	9.76	27.18	-38.0	-39.7	16.1	0.00e+00	0	56	0	571473920	46	4682
2026-01-06 23:58:58.57	9.70	27.35	-38.1	-39.9	15.9	0.00e+00	0	55	0	574619648	46	4775
2026-01-06 23:58:59.58	9.65	27.52	-38.2	-40.0	15.7	0.00e+00	0	55	0	578813952	47	4583
2026-01-06 23:59:00.59	9.59	27.70	-38.3	-40.1	15.7	0.00e+00	0	56	0	580911104	47	4625
2026-01-06 23:59:01.60	9.53	27.87	-38.4	-40.2	15.6	0.00e+00	0	55	0	584056832	47	4703
2026-01-06 23:59:02.61	9.47	28.05	-38.4	-40.3	15.5	0.00e+00	0	56	0	587202560	47	4717
2026-01-06 23:59:03.62	9.42	28.22	-38.5	-40.4	15.4	0.00e+00	0	56	0	590348288	47	4773
2026-01-06 23:59:04.63	9.36	28.40	-38.5	-40.4	15.5	0.00e+00	0	56	0	594542592	47	4767
2026-01-06 23:59:05.64	9.30	28.58	-38.4	-40.3	15.5	0.00e+00	0	55	0	597688320	47	4730
2026-01-06 23:59:06.64	9.24	28.76	-38.4	-40.2	15.6	0.00e+00	0	56	0	600834048	47	4700
2026-01-06 23:59:07.65	9.17	28.94	-38.3	-40.2	15.7	0.00e+00	0	56	0	602931200	47	4653
2026-01-06 23:59:08.66	9.11	29.12	-38.3	-40.1	15.7	0.00e+00	0	56	0	606076928	47	4639
2026-01-06 23:59:09.67	9.05	29.31	-38.2	-40.0	15.8	0.00e+00	0	55	0	609222656	47	4587
2026-01-06 23:59:10.68	8.99	29.49	-38.1	-39.8	16.0	0.00e+00	0	56	0	613416960	47	4489
2026-01-06 23:59:11.69	8.92	29.68	-38.0	-39.7	16.1	0.00e+00	0	56	0	616562688	47	4431
2026-01-06 23:59:12.70	8.86	29.86	-37.9	-39.6	16.2	0.00e+00	0	56	0	619708416	47	4389
2026-01-06 23:59:13.71	8.79	30.05	-37.8	-39.5	16.3	0.00e+00	0	56	0	622854144	47	4320
2026-01-06 23:59:14.72	8.72	30.24	-37.6	-39.2	16.6	0.00e+00	0	56	0	625999872	47	4182
2026-01-06 23:59:15.73	8.66	30.43	-37.5	-39.2	16.7	0.00e+00	0	56	0	629145600	47	4149
2026-01-06 23:59:16.74	8.59	30.62	-37.4	-39.0	16.8	0.00e+00	0	56	0	632291328	46	4309
2026-01-06 23:59:17.75	8.52	30.82	-37.3	-38.9	17.0	0.00e+00	0	56	0	635437056	46	4252
2026-01-06 23:59:18.76	8.45	31.01	-37.2	-38.7	17.1	0.00e+00	0	56	0	638582784	46	4184
2026-01-06 23:59:19.77	8.38	31.21	-37.1	-38.6	17.2	0.00e+00	0	56	0	641728512	46	4118
2026-01-06 23:59:20.79	8.30	31.41	-37.0	-38.5	17.3	0.00e+00	0	56	0	644874240	46	4080
2026-01-06 23:59:21.79	8.23	31.60	-37.0	-38.4	17.3	0.00e+00	0	56	0	648019968	45	4289
2026-01-06 23:59:22.80	8.16	31.80	-37.0	-38.5	17.4	0.00e+00	0	56	0	651165696	45	4293
2026-01-06 23:59:23.81	8.08	32.00	-37.0	-38.5	17.3	0.00e+00	0	56	0	654311424	45	4312
2026-01-06 23:59:24.82	8.01	32.20	-37.1	-38.6	17.2	0.00e+00	0	56	0	657457152	45	4360
2026-01-06 23:59:25.83	7.93	32.41	-37.2	-38.7	17.1	0.00e+00	0	56	0	660602880	45	4425
2026-01-06 23:59:26.84	7.85	32.61	-37.2	-38.7	17.1	0.00e+00	0	56	0	663748608	45	4441
2026-01-06 23:59:27.85	7.77	32.82	-37.3	-38.9	16.9	0.00e+00	0	56	0	666894336	45	4513
2026-01-06 23:59:28.86	7.69	33.03	-37.4	-39.0	16.8	0.00e+00	0	56	0	670040064	45	4580
2026-01-06 23:59:29.87	7.61	33.23	-37.5	-39.1	16.7	0.00e+00	0	56	0	673185792	45	4646
2026-01-06 23:59:30.88	7.53	33.45	-37.6	-39.2	16.6	0.00e+00	0	56	0	676331520	45	4698
2026-01-06 23:59:31.89	7.45	33.66	-37.7	-39.3	16.6	0.00e+00	0	56	0	679477248	45	4738
2026-01-06 23:59:32.90	7.36	33.87	-37.8	-39.4	16.4	0.00e+00	0	56	0	682622976	46	4545
2026-01-06 23:59:33.91	7.28	34.08	-38.0	-39.7	16.2	0.00e+00	0	56	0	685768704	46	4660
2026-01-06 23:59:34.92	7.19	34.30	-38.1	-39.8	16.1	0.00e+00	0	56	0	688914432	46	4711
2026-01-06 23:59:35.93	7.10	34.52	-38.2	-40.0	15.9	0.00e+00	0	56	0	692060160	46	4818
2026-01-06 23:59:36.94	7.01	34.74	-38.4	-40.2	15.7	0.00e+00	0	56	0	695205888	47	4685
2026-01-06 23:59:37.95	6.92	34.96	-38.6	-40.4	15.5	0.00e+00	0	56	0	698351616	47	4787
2026-01-06 23:59:38.96	6.83	35.18	-38.8	-40.7	15.3	0.00e+00	0	56	0	701497344	48	4653
2026-01-06 23:59:39.97	6.74	35.40	-38.8	-40.7	15.3	0.00e+00	0	56	0	704643072	48	4693
2026-01-06 23:59:40.98	6.64	35.63	-39.0	-40.9	15.1	0.00e+00	0	56	0	707788800	48	4780
2026-01-06 23:59:41.99	6.55	35.85	-39.0	-40.9	15.1	0.00e+00	0	56	0	710934528	48	4802
2026-01-06 23:59:43.00	6.45	36.08	-39.0	-40.9	15.1	0.00e+00	0	56	0	714080256	48	4808
2026-01-06 23:59:44.01	6.35	36.31	-39.0	-40.9	15.2	0.00e+00	0	56	0	717225984	48	4766
2026-01-06 23:59:45.02	6.25	36.54	-39.1	-41.1	15.0	0.00e+00	0	56	0	720371712	48	4908
2026-01-06 23:59:46.03	6.15	36.77	-39.1	-41.0	15.0	0.00e+00	0	56	0	723517440	48	4864
2026-01-06 23:59:47.04	6.05	37.01	-39.1	-41.1	14.9	7.00e-07	0	56	0	726663168	48	4914
2026-01-06 23:59:48.05	5.94	37.24	-39.2	-41.2	14.9	7.00e-07	0	56	0	729808896	49	4662
2026-01-06 23:59:49.06	5.83	37.48	-39.2	-41.2	14.9	0.00e+00	0	56	0	732954624	49	4660
2026-01-06 23:59:50.07	5.73	37.72	-39.2	-41.2	14.9	7.00e-07	0	56	0	736100352	49	4679
2026-01-06 23:59:51.08	5.62	37.96	-39.1	-41.0	15.0	0.00e+00	0	56	0	739246080	49	4576
2026-01-06 23:59:52.09	5.51	38.20	-39.1	-41.0	15.1	0.00e+00	0	56	0	742391808	49	4560
2026-01-06 23:59:53.10	5.39	38.44	-39.0	-40.9	15.1	0.00e+00	0	56	0	745537536	49	4538
2026-01-06 23:59:54.11	5.28	38.69	-39.0	-40.9	15.2	0.00e+00	0	56	0	748683264	49	4526
2026-01-06 23:59:55.12	5.16	38.93	-39.0	-40.9	15.2	0.00e+00	0	56	0	751828992	49	4519
2026-01-06 23:59:56.13	5.04	39.18	-39.0	-40.8	15.2	0.00e+00	0	56	0	754974720	49	4486
2026-01-06 23:59:57.14	4.92	39.43	-39.0	-40.8	15.2	0.00e+00	0	56	0	758120448	49	4491
2026-01-06 23:59:58.15	4.80	39.68	-39.0	-40.9	15.1	0.00e+00	0	56	0	761266176	49	4521
2026-01-06 23:59:59.17	4.68	39.94	-39.0	-41.0	15.1	0.00e+00	0	56	0	764411904	49	4552
2026-01-07 00:00:00.18	4.55	40.19	-39.0	-41.0	15.1	7.60e-06	0	56	0	767557632	49	4558
2026-01-07 00:00:01.18	4.42	40.45	-39.2	-41.1	15.0	0.00e+00	0	56	0	770703360	49	4630
2026-01-07 00:00:02.19	4.29	40.71	-39.3	-41.3	14.8	0.00e+00	0	56	0	773849088	49	4711
2026-01-07 00:00:03.20	4.16	40.97	-39.5	-41.5	14.5	1.50e-06	0	56	0	776994816	49	4865
2026-01-07 00:00:04.21	4.03	41.23	-39.5	-41.5	14.5	0.00e+00	0	56	0	780140544	49	4867
2026-01-07 00:00:05.22	3.89	41.49	-39.6	-41.7	14.4	0.00e+00	0	56	0	783286272	49	4965
2026-01-07 00:00:06.23	3.75	41.76	-39.7	-41.8	14.3	1.50e-06	0	56	0	786432000	49	5008
2026-01-07 00:00:07.24	3.61	42.02	-39.7	-41.9	14.2	7.00e-07	0	56	0	789577728	50	4780
2026-01-07 00:00:08.26	3.46	42.29	-39.7	-41.9	14.2	7.00e-07	0	56	0	792723456	50	4775
2026-01-07 00:00:09.26	3.32	42.56	-39.8	-42.0	14.0	7.00e-07	0	56	0	795869184	50	4870
2026-01-07 00:00:10.27	3.17	42.83	-39.9	-42.2	13.9	7.00e-07	0	56	0	799014912	50	4933
2026-01-07 00:00:11.28	3.02	43.11	-40.2	-42.6	13.6	6.10e-06	0	56	0	802160640	50	5171
2026-01-07 00:00:12.30	2.86	43.39	-40.2	-42.5	13.6	2.20e-06	0	56	0	805306368	50	5148
2026-01-07 00:00:13.31	2.71	43.66	-40.1	-42.4	13.7	9.10e-06	0	56	0	808452096	51	4786
2026-01-07 00:00:14.32	2.55	43.94	-40.0	-42.3	13.8	6.10e-06	0	56	0	811597824	51	4717
2026-01-07 00:00:15.33	2.38	44.22	-39.9	-42.1	14.0	7.00e-07	0	56	0	814743552	51	4638
2026-01-07 00:00:16.34	2.22	44.51	-39.9	-42.2	14.0	6.80e-06	0	56	0	817889280	51	4653
2026-01-07 00:00:17.35	2.05	44.79	-40.0	-42.2	13.9	1.50e-06	0	56	0	821035008	51	4678
2026-01-07 00:00:18.36	1.88	45.08	-40.1	-42.4	13.8	3.00e-06	0	56	0	824180736	51	4777
2026-01-07 00:00:19.37	1.70	45.37	-40.2	-42.6	13.5	1.14e-05	0	56	0	827326464	51	4911
2026-01-07 00:00:20.38	1.52	45.66	-40.1	-42.4	13.7	8.30e-06	0	56	0	830472192	51	4812
2026-01-07 00:00:21.39	1.34	45.95	-39.9	-42.1	14.0	2.20e-06	0	56	0	833617920	51	4640
2026-01-07 00:00:22.40	1.16	46.24	-39.8	-42.0	14.2	1.50e-06	0	56	0	836763648	51	4555
2026-01-07 00:00:23.41	0.97	46.54	-39.5	-41.5	14.6	0.00e+00	0	56	0	839909376	50	4577
2026-01-07 00:00:24.41	0.78	46.83	-39.3	-41.3	14.8	7.00e-07	0	56	0	843055104	50	4482
2026-01-07 00:00:25.42	0.58	47.13	-39.0	-40.9	15.2	0.00e+00	0	56	0	846200832	50	4272
2026-01-07 00:00:26.43	0.38	47.43	-39.0	-40.8	15.3	0.00e+00	0	56	0	849346560	49	4490
2026-01-07 00:00:27.44	0.18	47.73	-39.0	-40.9	15.2	0.00e+00	0	56	0	852492288	49	4520
2026-01-07 00:00:28.45	359.97	48.04	-39.0	-40.9	15.2	0.00e+00	0	56	0	855638016	49	4528
2026-01-07 00:00:29.46	359.76	48.34	-39.1	-41.0	15.1	0.00e+00	0	56	0	858783744	49	4571
2026-01-07 00:00:30.47	359.54	48.65	-39.2	-41.1	15.0	0.00e+00	0	56	0	861929472	49	4624
2026-01-07 00:00:31.48	359.32	48.96	-38.9	-40.7	15.3	0.00e+00	0	56	0	865075200	49	4431
2026-01-07 00:00:32.49	359.09	49.27	-38.8	-40.7	15.4	0.00e+00	0	56	0	868220928	49	4401
2026-01-07 00:00:33.50	358.86	49.58	-38.7	-40.5	15.6	0.00e+00	0	56	0	871366656	49	4322
2026-01-07 00:00:34.51	358.63	49.90	-38.9	-40.8	15.4	0.00e+00	0	56	0	874512384	49	4456
2026-01-07 00:00:35.52	358.39	50.21	-39.1	-41.0	15.1	0.00e+00	0	56	0	877658112	49	4586
2026-01-07 00:00:36.53	358.14	50.53	-39.2	-41.2	15.0	0.00e+00	0	56	0	880803840	49	4656
2026-01-07 00:00:37.54	357.89	50.85	-39.2	-41.2	14.9	0.00e+00	0	56	0	883949568	49	4678
2026-01-07 00:00:38.55	357.63	51.17	-39.1	-41.1	15.1	0.00e+00	0	56	0	887095296	49	4599
2026-01-07 00:00:39.56	357.37	51.49	-38.9	-40.8	15.3	0.00e+00	0	56	0	890241024	49	4465
2026-01-07 00:00:40.57	357.10	51.82	-38.7	-40.5	15.6	0.00e+00	0	56	0	894435328	49	4337
2026-01-07 00:00:41.58	356.83	52.14	-38.6	-40.4	15.7	0.00e+00	0	56	0	896532480	49	4276
2026-01-07 00:00:42.59	356.55	52.47	-38.6	-40.4	15.7	0.00e+00	0	56	0	899678208	49	4266
2026-01-07 00:00:43.61	356.26	52.80	-38.7	-40.5	15.6	7.00e-07	0	56	0	902823936	49	4317
2026-01-07 00:00:44.62	355.97	53.13	-38.6	-40.4	15.7	0.00e+00	0	56	0	905969664	49	4272
2026-01-07 00:00:45.63	355.67	53.46	-38.4	-40.1	16.0	0.00e+00	0	56	0	910163968	48	4351
2026-01-07 00:00:46.64	355.36	53.79	-38.0	-39.7	16.4	0.00e+00	0	56	0	913309696	48	4149
2026-01-07 00:00:47.65	355.05	54.13	-37.8	-39.4	16.6	0.00e+00	0	56	0	916455424	47	4287
2026-01-07 00:00:48.66	354.73	54.46	-37.8	-39.4	16.7	0.00e+00	0	56	0	918552576	47	4253
2026-01-07 00:00:49.67	354.40	54.80	-37.8	-39.4	16.6	0.00e+00	0	56	0	921698304	47	4290
2026-01-07 00:00:50.68	354.06	55.14	-37.7	-39.3	16.7	0.00e+00	0	56	0	925892608	47	4205
2026-01-07 00:00:51.69	353.72	55.48	-37.6	-39.2	16.9	0.00e+00	0	56	0	929038336	47	4160
2026-01-07 00:00:52.70	353.36	55.82	-37.5	-39.1	16.9	0.00e+00	0	56	0	932184064	47	4103
2026-01-07 00:00:53.71	353.00	56.16	-37.2	-38.6	17.3	0.00e+00	0	56	0	935329792	46	4141
2026-01-07 00:00:54.72	352.63	56.50	-36.9	-38.4	17.6	0.00e+00	0	56	0	938475520	45	4251
2026-01-07 00:00:55.73	352.25	56.84	-36.9	-38.3	17.6	0.00e+00	0	56	0	941621248	45	4212
2026-01-07 00:00:56.75	351.85	57.19	-36.8	-38.3	17.7	0.00e+00	0	56	0	944766976	45	4215
2026-01-07 00:00:57.76	351.45	57.53	-37.0	-38.4	17.5	0.00e+00	0	56	0	947912704	45	4287
2026-01-07 00:00:58.77	351.04	57.88	-37.0	-38.5	17.5	0.00e+00	0	56	0	951058432	45	4320
2026-01-07 00:00:59.78	350.62	58.22	-37.0	-38.4	17.6	0.00e+00	0	56	0	954204160	45	4290
2026-01-07 00:01:00.79	350.18	58.57	-37.0	-38.5	17.6	0.00e+00	0	56	0	957349888	45	4322
2026-01-07 00:01:01.79	349.74	58.91	-37.0	-38.5	17.5	0.00e+00	0	56	0	960495616	45	4294
2026-01-07 00:01:02.80	349.29	59.26	-37.0	-38.5	17.5	0.00e+00	0	56	0	963641344	45	4321
2026-01-07 00:01:03.82	348.81	59.61	-37.0	-38.5	17.5	0.00e+00	0	56	0	966787072	45	4300
2026-01-07 00:01:04.83	348.33	59.96	-37.0	-38.4	17.6	0.00e+00	0	56	0	969932800	45	4278
2026-01-07 00:01:05.84	347.83	60.31	-36.8	-38.3	17.7	0.00e+00	0	56	0	973078528	45	4200
2026-01-07 00:01:06.85	347.33	60.65	-36.7	-38.1	17.9	0.00e+00	0	56	0	976224256	45	4143
2026-01-07 00:01:07.86	346.80	61.00	-36.6	-38.0	17.9	0.00e+00	0	56	0	979369984	45	4091
2026-01-07 00:01:08.87	346.26	61.35	-36.4	-37.7	18.3	0.00e+00	0	56	0	982515712	44	4169
2026-01-07 00:01:09.88	345.71	61.69	-36.3	-37.7	18.3	7.60e-06	0	56	0	985661440	44	4151
2026-01-07 00:01:10.89	345.14	62.04	-36.5	-37.8	18.1	0.00e+00	0	56	0	988807168	44	4237
2026-01-07 00:01:11.90	344.56	62.39	-36.5	-37.9	18.1	0.00e+00	0	56	0	991952896	44	4277
2026-01-07 00:01:12.91	343.95	62.73	-36.4	-37.8	18.1	0.00e+00	0	56	0	995098624	44	4228
2026-01-07 00:01:13.92	343.33	63.07	-36.3	-37.6	18.3	0.00e+00	0	56	0	998244352	44	4139
2026-01-07 00:01:14.93	342.69	63.41	-36.2	-37.5	18.5	0.00e+00	0	56	0	1001390080	44	4082
2026-01-07 00:01:15.94	342.04	63.76	-36.2	-37.5	18.4	0.00e+00	0	56	0	1004535808	44	4093
2026-01-07 00:01:16.95	341.36	64.09	-36.3	-37.7	18.3	0.00e+00	0	56	0	1007681536	44	4161
2026-01-07 00:01:17.96	340.66	64.43	-36.1	-37.4	18.5	0.00e+00	0	56	0	1010827264	44	4025
2026-01-07 00:01:18.97	339.94	64.77	-35.8	-37.1	18.6	0.00e+00	0	56	0	1013972992	43	4135
2026-01-07 00:01:19.98	339.20	65.10	-35.6	-36.9	18.8	0.00e+00	0	57	0	1017118720	43	4038
2026-01-07 00:01:20.99	338.44	65.43	-35.6	-36.8	18.9	0.00e+00	0	56	0	1020264448	43	3992
2026-01-07 00:01:22.00	337.66	65.76	-35.6	-36.9	18.9	0.00e+00	0	56	0	1023410176	43	4023
2026-01-07 00:01:23.01	336.85	66.08	-35.6	-36.9	18.8	0.00e+00	0	56	0	1026555904	43	4023
2026-01-07 00:01:24.02	336.01	66.40	-35.8	-37.1	18.7	0.00e+00	0	56	0	1029701632	43	4125
2026-01-07 00:01:25.03	335.16	66.72	-35.8	-37.1	18.7	0.00e+00	0	56	0	1032847360	43	4108
2026-01-07 00:01:26.04	334.27	67.04	-35.8	-37.1	18.6	0.00e+00	0	56	0	1035993088	43	4111
2026-01-07 00:01:27.05	333.36	67.35	-36.1	-37.4	18.3	0.00e+00	0	56	0	1039138816	43	4281
2026-01-07 00:01:28.06	332.42	67.65	-36.4	-37.8	17.9	0.00e+00	0	56	0	1042284544	43	4458
2026-01-07 00:01:29.07	331.45	67.96	-36.4	-37.8	17.9	0.00e+00	0	56	0	1045430272	43	4442
2026-01-07 00:01:30.08	330.45	68.25	-36.1	-37.4	18.3	0.00e+00	0	56	0	1048576000	43	4267
2026-01-07 00:01:31.09	329.43	68.54	-35.7	-37.0	18.7	0.00e+00	0	56	0	1051721728	43	4089
2026-01-07 00:01:32.10	328.37	68.83	-35.8	-37.1	18.5	2.20e-06	0	57	0	1054867456	42	4355
2026-01-07 00:01:33.11	327.28	69.11	-35.9	-37.2	18.4	0.00e+00	0	56	0	1058013184	42	4411
2026-01-07 00:01:34.12	326.16	69.38	-36.0	-37.3	18.4	0.00e+00	0	56	0	1061158912	42	4481
2026-01-07 00:01:35.14	325.00	69.65	-35.8	-37.1	18.6	0.00e+00	0	56	0	1064304640	42	4386
2026-01-07 00:01:36.15	323.81	69.91	-36.0	-37.4	18.3	0.00e+00	0	56	0	1067450368	42	4496
2026-01-07 00:01:37.16	322.60	70.16	-36.1	-37.5	18.2	0.00e+00	0	57	0	1070596096	42	4578
2026-01-07 00:01:38.17	321.35	70.41	-36.2	-37.6	18.2	0.00e+00	0	56	0	1073741824	43	4344
2026-01-07 00:01:39.18	320.06	70.64	-36.4	-37.8	17.9	0.00e+00	0	56	0	1076887552	43	4488
2026-01-07 00:01:40.19	318.74	70.87	-36.4	-37.9	17.9	0.00e+00	0	56	0	1080033280	43	4504
2026-01-07 00:01:41.20	317.39	71.09	-36.3	-37.7	18.0	0.00e+00	0	56	0	1083179008	43	4440
2026-01-07 00:01:42.21	316.01	71.29	-36.1	-37.5	18.2	0.00e+00	0	56	0	1086324736	43	4314
2026-01-07 00:01:43.22	314.60	71.49	-36.2	-37.6	18.0	0.00e+00	0	56	0	1089470464	43	4366
2026-01-07 00:01:44.23	313.15	71.68	-35.8	-37.1	18.5	0.00e+00	0	56	0	1092616192	43	4127
2026-01-07 00:01:45.24	311.67	71.85	-35.8	-37.1	18.5	0.00e+00	0	56	0	1095761920	43	4127
2026-01-07 00:01:46.24	310.18	72.01	-36.1	-37.5	18.2	0.00e+00	0	56	0	1098907648	43	4329
2026-01-07 00:01:47.25	308.65	72.17	-36.5	-38.0	17.7	0.00e+00	0	56	0	1102053376	43	4561
2026-01-07 00:01:48.26	307.09	72.31	-36.5	-38.0	17.7	0.00e+00	0	56	0	1105199104	43	4579
2026-01-07 00:01:49.27	305.50	72.44	-36.4	-37.8	17.9	0.00e+00	0	56	0	1108344832	43	4474
2026-01-07 00:01:50.28	303.89	72.55	-36.2	-37.6	18.1	0.00e+00	0	56	0	1111490560	43	4343
2026-01-07 00:01:51.30	302.24	72.65	-36.1	-37.4	18.3	0.00e+00	0	56	0	1114636288	43	4286
2026-01-07 00:01:52.30	300.61	72.74	-36.2	-37.6	18.2	0.00e+00	0	56	0	1117782016	43	4356
2026-01-07 00:01:53.31	298.94	72.81	-35.9	-37.2	18.5	0.00e+00	0	56	0	1120927744	43	4178
2026-01-07 00:01:54.32	297.26	72.88	-35.9	-37.3	18.4	0.00e+00	0	56	0	1124073472	43	4207
2026-01-07 00:01:55.33	295.57	72.92	-35.6	-36.9	18.7	0.00e+00	0	56	0	1127219200	43	4016
2026-01-07 00:01:56.34	293.86	72.95	-35.8	-37.1	18.5	0.00e+00	0	57	0	1130364928	43	4129
2026-01-07 00:01:57.35	292.16	72.97	-36.4	-37.8	17.9	0.00e+00	0	57	0	1133510656	43	4472
2026-01-07 00:01:58.36	290.45	72.97	-36.7	-38.1	17.6	0.00e+00	0	56	0	1136656384	43	4645
2026-01-07 00:01:59.37	288.74	72.96	-36.4	-37.9	17.8	0.00e+00	0	56	0	1139802112	43	4502
2026-01-07 00:02:00.38	287.04	72.94	-36.2	-37.6	18.1	0.00e+00	0	57	0	1142947840	43	4369
2026-01-07 00:02:01.39	285.34	72.90	-36.1	-37.5	18.2	0.00e+00	0	57	0	1146093568	43	4325
2026-01-07 00:02:02.40	283.66	72.84	-35.8	-37.1	18.5	0.00e+00	0	57	0	1149239296	43	4142
2026-01-07 00:02:03.41	281.98	72.78	-35.9	-37.3	18.4	0.00e+00	0	56	0	1152385024	43	4206
2026-01-07 00:02:04.41	280.34	72.69	-36.1	-37.4	18.2	0.00e+00	0	56	0	1155530752	43	4284
2026-01-07 00:02:05.42	278.70	72.60	-36.0	-37.3	18.4	0.00e+00	0	57	0	1158676480	43	4220
2026-01-07 00:02:06.43	277.08	72.49	-35.6	-36.9	18.8	0.00e+00	0	56	0	1161822208	43	4009
2026-01-07 00:02:07.44	275.48	72.37	-35.5	-36.8	18.8	0.00e+00	0	56	0	1164967936	42	4218
2026-01-07 00:02:08.46	273.89	72.23	-35.8	-37.1	18.6	0.00e+00	0	57	0	1168113664	42	4362
2026-01-07 00:02:09.46	272.36	72.09	-36.0	-37.3	18.3	0.00e+00	0	56	0	1171259392	42	4488
2026-01-07 00:02:10.47	270.83	71.93	-36.1	-37.4	18.2	0.00e+00	0	56	0	1174405120	42	4534
2026-01-07 00:02:11.48	269.34	71.76	-35.7	-37.0	18.6	0.00e+00	0	56	0	1177550848	42	4323
2026-01-07 00:02:12.50	267.87	71.57	-35.6	-36.9	18.8	0.00e+00	0	57	0	1180696576	42	4264
2026-01-07 00:02:13.51	266.44	71.38	-35.7	-37.1	18.6	0.00e+00	0	56	0	1183842304	42	4342
2026-01-07 00:02:14.52	265.04	71.18	-35.7	-37.1	18.6	0.00e+00	0	56	0	1186988032	42	4341
2026-01-07 00:02:15.53	263.67	70.96	-36.2	-37.5	18.2	0.00e+00	0	56	0	1190133760	42	4595
2026-01-07 00:02:16.54	262.34	70.74	-36.4	-37.8	17.9	0.00e+00	0	57	0	1193279488	43	4451
2026-01-07 00:02:17.55	261.04	70.51	-36.1	-37.5	18.2	0.00e+00	0	57	0	1196425216	43	4302
2026-01-07 00:02:18.56	259.78	70.27	-35.5	-36.7	18.9	0.00e+00	0	56	0	1199570944	42	4186
2026-01-07 00:02:19.57	258.54	70.02	-35.3	-36.5	19.2	0.00e+00	0	57	0	1202716672	42	4080
2026-01-07 00:02:20.58	257.34	69.76	-35.3	-36.5	19.1	0.00e+00	0	56	0	1206910976	42	4067
2026-01-07 00:02:21.59	256.17	69.50	-35.5	-36.8	18.9	0.00e+00	0	57	0	1210056704	42	4214
2026-01-07 00:02:22.60	255.04	69.23	-35.9	-37.2	18.5	0.00e+00	0	57	0	1212153856	42	4422
2026-01-07 00:02:23.61	253.93	68.95	-36.0	-37.3	18.3	0.00e+00	0	57	0	1215299584	42	4476
2026-01-07 00:02:24.62	252.86	68.67	-35.7	-37.0	18.5	0.00e+00	0	57	0	1218445312	42	4313
2026-01-07 00:02:25.63	251.82	68.38	-35.3	-36.5	19.1	0.00e+00	0	56	0	1222639616	42	4088
2026-01-07 00:02:26.64	250.81	68.08	-35.3	-36.6	19.0	0.00e+00	0	57	0	1225785344	42	4101
2026-01-07 00:02:27.65	249.83	67.78	-35.8	-37.2	18.5	0.00e+00	0	57	0	1228931072	42	4395
2026-01-07 00:02:28.66	248.87	67.48	-36.4	-37.8	17.9	0.00e+00	0	57	0	1232076800	43	4481
2026-01-07 00:02:29.67	247.95	67.17	-36.5	-38.0	17.6	0.00e+00	0	56	0	1235222528	43	4572
2026-01-07 00:02:30.68	247.05	66.86	-36.1	-37.4	18.2	0.00e+00	0	56	0	1238368256	43	4283
2026-01-07 00:02:31.69	246.18	66.54	-35.4	-36.6	19.0	0.00e+00	0	56	0	1241513984	42	4132
2026-01-07 00:02:32.70	245.33	66.22	-35.1	-36.3	19.3	0.00e+00	0	56	0	1244659712	42	3999
2026-01-07 00:02:33.71	244.51	65.89	-35.7	-37.0	18.7	0.00e+00	0	57	0	1247805440	42	4305
2026-01-07 00:02:34.72	243.72	65.57	-36.5	-37.9	17.7	0.00e+00	0	57	0	1250951168	43	4544
2026-01-07 00:02:35.73	242.94	65.24	-37.1	-38.6	17.4	0.00e+00	0	57	0	1254096896	44	4607
2026-01-07 00:02:36.74	242.19	64.90	-36.8	-38.3	17.6	0.00e+00	0	57	0	1257242624	44	4449
2026-01-07 00:02:37.75	241.46	64.57	-36.2	-37.5	18.4	0.00e+00	0	57	0	1260388352	44	4062
2026-01-07 00:02:38.76	240.76	64.23	-35.9	-37.2	18.5	0.00e+00	0	56	0	1263534080	43	4155
2026-01-07 00:02:39.77	240.07	63.89	-35.8	-37.1	18.5	0.00e+00	0	57	0	1266679808	43	4132
2026-01-07 00:02:40.78	239.40	63.55	-36.3	-37.6	18.0	0.00e+00	0	57	0	1269825536	43	4391
2026-01-07 00:02:41.79	238.75	63.21	-37.2	-38.8	17.2	0.00e+00	0	57	0	1272971264	44	4707
2026-01-07 00:02:42.80	238.12	62.87	-37.5	-39.1	16.8	0.00e+00	0	57	0	1276116992	45	4643
2026-01-07 00:02:43.81	237.51	62.52	-36.9	-38.3	17.5	0.00e+00	0	57	0	1279262720	45	4242
2026-01-07 00:02:44.81	236.93	62.18	-36.1	-37.4	18.5	0.00e+00	0	57	0	1282408448	44	4012
2026-01-07 00:02:45.83	236.34	61.83	-35.4	-36.7	19.0	0.00e+00	0	57	0	1285554176	42	4162
2026-01-07 00:02:46.84	235.78	61.48	-35.8	-37.1	18.5	0.00e+00	0	56	0	1288699904	42	4379
2026-01-07 00:02:47.85	235.24	61.13	-36.6	-38.0	17.6	0.00e+00	0	57	0	1291845632	43	4574
2026-01-07 00:02:48.86	234.70	60.79	-37.3	-38.9	17.0	0.00e+00	0	57	0	1294991360	45	4523
2026-01-07 00:02:49.87	234.19	60.44	-37.6	-39.2	16.7	0.00e+00	0	57	0	1298137088	45	4683
2026-01-07 00:02:50.88	233.69	60.09	-37.4	-39.0	17.0	0.00e+00	0	57	0	1301282816	45	4550
2026-01-07 00:02:51.89	233.20	59.74	-37.0	-38.4	17.5	0.00e+00	0	57	0	1304428544	45	4290
2026-01-07 00:02:52.90	232.72	59.39	-36.6	-38.0	17.9	0.00e+00	0	57	0	1307574272	45	4074
2026-01-07 00:02:53.91	232.26	59.04	-36.3	-37.6	18.3	0.00e+00	0	57	0	1310720000	44	4127
2026-01-07 00:02:54.92	231.81	58.70	-36.4	-37.7	18.1	0.00e+00	0	57	0	1313865728	44	4189
2026-01-07 00:02:55.93	231.37	58.35	-36.9	-38.3	17.6	0.00e+00	0	57	0	1317011456	44	4466
2026-01-07 00:02:56.95	230.94	58.00	-37.4	-38.9	16.9	0.00e+00	0	57	0	1320157184	45	4528
2026-01-07 00:02:57.95	230.52	57.66	-37.7	-39.3	16.6	0.00e+00	0	56	0	1323302912	46	4489
2026-01-07 00:02:58.96	230.12	57.31	-37.5	-39.1	16.5	0.00e+00	0	57	0	1326448640	46	4370
2026-01-07 00:02:59.97	229.72	56.96	-36.9	-38.4	17.4	0.00e+00	0	57	0	1329594368	45	4246
2026-01-07 00:03:00.98	229.34	56.62	-36.5	-37.8	18.0	0.00e+00	0	57	0	1332740096	44	4231
2026-01-07 00:03:01.99	228.96	56.28	-36.7	-38.1	17.8	0.00e+00	0	56	0	1335885824	44	4362
2026-01-07 00:03:03.01	228.59	55.93	-36.9	-38.4	17.5	0.00e+00	0	57	0	1339031552	44	4523
2026-01-07 00:03:04.01	228.23	55.59	-36.9	-38.4	17.6	0.00e+00	0	57	0	1342177280	44	4510
2026-01-07 00:03:05.02	227.88	55.25	-37.6	-39.2	16.8	0.00e+00	0	57	0	1345323008	45	4663
2026-01-07 00:03:06.03	227.54	54.91	-38.4	-40.3	15.7	0.00e+00	0	56	0	1348468736	47	4719
2026-01-07 00:03:07.04	227.21	54.57	-39.2	-41.3	14.8	0.00e+00	0	56	0	1351614464	49	4738
2026-01-07 00:03:08.05	226.88	54.24	-39.4	-41.5	14.6	0.00e+00	0	57	0	1354760192	49	4830
2026-01-07 00:03:09.06	226.57	53.90	-38.9	-40.9	15.2	0.00e+00	0	57	0	1357905920	49	4499
2026-01-07 00:03:10.07	226.26	53.57	-38.5	-40.3	15.7	0.00e+00	0	57	0	1361051648	49	4230
2026-01-07 00:03:11.08	225.95	53.23	-38.2	-39.9	16.2	0.00e+00	0	56	0	1364197376	48	4272
2026-01-07 00:03:12.09	225.66	52.90	-38.4	-40.1	15.9	0.00e+00	0	57	0	1367343104	48	4370
2026-01-07 00:03:13.10	225.37	52.57	-38.3	-40.1	15.9	0.00e+00	0	57	0	1370488832	48	4356
2026-01-07 00:03:14.11	225.08	52.24	-37.8	-39.4	16.5	0.00e+00	0	57	0	1373634560	47	4267
2026-01-07 00:03:15.12	224.81	51.92	-37.8	-39.4	16.6	0.00e+00	0	57	0	1376780288	47	4245
2026-01-07 00:03:16.13	224.54	51.59	-38.4	-40.1	15.8	0.00e+00	0	57	0	1379926016	47	4638
2026-01-07 00:03:17.14	224.27	51.27	-38.8	-40.7	15.4	0.00e+00	0	57	0	1383071744	48	4674
2026-01-07 00:03:18.15	224.01	50.94	-39.1	-41.0	15.0	0.00e+00	0	57	0	1386217472	48	4860
2026-01-07 00:03:19.16	223.76	50.62	-39.3	-41.3	14.6	0.00e+00	0	57	0	1389363200	49	4756
2026-01-07 00:03:20.17	223.51	50.30	-39.1	-41.1	14.9	0.00e+00	0	57	0	1392508928	49	4625
2026-01-07 00:03:21.18	223.27	49.99	-38.8	-40.6	15.4	0.00e+00	0	57	0	1395654656	49	4379
2026-01-07 00:03:22.19	223.03	49.67	-38.7	-40.4	15.6	0.00e+00	0	57	0	1398800384	49	4290
2026-01-07 00:03:23.20	222.80	49.36	-38.5	-40.2	15.9	0.00e+00	0	57	0	1401946112	48	4415
2026-01-07 00:03:24.21	222.57	49.04	-38.7	-40.4	15.6	0.00e+00	0	57	0	1405091840	48	4542
2026-01-07 00:03:25.23	222.34	48.73	-39.1	-41.0	15.1	0.00e+00	0	57	0	1408237568	48	4845
2026-01-07 00:03:26.24	222.12	48.42	-39.2	-41.2	14.9	1.50e-06	0	57	0	1411383296	49	4670
2026-01-07 00:03:27.25	221.91	48.11	-39.3	-41.4	14.6	0.00e+00	0	57	0	1414529024	49	4767
2026-01-07 00:03:28.26	221.70	47.81	-39.8	-42.0	14.0	6.10e-06	0	57	0	1417674752	50	4869
2026-01-07 00:03:29.27	221.49	47.50	-40.2	-42.6	13.5	5.30e-06	0	57	0	1420820480	50	5191
2026-01-07 00:03:30.28	221.29	47.20	-40.4	-42.9	13.2	2.36e-05	0	57	0	1423966208	51	5052
2026-01-07 00:03:31.29	221.09	46.90	-40.3	-42.9	13.2	2.74e-05	0	57	0	1427111936	51	5048
2026-01-07 00:03:32.30	220.89	46.60	-39.8	-42.1	14.0	1.50e-06	0	57	0	1430257664	51	4608
2026-01-07 00:03:33.31	220.70	46.30	-39.1	-41.1	14.9	0.00e+00	0	57	0	1433403392	50	4355
2026-01-07 00:03:34.32	220.52	46.01	-38.6	-40.3	15.6	0.00e+00	0	57	0	1436549120	49	4240
2026-01-07 00:03:35.33	220.33	45.71	-38.2	-39.9	16.1	0.00e+00	0	57	0	1439694848	48	4260
2026-01-07 00:03:36.34	220.15	45.42	-38.1	-39.7	16.4	0.00e+00	0	57	0	1442840576	48	4164
2026-01-07 00:03:37.35	219.98	45.13	-37.9	-39.5	16.4	0.00e+00	0	57	0	1445986304	47	4325
2026-01-07 00:03:38.36	219.80	44.84	-39.0	-40.8	15.2	0.00e+00	0	57	0	1449132032	48	4734
2026-01-07 00:03:39.37	219.63	44.56	-39.9	-42.2	13.9	2.20e-06	0	57	0	1452277760	50	4929
2026-01-07 00:03:40.38	219.46	44.27	-40.7	-43.4	12.6	4.19e-05	0	57	0	1455423488	51	5350
2026-01-07 00:03:41.39	219.30	43.99	-40.9	-43.8	12.2	1.85e-04	0	57	0	1458569216	52	5283
2026-01-07 00:03:42.40	219.14	43.71	-40.7	-43.4	12.5	1.52e-04	0	57	0	1461714944	52	5063
2026-01-07 00:03:43.40	218.98	43.43	-40.2	-42.6	13.4	3.73e-05	0	57	0	1464860672	52	4620
2026-01-07 00:03:44.41	218.82	43.15	-39.6	-41.7	14.3	3.00e-06	0	57	0	1468006400	51	4434
2026-01-07 00:03:45.42	218.67	42.88	-39.3	-41.3	14.8	0.00e+00	0	57	0	1471152128	50	4444
2026-01-07 00:03:46.43	218.52	42.60	-39.3	-41.3	14.8	0.00e+00	0	57	0	1474297856	50	4463
2026-01-07 00:03:47.44	218.37	42.33	-39.4	-41.4	14.5	7.00e-07	0	57	0	1477443584	50	4545
2026-01-07 00:03:48.45	218.23	42.06	-39.4	-41.4	14.5	7.00e-07	0	57	0	1480589312	50	4526
2026-01-07 00:03:49.46	218.08	41.79	-39.1	-41.1	14.9	0.00e+00	0	57	0	1483735040	50	4368
2026-01-07 00:03:50.47	217.94	41.53	-38.6	-40.3	15.6	0.00e+00	0	57	0	1486880768	49	4236
2026-01-07 00:03:51.48	217.80	41.26	-38.0	-39.7	16.3	0.00e+00	0	56	0	1490026496	48	4153
2026-01-07 00:03:52.49	217.67	41.00	-37.9	-39.5	16.5	0.00e+00	0	57	0	1493172224	47	4296
2026-01-07 00:03:53.50	217.53	40.74	-37.9	-39.5	16.3	0.00e+00	0	57	0	1496317952	47	4337
2026-01-07 00:03:54.51	217.40	40.48	-38.3	-40.0	16.0	0.00e+00	0	57	0	1499463680	47	4557
2026-01-07 00:03:55.52	217.27	40.22	-38.6	-40.5	15.5	0.00e+00	0	57	0	1502609408	47	4819
2026-01-07 00:03:56.53	217.15	39.96	-39.3	-41.4	14.6	7.00e-07	0	57	0	1505755136	49	4772
2026-01-07 00:03:57.54	217.02	39.71	-39.9	-42.2	13.8	1.50e-06	0	57	0	1508900864	50	4967
2026-01-07 00:03:58.55	216.90	39.45	-40.2	-42.7	13.3	2.28e-05	0	57	0	1512046592	51	4955
2026-01-07 00:03:59.56	216.78	39.20	-40.1	-42.5	13.4	2.51e-05	0	57	0	1515192320	51	4870
2026-01-07 00:04:00.57	216.66	38.95	-39.8	-42.1	13.9	5.30e-06	0	57	0	1518338048	51	4607
2026-01-07 00:04:01.58	216.54	38.70	-39.5	-41.6	14.4	7.00e-07	0	57	0	1522532352	51	4363
2026-01-07 00:04:02.59	216.42	38.46	-39.4	-41.4	14.6	7.00e-07	0	57	0	1525678080	50	4514
2026-01-07 00:04:03.60	216.31	38.21	-39.3	-41.3	14.7	7.00e-07	0	57	0	1527775232	50	4460
2026-01-07 00:04:04.61	216.20	37.97	-39.2	-41.1	14.9	0.00e+00	0	57	0	1530920960	50	4383
2026-01-07 00:04:05.62	216.09	37.73	-39.1	-41.1	14.9	0.00e+00	0	57	0	1534066688	50	4375
2026-01-07 00:04:06.63	215.98	37.49	-38.8	-40.7	15.3	0.00e+00	0	57	0	1538260992	49	4405
2026-01-07 00:04:07.64	215.87	37.25	-38.5	-40.3	15.7	0.00e+00	0	57	0	1541406720	49	4215
2026-01-07 00:04:08.65	215.76	37.01	-38.3	-39.9	16.0	0.00e+00	0	57	0	1544552448	48	4291
2026-01-07 00:04:09.66	215.66	36.77	-38.0	-39.6	16.3	0.00e+00	0	57	0	1547698176	48	4145
2026-01-07 00:04:10.67	215.56	36.54	-37.9	-39.6	16.3	0.00e+00	0	57	0	1550843904	47	4352
2026-01-07 00:04:11.68	215.46	36.31	-37.8	-39.4	16.5	0.00e+00	0	57	0	1553989632	47	4253
2026-01-07 00:04:12.69	215.36	36.08	-37.8	-39.4	16.5	0.00e+00	0	57	0	1557135360	47	4251
2026-01-07 00:04:13.70	215.26	35.85	-37.8	-39.4	16.5	0.00e+00	0	57	0	1560281088	47	4265
2026-01-07 00:04:14.71	215.16	35.62	-37.9	-39.5	16.4	0.00e+00	0	56	0	1563426816	47	4308
2026-01-07 00:04:15.72	215.06	35.40	-37.9	-39.5	16.3	0.00e+00	0	57	0	1566572544	47	4330
2026-01-07 00:04:16.73	214.97	35.17	-37.8	-39.4	16.5	0.00e+00	0	57	0	1569718272	47	4261
2026-01-07 00:04:17.75	214.88	34.95	-37.9	-39.6	16.3	0.00e+00	0	57	0	1572864000	47	4374
2026-01-07 00:04:18.76	214.78	34.72	-37.9	-39.5	16.4	0.00e+00	0	57	0	1576009728	47	4327
2026-01-07 00:04:19.76	214.70	34.51	-37.8	-39.4	16.5	0.00e+00	0	57	0	1579155456	47	4268
2026-01-07 00:04:20.78	214.61	34.28	-37.6	-39.2	16.7	0.00e+00	0	57	0	1582301184	47	4174
2026-01-07 00:04:21.79	214.52	34.07	-37.6	-39.1	16.7	0.00e+00	0	57	0	1585446912	47	4135
2026-01-07 00:04:22.80	214.43	33.85	-37.7	-39.3	16.5	0.00e+00	0	57	0	1588592640	47	4209
2026-01-07 00:04:23.81	214.35	33.64	-37.9	-39.5	16.3	0.00e+00	0	57	0	1591738368	47	4337
2026-01-07 00:04:24.82	214.26	33.42	-38.1	-39.8	16.1	0.00e+00	0	57	0	1594884096	47	4457
2026-01-07 00:04:25.83	214.18	33.21	-38.1	-39.8	16.1	0.00e+00	0	57	0	1598029824	47	4460
2026-01-07 00:04:26.84	214.10	33.00	-37.9	-39.6	16.3	0.00e+00	0	57	0	1601175552	47	4345
2026-01-07 00:04:27.85	214.02	32.79	-37.6	-39.2	16.7	0.00e+00	0	57	0	1604321280	47	4173
2026-01-07 00:04:28.86	213.94	32.59	-37.4	-39.0	16.8	0.00e+00	0	57	0	1607467008	46	4319
2026-01-07 00:04:29.87	213.86	32.38	-37.3	-38.9	17.0	0.00e+00	0	57	0	1610612736	46	4266
2026-01-07 00:04:30.87	213.78	32.18	-37.3	-38.8	17.0	0.00e+00	0	57	0	1613758464	46	4234
2026-01-07 00:04:31.89	213.70	31.97	-37.2	-38.8	17.1	0.00e+00	0	57	0	1616904192	46	4197
2026-01-07 00:04:32.90	213.63	31.77	-37.2	-38.7	17.1	0.00e+00	0	57	0	1620049920	46	4185
2026-01-07 00:04:33.91	213.55	31.57	-37.2	-38.7	17.1	0.00e+00	0	57	0	1623195648	46	4183
2026-01-07 00:04:34.91	213.48	31.37	-37.4	-38.9	16.9	0.00e+00	0	57	0	1626341376	46	4265
2026-01-07 00:04:35.92	213.40	31.17	-37.4	-39.0	16.9	0.00e+00	0	57	0	1629487104	46	4304
2026-01-07 00:04:36.93	213.33	30.98	-37.5	-39.1	16.7	0.00e+00	0	57	0	1632632832	46	4371
2026-01-07 00:04:37.95	213.26	30.78	-37.7	-39.3	16.5	0.00e+00	0	56	0	1635778560	46	4473
2026-01-07 00:04:38.96	213.19	30.58	-37.8	-39.4	16.4	0.00e+00	0	57	0	1638924288	46	4532
2026-01-07 00:04:39.97	213.12	30.39	-37.9	-39.6	16.2	0.00e+00	0	57	0	1642070016	46	4623
2026-01-07 00:04:40.98	213.05	30.20	-38.1	-39.8	16.0	0.00e+00	0	57	0	1645215744	46	4745
2026-01-07 00:04:41.99	212.98	30.01	-38.2	-40.0	15.9	0.00e+00	0	57	0	1648361472	46	4836
2026-01-07 00:04:42.99	212.92	29.82	-38.0	-39.7	16.1	0.00e+00	0	57	0	1651507200	46	4691
2026-01-07 00:04:44.01	212.85	29.63	-37.8	-39.5	16.3	0.00e+00	0	57	0	1654652928	46	4582
2026-01-07 00:04:45.02	212.79	29.44	-37.7	-39.4	16.4	0.00e+00	0	57	0	1657798656	46	4517
2026-01-07 00:04:46.03	212.72	29.26	-37.7	-39.3	16.5	0.00e+00	0	57	0	1660944384	46	4461
2026-01-07 00:04:47.03	212.66	29.08	-37.6	-39.2	16.6	0.00e+00	0	57	0	1664090112	46	4429
2026-01-07 00:04:48.04	212.60	28.89	-37.5	-39.1	16.7	0.00e+00	0	57	0	1667235840	46	4342
2026-01-07 00:04:49.05	212.53	28.71	-37.1	-38.6	17.2	0.00e+00	0	57	0	1670381568	46	4122
2026-01-07 00:04:50.06	212.47	28.53	-37.0	-38.4	17.3	0.00e+00	0	57	0	1673527296	46	4049
2026-01-07 00:04:51.07	212.41	28.35	-36.9	-38.3	17.4	0.00e+00	0	57	0	1676673024	45	4240
2026-01-07 00:04:52.08	212.35	28.17	-36.7	-38.1	17.6	0.00e+00	0	57	0	1679818752	45	4122
2026-01-07 00:04:53.09	212.29	27.99	-36.5	-37.9	17.8	0.00e+00	0	57	0	1682964480	45	4023
2026-01-07 00:04:54.10	212.23	27.81	-36.5	-37.8	17.9	0.00e+00	0	57	0	1686110208	44	4234
2026-01-07 00:04:55.11	212.17	27.64	-36.4	-37.7	18.0	0.00e+00	0	57	0	1689255936	44	4183
2026-01-07 00:04:56.12	212.12	27.46	-36.2	-37.6	18.1	0.00e+00	0	57	0	1692401664	44	4102
2026-01-07 00:04:57.13	212.06	27.29	-36.2	-37.5	18.2	0.00e+00	0	57	0	1695547392	44	4070
2026-01-07 00:04:58.14	212.00	27.12	-36.1	-37.4	18.3	0.00e+00	0	57	0	1698693120	44	4024
2026-01-07 00:04:59.15	211.95	26.95	-36.1	-37.4	18.3	0.00e+00	0	57	0	1701838848	44	4010
2026-01-07 00:05:00.16	211.89	26.78	-36.0	-37.4	18.3	0.00e+00	0	57	0	1704984576	44	4007
2026-01-07 00:05:01.17	211.84	26.61	-36.1	-37.4	18.2	0.00e+00	0	57	0	1708130304	44	4046
2026-01-07 00:05:02.18	211.79	26.44	-36.2	-37.5	18.2	0.00e+00	0	57	0	1711276032	44	4083
2026-01-07 00:05:03.19	211.73	26.27	-36.3	-37.7	18.0	0.00e+00	0	57	0	1714421760	44	4171
2026-01-07 00:05:04.20	211.68	26.11	-36.5	-37.9	17.8	0.00e+00	0	57	0	1717567488	44	4273
2026-01-07 00:05:05.21	211.63	25.94	-36.7	-38.1	17.6	0.00e+00	0	57	0	1720713216	44	4362
2026-01-07 00:05:06.22	211.58	25.78	-36.7	-38.2	17.6	0.00e+00	0	57	0	1723858944	44	4399
2026-01-07 00:05:07.23	211.53	25.61	-36.8	-38.3	17.4	0.00e+00	0	57	0	1727004672	44	4463
2026-01-07 00:05:08.24	211.48	25.45	-36.9	-38.4	17.4	0.00e+00	0	57	0	1730150400	44	4496
2026-01-07 00:05:09.25	211.43	25.29	-36.9	-38.4	17.3	0.00e+00	0	56	0	1733296128	44	4523
2026-01-07 00:05:10.26	211.38	25.13	-37.0	-38.5	17.2	0.00e+00	0	57	0	1736441856	44	4585
2026-01-07 00:05:11.26	211.33	24.97	-37.1	-38.6	17.1	0.00e+00	0	57	0	1739587584	44	4636
2026-01-07 00:05:12.28	211.28	24.81	-37.2	-38.7	17.0	0.00e+00	0	57	0	1742733312	44	4688
2026-01-07 00:05:13.29	211.23	24.65	-37.2	-38.8	16.9	0.00e+00	0	57	0	1745879040	45	4459
2026-01-07 00:05:14.30	211.19	24.50	-37.2	-38.8	16.9	0.00e+00	0	57	0	1749024768	45	4471
2026-01-07 00:05:15.31	211.14	24.34	-37.2	-38.8	16.9	0.00e+00	0	57	0	1752170496	45	4451
2026-01-07 00:05:16.32	211.09	24.18	-37.3	-38.8	16.9	0.00e+00	0	57	0	1755316224	45	4489
2026-01-07 00:05:17.33	211.05	24.03	-37.2	-38.8	16.9	0.00e+00	0	57	0	1758461952	45	4475
2026-01-07 00:05:18.34	211.00	23.88	-37.2	-38.7	17.0	0.00e+00	0	57	0	1761607680	45	4430
2026-01-07 00:05:19.34	210.96	23.73	-37.2	-38.7	16.9	0.00e+00	0	57	0	1764753408	45	4440
2026-01-07 00:05:20.35	210.91	23.58	-37.2	-38.7	16.9	0.00e+00	0	57	0	1767899136	45	4435
2026-01-07 00:05:21.36	210.87	23.42	-37.2	-38.7	16.9	0.00e+00	0	57	0	1771044864	45	4426
2026-01-07 00:05:22.37	210.83	23.28	-37.2	-38.8	16.9	0.00e+00	0	57	0	1774190592	45	4446
2026-01-07 00:05:23.38	210.78	23.13	-37.2	-38.8	16.9	0.00e+00	0	57	0	1777336320	45	4466
2026-01-07 00:05:24.39	210.74	22.98	-37.2	-38.8	16.9	0.00e+00	0	57	0	1780482048	45	4451
2026-01-07 00:05:25.40	210.70	22.83	-37.2	-38.7	16.9	0.00e+00	0	57	0	1783627776	45	4432
2026-01-07 00:05:26.42	210.66	22.68	-37.2	-38.8	16.9	0.00e+00	0	57	0	1786773504	45	4458
2026-01-07 00:05:27.42	210.62	22.54	-37.1	-38.7	17.0	0.00e+00	0	57	0	1789919232	45	4395
2026-01-07 00:05:28.44	210.57	22.39	-37.1	-38.7	17.0	0.00e+00	0	57	0	1793064960	45	4398
2026-01-07 00:05:29.45	210.53	22.25	-37.0	-38.5	17.1	0.00e+00	0	57	0	1796210688	45	4334
2026-01-07 00:05:30.46	210.49	22.11	-37.0	-38.5	17.1	0.00e+00	0	57	0	1799356416	45	4319
2026-01-07 00:05:31.47	210.45	21.96	-37.0	-38.5	17.1	0.00e+00	0	57	0	1802502144	45	4316
2026-01-07 00:05:32.48	210.41	21.82	-36.9	-38.4	17.2	0.00e+00	0	57	0	1805647872	45	4289
2026-01-07 00:05:33.49	210.38	21.68	-36.9	-38.4	17.2	0.00e+00	0	57	0	1808793600	45	4276
2026-01-07 00:05:34.50	210.34	21.54	-36.9	-38.5	17.2	0.00e+00	0	57	0	1811939328	45	4297
2026-01-07 00:05:35.50	210.30	21.40	-37.0	-38.5	17.1	0.00e+00	0	57	0	1815085056	45	4319
2026-01-07 00:05:36.51	210.26	21.26	-36.9	-38.5	17.1	0.00e+00	0	57	0	1818230784	45	4303
2026-01-07 00:05:37.53	210.22	21.13	-36.9	-38.4	17.2	0.00e+00	0	57	0	1821376512	45	4266
2026-01-07 00:05:38.54	210.19	20.99	-36.9	-38.5	17.1	0.00e+00	0	57	0	1824522240	45	4300
2026-01-07 00:05:39.55	210.15	20.85	-36.9	-38.4	17.1	0.00e+00	0	57	0	1827667968	45	4289
2026-01-07 00:05:40.56	210.11	20.72	-36.8	-38.3	17.2	0.00e+00	0	57	0	1830813696	45	4240
2026-01-07 00:05:41.57	210.08	20.58	-36.9	-38.4	17.2	0.00e+00	0	57	0	1833959424	45	4277
2026-01-07 00:05:42.58	210.04	20.45	-36.9	-38.4	17.2	0.00e+00	0	57	0	1838153728	45	4258
2026-01-07 00:05:43.58	210.01	20.31	-36.8	-38.4	17.2	0.00e+00	0	57	0	1841299456	45	4244
2026-01-07 00:05:44.59	209.97	20.18	-36.8	-38.3	17.2	0.00e+00	0	57	0	1843396608	45	4234
2026-01-07 00:05:45.60	209.94	20.05	-36.8	-38.3	17.3	0.00e+00	0	57	0	1846542336	45	4203
2026-01-07 00:05:46.61	209.90	19.92	-36.8	-38.2	17.3	0.00e+00	0	57	0	1849688064	45	4193
2026-01-07 00:05:47.63	209.87	19.79	-36.8	-38.3	17.2	0.00e+00	0	57	0	1853882368	45	4226
2026-01-07 00:05:48.64	209.83	19.66	-36.8	-38.3	17.3	0.00e+00	0	57	0	1857028096	45	4202
2026-01-07 00:05:49.65	209.80	19.53	-36.8	-38.3	17.2	0.00e+00	0	57	0	1860173824	45	4220
2026-01-07 00:05:50.66	209.77	19.40	-36.8	-38.4	17.2	0.00e+00	0	57	0	1863319552	45	4245
2026-01-07 00:05:51.67	209.73	19.27	-36.9	-38.4	17.1	0.00e+00	0	57	0	1865416704	45	4274
2026-01-07 00:05:52.68	209.70	19.14	-36.9	-38.4	17.1	0.00e+00	0	57	0	1869611008	45	4287
2026-01-07 00:05:53.69	209.67	19.02	-37.0	-38.6	16.9	0.00e+00	0	57	0	1872756736	45	4344
2026-01-07 00:05:54.70	209.64	18.89	-37.0	-38.6	16.9	0.00e+00	0	57	0	1875902464	45	4354
2026-01-07 00:05:55.71	209.61	18.76	-37.0	-38.6	16.9	0.00e+00	0	57	0	1879048192	45	4359
2026-01-07 00:05:56.72	209.57	18.64	-37.1	-38.7	16.8	0.00e+00	0	57	0	1882193920	45	4414
2026-01-07 00:05:57.73	209.54	18.51	-37.2	-38.8	16.8	0.00e+00	0	57	0	1885339648	45	4443
2026-01-07 00:05:58.74	209.51	18.39	-37.1	-38.7	16.8	0.00e+00	0	57	0	1888485376	45	4431
2026-01-07 00:05:59.75	209.48	18.27	-37.2	-38.8	16.7	0.00e+00	0	57	0	1891631104	45	4467
2026-01-07 00:06:00.76	209.45	18.15	-37.2	-38.8	16.7	0.00e+00	0	57	0	1894776832	45	4463
2026-01-07 00:06:01.77	209.42	18.02	-37.3	-38.9	16.6	0.00e+00	0	57	0	1897922560	45	4521
2026-01-07 00:06:02.78	209.39	17.90	-37.3	-38.9	16.6	0.00e+00	0	57	0	1901068288	45	4539
2026-01-07 00:06:03.79	209.36	17.78	-37.3	-38.9	16.6	0.00e+00	0	57	0	1904214016	45	4523
2026-01-07 00:06:04.80	209.33	17.66	-37.4	-39.0	16.5	0.00e+00	0	57	0	1907359744	45	4595
2026-01-07 00:06:05.81	209.30	17.54	-37.4	-39.0	16.5	0.00e+00	0	57	0	1910505472	45	4574
2026-01-07 00:06:06.82	209.28	17.42	-37.4	-39.1	16.3	0.00e+00	0	57	0	1913651200	45	4624
2026-01-07 00:06:07.83	209.25	17.30	-37.5	-39.2	16.3	0.00e+00	0	57	0	1916796928	45	4691
2026-01-07 00:06:08.84	209.22	17.19	-37.6	-39.3	16.2	0.00e+00	0	57	0	1919942656	45	4723
2026-01-07 00:06:09.85	209.19	17.07	-37.5	-39.2	16.3	0.00e+00	0	57	0	1923088384	45	4699
2026-01-07 00:06:10.86	209.16	16.95	-37.5	-39.2	16.3	0.00e+00	0	57	0	1926234112	45	4665
2026-01-07 00:06:11.87	209.14	16.84	-37.5	-39.2	16.2	0.00e+00	0	57	0	1929379840	45	4698
2026-01-07 00:06:12.88	209.11	16.72	-37.6	-39.3	16.2	0.00e+00	0	57	0	1932525568	45	4717
2026-01-07 00:06:13.89	209.08	16.61	-37.7	-39.4	16.1	0.00e+00	0	57	0	1935671296	45	4775
2026-01-07 00:06:14.90	209.05	16.49	-37.5	-39.2	16.2	0.00e+00	0	57	0	1938817024	45	4683
2026-01-07 00:06:15.91	209.03	16.38	-37.6	-39.3	16.2	0.00e+00	0	57	0	1941962752	45	4724
2026-01-07 00:06:16.92	209.00	16.26	-37.7	-39.4	16.1	0.00e+00	0	57	0	1945108480	45	4775
2026-01-07 00:06:17.93	208.97	16.15	-37.7	-39.4	16.0	0.00e+00	0	57	0	1948254208	45	4799
2026-01-07 00:06:18.94	208.95	16.04	-37.6	-39.3	16.1	0.00e+00	0	57	0	1951399936	46	4470
2026-01-07 00:06:19.95	208.92	15.93	-37.7	-39.4	16.0	0.00e+00	0	57	0	1954545664	46	4531
2026-01-07 00:06:20.96	208.90	15.81	-37.7	-39.4	16.0	0.00e+00	0	57	0	1957691392	46	4518
2026-01-07 00:06:21.97	208.87	15.70	-37.6	-39.3	16.1	0.00e+00	0	57	0	1960837120	46	4480
2026-01-07 00:06:22.97	208.85	15.59	-37.6	-39.4	16.1	0.00e+00	0	57	0	1963982848	46	4499
2026-01-07 00:06:23.98	208.82	15.48	-37.7	-39.4	16.0	0.00e+00	0	57	0	1967128576	46	4515
2026-01-07 00:06:24.99	208.80	15.37	-37.8	-39.5	15.9	0.00e+00	0	57	0	1970274304	46	4586
