passes_logs/2026/01/06/R2.0S_Moscow/R2.0S_Moscow__20260106_001334_NOAA_21_JPSS-2_rec.log

#Pass ID: 20260106_001334_NOAA 21 (JPSS-2)
#Satellite: NOAA 21 (JPSS-2)
#Configuration: NOAA-21
#almurnet v.1.7.20251203
#Start time: 2026-01-06 00:16:22

#Version: 2.2.20231116
#Station: R2.0S_Moscow
#Location: 37.707566 lon 55.798166 lat
#TLE: 1 54234U 22150A   26005.21525222  .00000150  00000+0  91957-4 0  9992
#TLE: 2 54234  98.7490 306.2339 0001053 341.6032  18.5106 14.19532220163427

#Time	Az	El	Level	Level2	SNR	BER	BlckErr	Temp	State	Recorded	gain1	gain2
2026-01-06 00:16:22.56	8.08	15.42	-44.9	-56.8	3.8	8.46e-01	0	57	0	0	61	14148
2026-01-06 00:16:23.56	8.02	15.52	-45.3	-57.9	3.8	1.49e+00	0	57	104	0	62	15120
2026-01-06 00:16:24.57	7.97	15.63	-45.3	-57.8	3.8	1.49e+00	0	57	104	0	62	15033
2026-01-06 00:16:25.58	7.91	15.73	-45.3	-57.8	3.8	1.49e+00	0	57	104	0	62	14914
2026-01-06 00:16:26.59	7.85	15.84	-45.2	-57.7	3.8	1.49e+00	0	57	104	0	62	14861
2026-01-06 00:16:27.60	7.79	15.95	-45.2	-57.7	3.8	1.49e+00	0	57	104	0	62	14867
2026-01-06 00:16:28.61	7.73	16.06	-45.1	-57.6	3.8	1.49e+00	0	57	104	0	62	14609
2026-01-06 00:16:29.62	7.67	16.16	-45.0	-57.5	3.8	1.49e+00	0	57	104	0	62	14418
2026-01-06 00:16:30.63	7.61	16.27	-44.8	-57.2	3.8	1.49e+00	0	57	104	0	61	14855
2026-01-06 00:16:31.65	7.55	16.38	-44.8	-57.2	3.8	1.49e+00	0	57	104	0	61	14721
2026-01-06 00:16:32.66	7.49	16.49	-44.7	-57.2	3.8	1.49e+00	0	57	104	0	61	14721
2026-01-06 00:16:33.67	7.42	16.60	-44.8	-57.2	3.8	1.49e+00	0	57	104	0	61	14724
2026-01-06 00:16:34.68	7.36	16.71	-44.7	-57.1	3.8	1.49e+00	0	57	104	0	61	14704
2026-01-06 00:16:35.69	7.30	16.82	-44.7	-57.1	3.8	1.49e+00	0	57	104	0	61	14635
2026-01-06 00:16:36.70	7.24	16.93	-44.7	-57.1	3.8	1.49e+00	0	57	104	0	61	14575
2026-01-06 00:16:37.71	7.17	17.05	-44.7	-56.9	3.8	1.49e+00	0	57	104	0	61	14280
2026-01-06 00:16:38.72	7.11	17.16	-44.7	-56.7	3.8	1.49e+00	0	57	104	0	61	13989
2026-01-06 00:16:39.74	7.04	17.27	-44.6	-56.4	3.8	1.49e+00	0	57	104	0	61	13485
2026-01-06 00:16:40.75	6.98	17.38	-44.6	-56.1	3.8	1.49e+00	0	57	104	0	61	13032
2026-01-06 00:16:41.76	6.91	17.50	-44.6	-55.6	3.8	1.49e+00	0	57	104	0	61	12351
2026-01-06 00:16:42.77	6.84	17.61	-44.5	-55.3	3.8	1.48e+00	0	57	104	0	61	11829
2026-01-06 00:16:43.78	6.78	17.73	-44.5	-54.9	3.9	1.48e+00	0	57	104	0	60	12011
2026-01-06 00:16:44.79	6.71	17.84	-44.4	-54.0	4.1	1.48e+00	0	57	104	0	60	10879
2026-01-06 00:16:45.80	6.64	17.96	-44.4	-54.1	3.9	1.46e+00	0	57	104	0	60	10936
2026-01-06 00:16:46.81	6.57	18.07	-44.4	-53.8	4.2	1.47e+00	0	57	104	0	60	10534
2026-01-06 00:16:47.82	6.50	18.19	-44.4	-54.0	4.1	1.47e+00	0	57	104	0	60	10821
2026-01-06 00:16:48.83	6.43	18.31	-44.4	-54.1	4.1	1.47e+00	0	57	104	0	60	10997
2026-01-06 00:16:49.85	6.36	18.43	-44.5	-54.5	3.9	1.47e+00	0	57	104	0	60	11485
2026-01-06 00:16:50.86	6.29	18.54	-44.5	-54.6	4.0	1.48e+00	0	57	104	0	60	11564
2026-01-06 00:16:51.87	6.22	18.66	-44.5	-54.8	4.0	1.48e+00	0	57	104	0	60	11868
2026-01-06 00:16:52.88	6.15	18.78	-44.5	-55.2	3.8	1.49e+00	0	57	104	0	60	12444
2026-01-06 00:16:53.89	6.07	18.90	-44.5	-54.7	4.0	1.48e+00	0	57	104	0	60	11796
2026-01-06 00:16:54.90	6.00	19.02	-44.4	-54.7	3.9	1.48e+00	0	57	104	0	60	11733
2026-01-06 00:16:55.91	5.93	19.14	-44.4	-53.8	4.2	1.47e+00	0	57	104	0	60	10583
2026-01-06 00:16:56.92	5.85	19.26	-44.3	-53.2	4.0	1.44e+00	0	57	104	0	60	9925
2026-01-06 00:16:57.93	5.78	19.39	-44.2	-52.7	4.5	1.39e+00	4	57	104	0	60	9320
2026-01-06 00:16:58.94	5.70	19.51	-44.1	-52.3	4.1	9.59e-01	0	57	104	0	60	8863
2026-01-06 00:16:59.96	5.62	19.63	-44.1	-51.8	4.9	7.59e-01	0	57	0	0	60	8422
2026-01-06 00:17:00.97	5.55	19.76	-44.0	-51.7	5.0	6.94e-01	0	57	0	3145728	60	8290
2026-01-06 00:17:01.98	5.47	19.88	-44.1	-52.7	4.0	8.37e-01	2	57	104	6291456	60	9380
2026-01-06 00:17:02.99	5.39	20.00	-44.3	-53.6	3.9	1.26e+00	0	57	104	6291456	60	10308
2026-01-06 00:17:04.00	5.31	20.13	-44.5	-54.6	4.0	1.47e+00	0	57	104	6291456	60	11555
2026-01-06 00:17:05.01	5.23	20.26	-44.6	-56.0	3.8	1.49e+00	0	57	104	6291456	60	13715
2026-01-06 00:17:06.02	5.15	20.38	-44.5	-54.5	4.0	1.49e+00	0	57	104	6291456	60	11423
2026-01-06 00:17:07.03	5.07	20.51	-44.0	-51.0	5.3	7.53e-01	0	57	0	6291456	59	8121
2026-01-06 00:17:08.04	4.99	20.64	-42.9	-47.6	8.1	9.06e-02	0	57	0	9437184	57	6173
2026-01-06 00:17:09.05	4.90	20.76	-41.5	-44.9	10.8	9.35e-03	0	57	0	12582912	55	5063
2026-01-06 00:17:10.06	4.82	20.89	-40.2	-42.6	13.1	1.51e-04	0	57	0	15728640	52	4649
2026-01-06 00:17:11.07	4.74	21.02	-39.1	-41.1	14.8	7.00e-07	0	57	0	18874368	50	4371
2026-01-06 00:17:12.09	4.65	21.15	-38.2	-39.9	16.0	0.00e+00	0	57	0	22020096	48	4277
2026-01-06 00:17:13.10	4.56	21.28	-37.5	-39.1	16.7	0.00e+00	0	57	0	25165824	47	4105
2026-01-06 00:17:14.11	4.48	21.42	-37.0	-38.5	17.2	0.00e+00	0	57	0	28311552	46	4097
2026-01-06 00:17:15.12	4.39	21.55	-37.0	-38.5	17.3	0.00e+00	0	57	0	31457280	45	4294
2026-01-06 00:17:16.13	4.30	21.68	-37.1	-38.6	17.1	0.00e+00	0	57	0	34603008	45	4368
2026-01-06 00:17:17.14	4.21	21.81	-37.4	-39.0	16.8	0.00e+00	0	57	0	37748736	45	4572
2026-01-06 00:17:18.15	4.13	21.95	-37.0	-38.5	17.3	0.00e+00	0	57	0	40894464	45	4320
2026-01-06 00:17:19.16	4.03	22.08	-38.1	-39.8	16.2	0.00e+00	0	57	0	44040192	48	4199
2026-01-06 00:17:20.17	3.94	22.21	-42.8	-47.3	8.6	3.95e-02	0	57	0	47185920	57	5990
2026-01-06 00:17:21.18	3.85	22.35	-39.3	-41.3	14.5	2.20e-06	0	57	0	50331648	50	4464
2026-01-06 00:17:22.19	3.76	22.49	-40.3	-42.8	13.0	7.24e-05	0	57	0	53477376	51	5014
2026-01-06 00:17:23.20	3.67	22.62	-36.7	-38.1	17.7	0.00e+00	0	57	0	56623104	45	4126
2026-01-06 00:17:24.21	3.57	22.76	-36.6	-38.1	17.7	0.00e+00	0	57	0	59768832	45	4104
2026-01-06 00:17:25.22	3.48	22.90	-36.7	-38.2	17.6	0.00e+00	0	57	0	62914560	45	4159
2026-01-06 00:17:26.23	3.38	23.04	-36.5	-37.9	17.8	0.00e+00	0	57	0	66060288	45	4040
2026-01-06 00:17:27.24	3.28	23.18	-36.4	-37.8	17.9	0.00e+00	0	57	0	69206016	44	4239
2026-01-06 00:17:28.25	3.18	23.32	-36.4	-37.8	17.9	0.00e+00	0	57	0	72351744	44	4238
2026-01-06 00:17:29.26	3.09	23.46	-36.5	-37.9	17.9	0.00e+00	0	57	0	75497472	44	4272
2026-01-06 00:17:30.27	2.99	23.60	-36.5	-38.0	17.8	0.00e+00	0	57	0	78643200	44	4293
2026-01-06 00:17:31.28	2.88	23.74	-36.4	-37.8	17.9	0.00e+00	0	57	0	81788928	44	4227
2026-01-06 00:17:32.29	2.78	23.88	-36.4	-37.8	18.0	0.00e+00	0	57	0	84934656	44	4216
2026-01-06 00:17:33.31	2.68	24.03	-36.4	-37.8	18.0	0.00e+00	0	57	0	88080384	44	4212
2026-01-06 00:17:34.32	2.57	24.17	-36.4	-37.8	18.0	0.00e+00	0	57	0	91226112	44	4224
2026-01-06 00:17:35.32	2.47	24.32	-36.5	-37.9	17.9	0.00e+00	0	57	0	94371840	44	4256
2026-01-06 00:17:36.34	2.36	24.46	-36.5	-38.0	17.8	0.00e+00	0	57	0	97517568	44	4294
2026-01-06 00:17:37.35	2.26	24.61	-36.6	-38.0	17.8	0.00e+00	0	57	0	100663296	44	4307
2026-01-06 00:17:38.36	2.15	24.76	-36.7	-38.1	17.7	0.00e+00	0	57	0	103809024	44	4381
2026-01-06 00:17:39.37	2.04	24.90	-36.8	-38.2	17.6	0.00e+00	0	57	0	106954752	44	4432
2026-01-06 00:17:40.38	1.93	25.05	-36.7	-38.2	17.6	0.00e+00	0	57	0	110100480	44	4409
2026-01-06 00:17:41.39	1.82	25.20	-36.8	-38.3	17.5	0.00e+00	0	57	0	113246208	44	4457
2026-01-06 00:17:42.40	1.71	25.35	-36.9	-38.3	17.5	0.00e+00	0	57	0	116391936	44	4491
2026-01-06 00:17:43.41	1.59	25.50	-37.0	-38.5	17.4	0.00e+00	0	57	0	119537664	44	4550
2026-01-06 00:17:44.42	1.48	25.65	-37.0	-38.6	17.3	0.00e+00	0	57	0	122683392	44	4601
2026-01-06 00:17:45.43	1.37	25.80	-37.2	-38.7	17.1	0.00e+00	0	57	0	125829120	44	4684
2026-01-06 00:17:46.44	1.25	25.96	-37.3	-38.9	17.0	0.00e+00	0	57	0	128974848	45	4508
2026-01-06 00:17:47.45	1.13	26.11	-37.3	-38.9	17.0	0.00e+00	0	57	0	132120576	45	4513
2026-01-06 00:17:48.46	1.01	26.26	-37.2	-38.8	17.1	0.00e+00	0	57	0	135266304	45	4462
2026-01-06 00:17:49.47	0.89	26.42	-37.3	-38.9	17.0	0.00e+00	0	57	0	138412032	45	4501
2026-01-06 00:17:50.48	0.77	26.58	-37.2	-38.7	17.1	0.00e+00	0	57	0	141557760	45	4439
2026-01-06 00:17:51.49	0.65	26.73	-37.3	-38.8	17.0	0.00e+00	0	57	0	144703488	45	4491
2026-01-06 00:17:52.50	0.52	26.89	-37.4	-39.0	16.9	0.00e+00	0	57	0	147849216	45	4547
2026-01-06 00:17:53.51	0.40	27.05	-37.4	-39.0	16.9	0.00e+00	0	57	0	152043520	45	4549
2026-01-06 00:17:54.52	0.27	27.21	-37.5	-39.1	16.8	0.00e+00	0	57	0	154140672	45	4628
2026-01-06 00:17:55.53	0.15	27.37	-37.5	-39.1	16.8	0.00e+00	0	57	0	157286400	45	4647
2026-01-06 00:17:56.54	0.02	27.53	-37.5	-39.1	16.8	0.00e+00	0	57	0	160432128	45	4630
2026-01-06 00:17:57.55	359.89	27.69	-37.5	-39.1	16.8	0.00e+00	0	57	0	163577856	45	4620
2026-01-06 00:17:58.56	359.75	27.85	-37.5	-39.1	16.8	0.00e+00	0	57	0	167772160	45	4606
2026-01-06 00:17:59.57	359.62	28.01	-37.5	-39.1	16.8	0.00e+00	0	57	0	170917888	45	4628
2026-01-06 00:18:00.58	359.49	28.17	-37.5	-39.0	16.8	0.00e+00	0	57	0	174063616	45	4588
2026-01-06 00:18:01.59	359.35	28.34	-37.5	-39.1	16.8	0.00e+00	0	57	0	176160768	45	4612
2026-01-06 00:18:02.60	359.21	28.50	-37.6	-39.2	16.7	0.00e+00	0	57	0	179306496	45	4657
2026-01-06 00:18:03.61	359.08	28.67	-37.7	-39.3	16.7	0.00e+00	0	57	0	182452224	45	4715
2026-01-06 00:18:04.62	358.93	28.84	-37.5	-39.1	16.8	0.00e+00	0	57	0	186646528	45	4634
2026-01-06 00:18:05.63	358.79	29.00	-37.5	-39.1	16.9	0.00e+00	0	57	0	189792256	45	4604
2026-01-06 00:18:06.63	358.65	29.17	-37.4	-39.0	16.9	0.00e+00	0	57	0	192937984	45	4582
2026-01-06 00:18:07.64	358.51	29.34	-37.5	-39.1	16.9	0.00e+00	0	57	0	196083712	45	4604
2026-01-06 00:18:08.66	358.36	29.51	-37.4	-39.0	17.0	0.00e+00	0	57	0	199229440	45	4566
2026-01-06 00:18:09.67	358.21	29.68	-37.4	-39.0	16.9	0.00e+00	0	57	0	202375168	45	4558
2026-01-06 00:18:10.68	358.06	29.85	-37.5	-39.0	16.9	0.00e+00	0	57	0	205520896	45	4584
2026-01-06 00:18:11.69	357.91	30.02	-37.2	-38.7	17.2	0.00e+00	0	57	0	208666624	45	4420
2026-01-06 00:18:12.70	357.76	30.20	-37.2	-38.7	17.2	0.00e+00	0	57	0	211812352	45	4438
2026-01-06 00:18:13.71	357.60	30.37	-37.3	-38.8	17.1	0.00e+00	0	57	0	214958080	45	4467
2026-01-06 00:18:14.72	357.45	30.55	-37.4	-39.0	17.0	0.00e+00	0	57	0	218103808	45	4551
2026-01-06 00:18:15.73	357.29	30.72	-37.5	-39.1	16.8	0.00e+00	0	57	0	221249536	45	4646
2026-01-06 00:18:16.74	357.13	30.90	-37.6	-39.2	16.8	0.00e+00	0	57	0	224395264	45	4679
2026-01-06 00:18:17.75	356.97	31.08	-37.6	-39.3	16.7	0.00e+00	0	57	0	227540992	45	4707
2026-01-06 00:18:18.76	356.80	31.25	-37.7	-39.3	16.7	0.00e+00	0	57	0	230686720	45	4741
2026-01-06 00:18:19.77	356.64	31.43	-37.7	-39.3	16.7	0.00e+00	0	57	0	233832448	45	4723
2026-01-06 00:18:20.78	356.47	31.61	-37.6	-39.2	16.8	0.00e+00	0	57	0	236978176	45	4676
2026-01-06 00:18:21.79	356.30	31.79	-37.6	-39.2	16.7	0.00e+00	0	57	0	240123904	45	4688
2026-01-06 00:18:22.80	356.13	31.97	-37.6	-39.1	16.8	0.00e+00	0	57	0	243269632	45	4650
2026-01-06 00:18:23.81	355.96	32.16	-37.5	-39.1	16.9	0.00e+00	0	57	0	246415360	45	4624
2026-01-06 00:18:24.82	355.78	32.34	-37.6	-39.2	16.8	0.00e+00	0	57	0	249561088	45	4667
2026-01-06 00:18:25.84	355.60	32.52	-37.5	-39.0	16.9	0.00e+00	0	57	0	252706816	45	4588
2026-01-06 00:18:26.85	355.43	32.71	-37.7	-39.3	16.7	0.00e+00	0	57	0	255852544	46	4485
2026-01-06 00:18:27.86	355.24	32.89	-37.7	-39.4	16.6	0.00e+00	0	57	0	258998272	46	4502
2026-01-06 00:18:28.87	355.06	33.08	-37.8	-39.5	16.5	0.00e+00	0	57	0	262144000	46	4555
2026-01-06 00:18:29.88	354.88	33.27	-37.8	-39.5	16.5	0.00e+00	0	57	0	265289728	46	4569
2026-01-06 00:18:30.89	354.69	33.45	-37.9	-39.6	16.5	0.00e+00	0	57	0	268435456	46	4604
2026-01-06 00:18:31.90	354.50	33.64	-38.0	-39.7	16.4	0.00e+00	0	57	0	271581184	46	4655
2026-01-06 00:18:32.91	354.31	33.83	-38.1	-39.8	16.3	0.00e+00	0	57	0	274726912	46	4736
2026-01-06 00:18:33.92	354.11	34.02	-38.0	-39.7	16.3	0.00e+00	0	57	0	277872640	46	4680
2026-01-06 00:18:34.93	353.92	34.21	-38.2	-40.0	16.1	0.00e+00	0	57	0	281018368	47	4558
2026-01-06 00:18:35.94	353.72	34.40	-38.1	-39.8	16.3	0.00e+00	0	57	0	284164096	47	4449
2026-01-06 00:18:36.95	353.52	34.60	-38.1	-39.8	16.3	0.00e+00	0	57	0	287309824	47	4466
2026-01-06 00:18:37.96	353.31	34.79	-38.2	-39.9	16.2	0.00e+00	0	56	0	290455552	47	4498
2026-01-06 00:18:38.97	353.10	34.98	-38.2	-39.9	16.2	0.00e+00	0	57	0	293601280	47	4509
2026-01-06 00:18:39.99	352.89	35.18	-38.2	-39.9	16.1	0.00e+00	0	57	0	296747008	47	4534
2026-01-06 00:18:41.00	352.68	35.38	-38.4	-40.1	16.0	0.00e+00	0	57	0	299892736	47	4624
2026-01-06 00:18:42.01	352.47	35.57	-38.4	-40.1	16.0	0.00e+00	0	57	0	303038464	47	4615
2026-01-06 00:18:43.02	352.25	35.77	-38.6	-40.4	15.8	0.00e+00	0	57	0	306184192	47	4763
2026-01-06 00:18:44.03	352.03	35.97	-38.5	-40.3	15.8	0.00e+00	0	57	0	309329920	47	4730
2026-01-06 00:18:45.04	351.81	36.17	-38.6	-40.4	15.7	0.00e+00	0	57	0	312475648	47	4785
2026-01-06 00:18:46.05	351.59	36.37	-38.6	-40.4	15.6	0.00e+00	0	57	0	315621376	47	4811
2026-01-06 00:18:47.06	351.36	36.57	-38.6	-40.4	15.7	0.00e+00	0	57	0	318767104	47	4785
2026-01-06 00:18:48.07	351.13	36.77	-38.6	-40.4	15.7	0.00e+00	0	57	0	321912832	47	4804
2026-01-06 00:18:49.08	350.89	36.97	-38.5	-40.2	15.9	0.00e+00	0	57	0	325058560	47	4697
2026-01-06 00:18:50.09	350.66	37.17	-38.5	-40.2	15.9	0.00e+00	0	57	0	328204288	47	4687
2026-01-06 00:18:51.10	350.42	37.37	-38.6	-40.3	15.8	0.00e+00	0	57	0	331350016	47	4745
2026-01-06 00:18:52.11	350.18	37.58	-38.7	-40.5	15.5	0.00e+00	0	57	0	334495744	47	4857
2026-01-06 00:18:53.12	349.93	37.78	-38.9	-40.7	15.5	0.00e+00	0	56	0	337641472	48	4691
2026-01-06 00:18:54.12	349.68	37.98	-38.9	-40.8	15.4	0.00e+00	0	57	0	340787200	48	4725
2026-01-06 00:18:55.13	349.43	38.19	-39.0	-40.9	15.4	0.00e+00	0	57	0	343932928	48	4760
2026-01-06 00:18:56.14	349.18	38.40	-39.0	-40.9	15.3	7.00e-07	0	57	0	347078656	48	4798
2026-01-06 00:18:57.16	348.92	38.60	-39.0	-40.9	15.3	0.00e+00	0	57	0	350224384	48	4792
2026-01-06 00:18:58.17	348.66	38.81	-39.2	-41.1	15.1	0.00e+00	0	57	0	353370112	49	4650
2026-01-06 00:18:59.18	348.39	39.02	-39.3	-41.3	14.9	0.00e+00	0	57	0	356515840	49	4747
2026-01-06 00:19:00.19	348.12	39.23	-39.4	-41.5	14.8	0.00e+00	0	57	0	359661568	49	4816
2026-01-06 00:19:01.20	347.85	39.44	-39.4	-41.4	14.9	0.00e+00	0	57	0	362807296	49	4767
2026-01-06 00:19:02.21	347.57	39.65	-39.3	-41.3	14.9	0.00e+00	0	57	0	365953024	49	4720
2026-01-06 00:19:03.22	347.29	39.86	-39.3	-41.2	15.0	0.00e+00	0	57	0	369098752	49	4699
2026-01-06 00:19:04.23	347.01	40.07	-39.2	-41.1	15.2	0.00e+00	0	56	0	372244480	49	4599
2026-01-06 00:19:05.24	346.72	40.28	-39.2	-41.1	15.1	0.00e+00	0	57	0	375390208	49	4636
2026-01-06 00:19:06.25	346.43	40.49	-39.2	-41.2	15.0	7.00e-07	0	57	0	378535936	49	4669
2026-01-06 00:19:07.26	346.14	40.70	-39.2	-41.1	15.1	0.00e+00	0	57	0	381681664	49	4632
2026-01-06 00:19:08.28	345.84	40.91	-39.2	-41.2	15.1	0.00e+00	0	57	0	384827392	49	4662
2026-01-06 00:19:09.29	345.54	41.13	-39.1	-41.0	15.2	0.00e+00	0	57	0	387973120	49	4596
2026-01-06 00:19:10.30	345.23	41.34	-39.1	-41.0	15.2	0.00e+00	0	57	0	391118848	49	4589
2026-01-06 00:19:11.30	344.92	41.55	-39.1	-41.0	15.2	0.00e+00	0	57	0	394264576	49	4590
2026-01-06 00:19:12.31	344.61	41.76	-39.2	-41.2	15.1	0.00e+00	0	57	0	397410304	49	4660
2026-01-06 00:19:13.32	344.29	41.98	-39.5	-41.4	14.8	0.00e+00	0	57	0	400556032	49	4813
2026-01-06 00:19:14.33	343.97	42.19	-39.4	-41.4	14.9	7.00e-07	0	57	0	403701760	49	4766
2026-01-06 00:19:15.34	343.64	42.40	-39.5	-41.5	14.7	7.00e-07	0	57	0	406847488	49	4860
2026-01-06 00:19:16.35	343.31	42.62	-39.8	-41.9	14.3	2.20e-06	0	57	0	409993216	50	4802
2026-01-06 00:19:17.37	342.97	42.83	-39.9	-42.1	14.2	1.50e-06	0	57	0	413138944	50	4892
2026-01-06 00:19:18.38	342.63	43.05	-39.8	-41.9	14.4	1.50e-06	0	57	0	416284672	50	4792
2026-01-06 00:19:19.38	342.28	43.26	-39.7	-41.8	14.5	7.00e-07	0	57	0	419430400	50	4729
2026-01-06 00:19:20.39	341.93	43.47	-39.7	-41.8	14.5	7.00e-07	0	57	0	422576128	50	4741
2026-01-06 00:19:21.41	341.58	43.69	-39.8	-41.9	14.4	0.00e+00	0	57	0	425721856	50	4785
2026-01-06 00:19:22.42	341.22	43.91	-39.7	-41.7	14.6	0.00e+00	0	57	0	428867584	50	4683
2026-01-06 00:19:23.43	340.85	44.12	-39.7	-41.8	14.5	0.00e+00	0	57	0	432013312	50	4748
2026-01-06 00:19:24.44	340.48	44.33	-40.2	-42.4	13.8	2.20e-06	0	57	0	435159040	50	5093
2026-01-06 00:19:25.45	340.11	44.55	-40.6	-43.1	13.2	1.06e-05	0	57	0	438304768	51	5176
2026-01-06 00:19:26.45	339.73	44.76	-40.5	-42.9	13.3	2.59e-05	0	57	0	441450496	52	4810
2026-01-06 00:19:27.46	339.35	44.97	-40.2	-42.6	13.6	1.06e-05	0	57	0	445644800	52	4621
2026-01-06 00:19:28.47	338.95	45.19	-40.1	-42.3	14.1	6.80e-06	0	57	0	447741952	51	4727
2026-01-06 00:19:29.48	338.56	45.40	-39.7	-41.8	14.5	0.00e+00	0	57	0	450887680	51	4474
2026-01-06 00:19:30.49	338.16	45.61	-40.0	-42.1	14.1	1.50e-06	0	57	0	454033408	51	4648
2026-01-06 00:19:31.50	337.75	45.82	-40.2	-42.4	13.8	3.80e-06	0	57	0	457179136	51	4814
2026-01-06 00:19:32.51	337.34	46.03	-40.4	-42.7	13.5	3.80e-06	0	57	0	461373440	51	4983
2026-01-06 00:19:33.52	336.92	46.24	-40.2	-42.5	13.8	6.80e-06	0	57	0	464519168	51	4844
2026-01-06 00:19:34.53	336.50	46.45	-40.0	-42.2	14.2	3.80e-06	0	57	0	467664896	51	4673
2026-01-06 00:19:35.54	336.07	46.66	-39.9	-42.0	14.3	1.50e-06	0	57	0	469762048	51	4560
2026-01-06 00:19:36.55	335.63	46.87	-39.7	-41.7	14.6	7.00e-07	0	57	0	472907776	51	4419
2026-01-06 00:19:37.56	335.19	47.08	-39.8	-41.9	14.4	2.20e-06	0	57	0	477102080	51	4505
2026-01-06 00:19:38.57	334.75	47.29	-39.6	-41.6	14.7	1.50e-06	0	57	0	480247808	51	4379
2026-01-06 00:19:39.58	334.29	47.49	-39.5	-41.6	14.8	7.00e-07	0	57	0	483393536	51	4341
2026-01-06 00:19:40.59	333.84	47.70	-39.4	-41.4	14.9	0.00e+00	0	57	0	486539264	50	4539
2026-01-06 00:19:41.60	333.37	47.90	-39.3	-41.3	15.1	0.00e+00	0	57	0	489684992	50	4446
2026-01-06 00:19:42.61	332.90	48.11	-39.4	-41.4	15.0	0.00e+00	0	57	0	492830720	50	4501
2026-01-06 00:19:43.62	332.42	48.31	-39.5	-41.6	14.8	0.00e+00	0	57	0	495976448	50	4600
2026-01-06 00:19:44.63	331.94	48.51	-39.4	-41.4	14.9	0.00e+00	0	57	0	499122176	50	4516
2026-01-06 00:19:45.64	331.45	48.71	-39.4	-41.4	14.9	7.00e-07	0	57	0	502267904	50	4544
2026-01-06 00:19:46.65	330.95	48.91	-39.4	-41.4	14.9	0.00e+00	0	57	0	505413632	50	4501
2026-01-06 00:19:47.66	330.45	49.10	-39.2	-41.1	15.2	0.00e+00	0	57	0	508559360	50	4369
2026-01-06 00:19:48.67	329.94	49.30	-39.1	-41.0	15.3	0.00e+00	0	57	0	511705088	50	4294
2026-01-06 00:19:49.68	329.42	49.49	-39.0	-40.9	15.4	7.00e-07	0	57	0	514850816	50	4247
2026-01-06 00:19:50.69	328.90	49.68	-39.0	-40.8	15.5	0.00e+00	0	57	0	517996544	49	4460
2026-01-06 00:19:51.71	328.37	49.87	-39.0	-40.8	15.5	0.00e+00	0	57	0	521142272	49	4479
2026-01-06 00:19:52.72	327.83	50.06	-39.3	-41.3	15.0	0.00e+00	0	57	0	524288000	49	4714
2026-01-06 00:19:53.72	327.30	50.24	-39.4	-41.4	14.9	7.00e-07	0	57	0	527433728	49	4781
2026-01-06 00:19:54.74	326.74	50.43	-39.2	-41.1	15.2	0.00e+00	0	57	0	530579456	49	4619
2026-01-06 00:19:55.75	326.18	50.61	-39.0	-40.8	15.5	0.00e+00	0	57	0	533725184	49	4477
2026-01-06 00:19:56.76	325.62	50.79	-38.9	-40.7	15.6	0.00e+00	0	57	0	536870912	49	4405
2026-01-06 00:19:57.77	325.05	50.97	-38.9	-40.7	15.6	0.00e+00	0	57	0	540016640	49	4421
2026-01-06 00:19:58.78	324.48	51.14	-38.9	-40.8	15.5	0.00e+00	0	57	0	543162368	49	4453
2026-01-06 00:19:59.79	323.89	51.32	-38.8	-40.6	15.7	0.00e+00	0	57	0	546308096	49	4344
2026-01-06 00:20:00.80	323.30	51.49	-38.5	-40.2	16.0	0.00e+00	0	57	0	549453824	48	4424
2026-01-06 00:20:01.81	322.71	51.65	-38.3	-39.9	16.4	0.00e+00	0	57	0	552599552	48	4272
2026-01-06 00:20:02.82	322.10	51.82	-38.4	-40.0	16.2	0.00e+00	0	56	0	555745280	48	4326
2026-01-06 00:20:03.83	321.49	51.98	-38.4	-40.1	16.2	0.00e+00	0	57	0	558891008	48	4362
2026-01-06 00:20:04.84	320.88	52.14	-38.4	-40.1	16.2	0.00e+00	0	57	0	562036736	48	4374
2026-01-06 00:20:05.85	320.26	52.29	-38.2	-39.8	16.5	0.00e+00	0	57	0	565182464	48	4217
2026-01-06 00:20:06.86	319.63	52.45	-38.0	-39.7	16.6	0.00e+00	0	57	0	568328192	48	4148
2026-01-06 00:20:07.87	318.99	52.60	-37.9	-39.4	16.7	0.00e+00	0	57	0	571473920	47	4286
2026-01-06 00:20:08.88	318.35	52.74	-38.0	-39.6	16.5	0.00e+00	0	57	0	574619648	47	4370
2026-01-06 00:20:09.88	317.70	52.89	-38.0	-39.6	16.5	0.00e+00	0	57	0	577765376	47	4371
2026-01-06 00:20:10.90	317.04	53.03	-37.7	-39.3	16.8	0.00e+00	0	57	0	580911104	47	4211
2026-01-06 00:20:11.91	316.38	53.16	-37.6	-39.2	17.0	0.00e+00	0	57	0	584056832	47	4155
2026-01-06 00:20:12.92	315.71	53.30	-37.4	-38.9	17.2	0.00e+00	0	57	0	587202560	46	4281
2026-01-06 00:20:13.93	315.04	53.43	-37.5	-39.0	17.1	0.00e+00	0	57	0	590348288	46	4327
2026-01-06 00:20:14.94	314.36	53.55	-37.6	-39.1	17.1	0.00e+00	0	57	0	593494016	46	4355
2026-01-06 00:20:15.95	313.67	53.67	-37.7	-39.3	16.9	0.00e+00	0	57	0	596639744	46	4454
2026-01-06 00:20:16.96	312.98	53.79	-37.9	-39.5	16.7	0.00e+00	0	57	0	599785472	46	4581
2026-01-06 00:20:17.96	312.29	53.90	-38.0	-39.7	16.5	0.00e+00	0	57	0	602931200	46	4655
2026-01-06 00:20:18.97	311.59	54.01	-38.3	-40.0	16.1	0.00e+00	0	57	0	606076928	47	4596
2026-01-06 00:20:19.98	310.88	54.12	-38.5	-40.3	15.9	0.00e+00	0	57	0	609222656	47	4722
2026-01-06 00:20:20.99	310.17	54.22	-38.2	-39.9	16.2	0.00e+00	0	57	0	612368384	47	4514
2026-01-06 00:20:22.00	309.45	54.31	-37.8	-39.4	16.7	0.00e+00	0	57	0	615514112	47	4252
2026-01-06 00:20:23.01	308.73	54.41	-37.8	-39.4	16.8	0.00e+00	0	57	0	618659840	47	4244
2026-01-06 00:20:24.02	308.00	54.50	-37.6	-39.2	16.9	0.00e+00	0	57	0	621805568	47	4167
2026-01-06 00:20:25.03	307.27	54.58	-37.6	-39.1	17.0	0.00e+00	0	57	0	624951296	47	4138
2026-01-06 00:20:26.04	306.53	54.66	-37.6	-39.1	17.0	0.00e+00	0	57	0	628097024	47	4124
2026-01-06 00:20:27.05	305.79	54.73	-37.4	-38.9	17.2	0.00e+00	0	57	0	631242752	46	4285
2026-01-06 00:20:28.06	305.05	54.80	-37.5	-39.0	17.1	0.00e+00	0	57	0	634388480	46	4331
2026-01-06 00:20:29.07	304.30	54.87	-37.4	-38.9	17.2	0.00e+00	0	57	0	637534208	46	4255
2026-01-06 00:20:30.08	303.55	54.93	-37.5	-39.0	17.1	0.00e+00	0	56	0	640679936	46	4325
2026-01-06 00:20:31.09	302.79	54.98	-37.3	-38.8	17.4	0.00e+00	0	57	0	643825664	46	4206
2026-01-06 00:20:32.10	302.04	55.03	-37.4	-38.9	17.2	0.00e+00	0	57	0	646971392	46	4263
2026-01-06 00:20:33.11	301.28	55.08	-37.8	-39.4	16.8	0.00e+00	0	56	0	650117120	46	4528
2026-01-06 00:20:34.12	300.52	55.12	-37.9	-39.5	16.7	0.00e+00	0	57	0	653262848	46	4571
2026-01-06 00:20:35.13	299.75	55.15	-37.8	-39.4	16.8	0.00e+00	0	57	0	656408576	46	4511
2026-01-06 00:20:36.14	298.99	55.18	-37.5	-39.0	17.1	0.00e+00	0	57	0	659554304	46	4329
2026-01-06 00:20:37.15	298.22	55.21	-37.3	-38.8	17.3	0.00e+00	0	57	0	662700032	46	4237
2026-01-06 00:20:38.16	297.45	55.23	-37.4	-39.0	17.2	0.00e+00	0	57	0	665845760	46	4295
2026-01-06 00:20:39.17	296.69	55.24	-37.6	-39.1	17.0	0.00e+00	0	57	0	668991488	46	4373
2026-01-06 00:20:40.18	295.92	55.25	-37.6	-39.1	17.0	0.00e+00	0	57	0	672137216	46	4386
2026-01-06 00:20:41.19	295.15	55.26	-37.6	-39.1	17.0	0.00e+00	0	57	0	675282944	46	4360
2026-01-06 00:20:42.20	294.37	55.26	-37.6	-39.2	16.9	0.00e+00	0	56	0	678428672	46	4418
2026-01-06 00:20:43.21	293.60	55.25	-37.7	-39.3	16.9	0.00e+00	0	57	0	681574400	46	4455
2026-01-06 00:20:44.22	292.83	55.24	-37.7	-39.2	17.0	0.00e+00	0	56	0	684720128	46	4431
2026-01-06 00:20:45.23	292.07	55.23	-37.9	-39.5	16.7	0.00e+00	0	56	0	687865856	46	4590
2026-01-06 00:20:46.24	291.30	55.20	-38.3	-40.0	16.2	0.00e+00	0	57	0	691011584	47	4566
2026-01-06 00:20:47.24	290.54	55.18	-38.2	-39.9	16.3	0.00e+00	0	57	0	694157312	47	4521
2026-01-06 00:20:48.25	289.77	55.15	-38.2	-39.9	16.3	0.00e+00	0	57	0	697303040	47	4497
2026-01-06 00:20:49.26	289.01	55.11	-37.8	-39.4	16.8	0.00e+00	0	57	0	700448768	47	4251
2026-01-06 00:20:50.27	288.25	55.07	-37.9	-39.5	16.6	0.00e+00	0	57	0	703594496	47	4318
2026-01-06 00:20:51.28	287.49	55.02	-38.0	-39.7	16.5	0.00e+00	0	56	0	706740224	47	4398
2026-01-06 00:20:52.29	286.73	54.97	-38.1	-39.8	16.4	0.00e+00	0	57	0	709885952	47	4456
2026-01-06 00:20:53.30	285.98	54.92	-38.3	-40.1	16.1	0.00e+00	0	56	0	713031680	47	4631
2026-01-06 00:20:54.31	285.23	54.86	-38.1	-39.8	16.3	0.00e+00	0	57	0	716177408	47	4470
2026-01-06 00:20:55.32	284.48	54.79	-38.1	-39.8	16.4	0.00e+00	0	56	0	719323136	47	4459
2026-01-06 00:20:56.34	283.73	54.72	-37.6	-39.2	17.0	0.00e+00	0	57	0	722468864	47	4160
2026-01-06 00:20:57.35	282.99	54.65	-37.9	-39.5	16.6	0.00e+00	0	57	0	725614592	47	4306
2026-01-06 00:20:58.35	282.26	54.57	-38.2	-39.9	16.3	0.00e+00	0	57	0	728760320	47	4505
2026-01-06 00:20:59.37	281.52	54.48	-38.3	-40.0	16.2	0.00e+00	0	57	0	731906048	47	4569
2026-01-06 00:21:00.38	280.79	54.39	-38.4	-40.2	16.0	0.00e+00	0	57	0	735051776	47	4678
2026-01-06 00:21:01.39	280.07	54.30	-37.9	-39.5	16.6	0.00e+00	0	57	0	738197504	47	4312
2026-01-06 00:21:02.40	279.35	54.20	-37.3	-38.9	17.3	0.00e+00	0	57	0	741343232	46	4249
2026-01-06 00:21:03.40	278.65	54.10	-37.2	-38.7	17.4	0.00e+00	0	57	0	744488960	46	4178
2026-01-06 00:21:04.41	277.94	54.00	-37.5	-39.0	17.2	0.00e+00	0	57	0	747634688	46	4303
2026-01-06 00:21:05.42	277.24	53.89	-37.9	-39.5	16.6	0.00e+00	0	57	0	750780416	46	4592
2026-01-06 00:21:06.43	276.54	53.77	-37.8	-39.5	16.7	0.00e+00	0	57	0	753926144	46	4548
2026-01-06 00:21:07.44	275.85	53.65	-38.0	-39.6	16.5	0.00e+00	0	57	0	757071872	46	4608
2026-01-06 00:21:08.45	275.16	53.53	-37.8	-39.4	16.8	0.00e+00	0	57	0	760217600	46	4503
2026-01-06 00:21:09.46	274.48	53.40	-37.6	-39.2	17.0	0.00e+00	0	57	0	763363328	46	4409
2026-01-06 00:21:10.47	273.81	53.27	-37.6	-39.1	17.0	0.00e+00	0	57	0	766509056	46	4358
2026-01-06 00:21:11.48	273.14	53.14	-37.8	-39.4	16.7	0.00e+00	0	57	0	769654784	46	4531
2026-01-06 00:21:12.49	272.48	53.00	-38.2	-39.9	16.3	0.00e+00	0	57	0	772800512	47	4503
2026-01-06 00:21:13.50	271.82	52.86	-38.2	-39.8	16.3	0.00e+00	0	57	0	775946240	47	4487
2026-01-06 00:21:14.51	271.17	52.72	-38.0	-39.6	16.6	0.00e+00	0	57	0	779091968	47	4357
2026-01-06 00:21:15.52	270.53	52.57	-37.7	-39.2	16.9	0.00e+00	0	56	0	783286272	47	4193
2026-01-06 00:21:16.53	269.89	52.42	-37.5	-39.0	17.1	0.00e+00	0	57	0	785383424	47	4089
2026-01-06 00:21:17.54	269.26	52.27	-37.9	-39.5	16.7	0.00e+00	0	57	0	788529152	47	4323
2026-01-06 00:21:18.55	268.64	52.11	-38.1	-39.8	16.3	0.00e+00	0	57	0	791674880	47	4466
2026-01-06 00:21:19.56	268.02	51.95	-38.2	-39.9	16.3	0.00e+00	0	57	0	795869184	47	4496
2026-01-06 00:21:20.57	267.41	51.79	-38.5	-40.3	15.9	0.00e+00	0	57	0	799014912	47	4717
2026-01-06 00:21:21.58	266.81	51.62	-38.3	-40.0	16.1	0.00e+00	0	57	0	802160640	47	4588
2026-01-06 00:21:22.59	266.21	51.45	-38.2	-39.9	16.2	0.00e+00	0	56	0	805306368	47	4498
2026-01-06 00:21:23.60	265.62	51.28	-38.2	-39.9	16.2	0.00e+00	0	57	0	808452096	47	4531
2026-01-06 00:21:24.61	265.04	51.11	-37.9	-39.5	16.7	0.00e+00	0	57	0	811597824	47	4309
2026-01-06 00:21:25.62	264.47	50.93	-38.2	-39.8	16.3	0.00e+00	0	57	0	814743552	47	4478
2026-01-06 00:21:26.63	263.90	50.76	-38.9	-40.8	15.5	0.00e+00	0	57	0	817889280	48	4718
2026-01-06 00:21:27.64	263.33	50.58	-39.7	-41.9	14.3	7.00e-07	0	56	0	821035008	50	4768
2026-01-06 00:21:28.65	262.78	50.39	-39.9	-42.1	14.0	2.20e-06	0	57	0	824180736	50	4909
2026-01-06 00:21:29.66	262.23	50.21	-39.1	-41.0	15.3	0.00e+00	0	57	0	827326464	50	4298
2026-01-06 00:21:30.67	261.69	50.02	-38.4	-40.1	16.2	0.00e+00	0	57	0	830472192	48	4358
2026-01-06 00:21:31.68	261.15	49.83	-38.4	-40.1	16.1	0.00e+00	0	57	0	833617920	48	4364
2026-01-06 00:21:32.70	260.61	49.64	-38.6	-40.3	15.9	0.00e+00	0	57	0	836763648	48	4492
2026-01-06 00:21:33.71	260.09	49.45	-39.2	-41.1	15.1	0.00e+00	0	56	0	839909376	49	4648
2026-01-06 00:21:34.72	259.58	49.25	-39.7	-41.7	14.5	7.00e-07	0	57	0	843055104	49	4979
2026-01-06 00:21:35.73	259.07	49.06	-39.5	-41.5	14.8	0.00e+00	0	57	0	846200832	49	4821
2026-01-06 00:21:36.74	258.56	48.86	-39.0	-40.9	15.3	0.00e+00	0	57	0	849346560	49	4518
2026-01-06 00:21:37.75	258.07	48.66	-38.9	-40.7	15.5	0.00e+00	0	57	0	852492288	49	4420
2026-01-06 00:21:38.76	257.58	48.46	-39.1	-41.0	15.3	0.00e+00	0	57	0	855638016	49	4567
2026-01-06 00:21:39.77	257.09	48.26	-39.4	-41.5	14.8	0.00e+00	0	57	0	858783744	49	4816
2026-01-06 00:21:40.78	256.62	48.06	-39.9	-42.1	14.1	0.00e+00	0	57	0	861929472	50	4906
2026-01-06 00:21:41.79	256.14	47.85	-40.4	-42.8	13.5	9.90e-06	0	57	0	865075200	51	5005
2026-01-06 00:21:42.80	255.68	47.65	-40.7	-43.2	13.0	4.50e-05	0	57	0	868220928	51	5230
2026-01-06 00:21:43.81	255.22	47.44	-39.9	-42.1	14.0	6.80e-06	0	56	0	871366656	51	4632
2026-01-06 00:21:44.82	254.77	47.24	-38.8	-40.6	15.5	0.00e+00	0	57	0	874512384	49	4371
2026-01-06 00:21:45.84	254.32	47.03	-38.2	-39.8	16.4	0.00e+00	0	57	0	877658112	48	4203
2026-01-06 00:21:46.85	253.88	46.82	-38.3	-39.9	16.3	0.00e+00	0	57	0	880803840	48	4286
2026-01-06 00:21:47.85	253.45	46.61	-38.8	-40.6	15.6	0.00e+00	0	57	0	883949568	48	4622
2026-01-06 00:21:48.86	253.02	46.40	-39.6	-41.7	14.5	0.00e+00	0	56	0	887095296	49	4936
2026-01-06 00:21:49.88	252.59	46.19	-40.3	-42.7	13.5	6.80e-06	0	57	0	890241024	51	4952
2026-01-06 00:21:50.88	252.17	45.98	-40.7	-43.2	13.0	2.89e-05	0	57	0	893386752	51	5271
2026-01-06 00:21:51.90	251.76	45.76	-40.5	-43.1	12.7	7.40e-05	0	57	0	896532480	52	4885
2026-01-06 00:21:52.91	251.35	45.55	-40.0	-42.3	13.4	3.05e-05	0	57	0	899678208	51	4729
2026-01-06 00:21:53.92	250.95	45.34	-39.5	-41.5	14.4	2.20e-06	0	57	0	902823936	51	4314
2026-01-06 00:21:54.93	250.55	45.12	-38.9	-40.7	15.4	0.00e+00	0	57	0	905969664	49	4404
2026-01-06 00:21:55.94	250.16	44.91	-38.6	-40.3	15.8	0.00e+00	0	57	0	909115392	49	4221
2026-01-06 00:21:56.95	249.78	44.70	-39.1	-40.9	15.2	0.00e+00	0	57	0	912261120	49	4528
2026-01-06 00:21:57.96	249.40	44.48	-40.1	-42.3	13.8	1.50e-06	0	57	0	915406848	50	5030
2026-01-06 00:21:58.97	249.02	44.27	-40.7	-43.3	12.8	5.41e-05	0	56	0	918552576	52	4986
2026-01-06 00:21:59.98	248.65	44.05	-40.8	-43.5	12.7	1.10e-04	0	57	0	921698304	52	5118
2026-01-06 00:22:00.99	248.29	43.84	-40.4	-42.8	13.3	3.05e-05	0	56	0	924844032	52	4719
2026-01-06 00:22:02.00	247.93	43.62	-39.9	-42.0	14.1	2.20e-06	0	56	0	927989760	51	4590
2026-01-06 00:22:03.01	247.57	43.41	-39.4	-41.3	14.7	7.00e-07	0	56	0	931135488	50	4486
2026-01-06 00:22:04.02	247.22	43.19	-38.9	-40.7	15.5	0.00e+00	0	57	0	934281216	49	4419
2026-01-06 00:22:05.03	246.88	42.98	-38.5	-40.2	16.0	0.00e+00	0	57	0	937426944	49	4178
2026-01-06 00:22:06.04	246.54	42.76	-38.4	-40.1	16.1	0.00e+00	0	56	0	940572672	48	4364
2026-01-06 00:22:07.05	246.20	42.55	-38.6	-40.3	15.9	0.00e+00	0	57	0	943718400	48	4482
2026-01-06 00:22:08.06	245.87	42.33	-39.5	-41.5	14.7	7.00e-07	0	57	0	946864128	49	4847
2026-01-06 00:22:09.07	245.54	42.12	-40.3	-42.7	13.5	6.10e-06	0	57	0	950009856	51	4950
2026-01-06 00:22:10.08	245.22	41.90	-40.4	-42.8	13.4	1.06e-05	0	57	0	953155584	51	5020
2026-01-06 00:22:11.09	244.90	41.69	-40.0	-42.2	13.9	2.20e-06	0	57	0	956301312	51	4693
2026-01-06 00:22:12.10	244.58	41.47	-39.6	-41.7	14.4	1.50e-06	0	57	0	959447040	51	4424
2026-01-06 00:22:13.11	244.27	41.26	-39.6	-41.6	14.5	0.00e+00	0	57	0	962592768	51	4383
2026-01-06 00:22:14.12	243.97	41.05	-39.5	-41.6	14.6	0.00e+00	0	57	0	965738496	51	4345
2026-01-06 00:22:15.13	243.66	40.83	-39.6	-41.7	14.5	0.00e+00	0	56	0	968884224	51	4406
2026-01-06 00:22:16.13	243.37	40.62	-39.5	-41.5	14.7	0.00e+00	0	57	0	972029952	51	4309
2026-01-06 00:22:17.15	243.07	40.41	-39.3	-41.2	15.0	0.00e+00	0	57	0	975175680	50	4434
2026-01-06 00:22:18.16	242.78	40.20	-39.3	-41.2	15.0	0.00e+00	0	56	0	978321408	50	4428
2026-01-06 00:22:19.16	242.50	39.99	-38.9	-40.8	15.4	0.00e+00	0	56	0	981467136	49	4446
2026-01-06 00:22:20.17	242.21	39.77	-38.8	-40.7	15.5	0.00e+00	0	57	0	984612864	49	4394
2026-01-06 00:22:21.18	241.93	39.56	-38.8	-40.6	15.5	0.00e+00	0	57	0	987758592	49	4363
2026-01-06 00:22:22.19	241.66	39.35	-38.7	-40.5	15.5	0.00e+00	0	57	0	990904320	49	4292
2026-01-06 00:22:23.20	241.39	39.14	-38.7	-40.5	15.4	0.00e+00	0	57	0	994050048	49	4308
2026-01-06 00:22:24.21	241.12	38.94	-38.5	-40.2	15.8	0.00e+00	0	56	0	997195776	49	4185
2026-01-06 00:22:25.22	240.85	38.73	-38.3	-40.0	16.1	0.00e+00	0	57	0	1000341504	48	4327
2026-01-06 00:22:26.23	240.59	38.52	-38.3	-40.0	16.1	0.00e+00	0	57	0	1003487232	48	4321
2026-01-06 00:22:27.24	240.33	38.31	-38.7	-40.5	15.7	0.00e+00	0	57	0	1006632960	48	4566
2026-01-06 00:22:28.25	240.08	38.10	-39.4	-41.4	14.7	0.00e+00	0	57	0	1009778688	49	4810
2026-01-06 00:22:29.26	239.82	37.90	-39.8	-42.0	14.2	7.00e-07	0	57	0	1012924416	50	4856
2026-01-06 00:22:30.27	239.57	37.69	-39.8	-42.0	14.2	7.00e-07	0	57	0	1016070144	50	4870
2026-01-06 00:22:31.28	239.33	37.49	-39.5	-41.6	14.6	7.00e-07	0	57	0	1019215872	50	4608
2026-01-06 00:22:32.29	239.09	37.28	-39.2	-41.1	15.1	0.00e+00	0	57	0	1022361600	50	4348
2026-01-06 00:22:33.30	238.85	37.08	-39.1	-41.0	15.2	0.00e+00	0	56	0	1025507328	50	4309
2026-01-06 00:22:34.31	238.61	36.88	-38.8	-40.6	15.6	7.00e-07	0	57	0	1028653056	49	4356
2026-01-06 00:22:35.32	238.38	36.67	-38.8	-40.6	15.6	0.00e+00	0	57	0	1031798784	49	4387
2026-01-06 00:22:36.34	238.14	36.47	-38.9	-40.7	15.5	0.00e+00	0	57	0	1034944512	49	4415
2026-01-06 00:22:37.35	237.91	36.27	-38.4	-40.1	16.0	0.00e+00	0	57	0	1038090240	48	4383
2026-01-06 00:22:38.36	237.69	36.07	-38.2	-39.8	16.3	0.00e+00	0	57	0	1041235968	48	4224
2026-01-06 00:22:39.37	237.47	35.87	-38.2	-39.8	16.3	0.00e+00	0	57	0	1044381696	48	4220
2026-01-06 00:22:40.38	237.25	35.67	-38.3	-40.0	16.2	0.00e+00	0	57	0	1047527424	48	4299
2026-01-06 00:22:41.39	237.03	35.48	-38.4	-40.1	16.1	0.00e+00	0	57	0	1050673152	48	4361
2026-01-06 00:22:42.40	236.82	35.28	-38.8	-40.6	15.6	0.00e+00	0	57	0	1053818880	48	4625
2026-01-06 00:22:43.41	236.60	35.08	-39.3	-41.3	14.9	0.00e+00	0	57	0	1056964608	49	4754
2026-01-06 00:22:44.42	236.40	34.89	-39.6	-41.7	14.5	7.00e-07	0	57	0	1060110336	49	4951
2026-01-06 00:22:45.43	236.19	34.69	-39.5	-41.6	14.6	0.00e+00	0	57	0	1063256064	49	4891
2026-01-06 00:22:46.44	235.98	34.50	-39.0	-40.9	15.3	0.00e+00	0	56	0	1066401792	49	4499
2026-01-06 00:22:47.45	235.78	34.30	-38.5	-40.3	15.9	0.00e+00	0	57	0	1069547520	49	4194
2026-01-06 00:22:48.46	235.58	34.11	-38.3	-39.9	16.2	0.00e+00	0	57	0	1073741824	48	4285
2026-01-06 00:22:49.47	235.39	33.92	-38.0	-39.6	16.5	0.00e+00	0	57	0	1076887552	48	4124
2026-01-06 00:22:50.48	235.19	33.73	-37.7	-39.2	16.8	0.00e+00	0	57	0	1078984704	47	4184
2026-01-06 00:22:51.50	235.00	33.54	-37.7	-39.3	16.8	0.00e+00	0	57	0	1082130432	47	4201
2026-01-06 00:22:52.50	234.81	33.35	-38.0	-39.7	16.4	0.00e+00	0	57	0	1085276160	47	4413
2026-01-06 00:22:53.51	234.62	33.16	-38.3	-40.1	15.9	0.00e+00	0	57	0	1089470464	47	4627
2026-01-06 00:22:54.52	234.44	32.97	-38.6	-40.5	15.6	0.00e+00	0	57	0	1092616192	47	4846
2026-01-06 00:22:55.53	234.25	32.79	-38.4	-40.2	15.9	0.00e+00	0	57	0	1095761920	47	4688
2026-01-06 00:22:56.54	234.07	32.60	-38.2	-39.9	16.1	0.00e+00	0	57	0	1098907648	47	4536
2026-01-06 00:22:57.55	233.89	32.42	-37.9	-39.6	16.4	0.00e+00	0	57	0	1101004800	47	4366
2026-01-06 00:22:58.56	233.71	32.23	-38.0	-39.6	16.4	0.00e+00	0	57	0	1105199104	47	4387
2026-01-06 00:22:59.57	233.54	32.05	-38.0	-39.7	16.2	0.00e+00	0	57	0	1108344832	47	4423
2026-01-06 00:23:00.58	233.36	31.87	-38.1	-39.8	16.2	0.00e+00	0	57	0	1111490560	47	4463
2026-01-06 00:23:01.59	233.19	31.68	-38.1	-39.7	16.3	0.00e+00	0	57	0	1114636288	47	4438
2026-01-06 00:23:02.60	233.02	31.50	-38.0	-39.7	16.3	0.00e+00	0	57	0	1117782016	47	4427
2026-01-06 00:23:03.61	232.86	31.32	-38.0	-39.7	16.4	0.00e+00	0	57	0	1120927744	47	4394
2026-01-06 00:23:04.62	232.69	31.14	-38.1	-39.7	16.3	0.00e+00	0	57	0	1124073472	47	4431
2026-01-06 00:23:05.63	232.53	30.96	-38.0	-39.7	16.4	0.00e+00	0	57	0	1127219200	47	4405
2026-01-06 00:23:06.64	232.36	30.79	-37.9	-39.6	16.4	0.00e+00	0	57	0	1130364928	47	4351
2026-01-06 00:23:07.65	232.20	30.61	-37.9	-39.5	16.5	0.00e+00	0	57	0	1133510656	47	4312
2026-01-06 00:23:08.66	232.05	30.43	-37.7	-39.3	16.6	0.00e+00	0	56	0	1136656384	47	4226
2026-01-06 00:23:09.67	231.89	30.26	-37.6	-39.2	16.8	0.00e+00	0	57	0	1139802112	47	4170
2026-01-06 00:23:10.68	231.73	30.08	-37.5	-39.1	16.9	0.00e+00	0	57	0	1142947840	47	4122
2026-01-06 00:23:11.69	231.58	29.91	-37.6	-39.1	16.9	0.00e+00	0	57	0	1146093568	47	4128
2026-01-06 00:23:12.70	231.43	29.74	-37.6	-39.2	16.8	0.00e+00	0	57	0	1149239296	47	4191
2026-01-06 00:23:13.71	231.28	29.57	-37.8	-39.5	16.5	0.00e+00	0	57	0	1152385024	47	4310
2026-01-06 00:23:14.72	231.13	29.39	-37.9	-39.6	16.4	0.00e+00	0	57	0	1155530752	47	4377
2026-01-06 00:23:15.73	230.98	29.22	-37.9	-39.6	16.4	0.00e+00	0	57	0	1158676480	47	4353
2026-01-06 00:23:16.74	230.84	29.06	-37.9	-39.5	16.5	0.00e+00	0	57	0	1161822208	47	4321
2026-01-06 00:23:17.75	230.70	28.89	-37.6	-39.1	16.8	0.00e+00	0	57	0	1164967936	47	4133
2026-01-06 00:23:18.76	230.55	28.72	-37.4	-38.9	17.0	0.00e+00	0	57	0	1168113664	46	4278
2026-01-06 00:23:19.77	230.41	28.55	-37.3	-38.9	17.0	0.00e+00	0	57	0	1171259392	46	4250
2026-01-06 00:23:20.78	230.27	28.38	-37.4	-38.9	17.0	0.00e+00	0	57	0	1174405120	46	4272
2026-01-06 00:23:21.79	230.14	28.22	-37.2	-38.6	17.3	0.00e+00	0	57	0	1177550848	46	4141
2026-01-06 00:23:22.80	230.00	28.05	-37.1	-38.5	17.4	0.00e+00	0	57	0	1180696576	46	4090
2026-01-06 00:23:23.81	229.86	27.89	-37.0	-38.4	17.5	0.00e+00	0	57	0	1183842304	46	4043
2026-01-06 00:23:24.82	229.73	27.73	-37.0	-38.5	17.5	0.00e+00	0	57	0	1186988032	46	4055
2026-01-06 00:23:25.83	229.60	27.57	-37.1	-38.6	17.4	0.00e+00	0	57	0	1190133760	46	4112
2026-01-06 00:23:26.85	229.47	27.40	-37.2	-38.7	17.3	0.00e+00	0	57	0	1193279488	46	4147
2026-01-06 00:23:27.85	229.34	27.24	-37.2	-38.7	17.3	0.00e+00	0	56	0	1196425216	46	4153
2026-01-06 00:23:28.86	229.21	27.08	-37.3	-38.8	17.2	0.00e+00	0	57	0	1199570944	46	4213
2026-01-06 00:23:29.88	229.08	26.92	-37.2	-38.7	17.2	0.00e+00	0	57	0	1202716672	46	4161
2026-01-06 00:23:30.89	228.96	26.76	-37.2	-38.7	17.2	0.00e+00	0	57	0	1205862400	46	4176
2026-01-06 00:23:31.89	228.83	26.61	-37.3	-38.8	17.1	0.00e+00	0	56	0	1209008128	46	4234
2026-01-06 00:23:32.90	228.71	26.45	-37.3	-38.9	17.1	0.00e+00	0	57	0	1212153856	46	4248
2026-01-06 00:23:33.91	228.59	26.29	-37.4	-38.9	17.0	0.00e+00	0	57	0	1215299584	46	4270
2026-01-06 00:23:34.93	228.47	26.14	-37.3	-38.9	17.1	0.00e+00	0	57	0	1218445312	46	4260
2026-01-06 00:23:35.93	228.35	25.98	-37.3	-38.8	17.1	0.00e+00	0	57	0	1221591040	46	4212
2026-01-06 00:23:36.95	228.23	25.83	-37.1	-38.7	17.3	0.00e+00	0	57	0	1224736768	46	4146
2026-01-06 00:23:37.96	228.11	25.68	-37.2	-38.7	17.2	0.00e+00	0	57	0	1227882496	46	4165
2026-01-06 00:23:38.97	228.00	25.52	-37.1	-38.6	17.3	0.00e+00	0	57	0	1231028224	46	4139
2026-01-06 00:23:39.98	227.88	25.37	-37.0	-38.5	17.4	0.00e+00	0	57	0	1234173952	46	4081
2026-01-06 00:23:40.99	227.77	25.22	-37.0	-38.5	17.4	0.00e+00	0	57	0	1237319680	46	4092
2026-01-06 00:23:42.00	227.65	25.07	-36.9	-38.4	17.5	0.00e+00	0	57	0	1240465408	45	4255
2026-01-06 00:23:43.00	227.54	24.92	-36.9	-38.3	17.6	0.00e+00	0	57	0	1243611136	45	4216
2026-01-06 00:23:44.01	227.43	24.77	-36.9	-38.4	17.5	0.00e+00	0	57	0	1246756864	45	4256
2026-01-06 00:23:45.02	227.32	24.63	-36.9	-38.4	17.5	0.00e+00	0	57	0	1249902592	45	4265
2026-01-06 00:23:46.03	227.22	24.48	-36.9	-38.4	17.5	0.00e+00	0	57	0	1253048320	45	4251
2026-01-06 00:23:47.05	227.11	24.33	-36.8	-38.3	17.6	0.00e+00	0	57	0	1256194048	45	4198
2026-01-06 00:23:48.05	227.00	24.19	-36.8	-38.3	17.6	0.00e+00	0	57	0	1259339776	45	4195
2026-01-06 00:23:49.06	226.90	24.04	-36.8	-38.3	17.6	0.00e+00	0	57	0	1262485504	45	4194
2026-01-06 00:23:50.07	226.79	23.90	-36.8	-38.3	17.6	0.00e+00	0	57	0	1265631232	45	4204
2026-01-06 00:23:51.09	226.69	23.75	-36.9	-38.4	17.5	0.00e+00	0	57	0	1268776960	45	4262
2026-01-06 00:23:52.10	226.59	23.61	-36.9	-38.4	17.5	0.00e+00	0	57	0	1271922688	45	4275
2026-01-06 00:23:53.11	226.48	23.46	-36.9	-38.3	17.5	0.00e+00	0	57	0	1275068416	45	4238
2026-01-06 00:23:54.12	226.38	23.32	-36.9	-38.3	17.5	0.00e+00	0	57	0	1278214144	45	4237
2026-01-06 00:23:55.13	226.28	23.18	-36.9	-38.4	17.5	0.00e+00	0	57	0	1281359872	45	4253
2026-01-06 00:23:56.14	226.19	23.04	-37.0	-38.5	17.4	0.00e+00	0	57	0	1284505600	45	4307
2026-01-06 00:23:57.15	226.09	22.90	-37.1	-38.6	17.3	0.00e+00	0	57	0	1287651328	45	4356
2026-01-06 00:23:58.16	225.99	22.76	-37.2	-38.7	17.2	0.00e+00	0	57	0	1290797056	45	4426
2026-01-06 00:23:59.17	225.90	22.62	-37.3	-38.8	17.1	0.00e+00	0	57	0	1293942784	45	4466
2026-01-06 00:24:00.18	225.80	22.49	-37.3	-38.9	17.0	0.00e+00	0	57	0	1297088512	45	4505
2026-01-06 00:24:01.19	225.71	22.35	-37.4	-38.9	17.0	0.00e+00	0	57	0	1300234240	45	4533
2026-01-06 00:24:02.20	225.61	22.21	-37.4	-39.0	16.9	0.00e+00	0	57	0	1303379968	45	4566
2026-01-06 00:24:03.21	225.52	22.08	-37.4	-39.0	16.8	0.00e+00	0	57	0	1306525696	45	4595
2026-01-06 00:24:04.22	225.43	21.94	-37.5	-39.1	16.8	0.00e+00	0	57	0	1309671424	45	4628
2026-01-06 00:24:05.23	225.34	21.81	-37.6	-39.2	16.6	0.00e+00	0	57	0	1312817152	45	4704
2026-01-06 00:24:06.23	225.25	21.67	-37.5	-39.1	16.7	0.00e+00	0	57	0	1315962880	45	4646
2026-01-06 00:24:07.24	225.16	21.54	-37.5	-39.1	16.7	0.00e+00	0	57	0	1319108608	45	4623
2026-01-06 00:24:08.25	225.07	21.41	-37.6	-39.2	16.7	0.00e+00	0	57	0	1322254336	45	4666
2026-01-06 00:24:09.26	224.98	21.28	-37.6	-39.2	16.6	0.00e+00	0	57	0	1325400064	45	4693
2026-01-06 00:24:10.27	224.90	21.15	-37.6	-39.2	16.6	0.00e+00	0	57	0	1328545792	45	4695
2026-01-06 00:24:11.28	224.81	21.01	-37.6	-39.3	16.6	0.00e+00	0	57	0	1331691520	45	4713
2026-01-06 00:24:12.29	224.72	20.88	-37.5	-39.1	16.7	0.00e+00	0	57	0	1334837248	45	4604
2026-01-06 00:24:13.30	224.64	20.75	-37.3	-38.8	17.0	0.00e+00	0	57	0	1337982976	45	4478
2026-01-06 00:24:14.31	224.56	20.63	-37.1	-38.6	17.2	0.00e+00	0	57	0	1341128704	45	4374
2026-01-06 00:24:15.32	224.47	20.50	-37.0	-38.5	17.2	0.00e+00	0	57	0	1344274432	45	4332
2026-01-06 00:24:16.33	224.39	20.37	-37.0	-38.5	17.3	0.00e+00	0	57	0	1347420160	45	4327
2026-01-06 00:24:17.34	224.31	20.24	-36.9	-38.3	17.4	0.00e+00	0	57	0	1350565888	45	4242
2026-01-06 00:24:18.35	224.23	20.11	-36.8	-38.3	17.5	0.00e+00	0	57	0	1353711616	45	4197
2026-01-06 00:24:19.36	224.15	19.99	-36.8	-38.2	17.5	0.00e+00	0	57	0	1356857344	45	4175
2026-01-06 00:24:20.37	224.07	19.86	-36.7	-38.1	17.6	0.00e+00	0	57	0	1360003072	45	4137
2026-01-06 00:24:21.38	223.99	19.74	-36.7	-38.1	17.6	0.00e+00	0	57	0	1363148800	45	4145
2026-01-06 00:24:22.39	223.91	19.61	-36.6	-38.1	17.7	0.00e+00	0	57	0	1366294528	45	4099
2026-01-06 00:24:23.40	223.83	19.49	-36.6	-38.0	17.7	0.00e+00	0	57	0	1369440256	45	4080
2026-01-06 00:24:24.41	223.75	19.37	-36.7	-38.1	17.6	0.00e+00	0	57	0	1372585984	45	4124
2026-01-06 00:24:25.41	223.68	19.25	-36.7	-38.1	17.6	0.00e+00	0	57	0	1375731712	45	4122
2026-01-06 00:24:26.42	223.60	19.12	-36.7	-38.2	17.6	0.00e+00	0	57	0	1378877440	45	4146
2026-01-06 00:24:27.43	223.53	19.00	-36.8	-38.2	17.5	0.00e+00	0	57	0	1382023168	45	4167
2026-01-06 00:24:28.44	223.45	18.88	-36.8	-38.3	17.5	0.00e+00	0	57	0	1385168896	45	4201
2026-01-06 00:24:29.46	223.38	18.76	-36.9	-38.4	17.3	0.00e+00	0	56	0	1388314624	45	4260
2026-01-06 00:24:30.47	223.30	18.64	-37.0	-38.5	17.3	0.00e+00	0	57	0	1392508928	45	4292
2026-01-06 00:24:31.48	223.23	18.52	-37.1	-38.6	17.1	0.00e+00	0	57	0	1394606080	45	4357
2026-01-06 00:24:32.49	223.16	18.40	-37.1	-38.7	17.1	0.00e+00	0	57	0	1397751808	45	4397
2026-01-06 00:24:33.50	223.09	18.28	-37.2	-38.7	17.0	0.00e+00	0	57	0	1400897536	45	4438
2026-01-06 00:24:34.51	223.01	18.16	-37.2	-38.7	17.1	0.00e+00	0	57	0	1404043264	45	4406
2026-01-06 00:24:35.51	222.94	18.05	-37.1	-38.7	17.1	0.00e+00	0	57	0	1408237568	45	4407
2026-01-06 00:24:36.52	222.87	17.93	-37.3	-38.9	16.9	0.00e+00	0	57	0	1411383296	45	4495
2026-01-06 00:24:37.53	222.80	17.81	-37.3	-38.9	16.9	0.00e+00	0	57	0	1414529024	45	4494
2026-01-06 00:24:38.54	222.74	17.70	-37.3	-38.9	16.8	0.00e+00	0	57	0	1416626176	45	4527
2026-01-06 00:24:39.55	222.67	17.58	-37.5	-39.1	16.7	0.00e+00	0	57	0	1419771904	45	4615
2026-01-06 00:24:40.56	222.60	17.47	-37.5	-39.2	16.6	0.00e+00	0	56	0	1423966208	45	4658
2026-01-06 00:24:41.57	222.53	17.35	-37.5	-39.2	16.6	0.00e+00	0	56	0	1427111936	45	4661
2026-01-06 00:24:42.58	222.47	17.24	-37.7	-39.3	16.4	0.00e+00	0	57	0	1430257664	45	4742
2026-01-06 00:24:43.59	222.40	17.13	-37.7	-39.4	16.4	0.00e+00	0	57	0	1433403392	45	4762
2026-01-06 00:24:44.60	222.33	17.01	-37.9	-39.6	16.2	0.00e+00	0	57	0	1436549120	46	4614
2026-01-06 00:24:45.61	222.27	16.90	-37.9	-39.6	16.1	0.00e+00	0	57	0	1439694848	46	4630
2026-01-06 00:24:46.62	222.20	16.79	-37.9	-39.5	16.2	0.00e+00	0	57	0	1442840576	46	4598
2026-01-06 00:24:47.63	222.14	16.68	-37.9	-39.6	16.1	0.00e+00	0	57	0	1445986304	46	4635
2026-01-06 00:24:48.64	222.08	16.57	-38.0	-39.7	16.0	0.00e+00	0	57	0	1449132032	46	4703
2026-01-06 00:24:49.65	222.01	16.46	-37.9	-39.7	16.1	0.00e+00	0	57	0	1452277760	46	4652
2026-01-06 00:24:50.66	221.95	16.35	-37.9	-39.7	16.0	0.00e+00	0	57	0	1455423488	46	4670
2026-01-06 00:24:51.67	221.89	16.24	-38.1	-39.8	15.9	0.00e+00	0	57	0	1458569216	46	4748
2026-01-06 00:24:52.68	221.83	16.13	-38.0	-39.8	16.0	0.00e+00	0	57	0	1461714944	46	4722
2026-01-06 00:24:53.69	221.76	16.02	-38.0	-39.8	15.9	0.00e+00	0	57	0	1464860672	46	4740
2026-01-06 00:24:54.70	221.70	15.91	-38.0	-39.8	15.9	0.00e+00	0	56	0	1468006400	46	4727
2026-01-06 00:24:55.71	221.64	15.80	-38.0	-39.8	15.9	0.00e+00	0	57	0	1471152128	46	4721
2026-01-06 00:24:56.72	221.58	15.69	-38.1	-39.9	15.8	0.00e+00	0	57	0	1474297856	46	4774
2026-01-06 00:24:57.74	221.52	15.59	-38.1	-39.9	15.8	0.00e+00	0	57	0	1477443584	46	4761
2026-01-06 00:24:58.75	221.46	15.48	-38.0	-39.7	15.9	0.00e+00	0	57	0	1480589312	46	4687
2026-01-06 00:24:59.76	221.40	15.37	-37.9	-39.7	16.0	0.00e+00	0	57	0	1483735040	46	4670
2026-01-06 00:25:00.77	221.35	15.27	-37.9	-39.6	16.1	0.00e+00	0	57	0	1486880768	46	4628
2026-01-06 00:25:01.78	221.29	15.16	-37.9	-39.6	16.0	0.00e+00	0	57	0	1490026496	46	4650
2026-01-06 00:25:02.79	221.23	15.06	-37.8	-39.5	16.2	0.00e+00	0	57	0	1493172224	46	4557
2026-01-06 00:25:03.80	221.17	14.95	-37.8	-39.5	16.2	0.00e+00	0	57	0	1496317952	46	4565
2026-01-06 00:25:04.81	221.12	14.85	-37.8	-39.5	16.1	0.00e+00	0	57	0	1499463680	46	4576
2026-01-06 00:25:05.82	221.06	14.75	-37.9	-39.6	16.1	0.00e+00	0	57	0	1502609408	46	4611
2026-01-06 00:25:06.83	221.01	14.64	-37.8	-39.5	16.1	0.00e+00	0	57	0	1505755136	46	4583
2026-01-06 00:25:07.84	220.95	14.54	-37.8	-39.5	16.2	0.00e+00	0	57	0	1508900864	46	4552
2026-01-06 00:25:08.85	220.89	14.44	-37.7	-39.4	16.2	0.00e+00	0	57	0	1512046592	46	4520
2026-01-06 00:25:09.86	220.84	14.34	-37.7	-39.4	16.2	0.00e+00	0	57	0	1515192320	46	4511
2026-01-06 00:25:10.87	220.79	14.23	-37.7	-39.4	16.3	0.00e+00	0	57	0	1518338048	46	4494
2026-01-06 00:25:11.88	220.73	14.13	-37.8	-39.4	16.2	0.00e+00	0	57	0	1521483776	46	4541
2026-01-06 00:25:12.89	220.68	14.03	-37.7	-39.4	16.2	0.00e+00	0	57	0	1524629504	46	4538
2026-01-06 00:25:13.90	220.63	13.93	-37.6	-39.3	16.3	0.00e+00	0	57	0	1527775232	46	4489
2026-01-06 00:25:14.91	220.57	13.83	-37.7	-39.4	16.2	0.00e+00	0	57	0	1530920960	46	4496
2026-01-06 00:25:15.92	220.52	13.73	-37.7	-39.4	16.1	0.00e+00	0	57	0	1534066688	46	4545
2026-01-06 00:25:16.93	220.47	13.63	-37.6	-39.3	16.3	0.00e+00	0	57	0	1537212416	46	4470
2026-01-06 00:25:17.94	220.42	13.53	-37.7	-39.4	16.2	0.00e+00	0	57	0	1540358144	46	4494
2026-01-06 00:25:18.95	220.37	13.44	-37.6	-39.3	16.3	0.00e+00	0	57	0	1543503872	46	4464
2026-01-06 00:25:19.96	220.32	13.34	-37.7	-39.4	16.2	0.00e+00	0	57	0	1546649600	46	4509
2026-01-06 00:25:20.97	220.26	13.24	-37.8	-39.5	16.1	0.00e+00	0	57	0	1549795328	46	4564
2026-01-06 00:25:21.98	220.21	13.14	-37.8	-39.5	16.0	0.00e+00	0	57	0	1552941056	46	4597
2026-01-06 00:25:22.99	220.16	13.05	-37.8	-39.6	16.0	0.00e+00	0	57	0	1556086784	46	4605
2026-01-06 00:25:24.00	220.12	12.95	-37.9	-39.6	15.9	0.00e+00	0	57	0	1559232512	46	4624
2026-01-06 00:25:25.01	220.07	12.85	-37.9	-39.7	15.9	0.00e+00	0	57	0	1562378240	46	4665
2026-01-06 00:25:26.02	220.02	12.76	-38.0	-39.7	15.8	0.00e+00	0	57	0	1565523968	46	4695
2026-01-06 00:25:27.03	219.97	12.66	-37.7	-39.5	16.1	0.00e+00	0	57	0	1568669696	46	4555
2026-01-06 00:25:28.04	219.92	12.57	-37.7	-39.4	16.1	0.00e+00	0	57	0	1571815424	46	4523
2026-01-06 00:25:29.05	219.87	12.47	-37.7	-39.4	16.1	0.00e+00	0	57	0	1574961152	46	4519
2026-01-06 00:25:30.06	219.83	12.38	-37.8	-39.5	16.0	0.00e+00	0	57	0	1578106880	46	4571
2026-01-06 00:25:31.07	219.78	12.28	-37.8	-39.5	16.0	0.00e+00	0	57	0	1581252608	46	4575
2026-01-06 00:25:32.08	219.73	12.19	-37.9	-39.6	15.9	0.00e+00	0	57	0	1584398336	46	4643
2026-01-06 00:25:33.09	219.68	12.10	-37.8	-39.6	15.9	0.00e+00	0	57	0	1587544064	46	4623
2026-01-06 00:25:34.10	219.64	12.00	-37.9	-39.7	15.8	0.00e+00	0	57	0	1590689792	46	4665
2026-01-06 00:25:35.11	219.59	11.91	-37.8	-39.6	15.9	0.00e+00	0	57	0	1593835520	46	4633
2026-01-06 00:25:36.12	219.55	11.82	-38.0	-39.8	15.7	0.00e+00	0	57	0	1596981248	46	4707
2026-01-06 00:25:37.13	219.50	11.72	-37.9	-39.7	15.7	0.00e+00	0	57	0	1600126976	46	4695
2026-01-06 00:25:38.14	219.46	11.63	-37.9	-39.7	15.7	0.00e+00	0	57	0	1603272704	46	4694
2026-01-06 00:25:39.15	219.41	11.54	-37.9	-39.7	15.7	0.00e+00	0	57	0	1606418432	46	4680
2026-01-06 00:25:40.16	219.37	11.45	-38.0	-39.8	15.6	0.00e+00	0	57	0	1609564160	46	4751
2026-01-06 00:25:41.17	219.32	11.36	-38.0	-39.9	15.6	0.00e+00	0	57	0	1612709888	46	4774
2026-01-06 00:25:42.18	219.28	11.27	-38.0	-39.9	15.6	0.00e+00	0	57	0	1615855616	46	4780
2026-01-06 00:25:43.19	219.24	11.18	-38.1	-40.0	15.5	0.00e+00	0	57	0	1619001344	46	4824
2026-01-06 00:25:44.20	219.19	11.09	-38.2	-40.1	15.4	0.00e+00	0	56	0	1622147072	46	4898
2026-01-06 00:25:45.21	219.15	11.00	-38.3	-40.2	15.2	7.00e-07	0	57	0	1625292800	47	4678
2026-01-06 00:25:46.22	219.11	10.91	-38.3	-40.2	15.2	0.00e+00	0	57	0	1628438528	47	4682
2026-01-06 00:25:47.23	219.06	10.82	-38.3	-40.2	15.2	0.00e+00	0	56	0	1631584256	47	4665
2026-01-06 00:25:48.24	219.02	10.73	-38.2	-40.1	15.3	0.00e+00	0	57	0	1634729984	47	4640
2026-01-06 00:25:49.25	218.98	10.64	-38.3	-40.3	15.1	0.00e+00	0	57	0	1637875712	47	4706
2026-01-06 00:25:50.26	218.94	10.56	-38.3	-40.3	15.1	0.00e+00	0	57	0	1641021440	47	4714
2026-01-06 00:25:51.27	218.90	10.47	-38.2	-40.2	15.2	0.00e+00	0	57	0	1644167168	47	4653
2026-01-06 00:25:52.28	218.86	10.38	-38.3	-40.2	15.1	0.00e+00	0	57	0	1647312896	47	4698
2026-01-06 00:25:53.29	218.82	10.29	-38.2	-40.1	15.2	0.00e+00	0	57	0	1650458624	47	4641
2026-01-06 00:25:54.31	218.77	10.21	-38.3	-40.2	15.1	0.00e+00	0	56	0	1653604352	47	4700
2026-01-06 00:25:55.32	218.73	10.12	-38.3	-40.2	15.1	0.00e+00	0	57	0	1656750080	47	4687
2026-01-06 00:25:56.33	218.69	10.03	-38.3	-40.2	15.1	0.00e+00	0	57	0	1659895808	47	4694
2026-01-06 00:25:57.34	218.65	9.95	-38.3	-40.3	15.0	0.00e+00	0	57	0	1663041536	47	4733
2026-01-06 00:25:58.35	218.61	9.86	-38.4	-40.4	14.9	0.00e+00	0	57	0	1666187264	47	4798
2026-01-06 00:25:59.36	218.57	9.78	-38.4	-40.4	14.9	0.00e+00	0	57	0	1669332992	47	4799
2026-01-06 00:26:00.37	218.54	9.69	-38.4	-40.4	14.9	0.00e+00	0	57	0	1672478720	47	4787
2026-01-06 00:26:01.38	218.50	9.61	-38.5	-40.5	14.8	0.00e+00	0	56	0	1675624448	47	4839
2026-01-06 00:26:02.39	218.46	9.52	-38.5	-40.5	14.8	0.00e+00	0	57	0	1678770176	47	4838
2026-01-06 00:26:03.40	218.42	9.44	-38.5	-40.5	14.8	0.00e+00	0	57	0	1681915904	47	4840
2026-01-06 00:26:04.41	218.38	9.35	-38.5	-40.6	14.7	7.00e-07	0	57	0	1685061632	47	4879
2026-01-06 00:26:05.42	218.34	9.27	-38.6	-40.6	14.6	0.00e+00	0	57	0	1688207360	47	4912
2026-01-06 00:26:06.43	218.31	9.19	-38.6	-40.7	14.6	0.00e+00	0	57	0	1691353088	47	4942
2026-01-06 00:26:07.44	218.27	9.10	-38.6	-40.6	14.6	1.50e-06	0	57	0	1694498816	47	4923
2026-01-06 00:26:08.45	218.23	9.02	-38.8	-40.9	14.4	7.00e-07	0	57	0	1697644544	48	4807
2026-01-06 00:26:09.46	218.19	8.94	-38.7	-40.8	14.5	7.00e-07	0	57	0	1701838848	48	4732
2026-01-06 00:26:10.47	218.16	8.85	-38.7	-40.7	14.5	7.00e-07	0	57	0	1704984576	48	4699
2026-01-06 00:26:11.48	218.12	8.77	-38.7	-40.7	14.6	7.00e-07	0	57	0	1708130304	48	4699
2026-01-06 00:26:12.49	218.08	8.69	-38.7	-40.8	14.5	0.00e+00	0	56	0	1710227456	48	4706
2026-01-06 00:26:13.50	218.05	8.61	-38.7	-40.9	14.4	7.00e-07	0	57	0	1713373184	48	4778
2026-01-06 00:26:14.51	218.01	8.53	-38.8	-41.0	14.3	7.00e-07	0	57	0	1717567488	48	4816
2026-01-06 00:26:15.52	217.98	8.45	-38.8	-40.9	14.3	1.50e-06	0	57	0	1720713216	48	4800
2026-01-06 00:26:16.53	217.94	8.36	-38.9	-41.0	14.2	3.80e-06	0	56	0	1723858944	48	4853
2026-01-06 00:26:17.54	217.91	8.28	-38.8	-40.9	14.3	7.00e-07	0	57	0	1727004672	48	4808
2026-01-06 00:26:18.55	217.87	8.20	-38.8	-41.0	14.3	1.50e-06	0	57	0	1730150400	48	4817
2026-01-06 00:26:19.56	217.84	8.12	-38.8	-40.9	14.3	1.50e-06	0	57	0	1733296128	48	4801
2026-01-06 00:26:20.57	217.80	8.04	-38.9	-41.0	14.1	7.00e-07	0	57	0	1736441856	48	4870
2026-01-06 00:26:21.58	217.77	7.96	-41.7	-46.0	9.7	7.00e-07	0	57	0	1739587584	53	6461
2026-01-06 00:26:22.59	217.73	7.88	-44.6	-56.9	3.8	1.49e+00	0	56	104	1739587584	59	16107
2026-01-06 00:26:23.60	217.70	7.80	-44.8	-57.3	3.8	1.49e+00	0	57	104	1739587584	60	15806
2026-01-06 00:26:24.61	217.66	7.73	-44.9	-57.4	3.8	1.49e+00	0	57	104	1739587584	60	16112
2026-01-06 00:26:25.63	217.63	7.65	-45.0	-57.6	3.8	1.49e+00	0	57	104	1739587584	60	16347
2026-01-06 00:26:26.64	217.60	7.57	-45.1	-57.6	3.8	1.49e+00	0	57	104	1739587584	60	16475
2026-01-06 00:26:27.65	217.56	7.49	-45.2	-57.7	3.8	1.49e+00	0	57	104	1739587584	60	16610
2026-01-06 00:26:28.66	217.53	7.41	-45.2	-57.7	3.8	1.49e+00	0	57	104	1739587584	61	15756
2026-01-06 00:26:29.67	217.50	7.33	-45.2	-57.8	3.8	1.49e+00	0	57	104	1739587584	61	15794
2026-01-06 00:26:30.68	217.46	7.26	-45.2	-57.7	3.8	1.49e+00	0	57	104	1739587584	61	15751
2026-01-06 00:26:31.69	217.43	7.18	-45.2	-57.7	3.8	1.49e+00	0	57	104	1739587584	61	15720
2026-01-06 00:26:32.70	217.40	7.10	-45.2	-57.7	3.8	1.49e+00	0	57	104	1739587584	61	15688
2026-01-06 00:26:33.71	217.37	7.02	-45.1	-57.7	3.8	1.49e+00	0	57	104	1739587584	61	15641
2026-01-06 00:26:34.72	217.34	6.95	-45.1	-57.7	3.8	1.49e+00	0	57	104	1739587584	61	15645
2026-01-06 00:26:35.73	217.30	6.87	-45.1	-57.7	3.8	1.49e+00	0	57	104	1739587584	61	15673
2026-01-06 00:26:36.74	217.27	6.79	-45.1	-57.7	3.8	1.49e+00	0	57	104	1739587584	61	15709
2026-01-06 00:26:37.75	217.24	6.72	-45.1	-57.7	3.8	1.49e+00	0	57	104	1739587584	61	15686
2026-01-06 00:26:38.76	217.21	6.64	-45.1	-57.7	3.8	1.49e+00	0	57	104	1739587584	61	15677
2026-01-06 00:26:39.77	217.18	6.57	-45.1	-57.7	3.8	1.49e+00	0	57	104	1739587584	61	15641
2026-01-06 00:26:40.79	217.15	6.49	-45.1	-57.7	3.8	1.49e+00	0	57	104	1739587584	61	15679
2026-01-06 00:26:41.80	217.12	6.42	-45.1	-57.7	3.8	1.49e+00	0	57	104	1739587584	61	15633
2026-01-06 00:26:42.81	217.09	6.34	-45.1	-57.7	3.8	1.49e+00	0	57	104	1739587584	61	15661
2026-01-06 00:26:43.82	217.06	6.27	-45.1	-57.7	3.8	1.49e+00	0	57	104	1739587584	61	15593
2026-01-06 00:26:44.83	217.03	6.19	-45.1	-57.7	3.8	1.49e+00	0	57	104	1739587584	61	15635
2026-01-06 00:26:45.84	217.00	6.12	-45.1	-57.7	3.8	1.49e+00	0	57	104	1739587584	61	15631
2026-01-06 00:26:46.85	216.97	6.04	-45.1	-57.6	3.8	1.49e+00	0	57	104	1739587584	61	15572
2026-01-06 00:26:47.86	216.94	5.97	-45.1	-57.7	3.8	1.49e+00	0	57	104	1739587584	61	15621
2026-01-06 00:26:48.87	216.91	5.89	-45.1	-57.7	3.8	1.49e+00	0	57	104	1739587584	61	15650
2026-01-06 00:26:49.89	216.88	5.82	-45.1	-57.7	3.8	1.49e+00	0	57	104	1739587584	61	15584
2026-01-06 00:26:50.90	216.85	5.75	-45.1	-57.7	3.8	1.49e+00	0	57	104	1739587584	61	15628
2026-01-06 00:26:51.91	216.82	5.67	-45.1	-57.7	3.8	1.49e+00	0	57	104	1739587584	61	15621
2026-01-06 00:26:52.92	216.79	5.60	-45.1	-57.7	3.8	1.49e+00	0	57	104	1739587584	61	15602
2026-01-06 00:26:53.93	216.76	5.53	-45.1	-57.7	3.8	1.49e+00	0	57	104	1739587584	61	15608
2026-01-06 00:26:54.94	216.73	5.46	-45.1	-57.7	3.8	1.49e+00	0	57	104	1739587584	61	15626
2026-01-06 00:26:55.95	216.70	5.38	-45.1	-57.7	3.8	1.49e+00	0	57	104	1739587584	61	15593
2026-01-06 00:26:56.96	216.67	5.31	-45.1	-57.6	3.8	1.49e+00	0	57	104	1739587584	61	15564
2026-01-06 00:26:57.97	216.65	5.24	-45.1	-57.6	3.8	1.49e+00	0	57	104	1739587584	61	15569
2026-01-06 00:26:58.98	216.62	5.17	-45.1	-57.7	3.8	1.49e+00	0	57	104	1739587584	61	15625
2026-01-06 00:27:00.00	216.59	5.10	-45.1	-57.6	3.8	1.49e+00	0	57	104	1739587584	61	15578
2026-01-06 00:27:01.01	216.56	5.02	-45.1	-57.6	3.8	1.49e+00	0	57	104	1739587584	61	15563
2026-01-06 00:27:02.02	216.54	4.95	-45.1	-57.7	3.8	1.49e+00	0	57	104	1739587584	61	15617
2026-01-06 00:27:03.03	216.51	4.88	-45.1	-57.6	3.8	1.49e+00	0	57	104	1739587584	61	15557
2026-01-06 00:27:04.04	216.48	4.81	-45.1	-57.6	3.8	1.49e+00	0	57	104	1739587584	61	15535
2026-01-06 00:27:05.05	216.45	4.74	-45.1	-57.6	3.8	1.49e+00	0	57	104	1739587584	61	15546
2026-01-06 00:27:06.06	216.43	4.67	-45.1	-57.6	3.8	1.49e+00	0	57	104	1739587584	61	15550
2026-01-06 00:27:07.07	216.40	4.60	-45.1	-57.7	3.8	1.49e+00	0	57	104	1739587584	61	15581
2026-01-06 00:27:08.08	216.37	4.53	-45.0	-57.7	3.8	1.49e+00	0	57	104	1739587584	61	15592
2026-01-06 00:27:09.09	216.35	4.46	-45.0	-57.7	3.8	1.49e+00	0	57	104	1739587584	61	15589
2026-01-06 00:27:10.11	216.32	4.39	-45.1	-57.6	3.8	1.49e+00	0	57	104	1739587584	61	15541
2026-01-06 00:27:11.12	216.29	4.32	-45.0	-57.6	3.8	1.49e+00	0	57	104	1739587584	61	15542
2026-01-06 00:27:12.13	216.27	4.25	-44.9	-57.6	3.8	1.49e+00	0	57	104	1739587584	61	15522
2026-01-06 00:27:13.14	216.24	4.18	-44.7	-57.7	3.8	1.49e+00	0	57	104	1739587584	61	15587
2026-01-06 00:27:14.15	216.21	4.11	-44.5	-57.6	3.8	1.49e+00	0	57	104	1739587584	61	15515
2026-01-06 00:27:15.16	216.19	4.04	-44.6	-57.6	3.8	1.49e+00	0	57	104	1739587584	61	15550
2026-01-06 00:27:16.17	216.16	3.97	-44.8	-57.6	3.8	1.49e+00	0	57	104	1739587584	61	15545
2026-01-06 00:27:17.18	216.14	3.90	-45.0	-57.6	3.8	1.49e+00	0	57	104	1739587584	61	15536
2026-01-06 00:27:18.19	216.11	3.84	-45.0	-57.6	3.8	1.49e+00	0	57	104	1739587584	61	15533
2026-01-06 00:27:19.20	216.09	3.77	-45.1	-57.6	3.8	1.49e+00	0	57	104	1739587584	61	15545
2026-01-06 00:27:20.21	216.06	3.70	-45.1	-57.6	3.8	1.49e+00	0	57	104	1739587584	61	15554
2026-01-06 00:27:21.23	216.04	3.63	-45.0	-57.6	3.8	1.49e+00	0	57	104	1739587584	61	15546
2026-01-06 00:27:22.24	216.01	3.56	-45.0	-57.6	3.8	1.49e+00	0	57	104	1739587584	61	15554
2026-01-06 00:27:23.25	215.99	3.50	-45.1	-57.7	3.8	1.49e+00	0	57	104	1739587584	61	15598
2026-01-06 00:27:24.26	215.96	3.43	-45.0	-57.6	3.8	1.49e+00	0	57	104	1739587584	61	15503
2026-01-06 00:27:25.27	215.94	3.36	-45.1	-57.6	3.8	1.49e+00	0	57	104	1739587584	61	15544
2026-01-06 00:27:26.28	215.91	3.29	-45.0	-57.6	3.8	1.49e+00	0	57	104	1739587584	61	15533
2026-01-06 00:27:27.29	215.89	3.23	-45.1	-57.6	3.8	1.49e+00	0	57	104	1739587584	61	15561
2026-01-06 00:27:28.30	215.87	3.16	-45.1	-57.6	3.8	1.49e+00	0	57	104	1739587584	61	15490
2026-01-06 00:27:29.31	215.84	3.09	-45.0	-57.6	3.8	1.49e+00	0	57	104	1739587584	61	15537
2026-01-06 00:27:30.32	215.82	3.03	-45.0	-57.6	3.8	1.49e+00	0	57	104	1739587584	61	15526
2026-01-06 00:27:31.33	215.79	2.96	-45.0	-57.6	3.8	1.49e+00	0	57	104	1739587584	61	15549
2026-01-06 00:27:32.34	215.77	2.89	-45.0	-57.6	3.8	1.49e+00	0	57	104	1739587584	61	15521
2026-01-06 00:27:33.36	215.75	2.83	-45.1	-57.6	3.8	1.49e+00	0	57	104	1739587584	61	15536
2026-01-06 00:27:34.37	215.72	2.76	-45.0	-57.6	3.8	1.49e+00	0	57	104	1739587584	61	15561
2026-01-06 00:27:35.38	215.70	2.70	-45.0	-57.6	3.8	1.49e+00	0	57	104	1739587584	61	15512
2026-01-06 00:27:36.39	215.68	2.63	-45.0	-57.6	3.8	1.49e+00	0	57	104	1739587584	61	15490
2026-01-06 00:27:37.40	215.65	2.56	-45.0	-57.6	3.8	1.49e+00	0	57	104	1739587584	61	15516
2026-01-06 00:27:38.41	215.63	2.50	-45.0	-57.6	3.8	1.49e+00	0	57	104	1739587584	61	15517
2026-01-06 00:27:39.42	215.61	2.43	-45.0	-57.6	3.8	1.49e+00	0	57	104	1739587584	61	15542
2026-01-06 00:27:40.43	215.58	2.37	-45.0	-57.6	3.8	1.49e+00	0	57	104	1739587584	61	15497
2026-01-06 00:27:41.44	215.56	2.30	-45.0	-57.6	3.8	1.49e+00	0	57	104	1739587584	61	15529
2026-01-06 00:27:42.45	215.54	2.24	-45.0	-57.6	3.8	1.49e+00	0	57	104	1739587584	61	15525
2026-01-06 00:27:43.47	215.52	2.17	-45.0	-57.6	3.8	1.49e+00	0	57	104	1739587584	61	15549
2026-01-06 00:27:44.48	215.49	2.11	-45.0	-57.6	3.8	1.49e+00	0	57	104	1739587584	61	15488
2026-01-06 00:27:45.49	215.47	2.05	-45.0	-57.6	3.8	1.49e+00	0	57	104	1739587584	61	15526
2026-01-06 00:27:46.50	215.45	1.98	-45.0	-57.6	3.8	1.49e+00	0	57	104	1739587584	61	15540
2026-01-06 00:27:47.51	215.43	1.92	-45.0	-57.6	3.8	1.49e+00	0	57	104	1739587584	61	15470

#Closed at: 2026-01-06 00:27:48
#Recorded file [1739 MB]: D:/lorett/data/31039_260106_031622.dat