passes_logs/2026/01/06/R2.0S_Moscow/R2.0S_Moscow__20260106_015413_NOAA_21_JPSS-2_rec.log

#Pass ID: 20260106_015413_NOAA 21 (JPSS-2)
#Satellite: NOAA 21 (JPSS-2)
#Configuration: NOAA-21
#almurnet v.1.7.20251203
#Start time: 2026-01-06 01:58:18

#Version: 2.2.20231116
#Station: R2.0S_Moscow
#Location: 37.707566 lon 55.798166 lat
#TLE: 1 54234U 22150A   26005.21525222  .00000150  00000+0  91957-4 0  9992
#TLE: 2 54234  98.7490 306.2339 0001053 341.6032  18.5106 14.19532220163427

#Time	Az	El	Level	Level2	SNR	BER	BlckErr	Temp	State	Recorded	gain1	gain2
2026-01-06 01:58:18.35	336.22	13.83	-45.0	-56.9	3.8	8.47e-01	0	56	0	0	60	15110
2026-01-06 01:58:19.35	336.02	13.86	-45.2	-57.8	3.8	1.49e+00	0	57	104	0	62	14905
2026-01-06 01:58:20.36	335.83	13.90	-45.2	-57.8	3.8	1.49e+00	0	57	104	0	62	14887
2026-01-06 01:58:21.37	335.64	13.93	-45.2	-57.7	3.8	1.49e+00	0	57	104	0	62	14839
2026-01-06 01:58:22.38	335.44	13.97	-45.1	-57.7	3.8	1.49e+00	0	57	104	0	62	14745
2026-01-06 01:58:23.39	335.25	14.00	-45.0	-57.6	3.8	1.49e+00	0	57	104	0	62	14578
2026-01-06 01:58:24.41	335.05	14.03	-44.9	-57.4	3.8	1.49e+00	0	57	104	0	61	15150
2026-01-06 01:58:25.42	334.85	14.06	-44.7	-57.2	3.8	1.49e+00	0	57	104	0	61	14835
2026-01-06 01:58:26.43	334.66	14.10	-44.6	-57.2	3.8	1.49e+00	0	57	104	0	61	14722
2026-01-06 01:58:27.44	334.46	14.13	-44.6	-57.1	3.8	1.49e+00	0	57	104	0	61	14575
2026-01-06 01:58:28.45	334.26	14.16	-44.6	-57.0	3.8	1.49e+00	0	57	104	0	61	14520
2026-01-06 01:58:29.46	334.06	14.19	-44.6	-57.0	3.8	1.49e+00	0	56	104	0	61	14514
2026-01-06 01:58:30.47	333.86	14.22	-44.6	-57.0	3.8	1.49e+00	0	57	104	0	61	14464
2026-01-06 01:58:31.48	333.67	14.25	-44.6	-57.0	3.8	1.49e+00	0	56	104	0	61	14466
2026-01-06 01:58:32.49	333.47	14.29	-44.6	-57.0	3.8	1.49e+00	0	57	104	0	61	14458
2026-01-06 01:58:33.50	333.27	14.32	-44.6	-57.0	3.8	1.49e+00	0	57	104	0	61	14523
2026-01-06 01:58:34.52	333.07	14.35	-44.6	-57.0	3.8	1.49e+00	0	57	104	0	61	14535
2026-01-06 01:58:35.53	332.86	14.38	-44.6	-57.1	3.8	1.49e+00	0	56	104	0	61	14584
2026-01-06 01:58:36.54	332.66	14.40	-44.6	-57.1	3.8	1.49e+00	0	57	104	0	61	14634
2026-01-06 01:58:37.55	332.46	14.43	-44.6	-57.1	3.8	1.49e+00	0	57	104	0	61	14574
2026-01-06 01:58:38.56	332.26	14.46	-44.6	-57.0	3.8	1.49e+00	0	57	104	0	61	14489
2026-01-06 01:58:39.57	332.06	14.49	-44.6	-56.9	3.8	1.49e+00	0	57	104	0	61	14353
2026-01-06 01:58:40.58	331.86	14.52	-44.6	-56.8	3.8	1.49e+00	0	57	104	0	61	14203
2026-01-06 01:58:41.59	331.65	14.55	-44.5	-56.7	3.8	1.49e+00	0	56	104	0	61	14041
2026-01-06 01:58:42.60	331.45	14.57	-44.5	-56.7	3.8	1.49e+00	0	57	104	0	61	13981
2026-01-06 01:58:43.61	331.25	14.60	-44.6	-56.8	3.8	1.49e+00	0	57	104	0	61	14147
2026-01-06 01:58:44.63	331.04	14.63	-44.6	-56.9	3.8	1.49e+00	0	57	104	0	61	14349
2026-01-06 01:58:45.64	330.84	14.65	-44.6	-57.1	3.8	1.49e+00	0	57	104	0	61	14641
2026-01-06 01:58:46.65	330.63	14.68	-44.6	-57.0	3.8	1.49e+00	0	57	104	0	61	14477
2026-01-06 01:58:47.66	330.43	14.71	-44.5	-56.6	3.8	1.49e+00	0	57	104	0	61	13784
2026-01-06 01:58:48.67	330.22	14.73	-44.5	-56.0	3.8	1.49e+00	0	57	104	0	60	13640
2026-01-06 01:58:49.68	330.02	14.76	-44.4	-55.6	3.8	1.49e+00	0	57	104	0	60	13017
2026-01-06 01:58:50.69	329.81	14.78	-44.4	-55.3	3.8	1.49e+00	0	57	104	0	60	12572
2026-01-06 01:58:51.70	329.60	14.81	-44.4	-55.7	3.8	1.49e+00	0	56	104	0	60	13139
2026-01-06 01:58:52.71	329.40	14.83	-44.5	-56.2	3.8	1.49e+00	0	57	104	0	60	13905
2026-01-06 01:58:53.72	329.19	14.85	-44.5	-56.7	3.8	1.49e+00	0	57	104	0	60	14790
2026-01-06 01:58:54.74	328.98	14.88	-44.6	-56.9	3.8	1.49e+00	0	57	104	0	60	15212
2026-01-06 01:58:55.75	328.77	14.90	-44.5	-56.8	3.8	1.49e+00	0	57	104	0	60	14959
2026-01-06 01:58:56.76	328.56	14.92	-44.5	-56.0	3.8	1.49e+00	0	57	104	0	60	13655
2026-01-06 01:58:57.77	328.36	14.95	-44.3	-54.4	3.9	1.48e+00	0	57	104	0	60	11401
2026-01-06 01:58:58.78	328.15	14.97	-44.1	-52.6	4.5	1.45e+00	0	57	104	0	60	9200
2026-01-06 01:58:59.79	327.94	14.99	-43.8	-51.0	5.2	1.43e+00	0	57	104	0	59	8122
2026-01-06 01:59:00.80	327.73	15.01	-43.6	-50.0	5.9	4.02e-01	0	57	0	2097152	59	7282
2026-01-06 01:59:01.81	327.52	15.03	-43.6	-50.1	5.8	3.53e-01	0	57	0	5242880	59	7343
2026-01-06 01:59:02.82	327.31	15.05	-43.9	-51.1	5.2	5.40e-01	0	57	0	8388608	59	8249
2026-01-06 01:59:03.83	327.10	15.07	-44.2	-53.8	3.9	1.38e+00	0	57	104	9437184	59	11216
2026-01-06 01:59:04.84	326.89	15.09	-44.4	-54.9	3.8	1.48e+00	0	57	104	9437184	59	12682
2026-01-06 01:59:05.85	326.68	15.11	-43.8	-50.8	5.3	1.20e+00	0	57	0	9437184	59	7958
2026-01-06 01:59:06.86	326.47	15.13	-42.5	-46.7	8.9	9.18e-02	0	57	0	12582912	57	5584
2026-01-06 01:59:07.87	326.26	15.15	-40.8	-43.7	12.0	1.40e-03	0	57	0	15728640	53	4933
2026-01-06 01:59:08.89	326.04	15.17	-39.5	-41.7	14.0	6.10e-06	0	56	0	18874368	51	4414
2026-01-06 01:59:09.90	325.83	15.18	-38.5	-40.4	15.4	0.00e+00	0	57	0	22020096	49	4248
2026-01-06 01:59:10.91	325.62	15.20	-37.8	-39.6	16.1	0.00e+00	0	57	0	25165824	47	4353
2026-01-06 01:59:11.92	325.41	15.22	-37.7	-39.4	16.2	0.00e+00	0	57	0	28311552	47	4288
2026-01-06 01:59:12.93	325.19	15.23	-39.5	-41.7	14.0	0.00e+00	0	57	0	31457280	49	4983
2026-01-06 01:59:13.94	324.98	15.25	-41.4	-44.7	11.1	7.00e-07	0	57	0	34603008	53	5555
2026-01-06 01:59:14.95	324.77	15.27	-42.4	-46.7	8.9	5.79e-05	0	57	0	37748736	55	6249
2026-01-06 01:59:15.96	324.55	15.28	-39.9	-42.3	13.6	3.80e-06	0	56	0	40894464	50	5018
2026-01-06 01:59:16.97	324.34	15.30	-40.1	-42.5	13.4	0.00e+00	0	57	0	44040192	50	5126
2026-01-06 01:59:17.98	324.13	15.31	-37.7	-39.4	16.2	0.00e+00	0	57	0	47185920	47	4263
2026-01-06 01:59:18.99	323.91	15.33	-37.6	-39.2	16.4	0.00e+00	0	57	0	50331648	47	4192
2026-01-06 01:59:19.99	323.70	15.34	-37.7	-39.3	16.3	0.00e+00	0	57	0	53477376	47	4242
2026-01-06 01:59:21.00	323.49	15.35	-37.8	-39.5	16.2	0.00e+00	0	57	0	56623104	47	4294
2026-01-06 01:59:22.01	323.27	15.37	-37.8	-39.5	16.2	0.00e+00	0	57	0	59768832	47	4323
2026-01-06 01:59:23.02	323.06	15.38	-37.8	-39.6	16.1	0.00e+00	0	57	0	62914560	47	4351
2026-01-06 01:59:24.03	322.84	15.39	-37.9	-39.6	16.1	0.00e+00	0	57	0	66060288	47	4358
2026-01-06 01:59:25.04	322.63	15.40	-37.8	-39.5	16.1	0.00e+00	0	57	0	69206016	47	4320
2026-01-06 01:59:26.05	322.41	15.42	-37.7	-39.4	16.2	0.00e+00	0	56	0	72351744	47	4284
2026-01-06 01:59:27.06	322.20	15.43	-37.6	-39.2	16.4	0.00e+00	0	56	0	75497472	47	4184
2026-01-06 01:59:28.07	321.98	15.44	-37.5	-39.1	16.6	0.00e+00	0	57	0	78643200	46	4351
2026-01-06 01:59:29.08	321.76	15.45	-37.5	-39.1	16.5	0.00e+00	0	57	0	81788928	46	4390
2026-01-06 01:59:30.09	321.55	15.46	-37.5	-39.2	16.5	0.00e+00	0	57	0	84934656	46	4410
2026-01-06 01:59:31.10	321.33	15.47	-37.5	-39.2	16.5	0.00e+00	0	57	0	88080384	46	4403
2026-01-06 01:59:32.11	321.12	15.48	-37.5	-39.1	16.5	0.00e+00	0	57	0	91226112	46	4384
2026-01-06 01:59:33.12	320.90	15.49	-37.6	-39.2	16.5	0.00e+00	0	57	0	94371840	46	4418
2026-01-06 01:59:34.13	320.68	15.49	-37.6	-39.3	16.4	0.00e+00	0	57	0	97517568	46	4459
2026-01-06 01:59:35.14	320.47	15.50	-37.7	-39.4	16.2	0.00e+00	0	57	0	100663296	46	4539
2026-01-06 01:59:36.15	320.25	15.51	-37.9	-39.6	16.1	0.00e+00	0	56	0	103809024	46	4618
2026-01-06 01:59:37.17	320.03	15.52	-37.9	-39.6	16.1	0.00e+00	0	57	0	106954752	46	4643
2026-01-06 01:59:38.18	319.81	15.52	-38.0	-39.8	15.9	0.00e+00	0	57	0	110100480	46	4735
2026-01-06 01:59:39.19	319.60	15.53	-38.0	-39.8	15.9	0.00e+00	0	57	0	113246208	46	4745
2026-01-06 01:59:40.20	319.38	15.53	-38.1	-39.9	15.8	0.00e+00	0	57	0	116391936	46	4766
2026-01-06 01:59:41.21	319.16	15.54	-38.1	-39.9	15.8	0.00e+00	0	57	0	119537664	46	4785
2026-01-06 01:59:42.22	318.94	15.54	-38.1	-39.9	15.8	0.00e+00	0	57	0	122683392	46	4789
2026-01-06 01:59:43.23	318.73	15.55	-38.0	-39.7	15.9	0.00e+00	0	57	0	125829120	46	4696
2026-01-06 01:59:44.24	318.51	15.55	-37.8	-39.5	16.2	0.00e+00	0	56	0	128974848	46	4594
2026-01-06 01:59:45.25	318.29	15.56	-37.8	-39.5	16.2	0.00e+00	0	57	0	132120576	46	4556
2026-01-06 01:59:46.26	318.07	15.56	-37.8	-39.5	16.1	0.00e+00	0	56	0	135266304	46	4576
2026-01-06 01:59:47.27	317.86	15.56	-38.0	-39.7	15.9	0.00e+00	0	56	0	138412032	46	4697
2026-01-06 01:59:48.28	317.64	15.57	-38.0	-39.8	15.9	0.00e+00	0	56	0	141557760	46	4722
2026-01-06 01:59:49.29	317.42	15.57	-37.9	-39.6	16.1	0.00e+00	0	57	0	144703488	46	4638
2026-01-06 01:59:50.30	317.20	15.57	-37.9	-39.7	16.0	0.00e+00	0	56	0	147849216	46	4667
2026-01-06 01:59:51.31	316.99	15.57	-38.0	-39.7	16.0	0.00e+00	0	57	0	150994944	46	4684
2026-01-06 01:59:52.32	316.77	15.57	-37.9	-39.7	16.0	0.00e+00	0	57	0	154140672	46	4665
2026-01-06 01:59:53.33	316.55	15.57	-38.0	-39.7	16.0	0.00e+00	0	57	0	157286400	46	4676
2026-01-06 01:59:54.34	316.33	15.57	-37.9	-39.7	16.0	0.00e+00	0	57	0	160432128	46	4672
2026-01-06 01:59:55.35	316.11	15.57	-37.8	-39.5	16.2	0.00e+00	0	57	0	163577856	46	4578
2026-01-06 01:59:56.36	315.90	15.57	-37.8	-39.5	16.1	0.00e+00	0	57	0	166723584	46	4587
2026-01-06 01:59:57.37	315.68	15.57	-37.9	-39.6	16.1	0.00e+00	0	57	0	169869312	46	4625
2026-01-06 01:59:58.38	315.46	15.57	-37.9	-39.6	16.1	0.00e+00	0	57	0	173015040	46	4634
2026-01-06 01:59:59.40	315.24	15.57	-37.9	-39.6	16.0	0.00e+00	0	57	0	176160768	46	4643
2026-01-06 02:00:00.40	315.03	15.56	-37.8	-39.5	16.2	0.00e+00	0	57	0	179306496	46	4580
2026-01-06 02:00:01.42	314.81	15.56	-37.8	-39.5	16.1	0.00e+00	0	57	0	182452224	46	4579
2026-01-06 02:00:02.43	314.59	15.56	-37.8	-39.5	16.2	0.00e+00	0	57	0	185597952	46	4563
2026-01-06 02:00:03.44	314.37	15.55	-37.8	-39.6	16.1	0.00e+00	0	57	0	188743680	46	4605
2026-01-06 02:00:04.44	314.16	15.55	-37.9	-39.6	16.1	0.00e+00	0	57	0	191889408	46	4629
2026-01-06 02:00:05.46	313.94	15.54	-38.0	-39.7	16.0	0.00e+00	0	57	0	196083712	46	4679
2026-01-06 02:00:06.47	313.72	15.54	-38.0	-39.8	15.9	0.00e+00	0	56	0	199229440	46	4706
2026-01-06 02:00:07.48	313.50	15.53	-38.0	-39.7	15.9	0.00e+00	0	57	0	202375168	46	4694
2026-01-06 02:00:08.49	313.28	15.53	-38.1	-39.9	15.8	0.00e+00	0	57	0	204472320	46	4763
2026-01-06 02:00:09.49	313.07	15.52	-38.0	-39.8	15.9	0.00e+00	0	57	0	207618048	46	4741
2026-01-06 02:00:10.50	312.85	15.52	-38.1	-39.9	15.8	0.00e+00	0	57	0	211812352	46	4765
2026-01-06 02:00:11.52	312.63	15.51	-38.1	-39.9	15.8	0.00e+00	0	57	0	214958080	46	4766
2026-01-06 02:00:12.52	312.42	15.50	-38.2	-40.0	15.6	0.00e+00	0	57	0	218103808	46	4865
2026-01-06 02:00:13.54	312.20	15.49	-38.2	-40.0	15.7	0.00e+00	0	57	0	221249536	47	4556
2026-01-06 02:00:14.55	311.98	15.49	-38.2	-40.0	15.7	0.00e+00	0	57	0	224395264	47	4571
2026-01-06 02:00:15.56	311.77	15.48	-38.1	-39.9	15.7	0.00e+00	0	56	0	227540992	47	4539
2026-01-06 02:00:16.57	311.55	15.47	-38.0	-39.7	15.9	0.00e+00	0	56	0	230686720	47	4422
2026-01-06 02:00:17.58	311.33	15.46	-37.9	-39.6	16.0	0.00e+00	0	57	0	233832448	47	4386
2026-01-06 02:00:18.59	311.12	15.45	-37.9	-39.6	16.0	0.00e+00	0	56	0	236978176	47	4385
2026-01-06 02:00:19.60	310.90	15.44	-37.9	-39.6	16.0	0.00e+00	0	56	0	240123904	47	4373
2026-01-06 02:00:20.60	310.69	15.43	-38.0	-39.7	15.9	0.00e+00	0	56	0	243269632	47	4420
2026-01-06 02:00:21.61	310.47	15.42	-38.0	-39.8	15.9	0.00e+00	0	57	0	246415360	47	4450
2026-01-06 02:00:22.62	310.26	15.40	-38.1	-39.9	15.8	0.00e+00	0	56	0	249561088	47	4503
2026-01-06 02:00:23.64	310.04	15.39	-38.1	-39.9	15.7	0.00e+00	0	57	0	252706816	47	4532
2026-01-06 02:00:24.65	309.82	15.38	-38.1	-39.8	15.8	0.00e+00	0	57	0	255852544	47	4492
2026-01-06 02:00:25.66	309.61	15.37	-38.0	-39.7	15.9	0.00e+00	0	56	0	258998272	47	4440
2026-01-06 02:00:26.67	309.39	15.35	-37.9	-39.6	16.0	0.00e+00	0	57	0	262144000	47	4378
2026-01-06 02:00:27.68	309.18	15.34	-37.9	-39.7	16.0	0.00e+00	0	57	0	265289728	47	4410
2026-01-06 02:00:28.69	308.96	15.33	-37.8	-39.6	16.1	0.00e+00	0	57	0	268435456	47	4344
2026-01-06 02:00:29.70	308.75	15.31	-37.8	-39.5	16.1	0.00e+00	0	57	0	271581184	47	4339
2026-01-06 02:00:30.71	308.54	15.30	-37.8	-39.5	16.2	0.00e+00	0	56	0	274726912	47	4301
2026-01-06 02:00:31.72	308.32	15.28	-37.8	-39.5	16.1	0.00e+00	0	56	0	277872640	47	4306
2026-01-06 02:00:32.73	308.11	15.27	-37.8	-39.5	16.1	0.00e+00	0	56	0	281018368	47	4340
2026-01-06 02:00:33.74	307.89	15.25	-37.9	-39.7	15.9	0.00e+00	0	57	0	284164096	47	4399
2026-01-06 02:00:34.75	307.68	15.23	-37.8	-39.6	16.0	0.00e+00	0	57	0	287309824	47	4352
2026-01-06 02:00:35.76	307.47	15.22	-37.6	-39.3	16.3	0.00e+00	0	57	0	290455552	47	4228
2026-01-06 02:00:36.77	307.26	15.20	-37.6	-39.3	16.3	0.00e+00	0	56	0	293601280	47	4225
2026-01-06 02:00:37.78	307.04	15.18	-37.6	-39.3	16.3	0.00e+00	0	56	0	296747008	47	4230
2026-01-06 02:00:38.79	306.83	15.17	-37.6	-39.3	16.3	0.00e+00	0	57	0	299892736	47	4210
2026-01-06 02:00:39.80	306.62	15.15	-37.7	-39.4	16.2	0.00e+00	0	56	0	303038464	47	4269
2026-01-06 02:00:40.81	306.41	15.13	-37.8	-39.5	16.1	0.00e+00	0	56	0	306184192	47	4325
2026-01-06 02:00:41.82	306.20	15.11	-37.9	-39.7	15.9	0.00e+00	0	56	0	309329920	47	4408
2026-01-06 02:00:42.83	305.99	15.09	-38.0	-39.7	15.8	0.00e+00	0	57	0	312475648	47	4436
2026-01-06 02:00:43.84	305.77	15.07	-38.0	-39.8	15.8	0.00e+00	0	56	0	315621376	47	4483
2026-01-06 02:00:44.85	305.56	15.05	-38.2	-40.0	15.6	0.00e+00	0	57	0	318767104	47	4585
2026-01-06 02:00:45.86	305.35	15.03	-38.0	-39.8	15.7	0.00e+00	0	56	0	321912832	47	4492
2026-01-06 02:00:46.87	305.14	15.01	-38.0	-39.8	15.8	0.00e+00	0	56	0	325058560	47	4460
2026-01-06 02:00:47.88	304.93	14.99	-38.1	-39.9	15.7	0.00e+00	0	57	0	328204288	47	4511
2026-01-06 02:00:48.89	304.72	14.97	-37.9	-39.7	15.9	0.00e+00	0	57	0	331350016	47	4404
2026-01-06 02:00:49.90	304.52	14.94	-37.7	-39.4	16.1	0.00e+00	0	57	0	334495744	47	4291
2026-01-06 02:00:50.91	304.31	14.92	-37.8	-39.5	16.1	0.00e+00	0	57	0	337641472	47	4308
2026-01-06 02:00:51.92	304.10	14.90	-37.7	-39.4	16.1	0.00e+00	0	56	0	340787200	47	4280
2026-01-06 02:00:52.94	303.89	14.88	-37.7	-39.5	16.1	0.00e+00	0	57	0	343932928	47	4292
2026-01-06 02:00:53.94	303.68	14.85	-37.7	-39.4	16.2	0.00e+00	0	56	0	347078656	47	4273
2026-01-06 02:00:54.95	303.47	14.83	-37.7	-39.5	16.1	0.00e+00	0	56	0	350224384	47	4293
2026-01-06 02:00:55.96	303.27	14.81	-37.7	-39.3	16.2	0.00e+00	0	57	0	353370112	47	4241
2026-01-06 02:00:56.98	303.06	14.78	-37.6	-39.3	16.3	0.00e+00	0	57	0	356515840	47	4210
2026-01-06 02:00:57.98	302.85	14.76	-37.7	-39.4	16.2	0.00e+00	0	57	0	359661568	47	4246
2026-01-06 02:00:58.99	302.65	14.73	-37.6	-39.3	16.3	0.00e+00	0	57	0	362807296	47	4210
2026-01-06 02:01:00.00	302.44	14.71	-37.5	-39.2	16.4	0.00e+00	0	57	0	365953024	47	4157
2026-01-06 02:01:01.01	302.24	14.68	-37.6	-39.3	16.3	0.00e+00	0	56	0	369098752	47	4224
2026-01-06 02:01:02.02	302.03	14.65	-37.7	-39.4	16.1	0.00e+00	0	56	0	372244480	47	4267
2026-01-06 02:01:03.03	301.83	14.63	-37.8	-39.5	16.0	0.00e+00	0	56	0	375390208	47	4340
2026-01-06 02:01:04.04	301.62	14.60	-37.8	-39.5	16.1	0.00e+00	0	57	0	378535936	47	4306
2026-01-06 02:01:05.05	301.42	14.57	-37.6	-39.3	16.2	0.00e+00	0	57	0	381681664	47	4218
2026-01-06 02:01:06.06	301.21	14.55	-37.6	-39.3	16.3	0.00e+00	0	57	0	384827392	47	4209
2026-01-06 02:01:07.07	301.01	14.52	-37.7	-39.4	16.1	0.00e+00	0	56	0	387973120	47	4255
2026-01-06 02:01:08.08	300.81	14.49	-37.7	-39.4	16.1	0.00e+00	0	57	0	391118848	47	4272
2026-01-06 02:01:09.09	300.61	14.46	-37.7	-39.5	16.0	0.00e+00	0	56	0	394264576	47	4302
2026-01-06 02:01:10.10	300.40	14.43	-37.8	-39.6	15.9	0.00e+00	0	56	0	397410304	47	4362
2026-01-06 02:01:11.11	300.20	14.40	-37.9	-39.7	15.8	0.00e+00	0	57	0	400556032	47	4433
2026-01-06 02:01:12.12	300.00	14.37	-37.8	-39.6	15.9	0.00e+00	0	57	0	403701760	47	4355
2026-01-06 02:01:13.13	299.80	14.34	-37.7	-39.5	16.0	0.00e+00	0	57	0	406847488	47	4314
2026-01-06 02:01:14.14	299.60	14.31	-37.7	-39.4	16.1	0.00e+00	0	57	0	409993216	47	4268
2026-01-06 02:01:15.15	299.40	14.28	-37.6	-39.3	16.1	0.00e+00	0	57	0	413138944	47	4228
2026-01-06 02:01:16.16	299.20	14.25	-37.7	-39.4	16.1	0.00e+00	0	57	0	416284672	47	4267
2026-01-06 02:01:17.18	299.00	14.22	-37.7	-39.4	16.0	0.00e+00	0	57	0	419430400	47	4273
2026-01-06 02:01:18.19	298.80	14.19	-37.7	-39.5	15.9	0.00e+00	0	57	0	422576128	47	4314
2026-01-06 02:01:19.20	298.60	14.16	-37.8	-39.6	15.9	0.00e+00	0	56	0	425721856	47	4357
2026-01-06 02:01:20.21	298.40	14.13	-37.9	-39.8	15.7	0.00e+00	0	56	0	428867584	47	4445
2026-01-06 02:01:21.22	298.21	14.10	-38.1	-40.0	15.5	0.00e+00	0	56	0	432013312	47	4548
2026-01-06 02:01:22.23	298.01	14.06	-38.2	-40.1	15.3	0.00e+00	0	57	0	435159040	47	4627
2026-01-06 02:01:23.24	297.81	14.03	-38.2	-40.1	15.3	0.00e+00	0	56	0	438304768	47	4608
2026-01-06 02:01:24.25	297.62	14.00	-38.1	-40.0	15.4	0.00e+00	0	57	0	441450496	47	4577
2026-01-06 02:01:25.26	297.42	13.96	-38.1	-40.0	15.4	0.00e+00	0	57	0	444596224	47	4587
2026-01-06 02:01:26.27	297.22	13.93	-38.1	-39.9	15.4	0.00e+00	0	56	0	447741952	47	4527
2026-01-06 02:01:27.28	297.03	13.90	-37.7	-39.5	15.8	0.00e+00	0	56	0	450887680	47	4299
2026-01-06 02:01:28.29	296.83	13.86	-37.5	-39.3	16.0	0.00e+00	0	56	0	454033408	47	4200
2026-01-06 02:01:29.30	296.64	13.83	-37.5	-39.3	16.0	0.00e+00	0	57	0	457179136	47	4206
2026-01-06 02:01:30.31	296.45	13.79	-37.5	-39.3	16.0	0.00e+00	0	56	0	460324864	47	4201
2026-01-06 02:01:31.32	296.25	13.76	-37.6	-39.3	15.8	0.00e+00	0	56	0	463470592	47	4241
2026-01-06 02:01:32.33	296.06	13.72	-37.5	-39.3	15.9	0.00e+00	0	57	0	466616320	47	4208
2026-01-06 02:01:33.34	295.87	13.69	-37.7	-39.5	15.7	0.00e+00	0	57	0	469762048	47	4311
2026-01-06 02:01:34.35	295.68	13.65	-37.7	-39.5	15.6	0.00e+00	0	57	0	472907776	47	4326
2026-01-06 02:01:35.37	295.48	13.62	-37.7	-39.5	15.6	0.00e+00	0	56	0	476053504	47	4307
2026-01-06 02:01:36.38	295.29	13.58	-37.6	-39.5	15.6	0.00e+00	0	56	0	479199232	47	4295
2026-01-06 02:01:37.39	295.10	13.54	-37.7	-39.5	15.6	0.00e+00	0	57	0	482344960	47	4322
2026-01-06 02:01:38.40	294.91	13.51	-37.7	-39.5	15.5	0.00e+00	0	56	0	485490688	47	4340
2026-01-06 02:01:39.41	294.72	13.47	-37.7	-39.6	15.4	0.00e+00	0	57	0	489684992	47	4360
2026-01-06 02:01:40.42	294.54	13.43	-37.7	-39.6	15.4	0.00e+00	0	56	0	492830720	47	4347
2026-01-06 02:01:41.43	294.35	13.39	-37.8	-39.7	15.2	0.00e+00	0	56	0	494927872	47	4439
2026-01-06 02:01:42.44	294.16	13.36	-37.9	-39.8	15.1	0.00e+00	0	56	0	498073600	47	4470
2026-01-06 02:01:43.45	293.97	13.32	-38.1	-40.1	14.8	0.00e+00	0	57	0	501219328	47	4624
2026-01-06 02:01:44.46	293.78	13.28	-38.1	-40.1	14.7	7.00e-07	0	57	0	505413632	47	4643
2026-01-06 02:01:45.47	293.60	13.24	-38.2	-40.3	14.5	0.00e+00	0	57	0	508559360	47	4736
2026-01-06 02:01:46.48	293.41	13.20	-38.2	-40.3	14.4	7.00e-07	0	56	0	511705088	47	4753
2026-01-06 02:01:47.49	293.23	13.16	-38.3	-40.4	14.2	7.00e-07	0	57	0	514850816	47	4814
2026-01-06 02:01:48.50	293.04	13.12	-38.2	-40.4	14.3	2.20e-06	0	57	0	517996544	47	4776
2026-01-06 02:01:49.51	292.86	13.08	-38.2	-40.3	14.4	0.00e+00	0	57	0	521142272	47	4755
2026-01-06 02:01:50.52	292.67	13.04	-38.2	-40.3	14.4	0.00e+00	0	57	0	524288000	47	4730
2026-01-06 02:01:51.53	292.49	13.00	-38.1	-40.2	14.4	0.00e+00	0	57	0	527433728	47	4665
2026-01-06 02:01:52.54	292.31	12.96	-38.1	-40.2	14.2	7.00e-07	0	56	0	530579456	47	4694
2026-01-06 02:01:53.55	292.12	12.92	-38.1	-40.3	14.2	7.00e-07	0	57	0	533725184	47	4706
2026-01-06 02:01:54.56	291.94	12.88	-38.0	-40.1	14.3	7.00e-07	0	56	0	536870912	47	4627
2026-01-06 02:01:55.57	291.76	12.84	-37.9	-40.0	14.5	2.20e-06	0	57	0	540016640	47	4570
2026-01-06 02:01:56.58	291.58	12.80	-37.9	-40.0	14.5	7.00e-07	0	57	0	543162368	47	4574
2026-01-06 02:01:57.59	291.40	12.76	-38.0	-40.1	14.4	1.50e-06	0	57	0	546308096	47	4620
2026-01-06 02:01:58.60	291.22	12.72	-38.1	-40.2	14.3	0.00e+00	0	56	0	549453824	47	4683
2026-01-06 02:01:59.61	291.04	12.68	-38.1	-40.2	14.3	0.00e+00	0	56	0	552599552	47	4697
2026-01-06 02:02:00.62	290.86	12.63	-38.1	-40.3	14.3	0.00e+00	0	56	0	555745280	47	4712
2026-01-06 02:02:01.63	290.68	12.59	-38.2	-40.4	14.1	7.00e-07	0	57	0	558891008	47	4789
2026-01-06 02:02:02.64	290.50	12.55	-38.1	-40.4	14.1	3.80e-06	0	57	0	562036736	47	4770
2026-01-06 02:02:03.65	290.33	12.51	-38.1	-40.3	14.0	2.20e-06	0	56	0	565182464	47	4723
2026-01-06 02:02:04.66	290.15	12.46	-38.1	-40.5	13.7	8.30e-06	0	56	0	568328192	47	4816
2026-01-06 02:02:05.67	289.97	12.42	-38.3	-40.7	13.5	5.30e-06	0	57	0	571473920	47	4929
2026-01-06 02:02:06.67	289.80	12.38	-38.4	-40.8	13.2	1.83e-05	0	57	0	574619648	47	5034
2026-01-06 02:02:07.68	289.62	12.34	-38.5	-41.1	12.9	3.28e-05	0	57	0	577765376	47	5190
2026-01-06 02:02:08.69	289.45	12.29	-38.8	-41.5	12.5	1.10e-04	0	57	0	580911104	48	5154
2026-01-06 02:02:09.71	289.27	12.25	-39.0	-41.8	12.2	2.24e-04	0	57	0	584056832	48	5298
2026-01-06 02:02:10.72	289.10	12.20	-39.1	-42.1	11.7	4.87e-04	0	57	0	587202560	48	5497
2026-01-06 02:02:11.73	288.93	12.16	-39.3	-42.5	11.2	9.43e-04	0	56	0	590348288	49	5432
2026-01-06 02:02:12.74	288.75	12.12	-39.5	-43.0	10.6	2.39e-03	0	57	0	593494016	49	5729
2026-01-06 02:02:13.75	288.58	12.07	-39.6	-43.3	10.2	5.08e-03	0	56	0	596639744	49	5926
2026-01-06 02:02:14.76	288.41	12.03	-39.8	-43.6	9.8	8.80e-03	0	56	0	599785472	50	5814
2026-01-06 02:02:15.76	288.24	11.98	-39.8	-43.7	9.5	1.34e-02	0	57	0	602931200	50	5923
2026-01-06 02:02:16.78	288.07	11.94	-39.9	-44.0	9.1	2.12e-02	0	57	0	606076928	50	6091
2026-01-06 02:02:17.78	287.90	11.89	-39.9	-44.3	8.7	3.37e-02	0	56	0	609222656	50	6294
2026-01-06 02:02:18.79	287.73	11.85	-40.0	-44.5	8.4	4.42e-02	0	57	0	612368384	50	6494
2026-01-06 02:02:19.80	287.56	11.80	-40.1	-45.0	7.8	7.00e-02	0	57	0	615514112	50	6829
2026-01-06 02:02:20.81	287.39	11.76	-40.2	-45.5	7.3	1.15e-01	0	56	0	618659840	50	7238
2026-01-06 02:02:21.82	287.22	11.71	-40.3	-45.9	6.8	1.65e-01	0	56	0	621805568	51	7142
2026-01-06 02:02:22.83	287.06	11.67	-40.4	-46.3	6.5	2.29e-01	0	56	0	624951296	51	7469
2026-01-06 02:02:23.84	286.89	11.62	-40.4	-46.7	6.1	2.96e-01	0	56	0	628097024	51	7810
2026-01-06 02:02:24.85	286.72	11.57	-40.5	-46.9	5.9	3.54e-01	0	56	0	631242752	51	8018
2026-01-06 02:02:25.86	286.56	11.53	-40.5	-47.0	5.8	3.94e-01	0	57	0	634388480	51	8124
2026-01-06 02:02:26.88	286.39	11.48	-40.5	-46.8	6.0	3.57e-01	0	56	0	637534208	51	7925
2026-01-06 02:02:27.89	286.23	11.43	-40.6	-46.6	6.3	2.73e-01	0	57	0	640679936	51	7720
2026-01-06 02:02:28.90	286.06	11.39	-40.7	-46.4	6.5	2.34e-01	0	57	0	643825664	51	7622
2026-01-06 02:02:29.91	285.90	11.34	-40.7	-46.2	6.9	1.81e-01	0	56	0	646971392	52	7010
2026-01-06 02:02:30.92	285.73	11.29	-40.8	-46.1	7.1	1.50e-01	0	56	0	650117120	52	6947
2026-01-06 02:02:31.93	285.57	11.25	-40.8	-46.3	6.9	1.59e-01	0	57	0	653262848	52	7094
2026-01-06 02:02:32.94	285.41	11.20	-40.7	-46.2	6.9	1.53e-01	0	57	0	656408576	52	7032
2026-01-06 02:02:33.95	285.25	11.15	-40.7	-46.2	7.1	1.52e-01	0	57	0	659554304	52	6987
2026-01-06 02:02:34.96	285.09	11.11	-40.7	-46.1	7.1	1.39e-01	0	57	0	662700032	52	6896
2026-01-06 02:02:35.97	284.93	11.06	-40.7	-46.0	7.2	1.30e-01	0	56	0	665845760	52	6849
2026-01-06 02:02:36.98	284.77	11.01	-40.7	-45.9	7.4	1.21e-01	0	56	0	668991488	52	6742
2026-01-06 02:02:37.99	284.61	10.96	-40.6	-45.5	7.9	8.01e-02	0	57	0	672137216	52	6459
2026-01-06 02:02:39.00	284.45	10.91	-40.5	-45.0	8.4	4.80e-02	0	57	0	675282944	52	6114
2026-01-06 02:02:40.01	284.29	10.87	-40.4	-44.5	9.1	3.11e-02	0	57	0	678428672	52	5779
2026-01-06 02:02:41.02	284.13	10.82	-40.4	-44.4	9.4	1.62e-02	0	57	0	681574400	52	5702
2026-01-06 02:02:42.03	283.97	10.77	-40.3	-44.2	9.8	1.15e-02	0	57	0	684720128	52	5533
2026-01-06 02:02:43.04	283.82	10.72	-40.2	-43.9	10.3	5.98e-03	0	57	0	687865856	52	5344
2026-01-06 02:02:44.05	283.66	10.67	-40.2	-43.7	10.5	4.60e-03	0	56	0	691011584	52	5267
2026-01-06 02:02:45.06	283.50	10.62	-40.0	-43.4	10.8	3.00e-03	0	57	0	694157312	52	5054
2026-01-06 02:02:46.07	283.35	10.58	-39.8	-43.0	11.2	1.58e-03	0	57	0	697303040	51	5128
2026-01-06 02:02:47.08	283.19	10.53	-39.7	-42.9	11.4	1.07e-03	0	57	0	700448768	51	5044
2026-01-06 02:02:48.09	283.04	10.48	-39.5	-42.5	11.7	5.71e-04	0	57	0	703594496	51	4842
2026-01-06 02:02:49.11	282.88	10.43	-39.4	-42.2	12.1	3.94e-04	0	56	0	706740224	50	4969
2026-01-06 02:02:50.12	282.73	10.38	-39.1	-41.8	12.5	1.51e-04	0	57	0	709885952	50	4725
2026-01-06 02:02:51.13	282.58	10.33	-38.9	-41.5	12.8	7.78e-05	0	57	0	713031680	49	4849
2026-01-06 02:02:52.14	282.43	10.28	-38.9	-41.5	12.8	5.03e-05	0	57	0	716177408	49	4821
2026-01-06 02:02:53.15	282.27	10.23	-38.8	-41.4	12.9	4.73e-05	0	57	0	719323136	49	4794
2026-01-06 02:02:54.16	282.12	10.18	-38.9	-41.5	12.8	4.73e-05	0	57	0	722468864	49	4839
2026-01-06 02:02:55.17	281.97	10.13	-39.0	-41.7	12.6	7.70e-05	0	57	0	725614592	49	4934
2026-01-06 02:02:56.18	281.82	10.08	-39.1	-41.8	12.5	1.01e-04	0	56	0	728760320	49	4992
2026-01-06 02:02:57.19	281.67	10.03	-39.2	-42.0	12.3	1.65e-04	0	57	0	731906048	49	5110
2026-01-06 02:02:58.20	281.52	9.98	-39.3	-42.3	12.1	2.53e-04	0	56	0	735051776	49	5283
2026-01-06 02:02:59.21	281.38	9.93	-39.7	-42.8	11.5	7.18e-04	0	57	0	738197504	49	5631
2026-01-06 02:03:00.22	281.23	9.88	-39.9	-43.2	11.1	1.28e-03	0	56	0	741343232	50	5553
2026-01-06 02:03:01.23	281.08	9.83	-40.1	-43.5	10.7	2.41e-03	0	57	0	744488960	50	5763
2026-01-06 02:03:02.24	280.93	9.78	-40.2	-43.7	10.4	3.86e-03	0	57	0	747634688	50	5916
2026-01-06 02:03:03.25	280.79	9.73	-40.1	-43.7	10.4	4.40e-03	0	57	0	750780416	50	5864
2026-01-06 02:03:04.26	280.64	9.68	-40.1	-43.7	10.2	5.36e-03	0	57	0	753926144	50	5923
2026-01-06 02:03:05.27	280.49	9.63	-40.1	-43.9	10.1	6.93e-03	0	57	0	757071872	50	5995
2026-01-06 02:03:06.28	280.35	9.58	-40.2	-44.1	9.8	9.01e-03	0	57	0	760217600	50	6145
2026-01-06 02:03:07.29	280.20	9.53	-40.3	-44.3	9.4	1.39e-02	0	57	0	763363328	51	5969
2026-01-06 02:03:08.30	280.06	9.48	-40.4	-44.6	9.1	2.06e-02	0	57	0	766509056	51	6142
2026-01-06 02:03:09.31	279.92	9.43	-40.4	-44.7	8.9	2.56e-02	0	57	0	769654784	51	6217
2026-01-06 02:03:10.32	279.77	9.38	-40.3	-44.6	8.8	2.95e-02	0	57	0	772800512	51	6201
2026-01-06 02:03:11.33	279.63	9.33	-40.3	-44.7	8.7	3.50e-02	0	57	0	775946240	51	6249
2026-01-06 02:03:12.34	279.49	9.27	-40.3	-44.9	8.4	4.52e-02	0	57	0	779091968	51	6405
2026-01-06 02:03:13.35	279.35	9.22	-40.4	-45.2	8.0	6.33e-02	0	57	0	783286272	51	6607
2026-01-06 02:03:14.36	279.21	9.17	-40.4	-45.6	7.5	8.22e-02	0	57	0	786432000	51	6886
2026-01-06 02:03:15.37	279.07	9.12	-40.5	-45.8	7.3	1.14e-01	0	56	0	788529152	51	7042
2026-01-06 02:03:16.38	278.93	9.07	-40.5	-45.9	7.1	1.47e-01	0	57	0	791674880	51	7193
2026-01-06 02:03:17.39	278.79	9.02	-40.5	-46.3	6.6	1.91e-01	0	57	0	794820608	51	7488
2026-01-06 02:03:18.40	278.65	8.97	-40.6	-46.6	6.3	2.45e-01	0	57	0	797966336	51	7745
2026-01-06 02:03:19.41	278.51	8.92	-40.6	-47.1	5.9	3.55e-01	0	57	0	802160640	51	8203
2026-01-06 02:03:20.42	278.37	8.86	-40.7	-47.5	5.5	4.70e-01	0	57	0	805306368	51	8656
2026-01-06 02:03:21.43	278.23	8.81	-40.7	-48.0	5.1	5.93e-01	0	56	0	808452096	51	9153
2026-01-06 02:03:22.44	278.10	8.76	-40.7	-49.1	4.0	7.33e-01	0	57	104	810549248	51	10310
2026-01-06 02:03:23.45	277.96	8.71	-40.7	-49.4	4.0	9.77e-01	0	57	104	810549248	51	10765
2026-01-06 02:03:24.46	277.82	8.66	-40.7	-49.5	4.3	1.45e+00	0	57	104	810549248	51	10848
2026-01-06 02:03:25.47	277.69	8.61	-40.6	-50.1	3.9	1.46e+00	0	57	104	810549248	51	11623
2026-01-06 02:03:26.48	277.55	8.56	-40.7	-50.6	4.0	1.47e+00	0	57	104	810549248	51	12302
2026-01-06 02:03:27.49	277.42	8.50	-40.4	-51.3	3.8	1.49e+00	0	57	104	810549248	52	12618
2026-01-06 02:03:28.50	277.28	8.45	-40.6	-51.6	3.8	1.49e+00	0	57	104	810549248	52	12973
2026-01-06 02:03:29.51	277.15	8.40	-40.4	-51.5	3.8	1.46e+00	0	57	104	810549248	52	12954
2026-01-06 02:03:30.52	277.02	8.35	-40.2	-52.0	3.8	1.49e+00	0	57	104	810549248	52	13623
2026-01-06 02:03:31.53	276.89	8.30	-40.8	-51.1	4.0	1.48e+00	0	57	104	810549248	52	12253
2026-01-06 02:03:32.54	276.75	8.24	-40.8	-51.7	3.8	1.49e+00	0	57	104	810549248	52	13204
2026-01-06 02:03:33.55	276.62	8.19	-40.4	-52.1	3.8	1.49e+00	0	57	104	810549248	52	13787
2026-01-06 02:03:34.56	276.49	8.14	-40.3	-52.2	3.8	1.49e+00	0	57	104	810549248	52	13967
2026-01-06 02:03:35.57	276.36	8.09	-40.3	-52.2	3.8	1.49e+00	0	57	104	810549248	52	14005
2026-01-06 02:03:36.58	276.23	8.04	-40.4	-52.3	3.8	1.49e+00	0	57	104	810549248	52	14122
2026-01-06 02:03:37.59	276.10	7.98	-42.1	-54.3	3.8	1.49e+00	0	57	104	810549248	54	15769
2026-01-06 02:03:38.60	275.97	7.93	-44.6	-56.9	3.8	1.49e+00	0	57	104	810549248	59	16011
2026-01-06 02:03:39.61	275.84	7.88	-44.8	-57.3	3.8	1.49e+00	0	57	104	810549248	60	15871
2026-01-06 02:03:40.63	275.71	7.83	-44.9	-57.5	3.8	1.49e+00	0	57	104	810549248	60	16164
2026-01-06 02:03:41.64	275.58	7.77	-45.0	-57.6	3.8	1.49e+00	0	57	104	810549248	60	16322
2026-01-06 02:03:42.65	275.46	7.72	-45.1	-57.6	3.8	1.49e+00	0	57	104	810549248	60	16384
2026-01-06 02:03:43.66	275.33	7.67	-45.2	-57.7	3.8	1.49e+00	0	57	104	810549248	60	16626
2026-01-06 02:03:44.67	275.20	7.62	-45.2	-57.7	3.8	1.49e+00	0	57	104	810549248	60	16655
2026-01-06 02:03:45.68	275.08	7.57	-45.2	-57.7	3.8	1.49e+00	0	57	104	810549248	61	15736
2026-01-06 02:03:46.69	274.95	7.51	-45.2	-57.8	3.8	1.49e+00	0	57	104	810549248	61	15797
2026-01-06 02:03:47.70	274.83	7.46	-45.2	-57.8	3.8	1.49e+00	0	57	104	810549248	61	15766
2026-01-06 02:03:48.71	274.70	7.41	-45.1	-57.7	3.8	1.49e+00	0	57	104	810549248	61	15699
2026-01-06 02:03:49.72	274.58	7.36	-45.1	-57.7	3.8	1.49e+00	0	57	104	810549248	61	15702
2026-01-06 02:03:50.74	274.45	7.30	-45.1	-57.7	3.8	1.49e+00	0	57	104	810549248	61	15655
2026-01-06 02:03:51.75	274.33	7.25	-45.1	-57.7	3.8	1.49e+00	0	57	104	810549248	61	15621
2026-01-06 02:03:52.76	274.21	7.20	-45.1	-57.7	3.8	1.49e+00	0	57	104	810549248	61	15674
2026-01-06 02:03:53.77	274.08	7.15	-45.2	-57.7	3.8	1.49e+00	0	57	104	810549248	61	15721
2026-01-06 02:03:54.78	273.96	7.09	-45.1	-57.7	3.8	1.49e+00	0	57	104	810549248	61	15649
2026-01-06 02:03:55.79	273.84	7.04	-45.1	-57.7	3.8	1.49e+00	0	57	104	810549248	61	15642
2026-01-06 02:03:56.80	273.72	6.99	-45.1	-57.7	3.8	1.49e+00	0	57	104	810549248	61	15650
2026-01-06 02:03:57.81	273.60	6.93	-45.1	-57.7	3.8	1.49e+00	0	57	104	810549248	61	15619
2026-01-06 02:03:58.82	273.48	6.88	-45.1	-57.7	3.8	1.49e+00	0	57	104	810549248	61	15604
2026-01-06 02:03:59.83	273.36	6.83	-45.1	-57.7	3.8	1.49e+00	0	57	104	810549248	61	15602
2026-01-06 02:04:00.84	273.24	6.78	-45.1	-57.7	3.8	1.49e+00	0	57	104	810549248	61	15604
2026-01-06 02:04:01.86	273.12	6.72	-45.1	-57.7	3.8	1.49e+00	0	57	104	810549248	61	15607
2026-01-06 02:04:02.87	273.00	6.67	-45.1	-57.7	3.8	1.49e+00	0	57	104	810549248	61	15623
2026-01-06 02:04:03.88	272.88	6.62	-45.1	-57.6	3.8	1.49e+00	0	57	104	810549248	61	15580
2026-01-06 02:04:04.89	272.76	6.57	-45.1	-57.7	3.8	1.49e+00	0	57	104	810549248	61	15650
2026-01-06 02:04:05.90	272.65	6.51	-45.1	-57.7	3.8	1.49e+00	0	57	104	810549248	61	15640
2026-01-06 02:04:06.91	272.53	6.46	-45.1	-57.7	3.8	1.49e+00	0	57	104	810549248	61	15672
2026-01-06 02:04:07.92	272.41	6.41	-45.1	-57.7	3.8	1.49e+00	0	57	104	810549248	61	15619
2026-01-06 02:04:08.93	272.30	6.36	-45.1	-57.7	3.8	1.49e+00	0	57	104	810549248	61	15601
2026-01-06 02:04:09.94	272.18	6.30	-45.1	-57.7	3.8	1.49e+00	0	57	104	810549248	61	15623
2026-01-06 02:04:10.96	272.07	6.25	-45.1	-57.7	3.8	1.49e+00	0	57	104	810549248	61	15604
2026-01-06 02:04:11.97	271.95	6.20	-45.1	-57.7	3.8	1.49e+00	0	57	104	810549248	61	15594
2026-01-06 02:04:12.98	271.84	6.14	-45.1	-57.7	3.8	1.49e+00	0	57	104	810549248	61	15581
2026-01-06 02:04:13.99	271.72	6.09	-45.1	-57.7	3.8	1.49e+00	0	57	104	810549248	61	15607
2026-01-06 02:04:15.00	271.61	6.04	-45.1	-57.7	3.8	1.49e+00	0	57	104	810549248	61	15590
2026-01-06 02:04:16.01	271.50	5.99	-45.1	-57.6	3.8	1.49e+00	0	57	104	810549248	61	15570
2026-01-06 02:04:17.02	271.38	5.93	-45.1	-57.7	3.8	1.49e+00	0	57	104	810549248	61	15607
2026-01-06 02:04:18.03	271.27	5.88	-45.1	-57.7	3.8	1.49e+00	0	57	104	810549248	61	15595
2026-01-06 02:04:19.04	271.16	5.83	-45.1	-57.6	3.8	1.49e+00	0	57	104	810549248	61	15579
2026-01-06 02:04:20.05	271.05	5.78	-45.1	-57.6	3.8	1.49e+00	0	57	104	810549248	61	15563
2026-01-06 02:04:21.06	270.94	5.72	-45.1	-57.7	3.8	1.49e+00	0	57	104	810549248	61	15600
2026-01-06 02:04:22.08	270.83	5.67	-45.1	-57.7	3.8	1.49e+00	0	57	104	810549248	61	15600
2026-01-06 02:04:23.09	270.72	5.62	-45.1	-57.7	3.8	1.49e+00	0	57	104	810549248	61	15601
2026-01-06 02:04:24.10	270.61	5.57	-45.1	-57.6	3.8	1.49e+00	0	57	104	810549248	61	15580
2026-01-06 02:04:25.11	270.50	5.51	-45.1	-57.7	3.8	1.49e+00	0	57	104	810549248	61	15581
2026-01-06 02:04:26.12	270.39	5.46	-45.1	-57.6	3.8	1.49e+00	0	57	104	810549248	61	15513
2026-01-06 02:04:27.13	270.28	5.41	-45.1	-57.6	3.8	1.49e+00	0	57	104	810549248	61	15577
2026-01-06 02:04:28.14	270.17	5.35	-45.1	-57.6	3.8	1.49e+00	0	57	104	810549248	61	15572
2026-01-06 02:04:29.15	270.07	5.30	-45.1	-57.6	3.8	1.49e+00	0	57	104	810549248	61	15577
2026-01-06 02:04:30.16	269.96	5.25	-45.1	-57.6	3.8	1.49e+00	0	57	104	810549248	61	15576
2026-01-06 02:04:31.18	269.85	5.20	-45.1	-57.6	3.8	1.49e+00	0	57	104	810549248	61	15569
2026-01-06 02:04:32.19	269.74	5.14	-45.1	-57.6	3.8	1.49e+00	0	57	104	810549248	61	15518
2026-01-06 02:04:33.20	269.64	5.09	-45.1	-57.6	3.8	1.49e+00	0	57	104	810549248	61	15572
2026-01-06 02:04:34.20	269.53	5.04	-45.1	-57.6	3.8	1.49e+00	0	57	104	810549248	61	15550
2026-01-06 02:04:35.22	269.43	4.99	-45.1	-57.7	3.8	1.49e+00	0	57	104	810549248	61	15584
2026-01-06 02:04:36.23	269.32	4.93	-45.1	-57.7	3.8	1.49e+00	0	57	104	810549248	61	15596
2026-01-06 02:04:37.24	269.22	4.88	-45.1	-57.6	3.8	1.49e+00	0	57	104	810549248	61	15560
2026-01-06 02:04:38.25	269.11	4.83	-45.1	-57.6	3.8	1.49e+00	0	57	104	810549248	61	15534
2026-01-06 02:04:39.26	269.01	4.78	-45.1	-57.6	3.8	1.49e+00	0	57	104	810549248	61	15531
2026-01-06 02:04:40.27	268.91	4.72	-45.1	-57.6	3.8	1.49e+00	0	57	104	810549248	61	15482
2026-01-06 02:04:41.28	268.80	4.67	-45.1	-57.7	3.8	1.49e+00	0	57	104	810549248	61	15635
2026-01-06 02:04:42.29	268.70	4.62	-45.1	-57.6	3.8	1.49e+00	0	57	104	810549248	61	15571
2026-01-06 02:04:43.31	268.60	4.57	-45.1	-57.6	3.8	1.49e+00	0	57	104	810549248	61	15542
2026-01-06 02:04:44.31	268.50	4.52	-45.1	-57.7	3.8	1.49e+00	0	57	104	810549248	61	15591
2026-01-06 02:04:45.33	268.39	4.46	-45.1	-57.6	3.8	1.49e+00	0	57	104	810549248	61	15570
2026-01-06 02:04:46.34	268.29	4.41	-45.1	-57.6	3.8	1.49e+00	0	57	104	810549248	61	15537
2026-01-06 02:04:47.35	268.19	4.36	-45.0	-57.6	3.8	1.49e+00	0	57	104	810549248	61	15574
2026-01-06 02:04:48.36	268.09	4.31	-45.0	-57.6	3.8	1.49e+00	0	57	104	810549248	61	15540
2026-01-06 02:04:49.37	267.99	4.25	-45.1	-57.6	3.8	1.49e+00	0	57	104	810549248	61	15500
2026-01-06 02:04:50.38	267.89	4.20	-45.1	-57.7	3.8	1.49e+00	0	57	104	810549248	61	15582
2026-01-06 02:04:51.39	267.79	4.15	-45.1	-57.6	3.8	1.49e+00	0	57	104	810549248	61	15487
2026-01-06 02:04:52.40	267.69	4.10	-45.0	-57.6	3.8	1.49e+00	0	57	104	810549248	61	15522
2026-01-06 02:04:53.42	267.59	4.04	-45.0	-57.6	3.8	1.49e+00	0	57	104	810549248	61	15508
2026-01-06 02:04:54.42	267.50	3.99	-45.1	-57.6	3.8	1.49e+00	0	57	104	810549248	61	15508
2026-01-06 02:04:55.44	267.40	3.94	-45.0	-57.6	3.8	1.49e+00	0	57	104	810549248	61	15558
2026-01-06 02:04:56.45	267.30	3.89	-45.0	-57.6	3.8	1.49e+00	0	57	104	810549248	61	15477
2026-01-06 02:04:57.46	267.20	3.84	-45.0	-57.6	3.8	1.49e+00	0	57	104	810549248	61	15536
2026-01-06 02:04:58.47	267.11	3.78	-45.1	-57.6	3.8	1.49e+00	0	57	104	810549248	61	15516
2026-01-06 02:04:59.48	267.01	3.73	-45.1	-57.6	3.8	1.49e+00	0	57	104	810549248	61	15526
2026-01-06 02:05:00.49	266.91	3.68	-45.1	-57.6	3.8	1.49e+00	0	57	104	810549248	61	15529
2026-01-06 02:05:01.50	266.82	3.63	-45.1	-57.6	3.8	1.49e+00	0	57	104	810549248	61	15579
2026-01-06 02:05:02.51	266.72	3.58	-45.1	-57.6	3.8	1.49e+00	0	57	104	810549248	61	15534
2026-01-06 02:05:03.52	266.63	3.52	-45.1	-57.6	3.8	1.49e+00	0	57	104	810549248	61	15522
2026-01-06 02:05:04.53	266.53	3.47	-45.0	-57.6	3.8	1.49e+00	0	57	104	810549248	61	15496
2026-01-06 02:05:05.55	266.44	3.42	-45.0	-57.6	3.8	1.49e+00	0	57	104	810549248	61	15542
2026-01-06 02:05:06.56	266.34	3.37	-45.0	-57.6	3.8	1.49e+00	0	57	104	810549248	61	15562
2026-01-06 02:05:07.57	266.25	3.32	-45.0	-57.6	3.8	1.49e+00	0	57	104	810549248	61	15531
2026-01-06 02:05:08.58	266.16	3.26	-45.0	-57.6	3.8	1.49e+00	0	57	104	810549248	61	15541
2026-01-06 02:05:09.59	266.06	3.21	-45.0	-57.6	3.8	1.49e+00	0	57	104	810549248	61	15536
2026-01-06 02:05:10.60	265.97	3.16	-45.0	-57.6	3.8	1.49e+00	0	57	104	810549248	61	15457
2026-01-06 02:05:11.61	265.88	3.11	-45.0	-57.6	3.8	1.49e+00	0	57	104	810549248	61	15533
2026-01-06 02:05:12.62	265.79	3.06	-45.0	-57.6	3.8	1.49e+00	0	57	104	810549248	61	15506
2026-01-06 02:05:13.63	265.69	3.01	-45.0	-57.6	3.8	1.49e+00	0	57	104	810549248	61	15499
2026-01-06 02:05:14.65	265.60	2.95	-45.0	-57.6	3.8	1.49e+00	0	57	104	810549248	61	15486
2026-01-06 02:05:15.66	265.51	2.90	-45.0	-57.6	3.8	1.49e+00	0	57	104	810549248	61	15488
2026-01-06 02:05:16.67	265.42	2.85	-45.0	-57.6	3.8	1.49e+00	0	57	104	810549248	61	15449
2026-01-06 02:05:17.68	265.33	2.80	-45.0	-57.6	3.8	1.49e+00	0	57	104	810549248	61	15537
2026-01-06 02:05:18.69	265.24	2.75	-45.0	-57.6	3.8	1.49e+00	0	57	104	810549248	61	15472
2026-01-06 02:05:19.70	265.15	2.70	-45.0	-57.6	3.8	1.49e+00	0	57	104	810549248	61	15532
2026-01-06 02:05:20.71	265.06	2.64	-45.0	-57.6	3.8	1.49e+00	0	57	104	810549248	61	15480
2026-01-06 02:05:21.72	264.97	2.59	-45.0	-57.6	3.8	1.49e+00	0	57	104	810549248	61	15483
2026-01-06 02:05:22.73	264.88	2.54	-45.0	-57.6	3.8	1.49e+00	0	57	104	810549248	61	15488
2026-01-06 02:05:23.74	264.79	2.49	-45.0	-57.6	3.8	1.49e+00	0	57	104	810549248	61	15499
2026-01-06 02:05:24.76	264.70	2.44	-45.0	-57.6	3.8	1.49e+00	0	57	104	810549248	61	15538
2026-01-06 02:05:25.76	264.62	2.39	-45.0	-57.6	3.8	1.49e+00	0	57	104	810549248	61	15481
2026-01-06 02:05:26.77	264.53	2.34	-45.0	-57.6	3.8	1.49e+00	0	57	104	810549248	61	15575
2026-01-06 02:05:27.79	264.44	2.29	-45.0	-57.6	3.8	1.49e+00	0	57	104	810549248	61	15492
2026-01-06 02:05:28.80	264.36	2.23	-45.0	-57.6	3.8	1.49e+00	0	57	104	810549248	61	15497
2026-01-06 02:05:29.81	264.27	2.18	-45.0	-57.6	3.8	1.49e+00	0	57	104	810549248	61	15503
2026-01-06 02:05:30.82	264.18	2.13	-45.0	-57.6	3.8	1.49e+00	0	57	104	810549248	61	15510
2026-01-06 02:05:31.83	264.10	2.08	-45.0	-57.6	3.8	1.49e+00	0	57	104	810549248	61	15556
2026-01-06 02:05:32.84	264.01	2.03	-45.0	-57.6	3.8	1.49e+00	0	57	104	810549248	61	15465
2026-01-06 02:05:33.85	263.93	1.98	-45.0	-57.6	3.8	1.49e+00	0	57	104	810549248	61	15515

#Closed at: 2026-01-06 02:05:34
#Recorded file [810 MB]: D:/lorett/data/31039_260106_045818.dat