passes_logs/2026/01/06/R2.0S_Moscow/R2.0S_Moscow__20260106_031101_AQUA_rec.log

#Pass ID: 20260106_031101_AQUA
#Satellite: AQUA
#Configuration: AQUA
#almurnet v.1.7.20251203
#Start time: 2026-01-06 03:11:02

#Version: 2.2.20231116
#Station: R2.0S_Moscow
#Location: 37.707566 lon 55.798166 lat
#TLE: 1 27424U 02022A   26004.96787593  .00001598  00000+0  32997-3 0  9996
#TLE: 2 27424  98.4069 331.2279 0002002  90.2377   0.6092 14.61798176259425

#Time	Az	El	Level	Level2	SNR	BER	BlckErr	Temp	State	Recorded	gain1	gain2
2026-01-06 03:11:02.39	5.35	2.05	-41.0	-59.9	3.8	7.46e-01	0	48	0	0	52	33996
2026-01-06 03:11:03.41	5.26	2.10	-41.0	-59.9	3.8	7.43e-01	0	48	104	0	52	33976
2026-01-06 03:11:04.42	5.18	2.16	-41.0	-59.9	3.8	7.45e-01	0	48	104	0	52	34017
2026-01-06 03:11:05.43	5.09	2.21	-41.0	-59.9	3.8	7.43e-01	0	48	104	0	52	34083
2026-01-06 03:11:06.44	5.00	2.27	-41.0	-59.9	3.8	7.47e-01	0	48	104	0	52	33931
2026-01-06 03:11:07.45	4.91	2.32	-41.0	-59.9	3.8	7.44e-01	0	48	104	0	52	34068
2026-01-06 03:11:08.46	4.81	2.38	-41.0	-59.9	3.8	7.48e-01	0	48	104	0	52	33960
2026-01-06 03:11:09.48	4.72	2.43	-41.0	-59.9	3.8	7.48e-01	0	48	104	0	52	33984
2026-01-06 03:11:10.49	4.63	2.49	-41.0	-59.9	3.8	7.42e-01	0	49	104	0	52	33993
2026-01-06 03:11:11.50	4.54	2.54	-41.0	-59.9	3.8	7.46e-01	0	49	104	0	52	34008
2026-01-06 03:11:12.51	4.45	2.60	-41.0	-59.9	3.8	7.45e-01	0	49	104	0	52	34025
2026-01-06 03:11:13.52	4.35	2.65	-41.0	-59.9	3.8	7.44e-01	0	49	104	0	52	34008
2026-01-06 03:11:14.53	4.26	2.71	-41.0	-59.9	3.8	7.45e-01	0	49	104	0	52	34012
2026-01-06 03:11:15.54	4.17	2.76	-41.0	-59.9	3.8	7.48e-01	0	49	104	0	52	34003
2026-01-06 03:11:16.55	4.07	2.82	-41.0	-59.9	3.8	7.43e-01	0	49	104	0	52	33975
2026-01-06 03:11:17.56	3.98	2.88	-41.0	-59.9	3.8	7.47e-01	0	49	104	0	52	33994
2026-01-06 03:11:18.57	3.89	2.93	-41.0	-59.9	3.8	7.48e-01	0	49	104	0	52	33974
2026-01-06 03:11:19.58	3.79	2.99	-41.0	-59.9	3.8	7.43e-01	0	49	104	0	52	33918
2026-01-06 03:11:20.59	3.70	3.04	-41.0	-59.9	3.8	7.45e-01	0	49	104	0	52	34039
2026-01-06 03:11:21.61	3.60	3.10	-41.0	-59.9	3.8	7.41e-01	0	49	104	0	52	33944
2026-01-06 03:11:22.62	3.50	3.15	-41.0	-59.9	3.8	7.48e-01	0	49	104	0	52	33993
2026-01-06 03:11:23.63	3.41	3.21	-41.0	-59.9	3.8	7.44e-01	0	49	104	0	52	33991
2026-01-06 03:11:24.64	3.31	3.27	-41.0	-59.9	3.8	7.46e-01	0	49	104	0	52	33985
2026-01-06 03:11:25.65	3.21	3.32	-41.0	-59.9	3.8	7.45e-01	0	49	104	0	52	34009
2026-01-06 03:11:26.66	3.11	3.38	-41.0	-59.9	3.8	7.48e-01	0	50	104	0	52	34004
2026-01-06 03:11:27.67	3.01	3.43	-41.0	-59.9	3.8	7.45e-01	0	50	104	0	52	33994
2026-01-06 03:11:28.68	2.92	3.49	-41.0	-59.9	3.8	7.47e-01	0	50	104	0	52	33937
2026-01-06 03:11:29.69	2.82	3.55	-41.0	-59.9	3.8	7.47e-01	0	50	104	0	52	33953
2026-01-06 03:11:30.70	2.72	3.60	-41.0	-59.9	3.8	7.45e-01	0	50	104	0	52	33954
2026-01-06 03:11:31.72	2.62	3.66	-41.0	-59.9	3.8	7.44e-01	0	50	104	0	52	33981
2026-01-06 03:11:32.73	2.51	3.72	-41.0	-59.9	3.8	7.43e-01	0	50	104	0	52	34012
2026-01-06 03:11:33.74	2.41	3.77	-41.0	-59.9	3.8	7.44e-01	0	50	104	0	52	33979
2026-01-06 03:11:34.75	2.31	3.83	-41.0	-59.9	3.8	7.47e-01	0	50	104	0	52	33948
2026-01-06 03:11:35.76	2.21	3.88	-41.0	-59.9	3.8	7.51e-01	0	50	104	0	52	33971
2026-01-06 03:11:36.77	2.11	3.94	-41.0	-59.9	3.8	7.44e-01	0	50	104	0	52	33980
2026-01-06 03:11:37.78	2.01	4.00	-41.0	-59.9	3.8	7.42e-01	0	50	104	0	52	33960
2026-01-06 03:11:38.79	1.90	4.05	-41.0	-59.9	3.8	7.46e-01	0	50	104	0	52	33992
2026-01-06 03:11:39.80	1.80	4.11	-41.0	-59.9	3.8	7.49e-01	0	50	104	0	52	34001
2026-01-06 03:11:40.81	1.69	4.17	-41.0	-59.9	3.8	7.45e-01	0	50	104	0	52	33994
2026-01-06 03:11:41.83	1.59	4.23	-41.0	-59.9	3.8	7.44e-01	0	50	104	0	52	34024
2026-01-06 03:11:42.84	1.48	4.28	-41.0	-59.9	3.8	7.44e-01	0	51	104	0	52	33978
2026-01-06 03:11:43.85	1.38	4.34	-41.0	-59.9	3.8	7.49e-01	0	50	104	0	52	33973
2026-01-06 03:11:44.86	1.27	4.40	-41.0	-59.9	3.8	7.42e-01	0	51	104	0	52	33982
2026-01-06 03:11:45.87	1.17	4.45	-41.0	-59.9	3.8	7.43e-01	0	51	104	0	52	33959
2026-01-06 03:11:46.88	1.06	4.51	-41.0	-59.9	3.8	7.46e-01	0	51	104	0	52	33989
2026-01-06 03:11:47.89	0.95	4.57	-41.0	-59.9	3.8	7.41e-01	0	51	104	0	52	33932
2026-01-06 03:11:48.90	0.84	4.62	-41.0	-59.9	3.8	7.45e-01	0	51	104	0	52	33959
2026-01-06 03:11:49.91	0.73	4.68	-41.0	-59.9	3.8	7.46e-01	0	51	104	0	52	33895
2026-01-06 03:11:50.93	0.62	4.74	-41.0	-59.9	3.8	7.45e-01	0	51	104	0	52	33971
2026-01-06 03:11:51.94	0.52	4.80	-41.0	-59.9	3.8	7.45e-01	0	51	104	0	52	33978
2026-01-06 03:11:52.95	0.41	4.85	-41.0	-59.9	3.8	7.43e-01	0	51	104	0	52	33912
2026-01-06 03:11:53.96	0.30	4.91	-41.0	-59.9	3.8	7.46e-01	0	51	104	0	52	33997
2026-01-06 03:11:54.97	0.18	4.97	-41.0	-59.9	3.8	7.46e-01	0	51	104	0	52	33947
2026-01-06 03:11:55.98	0.07	5.03	-41.0	-59.9	3.8	7.45e-01	0	51	104	0	52	33949
2026-01-06 03:11:56.99	359.96	5.08	-41.0	-59.9	3.8	7.45e-01	0	51	104	0	52	33933
2026-01-06 03:11:58.00	359.85	5.14	-41.0	-59.9	3.8	7.43e-01	0	51	104	0	52	33990
2026-01-06 03:11:59.02	359.74	5.20	-41.0	-59.9	3.8	7.44e-01	0	51	104	0	52	33970
2026-01-06 03:12:00.03	359.62	5.26	-41.0	-59.9	3.8	7.44e-01	0	51	104	0	52	33963
2026-01-06 03:12:01.02	359.51	5.31	-41.0	-59.9	3.8	7.47e-01	0	52	104	0	52	33877
2026-01-06 03:12:02.03	359.40	5.37	-41.0	-59.9	3.8	7.45e-01	0	52	104	0	52	33944
2026-01-06 03:12:03.04	359.28	5.43	-41.0	-59.9	3.8	7.46e-01	0	52	104	0	52	33940
2026-01-06 03:12:04.05	359.17	5.49	-41.0	-59.9	3.8	7.45e-01	0	52	104	0	52	33920
2026-01-06 03:12:05.06	359.05	5.54	-41.0	-59.9	3.8	7.43e-01	0	52	104	0	52	33975
2026-01-06 03:12:06.07	358.93	5.60	-41.0	-59.9	3.8	7.45e-01	0	52	104	0	52	34004
2026-01-06 03:12:07.09	358.82	5.66	-40.9	-59.9	3.8	7.46e-01	0	52	104	0	52	33890
2026-01-06 03:12:08.10	358.70	5.72	-41.0	-59.9	3.8	7.47e-01	0	52	104	0	52	33917
2026-01-06 03:12:09.11	358.58	5.78	-41.0	-59.9	3.8	7.48e-01	0	52	104	0	52	33941
2026-01-06 03:12:10.12	358.46	5.83	-41.0	-59.9	3.8	7.44e-01	0	52	104	0	52	33964
2026-01-06 03:12:11.13	358.34	5.89	-41.0	-59.9	3.8	7.45e-01	0	52	104	0	52	33966
2026-01-06 03:12:12.14	358.22	5.95	-41.0	-59.9	3.8	7.45e-01	0	52	104	0	52	34021
2026-01-06 03:12:13.15	358.10	6.01	-41.0	-59.9	3.8	7.43e-01	0	52	104	0	52	33914
2026-01-06 03:12:14.16	357.98	6.07	-41.0	-59.9	3.8	7.45e-01	0	52	104	0	52	33914
2026-01-06 03:12:15.17	357.86	6.12	-40.9	-59.9	3.8	7.42e-01	0	52	104	0	52	33912
2026-01-06 03:12:16.19	357.74	6.18	-41.0	-59.9	3.8	7.44e-01	0	52	104	0	52	33943
2026-01-06 03:12:17.20	357.62	6.24	-40.9	-59.9	3.8	7.44e-01	0	52	104	0	52	33970
2026-01-06 03:12:18.21	357.49	6.30	-41.0	-59.9	3.8	7.40e-01	0	52	104	0	52	33972
2026-01-06 03:12:19.22	357.37	6.36	-41.0	-59.9	3.8	7.46e-01	0	52	104	0	52	33928
2026-01-06 03:12:20.23	357.25	6.42	-41.0	-59.9	3.8	7.46e-01	0	52	104	0	52	33932
2026-01-06 03:12:21.24	357.12	6.47	-41.0	-59.9	3.8	7.45e-01	0	52	104	0	52	33960
2026-01-06 03:12:22.25	357.00	6.53	-40.9	-59.9	3.8	7.46e-01	0	52	104	0	52	33883
2026-01-06 03:12:23.26	356.87	6.59	-41.0	-59.9	3.8	7.49e-01	0	52	104	0	52	33941
2026-01-06 03:12:24.27	356.74	6.65	-41.0	-59.9	3.8	7.44e-01	0	52	104	0	52	33899
2026-01-06 03:12:25.28	356.62	6.71	-41.0	-59.9	3.8	7.46e-01	0	53	104	0	52	33952
2026-01-06 03:12:26.30	356.49	6.77	-41.0	-59.9	3.8	7.44e-01	0	52	104	0	52	33956
2026-01-06 03:12:27.31	356.36	6.83	-41.0	-59.9	3.8	7.43e-01	0	52	104	0	52	33977
2026-01-06 03:12:28.32	356.23	6.88	-41.0	-59.9	3.8	7.43e-01	0	52	104	0	52	33921
2026-01-06 03:12:29.33	356.10	6.94	-41.0	-59.9	3.8	7.46e-01	0	53	104	0	52	33877
2026-01-06 03:12:30.34	355.97	7.00	-41.0	-59.9	3.8	7.47e-01	0	53	104	0	52	33955
2026-01-06 03:12:31.35	355.84	7.06	-40.9	-59.9	3.8	7.47e-01	0	53	104	0	52	33832
2026-01-06 03:12:32.36	355.71	7.12	-41.0	-59.9	3.8	7.47e-01	0	53	104	0	52	33966
2026-01-06 03:12:33.37	355.58	7.18	-40.9	-59.9	3.8	7.48e-01	0	53	104	0	52	33930
2026-01-06 03:12:34.38	355.45	7.23	-40.9	-59.9	3.8	7.44e-01	0	53	104	0	52	33953
2026-01-06 03:12:35.40	355.32	7.29	-41.0	-59.9	3.8	7.47e-01	0	53	104	0	52	33918
2026-01-06 03:12:36.41	355.18	7.35	-41.0	-59.9	3.8	7.46e-01	0	53	104	0	52	33914
2026-01-06 03:12:37.42	355.05	7.41	-41.0	-59.9	3.8	7.45e-01	0	53	104	0	52	33884
2026-01-06 03:12:38.43	354.91	7.47	-40.9	-59.9	3.8	7.43e-01	0	53	104	0	52	33939
2026-01-06 03:12:39.44	354.78	7.53	-41.0	-59.9	3.8	7.47e-01	0	53	104	0	52	33989
2026-01-06 03:12:40.45	354.64	7.59	-40.9	-59.9	3.8	7.44e-01	0	53	104	0	52	33927
2026-01-06 03:12:41.46	354.51	7.65	-41.0	-59.9	3.8	7.47e-01	0	53	104	0	52	33942
2026-01-06 03:12:42.47	354.37	7.70	-41.0	-59.9	3.8	7.48e-01	0	53	104	0	52	33970
2026-01-06 03:12:43.48	354.23	7.76	-41.0	-59.9	3.8	7.44e-01	0	53	104	0	52	33893
2026-01-06 03:12:44.49	354.10	7.82	-41.0	-59.9	3.8	7.46e-01	0	53	104	0	52	33913
2026-01-06 03:12:45.50	353.96	7.88	-41.0	-59.9	3.8	7.44e-01	0	53	104	0	52	33882
2026-01-06 03:12:46.51	353.82	7.94	-41.0	-59.9	3.8	7.44e-01	0	53	104	0	52	33865
2026-01-06 03:12:47.53	353.68	8.00	-41.0	-59.9	3.8	7.46e-01	0	53	104	0	52	34003
2026-01-06 03:12:48.54	353.54	8.06	-41.0	-59.9	3.8	7.44e-01	0	53	104	0	52	34068
2026-01-06 03:12:49.55	353.39	8.12	-41.0	-60.0	3.8	7.49e-01	0	53	104	0	52	34394
2026-01-06 03:12:50.56	353.25	8.17	-41.1	-60.1	3.8	7.44e-01	0	53	104	0	52	34607
2026-01-06 03:12:51.57	353.11	8.23	-41.4	-60.4	3.8	7.47e-01	0	53	104	0	53	33870
2026-01-06 03:12:52.58	352.97	8.29	-41.2	-60.2	3.8	7.46e-01	0	53	104	0	53	33088
2026-01-06 03:12:53.59	352.82	8.35	-41.2	-60.3	3.8	7.49e-01	0	53	104	0	53	33337
2026-01-06 03:12:54.60	352.68	8.41	-41.2	-60.3	3.8	7.45e-01	0	53	104	0	53	33315
2026-01-06 03:12:55.60	352.54	8.47	-41.1	-60.2	3.8	7.47e-01	0	54	104	0	53	32992
2026-01-06 03:12:56.61	352.39	8.53	-41.2	-60.3	3.8	7.43e-01	0	54	104	0	53	33669
2026-01-06 03:12:57.63	352.24	8.58	-41.2	-60.3	3.8	7.47e-01	0	54	104	0	53	33382
2026-01-06 03:12:58.64	352.10	8.64	-41.2	-60.3	3.8	7.46e-01	0	54	104	0	53	33383
2026-01-06 03:12:59.65	351.95	8.70	-41.4	-60.3	3.8	7.48e-01	0	54	104	0	53	33440
2026-01-06 03:13:00.66	351.80	8.76	-41.2	-60.3	3.8	7.45e-01	0	54	104	0	53	33495
2026-01-06 03:13:01.67	351.65	8.82	-41.4	-60.3	3.8	7.44e-01	0	54	104	0	53	33570
2026-01-06 03:13:02.68	351.50	8.88	-41.3	-60.3	3.8	7.44e-01	0	54	104	0	53	33427
2026-01-06 03:13:03.69	351.35	8.94	-41.2	-60.2	3.8	7.43e-01	0	54	104	0	53	33245
2026-01-06 03:13:04.70	351.20	8.99	-41.4	-60.3	3.8	7.43e-01	0	54	104	0	53	33585
2026-01-06 03:13:05.71	351.05	9.05	-41.4	-60.4	3.8	7.45e-01	0	54	104	0	53	33970
2026-01-06 03:13:06.72	350.90	9.11	-41.4	-60.4	3.8	7.43e-01	0	54	104	0	53	33934
2026-01-06 03:13:07.73	350.74	9.17	-41.5	-60.5	3.8	7.44e-01	0	54	104	0	53	34330
2026-01-06 03:13:08.74	350.59	9.23	-41.6	-60.5	3.8	7.43e-01	0	54	104	0	53	34342
2026-01-06 03:13:09.75	350.43	9.29	-41.6	-60.5	3.8	7.46e-01	0	54	104	0	53	34348
2026-01-06 03:13:10.76	350.28	9.34	-41.6	-60.6	3.8	7.44e-01	0	54	104	0	53	34691
2026-01-06 03:13:11.77	350.12	9.40	-41.5	-60.4	3.8	7.45e-01	0	54	104	0	53	33999
2026-01-06 03:13:12.78	349.97	9.46	-41.3	-60.3	3.8	7.47e-01	0	54	104	0	53	33505
2026-01-06 03:13:13.79	349.81	9.52	-41.3	-60.2	3.8	7.43e-01	0	54	104	0	53	33280
2026-01-06 03:13:14.80	349.65	9.58	-41.4	-60.4	3.8	7.46e-01	0	54	104	0	53	33788
2026-01-06 03:13:15.81	349.49	9.63	-41.8	-60.8	3.8	7.45e-01	0	54	104	0	54	33524
2026-01-06 03:13:16.82	349.33	9.69	-41.6	-60.5	3.8	7.48e-01	0	54	104	0	54	32189
2026-01-06 03:13:17.83	349.17	9.75	-41.9	-60.9	3.8	7.44e-01	0	54	104	0	54	33816
2026-01-06 03:13:18.84	349.01	9.81	-41.5	-60.4	3.8	7.47e-01	0	54	104	0	54	32008
2026-01-06 03:13:19.85	348.85	9.87	-41.6	-60.5	3.8	7.45e-01	0	54	104	0	54	32388
2026-01-06 03:13:20.86	348.69	9.92	-42.0	-61.0	3.8	7.46e-01	0	54	104	0	54	34300
2026-01-06 03:13:21.87	348.53	9.98	-41.7	-60.7	3.8	7.46e-01	0	54	104	0	54	33144
2026-01-06 03:13:22.88	348.36	10.04	-42.1	-61.1	3.8	7.46e-01	0	54	104	0	54	34531
2026-01-06 03:13:23.89	348.20	10.10	-41.8	-60.8	3.8	7.43e-01	0	54	104	0	54	33610
2026-01-06 03:13:24.90	348.04	10.15	-41.9	-60.9	3.8	7.46e-01	0	54	104	0	54	33839
2026-01-06 03:13:25.91	347.87	10.21	-41.8	-60.8	3.8	7.46e-01	0	54	104	0	54	33397
2026-01-06 03:13:26.92	347.70	10.27	-41.9	-60.9	3.8	7.45e-01	0	54	104	0	54	33988
2026-01-06 03:13:27.93	347.54	10.33	-41.7	-60.7	3.8	7.47e-01	0	54	104	0	54	32963
2026-01-06 03:13:28.95	347.37	10.38	-41.9	-61.0	3.8	7.45e-01	0	54	104	0	54	34335
2026-01-06 03:13:29.96	347.20	10.44	-41.8	-60.7	3.8	7.45e-01	0	54	104	0	54	33065
2026-01-06 03:13:30.97	347.03	10.50	-41.9	-61.0	3.8	7.47e-01	0	54	104	0	54	34297
2026-01-06 03:13:31.98	346.86	10.56	-41.5	-60.6	3.8	7.44e-01	0	54	104	0	54	32667
2026-01-06 03:13:32.99	346.69	10.61	-41.8	-60.8	3.8	7.45e-01	0	54	104	0	54	33402
2026-01-06 03:13:34.00	346.52	10.67	-41.3	-60.4	3.8	7.45e-01	0	54	104	0	54	32126
2026-01-06 03:13:35.01	346.35	10.73	-41.8	-60.8	3.8	7.45e-01	0	55	104	0	54	33344
2026-01-06 03:13:36.02	346.17	10.78	-41.7	-60.7	3.8	7.45e-01	0	54	104	0	54	33001
2026-01-06 03:13:37.03	346.00	10.84	-41.4	-60.5	3.8	7.43e-01	0	54	104	0	54	32317
2026-01-06 03:13:38.04	345.82	10.90	-41.5	-60.5	3.8	7.49e-01	0	54	104	0	54	32539
2026-01-06 03:13:39.05	345.65	10.95	-41.3	-60.3	3.8	7.44e-01	0	54	104	0	54	31562
2026-01-06 03:13:40.06	345.47	11.01	-41.7	-60.6	3.8	7.46e-01	0	54	104	0	54	32768
2026-01-06 03:13:41.07	345.30	11.06	-41.4	-60.5	3.8	7.46e-01	0	54	104	0	54	32415
2026-01-06 03:13:42.08	345.12	11.12	-41.8	-60.7	3.8	7.46e-01	0	55	104	0	54	33122
2026-01-06 03:13:43.09	344.94	11.18	-41.3	-60.4	3.8	7.45e-01	0	54	104	0	54	31901
2026-01-06 03:13:44.10	344.76	11.23	-41.4	-60.4	3.8	7.47e-01	0	55	104	0	54	31857
2026-01-06 03:13:45.11	344.58	11.29	-41.4	-60.3	3.8	7.45e-01	0	55	104	0	54	31459
2026-01-06 03:13:46.12	344.40	11.34	-41.6	-60.5	3.8	7.46e-01	0	55	104	0	54	32211
2026-01-06 03:13:47.13	344.22	11.40	-41.3	-60.1	3.8	7.44e-01	0	55	104	0	54	31084
2026-01-06 03:13:48.14	344.04	11.45	-41.1	-60.1	3.8	7.46e-01	0	55	104	0	54	30880
2026-01-06 03:13:49.15	343.86	11.51	-41.4	-60.2	3.8	7.44e-01	0	55	104	0	54	31434
2026-01-06 03:13:50.16	343.67	11.56	-41.1	-60.0	3.8	7.46e-01	0	55	104	0	54	30627
2026-01-06 03:13:51.17	343.49	11.62	-41.1	-60.0	3.8	7.45e-01	0	55	104	0	54	30628
2026-01-06 03:13:52.19	343.30	11.67	-41.1	-60.1	3.8	7.41e-01	0	55	104	0	54	30869
2026-01-06 03:13:53.20	343.12	11.73	-41.4	-60.2	3.8	7.45e-01	0	55	104	0	54	31437
2026-01-06 03:13:54.21	342.93	11.78	-41.3	-60.3	3.8	7.44e-01	0	55	104	0	54	31634
2026-01-06 03:13:55.22	342.74	11.84	-41.4	-60.4	3.8	7.45e-01	0	55	104	0	54	32082
2026-01-06 03:13:56.23	342.56	11.89	-41.3	-60.3	3.8	7.44e-01	0	55	104	0	54	31568
2026-01-06 03:13:57.24	342.37	11.95	-41.3	-60.4	3.8	7.47e-01	0	55	104	0	54	32093
2026-01-06 03:13:58.25	342.18	12.00	-41.2	-60.2	3.8	7.46e-01	0	55	104	0	54	31325
2026-01-06 03:13:59.26	341.99	12.05	-41.4	-60.5	3.8	7.47e-01	0	55	104	0	54	32206
2026-01-06 03:14:00.27	341.80	12.11	-40.7	-60.2	3.8	7.47e-01	0	55	104	0	53	33222
2026-01-06 03:14:01.27	341.61	12.16	-41.0	-60.1	3.8	7.43e-01	0	55	104	0	53	32637
2026-01-06 03:14:02.28	341.41	12.21	-40.5	-59.9	3.8	7.46e-01	0	55	104	0	52	34033
2026-01-06 03:14:03.29	341.22	12.27	-41.1	-60.1	3.8	7.45e-01	0	55	104	0	53	32594
2026-01-06 03:14:04.30	341.03	12.32	-41.2	-60.0	3.8	7.45e-01	0	55	104	0	53	32396
2026-01-06 03:14:05.31	340.83	12.37	-41.1	-60.2	3.8	7.44e-01	0	55	104	0	53	33021
2026-01-06 03:14:06.32	340.64	12.42	-41.3	-59.3	3.8	7.41e-01	0	55	104	0	53	29750
2026-01-06 03:14:07.33	340.44	12.48	-41.0	-60.1	3.8	7.46e-01	0	55	104	0	53	32810
2026-01-06 03:14:08.34	340.24	12.53	-41.9	-58.8	3.9	7.42e-01	0	55	104	0	54	26726
2026-01-06 03:14:09.35	340.05	12.58	-42.4	-56.9	4.4	7.22e-01	0	55	104	0	55	20152
2026-01-06 03:14:10.36	339.85	12.63	-42.3	-52.1	8.2	6.39e-01	61	55	0	1048576	55	11671
2026-01-06 03:14:11.37	339.65	12.68	-42.3	-50.3	10.5	6.18e-01	0	55	0	2621440	55	9431
2026-01-06 03:14:12.38	339.45	12.74	-42.1	-48.6	12.6	6.03e-01	0	55	0	4718592	55	7755
2026-01-06 03:14:13.39	339.25	12.79	-41.8	-47.1	14.5	6.03e-01	0	55	0	6291456	55	6550
2026-01-06 03:14:14.40	339.05	12.84	-41.4	-45.9	15.9	6.02e-01	0	55	0	8388608	54	6045
2026-01-06 03:14:15.41	338.84	12.89	-41.2	-45.2	16.8	5.98e-01	0	55	0	10485760	54	5579
2026-01-06 03:14:16.42	338.64	12.94	-41.0	-44.8	17.2	6.02e-01	0	55	0	12058624	54	5335
2026-01-06 03:14:17.43	338.44	12.99	-40.4	-43.7	18.4	5.99e-01	0	55	0	14155776	52	5278
2026-01-06 03:14:18.44	338.23	13.04	-39.9	-42.9	19.4	6.00e-01	0	55	0	15728640	51	5079
2026-01-06 03:14:19.45	338.03	13.09	-39.5	-42.3	20.1	6.00e-01	0	55	0	17825792	51	4709
2026-01-06 03:14:20.46	337.82	13.14	-39.8	-42.6	19.9	6.01e-01	0	55	0	19922944	51	4890
2026-01-06 03:14:21.47	337.61	13.19	-40.2	-43.1	19.6	6.04e-01	0	55	0	21495808	51	5168
2026-01-06 03:14:22.48	337.41	13.24	-40.0	-42.8	20.0	6.02e-01	0	55	0	23592960	51	4999
2026-01-06 03:14:23.49	337.20	13.29	-39.6	-42.1	20.8	5.99e-01	0	55	0	25165824	51	4616
2026-01-06 03:14:24.50	336.99	13.34	-39.9	-42.5	20.5	6.02e-01	0	55	0	27262976	51	4855
2026-01-06 03:14:25.51	336.78	13.38	-39.9	-42.5	20.5	6.00e-01	0	55	0	29360128	51	4830
2026-01-06 03:14:26.52	336.57	13.43	-39.8	-42.3	20.9	6.03e-01	0	55	0	30932992	51	4714
2026-01-06 03:14:27.53	336.36	13.48	-39.9	-42.4	20.7	6.00e-01	0	55	0	33030144	51	4780
2026-01-06 03:14:28.54	336.14	13.53	-39.5	-41.9	21.3	6.01e-01	0	55	0	35127296	51	4500
2026-01-06 03:14:29.55	335.93	13.57	-39.6	-41.9	21.3	6.03e-01	0	55	0	36700160	51	4529
2026-01-06 03:14:30.55	335.72	13.62	-39.6	-41.9	21.3	6.01e-01	0	55	0	38797312	51	4511
2026-01-06 03:14:31.56	335.51	13.67	-39.5	-41.7	21.5	6.01e-01	0	55	0	40370176	50	4705
2026-01-06 03:14:32.57	335.29	13.71	-39.6	-41.9	21.3	6.02e-01	0	55	0	42467328	50	4813
2026-01-06 03:14:33.59	335.07	13.76	-39.5	-41.8	21.6	6.01e-01	0	55	0	44564480	50	4707
2026-01-06 03:14:34.60	334.86	13.81	-39.5	-41.8	21.5	6.02e-01	0	55	0	46137344	50	4746
2026-01-06 03:14:35.61	334.64	13.85	-39.5	-41.8	21.5	6.04e-01	0	55	0	48234496	50	4747
2026-01-06 03:14:36.62	334.42	13.90	-39.5	-41.8	21.5	6.00e-01	0	55	0	49807360	50	4736
2026-01-06 03:14:37.63	334.20	13.94	-39.6	-41.8	21.5	6.02e-01	0	55	0	51904512	50	4746
2026-01-06 03:14:38.64	333.98	13.99	-39.4	-41.7	21.6	6.01e-01	0	55	0	54001664	50	4660
2026-01-06 03:14:39.65	333.76	14.03	-39.4	-41.7	21.7	6.03e-01	0	55	0	55574528	50	4655
2026-01-06 03:14:40.66	333.54	14.08	-39.5	-41.7	21.6	6.02e-01	0	55	0	57671680	50	4674
2026-01-06 03:14:41.67	333.32	14.12	-39.5	-41.8	21.5	6.04e-01	0	55	0	59768832	50	4727
2026-01-06 03:14:42.67	333.10	14.16	-39.6	-41.9	21.5	6.00e-01	0	55	0	61341696	50	4788
2026-01-06 03:14:43.69	332.87	14.21	-39.5	-41.8	21.6	6.01e-01	0	55	0	63438848	50	4716
2026-01-06 03:14:44.70	332.65	14.25	-39.4	-41.6	21.7	6.02e-01	0	55	0	65011712	50	4635
2026-01-06 03:14:45.71	332.43	14.29	-39.4	-41.6	21.8	6.01e-01	0	55	0	67108864	50	4625
2026-01-06 03:14:46.71	332.20	14.33	-39.4	-41.6	21.8	6.00e-01	0	55	0	69206016	50	4631
2026-01-06 03:14:47.72	331.98	14.38	-39.4	-41.6	21.8	6.02e-01	0	55	0	70778880	50	4644
2026-01-06 03:14:48.73	331.75	14.42	-39.4	-41.7	21.8	6.00e-01	0	55	0	72876032	50	4657
2026-01-06 03:14:49.74	331.52	14.46	-39.5	-41.7	21.7	6.01e-01	0	55	0	74448896	50	4694
2026-01-06 03:14:50.75	331.29	14.50	-39.4	-41.6	21.8	6.01e-01	0	55	0	76546048	50	4636
2026-01-06 03:14:51.76	331.07	14.54	-39.5	-41.7	21.7	6.00e-01	0	55	0	78643200	50	4687
2026-01-06 03:14:52.77	330.84	14.58	-39.5	-41.7	21.8	6.02e-01	0	55	0	80216064	50	4663
2026-01-06 03:14:53.78	330.61	14.62	-39.4	-41.6	21.8	6.02e-01	0	55	0	82313216	50	4643
2026-01-06 03:14:54.79	330.38	14.66	-39.4	-41.6	21.9	6.01e-01	0	55	0	83886080	50	4606
2026-01-06 03:14:55.80	330.15	14.70	-39.5	-41.7	21.8	6.01e-01	0	55	0	85983232	50	4665
2026-01-06 03:14:56.81	329.91	14.74	-39.4	-41.6	21.9	6.00e-01	0	55	0	88080384	50	4630
2026-01-06 03:14:57.82	329.68	14.78	-39.5	-41.8	21.7	5.99e-01	0	55	0	89653248	50	4724
2026-01-06 03:14:58.83	329.45	14.81	-39.6	-41.9	21.6	6.02e-01	0	56	0	91750400	50	4775
2026-01-06 03:14:59.84	329.21	14.85	-39.5	-41.8	21.7	6.03e-01	0	56	0	93323264	50	4714
2026-01-06 03:15:00.85	328.98	14.89	-39.5	-41.8	21.7	6.01e-01	0	55	0	95420416	50	4707
2026-01-06 03:15:01.86	328.74	14.93	-39.5	-41.8	21.8	6.00e-01	0	56	0	97517568	50	4707
2026-01-06 03:15:02.87	328.51	14.96	-39.5	-41.7	21.8	6.04e-01	0	56	0	99090432	50	4671
2026-01-06 03:15:03.88	328.27	15.00	-39.5	-41.7	21.8	6.03e-01	0	56	0	101187584	50	4699
2026-01-06 03:15:04.89	328.03	15.03	-39.5	-41.8	21.8	5.99e-01	0	56	0	103284736	50	4709
2026-01-06 03:15:05.90	327.80	15.07	-39.5	-41.8	21.8	6.00e-01	0	56	0	104857600	50	4710
2026-01-06 03:15:06.91	327.56	15.10	-39.5	-41.7	21.8	6.01e-01	0	55	0	106954752	50	4703
2026-01-06 03:15:07.92	327.32	15.14	-39.6	-41.8	21.8	6.00e-01	0	55	0	108527616	50	4728
2026-01-06 03:15:08.93	327.08	15.17	-39.5	-41.7	21.9	6.02e-01	0	56	0	110624768	50	4653
2026-01-06 03:15:09.94	326.84	15.20	-39.6	-41.8	21.7	6.03e-01	0	55	0	112721920	50	4758
2026-01-06 03:15:10.95	326.60	15.24	-39.7	-41.9	21.6	6.04e-01	0	56	0	114294784	50	4786
2026-01-06 03:15:11.96	326.36	15.27	-39.5	-41.7	21.8	6.01e-01	0	55	0	116391936	50	4704
2026-01-06 03:15:12.97	326.12	15.30	-39.7	-42.0	21.6	6.03e-01	0	56	0	117964800	50	4819
2026-01-06 03:15:13.98	325.87	15.33	-39.5	-41.7	21.9	6.02e-01	0	55	0	120061952	50	4667
2026-01-06 03:15:14.99	325.63	15.37	-39.6	-41.8	21.8	6.06e-01	0	55	0	122159104	50	4722
2026-01-06 03:15:16.00	325.39	15.40	-39.6	-41.8	21.7	6.02e-01	0	56	0	123731968	50	4748
2026-01-06 03:15:17.01	325.14	15.43	-39.6	-41.7	21.8	6.01e-01	0	56	0	125829120	50	4705
2026-01-06 03:15:18.02	324.90	15.46	-39.6	-41.9	21.7	6.02e-01	0	56	0	127926272	50	4773
2026-01-06 03:15:19.03	324.65	15.49	-39.6	-41.8	21.7	6.02e-01	0	56	0	129499136	50	4748
2026-01-06 03:15:20.04	324.41	15.51	-39.6	-41.8	21.8	6.04e-01	0	56	0	131596288	50	4740
2026-01-06 03:15:21.05	324.16	15.54	-39.6	-41.8	21.8	6.01e-01	0	56	0	133169152	50	4728
2026-01-06 03:15:22.06	323.92	15.57	-39.6	-41.8	21.8	6.01e-01	0	55	0	135266304	50	4732
2026-01-06 03:15:23.07	323.67	15.60	-39.7	-41.9	21.7	6.00e-01	0	56	0	137363456	50	4786
2026-01-06 03:15:24.08	323.42	15.63	-39.5	-41.7	21.9	6.00e-01	0	55	0	138936320	50	4681
2026-01-06 03:15:25.09	323.17	15.65	-39.6	-41.8	21.8	6.02e-01	0	56	0	141033472	50	4732
2026-01-06 03:15:26.10	322.93	15.68	-39.5	-41.7	21.9	6.04e-01	0	56	0	143130624	50	4695
2026-01-06 03:15:27.11	322.68	15.70	-39.6	-41.9	21.8	6.01e-01	0	56	0	144703488	50	4762
2026-01-06 03:15:28.12	322.43	15.73	-39.7	-42.0	21.6	6.02e-01	0	56	0	146800640	50	4829
2026-01-06 03:15:29.12	322.18	15.75	-39.6	-41.8	21.8	5.99e-01	0	56	0	148373504	50	4722
2026-01-06 03:15:30.13	321.93	15.78	-39.6	-41.8	21.8	6.02e-01	0	56	0	150470656	50	4743
2026-01-06 03:15:31.14	321.68	15.80	-39.6	-41.7	21.8	6.04e-01	0	56	0	152043520	50	4702
2026-01-06 03:15:32.15	321.43	15.82	-39.6	-41.7	21.9	6.04e-01	0	56	0	154140672	50	4693
2026-01-06 03:15:33.16	321.18	15.85	-39.6	-41.7	21.9	6.02e-01	0	56	0	156237824	50	4700
2026-01-06 03:15:34.17	320.92	15.87	-39.7	-41.9	21.8	6.00e-01	0	56	0	157810688	50	4773
2026-01-06 03:15:35.18	320.67	15.89	-39.9	-42.2	21.4	6.01e-01	0	56	0	159907840	50	4955
2026-01-06 03:15:36.19	320.42	15.91	-39.7	-41.9	21.7	6.01e-01	0	56	0	161480704	50	4790
2026-01-06 03:15:37.20	320.16	15.93	-39.6	-41.9	21.7	6.01e-01	0	56	0	163577856	50	4762
2026-01-06 03:15:38.21	319.91	15.95	-39.6	-41.7	21.9	6.03e-01	0	56	0	165675008	50	4694
2026-01-06 03:15:39.22	319.66	15.97	-39.6	-41.8	21.8	5.99e-01	0	56	0	167247872	50	4742
2026-01-06 03:15:40.23	319.40	15.99	-39.7	-41.9	21.7	6.01e-01	0	56	0	169345024	50	4796
2026-01-06 03:15:41.23	319.15	16.01	-39.7	-42.0	21.7	6.02e-01	0	56	0	171442176	50	4832
2026-01-06 03:15:42.24	318.90	16.03	-39.7	-42.0	21.7	6.02e-01	0	56	0	173015040	50	4819
2026-01-06 03:15:43.25	318.64	16.05	-39.6	-41.8	21.8	6.02e-01	0	56	0	175112192	50	4733
2026-01-06 03:15:44.26	318.39	16.06	-39.7	-42.0	21.7	6.01e-01	0	56	0	176685056	50	4815
2026-01-06 03:15:45.27	318.13	16.08	-39.7	-41.9	21.7	5.99e-01	0	56	0	178782208	50	4794
2026-01-06 03:15:46.28	317.87	16.09	-39.8	-42.0	21.6	6.01e-01	0	56	0	180879360	50	4861
2026-01-06 03:15:47.29	317.62	16.11	-39.7	-41.9	21.8	6.02e-01	0	56	0	182452224	50	4795
2026-01-06 03:15:48.30	317.36	16.12	-39.9	-42.2	21.4	6.01e-01	0	56	0	184549376	50	4949
2026-01-06 03:15:49.31	317.10	16.14	-39.8	-42.0	21.6	6.01e-01	0	56	0	186122240	50	4847
2026-01-06 03:15:50.32	316.85	16.15	-40.1	-42.5	21.1	6.02e-01	0	56	0	188219392	50	5109
2026-01-06 03:15:51.33	316.59	16.17	-39.8	-42.1	21.6	6.00e-01	0	56	0	190316544	50	4875
2026-01-06 03:15:52.34	316.33	16.18	-40.3	-42.8	20.8	5.99e-01	0	56	0	191889408	51	5030
2026-01-06 03:15:53.35	316.07	16.19	-39.6	-41.8	21.9	6.01e-01	0	56	0	193986560	51	4461
2026-01-06 03:15:54.36	315.81	16.20	-40.1	-42.4	21.2	6.02e-01	0	56	0	196083712	51	4797
2026-01-06 03:15:55.37	315.55	16.21	-39.7	-41.9	21.8	6.04e-01	0	56	0	197656576	51	4501
2026-01-06 03:15:56.38	315.30	16.22	-40.3	-42.7	20.9	6.00e-01	0	56	0	199753728	51	4959
2026-01-06 03:15:57.39	315.04	16.23	-39.5	-41.7	21.9	6.01e-01	0	56	0	201326592	51	4413
2026-01-06 03:15:58.40	314.78	16.24	-40.2	-42.6	21.1	6.01e-01	0	56	0	203423744	51	4922
2026-01-06 03:15:59.41	314.52	16.25	-39.4	-41.6	22.1	6.02e-01	0	56	0	205520896	50	4600
2026-01-06 03:16:00.42	314.26	16.26	-40.0	-42.4	21.2	6.02e-01	0	56	0	207093760	50	5073
2026-01-06 03:16:01.43	314.00	16.27	-39.5	-41.7	21.9	6.00e-01	0	56	0	209190912	50	4683
2026-01-06 03:16:02.44	313.74	16.27	-40.1	-42.4	21.2	6.02e-01	0	56	0	210763776	50	5098
2026-01-06 03:16:03.45	313.48	16.28	-39.8	-42.1	21.5	6.01e-01	0	56	0	212860928	50	4891
2026-01-06 03:16:04.46	313.22	16.29	-40.2	-42.7	20.9	6.00e-01	0	56	0	214958080	51	4951
2026-01-06 03:16:05.47	312.96	16.29	-40.0	-42.3	21.3	6.01e-01	0	56	0	216530944	51	4714
2026-01-06 03:16:06.47	312.70	16.30	-40.0	-42.3	21.4	6.01e-01	0	56	0	218628096	51	4710
2026-01-06 03:16:07.49	312.44	16.30	-40.0	-42.3	21.3	6.01e-01	0	56	0	220200960	51	4745
2026-01-06 03:16:08.49	312.18	16.30	-40.1	-42.4	21.2	6.01e-01	0	56	0	222298112	51	4803
2026-01-06 03:16:09.50	311.92	16.31	-40.2	-42.6	21.0	6.00e-01	0	56	0	224395264	51	4899
2026-01-06 03:16:10.51	311.66	16.31	-40.2	-42.7	21.1	6.01e-01	0	56	0	225968128	51	4928
2026-01-06 03:16:11.53	311.40	16.31	-40.4	-42.9	20.7	5.98e-01	0	56	0	228065280	51	5049
2026-01-06 03:16:12.54	311.14	16.31	-40.2	-42.6	21.0	6.03e-01	0	56	0	229638144	51	4904
2026-01-06 03:16:13.55	310.88	16.31	-40.2	-42.7	20.8	6.01e-01	0	56	0	231735296	52	4667
2026-01-06 03:16:14.56	310.62	16.31	-39.9	-42.2	21.5	6.00e-01	0	56	0	233832448	51	4682
2026-01-06 03:16:15.57	310.36	16.31	-40.2	-42.6	20.9	6.03e-01	0	56	0	235405312	51	4901
2026-01-06 03:16:16.58	310.09	16.31	-39.6	-41.8	21.9	6.01e-01	0	56	0	237502464	50	4707
2026-01-06 03:16:17.59	309.83	16.31	-40.0	-42.4	21.2	6.04e-01	0	56	0	239599616	50	5046
2026-01-06 03:16:18.60	309.57	16.31	-39.9	-42.2	21.5	6.01e-01	0	56	0	241172480	50	4933
2026-01-06 03:16:19.61	309.31	16.30	-40.2	-42.6	21.0	6.01e-01	0	56	0	243269632	51	4889
2026-01-06 03:16:20.62	309.05	16.30	-40.4	-42.9	20.8	6.01e-01	0	56	0	244842496	51	5058
2026-01-06 03:16:21.63	308.79	16.30	-40.3	-42.7	21.0	6.01e-01	0	56	0	246939648	51	4941
2026-01-06 03:16:22.64	308.53	16.29	-40.2	-42.7	20.9	6.00e-01	0	56	0	249036800	51	4935
2026-01-06 03:16:23.65	308.27	16.29	-39.7	-42.0	21.7	6.00e-01	0	56	0	250609664	51	4565
2026-01-06 03:16:24.66	308.01	16.28	-40.0	-42.4	21.2	5.98e-01	0	56	0	252706816	51	4786
2026-01-06 03:16:25.67	307.75	16.28	-40.1	-42.5	21.1	6.01e-01	0	56	0	254279680	51	4845
2026-01-06 03:16:26.68	307.49	16.27	-40.1	-42.4	21.1	6.01e-01	0	56	0	256376832	51	4810
2026-01-06 03:16:27.69	307.23	16.26	-40.2	-42.6	21.0	6.01e-01	0	56	0	258473984	51	4899
2026-01-06 03:16:28.70	306.97	16.26	-40.1	-42.5	21.2	6.02e-01	0	56	0	260046848	51	4829
2026-01-06 03:16:29.71	306.71	16.25	-40.1	-42.4	21.2	6.00e-01	0	56	0	262144000	51	4792
2026-01-06 03:16:30.72	306.45	16.24	-39.9	-42.1	21.5	6.01e-01	0	56	0	264241152	51	4650
2026-01-06 03:16:31.73	306.19	16.23	-39.9	-42.2	21.4	6.02e-01	0	56	0	265814016	51	4697
2026-01-06 03:16:32.74	305.93	16.22	-39.9	-42.2	21.5	6.00e-01	0	56	0	267911168	51	4654
2026-01-06 03:16:33.75	305.68	16.21	-40.3	-42.7	20.9	6.01e-01	0	56	0	269484032	51	4978
2026-01-06 03:16:34.76	305.42	16.20	-40.2	-42.6	21.1	6.05e-01	0	56	0	271581184	51	4879
2026-01-06 03:16:35.77	305.16	16.18	-40.2	-42.6	20.9	6.02e-01	0	56	0	273678336	51	4912
2026-01-06 03:16:36.78	304.90	16.17	-40.2	-42.7	21.0	6.01e-01	0	56	0	275251200	51	4945
2026-01-06 03:16:37.78	304.65	16.16	-39.8	-42.0	21.5	6.00e-01	0	56	0	277348352	51	4581
2026-01-06 03:16:38.79	304.39	16.15	-40.3	-42.7	20.9	6.00e-01	0	56	0	278921216	51	4961
2026-01-06 03:16:39.80	304.13	16.13	-39.9	-42.2	21.4	6.01e-01	0	56	0	281018368	51	4677
2026-01-06 03:16:40.81	303.87	16.12	-40.0	-42.4	21.2	6.01e-01	0	56	0	283115520	51	4789
2026-01-06 03:16:41.82	303.62	16.10	-39.9	-42.2	21.4	6.00e-01	0	56	0	284688384	51	4689
2026-01-06 03:16:42.83	303.36	16.09	-40.1	-42.5	21.0	6.03e-01	0	56	0	286785536	51	4840
2026-01-06 03:16:43.84	303.10	16.07	-39.4	-41.5	22.0	6.01e-01	0	56	0	288358400	50	4578
2026-01-06 03:16:44.85	302.85	16.05	-40.2	-42.7	20.8	5.98e-01	0	56	0	290455552	51	4949
2026-01-06 03:16:45.86	302.59	16.04	-39.4	-41.6	21.9	6.01e-01	0	56	0	292552704	50	4609
2026-01-06 03:16:46.87	302.33	16.02	-40.0	-42.4	21.2	6.01e-01	0	56	0	294125568	50	5084
2026-01-06 03:16:47.88	302.08	16.00	-40.0	-42.4	21.1	6.00e-01	0	56	0	296222720	51	4782
2026-01-06 03:16:48.89	301.82	15.98	-39.3	-41.4	22.1	6.03e-01	0	56	0	297795584	50	4515
2026-01-06 03:16:49.90	301.57	15.96	-40.2	-42.7	20.9	5.99e-01	0	56	0	299892736	50	5229
2026-01-06 03:16:50.91	301.32	15.94	-39.7	-41.9	21.5	6.01e-01	0	56	0	301989888	51	4532
2026-01-06 03:16:51.92	301.06	15.92	-39.7	-41.9	21.7	6.00e-01	0	56	0	303562752	50	4786
2026-01-06 03:16:52.92	300.81	15.90	-40.1	-42.6	21.0	5.99e-01	0	56	0	305659904	50	5167
2026-01-06 03:16:53.93	300.56	15.88	-39.9	-42.2	21.3	6.03e-01	0	56	0	307757056	50	4953
2026-01-06 03:16:54.94	300.31	15.86	-39.2	-41.2	22.3	6.02e-01	0	56	0	309329920	50	4433
2026-01-06 03:16:55.95	300.05	15.84	-40.3	-42.8	20.7	6.03e-01	0	56	0	311427072	51	5017
2026-01-06 03:16:56.96	299.80	15.81	-39.5	-41.7	21.7	6.03e-01	0	56	0	312999936	51	4392
2026-01-06 03:16:57.97	299.55	15.79	-39.5	-41.7	21.9	6.01e-01	0	56	0	315097088	50	4663
2026-01-06 03:16:58.98	299.30	15.77	-40.2	-42.7	20.8	6.01e-01	0	56	0	317194240	51	4935
2026-01-06 03:16:59.99	299.05	15.74	-39.3	-41.4	22.0	5.99e-01	0	56	0	318767104	50	4541
2026-01-06 03:17:01.00	298.80	15.72	-39.7	-41.9	21.6	6.04e-01	0	56	0	320864256	50	4802
2026-01-06 03:17:02.01	298.55	15.69	-39.8	-42.0	21.5	6.02e-01	0	56	0	322437120	50	4868
2026-01-06 03:17:03.02	298.30	15.67	-39.7	-42.0	21.5	6.03e-01	0	56	0	324534272	50	4847
2026-01-06 03:17:04.03	298.05	15.64	-39.3	-41.4	22.0	5.99e-01	0	56	0	326631424	50	4512
2026-01-06 03:17:05.04	297.80	15.61	-39.9	-42.3	21.2	5.99e-01	0	56	0	328204288	50	5015
2026-01-06 03:17:06.04	297.56	15.59	-40.0	-42.4	21.0	5.99e-01	0	56	0	330301440	51	4780
2026-01-06 03:17:07.05	297.31	15.56	-39.1	-41.2	22.3	6.01e-01	0	56	0	332398592	50	4404
2026-01-06 03:17:08.06	297.06	15.53	-40.3	-42.8	20.7	6.01e-01	0	56	0	333971456	51	5021
2026-01-06 03:17:09.07	296.81	15.50	-39.8	-42.0	21.3	6.01e-01	0	56	0	336068608	51	4595
2026-01-06 03:17:10.08	296.57	15.47	-39.3	-41.5	22.0	6.03e-01	0	56	0	337641472	50	4560
2026-01-06 03:17:11.09	296.32	15.44	-40.2	-42.7	20.9	6.02e-01	0	56	0	339738624	50	5227
2026-01-06 03:17:12.10	296.08	15.41	-39.8	-42.1	21.3	6.01e-01	0	56	0	341835776	51	4622
2026-01-06 03:17:13.11	295.83	15.38	-39.7	-42.0	21.5	6.03e-01	0	56	0	343408640	51	4574
2026-01-06 03:17:14.12	295.59	15.35	-39.6	-41.8	21.6	6.02e-01	0	56	0	345505792	51	4462
2026-01-06 03:17:15.13	295.35	15.32	-39.8	-42.1	21.3	6.01e-01	0	56	0	347078656	51	4650
2026-01-06 03:17:16.14	295.10	15.29	-39.6	-41.9	21.5	6.01e-01	0	56	0	349175808	51	4501
2026-01-06 03:17:17.15	294.86	15.26	-39.3	-41.5	21.9	6.00e-01	0	56	0	351272960	50	4562
2026-01-06 03:17:18.16	294.62	15.22	-39.9	-42.4	21.1	5.99e-01	0	56	0	352845824	50	5044
2026-01-06 03:17:19.17	294.38	15.19	-39.5	-41.8	21.6	6.01e-01	0	56	0	354942976	50	4741
2026-01-06 03:17:20.18	294.14	15.16	-39.6	-41.9	21.5	6.01e-01	0	56	0	356515840	50	4808
2026-01-06 03:17:21.19	293.90	15.12	-39.8	-42.2	21.2	6.01e-01	0	56	0	358612992	50	4939
2026-01-06 03:17:22.20	293.66	15.09	-39.7	-42.0	21.3	6.01e-01	0	56	0	360710144	50	4868
2026-01-06 03:17:23.20	293.42	15.05	-40.1	-42.6	20.8	6.01e-01	0	56	0	362283008	50	5190
2026-01-06 03:17:24.21	293.19	15.02	-39.9	-42.3	21.0	6.01e-01	0	56	0	364380160	50	5039
2026-01-06 03:17:25.22	292.95	14.98	-39.8	-42.2	21.1	6.01e-01	0	56	0	365953024	50	4966
2026-01-06 03:17:26.23	292.71	14.94	-40.4	-43.0	20.3	6.01e-01	0	56	0	368050176	51	5144
2026-01-06 03:17:27.24	292.47	14.91	-40.1	-42.6	20.6	6.00e-01	0	56	0	370147328	51	4892
2026-01-06 03:17:28.25	292.24	14.87	-39.6	-42.0	21.3	6.02e-01	0	56	0	371720192	51	4563
2026-01-06 03:17:29.26	292.00	14.83	-39.9	-42.4	20.9	5.99e-01	0	56	0	373817344	51	4790
2026-01-06 03:17:30.27	291.77	14.80	-39.9	-42.4	20.9	6.00e-01	0	56	0	375914496	51	4781
2026-01-06 03:17:31.28	291.54	14.76	-39.8	-42.2	21.1	6.04e-01	0	56	0	377487360	51	4690
2026-01-06 03:17:32.29	291.30	14.72	-39.8	-42.2	21.1	6.01e-01	0	56	0	379584512	51	4678
2026-01-06 03:17:33.30	291.07	14.68	-39.7	-42.1	21.2	6.02e-01	0	56	0	381157376	51	4621
2026-01-06 03:17:34.31	290.84	14.64	-39.7	-42.1	21.1	6.03e-01	0	56	0	383254528	51	4637
2026-01-06 03:17:35.32	290.61	14.60	-40.0	-42.5	20.8	6.03e-01	0	56	0	385351680	51	4828
2026-01-06 03:17:36.33	290.38	14.56	-40.0	-42.5	20.7	6.03e-01	0	56	0	386924544	51	4849
2026-01-06 03:17:37.34	290.15	14.52	-39.8	-42.3	20.9	6.00e-01	0	56	0	389021696	51	4710
2026-01-06 03:17:38.35	289.92	14.48	-39.7	-42.1	21.2	6.01e-01	0	56	0	390594560	51	4599
2026-01-06 03:17:39.36	289.69	14.44	-40.0	-42.6	20.7	6.02e-01	0	56	0	392691712	51	4871
2026-01-06 03:17:40.37	289.46	14.40	-40.0	-42.5	20.6	6.01e-01	0	56	0	394788864	51	4863
2026-01-06 03:17:41.38	289.23	14.36	-39.6	-42.0	21.2	6.01e-01	0	56	0	396361728	51	4549
2026-01-06 03:17:42.39	289.01	14.31	-39.6	-41.9	21.3	6.04e-01	0	56	0	398458880	51	4514
2026-01-06 03:17:43.40	288.78	14.27	-40.1	-42.6	20.6	6.00e-01	0	56	0	400556032	51	4901
2026-01-06 03:17:44.41	288.56	14.23	-40.1	-42.8	20.4	6.01e-01	0	56	0	402128896	51	4984
2026-01-06 03:17:45.42	288.33	14.19	-39.6	-42.0	21.1	6.00e-01	0	56	0	404226048	51	4573
2026-01-06 03:17:46.43	288.11	14.14	-39.3	-41.6	21.5	5.98e-01	0	56	0	405798912	50	4624
2026-01-06 03:17:47.44	287.89	14.10	-39.7	-42.1	21.1	6.00e-01	0	56	0	407896064	50	4872
2026-01-06 03:17:48.45	287.66	14.05	-39.7	-42.2	20.9	6.01e-01	0	56	0	409993216	50	4965
2026-01-06 03:17:49.45	287.44	14.01	-39.4	-41.8	21.3	6.02e-01	0	56	0	411566080	50	4720
2026-01-06 03:17:50.46	287.22	13.97	-39.3	-41.6	21.4	6.02e-01	0	56	0	413663232	50	4642
2026-01-06 03:17:51.47	287.00	13.92	-39.5	-41.9	21.1	6.03e-01	0	56	0	415236096	50	4813
2026-01-06 03:17:52.49	286.78	13.87	-39.6	-42.0	21.1	6.00e-01	0	56	0	417333248	50	4844
2026-01-06 03:17:53.50	286.56	13.83	-39.3	-41.7	21.4	6.03e-01	0	56	0	419430400	50	4660
2026-01-06 03:17:54.50	286.35	13.78	-39.4	-41.7	21.4	6.01e-01	0	56	0	421003264	50	4673
2026-01-06 03:17:55.52	286.13	13.74	-39.5	-41.9	21.2	6.01e-01	0	56	0	423100416	50	4780
2026-01-06 03:17:56.52	285.91	13.69	-39.6	-42.0	21.1	6.03e-01	0	56	0	424673280	50	4834
2026-01-06 03:17:57.53	285.70	13.64	-39.4	-41.8	21.2	6.02e-01	0	56	0	426770432	50	4752
2026-01-06 03:17:58.54	285.48	13.60	-39.3	-41.6	21.4	6.00e-01	0	56	0	428867584	50	4624
2026-01-06 03:17:59.55	285.27	13.55	-39.5	-41.9	21.2	6.00e-01	0	56	0	430440448	50	4788
2026-01-06 03:18:00.56	285.06	13.50	-39.6	-42.1	21.0	6.00e-01	0	56	0	432537600	50	4875
2026-01-06 03:18:01.57	284.84	13.45	-39.7	-42.2	20.9	6.01e-01	0	56	0	434110464	50	4947
2026-01-06 03:18:02.58	284.63	13.41	-39.5	-41.9	21.1	6.03e-01	0	56	0	436207616	50	4812
2026-01-06 03:18:03.60	284.42	13.36	-39.4	-41.7	21.4	6.00e-01	0	56	0	438304768	50	4675
2026-01-06 03:18:04.60	284.21	13.31	-39.4	-41.8	21.3	6.02e-01	0	56	0	439877632	50	4721
2026-01-06 03:18:05.61	284.00	13.26	-39.6	-42.0	21.1	6.01e-01	0	56	0	441974784	50	4865
2026-01-06 03:18:06.62	283.79	13.21	-39.7	-42.1	21.0	6.00e-01	0	56	0	444071936	50	4901
2026-01-06 03:18:07.63	283.58	13.16	-39.4	-41.7	21.3	6.02e-01	0	56	0	445644800	50	4703
2026-01-06 03:18:08.64	283.37	13.11	-39.3	-41.6	21.4	6.01e-01	0	56	0	447741952	50	4644
2026-01-06 03:18:09.65	283.17	13.06	-39.6	-41.9	21.2	6.04e-01	0	56	0	449314816	50	4805
2026-01-06 03:18:10.66	282.96	13.01	-39.7	-42.2	21.0	6.01e-01	0	56	0	451411968	50	4945
2026-01-06 03:18:11.67	282.76	12.96	-39.7	-42.1	21.0	6.03e-01	0	56	0	453509120	50	4909
2026-01-06 03:18:12.68	282.55	12.91	-39.7	-42.1	21.0	6.03e-01	0	56	0	455081984	50	4903
2026-01-06 03:18:13.69	282.35	12.86	-39.6	-42.0	21.2	6.01e-01	0	56	0	457179136	50	4829
2026-01-06 03:18:14.70	282.14	12.81	-39.7	-42.1	21.1	6.01e-01	0	56	0	458752000	50	4925
2026-01-06 03:18:15.71	281.94	12.76	-39.7	-42.1	21.0	6.01e-01	0	56	0	460849152	50	4916
2026-01-06 03:18:16.72	281.74	12.71	-39.7	-42.1	21.1	5.99e-01	0	56	0	462946304	50	4892
2026-01-06 03:18:17.73	281.54	12.65	-39.7	-42.1	21.1	6.02e-01	0	57	0	464519168	50	4903
2026-01-06 03:18:18.74	281.34	12.60	-39.8	-42.3	20.9	6.01e-01	0	56	0	466616320	50	5013
2026-01-06 03:18:19.75	281.14	12.55	-39.9	-42.4	20.9	6.02e-01	0	56	0	468713472	50	5051
2026-01-06 03:18:20.76	280.94	12.50	-39.8	-42.3	20.9	6.00e-01	0	56	0	470286336	50	4994
2026-01-06 03:18:21.77	280.74	12.45	-39.8	-42.2	20.9	5.99e-01	0	56	0	472383488	50	4977
2026-01-06 03:18:22.78	280.55	12.39	-39.8	-42.2	20.9	5.98e-01	0	56	0	473956352	50	4974
2026-01-06 03:18:23.79	280.35	12.34	-39.7	-42.1	21.0	6.02e-01	0	56	0	476053504	50	4903
2026-01-06 03:18:24.80	280.16	12.29	-39.6	-42.0	21.2	6.00e-01	0	56	0	478150656	50	4850
2026-01-06 03:18:25.81	279.96	12.23	-39.7	-42.1	21.0	6.01e-01	0	56	0	479723520	50	4906
2026-01-06 03:18:26.82	279.77	12.18	-39.7	-42.2	21.0	6.02e-01	0	56	0	481820672	50	4952
2026-01-06 03:18:27.83	279.57	12.13	-40.0	-42.5	20.6	6.03e-01	0	56	0	483393536	50	5138
2026-01-06 03:18:28.84	279.38	12.07	-39.9	-42.4	20.7	6.04e-01	0	56	0	485490688	50	5089
2026-01-06 03:18:29.84	279.19	12.02	-39.8	-42.3	20.8	5.99e-01	0	56	0	487587840	50	5015
2026-01-06 03:18:30.85	279.00	11.97	-39.6	-42.1	21.0	6.01e-01	0	56	0	489160704	50	4878
2026-01-06 03:18:31.86	278.81	11.91	-39.6	-42.1	20.9	6.01e-01	0	56	0	491257856	50	4906
2026-01-06 03:18:32.87	278.62	11.86	-39.7	-42.2	20.8	6.00e-01	0	56	0	492830720	50	4943
2026-01-06 03:18:33.88	278.43	11.80	-39.7	-42.2	20.8	6.02e-01	0	56	0	494927872	50	4972
2026-01-06 03:18:34.89	278.25	11.75	-39.7	-42.2	20.8	6.01e-01	0	56	0	497025024	50	4948
2026-01-06 03:18:35.90	278.06	11.69	-39.7	-42.2	20.7	6.00e-01	0	56	0	498597888	50	4963
2026-01-06 03:18:36.91	277.87	11.64	-39.6	-42.1	20.8	6.01e-01	0	56	0	500695040	50	4919
2026-01-06 03:18:37.92	277.69	11.58	-39.7	-42.2	20.7	6.02e-01	0	56	0	502267904	50	4943
2026-01-06 03:18:38.93	277.50	11.53	-39.6	-42.2	20.7	6.02e-01	0	57	0	504365056	50	4929
2026-01-06 03:18:39.94	277.32	11.47	-39.6	-42.2	20.7	6.02e-01	0	56	0	506462208	50	4928
2026-01-06 03:18:40.95	277.13	11.42	-39.6	-42.1	20.8	6.03e-01	0	56	0	508035072	50	4887
2026-01-06 03:18:41.96	276.95	11.36	-39.6	-42.1	20.7	6.02e-01	0	56	0	510132224	50	4907
2026-01-06 03:18:42.97	276.77	11.31	-39.5	-42.1	20.8	6.02e-01	0	56	0	512229376	50	4877
2026-01-06 03:18:43.98	276.59	11.25	-39.5	-42.0	20.7	6.01e-01	0	56	0	513802240	50	4870
2026-01-06 03:18:44.99	276.41	11.20	-39.6	-42.2	20.6	6.01e-01	0	57	0	515899392	50	4973
2026-01-06 03:18:46.00	276.23	11.14	-39.6	-42.2	20.5	6.02e-01	0	56	0	517472256	50	4970
2026-01-06 03:18:47.01	276.05	11.08	-39.6	-42.3	20.4	6.01e-01	0	56	0	519569408	50	5003
2026-01-06 03:18:48.02	275.87	11.03	-39.7	-42.4	20.3	6.02e-01	0	57	0	521666560	50	5069
2026-01-06 03:18:49.03	275.69	10.97	-39.8	-42.6	20.1	6.01e-01	0	57	0	523239424	50	5177
2026-01-06 03:18:50.04	275.52	10.91	-39.9	-42.7	20.0	6.00e-01	0	56	0	525336576	50	5241
2026-01-06 03:18:51.05	275.34	10.86	-40.0	-42.8	19.8	6.01e-01	0	56	0	526909440	50	5336
2026-01-06 03:18:52.06	275.17	10.80	-40.2	-43.1	19.6	6.00e-01	0	56	0	529006592	50	5470
2026-01-06 03:18:53.07	274.99	10.74	-40.1	-43.0	19.5	6.03e-01	0	56	0	531103744	50	5452
2026-01-06 03:18:54.08	274.82	10.69	-40.0	-42.9	19.6	6.02e-01	0	56	0	532676608	50	5347
2026-01-06 03:18:55.09	274.65	10.63	-40.0	-42.9	19.5	6.02e-01	0	56	0	534773760	50	5366
2026-01-06 03:18:56.10	274.47	10.57	-40.1	-43.2	19.1	6.03e-01	0	56	0	536870912	50	5566
2026-01-06 03:18:57.11	274.30	10.52	-40.2	-43.4	18.8	6.01e-01	0	57	0	538443776	51	5397
2026-01-06 03:18:58.12	274.13	10.46	-40.3	-43.6	18.6	6.03e-01	0	57	0	540540928	51	5506
2026-01-06 03:18:59.13	273.96	10.40	-40.5	-44.0	18.1	6.00e-01	0	56	0	542113792	51	5786
2026-01-06 03:19:00.14	273.79	10.34	-40.6	-44.2	17.9	6.02e-01	0	57	0	544210944	51	5882
2026-01-06 03:19:01.15	273.62	10.29	-40.7	-44.5	17.6	6.03e-01	0	56	0	546308096	51	6078
2026-01-06 03:19:02.16	273.46	10.23	-40.7	-44.7	17.2	5.99e-01	0	56	0	547880960	52	5877
2026-01-06 03:19:03.17	273.29	10.17	-40.8	-44.9	16.9	6.00e-01	0	57	0	549978112	52	6053
2026-01-06 03:19:04.18	273.12	10.11	-40.9	-45.2	16.5	5.99e-01	0	57	0	551550976	52	6268
2026-01-06 03:19:05.19	272.96	10.06	-40.9	-45.2	16.4	6.02e-01	0	56	0	553648128	52	6266
2026-01-06 03:19:06.20	272.79	10.00	-40.9	-45.4	16.1	6.01e-01	0	56	0	555745280	52	6406
2026-01-06 03:19:07.21	272.63	9.94	-40.9	-45.5	16.1	6.03e-01	0	56	0	557318144	52	6425
2026-01-06 03:19:08.22	272.46	9.88	-41.0	-45.6	15.9	6.01e-01	0	57	0	559415296	52	6535
2026-01-06 03:19:09.23	272.30	9.82	-41.1	-45.9	15.6	6.01e-01	0	57	0	560988160	52	6741
2026-01-06 03:19:10.24	272.14	9.77	-41.1	-45.9	15.5	6.01e-01	0	57	0	563085312	52	6791
2026-01-06 03:19:11.25	271.98	9.71	-41.2	-46.0	15.5	6.02e-01	0	57	0	565182464	52	6803
2026-01-06 03:19:12.26	271.82	9.65	-41.2	-46.0	15.5	6.02e-01	0	57	0	566755328	52	6804
2026-01-06 03:19:13.27	271.66	9.59	-41.2	-46.1	15.3	6.00e-01	0	57	0	568852480	52	6907
2026-01-06 03:19:14.28	271.50	9.53	-41.1	-45.8	15.8	6.02e-01	0	56	0	570425344	52	6665
2026-01-06 03:19:15.29	271.34	9.47	-41.2	-45.7	16.0	6.03e-01	0	57	0	572522496	52	6619
2026-01-06 03:19:16.30	271.18	9.42	-41.3	-45.8	15.9	6.00e-01	0	56	0	574619648	53	6323
2026-01-06 03:19:17.31	271.02	9.36	-41.3	-45.9	15.8	6.01e-01	0	57	0	576192512	53	6410
2026-01-06 03:19:18.32	270.87	9.30	-41.3	-45.8	15.9	6.03e-01	0	57	0	578289664	53	6345
2026-01-06 03:19:19.32	270.71	9.24	-41.2	-45.7	15.9	6.01e-01	0	57	0	579862528	53	6251
2026-01-06 03:19:20.33	270.56	9.18	-41.2	-45.8	15.8	6.02e-01	0	57	0	581959680	53	6328
2026-01-06 03:19:21.34	270.40	9.12	-41.3	-46.0	15.7	6.01e-01	0	57	0	584056832	53	6437
2026-01-06 03:19:22.36	270.25	9.07	-41.3	-46.2	15.3	6.02e-01	0	57	0	585629696	53	6614
2026-01-06 03:19:23.37	270.10	9.01	-41.4	-46.5	15.0	6.03e-01	0	57	0	587726848	53	6829
2026-01-06 03:19:24.38	269.94	8.95	-41.5	-47.0	14.4	6.02e-01	0	57	0	589824000	53	7213
2026-01-06 03:19:25.39	269.79	8.89	-41.5	-47.2	14.1	6.03e-01	0	57	0	591396864	53	7401
2026-01-06 03:19:26.39	269.64	8.83	-41.6	-47.3	13.9	6.01e-01	0	57	0	593494016	53	7542
2026-01-06 03:19:27.40	269.49	8.77	-41.6	-47.5	13.7	6.04e-01	0	56	0	595066880	53	7641
2026-01-06 03:19:28.41	269.34	8.71	-41.6	-47.7	13.4	6.06e-01	0	57	0	597164032	53	7884
2026-01-06 03:19:29.42	269.19	8.66	-41.7	-48.2	12.7	6.05e-01	0	57	0	599261184	53	8354
2026-01-06 03:19:30.43	269.04	8.60	-41.8	-48.7	12.2	6.04e-01	0	57	0	600834048	54	8309
2026-01-06 03:19:31.44	268.90	8.54	-41.8	-49.2	11.5	6.10e-01	0	57	0	602931200	54	8789
2026-01-06 03:19:32.45	268.75	8.48	-41.9	-49.6	11.0	6.12e-01	0	57	0	605028352	54	9257
2026-01-06 03:19:33.46	268.60	8.42	-41.9	-49.9	10.5	6.14e-01	0	57	0	606601216	54	9605
2026-01-06 03:19:34.47	268.46	8.36	-41.8	-50.3	10.0	6.18e-01	0	57	0	608698368	54	9998
2026-01-06 03:19:35.48	268.31	8.30	-41.8	-50.6	9.7	6.21e-01	0	56	0	610271232	54	10295
2026-01-06 03:19:36.49	268.17	8.24	-41.8	-50.8	9.4	6.24e-01	0	57	0	612368384	54	10641
2026-01-06 03:19:37.50	268.02	8.18	-41.9	-51.3	8.8	6.32e-01	0	57	0	614465536	54	11240
2026-01-06 03:19:38.51	267.88	8.13	-41.9	-51.6	8.4	6.37e-01	17	57	0	616038400	54	11674
2026-01-06 03:19:39.52	267.74	8.07	-41.9	-51.9	8.1	6.43e-01	74	57	0	618135552	54	12068
2026-01-06 03:19:40.53	267.59	8.01	-43.2	-52.5	9.3	6.28e-01	0	57	0	619708416	56	11441
2026-01-06 03:19:41.54	267.45	7.95	-45.4	-64.3	3.8	7.44e-01	0	57	104	620232704	61	33386
2026-01-06 03:19:42.55	267.31	7.89	-45.7	-64.6	3.8	7.47e-01	0	57	104	620232704	61	34527
2026-01-06 03:19:43.56	267.17	7.83	-45.9	-64.7	3.8	7.48e-01	0	57	104	620232704	62	33215
2026-01-06 03:19:44.57	267.03	7.77	-46.0	-64.9	3.8	7.47e-01	0	57	104	620232704	62	33718
2026-01-06 03:19:45.58	266.89	7.71	-46.1	-64.9	3.8	7.43e-01	0	57	104	620232704	62	33997
2026-01-06 03:19:46.59	266.76	7.65	-46.1	-65.0	3.8	7.43e-01	0	57	104	620232704	62	34240
2026-01-06 03:19:47.60	266.62	7.60	-46.2	-65.0	3.8	7.44e-01	0	57	104	620232704	62	34374
2026-01-06 03:19:48.61	266.48	7.54	-46.2	-65.1	3.8	7.46e-01	0	57	104	620232704	62	34526
2026-01-06 03:19:49.62	266.34	7.48	-46.2	-65.1	3.8	7.47e-01	0	57	104	620232704	62	34569
2026-01-06 03:19:50.63	266.21	7.42	-46.2	-65.1	3.8	7.46e-01	0	57	104	620232704	62	34495
2026-01-06 03:19:51.64	266.07	7.36	-46.1	-65.0	3.8	7.47e-01	0	57	104	620232704	62	34422
2026-01-06 03:19:52.66	265.94	7.30	-46.1	-65.0	3.8	7.43e-01	0	57	104	620232704	62	34396
2026-01-06 03:19:53.67	265.80	7.24	-46.1	-65.0	3.8	7.46e-01	0	57	104	620232704	62	34294
2026-01-06 03:19:54.68	265.67	7.18	-46.1	-65.0	3.8	7.45e-01	0	57	104	620232704	62	34138
2026-01-06 03:19:55.69	265.54	7.12	-46.1	-65.0	3.8	7.46e-01	0	57	104	620232704	62	34174
2026-01-06 03:19:56.70	265.40	7.07	-46.1	-65.0	3.8	7.43e-01	0	57	104	620232704	62	34310
2026-01-06 03:19:57.71	265.27	7.01	-46.1	-65.0	3.8	7.44e-01	0	57	104	620232704	62	34235
2026-01-06 03:19:58.72	265.14	6.95	-46.1	-65.0	3.8	7.49e-01	0	57	104	620232704	62	34185
2026-01-06 03:19:59.73	265.01	6.89	-46.1	-65.0	3.8	7.44e-01	0	57	104	620232704	62	34238
2026-01-06 03:20:00.74	264.88	6.83	-46.1	-65.0	3.8	7.45e-01	0	57	104	620232704	62	34161
2026-01-06 03:20:01.75	264.75	6.77	-46.1	-65.0	3.8	7.47e-01	0	57	104	620232704	62	34139
2026-01-06 03:20:02.77	264.62	6.71	-46.1	-65.0	3.8	7.45e-01	0	57	104	620232704	62	34153
2026-01-06 03:20:03.78	264.49	6.65	-46.1	-65.0	3.8	7.45e-01	0	57	104	620232704	62	34162
2026-01-06 03:20:04.79	264.37	6.60	-46.1	-65.0	3.8	7.48e-01	0	57	104	620232704	62	34088
2026-01-06 03:20:05.80	264.24	6.54	-46.1	-65.0	3.8	7.46e-01	0	57	104	620232704	62	34086
2026-01-06 03:20:06.81	264.11	6.48	-46.1	-64.9	3.8	7.46e-01	0	57	104	620232704	62	34071
2026-01-06 03:20:07.82	263.99	6.42	-46.1	-65.0	3.8	7.43e-01	0	57	104	620232704	62	34115
2026-01-06 03:20:08.83	263.86	6.36	-46.1	-65.0	3.8	7.44e-01	0	57	104	620232704	62	34130
2026-01-06 03:20:09.84	263.74	6.30	-46.1	-64.9	3.8	7.45e-01	0	57	104	620232704	62	34076
2026-01-06 03:20:10.85	263.61	6.25	-46.1	-64.9	3.8	7.46e-01	0	57	104	620232704	62	34047
2026-01-06 03:20:11.86	263.49	6.19	-46.1	-65.0	3.8	7.46e-01	0	57	104	620232704	62	34094
2026-01-06 03:20:12.88	263.36	6.13	-46.1	-65.0	3.8	7.49e-01	0	57	104	620232704	62	34131
2026-01-06 03:20:13.89	263.24	6.07	-46.1	-64.9	3.8	7.45e-01	0	57	104	620232704	62	34070
2026-01-06 03:20:14.90	263.12	6.01	-46.1	-64.9	3.8	7.41e-01	0	57	104	620232704	62	34025
2026-01-06 03:20:15.91	263.00	5.95	-46.1	-64.9	3.8	7.44e-01	0	57	104	620232704	62	34053
2026-01-06 03:20:16.92	262.88	5.89	-46.1	-64.9	3.8	7.45e-01	0	57	104	620232704	62	34016
2026-01-06 03:20:17.93	262.76	5.84	-46.1	-64.9	3.8	7.42e-01	0	57	104	620232704	62	34039
2026-01-06 03:20:18.94	262.64	5.78	-46.1	-64.9	3.8	7.44e-01	0	57	104	620232704	62	34008
2026-01-06 03:20:19.95	262.52	5.72	-46.1	-64.9	3.8	7.46e-01	0	57	104	620232704	62	34064
2026-01-06 03:20:20.97	262.40	5.66	-46.1	-64.9	3.8	7.44e-01	0	57	104	620232704	62	34011
2026-01-06 03:20:21.97	262.28	5.60	-46.0	-64.9	3.8	7.46e-01	0	57	104	620232704	62	34014
2026-01-06 03:20:22.99	262.16	5.55	-46.0	-64.9	3.8	7.45e-01	0	57	104	620232704	62	34016
2026-01-06 03:20:24.00	262.04	5.49	-46.0	-64.9	3.8	7.48e-01	0	57	104	620232704	62	33975
2026-01-06 03:20:25.01	261.93	5.43	-46.0	-64.9	3.8	7.44e-01	0	57	104	620232704	62	34041
2026-01-06 03:20:26.02	261.81	5.37	-46.0	-64.9	3.8	7.44e-01	0	57	104	620232704	62	34049
2026-01-06 03:20:27.03	261.69	5.31	-46.0	-64.9	3.8	7.44e-01	0	57	104	620232704	62	34039
2026-01-06 03:20:28.04	261.58	5.26	-46.0	-64.9	3.8	7.49e-01	0	57	104	620232704	62	33962
2026-01-06 03:20:29.05	261.46	5.20	-46.0	-64.9	3.8	7.43e-01	0	57	104	620232704	62	33995
2026-01-06 03:20:30.06	261.35	5.14	-46.0	-64.9	3.8	7.45e-01	0	57	104	620232704	62	33964
2026-01-06 03:20:31.07	261.24	5.08	-46.0	-64.9	3.8	7.45e-01	0	57	104	620232704	62	33983
2026-01-06 03:20:32.08	261.12	5.02	-46.0	-64.9	3.8	7.45e-01	0	57	104	620232704	62	34004
2026-01-06 03:20:33.10	261.01	4.97	-46.0	-64.9	3.8	7.44e-01	0	57	104	620232704	62	33963
2026-01-06 03:20:34.11	260.90	4.91	-46.0	-64.9	3.8	7.45e-01	0	57	104	620232704	62	33877
2026-01-06 03:20:35.12	260.79	4.85	-46.0	-64.9	3.8	7.47e-01	0	57	104	620232704	62	33961
2026-01-06 03:20:36.13	260.67	4.79	-46.0	-64.9	3.8	7.41e-01	0	57	104	620232704	62	33986
2026-01-06 03:20:37.14	260.56	4.74	-46.0	-64.9	3.8	7.44e-01	0	57	104	620232704	62	33973
2026-01-06 03:20:38.15	260.45	4.68	-46.0	-64.9	3.8	7.45e-01	0	57	104	620232704	62	33977
2026-01-06 03:20:39.16	260.34	4.62	-46.0	-64.9	3.8	7.42e-01	0	57	104	620232704	62	33982
2026-01-06 03:20:40.17	260.23	4.56	-46.0	-64.9	3.8	7.45e-01	0	57	104	620232704	62	33947
2026-01-06 03:20:41.18	260.13	4.51	-46.0	-64.9	3.8	7.45e-01	0	57	104	620232704	62	34005
2026-01-06 03:20:42.19	260.02	4.45	-46.0	-64.9	3.8	7.46e-01	0	57	104	620232704	62	33990
2026-01-06 03:20:43.21	259.91	4.39	-46.0	-64.9	3.8	7.46e-01	0	57	104	620232704	62	33920
2026-01-06 03:20:44.22	259.80	4.33	-46.0	-64.9	3.8	7.44e-01	0	57	104	620232704	62	33949
2026-01-06 03:20:45.23	259.69	4.28	-46.0	-64.9	3.8	7.46e-01	0	57	104	620232704	62	33967
2026-01-06 03:20:46.24	259.59	4.22	-46.0	-64.9	3.8	7.44e-01	0	57	104	620232704	62	33947
2026-01-06 03:20:47.25	259.48	4.16	-46.0	-64.9	3.8	7.48e-01	0	57	104	620232704	62	33943
2026-01-06 03:20:48.26	259.38	4.11	-46.0	-64.9	3.8	7.48e-01	0	57	104	620232704	62	33910
2026-01-06 03:20:49.27	259.27	4.05	-46.0	-64.9	3.8	7.42e-01	0	57	104	620232704	62	33865
2026-01-06 03:20:50.28	259.17	3.99	-46.0	-64.9	3.8	7.45e-01	0	57	104	620232704	62	33885
2026-01-06 03:20:51.29	259.06	3.94	-46.0	-64.9	3.8	7.44e-01	0	57	104	620232704	62	33906
2026-01-06 03:20:52.30	258.96	3.88	-46.0	-64.9	3.8	7.47e-01	0	57	104	620232704	62	33916
2026-01-06 03:20:53.32	258.85	3.82	-46.0	-64.9	3.8	7.44e-01	0	57	104	620232704	62	33912
2026-01-06 03:20:54.33	258.75	3.77	-46.0	-64.9	3.8	7.44e-01	0	57	104	620232704	62	33875
2026-01-06 03:20:55.34	258.65	3.71	-46.0	-64.9	3.8	7.48e-01	0	57	104	620232704	62	33964
2026-01-06 03:20:56.35	258.55	3.65	-46.0	-64.9	3.8	7.45e-01	0	57	104	620232704	62	33862
2026-01-06 03:20:57.36	258.45	3.60	-46.0	-64.9	3.8	7.44e-01	0	57	104	620232704	62	33955
2026-01-06 03:20:58.37	258.34	3.54	-46.0	-64.9	3.8	7.46e-01	0	57	104	620232704	62	33829
2026-01-06 03:20:59.38	258.24	3.48	-46.0	-64.9	3.8	7.43e-01	0	57	104	620232704	62	33807
2026-01-06 03:21:00.39	258.14	3.43	-46.0	-64.9	3.8	7.48e-01	0	57	104	620232704	62	33841
2026-01-06 03:21:01.40	258.04	3.37	-46.0	-64.9	3.8	7.45e-01	0	57	104	620232704	62	33846
2026-01-06 03:21:02.41	257.94	3.31	-46.0	-64.9	3.8	7.44e-01	0	57	104	620232704	62	33789
2026-01-06 03:21:03.43	257.84	3.26	-46.0	-64.9	3.8	7.46e-01	0	57	104	620232704	62	33883
2026-01-06 03:21:04.44	257.75	3.20	-46.0	-64.9	3.8	7.49e-01	0	57	104	620232704	62	33842
2026-01-06 03:21:05.45	257.65	3.15	-46.0	-64.9	3.8	7.46e-01	0	57	104	620232704	62	33870
2026-01-06 03:21:06.46	257.55	3.09	-46.0	-64.9	3.8	7.44e-01	0	57	104	620232704	62	33832
2026-01-06 03:21:07.47	257.45	3.03	-46.0	-64.9	3.8	7.46e-01	0	57	104	620232704	62	33876
2026-01-06 03:21:08.48	257.36	2.98	-46.0	-64.9	3.8	7.46e-01	0	57	104	620232704	62	33866
2026-01-06 03:21:09.49	257.26	2.92	-46.0	-64.9	3.8	7.43e-01	0	57	104	620232704	62	33773
2026-01-06 03:21:10.50	257.16	2.87	-46.0	-64.9	3.8	7.47e-01	0	57	104	620232704	62	33851
2026-01-06 03:21:11.52	257.07	2.81	-46.0	-64.9	3.8	7.44e-01	0	57	104	620232704	62	33860
2026-01-06 03:21:12.53	256.97	2.75	-46.0	-64.9	3.8	7.45e-01	0	57	104	620232704	62	33784
2026-01-06 03:21:13.54	256.88	2.70	-46.0	-64.9	3.8	7.46e-01	0	57	104	620232704	62	33741
2026-01-06 03:21:14.55	256.78	2.64	-46.0	-64.9	3.8	7.45e-01	0	57	104	620232704	62	33823
2026-01-06 03:21:15.56	256.69	2.59	-46.0	-64.9	3.8	7.45e-01	0	57	104	620232704	62	33762
2026-01-06 03:21:16.57	256.59	2.53	-46.0	-64.9	3.8	7.47e-01	0	57	104	620232704	62	33742
2026-01-06 03:21:17.58	256.50	2.48	-46.0	-64.9	3.8	7.43e-01	0	57	104	620232704	62	33797
2026-01-06 03:21:18.59	256.41	2.42	-46.0	-64.9	3.8	7.47e-01	0	57	104	620232704	62	33750
2026-01-06 03:21:19.60	256.32	2.37	-46.0	-64.9	3.8	7.47e-01	0	57	104	620232704	62	33795
2026-01-06 03:21:20.61	256.22	2.31	-46.0	-64.9	3.8	7.49e-01	0	57	104	620232704	62	33777
2026-01-06 03:21:21.62	256.13	2.26	-46.0	-64.9	3.8	7.45e-01	0	57	104	620232704	62	33829
2026-01-06 03:21:22.63	256.04	2.20	-46.0	-64.9	3.8	7.44e-01	0	57	104	620232704	62	33805
2026-01-06 03:21:23.65	255.95	2.15	-46.0	-64.9	3.8	7.44e-01	0	57	104	620232704	62	33752
2026-01-06 03:21:24.66	255.86	2.09	-46.0	-64.9	3.8	7.45e-01	0	57	104	620232704	62	33813
2026-01-06 03:21:25.67	255.77	2.04	-46.0	-64.9	3.8	7.45e-01	0	57	104	620232704	62	33790
2026-01-06 03:21:26.68	255.68	1.98	-46.0	-64.9	3.8	7.46e-01	0	57	104	620232704	62	33799
2026-01-06 03:21:27.69	255.59	1.93	-46.0	-64.9	3.8	7.46e-01	0	57	104	620232704	62	33758

#Closed at: 2026-01-06 03:21:27
#Recorded file [620 MB]: D:/lorett/data/31039_260106_061102.dat