passes_logs/2026/01/06/R2.0S_Moscow/R2.0S_Moscow__20260106_013308_AQUA_rec.log

#Pass ID: 20260106_013308_AQUA
#Satellite: AQUA
#Configuration: AQUA
#almurnet v.1.7.20251203
#Start time: 2026-01-06 01:33:09

#Version: 2.2.20231116
#Station: R2.0S_Moscow
#Location: 37.707566 lon 55.798166 lat
#TLE: 1 27424U 02022A   26004.96787593  .00001598  00000+0  32997-3 0  9996
#TLE: 2 27424  98.4069 331.2279 0002002  90.2377   0.6092 14.61798176259425

#Time	Az	El	Level	Level2	SNR	BER	BlckErr	Temp	State	Recorded	gain1	gain2
2026-01-06 01:33:09.29	14.27	2.08	-44.1	-63.1	3.8	7.48e-01	0	47	0	0	60	31023
2026-01-06 01:33:10.29	14.27	2.14	-44.4	-63.5	3.8	7.48e-01	0	48	104	0	59	34259
2026-01-06 01:33:11.30	14.26	2.21	-44.4	-63.5	3.8	7.46e-01	0	48	104	0	59	34151
2026-01-06 01:33:12.31	14.25	2.28	-44.4	-63.5	3.8	7.46e-01	0	47	104	0	59	34216
2026-01-06 01:33:13.32	14.24	2.34	-44.4	-63.5	3.8	7.47e-01	0	48	104	0	59	34228
2026-01-06 01:33:14.33	14.23	2.41	-44.4	-63.5	3.8	7.47e-01	0	48	104	0	59	34223
2026-01-06 01:33:15.35	14.22	2.48	-44.4	-63.5	3.8	7.46e-01	0	48	104	0	59	34216
2026-01-06 01:33:16.36	14.21	2.55	-44.4	-63.5	3.8	7.44e-01	0	48	104	0	59	34152
2026-01-06 01:33:17.37	14.21	2.62	-44.4	-63.5	3.8	7.47e-01	0	48	104	0	59	34231
2026-01-06 01:33:18.38	14.20	2.69	-44.4	-63.5	3.8	7.46e-01	0	48	104	0	59	34144
2026-01-06 01:33:19.39	14.19	2.75	-44.4	-63.5	3.8	7.47e-01	0	48	104	0	59	34095
2026-01-06 01:33:20.40	14.18	2.82	-44.4	-63.5	3.8	7.46e-01	0	48	104	0	59	34137
2026-01-06 01:33:21.41	14.17	2.89	-44.4	-63.5	3.8	7.44e-01	0	49	104	0	59	34095
2026-01-06 01:33:22.42	14.16	2.96	-44.4	-63.4	3.8	7.46e-01	0	49	104	0	59	34075
2026-01-06 01:33:23.43	14.15	3.03	-44.4	-63.4	3.8	7.46e-01	0	48	104	0	59	33836
2026-01-06 01:33:24.44	14.14	3.10	-44.4	-63.4	3.8	7.40e-01	0	49	104	0	59	34027
2026-01-06 01:33:25.46	14.13	3.17	-44.4	-63.3	3.8	7.50e-01	0	48	104	0	59	33668
2026-01-06 01:33:26.47	14.12	3.24	-44.4	-63.3	3.8	7.45e-01	0	48	104	0	59	33565
2026-01-06 01:33:27.48	14.11	3.31	-44.4	-63.3	3.8	7.45e-01	0	49	104	0	59	33459
2026-01-06 01:33:28.49	14.10	3.38	-44.4	-63.1	3.8	7.45e-01	0	49	104	0	59	32583
2026-01-06 01:33:29.50	14.09	3.45	-44.4	-63.0	3.8	7.43e-01	0	49	104	0	59	32422
2026-01-06 01:33:30.51	14.09	3.52	-44.4	-62.9	3.8	7.46e-01	0	49	104	0	59	31905
2026-01-06 01:33:31.52	14.08	3.59	-44.4	-62.5	3.8	7.42e-01	0	49	104	0	59	30605
2026-01-06 01:33:32.53	14.07	3.66	-44.4	-62.6	3.8	7.49e-01	0	49	104	0	59	30852
2026-01-06 01:33:33.54	14.06	3.73	-44.4	-62.6	3.8	7.47e-01	0	49	104	0	59	31055
2026-01-06 01:33:34.56	14.05	3.81	-44.4	-62.6	3.8	7.43e-01	0	49	104	0	59	30917
2026-01-06 01:33:35.57	14.04	3.88	-44.4	-62.5	3.8	7.44e-01	0	49	104	0	59	30492
2026-01-06 01:33:36.58	14.03	3.95	-44.4	-62.5	3.8	7.47e-01	0	49	104	0	59	30662
2026-01-06 01:33:37.59	14.02	4.02	-44.3	-61.9	3.8	7.43e-01	0	49	104	0	59	28452
2026-01-06 01:33:38.60	14.01	4.09	-44.4	-62.1	3.8	7.46e-01	0	49	104	0	59	29068
2026-01-06 01:33:39.61	13.99	4.17	-44.3	-61.9	3.8	7.45e-01	0	49	104	0	59	28607
2026-01-06 01:33:40.62	13.98	4.24	-44.3	-61.7	3.9	7.45e-01	0	50	104	0	59	27857
2026-01-06 01:33:41.63	13.97	4.31	-44.3	-61.3	3.9	7.44e-01	0	49	104	0	59	26554
2026-01-06 01:33:42.64	13.96	4.38	-44.3	-61.5	3.8	7.47e-01	0	49	104	0	59	27327
2026-01-06 01:33:43.66	13.95	4.46	-44.3	-61.1	3.8	7.46e-01	0	49	104	0	59	25997
2026-01-06 01:33:44.67	13.94	4.53	-44.3	-60.5	4.1	7.36e-01	0	50	104	0	59	24333
2026-01-06 01:33:45.68	13.93	4.61	-44.3	-60.6	3.8	7.43e-01	0	50	104	0	59	24634
2026-01-06 01:33:46.69	13.92	4.68	-44.3	-60.3	4.1	7.36e-01	0	50	104	0	59	23657
2026-01-06 01:33:47.70	13.91	4.75	-44.3	-60.2	3.9	7.38e-01	0	50	104	0	59	23581
2026-01-06 01:33:48.71	13.90	4.83	-44.3	-59.2	4.4	7.27e-01	0	50	104	0	59	20785
2026-01-06 01:33:49.72	13.89	4.90	-44.3	-59.4	3.9	7.41e-01	0	50	104	0	59	21499
2026-01-06 01:33:50.73	13.88	4.98	-44.2	-58.4	4.8	7.21e-01	0	50	104	0	59	19049
2026-01-06 01:33:51.74	13.86	5.05	-44.2	-58.9	4.0	7.37e-01	0	50	104	0	59	20077
2026-01-06 01:33:52.75	13.85	5.13	-44.2	-57.3	5.4	6.96e-01	17	50	0	0	59	16800
2026-01-06 01:33:53.76	13.84	5.21	-44.2	-57.7	5.1	7.04e-01	3	50	0	0	59	17536
2026-01-06 01:33:54.78	13.83	5.28	-44.1	-56.8	5.7	6.91e-01	35	50	0	524288	59	15895
2026-01-06 01:33:55.79	13.82	5.36	-44.1	-56.2	6.1	6.77e-01	90	50	0	1572864	59	14816
2026-01-06 01:33:56.80	13.81	5.43	-44.1	-56.1	6.2	6.81e-01	92	50	0	3670016	59	14652
2026-01-06 01:33:57.81	13.79	5.51	-44.1	-56.7	5.8	6.89e-01	77	50	0	4718592	59	15678
2026-01-06 01:33:58.82	13.78	5.59	-44.1	-56.2	6.1	6.82e-01	92	50	0	6291456	59	14742
2026-01-06 01:33:59.83	13.77	5.67	-44.1	-56.2	6.2	6.80e-01	90	51	0	7864320	59	14748
2026-01-06 01:34:00.84	13.76	5.74	-44.1	-56.4	6.0	6.84e-01	59	50	0	9961472	59	15086
2026-01-06 01:34:01.85	13.75	5.82	-44.2	-56.8	5.7	6.91e-01	66	51	0	11534336	59	15916
2026-01-06 01:34:02.86	13.73	5.90	-44.2	-59.1	4.4	7.43e-01	0	51	104	12058624	59	20565
2026-01-06 01:34:03.87	13.72	5.98	-44.3	-59.7	4.3	7.41e-01	0	51	104	12058624	59	22199
2026-01-06 01:34:04.88	13.71	6.06	-44.3	-60.2	4.2	7.34e-01	0	51	104	12058624	59	23422
2026-01-06 01:34:05.89	13.70	6.13	-44.3	-61.2	3.8	7.43e-01	0	51	104	12058624	59	26402
2026-01-06 01:34:06.90	13.68	6.21	-44.3	-60.3	4.1	7.36e-01	0	51	104	12058624	59	23636
2026-01-06 01:34:07.91	13.67	6.29	-44.3	-59.4	3.9	7.37e-01	0	51	104	12058624	59	21505
2026-01-06 01:34:08.92	13.66	6.37	-44.2	-56.8	5.8	6.90e-01	16	51	0	12058624	59	15761
2026-01-06 01:34:09.93	13.64	6.45	-44.0	-54.9	7.2	6.57e-01	92	51	0	13631488	59	12743
2026-01-06 01:34:10.94	13.63	6.53	-43.8	-53.1	8.9	6.31e-01	0	51	0	15728640	59	10408
2026-01-06 01:34:11.95	13.62	6.61	-43.4	-51.1	11.2	6.15e-01	0	51	0	17301504	58	8673
2026-01-06 01:34:12.97	13.60	6.69	-43.1	-50.0	12.4	6.09e-01	0	51	0	19398656	58	7635
2026-01-06 01:34:13.97	13.59	6.77	-42.7	-48.4	14.0	6.07e-01	0	51	0	21495808	57	6775
2026-01-06 01:34:14.99	13.58	6.86	-42.3	-47.3	15.1	6.04e-01	0	51	0	23068672	56	6344
2026-01-06 01:34:16.00	13.56	6.94	-41.7	-46.2	16.2	6.03e-01	0	51	0	25165824	55	5893
2026-01-06 01:34:17.01	13.55	7.02	-41.5	-45.6	16.7	6.03e-01	0	51	0	26738688	55	5517
2026-01-06 01:34:18.02	13.53	7.10	-41.0	-44.7	17.7	6.02e-01	0	51	0	28835840	54	5248
2026-01-06 01:34:19.03	13.52	7.18	-40.8	-44.4	18.0	6.04e-01	0	51	0	30932992	53	5378
2026-01-06 01:34:20.04	13.51	7.27	-40.4	-43.7	18.6	6.03e-01	0	51	0	32505856	52	5263
2026-01-06 01:34:21.05	13.49	7.35	-40.3	-43.6	18.8	6.01e-01	0	51	0	34603008	52	5166
2026-01-06 01:34:22.06	13.48	7.43	-40.1	-43.2	19.2	6.03e-01	0	51	0	36175872	52	4954
2026-01-06 01:34:23.07	13.46	7.51	-40.1	-43.1	19.2	6.02e-01	0	52	0	38273024	52	4921
2026-01-06 01:34:24.08	13.45	7.60	-39.9	-42.8	19.6	6.05e-01	0	52	0	40370176	51	5028
2026-01-06 01:34:25.09	13.43	7.68	-40.4	-43.5	18.9	6.02e-01	0	51	0	41943040	51	5448
2026-01-06 01:34:26.10	13.42	7.77	-40.2	-43.3	19.1	6.04e-01	0	52	0	44040192	51	5326
2026-01-06 01:34:27.11	13.40	7.85	-40.4	-43.6	18.8	6.04e-01	0	52	0	46137344	51	5526
2026-01-06 01:34:28.12	13.39	7.94	-40.7	-44.1	18.2	6.00e-01	0	52	0	47710208	52	5528
2026-01-06 01:34:29.13	13.37	8.02	-40.9	-44.5	17.9	6.05e-01	0	52	0	49807360	52	5785
2026-01-06 01:34:30.14	13.36	8.11	-41.1	-44.7	17.8	6.04e-01	0	52	0	51380224	53	5564
2026-01-06 01:34:31.15	13.34	8.19	-40.9	-44.4	17.9	6.03e-01	0	52	0	53477376	53	5357
2026-01-06 01:34:32.16	13.33	8.28	-43.8	-59.1	3.9	7.41e-01	0	52	104	55050240	58	21825
2026-01-06 01:34:33.17	13.31	8.37	-41.6	-45.5	16.9	6.06e-01	0	52	0	56098816	55	5462
2026-01-06 01:34:34.18	13.30	8.45	-41.7	-46.3	15.7	6.02e-01	0	52	0	57671680	54	6346
2026-01-06 01:34:35.19	13.28	8.54	-40.2	-43.3	19.2	6.03e-01	0	52	0	59768832	52	4989
2026-01-06 01:34:36.21	13.26	8.63	-40.2	-43.3	19.1	6.04e-01	0	52	0	61865984	52	4996
2026-01-06 01:34:37.22	13.25	8.72	-40.2	-43.3	19.1	6.05e-01	0	52	0	63438848	52	4996
2026-01-06 01:34:38.22	13.23	8.81	-40.0	-42.9	19.6	6.02e-01	0	52	0	65536000	51	5081
2026-01-06 01:34:39.23	13.21	8.89	-40.1	-43.0	19.5	6.03e-01	0	52	0	67108864	51	5122
2026-01-06 01:34:40.24	13.20	8.98	-39.9	-42.8	19.7	6.03e-01	0	52	0	69206016	51	5015
2026-01-06 01:34:41.25	13.18	9.07	-40.0	-42.9	19.6	6.02e-01	0	52	0	71303168	51	5075
2026-01-06 01:34:42.26	13.16	9.16	-39.9	-42.8	19.8	6.06e-01	0	52	0	72876032	51	4995
2026-01-06 01:34:43.27	13.15	9.25	-39.7	-42.4	20.1	6.03e-01	0	52	0	74973184	51	4788
2026-01-06 01:34:44.28	13.13	9.34	-40.0	-42.8	19.7	6.03e-01	0	52	0	76546048	51	5005
2026-01-06 01:34:45.29	13.11	9.43	-39.9	-42.6	19.9	6.04e-01	0	52	0	78643200	51	4921
2026-01-06 01:34:46.30	13.10	9.53	-39.9	-42.7	19.8	6.02e-01	0	53	0	80740352	51	4968
2026-01-06 01:34:47.31	13.08	9.62	-39.9	-42.6	20.0	6.03e-01	0	52	0	82313216	51	4908
2026-01-06 01:34:48.32	13.06	9.71	-40.0	-42.9	19.6	6.02e-01	0	52	0	84410368	51	5069
2026-01-06 01:34:49.33	13.04	9.80	-39.9	-42.7	19.8	6.03e-01	0	52	0	85983232	51	4970
2026-01-06 01:34:50.34	13.02	9.89	-39.8	-42.4	20.1	6.03e-01	0	52	0	88080384	51	4813
2026-01-06 01:34:51.35	13.01	9.99	-39.8	-42.5	20.2	6.02e-01	0	52	0	90177536	51	4833
2026-01-06 01:34:52.36	12.99	10.08	-39.7	-42.3	20.4	6.05e-01	0	52	0	91750400	51	4731
2026-01-06 01:34:53.37	12.97	10.18	-39.9	-42.6	20.1	6.02e-01	0	52	0	93847552	51	4887
2026-01-06 01:34:54.38	12.95	10.27	-39.7	-42.3	20.5	6.03e-01	0	53	0	95420416	51	4706
2026-01-06 01:34:55.39	12.93	10.36	-39.6	-42.1	20.6	6.03e-01	0	52	0	97517568	51	4648
2026-01-06 01:34:56.40	12.91	10.46	-39.6	-42.1	20.6	6.04e-01	0	53	0	99614720	51	4640
2026-01-06 01:34:57.41	12.89	10.55	-39.8	-42.4	20.4	5.99e-01	0	53	0	101187584	51	4778
2026-01-06 01:34:58.42	12.87	10.65	-39.6	-42.1	20.7	6.01e-01	0	52	0	103284736	51	4649
2026-01-06 01:34:59.43	12.85	10.75	-39.7	-42.2	20.6	6.02e-01	0	53	0	104857600	51	4671
2026-01-06 01:35:00.44	12.83	10.84	-39.5	-41.9	20.9	6.02e-01	0	53	0	106954752	50	4811
2026-01-06 01:35:01.45	12.81	10.94	-39.6	-42.1	20.8	6.04e-01	0	53	0	109051904	50	4903
2026-01-06 01:35:02.46	12.79	11.04	-39.8	-42.3	20.5	6.02e-01	0	52	0	110624768	50	5035
2026-01-06 01:35:03.47	12.77	11.14	-39.6	-42.2	20.7	6.03e-01	0	53	0	112721920	50	4939
2026-01-06 01:35:04.48	12.75	11.24	-39.6	-42.1	20.7	6.02e-01	0	53	0	114819072	50	4917
2026-01-06 01:35:05.49	12.73	11.33	-39.6	-42.1	20.8	6.04e-01	0	53	0	116391936	50	4905
2026-01-06 01:35:06.50	12.71	11.43	-39.6	-42.1	20.7	6.03e-01	0	53	0	118489088	50	4925
2026-01-06 01:35:07.51	12.69	11.53	-39.6	-42.1	20.8	6.03e-01	0	53	0	120061952	50	4907
2026-01-06 01:35:08.52	12.67	11.63	-39.6	-42.1	20.8	6.03e-01	0	53	0	122159104	50	4881
2026-01-06 01:35:09.53	12.65	11.73	-39.5	-42.0	20.9	6.07e-01	0	53	0	124256256	50	4819
2026-01-06 01:35:10.54	12.63	11.84	-39.6	-42.1	20.8	6.02e-01	0	53	0	125829120	50	4877
2026-01-06 01:35:11.55	12.61	11.94	-39.6	-42.1	20.9	6.03e-01	0	53	0	127926272	50	4873
2026-01-06 01:35:12.56	12.58	12.04	-39.5	-41.9	21.0	6.02e-01	0	53	0	130023424	50	4803
2026-01-06 01:35:13.57	12.56	12.14	-39.6	-42.1	20.9	6.02e-01	0	53	0	131596288	50	4877
2026-01-06 01:35:14.58	12.54	12.24	-39.7	-42.2	20.8	6.04e-01	0	53	0	133693440	50	4946
2026-01-06 01:35:15.59	12.52	12.35	-39.6	-42.1	20.8	6.01e-01	0	53	0	135266304	50	4909
2026-01-06 01:35:16.60	12.49	12.45	-39.7	-42.2	20.8	6.05e-01	0	53	0	137363456	50	4958
2026-01-06 01:35:17.61	12.47	12.56	-39.8	-42.3	20.7	6.02e-01	0	53	0	139460608	50	5031
2026-01-06 01:35:18.62	12.45	12.66	-39.7	-42.1	20.9	6.02e-01	0	53	0	141033472	50	4907
2026-01-06 01:35:19.63	12.42	12.77	-39.6	-42.1	21.0	6.05e-01	0	53	0	143130624	50	4888
2026-01-06 01:35:20.64	12.40	12.87	-39.5	-41.9	21.2	6.01e-01	0	53	0	144703488	50	4778
2026-01-06 01:35:21.65	12.38	12.98	-39.6	-42.0	21.2	6.03e-01	0	53	0	146800640	50	4828
2026-01-06 01:35:22.66	12.35	13.09	-39.5	-41.8	21.3	6.06e-01	0	53	0	148897792	50	4759
2026-01-06 01:35:23.66	12.33	13.19	-39.5	-41.8	21.4	6.05e-01	0	53	0	150470656	50	4720
2026-01-06 01:35:24.67	12.31	13.30	-39.4	-41.7	21.5	6.05e-01	0	53	0	152567808	50	4703
2026-01-06 01:35:25.68	12.28	13.41	-39.5	-41.8	21.4	6.04e-01	0	53	0	154140672	50	4754
2026-01-06 01:35:26.69	12.26	13.52	-39.3	-41.6	21.7	6.01e-01	0	53	0	156237824	50	4616
2026-01-06 01:35:27.70	12.23	13.63	-39.6	-41.9	21.4	6.06e-01	0	53	0	158334976	50	4782
2026-01-06 01:35:28.71	12.21	13.74	-39.3	-41.6	21.8	6.03e-01	0	53	0	159907840	50	4600
2026-01-06 01:35:29.72	12.18	13.85	-39.3	-41.5	21.8	6.04e-01	0	53	0	162004992	50	4584
2026-01-06 01:35:30.73	12.15	13.96	-39.2	-41.4	21.9	6.03e-01	0	53	0	163577856	50	4518
2026-01-06 01:35:31.74	12.13	14.07	-39.2	-41.4	22.0	6.04e-01	0	53	0	165675008	50	4497
2026-01-06 01:35:32.75	12.10	14.19	-39.2	-41.3	22.0	6.03e-01	0	54	0	167772160	50	4483
2026-01-06 01:35:33.76	12.08	14.30	-39.3	-41.5	21.9	6.05e-01	0	53	0	169345024	50	4555
2026-01-06 01:35:34.77	12.05	14.41	-39.2	-41.4	22.0	6.01e-01	0	54	0	171442176	50	4519
2026-01-06 01:35:35.78	12.02	14.53	-39.1	-41.3	22.1	6.05e-01	0	54	0	173015040	50	4467
2026-01-06 01:35:36.79	11.99	14.64	-39.2	-41.3	22.1	6.02e-01	0	54	0	175112192	50	4475
2026-01-06 01:35:37.80	11.97	14.76	-39.1	-41.3	22.1	6.04e-01	0	53	0	177209344	50	4460
2026-01-06 01:35:38.81	11.94	14.87	-39.1	-41.2	22.2	6.04e-01	0	54	0	178782208	50	4438
2026-01-06 01:35:39.82	11.91	14.99	-39.1	-41.3	22.1	6.03e-01	0	53	0	180879360	50	4458
2026-01-06 01:35:40.83	11.88	15.11	-39.1	-41.2	22.2	6.04e-01	0	54	0	182976512	50	4438
2026-01-06 01:35:41.84	11.85	15.23	-39.2	-41.3	22.1	6.04e-01	0	53	0	184549376	50	4483
2026-01-06 01:35:42.84	11.83	15.34	-39.1	-41.2	22.3	6.03e-01	0	54	0	186646528	50	4404
2026-01-06 01:35:43.85	11.80	15.46	-39.3	-41.4	22.1	6.06e-01	0	54	0	188219392	50	4516
2026-01-06 01:35:44.86	11.77	15.58	-39.1	-41.1	22.4	6.00e-01	0	54	0	190316544	50	4384
2026-01-06 01:35:45.87	11.74	15.70	-39.2	-41.3	22.2	6.04e-01	0	53	0	192413696	50	4481
2026-01-06 01:35:46.88	11.71	15.82	-39.2	-41.3	22.3	6.03e-01	0	54	0	193986560	50	4462
2026-01-06 01:35:47.90	11.68	15.95	-39.2	-41.3	22.3	6.02e-01	0	54	0	196083712	50	4467
2026-01-06 01:35:48.91	11.65	16.07	-39.1	-41.2	22.4	6.02e-01	0	54	0	198180864	50	4405
2026-01-06 01:35:49.92	11.62	16.19	-39.2	-41.3	22.3	6.01e-01	0	54	0	199753728	50	4467
2026-01-06 01:35:50.93	11.58	16.32	-39.2	-41.3	22.3	6.04e-01	0	54	0	201850880	50	4449
2026-01-06 01:35:51.94	11.55	16.44	-39.3	-41.4	22.2	6.04e-01	0	54	0	203423744	50	4524
2026-01-06 01:35:52.95	11.52	16.56	-39.2	-41.3	22.3	6.04e-01	0	54	0	205520896	50	4477
2026-01-06 01:35:53.96	11.49	16.69	-39.3	-41.5	22.2	6.02e-01	0	54	0	207618048	50	4547
2026-01-06 01:35:54.97	11.46	16.82	-39.2	-41.3	22.3	6.03e-01	0	54	0	209190912	50	4490
2026-01-06 01:35:55.98	11.42	16.94	-39.3	-41.4	22.3	6.02e-01	0	54	0	211288064	50	4503
2026-01-06 01:35:56.99	11.39	17.07	-39.2	-41.3	22.3	6.02e-01	0	54	0	212860928	50	4488
2026-01-06 01:35:58.00	11.36	17.20	-39.3	-41.3	22.3	6.03e-01	0	54	0	214958080	50	4491
2026-01-06 01:35:59.01	11.32	17.33	-39.2	-41.3	22.4	6.02e-01	0	54	0	217055232	50	4443
2026-01-06 01:36:00.01	11.29	17.46	-39.1	-41.2	22.5	6.05e-01	0	54	0	218628096	50	4406
2026-01-06 01:36:01.02	11.25	17.59	-39.1	-41.2	22.5	6.02e-01	0	54	0	220725248	50	4405
2026-01-06 01:36:02.03	11.22	17.72	-39.2	-41.3	22.4	6.02e-01	0	54	0	222298112	50	4443
2026-01-06 01:36:03.04	11.18	17.86	-39.0	-41.0	22.7	6.04e-01	0	54	0	224395264	50	4312
2026-01-06 01:36:04.05	11.15	17.99	-39.0	-41.0	22.7	6.04e-01	0	54	0	226492416	50	4317
2026-01-06 01:36:05.06	11.11	18.12	-39.0	-41.0	22.7	6.04e-01	0	54	0	228065280	50	4304
2026-01-06 01:36:06.07	11.08	18.26	-39.0	-41.0	22.7	6.06e-01	0	54	0	230162432	49	4569
2026-01-06 01:36:07.08	11.04	18.39	-39.0	-41.0	22.7	6.02e-01	0	54	0	231735296	49	4569
2026-01-06 01:36:08.09	11.00	18.53	-39.0	-41.0	22.7	6.03e-01	0	54	0	233832448	49	4592
2026-01-06 01:36:09.10	10.97	18.67	-39.0	-41.0	22.7	6.04e-01	0	54	0	235929600	49	4569
2026-01-06 01:36:10.11	10.93	18.81	-39.0	-41.0	22.7	6.03e-01	0	54	0	237502464	49	4588
2026-01-06 01:36:11.12	10.89	18.94	-39.1	-41.1	22.6	6.04e-01	0	54	0	239599616	49	4630
2026-01-06 01:36:12.13	10.85	19.08	-39.1	-41.2	22.5	6.03e-01	0	54	0	241172480	49	4658
2026-01-06 01:36:13.14	10.81	19.22	-39.3	-41.3	22.4	6.02e-01	0	54	0	243269632	49	4759
2026-01-06 01:36:14.15	10.77	19.37	-39.3	-41.4	22.4	6.02e-01	0	54	0	245366784	49	4776
2026-01-06 01:36:15.16	10.73	19.51	-39.3	-41.4	22.4	6.04e-01	0	54	0	246939648	49	4773
2026-01-06 01:36:16.17	10.69	19.65	-39.4	-41.5	22.3	6.03e-01	0	54	0	249036800	49	4822
2026-01-06 01:36:17.18	10.65	19.80	-39.4	-41.6	22.2	6.05e-01	0	54	0	251133952	49	4873
2026-01-06 01:36:18.19	10.61	19.94	-39.5	-41.6	22.2	6.04e-01	0	54	0	252706816	49	4922
2026-01-06 01:36:19.20	10.57	20.09	-39.6	-41.7	22.1	6.04e-01	0	54	0	254803968	49	4953
2026-01-06 01:36:20.21	10.53	20.23	-39.5	-41.6	22.2	6.05e-01	0	54	0	256376832	49	4908
2026-01-06 01:36:21.22	10.48	20.38	-39.5	-41.6	22.2	6.04e-01	0	54	0	258473984	49	4888
2026-01-06 01:36:22.23	10.44	20.53	-39.4	-41.5	22.3	6.04e-01	0	54	0	260571136	49	4844
2026-01-06 01:36:23.24	10.40	20.68	-39.4	-41.5	22.3	6.04e-01	0	54	0	262144000	49	4856
2026-01-06 01:36:24.25	10.35	20.83	-39.4	-41.5	22.3	6.02e-01	0	54	0	264241152	49	4828
2026-01-06 01:36:25.26	10.31	20.98	-39.4	-41.5	22.3	6.01e-01	0	54	0	266338304	49	4834
2026-01-06 01:36:26.27	10.26	21.14	-39.3	-41.4	22.4	6.04e-01	0	54	0	267911168	49	4782
2026-01-06 01:36:27.28	10.22	21.29	-39.4	-41.4	22.4	6.02e-01	0	54	0	270008320	49	4808
2026-01-06 01:36:28.29	10.17	21.45	-39.4	-41.5	22.3	6.02e-01	0	54	0	271581184	49	4869
2026-01-06 01:36:29.30	10.12	21.60	-39.4	-41.5	22.4	6.06e-01	0	54	0	273678336	49	4823
2026-01-06 01:36:30.31	10.08	21.76	-39.4	-41.5	22.4	6.03e-01	0	54	0	275775488	49	4831
2026-01-06 01:36:31.32	10.03	21.92	-39.4	-41.5	22.3	6.05e-01	0	54	0	277348352	49	4862
2026-01-06 01:36:32.33	9.98	22.08	-39.4	-41.5	22.3	6.04e-01	0	54	0	279445504	49	4861
2026-01-06 01:36:33.33	9.93	22.23	-39.4	-41.5	22.4	6.04e-01	0	54	0	281018368	49	4829
2026-01-06 01:36:34.34	9.88	22.39	-39.3	-41.4	22.5	6.02e-01	0	54	0	283115520	49	4762
2026-01-06 01:36:35.35	9.83	22.56	-39.4	-41.4	22.5	6.01e-01	0	54	0	285212672	49	4790
2026-01-06 01:36:36.36	9.78	22.72	-39.3	-41.3	22.5	6.03e-01	0	55	0	286785536	49	4755
2026-01-06 01:36:37.37	9.73	22.88	-39.3	-41.3	22.5	6.06e-01	0	54	0	288882688	49	4736
2026-01-06 01:36:38.38	9.68	23.05	-39.3	-41.3	22.6	6.03e-01	0	54	0	290455552	49	4716
2026-01-06 01:36:39.39	9.63	23.22	-39.2	-41.2	22.7	6.04e-01	0	54	0	292552704	49	4692
2026-01-06 01:36:40.40	9.57	23.38	-39.2	-41.1	22.7	6.04e-01	0	54	0	294649856	49	4651
2026-01-06 01:36:41.41	9.52	23.55	-39.2	-41.2	22.7	6.01e-01	0	54	0	296222720	49	4674
2026-01-06 01:36:42.42	9.47	23.72	-39.2	-41.3	22.6	6.05e-01	0	54	0	298319872	49	4711
2026-01-06 01:36:43.43	9.41	23.90	-39.2	-41.2	22.6	6.01e-01	0	54	0	299892736	49	4704
2026-01-06 01:36:44.44	9.35	24.07	-39.3	-41.4	22.5	6.04e-01	0	54	0	301989888	49	4764
2026-01-06 01:36:45.45	9.30	24.24	-39.2	-41.3	22.6	6.05e-01	0	55	0	304087040	49	4710
2026-01-06 01:36:46.46	9.24	24.42	-39.3	-41.3	22.5	6.01e-01	0	55	0	305659904	49	4744
2026-01-06 01:36:47.46	9.18	24.59	-39.3	-41.3	22.5	6.03e-01	0	54	0	307757056	49	4759
2026-01-06 01:36:48.47	9.13	24.77	-39.4	-41.4	22.5	6.01e-01	0	54	0	309329920	49	4776
2026-01-06 01:36:49.48	9.07	24.95	-39.4	-41.4	22.5	6.02e-01	0	55	0	311427072	49	4785
2026-01-06 01:36:50.49	9.01	25.13	-39.4	-41.4	22.5	6.05e-01	0	54	0	313524224	49	4794
2026-01-06 01:36:51.50	8.94	25.31	-39.3	-41.4	22.5	6.01e-01	0	55	0	315097088	49	4779
2026-01-06 01:36:52.51	8.88	25.49	-39.4	-41.5	22.5	6.02e-01	0	55	0	317194240	49	4819
2026-01-06 01:36:53.52	8.82	25.68	-39.3	-41.3	22.6	6.05e-01	0	54	0	319291392	49	4727
2026-01-06 01:36:54.53	8.76	25.86	-39.2	-41.2	22.7	6.03e-01	0	55	0	320864256	49	4683
2026-01-06 01:36:55.54	8.69	26.05	-39.2	-41.2	22.7	6.05e-01	0	54	0	322961408	49	4680
2026-01-06 01:36:56.55	8.63	26.24	-39.2	-41.2	22.7	6.02e-01	0	55	0	324534272	49	4677
2026-01-06 01:36:57.56	8.56	26.43	-39.2	-41.2	22.8	6.02e-01	0	55	0	326631424	49	4672
2026-01-06 01:36:58.57	8.50	26.62	-39.2	-41.2	22.8	6.03e-01	0	55	0	328728576	49	4663
2026-01-06 01:36:59.58	8.43	26.81	-39.2	-41.1	22.8	6.01e-01	0	54	0	330301440	49	4648
2026-01-06 01:37:00.59	8.36	27.00	-39.1	-41.1	22.9	6.01e-01	0	55	0	332398592	49	4609
2026-01-06 01:37:01.60	8.29	27.20	-39.1	-41.1	22.9	6.01e-01	0	55	0	334495744	49	4627
2026-01-06 01:37:02.61	8.22	27.40	-39.2	-41.2	22.8	6.03e-01	0	55	0	336068608	49	4673
2026-01-06 01:37:03.62	8.15	27.59	-39.2	-41.2	22.7	6.03e-01	0	55	0	338165760	49	4689
2026-01-06 01:37:04.62	8.08	27.79	-39.1	-41.1	22.9	6.05e-01	0	55	0	339738624	49	4618
2026-01-06 01:37:05.63	8.01	27.99	-39.0	-41.0	23.0	6.04e-01	0	55	0	341835776	49	4552
2026-01-06 01:37:06.64	7.93	28.20	-38.9	-40.8	23.1	6.02e-01	0	54	0	343932928	49	4486
2026-01-06 01:37:07.65	7.86	28.40	-38.9	-40.7	23.2	6.04e-01	0	55	0	345505792	49	4441
2026-01-06 01:37:08.66	7.78	28.61	-38.7	-40.6	23.3	6.04e-01	0	54	0	347602944	49	4374
2026-01-06 01:37:09.67	7.70	28.81	-38.7	-40.6	23.3	6.04e-01	0	55	0	349175808	49	4371
2026-01-06 01:37:10.68	7.62	29.02	-38.8	-40.6	23.3	6.02e-01	0	55	0	351272960	49	4387
2026-01-06 01:37:11.69	7.54	29.23	-38.8	-40.6	23.3	6.05e-01	0	55	0	353370112	49	4391
2026-01-06 01:37:12.70	7.46	29.45	-38.8	-40.7	23.2	6.03e-01	0	54	0	354942976	49	4419
2026-01-06 01:37:13.71	7.38	29.66	-38.8	-40.7	23.3	6.01e-01	0	55	0	357040128	49	4419
2026-01-06 01:37:14.72	7.30	29.88	-38.8	-40.7	23.3	6.03e-01	0	55	0	358612992	49	4421
2026-01-06 01:37:15.73	7.21	30.09	-38.8	-40.6	23.3	6.03e-01	0	55	0	360710144	49	4383
2026-01-06 01:37:16.74	7.13	30.31	-38.7	-40.5	23.5	6.04e-01	0	55	0	362807296	49	4317
2026-01-06 01:37:17.75	7.04	30.53	-38.5	-40.3	23.7	6.02e-01	0	55	0	364380160	49	4223
2026-01-06 01:37:18.76	6.95	30.76	-38.5	-40.3	23.7	6.05e-01	0	55	0	366477312	48	4445
2026-01-06 01:37:19.77	6.87	30.98	-38.5	-40.4	23.6	6.06e-01	0	55	0	368050176	48	4494
2026-01-06 01:37:20.78	6.77	31.21	-38.7	-40.5	23.4	6.04e-01	0	55	0	370147328	48	4594
2026-01-06 01:37:21.79	6.68	31.44	-38.9	-40.7	23.3	6.05e-01	0	55	0	372244480	48	4704
2026-01-06 01:37:22.80	6.59	31.67	-39.0	-40.9	23.1	6.02e-01	0	55	0	373817344	48	4806
2026-01-06 01:37:23.81	6.49	31.90	-39.0	-40.9	23.1	6.03e-01	0	55	0	375914496	48	4797
2026-01-06 01:37:24.82	6.40	32.13	-38.9	-40.8	23.2	6.04e-01	0	54	0	377487360	48	4737
2026-01-06 01:37:25.83	6.30	32.37	-38.8	-40.6	23.4	6.03e-01	0	55	0	379584512	48	4639
2026-01-06 01:37:26.84	6.20	32.60	-38.8	-40.6	23.4	6.01e-01	0	55	0	381681664	48	4640
2026-01-06 01:37:27.85	6.10	32.84	-38.9	-40.8	23.2	6.04e-01	0	55	0	383254528	48	4743
2026-01-06 01:37:28.86	6.00	33.09	-39.1	-41.0	23.1	6.05e-01	0	55	0	385351680	48	4829
2026-01-06 01:37:29.87	5.89	33.33	-39.1	-41.1	22.9	6.05e-01	0	55	0	387448832	48	4897
2026-01-06 01:37:30.88	5.79	33.57	-39.2	-41.1	22.9	6.02e-01	0	55	0	389021696	48	4916
2026-01-06 01:37:31.89	5.68	33.82	-39.2	-41.1	22.9	6.03e-01	0	55	0	391118848	48	4915
2026-01-06 01:37:32.90	5.57	34.07	-39.3	-41.3	22.8	6.03e-01	0	55	0	392691712	49	4751
2026-01-06 01:37:33.91	5.46	34.32	-39.6	-41.6	22.5	6.03e-01	0	55	0	394788864	49	4909
2026-01-06 01:37:34.92	5.35	34.58	-39.7	-41.8	22.3	6.03e-01	0	55	0	396886016	50	4742
2026-01-06 01:37:35.93	5.23	34.83	-39.8	-41.9	22.2	6.04e-01	0	55	0	398458880	50	4810
2026-01-06 01:37:36.94	5.11	35.09	-39.8	-41.9	22.2	6.02e-01	0	55	0	400556032	50	4809
2026-01-06 01:37:37.95	5.00	35.35	-39.8	-41.9	22.3	6.04e-01	0	55	0	402653184	50	4761
2026-01-06 01:37:38.96	4.87	35.61	-39.8	-41.9	22.3	6.01e-01	0	55	0	404226048	50	4760
2026-01-06 01:37:39.97	4.75	35.87	-40.0	-42.1	22.0	6.02e-01	0	55	0	406323200	50	4922
2026-01-06 01:37:40.98	4.63	36.14	-40.2	-42.4	21.7	6.05e-01	0	55	0	407896064	50	5070
2026-01-06 01:37:41.99	4.50	36.41	-40.4	-42.7	21.4	6.04e-01	0	55	0	409993216	51	4927
2026-01-06 01:37:43.00	4.37	36.68	-40.4	-42.8	21.4	6.03e-01	0	55	0	412090368	51	4990
2026-01-06 01:37:44.01	4.24	36.95	-40.5	-42.9	21.2	6.04e-01	0	55	0	413663232	51	5044
2026-01-06 01:37:45.02	4.10	37.23	-40.5	-42.9	21.3	6.03e-01	0	55	0	415760384	51	5060
2026-01-06 01:37:46.03	3.97	37.50	-40.7	-43.1	21.1	6.03e-01	0	55	0	417333248	51	5162
2026-01-06 01:37:47.04	3.83	37.78	-40.9	-43.4	20.8	6.03e-01	0	55	0	419430400	52	5049
2026-01-06 01:37:48.05	3.69	38.07	-41.1	-43.7	20.5	6.01e-01	0	55	0	421527552	52	5226
2026-01-06 01:37:49.06	3.54	38.35	-41.0	-43.6	20.5	6.03e-01	0	55	0	423100416	52	5193
2026-01-06 01:37:50.07	3.40	38.64	-41.0	-43.6	20.5	6.00e-01	0	55	0	425197568	52	5160
2026-01-06 01:37:51.08	3.25	38.93	-40.9	-43.4	20.7	6.01e-01	0	55	0	426770432	52	5085
2026-01-06 01:37:52.08	3.10	39.21	-40.9	-43.4	20.7	6.04e-01	0	55	0	428867584	52	5059
2026-01-06 01:37:53.10	2.94	39.51	-40.9	-43.4	20.7	6.04e-01	0	55	0	430964736	52	5052
2026-01-06 01:37:54.11	2.78	39.81	-41.0	-43.6	20.5	6.04e-01	0	55	0	432537600	52	5178
2026-01-06 01:37:55.12	2.62	40.11	-41.2	-43.9	20.3	6.04e-01	0	55	0	434634752	53	5062
2026-01-06 01:37:56.13	2.46	40.41	-41.0	-43.5	20.6	6.02e-01	0	55	0	436207616	53	4828
2026-01-06 01:37:57.14	2.29	40.71	-40.5	-42.9	21.2	6.03e-01	0	55	0	438304768	53	4500
2026-01-06 01:37:58.14	2.12	41.01	-40.6	-42.9	21.2	6.02e-01	0	55	0	440401920	53	4529
2026-01-06 01:37:59.15	1.95	41.32	-40.5	-42.9	21.3	6.02e-01	0	55	0	441974784	53	4509
2026-01-06 01:38:00.16	1.77	41.63	-40.3	-42.6	21.5	6.02e-01	0	55	0	444071936	52	4639
2026-01-06 01:38:01.17	1.59	41.95	-40.2	-42.5	21.7	6.05e-01	0	55	0	445644800	52	4558
2026-01-06 01:38:02.18	1.40	42.26	-40.4	-42.7	21.4	6.03e-01	0	55	0	447741952	52	4689
2026-01-06 01:38:03.19	1.21	42.58	-40.4	-42.7	21.4	6.03e-01	0	55	0	449839104	52	4674
2026-01-06 01:38:04.20	1.02	42.90	-40.3	-42.5	21.6	6.03e-01	0	55	0	451411968	52	4590
2026-01-06 01:38:05.21	0.82	43.22	-40.3	-42.5	21.6	6.04e-01	0	55	0	453509120	52	4598
2026-01-06 01:38:06.22	0.62	43.55	-40.1	-42.3	21.9	6.03e-01	0	55	0	455606272	52	4447
2026-01-06 01:38:07.23	0.42	43.88	-40.1	-42.3	21.9	6.03e-01	0	55	0	457179136	52	4449
2026-01-06 01:38:08.24	0.21	44.21	-40.1	-42.3	21.8	6.01e-01	0	55	0	459276288	52	4486
2026-01-06 01:38:09.25	359.99	44.54	-40.0	-42.1	22.0	6.04e-01	0	55	0	460849152	52	4386
2026-01-06 01:38:10.26	359.78	44.88	-39.9	-42.0	22.2	6.02e-01	0	55	0	462946304	51	4547
2026-01-06 01:38:11.27	359.55	45.22	-39.4	-41.4	22.8	6.03e-01	0	55	0	465043456	50	4499
2026-01-06 01:38:12.28	359.32	45.56	-39.5	-41.5	22.7	6.03e-01	0	55	0	466616320	50	4563
2026-01-06 01:38:13.29	359.09	45.90	-39.9	-42.0	22.2	6.03e-01	0	55	0	468713472	50	4818
2026-01-06 01:38:14.30	358.85	46.25	-39.8	-41.9	22.3	6.02e-01	0	55	0	470810624	50	4795
2026-01-06 01:38:15.31	358.61	46.60	-39.8	-41.8	22.4	6.03e-01	0	55	0	472383488	50	4754
2026-01-06 01:38:16.32	358.36	46.95	-39.6	-41.7	22.5	6.03e-01	0	55	0	474480640	50	4652
2026-01-06 01:38:17.33	358.10	47.30	-39.6	-41.6	22.6	6.02e-01	0	55	0	476053504	50	4636
2026-01-06 01:38:18.34	357.84	47.66	-39.8	-41.8	22.4	6.03e-01	0	55	0	478150656	50	4742
2026-01-06 01:38:19.35	357.57	48.02	-39.7	-41.7	22.4	6.04e-01	0	55	0	480247808	50	4688
2026-01-06 01:38:20.36	357.29	48.38	-39.7	-41.7	22.5	6.05e-01	0	55	0	481820672	50	4696
2026-01-06 01:38:21.37	357.01	48.74	-39.8	-41.8	22.3	6.04e-01	0	55	0	483917824	50	4757
2026-01-06 01:38:22.38	356.72	49.11	-39.5	-41.5	22.7	6.01e-01	0	55	0	485490688	50	4564
2026-01-06 01:38:23.39	356.43	49.48	-39.6	-41.6	22.7	6.01e-01	0	55	0	487587840	50	4608
2026-01-06 01:38:24.40	356.12	49.85	-40.0	-42.1	22.1	6.03e-01	0	55	0	489684992	50	4912
2026-01-06 01:38:25.41	355.81	50.22	-39.7	-41.8	22.4	6.02e-01	0	55	0	491257856	50	4731
2026-01-06 01:38:26.42	355.49	50.60	-39.5	-41.5	22.7	6.06e-01	0	55	0	493355008	50	4557
2026-01-06 01:38:27.42	355.17	50.97	-39.6	-41.6	22.6	6.04e-01	0	55	0	494927872	50	4650
2026-01-06 01:38:28.43	354.84	51.35	-39.7	-41.8	22.4	6.02e-01	0	55	0	497025024	50	4709
2026-01-06 01:38:29.44	354.49	51.73	-39.1	-41.0	23.2	6.03e-01	0	55	0	499122176	50	4301
2026-01-06 01:38:30.45	354.14	52.12	-38.6	-40.3	23.8	6.05e-01	0	55	0	500695040	49	4237
2026-01-06 01:38:31.46	353.78	52.50	-38.7	-40.5	23.7	6.02e-01	0	55	0	502792192	48	4555
2026-01-06 01:38:32.48	353.40	52.89	-38.9	-40.7	23.4	6.02e-01	0	55	0	504365056	48	4693
2026-01-06 01:38:33.49	353.02	53.28	-38.6	-40.4	23.8	6.04e-01	0	55	0	506462208	48	4502
2026-01-06 01:38:34.50	352.62	53.67	-38.6	-40.4	23.8	6.06e-01	0	55	0	508559360	48	4515
2026-01-06 01:38:35.51	352.22	54.07	-38.6	-40.4	23.7	6.02e-01	0	55	0	510132224	48	4533
2026-01-06 01:38:36.52	351.80	54.46	-38.7	-40.5	23.7	6.02e-01	0	55	0	512229376	48	4588
2026-01-06 01:38:37.53	351.37	54.86	-39.1	-41.1	23.1	6.02e-01	0	55	0	513802240	48	4880
2026-01-06 01:38:38.54	350.93	55.26	-38.7	-40.5	23.6	6.02e-01	0	55	0	515899392	48	4561
2026-01-06 01:38:39.55	350.48	55.66	-39.0	-40.8	23.3	6.04e-01	0	55	0	517996544	48	4741
2026-01-06 01:38:40.56	350.01	56.06	-39.2	-41.2	23.0	6.04e-01	0	55	0	519569408	49	4656
2026-01-06 01:38:41.57	349.53	56.46	-39.4	-41.3	22.9	6.03e-01	0	55	0	521666560	49	4739
2026-01-06 01:38:42.58	349.04	56.86	-39.3	-41.3	22.9	6.04e-01	0	55	0	523763712	49	4713
2026-01-06 01:38:43.58	348.53	57.26	-39.4	-41.4	22.8	6.06e-01	0	55	0	525336576	49	4795
2026-01-06 01:38:44.59	348.01	57.67	-39.6	-41.7	22.5	6.04e-01	0	55	0	527433728	49	4947
2026-01-06 01:38:45.60	347.47	58.07	-39.8	-41.9	22.4	6.03e-01	0	55	0	529006592	50	4767
2026-01-06 01:38:46.61	346.91	58.48	-39.9	-42.0	22.2	6.02e-01	0	55	0	531103744	50	4828
2026-01-06 01:38:47.62	346.33	58.89	-39.6	-41.6	22.7	6.03e-01	0	55	0	533200896	50	4613
2026-01-06 01:38:48.63	345.74	59.29	-40.1	-42.2	22.0	6.03e-01	0	55	0	534773760	50	4960
2026-01-06 01:38:49.64	345.13	59.70	-40.1	-42.3	21.8	6.04e-01	0	55	0	536870912	51	4718
2026-01-06 01:38:50.65	344.49	60.11	-40.0	-42.1	22.1	6.04e-01	0	55	0	538968064	51	4649
2026-01-06 01:38:51.66	343.84	60.51	-40.3	-42.5	21.7	6.04e-01	0	55	0	540540928	51	4857
2026-01-06 01:38:52.67	343.16	60.91	-40.6	-43.0	21.2	6.03e-01	0	55	0	542638080	52	4826
2026-01-06 01:38:53.68	342.47	61.32	-40.2	-42.4	21.7	6.02e-01	0	55	0	544210944	52	4526
2026-01-06 01:38:54.69	341.75	61.72	-40.4	-42.7	21.5	6.04e-01	0	55	0	546308096	52	4681
2026-01-06 01:38:55.70	341.00	62.12	-40.8	-43.3	20.9	6.04e-01	0	55	0	548405248	52	5009
2026-01-06 01:38:56.71	340.23	62.52	-40.8	-43.2	20.9	6.05e-01	0	55	0	549978112	52	4971
2026-01-06 01:38:57.72	339.44	62.92	-41.0	-43.5	20.6	6.04e-01	0	56	0	552075264	52	5141
2026-01-06 01:38:58.73	338.62	63.31	-40.9	-43.4	20.7	6.04e-01	0	55	0	553648128	52	5093
2026-01-06 01:38:59.74	337.77	63.70	-41.5	-44.3	19.9	6.02e-01	0	55	0	555745280	53	5281
2026-01-06 01:39:00.74	336.90	64.09	-41.2	-43.8	20.4	6.04e-01	0	55	0	557842432	53	5002
2026-01-06 01:39:01.75	335.99	64.47	-41.5	-44.3	19.8	6.04e-01	0	55	0	559415296	53	5317
2026-01-06 01:39:02.76	335.05	64.85	-42.0	-45.1	19.1	6.00e-01	0	55	0	561512448	54	5469
2026-01-06 01:39:03.77	334.07	65.23	-41.3	-44.0	20.1	6.05e-01	0	55	0	563085312	54	4835
2026-01-06 01:39:04.78	333.07	65.60	-41.9	-45.0	19.3	6.04e-01	0	55	0	565182464	54	5416
2026-01-06 01:39:05.79	332.03	65.97	-42.4	-45.7	18.4	6.02e-01	0	56	0	567279616	55	5548
2026-01-06 01:39:06.80	330.95	66.33	-42.0	-45.0	19.2	6.02e-01	0	55	0	568852480	55	5121
2026-01-06 01:39:07.81	329.84	66.69	-42.4	-45.8	18.4	6.03e-01	0	55	0	570949632	55	5594
2026-01-06 01:39:08.82	328.69	67.03	-42.9	-46.5	17.8	6.03e-01	0	55	0	572522496	56	5782
2026-01-06 01:39:09.83	327.50	67.37	-42.3	-45.4	18.8	6.05e-01	0	55	0	574619648	56	5091
2026-01-06 01:39:10.84	326.27	67.71	-42.7	-46.2	18.1	6.03e-01	0	55	0	576716800	56	5535
2026-01-06 01:39:11.85	325.00	68.03	-42.7	-46.2	18.2	6.03e-01	0	55	0	578289664	56	5542
2026-01-06 01:39:12.86	323.69	68.35	-42.3	-45.5	18.7	6.03e-01	0	55	0	580386816	56	5109
2026-01-06 01:39:13.87	322.34	68.65	-42.4	-45.6	18.7	6.02e-01	0	55	0	581959680	56	5218
2026-01-06 01:39:14.88	320.95	68.95	-42.7	-46.2	18.1	6.04e-01	0	55	0	584056832	56	5538
2026-01-06 01:39:15.89	319.51	69.23	-42.1	-45.2	19.0	6.02e-01	0	56	0	586153984	56	4959
2026-01-06 01:39:16.90	318.03	69.50	-42.5	-45.9	18.4	6.01e-01	0	56	0	587726848	56	5357
2026-01-06 01:39:17.91	316.51	69.77	-42.3	-45.5	18.7	6.04e-01	0	56	0	589824000	56	5142
2026-01-06 01:39:18.92	314.95	70.01	-42.5	-45.8	18.4	6.03e-01	0	56	0	591921152	56	5298
2026-01-06 01:39:19.93	313.35	70.25	-41.9	-44.8	19.4	6.03e-01	0	55	0	593494016	55	5013
2026-01-06 01:39:20.94	311.70	70.47	-42.7	-46.3	17.9	6.03e-01	0	56	0	595591168	55	5954
2026-01-06 01:39:21.95	310.02	70.67	-41.8	-44.8	19.3	6.05e-01	0	55	0	597164032	55	5009
2026-01-06 01:39:22.96	308.30	70.86	-42.5	-45.9	18.4	6.06e-01	0	56	0	599261184	55	5676
2026-01-06 01:39:23.97	306.55	71.03	-42.5	-45.9	18.3	6.01e-01	0	56	0	601358336	56	5363
2026-01-06 01:39:24.98	304.76	71.19	-42.4	-45.6	18.6	6.04e-01	0	55	0	602931200	56	5206
2026-01-06 01:39:25.99	302.94	71.33	-42.5	-45.9	18.2	6.05e-01	0	56	0	605028352	56	5374
2026-01-06 01:39:27.00	301.10	71.45	-42.2	-45.2	19.0	6.04e-01	0	56	0	607125504	56	4980
2026-01-06 01:39:28.01	299.23	71.55	-42.1	-45.2	18.9	6.04e-01	0	56	0	608698368	56	4978
2026-01-06 01:39:29.02	297.34	71.63	-42.0	-45.1	19.1	6.04e-01	0	56	0	610795520	54	5468
2026-01-06 01:39:30.03	295.44	71.70	-42.3	-45.6	18.5	6.02e-01	0	56	0	612368384	55	5502
2026-01-06 01:39:31.04	293.52	71.75	-41.8	-44.7	19.3	6.03e-01	0	56	0	614465536	55	4964
2026-01-06 01:39:32.05	291.60	71.77	-41.8	-44.8	19.4	6.02e-01	0	56	0	616562688	55	5000
2026-01-06 01:39:33.06	289.67	71.78	-42.2	-45.5	18.7	6.03e-01	0	55	0	618135552	55	5423
2026-01-06 01:39:34.07	287.74	71.77	-42.4	-45.8	18.3	6.00e-01	0	55	0	620232704	55	5656
2026-01-06 01:39:35.08	285.82	71.73	-41.9	-45.0	19.1	6.03e-01	0	56	0	621805568	55	5110
2026-01-06 01:39:36.09	283.90	71.68	-42.3	-45.6	18.5	6.03e-01	0	56	0	623902720	55	5520
2026-01-06 01:39:37.10	282.00	71.61	-42.5	-45.8	18.3	6.01e-01	0	56	0	625999872	56	5330
2026-01-06 01:39:38.11	280.12	71.52	-41.9	-44.9	19.3	6.04e-01	0	56	0	627572736	55	5057
2026-01-06 01:39:39.12	278.26	71.41	-42.9	-46.5	17.7	6.03e-01	0	55	0	629669888	56	5784
2026-01-06 01:39:40.13	276.42	71.29	-42.3	-45.5	18.7	6.01e-01	0	56	0	631242752	56	5147
2026-01-06 01:39:41.14	274.61	71.14	-42.2	-45.4	18.8	6.05e-01	0	56	0	633339904	56	5076
2026-01-06 01:39:42.15	272.83	70.98	-42.3	-45.5	18.6	6.02e-01	0	56	0	635437056	56	5139
2026-01-06 01:39:43.16	271.09	70.80	-42.8	-46.4	17.9	6.05e-01	0	56	0	637009920	56	5671
2026-01-06 01:39:44.17	269.38	70.61	-41.9	-44.9	19.3	6.04e-01	0	56	0	639107072	55	5055
2026-01-06 01:39:45.18	267.71	70.40	-42.4	-45.7	18.5	6.03e-01	0	56	0	640679936	55	5579
2026-01-06 01:39:46.19	266.07	70.18	-42.7	-46.3	17.9	6.05e-01	0	56	0	642777088	57	5288
2026-01-06 01:39:47.20	264.48	69.94	-42.4	-45.7	18.4	6.03e-01	0	56	0	644874240	56	5273
2026-01-06 01:39:48.21	262.93	69.69	-43.0	-46.8	17.5	6.04e-01	0	56	0	646447104	56	5985
2026-01-06 01:39:49.22	261.42	69.42	-43.3	-47.4	16.9	6.05e-01	0	56	0	648544256	57	6021
2026-01-06 01:39:50.22	259.97	69.15	-43.0	-46.8	17.3	6.03e-01	0	56	0	650117120	57	5612
2026-01-06 01:39:51.23	258.54	68.86	-43.0	-46.7	17.6	6.03e-01	0	56	0	652214272	57	5548
2026-01-06 01:39:52.24	257.16	68.56	-43.3	-47.3	16.9	6.03e-01	0	56	0	654311424	57	5955
2026-01-06 01:39:53.25	255.82	68.25	-43.1	-46.9	17.2	6.03e-01	0	56	0	655884288	57	5706
2026-01-06 01:39:54.26	254.52	67.93	-42.9	-46.6	17.7	6.01e-01	0	56	0	657981440	57	5469
2026-01-06 01:39:55.27	253.26	67.60	-43.0	-46.8	17.5	6.02e-01	0	56	0	660078592	57	5607
2026-01-06 01:39:56.28	252.04	67.27	-43.1	-46.9	17.4	6.03e-01	0	56	0	661651456	57	5657
2026-01-06 01:39:57.29	250.87	66.93	-42.9	-46.6	17.7	6.03e-01	0	56	0	663748608	57	5475
2026-01-06 01:39:58.30	249.72	66.57	-43.2	-47.1	17.2	6.03e-01	0	56	0	665321472	57	5808
2026-01-06 01:39:59.31	248.62	66.22	-42.9	-46.5	17.7	6.03e-01	0	56	0	667418624	57	5451
2026-01-06 01:40:00.32	247.55	65.85	-42.5	-45.7	18.7	6.06e-01	0	56	0	669515776	56	5247
2026-01-06 01:40:01.33	246.52	65.48	-43.2	-47.2	17.0	6.04e-01	0	55	0	671088640	57	5906
2026-01-06 01:40:02.34	245.53	65.11	-42.5	-45.8	18.5	6.04e-01	0	56	0	673185792	57	5021
2026-01-06 01:40:03.35	244.56	64.73	-42.6	-46.0	18.2	6.03e-01	0	56	0	675282944	57	5151
2026-01-06 01:40:04.36	243.63	64.35	-42.2	-45.2	19.0	6.06e-01	0	56	0	676855808	56	4979
2026-01-06 01:40:05.37	242.73	63.96	-42.6	-46.0	18.3	6.01e-01	0	56	0	678952960	56	5453
2026-01-06 01:40:06.38	241.86	63.57	-42.6	-46.1	18.1	6.02e-01	0	56	0	680525824	56	5509
2026-01-06 01:40:07.39	241.01	63.18	-41.6	-44.4	19.7	6.01e-01	0	56	0	682622976	55	4802
2026-01-06 01:40:08.39	240.21	62.79	-41.6	-44.4	19.7	6.04e-01	0	56	0	684720128	55	4803
2026-01-06 01:40:09.41	239.41	62.38	-42.0	-45.0	19.2	6.04e-01	0	56	0	686292992	55	5136
2026-01-06 01:40:10.41	238.66	61.99	-41.7	-44.6	19.4	6.01e-01	0	56	0	688390144	55	4920
2026-01-06 01:40:11.43	237.91	61.58	-41.5	-44.2	20.0	6.02e-01	0	56	0	689963008	54	4965
2026-01-06 01:40:12.43	237.20	61.18	-41.5	-44.3	19.9	6.05e-01	0	56	0	692060160	54	5010
2026-01-06 01:40:13.45	236.51	60.77	-41.9	-44.9	19.3	6.03e-01	0	56	0	694157312	54	5383
2026-01-06 01:40:14.45	235.84	60.37	-41.3	-44.0	20.1	6.03e-01	0	56	0	695730176	54	4860
2026-01-06 01:40:15.46	235.20	59.96	-40.8	-43.2	20.9	6.04e-01	0	56	0	697827328	53	4689
2026-01-06 01:40:16.47	234.57	59.56	-40.6	-42.9	21.2	6.04e-01	0	56	0	699400192	53	4534
2026-01-06 01:40:17.49	233.95	59.14	-40.8	-43.3	20.9	6.01e-01	0	56	0	701497344	53	4748
2026-01-06 01:40:18.50	233.37	58.74	-40.8	-43.2	20.9	6.02e-01	0	56	0	703594496	53	4703
2026-01-06 01:40:19.51	232.79	58.33	-40.0	-42.2	21.9	6.02e-01	0	56	0	705167360	52	4399
2026-01-06 01:40:20.52	232.24	57.92	-40.0	-42.1	22.0	6.05e-01	0	56	0	707264512	51	4646
2026-01-06 01:40:21.53	231.70	57.52	-40.1	-42.3	22.0	6.02e-01	0	56	0	708837376	51	4706
2026-01-06 01:40:22.54	231.18	57.11	-39.7	-41.7	22.4	6.00e-01	0	56	0	710934528	51	4436
2026-01-06 01:40:23.55	230.68	56.70	-39.9	-42.0	22.1	6.05e-01	0	55	0	713031680	51	4584
2026-01-06 01:40:24.56	230.19	56.30	-39.4	-41.4	22.8	6.01e-01	0	56	0	714604544	50	4522
2026-01-06 01:40:25.57	229.71	55.90	-39.0	-40.9	23.3	6.05e-01	0	56	0	716701696	49	4506
2026-01-06 01:40:26.58	229.25	55.50	-39.0	-40.9	23.2	6.03e-01	0	56	0	718274560	49	4537
2026-01-06 01:40:27.59	228.80	55.09	-39.2	-41.1	23.1	6.05e-01	0	55	0	720371712	49	4644
2026-01-06 01:40:28.60	228.36	54.70	-38.8	-40.7	23.4	6.02e-01	0	56	0	722468864	49	4419
2026-01-06 01:40:29.61	227.94	54.30	-38.5	-40.2	23.9	6.04e-01	0	56	0	724041728	48	4420
2026-01-06 01:40:30.62	227.52	53.90	-38.6	-40.4	23.8	6.04e-01	0	56	0	726138880	48	4502
2026-01-06 01:40:31.63	227.12	53.51	-38.6	-40.5	23.7	6.03e-01	0	56	0	728236032	48	4559
2026-01-06 01:40:32.64	226.73	53.12	-38.8	-40.6	23.5	6.03e-01	0	56	0	729808896	48	4628
2026-01-06 01:40:33.65	226.35	52.72	-38.7	-40.5	23.6	6.03e-01	0	56	0	731906048	48	4577
2026-01-06 01:40:34.66	225.98	52.34	-38.6	-40.5	23.6	6.06e-01	0	56	0	733478912	48	4556
2026-01-06 01:40:35.67	225.62	51.95	-38.3	-40.0	24.1	6.03e-01	0	56	0	735576064	48	4308
2026-01-06 01:40:36.68	225.27	51.56	-38.7	-40.5	23.7	6.03e-01	0	56	0	737673216	48	4580
2026-01-06 01:40:37.69	224.93	51.18	-38.9	-40.8	23.5	6.03e-01	0	56	0	739246080	48	4718
2026-01-06 01:40:38.69	224.59	50.81	-39.3	-41.3	22.9	6.02e-01	0	56	0	741343232	49	4738
2026-01-06 01:40:39.70	224.27	50.43	-39.2	-41.2	22.9	6.02e-01	0	56	0	743440384	49	4665
2026-01-06 01:40:40.72	223.95	50.05	-38.9	-40.8	23.3	6.06e-01	0	56	0	745013248	49	4479
2026-01-06 01:40:41.73	223.64	49.67	-39.1	-41.0	23.2	6.02e-01	0	56	0	747110400	49	4559
2026-01-06 01:40:42.73	223.34	49.31	-39.0	-40.9	23.3	6.02e-01	0	56	0	748683264	49	4516
2026-01-06 01:40:43.75	223.05	48.93	-39.2	-41.2	23.0	6.05e-01	0	56	0	750780416	49	4656
2026-01-06 01:40:44.76	222.76	48.57	-39.5	-41.5	22.6	6.03e-01	0	56	0	752877568	49	4868
2026-01-06 01:40:45.77	222.48	48.20	-39.6	-41.6	22.5	6.03e-01	0	56	0	754450432	49	4926
2026-01-06 01:40:46.77	222.21	47.84	-39.5	-41.5	22.6	6.03e-01	0	56	0	756547584	49	4852
2026-01-06 01:40:47.78	221.94	47.49	-39.2	-41.1	23.0	6.02e-01	0	56	0	758120448	49	4609
2026-01-06 01:40:48.79	221.68	47.13	-39.1	-41.0	23.2	6.02e-01	0	56	0	760217600	49	4557
2026-01-06 01:40:49.80	221.43	46.77	-39.2	-41.2	23.0	6.02e-01	0	56	0	762314752	49	4656
2026-01-06 01:40:50.81	221.18	46.42	-39.2	-41.2	23.0	6.04e-01	0	56	0	763887616	49	4652
2026-01-06 01:40:51.82	220.93	46.07	-39.4	-41.4	22.7	6.03e-01	0	56	0	765984768	49	4806
2026-01-06 01:40:52.83	220.70	45.73	-39.6	-41.7	22.5	6.02e-01	0	56	0	767557632	49	4978
2026-01-06 01:40:53.84	220.46	45.38	-39.5	-41.5	22.7	6.03e-01	0	56	0	769654784	49	4831
2026-01-06 01:40:54.85	220.24	45.04	-39.5	-41.5	22.6	6.04e-01	0	56	0	771751936	49	4841
2026-01-06 01:40:55.86	220.01	44.70	-39.4	-41.5	22.7	6.01e-01	0	56	0	773324800	49	4819
2026-01-06 01:40:56.87	219.79	44.36	-39.2	-41.1	23.0	6.02e-01	0	56	0	775421952	49	4624
2026-01-06 01:40:57.88	219.58	44.03	-39.2	-41.1	23.0	6.05e-01	0	56	0	776994816	49	4650
2026-01-06 01:40:58.89	219.37	43.70	-39.4	-41.3	22.8	6.05e-01	0	56	0	779091968	49	4755
2026-01-06 01:40:59.90	219.17	43.37	-39.6	-41.7	22.5	6.02e-01	0	56	0	781189120	49	4932
2026-01-06 01:41:00.91	218.97	43.04	-39.8	-41.9	22.3	6.05e-01	0	56	0	782761984	50	4814
2026-01-06 01:41:01.92	218.77	42.72	-39.8	-41.9	22.2	6.03e-01	0	56	0	784859136	50	4810
2026-01-06 01:41:02.93	218.58	42.40	-39.8	-41.8	22.3	6.02e-01	0	56	0	786432000	50	4759
2026-01-06 01:41:03.94	218.39	42.08	-39.7	-41.8	22.4	6.02e-01	0	56	0	788529152	50	4739
2026-01-06 01:41:04.95	218.21	41.76	-39.9	-42.0	22.2	6.03e-01	0	56	0	790626304	50	4838
2026-01-06 01:41:05.96	218.03	41.45	-40.1	-42.3	21.9	6.05e-01	0	56	0	792199168	50	4989
2026-01-06 01:41:06.97	217.85	41.14	-40.1	-42.3	21.9	6.03e-01	0	56	0	794296320	50	4996
2026-01-06 01:41:07.98	217.68	40.83	-40.3	-42.5	21.7	6.03e-01	0	56	0	796393472	51	4837
2026-01-06 01:41:08.99	217.51	40.52	-40.6	-43.0	21.2	6.03e-01	0	56	0	797966336	51	5120
2026-01-06 01:41:10.00	217.34	40.22	-40.6	-43.0	21.2	6.04e-01	0	56	0	800063488	51	5146
2026-01-06 01:41:11.00	217.18	39.92	-40.6	-42.9	21.3	6.04e-01	0	56	0	801636352	51	5096
2026-01-06 01:41:12.01	217.02	39.62	-40.7	-43.1	21.2	6.01e-01	0	56	0	803733504	51	5167
2026-01-06 01:41:13.02	216.86	39.33	-40.8	-43.2	20.9	6.03e-01	0	56	0	805830656	52	4975
2026-01-06 01:41:14.03	216.71	39.03	-40.8	-43.2	20.9	6.05e-01	0	56	0	807403520	52	4983
2026-01-06 01:41:15.04	216.55	38.74	-40.6	-43.0	21.1	6.03e-01	0	56	0	809500672	52	4863
2026-01-06 01:41:16.05	216.41	38.45	-40.4	-42.8	21.4	6.01e-01	0	56	0	811597824	52	4712
2026-01-06 01:41:17.06	216.26	38.17	-40.4	-42.7	21.4	6.03e-01	0	56	0	813170688	52	4674
2026-01-06 01:41:18.07	216.12	37.88	-40.6	-42.9	21.2	6.03e-01	0	56	0	815267840	52	4798
2026-01-06 01:41:19.08	215.97	37.60	-40.7	-43.1	21.0	6.03e-01	0	56	0	816840704	52	4887
2026-01-06 01:41:20.09	215.84	37.32	-40.7	-43.1	21.0	6.05e-01	0	56	0	818937856	52	4896
2026-01-06 01:41:21.09	215.70	37.04	-40.6	-43.0	21.1	6.03e-01	0	56	0	821035008	52	4854
2026-01-06 01:41:22.11	215.57	36.77	-40.2	-42.5	21.6	6.02e-01	0	56	0	822607872	52	4572
2026-01-06 01:41:23.12	215.43	36.49	-40.2	-42.5	21.6	6.02e-01	0	56	0	824705024	52	4574
2026-01-06 01:41:24.13	215.31	36.22	-40.3	-42.6	21.5	6.03e-01	0	56	0	826277888	52	4609
2026-01-06 01:41:25.14	215.18	35.95	-40.1	-42.4	21.7	6.03e-01	0	56	0	828375040	52	4509
2026-01-06 01:41:26.15	215.05	35.69	-39.9	-42.1	22.0	6.02e-01	0	56	0	830472192	51	4605
2026-01-06 01:41:27.16	214.93	35.42	-39.8	-41.9	22.2	6.04e-01	0	56	0	832045056	51	4544
2026-01-06 01:41:28.17	214.81	35.16	-39.8	-41.9	22.3	6.05e-01	0	56	0	834142208	51	4494
2026-01-06 01:41:29.17	214.69	34.90	-39.8	-41.9	22.2	6.04e-01	0	56	0	835715072	51	4539
2026-01-06 01:41:30.18	214.58	34.64	-39.8	-42.0	22.2	6.03e-01	0	56	0	837812224	51	4552
2026-01-06 01:41:31.19	214.46	34.39	-39.7	-41.8	22.3	6.05e-01	0	56	0	839909376	51	4493
2026-01-06 01:41:32.20	214.35	34.14	-39.6	-41.7	22.4	6.03e-01	0	56	0	841482240	51	4398
2026-01-06 01:41:33.21	214.24	33.88	-39.4	-41.4	22.8	6.04e-01	0	56	0	843579392	50	4494
2026-01-06 01:41:34.22	214.13	33.63	-39.3	-41.3	22.8	6.03e-01	0	56	0	845152256	50	4463
2026-01-06 01:41:35.23	214.02	33.39	-39.3	-41.3	22.8	6.01e-01	0	56	0	847249408	50	4475
2026-01-06 01:41:36.24	213.92	33.14	-39.2	-41.2	22.9	6.03e-01	0	56	0	849346560	50	4419
2026-01-06 01:41:37.25	213.81	32.90	-39.2	-41.1	23.0	6.03e-01	0	56	0	850919424	50	4381
2026-01-06 01:41:38.26	213.71	32.66	-39.1	-41.0	23.1	6.04e-01	0	56	0	853016576	50	4317
2026-01-06 01:41:39.27	213.61	32.42	-39.0	-41.0	23.2	6.03e-01	0	56	0	854589440	50	4293
2026-01-06 01:41:40.28	213.51	32.18	-39.1	-41.1	23.0	6.04e-01	0	56	0	856686592	50	4353
2026-01-06 01:41:41.29	213.41	31.94	-39.2	-41.1	22.9	6.04e-01	0	56	0	858783744	50	4386
2026-01-06 01:41:42.30	213.31	31.71	-39.0	-40.9	23.1	6.04e-01	0	56	0	860356608	49	4512
2026-01-06 01:41:43.31	213.22	31.48	-38.7	-40.6	23.4	6.00e-01	0	56	0	862453760	49	4356
2026-01-06 01:41:44.32	213.13	31.25	-38.7	-40.5	23.6	6.03e-01	0	56	0	864550912	49	4316
2026-01-06 01:41:45.33	213.03	31.02	-38.7	-40.5	23.5	6.03e-01	0	56	0	866123776	49	4322
2026-01-06 01:41:46.34	212.94	30.79	-38.5	-40.3	23.7	6.02e-01	0	56	0	868220928	49	4234
2026-01-06 01:41:47.35	212.85	30.57	-38.5	-40.3	23.7	6.02e-01	0	56	0	869793792	49	4216
2026-01-06 01:41:48.36	212.76	30.34	-38.6	-40.4	23.7	6.03e-01	0	56	0	871890944	49	4254
2026-01-06 01:41:49.37	212.68	30.12	-38.7	-40.5	23.5	6.04e-01	0	56	0	873988096	49	4338
2026-01-06 01:41:50.37	212.59	29.91	-38.7	-40.5	23.5	6.05e-01	0	56	0	875560960	49	4314
2026-01-06 01:41:51.38	212.51	29.69	-38.7	-40.6	23.5	6.04e-01	0	56	0	877658112	49	4362
2026-01-06 01:41:52.39	212.43	29.47	-38.8	-40.7	23.4	6.03e-01	0	56	0	879755264	49	4424
2026-01-06 01:41:53.41	212.34	29.26	-39.0	-40.9	23.2	6.03e-01	0	56	0	881328128	49	4516
2026-01-06 01:41:54.41	212.26	29.05	-39.0	-40.9	23.2	6.02e-01	0	56	0	883425280	49	4526
2026-01-06 01:41:55.42	212.18	28.83	-39.0	-41.0	23.1	6.03e-01	0	56	0	884998144	49	4556
2026-01-06 01:41:56.43	212.10	28.62	-39.1	-41.0	23.0	6.04e-01	0	56	0	887095296	49	4572
2026-01-06 01:41:57.44	212.03	28.42	-39.1	-41.1	23.0	6.01e-01	0	56	0	889192448	49	4604
2026-01-06 01:41:58.45	211.95	28.21	-39.2	-41.2	22.9	6.04e-01	0	56	0	890765312	49	4660
2026-01-06 01:41:59.46	211.88	28.01	-39.2	-41.2	22.9	6.06e-01	0	56	0	892862464	49	4664
2026-01-06 01:42:00.47	211.80	27.80	-39.2	-41.2	22.9	6.03e-01	0	56	0	894435328	49	4670
2026-01-06 01:42:01.48	211.73	27.60	-39.3	-41.3	22.8	6.04e-01	0	56	0	896532480	49	4717
2026-01-06 01:42:02.49	211.66	27.40	-39.3	-41.2	22.8	6.01e-01	0	56	0	898629632	49	4702
2026-01-06 01:42:03.50	211.58	27.20	-39.2	-41.2	22.8	6.03e-01	0	56	0	900202496	49	4698
2026-01-06 01:42:04.51	211.51	27.01	-39.2	-41.2	22.9	6.03e-01	0	56	0	902299648	49	4656
2026-01-06 01:42:05.52	211.44	26.81	-39.2	-41.1	22.9	6.03e-01	0	55	0	903872512	49	4646
2026-01-06 01:42:06.53	211.38	26.62	-39.2	-41.2	22.8	6.02e-01	0	56	0	905969664	49	4680
2026-01-06 01:42:07.55	211.31	26.42	-39.3	-41.3	22.7	6.03e-01	0	56	0	908066816	49	4721
2026-01-06 01:42:08.56	211.24	26.23	-39.4	-41.4	22.6	6.01e-01	0	56	0	909639680	49	4771
2026-01-06 01:42:09.57	211.17	26.04	-39.4	-41.4	22.6	6.03e-01	0	56	0	911736832	49	4811
2026-01-06 01:42:10.57	211.11	25.85	-39.5	-41.6	22.4	6.01e-01	0	56	0	913309696	49	4882
2026-01-06 01:42:11.58	211.05	25.67	-39.5	-41.6	22.5	6.02e-01	0	56	0	915406848	49	4874
2026-01-06 01:42:12.60	210.98	25.48	-39.5	-41.6	22.4	6.03e-01	0	56	0	917504000	49	4878
2026-01-06 01:42:13.61	210.92	25.30	-39.5	-41.5	22.5	6.06e-01	0	56	0	919076864	49	4848
2026-01-06 01:42:14.62	210.86	25.11	-39.4	-41.4	22.6	6.03e-01	0	56	0	921174016	49	4801
2026-01-06 01:42:15.63	210.80	24.93	-39.3	-41.4	22.6	6.04e-01	0	55	0	922746880	49	4761
2026-01-06 01:42:16.64	210.74	24.75	-39.3	-41.3	22.7	6.03e-01	0	56	0	924844032	49	4756
2026-01-06 01:42:17.64	210.68	24.57	-39.3	-41.3	22.7	6.04e-01	0	56	0	926941184	49	4732
2026-01-06 01:42:18.65	210.62	24.40	-39.4	-41.5	22.6	6.04e-01	0	56	0	928514048	49	4817
2026-01-06 01:42:19.66	210.56	24.22	-39.5	-41.5	22.5	6.03e-01	0	56	0	930611200	49	4856
2026-01-06 01:42:20.67	210.50	24.04	-39.6	-41.7	22.3	6.04e-01	0	56	0	932708352	49	4962
2026-01-06 01:42:21.68	210.44	23.87	-39.6	-41.7	22.3	6.02e-01	0	56	0	934281216	49	4974
2026-01-06 01:42:22.69	210.39	23.70	-39.6	-41.6	22.4	6.03e-01	0	56	0	936378368	49	4920
2026-01-06 01:42:23.70	210.33	23.53	-39.7	-41.8	22.2	6.05e-01	0	56	0	937951232	49	5001
2026-01-06 01:42:24.71	210.28	23.36	-39.6	-41.7	22.3	6.02e-01	0	56	0	940048384	49	4970
2026-01-06 01:42:25.72	210.22	23.19	-39.6	-41.7	22.3	6.01e-01	0	56	0	942145536	49	4934
2026-01-06 01:42:26.73	210.17	23.02	-39.6	-41.7	22.3	6.02e-01	0	56	0	943718400	49	4939
2026-01-06 01:42:27.74	210.12	22.85	-39.6	-41.7	22.3	6.02e-01	0	56	0	945815552	49	4954
2026-01-06 01:42:28.75	210.07	22.69	-39.6	-41.6	22.4	6.03e-01	0	56	0	947388416	49	4908
2026-01-06 01:42:29.76	210.01	22.52	-39.5	-41.6	22.3	6.03e-01	0	56	0	949485568	49	4892
2026-01-06 01:42:30.77	209.96	22.36	-39.5	-41.6	22.4	6.03e-01	0	56	0	951582720	49	4890
2026-01-06 01:42:31.78	209.91	22.20	-39.6	-41.7	22.3	6.03e-01	0	56	0	953155584	49	4943
2026-01-06 01:42:32.79	209.86	22.03	-39.6	-41.8	22.2	6.04e-01	0	56	0	955252736	49	4985
2026-01-06 01:42:33.80	209.81	21.87	-39.7	-41.8	22.1	6.04e-01	0	56	0	957349888	49	5028
2026-01-06 01:42:34.81	209.76	21.72	-39.7	-41.8	22.1	6.02e-01	0	56	0	958922752	50	4746
2026-01-06 01:42:35.81	209.72	21.56	-39.7	-41.9	22.1	6.04e-01	0	56	0	961019904	50	4765
2026-01-06 01:42:36.82	209.67	21.40	-39.6	-41.8	22.1	6.04e-01	0	56	0	962592768	50	4713
2026-01-06 01:42:37.83	209.62	21.25	-39.7	-41.8	22.2	6.03e-01	0	56	0	964689920	50	4738
2026-01-06 01:42:38.84	209.58	21.09	-39.7	-41.8	22.1	6.02e-01	0	56	0	966787072	50	4733
2026-01-06 01:42:39.85	209.53	20.94	-39.7	-41.8	22.1	6.03e-01	0	56	0	968359936	50	4746
2026-01-06 01:42:40.86	209.48	20.78	-39.7	-41.8	22.1	6.02e-01	0	56	0	970457088	50	4753
2026-01-06 01:42:41.87	209.44	20.63	-39.7	-41.8	22.0	6.03e-01	0	56	0	972029952	50	4758
2026-01-06 01:42:42.88	209.39	20.48	-39.8	-41.9	22.0	6.03e-01	0	56	0	974127104	50	4783
2026-01-06 01:42:43.89	209.35	20.33	-39.8	-41.9	22.0	6.04e-01	0	56	0	976224256	50	4785
2026-01-06 01:42:44.90	209.31	20.18	-39.8	-41.9	21.9	6.03e-01	0	56	0	977797120	50	4814
2026-01-06 01:42:45.91	209.26	20.03	-39.8	-41.9	22.0	6.01e-01	0	56	0	979894272	50	4805
2026-01-06 01:42:46.92	209.22	19.89	-39.8	-42.0	22.0	6.05e-01	0	56	0	981467136	50	4815
2026-01-06 01:42:47.93	209.18	19.74	-39.7	-41.8	22.1	6.03e-01	0	56	0	983564288	50	4743
2026-01-06 01:42:48.94	209.14	19.60	-39.6	-41.8	22.1	6.05e-01	0	56	0	985661440	50	4721
2026-01-06 01:42:49.95	209.10	19.45	-39.6	-41.7	22.2	6.05e-01	0	56	0	987234304	50	4705
2026-01-06 01:42:50.96	209.05	19.31	-39.5	-41.6	22.3	6.02e-01	0	56	0	989331456	50	4633
2026-01-06 01:42:51.97	209.01	19.17	-39.6	-41.8	22.1	6.03e-01	0	56	0	990904320	50	4715
2026-01-06 01:42:52.97	208.97	19.03	-39.6	-41.8	22.1	6.03e-01	0	56	0	993001472	50	4725
2026-01-06 01:42:53.98	208.93	18.88	-39.6	-41.7	22.1	6.01e-01	0	56	0	995098624	50	4690
2026-01-06 01:42:54.99	208.90	18.74	-39.6	-41.8	22.1	6.03e-01	0	56	0	996671488	50	4727
2026-01-06 01:42:56.00	208.86	18.61	-39.7	-41.8	22.1	6.02e-01	0	56	0	998768640	50	4730
2026-01-06 01:42:57.01	208.82	18.47	-39.7	-41.8	22.1	6.03e-01	0	56	0	1000865792	50	4744
2026-01-06 01:42:58.02	208.78	18.33	-39.7	-41.9	22.0	6.06e-01	0	56	0	1002438656	50	4772
2026-01-06 01:42:59.03	208.74	18.19	-39.6	-41.8	22.1	6.02e-01	0	56	0	1004535808	50	4717
2026-01-06 01:43:00.04	208.71	18.06	-39.7	-41.9	22.0	6.00e-01	0	56	0	1006108672	50	4761
2026-01-06 01:43:01.05	208.67	17.92	-39.8	-42.0	21.9	6.02e-01	0	56	0	1008205824	50	4844
2026-01-06 01:43:02.06	208.63	17.79	-39.7	-41.9	21.9	6.03e-01	0	56	0	1010302976	50	4799
2026-01-06 01:43:03.07	208.60	17.65	-39.7	-41.8	22.0	6.03e-01	0	56	0	1011875840	50	4748
2026-01-06 01:43:04.08	208.56	17.52	-39.7	-41.9	22.0	6.01e-01	0	56	0	1013972992	50	4775
2026-01-06 01:43:05.09	208.52	17.39	-39.8	-42.0	21.8	6.02e-01	0	56	0	1015545856	50	4850
2026-01-06 01:43:06.10	208.49	17.26	-39.8	-42.0	21.9	6.03e-01	0	56	0	1017643008	50	4826
2026-01-06 01:43:07.11	208.45	17.13	-39.8	-42.0	21.8	6.03e-01	0	56	0	1019740160	50	4826
2026-01-06 01:43:08.12	208.42	17.00	-39.7	-41.9	21.9	6.03e-01	0	56	0	1021313024	50	4780
2026-01-06 01:43:09.13	208.39	16.87	-39.8	-42.0	21.9	6.03e-01	0	56	0	1023410176	50	4848
2026-01-06 01:43:10.14	208.35	16.74	-39.8	-42.0	21.8	6.02e-01	0	56	0	1025507328	50	4841
2026-01-06 01:43:11.14	208.32	16.62	-39.7	-41.8	21.9	6.04e-01	0	56	0	1027080192	50	4756
2026-01-06 01:43:12.15	208.29	16.49	-39.7	-41.9	21.9	6.02e-01	0	56	0	1029177344	50	4772
2026-01-06 01:43:13.17	208.25	16.36	-39.7	-41.9	21.8	6.04e-01	0	56	0	1030750208	50	4810
2026-01-06 01:43:14.18	208.22	16.24	-39.7	-41.9	21.8	6.03e-01	0	56	0	1032847360	50	4795
2026-01-06 01:43:15.19	208.19	16.11	-39.7	-41.8	21.9	6.06e-01	0	56	0	1034944512	50	4757
2026-01-06 01:43:16.20	208.16	15.99	-39.7	-41.9	21.9	6.04e-01	0	56	0	1036517376	50	4785
2026-01-06 01:43:17.21	208.13	15.86	-39.6	-41.8	21.9	6.04e-01	0	56	0	1038614528	50	4741
2026-01-06 01:43:18.21	208.09	15.74	-39.5	-41.7	22.0	6.02e-01	0	56	0	1040187392	50	4658
2026-01-06 01:43:19.22	208.06	15.62	-39.6	-41.7	22.0	6.02e-01	0	56	0	1042284544	50	4691
2026-01-06 01:43:20.23	208.03	15.50	-39.6	-41.7	22.0	6.06e-01	0	56	0	1044381696	50	4698
2026-01-06 01:43:21.24	208.00	15.38	-39.4	-41.6	22.2	6.04e-01	0	56	0	1045954560	50	4610
2026-01-06 01:43:22.25	207.97	15.26	-39.5	-41.7	22.0	6.03e-01	0	56	0	1048051712	50	4653
2026-01-06 01:43:23.26	207.94	15.14	-39.5	-41.7	22.0	6.02e-01	0	56	0	1049624576	50	4663
2026-01-06 01:43:24.27	207.91	15.02	-39.6	-41.7	21.9	6.02e-01	0	56	0	1051721728	50	4692
2026-01-06 01:43:25.28	207.88	14.90	-39.5	-41.7	22.0	6.05e-01	0	56	0	1053818880	50	4663
2026-01-06 01:43:26.29	207.86	14.79	-39.5	-41.7	22.0	6.04e-01	0	56	0	1055391744	50	4671
2026-01-06 01:43:27.30	207.83	14.67	-39.5	-41.7	22.0	6.03e-01	0	56	0	1057488896	50	4689
2026-01-06 01:43:28.31	207.80	14.55	-39.5	-41.6	22.1	6.03e-01	0	56	0	1059061760	50	4619
2026-01-06 01:43:29.32	207.77	14.44	-39.4	-41.6	22.1	6.02e-01	0	56	0	1061158912	50	4617
2026-01-06 01:43:30.33	207.74	14.32	-39.5	-41.7	22.0	6.03e-01	0	56	0	1063256064	50	4677
2026-01-06 01:43:31.34	207.71	14.21	-39.6	-41.8	21.9	6.03e-01	0	56	0	1064828928	50	4732
2026-01-06 01:43:32.35	207.69	14.10	-39.6	-41.7	21.9	6.06e-01	0	56	0	1066926080	50	4700
2026-01-06 01:43:33.36	207.66	13.98	-39.5	-41.7	22.0	6.01e-01	0	56	0	1069023232	50	4662
2026-01-06 01:43:34.37	207.63	13.87	-39.6	-41.8	21.9	6.03e-01	0	56	0	1070596096	50	4707
2026-01-06 01:43:35.38	207.61	13.76	-39.7	-41.9	21.7	6.04e-01	0	56	0	1072693248	50	4786
2026-01-06 01:43:36.39	207.58	13.65	-39.7	-42.0	21.7	6.04e-01	0	56	0	1074266112	50	4827
2026-01-06 01:43:37.40	207.55	13.54	-39.7	-41.9	21.7	6.03e-01	0	56	0	1076363264	50	4784
2026-01-06 01:43:38.41	207.53	13.43	-39.6	-41.9	21.8	6.03e-01	0	56	0	1078460416	50	4762
2026-01-06 01:43:39.42	207.50	13.32	-39.7	-41.9	21.7	6.04e-01	0	56	0	1080033280	50	4795
2026-01-06 01:43:40.43	207.48	13.21	-39.7	-41.9	21.7	6.02e-01	0	56	0	1082130432	50	4771
2026-01-06 01:43:41.44	207.45	13.10	-39.7	-41.9	21.7	6.02e-01	0	56	0	1083703296	50	4801
2026-01-06 01:43:42.45	207.43	12.99	-39.6	-41.8	21.7	6.04e-01	0	56	0	1085800448	50	4755
2026-01-06 01:43:43.46	207.40	12.88	-39.7	-41.9	21.7	6.03e-01	0	56	0	1087897600	50	4785
2026-01-06 01:43:44.46	207.38	12.78	-39.6	-41.8	21.7	6.03e-01	0	56	0	1089470464	50	4754
2026-01-06 01:43:45.47	207.35	12.67	-39.7	-41.9	21.6	6.03e-01	0	56	0	1091567616	50	4809
2026-01-06 01:43:46.48	207.33	12.56	-39.6	-41.9	21.7	6.04e-01	0	56	0	1093664768	50	4765
2026-01-06 01:43:47.49	207.30	12.46	-39.6	-41.9	21.7	6.02e-01	0	56	0	1095237632	50	4782
2026-01-06 01:43:48.50	207.28	12.35	-39.7	-41.9	21.7	6.02e-01	0	56	0	1097334784	50	4792
2026-01-06 01:43:49.51	207.26	12.25	-39.6	-41.9	21.7	6.05e-01	0	56	0	1098907648	50	4767
2026-01-06 01:43:50.52	207.23	12.14	-39.7	-42.0	21.6	6.03e-01	0	56	0	1101004800	50	4839
2026-01-06 01:43:51.53	207.21	12.04	-39.8	-42.1	21.5	6.05e-01	0	56	0	1103101952	50	4897
2026-01-06 01:43:52.54	207.19	11.94	-39.8	-42.2	21.4	6.04e-01	0	56	0	1104674816	50	4938
2026-01-06 01:43:53.55	207.16	11.83	-39.9	-42.2	21.3	6.06e-01	0	56	0	1106771968	50	4950
2026-01-06 01:43:54.56	207.14	11.73	-39.8	-42.2	21.4	6.02e-01	0	56	0	1108344832	50	4936
2026-01-06 01:43:55.57	207.12	11.63	-39.9	-42.3	21.2	6.03e-01	0	56	0	1110441984	50	5010
2026-01-06 01:43:56.58	207.10	11.53	-40.0	-42.4	21.1	6.02e-01	0	56	0	1112539136	50	5076
2026-01-06 01:43:57.59	207.07	11.43	-40.1	-42.5	21.0	6.04e-01	0	56	0	1114112000	50	5134
2026-01-06 01:43:58.60	207.05	11.33	-40.1	-42.6	20.9	6.03e-01	0	56	0	1116209152	50	5168
2026-01-06 01:43:59.61	207.03	11.23	-40.3	-42.8	20.7	6.02e-01	0	56	0	1117782016	51	5016
2026-01-06 01:44:00.62	207.01	11.13	-40.2	-42.7	20.8	6.06e-01	0	56	0	1119879168	51	4950
2026-01-06 01:44:01.63	206.99	11.03	-40.1	-42.6	20.9	6.06e-01	0	56	0	1121976320	51	4892
2026-01-06 01:44:02.64	206.97	10.93	-40.0	-42.4	21.1	6.04e-01	0	56	0	1123549184	51	4797
2026-01-06 01:44:03.65	206.94	10.83	-40.0	-42.5	21.0	6.04e-01	0	56	0	1125646336	51	4821
2026-01-06 01:44:04.66	206.92	10.73	-40.1	-42.5	20.9	6.04e-01	0	56	0	1127219200	51	4863
2026-01-06 01:44:05.67	206.90	10.64	-40.1	-42.5	20.9	6.02e-01	0	56	0	1129316352	51	4860
2026-01-06 01:44:06.68	206.88	10.54	-40.0	-42.5	21.0	6.06e-01	0	56	0	1131413504	51	4820
2026-01-06 01:44:07.69	206.86	10.44	-40.0	-42.5	21.0	6.03e-01	0	56	0	1132986368	51	4815
2026-01-06 01:44:08.70	206.84	10.35	-40.1	-42.5	20.9	6.01e-01	0	56	0	1135083520	51	4864
2026-01-06 01:44:09.71	206.82	10.25	-40.2	-42.7	20.7	6.01e-01	0	56	0	1137180672	51	4961
2026-01-06 01:44:10.72	206.80	10.16	-40.2	-42.8	20.6	6.05e-01	0	56	0	1138753536	51	5023
2026-01-06 01:44:11.73	206.78	10.06	-40.2	-42.8	20.7	6.05e-01	0	56	0	1140850688	51	4994
2026-01-06 01:44:12.74	206.76	9.97	-40.0	-42.5	20.9	6.02e-01	0	56	0	1142423552	51	4853
2026-01-06 01:44:13.75	206.74	9.87	-40.0	-42.6	20.8	6.03e-01	0	56	0	1144520704	51	4875
2026-01-06 01:44:14.76	206.72	9.78	-39.9	-42.4	21.0	6.01e-01	0	56	0	1146617856	51	4777
2026-01-06 01:44:15.77	206.70	9.69	-40.0	-42.5	20.9	6.04e-01	0	56	0	1148190720	51	4826
2026-01-06 01:44:16.78	206.69	9.59	-40.0	-42.5	20.8	6.04e-01	0	56	0	1150287872	51	4856
2026-01-06 01:44:17.79	206.67	9.50	-40.0	-42.6	20.7	6.03e-01	0	56	0	1151860736	51	4882
2026-01-06 01:44:18.80	206.65	9.41	-40.1	-42.6	20.7	6.02e-01	0	56	0	1153957888	51	4921
2026-01-06 01:44:19.81	206.63	9.32	-40.2	-42.8	20.5	6.01e-01	0	56	0	1156055040	51	5002
2026-01-06 01:44:20.82	206.61	9.23	-40.1	-42.8	20.5	6.03e-01	0	56	0	1157627904	51	4992
2026-01-06 01:44:21.83	206.59	9.14	-40.0	-42.6	20.7	6.03e-01	0	56	0	1159725056	51	4903
2026-01-06 01:44:22.84	206.57	9.05	-40.1	-42.8	20.5	6.06e-01	0	56	0	1161822208	51	4992
2026-01-06 01:44:23.85	206.56	8.96	-40.1	-42.7	20.6	6.04e-01	0	56	0	1163395072	51	4941
2026-01-06 01:44:24.86	206.54	8.87	-40.1	-42.7	20.5	6.02e-01	0	56	0	1165492224	51	4951
2026-01-06 01:44:25.86	206.52	8.78	-40.2	-42.8	20.4	6.03e-01	0	56	0	1167065088	51	5020
2026-01-06 01:44:26.87	206.50	8.69	-40.2	-42.8	20.4	6.03e-01	0	56	0	1169162240	51	5015
2026-01-06 01:44:27.88	206.49	8.60	-40.1	-42.7	20.4	6.02e-01	0	56	0	1171259392	51	4974
2026-01-06 01:44:28.89	206.47	8.51	-40.2	-42.8	20.3	6.01e-01	0	56	0	1172832256	51	5021
2026-01-06 01:44:29.90	206.45	8.42	-40.1	-42.8	20.4	6.04e-01	0	56	0	1174929408	51	4990
2026-01-06 01:44:30.91	206.44	8.33	-40.2	-42.8	20.3	6.01e-01	0	56	0	1176502272	51	5005
2026-01-06 01:44:31.92	206.42	8.25	-40.1	-42.8	20.3	6.04e-01	0	56	0	1178599424	51	5006
2026-01-06 01:44:32.93	206.40	8.16	-40.2	-42.9	20.2	6.01e-01	0	56	0	1180696576	51	5056
2026-01-06 01:44:33.94	206.38	8.07	-40.2	-42.9	20.1	6.03e-01	0	56	0	1182269440	51	5095
2026-01-06 01:44:34.95	206.37	7.99	-44.9	-59.5	3.9	7.33e-01	0	56	104	1183842304	60	20360
2026-01-06 01:44:35.96	206.35	7.90	-45.6	-64.4	3.8	7.48e-01	0	56	104	1183842304	61	34056
2026-01-06 01:44:36.97	206.34	7.81	-45.9	-64.7	3.8	7.44e-01	0	56	104	1183842304	62	33250
2026-01-06 01:44:37.98	206.32	7.73	-46.0	-64.9	3.8	7.47e-01	0	56	104	1183842304	62	33764
2026-01-06 01:44:38.99	206.30	7.64	-46.1	-65.0	3.8	7.45e-01	0	56	104	1183842304	62	34247
2026-01-06 01:44:40.00	206.29	7.56	-46.2	-65.1	3.8	7.43e-01	0	56	104	1183842304	62	34542
2026-01-06 01:44:41.02	206.27	7.47	-46.2	-65.1	3.8	7.44e-01	0	56	104	1183842304	63	32781
2026-01-06 01:44:42.03	206.26	7.39	-46.2	-65.1	3.8	7.42e-01	0	56	104	1183842304	63	32858
2026-01-06 01:44:43.04	206.24	7.31	-46.3	-65.1	3.8	7.47e-01	0	56	104	1183842304	63	32817
2026-01-06 01:44:44.05	206.22	7.22	-46.2	-65.1	3.8	7.47e-01	0	56	104	1183842304	63	32832
2026-01-06 01:44:45.06	206.21	7.14	-46.2	-65.1	3.8	7.45e-01	0	56	104	1183842304	63	32718
2026-01-06 01:44:46.07	206.19	7.06	-46.2	-65.0	3.8	7.42e-01	0	56	104	1183842304	63	32525
2026-01-06 01:44:47.08	206.18	6.97	-46.1	-65.0	3.8	7.45e-01	0	56	104	1183842304	63	32522
