passes_logs/2026/01/06/R2.0S_Moscow/R2.0S_Moscow__20260106_131528_FENGYUN_3D_rec.log

#Pass ID: 20260106_131528_FENGYUN 3D
#Satellite: FENGYUN 3D
#Configuration: FENGYUN 3D
#almurnet v.1.7.20251203
#Start time: 2026-01-06 13:15:30

#Version: 2.2.20231116
#Station: R2.0S_Moscow
#Location: 37.707566 lon 55.798166 lat
#TLE: 1 43010U 17072A   26005.63011380 -.00000074  00000+0 -13266-4 0  9994
#TLE: 2 43010  98.9921 337.3013 0002022 125.0204 235.1161 14.19691768421927

#Time	Az	El	Level	Level2	SNR	BER	BlckErr	Temp	State	Recorded	gain1	gain2
2026-01-06 13:15:30.08	199.85	2.08	-43.9	-55.5	3.8	8.46e-01	0	47	0	0	59	13576
2026-01-06 13:15:31.08	199.92	2.14	-43.9	-55.5	3.8	8.46e-01	0	47	104	0	59	13583
2026-01-06 13:15:32.09	199.98	2.20	-43.9	-55.5	3.8	8.46e-01	0	47	104	0	59	13590
2026-01-06 13:15:33.10	200.04	2.26	-43.9	-55.5	3.8	8.46e-01	0	47	104	0	59	13583
2026-01-06 13:15:34.11	200.11	2.32	-43.9	-55.5	3.8	8.46e-01	0	47	104	0	59	13619
2026-01-06 13:15:35.12	200.17	2.38	-43.9	-55.5	3.8	8.46e-01	0	47	104	0	59	13576
2026-01-06 13:15:36.13	200.23	2.44	-43.9	-55.5	3.8	8.46e-01	0	47	104	0	59	13627
2026-01-06 13:15:37.14	200.30	2.49	-43.9	-55.4	3.8	8.46e-01	0	48	104	0	59	13544
2026-01-06 13:15:38.16	200.36	2.55	-43.9	-55.5	3.8	8.46e-01	0	48	104	0	59	13574
2026-01-06 13:15:39.17	200.43	2.61	-43.9	-55.4	3.8	8.45e-01	0	48	104	0	59	13563
2026-01-06 13:15:40.18	200.49	2.67	-43.9	-55.4	3.8	8.45e-01	0	48	104	0	59	13568
2026-01-06 13:15:41.19	200.56	2.73	-43.9	-55.5	3.8	8.46e-01	0	48	104	0	59	13572
2026-01-06 13:15:42.20	200.62	2.79	-43.9	-55.5	3.8	8.47e-01	0	48	104	0	59	13619
2026-01-06 13:15:43.21	200.69	2.85	-43.9	-55.4	3.8	8.46e-01	0	48	104	0	59	13553
2026-01-06 13:15:44.22	200.76	2.91	-43.9	-55.5	3.8	8.46e-01	0	48	104	0	59	13605
2026-01-06 13:15:45.23	200.82	2.97	-43.8	-55.4	3.8	8.45e-01	0	48	104	0	59	13554
2026-01-06 13:15:46.24	200.89	3.03	-43.9	-55.5	3.8	8.47e-01	0	48	104	0	59	13587
2026-01-06 13:15:47.25	200.95	3.09	-43.9	-55.5	3.8	8.47e-01	0	48	104	0	59	13592
2026-01-06 13:15:48.26	201.02	3.15	-43.9	-55.4	3.8	8.46e-01	0	48	104	0	59	13566
2026-01-06 13:15:49.27	201.09	3.21	-43.9	-55.4	3.8	8.46e-01	0	48	104	0	59	13569
2026-01-06 13:15:50.28	201.16	3.27	-43.8	-55.4	3.8	8.45e-01	0	48	104	0	59	13561
2026-01-06 13:15:51.29	201.22	3.33	-43.9	-55.4	3.8	8.45e-01	0	48	104	0	59	13558
2026-01-06 13:15:52.30	201.29	3.39	-43.9	-55.5	3.8	8.46e-01	0	48	104	0	59	13583
2026-01-06 13:15:53.31	201.36	3.45	-43.8	-55.4	3.8	8.46e-01	0	48	104	0	59	13548
2026-01-06 13:15:54.32	201.43	3.51	-43.9	-55.4	3.8	8.46e-01	0	49	104	0	59	13556
2026-01-06 13:15:55.33	201.50	3.57	-43.9	-55.4	3.8	8.47e-01	0	49	104	0	59	13556
2026-01-06 13:15:56.34	201.57	3.63	-43.9	-55.5	3.8	8.46e-01	0	49	104	0	59	13577
2026-01-06 13:15:57.36	201.64	3.69	-43.9	-55.5	3.8	8.46e-01	0	49	104	0	59	13580
2026-01-06 13:15:58.37	201.71	3.75	-43.8	-55.4	3.8	8.46e-01	0	49	104	0	59	13557
2026-01-06 13:15:59.38	201.78	3.82	-43.9	-55.4	3.8	8.46e-01	0	49	104	0	59	13534
2026-01-06 13:16:00.39	201.85	3.88	-43.9	-55.4	3.8	8.46e-01	0	49	104	0	59	13554
2026-01-06 13:16:01.40	201.92	3.94	-43.8	-55.5	3.8	8.46e-01	0	49	104	0	59	13629
2026-01-06 13:16:02.41	201.99	4.00	-43.9	-55.5	3.8	8.47e-01	0	49	104	0	59	13586
2026-01-06 13:16:03.42	202.06	4.06	-43.8	-55.4	3.8	8.46e-01	0	49	104	0	59	13564
2026-01-06 13:16:04.43	202.13	4.12	-43.9	-55.4	3.8	8.46e-01	0	49	104	0	59	13566
2026-01-06 13:16:05.44	202.20	4.18	-43.9	-55.4	3.8	8.46e-01	0	49	104	0	59	13544
2026-01-06 13:16:06.45	202.27	4.25	-43.9	-55.4	3.8	8.45e-01	0	49	104	0	59	13529
2026-01-06 13:16:07.46	202.35	4.31	-43.8	-55.4	3.8	8.46e-01	0	50	104	0	59	13569
2026-01-06 13:16:08.47	202.42	4.37	-43.9	-55.5	3.8	8.46e-01	0	49	104	0	59	13579
2026-01-06 13:16:09.49	202.49	4.43	-43.9	-55.4	3.8	8.46e-01	0	50	104	0	59	13531
2026-01-06 13:16:10.50	202.57	4.50	-43.9	-55.5	3.8	8.46e-01	0	49	104	0	59	13577
2026-01-06 13:16:11.51	202.64	4.56	-43.9	-55.5	3.8	8.46e-01	0	50	104	0	59	13601
2026-01-06 13:16:12.52	202.71	4.62	-43.8	-55.5	3.8	8.46e-01	0	50	104	0	59	13574
2026-01-06 13:16:13.53	202.79	4.68	-43.8	-55.4	3.8	8.46e-01	0	50	104	0	59	13536
2026-01-06 13:16:14.54	202.86	4.74	-43.9	-55.4	3.8	8.45e-01	0	50	104	0	59	13553
2026-01-06 13:16:15.55	202.94	4.81	-43.9	-55.4	3.8	8.46e-01	0	50	104	0	59	13529
2026-01-06 13:16:16.56	203.01	4.87	-43.9	-55.4	3.8	8.46e-01	0	50	104	0	59	13474
2026-01-06 13:16:17.57	203.09	4.93	-43.8	-55.4	3.8	8.46e-01	0	50	104	0	59	13476
2026-01-06 13:16:18.58	203.16	5.00	-43.8	-55.4	3.8	8.46e-01	0	50	104	0	59	13496
2026-01-06 13:16:19.59	203.24	5.06	-43.8	-55.4	3.8	8.46e-01	0	50	104	0	59	13465
2026-01-06 13:16:20.60	203.31	5.12	-43.9	-55.4	3.8	8.45e-01	0	50	104	0	59	13486
2026-01-06 13:16:21.61	203.39	5.19	-43.8	-55.3	3.8	8.45e-01	0	50	104	0	59	13335
2026-01-06 13:16:22.62	203.47	5.25	-43.8	-55.3	3.8	8.45e-01	0	50	104	0	59	13310
2026-01-06 13:16:23.63	203.54	5.31	-43.8	-55.0	3.8	8.46e-01	0	50	104	0	59	12950
2026-01-06 13:16:24.64	203.62	5.38	-43.8	-54.8	3.8	8.46e-01	0	50	104	0	59	12585
2026-01-06 13:16:25.65	203.70	5.44	-43.7	-54.3	3.8	8.46e-01	0	50	104	0	59	11941
2026-01-06 13:16:26.66	203.78	5.51	-43.7	-54.1	3.8	8.45e-01	0	51	104	0	59	11616
2026-01-06 13:16:27.67	203.86	5.57	-43.7	-53.8	3.8	8.45e-01	0	51	104	0	59	11177
2026-01-06 13:16:28.68	203.93	5.63	-43.6	-53.5	3.9	8.45e-01	0	51	104	0	59	10792
2026-01-06 13:16:29.69	204.01	5.70	-43.6	-52.9	4.0	8.45e-01	0	50	104	0	59	10143
2026-01-06 13:16:30.70	204.09	5.76	-43.5	-52.7	3.9	8.43e-01	0	50	104	0	59	9863
2026-01-06 13:16:31.72	204.17	5.83	-43.5	-52.4	4.1	8.42e-01	0	51	104	0	58	10098
2026-01-06 13:16:32.73	204.25	5.89	-43.5	-52.4	4.1	8.41e-01	0	51	0	0	58	10123
2026-01-06 13:16:33.74	204.33	5.96	-43.5	-52.8	3.9	8.43e-01	0	51	104	0	58	10551
2026-01-06 13:16:34.75	204.42	6.02	-43.6	-53.1	4.0	8.44e-01	0	51	104	0	58	10960
2026-01-06 13:16:35.76	204.50	6.09	-43.6	-53.6	3.8	8.45e-01	0	51	104	0	58	11569
2026-01-06 13:16:36.77	204.58	6.15	-43.7	-54.1	3.8	8.46e-01	0	51	104	0	58	12337
2026-01-06 13:16:37.78	204.66	6.22	-43.8	-54.7	3.8	8.46e-01	0	51	104	0	58	13138
2026-01-06 13:16:38.79	204.74	6.28	-43.8	-54.8	3.8	8.46e-01	0	51	104	0	58	13351
2026-01-06 13:16:39.80	204.82	6.35	-43.8	-54.7	3.8	8.45e-01	0	51	104	0	58	13189
2026-01-06 13:16:40.81	204.91	6.41	-43.7	-54.5	3.8	8.45e-01	0	51	104	0	58	12867
2026-01-06 13:16:41.82	204.99	6.48	-43.7	-54.1	3.8	8.45e-01	0	51	104	0	58	12313
2026-01-06 13:16:42.83	205.07	6.55	-43.7	-53.9	3.8	8.46e-01	0	51	104	0	58	12087
2026-01-06 13:16:43.84	205.16	6.61	-43.7	-54.3	3.8	8.46e-01	0	51	104	0	58	12640
2026-01-06 13:16:44.85	205.24	6.68	-43.6	-53.6	3.8	8.46e-01	0	51	104	0	58	11557
2026-01-06 13:16:45.87	205.33	6.74	-43.5	-52.7	4.0	8.44e-01	0	51	104	0	58	10532
2026-01-06 13:16:46.88	205.41	6.81	-43.5	-52.8	3.9	8.44e-01	0	51	104	0	58	10654
2026-01-06 13:16:47.89	205.50	6.88	-43.3	-51.6	4.3	8.40e-01	0	51	0	0	58	9191
2026-01-06 13:16:48.90	205.59	6.94	-43.2	-50.6	4.7	8.11e-01	0	51	0	0	58	8192
2026-01-06 13:16:49.91	205.67	7.01	-42.9	-49.4	5.3	7.71e-01	0	51	0	0	57	7606
2026-01-06 13:16:50.92	205.76	7.08	-42.5	-48.0	6.2	3.49e-01	0	51	0	3145728	56	6862
2026-01-06 13:16:51.93	205.85	7.14	-41.8	-46.5	7.5	1.85e-01	0	52	0	9437184	55	6109
2026-01-06 13:16:52.94	205.93	7.21	-41.3	-45.3	8.6	5.44e-02	0	51	0	14680064	54	5655
2026-01-06 13:16:53.96	206.02	7.28	-40.7	-44.2	9.8	2.30e-02	0	52	0	20971520	53	5219
2026-01-06 13:16:54.97	206.11	7.35	-40.2	-43.4	10.7	4.55e-03	0	52	0	26214400	52	5043
2026-01-06 13:16:55.98	206.20	7.41	-39.7	-42.6	11.6	1.78e-03	0	52	0	31457280	51	4872
2026-01-06 13:16:56.99	206.29	7.48	-39.0	-41.5	12.7	1.62e-04	0	52	0	37748736	50	4547
2026-01-06 13:16:58.00	206.38	7.55	-38.4	-40.6	13.6	3.20e-05	0	52	0	42991616	48	4625
2026-01-06 13:16:59.01	206.47	7.62	-38.1	-40.2	14.0	9.10e-06	0	52	0	49283072	48	4417
2026-01-06 13:17:00.02	206.56	7.68	-37.6	-39.6	14.5	1.10e-06	0	52	0	54525952	47	4372
2026-01-06 13:17:01.03	206.65	7.75	-37.3	-39.2	14.8	0.00e+00	0	52	0	60817408	46	4441
2026-01-06 13:17:02.04	206.74	7.82	-37.2	-39.1	14.9	0.00e+00	0	52	0	66060288	46	4384
2026-01-06 13:17:03.05	206.83	7.89	-36.9	-38.8	15.3	0.00e+00	0	52	0	71303168	45	4443
2026-01-06 13:17:04.06	206.92	7.96	-37.1	-39.0	15.0	0.00e+00	0	52	0	77594624	45	4593
2026-01-06 13:17:05.08	207.01	8.03	-37.2	-39.1	14.9	0.00e+00	0	52	0	82837504	45	4651
2026-01-06 13:17:06.08	207.11	8.09	-37.0	-38.8	15.4	1.10e-06	0	52	0	89128960	45	4477
2026-01-06 13:17:07.09	207.20	8.16	-37.9	-39.9	14.3	2.20e-06	0	52	0	94371840	46	4808
2026-01-06 13:17:08.10	207.29	8.23	-41.3	-45.6	8.2	1.38e-02	0	52	0	99614720	53	6160
2026-01-06 13:17:09.11	207.39	8.30	-43.1	-50.7	4.4	5.42e-01	0	52	0	103809024	57	8843
2026-01-06 13:17:10.12	207.48	8.37	-39.3	-41.7	12.6	2.51e-05	0	52	0	109051904	49	4983
2026-01-06 13:17:11.14	207.58	8.44	-37.1	-38.9	15.3	0.00e+00	0	52	0	114294784	46	4289
2026-01-06 13:17:12.14	207.67	8.51	-36.8	-38.5	15.7	0.00e+00	0	52	0	120586240	45	4338
2026-01-06 13:17:13.16	207.77	8.58	-36.8	-38.6	15.7	0.00e+00	0	52	0	125829120	45	4345
2026-01-06 13:17:14.17	207.86	8.65	-36.7	-38.5	15.8	0.00e+00	0	52	0	131072000	45	4299
2026-01-06 13:17:15.18	207.96	8.72	-36.7	-38.5	15.8	0.00e+00	0	52	0	137363456	45	4298
2026-01-06 13:17:16.19	208.06	8.79	-36.8	-38.5	15.7	0.00e+00	0	52	0	142606336	45	4332
2026-01-06 13:17:17.20	208.15	8.86	-36.7	-38.4	15.8	0.00e+00	0	52	0	148897792	45	4291
2026-01-06 13:17:18.21	208.25	8.93	-36.6	-38.3	16.0	0.00e+00	0	52	0	154140672	45	4235
2026-01-06 13:17:19.22	208.35	9.00	-36.8	-38.6	15.7	0.00e+00	0	53	0	160432128	45	4347
2026-01-06 13:17:20.23	208.45	9.07	-36.6	-38.3	16.0	0.00e+00	0	53	0	165675008	45	4227
2026-01-06 13:17:21.24	208.55	9.14	-36.6	-38.4	15.9	0.00e+00	0	52	0	171966464	45	4243
2026-01-06 13:17:22.25	208.65	9.21	-36.7	-38.4	15.9	0.00e+00	0	53	0	177209344	45	4273
2026-01-06 13:17:23.26	208.75	9.28	-36.7	-38.4	15.9	0.00e+00	0	53	0	182452224	45	4276
2026-01-06 13:17:24.27	208.85	9.35	-36.7	-38.4	15.9	0.00e+00	0	52	0	188743680	45	4267
2026-01-06 13:17:25.28	208.95	9.42	-36.6	-38.4	15.9	0.00e+00	0	52	0	193986560	45	4259
2026-01-06 13:17:26.29	209.05	9.49	-36.7	-38.4	15.9	0.00e+00	0	53	0	200278016	45	4263
2026-01-06 13:17:27.30	209.15	9.56	-36.6	-38.3	16.0	0.00e+00	0	53	0	205520896	45	4209
2026-01-06 13:17:28.31	209.26	9.64	-36.6	-38.4	16.0	0.00e+00	0	53	0	210763776	45	4247
2026-01-06 13:17:29.32	209.36	9.71	-36.4	-38.1	16.2	0.00e+00	0	53	0	217055232	44	4383
2026-01-06 13:17:30.33	209.46	9.78	-36.3	-38.0	16.4	0.00e+00	0	53	0	222298112	44	4307
2026-01-06 13:17:31.34	209.57	9.85	-36.4	-38.1	16.3	0.00e+00	0	53	0	228589568	44	4346
2026-01-06 13:17:32.35	209.67	9.92	-36.4	-38.0	16.4	0.00e+00	0	53	0	233832448	44	4319
2026-01-06 13:17:33.36	209.78	9.99	-36.3	-38.0	16.4	0.00e+00	0	53	0	239075328	44	4295
2026-01-06 13:17:34.37	209.88	10.07	-36.4	-38.0	16.4	0.00e+00	0	53	0	245366784	44	4325
2026-01-06 13:17:35.38	209.99	10.14	-36.4	-38.0	16.4	0.00e+00	0	53	0	250609664	44	4337
2026-01-06 13:17:36.39	210.10	10.21	-36.3	-37.9	16.5	0.00e+00	0	53	0	256901120	44	4279
2026-01-06 13:17:37.40	210.20	10.28	-36.3	-38.0	16.5	0.00e+00	0	53	0	262144000	44	4294
2026-01-06 13:17:38.41	210.31	10.36	-36.4	-38.0	16.4	0.00e+00	0	53	0	268435456	44	4340
2026-01-06 13:17:39.42	210.42	10.43	-36.3	-38.0	16.4	0.00e+00	0	53	0	273678336	44	4319
2026-01-06 13:17:40.43	210.53	10.50	-36.3	-38.0	16.5	0.00e+00	0	53	0	279969792	44	4300
2026-01-06 13:17:41.44	210.64	10.57	-36.3	-37.9	16.5	0.00e+00	0	53	0	285212672	44	4263
2026-01-06 13:17:42.45	210.75	10.65	-36.2	-37.8	16.6	0.00e+00	0	53	0	290455552	44	4241
2026-01-06 13:17:43.46	210.86	10.72	-36.3	-37.9	16.5	0.00e+00	0	53	0	296747008	44	4263
2026-01-06 13:17:44.47	210.97	10.79	-36.2	-37.8	16.6	0.00e+00	0	53	0	301989888	44	4236
2026-01-06 13:17:45.48	211.08	10.87	-36.2	-37.8	16.6	0.00e+00	0	53	0	307232768	44	4239
2026-01-06 13:17:46.49	211.19	10.94	-36.2	-37.9	16.6	0.00e+00	0	53	0	313524224	44	4243
2026-01-06 13:17:47.50	211.30	11.02	-36.1	-37.8	16.7	0.00e+00	0	53	0	318767104	44	4199
2026-01-06 13:17:48.51	211.41	11.09	-36.1	-37.7	16.7	0.00e+00	0	53	0	325058560	44	4179
2026-01-06 13:17:49.52	211.53	11.16	-36.1	-37.7	16.7	0.00e+00	0	53	0	330301440	44	4184
2026-01-06 13:17:50.53	211.64	11.24	-36.1	-37.7	16.8	0.00e+00	0	53	0	336592896	44	4154
2026-01-06 13:17:51.54	211.76	11.31	-36.0	-37.6	16.8	0.00e+00	0	53	0	341835776	44	4135
2026-01-06 13:17:52.55	211.87	11.39	-36.0	-37.6	16.9	0.00e+00	0	53	0	347078656	44	4134
2026-01-06 13:17:53.57	211.99	11.46	-36.0	-37.6	16.9	0.00e+00	0	53	0	353370112	44	4132
2026-01-06 13:17:54.58	212.11	11.54	-35.8	-37.3	17.0	0.00e+00	0	53	0	358612992	43	4238
2026-01-06 13:17:55.59	212.22	11.61	-35.8	-37.4	17.0	0.00e+00	0	54	0	364904448	43	4250
2026-01-06 13:17:56.60	212.34	11.69	-35.8	-37.3	17.0	0.00e+00	0	54	0	370147328	43	4219
2026-01-06 13:17:57.61	212.46	11.76	-35.7	-37.3	17.1	0.00e+00	0	53	0	376438784	43	4204
2026-01-06 13:17:58.62	212.58	11.84	-35.7	-37.3	17.1	0.00e+00	0	53	0	381681664	43	4196
2026-01-06 13:17:59.63	212.70	11.91	-35.6	-37.2	17.2	0.00e+00	0	53	0	387973120	43	4147
2026-01-06 13:18:00.64	212.81	11.99	-35.6	-37.1	17.3	0.00e+00	0	54	0	393216000	43	4113
2026-01-06 13:18:01.65	212.94	12.06	-35.7	-37.2	17.2	0.00e+00	0	54	0	398458880	43	4171
2026-01-06 13:18:02.66	213.06	12.14	-35.5	-37.0	17.3	0.00e+00	0	54	0	404750336	43	4084
2026-01-06 13:18:03.67	213.18	12.21	-35.6	-37.1	17.2	0.00e+00	0	53	0	409993216	43	4143
2026-01-06 13:18:04.68	213.30	12.29	-35.7	-37.2	17.1	0.00e+00	0	54	0	416284672	43	4183
2026-01-06 13:18:05.69	213.42	12.37	-35.8	-37.3	17.1	0.00e+00	0	53	0	421527552	43	4218
2026-01-06 13:18:06.70	213.55	12.44	-35.7	-37.3	17.1	0.00e+00	0	54	0	426770432	43	4209
2026-01-06 13:18:07.71	213.67	12.52	-35.8	-37.3	17.1	0.00e+00	0	54	0	433061888	43	4219
2026-01-06 13:18:08.72	213.79	12.59	-35.8	-37.3	17.1	0.00e+00	0	54	0	438304768	43	4238
2026-01-06 13:18:09.73	213.92	12.67	-35.8	-37.3	17.1	0.00e+00	0	54	0	444596224	43	4234
2026-01-06 13:18:10.74	214.05	12.75	-35.7	-37.3	17.1	0.00e+00	0	53	0	449839104	43	4213
2026-01-06 13:18:11.75	214.17	12.82	-35.7	-37.2	17.1	0.00e+00	0	54	0	455081984	43	4187
2026-01-06 13:18:12.76	214.30	12.90	-35.6	-37.2	17.2	0.00e+00	0	54	0	461373440	43	4159
2026-01-06 13:18:13.77	214.43	12.98	-35.6	-37.1	17.3	0.00e+00	0	54	0	466616320	43	4132
2026-01-06 13:18:14.78	214.56	13.05	-35.7	-37.2	17.2	0.00e+00	0	54	0	472907776	43	4163
2026-01-06 13:18:15.79	214.69	13.13	-35.6	-37.2	17.2	0.00e+00	0	54	0	478150656	43	4156
2026-01-06 13:18:16.80	214.81	13.21	-35.7	-37.2	17.2	0.00e+00	0	54	0	484442112	43	4172
2026-01-06 13:18:17.81	214.95	13.29	-35.7	-37.2	17.2	0.00e+00	0	54	0	489684992	43	4193
2026-01-06 13:18:18.82	215.08	13.36	-35.6	-37.2	17.2	0.00e+00	0	54	0	494927872	43	4153
2026-01-06 13:18:19.83	215.21	13.44	-35.6	-37.1	17.3	0.00e+00	0	54	0	501219328	43	4137
2026-01-06 13:18:20.85	215.34	13.52	-35.5	-37.1	17.3	0.00e+00	0	54	0	506462208	43	4109
2026-01-06 13:18:21.85	215.47	13.60	-35.5	-37.1	17.3	0.00e+00	0	54	0	512753664	43	4103
2026-01-06 13:18:22.86	215.61	13.68	-35.5	-37.0	17.4	0.00e+00	0	54	0	517996544	42	4315
2026-01-06 13:18:23.88	215.74	13.75	-35.4	-36.9	17.5	0.00e+00	0	54	0	523239424	42	4265
2026-01-06 13:18:24.89	215.88	13.83	-35.3	-36.7	17.7	0.00e+00	0	54	0	529530880	42	4190
2026-01-06 13:18:25.90	216.01	13.91	-35.2	-36.7	17.7	0.00e+00	0	54	0	534773760	42	4156
2026-01-06 13:18:26.91	216.15	13.99	-35.2	-36.6	17.8	0.00e+00	0	54	0	541065216	42	4122
2026-01-06 13:18:27.92	216.29	14.07	-35.1	-36.5	17.9	0.00e+00	0	54	0	546308096	42	4090
2026-01-06 13:18:28.93	216.43	14.15	-35.1	-36.5	17.9	0.00e+00	0	54	0	551550976	42	4094
2026-01-06 13:18:29.94	216.56	14.22	-35.2	-36.6	17.8	0.00e+00	0	54	0	557842432	42	4125
2026-01-06 13:18:30.95	216.70	14.30	-35.2	-36.7	17.7	0.00e+00	0	54	0	563085312	42	4166
2026-01-06 13:18:31.96	216.84	14.38	-35.2	-36.7	17.7	0.00e+00	0	54	0	569376768	42	4167
2026-01-06 13:18:32.97	216.99	14.46	-35.3	-36.7	17.7	0.00e+00	0	54	0	574619648	42	4187
2026-01-06 13:18:33.98	217.13	14.54	-35.2	-36.7	17.8	0.00e+00	0	54	0	580911104	42	4168
2026-01-06 13:18:34.99	217.27	14.62	-35.2	-36.7	17.8	0.00e+00	0	54	0	586153984	42	4156
2026-01-06 13:18:36.00	217.41	14.70	-35.1	-36.5	17.9	0.00e+00	0	54	0	592445440	42	4086
2026-01-06 13:18:37.01	217.56	14.78	-35.0	-36.5	18.0	0.00e+00	0	54	0	597688320	42	4056
2026-01-06 13:18:38.02	217.70	14.86	-34.9	-36.4	18.1	1.10e-06	0	54	0	602931200	41	4245
2026-01-06 13:18:39.03	217.85	14.94	-35.0	-36.4	18.0	0.00e+00	0	54	0	609222656	41	4270
2026-01-06 13:18:40.04	217.99	15.02	-35.0	-36.4	18.0	0.00e+00	0	54	0	614465536	41	4266
2026-01-06 13:18:41.05	218.14	15.10	-35.0	-36.5	18.0	0.00e+00	0	54	0	620756992	41	4312
2026-01-06 13:18:42.06	218.29	15.18	-35.0	-36.4	18.0	0.00e+00	0	54	0	625999872	41	4274
2026-01-06 13:18:43.07	218.43	15.26	-34.9	-36.4	18.1	0.00e+00	0	54	0	631242752	41	4258
2026-01-06 13:18:44.08	218.58	15.34	-35.0	-36.4	18.1	0.00e+00	0	54	0	637534208	41	4264
2026-01-06 13:18:45.10	218.73	15.42	-34.9	-36.3	18.1	0.00e+00	0	54	0	642777088	41	4237
2026-01-06 13:18:46.11	218.89	15.50	-34.9	-36.3	18.1	0.00e+00	0	55	0	649068544	41	4219
2026-01-06 13:18:47.12	219.04	15.58	-34.8	-36.2	18.2	0.00e+00	0	54	0	654311424	41	4189
2026-01-06 13:18:48.13	219.19	15.66	-34.8	-36.2	18.3	0.00e+00	0	54	0	659554304	41	4149
2026-01-06 13:18:49.14	219.34	15.74	-34.7	-36.1	18.3	0.00e+00	0	54	0	665845760	41	4121
2026-01-06 13:18:50.15	219.50	15.82	-34.8	-36.2	18.3	0.00e+00	0	54	0	671088640	41	4148
2026-01-06 13:18:51.16	219.65	15.90	-34.8	-36.2	18.3	0.00e+00	0	55	0	677380096	41	4169
2026-01-06 13:18:52.17	219.81	15.98	-34.8	-36.2	18.3	0.00e+00	0	54	0	682622976	41	4175
2026-01-06 13:18:53.18	219.96	16.06	-34.8	-36.2	18.2	0.00e+00	0	54	0	688914432	41	4182
2026-01-06 13:18:54.19	220.12	16.14	-34.8	-36.2	18.2	0.00e+00	0	54	0	694157312	41	4184
2026-01-06 13:18:55.20	220.28	16.22	-34.8	-36.2	18.3	0.00e+00	0	54	0	700448768	41	4162
2026-01-06 13:18:56.21	220.44	16.30	-34.7	-36.2	18.3	0.00e+00	0	54	0	705691648	41	4149
2026-01-06 13:18:57.22	220.60	16.38	-34.7	-36.1	18.4	0.00e+00	0	55	0	710934528	41	4128
2026-01-06 13:18:58.22	220.75	16.46	-34.6	-36.0	18.4	0.00e+00	0	54	0	717225984	41	4083
2026-01-06 13:18:59.23	220.92	16.54	-34.6	-36.0	18.5	0.00e+00	0	54	0	722468864	41	4065
2026-01-06 13:19:00.24	221.08	16.63	-34.6	-36.0	18.5	0.00e+00	0	55	0	728760320	41	4063
2026-01-06 13:19:01.26	221.24	16.71	-34.6	-36.0	18.5	0.00e+00	0	55	0	734003200	41	4080
2026-01-06 13:19:02.26	221.40	16.79	-34.5	-35.9	18.6	0.00e+00	0	55	0	739246080	41	4034
2026-01-06 13:19:03.28	221.57	16.87	-34.5	-35.9	18.6	0.00e+00	0	55	0	745537536	41	4008
2026-01-06 13:19:04.29	221.74	16.95	-34.5	-35.8	18.7	0.00e+00	0	55	0	750780416	41	4004
2026-01-06 13:19:05.30	221.90	17.03	-34.5	-35.9	18.7	0.00e+00	0	55	0	757071872	41	4007
2026-01-06 13:19:06.31	222.07	17.11	-34.5	-35.9	18.6	0.00e+00	0	55	0	762314752	40	4263
2026-01-06 13:19:07.32	222.24	17.20	-34.5	-35.9	18.6	0.00e+00	0	55	0	767557632	40	4254
2026-01-06 13:19:08.33	222.41	17.28	-34.5	-35.9	18.7	0.00e+00	0	55	0	773849088	40	4247
2026-01-06 13:19:09.34	222.58	17.36	-34.5	-35.9	18.6	0.00e+00	0	55	0	779091968	40	4265
2026-01-06 13:19:10.35	222.75	17.44	-34.6	-36.0	18.6	0.00e+00	0	55	0	785383424	40	4292
2026-01-06 13:19:11.36	222.92	17.52	-34.5	-35.9	18.6	0.00e+00	0	55	0	790626304	40	4263
2026-01-06 13:19:12.37	223.09	17.60	-34.5	-35.8	18.7	0.00e+00	0	55	0	796917760	40	4236
2026-01-06 13:19:13.38	223.27	17.68	-34.4	-35.8	18.7	0.00e+00	0	55	0	802160640	40	4202
2026-01-06 13:19:14.38	223.44	17.76	-34.4	-35.7	18.8	0.00e+00	0	55	0	808452096	40	4192
2026-01-06 13:19:15.39	223.61	17.85	-34.4	-35.7	18.8	0.00e+00	0	55	0	813694976	40	4186
2026-01-06 13:19:16.40	223.79	17.93	-34.4	-35.7	18.8	0.00e+00	0	55	0	818937856	40	4175
2026-01-06 13:19:17.41	223.97	18.01	-34.3	-35.7	18.8	0.00e+00	0	55	0	825229312	40	4163
2026-01-06 13:19:18.42	224.15	18.09	-34.2	-35.6	18.9	0.00e+00	0	55	0	830472192	40	4106
2026-01-06 13:19:19.43	224.32	18.17	-34.2	-35.6	18.9	0.00e+00	0	55	0	836763648	40	4110
2026-01-06 13:19:20.44	224.50	18.25	-34.3	-35.6	18.9	0.00e+00	0	55	0	842006528	40	4113
2026-01-06 13:19:21.45	224.69	18.34	-34.2	-35.6	19.0	0.00e+00	0	55	0	847249408	40	4104
2026-01-06 13:19:22.46	224.87	18.42	-34.3	-35.6	18.9	0.00e+00	0	55	0	853540864	40	4110
2026-01-06 13:19:23.47	225.05	18.50	-34.3	-35.6	18.9	0.00e+00	0	55	0	858783744	40	4122
2026-01-06 13:19:24.48	225.23	18.58	-34.2	-35.6	18.9	0.00e+00	0	55	0	865075200	40	4113
2026-01-06 13:19:25.49	225.42	18.66	-34.3	-35.6	18.9	0.00e+00	0	55	0	870318080	40	4130
2026-01-06 13:19:26.50	225.60	18.74	-34.2	-35.5	18.9	0.00e+00	0	55	0	875560960	40	4094
2026-01-06 13:19:27.51	225.79	18.83	-34.1	-35.4	19.1	0.00e+00	0	55	0	881852416	40	4044
2026-01-06 13:19:28.52	225.98	18.91	-34.1	-35.4	19.1	0.00e+00	0	55	0	887095296	40	4024
2026-01-06 13:19:29.53	226.17	18.99	-34.1	-35.4	19.1	0.00e+00	0	55	0	893386752	40	4010
2026-01-06 13:19:30.54	226.36	19.07	-34.1	-35.4	19.1	0.00e+00	0	55	0	898629632	40	4029
2026-01-06 13:19:31.55	226.55	19.15	-34.2	-35.5	19.0	0.00e+00	0	55	0	904921088	40	4064
2026-01-06 13:19:32.56	226.74	19.23	-34.2	-35.5	19.0	0.00e+00	0	55	0	910163968	40	4091
2026-01-06 13:19:33.57	226.93	19.31	-34.1	-35.4	19.1	0.00e+00	0	55	0	915406848	40	4046
2026-01-06 13:19:34.58	227.13	19.39	-34.1	-35.4	19.1	0.00e+00	0	55	0	921698304	40	4020
2026-01-06 13:19:35.59	227.32	19.48	-34.1	-35.4	19.1	0.00e+00	0	55	0	926941184	40	4022
2026-01-06 13:19:36.60	227.52	19.56	-34.1	-35.4	19.2	0.00e+00	0	55	0	933232640	40	4014
2026-01-06 13:19:37.61	227.71	19.64	-34.1	-35.4	19.2	0.00e+00	0	55	0	938475520	39	4244
2026-01-06 13:19:38.62	227.91	19.72	-34.0	-35.3	19.3	0.00e+00	0	55	0	943718400	39	4202
2026-01-06 13:19:39.63	228.11	19.80	-33.9	-35.2	19.4	0.00e+00	0	55	0	950009856	39	4174
2026-01-06 13:19:40.63	228.31	19.88	-33.9	-35.2	19.4	0.00e+00	0	55	0	955252736	39	4157
2026-01-06 13:19:41.64	228.51	19.96	-33.9	-35.2	19.4	0.00e+00	0	55	0	961544192	39	4150
2026-01-06 13:19:42.65	228.71	20.04	-33.9	-35.2	19.4	0.00e+00	0	55	0	966787072	39	4155
2026-01-06 13:19:43.66	228.91	20.12	-33.9	-35.2	19.4	0.00e+00	0	55	0	972029952	39	4152
2026-01-06 13:19:44.67	229.12	20.20	-33.9	-35.2	19.4	0.00e+00	0	55	0	978321408	39	4158
2026-01-06 13:19:45.68	229.32	20.28	-33.9	-35.2	19.4	0.00e+00	0	55	0	983564288	39	4152
2026-01-06 13:19:46.69	229.53	20.36	-33.9	-35.2	19.4	0.00e+00	0	55	0	989855744	39	4156
2026-01-06 13:19:47.70	229.73	20.44	-33.9	-35.2	19.4	0.00e+00	0	55	0	995098624	39	4154
2026-01-06 13:19:48.71	229.94	20.52	-33.9	-35.2	19.4	0.00e+00	0	55	0	1001390080	39	4160
2026-01-06 13:19:49.72	230.15	20.60	-34.0	-35.3	19.3	0.00e+00	0	55	0	1006632960	39	4194
2026-01-06 13:19:50.73	230.36	20.68	-33.9	-35.3	19.3	0.00e+00	0	55	0	1012924416	39	4197
2026-01-06 13:19:51.74	230.57	20.76	-34.0	-35.3	19.3	0.00e+00	0	55	0	1018167296	39	4223
2026-01-06 13:19:52.75	230.79	20.84	-33.9	-35.2	19.4	0.00e+00	0	55	0	1023410176	39	4171
2026-01-06 13:19:53.76	231.00	20.92	-33.8	-35.1	19.5	0.00e+00	0	55	0	1029701632	39	4124
2026-01-06 13:19:54.77	231.21	21.00	-33.7	-35.0	19.6	0.00e+00	0	55	0	1034944512	39	4080
2026-01-06 13:19:55.78	231.43	21.08	-33.7	-35.0	19.6	0.00e+00	0	55	0	1040187392	39	4064
2026-01-06 13:19:56.79	231.65	21.16	-33.7	-35.0	19.6	0.00e+00	0	55	0	1046478848	39	4076
2026-01-06 13:19:57.79	231.86	21.24	-33.8	-35.1	19.5	0.00e+00	0	55	0	1051721728	39	4130
2026-01-06 13:19:58.80	232.08	21.32	-33.9	-35.1	19.4	0.00e+00	0	55	0	1058013184	39	4142
2026-01-06 13:19:59.81	232.30	21.39	-33.9	-35.2	19.4	0.00e+00	0	55	0	1063256064	39	4147
2026-01-06 13:20:00.82	232.52	21.47	-33.9	-35.1	19.4	0.00e+00	0	55	0	1068498944	39	4143
2026-01-06 13:20:01.83	232.74	21.55	-33.9	-35.2	19.4	0.00e+00	0	55	0	1074790400	39	4160
2026-01-06 13:20:02.85	232.97	21.63	-33.9	-35.3	19.3	0.00e+00	0	55	0	1080033280	39	4199
2026-01-06 13:20:03.86	233.19	21.71	-33.9	-35.2	19.4	0.00e+00	0	55	0	1086324736	39	4159
2026-01-06 13:20:04.87	233.42	21.78	-33.8	-35.1	19.5	0.00e+00	0	55	0	1091567616	39	4109
2026-01-06 13:20:05.88	233.64	21.86	-33.6	-34.9	19.6	0.00e+00	0	55	0	1097859072	39	4044
2026-01-06 13:20:06.89	233.87	21.94	-33.5	-34.8	19.7	0.00e+00	0	55	0	1103101952	39	3966
2026-01-06 13:20:07.90	234.10	22.01	-33.4	-34.6	19.9	0.00e+00	0	55	0	1109393408	38	4134
2026-01-06 13:20:08.91	234.33	22.09	-33.3	-34.6	19.9	0.00e+00	0	55	0	1114636288	38	4116
2026-01-06 13:20:09.92	234.56	22.17	-33.4	-34.7	19.8	0.00e+00	0	55	0	1119879168	38	4151
2026-01-06 13:20:10.93	234.79	22.24	-33.5	-34.8	19.7	0.00e+00	0	55	0	1126170624	38	4222
2026-01-06 13:20:11.94	235.03	22.32	-33.6	-34.9	19.6	0.00e+00	0	55	0	1131413504	38	4256
2026-01-06 13:20:12.95	235.26	22.40	-33.5	-34.8	19.7	0.00e+00	0	55	0	1137704960	38	4218
2026-01-06 13:20:13.96	235.49	22.47	-33.4	-34.7	19.8	0.00e+00	0	55	0	1142947840	38	4172
2026-01-06 13:20:14.97	235.73	22.55	-33.4	-34.6	19.9	0.00e+00	0	55	0	1148190720	38	4132
2026-01-06 13:20:15.98	235.97	22.62	-33.4	-34.6	19.9	0.00e+00	0	55	0	1154482176	38	4130
2026-01-06 13:20:16.99	236.21	22.69	-33.5	-34.7	19.8	0.00e+00	0	55	0	1159725056	38	4179
2026-01-06 13:20:18.00	236.45	22.77	-33.6	-34.8	19.7	0.00e+00	0	55	0	1166016512	38	4229
2026-01-06 13:20:19.01	236.69	22.84	-33.7	-35.0	19.6	0.00e+00	0	55	0	1171259392	38	4296
2026-01-06 13:20:20.02	236.93	22.92	-33.7	-35.0	19.6	0.00e+00	0	55	0	1176502272	38	4303
2026-01-06 13:20:21.02	237.17	22.99	-33.7	-35.0	19.6	0.00e+00	0	55	0	1182793728	38	4296
2026-01-06 13:20:22.03	237.41	23.06	-33.7	-35.0	19.6	0.00e+00	0	55	0	1188036608	38	4312
2026-01-06 13:20:23.04	237.66	23.13	-33.6	-34.9	19.7	0.00e+00	0	55	0	1194328064	38	4246
2026-01-06 13:20:24.05	237.91	23.21	-33.5	-34.8	19.8	0.00e+00	0	55	0	1199570944	38	4199
2026-01-06 13:20:25.06	238.15	23.28	-33.3	-34.5	20.0	0.00e+00	0	55	0	1205862400	38	4076
2026-01-06 13:20:26.07	238.40	23.35	-33.1	-34.4	20.2	0.00e+00	0	55	0	1211105280	38	4008
2026-01-06 13:20:27.08	238.65	23.42	-33.2	-34.4	20.2	0.00e+00	0	55	0	1217396736	38	4010
2026-01-06 13:20:28.09	238.90	23.49	-33.2	-34.4	20.1	0.00e+00	0	55	0	1222639616	38	4047
2026-01-06 13:20:29.10	239.16	23.56	-33.4	-34.7	19.9	0.00e+00	0	55	0	1227882496	38	4154
2026-01-06 13:20:30.11	239.41	23.63	-33.6	-34.8	19.8	0.00e+00	0	55	0	1234173952	38	4228
2026-01-06 13:20:31.12	239.66	23.70	-33.5	-34.7	19.8	0.00e+00	0	55	0	1239416832	38	4193
2026-01-06 13:20:32.13	239.92	23.77	-33.4	-34.6	19.9	0.00e+00	0	55	0	1245708288	38	4144
2026-01-06 13:20:33.14	240.17	23.84	-33.3	-34.5	20.1	0.00e+00	0	55	0	1250951168	38	4087
2026-01-06 13:20:34.15	240.43	23.91	-33.2	-34.4	20.1	0.00e+00	0	55	0	1256194048	38	4045
2026-01-06 13:20:35.16	240.69	23.98	-33.1	-34.3	20.3	0.00e+00	0	55	0	1262485504	38	3971
2026-01-06 13:20:36.17	240.95	24.05	-33.1	-34.3	20.2	0.00e+00	0	55	0	1267728384	38	3981
2026-01-06 13:20:37.18	241.21	24.11	-33.2	-34.4	20.2	0.00e+00	0	55	0	1274019840	38	4028
2026-01-06 13:20:38.19	241.47	24.18	-33.2	-34.4	20.1	0.00e+00	0	55	0	1279262720	38	4031
2026-01-06 13:20:39.20	241.74	24.25	-33.1	-34.3	20.3	0.00e+00	0	55	0	1284505600	38	3970
2026-01-06 13:20:40.21	242.00	24.31	-33.0	-34.2	20.3	0.00e+00	0	55	0	1290797056	38	3947
2026-01-06 13:20:41.22	242.26	24.38	-32.9	-34.1	20.4	0.00e+00	0	55	0	1296039936	37	4128
2026-01-06 13:20:42.23	242.53	24.44	-32.9	-34.1	20.5	0.00e+00	0	55	0	1302331392	37	4099
2026-01-06 13:20:43.24	242.80	24.51	-32.8	-34.0	20.5	0.00e+00	0	55	0	1307574272	37	4076
2026-01-06 13:20:44.25	243.07	24.57	-32.9	-34.0	20.5	0.00e+00	0	55	0	1313865728	37	4085
2026-01-06 13:20:45.26	243.34	24.63	-32.9	-34.1	20.4	0.00e+00	0	56	0	1319108608	37	4125
2026-01-06 13:20:46.27	243.61	24.70	-33.0	-34.2	20.3	0.00e+00	0	55	0	1324351488	37	4178
2026-01-06 13:20:47.28	243.88	24.76	-33.1	-34.4	20.2	0.00e+00	0	56	0	1330642944	37	4257
2026-01-06 13:20:48.29	244.15	24.82	-33.4	-34.5	20.6	0.00e+00	0	55	0	1335885824	37	4308
2026-01-06 13:20:49.30	244.42	24.88	-33.2	-34.3	20.7	0.00e+00	0	55	0	1342177280	37	4226
2026-01-06 13:20:50.31	244.70	24.94	-33.1	-34.1	20.9	0.00e+00	0	55	0	1347420160	37	4133
2026-01-06 13:20:51.32	244.97	25.00	-33.0	-34.1	21.0	0.00e+00	0	55	0	1352663040	37	4110
2026-01-06 13:20:52.33	245.25	25.06	-33.0	-34.1	20.9	0.00e+00	0	55	0	1358954496	37	4116
2026-01-06 13:20:53.34	245.53	25.12	-33.1	-34.1	20.9	0.00e+00	0	55	0	1364197376	37	4138
2026-01-06 13:20:54.35	245.81	25.18	-33.1	-34.2	20.8	0.00e+00	0	55	0	1370488832	37	4166
2026-01-06 13:20:55.36	246.09	25.24	-33.1	-34.2	20.9	0.00e+00	0	55	0	1375731712	37	4152
2026-01-06 13:20:56.37	246.37	25.30	-33.0	-34.1	20.9	0.00e+00	0	55	0	1380974592	37	4122
2026-01-06 13:20:57.39	246.65	25.36	-33.1	-34.1	20.9	0.00e+00	0	55	0	1387266048	37	4133
2026-01-06 13:20:58.40	246.93	25.41	-33.1	-34.1	20.9	0.00e+00	0	55	0	1392508928	37	4144
2026-01-06 13:20:59.41	247.22	25.47	-33.1	-34.2	20.8	0.00e+00	0	55	0	1398800384	37	4177
2026-01-06 13:21:00.42	247.50	25.52	-33.1	-34.2	20.8	0.00e+00	0	55	0	1404043264	37	4182
2026-01-06 13:21:01.43	247.79	25.58	-33.1	-34.2	20.8	0.00e+00	0	55	0	1410334720	37	4175
2026-01-06 13:21:02.44	248.08	25.63	-33.2	-34.2	20.8	0.00e+00	0	56	0	1415577600	37	4189
2026-01-06 13:21:03.45	248.36	25.68	-33.2	-34.3	20.8	0.00e+00	0	56	0	1421869056	37	4198
2026-01-06 13:21:04.46	248.65	25.74	-33.1	-34.2	20.8	0.00e+00	0	56	0	1427111936	37	4184
2026-01-06 13:21:05.47	248.94	25.79	-33.0	-34.1	20.9	0.00e+00	0	56	0	1432354816	37	4124
2026-01-06 13:21:06.48	249.23	25.84	-33.0	-34.0	21.0	0.00e+00	0	56	0	1438646272	37	4079
2026-01-06 13:21:07.49	249.52	25.89	-32.8	-33.9	21.1	0.00e+00	0	56	0	1443889152	37	4015
2026-01-06 13:21:08.50	249.81	25.94	-32.7	-33.7	21.3	0.00e+00	0	56	0	1450180608	37	3956
2026-01-06 13:21:09.51	250.11	25.99	-32.7	-33.8	21.2	0.00e+00	0	56	0	1455423488	37	3971
2026-01-06 13:21:10.52	250.40	26.04	-32.8	-33.9	21.1	0.00e+00	0	55	0	1460666368	37	4015
2026-01-06 13:21:11.53	250.70	26.09	-33.0	-34.1	21.0	0.00e+00	0	55	0	1466957824	37	4100
2026-01-06 13:21:12.54	250.99	26.13	-33.0	-34.1	20.9	0.00e+00	0	55	0	1472200704	37	4130
2026-01-06 13:21:13.55	251.29	26.18	-33.0	-34.1	21.0	0.00e+00	0	56	0	1478492160	37	4106
2026-01-06 13:21:14.56	251.59	26.22	-32.9	-33.9	21.1	0.00e+00	0	56	0	1483735040	37	4031
2026-01-06 13:21:15.57	251.88	26.27	-32.8	-33.9	21.2	0.00e+00	0	56	0	1488977920	37	4008
2026-01-06 13:21:16.58	252.18	26.31	-32.9	-34.0	21.1	0.00e+00	0	56	0	1495269376	37	4052
2026-01-06 13:21:17.59	252.48	26.36	-33.0	-34.1	20.9	0.00e+00	0	55	0	1500512256	37	4121
2026-01-06 13:21:18.60	252.78	26.40	-33.0	-34.1	20.9	0.00e+00	0	56	0	1506803712	37	4121
2026-01-06 13:21:19.61	253.08	26.44	-33.0	-34.1	21.0	0.00e+00	0	56	0	1512046592	37	4122
2026-01-06 13:21:20.62	253.39	26.48	-33.0	-34.1	20.9	0.00e+00	0	56	0	1518338048	37	4132
2026-01-06 13:21:21.63	253.69	26.52	-33.0	-34.1	20.9	0.00e+00	0	56	0	1523580928	37	4125
2026-01-06 13:21:22.64	253.99	26.56	-33.0	-34.1	20.9	0.00e+00	0	56	0	1529872384	37	4132
2026-01-06 13:21:23.65	254.30	26.60	-32.9	-34.0	21.0	0.00e+00	0	56	0	1535115264	37	4075
2026-01-06 13:21:24.66	254.60	26.64	-32.9	-34.0	21.0	0.00e+00	0	56	0	1540358144	37	4073
2026-01-06 13:21:25.67	254.91	26.68	-32.9	-34.0	21.1	0.00e+00	0	56	0	1546649600	37	4057
2026-01-06 13:21:26.68	255.21	26.71	-32.9	-34.0	21.0	0.00e+00	0	56	0	1551892480	37	4080
2026-01-06 13:21:27.70	255.52	26.75	-32.9	-34.0	21.1	0.00e+00	0	56	0	1558183936	37	4060
2026-01-06 13:21:28.71	255.83	26.78	-32.9	-34.0	21.1	0.00e+00	0	56	0	1563426816	37	4052
2026-01-06 13:21:29.72	256.14	26.82	-33.0	-34.0	21.0	0.00e+00	0	56	0	1568669696	37	4090
2026-01-06 13:21:30.73	256.45	26.85	-33.1	-34.1	20.9	0.00e+00	0	56	0	1574961152	37	4143
2026-01-06 13:21:31.74	256.76	26.88	-33.1	-34.2	20.9	0.00e+00	0	56	0	1580204032	37	4165
2026-01-06 13:21:32.75	257.07	26.91	-33.0	-34.1	20.9	0.00e+00	0	56	0	1586495488	37	4121
2026-01-06 13:21:33.76	257.38	26.94	-32.9	-34.0	21.1	0.00e+00	0	56	0	1591738368	37	4060
2026-01-06 13:21:34.77	257.69	26.97	-32.9	-33.9	21.1	0.00e+00	0	56	0	1596981248	37	4033
2026-01-06 13:21:35.78	258.00	27.00	-32.9	-33.9	21.1	0.00e+00	0	56	0	1603272704	37	4049
2026-01-06 13:21:36.79	258.32	27.03	-32.9	-34.0	21.0	0.00e+00	0	56	0	1608515584	37	4077
2026-01-06 13:21:37.80	258.63	27.06	-32.8	-33.8	21.2	0.00e+00	0	56	0	1614807040	37	3995
2026-01-06 13:21:38.81	258.94	27.08	-32.6	-33.7	21.3	0.00e+00	0	56	0	1620049920	37	3926
2026-01-06 13:21:39.82	259.26	27.11	-32.6	-33.7	21.3	0.00e+00	0	56	0	1626341376	37	3926
2026-01-06 13:21:40.83	259.57	27.13	-32.7	-33.7	21.3	0.00e+00	0	56	0	1631584256	37	3948
2026-01-06 13:21:41.84	259.89	27.16	-32.7	-33.8	21.3	0.00e+00	0	56	0	1637875712	37	3972
2026-01-06 13:21:42.85	260.20	27.18	-32.7	-33.7	21.3	0.00e+00	0	56	0	1643118592	37	3939
2026-01-06 13:21:43.86	260.52	27.20	-32.6	-33.6	21.4	0.00e+00	0	56	0	1648361472	37	3910
2026-01-06 13:21:44.87	260.83	27.22	-32.5	-33.5	21.5	0.00e+00	0	56	0	1654652928	37	3856
2026-01-06 13:21:45.88	261.15	27.24	-32.6	-33.6	21.4	0.00e+00	0	56	0	1659895808	37	3905
2026-01-06 13:21:46.89	261.47	27.26	-32.8	-33.9	21.2	0.00e+00	0	55	0	1666187264	37	4009
2026-01-06 13:21:47.90	261.79	27.28	-32.9	-34.0	21.0	0.00e+00	0	56	0	1671430144	37	4084
2026-01-06 13:21:48.91	262.10	27.29	-32.9	-34.0	21.0	0.00e+00	0	56	0	1676673024	37	4086
2026-01-06 13:21:49.92	262.42	27.31	-32.8	-33.9	21.1	0.00e+00	0	56	0	1682964480	37	4027
2026-01-06 13:21:50.93	262.74	27.33	-32.8	-33.8	21.2	0.00e+00	0	56	0	1688207360	37	3985
2026-01-06 13:21:51.94	263.06	27.34	-32.9	-33.9	21.1	0.00e+00	0	56	0	1694498816	37	4047
2026-01-06 13:21:52.95	263.38	27.35	-32.9	-34.0	21.1	0.00e+00	0	56	0	1699741696	37	4069
2026-01-06 13:21:53.96	263.70	27.37	-33.0	-34.0	21.0	0.00e+00	0	55	0	1704984576	37	4091
2026-01-06 13:21:54.97	264.01	27.38	-33.0	-34.0	21.0	0.00e+00	0	56	0	1711276032	37	4090
2026-01-06 13:21:55.98	264.33	27.39	-33.0	-34.1	21.0	0.00e+00	0	56	0	1716518912	37	4129
2026-01-06 13:21:56.99	264.65	27.40	-33.0	-34.1	21.0	0.00e+00	0	56	0	1722810368	37	4119
2026-01-06 13:21:58.00	264.97	27.41	-33.0	-34.1	21.0	0.00e+00	0	56	0	1728053248	37	4103
2026-01-06 13:21:59.01	265.29	27.41	-32.9	-34.0	21.1	0.00e+00	0	56	0	1734344704	37	4060
2026-01-06 13:22:00.02	265.61	27.42	-32.8	-33.9	21.2	0.00e+00	0	56	0	1739587584	37	4019
2026-01-06 13:22:01.03	265.93	27.43	-32.8	-33.8	21.2	0.00e+00	0	56	0	1744830464	37	4001
2026-01-06 13:22:02.04	266.25	27.43	-32.7	-33.8	21.3	0.00e+00	0	56	0	1751121920	37	3977
2026-01-06 13:22:03.05	266.58	27.44	-32.7	-33.8	21.3	0.00e+00	0	56	0	1756364800	37	3981
2026-01-06 13:22:04.06	266.90	27.44	-32.8	-33.8	21.2	0.00e+00	0	56	0	1762656256	37	4002
2026-01-06 13:22:05.07	267.22	27.44	-32.8	-33.9	21.2	0.00e+00	0	56	0	1767899136	37	4015
2026-01-06 13:22:06.08	267.54	27.44	-32.8	-33.9	21.2	0.00e+00	0	56	0	1773142016	37	4007
2026-01-06 13:22:07.09	267.86	27.44	-32.7	-33.8	21.3	0.00e+00	0	56	0	1779433472	37	3979
2026-01-06 13:22:08.10	268.18	27.44	-32.7	-33.7	21.3	0.00e+00	0	56	0	1784676352	37	3941
2026-01-06 13:22:09.11	268.50	27.44	-32.7	-33.7	21.3	0.00e+00	0	56	0	1790967808	37	3940
2026-01-06 13:22:10.12	268.82	27.44	-32.6	-33.7	21.4	0.00e+00	0	56	0	1796210688	37	3925
2026-01-06 13:22:11.13	269.14	27.43	-32.7	-33.8	21.3	0.00e+00	0	56	0	1802502144	37	3964
2026-01-06 13:22:12.14	269.46	27.43	-32.9	-33.9	21.1	0.00e+00	0	56	0	1807745024	37	4043
2026-01-06 13:22:13.15	269.78	27.42	-32.9	-34.0	21.1	0.00e+00	0	56	0	1812987904	37	4080
2026-01-06 13:22:14.16	270.10	27.42	-32.9	-34.0	21.0	0.00e+00	0	56	0	1819279360	37	4078
2026-01-06 13:22:15.17	270.42	27.41	-32.9	-34.0	21.1	0.00e+00	0	56	0	1824522240	37	4061
2026-01-06 13:22:16.18	270.74	27.40	-32.9	-34.0	21.1	0.00e+00	0	56	0	1830813696	37	4059
2026-01-06 13:22:17.19	271.06	27.39	-32.9	-33.9	21.1	0.00e+00	0	56	0	1836056576	37	4051
2026-01-06 13:22:18.20	271.38	27.38	-32.8	-33.9	21.2	0.00e+00	0	56	0	1842348032	37	4011
2026-01-06 13:22:19.21	271.70	27.37	-32.8	-33.9	21.2	0.00e+00	0	56	0	1847590912	37	4008
2026-01-06 13:22:20.22	272.02	27.36	-32.8	-33.9	21.2	0.00e+00	0	56	0	1852833792	37	4018
2026-01-06 13:22:21.23	272.34	27.35	-32.9	-33.9	21.1	0.00e+00	0	56	0	1859125248	37	4044
2026-01-06 13:22:22.24	272.65	27.33	-32.9	-33.9	21.1	0.00e+00	0	56	0	1864368128	37	4036
2026-01-06 13:22:23.25	272.97	27.32	-32.8	-33.9	21.1	0.00e+00	0	56	0	1870659584	37	4027
2026-01-06 13:22:24.26	273.29	27.30	-32.7	-33.8	21.3	0.00e+00	0	56	0	1875902464	37	3971
2026-01-06 13:22:25.27	273.61	27.29	-32.7	-33.7	21.3	0.00e+00	0	56	0	1881145344	37	3956
2026-01-06 13:22:26.28	273.93	27.27	-32.7	-33.7	21.3	0.00e+00	0	56	0	1887436800	37	3952
2026-01-06 13:22:27.29	274.24	27.25	-32.7	-33.7	21.3	0.00e+00	0	56	0	1892679680	37	3952
2026-01-06 13:22:28.30	274.56	27.23	-32.7	-33.8	21.2	0.00e+00	0	56	0	1898971136	37	3967
2026-01-06 13:22:29.31	274.87	27.21	-32.7	-33.8	21.3	0.00e+00	0	56	0	1904214016	37	3974
2026-01-06 13:22:30.32	275.19	27.19	-32.9	-34.0	21.1	0.00e+00	0	56	0	1909456896	37	4058
2026-01-06 13:22:31.33	275.51	27.17	-33.0	-34.1	20.9	0.00e+00	0	56	0	1915748352	37	4115
2026-01-06 13:22:32.35	275.82	27.14	-33.1	-34.2	20.9	0.00e+00	0	56	0	1920991232	37	4151
2026-01-06 13:22:33.36	276.14	27.12	-33.0	-34.1	20.9	0.00e+00	0	56	0	1927282688	37	4127
2026-01-06 13:22:34.37	276.45	27.09	-33.0	-34.1	21.0	0.00e+00	0	56	0	1932525568	37	4102
2026-01-06 13:22:35.38	276.76	27.07	-33.0	-34.1	21.0	0.00e+00	0	56	0	1938817024	37	4123
2026-01-06 13:22:36.39	277.08	27.04	-33.0	-34.1	21.0	0.00e+00	0	56	0	1944059904	37	4114
2026-01-06 13:22:37.40	277.39	27.01	-33.0	-34.1	21.0	0.00e+00	0	56	0	1950351360	37	4110
2026-01-06 13:22:38.41	277.70	26.99	-33.0	-34.1	21.0	0.00e+00	0	56	0	1955594240	37	4107
2026-01-06 13:22:39.42	278.01	26.96	-32.9	-34.0	21.1	0.00e+00	0	56	0	1960837120	37	4065
2026-01-06 13:22:40.43	278.32	26.93	-32.8	-33.8	21.2	0.00e+00	0	56	0	1967128576	37	3994
2026-01-06 13:22:41.44	278.63	26.90	-32.7	-33.8	21.2	0.00e+00	0	56	0	1972371456	37	3973
2026-01-06 13:22:42.45	278.94	26.86	-32.7	-33.7	21.3	0.00e+00	0	56	0	1978662912	37	3942
2026-01-06 13:22:43.46	279.25	26.83	-32.7	-33.8	21.2	0.00e+00	0	56	0	1983905792	37	3969
2026-01-06 13:22:44.47	279.56	26.80	-32.9	-33.9	21.1	0.00e+00	0	56	0	1989148672	37	4048
2026-01-06 13:22:45.48	279.87	26.76	-32.9	-34.0	21.0	0.00e+00	0	56	0	1995440128	37	4073
2026-01-06 13:22:46.49	280.17	26.73	-33.0	-34.1	21.0	0.00e+00	0	56	0	2000683008	37	4115
2026-01-06 13:22:47.50	280.48	26.69	-33.0	-34.1	20.9	0.00e+00	0	56	0	2006974464	37	4116
2026-01-06 13:22:48.51	280.79	26.66	-33.0	-34.1	21.0	0.00e+00	0	56	0	2012217344	37	4109
2026-01-06 13:22:49.52	281.09	26.62	-33.0	-34.0	21.0	0.00e+00	0	56	0	2017460224	37	4087
2026-01-06 13:22:50.53	281.39	26.58	-33.0	-34.1	21.0	0.00e+00	0	56	0	2023751680	37	4102
2026-01-06 13:22:51.54	281.70	26.54	-33.0	-34.1	20.9	0.00e+00	0	56	0	2028994560	37	4139
2026-01-06 13:22:52.55	282.00	26.50	-33.1	-34.2	20.8	0.00e+00	0	56	0	2035286016	37	4162
2026-01-06 13:22:53.56	282.30	26.46	-33.1	-34.2	20.9	0.00e+00	0	56	0	2040528896	37	4151
2026-01-06 13:22:54.57	282.60	26.42	-33.0	-34.1	20.9	0.00e+00	0	56	0	2046820352	37	4121
2026-01-06 13:22:55.58	282.90	26.38	-32.9	-34.0	21.1	0.00e+00	0	56	0	2052063232	37	4052
2026-01-06 13:22:56.59	283.20	26.34	-32.9	-33.9	21.1	0.00e+00	0	56	0	2058354688	37	4036
2026-01-06 13:22:57.60	283.50	26.29	-32.9	-34.0	21.0	0.00e+00	0	56	0	2063597568	37	4057
2026-01-06 13:22:58.61	283.80	26.25	-33.0	-34.1	20.9	0.00e+00	0	56	0	2068840448	37	4114
2026-01-06 13:22:59.62	284.10	26.20	-33.2	-34.2	20.8	0.00e+00	0	56	0	2075131904	37	4183
2026-01-06 13:23:00.63	284.39	26.16	-33.3	-34.4	20.7	0.00e+00	0	56	0	2080374784	37	4261
2026-01-06 13:23:01.64	284.69	26.11	-33.4	-34.5	20.6	0.00e+00	0	56	0	2086666240	37	4312
2026-01-06 13:23:02.65	284.98	26.06	-33.4	-34.5	20.5	0.00e+00	0	56	0	2091909120	37	4316
2026-01-06 13:23:03.67	285.28	26.01	-33.3	-34.4	20.6	0.00e+00	0	56	0	2097152000	37	4276
2026-01-06 13:23:04.68	285.57	25.97	-33.2	-34.3	20.7	0.00e+00	0	56	0	2103443456	37	4235
2026-01-06 13:23:05.69	285.86	25.92	-33.2	-34.3	20.8	0.00e+00	0	56	0	2108686336	37	4203
2026-01-06 13:23:06.70	286.15	25.87	-33.2	-34.3	20.8	0.00e+00	0	56	0	2114977792	37	4211
2026-01-06 13:23:07.71	286.44	25.82	-33.1	-34.2	20.8	0.00e+00	0	56	0	2120220672	37	4189
2026-01-06 13:23:08.72	286.73	25.76	-33.2	-34.3	20.8	0.00e+00	0	56	0	2125463552	37	4196
2026-01-06 13:23:09.73	287.02	25.71	-33.1	-34.2	20.8	0.00e+00	0	56	0	2131755008	37	4179
2026-01-06 13:23:10.74	287.31	25.66	-33.1	-34.2	20.9	0.00e+00	0	56	0	2136997888	37	4146
2026-01-06 13:23:11.75	287.59	25.61	-33.0	-34.1	20.9	0.00e+00	0	56	0	2143289344	37	4118
2026-01-06 13:23:12.76	287.88	25.55	-33.0	-34.0	21.0	0.00e+00	0	56	0	2148532224	37	4080
2026-01-06 13:23:13.77	288.16	25.50	-33.0	-34.0	20.9	0.00e+00	0	56	0	2154823680	37	4098
2026-01-06 13:23:14.78	288.45	25.44	-33.1	-34.2	20.9	0.00e+00	0	56	0	2160066560	37	4147
2026-01-06 13:23:15.79	288.73	25.39	-33.2	-34.3	20.7	0.00e+00	0	56	0	2166358016	37	4232
2026-01-06 13:23:16.80	289.01	25.33	-33.3	-34.4	20.6	0.00e+00	0	56	0	2171600896	37	4288
2026-01-06 13:23:17.81	289.29	25.27	-33.4	-34.5	20.5	0.00e+00	0	56	0	2176843776	37	4320
2026-01-06 13:23:18.82	289.57	25.22	-33.4	-34.5	20.5	0.00e+00	0	56	0	2183135232	37	4324
2026-01-06 13:23:19.83	289.85	25.16	-33.4	-34.5	20.6	0.00e+00	0	56	0	2188378112	37	4300
2026-01-06 13:23:20.84	290.13	25.10	-33.3	-34.4	20.6	0.00e+00	0	56	0	2194669568	37	4259
2026-01-06 13:23:21.85	290.40	25.04	-33.3	-34.4	20.6	0.00e+00	0	56	0	2199912448	37	4254
2026-01-06 13:23:22.85	290.67	24.98	-33.3	-34.4	20.6	0.00e+00	0	56	0	2205155328	37	4263
2026-01-06 13:23:23.86	290.95	24.92	-33.4	-34.5	20.5	0.00e+00	0	56	0	2211446784	37	4318
2026-01-06 13:23:24.88	291.22	24.86	-33.4	-34.5	20.5	0.00e+00	0	56	0	2216689664	37	4335
2026-01-06 13:23:25.89	291.50	24.80	-33.5	-34.6	20.4	0.00e+00	0	56	0	2222981120	37	4378
2026-01-06 13:23:26.90	291.77	24.74	-33.5	-34.7	20.4	0.00e+00	0	56	0	2228224000	37	4398
2026-01-06 13:23:27.90	292.03	24.67	-33.4	-34.5	20.5	0.00e+00	0	56	0	2233466880	37	4335
2026-01-06 13:23:28.91	292.30	24.61	-33.3	-34.4	20.6	0.00e+00	0	56	0	2239758336	37	4275
2026-01-06 13:23:29.92	292.57	24.55	-33.2	-34.3	20.7	0.00e+00	0	56	0	2245001216	37	4233
2026-01-06 13:23:30.93	292.84	24.48	-33.2	-34.3	20.7	0.00e+00	0	56	0	2251292672	37	4226
2026-01-06 13:23:31.94	293.10	24.42	-33.3	-34.4	20.6	0.00e+00	0	56	0	2256535552	37	4291
2026-01-06 13:23:32.95	293.37	24.35	-33.4	-34.6	20.5	0.00e+00	0	56	0	2262827008	37	4344
2026-01-06 13:23:33.96	293.63	24.29	-33.5	-34.6	20.4	0.00e+00	0	56	0	2268069888	37	4377
2026-01-06 13:23:34.97	293.90	24.22	-33.5	-34.6	20.4	0.00e+00	0	56	0	2273312768	37	4364
2026-01-06 13:23:35.98	294.16	24.16	-33.4	-34.5	20.5	0.00e+00	0	56	0	2279604224	37	4312
2026-01-06 13:23:36.99	294.42	24.09	-33.4	-34.5	20.5	0.00e+00	0	56	0	2284847104	37	4298
2026-01-06 13:23:38.00	294.68	24.02	-33.4	-34.4	20.6	0.00e+00	0	56	0	2291138560	37	4290
2026-01-06 13:23:39.01	294.93	23.96	-33.4	-34.5	20.5	0.00e+00	0	56	0	2296381440	37	4326
2026-01-06 13:23:40.02	295.19	23.89	-33.5	-34.7	20.3	0.00e+00	0	56	0	2301624320	37	4395
2026-01-06 13:23:41.03	295.45	23.82	-33.7	-34.8	20.2	0.00e+00	0	56	0	2307915776	37	4479
2026-01-06 13:23:42.04	295.70	23.75	-33.8	-34.9	20.1	0.00e+00	0	56	0	2313158656	38	4286
2026-01-06 13:23:43.05	295.96	23.68	-33.8	-34.9	20.1	0.00e+00	0	56	0	2319450112	38	4287
2026-01-06 13:23:44.06	296.21	23.61	-33.7	-34.9	20.1	0.00e+00	0	56	0	2324692992	38	4252
2026-01-06 13:23:45.07	296.46	23.54	-33.7	-34.8	20.2	0.00e+00	0	56	0	2329935872	38	4232
2026-01-06 13:23:46.08	296.71	23.47	-33.6	-34.8	20.2	0.00e+00	0	56	0	2336227328	38	4197
2026-01-06 13:23:47.09	296.96	23.40	-33.6	-34.7	20.3	0.00e+00	0	56	0	2341470208	38	4162
2026-01-06 13:23:48.10	297.21	23.33	-33.5	-34.6	20.4	0.00e+00	0	56	0	2347761664	38	4120
2026-01-06 13:23:49.11	297.46	23.26	-33.5	-34.6	20.4	0.00e+00	0	56	0	2353004544	38	4116
2026-01-06 13:23:50.12	297.70	23.19	-33.5	-34.6	20.4	0.00e+00	0	56	0	2359296000	38	4131
2026-01-06 13:23:51.13	297.95	23.12	-33.6	-34.7	20.3	0.00e+00	0	56	0	2364538880	38	4153
2026-01-06 13:23:52.14	298.19	23.04	-33.6	-34.8	20.2	0.00e+00	0	56	0	2370830336	38	4199
2026-01-06 13:23:53.15	298.43	22.97	-33.8	-34.9	20.1	0.00e+00	0	56	0	2376073216	38	4262
2026-01-06 13:23:54.16	298.68	22.90	-33.9	-35.0	20.0	0.00e+00	0	56	0	2381316096	38	4325
2026-01-06 13:23:55.17	298.92	22.83	-33.9	-35.1	19.9	0.00e+00	0	56	0	2387607552	38	4355
2026-01-06 13:23:56.18	299.16	22.75	-34.0	-35.2	19.9	0.00e+00	0	56	0	2392850432	38	4397
2026-01-06 13:23:57.19	299.39	22.68	-34.0	-35.2	19.8	0.00e+00	0	56	0	2399141888	38	4414
2026-01-06 13:23:58.20	299.63	22.60	-34.0	-35.2	19.8	0.00e+00	0	56	0	2404384768	38	4427
2026-01-06 13:23:59.21	299.87	22.53	-34.0	-35.2	19.9	0.00e+00	0	56	0	2409627648	38	4410
2026-01-06 13:24:00.22	300.10	22.45	-34.0	-35.1	19.9	0.00e+00	0	56	0	2415919104	38	4385
2026-01-06 13:24:01.23	300.34	22.38	-33.9	-35.1	19.9	0.00e+00	0	56	0	2421161984	38	4354
2026-01-06 13:24:02.24	300.57	22.30	-33.9	-35.1	19.9	0.00e+00	0	56	0	2427453440	38	4359
2026-01-06 13:24:03.25	300.80	22.23	-33.9	-35.1	19.9	0.00e+00	0	56	0	2432696320	38	4359
2026-01-06 13:24:04.26	301.03	22.15	-33.9	-35.1	19.9	0.00e+00	0	56	0	2437939200	38	4344
2026-01-06 13:24:05.27	301.26	22.08	-34.0	-35.1	19.9	0.00e+00	0	56	0	2444230656	38	4382
2026-01-06 13:24:06.28	301.49	22.00	-34.0	-35.2	19.8	0.00e+00	0	56	0	2449473536	38	4399
2026-01-06 13:24:07.29	301.72	21.93	-34.0	-35.2	19.8	0.00e+00	0	56	0	2455764992	38	4411
2026-01-06 13:24:08.30	301.94	21.85	-34.1	-35.2	19.8	0.00e+00	0	56	0	2461007872	38	4436
2026-01-06 13:24:09.31	302.17	21.77	-34.0	-35.2	19.8	0.00e+00	0	56	0	2467299328	38	4411
2026-01-06 13:24:10.32	302.39	21.69	-33.9	-35.1	19.9	0.00e+00	0	56	0	2472542208	38	4356
2026-01-06 13:24:11.33	302.61	21.62	-33.8	-35.0	20.0	0.00e+00	0	56	0	2478833664	38	4308
2026-01-06 13:24:12.34	302.83	21.54	-33.8	-34.9	20.0	0.00e+00	0	56	0	2484076544	38	4277
2026-01-06 13:24:13.35	303.06	21.46	-33.8	-34.9	20.0	0.00e+00	0	56	0	2489319424	38	4277
2026-01-06 13:24:14.37	303.28	21.38	-33.9	-35.0	19.9	0.00e+00	0	56	0	2495610880	38	4321
2026-01-06 13:24:15.37	303.49	21.31	-34.0	-35.1	19.8	0.00e+00	0	56	0	2500853760	38	4385
2026-01-06 13:24:16.38	303.71	21.23	-34.1	-35.3	19.7	0.00e+00	0	56	0	2507145216	38	4450
2026-01-06 13:24:17.40	303.93	21.15	-34.2	-35.4	19.6	0.00e+00	0	56	0	2512388096	38	4501
2026-01-06 13:24:18.41	304.14	21.07	-34.2	-35.4	19.6	0.00e+00	0	56	0	2517630976	38	4503
2026-01-06 13:24:19.42	304.36	20.99	-34.2	-35.4	19.6	0.00e+00	0	56	0	2523922432	39	4249
2026-01-06 13:24:20.43	304.57	20.91	-34.2	-35.4	19.5	0.00e+00	0	56	0	2529165312	39	4283
2026-01-06 13:24:21.44	304.78	20.84	-34.2	-35.4	19.5	0.00e+00	0	56	0	2535456768	39	4280
2026-01-06 13:24:22.45	305.00	20.76	-34.3	-35.5	19.5	0.00e+00	0	56	0	2540699648	39	4310
2026-01-06 13:24:23.46	305.21	20.68	-34.4	-35.6	19.4	0.00e+00	0	56	0	2545942528	39	4361
2026-01-06 13:24:24.46	305.41	20.60	-34.5	-35.7	19.3	0.00e+00	0	56	0	2552233984	39	4410
2026-01-06 13:24:25.48	305.62	20.52	-34.5	-35.7	19.2	0.00e+00	0	56	0	2557476864	39	4435
2026-01-06 13:24:26.49	305.83	20.44	-34.5	-35.7	19.2	0.00e+00	0	56	0	2563768320	39	4430
2026-01-06 13:24:27.50	306.03	20.36	-34.6	-35.8	19.1	0.00e+00	0	56	0	2569011200	39	4470
2026-01-06 13:24:28.51	306.24	20.28	-34.6	-35.8	19.1	0.00e+00	0	56	0	2574254080	39	4485
2026-01-06 13:24:29.52	306.44	20.20	-34.6	-35.9	19.1	0.00e+00	0	56	0	2580545536	39	4495
2026-01-06 13:24:30.53	306.65	20.12	-34.7	-36.0	19.0	0.00e+00	0	56	0	2585788416	39	4563
2026-01-06 13:24:31.54	306.85	20.04	-34.7	-36.0	18.9	0.00e+00	0	56	0	2592079872	40	4296
2026-01-06 13:24:32.55	307.05	19.96	-34.7	-35.9	19.0	0.00e+00	0	56	0	2597322752	40	4271
2026-01-06 13:24:33.56	307.25	19.88	-34.6	-35.8	19.1	0.00e+00	0	56	0	2603614208	40	4237
2026-01-06 13:24:34.57	307.45	19.80	-34.5	-35.7	19.1	0.00e+00	0	56	0	2608857088	40	4184
2026-01-06 13:24:35.58	307.64	19.72	-34.4	-35.7	19.2	0.00e+00	0	56	0	2615148544	40	4146
2026-01-06 13:24:36.59	307.84	19.64	-34.4	-35.6	19.3	0.00e+00	0	56	0	2620391424	40	4101
2026-01-06 13:24:37.60	308.04	19.56	-34.3	-35.5	19.4	0.00e+00	0	56	0	2625634304	40	4075
2026-01-06 13:24:38.61	308.23	19.48	-34.3	-35.5	19.4	0.00e+00	0	56	0	2631925760	40	4060
2026-01-06 13:24:39.63	308.42	19.40	-34.3	-35.5	19.4	0.00e+00	0	56	0	2637168640	40	4058
2026-01-06 13:24:40.64	308.62	19.32	-34.3	-35.5	19.3	0.00e+00	0	56	0	2643460096	40	4084
2026-01-06 13:24:41.65	308.81	19.24	-34.4	-35.6	19.3	0.00e+00	0	56	0	2648702976	40	4113
2026-01-06 13:24:42.66	309.00	19.16	-34.5	-35.7	19.1	0.00e+00	0	56	0	2653945856	40	4185
2026-01-06 13:24:43.66	309.19	19.08	-34.6	-35.8	19.0	0.00e+00	0	56	0	2660237312	40	4233
2026-01-06 13:24:44.67	309.38	18.99	-34.7	-36.0	18.9	0.00e+00	0	56	0	2665480192	40	4318
2026-01-06 13:24:45.68	309.56	18.91	-34.8	-36.1	18.8	0.00e+00	0	56	0	2671771648	40	4364
2026-01-06 13:24:46.70	309.75	18.83	-34.9	-36.2	18.7	0.00e+00	0	56	0	2677014528	40	4402
2026-01-06 13:24:47.71	309.94	18.75	-34.8	-36.1	18.7	0.00e+00	0	56	0	2682257408	40	4373
2026-01-06 13:24:48.72	310.12	18.67	-34.9	-36.1	18.7	0.00e+00	0	56	0	2688548864	40	4386
2026-01-06 13:24:49.73	310.31	18.59	-34.8	-36.1	18.8	0.00e+00	0	56	0	2693791744	40	4357
2026-01-06 13:24:50.74	310.49	18.51	-34.9	-36.1	18.7	0.00e+00	0	56	0	2700083200	40	4385
2026-01-06 13:24:51.75	310.67	18.43	-34.9	-36.1	18.7	0.00e+00	0	56	0	2705326080	40	4374
2026-01-06 13:24:52.76	310.85	18.35	-34.9	-36.1	18.7	0.00e+00	0	56	0	2711617536	40	4383
2026-01-06 13:24:53.77	311.03	18.27	-34.9	-36.2	18.7	0.00e+00	0	56	0	2716860416	40	4417
2026-01-06 13:24:54.77	311.21	18.19	-35.0	-36.3	18.6	0.00e+00	0	56	0	2722103296	40	4458
2026-01-06 13:24:55.78	311.39	18.11	-35.0	-36.3	18.6	0.00e+00	0	56	0	2728394752	40	4463
2026-01-06 13:24:56.79	311.56	18.02	-35.0	-36.3	18.5	0.00e+00	0	56	0	2733637632	40	4463
2026-01-06 13:24:57.80	311.74	17.94	-35.0	-36.2	18.6	0.00e+00	0	56	0	2739929088	40	4435
2026-01-06 13:24:58.81	311.92	17.86	-34.9	-36.2	18.6	0.00e+00	0	56	0	2745171968	40	4411
2026-01-06 13:24:59.82	312.09	17.78	-34.9	-36.2	18.7	0.00e+00	0	56	0	2750414848	40	4404
2026-01-06 13:25:00.83	312.26	17.70	-35.0	-36.3	18.6	0.00e+00	0	56	0	2756706304	40	4455
2026-01-06 13:25:01.84	312.44	17.62	-35.0	-36.3	18.5	0.00e+00	0	56	0	2761949184	40	4463
2026-01-06 13:25:02.85	312.61	17.54	-35.1	-36.4	18.5	0.00e+00	0	56	0	2768240640	40	4499
2026-01-06 13:25:03.86	312.78	17.46	-35.1	-36.4	18.4	0.00e+00	0	56	0	2773483520	40	4524
2026-01-06 13:25:04.87	312.95	17.38	-35.1	-36.4	18.4	0.00e+00	0	56	0	2778726400	40	4526
2026-01-06 13:25:05.88	313.12	17.30	-35.1	-36.4	18.5	0.00e+00	0	56	0	2785017856	40	4501
2026-01-06 13:25:06.89	313.29	17.22	-35.0	-36.3	18.5	0.00e+00	0	56	0	2790260736	40	4488
2026-01-06 13:25:07.90	313.45	17.14	-35.1	-36.4	18.4	0.00e+00	0	56	0	2796552192	40	4514
2026-01-06 13:25:08.91	313.62	17.05	-35.1	-36.4	18.4	0.00e+00	0	56	0	2801795072	40	4504
2026-01-06 13:25:09.92	313.78	16.97	-35.2	-36.5	18.4	0.00e+00	0	56	0	2808086528	40	4551
2026-01-06 13:25:10.93	313.95	16.89	-35.2	-36.5	18.3	0.00e+00	0	56	0	2813329408	40	4589
2026-01-06 13:25:11.95	314.11	16.81	-35.2	-36.5	18.3	0.00e+00	0	56	0	2819620864	41	4337
2026-01-06 13:25:12.96	314.28	16.73	-35.3	-36.6	18.2	0.00e+00	0	56	0	2824863744	41	4384
2026-01-06 13:25:13.97	314.44	16.65	-35.2	-36.5	18.2	0.00e+00	0	56	0	2830106624	41	4340
2026-01-06 13:25:14.98	314.60	16.57	-35.1	-36.4	18.4	0.00e+00	0	56	0	2836398080	41	4273
2026-01-06 13:25:15.99	314.76	16.49	-35.1	-36.3	18.4	0.00e+00	0	56	0	2841640960	41	4240
2026-01-06 13:25:17.00	314.92	16.41	-35.0	-36.3	18.5	0.00e+00	0	56	0	2847932416	41	4199
2026-01-06 13:25:18.01	315.08	16.33	-34.9	-36.2	18.6	0.00e+00	0	56	0	2853175296	41	4174
2026-01-06 13:25:19.02	315.24	16.25	-35.0	-36.2	18.5	0.00e+00	0	56	0	2858418176	41	4184
2026-01-06 13:25:20.03	315.40	16.17	-35.1	-36.3	18.4	0.00e+00	0	56	0	2864709632	41	4237
2026-01-06 13:25:21.04	315.55	16.09	-35.1	-36.4	18.4	0.00e+00	0	56	0	2869952512	41	4269
2026-01-06 13:25:22.05	315.71	16.01	-35.1	-36.4	18.3	0.00e+00	0	56	0	2876243968	41	4288
2026-01-06 13:25:23.06	315.86	15.93	-35.3	-36.7	18.1	0.00e+00	0	56	0	2881486848	41	4401
2026-01-06 13:25:24.07	316.02	15.85	-35.3	-36.7	18.1	0.00e+00	0	56	0	2886729728	41	4394
2026-01-06 13:25:25.08	316.17	15.77	-35.4	-36.8	18.0	0.00e+00	0	56	0	2893021184	41	4453
2026-01-06 13:25:26.09	316.32	15.69	-35.4	-36.8	18.0	0.00e+00	0	56	0	2898264064	41	4467
2026-01-06 13:25:27.10	316.47	15.61	-35.4	-36.8	18.0	0.00e+00	0	56	0	2904555520	41	4444
2026-01-06 13:25:28.11	316.62	15.53	-35.3	-36.7	18.1	0.00e+00	0	56	0	2909798400	41	4397
2026-01-06 13:25:29.12	316.77	15.45	-35.4	-36.7	18.1	0.00e+00	0	56	0	2916089856	41	4415
2026-01-06 13:25:30.13	316.92	15.37	-35.3	-36.7	18.1	0.00e+00	0	56	0	2921332736	41	4398
2026-01-06 13:25:31.14	317.07	15.29	-35.3	-36.6	18.1	0.00e+00	0	56	0	2927624192	41	4383
2026-01-06 13:25:32.15	317.22	15.22	-35.3	-36.7	18.1	0.00e+00	0	56	0	2932867072	41	4399
2026-01-06 13:25:33.16	317.37	15.14	-35.3	-36.7	18.1	0.00e+00	0	56	0	2938109952	41	4397
2026-01-06 13:25:34.17	317.51	15.06	-35.4	-36.8	17.9	0.00e+00	0	56	0	2944401408	41	4468
2026-01-06 13:25:35.18	317.66	14.98	-35.5	-36.9	17.8	0.00e+00	0	56	0	2949644288	41	4511
2026-01-06 13:25:36.19	317.80	14.90	-35.5	-36.9	17.8	0.00e+00	0	56	0	2955935744	41	4525
2026-01-06 13:25:37.20	317.95	14.82	-35.6	-36.9	17.8	0.00e+00	0	56	0	2961178624	41	4536
2026-01-06 13:25:38.21	318.09	14.74	-35.6	-37.0	17.7	0.00e+00	0	56	0	2966421504	41	4566
2026-01-06 13:25:39.22	318.23	14.66	-35.6	-37.0	17.7	0.00e+00	0	56	0	2972712960	41	4568
2026-01-06 13:25:40.23	318.37	14.59	-35.6	-37.0	17.7	0.00e+00	0	56	0	2977955840	41	4548
2026-01-06 13:25:41.24	318.51	14.51	-35.6	-37.0	17.7	0.00e+00	0	56	0	2984247296	41	4556
2026-01-06 13:25:42.25	318.66	14.43	-35.6	-37.0	17.7	0.00e+00	0	56	0	2989490176	41	4564
2026-01-06 13:25:43.26	318.79	14.35	-35.6	-37.0	17.7	0.00e+00	0	56	0	2994733056	41	4591
2026-01-06 13:25:44.27	318.93	14.27	-35.6	-37.1	17.7	0.00e+00	0	56	0	3001024512	41	4599
2026-01-06 13:25:45.28	319.07	14.19	-35.7	-37.0	17.7	0.00e+00	0	56	0	3006267392	41	4593
2026-01-06 13:25:46.29	319.21	14.12	-35.7	-37.1	17.5	0.00e+00	0	56	0	3012558848	42	4386
2026-01-06 13:25:47.30	319.35	14.04	-35.8	-37.2	17.6	0.00e+00	0	56	0	3017801728	42	4395
2026-01-06 13:25:48.31	319.48	13.96	-35.8	-37.2	17.6	0.00e+00	0	56	0	3024093184	42	4394
2026-01-06 13:25:49.32	319.62	13.88	-35.7	-37.1	17.6	0.00e+00	0	56	0	3029336064	42	4383
2026-01-06 13:25:50.33	319.75	13.81	-35.7	-37.1	17.6	0.00e+00	0	56	0	3035627520	42	4361
2026-01-06 13:25:51.34	319.89	13.73	-35.7	-37.1	17.5	0.00e+00	0	56	0	3040870400	42	4391
2026-01-06 13:25:52.35	320.02	13.65	-35.8	-37.2	17.5	0.00e+00	0	56	0	3046113280	42	4392
2026-01-06 13:25:53.36	320.15	13.57	-35.8	-37.2	17.5	0.00e+00	0	56	0	3052404736	42	4402
2026-01-06 13:25:54.38	320.29	13.50	-35.8	-37.2	17.5	0.00e+00	0	56	0	3057647616	42	4400
2026-01-06 13:25:55.38	320.42	13.42	-35.8	-37.2	17.4	0.00e+00	0	56	0	3063939072	42	4424
2026-01-06 13:25:56.39	320.55	13.34	-35.8	-37.2	17.4	0.00e+00	0	56	0	3069181952	42	4431
2026-01-06 13:25:57.40	320.68	13.27	-35.8	-37.2	17.4	0.00e+00	0	56	0	3074424832	42	4433
2026-01-06 13:25:58.42	320.81	13.19	-35.9	-37.3	17.3	0.00e+00	0	56	0	3080716288	42	4486
2026-01-06 13:25:59.43	320.94	13.11	-35.9	-37.4	17.3	0.00e+00	0	56	0	3085959168	42	4499
2026-01-06 13:26:00.44	321.07	13.04	-36.0	-37.4	17.3	0.00e+00	0	56	0	3092250624	42	4528
2026-01-06 13:26:01.45	321.19	12.96	-36.0	-37.4	17.2	0.00e+00	0	56	0	3097493504	42	4544
2026-01-06 13:26:02.46	321.32	12.89	-36.0	-37.5	17.2	0.00e+00	0	56	0	3102736384	42	4559
2026-01-06 13:26:03.47	321.45	12.81	-36.0	-37.5	17.1	0.00e+00	0	56	0	3109027840	42	4584
2026-01-06 13:26:04.48	321.57	12.73	-36.1	-37.5	17.1	0.00e+00	0	56	0	3114270720	42	4588
2026-01-06 13:26:05.49	321.70	12.66	-36.0	-37.5	17.1	0.00e+00	0	56	0	3120562176	42	4582
2026-01-06 13:26:06.50	321.82	12.58	-36.1	-37.6	17.0	0.00e+00	0	56	0	3125805056	42	4637
2026-01-06 13:26:07.51	321.94	12.51	-36.0	-37.5	17.1	0.00e+00	0	56	0	3132096512	42	4571
2026-01-06 13:26:08.52	322.07	12.43	-36.0	-37.5	17.1	0.00e+00	0	56	0	3137339392	42	4578
2026-01-06 13:26:09.53	322.19	12.36	-36.0	-37.4	17.2	0.00e+00	0	56	0	3142582272	42	4540
2026-01-06 13:26:10.53	322.31	12.28	-36.0	-37.4	17.2	0.00e+00	0	56	0	3148873728	42	4534
2026-01-06 13:26:11.54	322.43	12.21	-36.0	-37.4	17.2	0.00e+00	0	56	0	3154116608	42	4540
2026-01-06 13:26:12.56	322.55	12.13	-35.8	-37.3	17.3	0.00e+00	0	56	0	3160408064	42	4458
2026-01-06 13:26:13.57	322.67	12.06	-35.9	-37.3	17.3	0.00e+00	0	56	0	3165650944	42	4478
2026-01-06 13:26:14.58	322.79	11.98	-36.0	-37.4	17.2	0.00e+00	0	56	0	3170893824	42	4523
2026-01-06 13:26:15.59	322.91	11.91	-35.9	-37.3	17.2	0.00e+00	0	56	0	3177185280	42	4493
2026-01-06 13:26:16.60	323.03	11.83	-36.0	-37.4	17.1	0.00e+00	0	56	0	3182428160	42	4528
2026-01-06 13:26:17.61	323.15	11.76	-36.0	-37.5	17.1	0.00e+00	0	56	0	3188719616	42	4553
2026-01-06 13:26:18.62	323.27	11.68	-36.0	-37.5	17.1	0.00e+00	0	56	0	3193962496	42	4573
2026-01-06 13:26:19.63	323.38	11.61	-35.9	-37.4	17.2	0.00e+00	0	56	0	3200253952	42	4513
2026-01-06 13:26:20.64	323.50	11.54	-36.1	-37.6	16.9	0.00e+00	0	56	0	3205496832	42	4636
2026-01-06 13:26:21.65	323.62	11.46	-36.1	-37.6	17.0	0.00e+00	0	56	0	3210739712	42	4642
2026-01-06 13:26:22.66	323.73	11.39	-36.1	-37.6	16.9	0.00e+00	0	56	0	3217031168	42	4649
2026-01-06 13:26:23.67	323.84	11.31	-36.1	-37.6	16.9	0.00e+00	0	56	0	3222274048	42	4637
2026-01-06 13:26:24.68	323.96	11.24	-36.2	-37.8	16.8	0.00e+00	0	56	0	3228565504	43	4445
2026-01-06 13:26:25.69	324.07	11.17	-36.1	-37.6	16.9	0.00e+00	0	56	0	3233808384	43	4371
2026-01-06 13:26:26.70	324.19	11.09	-36.3	-37.8	16.7	0.00e+00	0	56	0	3240099840	43	4474
2026-01-06 13:26:27.71	324.30	11.02	-36.3	-37.8	16.7	0.00e+00	0	56	0	3245342720	43	4488
2026-01-06 13:26:28.72	324.41	10.95	-36.3	-37.8	16.7	0.00e+00	0	56	0	3250585600	43	4454
2026-01-06 13:26:29.72	324.52	10.88	-36.4	-37.9	16.6	0.00e+00	0	56	0	3256877056	43	4544
2026-01-06 13:26:30.74	324.63	10.80	-36.5	-38.1	16.4	0.00e+00	0	56	0	3262119936	43	4639
2026-01-06 13:26:31.75	324.74	10.73	-36.5	-38.1	16.4	0.00e+00	0	56	0	3268411392	43	4611
2026-01-06 13:26:32.76	324.85	10.66	-36.5	-38.0	16.4	0.00e+00	0	56	0	3273654272	43	4596
2026-01-06 13:26:33.77	324.96	10.59	-36.6	-38.2	16.3	0.00e+00	0	56	0	3278897152	43	4655
2026-01-06 13:26:34.77	325.07	10.51	-36.6	-38.2	16.3	0.00e+00	0	56	0	3285188608	43	4673
2026-01-06 13:26:35.78	325.18	10.44	-36.5	-38.1	16.3	0.00e+00	0	56	0	3290431488	43	4633
2026-01-06 13:26:36.79	325.28	10.37	-36.6	-38.2	16.2	0.00e+00	0	56	0	3296722944	43	4684
2026-01-06 13:26:37.80	325.39	10.30	-36.6	-38.1	16.3	0.00e+00	0	56	0	3301965824	43	4650
2026-01-06 13:26:38.81	325.50	10.23	-36.6	-38.2	16.3	0.00e+00	0	56	0	3307208704	43	4666
2026-01-06 13:26:39.82	325.60	10.15	-36.5	-38.1	16.3	0.00e+00	0	56	0	3313500160	43	4646
2026-01-06 13:26:40.83	325.71	10.08	-36.9	-38.6	16.0	0.00e+00	0	56	0	3318743040	44	4618
2026-01-06 13:26:41.84	325.81	10.01	-37.0	-38.7	15.9	0.00e+00	0	56	0	3325034496	44	4667
2026-01-06 13:26:42.85	325.92	9.94	-37.0	-38.7	15.9	0.00e+00	0	56	0	3330277376	44	4655
2026-01-06 13:26:43.85	326.02	9.87	-36.8	-38.5	16.1	0.00e+00	0	56	0	3336568832	44	4553
2026-01-06 13:26:44.86	326.13	9.80	-37.0	-38.7	15.9	0.00e+00	0	56	0	3341811712	44	4677
2026-01-06 13:26:45.88	326.23	9.73	-37.1	-38.8	15.8	0.00e+00	0	56	0	3347054592	44	4724
2026-01-06 13:26:46.89	326.33	9.66	-37.0	-38.7	15.9	0.00e+00	0	56	0	3353346048	44	4668
2026-01-06 13:26:47.90	326.43	9.59	-36.9	-38.6	16.0	0.00e+00	0	56	0	3358588928	44	4607
2026-01-06 13:26:48.91	326.54	9.52	-37.2	-38.9	15.6	0.00e+00	0	56	0	3364880384	44	4785
2026-01-06 13:26:49.92	326.64	9.45	-37.1	-38.8	15.7	0.00e+00	0	56	0	3370123264	44	4742
2026-01-06 13:26:50.93	326.74	9.38	-37.2	-39.0	15.6	0.00e+00	0	56	0	3376414720	44	4818
2026-01-06 13:26:51.94	326.84	9.31	-37.1	-38.8	15.7	0.00e+00	0	56	0	3381657600	45	4493
2026-01-06 13:26:52.95	326.94	9.24	-37.1	-38.8	15.7	0.00e+00	0	56	0	3386900480	45	4480
2026-01-06 13:26:53.96	327.04	9.17	-37.2	-38.9	15.6	0.00e+00	0	56	0	3393191936	45	4515
2026-01-06 13:26:54.97	327.14	9.10	-37.2	-39.0	15.5	0.00e+00	0	56	0	3398434816	45	4546
2026-01-06 13:26:55.98	327.24	9.03	-37.1	-38.8	15.7	0.00e+00	0	56	0	3404726272	45	4461
2026-01-06 13:26:57.00	327.34	8.96	-37.1	-38.8	15.6	0.00e+00	0	56	0	3409969152	45	4474
2026-01-06 13:26:58.00	327.43	8.89	-37.0	-38.7	15.7	0.00e+00	0	56	0	3415212032	45	4425
2026-01-06 13:26:59.02	327.53	8.82	-37.2	-39.0	15.5	0.00e+00	0	56	0	3421503488	45	4555
2026-01-06 13:27:00.03	327.63	8.75	-37.3	-39.0	15.4	0.00e+00	0	56	0	3426746368	45	4582
2026-01-06 13:27:01.04	327.72	8.68	-37.2	-39.0	15.4	0.00e+00	0	56	0	3433037824	45	4573
2026-01-06 13:27:02.05	327.82	8.61	-37.2	-39.0	15.4	0.00e+00	0	56	0	3438280704	45	4573
2026-01-06 13:27:03.06	327.91	8.54	-37.4	-39.2	15.2	0.00e+00	0	56	0	3444572160	45	4665
