passes_logs/2026/01/06/R2.0S_Moscow/R2.0S_Moscow__20260106_114626_NOAA_21_JPSS-2_rec.log

#Pass ID: 20260106_114626_NOAA 21 (JPSS-2)
#Satellite: NOAA 21 (JPSS-2)
#Configuration: NOAA-21
#almurnet v.1.7.20251203
#Start time: 2026-01-06 11:48:49

#Version: 2.2.20231116
#Station: R2.0S_Moscow
#Location: 37.707566 lon 55.798166 lat
#TLE: 1 54234U 22150A   26005.21525222  .00000150  00000+0  91957-4 0  9992
#TLE: 2 54234  98.7490 306.2339 0001053 341.6032  18.5106 14.19532220163427

#Time	Az	El	Level	Level2	SNR	BER	BlckErr	Temp	State	Recorded	gain1	gain2
2026-01-06 11:48:49.13	233.59	9.53	-45.0	-56.8	3.8	8.47e-01	0	56	0	0	60	15041
2026-01-06 11:48:50.13	233.73	9.58	-45.1	-57.7	3.8	1.49e+00	0	57	104	0	62	14859
2026-01-06 11:48:51.14	233.88	9.63	-45.2	-57.7	3.8	1.49e+00	0	57	104	0	62	14851
2026-01-06 11:48:52.15	234.02	9.69	-45.2	-57.7	3.8	1.49e+00	0	57	104	0	62	14859
2026-01-06 11:48:53.16	234.16	9.74	-45.2	-57.8	3.8	1.49e+00	0	57	104	0	62	14885
2026-01-06 11:48:54.17	234.30	9.79	-45.1	-57.7	3.8	1.49e+00	0	56	104	0	62	14812
2026-01-06 11:48:55.18	234.45	9.85	-45.1	-57.7	3.8	1.49e+00	0	57	104	0	62	14753
2026-01-06 11:48:56.19	234.59	9.90	-45.1	-57.6	3.8	1.49e+00	0	57	104	0	62	14699
2026-01-06 11:48:57.20	234.74	9.95	-45.0	-57.5	3.8	1.49e+00	0	56	104	0	62	14470
2026-01-06 11:48:58.21	234.88	10.01	-45.0	-57.4	3.8	1.49e+00	0	56	104	0	62	14349
2026-01-06 11:48:59.23	235.03	10.06	-44.8	-57.3	3.8	1.49e+00	0	56	104	0	61	15026
2026-01-06 11:49:00.24	235.17	10.11	-44.6	-57.2	3.8	1.49e+00	0	56	104	0	61	14777
2026-01-06 11:49:01.25	235.32	10.17	-44.5	-57.0	3.8	1.49e+00	0	57	104	0	61	14536
2026-01-06 11:49:02.26	235.47	10.22	-44.5	-57.0	3.8	1.49e+00	0	56	104	0	61	14510
2026-01-06 11:49:03.27	235.62	10.27	-44.5	-57.0	3.8	1.49e+00	0	57	104	0	61	14470
2026-01-06 11:49:04.28	235.76	10.33	-44.5	-56.9	3.8	1.49e+00	0	57	104	0	61	14306
2026-01-06 11:49:05.29	235.91	10.38	-44.5	-56.8	3.8	1.49e+00	0	57	104	0	61	14191
2026-01-06 11:49:06.30	236.06	10.43	-44.5	-56.7	3.8	1.49e+00	0	56	104	0	61	13979
2026-01-06 11:49:07.31	236.21	10.48	-44.5	-56.6	3.8	1.49e+00	0	56	104	0	60	14612
2026-01-06 11:49:08.32	236.36	10.54	-44.5	-56.6	3.8	1.49e+00	0	57	104	0	60	14693
2026-01-06 11:49:09.33	236.51	10.59	-44.5	-56.6	3.8	1.49e+00	0	56	104	0	60	14690
2026-01-06 11:49:10.34	236.67	10.64	-44.5	-56.7	3.8	1.49e+00	0	56	104	0	60	14823
2026-01-06 11:49:11.35	236.82	10.69	-44.5	-56.8	3.8	1.49e+00	0	57	104	0	60	14964
2026-01-06 11:49:12.36	236.97	10.75	-44.5	-56.9	3.8	1.49e+00	0	57	104	0	60	15196
2026-01-06 11:49:13.37	237.12	10.80	-44.5	-57.0	3.8	1.49e+00	0	57	104	0	60	15232
2026-01-06 11:49:14.38	237.28	10.85	-44.5	-57.0	3.8	1.49e+00	0	56	104	0	60	15373
2026-01-06 11:49:15.39	237.43	10.90	-44.5	-57.0	3.8	1.49e+00	0	56	104	0	60	15336
2026-01-06 11:49:16.40	237.59	10.95	-44.5	-56.8	3.8	1.49e+00	0	56	104	0	60	14998
2026-01-06 11:49:17.41	237.74	11.01	-44.4	-56.5	3.8	1.49e+00	0	57	104	0	60	14415
2026-01-06 11:49:18.42	237.90	11.06	-44.4	-56.0	3.8	1.49e+00	0	56	104	0	60	13634
2026-01-06 11:49:19.44	238.05	11.11	-44.3	-55.4	3.8	1.49e+00	0	56	104	0	60	12784
2026-01-06 11:49:20.45	238.21	11.16	-44.3	-55.0	3.8	1.49e+00	0	57	104	0	60	12128
2026-01-06 11:49:21.46	238.37	11.21	-44.3	-54.8	3.9	1.49e+00	0	57	104	0	60	11870
2026-01-06 11:49:22.47	238.53	11.26	-44.3	-54.5	4.0	1.48e+00	0	56	104	0	60	11462
2026-01-06 11:49:23.48	238.68	11.32	-44.3	-55.1	3.8	1.49e+00	0	57	104	0	60	12369
2026-01-06 11:49:24.49	238.84	11.37	-44.4	-55.7	3.8	1.49e+00	0	57	104	0	60	13119
2026-01-06 11:49:25.50	239.00	11.42	-44.4	-56.2	3.8	1.49e+00	0	57	104	0	60	13886
2026-01-06 11:49:26.51	239.16	11.47	-44.4	-56.5	3.8	1.49e+00	0	57	104	0	60	14377
2026-01-06 11:49:27.52	239.32	11.52	-44.4	-56.5	3.8	1.49e+00	0	56	104	0	60	14377
2026-01-06 11:49:28.53	239.48	11.57	-44.4	-56.3	3.8	1.49e+00	0	57	104	0	60	14069
2026-01-06 11:49:29.54	239.65	11.62	-44.4	-56.0	3.8	1.49e+00	0	57	104	0	60	13628
2026-01-06 11:49:30.56	239.81	11.67	-44.3	-55.6	3.8	1.49e+00	0	57	104	0	60	13008
2026-01-06 11:49:31.57	239.97	11.72	-44.3	-54.7	3.9	1.49e+00	0	56	104	0	60	11744
2026-01-06 11:49:32.58	240.14	11.77	-44.1	-53.9	3.9	1.46e+00	0	57	104	0	60	10663
2026-01-06 11:49:33.59	240.30	11.83	-43.8	-51.1	5.1	1.12e+00	0	57	104	0	59	8250
2026-01-06 11:49:34.60	240.46	11.88	-43.3	-49.1	6.6	2.67e-01	0	57	0	2097152	58	6929
2026-01-06 11:49:35.61	240.63	11.93	-42.5	-47.0	8.6	8.04e-02	0	56	0	5242880	57	5749
2026-01-06 11:49:36.62	240.79	11.98	-41.6	-45.2	10.3	1.02e-02	0	56	0	8388608	55	5236
2026-01-06 11:49:37.63	240.96	12.03	-40.7	-43.7	11.9	9.44e-04	0	57	0	11534336	53	4934
2026-01-06 11:49:38.64	241.13	12.08	-40.0	-42.5	13.1	5.87e-05	0	56	0	14680064	52	4566
2026-01-06 11:49:39.65	241.29	12.13	-39.4	-41.6	14.1	3.80e-06	0	57	0	17825792	50	4627
2026-01-06 11:49:40.66	241.46	12.18	-38.9	-40.8	14.9	7.00e-07	0	56	0	20971520	49	4484
2026-01-06 11:49:41.67	241.63	12.22	-38.5	-40.4	15.3	0.00e+00	0	57	0	24117248	49	4272
2026-01-06 11:49:42.69	241.80	12.27	-38.5	-40.3	15.4	0.00e+00	0	56	0	27262976	48	4490
2026-01-06 11:49:43.70	241.97	12.32	-44.6	-55.4	3.8	2.88e-02	0	56	104	30408704	59	13426
2026-01-06 11:49:44.71	242.14	12.37	-42.6	-47.0	8.1	1.49e+00	2	57	104	30408704	57	5748
2026-01-06 11:49:45.71	242.31	12.42	-39.4	-41.6	14.2	0.00e+00	0	56	0	32505856	49	4898
2026-01-06 11:49:46.73	242.48	12.47	-43.9	-51.4	5.1	5.75e-02	0	56	0	35651584	58	9002
2026-01-06 11:49:47.73	242.65	12.52	-38.9	-40.8	14.8	4.25e-01	0	57	104	35651584	48	4757
2026-01-06 11:49:48.75	242.82	12.57	-39.3	-41.4	14.3	2.20e-06	0	57	0	37748736	50	4511
2026-01-06 11:49:49.76	243.00	12.62	-38.5	-40.4	15.3	0.00e+00	0	57	0	40894464	49	4259
2026-01-06 11:49:50.77	243.17	12.67	-38.4	-40.3	15.4	0.00e+00	0	56	0	44040192	48	4457
2026-01-06 11:49:51.77	243.34	12.71	-38.3	-40.2	15.6	0.00e+00	0	56	0	47185920	48	4400
2026-01-06 11:49:52.78	243.51	12.76	-38.2	-40.0	15.7	0.00e+00	0	56	0	51380224	48	4323
2026-01-06 11:49:53.79	243.69	12.81	-38.3	-40.1	15.6	0.00e+00	0	57	0	54525952	48	4362
2026-01-06 11:49:54.80	243.86	12.86	-38.2	-40.0	15.7	0.00e+00	0	57	0	56623104	48	4333
2026-01-06 11:49:55.81	244.04	12.90	-38.3	-40.1	15.6	0.00e+00	0	57	0	59768832	48	4389
2026-01-06 11:49:56.82	244.22	12.95	-38.3	-40.2	15.6	0.00e+00	0	56	0	62914560	48	4392
2026-01-06 11:49:57.83	244.39	13.00	-38.4	-40.2	15.5	0.00e+00	0	57	0	67108864	48	4405
2026-01-06 11:49:58.84	244.57	13.05	-38.2	-40.0	15.7	0.00e+00	0	57	0	70254592	48	4312
2026-01-06 11:49:59.85	244.75	13.09	-38.2	-40.0	15.8	0.00e+00	0	56	0	73400320	48	4296
2026-01-06 11:50:00.86	244.93	13.14	-38.2	-40.0	15.8	0.00e+00	0	56	0	76546048	48	4296
2026-01-06 11:50:01.87	245.11	13.19	-38.2	-39.9	15.8	0.00e+00	0	57	0	78643200	48	4278
2026-01-06 11:50:02.88	245.29	13.23	-38.2	-40.0	15.8	0.00e+00	0	56	0	81788928	48	4298
2026-01-06 11:50:03.89	245.47	13.28	-38.3	-40.1	15.7	0.00e+00	0	56	0	85983232	48	4354
2026-01-06 11:50:04.90	245.65	13.33	-38.2	-40.0	15.7	0.00e+00	0	56	0	89128960	48	4318
2026-01-06 11:50:05.91	245.83	13.37	-38.3	-40.2	15.6	0.00e+00	0	56	0	92274688	48	4395
2026-01-06 11:50:06.92	246.01	13.42	-38.5	-40.3	15.4	7.00e-07	0	57	0	95420416	48	4481
2026-01-06 11:50:07.93	246.19	13.46	-38.4	-40.3	15.5	0.00e+00	0	56	0	98566144	48	4460
2026-01-06 11:50:08.94	246.38	13.51	-38.4	-40.3	15.4	0.00e+00	0	56	0	101711872	48	4466
2026-01-06 11:50:09.95	246.56	13.55	-38.5	-40.3	15.4	0.00e+00	0	57	0	104857600	48	4483
2026-01-06 11:50:10.96	246.74	13.60	-38.4	-40.3	15.5	0.00e+00	0	56	0	108003328	48	4458
2026-01-06 11:50:11.97	246.93	13.64	-38.4	-40.3	15.4	0.00e+00	0	56	0	111149056	48	4476
2026-01-06 11:50:12.98	247.11	13.69	-38.4	-40.2	15.5	0.00e+00	0	57	0	114294784	48	4427
2026-01-06 11:50:13.99	247.30	13.73	-38.3	-40.1	15.6	0.00e+00	0	56	0	117440512	48	4369
2026-01-06 11:50:15.00	247.48	13.78	-38.4	-40.2	15.5	0.00e+00	0	57	0	120586240	48	4429
2026-01-06 11:50:16.01	247.67	13.82	-38.3	-40.0	15.7	0.00e+00	0	57	0	123731968	48	4335
2026-01-06 11:50:17.02	247.86	13.87	-38.2	-40.0	15.8	0.00e+00	0	57	0	126877696	48	4299
2026-01-06 11:50:18.03	248.05	13.91	-38.3	-40.1	15.7	0.00e+00	0	57	0	130023424	48	4354
2026-01-06 11:50:19.04	248.24	13.95	-38.2	-40.0	15.7	0.00e+00	0	56	0	133169152	48	4329
2026-01-06 11:50:20.05	248.42	14.00	-38.2	-39.9	15.8	0.00e+00	0	56	0	136314880	48	4279
2026-01-06 11:50:21.06	248.61	14.04	-38.2	-40.0	15.8	0.00e+00	0	56	0	139460608	48	4312
2026-01-06 11:50:22.06	248.80	14.08	-38.1	-39.9	15.9	0.00e+00	0	56	0	142606336	48	4243
2026-01-06 11:50:23.07	248.99	14.12	-38.1	-39.8	15.9	0.00e+00	0	56	0	145752064	48	4240
2026-01-06 11:50:24.08	249.18	14.17	-38.1	-39.9	15.9	0.00e+00	0	57	0	148897792	48	4265
2026-01-06 11:50:25.09	249.37	14.21	-38.2	-40.0	15.8	0.00e+00	0	57	0	152043520	48	4338
2026-01-06 11:50:26.10	249.57	14.25	-38.2	-40.0	15.7	0.00e+00	0	57	0	155189248	48	4339
2026-01-06 11:50:27.11	249.76	14.29	-38.2	-40.0	15.7	0.00e+00	0	57	0	158334976	48	4326
2026-01-06 11:50:28.12	249.95	14.33	-38.2	-39.9	15.8	0.00e+00	0	57	0	161480704	48	4289
2026-01-06 11:50:29.13	250.15	14.37	-38.1	-39.9	15.9	0.00e+00	0	57	0	164626432	48	4271
2026-01-06 11:50:30.14	250.34	14.42	-38.1	-39.9	15.9	0.00e+00	0	57	0	167772160	48	4263
2026-01-06 11:50:31.16	250.54	14.46	-38.1	-39.8	16.0	0.00e+00	0	56	0	170917888	48	4233
2026-01-06 11:50:32.17	250.73	14.50	-38.1	-39.8	16.0	0.00e+00	0	56	0	174063616	48	4213
2026-01-06 11:50:33.18	250.93	14.54	-38.0	-39.8	16.0	0.00e+00	0	57	0	177209344	48	4197
2026-01-06 11:50:34.19	251.12	14.58	-38.1	-39.8	15.9	0.00e+00	0	56	0	180355072	48	4226
2026-01-06 11:50:35.20	251.32	14.62	-38.1	-39.8	16.0	0.00e+00	0	56	0	183500800	48	4230
2026-01-06 11:50:36.21	251.52	14.66	-38.1	-39.9	15.9	0.00e+00	0	56	0	186646528	48	4245
2026-01-06 11:50:37.22	251.71	14.70	-38.2	-40.0	15.8	0.00e+00	0	56	0	189792256	48	4315
2026-01-06 11:50:38.23	251.91	14.74	-38.3	-40.1	15.7	0.00e+00	0	56	0	192937984	48	4345
2026-01-06 11:50:39.24	252.11	14.77	-38.2	-40.0	15.8	0.00e+00	0	57	0	196083712	48	4322
2026-01-06 11:50:40.25	252.31	14.81	-38.2	-39.9	15.9	0.00e+00	0	57	0	199229440	48	4285
2026-01-06 11:50:41.26	252.51	14.85	-38.3	-40.1	15.7	0.00e+00	0	56	0	202375168	48	4357
2026-01-06 11:50:42.27	252.71	14.89	-38.3	-40.0	15.8	0.00e+00	0	56	0	205520896	48	4334
2026-01-06 11:50:43.28	252.91	14.93	-38.2	-39.9	15.8	0.00e+00	0	56	0	208666624	48	4288
2026-01-06 11:50:44.29	253.11	14.96	-38.1	-39.8	16.0	0.00e+00	0	56	0	211812352	48	4238
2026-01-06 11:50:45.30	253.31	15.00	-38.1	-39.8	16.0	0.00e+00	0	57	0	214958080	48	4228
2026-01-06 11:50:46.31	253.52	15.04	-38.1	-39.8	16.0	0.00e+00	0	56	0	218103808	48	4209
2026-01-06 11:50:47.32	253.72	15.08	-37.9	-39.6	16.1	0.00e+00	0	56	0	221249536	47	4357
2026-01-06 11:50:48.33	253.92	15.11	-37.9	-39.7	16.0	0.00e+00	0	57	0	224395264	47	4398
2026-01-06 11:50:49.35	254.13	15.15	-38.0	-39.7	16.0	0.00e+00	0	57	0	227540992	47	4417
2026-01-06 11:50:50.35	254.33	15.18	-37.9	-39.7	16.0	0.00e+00	0	56	0	230686720	47	4422
2026-01-06 11:50:51.36	254.53	15.22	-37.9	-39.7	16.0	0.00e+00	0	56	0	233832448	47	4418
2026-01-06 11:50:52.37	254.74	15.25	-37.9	-39.7	16.0	0.00e+00	0	56	0	236978176	47	4395
2026-01-06 11:50:53.38	254.95	15.29	-37.9	-39.7	16.0	0.00e+00	0	56	0	240123904	47	4401
2026-01-06 11:50:54.39	255.15	15.32	-37.9	-39.7	16.1	0.00e+00	0	56	0	243269632	47	4393
2026-01-06 11:50:55.40	255.36	15.36	-37.9	-39.7	16.0	0.00e+00	0	56	0	246415360	47	4396
2026-01-06 11:50:56.41	255.56	15.39	-37.8	-39.6	16.1	0.00e+00	0	56	0	249561088	47	4357
2026-01-06 11:50:57.42	255.77	15.43	-37.8	-39.5	16.2	0.00e+00	0	57	0	252706816	47	4306
2026-01-06 11:50:58.43	255.98	15.46	-37.7	-39.3	16.3	0.00e+00	0	56	0	255852544	47	4230
2026-01-06 11:50:59.44	256.19	15.49	-37.6	-39.3	16.4	0.00e+00	0	56	0	258998272	47	4203
2026-01-06 11:51:00.45	256.40	15.53	-37.6	-39.2	16.5	0.00e+00	0	57	0	262144000	47	4181
2026-01-06 11:51:01.46	256.61	15.56	-37.6	-39.2	16.4	0.00e+00	0	56	0	265289728	47	4183
2026-01-06 11:51:02.47	256.82	15.59	-37.6	-39.3	16.4	0.00e+00	0	56	0	268435456	47	4205
2026-01-06 11:51:03.48	257.03	15.62	-37.7	-39.3	16.4	0.00e+00	0	56	0	271581184	47	4239
2026-01-06 11:51:04.49	257.24	15.65	-37.7	-39.4	16.3	0.00e+00	0	56	0	274726912	47	4271
2026-01-06 11:51:05.50	257.45	15.69	-37.8	-39.5	16.2	0.00e+00	0	56	0	277872640	47	4301
2026-01-06 11:51:06.51	257.66	15.72	-37.7	-39.4	16.2	0.00e+00	0	57	0	281018368	47	4277
2026-01-06 11:51:07.52	257.87	15.75	-37.7	-39.4	16.3	0.00e+00	0	56	0	284164096	47	4277
2026-01-06 11:51:08.53	258.08	15.78	-37.7	-39.4	16.3	0.00e+00	0	57	0	287309824	47	4280
2026-01-06 11:51:09.54	258.29	15.81	-37.6	-39.3	16.4	0.00e+00	0	56	0	290455552	47	4221
2026-01-06 11:51:10.55	258.51	15.84	-37.7	-39.3	16.3	0.00e+00	0	56	0	293601280	47	4232
2026-01-06 11:51:11.56	258.72	15.87	-37.6	-39.3	16.4	0.00e+00	0	57	0	296747008	47	4198
2026-01-06 11:51:12.57	258.93	15.89	-37.6	-39.3	16.4	0.00e+00	0	57	0	299892736	47	4210
2026-01-06 11:51:13.58	259.15	15.92	-37.6	-39.2	16.5	0.00e+00	0	56	0	303038464	47	4179
2026-01-06 11:51:14.59	259.36	15.95	-37.6	-39.2	16.5	0.00e+00	0	56	0	306184192	47	4167
2026-01-06 11:51:15.60	259.58	15.98	-37.5	-39.1	16.6	0.00e+00	0	56	0	309329920	47	4123
2026-01-06 11:51:16.61	259.79	16.01	-37.5	-39.1	16.6	0.00e+00	0	56	0	312475648	46	4360
2026-01-06 11:51:17.62	260.01	16.03	-37.4	-39.0	16.7	0.00e+00	0	57	0	315621376	46	4333
2026-01-06 11:51:18.63	260.22	16.06	-37.4	-39.0	16.7	0.00e+00	0	56	0	318767104	46	4310
2026-01-06 11:51:19.64	260.44	16.09	-37.4	-39.0	16.7	0.00e+00	0	56	0	321912832	46	4299
2026-01-06 11:51:20.66	260.66	16.11	-37.4	-39.0	16.7	0.00e+00	0	56	0	325058560	46	4315
2026-01-06 11:51:21.66	260.87	16.14	-37.5	-39.1	16.6	0.00e+00	0	56	0	328204288	46	4363
2026-01-06 11:51:22.68	261.09	16.16	-37.5	-39.1	16.6	0.00e+00	0	56	0	331350016	46	4352
2026-01-06 11:51:23.69	261.31	16.19	-37.6	-39.2	16.5	0.00e+00	0	56	0	334495744	46	4412
2026-01-06 11:51:24.70	261.53	16.21	-37.6	-39.2	16.5	0.00e+00	0	56	0	337641472	46	4411
2026-01-06 11:51:25.71	261.75	16.24	-37.6	-39.2	16.5	0.00e+00	0	56	0	340787200	46	4417
2026-01-06 11:51:26.72	261.97	16.26	-37.5	-39.2	16.5	0.00e+00	0	56	0	343932928	46	4404
2026-01-06 11:51:27.73	262.19	16.29	-37.5	-39.1	16.6	0.00e+00	0	56	0	348127232	46	4369
2026-01-06 11:51:28.74	262.41	16.31	-37.5	-39.1	16.6	0.00e+00	0	56	0	350224384	46	4375
2026-01-06 11:51:29.75	262.63	16.33	-37.4	-39.0	16.7	0.00e+00	0	56	0	353370112	46	4320
2026-01-06 11:51:30.76	262.85	16.35	-37.4	-38.9	16.7	0.00e+00	0	56	0	356515840	46	4289
2026-01-06 11:51:31.77	263.07	16.38	-37.4	-39.0	16.7	0.00e+00	0	56	0	359661568	46	4299
2026-01-06 11:51:32.78	263.29	16.40	-37.4	-39.1	16.6	0.00e+00	0	56	0	363855872	46	4342
2026-01-06 11:51:33.79	263.51	16.42	-37.4	-39.1	16.7	0.00e+00	0	56	0	367001600	46	4341
2026-01-06 11:51:34.80	263.73	16.44	-37.4	-39.1	16.6	0.00e+00	0	57	0	370147328	46	4342
2026-01-06 11:51:35.81	263.95	16.46	-37.4	-39.0	16.7	0.00e+00	0	56	0	372244480	46	4322
2026-01-06 11:51:36.82	264.17	16.48	-37.5	-39.1	16.6	0.00e+00	0	56	0	375390208	46	4345
2026-01-06 11:51:37.83	264.40	16.50	-37.4	-39.0	16.7	0.00e+00	0	56	0	379584512	46	4340
2026-01-06 11:51:38.84	264.62	16.52	-37.5	-39.1	16.6	0.00e+00	0	56	0	382730240	46	4348
2026-01-06 11:51:39.85	264.84	16.54	-37.5	-39.1	16.6	0.00e+00	0	57	0	385875968	46	4381
2026-01-06 11:51:40.86	265.06	16.56	-37.5	-39.1	16.6	0.00e+00	0	56	0	389021696	46	4388
2026-01-06 11:51:41.87	265.29	16.57	-37.6	-39.2	16.5	0.00e+00	0	57	0	392167424	46	4426
2026-01-06 11:51:42.89	265.51	16.59	-37.6	-39.2	16.5	0.00e+00	0	56	0	395313152	46	4432
2026-01-06 11:51:43.90	265.74	16.61	-37.6	-39.2	16.5	0.00e+00	0	56	0	398458880	46	4424
2026-01-06 11:51:44.91	265.96	16.63	-37.6	-39.3	16.5	0.00e+00	0	56	0	401604608	46	4450
2026-01-06 11:51:45.92	266.19	16.64	-37.6	-39.3	16.5	0.00e+00	0	56	0	404750336	46	4442
2026-01-06 11:51:46.93	266.41	16.66	-37.5	-39.1	16.6	0.00e+00	0	56	0	407896064	46	4388
2026-01-06 11:51:47.94	266.63	16.67	-37.4	-39.1	16.7	0.00e+00	0	57	0	411041792	46	4344
2026-01-06 11:51:48.95	266.86	16.69	-37.4	-39.0	16.7	0.00e+00	0	56	0	414187520	46	4318
2026-01-06 11:51:49.96	267.09	16.70	-37.5	-39.1	16.6	0.00e+00	0	56	0	417333248	46	4365
2026-01-06 11:51:50.97	267.31	16.72	-37.5	-39.1	16.6	0.00e+00	0	56	0	420478976	46	4389
2026-01-06 11:51:51.98	267.54	16.73	-37.6	-39.2	16.5	0.00e+00	0	57	0	423624704	46	4435
2026-01-06 11:51:52.99	267.76	16.75	-37.6	-39.3	16.4	0.00e+00	0	57	0	426770432	46	4463
2026-01-06 11:51:54.00	267.99	16.76	-37.6	-39.3	16.4	0.00e+00	0	56	0	429916160	46	4461
2026-01-06 11:51:55.01	268.21	16.77	-37.5	-39.2	16.6	0.00e+00	0	56	0	433061888	46	4402
2026-01-06 11:51:56.02	268.44	16.78	-37.5	-39.1	16.6	0.00e+00	0	56	0	436207616	46	4372
2026-01-06 11:51:57.03	268.67	16.80	-37.5	-39.1	16.6	0.00e+00	0	57	0	439353344	46	4347
2026-01-06 11:51:58.04	268.89	16.81	-37.5	-39.1	16.6	0.00e+00	0	56	0	442499072	46	4351
2026-01-06 11:51:59.04	269.12	16.82	-37.5	-39.1	16.6	0.00e+00	0	56	0	445644800	46	4357
2026-01-06 11:52:00.05	269.34	16.83	-37.5	-39.1	16.6	0.00e+00	0	57	0	448790528	46	4364
2026-01-06 11:52:01.06	269.57	16.84	-37.6	-39.2	16.5	0.00e+00	0	56	0	451936256	46	4414
2026-01-06 11:52:02.07	269.80	16.85	-37.6	-39.2	16.5	0.00e+00	0	56	0	455081984	46	4413
2026-01-06 11:52:03.08	270.03	16.86	-37.5	-39.2	16.5	0.00e+00	0	56	0	458227712	46	4403
2026-01-06 11:52:04.09	270.25	16.87	-37.5	-39.2	16.5	0.00e+00	0	56	0	461373440	46	4400
2026-01-06 11:52:05.10	270.48	16.88	-37.5	-39.1	16.6	0.00e+00	0	56	0	464519168	46	4348
2026-01-06 11:52:06.11	270.71	16.88	-37.4	-39.0	16.6	0.00e+00	0	56	0	467664896	46	4327
2026-01-06 11:52:07.12	270.94	16.89	-37.4	-39.0	16.6	0.00e+00	0	56	0	470810624	46	4318
2026-01-06 11:52:08.13	271.17	16.90	-37.4	-39.1	16.6	0.00e+00	0	56	0	473956352	46	4351
2026-01-06 11:52:09.15	271.40	16.90	-37.5	-39.1	16.5	0.00e+00	0	56	0	477102080	46	4384
2026-01-06 11:52:10.16	271.62	16.91	-37.6	-39.3	16.4	0.00e+00	0	56	0	480247808	46	4467
2026-01-06 11:52:11.17	271.85	16.92	-37.7	-39.4	16.3	0.00e+00	0	56	0	483393536	46	4494
2026-01-06 11:52:12.18	272.08	16.92	-37.6	-39.3	16.4	0.00e+00	0	56	0	486539264	46	4460
2026-01-06 11:52:13.19	272.31	16.93	-37.6	-39.2	16.4	0.00e+00	0	56	0	489684992	46	4438
2026-01-06 11:52:14.20	272.54	16.93	-37.5	-39.1	16.5	0.00e+00	0	56	0	492830720	46	4388
2026-01-06 11:52:15.21	272.77	16.94	-37.5	-39.1	16.5	0.00e+00	0	56	0	495976448	46	4384
2026-01-06 11:52:16.22	272.99	16.94	-37.5	-39.1	16.5	0.00e+00	0	56	0	499122176	46	4389
2026-01-06 11:52:17.23	273.22	16.94	-37.5	-39.2	16.4	0.00e+00	0	56	0	502267904	46	4414
2026-01-06 11:52:18.24	273.45	16.95	-37.6	-39.2	16.5	0.00e+00	0	56	0	505413632	46	4420
2026-01-06 11:52:19.25	273.68	16.95	-37.6	-39.2	16.5	0.00e+00	0	56	0	508559360	46	4420
2026-01-06 11:52:20.26	273.91	16.95	-37.5	-39.2	16.5	0.00e+00	0	56	0	511705088	46	4407
2026-01-06 11:52:21.27	274.14	16.95	-37.5	-39.1	16.5	0.00e+00	0	56	0	514850816	46	4386
2026-01-06 11:52:22.29	274.37	16.95	-37.5	-39.1	16.5	0.00e+00	0	56	0	517996544	46	4386
2026-01-06 11:52:23.30	274.60	16.95	-37.6	-39.2	16.4	0.00e+00	0	56	0	521142272	46	4425
2026-01-06 11:52:24.31	274.83	16.95	-37.5	-39.2	16.5	0.00e+00	0	56	0	524288000	46	4408
2026-01-06 11:52:25.32	275.06	16.95	-37.6	-39.2	16.4	0.00e+00	0	56	0	527433728	46	4431
2026-01-06 11:52:26.33	275.28	16.95	-37.6	-39.2	16.4	0.00e+00	0	56	0	530579456	46	4431
2026-01-06 11:52:27.34	275.51	16.95	-37.6	-39.2	16.4	0.00e+00	0	56	0	533725184	46	4427
2026-01-06 11:52:28.35	275.74	16.95	-37.6	-39.2	16.5	0.00e+00	0	56	0	536870912	46	4426
2026-01-06 11:52:29.36	275.97	16.95	-37.5	-39.1	16.6	0.00e+00	0	56	0	540016640	46	4369
2026-01-06 11:52:30.37	276.20	16.95	-37.5	-39.2	16.5	0.00e+00	0	56	0	543162368	46	4411
2026-01-06 11:52:31.38	276.43	16.94	-37.5	-39.2	16.5	0.00e+00	0	56	0	546308096	46	4400
2026-01-06 11:52:32.39	276.66	16.94	-37.6	-39.2	16.4	0.00e+00	0	56	0	549453824	46	4428
2026-01-06 11:52:33.40	276.88	16.94	-37.6	-39.2	16.5	0.00e+00	0	56	0	552599552	46	4422
2026-01-06 11:52:34.41	277.11	16.93	-37.6	-39.3	16.4	0.00e+00	0	56	0	555745280	46	4453
2026-01-06 11:52:35.42	277.34	16.93	-37.7	-39.3	16.3	0.00e+00	0	56	0	558891008	46	4489
2026-01-06 11:52:36.43	277.57	16.92	-37.7	-39.4	16.3	0.00e+00	0	56	0	562036736	46	4501
2026-01-06 11:52:37.44	277.80	16.92	-37.6	-39.3	16.3	0.00e+00	0	56	0	565182464	46	4475
2026-01-06 11:52:38.45	278.03	16.91	-37.6	-39.3	16.4	0.00e+00	0	56	0	568328192	46	4456
2026-01-06 11:52:39.46	278.25	16.91	-37.6	-39.2	16.4	0.00e+00	0	56	0	571473920	46	4427
2026-01-06 11:52:40.47	278.48	16.90	-37.6	-39.3	16.3	0.00e+00	0	56	0	574619648	46	4458
2026-01-06 11:52:41.48	278.71	16.89	-37.6	-39.3	16.3	0.00e+00	0	56	0	577765376	46	4474
2026-01-06 11:52:42.49	278.94	16.88	-37.6	-39.3	16.4	0.00e+00	0	56	0	580911104	46	4457
2026-01-06 11:52:43.50	279.16	16.88	-37.5	-39.2	16.4	0.00e+00	0	56	0	584056832	46	4422
2026-01-06 11:52:44.51	279.39	16.87	-37.5	-39.1	16.5	0.00e+00	0	56	0	587202560	46	4390
2026-01-06 11:52:45.52	279.62	16.86	-37.4	-39.0	16.6	0.00e+00	0	56	0	590348288	46	4312
2026-01-06 11:52:46.53	279.85	16.85	-37.4	-39.0	16.6	0.00e+00	0	56	0	593494016	46	4322
2026-01-06 11:52:47.54	280.07	16.84	-37.5	-39.2	16.4	0.00e+00	0	56	0	596639744	46	4396
2026-01-06 11:52:48.56	280.30	16.83	-37.5	-39.2	16.4	0.00e+00	0	56	0	599785472	46	4397
2026-01-06 11:52:49.57	280.53	16.82	-37.5	-39.2	16.5	0.00e+00	0	56	0	602931200	46	4392
2026-01-06 11:52:50.57	280.75	16.81	-37.5	-39.2	16.5	0.00e+00	0	56	0	606076928	46	4405
2026-01-06 11:52:51.58	280.98	16.80	-37.5	-39.1	16.5	0.00e+00	0	56	0	609222656	46	4387
2026-01-06 11:52:52.59	281.21	16.78	-37.5	-39.1	16.5	0.00e+00	0	56	0	612368384	46	4384
2026-01-06 11:52:53.60	281.43	16.77	-37.5	-39.2	16.4	0.00e+00	0	56	0	615514112	46	4409
2026-01-06 11:52:54.61	281.66	16.76	-37.6	-39.2	16.4	0.00e+00	0	56	0	618659840	46	4435
2026-01-06 11:52:55.62	281.88	16.75	-37.6	-39.2	16.4	0.00e+00	0	56	0	621805568	46	4426
2026-01-06 11:52:56.63	282.11	16.73	-37.6	-39.3	16.3	0.00e+00	0	56	0	624951296	46	4467
2026-01-06 11:52:57.64	282.33	16.72	-37.7	-39.4	16.2	0.00e+00	0	56	0	628097024	46	4503
2026-01-06 11:52:58.65	282.56	16.70	-37.7	-39.4	16.2	0.00e+00	0	56	0	631242752	46	4537
2026-01-06 11:52:59.65	282.78	16.69	-37.8	-39.5	16.1	0.00e+00	0	56	0	634388480	46	4570
2026-01-06 11:53:00.66	283.01	16.67	-37.7	-39.4	16.2	0.00e+00	0	56	0	637534208	46	4532
2026-01-06 11:53:01.67	283.23	16.66	-37.7	-39.4	16.2	0.00e+00	0	56	0	640679936	46	4497
2026-01-06 11:53:02.68	283.45	16.64	-37.6	-39.3	16.4	0.00e+00	0	56	0	643825664	46	4453
2026-01-06 11:53:03.69	283.68	16.63	-37.5	-39.2	16.4	0.00e+00	0	56	0	646971392	46	4400
2026-01-06 11:53:04.70	283.90	16.61	-37.6	-39.3	16.3	0.00e+00	0	56	0	650117120	46	4453
2026-01-06 11:53:05.71	284.13	16.59	-37.7	-39.3	16.2	0.00e+00	0	56	0	653262848	46	4493
2026-01-06 11:53:06.72	284.35	16.58	-37.8	-39.6	16.1	0.00e+00	0	56	0	656408576	46	4601
2026-01-06 11:53:07.74	284.57	16.56	-37.9	-39.7	15.9	0.00e+00	0	56	0	660602880	46	4666
2026-01-06 11:53:08.75	284.80	16.54	-38.0	-39.7	15.9	0.00e+00	0	56	0	663748608	46	4703
2026-01-06 11:53:09.76	285.02	16.52	-37.9	-39.7	15.9	0.00e+00	0	56	0	665845760	46	4679
2026-01-06 11:53:10.77	285.24	16.50	-37.9	-39.6	16.0	0.00e+00	0	56	0	668991488	46	4630
2026-01-06 11:53:11.78	285.46	16.48	-37.8	-39.5	16.1	0.00e+00	0	56	0	672137216	46	4564
2026-01-06 11:53:12.79	285.68	16.46	-37.7	-39.5	16.1	0.00e+00	0	56	0	676331520	46	4546
2026-01-06 11:53:13.80	285.90	16.44	-37.6	-39.3	16.2	0.00e+00	0	56	0	679477248	46	4493
2026-01-06 11:53:14.81	286.13	16.42	-37.6	-39.4	16.2	0.00e+00	0	57	0	682622976	46	4498
2026-01-06 11:53:15.82	286.35	16.40	-37.7	-39.4	16.2	0.00e+00	0	56	0	685768704	46	4521
2026-01-06 11:53:16.83	286.57	16.38	-37.6	-39.3	16.3	0.00e+00	0	57	0	688914432	46	4470
2026-01-06 11:53:17.84	286.79	16.36	-37.6	-39.3	16.3	0.00e+00	0	56	0	692060160	46	4450
2026-01-06 11:53:18.85	287.01	16.33	-37.5	-39.2	16.4	0.00e+00	0	56	0	695205888	46	4398
2026-01-06 11:53:19.86	287.22	16.31	-37.5	-39.1	16.4	0.00e+00	0	56	0	698351616	46	4386
2026-01-06 11:53:20.87	287.44	16.29	-37.6	-39.2	16.3	0.00e+00	0	56	0	701497344	46	4428
2026-01-06 11:53:21.88	287.66	16.27	-37.7	-39.4	16.2	0.00e+00	0	56	0	704643072	46	4507
2026-01-06 11:53:22.89	287.88	16.24	-37.7	-39.4	16.2	0.00e+00	0	56	0	707788800	46	4513
2026-01-06 11:53:23.90	288.10	16.22	-37.8	-39.5	16.0	0.00e+00	0	56	0	710934528	46	4594
2026-01-06 11:53:24.91	288.32	16.19	-37.7	-39.4	16.1	0.00e+00	0	56	0	714080256	46	4543
2026-01-06 11:53:25.92	288.53	16.17	-37.6	-39.3	16.2	0.00e+00	0	56	0	717225984	46	4479
2026-01-06 11:53:26.93	288.75	16.14	-37.7	-39.4	16.2	0.00e+00	0	56	0	720371712	46	4498
2026-01-06 11:53:27.94	288.97	16.12	-37.7	-39.4	16.2	0.00e+00	0	56	0	723517440	46	4507
2026-01-06 11:53:28.95	289.18	16.09	-37.6	-39.3	16.3	0.00e+00	0	56	0	726663168	46	4485
2026-01-06 11:53:29.96	289.40	16.07	-37.6	-39.3	16.3	0.00e+00	0	56	0	729808896	46	4469
2026-01-06 11:53:30.97	289.61	16.04	-37.6	-39.2	16.3	0.00e+00	0	56	0	732954624	46	4436
2026-01-06 11:53:31.99	289.83	16.01	-37.6	-39.3	16.3	0.00e+00	0	56	0	736100352	46	4444
2026-01-06 11:53:33.00	290.05	15.98	-37.6	-39.3	16.3	0.00e+00	0	56	0	739246080	46	4453
2026-01-06 11:53:34.01	290.26	15.96	-37.6	-39.3	16.3	0.00e+00	0	56	0	742391808	46	4480
2026-01-06 11:53:35.02	290.47	15.93	-37.7	-39.4	16.2	0.00e+00	0	56	0	745537536	46	4494
2026-01-06 11:53:36.03	290.69	15.90	-37.6	-39.3	16.3	0.00e+00	0	56	0	748683264	46	4466
2026-01-06 11:53:37.03	290.90	15.87	-37.6	-39.2	16.3	0.00e+00	0	56	0	751828992	46	4432
2026-01-06 11:53:38.04	291.11	15.84	-37.6	-39.2	16.3	0.00e+00	0	56	0	754974720	46	4441
2026-01-06 11:53:39.06	291.32	15.81	-37.6	-39.3	16.2	0.00e+00	0	56	0	758120448	46	4482
2026-01-06 11:53:40.07	291.54	15.78	-37.6	-39.3	16.3	0.00e+00	0	56	0	761266176	46	4486
2026-01-06 11:53:41.07	291.75	15.75	-37.6	-39.2	16.3	0.00e+00	0	56	0	764411904	46	4439
2026-01-06 11:53:42.08	291.96	15.72	-37.6	-39.2	16.4	0.00e+00	0	56	0	767557632	46	4431
2026-01-06 11:53:43.10	292.17	15.69	-37.5	-39.1	16.4	0.00e+00	0	56	0	770703360	46	4380
2026-01-06 11:53:44.11	292.38	15.66	-37.4	-39.0	16.5	0.00e+00	0	56	0	773849088	46	4335
2026-01-06 11:53:45.12	292.59	15.63	-37.4	-39.0	16.6	0.00e+00	0	56	0	776994816	46	4305
2026-01-06 11:53:46.13	292.80	15.60	-37.4	-39.1	16.5	0.00e+00	0	56	0	780140544	46	4348
2026-01-06 11:53:47.14	293.01	15.57	-37.4	-39.1	16.5	0.00e+00	0	56	0	783286272	46	4345
2026-01-06 11:53:48.15	293.21	15.53	-37.4	-39.1	16.4	0.00e+00	0	56	0	786432000	46	4372
2026-01-06 11:53:49.16	293.42	15.50	-37.4	-39.1	16.5	0.00e+00	0	56	0	789577728	46	4346
2026-01-06 11:53:50.17	293.63	15.47	-37.4	-39.1	16.5	0.00e+00	0	56	0	792723456	46	4358
2026-01-06 11:53:51.18	293.84	15.44	-37.4	-39.0	16.5	0.00e+00	0	56	0	795869184	46	4327
2026-01-06 11:53:52.19	294.04	15.40	-37.4	-39.0	16.5	0.00e+00	0	56	0	799014912	46	4321
2026-01-06 11:53:53.20	294.25	15.37	-37.3	-39.0	16.6	0.00e+00	0	56	0	802160640	46	4299
2026-01-06 11:53:54.21	294.46	15.33	-37.4	-39.0	16.5	0.00e+00	0	56	0	805306368	46	4315
2026-01-06 11:53:55.22	294.66	15.30	-37.4	-39.0	16.5	0.00e+00	0	56	0	808452096	46	4308
2026-01-06 11:53:56.23	294.87	15.27	-37.4	-39.0	16.5	0.00e+00	0	56	0	811597824	46	4335
2026-01-06 11:53:57.24	295.07	15.23	-37.5	-39.1	16.4	0.00e+00	0	56	0	814743552	46	4369
2026-01-06 11:53:58.25	295.27	15.19	-37.4	-39.1	16.4	0.00e+00	0	56	0	817889280	46	4370
2026-01-06 11:53:59.27	295.48	15.16	-37.4	-39.1	16.4	0.00e+00	0	56	0	821035008	46	4369
2026-01-06 11:54:00.27	295.68	15.12	-37.6	-39.3	16.3	0.00e+00	0	56	0	824180736	46	4448
2026-01-06 11:54:01.29	295.88	15.09	-37.6	-39.3	16.3	0.00e+00	0	56	0	827326464	46	4446
2026-01-06 11:54:02.30	296.09	15.05	-37.5	-39.2	16.3	0.00e+00	0	56	0	830472192	46	4418
2026-01-06 11:54:03.31	296.29	15.01	-37.5	-39.2	16.3	0.00e+00	0	56	0	833617920	46	4415
2026-01-06 11:54:04.32	296.49	14.98	-37.6	-39.3	16.2	0.00e+00	0	56	0	836763648	46	4463
2026-01-06 11:54:05.33	296.69	14.94	-37.5	-39.2	16.4	0.00e+00	0	56	0	839909376	46	4415
2026-01-06 11:54:06.34	296.89	14.90	-37.5	-39.2	16.4	0.00e+00	0	56	0	843055104	46	4403
2026-01-06 11:54:07.35	297.09	14.86	-37.4	-39.0	16.5	0.00e+00	0	56	0	846200832	46	4325
2026-01-06 11:54:08.36	297.29	14.83	-37.3	-39.0	16.6	0.00e+00	0	56	0	849346560	46	4293
2026-01-06 11:54:09.37	297.48	14.79	-37.4	-39.0	16.5	0.00e+00	0	56	0	852492288	46	4327
2026-01-06 11:54:10.38	297.68	14.75	-37.4	-39.1	16.4	0.00e+00	0	57	0	855638016	46	4355
2026-01-06 11:54:11.39	297.88	14.71	-37.4	-39.1	16.5	0.00e+00	0	56	0	858783744	46	4355
2026-01-06 11:54:12.40	298.08	14.67	-37.6	-39.2	16.3	0.00e+00	0	56	0	861929472	46	4424
2026-01-06 11:54:13.41	298.27	14.63	-37.5	-39.2	16.3	0.00e+00	0	56	0	865075200	46	4420
2026-01-06 11:54:14.41	298.47	14.59	-37.5	-39.2	16.4	0.00e+00	0	56	0	868220928	46	4395
2026-01-06 11:54:15.42	298.66	14.55	-37.5	-39.2	16.3	0.00e+00	0	56	0	871366656	46	4422
2026-01-06 11:54:16.43	298.86	14.51	-37.7	-39.4	16.1	0.00e+00	0	56	0	874512384	46	4519
2026-01-06 11:54:17.44	299.05	14.47	-37.6	-39.3	16.2	0.00e+00	0	56	0	877658112	46	4473
2026-01-06 11:54:18.45	299.24	14.43	-37.6	-39.3	16.3	0.00e+00	0	56	0	880803840	46	4461
2026-01-06 11:54:19.46	299.44	14.39	-37.5	-39.2	16.4	0.00e+00	0	56	0	883949568	46	4396
2026-01-06 11:54:20.47	299.63	14.35	-37.4	-39.1	16.5	0.00e+00	0	56	0	887095296	46	4342
2026-01-06 11:54:21.48	299.82	14.31	-37.4	-39.0	16.5	0.00e+00	0	56	0	890241024	46	4327
2026-01-06 11:54:22.49	300.01	14.27	-37.4	-39.0	16.5	0.00e+00	0	56	0	893386752	46	4312
2026-01-06 11:54:23.50	300.21	14.23	-37.4	-39.0	16.5	0.00e+00	0	56	0	896532480	46	4320
2026-01-06 11:54:24.51	300.40	14.19	-37.5	-39.1	16.4	0.00e+00	0	56	0	899678208	46	4372
2026-01-06 11:54:25.52	300.59	14.14	-37.5	-39.2	16.4	0.00e+00	0	56	0	902823936	46	4395
2026-01-06 11:54:26.53	300.78	14.10	-37.6	-39.2	16.3	0.00e+00	0	56	0	905969664	46	4440
2026-01-06 11:54:27.55	300.97	14.06	-37.5	-39.2	16.4	0.00e+00	0	56	0	909115392	46	4399
2026-01-06 11:54:28.56	301.16	14.02	-37.5	-39.2	16.4	0.00e+00	0	56	0	912261120	46	4404
2026-01-06 11:54:29.56	301.34	13.97	-37.6	-39.2	16.3	0.00e+00	0	56	0	915406848	46	4437
2026-01-06 11:54:30.57	301.53	13.93	-37.8	-39.6	16.0	0.00e+00	0	56	0	918552576	46	4601
2026-01-06 11:54:31.58	301.72	13.89	-37.8	-39.5	16.0	0.00e+00	0	56	0	921698304	46	4567
2026-01-06 11:54:32.59	301.90	13.84	-37.8	-39.5	16.1	0.00e+00	0	56	0	924844032	46	4561
2026-01-06 11:54:33.60	302.09	13.80	-37.7	-39.4	16.1	0.00e+00	0	56	0	927989760	46	4537
2026-01-06 11:54:34.61	302.27	13.76	-37.7	-39.4	16.2	0.00e+00	0	56	0	931135488	46	4512
2026-01-06 11:54:35.62	302.46	13.71	-37.7	-39.4	16.1	0.00e+00	0	56	0	934281216	46	4503
2026-01-06 11:54:36.63	302.64	13.67	-37.6	-39.3	16.2	0.00e+00	0	56	0	937426944	46	4475
2026-01-06 11:54:37.65	302.83	13.62	-37.7	-39.4	16.2	0.00e+00	0	56	0	940572672	46	4507
2026-01-06 11:54:38.65	303.01	13.58	-37.6	-39.2	16.3	0.00e+00	0	56	0	943718400	46	4431
2026-01-06 11:54:39.66	303.19	13.53	-37.7	-39.4	16.1	0.00e+00	0	57	0	946864128	46	4539
2026-01-06 11:54:40.67	303.37	13.49	-37.8	-39.6	16.0	0.00e+00	0	56	0	950009856	46	4606
2026-01-06 11:54:41.69	303.56	13.44	-37.7	-39.5	16.1	0.00e+00	0	56	0	954204160	46	4549
2026-01-06 11:54:42.70	303.74	13.40	-37.9	-39.6	15.9	0.00e+00	0	56	0	956301312	46	4648
2026-01-06 11:54:43.71	303.92	13.35	-37.9	-39.7	15.8	0.00e+00	0	56	0	959447040	46	4685
2026-01-06 11:54:44.72	304.10	13.31	-38.0	-39.8	15.8	0.00e+00	0	57	0	962592768	46	4716
2026-01-06 11:54:45.73	304.28	13.26	-38.0	-39.8	15.7	0.00e+00	0	56	0	966787072	46	4723
2026-01-06 11:54:46.74	304.46	13.22	-38.1	-39.9	15.7	0.00e+00	0	56	0	969932800	46	4768
2026-01-06 11:54:47.75	304.64	13.17	-38.1	-39.9	15.6	0.00e+00	0	56	0	973078528	46	4800
2026-01-06 11:54:48.76	304.81	13.12	-38.1	-39.9	15.6	0.00e+00	0	56	0	976224256	46	4794
2026-01-06 11:54:49.77	304.99	13.08	-38.0	-39.9	15.6	0.00e+00	0	56	0	979369984	46	4766
2026-01-06 11:54:50.78	305.17	13.03	-38.1	-39.9	15.6	0.00e+00	0	56	0	982515712	46	4763
2026-01-06 11:54:51.79	305.34	12.98	-38.0	-39.7	15.7	0.00e+00	0	56	0	985661440	46	4703
2026-01-06 11:54:52.80	305.52	12.94	-37.9	-39.7	15.8	0.00e+00	0	56	0	988807168	46	4674
2026-01-06 11:54:53.81	305.69	12.89	-37.8	-39.6	15.9	0.00e+00	0	56	0	991952896	46	4622
2026-01-06 11:54:54.82	305.87	12.84	-37.8	-39.6	15.9	0.00e+00	0	56	0	995098624	46	4633
2026-01-06 11:54:55.83	306.04	12.79	-37.9	-39.6	15.8	0.00e+00	0	56	0	998244352	46	4640
2026-01-06 11:54:56.84	306.22	12.75	-37.9	-39.7	15.8	0.00e+00	0	56	0	1001390080	46	4683
2026-01-06 11:54:57.85	306.39	12.70	-37.9	-39.7	15.8	0.00e+00	0	56	0	1004535808	46	4679
2026-01-06 11:54:58.86	306.56	12.65	-37.9	-39.7	15.7	0.00e+00	0	56	0	1007681536	46	4701
2026-01-06 11:54:59.87	306.73	12.60	-37.9	-39.7	15.8	0.00e+00	0	56	0	1010827264	46	4674
2026-01-06 11:55:00.87	306.90	12.56	-38.0	-39.8	15.7	0.00e+00	0	57	0	1013972992	46	4723
2026-01-06 11:55:01.88	307.07	12.51	-38.1	-39.9	15.6	0.00e+00	0	56	0	1017118720	46	4792
2026-01-06 11:55:02.89	307.24	12.46	-38.2	-40.0	15.5	0.00e+00	0	56	0	1020264448	46	4851
2026-01-06 11:55:03.91	307.41	12.41	-38.2	-40.0	15.4	0.00e+00	0	56	0	1023410176	47	4593
2026-01-06 11:55:04.92	307.58	12.36	-38.2	-40.0	15.4	0.00e+00	0	56	0	1026555904	47	4591
2026-01-06 11:55:05.93	307.75	12.31	-38.3	-40.2	15.3	0.00e+00	0	56	0	1029701632	47	4663
2026-01-06 11:55:06.94	307.92	12.26	-38.2	-40.1	15.4	0.00e+00	0	56	0	1032847360	47	4600
2026-01-06 11:55:07.95	308.09	12.21	-38.2	-40.0	15.4	0.00e+00	0	56	0	1035993088	47	4593
2026-01-06 11:55:08.96	308.25	12.17	-38.2	-40.0	15.4	0.00e+00	0	56	0	1039138816	47	4596
2026-01-06 11:55:09.97	308.42	12.12	-38.2	-40.1	15.3	0.00e+00	0	56	0	1042284544	47	4635
2026-01-06 11:55:10.98	308.59	12.07	-38.2	-40.1	15.4	0.00e+00	0	56	0	1045430272	47	4607
2026-01-06 11:55:11.99	308.75	12.02	-38.3	-40.2	15.3	7.00e-07	0	56	0	1048576000	47	4654
2026-01-06 11:55:13.00	308.92	11.97	-38.2	-40.1	15.3	0.00e+00	0	56	0	1051721728	47	4619
2026-01-06 11:55:14.01	309.08	11.92	-38.3	-40.3	15.1	0.00e+00	0	56	0	1054867456	47	4718
2026-01-06 11:55:15.03	309.24	11.87	-38.3	-40.2	15.2	0.00e+00	0	56	0	1058013184	47	4690
2026-01-06 11:55:16.04	309.41	11.82	-38.3	-40.2	15.3	0.00e+00	0	56	0	1061158912	47	4658
2026-01-06 11:55:17.05	309.57	11.77	-38.3	-40.2	15.2	0.00e+00	0	56	0	1064304640	47	4678
2026-01-06 11:55:18.06	309.73	11.72	-38.5	-40.4	15.0	0.00e+00	0	56	0	1067450368	47	4806
2026-01-06 11:55:19.07	309.89	11.67	-38.5	-40.4	15.0	0.00e+00	0	56	0	1070596096	47	4807
2026-01-06 11:55:20.08	310.05	11.62	-38.5	-40.5	14.9	0.00e+00	0	56	0	1073741824	47	4831
2026-01-06 11:55:21.09	310.21	11.57	-38.5	-40.5	14.9	7.00e-07	0	56	0	1076887552	47	4838
2026-01-06 11:55:22.10	310.37	11.52	-38.5	-40.5	15.0	0.00e+00	0	56	0	1080033280	47	4827
2026-01-06 11:55:23.11	310.53	11.47	-38.5	-40.5	14.9	0.00e+00	0	56	0	1083179008	47	4834
2026-01-06 11:55:24.11	310.69	11.42	-38.5	-40.5	14.9	0.00e+00	0	56	0	1086324736	47	4847
2026-01-06 11:55:25.13	310.85	11.36	-38.5	-40.5	14.9	0.00e+00	0	56	0	1089470464	47	4859
2026-01-06 11:55:26.14	311.01	11.31	-38.6	-40.6	14.8	7.00e-07	0	56	0	1092616192	47	4899
2026-01-06 11:55:27.15	311.17	11.26	-38.5	-40.5	14.9	0.00e+00	0	56	0	1095761920	47	4868
2026-01-06 11:55:28.16	311.32	11.21	-38.5	-40.6	14.9	0.00e+00	0	56	0	1098907648	47	4872
2026-01-06 11:55:29.17	311.48	11.16	-38.5	-40.5	14.9	0.00e+00	0	56	0	1102053376	47	4841
2026-01-06 11:55:30.17	311.63	11.11	-38.5	-40.5	14.9	0.00e+00	0	56	0	1105199104	47	4827
2026-01-06 11:55:31.18	311.79	11.06	-38.5	-40.5	14.9	0.00e+00	0	56	0	1108344832	47	4821
2026-01-06 11:55:32.19	311.94	11.01	-38.4	-40.4	15.0	0.00e+00	0	56	0	1111490560	47	4786
2026-01-06 11:55:33.20	312.10	10.96	-38.5	-40.5	14.9	0.00e+00	0	56	0	1114636288	47	4817
2026-01-06 11:55:34.21	312.25	10.90	-38.4	-40.3	15.1	0.00e+00	0	56	0	1117782016	47	4746
2026-01-06 11:55:35.22	312.40	10.85	-38.3	-40.2	15.1	0.00e+00	0	56	0	1120927744	47	4705
2026-01-06 11:55:36.23	312.55	10.80	-38.4	-40.3	15.1	0.00e+00	0	56	0	1124073472	47	4748
2026-01-06 11:55:37.24	312.71	10.75	-38.4	-40.3	15.1	7.00e-07	0	56	0	1127219200	47	4752
2026-01-06 11:55:38.25	312.86	10.70	-38.5	-40.4	15.0	7.00e-07	0	56	0	1130364928	47	4814
2026-01-06 11:55:39.26	313.01	10.65	-38.4	-40.4	15.0	7.00e-07	0	56	0	1133510656	47	4779
2026-01-06 11:55:40.27	313.16	10.59	-38.5	-40.5	14.9	0.00e+00	0	56	0	1136656384	47	4830
2026-01-06 11:55:41.28	313.31	10.54	-38.5	-40.6	14.8	0.00e+00	0	56	0	1139802112	47	4871
2026-01-06 11:55:42.30	313.46	10.49	-38.6	-40.6	14.8	0.00e+00	0	56	0	1142947840	47	4910
2026-01-06 11:55:43.31	313.61	10.44	-38.7	-40.7	14.7	0.00e+00	0	56	0	1146093568	47	4960
2026-01-06 11:55:44.32	313.76	10.39	-38.5	-40.5	14.9	7.00e-07	0	56	0	1149239296	47	4844
2026-01-06 11:55:45.33	313.90	10.33	-38.7	-40.7	14.7	7.00e-07	0	56	0	1152385024	47	4964
2026-01-06 11:55:46.34	314.05	10.28	-38.6	-40.6	14.8	0.00e+00	0	56	0	1155530752	47	4912
2026-01-06 11:55:47.35	314.20	10.23	-38.6	-40.7	14.7	0.00e+00	0	56	0	1158676480	47	4933
2026-01-06 11:55:48.36	314.34	10.18	-38.8	-40.9	14.6	3.00e-06	0	56	0	1161822208	48	4785
2026-01-06 11:55:49.37	314.49	10.12	-38.8	-40.8	14.6	7.00e-07	0	56	0	1164967936	48	4741
2026-01-06 11:55:50.38	314.64	10.07	-38.8	-40.9	14.5	0.00e+00	0	56	0	1168113664	48	4800
2026-01-06 11:55:51.40	314.78	10.02	-38.9	-41.0	14.5	7.00e-07	0	56	0	1171259392	48	4821
2026-01-06 11:55:52.40	314.92	9.97	-38.9	-41.0	14.5	0.00e+00	0	56	0	1174405120	48	4831
2026-01-06 11:55:53.41	315.07	9.92	-38.7	-40.8	14.6	0.00e+00	0	56	0	1177550848	48	4723
2026-01-06 11:55:54.42	315.21	9.86	-38.8	-40.9	14.6	0.00e+00	0	57	0	1180696576	48	4771
2026-01-06 11:55:55.43	315.35	9.81	-38.8	-40.9	14.5	0.00e+00	0	57	0	1183842304	48	4794
2026-01-06 11:55:56.44	315.50	9.76	-38.8	-40.8	14.6	0.00e+00	0	56	0	1186988032	48	4745
2026-01-06 11:55:57.45	315.64	9.70	-38.8	-40.9	14.6	0.00e+00	0	56	0	1190133760	48	4763
2026-01-06 11:55:58.46	315.78	9.65	-38.8	-40.9	14.5	1.50e-06	0	56	0	1193279488	48	4778
2026-01-06 11:55:59.47	315.92	9.60	-38.9	-41.0	14.4	7.00e-07	0	56	0	1196425216	48	4832
2026-01-06 11:56:00.48	316.06	9.55	-38.7	-40.8	14.6	7.00e-07	0	56	0	1199570944	48	4731
2026-01-06 11:56:01.49	316.20	9.49	-38.8	-40.9	14.5	0.00e+00	0	56	0	1202716672	48	4773
2026-01-06 11:56:02.50	316.34	9.44	-38.8	-40.9	14.5	2.20e-06	0	56	0	1205862400	48	4801
2026-01-06 11:56:03.51	316.48	9.39	-38.9	-41.0	14.4	2.20e-06	0	56	0	1209008128	48	4821
2026-01-06 11:56:04.52	316.62	9.33	-38.9	-41.0	14.4	3.00e-06	0	56	0	1212153856	48	4826
2026-01-06 11:56:05.53	316.75	9.28	-38.8	-40.8	14.5	7.00e-07	0	56	0	1215299584	48	4755
2026-01-06 11:56:06.54	316.89	9.23	-38.8	-40.9	14.5	7.00e-07	0	56	0	1218445312	48	4773
2026-01-06 11:56:07.55	317.03	9.18	-38.8	-40.9	14.5	7.00e-07	0	56	0	1221591040	48	4787
2026-01-06 11:56:08.56	317.16	9.12	-38.8	-40.9	14.4	0.00e+00	0	56	0	1224736768	48	4805
2026-01-06 11:56:09.57	317.30	9.07	-38.7	-40.8	14.6	2.20e-06	0	56	0	1227882496	48	4740
2026-01-06 11:56:10.58	317.44	9.02	-38.8	-40.8	14.5	0.00e+00	0	56	0	1231028224	48	4747
2026-01-06 11:56:11.59	317.57	8.96	-38.7	-40.8	14.6	7.00e-07	0	56	0	1234173952	48	4719
2026-01-06 11:56:12.60	317.70	8.91	-38.7	-40.8	14.6	0.00e+00	0	56	0	1237319680	48	4706
2026-01-06 11:56:13.61	317.84	8.86	-38.8	-40.9	14.4	0.00e+00	0	56	0	1240465408	48	4786
2026-01-06 11:56:14.62	317.97	8.80	-38.9	-41.0	14.4	0.00e+00	0	56	0	1243611136	48	4826
2026-01-06 11:56:15.63	318.11	8.75	-38.8	-41.0	14.4	7.00e-07	0	56	0	1247805440	48	4831
2026-01-06 11:56:16.64	318.24	8.70	-39.0	-41.1	14.2	1.50e-06	0	56	0	1249902592	48	4915
2026-01-06 11:56:17.65	318.37	8.64	-38.9	-41.1	14.2	1.50e-06	0	56	0	1253048320	48	4897
2026-01-06 11:56:18.66	318.50	8.59	-38.8	-41.0	14.3	1.50e-06	0	56	0	1256194048	48	4822
2026-01-06 11:56:19.67	318.63	8.54	-38.8	-40.9	14.4	2.20e-06	0	56	0	1259339776	48	4797
2026-01-06 11:56:20.69	318.76	8.48	-38.9	-41.1	14.3	0.00e+00	0	57	0	1263534080	48	4878
2026-01-06 11:56:21.70	318.89	8.43	-38.9	-41.1	14.2	2.20e-06	0	56	0	1266679808	48	4907
2026-01-06 11:56:22.71	319.02	8.38	-38.9	-41.0	14.3	7.00e-07	0	56	0	1269825536	48	4830
2026-01-06 11:56:23.72	319.15	8.32	-38.9	-41.1	14.2	7.00e-07	0	56	0	1271922688	48	4874
2026-01-06 11:56:24.73	319.28	8.27	-39.0	-41.2	14.1	2.20e-06	0	56	0	1275068416	48	4966
2026-01-06 11:56:25.74	319.41	8.22	-38.9	-41.1	14.2	7.00e-07	0	56	0	1279262720	48	4910
2026-01-06 11:56:26.75	319.54	8.16	-39.0	-41.2	14.1	2.20e-06	0	56	0	1282408448	48	4938
2026-01-06 11:56:27.76	319.67	8.11	-39.0	-41.1	14.1	7.00e-07	0	56	0	1285554176	48	4908
2026-01-06 11:56:28.77	319.79	8.06	-39.0	-41.2	14.1	7.00e-07	0	56	0	1288699904	48	4944
2026-01-06 11:56:29.78	319.92	8.00	-43.9	-53.5	3.9	9.26e-01	0	57	104	1290797056	58	11489
2026-01-06 11:56:30.79	320.05	7.95	-44.6	-56.9	3.8	1.49e+00	0	57	104	1290797056	59	15972
2026-01-06 11:56:31.80	320.17	7.90	-44.7	-57.3	3.8	1.49e+00	0	57	104	1290797056	60	15782
2026-01-06 11:56:32.81	320.30	7.84	-44.9	-57.4	3.8	1.49e+00	0	56	104	1290797056	60	16008
2026-01-06 11:56:33.82	320.42	7.79	-45.0	-57.5	3.8	1.49e+00	0	57	104	1290797056	60	16308
2026-01-06 11:56:34.84	320.55	7.74	-45.1	-57.6	3.8	1.49e+00	0	56	104	1290797056	60	16495
2026-01-06 11:56:35.84	320.67	7.68	-45.2	-57.7	3.8	1.49e+00	0	57	104	1290797056	60	16627
2026-01-06 11:56:36.85	320.79	7.63	-45.2	-57.8	3.8	1.49e+00	0	57	104	1290797056	60	16718
2026-01-06 11:56:37.86	320.92	7.58	-45.2	-57.8	3.8	1.49e+00	0	56	104	1290797056	60	16761
2026-01-06 11:56:38.87	321.04	7.52	-45.2	-57.8	3.8	1.49e+00	0	57	104	1290797056	60	16711
2026-01-06 11:56:39.88	321.16	7.47	-45.1	-57.8	3.8	1.49e+00	0	56	104	1290797056	60	16786
2026-01-06 11:56:40.89	321.28	7.42	-45.1	-57.7	3.8	1.49e+00	0	57	104	1290797056	60	16667
2026-01-06 11:56:41.90	321.41	7.36	-45.1	-57.7	3.8	1.49e+00	0	56	104	1290797056	60	16660
2026-01-06 11:56:42.92	321.53	7.31	-44.3	-57.7	3.8	1.49e+00	0	57	104	1290797056	60	16656
2026-01-06 11:56:43.93	321.65	7.26	-45.1	-57.7	3.8	1.49e+00	0	56	104	1290797056	60	16680
2026-01-06 11:56:44.93	321.77	7.20	-45.1	-57.7	3.8	1.49e+00	0	56	104	1290797056	60	16668
2026-01-06 11:56:45.94	321.89	7.15	-45.1	-57.7	3.8	1.49e+00	0	56	104	1290797056	60	16619
2026-01-06 11:56:46.95	322.01	7.10	-45.1	-57.7	3.8	1.49e+00	0	56	104	1290797056	60	16615
2026-01-06 11:56:47.96	322.12	7.04	-45.1	-57.7	3.8	1.49e+00	0	57	104	1290797056	60	16611
2026-01-06 11:56:48.97	322.24	6.99	-45.1	-57.7	3.8	1.49e+00	0	56	104	1290797056	60	16578
2026-01-06 11:56:49.99	322.36	6.94	-45.1	-57.7	3.8	1.49e+00	0	56	104	1290797056	60	16510
2026-01-06 11:56:50.99	322.48	6.88	-45.1	-57.7	3.8	1.49e+00	0	57	104	1290797056	60	16603
2026-01-06 11:56:52.01	322.60	6.83	-45.1	-57.7	3.8	1.49e+00	0	57	104	1290797056	60	16567
2026-01-06 11:56:53.02	322.71	6.78	-45.1	-57.7	3.8	1.49e+00	0	57	104	1290797056	60	16605
2026-01-06 11:56:54.03	322.83	6.72	-45.1	-57.7	3.8	1.49e+00	0	56	104	1290797056	60	16629
2026-01-06 11:56:55.04	322.95	6.67	-45.1	-57.7	3.8	1.49e+00	0	57	104	1290797056	60	16565
2026-01-06 11:56:56.05	323.06	6.62	-45.1	-57.7	3.8	1.49e+00	0	56	104	1290797056	60	16589
2026-01-06 11:56:57.06	323.18	6.56	-45.1	-57.7	3.8	1.49e+00	0	57	104	1290797056	60	16603
2026-01-06 11:56:58.07	323.29	6.51	-45.1	-57.7	3.8	1.49e+00	0	56	104	1290797056	60	16611
2026-01-06 11:56:59.08	323.41	6.46	-45.1	-57.7	3.8	1.49e+00	0	56	104	1290797056	60	16584
2026-01-06 11:57:00.09	323.52	6.41	-45.1	-57.7	3.8	1.49e+00	0	57	104	1290797056	60	16559
2026-01-06 11:57:01.10	323.63	6.35	-45.1	-57.7	3.8	1.49e+00	0	57	104	1290797056	60	16587
2026-01-06 11:57:02.11	323.75	6.30	-45.1	-57.7	3.8	1.49e+00	0	57	104	1290797056	60	16619
2026-01-06 11:57:03.12	323.86	6.25	-45.1	-57.7	3.8	1.49e+00	0	56	104	1290797056	60	16569
2026-01-06 11:57:04.13	323.97	6.19	-45.1	-57.7	3.8	1.49e+00	0	57	104	1290797056	60	16518
2026-01-06 11:57:05.14	324.08	6.14	-45.1	-57.7	3.8	1.49e+00	0	57	104	1290797056	60	16551
2026-01-06 11:57:06.16	324.20	6.09	-45.1	-57.7	3.8	1.49e+00	0	57	104	1290797056	60	16578
2026-01-06 11:57:07.17	324.31	6.03	-45.1	-57.7	3.8	1.49e+00	0	57	104	1290797056	60	16567
2026-01-06 11:57:08.18	324.42	5.98	-45.1	-57.7	3.8	1.49e+00	0	57	104	1290797056	60	16532
2026-01-06 11:57:09.19	324.53	5.93	-45.1	-57.7	3.8	1.49e+00	0	57	104	1290797056	60	16507
2026-01-06 11:57:10.20	324.64	5.87	-45.1	-57.7	3.8	1.49e+00	0	57	104	1290797056	60	16565
2026-01-06 11:57:11.21	324.75	5.82	-45.1	-57.6	3.8	1.49e+00	0	57	104	1290797056	60	16503
2026-01-06 11:57:12.22	324.86	5.77	-45.1	-57.7	3.8	1.49e+00	0	57	104	1290797056	60	16563
2026-01-06 11:57:13.23	324.97	5.72	-45.1	-57.7	3.8	1.49e+00	0	57	104	1290797056	60	16595
2026-01-06 11:57:14.24	325.07	5.66	-45.1	-57.7	3.8	1.49e+00	0	57	104	1290797056	60	16580
2026-01-06 11:57:15.25	325.18	5.61	-45.1	-57.7	3.8	1.49e+00	0	57	104	1290797056	60	16529
2026-01-06 11:57:16.26	325.29	5.56	-45.1	-57.7	3.8	1.49e+00	0	57	104	1290797056	60	16551
2026-01-06 11:57:17.27	325.40	5.50	-45.1	-57.6	3.8	1.49e+00	0	57	104	1290797056	60	16490
2026-01-06 11:57:18.28	325.51	5.45	-45.1	-57.7	3.8	1.49e+00	0	57	104	1290797056	60	16549
2026-01-06 11:57:19.29	325.61	5.40	-45.1	-57.7	3.8	1.49e+00	0	57	104	1290797056	60	16579
2026-01-06 11:57:20.30	325.72	5.35	-45.1	-57.7	3.8	1.49e+00	0	57	104	1290797056	60	16523
2026-01-06 11:57:21.32	325.83	5.29	-45.1	-57.7	3.8	1.49e+00	0	57	104	1290797056	60	16544
2026-01-06 11:57:22.33	325.93	5.24	-45.1	-57.7	3.8	1.49e+00	0	57	104	1290797056	60	16611
2026-01-06 11:57:23.34	326.04	5.19	-45.1	-57.7	3.8	1.49e+00	0	57	104	1290797056	60	16514
2026-01-06 11:57:24.35	326.14	5.14	-45.1	-57.7	3.8	1.49e+00	0	57	104	1290797056	60	16521
2026-01-06 11:57:25.36	326.25	5.08	-45.1	-57.7	3.8	1.49e+00	0	57	104	1290797056	60	16525
2026-01-06 11:57:26.37	326.35	5.03	-45.1	-57.7	3.8	1.49e+00	0	57	104	1290797056	60	16539
2026-01-06 11:57:27.38	326.45	4.98	-45.1	-57.7	3.8	1.49e+00	0	57	104	1290797056	60	16528
2026-01-06 11:57:28.39	326.56	4.93	-45.1	-57.7	3.8	1.49e+00	0	57	104	1290797056	60	16566
2026-01-06 11:57:29.40	326.66	4.87	-45.1	-57.6	3.8	1.49e+00	0	56	104	1290797056	60	16499
2026-01-06 11:57:30.41	326.76	4.82	-45.1	-57.6	3.8	1.49e+00	0	57	104	1290797056	60	16489
2026-01-06 11:57:31.42	326.86	4.77	-45.1	-57.7	3.8	1.49e+00	0	57	104	1290797056	60	16531
2026-01-06 11:57:32.43	326.97	4.72	-45.1	-57.6	3.8	1.49e+00	0	57	104	1290797056	60	16498
2026-01-06 11:57:33.44	327.07	4.66	-45.1	-57.7	3.8	1.49e+00	0	56	104	1290797056	60	16549
2026-01-06 11:57:34.45	327.17	4.61	-45.1	-57.7	3.8	1.49e+00	0	56	104	1290797056	60	16565
2026-01-06 11:57:35.47	327.27	4.56	-45.0	-57.7	3.8	1.49e+00	0	57	104	1290797056	60	16506
2026-01-06 11:57:36.48	327.37	4.51	-45.1	-57.7	3.8	1.49e+00	0	57	104	1290797056	60	16531
2026-01-06 11:57:37.49	327.47	4.45	-45.1	-57.6	3.8	1.49e+00	0	57	104	1290797056	60	16500
2026-01-06 11:57:38.50	327.57	4.40	-45.0	-57.6	3.8	1.49e+00	0	57	104	1290797056	60	16444
2026-01-06 11:57:39.51	327.67	4.35	-45.1	-57.7	3.8	1.49e+00	0	57	104	1290797056	60	16504
2026-01-06 11:57:40.52	327.77	4.30	-45.1	-57.7	3.8	1.49e+00	0	57	104	1290797056	60	16533
2026-01-06 11:57:41.53	327.87	4.25	-45.1	-57.7	3.8	1.49e+00	0	57	104	1290797056	60	16508
2026-01-06 11:57:42.54	327.97	4.19	-45.1	-57.6	3.8	1.49e+00	0	57	104	1290797056	60	16493
2026-01-06 11:57:43.55	328.07	4.14	-45.1	-57.7	3.8	1.49e+00	0	57	104	1290797056	60	16510
2026-01-06 11:57:44.56	328.16	4.09	-45.0	-57.6	3.8	1.49e+00	0	57	104	1290797056	60	16493
2026-01-06 11:57:45.57	328.26	4.04	-45.0	-57.7	3.8	1.49e+00	0	57	104	1290797056	60	16510
2026-01-06 11:57:46.58	328.36	3.99	-45.1	-57.7	3.8	1.49e+00	0	57	104	1290797056	60	16547
2026-01-06 11:57:47.59	328.46	3.93	-45.0	-57.7	3.8	1.49e+00	0	57	104	1290797056	60	16512
2026-01-06 11:57:48.60	328.55	3.88	-45.1	-57.7	3.8	1.49e+00	0	56	104	1290797056	60	16527
2026-01-06 11:57:49.61	328.65	3.83	-45.0	-57.7	3.8	1.49e+00	0	57	104	1290797056	60	16516
2026-01-06 11:57:50.62	328.75	3.78	-45.0	-57.7	3.8	1.49e+00	0	57	104	1290797056	60	16510
2026-01-06 11:57:51.63	328.84	3.73	-45.1	-57.7	3.8	1.49e+00	0	57	104	1290797056	60	16543
2026-01-06 11:57:52.64	328.94	3.68	-45.0	-57.6	3.8	1.49e+00	0	57	104	1290797056	60	16493
2026-01-06 11:57:53.65	329.03	3.62	-45.0	-57.6	3.8	1.49e+00	0	57	104	1290797056	60	16478
2026-01-06 11:57:54.66	329.13	3.57	-45.0	-57.7	3.8	1.49e+00	0	57	104	1290797056	60	16510
2026-01-06 11:57:55.67	329.22	3.52	-45.1	-57.7	3.8	1.49e+00	0	57	104	1290797056	60	16579
2026-01-06 11:57:56.69	329.32	3.47	-45.0	-57.7	3.8	1.49e+00	0	57	104	1290797056	60	16512
2026-01-06 11:57:57.69	329.41	3.42	-45.0	-57.7	3.8	1.49e+00	0	57	104	1290797056	60	16533
2026-01-06 11:57:58.70	329.50	3.37	-45.0	-57.6	3.8	1.49e+00	0	57	104	1290797056	60	16476
2026-01-06 11:57:59.72	329.60	3.31	-45.0	-57.6	3.8	1.49e+00	0	57	104	1290797056	60	16424
2026-01-06 11:58:00.73	329.69	3.26	-45.0	-57.6	3.8	1.49e+00	0	57	104	1290797056	60	16492
2026-01-06 11:58:01.74	329.78	3.21	-45.0	-57.7	3.8	1.49e+00	0	57	104	1290797056	60	16526
2026-01-06 11:58:02.75	329.87	3.16	-45.0	-57.6	3.8	1.49e+00	0	56	104	1290797056	60	16499
2026-01-06 11:58:03.76	329.97	3.11	-45.0	-57.6	3.8	1.49e+00	0	57	104	1290797056	60	16459
2026-01-06 11:58:04.77	330.06	3.06	-45.0	-57.6	3.8	1.49e+00	0	57	104	1290797056	60	16468
2026-01-06 11:58:05.78	330.15	3.01	-45.0	-57.6	3.8	1.49e+00	0	57	104	1290797056	60	16475
2026-01-06 11:58:06.79	330.24	2.96	-45.0	-57.6	3.8	1.49e+00	0	57	104	1290797056	60	16435
2026-01-06 11:58:07.80	330.33	2.90	-45.0	-57.6	3.8	1.49e+00	0	57	104	1290797056	60	16488
2026-01-06 11:58:08.81	330.42	2.85	-45.0	-57.6	3.8	1.49e+00	0	57	104	1290797056	60	16490
2026-01-06 11:58:09.82	330.51	2.80	-45.0	-57.6	3.8	1.49e+00	0	57	104	1290797056	60	16478
2026-01-06 11:58:10.83	330.60	2.75	-45.0	-57.6	3.8	1.49e+00	0	57	104	1290797056	60	16499
2026-01-06 11:58:11.84	330.69	2.70	-45.0	-57.6	3.8	1.49e+00	0	56	104	1290797056	60	16482
2026-01-06 11:58:12.85	330.78	2.65	-45.0	-57.6	3.8	1.49e+00	0	57	104	1290797056	60	16483
2026-01-06 11:58:13.87	330.87	2.60	-45.0	-57.6	3.8	1.49e+00	0	57	104	1290797056	60	16437
2026-01-06 11:58:14.88	330.96	2.55	-45.0	-57.6	3.8	1.49e+00	0	57	104	1290797056	60	16475
2026-01-06 11:58:15.88	331.04	2.50	-45.0	-57.6	3.8	1.49e+00	0	57	104	1290797056	60	16497
2026-01-06 11:58:16.90	331.13	2.45	-45.0	-57.6	3.8	1.49e+00	0	57	104	1290797056	60	16484
2026-01-06 11:58:17.91	331.22	2.39	-45.0	-57.6	3.8	1.49e+00	0	57	104	1290797056	60	16468
2026-01-06 11:58:18.92	331.31	2.34	-45.0	-57.6	3.8	1.49e+00	0	57	104	1290797056	60	16469
2026-01-06 11:58:19.93	331.40	2.29	-45.0	-57.6	3.8	1.49e+00	0	57	104	1290797056	60	16449
2026-01-06 11:58:20.94	331.48	2.24	-45.0	-57.6	3.8	1.49e+00	0	57	104	1290797056	60	16456
2026-01-06 11:58:21.95	331.57	2.19	-45.0	-57.7	3.8	1.49e+00	0	57	104	1290797056	60	16508
2026-01-06 11:58:22.96	331.66	2.14	-45.0	-57.6	3.8	1.49e+00	0	57	104	1290797056	60	16440
2026-01-06 11:58:23.97	331.74	2.09	-45.0	-57.6	3.8	1.49e+00	0	57	104	1290797056	60	16488
2026-01-06 11:58:24.98	331.83	2.04	-45.0	-57.6	3.8	1.49e+00	0	57	104	1290797056	60	16464
2026-01-06 11:58:25.99	331.91	1.99	-45.0	-57.6	3.8	1.49e+00	0	57	104	1290797056	60	16483

#Closed at: 2026-01-06 11:58:26
#Recorded file [1290 MB]: D:/lorett/data/31039_260106_144848.dat