passes_logs/2026/01/06/R2.0S_Moscow/R2.0S_Moscow__20260106_103349_SUOMI_NPP_rec.log

#Pass ID: 20260106_103349_SUOMI NPP
#Satellite: SUOMI NPP
#Configuration: NPP
#almurnet v.1.7.20251203
#Start time: 2026-01-06 10:33:49

#Version: 2.2.20231116
#Station: R2.0S_Moscow
#Location: 37.707566 lon 55.798166 lat
#TLE: 1 37849U 11061A   26004.95404768  .00000136  00000+0  85334-4 0  9991
#TLE: 2 37849  98.7801 307.0898 0002575  80.6707 279.4760 14.19522289735281

#Time	Az	El	Level	Level2	SNR	BER	BlckErr	Temp	State	Recorded	gain1	gain2
2026-01-06 10:33:49.38	177.41	1.98	-44.0	-58.6	3.8	1.49e+00	0	47	0	0	59	19413
2026-01-06 10:33:50.38	177.44	2.05	-44.0	-58.6	3.8	1.49e+00	0	47	104	0	59	19407
2026-01-06 10:33:51.39	177.47	2.11	-44.0	-58.6	3.8	1.49e+00	0	47	104	0	59	19421
2026-01-06 10:33:52.40	177.50	2.18	-44.0	-58.5	3.8	1.49e+00	0	47	104	0	59	19354
2026-01-06 10:33:53.41	177.53	2.24	-44.0	-58.5	3.8	1.49e+00	0	47	104	0	59	19376
2026-01-06 10:33:54.42	177.56	2.30	-44.0	-58.5	3.8	1.49e+00	0	47	104	0	59	19379
2026-01-06 10:33:55.43	177.59	2.37	-44.0	-58.5	3.8	1.49e+00	0	47	104	0	59	19352
2026-01-06 10:33:56.44	177.61	2.43	-44.0	-58.6	3.8	1.49e+00	0	47	104	0	59	19438
2026-01-06 10:33:57.45	177.64	2.50	-44.0	-58.5	3.8	1.49e+00	0	47	104	0	59	19356
2026-01-06 10:33:58.46	177.67	2.56	-44.0	-58.6	3.8	1.49e+00	0	47	104	0	59	19427
2026-01-06 10:33:59.48	177.70	2.63	-44.0	-58.5	3.8	1.49e+00	0	47	104	0	59	19365
2026-01-06 10:34:00.49	177.73	2.69	-44.0	-58.5	3.8	1.49e+00	0	47	104	0	59	19350
2026-01-06 10:34:01.50	177.76	2.76	-44.0	-58.5	3.8	1.49e+00	0	48	104	0	59	19332
2026-01-06 10:34:02.51	177.79	2.82	-44.0	-58.5	3.8	1.49e+00	0	48	104	0	59	19376
2026-01-06 10:34:03.52	177.82	2.89	-44.0	-58.6	3.8	1.49e+00	0	48	104	0	59	19418
2026-01-06 10:34:04.53	177.85	2.95	-44.0	-58.5	3.8	1.49e+00	0	48	104	0	59	19380
2026-01-06 10:34:05.54	177.88	3.02	-44.0	-58.6	3.8	1.49e+00	0	48	104	0	59	19394
2026-01-06 10:34:06.55	177.91	3.09	-44.0	-58.5	3.8	1.49e+00	0	48	104	0	59	19363
2026-01-06 10:34:07.56	177.95	3.15	-44.0	-58.5	3.8	1.49e+00	0	48	104	0	59	19336
2026-01-06 10:34:08.57	177.98	3.22	-44.0	-58.5	3.8	1.49e+00	0	48	104	0	59	19350
2026-01-06 10:34:09.58	178.01	3.29	-44.0	-58.5	3.8	1.49e+00	0	48	104	0	59	19376
2026-01-06 10:34:10.59	178.04	3.35	-44.0	-58.5	3.8	1.49e+00	0	48	104	0	59	19385
2026-01-06 10:34:11.60	178.07	3.42	-44.0	-58.5	3.8	1.49e+00	0	48	104	0	59	19346
2026-01-06 10:34:12.61	178.10	3.49	-44.0	-58.5	3.8	1.49e+00	0	48	104	0	59	19383
2026-01-06 10:34:13.63	178.13	3.55	-44.0	-58.6	3.8	1.49e+00	0	48	104	0	59	19407
2026-01-06 10:34:14.64	178.16	3.62	-44.0	-58.5	3.8	1.49e+00	0	48	104	0	59	19365
2026-01-06 10:34:15.64	178.20	3.69	-44.0	-58.5	3.8	1.49e+00	0	49	104	0	59	19332
2026-01-06 10:34:16.65	178.23	3.76	-44.0	-58.6	3.8	1.49e+00	0	49	104	0	59	19394
2026-01-06 10:34:17.66	178.26	3.82	-44.0	-58.5	3.8	1.49e+00	0	48	104	0	59	19298
2026-01-06 10:34:18.67	178.29	3.89	-44.0	-58.5	3.8	1.49e+00	0	48	104	0	59	19379
2026-01-06 10:34:19.68	178.32	3.96	-44.0	-58.5	3.8	1.49e+00	0	48	104	0	59	19383
2026-01-06 10:34:20.69	178.36	4.03	-44.0	-58.5	3.8	1.49e+00	0	49	104	0	59	19369
2026-01-06 10:34:21.71	178.39	4.10	-44.0	-58.5	3.8	1.49e+00	0	49	104	0	59	19341
2026-01-06 10:34:22.72	178.42	4.16	-44.0	-58.5	3.8	1.49e+00	0	49	104	0	59	19368
2026-01-06 10:34:23.73	178.45	4.23	-44.0	-58.5	3.8	1.49e+00	0	49	104	0	59	19336
2026-01-06 10:34:24.74	178.49	4.30	-44.0	-58.5	3.8	1.49e+00	0	49	104	0	59	19345
2026-01-06 10:34:25.75	178.52	4.37	-44.0	-58.5	3.8	1.49e+00	0	49	104	0	59	19297
2026-01-06 10:34:26.76	178.55	4.44	-44.0	-58.5	3.8	1.49e+00	0	49	104	0	59	19377
2026-01-06 10:34:27.77	178.59	4.51	-44.0	-58.5	3.8	1.49e+00	0	49	104	0	59	19304
2026-01-06 10:34:28.78	178.62	4.58	-44.0	-58.5	3.8	1.49e+00	0	49	104	0	59	19329
2026-01-06 10:34:29.79	178.65	4.65	-44.0	-58.5	3.8	1.49e+00	0	49	104	0	59	19324
2026-01-06 10:34:30.80	178.69	4.72	-44.0	-58.5	3.8	1.49e+00	0	49	104	0	59	19282
2026-01-06 10:34:31.81	178.72	4.79	-44.0	-58.5	3.8	1.49e+00	0	49	104	0	59	19345
2026-01-06 10:34:32.82	178.75	4.86	-44.0	-58.5	3.8	1.49e+00	0	49	104	0	59	19251
2026-01-06 10:34:33.83	178.79	4.93	-44.0	-58.5	3.8	1.49e+00	0	50	104	0	59	19179
2026-01-06 10:34:34.84	178.82	5.00	-44.0	-58.4	3.8	1.49e+00	0	50	104	0	59	19011
2026-01-06 10:34:35.85	178.86	5.07	-44.0	-58.3	3.8	1.49e+00	0	49	104	0	59	18922
2026-01-06 10:34:36.86	178.89	5.14	-44.0	-58.2	3.8	1.49e+00	0	50	104	0	59	18711
2026-01-06 10:34:37.87	178.93	5.21	-44.0	-58.1	3.8	1.49e+00	0	50	104	0	59	18491
2026-01-06 10:34:38.88	178.96	5.28	-44.0	-58.0	3.8	1.49e+00	0	50	104	0	59	18262
2026-01-06 10:34:39.89	179.00	5.36	-44.0	-57.9	3.8	1.49e+00	0	50	104	0	59	17995
2026-01-06 10:34:40.90	179.03	5.43	-44.0	-57.7	3.8	1.49e+00	0	50	104	0	59	17594
2026-01-06 10:34:41.92	179.07	5.50	-44.0	-57.7	3.8	1.49e+00	0	50	104	0	59	17552
2026-01-06 10:34:42.93	179.10	5.57	-44.0	-57.5	3.8	1.49e+00	0	50	104	0	59	17275
2026-01-06 10:34:43.94	179.14	5.65	-44.0	-57.7	3.8	1.49e+00	0	50	104	0	59	17576
2026-01-06 10:34:44.95	179.18	5.72	-44.0	-57.8	3.8	1.49e+00	0	50	104	0	59	17886
2026-01-06 10:34:45.96	179.21	5.79	-44.0	-57.9	3.8	1.49e+00	0	50	104	0	59	17969
2026-01-06 10:34:46.97	179.25	5.86	-44.0	-57.6	3.8	1.49e+00	0	50	104	0	59	17451
2026-01-06 10:34:47.98	179.29	5.94	-44.0	-57.4	3.8	1.49e+00	0	50	104	0	59	16924
2026-01-06 10:34:48.99	179.32	6.01	-44.0	-57.4	3.8	1.49e+00	0	50	104	0	59	16944
2026-01-06 10:34:50.00	179.36	6.08	-44.0	-57.5	3.8	1.49e+00	0	50	104	0	59	17227
2026-01-06 10:34:51.01	179.40	6.16	-44.0	-57.4	3.8	1.49e+00	0	50	104	0	59	16888
2026-01-06 10:34:52.02	179.43	6.23	-43.9	-56.9	3.8	1.49e+00	0	50	104	0	59	16032
2026-01-06 10:34:53.03	179.47	6.30	-43.9	-56.8	3.8	1.49e+00	0	50	104	0	59	15857
2026-01-06 10:34:54.04	179.51	6.38	-43.9	-56.6	3.8	1.49e+00	0	50	104	0	59	15412
2026-01-06 10:34:55.05	179.55	6.45	-43.9	-56.0	3.9	1.48e+00	0	51	104	0	59	14451
2026-01-06 10:34:56.06	179.58	6.53	-43.8	-55.0	4.2	1.45e+00	0	50	0	0	59	12897
2026-01-06 10:34:57.08	179.62	6.60	-43.7	-54.4	4.4	1.32e+00	0	51	0	0	59	11994
2026-01-06 10:34:58.09	179.66	6.68	-43.6	-53.2	4.9	1.11e+00	0	51	0	2097152	59	10491
2026-01-06 10:34:59.10	179.70	6.75	-43.5	-52.4	5.4	5.77e-01	0	51	0	4194304	59	9507
2026-01-06 10:35:00.11	179.74	6.83	-43.4	-51.7	5.8	4.74e-01	0	51	0	6291456	58	9338
2026-01-06 10:35:01.12	179.78	6.91	-43.2	-50.7	6.6	2.92e-01	0	51	0	7340032	58	8274
2026-01-06 10:35:02.13	179.81	6.98	-43.0	-49.9	7.3	1.41e-01	0	51	0	9437184	58	7613
2026-01-06 10:35:03.14	179.85	7.06	-42.7	-48.9	8.3	7.53e-02	0	51	0	11534336	57	7147
2026-01-06 10:35:04.15	179.89	7.13	-42.5	-48.1	9.0	3.67e-02	0	51	0	13631488	57	6567
2026-01-06 10:35:05.16	179.93	7.21	-42.3	-47.5	9.8	1.29e-02	0	51	0	15728640	56	6429
2026-01-06 10:35:06.17	179.97	7.29	-42.1	-47.0	10.3	6.78e-03	0	51	0	16777216	56	6097
2026-01-06 10:35:07.18	180.01	7.36	-41.6	-46.1	11.0	3.11e-03	0	51	0	18874368	55	5816
2026-01-06 10:35:08.19	180.05	7.44	-41.5	-45.7	11.4	8.91e-04	0	51	0	20971520	54	5922
2026-01-06 10:35:09.21	180.09	7.52	-41.3	-45.4	11.8	7.77e-04	0	51	0	23068672	54	5699
2026-01-06 10:35:10.22	180.13	7.60	-41.0	-44.7	12.5	1.75e-04	0	51	0	25165824	54	5277
2026-01-06 10:35:11.23	180.17	7.68	-40.9	-44.6	12.6	1.57e-04	0	51	0	26214400	53	5477
2026-01-06 10:35:12.24	180.22	7.75	-40.8	-44.4	12.8	8.08e-05	0	51	0	28311552	53	5363
2026-01-06 10:35:13.25	180.26	7.83	-40.7	-44.2	13.0	3.81e-05	0	51	0	30408704	53	5262
2026-01-06 10:35:14.26	180.30	7.91	-40.7	-44.2	12.9	4.88e-05	0	51	0	32505856	53	5277
2026-01-06 10:35:15.27	180.34	7.99	-40.8	-44.3	12.9	3.58e-05	0	51	0	34603008	53	5339
2026-01-06 10:35:16.28	180.38	8.07	-40.6	-44.0	13.2	6.56e-05	0	51	0	36700160	53	5128
2026-01-06 10:35:17.29	180.42	8.15	-42.4	-47.6	9.6	5.64e-03	0	51	0	37748736	55	6949
2026-01-06 10:35:18.30	180.47	8.23	-41.2	-45.0	12.1	2.79e-03	0	52	0	39845888	54	5404
2026-01-06 10:35:19.31	180.51	8.31	-43.1	-51.1	6.0	2.67e-01	0	51	0	41943040	57	9195
2026-01-06 10:35:20.32	180.55	8.39	-42.5	-48.1	8.7	2.36e-01	0	51	0	44040192	57	6568
2026-01-06 10:35:21.33	180.59	8.47	-41.6	-45.8	11.4	2.50e-03	0	52	0	46137344	54	5944
2026-01-06 10:35:22.34	180.64	8.55	-40.8	-44.2	13.1	2.05e-05	0	52	0	47185920	53	5240
2026-01-06 10:35:23.36	180.68	8.63	-40.6	-43.9	13.5	1.37e-05	0	51	0	49283072	53	5061
2026-01-06 10:35:24.36	180.72	8.71	-40.6	-43.8	13.5	6.80e-06	0	52	0	51380224	53	5019
2026-01-06 10:35:25.38	180.77	8.79	-40.5	-43.8	13.6	6.80e-06	0	52	0	53477376	53	5001
2026-01-06 10:35:26.39	180.81	8.87	-40.5	-43.8	13.6	6.80e-06	0	52	0	55574528	53	4989
2026-01-06 10:35:27.40	180.86	8.96	-40.5	-43.8	13.6	6.10e-06	0	52	0	56623104	52	5288
2026-01-06 10:35:28.41	180.90	9.04	-40.6	-43.8	13.6	9.10e-06	0	52	0	58720256	52	5287
2026-01-06 10:35:29.42	180.94	9.12	-40.5	-43.6	13.8	6.10e-06	0	52	0	60817408	52	5204
2026-01-06 10:35:30.43	180.99	9.20	-40.5	-43.7	13.8	3.00e-06	0	52	0	62914560	52	5222
2026-01-06 10:35:31.44	181.03	9.29	-40.5	-43.6	13.9	4.50e-06	0	52	0	65011712	52	5200
2026-01-06 10:35:32.45	181.08	9.37	-40.4	-43.4	14.0	4.50e-06	0	52	0	66060288	52	5091
2026-01-06 10:35:33.46	181.13	9.45	-40.5	-43.6	13.9	3.80e-06	0	52	0	68157440	52	5176
2026-01-06 10:35:34.46	181.17	9.54	-40.3	-43.4	14.1	1.50e-06	0	52	0	70254592	52	5048
2026-01-06 10:35:35.48	181.22	9.62	-40.3	-43.3	14.3	7.00e-07	0	52	0	72351744	52	4986
2026-01-06 10:35:36.49	181.26	9.71	-40.3	-43.2	14.2	1.50e-06	0	52	0	74448896	52	4981
2026-01-06 10:35:37.50	181.31	9.79	-40.2	-43.1	14.4	2.20e-06	0	52	0	75497472	52	4902
2026-01-06 10:35:38.50	181.36	9.87	-40.4	-43.4	14.2	1.50e-06	0	52	0	77594624	52	5048
2026-01-06 10:35:39.51	181.40	9.96	-40.3	-43.2	14.3	7.00e-07	0	52	0	79691776	52	4954
2026-01-06 10:35:40.52	181.45	10.04	-40.3	-43.3	14.3	7.00e-07	0	52	0	81788928	52	4989
2026-01-06 10:35:41.53	181.50	10.13	-40.4	-43.3	14.2	7.00e-07	0	52	0	83886080	52	5036
2026-01-06 10:35:42.54	181.55	10.22	-40.3	-43.2	14.3	7.00e-07	0	52	0	84934656	52	4967
2026-01-06 10:35:43.55	181.60	10.30	-40.3	-43.3	14.3	7.00e-07	0	52	0	87031808	52	5002
2026-01-06 10:35:44.56	181.64	10.39	-40.4	-43.4	14.2	7.00e-07	0	52	0	89128960	52	5081
2026-01-06 10:35:45.57	181.69	10.47	-40.2	-43.1	14.5	0.00e+00	0	52	0	91226112	52	4905
2026-01-06 10:35:46.58	181.74	10.56	-40.3	-43.2	14.3	2.20e-06	0	52	0	93323264	52	4981
2026-01-06 10:35:47.59	181.79	10.65	-40.2	-43.0	14.6	0.00e+00	0	52	0	94371840	52	4864
2026-01-06 10:35:48.60	181.84	10.74	-40.2	-43.0	14.6	1.50e-06	0	53	0	96468992	52	4855
2026-01-06 10:35:49.61	181.89	10.82	-40.2	-43.1	14.5	0.00e+00	0	53	0	98566144	52	4913
2026-01-06 10:35:50.62	181.94	10.91	-40.1	-43.0	14.6	0.00e+00	0	53	0	100663296	52	4841
2026-01-06 10:35:51.63	181.99	11.00	-40.1	-42.8	14.8	0.00e+00	0	53	0	102760448	52	4750
2026-01-06 10:35:52.64	182.04	11.09	-40.0	-42.7	14.9	0.00e+00	0	53	0	104857600	52	4673
2026-01-06 10:35:53.65	182.09	11.18	-40.2	-42.9	14.8	0.00e+00	0	53	0	105906176	51	5084
2026-01-06 10:35:54.66	182.14	11.27	-40.1	-42.8	14.9	7.00e-07	0	53	0	108003328	51	5021
2026-01-06 10:35:55.67	182.20	11.36	-40.0	-42.7	15.0	0.00e+00	0	53	0	110100480	51	4957
2026-01-06 10:35:56.67	182.25	11.45	-40.0	-42.7	15.1	7.00e-07	0	53	0	112197632	51	4949
2026-01-06 10:35:57.68	182.30	11.54	-40.0	-42.7	15.1	0.00e+00	0	53	0	114294784	51	4949
2026-01-06 10:35:58.69	182.35	11.63	-40.0	-42.6	15.1	0.00e+00	0	53	0	115343360	51	4926
2026-01-06 10:35:59.70	182.40	11.72	-40.0	-42.6	15.1	0.00e+00	0	53	0	117440512	51	4914
2026-01-06 10:36:00.71	182.46	11.81	-39.8	-42.4	15.4	7.00e-07	0	53	0	119537664	51	4786
2026-01-06 10:36:01.72	182.51	11.90	-39.9	-42.4	15.4	0.00e+00	0	53	0	121634816	51	4803
2026-01-06 10:36:02.73	182.56	11.99	-39.7	-42.2	15.5	0.00e+00	0	53	0	123731968	51	4698
2026-01-06 10:36:03.74	182.62	12.09	-39.7	-42.2	15.6	0.00e+00	0	53	0	124780544	51	4689
2026-01-06 10:36:04.75	182.67	12.18	-39.9	-42.4	15.3	0.00e+00	0	53	0	126877696	51	4806
2026-01-06 10:36:05.76	182.73	12.27	-39.7	-42.2	15.6	0.00e+00	0	53	0	128974848	51	4698
2026-01-06 10:36:06.77	182.78	12.37	-40.0	-42.6	15.3	0.00e+00	0	53	0	131072000	51	4871
2026-01-06 10:36:07.78	182.84	12.46	-39.8	-42.3	15.5	0.00e+00	0	53	0	133169152	51	4729
2026-01-06 10:36:08.79	182.89	12.55	-39.7	-42.2	15.6	0.00e+00	0	53	0	134217728	51	4674
2026-01-06 10:36:09.80	182.95	12.65	-39.8	-42.4	15.5	0.00e+00	0	53	0	136314880	51	4777
2026-01-06 10:36:10.81	183.01	12.74	-39.8	-42.4	15.5	0.00e+00	0	53	0	138412032	51	4764
2026-01-06 10:36:11.82	183.06	12.84	-39.8	-42.3	15.5	0.00e+00	0	53	0	140509184	51	4744
2026-01-06 10:36:12.83	183.12	12.93	-39.9	-42.4	15.4	0.00e+00	0	53	0	142606336	51	4787
2026-01-06 10:36:13.84	183.18	13.03	-39.8	-42.2	15.6	0.00e+00	0	53	0	143654912	51	4700
2026-01-06 10:36:14.85	183.23	13.12	-39.7	-42.2	15.6	0.00e+00	0	53	0	145752064	51	4700
2026-01-06 10:36:15.86	183.29	13.22	-39.9	-42.4	15.5	0.00e+00	0	53	0	147849216	51	4771
2026-01-06 10:36:16.87	183.35	13.32	-39.8	-42.3	15.5	0.00e+00	0	53	0	149946368	51	4739
2026-01-06 10:36:17.88	183.41	13.41	-39.8	-42.4	15.5	0.00e+00	0	53	0	152043520	51	4768
2026-01-06 10:36:18.89	183.47	13.51	-39.9	-42.4	15.5	0.00e+00	0	53	0	153092096	51	4767
2026-01-06 10:36:19.90	183.53	13.61	-40.0	-42.5	15.4	0.00e+00	0	53	0	155189248	51	4843
2026-01-06 10:36:20.91	183.59	13.71	-39.9	-42.4	15.6	0.00e+00	0	53	0	157286400	51	4779
2026-01-06 10:36:21.91	183.65	13.81	-39.7	-42.2	15.8	0.00e+00	0	53	0	159383552	51	4653
2026-01-06 10:36:22.92	183.71	13.90	-39.7	-42.2	15.7	0.00e+00	0	53	0	161480704	51	4679
2026-01-06 10:36:23.93	183.77	14.00	-39.8	-42.3	15.6	0.00e+00	0	53	0	162529280	51	4744
2026-01-06 10:36:24.94	183.83	14.10	-39.8	-42.2	15.7	0.00e+00	0	53	0	164626432	51	4704
2026-01-06 10:36:25.95	183.89	14.20	-39.8	-42.2	15.7	0.00e+00	0	54	0	166723584	51	4682
2026-01-06 10:36:26.96	183.95	14.30	-39.9	-42.4	15.5	0.00e+00	0	53	0	168820736	51	4809
2026-01-06 10:36:27.97	184.02	14.41	-39.7	-42.1	15.8	0.00e+00	0	54	0	170917888	51	4629
2026-01-06 10:36:28.98	184.08	14.51	-39.8	-42.3	15.7	0.00e+00	0	53	0	173015040	51	4733
2026-01-06 10:36:29.99	184.14	14.61	-39.9	-42.4	15.6	0.00e+00	0	54	0	174063616	51	4772
2026-01-06 10:36:31.00	184.21	14.71	-39.9	-42.4	15.5	0.00e+00	0	53	0	176160768	51	4806
2026-01-06 10:36:32.01	184.27	14.81	-40.1	-42.6	15.3	0.00e+00	0	54	0	178257920	51	4916
2026-01-06 10:36:33.02	184.34	14.92	-40.1	-42.7	15.3	0.00e+00	0	54	0	180355072	51	4953
2026-01-06 10:36:34.03	184.40	15.02	-40.1	-42.6	15.4	0.00e+00	0	54	0	181403648	51	4921
2026-01-06 10:36:35.04	184.47	15.12	-40.2	-42.8	15.2	0.00e+00	0	54	0	183500800	51	5006
2026-01-06 10:36:36.04	184.53	15.23	-40.2	-42.9	15.1	0.00e+00	0	54	0	185597952	51	5084
2026-01-06 10:36:37.05	184.60	15.33	-40.2	-42.9	15.1	0.00e+00	0	54	0	187695104	51	5073
2026-01-06 10:36:38.06	184.67	15.44	-40.2	-42.9	15.1	0.00e+00	0	54	0	189792256	51	5067
2026-01-06 10:36:39.07	184.73	15.54	-40.3	-43.0	15.0	7.00e-07	0	54	0	190840832	51	5127
2026-01-06 10:36:40.08	184.80	15.65	-40.2	-42.9	15.1	0.00e+00	0	54	0	192937984	51	5056
2026-01-06 10:36:41.09	184.87	15.75	-40.2	-42.9	15.1	0.00e+00	0	54	0	195035136	51	5061
2026-01-06 10:36:42.10	184.94	15.86	-40.3	-43.0	15.1	0.00e+00	0	54	0	197132288	51	5118
2026-01-06 10:36:43.11	185.01	15.97	-40.0	-42.6	15.4	0.00e+00	0	54	0	199229440	51	4895
2026-01-06 10:36:44.12	185.08	16.07	-40.2	-42.8	15.2	0.00e+00	0	54	0	201326592	51	5019
2026-01-06 10:36:45.13	185.15	16.18	-40.2	-42.7	15.3	0.00e+00	0	54	0	202375168	51	4974
2026-01-06 10:36:46.14	185.22	16.29	-40.1	-42.6	15.4	0.00e+00	0	54	0	204472320	51	4921
2026-01-06 10:36:47.15	185.29	16.40	-40.2	-42.8	15.3	0.00e+00	0	54	0	206569472	51	4988
2026-01-06 10:36:48.15	185.36	16.51	-40.1	-42.6	15.4	0.00e+00	0	54	0	208666624	51	4924
2026-01-06 10:36:49.16	185.43	16.62	-40.0	-42.5	15.6	0.00e+00	0	54	0	210763776	51	4822
2026-01-06 10:36:50.17	185.50	16.73	-40.1	-42.7	15.4	0.00e+00	0	54	0	211812352	51	4968
2026-01-06 10:36:51.18	185.58	16.84	-40.0	-42.6	15.5	0.00e+00	0	54	0	213909504	51	4875
2026-01-06 10:36:52.19	185.65	16.95	-40.2	-42.8	15.2	0.00e+00	0	54	0	216006656	51	5035
2026-01-06 10:36:53.20	185.73	17.06	-40.2	-42.7	15.3	0.00e+00	0	54	0	218103808	51	4980
2026-01-06 10:36:54.21	185.80	17.17	-40.2	-42.9	15.2	0.00e+00	0	54	0	220200960	51	5056
2026-01-06 10:36:55.22	185.87	17.29	-40.2	-42.8	15.3	0.00e+00	0	54	0	221249536	51	5025
2026-01-06 10:36:56.23	185.95	17.40	-40.2	-42.8	15.3	0.00e+00	0	54	0	223346688	51	5015
2026-01-06 10:36:57.24	186.03	17.51	-40.1	-42.7	15.4	0.00e+00	0	54	0	225443840	51	4951
2026-01-06 10:36:58.25	186.10	17.63	-40.3	-43.0	15.1	0.00e+00	0	54	0	227540992	51	5118
2026-01-06 10:36:59.26	186.18	17.74	-40.3	-42.9	15.1	0.00e+00	0	54	0	229638144	51	5094
2026-01-06 10:37:00.27	186.26	17.85	-40.2	-42.8	15.2	0.00e+00	0	54	0	230686720	51	5018
2026-01-06 10:37:01.28	186.34	17.97	-40.3	-42.9	15.2	7.00e-07	0	54	0	232783872	51	5073
2026-01-06 10:37:02.29	186.42	18.09	-40.1	-42.6	15.5	0.00e+00	0	54	0	234881024	51	4901
2026-01-06 10:37:03.30	186.50	18.20	-40.1	-42.6	15.5	0.00e+00	0	54	0	236978176	51	4901
2026-01-06 10:37:04.31	186.58	18.32	-40.1	-42.6	15.5	0.00e+00	0	54	0	239075328	51	4899
2026-01-06 10:37:05.32	186.66	18.44	-40.0	-42.4	15.6	0.00e+00	0	54	0	241172480	51	4810
2026-01-06 10:37:06.33	186.74	18.55	-39.9	-42.4	15.7	0.00e+00	0	54	0	242221056	51	4780
2026-01-06 10:37:07.34	186.82	18.67	-39.8	-42.2	15.8	0.00e+00	0	54	0	244318208	51	4682
2026-01-06 10:37:08.35	186.90	18.79	-39.7	-42.1	16.0	0.00e+00	0	54	0	246415360	51	4601
2026-01-06 10:37:09.36	186.99	18.91	-39.9	-42.3	15.9	0.00e+00	0	54	0	248512512	51	4706
2026-01-06 10:37:10.37	187.07	19.03	-39.8	-42.1	16.0	0.00e+00	0	54	0	250609664	51	4635
2026-01-06 10:37:11.38	187.16	19.15	-39.7	-42.0	16.1	0.00e+00	0	54	0	251658240	51	4568
2026-01-06 10:37:12.39	187.24	19.27	-39.7	-42.0	16.1	0.00e+00	0	54	0	253755392	51	4594
2026-01-06 10:37:13.40	187.33	19.39	-39.6	-41.8	16.3	0.00e+00	0	54	0	255852544	51	4471
2026-01-06 10:37:14.41	187.41	19.52	-39.5	-41.7	16.4	0.00e+00	0	54	0	257949696	51	4415
2026-01-06 10:37:15.42	187.50	19.64	-39.4	-41.6	16.5	0.00e+00	0	54	0	260046848	50	4651
2026-01-06 10:37:16.43	187.59	19.76	-39.2	-41.3	16.8	0.00e+00	0	54	0	261095424	50	4472
2026-01-06 10:37:17.44	187.68	19.89	-39.1	-41.1	17.0	0.00e+00	0	54	0	263192576	50	4372
2026-01-06 10:37:18.45	187.77	20.01	-39.0	-41.0	17.1	0.00e+00	0	54	0	265289728	50	4308
2026-01-06 10:37:19.46	187.86	20.14	-38.9	-40.9	17.1	0.00e+00	0	54	0	267386880	49	4524
2026-01-06 10:37:20.47	187.95	20.26	-38.6	-40.6	17.5	0.00e+00	0	54	0	269484032	49	4341
2026-01-06 10:37:21.48	188.04	20.39	-38.6	-40.5	17.6	0.00e+00	0	54	0	270532608	49	4310
2026-01-06 10:37:22.49	188.13	20.51	-38.5	-40.4	17.7	0.00e+00	0	54	0	272629760	49	4276
2026-01-06 10:37:23.50	188.22	20.64	-38.6	-40.5	17.6	0.00e+00	0	54	0	274726912	48	4568
2026-01-06 10:37:24.51	188.32	20.77	-38.5	-40.4	17.7	0.00e+00	0	54	0	276824064	48	4534
2026-01-06 10:37:25.52	188.41	20.90	-38.6	-40.5	17.6	0.00e+00	0	54	0	278921216	48	4555
2026-01-06 10:37:26.53	188.50	21.03	-38.6	-40.5	17.6	0.00e+00	0	54	0	279969792	48	4580
2026-01-06 10:37:27.54	188.60	21.16	-38.7	-40.7	17.5	0.00e+00	0	54	0	282066944	48	4654
2026-01-06 10:37:28.55	188.70	21.29	-38.7	-40.7	17.4	0.00e+00	0	54	0	284164096	48	4687
2026-01-06 10:37:29.56	188.79	21.42	-38.8	-40.8	17.3	0.00e+00	0	54	0	286261248	48	4747
2026-01-06 10:37:30.57	188.89	21.55	-38.9	-41.0	17.2	0.00e+00	0	55	0	288358400	48	4821
2026-01-06 10:37:31.58	188.99	21.68	-38.8	-40.8	17.3	0.00e+00	0	54	0	289406976	48	4755
2026-01-06 10:37:32.59	189.09	21.81	-38.9	-40.9	17.2	0.00e+00	0	54	0	291504128	48	4814
2026-01-06 10:37:33.60	189.19	21.94	-39.0	-41.1	17.0	0.00e+00	0	54	0	293601280	48	4897
2026-01-06 10:37:34.61	189.29	22.08	-39.0	-41.1	17.1	0.00e+00	0	54	0	295698432	48	4874
2026-01-06 10:37:35.62	189.40	22.21	-39.0	-41.0	17.1	0.00e+00	0	55	0	297795584	48	4842
2026-01-06 10:37:36.63	189.50	22.35	-39.0	-41.0	17.1	0.00e+00	0	54	0	298844160	48	4865
2026-01-06 10:37:37.64	189.60	22.48	-39.0	-41.1	17.1	0.00e+00	0	55	0	300941312	48	4877
2026-01-06 10:37:38.65	189.71	22.62	-39.0	-41.0	17.1	0.00e+00	0	55	0	303038464	48	4848
2026-01-06 10:37:39.66	189.81	22.76	-39.1	-41.2	17.0	0.00e+00	0	54	0	305135616	48	4957
2026-01-06 10:37:40.67	189.92	22.89	-39.1	-41.1	17.0	0.00e+00	0	54	0	307232768	48	4926
2026-01-06 10:37:41.67	190.03	23.03	-39.0	-41.1	17.1	0.00e+00	0	55	0	309329920	48	4897
2026-01-06 10:37:42.68	190.14	23.17	-39.1	-41.2	17.0	0.00e+00	0	55	0	310378496	48	4955
2026-01-06 10:37:43.69	190.25	23.31	-39.0	-41.0	17.1	0.00e+00	0	54	0	312475648	48	4863
2026-01-06 10:37:44.70	190.36	23.45	-39.1	-41.2	17.0	0.00e+00	0	55	0	314572800	48	4929
2026-01-06 10:37:45.71	190.47	23.59	-39.0	-41.0	17.2	0.00e+00	0	54	0	316669952	48	4841
2026-01-06 10:37:46.72	190.58	23.73	-39.0	-41.0	17.1	0.00e+00	0	55	0	318767104	48	4865
2026-01-06 10:37:47.73	190.69	23.87	-39.0	-41.1	17.1	0.00e+00	0	55	0	319815680	48	4878
2026-01-06 10:37:48.74	190.81	24.01	-38.8	-40.8	17.4	0.00e+00	0	55	0	321912832	48	4745
2026-01-06 10:37:49.75	190.92	24.16	-38.8	-40.8	17.4	0.00e+00	0	55	0	324009984	48	4734
2026-01-06 10:37:50.76	191.04	24.30	-38.8	-40.8	17.4	0.00e+00	0	55	0	326107136	48	4744
2026-01-06 10:37:51.77	191.16	24.45	-38.9	-40.9	17.3	0.00e+00	0	55	0	328204288	48	4772
2026-01-06 10:37:52.78	191.27	24.59	-38.8	-40.8	17.4	0.00e+00	0	55	0	329252864	48	4723
2026-01-06 10:37:53.79	191.39	24.74	-38.6	-40.6	17.6	0.00e+00	0	55	0	331350016	48	4611
2026-01-06 10:37:54.80	191.51	24.89	-38.7	-40.6	17.6	0.00e+00	0	55	0	333447168	48	4636
2026-01-06 10:37:55.81	191.64	25.03	-38.5	-40.3	17.8	0.00e+00	0	55	0	335544320	48	4482
2026-01-06 10:37:56.82	191.76	25.18	-38.5	-40.3	17.9	0.00e+00	0	55	0	337641472	48	4483
2026-01-06 10:37:57.83	191.88	25.33	-38.6	-40.5	17.7	0.00e+00	0	55	0	338690048	48	4547
2026-01-06 10:37:58.84	192.01	25.48	-38.5	-40.4	17.8	0.00e+00	0	55	0	340787200	48	4538
2026-01-06 10:37:59.85	192.13	25.63	-38.5	-40.4	17.9	0.00e+00	0	55	0	342884352	48	4496
2026-01-06 10:38:00.86	192.26	25.78	-38.4	-40.3	17.9	0.00e+00	0	55	0	344981504	48	4455
2026-01-06 10:38:01.87	192.39	25.93	-38.7	-40.6	17.6	0.00e+00	0	55	0	347078656	48	4633
2026-01-06 10:38:02.88	192.52	26.08	-38.5	-40.4	17.8	0.00e+00	0	55	0	348127232	48	4523
2026-01-06 10:38:03.89	192.65	26.24	-38.7	-40.6	17.6	0.00e+00	0	55	0	350224384	48	4621
2026-01-06 10:38:04.90	192.78	26.39	-38.8	-40.7	17.5	0.00e+00	0	55	0	352321536	48	4692
2026-01-06 10:38:05.91	192.92	26.55	-38.6	-40.4	17.8	0.00e+00	0	55	0	354418688	48	4541
2026-01-06 10:38:06.92	193.05	26.70	-38.6	-40.4	17.8	0.00e+00	0	55	0	356515840	48	4537
2026-01-06 10:38:07.93	193.19	26.86	-38.5	-40.3	17.9	0.00e+00	0	55	0	357564416	48	4482
2026-01-06 10:38:08.94	193.32	27.01	-38.7	-40.7	17.6	0.00e+00	0	55	0	359661568	48	4654
2026-01-06 10:38:09.95	193.46	27.17	-38.7	-40.7	17.6	0.00e+00	0	55	0	361758720	48	4654
2026-01-06 10:38:10.96	193.60	27.33	-38.8	-40.8	17.4	0.00e+00	0	55	0	363855872	48	4725
2026-01-06 10:38:11.97	193.74	27.49	-39.0	-41.0	17.2	0.00e+00	0	55	0	365953024	48	4848
2026-01-06 10:38:12.98	193.89	27.65	-39.1	-41.1	17.1	0.00e+00	0	55	0	367001600	48	4921
2026-01-06 10:38:13.99	194.03	27.81	-39.4	-41.5	16.7	0.00e+00	0	55	0	369098752	49	4863
2026-01-06 10:38:15.00	194.18	27.97	-39.2	-41.3	16.9	0.00e+00	0	55	0	371195904	49	4754
2026-01-06 10:38:16.01	194.32	28.13	-39.5	-41.7	16.5	0.00e+00	0	55	0	373293056	49	4972
2026-01-06 10:38:17.02	194.47	28.29	-39.5	-41.7	16.5	0.00e+00	0	55	0	375390208	49	4982
2026-01-06 10:38:18.03	194.62	28.46	-39.6	-41.8	16.5	0.00e+00	0	55	0	377487360	49	5005
2026-01-06 10:38:19.04	194.77	28.62	-39.5	-41.7	16.5	0.00e+00	0	55	0	378535936	49	4976
2026-01-06 10:38:20.05	194.93	28.79	-39.7	-42.0	16.3	0.00e+00	0	55	0	380633088	50	4828
2026-01-06 10:38:21.06	195.08	28.95	-39.9	-42.2	16.2	0.00e+00	0	55	0	382730240	50	4954
2026-01-06 10:38:22.07	195.24	29.12	-39.8	-42.0	16.3	0.00e+00	0	55	0	384827392	50	4861
2026-01-06 10:38:23.08	195.40	29.29	-40.1	-42.6	15.8	0.00e+00	0	55	0	386924544	50	5169
2026-01-06 10:38:24.09	195.55	29.45	-40.1	-42.6	15.7	0.00e+00	0	55	0	387973120	51	4889
2026-01-06 10:38:25.10	195.72	29.62	-40.3	-42.9	15.4	0.00e+00	0	55	0	390070272	51	5078
2026-01-06 10:38:26.11	195.88	29.79	-40.4	-43.0	15.3	0.00e+00	0	55	0	392167424	51	5137
2026-01-06 10:38:27.12	196.04	29.96	-40.7	-43.4	14.9	0.00e+00	0	55	0	394264576	51	5402
2026-01-06 10:38:28.13	196.21	30.13	-40.8	-43.6	14.6	7.00e-07	0	55	0	396361728	52	5199
2026-01-06 10:38:29.14	196.38	30.31	-40.9	-43.8	14.5	7.00e-07	0	55	0	397410304	52	5315
2026-01-06 10:38:30.15	196.54	30.48	-41.0	-44.0	14.2	2.20e-06	0	55	0	399507456	52	5461
2026-01-06 10:38:31.16	196.72	30.65	-41.1	-44.1	14.2	2.20e-06	0	55	0	401604608	53	5178
2026-01-06 10:38:32.17	196.89	30.83	-41.5	-44.8	13.5	1.22e-05	0	55	0	403701760	53	5640
2026-01-06 10:38:33.18	197.06	31.00	-41.4	-44.7	13.6	3.80e-06	0	55	0	405798912	53	5548
2026-01-06 10:38:34.19	197.24	31.18	-41.4	-44.6	13.5	7.60e-06	0	55	0	406847488	53	5502
2026-01-06 10:38:35.19	197.42	31.35	-41.6	-45.0	13.2	1.98e-05	0	55	0	408944640	53	5782
2026-01-06 10:38:36.20	197.60	31.53	-41.5	-44.8	13.5	9.90e-06	0	55	0	411041792	53	5617
2026-01-06 10:38:37.21	197.78	31.71	-41.7	-45.1	13.2	1.44e-05	0	55	0	413138944	53	5809
2026-01-06 10:38:38.22	197.96	31.89	-41.6	-45.0	13.3	2.21e-05	0	55	0	415236096	54	5403
2026-01-06 10:38:39.23	198.15	32.07	-41.6	-45.0	13.2	1.22e-05	0	55	0	416284672	54	5463
2026-01-06 10:38:40.24	198.34	32.25	-41.2	-44.3	13.9	9.90e-06	0	55	0	418381824	54	5036
2026-01-06 10:38:41.25	198.53	32.43	-41.2	-44.3	14.0	6.80e-06	0	55	0	420478976	54	5036
2026-01-06 10:38:42.26	198.72	32.61	-40.9	-43.8	14.5	7.00e-07	0	55	0	422576128	53	4995
2026-01-06 10:38:43.27	198.92	32.79	-41.0	-44.0	14.3	1.50e-06	0	55	0	424673280	53	5125
2026-01-06 10:38:44.28	199.11	32.97	-41.3	-44.4	14.0	7.00e-07	0	55	0	425721856	53	5365
2026-01-06 10:38:45.29	199.31	33.16	-41.1	-44.2	14.2	3.00e-06	0	55	0	427819008	53	5254
2026-01-06 10:38:46.30	199.51	33.34	-41.3	-44.4	13.8	8.30e-06	0	55	0	429916160	53	5402
2026-01-06 10:38:47.31	199.72	33.53	-41.1	-44.0	14.2	3.00e-06	0	55	0	432013312	53	5155
2026-01-06 10:38:48.32	199.92	33.72	-41.0	-43.9	14.3	0.00e+00	0	55	0	434110464	53	5077
2026-01-06 10:38:49.33	200.13	33.90	-40.7	-43.4	14.9	0.00e+00	0	55	0	435159040	53	4785
2026-01-06 10:38:50.34	200.34	34.09	-40.7	-43.4	15.0	0.00e+00	0	55	0	437256192	53	4775
2026-01-06 10:38:51.34	200.55	34.28	-40.6	-43.2	15.1	0.00e+00	0	55	0	439353344	52	4982
2026-01-06 10:38:52.35	200.77	34.47	-40.5	-43.1	15.2	0.00e+00	0	55	0	441450496	52	4877
2026-01-06 10:38:53.36	200.98	34.66	-40.8	-43.6	14.8	1.50e-06	0	55	0	443547648	52	5196
2026-01-06 10:38:54.37	201.21	34.85	-41.0	-44.0	14.3	7.00e-07	0	55	0	445644800	52	5416
2026-01-06 10:38:55.38	201.43	35.04	-41.1	-44.1	14.2	2.20e-06	0	55	0	446693376	53	5204
2026-01-06 10:38:56.39	201.65	35.23	-41.0	-43.9	14.4	0.00e+00	0	55	0	448790528	53	5079
2026-01-06 10:38:57.40	201.88	35.42	-41.0	-44.0	14.3	3.80e-06	0	55	0	450887680	53	5115
2026-01-06 10:38:58.41	202.11	35.62	-41.1	-44.1	14.2	1.50e-06	0	55	0	452984832	53	5195
2026-01-06 10:38:59.42	202.35	35.81	-40.9	-43.8	14.5	0.00e+00	0	55	0	455081984	53	4999
2026-01-06 10:39:00.43	202.58	36.00	-40.8	-43.6	14.7	0.00e+00	0	55	0	456130560	53	4923
2026-01-06 10:39:01.44	202.82	36.20	-40.7	-43.5	14.8	0.00e+00	0	55	0	458227712	53	4824
2026-01-06 10:39:02.45	203.06	36.40	-40.6	-43.2	15.1	7.00e-07	0	55	0	460324864	52	4969
2026-01-06 10:39:03.46	203.31	36.59	-40.5	-43.1	15.2	0.00e+00	0	55	0	462422016	52	4917
2026-01-06 10:39:04.47	203.55	36.79	-40.3	-42.8	15.6	0.00e+00	0	55	0	464519168	52	4736
2026-01-06 10:39:05.48	203.80	36.99	-40.4	-43.0	15.4	0.00e+00	0	55	0	465567744	52	4825
2026-01-06 10:39:06.49	204.06	37.19	-40.5	-43.1	15.5	0.00e+00	0	55	0	467664896	52	4882
2026-01-06 10:39:07.50	204.31	37.38	-40.9	-43.7	14.7	0.00e+00	0	55	0	469762048	52	5256
2026-01-06 10:39:08.51	204.57	37.58	-41.1	-44.1	14.4	0.00e+00	0	55	0	471859200	52	5471
2026-01-06 10:39:09.52	204.84	37.78	-41.2	-44.3	14.0	1.50e-06	0	55	0	473956352	53	5309
2026-01-06 10:39:10.53	205.10	37.98	-41.3	-44.5	13.9	7.00e-07	0	55	0	475004928	53	5411
2026-01-06 10:39:11.54	205.37	38.19	-41.2	-44.3	14.1	1.50e-06	0	55	0	477102080	53	5312
2026-01-06 10:39:12.55	205.64	38.39	-41.0	-44.0	14.4	2.20e-06	0	55	0	479199232	53	5103
2026-01-06 10:39:13.56	205.92	38.59	-40.8	-43.6	14.7	1.50e-06	0	55	0	481296384	53	4890
2026-01-06 10:39:14.57	206.20	38.79	-40.7	-43.5	14.9	0.00e+00	0	55	0	483393536	53	4830
2026-01-06 10:39:15.58	206.48	39.00	-40.6	-43.4	15.0	0.00e+00	0	55	0	484442112	53	4771
2026-01-06 10:39:16.59	206.77	39.20	-40.6	-43.2	15.1	0.00e+00	0	55	0	486539264	53	4704
2026-01-06 10:39:17.60	207.06	39.40	-40.3	-42.9	15.4	0.00e+00	0	55	0	488636416	52	4790
2026-01-06 10:39:18.61	207.35	39.61	-40.0	-42.4	15.9	0.00e+00	0	55	0	490733568	52	4499
2026-01-06 10:39:19.62	207.65	39.81	-39.8	-42.0	16.4	0.00e+00	0	55	0	492830720	51	4563
2026-01-06 10:39:20.63	207.95	40.02	-39.7	-41.9	16.5	0.00e+00	0	55	0	493879296	51	4498
2026-01-06 10:39:21.64	208.25	40.22	-39.9	-42.2	16.3	0.00e+00	0	55	0	495976448	51	4653
2026-01-06 10:39:22.65	208.56	40.43	-40.2	-42.6	15.8	0.00e+00	0	55	0	498073600	51	4920
2026-01-06 10:39:23.66	208.87	40.63	-40.6	-43.4	15.0	0.00e+00	0	55	0	500170752	52	5054
2026-01-06 10:39:24.67	209.19	40.84	-40.7	-43.5	14.9	7.00e-07	0	55	0	502267904	52	5146
2026-01-06 10:39:25.68	209.51	41.04	-40.6	-43.3	15.0	0.00e+00	0	55	0	503316480	52	5026
2026-01-06 10:39:26.69	209.83	41.25	-40.2	-42.7	15.6	0.00e+00	0	55	0	505413632	52	4699
2026-01-06 10:39:27.70	210.16	41.46	-40.2	-42.7	15.7	0.00e+00	0	55	0	507510784	52	4678
2026-01-06 10:39:28.71	210.49	41.66	-40.1	-42.5	16.0	0.00e+00	0	55	0	509607936	51	4831
2026-01-06 10:39:29.72	210.83	41.87	-40.4	-42.9	15.6	0.00e+00	0	55	0	511705088	51	5057
2026-01-06 10:39:30.73	211.17	42.08	-40.7	-43.4	15.0	0.00e+00	0	55	0	513802240	52	5049
2026-01-06 10:39:31.74	211.52	42.29	-40.9	-43.7	14.7	0.00e+00	0	55	0	514850816	52	5230
2026-01-06 10:39:32.75	211.86	42.49	-41.1	-44.0	14.4	7.00e-07	0	55	0	516947968	52	5435
2026-01-06 10:39:33.76	212.22	42.70	-41.3	-44.4	14.0	7.00e-07	0	55	0	519045120	53	5371
2026-01-06 10:39:34.77	212.58	42.91	-41.2	-44.2	14.2	1.50e-06	0	55	0	521142272	53	5259
2026-01-06 10:39:35.78	212.94	43.11	-41.5	-44.8	13.5	2.20e-06	0	55	0	523239424	53	5621
2026-01-06 10:39:36.79	213.31	43.32	-41.5	-44.7	13.7	3.00e-06	0	55	0	524288000	53	5584
2026-01-06 10:39:37.80	213.68	43.53	-41.5	-44.8	13.6	9.10e-06	0	56	0	526385152	54	5292
2026-01-06 10:39:38.81	214.06	43.73	-41.7	-45.1	13.3	9.10e-06	0	55	0	528482304	54	5498
2026-01-06 10:39:39.82	214.44	43.94	-42.0	-45.6	12.8	2.44e-05	0	55	0	530579456	54	5836
2026-01-06 10:39:40.83	214.83	44.14	-42.0	-45.6	12.7	1.11e-04	0	55	0	532676608	54	5829
2026-01-06 10:39:41.84	215.22	44.35	-41.9	-45.5	12.9	4.65e-05	0	55	0	533725184	54	5733
2026-01-06 10:39:42.85	215.62	44.55	-41.3	-44.4	13.9	1.06e-05	0	56	0	535822336	54	5071
2026-01-06 10:39:43.86	216.02	44.76	-41.5	-44.7	13.7	7.00e-07	0	55	0	537919488	54	5223
2026-01-06 10:39:44.87	216.42	44.96	-41.5	-44.7	13.7	4.50e-06	0	55	0	540016640	54	5233
2026-01-06 10:39:45.88	216.84	45.17	-41.9	-45.5	12.9	1.83e-05	0	55	0	542113792	54	5759
2026-01-06 10:39:46.89	217.25	45.37	-42.3	-46.2	12.1	8.08e-05	0	55	0	543162368	55	5915
2026-01-06 10:39:47.90	217.68	45.57	-42.5	-46.7	11.6	6.60e-04	0	55	0	545259520	55	6268
2026-01-06 10:39:48.91	218.11	45.77	-42.4	-46.4	12.0	9.67e-04	0	55	0	547356672	55	6012
2026-01-06 10:39:49.92	218.54	45.97	-42.2	-46.0	12.3	2.30e-04	0	55	0	549453824	55	5748
2026-01-06 10:39:50.93	218.98	46.17	-41.9	-45.3	13.0	3.96e-05	0	56	0	551550976	55	5333
2026-01-06 10:39:51.94	219.42	46.37	-42.0	-45.5	12.9	7.17e-05	0	55	0	552599552	55	5433
2026-01-06 10:39:52.95	219.87	46.57	-42.2	-46.1	12.2	1.42e-04	0	55	0	554696704	55	5836
2026-01-06 10:39:53.96	220.33	46.77	-42.3	-46.3	12.1	2.01e-04	0	55	0	556793856	55	5941
2026-01-06 10:39:54.97	220.79	46.96	-42.3	-46.3	12.2	6.79e-04	0	56	0	558891008	55	5926
2026-01-06 10:39:55.98	221.26	47.16	-42.5	-46.6	11.8	5.26e-04	0	55	0	560988160	55	6151
2026-01-06 10:39:56.99	221.73	47.35	-42.1	-45.9	12.5	1.23e-04	0	56	0	562036736	55	5661
2026-01-06 10:39:57.99	222.20	47.54	-41.2	-44.2	14.2	1.60e-05	0	55	0	564133888	54	4944
2026-01-06 10:39:59.00	222.69	47.73	-41.1	-44.1	14.5	7.00e-07	0	56	0	566231040	54	4874
2026-01-06 10:40:00.01	223.18	47.92	-41.1	-44.0	14.5	1.50e-06	0	55	0	568328192	54	4849
2026-01-06 10:40:01.02	223.68	48.11	-41.3	-44.4	14.0	5.30e-06	0	56	0	570425344	54	5058
2026-01-06 10:40:02.03	224.18	48.30	-41.2	-44.1	14.2	5.30e-06	0	55	0	571473920	54	4913
2026-01-06 10:40:03.04	224.69	48.48	-40.8	-43.6	14.8	0.00e+00	0	56	0	573571072	53	4907
2026-01-06 10:40:04.05	225.20	48.67	-40.9	-43.8	14.7	0.00e+00	0	55	0	575668224	53	4996
2026-01-06 10:40:05.06	225.72	48.85	-40.9	-43.8	14.7	0.00e+00	0	55	0	577765376	53	4988
2026-01-06 10:40:06.06	226.25	49.03	-40.9	-43.7	14.7	0.00e+00	0	55	0	579862528	53	4970
2026-01-06 10:40:07.08	226.78	49.21	-41.0	-43.9	14.5	1.50e-06	0	55	0	581959680	53	5051
2026-01-06 10:40:08.08	227.32	49.38	-41.3	-44.4	13.9	0.00e+00	0	56	0	583008256	53	5395
2026-01-06 10:40:09.09	227.86	49.56	-41.1	-44.1	14.3	7.00e-07	0	56	0	585105408	53	5193
2026-01-06 10:40:10.10	228.41	49.73	-40.6	-43.3	15.1	0.00e+00	0	56	0	587202560	53	4740
2026-01-06 10:40:11.11	228.97	49.90	-40.0	-42.4	16.0	0.00e+00	0	55	0	589299712	52	4507
2026-01-06 10:40:12.12	229.54	50.07	-40.1	-42.4	16.1	0.00e+00	0	55	0	591396864	51	4777
2026-01-06 10:40:13.13	230.11	50.24	-40.4	-42.9	15.7	0.00e+00	0	55	0	592445440	51	5083
2026-01-06 10:40:14.14	230.68	50.40	-40.7	-43.3	15.2	0.00e+00	0	56	0	594542592	51	5320
2026-01-06 10:40:15.15	231.26	50.56	-40.1	-42.5	15.9	0.00e+00	0	55	0	596639744	51	4855
2026-01-06 10:40:16.16	231.85	50.72	-39.6	-41.8	16.7	0.00e+00	0	56	0	598736896	51	4446
2026-01-06 10:40:17.17	232.45	50.88	-39.4	-41.5	16.9	0.00e+00	0	56	0	600834048	50	4588
2026-01-06 10:40:18.18	233.05	51.03	-39.5	-41.6	16.8	0.00e+00	0	56	0	601882624	50	4633
2026-01-06 10:40:19.19	233.65	51.18	-39.3	-41.3	17.1	0.00e+00	0	55	0	603979776	50	4468
2026-01-06 10:40:20.20	234.27	51.33	-39.6	-41.8	16.7	0.00e+00	0	55	0	606076928	50	4742
2026-01-06 10:40:21.21	234.89	51.47	-39.7	-41.9	16.6	0.00e+00	0	56	0	608174080	50	4774
2026-01-06 10:40:22.22	235.51	51.61	-40.0	-42.3	16.1	0.00e+00	0	55	0	610271232	50	5029
2026-01-06 10:40:23.23	236.14	51.75	-39.5	-41.6	16.9	0.00e+00	0	56	0	611319808	50	4626
2026-01-06 10:40:24.24	236.78	51.89	-39.3	-41.3	17.2	0.00e+00	0	56	0	613416960	50	4470
2026-01-06 10:40:25.25	237.42	52.02	-39.7	-42.0	16.5	0.00e+00	0	56	0	615514112	50	4819
2026-01-06 10:40:26.26	238.07	52.15	-39.6	-41.8	16.6	0.00e+00	0	56	0	617611264	50	4709
2026-01-06 10:40:27.27	238.72	52.27	-39.0	-40.9	17.5	0.00e+00	0	56	0	619708416	50	4271
2026-01-06 10:40:28.28	239.38	52.39	-38.6	-40.5	17.9	0.00e+00	0	56	0	620756992	49	4298
2026-01-06 10:40:29.29	240.04	52.51	-39.2	-41.2	17.1	0.00e+00	0	56	0	622854144	49	4702
2026-01-06 10:40:30.30	240.71	52.63	-40.1	-42.5	16.0	0.00e+00	0	55	0	624951296	50	5134
2026-01-06 10:40:31.31	241.38	52.74	-40.2	-42.6	15.9	0.00e+00	0	55	0	627048448	50	5200
2026-01-06 10:40:32.32	242.06	52.84	-40.0	-42.3	16.1	0.00e+00	0	56	0	629145600	51	4752
2026-01-06 10:40:33.33	242.75	52.95	-39.9	-42.2	16.3	0.00e+00	0	55	0	630194176	51	4652
2026-01-06 10:40:34.34	243.43	53.05	-39.6	-41.8	16.7	0.00e+00	0	55	0	632291328	50	4735
2026-01-06 10:40:35.35	244.13	53.14	-38.6	-40.4	18.0	0.00e+00	0	55	0	634388480	49	4271
2026-01-06 10:40:36.36	244.83	53.23	-39.1	-41.1	17.3	0.00e+00	0	55	0	636485632	49	4630
2026-01-06 10:40:37.37	245.53	53.32	-40.3	-42.7	15.8	0.00e+00	0	56	0	638582784	51	4951
2026-01-06 10:40:38.38	246.23	53.40	-40.7	-43.4	15.1	0.00e+00	0	55	0	639631360	52	5043
2026-01-06 10:40:39.39	246.94	53.48	-40.5	-43.2	15.3	0.00e+00	0	55	0	641728512	52	4932
2026-01-06 10:40:40.40	247.66	53.55	-40.8	-43.6	14.9	0.00e+00	0	56	0	643825664	52	5178
2026-01-06 10:40:41.41	248.37	53.62	-41.1	-44.1	14.4	0.00e+00	0	56	0	645922816	52	5482
2026-01-06 10:40:42.42	249.09	53.69	-41.0	-43.8	14.5	0.00e+00	0	56	0	648019968	53	5032
2026-01-06 10:40:43.43	249.82	53.75	-40.1	-42.6	15.8	0.00e+00	0	56	0	650117120	52	4612
2026-01-06 10:40:44.44	250.54	53.81	-40.2	-42.7	15.6	0.00e+00	0	56	0	651165696	52	4667
2026-01-06 10:40:45.45	251.27	53.86	-40.7	-43.4	15.0	0.00e+00	0	56	0	653262848	52	5069
2026-01-06 10:40:46.46	252.00	53.91	-41.3	-44.4	14.0	7.00e-07	0	55	0	655360000	53	5391
2026-01-06 10:40:47.47	252.73	53.95	-41.0	-43.9	14.4	7.00e-07	0	55	0	657457152	53	5088
2026-01-06 10:40:48.47	253.46	53.99	-40.4	-43.0	15.5	0.00e+00	0	56	0	659554304	52	4845
2026-01-06 10:40:49.48	254.20	54.02	-40.1	-42.4	16.1	0.00e+00	0	56	0	660602880	51	4809
2026-01-06 10:40:50.49	254.94	54.05	-40.5	-43.1	15.4	0.00e+00	0	56	0	662700032	51	5174
2026-01-06 10:40:51.50	255.68	54.07	-40.7	-43.4	15.0	0.00e+00	0	55	0	664797184	52	5076
2026-01-06 10:40:52.51	256.42	54.09	-40.7	-43.3	15.1	0.00e+00	0	56	0	666894336	52	5041
2026-01-06 10:40:53.52	257.16	54.11	-41.0	-43.9	14.5	2.20e-06	0	56	0	668991488	52	5399
2026-01-06 10:40:54.53	257.91	54.12	-41.4	-44.6	13.7	1.50e-06	0	55	0	670040064	53	5522
2026-01-06 10:40:55.54	258.65	54.12	-41.4	-44.7	13.9	5.30e-06	0	56	0	672137216	53	5551
2026-01-06 10:40:56.55	259.39	54.12	-41.0	-43.9	14.5	7.00e-07	0	56	0	674234368	53	5085
2026-01-06 10:40:57.56	260.13	54.12	-40.8	-43.6	14.9	0.00e+00	0	56	0	676331520	53	4917
2026-01-06 10:40:58.57	260.88	54.11	-40.8	-43.6	14.8	7.00e-07	0	55	0	678428672	53	4923
2026-01-06 10:40:59.58	261.62	54.10	-40.6	-43.3	15.1	7.00e-07	0	56	0	679477248	53	4742
2026-01-06 10:41:00.59	262.36	54.08	-40.2	-42.6	15.9	0.00e+00	0	56	0	681574400	52	4619
2026-01-06 10:41:01.60	263.10	54.05	-40.0	-42.3	16.3	0.00e+00	0	56	0	683671552	51	4709
2026-01-06 10:41:02.61	263.84	54.03	-39.9	-42.2	16.3	0.00e+00	0	55	0	685768704	51	4692
2026-01-06 10:41:03.62	264.58	53.99	-40.3	-42.8	15.8	0.00e+00	0	56	0	687865856	51	4985
2026-01-06 10:41:04.63	265.31	53.96	-40.6	-43.1	15.4	0.00e+00	0	56	0	688914432	51	5208
2026-01-06 10:41:05.64	266.05	53.91	-40.3	-42.8	15.7	0.00e+00	0	56	0	691011584	51	4985
2026-01-06 10:41:06.65	266.78	53.87	-40.5	-43.1	15.5	0.00e+00	0	55	0	693108736	51	5195
2026-01-06 10:41:07.66	267.51	53.82	-40.6	-43.3	15.2	0.00e+00	0	56	0	695205888	52	5017
2026-01-06 10:41:08.67	268.23	53.76	-40.2	-42.7	15.7	0.00e+00	0	56	0	697303040	52	4667
2026-01-06 10:41:09.68	268.96	53.70	-39.2	-41.2	17.2	0.00e+00	0	56	0	698351616	50	4431
2026-01-06 10:41:10.69	269.67	53.64	-38.9	-40.8	17.6	0.00e+00	0	56	0	700448768	49	4456
2026-01-06 10:41:11.70	270.39	53.57	-39.4	-41.5	16.9	0.00e+00	0	56	0	702545920	49	4858
2026-01-06 10:41:12.71	271.10	53.49	-39.5	-41.7	16.8	0.00e+00	0	56	0	704643072	49	4931
2026-01-06 10:41:13.72	271.81	53.42	-39.6	-41.8	16.7	0.00e+00	0	56	0	706740224	50	4739
2026-01-06 10:41:14.73	272.52	53.33	-39.5	-41.7	16.8	0.00e+00	0	56	0	707788800	50	4676
2026-01-06 10:41:15.74	273.22	53.25	-39.3	-41.3	17.1	0.00e+00	0	56	0	709885952	50	4484
2026-01-06 10:41:16.75	273.92	53.16	-39.1	-41.1	17.4	0.00e+00	0	56	0	711983104	49	4616
2026-01-06 10:41:17.77	274.62	53.06	-39.8	-42.0	16.5	0.00e+00	0	56	0	714080256	50	4848
2026-01-06 10:41:18.78	275.31	52.96	-40.3	-42.8	15.7	0.00e+00	0	56	0	716177408	51	5009
2026-01-06 10:41:19.79	275.99	52.86	-40.1	-42.5	16.0	0.00e+00	0	56	0	718274560	51	4860
2026-01-06 10:41:20.79	276.66	52.76	-40.3	-42.8	15.8	0.00e+00	0	56	0	719323136	51	5007
2026-01-06 10:41:21.81	277.34	52.64	-40.9	-43.7	14.7	0.00e+00	0	56	0	721420288	52	5245
2026-01-06 10:41:22.81	278.00	52.53	-40.8	-43.7	14.8	0.00e+00	0	56	0	723517440	52	5240
2026-01-06 10:41:23.82	278.67	52.41	-40.1	-42.5	15.9	0.00e+00	0	55	0	725614592	52	4570
2026-01-06 10:41:24.83	279.33	52.29	-40.1	-42.5	16.1	0.00e+00	0	56	0	727711744	51	4854
2026-01-06 10:41:25.85	279.99	52.17	-40.5	-43.2	15.2	0.00e+00	0	56	0	728760320	52	4935
2026-01-06 10:41:26.85	280.63	52.04	-40.5	-43.2	15.3	0.00e+00	0	56	0	730857472	52	4930
2026-01-06 10:41:27.86	281.27	51.91	-40.4	-43.0	15.4	0.00e+00	0	56	0	732954624	52	4849
2026-01-06 10:41:28.88	281.91	51.77	-40.0	-42.4	16.1	0.00e+00	0	55	0	735051776	51	4778
2026-01-06 10:41:29.89	282.54	51.64	-39.5	-41.6	16.8	0.00e+00	0	56	0	737148928	51	4355
2026-01-06 10:41:30.89	283.16	51.50	-38.8	-40.6	17.8	0.00e+00	0	56	0	738197504	49	4385
2026-01-06 10:41:31.91	283.78	51.35	-39.0	-40.9	17.5	0.00e+00	0	56	0	740294656	49	4529
2026-01-06 10:41:32.92	284.40	51.21	-39.6	-41.8	16.8	0.00e+00	0	56	0	742391808	49	5020
2026-01-06 10:41:33.93	285.00	51.06	-40.2	-42.6	16.0	0.00e+00	0	56	0	744488960	50	5193
2026-01-06 10:41:34.94	285.60	50.90	-40.2	-42.7	15.8	0.00e+00	0	56	0	746586112	51	4956
2026-01-06 10:41:35.95	286.20	50.75	-39.9	-42.2	16.3	0.00e+00	0	56	0	747634688	51	4703
2026-01-06 10:41:36.96	286.78	50.59	-39.7	-41.9	16.5	0.00e+00	0	56	0	749731840	51	4528
2026-01-06 10:41:37.97	287.37	50.43	-39.6	-41.8	16.6	0.00e+00	0	56	0	751828992	50	4716
2026-01-06 10:41:38.98	287.94	50.27	-39.2	-41.2	17.2	0.00e+00	0	56	0	753926144	50	4426
2026-01-06 10:41:39.99	288.51	50.10	-39.2	-41.2	17.2	0.00e+00	0	56	0	756023296	50	4418
2026-01-06 10:41:41.00	289.08	49.94	-39.3	-41.4	17.1	0.00e+00	0	56	0	757071872	50	4504
2026-01-06 10:41:42.01	289.63	49.77	-39.5	-41.7	16.8	0.00e+00	0	56	0	759169024	50	4671
2026-01-06 10:41:43.02	290.19	49.60	-39.6	-41.7	16.7	0.00e+00	0	56	0	761266176	50	4704
2026-01-06 10:41:44.03	290.73	49.42	-40.2	-42.6	15.8	0.00e+00	0	56	0	763363328	51	4920
2026-01-06 10:41:45.04	291.27	49.25	-40.2	-42.5	16.0	0.00e+00	0	56	0	765460480	51	4862
2026-01-06 10:41:46.05	291.80	49.07	-39.7	-41.9	16.6	0.00e+00	0	56	0	766509056	51	4510
2026-01-06 10:41:47.06	292.33	48.89	-39.3	-41.4	17.1	0.00e+00	0	56	0	768606208	50	4506
2026-01-06 10:41:48.07	292.85	48.71	-39.2	-41.2	17.2	0.00e+00	0	56	0	770703360	49	4691
2026-01-06 10:41:49.08	293.36	48.53	-40.5	-43.1	15.5	0.00e+00	0	56	0	772800512	51	5162
2026-01-06 10:41:50.09	293.87	48.34	-41.3	-44.5	14.0	0.00e+00	0	56	0	774897664	53	5418
2026-01-06 10:41:51.09	294.37	48.16	-41.5	-44.7	13.6	6.10e-06	0	56	0	775946240	53	5562
2026-01-06 10:41:52.10	294.87	47.97	-41.5	-44.7	13.7	7.60e-06	0	56	0	778043392	53	5590
2026-01-06 10:41:53.11	295.36	47.78	-41.3	-44.4	14.1	3.00e-06	0	56	0	780140544	53	5342
2026-01-06 10:41:54.12	295.84	47.59	-41.6	-44.8	13.6	3.00e-06	0	56	0	782237696	53	5647
2026-01-06 10:41:55.13	296.32	47.40	-41.7	-45.1	13.4	5.30e-06	0	56	0	784334848	54	5493
2026-01-06 10:41:56.14	296.79	47.21	-42.3	-46.1	12.3	4.57e-05	0	56	0	785383424	55	5792
2026-01-06 10:41:57.15	297.26	47.01	-43.0	-47.6	10.9	1.19e-03	0	56	0	787480576	56	6536
2026-01-06 10:41:58.16	297.72	46.82	-43.3	-48.4	10.3	7.66e-03	0	56	0	789577728	57	6766
2026-01-06 10:41:59.17	298.18	46.62	-42.9	-47.3	11.2	5.66e-03	0	56	0	791674880	57	5964
2026-01-06 10:42:00.18	298.63	46.42	-42.4	-46.2	12.5	3.47e-04	0	56	0	793772032	56	5541
2026-01-06 10:42:01.19	299.07	46.22	-42.4	-46.3	12.4	1.16e-04	0	56	0	795869184	56	5608
2026-01-06 10:42:02.20	299.51	46.03	-42.8	-47.1	11.5	6.58e-04	0	56	0	796917760	56	6196
2026-01-06 10:42:03.21	299.94	45.83	-42.5	-46.5	12.0	8.29e-04	0	56	0	799014912	56	5747
2026-01-06 10:42:04.22	300.37	45.63	-42.5	-46.4	12.1	2.10e-04	0	56	0	801112064	56	5700
2026-01-06 10:42:05.23	300.80	45.42	-42.8	-47.2	11.3	4.55e-04	0	56	0	803209216	56	6204
2026-01-06 10:42:06.24	301.21	45.22	-43.5	-49.0	9.3	2.58e-03	0	56	0	805306368	57	7275
2026-01-06 10:42:07.25	301.63	45.02	-43.7	-49.3	9.1	2.46e-02	0	56	0	806354944	58	7108
2026-01-06 10:42:08.26	302.03	44.82	-43.8	-49.7	8.7	2.98e-02	0	56	0	808452096	58	7392
2026-01-06 10:42:09.26	302.43	44.62	-43.8	-49.6	8.8	2.35e-02	0	56	0	810549248	58	7367
2026-01-06 10:42:10.28	302.83	44.41	-43.6	-49.3	9.2	1.85e-02	0	56	0	812646400	58	7048
2026-01-06 10:42:11.28	303.22	44.21	-43.3	-48.3	10.2	9.01e-03	0	56	0	814743552	58	6332
2026-01-06 10:42:12.30	303.61	44.00	-43.5	-48.7	9.7	1.30e-02	0	56	0	815792128	58	6599
2026-01-06 10:42:13.31	303.99	43.80	-43.4	-48.5	10.0	5.26e-03	0	56	0	817889280	58	6468
2026-01-06 10:42:14.32	304.37	43.59	-43.2	-48.1	10.3	6.63e-03	0	56	0	819986432	58	6156
2026-01-06 10:42:15.32	304.74	43.39	-43.0	-47.6	10.8	3.23e-03	0	56	0	822083584	58	5811
2026-01-06 10:42:16.33	305.11	43.18	-43.1	-47.9	10.4	4.37e-03	0	56	0	824180736	57	6377
2026-01-06 10:42:17.34	305.47	42.98	-42.6	-46.7	11.8	8.41e-04	0	56	0	825229312	57	5533
2026-01-06 10:42:18.35	305.83	42.77	-42.7	-46.8	11.7	2.94e-04	0	56	0	827326464	56	5989
2026-01-06 10:42:19.36	306.18	42.57	-43.0	-47.7	10.8	1.53e-03	0	56	0	829423616	56	6595
2026-01-06 10:42:20.37	306.53	42.36	-43.4	-48.8	9.7	1.25e-02	0	56	0	831520768	57	7082
2026-01-06 10:42:21.38	306.88	42.15	-42.8	-47.2	11.3	5.65e-03	0	56	0	833617920	57	5889
2026-01-06 10:42:22.39	307.22	41.95	-42.2	-45.9	12.6	3.39e-04	0	56	0	834666496	56	5402
2026-01-06 10:42:23.40	307.55	41.74	-41.8	-45.3	13.1	2.59e-05	0	56	0	836763648	55	5319
2026-01-06 10:42:24.41	307.89	41.54	-41.9	-45.4	12.9	4.50e-05	0	56	0	838860800	55	5363
2026-01-06 10:42:25.41	308.21	41.33	-42.3	-46.3	12.0	1.57e-04	0	56	0	840957952	55	5967
2026-01-06 10:42:26.43	308.54	41.13	-42.7	-47.1	11.3	6.32e-04	0	56	0	843055104	55	6518
2026-01-06 10:42:27.44	308.86	40.92	-42.5	-46.5	12.1	9.76e-04	0	56	0	844103680	56	5755
2026-01-06 10:42:28.45	309.17	40.72	-41.1	-44.0	14.3	2.97e-05	0	56	0	846200832	54	4840
2026-01-06 10:42:29.46	309.49	40.51	-40.1	-42.5	15.9	0.00e+00	0	56	0	848297984	52	4561
2026-01-06 10:42:30.47	309.79	40.31	-39.5	-41.6	16.9	0.00e+00	0	56	0	850395136	50	4606
2026-01-06 10:42:31.48	310.10	40.10	-40.0	-42.2	16.3	0.00e+00	0	56	0	852492288	50	4980
2026-01-06 10:42:32.49	310.40	39.90	-41.2	-44.3	14.1	0.00e+00	0	56	0	853540864	53	5305
2026-01-06 10:42:33.50	310.70	39.69	-42.5	-46.8	11.5	2.58e-04	0	56	0	855638016	55	6321
2026-01-06 10:42:34.51	310.99	39.49	-42.8	-47.2	11.3	1.56e-03	0	56	0	857735168	56	6207
2026-01-06 10:42:35.52	311.28	39.29	-41.5	-44.8	13.5	2.57e-04	0	56	0	859832320	55	5018
2026-01-06 10:42:36.53	311.57	39.09	-40.6	-43.3	15.0	7.00e-07	0	56	0	861929472	53	4724
2026-01-06 10:42:37.54	311.85	38.88	-40.3	-42.8	15.5	0.00e+00	0	56	0	864026624	52	4759
2026-01-06 10:42:38.55	312.13	38.68	-41.1	-44.0	14.5	0.00e+00	0	56	0	865075200	52	5436
2026-01-06 10:42:39.56	312.40	38.48	-42.4	-46.6	11.8	1.19e-04	0	56	0	867172352	55	6186
2026-01-06 10:42:40.57	312.68	38.28	-43.7	-50.0	8.5	1.59e-02	0	56	0	869269504	58	7676
2026-01-06 10:42:41.58	312.95	38.08	-43.7	-49.7	8.7	6.07e-02	0	56	0	871366656	58	7380
2026-01-06 10:42:42.59	313.21	37.88	-42.6	-46.8	11.5	3.11e-03	0	56	0	873463808	57	5655
2026-01-06 10:42:43.60	313.47	37.68	-41.3	-44.3	14.1	2.67e-05	0	56	0	874512384	54	5022
2026-01-06 10:42:44.61	313.73	37.48	-40.4	-43.0	15.4	0.00e+00	0	56	0	876609536	52	4825
2026-01-06 10:42:45.62	313.99	37.29	-40.3	-42.8	15.6	0.00e+00	0	56	0	878706688	52	4746
2026-01-06 10:42:46.63	314.24	37.09	-40.7	-43.4	14.9	0.00e+00	0	56	0	880803840	52	5093
2026-01-06 10:42:47.64	314.50	36.89	-41.7	-45.2	13.2	5.30e-06	0	56	0	882900992	53	5886
2026-01-06 10:42:48.65	314.74	36.70	-43.1	-47.9	10.5	2.22e-04	0	56	0	883949568	56	6794
2026-01-06 10:42:49.66	314.99	36.50	-43.5	-49.1	9.2	1.34e-02	0	56	0	886046720	57	7290
2026-01-06 10:42:50.67	315.23	36.30	-42.7	-47.1	11.3	7.33e-03	0	56	0	888143872	57	5832
2026-01-06 10:42:51.68	315.47	36.11	-41.3	-44.5	13.8	2.05e-04	0	56	0	890241024	54	5113
2026-01-06 10:42:52.69	315.70	35.92	-40.0	-42.4	15.9	0.00e+00	0	56	0	892338176	52	4502
2026-01-06 10:42:53.69	315.94	35.73	-39.2	-41.3	17.1	0.00e+00	0	56	0	893386752	50	4449
2026-01-06 10:42:54.71	316.17	35.53	-39.4	-41.5	16.9	0.00e+00	0	56	0	895483904	50	4595
2026-01-06 10:42:55.72	316.40	35.34	-40.2	-42.6	15.8	0.00e+00	0	56	0	897581056	50	5215
2026-01-06 10:42:56.73	316.62	35.15	-41.2	-44.3	14.1	7.00e-07	0	56	0	899678208	52	5644
2026-01-06 10:42:57.73	316.84	34.96	-42.5	-46.7	11.7	6.79e-05	0	56	0	901775360	55	6252
2026-01-06 10:42:58.75	317.07	34.77	-43.1	-48.0	10.4	2.72e-03	0	56	0	902823936	56	6846
2026-01-06 10:42:59.76	317.28	34.58	-42.8	-47.3	11.1	2.22e-03	0	56	0	904921088	57	5968
2026-01-06 10:43:00.77	317.50	34.39	-42.4	-46.4	12.1	5.77e-04	0	56	0	907018240	56	5690
2026-01-06 10:43:01.78	317.71	34.20	-42.2	-45.9	12.5	1.27e-04	0	56	0	909115392	56	5366
2026-01-06 10:43:02.79	317.92	34.02	-42.0	-45.5	12.9	1.09e-04	0	56	0	911212544	56	5139
2026-01-06 10:43:03.80	318.13	33.83	-41.7	-45.1	13.4	6.56e-05	0	56	0	912261120	55	5167
2026-01-06 10:43:04.81	318.34	33.64	-42.1	-45.9	12.4	3.12e-05	0	56	0	914358272	55	5677
2026-01-06 10:43:05.81	318.54	33.46	-42.2	-46.1	12.1	2.07e-04	0	56	0	916455424	55	5829
2026-01-06 10:43:06.82	318.74	33.28	-42.2	-46.1	12.1	4.58e-04	0	56	0	918552576	55	5845
2026-01-06 10:43:07.83	318.94	33.09	-42.5	-46.7	11.5	2.53e-04	0	56	0	920649728	55	6253
2026-01-06 10:43:08.84	319.14	32.91	-42.7	-47.1	11.3	1.12e-03	0	56	0	921698304	55	6557
2026-01-06 10:43:09.85	319.33	32.73	-42.5	-46.8	11.6	9.87e-04	0	56	0	923795456	55	6279
2026-01-06 10:43:10.86	319.53	32.55	-42.3	-46.3	12.0	5.74e-04	0	56	0	925892608	55	5943
2026-01-06 10:43:11.87	319.72	32.37	-41.7	-45.1	13.1	7.09e-05	0	56	0	927989760	55	5194
2026-01-06 10:43:12.88	319.90	32.19	-41.1	-44.1	14.1	4.50e-06	0	56	0	930086912	54	4924
2026-01-06 10:43:13.89	320.09	32.01	-40.9	-43.8	14.5	2.20e-06	0	56	0	932184064	53	5004
2026-01-06 10:43:14.90	320.28	31.83	-40.8	-43.5	14.7	7.00e-07	0	56	0	933232640	53	4869
2026-01-06 10:43:15.91	320.46	31.66	-40.9	-43.8	14.5	0.00e+00	0	56	0	935329792	53	5003
2026-01-06 10:43:16.92	320.64	31.48	-40.9	-43.8	14.4	7.00e-07	0	56	0	937426944	53	5027
2026-01-06 10:43:17.93	320.82	31.30	-41.5	-44.9	13.4	5.30e-06	0	56	0	939524096	53	5664
2026-01-06 10:43:18.94	321.00	31.13	-41.7	-45.2	13.1	3.89e-05	0	56	0	941621248	54	5576
2026-01-06 10:43:19.95	321.17	30.96	-42.3	-46.5	11.8	1.02e-04	0	56	0	942669824	55	6070
2026-01-06 10:43:20.96	321.34	30.78	-42.6	-47.1	11.1	9.12e-04	0	56	0	944766976	55	6545
2026-01-06 10:43:21.97	321.52	30.61	-42.7	-47.3	10.9	1.33e-03	0	56	0	946864128	55	6697
2026-01-06 10:43:22.98	321.69	30.44	-43.0	-47.8	10.6	2.01e-03	0	56	0	948961280	56	6684
2026-01-06 10:43:23.99	321.85	30.27	-42.4	-46.5	11.9	1.28e-03	0	56	0	951058432	56	5745
2026-01-06 10:43:25.00	322.02	30.10	-42.3	-46.3	12.2	3.28e-04	0	56	0	952107008	56	5609
2026-01-06 10:43:26.01	322.18	29.93	-42.2	-46.1	12.3	4.34e-04	0	56	0	954204160	56	5490
2026-01-06 10:43:27.02	322.35	29.76	-41.5	-44.8	13.5	4.50e-05	0	56	0	956301312	55	5010
2026-01-06 10:43:28.03	322.51	29.59	-41.7	-45.1	13.1	1.29e-05	0	56	0	958398464	54	5504
2026-01-06 10:43:29.04	322.67	29.42	-41.7	-45.1	13.2	3.35e-05	0	56	0	960495616	54	5524
2026-01-06 10:43:30.05	322.83	29.26	-42.1	-46.0	12.3	5.41e-05	0	56	0	961544192	54	6076
2026-01-06 10:43:31.05	322.98	29.09	-42.1	-46.0	12.2	3.89e-04	0	56	0	963641344	55	5777
2026-01-06 10:43:32.07	323.14	28.93	-42.2	-46.3	12.0	4.27e-04	0	56	0	965738496	55	5943
2026-01-06 10:43:33.08	323.29	28.76	-42.5	-46.8	11.5	7.79e-04	0	56	0	967835648	55	6300
2026-01-06 10:43:34.09	323.44	28.60	-42.3	-46.4	11.8	7.30e-04	0	56	0	969932800	55	6044
2026-01-06 10:43:35.09	323.59	28.44	-42.3	-46.5	11.7	7.67e-04	0	56	0	970981376	55	6076
2026-01-06 10:43:36.10	323.74	28.27	-42.0	-45.9	12.3	3.75e-04	0	56	0	973078528	55	5722
2026-01-06 10:43:37.11	323.89	28.11	-41.9	-45.6	12.5	1.41e-04	0	56	0	975175680	55	5521
2026-01-06 10:43:38.12	324.03	27.95	-41.6	-45.0	13.2	4.65e-05	0	56	0	977272832	55	5155
2026-01-06 10:43:39.13	324.18	27.79	-41.0	-43.9	14.3	3.00e-06	0	56	0	979369984	54	4811
2026-01-06 10:43:40.14	324.32	27.63	-40.9	-43.9	14.3	1.50e-06	0	56	0	980418560	53	5068
2026-01-06 10:43:41.15	324.46	27.48	-40.2	-42.8	15.4	0.00e+00	0	56	0	982515712	52	4754
2026-01-06 10:43:42.16	324.60	27.32	-40.0	-42.4	15.9	0.00e+00	0	56	0	984612864	51	4799
2026-01-06 10:43:43.17	324.74	27.16	-39.7	-41.9	16.4	0.00e+00	0	56	0	986710016	51	4545
2026-01-06 10:43:44.18	324.88	27.01	-39.5	-41.7	16.6	0.00e+00	0	56	0	988807168	51	4416
2026-01-06 10:43:45.19	325.02	26.85	-39.8	-42.1	16.2	0.00e+00	0	56	0	989855744	51	4606
2026-01-06 10:43:46.20	325.15	26.70	-39.8	-42.1	16.1	0.00e+00	0	56	0	991952896	51	4633
2026-01-06 10:43:47.21	325.29	26.54	-39.9	-42.2	16.1	0.00e+00	0	56	0	994050048	51	4670
2026-01-06 10:43:48.22	325.42	26.39	-40.1	-42.6	15.7	0.00e+00	0	56	0	996147200	51	4898
2026-01-06 10:43:49.23	325.55	26.24	-40.5	-43.1	15.2	0.00e+00	0	56	0	998244352	51	5188
2026-01-06 10:43:50.24	325.68	26.08	-40.6	-43.3	15.0	0.00e+00	0	56	0	1000341504	51	5309
2026-01-06 10:43:51.25	325.81	25.93	-40.8	-43.7	14.5	7.00e-07	0	56	0	1001390080	52	5269
2026-01-06 10:43:52.26	325.94	25.78	-41.1	-44.1	14.1	3.00e-06	0	56	0	1003487232	52	5528
2026-01-06 10:43:53.27	326.06	25.63	-41.0	-44.1	14.2	7.00e-07	0	56	0	1005584384	53	5171
2026-01-06 10:43:54.28	326.19	25.48	-41.2	-44.4	13.8	3.00e-06	0	56	0	1007681536	53	5371
2026-01-06 10:43:55.29	326.31	25.34	-41.2	-44.4	13.8	2.20e-06	0	56	0	1009778688	53	5365
2026-01-06 10:43:56.30	326.44	25.19	-41.0	-44.1	14.1	7.00e-07	0	56	0	1010827264	53	5185
2026-01-06 10:43:57.31	326.56	25.04	-40.9	-43.9	14.2	1.50e-06	0	56	0	1012924416	53	5083
2026-01-06 10:43:58.32	326.68	24.90	-40.5	-43.1	15.0	0.00e+00	0	56	0	1015021568	52	4924
2026-01-06 10:43:59.33	326.80	24.75	-40.2	-42.8	15.4	0.00e+00	0	56	0	1017118720	52	4715
2026-01-06 10:44:00.34	326.92	24.61	-40.0	-42.5	15.7	0.00e+00	0	56	0	1019215872	52	4547
2026-01-06 10:44:01.35	327.04	24.46	-39.7	-42.0	16.2	0.00e+00	0	56	0	1020264448	51	4576
2026-01-06 10:44:02.36	327.16	24.32	-39.8	-42.1	16.1	0.00e+00	0	56	0	1022361600	51	4646
2026-01-06 10:44:03.37	327.27	24.18	-40.0	-42.3	15.9	0.00e+00	0	56	0	1024458752	51	4754
2026-01-06 10:44:04.38	327.39	24.03	-40.0	-42.4	15.8	0.00e+00	0	56	0	1026555904	51	4812
2026-01-06 10:44:05.39	327.50	23.89	-40.3	-42.9	15.4	0.00e+00	0	56	0	1028653056	51	5051
2026-01-06 10:44:06.41	327.61	23.75	-40.4	-43.0	15.3	0.00e+00	0	56	0	1029701632	51	5106
2026-01-06 10:44:07.42	327.73	23.61	-40.5	-43.1	15.1	0.00e+00	0	56	0	1031798784	51	5198
2026-01-06 10:44:08.43	327.84	23.47	-40.8	-43.7	14.5	7.00e-07	0	56	0	1033895936	52	5223
2026-01-06 10:44:09.43	327.95	23.33	-40.7	-43.5	14.6	0.00e+00	0	56	0	1035993088	52	5148
2026-01-06 10:44:10.44	328.05	23.19	-40.7	-43.5	14.6	1.50e-06	0	56	0	1038090240	52	5148
2026-01-06 10:44:11.45	328.16	23.06	-40.9	-43.9	14.3	7.00e-07	0	56	0	1039138816	52	5351
2026-01-06 10:44:12.47	328.27	22.92	-41.0	-44.1	14.1	2.20e-06	0	56	0	1041235968	52	5488
2026-01-06 10:44:13.48	328.38	22.78	-41.0	-44.1	14.0	1.50e-06	0	56	0	1043333120	52	5483
2026-01-06 10:44:14.49	328.48	22.65	-40.8	-43.7	14.4	1.50e-06	0	56	0	1045430272	52	5244
2026-01-06 10:44:15.50	328.59	22.51	-40.6	-43.4	14.8	0.00e+00	0	56	0	1047527424	52	5084
2026-01-06 10:44:16.51	328.69	22.38	-40.5	-43.3	14.8	0.00e+00	0	56	0	1048576000	52	5009
2026-01-06 10:44:17.52	328.79	22.24	-40.3	-43.0	15.2	0.00e+00	0	56	0	1050673152	52	4824
2026-01-06 10:44:18.53	328.90	22.11	-40.0	-42.5	15.6	0.00e+00	0	56	0	1052770304	51	4858
2026-01-06 10:44:19.54	329.00	21.98	-40.0	-42.5	15.7	0.00e+00	0	56	0	1054867456	51	4835
2026-01-06 10:44:20.55	329.10	21.85	-39.9	-42.3	15.9	0.00e+00	0	56	0	1056964608	51	4721
2026-01-06 10:44:21.56	329.20	21.72	-39.7	-42.0	16.2	0.00e+00	0	56	0	1058013184	51	4556
2026-01-06 10:44:22.57	329.30	21.58	-39.8	-42.1	16.1	0.00e+00	0	56	0	1060110336	51	4633
2026-01-06 10:44:23.58	329.39	21.45	-39.7	-42.0	16.1	0.00e+00	0	56	0	1062207488	51	4587
2026-01-06 10:44:24.59	329.49	21.32	-39.9	-42.3	15.8	0.00e+00	0	56	0	1064304640	51	4735
2026-01-06 10:44:25.59	329.59	21.20	-40.3	-42.9	15.3	0.00e+00	0	56	0	1066401792	51	5052
2026-01-06 10:44:26.60	329.68	21.07	-40.2	-42.9	15.1	0.00e+00	0	56	0	1068498944	51	5047
2026-01-06 10:44:27.61	329.78	20.94	-40.6	-43.4	14.7	0.00e+00	0	56	0	1069547520	51	5385
2026-01-06 10:44:28.63	329.87	20.81	-40.7	-43.7	14.3	0.00e+00	0	56	0	1071644672	52	5267
2026-01-06 10:44:29.64	329.97	20.69	-40.8	-43.8	14.3	0.00e+00	0	56	0	1073741824	52	5308
2026-01-06 10:44:30.65	330.06	20.56	-41.1	-44.4	13.6	4.50e-06	0	56	0	1075838976	52	5705
2026-01-06 10:44:31.66	330.15	20.43	-41.0	-44.2	13.8	6.10e-06	0	56	0	1077936128	52	5559
2026-01-06 10:44:32.67	330.24	20.31	-41.2	-44.5	13.6	6.80e-06	0	56	0	1078984704	52	5736
2026-01-06 10:44:33.68	330.33	20.19	-41.3	-44.7	13.4	1.29e-05	0	56	0	1081081856	53	5547
2026-01-06 10:44:34.69	330.42	20.06	-41.0	-44.2	13.8	1.60e-05	0	56	0	1083179008	53	5244
2026-01-06 10:44:35.70	330.51	19.94	-41.2	-44.5	13.6	3.00e-06	0	56	0	1085276160	53	5403
2026-01-06 10:44:36.71	330.60	19.82	-41.0	-44.1	13.9	2.20e-06	0	56	0	1087373312	53	5214
2026-01-06 10:44:37.72	330.69	19.69	-40.6	-43.6	14.4	0.00e+00	0	56	0	1088421888	53	4882
2026-01-06 10:44:38.73	330.78	19.57	-40.5	-43.4	14.6	7.00e-07	0	56	0	1090519040	53	4764
2026-01-06 10:44:39.74	330.86	19.45	-40.1	-42.7	15.3	0.00e+00	0	56	0	1092616192	52	4698
2026-01-06 10:44:40.75	330.95	19.33	-40.1	-42.7	15.2	0.00e+00	0	56	0	1094713344	52	4699
2026-01-06 10:44:41.76	331.03	19.21	-40.1	-42.6	15.3	0.00e+00	0	56	0	1096810496	52	4650
2026-01-06 10:44:42.77	331.12	19.09	-39.8	-42.3	15.7	0.00e+00	0	56	0	1097859072	51	4706
2026-01-06 10:44:43.78	331.20	18.97	-39.9	-42.4	15.7	0.00e+00	0	56	0	1099956224	51	4777
2026-01-06 10:44:44.79	331.28	18.85	-40.0	-42.5	15.5	0.00e+00	0	56	0	1102053376	51	4857
2026-01-06 10:44:45.80	331.37	18.74	-39.8	-42.3	15.7	0.00e+00	0	56	0	1104150528	51	4721
2026-01-06 10:44:46.81	331.45	18.62	-40.0	-42.6	15.4	0.00e+00	0	56	0	1106247680	51	4897
2026-01-06 10:44:47.82	331.53	18.50	-40.1	-42.7	15.3	0.00e+00	0	56	0	1107296256	51	4935
2026-01-06 10:44:48.82	331.61	18.39	-40.2	-42.8	15.2	0.00e+00	0	56	0	1109393408	51	5040
2026-01-06 10:44:49.83	331.69	18.27	-40.2	-42.9	15.1	7.00e-07	0	56	0	1111490560	51	5067
2026-01-06 10:44:50.84	331.77	18.15	-40.3	-42.9	15.1	0.00e+00	0	56	0	1113587712	51	5099
2026-01-06 10:44:51.85	331.85	18.04	-40.5	-43.3	14.7	0.00e+00	0	56	0	1115684864	51	5292
2026-01-06 10:44:52.86	331.93	17.92	-40.5	-43.3	14.6	0.00e+00	0	56	0	1116733440	51	5312
2026-01-06 10:44:53.87	332.01	17.81	-40.4	-43.3	14.7	7.00e-07	0	56	0	1118830592	51	5295
2026-01-06 10:44:54.89	332.09	17.70	-40.5	-43.4	14.6	0.00e+00	0	56	0	1120927744	51	5353
2026-01-06 10:44:55.89	332.16	17.58	-40.5	-43.4	14.6	7.00e-07	0	56	0	1123024896	51	5346
2026-01-06 10:44:56.90	332.24	17.47	-40.4	-43.3	14.6	0.00e+00	0	56	0	1125122048	51	5309
2026-01-06 10:44:57.91	332.31	17.36	-40.4	-43.2	14.7	1.50e-06	0	56	0	1126170624	51	5257
2026-01-06 10:44:58.92	332.39	17.25	-40.3	-43.1	14.8	0.00e+00	0	56	0	1128267776	51	5193
2026-01-06 10:44:59.93	332.46	17.14	-40.3	-43.0	14.9	0.00e+00	0	56	0	1130364928	51	5155
2026-01-06 10:45:00.94	332.54	17.03	-40.1	-42.8	15.1	0.00e+00	0	56	0	1132462080	51	5039
2026-01-06 10:45:01.95	332.61	16.92	-40.0	-42.5	15.4	0.00e+00	0	56	0	1134559232	51	4866
2026-01-06 10:45:02.96	332.69	16.81	-39.8	-42.3	15.6	0.00e+00	0	56	0	1136656384	51	4740
2026-01-06 10:45:03.97	332.76	16.70	-39.7	-42.2	15.7	0.00e+00	0	56	0	1137704960	51	4667
2026-01-06 10:45:04.98	332.83	16.59	-39.6	-42.1	15.8	0.00e+00	0	56	0	1139802112	51	4599
2026-01-06 10:45:05.99	332.90	16.48	-39.6	-42.0	15.9	0.00e+00	0	56	0	1141899264	51	4550
2026-01-06 10:45:07.00	332.97	16.37	-39.4	-41.8	16.0	0.00e+00	0	56	0	1143996416	50	4727
2026-01-06 10:45:08.01	333.05	16.26	-39.4	-41.8	16.1	0.00e+00	0	56	0	1146093568	50	4708
2026-01-06 10:45:09.02	333.12	16.16	-39.4	-41.7	16.1	0.00e+00	0	56	0	1147142144	50	4676
2026-01-06 10:45:10.03	333.19	16.05	-39.4	-41.7	16.1	0.00e+00	0	56	0	1149239296	50	4680
2026-01-06 10:45:11.04	333.26	15.94	-39.3	-41.6	16.2	0.00e+00	0	56	0	1151336448	50	4639
2026-01-06 10:45:12.05	333.32	15.84	-39.4	-41.7	16.1	0.00e+00	0	56	0	1153433600	50	4700
2026-01-06 10:45:13.06	333.39	15.73	-39.4	-41.7	16.1	0.00e+00	0	56	0	1155530752	50	4705
2026-01-06 10:45:14.07	333.46	15.63	-39.4	-41.7	16.1	0.00e+00	0	56	0	1156579328	50	4701
2026-01-06 10:45:15.08	333.53	15.52	-39.5	-41.9	15.9	0.00e+00	0	56	0	1158676480	50	4786
2026-01-06 10:45:16.09	333.60	15.42	-39.5	-41.8	15.9	0.00e+00	0	56	0	1160773632	50	4742
2026-01-06 10:45:17.10	333.66	15.32	-39.5	-41.9	15.9	0.00e+00	0	56	0	1162870784	50	4782
2026-01-06 10:45:18.11	333.73	15.21	-39.6	-42.1	15.7	0.00e+00	0	56	0	1164967936	50	4898
2026-01-06 10:45:19.12	333.80	15.11	-39.7	-42.2	15.6	0.00e+00	0	56	0	1166016512	50	4935
2026-01-06 10:45:20.13	333.86	15.01	-39.8	-42.4	15.4	0.00e+00	0	56	0	1168113664	50	5064
2026-01-06 10:45:21.14	333.93	14.90	-39.9	-42.6	15.2	0.00e+00	0	56	0	1170210816	50	5171
2026-01-06 10:45:22.15	333.99	14.80	-40.0	-42.7	15.1	0.00e+00	0	56	0	1172307968	50	5239
2026-01-06 10:45:23.16	334.05	14.70	-40.2	-42.9	14.8	7.00e-07	0	56	0	1174405120	50	5400
2026-01-06 10:45:24.17	334.12	14.60	-40.3	-43.2	14.6	1.50e-06	0	56	0	1176502272	51	5220
2026-01-06 10:45:25.18	334.18	14.50	-40.5	-43.5	14.2	0.00e+00	0	56	0	1177550848	51	5443
