passes_logs/2025/01/25/LEX_Murmansk/LEX_Murmansk__20250125_165617_NOAA_19_rec.log

#Pass ID: 20250125_165617_NOAA 19
#Satellite: NOAA 19
#Configuration: NOAA 19
#Start time: 2025-01-25 16:56:12.832689

#LorettStation: 1.0.0 05.05.2024
#Station: LEX_Murmansk
#Location: 33.156738 lon 68.926811 lat
#TLE: 1 33591U 09005A   25024.84494910  .00000392  00000+0  23341-3 0  9996
#TLE: 2 33591  99.0180  88.6826 0014105  30.8618 329.3380 14.13268098822670

#Time	Az	El	Level	SNR
2025-01-25 16:56:25.031388	128.1	16.3	-92.1	8.6
2025-01-25 16:56:26.191325	128.1	16.4	-91.6	11.0
2025-01-25 16:56:27.354434	128.0	16.6	-91.9	9.9
2025-01-25 16:56:28.514404	128.0	16.7	-91.9	9.3
2025-01-25 16:56:29.675061	127.9	16.8	-91.8	5.1
2025-01-25 16:56:30.838405	127.9	16.9	-91.9	8.2
2025-01-25 16:56:32.004654	127.8	17.1	-91.9	8.1
2025-01-25 16:56:33.169935	127.7	17.2	-91.7	10.6
2025-01-25 16:56:34.333423	127.7	17.3	-92.0	3.9
2025-01-25 16:56:35.493963	127.6	17.5	-92.1	4.4
2025-01-25 16:56:36.654511	127.6	17.6	-92.1	3.6
2025-01-25 16:56:37.819228	127.5	17.7	-92.2	2.8
2025-01-25 16:56:38.981885	127.4	17.9	-92.1	4.0
2025-01-25 16:56:40.145622	127.4	18.0	-92.0	7.2
2025-01-25 16:56:41.306664	127.3	18.1	-91.9	11.4
2025-01-25 16:56:42.466008	127.3	18.3	-91.8	13.6
2025-01-25 16:56:43.628842	127.2	18.4	-91.7	11.8
2025-01-25 16:56:44.789000	127.1	18.6	-91.9	8.6
2025-01-25 16:56:45.954639	127.1	18.7	-92.3	8.7
2025-01-25 16:56:47.114965	127.0	18.8	-91.8	13.8
2025-01-25 16:56:48.279584	126.9	19.0	-91.8	14.7
2025-01-25 16:56:49.440620	126.9	19.1	-92.1	15.5
2025-01-25 16:56:50.598448	126.8	19.3	-92.2	10.0
2025-01-25 16:56:51.755434	126.7	19.4	-92.2	4.1
2025-01-25 16:56:52.883253	126.7	19.5	-92.2	4.4
2025-01-25 16:56:54.003533	126.6	19.7	-92.1	4.6
2025-01-25 16:56:55.123845	126.5	19.8	-92.0	7.2
2025-01-25 16:56:56.244880	126.5	20.0	-91.7	8.5
2025-01-25 16:56:57.365448	126.4	20.1	-91.9	12.9
2025-01-25 16:56:58.486224	126.3	20.2	-91.8	12.7
2025-01-25 16:56:59.607205	126.3	20.4	-91.9	14.3
2025-01-25 16:57:00.728391	126.2	20.5	-92.0	8.7
2025-01-25 16:57:01.853182	126.1	20.7	-91.9	7.6
2025-01-25 16:57:02.989807	126.0	20.8	-92.1	8.5
2025-01-25 16:57:04.153686	126.0	21.0	-91.8	13.4
2025-01-25 16:57:05.310725	125.9	21.1	-91.5	13.1
2025-01-25 16:57:06.471988	125.8	21.3	-91.9	8.4
2025-01-25 16:57:07.626825	125.7	21.4	-91.9	5.9
2025-01-25 16:57:08.788041	125.7	21.6	-91.6	2.2
2025-01-25 16:57:09.948560	125.6	21.7	-91.7	2.1
2025-01-25 16:57:11.111886	125.5	21.9	-91.8	5.1
2025-01-25 16:57:12.275832	125.4	22.1	-92.1	7.1
2025-01-25 16:57:13.432038	125.3	22.2	-92.3	11.4
2025-01-25 16:57:14.592329	125.2	22.4	-91.8	13.9
2025-01-25 16:57:15.750384	125.2	22.5	-91.7	10.7
2025-01-25 16:57:16.917519	125.1	22.7	-92.0	9.5
2025-01-25 16:57:18.072355	125.0	22.9	-91.9	8.3
2025-01-25 16:57:19.225865	124.9	23.0	-91.7	7.5
2025-01-25 16:57:20.387549	124.8	23.2	-91.7	11.2
2025-01-25 16:57:21.551283	124.7	23.4	-91.9	10.9
2025-01-25 16:57:22.713627	124.6	23.5	-92.1	11.5
2025-01-25 16:57:23.873735	124.6	23.7	-91.9	6.7
2025-01-25 16:57:25.034025	124.5	23.9	-92.2	2.9
2025-01-25 16:57:26.200865	124.4	24.0	-92.2	1.2
2025-01-25 16:57:27.369055	124.3	24.2	-92.1	2.9
2025-01-25 16:57:28.523534	124.2	24.4	-92.0	4.9
2025-01-25 16:57:29.682744	124.1	24.5	-92.3	7.4
2025-01-25 16:57:30.844739	124.0	24.7	-92.3	10.0
2025-01-25 16:57:32.005850	123.9	24.9	-92.1	10.5
2025-01-25 16:57:33.163297	123.8	25.1	-91.7	6.5
2025-01-25 16:57:34.327203	123.7	25.2	-91.8	3.4
2025-01-25 16:57:35.490873	123.6	25.4	-91.9	5.8
2025-01-25 16:57:36.648558	123.5	25.6	-92.0	4.5
2025-01-25 16:57:37.811317	123.4	25.8	-92.3	4.8
2025-01-25 16:57:38.970011	123.3	25.9	-91.9	4.0
2025-01-25 16:57:40.126830	123.2	26.1	-91.9	3.8
2025-01-25 16:57:41.258231	123.1	26.3	-92.3	3.0
2025-01-25 16:57:42.379330	123.0	26.5	-92.2	2.1
2025-01-25 16:57:43.501051	122.9	26.7	-92.3	1.5
2025-01-25 16:57:44.621322	122.8	26.8	-92.2	2.4
2025-01-25 16:57:45.741509	122.6	27.0	-92.4	4.0
2025-01-25 16:57:46.862687	122.5	27.2	-92.2	2.4
2025-01-25 16:57:47.982848	122.4	27.4	-92.0	3.6
2025-01-25 16:57:49.104878	122.3	27.6	-92.3	7.0
2025-01-25 16:57:50.245009	122.2	27.8	-91.7	3.0
2025-01-25 16:57:51.382997	122.1	27.9	-91.8	3.8
2025-01-25 16:57:52.543205	122.0	28.1	-92.0	6.1
2025-01-25 16:57:53.703711	121.8	28.3	-91.6	5.4
2025-01-25 16:57:54.860590	121.7	28.5	-92.0	10.4
2025-01-25 16:57:56.013231	121.6	28.7	-92.1	10.5
2025-01-25 16:57:57.183299	121.5	28.9	-92.0	8.5
2025-01-25 16:57:58.344725	121.3	29.1	-92.0	6.0
2025-01-25 16:57:59.515066	121.2	29.3	-92.2	5.6
2025-01-25 16:58:00.668340	121.1	29.5	-91.8	3.1
2025-01-25 16:58:01.832818	120.9	29.7	-92.2	3.5
2025-01-25 16:58:03.000942	120.8	29.9	-91.5	6.0
2025-01-25 16:58:04.165229	120.7	30.1	-91.7	12.0
2025-01-25 16:58:05.324087	120.5	30.3	-91.8	12.8
2025-01-25 16:58:06.486068	120.4	30.6	-92.2	14.1
2025-01-25 16:58:07.654016	120.2	30.8	-92.3	11.0
2025-01-25 16:58:08.814844	120.1	31.0	-92.2	6.5
2025-01-25 16:58:09.979927	120.0	31.2	-92.2	7.6
2025-01-25 16:58:11.144852	119.8	31.4	-92.1	8.0
2025-01-25 16:58:12.304489	119.7	31.6	-92.0	8.8
2025-01-25 16:58:13.468470	119.5	31.8	-92.2	10.5
2025-01-25 16:58:14.618657	119.3	32.1	-92.1	11.3
2025-01-25 16:58:15.748499	119.2	32.3	-91.9	7.0
2025-01-25 16:58:16.900634	119.0	32.5	-91.6	7.5
2025-01-25 16:58:18.051482	118.9	32.7	-91.9	5.6
2025-01-25 16:58:19.206595	118.7	32.9	-92.2	2.6
2025-01-25 16:58:20.361978	118.6	33.2	-92.1	4.7
2025-01-25 16:58:21.527362	118.4	33.4	-92.1	8.4
2025-01-25 16:58:22.685536	118.2	33.6	-92.1	11.0
2025-01-25 16:58:23.849641	118.0	33.8	-92.0	13.1
2025-01-25 16:58:25.007173	117.9	34.1	-92.2	15.0
2025-01-25 16:58:26.172672	117.7	34.3	-92.3	10.5
2025-01-25 16:58:27.332437	117.5	34.5	-92.3	6.9
2025-01-25 16:58:28.499493	117.3	34.8	-92.3	9.3
2025-01-25 16:58:29.659853	117.1	35.0	-92.2	7.2
2025-01-25 16:58:30.828353	117.0	35.2	-92.0	7.0
2025-01-25 16:58:31.998510	116.8	35.5	-92.2	10.4
2025-01-25 16:58:33.160150	116.6	35.7	-92.4	10.5
2025-01-25 16:58:34.324097	116.4	36.0	-92.1	5.6
2025-01-25 16:58:35.484395	116.2	36.2	-92.2	4.1
2025-01-25 16:58:36.646842	116.0	36.5	-92.1	3.5
2025-01-25 16:58:37.812955	115.8	36.7	-92.3	3.9
2025-01-25 16:58:38.963683	115.5	36.9	-92.3	1.8
2025-01-25 16:58:40.129388	115.3	37.2	-92.2	3.4
2025-01-25 16:58:41.285316	115.1	37.4	-91.9	5.4
2025-01-25 16:58:42.440785	114.9	37.7	-92.2	12.8
2025-01-25 16:58:43.588885	114.7	37.9	-92.1	14.4
2025-01-25 16:58:44.722747	114.5	38.2	-92.1	10.4
2025-01-25 16:58:45.880760	114.2	38.4	-92.2	7.0
2025-01-25 16:58:47.023822	114.0	38.7	-92.2	11.1
2025-01-25 16:58:48.170895	113.8	39.0	-92.0	8.4
2025-01-25 16:58:49.318784	113.5	39.2	-92.1	11.7
2025-01-25 16:58:50.481723	113.3	39.5	-92.0	15.2
2025-01-25 16:58:51.645574	113.0	39.7	-92.0	14.9
2025-01-25 16:58:52.810127	112.8	40.0	-92.0	13.3
2025-01-25 16:58:53.962683	112.5	40.3	-92.2	8.9
2025-01-25 16:58:55.128768	112.3	40.5	-92.0	5.2
2025-01-25 16:58:56.292752	112.0	40.8	-92.0	2.9
2025-01-25 16:58:57.456139	111.7	41.1	-92.3	2.3
2025-01-25 16:58:58.617017	111.5	41.3	-92.0	3.1
2025-01-25 16:58:59.779453	111.2	41.6	-91.9	4.9
2025-01-25 16:59:00.938344	110.9	41.9	-92.2	8.8
2025-01-25 16:59:02.100912	110.6	42.1	-92.4	13.0
2025-01-25 16:59:03.258719	110.3	42.4	-92.2	16.5
2025-01-25 16:59:04.423044	110.0	42.7	-92.2	16.1
2025-01-25 16:59:05.584128	109.7	43.0	-92.2	13.0
2025-01-25 16:59:06.744687	109.4	43.3	-91.9	7.8
2025-01-25 16:59:07.915365	109.1	43.5	-92.1	9.6
2025-01-25 16:59:09.075783	108.8	43.8	-91.9	9.9
2025-01-25 16:59:10.244952	108.4	44.1	-91.9	9.4
2025-01-25 16:59:11.406336	108.1	44.4	-91.9	9.2
2025-01-25 16:59:12.580559	107.8	44.7	-92.1	14.3
2025-01-25 16:59:13.750440	107.4	44.9	-92.0	14.3
2025-01-25 16:59:14.911321	107.1	45.2	-92.0	10.7
2025-01-25 16:59:16.072780	106.7	45.5	-91.9	9.3
2025-01-25 16:59:17.236460	106.3	45.8	-92.0	4.7
2025-01-25 16:59:18.397726	106.0	46.1	-92.1	5.6
2025-01-25 16:59:19.561892	105.6	46.4	-92.3	3.0
2025-01-25 16:59:20.726081	105.2	46.7	-92.2	3.1
2025-01-25 16:59:21.890115	104.8	47.0	-92.2	6.7
2025-01-25 16:59:23.054186	104.4	47.2	-92.0	7.9
2025-01-25 16:59:24.211163	104.0	47.5	-92.1	9.6
2025-01-25 16:59:25.374184	103.6	47.8	-92.1	13.6
2025-01-25 16:59:26.543016	103.2	48.1	-92.0	16.8
2025-01-25 16:59:27.706198	102.7	48.4	-92.0	12.7
2025-01-25 16:59:28.866417	102.3	48.7	-92.0	12.1
2025-01-25 16:59:30.031943	101.9	49.0	-92.3	9.2
2025-01-25 16:59:31.199847	101.4	49.3	-92.4	6.3
2025-01-25 16:59:32.361742	100.9	49.6	-92.1	3.9
2025-01-25 16:59:33.528027	100.5	49.9	-92.3	6.0
2025-01-25 16:59:34.690798	100.0	50.2	-92.0	8.3
2025-01-25 16:59:35.839466	99.5	50.4	-92.3	11.4
2025-01-25 16:59:37.004531	99.0	50.7	-92.2	11.4
2025-01-25 16:59:38.164409	98.5	51.0	-92.1	8.7
2025-01-25 16:59:39.324547	98.0	51.3	-92.2	5.5
2025-01-25 16:59:40.480303	97.4	51.6	-92.2	2.5
2025-01-25 16:59:41.646547	96.9	51.9	-92.2	3.7
2025-01-25 16:59:42.804780	96.3	52.2	-92.0	3.8
2025-01-25 16:59:43.966371	95.8	52.4	-92.1	5.6
2025-01-25 16:59:45.131358	95.2	52.7	-91.9	7.0
2025-01-25 16:59:46.296806	94.6	53.0	-92.1	3.2
2025-01-25 16:59:47.460536	94.0	53.3	-92.2	5.3
2025-01-25 16:59:48.613894	93.4	53.6	-91.9	7.2
2025-01-25 16:59:49.772556	92.8	53.8	-92.1	8.0
2025-01-25 16:59:50.942699	92.2	54.1	-92.3	4.3
2025-01-25 16:59:52.099836	91.5	54.4	-92.4	16.1
2025-01-25 16:59:53.254836	90.9	54.6	-91.8	18.7
2025-01-25 16:59:54.381717	90.2	54.9	-92.3	16.4
2025-01-25 16:59:55.503137	89.6	55.2	-92.3	14.3
2025-01-25 16:59:56.624081	88.9	55.4	-92.3	8.1
2025-01-25 16:59:57.745173	88.2	55.7	-92.2	6.4
2025-01-25 16:59:58.865982	87.5	55.9	-92.2	5.3
2025-01-25 16:59:59.986713	86.8	56.2	-92.5	9.7
2025-01-25 17:00:01.107247	86.1	56.4	-92.2	9.4
2025-01-25 17:00:02.227162	85.4	56.6	-92.2	8.3
2025-01-25 17:00:03.351707	84.6	56.9	-92.2	9.4
2025-01-25 17:00:04.491406	83.9	57.1	-92.0	12.7
2025-01-25 17:00:05.647142	83.1	57.3	-91.8	14.9
2025-01-25 17:00:06.801177	82.3	57.6	-92.2	14.8
2025-01-25 17:00:07.953276	81.5	57.8	-92.5	14.9
2025-01-25 17:00:09.107066	80.6	58.0	-92.3	14.0
2025-01-25 17:00:10.268452	79.8	58.2	-92.1	18.1
2025-01-25 17:00:11.427245	78.9	58.4	-92.3	12.9
2025-01-25 17:00:12.589811	78.0	58.6	-92.4	10.9
2025-01-25 17:00:13.746245	77.2	58.8	-92.4	6.6
2025-01-25 17:00:14.908451	76.3	59.0	-92.3	11.6
2025-01-25 17:00:16.070094	75.3	59.2	-92.0	9.5
2025-01-25 17:00:17.228560	74.4	59.4	-92.1	3.3
2025-01-25 17:00:18.395196	73.5	59.6	-91.9	6.9
2025-01-25 17:00:19.543720	72.5	59.7	-92.3	5.4
2025-01-25 17:00:20.707839	71.6	59.9	-92.3	3.9
2025-01-25 17:00:21.877431	70.6	60.0	-92.3	6.5
2025-01-25 17:00:23.041206	69.6	60.2	-92.2	9.1
2025-01-25 17:00:24.206631	68.6	60.3	-91.9	9.3
2025-01-25 17:00:25.365439	67.6	60.4	-91.9	8.0
2025-01-25 17:00:26.528571	66.6	60.6	-92.2	14.9
2025-01-25 17:00:27.695224	65.5	60.7	-92.5	15.4
2025-01-25 17:00:28.857820	64.5	60.8	-92.4	16.6
2025-01-25 17:00:30.014662	63.4	60.9	-92.4	17.9
2025-01-25 17:00:31.176530	62.4	61.0	-92.2	14.1
2025-01-25 17:00:32.338028	61.3	61.1	-92.0	17.5
2025-01-25 17:00:33.498302	60.2	61.1	-92.1	17.4
2025-01-25 17:00:34.659068	59.2	61.2	-92.3	16.9
2025-01-25 17:00:35.826518	58.1	61.3	-91.2	16.5
2025-01-25 17:00:36.990951	57.0	61.3	-91.1	11.9
2025-01-25 17:00:38.147872	55.9	61.3	-91.5	13.9
2025-01-25 17:00:39.309368	54.8	61.4	-91.3	5.6
2025-01-25 17:00:40.471334	53.7	61.4	-91.3	8.3
2025-01-25 17:00:41.633469	52.6	61.4	-91.1	11.6
2025-01-25 17:00:42.792570	51.5	61.4	-91.4	7.4
2025-01-25 17:00:43.951462	50.5	61.4	-91.3	6.8
2025-01-25 17:00:45.116595	49.4	61.4	-91.5	9.0
2025-01-25 17:00:46.275474	48.3	61.3	-91.2	6.9
2025-01-25 17:00:47.437877	47.2	61.3	-91.6	8.8
2025-01-25 17:00:48.596943	46.1	61.3	-92.5	7.8
2025-01-25 17:00:49.754881	45.0	61.2	-92.6	3.8
2025-01-25 17:00:50.915397	43.9	61.1	-92.5	7.4
2025-01-25 17:00:52.080414	42.9	61.1	-92.3	10.5
2025-01-25 17:00:53.245074	41.8	61.0	-92.1	5.9
2025-01-25 17:00:54.407136	40.8	60.9	-92.4	9.4
2025-01-25 17:00:55.572088	39.7	60.8	-92.3	12.2
2025-01-25 17:00:56.730901	38.7	60.7	-92.1	7.3
2025-01-25 17:00:57.890969	37.6	60.6	-92.3	7.2
2025-01-25 17:00:59.049712	36.6	60.5	-92.2	8.2
2025-01-25 17:01:00.201674	35.6	60.3	-92.4	5.5
2025-01-25 17:01:01.360677	34.6	60.2	-92.2	9.0
2025-01-25 17:01:02.526315	33.6	60.1	-92.5	9.7
2025-01-25 17:01:03.686421	32.6	59.9	-92.3	6.8
2025-01-25 17:01:04.851061	31.7	59.8	-92.1	9.4
2025-01-25 17:01:06.012900	30.7	59.6	-92.3	13.6
2025-01-25 17:01:07.177179	29.8	59.4	-92.0	12.0
2025-01-25 17:01:08.336520	28.9	59.2	-92.6	10.0
2025-01-25 17:01:09.497359	27.9	59.1	-92.5	11.6
2025-01-25 17:01:10.657722	27.0	58.9	-92.4	10.5
2025-01-25 17:01:11.825156	26.1	58.7	-92.1	12.3
2025-01-25 17:01:12.988138	25.3	58.5	-92.1	13.4
2025-01-25 17:01:14.145230	24.4	58.3	-92.3	13.8
2025-01-25 17:01:15.312253	23.6	58.0	-92.1	8.3
2025-01-25 17:01:16.476056	22.7	57.8	-92.2	8.6
2025-01-25 17:01:17.641636	21.9	57.6	-92.2	7.5
2025-01-25 17:01:18.805656	21.1	57.4	-92.5	4.8
2025-01-25 17:01:19.962062	20.3	57.1	-92.4	5.8
2025-01-25 17:01:21.120597	19.5	56.9	-92.3	4.6
2025-01-25 17:01:22.288183	18.7	56.7	-92.2	3.0
2025-01-25 17:01:23.448764	18.0	56.4	-92.3	4.4
2025-01-25 17:01:24.616899	17.2	56.2	-92.2	7.8
2025-01-25 17:01:25.780989	16.5	55.9	-92.4	4.4
2025-01-25 17:01:26.943345	15.8	55.7	-92.0	6.2
2025-01-25 17:01:28.108125	15.1	55.4	-92.1	5.2
2025-01-25 17:01:29.267872	14.4	55.1	-92.3	4.4
2025-01-25 17:01:30.427284	13.7	54.9	-92.4	3.7
2025-01-25 17:01:31.586971	13.1	54.6	-92.3	4.8
2025-01-25 17:01:32.747224	12.4	54.3	-92.1	3.1
2025-01-25 17:01:33.909681	11.8	54.1	-92.2	2.8
2025-01-25 17:01:35.069371	11.1	53.8	-92.4	2.9
2025-01-25 17:01:36.232815	10.5	53.5	-92.6	4.3
2025-01-25 17:01:37.398422	9.9	53.2	-92.5	5.8
2025-01-25 17:01:38.559515	9.3	53.0	-92.6	3.1
2025-01-25 17:01:39.716474	8.8	52.7	-92.3	3.5
2025-01-25 17:01:40.878869	8.2	52.4	-92.5	4.9
2025-01-25 17:01:42.047146	7.6	52.1	-92.6	5.7
2025-01-25 17:01:43.212237	7.1	51.8	-91.9	4.3
2025-01-25 17:01:44.374872	6.5	51.6	-91.8	7.8
2025-01-25 17:01:45.539759	6.0	51.3	-92.1	7.8
2025-01-25 17:01:46.697873	5.5	51.0	-92.2	5.3
2025-01-25 17:01:47.864299	5.0	50.7	-92.0	4.4
2025-01-25 17:01:49.029028	4.5	50.4	-92.2	7.3
2025-01-25 17:01:50.189796	4.0	50.1	-92.3	6.2
2025-01-25 17:01:51.350935	3.5	49.8	-92.4	10.0
2025-01-25 17:01:52.508171	3.1	49.5	-92.2	11.0
2025-01-25 17:01:53.652432	2.6	49.3	-92.0	13.5
2025-01-25 17:01:54.772834	2.2	49.0	-92.2	13.9
2025-01-25 17:01:55.893745	1.7	48.7	-92.0	13.4
2025-01-25 17:01:57.016684	1.3	48.4	-92.0	14.6
2025-01-25 17:01:58.136465	0.9	48.1	-92.2	16.7
2025-01-25 17:01:59.256556	0.5	47.9	-91.8	15.4
2025-01-25 17:02:00.376933	0.1	47.6	-92.1	16.7
2025-01-25 17:02:01.497172	359.7	47.3	-92.2	17.0
2025-01-25 17:02:02.638619	359.3	47.0	-92.3	15.9
2025-01-25 17:02:03.759334	358.9	46.8	-92.3	16.6
2025-01-25 17:02:04.919478	358.6	46.5	-92.3	17.6
2025-01-25 17:02:06.083455	358.2	46.2	-92.3	17.2
2025-01-25 17:02:07.250787	357.8	45.9	-91.9	14.8
2025-01-25 17:02:08.405201	357.4	45.6	-92.1	13.0
2025-01-25 17:02:09.571838	357.1	45.3	-92.4	13.4
2025-01-25 17:02:10.729695	356.7	45.0	-92.4	9.8
2025-01-25 17:02:11.893092	356.4	44.8	-92.2	11.1
2025-01-25 17:02:13.054379	356.0	44.5	-92.2	11.3
2025-01-25 17:02:14.217596	355.7	44.2	-92.3	7.0
2025-01-25 17:02:15.381752	355.4	43.9	-92.3	4.7
2025-01-25 17:02:16.542810	355.1	43.6	-92.5	11.2
2025-01-25 17:02:17.704640	354.8	43.4	-92.1	7.1
2025-01-25 17:02:18.872241	354.4	43.1	-92.4	7.6
2025-01-25 17:02:20.010669	354.1	42.8	-92.4	13.0
2025-01-25 17:02:21.178240	353.8	42.5	-92.5	12.2
2025-01-25 17:02:22.337762	353.5	42.3	-92.4	12.0
2025-01-25 17:02:23.500179	353.3	42.0	-92.6	16.6
2025-01-25 17:02:24.671029	353.0	41.7	-92.4	16.6
2025-01-25 17:02:25.827289	352.7	41.5	-92.3	18.3
2025-01-25 17:02:26.993579	352.4	41.2	-92.2	18.8
2025-01-25 17:02:28.153908	352.2	40.9	-92.1	17.5
2025-01-25 17:02:29.311964	351.9	40.6	-92.3	18.7
2025-01-25 17:02:30.471976	351.6	40.4	-92.4	16.7
2025-01-25 17:02:31.646882	351.4	40.1	-92.6	16.6
2025-01-25 17:02:32.807015	351.1	39.9	-92.8	11.9
2025-01-25 17:02:33.976931	350.9	39.6	-92.5	11.4
2025-01-25 17:02:35.141934	350.6	39.3	-92.5	10.4
2025-01-25 17:02:36.307422	350.4	39.1	-92.2	5.9
2025-01-25 17:02:37.469335	350.1	38.8	-92.4	5.0
2025-01-25 17:02:38.600989	349.9	38.6	-92.2	8.3
2025-01-25 17:02:39.760544	349.7	38.3	-92.4	4.7
2025-01-25 17:02:40.926187	349.5	38.1	-92.6	6.6
2025-01-25 17:02:42.084944	349.2	37.8	-92.5	9.3
2025-01-25 17:02:43.248169	349.0	37.6	-92.4	4.0
2025-01-25 17:02:44.416515	348.8	37.3	-92.5	8.9
2025-01-25 17:02:45.576129	348.6	37.1	-92.4	10.9
2025-01-25 17:02:46.733393	348.4	36.8	-92.1	11.8
2025-01-25 17:02:47.899210	348.2	36.6	-92.3	9.8
2025-01-25 17:02:49.063728	348.0	36.3	-92.2	15.0
2025-01-25 17:02:50.220789	347.8	36.1	-92.2	12.9
2025-01-25 17:02:51.386847	347.6	35.8	-92.2	10.8
2025-01-25 17:02:52.548021	347.4	35.6	-92.0	9.9
2025-01-25 17:02:53.712075	347.2	35.4	-92.0	9.9
2025-01-25 17:02:54.876647	347.0	35.1	-92.3	9.4
2025-01-25 17:02:56.040727	346.8	34.9	-92.3	6.6
2025-01-25 17:02:57.203564	346.6	34.7	-92.3	4.3
2025-01-25 17:02:58.367806	346.5	34.4	-92.0	5.9
2025-01-25 17:02:59.533729	346.3	34.2	-92.2	6.7
2025-01-25 17:03:00.685257	346.1	34.0	-92.1	5.3
2025-01-25 17:03:01.847588	345.9	33.7	-92.1	5.5
2025-01-25 17:03:03.009553	345.8	33.5	-92.1	10.4
2025-01-25 17:03:04.179077	345.6	33.3	-91.9	10.4
2025-01-25 17:03:05.342628	345.4	33.1	-91.5	10.7
2025-01-25 17:03:06.502046	345.3	32.8	-91.8	15.1
2025-01-25 17:03:07.663274	345.1	32.6	-92.1	13.8
2025-01-25 17:03:08.851128	344.9	32.4	-92.1	12.0
2025-01-25 17:03:10.015723	344.8	32.2	-92.1	11.1
2025-01-25 17:03:11.174194	344.6	32.0	-91.8	9.5
2025-01-25 17:03:12.339236	344.5	31.7	-91.5	5.3
2025-01-25 17:03:13.517687	344.3	31.5	-92.2	5.2
2025-01-25 17:03:14.677583	344.2	31.3	-91.9	5.8
2025-01-25 17:03:15.838217	344.0	31.1	-92.2	1.7
2025-01-25 17:03:16.999979	343.9	30.9	-92.1	3.9
2025-01-25 17:03:18.174448	343.7	30.7	-92.3	1.5
2025-01-25 17:03:19.333227	343.6	30.5	-91.8	3.7
2025-01-25 17:03:20.496637	343.5	30.3	-92.4	8.8
2025-01-25 17:03:21.657454	343.3	30.1	-92.3	8.7
2025-01-25 17:03:22.820395	343.2	29.9	-92.2	9.0
2025-01-25 17:03:23.985298	343.1	29.7	-92.1	9.9
2025-01-25 17:03:25.146157	342.9	29.5	-92.1	13.3
2025-01-25 17:03:26.313257	342.8	29.3	-91.9	7.5
2025-01-25 17:03:27.473099	342.7	29.1	-91.8	8.1
2025-01-25 17:03:28.634326	342.5	28.9	-91.9	3.9
2025-01-25 17:03:29.788833	342.4	28.7	-92.0	2.4
2025-01-25 17:03:30.943435	342.3	28.5	-92.0	5.0
2025-01-25 17:03:32.102382	342.2	28.3	-92.1	3.9
2025-01-25 17:03:33.277363	342.1	28.1	-91.9	4.1
2025-01-25 17:03:34.447071	341.9	27.9	-91.8	6.6
2025-01-25 17:03:35.603395	341.8	27.7	-92.0	8.1
2025-01-25 17:03:36.765841	341.7	27.5	-92.3	9.3
2025-01-25 17:03:37.926993	341.6	27.3	-92.3	7.6
2025-01-25 17:03:39.085715	341.5	27.1	-92.2	11.3
2025-01-25 17:03:40.240064	341.4	27.0	-91.8	14.1
2025-01-25 17:03:41.412795	341.3	26.8	-92.0	9.7
2025-01-25 17:03:42.571531	341.2	26.6	-92.2	8.3
2025-01-25 17:03:43.730755	341.0	26.4	-92.4	8.6
2025-01-25 17:03:44.890967	340.9	26.2	-92.2	6.6
2025-01-25 17:03:46.051110	340.8	26.0	-92.3	7.5
2025-01-25 17:03:47.211890	340.7	25.9	-91.9	3.4
2025-01-25 17:03:48.381353	340.6	25.7	-91.9	2.7
2025-01-25 17:03:49.550260	340.5	25.5	-92.0	4.8
2025-01-25 17:03:50.706902	340.4	25.3	-91.9	4.0
2025-01-25 17:03:51.868418	340.3	25.2	-92.0	6.6
2025-01-25 17:03:53.034045	340.2	25.0	-92.3	6.5
2025-01-25 17:03:54.196101	340.1	24.8	-92.4	8.9
2025-01-25 17:03:55.355694	340.0	24.6	-92.1	11.4
2025-01-25 17:03:56.521967	339.9	24.5	-92.3	8.6
2025-01-25 17:03:57.686210	339.8	24.3	-92.1	11.2
2025-01-25 17:03:58.846633	339.8	24.1	-91.9	6.9
2025-01-25 17:04:00.005120	339.7	24.0	-91.9	9.2
2025-01-25 17:04:01.163992	339.6	23.8	-92.0	7.1
2025-01-25 17:04:02.325818	339.5	23.6	-92.1	5.1
2025-01-25 17:04:03.484282	339.4	23.5	-92.2	3.4
2025-01-25 17:04:04.645859	339.3	23.3	-92.0	5.5
2025-01-25 17:04:05.810964	339.2	23.1	-91.7	7.4
2025-01-25 17:04:06.975245	339.1	23.0	-91.7	6.2
2025-01-25 17:04:08.142259	339.0	22.8	-92.0	5.7
2025-01-25 17:04:09.313844	339.0	22.6	-91.8	13.6
2025-01-25 17:04:10.474485	338.9	22.5	-91.9	5.9
2025-01-25 17:04:11.634846	338.8	22.3	-92.2	11.5
2025-01-25 17:04:12.799460	338.7	22.2	-91.6	7.1
2025-01-25 17:04:13.963442	338.6	22.0	-91.7	7.7
2025-01-25 17:04:15.127130	338.6	21.9	-91.8	4.6
2025-01-25 17:04:16.293558	338.5	21.7	-92.1	4.0
2025-01-25 17:04:17.461303	338.4	21.5	-92.0	1.9
2025-01-25 17:04:18.625577	338.3	21.4	-92.1	3.8
2025-01-25 17:04:19.791629	338.2	21.2	-92.1	3.9
2025-01-25 17:04:20.954142	338.2	21.1	-92.2	3.8
2025-01-25 17:04:22.120523	338.1	20.9	-92.0	7.7
2025-01-25 17:04:23.287840	338.0	20.8	-92.2	9.0
2025-01-25 17:04:24.449625	337.9	20.6	-92.1	7.1
2025-01-25 17:04:25.612839	337.9	20.5	-92.1	6.5
2025-01-25 17:04:26.777288	337.8	20.3	-92.1	7.7
2025-01-25 17:04:27.942271	337.7	20.2	-92.0	3.7
2025-01-25 17:04:29.103461	337.7	20.1	-91.9	3.0
2025-01-25 17:04:30.262415	337.6	19.9	-92.0	2.8
2025-01-25 17:04:31.426929	337.5	19.8	-92.0	4.1
2025-01-25 17:04:32.591847	337.5	19.6	-92.4	1.5
2025-01-25 17:04:33.759951	337.4	19.5	-92.4	0.9
2025-01-25 17:04:34.917837	337.3	19.3	-92.2	2.7
2025-01-25 17:04:36.080862	337.3	19.2	-92.3	3.1
2025-01-25 17:04:37.242831	337.2	19.1	-92.2	2.6
2025-01-25 17:04:38.411828	337.1	18.9	-92.0	2.1
2025-01-25 17:04:39.577121	337.1	18.8	-91.9	6.0
2025-01-25 17:04:40.746943	337.0	18.6	-92.0	5.0
2025-01-25 17:04:41.908375	336.9	18.5	-91.8	2.1
2025-01-25 17:04:43.072361	336.9	18.4	-91.9	4.5
2025-01-25 17:04:44.236563	336.8	18.2	-91.9	1.3
2025-01-25 17:04:45.399125	336.7	18.1	-92.0	3.2
2025-01-25 17:04:46.559688	336.7	18.0	-92.2	3.1
2025-01-25 17:04:47.724630	336.6	17.8	-92.0	1.6
2025-01-25 17:04:48.888921	336.6	17.7	-92.2	0.0
2025-01-25 17:04:50.052738	336.5	17.6	-92.0	2.3
2025-01-25 17:04:51.213912	336.4	17.4	-91.7	4.8
2025-01-25 17:04:52.373766	336.4	17.3	-91.9	0.5
2025-01-25 17:04:53.538727	336.3	17.2	-91.9	3.2
2025-01-25 17:04:54.700437	336.3	17.0	-92.1	2.9
2025-01-25 17:04:55.864581	336.2	16.9	-92.1	7.4
2025-01-25 17:04:57.026097	336.2	16.8	-92.2	4.2
2025-01-25 17:04:58.189419	336.1	16.7	-91.9	1.1
2025-01-25 17:04:59.356553	336.1	16.5	-92.0	4.6
2025-01-25 17:05:00.507459	336.0	16.4	-91.9	3.4
2025-01-25 17:05:01.680485	335.9	16.3	-91.8	5.1
2025-01-25 17:05:02.847165	335.9	16.1	-91.7	3.7
2025-01-25 17:05:04.009677	335.8	16.0	-91.9	0.7
2025-01-25 17:05:05.175091	335.8	15.9	-91.7	4.9
2025-01-25 17:05:06.341878	335.7	15.8	-91.9	2.8
2025-01-25 17:05:07.506079	335.7	15.6	-91.9	6.3
2025-01-25 17:05:08.661811	335.6	15.5	-92.0	4.8
2025-01-25 17:05:09.829898	335.6	15.4	-92.0	2.2
2025-01-25 17:05:10.985530	335.5	15.3	-92.1	2.0
2025-01-25 17:05:12.150977	335.5	15.2	-92.1	2.2
2025-01-25 17:05:13.315199	335.4	15.0	-92.0	3.3
2025-01-25 17:05:14.482891	335.4	14.9	-92.0	1.7
2025-01-25 17:05:15.641975	335.3	14.8	-91.8	2.3
2025-01-25 17:05:16.802820	335.3	14.7	-92.2	4.2
2025-01-25 17:05:17.965251	335.2	14.6	-91.9	7.4
#Closed at: 2025-01-25 16:56:17.824518