passes_logs/2025/01/25/LEX_Murmansk/LEX_Murmansk__20250125_083650_NOAA_19_rec.log

#Pass ID: 20250125_083650_NOAA 19
#Satellite: NOAA 19
#Configuration: NOAA 19
#Start time: 2025-01-25 08:36:45.408639

#LorettStation: 1.0.0 05.05.2024
#Station: LEX_Murmansk
#Location: 33.156738 lon 68.926811 lat
#TLE: 1 33591U 09005A   25024.13697735  .00000399  00000+0  23694-3 0  9996
#TLE: 2 33591  99.0181  87.9693 0014137  32.7659 327.4387 14.13267470822833

#Time	Az	El	Level	SNR
2025-01-25 08:36:57.645789	27.2	16.3	-86.5	3.3
2025-01-25 08:36:58.794118	27.2	16.4	-87.2	1.4
2025-01-25 08:36:59.938384	27.2	16.6	-87.1	4.2
2025-01-25 08:37:01.079245	27.3	16.7	-87.2	4.1
2025-01-25 08:37:02.226214	27.3	16.8	-86.4	3.8
2025-01-25 08:37:03.374400	27.3	17.0	-86.1	4.6
2025-01-25 08:37:04.523126	27.3	17.1	-86.1	2.6
2025-01-25 08:37:05.668881	27.4	17.2	-86.4	3.5
2025-01-25 08:37:06.828371	27.4	17.3	-87.7	2.8
2025-01-25 08:37:07.980621	27.4	17.5	-87.9	4.7
2025-01-25 08:37:09.130353	27.5	17.6	-87.4	5.3
2025-01-25 08:37:10.283551	27.5	17.7	-86.7	4.7
2025-01-25 08:37:11.430360	27.5	17.9	-86.3	5.4
2025-01-25 08:37:12.573195	27.6	18.0	-86.1	4.1
2025-01-25 08:37:13.715641	27.6	18.2	-86.4	2.1
2025-01-25 08:37:14.859091	27.6	18.3	-86.3	3.4
2025-01-25 08:37:16.008586	27.7	18.4	-86.2	5.8
2025-01-25 08:37:17.156380	27.7	18.6	-86.4	5.2
2025-01-25 08:37:18.299471	27.7	18.7	-86.5	3.9
2025-01-25 08:37:19.447844	27.8	18.8	-86.2	3.3
2025-01-25 08:37:20.593650	27.8	19.0	-86.4	2.1
2025-01-25 08:37:21.744711	27.9	19.1	-86.6	3.6
2025-01-25 08:37:22.892295	27.9	19.3	-87.0	2.7
2025-01-25 08:37:24.041367	27.9	19.4	-86.6	4.3
2025-01-25 08:37:25.186798	28.0	19.6	-87.1	4.6
2025-01-25 08:37:26.333513	28.0	19.7	-87.2	5.4
2025-01-25 08:37:27.484407	28.0	19.8	-86.9	6.4
2025-01-25 08:37:28.635114	28.1	20.0	-86.6	5.9
2025-01-25 08:37:29.789374	28.1	20.1	-86.5	5.1
2025-01-25 08:37:30.938992	28.2	20.3	-86.7	5.8
2025-01-25 08:37:32.089704	28.2	20.4	-86.5	7.4
2025-01-25 08:37:33.239369	28.2	20.6	-86.9	7.7
2025-01-25 08:37:34.382952	28.3	20.7	-86.6	6.6
2025-01-25 08:37:35.532528	28.3	20.9	-86.8	3.0
2025-01-25 08:37:36.681469	28.3	21.0	-86.3	2.5
2025-01-25 08:37:37.828174	28.4	21.2	-86.5	3.4
2025-01-25 08:37:38.974135	28.4	21.3	-86.9	4.3
2025-01-25 08:37:40.122925	28.5	21.5	-87.1	4.9
2025-01-25 08:37:41.276287	28.5	21.7	-87.3	6.2
2025-01-25 08:37:42.426738	28.6	21.8	-87.1	8.2
2025-01-25 08:37:43.576310	28.6	22.0	-87.5	7.8
2025-01-25 08:37:44.718384	28.6	22.1	-87.0	4.0
2025-01-25 08:37:45.866110	28.7	22.3	-86.7	5.8
2025-01-25 08:37:47.011302	28.7	22.4	-86.3	6.8
2025-01-25 08:37:48.159501	28.8	22.6	-86.4	7.2
2025-01-25 08:37:49.307911	28.8	22.8	-86.9	9.2
2025-01-25 08:37:50.461768	28.9	22.9	-87.1	9.8
2025-01-25 08:37:51.607844	28.9	23.1	-86.9	5.0
2025-01-25 08:37:52.752498	28.9	23.3	-86.6	3.0
2025-01-25 08:37:53.895447	29.0	23.4	-86.5	4.5
2025-01-25 08:37:55.049794	29.0	23.6	-86.8	4.0
2025-01-25 08:37:56.191207	29.1	23.8	-86.4	4.6
2025-01-25 08:37:57.333523	29.1	23.9	-86.4	5.8
2025-01-25 08:37:58.469809	29.2	24.1	-86.9	6.1
2025-01-25 08:37:59.620832	29.2	24.3	-86.3	6.4
2025-01-25 08:38:00.769896	29.3	24.5	-87.1	4.5
2025-01-25 08:38:01.918242	29.3	24.6	-87.3	4.9
2025-01-25 08:38:03.070224	29.4	24.8	-87.3	4.8
2025-01-25 08:38:04.216754	29.4	25.0	-86.5	6.5
2025-01-25 08:38:05.362892	29.5	25.2	-86.8	6.5
2025-01-25 08:38:06.509463	29.5	25.3	-86.7	6.6
2025-01-25 08:38:07.658864	29.6	25.5	-86.7	1.3
2025-01-25 08:38:08.807604	29.6	25.7	-87.0	2.3
2025-01-25 08:38:09.956831	29.7	25.9	-87.1	2.7
2025-01-25 08:38:11.100954	29.7	26.1	-86.6	3.1
2025-01-25 08:38:12.253892	29.8	26.3	-87.1	4.1
2025-01-25 08:38:13.402169	29.8	26.4	-87.6	5.3
2025-01-25 08:38:14.549564	29.9	26.6	-87.0	8.0
2025-01-25 08:38:15.700824	29.9	26.8	-87.2	7.2
2025-01-25 08:38:16.845662	30.0	27.0	-86.9	3.8
2025-01-25 08:38:17.992862	30.1	27.2	-87.3	6.2
2025-01-25 08:38:19.145408	30.1	27.4	-87.4	4.9
2025-01-25 08:38:20.300913	30.2	27.6	-86.7	6.5
2025-01-25 08:38:21.441606	30.2	27.8	-87.1	6.4
2025-01-25 08:38:22.595586	30.3	28.0	-87.0	7.9
2025-01-25 08:38:23.744420	30.4	28.2	-87.1	5.2
2025-01-25 08:38:24.889985	30.4	28.4	-87.1	5.2
2025-01-25 08:38:26.035978	30.5	28.6	-87.1	4.2
2025-01-25 08:38:27.178100	30.5	28.8	-86.1	1.9
2025-01-25 08:38:28.321354	30.6	29.0	-86.2	3.0
2025-01-25 08:38:29.471338	30.7	29.2	-86.7	3.5
2025-01-25 08:38:30.620762	30.7	29.4	-86.7	5.0
2025-01-25 08:38:31.770895	30.8	29.6	-86.9	2.8
2025-01-25 08:38:32.929376	30.9	29.8	-86.8	6.5
2025-01-25 08:38:34.071654	30.9	30.0	-86.9	4.1
2025-01-25 08:38:35.218866	31.0	30.2	-87.6	4.1
2025-01-25 08:38:36.365057	31.1	30.5	-87.3	5.9
2025-01-25 08:38:37.512490	31.1	30.7	-87.5	7.1
2025-01-25 08:38:38.660416	31.2	30.9	-87.3	7.7
2025-01-25 08:38:39.808417	31.3	31.1	-86.9	7.6
2025-01-25 08:38:40.957543	31.3	31.3	-86.9	5.3
2025-01-25 08:38:42.103088	31.4	31.5	-86.8	3.5
2025-01-25 08:38:43.254326	31.5	31.8	-86.7	3.0
2025-01-25 08:38:44.400681	31.6	32.0	-86.9	2.6
2025-01-25 08:38:45.550008	31.6	32.2	-87.2	4.5
2025-01-25 08:38:46.696179	31.7	32.5	-87.1	4.1
2025-01-25 08:38:47.847343	31.8	32.7	-87.8	7.5
2025-01-25 08:38:48.994736	31.9	32.9	-87.7	8.4
2025-01-25 08:38:50.136867	31.9	33.1	-86.9	8.2
2025-01-25 08:38:51.286159	32.0	33.4	-87.2	7.2
2025-01-25 08:38:52.432540	32.1	33.6	-86.9	8.3
2025-01-25 08:38:53.578509	32.2	33.9	-86.5	7.2
2025-01-25 08:38:54.724849	32.3	34.1	-87.0	7.2
2025-01-25 08:38:55.870072	32.4	34.3	-86.8	11.6
2025-01-25 08:38:57.018435	32.4	34.6	-86.9	10.6
2025-01-25 08:38:58.162659	32.5	34.8	-86.9	11.1
2025-01-25 08:38:59.309167	32.6	35.1	-87.3	6.8
2025-01-25 08:39:00.451400	32.7	35.3	-87.3	6.5
2025-01-25 08:39:01.596092	32.8	35.6	-87.5	4.6
2025-01-25 08:39:02.744287	32.9	35.8	-87.4	3.9
2025-01-25 08:39:03.885477	33.0	36.1	-87.4	4.9
2025-01-25 08:39:05.037325	33.1	36.3	-87.0	5.9
2025-01-25 08:39:06.184847	33.2	36.6	-87.3	7.6
2025-01-25 08:39:07.328053	33.3	36.9	-87.3	7.0
2025-01-25 08:39:08.478264	33.4	37.1	-86.8	8.7
2025-01-25 08:39:09.628873	33.5	37.4	-87.3	5.1
2025-01-25 08:39:10.774102	33.6	37.7	-87.2	4.5
2025-01-25 08:39:11.920727	33.7	37.9	-86.7	6.3
2025-01-25 08:39:13.069271	33.8	38.2	-87.0	8.1
2025-01-25 08:39:14.218722	33.9	38.5	-87.8	8.3
2025-01-25 08:39:15.370054	34.0	38.8	-86.9	9.5
2025-01-25 08:39:16.514748	34.1	39.0	-87.1	7.1
2025-01-25 08:39:17.662126	34.2	39.3	-87.3	6.2
2025-01-25 08:39:18.809795	34.3	39.6	-86.8	4.1
2025-01-25 08:39:19.957067	34.5	39.9	-86.9	4.3
2025-01-25 08:39:21.103459	34.6	40.2	-87.0	4.7
2025-01-25 08:39:22.249264	34.7	40.5	-86.8	3.6
2025-01-25 08:39:23.390599	34.8	40.8	-86.7	7.2
2025-01-25 08:39:24.539219	34.9	41.0	-87.5	12.0
2025-01-25 08:39:25.686750	35.1	41.3	-86.9	13.0
2025-01-25 08:39:26.833135	35.2	41.6	-87.1	11.4
2025-01-25 08:39:27.981143	35.3	41.9	-86.9	9.9
2025-01-25 08:39:29.130694	35.5	42.2	-86.7	9.8
2025-01-25 08:39:30.276003	35.6	42.5	-87.2	6.9
2025-01-25 08:39:31.421603	35.7	42.9	-86.9	7.4
2025-01-25 08:39:32.571024	35.9	43.2	-86.6	9.5
2025-01-25 08:39:33.719379	36.0	43.5	-86.7	10.9
2025-01-25 08:39:34.861030	36.2	43.8	-86.1	10.2
2025-01-25 08:39:36.010947	36.3	44.1	-86.3	9.6
2025-01-25 08:39:37.158018	36.5	44.4	-86.8	4.8
2025-01-25 08:39:38.306305	36.6	44.7	-86.3	3.7
2025-01-25 08:39:39.456756	36.8	45.1	-86.7	3.7
2025-01-25 08:39:40.606630	37.0	45.4	-87.1	3.3
2025-01-25 08:39:41.764850	37.1	45.7	-86.4	4.2
2025-01-25 08:39:42.906180	37.3	46.1	-86.8	5.3
2025-01-25 08:39:44.050623	37.5	46.4	-87.1	9.2
2025-01-25 08:39:45.195451	37.6	46.7	-86.6	9.8
2025-01-25 08:39:46.341419	37.8	47.1	-86.4	9.6
2025-01-25 08:39:47.491432	38.0	47.4	-86.7	6.8
2025-01-25 08:39:48.636456	38.2	47.8	-86.2	5.7
2025-01-25 08:39:49.788221	38.4	48.1	-86.6	3.9
2025-01-25 08:39:50.932028	38.6	48.4	-87.1	4.7
2025-01-25 08:39:52.078876	38.8	48.8	-86.5	5.2
2025-01-25 08:39:53.225976	39.0	49.2	-86.3	5.6
2025-01-25 08:39:54.371539	39.2	49.5	-87.1	7.2
2025-01-25 08:39:55.512316	39.4	49.9	-86.2	6.0
2025-01-25 08:39:56.658535	39.6	50.2	-86.9	7.2
2025-01-25 08:39:57.801228	39.8	50.6	-86.1	5.4
2025-01-25 08:39:58.945047	40.1	50.9	-85.0	4.3
2025-01-25 08:40:00.090207	40.3	51.3	-87.3	2.3
2025-01-25 08:40:01.232231	40.5	51.7	-86.9	2.9
2025-01-25 08:40:02.379314	40.8	52.1	-86.8	2.9
2025-01-25 08:40:03.532395	41.0	52.4	-87.3	4.2
2025-01-25 08:40:04.680353	41.3	52.8	-86.7	6.0
2025-01-25 08:40:05.825993	41.6	53.2	-86.7	7.6
2025-01-25 08:40:06.970431	41.8	53.6	-87.4	9.8
2025-01-25 08:40:08.120346	42.1	53.9	-87.2	8.7
2025-01-25 08:40:09.267759	42.4	54.3	-86.8	10.9
2025-01-25 08:40:10.415775	42.7	54.7	-87.2	11.1
2025-01-25 08:40:11.559297	43.0	55.1	-87.2	6.3
2025-01-25 08:40:12.706923	43.3	55.5	-87.2	5.3
2025-01-25 08:40:13.852603	43.6	55.9	-87.1	4.2
2025-01-25 08:40:14.995030	44.0	56.3	-87.3	6.6
2025-01-25 08:40:16.144935	44.3	56.7	-87.2	8.3
2025-01-25 08:40:17.291080	44.6	57.1	-87.2	5.6
2025-01-25 08:40:18.440925	45.0	57.5	-87.4	7.3
2025-01-25 08:40:19.589675	45.4	57.9	-87.0	7.7
2025-01-25 08:40:20.736319	45.8	58.3	-87.3	9.7
2025-01-25 08:40:21.882725	46.1	58.7	-87.1	8.6
2025-01-25 08:40:23.026385	46.5	59.1	-86.8	6.3
2025-01-25 08:40:24.174154	47.0	59.5	-87.2	3.9
2025-01-25 08:40:25.323606	47.4	59.9	-87.7	4.2
2025-01-25 08:40:26.469219	47.8	60.3	-87.3	5.2
2025-01-25 08:40:27.617199	48.3	60.8	-86.2	3.6
2025-01-25 08:40:28.766768	48.8	61.2	-84.5	1.2
2025-01-25 08:40:29.909195	49.3	61.6	-86.6	6.6
2025-01-25 08:40:31.061863	49.8	62.0	-87.0	8.4
2025-01-25 08:40:32.212037	50.3	62.4	-87.2	10.8
2025-01-25 08:40:33.356170	50.8	62.8	-86.7	12.8
2025-01-25 08:40:34.505588	51.4	63.3	-86.9	11.8
2025-01-25 08:40:35.647411	52.0	63.7	-86.7	10.7
2025-01-25 08:40:36.788530	52.6	64.1	-86.7	10.0
2025-01-25 08:40:37.934323	53.2	64.5	-86.8	11.8
2025-01-25 08:40:39.084953	53.8	64.9	-87.1	9.8
2025-01-25 08:40:40.235930	54.5	65.3	-87.0	4.9
2025-01-25 08:40:41.383192	55.2	65.8	-86.8	4.6
2025-01-25 08:40:42.532609	55.9	66.2	-87.1	6.6
2025-01-25 08:40:43.679149	56.7	66.6	-86.8	5.3
2025-01-25 08:40:44.828366	57.4	67.0	-86.5	3.2
2025-01-25 08:40:45.974561	58.2	67.4	-87.2	4.0
2025-01-25 08:40:47.118566	59.1	67.8	-87.6	7.1
2025-01-25 08:40:48.271241	60.0	68.2	-87.2	6.1
2025-01-25 08:40:49.414110	60.9	68.6	-87.1	5.1
2025-01-25 08:40:50.559735	61.8	69.0	-87.1	3.2
2025-01-25 08:40:51.708134	62.8	69.4	-86.9	7.2
2025-01-25 08:40:52.852477	63.8	69.8	-87.0	6.3
2025-01-25 08:40:54.002355	64.9	70.2	-86.7	5.1
2025-01-25 08:40:55.146759	66.0	70.6	-83.1	4.0
2025-01-25 08:40:56.301787	67.2	70.9	-86.5	3.4
2025-01-25 08:40:57.443085	68.4	71.3	-86.7	3.4
2025-01-25 08:40:58.587680	69.6	71.7	-86.6	2.7
2025-01-25 08:40:59.730722	70.9	72.0	-86.3	2.7
2025-01-25 08:41:00.868904	72.3	72.4	-86.5	3.8
2025-01-25 08:41:02.010933	73.7	72.7	-86.1	3.6
2025-01-25 08:41:03.158007	75.2	73.0	-86.6	5.5
2025-01-25 08:41:04.302315	76.7	73.3	-86.6	2.2
2025-01-25 08:41:05.445985	78.3	73.6	-86.6	8.6
2025-01-25 08:41:06.595415	80.0	73.9	-86.4	6.7
2025-01-25 08:41:07.738145	81.7	74.2	-86.9	5.5
2025-01-25 08:41:08.884704	83.5	74.5	-86.2	8.9
2025-01-25 08:41:10.030081	85.4	74.7	-86.4	11.5
2025-01-25 08:41:11.180541	87.3	75.0	-87.1	15.2
2025-01-25 08:41:12.329479	89.3	75.2	-86.9	11.9
2025-01-25 08:41:13.474961	91.3	75.4	-86.9	12.6
2025-01-25 08:41:14.620570	93.4	75.6	-86.9	10.3
2025-01-25 08:41:15.765693	95.6	75.8	-86.5	11.5
2025-01-25 08:41:16.910537	97.8	75.9	-86.9	9.8
2025-01-25 08:41:18.057654	100.0	76.0	-86.7	6.5
2025-01-25 08:41:19.207422	102.3	76.1	-86.6	6.5
2025-01-25 08:41:20.356694	104.6	76.2	-87.2	6.7
2025-01-25 08:41:21.499248	107.0	76.3	-87.2	5.3
2025-01-25 08:41:22.651349	109.4	76.3	-85.7	6.7
2025-01-25 08:41:23.802033	111.7	76.4	-86.1	5.8
2025-01-25 08:41:24.949893	114.1	76.3	-87.2	10.3
2025-01-25 08:41:26.095431	116.5	76.3	-86.6	7.8
2025-01-25 08:41:27.234246	118.8	76.3	-86.7	4.6
2025-01-25 08:41:28.383640	121.2	76.2	-86.8	9.7
2025-01-25 08:41:29.534858	123.5	76.1	-86.9	6.4
2025-01-25 08:41:30.682239	125.8	76.0	-86.9	12.3
2025-01-25 08:41:31.831936	128.0	75.9	-86.8	12.3
2025-01-25 08:41:32.975168	130.2	75.7	-87.1	8.5
2025-01-25 08:41:34.121484	132.3	75.5	-86.4	7.4
2025-01-25 08:41:35.270557	134.4	75.3	-86.9	15.3
2025-01-25 08:41:36.416061	136.4	75.1	-87.4	11.3
2025-01-25 08:41:37.564646	138.4	74.9	-87.6	9.0
2025-01-25 08:41:38.711179	140.3	74.6	-87.6	14.1
2025-01-25 08:41:39.858278	142.1	74.4	-87.2	12.5
2025-01-25 08:41:41.008008	143.9	74.1	-87.2	8.8
2025-01-25 08:41:42.156194	145.6	73.8	-86.9	14.6
2025-01-25 08:41:43.303772	147.2	73.5	-87.1	15.9
2025-01-25 08:41:44.449351	148.8	73.2	-86.6	9.3
2025-01-25 08:41:45.599084	150.3	72.9	-87.0	10.0
2025-01-25 08:41:46.744359	151.8	72.6	-87.4	15.6
2025-01-25 08:41:47.897794	153.2	72.2	-87.2	12.4
2025-01-25 08:41:49.050232	154.5	71.9	-87.1	9.9
2025-01-25 08:41:50.199306	155.8	71.5	-87.1	11.5
2025-01-25 08:41:51.345714	157.1	71.1	-87.2	14.8
2025-01-25 08:41:52.493051	158.2	70.8	-87.1	12.1
2025-01-25 08:41:53.638472	159.4	70.4	-86.6	12.0
2025-01-25 08:41:54.785398	160.5	70.0	-87.7	13.7
2025-01-25 08:41:55.931645	161.5	69.6	-87.3	11.1
2025-01-25 08:41:57.075242	162.5	69.2	-86.9	9.1
2025-01-25 08:41:58.217273	163.5	68.8	-87.1	12.7
2025-01-25 08:41:59.359333	164.4	68.4	-86.9	10.6
2025-01-25 08:42:00.506123	165.3	68.0	-86.5	8.1
2025-01-25 08:42:01.643393	166.2	67.6	-86.6	12.3
2025-01-25 08:42:02.791635	167.0	67.2	-86.7	10.6
2025-01-25 08:42:03.938523	167.8	66.8	-87.3	7.9
2025-01-25 08:42:05.083930	168.6	66.4	-86.8	7.6
2025-01-25 08:42:06.236303	169.3	66.0	-86.8	8.9
2025-01-25 08:42:07.378724	170.0	65.6	-87.3	5.9
2025-01-25 08:42:08.546077	170.7	65.2	-87.1	7.2
2025-01-25 08:42:09.691269	171.4	64.7	-87.6	12.7
2025-01-25 08:42:10.839064	172.0	64.3	-87.3	9.3
2025-01-25 08:42:11.987919	172.6	63.9	-86.9	7.1
2025-01-25 08:42:13.133123	173.2	63.5	-87.1	9.5
2025-01-25 08:42:14.279002	173.8	63.1	-86.9	11.2
2025-01-25 08:42:15.429329	174.3	62.7	-87.3	6.3
2025-01-25 08:42:16.574300	174.8	62.2	-87.1	5.9
2025-01-25 08:42:17.717137	175.3	61.8	-87.0	9.5
2025-01-25 08:42:18.866686	175.8	61.4	-87.0	9.6
2025-01-25 08:42:20.013874	176.3	61.0	-87.4	5.9
2025-01-25 08:42:21.159038	176.8	60.6	-87.2	7.9
2025-01-25 08:42:22.305187	177.2	60.2	-87.4	10.8
2025-01-25 08:42:23.452689	177.7	59.8	-87.4	6.2
2025-01-25 08:42:24.602069	178.1	59.4	-86.9	6.2
2025-01-25 08:42:25.748903	178.5	58.9	-86.8	10.7
2025-01-25 08:42:26.896001	178.9	58.5	-87.3	6.4
2025-01-25 08:42:28.040586	179.3	58.1	-88.0	4.4
2025-01-25 08:42:29.185635	179.7	57.7	-87.6	10.9
2025-01-25 08:42:30.331126	180.0	57.3	-87.5	9.1
2025-01-25 08:42:31.484776	180.4	56.9	-87.3	6.3
2025-01-25 08:42:32.626805	180.7	56.5	-87.0	9.3
2025-01-25 08:42:33.776151	181.1	56.1	-87.0	9.2
2025-01-25 08:42:34.925933	181.4	55.7	-87.4	6.2
2025-01-25 08:42:36.068984	181.7	55.3	-87.2	5.9
2025-01-25 08:42:37.216813	182.0	54.9	-87.1	8.8
2025-01-25 08:42:38.362249	182.3	54.6	-87.5	9.4
2025-01-25 08:42:39.507516	182.6	54.2	-86.9	8.0
2025-01-25 08:42:40.661298	182.9	53.8	-87.5	7.9
2025-01-25 08:42:41.808672	183.2	53.4	-87.5	11.4
2025-01-25 08:42:42.955778	183.4	53.0	-87.0	9.3
2025-01-25 08:42:44.101314	183.7	52.6	-87.1	10.8
2025-01-25 08:42:45.249253	184.0	52.3	-87.0	13.3
2025-01-25 08:42:46.395547	184.2	51.9	-87.0	7.3
2025-01-25 08:42:47.541875	184.4	51.5	-87.9	6.8
2025-01-25 08:42:48.690689	184.7	51.2	-87.6	10.8
2025-01-25 08:42:49.832148	184.9	50.8	-87.1	8.7
2025-01-25 08:42:50.978066	185.1	50.4	-87.3	8.1
2025-01-25 08:42:52.126205	185.4	50.1	-87.6	8.0
2025-01-25 08:42:53.275215	185.6	49.7	-87.0	10.3
2025-01-25 08:42:54.422205	185.8	49.4	-86.8	5.3
2025-01-25 08:42:55.568201	186.0	49.0	-87.1	6.7
2025-01-25 08:42:56.714179	186.2	48.6	-87.1	12.2
2025-01-25 08:42:57.861030	186.4	48.3	-87.4	9.9
2025-01-25 08:42:59.007828	186.6	47.9	-87.2	8.9
2025-01-25 08:43:00.147414	186.8	47.6	-87.2	12.2
2025-01-25 08:43:01.293834	187.0	47.3	-87.2	12.7
2025-01-25 08:43:02.441670	187.1	46.9	-87.3	11.7
2025-01-25 08:43:03.584624	187.3	46.6	-87.1	11.1
2025-01-25 08:43:04.728108	187.5	46.3	-87.4	12.7
2025-01-25 08:43:05.875182	187.7	45.9	-87.8	13.0
2025-01-25 08:43:07.021570	187.8	45.6	-87.5	12.0
2025-01-25 08:43:08.167372	188.0	45.3	-87.4	12.4
2025-01-25 08:43:09.309400	188.2	44.9	-87.4	11.8
2025-01-25 08:43:10.453261	188.3	44.6	-86.8	8.9
2025-01-25 08:43:11.598893	188.5	44.3	-87.5	8.3
2025-01-25 08:43:12.745161	188.6	44.0	-87.4	10.8
2025-01-25 08:43:13.892134	188.8	43.7	-87.4	6.6
2025-01-25 08:43:15.042331	188.9	43.4	-87.7	5.9
2025-01-25 08:43:16.193334	189.1	43.0	-87.6	12.1
2025-01-25 08:43:17.335433	189.2	42.7	-87.2	8.4
2025-01-25 08:43:18.481939	189.3	42.4	-87.2	5.0
2025-01-25 08:43:19.632496	189.5	42.1	-87.2	5.6
2025-01-25 08:43:20.776774	189.6	41.8	-87.1	6.9
2025-01-25 08:43:21.924262	189.7	41.5	-87.7	6.8
2025-01-25 08:43:23.073926	189.9	41.2	-87.5	6.0
2025-01-25 08:43:24.214490	190.0	40.9	-87.1	7.9
2025-01-25 08:43:25.363599	190.1	40.6	-86.9	7.5
2025-01-25 08:43:26.510041	190.2	40.3	-87.4	7.1
2025-01-25 08:43:27.653000	190.4	40.1	-86.9	7.3
2025-01-25 08:43:28.802442	190.5	39.8	-86.9	7.6
2025-01-25 08:43:29.949471	190.6	39.5	-87.5	7.0
2025-01-25 08:43:31.097250	190.7	39.2	-87.2	5.3
2025-01-25 08:43:32.250364	190.8	38.9	-87.6	9.4
2025-01-25 08:43:33.395358	190.9	38.7	-88.0	5.3
2025-01-25 08:43:34.544599	191.0	38.4	-88.1	3.3
2025-01-25 08:43:35.692960	191.1	38.1	-87.6	6.5
2025-01-25 08:43:36.836900	191.2	37.8	-87.5	7.3
2025-01-25 08:43:37.982561	191.3	37.6	-87.8	7.4
2025-01-25 08:43:39.130905	191.4	37.3	-87.2	9.2
2025-01-25 08:43:40.280451	191.5	37.0	-87.2	10.8
2025-01-25 08:43:41.427075	191.6	36.8	-87.1	10.7
2025-01-25 08:43:42.574872	191.7	36.5	-87.2	8.5
2025-01-25 08:43:43.722289	191.8	36.2	-87.2	8.8
2025-01-25 08:43:44.865887	191.9	36.0	-87.5	5.6
2025-01-25 08:43:46.013998	192.0	35.7	-87.0	5.1
2025-01-25 08:43:47.161374	192.1	35.5	-87.5	4.2
2025-01-25 08:43:48.304921	192.2	35.2	-87.3	3.5
2025-01-25 08:43:49.453061	192.3	35.0	-87.1	3.8
2025-01-25 08:43:50.600233	192.4	34.7	-87.4	4.4
2025-01-25 08:43:51.747433	192.5	34.5	-87.8	5.1
2025-01-25 08:43:52.891425	192.6	34.2	-87.6	6.5
2025-01-25 08:43:54.040580	192.6	34.0	-87.5	3.5
2025-01-25 08:43:55.187103	192.7	33.8	-87.6	6.7
2025-01-25 08:43:56.332653	192.8	33.5	-87.2	6.1
2025-01-25 08:43:57.481989	192.9	33.3	-87.6	5.5
2025-01-25 08:43:58.630413	193.0	33.1	-87.5	8.3
2025-01-25 08:43:59.778409	193.0	32.8	-87.3	4.8
2025-01-25 08:44:00.921902	193.1	32.6	-87.6	4.5
2025-01-25 08:44:02.069971	193.2	32.4	-87.1	4.7
2025-01-25 08:44:03.218065	193.3	32.1	-87.6	4.2
2025-01-25 08:44:04.365097	193.3	31.9	-87.7	5.4
2025-01-25 08:44:05.510049	193.4	31.7	-87.7	4.1
2025-01-25 08:44:06.669232	193.5	31.5	-87.9	5.4
2025-01-25 08:44:07.813697	193.6	31.2	-87.8	5.6
2025-01-25 08:44:08.957716	193.6	31.0	-87.7	4.8
2025-01-25 08:44:10.105607	193.7	30.8	-87.4	4.4
2025-01-25 08:44:11.257166	193.8	30.6	-87.6	5.8
2025-01-25 08:44:12.402058	193.8	30.4	-87.5	5.2
2025-01-25 08:44:13.545651	193.9	30.2	-87.4	2.8
2025-01-25 08:44:14.695754	194.0	29.9	-87.9	3.3
2025-01-25 08:44:15.839464	194.0	29.7	-87.8	2.6
2025-01-25 08:44:16.985959	194.1	29.5	-87.9	4.2
2025-01-25 08:44:18.133438	194.2	29.3	-88.5	5.0
2025-01-25 08:44:19.280071	194.2	29.1	-88.5	4.3
2025-01-25 08:44:20.430044	194.3	28.9	-88.5	4.9
2025-01-25 08:44:21.573134	194.3	28.7	-88.3	3.3
2025-01-25 08:44:22.722604	194.4	28.5	-88.6	8.5
2025-01-25 08:44:23.869283	194.5	28.3	-88.1	6.0
2025-01-25 08:44:25.014283	194.5	28.1	-87.9	6.2
2025-01-25 08:44:26.165261	194.6	27.9	-88.0	9.1
2025-01-25 08:44:27.309153	194.6	27.7	-87.4	8.9
2025-01-25 08:44:28.461505	194.7	27.5	-87.6	4.9
2025-01-25 08:44:29.611041	194.8	27.3	-87.8	8.6
2025-01-25 08:44:30.757911	194.8	27.1	-87.6	6.6
2025-01-25 08:44:31.905357	194.9	26.9	-87.7	6.6
2025-01-25 08:44:33.048282	194.9	26.7	-88.2	5.6
2025-01-25 08:44:34.196875	195.0	26.6	-87.7	6.3
2025-01-25 08:44:35.344630	195.0	26.4	-87.9	4.9
2025-01-25 08:44:36.490694	195.1	26.2	-88.2	5.0
2025-01-25 08:44:37.636702	195.1	26.0	-87.5	4.1
2025-01-25 08:44:38.784542	195.2	25.8	-87.8	4.2
2025-01-25 08:44:39.935478	195.2	25.6	-87.8	3.0
2025-01-25 08:44:41.083393	195.3	25.5	-87.8	4.2
2025-01-25 08:44:42.237063	195.3	25.3	-87.6	5.7
2025-01-25 08:44:43.380927	195.4	25.1	-87.4	3.9
2025-01-25 08:44:44.527688	195.4	24.9	-87.8	8.6
2025-01-25 08:44:45.677306	195.5	24.7	-87.8	6.1
2025-01-25 08:44:46.827946	195.5	24.6	-87.4	5.7
2025-01-25 08:44:47.974785	195.6	24.4	-87.9	5.4
2025-01-25 08:44:49.122725	195.6	24.2	-87.9	6.6
2025-01-25 08:44:50.269049	195.7	24.0	-87.6	7.3
2025-01-25 08:44:51.413008	195.7	23.9	-87.7	3.4
2025-01-25 08:44:52.559308	195.8	23.7	-88.1	4.9
2025-01-25 08:44:53.705011	195.8	23.5	-87.8	8.3
2025-01-25 08:44:54.850980	195.9	23.4	-88.0	7.2
2025-01-25 08:44:55.997347	195.9	23.2	-88.1	7.0
2025-01-25 08:44:57.146205	196.0	23.0	-87.9	8.2
2025-01-25 08:44:58.290938	196.0	22.9	-87.7	9.4
2025-01-25 08:44:59.441571	196.1	22.7	-88.0	7.9
2025-01-25 08:45:00.585989	196.1	22.6	-87.8	9.4
2025-01-25 08:45:01.733351	196.1	22.4	-88.0	7.6
2025-01-25 08:45:02.881226	196.2	22.2	-88.0	7.4
2025-01-25 08:45:04.027345	196.2	22.1	-87.4	5.1
2025-01-25 08:45:05.175649	196.3	21.9	-88.2	9.6
2025-01-25 08:45:06.322481	196.3	21.8	-88.1	5.9
2025-01-25 08:45:07.466009	196.3	21.6	-88.1	6.3
2025-01-25 08:45:08.612189	196.4	21.4	-87.7	5.4
2025-01-25 08:45:09.765241	196.4	21.3	-88.1	6.8
2025-01-25 08:45:10.915328	196.5	21.1	-88.0	7.1
2025-01-25 08:45:12.063026	196.5	21.0	-87.7	6.0
2025-01-25 08:45:13.209353	196.5	20.8	-88.0	4.2
2025-01-25 08:45:14.359822	196.6	20.7	-87.6	5.3
2025-01-25 08:45:15.506910	196.6	20.5	-87.6	3.5
2025-01-25 08:45:16.654176	196.7	20.4	-87.9	5.7
2025-01-25 08:45:17.797894	196.7	20.2	-88.2	3.8
2025-01-25 08:45:18.944574	196.7	20.1	-87.7	1.6
2025-01-25 08:45:20.089848	196.8	19.9	-87.4	2.7
2025-01-25 08:45:21.238476	196.8	19.8	-87.8	2.9
2025-01-25 08:45:22.388111	196.8	19.6	-87.5	2.1
2025-01-25 08:45:23.539003	196.9	19.5	-87.4	2.2
2025-01-25 08:45:24.688255	196.9	19.4	-88.0	5.2
2025-01-25 08:45:25.832516	197.0	19.2	-87.9	4.1
2025-01-25 08:45:26.982817	197.0	19.1	-87.6	4.0
2025-01-25 08:45:28.131071	197.0	18.9	-87.6	2.9
2025-01-25 08:45:29.275413	197.1	18.8	-88.0	3.4
2025-01-25 08:45:30.424228	197.1	18.7	-87.6	3.7
2025-01-25 08:45:31.565487	197.1	18.5	-88.3	2.4
2025-01-25 08:45:32.715263	197.2	18.4	-88.6	3.3
2025-01-25 08:45:33.861507	197.2	18.2	-88.2	4.4
2025-01-25 08:45:35.008332	197.2	18.1	-88.1	2.1
2025-01-25 08:45:36.153556	197.3	18.0	-88.2	1.9
2025-01-25 08:45:37.302535	197.3	17.8	-88.3	4.3
2025-01-25 08:45:38.446115	197.3	17.7	-87.7	4.2
2025-01-25 08:45:39.591388	197.4	17.6	-88.0	2.5
2025-01-25 08:45:40.740386	197.4	17.4	-88.1	3.4
2025-01-25 08:45:41.890332	197.4	17.3	-87.9	2.2
2025-01-25 08:45:43.036630	197.5	17.2	-87.9	3.7
2025-01-25 08:45:44.185057	197.5	17.0	-88.1	3.9
2025-01-25 08:45:45.331006	197.5	16.9	-87.5	2.3
2025-01-25 08:45:46.478576	197.6	16.8	-88.4	2.7
2025-01-25 08:45:47.629578	197.6	16.7	-88.1	3.9
2025-01-25 08:45:48.773718	197.6	16.5	-88.0	2.6
2025-01-25 08:45:49.924099	197.6	16.4	-88.2	2.1
2025-01-25 08:45:51.072332	197.7	16.3	-88.0	2.6
2025-01-25 08:45:52.215681	197.7	16.1	-87.7	3.8
2025-01-25 08:45:53.361668	197.7	16.0	-87.9	3.9
2025-01-25 08:45:54.511431	197.8	15.9	-88.2	1.1
2025-01-25 08:45:55.661133	197.8	15.8	-87.8	2.8
2025-01-25 08:45:56.811377	197.8	15.6	-87.9	2.1
2025-01-25 08:45:57.959733	197.9	15.5	-88.2	4.1
2025-01-25 08:45:59.110681	197.9	15.4	-88.2	3.7
2025-01-25 08:46:00.254401	197.9	15.3	-87.7	4.9
2025-01-25 08:46:01.404855	197.9	15.2	-88.0	2.0
2025-01-25 08:46:02.549237	198.0	15.0	-88.2	3.3
2025-01-25 08:46:03.694036	198.0	14.9	-88.5	4.0
2025-01-25 08:46:04.846061	198.0	14.8	-88.1	2.2
2025-01-25 08:46:05.993476	198.0	14.7	-88.3	1.7
2025-01-25 08:46:07.138989	198.1	14.6	-88.8	0.9
2025-01-25 08:46:08.282378	198.1	14.4	-88.3	2.8
#Closed at: 2025-01-25 08:36:50.454985