passes_logs/2025/01/25/LEX_Murmansk/LEX_Murmansk__20250125_183708_NOAA_19_rec.log

#Pass ID: 20250125_183708_NOAA 19
#Satellite: NOAA 19
#Configuration: NOAA 19
#Start time: 2025-01-25 18:37:03.721169

#LorettStation: 1.0.0 05.05.2024
#Station: LEX_Murmansk
#Location: 33.156738 lon 68.926811 lat
#TLE: 1 33591U 09005A   25024.84494910  .00000392  00000+0  23341-3 0  9996
#TLE: 2 33591  99.0180  88.6826 0014105  30.8618 329.3380 14.13268098822670

#Time	Az	El	Level	SNR
2025-01-25 18:37:16.005947	180.7	16.3	-91.4	2.7
2025-01-25 18:37:17.173496	180.8	16.4	-91.6	3.5
2025-01-25 18:37:18.323239	180.9	16.5	-91.4	3.2
2025-01-25 18:37:19.479643	181.0	16.7	-91.8	3.7
2025-01-25 18:37:20.635271	181.0	16.8	-91.7	3.4
2025-01-25 18:37:21.785607	181.1	16.9	-91.8	2.2
2025-01-25 18:37:22.940675	181.2	17.0	-91.3	2.2
2025-01-25 18:37:24.101858	181.3	17.2	-91.5	0.3
2025-01-25 18:37:25.259973	181.4	17.3	-91.3	0.4
2025-01-25 18:37:26.423677	181.4	17.4	-91.5	3.3
2025-01-25 18:37:27.580845	181.5	17.5	-91.8	2.1
2025-01-25 18:37:28.744628	181.6	17.7	-91.9	4.7
2025-01-25 18:37:29.896353	181.7	17.8	-92.0	6.0
2025-01-25 18:37:31.061281	181.8	17.9	-92.0	6.0
2025-01-25 18:37:32.211110	181.9	18.1	-91.6	3.9
2025-01-25 18:37:33.366595	182.0	18.2	-91.7	3.4
2025-01-25 18:37:34.525135	182.0	18.3	-91.7	2.5
2025-01-25 18:37:35.685448	182.1	18.5	-91.7	2.5
2025-01-25 18:37:36.844559	182.2	18.6	-91.7	4.5
2025-01-25 18:37:38.006500	182.3	18.7	-91.6	3.6
2025-01-25 18:37:39.162309	182.4	18.9	-91.7	2.6
2025-01-25 18:37:40.324115	182.5	19.0	-91.5	1.0
2025-01-25 18:37:41.476348	182.6	19.1	-91.7	3.9
2025-01-25 18:37:42.633209	182.7	19.3	-91.8	4.6
2025-01-25 18:37:43.785749	182.8	19.4	-91.8	3.9
2025-01-25 18:37:44.952420	182.9	19.6	-91.8	7.7
2025-01-25 18:37:46.109485	183.0	19.7	-91.6	6.7
2025-01-25 18:37:47.265875	183.1	19.8	-91.9	6.3
2025-01-25 18:37:48.415688	183.2	20.0	-91.9	6.0
2025-01-25 18:37:49.568387	183.3	20.1	-91.8	5.6
2025-01-25 18:37:50.731421	183.4	20.3	-91.8	4.0
2025-01-25 18:37:51.894715	183.5	20.4	-91.9	7.1
2025-01-25 18:37:53.046000	183.6	20.6	-91.9	8.8
2025-01-25 18:37:54.207426	183.7	20.7	-91.9	6.1
2025-01-25 18:37:55.362274	183.8	20.8	-91.7	3.0
2025-01-25 18:37:56.517615	183.9	21.0	-92.2	0.7
2025-01-25 18:37:57.664328	184.0	21.1	-91.7	2.1
2025-01-25 18:37:58.818259	184.1	21.3	-92.1	3.3
2025-01-25 18:37:59.972613	184.2	21.4	-92.0	4.2
2025-01-25 18:38:01.121868	184.3	21.6	-91.7	4.8
2025-01-25 18:38:02.276961	184.4	21.7	-91.4	9.2
2025-01-25 18:38:03.425588	184.5	21.9	-91.9	8.4
2025-01-25 18:38:04.584618	184.6	22.0	-91.8	8.3
2025-01-25 18:38:05.741507	184.7	22.2	-91.8	5.6
2025-01-25 18:38:06.897839	184.8	22.3	-91.8	6.3
2025-01-25 18:38:08.051884	185.0	22.5	-91.8	9.4
2025-01-25 18:38:09.211371	185.1	22.6	-91.4	10.3
2025-01-25 18:38:10.365109	185.2	22.8	-91.8	11.5
2025-01-25 18:38:11.525681	185.3	23.0	-91.8	7.5
2025-01-25 18:38:12.681059	185.4	23.1	-92.0	3.2
2025-01-25 18:38:13.826268	185.5	23.3	-91.6	2.9
2025-01-25 18:38:14.975265	185.7	23.4	-91.9	2.8
2025-01-25 18:38:16.137521	185.8	23.6	-91.8	4.2
2025-01-25 18:38:17.298542	185.9	23.8	-91.9	4.6
2025-01-25 18:38:18.452074	186.0	23.9	-91.7	8.4
2025-01-25 18:38:19.604503	186.2	24.1	-91.9	11.1
2025-01-25 18:38:20.754921	186.3	24.2	-92.0	8.9
2025-01-25 18:38:21.886456	186.4	24.4	-92.0	8.0
2025-01-25 18:38:23.007412	186.5	24.6	-91.8	6.9
2025-01-25 18:38:24.128034	186.7	24.7	-91.7	8.4
2025-01-25 18:38:25.248442	186.8	24.9	-92.0	8.8
2025-01-25 18:38:26.369477	186.9	25.0	-91.9	10.7
2025-01-25 18:38:27.489763	187.0	25.2	-92.0	9.2
2025-01-25 18:38:28.611456	187.2	25.4	-91.8	7.8
2025-01-25 18:38:29.731978	187.3	25.5	-92.1	2.4
2025-01-25 18:38:30.858862	187.4	25.7	-91.6	2.7
2025-01-25 18:38:31.986662	187.6	25.9	-92.0	3.4
2025-01-25 18:38:33.141381	187.7	26.0	-91.9	4.1
2025-01-25 18:38:34.296762	187.9	26.2	-91.8	4.2
2025-01-25 18:38:35.455886	188.0	26.4	-92.1	8.2
2025-01-25 18:38:36.602323	188.1	26.6	-92.2	9.9
2025-01-25 18:38:37.760991	188.3	26.7	-92.0	8.7
2025-01-25 18:38:38.909558	188.4	26.9	-92.1	10.0
2025-01-25 18:38:40.068231	188.6	27.1	-92.2	9.4
2025-01-25 18:38:41.226924	188.7	27.3	-92.2	5.5
2025-01-25 18:38:42.389177	188.9	27.5	-92.2	6.2
2025-01-25 18:38:43.545129	189.0	27.6	-92.0	7.8
2025-01-25 18:38:44.701533	189.2	27.8	-92.2	6.3
2025-01-25 18:38:45.860819	189.4	28.0	-92.2	4.4
2025-01-25 18:38:47.013841	189.5	28.2	-92.2	3.5
2025-01-25 18:38:48.171246	189.7	28.4	-92.3	2.1
2025-01-25 18:38:49.327039	189.8	28.6	-92.1	1.8
2025-01-25 18:38:50.475532	190.0	28.8	-92.2	2.1
2025-01-25 18:38:51.632799	190.2	28.9	-92.2	3.7
2025-01-25 18:38:52.798682	190.3	29.1	-92.2	6.5
2025-01-25 18:38:53.952923	190.5	29.3	-92.3	8.9
2025-01-25 18:38:55.105446	190.7	29.5	-92.2	10.7
2025-01-25 18:38:56.263043	190.9	29.7	-92.0	10.4
2025-01-25 18:38:57.416849	191.0	29.9	-92.1	6.1
2025-01-25 18:38:58.569275	191.2	30.1	-92.0	5.8
2025-01-25 18:38:59.724656	191.4	30.3	-91.9	5.2
2025-01-25 18:39:00.874300	191.6	30.5	-92.3	7.9
2025-01-25 18:39:02.025073	191.8	30.7	-92.4	12.1
2025-01-25 18:39:03.180312	192.0	30.9	-92.4	12.0
2025-01-25 18:39:04.341696	192.2	31.1	-92.2	8.5
2025-01-25 18:39:05.499635	192.3	31.3	-92.4	3.6
2025-01-25 18:39:06.655135	192.5	31.5	-92.2	2.7
2025-01-25 18:39:07.815301	192.7	31.7	-91.9	2.0
2025-01-25 18:39:08.966576	192.9	31.9	-92.0	1.0
2025-01-25 18:39:10.111056	193.1	32.1	-91.9	4.4
2025-01-25 18:39:11.262703	193.3	32.3	-92.2	4.8
2025-01-25 18:39:12.418168	193.5	32.5	-92.1	7.3
2025-01-25 18:39:13.578477	193.8	32.7	-92.3	11.1
2025-01-25 18:39:14.734198	194.0	32.9	-92.2	13.0
2025-01-25 18:39:15.891537	194.2	33.1	-91.9	10.1
2025-01-25 18:39:17.051623	194.4	33.3	-92.2	10.1
2025-01-25 18:39:18.207314	194.6	33.6	-92.2	6.6
2025-01-25 18:39:19.369346	194.8	33.8	-92.2	8.9
2025-01-25 18:39:20.530824	195.1	34.0	-92.4	11.5
2025-01-25 18:39:21.689552	195.3	34.2	-92.3	11.8
2025-01-25 18:39:22.849898	195.5	34.4	-92.3	10.0
2025-01-25 18:39:24.005766	195.8	34.6	-92.4	8.0
2025-01-25 18:39:25.166458	196.0	34.9	-92.0	7.0
2025-01-25 18:39:26.318265	196.3	35.1	-91.9	2.5
2025-01-25 18:39:27.467456	196.5	35.3	-92.0	4.1
2025-01-25 18:39:28.629256	196.7	35.5	-92.0	4.5
2025-01-25 18:39:29.785777	197.0	35.7	-92.0	4.2
2025-01-25 18:39:30.945778	197.2	36.0	-92.2	6.6
2025-01-25 18:39:32.109108	197.5	36.2	-92.0	7.0
2025-01-25 18:39:33.260687	197.8	36.4	-92.0	11.8
2025-01-25 18:39:34.421679	198.0	36.6	-92.1	11.3
2025-01-25 18:39:35.573190	198.3	36.9	-92.0	10.0
2025-01-25 18:39:36.734007	198.6	37.1	-92.4	6.6
2025-01-25 18:39:37.884871	198.8	37.3	-92.1	8.9
2025-01-25 18:39:39.044932	199.1	37.5	-92.3	10.0
2025-01-25 18:39:40.199774	199.4	37.8	-92.2	10.2
2025-01-25 18:39:41.354296	199.7	38.0	-91.8	11.4
2025-01-25 18:39:42.510561	200.0	38.2	-92.0	12.1
2025-01-25 18:39:43.671275	200.3	38.5	-92.2	11.0
2025-01-25 18:39:44.821023	200.6	38.7	-92.0	7.3
2025-01-25 18:39:45.982308	200.9	38.9	-91.9	5.6
2025-01-25 18:39:47.144271	201.2	39.2	-91.9	3.9
2025-01-25 18:39:48.302474	201.5	39.4	-92.0	2.3
2025-01-25 18:39:49.453312	201.8	39.6	-91.9	3.9
2025-01-25 18:39:50.610146	202.1	39.9	-92.0	6.7
2025-01-25 18:39:51.768951	202.5	40.1	-92.2	7.7
2025-01-25 18:39:52.920977	202.8	40.3	-92.2	13.0
2025-01-25 18:39:54.074345	203.1	40.6	-92.1	17.2
2025-01-25 18:39:55.227343	203.5	40.8	-92.0	17.9
2025-01-25 18:39:56.386886	203.8	41.1	-92.2	15.0
2025-01-25 18:39:57.546316	204.2	41.3	-92.1	14.4
2025-01-25 18:39:58.700712	204.5	41.5	-91.8	8.8
2025-01-25 18:39:59.856781	204.9	41.8	-91.5	9.5
2025-01-25 18:40:01.007483	205.3	42.0	-91.5	12.6
2025-01-25 18:40:02.156766	205.6	42.2	-92.0	13.4
2025-01-25 18:40:03.306558	206.0	42.5	-92.1	15.7
2025-01-25 18:40:04.464952	206.4	42.7	-92.2	18.8
2025-01-25 18:40:05.627254	206.8	43.0	-91.8	17.2
2025-01-25 18:40:06.781223	207.2	43.2	-92.0	14.4
2025-01-25 18:40:07.934911	207.6	43.4	-92.0	10.5
2025-01-25 18:40:09.091443	208.0	43.7	-91.9	10.4
2025-01-25 18:40:10.244420	208.4	43.9	-91.8	3.8
2025-01-25 18:40:11.398269	208.8	44.2	-92.2	5.7
2025-01-25 18:40:12.556384	209.2	44.4	-92.0	7.5
2025-01-25 18:40:13.704865	209.6	44.6	-92.2	3.7
2025-01-25 18:40:14.860409	210.1	44.9	-92.0	8.5
2025-01-25 18:40:16.008498	210.5	45.1	-92.3	14.3
2025-01-25 18:40:17.167037	211.0	45.4	-92.1	16.1
2025-01-25 18:40:18.326395	211.4	45.6	-92.0	16.0
2025-01-25 18:40:19.478911	211.9	45.8	-92.4	16.8
2025-01-25 18:40:20.635941	212.4	46.1	-92.2	14.3
2025-01-25 18:40:21.790812	212.8	46.3	-92.2	8.1
2025-01-25 18:40:22.952600	213.3	46.6	-92.3	8.0
2025-01-25 18:40:24.104762	213.8	46.8	-92.4	9.1
2025-01-25 18:40:25.268718	214.3	47.0	-92.1	4.0
2025-01-25 18:40:26.426138	214.8	47.3	-92.4	11.6
2025-01-25 18:40:27.577765	215.3	47.5	-92.4	13.6
2025-01-25 18:40:28.739010	215.9	47.7	-92.2	13.4
2025-01-25 18:40:29.897560	216.4	47.9	-92.4	17.0
2025-01-25 18:40:31.057486	216.9	48.2	-92.4	17.0
2025-01-25 18:40:32.220899	217.5	48.4	-91.9	14.9
2025-01-25 18:40:33.374444	218.0	48.6	-92.1	13.4
2025-01-25 18:40:34.533485	218.6	48.8	-92.4	12.1
2025-01-25 18:40:35.688477	219.2	49.1	-92.4	8.9
2025-01-25 18:40:36.842150	219.7	49.3	-92.0	4.3
2025-01-25 18:40:37.997726	220.3	49.5	-92.3	6.1
2025-01-25 18:40:39.153509	220.9	49.7	-91.9	5.4
2025-01-25 18:40:40.307885	221.5	49.9	-91.7	3.1
2025-01-25 18:40:41.461709	222.1	50.1	-92.2	6.2
2025-01-25 18:40:42.623106	222.7	50.3	-92.1	10.4
2025-01-25 18:40:43.781961	223.4	50.6	-92.1	11.9
2025-01-25 18:40:44.941032	224.0	50.8	-91.9	14.7
2025-01-25 18:40:46.100383	224.6	51.0	-92.0	17.3
2025-01-25 18:40:47.253928	225.3	51.1	-91.9	18.7
2025-01-25 18:40:48.413868	226.0	51.3	-91.6	18.6
2025-01-25 18:40:49.564458	226.6	51.5	-92.0	18.0
2025-01-25 18:40:50.718461	227.3	51.7	-91.8	15.9
2025-01-25 18:40:51.875008	228.0	51.9	-92.4	16.1
2025-01-25 18:40:53.036897	228.7	52.1	-92.2	13.4
2025-01-25 18:40:54.190698	229.4	52.3	-91.9	10.0
2025-01-25 18:40:55.344025	230.1	52.4	-92.0	7.9
2025-01-25 18:40:56.498807	230.8	52.6	-91.9	11.7
2025-01-25 18:40:57.654333	231.5	52.8	-92.0	10.0
2025-01-25 18:40:58.803220	232.3	52.9	-92.1	6.6
2025-01-25 18:40:59.962240	233.0	53.1	-92.2	10.9
2025-01-25 18:41:01.115488	233.7	53.2	-92.1	14.7
2025-01-25 18:41:02.276824	234.5	53.4	-91.2	11.3
2025-01-25 18:41:03.429966	235.3	53.5	-92.1	16.1
2025-01-25 18:41:04.590773	236.0	53.7	-92.4	13.3
2025-01-25 18:41:05.763171	236.8	53.8	-92.2	10.0
2025-01-25 18:41:06.917163	237.6	53.9	-92.2	11.6
2025-01-25 18:41:08.070909	238.4	54.0	-92.3	9.4
2025-01-25 18:41:09.227385	239.2	54.2	-92.3	8.7
2025-01-25 18:41:10.382720	240.0	54.3	-91.8	10.0
2025-01-25 18:41:11.537498	240.8	54.4	-91.9	9.9
2025-01-25 18:41:12.693351	241.6	54.5	-92.0	4.6
2025-01-25 18:41:13.849174	242.5	54.6	-92.0	5.0
2025-01-25 18:41:15.003410	243.3	54.7	-92.4	3.6
2025-01-25 18:41:16.169190	244.1	54.8	-91.9	3.3
2025-01-25 18:41:17.321697	245.0	54.8	-92.0	2.9
2025-01-25 18:41:18.474302	245.8	54.9	-92.2	6.6
2025-01-25 18:41:19.636407	246.7	55.0	-91.9	3.1
2025-01-25 18:41:20.794823	247.5	55.0	-92.0	4.5
2025-01-25 18:41:21.947139	248.4	55.1	-92.5	2.8
2025-01-25 18:41:23.112001	249.2	55.1	-92.3	6.4
2025-01-25 18:41:24.367954	250.2	55.2	-92.0	2.9
2025-01-25 18:41:25.519263	251.0	55.2	-92.1	3.1
2025-01-25 18:41:26.674743	251.9	55.3	-91.9	3.9
2025-01-25 18:41:27.844400	252.8	55.3	-91.8	3.4
2025-01-25 18:41:28.990554	253.6	55.3	-92.2	3.2
2025-01-25 18:41:30.150428	254.5	55.3	-91.9	4.1
2025-01-25 18:41:31.304060	255.3	55.3	-91.9	7.6
2025-01-25 18:41:32.457816	256.2	55.3	-92.1	10.3
2025-01-25 18:41:33.622590	257.1	55.3	-92.1	16.4
2025-01-25 18:41:34.773026	258.0	55.3	-92.3	9.9
2025-01-25 18:41:35.935170	258.8	55.3	-91.7	11.1
2025-01-25 18:41:37.091471	259.7	55.2	-91.9	9.2
2025-01-25 18:41:38.253973	260.6	55.2	-92.1	9.4
2025-01-25 18:41:39.412500	261.4	55.2	-92.2	7.6
2025-01-25 18:41:40.564165	262.3	55.1	-91.7	11.1
2025-01-25 18:41:41.718909	263.1	55.1	-91.9	10.4
2025-01-25 18:41:42.875599	264.0	55.0	-92.3	17.1
2025-01-25 18:41:44.029672	264.8	54.9	-91.8	15.8
2025-01-25 18:41:45.190305	265.7	54.9	-91.5	13.1
2025-01-25 18:41:46.346087	266.5	54.8	-92.0	15.5
2025-01-25 18:41:47.503251	267.3	54.7	-92.0	12.3
2025-01-25 18:41:48.660076	268.2	54.6	-91.8	13.8
2025-01-25 18:41:49.813106	269.0	54.5	-92.1	13.5
2025-01-25 18:41:50.964391	269.8	54.4	-92.1	14.9
2025-01-25 18:41:52.118523	270.6	54.3	-92.0	15.7
2025-01-25 18:41:53.269686	271.4	54.2	-91.8	12.5
2025-01-25 18:41:54.425706	272.2	54.1	-92.1	10.4
2025-01-25 18:41:55.579618	273.0	54.0	-92.2	11.5
2025-01-25 18:41:56.735971	273.8	53.8	-92.4	12.9
2025-01-25 18:41:57.891214	274.6	53.7	-92.2	13.8
2025-01-25 18:41:59.040633	275.3	53.6	-92.3	13.0
2025-01-25 18:42:00.185866	276.1	53.4	-91.8	8.0
2025-01-25 18:42:01.337718	276.8	53.3	-92.1	9.4
2025-01-25 18:42:02.500306	277.6	53.1	-92.1	11.3
2025-01-25 18:42:03.652544	278.3	53.0	-92.1	9.0
2025-01-25 18:42:04.811511	279.1	52.8	-92.2	9.6
2025-01-25 18:42:05.969891	279.8	52.6	-92.3	8.8
2025-01-25 18:42:07.124593	280.5	52.5	-91.9	13.0
2025-01-25 18:42:08.273604	281.2	52.3	-91.8	9.3
2025-01-25 18:42:09.426375	281.9	52.1	-92.1	10.3
2025-01-25 18:42:10.582606	282.6	52.0	-92.2	7.9
2025-01-25 18:42:11.741923	283.3	51.8	-92.0	8.2
2025-01-25 18:42:12.901469	284.0	51.6	-92.0	9.3
2025-01-25 18:42:14.053895	284.7	51.4	-92.0	9.1
2025-01-25 18:42:15.214459	285.3	51.2	-92.2	7.8
2025-01-25 18:42:16.365261	286.0	51.0	-92.1	9.0
2025-01-25 18:42:17.518036	286.6	50.8	-92.3	11.5
2025-01-25 18:42:18.676562	287.2	50.6	-92.5	8.5
2025-01-25 18:42:19.826196	287.9	50.4	-92.7	8.4
2025-01-25 18:42:20.982350	288.5	50.2	-92.2	11.4
2025-01-25 18:42:22.142402	289.1	50.0	-92.4	9.4
2025-01-25 18:42:23.288317	289.7	49.8	-92.2	8.2
2025-01-25 18:42:24.444076	290.3	49.6	-92.3	12.4
2025-01-25 18:42:25.602645	290.9	49.4	-92.5	10.7
2025-01-25 18:42:26.756366	291.4	49.1	-92.4	10.5
2025-01-25 18:42:27.916956	292.0	48.9	-92.4	8.8
2025-01-25 18:42:29.077877	292.6	48.7	-91.9	5.3
2025-01-25 18:42:30.229934	293.1	48.5	-92.1	9.9
2025-01-25 18:42:31.386382	293.7	48.3	-92.3	10.3
2025-01-25 18:42:32.535785	294.2	48.0	-92.1	8.9
2025-01-25 18:42:33.710523	294.7	47.8	-92.2	16.1
2025-01-25 18:42:34.868115	295.3	47.6	-92.1	16.1
2025-01-25 18:42:36.033380	295.8	47.3	-92.0	13.1
2025-01-25 18:42:37.193596	296.3	47.1	-92.0	16.7
2025-01-25 18:42:38.341305	296.8	46.9	-91.6	15.2
2025-01-25 18:42:39.494713	297.3	46.6	-92.3	16.1
2025-01-25 18:42:40.651282	297.8	46.4	-92.5	15.2
2025-01-25 18:42:41.810834	298.2	46.2	-92.3	14.2
2025-01-25 18:42:42.967447	298.7	45.9	-91.6	19.5
2025-01-25 18:42:44.126251	299.2	45.7	-91.8	12.9
2025-01-25 18:42:45.287150	299.6	45.5	-92.1	10.9
2025-01-25 18:42:46.442613	300.1	45.2	-91.7	11.4
2025-01-25 18:42:47.592955	300.5	45.0	-91.6	10.4
2025-01-25 18:42:48.751742	301.0	44.8	-91.9	4.3
2025-01-25 18:42:49.912033	301.4	44.5	-91.6	8.5
2025-01-25 18:42:51.067581	301.8	44.3	-91.9	9.7
2025-01-25 18:42:52.233880	302.2	44.0	-91.8	7.2
2025-01-25 18:42:53.383101	302.7	43.8	-92.0	8.9
2025-01-25 18:42:54.534578	303.1	43.6	-92.1	9.6
2025-01-25 18:42:55.692728	303.5	43.3	-92.0	6.3
2025-01-25 18:42:56.855691	303.9	43.1	-91.8	4.9
2025-01-25 18:42:58.012543	304.2	42.8	-91.8	6.6
2025-01-25 18:42:59.172671	304.6	42.6	-91.8	6.3
2025-01-25 18:43:00.326677	305.0	42.4	-91.8	4.8
2025-01-25 18:43:01.492323	305.4	42.1	-91.7	9.6
2025-01-25 18:43:02.647270	305.7	41.9	-92.1	9.2
2025-01-25 18:43:03.804326	306.1	41.6	-92.3	6.2
2025-01-25 18:43:04.956264	306.5	41.4	-91.9	13.0
2025-01-25 18:43:06.116860	306.8	41.2	-91.8	12.5
2025-01-25 18:43:07.271073	307.2	40.9	-92.0	10.9
2025-01-25 18:43:08.435750	307.5	40.7	-92.1	12.2
2025-01-25 18:43:09.595586	307.8	40.5	-91.6	13.8
2025-01-25 18:43:10.750433	308.2	40.2	-91.8	14.2
2025-01-25 18:43:11.909749	308.5	40.0	-92.0	13.2
2025-01-25 18:43:13.066657	308.8	39.8	-91.8	16.2
2025-01-25 18:43:14.224133	309.1	39.5	-91.6	11.9
2025-01-25 18:43:15.383497	309.4	39.3	-92.0	10.8
2025-01-25 18:43:16.542530	309.8	39.1	-91.9	10.3
2025-01-25 18:43:17.700168	310.1	38.8	-91.8	8.4
2025-01-25 18:43:18.850797	310.4	38.6	-92.1	6.5
2025-01-25 18:43:20.005512	310.7	38.4	-92.4	7.6
2025-01-25 18:43:21.153588	310.9	38.1	-92.4	4.5
2025-01-25 18:43:22.311594	311.2	37.9	-92.4	3.5
2025-01-25 18:43:23.464732	311.5	37.7	-92.3	4.4
2025-01-25 18:43:24.612286	311.8	37.5	-92.4	4.0
2025-01-25 18:43:25.775345	312.1	37.2	-92.0	5.2
2025-01-25 18:43:26.932603	312.3	37.0	-91.8	6.5
2025-01-25 18:43:28.085239	312.6	36.8	-92.1	7.4
2025-01-25 18:43:29.240736	312.9	36.6	-92.3	6.4
2025-01-25 18:43:30.400756	313.1	36.3	-92.5	6.6
2025-01-25 18:43:31.560987	313.4	36.1	-92.3	9.3
2025-01-25 18:43:32.713272	313.6	35.9	-92.3	10.2
2025-01-25 18:43:33.896575	313.9	35.7	-92.2	13.6
2025-01-25 18:43:35.052943	314.2	35.4	-91.9	8.7
2025-01-25 18:43:36.210400	314.4	35.2	-91.9	12.0
2025-01-25 18:43:37.368738	314.6	35.0	-92.0	11.4
2025-01-25 18:43:38.525017	314.9	34.8	-92.2	12.0
2025-01-25 18:43:39.679111	315.1	34.6	-91.8	10.3
2025-01-25 18:43:40.835915	315.3	34.4	-92.2	7.3
2025-01-25 18:43:41.993442	315.6	34.1	-92.3	9.4
2025-01-25 18:43:43.149310	315.8	33.9	-92.3	8.7
2025-01-25 18:43:44.300130	316.0	33.7	-92.1	4.7
2025-01-25 18:43:45.454902	316.2	33.5	-92.1	7.6
2025-01-25 18:43:46.612135	316.5	33.3	-92.2	11.9
2025-01-25 18:43:47.769900	316.7	33.1	-92.3	6.5
2025-01-25 18:43:48.917962	316.9	32.9	-91.9	7.8
2025-01-25 18:43:50.083295	317.1	32.7	-92.1	11.4
2025-01-25 18:43:51.237416	317.3	32.5	-92.1	9.5
2025-01-25 18:43:52.392657	317.5	32.3	-92.1	9.5
2025-01-25 18:43:53.546486	317.7	32.1	-92.3	10.4
2025-01-25 18:43:54.698437	317.9	31.9	-92.5	9.2
2025-01-25 18:43:55.859861	318.1	31.7	-92.3	9.1
2025-01-25 18:43:57.012850	318.3	31.5	-92.2	8.2
2025-01-25 18:43:58.174154	318.5	31.3	-92.2	8.5
2025-01-25 18:43:59.326401	318.7	31.1	-92.4	6.8
2025-01-25 18:44:00.478216	318.9	30.9	-92.2	6.6
2025-01-25 18:44:01.630713	319.1	30.7	-92.4	6.2
2025-01-25 18:44:02.786045	319.2	30.5	-92.3	1.5
2025-01-25 18:44:03.939841	319.4	30.3	-92.2	4.7
2025-01-25 18:44:05.087182	319.6	30.1	-92.0	3.9
2025-01-25 18:44:06.238648	319.8	29.9	-92.1	3.7
2025-01-25 18:44:07.401499	320.0	29.7	-92.3	6.4
2025-01-25 18:44:08.556615	320.1	29.5	-91.8	9.8
2025-01-25 18:44:09.718153	320.3	29.3	-91.8	7.6
2025-01-25 18:44:10.865619	320.5	29.1	-91.8	11.0
2025-01-25 18:44:12.018184	320.6	28.9	-92.2	12.8
2025-01-25 18:44:13.170420	320.8	28.8	-92.0	14.5
2025-01-25 18:44:14.330714	321.0	28.6	-91.9	8.6
2025-01-25 18:44:15.482138	321.1	28.4	-92.2	10.7
2025-01-25 18:44:16.640030	321.3	28.2	-92.0	8.1
2025-01-25 18:44:17.803479	321.5	28.0	-92.2	6.5
2025-01-25 18:44:18.963966	321.6	27.8	-92.1	6.5
2025-01-25 18:44:20.114719	321.8	27.7	-92.3	8.4
2025-01-25 18:44:21.272965	321.9	27.5	-91.8	4.4
2025-01-25 18:44:22.434555	322.1	27.3	-92.0	4.7
2025-01-25 18:44:23.597937	322.2	27.1	-92.1	7.5
2025-01-25 18:44:24.747439	322.4	26.9	-91.9	3.2
2025-01-25 18:44:25.912543	322.5	26.8	-91.7	8.4
2025-01-25 18:44:27.061643	322.7	26.6	-92.0	11.8
2025-01-25 18:44:28.211308	322.8	26.4	-92.0	8.0
2025-01-25 18:44:29.366303	323.0	26.2	-92.2	13.3
2025-01-25 18:44:30.518659	323.1	26.1	-92.4	9.2
2025-01-25 18:44:31.678893	323.2	25.9	-92.2	5.1
2025-01-25 18:44:32.836961	323.4	25.7	-92.2	5.7
2025-01-25 18:44:33.996494	323.5	25.6	-92.0	6.1
2025-01-25 18:44:35.146700	323.6	25.4	-91.9	2.0
2025-01-25 18:44:36.304552	323.8	25.2	-92.1	2.6
2025-01-25 18:44:37.467043	323.9	25.1	-92.2	6.2
2025-01-25 18:44:38.629944	324.0	24.9	-92.0	4.4
2025-01-25 18:44:39.784700	324.2	24.7	-92.0	3.8
2025-01-25 18:44:40.942626	324.3	24.6	-92.3	8.3
2025-01-25 18:44:42.104225	324.4	24.4	-92.3	9.6
2025-01-25 18:44:43.250631	324.6	24.2	-92.0	8.5
2025-01-25 18:44:44.409211	324.7	24.1	-92.2	8.7
2025-01-25 18:44:45.564936	324.8	23.9	-92.1	12.0
2025-01-25 18:44:46.725322	324.9	23.8	-92.2	6.9
2025-01-25 18:44:47.890050	325.0	23.6	-92.2	11.6
2025-01-25 18:44:49.046257	325.2	23.4	-92.2	6.4
2025-01-25 18:44:50.209704	325.3	23.3	-92.2	3.0
2025-01-25 18:44:51.365059	325.4	23.1	-91.8	3.7
2025-01-25 18:44:52.520692	325.5	23.0	-92.4	2.4
2025-01-25 18:44:53.675591	325.6	22.8	-92.3	4.2
2025-01-25 18:44:54.828061	325.8	22.7	-92.5	1.7
2025-01-25 18:44:55.985068	325.9	22.5	-92.6	5.0
2025-01-25 18:44:57.144859	326.0	22.4	-92.3	8.3
2025-01-25 18:44:58.304031	326.1	22.2	-92.4	5.2
2025-01-25 18:44:59.462925	326.2	22.1	-92.5	13.9
2025-01-25 18:45:00.619870	326.3	21.9	-92.4	8.2
2025-01-25 18:45:01.776116	326.4	21.8	-92.2	6.4
2025-01-25 18:45:02.931906	326.5	21.6	-92.5	11.8
2025-01-25 18:45:04.084531	326.6	21.5	-91.9	7.7
2025-01-25 18:45:05.236128	326.7	21.3	-92.1	3.8
2025-01-25 18:45:06.388884	326.8	21.2	-92.2	4.0
2025-01-25 18:45:07.548266	326.9	21.0	-92.2	1.0
2025-01-25 18:45:08.711034	327.1	20.9	-92.0	1.8
2025-01-25 18:45:09.869886	327.2	20.7	-92.5	4.4
2025-01-25 18:45:11.030204	327.3	20.6	-92.1	4.6
2025-01-25 18:45:12.186766	327.4	20.4	-92.2	1.0
2025-01-25 18:45:13.346791	327.5	20.3	-92.1	1.8
2025-01-25 18:45:14.498313	327.6	20.2	-92.4	1.8
2025-01-25 18:45:15.649234	327.6	20.0	-92.6	2.2
2025-01-25 18:45:16.804603	327.7	19.9	-92.6	2.6
2025-01-25 18:45:17.969107	327.8	19.7	-92.5	2.4
2025-01-25 18:45:19.125759	327.9	19.6	-92.1	2.5
2025-01-25 18:45:20.276719	328.0	19.5	-92.3	3.5
2025-01-25 18:45:21.428101	328.1	19.3	-91.9	1.4
2025-01-25 18:45:22.582933	328.2	19.2	-92.4	3.5
2025-01-25 18:45:23.738186	328.3	19.1	-92.4	3.0
2025-01-25 18:45:24.895340	328.4	18.9	-92.4	2.7
2025-01-25 18:45:26.055372	328.5	18.8	-92.4	3.2
2025-01-25 18:45:27.207975	328.6	18.7	-92.3	2.0
2025-01-25 18:45:28.368190	328.7	18.5	-92.5	5.4
2025-01-25 18:45:29.545468	328.8	18.4	-92.4	4.3
2025-01-25 18:45:30.696035	328.8	18.3	-92.3	3.2
2025-01-25 18:45:31.858979	328.9	18.1	-92.1	2.7
2025-01-25 18:45:33.016482	329.0	18.0	-92.3	2.1
2025-01-25 18:45:34.174223	329.1	17.9	-91.9	1.9
2025-01-25 18:45:35.326932	329.2	17.7	-92.4	2.5
2025-01-25 18:45:36.486517	329.3	17.6	-92.3	2.9
2025-01-25 18:45:37.642822	329.4	17.5	-92.4	1.8
2025-01-25 18:45:38.800378	329.4	17.4	-92.4	1.7
2025-01-25 18:45:39.948567	329.5	17.2	-92.2	2.0
2025-01-25 18:45:41.107109	329.6	17.1	-92.4	1.3
2025-01-25 18:45:42.265477	329.7	17.0	-92.5	1.5
2025-01-25 18:45:43.430651	329.8	16.9	-92.5	2.4
2025-01-25 18:45:44.586221	329.8	16.7	-92.2	3.4
2025-01-25 18:45:45.740504	329.9	16.6	-92.4	1.6
2025-01-25 18:45:46.896559	330.0	16.5	-92.4	1.7
2025-01-25 18:45:48.056126	330.1	16.4	-92.1	3.0
2025-01-25 18:45:49.207067	330.2	16.2	-92.3	2.2
2025-01-25 18:45:50.364182	330.2	16.1	-92.4	3.7
2025-01-25 18:45:51.520257	330.3	16.0	-92.1	3.4
2025-01-25 18:45:52.671917	330.4	15.9	-92.5	1.4
2025-01-25 18:45:53.829753	330.5	15.8	-92.7	3.2
2025-01-25 18:45:54.986473	330.5	15.6	-92.7	3.3
2025-01-25 18:45:56.143467	330.6	15.5	-92.5	2.0
2025-01-25 18:45:57.305427	330.7	15.4	-92.5	9.0
2025-01-25 18:45:58.471953	330.8	15.3	-92.5	5.5
2025-01-25 18:45:59.625817	330.8	15.2	-92.6	6.0
2025-01-25 18:46:00.779060	330.9	15.1	-92.5	3.3
2025-01-25 18:46:01.938427	331.0	14.9	-92.2	3.7
2025-01-25 18:46:03.097305	331.0	14.8	-92.6	3.2
2025-01-25 18:46:04.249203	331.1	14.7	-92.4	1.9
2025-01-25 18:46:05.510219	331.2	14.6	-92.5	2.1
2025-01-25 18:46:06.649932	331.3	14.5	-92.5	3.9
#Closed at: 2025-01-25 18:37:08.800893