passes_logs/2025/01/25/LEX_Murmansk/LEX_Murmansk__20250125_085947_NOAA_18_rec.log

#Pass ID: 20250125_085947_NOAA 18
#Satellite: NOAA 18
#Configuration: NOAA 18
#Start time: 2025-01-25 08:59:42.264309

#LorettStation: 1.0.0 05.05.2024
#Station: LEX_Murmansk
#Location: 33.156738 lon 68.926811 lat
#TLE: 1 28654U 05018A   25024.15265828  .00000479  00000+0  27770-3 0  9994
#TLE: 2 28654  98.8553 105.1156 0014763 153.8328 206.3593 14.13495781 14472

#Time	Az	El	Level	SNR
2025-01-25 08:59:54.469386	30.4	16.2	-89.0	4.6
2025-01-25 08:59:55.627980	30.5	16.3	-89.0	5.9
2025-01-25 08:59:56.774188	30.6	16.5	-89.0	4.4
2025-01-25 08:59:57.929438	30.7	16.6	-88.4	4.3
2025-01-25 08:59:59.083299	30.8	16.7	-89.1	7.2
2025-01-25 09:00:00.233900	30.9	16.8	-88.9	5.1
2025-01-25 09:00:01.385497	31.0	16.9	-89.0	6.3
2025-01-25 09:00:02.536251	31.1	17.1	-88.9	6.0
2025-01-25 09:00:03.686721	31.2	17.2	-89.4	7.3
2025-01-25 09:00:04.840020	31.3	17.3	-89.0	9.1
2025-01-25 09:00:06.000802	31.4	17.4	-89.3	8.6
2025-01-25 09:00:07.152416	31.5	17.6	-89.3	7.1
2025-01-25 09:00:08.304920	31.6	17.7	-89.0	7.6
2025-01-25 09:00:09.450553	31.7	17.8	-89.0	3.7
2025-01-25 09:00:10.601081	31.8	17.9	-89.5	4.7
2025-01-25 09:00:11.750519	31.9	18.1	-89.3	6.6
2025-01-25 09:00:12.900561	32.0	18.2	-89.5	5.4
2025-01-25 09:00:14.055105	32.1	18.3	-89.8	8.1
2025-01-25 09:00:15.201923	32.2	18.4	-89.5	7.6
2025-01-25 09:00:16.356524	32.3	18.6	-89.6	4.6
2025-01-25 09:00:17.504687	32.4	18.7	-89.2	4.6
2025-01-25 09:00:18.656236	32.5	18.8	-89.3	5.7
2025-01-25 09:00:19.812573	32.6	19.0	-89.1	8.5
2025-01-25 09:00:20.970753	32.7	19.1	-89.3	7.3
2025-01-25 09:00:22.117531	32.8	19.2	-89.2	7.5
2025-01-25 09:00:23.270203	32.9	19.4	-89.1	8.4
2025-01-25 09:00:24.425297	33.0	19.5	-89.3	6.3
2025-01-25 09:00:25.582239	33.1	19.6	-89.4	4.1
2025-01-25 09:00:26.738095	33.3	19.8	-89.2	9.4
2025-01-25 09:00:27.889589	33.4	19.9	-89.7	5.2
2025-01-25 09:00:29.041017	33.5	20.0	-89.4	7.8
2025-01-25 09:00:30.195686	33.6	20.2	-89.1	8.3
2025-01-25 09:00:31.352519	33.7	20.3	-88.9	9.1
2025-01-25 09:00:32.504927	33.8	20.4	-89.2	6.8
2025-01-25 09:00:33.652590	33.9	20.6	-89.3	7.6
2025-01-25 09:00:34.810485	34.1	20.7	-89.7	7.9
2025-01-25 09:00:35.953611	34.2	20.9	-89.4	5.7
2025-01-25 09:00:37.103882	34.3	21.0	-89.2	9.8
2025-01-25 09:00:38.257558	34.4	21.1	-88.7	10.0
2025-01-25 09:00:39.407506	34.6	21.3	-89.4	7.8
2025-01-25 09:00:40.563227	34.7	21.4	-89.5	8.8
2025-01-25 09:00:41.715658	34.8	21.6	-89.4	7.3
2025-01-25 09:00:42.871410	34.9	21.7	-89.6	7.3
2025-01-25 09:00:44.023950	35.1	21.9	-89.5	5.5
2025-01-25 09:00:45.174294	35.2	22.0	-88.7	8.2
2025-01-25 09:00:46.328264	35.3	22.1	-89.3	9.8
2025-01-25 09:00:47.477836	35.5	22.3	-89.6	10.2
2025-01-25 09:00:48.626758	35.6	22.4	-89.2	11.2
2025-01-25 09:00:49.780733	35.7	22.6	-89.4	12.6
2025-01-25 09:00:50.924759	35.9	22.7	-89.4	9.5
2025-01-25 09:00:52.078944	36.0	22.9	-89.2	9.6
2025-01-25 09:00:53.230447	36.1	23.0	-89.3	12.0
2025-01-25 09:00:54.387573	36.3	23.2	-89.6	11.5
2025-01-25 09:00:55.539861	36.4	23.3	-89.3	12.1
2025-01-25 09:00:56.690251	36.5	23.5	-88.9	11.1
2025-01-25 09:00:57.843921	36.7	23.6	-89.1	7.9
2025-01-25 09:00:59.001063	36.8	23.8	-88.9	5.4
2025-01-25 09:01:00.153727	37.0	23.9	-89.6	10.6
2025-01-25 09:01:01.306470	37.1	24.1	-89.4	11.5
2025-01-25 09:01:02.462454	37.3	24.2	-89.6	5.9
2025-01-25 09:01:03.613022	37.4	24.4	-89.1	10.5
2025-01-25 09:01:04.763714	37.6	24.6	-89.6	11.6
2025-01-25 09:01:05.918254	37.7	24.7	-89.3	11.0
2025-01-25 09:01:07.070600	37.9	24.9	-89.2	12.1
2025-01-25 09:01:08.227064	38.0	25.0	-89.4	11.4
2025-01-25 09:01:09.385996	38.2	25.2	-89.4	10.3
2025-01-25 09:01:10.539576	38.4	25.4	-89.6	8.0
2025-01-25 09:01:11.688761	38.5	25.5	-89.4	12.1
2025-01-25 09:01:12.852444	38.7	25.7	-89.6	11.1
2025-01-25 09:01:14.002379	38.8	25.8	-89.4	13.0
2025-01-25 09:01:15.151714	39.0	26.0	-88.9	11.1
2025-01-25 09:01:16.297855	39.2	26.2	-89.3	9.6
2025-01-25 09:01:17.446654	39.3	26.3	-89.8	7.0
2025-01-25 09:01:18.597915	39.5	26.5	-89.2	7.4
2025-01-25 09:01:19.751728	39.7	26.7	-89.5	7.8
2025-01-25 09:01:20.900805	39.9	26.8	-89.8	5.8
2025-01-25 09:01:22.049001	40.0	27.0	-89.6	9.9
2025-01-25 09:01:23.196706	40.2	27.2	-89.4	12.5
2025-01-25 09:01:24.353748	40.4	27.3	-89.3	13.2
2025-01-25 09:01:25.508000	40.6	27.5	-89.8	9.9
2025-01-25 09:01:26.664755	40.8	27.7	-89.4	11.5
2025-01-25 09:01:27.822782	40.9	27.8	-89.1	8.8
2025-01-25 09:01:28.970849	41.1	28.0	-89.5	9.6
2025-01-25 09:01:30.123087	41.3	28.2	-88.7	10.0
2025-01-25 09:01:31.272285	41.5	28.4	-89.2	10.2
2025-01-25 09:01:32.434663	41.7	28.5	-88.9	9.5
2025-01-25 09:01:33.588467	41.9	28.7	-89.3	6.8
2025-01-25 09:01:34.744859	42.1	28.9	-89.5	9.1
2025-01-25 09:01:35.902470	42.3	29.1	-89.5	3.4
2025-01-25 09:01:37.063612	42.5	29.3	-89.3	5.9
2025-01-25 09:01:38.217880	42.7	29.4	-89.4	9.0
2025-01-25 09:01:39.366457	42.9	29.6	-89.2	7.5
2025-01-25 09:01:40.517723	43.1	29.8	-89.6	7.7
2025-01-25 09:01:41.672819	43.3	30.0	-89.7	11.7
2025-01-25 09:01:42.827842	43.5	30.2	-88.9	11.4
2025-01-25 09:01:43.978871	43.8	30.3	-89.0	4.9
2025-01-25 09:01:45.132737	44.0	30.5	-89.6	9.3
2025-01-25 09:01:46.282892	44.2	30.7	-89.2	11.4
2025-01-25 09:01:47.438994	44.4	30.9	-89.1	10.1
2025-01-25 09:01:48.596709	44.6	31.1	-89.5	11.0
2025-01-25 09:01:49.752455	44.9	31.3	-88.8	12.6
2025-01-25 09:01:50.904519	45.1	31.4	-89.1	12.1
2025-01-25 09:01:52.061701	45.3	31.6	-89.0	13.8
2025-01-25 09:01:53.216082	45.6	31.8	-89.9	12.3
2025-01-25 09:01:54.371233	45.8	32.0	-89.6	7.2
2025-01-25 09:01:55.523810	46.0	32.2	-89.9	7.5
2025-01-25 09:01:56.678259	46.3	32.4	-90.0	11.2
2025-01-25 09:01:57.834604	46.5	32.6	-89.9	10.5
2025-01-25 09:01:58.999808	46.8	32.8	-89.4	6.6
2025-01-25 09:02:00.151892	47.0	33.0	-89.2	13.7
2025-01-25 09:02:01.303223	47.3	33.2	-88.8	13.1
2025-01-25 09:02:02.437932	47.5	33.3	-89.5	14.9
2025-01-25 09:02:03.590338	47.8	33.5	-89.5	14.4
2025-01-25 09:02:04.740796	48.1	33.7	-89.2	14.8
2025-01-25 09:02:05.897899	48.3	33.9	-89.2	11.1
2025-01-25 09:02:07.056965	48.6	34.1	-89.1	10.3
2025-01-25 09:02:08.209212	48.9	34.3	-89.5	14.9
2025-01-25 09:02:09.361956	49.1	34.5	-89.4	13.7
2025-01-25 09:02:10.510762	49.4	34.7	-89.7	15.1
2025-01-25 09:02:11.674071	49.7	34.9	-89.9	13.8
2025-01-25 09:02:12.832382	50.0	35.1	-89.7	14.6
2025-01-25 09:02:13.998143	50.3	35.3	-89.7	12.7
2025-01-25 09:02:15.151505	50.6	35.5	-89.5	14.4
2025-01-25 09:02:16.306414	50.9	35.7	-89.8	13.2
2025-01-25 09:02:17.459978	51.2	35.9	-89.5	6.9
2025-01-25 09:02:18.609515	51.5	36.1	-89.1	11.6
2025-01-25 09:02:19.768423	51.8	36.3	-89.1	16.1
2025-01-25 09:02:20.928768	52.1	36.5	-89.5	12.0
2025-01-25 09:02:22.082600	52.4	36.7	-89.1	15.5
2025-01-25 09:02:23.237702	52.7	36.9	-89.2	17.8
2025-01-25 09:02:24.390379	53.1	37.1	-89.3	17.3
2025-01-25 09:02:25.544309	53.4	37.3	-89.6	16.8
2025-01-25 09:02:26.700213	53.7	37.5	-89.1	16.5
2025-01-25 09:02:27.857200	54.1	37.7	-89.5	13.4
2025-01-25 09:02:29.011176	54.4	37.9	-89.5	12.2
2025-01-25 09:02:30.162154	54.7	38.1	-89.5	16.4
2025-01-25 09:02:31.320197	55.1	38.3	-89.9	16.1
2025-01-25 09:02:32.475408	55.4	38.5	-89.4	15.1
2025-01-25 09:02:33.627663	55.8	38.7	-89.5	17.2
2025-01-25 09:02:34.782095	56.2	38.9	-89.6	15.7
2025-01-25 09:02:35.934729	56.5	39.1	-89.5	13.6
2025-01-25 09:02:37.087477	56.9	39.3	-89.2	12.5
2025-01-25 09:02:38.241985	57.3	39.6	-89.3	15.1
2025-01-25 09:02:39.394812	57.6	39.8	-89.3	9.3
2025-01-25 09:02:40.555357	58.0	40.0	-89.5	7.8
2025-01-25 09:02:41.707030	58.4	40.2	-89.7	15.7
2025-01-25 09:02:42.865265	58.8	40.4	-89.6	10.6
2025-01-25 09:02:44.017891	59.2	40.6	-89.6	10.8
2025-01-25 09:02:45.174326	59.6	40.8	-89.6	17.2
2025-01-25 09:02:46.338996	60.0	41.0	-89.1	16.1
2025-01-25 09:02:47.488712	60.4	41.2	-89.0	17.6
2025-01-25 09:02:48.637937	60.9	41.4	-89.1	16.1
2025-01-25 09:02:49.783389	61.3	41.6	-89.5	15.3
2025-01-25 09:02:50.937527	61.7	41.8	-89.2	13.8
2025-01-25 09:02:52.091881	62.1	42.0	-88.9	13.6
2025-01-25 09:02:53.245840	62.6	42.2	-89.4	15.1
2025-01-25 09:02:54.401362	63.0	42.3	-89.0	10.0
2025-01-25 09:02:55.549957	63.5	42.5	-89.2	8.9
2025-01-25 09:02:56.702926	63.9	42.7	-89.7	14.9
2025-01-25 09:02:57.852052	64.4	42.9	-89.8	12.7
2025-01-25 09:02:59.010174	64.8	43.1	-89.7	14.9
2025-01-25 09:03:00.156847	65.3	43.3	-89.6	13.8
2025-01-25 09:03:01.313424	65.8	43.5	-89.4	15.0
2025-01-25 09:03:02.464043	66.3	43.7	-89.4	11.4
2025-01-25 09:03:03.611581	66.8	43.9	-89.6	14.0
2025-01-25 09:03:04.769254	67.3	44.1	-89.7	17.0
2025-01-25 09:03:05.927772	67.8	44.2	-89.9	8.6
2025-01-25 09:03:07.082315	68.3	44.4	-89.5	8.7
2025-01-25 09:03:08.252941	68.8	44.6	-89.5	13.4
2025-01-25 09:03:09.402936	69.3	44.8	-89.5	9.1
2025-01-25 09:03:10.563022	69.8	45.0	-89.6	7.5
2025-01-25 09:03:11.717658	70.4	45.1	-89.7	14.4
2025-01-25 09:03:12.872496	70.9	45.3	-89.5	11.6
2025-01-25 09:03:14.022341	71.4	45.5	-89.6	12.8
2025-01-25 09:03:15.170865	72.0	45.7	-89.4	12.7
2025-01-25 09:03:16.319613	72.5	45.8	-89.9	12.3
2025-01-25 09:03:17.474497	73.1	46.0	-89.9	14.1
2025-01-25 09:03:18.626566	73.6	46.2	-90.0	12.6
2025-01-25 09:03:19.780353	74.2	46.3	-89.7	15.1
2025-01-25 09:03:20.936892	74.8	46.5	-89.9	10.7
2025-01-25 09:03:22.095396	75.4	46.6	-89.8	8.9
2025-01-25 09:03:23.248440	75.9	46.8	-89.6	13.7
2025-01-25 09:03:24.405242	76.5	46.9	-89.7	10.1
2025-01-25 09:03:25.566552	77.1	47.1	-89.7	8.4
2025-01-25 09:03:26.723962	77.8	47.2	-89.4	8.1
2025-01-25 09:03:27.880852	78.4	47.4	-89.5	10.7
2025-01-25 09:03:29.039332	79.0	47.5	-90.0	8.0
2025-01-25 09:03:30.196214	79.6	47.7	-89.8	15.6
2025-01-25 09:03:31.353184	80.2	47.8	-89.8	11.7
2025-01-25 09:03:32.506645	80.9	47.9	-89.8	10.6
2025-01-25 09:03:33.662158	81.5	48.0	-89.8	10.0
2025-01-25 09:03:34.822210	82.1	48.2	-89.5	10.0
2025-01-25 09:03:35.974748	82.8	48.3	-89.8	8.7
2025-01-25 09:03:37.134459	83.4	48.4	-89.2	12.5
2025-01-25 09:03:38.282421	84.1	48.5	-89.9	14.3
2025-01-25 09:03:39.437877	84.8	48.6	-90.1	6.3
2025-01-25 09:03:40.592138	85.4	48.7	-90.6	6.5
2025-01-25 09:03:41.747568	86.1	48.8	-90.3	10.4
2025-01-25 09:03:42.899923	86.8	48.9	-89.8	6.3
2025-01-25 09:03:44.047892	87.4	49.0	-90.1	4.2
2025-01-25 09:03:45.192554	88.1	49.1	-90.1	12.1
2025-01-25 09:03:46.352448	88.8	49.2	-89.9	5.1
2025-01-25 09:03:47.516123	89.5	49.3	-90.0	6.5
2025-01-25 09:03:48.674433	90.2	49.4	-89.9	7.1
2025-01-25 09:03:49.826726	90.9	49.4	-90.0	8.8
2025-01-25 09:03:50.974189	91.6	49.5	-89.5	7.3
2025-01-25 09:03:52.125331	92.3	49.6	-89.9	8.8
2025-01-25 09:03:53.287894	93.0	49.6	-89.7	8.3
2025-01-25 09:03:54.445628	93.7	49.7	-89.7	9.7
2025-01-25 09:03:55.592418	94.4	49.7	-89.9	6.7
2025-01-25 09:03:56.746586	95.1	49.8	-90.4	12.8
2025-01-25 09:03:57.899833	95.8	49.8	-90.2	14.0
2025-01-25 09:03:59.046484	96.6	49.9	-90.1	11.2
2025-01-25 09:04:00.196856	97.3	49.9	-89.7	14.8
2025-01-25 09:04:01.353588	98.0	49.9	-90.2	14.2
2025-01-25 09:04:02.511199	98.7	49.9	-90.3	11.2
2025-01-25 09:04:03.667101	99.4	50.0	-90.5	8.5
2025-01-25 09:04:04.816111	100.2	50.0	-90.4	15.5
2025-01-25 09:04:05.964460	100.9	50.0	-90.1	11.4
2025-01-25 09:04:07.122272	101.6	50.0	-89.8	12.2
2025-01-25 09:04:08.279790	102.3	50.0	-89.7	8.0
2025-01-25 09:04:09.441336	103.1	50.0	-89.9	5.8
2025-01-25 09:04:10.595241	103.8	50.0	-89.7	8.2
2025-01-25 09:04:11.759731	104.5	49.9	-89.6	8.5
2025-01-25 09:04:12.914995	105.2	49.9	-89.4	5.2
2025-01-25 09:04:14.074257	106.0	49.9	-89.6	6.0
2025-01-25 09:04:15.233433	106.7	49.9	-89.2	9.6
2025-01-25 09:04:16.390372	107.4	49.8	-89.5	5.1
2025-01-25 09:04:17.544779	108.1	49.8	-89.9	7.1
2025-01-25 09:04:18.698912	108.8	49.8	-89.8	9.8
2025-01-25 09:04:19.843348	109.5	49.7	-89.1	5.9
2025-01-25 09:04:20.997154	110.2	49.6	-89.1	6.0
2025-01-25 09:04:22.153302	111.0	49.6	-88.8	11.1
2025-01-25 09:04:23.311787	111.7	49.5	-89.0	10.5
2025-01-25 09:04:24.456474	112.4	49.5	-89.1	8.5
2025-01-25 09:04:25.609744	113.1	49.4	-89.3	15.2
2025-01-25 09:04:26.763335	113.8	49.3	-89.8	13.9
2025-01-25 09:04:27.922498	114.5	49.2	-90.0	10.8
2025-01-25 09:04:29.079990	115.1	49.2	-89.8	8.7
2025-01-25 09:04:30.235685	115.8	49.1	-89.3	13.4
2025-01-25 09:04:31.389835	116.5	49.0	-89.5	9.3
2025-01-25 09:04:32.538825	117.2	48.9	-89.7	8.3
2025-01-25 09:04:33.691029	117.9	48.8	-90.0	11.9
2025-01-25 09:04:34.843257	118.5	48.7	-89.5	9.0
2025-01-25 09:04:36.005758	119.2	48.6	-89.9	10.0
2025-01-25 09:04:37.162884	119.9	48.5	-89.4	12.2
2025-01-25 09:04:38.316272	120.5	48.3	-89.3	12.6
2025-01-25 09:04:39.466089	121.2	48.2	-89.5	11.3
2025-01-25 09:04:40.621682	121.8	48.1	-89.0	12.5
2025-01-25 09:04:41.776056	122.4	48.0	-89.5	13.2
2025-01-25 09:04:42.933300	123.1	47.8	-89.4	10.9
2025-01-25 09:04:44.079351	123.7	47.7	-89.5	10.7
2025-01-25 09:04:45.231356	124.3	47.6	-89.4	10.4
2025-01-25 09:04:46.390627	124.9	47.4	-89.4	7.6
2025-01-25 09:04:47.537528	125.6	47.3	-89.5	10.9
2025-01-25 09:04:48.689974	126.2	47.2	-89.1	13.0
2025-01-25 09:04:49.846462	126.8	47.0	-89.3	9.6
2025-01-25 09:04:51.002960	127.4	46.9	-89.6	9.4
2025-01-25 09:04:52.160039	128.0	46.7	-89.4	13.0
2025-01-25 09:04:53.310194	128.5	46.5	-89.4	11.1
2025-01-25 09:04:54.461310	129.1	46.4	-89.3	9.8
2025-01-25 09:04:55.620796	129.7	46.2	-89.4	10.8
2025-01-25 09:04:56.777793	130.3	46.1	-89.6	8.9
2025-01-25 09:04:57.933397	130.8	45.9	-89.5	5.8
2025-01-25 09:04:59.093163	131.4	45.7	-89.2	12.0
2025-01-25 09:05:00.240614	131.9	45.6	-89.5	9.4
2025-01-25 09:05:01.389777	132.5	45.4	-89.2	9.7
2025-01-25 09:05:02.535089	133.0	45.2	-89.1	8.9
2025-01-25 09:05:03.684367	133.5	45.0	-89.3	15.4
2025-01-25 09:05:04.833266	134.1	44.9	-89.1	13.5
2025-01-25 09:05:05.990655	134.6	44.7	-89.3	8.6
2025-01-25 09:05:07.140006	135.1	44.5	-89.4	15.5
2025-01-25 09:05:08.294678	135.6	44.3	-89.5	14.8
2025-01-25 09:05:09.446637	136.1	44.1	-89.4	6.8
2025-01-25 09:05:10.608579	136.6	43.9	-89.3	9.7
2025-01-25 09:05:11.759035	137.1	43.8	-89.4	12.8
2025-01-25 09:05:12.909253	137.6	43.6	-89.7	10.8
2025-01-25 09:05:14.062825	138.1	43.4	-89.5	10.2
2025-01-25 09:05:15.218693	138.5	43.2	-89.7	13.5
2025-01-25 09:05:16.371985	139.0	43.0	-89.7	9.6
2025-01-25 09:05:17.527266	139.5	42.8	-89.8	7.7
2025-01-25 09:05:18.685892	139.9	42.6	-89.6	10.2
2025-01-25 09:05:19.844004	140.4	42.4	-89.7	8.2
2025-01-25 09:05:20.995544	140.8	42.2	-89.8	7.7
2025-01-25 09:05:22.152413	141.3	42.0	-89.7	15.3
2025-01-25 09:05:23.312726	141.7	41.8	-89.3	14.9
2025-01-25 09:05:24.471994	142.2	41.6	-89.3	12.2
2025-01-25 09:05:25.631482	142.6	41.4	-89.8	16.3
2025-01-25 09:05:26.774436	143.0	41.2	-89.6	17.4
2025-01-25 09:05:27.928125	143.4	41.0	-89.5	15.9
2025-01-25 09:05:29.085512	143.8	40.8	-89.3	15.9
2025-01-25 09:05:30.237047	144.2	40.6	-89.7	17.6
2025-01-25 09:05:31.387691	144.6	40.4	-89.8	17.4
2025-01-25 09:05:32.535121	145.0	40.2	-89.8	18.9
2025-01-25 09:05:33.694228	145.4	40.0	-89.7	19.1
2025-01-25 09:05:34.848915	145.8	39.8	-89.6	16.1
2025-01-25 09:05:36.001675	146.2	39.6	-89.5	16.9
2025-01-25 09:05:37.150667	146.6	39.4	-89.3	16.5
2025-01-25 09:05:38.306994	147.0	39.2	-89.7	16.8
2025-01-25 09:05:39.461599	147.3	39.0	-89.7	11.7
2025-01-25 09:05:40.614980	147.7	38.8	-90.2	12.1
2025-01-25 09:05:41.771124	148.0	38.6	-90.0	11.5
2025-01-25 09:05:42.914903	148.4	38.4	-90.0	9.7
2025-01-25 09:05:44.067534	148.7	38.2	-89.7	8.2
2025-01-25 09:05:45.222371	149.1	38.0	-89.9	12.7
2025-01-25 09:05:46.379235	149.4	37.8	-90.0	8.4
2025-01-25 09:05:47.541644	149.8	37.6	-90.5	8.7
2025-01-25 09:05:48.700265	150.1	37.4	-90.1	12.8
2025-01-25 09:05:49.849588	150.4	37.2	-90.0	10.1
2025-01-25 09:05:50.990684	150.8	36.9	-89.8	9.8
2025-01-25 09:05:52.111324	151.1	36.8	-90.0	13.9
2025-01-25 09:05:53.232649	151.4	36.6	-89.5	13.0
2025-01-25 09:05:54.354102	151.7	36.4	-90.0	8.6
2025-01-25 09:05:55.476929	152.0	36.2	-90.0	7.4
2025-01-25 09:05:56.600005	152.3	36.0	-90.0	7.5
2025-01-25 09:05:57.719623	152.6	35.8	-90.0	9.0
2025-01-25 09:05:58.840670	152.9	35.6	-89.9	8.8
2025-01-25 09:05:59.965166	153.2	35.4	-90.0	11.3
2025-01-25 09:06:01.091154	153.5	35.2	-89.8	10.3
2025-01-25 09:06:02.245119	153.7	35.0	-90.0	11.7
2025-01-25 09:06:03.392495	154.0	34.8	-89.6	11.3
2025-01-25 09:06:04.556564	154.3	34.6	-89.9	9.4
2025-01-25 09:06:05.697213	154.6	34.4	-90.2	11.8
2025-01-25 09:06:06.854200	154.9	34.2	-90.2	10.3
2025-01-25 09:06:08.009478	155.1	34.0	-90.1	9.1
2025-01-25 09:06:09.165213	155.4	33.8	-89.8	12.4
2025-01-25 09:06:10.322111	155.7	33.6	-90.1	13.2
2025-01-25 09:06:11.476634	155.9	33.4	-90.2	9.0
2025-01-25 09:06:12.627548	156.2	33.2	-89.8	11.0
2025-01-25 09:06:13.787067	156.5	33.0	-89.8	7.6
2025-01-25 09:06:14.938909	156.7	32.8	-89.6	4.9
2025-01-25 09:06:16.092045	157.0	32.6	-89.9	5.1
2025-01-25 09:06:17.244850	157.2	32.4	-89.6	9.9
2025-01-25 09:06:18.397184	157.5	32.2	-89.9	8.7
2025-01-25 09:06:19.552765	157.7	32.0	-89.7	9.8
2025-01-25 09:06:20.712064	157.9	31.9	-89.5	12.3
2025-01-25 09:06:21.868401	158.2	31.7	-89.7	11.6
2025-01-25 09:06:23.023227	158.4	31.5	-89.7	13.3
2025-01-25 09:06:24.173191	158.7	31.3	-90.1	13.2
2025-01-25 09:06:25.324782	158.9	31.1	-90.1	11.4
2025-01-25 09:06:26.482066	159.1	30.9	-90.1	10.7
2025-01-25 09:06:27.628258	159.3	30.7	-90.1	12.1
2025-01-25 09:06:28.779483	159.6	30.5	-89.9	9.8
2025-01-25 09:06:29.930772	159.8	30.4	-90.2	8.1
2025-01-25 09:06:31.085003	160.0	30.2	-90.1	8.4
2025-01-25 09:06:32.236617	160.2	30.0	-90.1	8.8
2025-01-25 09:06:33.385298	160.4	29.8	-89.7	8.7
2025-01-25 09:06:34.546647	160.6	29.6	-90.0	8.3
2025-01-25 09:06:35.694759	160.8	29.4	-89.9	9.0
2025-01-25 09:06:36.849499	161.0	29.3	-89.8	8.3
2025-01-25 09:06:38.000540	161.2	29.1	-90.3	8.1
2025-01-25 09:06:39.148209	161.4	28.9	-89.6	9.1
2025-01-25 09:06:40.300627	161.6	28.7	-89.9	10.1
2025-01-25 09:06:41.451658	161.8	28.6	-90.0	9.3
2025-01-25 09:06:42.606648	162.0	28.4	-89.9	10.3
2025-01-25 09:06:43.763889	162.2	28.2	-89.6	9.4
2025-01-25 09:06:44.928177	162.4	28.0	-89.5	10.8
2025-01-25 09:06:46.090285	162.6	27.8	-90.1	11.2
2025-01-25 09:06:47.240297	162.8	27.7	-90.1	12.6
2025-01-25 09:06:48.393564	163.0	27.5	-89.8	10.6
2025-01-25 09:06:49.549688	163.2	27.3	-90.2	7.8
2025-01-25 09:06:50.703181	163.3	27.2	-89.9	6.8
2025-01-25 09:06:51.859013	163.5	27.0	-89.6	5.9
2025-01-25 09:06:53.015877	163.7	26.8	-89.8	5.3
2025-01-25 09:06:54.172265	163.9	26.6	-89.6	6.0
2025-01-25 09:06:55.324721	164.1	26.5	-89.4	7.4
2025-01-25 09:06:56.472082	164.2	26.3	-89.7	7.0
2025-01-25 09:06:57.626797	164.4	26.1	-89.7	11.3
2025-01-25 09:06:58.776564	164.6	26.0	-86.7	7.4
2025-01-25 09:06:59.930323	164.7	25.8	-86.7	7.9
2025-01-25 09:07:01.077416	164.9	25.7	-89.0	11.0
2025-01-25 09:07:02.232314	165.1	25.5	-89.6	10.5
2025-01-25 09:07:03.377662	165.2	25.3	-89.7	9.2
2025-01-25 09:07:04.534733	165.4	25.2	-89.9	9.2
2025-01-25 09:07:05.685368	165.5	25.0	-89.4	10.5
2025-01-25 09:07:06.838893	165.7	24.8	-89.1	10.1
2025-01-25 09:07:07.986969	165.8	24.7	-89.7	7.5
2025-01-25 09:07:09.144593	166.0	24.5	-89.8	11.9
2025-01-25 09:07:10.298595	166.2	24.4	-89.8	10.2
2025-01-25 09:07:11.446288	166.3	24.2	-89.9	7.4
2025-01-25 09:07:12.605104	166.5	24.1	-90.3	11.0
2025-01-25 09:07:13.748746	166.6	23.9	-90.1	9.0
2025-01-25 09:07:14.911831	166.7	23.7	-89.8	6.9
2025-01-25 09:07:16.064647	166.9	23.6	-89.6	7.9
2025-01-25 09:07:17.225503	167.0	23.4	-90.1	8.1
2025-01-25 09:07:18.377312	167.2	23.3	-89.9	8.4
2025-01-25 09:07:19.528879	167.3	23.1	-90.2	9.9
2025-01-25 09:07:20.685650	167.5	23.0	-90.0	11.3
2025-01-25 09:07:21.841479	167.6	22.8	-89.8	6.9
2025-01-25 09:07:22.990348	167.7	22.7	-89.7	7.3
2025-01-25 09:07:24.141498	167.9	22.5	-89.6	6.4
2025-01-25 09:07:25.294374	168.0	22.4	-89.8	8.0
2025-01-25 09:07:26.443116	168.1	22.2	-89.8	4.9
2025-01-25 09:07:27.592517	168.3	22.1	-89.7	6.1
2025-01-25 09:07:28.747812	168.4	21.9	-89.6	4.2
2025-01-25 09:07:29.896637	168.5	21.8	-90.0	5.7
2025-01-25 09:07:31.051525	168.7	21.6	-89.9	4.5
2025-01-25 09:07:32.209475	168.8	21.5	-90.1	6.3
2025-01-25 09:07:33.356615	168.9	21.4	-89.3	7.2
2025-01-25 09:07:34.508296	169.0	21.2	-89.3	6.7
2025-01-25 09:07:35.659525	169.2	21.1	-89.6	7.7
2025-01-25 09:07:36.815158	169.3	20.9	-89.8	8.8
2025-01-25 09:07:37.968215	169.4	20.8	-89.8	6.4
2025-01-25 09:07:39.120364	169.5	20.6	-89.9	8.7
2025-01-25 09:07:40.279366	169.7	20.5	-89.9	9.0
2025-01-25 09:07:41.441262	169.8	20.4	-89.4	7.5
2025-01-25 09:07:42.592816	169.9	20.2	-89.7	7.4
2025-01-25 09:07:43.738840	170.0	20.1	-89.6	5.8
2025-01-25 09:07:44.892120	170.1	19.9	-90.0	5.7
2025-01-25 09:07:46.039613	170.2	19.8	-89.8	3.0
2025-01-25 09:07:47.191746	170.4	19.7	-89.9	6.9
2025-01-25 09:07:48.339867	170.5	19.5	-89.5	7.6
2025-01-25 09:07:49.483294	170.6	19.4	-89.5	7.2
2025-01-25 09:07:50.638757	170.7	19.3	-89.5	6.3
2025-01-25 09:07:51.799438	170.8	19.1	-89.6	5.9
2025-01-25 09:07:52.954931	170.9	19.0	-89.7	5.6
2025-01-25 09:07:54.100691	171.0	18.9	-89.3	6.4
2025-01-25 09:07:55.253914	171.1	18.7	-89.5	6.5
2025-01-25 09:07:56.405897	171.2	18.6	-89.7	5.1
2025-01-25 09:07:57.563312	171.3	18.5	-89.5	6.0
2025-01-25 09:07:58.707337	171.4	18.4	-89.1	6.9
2025-01-25 09:07:59.847692	171.6	18.2	-89.7	5.7
2025-01-25 09:08:00.991623	171.7	18.1	-90.3	6.3
2025-01-25 09:08:02.140444	171.8	18.0	-89.4	7.4
2025-01-25 09:08:03.296257	171.9	17.8	-89.5	5.7
2025-01-25 09:08:04.447601	172.0	17.7	-89.4	6.4
2025-01-25 09:08:05.603935	172.1	17.6	-89.4	5.1
2025-01-25 09:08:06.759666	172.2	17.5	-89.1	7.0
2025-01-25 09:08:07.919186	172.3	17.3	-89.8	4.6
2025-01-25 09:08:09.068654	172.4	17.2	-89.2	4.9
2025-01-25 09:08:10.225593	172.5	17.1	-89.7	3.5
2025-01-25 09:08:11.375684	172.6	17.0	-89.9	4.2
2025-01-25 09:08:12.529190	172.6	16.8	-89.5	3.1
2025-01-25 09:08:13.681567	172.7	16.7	-89.6	4.7
2025-01-25 09:08:14.831647	172.8	16.6	-89.3	5.4
2025-01-25 09:08:15.989792	172.9	16.5	-89.5	5.5
2025-01-25 09:08:17.137761	173.0	16.3	-89.1	5.9
2025-01-25 09:08:18.289000	173.1	16.2	-89.2	6.0
2025-01-25 09:08:19.435935	173.2	16.1	-89.5	5.9
2025-01-25 09:08:20.584032	173.3	16.0	-90.0	6.8
2025-01-25 09:08:21.735998	173.4	15.9	-89.0	4.7
2025-01-25 09:08:22.889413	173.5	15.8	-89.4	5.0
2025-01-25 09:08:24.038935	173.6	15.6	-89.7	5.1
2025-01-25 09:08:25.187926	173.7	15.5	-89.7	6.2
2025-01-25 09:08:26.341111	173.7	15.4	-89.9	4.9
2025-01-25 09:08:27.490656	173.8	15.3	-89.3	4.8
2025-01-25 09:08:28.647980	173.9	15.2	-89.4	5.4
2025-01-25 09:08:29.804126	174.0	15.1	-89.7	4.6
2025-01-25 09:08:30.953293	174.1	14.9	-90.0	5.0
2025-01-25 09:08:32.102217	174.2	14.8	-89.6	6.8
2025-01-25 09:08:33.256069	174.2	14.7	-89.7	7.7
2025-01-25 09:08:34.407301	174.3	14.6	-89.5	7.7
2025-01-25 09:08:35.550257	174.4	14.5	-89.9	6.8
#Closed at: 2025-01-25 08:59:47.268261