passes_logs/2025/01/25/LEX_Murmansk/LEX_Murmansk__20250125_185937_NOAA_18_rec.log

#Pass ID: 20250125_185937_NOAA 18
#Satellite: NOAA 18
#Configuration: NOAA 18
#Start time: 2025-01-25 18:59:33.002742

#LorettStation: 1.0.0 05.05.2024
#Station: LEX_Murmansk
#Location: 33.156738 lon 68.926811 lat
#TLE: 1 28654U 05018A   25024.86051977  .00000457  00000+0  26618-3 0  9996
#TLE: 2 28654  98.8552 105.8163 0014791 151.8936 208.3038 14.13496337 14496

#Time	Az	El	Level	SNR
2025-01-25 18:59:45.169930	155.6	16.3	-91.8	4.8
2025-01-25 18:59:46.334366	155.6	16.4	-91.7	4.6
2025-01-25 18:59:47.500849	155.6	16.6	-91.9	4.0
2025-01-25 18:59:48.666701	155.7	16.7	-92.0	5.3
2025-01-25 18:59:49.836583	155.7	16.8	-92.1	5.2
2025-01-25 18:59:50.999418	155.7	17.0	-92.1	6.2
2025-01-25 18:59:52.171168	155.7	17.1	-91.9	5.0
2025-01-25 18:59:53.334001	155.7	17.2	-91.9	3.8
2025-01-25 18:59:54.502971	155.7	17.4	-92.1	5.9
2025-01-25 18:59:55.666738	155.7	17.5	-92.2	4.9
2025-01-25 18:59:56.829966	155.7	17.6	-92.1	5.2
2025-01-25 18:59:57.996496	155.8	17.8	-92.1	5.9
2025-01-25 18:59:59.155916	155.8	17.9	-91.4	5.0
2025-01-25 19:00:00.315444	155.8	18.1	-92.0	4.0
2025-01-25 19:00:01.479058	155.8	18.2	-92.1	6.7
2025-01-25 19:00:02.645015	155.8	18.3	-91.7	5.3
2025-01-25 19:00:03.805872	155.8	18.5	-91.8	5.0
2025-01-25 19:00:04.969804	155.8	18.6	-91.9	4.5
2025-01-25 19:00:06.129206	155.8	18.8	-91.6	5.6
2025-01-25 19:00:07.292911	155.9	18.9	-91.9	6.7
2025-01-25 19:00:08.449833	155.9	19.0	-91.7	4.0
2025-01-25 19:00:09.615273	155.9	19.2	-92.1	6.6
2025-01-25 19:00:10.784210	155.9	19.3	-92.1	5.3
2025-01-25 19:00:11.949657	155.9	19.5	-92.0	5.5
2025-01-25 19:00:13.120260	155.9	19.6	-91.7	5.3
2025-01-25 19:00:14.277833	155.9	19.8	-91.7	7.5
2025-01-25 19:00:15.444037	156.0	19.9	-91.8	3.9
2025-01-25 19:00:16.607225	156.0	20.1	-91.8	7.1
2025-01-25 19:00:17.773553	156.0	20.2	-92.4	6.9
2025-01-25 19:00:18.935386	156.0	20.4	-92.1	3.4
2025-01-25 19:00:20.099140	156.0	20.5	-92.1	7.8
2025-01-25 19:00:21.263973	156.0	20.7	-91.8	6.9
2025-01-25 19:00:22.426688	156.0	20.8	-92.2	8.3
2025-01-25 19:00:23.595070	156.1	21.0	-91.9	7.2
2025-01-25 19:00:24.755231	156.1	21.1	-92.0	7.6
2025-01-25 19:00:25.911287	156.1	21.3	-92.0	4.5
2025-01-25 19:00:27.082274	156.1	21.5	-92.1	8.1
2025-01-25 19:00:28.248174	156.1	21.6	-92.0	6.8
2025-01-25 19:00:29.404000	156.1	21.8	-92.3	7.2
2025-01-25 19:00:30.567991	156.2	21.9	-92.3	5.8
2025-01-25 19:00:31.724909	156.2	22.1	-92.1	7.5
2025-01-25 19:00:32.880381	156.2	22.3	-92.4	5.6
2025-01-25 19:00:34.039220	156.2	22.4	-92.3	2.7
2025-01-25 19:00:35.206194	156.2	22.6	-92.2	5.7
2025-01-25 19:00:36.371150	156.2	22.8	-92.2	7.4
2025-01-25 19:00:37.529722	156.3	22.9	-92.2	3.9
2025-01-25 19:00:38.695251	156.3	23.1	-91.9	5.3
2025-01-25 19:00:39.861496	156.3	23.3	-92.0	5.9
2025-01-25 19:00:41.019481	156.3	23.4	-92.0	4.2
2025-01-25 19:00:42.187105	156.3	23.6	-91.7	6.1
2025-01-25 19:00:43.351535	156.3	23.8	-91.9	6.5
2025-01-25 19:00:44.520876	156.4	24.0	-92.2	8.3
2025-01-25 19:00:45.685466	156.4	24.1	-92.2	5.8
2025-01-25 19:00:46.850278	156.4	24.3	-92.2	8.8
2025-01-25 19:00:48.013587	156.4	24.5	-92.0	6.3
2025-01-25 19:00:49.176303	156.4	24.7	-91.9	8.8
2025-01-25 19:00:50.343991	156.4	24.8	-91.8	9.1
2025-01-25 19:00:51.498820	156.5	25.0	-92.0	8.2
2025-01-25 19:00:52.667227	156.5	25.2	-92.4	9.2
2025-01-25 19:00:53.828416	156.5	25.4	-92.1	10.7
2025-01-25 19:00:54.990091	156.5	25.6	-92.2	10.7
2025-01-25 19:00:56.153633	156.5	25.8	-92.1	12.4
2025-01-25 19:00:57.318948	156.6	26.0	-91.8	12.0
2025-01-25 19:00:58.484332	156.6	26.1	-92.0	10.2
2025-01-25 19:00:59.643202	156.6	26.3	-92.3	11.8
2025-01-25 19:01:00.801336	156.6	26.5	-92.1	11.8
2025-01-25 19:01:01.960470	156.6	26.7	-92.4	10.9
2025-01-25 19:01:03.138632	156.7	26.9	-92.1	10.0
2025-01-25 19:01:04.305141	156.7	27.1	-92.0	10.1
2025-01-25 19:01:05.467501	156.7	27.3	-92.2	5.1
2025-01-25 19:01:06.634414	156.7	27.5	-92.1	8.6
2025-01-25 19:01:07.801721	156.7	27.7	-91.8	9.4
2025-01-25 19:01:08.965155	156.8	27.9	-92.4	9.7
2025-01-25 19:01:10.120289	156.8	28.1	-91.8	12.1
2025-01-25 19:01:11.285362	156.8	28.3	-91.6	11.6
2025-01-25 19:01:12.445974	156.8	28.5	-92.1	12.2
2025-01-25 19:01:13.607795	156.8	28.7	-92.5	13.7
2025-01-25 19:01:14.772205	156.9	28.9	-92.3	14.5
2025-01-25 19:01:15.940840	156.9	29.1	-92.3	14.2
2025-01-25 19:01:17.104203	156.9	29.4	-91.8	15.3
2025-01-25 19:01:18.271165	156.9	29.6	-91.8	14.9
2025-01-25 19:01:19.436050	157.0	29.8	-92.3	10.1
2025-01-25 19:01:20.600016	157.0	30.0	-90.8	11.1
2025-01-25 19:01:21.777863	157.0	30.2	-91.0	13.1
2025-01-25 19:01:22.936751	157.0	30.4	-90.9	7.2
2025-01-25 19:01:24.105208	157.1	30.7	-90.5	13.0
2025-01-25 19:01:25.248514	157.1	30.9	-90.7	13.2
2025-01-25 19:01:26.369046	157.1	31.1	-90.8	12.5
2025-01-25 19:01:27.489076	157.1	31.3	-90.6	11.4
2025-01-25 19:01:28.611054	157.1	31.5	-90.9	12.6
2025-01-25 19:01:29.732162	157.2	31.8	-91.0	14.8
2025-01-25 19:01:30.852796	157.2	32.0	-92.3	15.0
2025-01-25 19:01:31.975170	157.2	32.2	-92.3	12.4
2025-01-25 19:01:33.096058	157.2	32.4	-92.1	13.9
2025-01-25 19:01:34.221474	157.3	32.7	-91.8	13.6
2025-01-25 19:01:35.347149	157.3	32.9	-91.8	11.8
2025-01-25 19:01:36.513292	157.3	33.1	-91.9	9.2
2025-01-25 19:01:37.668958	157.4	33.4	-92.3	13.0
2025-01-25 19:01:38.825542	157.4	33.6	-92.3	13.4
2025-01-25 19:01:39.972490	157.4	33.9	-92.4	7.0
2025-01-25 19:01:41.128932	157.4	34.1	-92.4	12.1
2025-01-25 19:01:42.295101	157.5	34.4	-92.0	12.9
2025-01-25 19:01:43.459655	157.5	34.6	-92.3	12.3
2025-01-25 19:01:44.617659	157.5	34.9	-92.3	13.4
2025-01-25 19:01:45.799438	157.6	35.1	-92.7	13.8
2025-01-25 19:01:46.965152	157.6	35.4	-92.6	10.9
2025-01-25 19:01:48.134924	157.6	35.7	-92.2	13.0
2025-01-25 19:01:49.291372	157.7	35.9	-92.0	11.3
2025-01-25 19:01:50.456660	157.7	36.2	-92.0	9.3
2025-01-25 19:01:51.619641	157.7	36.4	-92.2	10.4
2025-01-25 19:01:52.779753	157.7	36.7	-92.1	11.2
2025-01-25 19:01:53.950701	157.8	37.0	-92.5	10.2
2025-01-25 19:01:55.111838	157.8	37.3	-92.4	10.3
2025-01-25 19:01:56.275163	157.8	37.5	-92.3	11.2
2025-01-25 19:01:57.437064	157.9	37.8	-92.5	4.8
2025-01-25 19:01:58.599893	157.9	38.1	-92.3	8.6
2025-01-25 19:01:59.756164	158.0	38.4	-92.7	14.2
2025-01-25 19:02:00.911690	158.0	38.7	-92.4	11.3
2025-01-25 19:02:02.040883	158.0	38.9	-92.3	12.9
2025-01-25 19:02:03.190197	158.1	39.2	-92.3	9.2
2025-01-25 19:02:04.337745	158.1	39.5	-92.0	10.2
2025-01-25 19:02:05.481433	158.1	39.8	-92.4	8.5
2025-01-25 19:02:06.628678	158.2	40.1	-92.8	14.4
2025-01-25 19:02:07.790842	158.2	40.4	-92.4	13.8
2025-01-25 19:02:08.948646	158.3	40.7	-92.6	12.9
2025-01-25 19:02:10.102620	158.3	41.0	-92.4	8.2
2025-01-25 19:02:11.264136	158.3	41.3	-92.3	10.0
2025-01-25 19:02:12.429533	158.4	41.6	-92.5	8.8
2025-01-25 19:02:13.587731	158.4	41.9	-92.4	9.5
2025-01-25 19:02:14.748095	158.5	42.3	-92.5	14.9
2025-01-25 19:02:15.885942	158.5	42.6	-92.0	6.9
2025-01-25 19:02:17.035051	158.6	42.9	-92.4	8.4
2025-01-25 19:02:18.183982	158.6	43.2	-92.1	15.6
2025-01-25 19:02:19.334196	158.7	43.5	-92.0	15.7
2025-01-25 19:02:20.493151	158.7	43.8	-92.1	16.1
2025-01-25 19:02:21.652003	158.8	44.2	-92.5	12.9
2025-01-25 19:02:22.804345	158.8	44.5	-92.3	16.4
2025-01-25 19:02:23.958232	158.9	44.8	-92.3	13.2
2025-01-25 19:02:25.116582	158.9	45.2	-92.3	14.8
2025-01-25 19:02:26.284845	159.0	45.5	-92.1	13.3
2025-01-25 19:02:27.449046	159.0	45.9	-92.4	11.0
2025-01-25 19:02:28.609570	159.1	46.2	-92.2	15.6
2025-01-25 19:02:29.771058	159.1	46.6	-92.0	14.7
2025-01-25 19:02:30.935271	159.2	46.9	-92.2	15.8
2025-01-25 19:02:32.100296	159.2	47.3	-92.1	12.7
2025-01-25 19:02:33.266221	159.3	47.6	-91.9	10.7
2025-01-25 19:02:34.430755	159.4	48.0	-92.2	4.6
2025-01-25 19:02:35.591113	159.4	48.4	-92.1	9.1
2025-01-25 19:02:36.751926	159.5	48.7	-92.2	11.5
2025-01-25 19:02:37.917102	159.6	49.1	-92.2	8.4
2025-01-25 19:02:39.072851	159.6	49.5	-92.1	12.6
2025-01-25 19:02:40.226527	159.7	49.9	-91.9	14.2
2025-01-25 19:02:41.390673	159.8	50.3	-92.0	14.3
2025-01-25 19:02:42.553718	159.8	50.6	-92.3	16.2
2025-01-25 19:02:43.715832	159.9	51.0	-92.5	15.2
2025-01-25 19:02:44.880709	160.0	51.4	-92.4	10.5
2025-01-25 19:02:46.046380	160.1	51.8	-92.3	10.1
2025-01-25 19:02:47.216285	160.1	52.2	-92.0	15.0
2025-01-25 19:02:48.381214	160.2	52.6	-92.2	13.4
2025-01-25 19:02:49.543834	160.3	53.0	-92.1	15.6
2025-01-25 19:02:50.705004	160.4	53.4	-92.1	17.9
2025-01-25 19:02:51.872279	160.5	53.8	-91.9	18.6
2025-01-25 19:02:53.034714	160.6	54.3	-92.2	15.4
2025-01-25 19:02:54.196666	160.7	54.7	-92.2	16.0
2025-01-25 19:02:55.364764	160.8	55.1	-92.3	8.7
2025-01-25 19:02:56.525559	160.9	55.5	-92.4	6.0
2025-01-25 19:02:57.689436	161.0	55.9	-92.5	13.4
2025-01-25 19:02:58.848696	161.1	56.4	-92.4	7.5
2025-01-25 19:03:00.011248	161.2	56.8	-92.5	8.7
2025-01-25 19:03:01.168842	161.3	57.2	-92.3	15.0
2025-01-25 19:03:02.331633	161.4	57.7	-92.1	8.2
2025-01-25 19:03:03.497365	161.5	58.1	-92.0	13.3
2025-01-25 19:03:04.660424	161.6	58.6	-92.1	17.2
2025-01-25 19:03:05.818920	161.8	59.0	-92.4	16.6
2025-01-25 19:03:06.980311	161.9	59.5	-92.0	13.3
2025-01-25 19:03:08.145351	162.0	59.9	-92.4	19.1
2025-01-25 19:03:09.306856	162.2	60.4	-92.2	17.7
2025-01-25 19:03:10.475567	162.3	60.9	-92.2	11.9
2025-01-25 19:03:11.635535	162.5	61.3	-91.9	14.6
2025-01-25 19:03:12.802736	162.6	61.8	-92.2	15.9
2025-01-25 19:03:13.931327	162.8	62.3	-92.3	16.5
2025-01-25 19:03:15.053003	163.0	62.7	-91.8	18.0
2025-01-25 19:03:16.175120	163.1	63.2	-92.2	17.5
2025-01-25 19:03:17.296078	163.3	63.6	-91.6	19.8
2025-01-25 19:03:18.417137	163.5	64.1	-92.0	15.4
2025-01-25 19:03:19.537272	163.7	64.6	-92.3	12.7
2025-01-25 19:03:20.657747	163.9	65.0	-91.9	16.5
2025-01-25 19:03:21.778808	164.1	65.5	-92.2	15.6
2025-01-25 19:03:22.904091	164.3	66.0	-92.0	7.9
2025-01-25 19:03:24.035310	164.5	66.5	-92.4	8.5
2025-01-25 19:03:25.202202	164.7	67.0	-91.9	17.0
2025-01-25 19:03:26.359661	165.0	67.5	-92.3	12.6
2025-01-25 19:03:27.530437	165.3	68.0	-92.0	10.7
2025-01-25 19:03:28.677658	165.5	68.5	-92.4	10.2
2025-01-25 19:03:29.839747	165.8	69.0	-92.3	13.7
2025-01-25 19:03:31.005814	166.1	69.5	-92.2	18.0
2025-01-25 19:03:32.171600	166.5	70.0	-91.7	10.3
2025-01-25 19:03:33.335131	166.8	70.6	-92.0	14.9
2025-01-25 19:03:34.499890	167.2	71.1	-92.6	9.2
2025-01-25 19:03:35.662489	167.6	71.6	-92.5	10.3
2025-01-25 19:03:36.828766	168.0	72.1	-92.4	23.0
2025-01-25 19:03:37.995371	168.4	72.6	-92.5	13.1
2025-01-25 19:03:39.155480	168.9	73.2	-92.1	16.8
2025-01-25 19:03:40.321209	169.4	73.7	-92.1	16.4
2025-01-25 19:03:41.483739	169.9	74.2	-92.1	9.9
2025-01-25 19:03:42.649475	170.5	74.8	-92.5	20.9
2025-01-25 19:03:43.811230	171.1	75.3	-92.2	22.2
2025-01-25 19:03:44.980209	171.7	75.8	-92.1	18.3
2025-01-25 19:03:46.139405	172.4	76.4	-92.2	15.2
2025-01-25 19:03:47.301732	173.2	76.9	-92.2	19.4
2025-01-25 19:03:48.469724	174.1	77.4	-91.9	24.0
2025-01-25 19:03:49.630209	175.0	77.9	-91.6	22.6
2025-01-25 19:03:50.793266	176.0	78.5	-92.0	18.2
2025-01-25 19:03:51.957856	177.0	79.0	-92.3	10.9
2025-01-25 19:03:53.116526	178.2	79.5	-91.8	15.7
2025-01-25 19:03:54.279832	179.6	80.0	-91.4	19.8
2025-01-25 19:03:55.440475	181.1	80.5	-91.7	12.1
2025-01-25 19:03:56.604521	182.7	81.1	-92.1	8.0
2025-01-25 19:03:57.763712	184.5	81.6	-92.5	15.8
2025-01-25 19:03:58.921123	186.6	82.0	-92.3	12.5
2025-01-25 19:04:00.083799	189.0	82.5	-92.2	13.6
2025-01-25 19:04:01.241637	191.6	83.0	-92.1	24.9
2025-01-25 19:04:02.406072	194.7	83.5	-92.3	12.0
2025-01-25 19:04:03.573593	198.2	83.9	-92.2	13.6
2025-01-25 19:04:04.735881	202.2	84.3	-92.0	18.1
2025-01-25 19:04:05.898539	206.8	84.7	-92.1	13.2
2025-01-25 19:04:07.062656	212.1	85.0	-92.2	14.3
2025-01-25 19:04:08.221319	218.1	85.3	-91.8	25.1
2025-01-25 19:04:09.388019	224.8	85.5	-92.2	24.4
2025-01-25 19:04:10.548207	232.1	85.7	-91.9	26.7
2025-01-25 19:04:11.711195	239.8	85.8	-91.6	26.3
2025-01-25 19:04:12.877728	247.8	85.8	-92.1	23.7
2025-01-25 19:04:14.045101	255.6	85.7	-92.0	18.3
2025-01-25 19:04:15.210540	263.1	85.6	-91.8	26.2
2025-01-25 19:04:16.371845	269.9	85.4	-92.0	19.0
2025-01-25 19:04:17.532148	276.1	85.1	-92.0	23.5
2025-01-25 19:04:18.696829	281.6	84.8	-92.5	12.8
2025-01-25 19:04:19.856699	286.3	84.4	-91.1	19.7
2025-01-25 19:04:21.025264	290.5	84.0	-91.2	26.2
2025-01-25 19:04:22.193856	294.2	83.6	-91.0	24.6
2025-01-25 19:04:23.359681	297.3	83.1	-91.0	19.1
2025-01-25 19:04:24.529274	300.1	82.7	-91.1	19.9
2025-01-25 19:04:25.692458	302.6	82.2	-91.1	19.8
2025-01-25 19:04:26.861125	304.7	81.7	-90.9	23.0
2025-01-25 19:04:28.023420	306.6	81.2	-92.2	19.8
2025-01-25 19:04:29.206505	308.3	80.7	-91.6	26.1
2025-01-25 19:04:30.374249	309.9	80.1	-91.9	23.8
2025-01-25 19:04:31.524211	311.2	79.6	-92.6	18.8
2025-01-25 19:04:32.644791	312.4	79.1	-91.8	27.2
2025-01-25 19:04:33.765257	313.5	78.6	-92.1	24.0
2025-01-25 19:04:34.886294	314.5	78.1	-92.1	19.5
2025-01-25 19:04:36.006877	315.4	77.6	-92.1	15.4
2025-01-25 19:04:37.127512	316.2	77.1	-92.3	22.7
2025-01-25 19:04:38.248598	317.0	76.6	-91.9	23.0
2025-01-25 19:04:39.369798	317.7	76.1	-92.5	17.0
2025-01-25 19:04:40.491350	318.3	75.6	-92.1	17.7
2025-01-25 19:04:41.617852	318.9	75.0	-92.4	23.0
2025-01-25 19:04:42.764819	319.5	74.5	-92.0	21.0
2025-01-25 19:04:43.927812	320.1	74.0	-92.3	16.3
2025-01-25 19:04:45.085437	320.6	73.5	-92.0	15.6
2025-01-25 19:04:46.250574	321.1	72.9	-91.9	18.6
2025-01-25 19:04:47.405460	321.5	72.4	-91.8	13.9
2025-01-25 19:04:48.563594	321.9	71.9	-92.3	15.5
2025-01-25 19:04:49.725791	322.3	71.4	-92.5	19.8
2025-01-25 19:04:50.882528	322.7	70.9	-92.3	13.3
2025-01-25 19:04:52.045068	323.1	70.3	-92.1	9.2
2025-01-25 19:04:53.213474	323.4	69.8	-92.1	14.4
2025-01-25 19:04:54.378415	323.7	69.3	-92.2	13.1
2025-01-25 19:04:55.545967	324.0	68.8	-92.4	7.3
2025-01-25 19:04:56.716642	324.3	68.3	-92.2	14.2
2025-01-25 19:04:57.881634	324.6	67.8	-92.3	14.5
2025-01-25 19:04:59.043583	324.9	67.3	-92.1	13.2
2025-01-25 19:05:00.195346	325.1	66.8	-92.1	17.7
2025-01-25 19:05:01.357109	325.3	66.3	-92.2	16.8
2025-01-25 19:05:02.516462	325.6	65.8	-92.1	15.9
2025-01-25 19:05:03.681383	325.8	65.3	-92.1	20.7
2025-01-25 19:05:04.850893	326.0	64.8	-92.3	20.8
2025-01-25 19:05:06.020473	326.2	64.3	-92.3	16.6
2025-01-25 19:05:07.185785	326.4	63.8	-92.2	17.4
2025-01-25 19:05:08.347338	326.6	63.3	-92.0	20.9
2025-01-25 19:05:09.513024	326.7	62.8	-92.2	22.2
2025-01-25 19:05:10.659308	326.9	62.4	-92.3	19.1
2025-01-25 19:05:11.822838	327.1	61.9	-92.4	21.6
2025-01-25 19:05:12.988431	327.2	61.4	-92.2	22.1
2025-01-25 19:05:14.162870	327.4	61.0	-92.5	23.7
2025-01-25 19:05:15.331128	327.5	60.5	-92.2	23.0
2025-01-25 19:05:16.492575	327.7	60.0	-92.6	22.3
2025-01-25 19:05:17.650327	327.8	59.6	-92.3	23.1
2025-01-25 19:05:18.814730	327.9	59.1	-92.3	21.6
2025-01-25 19:05:19.974310	328.1	58.7	-92.2	16.1
2025-01-25 19:05:21.133637	328.2	58.2	-92.3	18.6
2025-01-25 19:05:22.302281	328.3	57.8	-92.2	19.3
2025-01-25 19:05:23.462279	328.4	57.3	-92.5	14.3
2025-01-25 19:05:24.626333	328.5	56.9	-92.5	17.6
2025-01-25 19:05:25.790668	328.6	56.5	-92.3	18.4
2025-01-25 19:05:26.952963	328.7	56.0	-92.3	12.6
2025-01-25 19:05:28.119939	328.9	55.6	-92.3	13.2
2025-01-25 19:05:29.280801	329.0	55.2	-92.0	14.4
2025-01-25 19:05:30.438009	329.0	54.8	-92.4	10.8
2025-01-25 19:05:31.603061	329.1	54.3	-92.3	11.2
2025-01-25 19:05:32.763421	329.2	53.9	-92.2	10.7
2025-01-25 19:05:33.924152	329.3	53.5	-92.1	8.8
2025-01-25 19:05:35.095727	329.4	53.1	-92.3	11.1
2025-01-25 19:05:36.256362	329.5	52.7	-92.0	7.0
2025-01-25 19:05:37.432744	329.6	52.3	-92.5	8.1
2025-01-25 19:05:38.596552	329.7	51.9	-92.4	9.8
2025-01-25 19:05:39.757850	329.7	51.5	-92.4	12.8
2025-01-25 19:05:40.928545	329.8	51.1	-92.2	12.2
2025-01-25 19:05:42.085692	329.9	50.7	-92.0	13.4
2025-01-25 19:05:43.246615	330.0	50.3	-92.0	15.3
2025-01-25 19:05:44.411520	330.0	49.9	-92.2	16.9
2025-01-25 19:05:45.573622	330.1	49.6	-92.4	16.3
2025-01-25 19:05:46.739625	330.2	49.2	-92.6	18.5
2025-01-25 19:05:47.907597	330.2	48.8	-92.0	12.6
2025-01-25 19:05:49.071790	330.3	48.4	-91.9	13.5
2025-01-25 19:05:50.226612	330.4	48.1	-91.1	17.6
2025-01-25 19:05:51.394004	330.4	47.7	-91.0	11.2
2025-01-25 19:05:52.557467	330.5	47.4	-90.8	10.5
2025-01-25 19:05:53.720211	330.5	47.0	-90.8	17.3
2025-01-25 19:05:54.881126	330.6	46.6	-90.8	10.9
2025-01-25 19:05:56.041509	330.7	46.3	-90.9	11.1
2025-01-25 19:05:57.209695	330.7	45.9	-92.4	19.1
2025-01-25 19:05:58.373861	330.8	45.6	-92.3	14.4
2025-01-25 19:05:59.540861	330.8	45.2	-92.2	13.6
2025-01-25 19:06:00.691108	330.9	44.9	-92.2	21.9
2025-01-25 19:06:01.855658	330.9	44.6	-92.1	21.0
2025-01-25 19:06:03.018941	331.0	44.2	-91.9	20.7
2025-01-25 19:06:04.183640	331.0	43.9	-92.0	21.1
2025-01-25 19:06:05.348236	331.1	43.6	-92.0	21.9
2025-01-25 19:06:06.516532	331.1	43.2	-91.9	21.9
2025-01-25 19:06:07.684205	331.2	42.9	-92.3	19.4
2025-01-25 19:06:08.848784	331.2	42.6	-92.3	17.9
2025-01-25 19:06:10.015842	331.3	42.3	-92.3	16.6
2025-01-25 19:06:11.173501	331.3	42.0	-91.8	21.1
2025-01-25 19:06:12.336349	331.4	41.6	-91.7	15.9
2025-01-25 19:06:13.502754	331.4	41.3	-92.3	12.3
2025-01-25 19:06:14.666871	331.4	41.0	-92.5	18.3
2025-01-25 19:06:15.825925	331.5	40.7	-92.4	16.6
2025-01-25 19:06:16.993756	331.5	40.4	-92.5	14.3
2025-01-25 19:06:18.153654	331.6	40.1	-92.2	15.2
2025-01-25 19:06:19.312077	331.6	39.8	-92.4	16.5
2025-01-25 19:06:20.473090	331.6	39.5	-92.5	15.9
2025-01-25 19:06:21.639152	331.7	39.2	-92.5	16.0
2025-01-25 19:06:22.805261	331.7	38.9	-92.4	11.5
2025-01-25 19:06:23.971376	331.8	38.7	-92.3	15.4
2025-01-25 19:06:25.134744	331.8	38.4	-92.4	19.4
2025-01-25 19:06:26.295085	331.8	38.1	-92.4	18.2
2025-01-25 19:06:27.457871	331.9	37.8	-92.6	14.5
2025-01-25 19:06:28.623810	331.9	37.5	-92.4	16.7
2025-01-25 19:06:29.783899	331.9	37.3	-92.3	16.8
2025-01-25 19:06:30.943442	332.0	37.0	-92.6	6.5
2025-01-25 19:06:32.107881	332.0	36.7	-92.4	12.0
2025-01-25 19:06:33.277938	332.0	36.4	-92.2	10.6
2025-01-25 19:06:34.445528	332.1	36.2	-92.1	7.5
2025-01-25 19:06:35.609927	332.1	35.9	-92.4	12.0
2025-01-25 19:06:36.776308	332.1	35.6	-92.6	16.9
2025-01-25 19:06:37.939831	332.2	35.4	-92.5	15.7
2025-01-25 19:06:39.094910	332.2	35.1	-92.5	18.2
2025-01-25 19:06:40.263851	332.2	34.9	-92.4	17.1
2025-01-25 19:06:41.427555	332.3	34.6	-92.4	15.2
2025-01-25 19:06:42.593205	332.3	34.4	-92.5	17.1
2025-01-25 19:06:43.757546	332.3	34.1	-92.3	15.9
2025-01-25 19:06:44.919207	332.3	33.9	-92.4	10.7
2025-01-25 19:06:46.084943	332.4	33.6	-91.9	10.8
2025-01-25 19:06:47.258070	332.4	33.4	-92.3	17.6
2025-01-25 19:06:48.423030	332.4	33.1	-92.0	9.9
2025-01-25 19:06:49.588412	332.5	32.9	-92.4	10.9
2025-01-25 19:06:50.753222	332.5	32.6	-92.1	17.4
2025-01-25 19:06:51.914768	332.5	32.4	-92.0	13.7
2025-01-25 19:06:53.076865	332.5	32.2	-92.1	13.2
2025-01-25 19:06:54.250601	332.6	31.9	-92.4	17.4
2025-01-25 19:06:55.430547	332.6	31.7	-92.6	15.1
2025-01-25 19:06:56.584977	332.6	31.5	-92.5	14.9
2025-01-25 19:06:57.749932	332.6	31.2	-92.3	17.1
2025-01-25 19:06:58.907828	332.7	31.0	-92.2	13.2
2025-01-25 19:07:00.079202	332.7	30.8	-92.2	12.7
2025-01-25 19:07:01.236074	332.7	30.6	-92.4	14.2
2025-01-25 19:07:02.394314	332.7	30.3	-92.7	6.9
2025-01-25 19:07:03.561782	332.8	30.1	-92.5	7.4
2025-01-25 19:07:04.723969	332.8	29.9	-92.6	15.8
2025-01-25 19:07:05.892979	332.8	29.7	-92.4	7.5
2025-01-25 19:07:07.054403	332.8	29.5	-92.3	8.7
2025-01-25 19:07:08.221221	332.9	29.3	-92.5	14.7
2025-01-25 19:07:09.382329	332.9	29.1	-92.2	14.8
2025-01-25 19:07:10.546151	332.9	28.8	-92.5	15.5
2025-01-25 19:07:11.713539	332.9	28.6	-92.6	14.8
2025-01-25 19:07:12.875733	333.0	28.4	-92.3	17.3
2025-01-25 19:07:14.042681	333.0	28.2	-92.4	12.7
2025-01-25 19:07:15.204880	333.0	28.0	-92.3	10.1
2025-01-25 19:07:16.373402	333.0	27.8	-92.3	6.6
2025-01-25 19:07:17.532726	333.0	27.6	-92.6	5.7
2025-01-25 19:07:18.693744	333.1	27.4	-92.7	10.0
2025-01-25 19:07:19.861079	333.1	27.2	-92.5	7.9
2025-01-25 19:07:21.020214	333.1	27.0	-92.5	9.0
2025-01-25 19:07:22.187907	333.1	26.8	-92.4	7.7
2025-01-25 19:07:23.345762	333.1	26.6	-92.3	7.3
2025-01-25 19:07:24.505238	333.2	26.4	-92.6	12.0
2025-01-25 19:07:25.668501	333.2	26.2	-92.7	14.2
2025-01-25 19:07:26.828817	333.2	26.1	-92.7	11.7
2025-01-25 19:07:27.992510	333.2	25.9	-92.5	14.0
2025-01-25 19:07:29.158154	333.2	25.7	-92.1	15.7
2025-01-25 19:07:30.320123	333.3	25.5	-92.0	14.8
2025-01-25 19:07:31.483462	333.3	25.3	-92.3	5.1
2025-01-25 19:07:32.644765	333.3	25.1	-92.1	6.8
2025-01-25 19:07:33.804281	333.3	24.9	-92.3	11.5
2025-01-25 19:07:34.972687	333.3	24.8	-92.4	5.7
2025-01-25 19:07:36.136553	333.4	24.6	-92.3	5.0
2025-01-25 19:07:37.304795	333.4	24.4	-91.8	8.0
2025-01-25 19:07:38.468255	333.4	24.2	-91.7	9.1
2025-01-25 19:07:39.631262	333.4	24.1	-92.1	5.1
2025-01-25 19:07:40.794501	333.4	23.9	-92.5	9.5
2025-01-25 19:07:41.953012	333.4	23.7	-92.2	8.3
2025-01-25 19:07:43.123310	333.5	23.5	-92.4	6.2
2025-01-25 19:07:44.284588	333.5	23.4	-92.3	13.3
2025-01-25 19:07:45.450158	333.5	23.2	-92.6	5.7
2025-01-25 19:07:46.614064	333.5	23.0	-92.6	9.7
2025-01-25 19:07:47.767203	333.5	22.9	-92.7	9.0
2025-01-25 19:07:48.933838	333.5	22.7	-92.6	2.4
2025-01-25 19:07:50.090292	333.6	22.5	-92.5	7.7
2025-01-25 19:07:51.251538	333.6	22.4	-92.4	8.4
2025-01-25 19:07:52.420466	333.6	22.2	-92.4	2.2
2025-01-25 19:07:53.583308	333.6	22.0	-92.3	8.5
2025-01-25 19:07:54.740927	333.6	21.9	-92.2	5.3
2025-01-25 19:07:55.906195	333.6	21.7	-92.6	5.0
2025-01-25 19:07:57.066808	333.7	21.5	-92.5	9.0
2025-01-25 19:07:58.231289	333.7	21.4	-92.4	8.9
2025-01-25 19:07:59.392347	333.7	21.2	-92.5	2.6
2025-01-25 19:08:00.548782	333.7	21.1	-92.5	5.1
2025-01-25 19:08:01.707645	333.7	20.9	-92.9	8.5
2025-01-25 19:08:02.869525	333.7	20.8	-92.7	7.7
2025-01-25 19:08:04.029582	333.8	20.6	-92.6	4.6
2025-01-25 19:08:05.176268	333.8	20.5	-92.2	6.5
2025-01-25 19:08:06.297077	333.8	20.3	-92.1	5.6
2025-01-25 19:08:07.417808	333.8	20.2	-92.4	7.9
2025-01-25 19:08:08.538890	333.8	20.0	-92.2	8.7
2025-01-25 19:08:09.659990	333.8	19.9	-92.5	3.2
2025-01-25 19:08:10.783414	333.8	19.7	-92.3	4.5
2025-01-25 19:08:11.904420	333.9	19.6	-92.5	6.3
2025-01-25 19:08:13.025061	333.9	19.5	-92.4	5.3
2025-01-25 19:08:14.145209	333.9	19.3	-92.1	7.3
2025-01-25 19:08:15.267254	333.9	19.2	-92.6	5.6
2025-01-25 19:08:16.413222	333.9	19.0	-92.0	3.9
2025-01-25 19:08:17.568869	333.9	18.9	-92.5	2.4
2025-01-25 19:08:18.733278	333.9	18.7	-92.4	2.6
2025-01-25 19:08:19.893078	334.0	18.6	-92.4	6.2
2025-01-25 19:08:21.042239	334.0	18.5	-92.6	4.6
2025-01-25 19:08:22.205129	334.0	18.3	-92.1	6.5
2025-01-25 19:08:23.362554	334.0	18.2	-92.2	7.5
2025-01-25 19:08:24.512828	334.0	18.0	-92.7	3.6
2025-01-25 19:08:25.659053	334.0	17.9	-92.5	3.9
2025-01-25 19:08:26.818781	334.0	17.8	-92.8	5.9
2025-01-25 19:08:27.982990	334.1	17.6	-92.6	3.7
2025-01-25 19:08:29.142310	334.1	17.5	-92.4	5.3
2025-01-25 19:08:30.310492	334.1	17.4	-92.2	3.3
2025-01-25 19:08:31.469913	334.1	17.2	-92.4	3.8
2025-01-25 19:08:32.638055	334.1	17.1	-92.3	4.5
2025-01-25 19:08:33.801091	334.1	17.0	-92.3	4.3
2025-01-25 19:08:34.965086	334.1	16.8	-91.9	4.8
2025-01-25 19:08:36.128171	334.1	16.7	-92.1	3.4
2025-01-25 19:08:37.290895	334.2	16.6	-92.3	3.0
2025-01-25 19:08:38.457586	334.2	16.4	-92.4	4.2
2025-01-25 19:08:39.615182	334.2	16.3	-92.6	1.7
2025-01-25 19:08:40.773791	334.2	16.2	-92.5	4.0
2025-01-25 19:08:41.929025	334.2	16.1	-92.6	4.4
2025-01-25 19:08:43.090300	334.2	15.9	-92.4	3.9
2025-01-25 19:08:44.250626	334.2	15.8	-92.6	5.6
2025-01-25 19:08:45.418117	334.3	15.7	-92.3	4.4
2025-01-25 19:08:46.583629	334.3	15.5	-92.6	6.6
2025-01-25 19:08:47.749628	334.3	15.4	-92.5	5.3
2025-01-25 19:08:48.917818	334.3	15.3	-92.4	3.8
2025-01-25 19:08:50.080471	334.3	15.2	-92.6	7.2
2025-01-25 19:08:51.238140	334.3	15.1	-92.1	3.5
2025-01-25 19:08:52.400388	334.3	14.9	-92.4	6.2
2025-01-25 19:08:53.564998	334.3	14.8	-92.6	4.0
2025-01-25 19:08:54.727979	334.3	14.7	-92.7	7.7
2025-01-25 19:08:55.889753	334.4	14.6	-92.6	5.4
#Closed at: 2025-01-25 18:59:37.951314