passes_logs/2025/01/25/LEX_Murmansk/LEX_Murmansk__20250125_104033_NOAA_18_rec.log

#Pass ID: 20250125_104033_NOAA 18
#Satellite: NOAA 18
#Configuration: NOAA 18
#Start time: 2025-01-25 10:40:28.549302

#LorettStation: 1.0.0 05.05.2024
#Station: LEX_Murmansk
#Location: 33.156738 lon 68.926811 lat
#TLE: 1 28654U 05018A   25024.15265828  .00000479  00000+0  27770-3 0  9994
#TLE: 2 28654  98.8553 105.1156 0014763 153.8328 206.3593 14.13495781 14472

#Time	Az	El	Level	SNR
2025-01-25 10:40:40.816721	23.8	16.3	-92.5	7.2
2025-01-25 10:40:41.983317	23.7	16.4	-92.0	5.3
2025-01-25 10:40:43.148999	23.7	16.6	-92.5	6.2
2025-01-25 10:40:44.316759	23.7	16.7	-92.5	8.3
2025-01-25 10:40:45.474166	23.6	16.8	-92.8	4.6
2025-01-25 10:40:46.632961	23.6	16.9	-92.6	5.9
2025-01-25 10:40:47.796600	23.5	17.1	-92.7	7.3
2025-01-25 10:40:48.958278	23.5	17.2	-92.6	5.5
2025-01-25 10:40:50.120837	23.4	17.3	-92.1	7.3
2025-01-25 10:40:51.286982	23.4	17.5	-92.3	10.2
2025-01-25 10:40:52.454037	23.3	17.6	-92.5	12.5
2025-01-25 10:40:53.614824	23.3	17.7	-92.5	11.8
2025-01-25 10:40:54.782961	23.2	17.9	-92.7	14.7
2025-01-25 10:40:55.941843	23.2	18.0	-93.0	10.8
2025-01-25 10:40:57.106454	23.2	18.2	-92.8	14.6
2025-01-25 10:40:58.272695	23.1	18.3	-92.6	13.3
2025-01-25 10:40:59.442578	23.1	18.4	-92.3	15.0
2025-01-25 10:41:00.601564	23.0	18.6	-92.6	12.4
2025-01-25 10:41:01.763184	23.0	18.7	-92.4	14.0
2025-01-25 10:41:02.927842	22.9	18.8	-92.7	4.4
2025-01-25 10:41:04.087040	22.9	19.0	-92.4	5.3
2025-01-25 10:41:05.255268	22.8	19.1	-92.4	11.6
2025-01-25 10:41:06.414860	22.7	19.3	-92.8	9.0
2025-01-25 10:41:07.580183	22.7	19.4	-93.0	13.4
2025-01-25 10:41:08.740955	22.6	19.6	-93.0	12.8
2025-01-25 10:41:09.908367	22.6	19.7	-92.9	13.2
2025-01-25 10:41:11.068336	22.5	19.8	-92.8	8.0
2025-01-25 10:41:12.231228	22.5	20.0	-92.7	12.3
2025-01-25 10:41:13.397025	22.4	20.1	-92.5	7.9
2025-01-25 10:41:14.561995	22.4	20.3	-92.5	11.9
2025-01-25 10:41:15.729342	22.3	20.4	-92.5	10.0
2025-01-25 10:41:16.886296	22.3	20.6	-92.4	10.1
2025-01-25 10:41:18.050581	22.2	20.7	-92.4	6.1
2025-01-25 10:41:19.214981	22.1	20.9	-92.6	9.3
2025-01-25 10:41:20.373416	22.1	21.0	-92.6	10.3
2025-01-25 10:41:21.539790	22.0	21.2	-92.8	6.3
2025-01-25 10:41:22.706060	22.0	21.3	-92.8	10.8
2025-01-25 10:41:23.853156	21.9	21.5	-92.6	12.6
2025-01-25 10:41:24.974513	21.8	21.7	-92.9	14.4
2025-01-25 10:41:26.117641	21.8	21.8	-92.8	12.4
2025-01-25 10:41:27.278965	21.7	22.0	-92.3	14.7
2025-01-25 10:41:28.438119	21.7	22.1	-92.6	8.7
2025-01-25 10:41:29.605612	21.6	22.3	-92.9	13.8
2025-01-25 10:41:30.766547	21.5	22.4	-92.8	13.2
2025-01-25 10:41:31.929176	21.5	22.6	-92.9	15.1
2025-01-25 10:41:33.090080	21.4	22.8	-92.4	11.4
2025-01-25 10:41:34.254743	21.3	22.9	-92.5	16.0
2025-01-25 10:41:35.418519	21.3	23.1	-92.5	5.2
2025-01-25 10:41:36.575163	21.2	23.3	-92.7	5.9
2025-01-25 10:41:37.742358	21.1	23.4	-92.5	12.2
2025-01-25 10:41:38.906622	21.0	23.6	-91.4	9.0
2025-01-25 10:41:40.071580	21.0	23.8	-92.7	14.6
2025-01-25 10:41:41.243396	20.9	23.9	-92.6	13.1
2025-01-25 10:41:42.409176	20.8	24.1	-92.5	13.4
2025-01-25 10:41:43.574125	20.8	24.3	-92.3	10.7
2025-01-25 10:41:44.741328	20.7	24.4	-92.4	14.3
2025-01-25 10:41:45.905810	20.6	24.6	-92.5	12.9
2025-01-25 10:41:47.065289	20.5	24.8	-92.9	11.1
2025-01-25 10:41:48.226554	20.5	25.0	-92.8	14.4
2025-01-25 10:41:49.385423	20.4	25.2	-92.6	12.2
2025-01-25 10:41:50.550605	20.3	25.3	-91.5	9.0
2025-01-25 10:41:51.711084	20.2	25.5	-91.2	10.9
2025-01-25 10:41:52.878946	20.1	25.7	-91.6	9.6
2025-01-25 10:41:54.040121	20.1	25.9	-91.4	4.9
2025-01-25 10:41:55.209225	20.0	26.1	-91.3	8.6
2025-01-25 10:41:56.366998	19.9	26.2	-91.3	10.5
2025-01-25 10:41:57.522141	19.8	26.4	-91.6	10.5
2025-01-25 10:41:58.688262	19.7	26.6	-91.7	11.8
2025-01-25 10:41:59.841164	19.6	26.8	-91.7	12.7
2025-01-25 10:42:00.999827	19.5	27.0	-92.5	10.3
2025-01-25 10:42:02.160518	19.5	27.2	-92.6	13.2
2025-01-25 10:42:03.324530	19.4	27.4	-92.7	13.7
2025-01-25 10:42:04.492046	19.3	27.6	-92.7	12.5
2025-01-25 10:42:05.640480	19.2	27.7	-92.1	10.6
2025-01-25 10:42:06.796150	19.1	27.9	-92.4	10.6
2025-01-25 10:42:07.962950	19.0	28.1	-92.5	6.8
2025-01-25 10:42:09.127210	18.9	28.3	-92.9	9.6
2025-01-25 10:42:10.289120	18.8	28.5	-92.7	11.4
2025-01-25 10:42:11.450631	18.7	28.7	-92.7	8.6
2025-01-25 10:42:12.616356	18.6	28.9	-92.8	11.8
2025-01-25 10:42:13.779772	18.5	29.1	-92.7	12.1
2025-01-25 10:42:14.945471	18.4	29.3	-92.5	11.7
2025-01-25 10:42:16.108580	18.3	29.6	-91.6	9.6
2025-01-25 10:42:17.266820	18.2	29.8	-91.2	13.3
2025-01-25 10:42:18.426160	18.1	30.0	-91.1	8.4
2025-01-25 10:42:19.591031	18.0	30.2	-91.5	10.5
2025-01-25 10:42:20.754950	17.9	30.4	-91.9	11.3
2025-01-25 10:42:21.913134	17.8	30.6	-91.4	9.6
2025-01-25 10:42:23.084819	17.6	30.8	-92.1	10.6
2025-01-25 10:42:24.250619	17.5	31.0	-92.4	11.4
2025-01-25 10:42:25.413831	17.4	31.3	-92.3	5.7
2025-01-25 10:42:26.573397	17.3	31.5	-92.4	6.6
2025-01-25 10:42:27.733309	17.2	31.7	-92.5	12.4
2025-01-25 10:42:28.900207	17.0	31.9	-92.8	7.5
2025-01-25 10:42:30.065332	16.9	32.1	-92.7	11.5
2025-01-25 10:42:31.242677	16.8	32.4	-92.4	12.4
2025-01-25 10:42:32.407082	16.7	32.6	-92.7	16.3
2025-01-25 10:42:33.575770	16.5	32.8	-92.6	10.8
2025-01-25 10:42:34.738903	16.4	33.0	-92.7	10.9
2025-01-25 10:42:35.898767	16.3	33.3	-92.9	9.8
2025-01-25 10:42:37.057638	16.2	33.5	-92.7	9.4
2025-01-25 10:42:38.218820	16.0	33.7	-92.9	11.4
2025-01-25 10:42:39.385504	15.9	34.0	-92.5	14.3
2025-01-25 10:42:40.547968	15.7	34.2	-92.9	15.0
2025-01-25 10:42:41.709419	15.6	34.5	-92.6	14.8
2025-01-25 10:42:42.876147	15.4	34.7	-92.3	9.5
2025-01-25 10:42:44.038163	15.3	34.9	-92.5	4.2
2025-01-25 10:42:45.199526	15.2	35.2	-92.2	12.0
2025-01-25 10:42:46.360117	15.0	35.4	-91.9	10.0
2025-01-25 10:42:47.519300	14.9	35.7	-92.5	10.5
2025-01-25 10:42:48.680677	14.7	35.9	-92.4	13.3
2025-01-25 10:42:49.846363	14.5	36.2	-92.2	14.6
2025-01-25 10:42:51.014355	14.4	36.4	-92.3	16.4
2025-01-25 10:42:52.174920	14.2	36.7	-92.4	16.9
2025-01-25 10:42:53.338429	14.0	36.9	-92.1	15.1
2025-01-25 10:42:54.507836	13.9	37.2	-92.4	14.4
2025-01-25 10:42:55.670705	13.7	37.5	-92.5	17.7
2025-01-25 10:42:56.832290	13.5	37.7	-92.2	17.0
2025-01-25 10:42:57.989935	13.4	38.0	-92.5	20.1
2025-01-25 10:42:59.152416	13.2	38.2	-92.3	16.1
2025-01-25 10:43:00.312466	13.0	38.5	-91.9	15.0
2025-01-25 10:43:01.475178	12.8	38.8	-92.1	10.0
2025-01-25 10:43:02.643085	12.6	39.0	-92.5	14.5
2025-01-25 10:43:03.807377	12.4	39.3	-92.3	12.7
2025-01-25 10:43:04.965866	12.2	39.6	-92.6	9.7
2025-01-25 10:43:06.128702	12.0	39.9	-92.3	12.8
2025-01-25 10:43:07.288305	11.8	40.1	-92.4	15.8
2025-01-25 10:43:08.455068	11.6	40.4	-92.4	17.6
2025-01-25 10:43:09.620808	11.4	40.7	-92.4	20.0
2025-01-25 10:43:10.774667	11.2	41.0	-92.4	20.6
2025-01-25 10:43:11.945729	11.0	41.3	-92.2	15.3
2025-01-25 10:43:13.109308	10.8	41.6	-91.9	13.2
2025-01-25 10:43:14.272515	10.5	41.8	-92.4	20.2
2025-01-25 10:43:15.436462	10.3	42.1	-92.9	17.7
2025-01-25 10:43:16.602286	10.1	42.4	-92.7	18.9
2025-01-25 10:43:17.763216	9.8	42.7	-92.7	21.3
2025-01-25 10:43:18.917971	9.6	43.0	-92.8	20.3
2025-01-25 10:43:20.082590	9.3	43.3	-92.3	16.9
2025-01-25 10:43:21.241456	9.1	43.6	-92.3	20.2
2025-01-25 10:43:22.401672	8.8	43.9	-92.5	12.0
2025-01-25 10:43:23.570435	8.6	44.2	-92.3	9.2
2025-01-25 10:43:24.734938	8.3	44.5	-92.3	19.0
2025-01-25 10:43:25.900116	8.0	44.8	-92.7	11.4
2025-01-25 10:43:27.064079	7.7	45.1	-91.8	13.3
2025-01-25 10:43:28.224472	7.5	45.4	-91.4	17.7
2025-01-25 10:43:29.389823	7.2	45.7	-91.9	18.1
2025-01-25 10:43:30.550221	6.9	46.0	-92.1	21.0
2025-01-25 10:43:31.719469	6.6	46.3	-92.0	21.7
2025-01-25 10:43:32.883843	6.3	46.7	-92.0	15.7
2025-01-25 10:43:34.036981	6.0	47.0	-91.5	12.7
2025-01-25 10:43:35.199928	5.6	47.3	-91.5	15.9
2025-01-25 10:43:36.359217	5.3	47.6	-91.5	12.8
2025-01-25 10:43:37.516571	5.0	47.9	-91.9	9.4
2025-01-25 10:43:38.684067	4.6	48.2	-92.4	15.4
2025-01-25 10:43:39.848347	4.3	48.6	-92.7	13.5
2025-01-25 10:43:41.013919	3.9	48.9	-92.4	16.0
2025-01-25 10:43:42.181616	3.6	49.2	-92.7	17.4
2025-01-25 10:43:43.341868	3.2	49.5	-92.6	12.7
2025-01-25 10:43:44.509344	2.8	49.9	-92.9	9.6
2025-01-25 10:43:45.683697	2.4	50.2	-92.7	17.3
2025-01-25 10:43:46.859233	2.0	50.5	-93.0	15.3
2025-01-25 10:43:48.017450	1.6	50.8	-92.8	8.3
2025-01-25 10:43:49.178538	1.2	51.2	-92.8	13.0
2025-01-25 10:43:50.344243	0.8	51.5	-92.7	9.8
2025-01-25 10:43:51.511121	0.4	51.8	-92.7	7.5
2025-01-25 10:43:52.672981	359.9	52.2	-92.4	12.1
2025-01-25 10:43:53.831428	359.5	52.5	-92.0	12.3
2025-01-25 10:43:54.999660	359.0	52.8	-92.5	14.4
2025-01-25 10:43:56.163281	358.5	53.2	-92.6	19.1
2025-01-25 10:43:57.323157	358.1	53.5	-92.7	21.1
2025-01-25 10:43:58.492132	357.6	53.8	-92.8	13.7
2025-01-25 10:43:59.653271	357.1	54.2	-92.9	18.6
2025-01-25 10:44:00.812475	356.5	54.5	-91.7	14.0
2025-01-25 10:44:01.977413	356.0	54.8	-92.5	11.4
2025-01-25 10:44:03.140662	355.5	55.2	-92.5	3.2
2025-01-25 10:44:04.308822	354.9	55.5	-92.7	9.1
2025-01-25 10:44:05.472703	354.3	55.8	-92.9	18.5
2025-01-25 10:44:06.639144	353.8	56.1	-93.3	18.5
2025-01-25 10:44:07.795518	353.2	56.5	-93.5	20.0
2025-01-25 10:44:08.959692	352.5	56.8	-93.2	14.8
2025-01-25 10:44:10.115783	351.9	57.1	-93.0	13.6
2025-01-25 10:44:11.291469	351.3	57.5	-93.0	14.9
2025-01-25 10:44:12.453172	350.6	57.8	-93.1	6.6
2025-01-25 10:44:13.618823	349.9	58.1	-92.8	7.4
2025-01-25 10:44:14.784779	349.3	58.4	-92.9	14.8
2025-01-25 10:44:15.950728	348.5	58.7	-93.2	11.2
2025-01-25 10:44:17.116376	347.8	59.0	-93.0	19.1
2025-01-25 10:44:18.277576	347.1	59.4	-92.7	22.2
2025-01-25 10:44:19.446879	346.3	59.7	-92.8	21.9
2025-01-25 10:44:20.603351	345.5	60.0	-92.6	22.6
2025-01-25 10:44:21.782179	344.7	60.3	-93.0	22.1
2025-01-25 10:44:22.946642	343.9	60.6	-93.0	21.2
2025-01-25 10:44:24.112757	343.1	60.9	-92.9	18.7
2025-01-25 10:44:25.276684	342.2	61.2	-92.8	16.1
2025-01-25 10:44:26.441622	341.4	61.4	-92.9	13.8
2025-01-25 10:44:27.606033	340.5	61.7	-92.6	15.6
2025-01-25 10:44:28.776049	339.5	62.0	-92.9	23.7
2025-01-25 10:44:29.941053	338.6	62.3	-93.0	18.7
2025-01-25 10:44:31.103464	337.7	62.5	-92.6	19.6
2025-01-25 10:44:32.279280	336.7	62.8	-91.6	24.6
2025-01-25 10:44:33.446643	335.7	63.0	-91.9	18.9
2025-01-25 10:44:35.443772	333.9	63.5	-91.8	12.0
2025-01-25 10:44:36.609261	332.8	63.7	-91.8	13.3
2025-01-25 10:44:37.773492	331.8	63.9	-91.9	18.0
2025-01-25 10:44:38.937419	330.7	64.1	-92.2	19.2
2025-01-25 10:44:40.106958	329.5	64.3	-91.9	17.3
2025-01-25 10:44:41.272645	328.4	64.6	-91.9	17.9
2025-01-25 10:44:42.436411	327.2	64.7	-92.3	19.1
2025-01-25 10:44:43.601018	326.1	64.9	-92.0	17.7
2025-01-25 10:44:44.765758	324.9	65.1	-92.0	17.9
2025-01-25 10:44:45.927457	323.6	65.3	-91.5	18.4
2025-01-25 10:44:47.082178	322.4	65.4	-91.8	19.2
2025-01-25 10:44:48.228706	321.2	65.6	-91.6	15.1
2025-01-25 10:44:49.369094	319.9	65.7	-91.9	15.2
2025-01-25 10:44:50.490332	318.7	65.8	-92.0	14.3
2025-01-25 10:44:51.611364	317.5	65.9	-92.2	13.2
2025-01-25 10:44:52.731857	316.2	66.0	-93.0	15.3
2025-01-25 10:44:53.852557	314.9	66.1	-93.3	13.7
2025-01-25 10:44:54.973967	313.6	66.2	-93.0	12.7
2025-01-25 10:44:56.095026	312.4	66.3	-92.9	8.0
2025-01-25 10:44:57.216053	311.1	66.3	-92.9	14.0
2025-01-25 10:44:58.341229	309.8	66.4	-93.1	16.8
2025-01-25 10:44:59.461355	308.4	66.4	-93.0	10.9
2025-01-25 10:45:00.618538	307.1	66.4	-93.0	12.5
2025-01-25 10:45:01.777307	305.7	66.4	-93.0	14.5
2025-01-25 10:45:02.933614	304.4	66.4	-93.0	8.3
2025-01-25 10:45:04.087835	303.0	66.4	-93.2	4.9
2025-01-25 10:45:05.249698	301.7	66.4	-93.0	13.4
2025-01-25 10:45:06.412912	300.3	66.3	-93.1	8.2
2025-01-25 10:45:07.575849	299.0	66.3	-93.0	6.6
2025-01-25 10:45:08.745692	297.6	66.2	-93.2	10.9
2025-01-25 10:45:09.908517	296.3	66.2	-93.0	10.0
2025-01-25 10:45:11.072794	294.9	66.1	-92.9	12.7
2025-01-25 10:45:12.237805	293.6	66.0	-92.6	16.8
2025-01-25 10:45:13.402035	292.3	65.9	-92.9	16.1
2025-01-25 10:45:14.564258	291.0	65.8	-93.0	17.4
2025-01-25 10:45:15.727100	289.8	65.6	-93.3	16.1
2025-01-25 10:45:16.892235	288.5	65.5	-92.9	14.9
2025-01-25 10:45:18.056410	287.3	65.3	-93.0	19.9
2025-01-25 10:45:19.224019	286.0	65.2	-92.5	20.0
2025-01-25 10:45:20.389047	284.8	65.0	-88.7	16.6
2025-01-25 10:45:21.553396	283.6	64.8	-92.0	16.8
2025-01-25 10:45:22.717121	282.5	64.6	-92.6	15.5
2025-01-25 10:45:23.885071	281.3	64.4	-93.2	16.6
2025-01-25 10:45:25.048901	280.2	64.2	-93.0	18.6
2025-01-25 10:45:26.213222	279.1	64.0	-93.0	16.1
2025-01-25 10:45:27.375698	278.0	63.8	-92.9	11.7
2025-01-25 10:45:28.533333	276.9	63.6	-92.7	16.4
2025-01-25 10:45:29.702303	275.9	63.3	-92.4	16.9
2025-01-25 10:45:30.856563	274.8	63.1	-92.8	18.8
2025-01-25 10:45:32.024976	273.8	62.8	-92.8	20.1
2025-01-25 10:45:33.189742	272.9	62.6	-92.8	19.7
2025-01-25 10:45:34.351892	271.9	62.3	-92.7	20.1
2025-01-25 10:45:35.516587	271.0	62.0	-92.8	19.6
2025-01-25 10:45:36.679461	270.0	61.8	-92.9	21.7
2025-01-25 10:45:37.840532	269.1	61.5	-92.8	19.6
2025-01-25 10:45:38.996943	268.3	61.2	-92.9	18.4
2025-01-25 10:45:40.165157	267.4	60.9	-92.7	16.6
2025-01-25 10:45:41.331962	266.6	60.6	-91.9	17.7
2025-01-25 10:45:42.497259	265.7	60.3	-93.1	18.7
2025-01-25 10:45:43.657235	264.9	60.0	-93.1	20.8
2025-01-25 10:45:44.824488	264.2	59.7	-93.1	19.5
2025-01-25 10:45:45.989931	263.4	59.4	-92.8	17.3
2025-01-25 10:45:47.155901	262.6	59.1	-92.7	20.1
2025-01-25 10:45:48.315757	261.9	58.8	-92.7	15.1
2025-01-25 10:45:49.483608	261.2	58.5	-92.8	15.9
2025-01-25 10:45:50.649023	260.5	58.1	-93.1	16.7
2025-01-25 10:45:51.812650	259.8	57.8	-93.1	14.5
2025-01-25 10:45:52.989252	259.2	57.5	-92.7	10.2
2025-01-25 10:45:54.144795	258.5	57.2	-92.8	9.9
2025-01-25 10:45:55.314173	257.9	56.8	-92.9	10.2
2025-01-25 10:45:56.471831	257.3	56.5	-92.9	4.2
2025-01-25 10:45:57.634199	256.7	56.2	-92.2	6.3
2025-01-25 10:45:58.795601	256.1	55.8	-92.5	9.4
2025-01-25 10:45:59.960007	255.5	55.5	-92.7	6.0
2025-01-25 10:46:01.115960	255.0	55.2	-92.7	4.0
2025-01-25 10:46:02.276313	254.4	54.9	-92.3	5.9
2025-01-25 10:46:03.444927	253.9	54.5	-92.8	6.0
2025-01-25 10:46:04.608404	253.3	54.2	-93.1	3.2
2025-01-25 10:46:05.777700	252.8	53.8	-93.0	7.5
2025-01-25 10:46:06.939183	252.3	53.5	-92.0	9.3
2025-01-25 10:46:08.100123	251.9	53.2	-91.5	8.6
2025-01-25 10:46:09.260873	251.4	52.9	-91.5	15.7
2025-01-25 10:46:10.424988	250.9	52.5	-91.5	11.4
2025-01-25 10:46:11.587747	250.5	52.2	-91.8	13.1
2025-01-25 10:46:12.751906	250.0	51.9	-92.1	20.0
2025-01-25 10:46:13.918315	249.6	51.5	-92.4	14.0
2025-01-25 10:46:15.074051	249.2	51.2	-93.0	13.4
2025-01-25 10:46:16.246350	248.7	50.9	-92.9	21.6
2025-01-25 10:46:17.412547	248.3	50.5	-92.7	15.5
2025-01-25 10:46:18.572395	247.9	50.2	-92.9	16.1
2025-01-25 10:46:19.738984	247.5	49.9	-92.9	19.7
2025-01-25 10:46:20.904020	247.2	49.5	-93.0	16.8
2025-01-25 10:46:22.024611	246.8	49.2	-93.1	18.4
2025-01-25 10:46:23.146094	246.5	48.9	-92.8	18.9
2025-01-25 10:46:24.268706	246.1	48.6	-93.1	19.7
2025-01-25 10:46:25.388182	245.8	48.3	-93.2	18.3
2025-01-25 10:46:26.509098	245.4	48.0	-92.8	15.9
2025-01-25 10:46:27.630032	245.1	47.7	-93.3	17.5
2025-01-25 10:46:28.749756	244.8	47.4	-93.2	18.9
2025-01-25 10:46:29.875937	244.5	47.1	-93.3	18.0
2025-01-25 10:46:31.013581	244.2	46.7	-92.1	15.1
2025-01-25 10:46:32.175773	243.9	46.4	-91.7	15.7
2025-01-25 10:46:33.338836	243.6	46.1	-91.7	16.8
2025-01-25 10:46:34.505575	243.3	45.8	-91.9	14.0
2025-01-25 10:46:35.669476	243.0	45.5	-91.6	19.3
2025-01-25 10:46:36.831660	242.7	45.2	-91.7	21.3
2025-01-25 10:46:37.983810	242.4	44.9	-92.6	13.8
2025-01-25 10:46:39.156011	242.1	44.6	-92.9	20.4
2025-01-25 10:46:40.320945	241.9	44.3	-92.9	21.6
2025-01-25 10:46:41.485532	241.6	44.0	-91.9	14.9
2025-01-25 10:46:42.650327	241.3	43.7	-91.8	20.1
2025-01-25 10:46:43.814095	241.1	43.4	-92.0	19.4
2025-01-25 10:46:44.981043	240.8	43.1	-92.0	15.4
2025-01-25 10:46:46.153240	240.6	42.8	-92.1	19.2
2025-01-25 10:46:47.317570	240.3	42.5	-92.0	20.1
2025-01-25 10:46:48.473399	240.1	42.2	-92.8	21.7
2025-01-25 10:46:49.635131	239.9	41.9	-92.9	20.7
2025-01-25 10:46:50.799328	239.6	41.6	-93.0	20.2
2025-01-25 10:46:51.967498	239.4	41.3	-93.0	18.1
2025-01-25 10:46:53.129139	239.2	41.0	-92.5	17.2
2025-01-25 10:46:54.295028	239.0	40.7	-92.9	19.4
2025-01-25 10:46:55.459980	238.8	40.5	-93.1	13.3
2025-01-25 10:46:56.620953	238.6	40.2	-93.2	15.2
2025-01-25 10:46:57.787959	238.4	39.9	-93.0	16.6
2025-01-25 10:46:58.945223	238.2	39.6	-93.3	12.3
2025-01-25 10:47:00.111994	238.0	39.3	-92.8	10.1
2025-01-25 10:47:01.266036	237.8	39.1	-92.9	18.0
2025-01-25 10:47:02.431223	237.6	38.8	-93.2	9.9
2025-01-25 10:47:03.599953	237.4	38.5	-92.8	11.8
2025-01-25 10:47:04.762745	237.2	38.3	-92.9	15.4
2025-01-25 10:47:05.930405	237.0	38.0	-93.0	13.0
2025-01-25 10:47:07.095811	236.8	37.7	-93.1	15.1
2025-01-25 10:47:08.257913	236.7	37.5	-92.9	19.7
2025-01-25 10:47:09.420956	236.5	37.2	-93.0	20.1
2025-01-25 10:47:10.583067	236.3	36.9	-93.3	19.4
2025-01-25 10:47:11.753823	236.1	36.7	-93.1	18.8
2025-01-25 10:47:12.915034	236.0	36.4	-93.4	17.5
2025-01-25 10:47:14.081970	235.8	36.2	-92.9	12.1
2025-01-25 10:47:15.242437	235.7	35.9	-93.3	13.2
2025-01-25 10:47:16.407557	235.5	35.7	-93.3	8.9
2025-01-25 10:47:17.568613	235.3	35.4	-93.2	12.0
2025-01-25 10:47:18.738959	235.2	35.2	-93.1	15.2
2025-01-25 10:47:19.904273	235.0	34.9	-92.7	11.3
2025-01-25 10:47:21.063742	234.9	34.7	-92.9	10.6
2025-01-25 10:47:22.224731	234.7	34.4	-92.6	16.0
2025-01-25 10:47:23.386777	234.6	34.2	-92.8	15.6
2025-01-25 10:47:24.547266	234.5	34.0	-93.3	15.6
2025-01-25 10:47:25.710609	234.3	33.7	-92.1	17.8
2025-01-25 10:47:26.877215	234.2	33.5	-92.3	16.8
2025-01-25 10:47:28.033560	234.0	33.2	-92.5	16.7
2025-01-25 10:47:29.193915	233.9	33.0	-92.3	17.1
2025-01-25 10:47:30.355909	233.8	32.8	-92.0	15.3
2025-01-25 10:47:31.517237	233.7	32.6	-92.4	14.3
2025-01-25 10:47:32.684172	233.5	32.3	-92.2	14.6
2025-01-25 10:47:33.848413	233.4	32.1	-92.0	15.0
2025-01-25 10:47:35.013342	233.3	31.9	-92.3	9.3
2025-01-25 10:47:36.175574	233.2	31.7	-91.8	15.2
2025-01-25 10:47:37.343887	233.0	31.4	-92.9	14.8
2025-01-25 10:47:38.500580	232.9	31.2	-92.8	9.6
2025-01-25 10:47:39.659867	232.8	31.0	-93.2	13.7
2025-01-25 10:47:40.823591	232.7	30.8	-93.0	12.7
2025-01-25 10:47:41.986104	232.6	30.6	-93.1	13.8
2025-01-25 10:47:43.150383	232.5	30.3	-92.7	13.3
2025-01-25 10:47:44.318120	232.3	30.1	-93.0	12.4
2025-01-25 10:47:45.480249	232.2	29.9	-93.3	6.0
2025-01-25 10:47:46.644396	232.1	29.7	-93.3	6.7
2025-01-25 10:47:47.809969	232.0	29.5	-93.5	6.9
2025-01-25 10:47:48.969284	231.9	29.3	-93.2	4.3
2025-01-25 10:47:50.137638	231.8	29.1	-93.0	6.3
2025-01-25 10:47:51.302678	231.7	28.9	-93.1	5.3
2025-01-25 10:47:52.470352	231.6	28.7	-93.1	4.3
2025-01-25 10:47:53.636608	231.5	28.5	-93.1	4.3
2025-01-25 10:47:54.797915	231.4	28.3	-93.0	3.9
2025-01-25 10:47:55.965027	231.3	28.1	-92.9	5.1
2025-01-25 10:47:57.125985	231.2	27.9	-93.0	5.3
2025-01-25 10:47:58.291020	231.1	27.7	-93.0	8.9
2025-01-25 10:47:59.446734	231.0	27.5	-93.0	9.1
2025-01-25 10:48:00.606859	230.9	27.3	-93.5	9.7
2025-01-25 10:48:01.768671	230.8	27.1	-93.3	7.3
2025-01-25 10:48:02.934475	230.8	26.9	-92.7	6.9
2025-01-25 10:48:04.099094	230.7	26.7	-92.6	4.3
2025-01-25 10:48:05.259749	230.6	26.5	-91.7	5.0
2025-01-25 10:48:06.424075	230.5	26.3	-91.6	6.0
2025-01-25 10:48:07.587220	230.4	26.1	-92.2	4.1
2025-01-25 10:48:08.746902	230.3	26.0	-92.4	3.1
2025-01-25 10:48:09.908649	230.2	25.8	-91.9	4.2
2025-01-25 10:48:11.076735	230.2	25.6	-91.6	3.7
2025-01-25 10:48:12.241607	230.1	25.4	-91.6	4.0
2025-01-25 10:48:13.409324	230.0	25.2	-91.9	4.2
2025-01-25 10:48:14.574514	229.9	25.1	-91.8	6.1
2025-01-25 10:48:15.739670	229.8	24.9	-91.6	5.9
2025-01-25 10:48:16.903881	229.8	24.7	-91.5	6.7
2025-01-25 10:48:18.063532	229.7	24.5	-91.3	9.2
2025-01-25 10:48:19.224366	229.6	24.3	-91.6	10.5
2025-01-25 10:48:20.382706	229.5	24.2	-91.9	7.3
2025-01-25 10:48:21.549317	229.4	24.0	-92.0	9.6
2025-01-25 10:48:22.710400	229.4	23.8	-93.1	11.1
2025-01-25 10:48:23.871959	229.3	23.7	-93.0	9.6
2025-01-25 10:48:25.030149	229.2	23.5	-93.0	10.0
2025-01-25 10:48:26.192438	229.2	23.3	-92.3	11.9
2025-01-25 10:48:27.354184	229.1	23.2	-92.6	12.4
2025-01-25 10:48:28.517730	229.0	23.0	-93.0	9.9
2025-01-25 10:48:29.679157	229.0	22.8	-91.8	11.3
2025-01-25 10:48:30.839027	228.9	22.7	-92.8	10.5
2025-01-25 10:48:32.000298	228.8	22.5	-92.3	10.6
2025-01-25 10:48:33.164347	228.7	22.3	-92.5	9.8
2025-01-25 10:48:34.329671	228.7	22.2	-92.6	7.5
2025-01-25 10:48:35.492630	228.6	22.0	-93.1	7.7
2025-01-25 10:48:36.655612	228.6	21.8	-93.2	11.7
2025-01-25 10:48:37.819622	228.5	21.7	-93.1	10.1
2025-01-25 10:48:38.976230	228.4	21.5	-92.4	8.8
2025-01-25 10:48:40.142634	228.4	21.4	-92.9	10.2
2025-01-25 10:48:41.307031	228.3	21.2	-92.8	13.8
2025-01-25 10:48:42.469339	228.2	21.1	-92.8	13.5
2025-01-25 10:48:43.629353	228.2	20.9	-92.7	14.1
2025-01-25 10:48:44.793942	228.1	20.8	-92.7	13.5
2025-01-25 10:48:45.963602	228.1	20.6	-92.7	14.9
2025-01-25 10:48:47.119775	228.0	20.5	-92.5	12.4
2025-01-25 10:48:48.284718	227.9	20.3	-92.9	12.9
2025-01-25 10:48:49.448775	227.9	20.2	-93.2	8.8
2025-01-25 10:48:50.613072	227.8	20.0	-92.6	11.0
2025-01-25 10:48:51.777414	227.8	19.9	-92.9	11.4
2025-01-25 10:48:52.941735	227.7	19.7	-92.8	11.2
2025-01-25 10:48:54.105730	227.7	19.6	-92.6	10.0
2025-01-25 10:48:55.272687	227.6	19.4	-92.6	12.8
2025-01-25 10:48:56.435547	227.6	19.3	-92.5	11.4
2025-01-25 10:48:57.600575	227.5	19.1	-92.4	12.0
2025-01-25 10:48:58.762059	227.5	19.0	-93.0	10.8
2025-01-25 10:48:59.920004	227.4	18.8	-92.7	11.0
2025-01-25 10:49:01.066688	227.3	18.7	-92.4	10.8
2025-01-25 10:49:02.188694	227.3	18.6	-92.9	10.6
2025-01-25 10:49:03.311186	227.2	18.4	-92.7	11.4
2025-01-25 10:49:04.430775	227.2	18.3	-92.6	6.8
2025-01-25 10:49:05.551372	227.2	18.2	-92.9	7.9
2025-01-25 10:49:06.671881	227.1	18.0	-92.6	10.8
2025-01-25 10:49:07.792939	227.1	17.9	-92.8	12.9
2025-01-25 10:49:08.913415	227.0	17.8	-93.0	10.7
2025-01-25 10:49:10.038696	227.0	17.6	-92.7	10.2
2025-01-25 10:49:11.164868	226.9	17.5	-93.0	12.7
2025-01-25 10:49:12.318276	226.9	17.4	-93.0	14.0
2025-01-25 10:49:13.481563	226.8	17.2	-92.7	11.7
2025-01-25 10:49:14.640664	226.8	17.1	-92.2	13.4
2025-01-25 10:49:15.808257	226.7	17.0	-91.8	11.7
2025-01-25 10:49:16.959885	226.7	16.8	-92.6	9.4
2025-01-25 10:49:18.124635	226.6	16.7	-92.9	11.8
2025-01-25 10:49:19.275470	226.6	16.6	-92.3	11.3
2025-01-25 10:49:20.439185	226.6	16.5	-93.1	10.9
2025-01-25 10:49:21.603298	226.5	16.3	-93.1	9.7
2025-01-25 10:49:22.768904	226.5	16.2	-93.0	10.1
2025-01-25 10:49:23.933673	226.4	16.1	-93.1	10.8
2025-01-25 10:49:25.100411	226.4	15.9	-92.6	11.2
2025-01-25 10:49:26.266664	226.3	15.8	-92.6	9.3
2025-01-25 10:49:27.427879	226.3	15.7	-92.8	9.7
2025-01-25 10:49:28.587240	226.3	15.6	-92.9	6.3
2025-01-25 10:49:29.743710	226.2	15.4	-92.8	9.3
2025-01-25 10:49:30.908219	226.2	15.3	-93.1	7.5
2025-01-25 10:49:32.071764	226.1	15.2	-93.3	6.8
2025-01-25 10:49:33.238203	226.1	15.1	-93.0	8.0
2025-01-25 10:49:34.401865	226.1	14.9	-93.0	8.3
2025-01-25 10:49:35.565896	226.0	14.8	-93.4	8.6
2025-01-25 10:49:36.733438	226.0	14.7	-91.9	6.5
2025-01-25 10:49:37.897699	225.9	14.6	-92.3	8.8
2025-01-25 10:49:39.057747	225.9	14.5	-92.0	6.0
#Closed at: 2025-01-25 10:40:33.628051